X,Y,Z,Reflectivity
38.728,-0.995,1.551,11.0
38.688,-0.997,1.35,30.0
28.381,-0.736,1.783,71.0
28.373,-0.737,1.635,66.0
28.378,-0.739,1.489,62.0
38.627,-1.009,1.823,46.0
38.63,-1.011,1.622,55.0
38.696,-1.015,1.425,34.0
28.383,-0.749,1.838,73.0
28.376,-0.751,1.691,68.0
28.377,-0.752,1.544,68.0
38.575,-1.024,1.895,38.0
38.634,-1.028,1.698,54.0
38.669,-1.03,1.5,40.0
28.384,-0.761,1.894,73.0
28.383,-0.762,1.747,67.0
28.383,-0.764,1.599,69.0
38.582,-1.039,1.97,7.0
38.632,-1.042,1.773,58.0
38.641,-1.044,1.573,66.0
28.382,-0.772,1.949,73.0
28.376,-0.773,1.801,71.0
28.381,-0.774,1.654,65.0
28.376,-0.775,1.504,67.0
38.583,-1.055,1.845,53.0
38.635,-1.057,1.647,77.0
28.382,-0.782,2.004,73.0
28.38,-0.782,1.856,71.0
28.371,-0.783,1.708,65.0
28.373,-0.784,1.558,68.0
38.546,-1.065,1.917,37.0
38.63,-1.069,1.721,65.0
28.375,-0.79,2.058,76.0
28.375,-0.791,1.91,70.0
28.371,-0.791,1.762,69.0
28.38,-0.792,1.613,70.0
28.386,-0.792,1.466,60.0
38.602,-1.078,1.794,56.0
28.378,-0.797,2.113,73.0
28.382,-0.798,1.965,74.0
28.385,-0.798,1.817,72.0
28.385,-0.798,1.667,70.0
28.387,-0.799,1.519,70.0
38.552,-1.085,1.864,52.0
28.38,-0.804,2.166,73.0
28.369,-0.803,2.018,71.0
28.369,-0.804,1.87,69.0
28.376,-0.804,1.72,66.0
28.379,-0.804,1.573,73.0
38.532,-1.092,1.936,23.0
28.382,-0.809,2.221,75.0
28.375,-0.808,2.072,72.0
28.375,-0.808,1.924,71.0
28.38,-0.808,1.774,69.0
28.383,-0.808,1.626,72.0
28.383,-0.808,1.479,67.0
28.381,-0.813,2.274,76.0
28.377,-0.812,2.125,72.0
28.369,-0.812,1.977,73.0
28.376,-0.812,1.827,73.0
28.373,-0.811,1.679,72.0
28.38,-0.811,1.532,73.0
28.381,-0.816,2.328,75.0
28.378,-0.815,2.179,73.0
28.375,-0.814,2.03,71.0
28.378,-0.814,1.88,73.0
28.382,-0.814,1.733,71.0
28.384,-0.813,1.585,73.0
28.376,-0.818,2.381,78.0
28.377,-0.817,2.232,71.0
28.371,-0.816,2.083,71.0
28.381,-0.815,1.933,72.0
28.373,-0.814,1.785,71.0
28.388,-0.814,1.638,73.0
28.369,-0.818,2.433,84.0
28.371,-0.817,2.285,70.0
28.38,-0.816,2.137,69.0
28.37,-0.815,1.985,73.0
28.374,-0.814,1.837,71.0
28.385,-0.814,1.69,71.0
28.375,-0.818,2.486,94.0
28.373,-0.817,2.337,70.0
28.376,-0.816,2.189,70.0
28.375,-0.814,2.037,71.0
28.371,-0.813,1.889,72.0
28.38,-0.812,1.741,70.0
28.367,-0.816,2.537,80.0
28.368,-0.815,2.388,75.0
28.37,-0.814,2.24,73.0
28.374,-0.812,2.089,72.0
28.376,-0.811,1.94,74.0
28.383,-0.81,1.793,75.0
28.357,-0.814,2.588,66.0
28.367,-0.812,2.439,83.0
28.363,-0.81,2.29,70.0
28.37,-0.809,2.139,70.0
28.374,-0.808,1.991,74.0
28.377,-0.806,1.843,73.0
44.527,-1.272,4.143,8.0
28.37,-0.808,2.49,100.0
28.374,-0.807,2.341,70.0
28.376,-0.805,2.189,71.0
28.371,-0.803,2.04,70.0
28.383,-0.801,1.893,72.0
0.0,0.0,0.0,0.0
28.36,-0.803,2.539,86.0
28.364,-0.801,2.39,74.0
28.364,-0.799,2.238,69.0
28.373,-0.798,2.09,71.0
28.379,-0.796,1.942,74.0
0.0,0.0,0.0,0.0
28.361,-0.798,2.589,75.0
28.363,-0.795,2.439,81.0
28.366,-0.793,2.288,68.0
28.375,-0.791,2.139,69.0
28.374,-0.789,1.99,73.0
44.504,-1.244,4.375,9.0
47.104,-1.313,4.382,5.0
28.366,-0.788,2.489,79.0
28.363,-0.786,2.336,69.0
28.368,-0.783,2.188,72.0
28.372,-0.781,2.039,69.0
55.452,-1.536,5.547,6.0
47.134,-1.301,4.465,12.0
28.361,-0.78,2.537,70.0
28.367,-0.777,2.385,69.0
28.375,-0.775,2.236,70.0
28.372,-0.772,2.086,70.0
54.717,-1.498,5.566,5.0
50.815,-1.386,4.9,3.0
28.358,-0.771,2.584,62.0
28.364,-0.768,2.432,68.0
28.372,-0.765,2.283,72.0
28.37,-0.763,2.133,69.0
47.383,-1.281,4.899,3.0
50.686,-1.365,4.971,4.0
28.35,-0.76,2.63,50.0
28.362,-0.758,2.478,65.0
28.37,-0.755,2.329,69.0
28.369,-0.752,2.179,70.0
47.396,-1.263,4.978,39.0
47.266,-1.255,4.712,30.0
47.161,-1.246,4.451,18.0
28.354,-0.746,2.523,68.0
28.369,-0.744,2.374,74.0
28.364,-0.74,2.224,69.0
52.327,-1.373,5.579,10.0
47.284,-1.235,4.79,16.0
47.148,-1.226,4.526,14.0
28.352,-0.734,2.568,69.0
28.369,-0.731,2.419,76.0
28.366,-0.728,2.269,69.0
41.018,-1.058,4.439,6.0
47.157,-1.21,4.852,17.0
57.806,-1.477,5.639,2.0
28.352,-0.72,2.612,62.0
28.364,-0.718,2.463,80.0
28.363,-0.714,2.312,71.0
40.742,-1.031,4.472,6.0
51.703,-1.302,5.399,6.0
58.002,-1.453,5.748,2.0
44.42,-1.107,4.161,16.0
28.348,-0.703,2.505,77.0
28.363,-0.7,2.355,73.0
44.526,-1.104,4.956,7.0
54.37,-1.341,5.762,4.0
51.735,-1.269,5.206,57.0
51.809,-1.264,4.932,18.0
28.359,-0.688,2.548,70.0
28.365,-0.684,2.398,72.0
44.309,-1.074,4.999,43.0
51.722,-1.247,5.558,30.0
51.792,-1.241,5.288,4.0
44.36,-1.057,4.288,14.0
28.358,-0.672,2.59,66.0
28.359,-0.668,2.439,77.0
51.697,-1.223,5.908,7.0
44.669,-1.051,4.866,26.0
53.933,-1.261,5.585,2.0
44.29,-1.029,4.345,10.0
28.344,-0.654,2.629,54.0
28.354,-0.651,2.479,74.0
40.143,-0.926,4.646,5.0
44.635,-1.022,4.926,30.0
44.627,-1.016,4.685,55.0
44.342,-1.003,4.413,14.0
31.455,-0.706,2.962,41.0
28.35,-0.633,2.518,75.0
24.821,-0.556,2.908,7.0
44.694,-0.995,4.995,11.0
44.646,-0.987,4.749,41.0
44.573,-0.978,4.498,50.0
31.464,-0.686,3.006,70.0
28.348,-0.613,2.557,71.0
24.819,-0.539,2.942,38.0
40.556,-0.875,4.588,4.0
51.955,-1.113,5.598,10.0
44.62,-0.949,4.563,15.0
31.474,-0.665,3.049,60.0
28.345,-0.594,2.594,71.0
24.802,-0.522,2.973,43.0
40.399,-0.843,4.624,26.0
58.137,-1.205,6.341,10.0
44.427,-0.914,4.601,26.0
31.473,-0.642,3.09,40.0
28.341,-0.573,2.631,59.0
24.812,-0.504,3.006,40.0
40.325,-0.813,4.668,10.0
40.394,-0.808,4.457,4.0
44.438,-0.881,4.66,7.0
31.523,-0.619,3.136,39.0
37.734,-0.736,3.551,34.0
24.78,-0.485,3.034,27.0
40.588,-0.787,4.749,13.0
51.39,-0.988,5.735,6.0
40.427,-0.77,4.289,3.0
31.562,-0.596,3.178,31.0
37.733,-0.707,3.596,46.0
24.776,-0.465,3.064,22.0
42.648,-0.794,5.043,2.0
43.867,-0.809,4.949,5.0
31.759,-0.58,3.408,7.0
31.605,-0.571,3.221,23.0
37.716,-0.676,3.64,33.0
37.589,-0.676,4.694,2.0
37.543,-0.668,4.484,1.0
44.016,-0.776,5.018,18.0
45.713,-0.798,4.959,6.0
31.665,-0.547,3.264,27.0
37.674,-0.644,3.679,10.0
41.109,-0.705,5.182,12.0
37.555,-0.637,4.529,12.0
40.465,-0.679,4.66,9.0
37.649,-0.625,4.127,5.0
31.716,-0.521,3.305,20.0
37.658,-0.612,3.72,46.0
40.639,-0.661,5.169,3.0
46.704,-0.752,5.685,6.0
37.597,-0.598,4.371,52.0
37.593,-0.592,4.162,69.0
31.792,-0.494,3.347,22.0
37.636,-0.579,3.758,60.0
37.7,-0.58,4.836,35.0
37.69,-0.573,4.628,53.0
44.377,-0.667,5.207,4.0
37.593,-0.558,4.202,37.0
31.817,-0.466,3.383,44.0
37.649,-0.545,3.799,19.0
0.0,0.0,0.0,0.0
46.287,-0.663,5.732,1.0
42.851,-0.605,5.072,1.0
40.039,-0.558,4.516,5.0
31.855,-0.438,3.419,61.0
52.116,-0.707,5.311,1.0
40.538,-0.55,5.283,8.0
44.551,-0.596,5.562,14.0
46.601,-0.615,5.562,3.0
54.016,-0.702,6.146,31.0
31.83,-0.407,3.448,49.0
54.225,-0.684,5.579,28.0
40.64,-0.513,5.336,6.0
36.255,-0.45,4.561,4.0
44.251,-0.541,5.324,0.0
54.124,-0.652,6.209,7.0
31.839,-0.377,3.478,48.0
43.313,-0.505,4.495,5.0
40.675,-0.474,5.378,4.0
34.266,-0.393,4.342,1.0
0.0,0.0,0.0,0.0
40.599,-0.45,4.694,4.0
31.827,-0.346,3.505,44.0
55.082,-0.589,5.765,7.0
38.53,-0.411,5.129,7.0
37.791,-0.396,4.822,2.0
0.0,0.0,0.0,0.0
0.0,0.0,0.0,0.0
31.841,-0.315,3.533,70.0
0.0,0.0,0.0,0.0
40.762,-0.395,5.46,2.0
0.0,0.0,0.0,0.0
37.416,-0.348,4.598,37.0
36.843,-0.336,4.32,13.0
31.844,-0.283,3.559,57.0
52.211,-0.455,5.549,64.0
32.422,-0.281,4.368,2.0
37.78,-0.32,4.881,4.0
47.747,-0.395,5.904,14.0
36.633,-0.296,4.324,12.0
31.842,-0.251,3.583,44.0
46.989,-0.361,5.03,47.0
32.607,-0.249,4.418,9.0
37.764,-0.281,4.907,5.0
47.273,-0.342,5.881,42.0
47.219,-0.333,5.608,6.0
31.849,-0.218,3.607,48.0
38.89,-0.258,4.19,55.0
47.329,-0.312,6.446,8.0
47.185,-0.301,6.164,6.0
0.0,0.0,0.0,0.0
38.686,-0.231,4.621,59.0
31.866,-0.185,3.63,45.0
39.072,-0.218,4.236,55.0
36.482,-0.201,4.994,7.0
37.527,-0.199,4.928,34.0
38.433,-0.196,4.833,53.0
41.089,-0.202,4.934,5.0
31.894,-0.151,3.653,44.0
39.252,-0.177,4.28,10.0
39.139,-0.174,5.381,5.0
37.881,-0.161,4.997,51.0
38.819,-0.157,4.904,1.0
31.94,-0.123,3.854,29.0
31.911,-0.117,3.674,27.0
46.18,-0.16,5.061,4.0
36.4,-0.122,5.026,11.0
0.0,0.0,0.0,0.0
31.937,-0.095,4.053,42.0
31.949,-0.088,3.873,62.0
36.547,-0.094,4.228,5.0
52.165,-0.124,5.745,19.0
38.493,-0.087,5.335,6.0
39.316,-0.081,5.229,4.0
31.958,-0.06,4.072,67.0
31.945,-0.054,3.889,35.0
57.796,-0.086,6.714,8.0
42.58,-0.055,4.71,2.0
32.086,-0.037,4.463,48.0
31.963,-0.031,4.266,71.0
31.97,-0.024,4.088,8.0
39.751,-0.022,4.857,7.0
36.519,-0.013,4.259,5.0
36.534,-0.006,4.057,11.0
37.536,-0.001,5.237,29.0
31.942,0.004,4.277,48.0
36.381,0.012,4.668,30.0
36.16,0.019,4.433,12.0
39.787,0.029,4.656,2.0
36.608,0.034,4.08,20.0
31.934,0.034,4.468,69.0
31.931,0.04,4.288,23.0
32.639,0.047,4.2,8.0
36.089,0.06,4.438,4.0
39.622,0.074,4.651,3.0
30.559,0.063,3.417,23.0
32.051,0.07,4.496,8.0
47.33,0.114,6.373,8.0
0.0,0.0,0.0,0.0
53.378,0.15,6.582,14.0
36.2,0.108,4.261,1.0
30.514,0.097,3.421,41.0
30.391,0.102,4.272,7.0
33.225,0.118,4.483,3.0
39.082,0.146,5.053,12.0
32.999,0.13,4.078,3.0
30.497,0.125,3.597,62.0
30.516,0.131,3.429,42.0
39.267,0.176,5.53,3.0
30.41,0.142,4.111,25.0
30.394,0.148,3.937,5.0
30.413,0.154,3.765,40.0
30.479,0.16,3.602,57.0
30.505,0.166,3.434,21.0
54.006,0.304,7.617,28.0
38.927,0.227,5.27,5.0
30.366,0.183,3.939,39.0
30.4,0.189,3.769,31.0
40.218,0.258,4.76,4.0
30.563,0.201,3.446,4.0
38.753,0.263,5.472,14.0
30.321,0.211,4.109,44.0
30.369,0.217,3.944,41.0
30.407,0.223,3.774,22.0
51.847,0.39,6.143,5.0
36.291,0.28,4.096,4.0
30.298,0.24,4.281,60.0
30.335,0.246,4.114,0.0
30.38,0.252,3.948,42.0
42.048,0.357,5.223,1.0
40.243,0.349,4.771,2.0
36.309,0.321,4.101,5.0
47.003,0.427,6.645,7.0
33.403,0.309,4.532,6.0
39.288,0.371,5.108,3.0
42.071,0.405,5.227,2.0
40.239,0.395,4.772,3.0
36.323,0.363,4.103,3.0
38.808,0.397,5.487,9.0
22.742,0.236,3.086,3.0
30.461,0.322,3.96,23.0
48.072,0.517,5.973,1.0
53.994,0.591,6.403,7.0
30.988,0.345,3.5,36.0
38.714,0.44,5.473,6.0
48.682,0.562,6.604,3.0
30.464,0.357,3.959,12.0
54.205,0.645,6.732,10.0
31.028,0.375,3.678,4.0
31.039,0.38,3.503,43.0
53.098,0.664,7.502,8.0
51.765,0.656,7.018,4.0
30.469,0.391,3.957,2.0
47.921,0.624,5.947,14.0
31.06,0.41,3.678,58.0
46.54,0.622,5.248,15.0
53.915,0.734,7.611,11.0
51.71,0.713,7.004,1.0
35.916,0.502,4.66,1.0
47.896,0.677,5.937,8.0
31.037,0.444,3.671,35.0
52.239,0.757,5.882,8.0
51.601,0.762,7.276,8.0
48.101,0.719,6.507,2.0
35.891,0.542,4.65,2.0
31.046,0.474,3.842,24.0
46.456,0.718,5.485,12.0
47.694,0.745,5.361,12.0
57.158,0.909,8.047,32.0
30.879,0.496,4.17,28.0
39.371,0.639,5.092,2.0
31.071,0.51,3.838,55.0
47.074,0.78,5.546,8.0
48.026,0.803,5.386,9.0
56.938,0.969,8.001,13.0
30.486,0.523,4.109,24.0
39.291,0.681,5.07,3.0
31.064,0.544,3.828,6.0
47.221,0.834,5.55,6.0
52.261,0.932,5.845,4.0
58.815,1.066,8.246,7.0
30.603,0.56,4.115,28.0
31.066,0.573,3.999,43.0
46.399,0.864,5.702,8.0
47.048,0.883,5.514,8.0
36.989,0.7,4.124,3.0
31.099,0.598,4.349,43.0
30.799,0.597,4.13,43.0
31.064,0.607,3.987,30.0
49.115,0.968,6.018,3.0
47.049,0.935,5.496,6.0
52.481,1.05,5.832,20.0
31.094,0.632,4.336,3.0
30.929,0.633,4.135,26.0
31.094,0.641,3.978,8.0
47.425,0.986,5.791,4.0
52.555,1.1,6.117,38.0
46.242,0.975,5.118,12.0
53.099,1.137,7.38,24.0
31.086,0.67,4.141,19.0
46.433,1.007,5.919,5.0
52.541,1.148,6.391,18.0
52.399,1.153,6.074,7.0
46.7,1.034,5.146,10.0
40.374,0.907,5.592,3.0
31.084,0.703,4.125,20.0
46.437,1.057,5.896,3.0
47.043,1.077,5.698,11.0
47.433,1.093,5.474,12.0
46.589,1.081,5.11,36.0
30.613,0.72,4.223,13.0
39.347,0.931,5.201,9.0
52.638,1.253,6.654,4.0
47.236,1.131,5.695,8.0
46.86,1.128,5.381,5.0
0.0,0.0,0.0,0.0
30.555,0.75,4.197,25.0
39.332,0.971,5.176,12.0
47.731,1.185,6.006,12.0
47.292,1.18,5.673,14.0
46.62,1.17,5.325,11.0
59.537,1.502,6.46,1.0
30.676,0.784,4.194,9.0
54.328,1.396,7.115,10.0
52.192,1.348,6.534,5.0
46.629,1.211,5.564,32.0
58.916,1.538,6.691,10.0
57.731,1.515,6.226,2.0
39.379,1.047,5.358,9.0
52.069,1.391,6.783,3.0
46.64,1.252,5.807,20.0
52.6,1.418,6.24,4.0
46.23,1.252,5.219,7.0
46.422,1.263,4.974,4.0
33.654,0.928,4.555,2.0
46.694,1.293,6.049,29.0
33.552,0.933,4.153,1.0
52.661,1.47,6.209,9.0
46.189,1.296,5.18,10.0
46.415,1.308,4.939,5.0
46.613,1.33,6.274,16.0
59.283,1.698,7.635,7.0
52.391,1.507,6.444,1.0
59.232,1.711,6.938,14.0
46.174,1.339,5.142,6.0
59.282,1.726,6.262,17.0
46.521,1.371,6.224,7.0
46.755,1.383,5.984,2.0
47.461,1.409,5.8,8.0
52.635,1.569,6.123,0.0
58.995,1.765,6.522,32.0
57.661,1.732,6.044,6.0
39.35,1.196,5.232,4.0
52.438,1.599,6.667,8.0
60.237,1.843,7.31,10.0
59.708,1.834,6.895,20.0
46.643,1.437,5.117,31.0
66.614,2.06,6.925,7.0
39.286,1.229,5.189,3.0
60.255,1.892,7.608,19.0
60.606,1.909,7.301,11.0
58.826,1.859,6.74,32.0
46.673,1.48,5.078,4.0
57.528,1.83,5.928,1.0
54.3,1.746,7.122,1.0
60.49,1.951,7.582,2.0
59.645,1.93,7.13,26.0
46.622,1.513,5.299,16.0
46.73,1.521,5.041,3.0
58.555,1.912,5.979,4.0
48.1,1.588,6.262,3.0
47.559,1.574,5.915,1.0
66.851,2.219,7.927,7.0
46.625,1.552,5.254,16.0
46.425,1.55,4.963,5.0
60.807,2.036,6.15,5.0
52.32,1.77,6.76,4.0
47.652,1.616,5.879,4.0
52.663,1.791,6.192,4.0
46.416,1.583,5.183,9.0
46.259,1.582,4.898,6.0
52.413,1.797,5.247,4.0
59.578,2.064,7.636,6.0
47.646,1.654,5.829,2.0
46.718,1.626,5.444,15.0
46.449,1.621,5.138,20.0
46.165,1.615,4.84,5.0
60.155,2.11,5.959,15.0
58.788,2.083,7.47,1.0
47.559,1.688,5.766,2.0
46.774,1.664,5.399,5.0
46.557,1.66,5.099,12.0
46.163,1.65,4.789,2.0
52.456,1.879,5.138,4.0
59.923,2.168,7.548,2.0
46.788,1.696,5.62,17.0
46.645,1.694,5.332,10.0
46.742,1.701,5.066,4.0
60.325,2.201,6.19,22.0
53.318,1.949,5.162,11.0
47.626,1.757,5.944,5.0
52.622,1.945,6.26,4.0
46.599,1.726,5.272,8.0
60.19,2.234,6.455,24.0
46.044,1.712,4.67,3.0
43.763,1.63,4.186,3.0
46.901,1.763,5.798,8.0
46.703,1.759,5.5,0.0
46.607,1.758,5.218,5.0
60.185,2.274,6.382,5.0
60.261,2.281,6.041,4.0
43.064,1.632,4.068,3.0
46.784,1.79,5.726,10.0
60.339,2.311,7.033,14.0
46.234,1.774,5.12,11.0
46.652,1.793,4.89,6.0
60.209,2.317,5.962,4.0
46.115,1.777,4.299,6.0
39.402,1.532,4.773,2.0
53.169,2.07,6.131,2.0
46.198,1.802,5.057,6.0
46.044,1.798,4.768,8.0
52.461,2.051,5.128,5.0
46.164,1.808,4.245,3.0
52.647,2.079,6.31,1.0
59.682,2.36,6.804,26.0
46.373,1.836,5.016,2.0
46.051,1.825,4.709,3.0
57.264,2.272,5.524,4.0
53.56,2.128,4.856,2.0
0.0,0.0,0.0,0.0
46.766,1.875,5.27,8.0
46.746,1.877,4.995,7.0
66.326,2.666,6.695,4.0
43.58,1.753,4.146,2.0
53.341,2.148,4.765,3.0
59.78,2.427,7.004,16.0
46.397,1.886,5.165,4.0
46.68,1.899,4.924,6.0
60.209,2.451,5.995,5.0
46.097,1.879,4.322,5.0
47.015,1.918,4.136,6.0
59.114,2.43,6.845,20.0
46.193,1.9,5.078,8.0
60.08,2.474,6.255,6.0
52.389,2.159,5.144,7.0
46.064,1.899,4.255,6.0
46.998,1.94,4.069,12.0
47.06,1.957,5.382,3.0
46.195,1.922,5.013,2.0
45.953,1.913,4.719,4.0
52.411,2.184,5.072,10.0
53.631,2.236,4.878,9.0
46.953,1.959,3.998,4.0
46.848,1.968,5.29,7.0
46.248,1.944,4.952,2.0
45.95,1.933,4.652,3.0
43.547,1.833,4.15,3.0
53.497,2.253,4.787,4.0
43.592,1.836,3.648,3.0
46.58,1.976,5.191,8.0
46.689,1.982,4.93,7.0
43.916,1.864,4.381,1.0
46.032,1.955,4.319,10.0
47.053,1.999,4.142,4.0
0.0,0.0,0.0,0.0
46.258,1.979,5.086,10.0
46.893,2.007,4.881,4.0
52.409,2.244,5.149,5.0
49.447,2.118,4.565,1.0
47.029,2.014,4.068,15.0
52.651,2.256,4.25,3.0
46.218,1.994,5.01,3.0
45.937,1.981,4.711,3.0
52.416,2.261,5.07,4.0
59.156,2.552,5.372,14.0
47.046,2.03,3.998,4.0
68.157,2.941,5.397,9.0
60.223,2.615,6.435,5.0
45.916,1.994,4.638,2.0
46.028,1.998,4.381,3.0
50.62,2.198,4.518,1.0
43.657,1.896,3.642,3.0
52.915,2.298,4.108,2.0
46.829,2.046,4.93,7.0
43.998,1.921,4.375,1.0
46.021,2.009,4.307,6.0
47.053,2.054,4.125,8.0
52.633,2.298,4.308,7.0
47.338,2.066,3.6,4.0
46.907,2.059,4.863,5.0
65.713,2.885,6.428,6.0
59.32,2.603,5.457,5.0
47.02,2.062,4.047,15.0
52.625,2.308,4.223,3.0
47.369,2.077,3.527,6.0
45.908,2.024,4.686,4.0
43.513,1.917,4.187,3.0
50.635,2.23,4.576,1.0
43.322,1.907,3.658,2.0
65.777,2.895,5.173,2.0
47.329,2.082,3.447,3.0
45.893,2.03,4.608,1.0
46.026,2.034,4.353,8.0
53.173,2.349,4.719,1.0
43.715,1.93,3.62,2.0
47.226,2.084,3.636,1.0
67.833,2.993,4.83,7.0
59.21,2.625,5.848,2.0
46.062,2.04,4.281,3.0
47.039,2.082,4.097,14.0
52.66,2.33,4.274,8.0
47.367,2.095,3.569,4.0
68.257,3.017,4.746,9.0
52.53,2.332,5.1,3.0
59.554,2.642,5.434,6.0
47.055,2.086,4.019,8.0
52.462,2.324,4.17,2.0
47.35,2.096,3.488,5.0
68.631,3.036,4.657,4.0
46.02,2.045,4.389,5.0
50.48,2.241,4.52,1.0
43.562,1.932,3.647,3.0
47.224,2.092,3.673,1.0
68.288,3.023,4.914,6.0
69.559,3.077,4.602,3.0
46.024,2.044,4.311,6.0
47.051,2.088,4.133,5.0
52.746,2.338,4.326,6.0
47.278,2.093,3.597,3.0
0.0,0.0,0.0,0.0
68.881,3.044,4.441,2.0
59.459,2.638,5.468,6.0
47.059,2.085,4.053,13.0
52.685,2.332,4.23,4.0
47.337,2.093,3.52,6.0
68.133,3.009,4.672,4.0
67.21,2.965,4.218,1.0
50.608,2.241,4.567,1.0
43.445,1.921,3.666,2.0
65.768,2.904,5.166,3.0
47.312,2.087,3.437,2.0
69.498,3.061,4.645,2.0
67.304,2.961,4.107,3.0
59.168,2.612,5.236,4.0
0.0,0.0,0.0,0.0
47.238,2.079,3.629,2.0
67.379,2.962,4.778,7.0
68.938,3.027,4.486,4.0
68.769,3.015,4.077,0.0
47.044,2.069,4.08,15.0
52.692,2.314,4.262,4.0
47.344,2.075,3.553,5.0
67.679,2.962,4.679,10.0
68.814,3.007,4.357,2.0
195.793,8.546,11.261,16.0
47.066,2.06,3.998,2.0
66.727,2.915,5.279,8.0
68.525,2.989,5.022,3.0
67.622,2.944,4.555,1.0
67.309,2.926,4.144,3.0
195.372,8.482,10.892,24.0
52.36,2.278,4.354,7.0
47.269,2.053,3.655,3.0
68.109,2.953,4.87,12.0
69.475,3.007,4.557,2.0
67.306,2.907,4.024,1.0
195.086,8.415,10.533,22.0
52.638,2.275,4.284,4.0
47.353,2.042,3.577,10.0
66.908,2.881,4.665,4.0
68.773,2.955,4.388,5.0
195.648,8.391,11.348,8.0
193.979,8.306,10.125,26.0
52.812,2.265,4.203,3.0
47.477,2.032,3.501,1.0
203.353,8.687,13.814,6.0
67.362,2.871,4.177,5.0
195.503,8.316,10.988,13.0
194.067,8.24,9.781,21.0
47.288,2.011,3.678,7.0
68.228,2.894,4.909,7.0
69.396,2.937,4.588,6.0
67.395,2.846,4.058,2.0
195.127,8.223,10.616,16.0
194.283,8.17,9.442,21.0
51.712,2.177,3.927,4.0
67.524,2.836,4.734,13.0
69.146,2.897,4.446,6.0
68.616,2.868,4.006,1.0
194.125,8.095,10.206,24.0
194.877,8.109,9.117,6.0
51.762,2.155,3.836,2.0
67.323,2.796,4.598,2.0
69.304,2.872,4.33,4.0
198.428,8.201,11.226,5.0
194.187,8.008,9.86,21.0
194.87,8.015,8.766,15.0
68.55,2.821,4.957,3.0
69.227,2.842,4.603,3.0
67.388,2.758,4.088,3.0
194.843,7.954,10.671,22.0
194.249,7.91,9.511,17.0
194.95,7.917,8.416,5.0
67.374,2.737,4.749,8.0
68.999,2.794,4.462,4.0
68.732,2.776,4.045,2.0
194.776,7.844,10.311,24.0
194.539,7.812,9.171,18.0
195.41,7.827,8.081,18.0
67.705,2.711,4.649,9.0
68.592,2.738,4.31,7.0
0.0,0.0,0.0,0.0
194.515,7.717,9.941,29.0
195.21,7.723,8.846,16.0
195.573,7.713,7.73,20.0
68.654,2.707,4.588,6.0
67.426,2.65,4.114,5.0
0.0,0.0,0.0,0.0
194.777,7.607,9.603,20.0
195.519,7.611,8.506,5.0
0.0,0.0,0.0,0.0
68.845,2.669,4.475,2.0
67.462,2.607,3.993,2.0
196.007,7.547,10.462,7.0
195.185,7.49,9.267,10.0
197.842,7.567,8.246,5.0
193.589,7.379,6.948,11.0
68.495,2.608,4.328,5.0
103.601,3.931,5.943,2.0
0.0,0.0,0.0,0.0
196.05,7.384,8.954,5.0
194.782,7.312,7.769,7.0
193.494,7.236,6.596,7.0
103.364,3.86,6.343,4.0
202.384,7.53,11.245,10.0
195.401,7.241,9.722,21.0
195.93,7.232,8.591,5.0
194.215,7.143,7.392,24.0
0.0,0.0,0.0,0.0
67.423,2.465,4.015,3.0
196.538,7.159,10.564,14.0
195.583,7.095,9.376,10.0
196.467,7.098,8.261,13.0
193.508,6.962,7.015,20.0
194.716,6.978,5.931,5.0
0.0,0.0,0.0,0.0
196.96,7.012,10.229,6.0
104.506,3.705,4.821,3.0
193.473,6.829,7.784,23.0
193.656,6.806,6.671,5.0
194.811,6.816,5.582,8.0
103.689,3.618,5.798,1.0
196.016,6.809,9.823,9.0
196.249,6.786,8.697,17.0
193.512,6.662,7.435,21.0
193.524,6.631,6.314,18.0
0.0,0.0,0.0,0.0
118.464,4.027,6.408,5.0
104.361,3.53,5.04,5.0
196.124,6.604,8.338,7.0
193.812,6.494,7.097,25.0
0.0,0.0,0.0,0.0
195.517,6.486,4.895,8.0
117.743,3.893,6.159,5.0
102.34,3.366,4.759,3.0
193.762,6.34,7.889,25.0
193.365,6.296,6.736,8.0
194.886,6.313,5.662,12.0
194.675,6.273,4.53,17.0
103.878,3.334,5.248,11.0
102.339,3.267,4.578,5.0
193.642,6.147,7.54,22.0
193.144,6.097,6.382,19.0
194.127,6.095,5.292,19.0
193.826,6.052,4.165,26.0
117.994,3.667,5.751,3.0
194.017,5.994,8.331,14.0
193.747,5.953,7.2,21.0
193.169,5.9,6.043,20.0
193.944,5.889,4.945,25.0
193.703,5.849,3.821,22.0
101.937,3.062,4.789,2.0
193.403,5.774,7.967,9.0
193.955,5.756,6.869,11.0
196.092,5.783,5.792,9.0
193.856,5.681,4.605,32.0
194.162,5.656,3.491,5.0
124.71,3.611,5.641,4.0
193.737,5.574,7.643,12.0
193.217,5.524,6.506,25.0
194.278,5.517,5.399,18.0
193.627,5.462,4.263,32.0
196.75,5.515,3.198,4.0
102.44,2.853,4.458,4.0
193.997,5.368,7.322,7.0
193.23,5.308,6.175,28.0
194.456,5.304,5.072,26.0
193.542,5.242,3.931,30.0
195.401,5.255,2.842,23.0
102.517,2.737,4.284,4.0
0.0,0.0,0.0,0.0
194.538,5.119,5.885,6.0
193.903,5.066,4.728,34.0
193.562,5.018,3.604,34.0
195.163,5.02,2.507,12.0
102.69,2.621,4.117,3.0
0.0,0.0,0.0,0.0
194.514,4.885,5.551,15.0
193.949,4.831,4.397,29.0
193.564,4.784,3.274,11.0
0.0,0.0,0.0,0.0
0.0,0.0,0.0,0.0
0.0,0.0,0.0,0.0
194.462,4.646,5.224,23.0
193.892,4.59,4.07,26.0
195.227,4.581,2.973,23.0
0.0,0.0,0.0,0.0
0.0,0.0,0.0,0.0
194.896,4.453,6.036,12.0
194.466,4.4,4.9,23.0
0.0,0.0,0.0,0.0
195.385,4.336,2.651,11.0
0.0,0.0,0.0,0.0
0.0,0.0,0.0,0.0
194.867,4.197,5.711,19.0
194.538,4.146,4.578,11.0
195.503,4.126,3.456,8.0
103.148,2.153,1.229,6.0
100.015,2.065,0.615,4.0
0.0,0.0,0.0,0.0
195.076,3.943,5.398,6.0
194.378,3.884,4.257,17.0
0.0,0.0,0.0,0.0
0.0,0.0,0.0,0.0
99.932,1.928,0.451,6.0
148.863,2.837,4.732,2.0
194.725,3.667,5.069,6.0
194.518,3.621,3.945,14.0
0.0,0.0,0.0,0.0
99.822,1.813,0.867,1.0
99.848,1.79,0.292,13.0
0.0,0.0,0.0,0.0
194.708,3.397,4.76,6.0
195.049,3.356,3.645,23.0
0.0,0.0,0.0,0.0
99.753,1.67,0.706,4.0
99.772,1.647,0.133,5.0
0.0,0.0,0.0,0.0
196.53,3.15,4.496,26.0
194.735,3.073,3.334,30.0
0.0,0.0,0.0,0.0
99.716,1.526,0.55,5.0
99.699,1.502,-0.022,3.0
157.09,2.326,4.252,21.0
195.665,2.849,4.17,24.0
194.937,2.791,3.034,24.0
0.0,0.0,0.0,0.0
99.632,1.379,0.396,5.0
0.0,0.0,0.0,0.0
20.286,0.27,0.517,15.0
20.28,0.265,0.401,19.0
20.282,0.26,0.284,13.0
20.313,0.255,0.166,1.0
99.615,1.227,0.242,5.0
0.0,0.0,0.0,0.0
20.283,0.239,0.486,26.0
20.27,0.234,0.37,29.0
20.281,0.229,0.253,26.0
20.311,0.224,0.135,23.0
20.321,0.219,0.019,10.0
20.212,0.212,-0.097,0.0
20.275,0.208,0.456,34.0
20.278,0.202,0.34,30.0
20.296,0.197,0.224,28.0
20.32,0.192,0.105,32.0
20.33,0.187,-0.01,26.0
20.212,0.181,-0.126,22.0
20.256,0.176,0.426,27.0
20.232,0.17,0.31,26.0
20.184,0.165,0.193,19.0
20.22,0.159,0.076,27.0
20.21,0.154,-0.039,23.0
20.173,0.149,-0.155,26.0
20.176,0.143,0.396,26.0
20.17,0.137,0.28,26.0
20.161,0.132,0.164,25.0
20.187,0.127,0.046,33.0
20.185,0.121,-0.068,31.0
20.18,0.116,-0.184,24.0
20.161,0.11,0.367,29.0
20.158,0.105,0.251,27.0
20.153,0.099,0.136,24.0
20.181,0.094,0.019,28.0
20.185,0.088,-0.096,27.0
20.2,0.083,-0.212,14.0
20.145,0.077,0.339,27.0
20.147,0.071,0.223,28.0
20.161,0.066,0.108,26.0
20.206,0.06,-0.008,27.0
20.228,0.054,-0.124,25.0
55.049,0.134,-0.654,6.0
20.136,0.043,0.311,33.0
20.127,0.037,0.196,28.0
20.162,0.031,0.081,22.0
20.253,0.026,-0.036,151.0
20.251,0.02,-0.151,151.0
20.267,0.014,-0.268,150.0
20.131,0.009,0.284,29.0
20.123,0.003,0.169,27.0
20.156,-0.002,0.054,19.0
20.175,-0.008,-0.062,16.0
20.164,-0.013,-0.177,13.0
20.176,-0.019,-0.292,9.0
20.126,-0.025,0.259,29.0
20.112,-0.03,0.144,32.0
20.125,-0.036,0.029,34.0
20.14,-0.042,-0.087,34.0
20.136,-0.048,-0.202,15.0
20.162,-0.054,-0.318,25.0
20.121,-0.06,0.233,29.0
20.128,-0.066,0.118,39.0
20.116,-0.071,0.004,33.0
20.138,-0.077,-0.112,32.0
20.138,-0.083,-0.227,31.0
20.143,-0.089,-0.342,30.0
20.136,-0.095,0.209,26.0
20.141,-0.101,0.094,37.0
20.143,-0.107,-0.02,27.0
20.153,-0.113,-0.137,27.0
20.138,-0.119,-0.252,32.0
20.155,-0.125,-0.367,36.0
20.156,-0.131,0.185,18.0
20.144,-0.137,0.07,18.0
20.172,-0.143,-0.044,17.0
20.145,-0.149,-0.161,14.0
20.167,-0.155,-0.276,26.0
20.166,-0.161,-0.391,30.0
64.277,-0.533,0.516,2.0
53.359,-0.459,0.124,10.0
56.349,-0.501,-0.188,2.0
53.021,-0.488,-0.485,7.0
38.727,-0.368,-0.575,3.0
20.188,-0.198,-0.414,16.0
64.343,-0.65,0.444,20.0
56.244,-0.585,0.068,0.0
56.301,-0.603,-0.251,3.0
49.709,-0.548,-0.51,2.0
38.118,-0.432,-0.608,17.0
31.832,-0.371,-0.689,8.0
56.29,-0.672,0.327,1.0
59.563,-0.729,0.007,25.0
56.594,-0.711,-0.315,11.0
45.106,-0.58,-0.511,19.0
37.961,-0.501,-0.647,28.0
30.95,-0.418,-0.703,29.0
20.156,-0.278,0.095,12.0
59.516,-0.839,-0.055,6.0
59.298,-0.855,-0.392,4.0
44.915,-0.662,-0.557,36.0
0.0,0.0,0.0,0.0
30.24,-0.465,-0.718,25.0
20.147,-0.315,0.074,51.0
20.112,-0.321,-0.039,15.0
52.935,-0.862,-0.404,33.0
44.868,-0.745,-0.602,13.0
35.861,-0.607,-0.685,2.0
29.766,-0.514,-0.737,8.0
20.129,-0.353,0.054,19.0
52.977,-0.946,-0.156,17.0
52.936,-0.962,-0.456,9.0
38.501,-0.712,-0.554,14.0
31.273,-0.589,-0.628,21.0
28.804,-0.552,-0.742,9.0
52.955,-1.029,0.092,63.0
45.62,-0.901,-0.178,18.0
45.463,-0.913,-0.435,6.0
38.177,-0.779,-0.586,18.0
30.858,-0.64,-0.648,29.0
28.135,-0.593,-0.751,1.0
38.384,-0.819,0.031,17.0
40.429,-0.876,-0.195,11.0
40.423,-0.888,-0.424,26.0
37.998,-0.848,-0.617,19.0
30.586,-0.693,-0.67,32.0
25.316,-0.582,-0.698,1.0
40.415,-0.939,-0.002,40.0
40.416,-0.952,-0.23,41.0
0.0,0.0,0.0,0.0
37.853,-0.917,-0.648,13.0
30.479,-0.749,-0.694,33.0
25.226,-0.628,-0.718,4.0
38.736,-0.975,-0.035,32.0
38.727,-0.988,-0.254,38.0
38.633,-0.998,-0.472,27.0
31.492,-0.824,-0.566,9.0
30.372,-0.806,-0.717,23.0
24.768,-0.665,-0.725,10.0
38.658,-1.048,-0.066,72.0
38.676,-1.061,-0.285,58.0
38.475,-1.068,-0.5,24.0
31.164,-0.876,-0.585,25.0
30.172,-0.859,-0.737,8.0
0.0,0.0,0.0,0.0
38.661,-1.123,-0.096,98.0
38.649,-1.136,-0.314,68.0
38.358,-1.141,-0.529,19.0
30.917,-0.93,-0.604,32.0
28.634,-0.871,-0.721,1.0
23.915,-0.736,-0.737,19.0
38.669,-1.199,-0.125,59.0
38.651,-1.212,-0.343,55.0
38.213,-1.211,-0.555,13.0
30.686,-0.983,-0.622,31.0
28.203,-0.914,-0.73,1.0
23.819,-0.78,-0.751,19.0
38.747,-1.278,-0.153,23.0
38.717,-1.29,-0.371,29.0
38.078,-1.282,-0.579,15.0
30.611,-1.041,-0.641,29.0
27.796,-0.955,-0.739,1.0
23.732,-0.823,-0.764,14.0
80.441,-2.81,-0.371,1.0
45.28,-1.597,-0.463,19.0
38.022,-1.355,-0.603,8.0
30.539,-1.098,-0.659,33.0
25.022,-0.909,-0.681,1.0
23.646,-0.867,-0.777,6.0
31.363,-1.157,-0.164,53.0
31.327,-1.166,-0.34,36.0
31.255,-1.175,-0.515,42.0
30.506,-1.157,-0.677,32.0
25.122,-0.962,-0.699,4.0
23.329,-0.901,-0.78,5.0
28.472,-1.106,-0.165,71.0
28.476,-1.116,-0.325,67.0
28.464,-1.125,-0.485,61.0
28.45,-1.135,-0.648,65.0
24.868,-1.001,-0.706,5.0
22.476,-0.913,-0.764,1.0
28.455,-1.161,-0.181,120.0
28.45,-1.171,-0.341,117.0
28.448,-1.181,-0.5,121.0
28.458,-1.191,-0.663,129.0
24.464,-1.033,-0.707,14.0
22.233,-0.947,-0.768,2.0
28.453,-1.217,-0.195,65.0
28.459,-1.227,-0.355,60.0
28.465,-1.238,-0.515,57.0
28.464,-1.248,-0.677,51.0
24.152,-1.068,-0.71,16.0
22.049,-0.983,-0.772,2.0
31.2,-1.397,-0.229,61.0
31.216,-1.408,-0.404,58.0
30.962,-1.408,-0.574,33.0
28.623,-1.312,-0.694,1.0
23.995,-1.108,-0.716,16.0
21.766,-1.013,-0.772,1.0
31.228,-1.459,-0.243,55.0
31.208,-1.47,-0.418,45.0
30.91,-1.467,-0.586,28.0
28.558,-1.365,-0.705,2.0
23.909,-1.152,-0.724,15.0
21.704,-1.053,-0.778,2.0
31.293,-1.524,-0.256,20.0
31.318,-1.537,-0.431,19.0
30.854,-1.525,-0.597,27.0
28.458,-1.417,-0.713,5.0
23.856,-1.196,-0.731,15.0
21.328,-1.078,-0.773,1.0
0.0,0.0,0.0,0.0
38.013,-1.94,-0.537,8.0
30.799,-1.583,-0.607,27.0
24.525,-1.269,-0.622,18.0
23.803,-1.241,-0.737,15.0
21.106,-1.108,-0.772,1.0
53.186,-2.8,-0.471,1.0
38.06,-2.017,-0.549,7.0
24.564,-1.311,-0.491,16.0
24.47,-1.315,-0.629,26.0
23.786,-1.286,-0.744,13.0
21.075,-1.147,-0.777,2.0
24.564,-1.341,-0.224,25.0
24.566,-1.35,-0.361,45.0
24.539,-1.357,-0.497,39.0
24.422,-1.359,-0.634,19.0
23.784,-1.332,-0.75,12.0
20.924,-1.18,-0.776,4.0
24.536,-1.387,-0.23,56.0
24.522,-1.395,-0.366,54.0
24.498,-1.402,-0.502,51.0
24.383,-1.405,-0.638,27.0
23.604,-1.368,-0.749,10.0
20.716,-1.209,-0.773,2.0
24.527,-1.434,-0.234,82.0
24.506,-1.442,-0.371,56.0
24.469,-1.448,-0.506,41.0
24.371,-1.452,-0.642,28.0
23.671,-1.418,-0.755,7.0
20.761,-1.252,-0.778,2.0
24.5,-1.48,-0.238,68.0
24.508,-1.489,-0.374,78.0
24.474,-1.496,-0.51,51.0
24.358,-1.498,-0.645,26.0
23.623,-1.461,-0.757,5.0
20.55,-1.279,-0.773,1.0
24.496,-1.527,-0.241,55.0
24.507,-1.537,-0.377,61.0
24.475,-1.544,-0.512,44.0
24.372,-1.546,-0.648,29.0
23.348,-1.489,-0.75,5.0
20.545,-1.318,-0.775,1.0
24.513,-1.575,-0.243,41.0
24.525,-1.585,-0.379,51.0
24.491,-1.592,-0.515,37.0
24.384,-1.593,-0.65,27.0
23.541,-1.547,-0.758,5.0
20.41,-1.349,-0.771,1.0
24.562,-1.626,-0.245,14.0
24.552,-1.634,-0.381,21.0
24.484,-1.638,-0.515,24.0
24.434,-1.644,-0.652,21.0
23.515,-1.591,-0.758,5.0
20.458,-1.391,-0.773,1.0
49.373,-3.362,-0.493,3.0
36.844,-2.522,-0.572,1.0
30.597,-2.105,-0.644,15.0
24.494,-1.694,-0.653,17.0
23.435,-1.629,-0.755,5.0
20.348,-1.422,-0.768,1.0
46.943,-3.285,-0.467,21.0
36.488,-2.566,-0.564,2.0
30.786,-2.176,-0.646,9.0
24.697,-1.754,-0.658,10.0
23.4,-1.671,-0.752,5.0
20.315,-1.458,-0.765,1.0
46.88,-3.368,-0.463,16.0
36.399,-2.627,-0.56,1.0
30.904,-2.242,-0.646,6.0
24.776,-1.806,-0.657,5.0
23.502,-1.721,-0.753,5.0
20.409,-1.502,-0.767,2.0
46.842,-3.451,-0.458,21.0
38.911,-2.88,-0.594,1.0
31.024,-2.307,-0.645,4.0
24.894,-1.86,-0.657,5.0
23.609,-1.773,-0.754,5.0
20.449,-1.543,-0.766,1.0
46.967,-3.547,-0.452,21.0
39.015,-2.96,-0.59,1.0
31.013,-2.363,-0.64,2.0
24.931,-1.909,-0.654,5.0
23.577,-1.813,-0.749,5.0
20.491,-1.583,-0.764,1.0
46.906,-3.626,-0.443,21.0
39.229,-3.046,-0.586,2.0
30.919,-2.411,-0.632,4.0
25.285,-1.981,-0.659,3.0
23.563,-1.854,-0.743,5.0
20.588,-1.628,-0.763,1.0
46.886,-3.709,-0.432,21.0
39.388,-3.129,-0.579,6.0
31.193,-2.489,-0.63,2.0
25.386,-2.035,-0.655,1.0
23.647,-1.903,-0.74,6.0
20.628,-1.667,-0.759,1.0
46.766,-3.783,-0.419,21.0
39.168,-3.182,-0.566,12.0
31.362,-2.558,-0.625,2.0
27.516,-2.253,-0.703,1.0
23.698,-1.949,-0.735,10.0
20.81,-1.719,-0.76,1.0
46.849,-3.871,-0.406,21.0
38.772,-3.216,-0.549,14.0
31.742,-2.644,-0.623,2.0
27.53,-2.302,-0.695,4.0
23.788,-1.997,-0.731,12.0
21.02,-1.772,-0.761,2.0
47.052,-3.969,-0.393,21.0
38.891,-3.293,-0.538,14.0
31.974,-2.718,-0.617,1.0
27.613,-2.356,-0.687,4.0
23.804,-2.039,-0.723,17.0
21.064,-1.812,-0.755,1.0
47.068,-4.049,-0.376,14.0
39.098,-3.376,-0.526,15.0
32.542,-2.821,-0.616,1.0
27.662,-2.407,-0.678,4.0
23.825,-2.081,-0.714,15.0
21.189,-1.858,-0.751,1.0
47.241,-4.144,-0.358,8.0
39.434,-3.472,-0.515,15.0
33.428,-2.954,-0.619,1.0
27.984,-2.482,-0.674,5.0
23.829,-2.121,-0.705,15.0
21.31,-1.904,-0.747,1.0
47.472,-4.243,-0.34,12.0
39.646,-3.556,-0.5,15.0
32.481,-2.924,-0.587,1.0
28.323,-2.558,-0.67,5.0
23.836,-2.161,-0.694,11.0
21.746,-1.979,-0.752,1.0
0.0,0.0,0.0,0.0
39.801,-3.634,-0.484,15.0
34.858,-3.194,-0.614,6.0
28.703,-2.639,-0.665,5.0
23.886,-2.204,-0.684,5.0
21.881,-2.026,-0.746,4.0
50.371,-4.665,-0.312,7.0
40.032,-3.72,-0.466,15.0
34.779,-3.243,-0.595,11.0
29.121,-2.724,-0.659,4.0
25.49,-2.393,-0.716,6.0
21.96,-2.068,-0.737,2.0
53.48,-5.037,-0.303,3.0
40.284,-3.806,-0.448,13.0
34.719,-3.291,-0.575,11.0
29.542,-2.81,-0.653,2.0
25.833,-2.465,-0.712,6.0
22.315,-2.136,-0.737,1.0
0.0,0.0,0.0,0.0
0.0,0.0,0.0,0.0
34.671,-3.34,-0.554,28.0
30.143,-2.912,-0.649,3.0
26.094,-2.529,-0.704,6.0
22.797,-2.217,-0.739,2.0
0.0,0.0,0.0,0.0
44.747,-4.364,-0.445,5.0
34.764,-3.4,-0.535,18.0
30.502,-2.992,-0.638,2.0
26.363,-2.595,-0.695,6.0
22.917,-2.263,-0.729,4.0
55.05,-5.434,-0.215,30.0
44.717,-4.427,-0.417,19.0
34.908,-3.466,-0.515,12.0
30.916,-3.079,-0.627,3.0
26.756,-2.672,-0.688,6.0
23.432,-2.347,-0.73,3.0
55.51,-5.56,-0.18,30.0
44.773,-4.497,-0.388,19.0
35.044,-3.529,-0.494,11.0
32.15,-3.247,-0.631,8.0
27.057,-2.741,-0.678,3.0
23.65,-2.403,-0.721,4.0
55.941,-5.682,-0.144,25.0
45.3,-4.614,-0.362,19.0
35.284,-3.604,-0.473,9.0
32.369,-3.315,-0.613,10.0
27.481,-2.822,-0.669,2.0
24.172,-2.489,-0.72,3.0
56.305,-5.797,-0.105,10.0
0.0,0.0,0.0,0.0
39.965,-4.136,-0.508,3.0
32.522,-3.375,-0.592,10.0
27.833,-2.896,-0.658,1.0
24.631,-2.57,-0.716,5.0
65.335,-6.816,-0.074,5.0
48.059,-5.026,-0.314,13.0
40.044,-4.198,-0.478,15.0
32.759,-3.444,-0.572,18.0
28.498,-3.003,-0.652,1.0
25.015,-2.643,-0.707,5.0
65.257,-6.893,-0.024,3.0
48.058,-5.088,-0.277,4.0
40.131,-4.259,-0.449,15.0
33.079,-3.52,-0.552,25.0
29.257,-3.121,-0.647,2.0
25.48,-2.725,-0.701,6.0
64.993,-6.949,0.027,8.0
51.326,-5.501,-0.255,19.0
40.269,-4.326,-0.418,12.0
33.575,-3.615,-0.533,30.0
30.212,-3.261,-0.643,2.0
25.83,-2.795,-0.689,6.0
64.981,-7.029,0.08,2.0
51.591,-5.593,-0.214,8.0
0.0,0.0,0.0,0.0
34.018,-3.705,-0.512,27.0
30.639,-3.344,-0.627,8.0
26.432,-2.892,-0.683,5.0
64.986,-7.109,0.135,1.0
55.022,-6.032,-0.182,28.0
42.269,-4.644,-0.367,4.0
34.38,-3.785,-0.488,27.0
30.943,-3.415,-0.606,9.0
26.932,-2.979,-0.673,3.0
64.978,-7.184,0.192,0.0
55.671,-6.168,-0.135,29.0
44.704,-4.963,-0.35,8.0
34.839,-3.876,-0.463,21.0
31.255,-3.485,-0.584,16.0
27.498,-3.073,-0.663,2.0
65.115,-7.274,0.25,150.0
56.224,-6.293,-0.086,6.0
47.128,-5.285,-0.326,21.0
39.768,-4.469,-0.494,3.0
31.786,-3.579,-0.566,25.0
27.963,-3.155,-0.648,1.0
65.137,-7.348,0.309,218.0
65.606,-7.414,-0.041,1.0
47.765,-5.408,-0.287,22.0
39.848,-4.52,-0.458,13.0
32.192,-3.659,-0.543,25.0
29.116,-3.316,-0.648,2.0
65.203,-7.424,0.371,181.0
65.133,-7.43,0.02,0.0
0.0,0.0,0.0,0.0
40.009,-4.58,-0.422,15.0
32.932,-3.777,-0.525,27.0
29.64,-3.406,-0.632,8.0
65.214,-7.491,0.432,21.0
65.174,-7.5,0.082,0.0
50.072,-5.771,-0.206,24.0
40.169,-4.638,-0.385,15.0
33.594,-3.886,-0.503,30.0
29.915,-3.466,-0.609,17.0
79.951,-9.263,0.608,8.0
65.413,-7.59,0.146,2.0
50.341,-5.851,-0.158,5.0
40.28,-4.69,-0.347,6.0
34.114,-3.979,-0.477,28.0
30.296,-3.539,-0.586,17.0
80.011,-9.345,0.688,31.0
80.116,-9.372,0.259,31.0
55.622,-6.517,-0.118,14.0
45.322,-5.318,-0.344,12.0
34.733,-4.082,-0.45,22.0
30.999,-3.649,-0.568,22.0
80.019,-9.419,0.769,31.0
80.124,-9.444,0.34,32.0
56.239,-6.638,-0.062,5.0
46.603,-5.509,-0.307,21.0
39.782,-4.71,-0.475,3.0
31.794,-3.77,-0.55,22.0
80.12,-9.498,0.852,21.0
80.185,-9.519,0.423,23.0
81.025,-9.631,-0.006,12.0
47.427,-5.646,-0.263,23.0
39.862,-4.752,-0.435,11.0
32.574,-3.889,-0.53,31.0
80.424,-9.6,0.941,9.0
80.23,-9.589,0.508,32.0
80.614,-9.647,0.078,16.0
48.453,-5.806,-0.218,23.0
40.064,-4.807,-0.395,15.0
33.144,-3.982,-0.504,27.0
153.595,-18.452,1.958,15.0
80.238,-9.65,0.592,31.0
80.694,-9.717,0.163,18.0
49.028,-5.911,-0.168,5.0
40.249,-4.859,-0.354,15.0
33.829,-4.089,-0.479,30.0
153.64,-18.568,2.121,14.0
80.263,-9.71,0.678,28.0
80.593,-9.761,0.249,32.0
55.577,-6.739,-0.131,13.0
45.512,-5.525,-0.351,12.0
34.439,-4.186,-0.45,27.0
153.744,-18.685,2.291,10.0
80.274,-9.766,0.766,33.0
80.372,-9.788,0.337,37.0
55.88,-6.812,-0.07,7.0
46.15,-5.632,-0.305,20.0
39.679,-4.848,-0.475,4.0
188.434,-23.021,3.014,14.0
80.456,-9.838,0.857,17.0
80.357,-9.835,0.424,34.0
80.765,-9.895,-0.013,15.0
47.19,-5.787,-0.26,22.0
39.783,-4.884,-0.432,22.0
188.419,-23.131,3.226,26.0
80.652,-9.909,0.949,7.0
80.348,-9.88,0.515,31.0
80.775,-9.942,0.076,17.0
48.239,-5.943,-0.212,22.0
40.036,-4.937,-0.39,22.0
188.956,-23.301,3.447,15.0
192.056,-23.701,2.476,25.0
80.406,-9.93,0.606,32.0
80.771,-9.983,0.168,12.0
49.821,-6.163,-0.162,18.0
40.288,-4.988,-0.347,15.0
198.317,-24.554,3.841,7.0
192.057,-23.794,2.693,31.0
80.457,-9.975,0.697,27.0
69.29,-8.596,0.222,3.0
55.65,-6.909,-0.119,8.0
45.596,-5.665,-0.341,6.0
197.63,-24.558,4.052,9.0
192.049,-23.878,2.908,29.0
80.487,-10.013,0.788,27.0
69.237,-8.619,0.299,3.0
56.19,-6.999,-0.057,6.0
46.118,-5.749,-0.293,20.0
139.532,-17.395,3.019,28.0
192.05,-23.954,3.126,24.0
80.552,-10.052,0.88,13.0
68.939,-8.607,0.377,4.0
69.088,-8.631,0.008,5.0
47.209,-5.901,-0.246,21.0
139.476,-17.438,3.177,30.0
192.042,-24.02,3.347,22.0
191.992,-24.024,2.319,19.0
80.594,-10.09,0.534,3.0
68.903,-8.63,0.087,3.0
48.391,-6.064,-0.196,22.0
139.466,-17.481,3.337,23.0
192.039,-24.078,3.567,9.0
191.988,-24.08,2.541,30.0
80.564,-10.108,0.626,11.0
68.714,-8.625,0.166,7.0
50.095,-6.291,-0.146,10.0
63.118,-7.928,1.583,22.0
197.306,-24.789,3.893,8.0
192.018,-24.131,2.759,39.0
80.52,-10.122,0.719,15.0
68.722,-8.642,0.245,5.0
55.781,-7.017,-0.098,10.0
63.095,-7.939,1.655,28.0
139.611,-17.569,2.915,12.0
192.048,-24.173,2.982,34.0
80.563,-10.142,0.811,7.0
68.61,-8.64,0.323,2.0
68.656,-8.648,-0.042,5.0
63.09,-7.949,1.727,32.0
139.547,-17.584,3.074,21.0
192.017,-24.198,3.2,45.0
80.8,-10.183,0.906,4.0
68.514,-8.636,0.402,2.0
68.673,-8.658,0.035,8.0
63.077,-7.955,1.8,27.0
139.526,-17.597,3.234,21.0
191.989,-24.215,3.421,21.0
191.908,-24.206,2.371,24.0
68.459,-8.635,0.48,3.0
68.648,-8.66,0.113,5.0
63.08,-7.961,1.871,27.0
63.12,-7.965,1.535,9.0
197.538,-24.926,3.748,8.0
191.969,-24.223,2.596,31.0
80.549,-10.164,0.658,3.0
68.48,-8.641,0.193,2.0
63.092,-7.964,1.946,27.0
63.106,-7.965,1.607,31.0
197.41,-24.912,3.972,11.0
191.971,-24.223,2.815,31.0
80.627,-10.173,0.75,4.0
68.471,-8.639,0.27,1.0
63.265,-7.985,2.023,30.0
63.091,-7.961,1.679,38.0
139.625,-17.615,2.968,13.0
191.987,-24.217,3.034,34.0
68.309,-8.615,0.713,4.0
68.4,-8.625,0.348,1.0
63.444,-8.004,2.1,20.0
63.085,-7.956,1.751,34.0
139.552,-17.595,3.125,24.0
191.982,-24.199,3.25,31.0
80.896,-10.194,0.936,4.0
68.592,-8.642,0.426,2.0
63.55,-8.011,2.175,6.0
63.094,-7.95,1.822,34.0
139.504,-17.571,3.28,22.0
192.004,-24.175,3.467,23.0
191.994,-24.166,2.438,27.0
80.557,-10.137,0.591,4.0
84.487,-10.637,2.989,4.0
63.102,-7.94,1.893,32.0
63.107,-7.937,1.555,16.0
0.0,0.0,0.0,0.0
192.033,-24.134,2.654,32.0
80.528,-10.117,0.681,20.0
84.47,-10.618,3.083,12.0
63.165,-7.935,1.965,29.0
63.068,-7.919,1.625,31.0
139.469,-17.503,2.831,10.0
191.985,-24.082,2.866,29.0
80.503,-10.093,0.77,25.0
84.522,-10.604,3.178,8.0
63.263,-7.931,2.04,10.0
63.101,-7.906,1.696,28.0
139.486,-17.466,2.986,26.0
191.999,-24.029,3.08,29.0
80.575,-10.079,0.86,14.0
137.446,-17.204,5.32,8.0
139.413,-17.437,4.647,12.0
63.126,-7.89,1.765,30.0
139.517,-17.426,3.137,30.0
192.058,-23.973,3.288,21.0
192.001,-23.952,2.258,18.0
137.482,-17.162,5.472,8.0
84.647,-10.558,2.914,10.0
63.189,-7.875,1.835,20.0
139.506,-17.373,3.289,28.0
198.482,-24.699,3.617,9.0
192.046,-23.882,2.467,29.0
126.99,-15.803,5.192,3.0
84.655,-10.525,3.006,16.0
63.281,-7.861,1.907,4.0
139.644,-17.332,3.444,15.0
198.32,-24.596,3.825,6.0
192.051,-23.8,2.673,28.0
137.248,-17.021,5.76,10.0
84.534,-10.473,3.091,26.0
139.428,-17.257,4.351,14.0
63.037,-7.795,1.621,4.0
188.434,-23.282,3.831,13.0
192.108,-23.716,2.874,11.0
137.152,-16.945,5.898,18.0
84.479,-10.426,3.178,14.0
85.396,-10.528,2.753,14.0
165.201,-20.346,4.422,18.0
188.365,-23.177,4.027,19.0
188.589,-23.183,3.018,23.0
137.065,-16.863,6.038,15.0
84.659,-10.403,3.273,7.0
84.611,-10.385,2.815,29.0
85.819,-10.522,2.385,6.0
0.0,0.0,0.0,0.0
187.917,-22.994,3.201,25.0
137.001,-16.778,6.175,9.0
84.919,-10.386,3.37,6.0
84.611,-10.337,2.901,30.0
85.806,-10.47,2.471,11.0
189.591,-23.109,4.44,5.0
187.889,-22.876,3.389,17.0
137.149,-16.713,6.321,11.0
85.383,-10.391,3.473,12.0
84.531,-10.274,2.982,31.0
84.187,-10.219,2.509,13.0
139.309,-16.89,3.401,13.0
153.838,-18.63,2.926,12.0
137.166,-16.626,6.457,11.0
85.799,-10.385,3.575,15.0
84.636,-10.23,3.07,25.0
84.17,-10.16,2.591,35.0
139.091,-16.768,3.53,25.0
153.799,-18.518,3.076,24.0
140.917,-16.982,6.771,9.0
84.257,-10.139,3.592,16.0
84.592,-10.165,3.149,20.0
84.302,-10.115,2.675,31.0
138.915,-16.646,3.658,25.0
153.789,-18.404,3.22,20.0
118.771,-14.227,5.819,8.0
84.088,-10.056,3.665,18.0
84.872,-10.135,3.24,14.0
84.402,-10.064,2.757,36.0
84.335,-10.041,2.299,13.0
85.355,-10.148,1.866,5.0
118.735,-14.131,5.926,24.0
83.988,-9.979,3.737,25.0
84.104,-9.977,3.287,22.0
84.548,-10.013,2.839,33.0
84.315,-9.971,2.375,21.0
85.313,-10.074,1.942,13.0
118.743,-14.035,6.034,33.0
83.975,-9.908,3.813,22.0
83.962,-9.89,3.357,37.0
84.532,-9.941,2.913,36.0
84.202,-9.886,2.446,36.0
84.209,-9.871,1.992,12.0
118.87,-13.948,6.146,25.0
84.211,-9.863,3.896,10.0
83.879,-9.808,3.426,40.0
84.236,-9.832,2.976,27.0
84.14,-9.804,2.517,51.0
84.261,-9.802,2.064,25.0
118.93,-13.849,6.252,17.0
83.962,-9.758,3.957,9.0
83.889,-9.732,3.498,44.0
83.836,-9.708,3.033,40.0
83.053,-9.6,2.555,29.0
84.181,-9.714,2.132,20.0
84.373,-9.745,4.505,12.0
83.918,-9.674,4.025,35.0
84.01,-9.666,3.572,46.0
83.737,-9.617,3.097,45.0
82.996,-9.514,2.62,21.0
0.0,0.0,0.0,0.0
84.809,-9.714,4.596,19.0
83.862,-9.586,4.089,40.0
84.2,-9.605,3.647,45.0
82.624,-9.406,3.121,32.0
82.523,-9.377,2.67,21.0
81.992,-9.299,2.207,24.0
84.833,-9.63,4.665,21.0
83.81,-9.494,4.153,34.0
0.0,0.0,0.0,0.0
82.736,-9.333,3.19,26.0
82.114,-9.244,2.719,27.0
82.062,-9.22,2.272,30.0
84.711,-9.527,4.723,18.0
83.825,-9.406,4.216,33.0
83.876,-9.392,3.761,49.0
82.622,-9.232,3.246,28.0
82.349,-9.182,2.788,35.0
82.092,-9.134,2.333,32.0
86.625,-9.648,4.892,8.0
83.83,-9.315,4.276,38.0
0.0,0.0,0.0,0.0
82.641,-9.141,3.307,44.0
82.36,-9.091,2.846,35.0
81.759,-9.005,2.38,37.0
86.573,-9.545,4.95,14.0
83.662,-9.202,4.326,41.0
83.787,-9.194,3.875,35.0
82.592,-9.042,3.361,39.0
82.337,-8.993,2.901,36.0
81.654,-8.898,2.432,41.0
86.361,-9.421,4.995,17.0
83.692,-9.107,4.384,38.0
83.901,-9.108,3.936,29.0
82.723,-8.958,3.42,37.0
82.283,-8.89,2.953,36.0
81.643,-8.8,2.484,36.0
85.473,-9.222,4.999,14.0
83.795,-9.018,4.441,37.0
84.041,-9.022,3.995,24.0
83.465,-8.938,3.502,47.0
82.314,-8.794,3.003,38.0
81.594,-8.696,2.532,32.0
0.0,0.0,0.0,0.0
84.099,-8.947,4.509,26.0
84.108,-8.925,4.048,48.0
82.857,-8.77,3.526,33.0
82.461,-8.706,3.057,42.0
81.658,-8.6,2.581,29.0
84.228,-8.879,5.026,25.0
84.057,-8.837,4.554,45.0
83.888,-8.795,4.085,23.0
82.057,-8.58,3.538,36.0
82.563,-8.61,3.107,38.0
82.085,-8.539,2.64,64.0
84.136,-8.759,5.067,26.0
83.99,-8.719,4.596,51.0
0.0,0.0,0.0,0.0
81.959,-8.462,3.577,36.0
82.315,-8.476,3.14,37.0
82.317,-8.454,2.689,53.0
84.79,-8.716,5.149,29.0
83.251,-8.533,4.597,34.0
82.883,-8.471,4.122,45.0
81.969,-8.355,3.617,34.0
82.274,-8.362,3.179,39.0
82.038,-8.315,2.719,47.0
84.784,-8.601,5.189,39.0
83.039,-8.399,4.624,22.0
82.721,-8.342,4.151,39.0
82.039,-8.25,3.658,42.0
82.278,-8.25,3.216,38.0
81.879,-8.187,2.75,41.0
84.554,-8.461,5.212,37.0
0.0,0.0,0.0,0.0
82.295,-8.185,4.165,36.0
81.941,-8.125,3.687,42.0
82.405,-8.147,3.256,39.0
81.862,-8.07,2.784,42.0
84.565,-8.343,5.247,21.0
83.422,-8.204,4.715,41.0
82.002,-8.04,4.183,38.0
81.709,-7.986,3.709,42.0
82.241,-8.014,3.28,25.0
82.088,-7.975,2.822,38.0
83.412,-8.109,5.207,8.0
83.543,-8.096,4.753,48.0
81.808,-7.902,4.202,36.0
81.78,-7.875,3.741,38.0
82.874,-7.955,3.334,11.0
81.965,-7.844,2.845,45.0
86.378,-8.271,5.421,13.0
83.412,-7.961,4.773,43.0
81.844,-7.786,4.23,36.0
81.944,-7.77,3.775,44.0
81.884,-7.739,3.32,10.0
81.801,-7.707,2.864,35.0
0.0,0.0,0.0,0.0
83.348,-7.831,4.793,44.0
82.119,-7.689,4.268,36.0
82.143,-7.665,3.806,35.0
81.773,-7.606,3.337,43.0
81.848,-7.589,2.888,37.0
84.71,-7.858,5.363,44.0
83.247,-7.696,4.809,42.0
82.358,-7.587,4.301,25.0
82.03,-7.531,3.82,39.0
81.708,-7.476,3.353,39.0
82.029,-7.48,2.914,39.0
84.244,-7.686,5.352,32.0
83.359,-7.577,4.833,33.0
83.191,-7.536,4.362,45.0
81.963,-7.399,3.834,46.0
81.669,-7.346,3.368,36.0
82.203,-7.368,2.935,36.0
84.416,-7.569,5.379,19.0
83.661,-7.474,4.866,43.0
83.262,-7.412,4.38,39.0
82.287,-7.298,3.863,55.0
81.622,-7.213,3.379,37.0
82.233,-7.242,2.948,41.0
84.625,-7.455,5.405,23.0
83.448,-7.323,4.865,27.0
83.108,-7.265,4.383,37.0
82.839,-7.215,3.9,40.0
81.779,-7.097,3.396,35.0
82.232,-7.11,2.958,36.0
85.024,-7.354,5.439,16.0
83.865,-7.225,4.898,24.0
83.156,-7.136,4.394,40.0
83.057,-7.101,3.917,41.0
82.114,-6.995,3.417,41.0
82.019,-6.96,2.957,42.0
86.272,-7.322,5.525,22.0
83.874,-7.09,4.904,23.0
83.296,-7.014,4.406,42.0
83.218,-6.98,3.929,41.0
82.434,-6.888,3.434,31.0
82.026,-6.828,2.96,39.0
86.286,-7.183,5.529,20.0
83.618,-6.933,4.891,42.0
83.456,-6.891,4.415,43.0
83.381,-6.857,3.938,48.0
83.157,-6.811,3.464,30.0
82.213,-6.708,2.967,41.0
85.711,-6.993,5.491,40.0
83.64,-6.796,4.89,40.0
83.098,-6.725,4.394,39.0
83.238,-6.708,3.929,44.0
83.559,-6.706,3.478,16.0
82.407,-6.587,2.971,38.0
85.691,-6.848,5.486,34.0
83.622,-6.655,4.885,35.0
83.061,-6.582,4.387,35.0
83.759,-6.609,3.948,16.0
83.433,-6.556,3.466,38.0
82.467,-6.453,2.966,42.0
85.736,-6.707,5.48,33.0
83.657,-6.517,4.879,40.0
83.182,-6.452,4.385,36.0
83.637,-6.459,3.933,13.0
83.285,-6.405,3.45,34.0
82.551,-6.321,2.959,34.0
84.162,-6.441,5.369,21.0
83.734,-6.379,4.871,39.0
83.729,-6.351,4.402,47.0
83.406,-6.299,3.909,21.0
83.098,-6.248,3.429,39.0
82.618,-6.185,2.948,35.0
84.159,-6.296,5.354,29.0
84.313,-6.278,4.89,42.0
83.653,-6.2,4.382,43.0
83.375,-6.152,3.891,43.0
82.786,-6.081,3.401,39.0
83.011,-6.071,2.945,40.0
84.088,-6.145,5.331,24.0
84.439,-6.141,4.878,37.0
83.674,-6.058,4.365,36.0
83.394,-6.01,3.873,42.0
82.769,-5.937,3.38,38.0
83.026,-5.928,2.925,41.0
24.582,-1.753,1.552,3.0
84.493,-5.999,4.86,17.0
83.936,-5.93,4.355,40.0
83.608,-5.88,3.86,42.0
24.569,-1.719,0.996,21.0
83.176,-5.794,2.906,32.0
24.48,-1.703,1.538,25.0
24.491,-1.696,1.401,42.0
24.553,-1.692,1.266,6.0
24.57,-1.685,1.126,12.0
24.517,-1.673,0.986,22.0
24.508,-1.664,0.848,19.0
24.462,-1.66,1.529,75.0
24.453,-1.65,1.391,52.0
24.498,-1.645,1.255,54.0
24.483,-1.636,1.114,40.0
24.459,-1.626,0.975,49.0
24.479,-1.619,0.838,43.0
24.434,-1.614,1.518,56.0
24.454,-1.607,1.381,86.0
24.471,-1.6,1.244,81.0
24.476,-1.592,1.104,36.0
24.457,-1.583,0.965,62.0
24.477,-1.576,0.828,70.0
24.393,-1.568,1.505,32.0
24.429,-1.562,1.369,57.0
24.471,-1.556,1.233,90.0
24.443,-1.546,1.092,40.0
24.457,-1.539,0.954,67.0
24.496,-1.534,0.818,70.0
24.374,-1.524,1.493,24.0
24.421,-1.518,1.358,68.0
24.466,-1.513,1.222,84.0
24.452,-1.504,1.08,52.0
24.47,-1.497,0.943,58.0
24.516,-1.491,0.806,77.0
24.396,-1.481,1.482,49.0
24.429,-1.475,1.345,48.0
24.477,-1.47,1.21,42.0
24.505,-1.463,1.07,50.0
24.5,-1.454,0.931,43.0
24.543,-1.449,0.794,70.0
24.406,-1.438,1.469,63.0
24.452,-1.433,1.333,69.0
24.518,-1.428,1.198,42.0
24.54,-1.421,1.057,40.0
24.571,-1.415,0.92,30.0
24.572,-1.407,0.781,26.0
24.437,-1.397,1.457,63.0
24.538,-1.394,1.324,35.0
28.412,-1.605,1.371,20.0
83.342,-4.682,3.543,20.0
83.35,-4.656,3.072,49.0
83.942,-4.661,2.618,49.0
28.418,-1.574,1.676,38.0
28.431,-1.565,1.516,68.0
83.677,-4.579,3.987,29.0
83.625,-4.549,3.501,36.0
83.796,-4.531,3.034,26.0
84.159,-4.524,2.571,39.0
28.428,-1.524,1.658,73.0
28.411,-1.513,1.496,70.0
83.828,-4.438,3.937,38.0
83.687,-4.404,3.447,24.0
84.974,-4.444,3.018,36.0
84.406,-4.387,2.52,28.0
28.412,-1.472,1.637,71.0
28.413,-1.463,1.476,68.0
84.565,-4.328,3.912,50.0
86.399,-4.394,3.497,34.0
85.142,-4.303,2.963,38.0
84.999,-4.268,2.476,29.0
28.413,-1.422,1.616,71.0
28.418,-1.413,1.454,65.0
85.27,-4.212,3.879,33.0
86.371,-4.238,3.43,33.0
85.201,-4.153,2.899,33.0
84.908,-4.112,2.407,28.0
28.412,-1.371,1.594,80.0
28.408,-1.362,1.431,57.0
85.669,-4.079,3.829,32.0
159.729,-7.556,6.216,16.0
86.189,-4.049,2.863,19.0
85.083,-3.971,2.343,29.0
160.939,-7.483,8.894,32.0
28.386,-1.31,1.407,5.0
159.528,-7.316,6.998,31.0
31.348,-1.428,1.193,1.0
86.573,-3.916,2.803,3.0
31.328,-1.407,0.836,3.0
31.338,-1.402,1.705,2.0
31.331,-1.392,1.526,4.0
162.422,-7.165,6.983,15.0
31.334,-1.372,1.165,1.0
28.455,-1.237,0.896,57.0
28.44,-1.227,0.733,65.0
28.456,-1.223,1.522,56.0
28.435,-1.213,1.359,57.0
28.418,-1.203,1.195,74.0
28.422,-1.194,1.03,103.0
28.435,-1.186,0.869,107.0
28.444,-1.178,0.707,112.0
28.44,-1.172,1.494,99.0
28.438,-1.163,1.332,126.0
28.438,-1.154,1.169,142.0
28.427,-1.145,1.003,105.0
28.432,-1.136,0.841,75.0
28.442,-1.128,0.679,71.0
28.431,-1.122,1.466,58.0
28.448,-1.114,1.304,65.0
28.432,-1.104,1.14,34.0
31.243,-1.204,1.072,44.0
31.276,-1.196,0.894,54.0
31.286,-1.187,0.716,48.0
31.23,-1.178,1.578,39.0
31.256,-1.17,1.401,64.0
31.236,-1.159,1.221,38.0
31.253,-1.15,1.039,49.0
31.301,-1.143,0.862,51.0
31.33,-1.135,0.684,45.0
31.248,-1.125,1.546,32.0
31.283,-1.117,1.369,49.0
31.272,-1.107,1.189,31.0
31.31,-1.099,1.008,35.0
31.396,-1.093,0.831,17.0
0.0,0.0,0.0,0.0
31.297,-1.073,1.514,43.0
38.653,-1.314,1.649,55.0
38.665,-1.303,1.428,50.0
38.661,-1.292,1.202,42.0
38.655,-1.28,0.981,64.0
38.662,-1.269,0.76,49.0
38.544,-1.257,1.822,50.0
38.643,-1.249,1.605,76.0
38.632,-1.237,1.382,71.0
38.59,-1.224,1.156,58.0
38.608,-1.213,0.935,70.0
38.634,-1.203,0.715,79.0
38.563,-1.192,1.777,64.0
38.639,-1.184,1.559,93.0
38.585,-1.171,1.335,55.0
38.562,-1.159,1.109,71.0
38.634,-1.15,0.89,99.0
38.638,-1.139,0.668,94.0
38.61,-1.129,1.733,73.0
38.637,-1.119,1.512,72.0
38.576,-1.106,1.288,64.0
38.57,-1.095,1.063,71.0
38.649,-1.086,0.843,79.0
38.642,-1.075,0.621,64.0
38.633,-1.066,1.686,73.0
38.689,-1.056,1.466,40.0
38.597,-1.042,1.24,32.0
38.61,-1.032,1.015,68.0
38.67,-1.023,0.794,42.0
38.693,-1.013,0.573,29.0
45.809,-1.188,1.94,27.0
45.694,-1.172,1.672,54.0
38.694,-0.981,1.193,45.0
38.687,-0.971,0.967,40.0
40.422,-1.003,0.778,27.0
40.415,-0.992,0.546,29.0
40.43,-0.982,1.658,27.0
40.409,-0.971,1.425,34.0
38.761,-0.92,1.144,23.0
40.396,-0.948,0.956,37.0
40.403,-0.938,0.724,38.0
40.451,-0.928,0.493,150.0
40.399,-0.917,1.604,40.0
40.401,-0.907,1.371,36.0
40.419,-0.896,1.139,29.0
38.388,-0.841,0.857,32.0
38.384,-0.83,0.636,53.0
38.391,-0.821,0.416,36.0
45.665,-0.965,1.75,53.0
45.714,-0.954,1.488,54.0
45.724,-0.941,1.225,19.0
38.326,-0.78,0.803,7.0
