X,Y,Z,Reflectivity
20.2,0.14,0.125,25.0
20.225,0.147,0.011,27.0
20.185,0.153,-0.103,23.0
20.17,0.16,-0.216,27.0
20.175,0.167,-0.33,35.0
20.296,0.175,0.225,29.0
20.319,0.182,0.111,29.0
20.337,0.189,-0.002,28.0
20.232,0.194,-0.118,3.0
20.165,0.201,-0.231,19.0
20.181,0.208,-0.344,29.0
20.299,0.216,0.21,26.0
20.308,0.223,0.096,9.0
99.596,1.129,-0.086,1.0
0.0,0.0,0.0,0.0
20.198,0.242,-0.246,3.0
20.195,0.248,-0.36,18.0
20.373,0.258,0.195,0.0
99.643,1.296,0.396,6.0
0.0,0.0,0.0,0.0
0.0,0.0,0.0,0.0
0.0,0.0,0.0,0.0
0.0,0.0,0.0,0.0
0.0,0.0,0.0,0.0
99.682,1.495,0.317,5.0
101.46,1.553,-0.248,1.0
0.0,0.0,0.0,0.0
0.0,0.0,0.0,0.0
0.0,0.0,0.0,0.0
0.0,0.0,0.0,0.0
99.877,1.693,0.234,8.0
0.0,0.0,0.0,0.0
0.0,0.0,0.0,0.0
0.0,0.0,0.0,0.0
38.555,0.701,-0.782,0.0
99.95,1.857,0.711,1.0
99.854,1.887,0.147,1.0
0.0,0.0,0.0,0.0
0.0,0.0,0.0,0.0
0.0,0.0,0.0,0.0
37.201,0.749,-0.788,0.0
100.037,2.052,0.622,2.0
100.061,2.084,0.057,16.0
0.0,0.0,0.0,0.0
0.0,0.0,0.0,0.0
0.0,0.0,0.0,0.0
36.945,0.815,-0.817,0.0
100.092,2.244,0.53,2.0
100.11,2.275,-0.035,17.0
0.0,0.0,0.0,0.0
0.0,0.0,0.0,0.0
0.0,0.0,0.0,0.0
35.589,0.851,-0.82,0.0
100.201,2.435,0.435,1.0
106.603,2.623,-0.14,2.0
0.0,0.0,0.0,0.0
0.0,0.0,0.0,0.0
0.0,0.0,0.0,0.0
0.0,0.0,0.0,0.0
0.0,0.0,0.0,0.0
0.0,0.0,0.0,0.0
0.0,0.0,0.0,0.0
0.0,0.0,0.0,0.0
0.0,0.0,0.0,0.0
33.298,0.92,-0.834,0.0
0.0,0.0,0.0,0.0
0.0,0.0,0.0,0.0
68.945,1.971,-0.619,1.0
0.0,0.0,0.0,0.0
0.0,0.0,0.0,0.0
32.276,0.952,-0.842,1.0
0.0,0.0,0.0,0.0
0.0,0.0,0.0,0.0
0.0,0.0,0.0,0.0
0.0,0.0,0.0,0.0
0.0,0.0,0.0,0.0
32.067,1.002,-0.871,0.0
0.0,0.0,0.0,0.0
0.0,0.0,0.0,0.0
0.0,0.0,0.0,0.0
0.0,0.0,0.0,0.0
36.438,1.193,-0.823,0.0
30.139,0.995,-0.851,0.0
0.0,0.0,0.0,0.0
68.92,2.321,-0.452,0.0
0.0,0.0,0.0,0.0
41.333,1.415,-0.745,0.0
35.851,1.237,-0.85,0.0
29.841,1.038,-0.877,1.0
0.0,0.0,0.0,0.0
68.926,2.442,-0.532,3.0
0.0,0.0,0.0,0.0
0.0,0.0,0.0,0.0
32.99,1.195,-0.82,0.0
28.625,1.045,-0.874,0.0
0.0,0.0,0.0,0.0
68.839,2.555,-0.61,0.0
0.0,0.0,0.0,0.0
38.691,1.456,-0.787,0.0
32.33,1.226,-0.841,1.0
0.0,0.0,0.0,0.0
0.0,0.0,0.0,0.0
0.0,0.0,0.0,0.0
0.0,0.0,0.0,0.0
37.061,1.457,-0.798,0.0
30.241,1.197,-0.823,0.0
0.0,0.0,0.0,0.0
0.0,0.0,0.0,0.0
0.0,0.0,0.0,0.0
0.0,0.0,0.0,0.0
35.882,1.47,-0.816,0.0
30.169,1.243,-0.858,1.0
20.208,0.838,-0.69,0.0
68.988,2.886,-0.471,4.0
0.0,0.0,0.0,0.0
0.0,0.0,0.0,0.0
34.206,1.457,-0.822,0.0
29.399,1.259,-0.874,0.0
20.215,0.871,-0.716,155.0
68.973,2.996,-0.559,3.0
0.0,0.0,0.0,0.0
38.805,1.705,-0.756,0.0
32.509,1.437,-0.822,0.0
20.234,0.899,-0.627,26.0
20.199,0.902,-0.741,182.0
0.0,0.0,0.0,0.0
0.0,0.0,0.0,0.0
37.474,1.705,-0.779,0.0
31.737,1.452,-0.844,0.0
20.256,0.931,-0.654,1.0
20.227,0.935,-0.769,153.0
0.0,0.0,0.0,0.0
42.52,1.99,-0.698,3.0
0.0,0.0,0.0,0.0
30.705,1.451,-0.857,0.0
26.239,1.246,-0.883,0.0
20.238,0.966,-0.796,0.0
0.0,0.0,0.0,0.0
0.0,0.0,0.0,0.0
0.0,0.0,0.0,0.0
29.142,1.42,-0.853,0.0
25.139,1.231,-0.879,0.0
21.947,1.08,-0.893,0.0
0.0,0.0,0.0,0.0
0.0,0.0,0.0,0.0
33.092,1.654,-0.821,1.0
28.305,1.421,-0.867,0.0
24.354,1.229,-0.885,0.0
21.831,1.106,-0.918,0.0
0.0,0.0,0.0,0.0
37.817,1.936,-0.774,0.0
31.933,1.642,-0.836,0.0
27.258,1.407,-0.873,0.0
23.844,1.237,-0.9,0.0
21.658,1.128,-0.942,0.0
0.0,0.0,0.0,0.0
35.86,1.886,-0.785,0.0
0.0,0.0,0.0,0.0
26.11,1.385,-0.873,0.0
21.848,1.163,-0.855,0.0
0.0,0.0,0.0,0.0
0.0,0.0,0.0,0.0
33.983,1.834,-0.792,0.0
29.257,1.585,-0.849,0.0
25.18,1.369,-0.877,0.0
21.812,1.191,-0.885,1.0
0.0,0.0,0.0,0.0
0.0,0.0,0.0,0.0
33.175,1.834,-0.82,1.0
28.424,1.577,-0.866,0.0
24.475,1.363,-0.888,0.0
21.794,1.218,-0.916,3.0
0.0,0.0,0.0,0.0
37.087,2.091,-0.759,0.0
31.782,1.798,-0.832,0.0
0.0,0.0,0.0,0.0
21.916,1.249,-0.827,0.0
21.487,1.229,-0.934,0.0
0.0,0.0,0.0,0.0
35.494,2.046,-0.778,0.0
30.5,1.764,-0.843,0.0
25.552,1.483,-0.853,0.0
21.874,1.273,-0.858,4.0
20.168,1.178,-0.906,0.0
0.0,0.0,0.0,0.0
33.588,1.976,-0.785,0.0
29.169,1.722,-0.849,0.0
25.405,1.505,-0.885,1.0
21.799,1.295,-0.887,10.0
19.631,1.17,-0.911,0.0
0.0,0.0,0.0,0.0
32.381,1.944,-0.805,1.0
28.041,1.688,-0.858,0.0
24.208,1.462,-0.88,0.0
21.789,1.32,-0.919,3.0
19.28,1.171,-0.924,0.0
0.0,0.0,0.0,0.0
31.754,1.942,-0.837,1.0
27.06,1.66,-0.868,0.0
21.925,1.349,-0.829,0.0
21.663,1.336,-0.946,0.0
0.0,0.0,0.0,0.0
0.0,0.0,0.0,0.0
30.259,1.884,-0.843,0.0
25.894,1.616,-0.87,0.0
21.887,1.37,-0.861,4.0
19.727,1.238,-0.891,0.0
18.119,1.141,-0.923,0.0
0.0,0.0,0.0,0.0
28.821,1.825,-0.847,0.0
24.832,1.577,-0.872,0.0
21.809,1.388,-0.891,10.0
19.443,1.241,-0.909,0.0
17.785,1.138,-0.933,0.0
0.0,0.0,0.0,0.0
27.736,1.784,-0.857,0.0
23.825,1.537,-0.873,0.0
21.775,1.408,-0.924,1.0
0.0,0.0,0.0,0.0
0.0,0.0,0.0,0.0
0.0,0.0,0.0,0.0
26.453,1.728,-0.859,0.0
21.925,1.436,-0.838,2.0
0.0,0.0,0.0,0.0
0.0,0.0,0.0,0.0
16.752,1.105,-0.931,0.0
15.133,1.0,-0.928,0.0
25.588,1.695,-0.87,0.0
21.849,1.451,-0.868,7.0
19.698,1.311,-0.896,0.0
17.872,1.192,-0.918,0.0
16.235,1.086,-0.927,0.0
14.918,1.0,-0.938,0.0
24.575,1.65,-0.874,0.0
21.794,1.467,-0.9,2.0
19.404,1.309,-0.913,0.0
17.48,1.181,-0.925,0.0
15.888,1.076,-0.932,0.0
14.718,0.999,-0.949,0.0
23.606,1.606,-0.876,0.0
21.454,1.462,-0.92,0.0
0.0,0.0,0.0,0.0
16.862,1.154,-0.919,0.0
15.322,1.051,-0.923,0.0
0.0,0.0,0.0,0.0
21.904,1.508,-0.847,0.0
20.213,1.394,-0.898,0.0
18.106,1.251,-0.909,0.0
16.378,1.134,-0.918,0.0
15.068,1.045,-0.931,0.0
13.842,0.962,-0.936,0.0
21.827,1.519,-0.878,1.0
19.558,1.364,-0.9,0.0
17.749,1.24,-0.919,0.0
16.073,1.125,-0.926,0.0
14.808,1.038,-0.939,0.0
13.581,0.954,-0.94,0.0
21.717,1.528,-0.908,0.0
19.227,1.355,-0.915,0.0
17.154,1.211,-0.915,0.0
15.648,1.106,-0.927,0.0
14.575,1.033,-0.947,0.0
13.3,0.944,-0.941,0.0
20.746,1.473,-0.9,0.0
0.0,0.0,0.0,0.0
16.838,1.2,-0.925,0.0
15.249,1.088,-0.927,0.0
0.0,0.0,0.0,0.0
13.008,0.932,-0.941,0.0
19.815,1.42,-0.891,0.0
17.948,1.288,-0.91,0.0
16.366,1.177,-0.924,0.0
14.921,1.074,-0.93,0.0
13.771,0.993,-0.938,0.0
12.756,0.922,-0.943,0.0
19.431,1.404,-0.904,0.0
17.462,1.264,-0.913,0.0
16.017,1.161,-0.93,0.0
14.7,1.067,-0.94,0.0
13.476,0.98,-0.939,0.0
12.492,0.91,-0.943,0.0
0.0,0.0,0.0,0.0
17.074,1.245,-0.919,0.0
15.468,1.129,-0.922,0.0
14.404,1.053,-0.943,0.0
13.157,0.963,-0.938,0.0
12.25,0.899,-0.944,0.0
0.0,0.0,0.0,0.0
16.604,1.219,-0.92,0.0
15.136,1.113,-0.926,0.0
0.0,0.0,0.0,0.0
12.919,0.952,-0.941,0.0
11.973,0.884,-0.941,0.0
17.867,1.319,-0.914,0.0
16.208,1.198,-0.923,0.0
14.829,1.097,-0.93,0.0
13.662,1.012,-0.937,0.0
12.665,0.939,-0.942,0.0
11.751,0.873,-0.942,0.0
17.254,1.281,-0.91,0.0
15.749,1.17,-0.922,0.0
14.583,1.085,-0.937,0.0
13.366,0.996,-0.938,0.0
12.423,0.927,-0.943,0.0
11.528,0.861,-0.942,0.0
16.936,1.264,-0.92,0.0
15.396,1.15,-0.925,0.0
14.165,1.059,-0.932,0.0
13.131,0.983,-0.942,0.0
12.141,0.91,-0.941,0.0
11.322,0.85,-0.943,0.0
16.466,1.234,-0.919,0.0
15.067,1.131,-0.928,0.0
0.0,0.0,0.0,0.0
12.839,0.965,-0.94,0.0
11.885,0.895,-0.939,0.0
11.146,0.84,-0.946,0.0
16.093,1.211,-0.923,0.0
14.735,1.11,-0.93,0.0
13.429,1.013,-0.925,0.0
12.579,0.949,-0.941,0.0
11.72,0.886,-0.944,0.0
10.957,0.829,-0.947,0.0
15.685,1.185,-0.924,0.0
14.488,1.095,-0.937,0.0
13.328,1.008,-0.939,0.0
12.356,0.936,-0.943,0.0
11.499,0.871,-0.944,0.0
10.77,0.817,-0.947,0.0
15.288,1.158,-0.923,0.0
14.118,1.07,-0.934,0.0
12.955,0.983,-0.932,0.0
12.078,0.917,-0.94,0.0
11.321,0.86,-0.947,0.0
10.516,0.8,-0.941,0.0
14.998,1.139,-0.928,0.0
0.0,0.0,0.0,0.0
12.75,0.969,-0.936,0.0
11.825,0.9,-0.938,0.0
11.054,0.842,-0.941,0.0
10.398,0.792,-0.946,0.0
14.655,1.114,-0.929,0.0
13.601,1.035,-0.941,0.0
12.541,0.955,-0.94,0.0
11.616,0.885,-0.939,0.0
10.935,0.834,-0.947,0.0
10.221,0.78,-0.945,0.0
14.466,1.101,-0.938,0.0
13.289,1.012,-0.938,0.0
12.33,0.94,-0.942,0.0
11.462,0.874,-0.943,0.0
10.678,0.815,-0.941,0.0
10.072,0.769,-0.946,0.0
14.127,1.076,-0.937,0.0
13.022,0.992,-0.939,0.0
12.088,0.922,-0.941,0.0
11.256,0.859,-0.943,0.0
10.492,0.801,-0.94,0.0
9.92,0.758,-0.946,0.0
13.789,1.05,-0.934,0.0
12.767,0.973,-0.939,0.0
11.834,0.902,-0.938,0.0
11.105,0.847,-0.946,0.0
10.381,0.792,-0.945,0.0
9.732,0.743,-0.942,0.0
13.557,1.032,-0.938,0.0
12.507,0.953,-0.937,0.0
11.623,0.886,-0.938,0.0
10.966,0.836,-0.95,0.0
10.238,0.781,-0.946,0.0
9.579,0.731,-0.941,0.0
13.242,1.007,-0.934,0.0
12.332,0.938,-0.941,0.0
11.448,0.871,-0.94,0.0
10.741,0.818,-0.945,0.0
10.068,0.767,-0.944,0.0
9.468,0.721,-0.943,0.0
13.015,0.989,-0.936,0.0
12.078,0.917,-0.939,0.0
11.306,0.859,-0.944,0.0
10.492,0.797,-0.938,0.0
9.928,0.755,-0.945,0.0
9.345,0.711,-0.944,0.0
12.765,0.967,-0.936,0.0
11.872,0.9,-0.939,0.0
11.091,0.841,-0.941,0.0
10.394,0.788,-0.943,0.0
9.746,0.739,-0.941,0.0
9.257,0.702,-0.948,0.0
12.564,0.95,-0.938,0.0
11.699,0.884,-0.941,0.0
10.887,0.823,-0.939,0.0
10.226,0.773,-0.942,0.0
9.619,0.727,-0.942,0.0
9.103,0.688,-0.944,0.0
12.339,0.93,-0.938,0.0
11.494,0.866,-0.94,0.0
10.807,0.814,-0.946,0.0
10.123,0.763,-0.946,0.0
9.511,0.717,-0.944,0.0
8.994,0.678,-0.945,0.0
12.133,0.911,-0.938,0.0
11.28,0.847,-0.937,0.0
10.52,0.79,-0.934,0.0
9.945,0.746,-0.942,0.0
9.402,0.706,-0.945,0.0
8.885,0.667,-0.945,0.0
11.899,0.89,-0.935,0.0
11.158,0.834,-0.941,0.0
10.447,0.781,-0.941,0.0
9.812,0.733,-0.942,0.0
9.275,0.693,-0.944,0.0
8.764,0.655,-0.943,0.0
11.751,0.874,-0.938,0.0
10.98,0.817,-0.939,0.0
10.329,0.768,-0.943,0.0
9.697,0.721,-0.943,0.0
9.155,0.681,-0.943,0.0
8.678,0.645,-0.944,0.0
11.576,0.857,-0.938,0.0
10.904,0.807,-0.946,0.0
10.162,0.752,-0.941,0.0
9.571,0.708,-0.942,0.0
9.037,0.668,-0.942,0.0
8.565,0.633,-0.943,0.0
11.434,0.841,-0.94,0.0
10.748,0.791,-0.946,0.0
10.036,0.738,-0.941,0.0
9.477,0.697,-0.944,0.0
8.936,0.657,-0.942,0.0
8.49,0.624,-0.944,0.0
11.304,0.826,-0.943,0.0
10.501,0.767,-0.936,0.0
9.936,0.726,-0.943,0.0
9.388,0.685,-0.946,0.0
8.827,0.644,-0.941,0.0
8.374,0.611,-0.941,0.0
11.186,0.812,-0.946,0.0
10.406,0.755,-0.94,0.0
9.842,0.714,-0.945,0.0
9.249,0.671,-0.943,0.0
8.751,0.634,-0.943,0.0
8.304,0.602,-0.943,0.0
10.977,0.791,-0.94,0.0
10.29,0.741,-0.94,0.0
9.721,0.7,-0.945,0.0
9.132,0.657,-0.941,0.0
8.645,0.622,-0.941,0.0
8.222,0.591,-0.943,0.0
10.801,0.772,-0.937,0.0
10.172,0.727,-0.941,0.0
9.582,0.684,-0.941,0.0
9.048,0.646,-0.942,0.0
8.577,0.612,-0.943,0.0
8.15,0.581,-0.943,0.0
10.673,0.757,-0.937,0.0
10.111,0.716,-0.946,0.0
9.46,0.67,-0.939,0.0
8.962,0.634,-0.942,0.0
8.49,0.6,-0.942,0.0
8.077,0.571,-0.943,0.0
10.539,0.741,-0.936,0.0
9.979,0.701,-0.943,0.0
9.386,0.658,-0.941,0.0
8.889,0.623,-0.944,0.0
8.419,0.59,-0.943,0.0
8.022,0.561,-0.945,0.0
10.472,0.729,-0.94,0.0
9.884,0.687,-0.944,0.0
9.317,0.647,-0.944,0.0
8.786,0.61,-0.941,0.0
8.344,0.579,-0.942,0.0
7.965,0.552,-0.946,0.0
10.37,0.714,-0.941,0.0
9.78,0.673,-0.944,0.0
9.212,0.633,-0.942,0.0
8.735,0.6,-0.944,0.0
8.282,0.568,-0.943,0.0
7.897,0.541,-0.945,0.0
10.291,0.701,-0.943,0.0
9.667,0.658,-0.942,0.0
9.132,0.621,-0.942,0.0
8.629,0.586,-0.941,0.0
8.22,0.558,-0.944,0.0
7.846,0.532,-0.946,0.0
10.203,0.688,-0.944,0.0
9.587,0.645,-0.942,0.0
9.034,0.607,-0.94,0.0
8.577,0.576,-0.942,0.0
8.142,0.546,-0.942,0.0
7.796,0.522,-0.947,0.0
10.104,0.673,-0.944,0.0
9.499,0.632,-0.941,0.0
8.98,0.597,-0.942,0.0
8.493,0.564,-0.94,0.0
8.087,0.536,-0.942,0.0
7.747,0.513,-0.947,0.0
10.032,0.66,-0.945,0.0
9.416,0.619,-0.941,0.0
8.876,0.582,-0.938,0.0
8.44,0.553,-0.941,0.0
8.039,0.526,-0.943,0.0
7.689,0.502,-0.946,0.0
9.915,0.644,-0.942,0.0
9.362,0.607,-0.943,0.0
8.846,0.573,-0.941,0.0
8.391,0.542,-0.942,0.0
8.01,0.517,-0.946,0.0
7.622,0.491,-0.944,0.0
9.849,0.631,-0.943,0.0
9.278,0.593,-0.941,0.0
8.774,0.56,-0.94,0.0
8.337,0.532,-0.942,0.0
7.945,0.506,-0.944,0.0
7.601,0.483,-0.947,0.0
9.771,0.617,-0.942,0.0
9.229,0.582,-0.942,0.0
8.704,0.548,-0.939,0.0
8.283,0.521,-0.942,0.0
7.91,0.496,-0.945,0.0
7.543,0.473,-0.944,0.0
9.715,0.605,-0.943,0.0
9.169,0.57,-0.942,0.0
8.661,0.537,-0.94,0.0
8.242,0.51,-0.942,0.0
7.885,0.487,-0.947,0.0
7.526,0.464,-0.947,0.0
9.648,0.591,-0.942,0.0
9.109,0.557,-0.942,0.0
8.594,0.525,-0.938,0.0
8.192,0.499,-0.942,0.0
7.854,0.478,-0.948,0.0
7.472,0.454,-0.945,0.0
9.576,0.577,-0.941,0.0
9.064,0.546,-0.942,0.0
8.586,0.516,-0.942,0.0
8.14,0.488,-0.94,0.0
7.765,0.465,-0.941,0.0
7.469,0.446,-0.948,0.0
9.535,0.566,-0.942,0.0
8.987,0.532,-0.939,0.0
8.547,0.505,-0.942,0.0
8.127,0.479,-0.943,0.0
7.739,0.455,-0.942,0.0
7.434,0.436,-0.948,0.0
9.479,0.553,-0.941,0.0
8.98,0.522,-0.943,0.0
8.518,0.494,-0.943,0.0
8.061,0.467,-0.939,0.0
7.757,0.448,-0.948,0.0
7.416,0.428,-0.949,0.0
9.458,0.541,-0.943,0.0
8.926,0.51,-0.941,0.0
8.457,0.482,-0.94,0.0
8.065,0.459,-0.943,0.0
7.721,0.438,-0.947,0.0
7.383,0.418,-0.948,0.0
9.4,0.528,-0.942,0.0
8.871,0.497,-0.939,0.0
8.457,0.473,-0.943,0.0
8.063,0.45,-0.946,0.0
7.667,0.427,-0.943,0.0
7.357,0.408,-0.948,0.0
9.363,0.516,-0.941,0.0
8.849,0.487,-0.94,0.0
8.423,0.462,-0.942,0.0
8.013,0.438,-0.943,0.0
7.715,0.421,-0.952,0.0
7.352,0.4,-0.949,0.0
9.307,0.503,-0.939,0.0
8.797,0.474,-0.937,0.0
8.383,0.45,-0.941,0.0
7.996,0.429,-0.944,0.0
7.668,0.41,-0.949,0.0
7.29,0.389,-0.944,0.0
9.337,0.494,-0.944,0.0
8.802,0.464,-0.94,0.0
8.346,0.439,-0.939,0.0
7.943,0.417,-0.939,0.0
7.645,0.4,-0.948,0.0
7.315,0.382,-0.949,0.0
9.313,0.482,-0.944,0.0
8.778,0.453,-0.94,0.0
8.342,0.43,-0.94,0.0
7.973,0.409,-0.945,0.0
7.634,0.391,-0.948,0.0
7.309,0.373,-0.949,0.0
9.292,0.471,-0.944,0.0
8.744,0.441,-0.938,0.0
8.362,0.421,-0.944,0.0
7.928,0.398,-0.941,0.0
7.621,0.381,-0.948,0.0
7.302,0.364,-0.95,0.0
9.231,0.457,-0.939,0.0
8.752,0.432,-0.94,0.0
8.31,0.409,-0.939,0.0
7.936,0.389,-0.943,0.0
7.574,0.37,-0.943,0.0
7.298,0.355,-0.95,0.0
9.247,0.447,-0.942,0.0
8.751,0.421,-0.941,0.0
8.32,0.399,-0.941,0.0
7.954,0.38,-0.946,0.0
7.605,0.362,-0.947,0.0
7.303,0.347,-0.951,0.0
9.229,0.435,-0.941,0.0
8.718,0.41,-0.938,0.0
8.298,0.388,-0.939,0.0
7.944,0.37,-0.945,0.0
7.576,0.352,-0.944,0.0
7.249,0.336,-0.944,0.0
9.241,0.425,-0.942,0.0
8.708,0.399,-0.937,0.0
8.335,0.38,-0.943,0.0
7.91,0.359,-0.941,0.0
7.617,0.345,-0.949,0.0
7.298,0.329,-0.951,0.0
9.236,0.413,-0.941,0.0
8.711,0.388,-0.937,0.0
8.33,0.37,-0.942,0.0
7.925,0.35,-0.942,0.0
7.608,0.335,-0.947,0.0
7.297,0.32,-0.95,0.0
9.233,0.402,-0.94,0.0
8.741,0.379,-0.939,0.0
8.308,0.359,-0.939,0.0
7.912,0.34,-0.94,0.0
7.641,0.327,-0.951,0.0
7.292,0.311,-0.949,0.0
9.27,0.392,-0.943,0.0
8.722,0.367,-0.936,0.0
8.317,0.349,-0.939,0.0
7.928,0.331,-0.941,0.0
7.621,0.317,-0.947,0.0
7.328,0.303,-0.952,0.0
9.247,0.38,-0.939,0.0
8.781,0.359,-0.941,0.0
8.348,0.34,-0.941,0.0
7.966,0.323,-0.944,0.0
7.6,0.307,-0.943,0.0
7.337,0.295,-0.952,0.0
9.311,0.371,-0.944,0.0
8.753,0.347,-0.936,0.0
8.349,0.33,-0.939,0.0
7.985,0.314,-0.944,0.0
7.638,0.299,-0.946,0.0
7.344,0.286,-0.951,0.0
9.32,0.36,-0.942,0.0
8.833,0.34,-0.942,0.0
8.373,0.32,-0.94,0.0
7.97,0.303,-0.94,0.0
7.69,0.291,-0.95,0.0
7.346,0.277,-0.949,0.0
9.384,0.351,-0.946,0.0
8.826,0.328,-0.939,0.0
8.398,0.311,-0.94,0.0
8.012,0.295,-0.942,0.0
7.662,0.281,-0.944,0.0
7.36,0.268,-0.948,0.0
9.389,0.339,-0.943,0.0
8.867,0.319,-0.94,0.0
8.438,0.302,-0.941,0.0
7.972,0.284,-0.935,0.0
7.694,0.272,-0.945,0.0
7.376,0.26,-0.948,0.0
9.394,0.328,-0.94,0.0
8.936,0.31,-0.944,0.0
8.474,0.293,-0.942,0.0
8.068,0.277,-0.943,0.0
7.721,0.264,-0.945,0.0
7.425,0.252,-0.951,0.0
9.496,0.32,-0.946,0.0
8.952,0.3,-0.941,0.0
8.471,0.282,-0.938,0.0
8.08,0.267,-0.94,0.0
7.756,0.255,-0.946,0.0
7.439,0.243,-0.949,0.0
9.534,0.309,-0.945,0.0
8.99,0.29,-0.941,0.0
8.553,0.274,-0.943,0.0
8.13,0.259,-0.942,0.0
7.774,0.246,-0.944,0.0
7.462,0.235,-0.948,0.0
9.595,0.3,-0.946,0.0
9.047,0.281,-0.942,0.0
8.631,0.266,-0.946,0.0
8.211,0.251,-0.947,0.0
7.833,0.238,-0.947,0.0
7.511,0.227,-0.95,0.0
9.616,0.288,-0.942,0.0
9.082,0.27,-0.94,0.0
8.626,0.255,-0.941,0.0
8.216,0.241,-0.942,0.0
7.847,0.229,-0.944,0.0
7.522,0.218,-0.946,0.0
9.704,0.279,-0.945,0.0
9.138,0.261,-0.94,0.0
8.702,0.247,-0.943,0.0
8.28,0.233,-0.944,0.0
7.894,0.221,-0.944,0.0
7.589,0.21,-0.95,0.0
9.754,0.269,-0.943,0.0
9.234,0.252,-0.944,0.0
8.72,0.236,-0.939,0.0
8.354,0.225,-0.947,0.0
7.945,0.212,-0.944,0.0
7.62,0.202,-0.948,0.0
9.834,0.259,-0.944,0.0
9.327,0.244,-0.947,0.0
8.805,0.228,-0.942,0.0
8.395,0.216,-0.946,0.0
7.983,0.204,-0.943,0.0
7.635,0.193,-0.944,0.0
9.912,0.249,-0.944,0.0
9.354,0.233,-0.942,0.0
8.851,0.219,-0.94,0.0
8.436,0.207,-0.944,0.0
8.036,0.195,-0.943,0.0
7.679,0.185,-0.944,0.0
9.987,0.239,-0.944,0.0
9.45,0.224,-0.944,0.0
8.935,0.21,-0.942,0.0
8.472,0.198,-0.941,0.0
8.114,0.188,-0.946,0.0
7.738,0.177,-0.944,0.0
10.097,0.23,-0.946,0.0
9.539,0.215,-0.945,0.0
9.011,0.201,-0.942,0.0
8.575,0.19,-0.945,0.0
8.145,0.179,-0.942,0.0
7.797,0.17,-0.945,0.0
10.209,0.221,-0.947,0.0
9.634,0.206,-0.946,0.0
9.104,0.193,-0.944,0.0
8.621,0.181,-0.942,0.0
8.239,0.171,-0.945,0.0
7.864,0.162,-0.946,0.0
10.292,0.21,-0.945,0.0
9.726,0.197,-0.946,0.0
9.173,0.184,-0.943,0.0
8.69,0.172,-0.941,0.0
8.268,0.162,-0.941,0.0
7.9,0.154,-0.942,0.0
10.408,0.201,-0.946,0.0
9.821,0.188,-0.946,0.0
9.319,0.176,-0.948,0.0
8.759,0.164,-0.94,0.0
8.396,0.155,-0.947,0.0
7.972,0.146,-0.943,0.0
10.488,0.191,-0.943,0.0
9.919,0.178,-0.945,0.0
9.343,0.166,-0.941,0.0
8.854,0.156,-0.941,0.0
8.483,0.147,-0.948,0.0
8.007,0.137,-0.939,0.0
10.647,0.182,-0.946,0.0
10.016,0.169,-0.944,0.0
9.485,0.158,-0.945,0.0
8.969,0.148,-0.944,0.0
8.551,0.139,-0.946,0.0
8.1,0.13,-0.941,0.0
10.772,0.172,-0.945,0.0
10.167,0.16,-0.947,0.0
9.608,0.15,-0.947,0.0
9.079,0.14,-0.945,0.0
8.635,0.131,-0.946,0.0
8.21,0.123,-0.944,0.0
0.0,0.0,0.0,0.0
10.333,0.152,-0.951,0.0
9.733,0.141,-0.948,0.0
9.199,0.131,-0.947,0.0
8.732,0.123,-0.946,0.0
8.329,0.116,-0.948,0.0
11.043,0.152,-0.944,0.0
10.45,0.142,-0.949,0.0
9.823,0.132,-0.945,0.0
9.322,0.123,-0.949,0.0
8.789,0.114,-0.942,0.0
8.38,0.107,-0.943,0.0
11.209,0.143,-0.944,0.0
10.576,0.133,-0.948,0.0
9.974,0.123,-0.948,0.0
9.413,0.115,-0.946,0.0
8.917,0.107,-0.944,0.0
8.469,0.1,-0.943,0.0
11.396,0.134,-0.946,0.0
10.76,0.124,-0.951,0.0
10.111,0.115,-0.948,0.0
9.521,0.106,-0.945,0.0
9.035,0.099,-0.945,0.0
8.576,0.092,-0.944,0.0
11.541,0.123,-0.943,0.0
0.0,0.0,0.0,0.0
10.273,0.106,-0.95,0.0
9.692,0.098,-0.949,0.0
9.169,0.091,-0.947,0.0
8.689,0.085,-0.944,0.0
11.771,0.114,-0.946,0.0
11.093,0.106,-0.951,0.0
10.416,0.097,-0.949,0.0
9.832,0.09,-0.949,0.0
9.315,0.083,-0.949,0.0
8.774,0.077,-0.942,0.0
12.013,0.105,-0.949,0.0
11.304,0.097,-0.954,0.0
10.539,0.088,-0.946,0.0
9.964,0.082,-0.948,0.0
9.412,0.075,-0.946,0.0
8.911,0.07,-0.944,0.0
12.233,0.096,-0.95,0.0
11.442,0.087,-0.949,0.0
10.692,0.08,-0.944,0.0
10.149,0.074,-0.951,0.0
9.616,0.068,-0.953,0.0
9.067,0.063,-0.947,0.0
12.488,0.086,-0.952,0.0
11.484,0.077,-0.936,0.0
10.853,0.071,-0.943,0.0
10.286,0.065,-0.949,0.0
9.695,0.06,-0.947,0.0
9.184,0.055,-0.946,0.0
12.713,0.076,-0.95,0.0
11.854,0.069,-0.949,0.0
11.16,0.063,-0.953,0.0
10.465,0.057,-0.95,0.0
9.88,0.052,-0.95,0.0
9.333,0.048,-0.947,0.0
13.026,0.067,-0.954,0.0
12.119,0.06,-0.952,0.0
11.378,0.054,-0.954,0.0
10.625,0.049,-0.948,0.0
10.053,0.044,-0.951,0.0
9.485,0.04,-0.948,0.0
13.276,0.057,-0.952,0.0
12.358,0.051,-0.951,0.0
11.518,0.045,-0.948,0.0
10.834,0.041,-0.95,0.0
10.255,0.037,-0.954,0.0
9.663,0.033,-0.95,0.0
13.421,0.046,-0.941,0.0
12.641,0.041,-0.953,0.0
11.746,0.037,-0.948,0.0
20.273,0.06,-1.746,0.0
10.419,0.029,-0.952,0.0
9.843,0.026,-0.952,0.0
20.245,0.054,-1.387,0.0
12.867,0.032,-0.95,0.0
12.085,0.028,-0.956,0.0
11.285,0.024,-0.953,0.0
10.585,0.021,-0.95,0.0
10.027,0.019,-0.953,0.0
20.26,0.038,-1.355,0.0
13.225,0.023,-0.954,0.0
12.283,0.019,-0.951,0.0
11.463,0.016,-0.949,0.0
10.801,0.014,-0.952,0.0
10.221,0.011,-0.955,0.0
14.571,0.016,-0.95,0.0
12.603,0.011,-0.955,0.0
11.717,0.008,-0.951,0.0
10.368,0.004,-0.951,0.0
14.88,0.006,-0.945,0.0
12.895,0.002,-0.955,0.0
12.023,0.0,-0.955,0.0
10.597,-0.002,-0.954,0.0
15.31,-0.003,-0.946,0.0
13.195,-0.006,-0.955,0.0
12.262,-0.007,-0.953,0.0
11.484,-0.008,-0.953,0.0
10.758,-0.009,-0.949,0.0
15.688,-0.013,-0.943,0.0
12.563,-0.015,-0.954,0.0
11.745,-0.016,-0.954,0.0
11.045,-0.016,-0.955,0.0
16.256,-0.023,-0.948,0.0
14.905,-0.023,-0.947,0.0
12.905,-0.023,-0.957,0.0
12.054,-0.023,-0.957,0.0
11.282,-0.023,-0.955,0.0
16.643,-0.033,-0.941,0.0
15.297,-0.033,-0.945,0.0
13.231,-0.031,-0.957,0.0
12.306,-0.03,-0.955,0.0
11.5,-0.03,-0.953,0.0
15.755,-0.042,-0.944,0.0
12.624,-0.038,-0.956,0.0
11.813,-0.037,-0.957,0.0
16.394,-0.052,-0.952,0.0
14.997,-0.049,-0.95,0.0
13.005,-0.046,-0.961,0.0
12.131,-0.044,-0.96,0.0
16.751,-0.061,-0.942,0.0
15.416,-0.058,-0.947,0.0
13.294,-0.053,-0.957,0.0
12.439,-0.051,-0.96,0.0
14.717,-0.063,-0.954,0.0
12.745,-0.057,-0.959,0.0
16.469,-0.076,-0.949,0.0
15.117,-0.071,-0.951,0.0
13.975,-0.067,-0.952,0.0
13.107,-0.064,-0.961,0.0
20.291,-0.098,-0.918,73.0
18.516,-0.091,-0.934,0.0
15.552,-0.079,-0.948,0.0
14.469,-0.074,-0.957,0.0
13.387,-0.07,-0.955,0.0
20.297,-0.105,-0.879,7.0
16.174,-0.087,-0.954,0.0
14.843,-0.081,-0.953,0.0
13.924,-0.077,-0.967,0.0
22.578,-0.124,-0.934,4.0
20.247,-0.112,-0.942,15.0
18.236,-0.102,-0.943,0.0
16.648,-0.095,-0.949,0.0
15.313,-0.088,-0.953,0.0
14.152,-0.082,-0.954,0.0
22.634,-0.13,-0.891,6.0
20.279,-0.118,-0.903,41.0
15.761,-0.094,-0.949,0.0
14.609,-0.088,-0.956,0.0
24.644,-0.147,-0.921,0.0
22.395,-0.135,-0.953,1.0
16.37,-0.102,-0.953,0.0
15.053,-0.094,-0.954,0.0
22.612,-0.141,-0.916,35.0
20.277,-0.127,-0.927,65.0
18.406,-0.117,-0.938,0.0
16.872,-0.108,-0.948,0.0
15.538,-0.1,-0.954,0.0
20.22,-0.128,-0.675,0.0
22.643,-0.145,-0.872,2.0
20.258,-0.13,-0.885,7.0
16.103,-0.105,-0.955,0.0
20.207,-0.131,-0.632,15.0
25.01,-0.163,-0.912,0.0
22.592,-0.148,-0.941,21.0
20.209,-0.133,-0.948,12.0
18.188,-0.12,-0.947,0.0
16.636,-0.111,-0.952,0.0
20.207,-0.133,-0.591,29.0
20.259,-0.134,-0.697,0.0
22.594,-0.15,-0.894,20.0
20.265,-0.135,-0.909,48.0
18.689,-0.125,-0.935,0.0
17.079,-0.114,-0.942,0.0
20.185,-0.134,-0.549,37.0
20.208,-0.134,-0.653,10.0
22.48,-0.15,-0.961,4.0
20.175,-0.134,-0.506,35.0
20.211,-0.134,-0.611,27.0
26.212,-0.175,-0.928,0.0
22.611,-0.151,-0.92,39.0
20.286,-0.136,-0.93,67.0
18.45,-0.124,-0.941,0.0
20.171,-0.133,-0.464,33.0
20.186,-0.134,-0.569,32.0
20.212,-0.134,-0.674,2.0
22.583,-0.15,-0.872,1.0
20.271,-0.135,-0.887,5.0
20.157,-0.132,-0.422,38.0
20.176,-0.132,-0.526,36.0
20.197,-0.132,-0.631,17.0
22.565,-0.148,-0.94,23.0
20.231,-0.132,-0.947,18.0
20.158,-0.13,-0.38,37.0
20.18,-0.13,-0.484,28.0
20.19,-0.13,-0.588,28.0
22.621,-0.145,-0.895,12.0
20.268,-0.13,-0.906,40.0
20.152,-0.127,-0.337,35.0
20.166,-0.127,-0.441,36.0
20.187,-0.127,-0.546,30.0
28.058,-0.176,-0.906,2.0
22.503,-0.14,-0.959,4.0
20.149,-0.124,-0.295,35.0
20.151,-0.123,-0.398,36.0
20.176,-0.123,-0.503,28.0
20.187,-0.122,-0.609,15.0
22.599,-0.136,-0.915,21.0
20.146,-0.119,-0.253,33.0
20.151,-0.119,-0.356,37.0
20.158,-0.118,-0.46,34.0
20.193,-0.118,-0.567,26.0
28.071,-0.163,-0.933,3.0
24.366,-0.141,-0.935,0.0
20.148,-0.114,-0.21,16.0
20.14,-0.113,-0.314,36.0
20.161,-0.113,-0.417,36.0
20.189,-0.112,-0.524,28.0
20.225,-0.112,-0.629,1.0
24.833,-0.136,-0.901,0.0
20.155,-0.108,-0.168,30.0
20.132,-0.107,-0.271,35.0
20.147,-0.107,-0.375,34.0
20.174,-0.106,-0.481,31.0
20.19,-0.105,-0.586,7.0
28.063,-0.145,-0.959,1.0
20.153,-0.102,-0.125,29.0
20.145,-0.101,-0.229,26.0
20.15,-0.1,-0.333,37.0
20.15,-0.099,-0.439,33.0
20.19,-0.098,-0.543,18.0
28.036,-0.134,-0.899,18.0
20.154,-0.094,-0.083,30.0
20.144,-0.093,-0.187,30.0
20.138,-0.092,-0.29,35.0
20.154,-0.091,-0.396,30.0
20.186,-0.09,-0.501,27.0
58.423,-0.257,-1.751,2.0
20.139,-0.086,-0.041,29.0
20.14,-0.085,-0.144,34.0
20.144,-0.084,-0.248,32.0
20.139,-0.082,-0.353,27.0
20.16,-0.081,-0.458,27.0
58.428,-0.231,-1.629,6.0
20.136,-0.077,0.001,35.0
20.144,-0.076,-0.102,29.0
20.159,-0.075,-0.206,26.0
20.143,-0.073,-0.312,29.0
20.161,-0.071,-0.416,26.0
33.179,-0.115,-0.856,4.0
20.139,-0.068,0.042,39.0
20.138,-0.066,-0.06,29.0
20.143,-0.065,-0.164,34.0
20.13,-0.063,-0.27,28.0
20.143,-0.061,-0.374,18.0
20.169,-0.06,-0.478,6.0
20.138,-0.057,0.084,44.0
20.121,-0.056,-0.019,36.0
20.131,-0.054,-0.122,29.0
20.122,-0.052,-0.228,13.0
20.155,-0.05,-0.332,25.0
20.173,-0.049,-0.437,6.0
20.117,-0.046,0.126,36.0
20.129,-0.044,0.022,35.0
20.14,-0.042,-0.08,31.0
20.139,-0.041,-0.186,28.0
20.168,-0.039,-0.29,25.0
20.188,-0.037,-0.395,5.0
20.122,-0.034,0.168,39.0
20.135,-0.032,0.064,42.0
20.121,-0.03,-0.039,31.0
20.152,-0.028,-0.145,28.0
20.14,-0.026,-0.249,14.0
20.18,-0.024,-0.353,2.0
20.112,-0.022,0.208,35.0
20.121,-0.02,0.105,36.0
20.131,-0.018,0.001,26.0
20.176,-0.016,-0.104,24.0
20.164,-0.013,-0.208,7.0
20.205,-0.011,-0.313,1.0
20.118,-0.009,0.25,27.0
20.132,-0.006,0.146,27.0
20.16,-0.004,0.042,23.0
20.209,-0.002,-0.063,19.0
20.207,0.0,-0.167,13.0
20.231,0.002,-0.272,10.0
20.126,0.004,0.291,29.0
20.123,0.007,0.187,27.0
20.133,0.009,0.083,31.0
20.226,0.012,-0.022,153.0
20.267,0.014,-0.127,151.0
20.27,0.017,-0.231,150.0
20.127,0.019,0.332,27.0
20.138,0.022,0.228,27.0
20.129,0.024,0.124,27.0
20.255,0.027,0.018,150.0
20.259,0.03,-0.086,151.0
20.26,0.032,-0.191,150.0
20.141,0.035,0.372,27.0
20.138,0.037,0.268,29.0
20.128,0.04,0.164,26.0
20.144,0.043,0.058,17.0
20.251,0.046,-0.045,7.0
20.229,0.049,-0.15,22.0
20.146,0.051,0.413,29.0
20.139,0.054,0.308,28.0
20.138,0.056,0.204,28.0
20.145,0.059,0.098,28.0
20.21,0.062,-0.005,29.0
20.204,0.065,-0.11,25.0
20.153,0.068,0.452,29.0
20.146,0.07,0.348,27.0
20.156,0.074,0.244,26.0
20.148,0.077,0.138,26.0
20.2,0.08,0.034,36.0
20.2,0.083,-0.07,30.0
20.166,0.085,0.493,25.0
20.147,0.088,0.388,26.0
20.144,0.091,0.283,27.0
20.149,0.095,0.177,28.0
20.189,0.098,0.073,34.0
20.184,0.101,-0.031,30.0
20.193,0.104,0.533,27.0
20.158,0.107,0.427,27.0
20.16,0.11,0.323,28.0
20.168,0.113,0.216,26.0
20.164,0.116,0.112,23.0
20.189,0.12,0.007,30.0
20.184,0.123,0.571,17.0
20.174,0.126,0.466,22.0
20.159,0.129,0.361,25.0
20.166,0.132,0.254,25.0
20.166,0.136,0.15,25.0
20.205,0.139,0.045,25.0
20.222,0.142,0.611,9.0
20.165,0.145,0.504,19.0
20.171,0.149,0.4,24.0
20.17,0.152,0.292,24.0
20.188,0.156,0.188,22.0
20.23,0.16,0.083,29.0
20.3,0.163,0.651,0.0
20.22,0.166,0.544,17.0
20.228,0.17,0.439,24.0
20.233,0.173,0.331,26.0
20.296,0.177,0.227,26.0
20.292,0.181,0.121,26.0
103.801,0.943,3.526,30.0
20.268,0.187,0.582,16.0
20.277,0.191,0.477,29.0
20.275,0.195,0.369,29.0
20.275,0.198,0.264,27.0
20.295,0.202,0.158,29.0
103.94,1.054,3.722,21.0
20.269,0.209,0.62,4.0
20.271,0.213,0.514,29.0
20.267,0.216,0.406,34.0
20.289,0.22,0.301,30.0
20.287,0.224,0.195,25.0
103.984,1.168,3.913,19.0
118.007,1.348,3.825,20.0
20.265,0.235,0.55,20.0
20.28,0.239,0.443,26.0
20.278,0.243,0.337,25.0
20.302,0.247,0.232,20.0
103.964,1.285,4.1,31.0
102.948,1.293,3.522,7.0
20.289,0.258,0.588,1.0
20.284,0.262,0.479,25.0
20.285,0.266,0.373,14.0
20.294,0.27,0.268,3.0
103.917,1.405,4.283,31.0
103.001,1.412,3.705,9.0
125.06,1.739,3.843,29.0
156.984,2.215,3.989,21.0
195.669,2.8,3.948,21.0
194.733,2.826,2.91,35.0
103.913,1.527,4.464,19.0
118.533,1.766,4.471,23.0
125.088,1.89,4.064,30.0
0.0,0.0,0.0,0.0
196.329,3.046,4.301,26.0
194.86,3.064,3.25,26.0
103.673,1.649,4.632,37.0
118.483,1.909,4.673,8.0
125.041,2.04,4.275,28.0
0.0,0.0,0.0,0.0
197.44,3.304,4.659,7.0
195.103,3.307,3.582,23.0
103.687,1.778,4.81,53.0
125.296,2.175,5.154,5.0
124.823,2.194,4.48,23.0
148.427,2.64,4.532,3.0
0.0,0.0,0.0,0.0
194.588,3.545,3.9,11.0
103.732,1.91,4.985,16.0
118.341,2.203,5.064,30.0
124.776,2.349,4.682,24.0
0.0,0.0,0.0,0.0
0.0,0.0,0.0,0.0
194.415,3.79,4.212,15.0
69.306,1.365,3.444,7.0
118.28,2.354,5.253,15.0
124.736,2.511,4.884,19.0
0.0,0.0,0.0,0.0
0.0,0.0,0.0,0.0
194.485,4.045,4.524,16.0
103.775,2.18,5.324,8.0
118.088,2.506,5.434,3.0
124.668,2.674,5.079,8.0
140.366,3.042,4.965,4.0
0.0,0.0,0.0,0.0
194.781,4.307,4.834,20.0
103.693,2.315,5.481,4.0
110.46,2.49,5.254,3.0
124.953,2.846,5.284,2.0
132.615,3.051,4.895,3.0
148.548,3.45,4.698,3.0
194.775,4.569,5.132,19.0
110.206,2.61,5.995,6.0
103.82,2.482,5.099,2.0
124.883,3.014,5.471,3.0
132.841,3.235,5.103,2.0
148.266,3.646,4.913,2.0
194.477,4.828,5.416,8.0
69.405,1.739,3.881,3.0
104.037,2.631,5.265,5.0
124.925,3.188,5.661,3.0
102.631,2.642,4.095,6.0
206.897,5.376,7.162,6.0
0.0,0.0,0.0,0.0
69.354,1.835,3.981,7.0
103.821,2.771,5.407,7.0
110.541,2.976,5.17,3.0
120.125,3.262,4.969,6.0
193.896,5.311,6.991,6.0
193.263,5.34,5.946,24.0
69.637,1.942,4.097,1.0
103.402,2.907,5.534,4.0
110.543,3.134,5.328,7.0
194.925,5.574,8.341,5.0
193.837,5.588,7.265,6.0
193.013,5.609,6.208,24.0
67.442,1.977,4.063,4.0
103.716,3.066,5.697,7.0
110.289,3.286,5.469,9.0
102.132,3.067,4.511,1.0
193.517,5.858,7.519,16.0
193.45,5.903,6.489,20.0
118.568,3.649,7.306,7.0
103.711,3.217,5.837,6.0
103.002,3.22,5.249,4.0
110.552,3.482,5.033,1.0
193.487,6.141,7.777,24.0
193.56,6.19,6.75,19.0
201.251,6.492,12.673,16.0
103.815,3.374,5.982,9.0
117.396,3.843,6.137,3.0
117.854,3.887,5.52,6.0
194.03,6.447,8.055,8.0
193.674,6.484,7.006,20.0
68.296,2.305,4.389,6.0
67.442,2.292,3.973,3.0
118.283,4.049,6.335,3.0
117.871,4.063,5.671,4.0
196.18,6.812,8.392,16.0
193.712,6.775,7.253,21.0
68.784,2.425,4.508,4.0
69.536,2.469,4.184,6.0
103.588,3.702,5.678,2.0
195.675,7.043,9.658,17.0
196.169,7.107,8.632,5.0
194.573,7.097,7.519,20.0
68.843,2.531,4.596,7.0
68.249,2.525,4.189,10.0
103.685,3.862,5.808,3.0
195.395,7.328,9.877,17.0
198.496,7.494,8.971,5.0
197.904,7.52,7.884,5.0
53.4,2.045,3.628,2.0
68.296,2.633,4.273,2.0
103.532,4.016,5.921,2.0
194.77,7.603,10.072,17.0
194.897,7.655,9.032,9.0
195.159,7.715,7.998,21.0
67.414,2.686,4.658,6.0
68.739,2.755,4.379,7.0
68.584,2.766,4.0,2.0
194.742,7.904,10.289,26.0
194.371,7.936,9.224,19.0
194.999,8.011,8.207,18.0
0.0,0.0,0.0,0.0
69.248,2.884,4.488,5.0
67.4,2.824,4.005,2.0
195.154,8.226,10.525,20.0
194.297,8.24,9.433,21.0
193.334,8.246,8.346,13.0
68.445,2.943,4.88,6.0
69.518,3.006,4.58,4.0
67.385,2.93,4.076,3.0
195.511,8.548,10.749,32.0
193.816,8.523,9.611,25.0
193.469,8.555,8.551,19.0
52.693,2.348,3.811,5.0
69.581,3.118,4.656,2.0
67.295,3.033,4.139,4.0
195.861,8.875,10.967,22.0
194.624,8.868,9.845,20.0
192.928,8.838,8.718,24.0
47.508,2.193,3.484,2.0
69.609,3.23,4.726,0.0
67.199,3.135,4.198,2.0
196.137,9.2,11.173,26.0
194.881,9.189,10.047,14.0
192.771,9.138,8.894,23.0
52.209,2.494,3.878,5.0
47.331,2.272,3.259,1.0
67.186,3.242,4.261,1.0
198.128,9.609,11.469,6.0
194.332,9.477,10.197,25.0
193.099,9.463,9.087,20.0
51.457,2.541,3.87,1.0
47.665,2.365,3.325,0.0
67.092,3.345,4.315,1.0
206.041,10.325,12.112,6.0
195.399,9.841,10.424,10.0
192.955,9.767,9.248,23.0
51.382,2.62,3.909,2.0
47.773,2.448,3.374,2.0
67.137,3.456,4.375,2.0
205.556,10.633,12.257,12.0
194.086,10.088,10.519,25.0
193.898,10.125,9.455,8.0
241.783,12.721,18.595,23.0
47.802,2.527,3.415,2.0
0.0,0.0,0.0,0.0
0.0,0.0,0.0,0.0
194.099,10.405,10.676,21.0
193.784,10.435,9.603,20.0
242.2,13.139,18.821,13.0
47.86,2.608,3.457,1.0
0.0,0.0,0.0,0.0
0.0,0.0,0.0,0.0
195.538,10.793,10.899,17.0
193.731,10.742,9.743,23.0
47.214,2.637,3.704,2.0
47.849,2.684,3.492,2.0
206.36,11.626,13.928,6.0
206.634,11.69,12.795,21.0
195.757,11.123,11.053,15.0
193.543,11.043,9.87,22.0
47.219,2.714,3.737,3.0
47.101,2.718,3.469,2.0
206.282,11.955,14.063,6.0
0.0,0.0,0.0,0.0
110.252,6.441,6.298,1.0
194.116,11.389,10.027,20.0
47.192,2.788,3.766,4.0
46.957,2.786,3.489,1.0
206.642,12.308,14.221,8.0
208.14,12.447,13.161,6.0
110.896,6.659,6.405,1.0
194.163,11.706,10.151,24.0
46.982,2.853,3.779,4.0
244.052,14.878,18.287,23.0
207.095,12.674,14.379,6.0
207.684,12.757,13.258,20.0
207.891,12.82,12.128,6.0
195.167,12.081,10.316,8.0
46.873,2.922,3.797,4.0
244.521,15.304,18.463,25.0
110.284,6.927,7.718,3.0
0.0,0.0,0.0,0.0
197.094,12.474,11.607,5.0
195.019,12.39,10.414,11.0
244.986,15.674,19.979,15.0
244.934,15.727,18.623,17.0
0.0,0.0,0.0,0.0
0.0,0.0,0.0,0.0
0.0,0.0,0.0,0.0
195.873,12.76,10.556,16.0
45.791,3.004,3.757,2.0
245.277,16.144,18.767,26.0
111.444,7.36,7.911,6.0
110.663,7.333,7.234,6.0
120.404,8.007,7.205,1.0
0.0,0.0,0.0,0.0
45.837,3.081,3.781,2.0
47.521,3.204,3.657,0.0
245.734,16.624,17.55,12.0
111.352,7.558,7.326,6.0
110.775,7.543,6.676,1.0
120.349,8.224,6.588,2.0
246.225,16.999,19.047,19.0
246.259,17.054,17.682,15.0
108.282,7.522,7.165,4.0
111.309,7.758,6.75,16.0
121.266,8.479,6.683,2.0
246.696,17.421,19.171,19.0
246.735,17.476,17.802,20.0
111.851,7.946,7.439,1.0
92.515,6.592,5.641,1.0
91.949,6.573,5.097,3.0
247.103,17.838,19.279,13.0
107.252,7.765,7.772,7.0
117.463,8.531,7.846,1.0
109.786,7.997,6.725,6.0
111.088,8.117,6.19,14.0
107.843,7.955,8.442,7.0
111.048,8.216,8.075,5.0
91.134,6.761,6.112,1.0
108.131,8.046,6.65,5.0
92.352,6.891,5.168,9.0
107.355,8.064,9.029,6.0
247.888,18.674,19.463,10.0
109.358,8.262,7.976,3.0
120.488,9.126,8.106,4.0
99.938,7.591,6.168,3.0
92.289,7.031,5.182,1.0
107.383,8.256,8.451,12.0
107.77,8.308,7.88,3.0
91.384,7.064,6.163,4.0
111.76,8.662,6.915,2.0
97.057,7.544,5.465,4.0
248.732,19.512,19.61,13.0
110.194,8.667,8.072,6.0
97.432,7.682,6.584,2.0
91.311,7.217,5.661,8.0
120.742,9.569,6.813,7.0
106.92,8.529,9.04,2.0
108.319,8.661,8.552,4.0
114.634,9.189,8.408,6.0
91.625,7.362,6.199,6.0
97.354,7.842,6.043,6.0
85.493,6.904,4.83,1.0
116.187,9.443,9.832,15.0
116.154,9.462,9.176,12.0
116.058,9.476,8.519,18.0
109.308,8.945,7.401,4.0
91.535,7.509,5.685,6.0
85.008,6.991,4.805,1.0
117.782,9.748,9.969,8.0
117.856,9.775,9.313,13.0
112.257,9.333,8.241,6.0
85.568,7.129,5.794,2.0
115.971,9.685,7.202,16.0
84.886,7.106,4.797,1.0
115.591,9.738,9.782,7.0
112.507,9.498,8.887,6.0
108.186,9.152,7.939,6.0
87.703,7.435,5.935,2.0
97.809,8.31,6.07,6.0
84.934,7.232,4.796,4.0
109.831,9.41,9.288,3.0
96.453,8.281,7.614,6.0
115.201,9.912,8.446,7.0
91.999,7.932,6.219,8.0
85.47,7.385,5.297,3.0
85.004,7.36,4.793,5.0
99.48,8.667,8.404,6.0
111.777,9.758,8.812,3.0
114.751,10.039,8.4,6.0
107.426,9.416,7.249,7.0
85.338,7.496,5.279,4.0
83.9,7.385,4.719,1.0
109.747,9.718,9.256,2.0
109.624,9.726,8.625,6.0
96.528,8.581,7.051,9.0
97.342,8.67,6.552,2.0
85.24,7.607,5.259,2.0
91.757,8.206,5.146,4.0
109.516,9.853,9.217,2.0
99.572,8.975,7.816,4.0
84.841,7.66,6.181,4.0
97.279,8.8,6.529,2.0
85.202,7.722,5.239,1.0
83.928,7.622,4.689,7.0
99.216,9.063,8.328,4.0
98.803,9.041,7.735,7.0
96.776,8.872,7.028,11.0
84.928,7.799,5.68,7.0
89.114,8.199,5.458,2.0
83.745,7.72,4.658,4.0
92.609,8.586,7.75,2.0
96.091,8.924,7.496,2.0
96.556,8.983,6.986,6.0
86.09,8.023,5.734,2.0
78.352,7.315,4.777,4.0
83.926,7.85,4.644,4.0
86.089,8.099,7.177,1.0
85.742,8.079,6.662,9.0
80.251,7.574,5.781,2.0
87.634,8.284,5.809,5.0
84.544,8.006,5.127,14.0
84.049,7.973,4.623,4.0
92.179,8.792,7.655,9.0
86.0,8.215,6.654,5.0
92.95,8.893,6.664,9.0
92.355,8.851,6.089,1.0
84.994,8.158,5.124,3.0
84.539,8.128,4.619,5.0
91.391,8.835,7.555,3.0
84.187,8.151,6.48,5.0
84.191,8.164,6.003,5.0
84.938,8.248,5.567,10.0
97.755,9.507,5.854,8.0
84.679,8.249,4.592,5.0
92.274,9.037,7.59,4.0
79.912,7.836,6.119,2.0
80.259,7.881,5.69,1.0
86.902,8.546,5.659,2.0
99.977,9.847,5.944,5.0
85.013,8.386,4.573,11.0
68.742,6.816,5.624,1.0
80.025,7.945,6.091,3.0
83.949,8.346,5.913,3.0
80.412,8.005,5.199,12.0
88.35,8.807,5.212,2.0
85.144,8.5,4.541,10.0
91.765,9.208,7.463,7.0
78.152,7.852,5.911,2.0
83.989,8.449,5.874,3.0
76.737,7.73,4.923,2.0
90.77,9.156,5.309,5.0
79.723,8.053,4.211,3.0
86.117,8.743,6.958,3.0
68.655,6.978,5.156,3.0
84.141,8.562,5.841,4.0
78.48,7.996,4.993,2.0
90.138,9.195,5.224,4.0
79.743,8.146,4.17,4.0
85.727,8.801,6.879,3.0
68.744,7.065,5.125,3.0
84.216,8.665,5.799,2.0
78.523,8.088,4.952,3.0
99.068,10.217,5.685,15.0
79.636,8.223,4.118,3.0
85.317,8.853,6.797,5.0
68.714,7.137,5.081,2.0
84.627,8.8,5.776,10.0
73.018,7.601,4.561,1.0
81.082,8.451,4.604,4.0
84.05,8.771,4.295,2.0
78.763,8.258,6.226,10.0
74.293,7.796,5.448,3.0
84.521,8.879,5.716,4.0
69.197,7.276,4.279,5.0
80.953,8.522,4.545,4.0
76.807,8.095,3.876,1.0
78.865,8.35,6.182,8.0
73.9,7.832,5.371,2.0
84.275,8.94,5.644,5.0
69.127,7.34,4.228,3.0
81.033,8.614,4.495,6.0
84.981,9.044,4.23,6.0
78.74,8.417,6.119,2.0
77.498,8.291,5.579,3.0
84.336,9.031,5.589,4.0
88.832,9.522,5.371,4.0
81.051,8.696,4.439,5.0
90.554,9.726,4.444,12.0
90.739,9.788,6.985,2.0
80.105,8.647,5.709,1.0
84.367,9.115,5.531,4.0
76.794,8.304,4.588,2.0
77.105,8.346,4.167,3.0
90.579,9.813,4.38,12.0
84.255,9.167,6.423,11.0
73.926,8.049,5.213,5.0
84.453,9.203,5.472,5.0
76.659,8.361,4.521,2.0
79.759,8.706,4.249,2.0
87.142,9.521,4.146,4.0
74.559,8.179,5.626,4.0
77.596,8.519,5.411,6.0
78.718,8.648,5.039,4.0
89.674,9.86,5.218,5.0
91.902,10.113,4.823,17.0
90.448,9.962,4.231,2.0
74.324,8.218,5.548,3.0
77.743,8.602,5.358,6.0
85.813,9.501,5.424,7.0
89.93,9.964,5.159,3.0
83.583,9.268,4.319,3.0
91.695,10.176,4.215,24.0
68.7,7.653,5.071,4.0
75.853,8.454,5.165,4.0
85.693,9.557,5.344,12.0
89.746,10.016,5.074,2.0
87.757,9.801,4.461,4.0
85.862,9.597,3.874,17.0
68.652,7.701,5.009,5.0
68.184,7.653,4.584,5.0
85.692,9.623,5.271,11.0
80.04,8.994,4.457,4.0
87.689,9.861,4.38,4.0
85.862,9.662,3.8,20.0
68.455,7.73,4.934,7.0
68.248,7.711,4.528,4.0
77.598,8.772,4.703,4.0
0.0,0.0,0.0,0.0
107.4,12.155,5.269,25.0
85.864,9.724,3.723,19.0
84.598,9.613,6.021,5.0
73.896,8.401,4.835,3.0
77.367,8.8,4.618,2.0
76.701,8.729,4.131,8.0
107.908,12.287,5.196,10.0
85.838,9.78,3.642,18.0
67.704,7.739,4.755,5.0
73.24,8.375,4.724,3.0
73.0,8.351,4.289,1.0
75.806,8.676,4.013,2.0
136.978,15.685,6.467,11.0
85.862,9.838,3.562,13.0
76.81,8.828,5.321,3.0
81.041,9.317,5.149,3.0
75.304,8.661,4.353,1.0
95.603,11.001,4.968,3.0
105.21,12.112,4.864,12.0
91.814,10.575,3.72,14.0
68.157,7.873,4.655,3.0
78.321,9.05,4.899,9.0
87.045,10.061,4.946,2.0
90.636,10.48,4.621,11.0
86.991,10.063,3.938,9.0
85.916,9.943,3.396,15.0
68.439,7.943,4.607,3.0
78.285,9.088,4.819,5.0
75.555,8.773,4.217,5.0
90.651,10.53,4.531,25.0
90.693,10.538,4.014,8.0
85.903,9.986,3.31,20.0
73.211,8.534,4.853,5.0
78.311,9.13,4.741,1.0
87.737,10.231,4.807,14.0
90.691,10.578,4.44,20.0
90.763,10.59,3.924,31.0
92.0,10.738,3.451,29.0
68.528,8.019,4.471,4.0
80.728,9.448,4.803,3.0
87.672,10.263,4.713,12.0
90.698,10.62,4.346,14.0
90.873,10.643,3.833,46.0
92.024,10.782,3.355,32.0
68.483,8.043,4.396,2.0
75.462,8.863,4.409,4.0
85.641,10.06,4.512,14.0
90.659,10.651,4.248,19.0
90.949,10.688,3.74,24.0
92.001,10.815,3.256,24.0
84.779,9.988,5.351,4.0
75.428,8.887,4.327,4.0
85.776,10.107,4.427,22.0
90.673,10.686,4.15,12.0
103.69,12.223,4.149,13.0
92.002,10.847,3.155,9.0
74.688,8.824,4.631,3.0
89.743,10.603,5.048,7.0
85.729,10.129,4.329,24.0
86.857,10.264,3.879,14.0
85.934,10.156,3.344,19.0
98.481,11.642,3.267,6.0
78.651,9.315,4.789,3.0
80.708,9.559,4.449,6.0
85.734,10.154,4.234,42.0
92.396,10.944,4.022,26.0
85.915,10.177,3.248,13.0
115.034,13.628,3.689,8.0
71.152,8.444,4.252,2.0
80.881,9.598,4.369,9.0
85.745,10.175,4.138,42.0
92.358,10.96,3.917,28.0
91.605,10.871,3.36,15.0
114.876,13.634,3.555,4.0
75.329,8.955,4.416,3.0
80.957,9.622,4.281,3.0
85.741,10.19,4.042,52.0
85.775,10.194,3.541,10.0
91.526,10.877,3.254,41.0
147.306,17.508,4.392,11.0
80.506,9.582,4.628,7.0
92.56,11.015,4.788,35.0
85.741,10.202,3.943,53.0
85.821,10.211,3.445,22.0
91.589,10.897,3.15,19.0
97.673,11.621,2.799,16.0
68.39,8.147,3.851,3.0
92.577,11.026,4.68,17.0
85.755,10.212,3.843,52.0
85.864,10.224,3.345,32.0
96.84,11.53,3.217,15.0
97.652,11.626,2.685,35.0
89.797,10.703,4.951,5.0
103.425,12.324,5.107,9.0
85.741,10.215,3.741,51.0
85.86,10.227,3.244,29.0
96.907,11.542,3.105,16.0
97.683,11.633,2.569,44.0
89.844,10.71,4.847,11.0
85.737,10.217,4.133,15.0
85.732,10.214,3.639,38.0
91.482,10.897,3.349,33.0
96.981,11.55,2.993,7.0
97.726,11.637,2.456,49.0
92.621,11.038,4.887,13.0
85.731,10.213,4.031,39.0
85.759,10.214,3.539,29.0
91.528,10.898,3.243,48.0
147.261,17.531,4.371,11.0
97.726,11.632,2.34,51.0
92.579,11.026,4.774,29.0
85.738,10.207,3.929,52.0
85.813,10.213,3.439,20.0
91.619,10.9,3.136,13.0
97.677,11.618,2.784,22.0
97.73,11.622,2.223,46.0
92.543,11.01,4.662,19.0
85.832,10.207,3.83,43.0
85.899,10.211,3.339,17.0
96.782,11.501,3.197,9.0
97.665,11.603,2.665,42.0
97.706,11.604,2.107,31.0
85.749,10.188,4.215,33.0
92.375,10.97,4.01,23.0
85.921,10.199,3.236,12.0
114.88,13.63,3.655,7.0
97.703,11.588,2.548,48.0
97.701,11.585,1.987,32.0
85.805,10.176,4.113,35.0
92.335,10.944,3.896,14.0
91.907,10.888,3.35,18.0
98.231,11.632,3.005,19.0
97.751,11.571,2.431,48.0
97.709,11.562,1.87,32.0
86.819,10.273,4.057,19.0
103.689,12.262,4.25,19.0
91.948,10.868,3.24,26.0
97.875,11.563,2.877,30.0
97.797,11.549,2.314,36.0
97.75,11.539,1.753,22.0
86.876,10.253,3.955,11.0
85.932,10.135,3.418,15.0
96.709,11.4,3.291,9.0
97.644,11.504,2.752,42.0
97.798,11.517,2.196,22.0
97.795,11.511,1.636,14.0
90.738,10.677,4.02,13.0
85.954,10.107,3.315,16.0
98.396,11.563,3.23,18.0
97.715,11.477,2.637,35.0
97.801,11.481,2.08,10.0
149.661,17.56,2.325,10.0
90.813,10.65,3.916,43.0
92.017,10.783,3.439,37.0
97.399,11.407,3.08,14.0
97.786,11.445,2.522,20.0
149.354,17.47,2.996,8.0
149.749,17.507,2.147,18.0
90.895,10.619,3.809,20.0
99.067,11.565,3.583,17.0
97.428,11.366,2.964,42.0
97.757,11.397,2.403,11.0
149.399,17.407,2.818,14.0
149.795,17.444,1.967,8.0
85.888,9.992,3.496,43.0
99.081,11.518,3.464,7.0
97.623,11.34,2.852,5.0
149.695,17.377,3.5,11.0
149.462,17.338,2.638,16.0
75.516,8.754,0.901,3.0
91.841,10.635,3.627,17.0
97.282,11.256,3.283,17.0
97.79,11.306,2.74,24.0
153.213,17.7,3.399,4.0
149.557,17.264,2.46,15.0
75.405,8.699,0.808,7.0
91.753,10.572,3.512,7.0
97.263,11.196,3.165,7.0
97.8,11.249,2.622,27.0
153.225,17.61,3.216,5.0
149.534,17.172,2.282,19.0
75.34,8.645,0.718,6.0
96.979,11.113,3.597,5.0
104.274,11.938,3.269,16.0
97.827,11.189,2.506,3.0
144.07,16.464,2.851,9.0
149.692,17.093,2.105,5.0
75.194,8.579,0.627,3.0
97.175,11.071,3.489,9.0
104.258,11.866,3.145,19.0
144.115,16.386,3.523,12.0
144.043,16.363,2.68,15.0
0.0,0.0,0.0,0.0
75.256,8.534,0.539,3.0
97.104,10.993,3.372,17.0
97.732,11.053,2.833,18.0
144.067,16.276,3.353,11.0
144.072,16.262,2.514,16.0
0.0,0.0,0.0,0.0
75.132,8.465,0.451,2.0
104.694,11.773,3.512,20.0
97.72,10.976,2.719,35.0
103.963,11.665,2.296,9.0
103.782,11.632,1.687,35.0
76.787,8.598,0.81,1.0
75.414,8.437,0.365,13.0
97.924,10.933,3.171,13.0
104.47,11.65,2.785,19.0
103.856,11.568,2.175,37.0
103.721,11.541,1.568,35.0
76.87,8.545,0.723,1.0
75.678,8.404,0.279,7.0
97.693,10.824,3.051,40.0
103.927,11.501,2.652,34.0
103.873,11.481,2.056,36.0
149.729,16.532,2.093,9.0
82.006,9.045,0.678,4.0
76.176,8.393,0.195,9.0
98.166,10.79,2.955,15.0
103.924,11.408,2.535,48.0
149.739,16.417,2.797,19.0
149.932,16.42,1.928,3.0
0.0,0.0,0.0,0.0
76.68,8.378,0.11,7.0
104.477,11.386,3.028,12.0
115.735,12.596,2.692,18.0
149.863,16.289,2.63,21.0
0.0,0.0,0.0,0.0
82.116,8.904,0.494,3.0
77.268,8.369,0.026,7.0
103.652,11.195,2.89,27.0
115.694,12.479,2.563,23.0
109.255,11.768,1.798,55.0
0.0,0.0,0.0,0.0
82.062,8.817,0.405,6.0
82.017,8.801,-0.062,150.0
108.798,11.641,2.914,42.0
109.236,11.671,2.302,55.0
109.304,11.662,1.679,46.0
0.0,0.0,0.0,0.0
82.091,8.735,0.316,2.0
82.086,8.723,-0.15,0.0
108.939,11.541,2.801,30.0
109.24,11.556,2.185,60.0
115.605,12.211,1.653,27.0
0.0,0.0,0.0,0.0
82.125,8.651,0.23,1.0
0.0,0.0,0.0,0.0
109.27,11.458,2.694,34.0
115.573,12.1,2.19,19.0
115.6,12.084,1.533,23.0
82.255,8.586,0.612,2.0
0.0,0.0,0.0,0.0
82.673,8.604,-0.325,0.0
109.23,11.329,2.579,37.0
115.724,11.984,2.073,21.0
115.642,11.956,1.413,4.0
0.0,0.0,0.0,0.0
0.0,0.0,0.0,0.0
82.729,8.514,-0.41,1.0
115.718,11.867,2.614,45.0
150.643,15.423,2.546,21.0
150.732,15.407,1.69,4.0
0.0,0.0,0.0,0.0
0.0,0.0,0.0,0.0
0.0,0.0,0.0,0.0
137.758,13.96,2.974,11.0
150.655,15.239,2.395,25.0
0.0,0.0,0.0,0.0
0.0,0.0,0.0,0.0
0.0,0.0,0.0,0.0
0.0,0.0,0.0,0.0
121.567,12.167,2.504,48.0
121.604,12.147,1.813,42.0
0.0,0.0,0.0,0.0
0.0,0.0,0.0,0.0
85.431,8.489,-0.19,1.0
68.773,6.822,-0.544,0.0
121.512,12.005,2.386,56.0
121.599,11.99,1.697,61.0
0.0,0.0,0.0,0.0
0.0,0.0,0.0,0.0
0.0,0.0,0.0,0.0
0.0,0.0,0.0,0.0
121.652,11.857,2.273,12.0
151.039,14.691,1.965,18.0
0.0,0.0,0.0,0.0
92.31,8.943,0.144,5.0
0.0,0.0,0.0,0.0
0.0,0.0,0.0,0.0
151.178,14.526,2.686,29.0
151.291,14.507,1.831,13.0
0.0,0.0,0.0,0.0
92.447,8.829,0.06,2.0
0.0,0.0,0.0,0.0
0.0,0.0,0.0,0.0
151.178,14.316,2.552,31.0
151.776,14.341,1.701,3.0
0.0,0.0,0.0,0.0
92.49,8.703,-0.02,1.0
0.0,0.0,0.0,0.0
0.0,0.0,0.0,0.0
151.687,14.145,2.426,25.0
129.593,12.058,1.339,2.0
92.866,8.621,0.433,150.0
0.0,0.0,0.0,0.0
68.768,6.357,-0.464,0.0
0.0,0.0,0.0,0.0
152.007,13.95,2.303,28.0
0.0,0.0,0.0,0.0
0.0,0.0,0.0,0.0
0.0,0.0,0.0,0.0
68.872,6.263,-0.522,2.0
0.0,0.0,0.0,0.0
152.517,13.768,2.186,32.0
108.551,9.775,0.942,3.0
0.0,0.0,0.0,0.0
0.0,0.0,0.0,0.0
68.844,6.156,-0.576,0.0
0.0,0.0,0.0,0.0
152.869,13.567,2.071,29.0
108.34,9.59,0.855,3.0
107.605,9.5,0.241,19.0
0.0,0.0,0.0,0.0
0.0,0.0,0.0,0.0
0.0,0.0,0.0,0.0
153.86,13.41,1.966,12.0
107.899,9.381,0.769,8.0
107.61,9.332,0.16,40.0
0.0,0.0,0.0,0.0
0.0,0.0,0.0,0.0
0.0,0.0,0.0,0.0
128.857,11.029,1.552,7.0
107.944,9.213,0.691,3.0
107.778,9.173,0.082,19.0
0.0,0.0,0.0,0.0
0.0,0.0,0.0,0.0
0.0,0.0,0.0,0.0
115.357,9.682,1.307,12.0
108.568,9.086,0.618,3.0
108.258,9.035,0.006,5.0
68.905,5.735,-0.39,2.0
0.0,0.0,0.0,0.0
0.0,0.0,0.0,0.0
0.0,0.0,0.0,0.0
110.423,9.059,0.555,10.0
109.244,8.935,-0.065,2.0
68.888,5.619,-0.436,2.0
0.0,0.0,0.0,0.0
40.379,3.274,-0.71,0.0
0.0,0.0,0.0,0.0
113.961,9.156,0.499,13.0
110.738,8.869,-0.137,2.0
0.0,0.0,0.0,0.0
0.0,0.0,0.0,0.0
0.0,0.0,0.0,0.0
114.664,9.043,1.077,2.0
114.026,8.967,0.43,150.0
0.0,0.0,0.0,0.0
0.0,0.0,0.0,0.0
0.0,0.0,0.0,0.0
0.0,0.0,0.0,0.0
0.0,0.0,0.0,0.0
114.109,8.773,0.365,25.0
0.0,0.0,0.0,0.0
0.0,0.0,0.0,0.0
0.0,0.0,0.0,0.0
0.0,0.0,0.0,0.0
0.0,0.0,0.0,0.0
0.0,0.0,0.0,0.0
0.0,0.0,0.0,0.0
0.0,0.0,0.0,0.0
0.0,0.0,0.0,0.0
0.0,0.0,0.0,0.0
124.404,9.152,0.962,3.0
141.161,10.349,0.301,5.0
0.0,0.0,0.0,0.0
0.0,0.0,0.0,0.0
0.0,0.0,0.0,0.0
37.494,2.71,-0.763,0.0
140.877,10.109,1.021,6.0
0.0,0.0,0.0,0.0
0.0,0.0,0.0,0.0
0.0,0.0,0.0,0.0
0.0,0.0,0.0,0.0
37.419,2.636,-0.779,0.0
0.0,0.0,0.0,0.0
0.0,0.0,0.0,0.0
0.0,0.0,0.0,0.0
0.0,0.0,0.0,0.0
0.0,0.0,0.0,0.0
36.986,2.536,-0.786,0.0
154.933,10.545,0.988,3.0
0.0,0.0,0.0,0.0
0.0,0.0,0.0,0.0
0.0,0.0,0.0,0.0
0.0,0.0,0.0,0.0
35.743,2.384,-0.773,0.0
154.941,10.254,0.929,7.0
0.0,0.0,0.0,0.0
0.0,0.0,0.0,0.0
0.0,0.0,0.0,0.0
0.0,0.0,0.0,0.0
35.699,2.314,-0.785,0.0
154.969,9.962,0.875,5.0
0.0,0.0,0.0,0.0
0.0,0.0,0.0,0.0
0.0,0.0,0.0,0.0
0.0,0.0,0.0,0.0
35.356,2.224,-0.788,0.0
155.445,9.695,0.829,150.0
0.0,0.0,0.0,0.0
0.0,0.0,0.0,0.0
0.0,0.0,0.0,0.0
0.0,0.0,0.0,0.0
35.302,2.152,-0.797,0.0
197.636,11.943,0.999,27.0
0.0,0.0,0.0,0.0
68.987,4.13,-0.418,3.0
0.0,0.0,0.0,0.0
0.0,0.0,0.0,0.0
34.328,2.025,-0.784,0.0
197.467,11.548,0.95,37.0
0.0,0.0,0.0,0.0
68.986,3.993,-0.433,3.0
0.0,0.0,0.0,0.0
0.0,0.0,0.0,0.0
35.264,2.011,-0.813,0.0
197.53,11.162,0.911,20.0
0.0,0.0,0.0,0.0
0.0,0.0,0.0,0.0
0.0,0.0,0.0,0.0
0.0,0.0,0.0,0.0
34.1,1.877,-0.792,0.0
196.353,10.707,0.872,5.0
0.0,0.0,0.0,0.0
0.0,0.0,0.0,0.0
51.957,2.786,-0.638,0.0
0.0,0.0,0.0,0.0
34.122,1.81,-0.797,0.0
0.0,0.0,0.0,0.0
0.0,0.0,0.0,0.0
68.953,3.581,-0.466,3.0
52.011,2.686,-0.644,0.0
40.557,2.082,-0.727,0.0
34.132,1.742,-0.8,0.0
197.198,9.967,0.831,33.0
0.0,0.0,0.0,0.0
68.99,3.444,-0.472,2.0
0.0,0.0,0.0,0.0
0.0,0.0,0.0,0.0
34.215,1.677,-0.804,0.0
197.04,9.56,0.819,25.0
0.0,0.0,0.0,0.0
0.0,0.0,0.0,0.0
0.0,0.0,0.0,0.0
42.393,2.004,-0.764,3.0
34.308,1.611,-0.807,0.0
196.99,9.153,0.815,27.0
0.0,0.0,0.0,0.0
68.962,3.161,-0.475,3.0
0.0,0.0,0.0,0.0
0.0,0.0,0.0,0.0
0.0,0.0,0.0,0.0
195.543,8.687,0.812,44.0
0.0,0.0,0.0,0.0
68.971,3.019,-0.472,4.0
0.0,0.0,0.0,0.0
42.953,1.854,-0.772,0.0
35.214,1.509,-0.826,0.0
196.835,8.342,0.828,25.0
0.0,0.0,0.0,0.0
68.806,2.873,-0.467,0.0
0.0,0.0,0.0,0.0
0.0,0.0,0.0,0.0
34.74,1.417,-0.812,0.0
196.674,7.932,0.846,33.0
0.0,0.0,0.0,0.0
69.044,2.739,-0.461,0.0
0.0,0.0,0.0,0.0
0.0,0.0,0.0,0.0
0.0,0.0,0.0,0.0
195.128,7.468,0.865,23.0
0.0,0.0,0.0,0.0
68.995,2.595,-0.451,3.0
0.0,0.0,0.0,0.0
0.0,0.0,0.0,0.0
35.485,1.3,-0.819,0.0
196.555,7.109,0.905,35.0
0.0,0.0,0.0,0.0
68.956,2.45,-0.437,3.0
0.0,0.0,0.0,0.0
0.0,0.0,0.0,0.0
35.825,1.238,-0.819,0.0
196.263,6.695,0.944,35.0
0.0,0.0,0.0,0.0
69.018,2.309,-0.422,0.0
0.0,0.0,0.0,0.0
0.0,0.0,0.0,0.0
0.0,0.0,0.0,0.0
196.258,6.289,0.993,35.0
0.0,0.0,0.0,0.0
69.204,2.172,-0.406,0.0
0.0,0.0,0.0,0.0
0.0,0.0,0.0,0.0
0.0,0.0,0.0,0.0
196.137,5.875,1.049,33.0
0.0,0.0,0.0,0.0
73.112,2.141,-0.407,3.0
0.0,0.0,0.0,0.0
0.0,0.0,0.0,0.0
36.932,1.045,-0.814,0.0
103.156,2.875,0.585,2.0
0.0,0.0,0.0,0.0
0.0,0.0,0.0,0.0
0.0,0.0,0.0,0.0
44.889,1.192,-0.728,0.0
0.0,0.0,0.0,0.0
102.959,2.656,0.62,1.0
100.191,2.552,0.058,3.0
0.0,0.0,0.0,0.0
0.0,0.0,0.0,0.0
0.0,0.0,0.0,0.0
37.212,0.899,-0.792,0.0
103.086,2.447,0.662,1.0
100.128,2.343,0.099,8.0
0.0,0.0,0.0,0.0
0.0,0.0,0.0,0.0
0.0,0.0,0.0,0.0
37.778,0.834,-0.788,0.0
100.136,2.17,0.687,1.0
99.972,2.132,0.143,4.0
0.0,0.0,0.0,0.0
0.0,0.0,0.0,0.0
0.0,0.0,0.0,0.0
0.0,0.0,0.0,0.0
102.948,2.018,0.755,1.0
99.91,1.925,0.191,6.0
0.0,0.0,0.0,0.0
0.0,0.0,0.0,0.0
0.0,0.0,0.0,0.0
38.612,0.693,-0.767,0.0
99.781,1.752,0.782,1.0
99.833,1.72,0.242,5.0
0.0,0.0,0.0,0.0
0.0,0.0,0.0,0.0
