X,Y,Z,Reflectivity
28.378,-1.026,2.579,56.0
28.388,-1.024,2.427,47.0
59.735,-2.15,4.792,11.0
31.467,-1.13,2.359,25.0
37.155,-1.341,3.832,3.0
37.204,-1.339,3.64,40.0
37.296,-1.339,3.451,24.0
28.376,-1.016,2.473,56.0
37.833,-1.352,3.097,2.0
28.385,-1.011,2.174,34.0
24.765,-0.887,2.595,6.0
37.219,-1.329,3.702,10.0
37.266,-1.327,3.509,63.0
28.379,-1.008,2.519,57.0
28.389,-1.005,2.369,64.0
28.387,-1.003,2.219,69.0
24.787,-0.88,2.637,15.0
51.381,-1.818,5.192,5.0
37.252,-1.315,3.566,10.0
28.367,-0.998,2.562,65.0
28.376,-0.995,2.413,62.0
28.384,-0.993,2.263,69.0
24.807,-0.872,2.678,27.0
43.718,-1.532,4.487,4.0
49.2,-1.719,4.788,1.0
37.305,-1.299,3.428,3.0
28.374,-0.985,2.456,64.0
28.378,-0.982,2.307,71.0
24.846,-0.864,2.721,41.0
43.742,-1.516,4.557,5.0
51.832,-1.79,5.124,3.0
43.206,-1.487,4.037,6.0
28.372,-0.973,2.5,68.0
28.385,-0.971,2.351,71.0
24.842,-0.853,2.759,45.0
40.28,-1.379,4.258,1.0
51.753,-1.765,5.194,4.0
49.085,-1.669,4.66,3.0
28.368,-0.961,2.542,65.0
28.38,-0.958,2.392,74.0
24.853,-0.842,2.797,45.0
43.962,-1.485,4.712,4.0
43.863,-1.476,4.467,10.0
42.73,-1.432,4.119,3.0
28.367,-0.947,2.583,67.0
28.366,-0.944,2.432,75.0
24.873,-0.831,2.836,28.0
24.848,-0.827,2.699,4.0
51.284,-1.701,5.297,4.0
50.528,-1.669,4.943,2.0
28.348,-0.933,2.622,43.0
28.373,-0.93,2.473,74.0
24.955,-0.821,2.881,21.0
24.85,-0.814,2.735,27.0
51.2,-1.671,5.362,4.0
44.043,-1.432,4.372,13.0
42.556,-1.377,3.997,16.0
28.374,-0.914,2.513,71.0
25.043,-0.81,2.927,26.0
24.863,-0.801,2.772,52.0
42.268,-1.356,4.485,2.0
59.803,-1.91,6.02,6.0
43.164,-1.372,4.113,16.0
28.371,-0.898,2.552,66.0
25.097,-0.797,2.968,27.0
24.857,-0.786,2.805,61.0
40.166,-1.265,4.317,1.0
50.508,-1.583,5.152,5.0
0.0,0.0,0.0,0.0
28.367,-0.88,2.589,63.0
25.13,-0.783,3.005,21.0
24.861,-0.771,2.839,44.0
36.697,-1.133,3.993,1.0
54.997,-1.689,5.683,23.0
50.819,-1.553,4.978,7.0
28.366,-0.862,2.627,44.0
25.157,-0.768,3.042,27.0
24.887,-0.755,2.875,27.0
24.881,-0.752,2.74,1.0
44.473,-1.337,4.653,9.0
42.591,-1.273,4.227,4.0
44.535,-1.325,4.18,12.0
25.233,-0.753,3.084,43.0
25.067,-0.744,2.927,20.0
24.858,-0.734,2.768,11.0
44.465,-1.306,4.708,37.0
44.484,-1.3,4.47,33.0
0.0,0.0,0.0,0.0
25.252,-0.736,3.117,36.0
25.15,-0.729,2.968,12.0
24.837,-0.716,2.796,26.0
51.425,-1.474,5.507,2.0
44.485,-1.268,4.524,17.0
0.0,0.0,0.0,0.0
47.72,-1.357,5.949,8.0
44.489,-1.257,5.305,5.0
24.841,-0.697,2.827,40.0
53.823,-1.503,5.828,2.0
52.469,-1.456,5.398,11.0
55.641,-1.536,5.424,5.0
25.273,-0.699,3.181,6.0
25.186,-0.692,3.032,28.0
24.828,-0.678,2.854,45.0
47.478,-1.289,5.196,10.0
47.374,-1.278,4.928,19.0
47.253,-1.267,4.66,11.0
25.268,-0.679,3.209,5.0
25.105,-0.67,3.051,31.0
24.827,-0.659,2.882,62.0
44.092,-1.162,4.874,1.0
53.954,-1.413,5.672,4.0
47.153,-1.227,4.702,25.0
33.485,-0.873,4.289,11.0
24.987,-0.647,3.064,25.0
24.815,-0.638,2.908,67.0
52.517,-1.341,5.863,6.0
53.995,-1.37,5.734,5.0
58.009,-1.461,5.846,6.0
36.858,-0.93,4.761,4.0
25.082,-0.628,3.102,26.0
24.822,-0.617,2.934,62.0
0.0,0.0,0.0,0.0
51.732,-1.268,5.547,18.0
51.762,-1.26,5.269,21.0
36.791,-0.897,4.79,10.0
25.241,-0.611,3.148,16.0
24.804,-0.595,2.957,43.0
51.654,-1.231,5.871,6.0
44.682,-1.056,4.835,22.0
53.958,-1.266,5.545,9.0
44.522,-1.047,5.841,23.0
25.297,-0.59,3.179,18.0
24.792,-0.573,2.98,47.0
43.328,-0.994,4.966,9.0
44.656,-1.016,4.875,44.0
44.627,-1.007,4.628,63.0
36.814,-0.832,4.865,14.0
25.329,-0.567,3.207,8.0
24.774,-0.55,3.001,62.0
40.21,-0.885,4.646,10.0
51.932,-1.134,5.716,19.0
44.623,-0.966,4.668,8.0
33.999,-0.736,4.524,1.0
24.778,-0.532,3.16,1.0
24.769,-0.526,3.022,60.0
40.31,-0.85,4.693,7.0
31.719,-0.662,3.519,1.0
44.423,-0.919,4.686,15.0
0.0,0.0,0.0,0.0
24.748,-0.507,3.177,23.0
24.771,-0.503,3.044,63.0
40.408,-0.813,4.739,13.0
40.357,-0.805,4.511,7.0
44.453,-0.878,4.725,8.0
36.066,-0.712,4.86,5.0
24.75,-0.484,3.198,61.0
24.782,-0.48,3.065,42.0
40.554,-0.777,4.788,13.0
51.665,-0.98,5.815,6.0
40.421,-0.759,4.328,5.0
24.764,-0.465,3.356,19.0
24.754,-0.459,3.217,72.0
37.569,-0.69,4.675,7.0
40.596,-0.738,4.823,1.0
43.923,-0.79,4.977,19.0
45.737,-0.813,4.931,6.0
24.756,-0.439,3.373,48.0
24.767,-0.435,3.237,37.0
41.134,-0.714,5.148,11.0
37.54,-0.644,4.487,40.0
40.394,-0.685,4.605,6.0
31.808,-0.533,3.451,3.0
24.771,-0.414,3.393,81.0
41.264,-0.682,5.422,8.0
40.565,-0.662,5.105,12.0
37.686,-0.608,4.53,12.0
37.589,-0.599,4.31,38.0
37.635,-0.592,4.108,68.0
24.764,-0.389,3.408,53.0
41.233,-0.639,5.444,3.0
37.708,-0.577,4.769,57.0
46.676,-0.705,5.639,4.0
37.557,-0.559,4.329,30.0
37.636,-0.553,4.131,8.0
24.751,-0.362,3.421,14.0
37.767,-0.545,5.009,39.0
37.637,-0.536,4.782,3.0
0.0,0.0,0.0,0.0
37.536,-0.52,4.348,32.0
57.01,-0.778,6.289,5.0
32.877,-0.446,4.562,4.0
44.926,-0.601,5.983,5.0
34.237,-0.451,4.368,2.0
46.506,-0.604,5.67,5.0
37.52,-0.479,4.366,24.0
54.213,-0.683,6.008,17.0
32.935,-0.412,4.587,4.0
36.443,-0.448,4.872,3.0
52.691,-0.638,6.749,7.0
44.217,-0.527,5.413,7.0
37.477,-0.439,4.379,10.0
31.842,-0.366,3.544,29.0
36.001,-0.411,5.031,8.0
40.784,-0.458,5.471,6.0
37.743,-0.416,4.852,4.0
52.652,-0.57,6.468,27.0
0.0,0.0,0.0,0.0
31.803,-0.331,3.553,35.0
38.462,-0.397,5.392,2.0
40.765,-0.413,5.485,2.0
38.246,-0.38,4.932,14.0
37.51,-0.364,4.623,36.0
36.55,-0.348,4.301,13.0
31.826,-0.296,3.567,46.0
47.774,-0.441,6.715,33.0
32.516,-0.293,4.387,3.0
0.0,0.0,0.0,0.0
47.749,-0.412,5.902,39.0
47.646,-0.401,5.622,8.0
31.837,-0.262,3.579,42.0
47.632,-0.386,6.711,6.0
32.549,-0.258,4.402,4.0
37.801,-0.292,4.9,5.0
47.252,-0.355,5.855,43.0
47.254,-0.346,5.59,12.0
31.863,-0.227,3.591,56.0
47.405,-0.331,6.693,12.0
47.32,-0.321,6.413,18.0
37.545,-0.247,4.877,21.0
47.885,-0.306,5.945,3.0
0.0,0.0,0.0,0.0
31.867,-0.191,3.599,29.0
38.971,-0.229,5.511,25.0
36.505,-0.207,4.956,4.0
37.517,-0.205,4.881,25.0
38.497,-0.203,4.788,45.0
31.954,-0.162,3.795,5.0
39.115,-0.191,4.426,33.0
47.187,-0.223,6.682,12.0
36.443,-0.165,4.954,6.0
38.37,-0.166,4.999,42.0
39.145,-0.162,4.875,5.0
31.928,-0.126,3.796,49.0
36.769,-0.138,4.166,12.0
47.329,-0.17,6.709,2.0
36.465,-0.124,4.962,6.0
39.388,-0.126,5.137,2.0
31.964,-0.096,3.985,64.0
31.952,-0.09,3.803,68.0
42.604,-0.112,4.831,3.0
36.656,-0.09,5.199,10.0
37.299,-0.084,5.079,54.0
31.963,-0.066,4.171,73.0
31.958,-0.06,3.986,60.0
57.77,-0.097,6.88,10.0
52.17,-0.078,5.919,24.0
32.115,-0.042,4.557,40.0
32.012,-0.036,4.36,41.0
31.965,-0.029,4.172,60.0
35.97,-0.027,4.487,7.0
36.445,-0.02,4.341,5.0
36.585,-0.013,4.151,2.0
38.335,-0.006,5.44,15.0
31.933,0.0,4.349,37.0
36.41,0.007,4.752,10.0
36.33,0.013,4.532,33.0
39.629,0.022,4.719,4.0
36.513,0.027,4.142,8.0
31.917,0.03,4.527,48.0
31.924,0.036,4.346,51.0
39.281,0.052,5.124,5.0
33.075,0.05,4.123,4.0
39.795,0.067,4.736,1.0
30.505,0.057,3.458,22.0
31.921,0.067,4.525,26.0
38.002,0.086,5.17,5.0
47.067,0.116,6.135,6.0
32.963,0.087,4.106,8.0
39.963,0.113,4.751,6.0
30.458,0.092,3.448,38.0
39.341,0.127,5.572,4.0
37.969,0.129,5.16,5.0
0.0,0.0,0.0,0.0
32.899,0.124,4.092,1.0
30.485,0.12,3.619,52.0
30.48,0.126,3.446,40.0
39.211,0.171,5.546,6.0
30.408,0.138,4.127,22.0
30.405,0.143,3.952,3.0
30.438,0.149,3.78,25.0
30.484,0.154,3.612,66.0
30.507,0.16,3.442,28.0
39.055,0.214,5.515,15.0
38.938,0.22,5.275,6.0
30.372,0.177,3.941,38.0
30.404,0.182,3.768,34.0
40.189,0.249,4.752,4.0
30.572,0.194,3.441,7.0
38.56,0.254,5.434,6.0
30.328,0.205,4.1,42.0
30.369,0.211,3.931,43.0
30.411,0.216,3.76,18.0
53.841,0.393,6.35,5.0
40.092,0.299,4.5,4.0
30.304,0.234,4.261,61.0
22.908,0.181,3.089,1.0
30.396,0.245,3.925,45.0
42.133,0.347,5.195,4.0
52.265,0.439,6.146,12.0
40.311,0.345,4.51,4.0
38.667,0.341,5.422,7.0
33.243,0.299,4.47,7.0
39.451,0.361,5.079,4.0
47.854,0.446,5.881,2.0
51.617,0.49,6.049,2.0
31.01,0.3,3.457,2.0
38.425,0.382,5.372,5.0
33.04,0.334,4.429,10.0
30.456,0.312,3.907,2.0
47.949,0.5,5.872,8.0
53.898,0.57,6.293,10.0
30.96,0.332,3.438,34.0
22.706,0.25,3.164,5.0
33.016,0.369,4.41,10.0
33.594,0.381,4.294,1.0
0.0,0.0,0.0,0.0
31.032,0.362,3.608,41.0
30.991,0.366,3.426,22.0
53.212,0.644,7.388,5.0
33.193,0.406,4.417,10.0
54.036,0.67,6.88,20.0
50.889,0.639,6.181,4.0
31.054,0.395,3.594,58.0
30.961,0.398,3.406,5.0
53.532,0.705,7.403,4.0
30.455,0.405,4.036,22.0
51.413,0.692,6.517,3.0
31.029,0.422,3.751,24.0
47.063,0.648,5.42,16.0
46.827,0.651,5.124,2.0
30.976,0.44,4.265,2.0
30.478,0.438,4.02,8.0
52.048,0.755,6.565,4.0
31.058,0.455,3.735,62.0
58.656,0.869,6.718,19.0
46.292,0.692,5.037,8.0
31.001,0.473,4.248,27.0
33.492,0.516,4.396,4.0
31.045,0.482,3.896,14.0
31.047,0.487,3.714,7.0
36.161,0.572,4.118,2.0
46.239,0.738,5.001,4.0
30.994,0.504,4.227,2.0
39.349,0.646,5.138,3.0
31.087,0.514,3.879,62.0
46.873,0.782,5.574,21.0
48.385,0.814,5.476,7.0
46.161,0.783,4.959,2.0
30.497,0.527,4.136,12.0
39.322,0.684,5.105,5.0
31.073,0.545,3.855,17.0
57.76,1.021,6.826,7.0
52.215,0.93,5.87,6.0
37.108,0.666,3.959,2.0
30.594,0.559,4.126,29.0
31.071,0.571,4.01,42.0
46.402,0.86,5.72,8.0
47.077,0.878,5.527,9.0
36.975,0.695,4.127,2.0
52.533,0.994,5.562,28.0
30.837,0.593,4.134,47.0
31.067,0.601,3.984,35.0
49.088,0.957,6.011,6.0
47.04,0.923,5.483,5.0
52.523,1.036,5.82,20.0
52.302,1.039,5.494,7.0
53.101,1.072,7.073,6.0
31.088,0.631,3.96,6.0
47.545,0.971,5.781,4.0
52.552,1.08,6.08,24.0
46.437,0.96,5.105,10.0
46.714,0.971,4.866,5.0
31.077,0.656,4.112,26.0
46.41,0.985,5.87,5.0
52.348,1.118,6.317,17.0
59.092,1.269,6.783,7.0
47.083,1.016,5.133,3.0
46.542,1.01,4.806,31.0
39.328,0.866,5.166,7.0
33.573,0.743,4.215,4.0
52.291,1.164,6.261,6.0
36.904,0.825,4.201,2.0
46.588,1.047,5.035,11.0
52.589,1.188,5.38,10.0
39.335,0.901,5.129,5.0
52.606,1.211,6.553,14.0
47.065,1.089,5.589,9.0
46.692,1.085,5.269,13.0
53.209,1.242,5.697,4.0
66.463,1.559,6.733,4.0
52.564,1.25,6.8,16.0
52.216,1.248,6.45,6.0
46.707,1.121,5.498,13.0
46.452,1.119,5.194,21.0
46.45,1.124,4.925,4.0
57.653,1.401,5.78,8.0
54.332,1.338,6.971,6.0
52.388,1.295,6.417,6.0
46.597,1.157,5.436,12.0
48.084,1.198,5.326,3.0
46.451,1.162,4.876,4.0
46.575,1.169,4.62,21.0
47.783,1.216,6.079,10.0
47.253,1.207,5.736,5.0
58.6,1.502,6.772,15.0
59.405,1.527,6.514,3.0
52.51,1.355,5.454,7.0
53.313,1.381,5.229,5.0
0.0,0.0,0.0,0.0
46.688,1.229,5.614,19.0
47.028,1.242,5.381,2.0
0.0,0.0,0.0,0.0
46.597,1.239,4.786,10.0
53.028,1.415,5.14,17.0
46.648,1.26,5.827,31.0
52.644,1.426,6.268,4.0
46.182,1.255,5.23,6.0
46.375,1.264,4.977,4.0
46.615,1.274,4.733,7.0
52.93,1.451,5.068,11.0
52.252,1.45,6.463,1.0
52.632,1.465,6.203,9.0
46.202,1.289,5.176,9.0
46.438,1.299,4.928,6.0
0.0,0.0,0.0,0.0
52.926,1.489,5.004,7.0
59.312,1.688,7.264,5.0
59.236,1.69,6.908,21.0
46.196,1.321,5.118,1.0
46.592,1.336,4.886,13.0
59.273,1.704,5.872,6.0
40.407,1.164,3.769,29.0
47.412,1.382,5.745,8.0
60.676,1.773,6.998,3.0
58.523,1.713,6.408,33.0
0.0,0.0,0.0,0.0
54.385,1.6,5.318,5.0
40.422,1.191,3.718,53.0
58.055,1.73,6.959,1.0
60.427,1.805,6.89,33.0
46.624,1.395,5.044,32.0
52.485,1.574,5.367,7.0
53.366,1.603,5.147,6.0
40.424,1.217,3.664,52.0
52.694,1.604,6.245,5.0
59.176,1.804,6.667,16.0
46.372,1.416,4.954,9.0
52.422,1.604,5.29,4.0
53.193,1.63,5.059,7.0
40.452,1.242,3.613,7.0
52.682,1.634,6.171,3.0
46.54,1.446,5.179,20.0
46.288,1.441,4.882,3.0
43.728,1.363,4.353,18.0
43.735,1.365,4.099,7.0
52.572,1.644,4.623,14.0
59.038,1.864,6.833,25.0
46.659,1.476,5.128,12.0
57.619,1.825,5.996,1.0
43.82,1.39,4.3,3.0
46.352,1.472,4.279,3.0
52.544,1.671,4.546,6.0
46.473,1.493,5.312,4.0
37.103,1.193,4.023,3.0
60.524,1.948,6.21,4.0
43.531,1.403,4.208,5.0
46.747,1.508,4.248,8.0
51.127,1.652,4.349,12.0
46.561,1.518,5.253,22.0
46.315,1.512,4.954,5.0
52.43,1.714,5.302,4.0
60.046,1.965,5.716,8.0
42.906,1.405,3.835,2.0
51.155,1.677,4.275,4.0
46.418,1.536,5.167,14.0
46.171,1.529,4.869,5.0
52.461,1.738,5.226,4.0
60.134,1.994,5.634,7.0
52.396,1.739,4.605,11.0
50.79,1.687,4.168,3.0
61.808,2.072,6.785,6.0
58.411,1.96,6.07,8.0
54.556,1.831,5.351,4.0
43.643,1.465,4.022,11.0
46.89,1.576,4.048,7.0
52.818,1.777,4.253,1.0
46.863,1.589,5.072,3.0
58.459,1.984,5.985,2.0
49.626,1.685,4.79,11.0
42.843,1.455,3.882,4.0
51.066,1.735,4.33,4.0
43.618,1.483,3.445,4.0
46.3,1.587,4.938,6.0
52.389,1.796,5.281,4.0
46.217,1.585,4.389,5.0
52.25,1.792,4.652,11.0
52.495,1.802,4.368,6.0
52.065,1.787,4.03,10.0
58.45,2.023,6.141,6.0
60.124,2.081,5.965,17.0
46.214,1.599,4.315,6.0
46.821,1.621,4.094,11.0
58.409,2.022,4.767,14.0
52.639,1.823,3.99,26.0
60.419,2.108,6.249,2.0
46.194,1.611,4.507,4.0
43.277,1.51,3.97,9.0
46.91,1.637,4.025,5.0
43.341,1.512,3.466,1.0
52.655,1.838,3.905,7.0
60.207,2.116,6.128,7.0
53.409,1.876,5.123,5.0
46.896,1.648,4.225,7.0
47.028,1.652,3.957,1.0
52.066,1.829,4.078,19.0
68.517,2.407,4.969,5.0
60.196,2.129,6.027,15.0
43.659,1.543,4.115,7.0
46.85,1.656,4.143,5.0
58.251,2.058,4.805,4.0
52.232,1.845,4.004,25.0
68.378,2.415,4.846,20.0
52.422,1.863,5.16,6.0
46.194,1.641,4.276,4.0
46.85,1.664,4.064,5.0
65.618,2.329,5.302,4.0
52.654,1.868,3.948,3.0
67.749,2.403,4.686,10.0
52.731,1.882,5.1,6.0
43.433,1.549,3.946,6.0
46.987,1.675,3.995,5.0
52.089,1.855,4.12,26.0
68.697,2.445,5.034,3.0
68.763,2.447,4.639,6.0
43.691,1.564,4.15,5.0
46.933,1.678,4.183,2.0
47.016,1.68,3.916,2.0
52.047,1.858,4.027,20.0
68.536,2.446,4.903,10.0
68.658,2.449,4.514,12.0
46.177,1.656,4.306,6.0
46.861,1.679,4.095,8.0
51.944,1.859,4.235,5.0
51.966,1.858,3.929,1.0
68.023,2.431,4.747,10.0
68.462,2.444,4.379,7.0
53.142,1.907,4.86,11.0
46.953,1.683,4.02,4.0
52.141,1.867,4.159,25.0
68.574,2.453,5.064,2.0
53.287,1.904,3.625,3.0
103.58,3.698,6.444,5.0
43.665,1.566,3.916,3.0
47.0,1.684,3.94,4.0
52.105,1.865,4.064,22.0
68.576,2.451,4.942,10.0
68.686,2.453,4.55,12.0
67.379,2.403,4.071,3.0
46.855,1.679,4.118,7.0
51.94,1.858,4.261,4.0
52.032,1.859,3.965,5.0
68.128,2.431,4.788,12.0
68.493,2.441,4.415,8.0
118.432,4.215,6.947,6.0
46.912,1.676,4.038,5.0
52.117,1.86,4.182,22.0
237.412,8.461,17.666,11.0
53.318,1.897,3.651,4.0
68.428,2.431,4.287,6.0
202.752,7.194,11.527,4.0
46.983,1.673,3.959,4.0
52.061,1.851,4.083,29.0
68.63,2.436,4.982,9.0
68.809,2.438,4.587,6.0
69.563,2.461,4.233,6.0
103.627,3.661,5.703,2.0
52.138,1.848,4.298,4.0
52.331,1.852,4.008,26.0
68.345,2.414,4.836,21.0
68.364,2.41,4.432,6.0
67.435,2.373,3.979,2.0
118.294,4.156,6.294,3.0
0.0,0.0,0.0,0.0
52.711,1.854,3.94,13.0
53.229,1.868,3.669,3.0
69.231,2.425,4.361,5.0
118.613,4.147,6.781,3.0
103.101,3.597,5.294,3.0
52.102,1.823,4.101,11.0
68.546,2.393,4.996,7.0
53.288,1.856,3.573,2.0
69.578,2.419,4.253,7.0
103.625,3.595,5.732,2.0
104.359,3.613,5.167,3.0
52.519,1.823,4.037,27.0
68.549,2.374,4.869,10.0
68.271,2.358,4.451,3.0
67.348,2.321,3.992,2.0
118.153,4.063,6.315,6.0
117.811,4.042,5.613,2.0
52.185,1.794,3.914,3.0
53.26,1.827,3.683,5.0
0.0,0.0,0.0,0.0
118.151,4.031,6.782,4.0
103.196,3.513,5.323,3.0
117.723,3.998,5.389,2.0
68.559,2.332,5.012,6.0
68.84,2.335,4.632,8.0
67.914,2.298,4.174,3.0
0.0,0.0,0.0,0.0
196.359,6.607,9.764,14.0
196.001,6.579,8.609,21.0
68.152,2.29,4.855,7.0
68.466,2.294,4.478,6.0
67.412,2.253,4.016,2.0
103.853,3.46,5.572,2.0
117.931,3.918,5.641,4.0
193.786,6.421,8.147,20.0
53.213,1.765,3.69,4.0
69.147,2.286,4.391,2.0
103.34,3.405,5.961,5.0
196.428,6.455,10.169,10.0
102.36,3.353,4.704,4.0
193.734,6.326,7.778,19.0
68.53,2.239,4.623,7.0
69.197,2.253,4.264,4.0
102.92,3.34,5.742,4.0
103.692,3.354,5.171,11.0
117.669,3.793,5.183,6.0
193.481,6.219,7.402,12.0
68.791,2.211,4.51,4.0
67.49,2.161,4.03,2.0
118.377,3.779,6.381,4.0
117.891,3.75,5.657,4.0
193.582,6.135,8.165,22.0
193.606,6.116,7.042,17.0
68.635,2.167,4.369,8.0
103.674,3.261,5.995,7.0
103.066,3.23,5.359,5.0
102.325,3.194,4.715,1.0
193.753,6.027,7.803,18.0
193.324,5.99,6.663,25.0
67.484,2.089,4.167,4.0
119.303,3.68,6.673,2.0
103.208,3.171,5.172,7.0
102.259,3.128,4.519,5.0
193.654,5.901,7.432,19.0
193.161,5.861,6.291,20.0
67.422,2.044,4.035,2.0
118.512,3.577,6.402,3.0
118.041,3.548,5.691,2.0
102.302,3.061,4.326,3.0
193.812,5.776,7.071,19.0
193.122,5.73,5.924,19.0
69.161,2.049,4.007,7.0
110.041,3.244,5.734,6.0
120.374,3.534,5.574,2.0
193.626,5.658,7.821,10.0
193.227,5.62,6.684,6.0
194.221,5.623,5.591,8.0
103.732,2.998,5.815,6.0
103.08,2.964,5.179,7.0
124.893,3.575,5.549,3.0
193.847,5.521,7.466,5.0
193.165,5.475,6.32,22.0
194.41,5.483,5.232,25.0
103.296,2.907,5.597,3.0
110.709,3.099,5.355,4.0
102.329,2.849,4.354,7.0
157.897,4.375,5.788,3.0
193.291,5.327,5.963,22.0
194.256,5.325,4.865,28.0
103.992,2.842,5.438,6.0
102.827,2.795,4.78,1.0
102.681,2.776,4.177,6.0
193.404,5.201,6.729,17.0
194.499,5.201,5.64,18.0
193.712,5.15,4.491,30.0
117.796,3.121,5.942,7.0
120.188,3.166,5.364,6.0
0.0,0.0,0.0,0.0
0.0,0.0,0.0,0.0
194.289,5.026,5.268,24.0
193.862,4.984,4.132,25.0
102.953,2.637,5.001,6.0
102.487,2.608,4.382,4.0
0.0,0.0,0.0,0.0
195.223,4.906,6.063,7.0
194.186,4.848,4.904,29.0
193.709,4.805,3.769,28.0
116.494,2.877,5.442,2.0
102.539,2.515,4.195,6.0
0.0,0.0,0.0,0.0
194.711,4.712,5.689,20.0
194.212,4.668,4.55,25.0
193.704,4.623,3.415,22.0
124.932,2.965,5.606,2.0
126.102,2.972,4.926,3.0
0.0,0.0,0.0,0.0
194.686,4.522,5.331,25.0
193.95,4.471,4.186,29.0
195.338,4.471,3.085,25.0
124.858,2.84,5.374,3.0
132.682,2.996,4.943,3.0
194.964,4.367,6.132,5.0
194.64,4.325,4.975,23.0
0.0,0.0,0.0,0.0
195.406,4.275,2.734,19.0
124.9,2.713,5.15,6.0
140.569,3.027,4.98,3.0
194.831,4.162,5.773,16.0
194.593,4.12,4.619,16.0
195.534,4.105,3.51,8.0
103.185,2.147,1.255,8.0
124.804,2.578,4.92,3.0
0.0,0.0,0.0,0.0
0.0,0.0,0.0,0.0
194.336,3.907,4.266,20.0
0.0,0.0,0.0,0.0
0.0,0.0,0.0,0.0
124.713,2.438,4.692,4.0
0.0,0.0,0.0,0.0
0.0,0.0,0.0,0.0
194.564,3.692,3.921,18.0
0.0,0.0,0.0,0.0
0.0,0.0,0.0,0.0
148.904,2.743,5.338,5.0
0.0,0.0,0.0,0.0
194.826,3.512,4.728,17.0
194.742,3.473,3.581,22.0
0.0,0.0,0.0,0.0
99.839,1.741,0.682,3.0
124.856,2.155,4.257,6.0
0.0,0.0,0.0,0.0
194.751,3.283,4.387,19.0
194.68,3.243,3.242,31.0
0.0,0.0,0.0,0.0
99.801,1.622,0.508,5.0
157.142,2.523,5.084,5.0
196.725,3.117,5.226,11.0
196.114,3.069,4.078,18.0
194.854,3.009,2.907,17.0
0.0,0.0,0.0,0.0
99.743,1.499,0.336,5.0
157.263,2.332,4.819,35.0
196.215,2.87,4.88,23.0
194.94,2.81,3.721,25.0
195.566,2.777,2.584,7.0
99.732,1.395,0.742,1.0
99.666,1.373,0.165,4.0
20.307,0.275,0.587,0.0
20.285,0.27,0.469,12.0
20.281,0.266,0.352,10.0
20.295,0.262,0.233,2.0
99.528,1.264,0.571,5.0
99.58,1.244,-0.001,3.0
20.291,0.249,0.553,26.0
20.273,0.244,0.435,27.0
20.284,0.239,0.318,26.0
20.278,0.235,0.199,20.0
20.311,0.231,0.082,9.0
0.0,0.0,0.0,0.0
20.269,0.221,0.518,28.0
20.276,0.217,0.401,38.0
20.273,0.212,0.284,26.0
20.304,0.208,0.166,28.0
20.336,0.203,0.048,30.0
20.254,0.198,-0.068,2.0
20.274,0.193,0.485,33.0
20.286,0.189,0.368,30.0
20.3,0.184,0.251,27.0
20.269,0.179,0.132,25.0
20.294,0.175,0.015,27.0
20.2,0.169,-0.1,23.0
20.173,0.164,0.45,20.0
20.194,0.16,0.334,24.0
20.173,0.155,0.217,20.0
20.219,0.151,0.099,29.0
20.206,0.146,-0.016,25.0
20.176,0.141,-0.133,37.0
20.171,0.136,0.417,26.0
20.167,0.131,0.301,27.0
20.168,0.126,0.185,25.0
20.185,0.122,0.067,32.0
20.188,0.117,-0.048,31.0
20.181,0.112,-0.164,29.0
20.156,0.107,0.385,29.0
20.155,0.101,0.269,28.0
20.145,0.096,0.153,25.0
20.185,0.092,0.035,32.0
20.18,0.087,-0.08,27.0
20.193,0.082,-0.196,17.0
20.143,0.077,0.354,28.0
20.149,0.072,0.238,27.0
20.156,0.066,0.122,28.0
20.209,0.062,0.004,29.0
20.211,0.057,-0.111,25.0
20.214,0.051,-0.228,7.0
20.144,0.046,0.323,29.0
20.136,0.041,0.207,28.0
20.157,0.036,0.091,24.0
20.253,0.031,-0.026,151.0
20.255,0.025,-0.143,151.0
20.261,0.02,-0.259,150.0
20.127,0.015,0.292,29.0
20.119,0.01,0.176,28.0
20.2,0.004,0.061,29.0
20.229,0.0,-0.056,48.0
20.197,-0.005,-0.172,9.0
20.196,-0.01,-0.288,2.0
20.129,-0.015,0.263,27.0
20.117,-0.021,0.147,29.0
20.128,-0.026,0.031,32.0
20.147,-0.032,-0.086,31.0
20.137,-0.037,-0.201,12.0
20.166,-0.042,-0.317,23.0
20.117,-0.048,0.233,33.0
20.118,-0.053,0.118,39.0
20.122,-0.058,0.002,35.0
20.13,-0.064,-0.114,31.0
20.141,-0.069,-0.23,27.0
20.145,-0.075,-0.346,23.0
20.123,-0.08,0.205,28.0
20.132,-0.086,0.089,40.0
20.141,-0.091,-0.025,28.0
20.14,-0.097,-0.143,31.0
20.134,-0.102,-0.258,36.0
20.155,-0.107,-0.374,36.0
20.141,-0.113,0.177,22.0
20.145,-0.118,0.062,29.0
20.165,-0.124,-0.053,22.0
20.13,-0.129,-0.17,17.0
20.142,-0.135,-0.286,30.0
20.158,-0.141,-0.402,35.0
20.202,-0.146,0.15,15.0
20.192,-0.152,0.035,9.0
20.192,-0.158,-0.08,9.0
20.146,-0.163,-0.197,6.0
20.18,-0.169,-0.313,22.0
20.179,-0.175,-0.429,28.0
53.357,-0.477,0.327,13.0
56.218,-0.519,0.023,11.0
56.379,-0.536,-0.298,1.0
45.244,-0.443,-0.503,19.0
37.966,-0.383,-0.64,25.0
20.206,-0.209,-0.456,16.0
56.162,-0.597,0.272,5.0
56.272,-0.615,-0.049,1.0
59.499,-0.668,-0.392,3.0
44.863,-0.516,-0.557,39.0
0.0,0.0,0.0,0.0
30.788,-0.372,-0.734,9.0
59.561,-0.737,0.212,21.0
59.569,-0.754,-0.127,5.0
58.8,-0.762,-0.462,5.0
44.873,-0.594,-0.613,11.0
35.925,-0.486,-0.696,3.0
30.166,-0.418,-0.757,8.0
59.52,-0.84,0.139,19.0
57.059,-0.822,-0.192,7.0
52.869,-0.777,-0.479,15.0
38.519,-0.577,-0.573,14.0
31.348,-0.479,-0.646,9.0
29.226,-0.456,-0.769,7.0
20.135,-0.319,0.023,40.0
59.491,-0.961,-0.271,5.0
45.382,-0.746,-0.465,18.0
38.104,-0.638,-0.612,13.0
30.788,-0.525,-0.67,30.0
28.024,-0.486,-0.77,2.0
20.131,-0.354,0.0,29.0
52.931,-0.949,-0.302,57.0
45.023,-0.82,-0.513,28.0
37.801,-0.7,-0.651,13.0
30.498,-0.574,-0.699,31.0
27.269,-0.522,-0.781,2.0
52.939,-1.028,-0.06,67.0
45.57,-0.898,-0.311,25.0
44.9,-0.899,-0.563,13.0
31.54,-0.641,-0.578,3.0
30.154,-0.622,-0.725,18.0
25.398,-0.532,-0.755,1.0
38.375,-0.813,-0.085,30.0
38.367,-0.825,-0.304,6.0
38.449,-0.839,-0.524,13.0
31.251,-0.691,-0.606,23.0
0.0,0.0,0.0,0.0
23.835,-0.542,-0.734,8.0
40.418,-0.93,-0.133,40.0
40.423,-0.943,-0.363,50.0
38.273,-0.905,-0.561,21.0
30.832,-0.738,-0.63,29.0
28.337,-0.688,-0.741,1.0
23.793,-0.585,-0.758,18.0
38.771,-0.964,-0.167,32.0
38.748,-0.975,-0.387,37.0
38.031,-0.97,-0.597,18.0
30.584,-0.79,-0.657,34.0
27.665,-0.723,-0.752,0.0
23.762,-0.629,-0.781,11.0
38.689,-1.033,-0.205,60.0
38.662,-1.045,-0.425,35.0
37.891,-1.036,-0.632,13.0
30.474,-0.843,-0.684,34.0
25.196,-0.706,-0.709,2.0
23.557,-0.667,-0.797,4.0
38.656,-1.104,-0.242,72.0
38.6,-1.116,-0.461,39.0
37.92,-1.108,-0.668,4.0
30.401,-0.898,-0.711,21.0
24.791,-0.74,-0.721,13.0
22.312,-0.674,-0.775,1.0
38.648,-1.177,-0.278,66.0
38.527,-1.185,-0.495,23.0
31.157,-0.969,-0.577,28.0
30.258,-0.951,-0.735,8.0
24.419,-0.776,-0.732,22.0
22.004,-0.706,-0.784,2.0
38.685,-1.25,-0.312,45.0
38.366,-1.253,-0.527,13.0
30.919,-1.02,-0.6,28.0
28.582,-0.952,-0.719,1.0
23.917,-0.805,-0.738,18.0
21.536,-0.732,-0.786,0.0
45.603,-1.56,-0.406,4.0
38.16,-1.318,-0.556,13.0
30.716,-1.071,-0.622,31.0
28.208,-0.993,-0.733,1.0
23.785,-0.846,-0.753,19.0
20.928,-0.751,-0.781,0.0
45.258,-1.634,-0.44,6.0
31.333,-1.142,-0.482,24.0
30.571,-1.124,-0.643,36.0
24.874,-0.923,-0.666,0.0
23.676,-0.887,-0.768,8.0
20.551,-0.777,-0.783,3.0
31.286,-1.189,-0.328,39.0
31.245,-1.198,-0.504,27.0
28.47,-1.101,-0.62,32.0
25.109,-0.979,-0.691,3.0
23.384,-0.92,-0.776,5.0
20.394,-0.81,-0.792,1.0
28.449,-1.135,-0.319,80.0
28.44,-1.144,-0.479,96.0
28.453,-1.155,-0.64,122.0
24.88,-1.018,-0.703,7.0
22.585,-0.932,-0.766,1.0
20.107,-0.837,-0.795,0.0
28.454,-1.19,-0.339,119.0
28.455,-1.2,-0.499,124.0
28.436,-1.208,-0.659,92.0
24.381,-1.045,-0.705,16.0
22.146,-0.956,-0.766,3.0
19.799,-0.862,-0.796,1.0
28.481,-1.246,-0.357,58.0
28.463,-1.254,-0.518,37.0
28.624,-1.271,-0.682,7.0
24.049,-1.076,-0.711,15.0
21.923,-0.989,-0.772,1.0
19.446,-0.884,-0.794,0.0
31.214,-1.425,-0.411,64.0
30.892,-1.421,-0.581,33.0
28.483,-1.32,-0.696,3.0
23.899,-1.116,-0.721,16.0
21.634,-1.018,-0.774,1.0
19.089,-0.904,-0.791,0.0
31.222,-1.485,-0.429,41.0
30.81,-1.476,-0.596,31.0
28.29,-1.365,-0.707,2.0
23.832,-1.158,-0.732,15.0
21.369,-1.046,-0.777,1.0
18.835,-0.929,-0.791,0.0
31.334,-1.55,-0.447,15.0
30.751,-1.532,-0.611,28.0
24.596,-1.234,-0.627,2.0
23.793,-1.202,-0.743,13.0
21.085,-1.072,-0.777,1.0
18.657,-0.956,-0.793,0.0
37.997,-1.953,-0.561,14.0
30.679,-1.587,-0.625,30.0
24.508,-1.276,-0.637,21.0
23.698,-1.243,-0.751,11.0
20.824,-1.099,-0.777,2.0
18.448,-0.98,-0.792,0.0
38.037,-2.028,-0.579,5.0
24.53,-1.316,-0.511,22.0
24.438,-1.32,-0.646,22.0
23.54,-1.28,-0.757,5.0
20.617,-1.128,-0.778,1.0
18.413,-1.014,-0.799,0.0
24.56,-1.356,-0.384,51.0
24.529,-1.363,-0.521,44.0
24.374,-1.363,-0.654,16.0
23.427,-1.318,-0.762,5.0
20.46,-1.158,-0.781,2.0
18.229,-1.039,-0.798,1.0
24.524,-1.401,-0.392,52.0
24.492,-1.407,-0.529,42.0
24.357,-1.408,-0.663,24.0
23.263,-1.353,-0.765,5.0
20.299,-1.188,-0.782,2.0
18.082,-1.065,-0.798,0.0
24.507,-1.446,-0.401,56.0
24.459,-1.452,-0.536,38.0
24.357,-1.454,-0.67,25.0
22.865,-1.374,-0.76,1.0
20.068,-1.213,-0.779,0.0
17.914,-1.089,-0.796,1.0
24.504,-1.492,-0.408,68.0
24.455,-1.498,-0.543,38.0
24.308,-1.497,-0.676,21.0
22.618,-1.401,-0.758,1.0
19.866,-1.238,-0.777,0.0
17.895,-1.122,-0.8,0.0
24.508,-1.539,-0.414,54.0
24.46,-1.544,-0.55,40.0
24.29,-1.542,-0.681,21.0
22.681,-1.448,-0.765,2.0
19.779,-1.27,-0.778,0.0
17.616,-1.137,-0.791,1.0
24.527,-1.586,-0.42,46.0
24.451,-1.589,-0.555,30.0
24.256,-1.585,-0.685,22.0
22.269,-1.464,-0.756,0.0
19.684,-1.301,-0.778,0.0
17.595,-1.169,-0.793,0.0
24.547,-1.633,-0.424,21.0
24.471,-1.637,-0.559,27.0
24.203,-1.627,-0.688,18.0
22.176,-1.499,-0.756,1.0
19.632,-1.334,-0.779,0.0
17.542,-1.198,-0.794,1.0
34.49,-2.359,-0.601,2.0
24.585,-1.69,-0.565,5.0
24.15,-1.669,-0.69,14.0
22.155,-1.539,-0.758,1.0
19.548,-1.365,-0.778,0.0
17.519,-1.229,-0.795,1.0
34.425,-2.419,-0.604,2.0
29.783,-2.103,-0.687,7.0
24.138,-1.713,-0.691,15.0
21.979,-1.567,-0.754,0.0
19.5,-1.397,-0.777,0.0
17.331,-1.248,-0.787,2.0
34.173,-2.464,-0.601,2.0
29.273,-2.121,-0.677,2.0
24.103,-1.754,-0.691,12.0
21.751,-1.591,-0.747,0.0
19.592,-1.44,-0.782,2.0
17.168,-1.268,-0.78,10.0
34.21,-2.528,-0.603,2.0
29.173,-2.166,-0.676,6.0
24.099,-1.797,-0.692,14.0
21.768,-1.631,-0.748,1.0
19.523,-1.47,-0.779,0.0
17.298,-1.309,-0.786,2.0
34.182,-2.588,-0.602,2.0
29.314,-2.229,-0.678,2.0
24.15,-1.845,-0.692,14.0
21.859,-1.677,-0.75,1.0
19.462,-1.5,-0.776,0.0
17.395,-1.347,-0.79,0.0
34.049,-2.639,-0.598,2.0
29.353,-2.285,-0.677,7.0
24.195,-1.892,-0.692,13.0
21.854,-1.716,-0.749,1.0
19.492,-1.537,-0.775,1.0
17.397,-1.378,-0.788,0.0
34.024,-2.698,-0.594,2.0
29.409,-2.342,-0.676,5.0
24.246,-1.939,-0.691,16.0
21.923,-1.761,-0.748,1.0
19.584,-1.58,-0.777,1.0
17.441,-1.413,-0.788,0.0
34.319,-2.782,-0.595,1.0
29.431,-2.395,-0.672,5.0
24.392,-1.993,-0.692,20.0
21.954,-1.802,-0.746,0.0
19.472,-1.605,-0.769,0.0
17.462,-1.445,-0.786,0.0
34.596,-2.865,-0.593,2.0
29.489,-2.451,-0.668,6.0
24.38,-2.035,-0.687,17.0
22.16,-1.857,-0.749,1.0
19.64,-1.653,-0.772,1.0
17.481,-1.477,-0.784,0.0
34.935,-2.953,-0.592,2.0
29.751,-2.524,-0.668,8.0
24.307,-2.07,-0.68,13.0
22.225,-1.901,-0.746,1.0
19.697,-1.691,-0.77,1.0
17.546,-1.512,-0.783,0.0
35.015,-3.019,-0.585,2.0
29.71,-2.571,-0.66,5.0
24.135,-2.096,-0.669,5.0
22.297,-1.944,-0.743,2.0
19.738,-1.728,-0.766,1.0
17.699,-1.555,-0.785,1.0
35.664,-3.134,-0.586,2.0
29.887,-2.636,-0.655,3.0
24.056,-2.13,-0.659,3.0
22.448,-1.995,-0.741,1.0
19.899,-1.775,-0.766,0.0
17.814,-1.595,-0.784,1.0
35.862,-3.211,-0.578,6.0
30.067,-2.702,-0.65,4.0
25.393,-2.289,-0.688,6.0
22.519,-2.038,-0.736,1.0
20.014,-1.818,-0.764,1.0
17.911,-1.633,-0.782,1.0
35.458,-3.232,-0.559,10.0
30.4,-2.781,-0.646,7.0
26.182,-2.403,-0.7,6.0
22.554,-2.077,-0.729,2.0
20.082,-1.856,-0.759,1.0
18.024,-1.672,-0.78,1.0
35.355,-3.279,-0.544,15.0
30.494,-2.838,-0.636,3.0
26.349,-2.461,-0.694,6.0
23.01,-2.156,-0.734,1.0
20.239,-1.903,-0.757,2.0
18.181,-1.715,-0.78,1.0
35.312,-3.331,-0.528,14.0
30.668,-2.902,-0.627,3.0
26.666,-2.532,-0.691,6.0
23.191,-2.209,-0.73,1.0
20.342,-1.945,-0.752,1.0
18.284,-1.754,-0.776,1.0
35.231,-3.379,-0.511,12.0
31.131,-2.995,-0.622,4.0
26.91,-2.597,-0.685,5.0
23.414,-2.267,-0.726,4.0
20.597,-2.001,-0.751,2.0
18.435,-1.796,-0.774,1.0
35.335,-3.442,-0.496,11.0
31.384,-3.067,-0.611,4.0
27.071,-2.653,-0.675,3.0
23.734,-2.334,-0.724,3.0
20.781,-2.05,-0.748,1.0
18.579,-1.838,-0.77,1.0
35.574,-3.519,-0.48,8.0
32.546,-3.229,-0.617,3.0
27.394,-2.726,-0.669,3.0
24.043,-2.4,-0.72,5.0
21.081,-2.11,-0.747,1.0
18.93,-1.901,-0.774,1.0
37.487,-3.763,-0.485,8.0
32.798,-3.301,-0.604,10.0
27.762,-2.803,-0.662,2.0
24.429,-2.473,-0.718,4.0
21.319,-2.165,-0.743,1.0
19.086,-1.944,-0.77,1.0
37.471,-3.815,-0.463,3.0
32.989,-3.368,-0.587,10.0
28.069,-2.874,-0.653,2.0
24.765,-2.542,-0.713,5.0
21.603,-2.224,-0.74,1.0
19.27,-1.99,-0.765,1.0
40.045,-4.133,-0.471,15.0
33.075,-3.423,-0.568,25.0
28.524,-2.96,-0.646,1.0
25.028,-2.604,-0.705,6.0
21.934,-2.288,-0.738,3.0
19.505,-2.041,-0.762,2.0
40.18,-4.202,-0.447,15.0
33.219,-3.483,-0.55,25.0
29.73,-3.125,-0.654,2.0
25.468,-2.684,-0.701,5.0
22.274,-2.354,-0.734,3.0
19.76,-2.094,-0.759,1.0
40.277,-4.266,-0.421,15.0
33.639,-3.572,-0.534,30.0
29.994,-3.192,-0.639,3.0
25.775,-2.751,-0.692,6.0
22.603,-2.418,-0.73,4.0
20.061,-2.152,-0.756,1.0
0.0,0.0,0.0,0.0
33.949,-3.648,-0.515,31.0
30.536,-3.289,-0.629,5.0
26.176,-2.827,-0.684,6.0
22.811,-2.469,-0.72,4.0
20.4,-2.214,-0.754,2.0
42.678,-4.629,-0.385,18.0
34.276,-3.726,-0.495,29.0
30.974,-3.375,-0.615,9.0
26.62,-2.908,-0.676,2.0
23.158,-2.536,-0.713,5.0
20.694,-2.271,-0.75,4.0
46.651,-5.118,-0.386,3.0
34.626,-3.807,-0.474,28.0
31.201,-3.438,-0.596,10.0
27.125,-2.995,-0.668,2.0
23.654,-2.618,-0.71,5.0
20.925,-2.322,-0.742,4.0
0.0,0.0,0.0,0.0
35.0,-3.889,-0.451,14.0
31.41,-3.498,-0.575,10.0
27.554,-3.075,-0.656,2.0
24.015,-2.686,-0.702,5.0
21.31,-2.389,-0.739,2.0
47.094,-5.277,-0.315,22.0
39.79,-4.468,-0.481,5.0
31.978,-3.598,-0.559,25.0
27.948,-3.151,-0.643,1.0
24.705,-2.792,-0.702,5.0
21.742,-2.462,-0.735,4.0
47.737,-5.403,-0.279,23.0
39.856,-4.52,-0.448,15.0
0.0,0.0,0.0,0.0
29.163,-3.32,-0.646,2.0
25.078,-2.861,-0.691,4.0
22.162,-2.533,-0.731,4.0
0.0,0.0,0.0,0.0
40.04,-4.583,-0.416,15.0
32.952,-3.779,-0.52,28.0
29.6,-3.401,-0.63,8.0
25.72,-2.961,-0.687,5.0
22.494,-2.595,-0.722,4.0
49.907,-5.754,-0.205,24.0
40.17,-4.64,-0.382,15.0
33.556,-3.883,-0.5,31.0
29.824,-3.457,-0.608,15.0
26.167,-3.039,-0.675,3.0
22.969,-2.673,-0.717,5.0
50.321,-5.853,-0.162,10.0
40.254,-4.69,-0.346,9.0
34.025,-3.971,-0.476,28.0
30.077,-3.516,-0.586,18.0
26.955,-3.157,-0.671,1.0
23.218,-2.724,-0.703,4.0
55.468,-6.505,-0.127,16.0
45.513,-5.346,-0.35,13.0
34.596,-4.07,-0.452,22.0
30.703,-3.618,-0.57,14.0
27.402,-3.235,-0.656,1.0
23.828,-2.818,-0.699,3.0
55.958,-6.614,-0.075,11.0
46.222,-5.472,-0.311,20.0
35.069,-4.158,-0.425,11.0
31.422,-3.731,-0.553,18.0
28.218,-3.356,-0.649,7.0
24.541,-2.924,-0.696,3.0
80.898,-9.634,-0.031,8.0
47.075,-5.614,-0.272,22.0
39.802,-4.753,-0.444,9.0
32.119,-3.841,-0.534,29.0
28.727,-3.441,-0.632,8.0
25.23,-3.027,-0.691,4.0
80.763,-9.685,0.047,17.0
47.932,-5.756,-0.229,22.0
39.959,-4.805,-0.406,15.0
32.765,-3.946,-0.513,29.0
29.172,-3.518,-0.613,15.0
25.743,-3.109,-0.68,4.0
81.134,-9.795,0.128,20.0
48.359,-5.846,-0.183,10.0
40.11,-4.855,-0.367,15.0
33.407,-4.049,-0.489,28.0
29.568,-3.588,-0.592,25.0
26.429,-3.212,-0.671,2.0
80.645,-9.797,0.21,26.0
50.274,-6.115,-0.139,8.0
40.386,-4.918,-0.328,11.0
33.99,-4.144,-0.463,28.0
30.05,-3.668,-0.571,23.0
26.995,-3.3,-0.658,3.0
80.434,-9.829,0.291,34.0
55.75,-6.82,-0.097,18.0
45.84,-5.614,-0.326,20.0
34.546,-4.236,-0.434,25.0
30.586,-3.755,-0.549,19.0
27.644,-3.397,-0.645,3.0
80.387,-9.877,0.375,33.0
56.107,-6.901,-0.038,4.0
46.401,-5.713,-0.28,21.0
39.705,-4.894,-0.457,7.0
31.445,-3.88,-0.531,20.0
28.327,-3.499,-0.63,8.0
80.423,-9.931,0.46,26.0
80.92,-10.002,0.029,9.0
47.298,-5.852,-0.236,22.0
39.815,-4.931,-0.416,18.0
32.439,-4.021,-0.513,27.0
28.621,-3.552,-0.606,23.0
80.429,-9.979,0.546,23.0
69.31,-8.607,0.099,7.0
48.57,-6.036,-0.19,22.0
40.025,-4.979,-0.375,18.0
33.08,-4.119,-0.488,27.0
29.158,-3.634,-0.586,21.0
80.465,-10.027,0.634,24.0
69.106,-8.618,0.174,17.0
0.0,0.0,0.0,0.0
40.318,-5.036,-0.334,15.0
33.834,-4.23,-0.462,28.0
29.739,-3.721,-0.566,23.0
80.541,-10.075,0.722,25.0
68.825,-8.616,0.248,5.0
55.741,-6.983,-0.097,10.0
45.626,-5.72,-0.328,6.0
34.517,-4.33,-0.433,25.0
30.415,-3.819,-0.545,23.0
80.483,-10.104,0.81,22.0
68.694,-8.629,0.324,3.0
56.372,-7.086,-0.035,4.0
46.025,-5.789,-0.28,21.0
39.754,-5.004,-0.455,5.0
31.335,-3.947,-0.526,22.0
80.843,-10.182,0.905,5.0
68.514,-8.634,0.4,2.0
68.65,-8.656,0.033,8.0
47.056,-5.936,-0.234,21.0
39.841,-5.029,-0.411,17.0
32.346,-4.086,-0.507,27.0
191.995,-24.25,2.362,20.0
68.348,-8.636,0.475,3.0
68.532,-8.663,0.11,2.0
48.075,-6.08,-0.184,14.0
39.936,-5.054,-0.367,15.0
33.191,-4.202,-0.483,27.0
191.987,-24.308,2.58,31.0
68.385,-8.661,0.553,3.0
68.201,-8.641,0.185,2.0
50.057,-6.345,-0.137,12.0
40.138,-5.09,-0.324,3.0
33.974,-4.31,-0.456,29.0
191.968,-24.355,2.792,29.0
68.304,-8.668,0.628,3.0
68.133,-8.649,0.261,2.0
55.852,-7.092,-0.089,12.0
45.663,-5.8,-0.317,19.0
34.607,-4.398,-0.426,21.0
191.979,-24.398,3.012,33.0
68.232,-8.673,0.705,6.0
68.109,-8.659,0.339,2.0
60.997,-7.757,-0.028,4.0
46.159,-5.872,-0.269,20.0
39.744,-5.057,-0.444,8.0
191.92,-24.423,3.229,30.0
68.234,-8.684,0.782,5.0
67.956,-8.65,0.415,2.0
60.992,-7.765,0.039,3.0
47.362,-6.031,-0.222,22.0
39.821,-5.072,-0.4,10.0
191.949,-24.45,3.448,21.0
191.96,-24.452,2.42,24.0
67.863,-8.645,0.492,3.0
67.895,-8.65,0.122,2.0
48.753,-6.212,-0.172,22.0
39.952,-5.091,-0.356,4.0
197.794,-25.209,3.78,7.0
191.915,-24.459,2.638,30.0
67.987,-8.664,0.57,2.0
67.934,-8.658,0.199,2.0
55.575,-7.083,-0.133,6.0
42.287,-5.39,-0.328,3.0
197.958,-25.236,4.007,9.0
191.875,-24.457,2.856,23.0
68.255,-8.699,0.65,2.0
67.919,-8.656,0.276,2.0
55.901,-7.124,-0.071,10.0
45.802,-5.837,-0.303,20.0
139.522,-17.784,2.983,7.0
191.881,-24.452,3.076,26.0
68.204,-8.69,0.728,4.0
67.927,-8.653,0.354,2.0
60.975,-7.767,-0.008,5.0
46.522,-5.925,-0.256,21.0
139.499,-17.772,3.14,16.0
191.961,-24.448,3.293,25.0
68.24,-8.688,0.805,3.0
67.954,-8.65,0.431,2.0
68.134,-8.671,0.066,2.0
47.682,-6.067,-0.207,22.0
139.438,-17.749,3.297,16.0
192.037,-24.435,3.512,11.0
191.968,-24.417,2.482,31.0
68.169,-8.668,0.509,3.0
68.09,-8.655,0.143,1.0
0.0,0.0,0.0,0.0
63.066,-8.017,1.563,18.0
197.318,-25.073,3.83,8.0
191.962,-24.382,2.698,33.0
68.328,-8.675,0.587,2.0
68.249,-8.662,0.22,2.0
55.754,-7.074,-0.118,11.0
63.086,-8.007,1.633,23.0
197.359,-25.037,4.048,8.0
191.981,-24.342,2.911,31.0
68.251,-8.65,0.661,5.0
68.291,-8.651,0.296,2.0
56.221,-7.119,-0.057,6.0
63.094,-7.992,1.703,28.0
139.648,-17.679,3.021,14.0
191.954,-24.287,3.122,24.0
68.245,-8.63,0.737,6.0
68.396,-8.645,0.372,2.0
68.636,-8.671,0.005,6.0
63.072,-7.971,1.772,29.0
139.456,-17.612,3.17,26.0
192.015,-24.234,3.334,31.0
191.936,-24.209,2.284,18.0
68.517,-8.637,0.447,2.0
68.663,-8.65,0.08,10.0
63.087,-7.951,1.842,27.0
63.209,-7.96,1.506,5.0
192.082,-24.173,3.546,16.0
191.997,-24.146,2.495,39.0
80.603,-10.13,0.614,9.0
68.748,-8.634,0.155,7.0
63.135,-7.933,1.912,27.0
63.064,-7.917,1.571,18.0
197.607,-24.788,3.862,6.0
192.023,-24.069,2.703,27.0
80.527,-10.086,0.701,28.0
68.872,-8.62,0.229,4.0
63.228,-7.917,1.983,11.0
63.081,-7.891,1.639,23.0
139.591,-17.448,2.878,13.0
192.036,-23.981,2.909,26.0
80.493,-10.043,0.787,26.0
69.213,-8.629,0.306,3.0
85.405,-10.653,2.77,8.0
63.095,-7.862,1.707,23.0
139.548,-17.372,3.026,23.0
191.996,-23.879,3.113,24.0
80.576,-10.012,0.873,12.0
80.414,-9.983,0.439,13.0
85.336,-10.6,2.858,10.0
63.073,-7.826,1.772,14.0
139.688,-17.315,3.174,18.0
192.116,-23.788,3.316,17.0
192.074,-23.759,2.281,18.0
80.396,-9.935,0.523,27.0
84.934,-10.502,2.933,19.0
139.15,-17.186,4.055,5.0
139.628,-17.225,3.317,10.0
188.688,-23.251,3.451,15.0
192.104,-23.647,2.479,27.0
80.323,-9.877,0.603,31.0
84.698,-10.421,3.011,24.0
139.208,-17.107,4.2,8.0
165.463,-20.308,4.101,15.0
188.414,-23.097,3.635,19.0
192.103,-23.521,2.673,20.0
80.27,-9.817,0.686,28.0
84.643,-10.359,3.096,29.0
84.29,-10.302,2.627,10.0
165.248,-20.169,4.261,13.0
188.29,-22.952,3.825,20.0
153.743,-18.717,2.295,8.0
80.296,-9.763,0.765,24.0
84.625,-10.297,3.179,15.0
84.266,-10.239,2.711,26.0
139.044,-16.871,3.724,15.0
188.21,-22.805,4.007,5.0
153.735,-18.603,2.445,14.0
80.32,-9.706,0.845,15.0
84.767,-10.251,3.267,15.0
84.401,-10.191,2.797,29.0
139.011,-16.761,3.859,12.0
153.808,-18.518,3.424,22.0
153.755,-18.485,2.594,19.0
80.462,-9.66,0.923,4.0
0.0,0.0,0.0,0.0
84.578,-10.145,2.884,26.0
84.197,-10.084,2.416,13.0
138.79,-16.596,3.22,13.0
153.784,-18.362,2.74,14.0
153.601,-18.313,1.909,13.0
84.192,-10.045,3.405,21.0
84.622,-10.079,2.965,31.0
84.226,-10.016,2.496,32.0
138.959,-16.498,3.354,17.0
188.295,-22.319,3.528,14.0
192.3,-22.759,2.563,30.0
83.975,-9.946,3.474,30.0
84.649,-10.008,3.044,29.0
84.214,-9.94,2.572,38.0
84.219,-9.923,2.108,5.0
85.354,-10.04,1.676,14.0
192.295,-22.584,2.735,24.0
83.865,-9.857,3.543,36.0
84.158,-9.874,3.099,29.0
83.952,-9.832,2.637,35.0
84.253,-9.85,2.182,14.0
85.318,-9.956,1.749,11.0
85.049,-9.908,1.283,8.0
83.899,-9.783,3.617,38.0
83.767,-9.748,3.157,39.0
0.0,0.0,0.0,0.0
84.262,-9.768,2.256,31.0
85.354,-9.877,1.822,17.0
84.853,-9.802,1.352,4.0
83.967,-9.707,3.691,35.0
83.754,-9.663,3.228,36.0
0.0,0.0,0.0,0.0
84.252,-9.682,2.324,29.0
85.1,-9.761,1.888,9.0
192.4,-22.027,3.225,18.0
84.022,-9.627,3.762,35.0
0.0,0.0,0.0,0.0
82.309,-9.391,2.793,15.0
82.538,-9.398,2.345,22.0
82.607,-9.387,1.898,21.0
84.782,-9.616,1.488,18.0
83.883,-9.521,3.824,37.0
83.768,-9.488,3.363,44.0
82.452,-9.318,2.862,35.0
82.335,-9.285,2.403,35.0
82.689,-9.305,1.965,34.0
84.144,-9.449,1.543,22.0
83.788,-9.417,3.885,43.0
82.549,-9.256,3.379,30.0
82.409,-9.22,2.925,39.0
82.22,-9.179,2.462,39.0
81.938,-9.128,2.008,39.0
82.924,-9.218,1.583,31.0
83.824,-9.326,3.949,38.0
82.737,-9.184,3.446,32.0
82.42,-9.127,2.985,38.0
82.035,-9.063,2.516,42.0
81.887,-9.026,2.067,40.0
82.155,-9.036,1.627,36.0
83.859,-9.231,4.011,36.0
82.548,-9.065,3.497,32.0
82.366,-9.023,3.041,36.0
81.759,-8.935,2.565,41.0
81.899,-8.93,2.124,41.0
81.838,-8.902,1.677,41.0
83.891,-9.132,4.07,31.0
82.596,-8.969,3.556,37.0
82.257,-8.91,3.092,41.0
81.58,-8.815,2.613,34.0
81.96,-8.835,2.18,41.0
81.892,-8.806,1.732,37.0
83.9,-9.03,4.125,39.0
83.145,-8.925,3.633,25.0
82.278,-8.809,3.147,38.0
81.706,-8.725,2.67,37.0
81.62,-8.694,2.222,39.0
81.848,-8.697,1.783,43.0
84.031,-8.936,4.185,38.0
83.167,-8.82,3.687,23.0
82.432,-8.718,3.204,42.0
82.066,-8.657,2.733,58.0
81.685,-8.594,2.274,39.0
81.916,-8.596,1.834,43.0
83.749,-8.794,4.221,27.0
82.024,-8.59,3.685,12.0
82.467,-8.612,3.254,40.0
82.546,-8.596,2.797,43.0
81.761,-8.492,2.323,40.0
82.111,-8.507,1.885,38.0
0.0,0.0,0.0,0.0
84.696,-8.755,3.852,10.0
81.947,-8.447,3.278,45.0
82.413,-8.471,2.838,46.0
81.697,-8.373,2.366,36.0
82.22,-8.404,1.931,40.0
82.325,-8.421,4.24,13.0
82.01,-8.364,3.773,16.0
82.025,-8.341,3.324,43.0
81.88,-8.302,2.862,41.0
82.518,-8.343,2.431,50.0
82.685,-8.337,1.984,32.0
82.268,-8.301,4.277,34.0
82.179,-8.266,3.821,28.0
82.118,-8.235,3.368,38.0
81.854,-8.182,2.9,42.0
82.37,-8.21,2.467,47.0
82.376,-8.187,2.015,28.0
82.341,-8.188,4.32,34.0
81.861,-8.116,3.845,37.0
0.0,0.0,0.0,0.0
81.984,-8.077,2.941,47.0
82.149,-8.068,2.496,40.0
82.4,-8.068,2.052,41.0
81.939,-8.028,4.335,23.0
81.806,-7.989,3.877,35.0
82.324,-8.015,3.449,19.0
82.114,-7.969,2.979,44.0
82.094,-7.943,2.528,41.0
82.092,-7.918,2.077,40.0
81.84,-7.897,4.362,30.0
81.848,-7.872,3.91,36.0
81.859,-7.847,3.461,20.0
82.163,-7.851,3.013,44.0
82.028,-7.812,2.556,49.0
81.955,-7.781,2.104,42.0
82.032,-7.792,4.401,27.0
82.016,-7.763,3.948,33.0
81.844,-7.721,3.488,26.0
81.928,-7.703,3.032,44.0
81.982,-7.683,2.582,48.0
82.027,-7.661,2.132,45.0
83.339,-7.788,4.499,49.0
82.28,-7.661,3.987,38.0
81.763,-7.587,3.511,38.0
82.028,-7.585,3.061,51.0
82.053,-7.562,2.609,49.0
82.066,-7.538,2.158,38.0
83.684,-7.689,4.542,49.0
81.957,-7.504,3.995,30.0
81.719,-7.455,3.531,37.0
81.856,-7.441,3.077,37.0
82.241,-7.45,2.637,39.0
82.379,-7.437,2.187,36.0
83.69,-7.557,4.563,42.0
82.587,-7.43,4.046,43.0
81.875,-7.338,3.559,36.0
81.977,-7.321,3.101,47.0
82.214,-7.316,2.655,39.0
82.527,-7.317,2.209,39.0
83.306,-7.387,4.561,39.0
82.859,-7.32,4.077,42.0
81.809,-7.2,3.572,38.0
82.188,-7.206,3.125,46.0
82.311,-7.191,2.674,41.0
84.209,-7.329,2.27,14.0
83.201,-7.243,4.57,33.0
82.991,-7.197,4.097,36.0
81.744,-7.061,3.582,34.0
81.995,-7.055,3.131,51.0
82.346,-7.058,2.688,45.0
82.879,-7.077,2.247,42.0
83.718,-7.148,4.61,35.0
83.352,-7.089,4.127,44.0
82.076,-6.952,3.608,16.0
82.028,-6.92,3.142,46.0
82.194,-6.907,2.693,45.0
82.567,-6.912,2.248,48.0
83.859,-7.019,4.627,41.0
83.485,-6.958,4.142,53.0
83.044,-6.894,3.658,36.0
81.954,-6.775,3.147,40.0
82.235,-6.772,2.701,43.0
82.418,-6.759,2.25,37.0
83.532,-6.848,4.614,43.0
83.184,-6.791,4.132,43.0
83.712,-6.806,3.692,37.0
82.657,-6.692,3.177,40.0
82.455,-6.647,2.711,49.0
82.32,-6.61,2.25,31.0
83.354,-6.692,4.606,38.0
83.115,-6.643,4.129,41.0
83.818,-6.67,3.698,33.0
82.327,-6.524,3.165,35.0
82.52,-6.511,2.714,42.0
82.235,-6.462,2.248,35.0
83.55,-6.563,4.616,41.0
83.249,-6.51,4.135,40.0
84.177,-6.554,3.712,16.0
82.39,-6.387,3.165,37.0
82.606,-6.374,2.714,43.0
82.521,-6.34,2.251,35.0
83.586,-6.419,4.614,53.0
83.514,-6.384,4.143,33.0
83.85,-6.38,3.692,16.0
82.709,-6.265,3.172,38.0
82.757,-6.241,2.712,43.0
82.504,-6.194,2.244,36.0
83.794,-6.288,4.618,40.0
83.362,-6.226,4.128,40.0
83.245,-6.187,3.656,30.0
82.767,-6.124,3.164,47.0
82.775,-6.096,2.704,41.0
82.372,-6.039,2.231,30.0
84.342,-6.179,4.636,38.0
83.393,-6.079,4.117,38.0
83.42,-6.051,3.652,54.0
82.968,-5.99,3.16,44.0
82.64,-5.938,2.686,42.0
82.56,-5.905,2.223,40.0
84.322,-6.026,4.621,27.0
83.436,-5.932,4.105,22.0
83.741,-5.924,3.65,42.0
83.029,-5.845,3.146,23.0
83.038,-5.818,2.683,38.0
82.693,-5.765,2.209,30.0
84.189,-5.863,4.595,15.0
83.683,-5.798,4.098,11.0
24.553,-1.692,1.065,17.0
24.53,-1.682,0.924,19.0
24.537,-1.675,0.786,22.0
24.637,-1.673,0.652,13.0
24.477,-1.66,1.329,46.0
24.512,-1.654,1.194,37.0
24.459,-1.641,1.054,26.0
24.471,-1.634,0.915,43.0
24.495,-1.627,0.778,54.0
24.534,-1.621,0.642,45.0
24.481,-1.616,1.322,76.0
24.479,-1.607,1.185,74.0
24.464,-1.597,1.047,42.0
24.45,-1.588,0.906,71.0
24.5,-1.583,0.771,69.0
24.536,-1.577,0.634,68.0
24.458,-1.57,1.313,80.0
24.463,-1.562,1.176,72.0
24.461,-1.553,1.038,56.0
24.452,-1.544,0.898,67.0
24.503,-1.539,0.762,69.0
24.544,-1.533,0.625,83.0
24.466,-1.525,1.304,92.0
24.452,-1.516,1.166,60.0
24.46,-1.508,1.029,44.0
24.467,-1.5,0.889,58.0
24.525,-1.495,0.753,58.0
24.55,-1.489,0.616,74.0
24.451,-1.48,1.293,56.0
24.493,-1.474,1.158,38.0
24.51,-1.466,1.02,35.0
24.505,-1.457,0.879,44.0
24.557,-1.452,0.743,73.0
24.573,-1.445,0.606,75.0
24.485,-1.437,1.284,59.0
24.515,-1.43,1.147,46.0
24.513,-1.422,1.009,34.0
24.562,-1.416,0.87,36.0
24.587,-1.409,0.732,24.0
24.608,-1.402,0.595,10.0
28.418,-1.615,1.476,34.0
83.672,-4.727,3.874,16.0
83.382,-4.681,3.39,36.0
83.281,-4.646,2.908,39.0
84.161,-4.666,2.464,42.0
83.601,-4.608,1.976,37.0
28.423,-1.562,1.461,73.0
83.463,-4.56,3.82,31.0
83.638,-4.541,3.355,37.0
84.179,-4.541,2.892,38.0
84.183,-4.513,2.418,40.0
84.332,-4.493,1.946,36.0
28.424,-1.51,1.445,69.0
84.555,-4.464,3.821,29.0
83.618,-4.386,3.305,25.0
84.959,-4.427,2.869,44.0
84.386,-4.368,2.372,40.0
84.726,-4.357,1.904,41.0
28.415,-1.457,1.427,63.0
85.188,-4.338,3.795,43.0
86.397,-4.371,3.36,37.0
85.275,-4.285,2.825,45.0
84.851,-4.235,2.331,31.0
84.705,-4.199,1.848,38.0
28.41,-1.403,1.407,44.0
85.74,-4.207,3.763,15.0
85.987,-4.19,3.286,13.0
86.003,-4.161,2.791,35.0
84.853,-4.077,2.273,36.0
84.614,-4.039,1.789,35.0
28.381,-1.349,1.386,12.0
86.005,-4.061,3.713,15.0
86.155,-4.038,3.231,4.0
86.299,-4.017,2.739,21.0
85.055,-3.931,2.217,25.0
85.147,-3.907,1.737,11.0
164.211,-7.507,7.902,16.0
159.663,-7.244,6.776,18.0
165.869,-7.471,6.097,27.0
85.737,-3.833,2.657,6.0
31.322,-1.39,0.793,21.0
28.461,-1.253,0.559,40.0
31.371,-1.376,1.485,2.0
28.443,-1.238,1.184,40.0
28.447,-1.229,1.023,59.0
28.429,-1.218,0.858,61.0
28.429,-1.209,0.697,89.0
28.439,-1.2,0.536,106.0
28.429,-1.194,1.322,103.0
28.428,-1.185,1.161,106.0
28.424,-1.176,0.999,108.0
28.439,-1.167,0.835,121.0
28.445,-1.158,0.673,150.0
28.444,-1.149,0.512,111.0
28.431,-1.143,1.298,107.0
28.431,-1.133,1.136,70.0
28.444,-1.125,0.975,65.0
28.453,-1.116,0.81,47.0
28.442,-1.106,0.648,28.0
31.239,-1.205,0.535,38.0
31.254,-1.199,1.399,64.0
31.232,-1.188,1.22,45.0
31.282,-1.18,1.044,55.0
31.243,-1.169,0.862,47.0
31.304,-1.161,0.685,53.0
31.316,-1.152,0.507,44.0
31.282,-1.144,1.371,59.0
31.253,-1.133,1.192,38.0
31.287,-1.124,1.015,36.0
31.317,-1.115,0.834,46.0
31.393,-1.108,0.657,2.0
84.359,-2.951,1.286,10.0
31.314,-1.089,1.342,34.0
38.718,-1.334,1.439,4.0
38.739,-1.322,1.219,6.0
38.672,-1.308,0.992,26.0
38.692,-1.296,0.772,32.0
38.724,-1.285,0.552,26.0
38.667,-1.275,1.618,83.0
38.641,-1.262,1.397,70.0
38.615,-1.249,1.175,61.0
38.617,-1.237,0.951,67.0
38.624,-1.225,0.731,68.0
38.64,-1.214,0.511,64.0
38.651,-1.205,1.578,93.0
38.604,-1.192,1.355,61.0
38.58,-1.179,1.134,66.0
38.623,-1.169,0.911,98.0
38.639,-1.158,0.691,99.0
38.639,-1.146,0.47,103.0
38.648,-1.137,1.535,89.0
38.575,-1.123,1.312,64.0
38.576,-1.111,1.092,61.0
38.638,-1.101,0.868,84.0
38.625,-1.089,0.647,68.0
38.637,-1.077,0.427,65.0
38.676,-1.069,1.493,42.0
38.598,-1.055,1.269,51.0
38.611,-1.044,1.049,70.0
38.657,-1.033,0.825,50.0
38.672,-1.022,0.604,39.0
38.696,-1.011,0.383,37.0
45.714,-1.184,1.712,53.0
38.698,-0.991,1.228,41.0
38.658,-0.978,1.005,40.0
0.0,0.0,0.0,0.0
40.419,-0.998,0.584,27.0
40.416,-0.987,0.353,34.0
40.421,-0.977,1.466,31.0
0.0,0.0,0.0,0.0
0.0,0.0,0.0,0.0
40.394,-0.941,0.766,38.0
40.443,-0.929,0.535,152.0
40.423,-0.917,0.304,150.0
40.404,-0.907,1.416,37.0
40.411,-0.896,1.184,29.0
38.4,-0.84,0.905,35.0
38.382,-0.829,0.681,47.0
38.386,-0.818,0.462,31.0
38.385,-0.807,0.241,10.0
45.717,-0.949,1.545,49.0
45.739,-0.937,1.283,31.0
38.18,-0.771,0.852,30.0
52.997,-1.055,0.873,18.0
52.998,-1.04,0.569,21.0
52.967,-1.024,0.265,28.0
64.315,-1.228,2.09,33.0
64.332,-1.21,1.721,34.0
193.336,-3.582,4.064,9.0
193.051,-3.522,2.931,12.0
65.197,-1.171,0.615,0.0
20.133,-0.355,0.074,25.0
64.303,-1.12,2.004,80.0
176.615,-3.029,4.491,46.0
176.632,-2.978,3.476,59.0
20.165,-0.334,0.278,2.0
20.127,-0.328,0.162,10.0
20.14,-0.322,0.047,41.0
59.461,-0.938,1.772,12.0
59.485,-0.922,1.431,10.0
20.149,-0.306,0.368,7.0
20.121,-0.301,0.25,12.0
20.129,-0.295,0.135,10.0
59.513,-0.857,0.058,61.0
59.392,-0.841,1.687,13.0
20.148,-0.279,0.456,8.0
20.125,-0.274,0.34,13.0
20.125,-0.268,0.222,10.0
20.156,-0.263,0.107,2.0
59.569,-0.763,-0.025,20.0
59.416,-0.746,1.603,11.0
20.138,-0.247,0.427,11.0
20.14,-0.242,0.312,10.0
20.15,-0.237,0.194,2.0
56.177,-0.646,0.218,2.0
56.194,-0.632,-0.104,1.0
20.151,-0.221,0.514,15.0
20.156,-0.216,0.398,17.0
20.167,-0.211,0.283,1.0
64.289,-0.656,0.525,35.0
56.201,-0.558,0.135,5.0
56.26,-0.545,-0.187,7.0
20.149,-0.19,0.484,11.0
53.476,-0.491,0.978,15.0
66.514,-0.593,0.834,16.0
20.254,-0.175,0.135,0.0
20.197,-0.169,0.018,1.0
20.182,-0.164,-0.097,14.0
20.23,-0.159,0.456,28.0
20.209,-0.154,0.339,18.0
20.161,-0.149,0.222,16.0
20.135,-0.143,0.103,15.0
20.168,-0.139,-0.012,25.0
20.156,-0.134,-0.128,23.0
20.13,-0.129,0.423,18.0
20.129,-0.123,0.306,20.0
20.124,-0.119,0.19,19.0
20.13,-0.113,0.072,35.0
20.137,-0.108,-0.043,29.0
20.149,-0.104,-0.159,33.0
20.125,-0.099,0.391,37.0
20.12,-0.094,0.275,26.0
20.115,-0.089,0.158,26.0
20.123,-0.084,0.041,34.0
20.144,-0.079,-0.074,34.0
20.152,-0.075,-0.191,27.0
20.13,-0.07,0.359,33.0
20.112,-0.065,0.242,29.0
20.12,-0.06,0.126,34.0
20.122,-0.055,0.008,36.0
20.145,-0.051,-0.107,34.0
20.142,-0.046,-0.223,9.0
20.119,-0.041,0.326,33.0
20.113,-0.036,0.21,34.0
20.126,-0.031,0.094,36.0
20.103,-0.027,-0.023,18.0
20.163,-0.022,-0.14,19.0
20.197,-0.018,-0.257,6.0
20.132,-0.013,0.293,28.0
20.131,-0.008,0.177,28.0
20.192,-0.004,0.061,30.0
20.243,0.0,-0.057,151.0
20.259,0.004,-0.174,151.0
20.266,0.009,-0.291,150.0
20.135,0.013,0.26,29.0
20.139,0.018,0.143,27.0
20.267,0.023,0.027,51.0
20.267,0.027,-0.091,150.0
20.246,0.032,-0.208,150.0
20.246,0.036,-0.325,5.0
20.136,0.04,0.226,29.0
20.16,0.045,0.11,28.0
20.213,0.049,-0.006,28.0
20.201,0.054,-0.125,25.0
20.252,0.058,-0.242,1.0
42.559,0.132,-0.756,1.0
20.155,0.067,0.192,30.0
20.203,0.071,0.075,36.0
20.186,0.075,-0.041,28.0
20.188,0.08,-0.159,29.0
20.199,0.084,-0.277,16.0
41.899,0.184,-0.817,0.0
20.163,0.093,0.157,27.0
20.19,0.097,0.04,36.0
20.19,0.101,-0.076,30.0
20.176,0.105,-0.195,23.0
20.198,0.109,-0.312,26.0
20.213,0.114,-0.429,1.0
20.198,0.118,0.122,33.0
20.185,0.122,0.005,26.0
20.181,0.126,-0.111,35.0
20.175,0.13,-0.23,31.0
20.191,0.134,-0.347,29.0
20.207,0.138,-0.464,16.0
20.222,0.142,0.086,30.0
20.217,0.146,-0.03,23.0
20.182,0.15,-0.147,25.0
20.167,0.154,-0.265,33.0
20.18,0.158,-0.383,28.0
20.198,0.162,-0.5,26.0
20.307,0.167,0.05,29.0
20.218,0.17,-0.066,17.0
20.172,0.173,-0.183,16.0
20.172,0.177,-0.302,32.0
20.181,0.181,-0.419,32.0
20.193,0.185,-0.536,31.0
20.346,0.19,0.013,29.0
20.227,0.193,-0.103,3.0
20.166,0.196,-0.22,18.0
20.169,0.2,-0.338,29.0
20.196,0.204,-0.456,24.0
