X,Y,Z,Reflectivity
30.479,-1.979,3.024,9.0
44.89,-2.909,4.211,7.0
28.446,-1.839,2.515,55.0
31.968,-2.073,3.731,65.0
30.266,-1.958,3.368,10.0
30.395,-1.961,3.218,44.0
30.459,-1.961,3.056,45.0
45.066,-2.895,4.279,6.0
28.429,-1.822,2.546,52.0
0.0,0.0,0.0,0.0
30.225,-1.937,3.398,29.0
30.378,-1.942,3.25,39.0
30.457,-1.943,3.091,58.0
47.518,-3.024,4.565,5.0
28.421,-1.804,2.576,28.0
30.141,-1.919,3.585,20.0
30.228,-1.919,3.431,18.0
30.356,-1.922,3.281,27.0
30.452,-1.924,3.123,65.0
30.509,-1.922,2.963,10.0
28.439,-1.788,2.608,3.0
30.115,-1.898,3.615,40.0
25.255,-1.587,2.894,17.0
30.358,-1.903,3.313,12.0
30.442,-1.903,3.154,61.0
30.483,-1.901,2.992,23.0
45.62,-2.837,4.231,5.0
30.076,-1.875,3.642,39.0
30.219,-1.879,3.494,12.0
25.17,-1.56,2.772,26.0
30.422,-1.881,3.182,39.0
30.478,-1.879,3.022,61.0
45.491,-2.797,4.265,2.0
30.084,-1.854,3.673,65.0
30.19,-1.855,3.52,21.0
25.192,-1.544,2.8,32.0
31.201,-1.907,3.294,10.0
30.486,-1.858,3.053,75.0
54.295,-3.3,5.142,9.0
30.048,-1.83,3.697,48.0
30.159,-1.831,3.546,15.0
25.227,-1.527,2.828,38.0
31.722,-1.915,3.379,46.0
30.492,-1.835,3.082,56.0
47.528,-2.852,4.545,4.0
30.044,-1.807,3.725,42.0
36.472,-2.187,4.322,4.0
25.22,-1.507,2.85,29.0
31.743,-1.891,3.41,62.0
30.543,-1.814,3.114,44.0
30.504,-1.806,2.944,16.0
30.046,-1.784,3.752,14.0
33.548,-1.985,4.005,1.0
25.27,-1.49,2.878,36.0
31.736,-1.866,3.437,44.0
31.241,-1.831,3.212,35.0
30.512,-1.782,2.971,44.0
36.913,-2.161,4.642,11.0
33.406,-1.949,4.016,4.0
25.254,-1.468,2.897,18.0
31.759,-1.841,3.466,10.0
31.725,-1.833,3.288,51.0
30.501,-1.756,2.994,58.0
38.502,-2.221,4.873,5.0
33.256,-1.912,4.025,9.0
25.359,-1.453,2.929,18.0
25.33,-1.446,2.784,3.0
31.722,-1.805,3.313,21.0
30.506,-1.73,3.019,50.0
38.426,-2.183,4.893,45.0
36.997,-2.095,4.506,4.0
25.403,-1.433,2.954,29.0
25.309,-1.423,2.801,2.0
47.966,-2.687,5.045,4.0
30.935,-1.727,3.084,40.0
38.426,-2.149,4.922,2.0
36.997,-2.062,4.533,15.0
25.44,-1.412,2.976,39.0
52.624,-2.911,5.862,9.0
51.45,-2.836,5.448,9.0
31.384,-1.724,3.15,34.0
44.333,-2.439,5.709,2.0
38.47,-2.108,4.741,44.0
25.471,-1.39,2.997,43.0
58.766,-3.197,6.585,22.0
46.061,-2.495,4.907,3.0
31.648,-1.708,3.197,6.0
51.992,-2.811,6.73,8.0
39.188,-2.11,4.854,8.0
25.472,-1.366,3.014,44.0
47.125,-2.518,5.31,9.0
36.995,-1.969,3.964,9.0
24.032,-1.274,2.443,19.0
25.554,-1.357,3.323,8.0
25.501,-1.348,3.174,29.0
25.461,-1.34,3.028,30.0
46.491,-2.439,5.267,3.0
23.947,-1.251,2.58,10.0
24.015,-1.25,2.455,41.0
25.548,-1.331,3.337,47.0
25.511,-1.324,3.19,53.0
25.481,-1.316,3.045,18.0
38.558,-1.984,4.389,48.0
23.926,-1.226,2.591,33.0
24.0,-1.225,2.466,40.0
25.553,-1.305,3.352,44.0
25.51,-1.297,3.204,16.0
33.83,-1.713,4.06,1.0
23.819,-1.201,2.723,17.0
23.875,-1.199,2.597,27.0
24.009,-1.2,2.479,38.0
37.148,-1.86,4.891,3.0
39.976,-1.992,5.04,4.0
23.735,-1.178,2.859,18.0
23.81,-1.176,2.733,47.0
23.881,-1.174,2.609,46.0
24.004,-1.176,2.489,59.0
43.907,-2.152,5.801,1.0
36.463,-1.779,4.613,2.0
23.697,-1.151,2.865,19.0
23.802,-1.151,2.742,57.0
23.888,-1.15,2.619,35.0
37.102,-1.778,3.862,7.0
35.922,-1.723,4.76,1.0
23.694,-1.131,3.007,3.0
23.691,-1.125,2.874,30.0
23.8,-1.125,2.751,43.0
60.004,-2.825,6.602,11.0
46.358,-2.172,4.843,10.0
23.85,-1.118,3.169,24.0
23.72,-1.106,3.018,43.0
23.673,-1.099,2.88,35.0
23.786,-1.099,2.758,9.0
47.682,-2.193,5.262,7.0
37.13,-1.699,3.89,8.0
23.852,-1.092,3.177,74.0
23.782,-1.083,3.034,45.0
23.721,-1.075,2.892,25.0
40.456,-1.824,4.702,2.0
37.063,-1.663,4.101,25.0
37.145,-1.659,3.902,2.0
23.846,-1.065,3.182,47.0
23.865,-1.06,3.05,41.0
23.813,-1.053,2.91,3.0
39.626,-1.743,4.616,2.0
47.256,-2.068,5.24,29.0
31.823,-1.386,3.35,7.0
0.0,0.0,0.0,0.0
39.391,-1.705,5.044,12.0
39.343,-1.694,4.816,9.0
42.901,-1.838,5.006,1.0
31.858,-1.358,3.538,0.0
31.804,-1.348,3.354,2.0
23.658,-1.003,3.167,8.0
39.924,-1.683,5.119,3.0
39.337,-1.649,4.822,11.0
28.406,-1.184,3.319,7.0
28.416,-1.179,3.16,42.0
24.736,-1.02,2.612,30.0
28.411,-1.171,3.807,1.0
28.405,-1.165,3.646,40.0
28.399,-1.158,3.484,51.0
28.397,-1.151,3.321,75.0
28.399,-1.145,3.161,105.0
24.721,-0.991,2.613,43.0
28.376,-1.137,3.805,33.0
28.386,-1.131,3.646,98.0
28.383,-1.124,3.484,95.0
28.398,-1.118,3.323,102.0
28.387,-1.112,3.162,48.0
24.717,-0.963,2.614,39.0
28.376,-1.104,3.807,52.0
28.395,-1.098,3.648,74.0
28.405,-1.092,3.488,64.0
28.412,-1.085,3.325,62.0
24.793,-0.942,2.762,24.0
24.725,-0.934,2.615,46.0
28.396,-1.071,3.809,38.0
32.279,-1.21,4.146,30.0
32.247,-1.201,3.959,46.0
32.105,-1.189,3.757,29.0
24.796,-0.913,2.761,27.0
24.744,-0.905,2.616,20.0
32.351,-1.182,4.338,62.0
32.286,-1.172,4.146,37.0
39.069,-1.41,4.795,51.0
39.05,-1.401,4.567,42.0
24.84,-0.885,2.764,40.0
24.811,-0.878,2.621,2.0
32.325,-1.142,4.332,44.0
39.092,-1.373,5.016,27.0
36.851,-1.285,4.518,2.0
25.049,-0.868,2.926,7.0
24.842,-0.855,2.761,44.0
40.28,-1.379,4.25,2.0
39.167,-1.337,5.243,21.0
25.229,-0.856,3.233,4.0
33.391,-1.125,4.089,3.0
25.013,-0.837,2.918,18.0
24.866,-0.827,2.76,43.0
40.237,-1.33,4.238,2.0
25.256,-0.832,3.376,35.0
25.24,-0.825,3.23,50.0
25.213,-0.819,3.082,25.0
25.021,-0.807,2.914,21.0
24.883,-0.797,2.756,35.0
40.196,-1.28,4.225,3.0
25.247,-0.801,3.369,83.0
25.239,-0.795,3.223,48.0
25.214,-0.789,3.076,40.0
24.997,-0.776,2.905,18.0
44.356,-1.369,4.902,8.0
44.521,-1.364,4.668,0.0
25.24,-0.77,3.361,27.0
25.235,-0.764,3.216,4.0
25.188,-0.757,3.066,32.0
24.873,-0.742,2.883,22.0
40.13,-1.19,4.423,8.0
44.472,-1.309,4.648,41.0
36.3,-1.063,4.822,3.0
44.774,-1.302,5.691,1.0
25.143,-0.726,3.052,27.0
24.834,-0.711,2.869,41.0
41.118,-1.169,4.517,2.0
57.917,-1.636,6.033,6.0
51.063,-1.434,6.764,7.0
25.253,-0.703,3.2,1.0
25.16,-0.695,3.044,30.0
24.822,-0.681,2.858,44.0
47.502,-1.294,5.199,5.0
47.345,-1.28,4.912,37.0
34.043,-0.915,4.495,5.0
25.25,-0.673,3.189,24.0
25.075,-0.663,3.023,16.0
24.818,-0.651,2.847,27.0
40.968,-1.067,4.466,9.0
47.168,-1.219,4.873,8.0
33.024,-0.848,4.346,1.0
25.259,-0.643,3.178,32.0
24.793,-0.626,2.977,28.0
44.619,-1.118,5.097,28.0
40.819,-1.014,4.429,5.0
51.74,-1.276,5.319,40.0
36.659,-0.897,4.805,5.0
25.27,-0.613,3.166,15.0
24.802,-0.597,2.965,45.0
0.0,0.0,0.0,0.0
44.654,-1.057,4.822,43.0
53.978,-1.267,5.52,9.0
36.846,-0.858,4.809,28.0
44.362,-1.024,5.534,5.0
24.815,-0.568,2.952,36.0
44.503,-1.009,5.035,19.0
44.666,-1.005,4.797,27.0
44.602,-0.994,4.535,62.0
44.703,-0.987,5.808,8.0
24.777,-0.542,3.076,35.0
24.802,-0.538,2.936,24.0
40.527,-0.871,4.56,7.0
45.349,-0.966,4.842,4.0
31.531,-0.666,3.186,29.0
24.766,-0.518,3.201,10.0
24.771,-0.513,3.059,75.0
40.417,-0.829,4.758,10.0
40.35,-0.82,4.513,9.0
44.469,-0.895,4.719,11.0
31.527,-0.629,3.165,37.0
24.765,-0.489,3.184,82.0
24.778,-0.484,3.043,18.0
40.545,-0.785,4.744,2.0
51.226,-0.982,5.694,6.0
31.684,-0.601,3.339,31.0
31.575,-0.593,3.147,6.0
24.767,-0.46,3.166,41.0
40.596,-0.746,4.955,7.0
40.517,-0.737,4.711,4.0
44.407,-0.799,4.902,11.0
31.671,-0.564,3.314,40.0
57.646,-1.017,5.701,10.0
41.095,-0.716,5.222,16.0
37.553,-0.647,4.554,6.0
40.489,-0.69,4.675,8.0
37.642,-0.634,4.125,8.0
31.719,-0.529,3.293,7.0
37.646,-0.621,3.692,49.0
40.595,-0.66,5.125,12.0
37.666,-0.605,4.536,57.0
37.572,-0.597,4.307,40.0
37.618,-0.591,4.091,44.0
37.636,-0.585,3.876,61.0
37.672,-0.578,3.663,21.0
37.71,-0.57,4.727,25.0
44.093,-0.658,5.271,18.0
37.592,-0.555,4.276,17.0
31.805,-0.463,3.431,45.0
37.654,-0.542,3.844,7.0
54.948,-0.782,5.294,6.0
44.533,-0.623,5.542,9.0
54.227,-0.75,6.433,2.0
54.164,-0.739,6.111,7.0
31.819,-0.429,3.403,43.0
40.709,-0.542,4.118,0.0
54.257,-0.713,5.176,73.0
46.633,-0.601,5.759,5.0
37.505,-0.477,4.413,19.0
31.848,-0.399,3.563,5.0
31.872,-0.394,3.378,4.0
54.815,-0.669,5.492,9.0
54.598,-0.658,5.155,4.0
44.057,-0.519,5.397,4.0
54.15,-0.629,6.318,5.0
31.83,-0.365,3.529,42.0
43.255,-0.489,4.54,3.0
50.435,-0.562,5.002,2.0
47.195,-0.518,4.408,11.0
36.876,-0.395,4.478,36.0
52.572,-0.555,6.079,10.0
31.845,-0.331,3.497,70.0
52.509,-0.537,5.456,15.0
52.483,-0.529,5.15,12.0
31.114,-0.308,2.873,39.0
35.993,-0.347,4.332,1.0
47.57,-0.451,5.449,10.0
47.415,-0.443,5.155,11.0
52.196,-0.479,5.367,57.0
47.025,-0.425,4.562,49.0
38.714,-0.344,3.532,5.0
47.676,-0.41,5.685,12.0
31.836,-0.269,3.61,37.0
47.079,-0.391,5.065,49.0
47.035,-0.383,4.783,28.0
38.86,-0.311,3.726,25.0
38.713,-0.305,3.488,9.0
47.236,-0.358,5.578,11.0
31.848,-0.237,3.575,58.0
38.906,-0.284,4.141,65.0
38.871,-0.278,3.907,59.0
31.055,-0.218,2.941,46.0
51.31,-0.352,4.563,5.0
38.729,-0.255,4.527,25.0
39.11,-0.252,4.343,12.0
38.987,-0.246,4.102,37.0
38.878,-0.239,3.861,42.0
31.064,-0.187,2.904,39.0
38.584,-0.227,3.384,10.0
31.91,-0.179,3.691,60.0
39.076,-0.214,4.291,48.0
45.972,-0.245,4.78,5.0
31.03,-0.161,3.043,11.0
52.267,-0.265,4.822,25.0
40.43,-0.199,3.496,3.0
39.126,-0.182,4.475,20.0
42.808,-0.193,4.646,6.0
51.263,-0.224,5.265,57.0
30.981,-0.131,2.998,43.0
38.605,-0.159,3.511,26.0
57.869,-0.23,4.928,9.0
51.238,-0.19,5.793,10.0
42.799,-0.153,4.589,6.0
52.206,-0.18,5.293,19.0
31.014,-0.103,2.96,30.0
38.617,-0.123,3.461,2.0
42.846,-0.132,3.592,5.0
36.662,-0.102,4.095,13.0
52.338,-0.139,5.54,13.0
30.953,-0.078,3.096,30.0
42.795,-0.103,4.027,3.0
57.869,-0.133,5.108,13.0
42.903,-0.093,3.538,10.0
42.576,-0.08,4.696,3.0
42.88,-0.076,4.479,3.0
30.946,-0.051,3.052,40.0
52.329,-0.08,4.85,4.0
44.385,-0.063,3.855,7.0
42.982,-0.056,3.483,7.0
36.389,-0.037,3.962,9.0
30.859,-0.027,3.179,5.0
52.338,-0.041,5.086,7.0
51.179,-0.035,4.67,7.0
42.668,-0.024,3.645,6.0
53.034,-0.024,4.222,27.0
36.245,-0.006,3.893,12.0
30.853,-0.002,3.133,41.0
44.771,0.001,4.285,4.0
51.112,0.007,4.589,5.0
53.674,0.013,4.506,8.0
43.8,0.015,3.423,9.0
30.747,0.019,3.257,24.0
30.911,0.022,3.093,34.0
52.242,0.043,4.923,5.0
40.397,0.038,3.567,16.0
53.319,0.055,4.397,50.0
43.94,0.05,3.368,3.0
30.745,0.043,3.21,45.0
45.48,0.069,4.482,20.0
53.616,0.086,4.97,37.0
44.473,0.075,3.858,3.0
52.637,0.095,4.26,18.0
45.636,0.086,3.428,32.0
30.832,0.067,3.171,33.0
45.818,0.104,4.443,17.0
53.852,0.127,4.908,8.0
53.314,0.13,4.542,28.0
52.649,0.134,4.178,7.0
45.601,0.12,3.354,62.0
30.992,0.09,3.138,51.0
45.822,0.137,4.371,26.0
53.773,0.166,4.815,10.0
45.796,0.145,3.829,14.0
0.0,0.0,0.0,0.0
45.569,0.152,3.279,53.0
30.972,0.111,3.086,33.0
45.693,0.169,4.285,19.0
40.406,0.152,3.552,28.0
45.755,0.176,3.751,57.0
0.0,0.0,0.0,0.0
58.658,0.235,4.126,6.0
58.692,0.252,5.751,9.0
53.714,0.234,4.949,8.0
45.207,0.2,3.9,38.0
45.601,0.206,3.663,49.0
45.624,0.209,3.399,50.0
60.357,0.281,4.144,6.0
51.063,0.251,4.918,3.0
51.024,0.255,4.615,6.0
45.727,0.231,3.868,52.0
45.483,0.233,3.577,56.0
60.405,0.315,4.398,44.0
104.72,0.553,7.015,21.0
51.217,0.283,4.845,1.0
40.418,0.226,3.587,24.0
45.442,0.258,3.766,30.0
60.428,0.347,4.648,50.0
58.626,0.34,4.167,46.0
46.235,0.271,3.017,31.0
53.756,0.329,4.992,10.0
45.643,0.282,3.971,46.0
45.44,0.283,3.686,75.0
60.44,0.381,4.544,5.0
58.65,0.373,4.067,7.0
67.188,0.431,4.268,22.0
45.74,0.305,4.167,23.0
45.214,0.304,3.853,19.0
45.489,0.308,3.61,7.0
67.291,0.46,4.94,23.0
101.39,0.7,6.852,11.0
59.398,0.413,3.668,23.0
45.757,0.329,4.086,4.0
45.395,0.328,3.787,73.0
43.64,0.318,3.385,4.0
58.583,0.43,4.196,56.0
46.253,0.342,3.042,51.0
59.448,0.442,3.564,18.0
40.408,0.31,3.535,25.0
52.602,0.406,4.293,13.0
58.454,0.454,4.428,23.0
67.209,0.525,4.691,36.0
59.35,0.466,3.796,14.0
101.217,0.8,5.883,14.0
45.014,0.365,3.855,49.0
43.53,0.355,3.472,9.0
58.619,0.481,4.333,61.0
67.178,0.554,4.565,13.0
59.425,0.492,3.692,62.0
67.062,0.558,3.775,15.0
45.376,0.387,3.802,32.0
58.369,0.5,4.549,24.0
67.354,0.58,4.854,7.0
46.266,0.4,3.058,48.0
59.616,0.517,3.593,4.0
66.999,0.583,3.646,42.0
52.596,0.469,4.308,36.0
58.607,0.524,4.457,59.0
67.194,0.603,4.716,19.0
59.371,0.534,3.814,48.0
101.198,0.914,5.909,22.0
65.869,0.596,3.462,36.0
58.276,0.54,4.663,12.0
58.669,0.544,4.35,2.0
46.293,0.431,3.161,19.0
59.589,0.556,3.714,29.0
67.078,0.628,3.789,29.0
65.963,0.618,3.341,17.0
58.545,0.56,4.572,33.0
67.223,0.645,4.856,23.0
59.376,0.57,3.941,16.0
101.33,0.975,6.122,6.0
0.0,0.0,0.0,0.0
102.101,0.986,4.974,25.0
43.645,0.429,3.323,3.0
101.098,0.997,7.105,20.0
59.47,0.587,3.831,65.0
101.287,1.001,5.923,22.0
66.0,0.653,3.473,36.0
111.711,1.107,5.226,8.0
67.214,0.677,4.986,22.0
46.301,0.467,3.163,44.0
59.633,0.602,3.725,23.0
67.088,0.678,3.791,37.0
102.061,1.031,5.171,14.0
111.622,1.13,5.003,20.0
101.12,1.039,7.303,16.0
59.378,0.61,3.94,50.0
101.64,1.045,6.148,19.0
66.573,0.685,3.63,42.0
111.641,1.149,5.436,8.0
110.33,1.135,4.727,18.0
46.347,0.484,3.255,6.0
59.611,0.622,3.837,57.0
67.161,0.701,3.929,3.0
66.014,0.689,3.47,28.0
111.577,1.164,5.212,39.0
126.638,1.32,5.175,28.0
46.308,0.489,3.16,53.0
59.678,0.63,3.722,12.0
67.095,0.708,3.791,36.0
102.038,1.075,5.159,21.0
111.342,1.173,4.98,15.0
132.546,1.395,5.155,17.0
59.421,0.633,3.936,37.0
101.593,1.081,6.134,5.0
66.339,0.705,3.617,36.0
111.581,1.184,5.419,13.0
110.261,1.169,4.712,12.0
103.959,1.1,3.836,32.0
59.662,0.638,3.832,54.0
67.168,0.718,3.921,7.0
66.011,0.704,3.467,19.0
111.568,1.187,5.195,31.0
126.641,1.346,5.158,24.0
124.974,1.325,4.36,16.0
59.69,0.639,3.713,5.0
67.07,0.717,3.78,36.0
102.011,1.088,5.152,17.0
110.364,1.175,4.918,13.0
132.587,1.408,5.132,17.0
117.966,1.249,3.878,27.0
104.69,1.119,6.3,5.0
66.101,0.705,3.59,30.0
111.565,1.186,5.407,15.0
126.599,1.342,5.382,19.0
103.945,1.099,3.812,33.0
20.276,0.213,0.625,6.0
67.179,0.714,3.905,12.0
66.014,0.699,3.451,14.0
111.561,1.178,5.179,30.0
126.667,1.333,5.127,22.0
103.06,1.081,3.57,16.0
20.261,0.211,0.583,17.0
67.092,0.706,3.764,32.0
102.084,1.071,5.129,21.0
110.406,1.153,4.901,12.0
132.523,1.379,5.093,12.0
102.972,1.067,3.355,14.0
20.264,0.209,0.541,27.0
66.056,0.686,3.568,29.0
111.611,1.154,5.376,13.0
126.567,1.303,5.354,19.0
103.941,1.066,3.779,33.0
20.269,0.206,0.618,10.0
20.27,0.205,0.5,29.0
66.013,0.674,3.428,17.0
111.642,1.134,5.146,24.0
126.686,1.281,5.097,23.0
132.716,1.335,4.549,23.0
20.253,0.202,0.575,18.0
20.266,0.201,0.458,32.0
102.066,1.02,5.089,22.0
117.055,1.163,5.151,23.0
126.72,1.252,4.834,10.0
20.335,0.199,0.654,0.0
20.271,0.198,0.534,32.0
20.269,0.196,0.415,34.0
132.577,1.292,6.336,16.0
110.378,1.068,4.628,19.0
103.855,0.998,3.747,20.0
20.261,0.193,0.61,15.0
20.269,0.192,0.492,29.0
20.274,0.191,0.374,30.0
111.651,1.055,5.106,24.0
126.496,1.187,5.043,23.0
103.693,0.966,3.527,48.0
20.236,0.187,0.568,18.0
20.28,0.186,0.45,32.0
20.293,0.184,0.332,27.0
111.669,1.018,4.874,23.0
126.538,1.145,4.782,14.0
20.277,0.181,0.647,2.0
20.271,0.18,0.526,28.0
20.281,0.179,0.408,27.0
20.285,0.177,0.29,29.0
110.298,0.965,4.584,16.0
126.347,1.095,4.51,10.0
20.266,0.174,0.604,17.0
20.251,0.172,0.484,25.0
20.246,0.17,0.365,26.0
20.271,0.169,0.247,25.0
0.0,0.0,0.0,0.0
103.747,0.856,3.488,12.0
20.218,0.165,0.561,16.0
20.213,0.163,0.441,21.0
20.205,0.161,0.323,24.0
20.185,0.159,0.205,18.0
126.371,0.997,4.725,29.0
20.257,0.158,0.639,4.0
20.17,0.155,0.518,17.0
20.185,0.153,0.398,23.0
20.178,0.152,0.281,21.0
20.193,0.15,0.163,24.0
117.601,0.871,4.154,25.0
20.205,0.147,0.595,12.0
20.165,0.145,0.476,20.0
20.17,0.143,0.357,24.0
20.172,0.141,0.239,22.0
20.19,0.14,0.121,30.0
117.64,0.81,3.913,34.0
20.174,0.137,0.553,18.0
20.164,0.135,0.435,24.0
20.165,0.133,0.315,24.0
20.169,0.131,0.197,24.0
20.197,0.129,0.08,30.0
20.215,0.128,0.631,10.0
20.156,0.125,0.511,19.0
20.167,0.123,0.393,26.0
20.161,0.121,0.274,27.0
20.158,0.119,0.156,25.0
20.183,0.117,0.038,35.0
20.188,0.115,0.588,18.0
20.153,0.113,0.469,25.0
20.156,0.111,0.352,27.0
20.155,0.109,0.232,26.0
20.186,0.107,0.115,27.0
20.187,0.104,-0.002,27.0
20.186,0.103,0.547,26.0
20.156,0.1,0.429,28.0
20.155,0.098,0.311,28.0
20.154,0.096,0.191,27.0
20.19,0.093,0.074,35.0
20.185,0.091,-0.043,35.0
20.176,0.089,0.506,25.0
20.147,0.086,0.387,27.0
20.149,0.084,0.27,26.0
20.147,0.082,0.15,24.0
20.209,0.079,0.033,33.0
20.197,0.077,-0.084,26.0
20.161,0.075,0.464,31.0
20.142,0.072,0.346,26.0
20.152,0.07,0.229,26.0
20.156,0.067,0.109,26.0
20.205,0.065,-0.007,35.0
20.209,0.062,-0.125,25.0
20.148,0.06,0.423,31.0
20.14,0.057,0.306,27.0
20.143,0.054,0.188,27.0
20.159,0.052,0.069,19.0
20.209,0.049,-0.048,18.0
20.222,0.047,-0.166,16.0
20.139,0.044,0.383,28.0
20.135,0.041,0.265,29.0
20.134,0.039,0.148,26.0
20.253,0.036,0.029,18.0
20.265,0.034,-0.088,150.0
20.249,0.031,-0.206,150.0
20.132,0.028,0.343,28.0
20.137,0.025,0.226,27.0
20.128,0.022,0.108,29.0
20.242,0.019,-0.01,152.0
20.259,0.017,-0.128,151.0
20.27,0.014,-0.246,150.0
20.135,0.011,0.303,28.0
20.132,0.008,0.186,27.0
20.211,0.005,0.069,150.0
20.257,0.002,-0.05,150.0
20.228,0.0,-0.168,18.0
20.237,-0.003,-0.286,7.0
20.13,-0.006,0.263,27.0
20.13,-0.009,0.146,28.0
20.153,-0.012,0.029,14.0
20.15,-0.015,-0.09,19.0
20.189,-0.018,-0.207,2.0
20.208,-0.021,-0.325,1.0
20.119,-0.024,0.224,35.0
20.124,-0.028,0.107,40.0
20.127,-0.031,-0.01,32.0
20.152,-0.034,-0.129,29.0
20.156,-0.037,-0.246,23.0
20.181,-0.04,-0.364,6.0
20.121,-0.044,0.185,38.0
20.137,-0.047,0.068,41.0
20.139,-0.05,-0.048,30.0
20.14,-0.053,-0.167,31.0
20.159,-0.057,-0.285,26.0
20.184,-0.06,-0.403,19.0
20.125,-0.064,0.146,34.0
20.132,-0.067,0.029,35.0
20.151,-0.07,-0.087,29.0
20.128,-0.074,-0.206,19.0
20.139,-0.077,-0.323,26.0
20.169,-0.081,-0.441,25.0
20.138,-0.084,0.109,42.0
20.128,-0.087,-0.008,29.0
20.146,-0.091,-0.125,34.0
20.132,-0.094,-0.244,34.0
20.156,-0.098,-0.361,28.0
20.189,-0.102,-0.48,29.0
20.148,-0.105,0.071,36.0
20.163,-0.109,-0.045,28.0
20.153,-0.112,-0.162,27.0
20.138,-0.116,-0.281,35.0
20.15,-0.119,-0.399,38.0
20.181,-0.123,-0.517,31.0
20.155,-0.127,0.034,27.0
20.176,-0.131,-0.082,22.0
20.132,-0.134,-0.199,11.0
20.141,-0.138,-0.319,29.0
20.159,-0.141,-0.436,34.0
20.186,-0.145,-0.554,37.0
20.186,-0.15,-0.002,17.0
20.156,-0.153,-0.119,16.0
20.151,-0.157,-0.236,25.0
20.16,-0.16,-0.356,27.0
20.173,-0.164,-0.473,27.0
20.198,-0.168,-0.591,38.0
53.339,-0.456,-0.103,11.0
20.202,-0.176,-0.156,1.0
20.152,-0.18,-0.272,13.0
20.187,-0.184,-0.392,26.0
20.181,-0.188,-0.509,33.0
20.192,-0.192,-0.627,38.0
56.269,-0.547,-0.209,5.0
52.488,-0.52,-0.499,5.0
38.395,-0.388,-0.588,14.0
20.198,-0.208,-0.428,13.0
20.199,-0.212,-0.546,31.0
20.211,-0.216,-0.663,38.0
59.523,-0.65,-0.325,10.0
45.183,-0.502,-0.509,19.0
37.933,-0.429,-0.647,25.0
31.143,-0.359,-0.715,5.0
20.211,-0.237,-0.581,24.0
20.21,-0.241,-0.699,35.0
58.744,-0.713,-0.423,6.0
44.891,-0.554,-0.583,25.0
35.965,-0.451,-0.676,4.0
30.143,-0.384,-0.744,8.0
20.206,-0.262,-0.616,8.0
20.232,-0.266,-0.734,30.0
52.779,-0.707,-0.47,21.0
38.838,-0.528,-0.571,14.0
31.805,-0.439,-0.652,16.0
28.368,-0.398,-0.749,1.0
27.201,-0.387,-0.876,1.0
20.226,-0.292,-0.769,15.0
45.234,-0.664,-0.478,12.0
38.016,-0.566,-0.622,25.0
30.763,-0.464,-0.681,30.0
27.199,-0.416,-0.763,1.0
26.095,-0.405,-0.883,1.0
20.281,-0.319,-0.804,0.0
44.938,-0.718,-0.549,33.0
0.0,0.0,0.0,0.0
30.215,-0.496,-0.719,22.0
26.245,-0.437,-0.78,1.0
25.086,-0.423,-0.89,1.0
21.526,-0.368,-0.889,0.0
38.613,-0.669,-0.535,9.0
31.466,-0.552,-0.618,11.0
28.852,-0.512,-0.733,8.0
25.425,-0.457,-0.796,2.0
24.028,-0.437,-0.892,1.0
21.481,-0.396,-0.922,0.0
38.149,-0.712,-0.589,22.0
30.803,-0.582,-0.654,30.0
27.633,-0.528,-0.746,5.0
23.601,-0.456,-0.776,1.0
22.907,-0.448,-0.886,0.0
20.885,-0.414,-0.929,0.0
37.888,-0.759,-0.644,14.0
30.484,-0.618,-0.695,30.0
26.908,-0.552,-0.769,2.0
22.655,-0.47,-0.781,2.0
21.901,-0.459,-0.881,1.0
21.699,-0.46,-0.999,0.0
31.498,-0.676,-0.584,11.0
30.28,-0.657,-0.737,8.0
24.499,-0.537,-0.737,1.0
21.888,-0.485,-0.788,1.0
21.213,-0.475,-0.886,1.0
21.074,-0.477,-1.002,0.0
30.961,-0.708,-0.621,33.0
28.38,-0.656,-0.733,1.0
23.787,-0.556,-0.752,14.0
21.066,-0.497,-0.789,0.0
20.466,-0.488,-0.885,0.0
20.351,-0.49,-0.998,0.0
30.573,-0.743,-0.657,36.0
25.22,-0.619,-0.688,0.0
23.682,-0.587,-0.783,9.0
20.38,-0.51,-0.793,0.0
19.831,-0.502,-0.887,0.0
19.764,-0.505,-0.998,0.0
30.431,-0.785,-0.698,28.0
25.086,-0.653,-0.72,9.0
22.73,-0.597,-0.784,1.0
19.861,-0.527,-0.802,0.0
19.234,-0.515,-0.887,1.0
19.083,-0.516,-0.991,0.0
30.145,-0.822,-0.734,8.0
24.326,-0.669,-0.732,24.0
22.068,-0.612,-0.791,0.0
19.152,-0.536,-0.799,0.0
18.568,-0.525,-0.882,0.0
18.523,-0.528,-0.987,0.0
28.135,-0.809,-0.723,1.0
23.8,-0.69,-0.748,18.0
20.925,-0.612,-0.778,2.0
18.624,-0.549,-0.802,0.0
18.028,-0.536,-0.88,0.0
17.603,-0.528,-0.961,0.0
25.208,-0.762,-0.681,1.0
23.632,-0.721,-0.774,5.0
20.33,-0.625,-0.783,3.0
18.11,-0.562,-0.804,0.0
17.48,-0.547,-0.877,0.0
17.363,-0.548,-0.971,0.0
25.168,-0.8,-0.712,8.0
22.479,-0.72,-0.765,2.0
19.701,-0.636,-0.784,7.0
17.634,-0.574,-0.805,0.0
17.022,-0.559,-0.875,0.0
16.917,-0.56,-0.967,0.0
24.357,-0.812,-0.72,24.0
22.178,-0.745,-0.783,1.0
19.117,-0.647,-0.785,2.0
17.279,-0.59,-0.811,0.0
16.523,-0.568,-0.87,0.0
16.28,-0.565,-0.951,1.0
23.832,-0.832,-0.734,21.0
21.327,-0.75,-0.779,0.0
18.663,-0.661,-0.789,3.0
16.923,-0.604,-0.815,0.0
16.167,-0.582,-0.871,1.0
16.108,-0.584,-0.961,0.0
23.736,-0.866,-0.759,12.0
20.658,-0.759,-0.779,1.0
18.367,-0.68,-0.798,1.0
31.319,-1.168,-1.544,0.0
16.008,-0.601,-0.881,1.0
15.979,-0.605,-0.972,0.0
23.242,-0.884,-0.77,5.0
20.368,-0.781,-0.791,2.0
17.919,-0.692,-0.799,1.0
16.174,-0.629,-0.816,0.0
15.896,-0.623,-0.893,1.0
15.846,-0.625,-0.981,0.0
22.255,-0.883,-0.762,2.0
19.715,-0.787,-0.788,0.0
17.527,-0.705,-0.801,1.0
16.068,-0.651,-0.828,1.0
15.802,-0.644,-0.905,1.0
15.691,-0.645,-0.989,0.0
21.804,-0.9,-0.77,1.0
19.283,-0.801,-0.791,0.0
17.003,-0.711,-0.795,1.0
15.797,-0.665,-0.831,0.0
15.718,-0.667,-0.917,0.0
14.92,-0.637,-0.956,0.0
21.414,-0.919,-0.778,0.0
18.704,-0.808,-0.787,0.0
16.812,-0.731,-0.803,1.0
15.686,-0.687,-0.841,1.0
15.619,-0.688,-0.927,0.0
14.606,-0.648,-0.951,0.0
20.648,-0.92,-0.771,0.0
18.339,-0.822,-0.79,0.0
16.487,-0.744,-0.804,1.0
15.567,-0.707,-0.85,1.0
15.507,-0.709,-0.936,0.0
14.462,-0.666,-0.956,0.0
20.299,-0.938,-0.778,0.0
18.049,-0.839,-0.794,0.0
16.277,-0.762,-0.809,2.0
15.457,-0.728,-0.859,1.0
15.438,-0.732,-0.946,0.0
14.364,-0.685,-0.963,0.0
19.766,-0.946,-0.775,0.0
17.622,-0.849,-0.792,0.0
16.156,-0.783,-0.818,1.0
15.368,-0.749,-0.868,1.0
15.361,-0.753,-0.955,0.0
14.143,-0.698,-0.96,0.0
19.466,-0.964,-0.781,0.0
17.344,-0.864,-0.794,0.0
15.933,-0.798,-0.821,0.0
15.287,-0.77,-0.876,1.0
15.243,-0.773,-0.961,0.0
13.937,-0.711,-0.958,0.0
19.122,-0.979,-0.783,1.0
17.032,-0.877,-0.794,0.0
15.803,-0.818,-0.827,0.0
15.183,-0.791,-0.883,1.0
14.981,-0.785,-0.957,1.0
13.759,-0.725,-0.957,0.0
18.791,-0.993,-0.784,0.0
16.78,-0.892,-0.796,1.0
15.671,-0.837,-0.832,1.0
15.1,-0.811,-0.89,1.0
14.885,-0.804,-0.962,3.0
13.648,-0.742,-0.96,0.0
18.542,-1.01,-0.788,0.0
16.61,-0.91,-0.8,0.0
15.545,-0.856,-0.837,0.0
15.039,-0.833,-0.897,1.0
14.861,-0.828,-0.971,2.0
24.552,-1.376,-1.745,0.0
18.273,-1.026,-0.789,1.0
16.466,-0.93,-0.805,1.0
15.429,-0.876,-0.842,0.0
14.974,-0.855,-0.904,1.0
14.839,-0.852,-0.98,0.0
24.534,-1.416,-1.761,0.0
18.031,-1.043,-0.791,0.0
16.255,-0.945,-0.805,2.0
15.336,-0.896,-0.847,0.0
14.901,-0.876,-0.909,1.0
14.79,-0.874,-0.986,0.0
24.494,-1.455,-1.774,0.0
17.656,-1.051,-0.786,1.0
16.163,-0.967,-0.811,1.0
15.203,-0.914,-0.849,1.0
14.837,-0.897,-0.914,1.0
14.639,-0.889,-0.985,0.0
13.168,-0.804,-0.961,0.0
17.528,-1.073,-0.79,0.0
16.015,-0.985,-0.813,1.0
14.976,-0.926,-0.845,0.0
14.786,-0.919,-0.92,1.0
14.249,-0.89,-0.967,0.0
13.058,-0.82,-0.961,0.0
17.311,-1.088,-0.79,0.0
15.883,-1.003,-0.815,1.0
14.868,-0.944,-0.847,0.0
14.706,-0.938,-0.923,1.0
14.095,-0.904,-0.964,0.0
13.012,-0.839,-0.964,0.0
17.157,-1.107,-0.792,1.0
15.77,-1.023,-0.817,0.0
14.78,-0.963,-0.849,0.0
14.652,-0.959,-0.926,1.0
14.041,-0.924,-0.967,0.0
12.947,-0.856,-0.965,0.0
16.973,-1.123,-0.791,1.0
15.65,-1.041,-0.818,0.0
14.666,-0.98,-0.849,0.0
14.612,-0.981,-0.93,1.0
13.988,-0.943,-0.97,0.0
12.909,-0.875,-0.968,0.0
16.874,-1.145,-0.794,1.0
15.589,-1.063,-0.821,1.0
14.59,-0.999,-0.851,1.0
14.539,-1.0,-0.932,1.0
13.912,-0.962,-0.97,0.0
12.813,-0.89,-0.966,0.0
16.731,-1.163,-0.794,1.0
15.52,-1.084,-0.824,1.0
14.534,-1.019,-0.853,1.0
14.487,-1.021,-0.934,1.0
14.05,-0.994,-0.985,0.0
12.778,-0.909,-0.968,0.0
16.624,-1.183,-0.794,1.0
15.412,-1.101,-0.823,1.0
14.455,-1.038,-0.853,1.0
14.422,-1.04,-0.934,1.0
13.818,-1.001,-0.973,0.0
12.743,-0.927,-0.969,0.0
16.542,-1.204,-0.795,1.0
15.342,-1.122,-0.824,1.0
14.417,-1.059,-0.855,1.0
14.36,-1.059,-0.934,1.0
13.761,-1.019,-0.973,0.0
12.672,-0.943,-0.967,0.0
16.463,-1.226,-0.796,1.0
15.302,-1.144,-0.825,1.0
14.369,-1.078,-0.856,1.0
14.305,-1.078,-0.934,1.0
13.923,-1.054,-0.988,0.0
12.69,-0.965,-0.972,0.0
16.407,-1.248,-0.797,1.0
15.312,-1.169,-0.829,1.0
14.313,-1.098,-0.855,1.0
14.263,-1.098,-0.934,1.0
13.969,-1.08,-0.994,0.0
12.66,-0.983,-0.972,0.0
16.397,-1.273,-0.799,1.0
15.252,-1.189,-0.829,1.0
14.276,-1.117,-0.856,0.0
14.22,-1.118,-0.933,1.0
13.906,-1.097,-0.991,0.0
12.632,-1.001,-0.971,0.0
16.314,-1.293,-0.797,1.0
15.202,-1.209,-0.828,1.0
14.211,-1.135,-0.853,0.0
14.17,-1.136,-0.932,1.0
13.884,-1.118,-0.991,0.0
12.624,-1.02,-0.972,0.0
16.263,-1.315,-0.796,1.0
15.216,-1.235,-0.83,1.0
14.185,-1.155,-0.853,0.0
14.116,-1.154,-0.929,1.0
13.96,-1.146,-0.997,0.0
12.603,-1.039,-0.971,0.0
16.265,-1.34,-0.797,1.0
15.194,-1.256,-0.829,1.0
14.149,-1.174,-0.851,0.0
14.075,-1.173,-0.927,1.0
13.886,-1.161,-0.992,0.0
12.574,-1.055,-0.969,0.0
16.237,-1.363,-0.796,1.0
15.192,-1.28,-0.829,1.0
14.103,-1.192,-0.849,0.0
14.03,-1.19,-0.924,1.0
13.911,-1.185,-0.994,0.0
12.62,-1.079,-0.972,0.0
16.258,-1.389,-0.796,1.0
15.183,-1.302,-0.828,1.0
14.157,-1.218,-0.851,0.0
14.006,-1.21,-0.922,1.0
13.849,-1.2,-0.989,0.0
12.626,-1.098,-0.972,0.0
16.275,-1.415,-0.796,1.0
15.145,-1.321,-0.825,1.0
14.123,-1.236,-0.848,0.0
13.958,-1.226,-0.917,1.0
13.867,-1.222,-0.989,0.0
12.649,-1.119,-0.972,0.0
16.261,-1.438,-0.794,1.0
15.202,-1.349,-0.826,1.0
14.154,-1.26,-0.848,0.0
13.926,-1.244,-0.913,1.0
13.867,-1.243,-0.987,0.0
12.586,-1.132,-0.966,0.0
16.289,-1.464,-0.792,2.0
15.202,-1.371,-0.824,1.0
14.195,-1.285,-0.848,0.0
13.87,-1.259,-0.907,1.0
13.864,-1.263,-0.984,0.0
12.673,-1.158,-0.97,0.0
16.314,-1.49,-0.791,1.0
15.247,-1.397,-0.823,1.0
14.197,-1.305,-0.845,0.0
13.853,-1.278,-0.903,1.0
13.84,-1.281,-0.98,0.0
12.726,-1.182,-0.971,0.0
16.331,-1.515,-0.788,1.0
15.265,-1.421,-0.821,1.0
14.218,-1.327,-0.843,0.0
13.801,-1.293,-0.897,1.0
13.797,-1.297,-0.973,1.0
12.781,-1.205,-0.972,0.0
16.363,-1.541,-0.785,1.0
15.281,-1.444,-0.818,1.0
14.26,-1.351,-0.842,0.0
13.774,-1.309,-0.891,1.0
13.767,-1.313,-0.967,1.0
12.855,-1.23,-0.974,0.0
16.449,-1.572,-0.784,1.0
15.311,-1.468,-0.815,1.0
14.312,-1.376,-0.84,0.0
13.749,-1.326,-0.885,1.0
13.733,-1.328,-0.96,1.0
12.964,-1.258,-0.978,0.0
16.546,-1.604,-0.783,1.0
15.375,-1.495,-0.813,1.0
14.37,-1.401,-0.839,0.0
13.719,-1.341,-0.878,1.0
13.697,-1.343,-0.952,1.0
13.033,-1.282,-0.978,0.0
16.639,-1.635,-0.781,1.0
15.453,-1.523,-0.811,1.0
14.424,-1.425,-0.836,0.0
13.679,-1.355,-0.87,1.0
13.677,-1.359,-0.945,1.0
13.096,-1.305,-0.978,0.0
16.755,-1.668,-0.78,0.0
15.489,-1.546,-0.806,1.0
14.436,-1.445,-0.831,0.0
13.666,-1.372,-0.863,1.0
13.654,-1.374,-0.938,1.0
13.212,-1.334,-0.98,0.0
16.882,-1.702,-0.778,0.0
15.598,-1.577,-0.805,1.0
14.515,-1.471,-0.829,0.0
13.662,-1.389,-0.857,1.0
13.629,-1.389,-0.93,1.0
13.406,-1.37,-0.988,1.0
16.973,-1.733,-0.774,0.0
15.68,-1.604,-0.801,1.0
14.647,-1.503,-0.829,0.0
13.696,-1.409,-0.852,0.0
13.601,-1.403,-0.921,1.0
13.493,-1.395,-0.988,1.0
17.103,-1.767,-0.771,0.0
15.828,-1.639,-0.801,1.0
14.766,-1.533,-0.828,1.0
13.783,-1.434,-0.85,0.0
13.571,-1.416,-0.912,1.0
13.515,-1.414,-0.982,2.0
17.338,-1.811,-0.772,0.0
15.909,-1.666,-0.796,1.0
14.863,-1.56,-0.825,1.0
13.897,-1.462,-0.849,0.0
13.547,-1.429,-0.902,1.0
13.531,-1.431,-0.975,1.0
17.518,-1.85,-0.77,1.0
16.014,-1.695,-0.792,1.0
14.985,-1.59,-0.823,1.0
13.975,-1.486,-0.846,1.0
13.509,-1.44,-0.891,1.0
13.509,-1.444,-0.966,1.0
17.761,-1.896,-0.77,1.0
16.165,-1.729,-0.789,1.0
15.099,-1.619,-0.82,1.0
14.101,-1.515,-0.844,0.0
13.498,-1.453,-0.882,1.0
13.494,-1.457,-0.956,1.0
17.996,-1.94,-0.769,1.0
16.269,-1.758,-0.784,1.0
15.193,-1.645,-0.815,1.0
14.223,-1.543,-0.842,0.0
13.491,-1.467,-0.873,1.0
13.398,-1.461,-0.94,5.0
18.157,-1.977,-0.763,1.0
16.41,-1.79,-0.779,1.0
15.289,-1.672,-0.809,1.0
14.284,-1.565,-0.836,1.0
13.473,-1.479,-0.862,1.0
13.373,-1.471,-0.929,14.0
18.461,-2.029,-0.763,1.0
16.705,-1.839,-0.781,1.0
15.375,-1.696,-0.803,1.0
14.362,-1.588,-0.83,1.0
13.512,-1.497,-0.854,0.0
13.37,-1.484,-0.919,10.0
18.693,-2.073,-0.759,2.0
16.858,-1.873,-0.776,1.0
15.55,-1.731,-0.8,0.0
14.536,-1.621,-0.829,1.0
13.636,-1.524,-0.852,0.0
13.395,-1.5,-0.91,2.0
19.006,-2.126,-0.757,2.0
17.095,-1.915,-0.774,1.0
15.734,-1.766,-0.798,1.0
14.671,-1.65,-0.825,1.0
13.815,-1.556,-0.852,0.0
13.392,-1.512,-0.899,2.0
19.287,-2.175,-0.753,1.0
17.304,-1.954,-0.769,1.0
15.935,-1.803,-0.795,1.0
14.847,-1.683,-0.823,1.0
13.901,-1.578,-0.846,1.0
13.381,-1.522,-0.887,2.0
19.604,-2.228,-0.749,1.0
17.528,-1.995,-0.765,0.0
16.105,-1.836,-0.79,1.0
15.004,-1.713,-0.819,1.0
14.015,-1.603,-0.841,1.0
13.359,-1.531,-0.875,2.0
19.965,-2.285,-0.746,1.0
17.902,-2.052,-0.766,0.0
16.266,-1.868,-0.784,1.0
15.117,-1.738,-0.812,1.0
14.152,-1.63,-0.837,1.0
13.368,-1.542,-0.863,1.0
20.375,-2.348,-0.744,2.0
18.158,-2.096,-0.761,0.0
16.482,-1.905,-0.78,1.0
15.285,-1.77,-0.808,1.0
14.312,-1.66,-0.834,1.0
13.452,-1.562,-0.857,0.0
20.696,-2.401,-0.737,2.0
18.621,-2.163,-0.764,1.0
16.765,-1.95,-0.778,1.0
15.447,-1.8,-0.802,1.0
14.458,-1.687,-0.829,0.0
13.632,-1.593,-0.856,0.0
21.198,-2.474,-0.735,4.0
18.903,-2.209,-0.758,1.0
17.032,-1.993,-0.775,1.0
15.6,-1.828,-0.796,1.0
14.677,-1.722,-0.828,1.0
13.747,-1.615,-0.85,0.0
21.62,-2.538,-0.73,4.0
19.233,-2.261,-0.753,2.0
17.298,-2.036,-0.77,1.0
15.867,-1.87,-0.794,1.0
14.85,-1.752,-0.824,1.0
13.939,-1.647,-0.848,0.0
21.941,-2.59,-0.719,4.0
19.637,-2.321,-0.75,2.0
17.592,-2.081,-0.766,1.0
16.065,-1.903,-0.788,1.0
14.998,-1.779,-0.817,1.0
14.036,-1.667,-0.84,1.0
22.377,-2.654,-0.712,4.0
20.015,-2.377,-0.744,1.0
17.908,-2.129,-0.763,0.0
16.311,-1.941,-0.784,1.0
15.184,-1.809,-0.812,1.0
14.18,-1.692,-0.835,1.0
22.971,-2.738,-0.707,4.0
20.44,-2.438,-0.739,2.0
18.349,-2.191,-0.763,0.0
16.593,-1.983,-0.781,1.0
15.411,-1.844,-0.808,1.0
14.366,-1.721,-0.831,1.0
23.432,-2.805,-0.698,3.0
20.844,-2.497,-0.733,3.0
18.796,-2.254,-0.762,1.0
16.898,-2.028,-0.778,0.0
15.546,-1.868,-0.799,1.0
14.608,-1.757,-0.83,1.0
23.862,-2.867,-0.686,2.0
21.438,-2.578,-0.731,4.0
19.126,-2.302,-0.755,2.0
17.216,-2.074,-0.774,1.0
15.791,-1.904,-0.795,1.0
14.76,-1.781,-0.823,1.0
24.883,-3.0,-0.689,1.0
21.849,-2.636,-0.722,4.0
19.549,-2.36,-0.751,2.0
17.505,-2.115,-0.769,1.0
16.058,-1.942,-0.792,1.0
14.993,-1.815,-0.82,1.0
25.407,-3.073,-0.677,2.0
22.36,-2.706,-0.715,3.0
19.905,-2.411,-0.743,1.0
17.835,-2.162,-0.764,0.0
16.303,-1.977,-0.786,1.0
15.192,-1.844,-0.814,1.0
26.036,-3.158,-0.665,2.0
22.953,-2.785,-0.709,2.0
20.453,-2.483,-0.741,2.0
18.347,-2.229,-0.766,0.0
16.514,-2.008,-0.778,1.0
15.414,-1.875,-0.809,1.0
26.818,-3.26,-0.655,2.0
23.538,-2.863,-0.701,3.0
20.934,-2.548,-0.736,3.0
18.827,-2.292,-0.764,1.0
16.955,-2.066,-0.78,1.0
15.535,-1.894,-0.798,1.0
27.553,-3.356,-0.642,3.0
24.304,-2.962,-0.697,5.0
21.486,-2.619,-0.731,4.0
19.103,-2.33,-0.754,1.0
17.264,-2.107,-0.774,1.0
15.852,-1.936,-0.796,0.0
28.468,-3.473,-0.632,8.0
24.769,-3.023,-0.682,4.0
21.925,-2.677,-0.721,4.0
19.581,-2.392,-0.751,1.0
17.59,-2.149,-0.769,1.0
16.121,-1.971,-0.791,1.0
28.919,-3.533,-0.609,16.0
25.637,-3.133,-0.677,2.0
22.516,-2.752,-0.715,4.0
20.031,-2.449,-0.746,2.0
18.038,-2.206,-0.768,0.0
16.372,-2.003,-0.785,1.0
29.45,-3.601,-0.586,23.0
26.343,-3.222,-0.665,4.0
23.037,-2.818,-0.705,3.0
20.529,-2.512,-0.74,2.0
18.571,-2.273,-0.769,1.0
16.724,-2.047,-0.782,1.0
30.063,-3.678,-0.564,25.0
27.011,-3.305,-0.651,2.0
23.759,-2.907,-0.699,2.0
21.087,-2.581,-0.736,3.0
18.909,-2.314,-0.761,1.0
17.068,-2.09,-0.778,1.0
30.834,-3.772,-0.542,19.0
27.818,-3.403,-0.638,3.0
24.529,-3.001,-0.694,4.0
21.667,-2.651,-0.731,4.0
19.279,-2.359,-0.753,1.0
17.379,-2.127,-0.772,1.0
31.808,-3.89,-0.522,24.0
28.702,-3.511,-0.624,8.0
25.0,-3.057,-0.678,3.0
22.157,-2.71,-0.721,4.0
19.773,-2.418,-0.749,2.0
17.75,-2.171,-0.768,0.0
32.827,-4.013,-0.501,27.0
29.217,-3.571,-0.602,20.0
26.01,-3.179,-0.674,3.0
22.752,-2.78,-0.714,3.0
20.288,-2.479,-0.745,2.0
18.307,-2.237,-0.77,0.0
33.651,-4.109,-0.473,28.0
29.798,-3.638,-0.578,23.0
26.667,-3.255,-0.66,2.0
23.346,-2.849,-0.705,2.0
20.831,-2.542,-0.74,3.0
18.763,-2.289,-0.767,1.0
34.37,-4.191,-0.443,29.0
30.495,-3.717,-0.556,23.0
27.536,-3.356,-0.649,3.0
24.224,-2.951,-0.703,5.0
21.47,-2.615,-0.737,4.0
19.143,-2.331,-0.76,2.0
39.642,-4.825,-0.463,5.0
31.503,-3.833,-0.537,26.0
28.562,-3.474,-0.639,8.0
24.75,-3.009,-0.689,3.0
21.902,-2.662,-0.727,4.0
19.605,-2.382,-0.755,1.0
39.799,-4.834,-0.419,25.0
32.578,-3.955,-0.517,27.0
29.078,-3.529,-0.616,12.0
25.534,-3.097,-0.68,2.0
22.489,-2.727,-0.719,2.0
20.059,-2.431,-0.749,2.0
40.075,-4.855,-0.374,15.0
33.393,-4.043,-0.49,29.0
29.668,-3.59,-0.594,24.0
26.404,-3.194,-0.672,4.0
23.137,-2.797,-0.713,3.0
20.615,-2.491,-0.745,3.0
40.383,-4.878,-0.33,10.0
34.15,-4.123,-0.462,28.0
30.274,-3.652,-0.57,21.0
27.126,-3.271,-0.659,2.0
23.626,-2.847,-0.7,2.0
21.175,-2.55,-0.741,3.0
45.996,-5.538,-0.321,21.0
34.91,-4.2,-0.43,15.0
31.333,-3.767,-0.554,15.0
27.977,-3.361,-0.646,4.0
24.665,-2.961,-0.702,2.0
21.752,-2.61,-0.735,4.0
47.083,-5.648,-0.274,22.0
39.783,-4.768,-0.444,9.0
32.365,-3.876,-0.533,30.0
28.804,-3.447,-0.631,8.0
25.365,-3.033,-0.692,5.0
22.273,-2.661,-0.726,4.0
48.282,-5.768,-0.224,23.0
40.053,-4.78,-0.4,15.0
33.181,-3.956,-0.509,28.0
29.505,-3.515,-0.612,17.0
25.887,-3.081,-0.675,4.0
22.887,-2.722,-0.72,4.0
50.128,-5.961,-0.174,21.0
40.272,-4.784,-0.355,11.0
33.963,-4.031,-0.481,29.0
30.101,-3.569,-0.59,17.0
26.838,-3.179,-0.669,1.0
23.477,-2.778,-0.71,4.0
55.58,-6.576,-0.129,19.0
0.0,0.0,0.0,0.0
34.728,-4.1,-0.451,21.0
30.975,-3.653,-0.571,17.0
27.687,-3.262,-0.658,2.0
24.293,-2.86,-0.707,2.0
56.184,-6.613,-0.066,5.0
46.993,-5.525,-0.306,21.0
39.78,-4.671,-0.472,6.0
31.985,-3.752,-0.553,26.0
28.778,-3.372,-0.651,7.0
24.982,-2.924,-0.699,5.0
80.693,-9.443,-0.003,13.0
48.188,-5.632,-0.259,22.0
39.959,-4.665,-0.428,15.0
32.796,-3.824,-0.53,28.0
29.529,-3.439,-0.635,8.0
25.782,-2.999,-0.692,4.0
65.411,-7.608,0.07,2.0
49.945,-5.801,-0.212,24.0
40.144,-4.656,-0.385,14.0
33.624,-3.895,-0.505,28.0
29.962,-3.466,-0.611,17.0
26.324,-3.042,-0.677,2.0
0.0,0.0,0.0,0.0
55.141,-6.362,-0.173,10.0
45.178,-5.205,-0.383,5.0
34.366,-3.954,-0.479,25.0
30.648,-3.521,-0.591,22.0
27.285,-3.131,-0.672,2.0
65.237,-7.486,0.215,166.0
55.925,-6.407,-0.114,10.0
46.392,-5.307,-0.342,21.0
35.059,-4.005,-0.45,12.0
31.383,-3.58,-0.571,16.0
27.91,-3.179,-0.656,1.0
65.182,-7.424,0.286,183.0
0.0,0.0,0.0,0.0
47.727,-5.418,-0.3,22.0
39.855,-4.517,-0.468,14.0
32.625,-3.692,-0.557,29.0
29.411,-3.324,-0.66,2.0
65.143,-7.361,0.357,209.0
64.982,-7.33,0.008,0.0
49.783,-5.606,-0.26,24.0
40.138,-4.512,-0.428,15.0
33.432,-3.752,-0.535,30.0
30.078,-3.371,-0.643,8.0
65.137,-7.299,0.426,4.0
65.1,-7.282,0.077,0.0
50.983,-5.693,-0.211,8.0
0.0,0.0,0.0,0.0
34.077,-3.791,-0.509,30.0
30.737,-3.414,-0.624,9.0
65.165,-7.238,0.496,7.0
65.001,-7.207,0.146,0.0
55.553,-6.148,-0.173,29.0
0.0,0.0,0.0,0.0
34.777,-3.835,-0.484,23.0
31.429,-3.459,-0.606,11.0
65.057,-7.161,0.561,11.0
65.017,-7.142,0.212,1.0
56.23,-6.165,-0.117,23.0
46.83,-5.124,-0.353,21.0
39.861,-4.353,-0.514,5.0
32.213,-3.511,-0.588,24.0
0.0,0.0,0.0,0.0
65.012,-7.072,0.277,3.0
65.342,-7.094,-0.07,7.0
47.813,-5.18,-0.312,12.0
40.068,-4.332,-0.476,15.0
32.982,-3.559,-0.569,26.0
0.0,0.0,0.0,0.0
65.091,-7.008,0.344,154.0
64.98,-6.981,-0.004,6.0
51.382,-5.508,-0.285,19.0
40.313,-4.312,-0.44,15.0
33.726,-3.6,-0.549,30.0
0.0,0.0,0.0,0.0
65.083,-6.933,0.407,185.0
64.943,-6.902,0.057,2.0
54.374,-5.766,-0.249,13.0
0.0,0.0,0.0,0.0
34.382,-3.63,-0.526,27.0
0.0,0.0,0.0,0.0
65.097,-6.857,0.469,173.0
64.968,-6.828,0.118,2.0
55.39,-5.807,-0.201,30.0
44.555,-4.661,-0.401,18.0
34.959,-3.649,-0.503,11.0
0.0,0.0,0.0,0.0
65.107,-6.778,0.53,150.0
65.036,-6.754,0.18,6.0
56.178,-5.82,-0.152,15.0
45.345,-4.686,-0.366,7.0
35.326,-3.642,-0.475,3.0
0.0,0.0,0.0,0.0
64.993,-6.684,0.588,1.0
65.061,-6.675,0.239,150.0
65.353,-6.687,-0.117,6.0
0.0,0.0,0.0,0.0
40.14,-4.087,-0.504,9.0
81.933,-8.342,1.256,3.0
65.221,-6.622,0.649,0.0
65.095,-6.592,0.297,172.0
65.213,-6.586,-0.059,5.0
50.922,-5.13,-0.32,21.0
40.312,-4.05,-0.47,9.0
81.865,-8.225,1.326,14.0
0.0,0.0,0.0,0.0
65.067,-6.501,0.353,25.0
64.974,-6.474,-0.003,28.0
0.0,0.0,0.0,0.0
0.0,0.0,0.0,0.0
81.78,-8.103,1.394,31.0
0.0,0.0,0.0,0.0
65.096,-6.413,0.408,18.0
64.94,-6.38,0.05,4.0
55.05,-5.393,-0.253,28.0
44.884,-4.385,-0.449,19.0
81.837,-7.994,1.462,40.0
0.0,0.0,0.0,0.0
65.095,-6.321,0.461,15.0
64.874,-6.281,0.102,1.0
55.652,-5.372,-0.212,28.0
45.56,-4.386,-0.419,20.0
81.933,-7.886,1.529,47.0
0.0,0.0,0.0,0.0
65.129,-6.23,0.512,6.0
65.167,-6.215,0.153,151.0
55.917,-5.316,-0.17,15.0
46.812,-4.438,-0.395,21.0
82.407,-7.81,1.601,40.0
54.942,-5.19,0.77,13.0
54.924,-5.172,0.473,9.0
65.213,-6.122,0.202,163.0
55.423,-5.186,-0.127,28.0
47.838,-4.463,-0.368,11.0
54.95,-5.126,1.107,150.0
54.955,-5.109,0.81,150.0
54.965,-5.092,0.513,155.0
54.966,-5.076,0.21,162.0
54.957,-5.059,-0.087,150.0
0.0,0.0,0.0,0.0
54.96,-5.041,1.147,150.0
54.954,-5.024,0.849,150.0
54.937,-5.005,0.551,85.0
54.914,-4.985,0.248,9.0
55.632,-5.033,-0.049,5.0
54.668,-4.929,-0.344,18.0
83.214,-7.503,1.793,23.0
0.0,0.0,0.0,0.0
0.0,0.0,0.0,0.0
0.0,0.0,0.0,0.0
55.786,-4.959,-0.012,1.0
54.777,-4.852,-0.309,22.0
83.154,-7.364,1.846,30.0
0.0,0.0,0.0,0.0
0.0,0.0,0.0,0.0
0.0,0.0,0.0,0.0
0.0,0.0,0.0,0.0
55.267,-4.805,-0.277,13.0
83.14,-7.227,1.897,17.0
0.0,0.0,0.0,0.0
0.0,0.0,0.0,0.0
0.0,0.0,0.0,0.0
0.0,0.0,0.0,0.0
60.817,-5.187,-0.269,1.0
83.053,-7.082,1.944,18.0
0.0,0.0,0.0,0.0
0.0,0.0,0.0,0.0
65.505,-5.52,0.458,6.0
79.483,-6.671,0.124,25.0
61.732,-5.161,-0.238,1.0
82.538,-6.898,1.978,45.0
85.018,-7.076,1.575,11.0
81.975,-6.795,1.072,39.0
79.342,-6.551,0.599,27.0
79.396,-6.53,0.166,18.0
79.381,-6.503,-0.264,3.0
82.369,-6.744,2.017,41.0
83.059,-6.772,1.581,65.0
81.941,-6.653,1.114,38.0
79.378,-6.419,0.638,27.0
79.427,-6.395,0.206,26.0
79.401,-6.367,-0.225,15.0
82.324,-6.597,2.057,42.0
82.789,-6.606,1.616,48.0
81.97,-6.512,1.153,38.0
79.329,-6.275,0.676,9.0
61.501,-4.844,0.189,27.0
66.057,-5.18,-0.156,0.0
82.262,-6.446,2.093,40.0
82.627,-6.446,1.651,40.0
81.942,-6.364,1.19,34.0
65.731,-5.082,0.589,8.0
65.572,-5.047,0.23,25.0
66.062,-5.062,-0.128,1.0
82.397,-6.31,2.131,44.0
82.658,-6.3,1.686,45.0
82.133,-6.232,1.227,11.0
65.632,-4.957,0.615,8.0
65.517,-4.925,0.256,29.0
65.901,-4.932,-0.101,2.0
82.404,-6.162,2.163,34.0
83.011,-6.177,1.725,47.0
0.0,0.0,0.0,0.0
65.617,-4.837,0.639,6.0
65.547,-4.808,0.28,0.0
65.84,-4.807,-0.078,1.0
82.413,-6.011,2.193,36.0
82.782,-6.009,1.749,52.0
0.0,0.0,0.0,0.0
65.577,-4.713,0.661,1.0
65.605,-4.692,0.302,0.0
65.72,-4.677,-0.056,2.0
82.504,-5.865,2.222,40.0
82.836,-5.858,1.776,52.0
0.0,0.0,0.0,0.0
65.535,-4.587,0.68,2.0
65.558,-4.566,0.321,2.0
65.663,-4.55,-0.037,2.0
82.767,-5.729,2.251,41.0
83.208,-5.729,1.808,29.0
65.748,-4.503,1.067,1.0
65.478,-4.462,0.697,2.0
65.56,-4.443,0.338,6.0
24.649,-1.661,-0.007,0.0
24.592,-1.655,0.675,26.0
24.583,-1.646,0.54,28.0
24.582,-1.637,0.404,25.0
24.559,-1.626,0.267,21.0
24.552,-1.617,0.132,28.0
24.557,-1.609,-0.002,33.0
24.548,-1.605,0.679,71.0
24.548,-1.596,0.544,43.0
24.541,-1.587,0.409,53.0
24.529,-1.577,0.271,39.0
24.524,-1.568,0.136,44.0
24.531,-1.56,0.002,61.0
24.54,-1.558,0.683,80.0
24.541,-1.549,0.548,66.0
24.528,-1.539,0.412,73.0
24.514,-1.529,0.275,66.0
24.51,-1.521,0.14,48.0
24.534,-1.513,0.005,81.0
24.526,-1.51,0.686,59.0
24.548,-1.502,0.551,78.0
24.529,-1.492,0.416,73.0
24.534,-1.483,0.278,73.0
24.515,-1.473,0.143,59.0
24.528,-1.465,0.008,69.0
24.564,-1.464,0.689,79.0
24.568,-1.455,0.554,66.0
24.551,-1.445,0.418,57.0
24.546,-1.436,0.28,46.0
24.54,-1.426,0.145,48.0
24.549,-1.418,0.01,53.0
24.581,-1.416,0.691,29.0
24.592,-1.408,0.556,20.0
24.58,-1.398,0.42,22.0
24.576,-1.389,0.282,29.0
24.589,-1.381,0.146,23.0
65.564,-3.658,0.028,16.0
83.852,-4.668,2.362,61.0
83.588,-4.621,1.892,34.0
86.14,-4.731,1.474,2.0
0.0,0.0,0.0,0.0
65.617,-3.556,0.391,0.0
69.373,-3.734,0.03,1.0
84.298,-4.526,2.373,40.0
84.141,-4.486,1.903,35.0
86.044,-4.555,1.47,37.0
0.0,0.0,0.0,0.0
0.0,0.0,0.0,0.0
66.322,-3.438,0.026,0.0
84.434,-4.363,2.373,39.0
84.732,-4.347,1.912,45.0
86.06,-4.383,1.465,29.0
82.884,-4.19,0.943,27.0
67.283,-3.376,0.394,1.0
0.0,0.0,0.0,0.0
84.885,-4.215,2.378,34.0
84.643,-4.173,1.902,45.0
86.056,-4.21,1.456,3.0
82.949,-4.028,0.936,10.0
79.831,-3.846,0.458,1.0
31.316,-1.497,0.006,3.0
84.976,-4.049,2.369,33.0
84.623,-4.001,1.89,39.0
83.437,-3.913,1.401,1.0
83.101,-3.867,0.925,21.0
31.262,-1.443,0.174,33.0
31.225,-1.43,0.001,40.0
85.113,-3.883,2.359,23.0
31.353,-1.418,0.695,5.0
31.261,-1.403,0.519,37.0
31.229,-1.39,0.342,37.0
28.471,-1.257,0.153,51.0
28.46,-1.246,-0.004,64.0
28.458,-1.24,0.783,58.0
28.45,-1.23,0.624,66.0
28.446,-1.219,0.466,69.0
28.43,-1.208,0.305,103.0
28.456,-1.199,0.147,133.0
28.44,-1.187,-0.01,108.0
28.445,-1.182,0.775,109.0
28.448,-1.172,0.617,138.0
28.439,-1.161,0.459,150.0
28.446,-1.15,0.298,123.0
28.458,-1.14,0.139,73.0
28.456,-1.13,-0.018,68.0
28.446,-1.124,0.768,68.0
28.464,-1.114,0.61,62.0
31.238,-1.211,0.495,22.0
31.26,-1.201,0.318,51.0
31.271,-1.19,0.144,44.0
31.313,-1.18,-0.029,51.0
31.292,-1.173,0.834,56.0
31.301,-1.162,0.66,48.0
31.312,-1.151,0.486,45.0
83.238,-3.029,0.819,17.0
80.522,-2.901,0.344,20.0
81.271,-2.899,-0.105,44.0
31.343,-1.11,0.825,43.0
31.442,-1.102,0.652,0.0
84.386,-2.928,1.279,12.0
83.336,-2.861,0.789,11.0
80.373,-2.731,0.312,24.0
38.746,-1.302,-0.065,30.0
38.668,-1.29,1.002,56.0
38.652,-1.276,0.786,45.0
38.672,-1.263,0.57,40.0
38.655,-1.248,0.35,61.0
38.676,-1.235,0.134,63.0
38.663,-1.221,-0.081,56.0
38.623,-1.211,0.984,72.0
38.629,-1.196,0.768,75.0
38.626,-1.183,0.552,69.0
38.614,-1.168,0.332,70.0
38.656,-1.155,0.116,77.0
38.653,-1.141,-0.099,86.0
38.637,-1.131,0.966,85.0
38.634,-1.117,0.75,75.0
38.628,-1.103,0.533,67.0
38.622,-1.088,0.313,73.0
38.652,-1.075,0.097,69.0
38.662,-1.062,-0.118,62.0
38.634,-1.051,0.946,66.0
38.654,-1.038,0.73,58.0
38.675,-1.025,0.514,41.0
38.685,-1.012,0.293,43.0
38.721,-0.998,0.077,23.0
38.772,-0.987,-0.139,27.0
38.713,-0.975,0.927,47.0
40.428,-1.003,0.741,25.0
40.405,-0.988,0.514,31.0
40.399,-0.974,0.284,38.0
40.408,-0.96,0.057,39.0
40.41,-0.945,-0.169,38.0
40.404,-0.934,0.944,38.0
40.407,-0.92,0.717,44.0
40.408,-0.906,0.49,11.0
38.382,-0.847,0.246,12.0
38.374,-0.833,0.03,46.0
38.368,-0.82,-0.184,48.0
38.411,-0.81,0.873,10.0
45.68,-0.947,0.782,18.0
52.94,-1.079,0.609,61.0
52.92,-1.061,0.306,66.0
52.956,-1.043,0.008,55.0
52.94,-1.024,-0.289,48.0
193.203,-3.686,4.266,20.0
203.723,-3.813,3.352,7.0
203.45,-3.734,2.201,10.0
20.14,-0.362,0.102,5.0
20.129,-0.355,-0.01,38.0
53.021,-0.918,-0.326,13.0
176.609,-3.01,3.775,63.0
176.658,-2.952,2.782,41.0
20.133,-0.329,0.203,9.0
20.144,-0.322,0.088,29.0
20.117,-0.315,-0.025,10.0
59.357,-0.909,-0.408,8.0
53.488,-0.804,1.104,6.0
20.126,-0.295,0.301,10.0
20.113,-0.288,0.188,12.0
59.535,-0.834,0.216,22.0
59.527,-0.813,-0.119,53.0
58.805,-0.784,-0.448,6.0
20.139,-0.262,0.4,14.0
20.128,-0.255,0.286,10.0
20.162,-0.249,0.173,5.0
56.201,-0.676,0.16,1.0
56.278,-0.657,-0.157,0.0
58.843,-0.668,-0.495,4.0
20.152,-0.222,0.384,15.0
64.348,-0.689,0.863,32.0
64.303,-0.667,0.499,80.0
56.183,-0.563,0.113,5.0
56.291,-0.546,-0.203,6.0
52.95,-0.496,-0.49,3.0
53.485,-0.485,0.974,13.0
66.514,-0.581,0.835,21.0
58.317,-0.49,0.403,20.0
20.167,-0.162,0.023,9.0
20.167,-0.156,-0.09,17.0
20.142,-0.149,-0.204,10.0
20.157,-0.143,0.349,16.0
20.135,-0.136,0.235,18.0
20.129,-0.129,0.121,17.0
20.127,-0.123,0.005,27.0
20.153,-0.116,-0.108,27.0
20.15,-0.11,-0.222,23.0
20.128,-0.103,0.33,31.0
20.127,-0.097,0.216,25.0
20.129,-0.09,0.102,37.0
20.116,-0.084,-0.013,32.0
20.135,-0.077,-0.127,35.0
20.143,-0.071,-0.241,24.0
20.121,-0.065,0.311,33.0
20.117,-0.058,0.197,31.0
20.125,-0.051,0.083,40.0
20.124,-0.045,-0.032,33.0
20.158,-0.039,-0.146,27.0
20.166,-0.032,-0.261,18.0
20.12,-0.026,0.291,28.0
20.118,-0.02,0.177,29.0
20.149,-0.013,0.063,28.0
20.261,-0.007,-0.053,141.0
20.254,0.0,-0.167,150.0
20.271,0.005,-0.282,150.0
20.137,0.011,0.271,28.0
20.135,0.018,0.157,27.0
20.243,0.024,0.043,13.0
20.261,0.031,-0.073,34.0
20.219,0.037,-0.188,17.0
20.24,0.043,-0.303,0.0
20.147,0.05,0.25,28.0
20.144,0.056,0.135,27.0
20.201,0.062,0.021,30.0
20.187,0.068,-0.095,26.0
20.184,0.074,-0.209,17.0
20.216,0.081,-0.324,1.0
20.159,0.087,0.228,28.0
20.182,0.093,0.114,26.0
20.172,0.099,0.0,27.0
20.169,0.106,-0.117,40.0
20.185,0.112,-0.231,29.0
20.21,0.118,-0.346,27.0
20.177,0.124,0.206,25.0
20.209,0.131,0.091,33.0
20.209,0.136,-0.023,25.0
20.174,0.142,-0.139,30.0
20.169,0.149,-0.254,36.0
20.184,0.154,-0.369,30.0
20.275,0.162,0.184,26.0
20.314,0.168,0.068,29.0
20.268,0.174,-0.046,14.0
20.185,0.179,-0.163,16.0
20.178,0.185,-0.278,27.0
20.178,0.191,-0.393,34.0
20.31,0.198,0.16,29.0
20.327,0.205,0.045,20.0
0.0,0.0,0.0,0.0
20.19,0.215,-0.187,11.0
20.186,0.221,-0.302,25.0
20.188,0.227,-0.417,25.0
20.321,0.234,0.136,2.0
99.552,1.178,0.101,5.0
0.0,0.0,0.0,0.0
0.0,0.0,0.0,0.0
20.202,0.256,-0.327,3.0
20.22,0.262,-0.442,7.0
99.616,1.326,0.544,5.0
99.767,1.356,-0.022,3.0
0.0,0.0,0.0,0.0
0.0,0.0,0.0,0.0
42.815,0.618,-0.746,0.0
35.352,0.52,-0.818,0.0
99.739,1.5,0.419,5.0
101.5,1.554,-0.151,2.0
0.0,0.0,0.0,0.0
0.0,0.0,0.0,0.0
0.0,0.0,0.0,0.0
34.138,0.56,-0.833,1.0
99.824,1.671,0.29,5.0
0.0,0.0,0.0,0.0
0.0,0.0,0.0,0.0
0.0,0.0,0.0,0.0
0.0,0.0,0.0,0.0
32.671,0.592,-0.841,1.0
99.917,1.841,0.158,2.0
0.0,0.0,0.0,0.0
0.0,0.0,0.0,0.0
0.0,0.0,0.0,0.0
37.19,0.725,-0.794,0.0
31.854,0.629,-0.862,1.0
99.977,2.007,0.024,6.0
0.0,0.0,0.0,0.0
0.0,0.0,0.0,0.0
42.858,0.894,-0.728,0.0
35.942,0.759,-0.816,0.0
30.86,0.66,-0.878,1.0
100.079,2.171,-0.112,11.0
0.0,0.0,0.0,0.0
0.0,0.0,0.0,0.0
0.0,0.0,0.0,0.0
34.438,0.783,-0.83,0.0
28.827,0.663,-0.86,0.0
0.0,0.0,0.0,0.0
0.0,0.0,0.0,0.0
0.0,0.0,0.0,0.0
0.0,0.0,0.0,0.0
32.701,0.795,-0.834,1.0
28.377,0.697,-0.886,0.0
0.0,0.0,0.0,0.0
0.0,0.0,0.0,0.0
0.0,0.0,0.0,0.0
37.202,0.952,-0.789,0.0
31.712,0.819,-0.854,1.0
26.867,0.701,-0.878,0.0
0.0,0.0,0.0,0.0
0.0,0.0,0.0,0.0
0.0,0.0,0.0,0.0
0.0,0.0,0.0,0.0
30.438,0.832,-0.864,1.0
26.004,0.717,-0.887,0.0
68.985,1.923,-0.472,7.0
0.0,0.0,0.0,0.0
0.0,0.0,0.0,0.0
33.648,0.962,-0.812,1.0
29.158,0.841,-0.871,0.0
25.0,0.727,-0.89,0.0
68.996,2.025,-0.575,2.0
0.0,0.0,0.0,0.0
39.098,1.166,-0.774,0.0
32.444,0.975,-0.832,1.0
28.057,0.85,-0.88,0.0
24.149,0.737,-0.897,0.0
0.0,0.0,0.0,0.0
0.0,0.0,0.0,0.0
0.0,0.0,0.0,0.0
32.022,1.008,-0.87,0.0
26.452,0.839,-0.87,0.0
23.237,0.742,-0.898,0.0
0.0,0.0,0.0,0.0
0.0,0.0,0.0,0.0
35.445,1.157,-0.81,0.0
30.024,0.987,-0.862,1.0
25.607,0.847,-0.882,1.0
22.511,0.75,-0.905,0.0
0.0,0.0,0.0,0.0
40.442,1.366,-0.755,0.0
0.0,0.0,0.0,0.0
28.478,0.974,-0.861,0.0
24.695,0.85,-0.889,0.0
21.85,0.757,-0.912,0.0
0.0,0.0,0.0,0.0
0.0,0.0,0.0,0.0
32.438,1.145,-0.842,1.0
27.29,0.97,-0.868,0.0
23.782,0.85,-0.894,0.0
20.927,0.753,-0.907,0.0
0.0,0.0,0.0,0.0
36.638,1.334,-0.799,0.0
30.286,1.109,-0.835,0.0
25.985,0.956,-0.868,1.0
22.825,0.845,-0.894,0.0
20.307,0.756,-0.912,0.0
0.0,0.0,0.0,0.0
34.369,1.294,-0.805,0.0
29.847,1.13,-0.871,0.0
24.747,0.942,-0.867,0.0
22.283,0.853,-0.909,0.0
19.839,0.763,-0.923,0.0
0.0,0.0,0.0,0.0
32.674,1.27,-0.817,0.0
27.858,1.088,-0.857,0.0
24.05,0.945,-0.881,0.0
21.059,0.831,-0.893,0.0
19.012,0.754,-0.916,0.0
37.98,1.514,-0.794,0.0
31.949,1.28,-0.852,0.0
26.791,1.079,-0.868,0.0
22.697,0.918,-0.868,0.0
20.215,0.822,-0.89,8.0
18.524,0.757,-0.923,0.0
0.0,0.0,0.0,0.0
30.152,1.243,-0.853,1.0
20.233,0.838,-0.689,0.0
20.241,0.842,-0.808,5.0
20.151,0.842,-0.921,3.0
17.926,0.752,-0.923,0.0
34.321,1.447,-0.831,0.0
28.879,1.222,-0.865,0.0
20.245,0.86,-0.723,153.0
20.22,0.863,-0.841,22.0
20.118,0.862,-0.952,2.0
20.214,0.87,-1.074,17.0
32.095,1.387,-0.83,0.0
20.256,0.879,-0.64,45.0
20.182,0.879,-0.754,165.0
20.224,0.885,-0.875,64.0
0.0,0.0,0.0,0.0
20.22,0.892,-1.108,1.0
0.0,0.0,0.0,0.0
20.259,0.9,-0.675,151.0
20.181,0.9,-0.789,157.0
20.197,0.904,-0.908,29.0
20.211,0.909,-1.025,2.0
16.409,0.74,-0.927,0.0
28.854,1.306,-0.843,0.0
20.189,0.917,-0.706,157.0
20.223,0.922,-0.824,55.0
20.164,0.923,-0.94,16.0
20.217,0.928,-1.059,8.0
16.063,0.74,-0.935,0.0
28.029,1.296,-0.866,0.0
20.245,0.939,-0.742,153.0
20.232,0.942,-0.859,25.0
20.175,0.942,-0.975,3.0
17.073,0.8,-0.924,0.0
15.563,0.732,-0.932,0.0
26.471,1.248,-0.864,0.0
20.227,0.957,-0.776,11.0
20.193,0.958,-0.892,10.0
18.258,0.869,-0.914,0.0
16.641,0.795,-0.929,0.0
15.188,0.728,-0.936,0.0
25.404,1.22,-0.872,0.0
21.858,1.053,-0.876,0.0
