X,Y,Z,Reflectivity
151.43,14.462,3.17,16.0
151.118,14.463,2.296,27.0
0.0,0.0,0.0,0.0
92.504,8.891,0.363,1.0
109.347,10.566,3.46,15.0
121.42,11.756,3.156,21.0
121.614,11.799,2.473,18.0
121.648,11.825,1.776,22.0
0.0,0.0,0.0,0.0
0.0,0.0,0.0,0.0
108.842,10.682,3.375,35.0
109.232,10.74,2.77,14.0
121.519,11.971,2.395,65.0
121.549,11.998,1.697,63.0
0.0,0.0,0.0,0.0
0.0,0.0,0.0,0.0
115.673,11.521,3.512,48.0
109.021,10.877,2.695,19.0
121.614,12.157,2.318,35.0
150.672,15.088,2.005,14.0
0.0,0.0,0.0,0.0
0.0,0.0,0.0,0.0
109.855,11.099,3.262,29.0
109.149,11.046,2.623,22.0
150.775,15.286,2.77,19.0
150.741,15.31,1.902,14.0
0.0,0.0,0.0,0.0
0.0,0.0,0.0,0.0
109.96,11.262,3.188,48.0
109.227,11.206,2.547,31.0
150.573,15.474,2.659,10.0
115.681,11.909,1.376,2.0
0.0,0.0,0.0,0.0
0.0,0.0,0.0,0.0
137.394,14.262,3.881,23.0
109.273,11.36,2.468,34.0
115.593,12.036,1.955,53.0
0.0,0.0,0.0,0.0
82.224,8.589,0.45,3.0
82.028,8.584,-0.014,0.0
116.37,12.233,3.2,43.0
109.239,11.5,2.384,68.0
109.342,11.529,1.765,21.0
0.0,0.0,0.0,0.0
82.164,8.692,0.386,3.0
82.027,8.691,-0.079,37.0
108.814,11.579,2.906,43.0
109.239,11.642,2.297,49.0
109.278,11.662,1.677,58.0
0.0,0.0,0.0,0.0
82.04,8.782,0.32,5.0
82.016,8.793,-0.145,15.0
104.117,11.211,2.696,11.0
149.947,16.167,3.032,11.0
109.316,11.804,1.588,44.0
82.141,8.882,0.718,1.0
77.171,8.357,0.237,8.0
77.069,8.359,-0.201,8.0
103.973,11.323,2.605,37.0
149.827,16.337,2.902,22.0
149.806,16.357,2.05,13.0
81.973,8.962,0.647,3.0
76.315,8.356,0.169,10.0
76.293,8.366,-0.264,7.0
103.929,11.442,2.513,45.0
103.811,11.443,1.921,30.0
103.956,11.473,1.331,2.0
76.995,8.509,0.541,3.0
75.577,8.364,0.101,11.0
75.594,8.377,-0.328,7.0
103.926,11.56,2.421,20.0
103.763,11.556,1.828,40.0
0.0,0.0,0.0,0.0
75.599,8.44,0.463,4.0
75.011,8.385,0.033,11.0
75.213,8.419,-0.394,0.0
144.153,16.195,3.228,8.0
144.092,16.205,2.407,12.0
76.447,8.607,0.841,1.0
74.946,8.449,0.39,5.0
74.709,8.432,-0.035,15.0
0.0,0.0,0.0,0.0
144.161,16.347,3.097,16.0
144.074,16.355,2.274,10.0
75.955,8.631,0.766,1.0
74.598,8.487,0.32,150.0
74.609,8.499,-0.105,7.0
69.005,7.87,-0.49,0.0
149.444,17.1,3.069,11.0
149.626,17.138,2.221,17.0
75.292,8.632,0.687,6.0
74.511,8.552,0.247,1.0
0.0,0.0,0.0,0.0
0.0,0.0,0.0,0.0
149.318,17.232,2.921,15.0
149.715,17.295,2.075,14.0
71.339,8.25,0.581,0.0
0.0,0.0,0.0,0.0
0.0,0.0,0.0,0.0
0.0,0.0,0.0,0.0
149.294,17.372,2.774,15.0
149.711,17.437,1.927,3.0
75.032,8.747,0.536,3.0
0.0,0.0,0.0,0.0
71.516,8.354,-0.311,1.0
0.0,0.0,0.0,0.0
97.788,11.467,1.717,5.0
75.452,8.856,0.894,5.0
0.0,0.0,0.0,0.0
69.747,8.201,0.023,1.0
0.0,0.0,0.0,0.0
0.0,0.0,0.0,0.0
97.708,11.542,1.616,48.0
0.0,0.0,0.0,0.0
0.0,0.0,0.0,0.0
69.121,8.185,-0.047,0.0
68.975,8.175,-0.44,2.0
0.0,0.0,0.0,0.0
97.695,11.62,1.516,62.0
0.0,0.0,0.0,0.0
0.0,0.0,0.0,0.0
68.942,8.219,-0.119,1.0
68.941,8.226,-0.512,4.0
0.0,0.0,0.0,0.0
97.68,11.693,1.414,25.0
0.0,0.0,0.0,0.0
0.0,0.0,0.0,0.0
68.913,8.268,-0.191,2.0
68.945,8.278,-0.585,2.0
68.854,8.275,-0.978,1.0
0.0,0.0,0.0,0.0
68.86,8.299,0.53,5.0
68.743,8.29,0.135,4.0
69.05,8.333,-0.265,2.0
0.0,0.0,0.0,0.0
68.862,8.324,-1.052,1.0
0.0,0.0,0.0,0.0
68.824,8.341,0.455,5.0
68.761,8.339,0.061,154.0
69.236,8.402,-0.341,1.0
0.0,0.0,0.0,0.0
0.0,0.0,0.0,0.0
0.0,0.0,0.0,0.0
68.772,8.379,0.379,2.0
68.741,8.38,-0.014,153.0
69.255,8.448,-0.416,1.0
68.897,8.41,-0.809,0.0
0.0,0.0,0.0,0.0
0.0,0.0,0.0,0.0
68.677,8.408,0.303,1.0
68.708,8.416,-0.089,151.0
0.0,0.0,0.0,0.0
68.681,8.424,-0.882,5.0
39.168,4.807,-0.728,1.0
0.0,0.0,0.0,0.0
68.687,8.447,0.227,2.0
68.839,8.47,-0.166,2.0
0.0,0.0,0.0,0.0
68.679,8.46,-0.96,8.0
0.0,0.0,0.0,0.0
68.752,8.486,0.544,6.0
68.651,8.477,0.149,22.0
65.647,8.11,-0.232,1.0
68.944,8.521,-0.646,0.0
68.737,8.501,-1.038,1.0
37.07,4.587,-0.772,0.0
68.73,8.515,0.465,9.0
68.665,8.51,0.072,150.0
65.469,8.118,-0.305,6.0
55.627,6.901,-0.584,0.0
0.0,0.0,0.0,0.0
35.295,4.383,-0.775,0.0
68.699,8.54,0.388,16.0
68.657,8.537,-0.006,21.0
65.401,8.136,-0.379,8.0
0.0,0.0,0.0,0.0
40.589,5.054,-0.705,0.0
34.954,4.354,-0.807,0.0
68.664,8.561,0.308,22.0
65.346,8.15,-0.08,7.0
65.313,8.148,-0.454,7.0
0.0,0.0,0.0,0.0
38.985,4.868,-0.722,0.0
32.773,4.094,-0.794,0.0
68.677,8.585,0.23,8.0
65.318,8.167,-0.154,58.0
65.266,8.163,-0.528,15.0
0.0,0.0,0.0,0.0
0.0,0.0,0.0,0.0
31.519,3.947,-0.8,0.0
65.505,8.206,0.145,1.0
65.281,8.18,-0.229,25.0
65.148,8.166,-0.602,2.0
0.0,0.0,0.0,0.0
37.808,4.742,-0.786,0.0
30.99,3.888,-0.822,1.0
65.448,8.215,0.069,2.0
65.231,8.189,-0.305,30.0
0.0,0.0,0.0,0.0
0.0,0.0,0.0,0.0
35.394,4.446,-0.777,0.0
29.958,3.765,-0.83,0.0
65.267,8.204,-0.006,1.0
65.204,8.197,-0.38,24.0
0.0,0.0,0.0,0.0
40.454,5.088,-0.704,0.0
34.253,4.309,-0.792,0.0
28.951,3.643,-0.836,0.0
65.133,8.196,-0.081,3.0
65.19,8.204,-0.455,5.0
0.0,0.0,0.0,0.0
38.572,4.855,-0.715,0.0
33.144,4.173,-0.805,0.0
28.001,3.526,-0.841,0.0
65.186,8.209,-0.156,12.0
65.037,8.19,-0.528,0.0
0.0,0.0,0.0,0.0
37.937,4.778,-0.747,0.0
31.239,3.935,-0.794,0.0
27.302,3.44,-0.851,0.0
65.188,8.212,-0.23,13.0
0.0,0.0,0.0,0.0
0.0,0.0,0.0,0.0
37.258,4.694,-0.776,0.0
30.999,3.906,-0.823,1.0
26.455,3.334,-0.855,0.0
65.171,8.21,-0.305,12.0
0.0,0.0,0.0,0.0
42.707,5.379,-0.689,0.0
35.111,4.423,-0.771,0.0
30.091,3.791,-0.834,0.0
25.742,3.243,-0.861,0.0
65.19,8.209,-0.379,9.0
0.0,0.0,0.0,0.0
40.619,5.114,-0.702,0.0
33.991,4.28,-0.785,0.0
28.958,3.646,-0.836,0.0
24.868,3.131,-0.86,0.0
65.2,8.204,-0.453,7.0
0.0,0.0,0.0,0.0
39.024,4.909,-0.719,0.0
32.667,4.109,-0.792,0.0
28.165,3.543,-0.845,0.0
24.174,3.041,-0.864,0.0
65.176,8.192,-0.527,3.0
0.0,0.0,0.0,0.0
38.104,4.787,-0.745,1.0
31.396,3.944,-0.797,0.0
27.207,3.418,-0.847,0.0
23.675,2.974,-0.872,0.0
65.104,8.17,-0.6,1.0
0.0,0.0,0.0,0.0
37.523,4.707,-0.775,0.0
31.022,3.891,-0.822,1.0
26.419,3.313,-0.851,0.0
21.929,2.75,-0.833,0.0
65.154,8.161,-0.672,1.0
0.0,0.0,0.0,0.0
34.941,4.375,-0.761,0.0
30.038,3.76,-0.829,0.0
25.679,3.214,-0.856,0.0
21.896,2.74,-0.856,3.0
0.0,0.0,0.0,0.0
0.0,0.0,0.0,0.0
34.435,4.301,-0.788,0.0
29.055,3.629,-0.834,0.0
24.941,3.114,-0.859,0.0
21.838,2.726,-0.878,2.0
0.0,0.0,0.0,0.0
0.0,0.0,0.0,0.0
32.826,4.089,-0.786,0.0
28.093,3.499,-0.837,0.0
24.375,3.035,-0.866,0.0
21.78,2.711,-0.899,0.0
0.0,0.0,0.0,0.0
38.328,4.762,-0.74,0.0
31.859,3.957,-0.798,0.0
27.368,3.398,-0.845,0.0
23.772,2.951,-0.87,0.0
21.359,2.651,-0.905,0.0
68.606,8.498,-1.007,0.0
0.0,0.0,0.0,0.0
31.001,3.837,-0.81,0.0
26.476,3.276,-0.846,0.0
23.448,2.9,-0.883,0.0
20.516,2.537,-0.89,0.0
68.589,8.465,-1.079,1.0
35.518,4.381,-0.762,0.0
30.293,3.735,-0.823,0.0
25.846,3.186,-0.853,0.0
21.993,2.71,-0.851,0.0
20.259,2.495,-0.901,0.0
0.0,0.0,0.0,0.0
0.0,0.0,0.0,0.0
29.456,3.617,-0.831,0.0
25.144,3.086,-0.856,0.0
21.822,2.677,-0.868,0.0
20.093,2.464,-0.914,0.0
39.449,4.827,-0.701,0.0
0.0,0.0,0.0,0.0
28.389,3.47,-0.83,0.0
24.533,2.997,-0.859,0.0
21.779,2.66,-0.888,1.0
0.0,0.0,0.0,0.0
39.53,4.814,-0.743,0.0
32.44,3.948,-0.795,0.0
27.888,3.392,-0.843,0.0
23.979,2.915,-0.864,0.0
21.661,2.632,-0.905,0.0
18.948,2.301,-0.9,0.0
37.623,4.557,-0.744,0.0
31.487,3.811,-0.803,0.0
27.103,3.279,-0.846,0.0
23.557,2.848,-0.872,0.0
20.937,2.53,-0.895,0.0
18.63,2.25,-0.903,0.0
36.899,4.445,-0.766,0.0
30.746,3.701,-0.814,0.0
26.434,3.18,-0.851,0.0
23.177,2.786,-0.88,0.0
20.456,2.458,-0.894,0.0
18.304,2.198,-0.905,0.0
35.338,4.231,-0.767,0.0
30.054,3.596,-0.824,0.0
25.788,3.083,-0.854,0.0
21.884,2.615,-0.852,0.0
20.227,2.415,-0.903,0.0
18.122,2.163,-0.913,0.0
34.378,4.09,-0.778,0.0
29.247,3.477,-0.829,0.0
25.021,2.972,-0.852,0.0
21.801,2.588,-0.869,0.0
19.346,2.295,-0.882,0.0
17.75,2.104,-0.91,0.0
33.064,3.908,-0.778,0.0
28.58,3.375,-0.835,0.0
24.643,2.907,-0.861,0.0
21.783,2.568,-0.888,1.0
19.281,2.271,-0.896,1.0
17.408,2.049,-0.908,0.0
32.267,3.786,-0.788,0.0
27.65,3.241,-0.833,0.0
24.226,2.838,-0.868,0.0
21.717,2.542,-0.904,0.0
19.23,2.249,-0.91,1.0
17.235,2.014,-0.914,0.0
31.56,3.675,-0.798,0.0
27.209,3.166,-0.843,0.0
23.721,2.758,-0.87,0.0
20.791,2.415,-0.883,0.0
18.885,2.192,-0.91,0.0
17.049,1.977,-0.919,1.0
30.802,3.559,-0.804,0.0
26.721,3.084,-0.85,0.0
23.425,2.701,-0.879,0.0
20.534,2.366,-0.889,0.0
18.621,2.144,-0.913,0.0
16.904,1.944,-0.925,0.0
30.432,3.487,-0.82,0.0
26.07,2.984,-0.85,0.0
22.021,2.518,-0.843,0.0
20.274,2.316,-0.894,0.0
18.355,2.095,-0.914,0.0
16.604,1.894,-0.922,0.0
29.631,3.366,-0.821,0.0
25.599,2.905,-0.855,0.0
21.864,2.478,-0.854,1.0
19.671,2.228,-0.883,0.0
18.083,2.046,-0.915,0.0
16.359,1.849,-0.921,0.0
29.021,3.267,-0.826,0.0
25.053,2.817,-0.856,0.0
21.843,2.453,-0.87,6.0
19.632,2.203,-0.896,1.0
17.768,1.991,-0.912,2.0
16.174,1.811,-0.922,0.0
28.372,3.164,-0.828,0.0
24.537,2.733,-0.856,0.0
21.831,2.428,-0.885,5.0
19.504,2.167,-0.904,2.0
17.722,1.967,-0.922,2.0
16.015,1.776,-0.924,0.0
27.841,3.074,-0.832,0.0
24.293,2.679,-0.864,0.0
21.783,2.399,-0.899,3.0
19.327,2.126,-0.909,2.0
17.578,1.931,-0.927,0.0
15.818,1.736,-0.924,0.0
27.454,3.0,-0.84,0.0
23.901,2.608,-0.866,0.0
21.739,2.369,-0.911,1.0
19.041,2.073,-0.908,0.0
17.293,1.88,-0.923,0.0
15.686,1.703,-0.927,0.0
27.175,2.938,-0.848,0.0
23.56,2.543,-0.869,0.0
21.044,2.269,-0.896,0.0
18.722,2.016,-0.905,0.0
17.019,1.83,-0.919,0.0
15.536,1.669,-0.927,0.0
26.533,2.836,-0.845,0.0
21.963,2.344,-0.824,0.0
20.552,2.19,-0.887,0.0
18.658,1.986,-0.913,0.0
16.84,1.79,-0.92,0.0
15.376,1.632,-0.927,0.0
26.126,2.76,-0.847,0.0
21.943,2.315,-0.836,2.0
20.539,2.163,-0.898,0.0
18.493,1.945,-0.915,0.0
16.711,1.755,-0.922,0.0
15.253,1.6,-0.928,0.0
25.803,2.693,-0.851,0.0
21.91,2.284,-0.846,3.0
20.44,2.127,-0.905,0.0
18.021,1.872,-0.902,0.0
16.562,1.718,-0.923,0.0
15.083,1.562,-0.926,0.0
25.455,2.624,-0.853,0.0
21.876,2.251,-0.856,4.0
19.919,2.046,-0.892,0.0
17.904,1.836,-0.905,1.0
16.415,1.681,-0.923,0.0
14.993,1.533,-0.928,0.0
25.05,2.549,-0.851,0.0
21.825,2.217,-0.865,1.0
19.687,1.996,-0.891,0.0
17.837,1.806,-0.91,2.0
16.283,1.646,-0.923,0.0
14.902,1.504,-0.929,0.0
24.909,2.501,-0.858,0.0
21.791,2.184,-0.873,1.0
19.573,1.958,-0.895,0.0
17.774,1.775,-0.915,2.0
16.149,1.61,-0.922,0.0
14.851,1.478,-0.932,0.0
24.655,2.441,-0.859,0.0
21.783,2.153,-0.882,1.0
19.52,1.925,-0.9,0.0
17.735,1.746,-0.92,2.0
16.099,1.582,-0.926,0.0
14.822,1.454,-0.936,0.0
24.645,2.405,-0.868,0.0
21.743,2.118,-0.889,0.0
19.46,1.892,-0.905,0.0
17.702,1.717,-0.924,1.0
15.991,1.549,-0.925,0.0
14.735,1.425,-0.936,0.0
24.399,2.346,-0.868,0.0
21.705,2.082,-0.895,1.0
19.389,1.857,-0.908,0.0
17.585,1.681,-0.924,0.0
15.885,1.515,-0.924,0.0
14.657,1.396,-0.935,0.0
24.172,2.289,-0.868,0.0
21.714,2.052,-0.901,0.0
19.365,1.826,-0.913,0.0
17.276,1.625,-0.913,0.0
15.882,1.492,-0.929,0.0
14.627,1.371,-0.938,0.0
23.911,2.228,-0.865,0.0
21.61,2.009,-0.903,0.0
19.282,1.789,-0.914,0.0
17.254,1.598,-0.916,0.0
15.812,1.461,-0.929,0.0
14.553,1.342,-0.937,0.0
23.897,2.191,-0.87,0.0
21.491,1.966,-0.903,0.0
19.161,1.749,-0.912,0.0
17.191,1.565,-0.917,0.0
15.804,1.436,-0.932,0.0
14.472,1.312,-0.934,0.0
23.924,2.156,-0.876,1.0
21.652,1.947,-0.914,0.0
19.194,1.722,-0.918,0.0
17.128,1.533,-0.917,0.0
15.613,1.394,-0.923,0.0
14.482,1.29,-0.937,0.0
23.881,2.115,-0.878,0.0
21.571,1.906,-0.914,0.0
19.219,1.694,-0.922,0.0
17.128,1.506,-0.919,0.0
15.674,1.375,-0.929,0.0
14.458,1.265,-0.938,0.0
23.836,2.073,-0.879,0.0
21.552,1.87,-0.915,0.0
19.042,1.648,-0.915,0.0
17.074,1.474,-0.918,0.0
15.656,1.349,-0.929,0.0
14.453,1.242,-0.939,0.0
23.799,2.033,-0.88,0.0
21.474,1.829,-0.914,0.0
19.136,1.626,-0.921,0.0
17.07,1.447,-0.919,0.0
15.653,1.323,-0.93,0.0
14.461,1.22,-0.94,0.0
23.761,1.992,-0.88,0.0
21.618,1.807,-0.921,0.0
19.123,1.594,-0.921,0.0
16.974,1.411,-0.914,0.0
15.635,1.297,-0.929,0.0
14.441,1.195,-0.939,0.0
23.833,1.959,-0.883,0.0
21.577,1.769,-0.919,0.0
18.971,1.551,-0.914,0.0
17.041,1.389,-0.917,0.0
15.637,1.271,-0.929,0.0
14.452,1.172,-0.939,0.0
23.818,1.918,-0.881,0.0
21.644,1.738,-0.921,0.0
18.661,1.494,-0.898,0.0
17.068,1.363,-0.918,0.0
15.738,1.253,-0.934,0.0
14.499,1.151,-0.941,0.0
23.815,1.878,-0.879,0.0
21.484,1.689,-0.913,0.0
18.615,1.459,-0.894,0.0
17.088,1.336,-0.917,0.0
15.695,1.223,-0.93,0.0
14.528,1.129,-0.942,0.0
23.837,1.84,-0.877,0.0
21.461,1.651,-0.909,0.0
19.443,1.491,-0.931,0.0
17.196,1.315,-0.921,0.0
15.755,1.201,-0.931,0.0
14.563,1.107,-0.942,0.0
23.77,1.794,-0.871,0.0
21.611,1.626,-0.912,0.0
19.399,1.455,-0.926,0.0
17.212,1.287,-0.919,0.0
15.825,1.179,-0.932,0.0
14.619,1.086,-0.943,0.0
23.734,1.751,-0.866,0.0
21.641,1.591,-0.909,0.0
19.291,1.414,-0.917,0.0
17.233,1.259,-0.916,0.0
15.887,1.157,-0.933,0.0
14.66,1.064,-0.942,0.0
23.94,1.726,-0.868,0.0
21.748,1.562,-0.908,0.0
19.31,1.383,-0.913,0.0
17.385,1.241,-0.92,0.0
15.953,1.134,-0.932,0.0
14.73,1.044,-0.942,0.0
24.2,1.703,-0.87,0.0
21.764,1.526,-0.903,1.0
19.461,1.36,-0.915,0.0
17.528,1.22,-0.922,0.0
16.063,1.114,-0.934,0.0
14.779,1.022,-0.941,0.0
24.701,1.695,-0.881,0.0
21.79,1.49,-0.897,2.0
19.463,1.326,-0.908,0.0
17.452,1.185,-0.912,0.0
16.194,1.095,-0.936,0.0
14.84,1.0,-0.94,0.0
24.648,1.649,-0.87,0.0
21.811,1.453,-0.89,8.0
19.508,1.295,-0.903,0.0
17.74,1.173,-0.921,0.0
0.0,0.0,0.0,0.0
14.904,0.978,-0.938,0.0
24.868,1.62,-0.868,0.0
21.827,1.416,-0.882,10.0
19.699,1.273,-0.904,0.0
17.888,1.152,-0.921,0.0
0.0,0.0,0.0,0.0
14.907,0.952,-0.931,0.0
25.351,1.608,-0.874,0.0
21.834,1.379,-0.872,7.0
19.715,1.24,-0.896,0.0
0.0,0.0,0.0,0.0
0.0,0.0,0.0,0.0
15.103,0.938,-0.937,0.0
25.545,1.575,-0.868,0.0
21.884,1.343,-0.864,8.0
19.759,1.208,-0.888,0.0
0.0,0.0,0.0,0.0
0.0,0.0,0.0,0.0
15.166,0.915,-0.933,0.0
25.552,1.53,-0.855,1.0
21.898,1.305,-0.853,4.0
20.558,1.22,-0.913,0.0
0.0,0.0,0.0,0.0
16.575,0.975,-0.919,0.0
15.202,0.89,-0.926,0.0
26.078,1.515,-0.858,0.0
21.93,1.269,-0.841,2.0
20.817,1.198,-0.912,0.0
0.0,0.0,0.0,0.0
16.875,0.963,-0.926,0.0
15.305,0.869,-0.923,0.0
26.64,1.501,-0.861,0.0
21.912,1.229,-0.827,0.0
21.536,1.202,-0.931,0.0
0.0,0.0,0.0,0.0
17.023,0.941,-0.923,0.0
15.616,0.859,-0.932,0.0
0.0,0.0,0.0,0.0
23.831,1.295,-0.885,0.0
21.772,1.177,-0.927,0.0
19.11,1.028,-0.919,0.0
17.172,0.919,-0.92,0.0
15.818,0.843,-0.934,0.0
27.822,1.47,-0.863,0.0
24.154,1.269,-0.88,0.0
21.843,1.142,-0.915,0.0
19.116,0.994,-0.906,0.0
17.507,0.906,-0.925,0.0
15.942,0.821,-0.929,1.0
28.328,1.447,-0.858,0.0
24.671,1.253,-0.881,0.0
21.861,1.105,-0.899,0.0
20.183,1.015,-0.942,1.0
17.743,0.887,-0.924,0.0
16.305,0.811,-0.938,1.0
28.717,1.416,-0.848,0.0
25.114,1.231,-0.877,0.0
20.239,0.987,-0.817,0.0
20.194,0.979,-0.926,6.0
20.255,0.977,-1.039,0.0
16.425,0.788,-0.932,0.0
29.829,1.418,-0.857,0.0
20.242,0.957,-0.691,21.0
20.246,0.951,-0.8,151.0
20.165,0.942,-0.908,22.0
20.213,0.939,-1.02,1.0
16.676,0.77,-0.932,0.0
30.252,1.385,-0.843,0.0
20.251,0.922,-0.674,150.0
20.169,0.912,-0.78,164.0
20.208,0.909,-0.893,53.0
0.0,0.0,0.0,0.0
20.226,0.899,-1.112,1.0
30.465,1.342,-0.823,0.0
20.226,0.885,-0.655,18.0
20.198,0.878,-0.763,156.0
20.193,0.873,-0.874,20.0
18.873,0.81,-0.919,0.0
17.026,0.727,-0.921,0.0
32.194,1.362,-0.839,0.0
0.0,0.0,0.0,0.0
20.224,0.844,-0.745,0.0
21.532,0.893,-0.911,0.0
19.387,0.799,-0.925,0.0
17.443,0.714,-0.927,0.0
32.697,1.326,-0.821,0.0
28.474,1.147,-0.868,0.0
24.706,0.989,-0.886,0.0
22.05,0.876,-0.912,0.0
19.911,0.786,-0.93,0.0
17.881,0.701,-0.932,0.0
33.271,1.292,-0.803,0.0
29.758,1.147,-0.877,0.0
25.137,0.962,-0.876,1.0
22.434,0.853,-0.905,0.0
20.071,0.757,-0.917,0.0
18.106,0.678,-0.925,0.0
35.248,1.308,-0.814,0.0
30.091,1.108,-0.856,1.0
26.108,0.955,-0.883,0.0
22.86,0.83,-0.898,0.0
20.567,0.741,-0.918,0.0
18.495,0.661,-0.925,0.0
35.993,1.275,-0.792,1.0
30.413,1.069,-0.832,0.0
26.636,0.928,-0.871,0.0
23.555,0.815,-0.899,0.0
20.893,0.717,-0.909,0.0
18.856,0.642,-0.922,0.0
37.692,1.27,-0.788,0.0
32.371,1.082,-0.849,1.0
28.252,0.937,-0.892,0.0
24.166,0.795,-0.895,0.0
21.623,0.705,-0.916,0.0
19.465,0.63,-0.929,0.0
38.801,1.243,-0.766,0.0
32.92,1.045,-0.826,0.0
28.87,0.909,-0.878,0.0
24.862,0.776,-0.892,0.0
22.135,0.685,-0.912,0.0
19.883,0.61,-0.925,0.0
0.0,0.0,0.0,0.0
34.507,1.039,-0.825,0.0
29.791,0.889,-0.871,0.0
25.677,0.759,-0.89,0.0
22.58,0.661,-0.903,0.0
20.342,0.591,-0.922,0.0
0.0,0.0,0.0,0.0
35.859,1.02,-0.813,0.0
31.002,0.874,-0.868,1.0
26.356,0.736,-0.881,0.0
23.173,0.641,-0.898,0.0
20.777,0.569,-0.916,0.0
0.0,0.0,0.0,0.0
37.081,0.995,-0.794,0.0
31.973,0.849,-0.855,1.0
27.395,0.721,-0.881,0.0
24.035,0.626,-0.901,0.0
21.362,0.55,-0.914,0.0
0.0,0.0,0.0,0.0
38.581,0.973,-0.777,0.0
32.738,0.817,-0.833,0.0
28.675,0.708,-0.885,0.0
24.768,0.605,-0.896,0.0
22.193,0.536,-0.92,0.0
0.0,0.0,0.0,0.0
0.0,0.0,0.0,0.0
34.955,0.817,-0.843,0.0
28.997,0.67,-0.856,0.0
25.829,0.59,-0.899,0.0
22.661,0.512,-0.909,0.0
0.0,0.0,0.0,0.0
0.0,0.0,0.0,0.0
35.924,0.783,-0.817,0.0
31.109,0.67,-0.876,1.0
26.496,0.564,-0.886,0.0
23.348,0.491,-0.905,0.0
0.0,0.0,0.0,0.0
0.0,0.0,0.0,0.0
37.313,0.756,-0.797,0.0
32.098,0.642,-0.858,1.0
27.747,0.548,-0.889,0.0
24.34,0.474,-0.908,0.0
0.0,0.0,0.0,0.0
0.0,0.0,0.0,0.0
0.0,0.0,0.0,0.0
34.075,0.629,-0.862,2.0
28.999,0.528,-0.887,0.0
25.154,0.452,-0.902,0.0
0.0,0.0,0.0,0.0
0.0,0.0,0.0,0.0
0.0,0.0,0.0,0.0
34.397,0.583,-0.819,0.0
30.135,0.503,-0.877,0.0
26.083,0.429,-0.896,0.0
0.0,0.0,0.0,0.0
0.0,0.0,0.0,0.0
0.0,0.0,0.0,0.0
37.23,0.575,-0.831,0.0
31.645,0.482,-0.873,1.0
20.227,0.303,-0.665,2.0
0.0,0.0,0.0,0.0
0.0,0.0,0.0,0.0
0.0,0.0,0.0,0.0
20.198,0.282,-0.42,6.0
20.212,0.278,-0.527,24.0
20.203,0.273,-0.633,25.0
0.0,0.0,0.0,0.0
0.0,0.0,0.0,0.0
20.196,0.258,-0.28,11.0
20.176,0.253,-0.388,24.0
20.174,0.248,-0.494,22.0
20.193,0.244,-0.6,32.0
0.0,0.0,0.0,0.0
20.203,0.234,-0.142,0.0
20.198,0.229,-0.248,22.0
20.166,0.224,-0.356,29.0
20.189,0.22,-0.462,25.0
20.192,0.215,-0.568,33.0
20.342,0.212,-0.004,25.0
20.219,0.206,-0.11,7.0
20.16,0.201,-0.215,19.0
20.182,0.197,-0.324,32.0
20.183,0.192,-0.429,34.0
20.19,0.188,-0.535,25.0
20.304,0.184,0.028,30.0
20.208,0.178,-0.077,20.0
20.169,0.173,-0.182,18.0
20.168,0.169,-0.29,33.0
20.19,0.164,-0.396,26.0
20.208,0.16,-0.502,20.0
20.221,0.156,0.061,28.0
20.193,0.151,-0.043,25.0
20.165,0.146,-0.149,36.0
20.177,0.142,-0.256,30.0
20.207,0.137,-0.362,26.0
20.163,0.133,-0.467,0.0
20.194,0.128,0.095,37.0
20.177,0.124,-0.009,27.0
20.179,0.119,-0.114,35.0
20.177,0.115,-0.222,25.0
20.199,0.111,-0.328,15.0
0.0,0.0,0.0,0.0
20.161,0.102,0.129,26.0
20.199,0.098,0.024,32.0
20.19,0.094,-0.08,29.0
20.192,0.089,-0.187,25.0
20.235,0.085,-0.293,0.0
40.715,0.164,-0.804,0.0
20.156,0.077,0.164,31.0
20.198,0.073,0.059,29.0
20.202,0.068,-0.045,28.0
20.219,0.064,-0.152,24.0
20.238,0.06,-0.258,1.0
20.237,0.056,-0.363,3.0
20.143,0.051,0.2,29.0
20.14,0.047,0.095,29.0
20.261,0.044,-0.009,150.0
20.262,0.039,-0.117,151.0
20.258,0.036,-0.222,151.0
20.268,0.031,-0.328,150.0
20.135,0.027,0.235,29.0
20.13,0.023,0.13,28.0
20.265,0.019,0.026,151.0
20.256,0.015,-0.081,150.0
20.246,0.011,-0.186,43.0
20.236,0.008,-0.291,8.0
20.132,0.004,0.271,27.0
20.119,0.0,0.166,28.0
20.136,-0.003,0.062,29.0
20.124,-0.007,-0.044,18.0
20.179,-0.011,-0.149,25.0
20.16,-0.015,-0.253,16.0
20.125,-0.018,0.308,31.0
20.122,-0.022,0.203,36.0
20.122,-0.026,0.098,37.0
20.123,-0.03,-0.007,34.0
20.139,-0.033,-0.112,33.0
20.135,-0.037,-0.216,13.0
20.115,-0.041,0.344,34.0
20.123,-0.045,0.24,29.0
20.126,-0.048,0.136,30.0
20.128,-0.052,0.03,35.0
20.14,-0.056,-0.074,32.0
20.142,-0.059,-0.178,35.0
20.109,-0.063,0.382,35.0
20.117,-0.066,0.278,26.0
20.117,-0.07,0.173,27.0
20.135,-0.073,0.067,39.0
20.121,-0.077,-0.036,28.0
20.141,-0.08,-0.141,34.0
20.114,-0.084,0.42,29.0
20.12,-0.087,0.315,28.0
20.119,-0.091,0.211,23.0
20.134,-0.094,0.105,28.0
20.138,-0.097,0.001,27.0
20.142,-0.101,-0.103,26.0
20.116,-0.104,0.458,19.0
20.115,-0.107,0.353,18.0
20.121,-0.111,0.249,17.0
20.112,-0.114,0.143,18.0
20.151,-0.117,0.039,28.0
20.172,-0.121,-0.064,22.0
20.163,-0.124,0.497,17.0
20.179,-0.128,0.393,18.0
20.171,-0.131,0.289,17.0
20.171,-0.134,0.182,17.0
20.16,-0.137,0.078,13.0
20.184,-0.14,-0.025,16.0
20.191,-0.144,0.537,6.0
20.226,-0.147,0.433,29.0
20.256,-0.15,0.329,18.0
58.3,-0.442,0.641,13.0
66.52,-0.514,0.387,13.0
56.276,-0.443,0.037,1.0
53.493,-0.43,1.527,47.0
20.151,-0.165,0.471,10.0
53.489,-0.445,0.973,11.0
64.349,-0.545,0.831,32.0
53.377,-0.459,0.414,9.0
53.351,-0.467,0.138,5.0
53.505,-0.477,1.631,79.0
20.134,-0.182,0.509,14.0
20.168,-0.185,0.406,24.0
53.394,-0.497,0.793,10.0
64.324,-0.608,0.624,30.0
56.181,-0.539,0.255,10.0
53.509,-0.522,1.735,59.0
20.164,-0.199,0.549,8.0
20.127,-0.201,0.444,16.0
20.149,-0.204,0.339,13.0
64.351,-0.661,0.751,30.0
64.371,-0.669,0.419,12.0
53.451,-0.564,1.838,14.0
53.483,-0.571,1.563,37.0
20.13,-0.217,0.484,12.0
20.132,-0.219,0.378,10.0
20.145,-0.222,0.274,9.0
20.161,-0.225,0.171,2.0
58.329,-0.66,2.121,166.0
53.504,-0.611,1.669,70.0
53.508,-0.618,1.393,8.0
20.129,-0.234,0.418,11.0
20.126,-0.237,0.314,11.0
20.146,-0.239,0.21,10.0
58.243,-0.702,2.235,255.0
53.503,-0.65,1.776,82.0
53.489,-0.656,1.499,73.0
20.139,-0.249,0.458,9.0
20.126,-0.251,0.354,13.0
20.118,-0.253,0.25,11.0
58.284,-0.743,2.352,255.0
53.543,-0.687,1.883,151.0
53.488,-0.692,1.605,106.0
59.411,-0.775,1.471,15.0
20.133,-0.264,0.394,9.0
20.127,-0.266,0.29,11.0
58.418,-0.783,2.474,155.0
58.455,-0.789,2.174,150.0
53.498,-0.726,1.713,63.0
59.401,-0.812,1.589,59.0
53.525,-0.737,1.156,8.0
20.136,-0.279,0.331,9.0
58.855,-0.825,2.611,47.0
58.869,-0.83,2.308,102.0
53.508,-0.759,1.821,91.0
59.416,-0.848,1.709,11.0
59.466,-0.854,1.404,9.0
20.153,-0.291,0.372,6.0
46.048,-0.672,2.136,53.0
59.075,-0.867,2.434,79.0
59.289,-0.875,2.137,48.0
53.487,-0.793,1.645,67.0
59.495,-0.887,1.523,26.0
53.513,-0.802,1.095,57.0
52.887,-0.8,2.559,9.0
64.278,-0.977,2.778,14.0
59.225,-0.905,2.253,77.0
53.508,-0.821,1.755,47.0
64.358,-0.992,1.778,13.0
59.515,-0.922,1.338,5.0
45.638,-0.714,2.3,48.0
45.993,-0.722,2.08,49.0
59.185,-0.933,2.371,75.0
64.286,-1.018,2.237,20.0
64.302,-1.021,1.905,63.0
176.605,-2.817,4.323,31.0
59.006,-0.95,3.092,7.0
45.768,-0.739,2.161,44.0
59.263,-0.961,2.493,16.0
59.307,-0.964,2.182,29.0
64.286,-1.049,2.033,78.0
64.323,-1.053,1.703,45.0
28.359,-0.468,1.543,59.0
45.649,-0.756,2.248,66.0
45.938,-0.763,2.025,16.0
59.227,-0.987,2.299,42.0
64.278,-1.075,2.164,81.0
64.306,-1.078,1.833,74.0
28.358,-0.479,1.6,79.0
45.678,-0.774,2.341,17.0
45.778,-0.778,2.109,40.0
59.265,-1.01,2.419,18.0
64.284,-1.097,2.292,78.0
64.304,-1.1,1.961,74.0
28.361,-0.489,1.658,83.0
28.366,-0.49,1.511,57.0
45.687,-0.791,2.197,72.0
45.83,-0.796,1.962,30.0
64.295,-1.118,2.421,28.0
64.293,-1.12,2.089,76.0
28.362,-0.498,1.714,76.0
28.368,-0.499,1.568,68.0
45.683,-0.805,2.289,37.0
45.738,-0.807,2.051,47.0
45.896,-0.811,1.821,35.0
64.292,-1.137,2.218,60.0
28.347,-0.506,1.771,77.0
28.364,-0.506,1.625,70.0
28.354,-0.507,1.477,51.0
45.698,-0.818,2.14,68.0
45.803,-0.82,1.908,36.0
64.285,-1.153,2.347,13.0
28.355,-0.512,1.828,76.0
28.348,-0.513,1.681,68.0
28.377,-0.513,1.535,61.0
45.687,-0.827,2.231,53.0
45.738,-0.828,1.997,38.0
45.825,-0.83,1.764,33.0
28.345,-0.518,1.884,79.0
28.349,-0.518,1.737,69.0
28.362,-0.518,1.591,68.0
45.729,-0.836,2.324,8.0
45.707,-0.836,2.086,62.0
45.803,-0.837,1.854,41.0
28.348,-0.522,1.941,77.0
28.35,-0.522,1.794,71.0
28.359,-0.522,1.647,68.0
28.36,-0.522,1.498,57.0
45.696,-0.841,2.177,70.0
45.757,-0.842,1.943,43.0
28.339,-0.525,1.997,78.0
28.348,-0.525,1.85,73.0
28.352,-0.525,1.703,67.0
28.36,-0.525,1.554,66.0
59.388,-1.098,2.945,8.0
45.721,-0.845,2.031,46.0
28.354,-0.528,2.054,77.0
28.353,-0.527,1.906,74.0
28.338,-0.526,1.758,72.0
28.359,-0.526,1.609,69.0
28.363,-0.526,1.462,40.0
45.72,-0.847,2.119,75.0
28.354,-0.529,2.109,77.0
28.355,-0.528,1.961,72.0
28.348,-0.527,1.813,73.0
28.356,-0.526,1.663,69.0
28.366,-0.526,1.517,63.0
45.697,-0.846,2.207,53.0
28.353,-0.529,2.164,75.0
28.343,-0.528,2.015,73.0
28.345,-0.527,1.868,72.0
28.353,-0.526,1.718,69.0
28.369,-0.525,1.572,70.0
59.41,-1.098,2.983,10.0
28.359,-0.528,2.219,75.0
28.346,-0.527,2.07,71.0
28.349,-0.525,1.923,70.0
28.346,-0.524,1.772,71.0
28.36,-0.523,1.625,70.0
28.373,-0.522,1.478,51.0
28.356,-0.526,2.273,69.0
28.347,-0.524,2.124,72.0
28.345,-0.523,1.976,73.0
28.344,-0.521,1.826,71.0
28.356,-0.52,1.679,69.0
28.371,-0.519,1.532,64.0
28.352,-0.523,2.327,60.0
28.341,-0.521,2.178,68.0
28.338,-0.519,2.03,72.0
28.35,-0.518,1.88,74.0
28.359,-0.517,1.732,70.0
28.359,-0.515,1.585,70.0
31.308,-0.572,2.629,36.0
28.344,-0.517,2.232,56.0
28.349,-0.515,2.084,71.0
28.343,-0.513,1.932,73.0
28.349,-0.511,1.785,76.0
28.356,-0.51,1.638,70.0
40.441,-0.732,3.473,3.0
31.383,-0.566,2.53,11.0
28.346,-0.509,2.136,47.0
28.338,-0.507,1.984,72.0
28.353,-0.505,1.838,76.0
28.353,-0.503,1.69,70.0
40.421,-0.723,3.545,18.0
31.329,-0.558,2.583,49.0
28.332,-0.502,2.188,9.0
28.318,-0.5,2.035,35.0
28.344,-0.498,1.889,70.0
28.351,-0.496,1.741,73.0
55.847,-0.985,5.001,4.0
31.308,-0.549,2.639,65.0
61.585,-1.076,4.867,1.0
54.039,-0.939,3.982,17.0
38.637,-0.668,2.645,10.0
28.339,-0.488,1.791,57.0
43.176,-0.749,3.944,5.0
31.271,-0.539,2.692,38.0
31.366,-0.538,2.535,2.0
54.082,-0.923,4.082,35.0
53.852,-0.914,3.782,26.0
51.868,-0.876,3.372,18.0
37.778,-0.642,3.519,4.0
40.423,-0.683,3.552,13.0
31.319,-0.526,2.587,32.0
54.146,-0.905,4.183,10.0
53.969,-0.897,3.887,28.0
38.62,-0.638,2.578,57.0
37.721,-0.627,3.581,36.0
48.096,-0.795,4.312,3.0
31.321,-0.514,2.642,54.0
69.557,-1.136,5.496,7.0
54.029,-0.877,3.985,49.0
38.633,-0.623,2.646,52.0
37.681,-0.612,3.643,30.0
43.116,-0.695,3.941,3.0
31.27,-0.501,2.693,56.0
38.595,-0.614,3.116,16.0
58.539,-0.925,4.419,10.0
68.3,-1.072,4.796,9.0
37.649,-0.595,3.704,66.0
28.292,-0.444,2.634,6.0
31.236,-0.486,2.743,23.0
38.56,-0.596,3.179,40.0
38.607,-0.592,2.98,44.0
68.34,-1.04,4.916,9.0
37.637,-0.577,3.769,65.0
28.326,-0.43,2.686,4.0
31.212,-0.471,2.794,1.0
38.559,-0.577,3.245,21.0
38.583,-0.572,3.043,69.0
38.646,-0.569,2.844,34.0
37.645,-0.558,3.833,61.0
37.674,-0.554,3.636,5.0
43.189,-0.629,3.939,3.0
31.225,-0.451,2.679,44.0
38.557,-0.552,3.105,59.0
38.646,-0.548,2.908,93.0
37.639,-0.538,3.894,49.0
43.661,-0.618,4.285,0.0
43.449,-0.609,4.033,9.0
31.192,-0.433,2.727,45.0
38.547,-0.53,3.166,50.0
38.629,-0.526,2.968,59.0
37.667,-0.517,3.958,21.0
55.099,-0.749,5.497,5.0
54.528,-0.733,5.15,13.0
31.169,-0.415,2.774,46.0
38.552,-0.508,3.227,40.0
38.623,-0.504,3.028,7.0
31.842,-0.418,3.396,42.0
46.276,-0.601,4.689,0.0
54.26,-0.697,5.208,51.0
31.179,-0.396,2.824,22.0
54.281,-0.682,4.628,8.0
47.034,-0.585,3.761,33.0
31.858,-0.398,3.447,65.0
54.218,-0.67,5.577,39.0
54.289,-0.663,5.294,13.0
54.279,-0.655,4.999,9.0
38.63,-0.46,3.352,10.0
47.017,-0.554,3.83,34.0
31.852,-0.377,3.495,44.0
43.281,-0.506,4.518,4.0
54.772,-0.633,5.425,6.0
54.453,-0.62,5.097,20.0
38.666,-0.435,3.413,5.0
60.969,-0.677,5.058,11.0
31.841,-0.355,3.542,34.0
45.881,-0.505,4.858,4.0
54.758,-0.594,5.505,6.0
54.335,-0.581,5.166,15.0
31.152,-0.328,2.795,46.0
38.566,-0.401,3.255,53.0
52.611,-0.549,5.929,6.0
31.857,-0.327,3.419,27.0
43.394,-0.439,4.425,2.0
47.257,-0.471,4.561,30.0
31.12,-0.305,2.837,43.0
38.579,-0.372,3.311,58.0
39.853,-0.386,4.549,4.0
31.848,-0.303,3.464,58.0
47.306,-0.443,4.891,29.0
52.254,-0.48,5.118,7.0
31.095,-0.281,2.879,38.0
38.609,-0.343,3.368,51.0
47.593,-0.424,5.5,26.0
31.86,-0.278,3.51,56.0
52.209,-0.447,5.471,56.0
47.028,-0.396,4.671,56.0
31.088,-0.256,2.921,28.0
38.638,-0.312,3.423,25.0
46.431,-0.376,5.429,6.0
31.843,-0.253,3.552,52.0
47.068,-0.366,4.996,51.0
47.045,-0.357,4.735,5.0
38.86,-0.288,3.703,21.0
38.773,-0.281,3.487,8.0
47.243,-0.344,5.588,12.0
31.851,-0.226,3.595,52.0
38.882,-0.269,4.178,60.0
38.889,-0.263,3.965,48.0
38.85,-0.255,3.752,45.0
51.316,-0.329,4.68,16.0
38.717,-0.249,4.629,10.0
31.871,-0.199,3.638,51.0
39.055,-0.237,4.246,33.0
38.932,-0.229,4.019,52.0
38.892,-0.222,3.805,24.0
31.075,-0.172,2.873,27.0
38.662,-0.214,4.671,38.0
31.891,-0.171,3.68,51.0
39.077,-0.203,4.297,54.0
45.966,-0.23,4.801,3.0
42.829,-0.207,4.242,1.0
31.05,-0.144,2.908,36.0
39.275,-0.183,4.793,2.0
31.939,-0.142,3.724,58.0
39.114,-0.167,4.349,21.0
51.27,-0.21,5.417,11.0
51.643,-0.202,5.176,26.0
31.034,-0.116,2.943,39.0
39.217,-0.146,4.833,19.0
31.947,-0.113,3.763,70.0
51.249,-0.172,5.757,11.0
42.776,-0.136,4.568,6.0
52.266,-0.156,5.299,21.0
31.02,-0.086,2.977,51.0
31.962,-0.089,3.975,70.0
31.953,-0.083,3.799,68.0
37.143,-0.089,4.214,13.0
36.712,-0.081,3.961,4.0
45.953,-0.093,4.709,6.0
30.99,-0.057,3.008,53.0
31.968,-0.058,4.011,69.0
31.96,-0.052,3.835,31.0
52.216,-0.075,5.98,35.0
36.069,-0.045,3.93,12.0
51.675,-0.056,5.35,9.0
30.952,-0.027,3.036,39.0
36.43,-0.031,4.609,2.0
39.637,-0.026,4.797,8.0
36.506,-0.017,4.218,9.0
42.546,-0.012,4.68,8.0
30.778,-0.003,3.218,24.0
30.913,0.003,3.064,40.0
45.681,0.006,5.826,5.0
36.286,0.012,4.428,12.0
39.763,0.021,4.635,9.0
42.53,0.031,4.721,3.0
30.735,0.028,3.243,18.0
30.877,0.034,3.09,40.0
36.28,0.042,4.662,4.0
36.051,0.048,4.434,5.0
39.617,0.061,4.656,3.0
39.8,0.069,4.455,3.0
30.695,0.059,3.268,51.0
30.86,0.066,3.117,32.0
0.0,0.0,0.0,0.0
33.075,0.079,4.099,10.0
53.42,0.138,6.327,23.0
30.461,0.085,3.437,27.0
30.674,0.091,3.293,52.0
30.908,0.098,3.149,18.0
0.0,0.0,0.0,0.0
32.96,0.113,4.114,2.0
30.473,0.11,3.635,4.0
30.441,0.116,3.461,38.0
30.618,0.123,3.313,14.0
30.918,0.131,3.176,2.0
39.32,0.169,5.158,3.0
51.921,0.234,6.524,22.0
30.476,0.143,3.661,67.0
30.474,0.149,3.49,25.0
37.038,0.188,4.038,4.0
40.037,0.212,4.145,2.0
30.418,0.164,4.015,42.0
30.409,0.17,3.845,17.0
30.465,0.176,3.683,55.0
30.453,0.182,3.511,37.0
42.556,0.263,4.672,1.0
30.987,0.197,3.232,1.0
30.378,0.197,4.032,54.0
30.406,0.203,3.867,68.0
30.429,0.209,3.702,6.0
30.531,0.216,3.542,0.0
42.564,0.309,4.704,2.0
30.936,0.231,3.248,6.0
30.369,0.23,4.053,16.0
30.412,0.236,3.89,57.0
42.127,0.336,5.154,4.0
52.661,0.43,6.146,21.0
40.345,0.338,4.486,6.0
30.944,0.265,3.27,12.0
33.137,0.288,4.445,10.0
30.421,0.27,3.911,21.0
42.129,0.383,5.182,2.0
52.149,0.484,6.12,4.0
40.343,0.383,4.511,3.0
30.966,0.3,3.292,30.0
22.786,0.224,3.071,2.0
30.438,0.305,3.932,19.0
47.879,0.489,5.918,2.0
51.053,0.532,6.022,10.0
30.972,0.328,3.481,35.0
30.948,0.334,3.308,44.0
48.695,0.534,6.591,5.0
30.464,0.34,3.953,17.0
47.921,0.544,5.951,4.0
50.931,0.588,6.036,4.0
31.036,0.364,3.506,59.0
30.962,0.37,3.326,28.0
51.741,0.627,7.031,3.0
39.311,0.484,5.122,4.0
53.961,0.674,6.729,39.0
31.044,0.394,3.695,8.0
31.031,0.4,3.521,15.0
30.953,0.405,3.34,1.0
53.931,0.715,7.355,5.0
39.281,0.528,5.137,3.0
52.172,0.712,6.53,7.0
31.06,0.43,3.711,62.0
46.663,0.655,5.316,20.0
46.267,0.658,5.013,5.0
51.716,0.746,7.076,4.0
30.465,0.445,3.997,4.0
47.957,0.71,6.023,2.0
31.07,0.466,3.725,53.0
46.894,0.713,5.361,6.0
46.254,0.712,5.031,6.0
31.001,0.483,4.254,13.0
35.803,0.565,4.711,3.0
31.059,0.496,3.913,8.0
31.078,0.502,3.738,7.0
52.257,0.854,5.993,7.0
37.044,0.612,4.042,3.0
53.808,0.901,7.402,3.0
31.002,0.525,4.09,12.0
31.059,0.532,3.923,44.0
46.399,0.803,5.596,10.0
46.963,0.822,5.401,4.0
46.19,0.818,5.054,7.0
35.533,0.637,4.899,1.0
31.034,0.562,4.104,9.0
31.066,0.568,3.933,29.0
46.77,0.864,5.654,5.0
36.131,0.674,4.165,2.0
46.193,0.871,5.067,9.0
31.091,0.593,4.295,41.0
31.071,0.598,4.116,48.0
31.057,0.604,3.939,27.0
47.518,0.933,5.755,3.0
36.16,0.717,4.176,1.0
52.492,1.05,5.769,6.0
31.054,0.629,4.296,7.0
31.051,0.634,4.12,24.0
31.118,0.641,3.953,6.0
47.539,0.989,5.766,5.0
52.556,1.103,6.08,24.0
46.282,0.98,5.094,8.0
53.066,1.137,7.35,24.0
31.077,0.671,4.128,24.0
46.424,1.01,5.905,7.0
52.555,1.154,6.382,20.0
52.425,1.16,6.072,7.0
46.736,1.043,5.15,10.0
40.4,0.912,5.601,4.0
31.092,0.707,4.134,23.0
46.469,1.066,5.915,5.0
47.517,1.098,5.775,12.0
47.465,1.106,5.501,9.0
46.539,1.093,5.132,40.0
30.659,0.728,4.252,5.0
33.617,0.804,4.472,4.0
54.336,1.309,6.919,4.0
60.012,1.457,7.297,16.0
46.662,1.14,5.41,8.0
46.338,1.141,5.111,4.0
30.484,0.759,4.229,6.0
33.615,0.843,4.472,1.0
47.784,1.207,6.085,8.0
58.738,1.493,7.142,13.0
58.508,1.498,6.783,15.0
48.194,1.242,5.316,4.0
30.513,0.795,4.232,22.0
39.37,1.033,5.236,10.0
47.967,1.267,6.107,7.0
46.637,1.24,5.668,29.0
55.738,1.491,6.459,4.0
48.232,1.299,5.317,2.0
30.52,0.831,4.231,24.0
46.571,1.276,6.19,9.0
46.656,1.286,5.936,39.0
47.179,1.308,5.73,5.0
46.736,1.304,5.411,1.0
48.311,1.356,5.32,2.0
30.506,0.865,4.225,15.0
46.66,1.332,6.197,26.0
59.286,1.701,7.536,16.0
59.286,1.711,7.192,21.0
59.213,1.719,6.847,8.0
58.599,1.711,6.445,17.0
46.754,1.379,6.469,18.0
39.371,1.168,5.222,7.0
52.17,1.555,6.622,2.0
47.365,1.42,5.737,7.0
59.816,1.803,6.906,10.0
58.496,1.773,6.422,28.0
30.42,0.931,4.202,1.0
39.273,1.208,5.2,4.0
52.479,1.623,6.65,24.0
60.323,1.875,7.293,24.0
59.466,1.857,6.852,23.0
46.645,1.464,5.11,25.0
30.399,0.964,4.192,1.0
39.321,1.253,5.197,3.0
39.371,1.261,4.978,4.0
59.341,1.91,7.158,5.0
59.273,1.917,6.813,7.0
37.13,1.207,4.057,5.0
46.524,1.527,6.402,6.0
54.312,1.792,7.161,1.0
39.392,1.305,4.968,4.0
58.96,1.961,7.094,15.0
46.687,1.561,5.351,26.0
46.717,1.568,5.089,3.0
46.498,1.577,6.382,3.0
59.151,2.015,7.779,17.0
46.894,1.604,5.898,16.0
53.353,1.833,6.4,2.0
46.691,1.611,5.334,11.0
46.949,1.627,5.096,5.0
60.921,2.132,8.338,1.0
58.798,2.067,7.709,3.0
46.972,1.657,5.889,3.0
46.86,1.66,5.602,3.0
46.715,1.661,5.317,8.0
46.753,1.67,5.055,2.0
46.702,1.685,6.371,1.0
60.19,2.18,7.865,5.0
47.166,1.714,5.892,3.0
46.727,1.705,5.564,12.0
46.611,1.707,5.284,10.0
46.83,1.722,5.042,5.0
46.653,1.732,6.342,1.0
60.538,2.256,7.881,2.0
47.727,1.784,5.939,7.0
52.636,1.974,6.242,4.0
46.724,1.759,5.273,11.0
60.128,2.272,6.443,11.0
39.431,1.504,5.34,4.0
60.503,2.316,7.844,2.0
46.899,1.801,5.81,15.0
60.382,2.327,7.128,23.0
46.684,1.805,5.243,5.0
46.744,1.813,4.983,6.0
39.419,1.544,5.315,4.0
60.52,2.378,7.811,2.0
46.795,1.845,5.77,13.0
59.751,2.363,7.018,1.0
59.074,2.343,6.6,7.0
46.807,1.863,4.961,6.0
46.949,1.886,6.302,3.0
60.512,2.437,7.773,2.0
46.799,1.891,5.741,1.0
59.818,2.424,6.989,17.0
46.514,1.89,5.168,3.0
46.611,1.899,4.912,8.0
30.323,1.247,4.05,2.0
46.819,1.931,5.983,19.0
52.607,2.176,6.419,4.0
59.406,2.463,6.901,21.0
46.374,1.928,5.121,13.0
46.7,1.947,4.889,7.0
38.864,1.635,5.164,2.0
46.863,1.977,5.956,2.0
39.346,1.664,4.774,2.0
59.131,2.507,6.828,7.0
46.311,1.969,5.081,12.0
46.888,1.998,4.876,5.0
46.558,2.002,6.153,13.0
47.361,2.041,5.985,1.0
59.484,2.57,7.173,4.0
58.908,2.551,6.758,4.0
46.282,2.01,5.043,9.0
46.974,2.045,4.849,6.0
46.789,2.055,6.147,11.0
52.602,2.315,6.606,3.0
60.046,2.648,7.193,7.0
0.0,0.0,0.0,0.0
46.364,2.054,5.015,9.0
47.025,2.088,4.817,2.0
46.753,2.094,6.104,1.0
60.514,2.716,7.55,2.0
61.177,2.752,7.278,5.0
47.061,2.121,5.322,4.0
59.919,2.707,6.431,10.0
45.888,2.077,4.662,1.0
52.493,2.397,6.808,3.0
47.929,2.192,5.938,0.0
0.0,0.0,0.0,0.0
46.976,2.157,5.272,7.0
59.761,2.75,6.362,3.0
45.808,2.112,4.613,3.0
46.981,2.184,6.051,0.0
0.0,0.0,0.0,0.0
47.687,2.225,5.589,0.0
46.728,2.184,5.201,10.0
47.013,2.202,4.962,2.0
59.216,2.779,5.909,9.0
47.029,2.225,6.013,1.0
46.749,2.215,5.705,1.0
47.591,2.259,5.532,1.0
46.347,2.204,5.115,8.0
46.957,2.236,4.911,2.0
45.759,2.183,4.522,4.0
47.378,2.279,6.011,3.0
46.674,2.248,5.65,1.0
60.324,2.91,6.953,0.0
46.238,2.234,5.057,11.0
60.927,2.949,6.311,7.0
45.723,2.217,4.473,4.0
47.099,2.301,5.927,1.0
46.707,2.285,5.606,2.0
59.664,2.924,6.815,8.0
46.187,2.266,5.004,7.0
46.79,2.299,4.799,5.0
43.42,2.136,4.203,3.0
47.042,2.332,5.871,0.0
46.707,2.318,5.557,1.0
60.265,2.995,6.821,6.0
66.462,3.308,7.13,2.0
46.669,2.326,4.737,2.0
45.963,2.294,4.4,5.0
0.0,0.0,0.0,0.0
60.394,3.04,7.12,1.0
47.008,2.369,5.269,5.0
60.613,3.058,6.436,2.0
60.816,3.072,6.106,1.0
45.953,2.324,4.348,7.0
0.0,0.0,0.0,0.0
60.39,3.079,7.052,7.0
46.733,2.385,5.185,2.0
46.557,2.379,4.891,3.0
45.668,2.336,4.534,4.0
45.95,2.353,4.296,5.0
60.444,3.117,7.34,2.0
60.377,3.117,6.981,1.0
46.265,2.39,5.08,8.0
46.829,2.421,4.866,4.0
45.618,2.361,4.476,6.0
45.987,2.383,4.246,7.0
60.587,3.161,7.286,0.0
47.365,2.473,5.42,2.0
46.272,2.417,5.026,16.0
46.742,2.444,4.801,2.0
45.79,2.397,4.438,4.0
45.962,2.408,4.189,6.0
60.416,3.186,7.192,1.0
47.099,2.486,5.332,4.0
46.396,2.45,4.982,6.0
52.363,2.767,5.314,2.0
45.911,2.428,4.393,8.0
45.945,2.432,4.131,7.0
46.676,2.486,5.498,1.0
46.997,2.505,5.262,1.0
46.501,2.48,4.936,3.0
45.715,2.44,4.583,1.0
45.845,2.448,4.33,3.0
45.971,2.456,4.076,3.0
47.42,2.55,5.525,1.0
46.096,2.48,5.102,4.0
47.0,2.53,4.929,3.0
43.442,2.339,4.299,1.0
45.64,2.459,4.253,2.0
47.025,2.535,4.109,11.0
47.535,2.578,5.476,0.0
45.903,2.491,5.021,20.0
52.451,2.847,5.432,1.0
45.576,2.474,4.451,2.0
45.67,2.481,4.195,2.0
47.278,2.569,4.069,10.0
46.315,2.532,5.274,6.0
46.36,2.535,5.009,9.0
52.436,2.868,5.36,1.0
45.63,2.496,4.395,19.0
45.821,2.508,4.147,4.0
47.296,2.59,4.007,7.0
47.201,2.599,5.311,0.0
46.678,2.571,4.98,5.0
45.697,2.517,4.61,1.0
45.849,2.526,4.354,6.0
45.919,2.53,4.094,4.0
47.333,2.609,3.946,5.0
0.0,0.0,0.0,0.0
0.0,0.0,0.0,0.0
43.461,2.409,4.324,1.0
45.884,2.543,4.293,1.0
0.0,0.0,0.0,0.0
47.256,2.62,3.874,7.0
46.257,2.578,5.075,4.0
47.093,2.625,4.892,4.0
45.687,2.547,4.48,2.0
45.916,2.56,3.965,3.0
47.224,2.633,3.804,4.0
46.288,2.594,5.012,8.0
45.767,2.564,4.423,18.0
45.159,2.529,4.097,1.0
0.0,0.0,0.0,0.0
47.353,2.652,3.747,1.0
46.431,2.613,4.96,3.0
45.903,2.582,4.368,4.0
45.87,2.58,4.094,4.0
47.182,2.653,3.938,1.0
47.172,2.653,3.663,3.0
46.255,2.613,4.871,3.0
45.664,2.579,4.543,6.0
45.947,2.594,4.303,2.0
0.0,0.0,0.0,0.0
47.282,2.668,3.875,3.0
47.308,2.669,3.602,17.0
46.422,2.63,4.819,2.0
45.6,2.583,4.467,8.0
45.999,2.603,3.967,4.0
47.209,2.671,3.797,4.0
47.486,2.686,3.545,10.0
45.782,2.599,4.416,12.0
46.031,2.61,3.899,3.0
47.365,2.685,3.737,3.0
47.697,2.703,3.487,2.0
45.619,2.595,4.595,6.0
45.862,2.607,4.352,1.0
45.85,2.606,4.084,2.0
47.134,2.677,3.92,1.0
47.345,2.688,3.663,35.0
205.945,11.686,14.74,9.0
45.533,2.593,4.515,2.0
45.767,2.605,4.271,1.0
45.932,2.612,4.019,4.0
47.182,2.681,3.85,3.0
47.334,2.688,3.587,28.0
205.921,11.69,14.413,7.0
45.692,2.603,4.458,14.0
45.958,2.614,3.948,4.0
47.22,2.684,3.777,3.0
47.441,2.694,3.52,3.0
206.048,11.694,14.097,9.0
45.76,2.606,4.391,7.0
45.061,2.564,4.062,1.0
45.864,2.607,3.866,1.0
47.378,2.691,3.714,13.0
47.487,2.695,3.447,0.0
206.638,11.718,13.804,15.0
45.859,2.608,4.326,1.0
45.881,2.607,4.061,3.0
47.347,2.685,3.635,42.0
205.807,11.662,14.611,7.0
206.696,11.702,13.476,17.0
46.181,2.619,4.012,6.0
47.161,2.671,3.823,4.0
47.4,2.683,3.563,14.0
205.94,11.644,14.285,9.0
206.603,11.669,13.135,16.0
46.165,2.611,3.935,3.0
47.31,2.673,3.757,2.0
47.859,2.7,3.518,3.0
0.0,0.0,0.0,0.0
206.561,11.632,12.788,7.0
45.861,2.588,4.1,4.0
47.181,2.659,3.942,1.0
47.208,2.657,3.67,4.0
205.899,11.578,14.792,6.0
0.0,0.0,0.0,0.0
0.0,0.0,0.0,0.0
0.0,0.0,0.0,0.0
47.203,2.65,3.865,4.0
47.17,2.644,3.589,2.0
205.682,11.516,14.435,9.0
0.0,0.0,0.0,0.0
195.099,10.896,11.432,23.0
45.863,2.566,3.946,3.0
47.25,2.639,3.79,3.0
242.594,13.532,18.05,20.0
0.0,0.0,0.0,0.0
0.0,0.0,0.0,0.0
195.331,10.849,11.115,24.0
47.196,2.625,3.98,3.0
47.07,2.615,3.696,4.0
47.931,2.658,3.485,1.0
206.887,11.457,13.823,5.0
0.0,0.0,0.0,0.0
194.423,10.733,10.736,19.0
47.205,2.609,3.9,6.0
47.4,2.615,3.64,1.0
47.862,2.637,3.398,1.0
207.059,11.389,13.481,8.0
195.077,10.712,11.569,22.0
194.024,10.638,10.385,26.0
47.168,2.589,3.817,8.0
242.256,13.273,18.194,25.0
53.018,2.9,3.674,0.0
0.0,0.0,0.0,0.0
195.147,10.635,11.238,22.0
193.775,10.541,10.039,21.0
242.285,13.195,19.189,18.0
65.479,3.558,4.805,1.0
0.0,0.0,0.0,0.0
0.0,0.0,0.0,0.0
194.029,10.486,10.845,24.0
193.766,10.454,9.71,21.0
47.297,2.553,3.665,2.0
47.852,2.577,3.429,1.0
0.0,0.0,0.0,0.0
195.05,10.465,11.696,8.0
193.919,10.383,10.506,32.0
193.159,10.322,9.347,24.0
241.908,12.935,18.329,17.0
52.692,2.811,3.685,1.0
0.0,0.0,0.0,0.0
194.97,10.355,11.356,18.0
193.798,10.273,10.165,19.0
192.751,10.195,8.996,24.0
241.842,12.794,17.906,19.0
0.0,0.0,0.0,0.0
0.0,0.0,0.0,0.0
194.446,10.216,10.989,26.0
193.896,10.165,9.837,19.0
192.943,10.093,8.674,11.0
47.831,2.501,3.458,1.0
205.553,10.723,13.666,14.0
205.538,10.698,12.474,14.0
194.224,10.084,10.642,14.0
192.789,9.986,9.448,18.0
192.911,9.97,8.339,19.0
52.752,2.725,3.722,2.0
0.0,0.0,0.0,0.0
195.114,10.029,11.505,16.0
194.136,9.952,10.302,16.0
192.836,9.86,9.117,23.0
192.945,9.841,8.008,13.0
0.0,0.0,0.0,0.0
0.0,0.0,0.0,0.0
195.042,9.888,11.164,27.0
194.034,9.81,9.962,21.0
192.989,9.733,8.792,21.0
193.288,9.722,7.69,17.0
205.943,10.347,13.819,9.0
0.0,0.0,0.0,0.0
195.47,9.766,10.848,28.0
193.029,9.616,9.577,24.0
192.787,9.579,8.451,22.0
192.692,9.548,7.335,21.0
0.0,0.0,0.0,0.0
0.0,0.0,0.0,0.0
194.33,9.559,10.452,18.0
192.845,9.457,9.236,18.0
0.0,0.0,0.0,0.0
192.78,9.397,7.004,23.0
67.206,3.271,4.277,2.0
196.085,9.514,11.344,9.0
194.319,9.397,10.113,18.0
192.561,9.285,8.89,23.0
193.211,9.287,7.805,12.0
193.964,9.294,6.717,24.0
67.258,3.217,4.165,1.0
195.588,9.324,10.98,26.0
194.348,9.233,9.784,23.0
192.752,9.126,8.569,23.0
193.05,9.112,7.467,25.0
193.812,9.117,6.377,15.0
196.208,9.209,11.81,5.0
195.853,9.159,10.656,11.0
193.083,9.0,9.389,23.0
193.029,8.965,8.251,24.0
193.4,8.951,7.149,26.0
193.376,8.918,6.032,24.0
196.225,9.028,11.477,8.0
194.697,8.924,10.261,24.0
193.133,8.822,9.064,23.0
194.027,8.829,7.962,16.0
193.54,8.774,6.826,24.0
193.679,8.749,5.715,15.0
195.709,8.816,11.115,27.0
193.287,8.673,9.86,17.0
193.497,8.648,8.751,16.0
194.592,8.662,7.656,21.0
193.186,8.568,6.488,30.0
195.524,8.638,5.438,10.0
195.078,8.59,10.749,24.0
193.667,8.494,9.551,32.0
193.335,8.445,8.419,22.0
193.872,8.434,7.304,25.0
193.252,8.374,6.166,21.0
193.935,8.369,5.072,7.0
194.07,8.344,10.368,27.0
194.227,8.316,9.253,15.0
195.249,8.323,8.175,5.0
193.708,8.221,6.973,27.0
193.754,8.187,5.857,10.0
192.948,8.12,4.722,4.0
194.156,8.138,10.047,23.0
195.009,8.136,8.965,9.0
195.478,8.12,7.858,9.0
193.389,7.996,6.639,17.0
193.491,7.964,5.528,26.0
196.879,8.066,4.49,5.0
194.324,7.927,9.732,18.0
194.929,7.914,8.638,6.0
195.621,7.903,7.539,9.0
193.151,7.764,6.31,22.0
193.738,7.753,5.215,16.0
196.904,7.841,4.166,5.0
194.566,7.71,9.422,6.0
195.237,7.699,8.329,17.0
0.0,0.0,0.0,0.0
193.378,7.548,6.002,7.0
195.032,7.573,4.929,10.0
195.012,7.533,3.806,6.0
104.708,4.024,4.899,1.0
197.815,7.561,8.115,6.0
193.789,7.368,6.834,21.0
0.0,0.0,0.0,0.0
196.837,7.404,4.655,5.0
203.157,7.6,3.635,5.0
196.075,7.292,8.855,7.0
194.694,7.199,7.671,17.0
193.646,7.121,6.514,7.0
194.858,7.125,5.415,8.0
195.01,7.089,4.296,11.0
202.935,7.337,3.306,5.0
196.404,7.056,8.556,18.0
193.792,6.92,7.325,26.0
0.0,0.0,0.0,0.0
195.271,6.891,5.116,8.0
195.295,6.849,3.993,24.0
196.128,6.839,2.885,22.0
0.0,0.0,0.0,0.0
0.0,0.0,0.0,0.0
0.0,0.0,0.0,0.0
195.598,6.646,4.817,8.0
195.163,6.589,3.686,31.0
195.582,6.562,2.572,6.0
193.672,6.449,7.828,22.0
193.378,6.396,6.704,20.0
194.719,6.395,5.63,7.0
194.593,6.35,4.49,17.0
195.376,6.331,3.385,15.0
0.0,0.0,0.0,0.0
193.741,6.187,7.531,20.0
193.266,6.127,6.402,23.0
194.107,6.108,5.314,16.0
193.855,6.058,4.175,28.0
195.168,6.054,3.083,5.0
201.884,6.216,2.031,6.0
193.772,5.917,7.237,21.0
193.044,5.851,6.103,25.0
193.856,5.829,5.014,26.0
193.473,5.774,3.876,26.0
195.333,5.783,2.791,21.0
195.948,5.755,1.676,16.0
193.656,5.638,6.942,9.0
193.463,5.585,5.823,9.0
193.831,5.548,4.721,26.0
193.424,5.49,3.583,21.0
195.399,5.5,2.499,23.0
0.0,0.0,0.0,0.0
193.168,5.338,6.636,20.0
194.551,5.327,5.566,21.0
193.656,5.256,4.429,27.0
193.724,5.211,3.301,8.0
195.01,5.197,2.205,11.0
103.1,2.722,0.574,2.0
0.0,0.0,0.0,0.0
194.292,5.028,5.273,24.0
193.87,4.967,4.149,31.0
195.304,4.954,3.04,20.0
102.996,2.586,1.013,3.0
100.209,2.493,0.412,1.0
195.039,4.795,6.128,5.0
194.321,4.728,4.992,30.0
193.953,4.667,3.869,32.0
195.277,4.652,2.759,22.0
103.046,2.428,0.866,1.0
100.079,2.332,0.268,3.0
194.791,4.485,5.843,11.0
194.275,4.422,4.715,25.0
194.189,4.369,3.6,21.0
0.0,0.0,0.0,0.0
0.0,0.0,0.0,0.0
100.062,2.174,0.128,11.0
194.814,4.174,5.571,22.0
194.407,4.117,4.448,8.0
195.564,4.088,3.355,9.0
103.179,2.129,1.169,4.0
99.971,2.037,0.561,4.0
99.976,2.011,-0.009,6.0
0.0,0.0,0.0,0.0
194.499,3.799,4.182,17.0
0.0,0.0,0.0,0.0
0.0,0.0,0.0,0.0
99.843,1.87,0.424,9.0
100.268,1.85,-0.146,1.0
194.839,3.538,5.042,4.0
194.758,3.484,3.927,21.0
195.115,3.436,2.818,6.0
99.809,1.729,0.861,1.0
99.77,1.702,0.291,5.0
0.0,0.0,0.0,0.0
197.019,3.246,4.837,13.0
194.904,3.156,3.671,28.0
0.0,0.0,0.0,0.0
99.6,1.557,0.728,2.0
99.697,1.53,0.159,5.0
0.0,0.0,0.0,0.0
196.155,2.898,4.562,25.0
194.751,2.821,3.417,29.0
0.0,0.0,0.0,0.0
99.658,1.387,0.601,5.0
99.737,1.361,0.033,4.0
0.0,0.0,0.0,0.0
20.299,0.264,0.446,27.0
20.296,0.259,0.33,18.0
20.293,0.253,0.214,9.0
20.355,0.248,0.097,0.0
99.714,1.188,-0.089,1.0
0.0,0.0,0.0,0.0
20.27,0.229,0.421,34.0
20.284,0.223,0.305,27.0
20.288,0.217,0.19,26.0
20.326,0.212,0.072,29.0
20.337,0.206,-0.043,3.0
20.193,0.199,-0.157,11.0
20.272,0.193,0.396,30.0
20.298,0.187,0.281,29.0
20.304,0.182,0.166,27.0
20.287,0.175,0.048,27.0
20.206,0.168,-0.066,22.0
20.179,0.163,-0.181,21.0
20.181,0.156,0.371,26.0
20.186,0.15,0.256,23.0
20.19,0.144,0.141,24.0
20.193,0.138,0.024,26.0
20.175,0.132,-0.089,35.0
20.175,0.126,-0.204,26.0
20.161,0.119,0.347,29.0
20.167,0.113,0.233,27.0
20.183,0.107,0.118,27.0
20.178,0.101,0.002,27.0
20.183,0.095,-0.112,30.0
20.201,0.089,-0.227,15.0
20.155,0.082,0.325,28.0
20.159,0.076,0.21,28.0
20.188,0.07,0.096,25.0
20.21,0.064,-0.02,30.0
20.23,0.058,-0.135,25.0
55.041,0.141,-0.679,6.0
20.14,0.045,0.303,32.0
20.135,0.039,0.189,27.0
20.158,0.033,0.075,20.0
20.249,0.027,-0.041,151.0
20.26,0.02,-0.156,151.0
20.271,0.014,-0.271,89.0
20.119,0.008,0.282,28.0
20.121,0.001,0.168,27.0
20.139,-0.004,0.054,19.0
20.158,-0.01,-0.061,20.0
20.166,-0.016,-0.176,18.0
20.165,-0.023,-0.29,15.0
20.118,-0.029,0.262,30.0
20.125,-0.035,0.148,31.0
20.132,-0.042,0.034,34.0
20.149,-0.048,-0.082,34.0
20.152,-0.055,-0.196,21.0
20.147,-0.061,-0.31,27.0
20.12,-0.067,0.242,28.0
20.123,-0.073,0.128,31.0
20.118,-0.08,0.014,33.0
20.137,-0.087,-0.101,28.0
20.15,-0.093,-0.215,24.0
20.14,-0.1,-0.329,39.0
20.137,-0.106,0.223,22.0
20.135,-0.113,0.109,26.0
20.154,-0.119,-0.004,24.0
20.15,-0.126,-0.12,20.0
20.142,-0.132,-0.234,26.0
20.15,-0.139,-0.348,31.0
20.213,-0.146,0.205,17.0
58.327,-0.44,0.264,21.0
53.335,-0.42,-0.059,3.0
20.179,-0.166,-0.138,6.0
20.156,-0.172,-0.252,14.0
20.184,-0.179,-0.366,21.0
53.367,-0.49,0.496,11.0
56.206,-0.535,0.205,10.0
56.204,-0.554,-0.112,15.0
58.782,-0.599,-0.454,14.0
44.866,-0.472,-0.6,21.0
36.041,-0.392,-0.686,3.0
56.208,-0.627,0.475,2.0
56.15,-0.645,0.158,1.0
56.298,-0.665,-0.158,0.0
53.079,-0.645,-0.454,9.0
44.854,-0.561,-0.637,3.0
35.888,-0.46,-0.712,2.0
20.157,-0.264,0.154,10.0
59.517,-0.802,0.119,64.0
56.76,-0.784,-0.205,2.0
52.872,-0.748,-0.494,17.0
38.604,-0.559,-0.578,14.0
31.544,-0.468,-0.65,9.0
20.128,-0.304,0.138,16.0
20.145,-0.312,0.024,32.0
59.569,-0.942,-0.261,5.0
45.436,-0.734,-0.459,16.0
38.242,-0.63,-0.602,13.0
30.967,-0.521,-0.662,29.0
20.146,-0.345,0.123,6.0
20.136,-0.351,0.01,29.0
52.954,-0.943,-0.27,49.0
45.209,-0.821,-0.489,19.0
38.012,-0.703,-0.625,22.0
30.625,-0.577,-0.676,32.0
52.957,-1.014,0.288,61.0
52.938,-1.032,-0.009,70.0
45.576,-0.904,-0.264,17.0
38.364,-0.774,-0.441,12.0
37.89,-0.778,-0.649,13.0
30.509,-0.637,-0.694,32.0
38.385,-0.812,0.183,32.0
40.442,-0.87,-0.033,3.0
40.426,-0.884,-0.26,26.0
40.404,-0.897,-0.491,35.0
0.0,0.0,0.0,0.0
30.451,-0.697,-0.712,27.0
40.419,-0.937,0.167,40.0
40.404,-0.95,-0.058,39.0
40.406,-0.964,-0.285,37.0
38.598,-0.935,-0.492,26.0
31.474,-0.773,-0.578,11.0
30.368,-0.757,-0.728,17.0
38.724,-0.975,0.138,26.0
38.704,-0.988,-0.078,35.0
38.705,-1.002,-0.295,51.0
38.49,-1.01,-0.513,19.0
31.236,-0.831,-0.591,27.0
30.196,-0.814,-0.741,8.0
38.653,-1.052,0.116,74.0
38.647,-1.065,-0.099,72.0
38.657,-1.079,-0.315,59.0
38.373,-1.085,-0.532,14.0
31.015,-0.888,-0.603,30.0
29.824,-0.865,-0.747,3.0
38.661,-1.13,0.097,87.0
38.65,-1.144,-0.118,72.0
38.642,-1.158,-0.335,56.0
38.267,-1.16,-0.549,13.0
30.862,-0.947,-0.616,32.0
28.565,-0.887,-0.73,1.0
38.69,-1.211,0.078,66.0
38.683,-1.225,-0.137,58.0
38.657,-1.238,-0.353,42.0
38.133,-1.235,-0.565,13.0
30.706,-1.005,-0.627,30.0
28.18,-0.933,-0.733,1.0
80.522,-2.687,0.128,13.0
56.982,-1.921,-0.226,2.0
45.472,-1.55,-0.434,7.0
38.053,-1.31,-0.58,14.0
30.638,-1.066,-0.638,32.0
27.946,-0.983,-0.738,1.0
80.734,-2.858,0.097,29.0
80.39,-2.874,-0.351,3.0
45.208,-1.633,-0.449,5.0
31.318,-1.142,-0.489,26.0
30.56,-1.126,-0.648,36.0
27.785,-1.034,-0.744,0.0
31.299,-1.172,0.026,67.0
31.317,-1.183,-0.147,60.0
31.264,-1.193,-0.321,30.0
28.464,-1.096,-0.454,31.0
28.481,-1.108,-0.613,61.0
28.246,-1.109,-0.766,1.0
28.453,-1.123,0.015,79.0
28.445,-1.133,-0.143,86.0
28.445,-1.144,-0.301,124.0
28.461,-1.155,-0.463,118.0
28.457,-1.165,-0.621,128.0
25.23,-1.042,-0.691,3.0
28.456,-1.181,0.007,126.0
28.451,-1.192,-0.151,122.0
28.431,-1.201,-0.309,87.0
28.448,-1.212,-0.47,65.0
28.458,-1.223,-0.628,56.0
24.962,-1.083,-0.69,5.0
28.468,-1.24,0.0,55.0
31.196,-1.37,-0.173,39.0
31.171,-1.38,-0.346,47.0
31.166,-1.392,-0.522,51.0
30.537,-1.375,-0.681,24.0
24.588,-1.116,-0.685,5.0
31.228,-1.423,-0.006,41.0
