X,Y,Z,Reflectivity
81.852,-7.618,3.23,36.0
86.663,-8.079,5.843,13.0
0.0,0.0,0.0,0.0
83.275,-7.774,4.733,40.0
82.128,-7.673,4.225,38.0
82.298,-7.696,3.799,20.0
81.751,-7.65,3.342,24.0
113.509,-10.641,7.815,17.0
84.723,-7.947,5.383,20.0
83.441,-7.831,4.859,41.0
81.906,-7.693,4.329,29.0
82.127,-7.719,3.906,23.0
81.842,-7.697,3.46,26.0
109.973,-10.361,7.726,19.0
0.0,0.0,0.0,0.0
83.409,-7.866,4.975,31.0
0.0,0.0,0.0,0.0
81.996,-7.742,4.014,37.0
81.867,-7.734,3.575,28.0
109.963,-10.407,7.878,30.0
86.489,-8.189,5.737,11.0
83.464,-7.905,5.094,21.0
83.168,-7.881,4.627,37.0
81.822,-7.758,4.119,36.0
81.822,-7.762,3.687,34.0
110.079,-10.461,8.041,19.0
110.091,-10.465,7.459,21.0
83.446,-7.935,5.21,10.0
83.41,-7.934,4.757,40.0
81.79,-7.783,4.231,34.0
81.771,-7.785,3.798,33.0
112.777,-10.756,8.397,18.0
109.865,-10.48,7.595,25.0
86.435,-8.247,5.517,25.0
83.529,-7.972,4.879,39.0
81.921,-7.82,4.351,30.0
81.856,-7.816,3.915,37.0
112.649,-10.777,8.544,14.0
109.729,-10.499,7.739,31.0
86.429,-8.271,5.636,19.0
83.536,-7.994,4.996,26.0
0.0,0.0,0.0,0.0
81.973,-7.849,4.033,36.0
112.725,-10.813,8.706,17.0
109.844,-10.536,7.898,26.0
86.513,-8.299,5.76,13.0
83.371,-7.997,5.1,14.0
83.447,-8.005,4.661,41.0
81.838,-7.852,4.138,34.0
112.247,-10.79,8.823,28.0
112.762,-10.839,8.263,17.0
109.756,-10.549,7.459,21.0
86.447,-8.308,5.407,8.0
83.539,-8.029,4.781,37.0
81.787,-7.861,4.247,33.0
112.086,-10.793,8.964,29.0
112.657,-10.846,8.408,18.0
109.639,-10.553,7.598,38.0
86.469,-8.322,5.524,15.0
83.41,-8.027,4.885,36.0
81.85,-7.876,4.359,26.0
112.326,-10.829,9.135,18.0
110.121,-10.614,8.367,13.0
109.447,-10.545,7.732,36.0
86.477,-8.33,5.64,20.0
83.417,-8.034,4.997,30.0
0.0,0.0,0.0,0.0
112.04,-10.811,9.261,13.0
112.439,-10.844,8.694,9.0
109.493,-10.556,7.882,22.0
86.482,-8.335,5.755,15.0
83.412,-8.037,5.106,13.0
83.537,-8.047,4.669,41.0
111.788,-10.789,9.388,11.0
112.152,-10.819,8.819,27.0
112.824,-10.879,8.27,18.0
109.699,-10.573,7.444,21.0
114.114,-10.995,7.135,8.0
83.548,-8.047,4.779,35.0
109.054,-10.524,9.301,28.0
112.107,-10.813,8.961,28.0
112.659,-10.859,8.404,15.0
109.623,-10.561,7.581,42.0
86.509,-8.33,5.522,16.0
83.419,-8.029,4.88,33.0
108.91,-10.504,9.432,36.0
112.219,-10.816,9.116,19.0
112.564,-10.842,8.542,8.0
109.469,-10.537,7.711,39.0
86.449,-8.317,5.628,19.0
83.437,-8.023,4.986,26.0
108.758,-10.479,9.558,30.0
112.029,-10.785,9.245,19.0
112.56,-10.829,8.684,13.0
109.682,-10.544,7.865,27.0
86.493,-8.31,5.74,14.0
83.41,-8.008,5.09,14.0
108.651,-10.453,9.686,23.0
111.823,-10.749,9.368,20.0
112.198,-10.777,8.797,27.0
110.013,-10.557,8.026,15.0
109.82,-10.531,7.424,18.0
86.499,-8.289,5.385,10.0
110.952,-10.654,10.029,16.0
109.332,-10.488,9.295,21.0
112.04,-10.739,8.923,31.0
112.707,-10.792,8.361,19.0
109.777,-10.503,7.556,24.0
86.461,-8.266,5.488,23.0
111.78,-10.708,10.241,19.0
109.435,-10.473,9.436,27.0
111.96,-10.704,9.052,28.0
112.686,-10.763,8.494,17.0
109.897,-10.486,7.696,39.0
86.422,-8.238,5.589,23.0
112.087,-10.707,10.405,18.0
110.727,-10.565,9.682,32.0
112.127,-10.688,9.2,24.0
112.624,-10.723,8.625,21.0
109.968,-10.46,7.831,37.0
86.462,-8.215,5.694,13.0
111.924,-10.657,10.522,11.0
110.753,-10.532,9.815,38.0
112.056,-10.644,9.326,19.0
112.158,-10.641,8.72,35.0
110.062,-10.431,7.964,17.0
110.219,-10.435,7.383,8.0
24.551,-2.329,2.336,12.0
110.804,-10.498,9.947,21.0
112.207,-10.617,9.468,19.0
112.039,-10.588,8.838,40.0
112.82,-10.649,8.293,19.0
113.572,-10.708,7.737,7.0
24.573,-2.321,2.366,37.0
118.694,-11.198,10.789,11.0
0.0,0.0,0.0,0.0
112.18,-10.554,8.974,27.0
113.011,-10.619,8.432,25.0
113.476,-10.65,7.856,23.0
24.551,-2.309,2.391,51.0
118.839,-11.16,10.933,5.0
111.833,-10.486,9.684,24.0
112.335,-10.519,9.109,23.0
112.928,-10.56,8.548,20.0
113.288,-10.579,7.965,26.0
24.536,-2.295,2.417,62.0
24.561,-2.294,2.286,12.0
112.148,-10.462,9.832,20.0
120.821,-11.253,9.928,9.0
112.645,-10.476,8.648,29.0
113.196,-10.513,8.078,26.0
24.539,-2.283,2.443,70.0
24.546,-2.28,2.31,43.0
112.295,-10.418,9.961,19.0
114.799,-10.632,9.551,10.0
112.472,-10.401,8.748,29.0
112.928,-10.427,8.174,26.0
24.548,-2.271,2.469,40.0
24.543,-2.266,2.335,59.0
24.569,-2.265,2.204,4.0
114.649,-10.553,9.654,9.0
112.539,-10.342,8.866,25.0
112.898,-10.359,8.284,25.0
24.569,-2.259,2.496,22.0
24.546,-2.252,2.36,83.0
24.566,-2.25,2.228,35.0
114.406,-10.462,9.745,11.0
112.51,-10.271,8.974,18.0
113.031,-10.301,8.403,21.0
24.592,-2.246,2.522,11.0
24.553,-2.238,2.384,58.0
24.555,-2.234,2.251,57.0
24.597,-2.233,2.118,2.0
114.562,-10.384,9.247,10.0
112.655,-10.192,8.482,8.0
39.291,-3.562,4.068,2.0
24.538,-2.22,2.406,22.0
24.557,-2.217,2.274,98.0
24.561,-2.213,2.138,30.0
114.066,-10.262,9.31,19.0
114.69,-10.298,8.74,13.0
113.951,-10.252,11.902,16.0
24.561,-2.205,2.43,1.0
24.56,-2.2,2.296,45.0
24.572,-2.197,2.161,51.0
113.745,-10.151,9.385,21.0
114.61,-10.209,8.832,10.0
112.506,-10.042,11.85,20.0
118.166,-10.524,11.799,7.0
24.548,-2.181,2.316,12.0
24.561,-2.178,2.181,66.0
24.61,-2.177,2.051,6.0
120.646,-10.655,9.4,24.0
112.339,-9.941,11.928,29.0
113.884,-10.055,11.467,10.0
46.477,-4.094,4.425,4.0
24.573,-2.159,2.203,48.0
24.604,-2.157,2.071,35.0
120.662,-10.561,9.5,18.0
112.413,-9.858,12.029,21.0
114.096,-9.983,11.581,10.0
120.592,-10.527,11.579,13.0
24.564,-2.139,2.221,29.0
24.586,-2.136,2.089,57.0
60.622,-5.256,4.82,7.0
23.819,-2.069,2.567,15.0
39.209,-3.397,4.01,2.0
120.652,-10.43,11.678,16.0
24.609,-2.122,2.244,5.0
24.601,-2.117,2.109,64.0
120.661,-10.359,9.684,16.0
23.81,-2.047,2.584,47.0
39.167,-3.36,4.035,2.0
114.277,-9.779,11.145,2.0
46.358,-3.957,4.262,1.0
24.611,-2.096,2.127,61.0
24.642,-2.093,1.995,1.0
23.806,-2.026,2.601,68.0
23.825,-2.022,2.471,8.0
61.007,-5.165,5.993,4.0
46.452,-3.923,4.303,3.0
24.601,-2.072,2.143,33.0
24.626,-2.069,2.01,7.0
23.801,-2.003,2.616,43.0
23.825,-2.0,2.487,40.0
23.831,-1.995,2.356,23.0
46.464,-3.88,4.334,3.0
24.479,-2.039,2.149,23.0
24.607,-2.044,2.025,20.0
23.817,-1.982,2.634,16.0
23.807,-1.976,2.501,40.0
23.84,-1.973,2.372,59.0
23.894,-1.972,2.243,41.0
23.936,-1.97,2.116,23.0
24.312,-1.996,2.015,17.0
30.873,-2.539,3.433,1.0
23.823,-1.954,2.517,42.0
23.84,-1.949,2.386,63.0
23.884,-1.948,2.256,65.0
23.928,-1.946,2.128,59.0
24.001,-1.946,2.003,34.0
30.852,-2.507,3.448,2.0
23.821,-1.93,2.53,16.0
23.848,-1.926,2.4,47.0
23.888,-1.924,2.27,54.0
23.919,-1.921,2.14,55.0
23.971,-1.92,2.013,38.0
30.858,-2.475,3.465,27.0
39.03,-3.121,4.165,4.0
23.831,-1.9,2.411,24.0
23.879,-1.898,2.281,25.0
23.934,-1.897,2.154,34.0
23.98,-1.895,2.025,30.0
30.887,-2.444,3.483,19.0
112.497,-8.877,12.061,21.0
47.543,-3.74,4.832,3.0
58.159,-4.561,5.583,1.0
23.97,-1.874,2.168,14.0
23.977,-1.869,2.036,23.0
45.934,-3.586,5.201,11.0
47.561,-3.701,5.12,3.0
47.564,-3.689,4.856,4.0
58.082,-4.492,5.6,6.0
46.53,-3.587,4.228,5.0
24.006,-1.845,2.048,19.0
36.89,-2.839,4.192,4.0
30.925,-2.372,3.341,32.0
38.961,-2.979,3.992,4.0
111.245,-8.478,10.77,18.0
46.541,-3.536,4.246,2.0
24.087,-1.824,2.064,14.0
36.881,-2.796,4.205,8.0
30.946,-2.338,3.355,16.0
47.459,-3.574,4.88,8.0
59.075,-4.435,5.739,7.0
47.412,-3.548,4.342,5.0
24.204,-1.805,2.082,4.0
36.909,-2.756,4.22,15.0
36.135,-2.688,3.929,2.0
30.987,-2.298,3.196,5.0
59.678,-4.411,5.815,5.0
47.378,-3.49,4.353,19.0
53.835,-3.953,4.646,3.0
30.421,-2.236,3.487,39.0
30.404,-2.227,3.314,13.0
30.99,-2.262,3.204,43.0
52.591,-3.826,5.138,2.0
47.067,-3.412,4.336,8.0
24.909,-1.799,2.156,2.0
30.421,-2.2,3.494,83.0
30.398,-2.19,3.32,39.0
38.956,-2.797,4.037,8.0
53.098,-3.798,5.2,1.0
24.889,-1.774,2.298,15.0
24.805,-1.762,2.152,24.0
36.876,-2.621,4.243,3.0
30.416,-2.154,3.328,58.0
38.952,-2.749,4.044,9.0
24.974,-1.756,2.45,24.0
24.887,-1.743,2.302,30.0
24.794,-1.731,2.155,40.0
47.69,-3.332,5.495,2.0
30.4,-2.116,3.331,43.0
25.014,-1.734,2.6,28.0
24.979,-1.725,2.454,60.0
24.93,-1.716,2.309,23.0
24.792,-1.7,2.158,58.0
32.052,-2.199,3.696,10.0
30.419,-2.079,3.336,1.0
25.013,-1.703,2.602,59.0
25.013,-1.697,2.459,38.0
31.042,-2.098,2.878,37.0
24.794,-1.669,2.16,52.0
31.974,-2.154,3.69,26.0
25.046,-1.68,2.749,27.0
25.023,-1.672,2.605,29.0
54.167,-3.606,5.329,4.0
31.077,-2.061,2.882,5.0
28.426,-1.878,2.477,25.0
31.923,-2.11,3.685,46.0
25.099,-1.652,2.755,40.0
30.434,-1.995,3.169,59.0
45.089,-2.944,4.436,3.0
44.883,-2.919,4.163,5.0
28.444,-1.843,2.478,59.0
31.894,-2.066,3.681,1.0
25.122,-1.621,2.757,41.0
30.436,-1.956,3.168,72.0
30.486,-1.951,2.998,21.0
45.378,-2.893,4.206,3.0
28.439,-1.806,2.476,70.0
30.198,-1.917,3.483,16.0
25.125,-1.589,2.755,26.0
30.444,-1.917,3.166,62.0
30.477,-1.911,2.994,21.0
45.582,-2.847,4.221,4.0
28.434,-1.768,2.473,65.0
25.256,-1.57,2.91,30.0
31.649,-1.96,3.467,14.0
30.445,-1.877,3.163,26.0
30.471,-1.871,2.99,36.0
45.785,-2.799,4.234,2.0
28.431,-1.731,2.468,72.0
25.249,-1.536,2.906,27.0
31.748,-1.923,3.473,40.0
31.069,-1.874,3.222,10.0
30.461,-1.83,2.983,39.0
28.402,-1.699,2.621,2.0
28.427,-1.693,2.463,71.0
25.259,-1.504,2.902,30.0
31.753,-1.881,3.467,41.0
31.484,-1.857,3.259,40.0
30.472,-1.79,2.978,46.0
46.535,-2.721,4.285,4.0
28.421,-1.655,2.456,70.0
25.267,-1.47,2.897,23.0
37.026,-2.144,4.034,4.0
31.692,-1.827,3.272,49.0
30.492,-1.75,2.972,46.0
46.514,-2.658,4.27,4.0
28.429,-1.617,2.449,1.0
25.334,-1.44,2.897,20.0
46.072,-2.606,5.006,5.0
31.678,-1.784,3.261,21.0
30.496,-1.709,2.963,45.0
24.161,-1.348,2.21,14.0
24.239,-1.346,2.08,62.0
25.418,-1.41,2.898,4.0
46.119,-2.546,4.996,10.0
46.103,-2.534,4.731,7.0
30.525,-1.669,2.955,21.0
24.156,-1.315,2.201,55.0
24.247,-1.314,2.072,56.0
46.958,-2.541,5.337,5.0
36.921,-1.988,3.985,9.0
24.029,-1.287,2.456,4.0
24.088,-1.285,2.322,54.0
24.174,-1.283,2.193,43.0
28.414,-1.501,2.416,39.0
53.599,-2.827,6.069,6.0
23.945,-1.257,2.574,12.0
24.015,-1.254,2.444,50.0
24.088,-1.251,2.312,53.0
28.382,-1.468,2.562,44.0
28.409,-1.462,2.403,44.0
38.567,-1.981,4.349,10.0
23.942,-1.223,2.562,40.0
24.017,-1.221,2.433,42.0
30.561,-1.546,2.918,37.0
28.408,-1.43,2.55,70.0
28.4,-1.423,2.388,49.0
23.84,-1.192,2.676,31.0
23.948,-1.192,2.551,39.0
38.719,-1.917,3.902,8.0
30.563,-1.505,2.902,40.0
30.645,-1.502,2.735,67.0
30.684,-1.496,2.563,16.0
23.847,-1.16,2.664,39.0
23.964,-1.159,2.539,23.0
38.715,-1.863,3.88,55.0
30.922,-1.48,2.918,33.0
30.68,-1.461,2.72,23.0
24.565,-1.164,2.038,49.0
23.85,-1.127,2.649,21.0
46.36,-2.18,4.884,8.0
46.293,-2.165,4.611,17.0
31.495,-1.465,2.953,64.0
31.477,-1.457,2.771,32.0
24.564,-1.131,2.022,57.0
52.12,-2.393,5.757,9.0
59.934,-2.737,6.275,9.0
46.204,-2.099,4.572,37.0
31.504,-1.423,2.933,5.0
24.63,-1.106,2.152,44.0
24.579,-1.098,2.007,44.0
37.082,-1.652,4.071,21.0
46.243,-2.049,4.81,7.0
24.649,-1.086,2.422,25.0
24.639,-1.08,2.277,60.0
24.617,-1.073,2.134,55.0
24.603,-1.067,1.991,38.0
31.835,-1.375,3.471,33.0
24.665,-1.059,2.547,26.0
24.646,-1.053,2.403,75.0
24.643,-1.047,2.259,74.0
24.64,-1.041,2.117,38.0
24.611,-1.034,1.973,35.0
28.404,-1.189,3.075,35.0
24.663,-1.026,2.527,49.0
24.64,-1.019,2.383,71.0
28.386,-1.167,2.579,12.0
28.403,-1.161,2.417,77.0
28.389,-1.154,2.253,19.0
24.752,-1.002,2.659,40.0
24.664,-0.992,2.507,55.0
28.368,-1.135,2.72,51.0
28.406,-1.13,2.557,113.0
28.4,-1.123,2.393,70.0
28.414,-1.117,2.231,48.0
24.721,-0.967,2.634,43.0
24.669,-0.959,2.486,28.0
28.414,-1.098,2.699,64.0
28.434,-1.092,2.534,56.0
31.629,-1.208,2.637,17.0
31.598,-1.2,2.453,39.0
24.727,-0.934,2.612,43.0
37.173,-1.395,3.712,50.0
37.278,-1.391,3.507,8.0
38.778,-1.438,3.42,9.0
37.83,-1.394,3.118,59.0
31.556,-1.156,2.42,14.0
37.118,-1.353,3.886,3.0
37.21,-1.348,3.68,29.0
37.283,-1.342,3.472,32.0
28.377,-1.015,2.475,59.0
28.384,-1.009,2.312,74.0
28.382,-1.002,2.149,74.0
43.746,-1.537,4.536,8.0
48.991,-1.71,4.796,3.0
28.37,-0.984,2.613,56.0
28.374,-0.977,2.446,76.0
28.382,-0.972,2.283,71.0
28.383,-0.965,2.12,73.0
43.918,-1.485,4.508,8.0
42.744,-1.436,4.14,5.0
28.368,-0.946,2.583,64.0
28.371,-0.94,2.416,74.0
28.381,-0.935,2.253,75.0
28.381,-0.929,2.09,74.0
47.761,-1.553,4.851,3.0
54.829,-1.771,5.25,9.0
28.371,-0.91,2.552,69.0
28.37,-0.904,2.385,76.0
28.373,-0.898,2.221,73.0
28.384,-0.893,2.059,78.0
42.436,-1.326,4.263,3.0
44.362,-1.376,4.199,12.0
28.362,-0.874,2.52,72.0
28.368,-0.868,2.353,75.0
28.371,-0.862,2.189,76.0
28.381,-0.857,2.026,73.0
42.615,-1.277,4.232,10.0
44.509,-1.325,4.161,13.0
28.359,-0.838,2.487,87.0
28.365,-0.833,2.32,73.0
28.368,-0.827,2.156,74.0
28.372,-0.821,1.992,76.0
44.498,-1.279,4.366,49.0
28.357,-0.809,2.617,68.0
28.353,-0.803,2.452,79.0
28.363,-0.797,2.285,70.0
28.367,-0.792,2.121,73.0
28.373,-0.786,1.958,74.0
47.182,-1.298,4.571,9.0
28.367,-0.774,2.583,64.0
28.372,-0.769,2.418,70.0
28.361,-0.763,2.25,72.0
28.355,-0.757,2.085,72.0
28.364,-0.751,1.921,74.0
28.39,-0.746,2.713,1.0
28.358,-0.739,2.545,78.0
28.359,-0.733,2.38,73.0
28.364,-0.728,2.213,70.0
28.362,-0.723,2.049,70.0
28.366,-0.717,1.885,68.0
28.342,-0.71,2.672,33.0
28.357,-0.705,2.507,76.0
28.361,-0.7,2.343,70.0
28.358,-0.694,2.175,67.0
28.348,-0.689,2.01,71.0
28.354,-0.683,1.846,69.0
28.351,-0.677,2.634,66.0
28.358,-0.671,2.469,77.0
28.358,-0.666,2.304,70.0
28.347,-0.661,2.135,71.0
28.343,-0.655,1.971,74.0
28.36,-0.651,1.808,72.0
28.344,-0.644,2.594,72.0
28.352,-0.638,2.429,72.0
28.349,-0.633,2.264,71.0
28.341,-0.628,2.095,69.0
28.344,-0.623,1.931,75.0
28.353,-0.618,1.767,72.0
28.345,-0.611,2.553,83.0
28.356,-0.606,2.389,70.0
28.347,-0.601,2.223,68.0
28.352,-0.596,2.055,74.0
28.349,-0.591,1.89,76.0
28.355,-0.586,1.727,75.0
28.354,-0.579,2.513,89.0
28.343,-0.574,2.346,69.0
28.346,-0.569,2.181,71.0
28.337,-0.564,2.012,75.0
28.337,-0.559,1.848,75.0
28.358,-0.555,1.684,77.0
28.351,-0.548,2.47,56.0
28.345,-0.543,2.304,68.0
28.343,-0.538,2.138,71.0
28.333,-0.533,1.969,75.0
28.341,-0.528,1.805,75.0
28.356,-0.524,1.641,73.0
31.299,-0.571,2.679,57.0
28.326,-0.512,2.258,0.0
54.028,-0.968,3.992,19.0
38.603,-0.685,2.624,39.0
28.348,-0.499,1.762,42.0
28.36,-0.494,1.598,73.0
31.303,-0.538,2.63,43.0
54.133,-0.922,4.232,12.0
53.995,-0.911,3.905,22.0
46.47,-0.777,3.086,13.0
58.821,-0.974,3.564,12.0
66.323,-1.088,3.632,27.0
38.59,-0.624,3.18,36.0
58.515,-0.936,4.48,16.0
38.626,-0.612,2.732,30.0
46.416,-0.728,3.007,54.0
52.232,-0.812,3.08,16.0
28.373,-0.437,1.508,2.0
38.572,-0.585,3.116,64.0
38.636,-0.58,2.895,65.0
38.635,-0.574,2.669,57.0
46.346,-0.682,2.927,47.0
46.255,-0.674,2.652,53.0
45.58,-0.657,2.347,25.0
38.621,-0.547,3.055,60.0
38.636,-0.542,2.831,71.0
44.805,-0.622,3.021,26.0
44.985,-0.618,2.766,40.0
46.24,-0.629,2.574,66.0
45.698,-0.615,2.277,38.0
69.136,-0.915,5.353,6.0
38.65,-0.505,2.766,59.0
44.83,-0.58,2.946,40.0
44.973,-0.576,2.688,56.0
52.881,-0.67,2.852,18.0
46.106,-0.578,2.218,52.0
46.773,-0.575,3.54,39.0
60.712,-0.738,4.239,20.0
60.428,-0.726,3.866,24.0
45.041,-0.535,2.614,37.0
45.496,-0.535,2.375,35.0
58.238,-0.677,2.701,255.0
44.609,-0.508,3.298,31.0
52.304,-0.59,3.561,58.0
60.469,-0.674,3.763,14.0
45.109,-0.497,2.539,41.0
45.722,-0.498,2.307,51.0
58.297,-0.628,2.602,255.0
38.67,-0.407,2.791,28.0
52.349,-0.545,3.471,1.0
52.81,-0.544,3.193,49.0
45.271,-0.46,2.469,43.0
58.357,-0.587,2.842,150.0
58.297,-0.579,2.499,255.0
52.324,-0.508,3.683,62.0
52.771,-0.506,3.405,37.0
64.305,-0.609,3.772,89.0
45.283,-0.423,2.387,40.0
58.29,-0.538,2.732,255.0
58.304,-0.531,2.393,255.0
64.314,-0.572,4.408,15.0
52.793,-0.464,3.309,45.0
64.338,-0.558,3.656,17.0
45.947,-0.393,2.337,53.0
58.298,-0.492,2.625,255.0
58.309,-0.486,2.285,255.0
52.739,-0.428,3.516,61.0
105.641,-0.846,6.424,4.0
45.461,-0.359,2.498,54.0
0.0,0.0,0.0,0.0
58.295,-0.448,2.517,255.0
58.218,-0.441,2.173,255.0
53.2,-0.392,3.447,22.0
45.583,-0.331,2.687,24.0
45.735,-0.327,2.427,20.0
58.282,-0.412,2.747,255.0
58.267,-0.406,2.406,255.0
58.267,-0.4,2.066,220.0
104.168,-0.694,6.552,16.0
45.572,-0.299,2.599,71.0
58.342,-0.377,2.986,74.0
58.294,-0.371,2.636,255.0
58.287,-0.365,2.296,255.0
58.305,-0.36,1.956,156.0
45.578,-0.273,2.779,28.0
46.098,-0.271,2.541,26.0
58.622,-0.339,2.888,114.0
58.297,-0.332,2.524,255.0
58.291,-0.327,2.183,255.0
58.296,-0.322,1.844,40.0
45.579,-0.243,2.69,66.0
0.0,0.0,0.0,0.0
58.276,-0.3,2.757,255.0
58.204,-0.295,2.407,255.0
58.295,-0.29,2.07,255.0
20.151,-0.098,0.597,13.0
46.106,-0.217,2.631,48.0
58.953,-0.273,3.018,58.0
58.279,-0.265,2.643,255.0
58.215,-0.26,2.294,255.0
58.213,-0.256,1.953,255.0
20.133,-0.086,0.558,16.0
58.763,-0.243,3.238,45.0
58.561,-0.238,2.883,118.0
58.235,-0.232,2.527,255.0
58.228,-0.227,2.179,255.0
58.277,-0.223,1.84,19.0
20.137,-0.075,0.518,21.0
58.614,-0.21,3.112,66.0
58.281,-0.205,2.753,255.0
58.322,-0.201,2.413,153.0
58.244,-0.197,2.063,255.0
20.153,-0.066,0.596,15.0
20.117,-0.065,0.477,24.0
67.641,-0.208,3.454,18.0
58.254,-0.175,2.634,236.0
58.27,-0.172,2.294,117.0
58.304,-0.168,1.947,167.0
20.136,-0.056,0.555,19.0
20.114,-0.055,0.436,29.0
58.352,-0.152,2.862,150.0
58.291,-0.148,2.518,18.0
58.276,-0.145,2.176,68.0
20.159,-0.048,0.632,18.0
20.14,-0.047,0.514,23.0
20.118,-0.046,0.396,26.0
58.226,-0.126,2.737,255.0
20.126,-0.042,0.828,22.0
58.268,-0.119,2.056,59.0
20.143,-0.04,0.59,19.0
20.129,-0.039,0.472,26.0
20.113,-0.038,0.354,30.0
58.285,-0.102,2.619,150.0
20.123,-0.034,0.786,25.0
20.188,-0.033,0.67,25.0
20.122,-0.032,0.548,19.0
20.133,-0.031,0.431,27.0
20.118,-0.03,0.312,29.0
20.119,-0.027,0.862,27.0
20.126,-0.026,0.744,27.0
20.175,-0.026,0.628,24.0
20.141,-0.025,0.506,22.0
20.12,-0.024,0.388,26.0
20.122,-0.023,0.27,24.0
20.119,-0.021,0.819,28.0
20.175,-0.02,0.703,23.0
20.167,-0.019,0.585,24.0
20.122,-0.018,0.464,28.0
20.121,-0.017,0.346,28.0
20.114,-0.017,0.228,26.0
20.124,-0.015,0.778,29.0
20.188,-0.014,0.661,42.0
20.144,-0.013,0.542,19.0
20.123,-0.013,0.422,27.0
20.129,-0.012,0.304,27.0
20.114,-0.011,0.186,29.0
20.135,-0.009,0.736,30.0
20.188,-0.009,0.619,27.0
20.13,-0.008,0.5,25.0
20.127,-0.008,0.38,24.0
20.111,-0.007,0.261,26.0
20.127,-0.006,0.144,29.0
20.175,-0.005,0.694,39.0
20.161,-0.004,0.576,26.0
20.13,-0.004,0.457,26.0
20.121,-0.003,0.337,27.0
20.133,-0.003,0.219,25.0
20.134,-0.003,0.101,32.0
20.196,-0.001,0.652,46.0
20.141,-0.001,0.532,20.0
20.133,0.0,0.414,25.0
20.117,0.0,0.294,27.0
20.122,0.0,0.176,26.0
20.199,0.0,0.059,37.0
20.177,0.001,0.608,30.0
20.148,0.001,0.49,27.0
20.13,0.002,0.371,24.0
20.12,0.002,0.251,26.0
20.12,0.002,0.133,28.0
20.243,0.002,0.015,151.0
20.173,0.003,0.565,26.0
20.14,0.003,0.446,27.0
20.125,0.004,0.328,25.0
20.117,0.004,0.208,27.0
20.141,0.004,0.09,35.0
20.227,0.004,-0.027,152.0
20.15,0.005,0.521,23.0
20.134,0.005,0.403,27.0
20.136,0.005,0.285,26.0
20.124,0.005,0.165,25.0
20.265,0.005,0.047,150.0
20.257,0.005,-0.071,151.0
20.138,0.006,0.478,28.0
20.135,0.006,0.36,25.0
20.119,0.006,0.241,26.0
20.132,0.005,0.122,29.0
20.249,0.005,0.004,151.0
20.256,0.005,-0.114,151.0
20.139,0.006,0.435,28.0
20.135,0.005,0.317,26.0
20.117,0.005,0.198,27.0
20.161,0.005,0.079,35.0
20.246,0.005,-0.039,152.0
20.247,0.005,-0.157,150.0
20.126,0.005,0.391,27.0
20.128,0.005,0.273,27.0
20.123,0.004,0.155,26.0
20.239,0.004,0.036,151.0
20.26,0.004,-0.082,151.0
20.252,0.004,-0.201,150.0
20.134,0.003,0.348,27.0
20.123,0.003,0.23,27.0
20.123,0.003,0.112,31.0
20.227,0.002,-0.007,153.0
20.27,0.002,-0.126,150.0
20.264,0.001,-0.245,80.0
20.129,0.001,0.305,29.0
20.13,0.001,0.187,27.0
20.177,0.0,0.069,32.0
20.267,0.0,-0.051,150.0
20.268,0.0,-0.169,80.0
20.262,0.0,-0.288,25.0
20.127,-0.001,0.261,28.0
20.126,-0.001,0.144,28.0
20.28,-0.002,0.026,150.0
20.253,-0.003,-0.094,52.0
20.236,-0.003,-0.212,12.0
20.242,-0.004,-0.331,6.0
20.132,-0.005,0.219,28.0
20.132,-0.005,0.1,30.0
20.252,-0.006,-0.017,22.0
20.206,-0.007,-0.137,14.0
20.217,-0.007,-0.255,8.0
20.235,-0.008,-0.374,2.0
20.124,-0.009,0.175,29.0
20.146,-0.01,0.058,20.0
20.222,-0.011,-0.06,18.0
20.199,-0.011,-0.18,7.0
20.23,-0.012,-0.299,1.0
20.247,-0.013,-0.417,0.0
20.133,-0.014,0.133,32.0
20.151,-0.015,0.015,13.0
20.156,-0.016,-0.102,18.0
20.177,-0.017,-0.222,3.0
43.21,-0.039,-0.73,3.0
37.228,-0.035,-0.848,0.0
20.144,-0.02,0.09,33.0
20.129,-0.021,-0.027,18.0
20.186,-0.022,-0.146,23.0
20.151,-0.023,-0.266,12.0
41.615,-0.051,-0.793,2.0
34.678,-0.044,-0.863,0.0
20.145,-0.027,0.047,35.0
20.152,-0.028,-0.07,29.0
20.153,-0.029,-0.188,13.0
20.163,-0.03,-0.308,9.0
37.631,-0.059,-0.795,6.0
32.126,-0.052,-0.867,4.0
20.129,-0.035,0.005,36.0
20.149,-0.036,-0.112,29.0
20.133,-0.037,-0.23,15.0
20.166,-0.038,-0.35,5.0
34.634,-0.068,-0.804,1.0
58.294,-0.119,-1.695,0.0
20.144,-0.043,-0.036,33.0
20.155,-0.044,-0.154,30.0
20.154,-0.045,-0.272,24.0
20.166,-0.047,-0.392,3.0
58.444,-0.14,-1.479,1.0
28.15,-0.069,-0.877,0.0
20.15,-0.052,-0.078,37.0
20.142,-0.053,-0.196,15.0
20.165,-0.054,-0.314,24.0
20.18,-0.056,-0.434,3.0
30.284,-0.086,-0.83,0.0
26.793,-0.078,-0.891,1.0
20.148,-0.061,-0.12,35.0
20.15,-0.063,-0.238,27.0
20.147,-0.064,-0.356,18.0
20.18,-0.066,-0.477,1.0
58.344,-0.196,-1.72,0.0
25.125,-0.086,-0.888,0.0
20.15,-0.072,-0.162,36.0
20.153,-0.073,-0.28,29.0
20.172,-0.075,-0.398,26.0
33.146,-0.126,-0.851,7.0
28.052,-0.109,-0.884,9.0
24.411,-0.097,-0.913,0.0
20.159,-0.083,-0.203,24.0
20.145,-0.084,-0.32,28.0
20.173,-0.086,-0.439,26.0
58.441,-0.256,-1.62,1.0
58.377,-0.261,-1.96,0.0
22.875,-0.104,-0.902,0.0
20.136,-0.094,-0.244,38.0
20.155,-0.096,-0.362,28.0
20.192,-0.098,-0.481,27.0
58.38,-0.291,-1.738,4.0
20.138,-0.107,-0.285,40.0
20.162,-0.109,-0.403,36.0
20.194,-0.111,-0.521,23.0
28.057,-0.157,-0.891,6.0
24.115,-0.138,-0.907,0.0
20.267,-0.118,-0.881,18.0
20.146,-0.12,-0.325,40.0
20.165,-0.122,-0.443,35.0
20.198,-0.125,-0.562,20.0
58.315,-0.367,-1.971,2.0
22.592,-0.144,-0.895,22.0
20.257,-0.131,-0.921,40.0
20.153,-0.134,-0.365,37.0
20.178,-0.136,-0.484,28.0
20.197,-0.139,-0.602,20.0
24.854,-0.173,-0.889,0.0
22.56,-0.16,-0.939,7.0
20.167,-0.149,-0.405,35.0
20.184,-0.151,-0.523,36.0
20.216,-0.154,-0.642,24.0
22.615,-0.174,-0.853,1.0
20.296,-0.159,-0.884,26.0
18.662,-0.148,-0.922,1.0
20.173,-0.164,-0.444,29.0
20.193,-0.166,-0.562,38.0
20.216,-0.169,-0.681,20.0
22.611,-0.192,-0.896,11.0
20.268,-0.174,-0.922,41.0
18.158,-0.158,-0.932,0.0
20.181,-0.18,-0.483,33.0
20.201,-0.182,-0.602,38.0
20.21,-0.185,-0.72,14.0
22.695,-0.211,-0.944,2.0
19.61,-0.184,-0.93,0.0
17.475,-0.167,-0.931,0.0
20.194,-0.197,-0.522,38.0
20.198,-0.199,-0.64,38.0
20.214,-0.202,-0.759,8.0
20.257,-0.205,-0.881,19.0
18.732,-0.192,-0.924,0.0
16.952,-0.176,-0.935,0.0
20.192,-0.214,-0.561,33.0
20.213,-0.217,-0.679,35.0
22.725,-0.247,-0.896,14.0
20.284,-0.223,-0.92,67.0
18.183,-0.202,-0.931,0.0
16.497,-0.186,-0.941,0.0
20.208,-0.232,-0.598,29.0
20.219,-0.234,-0.716,34.0
20.23,-0.237,-0.835,9.0
20.127,-0.239,-0.95,4.0
17.595,-0.211,-0.933,0.0
16.03,-0.195,-0.944,0.0
20.22,-0.25,-0.636,28.0
20.225,-0.253,-0.753,34.0
20.159,-0.255,-0.868,14.0
19.346,-0.247,-0.948,0.0
17.091,-0.221,-0.937,0.0
15.52,-0.203,-0.942,0.0
20.224,-0.269,-0.672,19.0
20.233,-0.272,-0.79,30.0
20.265,-0.275,-0.909,39.0
18.29,-0.251,-0.929,0.0
16.671,-0.232,-0.944,0.0
15.101,-0.212,-0.944,0.0
20.235,-0.289,-0.708,7.0
20.188,-0.291,-0.824,13.0
19.759,-0.288,-0.922,2.0
17.676,-0.26,-0.929,0.0
16.128,-0.24,-0.942,0.0
14.725,-0.221,-0.946,0.0
20.252,-0.309,-0.744,0.0
20.16,-0.311,-0.858,9.0
19.638,-0.306,-0.951,1.0
17.199,-0.271,-0.934,0.0
15.749,-0.25,-0.947,0.0
14.32,-0.23,-0.945,0.0
25.606,-0.417,-0.985,0.0
21.15,-0.348,-0.937,0.0
18.454,-0.306,-0.924,0.0
16.772,-0.281,-0.94,0.0
15.313,-0.259,-0.947,0.0
13.968,-0.239,-0.946,0.0
22.243,-0.385,-0.893,0.0
19.653,-0.344,-0.903,0.0
18.298,-0.323,-0.947,0.0
16.378,-0.292,-0.945,0.0
14.848,-0.267,-0.943,0.0
13.716,-0.249,-0.951,0.0
21.517,-0.396,-0.899,0.0
19.583,-0.363,-0.932,1.0
17.564,-0.329,-0.939,0.0
15.922,-0.301,-0.945,0.0
14.537,-0.277,-0.948,0.0
13.339,-0.257,-0.947,0.0
23.001,-0.448,-0.999,0.0
0.0,0.0,0.0,0.0
17.007,-0.338,-0.937,0.0
15.59,-0.312,-0.951,0.0
14.209,-0.287,-0.949,0.0
13.081,-0.266,-0.95,0.0
22.16,-0.457,-0.998,0.0
38.346,-0.798,-1.95,0.0
16.738,-0.351,-0.948,0.0
15.044,-0.318,-0.941,0.0
13.904,-0.297,-0.951,0.0
12.844,-0.276,-0.954,0.0
21.583,-0.47,-1.006,0.0
17.861,-0.392,-0.936,0.0
16.283,-0.36,-0.948,0.0
14.638,-0.327,-0.939,0.0
13.51,-0.304,-0.945,0.0
12.559,-0.285,-0.952,0.0
20.892,-0.479,-1.006,0.0
17.25,-0.399,-0.931,0.0
15.717,-0.366,-0.939,0.0
14.332,-0.337,-0.941,0.0
13.28,-0.315,-0.949,0.0
12.351,-0.295,-0.955,0.0
20.366,-0.491,-1.011,0.0
17.049,-0.415,-0.945,4.0
15.48,-0.38,-0.948,0.0
14.036,-0.347,-0.943,0.0
13.038,-0.325,-0.952,0.0
12.145,-0.305,-0.957,0.0
19.855,-0.503,-1.015,0.0
16.887,-0.431,-0.961,1.0
14.995,-0.386,-0.94,0.0
13.852,-0.359,-0.95,0.0
12.786,-0.334,-0.952,0.0
11.938,-0.314,-0.958,0.0
19.352,-0.514,-1.017,0.0
14.691,-0.396,-0.942,0.0
13.516,-0.367,-0.947,0.0
12.578,-0.344,-0.954,0.0
11.707,-0.323,-0.956,0.0
18.838,-0.524,-1.016,0.0
15.882,-0.445,-0.948,0.0
14.416,-0.407,-0.944,0.0
13.313,-0.378,-0.951,0.0
12.375,-0.354,-0.956,0.0
11.448,-0.33,-0.95,0.0
18.268,-0.531,-1.01,0.0
15.489,-0.453,-0.946,0.0
14.201,-0.419,-0.949,0.0
13.161,-0.391,-0.958,0.0
12.178,-0.364,-0.957,0.0
11.242,-0.339,-0.949,0.0
17.746,-0.539,-1.005,0.0
15.127,-0.463,-0.944,0.0
13.934,-0.429,-0.95,0.0
12.844,-0.398,-0.952,0.0
11.959,-0.373,-0.955,0.0
11.106,-0.349,-0.952,0.0
17.208,-0.545,-0.997,0.0
14.751,-0.47,-0.939,0.0
13.581,-0.436,-0.943,0.0
12.671,-0.409,-0.955,0.0
11.694,-0.381,-0.949,0.0
10.964,-0.359,-0.953,0.0
16.659,-0.55,-0.985,0.0
14.519,-0.482,-0.943,0.0
13.458,-0.45,-0.951,0.0
12.468,-0.42,-0.955,0.0
11.53,-0.391,-0.95,0.0
10.784,-0.368,-0.951,0.0
16.252,-0.558,-0.981,0.0
14.361,-0.496,-0.949,0.0
13.254,-0.461,-0.953,0.0
12.319,-0.431,-0.958,0.0
11.37,-0.401,-0.95,0.0
10.655,-0.378,-0.952,0.0
16.128,-0.575,-0.992,0.0
14.085,-0.506,-0.948,0.0
13.091,-0.473,-0.956,0.0
12.132,-0.441,-0.958,0.0
11.235,-0.411,-0.952,0.0
10.525,-0.387,-0.953,0.0
15.832,-0.586,-0.992,0.0
13.902,-0.518,-0.951,0.0
12.852,-0.482,-0.953,0.0
11.911,-0.449,-0.953,0.0
11.128,-0.422,-0.955,0.0
10.401,-0.397,-0.953,0.0
14.741,-0.566,-0.94,0.0
13.583,-0.525,-0.944,0.0
12.691,-0.493,-0.955,0.0
11.762,-0.46,-0.954,0.0
11.011,-0.433,-0.957,0.0
10.273,-0.407,-0.952,0.0
14.56,-0.579,-0.943,0.0
13.475,-0.539,-0.951,0.0
12.578,-0.506,-0.96,0.0
11.565,-0.468,-0.95,0.0
10.795,-0.44,-0.949,0.0
10.165,-0.417,-0.953,0.0
14.425,-0.594,-0.949,0.0
13.354,-0.553,-0.955,0.0
12.405,-0.517,-0.959,0.0
11.437,-0.479,-0.951,0.0
10.722,-0.452,-0.954,0.0
10.054,-0.426,-0.952,0.0
14.288,-0.609,-0.954,0.0
13.216,-0.566,-0.958,0.0
12.214,-0.526,-0.956,0.0
11.325,-0.491,-0.953,0.0
10.638,-0.464,-0.956,0.0
9.976,-0.437,-0.954,0.0
14.045,-0.618,-0.951,0.0
13.085,-0.579,-0.961,0.0
12.029,-0.535,-0.953,0.0
11.21,-0.502,-0.953,0.0
10.524,-0.474,-0.956,0.0
9.875,-0.447,-0.954,0.0
13.77,-0.626,-0.944,0.0
12.885,-0.589,-0.958,0.0
11.921,-0.548,-0.954,0.0
11.085,-0.512,-0.952,0.0
10.433,-0.485,-0.956,0.0
9.78,-0.457,-0.953,0.0
13.654,-0.64,-0.948,0.0
12.734,-0.6,-0.957,0.0
11.795,-0.559,-0.954,0.0
11.022,-0.525,-0.956,0.0
10.343,-0.495,-0.957,0.0
9.707,-0.467,-0.954,0.0
13.551,-0.655,-0.952,0.0
12.656,-0.615,-0.961,0.0
11.708,-0.572,-0.956,0.0
10.882,-0.534,-0.953,0.0
10.227,-0.505,-0.954,0.0
9.633,-0.478,-0.954,0.0
13.473,-0.67,-0.957,0.0
12.507,-0.625,-0.96,0.0
11.516,-0.579,-0.949,0.0
10.768,-0.544,-0.951,0.0
10.163,-0.516,-0.955,0.0
9.556,-0.488,-0.953,0.0
13.321,-0.682,-0.955,0.0
12.348,-0.635,-0.956,0.0
11.476,-0.593,-0.954,0.0
10.727,-0.558,-0.954,0.0
10.06,-0.525,-0.953,0.0
9.509,-0.499,-0.955,0.0
13.281,-0.699,-0.961,0.0
12.267,-0.649,-0.958,0.0
11.396,-0.606,-0.955,0.0
10.593,-0.566,-0.949,0.0
9.995,-0.537,-0.953,0.0
9.422,-0.508,-0.952,0.0
13.076,-0.707,-0.955,0.0
12.196,-0.663,-0.96,0.0
11.271,-0.615,-0.951,0.0
10.509,-0.577,-0.948,0.0
9.938,-0.548,-0.954,0.0
9.375,-0.52,-0.953,0.0
13.01,-0.722,-0.958,0.0
12.15,-0.678,-0.963,0.0
11.231,-0.629,-0.955,0.0
10.528,-0.593,-0.956,0.0
9.904,-0.56,-0.956,0.0
9.332,-0.531,-0.954,0.0
12.931,-0.737,-0.959,0.0
12.013,-0.688,-0.959,0.0
11.108,-0.639,-0.95,0.0
10.432,-0.603,-0.953,0.0
9.855,-0.572,-0.956,0.0
9.272,-0.541,-0.953,0.0
12.889,-0.753,-0.962,0.0
11.936,-0.7,-0.959,0.0
11.082,-0.653,-0.953,0.0
10.402,-0.616,-0.955,0.0
9.797,-0.583,-0.955,0.0
9.215,-0.551,-0.951,0.0
12.761,-0.764,-0.958,0.0
11.832,-0.711,-0.956,0.0
11.079,-0.669,-0.958,0.0
10.368,-0.629,-0.956,0.0
9.769,-0.595,-0.957,0.0
9.185,-0.562,-0.952,0.0
12.674,-0.777,-0.957,0.0
11.794,-0.726,-0.957,0.0
10.304,-0.64,-0.954,0.0
9.718,-0.606,-0.955,0.0
9.156,-0.573,-0.952,0.0
12.676,-0.795,-0.962,0.0
11.749,-0.74,-0.958,0.0
10.24,-0.65,-0.952,0.0
9.681,-0.618,-0.955,0.0
9.135,-0.585,-0.953,0.0
12.64,-0.81,-0.963,0.0
11.736,-0.756,-0.961,0.0
10.25,-0.666,-0.956,0.0
9.653,-0.63,-0.955,0.0
9.097,-0.596,-0.952,0.0
12.582,-0.825,-0.962,0.0
11.667,-0.768,-0.958,0.0
10.878,-0.719,-0.955,0.0
10.246,-0.68,-0.958,0.0
9.659,-0.643,-0.958,0.0
9.078,-0.607,-0.952,0.0
12.567,-0.841,-0.964,0.0
11.625,-0.781,-0.957,0.0
10.881,-0.734,-0.957,0.0
10.172,-0.689,-0.954,0.0
9.639,-0.656,-0.958,0.0
9.068,-0.619,-0.953,0.0
12.52,-0.856,-0.963,0.0
11.62,-0.797,-0.959,0.0
10.824,-0.746,-0.954,0.0
10.137,-0.701,-0.952,0.0
9.6,-0.667,-0.956,0.0
9.058,-0.632,-0.953,0.0
12.491,-0.871,-0.963,0.0
11.616,-0.813,-0.96,0.0
10.856,-0.763,-0.959,0.0
10.158,-0.717,-0.955,0.0
9.612,-0.681,-0.958,0.0
9.032,-0.642,-0.952,0.0
12.478,-0.887,-0.963,0.0
11.567,-0.826,-0.958,0.0
10.79,-0.773,-0.954,0.0
10.135,-0.729,-0.954,0.0
9.6,-0.693,-0.958,0.0
9.051,-0.656,-0.954,0.0
12.467,-0.903,-0.963,0.0
11.571,-0.842,-0.958,0.0
10.781,-0.787,-0.954,0.0
10.161,-0.745,-0.957,0.0
9.596,-0.706,-0.958,0.0
9.015,-0.665,-0.951,0.0
12.459,-0.92,-0.962,0.0
11.594,-0.859,-0.961,0.0
10.834,-0.806,-0.958,0.0
10.158,-0.758,-0.957,0.0
9.586,-0.718,-0.957,0.0
9.037,-0.679,-0.953,0.0
12.517,-0.94,-0.967,0.0
11.616,-0.876,-0.962,0.0
10.814,-0.818,-0.956,0.0
10.154,-0.771,-0.956,0.0
9.628,-0.734,-0.96,0.0
9.065,-0.693,-0.955,0.0
12.498,-0.956,-0.964,0.0
11.588,-0.889,-0.959,0.0
10.796,-0.831,-0.954,0.0
10.181,-0.787,-0.957,0.0
9.608,-0.745,-0.958,0.0
9.054,-0.704,-0.953,0.0
12.488,-0.971,-0.962,0.0
11.601,-0.905,-0.959,0.0
10.862,-0.85,-0.958,0.0
10.183,-0.8,-0.956,0.0
9.632,-0.759,-0.959,0.0
9.073,-0.718,-0.954,0.0
12.535,-0.991,-0.964,0.0
11.617,-0.921,-0.958,0.0
10.918,-0.869,-0.961,0.0
10.218,-0.816,-0.958,0.0
9.66,-0.774,-0.96,0.0
9.09,-0.731,-0.954,0.0
12.591,-1.011,-0.966,0.0
11.702,-0.943,-0.963,0.0
10.948,-0.885,-0.962,0.0
10.252,-0.831,-0.959,0.0
9.67,-0.786,-0.959,0.0
9.124,-0.745,-0.955,0.0
12.598,-1.027,-0.963,0.0
11.716,-0.958,-0.961,0.0
10.982,-0.901,-0.962,0.0
10.276,-0.846,-0.958,0.0
9.711,-0.802,-0.96,0.0
9.163,-0.759,-0.957,0.0
12.694,-1.051,-0.967,0.0
11.77,-0.977,-0.962,0.0
11.033,-0.919,-0.963,0.0
10.298,-0.86,-0.957,0.0
9.734,-0.816,-0.959,0.0
9.187,-0.772,-0.957,0.0
12.682,-1.065,-0.962,0.0
11.808,-0.994,-0.962,0.0
11.093,-0.937,-0.965,0.0
10.331,-0.875,-0.957,0.0
9.741,-0.828,-0.957,0.0
9.224,-0.786,-0.957,0.0
12.765,-1.087,-0.964,0.0
11.862,-1.013,-0.962,0.0
11.078,-0.949,-0.959,0.0
10.366,-0.89,-0.956,0.0
9.841,-0.848,-0.963,0.0
9.279,-0.802,-0.959,0.0
12.824,-1.107,-0.964,0.0
11.967,-1.036,-0.965,0.0
11.125,-0.965,-0.959,0.0
10.396,-0.905,-0.955,0.0
9.842,-0.859,-0.959,0.0
9.315,-0.815,-0.959,0.0
12.906,-1.128,-0.964,0.0
12.024,-1.054,-0.965,0.0
11.152,-0.98,-0.956,0.0
10.496,-0.925,-0.959,0.0
9.919,-0.877,-0.962,0.0
9.375,-0.831,-0.961,0.0
13.066,-1.157,-0.97,0.0
12.071,-1.071,-0.963,0.0
11.241,-1.0,-0.959,0.0
10.592,-0.945,-0.963,0.0
9.952,-0.89,-0.96,0.0
9.395,-0.843,-0.958,0.0
13.156,-1.179,-0.97,0.0
12.127,-1.089,-0.961,0.0
11.34,-1.021,-0.961,0.0
10.582,-0.955,-0.956,0.0
10.028,-0.908,-0.962,0.0
9.478,-0.86,-0.961,0.0
13.227,-1.199,-0.968,0.0
12.246,-1.113,-0.964,0.0
11.429,-1.041,-0.962,0.0
0.0,0.0,0.0,0.0
10.115,-0.926,-0.964,0.0
9.529,-0.875,-0.961,0.0
13.426,-1.231,-0.975,0.0
12.421,-1.141,-0.97,0.0
11.591,-1.067,-0.969,0.0
10.698,-0.988,-0.954,0.0
10.181,-0.942,-0.964,0.0
9.583,-0.889,-0.961,0.0
13.568,-1.257,-0.977,0.0
12.518,-1.162,-0.97,0.0
11.682,-1.087,-0.969,0.0
10.878,-1.015,-0.963,0.0
10.264,-0.96,-0.965,0.0
9.677,-0.907,-0.964,0.0
13.752,-1.287,-0.981,0.0
12.663,-1.188,-0.973,0.0
11.779,-1.107,-0.969,0.0
10.891,-1.026,-0.957,0.0
10.298,-0.973,-0.962,0.0
9.723,-0.921,-0.961,0.0
13.786,-1.303,-0.974,1.0
12.764,-1.209,-0.972,0.0
11.903,-1.13,-0.971,0.0
11.045,-1.051,-0.963,0.0
10.347,-0.987,-0.959,0.0
9.813,-0.938,-0.963,0.0
13.776,-1.315,-0.963,2.0
12.907,-1.234,-0.973,0.0
11.963,-1.146,-0.967,0.0
11.132,-1.069,-0.962,0.0
10.471,-1.008,-0.962,0.0
9.88,-0.953,-0.962,0.0
13.768,-1.326,-0.953,1.0
13.117,-1.266,-0.979,0.0
12.037,-1.164,-0.964,0.0
11.24,-1.089,-0.963,0.0
10.572,-1.026,-0.963,0.0
9.938,-0.967,-0.96,0.0
13.74,-1.334,-0.94,1.0
13.288,-1.293,-0.981,0.0
12.192,-1.189,-0.967,0.0
11.34,-1.108,-0.962,0.0
0.0,0.0,0.0,0.0
10.044,-0.985,-0.962,0.0
13.713,-1.343,-0.927,1.0
13.421,-1.317,-0.98,1.0
12.26,-1.205,-0.962,0.0
11.552,-1.137,-0.97,0.0
10.746,-1.06,-0.962,0.0
10.145,-1.003,-0.963,0.0
13.696,-1.352,-0.914,1.0
13.52,-1.336,-0.976,1.0
12.578,-1.245,-0.976,0.0
11.642,-1.155,-0.968,0.0
10.837,-1.077,-0.96,0.0
10.279,-1.023,-0.967,0.0
13.699,-1.362,-0.902,1.0
13.555,-1.349,-0.966,2.0
12.748,-1.271,-0.978,0.0
11.823,-1.181,-0.972,0.0
11.031,-1.104,-0.967,0.0
10.323,-1.035,-0.962,0.0
13.661,-1.367,-0.887,1.0
13.603,-1.363,-0.957,1.0
13.027,-1.308,-0.987,0.0
11.957,-1.202,-0.972,0.0
11.149,-1.123,-0.967,0.0
10.467,-1.056,-0.965,0.0
13.662,-1.376,-0.875,2.0
13.64,-1.376,-0.947,1.0
13.113,-1.325,-0.981,0.0
12.035,-1.218,-0.967,0.0
11.235,-1.139,-0.964,0.0
10.581,-1.074,-0.965,0.0
13.662,-1.384,-0.862,1.0
13.646,-1.385,-0.934,1.0
13.296,-1.351,-0.982,0.0
12.2,-1.242,-0.969,0.0
11.447,-1.167,-0.971,0.0
10.656,-1.088,-0.962,0.0
13.716,-1.398,-0.851,0.0
13.639,-1.392,-0.92,1.0
13.492,-1.379,-0.983,1.0
12.329,-1.261,-0.967,0.0
11.647,-1.193,-0.976,0.0
10.723,-1.1,-0.957,0.0
13.891,-1.423,-0.848,0.0
13.61,-1.396,-0.905,1.0
13.526,-1.389,-0.972,1.0
12.83,-1.319,-0.993,0.0
11.742,-1.209,-0.972,0.0
10.957,-1.13,-0.966,0.0
14.062,-1.447,-0.844,1.0
13.6,-1.401,-0.89,1.0
13.564,-1.399,-0.961,1.0
12.875,-1.33,-0.983,0.0
11.918,-1.233,-0.974,0.0
11.159,-1.156,-0.972,0.0
14.211,-1.469,-0.838,1.0
13.601,-1.407,-0.875,1.0
13.582,-1.407,-0.947,1.0
13.031,-1.352,-0.98,0.0
12.086,-1.255,-0.975,0.0
11.254,-1.17,-0.968,0.0
14.395,-1.494,-0.834,0.0
13.609,-1.414,-0.861,1.0
13.579,-1.412,-0.932,1.0
13.415,-1.397,-0.995,0.0
12.219,-1.273,-0.972,0.0
11.437,-1.193,-0.971,0.0
14.634,-1.524,-0.831,0.0
13.692,-1.427,-0.851,0.0
13.572,-1.416,-0.917,1.0
13.516,-1.412,-0.987,1.0
13.465,-1.408,-1.056,0.0
11.614,-1.216,-0.973,0.0
14.843,-1.551,-0.826,1.0
13.894,-1.453,-0.848,0.0
13.57,-1.42,-0.901,1.0
13.512,-1.416,-0.971,3.0
13.168,-1.381,-1.017,0.0
11.8,-1.239,-0.975,0.0
15.076,-1.58,-0.822,1.0
14.071,-1.475,-0.843,1.0
13.562,-1.423,-0.885,1.0
13.52,-1.42,-0.956,3.0
13.002,-1.367,-0.989,0.0
11.957,-1.258,-0.974,0.0
15.223,-1.599,-0.812,1.0
14.263,-1.499,-0.837,1.0
13.57,-1.427,-0.869,1.0
13.54,-1.425,-0.941,1.0
13.221,-1.393,-0.99,0.0
12.133,-1.279,-0.974,0.0
15.455,-1.626,-0.806,1.0
14.518,-1.529,-0.835,1.0
13.624,-1.435,-0.857,0.0
13.541,-1.427,-0.925,1.0
13.488,-1.423,-0.994,1.0
12.268,-1.295,-0.97,0.0
15.709,-1.656,-0.801,1.0
14.707,-1.551,-0.828,1.0
13.814,-1.457,-0.852,0.0
13.544,-1.43,-0.909,1.0
13.534,-1.429,-0.981,1.0
13.327,-1.408,-1.037,0.0
15.982,-1.686,-0.795,1.0
14.997,-1.583,-0.826,1.0
14.006,-1.479,-0.847,1.0
13.546,-1.431,-0.893,1.0
13.533,-1.43,-0.964,3.0
12.964,-1.371,-0.993,0.0
16.271,-1.718,-0.79,1.0
15.178,-1.603,-0.817,2.0
14.185,-1.499,-0.84,1.0
13.544,-1.431,-0.876,1.0
13.517,-1.429,-0.946,2.0
13.067,-1.382,-0.985,0.0
16.542,-1.747,-0.782,1.0
15.384,-1.625,-0.81,1.0
14.44,-1.526,-0.837,0.0
13.585,-1.436,-0.861,0.0
13.539,-1.431,-0.93,1.0
13.454,-1.423,-0.997,0.0
16.966,-1.792,-0.781,0.0
15.657,-1.654,-0.804,1.0
14.66,-1.549,-0.831,1.0
13.776,-1.455,-0.856,0.0
13.55,-1.432,-0.914,1.0
13.52,-1.429,-0.984,1.0
17.376,-1.834,-0.778,1.0
15.917,-1.68,-0.797,1.0
14.918,-1.575,-0.827,1.0
13.957,-1.473,-0.849,0.0
13.541,-1.43,-0.896,1.0
13.519,-1.428,-0.967,3.0
17.824,-1.879,-0.775,1.0
16.252,-1.713,-0.793,1.0
15.141,-1.596,-0.82,1.0
14.187,-1.496,-0.845,1.0
13.555,-1.429,-0.88,1.0
13.535,-1.427,-0.951,2.0
18.226,-1.919,-0.769,1.0
16.496,-1.737,-0.784,1.0
15.35,-1.616,-0.811,1.0
14.418,-1.518,-0.84,0.0
13.59,-1.43,-0.864,1.0
13.544,-1.425,-0.934,1.0
18.755,-1.971,-0.767,1.0
16.904,-1.776,-0.781,0.0
15.649,-1.644,-0.807,0.0
14.628,-1.536,-0.833,0.0
13.755,-1.445,-0.857,0.0
13.554,-1.423,-0.917,1.0
19.282,-2.022,-0.764,1.0
17.345,-1.818,-0.779,0.0
15.93,-1.669,-0.8,1.0
14.912,-1.562,-0.83,1.0
13.964,-1.463,-0.852,1.0
13.56,-1.42,-0.899,1.0
19.767,-2.067,-0.757,2.0
17.864,-1.867,-0.779,1.0
16.237,-1.697,-0.795,1.0
15.151,-1.583,-0.823,1.0
14.187,-1.481,-0.846,1.0
13.577,-1.417,-0.882,1.0
20.321,-2.119,-0.752,2.0
18.235,-1.9,-0.771,1.0
16.517,-1.72,-0.786,1.0
15.321,-1.595,-0.812,1.0
14.379,-1.496,-0.839,0.0
13.61,-1.416,-0.866,1.0
20.838,-2.165,-0.744,2.0
18.811,-1.953,-0.771,1.0
16.883,-1.752,-0.781,0.0
15.658,-1.624,-0.81,0.0
14.661,-1.519,-0.836,0.0
13.76,-1.425,-0.858,0.0
21.54,-2.229,-0.74,1.0
19.281,-1.993,-0.765,1.0
17.35,-1.793,-0.78,0.0
15.929,-1.645,-0.802,1.0
14.984,-1.546,-0.834,1.0
14.003,-1.444,-0.854,0.0
22.18,-2.284,-0.733,1.0
19.85,-2.043,-0.761,1.0
17.892,-1.84,-0.781,0.0
16.242,-1.669,-0.797,1.0
15.149,-1.555,-0.823,1.0
14.2,-1.457,-0.847,1.0
22.935,-2.351,-0.727,2.0
20.306,-2.079,-0.751,2.0
18.333,-1.876,-0.776,1.0
16.514,-1.688,-0.788,1.0
15.392,-1.572,-0.816,1.0
14.389,-1.468,-0.839,0.0
23.722,-2.418,-0.721,4.0
20.876,-2.126,-0.745,1.0
18.872,-1.92,-0.773,1.0
17.001,-1.728,-0.789,0.0
15.673,-1.591,-0.81,1.0
14.709,-1.492,-0.838,0.0
24.745,-2.507,-0.719,5.0
21.637,-2.19,-0.743,1.0
19.394,-1.961,-0.769,1.0
17.337,-1.751,-0.781,0.0
15.995,-1.614,-0.805,1.0
15.014,-1.513,-0.836,1.0
25.62,-2.58,-0.71,6.0
22.344,-2.247,-0.738,1.0
19.92,-2.001,-0.763,2.0
18.004,-1.806,-0.787,0.0
16.282,-1.632,-0.798,1.0
15.242,-1.526,-0.828,1.0
26.365,-2.637,-0.697,6.0
23.133,-2.31,-0.734,2.0
20.448,-2.039,-0.757,1.0
18.391,-1.832,-0.78,1.0
16.62,-1.654,-0.793,1.0
15.456,-1.536,-0.819,1.0
27.181,-2.698,-0.682,5.0
23.858,-2.365,-0.725,5.0
21.035,-2.082,-0.751,1.0
18.846,-1.863,-0.774,1.0
16.965,-1.675,-0.787,0.0
15.659,-1.544,-0.81,1.0
28.051,-2.763,-0.668,3.0
24.848,-2.444,-0.723,5.0
21.638,-2.125,-0.744,0.0
19.473,-1.909,-0.775,1.0
17.474,-1.711,-0.788,1.0
16.029,-1.567,-0.808,1.0
29.214,-2.854,-0.658,1.0
25.675,-2.504,-0.714,6.0
22.475,-2.188,-0.744,1.0
19.914,-1.936,-0.767,2.0
17.906,-1.738,-0.784,0.0
16.309,-1.581,-0.801,1.0
30.416,-2.945,-0.646,3.0
26.467,-2.558,-0.702,6.0
23.161,-2.235,-0.737,1.0
20.353,-1.961,-0.758,1.0
18.376,-1.767,-0.781,0.0
16.606,-1.594,-0.794,1.0
31.243,-2.997,-0.623,1.0
27.353,-2.619,-0.691,7.0
24.236,-2.316,-0.74,5.0
21.189,-2.021,-0.761,0.0
18.954,-1.805,-0.781,1.0
17.051,-1.621,-0.794,0.0
33.964,-3.226,-0.634,3.0
28.241,-2.677,-0.676,7.0
25.019,-2.366,-0.732,5.0
21.699,-2.048,-0.752,3.0
19.38,-1.826,-0.774,1.0
17.407,-1.637,-0.788,0.0
34.636,-3.255,-0.603,11.0
29.338,-2.751,-0.666,3.0
25.609,-2.397,-0.717,9.0
22.153,-2.069,-0.74,3.0
19.911,-1.856,-0.771,1.0
17.946,-1.669,-0.79,1.0
35.247,-3.276,-0.569,12.0
30.546,-2.833,-0.655,5.0
26.467,-2.449,-0.708,6.0
23.231,-2.145,-0.747,4.0
20.385,-1.878,-0.763,0.0
18.409,-1.693,-0.787,1.0
0.0,0.0,0.0,0.0
31.203,-2.86,-0.631,2.0
27.345,-2.5,-0.698,6.0
23.774,-2.169,-0.735,10.0
20.998,-1.912,-0.761,1.0
18.864,-1.714,-0.783,1.0
38.926,-3.533,-0.533,15.0
32.398,-2.933,-0.615,4.0
28.021,-2.531,-0.68,4.0
23.82,-2.146,-0.707,13.0
21.521,-1.935,-0.753,1.0
19.279,-1.729,-0.777,1.0
40.028,-3.586,-0.499,15.0
34.021,-3.04,-0.605,2.0
29.4,-2.621,-0.678,3.0
23.925,-2.127,-0.681,5.0
22.293,-1.977,-0.753,1.0
19.887,-1.76,-0.778,1.0
40.506,-3.581,-0.457,4.0
0.0,0.0,0.0,0.0
30.281,-2.663,-0.663,5.0
26.692,-2.341,-0.729,2.0
23.11,-2.021,-0.754,4.0
20.304,-1.772,-0.77,0.0
45.282,-3.947,-0.457,20.0
37.714,-3.278,-0.581,13.0
30.983,-2.685,-0.642,2.0
27.194,-2.351,-0.71,5.0
23.718,-2.045,-0.746,12.0
20.908,-1.798,-0.768,0.0
46.814,-4.021,-0.419,21.0
38.686,-3.313,-0.551,14.0
32.187,-2.748,-0.63,1.0
27.815,-2.368,-0.695,3.0
23.849,-2.025,-0.723,17.0
21.323,-1.805,-0.76,1.0
0.0,0.0,0.0,0.0
40.107,-3.382,-0.526,15.0
34.039,-2.862,-0.627,1.0
28.817,-2.415,-0.687,7.0
24.215,-2.023,-0.706,17.0
21.967,-1.83,-0.758,0.0
50.578,-4.209,-0.337,9.0
41.359,-3.431,-0.496,16.0
35.343,-2.923,-0.612,2.0
29.998,-2.473,-0.682,8.0
24.892,-2.045,-0.698,16.0
22.864,-1.873,-0.763,1.0
54.141,-4.431,-0.301,6.0
45.895,-3.744,-0.5,20.0
38.978,-3.169,-0.632,1.0
30.628,-2.482,-0.662,5.0
25.345,-2.047,-0.683,6.0
23.553,-1.896,-0.76,5.0
61.152,-4.918,-0.274,5.0
46.714,-3.743,-0.458,21.0
0.0,0.0,0.0,0.0
31.459,-2.503,-0.646,2.0
27.516,-2.182,-0.712,2.0
23.801,-1.881,-0.743,11.0
61.689,-4.87,-0.21,1.0
0.0,0.0,0.0,0.0
40.251,-3.155,-0.566,6.0
33.047,-2.581,-0.644,2.0
28.303,-2.203,-0.703,2.0
23.922,-1.855,-0.722,14.0
61.729,-4.782,-0.147,22.0
50.206,-3.875,-0.387,15.0
41.752,-3.21,-0.545,3.0
33.883,-2.595,-0.626,1.0
29.411,-2.245,-0.7,3.0
24.184,-1.839,-0.705,14.0
65.749,-4.993,-0.091,3.0
53.896,-4.077,-0.361,9.0
45.828,-3.453,-0.552,6.0
35.052,-2.631,-0.613,2.0
30.162,-2.255,-0.688,8.0
24.564,-1.83,-0.692,9.0
65.602,-4.881,-0.026,7.0
55.841,-4.138,-0.32,8.0
46.363,-3.421,-0.513,20.0
36.105,-2.654,-0.596,1.0
30.803,-2.255,-0.673,7.0
24.716,-1.802,-0.672,8.0
65.455,-4.767,0.036,0.0
0.0,0.0,0.0,0.0
49.314,-3.56,-0.499,8.0
38.908,-2.797,-0.605,0.0
31.251,-2.237,-0.654,5.0
24.762,-1.765,-0.65,2.0
65.464,-4.66,0.097,1.0
60.949,-4.32,-0.234,1.0
49.507,-3.493,-0.455,14.0
40.188,-2.823,-0.588,3.0
30.702,-2.148,-0.614,0.0
24.569,-1.711,-0.623,6.0
65.432,-4.55,0.157,2.0
66.192,-4.581,-0.194,3.0
0.0,0.0,0.0,0.0
40.738,-2.794,-0.56,1.0
24.628,-1.681,-0.47,2.0
24.478,-1.664,-0.598,23.0
65.509,-4.445,0.216,2.0
65.835,-4.444,-0.134,2.0
24.624,-1.654,-0.182,3.0
24.546,-1.641,-0.315,14.0
24.513,-1.631,-0.446,26.0
24.451,-1.619,-0.576,32.0
24.586,-1.626,0.102,25.0
24.547,-1.615,-0.029,25.0
24.555,-1.607,-0.161,32.0
24.507,-1.596,-0.294,38.0
24.511,-1.589,-0.426,45.0
24.461,-1.577,-0.556,38.0
24.55,-1.58,0.122,45.0
24.536,-1.571,-0.009,48.0
24.518,-1.562,-0.14,50.0
24.491,-1.552,-0.274,52.0
24.502,-1.544,-0.406,53.0
24.46,-1.534,-0.536,53.0
24.516,-1.534,0.142,44.0
24.526,-1.527,0.01,80.0
24.51,-1.518,-0.121,62.0
24.493,-1.508,-0.255,60.0
24.514,-1.501,-0.387,70.0
24.478,-1.492,-0.518,63.0
24.53,-1.491,0.161,77.0
24.529,-1.483,0.029,94.0
24.515,-1.473,-0.102,71.0
24.502,-1.465,-0.236,60.0
24.51,-1.457,-0.368,75.0
24.483,-1.447,-0.5,46.0
24.529,-1.446,0.179,60.0
24.53,-1.438,0.047,52.0
24.526,-1.429,-0.084,63.0
24.523,-1.421,-0.219,57.0
24.529,-1.413,-0.351,62.0
24.514,-1.404,-0.483,49.0
24.578,-1.404,0.197,44.0
24.575,-1.395,0.064,34.0
24.588,-1.388,-0.067,32.0
24.564,-1.378,-0.202,37.0
24.556,-1.369,-0.335,39.0
24.546,-1.36,-0.467,35.0
65.736,-3.633,0.571,7.0
0.0,0.0,0.0,0.0
65.918,-3.596,-0.137,0.0
55.068,-2.985,-0.417,4.0
24.596,-1.325,-0.319,1.0
31.304,-1.675,-0.575,18.0
0.0,0.0,0.0,0.0
0.0,0.0,0.0,0.0
66.067,-3.479,-0.096,5.0
56.697,-2.966,-0.394,8.0
44.164,-2.295,-0.546,1.0
31.298,-1.615,-0.556,19.0
0.0,0.0,0.0,0.0
66.667,-3.407,0.302,1.0
67.242,-3.412,-0.057,0.0
65.569,-3.303,-0.417,3.0
47.266,-2.364,-0.556,0.0
31.236,-1.552,-0.536,27.0
82.312,-4.075,0.866,5.0
67.953,-3.341,0.347,1.0
0.0,0.0,0.0,0.0
31.286,-1.515,-0.181,18.0
31.206,-1.5,-0.35,40.0
31.192,-1.489,-0.518,43.0
83.05,-3.949,0.92,41.0
79.908,-3.77,0.452,17.0
31.258,-1.463,0.007,27.0
31.193,-1.449,-0.164,42.0
31.168,-1.437,-0.333,43.0
31.192,-1.427,-0.502,57.0
31.28,-1.425,0.362,27.0
31.237,-1.411,0.192,45.0
31.212,-1.398,0.023,46.0
31.192,-1.386,-0.148,37.0
28.476,-1.255,-0.29,57.0
28.456,-1.245,-0.444,58.0
28.462,-1.239,0.343,67.0
28.45,-1.228,0.189,60.0
28.425,-1.217,0.034,81.0
28.449,-1.208,-0.122,125.0
28.443,-1.197,-0.277,107.0
28.445,-1.187,-0.431,109.0
28.446,-1.181,0.356,119.0
28.45,-1.171,0.201,131.0
28.444,-1.16,0.046,152.0
28.442,-1.15,-0.11,81.0
28.454,-1.14,-0.265,66.0
28.465,-1.13,-0.42,63.0
28.457,-1.124,0.367,69.0
28.469,-1.114,0.213,57.0
31.242,-1.211,0.063,26.0
31.296,-1.202,-0.109,70.0
31.318,-1.191,-0.279,46.0
31.318,-1.179,-0.45,31.0
31.29,-1.171,0.416,45.0
31.334,-1.161,0.245,36.0
80.363,-2.95,0.193,27.0
80.759,-2.934,-0.253,10.0
54.217,-1.949,-0.465,2.0
38.43,-1.367,-0.539,11.0
84.273,-2.979,1.149,29.0
80.386,-2.812,0.658,19.0
80.462,-2.785,0.22,37.0
80.996,-2.773,-0.228,9.0
38.747,-1.313,-0.32,24.0
38.551,-1.292,-0.529,18.0
38.737,-1.289,0.539,22.0
38.691,-1.273,0.328,39.0
38.686,-1.258,0.117,49.0
38.679,-1.244,-0.098,59.0
38.649,-1.229,-0.309,58.0
38.55,-1.212,-0.518,25.0
38.634,-1.205,0.548,69.0
38.642,-1.191,0.337,69.0
38.646,-1.178,0.126,65.0
38.625,-1.162,-0.088,73.0
38.668,-1.15,-0.299,87.0
38.586,-1.133,-0.51,32.0
38.65,-1.125,0.557,90.0
38.635,-1.11,0.346,85.0
38.636,-1.096,0.134,67.0
38.635,-1.082,-0.08,70.0
38.667,-1.069,-0.292,61.0
38.602,-1.053,-0.502,25.0
38.67,-1.045,0.565,67.0
38.667,-1.03,0.353,50.0
38.683,-1.016,0.141,41.0
38.716,-1.002,-0.073,33.0
38.77,-0.989,-0.286,28.0
38.68,-0.972,-0.497,27.0
40.428,-1.005,0.597,26.0
40.426,-0.991,0.375,28.0
40.41,-0.975,0.153,37.0
40.407,-0.96,-0.071,38.0
40.411,-0.946,-0.293,39.0
40.407,-0.931,-0.514,48.0
40.441,-0.921,0.601,150.0
40.408,-0.905,0.379,39.0
38.386,-0.846,0.15,10.0
38.357,-0.83,-0.064,37.0
38.359,-0.816,-0.275,49.0
38.364,-0.802,-0.485,16.0
52.958,-1.093,0.792,8.0
52.937,-1.073,0.501,65.0
52.945,-1.054,0.21,59.0
52.952,-1.034,-0.085,29.0
52.914,-1.014,-0.376,49.0
44.979,-0.846,-0.567,34.0
192.824,-3.572,2.893,34.0
0.0,0.0,0.0,0.0
20.123,-0.358,0.08,16.0
20.127,-0.35,-0.032,28.0
52.984,-0.904,-0.375,19.0
45.016,-0.751,-0.567,34.0
20.157,-0.33,0.302,1.0
20.131,-0.322,0.191,10.0
20.14,-0.315,0.08,28.0
20.128,-0.307,-0.032,4.0
59.428,-0.886,-0.423,4.0
44.998,-0.655,-0.568,26.0
20.138,-0.287,0.301,11.0
20.119,-0.279,0.19,11.0
59.524,-0.805,0.235,11.0
59.551,-0.783,-0.098,23.0
58.815,-0.752,-0.422,5.0
45.01,-0.559,-0.571,28.0
20.15,-0.244,0.3,11.0
20.168,-0.237,0.189,2.0
56.121,-0.638,0.217,3.0
56.132,-0.618,-0.098,1.0
58.805,-0.626,-0.427,10.0
44.967,-0.462,-0.575,31.0
53.389,-0.532,0.789,10.0
53.376,-0.512,0.494,14.0
53.369,-0.493,0.199,10.0
53.334,-0.473,-0.1,10.0
20.178,-0.172,-0.149,11.0
20.157,-0.164,-0.26,26.0
20.242,-0.158,0.296,23.0
20.18,-0.15,0.184,17.0
20.134,-0.143,0.072,18.0
20.163,-0.136,-0.041,24.0
20.149,-0.129,-0.152,26.0
20.14,-0.121,-0.263,36.0
20.131,-0.115,0.291,26.0
20.126,-0.107,0.179,26.0
20.126,-0.1,0.068,38.0
20.135,-0.093,-0.045,28.0
20.143,-0.085,-0.156,37.0
20.14,-0.078,-0.268,32.0
20.122,-0.071,0.286,30.0
20.122,-0.064,0.175,31.0
20.129,-0.057,0.063,41.0
20.12,-0.049,-0.049,31.0
20.163,-0.042,-0.161,30.0
20.173,-0.035,-0.273,22.0
20.127,-0.028,0.281,27.0
20.115,-0.021,0.169,28.0
20.14,-0.014,0.058,27.0
20.274,-0.007,-0.055,75.0
20.258,0.0,-0.168,150.0
20.267,0.007,-0.28,150.0
20.142,0.014,0.275,28.0
20.131,0.021,0.163,28.0
20.204,0.028,0.052,12.0
20.249,0.035,-0.062,9.0
20.216,0.042,-0.174,18.0
20.228,0.049,-0.286,0.0
20.14,0.056,0.269,28.0
20.152,0.063,0.157,28.0
20.204,0.071,0.045,36.0
20.188,0.078,-0.069,32.0
20.184,0.085,-0.181,28.0
20.214,0.092,-0.294,24.0
20.162,0.099,0.261,29.0
20.166,0.106,0.149,27.0
20.184,0.114,0.037,33.0
20.181,0.121,-0.076,29.0
20.176,0.127,-0.189,25.0
20.177,0.134,-0.301,34.0
20.186,0.142,0.253,25.0
20.188,0.149,0.141,20.0
20.234,0.156,0.029,26.0
20.197,0.163,-0.085,20.0
20.168,0.17,-0.197,18.0
20.187,0.177,-0.31,33.0
20.288,0.186,0.246,29.0
20.321,0.193,0.133,30.0
20.349,0.2,0.019,23.0
0.0,0.0,0.0,0.0
20.187,0.212,-0.207,17.0
20.18,0.219,-0.319,26.0
20.3,0.228,0.236,25.0
20.308,0.235,0.123,2.0
99.526,1.19,0.048,4.0
0.0,0.0,0.0,0.0
0.0,0.0,0.0,0.0
20.205,0.262,-0.33,1.0
0.0,0.0,0.0,0.0
99.651,1.363,0.553,5.0
99.737,1.398,-0.003,3.0
0.0,0.0,0.0,0.0
0.0,0.0,0.0,0.0
0.0,0.0,0.0,0.0
0.0,0.0,0.0,0.0
99.789,1.571,0.498,5.0
99.786,1.604,-0.059,4.0
0.0,0.0,0.0,0.0
0.0,0.0,0.0,0.0
42.811,0.73,-0.748,0.0
0.0,0.0,0.0,0.0
99.852,1.776,0.44,8.0
0.0,0.0,0.0,0.0
0.0,0.0,0.0,0.0
0.0,0.0,0.0,0.0
0.0,0.0,0.0,0.0
102.909,2.008,0.965,5.0
100.011,1.985,0.377,5.0
99.974,2.018,-0.183,6.0
0.0,0.0,0.0,0.0
0.0,0.0,0.0,0.0
40.472,0.856,-0.758,0.0
0.0,0.0,0.0,0.0
100.255,2.193,0.311,1.0
100.08,2.222,-0.25,4.0
0.0,0.0,0.0,0.0
0.0,0.0,0.0,0.0
40.294,0.933,-0.783,0.0
102.975,2.429,0.825,1.0
100.191,2.395,0.24,3.0
0.0,0.0,0.0,0.0
0.0,0.0,0.0,0.0
0.0,0.0,0.0,0.0
39.058,0.983,-0.787,0.0
103.159,2.638,0.752,8.0
0.0,0.0,0.0,0.0
0.0,0.0,0.0,0.0
0.0,0.0,0.0,0.0
0.0,0.0,0.0,0.0
37.953,1.03,-0.793,0.0
0.0,0.0,0.0,0.0
0.0,0.0,0.0,0.0
0.0,0.0,0.0,0.0
0.0,0.0,0.0,0.0
