X,Y,Z,Reflectivity
20.124,-0.015,0.158,28.0
20.134,-0.022,0.044,33.0
20.14,-0.028,-0.071,31.0
20.148,-0.035,-0.185,24.0
20.166,-0.041,-0.299,24.0
20.126,-0.048,0.252,33.0
20.123,-0.054,0.138,34.0
20.135,-0.06,0.025,36.0
20.145,-0.067,-0.09,29.0
20.154,-0.074,-0.205,22.0
20.153,-0.08,-0.319,34.0
20.133,-0.086,0.233,26.0
20.132,-0.093,0.119,30.0
20.137,-0.099,0.006,29.0
20.154,-0.106,-0.109,26.0
20.14,-0.112,-0.223,26.0
20.147,-0.119,-0.337,37.0
20.148,-0.125,0.215,17.0
20.14,-0.132,0.101,16.0
20.192,-0.139,-0.012,20.0
20.148,-0.145,-0.128,17.0
20.165,-0.152,-0.242,26.0
20.168,-0.159,-0.356,27.0
66.526,-0.545,0.652,21.0
53.34,-0.455,0.222,8.0
56.237,-0.498,-0.083,4.0
56.654,-0.521,-0.409,1.0
44.926,-0.428,-0.578,34.0
0.0,0.0,0.0,0.0
64.351,-0.655,0.576,55.0
56.144,-0.59,0.186,2.0
56.199,-0.61,-0.13,1.0
53.301,-0.596,-0.429,4.0
44.705,-0.515,-0.612,19.0
35.916,-0.426,-0.695,4.0
20.156,-0.245,0.164,7.0
59.552,-0.743,0.149,63.0
59.545,-0.764,-0.186,2.0
52.838,-0.696,-0.468,17.0
39.25,-0.531,-0.569,7.0
31.938,-0.443,-0.643,9.0
20.129,-0.285,0.148,13.0
20.121,-0.291,0.034,15.0
56.849,-0.843,-0.221,3.0
52.844,-0.802,-0.508,15.0
38.388,-0.596,-0.585,13.0
31.225,-0.495,-0.652,17.0
20.132,-0.325,0.133,11.0
20.138,-0.332,0.02,51.0
53.042,-0.892,-0.245,6.0
45.409,-0.78,-0.469,19.0
38.124,-0.668,-0.609,21.0
30.839,-0.551,-0.666,29.0
67.642,-1.229,0.4,6.0
52.986,-0.981,0.015,24.0
52.951,-0.999,-0.281,10.0
45.132,-0.867,-0.498,19.0
37.971,-0.742,-0.632,20.0
30.585,-0.608,-0.681,33.0
52.917,-1.068,0.278,10.0
38.366,-0.788,-0.013,37.0
38.365,-0.801,-0.229,51.0
38.373,-0.815,-0.448,10.0
37.791,-0.816,-0.654,13.0
30.501,-0.67,-0.699,31.0
40.439,-0.899,0.186,151.0
40.416,-0.912,-0.039,42.0
40.413,-0.927,-0.266,42.0
0.0,0.0,0.0,0.0
37.941,-0.896,-0.68,2.0
30.44,-0.73,-0.716,27.0
40.431,-0.98,0.163,26.0
38.778,-0.954,-0.06,26.0
38.766,-0.967,-0.278,27.0
38.57,-0.976,-0.496,20.0
31.408,-0.806,-0.58,17.0
30.344,-0.79,-0.731,16.0
38.677,-1.016,0.134,66.0
38.669,-1.03,-0.081,62.0
38.673,-1.044,-0.298,62.0
38.441,-1.051,-0.516,21.0
31.138,-0.862,-0.592,26.0
30.211,-0.848,-0.744,7.0
38.664,-1.095,0.114,93.0
38.666,-1.108,-0.101,117.0
38.643,-1.121,-0.317,67.0
38.335,-1.127,-0.533,18.0
30.969,-0.921,-0.604,30.0
28.602,-0.861,-0.718,1.0
38.655,-1.174,0.095,65.0
38.661,-1.188,-0.12,61.0
38.638,-1.201,-0.335,59.0
38.257,-1.203,-0.55,14.0
30.804,-0.98,-0.615,30.0
28.439,-0.915,-0.727,1.0
38.732,-1.255,0.079,37.0
38.737,-1.27,-0.137,34.0
38.694,-1.282,-0.353,33.0
38.192,-1.28,-0.565,14.0
30.722,-1.04,-0.626,30.0
28.271,-0.968,-0.734,1.0
80.633,-2.78,0.131,28.0
80.28,-2.796,-0.316,4.0
45.433,-1.598,-0.432,6.0
38.063,-1.353,-0.578,13.0
30.613,-1.099,-0.635,34.0
27.924,-1.013,-0.736,0.0
31.345,-1.144,0.039,19.0
31.363,-1.156,-0.134,53.0
31.325,-1.166,-0.309,40.0
31.261,-1.175,-0.485,42.0
30.559,-1.16,-0.645,34.0
28.415,-1.089,-0.758,6.0
28.475,-1.097,0.027,62.0
28.467,-1.108,-0.131,67.0
28.463,-1.118,-0.289,65.0
28.44,-1.127,-0.45,65.0
28.449,-1.138,-0.609,70.0
28.163,-1.137,-0.76,7.0
28.458,-1.155,0.018,150.0
28.449,-1.165,-0.139,120.0
28.437,-1.175,-0.297,111.0
28.449,-1.186,-0.458,112.0
28.462,-1.197,-0.617,132.0
28.2,-1.197,-0.768,1.0
28.445,-1.212,0.011,68.0
28.455,-1.223,-0.146,61.0
28.476,-1.235,-0.304,59.0
28.471,-1.245,-0.465,51.0
28.462,-1.255,-0.623,30.0
24.773,-1.102,-0.68,3.0
31.217,-1.394,0.006,48.0
31.206,-1.405,-0.166,61.0
31.173,-1.415,-0.339,46.0
31.141,-1.425,-0.515,47.0
30.549,-1.41,-0.675,29.0
24.595,-1.144,-0.68,7.0
31.286,-1.461,0.001,23.0
31.242,-1.47,-0.172,32.0
31.21,-1.48,-0.345,42.0
31.173,-1.49,-0.52,41.0
30.533,-1.471,-0.679,26.0
24.552,-1.192,-0.682,10.0
0.0,0.0,0.0,0.0
65.558,-3.218,-0.369,4.0
45.038,-2.228,-0.503,1.0
31.277,-1.558,-0.526,22.0
30.528,-1.532,-0.682,27.0
24.424,-1.235,-0.681,12.0
66.602,-3.38,-0.013,1.0
57.409,-2.934,-0.328,4.0
47.405,-2.44,-0.533,1.0
31.361,-1.626,-0.529,13.0
30.547,-1.594,-0.685,17.0
24.333,-1.279,-0.68,16.0
0.0,0.0,0.0,0.0
61.277,-3.255,-0.354,5.0
24.572,-1.314,-0.277,2.0
24.572,-1.323,-0.416,19.0
24.507,-1.328,-0.55,34.0
24.328,-1.328,-0.681,19.0
24.609,-1.347,-0.006,3.0
24.574,-1.354,-0.142,28.0
24.55,-1.362,-0.277,42.0
24.534,-1.37,-0.415,43.0
24.489,-1.376,-0.549,36.0
24.322,-1.377,-0.68,19.0
24.563,-1.393,-0.006,50.0
24.533,-1.401,-0.141,61.0
24.513,-1.408,-0.276,65.0
24.504,-1.417,-0.414,56.0
24.475,-1.425,-0.548,36.0
24.321,-1.425,-0.679,20.0
24.545,-1.441,-0.004,76.0
24.517,-1.448,-0.139,73.0
24.501,-1.456,-0.274,72.0
24.5,-1.465,-0.412,79.0
24.457,-1.472,-0.546,38.0
24.332,-1.473,-0.677,27.0
24.535,-1.488,-0.002,94.0
24.511,-1.496,-0.137,57.0
24.489,-1.504,-0.271,57.0
24.493,-1.513,-0.409,53.0
24.465,-1.52,-0.543,43.0
24.343,-1.521,-0.674,24.0
24.534,-1.536,0.0,74.0
24.518,-1.544,-0.133,53.0
24.502,-1.551,-0.268,53.0
24.504,-1.561,-0.405,45.0
24.466,-1.567,-0.539,39.0
24.374,-1.57,-0.671,24.0
24.552,-1.585,0.005,42.0
24.558,-1.593,-0.129,35.0
24.514,-1.6,-0.264,29.0
24.524,-1.609,-0.401,38.0
24.473,-1.615,-0.535,34.0
24.392,-1.619,-0.667,23.0
24.608,-1.635,0.01,2.0
24.604,-1.644,-0.124,1.0
49.435,-3.321,-0.522,2.0
36.225,-2.447,-0.585,2.0
30.601,-2.078,-0.662,2.0
24.455,-1.67,-0.663,19.0
65.694,-4.492,0.042,0.0
0.0,0.0,0.0,0.0
49.235,-3.401,-0.507,4.0
36.673,-2.546,-0.582,2.0
30.64,-2.138,-0.654,11.0
24.598,-1.726,-0.66,11.0
65.418,-4.596,0.061,0.0
57.547,-4.062,-0.261,5.0
46.936,-3.33,-0.47,16.0
36.606,-2.61,-0.57,1.0
30.785,-2.205,-0.648,8.0
24.763,-1.783,-0.657,5.0
65.489,-4.721,0.081,1.0
59.504,-4.31,-0.251,6.0
49.252,-3.585,-0.477,7.0
39.034,-2.854,-0.596,0.0
31.2,-2.292,-0.647,4.0
24.936,-1.841,-0.653,2.0
65.567,-4.846,0.104,193.0
59.512,-4.419,-0.23,3.0
0.0,0.0,0.0,0.0
38.99,-2.922,-0.58,2.0
31.606,-2.38,-0.643,3.0
27.286,-2.064,-0.704,1.0
65.561,-4.964,0.129,232.0
61.609,-4.686,-0.214,7.0
0.0,0.0,0.0,0.0
39.536,-3.034,-0.573,2.0
31.755,-2.449,-0.633,1.0
27.578,-2.136,-0.701,1.0
61.524,-4.769,0.147,15.0
61.614,-4.797,-0.188,2.0
48.012,-3.754,-0.408,12.0
39.942,-3.137,-0.561,15.0
32.481,-2.562,-0.634,1.0
27.738,-2.198,-0.692,1.0
79.359,-6.292,0.225,17.0
79.384,-6.321,-0.206,12.0
0.0,0.0,0.0,0.0
39.974,-3.21,-0.543,15.0
32.807,-2.646,-0.624,2.0
28.031,-2.27,-0.686,3.0
79.479,-6.441,0.264,34.0
79.575,-6.476,-0.168,8.0
49.627,-4.055,-0.374,23.0
40.086,-3.288,-0.524,15.0
33.47,-2.757,-0.62,2.0
28.535,-2.36,-0.684,4.0
79.398,-6.572,0.306,33.0
79.694,-6.622,-0.126,11.0
50.216,-4.189,-0.352,24.0
40.318,-3.377,-0.506,15.0
34.14,-2.87,-0.614,1.0
29.088,-2.456,-0.681,7.0
0.0,0.0,0.0,0.0
79.582,-6.746,-0.082,9.0
50.319,-4.281,-0.325,13.0
40.653,-3.472,-0.487,16.0
34.995,-3.001,-0.609,2.0
29.518,-2.541,-0.674,4.0
0.0,0.0,0.0,0.0
0.0,0.0,0.0,0.0
54.436,-4.722,-0.319,9.0
40.446,-3.521,-0.46,6.0
35.174,-3.074,-0.591,2.0
30.011,-2.633,-0.667,6.0
0.0,0.0,0.0,0.0
64.235,-5.657,0.011,5.0
54.772,-4.841,-0.287,21.0
41.882,-3.715,-0.451,15.0
36.808,-3.276,-0.595,12.0
30.395,-2.715,-0.656,3.0
0.0,0.0,0.0,0.0
0.0,0.0,0.0,0.0
55.148,-4.962,-0.253,29.0
44.997,-4.063,-0.455,9.0
0.0,0.0,0.0,0.0
30.635,-2.785,-0.641,5.0
54.972,-4.999,0.379,155.0
54.968,-5.015,0.082,164.0
55.454,-5.076,-0.216,29.0
0.0,0.0,0.0,0.0
0.0,0.0,0.0,0.0
30.889,-2.856,-0.625,3.0
54.972,-5.084,0.418,160.0
54.968,-5.1,0.121,168.0
55.812,-5.194,-0.178,29.0
46.06,-4.301,-0.401,22.0
38.546,-3.611,-0.544,14.0
31.816,-2.99,-0.621,1.0
65.179,-6.127,0.544,5.0
65.199,-6.148,0.191,169.0
55.94,-5.291,-0.137,11.0
46.72,-4.433,-0.372,21.0
38.304,-3.646,-0.511,13.0
33.664,-3.214,-0.631,3.0
65.137,-6.221,0.593,2.0
65.12,-6.237,0.242,150.0
65.466,-6.289,-0.11,5.0
47.448,-4.572,-0.341,13.0
40.233,-3.888,-0.506,3.0
33.856,-3.281,-0.609,10.0
65.187,-6.319,0.644,0.0
65.084,-6.327,0.293,6.0
65.38,-6.375,-0.058,8.0
0.0,0.0,0.0,0.0
40.29,-3.951,-0.474,15.0
34.112,-3.355,-0.585,11.0
0.0,0.0,0.0,0.0
65.051,-6.416,0.346,10.0
65.055,-6.435,-0.004,6.0
0.0,0.0,0.0,0.0
0.0,0.0,0.0,0.0
34.149,-3.406,-0.558,26.0
0.0,0.0,0.0,0.0
65.074,-6.508,0.401,150.0
64.984,-6.516,0.05,5.0
54.347,-5.464,-0.256,28.0
44.366,-4.473,-0.448,7.0
34.459,-3.483,-0.533,28.0
0.0,0.0,0.0,0.0
65.096,-6.597,0.457,179.0
64.984,-6.603,0.107,6.0
55.15,-5.619,-0.211,29.0
0.0,0.0,0.0,0.0
34.88,-3.572,-0.508,18.0
0.0,0.0,0.0,0.0
65.115,-6.685,0.516,162.0
64.983,-6.688,0.165,3.0
55.894,-5.766,-0.163,30.0
45.002,-4.654,-0.373,19.0
35.219,-3.651,-0.481,11.0
0.0,0.0,0.0,0.0
65.066,-6.762,0.574,13.0
65.041,-6.775,0.225,23.0
56.288,-5.878,-0.112,8.0
47.415,-4.963,-0.35,21.0
39.911,-4.188,-0.509,7.0
0.0,0.0,0.0,0.0
0.0,0.0,0.0,0.0
65.099,-6.861,0.287,161.0
65.314,-6.899,-0.069,5.0
47.907,-5.072,-0.307,11.0
40.068,-4.252,-0.472,15.0
82.357,-8.741,1.326,6.0
0.0,0.0,0.0,0.0
65.094,-6.938,0.349,178.0
64.955,-6.938,-0.006,6.0
51.261,-5.487,-0.28,15.0
40.234,-4.316,-0.435,15.0
82.244,-8.824,1.405,29.0
0.0,0.0,0.0,0.0
65.058,-7.008,0.413,59.0
64.947,-7.011,0.057,2.0
51.559,-5.577,-0.23,7.0
0.0,0.0,0.0,0.0
82.217,-8.913,1.486,35.0
0.0,0.0,0.0,0.0
65.038,-7.078,0.478,1.0
64.996,-7.087,0.123,1.0
55.094,-6.02,-0.19,28.0
42.37,-4.639,-0.374,4.0
82.105,-8.99,1.568,29.0
0.0,0.0,0.0,0.0
65.111,-7.155,0.545,7.0
65.008,-7.158,0.189,1.0
55.86,-6.162,-0.135,29.0
0.0,0.0,0.0,0.0
83.041,-9.179,1.672,42.0
83.669,-9.264,1.236,6.0
65.117,-7.223,0.613,1.0
65.113,-7.235,0.257,6.0
56.575,-6.298,-0.078,4.0
47.475,-5.295,-0.32,21.0
83.098,-9.268,1.759,27.0
83.964,-9.38,1.329,29.0
0.0,0.0,0.0,0.0
65.143,-7.302,0.327,169.0
64.96,-7.294,-0.021,1.0
48.314,-5.434,-0.274,10.0
82.799,-9.315,1.843,21.0
84.648,-9.537,1.43,23.0
84.061,-9.486,0.97,8.0
65.141,-7.363,0.397,150.0
65.054,-7.365,0.048,0.0
50.161,-5.688,-0.23,24.0
82.693,-9.379,1.929,14.0
84.736,-9.624,1.524,9.0
84.253,-9.583,1.064,30.0
65.218,-7.429,0.468,5.0
65.169,-7.435,0.119,1.0
50.586,-5.78,-0.177,6.0
0.0,0.0,0.0,0.0
85.235,-9.755,1.626,26.0
84.412,-9.674,1.159,38.0
65.224,-7.485,0.541,2.0
65.233,-7.497,0.191,150.0
55.65,-6.405,-0.133,16.0
84.176,-9.69,2.15,19.0
85.212,-9.822,1.72,27.0
84.768,-9.783,1.259,20.0
79.96,-9.241,0.752,20.0
65.206,-7.546,0.264,22.0
56.348,-6.53,-0.072,3.0
84.256,-9.765,2.246,28.0
85.271,-9.894,1.817,14.0
192.355,-22.346,3.071,26.0
80.065,-9.313,0.841,17.0
80.012,-9.318,0.413,11.0
80.699,-9.41,-0.014,6.0
84.19,-9.819,2.338,32.0
85.548,-9.989,1.919,4.0
192.31,-22.479,3.286,21.0
80.484,-9.419,0.937,6.0
79.999,-9.373,0.504,34.0
80.527,-9.446,0.077,40.0
84.187,-9.878,2.435,39.0
84.608,-9.937,1.994,10.0
85.333,-10.032,1.556,6.0
192.262,-22.628,2.459,30.0
80.041,-9.431,0.596,31.0
80.178,-9.458,0.168,24.0
84.194,-9.934,2.532,36.0
138.941,-16.408,3.435,15.0
188.375,-22.268,3.651,12.0
192.318,-22.756,2.681,22.0
80.069,-9.483,0.689,32.0
80.189,-9.507,0.262,27.0
84.268,-9.994,2.632,36.0
139.235,-16.526,3.605,21.0
85.378,-10.142,1.754,6.0
153.859,-18.294,2.323,15.0
80.136,-9.537,0.783,27.0
80.259,-9.56,0.355,23.0
84.35,-10.051,2.732,31.0
84.371,-10.061,2.283,6.0
153.763,-18.35,3.338,22.0
153.714,-18.359,2.499,19.0
80.283,-9.596,0.877,12.0
80.273,-9.603,0.448,28.0
84.455,-10.107,2.834,26.0
85.618,-10.253,2.417,5.0
153.789,-18.429,3.518,16.0
153.698,-18.432,2.679,23.0
153.577,-18.431,1.857,13.0
80.233,-9.636,0.542,24.0
84.479,-10.15,2.935,29.0
84.16,-10.117,2.474,16.0
139.337,-16.76,3.352,13.0
153.768,-18.508,2.861,15.0
153.629,-18.504,2.04,14.0
80.286,-9.676,0.637,26.0
84.553,-10.195,3.038,26.0
84.196,-10.157,2.575,30.0
139.179,-16.799,3.512,18.0
153.776,-18.57,3.046,13.0
153.608,-18.56,2.221,16.0
80.212,-9.698,0.732,27.0
84.718,-10.247,3.144,23.0
84.218,-10.191,2.675,26.0
139.201,-16.851,3.677,14.0
187.982,-22.768,3.943,8.0
153.744,-18.629,2.404,11.0
80.34,-9.74,0.828,19.0
84.73,-10.277,3.245,16.0
84.312,-10.23,2.778,28.0
139.7,-16.956,3.857,8.0
188.155,-22.846,4.172,12.0
188.299,-22.872,3.168,8.0
80.632,-9.798,0.927,5.0
84.956,-10.329,3.355,14.0
84.482,-10.274,2.885,33.0
85.846,-10.442,2.472,10.0
189.05,-23.004,4.415,5.0
188.139,-22.9,3.391,16.0
153.708,-18.715,1.95,11.0
85.08,-10.365,3.461,11.0
84.683,-10.318,2.992,33.0
85.588,-10.43,2.567,12.0
165.433,-20.165,4.061,4.0
188.349,-22.964,3.618,18.0
192.151,-23.434,2.663,12.0
85.837,-10.474,3.595,9.0
84.635,-10.328,3.091,25.0
84.211,-10.277,2.625,9.0
165.254,-20.17,4.251,16.0
188.506,-23.012,3.843,20.0
188.714,-23.041,2.84,18.0
137.068,-16.746,5.902,15.0
84.623,-10.338,3.191,15.0
84.369,-10.307,2.73,18.0
165.214,-20.185,4.445,20.0
188.661,-23.051,4.068,19.0
188.508,-23.035,3.058,20.0
137.105,-16.765,6.066,12.0
84.917,-10.382,3.302,9.0
84.561,-10.338,2.836,24.0
165.131,-20.187,4.636,14.0
188.757,-23.074,4.293,8.0
188.377,-23.028,3.278,21.0
137.026,-16.763,6.223,8.0
137.764,-16.85,5.519,6.0
84.615,-10.347,2.936,30.0
85.76,-10.486,2.509,10.0
189.267,-23.14,4.525,5.0
188.365,-23.028,3.496,17.0
137.108,-16.774,6.388,7.0
137.697,-16.842,5.678,7.0
84.674,-10.354,3.037,27.0
0.0,0.0,0.0,0.0
165.29,-20.204,4.141,16.0
188.437,-23.029,3.713,22.0
110.826,-13.555,5.291,11.0
85.866,-10.498,3.639,6.0
84.6,-10.34,3.131,17.0
84.199,-10.288,2.658,12.0
165.266,-20.188,4.332,21.0
188.419,-23.011,3.931,20.0
136.989,-16.744,6.7,14.0
137.103,-16.75,5.97,13.0
84.806,-10.356,3.238,12.0
84.32,-10.293,2.759,18.0
165.084,-20.145,4.516,15.0
188.634,-23.011,4.153,16.0
137.024,-16.731,6.858,13.0
137.175,-16.74,6.128,13.0
84.86,-10.35,3.336,11.0
84.508,-10.303,2.86,27.0
85.817,-10.458,2.443,10.0
0.0,0.0,0.0,0.0
111.049,-13.54,5.682,2.0
137.087,-16.704,6.279,12.0
85.076,-10.36,3.44,12.0
84.618,-10.299,2.959,33.0
0.0,0.0,0.0,0.0
139.793,-16.998,3.39,4.0
111.166,-13.53,5.814,10.0
137.156,-16.681,6.437,9.0
85.926,-10.443,3.571,13.0
84.608,-10.276,3.053,28.0
84.197,-10.22,2.587,19.0
139.281,-16.898,3.531,12.0
111.183,-13.502,5.939,18.0
140.633,-17.066,6.755,5.0
85.854,-10.41,3.662,9.0
84.705,-10.263,3.15,19.0
84.229,-10.199,2.68,28.0
139.073,-16.829,3.679,16.0
62.647,-7.588,3.415,7.0
140.605,-17.017,6.909,11.0
137.131,-16.583,5.999,14.0
84.759,-10.241,3.244,15.0
84.393,-10.189,2.777,29.0
139.08,-16.78,3.829,12.0
62.611,-7.562,3.482,17.0
118.858,-14.341,5.97,8.0
84.28,-10.16,3.778,4.0
85.489,-10.297,3.364,16.0
84.49,-10.168,2.87,28.0
84.158,-10.119,2.407,11.0
62.554,-7.53,3.545,25.0
118.805,-14.286,6.093,24.0
84.322,-10.13,3.869,7.0
84.64,-10.158,3.421,17.0
84.505,-10.133,2.96,29.0
84.185,-10.085,2.496,27.0
62.54,-7.5,3.61,25.0
118.791,-14.231,6.217,23.0
137.343,-16.436,6.446,15.0
84.152,-10.06,3.488,20.0
84.609,-10.104,3.052,25.0
84.232,-10.05,2.584,29.0
109.601,-13.092,6.439,6.0
118.76,-14.169,6.337,27.0
137.249,-16.355,6.583,16.0
84.0,-9.998,3.567,29.0
84.715,-10.073,3.141,17.0
84.326,-10.016,2.672,34.0
109.632,-13.037,6.552,14.0
118.299,-14.05,6.432,25.0
118.858,-14.099,5.82,13.0
83.835,-9.932,3.644,31.0
84.21,-9.965,3.205,23.0
84.416,-9.978,2.758,35.0
117.566,-13.913,7.146,8.0
0.0,0.0,0.0,0.0
118.791,-14.02,5.935,25.0
83.869,-9.886,3.729,36.0
83.973,-9.885,3.28,37.0
84.463,-9.931,2.844,32.0
62.425,-7.349,3.855,7.0
117.672,-13.833,6.629,20.0
118.859,-13.953,6.053,30.0
84.017,-9.85,3.815,20.0
83.855,-9.817,3.355,38.0
84.392,-9.868,2.92,29.0
109.939,-12.87,6.894,8.0
117.968,-13.79,6.757,27.0
118.983,-13.888,6.172,19.0
84.351,-9.831,3.909,8.0
83.881,-9.763,3.434,38.0
83.87,-9.748,2.98,34.0
109.988,-12.799,7.0,18.0
114.366,-13.287,6.658,9.0
119.067,-13.812,6.286,17.0
83.905,-9.718,3.966,12.0
83.925,-9.706,3.513,44.0
83.819,-9.679,3.056,41.0
109.752,-12.69,7.085,18.0
114.322,-13.197,6.759,16.0
85.058,-9.802,4.567,15.0
83.87,-9.65,4.04,36.0
84.084,-9.659,3.594,43.0
83.598,-9.589,3.121,47.0
108.985,-12.516,7.133,33.0
109.846,-12.593,6.591,25.0
84.907,-9.717,4.633,19.0
83.843,-9.579,4.112,40.0
84.082,-9.59,3.667,37.0
82.722,-9.421,3.159,26.0
108.886,-12.416,7.218,40.0
109.787,-12.495,6.681,26.0
84.888,-9.644,4.704,17.0
83.888,-9.514,4.184,36.0
84.009,-9.511,3.734,41.0
82.927,-9.373,3.236,30.0
108.855,-12.32,7.307,36.0
109.766,-12.398,6.771,33.0
84.83,-9.564,4.77,12.0
83.93,-9.445,4.254,38.0
83.827,-9.416,3.794,44.0
82.572,-9.259,3.288,24.0
108.85,-12.221,7.395,37.0
109.849,-12.308,6.864,25.0
86.529,-9.677,4.935,10.0
83.886,-9.363,4.319,36.0
83.799,-9.336,3.857,40.0
82.639,-9.189,3.355,29.0
108.996,-12.135,7.491,38.0
109.98,-12.22,6.957,14.0
86.539,-9.596,5.001,19.0
83.765,-9.27,4.376,37.0
83.821,-9.257,3.922,39.0
82.559,-9.1,3.414,32.0
109.139,-12.045,7.582,19.0
116.996,-12.885,7.488,9.0
86.582,-9.515,5.068,19.0
83.706,-9.179,4.434,39.0
83.844,-9.176,3.984,36.0
82.544,-9.016,3.472,34.0
111.528,-12.197,7.828,21.0
113.309,-12.364,7.333,6.0
86.752,-9.445,5.14,17.0
83.735,-9.097,4.495,35.0
83.886,-9.094,4.044,34.0
82.807,-8.958,3.54,32.0
111.63,-12.091,7.913,31.0
111.742,-12.076,7.308,17.0
86.728,-9.352,5.196,13.0
83.825,-9.019,4.555,33.0
83.95,-9.012,4.103,41.0
83.136,-8.905,3.609,26.0
108.958,-11.685,7.795,25.0
111.751,-11.956,7.381,23.0
84.512,-9.021,5.118,13.0
84.077,-8.953,4.623,44.0
84.049,-8.93,4.161,40.0
83.21,-8.821,3.664,28.0
108.961,-11.564,7.863,34.0
111.849,-11.842,7.457,11.0
84.2,-8.893,5.151,13.0
84.128,-8.864,4.676,43.0
83.797,-8.808,4.199,25.0
82.063,-8.606,3.663,10.0
108.973,-11.442,7.928,36.0
112.098,-11.739,7.539,14.0
84.28,-8.804,5.205,14.0
84.07,-8.76,4.722,33.0
83.581,-8.688,4.235,37.0
81.983,-8.502,3.705,10.0
109.021,-11.319,7.993,34.0
109.387,-11.327,7.417,27.0
84.858,-8.764,5.287,9.0
83.84,-8.637,4.754,25.0
83.303,-8.559,4.266,37.0
81.977,-8.402,3.748,11.0
109.525,-11.238,8.088,24.0
109.331,-11.188,7.471,23.0
84.91,-8.665,5.334,24.0
83.698,-8.519,4.789,28.0
82.188,-8.344,4.25,33.0
82.143,-8.317,3.797,20.0
109.701,-11.119,8.156,25.0
109.361,-11.054,7.527,28.0
84.835,-8.551,5.371,12.0
83.713,-8.415,4.83,27.0
82.256,-8.246,4.293,31.0
82.122,-8.211,3.833,33.0
109.778,-10.988,8.212,24.0
109.447,-10.923,7.583,33.0
84.885,-8.447,5.412,18.0
83.708,-8.307,4.866,34.0
82.767,-8.191,4.355,34.0
81.874,-8.08,3.857,48.0
110.041,-10.871,8.278,22.0
109.299,-10.766,7.617,37.0
86.219,-8.468,5.532,17.0
83.5,-8.177,4.888,37.0
81.878,-7.995,4.34,23.0
81.796,-7.965,3.885,32.0
110.079,-10.73,8.324,17.0
109.46,-10.636,7.67,44.0
86.502,-8.381,5.582,17.0
83.396,-8.055,4.911,36.0
81.809,-7.879,4.366,30.0
81.877,-7.862,3.918,33.0
112.66,-10.829,8.558,13.0
109.885,-10.528,7.738,37.0
86.398,-8.253,5.604,23.0
83.454,-7.947,4.942,38.0
82.131,-7.797,4.41,26.0
82.068,-7.768,3.953,32.0
112.712,-10.678,8.597,27.0
113.307,-10.7,8.012,11.0
86.472,-8.14,5.634,14.0
83.488,-7.834,4.969,40.0
0.0,0.0,0.0,0.0
82.272,-7.672,3.986,32.0
112.826,-10.53,8.636,22.0
113.338,-10.543,8.046,25.0
85.019,-7.883,5.562,18.0
83.45,-7.712,4.988,37.0
83.556,-7.697,4.53,56.0
81.997,-7.529,3.992,30.0
112.741,-10.361,8.657,16.0
112.639,-10.317,8.021,26.0
0.0,0.0,0.0,0.0
83.84,-7.628,5.029,34.0
83.745,-7.595,4.558,33.0
82.266,-7.436,4.021,38.0
114.656,-10.371,8.826,8.0
112.757,-10.164,8.051,18.0
85.682,-7.696,5.64,25.0
84.201,-7.537,5.065,24.0
83.569,-7.455,4.562,40.0
82.895,-7.37,4.066,36.0
120.631,-10.732,9.306,14.0
60.155,-5.333,4.304,3.0
84.521,-7.466,5.576,33.0
84.186,-7.411,5.076,13.0
83.276,-7.306,4.558,38.0
82.998,-7.256,4.081,35.0
121.022,-10.585,9.349,25.0
60.158,-5.242,4.31,3.0
84.512,-7.338,5.584,23.0
84.349,-7.297,5.094,11.0
83.289,-7.18,4.566,31.0
83.269,-7.153,4.101,44.0
120.91,-10.391,9.351,22.0
116.077,-9.939,8.326,14.0
85.418,-7.287,5.649,20.0
84.594,-7.19,5.113,10.0
83.736,-7.091,4.594,42.0
83.279,-7.027,4.105,37.0
60.552,-5.111,4.684,7.0
115.386,-9.703,8.28,15.0
85.95,-7.201,5.686,18.0
83.686,-6.985,5.059,12.0
83.758,-6.966,4.596,41.0
83.436,-6.913,4.113,43.0
115.43,-9.567,8.929,9.0
115.928,-9.57,8.318,10.0
85.802,-7.056,5.675,27.0
83.616,-6.85,5.053,13.0
83.435,-6.81,4.576,46.0
83.141,-6.76,4.095,40.0
121.29,-9.863,9.377,11.0
117.67,-9.53,8.436,24.0
86.31,-6.962,5.704,19.0
83.854,-6.737,5.062,18.0
83.295,-6.666,4.562,41.0
83.17,-6.63,4.09,34.0
115.34,-9.196,8.907,12.0
117.723,-9.348,8.428,22.0
85.68,-6.775,5.653,39.0
83.756,-6.597,5.047,32.0
83.502,-6.551,4.564,46.0
83.242,-6.505,4.083,35.0
115.158,-9.0,8.878,9.0
60.367,-4.697,4.314,5.0
84.14,-6.52,5.539,11.0
84.247,-6.501,5.064,34.0
83.482,-6.416,4.55,52.0
83.574,-6.397,4.086,30.0
114.889,-8.792,8.837,18.0
60.32,-4.597,4.299,11.0
84.168,-6.386,5.526,23.0
84.204,-6.363,5.045,35.0
83.863,-6.31,4.553,38.0
83.323,-6.244,4.057,39.0
115.026,-8.617,8.823,11.0
60.35,-4.501,4.288,6.0
84.205,-6.252,5.508,16.0
84.261,-6.229,5.029,42.0
84.226,-6.2,4.554,31.0
83.335,-6.108,4.037,35.0
24.554,-1.799,1.877,16.0
60.289,-4.397,4.268,4.0
84.14,-6.11,5.482,12.0
84.398,-6.101,5.014,33.0
84.088,-6.053,4.522,28.0
83.441,-5.981,4.018,35.0
24.411,-1.748,1.859,21.0
24.6,-1.754,1.734,15.0
24.558,-1.743,1.592,16.0
24.511,-1.732,1.448,15.0
84.193,-5.923,4.5,46.0
83.652,-5.86,4.001,29.0
24.312,-1.702,1.843,42.0
24.484,-1.706,1.717,30.0
24.473,-1.697,1.578,25.0
24.467,-1.689,1.437,48.0
24.514,-1.684,1.301,26.0
24.543,-1.679,1.164,21.0
24.302,-1.66,1.833,51.0
24.437,-1.662,1.704,42.0
24.444,-1.654,1.567,67.0
24.449,-1.647,1.426,53.0
24.478,-1.641,1.289,62.0
24.481,-1.634,1.151,45.0
24.3,-1.62,1.822,51.0
24.386,-1.618,1.69,39.0
24.424,-1.612,1.554,68.0
24.434,-1.605,1.414,77.0
24.466,-1.6,1.278,70.0
24.487,-1.593,1.14,37.0
24.304,-1.58,1.811,62.0
24.374,-1.576,1.678,44.0
24.406,-1.57,1.542,33.0
24.428,-1.564,1.402,65.0
24.466,-1.559,1.266,89.0
24.441,-1.55,1.126,38.0
24.313,-1.54,1.799,43.0
24.381,-1.536,1.666,54.0
24.378,-1.528,1.527,29.0
24.41,-1.522,1.388,54.0
24.467,-1.518,1.253,92.0
24.441,-1.509,1.113,51.0
24.359,-1.501,1.79,42.0
24.392,-1.495,1.653,70.0
24.386,-1.487,1.514,43.0
24.408,-1.481,1.374,59.0
24.475,-1.477,1.239,59.0
24.505,-1.472,1.102,38.0
24.398,-1.462,1.778,62.0
24.414,-1.456,1.64,61.0
24.389,-1.446,1.499,69.0
24.435,-1.441,1.361,64.0
24.499,-1.438,1.225,45.0
24.523,-1.431,1.087,37.0
24.443,-1.424,1.765,56.0
24.446,-1.416,1.626,37.0
24.406,-1.406,1.485,58.0
24.476,-1.403,1.347,40.0
28.4,-1.619,1.402,27.0
24.599,-1.395,1.074,18.0
24.487,-1.386,1.752,27.0
24.467,-1.377,1.611,29.0
24.463,-1.368,1.471,40.0
28.415,-1.581,1.544,68.0
28.391,-1.571,1.381,33.0
83.422,-4.592,3.585,35.0
28.425,-1.561,2.014,74.0
28.416,-1.551,1.85,28.0
28.422,-1.543,1.689,63.0
28.415,-1.534,1.523,70.0
83.728,-4.494,4.013,30.0
83.631,-4.464,3.532,30.0
28.429,-1.513,1.992,76.0
28.427,-1.504,1.829,69.0
28.41,-1.494,1.666,66.0
28.409,-1.485,1.501,70.0
84.019,-4.369,3.96,23.0
86.139,-4.453,3.57,19.0
28.427,-1.465,1.969,73.0
28.417,-1.456,1.806,67.0
28.417,-1.447,1.643,69.0
28.404,-1.438,1.477,71.0
85.274,-4.292,3.95,33.0
86.364,-4.321,3.507,35.0
28.42,-1.417,1.944,71.0
28.407,-1.407,1.781,69.0
28.406,-1.399,1.618,68.0
28.412,-1.39,1.453,65.0
85.505,-4.16,3.885,27.0
86.468,-4.181,3.436,24.0
28.392,-1.368,1.917,33.0
28.398,-1.36,1.755,40.0
28.403,-1.351,1.592,55.0
28.398,-1.343,1.427,52.0
85.757,-4.03,3.82,25.0
165.644,-7.736,6.432,14.0
46.653,-2.171,3.108,8.0
161.185,-7.454,9.813,18.0
161.157,-7.404,8.887,25.0
28.386,-1.295,1.399,5.0
159.543,-7.236,6.957,30.0
165.461,-7.456,6.268,22.0
46.608,-2.091,3.059,16.0
163.776,-7.302,9.812,14.0
31.313,-1.386,1.696,17.0
31.312,-1.377,1.513,6.0
28.45,-1.243,1.212,14.0
28.451,-1.235,1.049,55.0
31.273,-1.352,2.021,18.0
28.446,-1.221,1.675,51.0
28.431,-1.212,1.511,57.0
28.415,-1.203,1.344,66.0
28.418,-1.195,1.181,97.0
28.429,-1.187,1.019,102.0
28.428,-1.182,1.808,108.0
28.422,-1.174,1.644,103.0
28.414,-1.165,1.48,81.0
28.427,-1.157,1.314,127.0
28.423,-1.149,1.152,116.0
28.428,-1.141,0.989,89.0
28.426,-1.136,1.777,102.0
28.431,-1.128,1.613,72.0
28.424,-1.119,1.45,51.0
28.449,-1.112,1.284,65.0
28.439,-1.104,1.121,34.0
31.244,-1.205,1.052,42.0
31.201,-1.196,1.915,25.0
31.192,-1.187,1.735,24.0
31.212,-1.18,1.557,42.0
31.26,-1.172,1.376,58.0
31.233,-1.163,1.196,41.0
31.278,-1.156,1.018,55.0
31.211,-1.147,1.88,24.0
31.209,-1.138,1.7,37.0
31.237,-1.131,1.522,36.0
31.282,-1.124,1.341,51.0
31.278,-1.115,1.161,38.0
31.31,-1.108,0.982,36.0
31.246,-1.099,1.845,32.0
31.258,-1.091,1.665,42.0
31.297,-1.084,1.487,43.0
38.67,-1.328,1.611,25.0
38.686,-1.319,1.389,26.0
38.691,-1.308,1.167,24.0
28.39,-0.954,1.641,68.0
28.388,-0.946,1.477,66.0
38.581,-1.275,1.785,53.0
38.656,-1.267,1.562,83.0
38.627,-1.256,1.339,62.0
38.626,-1.246,1.116,62.0
28.393,-0.91,1.605,82.0
38.478,-1.223,1.953,26.0
38.579,-1.215,1.736,72.0
38.644,-1.207,1.512,88.0
38.584,-1.195,1.287,62.0
38.612,-1.186,1.066,72.0
28.38,-0.865,1.567,80.0
38.471,-1.163,1.902,45.0
38.626,-1.157,1.687,94.0
38.635,-1.147,1.46,95.0
38.555,-1.135,1.235,69.0
38.615,-1.127,1.014,77.0
28.385,-0.822,1.529,76.0
38.567,-1.107,1.855,53.0
38.66,-1.099,1.636,82.0
38.619,-1.088,1.407,65.0
38.555,-1.076,1.183,70.0
38.643,-1.069,0.963,78.0
28.377,-0.779,1.49,69.0
38.636,-1.051,1.805,48.0
38.656,-1.041,1.582,36.0
38.667,-1.032,1.355,31.0
38.609,-1.02,1.131,29.0
38.664,-1.012,0.909,45.0
38.635,-1.003,1.973,23.0
45.814,-1.177,2.075,19.0
45.712,-1.163,1.806,37.0
45.666,-1.151,1.536,42.0
38.681,-0.965,1.077,48.0
0.0,0.0,0.0,0.0
40.434,-0.99,2.007,25.0
40.418,-0.979,1.772,27.0
40.395,-0.969,1.537,32.0
40.4,-0.959,1.3,39.0
0.0,0.0,0.0,0.0
40.413,-0.94,0.834,37.0
40.404,-0.931,1.946,40.0
40.398,-0.921,1.712,39.0
40.393,-0.911,1.477,38.0
40.415,-0.902,1.24,32.0
40.423,-0.892,1.007,5.0
38.393,-0.839,0.735,38.0
40.427,-0.874,1.886,27.0
40.444,-0.864,1.652,14.0
45.676,-0.966,1.602,40.0
45.711,-0.955,1.333,37.0
38.373,-0.793,0.898,4.0
53.0,-1.083,0.934,9.0
45.715,-0.924,2.062,30.0
45.719,-0.913,1.797,49.0
45.738,-0.903,1.533,42.0
64.316,-1.255,1.777,66.0
193.203,-3.726,4.22,20.0
193.107,-3.68,3.1,6.0
45.789,-0.862,1.993,45.0
64.297,-1.196,2.426,20.0
64.295,-1.181,2.053,82.0
64.326,-1.167,1.675,15.0
191.78,-3.438,3.886,17.0
192.901,-3.414,2.791,19.0
59.242,-1.035,2.484,21.0
64.304,-1.109,2.323,52.0
64.307,-1.094,1.95,80.0
176.626,-2.967,4.314,47.0
176.622,-2.927,3.29,34.0
20.153,-0.329,0.258,5.0
59.204,-0.955,2.385,83.0
53.508,-0.851,1.845,64.0
59.454,-0.933,1.705,24.0
53.493,-0.827,1.219,98.0
20.151,-0.307,0.342,8.0
20.128,-0.303,0.225,13.0
58.773,-0.871,2.27,126.0
53.497,-0.782,1.756,66.0
59.404,-0.856,1.606,69.0
20.134,-0.285,0.425,8.0
20.131,-0.281,0.308,11.0
20.129,-0.277,0.192,10.0
58.298,-0.79,2.154,207.0
53.494,-0.714,1.666,81.0
59.397,-0.78,1.505,7.0
20.126,-0.26,0.391,13.0
20.129,-0.256,0.274,9.0
20.154,-0.252,0.158,3.0
53.522,-0.658,1.885,150.0
53.491,-0.646,1.574,92.0
20.133,-0.239,0.475,13.0
20.131,-0.235,0.356,10.0
20.165,-0.231,0.24,8.0
56.177,-0.634,0.343,9.0
53.43,-0.591,1.789,13.0
20.155,-0.219,0.557,7.0
20.139,-0.215,0.44,17.0
20.167,-0.211,0.322,10.0
64.332,-0.662,0.655,35.0
56.209,-0.567,0.245,10.0
53.508,-0.528,1.698,93.0
20.141,-0.194,0.521,12.0
20.18,-0.191,0.405,20.0
64.34,-0.598,0.913,33.0
64.332,-0.585,0.539,7.0
53.4,-0.476,0.138,4.0
53.51,-0.466,1.602,110.0
20.16,-0.171,0.486,11.0
20.268,-0.168,0.371,20.0
20.228,-0.164,0.25,14.0
20.196,-0.16,0.133,14.0
20.184,-0.156,0.015,17.0
20.179,-0.152,0.567,10.0
20.208,-0.149,0.45,20.0
20.162,-0.145,0.332,16.0
20.137,-0.141,0.213,16.0
20.124,-0.137,0.096,17.0
20.166,-0.134,-0.02,23.0
20.139,-0.13,0.529,18.0
20.113,-0.126,0.412,18.0
20.122,-0.122,0.295,20.0
20.105,-0.119,0.175,19.0
20.139,-0.116,0.059,33.0
20.142,-0.112,-0.057,29.0
20.124,-0.108,0.492,26.0
20.117,-0.105,0.375,31.0
20.129,-0.101,0.258,26.0
20.117,-0.098,0.138,25.0
20.137,-0.094,0.021,34.0
20.135,-0.091,-0.095,29.0
20.124,-0.087,0.454,32.0
20.119,-0.084,0.337,28.0
20.125,-0.08,0.22,26.0
20.122,-0.077,0.1,39.0
20.127,-0.074,-0.016,34.0
20.139,-0.07,-0.133,35.0
20.123,-0.067,0.416,29.0
20.12,-0.063,0.298,30.0
20.111,-0.06,0.181,32.0
20.136,-0.057,0.062,42.0
20.139,-0.054,-0.054,31.0
20.155,-0.05,-0.172,32.0
20.12,-0.047,0.377,29.0
20.121,-0.044,0.26,28.0
20.116,-0.04,0.142,29.0
20.125,-0.037,0.023,33.0
20.157,-0.034,-0.093,28.0
20.164,-0.031,-0.211,5.0
20.129,-0.028,0.338,33.0
20.112,-0.025,0.22,29.0
20.117,-0.021,0.103,31.0
20.139,-0.018,-0.015,13.0
20.184,-0.015,-0.133,16.0
20.223,-0.012,-0.251,8.0
20.128,-0.009,0.298,28.0
20.119,-0.006,0.181,27.0
20.179,-0.003,0.064,29.0
20.254,0.0,-0.055,150.0
20.244,0.002,-0.173,151.0
20.264,0.005,-0.292,150.0
20.131,0.008,0.259,28.0
20.135,0.01,0.141,26.0
20.262,0.013,0.024,151.0
20.26,0.016,-0.095,151.0
20.246,0.019,-0.213,152.0
20.272,0.022,-0.332,150.0
20.13,0.025,0.219,28.0
20.149,0.027,0.101,27.0
20.255,0.03,-0.015,30.0
20.247,0.033,-0.135,37.0
55.066,0.099,-0.69,6.0
20.249,0.039,-0.372,2.0
20.139,0.041,0.178,28.0
20.191,0.044,0.061,19.0
20.206,0.047,-0.056,19.0
20.203,0.049,-0.175,18.0
20.327,0.052,-0.295,0.0
0.0,0.0,0.0,0.0
20.152,0.057,0.138,28.0
20.197,0.059,0.021,31.0
20.192,0.062,-0.096,24.0
20.204,0.064,-0.216,7.0
43.42,0.144,-0.718,0.0
0.0,0.0,0.0,0.0
20.19,0.072,0.097,30.0
20.203,0.074,-0.019,28.0
20.189,0.076,-0.137,28.0
20.203,0.079,-0.257,11.0
41.728,0.169,-0.775,0.0
0.0,0.0,0.0,0.0
20.202,0.086,0.057,36.0
20.193,0.088,-0.06,36.0
20.183,0.09,-0.178,25.0
20.188,0.093,-0.298,18.0
0.0,0.0,0.0,0.0
32.632,0.158,-0.863,0.0
20.191,0.099,0.015,29.0
20.18,0.101,-0.101,35.0
20.19,0.104,-0.219,27.0
20.176,0.106,-0.339,18.0
0.0,0.0,0.0,0.0
21.663,0.118,-0.617,8.0
20.177,0.112,-0.025,30.0
20.179,0.114,-0.143,38.0
20.184,0.116,-0.261,27.0
20.18,0.118,-0.38,15.0
20.171,0.12,-0.498,0.0
21.693,0.132,-0.662,83.0
20.184,0.124,-0.066,30.0
20.198,0.126,-0.184,23.0
20.181,0.128,-0.302,29.0
20.174,0.13,-0.422,12.0
32.506,0.213,-0.87,0.0
21.622,0.143,-0.705,159.0
20.173,0.135,-0.108,35.0
20.169,0.137,-0.226,33.0
20.179,0.139,-0.344,29.0
20.182,0.141,-0.464,16.0
0.0,0.0,0.0,0.0
21.601,0.155,-0.749,158.0
20.192,0.145,-0.15,27.0
20.172,0.147,-0.268,33.0
20.177,0.149,-0.385,25.0
20.17,0.151,-0.505,19.0
21.043,0.159,-0.65,7.0
21.642,0.166,-0.795,0.0
20.178,0.155,-0.192,28.0
20.173,0.157,-0.309,34.0
20.188,0.158,-0.427,27.0
20.17,0.16,-0.547,18.0
0.0,0.0,0.0,0.0
18.518,0.15,-0.719,157.0
20.175,0.164,-0.233,33.0
20.171,0.165,-0.351,30.0
20.192,0.167,-0.47,26.0
20.173,0.169,-0.589,18.0
21.65,0.183,-0.759,13.0
18.51,0.158,-0.757,173.0
20.18,0.172,-0.276,34.0
20.18,0.173,-0.393,34.0
20.189,0.175,-0.511,27.0
20.183,0.177,-0.631,19.0
18.571,0.164,-0.69,55.0
18.515,0.165,-0.796,158.0
20.174,0.179,-0.317,35.0
20.181,0.181,-0.435,27.0
20.19,0.182,-0.554,27.0
0.0,0.0,0.0,0.0
18.515,0.17,-0.726,156.0
18.541,0.171,-0.836,52.0
20.183,0.186,-0.36,36.0
20.189,0.187,-0.478,29.0
20.195,0.189,-0.596,27.0
0.0,0.0,0.0,0.0
18.511,0.175,-0.764,159.0
18.54,0.177,-0.874,52.0
20.187,0.192,-0.402,39.0
20.175,0.193,-0.519,29.0
20.211,0.195,-0.638,28.0
18.548,0.179,-0.696,45.0
18.533,0.18,-0.804,152.0
18.502,0.181,-0.911,38.0
20.198,0.197,-0.444,26.0
20.184,0.198,-0.561,31.0
0.0,0.0,0.0,0.0
18.556,0.184,-0.735,153.0
18.55,0.185,-0.843,26.0
18.193,0.182,-0.933,3.0
20.186,0.201,-0.485,33.0
20.202,0.202,-0.603,31.0
19.52,0.196,-0.697,17.0
18.534,0.187,-0.772,154.0
18.527,0.188,-0.88,36.0
18.165,0.185,-0.969,3.0
20.188,0.205,-0.526,34.0
20.194,0.205,-0.645,30.0
18.554,0.19,-0.701,41.0
18.563,0.19,-0.812,150.0
18.5,0.191,-0.917,26.0
16.812,0.174,-0.932,0.0
20.201,0.207,-0.568,35.0
20.218,0.208,-0.687,28.0
18.598,0.192,-0.741,152.0
18.539,0.192,-0.848,19.0
17.936,0.187,-0.926,2.0
16.338,0.171,-0.939,0.0
20.193,0.209,-0.61,35.0
0.0,0.0,0.0,0.0
18.561,0.194,-0.777,152.0
18.525,0.194,-0.886,25.0
18.184,0.191,-0.976,2.0
15.707,0.165,-0.936,0.0
20.205,0.211,-0.652,33.0
0.0,0.0,0.0,0.0
18.556,0.194,-0.815,50.0
18.472,0.194,-0.922,14.0
16.734,0.176,-0.933,0.0
15.261,0.161,-0.94,0.0
20.215,0.211,-0.693,30.0
18.61,0.195,-0.747,151.0
18.562,0.194,-0.853,19.0
17.82,0.187,-0.925,3.0
16.255,0.171,-0.939,0.0
14.842,0.156,-0.945,0.0
0.0,0.0,0.0,0.0
18.561,0.194,-0.782,152.0
18.522,0.194,-0.889,25.0
18.303,0.191,-0.987,1.0
15.653,0.164,-0.936,0.0
14.393,0.151,-0.945,0.0
18.715,0.194,-0.717,150.0
18.543,0.192,-0.819,32.0
18.485,0.192,-0.924,11.0
16.611,0.173,-0.93,0.0
15.192,0.158,-0.939,0.0
20.22,0.211,-1.368,0.0
18.575,0.191,-0.749,152.0
18.549,0.191,-0.856,30.0
17.869,0.184,-0.929,3.0
16.209,0.167,-0.939,0.0
14.765,0.152,-0.942,0.0
13.523,0.139,-0.942,0.0
18.556,0.188,-0.785,152.0
18.531,0.188,-0.892,36.0
18.389,0.186,-0.993,3.0
15.586,0.158,-0.934,0.0
14.353,0.145,-0.944,0.0
13.223,0.134,-0.947,0.0
18.558,0.185,-0.821,51.0
18.466,0.184,-0.925,8.0
16.586,0.165,-0.928,0.0
15.118,0.15,-0.936,0.0
18.492,0.184,-1.253,0.0
12.873,0.128,-0.948,0.0
18.556,0.181,-0.858,48.0
18.026,0.176,-0.938,3.0
16.182,0.158,-0.937,0.0
14.746,0.143,-0.942,0.0
18.526,0.18,-1.292,0.0
12.575,0.122,-0.95,0.0
18.53,0.177,-0.893,41.0
18.403,0.175,-0.994,3.0
15.621,0.148,-0.935,0.0
18.544,0.176,-1.22,0.0
13.246,0.125,-0.949,0.0
12.222,0.115,-0.947,0.0
18.492,0.171,-0.927,8.0
16.65,0.154,-0.931,0.0
15.14,0.139,-0.935,0.0
18.537,0.17,-1.256,0.0
12.867,0.118,-0.947,0.0
11.875,0.108,-0.944,0.0
18.336,0.164,-0.954,4.0
16.118,0.144,-0.932,0.0
14.74,0.131,-0.939,0.0
18.521,0.164,-1.29,0.0
12.544,0.111,-0.947,0.0
11.563,0.102,-0.941,0.0
18.429,0.158,-0.993,8.0
15.614,0.133,-0.932,0.0
18.542,0.158,-1.216,0.0
13.246,0.112,-0.947,0.0
12.268,0.104,-0.949,0.0
11.391,0.096,-0.948,0.0
16.609,0.136,-0.926,0.0
15.194,0.124,-0.936,0.0
18.521,0.151,-1.249,0.0
12.889,0.104,-0.946,0.0
11.97,0.096,-0.948,0.0
11.148,0.089,-0.949,0.0
16.223,0.126,-0.934,0.0
14.778,0.114,-0.937,0.0
18.498,0.143,-1.281,0.0
12.6,0.096,-0.948,0.0
11.489,0.087,-0.931,0.0
20.246,0.153,-1.761,0.0
15.69,0.115,-0.932,0.0
14.433,0.105,-0.942,0.0
13.303,0.096,-0.946,0.0
12.295,0.088,-0.947,0.0
11.424,0.081,-0.947,0.0
10.714,0.076,-0.951,0.0
15.277,0.105,-0.935,0.0
18.585,0.126,-1.246,0.0
13.042,0.088,-0.95,0.0
11.972,0.08,-0.944,0.0
11.178,0.074,-0.947,0.0
10.403,0.068,-0.942,0.0
14.836,0.094,-0.934,0.0
20.286,0.127,-1.396,0.0
12.626,0.078,-0.943,0.0
11.566,0.071,-0.932,0.0
20.215,0.123,-1.748,0.0
10.291,0.062,-0.95,0.0
14.562,0.084,-0.942,0.0
13.377,0.076,-0.944,0.0
12.369,0.07,-0.945,0.0
11.445,0.064,-0.942,0.0
10.662,0.059,-0.94,0.0
10.018,0.054,-0.942,0.0
14.183,0.074,-0.942,0.0
13.136,0.067,-0.949,0.0
12.103,0.061,-0.945,0.0
11.257,0.056,-0.946,0.0
10.519,0.052,-0.946,0.0
9.876,0.048,-0.946,0.0
13.763,0.063,-0.938,0.0
12.721,0.057,-0.941,0.0
11.79,0.052,-0.941,0.0
11.093,0.048,-0.951,0.0
10.372,0.044,-0.95,0.0
9.713,0.041,-0.946,0.0
13.469,0.053,-0.94,0.0
12.479,0.048,-0.944,0.0
11.51,0.043,-0.937,0.0
20.141,0.075,-1.76,0.0
10.142,0.037,-0.946,0.0
9.519,0.034,-0.943,0.0
13.233,0.043,-0.945,0.0
12.193,0.039,-0.942,0.0
11.352,0.035,-0.943,0.0
10.624,0.032,-0.946,0.0
9.935,0.029,-0.943,0.0
9.401,0.026,-0.947,0.0
12.939,0.033,-0.945,0.0
12.025,0.03,-0.948,0.0
11.212,0.027,-0.95,0.0
10.405,0.024,-0.943,0.0
9.768,0.021,-0.942,0.0
9.242,0.019,-0.946,0.0
12.647,0.023,-0.944,0.0
11.688,0.02,-0.94,0.0
20.242,0.033,-1.746,0.0
10.238,0.016,-0.944,0.0
9.654,0.014,-0.946,0.0
9.045,0.012,-0.94,0.0
12.424,0.013,-0.946,0.0
11.489,0.011,-0.942,0.0
10.723,0.009,-0.942,0.0
10.068,0.008,-0.944,0.0
9.479,0.006,-0.944,0.0
8.915,0.005,-0.94,0.0
12.182,0.003,-0.946,0.0
11.306,0.002,-0.944,0.0
10.545,0.001,-0.942,0.0
9.914,0.0,-0.944,0.0
9.36,-0.001,-0.946,0.0
8.785,-0.001,-0.939,0.0
11.923,-0.005,-0.944,0.0
10.4,-0.007,-0.944,0.0
9.772,-0.008,-0.945,0.0
9.197,-0.008,-0.943,0.0
8.665,-0.009,-0.939,0.0
11.654,-0.015,-0.939,0.0
20.105,-0.029,-1.738,0.0
10.275,-0.016,-0.948,0.0
9.607,-0.016,-0.943,0.0
9.071,-0.016,-0.943,0.0
8.545,-0.016,-0.939,0.0
11.515,-0.025,-0.944,0.0
10.762,-0.025,-0.945,0.0
10.093,-0.024,-0.945,0.0
9.456,-0.024,-0.941,0.0
8.912,-0.024,-0.939,0.0
8.427,-0.023,-0.938,0.0
11.309,-0.035,-0.943,0.0
10.581,-0.034,-0.944,0.0
9.928,-0.033,-0.943,0.0
9.331,-0.032,-0.942,0.0
8.789,-0.031,-0.938,0.0
8.331,-0.031,-0.938,0.0
11.091,-0.044,-0.94,0.0
10.425,-0.043,-0.944,0.0
9.775,-0.041,-0.942,0.0
9.195,-0.04,-0.94,0.0
8.707,-0.039,-0.941,0.0
8.25,-0.038,-0.94,0.0
10.994,-0.054,-0.946,0.0
10.278,-0.052,-0.944,0.0
9.679,-0.05,-0.945,0.0
9.096,-0.048,-0.942,0.0
8.591,-0.047,-0.94,0.0
8.161,-0.046,-0.94,0.0
10.741,-0.063,-0.938,0.0
10.146,-0.061,-0.945,0.0
9.553,-0.059,-0.945,0.0
8.961,-0.056,-0.939,0.0
8.487,-0.055,-0.939,0.0
8.062,-0.053,-0.939,0.0
10.664,-0.073,-0.944,0.0
10.0,-0.07,-0.943,0.0
9.391,-0.067,-0.94,0.0
8.846,-0.064,-0.938,0.0
8.402,-0.062,-0.94,0.0
7.979,-0.06,-0.939,0.0
10.503,-0.083,-0.942,0.0
9.878,-0.079,-0.943,0.0
9.277,-0.076,-0.94,0.0
8.746,-0.073,-0.938,0.0
8.304,-0.07,-0.939,0.0
7.92,-0.068,-0.941,0.0
10.375,-0.092,-0.943,0.0
9.761,-0.088,-0.944,0.0
9.172,-0.084,-0.94,0.0
8.686,-0.081,-0.941,0.0
8.23,-0.078,-0.94,0.0
7.848,-0.076,-0.942,0.0
10.219,-0.101,-0.94,0.0
9.627,-0.097,-0.941,0.0
9.056,-0.093,-0.938,0.0
8.591,-0.089,-0.94,0.0
8.17,-0.086,-0.942,0.0
7.777,-0.083,-0.942,0.0
10.136,-0.111,-0.943,0.0
9.533,-0.106,-0.942,0.0
8.967,-0.101,-0.938,0.0
8.464,-0.097,-0.935,0.0
8.111,-0.094,-0.944,0.0
7.717,-0.091,-0.943,0.0
10.037,-0.121,-0.944,0.0
9.416,-0.115,-0.94,0.0
8.91,-0.11,-0.941,0.0
8.406,-0.106,-0.938,0.0
8.011,-0.102,-0.94,0.0
7.669,-0.099,-0.944,0.0
9.924,-0.13,-0.944,0.0
9.333,-0.124,-0.941,0.0
8.776,-0.118,-0.936,0.0
8.319,-0.114,-0.936,0.0
7.917,-0.109,-0.937,0.0
7.588,-0.106,-0.942,0.0
9.797,-0.14,-0.941,0.0
9.241,-0.133,-0.94,0.0
8.724,-0.127,-0.938,0.0
8.303,-0.123,-0.942,0.0
7.896,-0.118,-0.941,0.0
7.55,-0.114,-0.944,0.0
9.716,-0.149,-0.942,0.0
9.145,-0.142,-0.939,0.0
8.646,-0.136,-0.938,0.0
8.179,-0.13,-0.935,0.0
7.835,-0.126,-0.941,0.0
7.483,-0.122,-0.942,0.0
9.64,-0.159,-0.943,0.0
9.067,-0.151,-0.939,0.0
8.579,-0.144,-0.938,0.0
8.153,-0.139,-0.939,0.0
7.774,-0.134,-0.94,0.0
7.466,-0.13,-0.946,0.0
9.543,-0.168,-0.941,0.0
9.0,-0.16,-0.939,0.0
8.5,-0.153,-0.936,0.0
8.083,-0.147,-0.937,0.0
7.718,-0.142,-0.94,0.0
7.423,-0.138,-0.947,0.0
9.46,-0.178,-0.94,0.0
8.924,-0.169,-0.938,0.0
8.476,-0.162,-0.94,0.0
8.058,-0.156,-0.941,0.0
7.712,-0.151,-0.945,0.0
7.329,-0.144,-0.94,0.0
9.406,-0.188,-0.942,0.0
8.854,-0.178,-0.937,0.0
8.429,-0.171,-0.94,0.0
7.994,-0.164,-0.939,0.0
7.659,-0.159,-0.944,0.0
7.318,-0.153,-0.944,0.0
9.333,-0.197,-0.941,0.0
8.785,-0.187,-0.936,0.0
8.349,-0.18,-0.937,0.0
7.937,-0.172,-0.937,0.0
7.615,-0.167,-0.943,0.0
7.291,-0.161,-0.945,0.0
9.297,-0.207,-0.943,0.0
8.749,-0.197,-0.937,0.0
8.317,-0.189,-0.939,0.0
7.942,-0.182,-0.943,0.0
7.582,-0.175,-0.944,0.0
7.256,-0.169,-0.945,0.0
9.22,-0.216,-0.941,0.0
8.7,-0.206,-0.937,0.0
8.243,-0.197,-0.935,0.0
7.846,-0.189,-0.936,0.0
7.545,-0.183,-0.944,0.0
7.237,-0.177,-0.947,0.0
9.16,-0.226,-0.94,0.0
8.656,-0.215,-0.937,0.0
8.222,-0.206,-0.937,0.0
7.811,-0.197,-0.936,0.0
7.526,-0.192,-0.945,0.0
7.217,-0.185,-0.948,0.0
9.137,-0.236,-0.942,0.0
8.617,-0.225,-0.937,0.0
8.188,-0.215,-0.937,0.0
7.769,-0.206,-0.935,0.0
7.476,-0.199,-0.942,0.0
7.16,-0.192,-0.944,0.0
9.102,-0.246,-0.942,0.0
8.585,-0.234,-0.938,0.0
8.168,-0.224,-0.939,0.0
7.782,-0.215,-0.94,0.0
7.445,-0.207,-0.942,0.0
7.171,-0.201,-0.948,0.0
9.049,-0.256,-0.941,0.0
8.544,-0.243,-0.937,0.0
8.102,-0.232,-0.934,0.0
7.757,-0.224,-0.94,0.0
7.443,-0.216,-0.944,0.0
7.12,-0.208,-0.944,0.0
9.015,-0.265,-0.94,0.0
8.558,-0.254,-0.941,0.0
8.088,-0.241,-0.936,0.0
7.715,-0.232,-0.937,0.0
7.415,-0.224,-0.943,0.0
7.141,-0.218,-0.949,0.0
8.999,-0.276,-0.942,0.0
8.512,-0.262,-0.939,0.0
8.097,-0.252,-0.939,0.0
7.686,-0.24,-0.936,0.0
7.402,-0.233,-0.944,0.0
7.089,-0.225,-0.945,0.0
8.966,-0.285,-0.941,0.0
8.477,-0.272,-0.937,0.0
8.057,-0.26,-0.937,0.0
7.707,-0.25,-0.941,0.0
7.392,-0.242,-0.944,0.0
7.104,-0.234,-0.948,0.0
8.94,-0.295,-0.94,0.0
8.46,-0.281,-0.937,0.0
8.041,-0.269,-0.937,0.0
7.693,-0.259,-0.94,0.0
7.396,-0.251,-0.946,0.0
7.088,-0.242,-0.947,0.0
8.923,-0.305,-0.94,0.0
8.457,-0.291,-0.939,0.0
8.04,-0.278,-0.938,0.0
7.727,-0.269,-0.946,0.0
7.369,-0.258,-0.944,0.0
7.09,-0.25,-0.949,0.0
8.928,-0.316,-0.942,0.0
8.437,-0.3,-0.937,0.0
8.018,-0.287,-0.936,0.0
7.658,-0.276,-0.938,0.0
7.377,-0.268,-0.946,0.0
7.055,-0.257,-0.945,0.0
8.914,-0.326,-0.941,0.0
8.423,-0.31,-0.937,0.0
7.989,-0.296,-0.933,0.0
7.683,-0.286,-0.942,0.0
7.35,-0.275,-0.943,0.0
7.064,-0.266,-0.946,0.0
8.909,-0.336,-0.941,0.0
8.452,-0.321,-0.94,0.0
7.996,-0.305,-0.935,0.0
7.663,-0.294,-0.94,0.0
7.344,-0.284,-0.942,0.0
7.057,-0.274,-0.946,0.0
8.906,-0.347,-0.941,0.0
8.464,-0.331,-0.941,0.0
8.05,-0.317,-0.941,0.0
7.691,-0.304,-0.943,0.0
7.354,-0.293,-0.943,0.0
7.084,-0.284,-0.949,0.0
8.909,-0.357,-0.94,0.0
8.465,-0.341,-0.941,0.0
8.041,-0.326,-0.939,0.0
7.697,-0.314,-0.943,0.0
7.362,-0.302,-0.944,0.0
7.077,-0.292,-0.947,0.0
8.941,-0.369,-0.943,0.0
8.442,-0.35,-0.938,0.0
8.022,-0.334,-0.936,0.0
7.679,-0.322,-0.94,0.0
7.403,-0.312,-0.948,0.0
7.088,-0.3,-0.948,0.0
8.921,-0.378,-0.94,0.0
8.474,-0.361,-0.94,0.0
8.051,-0.345,-0.938,0.0
7.681,-0.331,-0.939,0.0
7.375,-0.319,-0.943,0.0
7.103,-0.309,-0.949,0.0
8.973,-0.391,-0.944,0.0
8.46,-0.37,-0.937,0.0
8.072,-0.355,-0.939,0.0
7.697,-0.34,-0.94,0.0
7.399,-0.329,-0.945,0.0
7.094,-0.317,-0.946,0.0
8.979,-0.401,-0.942,0.0
8.492,-0.381,-0.939,0.0
8.069,-0.364,-0.937,0.0
7.724,-0.35,-0.941,0.0
7.423,-0.338,-0.946,0.0
7.117,-0.326,-0.947,0.0
9.02,-0.413,-0.944,0.0
8.538,-0.393,-0.941,0.0
8.104,-0.374,-0.939,0.0
7.754,-0.36,-0.942,0.0
7.424,-0.346,-0.944,0.0
7.142,-0.335,-0.948,0.0
9.043,-0.424,-0.944,0.0
8.576,-0.404,-0.943,0.0
8.126,-0.384,-0.939,0.0
7.766,-0.369,-0.941,0.0
7.428,-0.355,-0.942,0.0
7.168,-0.344,-0.949,0.0
9.099,-0.436,-0.946,0.0
8.603,-0.414,-0.943,0.0
8.152,-0.394,-0.939,0.0
7.784,-0.378,-0.94,0.0
7.452,-0.364,-0.942,0.0
7.174,-0.352,-0.947,0.0
9.113,-0.447,-0.944,0.0
8.642,-0.425,-0.943,0.0
8.196,-0.405,-0.94,0.0
7.827,-0.389,-0.942,0.0
7.469,-0.373,-0.941,0.0
7.2,-0.361,-0.947,0.0
9.195,-0.46,-0.949,0.0
8.679,-0.436,-0.944,0.0
8.219,-0.415,-0.939,0.0
7.839,-0.397,-0.94,0.0
7.508,-0.382,-0.942,0.0
7.21,-0.369,-0.945,0.0
9.256,-0.473,-0.951,0.0
8.738,-0.448,-0.946,0.0
8.26,-0.425,-0.94,0.0
7.865,-0.407,-0.939,0.0
7.553,-0.392,-0.944,0.0
7.251,-0.378,-0.947,0.0
9.29,-0.484,-0.949,0.0
8.78,-0.459,-0.946,0.0
8.31,-0.436,-0.941,0.0
7.899,-0.416,-0.939,0.0
7.594,-0.402,-0.945,0.0
7.28,-0.387,-0.946,0.0
9.352,-0.496,-0.95,0.0
8.821,-0.47,-0.945,0.0
8.384,-0.448,-0.944,0.0
7.936,-0.426,-0.939,0.0
7.607,-0.41,-0.942,0.0
7.321,-0.396,-0.947,0.0
9.414,-0.509,-0.951,0.0
8.888,-0.482,-0.947,0.0
8.386,-0.457,-0.939,0.0
7.974,-0.436,-0.938,0.0
7.676,-0.421,-0.946,0.0
7.35,-0.405,-0.946,0.0
9.486,-0.522,-0.952,0.0
8.954,-0.494,-0.948,0.0
8.484,-0.47,-0.945,0.0
8.051,-0.447,-0.942,0.0
7.702,-0.43,-0.944,0.0
7.392,-0.414,-0.947,0.0
9.543,-0.533,-0.951,0.0
9.008,-0.505,-0.947,0.0
8.528,-0.48,-0.944,0.0
8.109,-0.458,-0.943,0.0
7.747,-0.439,-0.943,0.0
7.439,-0.423,-0.947,0.0
9.634,-0.547,-0.953,0.0
9.075,-0.517,-0.948,0.0
8.564,-0.49,-0.941,0.0
8.135,-0.467,-0.94,0.0
7.792,-0.449,-0.943,0.0
7.441,-0.43,-0.942,0.0
9.704,-0.56,-0.953,0.0
9.156,-0.53,-0.949,0.0
8.658,-0.502,-0.945,0.0
8.204,-0.478,-0.941,0.0
7.857,-0.459,-0.945,0.0
7.5,-0.44,-0.943,0.0
9.763,-0.571,-0.951,0.0
9.245,-0.543,-0.951,0.0
8.727,-0.514,-0.945,0.0
8.253,-0.487,-0.94,0.0
7.907,-0.469,-0.944,0.0
7.557,-0.449,-0.944,0.0
9.897,-0.587,-0.955,0.0
9.318,-0.554,-0.95,0.0
8.822,-0.527,-0.948,0.0
8.392,-0.502,-0.948,0.0
7.983,-0.479,-0.946,0.0
7.614,-0.459,-0.944,0.0
9.97,-0.599,-0.954,0.0
9.391,-0.566,-0.949,0.0
8.898,-0.538,-0.948,0.0
8.42,-0.511,-0.944,0.0
8.03,-0.488,-0.944,0.0
7.69,-0.469,-0.946,0.0
10.102,-0.615,-0.957,0.0
9.544,-0.582,-0.956,0.0
8.957,-0.548,-0.946,0.0
8.511,-0.522,-0.946,0.0
8.082,-0.498,-0.943,0.0
7.744,-0.478,-0.946,0.0
10.207,-0.629,-0.957,0.0
9.638,-0.595,-0.956,0.0
9.063,-0.561,-0.948,0.0
8.58,-0.533,-0.945,0.0
8.145,-0.507,-0.942,0.0
7.824,-0.489,-0.948,0.0
10.329,-0.643,-0.958,0.0
9.71,-0.607,-0.954,0.0
9.188,-0.575,-0.952,0.0
8.7,-0.546,-0.95,0.0
8.239,-0.519,-0.944,0.0
7.875,-0.497,-0.946,0.0
10.416,-0.656,-0.956,0.0
9.873,-0.623,-0.96,0.0
9.289,-0.588,-0.953,0.0
8.784,-0.557,-0.95,0.0
8.313,-0.529,-0.944,0.0
7.925,-0.505,-0.943,0.0
10.519,-0.669,-0.954,0.0
9.932,-0.633,-0.955,0.0
9.43,-0.603,-0.957,0.0
8.871,-0.568,-0.95,0.0
8.403,-0.54,-0.945,0.0
8.023,-0.516,-0.946,0.0
10.625,-0.682,-0.952,0.0
10.058,-0.647,-0.956,0.0
9.543,-0.615,-0.958,0.0
8.978,-0.58,-0.951,0.0
8.534,-0.553,-0.95,0.0
8.08,-0.525,-0.944,0.0
10.817,-0.701,-0.958,0.0
10.19,-0.662,-0.957,0.0
9.636,-0.627,-0.957,0.0
9.079,-0.592,-0.952,0.0
8.599,-0.562,-0.948,0.0
8.179,-0.536,-0.946,0.0
10.32,-0.676,-0.957,0.0
9.806,-0.643,-0.962,0.0
9.216,-0.606,-0.955,0.0
8.731,-0.575,-0.952,0.0
8.27,-0.546,-0.946,0.0
11.088,-0.73,-0.956,0.0
10.435,-0.688,-0.955,0.0
9.902,-0.654,-0.96,0.0
9.326,-0.618,-0.955,0.0
8.817,-0.585,-0.951,0.0
8.36,-0.556,-0.946,0.0
11.211,-0.743,-0.953,0.0
10.578,-0.703,-0.955,0.0
10.0,-0.666,-0.957,0.0
9.459,-0.631,-0.957,0.0
8.914,-0.595,-0.95,0.0
8.465,-0.566,-0.948,0.0
11.496,-0.767,-0.962,0.0
10.733,-0.718,-0.956,0.0
10.132,-0.679,-0.957,0.0
9.598,-0.644,-0.959,0.0
9.062,-0.609,-0.954,0.0
8.594,-0.579,-0.951,0.0
11.655,-0.783,-0.961,0.0
10.875,-0.731,-0.955,0.0
10.286,-0.693,-0.958,0.0
9.75,-0.658,-0.962,0.0
9.196,-0.621,-0.956,0.0
8.707,-0.589,-0.952,0.0
11.871,-0.801,-0.964,0.0
11.075,-0.749,-0.958,0.0
10.422,-0.706,-0.957,0.0
9.889,-0.671,-0.962,0.0
9.333,-0.634,-0.958,0.0
8.81,-0.599,-0.952,0.0
12.061,-0.818,-0.963,0.0
11.238,-0.763,-0.958,0.0
10.6,-0.721,-0.96,0.0
10.005,-0.681,-0.96,0.0
9.46,-0.645,-0.959,0.0
8.953,-0.611,-0.955,0.0
12.332,-0.84,-0.968,0.0
11.505,-0.785,-0.965,0.0
10.747,-0.734,-0.958,0.0
10.134,-0.693,-0.959,0.0
9.59,-0.657,-0.959,0.0
9.088,-0.623,-0.957,0.0
12.577,-0.86,-0.971,0.0
11.638,-0.796,-0.96,0.0
10.909,-0.747,-0.958,0.0
10.311,-0.707,-0.961,0.0
9.762,-0.67,-0.962,0.0
9.216,-0.634,-0.958,0.0
12.781,-0.876,-0.969,0.0
11.875,-0.815,-0.963,0.0
11.121,-0.764,-0.961,0.0
10.474,-0.72,-0.962,0.0
9.909,-0.682,-0.963,0.0
9.363,-0.645,-0.96,0.0
12.928,-0.889,-0.962,0.0
12.133,-0.835,-0.967,0.0
11.352,-0.782,-0.965,0.0
10.633,-0.733,-0.961,0.0
10.058,-0.694,-0.963,0.0
9.522,-0.658,-0.962,0.0
13.218,-0.91,-0.964,0.0
12.41,-0.855,-0.971,0.0
11.529,-0.795,-0.963,0.0
10.776,-0.744,-0.959,0.0
10.2,-0.705,-0.962,0.0
9.648,-0.667,-0.961,0.0
14.205,-0.98,-1.015,0.0
12.589,-0.869,-0.966,0.0
11.752,-0.811,-0.964,0.0
10.98,-0.759,-0.961,0.0
10.394,-0.719,-0.965,0.0
9.831,-0.68,-0.965,0.0
13.894,-0.959,-0.973,0.0
12.887,-0.89,-0.97,0.0
11.953,-0.826,-0.963,0.0
11.169,-0.772,-0.96,0.0
10.55,-0.73,-0.963,0.0
9.975,-0.69,-0.964,0.0
14.219,-0.981,-0.974,0.0
13.093,-0.904,-0.966,0.0
12.251,-0.846,-0.969,0.0
11.447,-0.791,-0.967,0.0
10.723,-0.741,-0.963,0.0
10.129,-0.701,-0.963,0.0
14.529,-1.002,-0.974,1.0
14.391,-0.993,-1.041,0.0
12.526,-0.865,-0.972,0.0
11.634,-0.803,-0.965,0.0
10.882,-0.752,-0.96,0.0
10.269,-0.71,-0.961,0.0
14.547,-1.002,-0.953,1.0
13.894,-0.958,-0.983,0.0
12.709,-0.876,-0.967,0.0
11.929,-0.822,-0.971,0.0
11.131,-0.768,-0.965,0.0
10.442,-0.72,-0.961,0.0
14.558,-1.002,-0.931,1.0
14.036,-0.966,-0.972,0.0
12.976,-0.893,-0.967,0.0
12.115,-0.834,-0.968,0.0
11.357,-0.782,-0.967,0.0
10.636,-0.732,-0.962,0.0
14.553,-0.999,-0.908,1.0
14.498,-0.995,-0.981,0.0
13.249,-0.909,-0.967,0.0
12.437,-0.853,-0.974,0.0
11.532,-0.791,-0.964,0.0
10.812,-0.742,-0.961,0.0
14.567,-0.997,-0.887,1.0
14.549,-0.996,-0.962,1.0
14.208,-0.972,-1.014,0.0
12.65,-0.865,-0.971,0.0
11.838,-0.81,-0.971,0.0
11.036,-0.755,-0.964,0.0
14.586,-0.995,-0.865,1.0
14.579,-0.994,-0.941,1.0
13.951,-0.951,-0.974,0.0
12.912,-0.88,-0.971,0.0
12.032,-0.82,-0.968,0.0
11.198,-0.763,-0.96,0.0
14.76,-1.002,-0.852,0.0
14.59,-0.99,-0.919,1.0
14.389,-0.976,-0.982,0.0
13.095,-0.888,-0.964,0.0
12.371,-0.839,-0.975,0.0
11.527,-0.781,-0.97,0.0
15.096,-1.02,-0.847,0.0
14.594,-0.986,-0.896,1.0
14.575,-0.984,-0.971,1.0
14.482,-0.977,-1.042,0.0
12.591,-0.849,-0.972,0.0
11.733,-0.791,-0.968,0.0
15.396,-1.035,-0.839,1.0
14.608,-0.981,-0.873,1.0
14.607,-0.98,-0.95,1.0
13.934,-0.935,-0.98,0.0
12.866,-0.863,-0.973,0.0
12.006,-0.804,-0.971,0.0
15.672,-1.047,-0.829,0.0
14.712,-0.982,-0.856,0.0
14.617,-0.975,-0.927,1.0
14.211,-0.947,-0.977,0.0
13.09,-0.872,-0.969,0.0
12.328,-0.82,-0.977,0.0
15.973,-1.06,-0.819,0.0
15.059,-0.998,-0.851,1.0
14.638,-0.969,-0.904,1.0
14.607,-0.966,-0.98,0.0
14.582,-0.964,-1.055,0.0
12.557,-0.829,-0.975,0.0
16.273,-1.072,-0.808,1.0
15.343,-1.009,-0.843,1.0
14.658,-0.963,-0.882,1.0
14.663,-0.962,-0.96,1.0
13.886,-0.911,-0.982,0.0
12.76,-0.836,-0.97,0.0
16.746,-1.094,-0.805,1.0
15.577,-1.016,-0.83,0.0
14.713,-0.959,-0.861,0.0
14.678,-0.955,-0.937,1.0
14.08,-0.915,-0.973,0.0
13.062,-0.848,-0.971,0.0
17.256,-1.117,-0.801,1.0
15.891,-1.027,-0.821,0.0
15.034,-0.97,-0.855,0.0
14.719,-0.949,-0.916,1.0
14.682,-0.945,-0.991,0.0
13.376,-0.86,-0.973,0.0
17.901,-1.148,-0.802,1.0
16.257,-1.041,-0.813,0.0
15.305,-0.978,-0.846,0.0
14.723,-0.94,-0.892,1.0
14.719,-0.938,-0.969,1.0
13.793,-0.878,-0.98,0.0
18.377,-1.166,-0.793,2.0
16.655,-1.055,-0.806,0.0
15.601,-0.986,-0.837,1.0
