X,Y,Z,Reflectivity
14.335,0.668,-0.945,0.0
13.12,0.612,-0.941,0.0
12.141,0.567,-0.943,0.0
11.297,0.529,-0.943,0.0
10.613,0.497,-0.948,0.0
15.015,0.701,-0.929,0.0
0.0,0.0,0.0,0.0
12.783,0.599,-0.939,0.0
11.882,0.557,-0.943,0.0
11.122,0.522,-0.948,0.0
10.366,0.487,-0.944,0.0
14.671,0.687,-0.933,0.0
13.473,0.632,-0.935,0.0
12.51,0.587,-0.941,0.0
11.557,0.543,-0.937,0.0
10.897,0.512,-0.947,0.0
10.195,0.48,-0.946,0.0
14.408,0.676,-0.941,0.0
13.25,0.622,-0.942,0.0
12.237,0.575,-0.941,0.0
11.437,0.538,-0.947,0.0
10.59,0.499,-0.939,0.0
10.022,0.472,-0.947,0.0
14.011,0.658,-0.938,0.0
12.91,0.607,-0.939,0.0
11.957,0.562,-0.939,0.0
11.176,0.526,-0.944,0.0
10.471,0.493,-0.946,0.0
9.839,0.464,-0.946,0.0
13.642,0.641,-0.936,0.0
12.61,0.593,-0.938,0.0
11.726,0.551,-0.941,0.0
10.95,0.515,-0.943,0.0
10.275,0.484,-0.945,0.0
9.651,0.455,-0.944,0.0
13.3,0.624,-0.935,0.0
12.398,0.582,-0.943,0.0
11.51,0.541,-0.942,0.0
10.765,0.506,-0.945,0.0
10.075,0.474,-0.943,0.0
9.515,0.448,-0.946,0.0
13.055,0.612,-0.938,0.0
12.094,0.567,-0.94,0.0
11.301,0.53,-0.944,0.0
10.576,0.496,-0.946,0.0
9.911,0.465,-0.944,0.0
9.38,0.44,-0.948,0.0
12.795,0.598,-0.94,0.0
11.854,0.554,-0.94,0.0
11.097,0.519,-0.944,0.0
10.351,0.484,-0.942,0.0
9.772,0.457,-0.947,0.0
9.194,0.43,-0.944,0.0
12.534,0.584,-0.941,0.0
11.614,0.541,-0.939,0.0
10.897,0.508,-0.945,0.0
10.184,0.475,-0.943,0.0
9.591,0.447,-0.944,0.0
9.033,0.421,-0.942,0.0
12.264,0.569,-0.94,0.0
11.4,0.529,-0.94,0.0
10.661,0.495,-0.941,0.0
10.03,0.465,-0.945,0.0
9.433,0.438,-0.944,0.0
8.895,0.413,-0.942,0.0
11.998,0.554,-0.939,0.0
11.185,0.516,-0.94,0.0
10.506,0.485,-0.944,0.0
9.864,0.455,-0.944,0.0
9.266,0.428,-0.941,0.0
8.738,0.403,-0.939,0.0
11.788,0.541,-0.94,0.0
11.061,0.507,-0.946,0.0
10.366,0.475,-0.947,0.0
9.713,0.446,-0.945,0.0
9.202,0.422,-0.949,0.0
8.651,0.397,-0.943,0.0
11.535,0.526,-0.937,0.0
10.879,0.496,-0.947,0.0
10.179,0.464,-0.945,0.0
9.57,0.436,-0.945,0.0
9.009,0.41,-0.942,0.0
8.511,0.387,-0.94,0.0
11.383,0.515,-0.942,0.0
10.623,0.481,-0.94,0.0
10.012,0.453,-0.944,0.0
9.434,0.426,-0.946,0.0
8.872,0.401,-0.941,0.0
8.44,0.381,-0.945,0.0
11.182,0.502,-0.941,0.0
10.458,0.469,-0.941,0.0
9.872,0.443,-0.945,0.0
9.287,0.416,-0.944,0.0
8.749,0.392,-0.941,0.0
8.317,0.372,-0.943,0.0
11.056,0.492,-0.946,0.0
10.322,0.459,-0.943,0.0
9.701,0.431,-0.943,0.0
9.103,0.404,-0.938,0.0
8.663,0.384,-0.944,0.0
8.195,0.363,-0.94,0.0
10.814,0.476,-0.941,0.0
10.162,0.447,-0.943,0.0
9.537,0.419,-0.94,0.0
8.972,0.394,-0.937,0.0
8.524,0.374,-0.94,0.0
8.119,0.356,-0.943,0.0
10.679,0.465,-0.943,0.0
10.006,0.435,-0.942,0.0
9.429,0.41,-0.942,0.0
8.919,0.387,-0.944,0.0
8.452,0.367,-0.944,0.0
8.035,0.348,-0.944,0.0
10.469,0.451,-0.939,0.0
9.9,0.426,-0.945,0.0
9.308,0.4,-0.943,0.0
8.757,0.376,-0.939,0.0
8.333,0.357,-0.942,0.0
7.929,0.339,-0.942,0.0
10.343,0.439,-0.941,0.0
9.724,0.413,-0.941,0.0
9.184,0.389,-0.942,0.0
8.68,0.368,-0.942,0.0
8.237,0.348,-0.941,0.0
7.842,0.331,-0.942,0.0
10.208,0.428,-0.942,0.0
9.615,0.402,-0.943,0.0
9.075,0.379,-0.942,0.0
8.571,0.358,-0.941,0.0
8.175,0.341,-0.945,0.0
7.787,0.324,-0.946,0.0
10.102,0.417,-0.945,0.0
9.504,0.392,-0.944,0.0
8.939,0.368,-0.939,0.0
8.506,0.35,-0.944,0.0
8.084,0.332,-0.944,0.0
7.71,0.316,-0.946,0.0
9.946,0.404,-0.942,0.0
9.376,0.381,-0.942,0.0
8.834,0.358,-0.939,0.0
8.366,0.339,-0.939,0.0
7.996,0.323,-0.944,0.0
7.634,0.308,-0.945,0.0
9.816,0.393,-0.941,0.0
9.248,0.369,-0.94,0.0
8.713,0.347,-0.936,0.0
8.271,0.329,-0.938,0.0
7.908,0.314,-0.942,0.0
7.566,0.3,-0.946,0.0
9.687,0.381,-0.94,0.0
9.168,0.36,-0.943,0.0
8.653,0.339,-0.94,0.0
8.234,0.322,-0.943,0.0
7.853,0.306,-0.945,0.0
7.507,0.292,-0.947,0.0
9.603,0.371,-0.942,0.0
9.024,0.347,-0.938,0.0
8.592,0.33,-0.943,0.0
8.152,0.313,-0.942,0.0
7.794,0.298,-0.946,0.0
7.441,0.284,-0.947,0.0
9.496,0.359,-0.942,0.0
8.968,0.338,-0.941,0.0
8.458,0.318,-0.937,0.0
8.059,0.303,-0.94,0.0
7.726,0.29,-0.946,0.0
7.366,0.276,-0.945,0.0
9.393,0.348,-0.941,0.0
8.86,0.327,-0.939,0.0
8.398,0.31,-0.939,0.0
7.976,0.293,-0.938,0.0
7.643,0.28,-0.944,0.0
7.334,0.268,-0.948,0.0
9.278,0.336,-0.939,0.0
8.782,0.317,-0.94,0.0
8.374,0.302,-0.944,0.0
7.91,0.284,-0.939,0.0
7.597,0.272,-0.945,0.0
7.303,0.261,-0.951,0.0
9.192,0.326,-0.939,0.0
8.696,0.307,-0.939,0.0
8.254,0.291,-0.939,0.0
7.838,0.275,-0.937,0.0
7.515,0.263,-0.942,0.0
7.225,0.252,-0.948,0.0
9.104,0.315,-0.939,0.0
8.613,0.297,-0.938,0.0
8.153,0.28,-0.935,0.0
7.823,0.268,-0.943,0.0
7.514,0.257,-0.949,0.0
7.194,0.245,-0.95,0.0
9.005,0.303,-0.936,0.0
8.563,0.287,-0.94,0.0
8.179,0.274,-0.945,0.0
7.741,0.258,-0.94,0.0
7.449,0.248,-0.947,0.0
7.141,0.237,-0.949,0.0
8.946,0.293,-0.938,0.0
8.509,0.278,-0.941,0.0
8.084,0.263,-0.94,0.0
7.729,0.251,-0.944,0.0
7.367,0.238,-0.943,0.0
7.091,0.228,-0.949,0.0
8.911,0.284,-0.941,0.0
8.439,0.268,-0.94,0.0
8.027,0.254,-0.94,0.0
7.636,0.241,-0.939,0.0
7.343,0.231,-0.945,0.0
7.029,0.22,-0.946,0.0
8.796,0.272,-0.936,0.0
8.409,0.259,-0.943,0.0
7.979,0.245,-0.94,0.0
7.618,0.233,-0.942,0.0
7.303,0.222,-0.946,0.0
7.03,0.213,-0.951,0.0
8.721,0.261,-0.934,0.0
8.323,0.248,-0.939,0.0
7.942,0.236,-0.942,0.0
7.575,0.224,-0.942,0.0
7.275,0.214,-0.947,0.0
6.984,0.205,-0.95,0.0
8.718,0.253,-0.939,0.0
8.268,0.239,-0.938,0.0
7.881,0.226,-0.94,0.0
7.518,0.215,-0.94,0.0
7.233,0.206,-0.946,0.0
6.915,0.196,-0.945,0.0
8.664,0.243,-0.939,0.0
8.226,0.229,-0.939,0.0
7.826,0.217,-0.938,0.0
7.484,0.206,-0.941,0.0
7.176,0.197,-0.943,0.0
6.857,0.187,-0.941,0.0
8.61,0.232,-0.938,0.0
8.187,0.22,-0.939,0.0
7.821,0.209,-0.942,0.0
7.509,0.199,-0.948,0.0
7.164,0.189,-0.946,0.0
0.0,0.0,0.0,0.0
8.562,0.222,-0.938,0.0
8.14,0.21,-0.938,0.0
7.768,0.199,-0.939,0.0
7.442,0.19,-0.944,0.0
7.139,0.181,-0.946,0.0
6.86,0.173,-0.949,0.0
8.506,0.212,-0.936,0.0
8.101,0.201,-0.937,0.0
7.749,0.191,-0.941,0.0
7.404,0.181,-0.942,0.0
7.103,0.173,-0.945,0.0
0.0,0.0,0.0,0.0
8.492,0.203,-0.938,0.0
8.079,0.192,-0.938,0.0
7.758,0.183,-0.945,0.0
0.0,0.0,0.0,0.0
7.111,0.165,-0.949,0.0
0.0,0.0,0.0,0.0
8.458,0.193,-0.938,0.0
8.073,0.183,-0.941,0.0
7.709,0.173,-0.943,0.0
7.361,0.164,-0.943,0.0
7.099,0.157,-0.95,0.0
0.0,0.0,0.0,0.0
8.431,0.183,-0.938,0.0
8.015,0.173,-0.937,0.0
7.653,0.164,-0.938,0.0
0.0,0.0,0.0,0.0
7.105,0.15,-0.953,0.0
6.769,0.141,-0.947,0.0
8.416,0.173,-0.939,0.0
8.008,0.164,-0.939,0.0
7.657,0.155,-0.941,0.0
7.31,0.147,-0.941,0.0
7.062,0.141,-0.95,0.0
6.799,0.135,-0.953,0.0
8.4,0.164,-0.939,0.0
8.001,0.155,-0.94,0.0
7.637,0.146,-0.941,0.0
7.276,0.138,-0.939,0.0
0.0,0.0,0.0,0.0
6.764,0.126,-0.95,0.0
8.365,0.154,-0.937,0.0
7.989,0.146,-0.941,0.0
7.649,0.138,-0.944,0.0
0.0,0.0,0.0,0.0
7.018,0.124,-0.947,0.0
6.769,0.119,-0.952,0.0
8.337,0.144,-0.936,0.0
7.993,0.137,-0.942,0.0
7.649,0.129,-0.945,0.0
0.0,0.0,0.0,0.0
0.0,0.0,0.0,0.0
6.731,0.11,-0.948,0.0
8.355,0.135,-0.939,0.0
7.973,0.127,-0.941,0.0
7.619,0.12,-0.943,0.0
0.0,0.0,0.0,0.0
7.0,0.108,-0.946,0.0
6.731,0.103,-0.948,0.0
8.345,0.125,-0.939,0.0
7.975,0.118,-0.942,0.0
7.594,0.111,-0.94,0.0
0.0,0.0,0.0,0.0
0.0,0.0,0.0,0.0
6.784,0.096,-0.956,0.0
8.368,0.116,-0.942,0.0
7.953,0.109,-0.94,0.0
7.592,0.103,-0.94,0.0
0.0,0.0,0.0,0.0
0.0,0.0,0.0,0.0
6.74,0.087,-0.95,0.0
8.321,0.106,-0.936,0.0
7.958,0.1,-0.94,0.0
7.649,0.095,-0.947,0.0
7.295,0.089,-0.945,0.0
0.0,0.0,0.0,0.0
6.743,0.08,-0.95,0.0
8.349,0.097,-0.939,0.0
7.954,0.091,-0.939,0.0
7.619,0.085,-0.943,0.0
7.282,0.08,-0.943,0.0
0.0,0.0,0.0,0.0
6.751,0.072,-0.951,0.0
8.369,0.087,-0.94,0.0
7.957,0.082,-0.939,0.0
7.591,0.076,-0.938,0.0
7.277,0.072,-0.941,0.0
6.994,0.068,-0.944,0.0
6.818,0.065,-0.959,0.0
8.354,0.078,-0.938,0.0
7.958,0.072,-0.938,0.0
7.657,0.068,-0.945,0.0
7.319,0.064,-0.946,0.0
7.066,0.06,-0.953,0.0
6.783,0.057,-0.953,0.0
8.376,0.068,-0.938,0.0
7.985,0.064,-0.939,0.0
7.614,0.059,-0.939,0.0
7.317,0.056,-0.944,0.0
7.033,0.052,-0.947,0.0
6.78,0.049,-0.951,0.0
8.418,0.059,-0.941,0.0
7.998,0.055,-0.939,0.0
7.66,0.051,-0.942,0.0
7.311,0.047,-0.941,0.0
0.0,0.0,0.0,0.0
6.78,0.041,-0.949,0.0
8.389,0.049,-0.936,0.0
8.048,0.046,-0.943,0.0
7.638,0.042,-0.937,0.0
0.0,0.0,0.0,0.0
7.072,0.036,-0.948,0.0
6.799,0.033,-0.95,0.0
8.419,0.04,-0.936,0.0
8.063,0.037,-0.942,0.0
7.639,0.033,-0.935,0.0
7.326,0.03,-0.938,0.0
7.056,0.028,-0.943,0.0
6.821,0.026,-0.95,0.0
8.459,0.031,-0.938,0.0
8.109,0.028,-0.944,0.0
7.686,0.025,-0.937,0.0
0.0,0.0,0.0,0.0
0.0,0.0,0.0,0.0
0.0,0.0,0.0,0.0
8.499,0.021,-0.938,0.0
8.109,0.019,-0.94,0.0
7.71,0.016,-0.937,0.0
7.459,0.014,-0.949,0.0
7.133,0.012,-0.947,0.0
6.84,0.01,-0.947,0.0
8.555,0.012,-0.941,0.0
8.131,0.01,-0.939,0.0
7.814,0.008,-0.946,0.0
7.41,0.006,-0.939,0.0
7.138,0.004,-0.944,0.0
6.915,0.003,-0.954,0.0
8.585,0.002,-0.94,0.0
8.162,0.001,-0.938,0.0
7.824,0.0,-0.943,0.0
7.464,-0.001,-0.942,0.0
0.0,0.0,0.0,0.0
6.928,-0.004,-0.952,0.0
8.619,-0.006,-0.939,0.0
8.213,-0.007,-0.94,0.0
7.841,-0.008,-0.941,0.0
7.483,-0.009,-0.94,0.0
7.185,-0.011,-0.942,0.0
6.9,-0.011,-0.944,0.0
8.668,-0.015,-0.939,0.0
8.273,-0.016,-0.942,0.0
7.879,-0.017,-0.94,0.0
7.578,-0.018,-0.947,0.0
7.224,-0.018,-0.943,0.0
0.0,0.0,0.0,0.0
8.735,-0.025,-0.94,0.0
8.286,-0.025,-0.938,0.0
7.931,-0.026,-0.941,0.0
7.549,-0.026,-0.938,0.0
7.261,-0.026,-0.943,0.0
7.04,-0.027,-0.953,0.0
8.781,-0.034,-0.939,0.0
8.364,-0.034,-0.941,0.0
7.983,-0.034,-0.942,0.0
7.598,-0.034,-0.939,0.0
7.348,-0.034,-0.949,0.0
7.08,-0.034,-0.954,0.0
8.839,-0.044,-0.939,0.0
8.403,-0.043,-0.939,0.0
7.955,-0.042,-0.932,0.0
7.639,-0.042,-0.938,0.0
7.387,-0.042,-0.948,0.0
7.131,-0.042,-0.955,0.0
8.91,-0.053,-0.94,0.0
8.466,-0.052,-0.939,0.0
8.082,-0.051,-0.941,0.0
7.694,-0.05,-0.939,0.0
7.425,-0.05,-0.947,0.0
7.151,-0.05,-0.952,0.0
8.984,-0.063,-0.94,0.0
8.51,-0.061,-0.937,0.0
8.143,-0.06,-0.941,0.0
7.767,-0.059,-0.941,0.0
7.484,-0.058,-0.948,0.0
7.172,-0.057,-0.948,0.0
9.068,-0.072,-0.941,0.0
8.606,-0.07,-0.94,0.0
8.228,-0.069,-0.944,0.0
7.809,-0.067,-0.939,0.0
7.5,-0.065,-0.944,0.0
7.198,-0.064,-0.945,0.0
9.16,-0.082,-0.942,0.0
8.677,-0.079,-0.94,0.0
8.279,-0.077,-0.942,0.0
7.869,-0.075,-0.939,0.0
7.596,-0.074,-0.949,0.0
7.247,-0.072,-0.945,0.0
9.25,-0.092,-0.943,0.0
8.744,-0.088,-0.939,0.0
8.338,-0.086,-0.941,0.0
7.959,-0.083,-0.943,0.0
7.616,-0.081,-0.944,0.0
7.324,-0.079,-0.948,0.0
9.325,-0.101,-0.942,0.0
8.841,-0.097,-0.941,0.0
8.425,-0.095,-0.942,0.0
8.028,-0.092,-0.943,0.0
7.693,-0.089,-0.945,0.0
7.387,-0.087,-0.948,0.0
9.43,-0.111,-0.943,0.0
8.949,-0.107,-0.943,0.0
8.497,-0.103,-0.942,0.0
8.077,-0.099,-0.94,0.0
7.734,-0.097,-0.942,0.0
7.428,-0.094,-0.945,0.0
9.578,-0.121,-0.947,0.0
9.038,-0.116,-0.943,0.0
8.587,-0.112,-0.942,0.0
8.155,-0.108,-0.94,0.0
7.799,-0.104,-0.941,0.0
7.51,-0.102,-0.948,0.0
9.685,-0.131,-0.947,0.0
9.143,-0.126,-0.944,0.0
8.68,-0.121,-0.943,0.0
8.225,-0.116,-0.939,0.0
7.877,-0.112,-0.942,0.0
7.58,-0.109,-0.948,0.0
9.772,-0.141,-0.945,0.0
9.268,-0.135,-0.946,0.0
8.76,-0.129,-0.941,0.0
8.327,-0.124,-0.941,0.0
7.981,-0.121,-0.945,0.0
7.617,-0.116,-0.943,0.0
9.92,-0.151,-0.947,0.0
9.349,-0.144,-0.943,0.0
8.862,-0.138,-0.942,0.0
8.405,-0.132,-0.94,0.0
8.033,-0.128,-0.941,0.0
7.7,-0.124,-0.944,0.0
10.08,-0.162,-0.95,0.0
9.479,-0.154,-0.945,0.0
8.97,-0.147,-0.942,0.0
8.52,-0.141,-0.942,0.0
8.145,-0.136,-0.944,0.0
7.783,-0.131,-0.945,0.0
10.203,-0.172,-0.949,0.0
9.613,-0.163,-0.946,0.0
9.099,-0.156,-0.944,0.0
8.601,-0.149,-0.94,0.0
8.216,-0.144,-0.942,0.0
7.891,-0.139,-0.948,0.0
10.365,-0.182,-0.951,0.0
9.739,-0.173,-0.946,0.0
9.232,-0.165,-0.946,0.0
8.709,-0.157,-0.94,0.0
8.323,-0.152,-0.943,0.0
7.956,-0.146,-0.945,0.0
10.504,-0.192,-0.95,0.0
9.912,-0.183,-0.949,0.0
9.379,-0.175,-0.949,0.0
8.834,-0.166,-0.942,0.0
8.434,-0.16,-0.945,0.0
8.045,-0.154,-0.944,0.0
10.672,-0.203,-0.951,0.0
10.103,-0.194,-0.954,0.0
9.471,-0.183,-0.945,0.0
8.994,-0.175,-0.946,0.0
8.53,-0.167,-0.943,0.0
8.146,-0.161,-0.945,0.0
10.836,-0.213,-0.95,0.0
10.246,-0.203,-0.953,0.0
9.661,-0.193,-0.95,0.0
9.112,-0.183,-0.946,0.0
8.651,-0.175,-0.945,0.0
8.238,-0.168,-0.944,0.0
11.035,-0.224,-0.952,0.0
10.379,-0.212,-0.951,0.0
9.766,-0.201,-0.947,0.0
9.276,-0.192,-0.95,0.0
8.781,-0.183,-0.946,0.0
8.345,-0.176,-0.944,0.0
11.194,-0.234,-0.95,0.0
10.546,-0.222,-0.951,0.0
9.926,-0.211,-0.948,0.0
9.401,-0.201,-0.949,0.0
8.888,-0.191,-0.945,0.0
8.466,-0.183,-0.945,0.0
11.386,-0.245,-0.949,0.0
10.759,-0.233,-0.954,0.0
10.121,-0.221,-0.951,0.0
9.503,-0.208,-0.945,0.0
9.048,-0.199,-0.948,0.0
8.581,-0.19,-0.945,0.0
11.571,-0.255,-0.947,0.0
10.975,-0.244,-0.957,0.0
10.319,-0.23,-0.954,0.0
9.715,-0.218,-0.951,0.0
9.204,-0.208,-0.95,0.0
8.724,-0.198,-0.947,0.0
11.904,-0.269,-0.956,0.0
11.139,-0.253,-0.953,0.0
10.476,-0.239,-0.952,0.0
9.889,-0.227,-0.952,0.0
9.363,-0.216,-0.952,0.0
8.843,-0.205,-0.946,0.0
12.198,-0.282,-0.96,0.0
11.317,-0.263,-0.951,0.0
10.663,-0.249,-0.952,0.0
10.083,-0.236,-0.955,0.0
9.507,-0.224,-0.951,0.0
9.018,-0.213,-0.95,0.0
12.404,-0.292,-0.957,0.0
11.549,-0.273,-0.952,0.0
10.847,-0.258,-0.951,0.0
10.255,-0.245,-0.955,0.0
9.679,-0.232,-0.952,0.0
9.163,-0.221,-0.95,0.0
12.624,-0.303,-0.953,0.0
11.828,-0.285,-0.955,0.0
11.097,-0.268,-0.955,0.0
10.423,-0.253,-0.953,0.0
9.857,-0.24,-0.953,0.0
9.332,-0.228,-0.952,0.0
12.945,-0.315,-0.956,0.0
12.136,-0.297,-0.96,0.0
11.318,-0.278,-0.955,0.0
10.644,-0.262,-0.955,0.0
10.065,-0.249,-0.957,0.0
9.496,-0.236,-0.953,0.0
13.27,-0.328,-0.957,0.0
12.39,-0.307,-0.959,0.0
11.496,-0.286,-0.95,0.0
10.841,-0.271,-0.954,0.0
10.26,-0.257,-0.958,0.0
9.674,-0.244,-0.954,0.0
13.455,-0.337,-0.948,0.0
12.596,-0.316,-0.954,0.0
11.863,-0.299,-0.961,0.0
11.103,-0.281,-0.959,0.0
10.416,-0.264,-0.954,0.0
9.859,-0.251,-0.955,0.0
13.867,-0.351,-0.953,0.0
12.937,-0.329,-0.957,0.0
12.173,-0.31,-0.965,0.0
11.275,-0.288,-0.954,0.0
10.644,-0.273,-0.956,0.0
10.068,-0.259,-0.958,0.0
14.234,-0.364,-0.954,0.0
13.279,-0.341,-0.959,0.0
12.386,-0.318,-0.96,0.0
11.563,-0.298,-0.958,0.0
10.842,-0.28,-0.955,0.0
10.255,-0.266,-0.957,0.0
14.553,-0.375,-0.95,0.0
13.519,-0.349,-0.953,0.0
12.659,-0.328,-0.958,0.0
11.893,-0.309,-0.964,0.0
11.112,-0.289,-0.959,0.0
10.437,-0.272,-0.956,0.0
14.999,-0.389,-0.952,0.0
13.933,-0.362,-0.957,0.0
12.979,-0.338,-0.96,0.0
12.152,-0.317,-0.963,0.0
11.323,-0.296,-0.957,0.0
10.68,-0.28,-0.959,0.0
15.519,-0.405,-0.957,0.0
14.36,-0.375,-0.96,0.0
13.303,-0.348,-0.959,0.0
12.405,-0.325,-0.961,0.0
11.62,-0.305,-0.961,0.0
10.899,-0.287,-0.958,0.0
16.039,-0.42,-0.96,0.0
14.644,-0.384,-0.953,0.0
13.656,-0.359,-0.96,0.0
12.691,-0.334,-0.959,0.0
11.903,-0.314,-0.962,0.0
11.151,-0.294,-0.96,0.0
15.004,-0.394,-0.948,0.0
13.976,-0.368,-0.956,0.0
13.001,-0.343,-0.959,0.0
12.193,-0.322,-0.963,0.0
11.368,-0.3,-0.957,0.0
15.601,-0.41,-0.957,0.0
14.412,-0.379,-0.959,0.0
13.358,-0.352,-0.96,0.0
12.494,-0.33,-0.963,0.0
11.688,-0.309,-0.962,0.0
19.32,-0.507,-1.049,0.0
16.084,-0.423,-0.956,0.0
14.748,-0.388,-0.954,0.0
13.707,-0.361,-0.959,0.0
12.812,-0.337,-0.963,0.0
12.015,-0.317,-0.966,0.0
19.414,-0.509,-1.017,0.0
15.242,-0.4,-0.957,0.0
14.077,-0.369,-0.958,0.0
13.115,-0.344,-0.961,0.0
12.247,-0.322,-0.962,0.0
19.437,-0.508,-0.982,0.0
16.953,-0.443,-0.944,0.0
15.745,-0.411,-0.959,0.0
14.469,-0.378,-0.958,0.0
13.41,-0.35,-0.957,0.0
12.587,-0.329,-0.964,0.0
19.542,-0.508,-0.95,0.0
19.482,-0.506,-1.048,0.0
14.833,-0.385,-0.954,0.0
13.867,-0.36,-0.964,0.0
12.93,-0.336,-0.966,0.0
19.577,-0.505,-0.914,0.0
19.53,-0.504,-1.013,0.0
16.946,-0.437,-0.967,1.0
15.427,-0.398,-0.962,0.0
14.193,-0.366,-0.959,0.0
13.229,-0.341,-0.963,0.0
19.66,-0.503,-0.88,1.0
19.693,-0.504,-0.984,0.0
17.17,-0.439,-0.947,0.0
15.936,-0.407,-0.963,0.0
14.575,-0.372,-0.957,0.0
13.514,-0.345,-0.957,0.0
19.777,-0.501,-0.848,1.0
19.789,-0.501,-0.951,0.0
19.743,-0.5,-1.051,0.0
16.656,-0.421,-0.975,0.0
14.983,-0.378,-0.954,0.0
13.996,-0.353,-0.964,0.0
20.08,-0.503,-0.822,1.0
19.947,-0.499,-0.92,0.0
19.901,-0.497,-1.021,0.0
17.002,-0.424,-0.962,2.0
15.551,-0.388,-0.96,0.0
14.351,-0.357,-0.961,0.0
20.618,-0.51,-0.804,0.0
20.048,-0.495,-0.885,1.0
20.083,-0.495,-0.991,0.0
17.277,-0.425,-0.943,1.0
16.309,-0.401,-0.975,1.0
14.779,-0.363,-0.96,0.0
21.538,-0.525,-0.798,0.0
20.193,-0.491,-0.852,2.0
20.168,-0.49,-0.956,0.0
16.76,-0.405,-0.969,2.0
15.358,-0.371,-0.968,0.0
0.0,0.0,0.0,0.0
20.481,-0.49,-0.824,1.0
20.514,-0.489,-0.932,0.0
20.413,-0.486,-1.035,0.0
17.141,-0.407,-0.958,2.0
15.737,-0.373,-0.961,0.0
23.79,-0.559,-0.788,14.0
21.054,-0.494,-0.806,1.0
20.653,-0.483,-0.897,0.0
20.505,-0.478,-0.999,0.0
16.39,-0.38,-0.968,0.0
23.863,-0.549,-0.744,9.0
22.029,-0.506,-0.801,0.0
20.875,-0.478,-0.867,1.0
20.722,-0.473,-0.97,0.0
16.955,-0.384,-0.969,0.0
25.652,-0.577,-0.75,6.0
23.503,-0.527,-0.808,4.0
21.209,-0.474,-0.839,2.0
21.162,-0.471,-0.949,0.0
38.601,-0.857,-1.931,0.0
17.165,-0.379,-0.947,0.0
28.14,-0.617,-0.767,2.0
24.093,-0.526,-0.781,5.0
21.615,-0.471,-0.813,0.0
21.454,-0.465,-0.92,0.0
21.565,-0.466,-1.036,0.0
30.243,-0.645,-0.765,8.0
25.218,-0.536,-0.768,1.0
22.375,-0.473,-0.798,2.0
21.839,-0.46,-0.893,1.0
21.877,-0.459,-1.008,0.0
38.433,-0.802,-1.97,0.0
30.504,-0.631,-0.713,32.0
27.208,-0.56,-0.776,1.0
23.306,-0.478,-0.785,0.0
22.257,-0.454,-0.867,1.0
22.305,-0.453,-0.984,0.0
0.0,0.0,0.0,0.0
30.921,-0.619,-0.662,31.0
28.793,-0.573,-0.765,7.0
25.541,-0.506,-0.811,2.0
22.826,-0.45,-0.845,1.0
22.764,-0.446,-0.96,0.0
19.99,-0.389,-0.947,0.0
31.501,-0.608,-0.613,6.0
30.065,-0.577,-0.74,16.0
27.098,-0.517,-0.807,2.0
23.519,-0.446,-0.825,1.0
23.459,-0.442,-0.944,0.0
0.0,0.0,0.0,0.0
37.912,-0.703,-0.665,17.0
30.641,-0.564,-0.695,29.0
28.139,-0.515,-0.784,5.0
24.735,-0.449,-0.819,1.0
24.047,-0.434,-0.921,0.0
21.454,-0.384,-0.932,3.0
38.358,-0.681,-0.598,14.0
31.387,-0.553,-0.651,16.0
29.286,-0.512,-0.759,8.0
25.871,-0.449,-0.807,2.0
24.664,-0.425,-0.897,0.0
0.0,0.0,0.0,0.0
44.876,-0.759,-0.614,17.0
0.0,0.0,0.0,0.0
30.44,-0.507,-0.731,25.0
27.03,-0.446,-0.791,1.0
25.418,-0.416,-0.876,4.0
25.541,-0.414,-1.012,0.0
45.156,-0.725,-0.531,19.0
38.062,-0.606,-0.645,21.0
30.989,-0.488,-0.685,26.0
28.493,-0.445,-0.78,2.0
26.134,-0.404,-0.851,2.0
26.248,-0.402,-0.991,0.0
52.889,-0.801,-0.522,17.0
38.831,-0.583,-0.585,14.0
31.966,-0.475,-0.646,2.0
30.281,-0.445,-0.772,16.0
26.948,-0.392,-0.826,1.0
20.249,-0.291,-0.726,1.0
56.629,-0.805,-0.453,4.0
44.937,-0.632,-0.591,31.0
37.794,-0.525,-0.693,14.0
30.874,-0.424,-0.729,28.0
27.986,-0.38,-0.806,2.0
20.217,-0.271,-0.687,12.0
56.57,-0.749,-0.345,9.0
45.456,-0.594,-0.512,3.0
38.262,-0.494,-0.63,13.0
31.917,-0.406,-0.694,17.0
29.168,-0.367,-0.785,5.0
20.216,-0.251,-0.649,23.0
56.29,-0.688,-0.239,1.0
52.959,-0.638,-0.499,7.0
44.812,-0.532,-0.654,16.0
35.959,-0.421,-0.715,6.0
30.495,-0.352,-0.765,3.0
20.192,-0.229,-0.611,26.0
56.337,-0.63,-0.135,1.0
59.324,-0.652,-0.449,8.0
44.989,-0.487,-0.574,31.0
37.853,-0.403,-0.683,24.0
20.196,-0.211,-0.469,15.0
20.194,-0.207,-0.573,33.0
56.223,-0.567,-0.031,2.0
56.379,-0.558,-0.323,1.0
52.654,-0.512,-0.575,3.0
20.201,-0.192,-0.327,3.0
20.186,-0.189,-0.432,27.0
20.171,-0.185,-0.536,36.0
53.342,-0.479,0.066,6.0
53.329,-0.469,-0.209,6.0
20.176,-0.173,-0.184,1.0
20.178,-0.169,-0.291,22.0
20.164,-0.165,-0.395,28.0
20.175,-0.162,-0.5,31.0
58.327,-0.457,0.177,13.0
20.195,-0.154,-0.043,9.0
20.151,-0.15,-0.147,16.0
20.15,-0.146,-0.254,26.0
20.153,-0.142,-0.359,31.0
20.159,-0.138,-0.464,34.0
20.148,-0.134,0.097,16.0
20.163,-0.13,-0.007,24.0
20.19,-0.126,-0.112,21.0
20.134,-0.121,-0.218,14.0
20.149,-0.117,-0.323,37.0
20.158,-0.113,-0.428,39.0
20.141,-0.109,0.132,21.0
20.138,-0.105,0.028,29.0
20.15,-0.101,-0.076,28.0
20.146,-0.097,-0.183,32.0
20.14,-0.092,-0.288,37.0
20.147,-0.088,-0.393,26.0
20.127,-0.084,0.167,28.0
20.132,-0.08,0.063,39.0
20.146,-0.076,-0.041,28.0
20.131,-0.071,-0.148,35.0
20.144,-0.067,-0.253,27.0
20.165,-0.063,-0.359,21.0
20.12,-0.058,0.202,31.0
20.131,-0.054,0.097,39.0
20.126,-0.05,-0.007,36.0
20.137,-0.045,-0.114,33.0
20.126,-0.041,-0.219,13.0
20.176,-0.037,-0.325,23.0
20.134,-0.032,0.236,31.0
20.117,-0.028,0.131,29.0
20.136,-0.023,0.026,32.0
20.171,-0.019,-0.08,22.0
20.162,-0.014,-0.186,14.0
20.196,-0.01,-0.291,3.0
20.128,-0.005,0.27,27.0
20.12,-0.001,0.165,28.0
20.152,0.003,0.06,29.0
20.228,0.008,-0.047,152.0
20.266,0.012,-0.153,151.0
20.269,0.017,-0.258,150.0
20.139,0.021,0.304,27.0
20.135,0.026,0.198,28.0
20.146,0.031,0.093,28.0
20.267,0.036,-0.013,69.0
20.253,0.041,-0.119,38.0
20.242,0.045,-0.225,66.0
20.143,0.05,0.337,30.0
20.137,0.055,0.231,28.0
20.138,0.059,0.126,27.0
20.209,0.064,0.019,32.0
20.202,0.069,-0.086,31.0
20.206,0.074,-0.192,25.0
20.153,0.079,0.37,29.0
20.157,0.084,0.264,26.0
20.141,0.088,0.158,27.0
20.194,0.093,0.051,34.0
20.184,0.098,-0.054,33.0
20.185,0.103,-0.16,34.0
20.16,0.108,0.402,29.0
20.161,0.113,0.296,28.0
20.163,0.118,0.19,25.0
20.199,0.123,0.082,34.0
20.174,0.128,-0.023,27.0
20.179,0.133,-0.128,39.0
20.171,0.138,0.433,27.0
20.17,0.143,0.327,24.0
20.167,0.148,0.221,20.0
20.186,0.153,0.114,24.0
20.247,0.158,0.007,27.0
20.195,0.163,-0.098,23.0
20.236,0.169,0.466,25.0
20.251,0.174,0.359,26.0
20.289,0.179,0.253,27.0
20.309,0.185,0.145,29.0
20.325,0.19,0.038,34.0
20.307,0.195,-0.068,4.0
20.268,0.2,0.497,33.0
20.274,0.205,0.39,34.0
20.281,0.21,0.283,27.0
20.28,0.215,0.174,26.0
20.319,0.221,0.068,18.0
20.435,0.228,-0.038,0.0
20.286,0.231,0.527,27.0
20.276,0.236,0.42,28.0
20.286,0.242,0.313,24.0
20.286,0.247,0.204,11.0
99.635,1.242,0.479,5.0
99.576,1.267,-0.046,3.0
20.289,0.263,0.556,7.0
20.285,0.269,0.449,12.0
20.3,0.274,0.342,3.0
0.0,0.0,0.0,0.0
99.709,1.4,0.619,3.0
99.653,1.425,0.092,5.0
157.229,2.293,4.533,34.0
196.182,2.913,4.619,26.0
194.919,2.946,3.558,27.0
195.773,3.012,2.521,10.0
0.0,0.0,0.0,0.0
99.779,1.588,0.229,5.0
0.0,0.0,0.0,0.0
197.123,3.247,4.911,9.0
194.877,3.263,3.825,22.0
194.846,3.316,2.775,22.0
100.062,1.729,0.895,1.0
99.85,1.753,0.364,7.0
148.377,2.649,4.683,4.0
0.0,0.0,0.0,0.0
194.585,3.576,4.077,16.0
194.601,3.63,3.028,5.0
103.199,1.954,1.059,18.0
99.88,1.919,0.496,4.0
0.0,0.0,0.0,0.0
0.0,0.0,0.0,0.0
194.542,3.902,4.332,9.0
195.505,3.974,3.296,8.0
103.203,2.127,1.192,7.0
102.887,2.149,0.643,1.0
0.0,0.0,0.0,0.0
194.814,4.182,5.62,17.0
194.528,4.23,4.579,20.0
194.308,4.277,3.52,7.0
195.095,4.347,2.498,18.0
103.003,2.324,0.772,1.0
0.0,0.0,0.0,0.0
0.0,0.0,0.0,0.0
194.492,4.56,4.818,23.0
193.923,4.601,3.754,33.0
195.119,4.685,2.74,24.0
0.0,0.0,0.0,0.0
0.0,0.0,0.0,0.0
0.0,0.0,0.0,0.0
194.236,4.892,5.048,30.0
193.846,4.935,3.986,27.0
195.277,5.026,2.974,12.0
0.0,0.0,0.0,0.0
156.983,4.136,5.937,5.0
193.142,5.144,6.275,14.0
194.557,5.237,5.283,21.0
193.634,5.267,4.206,31.0
193.629,5.322,3.174,8.0
195.52,5.431,2.163,8.0
193.872,5.453,7.559,5.0
193.15,5.488,6.499,17.0
194.166,5.572,5.496,16.0
193.818,5.617,4.432,38.0
193.747,5.669,3.395,15.0
201.66,5.958,2.455,5.0
193.631,5.79,7.767,19.0
193.789,5.85,6.736,19.0
194.324,5.92,5.713,7.0
193.886,5.961,4.643,21.0
193.976,6.018,3.607,6.0
195.463,6.121,2.59,5.0
193.551,6.13,7.971,25.0
193.581,6.186,6.935,16.0
195.914,6.314,5.966,5.0
195.74,6.363,4.892,5.0
195.013,6.396,3.829,23.0
0.0,0.0,0.0,0.0
195.966,6.556,8.273,9.0
193.808,6.539,7.142,23.0
193.392,6.577,6.086,13.0
194.873,6.682,5.067,14.0
195.145,6.748,4.027,21.0
202.783,7.071,3.098,18.0
196.386,6.925,8.489,16.0
193.759,6.885,7.331,26.0
193.815,6.943,6.292,6.0
194.639,7.026,5.253,12.0
195.061,7.097,4.215,10.0
203.06,7.448,3.297,5.0
195.997,7.267,8.661,8.0
194.715,7.273,7.555,6.0
194.25,7.309,6.489,17.0
0.0,0.0,0.0,0.0
195.09,7.453,4.399,19.0
195.1,7.508,3.347,4.0
195.465,7.602,8.818,9.0
195.491,7.659,7.765,25.0
193.602,7.638,6.645,9.0
193.247,7.679,5.57,16.0
196.751,7.875,4.611,7.0
0.0,0.0,0.0,0.0
194.8,7.934,8.962,13.0
195.284,8.006,7.927,23.0
193.366,7.981,6.805,20.0
193.199,8.03,5.737,22.0
192.718,8.065,4.681,6.0
0.0,0.0,0.0,0.0
194.458,8.277,9.111,11.0
193.534,8.291,8.02,9.0
193.887,8.361,6.985,27.0
193.374,8.394,5.901,19.0
195.429,8.538,4.908,14.0
195.506,8.595,3.851,54.0
193.535,8.593,9.224,25.0
193.48,8.643,8.172,16.0
193.581,8.7,7.126,28.0
193.249,8.74,6.048,24.0
194.062,8.833,5.023,8.0
0.0,0.0,0.0,0.0
193.277,8.937,9.359,21.0
192.881,8.971,8.293,27.0
193.087,9.035,7.255,25.0
193.913,9.126,6.213,13.0
196.142,9.288,5.221,5.0
0.0,0.0,0.0,0.0
193.414,9.299,9.506,26.0
192.657,9.315,8.422,13.0
192.952,9.384,7.387,25.0
194.159,9.498,6.359,5.0
193.916,9.539,5.296,22.0
195.697,9.683,4.283,4.0
193.122,9.643,9.627,21.0
192.91,9.683,8.564,22.0
193.01,9.74,7.518,23.0
193.678,9.826,6.469,12.0
193.977,9.896,5.425,18.0
196.648,10.087,4.431,8.0
193.986,10.041,9.793,20.0
193.127,10.05,8.697,11.0
192.876,10.089,7.634,23.0
193.34,10.168,6.58,10.0
193.69,10.238,5.536,8.0
0.0,0.0,0.0,0.0
193.842,10.392,9.906,21.0
193.036,10.401,8.808,24.0
193.506,10.481,7.774,7.0
192.962,10.503,6.68,15.0
195.986,10.723,5.716,19.0
196.091,10.782,4.649,42.0
193.477,10.732,9.997,27.0
0.0,0.0,0.0,0.0
193.622,10.842,7.885,11.0
192.926,10.856,6.783,5.0
194.782,11.016,5.785,5.0
196.203,11.148,4.755,5.0
193.694,11.101,10.11,17.0
193.879,11.163,9.058,10.0
0.0,0.0,0.0,0.0
0.0,0.0,0.0,0.0
0.0,0.0,0.0,0.0
195.634,11.476,4.838,4.0
194.325,11.493,10.237,26.0
193.95,11.523,9.154,8.0
193.132,11.524,8.055,6.0
156.275,9.366,5.645,3.0
0.0,0.0,0.0,0.0
195.858,11.845,4.929,4.0
194.1,11.837,10.312,11.0
0.0,0.0,0.0,0.0
0.0,0.0,0.0,0.0
0.0,0.0,0.0,0.0
0.0,0.0,0.0,0.0
0.0,0.0,0.0,0.0
0.0,0.0,0.0,0.0
194.472,12.267,9.341,6.0
110.806,7.019,4.713,2.0
174.424,11.094,6.443,7.0
162.706,10.393,5.115,4.0
0.0,0.0,0.0,0.0
0.0,0.0,0.0,0.0
121.824,7.91,5.896,4.0
162.033,10.561,6.948,12.0
161.947,10.599,6.037,13.0
162.693,10.691,5.17,6.0
178.303,11.766,4.686,10.0
107.878,7.175,5.851,2.0
157.745,10.531,7.684,11.0
107.856,7.228,4.659,1.0
156.941,10.559,5.899,5.0
161.921,10.936,5.195,4.0
173.196,11.744,4.601,18.0
110.941,7.581,6.048,1.0
0.0,0.0,0.0,0.0
107.761,7.418,4.685,2.0
166.223,11.485,6.291,5.0
155.897,10.811,5.041,17.0
161.686,11.256,4.337,23.0
121.643,8.532,6.661,2.0
108.097,7.609,5.321,2.0
121.51,8.584,5.31,6.0
160.893,11.406,6.126,10.0
169.348,12.049,5.511,4.0
156.111,11.149,4.219,25.0
92.097,6.627,5.062,3.0
108.091,7.802,5.342,5.0
121.361,8.79,5.326,2.0
166.234,12.083,6.359,4.0
178.821,13.042,5.852,10.0
161.001,11.782,4.378,13.0
92.123,6.791,5.079,6.0
107.55,7.954,5.333,2.0
96.389,7.152,4.244,19.0
154.431,11.496,5.929,6.0
169.833,12.686,5.58,4.0
166.807,12.501,4.557,4.0
92.127,6.954,5.091,4.0
108.125,8.187,5.373,6.0
99.229,7.537,4.38,4.0
157.045,11.967,6.045,4.0
156.885,11.992,5.168,16.0
178.2,13.667,4.883,19.0
92.126,7.115,5.098,2.0
110.822,8.586,5.516,2.0
96.661,7.51,4.273,3.0
154.538,12.045,5.958,3.0
154.377,12.069,5.096,3.0
155.117,12.166,4.258,18.0
91.927,7.261,5.091,9.0
110.765,8.773,5.517,6.0
110.241,8.757,4.878,4.0
169.772,13.526,6.549,3.0
193.619,15.471,6.394,5.0
161.343,12.932,4.432,13.0
92.039,7.427,5.098,5.0
120.707,9.767,6.013,7.0
99.357,8.061,4.395,4.0
144.039,11.721,5.555,13.0
160.287,13.08,5.29,14.0
156.818,12.834,4.301,13.0
92.228,7.6,5.105,6.0
96.846,8.001,4.82,4.0
99.355,8.23,4.39,7.0
143.639,11.932,5.531,26.0
144.381,12.027,4.755,11.0
156.871,13.104,4.294,7.0
96.321,8.1,5.325,5.0
108.136,9.116,5.373,2.0
99.072,8.374,4.369,8.0
121.093,10.262,4.651,20.0
144.114,12.246,4.732,12.0
144.1,12.279,3.928,25.0
106.011,9.092,5.849,4.0
99.132,8.522,4.914,2.0
143.483,12.367,6.31,9.0
109.939,9.499,4.208,2.0
143.731,12.45,4.7,23.0
144.289,12.532,3.913,33.0
111.485,9.746,6.134,5.0
110.239,9.659,5.447,7.0
99.665,8.754,4.367,4.0
109.827,9.67,4.186,10.0
121.152,10.695,3.94,16.0
143.751,12.721,3.871,25.0
96.989,8.636,5.318,4.0
111.363,9.939,5.482,6.0
110.548,9.89,4.822,4.0
120.702,10.824,4.575,24.0
121.235,10.897,3.917,20.0
143.677,12.947,3.838,30.0
84.166,7.631,4.595,5.0
138.591,12.593,6.789,7.0
117.407,10.691,5.093,16.0
109.741,10.016,4.133,13.0
121.503,11.115,3.895,30.0
138.021,12.656,3.652,11.0
91.637,8.454,4.98,7.0
120.348,11.126,5.863,5.0
87.032,8.063,3.751,9.0
110.421,10.253,4.128,11.0
121.608,11.316,3.864,27.0
137.911,12.862,3.608,19.0
84.17,7.897,4.548,5.0
122.691,11.536,5.939,7.0
86.341,8.134,3.694,5.0
108.255,10.22,4.012,2.0
109.444,10.354,3.442,21.0
121.605,11.529,3.141,29.0
84.189,8.028,4.521,3.0
99.321,9.488,4.775,4.0
138.15,13.223,5.864,6.0
108.138,10.372,3.97,17.0
109.336,10.507,3.399,22.0
121.47,11.698,3.094,32.0
84.824,8.215,4.525,4.0
111.532,10.823,5.32,6.0
104.216,10.131,4.383,3.0
108.18,10.537,3.93,22.0
109.04,10.643,3.348,18.0
121.47,11.879,3.047,23.0
84.86,8.345,4.492,6.0
97.601,9.614,4.616,28.0
97.692,9.641,4.068,20.0
122.628,12.125,4.403,42.0
108.883,10.787,3.296,18.0
121.398,12.049,2.992,24.0
84.554,8.438,4.438,10.0
111.637,11.16,5.23,5.0
97.721,9.786,4.026,14.0
115.328,11.57,4.089,24.0
115.836,11.643,3.452,19.0
109.147,10.991,2.638,22.0
85.644,8.671,4.454,8.0
96.155,9.751,4.458,4.0
103.949,10.559,4.232,5.0
111.135,11.308,3.884,15.0
109.858,11.198,3.22,56.0
109.213,11.151,2.585,34.0
85.831,8.81,4.42,3.0
85.889,8.829,3.938,3.0
107.403,11.059,4.317,20.0
97.538,10.059,3.358,18.0
110.15,11.379,3.171,17.0
109.265,11.307,2.528,42.0
84.08,8.745,4.285,1.0
98.859,10.298,4.478,19.0
136.506,14.24,5.412,10.0
97.438,10.181,3.301,33.0
116.4,12.182,3.285,20.0
109.204,11.447,2.465,51.0
99.028,10.432,4.991,11.0
87.308,9.21,3.905,5.0
103.174,10.9,4.03,5.0
97.475,10.312,3.246,10.0
109.286,11.58,3.02,9.0
109.235,11.594,2.401,52.0
90.371,9.638,4.499,7.0
120.791,12.899,5.33,20.0
98.363,10.519,3.781,25.0
97.64,10.456,3.191,17.0
103.615,11.113,2.799,26.0
115.678,12.425,2.47,25.0
90.52,9.768,4.45,13.0
87.295,9.433,3.796,4.0
96.982,10.493,3.666,15.0
97.764,10.592,3.132,44.0
103.962,11.28,2.741,27.0
103.926,11.293,2.151,10.0
90.383,9.867,4.383,4.0
96.743,10.573,4.141,47.0
96.909,10.605,3.598,9.0
97.825,10.72,3.067,47.0
103.922,11.404,2.668,24.0
103.905,11.418,2.079,34.0
0.0,0.0,0.0,0.0
96.585,10.673,4.067,13.0
96.887,10.719,3.529,30.0
97.673,10.82,2.992,46.0
104.088,11.546,2.598,22.0
103.815,11.53,2.003,33.0
0.0,0.0,0.0,0.0
107.906,12.049,4.465,21.0
97.056,10.85,3.464,12.0
104.647,11.712,3.13,19.0
144.254,16.166,3.494,4.0
144.071,16.167,2.671,11.0
90.481,10.195,4.191,8.0
105.227,11.869,4.275,9.0
97.109,10.965,3.391,13.0
104.283,11.789,3.039,24.0
144.167,16.317,3.382,13.0
144.106,16.329,2.561,15.0
87.048,9.903,3.965,9.0
91.771,10.451,3.657,24.0
97.259,11.087,3.32,15.0
97.781,11.159,2.773,18.0
0.0,0.0,0.0,0.0
149.504,17.1,2.539,19.0
87.025,9.992,3.894,5.0
91.784,10.548,3.584,31.0
97.252,11.187,3.242,16.0
97.782,11.26,2.694,28.0
153.047,17.643,3.346,4.0
149.673,17.273,2.42,14.0
90.599,10.494,3.979,5.0
91.948,10.66,3.513,11.0
97.334,11.295,3.165,42.0
97.811,11.362,2.611,38.0
152.67,17.752,3.208,3.0
149.778,17.434,2.296,28.0
90.812,10.609,3.91,43.0
91.997,10.756,3.436,35.0
97.546,11.415,3.087,12.0
97.781,11.453,2.527,28.0
97.798,11.466,1.97,12.0
97.748,11.471,1.412,16.0
92.391,10.88,3.897,4.0
92.0,10.843,3.355,36.0
98.291,11.593,3.025,27.0
97.751,11.54,2.439,50.0
97.699,11.544,1.882,34.0
97.681,11.552,1.324,45.0
92.052,10.922,3.8,12.0
91.544,10.87,3.257,41.0
147.233,17.496,4.398,12.0
97.719,11.621,2.351,56.0
97.684,11.627,1.793,49.0
97.669,11.637,1.235,17.0
85.908,10.267,3.468,44.0
91.503,10.943,3.171,27.0
97.62,11.683,2.825,7.0
97.722,11.705,2.26,44.0
97.7,11.712,1.701,36.0
0.0,0.0,0.0,0.0
86.681,10.431,3.417,43.0
91.506,11.019,3.084,15.0
97.508,11.749,2.728,19.0
97.789,11.791,2.169,31.0
97.817,11.804,1.61,8.0
0.0,0.0,0.0,0.0
108.923,13.192,4.189,10.0
91.591,11.099,2.998,10.0
97.61,11.836,2.637,18.0
139.814,16.966,2.964,10.0
149.672,18.175,2.318,10.0
0.0,0.0,0.0,0.0
108.863,13.264,4.081,20.0
97.256,11.857,3.089,29.0
139.932,17.07,3.642,11.0
149.645,18.266,3.024,19.0
0.0,0.0,0.0,0.0
0.0,0.0,0.0,0.0
115.281,14.127,4.205,24.0
140.011,17.166,4.304,10.0
149.819,18.378,3.748,18.0
149.728,18.378,2.874,23.0
0.0,0.0,0.0,0.0
68.717,8.445,0.533,2.0
86.067,10.603,3.051,13.0
91.6,11.289,2.722,16.0
149.825,18.475,3.596,18.0
149.64,18.462,2.719,13.0
0.0,0.0,0.0,0.0
68.731,8.49,0.463,8.0
85.915,10.635,2.957,18.0
91.564,11.339,2.628,28.0
91.6,11.349,2.104,11.0
91.54,11.347,1.569,7.0
0.0,0.0,0.0,0.0
68.726,8.528,0.391,13.0
85.807,10.67,2.864,32.0
91.531,11.385,2.531,43.0
91.526,11.389,2.007,36.0
91.491,11.39,1.473,17.0
69.261,8.627,0.718,0.0
68.685,8.56,0.319,23.0
91.382,11.41,2.953,21.0
91.505,11.429,2.434,51.0
91.499,11.432,1.908,61.0
91.461,11.432,1.375,9.0
68.898,8.615,0.641,0.0
68.645,8.588,0.246,10.0
91.399,11.455,2.856,47.0
91.491,11.469,2.334,48.0
91.467,11.47,1.809,53.0
0.0,0.0,0.0,0.0
68.662,8.616,0.565,2.0
0.0,0.0,0.0,0.0
91.428,11.497,2.757,50.0
91.494,11.508,2.234,50.0
91.45,11.505,1.71,49.0
69.053,8.69,0.888,0.0
68.671,8.645,0.49,10.0
0.0,0.0,0.0,0.0
91.471,11.537,2.659,47.0
91.503,11.543,2.135,38.0
91.445,11.538,1.61,43.0
69.18,8.731,0.814,1.0
68.638,8.665,0.414,16.0
0.0,0.0,0.0,0.0
91.495,11.57,2.557,44.0
91.498,11.572,2.034,43.0
91.466,11.57,1.508,30.0
69.165,8.751,0.738,1.0
68.642,8.687,0.339,16.0
0.0,0.0,0.0,0.0
91.485,11.594,2.458,36.0
91.487,11.596,1.933,36.0
91.499,11.599,1.408,8.0
0.0,0.0,0.0,0.0
68.595,8.699,0.263,5.0
0.0,0.0,0.0,0.0
91.495,11.617,2.356,34.0
91.484,11.617,1.831,27.0
69.122,8.778,0.987,0.0
68.645,8.719,0.579,2.0
0.0,0.0,0.0,0.0
64.978,8.256,-0.195,0.0
91.527,11.639,2.255,22.0
91.503,11.636,1.73,13.0
69.25,8.806,0.911,0.0
68.622,8.728,0.502,13.0
0.0,0.0,0.0,0.0
64.937,8.262,-0.268,0.0
91.562,11.657,2.151,13.0
91.498,11.648,1.626,5.0
69.046,8.79,0.831,1.0
68.634,8.738,0.425,28.0
64.737,8.243,0.03,2.0
0.0,0.0,0.0,0.0
91.557,11.665,2.047,12.0
149.918,19.1,2.493,13.0
69.055,8.797,0.752,1.0
68.609,8.741,0.346,18.0
64.789,8.254,-0.043,4.0
0.0,0.0,0.0,0.0
91.57,11.671,1.944,12.0
149.858,19.099,2.321,4.0
69.155,8.813,0.675,1.0
68.633,8.746,0.269,4.0
64.8,8.258,-0.116,4.0
65.046,8.29,-0.49,0.0
91.571,11.672,1.839,7.0
69.005,8.794,0.991,1.0
68.62,8.744,0.592,2.0
64.817,8.259,0.181,0.0
64.806,8.258,-0.19,2.0
65.016,8.285,-0.564,0.0
91.557,11.667,1.734,5.0
68.972,8.787,0.911,1.0
68.629,8.742,0.513,12.0
64.804,8.254,0.106,1.0
64.795,8.252,-0.265,0.0
0.0,0.0,0.0,0.0
91.534,11.655,1.63,6.0
69.166,8.805,0.834,1.0
68.632,8.736,0.436,25.0
64.84,8.252,0.033,0.0
64.994,8.271,-0.339,1.0
0.0,0.0,0.0,0.0
91.502,11.639,1.527,5.0
69.176,8.797,0.756,1.0
68.633,8.726,0.357,20.0
0.0,0.0,0.0,0.0
65.122,8.277,-0.414,0.0
0.0,0.0,0.0,0.0
91.517,11.624,1.421,3.0
69.095,8.773,0.677,0.0
68.628,8.712,0.279,6.0
64.983,8.247,-0.115,0.0
65.143,8.266,-0.488,0.0
0.0,0.0,0.0,0.0
69.093,8.76,0.994,1.0
68.636,8.699,0.594,1.0
0.0,0.0,0.0,0.0
64.922,8.224,-0.188,1.0
0.0,0.0,0.0,0.0
0.0,0.0,0.0,0.0
69.091,8.741,0.917,1.0
68.641,8.68,0.517,9.0
0.0,0.0,0.0,0.0
65.071,8.223,-0.262,4.0
0.0,0.0,0.0,0.0
0.0,0.0,0.0,0.0
69.263,8.74,0.84,1.0
68.648,8.659,0.439,16.0
65.243,8.226,0.044,0.0
65.148,8.211,-0.335,10.0
0.0,0.0,0.0,0.0
42.582,5.364,-0.707,0.0
69.125,8.697,0.762,1.0
68.657,8.634,0.363,20.0
65.231,8.2,-0.028,2.0
65.192,8.192,-0.407,41.0
55.738,7.001,-0.668,0.0
0.0,0.0,0.0,0.0
0.0,0.0,0.0,0.0
68.643,8.603,0.286,9.0
65.322,8.183,-0.101,19.0
65.239,8.169,-0.481,29.0
0.0,0.0,0.0,0.0
38.574,4.827,-0.726,0.0
68.727,8.587,0.605,0.0
68.644,8.572,0.211,9.0
65.397,8.162,-0.173,15.0
65.295,8.145,-0.552,3.0
0.0,0.0,0.0,0.0
38.23,4.765,-0.761,0.0
68.748,8.555,0.53,6.0
68.637,8.536,0.136,5.0
65.452,8.135,-0.244,14.0
0.0,0.0,0.0,0.0
0.0,0.0,0.0,0.0
37.025,4.595,-0.778,0.0
68.705,8.511,0.454,10.0
68.681,8.503,0.061,177.0
65.602,8.116,-0.316,1.0
55.678,6.885,-0.592,1.0
0.0,0.0,0.0,0.0
35.365,4.368,-0.781,0.0
68.73,8.473,0.381,5.0
68.687,8.462,-0.011,163.0
82.68,10.18,-0.487,1.0
0.0,0.0,0.0,0.0
40.132,4.935,-0.699,0.0
34.083,4.189,-0.789,0.0
68.706,8.427,0.309,0.0
68.671,8.416,-0.083,150.0
0.0,0.0,0.0,0.0
68.673,8.405,-0.874,4.0
39.636,4.848,-0.731,0.0
32.359,3.956,-0.782,0.0
68.675,8.377,0.238,0.0
68.915,8.4,-0.154,0.0
0.0,0.0,0.0,0.0
68.683,8.359,-0.945,2.0
37.701,4.585,-0.734,0.0
32.194,3.913,-0.811,0.0
68.699,8.33,0.168,3.0
68.995,8.359,-0.224,1.0
68.825,8.332,-0.617,0.0
68.729,8.314,-1.016,1.0
37.136,4.488,-0.761,0.0
31.114,3.758,-0.816,0.0
68.794,8.288,0.098,150.0
68.956,8.3,-0.294,2.0
0.0,0.0,0.0,0.0
0.0,0.0,0.0,0.0
35.104,4.215,-0.754,0.0
30.483,3.658,-0.829,0.0
68.775,8.23,0.03,3.0
0.0,0.0,0.0,0.0
0.0,0.0,0.0,0.0
40.86,4.876,-0.685,0.0
34.795,4.149,-0.782,0.0
29.547,3.521,-0.833,0.0
69.124,8.213,-0.036,0.0
68.945,8.184,-0.429,2.0
0.0,0.0,0.0,0.0
40.682,4.82,-0.721,0.0
33.104,3.919,-0.776,0.0
28.68,3.392,-0.835,0.0
69.748,8.225,-0.103,0.0
68.908,8.118,-0.494,3.0
0.0,0.0,0.0,0.0
40.143,4.72,-0.75,0.0
32.466,3.814,-0.792,0.0
27.952,3.28,-0.841,0.0
0.0,0.0,0.0,0.0
0.0,0.0,0.0,0.0
0.0,0.0,0.0,0.0
37.916,4.422,-0.743,0.0
31.945,3.722,-0.808,0.0
27.419,3.191,-0.85,0.0
71.485,8.293,-0.238,1.0
0.0,0.0,0.0,0.0
0.0,0.0,0.0,0.0
37.246,4.307,-0.764,0.0
30.953,3.575,-0.811,0.0
26.779,3.09,-0.854,0.0
71.779,8.254,-0.303,0.0
0.0,0.0,0.0,0.0
42.672,4.895,-0.666,0.0
35.528,4.071,-0.76,0.0
30.546,3.497,-0.827,0.0
26.122,2.987,-0.856,0.0
0.0,0.0,0.0,0.0
0.0,0.0,0.0,0.0
42.781,4.863,-0.704,0.0
34.987,3.972,-0.779,0.0
29.611,3.358,-0.827,0.0
25.629,2.903,-0.862,0.0
68.94,7.78,-0.409,1.0
0.0,0.0,0.0,0.0
40.945,4.609,-0.708,0.0
33.745,3.794,-0.779,0.0
28.939,3.25,-0.833,0.0
24.917,2.795,-0.859,0.0
68.985,7.708,-0.467,4.0
0.0,0.0,0.0,0.0
40.011,4.458,-0.724,0.0
32.941,3.666,-0.787,0.0
28.317,3.147,-0.837,0.0
24.407,2.709,-0.861,1.0
68.984,7.628,-0.521,2.0
0.0,0.0,0.0,0.0
38.953,4.294,-0.736,0.0
32.452,3.573,-0.801,0.0
27.955,3.074,-0.849,0.0
24.156,2.653,-0.871,0.0
0.0,0.0,0.0,0.0
0.0,0.0,0.0,0.0
37.924,4.135,-0.746,0.0
0.0,0.0,0.0,0.0
27.247,2.962,-0.848,0.0
23.705,2.574,-0.872,0.0
0.0,0.0,0.0,0.0
0.0,0.0,0.0,0.0
37.103,3.999,-0.758,0.0
30.643,3.298,-0.803,0.0
26.873,2.888,-0.856,0.0
21.983,2.359,-0.825,0.0
82.067,8.767,-0.806,8.0
0.0,0.0,0.0,0.0
36.847,3.924,-0.779,0.0
30.228,3.214,-0.813,0.0
26.296,2.792,-0.856,0.0
21.916,2.323,-0.838,1.0
0.0,0.0,0.0,0.0
0.0,0.0,0.0,0.0
35.947,3.78,-0.784,0.0
29.987,3.148,-0.827,0.0
25.815,2.706,-0.858,0.0
21.898,2.292,-0.852,3.0
0.0,0.0,0.0,0.0
0.0,0.0,0.0,0.0
34.775,3.61,-0.782,0.0
29.842,3.093,-0.842,0.0
25.431,2.631,-0.862,0.0
21.859,2.258,-0.864,5.0
0.0,0.0,0.0,0.0
40.972,4.204,-0.715,0.0
0.0,0.0,0.0,0.0
29.081,2.974,-0.839,0.0
25.073,2.559,-0.865,0.0
21.849,2.227,-0.877,2.0
0.0,0.0,0.0,0.0
0.0,0.0,0.0,0.0
33.099,3.344,-0.784,0.0
28.445,2.868,-0.837,0.0
24.691,2.485,-0.866,0.0
21.77,2.187,-0.887,1.0
0.0,0.0,0.0,0.0
0.0,0.0,0.0,0.0
32.921,3.277,-0.798,0.0
28.21,2.803,-0.846,0.0
24.415,2.422,-0.87,0.0
21.749,2.153,-0.898,1.0
0.0,0.0,0.0,0.0
38.714,3.805,-0.741,0.0
32.324,3.171,-0.801,0.0
27.71,2.713,-0.845,0.0
24.021,2.347,-0.869,0.0
21.628,2.109,-0.904,0.0
0.0,0.0,0.0,0.0
38.016,3.679,-0.747,0.0
31.793,3.07,-0.804,0.0
27.388,2.639,-0.849,0.0
23.891,2.297,-0.876,0.0
21.451,2.059,-0.907,0.0
0.0,0.0,0.0,0.0
37.727,3.593,-0.759,0.0
31.147,2.96,-0.802,0.0
27.068,2.567,-0.852,0.0
23.617,2.235,-0.876,0.0
21.166,1.999,-0.904,0.0
0.0,0.0,0.0,0.0
37.131,3.478,-0.764,0.0
31.204,2.917,-0.817,0.0
26.93,2.511,-0.859,0.0
23.457,2.183,-0.88,0.0
20.921,1.943,-0.902,0.0
0.0,0.0,0.0,0.0
37.12,3.419,-0.778,0.0
30.988,2.847,-0.823,0.0
26.703,2.448,-0.862,0.0
23.412,2.141,-0.888,0.0
20.741,1.893,-0.903,0.0
0.0,0.0,0.0,0.0
36.648,3.317,-0.782,0.0
30.739,2.775,-0.828,0.0
26.391,2.377,-0.861,0.0
21.932,1.971,-0.839,2.0
20.648,1.851,-0.906,0.0
0.0,0.0,0.0,0.0
35.202,3.128,-0.763,0.0
30.527,2.706,-0.832,0.0
26.069,2.305,-0.86,0.0
21.923,1.934,-0.846,3.0
20.44,1.798,-0.903,0.0
0.0,0.0,0.0,0.0
35.364,3.083,-0.777,0.0
30.651,2.666,-0.845,4.0
25.956,2.251,-0.863,0.0
21.909,1.895,-0.851,3.0
20.527,1.771,-0.913,0.0
0.0,0.0,0.0,0.0
0.0,0.0,0.0,0.0
30.096,2.567,-0.837,0.0
25.841,2.198,-0.866,0.0
21.902,1.858,-0.856,6.0
20.283,1.716,-0.907,0.0
0.0,0.0,0.0,0.0
0.0,0.0,0.0,0.0
29.627,2.476,-0.831,0.0
25.663,2.139,-0.865,0.0
21.872,1.818,-0.86,5.0
20.064,1.663,-0.901,0.0
0.0,0.0,0.0,0.0
34.969,2.871,-0.792,0.0
29.742,2.434,-0.84,0.0
25.705,2.098,-0.871,0.0
21.868,1.78,-0.863,6.0
20.048,1.627,-0.903,0.0
0.0,0.0,0.0,0.0
34.754,2.793,-0.792,0.0
29.5,2.363,-0.837,0.0
25.478,2.035,-0.867,0.0
21.864,1.741,-0.866,4.0
19.862,1.577,-0.898,0.0
0.0,0.0,0.0,0.0
33.683,2.648,-0.772,0.0
29.511,2.313,-0.84,0.0
25.454,1.989,-0.869,0.0
21.837,1.701,-0.867,1.0
19.717,1.531,-0.893,0.0
0.0,0.0,0.0,0.0
34.305,2.636,-0.789,0.0
29.586,2.266,-0.845,0.0
25.359,1.936,-0.867,0.0
21.836,1.661,-0.868,0.0
19.82,1.503,-0.898,0.0
0.0,0.0,0.0,0.0
0.0,0.0,0.0,0.0
29.801,2.228,-0.852,0.0
25.379,1.891,-0.869,0.0
21.849,1.623,-0.869,0.0
19.89,1.472,-0.902,0.0
0.0,0.0,0.0,0.0
34.803,2.549,-0.802,0.0
29.724,2.169,-0.849,0.0
25.453,1.85,-0.871,0.0
21.827,1.581,-0.868,1.0
19.737,1.425,-0.894,0.0
0.0,0.0,0.0,0.0
33.069,2.361,-0.76,0.0
29.845,2.123,-0.852,1.0
25.486,1.806,-0.871,0.0
21.86,1.543,-0.868,0.0
19.687,1.385,-0.891,0.0
0.0,0.0,0.0,0.0
0.0,0.0,0.0,0.0
29.976,2.077,-0.853,1.0
25.52,1.761,-0.87,0.0
21.834,1.501,-0.865,0.0
19.707,1.35,-0.89,0.0
41.388,2.812,-0.715,0.0
0.0,0.0,0.0,0.0
29.915,2.017,-0.847,0.0
25.69,1.725,-0.872,0.0
21.859,1.462,-0.863,4.0
19.887,1.325,-0.895,0.0
0.0,0.0,0.0,0.0
35.155,2.314,-0.797,0.0
30.074,1.971,-0.847,1.0
25.782,1.683,-0.871,0.0
21.873,1.422,-0.86,5.0
20.234,1.31,-0.907,0.0
0.0,0.0,0.0,0.0
35.354,2.261,-0.794,0.0
30.418,1.937,-0.851,0.0
25.948,1.645,-0.871,0.0
21.894,1.382,-0.856,4.0
20.32,1.277,-0.906,0.0
42.42,2.645,-0.71,0.0
35.378,2.196,-0.786,0.0
30.499,1.885,-0.846,0.0
26.148,1.608,-0.872,0.0
21.913,1.342,-0.851,4.0
20.411,1.244,-0.905,0.0
0.0,0.0,0.0,0.0
35.518,2.137,-0.78,0.0
30.69,1.838,-0.842,0.0
25.718,1.533,-0.85,0.0
21.917,1.3,-0.845,2.0
20.52,1.212,-0.904,0.0
43.12,2.525,-0.697,0.0
35.622,2.076,-0.771,0.0
31.03,1.799,-0.842,0.0
26.574,1.533,-0.869,0.0
21.911,1.258,-0.837,1.0
20.695,1.183,-0.904,0.0
0.0,0.0,0.0,0.0
37.234,2.098,-0.793,0.0
31.399,1.761,-0.841,0.0
26.98,1.505,-0.873,0.0
23.635,1.312,-0.894,0.0
21.597,1.193,-0.935,0.0
0.0,0.0,0.0,0.0
37.394,2.036,-0.782,0.0
31.814,1.723,-0.839,0.0
27.38,1.475,-0.875,0.0
23.918,1.281,-0.895,0.0
21.791,1.161,-0.934,0.0
0.0,0.0,0.0,0.0
38.043,1.998,-0.779,0.0
32.032,1.673,-0.831,0.0
27.633,1.436,-0.87,0.0
24.014,1.241,-0.888,0.0
21.809,1.121,-0.925,0.0
0.0,0.0,0.0,0.0
37.895,1.918,-0.758,0.0
32.469,1.634,-0.826,0.0
28.144,1.408,-0.873,0.0
24.518,1.22,-0.894,0.0
21.855,1.081,-0.916,0.0
0.0,0.0,0.0,0.0
39.141,1.906,-0.763,0.0
32.659,1.581,-0.814,0.0
28.234,1.358,-0.861,0.0
20.233,0.967,-0.727,16.0
20.221,0.961,-0.837,18.0
0.0,0.0,0.0,0.0
0.0,0.0,0.0,0.0
33.668,1.564,-0.821,0.0
20.236,0.934,-0.605,0.0
20.186,0.926,-0.714,161.0
20.238,0.923,-0.826,132.0
50.238,2.267,-0.649,0.0
0.0,0.0,0.0,0.0
34.183,1.523,-0.813,0.0
29.76,1.317,-0.872,0.0
20.251,0.89,-0.704,152.0
20.248,0.884,-0.813,150.0
0.0,0.0,0.0,0.0
0.0,0.0,0.0,0.0
35.218,1.502,-0.815,0.0
30.072,1.274,-0.862,1.0
20.326,0.855,-0.693,0.0
22.51,0.94,-0.89,1.0
0.0,0.0,0.0,0.0
0.0,0.0,0.0,0.0
35.56,1.448,-0.799,0.0
30.226,1.222,-0.846,1.0
26.282,1.054,-0.878,0.0
23.088,0.92,-0.896,1.0
0.0,0.0,0.0,0.0
0.0,0.0,0.0,0.0
36.66,1.422,-0.798,0.0
30.307,1.167,-0.826,0.0
26.643,1.018,-0.87,0.0
23.569,0.893,-0.897,0.0
0.0,0.0,0.0,0.0
0.0,0.0,0.0,0.0
37.898,1.398,-0.796,0.0
31.984,1.17,-0.848,0.0
27.325,0.992,-0.872,0.0
23.987,0.863,-0.895,0.0
0.0,0.0,0.0,0.0
0.0,0.0,0.0,0.0
0.0,0.0,0.0,0.0
32.428,1.126,-0.834,1.0
28.21,0.97,-0.877,0.0
24.507,0.836,-0.894,0.0
0.0,0.0,0.0,0.0
0.0,0.0,0.0,0.0
0.0,0.0,0.0,0.0
32.769,1.076,-0.815,0.0
29.01,0.943,-0.878,0.0
24.952,0.804,-0.889,0.0
69.048,2.199,-0.537,1.0
0.0,0.0,0.0,0.0
0.0,0.0,0.0,0.0
34.633,1.072,-0.832,0.0
29.78,0.913,-0.875,0.0
25.691,0.779,-0.893,0.0
69.012,2.068,-0.475,6.0
0.0,0.0,0.0,0.0
0.0,0.0,0.0,0.0
35.522,1.032,-0.82,0.0
30.616,0.881,-0.872,0.0
26.156,0.745,-0.885,0.0
69.017,1.94,-0.413,0.0
0.0,0.0,0.0,0.0
0.0,0.0,0.0,0.0
36.964,1.006,-0.819,0.0
31.527,0.848,-0.867,1.0
26.807,0.713,-0.881,0.0
0.0,0.0,0.0,0.0
0.0,0.0,0.0,0.0
0.0,0.0,0.0,0.0
37.95,0.963,-0.804,0.0
32.093,0.805,-0.851,1.0
27.689,0.686,-0.883,0.0
0.0,0.0,0.0,0.0
0.0,0.0,0.0,0.0
0.0,0.0,0.0,0.0
38.873,0.915,-0.784,0.0
32.961,0.766,-0.841,0.0
28.627,0.657,-0.883,1.0
100.136,2.262,-0.299,1.0
0.0,0.0,0.0,0.0
0.0,0.0,0.0,0.0
0.0,0.0,0.0,0.0
33.669,0.721,-0.823,0.0
29.437,0.622,-0.877,0.0
99.924,2.077,-0.193,2.0
0.0,0.0,0.0,0.0
0.0,0.0,0.0,0.0
42.747,0.851,-0.771,0.0
35.655,0.699,-0.833,0.0
30.954,0.598,-0.888,1.0
0.0,0.0,0.0,0.0
0.0,0.0,0.0,0.0
0.0,0.0,0.0,0.0
42.81,0.775,-0.723,0.0
37.261,0.664,-0.828,0.0
31.537,0.552,-0.869,1.0
99.796,1.716,0.03,5.0
0.0,0.0,0.0,0.0
0.0,0.0,0.0,0.0
0.0,0.0,0.0,0.0
37.549,0.602,-0.791,0.0
32.402,0.51,-0.855,1.0
99.774,1.54,0.146,5.0
0.0,0.0,0.0,0.0
0.0,0.0,0.0,0.0
0.0,0.0,0.0,0.0
20.207,0.288,-0.401,3.0
20.207,0.282,-0.508,17.0
99.624,1.362,0.267,6.0
0.0,0.0,0.0,0.0
0.0,0.0,0.0,0.0
20.19,0.258,-0.269,10.0
20.188,0.252,-0.376,24.0
20.175,0.247,-0.482,20.0
20.323,0.242,0.079,7.0
20.182,0.234,-0.027,0.0
20.179,0.229,-0.134,0.0
20.185,0.223,-0.243,22.0
20.177,0.217,-0.35,30.0
20.184,0.212,-0.457,25.0
20.325,0.207,0.105,33.0
20.339,0.201,-0.001,29.0
20.203,0.194,-0.108,18.0
20.172,0.188,-0.217,23.0
20.172,0.183,-0.323,34.0
20.182,0.177,-0.43,29.0
20.208,0.172,0.131,23.0
20.224,0.166,0.024,27.0
20.192,0.16,-0.081,26.0
20.18,0.154,-0.19,22.0
20.181,0.149,-0.297,32.0
20.191,0.143,-0.404,18.0
20.173,0.137,0.158,28.0
20.195,0.132,0.051,34.0
20.196,0.126,-0.054,30.0
20.182,0.121,-0.163,31.0
20.197,0.115,-0.269,26.0
41.876,0.228,-0.78,2.0
20.16,0.104,0.185,29.0
20.197,0.098,0.079,36.0
20.197,0.093,-0.026,28.0
20.195,0.088,-0.135,27.0
20.22,0.082,-0.242,5.0
0.0,0.0,0.0,0.0
20.15,0.071,0.213,30.0
20.145,0.065,0.107,28.0
20.196,0.06,0.001,17.0
20.237,0.055,-0.106,22.0
20.251,0.049,-0.213,150.0
20.265,0.044,-0.32,78.0
20.132,0.038,0.242,28.0
20.136,0.033,0.136,28.0
20.253,0.028,0.03,151.0
20.259,0.022,-0.077,151.0
20.25,0.017,-0.183,150.0
20.24,0.011,-0.29,13.0
20.124,0.006,0.271,27.0
20.124,0.001,0.165,28.0
20.141,-0.003,0.06,28.0
20.12,-0.008,-0.047,19.0
20.161,-0.014,-0.153,25.0
20.165,-0.019,-0.259,22.0
20.125,-0.024,0.301,28.0
20.114,-0.029,0.195,33.0
20.131,-0.035,0.09,39.0
20.123,-0.04,-0.017,37.0
20.133,-0.045,-0.123,30.0
20.134,-0.05,-0.228,16.0
20.12,-0.055,0.331,32.0
20.124,-0.06,0.226,27.0
20.119,-0.065,0.12,31.0
20.116,-0.07,0.013,34.0
20.139,-0.075,-0.092,29.0
20.146,-0.08,-0.197,28.0
20.125,-0.085,0.362,34.0
20.123,-0.09,0.257,26.0
20.123,-0.095,0.151,20.0
20.135,-0.1,0.044,29.0
20.15,-0.105,-0.06,25.0
20.15,-0.11,-0.166,25.0
20.131,-0.115,0.393,17.0
20.134,-0.12,0.288,16.0
20.152,-0.125,0.183,16.0
20.141,-0.13,0.075,16.0
20.198,-0.135,-0.029,20.0
20.163,-0.139,-0.134,17.0
20.248,-0.145,0.428,31.0
20.247,-0.15,0.322,18.0
66.508,-0.508,0.71,11.0
20.17,-0.158,0.108,0.0
53.369,-0.433,0.007,7.0
53.361,-0.445,-0.271,4.0
20.15,-0.172,0.458,17.0
53.481,-0.471,0.937,10.0
53.379,-0.482,0.656,13.0
64.305,-0.596,0.448,23.0
56.188,-0.534,0.098,2.0
56.226,-0.547,-0.195,12.0
20.147,-0.2,0.491,15.0
20.137,-0.205,0.385,14.0
20.155,-0.21,0.28,12.0
20.126,-0.214,0.173,0.0
56.106,-0.61,0.19,1.0
56.296,-0.625,-0.101,1.0
20.176,-0.228,0.525,8.0
20.131,-0.232,0.419,11.0
20.124,-0.237,0.313,11.0
20.14,-0.241,0.207,9.0
20.149,-0.246,0.102,2.0
59.544,-0.74,-0.008,61.0
59.415,-0.752,1.646,19.0
20.152,-0.259,0.453,9.0
20.118,-0.263,0.347,11.0
20.111,-0.267,0.24,13.0
20.119,-0.272,0.136,9.0
59.51,-0.817,0.092,22.0
53.489,-0.746,1.572,59.0
59.449,-0.842,1.438,13.0
20.159,-0.289,0.382,4.0
20.138,-0.293,0.275,9.0
20.122,-0.297,0.17,13.0
20.137,-0.302,0.066,38.0
53.503,-0.814,1.665,39.0
64.316,-0.992,1.667,14.0
59.537,-0.931,1.233,3.0
176.605,-2.798,2.722,39.0
20.153,-0.323,0.205,3.0
20.127,-0.326,0.1,15.0
64.29,-1.058,2.113,80.0
64.317,-1.071,1.779,72.0
190.74,-3.214,4.282,20.0
191.715,-3.269,3.289,8.0
193.092,-3.331,2.309,12.0
62.209,-1.085,0.421,1.0
64.293,-1.134,2.224,55.0
64.32,-1.147,1.891,76.0
190.714,-3.44,4.616,18.0
191.86,-3.496,3.626,8.0
193.078,-3.556,2.647,22.0
52.99,-0.986,0.452,30.0
45.698,-0.859,1.661,54.0
64.325,-1.221,2.004,28.0
64.331,-1.233,1.669,10.0
38.305,-0.741,0.791,7.0
52.968,-1.035,0.819,14.0
52.939,-1.044,0.544,60.0
45.673,-0.909,1.741,64.0
45.704,-0.918,1.505,48.0
45.721,-0.927,1.267,30.0
38.389,-0.785,0.861,27.0
38.388,-0.792,0.662,41.0
38.393,-0.799,0.463,48.0
40.43,-0.849,1.614,28.0
40.418,-0.856,1.403,28.0
40.406,-0.863,1.193,29.0
40.415,-0.87,0.979,8.0
40.41,-0.877,0.77,29.0
40.42,-0.884,0.561,150.0
40.406,-0.891,1.685,38.0
40.408,-0.898,1.476,38.0
40.407,-0.905,1.266,38.0
0.0,0.0,0.0,0.0
40.408,-0.918,0.843,37.0
40.415,-0.925,0.633,36.0
40.42,-0.933,1.76,32.0
40.411,-0.939,1.549,28.0
40.418,-0.946,1.34,27.0
38.693,-0.911,1.078,52.0
38.781,-0.919,0.88,13.0
40.422,-0.965,0.708,26.0
45.778,-1.102,2.077,14.0
45.721,-1.107,1.836,18.0
45.683,-1.113,1.598,51.0
38.673,-0.948,1.149,54.0
38.677,-0.954,0.949,46.0
