X,Y,Z,Reflectivity
17.09,-1.73,-0.781,1.0
33.091,-3.348,-0.588,11.0
28.074,-2.848,-0.652,1.0
24.838,-2.527,-0.712,5.0
21.609,-2.205,-0.74,1.0
19.278,-1.972,-0.765,1.0
17.219,-1.767,-0.778,0.0
33.159,-3.401,-0.571,19.0
28.301,-2.911,-0.641,1.0
25.165,-2.595,-0.707,6.0
21.812,-2.256,-0.735,1.0
19.511,-2.023,-0.763,1.0
17.529,-1.823,-0.782,0.0
33.192,-3.45,-0.552,29.0
29.587,-3.083,-0.653,1.0
25.473,-2.662,-0.701,6.0
22.175,-2.323,-0.733,3.0
19.635,-2.063,-0.757,2.0
17.684,-1.863,-0.778,1.0
33.542,-3.532,-0.537,28.0
29.985,-3.165,-0.643,3.0
25.766,-2.727,-0.693,6.0
22.452,-2.382,-0.728,4.0
19.987,-2.126,-0.757,1.0
17.961,-1.916,-0.778,1.0
33.871,-3.611,-0.52,33.0
30.313,-3.24,-0.63,4.0
26.151,-2.802,-0.686,6.0
22.728,-2.441,-0.722,4.0
20.279,-2.184,-0.755,2.0
18.057,-1.949,-0.77,1.0
34.134,-3.683,-0.501,31.0
30.757,-3.326,-0.618,4.0
26.549,-2.878,-0.678,3.0
23.014,-2.501,-0.715,5.0
20.541,-2.238,-0.75,3.0
18.317,-2.0,-0.769,1.0
34.48,-3.763,-0.482,28.0
31.151,-3.408,-0.604,9.0
26.955,-2.955,-0.669,2.0
23.364,-2.567,-0.71,4.0
20.8,-2.291,-0.745,3.0
18.618,-2.056,-0.768,1.0
34.787,-3.838,-0.461,24.0
31.282,-3.459,-0.584,13.0
27.469,-3.044,-0.662,2.0
23.883,-2.653,-0.707,5.0
21.056,-2.344,-0.738,3.0
18.859,-2.105,-0.763,2.0
35.132,-3.918,-0.439,12.0
31.61,-3.533,-0.566,23.0
27.939,-3.129,-0.652,2.0
24.472,-2.747,-0.706,5.0
21.478,-2.416,-0.736,3.0
19.159,-2.16,-0.76,1.0
39.828,-4.487,-0.466,7.0
32.178,-3.633,-0.551,28.0
28.25,-3.196,-0.637,1.0
24.831,-2.815,-0.696,4.0
21.873,-2.485,-0.732,4.0
19.472,-2.217,-0.757,1.0
39.928,-4.543,-0.435,15.0
32.651,-3.722,-0.532,30.0
29.399,-3.358,-0.638,4.0
25.215,-2.885,-0.687,5.0
22.267,-2.553,-0.727,4.0
19.835,-2.279,-0.755,1.0
40.048,-4.599,-0.403,16.0
33.113,-3.81,-0.512,31.0
29.729,-3.427,-0.62,8.0
25.795,-2.979,-0.68,4.0
22.616,-2.617,-0.719,4.0
20.132,-2.334,-0.749,1.0
40.159,-4.653,-0.369,15.0
33.637,-3.904,-0.491,31.0
29.916,-3.478,-0.598,20.0
26.304,-3.064,-0.671,3.0
23.04,-2.689,-0.712,5.0
20.49,-2.396,-0.744,2.0
40.258,-4.704,-0.335,4.0
34.11,-3.992,-0.468,26.0
30.284,-3.551,-0.579,19.0
27.03,-3.175,-0.665,2.0
23.364,-2.749,-0.701,4.0
20.881,-2.461,-0.739,3.0
0.0,0.0,0.0,0.0
34.653,-4.088,-0.444,25.0
30.94,-3.656,-0.563,19.0
27.558,-3.262,-0.653,2.0
24.035,-2.85,-0.699,3.0
21.395,-2.541,-0.738,4.0
46.181,-5.482,-0.3,21.0
35.124,-4.175,-0.417,12.0
31.645,-3.768,-0.547,25.0
28.259,-3.37,-0.643,7.0
24.815,-2.964,-0.699,3.0
21.749,-2.602,-0.729,4.0
47.226,-5.647,-0.261,22.0
39.788,-4.764,-0.435,10.0
32.359,-3.88,-0.528,29.0
28.868,-3.467,-0.629,8.0
25.248,-3.037,-0.686,3.0
22.214,-2.676,-0.724,4.0
48.045,-5.785,-0.22,23.0
39.978,-4.82,-0.398,16.0
32.934,-3.976,-0.506,27.0
29.172,-3.527,-0.607,16.0
25.746,-3.117,-0.675,2.0
22.716,-2.754,-0.718,3.0
0.0,0.0,0.0,0.0
40.125,-4.868,-0.36,15.0
33.515,-4.072,-0.481,25.0
29.577,-3.598,-0.587,23.0
26.444,-3.221,-0.667,3.0
23.154,-2.824,-0.709,3.0
50.363,-6.14,-0.131,8.0
40.438,-4.936,-0.322,11.0
34.181,-4.177,-0.457,31.0
30.068,-3.679,-0.566,22.0
27.06,-3.315,-0.655,3.0
23.579,-2.892,-0.697,3.0
55.709,-6.831,-0.088,15.0
45.969,-5.642,-0.32,12.0
34.659,-4.259,-0.428,23.0
30.656,-3.771,-0.546,20.0
27.715,-3.414,-0.643,5.0
24.338,-3.001,-0.695,3.0
56.219,-6.93,-0.031,4.0
46.304,-5.713,-0.274,21.0
39.713,-4.905,-0.449,8.0
31.468,-3.891,-0.528,21.0
28.341,-3.508,-0.627,9.0
25.014,-3.1,-0.688,4.0
69.376,-8.594,0.033,3.0
47.238,-5.857,-0.23,22.0
39.871,-4.948,-0.408,21.0
32.426,-4.028,-0.509,27.0
28.642,-3.562,-0.604,22.0
25.525,-3.178,-0.675,4.0
69.188,-8.61,0.106,11.0
48.487,-6.039,-0.185,22.0
40.035,-4.991,-0.367,18.0
33.119,-4.132,-0.485,25.0
29.174,-3.643,-0.584,22.0
26.151,-3.269,-0.664,2.0
69.023,-8.626,0.18,6.0
0.0,0.0,0.0,0.0
40.323,-5.047,-0.326,15.0
33.818,-4.236,-0.459,27.0
29.674,-3.72,-0.562,24.0
27.018,-3.39,-0.656,4.0
68.721,-8.621,0.254,8.0
55.686,-6.99,-0.092,11.0
45.662,-5.736,-0.32,9.0
34.507,-4.338,-0.43,23.0
30.409,-3.826,-0.542,23.0
27.704,-3.488,-0.643,7.0
68.607,-8.636,0.329,2.0
56.267,-7.087,-0.031,4.0
46.062,-5.805,-0.272,21.0
39.757,-5.014,-0.452,5.0
31.327,-3.953,-0.524,24.0
28.061,-3.544,-0.62,18.0
68.395,-8.635,0.403,2.0
68.623,-8.669,0.037,3.0
47.204,-5.966,-0.227,21.0
39.824,-5.036,-0.409,18.0
32.325,-4.09,-0.505,27.0
28.689,-3.633,-0.602,19.0
68.32,-8.649,0.479,2.0
68.34,-8.655,0.113,2.0
48.555,-6.152,-0.179,22.0
39.941,-5.063,-0.365,15.0
33.14,-4.203,-0.481,26.0
29.359,-3.726,-0.583,21.0
68.19,-8.653,0.555,3.0
68.205,-8.657,0.189,2.0
50.155,-6.369,-0.128,9.0
40.119,-5.096,-0.322,2.0
33.922,-4.311,-0.454,28.0
29.849,-3.795,-0.559,24.0
68.197,-8.67,0.631,2.0
68.061,-8.655,0.265,2.0
55.867,-7.107,-0.08,10.0
45.542,-5.795,-0.314,13.0
34.594,-4.404,-0.424,21.0
30.492,-3.883,-0.537,19.0
68.211,-8.686,0.708,3.0
68.01,-8.662,0.343,2.0
60.982,-7.768,-0.018,6.0
46.116,-5.876,-0.265,21.0
39.758,-5.067,-0.442,7.0
31.41,-4.005,-0.517,15.0
191.912,-24.467,2.215,14.0
67.805,-8.645,0.419,4.0
61.076,-7.788,0.05,4.0
47.271,-6.029,-0.218,22.0
39.815,-5.079,-0.397,10.0
32.555,-4.154,-0.499,20.0
191.897,-24.486,2.432,22.0
67.791,-8.65,0.496,6.0
67.929,-8.668,0.133,2.0
48.719,-6.217,-0.17,23.0
39.922,-5.095,-0.352,4.0
33.465,-4.272,-0.475,26.0
191.915,-24.499,2.651,27.0
67.922,-8.67,0.573,2.0
67.816,-8.656,0.21,2.0
55.486,-7.082,-0.129,5.0
0.0,0.0,0.0,0.0
34.191,-4.365,-0.446,27.0
191.869,-24.496,2.872,29.0
68.31,-8.72,0.656,1.0
67.885,-8.664,0.288,2.0
55.862,-7.129,-0.067,10.0
45.862,-5.853,-0.3,20.0
39.751,-5.073,-0.473,3.0
191.917,-24.495,3.089,30.0
81.054,-10.343,0.87,1.0
67.832,-8.654,0.365,4.0
60.972,-7.777,-0.003,7.0
46.536,-5.935,-0.252,21.0
39.783,-5.073,-0.428,9.0
191.971,-24.486,3.31,20.0
191.889,-24.468,2.281,17.0
67.85,-8.649,0.442,4.0
67.947,-8.659,0.072,2.0
47.794,-6.09,-0.204,22.0
39.858,-5.078,-0.384,9.0
191.993,-24.464,3.528,12.0
191.912,-24.444,2.498,27.0
68.054,-8.665,0.52,3.0
68.016,-8.657,0.149,2.0
0.0,0.0,0.0,0.0
40.078,-5.098,-0.341,3.0
197.733,-25.161,3.856,11.0
191.966,-24.416,2.713,32.0
68.249,-8.676,0.599,1.0
68.08,-8.652,0.226,2.0
55.712,-7.077,-0.113,10.0
45.455,-5.772,-0.336,7.0
197.364,-25.07,4.069,9.0
191.924,-24.366,2.928,32.0
68.258,-8.661,0.675,7.0
68.155,-8.644,0.302,2.0
56.161,-7.119,-0.051,5.0
45.944,-5.822,-0.288,20.0
139.854,-17.727,3.039,7.0
191.96,-24.317,3.145,28.0
68.26,-8.642,0.751,6.0
68.287,-8.64,0.379,2.0
68.549,-8.669,0.012,2.0
47.168,-5.962,-0.243,21.0
139.619,-17.653,3.191,20.0
191.954,-24.254,3.356,24.0
192.051,-24.249,2.33,21.0
68.458,-8.638,0.456,3.0
68.65,-8.657,0.089,7.0
48.154,-6.069,-0.195,16.0
63.159,-7.963,1.513,5.0
192.175,-24.21,3.573,9.0
192.004,-24.17,2.54,33.0
80.56,-10.133,0.625,7.0
68.693,-8.635,0.165,8.0
50.144,-6.299,-0.148,10.0
63.089,-7.928,1.58,17.0
197.689,-24.822,3.891,7.0
192.012,-24.089,2.75,28.0
80.532,-10.095,0.712,27.0
68.805,-8.618,0.24,5.0
55.75,-6.978,-0.104,11.0
63.079,-7.898,1.648,21.0
139.582,-17.461,2.898,13.0
192.029,-24.0,2.957,33.0
80.498,-10.052,0.799,25.0
69.111,-8.622,0.315,3.0
69.245,-8.632,-0.055,6.0
63.116,-7.872,1.717,25.0
139.58,-17.391,3.046,26.0
192.049,-23.904,3.162,21.0
80.554,-10.017,0.885,10.0
80.436,-9.993,0.452,12.0
69.371,-8.61,0.017,4.0
63.102,-7.836,1.783,13.0
139.614,-17.318,3.195,18.0
188.907,-23.408,3.308,10.0
192.01,-23.767,2.311,22.0
80.408,-9.943,0.535,32.0
80.775,-9.978,0.105,16.0
139.126,-17.195,4.078,8.0
139.675,-17.243,3.342,12.0
188.45,-23.237,3.496,21.0
192.087,-23.658,2.514,28.0
80.325,-9.882,0.619,32.0
80.556,-9.9,0.188,33.0
139.138,-17.108,4.224,10.0
165.402,-20.311,4.131,16.0
188.184,-23.08,3.688,22.0
192.133,-23.536,2.711,30.0
80.305,-9.826,0.701,27.0
80.399,-9.826,0.27,34.0
84.238,-10.301,2.642,10.0
165.317,-20.188,4.295,16.0
187.991,-22.926,3.872,23.0
192.129,-23.401,2.905,14.0
80.284,-9.766,0.782,26.0
80.349,-9.762,0.349,30.0
84.257,-10.243,2.728,24.0
139.086,-16.884,3.752,17.0
187.858,-22.771,4.058,13.0
153.709,-18.607,2.476,18.0
80.394,-9.719,0.862,12.0
80.331,-9.698,0.429,25.0
84.405,-10.196,2.815,29.0
139.091,-16.777,3.89,13.0
153.835,-18.528,3.472,20.0
153.731,-18.488,2.626,21.0
153.617,-18.449,1.797,14.0
80.188,-9.617,0.505,27.0
84.536,-10.144,2.901,23.0
84.222,-10.091,2.436,13.0
153.792,-18.397,3.619,7.0
153.795,-18.368,2.774,17.0
153.781,-18.339,1.945,14.0
80.124,-9.541,0.581,27.0
84.603,-10.081,2.984,31.0
84.184,-10.014,2.515,33.0
138.961,-16.503,3.4,21.0
188.232,-22.319,3.569,17.0
192.273,-22.761,2.611,28.0
80.023,-9.458,0.654,30.0
84.709,-10.019,3.065,31.0
84.223,-9.943,2.593,41.0
139.078,-16.392,3.531,14.0
85.358,-10.042,1.697,16.0
192.305,-22.587,2.786,27.0
80.01,-9.382,0.727,26.0
84.125,-9.872,3.121,32.0
83.811,-9.816,2.656,27.0
84.258,-9.85,2.214,15.0
85.303,-9.955,1.772,12.0
85.01,-9.903,1.307,5.0
80.029,-9.306,0.798,20.0
83.761,-9.748,3.182,36.0
0.0,0.0,0.0,0.0
84.259,-9.768,2.288,34.0
85.437,-9.886,1.85,18.0
192.334,-22.214,3.124,22.0
80.153,-9.241,0.868,10.0
83.743,-9.662,3.253,37.0
0.0,0.0,0.0,0.0
84.202,-9.676,2.358,27.0
82.973,-9.516,1.866,11.0
192.395,-22.023,3.286,21.0
84.293,-9.63,0.983,16.0
83.707,-9.57,3.321,45.0
82.369,-9.397,2.822,18.0
82.742,-9.42,2.386,23.0
82.571,-9.381,1.925,20.0
84.823,-9.617,1.519,22.0
83.998,-9.505,1.049,24.0
83.839,-9.494,3.395,37.0
82.501,-9.321,2.893,36.0
82.348,-9.284,2.441,33.0
82.685,-9.301,1.995,41.0
84.027,-9.433,1.571,22.0
83.619,-9.367,1.11,12.0
82.549,-9.254,3.408,27.0
82.417,-9.218,2.955,38.0
82.209,-9.174,2.501,39.0
81.915,-9.12,2.039,33.0
83.018,-9.223,1.617,40.0
82.262,-9.12,1.155,1.0
82.758,-9.181,3.48,37.0
82.402,-9.119,3.017,35.0
82.085,-9.063,2.56,36.0
81.881,-9.02,2.1,39.0
81.993,-9.012,1.656,35.0
82.121,-9.006,1.214,3.0
82.572,-9.062,3.532,30.0
82.384,-9.019,3.075,40.0
81.796,-8.933,2.609,42.0
81.936,-8.927,2.16,45.0
81.812,-8.892,1.712,45.0
82.123,-8.905,1.272,11.0
82.57,-8.96,3.591,32.0
82.258,-8.903,3.13,37.0
81.71,-8.821,2.663,41.0
81.822,-8.812,2.213,40.0
81.868,-8.796,1.769,44.0
82.214,-8.811,1.329,20.0
82.716,-8.871,3.654,11.0
82.284,-8.802,3.185,36.0
81.822,-8.729,2.721,38.0
81.609,-8.683,2.261,39.0
81.879,-8.691,1.823,47.0
82.18,-8.7,1.383,31.0
83.411,-8.837,3.738,28.0
82.454,-8.711,3.246,40.0
82.285,-8.67,2.79,61.0
81.713,-8.587,2.316,44.0
81.975,-8.591,1.876,41.0
82.006,-8.573,1.431,41.0
84.374,-8.826,3.833,13.0
82.356,-8.591,3.291,46.0
82.566,-8.589,2.849,38.0
81.779,-8.483,2.367,46.0
82.104,-8.494,1.928,40.0
81.982,-8.459,1.479,40.0
84.604,-8.734,3.894,13.0
81.92,-8.433,3.322,42.0
82.311,-8.449,2.888,50.0
81.72,-8.365,2.411,41.0
82.243,-8.395,1.978,48.0
81.724,-8.319,1.519,33.0
82.0,-8.352,3.819,11.0
82.021,-8.329,3.371,44.0
81.942,-8.295,2.919,40.0
82.575,-8.335,2.482,47.0
82.47,-8.3,2.028,42.0
81.693,-8.198,1.562,40.0
82.183,-8.252,3.87,25.0
82.056,-8.214,3.415,30.0
81.902,-8.174,2.96,42.0
82.275,-8.186,2.514,42.0
82.204,-8.154,2.063,50.0
81.719,-8.081,1.603,35.0
81.849,-8.099,3.895,40.0
81.788,-8.067,3.443,12.0
82.035,-8.066,3.004,44.0
82.164,-8.054,2.55,44.0
82.357,-8.047,2.104,41.0
82.04,-7.992,1.648,44.0
81.903,-7.983,3.936,42.0
82.266,-7.992,3.5,24.0
82.078,-7.947,3.042,48.0
82.037,-7.918,2.582,46.0
82.026,-7.891,2.132,45.0
82.44,-7.906,1.69,38.0
81.931,-7.861,3.972,37.0
81.864,-7.827,3.519,27.0
82.216,-7.835,3.081,40.0
81.919,-7.781,2.612,51.0
81.984,-7.761,2.164,42.0
82.9,-7.822,1.733,41.0
82.047,-7.745,4.009,32.0
81.795,-7.695,3.546,32.0
81.993,-7.687,3.103,37.0
81.888,-7.651,2.641,48.0
82.083,-7.643,2.196,45.0
82.934,-7.697,1.763,17.0
82.173,-7.629,4.044,35.0
81.763,-7.564,3.574,35.0
81.823,-7.543,3.125,50.0
81.968,-7.53,2.671,50.0
82.082,-7.514,2.223,44.0
83.006,-7.572,1.791,19.0
82.008,-7.483,4.062,33.0
81.767,-7.434,3.599,39.0
81.727,-7.403,3.146,38.0
82.317,-7.43,2.706,33.0
82.26,-7.398,2.252,44.0
83.18,-7.454,1.819,51.0
82.99,-7.438,4.134,50.0
81.991,-7.321,3.632,33.0
81.872,-7.283,3.175,51.0
82.177,-7.283,2.724,46.0
82.383,-7.275,2.276,24.0
83.154,-7.316,1.84,33.0
82.948,-7.299,4.152,38.0
81.825,-7.172,3.643,35.0
82.06,-7.165,3.201,49.0
82.357,-7.163,2.749,45.0
83.426,-7.228,2.324,20.0
84.729,-7.313,1.892,10.0
83.2,-7.182,4.183,40.0
81.749,-7.029,3.657,34.0
82.007,-7.022,3.215,36.0
82.281,-7.017,2.762,46.0
82.405,-7.001,2.311,45.0
82.888,-7.015,1.867,34.0
83.176,-7.039,4.195,41.0
82.991,-6.995,3.726,20.0
82.042,-6.888,3.229,39.0
82.154,-6.869,2.77,52.0
82.412,-6.862,2.323,42.0
82.512,-6.844,1.869,47.0
83.471,-6.922,4.222,35.0
83.358,-6.883,3.753,40.0
82.301,-6.767,3.249,51.0
82.313,-6.739,2.785,41.0
82.663,-6.74,2.339,46.0
82.431,-6.693,1.876,38.0
83.092,-6.746,4.21,35.0
83.596,-6.757,3.771,48.0
82.701,-6.655,3.272,34.0
82.547,-6.615,2.799,47.0
82.458,-6.58,2.339,46.0
82.467,-6.554,1.882,39.0
83.119,-6.603,4.216,34.0
84.312,-6.669,3.808,21.0
82.407,-6.49,3.264,36.0
82.553,-6.472,2.803,48.0
82.311,-6.426,2.338,45.0
82.493,-6.411,1.885,36.0
83.175,-6.462,4.221,41.0
85.37,-6.602,3.856,14.0
82.365,-6.342,3.263,31.0
82.631,-6.333,2.805,48.0
82.719,-6.311,2.348,54.0
82.621,-6.276,1.887,41.0
83.377,-6.33,4.229,33.0
85.114,-6.432,3.843,10.0
82.86,-6.233,3.28,35.0
82.671,-6.19,2.803,45.0
83.085,-6.191,2.355,64.0
82.514,-6.121,1.881,43.0
83.523,-6.192,4.232,41.0
83.32,-6.147,3.756,38.0
82.751,-6.077,3.27,42.0
82.865,-6.056,2.804,45.0
82.676,-6.013,2.337,62.0
82.537,-5.976,1.874,41.0
83.657,-6.052,4.23,37.0
83.52,-6.011,3.757,44.0
82.85,-5.934,3.264,44.0
82.928,-5.91,2.796,49.0
82.585,-5.857,2.324,46.0
82.709,-5.837,1.866,42.0
83.593,-5.895,4.216,16.0
83.665,-5.87,3.751,39.0
24.571,-1.715,0.964,26.0
83.114,-5.773,2.79,32.0
82.803,-5.723,2.317,35.0
83.183,-5.721,1.863,21.0
24.546,-1.686,1.233,15.0
24.539,-1.677,1.095,19.0
24.491,-1.665,0.956,17.0
24.479,-1.656,0.816,27.0
24.572,-1.654,0.682,26.0
24.592,-1.646,0.546,31.0
24.488,-1.637,1.225,57.0
24.481,-1.628,1.087,35.0
24.452,-1.618,0.949,55.0
24.486,-1.611,0.811,57.0
24.539,-1.606,0.675,69.0
24.545,-1.598,0.538,46.0
24.487,-1.592,1.218,88.0
24.473,-1.582,1.081,40.0
24.452,-1.572,0.942,69.0
24.488,-1.566,0.804,70.0
24.52,-1.559,0.668,77.0
24.529,-1.551,0.531,65.0
24.475,-1.546,1.21,88.0
24.459,-1.536,1.072,48.0
24.459,-1.527,0.935,76.0
24.488,-1.52,0.796,61.0
24.534,-1.515,0.66,58.0
24.546,-1.507,0.523,78.0
24.481,-1.5,1.202,83.0
24.493,-1.492,1.065,39.0
24.484,-1.483,0.927,42.0
24.514,-1.476,0.789,59.0
24.561,-1.47,0.652,73.0
24.561,-1.462,0.514,69.0
24.492,-1.455,1.194,48.0
24.505,-1.447,1.056,52.0
24.52,-1.439,0.919,45.0
24.554,-1.432,0.78,54.0
24.588,-1.426,0.643,48.0
24.593,-1.418,0.505,36.0
24.56,-1.412,1.187,31.0
24.557,-1.403,1.048,25.0
24.588,-1.397,0.911,9.0
24.61,-1.389,0.771,7.0
83.468,-4.684,2.146,44.0
83.951,-4.683,1.688,22.0
83.749,-4.66,4.009,32.0
83.493,-4.617,3.526,44.0
83.605,-4.593,3.059,38.0
84.117,-4.593,2.596,38.0
83.856,-4.549,2.116,32.0
84.587,-4.56,1.659,18.0
83.733,-4.502,3.966,41.0
83.64,-4.467,3.49,33.0
0.0,0.0,0.0,0.0
84.26,-4.441,2.557,41.0
84.689,-4.435,2.093,41.0
85.677,-4.458,1.635,49.0
0.0,0.0,0.0,0.0
86.209,-4.442,3.55,13.0
85.041,-4.353,3.022,38.0
84.589,-4.3,2.52,42.0
84.675,-4.276,2.045,46.0
0.0,0.0,0.0,0.0
85.438,-4.272,3.951,29.0
86.344,-4.287,3.505,37.0
85.243,-4.203,2.979,34.0
85.219,-4.172,2.488,35.0
84.637,-4.114,1.993,44.0
86.266,-4.165,1.545,3.0
85.758,-4.126,3.912,36.0
86.564,-4.134,3.459,16.0
84.964,-4.027,2.914,14.0
85.202,-4.009,2.432,32.0
84.663,-3.956,1.939,39.0
31.32,-1.453,0.54,1.0
86.219,-3.985,3.877,9.0
165.543,-7.595,6.506,16.0
86.553,-3.941,2.911,1.0
85.044,-3.845,2.371,19.0
31.32,-1.405,0.696,21.0
31.258,-1.392,0.518,40.0
162.519,-7.208,7.194,8.0
31.361,-1.38,1.21,2.0
28.44,-1.241,0.936,45.0
28.452,-1.232,0.773,62.0
28.435,-1.222,0.611,67.0
28.436,-1.213,0.45,86.0
28.428,-1.208,1.237,66.0
28.424,-1.197,1.076,98.0
28.426,-1.188,0.914,109.0
28.43,-1.178,0.751,110.0
28.443,-1.17,0.59,143.0
28.438,-1.16,0.429,150.0
28.435,-1.154,1.215,147.0
28.441,-1.145,1.054,117.0
28.435,-1.135,0.892,71.0
28.437,-1.126,0.728,69.0
28.458,-1.117,0.567,67.0
31.259,-1.216,0.446,1.0
31.253,-1.21,1.31,14.0
31.238,-1.199,1.132,49.0
31.25,-1.189,0.955,45.0
31.288,-1.18,0.775,54.0
31.3,-1.17,0.598,58.0
31.328,-1.161,0.421,55.0
31.287,-1.153,1.285,62.0
31.264,-1.142,1.106,47.0
31.324,-1.133,0.93,52.0
31.321,-1.123,0.749,42.0
31.435,-1.117,0.573,2.0
84.316,-2.969,1.059,30.0
31.329,-1.096,1.258,33.0
31.348,-1.086,1.08,35.0
31.385,-1.078,0.903,1.0
38.698,-1.316,0.89,13.0
38.719,-1.304,0.67,30.0
38.735,-1.292,0.45,18.0
38.654,-1.281,1.516,73.0
38.646,-1.269,1.296,52.0
38.623,-1.256,1.076,59.0
38.622,-1.243,0.852,65.0
38.633,-1.231,0.632,67.0
38.643,-1.219,0.412,65.0
38.657,-1.211,1.479,92.0
38.585,-1.196,1.257,61.0
38.606,-1.184,1.037,71.0
38.632,-1.173,0.814,107.0
38.636,-1.161,0.594,81.0
38.634,-1.149,0.374,81.0
38.653,-1.14,1.44,82.0
38.551,-1.125,1.217,71.0
38.607,-1.114,0.998,72.0
38.636,-1.103,0.775,82.0
38.629,-1.091,0.555,65.0
38.64,-1.079,0.335,67.0
38.635,-1.07,1.4,50.0
38.565,-1.056,1.177,61.0
38.635,-1.046,0.958,68.0
38.658,-1.034,0.735,55.0
38.682,-1.023,0.514,39.0
38.69,-1.011,0.294,44.0
45.719,-1.184,1.606,5.0
38.668,-0.989,1.138,53.0
38.712,-0.978,0.918,47.0
40.431,-1.009,0.724,26.0
40.425,-0.997,0.494,27.0
40.414,-0.985,0.263,35.0
40.41,-0.975,1.375,32.0
38.721,-0.922,1.096,40.0
40.405,-0.95,0.913,37.0
40.407,-0.937,0.678,39.0
40.432,-0.926,0.448,150.0
40.411,-0.914,0.217,56.0
40.412,-0.903,1.329,33.0
40.427,-0.892,1.098,26.0
38.391,-0.835,0.823,51.0
38.379,-0.823,0.6,39.0
38.39,-0.812,0.381,20.0
52.932,-1.104,0.223,14.0
45.741,-0.942,1.45,61.0
45.749,-0.929,1.188,2.0
38.306,-0.766,0.776,7.0
53.016,-1.045,0.765,20.0
52.986,-1.029,0.462,26.0
53.007,-1.014,0.16,16.0
64.314,-1.214,1.961,79.0
190.827,-3.548,4.727,23.0
191.652,-3.508,3.652,26.0
192.934,-3.474,2.551,24.0
20.151,-0.357,0.151,2.0
20.145,-0.351,0.035,47.0
64.319,-1.104,1.881,81.0
176.637,-2.98,4.153,52.0
59.558,-0.987,1.059,3.0
20.134,-0.327,0.24,7.0
20.12,-0.322,0.125,15.0
20.134,-0.316,0.01,23.0
59.43,-0.919,1.662,34.0
53.51,-0.812,1.189,43.0
20.131,-0.299,0.332,9.0
20.117,-0.294,0.214,14.0
20.135,-0.288,0.099,10.0
59.516,-0.835,-0.047,80.0
59.414,-0.819,1.583,69.0
20.14,-0.272,0.421,10.0
20.126,-0.266,0.305,11.0
20.149,-0.26,0.188,11.0
56.303,-0.713,0.203,1.0
56.316,-0.698,-0.119,1.0
20.158,-0.244,0.51,10.0
20.132,-0.238,0.393,11.0
20.155,-0.233,0.278,12.0
64.34,-0.727,0.513,9.0
56.141,-0.618,0.125,2.0
56.229,-0.604,-0.196,11.0
20.146,-0.211,0.482,15.0
20.169,-0.206,0.366,18.0
53.368,-0.53,0.663,14.0
53.361,-0.516,0.351,14.0
53.355,-0.502,0.045,6.0
53.349,-0.487,-0.26,6.0
20.2,-0.179,0.454,24.0
53.47,-0.46,0.896,8.0
58.306,-0.486,0.642,14.0
58.318,-0.471,0.302,12.0
20.187,-0.157,-0.011,17.0
20.165,-0.151,-0.127,18.0
20.204,-0.146,0.425,24.0
20.154,-0.141,0.308,16.0
20.126,-0.135,0.192,18.0
20.141,-0.13,0.074,27.0
20.153,-0.125,-0.04,25.0
20.154,-0.12,-0.156,30.0
20.126,-0.114,0.394,26.0
20.135,-0.109,0.278,26.0
20.124,-0.104,0.162,25.0
20.128,-0.099,0.045,32.0
20.143,-0.093,-0.07,31.0
20.15,-0.088,-0.186,33.0
20.125,-0.083,0.364,33.0
20.114,-0.078,0.248,26.0
20.11,-0.073,0.132,32.0
20.124,-0.068,0.014,35.0
20.15,-0.062,-0.101,33.0
20.139,-0.057,-0.217,12.0
20.122,-0.052,0.333,31.0
20.122,-0.048,0.217,34.0
20.133,-0.042,0.101,38.0
20.12,-0.037,-0.016,33.0
20.164,-0.032,-0.132,26.0
20.168,-0.027,-0.248,13.0
20.124,-0.022,0.302,29.0
20.122,-0.017,0.185,28.0
20.147,-0.013,0.07,28.0
20.262,-0.008,-0.048,61.0
20.27,-0.003,-0.164,150.0
20.274,0.001,-0.281,142.0
20.135,0.006,0.27,28.0
20.131,0.011,0.154,26.0
20.255,0.016,0.038,150.0
20.259,0.021,-0.08,151.0
20.257,0.026,-0.197,150.0
20.253,0.03,-0.313,32.0
20.137,0.035,0.238,28.0
20.138,0.04,0.122,28.0
20.228,0.045,0.005,22.0
20.21,0.049,-0.112,24.0
20.219,0.054,-0.229,1.0
43.298,0.127,-0.74,0.0
20.147,0.063,0.205,28.0
20.192,0.068,0.089,30.0
20.192,0.073,-0.027,28.0
20.196,0.078,-0.145,29.0
20.196,0.082,-0.262,16.0
41.855,0.181,-0.786,1.0
20.163,0.092,0.171,28.0
20.193,0.096,0.055,36.0
20.183,0.101,-0.06,33.0
20.169,0.105,-0.179,26.0
20.199,0.11,-0.296,26.0
20.204,0.115,-0.413,5.0
20.185,0.119,0.138,26.0
20.191,0.124,0.021,27.0
20.179,0.128,-0.095,29.0
20.157,0.132,-0.213,29.0
20.181,0.137,-0.33,32.0
20.196,0.141,-0.447,21.0
20.227,0.146,0.104,30.0
20.233,0.151,-0.012,22.0
20.2,0.155,-0.129,24.0
20.174,0.159,-0.247,32.0
20.177,0.163,-0.364,30.0
20.186,0.168,-0.481,26.0
20.325,0.173,0.069,34.0
20.28,0.177,-0.048,11.0
20.194,0.181,-0.164,13.0
20.172,0.185,-0.282,27.0
20.179,0.189,-0.399,35.0
20.183,0.193,-0.516,32.0
20.34,0.199,0.034,27.0
20.118,0.201,-0.082,0.0
20.171,0.205,-0.199,16.0
20.17,0.209,-0.317,27.0
20.194,0.214,-0.435,26.0
20.183,0.218,-0.551,31.0
99.589,1.097,-0.007,2.0
0.0,0.0,0.0,0.0
20.198,0.23,-0.235,14.0
20.18,0.234,-0.353,24.0
20.168,0.238,-0.47,16.0
20.209,0.242,-0.588,28.0
0.0,0.0,0.0,0.0
0.0,0.0,0.0,0.0
20.211,0.254,-0.271,0.0
20.184,0.258,-0.39,12.0
20.188,0.262,-0.507,18.0
20.224,0.266,-0.625,22.0
0.0,0.0,0.0,0.0
0.0,0.0,0.0,0.0
0.0,0.0,0.0,0.0
0.0,0.0,0.0,0.0
20.245,0.286,-0.545,0.0
20.222,0.289,-0.662,0.0
0.0,0.0,0.0,0.0
0.0,0.0,0.0,0.0
0.0,0.0,0.0,0.0
0.0,0.0,0.0,0.0
30.615,0.466,-0.879,0.0
25.88,0.398,-0.893,0.0
0.0,0.0,0.0,0.0
0.0,0.0,0.0,0.0
0.0,0.0,0.0,0.0
33.933,0.546,-0.839,1.0
28.59,0.465,-0.873,0.0
24.666,0.406,-0.896,0.0
0.0,0.0,0.0,0.0
0.0,0.0,0.0,0.0
37.39,0.634,-0.773,0.0
31.936,0.547,-0.849,1.0
26.775,0.463,-0.867,0.0
23.483,0.41,-0.896,0.0
0.0,0.0,0.0,0.0
42.874,0.762,-0.717,0.0
35.824,0.643,-0.807,0.0
30.695,0.556,-0.872,1.0
25.919,0.474,-0.887,0.0
22.642,0.418,-0.907,0.0
0.0,0.0,0.0,0.0
0.0,0.0,0.0,0.0
33.482,0.634,-0.817,0.0
28.803,0.55,-0.873,0.0
24.729,0.476,-0.893,0.0
21.811,0.423,-0.914,0.0
0.0,0.0,0.0,0.0
38.084,0.75,-0.78,0.0
32.101,0.637,-0.843,1.0
27.162,0.543,-0.874,0.0
23.588,0.475,-0.896,0.0
20.74,0.421,-0.908,0.0
42.843,0.876,-0.71,0.0
36.12,0.744,-0.808,0.0
30.928,0.641,-0.871,1.0
25.949,0.542,-0.884,0.0
22.611,0.476,-0.901,0.0
20.078,0.425,-0.917,0.0
40.598,0.865,-0.749,0.0
33.796,0.725,-0.82,0.0
28.673,0.619,-0.862,1.0
24.693,0.537,-0.888,0.0
21.856,0.478,-0.913,0.0
19.301,0.425,-0.918,0.0
0.0,0.0,0.0,0.0
32.133,0.716,-0.84,1.0
27.283,0.611,-0.872,0.0
23.705,0.534,-0.897,0.0
20.883,0.474,-0.912,0.0
18.596,0.425,-0.92,0.0
35.958,0.824,-0.8,0.0
30.827,0.711,-0.865,0.0
26.046,0.604,-0.882,0.0
22.547,0.526,-0.897,0.0
20.11,0.472,-0.917,0.0
18.115,0.427,-0.931,0.0
33.226,0.787,-0.803,0.0
28.948,0.689,-0.868,0.0
24.714,0.591,-0.884,0.0
21.847,0.526,-0.911,0.0
0.0,0.0,0.0,0.0
17.363,0.422,-0.926,0.0
32.076,0.782,-0.836,1.0
27.449,0.672,-0.874,0.0
23.546,0.58,-0.887,0.0
20.798,0.515,-0.907,0.0
18.602,0.463,-0.919,0.0
16.766,0.419,-0.926,0.0
30.553,0.765,-0.854,0.0
26.081,0.656,-0.881,0.0
22.639,0.572,-0.896,0.0
20.112,0.511,-0.915,0.0
18.032,0.46,-0.925,0.0
16.323,0.419,-0.933,0.0
28.607,0.735,-0.855,0.0
24.775,0.639,-0.884,0.0
21.921,0.568,-0.91,0.0
19.451,0.506,-0.922,0.0
17.251,0.451,-0.918,0.0
15.908,0.418,-0.94,0.0
27.08,0.712,-0.861,0.0
23.577,0.622,-0.887,0.0
20.757,0.55,-0.902,0.0
18.594,0.495,-0.918,0.0
16.768,0.448,-0.925,0.0
15.34,0.412,-0.936,0.0
25.985,0.697,-0.877,0.0
22.612,0.609,-0.894,0.0
20.016,0.541,-0.908,0.0
18.079,0.491,-0.927,0.0
16.332,0.445,-0.933,0.0
14.925,0.408,-0.939,0.0
24.681,0.675,-0.88,0.0
21.845,0.6,-0.906,0.0
19.441,0.535,-0.919,0.0
17.328,0.479,-0.922,0.0
15.892,0.441,-0.938,0.0
14.525,0.404,-0.942,0.0
23.672,0.659,-0.889,0.0
20.806,0.581,-0.903,0.0
18.602,0.521,-0.915,0.0
16.773,0.472,-0.925,0.0
15.346,0.433,-0.935,0.0
14.228,0.403,-0.95,0.0
22.555,0.638,-0.891,0.0
20.126,0.571,-0.912,0.0
18.093,0.515,-0.925,0.0
16.302,0.465,-0.93,0.0
14.92,0.427,-0.938,0.0
13.762,0.395,-0.946,0.0
21.896,0.628,-0.907,0.0
19.341,0.556,-0.914,0.0
17.361,0.501,-0.921,0.0
15.863,0.459,-0.935,0.0
14.559,0.422,-0.943,0.0
13.36,0.389,-0.944,0.0
20.707,0.601,-0.897,0.0
18.645,0.543,-0.916,0.0
16.794,0.49,-0.923,0.0
15.342,0.449,-0.934,0.0
14.265,0.419,-0.952,0.0
13.066,0.384,-0.949,0.0
20.085,0.59,-0.909,0.0
18.014,0.53,-0.92,0.0
16.315,0.481,-0.928,0.0
14.904,0.441,-0.936,0.0
13.681,0.406,-0.939,0.0
12.739,0.379,-0.949,0.0
19.243,0.57,-0.907,0.0
17.527,0.521,-0.928,0.0
15.886,0.473,-0.934,0.0
14.538,0.434,-0.941,0.0
13.403,0.401,-0.946,0.0
12.375,0.371,-0.945,0.0
18.688,0.558,-0.917,0.0
16.807,0.503,-0.922,0.0
15.336,0.46,-0.931,0.0
14.306,0.43,-0.953,0.0
13.051,0.393,-0.946,0.0
12.1,0.365,-0.947,0.0
18.003,0.541,-0.917,0.0
16.383,0.494,-0.93,0.0
14.956,0.451,-0.936,0.0
13.669,0.413,-0.936,0.0
12.761,0.387,-0.949,0.0
11.769,0.357,-0.944,0.0
17.313,0.523,-0.914,0.0
15.908,0.482,-0.932,0.0
14.564,0.442,-0.939,0.0
13.42,0.408,-0.945,0.0
12.4,0.377,-0.945,0.0
11.494,0.35,-0.943,0.0
16.848,0.512,-0.921,0.0
15.365,0.467,-0.929,0.0
14.313,0.436,-0.949,0.0
13.037,0.398,-0.942,0.0
12.119,0.37,-0.946,0.0
11.235,0.344,-0.943,0.0
16.379,0.499,-0.926,0.0
14.974,0.456,-0.934,0.0
13.678,0.417,-0.932,0.0
12.781,0.391,-0.947,0.0
11.831,0.362,-0.946,0.0
11.057,0.339,-0.949,0.0
15.951,0.486,-0.931,0.0
14.608,0.446,-0.938,0.0
13.398,0.409,-0.938,0.0
12.392,0.379,-0.941,0.0
11.526,0.353,-0.943,0.0
10.774,0.33,-0.944,0.0
15.405,0.47,-0.927,0.0
14.377,0.439,-0.949,0.0
13.135,0.401,-0.943,0.0
12.138,0.371,-0.944,0.0
11.311,0.346,-0.945,0.0
10.547,0.323,-0.943,0.0
15.054,0.458,-0.933,0.0
0.0,0.0,0.0,0.0
12.85,0.392,-0.946,0.0
11.817,0.361,-0.94,0.0
11.122,0.34,-0.95,0.0
10.351,0.316,-0.944,0.0
14.688,0.446,-0.937,0.0
13.478,0.41,-0.938,0.0
12.483,0.38,-0.941,0.0
11.578,0.352,-0.942,0.0
10.872,0.331,-0.948,0.0
10.17,0.31,-0.946,0.0
14.381,0.435,-0.942,0.0
13.212,0.4,-0.943,0.0
12.216,0.37,-0.943,0.0
11.357,0.344,-0.944,0.0
10.659,0.323,-0.948,0.0
9.966,0.302,-0.945,0.0
14.004,0.422,-0.942,0.0
12.908,0.389,-0.944,0.0
11.927,0.359,-0.941,0.0
11.08,0.334,-0.94,0.0
10.411,0.314,-0.944,0.0
9.782,0.295,-0.945,0.0
13.492,0.404,-0.931,0.0
12.626,0.378,-0.945,0.0
11.637,0.348,-0.939,0.0
10.892,0.326,-0.943,0.0
10.213,0.306,-0.944,0.0
9.606,0.288,-0.944,0.0
13.277,0.395,-0.939,0.0
12.31,0.366,-0.942,0.0
11.403,0.339,-0.939,0.0
10.67,0.317,-0.942,0.0
10.055,0.299,-0.947,0.0
9.45,0.281,-0.945,0.0
13.008,0.383,-0.942,0.0
12.04,0.355,-0.942,0.0
11.206,0.33,-0.942,0.0
10.456,0.308,-0.941,0.0
9.86,0.29,-0.945,0.0
9.297,0.273,-0.945,0.0
12.766,0.372,-0.946,0.0
11.822,0.345,-0.944,0.0
11.018,0.321,-0.944,0.0
10.313,0.3,-0.945,0.0
9.681,0.282,-0.944,0.0
9.138,0.266,-0.944,0.0
12.437,0.359,-0.942,0.0
11.509,0.332,-0.938,0.0
10.777,0.31,-0.941,0.0
10.142,0.292,-0.946,0.0
9.552,0.275,-0.946,0.0
8.992,0.259,-0.944,0.0
12.19,0.347,-0.942,0.0
11.345,0.323,-0.943,0.0
10.599,0.301,-0.943,0.0
9.964,0.283,-0.945,0.0
9.36,0.266,-0.943,0.0
8.799,0.249,-0.938,0.0
11.867,0.333,-0.936,0.0
11.135,0.312,-0.943,0.0
10.376,0.291,-0.939,0.0
9.784,0.274,-0.944,0.0
9.226,0.258,-0.944,0.0
8.711,0.243,-0.942,0.0
11.672,0.323,-0.939,0.0
10.884,0.301,-0.939,0.0
10.265,0.283,-0.945,0.0
9.608,0.265,-0.942,0.0
9.078,0.25,-0.943,0.0
8.586,0.236,-0.942,0.0
11.425,0.311,-0.937,0.0
10.658,0.289,-0.936,0.0
10.077,0.273,-0.944,0.0
9.473,0.256,-0.943,0.0
8.961,0.242,-0.945,0.0
8.488,0.229,-0.945,0.0
11.264,0.301,-0.941,0.0
10.518,0.28,-0.94,0.0
9.911,0.263,-0.943,0.0
9.324,0.248,-0.943,0.0
8.788,0.233,-0.94,0.0
8.34,0.22,-0.941,0.0
11.087,0.29,-0.943,0.0
10.373,0.271,-0.942,0.0
9.753,0.254,-0.943,0.0
9.173,0.238,-0.941,0.0
8.675,0.225,-0.94,0.0
8.235,0.213,-0.941,0.0
10.875,0.278,-0.94,0.0
10.215,0.261,-0.943,0.0
9.606,0.245,-0.942,0.0
9.041,0.23,-0.94,0.0
8.592,0.218,-0.944,0.0
8.125,0.206,-0.94,0.0
10.659,0.266,-0.937,0.0
10.029,0.25,-0.94,0.0
9.422,0.234,-0.938,0.0
8.939,0.222,-0.943,0.0
8.465,0.209,-0.942,0.0
8.039,0.198,-0.942,0.0
10.546,0.257,-0.942,0.0
9.899,0.241,-0.941,0.0
9.331,0.226,-0.942,0.0
8.789,0.212,-0.939,0.0
8.321,0.2,-0.937,0.0
7.95,0.191,-0.942,0.0
10.391,0.247,-0.942,0.0
9.767,0.231,-0.942,0.0
9.207,0.217,-0.941,0.0
8.683,0.204,-0.939,0.0
8.258,0.193,-0.941,0.0
7.859,0.183,-0.942,0.0
10.262,0.236,-0.944,0.0
9.644,0.221,-0.943,0.0
9.096,0.208,-0.942,0.0
8.616,0.196,-0.943,0.0
8.179,0.186,-0.943,0.0
7.77,0.176,-0.942,0.0
10.076,0.225,-0.94,0.0
9.503,0.211,-0.941,0.0
8.972,0.199,-0.941,0.0
8.479,0.187,-0.939,0.0
8.079,0.178,-0.942,0.0
7.722,0.169,-0.945,0.0
9.966,0.215,-0.942,0.0
9.369,0.201,-0.94,0.0
8.818,0.189,-0.936,0.0
8.384,0.179,-0.939,0.0
8.001,0.17,-0.943,0.0
7.651,0.162,-0.946,0.0
9.833,0.205,-0.941,0.0
9.246,0.192,-0.939,0.0
8.752,0.181,-0.939,0.0
8.257,0.17,-0.935,0.0
7.922,0.162,-0.943,0.0
7.576,0.154,-0.946,0.0
9.71,0.195,-0.941,0.0
9.125,0.182,-0.937,0.0
8.648,0.172,-0.938,0.0
8.199,0.162,-0.938,0.0
7.851,0.154,-0.944,0.0
7.531,0.147,-0.949,0.0
9.594,0.185,-0.941,0.0
9.054,0.173,-0.94,0.0
8.571,0.163,-0.94,0.0
8.132,0.154,-0.939,0.0
7.77,0.146,-0.943,0.0
7.42,0.139,-0.944,0.0
9.488,0.175,-0.941,0.0
8.968,0.164,-0.941,0.0
8.487,0.154,-0.94,0.0
8.049,0.145,-0.939,0.0
7.693,0.138,-0.942,0.0
7.377,0.132,-0.946,0.0
9.376,0.164,-0.94,0.0
8.851,0.154,-0.938,0.0
8.431,0.146,-0.942,0.0
8.002,0.137,-0.942,0.0
7.633,0.13,-0.943,0.0
7.318,0.124,-0.946,0.0
9.264,0.154,-0.938,0.0
8.757,0.145,-0.937,0.0
8.31,0.136,-0.937,0.0
7.96,0.13,-0.945,0.0
7.632,0.123,-0.95,0.0
7.262,0.117,-0.947,0.0
9.173,0.144,-0.938,0.0
8.666,0.135,-0.936,0.0
8.206,0.127,-0.934,0.0
7.845,0.121,-0.939,0.0
7.502,0.114,-0.941,0.0
7.225,0.109,-0.949,0.0
9.098,0.135,-0.939,0.0
8.623,0.127,-0.94,0.0
8.154,0.119,-0.936,0.0
7.78,0.112,-0.939,0.0
7.452,0.107,-0.942,0.0
7.149,0.101,-0.945,0.0
9.024,0.125,-0.939,0.0
8.523,0.117,-0.936,0.0
8.107,0.11,-0.937,0.0
7.718,0.104,-0.938,0.0
7.431,0.099,-0.946,0.0
7.097,0.094,-0.945,0.0
8.933,0.115,-0.938,0.0
8.475,0.108,-0.938,0.0
8.088,0.102,-0.942,0.0
7.658,0.096,-0.937,0.0
7.35,0.091,-0.942,0.0
7.087,0.087,-0.95,0.0
8.833,0.105,-0.935,0.0
8.406,0.099,-0.938,0.0
8.027,0.093,-0.942,0.0
7.633,0.088,-0.94,0.0
7.336,0.083,-0.946,0.0
7.032,0.079,-0.948,0.0
8.797,0.096,-0.938,0.0
8.356,0.09,-0.939,0.0
7.941,0.084,-0.938,0.0
7.618,0.08,-0.944,0.0
7.244,0.075,-0.94,0.0
7.008,0.071,-0.95,0.0
8.721,0.086,-0.936,0.0
8.31,0.081,-0.94,0.0
7.925,0.076,-0.942,0.0
7.536,0.071,-0.94,0.0
7.255,0.067,-0.946,0.0
6.945,0.064,-0.946,0.0
8.674,0.077,-0.937,0.0
8.248,0.072,-0.938,0.0
7.88,0.067,-0.942,0.0
7.496,0.063,-0.94,0.0
7.278,0.06,-0.954,0.0
6.946,0.056,-0.951,0.0
8.635,0.068,-0.939,0.0
8.188,0.063,-0.937,0.0
7.837,0.059,-0.942,0.0
7.451,0.055,-0.939,0.0
7.169,0.052,-0.945,0.0
6.853,0.048,-0.943,0.0
8.57,0.058,-0.937,0.0
8.183,0.054,-0.941,0.0
7.763,0.05,-0.937,0.0
7.413,0.047,-0.939,0.0
7.156,0.044,-0.947,0.0
6.872,0.041,-0.949,0.0
8.534,0.049,-0.938,0.0
8.137,0.045,-0.941,0.0
7.772,0.042,-0.943,0.0
0.0,0.0,0.0,0.0
7.122,0.036,-0.947,0.0
6.866,0.033,-0.952,0.0
8.506,0.039,-0.939,0.0
8.074,0.036,-0.937,0.0
7.754,0.033,-0.945,0.0
0.0,0.0,0.0,0.0
7.141,0.028,-0.953,0.0
6.819,0.026,-0.949,0.0
8.451,0.03,-0.937,0.0
8.027,0.027,-0.936,0.0
7.714,0.025,-0.943,0.0
0.0,0.0,0.0,0.0
7.062,0.02,-0.945,0.0
6.722,0.018,-0.939,0.0
8.406,0.02,-0.936,0.0
8.031,0.018,-0.94,0.0
7.67,0.016,-0.941,0.0
7.292,0.014,-0.937,0.0
7.058,0.012,-0.948,0.0
6.783,0.01,-0.95,0.0
8.344,0.011,-0.932,0.0
7.989,0.009,-0.938,0.0
7.588,0.007,-0.934,0.0
0.0,0.0,0.0,0.0
7.061,0.004,-0.951,0.0
6.772,0.003,-0.951,0.0
8.371,0.002,-0.938,0.0
7.969,0.0,-0.938,0.0
7.634,0.0,-0.942,0.0
7.311,-0.002,-0.945,0.0
0.0,0.0,0.0,0.0
6.744,-0.004,-0.949,0.0
8.321,-0.007,-0.935,0.0
7.946,-0.008,-0.938,0.0
7.576,-0.009,-0.937,0.0
7.269,-0.01,-0.941,0.0
7.014,-0.011,-0.949,0.0
6.748,-0.012,-0.951,0.0
8.305,-0.016,-0.935,0.0
7.928,-0.017,-0.938,0.0
7.624,-0.018,-0.945,0.0
7.305,-0.018,-0.948,0.0
0.0,0.0,0.0,0.0
6.739,-0.019,-0.951,0.0
8.296,-0.025,-0.936,0.0
7.932,-0.026,-0.94,0.0
7.568,-0.026,-0.939,0.0
0.0,0.0,0.0,0.0
0.0,0.0,0.0,0.0
6.721,-0.027,-0.95,0.0
8.277,-0.035,-0.935,0.0
7.914,-0.035,-0.939,0.0
7.589,-0.035,-0.943,0.0
7.205,-0.034,-0.937,0.0
0.0,0.0,0.0,0.0
6.735,-0.034,-0.953,0.0
8.299,-0.044,-0.938,0.0
7.893,-0.043,-0.937,0.0
7.547,-0.043,-0.939,0.0
0.0,0.0,0.0,0.0
0.0,0.0,0.0,0.0
6.739,-0.042,-0.954,0.0
8.268,-0.053,-0.935,0.0
7.924,-0.053,-0.941,0.0
7.587,-0.052,-0.944,0.0
7.251,-0.051,-0.944,0.0
0.0,0.0,0.0,0.0
6.727,-0.05,-0.952,0.0
8.268,-0.063,-0.935,0.0
7.873,-0.061,-0.935,0.0
7.572,-0.06,-0.942,0.0
7.25,-0.059,-0.944,0.0
6.985,-0.059,-0.949,0.0
6.726,-0.058,-0.952,0.0
8.266,-0.072,-0.935,0.0
7.886,-0.07,-0.936,0.0
7.602,-0.069,-0.946,0.0
7.243,-0.067,-0.943,0.0
6.972,-0.066,-0.947,0.0
6.741,-0.065,-0.954,0.0
8.3,-0.082,-0.938,0.0
7.909,-0.08,-0.939,0.0
7.589,-0.078,-0.943,0.0
7.223,-0.075,-0.939,0.0
0.0,0.0,0.0,0.0
6.76,-0.073,-0.956,0.0
8.314,-0.091,-0.939,0.0
7.922,-0.089,-0.939,0.0
7.581,-0.086,-0.941,0.0
7.281,-0.084,-0.946,0.0
7.0,-0.083,-0.949,0.0
6.743,-0.081,-0.952,0.0
8.304,-0.101,-0.936,0.0
7.906,-0.097,-0.936,0.0
7.579,-0.095,-0.94,0.0
7.273,-0.092,-0.943,0.0
7.028,-0.091,-0.951,0.0
6.746,-0.088,-0.951,0.0
8.302,-0.11,-0.934,0.0
7.969,-0.107,-0.941,0.0
7.618,-0.104,-0.943,0.0
7.276,-0.101,-0.942,0.0
7.03,-0.099,-0.95,0.0
6.776,-0.096,-0.954,0.0
8.334,-0.119,-0.936,0.0
7.924,-0.115,-0.934,0.0
7.609,-0.112,-0.939,0.0
7.286,-0.109,-0.941,0.0
7.026,-0.106,-0.947,0.0
6.784,-0.104,-0.953,0.0
8.334,-0.129,-0.933,0.0
7.984,-0.125,-0.939,0.0
7.648,-0.121,-0.942,0.0
7.317,-0.117,-0.943,0.0
7.032,-0.114,-0.946,0.0
6.789,-0.112,-0.951,0.0
8.382,-0.139,-0.936,0.0
8.022,-0.134,-0.94,0.0
7.685,-0.13,-0.943,0.0
7.309,-0.125,-0.939,0.0
7.084,-0.123,-0.95,0.0
6.793,-0.119,-0.949,0.0
8.431,-0.149,-0.938,0.0
8.023,-0.143,-0.937,0.0
7.675,-0.138,-0.939,0.0
7.387,-0.135,-0.946,0.0
7.113,-0.131,-0.951,0.0
6.849,-0.128,-0.954,0.0
8.468,-0.158,-0.938,0.0
8.083,-0.153,-0.94,0.0
7.71,-0.147,-0.94,0.0
7.401,-0.143,-0.944,0.0
7.106,-0.139,-0.946,0.0
6.857,-0.135,-0.952,0.0
8.485,-0.168,-0.936,0.0
8.109,-0.162,-0.939,0.0
7.76,-0.156,-0.942,0.0
7.412,-0.151,-0.942,0.0
7.125,-0.146,-0.945,0.0
6.857,-0.142,-0.948,0.0
8.537,-0.178,-0.937,0.0
8.156,-0.171,-0.941,0.0
7.779,-0.165,-0.94,0.0
7.447,-0.159,-0.942,0.0
7.149,-0.154,-0.944,0.0
6.922,-0.151,-0.953,0.0
8.589,-0.188,-0.938,0.0
8.16,-0.18,-0.936,0.0
7.856,-0.175,-0.945,0.0
7.489,-0.168,-0.943,0.0
7.252,-0.164,-0.953,0.0
6.934,-0.158,-0.95,0.0
8.635,-0.197,-0.938,0.0
8.17,-0.188,-0.932,0.0
7.845,-0.182,-0.938,0.0
7.501,-0.176,-0.94,0.0
7.236,-0.171,-0.947,0.0
6.973,-0.166,-0.951,0.0
8.7,-0.208,-0.939,0.0
8.271,-0.199,-0.938,0.0
7.882,-0.191,-0.938,0.0
7.54,-0.184,-0.939,0.0
7.257,-0.179,-0.944,0.0
7.025,-0.174,-0.953,0.0
8.744,-0.217,-0.938,0.0
8.33,-0.208,-0.939,0.0
7.94,-0.2,-0.939,0.0
7.597,-0.193,-0.941,0.0
7.313,-0.187,-0.946,0.0
7.019,-0.181,-0.947,0.0
8.809,-0.227,-0.938,0.0
8.356,-0.217,-0.936,0.0
7.978,-0.209,-0.937,0.0
7.649,-0.202,-0.941,0.0
7.379,-0.196,-0.949,0.0
7.051,-0.189,-0.946,0.0
8.888,-0.238,-0.939,0.0
8.431,-0.227,-0.937,0.0
8.052,-0.218,-0.939,0.0
7.696,-0.21,-0.941,0.0
7.424,-0.204,-0.949,0.0
7.123,-0.197,-0.949,0.0
8.97,-0.248,-0.941,0.0
8.519,-0.237,-0.94,0.0
8.116,-0.228,-0.94,0.0
7.73,-0.218,-0.938,0.0
7.443,-0.212,-0.945,0.0
7.139,-0.204,-0.945,0.0
9.055,-0.259,-0.942,0.0
8.586,-0.247,-0.94,0.0
8.172,-0.237,-0.939,0.0
7.8,-0.227,-0.94,0.0
7.501,-0.22,-0.945,0.0
7.206,-0.213,-0.948,0.0
9.165,-0.27,-0.945,0.0
8.66,-0.257,-0.94,0.0
8.243,-0.246,-0.94,0.0
7.873,-0.236,-0.941,0.0
7.56,-0.228,-0.945,0.0
7.246,-0.22,-0.946,0.0
9.259,-0.281,-0.946,0.0
8.75,-0.267,-0.941,0.0
8.316,-0.255,-0.94,0.0
7.934,-0.245,-0.941,0.0
7.617,-0.236,-0.945,0.0
7.296,-0.228,-0.945,0.0
9.357,-0.291,-0.947,0.0
8.832,-0.277,-0.941,0.0
8.382,-0.264,-0.939,0.0
8.012,-0.254,-0.942,0.0
7.706,-0.245,-0.948,0.0
7.378,-0.236,-0.948,0.0
9.458,-0.302,-0.947,0.0
8.923,-0.287,-0.942,0.0
8.468,-0.273,-0.94,0.0
8.104,-0.263,-0.945,0.0
7.717,-0.252,-0.942,0.0
7.394,-0.243,-0.942,0.0
9.575,-0.314,-0.949,0.0
9.052,-0.298,-0.946,0.0
8.559,-0.283,-0.941,0.0
8.157,-0.271,-0.942,0.0
7.794,-0.26,-0.942,0.0
7.475,-0.251,-0.944,0.0
9.691,-0.325,-0.95,0.0
9.166,-0.309,-0.948,0.0
8.669,-0.293,-0.943,0.0
8.224,-0.28,-0.94,0.0
7.893,-0.27,-0.945,0.0
7.545,-0.259,-0.945,0.0
9.821,-0.336,-0.951,0.0
9.29,-0.319,-0.95,0.0
8.744,-0.302,-0.941,0.0
8.31,-0.288,-0.941,0.0
7.956,-0.277,-0.944,0.0
7.634,-0.268,-0.947,0.0
9.95,-0.348,-0.952,0.0
9.399,-0.33,-0.95,0.0
8.859,-0.312,-0.943,0.0
8.419,-0.298,-0.943,0.0
8.007,-0.285,-0.94,0.0
7.688,-0.275,-0.944,0.0
10.091,-0.359,-0.953,0.0
9.529,-0.341,-0.952,0.0
8.982,-0.323,-0.945,0.0
8.531,-0.308,-0.945,0.0
8.13,-0.294,-0.944,0.0
7.773,-0.283,-0.945,0.0
10.255,-0.372,-0.956,0.0
9.637,-0.351,-0.95,0.0
9.116,-0.333,-0.948,0.0
8.619,-0.316,-0.943,0.0
8.186,-0.302,-0.94,0.0
7.85,-0.291,-0.944,0.0
10.36,-0.382,-0.953,0.0
9.773,-0.362,-0.951,0.0
9.262,-0.344,-0.951,0.0
8.739,-0.326,-0.945,0.0
8.312,-0.311,-0.944,0.0
7.93,-0.298,-0.943,0.0
10.512,-0.394,-0.953,0.0
9.894,-0.372,-0.95,0.0
9.388,-0.354,-0.952,0.0
8.866,-0.336,-0.947,0.0
8.448,-0.321,-0.948,0.0
8.018,-0.306,-0.943,0.0
10.658,-0.405,-0.952,0.0
10.067,-0.384,-0.953,0.0
9.53,-0.365,-0.953,0.0
8.969,-0.345,-0.946,0.0
8.536,-0.329,-0.946,0.0
8.118,-0.314,-0.944,0.0
10.861,-0.419,-0.955,0.0
10.243,-0.396,-0.956,0.0
9.668,-0.375,-0.954,0.0
9.12,-0.355,-0.949,0.0
8.64,-0.337,-0.946,0.0
8.219,-0.322,-0.944,0.0
11.071,-0.432,-0.958,0.0
10.398,-0.407,-0.955,0.0
9.788,-0.384,-0.952,0.0
9.29,-0.366,-0.954,0.0
8.768,-0.347,-0.947,0.0
8.322,-0.33,-0.944,0.0
11.186,-0.442,-0.952,0.0
10.563,-0.418,-0.955,0.0
9.978,-0.396,-0.956,0.0
9.428,-0.376,-0.954,0.0
8.881,-0.355,-0.946,0.0
8.465,-0.339,-0.947,0.0
11.37,-0.454,-0.951,0.0
10.737,-0.43,-0.955,0.0
10.137,-0.407,-0.956,0.0
9.552,-0.384,-0.953,0.0
9.051,-0.365,-0.951,0.0
8.581,-0.347,-0.948,0.0
11.635,-0.469,-0.956,0.0
10.94,-0.442,-0.957,0.0
10.327,-0.418,-0.959,0.0
9.71,-0.394,-0.954,0.0
9.197,-0.374,-0.952,0.0
8.709,-0.355,-0.948,0.0
11.875,-0.483,-0.958,0.0
11.12,-0.453,-0.956,0.0
10.475,-0.428,-0.956,0.0
9.881,-0.405,-0.956,0.0
9.344,-0.383,-0.953,0.0
8.834,-0.363,-0.948,0.0
12.159,-0.498,-0.963,0.0
11.291,-0.464,-0.953,0.0
10.679,-0.44,-0.958,0.0
10.037,-0.414,-0.955,0.0
9.528,-0.394,-0.957,0.0
8.981,-0.372,-0.95,0.0
12.409,-0.512,-0.963,0.0
11.545,-0.477,-0.957,0.0
10.829,-0.449,-0.955,0.0
10.243,-0.425,-0.958,0.0
9.702,-0.403,-0.959,0.0
9.158,-0.382,-0.954,0.0
12.656,-0.525,-0.962,0.0
11.801,-0.491,-0.959,0.0
11.091,-0.462,-0.96,0.0
10.415,-0.435,-0.958,0.0
9.852,-0.412,-0.958,0.0
9.317,-0.39,-0.956,0.0
12.979,-0.541,-0.966,0.0
12.045,-0.503,-0.96,0.0
11.309,-0.473,-0.961,0.0
10.616,-0.445,-0.959,0.0
10.016,-0.421,-0.958,0.0
9.486,-0.399,-0.957,0.0
13.22,-0.554,-0.962,0.0
12.364,-0.519,-0.965,0.0
11.486,-0.482,-0.957,0.0
10.786,-0.454,-0.957,0.0
10.229,-0.431,-0.961,0.0
9.634,-0.406,-0.957,0.0
13.46,-0.566,-0.958,0.0
12.637,-0.532,-0.966,0.0
11.779,-0.496,-0.962,0.0
11.057,-0.466,-0.962,0.0
10.39,-0.439,-0.959,0.0
9.822,-0.415,-0.959,0.0
13.739,-0.579,-0.955,0.0
12.955,-0.546,-0.968,0.0
12.009,-0.507,-0.961,0.0
11.204,-0.473,-0.956,0.0
10.626,-0.449,-0.963,0.0
10.003,-0.424,-0.959,0.0
14.2,-0.599,-0.963,0.0
13.227,-0.558,-0.966,0.0
12.339,-0.521,-0.966,0.0
11.443,-0.484,-0.957,0.0
10.785,-0.456,-0.959,0.0
10.199,-0.432,-0.961,0.0
14.493,-0.611,-0.958,0.0
13.468,-0.569,-0.961,0.0
12.615,-0.533,-0.967,0.0
11.726,-0.496,-0.961,0.0
11.09,-0.469,-0.967,0.0
10.43,-0.442,-0.965,0.0
14.867,-0.627,-0.958,0.0
13.742,-0.58,-0.957,0.0
12.918,-0.545,-0.967,0.0
12.009,-0.507,-0.963,0.0
11.248,-0.475,-0.962,0.0
10.588,-0.448,-0.961,0.0
15.686,-0.661,-0.983,0.0
14.197,-0.598,-0.964,0.0
13.239,-0.558,-0.969,0.0
12.335,-0.52,-0.968,0.0
11.485,-0.484,-0.962,0.0
10.73,-0.453,-0.955,0.0
15.716,-0.66,-0.958,0.0
14.461,-0.608,-0.957,0.0
13.491,-0.567,-0.964,0.0
12.621,-0.53,-0.969,0.0
11.76,-0.495,-0.964,0.0
11.069,-0.466,-0.966,0.0
15.754,-0.66,-0.933,0.0
14.892,-0.624,-0.959,0.0
13.71,-0.574,-0.955,0.0
12.894,-0.54,-0.967,0.0
12.043,-0.504,-0.966,0.0
11.237,-0.471,-0.96,0.0
15.751,-0.657,-0.905,1.0
15.736,-0.656,-0.986,0.0
14.233,-0.593,-0.966,0.0
13.234,-0.552,-0.969,0.0
12.409,-0.517,-0.973,0.0
11.479,-0.478,-0.96,0.0
15.775,-0.654,-0.878,1.0
15.776,-0.654,-0.96,0.0
14.496,-0.601,-0.958,0.0
13.493,-0.559,-0.964,0.0
12.629,-0.523,-0.968,0.0
11.764,-0.487,-0.963,0.0
15.8,-0.651,-0.851,1.0
15.776,-0.65,-0.932,0.0
15.003,-0.618,-0.965,0.0
28.371,-1.168,-1.976,0.0
12.951,-0.533,-0.969,0.0
12.103,-0.498,-0.969,0.0
16.063,-0.657,-0.837,0.0
15.801,-0.646,-0.905,1.0
15.762,-0.644,-0.985,0.0
14.236,-0.581,-0.965,0.0
13.289,-0.542,-0.97,0.0
12.387,-0.505,-0.969,0.0
16.415,-0.666,-0.825,0.0
15.834,-0.642,-0.878,1.0
15.805,-0.64,-0.959,0.0
14.51,-0.587,-0.958,0.0
13.557,-0.548,-0.965,0.0
12.674,-0.512,-0.968,0.0
16.94,-0.681,-0.821,1.0
15.863,-0.637,-0.851,1.0
15.857,-0.636,-0.933,0.0
15.317,-0.614,-0.983,0.0
13.889,-0.556,-0.964,0.0
13.033,-0.521,-0.972,0.0
17.328,-0.689,-0.808,2.0
16.102,-0.64,-0.835,1.0
15.878,-0.63,-0.906,1.0
15.826,-0.627,-0.987,0.0
14.302,-0.566,-0.966,0.0
13.314,-0.526,-0.969,0.0
18.058,-0.71,-0.81,1.0
28.468,-1.118,-1.424,1.0
15.905,-0.623,-0.878,1.0
15.89,-0.622,-0.961,0.0
14.579,-0.57,-0.958,0.0
13.582,-0.53,-0.963,0.0
18.611,-0.722,-0.8,0.0
17.127,-0.664,-0.825,1.0
15.967,-0.618,-0.852,1.0
15.951,-0.616,-0.936,0.0
15.442,-0.595,-0.986,0.0
13.945,-0.536,-0.963,0.0
19.603,-0.75,-0.807,0.0
17.565,-0.671,-0.814,1.0
16.155,-0.616,-0.833,1.0
15.971,-0.608,-0.908,1.0
15.939,-0.605,-0.989,0.0
14.365,-0.544,-0.966,0.0
20.378,-0.768,-0.802,2.0
18.197,-0.684,-0.81,0.0
31.291,-1.174,-1.556,0.0
16.005,-0.599,-0.88,1.0
16.035,-0.599,-0.965,0.0
14.628,-0.545,-0.957,0.0
21.015,-0.779,-0.788,0.0
18.806,-0.696,-0.803,0.0
17.174,-0.633,-0.822,0.0
16.114,-0.593,-0.856,1.0
16.085,-0.59,-0.939,0.0
15.946,-0.584,-1.013,0.0
22.093,-0.805,-0.788,1.0
19.65,-0.714,-0.803,0.0
17.885,-0.648,-0.823,0.0
16.25,-0.587,-0.834,1.0
16.154,-0.581,-0.913,1.0
16.169,-0.58,-0.998,0.0
23.348,-0.834,-0.79,5.0
20.585,-0.733,-0.803,0.0
18.477,-0.656,-0.816,3.0
16.854,-0.596,-0.834,0.0
16.261,-0.573,-0.889,1.0
16.254,-0.571,-0.973,3.0
23.812,-0.833,-0.762,20.0
21.365,-0.745,-0.794,0.0
18.865,-0.655,-0.799,3.0
17.311,-0.599,-0.825,0.0
16.489,-0.569,-0.871,0.0
16.46,-0.566,-0.955,0.0
24.441,-0.836,-0.737,17.0
22.556,-0.768,-0.797,4.0
19.809,-0.672,-0.803,0.0
17.868,-0.604,-0.819,0.0
16.803,-0.566,-0.857,0.0
16.782,-0.563,-0.943,0.0
25.161,-0.839,-0.713,2.0
23.361,-0.776,-0.783,5.0
20.723,-0.686,-0.802,0.0
18.506,-0.61,-0.814,0.0
17.134,-0.562,-0.842,0.0
17.068,-0.558,-0.928,0.0
28.141,-0.915,-0.746,1.0
23.861,-0.772,-0.756,18.0
21.75,-0.701,-0.802,1.0
19.558,-0.627,-0.825,3.0
17.523,-0.56,-0.83,0.0
17.354,-0.552,-0.912,0.0
30.308,-0.958,-0.749,8.0
24.674,-0.776,-0.738,14.0
22.534,-0.706,-0.791,1.0
19.898,-0.62,-0.803,3.0
18.055,-0.56,-0.823,0.0
17.66,-0.545,-0.896,0.0
30.514,-0.936,-0.699,32.0
25.202,-0.769,-0.708,2.0
23.716,-0.72,-0.789,9.0
20.647,-0.624,-0.797,1.0
18.683,-0.561,-0.818,0.0
18.012,-0.539,-0.882,0.0
30.709,-0.912,-0.649,35.0
28.546,-0.843,-0.751,1.0
23.904,-0.702,-0.753,19.0
21.653,-0.633,-0.797,0.0
19.401,-0.564,-0.815,0.0
18.375,-0.531,-0.867,1.0
31.163,-0.894,-0.603,27.0
30.29,-0.864,-0.743,8.0
24.977,-0.708,-0.742,9.0
0.0,0.0,0.0,0.0
20.259,-0.567,-0.815,0.0
18.844,-0.525,-0.856,1.0
37.875,-1.047,-0.666,9.0
30.511,-0.838,-0.695,34.0
27.523,-0.751,-0.77,0.0
23.744,-0.644,-0.79,12.0
20.947,-0.564,-0.806,0.0
19.294,-0.516,-0.842,1.0
38.117,-1.013,-0.603,16.0
30.805,-0.813,-0.648,29.0
28.603,-0.749,-0.75,2.0
24.032,-0.625,-0.757,20.0
22.06,-0.569,-0.81,0.0
19.883,-0.51,-0.833,1.0
38.506,-0.98,-0.542,19.0
31.373,-0.792,-0.605,20.0
30.398,-0.761,-0.744,18.0
25.08,-0.624,-0.747,10.0
23.295,-0.575,-0.815,4.0
20.488,-0.501,-0.823,1.0
38.735,-0.94,-0.478,21.0
37.898,-0.912,-0.664,13.0
30.546,-0.729,-0.694,31.0
27.615,-0.654,-0.774,0.0
23.785,-0.558,-0.79,13.0
21.141,-0.492,-0.813,0.0
40.416,-0.933,-0.429,65.0
38.191,-0.873,-0.604,21.0
31.009,-0.703,-0.652,29.0
28.354,-0.637,-0.747,4.0
23.919,-0.532,-0.754,2.0
21.999,-0.485,-0.808,1.0
40.444,-0.884,-0.361,9.0
38.387,-0.831,-0.542,9.0
31.503,-0.675,-0.609,8.0
30.391,-0.645,-0.749,20.0
26.796,-0.563,-0.8,1.0
22.834,-0.475,-0.8,2.0
38.382,-0.79,-0.278,18.0
38.366,-0.781,-0.477,7.0
37.931,-0.764,-0.669,15.0
30.565,-0.609,-0.701,33.0
27.702,-0.546,-0.78,1.0
23.985,-0.468,-0.801,1.0
52.964,-1.021,-0.295,8.0
45.402,-0.865,-0.489,19.0
38.303,-0.722,-0.612,13.0
31.164,-0.58,-0.664,24.0
28.787,-0.529,-0.763,9.0
25.637,-0.465,-0.813,1.0
53.001,-0.951,-0.207,13.0
52.923,-0.937,-0.482,31.0
44.869,-0.784,-0.643,11.0
35.905,-0.62,-0.706,2.0
30.301,-0.516,-0.754,18.0
26.618,-0.447,-0.801,1.0
20.125,-0.334,-0.046,19.0
52.981,-0.866,-0.397,16.0
45.004,-0.725,-0.573,33.0
37.876,-0.601,-0.683,19.0
30.615,-0.479,-0.712,27.0
27.752,-0.428,-0.791,1.0
20.122,-0.305,-0.013,13.0
59.492,-0.89,-0.351,6.0
52.84,-0.778,-0.588,5.0
38.223,-0.553,-0.629,14.0
31.678,-0.451,-0.686,18.0
28.713,-0.402,-0.773,1.0
59.525,-0.82,0.053,67.0
59.517,-0.804,-0.257,0.0
52.836,-0.702,-0.505,10.0
44.868,-0.585,-0.668,5.0
35.936,-0.459,-0.723,4.0
30.294,-0.38,-0.768,8.0
59.586,-0.734,0.146,14.0
56.328,-0.68,-0.156,1.0
56.747,-0.671,-0.454,2.0
44.868,-0.519,-0.598,33.0
37.764,-0.427,-0.701,17.0
20.216,-0.224,-0.481,7.0
56.177,-0.608,0.224,5.0
56.191,-0.594,-0.069,1.0
59.184,-0.611,-0.383,0.0
45.434,-0.458,-0.537,14.0
38.097,-0.374,-0.65,13.0
20.193,-0.193,-0.45,29.0
53.365,-0.497,0.293,11.0
53.347,-0.484,0.014,5.0
53.328,-0.469,-0.265,6.0
20.155,-0.172,-0.207,3.0
20.172,-0.167,-0.313,26.0
20.172,-0.161,-0.419,32.0
58.331,-0.453,0.408,14.0
20.161,-0.151,0.035,10.0
20.175,-0.146,-0.07,18.0
20.137,-0.14,-0.178,18.0
20.141,-0.135,-0.283,31.0
20.15,-0.13,-0.39,38.0
20.134,-0.125,0.17,19.0
20.141,-0.119,0.064,29.0
20.152,-0.114,-0.041,26.0
20.139,-0.109,-0.149,29.0
20.133,-0.103,-0.254,35.0
20.145,-0.098,-0.361,32.0
20.143,-0.092,0.199,26.0
20.135,-0.087,0.093,36.0
20.138,-0.082,-0.012,33.0
20.138,-0.076,-0.12,30.0
20.145,-0.071,-0.226,19.0
20.151,-0.065,-0.332,26.0
20.12,-0.06,0.227,29.0
20.124,-0.054,0.121,34.0
20.135,-0.049,0.015,33.0
20.14,-0.043,-0.092,35.0
20.167,-0.038,-0.198,24.0
20.171,-0.032,-0.305,18.0
20.114,-0.027,0.255,27.0
20.117,-0.021,0.149,28.0
20.142,-0.015,0.043,27.0
20.183,-0.01,-0.064,17.0
20.211,-0.004,-0.171,13.0
20.259,0.001,-0.278,25.0
20.129,0.006,0.282,29.0
20.127,0.012,0.176,28.0
20.152,0.018,0.07,28.0
20.244,0.023,-0.038,151.0
20.267,0.029,-0.145,150.0
20.251,0.035,-0.252,150.0
20.146,0.04,0.309,29.0
20.141,0.046,0.203,28.0
20.152,0.052,0.096,28.0
20.225,0.058,-0.011,29.0
20.2,0.063,-0.118,25.0
20.198,0.069,-0.225,10.0
20.148,0.075,0.335,29.0
20.154,0.081,0.229,27.0
20.146,0.087,0.122,24.0
20.193,0.092,0.013,33.0
20.181,0.098,-0.092,33.0
20.185,0.104,-0.199,27.0
20.164,0.11,0.361,29.0
20.167,0.116,0.254,28.0
20.168,0.122,0.148,26.0
20.188,0.128,0.039,28.0
20.193,0.134,-0.067,26.0
20.182,0.14,-0.174,29.0
20.177,0.146,0.386,27.0
20.19,0.152,0.28,22.0
20.21,0.158,0.173,21.0
20.251,0.164,0.064,26.0
20.246,0.17,-0.043,19.0
20.208,0.176,-0.15,24.0
20.273,0.183,0.413,29.0
20.297,0.189,0.305,28.0
20.297,0.195,0.197,28.0
20.313,0.201,0.088,30.0
20.314,0.207,-0.019,12.0
20.152,0.211,-0.126,0.0
20.28,0.219,0.436,33.0
20.275,0.225,0.328,31.0
20.291,0.231,0.221,24.0
20.301,0.237,0.111,4.0
99.634,1.196,0.016,5.0
0.0,0.0,0.0,0.0
20.293,0.256,0.46,26.0
20.28,0.262,0.351,11.0
20.266,0.268,0.243,0.0
99.583,1.347,0.656,2.0
99.645,1.378,0.126,5.0
0.0,0.0,0.0,0.0
196.195,2.838,4.663,26.0
195.059,2.882,3.597,29.0
195.445,2.945,2.562,7.0
0.0,0.0,0.0,0.0
99.685,1.562,0.233,5.0
0.0,0.0,0.0,0.0
197.171,3.217,4.897,9.0
194.87,3.239,3.8,23.0
194.844,3.299,2.759,20.0
0.0,0.0,0.0,0.0
99.8,1.748,0.336,7.0
100.124,1.785,-0.196,1.0
0.0,0.0,0.0,0.0
194.579,3.6,3.995,18.0
0.0,0.0,0.0,0.0
103.233,1.971,1.004,1.0
99.949,1.939,0.438,6.0
99.974,1.97,-0.096,6.0
0.0,0.0,0.0,0.0
194.348,3.959,4.182,17.0
196.612,4.064,3.177,7.0
103.091,2.163,1.103,4.0
100.016,2.13,0.535,2.0
100.069,2.161,0.0,14.0
194.757,4.277,5.421,22.0
194.283,4.327,4.366,31.0
194.116,4.381,3.321,16.0
0.0,0.0,0.0,0.0
102.967,2.387,0.647,3.0
100.181,2.353,0.092,4.0
194.841,4.649,5.603,12.0
194.245,4.693,4.543,29.0
193.611,4.738,3.489,33.0
195.149,4.835,2.448,8.0
103.099,2.585,0.739,7.0
100.253,2.545,0.181,2.0
194.473,5.012,5.765,4.0
194.133,5.064,4.711,35.0
193.487,5.107,3.656,33.0
195.364,5.214,2.62,26.0
103.198,2.785,0.829,3.0
103.224,2.819,0.274,3.0
193.527,5.363,5.904,18.0
194.248,5.44,4.878,27.0
193.455,5.476,3.816,36.0
195.496,5.595,2.785,25.0
0.0,0.0,0.0,0.0
196.11,5.73,0.68,31.0
192.995,5.716,6.042,29.0
193.889,5.802,5.025,22.0
193.747,5.858,3.977,31.0
195.407,5.97,2.938,5.0
0.0,0.0,0.0,0.0
196.271,6.116,0.834,32.0
193.245,6.101,6.202,15.0
194.529,6.199,5.191,19.0
194.464,6.257,4.139,26.0
195.013,6.336,3.079,21.0
0.0,0.0,0.0,0.0
196.292,6.495,0.978,32.0
