X,Y,Z,Reflectivity
47.608,-1.211,6.51,5.0
39.612,-0.999,5.19,2.0
25.26,-0.632,3.165,29.0
24.814,-0.615,2.965,39.0
44.304,-1.09,5.043,34.0
51.72,-1.262,5.594,18.0
36.934,-0.896,5.042,19.0
36.778,-0.884,4.81,9.0
25.273,-0.602,3.161,12.0
24.798,-0.586,2.957,48.0
43.708,-1.023,4.964,6.0
44.647,-1.037,4.817,50.0
32.348,-0.746,4.407,2.0
36.827,-0.842,4.806,26.0
33.97,-0.769,4.239,3.0
24.813,-0.557,2.952,40.0
52.007,-1.157,5.891,14.0
51.959,-1.146,5.591,33.0
0.0,0.0,0.0,0.0
44.779,-0.971,5.83,8.0
24.773,-0.532,3.083,43.0
24.798,-0.527,2.942,27.0
59.525,-1.255,6.723,16.0
44.561,-0.93,4.779,8.0
0.0,0.0,0.0,0.0
24.749,-0.507,3.213,17.0
24.76,-0.503,3.072,73.0
40.428,-0.813,4.781,14.0
51.462,-1.024,5.792,8.0
44.451,-0.876,4.75,8.0
24.748,-0.483,3.345,12.0
24.755,-0.478,3.203,78.0
24.773,-0.474,3.064,23.0
0.0,0.0,0.0,0.0
44.004,-0.825,4.934,5.0
31.72,-0.588,3.376,19.0
24.758,-0.454,3.335,55.0
24.764,-0.449,3.193,40.0
37.541,-0.674,4.625,15.0
43.921,-0.78,5.155,18.0
44.169,-0.776,4.931,18.0
31.715,-0.55,3.359,34.0
24.756,-0.425,3.322,61.0
41.22,-0.7,5.295,16.0
40.641,-0.682,4.986,0.0
37.536,-0.622,4.386,39.0
37.601,-0.617,4.178,34.0
31.762,-0.515,3.348,26.0
24.755,-0.396,3.309,8.0
37.735,-0.597,4.826,22.0
37.68,-0.588,4.602,61.0
37.594,-0.58,4.371,18.0
37.605,-0.573,4.157,40.0
37.644,-0.567,3.946,46.0
37.766,-0.561,5.026,62.0
40.683,-0.596,5.179,4.0
0.0,0.0,0.0,0.0
37.547,-0.536,4.343,30.0
31.847,-0.448,3.501,4.0
37.664,-0.523,3.924,19.0
44.696,-0.611,5.92,3.0
44.566,-0.602,5.644,14.0
46.603,-0.621,5.633,6.0
53.832,-0.706,6.192,28.0
54.225,-0.702,5.925,12.0
54.216,-0.692,5.613,34.0
40.625,-0.509,5.352,7.0
36.189,-0.447,4.559,2.0
46.525,-0.567,5.592,8.0
40.243,-0.483,4.6,6.0
31.851,-0.376,3.458,64.0
40.972,-0.477,4.213,3.0
40.636,-0.464,5.325,0.0
34.142,-0.384,4.276,1.0
0.0,0.0,0.0,0.0
52.583,-0.572,5.972,16.0
31.849,-0.341,3.434,39.0
43.387,-0.457,4.429,2.0
0.0,0.0,0.0,0.0
37.518,-0.38,4.669,3.0
36.228,-0.36,4.299,12.0
31.811,-0.311,3.588,34.0
47.396,-0.455,5.073,41.0
52.02,-0.491,5.268,42.0
36.31,-0.333,4.7,5.0
47.749,-0.43,5.904,16.0
47.557,-0.421,5.604,10.0
31.819,-0.276,3.562,49.0
52.216,-0.445,5.545,7.0
47.044,-0.393,4.725,40.0
37.485,-0.303,4.82,8.0
47.292,-0.375,5.807,20.0
46.991,-0.365,5.497,21.0
31.816,-0.242,3.535,45.0
38.927,-0.289,4.1,58.0
38.883,-0.283,3.871,59.0
37.557,-0.263,4.796,16.0
36.719,-0.251,4.475,3.0
38.752,-0.259,4.498,6.0
39.014,-0.255,4.298,16.0
38.956,-0.248,4.067,45.0
38.882,-0.241,3.835,44.0
38.659,-0.23,4.9,11.0
38.668,-0.224,4.676,22.0
31.901,-0.179,3.672,51.0
39.066,-0.214,4.266,48.0
46.005,-0.245,4.758,4.0
31.029,-0.16,3.03,18.0
0.0,0.0,0.0,0.0
39.205,-0.186,4.702,23.0
39.121,-0.179,4.464,19.0
42.799,-0.19,4.631,7.0
51.273,-0.219,5.252,53.0
31.003,-0.128,2.996,42.0
39.215,-0.151,4.89,8.0
31.951,-0.118,3.798,70.0
51.23,-0.182,5.793,14.0
42.761,-0.146,4.583,5.0
52.235,-0.171,5.295,12.0
31.02,-0.097,2.966,35.0
31.956,-0.091,3.951,76.0
31.933,-0.086,3.762,36.0
52.022,-0.134,5.826,10.0
52.268,-0.126,5.545,4.0
30.946,-0.07,3.104,25.0
31.081,-0.066,2.937,1.0
31.961,-0.059,3.916,31.0
57.764,-0.099,6.741,10.0
42.572,-0.067,4.72,5.0
46.049,-0.066,4.833,6.0
30.936,-0.04,3.068,38.0
52.353,-0.061,4.889,7.0
39.627,-0.034,4.81,6.0
36.5,-0.027,4.217,7.0
42.58,-0.026,4.672,7.0
30.782,-0.015,3.195,19.0
30.954,-0.01,3.034,20.0
44.85,-0.009,4.136,1.0
39.644,0.002,4.765,5.0
36.427,0.006,4.165,16.0
36.001,0.011,3.907,1.0
30.798,0.013,3.16,25.0
44.779,0.025,4.335,5.0
51.168,0.036,4.657,6.0
39.596,0.039,4.711,3.0
30.503,0.034,3.451,4.0
30.683,0.038,3.292,33.0
30.825,0.042,3.125,33.0
51.767,0.076,4.947,5.0
51.115,0.082,4.589,5.0
39.623,0.075,4.664,3.0
30.567,0.061,3.419,29.0
30.724,0.065,3.257,58.0
30.938,0.069,3.097,37.0
51.985,0.123,4.902,4.0
53.784,0.134,4.759,8.0
30.472,0.085,3.547,19.0
30.592,0.088,3.382,45.0
30.75,0.092,3.22,34.0
30.966,0.096,3.059,23.0
45.569,0.147,4.237,19.0
53.728,0.179,4.684,7.0
30.449,0.111,3.504,40.0
30.608,0.114,3.343,20.0
36.355,0.14,3.758,2.0
52.325,0.207,5.099,3.0
45.765,0.186,4.194,14.0
45.256,0.189,3.884,29.0
30.5,0.136,3.467,40.0
42.612,0.195,4.595,1.0
30.947,0.145,3.156,31.0
60.641,0.291,5.825,12.0
53.708,0.263,4.846,46.0
45.649,0.228,3.854,51.0
30.548,0.162,3.429,17.0
47.633,0.257,5.068,2.0
30.939,0.17,3.111,37.0
53.678,0.3,5.08,50.0
40.397,0.23,3.588,17.0
45.448,0.262,3.772,28.0
42.553,0.258,4.716,1.0
30.939,0.191,3.247,1.0
30.962,0.194,3.069,5.0
42.239,0.268,3.936,4.0
45.721,0.295,3.994,29.0
45.427,0.297,3.704,73.0
37.122,0.254,4.058,8.0
30.963,0.214,3.204,56.0
50.752,0.355,4.955,15.0
45.681,0.324,4.188,40.0
45.044,0.323,3.868,19.0
45.448,0.33,3.639,10.0
37.019,0.28,3.992,8.0
53.708,0.41,5.477,19.0
45.809,0.354,4.403,25.0
45.808,0.357,4.131,1.0
45.13,0.356,3.807,62.0
43.575,0.347,3.422,6.0
30.948,0.255,3.289,17.0
53.568,0.447,5.379,17.0
45.839,0.385,4.335,3.0
40.413,0.343,3.582,38.0
52.632,0.451,4.358,15.0
58.387,0.505,4.495,35.0
30.943,0.276,3.24,47.0
45.89,0.413,4.536,16.0
53.978,0.49,5.02,8.0
40.432,0.369,3.52,24.0
52.584,0.484,4.271,20.0
58.653,0.545,4.422,19.0
45.986,0.44,4.741,31.0
40.325,0.388,3.921,13.0
44.703,0.434,4.085,1.0
58.083,0.567,4.963,6.0
58.257,0.573,4.637,25.0
67.231,0.666,4.96,18.0
52.693,0.536,5.346,4.0
40.33,0.413,3.855,47.0
40.405,0.416,3.626,13.0
58.447,0.605,4.897,32.0
43.381,0.452,3.382,2.0
101.016,1.059,7.287,7.0
36.328,0.39,3.625,4.0
40.336,0.436,3.789,55.0
40.395,0.439,3.558,29.0
58.454,0.638,4.801,6.0
67.183,0.737,5.125,20.0
46.361,0.511,3.267,12.0
52.564,0.594,5.157,10.0
40.423,0.459,3.729,15.0
52.379,0.597,4.525,23.0
52.582,0.602,4.23,8.0
67.44,0.776,5.032,7.0
46.339,0.535,3.187,60.0
40.316,0.476,3.886,55.0
40.489,0.48,3.665,10.0
44.233,0.526,3.745,6.0
67.123,0.802,5.284,13.0
46.39,0.556,3.381,12.0
59.691,0.718,4.003,27.0
40.321,0.495,3.817,60.0
40.406,0.498,3.587,13.0
52.468,0.649,4.352,34.0
67.23,0.834,5.176,4.0
46.372,0.577,3.299,71.0
59.717,0.746,3.902,17.0
40.414,0.514,3.754,35.0
40.398,0.515,3.516,7.0
52.528,0.672,4.264,11.0
67.763,0.87,5.097,6.0
59.57,0.767,4.133,28.0
101.571,1.311,6.454,5.0
40.54,0.533,3.693,33.0
52.448,0.691,4.47,24.0
43.263,0.571,3.433,5.0
46.373,0.613,3.405,53.0
59.783,0.793,4.041,43.0
67.514,0.897,4.17,19.0
40.427,0.546,3.609,34.0
52.14,0.706,4.349,3.0
68.414,0.928,5.307,11.0
59.297,0.806,4.246,17.0
59.805,0.814,3.933,2.0
67.468,0.92,4.045,29.0
52.433,0.726,4.586,23.0
43.206,0.599,3.525,4.0
46.435,0.645,3.517,51.0
59.64,0.83,4.162,36.0
101.922,1.42,6.516,11.0
67.461,0.941,3.919,6.0
52.343,0.741,4.48,10.0
52.956,0.751,4.222,8.0
46.406,0.658,3.428,58.0
59.785,0.849,4.061,27.0
67.505,0.96,4.191,25.0
66.155,0.941,3.721,27.0
67.112,0.969,5.62,15.0
46.43,0.67,3.615,50.0
59.317,0.857,4.271,17.0
101.429,1.466,6.699,14.0
67.483,0.976,4.063,22.0
66.175,0.958,3.598,4.0
43.176,0.633,3.533,6.0
46.424,0.681,3.526,76.0
59.761,0.877,4.19,34.0
67.528,0.991,4.333,7.0
69.274,1.017,4.041,3.0
110.398,1.621,5.794,9.0
46.419,0.69,3.709,40.0
46.423,0.69,3.437,34.0
59.825,0.889,4.08,4.0
67.504,1.003,4.201,45.0
66.172,0.983,3.732,31.0
140.736,2.09,7.116,4.0
46.428,0.697,3.621,85.0
59.399,0.892,4.284,28.0
68.511,1.028,4.541,5.0
67.522,1.013,4.073,18.0
69.589,1.043,3.792,3.0
110.315,1.653,5.369,7.0
46.44,0.703,3.532,39.0
59.85,0.906,4.201,37.0
67.541,1.021,4.346,23.0
66.218,1.0,3.867,19.0
108.82,1.643,5.718,2.0
69.364,1.046,3.24,3.0
46.437,0.707,3.441,8.0
101.694,1.547,6.939,11.0
67.519,1.026,4.211,48.0
66.182,1.004,3.734,33.0
111.025,1.683,5.615,4.0
103.937,1.574,4.65,16.0
59.51,0.909,4.292,34.0
68.684,1.047,4.551,2.0
67.52,1.029,4.079,13.0
69.631,1.059,3.791,2.0
110.387,1.676,5.366,9.0
103.219,1.565,4.416,21.0
59.883,0.915,4.2,36.0
67.547,1.03,4.342,32.0
66.204,1.008,3.868,20.0
110.419,1.679,5.796,4.0
69.35,1.052,3.234,2.0
117.725,1.783,4.804,21.0
101.708,1.553,6.931,10.0
67.512,1.028,4.205,43.0
66.194,1.005,3.736,33.0
111.065,1.684,5.609,2.0
103.933,1.572,4.641,18.0
118.581,1.789,4.602,19.0
67.823,1.031,4.487,5.0
67.529,1.023,4.071,10.0
101.868,1.54,5.545,5.0
110.367,1.664,5.351,10.0
103.251,1.553,4.403,22.0
118.535,1.778,4.363,19.0
67.54,1.019,4.331,29.0
66.221,0.996,3.859,24.0
110.53,1.658,5.796,6.0
69.332,1.037,3.222,6.0
102.998,1.536,4.187,16.0
125.27,1.862,4.359,8.0
67.524,1.009,4.194,58.0
66.193,0.986,3.723,27.0
140.68,2.089,7.092,6.0
103.944,1.538,4.622,18.0
118.541,1.748,4.581,22.0
125.024,1.837,4.101,32.0
67.52,0.997,4.057,11.0
101.933,1.499,5.529,5.0
69.369,1.017,3.357,3.0
103.838,1.516,4.408,13.0
118.475,1.723,4.338,36.0
157.648,2.284,4.853,21.0
66.182,0.963,3.843,8.0
110.313,1.598,5.762,8.0
69.346,1.0,3.216,12.0
103.005,1.479,4.165,16.0
118.406,1.693,4.096,19.0
157.291,2.241,4.524,18.0
66.137,0.945,3.706,20.0
110.42,1.57,5.542,7.0
103.938,1.472,4.609,6.0
102.984,1.451,3.955,22.0
125.072,1.754,4.073,28.0
157.141,2.193,4.199,20.0
102.055,1.428,5.511,11.0
69.32,0.965,3.338,15.0
103.9,1.439,4.396,34.0
102.969,1.418,3.744,15.0
125.075,1.714,3.817,20.0
20.276,0.276,0.5,2.0
69.271,0.946,3.599,2.0
110.381,1.499,5.089,12.0
103.922,1.403,4.184,13.0
118.336,1.588,4.06,23.0
20.315,0.271,0.578,0.0
20.287,0.269,0.459,10.0
69.332,0.921,3.46,5.0
111.763,1.476,4.926,2.0
117.808,1.545,4.503,26.0
118.184,1.54,3.815,12.0
20.274,0.262,0.536,15.0
20.293,0.261,0.418,22.0
124.855,1.607,5.977,8.0
103.899,1.328,4.366,6.0
117.86,1.496,4.265,21.0
125.075,1.577,3.782,19.0
20.288,0.254,0.495,25.0
20.279,0.252,0.376,22.0
110.303,1.37,5.054,17.0
103.973,1.281,4.156,34.0
133.343,1.631,4.551,6.0
20.259,0.245,0.571,18.0
20.27,0.244,0.453,25.0
20.289,0.242,0.335,24.0
124.937,1.491,5.471,23.0
103.981,1.23,3.946,25.0
140.226,1.645,4.501,21.0
20.275,0.236,0.53,25.0
20.271,0.233,0.412,28.0
20.283,0.232,0.294,23.0
126.642,1.445,5.289,12.0
103.455,1.169,3.716,15.0
20.258,0.226,0.609,10.0
20.26,0.224,0.489,26.0
20.267,0.222,0.371,35.0
20.283,0.22,0.253,26.0
132.529,1.436,5.263,19.0
117.954,1.266,3.997,24.0
20.25,0.215,0.567,19.0
20.261,0.213,0.448,31.0
20.278,0.21,0.33,32.0
20.294,0.208,0.212,26.0
103.985,1.064,3.918,18.0
20.304,0.205,0.646,2.0
20.269,0.202,0.527,29.0
20.267,0.2,0.407,31.0
20.283,0.198,0.289,26.0
20.305,0.196,0.171,29.0
103.849,0.996,3.703,29.0
20.268,0.192,0.604,15.0
20.268,0.189,0.486,29.0
20.28,0.187,0.366,30.0
20.293,0.185,0.248,27.0
20.307,0.182,0.13,28.0
103.777,0.926,3.493,45.0
20.247,0.178,0.563,19.0
20.259,0.175,0.445,27.0
20.257,0.173,0.325,26.0
20.271,0.17,0.207,23.0
20.271,0.168,0.089,27.0
20.281,0.166,0.641,6.0
20.2,0.163,0.521,18.0
20.191,0.16,0.403,22.0
20.181,0.157,0.283,22.0
20.189,0.155,0.166,24.0
20.211,0.152,0.048,25.0
20.197,0.15,0.598,13.0
20.165,0.147,0.48,20.0
20.16,0.144,0.362,24.0
20.16,0.142,0.243,22.0
20.179,0.139,0.125,27.0
20.192,0.136,0.008,25.0
20.18,0.134,0.558,18.0
20.171,0.131,0.44,25.0
20.169,0.128,0.323,26.0
20.159,0.125,0.203,24.0
20.194,0.123,0.085,31.0
20.176,0.12,-0.031,30.0
20.173,0.117,0.518,22.0
20.162,0.114,0.4,28.0
20.164,0.111,0.282,27.0
20.159,0.108,0.163,25.0
20.185,0.105,0.045,36.0
20.194,0.103,-0.071,33.0
20.155,0.1,0.477,28.0
20.161,0.097,0.36,28.0
20.156,0.094,0.243,27.0
20.155,0.091,0.123,24.0
20.195,0.088,0.006,27.0
20.177,0.085,-0.111,30.0
20.157,0.082,0.438,30.0
20.145,0.078,0.32,26.0
20.155,0.075,0.203,28.0
20.188,0.072,0.084,29.0
20.215,0.069,-0.033,34.0
20.211,0.066,-0.15,26.0
20.141,0.063,0.398,28.0
20.148,0.06,0.281,26.0
20.151,0.057,0.164,27.0
20.224,0.053,0.045,24.0
20.204,0.05,-0.071,19.0
20.216,0.047,-0.189,15.0
20.137,0.044,0.36,29.0
20.133,0.04,0.243,28.0
20.139,0.037,0.126,28.0
20.261,0.034,0.007,81.0
20.264,0.03,-0.11,150.0
20.251,0.027,-0.228,151.0
20.141,0.023,0.321,29.0
20.13,0.02,0.204,27.0
20.153,0.016,0.087,29.0
20.249,0.013,-0.031,151.0
20.259,0.01,-0.149,151.0
20.272,0.006,-0.267,76.0
20.127,0.002,0.283,27.0
20.132,0.0,0.166,27.0
20.18,-0.003,0.049,18.0
20.196,-0.007,-0.069,17.0
20.199,-0.011,-0.187,5.0
20.194,-0.014,-0.304,1.0
20.12,-0.018,0.245,28.0
20.13,-0.022,0.128,35.0
20.135,-0.025,0.011,30.0
20.15,-0.029,-0.107,29.0
20.142,-0.033,-0.224,11.0
20.166,-0.036,-0.341,9.0
20.121,-0.04,0.208,36.0
20.137,-0.044,0.091,41.0
20.123,-0.048,-0.025,32.0
20.148,-0.051,-0.144,34.0
20.152,-0.055,-0.261,27.0
20.179,-0.059,-0.378,21.0
20.12,-0.063,0.171,29.0
20.125,-0.066,0.055,37.0
20.138,-0.07,-0.061,31.0
20.147,-0.074,-0.18,29.0
20.146,-0.078,-0.297,32.0
20.17,-0.082,-0.415,30.0
20.126,-0.086,0.135,29.0
20.13,-0.09,0.018,33.0
20.149,-0.094,-0.097,27.0
20.132,-0.098,-0.216,26.0
20.141,-0.102,-0.333,35.0
20.163,-0.106,-0.451,34.0
20.143,-0.11,0.099,35.0
20.156,-0.114,-0.017,26.0
20.158,-0.118,-0.133,26.0
20.14,-0.122,-0.252,32.0
20.153,-0.126,-0.369,36.0
20.18,-0.13,-0.487,28.0
20.158,-0.134,0.064,26.0
20.167,-0.139,-0.052,20.0
20.141,-0.143,-0.169,15.0
20.151,-0.147,-0.288,28.0
20.163,-0.151,-0.405,33.0
20.172,-0.156,-0.522,38.0
20.208,-0.16,0.029,1.0
20.19,-0.164,-0.087,6.0
20.139,-0.168,-0.204,9.0
20.169,-0.173,-0.323,23.0
20.188,-0.177,-0.44,27.0
20.182,-0.181,-0.557,38.0
56.213,-0.518,-0.014,8.0
56.571,-0.534,-0.342,1.0
45.004,-0.434,-0.532,28.0
37.884,-0.373,-0.671,10.0
20.19,-0.203,-0.474,25.0
20.194,-0.207,-0.592,36.0
56.214,-0.591,-0.109,8.0
58.876,-0.632,-0.454,6.0
44.847,-0.491,-0.606,17.0
35.943,-0.401,-0.697,3.0
20.196,-0.23,-0.509,9.0
20.211,-0.235,-0.626,31.0
56.208,-0.666,-0.202,1.0
52.791,-0.637,-0.495,8.0
38.666,-0.475,-0.587,14.0
31.896,-0.399,-0.672,18.0
28.802,-0.367,-0.773,1.0
20.227,-0.262,-0.66,20.0
56.602,-0.748,-0.296,10.0
45.185,-0.607,-0.498,18.0
37.959,-0.519,-0.638,26.0
30.863,-0.429,-0.7,27.0
27.527,-0.388,-0.783,2.0
27.02,-0.388,-0.926,0.0
59.249,-0.865,-0.406,3.0
44.874,-0.665,-0.566,30.0
36.02,-0.542,-0.663,2.0
30.128,-0.461,-0.732,21.0
26.37,-0.409,-0.793,2.0
25.837,-0.407,-0.926,0.0
52.884,-0.846,-0.445,23.0
38.71,-0.629,-0.55,14.0
31.434,-0.518,-0.628,9.0
28.927,-0.484,-0.748,5.0
25.319,-0.429,-0.801,3.0
24.63,-0.424,-0.922,0.0
45.433,-0.792,-0.453,18.0
38.11,-0.674,-0.6,20.0
30.798,-0.552,-0.663,30.0
27.709,-0.503,-0.759,2.0
24.052,-0.443,-0.798,1.0
23.597,-0.44,-0.919,0.0
44.984,-0.85,-0.517,37.0
37.814,-0.724,-0.653,13.0
30.479,-0.591,-0.702,26.0
26.904,-0.528,-0.777,1.0
22.902,-0.455,-0.794,2.0
22.566,-0.454,-0.912,1.0
38.382,-0.781,-0.497,9.0
31.457,-0.648,-0.589,9.0
0.0,0.0,0.0,0.0
25.111,-0.53,-0.762,1.0
21.986,-0.469,-0.794,2.0
21.631,-0.467,-0.907,0.0
38.332,-0.837,-0.553,23.0
30.996,-0.685,-0.625,30.0
28.277,-0.632,-0.733,6.0
23.806,-0.538,-0.757,12.0
21.213,-0.485,-0.797,1.0
20.803,-0.481,-0.902,1.0
38.038,-0.889,-0.602,25.0
30.584,-0.722,-0.66,32.0
27.57,-0.658,-0.754,0.0
23.654,-0.571,-0.785,10.0
20.588,-0.502,-0.802,1.0
20.116,-0.496,-0.9,1.0
37.844,-0.943,-0.652,7.0
30.451,-0.766,-0.7,28.0
25.029,-0.637,-0.719,6.0
22.614,-0.581,-0.782,1.0
19.901,-0.517,-0.803,0.0
19.477,-0.511,-0.898,1.0
31.233,-0.827,-0.581,27.0
30.139,-0.805,-0.733,8.0
24.409,-0.659,-0.734,25.0
22.174,-0.605,-0.797,0.0
19.259,-0.53,-0.803,0.0
18.797,-0.523,-0.892,1.0
30.804,-0.864,-0.613,34.0
28.303,-0.801,-0.726,1.0
23.803,-0.68,-0.747,18.0
20.945,-0.604,-0.78,2.0
18.751,-0.546,-0.806,0.0
18.171,-0.534,-0.886,0.0
30.564,-0.906,-0.648,39.0
27.559,-0.824,-0.742,1.0
23.713,-0.715,-0.775,7.0
20.405,-0.621,-0.786,3.0
18.165,-0.558,-0.804,0.0
17.565,-0.545,-0.879,0.0
30.482,-0.952,-0.684,31.0
25.245,-0.795,-0.711,6.0
22.724,-0.722,-0.771,1.0
19.726,-0.632,-0.784,6.0
17.839,-0.577,-0.812,0.0
17.067,-0.557,-0.875,0.0
30.382,-0.998,-0.719,12.0
24.427,-0.809,-0.718,20.0
22.281,-0.744,-0.782,4.0
19.216,-0.647,-0.787,1.0
17.488,-0.594,-0.817,0.0
16.553,-0.567,-0.868,0.0
28.632,-0.988,-0.711,1.0
23.879,-0.83,-0.729,19.0
21.44,-0.752,-0.778,0.0
18.733,-0.662,-0.789,3.0
17.017,-0.607,-0.815,0.0
16.184,-0.582,-0.868,1.0
27.72,-1.002,-0.72,1.0
23.778,-0.866,-0.754,15.0
20.753,-0.762,-0.777,1.0
18.417,-0.682,-0.797,1.0
31.332,-1.169,-1.536,0.0
16.002,-0.602,-0.876,1.0
24.98,-0.945,-0.677,1.0
23.555,-0.898,-0.773,5.0
20.485,-0.786,-0.789,3.0
18.024,-0.697,-0.799,0.0
16.317,-0.636,-0.817,0.0
15.904,-0.625,-0.888,1.0
24.924,-0.984,-0.702,12.0
22.485,-0.895,-0.762,2.0
19.931,-0.799,-0.789,0.0
17.65,-0.713,-0.801,0.0
16.161,-0.657,-0.826,1.0
15.8,-0.648,-0.899,1.0
24.251,-0.999,-0.708,20.0
21.947,-0.91,-0.766,1.0
19.419,-0.811,-0.789,0.0
17.178,-0.723,-0.797,1.0
15.953,-0.676,-0.832,0.0
15.694,-0.67,-0.908,1.0
23.916,-1.026,-0.722,21.0
21.652,-0.935,-0.777,1.0
19.023,-0.827,-0.791,0.0
16.932,-0.741,-0.803,1.0
15.723,-0.693,-0.835,0.0
15.594,-0.692,-0.918,0.0
23.798,-1.061,-0.741,15.0
21.057,-0.945,-0.775,0.0
18.555,-0.838,-0.789,0.0
16.671,-0.758,-0.806,1.0
15.596,-0.714,-0.843,0.0
15.489,-0.714,-0.926,0.0
23.632,-1.094,-0.757,7.0
20.638,-0.962,-0.779,0.0
18.268,-0.857,-0.793,0.0
16.339,-0.771,-0.804,1.0
15.468,-0.735,-0.85,1.0
15.41,-0.737,-0.935,0.0
23.183,-1.113,-0.763,5.0
20.123,-0.972,-0.777,0.0
18.144,-0.882,-0.804,0.0
16.253,-0.795,-0.814,2.0
15.363,-0.757,-0.857,1.0
15.309,-0.759,-0.942,1.0
22.334,-1.111,-0.754,3.0
19.844,-0.993,-0.782,0.0
17.627,-0.887,-0.795,0.0
16.086,-0.815,-0.819,0.0
15.264,-0.778,-0.864,1.0
15.241,-0.782,-0.95,0.0
22.051,-1.135,-0.761,1.0
19.442,-1.006,-0.782,0.0
17.409,-0.906,-0.799,0.0
15.903,-0.833,-0.822,0.0
15.18,-0.8,-0.871,0.0
15.094,-0.8,-0.952,1.0
21.581,-1.148,-0.761,1.0
19.084,-1.021,-0.782,0.0
17.056,-0.918,-0.795,0.0
15.758,-0.853,-0.826,1.0
15.091,-0.822,-0.877,0.0
14.937,-0.818,-0.953,2.0
21.183,-1.164,-0.763,2.0
18.751,-1.036,-0.781,0.0
16.773,-0.932,-0.794,0.0
15.634,-0.874,-0.831,1.0
15.004,-0.843,-0.882,1.0
14.877,-0.841,-0.959,3.0
20.902,-1.184,-0.766,3.0
18.53,-1.056,-0.784,1.0
16.632,-0.953,-0.798,0.0
15.506,-0.893,-0.834,1.0
14.943,-0.866,-0.888,1.0
14.89,-0.868,-0.97,1.0
20.596,-1.203,-0.768,3.0
18.351,-1.078,-0.788,1.0
16.371,-0.967,-0.796,1.0
15.4,-0.914,-0.838,0.0
14.866,-0.887,-0.893,1.0
14.816,-0.889,-0.974,1.0
20.357,-1.224,-0.771,1.0
18.121,-1.096,-0.789,0.0
16.278,-0.989,-0.801,1.0
15.285,-0.934,-0.84,1.0
14.81,-0.91,-0.898,1.0
14.769,-0.912,-0.979,0.0
19.932,-1.233,-0.766,1.0
18.013,-1.12,-0.794,1.0
16.202,-1.013,-0.806,1.0
15.216,-0.956,-0.844,0.0
14.741,-0.931,-0.902,1.0
14.708,-0.934,-0.983,0.0
19.778,-1.258,-0.77,0.0
17.788,-1.137,-0.793,1.0
16.158,-1.037,-0.811,0.0
15.087,-0.974,-0.844,0.0
14.677,-0.952,-0.904,1.0
14.609,-0.952,-0.983,0.0
19.545,-1.276,-0.77,0.0
17.5,-1.148,-0.788,0.0
16.028,-1.057,-0.812,1.0
15.022,-0.995,-0.848,0.0
14.619,-0.974,-0.907,1.0
14.479,-0.969,-0.981,0.0
19.411,-1.301,-0.773,1.0
17.279,-1.163,-0.785,0.0
15.896,-1.075,-0.812,1.0
14.923,-1.015,-0.848,0.0
14.581,-0.996,-0.911,1.0
14.299,-0.982,-0.974,0.0
19.276,-1.325,-0.775,1.0
17.181,-1.186,-0.787,1.0
15.786,-1.095,-0.812,1.0
14.798,-1.031,-0.846,0.0
14.494,-1.015,-0.911,1.0
14.221,-1.001,-0.974,0.0
19.152,-1.349,-0.776,0.0
17.105,-1.21,-0.789,1.0
15.725,-1.118,-0.814,1.0
14.762,-1.054,-0.849,1.0
14.439,-1.036,-0.912,1.0
14.243,-1.026,-0.98,0.0
18.982,-1.369,-0.775,1.0
17.117,-1.24,-0.795,2.0
15.682,-1.141,-0.816,1.0
14.673,-1.072,-0.848,0.0
14.385,-1.056,-0.912,1.0
14.208,-1.048,-0.981,0.0
18.869,-1.393,-0.775,1.0
17.108,-1.268,-0.799,4.0
15.646,-1.165,-0.818,1.0
14.621,-1.093,-0.848,0.0
14.335,-1.077,-0.912,1.0
14.112,-1.065,-0.978,0.0
18.621,-1.405,-0.769,1.0
16.886,-1.28,-0.792,2.0
15.595,-1.187,-0.819,1.0
14.596,-1.116,-0.85,1.0
14.262,-1.095,-0.91,1.0
14.144,-1.091,-0.983,0.0
18.58,-1.433,-0.771,1.0
16.76,-1.298,-0.789,1.0
15.557,-1.21,-0.819,1.0
14.517,-1.134,-0.847,0.0
14.215,-1.115,-0.91,1.0
14.128,-1.113,-0.983,0.0
18.499,-1.457,-0.77,1.0
16.75,-1.325,-0.791,1.0
15.524,-1.233,-0.82,1.0
14.497,-1.156,-0.848,0.0
14.179,-1.135,-0.909,1.0
14.098,-1.134,-0.983,0.0
18.52,-1.489,-0.773,1.0
16.659,-1.345,-0.788,1.0
15.497,-1.256,-0.819,1.0
14.476,-1.178,-0.848,0.0
14.121,-1.153,-0.906,1.0
14.103,-1.157,-0.984,0.0
18.499,-1.517,-0.773,1.0
16.627,-1.369,-0.787,1.0
15.49,-1.28,-0.82,1.0
14.446,-1.198,-0.847,0.0
14.078,-1.172,-0.904,1.0
14.057,-1.175,-0.981,1.0
18.479,-1.545,-0.772,1.0
16.629,-1.395,-0.787,1.0
15.457,-1.302,-0.818,1.0
14.417,-1.219,-0.845,0.0
14.051,-1.193,-0.902,1.0
14.019,-1.195,-0.978,1.0
18.489,-1.576,-0.772,1.0
16.638,-1.423,-0.787,1.0
15.437,-1.325,-0.816,1.0
14.415,-1.242,-0.844,1.0
13.994,-1.21,-0.898,1.0
13.995,-1.215,-0.976,1.0
18.529,-1.608,-0.773,1.0
16.557,-1.442,-0.782,0.0
15.452,-1.35,-0.816,1.0
14.452,-1.268,-0.845,1.0
13.957,-1.229,-0.894,1.0
13.939,-1.232,-0.97,1.0
18.46,-1.631,-0.768,1.0
16.626,-1.473,-0.784,0.0
15.439,-1.373,-0.813,1.0
14.534,-1.297,-0.848,1.0
13.917,-1.246,-0.889,1.0
13.906,-1.25,-0.966,1.0
18.576,-1.669,-0.77,1.0
16.706,-1.506,-0.785,0.0
15.479,-1.4,-0.813,1.0
14.467,-1.313,-0.842,1.0
13.881,-1.265,-0.885,1.0
13.861,-1.267,-0.961,1.0
18.697,-1.709,-0.771,1.0
16.725,-1.533,-0.783,0.0
15.487,-1.424,-0.811,1.0
14.455,-1.334,-0.838,1.0
13.839,-1.281,-0.879,1.0
13.831,-1.285,-0.956,1.0
18.735,-1.74,-0.769,1.0
16.761,-1.561,-0.78,0.0
15.522,-1.451,-0.809,1.0
14.48,-1.358,-0.836,1.0
13.808,-1.299,-0.874,1.0
13.782,-1.301,-0.949,1.0
18.818,-1.775,-0.768,1.0
16.882,-1.597,-0.782,0.0
15.581,-1.479,-0.808,1.0
14.514,-1.382,-0.834,0.0
13.773,-1.315,-0.868,1.0
13.762,-1.319,-0.943,1.0
18.949,-1.815,-0.767,1.0
16.929,-1.626,-0.779,1.0
15.651,-1.508,-0.806,0.0
14.577,-1.409,-0.833,0.0
13.759,-1.334,-0.862,1.0
13.722,-1.335,-0.936,1.0
19.028,-1.849,-0.764,1.0
17.041,-1.661,-0.778,0.0
15.671,-1.532,-0.802,1.0
14.622,-1.434,-0.83,0.0
13.736,-1.351,-0.856,1.0
13.7,-1.352,-0.93,1.0
19.214,-1.894,-0.765,1.0
17.07,-1.687,-0.773,0.0
15.752,-1.562,-0.8,1.0
14.748,-1.466,-0.832,0.0
13.771,-1.373,-0.853,0.0
13.673,-1.367,-0.922,1.0
19.331,-1.932,-0.761,2.0
17.221,-1.726,-0.773,0.0
15.846,-1.592,-0.798,1.0
14.831,-1.495,-0.83,1.0
13.842,-1.399,-0.851,0.0
13.625,-1.381,-0.913,1.0
19.462,-1.971,-0.758,2.0
17.353,-1.762,-0.771,0.0
15.952,-1.624,-0.796,1.0
14.923,-1.523,-0.829,1.0
13.925,-1.425,-0.85,0.0
13.6,-1.396,-0.905,1.0
19.683,-2.019,-0.757,1.0
17.651,-1.815,-0.776,0.0
16.031,-1.653,-0.793,1.0
14.983,-1.549,-0.825,1.0
13.994,-1.451,-0.847,0.0
13.587,-1.412,-0.897,1.0
19.844,-2.061,-0.753,2.0
17.852,-1.859,-0.775,1.0
16.162,-1.687,-0.791,1.0
15.076,-1.578,-0.822,1.0
14.075,-1.477,-0.845,1.0
13.553,-1.426,-0.888,1.0
20.028,-2.105,-0.749,2.0
17.94,-1.89,-0.769,1.0
16.275,-1.719,-0.787,1.0
15.149,-1.604,-0.817,2.0
14.176,-1.505,-0.843,1.0
13.534,-1.44,-0.879,2.0
20.261,-2.154,-0.746,2.0
18.139,-1.933,-0.768,1.0
16.391,-1.751,-0.783,1.0
15.243,-1.632,-0.813,1.0
14.281,-1.533,-0.84,1.0
13.502,-1.453,-0.868,1.0
20.558,-2.21,-0.745,3.0
18.218,-1.963,-0.76,1.0
16.56,-1.788,-0.781,1.0
15.331,-1.66,-0.808,1.0
14.356,-1.558,-0.836,0.0
13.52,-1.47,-0.861,1.0
20.754,-2.255,-0.739,3.0
18.593,-2.025,-0.763,1.0
16.818,-1.835,-0.782,1.0
15.428,-1.688,-0.803,1.0
14.447,-1.584,-0.831,1.0
13.554,-1.489,-0.854,0.0
20.979,-2.303,-0.733,3.0
18.803,-2.068,-0.759,1.0
16.947,-1.868,-0.777,1.0
15.563,-1.719,-0.8,0.0
14.566,-1.613,-0.828,0.0
13.686,-1.519,-0.853,0.0
21.225,-2.353,-0.727,3.0
19.071,-2.118,-0.757,1.0
17.125,-1.906,-0.773,1.0
15.749,-1.757,-0.798,1.0
14.733,-1.647,-0.827,1.0
13.821,-1.548,-0.851,0.0
21.745,-2.433,-0.729,4.0
19.32,-2.166,-0.752,1.0
17.437,-1.959,-0.774,1.0
15.938,-1.794,-0.796,1.0
14.851,-1.675,-0.823,1.0
13.923,-1.573,-0.847,1.0
22.039,-2.488,-0.722,4.0
19.63,-2.22,-0.75,1.0
17.576,-1.991,-0.767,0.0
16.093,-1.827,-0.791,1.0
15.018,-1.708,-0.82,1.0
14.027,-1.599,-0.843,1.0
22.413,-2.552,-0.717,4.0
19.991,-2.28,-0.748,1.0
17.895,-2.045,-0.767,0.0
16.258,-1.861,-0.787,1.0
15.14,-1.736,-0.815,1.0
14.155,-1.627,-0.839,1.0
22.79,-2.616,-0.711,5.0
20.34,-2.339,-0.745,1.0
18.107,-2.086,-0.761,0.0
16.414,-1.894,-0.781,0.0
15.257,-1.764,-0.809,0.0
14.293,-1.655,-0.835,0.0
23.181,-2.682,-0.704,5.0
20.646,-2.392,-0.738,2.0
18.601,-2.159,-0.766,1.0
16.719,-1.944,-0.781,1.0
15.434,-1.797,-0.805,1.0
14.427,-1.683,-0.831,0.0
23.691,-2.761,-0.699,5.0
21.025,-2.454,-0.734,3.0
18.84,-2.202,-0.76,1.0
16.936,-1.983,-0.776,1.0
15.564,-1.825,-0.798,1.0
14.616,-1.717,-0.829,0.0
24.24,-2.845,-0.694,2.0
21.555,-2.533,-0.734,4.0
19.16,-2.255,-0.756,2.0
17.248,-2.033,-0.775,1.0
15.804,-1.866,-0.796,1.0
14.817,-1.752,-0.827,1.0
24.844,-2.935,-0.688,2.0
21.837,-2.583,-0.723,4.0
19.474,-2.307,-0.75,1.0
17.474,-2.073,-0.769,1.0
15.997,-1.901,-0.791,1.0
14.952,-1.779,-0.82,1.0
25.424,-3.022,-0.681,6.0
22.281,-2.652,-0.717,4.0
19.828,-2.363,-0.745,1.0
17.784,-2.122,-0.766,1.0
16.236,-1.94,-0.787,1.0
15.096,-1.807,-0.814,1.0
25.797,-3.084,-0.667,5.0
22.727,-2.72,-0.71,4.0
20.155,-2.416,-0.739,2.0
18.124,-2.175,-0.764,0.0
16.404,-1.971,-0.78,1.0
15.317,-1.843,-0.811,1.0
26.456,-3.18,-0.659,3.0
23.239,-2.797,-0.703,3.0
20.66,-2.489,-0.737,2.0
18.61,-2.245,-0.766,1.0
16.66,-2.012,-0.776,1.0
15.48,-1.872,-0.804,2.0
27.186,-3.285,-0.65,2.0
23.641,-2.859,-0.692,2.0
21.125,-2.558,-0.732,4.0
18.927,-2.294,-0.76,2.0
17.074,-2.072,-0.778,0.0
15.624,-1.898,-0.796,1.0
27.803,-3.375,-0.637,4.0
24.397,-2.965,-0.69,4.0
21.608,-2.628,-0.727,4.0
19.224,-2.341,-0.753,2.0
17.337,-2.113,-0.772,1.0
15.917,-1.942,-0.794,0.0
28.598,-3.487,-0.626,8.0
24.839,-3.031,-0.677,3.0
22.06,-2.695,-0.72,4.0
19.674,-2.405,-0.75,2.0
17.64,-2.159,-0.767,0.0
16.147,-1.978,-0.789,1.0
29.049,-3.556,-0.605,19.0
25.761,-3.156,-0.675,4.0
22.59,-2.77,-0.713,4.0
20.068,-2.463,-0.744,1.0
18.092,-2.222,-0.768,0.0
16.366,-2.012,-0.783,1.0
29.284,-3.598,-0.579,22.0
26.302,-3.233,-0.661,5.0
23.194,-2.854,-0.708,5.0
20.516,-2.526,-0.738,2.0
18.519,-2.282,-0.766,2.0
16.682,-2.057,-0.78,1.0
29.981,-3.695,-0.561,25.0
27.054,-3.336,-0.651,5.0
23.679,-2.922,-0.697,4.0
21.009,-2.594,-0.733,3.0
18.845,-2.329,-0.759,1.0
17.06,-2.11,-0.779,1.0
30.66,-3.789,-0.54,21.0
27.796,-3.437,-0.639,7.0
24.347,-3.013,-0.69,1.0
21.522,-2.665,-0.728,4.0
19.281,-2.389,-0.756,2.0
17.358,-2.152,-0.774,1.0
31.46,-3.898,-0.52,21.0
28.396,-3.52,-0.622,10.0
25.068,-3.109,-0.683,3.0
22.071,-2.739,-0.722,4.0
19.6,-2.434,-0.746,1.0
17.641,-2.192,-0.767,1.0
32.52,-4.038,-0.502,28.0
28.669,-3.561,-0.596,22.0
25.61,-3.182,-0.67,4.0
22.591,-2.808,-0.714,4.0
20.161,-2.508,-0.745,2.0
18.195,-2.264,-0.77,1.0
33.293,-4.141,-0.476,28.0
29.175,-3.63,-0.574,20.0
26.386,-3.284,-0.66,2.0
23.136,-2.881,-0.705,3.0
20.599,-2.566,-0.738,3.0
18.53,-2.309,-0.764,2.0
34.007,-4.235,-0.448,25.0
30.056,-3.744,-0.557,20.0
27.191,-3.388,-0.649,2.0
23.651,-2.948,-0.694,2.0
21.079,-2.628,-0.731,3.0
18.976,-2.367,-0.76,2.0
34.652,-4.32,-0.417,15.0
30.883,-3.851,-0.537,21.0
28.092,-3.503,-0.639,7.0
24.593,-3.068,-0.693,2.0
21.736,-2.712,-0.729,3.0
19.352,-2.415,-0.753,2.0
39.724,-4.955,-0.433,18.0
31.804,-3.968,-0.516,23.0
28.528,-3.559,-0.616,19.0
25.153,-3.139,-0.68,4.0
22.313,-2.785,-0.723,4.0
19.846,-2.477,-0.749,2.0
39.904,-4.979,-0.389,24.0
32.745,-4.086,-0.494,26.0
28.98,-3.616,-0.593,21.0
25.79,-3.218,-0.668,3.0
22.784,-2.843,-0.712,4.0
20.327,-2.537,-0.744,2.0
40.196,-5.015,-0.345,16.0
33.592,-4.19,-0.468,25.0
29.608,-3.693,-0.571,22.0
26.657,-3.325,-0.659,2.0
23.399,-2.919,-0.704,3.0
20.823,-2.597,-0.738,3.0
40.58,-5.06,-0.301,10.0
34.375,-4.285,-0.438,16.0
30.368,-3.785,-0.55,19.0
27.595,-3.439,-0.65,5.0
24.012,-2.993,-0.694,2.0
21.339,-2.659,-0.731,3.0
46.07,-5.739,-0.288,21.0
39.717,-4.947,-0.461,5.0
31.378,-3.907,-0.532,16.0
28.178,-3.508,-0.631,7.0
24.934,-3.104,-0.692,4.0
21.994,-2.737,-0.728,3.0
46.995,-5.847,-0.24,22.0
39.81,-4.951,-0.416,21.0
32.392,-4.028,-0.511,24.0
28.559,-3.55,-0.606,21.0
25.52,-3.171,-0.678,5.0
22.516,-2.798,-0.718,4.0
48.457,-6.019,-0.19,23.0
40.074,-4.976,-0.371,20.0
33.261,-4.128,-0.486,24.0
28.982,-3.596,-0.582,18.0
26.209,-3.251,-0.666,2.0
23.128,-2.868,-0.711,4.0
50.129,-6.214,-0.139,11.0
40.37,-5.002,-0.328,14.0
34.054,-4.217,-0.458,24.0
29.819,-3.691,-0.564,20.0
27.289,-3.377,-0.662,4.0
23.698,-2.931,-0.701,3.0
55.738,-6.893,-0.09,13.0
45.892,-5.672,-0.318,20.0
34.74,-4.291,-0.427,17.0
30.817,-3.805,-0.547,22.0
27.893,-3.442,-0.644,7.0
24.502,-3.022,-0.697,3.0
80.597,-9.94,-0.037,6.0
46.685,-5.753,-0.271,21.0
39.774,-4.899,-0.443,11.0
31.815,-3.916,-0.528,20.0
28.587,-3.517,-0.627,8.0
25.197,-3.098,-0.687,3.0
80.911,-9.947,0.056,21.0
47.835,-5.876,-0.222,22.0
39.952,-4.904,-0.399,19.0
32.878,-4.033,-0.507,26.0
29.223,-3.582,-0.607,21.0
26.079,-3.195,-0.681,4.0
80.656,-9.88,0.148,29.0
0.0,0.0,0.0,0.0
40.257,-4.923,-0.356,15.0
33.643,-4.111,-0.481,26.0
29.789,-3.637,-0.585,24.0
26.701,-3.258,-0.667,3.0
80.482,-9.82,0.24,33.0
55.626,-6.781,-0.131,12.0
45.546,-5.547,-0.35,8.0
34.394,-4.185,-0.452,27.0
30.489,-3.707,-0.564,23.0
27.533,-3.345,-0.656,3.0
80.37,-9.763,0.332,30.0
56.009,-6.797,-0.068,7.0
46.262,-5.609,-0.303,20.0
39.662,-4.804,-0.476,5.0
31.608,-3.825,-0.548,20.0
28.233,-3.413,-0.641,5.0
80.439,-9.725,0.422,25.0
80.959,-9.778,-0.006,10.0
47.549,-5.736,-0.258,22.0
39.826,-4.8,-0.434,15.0
32.63,-3.929,-0.529,30.0
29.085,-3.498,-0.627,9.0
80.216,-9.649,0.511,24.0
80.735,-9.7,0.082,26.0
48.649,-5.838,-0.21,22.0
40.109,-4.808,-0.392,15.0
33.334,-3.992,-0.504,28.0
29.666,-3.549,-0.607,21.0
80.187,-9.592,0.599,28.0
80.318,-9.596,0.171,24.0
50.441,-6.019,-0.162,9.0
40.4,-4.815,-0.35,7.0
34.075,-4.056,-0.478,27.0
30.263,-3.599,-0.586,20.0
80.093,-9.524,0.686,30.0
80.179,-9.522,0.257,28.0
55.751,-6.612,-0.119,17.0
0.0,0.0,0.0,0.0
34.842,-4.122,-0.45,24.0
31.231,-3.69,-0.571,18.0
80.061,-9.46,0.774,28.0
80.09,-9.45,0.345,35.0
80.521,-9.488,-0.084,7.0
47.091,-5.541,-0.306,22.0
39.761,-4.672,-0.471,7.0
32.189,-3.777,-0.554,29.0
80.113,-9.402,0.861,17.0
80.0,-9.374,0.43,35.0
80.722,-9.445,0.002,13.0
48.311,-5.644,-0.262,23.0
39.995,-4.666,-0.431,18.0
32.911,-3.834,-0.531,29.0
80.69,-9.401,0.952,5.0
79.93,-9.297,0.515,7.0
65.313,-7.585,0.071,2.0
50.048,-5.803,-0.218,24.0
40.22,-4.656,-0.391,15.0
33.725,-3.899,-0.509,31.0
84.72,-9.796,1.089,25.0
65.298,-7.537,0.488,0.0
65.23,-7.517,0.138,1.0
55.204,-6.351,-0.183,8.0
45.022,-5.171,-0.391,5.0
34.378,-3.942,-0.483,26.0
84.321,-9.671,1.171,39.0
65.211,-7.466,0.555,2.0
65.217,-7.454,0.204,175.0
55.783,-6.365,-0.129,14.0
46.136,-5.255,-0.354,20.0
34.981,-3.978,-0.457,13.0
84.07,-9.562,1.251,25.0
0.0,0.0,0.0,0.0
65.139,-7.381,0.269,212.0
56.649,-6.407,-0.075,2.0
47.587,-5.373,-0.318,22.0
39.87,-4.493,-0.481,11.0
84.242,-9.496,1.337,23.0
0.0,0.0,0.0,0.0
65.137,-7.314,0.334,156.0
65.192,-7.306,-0.021,1.0
0.0,0.0,0.0,0.0
40.117,-4.479,-0.444,15.0
84.503,-9.437,1.424,15.0
0.0,0.0,0.0,0.0
65.125,-7.243,0.397,2.0
64.995,-7.214,0.04,1.0
50.775,-5.624,-0.241,17.0
0.0,0.0,0.0,0.0
82.149,-9.084,1.462,25.0
0.0,0.0,0.0,0.0
65.065,-7.163,0.458,9.0
65.0,-7.141,0.101,1.0
55.08,-6.039,-0.209,28.0
42.577,-4.659,-0.391,17.0
82.041,-8.979,1.537,29.0
0.0,0.0,0.0,0.0
65.118,-7.095,0.519,0.0
65.014,-7.068,0.162,1.0
55.898,-6.063,-0.161,29.0
0.0,0.0,0.0,0.0
81.948,-8.872,1.611,37.0
0.0,0.0,0.0,0.0
65.061,-7.012,0.577,0.0
65.037,-6.993,0.22,106.0
56.285,-6.038,-0.112,6.0
47.511,-5.085,-0.35,22.0
81.896,-8.768,1.681,34.0
82.314,-8.791,1.247,3.0
0.0,0.0,0.0,0.0
65.091,-6.918,0.277,159.0
65.267,-6.92,-0.073,4.0
48.104,-5.089,-0.313,6.0
81.892,-8.665,1.753,34.0
82.062,-8.66,1.313,11.0
0.0,0.0,0.0,0.0
65.086,-6.835,0.332,175.0
64.986,-6.808,-0.018,3.0
0.0,0.0,0.0,0.0
81.847,-8.555,1.821,41.0
81.927,-8.541,1.38,32.0
0.0,0.0,0.0,0.0
65.089,-6.75,0.386,179.0
64.977,-6.722,0.034,3.0
0.0,0.0,0.0,0.0
82.094,-8.472,1.893,36.0
81.976,-8.437,1.447,45.0
0.0,0.0,0.0,0.0
65.1,-6.663,0.439,170.0
64.994,-6.635,0.087,5.0
55.393,-5.64,-0.224,29.0
82.354,-8.387,1.964,48.0
81.773,-8.305,1.508,44.0
0.0,0.0,0.0,0.0
65.11,-6.575,0.489,154.0
64.975,-6.543,0.137,6.0
55.993,-5.624,-0.184,23.0
82.566,-8.294,2.032,36.0
81.704,-8.183,1.567,45.0
0.0,0.0,0.0,0.0
65.054,-6.478,0.537,1.0
65.077,-6.463,0.185,33.0
65.395,-6.476,-0.167,11.0
82.225,-8.143,2.083,46.0
81.732,-8.071,1.628,37.0
66.257,-6.522,0.96,2.0
65.054,-6.385,0.584,5.0
65.038,-6.364,0.231,6.0
65.509,-6.392,-0.121,4.0
82.333,-8.035,2.144,42.0
82.17,-7.993,1.694,49.0
81.874,-7.94,1.244,6.0
0.0,0.0,0.0,0.0
65.106,-6.276,0.276,114.0
65.076,-6.254,-0.077,69.0
82.017,-7.882,2.19,41.0
82.625,-7.916,1.758,21.0
82.004,-7.83,1.3,17.0
0.0,0.0,0.0,0.0
65.186,-6.185,0.319,173.0
54.941,-5.196,-0.028,1.0
82.048,-7.76,2.245,43.0
82.946,-7.819,1.818,45.0
82.227,-7.726,1.356,32.0
54.965,-5.147,0.602,160.0
54.959,-5.13,0.303,159.0
54.961,-5.113,0.005,159.0
82.095,-7.638,2.296,42.0
82.663,-7.664,1.862,65.0
54.946,-5.077,0.938,150.0
54.953,-5.06,0.635,156.0
54.966,-5.044,0.336,166.0
54.94,-5.025,0.037,150.0
82.087,-7.507,2.344,41.0
82.419,-7.511,1.905,42.0
54.928,-4.987,0.97,21.0
54.905,-4.967,0.665,1.0
0.0,0.0,0.0,0.0
0.0,0.0,0.0,0.0
82.149,-7.38,2.391,41.0
82.68,-7.4,1.956,58.0
0.0,0.0,0.0,0.0
0.0,0.0,0.0,0.0
0.0,0.0,0.0,0.0
0.0,0.0,0.0,0.0
82.302,-7.26,2.438,34.0
83.067,-7.3,2.008,28.0
0.0,0.0,0.0,0.0
0.0,0.0,0.0,0.0
0.0,0.0,0.0,0.0
0.0,0.0,0.0,0.0
82.304,-7.122,2.479,38.0
82.996,-7.154,2.046,32.0
0.0,0.0,0.0,0.0
0.0,0.0,0.0,0.0
0.0,0.0,0.0,0.0
65.536,-5.561,0.178,2.0
82.119,-6.967,2.511,39.0
82.917,-7.007,2.082,43.0
84.508,-7.112,1.66,1.0
82.004,-6.873,1.154,22.0
79.351,-6.625,0.683,24.0
79.359,-6.599,0.25,26.0
82.303,-6.841,2.551,47.0
82.479,-6.827,2.106,45.0
82.778,-6.823,1.66,46.0
81.971,-6.729,1.187,32.0
79.292,-6.483,0.715,20.0
79.442,-6.468,0.282,31.0
82.486,-6.713,2.589,42.0
82.229,-6.663,2.131,41.0
82.758,-6.677,1.691,47.0
82.017,-6.589,1.218,37.0
79.385,-6.351,0.744,14.0
79.334,-6.32,0.31,4.0
82.527,-6.571,2.62,42.0
82.122,-6.509,2.156,37.0
82.649,-6.522,1.717,49.0
82.001,-6.443,1.245,32.0
81.954,-6.41,0.796,7.0
61.859,-4.817,0.261,4.0
82.672,-6.434,2.651,35.0
82.283,-6.373,2.187,47.0
82.66,-6.373,1.743,42.0
82.071,-6.299,1.271,13.0
65.736,-5.023,0.658,1.0
65.568,-4.987,0.296,4.0
82.838,-6.296,2.679,49.0
82.554,-6.245,2.217,39.0
82.854,-6.238,1.769,50.0
82.919,-6.213,1.307,4.0
65.676,-4.898,0.674,3.0
65.593,-4.869,0.313,1.0
82.882,-6.148,2.701,41.0
82.419,-6.083,2.233,35.0
82.673,-6.071,1.785,50.0
0.0,0.0,0.0,0.0
65.578,-4.77,0.688,2.0
65.572,-4.747,0.327,1.0
82.708,-5.981,2.713,40.0
82.522,-5.938,2.252,41.0
82.714,-5.922,1.802,45.0
0.0,0.0,0.0,0.0
65.677,-4.656,0.701,0.0
65.573,-4.625,0.339,1.0
82.979,-5.846,2.736,44.0
82.64,-5.791,2.269,37.0
82.996,-5.786,1.822,44.0
0.0,0.0,0.0,0.0
65.546,-4.522,0.709,2.0
65.568,-4.501,0.349,25.0
24.564,-1.684,0.813,20.0
24.643,-1.68,0.68,15.0
24.604,-1.668,0.543,4.0
24.622,-1.661,0.405,1.0
24.604,-1.651,0.269,4.0
24.601,-1.642,0.133,23.0
24.505,-1.633,0.814,38.0
24.545,-1.627,0.679,43.0
24.575,-1.619,0.544,39.0
24.553,-1.609,0.405,32.0
24.55,-1.6,0.27,35.0
24.541,-1.591,0.134,45.0
24.5,-1.586,0.815,74.0
24.537,-1.579,0.68,64.0
24.546,-1.571,0.545,57.0
24.533,-1.561,0.406,66.0
24.521,-1.551,0.271,56.0
24.515,-1.542,0.135,47.0
24.494,-1.538,0.815,72.0
24.523,-1.531,0.68,64.0
24.532,-1.522,0.545,72.0
24.534,-1.514,0.406,71.0
24.523,-1.504,0.27,66.0
24.519,-1.495,0.135,73.0
24.516,-1.492,0.815,82.0
24.548,-1.484,0.68,74.0
24.553,-1.476,0.544,69.0
24.545,-1.466,0.406,67.0
24.533,-1.457,0.27,53.0
24.53,-1.448,0.134,61.0
24.538,-1.445,0.815,68.0
24.571,-1.438,0.679,65.0
24.58,-1.429,0.543,42.0
24.57,-1.419,0.404,41.0
24.573,-1.411,0.268,44.0
24.571,-1.402,0.132,39.0
24.579,-1.399,0.814,22.0
24.642,-1.394,0.679,5.0
83.623,-4.699,1.841,20.0
24.616,-1.374,0.402,0.0
24.618,-1.365,0.266,1.0
65.596,-3.614,0.345,0.0
83.255,-4.575,2.747,34.0
84.032,-4.587,2.305,41.0
83.941,-4.552,1.836,50.0
85.996,-4.631,1.394,3.0
0.0,0.0,0.0,0.0
0.0,0.0,0.0,0.0
84.44,-4.474,2.771,40.0
84.544,-4.447,2.304,47.0
84.826,-4.431,1.84,48.0
86.11,-4.467,1.38,10.0
0.0,0.0,0.0,0.0
66.685,-3.411,0.327,0.0
85.146,-4.341,2.777,40.0
84.765,-4.289,2.292,38.0
84.674,-4.254,1.818,40.0
83.284,-4.154,1.316,28.0
82.304,-4.075,0.842,6.0
68.151,-3.35,0.318,0.0
85.863,-4.207,2.779,36.0
84.751,-4.121,2.27,34.0
84.583,-4.081,1.794,39.0
83.101,-3.979,1.291,15.0
82.812,-3.935,0.825,26.0
31.292,-1.475,0.137,12.0
86.172,-4.048,2.764,21.0
84.993,-3.962,2.252,31.0
85.118,-3.936,1.78,24.0
31.287,-1.435,0.476,33.0
31.259,-1.422,0.301,32.0
31.237,-1.41,0.127,49.0
85.771,-3.858,2.723,2.0
31.34,-1.398,0.82,11.0
31.284,-1.384,0.643,26.0
28.468,-1.249,0.423,57.0
28.447,-1.238,0.264,64.0
28.439,-1.227,0.105,65.0
28.443,-1.222,0.892,66.0
28.435,-1.211,0.733,77.0
28.432,-1.201,0.574,109.0
28.431,-1.19,0.412,104.0
28.449,-1.181,0.253,127.0
28.447,-1.17,0.094,150.0
28.445,-1.165,0.881,138.0
28.446,-1.154,0.722,150.0
28.432,-1.143,0.562,87.0
28.451,-1.134,0.4,68.0
28.459,-1.124,0.241,67.0
28.466,-1.114,0.082,47.0
28.462,-1.109,0.869,47.0
31.257,-1.206,0.779,46.0
31.292,-1.196,0.604,52.0
31.254,-1.183,0.426,33.0
31.297,-1.174,0.251,45.0
31.333,-1.164,0.076,21.0
31.27,-1.155,0.94,48.0
31.299,-1.144,0.765,41.0
31.344,-1.134,0.59,35.0
84.158,-3.016,1.104,30.0
80.382,-2.852,0.604,25.0
80.479,-2.827,0.154,26.0
31.347,-1.094,0.925,33.0
31.432,-1.085,0.751,0.0
38.677,-1.322,0.708,0.0
84.694,-2.865,1.066,22.0
38.729,-1.296,0.27,14.0
38.728,-1.282,0.052,35.0
38.637,-1.27,1.119,55.0
38.638,-1.256,0.902,61.0
38.636,-1.243,0.685,64.0
38.641,-1.229,0.464,64.0
38.652,-1.216,0.247,66.0
38.65,-1.202,0.03,61.0
38.6,-1.192,1.095,69.0
38.632,-1.179,0.879,89.0
38.641,-1.166,0.661,92.0
38.633,-1.152,0.44,89.0
38.649,-1.139,0.223,93.0
38.656,-1.126,0.006,85.0
38.6,-1.115,1.07,67.0
38.655,-1.103,0.854,80.0
38.629,-1.089,0.636,68.0
38.624,-1.075,0.415,66.0
38.652,-1.063,0.198,66.0
38.67,-1.05,-0.018,62.0
38.618,-1.04,1.045,72.0
38.672,-1.027,0.829,43.0
38.681,-1.013,0.611,29.0
38.703,-1.001,0.389,30.0
38.768,-0.989,0.172,9.0
38.792,-0.976,-0.046,18.0
38.692,-0.964,1.02,41.0
40.418,-0.993,0.837,26.0
40.397,-0.978,0.609,35.0
40.416,-0.965,0.377,38.0
40.41,-0.951,0.149,48.0
40.414,-0.937,-0.077,59.0
40.409,-0.926,1.035,39.0
40.407,-0.912,0.806,30.0
38.395,-0.854,0.55,8.0
38.376,-0.84,0.329,32.0
38.369,-0.827,0.112,54.0
38.368,-0.814,-0.103,33.0
38.428,-0.805,0.954,3.0
38.42,-0.792,0.736,2.0
52.952,-1.073,0.716,46.0
52.933,-1.054,0.411,62.0
52.977,-1.038,0.112,48.0
52.961,-1.019,-0.186,46.0
190.842,-3.623,4.58,12.0
191.56,-3.572,3.515,13.0
193.048,-3.536,2.451,19.0
20.138,-0.361,0.139,1.0
20.133,-0.355,0.025,41.0
20.132,-0.348,-0.087,1.0
176.649,-3.008,4.088,54.0
176.629,-2.95,3.089,38.0
20.133,-0.329,0.238,6.0
20.11,-0.322,0.121,15.0
20.143,-0.315,0.008,20.0
59.498,-0.913,-0.312,3.0
53.506,-0.805,1.189,36.0
20.134,-0.296,0.333,10.0
20.124,-0.29,0.219,14.0
20.143,-0.283,0.103,11.0
59.527,-0.819,-0.03,78.0
56.583,-0.759,-0.349,11.0
20.15,-0.264,0.429,13.0
20.135,-0.258,0.315,11.0
20.157,-0.251,0.201,11.0
56.182,-0.683,0.236,2.0
56.306,-0.666,-0.082,2.0
59.421,-0.684,-0.423,9.0
20.151,-0.226,0.41,18.0
64.346,-0.701,0.944,9.0
64.315,-0.68,0.579,118.0
56.169,-0.576,0.181,9.0
56.238,-0.558,-0.137,14.0
56.598,-0.545,-0.458,1.0
20.191,-0.188,0.39,14.0
66.524,-0.599,0.909,8.0
20.254,-0.176,0.162,0.0
20.2,-0.169,0.044,3.0
20.185,-0.162,-0.069,13.0
20.159,-0.155,-0.184,14.0
20.198,-0.15,0.37,20.0
20.149,-0.143,0.254,16.0
20.144,-0.137,0.139,16.0
20.142,-0.13,0.023,26.0
20.156,-0.124,-0.091,26.0
20.152,-0.118,-0.205,21.0
20.127,-0.112,0.347,28.0
20.13,-0.105,0.232,25.0
20.136,-0.099,0.118,28.0
20.12,-0.093,0.001,34.0
20.136,-0.086,-0.112,31.0
20.146,-0.08,-0.227,21.0
20.124,-0.074,0.324,30.0
20.118,-0.068,0.21,29.0
20.127,-0.062,0.095,39.0
20.125,-0.056,-0.02,36.0
20.15,-0.05,-0.135,32.0
20.161,-0.044,-0.25,21.0
20.111,-0.038,0.301,29.0
20.115,-0.032,0.187,32.0
20.128,-0.025,0.072,30.0
20.168,-0.019,-0.043,15.0
20.206,-0.013,-0.158,15.0
20.243,-0.007,-0.274,13.0
20.131,-0.001,0.278,29.0
20.128,0.004,0.164,27.0
20.236,0.01,0.049,150.0
20.259,0.016,-0.067,151.0
20.261,0.022,-0.183,151.0
20.254,0.027,-0.298,52.0
20.134,0.033,0.255,30.0
20.147,0.039,0.14,26.0
20.204,0.045,0.025,24.0
20.203,0.051,-0.091,25.0
20.198,0.057,-0.206,11.0
0.0,0.0,0.0,0.0
20.153,0.069,0.23,29.0
20.153,0.075,0.115,26.0
20.191,0.081,0.0,27.0
20.181,0.087,-0.116,31.0
20.186,0.093,-0.232,25.0
20.201,0.099,-0.347,14.0
20.156,0.105,0.205,27.0
20.202,0.111,0.09,34.0
20.174,0.116,-0.025,27.0
20.161,0.122,-0.142,42.0
20.168,0.128,-0.257,34.0
20.185,0.134,-0.373,31.0
20.189,0.14,0.179,26.0
20.229,0.145,0.064,26.0
20.23,0.151,-0.051,23.0
20.165,0.156,-0.168,18.0
20.168,0.162,-0.283,35.0
20.174,0.168,-0.399,34.0
20.312,0.175,0.153,30.0
20.338,0.181,0.037,32.0
20.237,0.185,-0.078,3.0
20.159,0.19,-0.195,16.0
20.188,0.196,-0.31,28.0
20.188,0.202,-0.426,29.0
20.318,0.209,0.126,26.0
20.318,0.214,0.01,2.0
0.0,0.0,0.0,0.0
20.191,0.224,-0.222,16.0
20.18,0.229,-0.338,25.0
20.187,0.235,-0.453,18.0
99.619,1.19,0.483,6.0
99.735,1.217,-0.085,2.0
0.0,0.0,0.0,0.0
20.158,0.256,-0.249,0.0
20.2,0.262,-0.366,5.0
20.204,0.268,-0.481,8.0
99.623,1.349,0.346,6.0
0.0,0.0,0.0,0.0
0.0,0.0,0.0,0.0
0.0,0.0,0.0,0.0
0.0,0.0,0.0,0.0
33.298,0.495,-0.841,1.0
99.803,1.511,0.204,5.0
0.0,0.0,0.0,0.0
0.0,0.0,0.0,0.0
0.0,0.0,0.0,0.0
38.053,0.615,-0.797,0.0
32.041,0.526,-0.855,1.0
99.841,1.668,0.059,7.0
0.0,0.0,0.0,0.0
0.0,0.0,0.0,0.0
42.82,0.747,-0.714,0.0
36.907,0.653,-0.827,0.0
31.292,0.562,-0.881,1.0
0.0,0.0,0.0,0.0
0.0,0.0,0.0,0.0
0.0,0.0,0.0,0.0
0.0,0.0,0.0,0.0
34.381,0.66,-0.821,0.0
29.42,0.572,-0.872,0.0
0.0,0.0,0.0,0.0
0.0,0.0,0.0,0.0
0.0,0.0,0.0,0.0
39.495,0.808,-0.777,0.0
32.818,0.679,-0.834,1.0
28.4,0.595,-0.885,0.0
0.0,0.0,0.0,0.0
0.0,0.0,0.0,0.0
0.0,0.0,0.0,0.0
37.048,0.812,-0.785,0.0
31.799,0.704,-0.856,1.0
26.902,0.602,-0.879,0.0
0.0,0.0,0.0,0.0
0.0,0.0,0.0,0.0
0.0,0.0,0.0,0.0
35.37,0.826,-0.804,0.0
30.549,0.72,-0.87,0.0
26.035,0.62,-0.891,0.0
0.0,0.0,0.0,0.0
0.0,0.0,0.0,0.0
0.0,0.0,0.0,0.0
33.867,0.838,-0.823,0.0
29.021,0.724,-0.872,0.0
24.898,0.627,-0.891,0.0
0.0,0.0,0.0,0.0
0.0,0.0,0.0,0.0
0.0,0.0,0.0,0.0
32.456,0.847,-0.84,1.0
28.117,0.74,-0.889,0.0
24.024,0.638,-0.898,0.0
0.0,0.0,0.0,0.0
46.084,1.244,-0.731,0.0
37.133,1.01,-0.803,0.0
31.305,0.859,-0.86,1.0
26.355,0.728,-0.876,0.0
23.003,0.641,-0.897,0.0
0.0,0.0,0.0,0.0
0.0,0.0,0.0,0.0
34.458,0.982,-0.801,0.0
29.619,0.851,-0.862,0.0
25.545,0.739,-0.891,0.0
22.376,0.652,-0.909,0.0
0.0,0.0,0.0,0.0
39.412,1.166,-0.754,0.0
32.749,0.975,-0.815,0.0
28.299,0.848,-0.87,0.0
24.51,0.74,-0.895,0.0
21.463,0.652,-0.908,0.0
0.0,0.0,0.0,0.0
37.56,1.157,-0.781,0.0
32.162,0.998,-0.854,1.0
26.945,0.841,-0.873,0.0
23.463,0.737,-0.896,0.0
20.73,0.655,-0.911,0.0
0.0,0.0,0.0,0.0
36.033,1.154,-0.81,0.0
30.174,0.972,-0.852,1.0
25.901,0.839,-0.883,0.0
22.594,0.737,-0.901,0.0
20.105,0.66,-0.918,0.0
40.316,1.33,-0.741,0.0
32.993,1.095,-0.797,0.0
28.762,0.96,-0.86,0.0
24.77,0.831,-0.886,0.0
21.862,0.738,-0.909,0.0
19.463,0.661,-0.921,0.0
38.7,1.321,-0.778,0.0
32.345,1.11,-0.836,1.0
27.88,0.962,-0.882,0.0
23.775,0.825,-0.891,0.0
20.911,0.729,-0.905,0.0
18.677,0.655,-0.916,0.0
0.0,0.0,0.0,0.0
30.224,1.07,-0.833,0.0
26.285,0.935,-0.876,0.0
22.743,0.814,-0.892,0.0
20.31,0.73,-0.914,0.0
18.19,0.657,-0.924,0.0
34.175,1.24,-0.804,0.0
29.618,1.08,-0.867,0.0
25.199,0.923,-0.883,1.0
22.116,0.814,-0.905,0.0
19.642,0.727,-0.917,0.0
17.74,0.659,-0.931,0.0
32.562,1.215,-0.822,0.0
28.188,1.057,-0.874,0.0
24.313,0.916,-0.895,1.0
21.147,0.8,-0.903,0.0
18.833,0.716,-0.913,0.0
16.998,0.649,-0.922,0.0
30.293,1.16,-0.817,0.0
26.393,1.015,-0.864,0.0
23.174,0.895,-0.893,0.0
20.225,0.785,-0.898,9.0
18.357,0.715,-0.922,0.0
16.579,0.649,-0.928,0.0
29.969,1.176,-0.861,1.0
0.0,0.0,0.0,0.0
22.475,0.889,-0.906,2.0
20.13,0.8,-0.93,1.0
17.844,0.712,-0.927,0.0
16.149,0.647,-0.933,0.0
0.0,0.0,0.0,0.0
24.452,0.986,-0.887,0.0
21.495,0.87,-0.904,0.0
18.896,0.767,-0.906,0.0
17.156,0.699,-0.922,0.0
15.664,0.641,-0.932,0.0
0.0,0.0,0.0,0.0
20.217,0.832,-0.769,2.0
20.214,0.835,-0.885,10.0
18.46,0.765,-0.917,0.0
16.68,0.694,-0.926,0.0
15.255,0.637,-0.935,0.0
20.233,0.847,-0.688,3.0
20.219,0.849,-0.805,13.0
20.149,0.849,-0.919,3.0
20.211,0.855,-1.041,0.0
16.278,0.691,-0.932,0.0
14.877,0.633,-0.939,0.0
20.238,0.863,-0.725,153.0
20.234,0.865,-0.841,28.0
20.132,0.864,-0.954,2.0
20.205,0.87,-1.077,14.0
15.848,0.684,-0.936,0.0
14.537,0.63,-0.943,0.0
20.194,0.876,-0.759,162.0
20.228,0.88,-0.877,96.0
0.0,0.0,0.0,0.0
20.205,0.885,-1.112,0.0
15.325,0.673,-0.932,0.0
14.228,0.627,-0.948,0.0
20.229,0.892,-0.796,152.0
20.214,0.894,-0.913,24.0
20.199,0.896,-1.029,9.0
16.31,0.725,-0.927,0.0
14.952,0.667,-0.937,0.0
20.194,0.904,-1.383,0.0
20.239,0.906,-0.833,87.0
20.076,0.901,-0.942,18.0
20.228,0.91,-1.066,36.0
15.901,0.717,-0.932,0.0
14.6,0.661,-0.94,0.0
13.39,0.608,-0.94,0.0
20.222,0.918,-0.868,105.0
0.0,0.0,0.0,0.0
20.231,0.923,-1.103,1.0
15.434,0.706,-0.932,0.0
14.336,0.657,-0.949,0.0
13.121,0.603,-0.945,0.0
20.171,0.928,-0.902,22.0
20.21,0.931,-1.021,2.0
16.393,0.757,-0.923,0.0
15.012,0.695,-0.934,0.0
20.317,0.943,-1.382,0.0
12.811,0.596,-0.946,0.0
20.195,0.94,-0.939,9.0
20.227,0.943,-1.058,2.0
16.035,0.749,-0.931,0.0
14.642,0.686,-0.937,0.0
13.452,0.631,-0.939,0.0
12.546,0.59,-0.949,0.0
20.146,0.947,-0.972,3.0
17.025,0.802,-0.92,0.0
15.518,0.733,-0.929,0.0
14.389,0.681,-0.946,0.0
13.169,0.624,-0.942,0.0
12.225,0.581,-0.946,0.0
20.276,0.963,-1.015,0.0
16.533,0.787,-0.923,0.0
15.129,0.721,-0.932,0.0
0.0,0.0,0.0,0.0
12.849,0.615,-0.943,0.0
11.918,0.572,-0.944,0.0
17.507,0.839,-0.907,0.0
16.083,0.772,-0.926,0.0
14.727,0.708,-0.934,0.0
13.547,0.653,-0.939,0.0
12.575,0.607,-0.945,0.0
11.676,0.565,-0.945,0.0
17.034,0.822,-0.912,1.0
15.612,0.755,-0.927,0.0
14.416,0.698,-0.939,0.0
13.248,0.643,-0.942,0.0
12.291,0.598,-0.945,0.0
11.454,0.558,-0.947,0.0
16.643,0.809,-0.921,1.0
15.194,0.74,-0.928,0.0
14.069,0.686,-0.941,0.0
12.947,0.632,-0.943,0.0
11.988,0.587,-0.943,0.0
11.194,0.549,-0.946,0.0
16.317,0.798,-0.931,1.0
14.823,0.726,-0.932,0.0
13.592,0.667,-0.933,0.0
12.624,0.62,-0.941,0.0
11.696,0.576,-0.94,0.0
11.01,0.543,-0.949,0.0
15.82,0.778,-0.93,0.0
14.51,0.714,-0.937,0.0
13.344,0.658,-0.939,0.0
12.339,0.609,-0.942,0.0
11.5,0.569,-0.945,0.0
10.754,0.532,-0.946,0.0
15.326,0.757,-0.927,0.0
14.277,0.706,-0.947,0.0
13.074,0.647,-0.943,0.0
12.096,0.6,-0.944,0.0
11.293,0.561,-0.947,0.0
10.558,0.525,-0.947,0.0
14.974,0.742,-0.932,0.0
13.734,0.681,-0.934,0.0
12.705,0.631,-0.938,0.0
11.77,0.585,-0.939,0.0
11.059,0.551,-0.946,0.0
10.344,0.516,-0.945,0.0
14.593,0.725,-0.933,0.0
13.476,0.67,-0.939,0.0
12.451,0.62,-0.94,0.0
11.602,0.578,-0.945,0.0
10.828,0.54,-0.945,0.0
10.186,0.509,-0.948,0.0
14.343,0.714,-0.941,0.0
13.192,0.657,-0.942,0.0
12.167,0.607,-0.939,0.0
11.339,0.566,-0.942,0.0
10.647,0.532,-0.947,0.0
10.004,0.5,-0.948,0.0
13.999,0.698,-0.942,0.0
12.851,0.641,-0.939,0.0
11.895,0.594,-0.938,0.0
11.129,0.556,-0.943,0.0
10.429,0.521,-0.945,0.0
9.819,0.491,-0.947,0.0
13.506,0.673,-0.931,0.0
12.641,0.631,-0.944,0.0
11.699,0.584,-0.942,0.0
10.994,0.549,-0.95,0.0
10.248,0.512,-0.945,0.0
9.667,0.484,-0.948,0.0
13.322,0.664,-0.939,0.0
12.34,0.615,-0.942,0.0
11.49,0.573,-0.944,0.0
10.642,0.531,-0.937,0.0
10.078,0.503,-0.946,0.0
9.483,0.474,-0.946,0.0
13.053,0.649,-0.941,0.0
12.041,0.599,-0.938,0.0
11.286,0.562,-0.945,0.0
10.531,0.525,-0.944,0.0
9.926,0.495,-0.948,0.0
9.345,0.466,-0.947,0.0
12.771,0.634,-0.941,0.0
11.785,0.585,-0.937,0.0
11.037,0.548,-0.941,0.0
10.325,0.513,-0.942,0.0
9.77,0.486,-0.948,0.0
9.216,0.458,-0.948,0.0
12.49,0.618,-0.94,0.0
11.561,0.572,-0.937,0.0
10.771,0.533,-0.936,0.0
10.185,0.505,-0.945,0.0
9.551,0.473,-0.942,0.0
9.028,0.448,-0.943,0.0
12.24,0.604,-0.94,0.0
11.406,0.563,-0.942,0.0
10.657,0.526,-0.942,0.0
9.991,0.493,-0.943,0.0
9.446,0.466,-0.946,0.0
8.872,0.438,-0.941,0.0
11.964,0.588,-0.937,0.0
11.176,0.549,-0.94,0.0
10.496,0.515,-0.944,0.0
9.852,0.484,-0.945,0.0
9.306,0.457,-0.946,0.0
8.739,0.429,-0.94,0.0
11.749,0.574,-0.938,0.0
10.99,0.537,-0.941,0.0
10.296,0.503,-0.942,0.0
9.709,0.474,-0.945,0.0
9.149,0.447,-0.944,0.0
8.662,0.423,-0.944,0.0
11.561,0.561,-0.94,0.0
10.796,0.524,-0.941,0.0
10.167,0.493,-0.945,0.0
9.564,0.464,-0.946,0.0
8.982,0.436,-0.94,0.0
8.546,0.415,-0.944,0.0
11.345,0.547,-0.939,0.0
10.659,0.514,-0.944,0.0
10.016,0.483,-0.946,0.0
9.422,0.454,-0.945,0.0
8.843,0.426,-0.939,0.0
8.431,0.406,-0.944,0.0
11.147,0.534,-0.939,0.0
10.474,0.501,-0.943,0.0
9.864,0.472,-0.945,0.0
9.259,0.443,-0.942,0.0
8.771,0.419,-0.944,0.0
8.329,0.398,-0.945,0.0
11.048,0.524,-0.946,0.0
10.324,0.49,-0.944,0.0
9.7,0.46,-0.943,0.0
9.137,0.433,-0.942,0.0
8.654,0.41,-0.943,0.0
8.219,0.389,-0.944,0.0
10.765,0.506,-0.937,0.0
10.167,0.478,-0.944,0.0
9.575,0.45,-0.944,0.0
8.996,0.422,-0.94,0.0
8.567,0.402,-0.945,0.0
8.143,0.382,-0.946,0.0
10.654,0.496,-0.942,0.0
10.005,0.465,-0.942,0.0
9.467,0.44,-0.946,0.0
8.913,0.414,-0.944,0.0
8.421,0.391,-0.941,0.0
8.061,0.374,-0.947,0.0
10.483,0.483,-0.94,0.0
9.873,0.454,-0.943,0.0
9.287,0.427,-0.94,0.0
8.766,0.403,-0.94,0.0
8.32,0.382,-0.94,0.0
7.955,0.365,-0.945,0.0
10.332,0.47,-0.94,0.0
9.767,0.444,-0.945,0.0
9.171,0.416,-0.94,0.0
8.645,0.392,-0.938,0.0
