X,Y,Z,Reflectivity
195.354,2.754,2.633,8.0
99.886,1.387,0.768,1.0
99.701,1.364,0.192,5.0
20.298,0.273,0.592,0.0
20.28,0.268,0.474,14.0
20.279,0.264,0.357,13.0
20.288,0.26,0.238,3.0
99.571,1.257,0.597,4.0
99.649,1.236,0.021,4.0
20.284,0.247,0.557,26.0
20.27,0.242,0.44,27.0
20.281,0.238,0.323,26.0
20.307,0.234,0.204,21.0
20.315,0.23,0.087,10.0
20.392,0.226,-0.03,0.0
20.271,0.22,0.523,28.0
20.273,0.216,0.406,36.0
20.278,0.211,0.289,25.0
20.299,0.207,0.17,28.0
20.332,0.203,0.053,30.0
20.262,0.197,-0.063,2.0
20.275,0.193,0.489,32.0
20.274,0.188,0.372,30.0
20.294,0.184,0.255,27.0
20.281,0.179,0.136,25.0
20.301,0.175,0.019,28.0
20.19,0.169,-0.096,23.0
20.188,0.164,0.454,22.0
20.182,0.159,0.337,24.0
20.179,0.155,0.221,20.0
20.211,0.15,0.102,29.0
20.207,0.145,-0.013,26.0
20.18,0.141,-0.129,37.0
20.172,0.136,0.421,27.0
20.172,0.131,0.305,26.0
20.158,0.126,0.188,25.0
20.188,0.122,0.07,31.0
20.188,0.117,-0.045,31.0
20.18,0.112,-0.161,30.0
20.158,0.107,0.388,29.0
20.153,0.102,0.272,28.0
20.158,0.097,0.156,25.0
20.192,0.092,0.038,32.0
20.194,0.087,-0.077,28.0
20.192,0.082,-0.194,18.0
20.145,0.077,0.356,28.0
20.141,0.072,0.24,27.0
20.15,0.067,0.124,27.0
20.206,0.062,0.006,28.0
20.225,0.058,-0.109,25.0
20.21,0.052,-0.225,4.0
20.146,0.047,0.325,31.0
20.138,0.042,0.209,27.0
20.15,0.037,0.093,25.0
20.25,0.032,-0.024,150.0
20.261,0.027,-0.141,151.0
20.261,0.022,-0.257,151.0
20.13,0.016,0.294,28.0
20.125,0.011,0.178,27.0
20.204,0.006,0.063,33.0
20.234,0.001,-0.055,29.0
20.212,-0.003,-0.171,10.0
20.198,-0.009,-0.287,1.0
20.124,-0.014,0.264,27.0
20.122,-0.019,0.148,29.0
20.138,-0.024,0.033,30.0
20.157,-0.03,-0.084,31.0
20.149,-0.035,-0.2,12.0
20.167,-0.04,-0.316,23.0
20.124,-0.045,0.234,33.0
20.136,-0.051,0.119,39.0
20.123,-0.056,0.003,36.0
20.13,-0.061,-0.113,31.0
20.149,-0.067,-0.229,26.0
20.148,-0.072,-0.345,22.0
20.117,-0.077,0.205,27.0
20.143,-0.083,0.09,41.0
20.139,-0.088,-0.024,28.0
20.153,-0.094,-0.142,32.0
20.139,-0.099,-0.258,37.0
20.144,-0.105,-0.374,37.0
20.142,-0.11,0.177,22.0
20.137,-0.116,0.062,30.0
20.162,-0.121,-0.053,23.0
20.126,-0.127,-0.17,18.0
20.151,-0.132,-0.286,33.0
20.153,-0.138,-0.402,35.0
20.19,-0.144,0.15,16.0
20.17,-0.149,0.034,11.0
20.174,-0.154,-0.081,11.0
20.143,-0.16,-0.198,8.0
20.178,-0.166,-0.314,25.0
20.174,-0.171,-0.429,28.0
53.384,-0.468,0.326,11.0
56.227,-0.509,0.021,4.0
56.374,-0.527,-0.301,1.0
45.226,-0.435,-0.506,19.0
37.974,-0.376,-0.642,19.0
20.195,-0.205,-0.457,18.0
56.162,-0.588,0.268,6.0
56.223,-0.604,-0.052,1.0
59.489,-0.656,-0.396,6.0
44.883,-0.508,-0.56,33.0
0.0,0.0,0.0,0.0
30.744,-0.365,-0.735,8.0
59.564,-0.724,0.208,14.0
56.332,-0.701,-0.124,2.0
58.825,-0.749,-0.466,5.0
44.861,-0.585,-0.617,10.0
35.927,-0.478,-0.699,3.0
30.093,-0.409,-0.758,8.0
59.517,-0.826,0.133,48.0
56.834,-0.806,-0.197,3.0
52.892,-0.765,-0.485,16.0
38.519,-0.569,-0.577,14.0
31.405,-0.473,-0.65,12.0
28.612,-0.439,-0.756,4.0
20.141,-0.314,0.02,34.0
59.506,-0.948,-0.278,6.0
45.343,-0.735,-0.471,19.0
38.066,-0.629,-0.616,21.0
30.734,-0.517,-0.673,30.0
28.033,-0.48,-0.774,2.0
20.137,-0.35,-0.003,33.0
52.934,-0.936,-0.31,47.0
45.001,-0.81,-0.52,29.0
37.746,-0.69,-0.655,13.0
30.48,-0.566,-0.703,30.0
27.225,-0.514,-0.784,4.0
52.956,-1.014,-0.069,49.0
45.593,-0.887,-0.319,22.0
44.893,-0.888,-0.571,18.0
31.545,-0.633,-0.584,5.0
29.974,-0.611,-0.726,14.0
25.968,-0.537,-0.777,1.0
38.378,-0.804,-0.093,57.0
38.391,-0.816,-0.312,19.0
38.396,-0.828,-0.53,12.0
31.201,-0.683,-0.612,25.0
28.407,-0.631,-0.719,3.0
23.824,-0.536,-0.739,8.0
40.425,-0.92,-0.142,41.0
40.42,-0.933,-0.372,61.0
38.227,-0.894,-0.57,22.0
30.775,-0.729,-0.637,29.0
28.247,-0.678,-0.745,1.0
23.786,-0.579,-0.763,19.0
38.797,-0.954,-0.177,24.0
38.753,-0.965,-0.397,34.0
38.0,-0.959,-0.606,21.0
30.549,-0.78,-0.664,35.0
27.436,-0.709,-0.752,0.0
23.735,-0.621,-0.786,9.0
38.692,-1.023,-0.216,54.0
38.651,-1.033,-0.435,32.0
37.892,-1.025,-0.642,13.0
30.437,-0.833,-0.692,29.0
25.211,-0.698,-0.716,5.0
23.429,-0.657,-0.799,2.0
38.655,-1.093,-0.253,68.0
38.585,-1.104,-0.472,32.0
31.364,-0.907,-0.562,13.0
30.363,-0.888,-0.719,14.0
24.602,-0.728,-0.723,13.0
22.302,-0.667,-0.782,1.0
38.649,-1.165,-0.289,64.0
38.489,-1.172,-0.507,23.0
31.103,-0.958,-0.586,29.0
30.029,-0.934,-0.739,6.0
24.307,-0.764,-0.736,23.0
21.855,-0.694,-0.786,1.0
38.674,-1.237,-0.324,50.0
38.275,-1.237,-0.538,13.0
30.834,-1.007,-0.608,30.0
28.302,-0.933,-0.722,1.0
23.85,-0.794,-0.744,18.0
21.291,-0.716,-0.785,0.0
38.777,-1.313,-0.359,15.0
38.081,-1.302,-0.568,13.0
30.662,-1.059,-0.631,31.0
27.914,-0.973,-0.736,1.0
23.753,-0.836,-0.761,18.0
20.871,-0.742,-0.787,0.0
45.232,-1.618,-0.456,12.0
38.036,-1.372,-0.599,4.0
30.547,-1.113,-0.654,35.0
24.949,-0.917,-0.678,2.0
23.622,-0.877,-0.776,5.0
20.475,-0.766,-0.788,2.0
31.316,-1.179,-0.341,46.0
31.238,-1.187,-0.516,38.0
30.492,-1.169,-0.676,23.0
25.101,-0.97,-0.701,6.0
23.143,-0.902,-0.778,3.0
20.242,-0.796,-0.795,1.0
28.458,-1.125,-0.331,72.0
28.451,-1.135,-0.491,71.0
28.438,-1.144,-0.652,77.0
24.658,-1.0,-0.707,9.0
22.277,-0.911,-0.765,1.0
19.784,-0.816,-0.791,0.0
28.461,-1.18,-0.351,115.0
28.456,-1.189,-0.512,135.0
28.458,-1.199,-0.672,132.0
24.201,-1.028,-0.711,18.0
22.014,-0.942,-0.771,2.0
19.547,-0.844,-0.795,0.0
28.471,-1.234,-0.37,63.0
28.477,-1.244,-0.531,57.0
28.491,-1.255,-0.692,44.0
23.948,-1.063,-0.719,15.0
21.769,-0.973,-0.777,1.0
19.273,-0.869,-0.796,0.0
31.211,-1.412,-0.426,64.0
30.805,-1.405,-0.594,33.0
0.0,0.0,0.0,0.0
23.84,-1.104,-0.731,15.0
21.342,-0.995,-0.774,1.0
18.955,-0.89,-0.795,0.0
31.206,-1.472,-0.445,48.0
30.73,-1.46,-0.611,31.0
28.147,-1.347,-0.718,3.0
23.797,-1.147,-0.743,14.0
21.157,-1.027,-0.78,1.0
18.64,-0.912,-0.792,1.0
31.291,-1.536,-0.463,24.0
30.663,-1.516,-0.626,30.0
24.585,-1.223,-0.64,2.0
23.734,-1.189,-0.754,11.0
20.888,-1.054,-0.781,1.0
18.45,-0.938,-0.794,0.0
37.981,-1.937,-0.582,11.0
30.604,-1.571,-0.641,31.0
24.484,-1.265,-0.65,21.0
23.442,-1.22,-0.757,5.0
20.643,-1.082,-0.782,1.0
18.271,-0.964,-0.795,0.0
37.954,-2.008,-0.599,6.0
24.545,-1.307,-0.525,19.0
24.414,-1.308,-0.66,21.0
23.319,-1.257,-0.763,5.0
20.404,-1.108,-0.783,1.0
18.199,-0.994,-0.8,0.0
24.576,-1.346,-0.399,42.0
24.518,-1.352,-0.535,41.0
24.333,-1.35,-0.668,16.0
22.877,-1.278,-0.759,2.0
20.213,-1.136,-0.784,1.0
18.037,-1.02,-0.801,1.0
24.523,-1.391,-0.408,52.0
24.475,-1.397,-0.544,35.0
24.308,-1.396,-0.677,19.0
22.643,-1.308,-0.759,1.0
19.977,-1.161,-0.782,1.0
17.797,-1.041,-0.797,0.0
24.501,-1.436,-0.416,59.0
24.465,-1.443,-0.553,39.0
24.286,-1.441,-0.684,15.0
22.283,-1.33,-0.755,1.0
19.706,-1.183,-0.778,0.0
17.574,-1.061,-0.792,1.0
24.518,-1.484,-0.424,79.0
24.458,-1.488,-0.56,40.0
24.201,-1.481,-0.69,17.0
22.114,-1.361,-0.756,0.0
19.727,-1.221,-0.785,1.0
17.533,-1.092,-0.796,0.0
24.49,-1.528,-0.431,53.0
24.445,-1.533,-0.566,30.0
24.115,-1.521,-0.693,15.0
22.025,-1.397,-0.759,0.0
19.462,-1.242,-0.779,0.0
17.409,-1.117,-0.794,1.0
24.508,-1.575,-0.437,47.0
24.443,-1.579,-0.572,35.0
24.093,-1.565,-0.698,16.0
21.839,-1.426,-0.757,0.0
19.395,-1.273,-0.781,0.0
17.365,-1.146,-0.796,1.0
24.519,-1.621,-0.442,27.0
24.454,-1.625,-0.577,26.0
24.023,-1.605,-0.701,16.0
21.662,-1.455,-0.755,0.0
19.294,-1.303,-0.78,0.0
17.207,-1.168,-0.792,1.0
33.958,-2.309,-0.618,1.0
24.526,-1.676,-0.583,19.0
23.992,-1.648,-0.704,15.0
21.693,-1.498,-0.759,0.0
19.214,-1.333,-0.779,0.0
17.199,-1.2,-0.794,1.0
33.698,-2.354,-0.617,2.0
28.398,-1.993,-0.678,5.0
23.967,-1.691,-0.705,14.0
21.606,-1.532,-0.758,0.0
19.142,-1.364,-0.778,0.0
17.153,-1.228,-0.793,1.0
33.536,-2.404,-0.617,2.0
28.453,-2.049,-0.681,2.0
23.915,-1.731,-0.706,15.0
21.38,-1.555,-0.752,2.0
19.148,-1.399,-0.78,1.0
17.15,-1.259,-0.794,12.0
33.347,-2.451,-0.615,2.0
28.494,-2.104,-0.684,1.0
23.878,-1.771,-0.705,16.0
21.4,-1.595,-0.753,2.0
19.097,-1.43,-0.778,0.0
17.123,-1.288,-0.793,2.0
33.461,-2.52,-0.617,2.0
28.393,-2.148,-0.681,2.0
23.927,-1.818,-0.706,15.0
21.428,-1.635,-0.754,1.0
19.136,-1.467,-0.779,0.0
17.1,-1.317,-0.791,1.0
33.575,-2.587,-0.618,2.0
28.406,-2.198,-0.68,2.0
23.932,-1.86,-0.706,15.0
21.346,-1.666,-0.75,1.0
19.114,-1.499,-0.777,0.0
17.089,-1.346,-0.79,1.0
33.278,-2.624,-0.611,2.0
28.68,-2.27,-0.685,2.0
23.953,-1.904,-0.704,16.0
21.472,-1.714,-0.752,1.0
19.099,-1.532,-0.775,1.0
17.127,-1.379,-0.79,1.0
33.132,-2.67,-0.604,2.0
28.253,-2.286,-0.671,2.0
23.979,-1.948,-0.702,17.0
21.493,-1.754,-0.75,0.0
19.117,-1.567,-0.773,1.0
17.176,-1.414,-0.79,0.0
33.366,-2.747,-0.603,2.0
28.603,-2.364,-0.675,6.0
24.007,-1.993,-0.699,16.0
21.42,-1.785,-0.744,1.0
19.174,-1.605,-0.772,1.0
17.27,-1.451,-0.791,1.0
33.941,-2.853,-0.608,1.0
28.75,-2.426,-0.673,6.0
24.027,-2.036,-0.695,18.0
21.684,-1.845,-0.749,1.0
19.256,-1.644,-0.772,0.0
17.255,-1.479,-0.787,0.0
0.0,0.0,0.0,0.0
28.806,-2.48,-0.668,4.0
23.988,-2.073,-0.688,17.0
21.814,-1.892,-0.748,1.0
19.378,-1.688,-0.772,1.0
17.367,-1.518,-0.787,1.0
33.988,-2.972,-0.592,2.0
28.958,-2.541,-0.664,2.0
23.872,-2.102,-0.679,10.0
21.907,-1.937,-0.746,1.0
19.387,-1.72,-0.767,1.0
17.335,-1.544,-0.781,1.0
34.128,-3.04,-0.585,2.0
29.167,-2.607,-0.66,3.0
23.917,-2.146,-0.673,5.0
21.877,-1.97,-0.738,1.0
19.548,-1.767,-0.767,0.0
17.527,-1.59,-0.784,0.0
35.194,-3.192,-0.592,11.0
29.507,-2.685,-0.658,4.0
0.0,0.0,0.0,0.0
22.061,-2.022,-0.736,4.0
19.655,-1.808,-0.764,1.0
17.661,-1.631,-0.784,0.0
35.116,-3.242,-0.577,12.0
29.882,-2.768,-0.655,3.0
25.715,-2.39,-0.705,6.0
22.114,-2.062,-0.73,2.0
19.825,-1.855,-0.763,1.0
17.759,-1.668,-0.781,0.0
34.944,-3.281,-0.561,19.0
30.027,-2.829,-0.646,2.0
26.02,-2.459,-0.702,6.0
22.409,-2.125,-0.73,1.0
19.995,-1.903,-0.761,1.0
17.883,-1.707,-0.779,0.0
34.878,-3.329,-0.545,22.0
30.441,-2.915,-0.642,2.0
26.234,-2.52,-0.697,6.0
22.784,-2.196,-0.732,1.0
20.151,-1.948,-0.758,2.0
18.069,-1.753,-0.779,0.0
34.817,-3.377,-0.527,20.0
30.758,-2.992,-0.634,5.0
26.486,-2.585,-0.691,6.0
23.041,-2.256,-0.729,3.0
20.289,-1.993,-0.753,2.0
18.258,-1.799,-0.778,1.0
34.958,-3.443,-0.512,12.0
30.768,-3.04,-0.619,2.0
26.755,-2.651,-0.684,6.0
23.306,-2.316,-0.726,4.0
20.521,-2.046,-0.751,1.0
18.356,-1.836,-0.772,1.0
35.077,-3.507,-0.495,12.0
31.755,-3.184,-0.621,8.0
27.088,-2.724,-0.678,6.0
23.589,-2.379,-0.721,4.0
20.733,-2.097,-0.747,1.0
18.574,-1.885,-0.771,1.0
35.299,-3.58,-0.478,11.0
32.478,-3.303,-0.617,10.0
27.269,-2.781,-0.666,2.0
24.002,-2.455,-0.72,3.0
20.985,-2.153,-0.744,1.0
18.812,-1.935,-0.77,1.0
35.316,-3.632,-0.457,6.0
32.561,-3.357,-0.599,10.0
27.731,-2.867,-0.661,1.0
24.366,-2.526,-0.716,4.0
21.252,-2.209,-0.74,1.0
19.048,-1.986,-0.767,1.0
39.973,-4.166,-0.493,6.0
32.628,-3.409,-0.579,10.0
28.052,-2.938,-0.651,1.0
24.623,-2.586,-0.708,5.0
21.424,-2.256,-0.732,3.0
19.346,-2.043,-0.767,2.0
40.059,-4.229,-0.467,15.0
32.793,-3.47,-0.561,27.0
28.825,-3.058,-0.65,2.0
25.062,-2.665,-0.704,6.0
21.999,-2.346,-0.737,3.0
19.533,-2.088,-0.761,1.0
40.127,-4.288,-0.441,15.0
33.204,-3.557,-0.545,26.0
29.512,-3.169,-0.644,2.0
25.416,-2.736,-0.696,6.0
22.262,-2.403,-0.73,3.0
19.813,-2.144,-0.758,1.0
40.217,-4.349,-0.413,11.0
33.562,-3.638,-0.526,28.0
30.024,-3.262,-0.634,4.0
25.814,-2.812,-0.688,6.0
22.646,-2.473,-0.726,4.0
20.178,-2.208,-0.757,1.0
0.0,0.0,0.0,0.0
33.932,-3.72,-0.507,31.0
30.448,-3.346,-0.62,8.0
26.146,-2.88,-0.677,3.0
22.989,-2.538,-0.72,4.0
20.49,-2.267,-0.753,2.0
42.201,-4.667,-0.37,7.0
34.286,-3.8,-0.486,30.0
30.905,-3.433,-0.606,9.0
26.747,-2.977,-0.672,2.0
23.336,-2.603,-0.712,5.0
20.753,-2.321,-0.746,3.0
44.888,-5.017,-0.358,14.0
34.646,-3.88,-0.464,25.0
31.012,-3.48,-0.582,19.0
27.259,-3.066,-0.663,3.0
24.006,-2.705,-0.714,5.0
21.036,-2.376,-0.739,2.0
46.103,-5.205,-0.33,21.0
35.019,-3.961,-0.44,14.0
31.414,-3.561,-0.564,14.0
27.747,-3.151,-0.651,1.0
24.464,-2.784,-0.706,5.0
21.488,-2.451,-0.737,4.0
47.258,-5.387,-0.298,22.0
39.768,-4.542,-0.465,9.0
32.057,-3.668,-0.548,30.0
28.409,-3.257,-0.642,2.0
24.9,-2.861,-0.697,5.0
21.96,-2.528,-0.734,4.0
47.988,-5.522,-0.261,23.0
39.911,-4.601,-0.432,15.0
32.667,-3.772,-0.53,30.0
29.313,-3.391,-0.637,8.0
25.386,-2.943,-0.689,3.0
22.085,-2.565,-0.718,4.0
0.0,0.0,0.0,0.0
40.049,-4.657,-0.397,16.0
33.153,-3.862,-0.508,30.0
29.636,-3.458,-0.617,14.0
25.843,-3.021,-0.677,3.0
22.695,-2.658,-0.717,4.0
50.028,-5.857,-0.181,24.0
40.224,-4.716,-0.362,15.0
33.755,-3.965,-0.486,31.0
29.838,-3.511,-0.593,22.0
26.365,-3.107,-0.666,2.0
23.2,-2.739,-0.712,4.0
55.252,-6.52,-0.148,8.0
40.336,-4.767,-0.325,4.0
34.309,-4.061,-0.462,27.0
30.363,-3.6,-0.575,20.0
27.218,-3.232,-0.662,2.0
23.675,-2.816,-0.704,3.0
55.794,-6.634,-0.097,20.0
46.098,-5.489,-0.328,20.0
34.819,-4.152,-0.435,23.0
31.063,-3.71,-0.559,24.0
27.97,-3.346,-0.654,7.0
24.182,-2.897,-0.696,1.0
56.338,-6.746,-0.044,5.0
46.618,-5.59,-0.286,21.0
39.755,-4.774,-0.458,4.0
31.747,-3.818,-0.54,24.0
28.375,-3.417,-0.635,6.0
25.028,-3.019,-0.695,3.0
80.927,-9.757,0.018,11.0
47.529,-5.738,-0.245,23.0
39.834,-4.815,-0.42,18.0
32.533,-3.938,-0.521,29.0
29.0,-3.515,-0.62,11.0
25.394,-3.082,-0.68,2.0
80.957,-9.823,0.098,19.0
48.175,-5.852,-0.2,22.0
40.02,-4.867,-0.381,18.0
33.119,-4.033,-0.497,26.0
29.318,-3.575,-0.597,21.0
26.182,-3.197,-0.674,3.0
80.518,-9.828,0.179,25.0
49.935,-6.102,-0.156,20.0
40.293,-4.929,-0.342,15.0
33.738,-4.132,-0.471,27.0
29.85,-3.66,-0.577,26.0
26.666,-3.274,-0.659,3.0
80.466,-9.876,0.263,34.0
55.634,-6.836,-0.116,10.0
40.506,-4.982,-0.302,5.0
34.319,-4.226,-0.443,28.0
30.352,-3.742,-0.555,22.0
27.47,-3.39,-0.65,5.0
80.506,-9.932,0.348,24.0
55.973,-6.912,-0.058,7.0
46.058,-5.694,-0.294,21.0
39.707,-4.914,-0.471,4.0
31.206,-3.865,-0.537,16.0
28.17,-3.493,-0.637,7.0
80.43,-9.971,0.433,9.0
69.37,-8.607,0.001,7.0
46.859,-5.819,-0.25,21.0
39.778,-4.945,-0.429,17.0
32.055,-3.988,-0.518,25.0
28.564,-3.558,-0.615,22.0
80.491,-10.023,0.52,9.0
69.141,-8.616,0.077,14.0
47.948,-5.98,-0.204,22.0
39.946,-4.986,-0.388,21.0
32.81,-4.099,-0.494,25.0
28.959,-3.621,-0.592,21.0
80.567,-10.073,0.609,11.0
68.88,-8.618,0.15,3.0
49.319,-6.175,-0.155,14.0
40.187,-5.035,-0.346,15.0
33.626,-4.217,-0.47,29.0
29.577,-3.712,-0.572,23.0
80.488,-10.1,0.695,17.0
68.739,-8.631,0.226,8.0
55.641,-6.991,-0.115,10.0
45.395,-5.707,-0.341,3.0
34.331,-4.319,-0.442,28.0
30.179,-3.8,-0.55,23.0
80.591,-10.146,0.785,9.0
68.526,-8.632,0.301,2.0
55.954,-7.052,-0.053,6.0
45.855,-5.783,-0.294,20.0
39.767,-5.018,-0.468,3.0
31.067,-3.923,-0.532,28.0
68.303,-8.624,0.742,6.0
68.348,-8.634,0.377,2.0
61.001,-7.709,0.009,2.0
46.649,-5.899,-0.247,21.0
39.82,-5.038,-0.424,17.0
32.026,-4.054,-0.513,25.0
68.272,-8.642,0.818,3.0
68.279,-8.646,0.452,3.0
68.336,-8.657,0.087,1.0
47.784,-6.056,-0.199,22.0
39.896,-5.059,-0.38,14.0
32.887,-4.172,-0.49,24.0
191.998,-24.357,2.514,32.0
68.251,-8.661,0.528,3.0
68.172,-8.653,0.162,2.0
49.752,-6.318,-0.152,23.0
40.073,-5.091,-0.336,3.0
33.747,-4.289,-0.464,28.0
191.945,-24.394,2.735,30.0
68.233,-8.673,0.606,2.0
67.991,-8.645,0.24,2.0
55.676,-7.081,-0.106,11.0
45.48,-5.786,-0.33,5.0
34.449,-4.384,-0.435,23.0
191.954,-24.43,2.952,35.0
68.281,-8.691,0.684,4.0
67.929,-8.648,0.316,2.0
56.202,-7.156,-0.043,7.0
45.996,-5.858,-0.282,20.0
39.761,-5.065,-0.457,5.0
191.942,-24.455,3.17,26.0
68.164,-8.685,0.761,3.0
67.889,-8.651,0.393,4.0
61.03,-7.778,0.021,6.0
46.959,-5.985,-0.234,21.0
39.8,-5.074,-0.412,11.0
191.952,-24.473,3.387,22.0
191.987,-24.477,2.362,22.0
67.819,-8.646,0.47,4.0
67.923,-8.66,0.1,2.0
48.441,-6.176,-0.187,22.0
39.892,-5.087,-0.367,6.0
197.915,-25.242,3.719,7.0
191.938,-24.477,2.579,27.0
67.946,-8.664,0.549,3.0
67.92,-8.66,0.178,2.0
50.138,-6.393,-0.136,13.0
42.307,-5.394,-0.341,2.0
0.0,0.0,0.0,0.0
191.909,-24.471,2.797,24.0
68.046,-8.675,0.627,1.0
67.893,-8.655,0.255,2.0
55.83,-7.116,-0.089,14.0
45.701,-5.825,-0.317,14.0
139.646,-17.803,2.942,3.0
191.889,-24.456,3.017,28.0
68.264,-8.698,0.707,3.0
67.915,-8.652,0.332,2.0
61.023,-7.772,-0.027,5.0
46.177,-5.881,-0.268,21.0
139.538,-17.775,3.099,13.0
191.949,-24.443,3.235,32.0
68.203,-8.682,0.784,5.0
67.913,-8.643,0.41,3.0
68.15,-8.671,0.046,2.0
47.466,-6.038,-0.221,22.0
139.528,-17.754,3.256,19.0
191.957,-24.414,3.449,21.0
191.908,-24.398,2.422,28.0
68.083,-8.652,0.488,3.0
68.167,-8.66,0.122,2.0
48.18,-6.119,-0.171,5.0
63.082,-8.014,1.542,14.0
197.587,-25.091,3.772,7.0
191.939,-24.362,2.636,31.0
68.266,-8.66,0.565,3.0
68.208,-8.65,0.199,2.0
55.547,-7.041,-0.135,7.0
63.095,-8.001,1.614,23.0
197.415,-25.02,3.989,10.0
191.974,-24.317,2.85,27.0
68.261,-8.642,0.64,5.0
68.302,-8.643,0.275,2.0
56.031,-7.087,-0.074,9.0
63.086,-7.982,1.683,30.0
139.701,-17.664,2.979,9.0
191.95,-24.255,3.065,33.0
68.291,-8.624,0.716,5.0
68.487,-8.644,0.351,1.0
68.689,-8.665,-0.015,7.0
63.082,-7.961,1.753,31.0
139.553,-17.598,3.13,26.0
192.068,-24.203,3.277,31.0
80.825,-10.178,0.937,4.0
68.617,-8.635,0.428,2.0
68.709,-8.641,0.06,7.0
63.118,-7.941,1.824,29.0
139.514,-17.539,3.281,25.0
191.973,-24.115,3.485,17.0
191.956,-24.094,2.435,26.0
80.585,-10.107,0.589,9.0
68.803,-8.624,0.134,3.0
63.167,-7.921,1.894,27.0
63.084,-7.903,1.552,9.0
197.654,-24.741,3.801,8.0
191.975,-24.01,2.642,33.0
80.508,-10.061,0.676,27.0
69.133,-8.632,0.208,9.0
63.249,-7.902,1.964,3.0
63.103,-7.876,1.619,16.0
139.615,-17.409,2.834,8.0
192.023,-23.921,2.847,29.0
80.491,-10.018,0.761,26.0
69.356,-8.625,0.282,3.0
85.466,-10.634,2.743,6.0
63.052,-7.837,1.685,21.0
139.595,-17.333,2.979,17.0
192.095,-23.827,3.047,18.0
80.441,-9.967,0.844,15.0
80.421,-9.956,0.412,23.0
85.395,-10.578,2.83,11.0
63.045,-7.8,1.75,5.0
139.659,-17.26,3.127,14.0
188.705,-23.296,3.189,23.0
80.554,-9.934,0.928,4.0
80.352,-9.899,0.495,31.0
84.86,-10.46,2.9,29.0
165.616,-20.39,4.769,4.0
139.703,-17.179,3.271,4.0
188.093,-23.102,3.373,23.0
192.108,-23.568,2.412,27.0
80.287,-9.838,0.576,29.0
84.626,-10.377,2.978,31.0
85.74,-10.499,2.556,8.0
165.386,-20.227,4.041,8.0
188.134,-22.98,3.563,22.0
153.711,-18.752,2.084,9.0
80.286,-9.783,0.656,30.0
84.633,-10.319,3.064,31.0
84.23,-10.256,2.595,11.0
0.0,0.0,0.0,0.0
187.99,-22.828,3.746,18.0
153.701,-18.64,2.235,15.0
80.236,-9.717,0.735,26.0
84.754,-10.272,3.151,26.0
84.227,-10.193,2.677,27.0
139.059,-16.804,3.671,19.0
153.809,-18.56,3.216,20.0
153.728,-18.524,2.387,17.0
80.21,-9.652,0.812,19.0
84.733,-10.203,3.233,15.0
84.339,-10.14,2.763,30.0
138.923,-16.676,3.803,18.0
153.771,-18.431,3.363,24.0
153.738,-18.4,2.533,20.0
80.403,-9.609,0.891,9.0
84.657,-10.125,3.311,16.0
84.564,-10.097,2.849,30.0
84.287,-10.048,2.385,25.0
138.828,-16.523,3.166,11.0
188.289,-22.374,3.279,8.0
192.203,-22.804,2.31,15.0
84.069,-9.982,3.365,27.0
84.605,-10.028,2.93,37.0
84.244,-9.968,2.462,31.0
85.248,-10.071,2.021,7.0
85.282,-10.058,1.561,6.0
192.299,-22.644,2.483,30.0
83.925,-9.89,3.435,34.0
84.499,-9.94,3.002,33.0
84.202,-9.887,2.535,39.0
84.19,-9.868,2.071,14.0
85.351,-9.987,1.639,14.0
85.104,-9.941,1.174,8.0
83.896,-9.808,3.508,36.0
83.933,-9.794,3.054,40.0
83.81,-9.761,2.597,34.0
84.248,-9.794,2.145,27.0
85.187,-9.886,1.708,17.0
84.822,-9.826,1.242,17.0
83.903,-9.727,3.58,37.0
83.789,-9.694,3.12,43.0
83.114,-9.597,2.646,21.0
83.997,-9.681,2.209,20.0
85.226,-9.804,1.78,17.0
84.578,-9.711,1.309,17.0
84.118,-9.665,3.66,42.0
83.512,-9.576,3.18,38.0
82.537,-9.445,2.695,15.0
82.252,-9.394,2.232,16.0
85.169,-9.707,1.849,10.0
84.532,-9.616,1.377,14.0
84.045,-9.568,3.724,35.0
83.112,-9.442,3.232,30.0
82.194,-9.318,2.749,21.0
82.261,-9.306,2.296,19.0
82.647,-9.33,1.86,32.0
84.455,-9.515,1.442,25.0
83.882,-9.458,3.783,37.0
82.68,-9.301,3.279,22.0
82.359,-9.245,2.819,32.0
82.091,-9.194,2.356,31.0
82.48,-9.218,1.919,29.0
82.21,-9.169,1.466,14.0
83.847,-9.359,3.845,42.0
82.63,-9.201,3.34,31.0
82.441,-9.159,2.883,37.0
81.97,-9.086,2.413,41.0
81.974,-9.066,1.968,45.0
82.274,-9.079,1.528,27.0
83.739,-9.248,3.902,44.0
82.573,-9.097,3.397,36.0
82.379,-9.054,2.941,37.0
81.97,-8.988,2.471,42.0
81.845,-8.954,2.022,44.0
81.979,-8.948,1.58,43.0
83.826,-9.157,3.964,31.0
82.522,-8.992,3.452,38.0
82.319,-8.948,2.995,38.0
81.596,-8.848,2.516,35.0
81.914,-8.861,2.08,41.0
81.946,-8.844,1.634,42.0
84.212,-9.095,4.039,48.0
83.49,-8.993,3.549,53.0
82.279,-8.84,3.048,38.0
81.533,-8.738,2.567,38.0
81.846,-8.75,2.132,44.0
81.899,-8.734,1.686,38.0
84.039,-8.97,4.085,35.0
82.842,-8.819,3.573,34.0
82.392,-8.748,3.103,38.0
81.737,-8.655,2.625,34.0
81.684,-8.627,2.177,42.0
81.834,-8.621,1.735,39.0
83.948,-8.85,4.132,22.0
82.249,-8.648,3.598,30.0
82.524,-8.653,3.158,38.0
82.137,-8.589,2.687,64.0
81.669,-8.517,2.225,35.0
81.925,-8.522,1.784,45.0
83.549,-8.697,4.16,37.0
81.995,-8.511,3.634,28.0
82.298,-8.519,3.196,42.0
82.282,-8.494,2.737,53.0
81.721,-8.412,2.272,43.0
82.053,-8.424,1.832,43.0
82.724,-8.499,4.164,33.0
81.995,-8.399,3.678,26.0
82.134,-8.389,3.233,45.0
82.16,-8.368,2.777,64.0
81.831,-8.311,2.317,41.0
82.399,-8.345,1.882,52.0
82.479,-8.359,4.194,42.0
82.082,-8.293,3.723,36.0
82.14,-8.275,3.275,37.0
81.847,-8.22,2.807,43.0
82.161,-8.228,2.367,48.0
82.619,-8.25,1.928,19.0
82.388,-8.232,4.229,29.0
82.034,-8.171,3.761,36.0
82.859,-8.227,3.343,44.0
81.828,-8.1,2.844,38.0
82.276,-8.121,2.408,41.0
82.477,-8.116,1.962,29.0
82.158,-8.089,4.254,30.0
81.767,-8.025,3.785,40.0
82.309,-8.052,3.357,22.0
82.057,-8.002,2.888,50.0
82.161,-7.986,2.44,39.0
82.204,-7.967,1.991,30.0
81.849,-7.936,4.273,36.0
81.799,-7.905,3.819,36.0
84.824,-8.17,3.494,12.0
82.117,-7.884,2.922,41.0
82.109,-7.859,2.47,45.0
82.021,-7.825,2.017,39.0
81.875,-7.815,4.305,31.0
81.885,-7.79,3.854,33.0
81.84,-7.759,3.401,9.0
81.86,-7.735,2.943,44.0
82.107,-7.732,2.5,48.0
82.029,-7.7,2.046,40.0
82.197,-7.718,4.35,34.0
82.198,-7.692,3.896,34.0
81.862,-7.633,3.43,34.0
81.892,-7.61,2.971,41.0
82.083,-7.603,2.526,44.0
82.113,-7.58,2.074,41.0
83.264,-7.688,4.433,30.0
82.002,-7.544,3.912,38.0
81.723,-7.491,3.448,40.0
81.969,-7.488,2.998,48.0
82.179,-7.48,2.552,40.0
82.387,-7.474,2.104,38.0
83.51,-7.578,4.469,52.0
81.973,-7.41,3.933,45.0
81.731,-7.362,3.469,34.0
82.089,-7.367,3.023,49.0
82.148,-7.346,2.572,41.0
82.46,-7.347,2.126,39.0
83.385,-7.43,4.482,37.0
82.733,-7.344,3.988,52.0
81.71,-7.227,3.487,37.0
82.2,-7.243,3.045,47.0
82.147,-7.212,2.588,36.0
83.844,-7.334,2.179,13.0
83.185,-7.278,4.487,38.0
82.9,-7.225,4.013,36.0
81.732,-7.096,3.503,36.0
82.414,-7.127,3.067,47.0
82.382,-7.097,2.61,42.0
83.051,-7.128,2.173,32.0
83.297,-7.15,4.507,37.0
83.29,-7.121,4.044,42.0
81.897,-6.974,3.522,34.0
81.92,-6.948,3.061,43.0
82.159,-6.942,2.614,46.0
82.787,-6.968,2.177,53.0
83.767,-7.05,4.543,39.0
83.349,-6.986,4.057,43.0
82.363,-6.875,3.551,20.0
81.975,-6.814,3.072,41.0
82.235,-6.808,2.625,45.0
82.376,-6.793,2.173,37.0
83.524,-6.887,4.536,39.0
83.317,-6.841,4.062,35.0
83.56,-6.832,3.609,25.0
82.486,-6.716,3.096,40.0
82.39,-6.681,2.635,41.0
82.274,-6.645,2.175,36.0
83.277,-6.724,4.527,35.0
83.111,-6.682,4.055,38.0
83.887,-6.716,3.626,32.0
82.319,-6.562,3.092,42.0
82.468,-6.545,2.639,45.0
82.133,-6.491,2.173,33.0
83.322,-6.583,4.53,45.0
83.247,-6.548,4.062,34.0
83.829,-6.564,3.623,24.0
82.462,-6.428,3.097,44.0
82.666,-6.417,2.644,38.0
82.311,-6.361,2.175,38.0
83.357,-6.439,4.529,40.0
83.597,-6.428,4.076,35.0
83.587,-6.399,3.609,22.0
82.551,-6.292,3.096,37.0
82.852,-6.286,2.645,55.0
82.493,-6.232,2.174,36.0
83.831,-6.328,4.549,37.0
83.36,-6.263,4.058,42.0
83.381,-6.236,3.593,23.0
82.696,-6.156,3.093,40.0
82.904,-6.143,2.639,43.0
82.343,-6.074,2.162,33.0
84.158,-6.203,4.557,36.0
83.332,-6.113,4.046,37.0
82.95,-6.057,3.564,25.0
82.979,-6.03,3.093,42.0
82.835,-5.991,2.625,54.0
82.467,-5.937,2.154,37.0
84.121,-6.05,4.542,30.0
83.414,-5.969,4.037,36.0
83.585,-5.952,3.577,59.0
82.977,-5.879,3.079,46.0
82.796,-5.839,2.61,43.0
82.536,-5.792,2.14,35.0
84.212,-5.904,4.53,39.0
83.661,-5.836,4.032,23.0
24.579,-1.705,1.047,17.0
24.559,-1.695,0.906,21.0
24.57,-1.688,0.769,6.0
82.503,-5.64,2.12,27.0
24.508,-1.673,1.312,41.0
24.505,-1.665,1.175,28.0
24.471,-1.654,1.036,25.0
24.458,-1.644,0.896,29.0
24.519,-1.64,0.761,42.0
24.551,-1.634,0.624,27.0
24.485,-1.628,1.305,77.0
24.479,-1.619,1.167,54.0
24.479,-1.61,1.029,43.0
24.461,-1.6,0.889,61.0
24.508,-1.595,0.753,62.0
24.54,-1.588,0.617,58.0
24.474,-1.582,1.296,91.0
24.457,-1.573,1.158,66.0
24.461,-1.564,1.021,39.0
24.455,-1.555,0.881,69.0
24.501,-1.549,0.745,60.0
24.537,-1.543,0.608,92.0
24.466,-1.537,1.287,92.0
24.439,-1.526,1.148,55.0
24.459,-1.519,1.012,41.0
24.467,-1.511,0.872,59.0
24.521,-1.506,0.736,64.0
24.548,-1.5,0.599,72.0
24.441,-1.491,1.276,69.0
24.461,-1.483,1.14,28.0
24.467,-1.475,1.002,27.0
24.504,-1.469,0.863,63.0
24.549,-1.463,0.727,77.0
24.575,-1.456,0.59,78.0
24.485,-1.448,1.268,71.0
24.5,-1.44,1.131,61.0
24.514,-1.433,0.993,39.0
24.545,-1.426,0.854,43.0
24.585,-1.42,0.717,35.0
24.585,-1.411,0.578,23.0
24.557,-1.406,1.26,33.0
24.553,-1.398,1.121,19.0
24.611,-1.393,0.985,2.0
24.605,-1.384,0.843,4.0
84.035,-4.699,2.409,43.0
83.553,-4.644,1.925,36.0
28.421,-1.575,1.444,70.0
83.499,-4.601,3.771,35.0
83.487,-4.57,3.299,31.0
83.645,-4.55,2.824,45.0
84.212,-4.552,2.368,36.0
84.072,-4.515,1.89,43.0
28.421,-1.522,1.428,68.0
83.618,-4.45,3.729,28.0
83.707,-4.425,3.259,31.0
84.748,-4.451,2.812,50.0
84.501,-4.409,2.328,42.0
84.818,-4.398,1.857,44.0
28.413,-1.468,1.41,52.0
85.237,-4.376,3.749,33.0
86.507,-4.412,3.316,12.0
85.287,-4.321,2.778,48.0
84.782,-4.268,2.282,36.0
84.675,-4.233,1.802,42.0
28.386,-1.414,1.391,22.0
85.949,-4.253,3.725,35.0
85.002,-4.178,3.203,17.0
85.855,-4.191,2.741,36.0
84.768,-4.109,2.226,33.0
84.643,-4.075,1.744,38.0
28.399,-1.362,1.372,4.0
0.0,0.0,0.0,0.0
86.184,-4.077,3.188,12.0
86.046,-4.042,2.687,20.0
84.984,-3.963,2.173,36.0
85.069,-3.94,1.693,18.0
164.201,-7.576,7.82,13.0
159.72,-7.314,6.699,31.0
165.964,-7.543,6.019,26.0
85.832,-3.873,2.618,9.0
31.356,-1.404,0.778,5.0
31.286,-1.391,0.599,30.0
31.355,-1.388,1.469,1.0
28.42,-1.249,1.17,1.0
28.461,-1.241,1.01,47.0
28.438,-1.23,0.845,65.0
28.435,-1.221,0.684,63.0
28.434,-1.212,0.522,87.0
28.425,-1.206,1.309,66.0
28.424,-1.196,1.148,101.0
28.424,-1.187,0.986,105.0
28.434,-1.178,0.822,107.0
28.45,-1.169,0.661,128.0
28.444,-1.16,0.499,150.0
28.433,-1.154,1.286,146.0
28.428,-1.144,1.124,103.0
28.433,-1.135,0.962,70.0
28.436,-1.126,0.798,61.0
28.452,-1.117,0.637,67.0
28.451,-1.108,0.475,29.0
28.439,-1.102,1.261,28.0
31.237,-1.2,1.207,45.0
31.265,-1.191,1.03,47.0
31.288,-1.182,0.85,64.0
31.299,-1.172,0.672,58.0
31.315,-1.163,0.495,51.0
31.253,-1.154,1.358,47.0
31.246,-1.144,1.179,41.0
31.264,-1.134,1.002,37.0
31.326,-1.126,0.822,54.0
31.388,-1.119,0.645,9.0
84.314,-2.979,1.254,16.0
31.299,-1.099,1.33,34.0
31.308,-1.089,1.152,38.0
31.365,-1.081,0.975,7.0
38.703,-1.321,0.978,9.0
38.721,-1.31,0.758,11.0
38.736,-1.298,0.538,19.0
38.649,-1.287,1.604,72.0
38.652,-1.275,1.383,64.0
38.626,-1.262,1.162,59.0
38.618,-1.249,0.938,65.0
38.629,-1.238,0.718,66.0
38.646,-1.227,0.498,62.0
38.655,-1.218,1.565,92.0
38.609,-1.204,1.342,63.0
38.581,-1.191,1.121,64.0
38.623,-1.18,0.897,88.0
38.65,-1.169,0.678,98.0
38.645,-1.157,0.457,90.0
38.65,-1.148,1.523,101.0
38.584,-1.134,1.3,66.0
38.584,-1.123,1.079,65.0
38.644,-1.112,0.856,86.0
38.62,-1.099,0.635,69.0
38.644,-1.088,0.415,72.0
38.661,-1.08,1.481,53.0
38.583,-1.066,1.257,58.0
38.644,-1.056,1.038,83.0
38.644,-1.044,0.813,57.0
38.666,-1.033,0.593,54.0
38.682,-1.021,0.372,49.0
45.714,-1.196,1.699,24.0
38.682,-1.0,1.216,45.0
38.666,-0.988,0.994,42.0
0.0,0.0,0.0,0.0
40.437,-1.01,0.574,28.0
40.409,-0.997,0.342,28.0
40.426,-0.987,1.455,28.0
38.729,-0.934,1.172,24.0
0.0,0.0,0.0,0.0
40.398,-0.951,0.756,38.0
40.404,-0.939,0.526,52.0
40.432,-0.928,0.294,153.0
40.408,-0.917,1.406,40.0
40.405,-0.905,1.174,33.0
38.405,-0.849,0.896,13.0
38.39,-0.838,0.672,39.0
38.381,-0.826,0.452,48.0
38.38,-0.815,0.233,30.0
45.701,-0.96,1.534,47.0
45.707,-0.947,1.272,41.0
38.288,-0.782,0.846,10.0
52.981,-1.067,0.862,23.0
52.978,-1.052,0.559,37.0
52.959,-1.036,0.255,42.0
64.318,-1.243,2.077,26.0
64.314,-1.224,1.708,26.0
193.342,-3.626,4.028,7.0
192.827,-3.56,2.891,22.0
0.0,0.0,0.0,0.0
20.146,-0.36,0.071,21.0
64.305,-1.134,1.993,82.0
176.583,-3.067,4.459,28.0
176.62,-3.016,3.445,71.0
20.157,-0.338,0.275,1.0
20.124,-0.332,0.159,9.0
20.144,-0.326,0.044,45.0
59.484,-0.95,1.763,18.0
59.516,-0.934,1.422,11.0
20.145,-0.31,0.365,5.0
20.122,-0.304,0.247,11.0
20.123,-0.299,0.132,12.0
59.512,-0.869,0.049,46.0
59.408,-0.852,1.68,19.0
20.165,-0.284,0.454,7.0
20.118,-0.277,0.337,13.0
20.118,-0.272,0.22,10.0
20.157,-0.267,0.105,3.0
59.561,-0.774,-0.032,24.0
59.413,-0.757,1.597,16.0
20.133,-0.251,0.425,11.0
20.137,-0.245,0.309,10.0
20.147,-0.24,0.192,3.0
56.216,-0.656,0.212,2.0
56.202,-0.64,-0.11,1.0
20.155,-0.224,0.512,14.0
20.153,-0.219,0.396,16.0
64.318,-0.682,0.896,18.0
64.314,-0.665,0.519,79.0
56.208,-0.566,0.13,6.0
56.254,-0.552,-0.192,9.0
20.15,-0.192,0.483,13.0
53.477,-0.498,0.974,15.0
64.363,-0.582,0.802,31.0
66.51,-0.585,0.439,28.0
56.253,-0.48,0.047,5.0
20.182,-0.167,-0.098,12.0
20.226,-0.162,0.454,27.0
20.224,-0.157,0.338,20.0
20.178,-0.151,0.221,16.0
20.15,-0.146,0.102,15.0
20.165,-0.141,-0.013,24.0
20.149,-0.136,-0.129,23.0
20.126,-0.131,0.421,17.0
20.12,-0.125,0.305,19.0
20.12,-0.12,0.189,19.0
20.133,-0.115,0.071,34.0
20.132,-0.11,-0.044,30.0
20.144,-0.106,-0.16,34.0
20.126,-0.101,0.39,35.0
20.129,-0.096,0.274,27.0
20.112,-0.09,0.158,26.0
20.12,-0.086,0.04,34.0
20.143,-0.081,-0.075,32.0
20.146,-0.076,-0.191,27.0
20.112,-0.071,0.358,33.0
20.123,-0.066,0.243,28.0
20.107,-0.061,0.126,34.0
20.126,-0.056,0.008,36.0
20.141,-0.052,-0.107,34.0
20.147,-0.047,-0.223,10.0
20.121,-0.042,0.326,32.0
20.111,-0.037,0.21,35.0
20.129,-0.033,0.094,37.0
20.103,-0.028,-0.023,19.0
20.184,-0.023,-0.139,22.0
20.182,-0.019,-0.256,6.0
20.127,-0.014,0.294,28.0
20.126,-0.009,0.178,28.0
20.176,-0.005,0.062,29.0
20.248,0.0,-0.056,151.0
20.26,0.004,-0.173,151.0
20.266,0.008,-0.29,150.0
20.127,0.013,0.261,28.0
20.137,0.017,0.145,27.0
20.256,0.022,0.029,50.0
20.263,0.027,-0.089,150.0
20.245,0.031,-0.206,150.0
20.23,0.036,-0.323,6.0
20.14,0.04,0.228,29.0
20.16,0.045,0.111,28.0
20.218,0.049,-0.004,27.0
20.212,0.054,-0.123,25.0
20.236,0.058,-0.24,1.0
42.732,0.132,-0.754,0.0
20.153,0.067,0.194,30.0
20.198,0.071,0.077,34.0
20.192,0.075,-0.038,28.0
20.19,0.08,-0.157,29.0
20.201,0.084,-0.274,17.0
41.892,0.184,-0.811,0.0
20.156,0.093,0.159,27.0
20.195,0.097,0.043,36.0
20.191,0.101,-0.073,30.0
20.176,0.105,-0.192,24.0
20.199,0.11,-0.309,26.0
20.214,0.114,-0.426,1.0
20.19,0.118,0.124,30.0
20.186,0.122,0.007,27.0
20.178,0.127,-0.108,34.0
20.176,0.131,-0.227,32.0
20.199,0.135,-0.344,30.0
20.193,0.139,-0.461,17.0
20.227,0.143,0.089,30.0
20.22,0.147,-0.027,22.0
20.182,0.151,-0.144,25.0
20.171,0.155,-0.263,33.0
20.175,0.16,-0.38,30.0
20.192,0.164,-0.497,26.0
20.314,0.169,0.053,30.0
20.227,0.172,-0.064,15.0
20.176,0.175,-0.18,16.0
20.17,0.179,-0.299,29.0
20.179,0.183,-0.416,34.0
20.186,0.187,-0.533,31.0
20.334,0.192,0.017,29.0
20.219,0.195,-0.1,2.0
20.169,0.199,-0.216,18.0
20.17,0.202,-0.335,28.0
20.189,0.206,-0.452,24.0
20.2,0.21,-0.57,34.0
20.343,0.216,-0.019,0.0
20.178,0.217,-0.136,0.0
20.216,0.222,-0.254,22.0
20.177,0.225,-0.372,27.0
20.182,0.229,-0.489,23.0
20.209,0.233,-0.607,29.0
0.0,0.0,0.0,0.0
20.206,0.24,-0.173,0.0
20.188,0.243,-0.29,11.0
20.183,0.247,-0.409,19.0
20.2,0.251,-0.527,25.0
20.213,0.255,-0.644,24.0
0.0,0.0,0.0,0.0
0.0,0.0,0.0,0.0
20.22,0.265,-0.328,1.0
20.2,0.268,-0.447,3.0
20.193,0.272,-0.564,11.0
20.219,0.276,-0.682,9.0
0.0,0.0,0.0,0.0
0.0,0.0,0.0,0.0
42.774,0.605,-0.775,0.0
0.0,0.0,0.0,0.0
20.272,0.293,-0.604,0.0
25.034,0.366,-0.891,0.0
0.0,0.0,0.0,0.0
0.0,0.0,0.0,0.0
0.0,0.0,0.0,0.0
32.468,0.496,-0.84,1.0
27.934,0.432,-0.885,0.0
23.911,0.373,-0.897,0.0
0.0,0.0,0.0,0.0
0.0,0.0,0.0,0.0
37.376,0.6,-0.817,0.0
31.198,0.506,-0.866,1.0
26.407,0.433,-0.887,0.0
22.856,0.378,-0.9,0.0
0.0,0.0,0.0,0.0
41.506,0.698,-0.745,0.0
34.172,0.58,-0.812,2.0
29.19,0.5,-0.866,0.0
25.071,0.433,-0.889,0.0
20.139,0.351,-0.831,1.0
0.0,0.0,0.0,0.0
0.0,0.0,0.0,0.0
32.659,0.583,-0.838,1.0
28.433,0.511,-0.898,0.0
23.831,0.432,-0.891,0.0
20.97,0.383,-0.906,0.0
0.0,0.0,0.0,0.0
0.0,0.0,0.0,0.0
31.342,0.585,-0.864,1.0
26.308,0.495,-0.881,1.0
22.807,0.432,-0.896,0.0
20.314,0.388,-0.916,0.0
0.0,0.0,0.0,0.0
34.641,0.669,-0.82,0.0
29.503,0.574,-0.87,0.0
25.048,0.491,-0.887,0.0
22.161,0.437,-0.914,0.0
19.631,0.39,-0.923,0.0
38.665,0.772,-0.766,0.0
32.491,0.653,-0.832,1.0
27.721,0.56,-0.871,0.0
23.956,0.488,-0.894,0.0
20.995,0.43,-0.906,0.0
18.73,0.386,-0.917,0.0
37.146,0.769,-0.808,0.0
31.171,0.649,-0.859,1.0
26.346,0.552,-0.879,0.0
22.813,0.481,-0.896,0.0
20.328,0.431,-0.917,0.0
18.2,0.388,-0.927,0.0
34.045,0.728,-0.806,0.0
28.871,0.621,-0.851,0.0
25.004,0.541,-0.883,0.0
22.114,0.481,-0.912,0.0
19.549,0.427,-0.92,0.0
17.602,0.387,-0.931,0.0
32.348,0.713,-0.829,1.0
27.814,0.616,-0.874,0.0
24.023,0.535,-0.895,0.0
20.93,0.469,-0.904,0.0
18.742,0.422,-0.919,0.0
16.93,0.383,-0.928,0.0
31.145,0.706,-0.859,1.0
26.276,0.598,-0.878,0.0
22.784,0.521,-0.893,0.0
20.219,0.465,-0.912,0.0
18.144,0.419,-0.924,0.0
16.452,0.382,-0.934,0.0
28.781,0.669,-0.85,0.0
25.007,0.583,-0.883,0.0
22.132,0.519,-0.911,0.0
19.492,0.459,-0.917,0.0
17.439,0.412,-0.922,0.0
16.027,0.381,-0.941,0.0
27.407,0.651,-0.862,0.0
23.937,0.571,-0.892,0.0
20.971,0.502,-0.903,0.0
18.642,0.449,-0.914,0.0
16.865,0.407,-0.925,0.0
15.414,0.374,-0.935,0.0
26.149,0.634,-0.873,0.0
22.721,0.553,-0.891,0.0
20.288,0.496,-0.914,0.0
18.062,0.443,-0.92,0.0
16.392,0.404,-0.931,0.0
15.002,0.371,-0.94,0.0
24.856,0.614,-0.879,0.0
22.089,0.548,-0.91,0.0
19.55,0.487,-0.919,0.0
17.479,0.437,-0.925,0.0
15.942,0.4,-0.936,0.0
14.612,0.368,-0.943,0.0
23.851,0.6,-0.889,0.0
20.925,0.528,-0.902,0.0
18.665,0.472,-0.913,0.0
16.809,0.427,-0.922,0.0
15.427,0.393,-0.936,0.0
14.257,0.364,-0.948,0.0
22.629,0.577,-0.887,0.0
20.188,0.517,-0.909,0.0
18.091,0.464,-0.92,0.0
16.364,0.421,-0.929,0.0
14.979,0.387,-0.938,0.0
13.767,0.357,-0.942,0.0
22.109,0.572,-0.91,0.0
19.58,0.508,-0.919,0.0
17.405,0.452,-0.919,0.0
15.944,0.416,-0.936,0.0
14.595,0.382,-0.942,0.0
13.383,0.351,-0.942,0.0
20.87,0.546,-0.899,0.0
18.755,0.492,-0.917,0.0
16.858,0.443,-0.922,0.0
15.355,0.405,-0.931,0.0
14.332,0.379,-0.953,0.0
13.044,0.346,-0.944,0.0
20.174,0.533,-0.908,0.0
18.074,0.479,-0.919,0.0
16.411,0.436,-0.93,0.0
14.993,0.399,-0.938,0.0
13.788,0.368,-0.943,0.0
12.799,0.342,-0.95,0.0
19.572,0.522,-0.918,0.0
17.393,0.464,-0.917,0.0
15.917,0.426,-0.932,0.0
14.55,0.39,-0.938,0.0
13.403,0.36,-0.942,0.0
12.413,0.334,-0.945,0.0
18.716,0.502,-0.914,0.0
16.879,0.454,-0.922,0.0
15.414,0.415,-0.932,0.0
14.278,0.385,-0.948,0.0
13.108,0.354,-0.947,0.0
12.151,0.329,-0.949,0.0
18.108,0.488,-0.918,0.0
16.437,0.444,-0.929,0.0
14.97,0.405,-0.933,0.0
0.0,0.0,0.0,0.0
12.802,0.348,-0.949,0.0
11.848,0.322,-0.948,0.0
17.497,0.474,-0.92,0.0
16.006,0.434,-0.935,0.0
14.573,0.396,-0.936,0.0
13.356,0.363,-0.937,0.0
12.44,0.339,-0.945,0.0
11.483,0.313,-0.94,0.0
16.89,0.459,-0.92,0.0
15.4,0.419,-0.928,0.0
14.336,0.39,-0.947,0.0
13.097,0.357,-0.943,0.0
12.137,0.331,-0.945,0.0
11.297,0.309,-0.946,0.0
16.436,0.447,-0.926,0.0
15.027,0.409,-0.934,0.0
13.892,0.378,-0.944,0.0
12.774,0.348,-0.944,0.0
11.851,0.323,-0.945,0.0
11.035,0.302,-0.945,0.0
16.031,0.435,-0.932,0.0
14.611,0.397,-0.935,0.0
13.462,0.366,-0.94,0.0
12.465,0.34,-0.944,0.0
11.527,0.314,-0.94,0.0
10.793,0.294,-0.944,0.0
15.451,0.419,-0.927,0.0
14.335,0.389,-0.943,0.0
13.202,0.359,-0.946,0.0
12.173,0.331,-0.944,0.0
11.36,0.309,-0.948,0.0
10.61,0.289,-0.947,0.0
15.11,0.409,-0.934,0.0
14.025,0.379,-0.948,0.0
12.901,0.349,-0.947,0.0
11.888,0.322,-0.944,0.0
11.13,0.302,-0.949,0.0
10.386,0.281,-0.946,0.0
14.695,0.395,-0.934,0.0
13.494,0.363,-0.936,0.0
12.528,0.337,-0.943,0.0
11.566,0.311,-0.939,0.0
10.866,0.293,-0.946,0.0
10.173,0.274,-0.945,0.0
14.412,0.386,-0.942,0.0
13.219,0.354,-0.941,0.0
12.242,0.327,-0.943,0.0
11.342,0.303,-0.941,0.0
10.638,0.285,-0.945,0.0
9.979,0.267,-0.944,0.0
0.0,0.0,0.0,0.0
12.899,0.343,-0.941,0.0
11.983,0.318,-0.944,0.0
11.167,0.296,-0.946,0.0
10.417,0.277,-0.943,0.0
9.809,0.26,-0.946,0.0
13.69,0.36,-0.943,0.0
12.576,0.331,-0.939,0.0
11.662,0.307,-0.939,0.0
0.0,0.0,0.0,0.0
10.269,0.27,-0.948,0.0
9.63,0.253,-0.945,0.0
13.271,0.346,-0.937,0.0
12.342,0.321,-0.943,0.0
11.425,0.297,-0.939,0.0
10.697,0.278,-0.943,0.0
10.061,0.262,-0.946,0.0
9.45,0.246,-0.944,0.0
13.033,0.336,-0.942,0.0
12.063,0.31,-0.942,0.0
11.26,0.289,-0.945,0.0
10.491,0.27,-0.943,0.0
9.875,0.254,-0.945,0.0
9.289,0.238,-0.943,0.0
12.757,0.324,-0.943,0.0
11.797,0.299,-0.941,0.0
11.088,0.281,-0.949,0.0
10.35,0.262,-0.947,0.0
9.731,0.246,-0.947,0.0
9.157,0.232,-0.945,0.0
12.448,0.312,-0.941,0.0
11.451,0.286,-0.932,0.0
10.782,0.269,-0.94,0.0
10.135,0.253,-0.944,0.0
9.502,0.237,-0.941,0.0
8.987,0.224,-0.942,0.0
12.2,0.3,-0.942,0.0
11.331,0.279,-0.941,0.0
10.559,0.259,-0.938,0.0
9.953,0.244,-0.943,0.0
9.385,0.23,-0.944,0.0
8.838,0.216,-0.941,0.0
11.961,0.289,-0.942,0.0
11.221,0.271,-0.949,0.0
10.439,0.252,-0.944,0.0
9.801,0.236,-0.944,0.0
9.246,0.222,-0.945,0.0
8.698,0.209,-0.94,0.0
11.681,0.277,-0.939,0.0
11.009,0.26,-0.949,0.0
10.285,0.243,-0.946,0.0
9.643,0.227,-0.944,0.0
9.08,0.214,-0.942,0.0
8.615,0.202,-0.944,0.0
11.473,0.266,-0.94,0.0
10.713,0.248,-0.94,0.0
10.073,0.233,-0.942,0.0
9.51,0.219,-0.946,0.0
8.933,0.205,-0.941,0.0
8.458,0.194,-0.94,0.0
11.307,0.256,-0.943,0.0
10.558,0.239,-0.942,0.0
9.906,0.223,-0.941,0.0
9.311,0.209,-0.94,0.0
8.822,0.198,-0.942,0.0
8.385,0.188,-0.945,0.0
11.11,0.245,-0.943,0.0
10.381,0.229,-0.942,0.0
9.78,0.215,-0.944,0.0
9.211,0.202,-0.944,0.0
8.682,0.19,-0.94,0.0
8.263,0.18,-0.943,0.0
10.944,0.235,-0.945,0.0
10.216,0.219,-0.941,0.0
9.631,0.206,-0.943,0.0
9.065,0.193,-0.942,0.0
8.583,0.182,-0.942,0.0
8.142,0.172,-0.941,0.0
10.701,0.223,-0.939,0.0
10.07,0.209,-0.942,0.0
9.487,0.196,-0.943,0.0
8.943,0.185,-0.942,0.0
8.486,0.175,-0.943,0.0
8.07,0.165,-0.944,0.0
10.523,0.213,-0.938,0.0
9.923,0.2,-0.942,0.0
9.352,0.187,-0.942,0.0
8.804,0.176,-0.939,0.0
8.369,0.167,-0.941,0.0
7.956,0.158,-0.942,0.0
10.393,0.203,-0.94,0.0
9.803,0.191,-0.944,0.0
9.236,0.179,-0.943,0.0
8.686,0.167,-0.938,0.0
8.254,0.158,-0.94,0.0
7.866,0.15,-0.941,0.0
10.26,0.193,-0.942,0.0
9.665,0.181,-0.943,0.0
9.099,0.169,-0.941,0.0
8.578,0.159,-0.938,0.0
8.165,0.151,-0.94,0.0
7.823,0.144,-0.946,0.0
10.134,0.183,-0.943,0.0
9.521,0.171,-0.941,0.0
8.974,0.16,-0.939,0.0
8.488,0.151,-0.939,0.0
8.111,0.143,-0.944,0.0
7.714,0.136,-0.943,0.0
9.949,0.172,-0.939,0.0
9.395,0.161,-0.941,0.0
8.845,0.151,-0.937,0.0
8.377,0.142,-0.937,0.0
7.996,0.135,-0.941,0.0
7.639,0.128,-0.944,0.0
9.86,0.162,-0.942,0.0
9.261,0.152,-0.939,0.0
8.729,0.142,-0.935,0.0
8.289,0.134,-0.937,0.0
7.949,0.128,-0.945,0.0
7.561,0.121,-0.943,0.0
9.765,0.153,-0.945,0.0
9.15,0.142,-0.938,0.0
8.654,0.133,-0.937,0.0
8.209,0.126,-0.938,0.0
7.882,0.12,-0.946,0.0
7.499,0.113,-0.944,0.0
9.623,0.142,-0.942,0.0
9.061,0.133,-0.939,0.0
8.576,0.125,-0.939,0.0
8.113,0.117,-0.936,0.0
7.77,0.111,-0.941,0.0
7.465,0.106,-0.948,0.0
9.49,0.132,-0.939,0.0
8.95,0.124,-0.938,0.0
8.479,0.116,-0.937,0.0
8.029,0.109,-0.935,0.0
7.671,0.103,-0.938,0.0
7.397,0.099,-0.948,0.0
9.4,0.123,-0.94,0.0
8.837,0.114,-0.935,0.0
8.39,0.107,-0.936,0.0
8.03,0.102,-0.944,0.0
7.638,0.096,-0.942,0.0
7.315,0.091,-0.945,0.0
9.325,0.113,-0.942,0.0
8.772,0.105,-0.937,0.0
8.307,0.099,-0.936,0.0
7.937,0.093,-0.941,0.0
7.595,0.088,-0.944,0.0
7.286,0.084,-0.948,0.0
9.168,0.103,-0.936,0.0
8.69,0.096,-0.937,0.0
8.247,0.09,-0.937,0.0
7.876,0.085,-0.941,0.0
7.552,0.08,-0.946,0.0
7.247,0.076,-0.95,0.0
9.112,0.093,-0.938,0.0
8.646,0.087,-0.94,0.0
8.189,0.082,-0.938,0.0
7.792,0.076,-0.938,0.0
7.539,0.073,-0.952,0.0
7.193,0.069,-0.95,0.0
9.024,0.084,-0.938,0.0
8.568,0.078,-0.939,0.0
8.138,0.073,-0.939,0.0
7.769,0.069,-0.942,0.0
7.423,0.064,-0.944,0.0
7.125,0.061,-0.947,0.0
8.932,0.074,-0.936,0.0
8.512,0.069,-0.941,0.0
8.115,0.065,-0.944,0.0
7.676,0.06,-0.938,0.0
7.38,0.057,-0.944,0.0
7.08,0.053,-0.947,0.0
8.874,0.064,-0.937,0.0
8.449,0.06,-0.941,0.0
7.993,0.056,-0.936,0.0
7.68,0.052,-0.944,0.0
7.377,0.049,-0.95,0.0
7.05,0.046,-0.948,0.0
8.8,0.055,-0.936,0.0
8.38,0.051,-0.939,0.0
7.995,0.047,-0.942,0.0
7.57,0.044,-0.937,0.0
7.3,0.041,-0.945,0.0
7.005,0.038,-0.948,0.0
8.727,0.045,-0.935,0.0
8.297,0.042,-0.936,0.0
7.933,0.039,-0.941,0.0
7.566,0.036,-0.941,0.0
7.265,0.033,-0.946,0.0
6.955,0.031,-0.946,0.0
8.696,0.036,-0.937,0.0
8.278,0.033,-0.94,0.0
7.88,0.03,-0.94,0.0
7.529,0.027,-0.942,0.0
7.225,0.025,-0.946,0.0
6.945,0.023,-0.949,0.0
8.642,0.026,-0.937,0.0
8.23,0.024,-0.939,0.0
7.858,0.021,-0.942,0.0
7.474,0.019,-0.94,0.0
7.213,0.017,-0.949,0.0
6.905,0.015,-0.948,0.0
8.583,0.017,-0.936,0.0
8.207,0.015,-0.942,0.0
7.821,0.013,-0.942,0.0
7.49,0.011,-0.946,0.0
7.151,0.009,-0.945,0.0
6.894,0.008,-0.95,0.0
8.545,0.008,-0.936,0.0
8.162,0.006,-0.941,0.0
7.764,0.004,-0.94,0.0
7.415,0.003,-0.941,0.0
7.104,0.001,-0.942,0.0
6.899,0.0,-0.955,0.0
8.496,-0.001,-0.935,0.0
8.103,-0.002,-0.938,0.0
7.737,-0.003,-0.94,0.0
7.358,-0.004,-0.937,0.0
7.077,-0.005,-0.942,0.0
6.838,-0.006,-0.95,0.0
8.446,-0.01,-0.934,0.0
8.075,-0.011,-0.939,0.0
7.71,-0.012,-0.94,0.0
7.373,-0.013,-0.942,0.0
7.119,-0.013,-0.951,0.0
6.802,-0.014,-0.947,0.0
8.445,-0.02,-0.937,0.0
8.03,-0.02,-0.937,0.0
7.692,-0.021,-0.941,0.0
7.307,-0.021,-0.937,0.0
7.056,-0.021,-0.945,0.0
6.784,-0.022,-0.948,0.0
8.422,-0.029,-0.938,0.0
8.033,-0.029,-0.94,0.0
7.666,-0.029,-0.941,0.0
7.316,-0.029,-0.941,0.0
7.048,-0.029,-0.946,0.0
6.766,-0.029,-0.948,0.0
8.364,-0.038,-0.934,0.0
8.004,-0.038,-0.939,0.0
7.63,-0.038,-0.939,0.0
7.322,-0.037,-0.944,0.0
7.047,-0.037,-0.948,0.0
6.772,-0.037,-0.95,0.0
8.359,-0.048,-0.936,0.0
7.966,-0.047,-0.937,0.0
7.605,-0.046,-0.938,0.0
0.0,0.0,0.0,0.0
7.02,-0.045,-0.947,0.0
6.743,-0.045,-0.948,0.0
8.349,-0.057,-0.937,0.0
7.972,-0.056,-0.94,0.0
7.637,-0.055,-0.944,0.0
7.272,-0.054,-0.941,0.0
7.021,-0.053,-0.948,0.0
6.738,-0.052,-0.949,0.0
8.321,-0.066,-0.935,0.0
7.952,-0.065,-0.939,0.0
7.655,-0.064,-0.947,0.0
7.317,-0.063,-0.948,0.0
6.993,-0.061,-0.946,0.0
6.732,-0.06,-0.949,0.0
8.306,-0.076,-0.935,0.0
7.95,-0.074,-0.94,0.0
7.598,-0.072,-0.941,0.0
7.25,-0.07,-0.94,0.0
6.982,-0.069,-0.945,0.0
6.758,-0.068,-0.953,0.0
8.304,-0.085,-0.935,0.0
7.941,-0.083,-0.939,0.0
7.578,-0.081,-0.939,0.0
7.288,-0.079,-0.945,0.0
7.019,-0.077,-0.95,0.0
6.76,-0.076,-0.954,0.0
8.294,-0.094,-0.935,0.0
7.931,-0.092,-0.938,0.0
7.62,-0.09,-0.945,0.0
7.314,-0.088,-0.949,0.0
7.01,-0.085,-0.949,0.0
6.727,-0.083,-0.949,0.0
8.3,-0.104,-0.935,0.0
7.942,-0.101,-0.94,0.0
7.624,-0.099,-0.945,0.0
7.285,-0.096,-0.945,0.0
7.028,-0.094,-0.951,0.0
6.73,-0.091,-0.949,0.0
8.294,-0.113,-0.934,0.0
7.918,-0.11,-0.936,0.0
7.569,-0.106,-0.938,0.0
7.242,-0.103,-0.939,0.0
6.964,-0.101,-0.942,0.0
6.78,-0.099,-0.956,0.0
8.309,-0.123,-0.935,0.0
7.959,-0.119,-0.941,0.0
7.589,-0.115,-0.939,0.0
7.255,-0.112,-0.94,0.0
7.007,-0.109,-0.947,0.0
6.744,-0.107,-0.95,0.0
8.326,-0.132,-0.936,0.0
7.942,-0.128,-0.937,0.0
7.603,-0.124,-0.94,0.0
7.28,-0.12,-0.942,0.0
6.997,-0.117,-0.945,0.0
6.746,-0.114,-0.949,0.0
8.324,-0.142,-0.934,0.0
7.977,-0.137,-0.94,0.0
7.629,-0.133,-0.942,0.0
7.276,-0.128,-0.94,0.0
6.978,-0.124,-0.941,0.0
6.738,-0.121,-0.946,0.0
8.342,-0.151,-0.934,0.0
7.949,-0.146,-0.935,0.0
7.605,-0.141,-0.937,0.0
7.309,-0.137,-0.942,0.0
7.002,-0.133,-0.942,0.0
6.796,-0.13,-0.953,0.0
8.37,-0.161,-0.935,0.0
7.992,-0.155,-0.938,0.0
7.678,-0.151,-0.944,0.0
7.374,-0.146,-0.948,0.0
7.051,-0.141,-0.947,0.0
6.786,-0.137,-0.949,0.0
8.403,-0.171,-0.936,0.0
8.047,-0.165,-0.941,0.0
7.684,-0.159,-0.942,0.0
7.356,-0.154,-0.944,0.0
7.075,-0.15,-0.947,0.0
6.798,-0.145,-0.948,0.0
8.433,-0.181,-0.937,0.0
8.022,-0.173,-0.936,0.0
7.692,-0.168,-0.94,0.0
7.322,-0.161,-0.936,0.0
7.044,-0.157,-0.94,0.0
6.845,-0.154,-0.952,0.0
8.477,-0.191,-0.938,0.0
8.065,-0.183,-0.937,0.0
7.708,-0.176,-0.939,0.0
7.333,-0.169,-0.935,0.0
7.11,-0.166,-0.946,0.0
6.841,-0.161,-0.949,0.0
9.78,-0.372,-0.951,0.0
9.24,-0.353,-0.949,0.0
8.715,-0.334,-0.942,0.0
8.304,-0.32,-0.943,0.0
7.921,-0.306,-0.943,0.0
7.58,-0.294,-0.943,0.0
9.907,-0.384,-0.952,0.0
9.37,-0.364,-0.951,0.0
8.841,-0.345,-0.945,0.0
8.382,-0.329,-0.942,0.0
7.989,-0.315,-0.941,0.0
7.658,-0.303,-0.944,0.0
10.01,-0.395,-0.95,0.0
9.484,-0.375,-0.952,0.0
8.939,-0.355,-0.945,0.0
8.474,-0.338,-0.943,0.0
8.06,-0.323,-0.94,0.0
7.735,-0.311,-0.944,0.0
10.171,-0.407,-0.953,0.0
9.643,-0.388,-0.956,0.0
9.062,-0.366,-0.947,0.0
8.588,-0.348,-0.945,0.0
8.168,-0.332,-0.943,0.0
7.829,-0.319,-0.946,0.0
10.321,-0.42,-0.955,0.0
9.743,-0.398,-0.953,0.0
9.185,-0.376,-0.948,0.0
8.697,-0.357,-0.946,0.0
8.273,-0.341,-0.944,0.0
7.895,-0.327,-0.944,0.0
10.483,-0.433,-0.956,0.0
9.864,-0.408,-0.953,0.0
9.328,-0.387,-0.951,0.0
8.802,-0.367,-0.946,0.0
8.361,-0.35,-0.943,0.0
7.988,-0.335,-0.944,0.0
10.617,-0.444,-0.955,0.0
9.993,-0.419,-0.952,0.0
9.457,-0.398,-0.952,0.0
8.93,-0.377,-0.947,0.0
8.496,-0.36,-0.947,0.0
8.071,-0.343,-0.943,0.0
10.795,-0.457,-0.956,0.0
10.164,-0.431,-0.955,0.0
9.604,-0.409,-0.954,0.0
9.061,-0.387,-0.949,0.0
8.593,-0.368,-0.946,0.0
8.178,-0.351,-0.944,0.0
11.0,-0.471,-0.959,0.0
10.342,-0.444,-0.957,0.0
9.735,-0.419,-0.953,0.0
9.218,-0.398,-0.953,0.0
8.706,-0.377,-0.946,0.0
8.296,-0.36,-0.946,0.0
11.118,-0.481,-0.954,0.0
10.506,-0.456,-0.958,0.0
9.888,-0.43,-0.954,0.0
9.347,-0.408,-0.953,0.0
8.834,-0.386,-0.948,0.0
8.385,-0.368,-0.945,0.0
11.311,-0.494,-0.955,0.0
10.633,-0.466,-0.954,0.0
10.063,-0.442,-0.957,0.0
9.494,-0.418,-0.954,0.0
8.97,-0.396,-0.949,0.0
8.51,-0.376,-0.946,0.0
11.514,-0.507,-0.955,0.0
10.835,-0.479,-0.957,0.0
10.225,-0.453,-0.957,0.0
9.661,-0.429,-0.957,0.0
9.129,-0.406,-0.953,0.0
8.655,-0.386,-0.949,0.0
11.784,-0.524,-0.96,0.0
11.072,-0.493,-0.961,0.0
10.41,-0.464,-0.959,0.0
9.799,-0.438,-0.956,0.0
9.28,-0.416,-0.954,0.0
8.757,-0.393,-0.947,0.0
11.994,-0.537,-0.959,0.0
11.197,-0.502,-0.955,0.0
10.578,-0.475,-0.958,0.0
9.958,-0.448,-0.956,0.0
9.428,-0.425,-0.955,0.0
8.901,-0.402,-0.949,0.0
12.289,-0.553,-0.964,0.0
11.459,-0.517,-0.96,0.0
10.77,-0.487,-0.959,0.0
10.115,-0.458,-0.955,0.0
9.636,-0.437,-0.961,0.0
9.069,-0.412,-0.953,0.0
12.518,-0.567,-0.963,0.0
11.664,-0.529,-0.959,0.0
10.945,-0.497,-0.957,0.0
10.333,-0.47,-0.96,0.0
9.765,-0.445,-0.959,0.0
9.237,-0.422,-0.956,0.0
12.769,-0.58,-0.962,0.0
11.905,-0.542,-0.96,0.0
11.175,-0.51,-0.96,0.0
10.491,-0.479,-0.958,0.0
9.907,-0.453,-0.957,0.0
9.37,-0.429,-0.954,0.0
13.117,-0.599,-0.967,0.0
12.265,-0.56,-0.969,0.0
11.402,-0.522,-0.961,0.0
10.675,-0.489,-0.957,0.0
10.097,-0.463,-0.959,0.0
9.57,-0.44,-0.959,0.0
13.363,-0.612,-0.964,0.0
12.488,-0.572,-0.966,0.0
11.574,-0.531,-0.956,0.0
10.798,-0.496,-0.95,0.0
10.286,-0.473,-0.96,0.0
9.727,-0.448,-0.959,0.0
13.5,-0.619,-0.951,0.0
12.726,-0.584,-0.964,0.0
11.842,-0.544,-0.959,0.0
11.147,-0.513,-0.963,0.0
10.459,-0.481,-0.958,0.0
9.911,-0.457,-0.961,0.0
13.964,-0.641,-0.961,0.0
13.108,-0.602,-0.971,0.0
12.175,-0.56,-0.966,0.0
11.297,-0.52,-0.957,0.0
10.686,-0.492,-0.961,0.0
10.051,-0.463,-0.957,0.0
14.375,-0.66,-0.965,0.0
13.356,-0.614,-0.967,0.0
12.44,-0.572,-0.966,0.0
11.572,-0.532,-0.96,0.0
10.885,-0.501,-0.961,0.0
10.3,-0.474,-0.963,0.0
14.607,-0.67,-0.956,0.0
13.592,-0.624,-0.961,0.0
12.735,-0.585,-0.967,0.0
11.839,-0.544,-0.962,0.0
11.149,-0.513,-0.965,0.0
10.488,-0.482,-0.963,0.0
15.456,-0.708,-0.986,0.0
13.875,-0.636,-0.957,0.0
13.056,-0.599,-0.969,0.0
12.18,-0.559,-0.969,0.0
11.346,-0.521,-0.963,0.0
10.67,-0.49,-0.961,0.0
15.527,-0.71,-0.964,0.0
14.327,-0.655,-0.964,0.0
13.327,-0.609,-0.967,0.0
12.445,-0.569,-0.969,0.0
11.536,-0.528,-0.959,0.0
10.842,-0.496,-0.958,0.0
15.542,-0.708,-0.938,0.0
14.591,-0.665,-0.956,0.0
13.546,-0.617,-0.959,0.0
12.712,-0.579,-0.967,0.0
11.854,-0.54,-0.964,0.0
11.141,-0.508,-0.965,0.0
15.527,-0.704,-0.91,1.0
15.43,-0.7,-0.984,0.0
13.9,-0.63,-0.959,0.0
13.089,-0.594,-0.973,0.0
12.218,-0.554,-0.972,0.0
11.341,-0.514,-0.962,0.0
15.556,-0.702,-0.884,1.0
15.541,-0.701,-0.964,0.0
14.406,-0.65,-0.969,0.0
13.343,-0.602,-0.968,0.0
12.473,-0.562,-0.971,0.0
11.581,-0.522,-0.962,0.0
15.609,-0.7,-0.859,1.0
15.568,-0.698,-0.938,0.0
14.611,-0.655,-0.957,0.0
13.645,-0.611,-0.966,0.0
12.749,-0.571,-0.97,0.0
11.871,-0.531,-0.965,0.0
15.721,-0.701,-0.838,0.0
15.596,-0.695,-0.912,1.0
15.494,-0.69,-0.987,0.0
13.961,-0.621,-0.964,0.0
13.091,-0.582,-0.972,0.0
12.212,-0.542,-0.971,0.0
16.188,-0.716,-0.834,1.0
15.618,-0.69,-0.886,1.0
15.593,-0.688,-0.966,0.0
14.374,-0.634,-0.967,0.0
13.367,-0.589,-0.969,0.0
12.506,-0.55,-0.972,0.0
16.377,-0.718,-0.815,1.0
15.657,-0.685,-0.86,1.0
15.646,-0.684,-0.941,0.0
14.582,-0.637,-0.955,0.0
13.649,-0.596,-0.965,0.0
12.748,-0.556,-0.968,0.0
16.906,-0.734,-0.811,1.0
15.788,-0.684,-0.839,0.0
15.646,-0.677,-0.913,1.0
15.475,-0.669,-0.985,0.0
14.037,-0.606,-0.967,0.0
13.136,-0.566,-0.973,0.0
