X,Y,Z,Reflectivity
154.936,10.203,0.697,150.0
181.139,12.027,5.842,4.0
162.754,10.851,4.345,26.0
173.674,11.624,3.671,9.0
0.0,0.0,0.0,0.0
0.0,0.0,0.0,0.0
154.935,10.499,0.681,151.0
161.857,11.055,5.201,8.0
173.07,11.867,4.599,7.0
173.709,11.96,3.65,13.0
0.0,0.0,0.0,0.0
0.0,0.0,0.0,0.0
155.112,10.806,0.657,6.0
161.518,11.34,5.165,6.0
161.787,11.402,4.273,17.0
174.151,12.317,3.63,7.0
173.568,12.323,2.635,4.0
0.0,0.0,0.0,0.0
140.641,10.063,0.57,152.0
160.866,11.596,5.113,18.0
156.136,11.296,4.093,14.0
178.736,12.978,3.689,11.0
173.247,12.626,2.594,37.0
0.0,0.0,0.0,0.0
140.534,10.316,0.538,150.0
163.666,12.105,5.165,6.0
155.544,11.543,4.042,17.0
167.669,12.485,3.42,18.0
168.194,12.566,2.476,46.0
0.0,0.0,0.0,0.0
0.0,0.0,0.0,0.0
156.975,11.898,4.912,38.0
156.852,11.927,4.032,13.0
162.011,12.359,3.261,22.0
162.189,12.412,2.342,15.0
122.262,9.388,1.083,2.0
114.111,8.792,0.374,153.0
167.288,12.981,5.185,15.0
155.441,12.1,3.949,31.0
155.906,12.174,3.09,46.0
155.977,12.219,2.203,34.0
114.585,9.004,0.978,7.0
113.979,8.986,0.336,55.0
154.878,12.295,4.75,6.0
194.733,15.505,4.88,9.0
156.004,12.46,3.037,32.0
181.669,14.554,2.502,28.0
114.2,9.176,0.934,1.0
110.208,8.883,0.284,4.0
160.964,13.062,4.877,17.0
194.872,15.859,4.811,9.0
196.385,16.028,3.749,30.0
213.567,17.483,2.859,28.0
110.491,9.072,0.86,7.0
108.542,8.938,0.237,4.0
156.889,13.006,4.689,13.0
195.002,16.209,4.735,6.0
202.709,16.898,3.786,20.0
0.0,0.0,0.0,0.0
108.877,9.129,0.8,2.0
107.79,9.064,0.188,6.0
143.833,12.174,4.235,13.0
197.604,16.77,4.709,17.0
199.519,16.979,3.635,21.0
179.874,15.347,2.248,5.0
108.128,9.251,0.744,6.0
107.638,9.234,0.137,44.0
143.892,12.423,4.168,32.0
152.647,13.213,3.564,9.0
158.924,13.791,2.818,5.0
153.527,13.356,1.844,9.0
107.844,9.408,0.688,6.0
107.621,9.414,0.083,48.0
143.742,12.651,4.091,36.0
152.588,13.463,3.485,26.0
153.926,13.615,2.648,13.0
152.853,13.553,1.755,11.0
107.779,9.581,0.631,4.0
99.73,8.889,0.023,1.0
143.706,12.885,4.011,31.0
152.252,13.684,3.392,29.0
152.184,13.712,2.534,22.0
129.437,11.69,1.414,3.0
0.0,0.0,0.0,0.0
93.641,8.498,-0.031,25.0
152.05,13.88,4.158,8.0
152.069,13.914,3.301,32.0
151.835,13.922,2.44,31.0
129.52,11.904,1.338,3.0
92.895,8.558,0.437,55.0
0.0,0.0,0.0,0.0
138.029,12.819,3.69,23.0
151.723,14.122,3.2,26.0
151.496,14.132,2.341,23.0
0.0,0.0,0.0,0.0
92.771,8.692,0.377,51.0
92.511,8.688,-0.145,1.0
121.687,11.491,3.176,22.0
151.481,14.335,3.099,23.0
151.229,14.342,2.24,31.0
0.0,0.0,0.0,0.0
92.588,8.818,0.316,63.0
0.0,0.0,0.0,0.0
121.576,11.666,3.092,39.0
151.198,14.537,2.991,19.0
151.057,14.554,2.135,23.0
0.0,0.0,0.0,0.0
92.345,8.933,0.252,3.0
0.0,0.0,0.0,0.0
121.46,11.836,3.005,39.0
121.558,11.868,2.321,48.0
121.596,11.894,1.633,56.0
0.0,0.0,0.0,0.0
0.0,0.0,0.0,0.0
85.338,8.397,-0.309,3.0
121.444,12.011,2.917,51.0
121.575,12.044,2.232,52.0
121.585,12.068,1.545,40.0
0.0,0.0,0.0,0.0
0.0,0.0,0.0,0.0
85.561,8.541,-0.373,1.0
121.565,12.195,2.829,18.0
150.774,15.152,2.655,21.0
150.582,15.161,1.799,8.0
0.0,0.0,0.0,0.0
0.0,0.0,0.0,0.0
0.0,0.0,0.0,0.0
115.74,11.772,2.603,48.0
150.6,15.343,2.533,18.0
0.0,0.0,0.0,0.0
0.0,0.0,0.0,0.0
0.0,0.0,0.0,0.0
0.0,0.0,0.0,0.0
115.612,11.916,2.508,30.0
115.636,11.938,1.852,31.0
0.0,0.0,0.0,0.0
0.0,0.0,0.0,0.0
0.0,0.0,0.0,0.0
68.966,7.167,-0.467,2.0
109.29,11.408,2.279,38.0
115.606,12.086,1.755,69.0
0.0,0.0,0.0,0.0
82.159,8.616,0.306,1.0
0.0,0.0,0.0,0.0
68.953,7.255,-0.525,2.0
109.241,11.542,2.186,61.0
109.344,11.57,1.567,8.0
0.0,0.0,0.0,0.0
81.996,8.703,0.235,2.0
0.0,0.0,0.0,0.0
82.09,8.74,-0.696,3.0
109.211,11.675,2.09,41.0
109.295,11.701,1.47,23.0
82.075,8.799,0.636,1.0
77.536,8.324,0.153,3.0
77.68,8.353,-0.287,5.0
0.0,0.0,0.0,0.0
149.872,16.202,2.733,20.0
109.339,11.836,1.372,3.0
0.0,0.0,0.0,0.0
76.876,8.344,0.082,7.0
77.151,8.386,-0.355,3.0
0.0,0.0,0.0,0.0
149.789,16.366,2.594,17.0
0.0,0.0,0.0,0.0
81.92,8.974,0.486,2.0
76.127,8.35,0.01,7.0
77.317,8.493,-0.429,1.0
0.0,0.0,0.0,0.0
103.822,11.461,1.7,22.0
0.0,0.0,0.0,0.0
75.697,8.377,0.376,3.0
75.568,8.373,-0.061,35.0
68.922,7.647,-0.448,1.0
0.0,0.0,0.0,0.0
103.744,11.565,1.599,37.0
76.72,8.562,0.745,2.0
75.299,8.413,0.302,9.0
75.025,8.393,-0.133,9.0
68.941,7.723,-0.515,3.0
0.0,0.0,0.0,0.0
103.776,11.677,1.497,12.0
76.206,8.583,0.665,2.0
74.786,8.433,0.226,11.0
74.752,8.439,-0.206,16.0
68.886,7.786,-0.583,2.0
0.0,0.0,0.0,0.0
0.0,0.0,0.0,0.0
75.137,8.538,0.581,5.0
74.614,8.488,0.15,150.0
74.65,8.501,-0.281,2.0
0.0,0.0,0.0,0.0
0.0,0.0,0.0,0.0
0.0,0.0,0.0,0.0
74.656,8.555,0.499,13.0
0.0,0.0,0.0,0.0
71.722,8.236,-0.345,0.0
0.0,0.0,0.0,0.0
42.431,4.883,-0.689,0.0
75.51,8.715,0.858,2.0
74.598,8.617,0.422,3.0
0.0,0.0,0.0,0.0
71.677,8.296,-0.42,0.0
0.0,0.0,0.0,0.0
41.495,4.813,-0.717,1.0
75.748,8.808,0.78,10.0
70.73,8.232,0.325,0.0
0.0,0.0,0.0,0.0
0.0,0.0,0.0,0.0
0.0,0.0,0.0,0.0
41.31,4.827,-0.758,0.0
75.874,8.887,0.702,3.0
0.0,0.0,0.0,0.0
0.0,0.0,0.0,0.0
68.9,8.09,-0.55,2.0
0.0,0.0,0.0,0.0
38.606,4.542,-0.75,0.0
0.0,0.0,0.0,0.0
69.636,8.218,0.17,0.0
69.223,8.175,-0.226,0.0
69.086,8.166,-0.627,0.0
0.0,0.0,0.0,0.0
37.352,4.423,-0.766,0.0
0.0,0.0,0.0,0.0
0.0,0.0,0.0,0.0
68.892,8.186,-0.3,1.0
0.0,0.0,0.0,0.0
0.0,0.0,0.0,0.0
36.663,4.367,-0.792,0.0
0.0,0.0,0.0,0.0
68.849,8.223,0.017,5.0
69.107,8.259,-0.377,1.0
0.0,0.0,0.0,0.0
40.927,4.899,-0.695,0.0
0.0,0.0,0.0,0.0
0.0,0.0,0.0,0.0
68.784,8.26,-0.059,57.0
69.009,8.293,-0.454,2.0
0.0,0.0,0.0,0.0
0.0,0.0,0.0,0.0
32.871,3.959,-0.784,0.0
0.0,0.0,0.0,0.0
68.786,8.302,-0.136,2.0
68.947,8.327,-0.531,1.0
68.749,8.308,-0.93,4.0
39.63,4.792,-0.763,0.0
32.372,3.918,-0.809,1.0
68.774,8.335,0.178,1.0
0.0,0.0,0.0,0.0
68.834,8.351,-0.609,0.0
68.715,8.342,-1.009,2.0
37.276,4.528,-0.761,0.0
31.239,3.798,-0.816,0.0
68.742,8.367,0.099,150.0
69.369,8.448,-0.296,6.0
0.0,0.0,0.0,0.0
0.0,0.0,0.0,0.0
35.702,4.355,-0.769,0.0
30.28,3.696,-0.826,0.0
68.72,8.397,0.021,163.0
69.33,8.475,-0.375,3.0
0.0,0.0,0.0,0.0
0.0,0.0,0.0,0.0
34.919,4.275,-0.792,0.0
29.486,3.612,-0.838,0.0
68.72,8.426,-0.057,155.0
0.0,0.0,0.0,0.0
68.646,8.425,-0.843,2.0
39.53,4.853,-0.716,0.0
33.006,4.054,-0.787,0.0
28.405,3.491,-0.84,0.0
68.734,8.455,-0.136,2.0
0.0,0.0,0.0,0.0
68.663,8.452,-0.923,8.0
38.555,4.748,-0.743,0.0
31.937,3.935,-0.799,0.0
27.676,3.411,-0.851,0.0
69.16,8.531,-0.217,3.0
68.948,8.507,-0.612,0.0
68.693,8.478,-1.003,5.0
37.276,4.602,-0.761,0.0
31.317,3.868,-0.82,0.0
26.789,3.31,-0.855,0.0
65.556,8.105,-0.282,2.0
55.851,6.907,-0.56,1.0
0.0,0.0,0.0,0.0
35.771,4.426,-0.773,0.0
30.372,3.76,-0.831,0.0
25.936,3.212,-0.858,0.0
65.526,8.118,-0.359,1.0
55.738,6.906,-0.624,1.0
0.0,0.0,0.0,0.0
34.526,4.28,-0.786,0.0
29.358,3.641,-0.837,0.0
25.091,3.113,-0.859,0.0
65.43,8.119,-0.434,1.0
0.0,0.0,0.0,0.0
39.876,4.95,-0.722,0.0
32.859,4.08,-0.786,0.0
28.167,3.498,-0.836,0.0
24.455,3.038,-0.866,0.0
65.332,8.117,-0.509,0.0
0.0,0.0,0.0,0.0
38.36,4.767,-0.739,0.0
31.669,3.936,-0.795,0.0
27.482,3.417,-0.848,0.0
23.854,2.967,-0.873,0.0
65.378,8.129,-0.586,1.0
0.0,0.0,0.0,0.0
37.184,4.624,-0.759,0.0
31.063,3.864,-0.816,0.0
26.809,3.335,-0.858,0.0
22.142,2.755,-0.836,0.0
0.0,0.0,0.0,0.0
0.0,0.0,0.0,0.0
35.623,4.432,-0.769,0.0
29.983,3.731,-0.822,0.0
25.862,3.218,-0.858,0.0
21.911,2.727,-0.852,2.0
0.0,0.0,0.0,0.0
0.0,0.0,0.0,0.0
34.606,4.305,-0.787,0.0
29.125,3.624,-0.832,0.0
24.999,3.111,-0.858,0.0
21.872,2.722,-0.876,1.0
0.0,0.0,0.0,0.0
0.0,0.0,0.0,0.0
33.017,4.106,-0.789,0.0
28.14,3.5,-0.836,0.0
24.37,3.031,-0.864,0.0
21.763,2.707,-0.897,0.0
0.0,0.0,0.0,0.0
38.431,4.776,-0.741,0.0
31.71,3.941,-0.793,0.0
27.355,3.4,-0.844,0.0
23.831,2.962,-0.872,0.0
21.477,2.669,-0.909,0.0
0.0,0.0,0.0,0.0
37.268,4.627,-0.761,0.0
31.033,3.853,-0.811,1.0
26.594,3.301,-0.851,0.0
0.0,0.0,0.0,0.0
20.535,2.549,-0.892,0.0
0.0,0.0,0.0,0.0
35.162,4.359,-0.757,0.0
30.313,3.758,-0.826,0.0
25.842,3.203,-0.856,0.0
21.887,2.713,-0.85,0.0
20.249,2.51,-0.903,0.0
40.326,4.992,-0.682,0.0
34.491,4.268,-0.781,0.0
29.425,3.641,-0.836,0.0
24.999,3.093,-0.856,0.0
21.837,2.701,-0.873,0.0
19.96,2.469,-0.912,0.0
39.374,4.863,-0.71,0.0
32.878,4.06,-0.781,0.0
28.286,3.492,-0.834,0.0
24.405,3.012,-0.862,0.0
21.756,2.685,-0.894,0.0
0.0,0.0,0.0,0.0
39.053,4.812,-0.748,0.0
31.946,3.935,-0.794,0.0
27.535,3.391,-0.842,0.0
23.867,2.938,-0.869,0.0
21.468,2.642,-0.905,0.0
18.884,2.324,-0.904,0.0
37.383,4.593,-0.756,0.0
31.165,3.828,-0.808,0.0
26.888,3.301,-0.851,0.0
23.344,2.865,-0.875,0.0
20.588,2.526,-0.89,0.0
18.411,2.259,-0.901,0.0
36.029,4.412,-0.767,0.0
30.341,3.714,-0.819,0.0
25.975,3.179,-0.85,0.0
21.883,2.677,-0.844,0.0
20.365,2.491,-0.902,0.0
18.166,2.221,-0.909,1.0
0.0,0.0,0.0,0.0
29.523,3.601,-0.828,0.0
25.315,3.086,-0.855,0.0
21.844,2.662,-0.865,0.0
20.054,2.443,-0.909,0.0
17.994,2.192,-0.919,0.0
32.802,3.986,-0.767,0.0
28.589,3.473,-0.832,0.0
24.696,2.998,-0.86,0.0
21.781,2.644,-0.885,1.0
19.053,2.312,-0.883,0.0
17.494,2.122,-0.912,0.0
32.455,3.927,-0.792,0.0
27.894,3.373,-0.84,0.0
24.142,2.918,-0.865,0.0
21.651,2.616,-0.902,0.0
19.031,2.298,-0.902,0.0
17.22,2.079,-0.915,0.0
31.399,3.781,-0.798,0.0
27.167,3.27,-0.845,0.0
23.604,2.839,-0.869,0.0
20.861,2.508,-0.89,0.0
18.668,2.244,-0.903,0.0
16.956,2.037,-0.918,0.0
30.784,3.688,-0.812,0.0
26.453,3.167,-0.849,0.0
23.159,2.771,-0.876,0.0
20.374,2.437,-0.889,0.0
18.28,2.185,-0.902,0.0
16.644,1.989,-0.917,0.0
30.092,3.586,-0.823,0.0
25.749,3.066,-0.851,0.0
21.908,2.607,-0.849,0.0
20.2,2.402,-0.901,0.0
18.132,2.155,-0.912,0.0
16.471,1.957,-0.923,1.0
29.223,3.462,-0.827,0.0
25.117,2.973,-0.854,0.0
21.804,2.579,-0.866,0.0
19.27,2.278,-0.877,0.0
17.715,2.093,-0.908,0.0
16.255,1.919,-0.926,0.0
28.406,3.344,-0.83,0.0
24.609,2.894,-0.859,0.0
21.79,2.561,-0.885,1.0
19.286,2.265,-0.896,1.0
17.438,2.047,-0.91,0.0
15.952,1.871,-0.924,0.0
27.637,3.231,-0.832,0.0
24.092,2.815,-0.863,0.0
21.702,2.533,-0.901,0.0
19.201,2.24,-0.909,1.0
17.221,2.007,-0.914,0.0
15.743,1.834,-0.926,0.0
27.218,3.16,-0.844,0.0
23.709,2.75,-0.87,0.0
21.025,2.437,-0.892,0.0
18.777,2.174,-0.906,0.0
17.03,1.971,-0.919,1.0
15.605,1.804,-0.931,0.0
26.654,3.071,-0.849,0.0
23.282,2.68,-0.875,0.0
20.521,2.36,-0.888,0.0
18.633,2.141,-0.914,0.0
16.913,1.942,-0.926,0.0
15.349,1.761,-0.928,0.0
25.96,2.968,-0.848,0.0
21.886,2.5,-0.84,0.0
20.305,2.317,-0.895,0.0
18.295,2.086,-0.913,0.0
16.514,1.881,-0.918,0.0
15.116,1.721,-0.927,0.0
25.43,2.883,-0.852,0.0
21.848,2.475,-0.856,2.0
19.72,2.232,-0.885,0.0
17.991,2.034,-0.912,0.0
16.316,1.843,-0.92,0.0
14.936,1.686,-0.927,0.0
24.987,2.809,-0.856,0.0
21.831,2.451,-0.872,7.0
19.582,2.197,-0.893,1.0
17.735,1.988,-0.912,1.0
16.154,1.809,-0.923,0.0
14.832,1.659,-0.932,0.0
24.48,2.727,-0.857,0.0
21.825,2.429,-0.888,4.0
19.499,2.167,-0.904,2.0
17.701,1.966,-0.923,2.0
15.997,1.775,-0.925,0.0
14.632,1.622,-0.93,0.0
24.204,2.671,-0.864,0.0
21.788,2.402,-0.902,2.0
19.303,2.125,-0.909,1.0
17.467,1.921,-0.923,0.0
15.789,1.735,-0.925,0.0
14.509,1.592,-0.932,0.0
23.767,2.597,-0.865,0.0
21.635,2.361,-0.91,0.0
18.951,2.066,-0.905,0.0
17.191,1.872,-0.92,0.0
15.648,1.702,-0.927,0.0
14.381,1.563,-0.934,0.0
21.965,2.376,-0.814,0.0
20.764,2.243,-0.887,0.0
18.664,2.014,-0.903,0.0
16.901,1.821,-0.916,0.0
15.513,1.67,-0.929,0.0
14.329,1.54,-0.939,0.0
21.929,2.347,-0.826,1.0
20.444,2.185,-0.886,0.0
18.626,1.988,-0.913,0.0
16.703,1.78,-0.915,0.0
15.292,1.628,-0.925,0.0
14.236,1.514,-0.942,0.0
21.916,2.319,-0.839,2.0
20.294,2.145,-0.892,0.0
18.199,1.92,-0.903,0.0
16.634,1.753,-0.921,0.0
15.137,1.593,-0.924,0.0
14.122,1.484,-0.943,0.0
21.888,2.29,-0.85,3.0
19.832,2.072,-0.882,0.0
17.876,1.865,-0.897,0.0
16.442,1.713,-0.919,0.0
15.048,1.565,-0.927,0.0
0.0,0.0,0.0,0.0
21.873,2.261,-0.861,5.0
19.652,2.028,-0.884,0.0
17.846,1.839,-0.904,1.0
16.326,1.68,-0.922,0.0
14.946,1.536,-0.928,0.0
0.0,0.0,0.0,0.0
21.844,2.23,-0.871,3.0
19.573,1.995,-0.891,0.0
17.81,1.813,-0.911,2.0
16.165,1.643,-0.92,0.0
14.863,1.508,-0.93,0.0
13.711,1.389,-0.936,0.0
21.773,2.195,-0.878,1.0
19.539,1.966,-0.898,0.0
17.77,1.785,-0.917,2.0
16.057,1.611,-0.921,0.0
14.839,1.486,-0.935,0.0
0.0,0.0,0.0,0.0
21.768,2.165,-0.887,2.0
19.452,1.931,-0.902,0.0
17.718,1.756,-0.922,1.0
15.962,1.579,-0.922,0.0
14.74,1.456,-0.935,0.0
13.6,1.341,-0.939,0.0
21.758,2.135,-0.895,0.0
19.373,1.897,-0.906,0.0
17.675,1.728,-0.926,1.0
15.88,1.55,-0.923,0.0
14.62,1.424,-0.933,0.0
13.49,1.312,-0.937,0.0
21.709,2.1,-0.901,0.0
19.234,1.857,-0.906,0.0
17.55,1.691,-0.926,0.0
15.844,1.524,-0.927,0.0
14.599,1.402,-0.936,0.0
13.491,1.293,-0.941,0.0
21.601,2.059,-0.903,0.0
19.255,1.832,-0.913,0.0
17.261,1.639,-0.916,0.0
15.766,1.494,-0.927,0.0
14.509,1.372,-0.935,0.0
13.444,1.269,-0.942,0.0
21.329,2.002,-0.898,0.0
19.152,1.794,-0.914,0.0
17.236,1.611,-0.919,0.0
15.676,1.463,-0.926,0.0
14.457,1.346,-0.935,0.0
13.429,1.248,-0.944,0.0
21.252,1.964,-0.9,0.0
19.016,1.753,-0.912,0.0
17.12,1.575,-0.917,0.0
15.649,1.437,-0.928,0.0
14.402,1.32,-0.935,0.0
13.401,1.226,-0.945,0.0
21.097,1.918,-0.898,0.0
18.872,1.712,-0.909,0.0
17.105,1.548,-0.919,0.0
15.595,1.409,-0.927,0.0
14.42,1.3,-0.939,0.0
13.354,1.201,-0.944,0.0
21.18,1.894,-0.905,0.0
18.883,1.684,-0.912,0.0
17.021,1.515,-0.918,0.0
15.538,1.38,-0.926,0.0
14.446,1.28,-0.942,0.0
13.296,1.176,-0.942,0.0
21.182,1.862,-0.908,0.0
18.797,1.648,-0.91,0.0
16.946,1.482,-0.915,0.0
15.547,1.357,-0.929,0.0
14.394,1.253,-0.94,0.0
13.303,1.156,-0.944,0.0
20.903,1.805,-0.898,0.0
0.0,0.0,0.0,0.0
17.009,1.461,-0.92,0.0
15.552,1.333,-0.93,0.0
14.391,1.231,-0.941,0.0
13.329,1.137,-0.946,0.0
20.914,1.773,-0.899,0.0
0.0,0.0,0.0,0.0
16.976,1.432,-0.919,0.0
15.488,1.303,-0.927,0.0
14.393,1.208,-0.942,0.0
13.33,1.116,-0.947,0.0
21.379,1.779,-0.92,0.0
18.883,1.567,-0.917,0.0
17.072,1.413,-0.924,0.0
15.489,1.278,-0.927,0.0
14.36,1.182,-0.939,0.0
13.336,1.095,-0.947,0.0
21.181,1.728,-0.91,0.0
0.0,0.0,0.0,0.0
16.948,1.375,-0.917,0.0
15.525,1.257,-0.928,0.0
14.398,1.162,-0.941,0.0
13.327,1.073,-0.945,0.0
20.903,1.672,-0.897,0.0
18.572,1.482,-0.9,0.0
17.089,1.359,-0.923,0.0
15.559,1.234,-0.929,0.0
14.426,1.141,-0.941,0.0
13.311,1.05,-0.943,0.0
21.061,1.651,-0.901,0.0
18.648,1.457,-0.902,0.0
16.998,1.325,-0.916,0.0
15.623,1.214,-0.93,0.0
14.473,1.121,-0.943,0.0
13.348,1.031,-0.944,0.0
21.095,1.619,-0.9,0.0
0.0,0.0,0.0,0.0
17.121,1.306,-0.92,0.0
15.636,1.189,-0.929,0.0
14.519,1.101,-0.943,0.0
13.364,1.01,-0.942,0.0
21.414,1.608,-0.909,0.0
0.0,0.0,0.0,0.0
17.119,1.277,-0.916,0.0
15.721,1.169,-0.93,0.0
14.553,1.079,-0.942,0.0
13.352,0.987,-0.938,0.0
21.653,1.589,-0.914,0.0
19.401,1.42,-0.927,0.0
17.304,1.262,-0.922,0.0
15.824,1.15,-0.932,0.0
14.619,1.059,-0.942,0.0
13.456,0.972,-0.942,0.0
21.645,1.553,-0.908,0.0
19.456,1.391,-0.924,0.0
17.29,1.232,-0.916,0.0
15.876,1.127,-0.931,0.0
14.662,1.038,-0.941,0.0
13.483,0.951,-0.94,0.0
21.766,1.524,-0.906,0.0
19.342,1.35,-0.912,0.0
17.427,1.212,-0.918,0.0
15.992,1.108,-0.932,0.0
14.76,1.019,-0.942,0.0
13.563,0.934,-0.94,0.0
21.767,1.488,-0.899,1.0
19.474,1.326,-0.911,0.0
17.655,1.198,-0.923,0.0
16.09,1.088,-0.932,0.0
14.842,1.0,-0.941,0.0
13.721,0.921,-0.946,0.0
21.819,1.454,-0.892,8.0
19.535,1.297,-0.906,0.0
17.802,1.177,-0.924,0.0
0.0,0.0,0.0,0.0
14.844,0.974,-0.935,0.0
13.878,0.908,-0.951,0.0
21.816,1.417,-0.883,11.0
19.693,1.274,-0.905,0.0
18.08,1.165,-0.93,0.0
0.0,0.0,0.0,0.0
14.873,0.951,-0.93,0.0
13.956,0.889,-0.949,0.0
21.826,1.38,-0.873,9.0
19.781,1.245,-0.899,0.0
17.978,1.127,-0.916,0.0
0.0,0.0,0.0,0.0
15.098,0.939,-0.936,0.0
13.97,0.866,-0.943,0.0
21.884,1.346,-0.863,9.0
20.138,1.233,-0.905,0.0
18.668,1.139,-0.941,0.0
0.0,0.0,0.0,0.0
15.114,0.914,-0.929,0.0
14.075,0.848,-0.942,0.0
21.887,1.309,-0.852,3.0
20.405,1.215,-0.905,0.0
0.0,0.0,0.0,0.0
16.632,0.982,-0.922,0.0
15.196,0.893,-0.925,0.0
14.2,0.831,-0.942,0.0
21.925,1.274,-0.84,2.0
20.668,1.195,-0.904,0.0
0.0,0.0,0.0,0.0
16.834,0.965,-0.922,0.0
15.357,0.876,-0.925,0.0
14.292,0.812,-0.939,0.0
21.934,1.236,-0.826,0.0
21.449,1.203,-0.925,0.0
0.0,0.0,0.0,0.0
17.035,0.947,-0.922,0.0
15.61,0.864,-0.93,0.0
14.497,0.798,-0.943,1.0
23.903,1.306,-0.884,0.0
21.799,1.186,-0.925,0.0
19.154,1.037,-0.917,1.0
17.182,0.925,-0.918,0.0
15.838,0.849,-0.932,0.0
14.711,0.785,-0.946,1.0
24.226,1.282,-0.878,0.0
21.848,1.15,-0.911,0.0
19.22,1.007,-0.906,0.0
17.5,0.912,-0.921,0.0
15.953,0.828,-0.927,0.0
14.804,0.764,-0.941,0.0
24.611,1.26,-0.873,0.0
21.88,1.115,-0.895,0.0
20.207,1.024,-0.936,1.0
17.694,0.892,-0.918,0.0
16.279,0.817,-0.933,1.0
14.974,0.747,-0.939,0.0
25.311,1.253,-0.878,0.0
21.863,1.076,-0.877,0.0
20.202,0.989,-0.919,8.0
18.06,0.879,-0.922,0.0
16.484,0.798,-0.931,0.0
15.187,0.731,-0.94,0.0
20.228,0.966,-0.684,0.0
20.248,0.962,-0.795,83.0
20.176,0.953,-0.901,17.0
20.192,0.949,-1.013,4.0
16.747,0.783,-0.931,0.0
15.385,0.715,-0.938,0.0
20.263,0.934,-0.668,51.0
20.179,0.925,-0.774,164.0
20.217,0.921,-0.884,84.0
0.0,0.0,0.0,0.0
20.213,0.91,-1.105,7.0
15.582,0.697,-0.936,0.0
20.269,0.9,-0.649,71.0
20.178,0.89,-0.755,162.0
20.226,0.887,-0.866,65.0
20.068,0.875,-0.969,1.0
20.223,0.876,-1.086,2.0
15.92,0.686,-0.941,0.0
28.955,1.236,-0.9,0.0
20.239,0.859,-0.737,18.0
20.259,0.854,-0.848,4.0
19.563,0.82,-0.926,0.0
17.6,0.733,-0.928,0.0
16.118,0.667,-0.936,0.0
28.981,1.189,-0.871,0.0
24.762,1.009,-0.877,0.0
22.38,0.906,-0.913,2.0
20.153,0.81,-0.933,2.0
18.024,0.72,-0.931,0.0
16.399,0.651,-0.935,0.0
29.918,1.177,-0.868,1.0
0.0,0.0,0.0,0.0
22.65,0.879,-0.9,0.0
20.218,0.779,-0.914,0.0
18.288,0.7,-0.925,0.0
16.72,0.636,-0.936,0.0
30.242,1.139,-0.845,1.0
26.186,0.979,-0.872,1.0
23.151,0.86,-0.894,0.0
20.687,0.763,-0.912,0.0
18.656,0.683,-0.923,0.0
16.954,0.616,-0.93,0.0
32.202,1.16,-0.864,0.0
27.639,0.988,-0.889,0.0
23.831,0.846,-0.894,0.0
21.096,0.743,-0.906,0.0
18.858,0.659,-0.911,0.0
0.0,0.0,0.0,0.0
32.403,1.114,-0.831,1.0
28.25,0.963,-0.875,0.0
24.544,0.83,-0.892,0.0
21.926,0.736,-0.916,0.0
19.651,0.655,-0.926,0.0
17.878,0.591,-0.938,0.0
32.912,1.078,-0.805,0.0
29.596,0.961,-0.881,0.0
25.161,0.81,-0.884,0.0
22.44,0.717,-0.91,0.0
20.072,0.636,-0.921,0.0
18.185,0.572,-0.932,0.0
35.292,1.098,-0.819,0.0
30.36,0.937,-0.866,1.0
26.113,0.799,-0.884,0.0
22.803,0.692,-0.896,0.0
20.584,0.619,-0.919,0.0
18.625,0.555,-0.93,0.0
35.961,1.062,-0.789,0.0
31.561,0.923,-0.86,1.0
26.78,0.777,-0.872,0.0
23.716,0.682,-0.901,0.0
21.109,0.602,-0.915,0.0
19.002,0.537,-0.924,0.0
38.402,1.074,-0.793,0.0
32.335,0.895,-0.84,1.0
28.189,0.774,-0.882,0.0
24.496,0.666,-0.899,0.0
21.945,0.591,-0.922,0.0
19.631,0.524,-0.929,0.0
0.0,0.0,0.0,0.0
0.0,0.0,0.0,0.0
29.271,0.758,-0.876,0.0
25.308,0.649,-0.894,0.0
22.454,0.57,-0.912,0.0
20.148,0.506,-0.926,0.0
0.0,0.0,0.0,0.0
35.404,0.871,-0.823,0.0
30.617,0.745,-0.874,1.0
26.135,0.63,-0.887,0.0
23.005,0.548,-0.903,0.0
20.703,0.488,-0.922,0.0
0.0,0.0,0.0,0.0
37.063,0.855,-0.809,0.0
31.691,0.723,-0.86,1.0
26.968,0.609,-0.877,0.0
23.948,0.534,-0.905,0.0
21.186,0.468,-0.913,0.0
0.0,0.0,0.0,0.0
38.201,0.824,-0.779,0.0
32.776,0.699,-0.841,1.0
28.588,0.603,-0.888,0.0
24.787,0.517,-0.901,0.0
22.238,0.458,-0.926,0.0
0.0,0.0,0.0,0.0
0.0,0.0,0.0,0.0
33.887,0.673,-0.82,0.0
29.592,0.58,-0.875,0.0
25.766,0.499,-0.898,1.0
22.732,0.435,-0.912,0.0
0.0,0.0,0.0,0.0
42.906,0.8,-0.747,0.0
37.25,0.686,-0.845,0.0
31.262,0.568,-0.877,1.0
26.597,0.477,-0.887,0.0
23.444,0.415,-0.905,0.0
0.0,0.0,0.0,0.0
0.0,0.0,0.0,0.0
0.0,0.0,0.0,0.0
32.258,0.541,-0.856,1.0
28.154,0.465,-0.895,0.0
24.532,0.4,-0.909,0.0
0.0,0.0,0.0,0.0
0.0,0.0,0.0,0.0
0.0,0.0,0.0,0.0
34.487,0.53,-0.861,0.0
20.207,0.305,-0.61,1.0
20.231,0.301,-0.717,2.0
0.0,0.0,0.0,0.0
0.0,0.0,0.0,0.0
20.207,0.287,-0.363,1.0
20.192,0.282,-0.471,9.0
20.215,0.277,-0.577,24.0
20.217,0.273,-0.684,22.0
0.0,0.0,0.0,0.0
20.192,0.263,-0.224,0.0
20.183,0.259,-0.33,19.0
20.223,0.255,-0.438,23.0
20.189,0.25,-0.543,27.0
20.201,0.245,-0.649,32.0
0.0,0.0,0.0,0.0
20.198,0.236,-0.19,12.0
20.18,0.232,-0.296,27.0
20.173,0.227,-0.404,29.0
20.18,0.223,-0.51,31.0
20.198,0.219,-0.616,34.0
20.311,0.216,-0.051,1.0
20.198,0.21,-0.157,6.0
20.175,0.206,-0.262,27.0
20.172,0.201,-0.37,33.0
20.184,0.197,-0.476,26.0
20.198,0.193,-0.582,25.0
20.316,0.19,-0.017,27.0
20.198,0.184,-0.123,20.0
20.169,0.18,-0.228,28.0
20.174,0.176,-0.335,34.0
20.186,0.172,-0.441,26.0
20.18,0.167,-0.546,17.0
20.232,0.163,0.017,30.0
20.196,0.159,-0.087,26.0
20.177,0.155,-0.193,22.0
20.176,0.151,-0.3,31.0
20.193,0.146,-0.406,22.0
20.202,0.143,-0.511,0.0
20.187,0.138,0.052,29.0
20.184,0.135,-0.053,28.0
20.173,0.13,-0.158,39.0
20.186,0.126,-0.265,27.0
20.19,0.122,-0.37,12.0
0.0,0.0,0.0,0.0
20.199,0.115,0.087,37.0
20.176,0.11,-0.017,28.0
20.19,0.106,-0.122,31.0
20.176,0.102,-0.229,19.0
20.208,0.099,-0.334,0.0
0.0,0.0,0.0,0.0
20.158,0.091,0.124,27.0
20.194,0.087,0.019,32.0
20.199,0.083,-0.085,28.0
20.187,0.079,-0.192,20.0
0.0,0.0,0.0,0.0
40.195,0.143,-0.802,1.0
20.152,0.068,0.16,30.0
20.201,0.064,0.055,20.0
20.205,0.06,-0.049,17.0
20.215,0.057,-0.156,19.0
55.04,0.145,-0.711,6.0
20.255,0.049,-0.366,50.0
20.134,0.045,0.197,29.0
20.142,0.042,0.092,28.0
20.258,0.038,-0.011,151.0
20.259,0.034,-0.118,151.0
20.256,0.031,-0.224,151.0
20.269,0.027,-0.329,150.0
20.135,0.023,0.235,28.0
20.126,0.02,0.13,28.0
20.244,0.017,0.026,151.0
20.264,0.013,-0.08,150.0
20.233,0.009,-0.185,18.0
20.241,0.006,-0.29,7.0
20.121,0.002,0.272,27.0
20.124,0.0,0.168,28.0
20.134,-0.003,0.063,29.0
20.11,-0.007,-0.042,17.0
20.167,-0.01,-0.147,25.0
20.155,-0.014,-0.251,14.0
20.126,-0.017,0.31,31.0
20.116,-0.02,0.206,34.0
20.116,-0.023,0.101,36.0
20.123,-0.027,-0.004,34.0
20.151,-0.03,-0.108,34.0
20.141,-0.033,-0.213,15.0
20.116,-0.036,0.348,32.0
20.119,-0.04,0.244,29.0
20.12,-0.043,0.14,28.0
20.136,-0.046,0.034,37.0
20.142,-0.049,-0.069,35.0
20.151,-0.052,-0.174,35.0
20.118,-0.055,0.387,33.0
20.114,-0.059,0.283,28.0
20.124,-0.062,0.179,27.0
20.131,-0.065,0.073,39.0
20.13,-0.068,-0.03,29.0
20.139,-0.071,-0.134,34.0
20.12,-0.074,0.427,33.0
20.115,-0.077,0.322,29.0
20.127,-0.08,0.219,24.0
20.124,-0.083,0.112,27.0
20.13,-0.086,0.008,30.0
20.148,-0.088,-0.095,26.0
20.122,-0.092,0.466,27.0
20.115,-0.094,0.362,27.0
20.132,-0.097,0.258,25.0
20.099,-0.1,0.152,19.0
20.14,-0.103,0.048,32.0
20.159,-0.105,-0.055,25.0
20.128,-0.108,0.506,18.0
20.119,-0.111,0.401,17.0
20.114,-0.114,0.298,18.0
20.12,-0.116,0.192,18.0
20.133,-0.119,0.088,17.0
20.171,-0.122,-0.015,23.0
20.16,-0.125,0.546,15.0
20.175,-0.127,0.442,19.0
20.174,-0.13,0.338,17.0
20.165,-0.132,0.232,16.0
20.175,-0.135,0.128,15.0
20.158,-0.137,0.024,15.0
53.511,-0.373,1.558,6.0
20.168,-0.143,0.483,16.0
20.259,-0.146,0.38,25.0
20.215,-0.148,0.273,15.0
58.329,-0.434,0.488,17.0
58.328,-0.441,0.187,20.0
53.507,-0.412,1.664,104.0
20.163,-0.157,0.523,6.0
20.213,-0.16,0.42,25.0
53.47,-0.43,0.83,14.0
66.532,-0.542,0.689,12.0
53.403,-0.441,0.278,4.0
53.52,-0.449,1.771,104.0
53.522,-0.455,1.496,5.0
20.144,-0.173,0.458,13.0
53.488,-0.465,0.936,14.0
53.37,-0.47,0.659,5.0
53.355,-0.475,0.383,12.0
53.536,-0.484,1.879,150.0
53.488,-0.489,1.601,82.0
20.129,-0.186,0.498,14.0
20.182,-0.188,0.394,22.0
53.371,-0.503,0.766,8.0
64.329,-0.613,0.592,58.0
58.248,-0.563,2.162,255.0
53.512,-0.522,1.71,54.0
20.15,-0.198,0.54,8.0
20.12,-0.2,0.433,17.0
20.167,-0.202,0.33,15.0
64.305,-0.651,0.724,41.0
58.243,-0.597,2.282,255.0
53.46,-0.553,1.819,14.0
53.447,-0.557,1.543,12.0
20.14,-0.211,0.475,13.0
20.14,-0.213,0.371,13.0
20.153,-0.215,0.268,14.0
58.299,-0.63,2.404,255.0
58.325,-0.635,2.103,35.0
53.506,-0.586,1.653,58.0
20.162,-0.222,0.517,8.0
20.14,-0.223,0.412,14.0
20.15,-0.225,0.309,10.0
58.301,-0.66,2.522,255.0
58.261,-0.664,2.22,255.0
53.51,-0.613,1.763,77.0
53.491,-0.616,1.481,71.0
20.144,-0.233,0.454,12.0
20.133,-0.234,0.35,12.0
58.259,-0.687,2.64,255.0
58.303,-0.691,2.341,255.0
53.522,-0.638,1.873,150.0
53.484,-0.641,1.591,74.0
20.166,-0.242,0.496,8.0
20.136,-0.243,0.391,13.0
58.34,-0.714,2.764,6.0
58.304,-0.716,2.461,255.0
58.255,-0.718,2.158,255.0
53.505,-0.663,1.701,57.0
59.392,-0.739,1.583,41.0
20.138,-0.251,0.432,11.0
45.767,-0.578,2.262,45.0
58.252,-0.738,2.579,255.0
58.296,-0.742,2.28,255.0
53.521,-0.683,1.812,150.0
53.481,-0.685,1.535,108.0
53.529,-0.688,1.261,6.0
45.554,-0.592,2.346,43.0
58.304,-0.759,2.701,30.0
58.344,-0.762,2.402,175.0
58.348,-0.764,2.095,150.0
53.495,-0.702,1.645,72.0
59.401,-0.782,1.52,61.0
46.041,-0.612,2.465,47.0
45.958,-0.613,2.222,37.0
58.378,-0.78,2.522,161.0
58.411,-0.782,2.216,163.0
53.509,-0.718,1.753,82.0
59.404,-0.799,1.64,14.0
46.251,-0.628,2.571,73.0
45.576,-0.62,2.297,35.0
58.384,-0.796,2.64,100.0
58.482,-0.798,2.337,150.0
53.527,-0.731,1.863,150.0
53.488,-0.732,1.585,89.0
46.266,-0.639,2.666,55.0
46.053,-0.637,2.415,20.0
46.056,-0.638,2.177,45.0
58.634,-0.813,2.462,150.0
58.709,-0.815,2.163,135.0
53.499,-0.743,1.694,61.0
46.286,-0.649,2.761,48.0
46.254,-0.649,2.52,41.0
45.63,-0.64,2.249,28.0
58.775,-0.825,2.588,52.0
58.784,-0.826,2.285,108.0
53.514,-0.752,1.804,150.0
46.327,-0.657,2.859,45.0
46.266,-0.657,2.615,41.0
45.586,-0.647,2.34,16.0
46.038,-0.653,2.121,54.0
58.884,-0.836,2.409,92.0
59.256,-0.84,2.118,15.0
46.384,-0.664,2.956,50.0
46.283,-0.662,2.71,20.0
46.218,-0.661,2.466,11.0
52.893,-0.756,2.543,6.0
58.885,-0.841,2.527,81.0
58.972,-0.842,2.226,84.0
46.462,-0.669,3.055,42.0
46.308,-0.666,2.805,18.0
46.273,-0.665,2.562,15.0
45.609,-0.655,2.285,34.0
46.049,-0.66,2.068,43.0
58.963,-0.845,2.344,87.0
46.514,-0.672,3.152,10.0
46.344,-0.669,2.899,39.0
46.277,-0.667,2.655,17.0
45.65,-0.657,2.378,5.0
46.038,-0.661,2.16,41.0
58.961,-0.845,2.461,85.0
38.65,-0.559,2.696,67.0
46.422,-0.67,2.997,49.0
52.216,-0.752,3.099,6.0
46.258,-0.665,2.501,11.0
45.631,-0.654,2.23,27.0
58.963,-0.844,2.577,46.0
38.661,-0.558,2.773,39.0
46.492,-0.669,3.093,30.0
46.335,-0.665,2.841,34.0
46.267,-0.663,2.592,27.0
45.578,-0.651,2.317,19.0
46.053,-0.656,2.103,51.0
38.654,-0.555,2.849,54.0
38.637,-0.553,2.646,53.0
46.384,-0.662,2.935,48.0
46.276,-0.659,2.683,34.0
46.229,-0.656,2.441,15.0
46.004,-0.651,2.19,32.0
38.644,-0.551,2.924,93.0
38.64,-0.549,2.722,62.0
46.464,-0.658,3.031,33.0
46.285,-0.653,2.773,45.0
46.258,-0.65,2.532,47.0
45.585,-0.638,2.258,35.0
38.64,-0.546,2.998,82.0
38.646,-0.544,2.797,52.0
46.526,-0.652,3.124,11.0
46.307,-0.646,2.864,51.0
46.255,-0.643,2.62,53.0
45.662,-0.632,2.349,18.0
38.589,-0.538,3.069,66.0
38.652,-0.537,2.871,97.0
38.641,-0.534,2.669,59.0
45.697,-0.629,2.913,22.0
46.266,-0.633,2.709,65.0
46.127,-0.629,2.461,52.0
38.558,-0.53,3.14,62.0
38.627,-0.528,2.943,73.0
38.639,-0.525,2.742,60.0
44.821,-0.606,2.943,12.0
45.799,-0.616,2.768,52.0
46.249,-0.619,2.554,74.0
38.555,-0.52,3.213,50.0
38.615,-0.518,3.016,42.0
38.642,-0.515,2.815,73.0
44.809,-0.594,3.026,14.0
44.908,-0.591,2.799,52.0
46.244,-0.606,2.641,54.0
38.562,-0.509,3.286,8.0
38.592,-0.506,3.086,34.0
38.63,-0.503,2.887,43.0
38.653,-0.5,2.682,39.0
44.85,-0.577,2.878,59.0
45.048,-0.575,2.656,41.0
31.232,-0.402,2.719,28.0
38.572,-0.493,3.156,57.0
38.676,-0.491,2.962,2.0
38.634,-0.487,2.752,61.0
44.809,-0.56,2.958,61.0
44.927,-0.558,2.731,59.0
31.211,-0.391,2.775,51.0
38.552,-0.479,3.225,62.0
47.035,-0.58,3.689,13.0
38.647,-0.472,2.824,38.0
44.761,-0.543,3.036,47.0
60.405,-0.727,3.782,8.0
31.177,-0.378,2.829,36.0
38.584,-0.464,3.298,34.0
47.022,-0.561,3.772,48.0
46.757,-0.552,3.5,36.0
44.733,-0.524,3.113,13.0
52.282,-0.607,3.365,57.0
54.397,-0.636,5.033,11.0
38.637,-0.448,3.371,15.0
47.019,-0.54,3.855,29.0
46.852,-0.533,3.59,33.0
38.668,-0.435,2.759,40.0
52.294,-0.583,3.458,62.0
54.447,-0.612,5.134,18.0
31.164,-0.346,2.774,40.0
38.571,-0.425,3.23,47.0
46.937,-0.511,3.679,20.0
44.584,-0.48,3.259,36.0
52.313,-0.558,3.55,45.0
54.416,-0.585,5.226,19.0
31.141,-0.331,2.826,50.0
38.566,-0.405,3.297,60.0
51.523,-0.535,4.127,20.0
44.574,-0.457,3.335,56.0
52.337,-0.531,3.641,16.0
47.269,-0.483,4.621,29.0
47.157,-0.475,4.361,5.0
38.634,-0.385,3.368,43.0
51.496,-0.506,4.212,50.0
44.559,-0.432,3.409,45.0
52.313,-0.501,3.727,5.0
47.302,-0.457,4.705,33.0
47.025,-0.448,4.427,35.0
38.664,-0.363,3.435,40.0
51.453,-0.476,4.294,24.0
52.333,-0.478,4.092,18.0
52.366,-0.471,3.817,7.0
51.984,-0.471,5.257,40.0
47.021,-0.419,4.505,52.0
38.71,-0.34,3.503,6.0
64.3,-0.557,5.471,8.0
52.352,-0.446,4.177,6.0
52.336,-0.439,3.899,37.0
52.218,-0.441,5.365,10.0
47.029,-0.39,4.581,24.0
31.089,-0.253,2.863,41.0
52.277,-0.419,4.532,5.0
52.327,-0.412,4.259,15.0
44.549,-0.344,3.39,19.0
47.075,-0.366,4.913,13.0
38.886,-0.297,3.85,15.0
31.069,-0.233,2.911,44.0
51.318,-0.377,4.53,5.0
52.324,-0.377,4.341,4.0
46.818,-0.33,3.635,7.0
38.925,-0.277,4.123,48.0
38.896,-0.27,3.912,50.0
38.866,-0.265,3.702,8.0
43.036,-0.286,3.865,4.0
61.069,-0.397,5.16,4.0
46.82,-0.297,3.708,34.0
38.945,-0.249,4.185,45.0
38.913,-0.243,3.973,59.0
38.862,-0.237,3.76,34.0
51.324,-0.304,4.687,8.0
42.158,-0.243,3.626,3.0
58.032,-0.326,4.683,8.0
39.081,-0.221,4.259,52.0
38.946,-0.214,4.035,23.0
38.899,-0.207,3.822,3.0
31.056,-0.16,2.883,24.0
40.408,-0.202,3.535,27.0
57.949,-0.281,4.761,26.0
39.1,-0.191,4.319,47.0
42.973,-0.203,4.516,5.0
51.245,-0.233,5.11,21.0
31.023,-0.136,2.924,40.0
38.581,-0.163,3.431,37.0
57.871,-0.235,4.837,11.0
39.119,-0.16,4.377,23.0
51.254,-0.201,5.46,14.0
51.775,-0.194,5.237,26.0
31.004,-0.111,2.966,42.0
38.619,-0.132,3.489,35.0
57.907,-0.188,4.922,16.0
36.799,-0.12,4.17,13.0
42.762,-0.132,4.615,3.0
52.308,-0.153,5.364,22.0
30.999,-0.085,3.009,57.0
52.362,-0.134,4.803,8.0
57.926,-0.139,5.004,13.0
42.523,-0.102,4.878,4.0
36.716,-0.081,4.013,13.0
42.929,-0.088,4.461,3.0
30.946,-0.058,3.046,46.0
52.383,-0.089,4.875,9.0
40.423,-0.062,3.545,18.0
36.543,-0.056,4.241,7.0
42.569,-0.057,4.71,6.0
57.748,-0.068,6.077,9.0
30.916,-0.031,3.084,33.0
44.791,-0.037,4.227,4.0
40.425,-0.025,3.598,3.0
52.204,-0.033,6.126,39.0
36.586,-0.017,4.095,13.0
36.501,-0.01,3.888,13.0
30.857,-0.003,3.117,32.0
44.796,0.003,4.284,6.0
51.198,0.013,4.62,8.0
39.696,0.011,4.708,9.0
36.424,0.016,4.123,18.0
36.029,0.023,3.882,2.0
30.781,0.025,3.147,26.0
44.809,0.045,4.34,6.0
44.879,0.053,4.105,1.0
39.824,0.048,4.772,2.0
30.529,0.043,3.492,6.0
36.49,0.058,3.976,3.0
30.735,0.054,3.179,42.0
45.508,0.089,4.462,19.0
44.794,0.096,4.15,3.0
33.541,0.073,4.059,6.0
30.491,0.072,3.524,6.0
30.6,0.078,3.37,43.0
30.707,0.084,3.212,37.0
30.967,0.09,3.071,36.0
45.696,0.142,4.285,19.0
53.432,0.168,6.528,12.0
30.48,0.102,3.557,8.0
30.545,0.108,3.398,42.0
30.728,0.114,3.248,6.0
30.988,0.121,3.108,53.0
52.145,0.214,4.947,5.0
33.384,0.139,4.115,7.0
30.484,0.132,3.591,63.0
30.521,0.138,3.429,40.0
51.367,0.243,5.486,9.0
30.959,0.152,3.138,31.0
0.0,0.0,0.0,0.0
30.431,0.158,3.784,31.0
30.487,0.164,3.624,63.0
30.487,0.169,3.457,25.0
36.943,0.213,3.984,8.0
30.951,0.184,3.169,26.0
52.404,0.322,5.08,8.0
30.426,0.189,3.814,54.0
30.434,0.195,3.648,2.0
30.501,0.201,3.489,14.0
51.205,0.348,5.572,5.0
30.934,0.216,3.197,33.0
36.382,0.261,3.562,2.0
30.434,0.221,3.845,63.0
42.172,0.315,5.096,5.0
52.962,0.406,6.11,17.0
51.138,0.402,5.614,1.0
30.935,0.249,3.227,39.0
36.329,0.299,3.591,4.0
30.422,0.254,3.872,17.0
42.118,0.36,5.129,4.0
0.0,0.0,0.0,0.0
40.378,0.361,4.469,2.0
30.936,0.282,3.255,33.0
45.912,0.428,4.58,23.0
39.53,0.373,5.067,4.0
47.866,0.461,5.871,3.0
57.441,0.565,6.73,3.0
31.008,0.31,3.459,3.0
30.933,0.316,3.281,45.0
52.625,0.548,5.294,4.0
30.462,0.32,3.931,7.0
57.972,0.622,7.16,14.0
51.146,0.559,6.035,16.0
30.956,0.344,3.479,40.0
30.94,0.35,3.307,42.0
57.644,0.665,5.846,18.0
30.474,0.355,3.957,13.0
47.923,0.568,5.958,5.0
51.004,0.614,6.058,4.0
31.043,0.38,3.513,61.0
30.939,0.385,3.331,6.0
53.053,0.67,5.421,7.0
39.3,0.502,5.133,4.0
51.042,0.662,6.384,7.0
31.05,0.409,3.711,18.0
47.084,0.63,5.363,10.0
0.0,0.0,0.0,0.0
53.252,0.733,5.479,4.0
30.488,0.424,4.004,9.0
52.288,0.738,6.577,18.0
31.061,0.445,3.735,63.0
46.61,0.677,5.342,21.0
46.783,0.689,5.103,2.0
37.062,0.553,3.839,1.0
30.492,0.46,4.026,7.0
33.334,0.509,4.215,1.0
31.052,0.48,3.754,44.0
46.976,0.736,5.414,9.0
40.788,0.647,4.475,1.0
37.153,0.596,3.871,3.0
30.563,0.496,4.054,10.0
31.072,0.51,3.949,3.0
31.061,0.516,3.774,13.0
47.014,0.791,5.447,8.0
47.622,0.81,5.254,2.0
37.085,0.638,3.886,6.0
30.709,0.534,4.092,28.0
31.061,0.546,3.965,27.0
46.405,0.825,5.665,6.0
47.016,0.845,5.474,12.0
47.778,0.868,5.297,3.0
52.635,0.968,5.544,17.0
30.776,0.572,4.118,36.0
31.07,0.583,3.983,45.0
46.412,0.88,5.691,7.0
52.162,1.0,6.1,5.0
36.956,0.715,4.116,2.0
52.863,1.034,5.595,11.0
30.745,0.607,4.129,29.0
31.064,0.62,3.997,28.0
57.84,1.165,7.12,8.0
52.188,1.061,6.128,6.0
52.556,1.079,5.878,5.0
52.45,1.087,5.575,6.0
30.709,0.642,4.138,23.0
31.081,0.657,4.013,18.0
46.743,0.997,5.774,3.0
52.501,1.13,6.186,19.0
36.891,0.8,4.141,2.0
52.772,1.155,5.631,7.0
30.585,0.677,4.133,12.0
39.318,0.877,5.092,5.0
52.583,1.183,6.516,16.0
52.512,1.192,6.208,5.0
57.89,1.326,6.52,8.0
46.574,1.075,4.986,27.0
30.849,0.719,4.18,45.0
52.157,1.226,6.774,7.0
47.724,1.131,5.93,5.0
46.88,1.12,5.557,21.0
46.642,1.122,5.268,20.0
60.374,1.465,6.482,4.0
30.731,0.753,4.173,9.0
46.434,1.147,6.044,8.0
52.24,1.3,6.506,5.0
47.305,1.186,5.621,9.0
46.773,1.181,5.296,5.0
53.246,1.355,5.731,2.0
30.712,0.789,4.179,6.0
54.356,1.407,7.089,11.0
52.195,1.361,6.513,5.0
46.609,1.223,5.55,19.0
0.0,0.0,0.0,0.0
57.71,1.537,6.224,4.0
39.39,1.059,5.368,2.0
39.325,1.065,5.137,3.0
46.663,1.272,5.833,34.0
47.105,1.292,5.618,5.0
67.632,1.868,7.686,4.0
57.694,1.604,6.233,8.0
0.0,0.0,0.0,0.0
46.722,1.321,6.111,21.0
52.173,1.484,6.529,1.0
59.215,1.695,7.071,24.0
59.301,1.708,6.747,26.0
58.701,1.701,6.349,33.0
46.739,1.368,6.384,30.0
39.374,1.159,5.154,9.0
33.535,0.993,4.2,0.0
47.488,1.415,5.675,2.0
0.0,0.0,0.0,0.0
46.633,1.406,5.048,23.0
30.339,0.923,4.146,2.0
52.162,1.597,6.832,3.0
67.297,2.072,8.433,3.0
53.24,1.648,6.365,0.0
59.379,1.849,6.764,33.0
46.662,1.461,5.052,8.0
46.495,1.469,6.355,6.0
60.506,1.923,7.926,35.0
52.006,1.661,6.518,1.0
59.41,1.909,7.103,6.0
46.537,1.503,5.301,4.0
37.14,1.206,4.021,4.0
30.328,0.994,4.145,2.0
60.722,2.0,7.953,2.0
39.393,1.304,4.936,3.0
58.951,1.962,7.046,8.0
46.67,1.561,5.314,29.0
46.812,1.573,5.066,3.0
46.501,1.578,6.352,2.0
59.361,2.024,7.77,15.0
46.999,1.61,5.885,15.0
53.357,1.837,6.373,1.0
46.712,1.616,5.314,10.0
57.609,2.002,6.229,5.0
60.957,2.139,8.32,1.0
58.795,2.072,7.689,4.0
47.017,1.665,5.881,3.0
46.755,1.663,5.578,8.0
46.712,1.669,5.308,7.0
46.716,1.677,5.044,3.0
46.682,1.691,6.364,1.0
60.257,2.192,7.871,4.0
47.472,1.735,5.93,4.0
46.729,1.714,5.566,9.0
46.619,1.717,5.289,10.0
46.836,1.733,5.048,9.0
46.616,1.741,6.346,2.0
61.325,2.3,7.998,6.0
47.748,1.798,5.954,6.0
52.605,1.989,6.255,3.0
46.758,1.775,5.294,11.0
46.757,1.782,5.028,7.0
39.418,1.516,5.356,3.0
47.765,1.844,6.217,3.0
46.95,1.82,5.842,14.0
60.402,2.35,7.166,22.0
59.654,2.33,6.737,12.0
46.762,1.834,5.016,3.0
39.396,1.559,5.342,4.0
60.495,2.402,7.856,21.0
46.815,1.866,5.811,14.0
0.0,0.0,0.0,0.0
46.833,1.88,5.274,10.0
46.616,1.879,4.985,5.0
39.456,1.604,5.337,2.0
59.67,2.435,7.728,5.0
47.005,1.924,5.818,3.0
59.802,2.456,7.055,10.0
46.746,1.927,5.248,8.0
46.47,1.922,4.952,4.0
60.612,2.529,8.175,6.0
46.769,1.958,6.039,18.0
59.774,2.511,7.375,10.0
58.888,2.481,6.923,17.0
46.794,1.979,5.234,7.0
46.36,1.967,4.921,3.0
46.508,1.99,6.253,10.0
46.825,2.01,6.026,5.0
46.81,2.015,5.755,3.0
66.705,2.88,7.813,3.0
46.71,2.023,5.204,8.0
46.619,2.026,4.928,3.0
30.298,1.328,4.059,2.0
46.819,2.058,6.003,1.0
46.749,2.061,5.725,2.0
59.414,2.627,6.93,8.0
46.747,2.073,5.185,6.0
59.795,2.659,6.291,4.0
46.871,2.102,6.256,11.0
46.852,2.107,5.983,2.0
59.715,2.694,7.282,5.0
0.0,0.0,0.0,0.0
46.374,2.103,5.119,5.0
46.82,2.129,4.901,3.0
46.867,2.149,6.229,1.0
46.929,2.158,5.966,2.0
46.738,2.155,5.673,2.0
47.728,2.206,5.514,1.0
46.249,2.143,5.078,11.0
46.472,2.159,4.837,23.0
46.796,2.193,6.191,2.0
47.118,2.213,5.962,1.0
46.704,2.199,5.64,1.0
60.304,2.846,6.93,1.0
46.212,2.186,5.045,15.0
46.829,2.221,4.845,4.0
46.75,2.236,6.155,2.0
47.781,2.29,6.014,2.0
46.698,2.243,5.609,2.0
60.405,2.909,6.901,1.0
46.2,2.229,5.013,9.0
60.967,2.949,6.267,6.0
46.752,2.28,6.123,0.0
47.084,2.301,5.894,1.0
46.697,2.286,5.577,1.0
59.765,2.933,6.787,13.0
46.194,2.272,4.98,5.0
59.186,2.918,6.042,4.0
46.847,2.327,6.101,0.0
0.0,0.0,0.0,0.0
46.679,2.329,5.54,1.0
46.976,2.348,5.3,4.0
66.477,3.329,7.118,2.0
46.672,2.342,4.73,3.0
0.0,0.0,0.0,0.0
0.0,0.0,0.0,0.0
60.405,3.067,7.122,3.0
46.929,2.387,5.258,3.0
60.714,3.094,6.453,4.0
46.582,2.379,4.684,1.0
0.0,0.0,0.0,0.0
0.0,0.0,0.0,0.0
60.421,3.12,7.075,3.0
0.0,0.0,0.0,0.0
60.688,3.144,6.401,2.0
52.386,2.719,5.224,3.0
0.0,0.0,0.0,0.0
60.488,3.169,7.381,0.0
60.396,3.168,7.021,1.0
46.194,2.427,5.099,1.0
47.033,2.476,4.92,2.0
45.662,2.407,4.514,2.0
0.0,0.0,0.0,0.0
0.0,0.0,0.0,0.0
47.531,2.532,5.483,2.0
45.977,2.453,5.033,20.0
46.773,2.499,4.851,2.0
43.486,2.328,4.26,2.0
0.0,0.0,0.0,0.0
60.395,3.26,7.261,2.0
47.357,2.56,5.419,2.0
45.776,2.478,4.969,20.0
52.434,2.842,5.389,2.0
45.703,2.481,4.434,5.0
47.231,2.583,5.907,1.0
0.0,0.0,0.0,0.0
46.183,2.532,5.24,5.0
46.31,2.542,4.981,7.0
45.806,2.521,4.399,12.0
47.225,2.617,5.859,1.0
46.898,2.602,5.546,1.0
47.247,2.624,5.313,2.0
46.846,2.605,4.992,5.0
45.689,2.544,4.605,1.0
45.871,2.557,4.359,7.0
47.233,2.651,5.811,0.0
46.012,2.585,5.393,3.0
0.0,0.0,0.0,0.0
46.151,2.598,4.87,2.0
45.857,2.584,4.574,1.0
45.902,2.59,4.314,2.0
45.688,2.595,5.572,2.0
46.699,2.655,5.424,0.0
46.203,2.629,5.098,2.0
46.253,2.634,4.831,3.0
45.547,2.597,4.494,1.0
45.85,2.616,4.26,1.0
47.753,2.743,5.771,0.0
47.246,2.716,5.436,1.0
46.226,2.659,5.05,7.0
45.67,2.632,4.456,4.0
45.871,2.646,4.211,1.0
47.754,2.772,5.718,2.0
47.177,2.741,5.374,2.0
46.187,2.685,4.993,3.0
45.414,2.642,4.642,2.0
45.535,2.651,4.391,7.0
0.0,0.0,0.0,0.0
46.872,2.749,5.285,2.0
46.52,2.73,4.975,3.0
45.588,2.68,4.343,6.0
47.334,2.784,4.236,6.0
0.0,0.0,0.0,0.0
0.0,0.0,0.0,0.0
46.124,2.732,4.877,3.0
0.0,0.0,0.0,0.0
47.385,2.812,4.183,4.0
0.0,0.0,0.0,0.0
46.242,2.761,5.101,3.0
45.502,2.718,4.756,1.0
45.831,2.739,4.519,1.0
45.951,2.747,4.265,4.0
45.862,2.743,3.992,2.0
47.003,2.828,5.4,4.0
46.234,2.782,5.042,3.0
45.758,2.756,4.454,12.0
0.0,0.0,0.0,0.0
45.768,2.759,3.926,4.0
47.209,2.861,5.362,1.0
46.069,2.793,4.964,3.0
45.68,2.77,4.388,4.0
0.0,0.0,0.0,0.0
45.718,2.775,3.862,2.0
46.223,2.82,5.19,0.0
45.867,2.799,4.883,2.0
45.456,2.775,4.306,2.0
47.429,2.896,4.218,5.0
47.305,2.889,3.934,3.0
46.207,2.836,5.126,3.0
45.883,2.817,4.556,1.0
45.445,2.79,4.244,1.0
47.443,2.913,4.155,2.0
46.802,2.874,3.829,4.0
46.189,2.851,5.06,0.0
45.706,2.821,4.475,12.0
45.834,2.828,3.951,2.0
46.492,2.87,3.739,3.0
46.124,2.86,4.989,2.0
45.651,2.83,4.406,7.0
45.94,2.848,4.162,1.0
45.742,2.835,3.88,3.0
47.183,2.925,3.729,3.0
46.133,2.873,4.925,1.0
45.726,2.847,4.614,2.0
45.67,2.842,4.343,3.0
0.0,0.0,0.0,0.0
45.732,2.845,3.814,1.0
244.332,15.203,18.965,22.0
45.798,2.861,4.556,1.0
45.573,2.846,4.269,2.0
47.447,2.962,4.164,5.0
47.233,2.948,3.871,3.0
244.449,15.256,18.625,22.0
45.651,2.859,4.475,10.0
47.479,2.972,4.097,1.0
46.711,2.923,3.76,4.0
244.383,15.289,18.262,25.0
45.518,2.857,4.394,4.0
47.461,2.978,4.306,4.0
45.729,2.868,3.879,3.0
47.039,2.949,3.717,3.0
244.501,15.324,17.909,18.0
45.652,2.87,4.339,2.0
0.0,0.0,0.0,0.0
45.77,2.874,3.814,1.0
47.384,2.974,3.674,1.0
244.554,15.346,17.546,8.0
45.811,2.884,4.551,1.0
45.567,2.867,4.262,2.0
0.0,0.0,0.0,0.0
47.171,2.964,3.858,3.0
244.579,15.363,18.59,24.0
110.299,6.924,7.745,2.0
45.592,2.872,4.459,14.0
46.681,2.934,3.747,4.0
244.521,15.359,18.21,25.0
207.459,13.023,14.248,5.0
45.46,2.862,4.376,2.0
47.431,2.984,4.289,7.0
45.728,2.874,3.869,3.0
47.284,2.97,3.721,2.0
244.579,15.351,17.829,13.0
0.0,0.0,0.0,0.0
45.592,2.868,4.316,3.0
0.0,0.0,0.0,0.0
47.059,2.955,3.907,1.0
244.447,15.336,18.854,25.0
0.0,0.0,0.0,0.0
0.0,0.0,0.0,0.0
45.437,2.854,4.229,1.0
47.442,2.976,4.139,3.0
46.841,2.936,3.814,3.0
244.349,15.301,18.459,23.0
207.245,12.966,14.454,5.0
0.0,0.0,0.0,0.0
47.482,2.975,4.343,3.0
45.783,2.865,3.921,3.0
46.902,2.932,3.744,3.0
244.436,15.267,18.07,24.0
0.0,0.0,0.0,0.0
0.0,0.0,0.0,0.0
0.0,0.0,0.0,0.0
45.784,2.856,3.847,2.0
47.325,2.949,3.701,1.0
46.714,2.908,3.378,0.0
0.0,0.0,0.0,0.0
0.0,0.0,0.0,0.0
47.437,2.953,4.185,5.0
47.245,2.937,3.893,4.0
244.261,15.168,18.708,14.0
207.102,12.843,14.64,5.0
207.671,12.863,13.477,9.0
207.699,12.849,12.278,7.0
45.814,2.839,3.966,1.0
46.448,2.874,3.751,3.0
244.18,15.092,18.303,25.0
207.09,12.782,14.299,8.0
207.734,12.807,13.142,21.0
196.858,12.121,11.314,11.0
45.712,2.818,3.882,3.0
47.344,2.915,3.745,3.0
46.856,2.881,3.435,1.0
207.594,12.747,13.996,8.0
207.67,12.734,12.797,9.0
196.284,12.019,10.96,5.0
47.299,2.9,3.938,3.0
244.047,14.939,18.902,22.0
0.0,0.0,0.0,0.0
0.0,0.0,0.0,0.0
0.0,0.0,0.0,0.0
194.217,11.817,10.522,15.0
46.832,2.853,3.822,2.0
243.969,14.837,18.488,17.0
207.013,12.568,14.487,7.0
0.0,0.0,0.0,0.0
110.772,6.704,6.459,5.0
194.167,11.733,10.198,24.0
47.25,2.858,3.777,3.0
46.904,2.831,3.477,1.0
0.0,0.0,0.0,0.0
207.982,12.514,12.987,5.0
110.747,6.652,6.273,1.0
193.735,11.617,9.854,21.0
243.668,14.619,19.07,23.0
0.0,0.0,0.0,0.0
0.0,0.0,0.0,0.0
0.0,0.0,0.0,0.0
194.289,11.573,10.68,22.0
193.808,11.524,9.533,19.0
243.615,14.49,18.654,27.0
206.594,12.263,14.621,11.0
0.0,0.0,0.0,0.0
0.0,0.0,0.0,0.0
194.153,11.46,10.349,23.0
193.963,11.427,9.219,6.0
46.911,2.764,3.514,1.0
206.465,12.141,14.27,6.0
0.0,0.0,0.0,0.0
195.978,11.475,11.253,5.0
193.747,11.323,10.005,20.0
193.958,11.313,8.895,16.0
243.303,14.188,17.815,13.0
0.0,0.0,0.0,0.0
0.0,0.0,0.0,0.0
195.907,11.35,10.92,19.0
193.726,11.199,9.678,17.0
193.925,11.187,8.567,8.0
206.083,11.885,14.741,6.0
0.0,0.0,0.0,0.0
0.0,0.0,0.0,0.0
193.414,11.075,10.453,20.0
193.83,11.074,9.354,12.0
0.0,0.0,0.0,0.0
206.203,11.748,14.4,6.0
206.628,11.743,13.233,23.0
195.397,11.079,11.381,18.0
193.571,10.948,10.135,26.0
194.136,10.954,9.042,5.0
193.54,10.894,7.898,10.0
0.0,0.0,0.0,0.0
0.0,0.0,0.0,0.0
195.259,10.924,11.044,19.0
193.692,10.809,9.815,21.0
193.668,10.782,8.696,18.0
193.654,10.755,7.58,7.0
0.0,0.0,0.0,0.0
195.17,10.797,11.843,9.0
194.221,10.715,10.658,25.0
193.609,10.652,9.487,21.0
193.143,10.6,8.35,23.0
0.0,0.0,0.0,0.0
0.0,0.0,0.0,0.0
195.259,10.641,11.519,24.0
193.971,10.54,10.32,25.0
193.128,10.466,9.142,21.0
193.303,10.446,8.033,6.0
193.134,10.408,6.914,16.0
0.0,0.0,0.0,0.0
194.874,10.452,11.169,19.0
193.697,10.358,9.981,23.0
192.773,10.28,8.802,24.0
193.11,10.267,7.702,13.0
193.465,10.256,6.603,5.0
0.0,0.0,0.0,0.0
0.0,0.0,0.0,0.0
193.893,10.194,9.671,12.0
192.995,10.115,8.492,20.0
193.18,10.095,7.386,14.0
193.861,10.099,6.296,10.0
195.077,10.138,11.663,14.0
194.233,10.062,10.488,9.0
192.78,9.954,9.295,24.0
192.891,9.926,8.167,20.0
197.59,10.134,7.226,5.0
194.176,9.927,5.982,19.0
195.063,9.947,11.336,23.0
194.424,9.879,10.174,24.0
192.954,9.77,8.982,25.0
193.143,9.746,7.858,15.0
0.0,0.0,0.0,0.0
194.139,9.731,5.661,24.0
195.651,9.777,11.046,22.0
193.231,9.623,9.795,25.0
192.715,9.562,8.658,23.0
192.867,9.534,7.532,23.0
0.0,0.0,0.0,0.0
193.86,9.517,5.339,15.0
194.356,9.508,10.656,24.0
193.121,9.412,9.474,19.0
193.142,9.378,8.361,7.0
193.156,9.342,7.228,13.0
194.67,9.38,6.165,7.0
196.366,9.429,5.09,8.0
0.0,0.0,0.0,0.0
192.907,9.191,9.152,25.0
193.341,9.176,8.059,18.0
193.642,9.153,6.936,26.0
193.749,9.122,5.826,25.0
195.637,9.176,4.757,4.0
194.578,9.09,10.042,25.0
193.092,8.981,8.85,23.0
193.564,8.964,7.756,16.0
193.317,8.917,6.613,27.0
193.908,8.907,5.519,6.0
0.0,0.0,0.0,0.0
193.35,8.804,9.665,24.0
193.356,8.767,8.552,19.0
193.703,8.743,7.451,25.0
193.137,8.681,6.3,29.0
193.968,8.679,5.211,20.0
195.534,8.711,4.131,34.0
193.653,8.585,9.374,26.0
193.35,8.534,8.247,20.0
193.926,8.519,7.156,25.0
193.391,8.456,6.006,21.0
192.575,8.382,4.871,11.0
196.859,8.529,3.85,4.0
194.782,8.395,9.125,5.0
195.382,8.381,8.028,6.0
193.472,8.257,6.835,27.0
0.0,0.0,0.0,0.0
0.0,0.0,0.0,0.0
196.647,8.27,3.538,17.0
195.165,8.162,8.836,8.0
0.0,0.0,0.0,0.0
193.714,8.016,6.542,19.0
193.827,7.981,5.414,25.0
195.242,7.998,4.334,5.0
196.772,8.018,3.238,6.0
195.192,7.907,8.537,6.0
0.0,0.0,0.0,0.0
193.344,7.746,6.234,16.0
199.21,7.936,5.258,6.0
200.533,7.946,4.142,5.0
0.0,0.0,0.0,0.0
195.297,7.646,8.243,13.0
193.487,7.53,7.054,9.0
0.0,0.0,0.0,0.0
195.044,7.505,4.854,15.0
195.067,7.462,3.735,19.0
195.105,7.419,2.616,21.0
0.0,0.0,0.0,0.0
193.673,7.269,6.769,10.0
194.915,7.269,5.693,7.0
195.296,7.239,4.565,9.0
0.0,0.0,0.0,0.0
0.0,0.0,0.0,0.0
193.931,7.048,7.603,16.0
193.58,6.988,6.477,7.0
194.84,6.99,5.403,16.0
195.183,6.955,4.273,19.0
202.757,7.176,3.277,19.0
202.856,7.135,2.118,40.0
193.659,6.758,7.309,24.0
193.3,6.698,6.186,9.0
195.439,6.724,5.133,9.0
195.158,6.669,3.99,23.0
195.483,6.634,2.878,14.0
196.233,6.612,1.765,12.0
193.585,6.47,7.028,23.0
0.0,0.0,0.0,0.0
194.327,6.396,4.826,6.0
195.262,6.378,3.711,11.0
195.748,6.349,2.601,7.0
196.192,6.316,1.486,28.0
193.236,6.166,6.741,23.0
194.527,6.158,5.671,6.0
193.946,6.091,4.544,18.0
0.0,0.0,0.0,0.0
201.687,6.235,2.399,7.0
196.063,6.011,1.21,43.0
193.017,5.859,6.462,18.0
194.547,5.858,5.401,19.0
193.633,5.781,4.268,37.0
195.711,5.792,3.174,16.0
0.0,0.0,0.0,0.0
196.128,5.708,0.942,18.0
193.09,5.562,6.201,8.0
194.265,5.545,5.129,24.0
193.484,5.471,4.001,34.0
195.4,5.477,2.906,23.0
0.0,0.0,0.0,0.0
103.176,2.837,0.355,1.0
193.326,5.256,5.946,8.0
194.089,5.228,4.861,28.0
193.454,5.16,3.741,32.0
195.133,5.153,2.64,28.0
103.116,2.696,0.806,10.0
100.232,2.594,0.211,1.0
194.383,4.97,5.723,13.0
193.971,4.909,4.604,31.0
193.545,4.845,3.488,24.0
0.0,0.0,0.0,0.0
103.002,2.523,0.67,3.0
100.158,2.427,0.08,5.0
194.572,4.651,5.474,18.0
194.041,4.585,4.353,33.0
195.434,4.564,3.268,9.0
0.0,0.0,0.0,0.0
99.962,2.281,0.522,2.0
100.085,2.256,-0.047,14.0
194.894,4.331,5.236,24.0
0.0,0.0,0.0,0.0
195.642,4.238,3.024,18.0
102.915,2.2,0.993,1.0
99.994,2.111,0.396,3.0
99.976,2.082,-0.173,6.0
194.651,3.993,4.987,16.0
194.404,3.931,3.872,13.0
199.65,3.98,2.838,9.0
102.927,2.022,0.866,9.0
99.888,1.934,0.272,5.0
0.0,0.0,0.0,0.0
194.627,3.651,4.748,16.0
194.62,3.595,3.64,9.0
0.0,0.0,0.0,0.0
99.791,1.786,0.72,2.0
99.87,1.759,0.152,11.0
0.0,0.0,0.0,0.0
194.799,3.312,4.521,12.0
194.79,3.255,3.412,26.0
0.0,0.0,0.0,0.0
99.715,1.609,0.603,4.0
99.752,1.579,0.035,5.0
0.0,0.0,0.0,0.0
196.166,2.985,4.325,23.0
194.709,2.906,3.186,35.0
0.0,0.0,0.0,0.0
99.564,1.427,0.488,5.0
99.707,1.4,-0.077,1.0
0.0,0.0,0.0,0.0
20.29,0.272,0.424,13.0
20.297,0.266,0.309,11.0
20.287,0.26,0.194,2.0
99.501,1.245,0.376,6.0
0.0,0.0,0.0,0.0
20.205,0.241,-0.152,0.0
20.287,0.235,0.402,32.0
20.289,0.229,0.287,26.0
20.301,0.223,0.172,24.0
20.335,0.217,0.055,26.0
20.309,0.211,-0.06,0.0
20.178,0.203,-0.174,10.0
20.28,0.197,0.38,33.0
20.292,0.191,0.265,27.0
20.291,0.184,0.15,26.0
20.295,0.178,0.033,29.0
20.204,0.171,-0.081,21.0
20.178,0.165,-0.195,26.0
20.18,0.158,0.357,26.0
20.174,0.152,0.243,20.0
20.19,0.145,0.128,28.0
20.176,0.139,0.012,26.0
20.178,0.133,-0.101,37.0
20.188,0.127,-0.216,29.0
20.167,0.12,0.336,29.0
20.168,0.113,0.222,27.0
20.182,0.107,0.108,29.0
20.18,0.1,-0.007,28.0
20.183,0.094,-0.122,31.0
20.2,0.087,-0.236,13.0
20.157,0.081,0.316,27.0
20.147,0.074,0.202,29.0
20.171,0.068,0.088,22.0
20.214,0.062,-0.027,26.0
20.236,0.055,-0.141,23.0
20.228,0.049,-0.256,9.0
20.142,0.042,0.297,30.0
20.139,0.035,0.183,28.0
20.192,0.029,0.07,29.0
20.248,0.022,-0.046,151.0
20.259,0.016,-0.16,151.0
20.255,0.009,-0.275,37.0
20.132,0.002,0.279,28.0
20.126,-0.003,0.165,27.0
20.144,-0.01,0.051,26.0
20.149,-0.017,-0.063,23.0
20.17,-0.023,-0.177,21.0
20.175,-0.029,-0.291,23.0
20.117,-0.036,0.261,32.0
20.122,-0.042,0.148,32.0
20.134,-0.049,0.034,34.0
20.136,-0.056,-0.081,34.0
20.154,-0.063,-0.194,24.0
20.153,-0.069,-0.308,30.0
20.129,-0.076,0.244,28.0
20.124,-0.082,0.131,27.0
20.139,-0.089,0.018,31.0
20.147,-0.096,-0.097,27.0
20.151,-0.103,-0.211,20.0
20.146,-0.109,-0.324,40.0
20.132,-0.116,0.228,19.0
20.123,-0.122,0.115,16.0
20.173,-0.129,0.002,24.0
20.138,-0.136,-0.113,18.0
20.151,-0.143,-0.226,22.0
20.162,-0.15,-0.34,29.0
58.321,-0.453,0.618,12.0
66.508,-0.539,0.33,22.0
53.347,-0.45,-0.034,10.0
56.518,-0.496,-0.36,1.0
44.99,-0.41,-0.54,20.0
37.936,-0.359,-0.669,10.0
64.324,-0.629,0.634,139.0
56.159,-0.569,0.238,6.0
56.25,-0.589,-0.077,1.0
59.31,-0.641,-0.42,6.0
44.903,-0.501,-0.571,36.0
0.0,0.0,0.0,0.0
20.171,-0.238,0.184,8.0
59.569,-0.725,0.211,18.0
59.553,-0.746,-0.123,7.0
58.779,-0.756,-0.457,5.0
44.872,-0.593,-0.601,18.0
36.023,-0.488,-0.685,3.0
20.124,-0.278,0.171,12.0
20.125,-0.285,0.058,16.0
59.544,-0.867,-0.161,2.0
52.932,-0.789,-0.446,15.0
44.815,-0.684,-0.629,4.0
31.753,-0.496,-0.623,3.0
20.129,-0.32,0.158,10.0
20.145,-0.327,0.045,56.0
20.127,-0.334,-0.066,3.0
52.887,-0.896,-0.477,18.0
38.519,-0.666,-0.563,13.0
31.381,-0.554,-0.635,15.0
67.556,-1.212,0.493,3.0
53.012,-0.969,0.09,16.0
52.949,-0.987,-0.206,51.0
45.463,-0.864,-0.436,25.0
38.245,-0.74,-0.581,18.0
31.004,-0.611,-0.644,29.0
52.924,-1.058,0.357,44.0
38.378,-0.781,0.044,21.0
38.365,-0.794,-0.169,52.0
38.355,-0.808,-0.388,25.0
