X,Y,Z,Reflectivity
103.204,3.44,5.905,4.0
196.584,6.54,10.104,13.0
51.95,1.734,4.092,3.0
68.503,2.281,4.996,5.0
68.679,2.282,4.608,7.0
69.332,2.299,4.241,2.0
102.888,3.405,5.695,3.0
104.11,3.438,5.158,2.0
51.898,1.719,3.991,6.0
68.343,2.258,4.857,8.0
68.957,2.273,4.498,10.0
103.914,3.417,6.161,9.0
103.496,3.396,5.535,2.0
117.816,3.857,5.617,7.0
104.993,3.445,7.877,1.0
53.231,1.742,3.683,4.0
69.123,2.257,4.38,9.0
104.549,3.405,6.004,4.0
102.915,3.344,5.312,4.0
102.305,3.316,4.686,5.0
68.399,2.221,5.002,7.0
68.592,2.221,4.615,8.0
67.395,2.177,4.142,2.0
103.098,3.321,5.726,2.0
103.96,3.34,5.169,6.0
117.632,3.77,5.166,4.0
68.394,2.195,4.872,13.0
68.773,2.201,4.497,4.0
67.459,2.152,4.018,2.0
118.406,3.768,6.352,5.0
117.872,3.74,5.637,4.0
193.596,6.125,8.135,18.0
53.223,1.686,3.691,8.0
68.744,2.171,4.365,8.0
103.628,3.262,5.977,7.0
103.001,3.233,5.332,6.0
102.382,3.203,4.704,2.0
193.698,6.042,7.775,17.0
68.088,2.126,4.592,7.0
0.0,0.0,0.0,0.0
103.319,3.204,5.764,3.0
103.244,3.192,5.149,8.0
102.305,3.152,4.507,5.0
193.758,5.95,7.409,19.0
102.997,3.164,6.749,5.0
69.03,2.113,4.121,4.0
103.755,3.165,5.591,3.0
110.649,3.363,5.307,5.0
102.241,3.097,4.31,2.0
193.765,5.849,7.042,20.0
103.087,3.111,6.558,4.0
69.12,2.078,3.994,6.0
103.271,3.094,5.368,12.0
120.525,3.597,5.552,2.0
193.54,5.754,7.789,11.0
192.809,5.712,6.64,6.0
67.452,1.997,4.163,3.0
103.653,3.056,5.794,6.0
110.245,3.238,5.522,8.0
194.843,5.7,8.606,7.0
193.712,5.643,7.429,6.0
193.134,5.605,6.287,17.0
69.691,2.02,4.169,1.0
116.631,3.367,6.298,3.0
110.658,3.18,5.33,2.0
102.3,2.928,4.323,5.0
193.559,5.516,7.056,15.0
193.547,5.491,5.933,15.0
103.523,2.934,5.996,3.0
103.975,2.933,5.416,8.0
103.384,2.902,4.784,1.0
102.831,2.873,4.15,4.0
193.078,5.371,6.671,22.0
194.507,5.385,5.591,8.0
69.105,1.909,3.87,6.0
103.159,2.836,5.177,5.0
124.843,3.416,5.539,3.0
193.603,5.272,7.446,7.0
193.174,5.234,6.306,23.0
194.581,5.245,5.222,21.0
103.514,2.784,5.6,6.0
103.104,2.759,4.978,4.0
120.287,3.201,5.109,3.0
194.334,5.147,7.107,5.0
0.0,0.0,0.0,0.0
194.086,5.085,4.845,31.0
103.777,2.712,5.419,5.0
124.703,3.24,5.787,3.0
102.709,2.653,4.169,6.0
0.0,0.0,0.0,0.0
194.443,4.968,5.616,18.0
193.974,4.927,4.476,30.0
103.817,2.628,5.225,3.0
0.0,0.0,0.0,0.0
0.0,0.0,0.0,0.0
0.0,0.0,0.0,0.0
194.377,4.802,5.247,22.0
193.847,4.762,4.111,31.0
102.971,2.519,4.99,3.0
131.876,3.207,5.625,3.0
0.0,0.0,0.0,0.0
194.698,4.673,6.025,8.0
194.302,4.634,4.886,24.0
193.97,4.596,3.754,21.0
102.783,2.424,4.789,3.0
102.656,2.405,4.188,6.0
0.0,0.0,0.0,0.0
194.743,4.498,5.662,21.0
194.184,4.454,4.521,29.0
194.206,4.424,3.396,10.0
103.456,2.344,4.628,1.0
132.843,2.987,5.171,3.0
0.0,0.0,0.0,0.0
194.896,4.316,5.303,22.0
194.308,4.273,4.163,6.0
195.54,4.267,3.055,18.0
124.743,2.705,5.348,2.0
140.197,3.017,5.197,4.0
168.373,3.594,5.264,4.0
194.665,4.122,4.939,13.0
0.0,0.0,0.0,0.0
0.0,0.0,0.0,0.0
124.773,2.581,5.12,13.0
0.0,0.0,0.0,0.0
0.0,0.0,0.0,0.0
194.523,3.921,4.578,13.0
195.4,3.904,3.466,8.0
103.175,2.043,1.233,9.0
124.734,2.451,4.888,22.0
0.0,0.0,0.0,0.0
0.0,0.0,0.0,0.0
194.457,3.715,4.222,20.0
0.0,0.0,0.0,0.0
0.0,0.0,0.0,0.0
124.737,2.317,4.662,17.0
148.584,2.733,4.694,3.0
194.556,3.542,5.02,6.0
194.67,3.51,3.878,20.0
0.0,0.0,0.0,0.0
99.994,1.764,0.833,1.0
124.843,2.181,4.443,19.0
0.0,0.0,0.0,0.0
194.684,3.327,4.673,7.0
194.827,3.292,3.53,25.0
0.0,0.0,0.0,0.0
99.735,1.647,0.653,3.0
124.905,2.04,4.222,20.0
0.0,0.0,0.0,0.0
196.364,3.13,4.365,23.0
194.766,3.066,3.182,34.0
0.0,0.0,0.0,0.0
99.719,1.531,0.477,5.0
157.23,2.385,5.04,23.0
196.476,2.939,5.159,18.0
195.474,2.885,4.002,25.0
195.11,2.84,2.846,8.0
0.0,0.0,0.0,0.0
99.701,1.41,0.301,5.0
157.855,2.201,4.78,14.0
20.293,0.278,0.497,3.0
20.286,0.274,0.379,5.0
20.292,0.27,0.26,1.0
99.562,1.306,0.703,2.0
99.566,1.286,0.128,5.0
20.281,0.257,0.579,14.0
20.279,0.253,0.461,26.0
20.283,0.249,0.344,20.0
20.271,0.244,0.225,18.0
20.308,0.24,0.108,3.0
99.505,1.159,-0.042,2.0
20.286,0.231,0.544,27.0
20.271,0.227,0.426,30.0
20.289,0.223,0.31,26.0
20.287,0.218,0.19,25.0
20.331,0.214,0.074,27.0
20.315,0.21,-0.043,1.0
20.263,0.205,0.509,32.0
20.269,0.2,0.392,30.0
20.292,0.196,0.276,27.0
20.306,0.191,0.156,28.0
20.324,0.187,0.039,32.0
20.219,0.182,-0.077,18.0
20.255,0.177,0.475,27.0
20.241,0.173,0.358,27.0
20.253,0.168,0.241,22.0
20.227,0.163,0.122,24.0
20.23,0.159,0.006,24.0
20.181,0.154,-0.11,29.0
20.176,0.149,0.44,26.0
20.175,0.144,0.323,24.0
20.173,0.14,0.207,22.0
20.197,0.135,0.089,31.0
20.183,0.13,-0.027,27.0
20.173,0.125,-0.143,39.0
20.165,0.12,0.407,29.0
20.167,0.116,0.291,28.0
20.167,0.111,0.174,26.0
20.183,0.106,0.056,36.0
20.184,0.102,-0.059,35.0
20.194,0.097,-0.176,25.0
20.149,0.092,0.374,28.0
20.143,0.087,0.258,27.0
20.148,0.082,0.142,24.0
20.198,0.077,0.024,29.0
20.202,0.072,-0.092,25.0
20.206,0.068,-0.208,7.0
20.148,0.062,0.342,29.0
20.145,0.057,0.226,29.0
20.144,0.052,0.11,28.0
20.205,0.047,-0.007,9.0
20.255,0.042,-0.124,38.0
20.259,0.038,-0.24,85.0
20.142,0.032,0.311,29.0
20.14,0.027,0.195,28.0
20.169,0.022,0.079,28.0
20.252,0.018,-0.038,151.0
20.255,0.012,-0.155,151.0
20.269,0.007,-0.271,61.0
20.123,0.002,0.28,28.0
20.127,-0.002,0.164,28.0
20.135,-0.007,0.048,18.0
20.156,-0.013,-0.069,19.0
20.161,-0.018,-0.185,13.0
20.172,-0.023,-0.301,9.0
20.123,-0.028,0.25,32.0
20.114,-0.033,0.134,34.0
20.129,-0.038,0.018,34.0
20.135,-0.044,-0.098,32.0
20.135,-0.049,-0.214,12.0
20.159,-0.054,-0.33,23.0
20.125,-0.059,0.22,29.0
20.129,-0.065,0.105,40.0
20.122,-0.07,-0.01,29.0
20.135,-0.075,-0.128,37.0
20.136,-0.08,-0.243,34.0
20.145,-0.086,-0.359,24.0
20.133,-0.091,0.191,27.0
20.132,-0.096,0.076,34.0
20.144,-0.102,-0.039,28.0
20.149,-0.107,-0.156,28.0
20.143,-0.113,-0.272,35.0
20.153,-0.118,-0.388,38.0
20.148,-0.124,0.163,19.0
20.165,-0.129,0.047,24.0
20.172,-0.135,-0.067,19.0
20.144,-0.14,-0.185,9.0
20.154,-0.146,-0.301,28.0
20.167,-0.152,-0.417,33.0
58.33,-0.455,0.392,19.0
56.24,-0.454,0.056,2.0
53.338,-0.445,-0.252,7.0
20.157,-0.173,-0.212,8.0
20.169,-0.179,-0.328,16.0
20.188,-0.185,-0.444,27.0
56.205,-0.531,0.301,5.0
56.223,-0.547,-0.019,13.0
58.81,-0.589,-0.357,3.0
45.029,-0.463,-0.536,27.0
37.722,-0.399,-0.665,18.0
20.203,-0.219,-0.472,8.0
56.176,-0.625,0.227,1.0
56.256,-0.642,-0.094,1.0
56.767,-0.664,-0.42,1.0
44.871,-0.538,-0.593,24.0
35.966,-0.441,-0.681,4.0
30.278,-0.38,-0.747,8.0
59.551,-0.764,0.164,63.0
59.529,-0.781,-0.176,5.0
52.886,-0.708,-0.458,15.0
39.204,-0.536,-0.568,10.0
31.868,-0.445,-0.644,9.0
0.0,0.0,0.0,0.0
20.134,-0.292,0.03,11.0
56.726,-0.841,-0.239,2.0
52.787,-0.798,-0.523,9.0
38.151,-0.588,-0.6,14.0
30.938,-0.485,-0.663,28.0
28.248,-0.452,-0.767,1.0
20.13,-0.327,0.005,39.0
53.022,-0.878,-0.287,11.0
45.158,-0.761,-0.503,20.0
37.904,-0.65,-0.642,15.0
30.549,-0.533,-0.692,29.0
26.912,-0.478,-0.764,3.0
20.122,-0.363,-0.018,18.0
52.914,-0.969,-0.35,54.0
44.921,-0.837,-0.554,33.0
0.0,0.0,0.0,0.0
30.304,-0.583,-0.722,20.0
26.456,-0.517,-0.782,1.0
52.941,-1.049,-0.11,15.0
45.528,-0.916,-0.354,8.0
38.359,-0.783,-0.517,18.0
31.366,-0.65,-0.605,18.0
30.055,-0.632,-0.751,8.0
24.735,-0.528,-0.759,2.0
40.45,-0.874,-0.129,4.0
40.442,-0.886,-0.36,24.0
38.292,-0.851,-0.559,22.0
30.93,-0.696,-0.631,30.0
28.416,-0.649,-0.742,1.0
23.785,-0.551,-0.757,14.0
40.419,-0.946,-0.174,41.0
40.358,-0.957,-0.403,47.0
38.059,-0.914,-0.597,24.0
30.592,-0.744,-0.657,33.0
27.802,-0.685,-0.755,0.0
23.734,-0.592,-0.78,14.0
38.759,-0.977,-0.207,34.0
38.719,-0.988,-0.427,34.0
37.92,-0.979,-0.634,13.0
30.447,-0.796,-0.686,34.0
25.286,-0.669,-0.713,2.0
23.145,-0.62,-0.785,5.0
38.689,-1.046,-0.246,66.0
38.61,-1.055,-0.465,27.0
31.392,-0.868,-0.556,9.0
30.362,-0.849,-0.714,17.0
24.76,-0.7,-0.723,10.0
22.22,-0.636,-0.775,0.0
38.647,-1.115,-0.283,72.0
38.486,-1.123,-0.501,23.0
31.143,-0.918,-0.582,27.0
30.115,-0.898,-0.737,8.0
24.346,-0.734,-0.735,24.0
21.922,-0.668,-0.786,0.0
38.645,-1.187,-0.32,62.0
38.31,-1.189,-0.535,13.0
30.882,-0.968,-0.606,31.0
28.443,-0.901,-0.723,1.0
23.842,-0.763,-0.741,18.0
21.461,-0.694,-0.789,1.0
38.693,-1.26,-0.355,37.0
38.123,-1.254,-0.567,13.0
30.674,-1.019,-0.63,31.0
27.961,-0.938,-0.735,1.0
23.734,-0.804,-0.759,13.0
20.911,-0.715,-0.787,0.0
45.365,-1.562,-0.456,20.0
38.0,-1.321,-0.597,10.0
30.556,-1.072,-0.653,37.0
25.271,-0.895,-0.686,0.0
23.62,-0.844,-0.775,7.0
20.621,-0.744,-0.794,1.0
45.024,-1.635,-0.49,16.0
31.289,-1.146,-0.518,36.0
30.508,-1.128,-0.678,35.0
25.025,-0.933,-0.7,6.0
23.035,-0.867,-0.775,3.0
20.303,-0.771,-0.798,2.0
31.297,-1.195,-0.365,40.0
31.21,-1.202,-0.541,12.0
28.482,-1.107,-0.655,53.0
24.706,-0.968,-0.71,12.0
22.308,-0.881,-0.768,2.0
19.778,-0.788,-0.792,0.0
28.451,-1.139,-0.354,86.0
28.46,-1.149,-0.515,130.0
28.459,-1.159,-0.675,136.0
24.219,-0.994,-0.714,17.0
21.951,-0.909,-0.771,1.0
19.43,-0.811,-0.793,0.0
28.456,-1.194,-0.374,120.0
28.457,-1.204,-0.535,134.0
28.442,-1.212,-0.695,69.0
23.925,-1.028,-0.722,18.0
21.791,-0.944,-0.781,3.0
19.159,-0.836,-0.795,0.0
28.485,-1.249,-0.394,56.0
30.796,-1.361,-0.6,24.0
28.609,-1.274,-0.718,7.0
23.824,-1.068,-0.735,16.0
21.384,-0.967,-0.781,0.0
18.903,-0.861,-0.797,0.0
31.206,-1.427,-0.451,64.0
30.687,-1.414,-0.617,33.0
28.248,-1.312,-0.727,3.0
23.763,-1.111,-0.748,13.0
21.01,-0.99,-0.78,1.0
18.541,-0.88,-0.793,0.0
31.207,-1.487,-0.47,45.0
30.625,-1.469,-0.634,34.0
24.658,-1.192,-0.649,1.0
23.677,-1.153,-0.759,10.0
20.813,-1.02,-0.785,0.0
18.385,-0.908,-0.797,1.0
31.307,-1.551,-0.49,24.0
30.581,-1.526,-0.65,29.0
24.532,-1.233,-0.659,11.0
23.53,-1.19,-0.767,5.0
20.354,-1.037,-0.778,0.0
18.174,-0.932,-0.798,0.0
37.967,-1.954,-0.614,5.0
30.547,-1.583,-0.665,26.0
24.357,-1.27,-0.667,16.0
22.958,-1.205,-0.761,5.0
20.266,-1.071,-0.785,0.0
18.018,-0.959,-0.8,0.0
31.492,-1.68,-0.524,5.0
24.499,-1.316,-0.545,26.0
24.304,-1.314,-0.677,18.0
22.555,-1.227,-0.758,2.0
19.994,-1.095,-0.784,1.0
17.662,-0.973,-0.792,0.0
24.553,-1.357,-0.42,47.0
24.503,-1.362,-0.556,34.0
24.229,-1.356,-0.686,18.0
22.314,-1.256,-0.759,1.0
19.718,-1.117,-0.781,1.0
17.644,-1.006,-0.798,0.0
24.517,-1.401,-0.429,60.0
24.476,-1.407,-0.565,36.0
24.169,-1.398,-0.694,15.0
22.046,-1.283,-0.759,1.0
19.518,-1.143,-0.781,1.0
17.488,-1.03,-0.798,0.0
24.494,-1.446,-0.437,58.0
24.458,-1.453,-0.574,43.0
24.07,-1.438,-0.699,13.0
21.835,-1.312,-0.759,1.0
19.405,-1.173,-0.783,1.0
17.375,-1.057,-0.799,1.0
24.501,-1.493,-0.445,69.0
24.452,-1.498,-0.581,39.0
23.982,-1.478,-0.704,14.0
21.648,-1.342,-0.759,0.0
19.301,-1.203,-0.785,0.0
17.207,-1.079,-0.796,0.0
24.496,-1.539,-0.452,54.0
24.422,-1.543,-0.588,27.0
23.934,-1.52,-0.709,13.0
21.431,-1.369,-0.757,0.0
19.161,-1.231,-0.784,0.0
17.179,-1.11,-0.799,1.0
24.512,-1.586,-0.459,43.0
24.451,-1.591,-0.594,33.0
23.916,-1.564,-0.715,15.0
21.329,-1.403,-0.759,0.0
19.017,-1.257,-0.782,0.0
17.106,-1.137,-0.799,1.0
24.526,-1.633,-0.464,20.0
24.456,-1.636,-0.599,23.0
23.865,-1.605,-0.718,15.0
21.198,-1.433,-0.758,1.0
18.931,-1.287,-0.782,1.0
16.989,-1.161,-0.797,1.0
30.618,-2.095,-0.585,2.0
24.541,-1.688,-0.605,16.0
23.825,-1.647,-0.72,13.0
21.102,-1.466,-0.757,0.0
18.869,-1.318,-0.783,0.0
16.937,-1.189,-0.797,1.0
32.195,-2.262,-0.619,2.0
28.03,-1.98,-0.694,4.0
23.822,-1.691,-0.723,11.0
21.064,-1.502,-0.758,0.0
18.835,-1.35,-0.783,1.0
16.966,-1.222,-0.8,2.0
32.298,-2.329,-0.624,2.0
27.938,-2.024,-0.694,1.0
23.8,-1.733,-0.724,18.0
21.146,-1.547,-0.763,2.0
18.837,-1.385,-0.784,1.0
17.079,-1.261,-0.806,3.0
32.108,-2.374,-0.621,2.0
27.878,-2.07,-0.694,2.0
23.81,-1.776,-0.725,15.0
21.049,-1.578,-0.76,2.0
18.584,-1.4,-0.774,1.0
16.902,-1.279,-0.798,2.0
31.88,-2.414,-0.617,2.0
27.661,-2.104,-0.689,1.0
23.812,-1.819,-0.725,13.0
20.997,-1.611,-0.758,1.0
18.58,-1.432,-0.774,1.0
16.796,-1.301,-0.793,1.0
32.094,-2.488,-0.621,1.0
27.672,-2.154,-0.688,1.0
23.771,-1.859,-0.723,12.0
20.962,-1.647,-0.756,1.0
18.665,-1.473,-0.776,0.0
16.83,-1.334,-0.793,1.0
32.395,-2.568,-0.624,2.0
27.653,-2.202,-0.686,2.0
23.817,-1.904,-0.722,13.0
20.983,-1.685,-0.755,1.0
18.676,-1.506,-0.775,1.0
16.826,-1.363,-0.792,0.0
32.152,-2.605,-0.616,2.0
27.815,-2.263,-0.687,2.0
23.821,-1.946,-0.72,14.0
21.107,-1.732,-0.756,1.0
18.831,-1.551,-0.779,2.0
16.881,-1.397,-0.792,1.0
32.177,-2.663,-0.612,2.0
27.849,-2.314,-0.683,4.0
23.818,-1.987,-0.716,15.0
21.178,-1.774,-0.756,2.0
18.777,-1.579,-0.774,1.0
16.968,-1.433,-0.793,0.0
32.204,-2.72,-0.607,1.0
27.85,-2.361,-0.678,3.0
23.831,-2.029,-0.712,19.0
21.104,-1.803,-0.749,1.0
18.882,-1.62,-0.774,1.0
16.997,-1.464,-0.791,0.0
32.537,-2.804,-0.606,1.0
27.986,-2.42,-0.675,4.0
23.841,-2.07,-0.706,16.0
21.219,-1.849,-0.748,1.0
18.966,-1.659,-0.773,1.0
17.113,-1.503,-0.792,1.0
33.227,-2.918,-0.61,1.0
28.05,-2.473,-0.669,4.0
23.827,-2.108,-0.7,14.0
21.341,-1.895,-0.746,0.0
19.072,-1.7,-0.772,1.0
17.1,-1.53,-0.786,1.0
32.731,-2.929,-0.592,3.0
28.201,-2.532,-0.665,3.0
23.839,-2.148,-0.693,12.0
21.382,-1.934,-0.741,1.0
19.11,-1.735,-0.768,1.0
17.16,-1.563,-0.784,0.0
34.111,-3.107,-0.605,2.0
28.453,-2.601,-0.661,4.0
23.846,-2.187,-0.685,9.0
21.821,-2.009,-0.749,4.0
19.266,-1.78,-0.767,1.0
17.301,-1.604,-0.784,0.0
34.808,-3.226,-0.605,10.0
28.615,-2.661,-0.654,3.0
25.211,-2.353,-0.715,6.0
21.772,-2.039,-0.739,3.0
19.396,-1.823,-0.765,1.0
17.398,-1.641,-0.782,0.0
34.531,-3.256,-0.587,11.0
28.758,-2.72,-0.646,2.0
25.486,-2.418,-0.712,6.0
21.911,-2.086,-0.735,2.0
19.575,-1.87,-0.764,1.0
17.55,-1.682,-0.781,0.0
34.508,-3.307,-0.572,12.0
29.277,-2.814,-0.645,2.0
25.708,-2.479,-0.707,6.0
22.196,-2.147,-0.735,1.0
19.776,-1.919,-0.763,2.0
17.655,-1.719,-0.778,1.0
34.508,-3.359,-0.556,19.0
30.034,-2.933,-0.648,2.0
25.957,-2.542,-0.702,6.0
22.579,-2.218,-0.736,2.0
19.941,-1.965,-0.759,2.0
17.915,-1.771,-0.78,0.0
34.444,-3.405,-0.537,29.0
30.355,-3.009,-0.639,2.0
26.196,-2.605,-0.695,6.0
22.685,-2.262,-0.728,1.0
20.156,-2.016,-0.757,1.0
18.129,-1.819,-0.78,1.0
34.548,-3.465,-0.521,27.0
30.639,-3.082,-0.629,2.0
26.417,-2.665,-0.687,6.0
23.0,-2.327,-0.725,2.0
20.298,-2.06,-0.751,1.0
18.204,-1.853,-0.773,1.0
34.764,-3.537,-0.504,19.0
30.903,-3.153,-0.617,4.0
26.731,-2.735,-0.679,6.0
23.224,-2.383,-0.719,4.0
20.538,-2.113,-0.748,1.0
18.38,-1.897,-0.77,1.0
34.973,-3.607,-0.487,16.0
31.622,-3.27,-0.612,9.0
26.966,-2.796,-0.669,3.0
23.582,-2.452,-0.716,5.0
20.874,-2.176,-0.747,2.0
18.675,-1.953,-0.77,1.0
35.096,-3.668,-0.467,12.0
32.05,-3.358,-0.6,10.0
27.343,-2.872,-0.661,2.0
24.028,-2.531,-0.714,5.0
21.084,-2.227,-0.741,4.0
18.917,-2.003,-0.768,1.0
39.89,-4.222,-0.505,3.0
32.344,-3.432,-0.585,10.0
27.971,-2.975,-0.658,1.0
24.413,-2.604,-0.709,5.0
21.389,-2.287,-0.738,2.0
19.152,-2.053,-0.765,1.0
39.965,-4.282,-0.478,12.0
32.546,-3.495,-0.566,24.0
28.165,-3.032,-0.643,1.0
24.882,-2.686,-0.705,6.0
21.803,-2.359,-0.737,2.0
19.446,-2.109,-0.763,2.0
39.971,-4.333,-0.45,15.0
32.855,-3.57,-0.548,27.0
29.321,-3.194,-0.648,3.0
25.233,-2.755,-0.697,6.0
22.16,-2.425,-0.733,3.0
19.652,-2.156,-0.757,1.0
40.132,-4.4,-0.422,15.0
33.313,-3.661,-0.531,30.0
29.909,-3.294,-0.639,8.0
25.546,-2.82,-0.687,6.0
22.518,-2.491,-0.728,4.0
20.084,-2.227,-0.758,1.0
40.277,-4.465,-0.393,9.0
33.71,-3.745,-0.511,31.0
30.273,-3.37,-0.623,8.0
25.999,-2.901,-0.679,3.0
22.893,-2.56,-0.722,5.0
20.313,-2.276,-0.751,2.0
0.0,0.0,0.0,0.0
34.069,-3.824,-0.49,34.0
30.521,-3.433,-0.604,12.0
26.715,-3.011,-0.676,2.0
23.224,-2.623,-0.713,3.0
20.634,-2.336,-0.746,2.0
44.791,-5.067,-0.365,7.0
34.438,-3.904,-0.467,33.0
30.664,-3.483,-0.582,20.0
27.157,-3.091,-0.665,2.0
23.665,-2.699,-0.707,3.0
20.998,-2.4,-0.741,3.0
45.773,-5.228,-0.335,20.0
34.912,-3.995,-0.444,16.0
31.229,-3.58,-0.566,17.0
27.478,-3.156,-0.649,3.0
24.31,-2.798,-0.706,3.0
21.416,-2.47,-0.738,4.0
46.819,-5.397,-0.302,22.0
39.73,-4.588,-0.471,6.0
31.849,-3.684,-0.55,26.0
28.285,-3.278,-0.643,2.0
24.719,-2.87,-0.696,4.0
21.767,-2.532,-0.73,7.0
47.674,-5.543,-0.265,23.0
39.893,-4.646,-0.438,13.0
32.497,-3.791,-0.532,29.0
29.136,-3.405,-0.637,8.0
25.266,-2.958,-0.689,3.0
22.048,-2.586,-0.72,4.0
48.49,-5.685,-0.226,23.0
40.05,-4.703,-0.403,15.0
33.071,-3.89,-0.511,27.0
29.301,-3.452,-0.613,19.0
25.809,-3.046,-0.68,5.0
22.689,-2.682,-0.72,4.0
48.906,-5.779,-0.183,7.0
40.212,-4.759,-0.367,15.0
33.658,-3.989,-0.489,28.0
29.731,-3.53,-0.595,22.0
26.159,-3.111,-0.664,2.0
23.167,-2.759,-0.713,4.0
50.588,-6.023,-0.142,8.0
40.43,-4.82,-0.331,7.0
34.177,-4.081,-0.463,30.0
30.195,-3.611,-0.575,22.0
27.006,-3.235,-0.66,2.0
23.537,-2.823,-0.702,3.0
55.671,-6.675,-0.102,19.0
45.951,-5.517,-0.332,20.0
34.711,-4.173,-0.437,22.0
30.753,-3.703,-0.556,12.0
27.79,-3.351,-0.652,3.0
24.072,-2.907,-0.694,1.0
56.179,-6.781,-0.047,6.0
46.4,-5.608,-0.289,21.0
39.692,-4.803,-0.461,6.0
31.551,-3.823,-0.539,18.0
28.423,-3.449,-0.638,7.0
24.771,-3.01,-0.69,4.0
80.859,-9.822,0.012,11.0
47.402,-5.765,-0.247,22.0
39.801,-4.846,-0.422,21.0
32.266,-3.934,-0.518,24.0
28.897,-3.528,-0.619,13.0
25.355,-3.099,-0.68,3.0
80.771,-9.87,0.095,24.0
48.045,-5.877,-0.201,22.0
40.025,-4.901,-0.383,17.0
32.975,-4.043,-0.496,27.0
29.15,-3.578,-0.595,21.0
26.102,-3.208,-0.673,6.0
80.58,-9.9,0.177,24.0
49.877,-6.134,-0.158,23.0
40.326,-4.965,-0.344,15.0
33.655,-4.148,-0.471,28.0
29.612,-3.654,-0.574,23.0
26.828,-3.314,-0.664,6.0
80.688,-9.965,0.262,22.0
55.616,-6.875,-0.117,9.0
45.505,-5.631,-0.34,5.0
34.296,-4.248,-0.444,23.0
30.227,-3.748,-0.553,18.0
27.516,-3.416,-0.651,4.0
69.392,-8.611,0.299,3.0
55.812,-6.932,-0.058,6.0
46.058,-5.725,-0.295,20.0
39.715,-4.941,-0.472,3.0
31.172,-3.882,-0.537,26.0
28.158,-3.51,-0.636,9.0
69.049,-8.606,0.373,4.0
69.123,-8.622,0.002,7.0
46.811,-5.844,-0.249,21.0
39.77,-4.969,-0.429,15.0
31.907,-3.99,-0.515,25.0
28.526,-3.57,-0.613,22.0
68.868,-8.618,0.445,3.0
68.956,-8.635,0.076,2.0
47.895,-6.002,-0.203,22.0
39.937,-5.008,-0.388,15.0
32.822,-4.119,-0.494,26.0
29.025,-3.646,-0.592,19.0
80.6,-10.122,0.61,4.0
68.714,-8.635,0.151,8.0
0.0,0.0,0.0,0.0
40.118,-5.048,-0.345,13.0
33.617,-4.233,-0.469,27.0
29.548,-3.723,-0.571,24.0
80.55,-10.149,0.697,4.0
68.435,-8.627,0.226,2.0
55.687,-7.024,-0.113,9.0
45.491,-5.741,-0.341,3.0
34.329,-4.335,-0.442,28.0
30.169,-3.812,-0.55,22.0
68.303,-8.63,0.668,4.0
68.415,-8.648,0.302,1.0
56.048,-7.088,-0.052,7.0
45.834,-5.8,-0.293,20.0
39.76,-5.034,-0.467,3.0
31.124,-3.943,-0.532,18.0
68.273,-8.648,0.744,8.0
68.178,-8.639,0.378,2.0
60.974,-7.73,0.011,2.0
46.601,-5.91,-0.245,21.0
39.775,-5.047,-0.423,15.0
32.007,-4.063,-0.512,23.0
68.258,-8.664,0.82,5.0
68.105,-8.648,0.453,2.0
68.122,-8.653,0.088,2.0
47.789,-6.072,-0.198,22.0
39.878,-5.069,-0.379,10.0
32.917,-4.186,-0.489,24.0
191.924,-24.406,2.522,31.0
68.084,-8.659,0.53,2.0
68.134,-8.668,0.166,2.0
49.635,-6.316,-0.149,23.0
40.106,-5.105,-0.335,2.0
33.762,-4.299,-0.463,26.0
191.989,-24.448,2.741,31.0
68.064,-8.668,0.607,1.0
67.924,-8.652,0.243,2.0
55.679,-7.094,-0.104,10.0
45.589,-5.809,-0.329,6.0
34.48,-4.395,-0.434,24.0
191.908,-24.463,2.962,25.0
68.308,-8.708,0.688,1.0
67.921,-8.659,0.321,2.0
60.946,-7.771,-0.044,6.0
45.988,-5.865,-0.28,20.0
39.75,-5.07,-0.454,5.0
191.943,-24.484,3.183,30.0
81.227,-10.361,0.911,1.0
67.797,-8.648,0.397,5.0
61.063,-7.789,0.025,6.0
47.088,-6.007,-0.232,21.0
39.793,-5.077,-0.41,10.0
191.841,-24.478,3.399,18.0
191.927,-24.486,2.371,20.0
67.847,-8.655,0.475,6.0
67.98,-8.672,0.105,2.0
48.373,-6.17,-0.184,22.0
39.909,-5.091,-0.365,6.0
220.511,-28.134,4.155,7.0
191.878,-24.476,2.59,27.0
67.922,-8.663,0.553,2.0
67.944,-8.664,0.182,2.0
50.182,-6.399,-0.134,11.0
42.266,-5.389,-0.339,2.0
197.989,-25.249,3.956,9.0
191.936,-24.471,2.809,27.0
68.315,-8.707,0.634,1.0
67.99,-8.664,0.259,2.0
55.864,-7.118,-0.085,11.0
45.704,-5.822,-0.314,16.0
139.704,-17.802,2.951,4.0
191.946,-24.45,3.026,26.0
68.237,-8.689,0.71,5.0
67.945,-8.649,0.336,2.0
60.978,-7.76,-0.024,5.0
46.23,-5.882,-0.266,21.0
139.49,-17.753,3.104,14.0
191.974,-24.423,3.243,25.0
68.185,-8.671,0.786,6.0
68.016,-8.646,0.413,3.0
68.182,-8.664,0.049,2.0
47.52,-6.037,-0.219,22.0
139.478,-17.724,3.262,17.0
191.955,-24.38,3.458,20.0
191.95,-24.368,2.432,29.0
68.2,-8.654,0.491,3.0
68.313,-8.665,0.126,1.0
0.0,0.0,0.0,0.0
63.107,-8.004,1.546,15.0
197.426,-25.025,3.777,10.0
191.975,-24.32,2.644,27.0
68.317,-8.65,0.568,3.0
68.278,-8.641,0.202,2.0
55.703,-7.046,-0.133,9.0
63.109,-7.986,1.616,30.0
197.475,-24.972,4.0,8.0
191.957,-24.258,2.861,30.0
68.302,-8.626,0.644,3.0
68.472,-8.642,0.278,2.0
55.989,-7.063,-0.071,7.0
63.08,-7.961,1.686,30.0
139.521,-17.595,2.979,17.0
192.075,-24.205,3.073,40.0
80.619,-10.152,0.848,7.0
68.644,-8.638,0.354,3.0
68.693,-8.639,-0.012,3.0
63.124,-7.942,1.756,26.0
139.54,-17.543,3.132,29.0
192.029,-24.122,3.282,26.0
80.85,-10.148,0.939,4.0
68.821,-8.632,0.43,2.0
68.983,-8.646,0.061,3.0
63.163,-7.92,1.825,31.0
139.474,-17.473,3.281,27.0
191.987,-24.031,3.486,11.0
192.018,-24.014,2.436,27.0
80.496,-10.059,0.588,18.0
69.124,-8.631,0.134,19.0
63.291,-7.907,1.896,7.0
139.618,-17.425,3.432,19.0
198.181,-24.71,3.81,8.0
192.036,-23.921,2.639,32.0
80.454,-10.013,0.673,28.0
69.248,-8.61,0.208,4.0
139.091,-17.304,4.316,11.0
63.054,-7.836,1.617,7.0
139.659,-17.337,2.832,4.0
192.041,-23.816,2.843,29.0
80.404,-9.961,0.758,28.0
80.478,-9.961,0.326,17.0
85.533,-10.593,2.743,4.0
165.362,-20.455,4.416,22.0
139.625,-17.252,2.977,9.0
192.079,-23.707,3.043,17.0
80.408,-9.914,0.841,15.0
80.371,-9.899,0.409,32.0
85.086,-10.486,2.817,19.0
165.116,-20.323,4.578,16.0
188.38,-23.158,4.211,18.0
188.548,-23.152,3.18,23.0
80.693,-9.897,0.927,8.0
80.276,-9.835,0.49,31.0
84.617,-10.373,2.888,33.0
85.803,-10.504,2.466,8.0
188.849,-23.09,4.41,8.0
188.25,-22.987,3.366,10.0
153.634,-18.737,1.92,12.0
80.266,-9.777,0.57,32.0
84.632,-10.316,2.973,35.0
0.0,0.0,0.0,0.0
139.793,-16.992,3.405,4.0
153.905,-18.682,2.904,6.0
153.674,-18.629,2.072,14.0
80.256,-9.717,0.65,28.0
84.643,-10.254,3.058,30.0
84.187,-10.184,2.586,29.0
139.127,-16.805,3.526,20.0
153.734,-18.544,3.05,18.0
153.709,-18.515,2.22,18.0
80.139,-9.64,0.727,28.0
84.593,-10.183,3.137,25.0
84.29,-10.13,2.671,33.0
138.915,-16.669,3.652,26.0
153.812,-18.429,3.199,25.0
153.715,-18.39,2.368,20.0
80.131,-9.573,0.802,21.0
84.83,-10.141,3.227,19.0
84.427,-10.076,2.755,33.0
84.355,-10.051,2.296,14.0
85.325,-10.151,1.854,5.0
188.148,-22.348,3.075,12.0
80.305,-9.523,0.879,10.0
84.174,-9.989,3.28,18.0
84.509,-10.011,2.836,35.0
84.353,-9.976,2.374,16.0
85.315,-10.073,1.933,15.0
188.318,-22.198,3.249,12.0
192.265,-22.627,2.279,21.0
83.948,-9.887,3.347,34.0
84.509,-9.934,2.913,31.0
84.205,-9.881,2.446,36.0
84.213,-9.864,1.983,10.0
85.37,-9.983,1.549,8.0
85.184,-9.944,1.085,5.0
83.843,-9.795,3.417,33.0
84.045,-9.8,2.97,32.0
84.035,-9.78,2.515,45.0
84.295,-9.792,2.057,21.0
85.306,-9.892,1.621,24.0
84.762,-9.812,1.152,31.0
83.889,-9.718,3.49,40.0
83.827,-9.692,3.033,46.0
83.045,-9.582,2.555,27.0
84.126,-9.688,2.124,23.0
85.18,-9.791,1.69,25.0
84.425,-9.686,1.218,33.0
83.982,-9.643,3.564,39.0
83.376,-9.553,3.086,34.0
82.955,-9.486,2.622,20.0
82.086,-9.367,2.141,13.0
85.096,-9.691,1.757,16.0
84.21,-9.572,1.283,24.0
84.289,-9.588,3.646,28.0
82.717,-9.389,3.129,29.0
82.496,-9.344,2.672,19.0
82.093,-9.279,2.206,23.0
82.897,-9.35,1.778,16.0
84.327,-9.492,1.351,25.0
0.0,0.0,0.0,0.0
82.581,-9.282,3.188,26.0
82.233,-9.222,2.729,34.0
82.042,-9.18,2.268,35.0
82.814,-9.247,1.84,33.0
82.192,-9.158,1.381,19.0
83.758,-9.339,3.754,46.0
82.642,-9.193,3.253,27.0
82.277,-9.131,2.792,30.0
81.976,-9.077,2.328,38.0
82.243,-9.087,1.888,46.0
82.181,-9.06,1.44,31.0
0.0,0.0,0.0,0.0
82.614,-9.093,3.312,41.0
82.336,-9.041,2.852,39.0
81.707,-8.95,2.378,45.0
81.803,-8.941,1.936,41.0
82.173,-8.96,1.498,35.0
83.794,-9.144,3.875,32.0
82.527,-8.983,3.367,38.0
82.291,-8.935,2.908,37.0
81.508,-8.828,2.428,34.0
81.784,-8.837,1.992,39.0
82.049,-8.844,1.552,42.0
84.071,-9.069,3.944,37.0
83.393,-8.973,3.458,54.0
82.307,-8.834,2.964,38.0
81.553,-8.73,2.483,36.0
81.92,-8.748,2.048,50.0
82.004,-8.735,1.603,43.0
84.42,-8.999,4.016,38.0
83.067,-8.83,3.497,43.0
82.406,-8.737,3.019,40.0
81.726,-8.643,2.54,32.0
81.75,-8.623,2.094,40.0
81.852,-8.612,1.651,49.0
84.579,-8.905,4.075,22.0
82.157,-8.626,3.509,35.0
82.579,-8.647,3.075,49.0
81.839,-8.547,2.592,46.0
81.678,-8.508,2.14,35.0
81.832,-8.501,1.698,39.0
83.565,-8.687,4.074,32.0
81.981,-8.498,3.548,38.0
82.396,-8.516,3.115,37.0
81.969,-8.449,2.642,43.0
81.843,-8.413,2.19,48.0
81.955,-8.401,1.746,42.0
83.085,-8.523,4.097,45.0
81.974,-8.384,3.592,34.0
82.283,-8.392,3.155,39.0
82.226,-8.361,2.695,62.0
81.926,-8.307,2.236,43.0
81.978,-8.29,1.789,36.0
82.622,-8.36,4.117,37.0
81.995,-8.272,3.635,39.0
82.206,-8.268,3.194,37.0
81.946,-8.217,2.726,52.0
82.044,-8.204,2.28,47.0
82.119,-8.188,1.832,20.0
82.259,-8.206,4.138,33.0
81.978,-8.152,3.674,40.0
82.306,-8.159,3.236,39.0
81.841,-8.088,2.761,38.0
82.335,-8.112,2.326,44.0
82.699,-8.124,1.883,38.0
82.02,-8.061,4.164,34.0
81.685,-8.002,3.698,37.0
82.246,-8.031,3.271,28.0
82.057,-7.988,2.804,45.0
82.175,-7.974,2.357,43.0
82.319,-7.962,1.91,17.0
81.81,-7.917,4.188,34.0
81.812,-7.891,3.737,38.0
82.702,-7.952,3.323,14.0
81.902,-7.849,2.832,51.0
82.127,-7.845,2.389,44.0
82.086,-7.817,1.936,29.0
81.79,-7.792,4.218,31.0
81.916,-7.777,3.773,40.0
81.966,-7.755,3.323,10.0
81.788,-7.712,2.858,45.0
82.14,-7.72,2.418,52.0
82.11,-7.691,1.966,42.0
82.135,-7.697,4.264,36.0
82.164,-7.672,3.813,38.0
81.799,-7.611,3.345,41.0
81.844,-7.589,2.887,41.0
82.092,-7.585,2.444,43.0
82.1,-7.561,1.992,42.0
82.337,-7.585,4.301,32.0
82.01,-7.528,3.83,42.0
81.696,-7.472,3.365,37.0
82.068,-7.479,2.92,42.0
82.098,-7.456,2.468,45.0
82.407,-7.458,2.022,39.0
83.24,-7.536,4.371,47.0
82.049,-7.4,3.855,45.0
81.63,-7.335,3.384,41.0
82.202,-7.359,2.945,46.0
82.196,-7.333,2.491,40.0
82.534,-7.337,2.046,38.0
83.217,-7.399,4.39,35.0
82.478,-7.306,3.894,44.0
81.667,-7.207,3.403,36.0
82.233,-7.23,2.964,46.0
82.183,-7.199,2.508,39.0
83.544,-7.29,2.088,16.0
83.103,-7.253,4.401,35.0
82.848,-7.202,3.928,48.0
81.836,-7.087,3.426,37.0
82.18,-7.09,2.978,44.0
82.223,-7.066,2.524,43.0
83.008,-7.106,2.089,36.0
83.172,-7.121,4.418,38.0
83.107,-7.087,3.953,42.0
82.095,-6.972,3.45,38.0
82.003,-6.937,2.983,51.0
82.137,-6.921,2.534,45.0
82.843,-6.953,2.097,40.0
83.517,-7.009,4.447,55.0
83.331,-6.965,3.974,43.0
82.414,-6.86,3.473,29.0
82.01,-6.798,2.993,47.0
82.261,-6.791,2.546,39.0
82.358,-6.772,2.092,43.0
83.36,-6.853,4.446,38.0
83.318,-6.821,3.98,41.0
83.422,-6.801,3.521,42.0
82.41,-6.69,3.013,46.0
82.594,-6.678,2.561,45.0
82.267,-6.624,2.094,38.0
83.139,-6.693,4.439,38.0
83.204,-6.669,3.979,31.0
83.645,-6.675,3.534,21.0
82.304,-6.539,3.011,42.0
82.597,-6.535,2.564,44.0
82.126,-6.47,2.093,34.0
83.185,-6.551,4.442,44.0
83.33,-6.534,3.985,29.0
83.502,-6.518,3.528,23.0
82.536,-6.413,3.02,43.0
82.599,-6.391,2.562,41.0
82.271,-6.338,2.095,40.0
83.31,-6.415,4.446,39.0
83.634,-6.411,3.996,20.0
83.447,-6.367,3.523,38.0
82.58,-6.272,3.018,36.0
82.911,-6.269,2.568,59.0
82.412,-6.203,2.093,39.0
83.747,-6.301,4.464,38.0
83.405,-6.246,3.979,36.0
82.989,-6.186,3.497,34.0
82.83,-6.145,3.019,53.0
82.9,-6.122,2.56,49.0
82.357,-6.054,2.085,30.0
83.753,-6.152,4.455,34.0
83.304,-6.09,3.965,40.0
82.855,-6.028,3.481,35.0
83.086,-6.015,3.018,41.0
82.935,-5.976,2.55,54.0
82.404,-5.91,2.074,35.0
83.877,-6.011,4.45,34.0
83.469,-5.952,3.961,35.0
83.428,-5.92,3.492,43.0
83.008,-5.86,3.001,41.0
82.995,-5.832,2.538,54.0
82.701,-5.783,2.067,35.0
84.269,-5.887,4.454,30.0
83.691,-5.816,3.954,25.0
24.566,-1.698,1.023,27.0
24.552,-1.689,0.882,14.0
24.599,-1.684,0.747,11.0
82.57,-5.625,2.046,26.0
24.523,-1.668,1.29,42.0
24.488,-1.657,1.151,30.0
24.477,-1.648,1.013,27.0
24.491,-1.64,0.874,35.0
24.523,-1.634,0.738,47.0
24.552,-1.628,0.602,33.0
24.476,-1.62,1.281,68.0
24.498,-1.613,1.145,39.0
24.47,-1.602,1.006,51.0
24.469,-1.594,0.867,59.0
24.514,-1.588,0.731,68.0
24.538,-1.581,0.594,55.0
24.477,-1.575,1.274,90.0
24.457,-1.565,1.135,42.0
24.461,-1.557,0.998,33.0
24.47,-1.549,0.858,62.0
24.513,-1.543,0.722,70.0
24.543,-1.536,0.586,86.0
24.467,-1.529,1.265,96.0
24.439,-1.519,1.126,58.0
24.46,-1.512,0.989,52.0
24.484,-1.504,0.85,61.0
24.54,-1.5,0.714,76.0
24.554,-1.492,0.577,76.0
24.457,-1.483,1.255,63.0
24.509,-1.478,1.119,36.0
24.47,-1.467,0.98,27.0
24.509,-1.46,0.841,56.0
24.563,-1.455,0.705,70.0
24.578,-1.447,0.567,71.0
24.498,-1.44,1.246,54.0
24.513,-1.432,1.109,41.0
24.534,-1.425,0.971,33.0
24.57,-1.418,0.832,39.0
24.581,-1.41,0.694,25.0
24.607,-1.404,0.556,15.0
28.412,-1.617,1.432,43.0
24.589,-1.391,1.1,5.0
83.333,-4.685,3.261,20.0
83.155,-4.647,2.777,21.0
83.95,-4.662,2.33,50.0
83.598,-4.614,1.849,42.0
28.411,-1.564,1.417,63.0
83.424,-4.564,3.691,34.0
83.497,-4.539,3.223,38.0
84.146,-4.545,2.765,37.0
84.451,-4.534,2.299,53.0
84.333,-4.498,1.82,47.0
28.404,-1.511,1.401,49.0
84.154,-4.447,3.677,29.0
83.83,-4.401,3.189,23.0
84.786,-4.422,2.738,48.0
84.644,-4.386,2.256,44.0
85.034,-4.377,1.786,44.0
28.399,-1.457,1.384,25.0
85.906,-4.379,3.701,48.0
86.102,-4.359,3.224,22.0
85.755,-4.313,2.717,44.0
84.664,-4.23,2.204,39.0
84.635,-4.2,1.726,39.0
85.142,-4.211,4.097,21.0
86.305,-4.239,3.664,12.0
85.069,-4.148,3.13,16.0
85.745,-4.153,2.661,28.0
84.797,-4.078,2.152,37.0
84.782,-4.049,1.673,24.0
86.163,-4.101,4.088,11.0
86.69,-4.096,3.622,11.0
85.852,-4.027,3.1,13.0
85.722,-3.993,2.602,17.0
85.066,-3.933,2.1,28.0
31.329,-1.438,0.596,2.0
164.356,-7.517,7.682,6.0
165.438,-7.511,6.794,18.0
166.008,-7.48,5.875,19.0
85.732,-3.834,2.539,6.0
31.324,-1.39,0.75,22.0
28.46,-1.253,0.52,46.0
28.439,-1.247,1.307,1.0
28.449,-1.239,1.147,41.0
28.445,-1.229,0.985,59.0
28.436,-1.219,0.82,63.0
28.43,-1.209,0.659,89.0
28.439,-1.2,0.498,106.0
28.429,-1.194,1.285,102.0
28.43,-1.185,1.123,113.0
28.424,-1.175,0.961,112.0
28.437,-1.166,0.797,123.0
28.44,-1.157,0.636,150.0
28.427,-1.147,0.474,96.0
28.431,-1.142,1.261,103.0
28.436,-1.133,1.099,70.0
28.445,-1.123,0.938,65.0
28.461,-1.115,0.774,54.0
31.288,-1.215,0.673,9.0
31.231,-1.203,0.495,38.0
31.255,-1.198,1.359,63.0
31.235,-1.187,1.181,48.0
31.27,-1.178,1.004,57.0
31.255,-1.167,0.823,47.0
31.316,-1.159,0.646,50.0
31.33,-1.15,0.468,48.0
31.275,-1.142,1.332,58.0
31.265,-1.131,1.153,43.0
31.285,-1.122,0.976,40.0
31.332,-1.113,0.796,41.0
31.374,-1.104,0.618,0.0
84.288,-2.942,1.183,30.0
31.342,-1.087,1.305,31.0
38.71,-1.33,1.392,5.0
38.711,-1.317,1.171,10.0
38.666,-1.303,0.945,37.0
38.688,-1.292,0.725,35.0
38.708,-1.281,0.506,24.0
38.655,-1.27,1.572,88.0
38.628,-1.257,1.351,64.0
38.608,-1.244,1.13,63.0
38.612,-1.232,0.905,67.0
38.632,-1.221,0.686,71.0
38.635,-1.209,0.466,64.0
38.651,-1.2,1.532,90.0
38.6,-1.186,1.31,60.0
38.586,-1.174,1.089,68.0
38.632,-1.163,0.866,102.0
38.639,-1.151,0.646,98.0
38.639,-1.14,0.426,92.0
38.644,-1.131,1.491,84.0
38.557,-1.116,1.268,66.0
38.601,-1.105,1.048,71.0
38.642,-1.094,0.825,82.0
38.632,-1.083,0.604,66.0
38.645,-1.071,0.384,64.0
38.67,-1.062,1.45,38.0
38.589,-1.048,1.226,42.0
38.622,-1.037,1.006,70.0
38.667,-1.026,0.783,46.0
38.691,-1.015,0.562,34.0
38.698,-1.003,0.341,34.0
45.706,-1.175,1.662,48.0
38.689,-0.983,1.185,50.0
38.688,-0.971,0.964,39.0
40.425,-1.002,0.772,26.0
40.413,-0.99,0.541,30.0
40.414,-0.978,0.31,37.0
40.411,-0.968,1.423,36.0
0.0,0.0,0.0,0.0
40.419,-0.944,0.96,38.0
40.408,-0.932,0.725,39.0
40.429,-0.92,0.494,135.0
40.409,-0.908,0.262,34.0
40.401,-0.898,1.373,31.0
40.422,-0.886,1.143,26.0
38.39,-0.83,0.865,39.0
38.383,-0.819,0.642,30.0
38.394,-0.808,0.422,10.0
52.914,-1.098,0.279,41.0
45.742,-0.937,1.498,51.0
64.295,-1.299,1.738,18.0
38.247,-0.761,0.815,18.0
53.015,-1.04,0.82,7.0
53.017,-1.025,0.516,16.0
53.029,-1.01,0.213,9.0
64.301,-1.21,2.026,79.0
64.326,-1.191,1.657,9.0
191.613,-3.492,3.838,24.0
192.892,-3.46,2.739,35.0
20.159,-0.355,0.17,1.0
20.15,-0.35,0.055,43.0
64.304,-1.1,1.941,82.0
176.593,-2.97,4.317,45.0
59.546,-0.984,1.114,6.0
20.146,-0.327,0.259,6.0
20.124,-0.321,0.143,13.0
20.129,-0.315,0.028,26.0
59.443,-0.917,1.715,21.0
53.498,-0.81,1.236,77.0
20.133,-0.299,0.349,9.0
20.127,-0.293,0.231,14.0
20.133,-0.288,0.116,9.0
59.524,-0.836,0.002,79.0
59.411,-0.819,1.632,58.0
20.14,-0.272,0.437,10.0
20.123,-0.266,0.321,12.0
20.14,-0.261,0.204,10.0
56.185,-0.713,0.247,1.0
56.28,-0.699,-0.074,1.0
20.175,-0.245,0.526,9.0
20.132,-0.239,0.409,13.0
20.154,-0.234,0.293,13.0
64.305,-0.73,0.562,3.0
56.187,-0.622,0.167,3.0
56.21,-0.607,-0.155,12.0
20.141,-0.212,0.496,16.0
20.171,-0.207,0.381,19.0
53.385,-0.535,0.701,13.0
53.351,-0.52,0.389,14.0
53.359,-0.506,0.082,5.0
53.337,-0.492,-0.224,5.0
20.168,-0.181,0.467,16.0
53.473,-0.466,0.932,12.0
58.317,-0.492,0.68,11.0
58.31,-0.477,0.339,18.0
20.192,-0.16,0.001,16.0
20.159,-0.154,-0.114,18.0
20.224,-0.15,0.438,25.0
20.16,-0.144,0.321,16.0
20.135,-0.139,0.204,16.0
20.116,-0.133,0.087,20.0
20.155,-0.129,-0.028,25.0
20.145,-0.123,-0.144,28.0
20.116,-0.119,0.406,22.0
20.135,-0.114,0.29,24.0
20.124,-0.108,0.174,25.0
20.131,-0.103,0.056,35.0
20.14,-0.098,-0.059,28.0
20.143,-0.093,-0.175,38.0
20.122,-0.088,0.375,35.0
20.117,-0.083,0.259,26.0
20.12,-0.078,0.143,29.0
20.114,-0.074,0.025,35.0
20.149,-0.069,-0.09,33.0
20.142,-0.064,-0.206,17.0
20.117,-0.059,0.343,33.0
20.117,-0.054,0.227,31.0
20.125,-0.049,0.111,37.0
20.125,-0.044,-0.006,34.0
20.149,-0.039,-0.122,29.0
20.157,-0.034,-0.238,13.0
20.127,-0.029,0.311,32.0
20.12,-0.025,0.195,30.0
20.135,-0.02,0.079,30.0
20.189,-0.015,-0.038,17.0
20.213,-0.01,-0.155,13.0
20.243,-0.006,-0.272,17.0
20.129,-0.001,0.279,28.0
20.125,0.003,0.163,26.0
20.247,0.008,0.047,150.0
20.257,0.012,-0.071,151.0
20.258,0.017,-0.188,151.0
20.266,0.022,-0.306,150.0
20.134,0.026,0.245,28.0
20.146,0.031,0.129,28.0
20.228,0.036,0.013,10.0
20.233,0.04,-0.105,21.0
20.209,0.045,-0.222,3.0
20.207,0.049,-0.338,0.0
20.142,0.054,0.212,29.0
20.164,0.058,0.096,24.0
20.208,0.063,-0.02,33.0
20.201,0.067,-0.138,27.0
20.212,0.071,-0.255,8.0
41.645,0.157,-0.767,0.0
20.158,0.08,0.178,28.0
20.194,0.085,0.062,33.0
20.183,0.089,-0.054,33.0
20.181,0.094,-0.172,28.0
20.2,0.098,-0.289,25.0
20.237,0.103,-0.407,0.0
20.171,0.106,0.144,26.0
20.19,0.111,0.027,29.0
20.189,0.115,-0.089,33.0
20.178,0.12,-0.207,27.0
20.189,0.124,-0.324,28.0
20.195,0.128,-0.441,9.0
20.205,0.132,0.109,36.0
20.202,0.136,-0.007,25.0
20.186,0.141,-0.123,30.0
20.173,0.145,-0.242,32.0
20.184,0.149,-0.359,30.0
20.201,0.153,-0.476,26.0
20.265,0.158,0.074,26.0
20.226,0.161,-0.042,20.0
20.183,0.165,-0.159,19.0
20.179,0.169,-0.277,32.0
20.171,0.173,-0.394,34.0
20.186,0.177,-0.511,27.0
20.338,0.183,0.039,34.0
20.237,0.186,-0.078,4.0
20.157,0.189,-0.194,16.0
20.169,0.193,-0.313,29.0
20.187,0.197,-0.43,27.0
20.188,0.201,-0.547,33.0
20.326,0.206,0.002,8.0
20.333,0.21,-0.114,0.0
20.176,0.213,-0.231,19.0
20.176,0.217,-0.35,27.0
20.178,0.22,-0.467,22.0
20.191,0.224,-0.584,33.0
0.0,0.0,0.0,0.0
20.222,0.232,-0.151,0.0
20.179,0.236,-0.267,14.0
20.162,0.239,-0.386,19.0
20.194,0.243,-0.504,23.0
20.213,0.247,-0.622,26.0
0.0,0.0,0.0,0.0
0.0,0.0,0.0,0.0
20.216,0.258,-0.305,2.0
20.223,0.262,-0.424,9.0
20.191,0.265,-0.54,18.0
20.215,0.269,-0.659,18.0
0.0,0.0,0.0,0.0
0.0,0.0,0.0,0.0
42.809,0.592,-0.725,0.0
20.257,0.284,-0.462,0.0
20.216,0.287,-0.579,1.0
25.865,0.372,-0.891,0.0
0.0,0.0,0.0,0.0
0.0,0.0,0.0,0.0
0.0,0.0,0.0,0.0
33.929,0.51,-0.837,0.0
28.449,0.432,-0.867,0.0
24.683,0.379,-0.896,0.0
0.0,0.0,0.0,0.0
0.0,0.0,0.0,0.0
38.018,0.603,-0.785,0.0
31.916,0.511,-0.848,1.0
27.007,0.437,-0.874,0.0
23.502,0.384,-0.897,0.0
0.0,0.0,0.0,0.0
0.0,0.0,0.0,0.0
37.205,0.625,-0.838,0.0
30.83,0.523,-0.877,1.0
26.02,0.445,-0.891,0.0
22.629,0.391,-0.907,0.0
0.0,0.0,0.0,0.0
0.0,0.0,0.0,0.0
34.084,0.604,-0.833,3.0
28.686,0.513,-0.87,0.0
24.72,0.446,-0.894,0.0
20.138,0.366,-0.845,0.0
0.0,0.0,0.0,0.0
37.999,0.701,-0.78,0.0
32.099,0.597,-0.845,1.0
26.805,0.502,-0.864,0.0
23.385,0.442,-0.89,0.0
20.909,0.398,-0.917,0.0
43.033,0.824,-0.716,0.0
0.0,0.0,0.0,0.0
30.655,0.596,-0.866,1.0
25.912,0.507,-0.885,0.0
22.613,0.446,-0.904,0.0
20.001,0.397,-0.916,0.0
0.0,0.0,0.0,0.0
33.512,0.673,-0.816,0.0
28.876,0.584,-0.871,0.0
24.709,0.503,-0.891,0.0
21.844,0.448,-0.915,0.0
19.281,0.398,-0.92,0.0
37.404,0.776,-0.766,0.0
31.957,0.667,-0.84,1.0
27.032,0.568,-0.868,0.0
23.502,0.497,-0.893,0.0
20.808,0.443,-0.912,0.0
18.581,0.398,-0.923,0.0
35.866,0.77,-0.804,0.0
30.869,0.667,-0.871,1.0
26.144,0.568,-0.889,0.0
22.564,0.493,-0.901,0.0
20.038,0.44,-0.917,0.0
17.976,0.397,-0.927,0.0
33.291,0.738,-0.81,0.0
28.567,0.637,-0.861,0.0
24.63,0.552,-0.885,0.0
21.699,0.489,-0.908,0.0
19.297,0.437,-0.92,0.0
17.231,0.392,-0.922,0.0
32.041,0.731,-0.841,1.0
26.941,0.618,-0.863,0.0
23.424,0.54,-0.887,0.0
20.828,0.483,-0.912,0.0
18.593,0.433,-0.922,0.0
16.77,0.392,-0.93,0.0
30.403,0.712,-0.856,0.0
25.974,0.611,-0.882,0.0
22.567,0.534,-0.898,0.0
20.002,0.475,-0.914,0.0
17.976,0.429,-0.927,0.0
16.358,0.392,-0.938,0.0
28.983,0.696,-0.873,0.0
24.65,0.595,-0.886,0.0
21.682,0.525,-0.905,0.0
19.112,0.465,-0.911,0.0
17.282,0.422,-0.924,0.0
15.787,0.387,-0.936,0.0
26.937,0.662,-0.863,0.0
23.474,0.579,-0.889,0.0
20.757,0.514,-0.906,0.0
18.451,0.459,-0.915,0.0
16.734,0.418,-0.928,0.0
15.308,0.384,-0.938,0.0
25.865,0.648,-0.879,0.0
22.531,0.567,-0.897,0.0
20.095,0.508,-0.917,0.0
18.023,0.457,-0.929,0.0
16.261,0.414,-0.933,0.0
14.854,0.379,-0.939,0.0
24.64,0.629,-0.885,0.0
21.855,0.56,-0.912,0.0
18.963,0.488,-0.902,0.0
17.142,0.442,-0.917,0.0
15.769,0.408,-0.936,0.0
14.51,0.377,-0.946,0.0
23.471,0.609,-0.889,0.0
20.658,0.538,-0.902,0.0
18.512,0.484,-0.916,0.0
16.679,0.437,-0.924,0.0
15.273,0.402,-0.936,0.0
14.207,0.375,-0.953,0.0
22.526,0.593,-0.897,0.0
19.99,0.528,-0.912,0.0
17.954,0.476,-0.923,0.0
16.244,0.432,-0.932,0.0
14.84,0.396,-0.938,0.0
13.72,0.367,-0.947,0.0
21.7,0.579,-0.905,0.0
19.318,0.517,-0.918,0.0
17.008,0.456,-0.908,0.0
15.731,0.423,-0.933,0.0
14.465,0.39,-0.942,0.0
13.287,0.359,-0.943,0.0
20.651,0.557,-0.901,0.0
18.556,0.502,-0.918,0.0
16.728,0.454,-0.925,0.0
15.296,0.416,-0.936,0.0
14.2,0.387,-0.952,0.0
13.022,0.356,-0.949,0.0
19.99,0.545,-0.911,0.0
18.018,0.492,-0.926,0.0
16.259,0.445,-0.93,0.0
14.865,0.408,-0.938,0.0
13.657,0.376,-0.942,0.0
12.684,0.35,-0.949,0.0
19.168,0.527,-0.91,0.0
17.178,0.473,-0.915,0.0
15.828,0.437,-0.936,0.0
14.49,0.401,-0.942,0.0
13.343,0.37,-0.946,0.0
12.325,0.342,-0.946,0.0
18.577,0.514,-0.917,0.0
16.705,0.463,-0.922,0.0
15.271,0.424,-0.932,0.0
14.197,0.395,-0.95,0.0
12.997,0.362,-0.946,0.0
12.023,0.336,-0.945,0.0
17.964,0.5,-0.921,0.0
16.271,0.454,-0.929,0.0
14.844,0.414,-0.934,0.0
13.693,0.383,-0.943,0.0
12.639,0.354,-0.944,0.0
11.735,0.329,-0.945,0.0
17.271,0.483,-0.918,0.0
15.767,0.441,-0.93,0.0
14.518,0.407,-0.94,0.0
13.31,0.373,-0.941,0.0
12.346,0.347,-0.945,0.0
11.431,0.322,-0.942,0.0
16.747,0.469,-0.921,0.0
15.304,0.429,-0.931,0.0
14.208,0.399,-0.947,0.0
12.978,0.365,-0.942,0.0
12.097,0.341,-0.949,0.0
11.224,0.316,-0.946,0.0
16.259,0.456,-0.924,0.0
14.906,0.419,-0.934,0.0
13.828,0.389,-0.947,0.0
12.704,0.357,-0.945,0.0
11.745,0.331,-0.943,0.0
11.003,0.31,-0.948,0.0
15.866,0.445,-0.931,0.0
14.535,0.408,-0.938,0.0
13.356,0.375,-0.939,0.0
12.365,0.348,-0.943,0.0
11.461,0.323,-0.941,0.0
10.695,0.301,-0.941,0.0
15.361,0.43,-0.93,0.0
14.27,0.4,-0.947,0.0
13.058,0.366,-0.942,0.0
12.095,0.339,-0.945,0.0
11.27,0.316,-0.946,0.0
10.527,0.296,-0.945,0.0
14.949,0.417,-0.932,0.0
13.749,0.384,-0.937,0.0
12.743,0.356,-0.943,0.0
11.792,0.33,-0.942,0.0
11.051,0.309,-0.948,0.0
10.316,0.289,-0.945,0.0
14.585,0.405,-0.935,0.0
13.442,0.374,-0.94,0.0
12.39,0.345,-0.939,0.0
11.505,0.32,-0.94,0.0
10.791,0.3,-0.945,0.0
10.116,0.282,-0.945,0.0
14.351,0.397,-0.945,0.0
13.163,0.364,-0.944,0.0
12.162,0.336,-0.943,0.0
11.292,0.312,-0.943,0.0
10.564,0.292,-0.944,0.0
9.92,0.274,-0.944,0.0
13.806,0.379,-0.934,0.0
12.828,0.352,-0.942,0.0
11.891,0.326,-0.943,0.0
11.142,0.306,-0.95,0.0
10.374,0.285,-0.945,0.0
9.759,0.268,-0.946,0.0
13.574,0.369,-0.942,0.0
12.508,0.34,-0.941,0.0
11.563,0.315,-0.937,0.0
10.844,0.295,-0.943,0.0
10.19,0.277,-0.946,0.0
9.575,0.26,-0.945,0.0
13.241,0.357,-0.941,0.0
12.26,0.33,-0.943,0.0
11.382,0.306,-0.942,0.0
10.616,0.286,-0.941,0.0
9.978,0.268,-0.943,0.0
9.427,0.253,-0.946,0.0
12.935,0.345,-0.942,0.0
12.001,0.32,-0.943,0.0
11.236,0.299,-0.949,0.0
10.437,0.277,-0.943,0.0
9.819,0.261,-0.945,0.0
9.274,0.246,-0.947,0.0
12.622,0.332,-0.94,0.0
11.727,0.308,-0.941,0.0
10.914,0.287,-0.94,0.0
10.251,0.269,-0.944,0.0
9.66,0.253,-0.945,0.0
9.078,0.238,-0.942,0.0
12.364,0.321,-0.941,0.0
11.44,0.296,-0.937,0.0
10.707,0.277,-0.939,0.0
10.073,0.26,-0.944,0.0
9.48,0.245,-0.943,0.0
8.945,0.231,-0.943,0.0
12.129,0.31,-0.943,0.0
11.3,0.288,-0.944,0.0
10.544,0.268,-0.942,0.0
9.907,0.252,-0.944,0.0
9.355,0.238,-0.946,0.0
8.785,0.223,-0.94,0.0
11.857,0.297,-0.94,0.0
11.108,0.278,-0.945,0.0
10.389,0.26,-0.945,0.0
9.735,0.243,-0.943,0.0
9.161,0.228,-0.941,0.0
8.695,0.216,-0.944,0.0
11.587,0.285,-0.937,0.0
10.883,0.267,-0.943,0.0
10.205,0.25,-0.944,0.0
9.574,0.234,-0.942,0.0
9.018,0.22,-0.94,0.0
8.556,0.209,-0.942,0.0
11.395,0.275,-0.939,0.0
10.602,0.255,-0.935,0.0
10.019,0.241,-0.942,0.0
9.408,0.225,-0.94,0.0
8.894,0.213,-0.941,0.0
8.434,0.201,-0.941,0.0
11.26,0.265,-0.944,0.0
10.502,0.247,-0.942,0.0
9.871,0.232,-0.943,0.0
9.288,0.217,-0.942,0.0
8.76,0.204,-0.94,0.0
8.317,0.194,-0.941,0.0
11.041,0.254,-0.942,0.0
10.319,0.237,-0.941,0.0
9.743,0.223,-0.945,0.0
9.14,0.209,-0.941,0.0
8.63,0.196,-0.938,0.0
8.224,0.187,-0.942,0.0
10.799,0.242,-0.937,0.0
10.206,0.228,-0.945,0.0
9.6,0.214,-0.945,0.0
9.054,0.201,-0.945,0.0
8.57,0.19,-0.944,0.0
8.114,0.179,-0.942,0.0
10.637,0.232,-0.938,0.0
10.003,0.217,-0.94,0.0
9.42,0.204,-0.94,0.0
8.912,0.192,-0.942,0.0
8.434,0.181,-0.941,0.0
8.045,0.172,-0.945,0.0
10.504,0.222,-0.941,0.0
9.902,0.208,-0.944,0.0
9.319,0.195,-0.943,0.0
8.745,0.183,-0.937,0.0
8.314,0.173,-0.939,0.0
7.917,0.164,-0.941,0.0
10.36,0.212,-0.942,0.0
9.757,0.199,-0.944,0.0
9.167,0.186,-0.94,0.0
8.658,0.175,-0.939,0.0
8.245,0.166,-0.942,0.0
7.842,0.157,-0.942,0.0
10.205,0.201,-0.941,0.0
9.617,0.189,-0.943,0.0
9.061,0.177,-0.941,0.0
8.555,0.166,-0.939,0.0
8.195,0.159,-0.947,0.0
7.773,0.15,-0.944,0.0
10.058,0.191,-0.94,0.0
9.49,0.179,-0.942,0.0
8.934,0.168,-0.939,0.0
8.478,0.159,-0.941,0.0
8.034,0.149,-0.939,0.0
7.724,0.143,-0.948,0.0
9.917,0.18,-0.94,0.0
9.365,0.17,-0.942,0.0
8.828,0.159,-0.939,0.0
8.331,0.149,-0.935,0.0
7.995,0.142,-0.944,0.0
7.614,0.135,-0.944,0.0
9.834,0.171,-0.944,0.0
9.272,0.16,-0.943,0.0
8.714,0.15,-0.937,0.0
8.283,0.142,-0.94,0.0
7.913,0.134,-0.944,0.0
7.564,0.128,-0.946,0.0
9.698,0.161,-0.942,0.0
9.161,0.151,-0.943,0.0
8.647,0.142,-0.94,0.0
8.154,0.133,-0.935,0.0
7.797,0.126,-0.939,0.0
7.477,0.12,-0.944,0.0
9.582,0.151,-0.941,0.0
9.034,0.141,-0.94,0.0
8.524,0.132,-0.936,0.0
8.097,0.125,-0.937,0.0
7.759,0.119,-0.943,0.0
7.429,0.113,-0.946,0.0
9.472,0.141,-0.941,0.0
8.935,0.132,-0.939,0.0
8.472,0.124,-0.94,0.0
8.036,0.117,-0.939,0.0
7.684,0.111,-0.942,0.0
7.342,0.105,-0.943,0.0
9.393,0.131,-0.943,0.0
8.81,0.122,-0.935,0.0
8.365,0.115,-0.936,0.0
7.99,0.109,-0.942,0.0
7.641,0.103,-0.945,0.0
7.281,0.097,-0.943,0.0
9.258,0.121,-0.939,0.0
8.729,0.113,-0.935,0.0
8.335,0.107,-0.941,0.0
7.885,0.1,-0.937,0.0
7.566,0.095,-0.943,0.0
7.263,0.09,-0.948,0.0
9.147,0.111,-0.936,0.0
8.685,0.104,-0.939,0.0
8.261,0.098,-0.941,0.0
7.838,0.092,-0.939,0.0
7.502,0.087,-0.942,0.0
7.204,0.083,-0.947,0.0
9.089,0.102,-0.939,0.0
8.597,0.095,-0.938,0.0
8.198,0.09,-0.942,0.0
7.774,0.084,-0.939,0.0
7.483,0.08,-0.947,0.0
7.17,0.075,-0.949,0.0
8.984,0.092,-0.936,0.0
8.514,0.086,-0.936,0.0
8.144,0.081,-0.942,0.0
7.733,0.076,-0.94,0.0
7.405,0.072,-0.943,0.0
7.131,0.068,-0.95,0.0
8.921,0.082,-0.937,0.0
8.428,0.077,-0.934,0.0
8.064,0.072,-0.94,0.0
7.663,0.067,-0.938,0.0
7.395,0.064,-0.948,0.0
7.037,0.06,-0.943,0.0
8.831,0.073,-0.935,0.0
8.404,0.068,-0.938,0.0
8.002,0.063,-0.939,0.0
7.611,0.059,-0.938,0.0
7.299,0.056,-0.942,0.0
7.041,0.053,-0.949,0.0
8.752,0.063,-0.933,0.0
8.349,0.059,-0.938,0.0
7.975,0.055,-0.942,0.0
7.531,0.051,-0.934,0.0
7.282,0.048,-0.945,0.0
7.052,0.045,-0.956,0.0
8.709,0.054,-0.935,0.0
8.272,0.05,-0.936,0.0
7.863,0.046,-0.934,0.0
7.543,0.043,-0.941,0.0
7.262,0.04,-0.948,0.0
0.0,0.0,0.0,0.0
8.68,0.044,-0.938,0.0
8.244,0.041,-0.938,0.0
7.88,0.038,-0.942,0.0
7.477,0.035,-0.937,0.0
7.221,0.032,-0.947,0.0
6.926,0.03,-0.948,0.0
8.614,0.035,-0.936,0.0
8.188,0.032,-0.937,0.0
7.817,0.029,-0.939,0.0
7.406,0.026,-0.933,0.0
7.186,0.024,-0.947,0.0
6.926,0.022,-0.953,0.0
8.582,0.026,-0.938,0.0
8.131,0.023,-0.935,0.0
7.774,0.021,-0.938,0.0
7.438,0.018,-0.941,0.0
7.129,0.016,-0.943,0.0
6.863,0.015,-0.948,0.0
8.524,0.016,-0.936,0.0
8.116,0.014,-0.938,0.0
7.739,0.012,-0.938,0.0
7.351,0.01,-0.934,0.0
7.105,0.009,-0.944,0.0
6.866,0.007,-0.952,0.0
8.499,0.007,-0.938,0.0
8.099,0.005,-0.94,0.0
7.714,0.003,-0.939,0.0
0.0,0.0,0.0,0.0
7.101,0.001,-0.947,0.0
6.829,0.0,-0.95,0.0
8.457,-0.002,-0.937,0.0
8.045,-0.003,-0.937,0.0
7.683,-0.004,-0.939,0.0
0.0,0.0,0.0,0.0
7.107,-0.006,-0.951,0.0
6.804,-0.007,-0.949,0.0
8.414,-0.011,-0.936,0.0
8.004,-0.012,-0.935,0.0
7.657,-0.013,-0.939,0.0
0.0,0.0,0.0,0.0
7.043,-0.014,-0.945,0.0
6.806,-0.015,-0.952,0.0
8.378,-0.02,-0.935,0.0
8.038,-0.021,-0.942,0.0
7.642,-0.021,-0.939,0.0
7.324,-0.022,-0.943,0.0
7.072,-0.022,-0.951,0.0
6.797,-0.023,-0.953,0.0
8.363,-0.03,-0.936,0.0
7.944,-0.03,-0.934,0.0
7.609,-0.03,-0.938,0.0
0.0,0.0,0.0,0.0
7.021,-0.03,-0.946,0.0
6.751,-0.03,-0.949,0.0
8.361,-0.039,-0.938,0.0
7.977,-0.039,-0.94,0.0
7.64,-0.039,-0.944,0.0
0.0,0.0,0.0,0.0
0.0,0.0,0.0,0.0
6.763,-0.038,-0.952,0.0
8.316,-0.048,-0.934,0.0
7.942,-0.048,-0.937,0.0
7.594,-0.047,-0.94,0.0
7.279,-0.046,-0.943,0.0
7.004,-0.046,-0.947,0.0
6.744,-0.045,-0.95,0.0
8.315,-0.058,-0.936,0.0
7.952,-0.057,-0.94,0.0
7.625,-0.056,-0.945,0.0
0.0,0.0,0.0,0.0
0.0,0.0,0.0,0.0
6.732,-0.053,-0.95,0.0
8.299,-0.067,-0.935,0.0
7.946,-0.066,-0.94,0.0
7.561,-0.064,-0.938,0.0
7.288,-0.063,-0.946,0.0
7.011,-0.062,-0.95,0.0
6.716,-0.061,-0.948,0.0
8.293,-0.076,-0.935,0.0
7.93,-0.075,-0.939,0.0
7.585,-0.073,-0.941,0.0
7.209,-0.071,-0.936,0.0
7.012,-0.07,-0.95,0.0
6.745,-0.069,-0.953,0.0
8.284,-0.086,-0.935,0.0
7.944,-0.084,-0.941,0.0
7.586,-0.081,-0.941,0.0
7.235,-0.079,-0.94,0.0
0.0,0.0,0.0,0.0
6.718,-0.076,-0.949,0.0
8.289,-0.095,-0.935,0.0
7.919,-0.092,-0.938,0.0
7.589,-0.09,-0.942,0.0
7.275,-0.088,-0.945,0.0
7.018,-0.086,-0.951,0.0
6.723,-0.084,-0.949,0.0
8.297,-0.105,-0.936,0.0
7.958,-0.102,-0.942,0.0
7.574,-0.099,-0.939,0.0
7.265,-0.096,-0.943,0.0
7.013,-0.094,-0.95,0.0
6.732,-0.092,-0.95,0.0
8.303,-0.114,-0.936,0.0
7.902,-0.11,-0.935,0.0
7.612,-0.108,-0.943,0.0
7.284,-0.104,-0.944,0.0
0.0,0.0,0.0,0.0
6.763,-0.1,-0.953,0.0
8.291,-0.123,-0.933,0.0
7.939,-0.12,-0.938,0.0
7.625,-0.116,-0.944,0.0
7.303,-0.113,-0.946,0.0
7.055,-0.111,-0.953,0.0
6.759,-0.107,-0.952,0.0
8.333,-0.133,-0.936,0.0
7.966,-0.129,-0.94,0.0
7.6,-0.125,-0.939,0.0
7.25,-0.12,-0.937,0.0
0.0,0.0,0.0,0.0
6.774,-0.115,-0.952,0.0
8.355,-0.143,-0.937,0.0
7.972,-0.138,-0.938,0.0
7.618,-0.133,-0.939,0.0
7.316,-0.13,-0.944,0.0
0.0,0.0,0.0,0.0
6.765,-0.123,-0.949,0.0
8.366,-0.152,-0.936,0.0
8.001,-0.147,-0.939,0.0
7.631,-0.142,-0.939,0.0
7.379,-0.139,-0.95,0.0
7.053,-0.134,-0.947,0.0
6.788,-0.13,-0.95,0.0
8.411,-0.162,-0.938,0.0
7.995,-0.156,-0.936,0.0
7.684,-0.151,-0.943,0.0
7.345,-0.146,-0.943,0.0
7.081,-0.142,-0.949,0.0
6.829,-0.139,-0.953,0.0
8.444,-0.172,-0.938,0.0
8.008,-0.165,-0.935,0.0
7.702,-0.16,-0.942,0.0
7.38,-0.155,-0.944,0.0
7.085,-0.15,-0.946,0.0
6.843,-0.146,-0.952,0.0
8.444,-0.181,-0.935,0.0
8.072,-0.175,-0.939,0.0
7.686,-0.168,-0.937,0.0
7.41,-0.163,-0.945,0.0
7.108,-0.158,-0.946,0.0
6.815,-0.153,-0.945,0.0
8.501,-0.191,-0.937,0.0
8.129,-0.185,-0.941,0.0
7.702,-0.176,-0.935,0.0
7.384,-0.171,-0.938,0.0
7.111,-0.166,-0.943,0.0
6.871,-0.162,-0.95,0.0
8.539,-0.201,-0.937,0.0
8.159,-0.194,-0.941,0.0
7.772,-0.186,-0.939,0.0
7.423,-0.179,-0.939,0.0
7.19,-0.175,-0.95,0.0
6.869,-0.169,-0.946,0.0
8.602,-0.211,-0.94,0.0
8.186,-0.203,-0.939,0.0
7.811,-0.195,-0.939,0.0
7.449,-0.188,-0.938,0.0
7.212,-0.183,-0.948,0.0
6.925,-0.177,-0.949,0.0
8.606,-0.22,-0.935,0.0
8.2,-0.212,-0.936,0.0
7.831,-0.204,-0.937,0.0
7.513,-0.197,-0.941,0.0
7.209,-0.19,-0.943,0.0
6.959,-0.185,-0.949,0.0
8.704,-0.232,-0.94,0.0
8.276,-0.222,-0.939,0.0
7.884,-0.213,-0.938,0.0
7.546,-0.205,-0.941,0.0
7.293,-0.2,-0.949,0.0
6.984,-0.193,-0.948,0.0
8.757,-0.242,-0.94,0.0
8.326,-0.231,-0.939,0.0
7.928,-0.222,-0.938,0.0
7.615,-0.215,-0.944,0.0
7.3,-0.207,-0.945,0.0
7.038,-0.201,-0.95,0.0
8.819,-0.252,-0.94,0.0
8.368,-0.241,-0.938,0.0
7.97,-0.231,-0.937,0.0
7.637,-0.223,-0.941,0.0
7.34,-0.215,-0.945,0.0
7.022,-0.207,-0.943,0.0
8.898,-0.263,-0.942,0.0
8.428,-0.25,-0.938,0.0
8.026,-0.24,-0.938,0.0
7.686,-0.231,-0.941,0.0
7.405,-0.224,-0.947,0.0
7.096,-0.216,-0.947,0.0
8.942,-0.272,-0.939,0.0
8.508,-0.26,-0.94,0.0
8.133,-0.251,-0.943,0.0
7.744,-0.24,-0.942,0.0
