X,Y,Z,Reflectivity
20.196,-0.053,-0.504,0.0
20.14,-0.051,0.06,45.0
20.123,-0.05,-0.043,31.0
20.152,-0.049,-0.147,32.0
20.149,-0.048,-0.253,23.0
20.156,-0.046,-0.357,19.0
20.173,-0.045,-0.461,0.0
20.124,-0.043,0.102,42.0
20.129,-0.042,-0.001,36.0
20.146,-0.04,-0.105,33.0
20.13,-0.039,-0.21,17.0
20.178,-0.037,-0.315,25.0
20.181,-0.036,-0.419,1.0
20.121,-0.034,0.144,35.0
20.134,-0.032,0.04,41.0
20.134,-0.031,-0.063,28.0
20.151,-0.029,-0.168,29.0
20.163,-0.027,-0.273,23.0
20.193,-0.026,-0.377,1.0
20.118,-0.024,0.186,37.0
20.132,-0.022,0.082,40.0
20.125,-0.02,-0.021,29.0
20.161,-0.019,-0.127,26.0
20.164,-0.017,-0.231,3.0
20.192,-0.015,-0.335,1.0
20.121,-0.013,0.228,28.0
20.117,-0.011,0.124,29.0
20.148,-0.009,0.021,18.0
20.177,-0.007,-0.085,15.0
20.184,-0.005,-0.189,9.0
20.218,-0.003,-0.293,2.0
20.134,-0.002,0.27,27.0
20.114,0.0,0.166,28.0
20.137,0.002,0.062,29.0
20.258,0.004,-0.043,64.0
20.271,0.006,-0.147,64.0
20.269,0.008,-0.252,62.0
20.129,0.01,0.311,27.0
20.131,0.012,0.207,27.0
20.127,0.014,0.104,29.0
20.255,0.016,-0.001,151.0
20.255,0.018,-0.106,151.0
20.251,0.021,-0.21,151.0
20.136,0.023,0.352,27.0
20.139,0.025,0.249,27.0
20.13,0.027,0.144,27.0
20.213,0.029,0.039,37.0
20.267,0.032,-0.065,150.0
20.267,0.034,-0.17,150.0
20.137,0.036,0.393,29.0
20.134,0.038,0.289,29.0
20.129,0.041,0.185,27.0
20.152,0.043,0.08,27.0
20.242,0.046,-0.024,7.0
20.241,0.049,-0.128,24.0
20.148,0.051,0.435,30.0
20.131,0.053,0.33,29.0
20.142,0.056,0.226,28.0
20.141,0.058,0.12,27.0
20.209,0.061,0.016,26.0
20.212,0.063,-0.088,29.0
20.156,0.066,0.475,27.0
20.145,0.068,0.371,27.0
20.151,0.071,0.266,26.0
20.142,0.074,0.16,29.0
20.195,0.076,0.056,34.0
20.2,0.079,-0.047,30.0
20.176,0.081,0.516,25.0
20.156,0.084,0.411,28.0
20.155,0.087,0.307,26.0
20.15,0.09,0.2,28.0
20.177,0.093,0.096,26.0
20.192,0.096,-0.007,29.0
20.191,0.098,0.556,25.0
20.158,0.101,0.451,29.0
20.147,0.103,0.346,27.0
20.152,0.107,0.24,27.0
20.158,0.109,0.135,26.0
20.194,0.113,0.031,38.0
20.199,0.115,0.596,16.0
20.141,0.118,0.49,19.0
20.162,0.121,0.386,27.0
20.153,0.124,0.279,28.0
20.15,0.127,0.175,25.0
20.203,0.131,0.071,34.0
20.258,0.133,0.638,2.0
20.169,0.136,0.53,19.0
20.167,0.139,0.426,24.0
20.16,0.142,0.318,24.0
20.18,0.146,0.214,23.0
20.201,0.149,0.11,26.0
117.632,0.885,3.931,38.0
20.199,0.155,0.57,13.0
20.155,0.158,0.464,19.0
20.186,0.161,0.357,24.0
20.208,0.165,0.253,22.0
20.228,0.168,0.148,24.0
126.428,1.071,4.467,32.0
20.275,0.175,0.61,11.0
20.254,0.178,0.505,27.0
20.265,0.181,0.397,28.0
20.283,0.185,0.292,29.0
20.301,0.189,0.187,28.0
126.613,1.197,4.713,16.0
103.143,0.993,3.303,25.0
20.255,0.198,0.543,25.0
20.268,0.202,0.436,33.0
20.274,0.206,0.33,33.0
20.288,0.209,0.225,26.0
126.678,1.326,4.953,19.0
103.103,1.097,3.493,16.0
20.274,0.219,0.581,15.0
20.26,0.222,0.473,27.0
20.271,0.226,0.367,35.0
20.285,0.23,0.262,26.0
126.658,1.457,5.184,20.0
103.907,1.214,3.71,17.0
140.192,1.664,4.275,28.0
20.281,0.244,0.51,27.0
20.282,0.248,0.404,27.0
20.292,0.252,0.299,23.0
110.331,1.388,4.717,9.0
133.256,1.7,4.999,17.0
118.208,1.53,3.817,22.0
20.272,0.266,0.546,8.0
20.285,0.27,0.44,15.0
20.286,0.274,0.335,6.0
110.346,1.508,4.914,7.0
117.789,1.632,4.629,16.0
118.39,1.663,4.033,26.0
157.844,2.248,4.537,15.0
196.178,2.833,4.614,22.0
195.077,2.856,3.568,24.0
69.352,1.027,3.212,14.0
103.051,1.545,4.233,17.0
118.559,1.802,4.248,18.0
157.137,2.418,4.791,21.0
196.749,3.066,4.969,14.0
196.254,3.099,3.931,26.0
110.7,1.767,5.32,2.0
117.654,1.902,5.037,12.0
118.462,1.939,4.451,8.0
124.735,2.066,4.02,10.0
0.0,0.0,0.0,0.0
194.77,3.305,4.234,13.0
103.943,1.782,5.175,10.0
103.452,1.794,4.605,7.0
118.515,2.08,4.653,25.0
148.849,2.643,5.048,5.0
0.0,0.0,0.0,0.0
194.822,3.542,4.563,11.0
103.863,1.906,5.345,12.0
123.494,2.293,5.706,6.0
118.468,2.223,4.849,22.0
124.597,2.365,4.433,2.0
0.0,0.0,0.0,0.0
194.929,3.783,4.889,8.0
103.623,2.031,5.505,11.0
69.254,1.372,3.314,5.0
118.71,2.377,5.057,8.0
124.796,2.526,4.647,3.0
0.0,0.0,0.0,0.0
194.865,4.028,5.205,15.0
103.455,2.158,5.666,6.0
103.848,2.189,5.14,7.0
103.289,2.199,4.566,2.0
102.536,2.205,3.982,2.0
0.0,0.0,0.0,0.0
194.866,4.275,5.512,14.0
103.397,2.29,5.827,4.0
103.818,2.321,5.302,13.0
116.469,2.63,5.333,4.0
102.758,2.342,4.151,8.0
0.0,0.0,0.0,0.0
194.926,4.531,5.82,8.0
69.152,1.621,4.005,4.0
103.712,2.455,5.458,7.0
116.852,2.791,5.53,2.0
0.0,0.0,0.0,0.0
0.0,0.0,0.0,0.0
0.0,0.0,0.0,0.0
69.575,1.723,4.135,3.0
110.247,2.755,5.969,4.0
103.556,2.611,5.057,4.0
120.113,3.056,5.218,2.0
0.0,0.0,0.0,0.0
0.0,0.0,0.0,0.0
67.497,1.763,4.113,2.0
69.124,1.821,3.845,9.0
118.04,3.137,5.941,6.0
0.0,0.0,0.0,0.0
102.785,2.779,4.072,5.0
193.241,5.269,6.633,7.0
67.43,1.854,4.209,2.0
69.127,1.916,3.946,4.0
103.84,2.902,5.376,8.0
110.565,3.116,5.126,2.0
102.393,2.91,4.203,5.0
193.651,5.548,6.922,12.0
102.84,2.971,6.566,3.0
118.318,3.445,6.924,4.0
118.491,3.478,6.303,6.0
110.331,3.263,5.27,6.0
102.312,3.051,4.344,5.0
193.72,5.823,7.197,13.0
69.455,2.105,4.532,8.0
67.434,2.059,4.04,7.0
103.234,3.177,5.635,2.0
103.321,3.204,5.079,9.0
102.352,3.198,4.485,6.0
193.78,6.101,7.462,17.0
53.328,1.692,3.552,3.0
68.985,2.206,4.227,1.0
104.537,3.368,5.847,6.0
102.994,3.342,5.2,5.0
102.303,3.344,4.62,5.0
193.599,6.375,7.71,22.0
68.288,2.267,4.64,7.0
0.0,0.0,0.0,0.0
103.503,3.485,5.926,3.0
117.767,3.994,6.1,3.0
102.353,3.495,4.755,2.0
196.133,6.744,8.064,6.0
67.476,2.338,4.671,6.0
68.271,2.382,4.361,3.0
67.483,2.371,3.949,3.0
109.895,3.887,5.83,4.0
195.552,6.962,9.328,17.0
196.474,7.044,8.322,14.0
68.663,2.481,4.839,46.0
68.626,2.495,4.468,2.0
0.0,0.0,0.0,0.0
117.894,4.343,6.398,3.0
195.602,7.252,9.567,16.0
195.982,7.312,8.534,8.0
68.643,2.581,4.921,12.0
68.838,2.605,4.564,7.0
68.665,2.614,4.183,6.0
103.605,3.971,5.745,1.0
194.755,7.511,9.754,23.0
195.563,7.591,8.747,8.0
68.859,2.693,5.017,3.0
67.568,2.659,4.559,4.0
67.968,2.691,4.22,3.0
0.0,0.0,0.0,0.0
194.589,7.8,9.968,24.0
194.629,7.85,8.925,19.0
51.699,2.101,3.826,2.0
67.13,2.744,4.606,6.0
69.193,2.845,4.373,15.0
68.784,2.845,3.97,1.0
194.34,8.087,10.172,20.0
194.369,8.136,9.128,14.0
51.75,2.182,3.887,4.0
67.583,2.866,4.71,14.0
69.343,2.957,4.457,15.0
67.381,2.89,3.961,0.0
195.139,8.416,10.419,19.0
193.739,8.402,9.298,26.0
47.281,2.066,3.601,4.0
67.814,2.98,4.797,6.0
69.469,3.07,4.539,3.0
67.206,2.986,4.02,1.0
195.613,8.739,10.645,19.0
193.425,8.688,9.482,24.0
65.984,2.986,5.093,2.0
47.353,2.155,3.398,3.0
69.68,3.188,4.622,1.0
67.242,3.093,4.089,2.0
196.084,9.066,10.865,24.0
194.563,9.044,9.727,22.0
47.367,2.218,3.702,1.0
47.507,2.236,3.455,1.0
204.499,9.676,13.762,24.0
67.223,3.197,4.152,2.0
195.731,9.355,11.03,24.0
194.232,9.33,9.891,12.0
68.798,3.33,5.442,2.0
52.542,2.556,3.87,3.0
47.335,2.314,3.229,0.0
67.188,3.3,4.212,2.0
0.0,0.0,0.0,0.0
194.648,9.656,10.088,24.0
47.286,2.363,3.782,1.0
241.201,12.109,17.98,18.0
204.686,10.325,14.143,7.0
67.071,3.399,4.261,0.0
195.035,9.932,11.332,9.0
194.126,9.934,10.226,9.0
43.796,2.257,3.541,1.0
66.51,3.444,5.014,1.0
52.77,2.745,3.69,1.0
205.585,10.744,13.235,8.0
0.0,0.0,0.0,0.0
194.095,10.235,10.38,23.0
47.151,2.505,3.85,9.0
67.631,3.608,5.152,2.0
47.846,2.563,3.383,1.0
0.0,0.0,0.0,0.0
0.0,0.0,0.0,0.0
194.225,10.547,10.536,22.0
47.144,2.579,3.886,3.0
66.59,3.659,5.124,2.0
47.892,2.642,3.422,1.0
0.0,0.0,0.0,0.0
0.0,0.0,0.0,0.0
194.803,10.89,10.711,22.0
47.196,2.657,3.924,1.0
47.373,2.678,3.679,15.0
47.495,2.696,3.428,1.0
206.685,11.782,13.767,17.0
0.0,0.0,0.0,0.0
195.733,11.25,10.895,22.0
45.912,2.658,3.85,3.0
47.318,2.75,3.707,1.0
47.001,2.743,3.424,1.0
206.558,12.103,13.894,5.0
0.0,0.0,0.0,0.0
0.0,0.0,0.0,0.0
47.322,2.815,3.998,4.0
47.249,2.821,3.732,3.0
46.947,2.814,3.449,1.0
0.0,0.0,0.0,0.0
110.558,6.679,6.898,1.0
110.732,6.716,6.302,3.0
45.821,2.798,3.899,3.0
47.062,2.884,3.745,4.0
244.168,15.024,18.085,22.0
207.247,12.8,14.186,8.0
0.0,0.0,0.0,0.0
110.733,6.89,6.363,2.0
46.801,2.942,3.749,4.0
244.596,15.436,18.247,27.0
110.232,6.982,7.605,4.0
0.0,0.0,0.0,0.0
107.856,6.879,6.253,2.0
47.356,3.042,4.08,4.0
47.27,3.046,3.811,1.0
111.449,7.207,8.369,5.0
108.311,7.029,7.525,1.0
0.0,0.0,0.0,0.0
0.0,0.0,0.0,0.0
46.161,3.038,3.999,2.0
45.754,3.021,3.71,1.0
245.47,16.265,18.544,24.0
111.458,7.409,7.793,10.0
110.562,7.374,7.118,7.0
110.344,7.383,6.496,1.0
45.766,3.093,3.729,2.0
245.827,16.67,18.672,19.0
109.986,7.482,7.734,1.0
111.351,7.599,7.214,8.0
110.723,7.581,6.561,1.0
45.729,3.162,3.744,1.0
246.272,17.084,18.796,29.0
116.142,8.082,8.208,1.0
109.713,7.659,7.146,4.0
111.229,7.789,6.63,9.0
246.705,17.495,18.911,25.0
246.851,17.557,17.524,11.0
110.046,7.85,7.202,2.0
92.31,6.605,5.529,1.0
45.628,3.287,4.018,1.0
247.189,17.905,19.016,10.0
107.2,7.789,7.639,2.0
115.439,8.411,7.586,1.0
92.425,6.755,5.561,3.0
45.545,3.35,4.023,0.0
107.812,7.975,8.319,10.0
110.896,8.225,7.928,3.0
115.501,8.592,7.615,2.0
109.668,8.182,6.622,2.0
107.392,8.086,8.908,5.0
247.829,18.709,19.174,12.0
91.224,6.906,6.54,7.0
112.827,8.565,7.459,5.0
99.395,7.566,6.018,2.0
45.661,3.507,3.794,1.0
107.365,8.268,8.323,6.0
112.087,8.654,8.052,2.0
91.249,7.064,6.046,6.0
108.521,8.423,6.585,2.0
111.546,8.735,9.284,2.0
107.39,8.431,8.336,3.0
110.194,8.672,7.927,11.0
107.844,8.509,7.156,4.0
99.793,7.894,6.065,2.0
112.31,8.942,9.987,2.0
106.982,8.538,8.912,2.0
121.993,9.758,9.48,4.0
114.327,9.166,8.231,7.0
91.673,7.368,6.088,4.0
97.297,7.839,5.918,5.0
115.967,9.402,10.317,5.0
116.256,9.448,9.689,7.0
114.792,9.35,8.923,4.0
107.572,8.781,7.747,4.0
109.717,8.978,7.287,2.0
91.297,7.489,5.554,5.0
117.911,9.754,9.827,11.0
108.8,9.02,8.455,2.0
107.652,8.944,7.751,4.0
97.876,8.15,6.499,4.0
91.468,7.634,5.561,6.0
115.305,9.684,10.253,10.0
115.564,9.725,9.625,12.0
112.584,9.494,8.743,5.0
107.346,9.071,7.723,8.0
85.47,7.239,5.669,4.0
91.593,7.775,5.562,4.0
114.987,9.82,10.216,7.0
0.0,0.0,0.0,0.0
115.894,9.938,8.99,4.0
106.447,9.146,7.647,4.0
91.969,7.919,6.09,6.0
83.664,7.219,5.071,1.0
114.954,9.98,10.198,25.0
114.909,9.995,9.545,8.0
96.448,8.405,7.468,8.0
106.632,9.311,7.645,4.0
107.671,9.421,7.114,5.0
98.26,8.616,5.939,3.0
109.612,9.668,9.706,6.0
109.727,9.696,9.096,6.0
118.207,10.465,9.132,3.0
96.622,8.57,6.909,4.0
107.531,9.555,7.084,3.0
78.32,6.973,4.719,3.0
114.842,10.286,10.145,2.0
109.617,9.834,9.064,2.0
98.015,8.809,7.551,3.0
109.718,9.879,7.821,5.0
107.61,9.707,7.064,3.0
78.34,7.08,4.702,6.0
85.106,7.736,7.498,2.0
98.0,8.923,8.079,2.0
97.976,8.935,7.523,6.0
96.877,8.849,6.881,9.0
91.728,8.393,5.998,2.0
78.34,7.182,4.681,3.0
86.135,7.942,7.564,6.0
85.032,7.853,6.985,4.0
91.817,8.494,7.022,10.0
96.53,8.944,6.828,6.0
97.425,9.043,6.34,4.0
85.197,7.922,5.063,4.0
111.453,10.422,9.752,5.0
85.735,8.028,7.015,9.0
96.041,9.007,7.313,7.0
96.475,9.061,6.791,5.0
90.511,8.515,5.859,2.0
84.773,7.989,5.008,9.0
85.232,8.077,7.426,6.0
85.08,8.074,6.93,4.0
92.221,8.764,6.988,4.0
79.941,7.609,5.597,1.0
87.566,8.347,5.635,4.0
84.667,8.083,4.97,14.0
91.046,8.74,7.897,5.0
92.08,8.851,7.463,8.0
85.989,8.277,6.482,3.0
90.411,8.715,6.293,3.0
85.005,8.206,5.435,4.0
85.187,8.237,4.965,7.0
98.546,9.579,8.505,2.0
85.272,8.299,6.874,6.0
84.177,8.204,6.307,6.0
84.741,8.27,5.86,4.0
90.169,8.812,5.724,12.0
87.16,8.531,5.039,2.0
91.683,9.021,7.87,5.0
92.189,9.082,7.388,4.0
84.23,8.308,6.271,6.0
84.854,8.381,5.826,3.0
90.079,8.908,5.674,6.0
81.114,8.033,4.649,4.0
84.846,8.445,7.24,5.0
91.88,9.156,7.317,9.0
73.001,7.284,5.397,5.0
85.187,8.51,5.805,3.0
99.531,9.956,6.216,5.0
81.036,8.116,4.602,4.0
99.027,9.968,8.396,5.0
91.784,9.249,7.258,5.0
72.837,7.348,5.344,3.0
77.908,7.869,5.265,2.0
78.53,7.942,4.861,3.0
81.052,8.208,4.557,5.0
78.788,8.017,6.634,3.0
79.048,8.052,6.205,1.0
72.818,7.425,5.301,3.0
80.214,8.189,5.374,2.0
78.51,8.024,4.813,1.0
81.023,8.291,4.507,5.0
78.773,8.099,6.585,7.0
85.219,8.77,6.637,3.0
68.659,7.073,4.956,3.0
84.667,8.731,5.62,4.0
99.088,10.23,6.012,4.0
81.085,8.381,4.459,3.0
74.933,7.781,6.216,3.0
79.43,8.255,6.134,6.0
72.925,7.587,5.216,5.0
84.637,8.814,5.562,5.0
89.65,9.346,5.381,3.0
84.321,8.8,4.581,5.0
74.875,7.849,6.16,3.0
79.448,8.337,6.081,2.0
68.667,7.212,4.863,4.0
87.556,9.204,5.693,2.0
89.208,9.386,5.293,6.0
99.062,10.434,5.313,5.0
74.705,7.903,6.093,3.0
74.599,7.898,5.658,2.0
68.681,7.277,4.816,5.0
73.215,7.766,4.707,4.0
88.562,9.402,5.19,7.0
79.689,8.468,4.216,3.0
74.712,7.974,6.038,4.0
74.576,7.965,5.6,3.0
72.819,7.783,5.052,3.0
88.884,9.508,5.649,6.0
88.662,9.493,5.128,7.0
84.795,9.088,4.421,3.0
74.676,8.036,5.978,2.0
74.804,8.056,5.559,5.0
72.863,7.853,4.997,4.0
77.874,8.399,4.888,4.0
88.613,9.564,5.057,6.0
84.576,9.137,4.343,3.0
68.848,7.468,5.456,3.0
78.883,8.561,5.8,4.0
72.991,7.927,4.947,5.0
77.324,8.404,4.792,1.0
80.832,8.791,4.548,4.0
87.738,9.551,4.435,2.0
68.759,7.514,5.393,8.0
76.668,8.383,5.573,3.0
73.233,8.012,4.903,6.0
76.816,8.41,4.696,3.0
91.938,10.073,5.095,11.0
84.015,9.212,4.176,2.0
68.797,7.572,5.336,6.0
77.247,8.506,5.548,5.0
73.652,8.115,4.867,5.0
76.971,8.485,4.639,2.0
80.91,8.926,4.413,3.0
91.82,10.136,4.484,24.0
68.753,7.618,5.272,6.0
76.863,8.52,5.452,2.0
74.15,8.224,4.834,2.0
74.634,8.282,4.432,4.0
76.798,8.527,4.121,4.0
0.0,0.0,0.0,0.0
68.762,7.667,5.21,3.0
65.892,7.35,4.614,2.0
73.289,8.179,4.711,4.0
74.827,8.354,4.374,4.0
76.854,8.585,4.053,3.0
90.373,10.103,4.248,6.0
74.25,8.328,5.557,3.0
77.489,8.694,5.354,7.0
78.522,8.814,4.974,4.0
72.521,8.144,4.171,1.0
136.737,15.364,7.081,11.0
90.473,10.171,4.168,8.0
68.745,7.753,5.078,2.0
72.782,8.211,4.958,3.0
78.183,8.824,4.877,13.0
79.686,8.997,4.506,2.0
107.055,12.093,5.44,18.0
85.929,9.711,3.876,12.0
68.706,7.788,5.008,2.0
68.526,7.77,4.601,7.0
78.166,8.866,4.799,4.0
76.738,8.707,4.264,8.0
107.47,12.2,5.355,13.0
85.909,9.756,3.79,18.0
84.568,9.632,6.08,11.0
68.116,7.76,4.505,3.0
74.683,8.51,4.51,2.0
76.831,8.758,4.192,3.0
107.859,12.299,5.267,10.0
85.836,9.792,3.7,23.0
67.948,7.773,4.815,8.0
73.435,8.402,4.782,3.0
74.745,8.554,4.437,3.0
75.82,8.679,4.059,4.0
121.747,13.94,5.821,5.0
85.88,9.837,3.613,18.0
67.909,7.799,4.742,4.0
81.033,9.308,5.192,4.0
75.273,8.647,4.391,1.0
87.867,10.097,4.611,2.0
81.013,9.311,3.787,1.0
85.867,9.872,3.522,11.0
72.683,8.378,4.998,2.0
78.334,9.029,4.936,11.0
76.998,8.876,4.409,1.0
107.843,12.435,5.545,2.0
105.186,12.131,4.805,16.0
91.785,10.588,3.667,24.0
68.435,7.913,4.631,3.0
78.331,9.058,4.851,9.0
75.67,8.75,4.252,7.0
90.714,10.492,4.566,4.0
105.181,12.167,4.691,9.0
91.851,10.627,3.57,15.0
68.321,7.922,4.549,3.0
78.333,9.083,4.765,3.0
85.629,9.929,4.716,4.0
90.671,10.514,4.465,4.0
110.857,12.857,4.822,9.0
91.976,10.669,3.474,8.0
71.837,8.35,4.703,6.0
87.572,10.178,5.229,11.0
85.578,9.946,4.619,9.0
105.327,12.243,5.068,7.0
110.857,12.886,4.698,17.0
99.094,11.52,3.631,13.0
68.533,7.982,4.409,4.0
79.976,9.314,4.686,2.0
85.607,9.969,4.523,14.0
105.425,12.277,4.954,7.0
85.904,10.004,3.543,27.0
99.072,11.538,3.518,17.0
78.37,9.143,4.952,3.0
75.451,8.801,4.333,3.0
85.586,9.982,4.424,9.0
86.934,10.139,3.985,7.0
85.909,10.019,3.445,42.0
99.009,11.548,3.402,9.0
78.283,9.145,4.856,4.0
75.598,8.829,4.254,4.0
90.73,10.595,4.584,7.0
90.697,10.59,4.052,21.0
85.92,10.031,3.346,27.0
97.364,11.368,3.233,16.0
80.844,9.452,4.92,3.0
87.689,10.25,4.832,15.0
90.69,10.599,4.477,16.0
90.765,10.606,3.949,33.0
91.995,10.748,3.475,30.0
97.373,11.376,3.12,25.0
80.68,9.438,4.815,2.0
87.719,10.258,4.731,15.0
90.676,10.601,4.369,19.0
90.861,10.621,3.846,34.0
91.984,10.751,3.365,20.0
97.412,11.384,3.006,32.0
79.978,9.357,4.678,1.0
85.618,10.013,4.515,13.0
90.681,10.602,4.26,7.0
90.912,10.626,3.74,26.0
99.043,11.575,3.505,15.0
97.497,11.393,2.89,30.0
75.506,8.831,4.325,5.0
85.618,10.01,4.413,10.0
90.738,10.605,4.154,5.0
85.905,10.037,3.43,35.0
98.863,11.548,3.38,8.0
97.636,11.403,2.778,20.0
75.61,8.837,4.239,5.0
90.683,10.594,4.563,9.0
90.723,10.595,4.043,20.0
85.884,10.026,3.325,21.0
97.307,11.357,3.209,21.0
97.808,11.413,2.664,30.0
87.726,10.242,4.813,15.0
90.682,10.583,4.453,17.0
90.766,10.588,3.935,16.0
92.017,10.73,3.452,16.0
97.392,11.353,3.093,50.0
97.823,11.4,2.547,29.0
85.605,9.98,4.592,11.0
105.434,12.286,5.049,8.0
85.911,10.006,3.621,10.0
99.065,11.534,3.595,17.0
97.421,11.338,2.976,38.0
97.784,11.376,2.427,12.0
90.644,10.548,4.752,16.0
105.469,12.267,4.922,6.0
85.889,9.984,3.515,44.0
99.093,11.514,3.476,7.0
97.442,11.317,2.858,5.0
149.59,17.367,3.53,17.0
90.653,10.525,4.641,29.0
86.979,10.093,3.952,9.0
85.896,9.962,3.408,23.0
97.258,11.273,3.291,18.0
97.782,11.329,2.748,19.0
0.0,0.0,0.0,0.0
87.637,10.148,4.378,4.0
105.142,12.167,4.648,18.0
91.815,10.618,3.53,13.0
97.231,11.239,3.17,12.0
97.806,11.299,2.628,31.0
149.49,17.262,3.161,6.0
81.119,9.365,3.951,3.0
85.872,9.907,3.689,21.0
97.018,11.185,3.611,7.0
115.127,13.264,3.612,19.0
97.866,11.269,2.509,7.0
149.27,17.18,2.971,16.0
136.833,15.742,6.498,10.0
85.847,9.869,3.583,14.0
103.936,11.94,3.741,9.0
115.259,13.232,3.475,22.0
149.458,17.148,3.648,10.0
149.47,17.14,2.792,18.0
87.035,9.974,4.025,7.0
91.764,10.507,3.716,36.0
97.246,11.127,3.38,14.0
97.761,11.178,2.827,13.0
143.998,16.454,3.34,3.0
149.52,17.075,2.611,13.0
86.116,9.827,3.877,10.0
110.798,12.632,4.352,14.0
97.194,11.072,3.259,16.0
97.737,11.125,2.707,29.0
144.106,16.393,3.165,12.0
144.168,16.389,2.34,11.0
85.839,9.749,3.758,20.0
110.565,12.546,4.204,11.0
108.838,12.339,3.515,18.0
97.762,11.074,2.587,13.0
144.096,16.311,2.988,15.0
144.009,16.29,2.162,12.0
91.776,10.37,3.906,32.0
105.11,11.865,3.87,13.0
108.822,12.273,3.382,6.0
144.232,16.253,3.641,9.0
144.165,16.231,2.813,10.0
103.784,11.676,1.43,18.0
105.216,11.822,4.348,12.0
97.027,10.891,3.453,16.0
97.738,10.96,2.918,23.0
149.758,16.779,3.599,7.0
103.809,11.621,1.901,32.0
103.792,11.609,1.306,7.0
102.801,11.482,4.125,14.0
97.029,10.826,3.338,22.0
97.726,10.893,2.801,25.0
103.898,11.57,2.371,33.0
103.772,11.545,1.775,36.0
0.0,0.0,0.0,0.0
96.87,10.751,3.77,28.0
97.934,10.856,3.25,10.0
115.386,12.777,3.168,24.0
103.854,11.489,2.246,54.0
103.853,11.478,1.651,16.0
0.0,0.0,0.0,0.0
96.828,10.671,3.651,31.0
97.713,10.756,3.124,29.0
103.944,11.43,2.728,20.0
103.871,11.41,2.122,23.0
149.855,16.444,2.204,18.0
82.068,8.997,0.737,0.0
96.961,10.608,3.541,12.0
98.032,10.712,3.02,22.0
103.966,11.348,2.606,34.0
149.802,16.333,2.884,25.0
109.32,11.906,1.479,7.0
82.127,8.935,0.642,0.0
98.262,10.668,3.474,31.0
103.783,11.253,3.075,31.0
150.0,16.245,3.586,19.0
109.254,11.818,1.977,17.0
109.333,11.813,1.353,3.0
82.065,8.857,0.546,0.0
98.222,10.576,3.358,30.0
103.623,11.143,2.949,40.0
115.571,12.411,2.628,10.0
109.241,11.718,1.849,64.0
0.0,0.0,0.0,0.0
82.107,8.786,0.452,5.0
97.509,10.408,3.221,17.0
108.856,11.603,2.972,33.0
109.229,11.627,2.359,59.0
109.298,11.619,1.724,31.0
0.0,0.0,0.0,0.0
82.111,8.708,0.358,2.0
97.463,10.308,3.109,17.0
116.381,12.292,3.046,14.0
109.269,11.524,2.236,55.0
115.609,12.176,1.694,51.0
0.0,0.0,0.0,0.0
0.0,0.0,0.0,0.0
121.596,12.738,3.742,19.0
109.395,11.443,2.741,29.0
115.546,12.068,2.235,30.0
115.568,12.053,1.565,28.0
0.0,0.0,0.0,0.0
0.0,0.0,0.0,0.0
110.167,11.424,3.268,14.0
109.226,11.309,2.615,45.0
115.72,11.963,2.11,15.0
115.649,11.937,1.437,3.0
0.0,0.0,0.0,0.0
0.0,0.0,0.0,0.0
109.83,11.268,3.136,51.0
115.73,11.854,2.646,43.0
150.643,15.405,2.584,21.0
150.887,15.408,1.713,3.0
0.0,0.0,0.0,0.0
0.0,0.0,0.0,0.0
115.833,11.751,3.183,26.0
137.763,13.953,3.0,13.0
150.598,15.227,2.421,26.0
0.0,0.0,0.0,0.0
0.0,0.0,0.0,0.0
0.0,0.0,0.0,0.0
109.002,10.932,2.881,30.0
121.56,12.169,2.52,52.0
121.603,12.153,1.829,43.0
0.0,0.0,0.0,0.0
0.0,0.0,0.0,0.0
85.281,8.482,-0.182,2.0
121.416,12.03,3.082,22.0
121.507,12.016,2.393,59.0
121.563,11.999,1.701,68.0
0.0,0.0,0.0,0.0
0.0,0.0,0.0,0.0
0.0,0.0,0.0,0.0
121.512,11.887,2.961,51.0
121.644,11.877,2.273,22.0
151.038,14.719,1.962,17.0
0.0,0.0,0.0,0.0
92.319,8.963,0.139,6.0
0.0,0.0,0.0,0.0
138.267,13.346,3.23,22.0
151.193,14.565,2.673,29.0
151.146,14.532,1.812,11.0
0.0,0.0,0.0,0.0
92.337,8.843,0.049,1.0
0.0,0.0,0.0,0.0
151.569,14.428,3.393,19.0
151.173,14.36,2.524,33.0
151.658,14.376,1.671,3.0
0.0,0.0,0.0,0.0
92.797,8.762,-0.04,1.0
0.0,0.0,0.0,0.0
151.623,14.227,3.249,27.0
151.556,14.189,2.386,22.0
0.0,0.0,0.0,0.0
92.886,8.66,0.398,151.0
92.758,8.63,-0.127,1.0
68.64,6.373,-0.484,0.0
151.761,14.025,3.11,25.0
151.806,13.999,2.249,30.0
0.0,0.0,0.0,0.0
0.0,0.0,0.0,0.0
0.0,0.0,0.0,0.0
68.83,6.292,-0.548,2.0
152.077,13.835,2.976,21.0
152.514,13.844,2.12,26.0
108.414,9.818,0.893,2.0
0.0,0.0,0.0,0.0
0.0,0.0,0.0,0.0
0.0,0.0,0.0,0.0
152.584,13.659,2.854,7.0
152.769,13.644,1.992,26.0
108.265,9.645,0.798,2.0
0.0,0.0,0.0,0.0
0.0,0.0,0.0,0.0
0.0,0.0,0.0,0.0
157.558,13.866,2.81,5.0
129.079,11.332,1.571,9.0
107.715,9.433,0.702,12.0
107.569,9.397,0.082,45.0
0.0,0.0,0.0,0.0
0.0,0.0,0.0,0.0
153.674,13.288,2.613,8.0
128.89,11.115,1.462,8.0
107.698,9.265,0.613,14.0
107.722,9.243,-0.006,18.0
0.0,0.0,0.0,0.0
0.0,0.0,0.0,0.0
199.568,16.944,3.232,5.0
129.32,10.95,1.364,3.0
107.98,9.12,0.529,2.0
108.079,9.103,-0.091,6.0
68.908,5.788,-0.447,2.0
0.0,0.0,0.0,0.0
0.0,0.0,0.0,0.0
0.0,0.0,0.0,0.0
108.887,9.021,0.45,1.0
108.85,8.993,-0.175,2.0
68.919,5.678,-0.499,2.0
0.0,0.0,0.0,0.0
0.0,0.0,0.0,0.0
0.0,0.0,0.0,0.0
110.329,8.958,0.374,5.0
0.0,0.0,0.0,0.0
0.0,0.0,0.0,0.0
0.0,0.0,0.0,0.0
155.981,12.479,2.175,34.0
114.287,9.114,0.949,7.0
113.962,9.062,0.304,41.0
0.0,0.0,0.0,0.0
0.0,0.0,0.0,0.0
0.0,0.0,0.0,0.0
162.136,12.699,2.15,32.0
114.31,8.924,0.872,6.0
114.11,8.879,0.228,177.0
0.0,0.0,0.0,0.0
0.0,0.0,0.0,0.0
0.0,0.0,0.0,0.0
0.0,0.0,0.0,0.0
0.0,0.0,0.0,0.0
115.074,8.756,0.155,7.0
0.0,0.0,0.0,0.0
0.0,0.0,0.0,0.0
0.0,0.0,0.0,0.0
168.236,12.591,2.012,15.0
122.208,9.115,0.774,3.0
122.028,9.069,0.087,4.0
0.0,0.0,0.0,0.0
0.0,0.0,0.0,0.0
0.0,0.0,0.0,0.0
0.0,0.0,0.0,0.0
140.596,10.235,0.807,151.0
0.0,0.0,0.0,0.0
0.0,0.0,0.0,0.0
0.0,0.0,0.0,0.0
0.0,0.0,0.0,0.0
0.0,0.0,0.0,0.0
140.649,9.986,0.728,11.0
0.0,0.0,0.0,0.0
68.92,4.857,-0.422,0.0
0.0,0.0,0.0,0.0
0.0,0.0,0.0,0.0
0.0,0.0,0.0,0.0
154.894,10.715,0.72,56.0
0.0,0.0,0.0,0.0
0.0,0.0,0.0,0.0
0.0,0.0,0.0,0.0
0.0,0.0,0.0,0.0
0.0,0.0,0.0,0.0
154.943,10.433,0.644,154.0
0.0,0.0,0.0,0.0
68.946,4.604,-0.491,3.0
0.0,0.0,0.0,0.0
0.0,0.0,0.0,0.0
0.0,0.0,0.0,0.0
154.938,10.141,0.572,74.0
0.0,0.0,0.0,0.0
68.936,4.474,-0.522,2.0
0.0,0.0,0.0,0.0
0.0,0.0,0.0,0.0
0.0,0.0,0.0,0.0
155.256,9.869,0.507,3.0
0.0,0.0,0.0,0.0
0.0,0.0,0.0,0.0
0.0,0.0,0.0,0.0
38.818,2.424,-0.743,0.0
0.0,0.0,0.0,0.0
0.0,0.0,0.0,0.0
0.0,0.0,0.0,0.0
0.0,0.0,0.0,0.0
0.0,0.0,0.0,0.0
0.0,0.0,0.0,0.0
197.493,11.852,1.597,25.0
197.682,11.808,0.497,8.0
0.0,0.0,0.0,0.0
0.0,0.0,0.0,0.0
0.0,0.0,0.0,0.0
38.125,2.234,-0.757,0.0
197.41,11.464,1.532,27.0
0.0,0.0,0.0,0.0
0.0,0.0,0.0,0.0
0.0,0.0,0.0,0.0
0.0,0.0,0.0,0.0
38.443,2.177,-0.775,0.0
196.123,11.007,1.465,21.0
0.0,0.0,0.0,0.0
0.0,0.0,0.0,0.0
0.0,0.0,0.0,0.0
0.0,0.0,0.0,0.0
37.797,2.066,-0.772,0.0
197.183,10.677,1.422,21.0
0.0,0.0,0.0,0.0
0.0,0.0,0.0,0.0
0.0,0.0,0.0,0.0
0.0,0.0,0.0,0.0
37.437,1.971,-0.773,0.0
197.065,10.279,1.377,32.0
0.0,0.0,0.0,0.0
0.0,0.0,0.0,0.0
0.0,0.0,0.0,0.0
0.0,0.0,0.0,0.0
0.0,0.0,0.0,0.0
197.117,9.885,1.34,36.0
0.0,0.0,0.0,0.0
0.0,0.0,0.0,0.0
0.0,0.0,0.0,0.0
0.0,0.0,0.0,0.0
36.866,1.793,-0.773,0.0
197.112,9.488,1.311,25.0
0.0,0.0,0.0,0.0
0.0,0.0,0.0,0.0
0.0,0.0,0.0,0.0
0.0,0.0,0.0,0.0
36.994,1.723,-0.781,0.0
196.931,9.078,1.289,35.0
0.0,0.0,0.0,0.0
0.0,0.0,0.0,0.0
0.0,0.0,0.0,0.0
0.0,0.0,0.0,0.0
37.329,1.663,-0.791,0.0
195.547,8.613,1.265,45.0
0.0,0.0,0.0,0.0
0.0,0.0,0.0,0.0
0.0,0.0,0.0,0.0
43.136,1.846,-0.677,0.0
37.175,1.579,-0.789,0.0
196.679,8.26,1.265,31.0
0.0,0.0,0.0,0.0
0.0,0.0,0.0,0.0
0.0,0.0,0.0,0.0
0.0,0.0,0.0,0.0
37.821,1.528,-0.803,0.0
196.576,7.852,1.264,32.0
0.0,0.0,0.0,0.0
0.0,0.0,0.0,0.0
0.0,0.0,0.0,0.0
0.0,0.0,0.0,0.0
36.93,1.415,-0.782,0.0
196.329,7.43,1.271,14.0
0.0,0.0,0.0,0.0
0.0,0.0,0.0,0.0
0.0,0.0,0.0,0.0
0.0,0.0,0.0,0.0
37.143,1.346,-0.784,0.0
196.308,7.025,1.286,34.0
0.0,0.0,0.0,0.0
0.0,0.0,0.0,0.0
0.0,0.0,0.0,0.0
0.0,0.0,0.0,0.0
37.788,1.29,-0.794,0.0
196.261,6.61,1.308,28.0
0.0,0.0,0.0,0.0
0.0,0.0,0.0,0.0
0.0,0.0,0.0,0.0
0.0,0.0,0.0,0.0
37.833,1.212,-0.789,0.0
196.141,6.197,1.337,41.0
0.0,0.0,0.0,0.0
0.0,0.0,0.0,0.0
0.0,0.0,0.0,0.0
0.0,0.0,0.0,0.0
37.346,1.118,-0.772,0.0
195.926,5.782,1.373,33.0
0.0,0.0,0.0,0.0
0.0,0.0,0.0,0.0
0.0,0.0,0.0,0.0
0.0,0.0,0.0,0.0
38.682,1.077,-0.791,0.0
103.198,2.83,0.746,4.0
0.0,0.0,0.0,0.0
0.0,0.0,0.0,0.0
0.0,0.0,0.0,0.0
0.0,0.0,0.0,0.0
38.941,1.003,-0.786,0.0
103.035,2.609,0.773,9.0
100.159,2.502,0.204,2.0
0.0,0.0,0.0,0.0
0.0,0.0,0.0,0.0
0.0,0.0,0.0,0.0
38.959,0.921,-0.774,0.0
102.926,2.389,0.804,2.0
100.079,2.289,0.236,5.0
100.042,2.256,-0.309,1.0
0.0,0.0,0.0,0.0
0.0,0.0,0.0,0.0
39.058,0.842,-0.763,0.0
102.905,2.174,0.839,4.0
99.986,2.079,0.27,1.0
0.0,0.0,0.0,0.0
0.0,0.0,0.0,0.0
0.0,0.0,0.0,0.0
0.0,0.0,0.0,0.0
99.872,1.902,0.852,1.0
99.861,1.867,0.309,14.0
0.0,0.0,0.0,0.0
0.0,0.0,0.0,0.0
0.0,0.0,0.0,0.0
0.0,0.0,0.0,0.0
99.658,1.689,0.892,3.0
99.731,1.657,0.351,5.0
101.625,1.654,-0.194,2.0
0.0,0.0,0.0,0.0
0.0,0.0,0.0,0.0
42.9,0.655,-0.785,0.0
0.0,0.0,0.0,0.0
99.683,1.449,0.396,5.0
99.991,1.42,-0.144,1.0
0.0,0.0,0.0,0.0
20.201,0.273,-0.25,0.0
20.205,0.266,-0.359,20.0
20.305,0.259,0.201,7.0
20.311,0.253,0.091,0.0
99.547,1.206,-0.093,1.0
0.0,0.0,0.0,0.0
20.191,0.23,-0.239,22.0
20.181,0.224,-0.348,31.0
20.298,0.217,0.211,29.0
20.318,0.21,0.102,30.0
20.345,0.204,-0.007,27.0
20.183,0.195,-0.119,18.0
20.173,0.188,-0.228,26.0
20.182,0.181,-0.337,34.0
20.25,0.175,0.222,24.0
20.221,0.168,0.113,27.0
20.216,0.161,0.003,26.0
20.182,0.153,-0.107,31.0
20.177,0.147,-0.216,31.0
20.191,0.14,-0.325,30.0
20.179,0.133,0.234,27.0
20.187,0.126,0.125,25.0
20.179,0.119,0.016,29.0
20.184,0.112,-0.094,31.0
20.18,0.105,-0.203,22.0
20.203,0.099,-0.312,2.0
20.149,0.091,0.246,28.0
20.146,0.084,0.138,27.0
20.208,0.078,0.029,32.0
20.199,0.071,-0.081,27.0
20.206,0.064,-0.19,13.0
20.248,0.058,-0.299,1.0
20.137,0.05,0.26,31.0
20.135,0.043,0.151,28.0
20.233,0.037,0.043,50.0
20.249,0.03,-0.067,151.0
20.26,0.023,-0.176,151.0
20.265,0.017,-0.285,76.0
20.127,0.01,0.274,28.0
20.13,0.002,0.166,28.0
20.149,-0.003,0.057,27.0
20.112,-0.01,-0.052,19.0
20.168,-0.017,-0.16,24.0
20.166,-0.023,-0.269,24.0
20.117,-0.03,0.289,29.0
20.12,-0.037,0.181,36.0
20.129,-0.044,0.073,40.0
20.13,-0.05,-0.036,31.0
20.138,-0.057,-0.144,36.0
20.137,-0.064,-0.253,32.0
20.122,-0.07,0.305,28.0
20.126,-0.077,0.197,26.0
20.133,-0.084,0.089,38.0
20.126,-0.09,-0.02,30.0
20.138,-0.097,-0.128,28.0
20.144,-0.104,-0.236,30.0
20.144,-0.11,0.321,22.0
20.128,-0.117,0.213,18.0
20.13,-0.124,0.106,15.0
20.191,-0.131,-0.003,24.0
20.155,-0.137,-0.111,17.0
20.135,-0.144,-0.219,15.0
20.271,-0.151,0.341,18.0
66.523,-0.52,0.763,22.0
66.529,-0.542,0.408,7.0
53.316,-0.452,0.036,6.0
56.328,-0.496,-0.262,2.0
0.0,0.0,0.0,0.0
20.182,-0.19,0.357,18.0
64.341,-0.63,0.796,61.0
64.318,-0.651,0.452,24.0
56.148,-0.586,0.089,1.0
56.202,-0.605,-0.21,1.0
52.981,-0.588,-0.481,7.0
20.148,-0.229,0.375,13.0
20.134,-0.236,0.267,9.0
20.148,-0.243,0.16,9.0
59.541,-0.737,0.151,51.0
59.525,-0.755,-0.166,16.0
56.619,-0.737,-0.46,7.0
20.146,-0.268,0.394,10.0
20.127,-0.274,0.287,11.0
20.119,-0.28,0.179,14.0
20.139,-0.287,0.07,26.0
20.128,-0.294,-0.036,6.0
59.33,-0.885,-0.424,12.0
53.506,-0.814,1.101,61.0
20.184,-0.313,0.308,1.0
20.141,-0.319,0.2,5.0
20.131,-0.325,0.09,26.0
20.135,-0.332,-0.016,34.0
52.985,-0.891,-0.325,18.0
193.304,-3.306,4.176,6.0
203.708,-3.548,3.317,7.0
203.362,-3.606,2.229,20.0
52.984,-0.957,0.293,7.0
52.984,-0.973,0.011,33.0
52.948,-0.989,-0.269,15.0
38.207,-0.724,0.865,35.0
52.988,-1.021,0.918,18.0
52.942,-1.037,0.636,53.0
52.905,-1.053,0.349,21.0
38.392,-0.776,0.049,22.0
38.366,-0.787,-0.153,51.0
38.4,-0.798,0.911,41.0
38.387,-0.81,0.707,27.0
40.413,-0.865,0.53,4.0
40.422,-0.878,0.311,149.0
40.454,-0.891,0.097,150.0
40.417,-0.903,-0.117,50.0
0.0,0.0,0.0,0.0
40.411,-0.925,0.789,38.0
40.406,-0.938,0.574,37.0
40.411,-0.95,0.356,33.0
40.42,-0.963,0.142,28.0
0.0,0.0,0.0,0.0
38.674,-0.942,1.004,40.0
38.745,-0.956,0.8,32.0
38.721,-0.966,0.594,14.0
38.689,-0.978,0.385,39.0
38.682,-0.989,0.18,47.0
38.674,-1.001,-0.023,50.0
38.641,-1.01,1.048,79.0
38.637,-1.021,0.843,61.0
38.645,-1.033,0.639,66.0
38.624,-1.044,0.431,65.0
38.637,-1.056,0.226,71.0
38.671,-1.069,0.022,78.0
38.588,-1.076,1.093,63.0
38.621,-1.088,0.889,74.0
38.632,-1.1,0.686,93.0
38.638,-1.111,0.478,107.0
38.623,-1.123,0.273,70.0
38.651,-1.135,0.069,70.0
38.582,-1.141,1.14,66.0
38.618,-1.154,0.937,75.0
38.626,-1.165,0.733,73.0
38.613,-1.176,0.525,65.0
38.647,-1.188,0.321,64.0
38.676,-1.2,0.117,60.0
38.623,-1.208,1.189,64.0
38.633,-1.219,0.985,68.0
38.643,-1.23,0.782,51.0
38.679,-1.242,0.574,30.0
38.729,-1.255,0.371,16.0
38.76,-1.267,0.167,10.0
38.698,-1.274,1.241,23.0
38.691,-1.284,1.036,8.0
38.691,-1.295,0.832,0.0
0.0,0.0,0.0,0.0
84.541,-2.878,0.919,22.0
80.663,-2.768,0.452,25.0
31.319,-1.081,1.045,44.0
31.32,-1.09,0.88,42.0
31.337,-1.099,0.715,39.0
31.346,-1.108,0.547,38.0
31.349,-1.117,0.382,24.0
31.347,-1.126,0.217,6.0
31.273,-1.13,1.085,56.0
31.267,-1.138,0.92,47.0
31.278,-1.147,0.755,45.0
31.259,-1.154,0.587,49.0
31.239,-1.162,0.422,32.0
31.251,-1.172,0.258,43.0
31.235,-1.177,1.125,41.0
28.436,-1.079,0.875,25.0
28.459,-1.088,0.726,57.0
28.462,-1.096,0.573,67.0
28.456,-1.103,0.424,65.0
28.451,-1.111,0.274,68.0
28.436,-1.116,1.064,92.0
28.441,-1.123,0.914,120.0
28.437,-1.131,0.765,150.0
28.441,-1.138,0.612,150.0
28.446,-1.145,0.463,128.0
28.457,-1.153,0.314,120.0
28.442,-1.158,1.104,106.0
28.429,-1.165,0.953,102.0
28.428,-1.172,0.804,100.0
28.431,-1.179,0.652,97.0
28.428,-1.186,0.502,84.0
28.435,-1.194,0.353,72.0
28.453,-1.201,1.144,60.0
28.451,-1.207,0.994,57.0
28.447,-1.214,0.845,54.0
28.462,-1.222,0.693,53.0
28.458,-1.229,0.543,41.0
31.233,-1.356,0.433,24.0
165.515,-7.22,6.892,17.0
165.815,-7.274,6.034,20.0
85.772,-3.784,2.671,5.0
85.151,-3.777,2.197,18.0
31.372,-1.399,0.644,6.0
31.286,-1.402,0.479,32.0
159.638,-7.189,6.88,29.0
165.629,-7.496,6.268,22.0
86.551,-3.937,2.821,18.0
85.056,-3.89,2.318,30.0
84.626,-3.891,1.863,31.0
147.692,-6.824,2.478,3.0
85.824,-3.982,3.825,22.0
159.699,-7.446,6.28,16.0
85.018,-3.982,2.896,17.0
85.022,-4.002,2.443,25.0
84.71,-4.007,1.99,43.0
86.058,-4.091,1.571,10.0
85.697,-4.089,3.946,27.0
86.505,-4.147,3.53,31.0
85.037,-4.096,3.024,31.0
85.383,-4.131,2.581,28.0
84.61,-4.112,2.114,42.0
84.645,-4.133,1.673,29.0
85.258,-4.18,4.056,29.0
86.285,-4.248,3.651,37.0
85.493,-4.227,3.169,16.0
85.554,-4.247,2.714,34.0
84.763,-4.227,2.246,35.0
84.8,-4.247,1.803,42.0
28.401,-1.428,1.393,32.0
85.32,-4.306,3.74,40.0
83.695,-4.242,3.23,14.0
84.956,-4.323,2.826,37.0
84.407,-4.312,2.365,35.0
84.68,-4.344,1.93,41.0
28.412,-1.462,1.437,66.0
84.632,-4.373,3.839,35.0
83.653,-4.339,3.356,29.0
84.858,-4.418,2.951,52.0
84.169,-4.399,2.487,37.0
84.468,-4.433,2.055,35.0
28.42,-1.496,1.482,72.0
83.762,-4.426,3.929,37.0
83.665,-4.438,3.486,33.0
83.767,-4.459,3.043,22.0
84.204,-4.5,2.62,36.0
83.917,-4.5,2.172,38.0
28.432,-1.53,1.527,71.0
83.757,-4.521,4.059,16.0
83.443,-4.519,3.606,38.0
83.28,-4.526,3.156,43.0
83.182,-4.536,2.717,37.0
83.888,-4.59,2.301,48.0
28.427,-1.56,1.571,69.0
28.422,-1.565,1.422,60.0
83.528,-4.615,3.742,28.0
83.282,-4.616,3.287,21.0
24.62,-1.369,0.843,7.0
24.626,-1.374,0.714,7.0
24.484,-1.37,1.392,37.0
28.412,-1.595,1.466,30.0
24.542,-1.382,1.138,25.0
24.542,-1.386,1.007,17.0
24.575,-1.392,0.88,31.0
24.591,-1.397,0.752,31.0
24.445,-1.393,1.429,69.0
24.501,-1.4,1.303,51.0
24.541,-1.406,1.177,42.0
24.517,-1.409,1.045,39.0
24.54,-1.414,0.918,45.0
24.55,-1.419,0.79,63.0
24.418,-1.416,1.466,62.0
24.455,-1.421,1.34,66.0
24.484,-1.427,1.214,43.0
24.497,-1.432,1.084,53.0
24.508,-1.436,0.956,38.0
24.524,-1.44,0.829,55.0
24.402,-1.438,1.505,72.0
24.432,-1.443,1.379,44.0
24.476,-1.449,1.253,53.0
24.487,-1.453,1.123,39.0
24.469,-1.456,0.994,27.0
24.499,-1.461,0.867,54.0
24.403,-1.46,1.544,81.0
24.411,-1.464,1.417,54.0
24.445,-1.469,1.291,56.0
24.457,-1.473,1.161,48.0
24.474,-1.478,1.034,38.0
24.479,-1.481,0.906,59.0
24.403,-1.481,1.584,76.0
24.395,-1.484,1.456,36.0
24.427,-1.489,1.329,69.0
24.471,-1.495,1.201,78.0
24.445,-1.496,1.072,54.0
24.463,-1.5,0.945,65.0
24.404,-1.502,1.623,87.0
24.372,-1.502,1.494,25.0
24.422,-1.508,1.369,57.0
24.462,-1.514,1.24,89.0
24.432,-1.515,1.111,48.0
24.45,-1.519,0.985,54.0
24.383,-1.519,1.662,55.0
24.377,-1.522,1.534,29.0
24.423,-1.527,1.409,37.0
24.46,-1.532,1.28,83.0
24.456,-1.534,1.152,49.0
24.46,-1.537,1.024,49.0
24.342,-1.535,1.699,26.0
24.399,-1.541,1.575,34.0
24.399,-1.543,1.447,39.0
24.454,-1.549,1.319,66.0
24.478,-1.553,1.193,88.0
24.469,-1.555,1.065,45.0
24.341,-1.552,1.739,37.0
24.409,-1.558,1.615,43.0
24.408,-1.56,1.487,38.0
24.436,-1.564,1.358,72.0
24.479,-1.57,1.233,84.0
24.476,-1.572,1.105,31.0
24.323,-1.567,1.777,47.0
24.392,-1.573,1.654,59.0
24.42,-1.577,1.528,40.0
24.428,-1.579,1.398,71.0
24.468,-1.584,1.272,67.0
24.482,-1.587,1.145,39.0
24.298,-1.58,1.815,57.0
24.366,-1.586,1.692,37.0
24.421,-1.591,1.567,67.0
24.434,-1.594,1.438,66.0
24.467,-1.598,1.312,69.0
24.489,-1.602,1.184,66.0
24.295,-1.593,1.854,53.0
24.346,-1.598,1.73,34.0
24.425,-1.605,1.607,70.0
24.447,-1.608,1.478,65.0
24.462,-1.611,1.351,71.0
24.492,-1.615,1.224,54.0
24.285,-1.606,1.893,64.0
24.322,-1.61,1.768,32.0
24.431,-1.618,1.647,50.0
24.445,-1.621,1.517,65.0
24.445,-1.622,1.389,62.0
24.493,-1.627,1.264,58.0
24.294,-1.618,1.933,46.0
24.308,-1.62,1.806,39.0
24.419,-1.629,1.686,40.0
24.451,-1.632,1.557,72.0
24.443,-1.633,1.428,52.0
24.477,-1.636,1.302,44.0
24.312,-1.63,1.974,24.0
24.29,-1.63,1.844,48.0
24.387,-1.637,1.723,39.0
24.448,-1.642,1.596,56.0
24.457,-1.644,1.468,58.0
24.479,-1.646,1.342,46.0
24.593,-1.659,2.036,16.0
24.273,-1.638,1.882,51.0
24.362,-1.645,1.761,38.0
24.455,-1.652,1.636,44.0
24.463,-1.653,1.508,64.0
24.476,-1.655,1.381,54.0
24.738,-1.678,2.088,26.0
24.274,-1.647,1.921,44.0
24.33,-1.651,1.797,39.0
24.458,-1.66,1.675,39.0
24.46,-1.661,1.547,50.0
24.467,-1.662,1.419,62.0
24.776,-1.688,2.131,48.0
24.265,-1.654,1.959,28.0
24.298,-1.656,1.833,46.0
24.45,-1.667,1.713,35.0
24.478,-1.669,1.586,31.0
24.471,-1.669,1.458,56.0
24.807,-1.697,2.173,58.0
24.42,-1.671,2.01,17.0
24.276,-1.661,1.87,43.0
24.431,-1.672,1.751,36.0
24.478,-1.675,1.625,36.0
24.466,-1.675,1.496,44.0
24.819,-1.704,2.213,41.0
24.681,-1.694,2.07,23.0
24.255,-1.665,1.906,42.0
24.384,-1.674,1.785,35.0
24.492,-1.681,1.664,34.0
24.476,-1.68,1.535,32.0
24.874,-1.713,2.257,35.0
24.773,-1.705,2.117,40.0
24.232,-1.668,1.942,29.0
24.332,-1.674,1.819,41.0
24.493,-1.685,1.702,34.0
24.472,-1.684,1.571,24.0
24.893,-1.718,2.297,29.0
24.788,-1.71,2.156,46.0
24.324,-1.677,1.987,21.0
24.276,-1.674,1.852,42.0
24.471,-1.686,1.738,35.0
24.476,-1.686,1.609,23.0
24.958,-1.725,2.342,41.0
24.814,-1.714,2.197,41.0
24.6,-1.698,2.047,19.0
24.265,-1.675,1.889,39.0
24.437,-1.686,1.773,34.0
24.481,-1.689,1.647,24.0
24.969,-1.727,2.381,56.0
24.846,-1.718,2.238,34.0
24.73,-1.709,2.096,29.0
24.241,-1.674,1.924,37.0
24.36,-1.682,1.804,36.0
24.477,-1.689,1.683,27.0
24.981,-1.729,2.42,54.0
24.871,-1.72,2.277,30.0
24.774,-1.712,2.137,42.0
24.231,-1.674,1.959,24.0
24.299,-1.677,1.835,41.0
24.486,-1.689,1.72,34.0
24.992,-1.729,2.458,52.0
24.919,-1.723,2.319,30.0
24.804,-1.714,2.176,44.0
24.403,-1.685,2.009,18.0
24.263,-1.673,1.869,39.0
24.452,-1.685,1.754,35.0
25.013,-1.729,2.498,53.0
24.955,-1.724,2.359,46.0
24.836,-1.714,2.215,36.0
24.673,-1.701,2.067,24.0
24.252,-1.671,1.903,40.0
24.397,-1.679,1.785,35.0
25.018,-1.727,2.535,50.0
24.97,-1.722,2.397,58.0
24.84,-1.711,2.251,30.0
24.762,-1.704,2.11,40.0
24.255,-1.668,1.938,32.0
24.315,-1.67,1.814,43.0
25.028,-1.725,2.572,44.0
24.982,-1.719,2.434,59.0
24.896,-1.712,2.292,24.0
24.788,-1.702,2.148,51.0
24.301,-1.667,1.976,22.0
24.283,-1.664,1.846,46.0
25.025,-1.72,2.607,42.0
24.988,-1.715,2.469,62.0
24.952,-1.71,2.333,29.0
24.799,-1.698,2.183,49.0
24.571,-1.68,2.032,15.0
24.267,-1.658,1.878,53.0
25.032,-1.715,2.643,41.0
25.004,-1.711,2.506,65.0
24.975,-1.706,2.369,44.0
24.801,-1.692,2.218,29.0
24.722,-1.685,2.079,26.0
24.271,-1.652,1.912,47.0
25.055,-1.71,2.68,43.0
25.001,-1.704,2.54,65.0
24.98,-1.7,2.404,48.0
24.866,-1.69,2.257,17.0
24.782,-1.682,2.117,41.0
24.281,-1.645,1.945,33.0
25.065,-1.703,2.715,39.0
25.017,-1.697,2.575,61.0
25.001,-1.694,2.439,41.0
24.943,-1.687,2.298,8.0
24.796,-1.674,2.151,54.0
24.382,-1.644,1.985,18.0
25.059,-1.695,2.747,15.0
25.025,-1.69,2.609,58.0
25.02,-1.686,2.474,36.0
31.044,-2.089,2.9,30.0
24.796,-1.666,2.183,46.0
24.612,-1.651,2.036,21.0
36.97,-2.487,4.102,7.0
25.026,-1.68,2.641,53.0
25.007,-1.676,2.505,28.0
31.064,-2.078,2.941,4.0
28.451,-1.9,2.541,9.0
24.73,-1.649,2.077,26.0
31.957,-2.136,3.586,7.0
25.043,-1.671,2.675,52.0
25.019,-1.666,2.537,15.0
24.984,-1.661,2.397,0.0
31.062,-2.061,2.813,27.0
24.789,-1.642,2.112,27.0
0.0,0.0,0.0,0.0
25.071,-1.662,2.709,44.0
38.928,-2.575,3.996,4.0
47.544,-3.138,4.619,7.0
31.08,-2.048,2.852,14.0
28.428,-1.869,2.456,25.0
0.0,0.0,0.0,0.0
25.088,-1.651,2.741,40.0
30.432,-1.998,3.16,34.0
54.201,-3.552,5.331,8.0
52.424,-3.428,4.873,6.0
28.435,-1.855,2.49,49.0
31.95,-2.09,3.702,59.0
25.086,-1.638,2.77,30.0
30.431,-1.982,3.196,61.0
30.479,-1.981,3.033,13.0
44.955,-2.915,4.23,5.0
28.438,-1.84,2.523,55.0
31.959,-2.074,3.739,67.0
30.239,-1.957,3.374,20.0
30.393,-1.963,3.226,39.0
30.448,-1.962,3.064,43.0
45.117,-2.9,4.297,4.0
28.445,-1.824,2.555,48.0
0.0,0.0,0.0,0.0
30.222,-1.938,3.405,37.0
30.362,-1.943,3.256,33.0
30.453,-1.944,3.098,61.0
47.524,-3.026,4.577,5.0
28.423,-1.806,2.584,20.0
30.142,-1.92,3.594,25.0
30.225,-1.92,3.439,20.0
30.364,-1.924,3.289,21.0
30.443,-1.924,3.129,65.0
54.267,-3.421,5.284,7.0
45.356,-2.852,4.171,3.0
30.109,-1.898,3.621,40.0
25.248,-1.587,2.899,17.0
30.383,-1.905,3.323,2.0
30.446,-1.904,3.161,61.0
30.48,-1.901,2.999,28.0
45.598,-2.837,4.239,5.0
30.074,-1.876,3.648,38.0
30.199,-1.878,3.498,19.0
25.165,-1.561,2.777,29.0
30.425,-1.882,3.189,37.0
30.482,-1.88,3.029,65.0
47.542,-2.925,4.466,1.0
30.072,-1.854,3.678,63.0
30.174,-1.855,3.525,25.0
25.202,-1.545,2.806,35.0
31.244,-1.91,3.305,10.0
30.495,-1.859,3.06,77.0
54.304,-3.3,5.154,8.0
30.064,-1.831,3.706,52.0
30.16,-1.831,3.552,17.0
25.217,-1.526,2.831,35.0
31.725,-1.915,3.386,48.0
30.485,-1.834,3.087,52.0
47.5,-2.85,4.552,5.0
30.044,-1.807,3.731,44.0
36.463,-2.186,4.328,2.0
25.22,-1.507,2.855,29.0
31.752,-1.891,3.417,61.0
30.601,-1.817,3.126,42.0
30.496,-1.806,2.949,19.0
30.061,-1.784,3.759,16.0
33.535,-1.983,4.009,1.0
25.257,-1.489,2.881,31.0
31.734,-1.865,3.442,44.0
31.385,-1.839,3.232,39.0
30.511,-1.781,2.976,51.0
36.89,-2.158,4.645,9.0
33.425,-1.949,4.024,7.0
25.271,-1.469,2.903,16.0
31.757,-1.839,3.471,6.0
31.723,-1.831,3.293,52.0
30.502,-1.755,2.999,58.0
38.524,-2.221,4.882,5.0
33.258,-1.911,4.031,9.0
25.378,-1.453,2.935,18.0
25.33,-1.445,2.788,3.0
31.723,-1.804,3.317,17.0
30.5,-1.728,3.022,48.0
38.428,-2.182,4.899,48.0
36.989,-2.092,4.511,5.0
25.409,-1.432,2.958,29.0
25.312,-1.422,2.805,2.0
47.964,-2.685,5.051,4.0
30.982,-1.728,3.092,40.0
45.792,-2.559,5.871,4.0
37.042,-2.062,4.544,12.0
25.444,-1.411,2.98,39.0
52.608,-2.907,5.866,8.0
51.462,-2.833,5.455,10.0
31.493,-1.728,3.165,33.0
52.075,-2.862,6.712,2.0
38.49,-2.106,4.747,43.0
25.47,-1.389,3.0,44.0
58.771,-3.192,6.592,22.0
46.063,-2.493,4.913,4.0
31.67,-1.707,3.203,4.0
52.038,-2.81,6.741,13.0
39.256,-2.111,4.867,5.0
25.476,-1.364,3.017,43.0
47.029,-2.509,5.304,7.0
36.96,-1.964,3.964,8.0
24.022,-1.272,2.444,21.0
25.538,-1.354,3.324,14.0
25.508,-1.347,3.177,32.0
25.46,-1.339,3.03,30.0
46.513,-2.436,5.273,2.0
23.943,-1.249,2.581,12.0
24.006,-1.247,2.456,43.0
25.559,-1.33,3.341,48.0
25.509,-1.321,3.192,52.0
25.477,-1.314,3.046,15.0
38.555,-1.981,4.391,53.0
23.912,-1.223,2.591,34.0
23.994,-1.222,2.467,39.0
25.555,-1.303,3.353,42.0
25.506,-1.295,3.204,12.0
33.854,-1.712,4.064,1.0
23.816,-1.199,2.724,20.0
23.875,-1.197,2.598,27.0
23.997,-1.198,2.478,40.0
37.145,-1.856,4.892,4.0
39.959,-1.988,5.039,5.0
23.731,-1.175,2.86,18.0
23.81,-1.174,2.734,50.0
23.882,-1.172,2.61,44.0
24.004,-1.173,2.49,55.0
0.0,0.0,0.0,0.0
36.473,-1.776,4.615,2.0
23.702,-1.149,2.866,18.0
23.804,-1.149,2.743,55.0
23.877,-1.147,2.619,32.0
37.12,-1.775,3.865,7.0
23.855,-1.141,3.161,1.0
23.701,-1.128,3.008,5.0
23.679,-1.122,2.872,35.0
23.813,-1.123,2.753,40.0
59.987,-2.817,6.601,17.0
46.348,-2.167,4.842,6.0
23.844,-1.115,3.168,25.0
23.719,-1.104,3.018,44.0
23.685,-1.097,2.881,35.0
23.79,-1.096,2.758,5.0
47.713,-2.189,5.265,8.0
37.12,-1.695,3.889,8.0
23.857,-1.089,3.177,77.0
23.805,-1.082,3.036,50.0
23.708,-1.072,2.891,25.0
40.44,-1.82,4.7,2.0
37.078,-1.66,4.101,24.0
37.124,-1.654,3.899,2.0
23.849,-1.062,3.182,43.0
23.873,-1.058,3.051,37.0
23.799,-1.049,2.907,1.0
47.296,-2.075,5.507,36.0
47.239,-2.063,5.236,43.0
31.818,-1.382,3.349,7.0
36.882,-1.601,4.93,14.0
39.403,-1.702,5.044,15.0
39.355,-1.691,4.816,9.0
39.596,-1.692,4.618,2.0
31.903,-1.356,3.542,1.0
31.842,-1.347,3.357,1.0
23.662,-1.0,3.166,12.0
36.799,-1.547,4.716,6.0
39.307,-1.643,4.816,10.0
28.4,-1.181,3.316,24.0
28.424,-1.176,3.159,51.0
24.717,-1.017,2.609,32.0
28.421,-1.168,3.807,10.0
28.415,-1.161,3.645,46.0
28.4,-1.154,3.482,56.0
28.397,-1.148,3.319,86.0
28.401,-1.141,3.159,99.0
24.708,-0.988,2.61,42.0
28.392,-1.133,3.805,37.0
28.394,-1.127,3.644,98.0
28.388,-1.121,3.483,92.0
28.39,-1.114,3.319,100.0
28.381,-1.108,3.158,33.0
24.72,-0.959,2.612,42.0
28.385,-1.1,3.805,54.0
28.395,-1.094,3.645,70.0
28.406,-1.088,3.485,59.0
28.42,-1.082,3.323,59.0
24.791,-0.938,2.759,27.0
24.73,-0.931,2.613,44.0
32.367,-1.216,4.338,2.0
32.279,-1.205,4.143,45.0
32.245,-1.197,3.955,45.0
32.101,-1.184,3.752,26.0
24.799,-0.909,2.759,28.0
24.748,-0.902,2.613,16.0
32.349,-1.177,4.334,64.0
39.153,-1.415,5.022,3.0
39.071,-1.403,4.79,53.0
39.051,-1.394,4.562,27.0
24.836,-0.881,2.76,42.0
24.814,-0.875,2.618,1.0
32.333,-1.137,4.328,38.0
39.089,-1.366,5.01,26.0
36.814,-1.278,4.508,2.0
25.021,-0.863,2.919,9.0
24.845,-0.852,2.758,43.0
40.284,-1.372,4.244,2.0
32.351,-1.099,4.326,4.0
25.219,-0.851,3.228,9.0
36.837,-1.235,4.505,2.0
25.011,-0.833,2.914,19.0
24.862,-0.822,2.755,43.0
51.228,-1.684,5.387,5.0
25.239,-0.827,3.369,47.0
25.226,-0.82,3.223,54.0
25.226,-0.815,3.079,28.0
25.023,-0.803,2.909,18.0
44.276,-1.411,4.897,5.0
40.246,-1.274,4.223,4.0
25.248,-0.796,3.364,78.0
25.238,-0.79,3.219,44.0
25.222,-0.784,3.072,38.0
24.944,-0.77,2.893,19.0
36.708,-1.126,4.049,3.0
44.493,-1.355,4.656,4.0
32.833,-0.996,4.366,2.0
44.858,-1.351,5.707,4.0
25.176,-0.752,3.059,27.0
24.822,-0.736,2.871,26.0
40.158,-1.183,4.417,6.0
44.474,-1.301,4.639,23.0
36.329,-1.057,4.818,3.0
47.647,-1.377,6.045,33.0
25.146,-0.721,3.046,24.0
24.821,-0.707,2.862,44.0
41.152,-1.163,4.511,2.0
52.452,-1.471,5.451,11.0
36.368,-1.014,4.809,2.0
25.27,-0.7,3.196,5.0
25.173,-0.692,3.039,28.0
24.83,-0.677,2.853,41.0
41.011,-1.109,4.478,8.0
47.341,-1.271,4.9,34.0
0.0,0.0,0.0,0.0
25.248,-0.668,3.182,29.0
24.995,-0.656,3.007,14.0
24.828,-0.647,2.841,14.0
40.903,-1.057,4.448,6.0
54.498,-1.398,5.615,5.0
36.51,-0.93,4.794,2.0
25.263,-0.638,3.172,31.0
24.814,-0.622,2.972,35.0
44.148,-1.098,5.031,36.0
51.723,-1.275,5.598,25.0
51.763,-1.266,5.307,11.0
36.775,-0.893,4.809,9.0
25.249,-0.608,3.156,11.0
24.808,-0.592,2.958,49.0
44.298,-1.049,5.024,18.0
44.649,-1.048,4.808,55.0
53.949,-1.255,5.501,8.0
36.829,-0.85,4.795,23.0
44.355,-1.015,5.519,5.0
24.818,-0.563,2.945,30.0
44.224,-0.994,4.99,5.0
51.975,-1.159,5.566,11.0
44.606,-0.986,4.521,44.0
44.729,-0.979,5.797,13.0
24.773,-0.537,3.067,48.0
24.823,-0.533,2.93,14.0
40.501,-0.863,4.543,2.0
44.567,-0.941,4.744,7.0
31.527,-0.659,3.175,39.0
51.236,-0.183,5.763,11.0
52.145,-0.179,5.56,12.0
30.982,-0.102,3.122,4.0
31.034,-0.099,2.944,16.0
40.426,-0.124,3.6,9.0
42.895,-0.126,3.571,5.0
52.117,-0.139,5.791,15.0
42.869,-0.109,4.512,3.0
30.959,-0.075,3.078,40.0
52.393,-0.121,4.899,6.0
40.406,-0.088,3.543,13.0
42.965,-0.089,3.518,9.0
42.624,-0.076,4.677,4.0
52.038,-0.087,5.405,18.0
30.965,-0.048,3.035,40.0
52.271,-0.075,4.814,2.0
44.347,-0.058,3.826,8.0
53.005,-0.064,4.265,12.0
36.398,-0.033,3.941,13.0
30.875,-0.025,3.162,14.0
30.986,-0.021,2.992,5.0
51.157,-0.03,4.638,7.0
42.649,-0.02,3.618,3.0
52.9,-0.02,4.18,26.0
36.224,-0.003,3.869,6.0
30.879,0.0,3.117,41.0
44.804,0.005,4.261,2.0
40.415,0.009,3.604,10.0
53.67,0.017,4.474,22.0
43.883,0.018,3.402,5.0
30.745,0.021,3.238,35.0
52.351,0.042,5.207,7.0
52.108,0.047,4.878,5.0
40.4,0.04,3.542,13.0
53.19,0.059,4.353,27.0
45.695,0.055,3.474,3.0
30.774,0.045,3.193,41.0
45.596,0.072,4.465,20.0
44.975,0.076,4.141,1.0
44.415,0.079,3.825,1.0
52.625,0.098,4.225,16.0
45.63,0.089,3.399,33.0
30.904,0.069,3.158,32.0
45.827,0.107,4.415,21.0
53.836,0.131,4.872,8.0
53.632,0.135,4.534,27.0
43.629,0.113,3.434,8.0
45.585,0.123,3.323,59.0
30.983,0.092,3.117,53.0
45.752,0.139,4.335,30.0
53.705,0.169,4.774,8.0
45.785,0.147,3.798,15.0
0.0,0.0,0.0,0.0
45.568,0.154,3.249,49.0
30.974,0.113,3.066,15.0
45.734,0.171,4.259,31.0
40.405,0.154,3.526,15.0
45.763,0.178,3.722,67.0
0.0,0.0,0.0,0.0
58.633,0.238,4.084,23.0
58.586,0.253,5.701,8.0
45.814,0.201,4.189,3.0
45.313,0.203,3.878,48.0
45.512,0.207,3.624,50.0
45.637,0.211,3.368,53.0
0.0,0.0,0.0,0.0
60.645,0.301,5.799,9.0
53.734,0.27,4.823,17.0
45.757,0.234,3.839,43.0
45.49,0.235,3.546,52.0
60.385,0.316,4.355,55.0
104.715,0.556,6.943,23.0
53.556,0.298,5.03,44.0
45.76,0.257,4.029,5.0
45.432,0.259,3.734,51.0
60.432,0.348,4.608,58.0
58.632,0.341,4.128,54.0
46.248,0.272,2.987,51.0
53.868,0.331,4.965,19.0
45.25,0.28,3.905,38.0
45.44,0.284,3.655,68.0
103.617,0.655,7.72,13.0
103.782,0.662,7.126,8.0
67.178,0.432,4.221,27.0
45.741,0.305,4.135,32.0
45.321,0.305,3.831,44.0
43.593,0.296,3.43,7.0
58.555,0.4,4.258,25.0
46.27,0.319,3.094,6.0
59.415,0.413,3.627,42.0
40.417,0.29,3.581,65.0
45.405,0.328,3.757,62.0
101.491,0.739,7.803,16.0
58.593,0.429,4.156,29.0
46.253,0.341,3.011,54.0
59.482,0.442,3.525,5.0
44.997,0.344,3.905,8.0
52.611,0.405,4.258,8.0
58.493,0.453,4.391,39.0
67.206,0.524,4.644,40.0
59.38,0.465,3.756,27.0
101.236,0.797,5.813,20.0
45.158,0.366,3.836,64.0
43.551,0.354,3.444,7.0
58.644,0.479,4.293,45.0
46.269,0.38,3.112,28.0
59.467,0.491,3.652,38.0
67.042,0.555,3.726,25.0
52.611,0.447,4.371,15.0
58.394,0.498,4.509,32.0
67.285,0.577,4.801,16.0
46.268,0.398,3.026,27.0
119.269,1.03,7.104,8.0
66.585,0.577,3.576,43.0
52.605,0.467,4.271,19.0
58.643,0.522,4.417,53.0
67.206,0.6,4.668,8.0
59.428,0.532,3.774,62.0
101.139,0.909,5.832,17.0
65.893,0.594,3.414,37.0
58.303,0.537,4.622,23.0
67.399,0.623,4.947,7.0
46.272,0.428,3.125,47.0
59.618,0.553,3.672,14.0
67.036,0.623,3.738,39.0
65.95,0.615,3.292,7.0
58.604,0.557,4.534,29.0
67.199,0.64,4.805,14.0
59.352,0.566,3.896,34.0
104.751,1.002,6.253,4.0
66.108,0.633,3.559,35.0
102.106,0.979,4.902,17.0
43.647,0.426,3.293,1.0
46.306,0.453,3.221,4.0
59.539,0.583,3.793,62.0
67.134,0.658,3.878,8.0
66.005,0.648,3.426,30.0
111.682,1.098,5.144,20.0
67.197,0.672,4.937,22.0
46.29,0.463,3.13,50.0
59.662,0.597,3.684,8.0
67.075,0.672,3.742,40.0
102.12,1.024,5.1,18.0
117.078,1.175,5.165,22.0
101.051,1.03,7.225,15.0
59.394,0.605,3.897,62.0
101.606,1.036,6.074,20.0
66.048,0.673,3.555,31.0
111.618,1.138,5.355,6.0
126.532,1.29,5.33,17.0
46.318,0.479,3.22,16.0
59.636,0.616,3.795,42.0
67.108,0.693,3.878,13.0
66.01,0.682,3.421,17.0
111.611,1.152,5.133,27.0
126.649,1.307,5.084,22.0
59.36,0.621,4.007,15.0
101.67,1.063,6.267,16.0
67.073,0.7,3.74,38.0
102.069,1.065,5.085,19.0
110.34,1.15,4.853,14.0
132.511,1.379,5.055,8.0
59.513,0.627,3.899,47.0
104.592,1.101,6.238,6.0
66.021,0.694,3.55,29.0
111.544,1.17,5.335,23.0
126.546,1.326,5.311,19.0
103.953,1.088,3.756,30.0
59.665,0.631,3.787,29.0
67.131,0.709,3.867,20.0
66.014,0.696,3.416,8.0
111.596,1.174,5.111,25.0
132.596,1.392,5.296,11.0
103.013,1.08,3.514,19.0
101.684,1.076,6.248,12.0
67.025,0.707,3.725,42.0
102.082,1.075,5.076,15.0
110.308,1.159,4.829,15.0
104.004,1.09,3.947,12.0
117.914,1.233,3.785,15.0
104.637,1.104,6.217,4.0
66.024,0.694,3.535,30.0
111.573,1.171,5.321,23.0
126.526,1.323,5.28,24.0
103.951,1.084,3.731,27.0
20.27,0.21,0.609,12.0
67.11,0.703,3.849,27.0
102.055,1.066,5.255,15.0
111.588,1.161,5.092,24.0
132.593,1.374,5.26,16.0
102.97,1.064,3.484,18.0
20.263,0.208,0.567,21.0
66.991,0.694,3.703,37.0
102.107,1.054,5.046,13.0
110.361,1.135,4.808,18.0
103.999,1.065,3.911,14.0
20.292,0.206,0.644,1.0
20.268,0.205,0.525,30.0
66.011,0.674,3.512,32.0
111.708,1.136,5.288,11.0
126.54,1.281,5.248,21.0
103.904,1.046,3.692,24.0
20.269,0.203,0.602,14.0
20.269,0.202,0.483,30.0
66.003,0.662,3.375,7.0
111.65,1.114,5.055,24.0
126.687,1.257,4.995,27.0
102.979,1.016,3.448,18.0
20.252,0.198,0.559,25.0
20.267,0.197,0.441,33.0
102.081,1.0,5.009,21.0
110.404,1.076,4.772,19.0
126.824,1.229,4.738,6.0
20.273,0.195,0.636,5.0
20.262,0.193,0.518,31.0
20.275,0.192,0.4,29.0
