X,Y,Z,Reflectivity
20.116,-0.312,-0.035,18.0
59.487,-0.945,-0.421,7.0
176.615,-2.852,3.645,61.0
176.653,-2.911,2.705,43.0
20.123,-0.338,0.2,0.0
20.126,-0.344,0.091,9.0
20.126,-0.351,-0.015,24.0
52.928,-0.941,-0.322,54.0
193.261,-3.489,4.181,19.0
193.127,-3.548,3.149,6.0
52.997,-0.991,0.582,20.0
52.938,-1.006,0.294,61.0
52.938,-1.024,0.012,68.0
45.604,-0.896,-0.231,15.0
38.413,-0.765,0.87,7.0
38.396,-0.777,0.665,11.0
38.376,-0.789,0.461,40.0
38.373,-0.801,0.253,40.0
38.38,-0.813,0.049,9.0
40.432,-0.87,-0.162,23.0
40.415,-0.88,0.958,37.0
40.396,-0.892,0.743,45.0
40.41,-0.905,0.528,45.0
40.418,-0.918,0.31,43.0
40.408,-0.931,0.095,38.0
40.418,-0.944,-0.118,37.0
38.734,-0.914,0.96,35.0
40.441,-0.967,0.787,27.0
40.441,-0.979,0.573,26.0
38.729,-0.95,0.339,14.0
38.734,-0.962,0.134,18.0
38.71,-0.974,-0.071,32.0
38.643,-0.982,1.001,65.0
38.671,-0.994,0.796,49.0
38.665,-1.005,0.591,60.0
38.632,-1.017,0.382,60.0
38.648,-1.029,0.177,64.0
38.646,-1.041,-0.027,62.0
38.637,-1.05,1.044,89.0
38.634,-1.062,0.84,75.0
38.623,-1.073,0.635,69.0
38.638,-1.086,0.426,86.0
38.655,-1.098,0.222,94.0
38.649,-1.109,0.017,76.0
38.604,-1.117,1.089,82.0
38.633,-1.13,0.885,100.0
38.646,-1.141,0.681,83.0
38.615,-1.152,0.472,67.0
38.64,-1.164,0.268,67.0
38.648,-1.176,0.064,56.0
38.605,-1.183,1.135,62.0
38.627,-1.196,0.931,67.0
38.634,-1.208,0.727,64.0
38.658,-1.22,0.519,50.0
38.685,-1.232,0.315,52.0
38.713,-1.244,0.111,37.0
38.656,-1.251,1.184,50.0
38.664,-1.262,0.98,46.0
38.719,-1.276,0.776,11.0
84.467,-2.808,1.24,18.0
83.275,-2.792,0.783,12.0
80.485,-2.722,0.331,29.0
31.342,-1.067,0.999,34.0
31.359,-1.076,0.834,32.0
31.396,-1.086,0.669,8.0
31.364,-1.094,0.499,2.0
83.887,-2.95,0.894,26.0
80.399,-2.85,0.432,18.0
31.272,-1.115,1.036,45.0
31.292,-1.124,0.871,49.0
31.299,-1.133,0.707,47.0
31.267,-1.141,0.538,45.0
31.284,-1.15,0.373,43.0
31.271,-1.159,0.208,36.0
31.267,-1.165,1.077,65.0
31.257,-1.173,0.911,48.0
31.251,-1.182,0.747,36.0
28.43,-1.083,0.526,33.0
28.464,-1.092,0.377,62.0
28.454,-1.099,0.227,66.0
28.442,-1.105,1.016,70.0
28.435,-1.112,0.866,75.0
28.428,-1.119,0.717,86.0
28.447,-1.128,0.564,150.0
28.439,-1.135,0.414,150.0
28.451,-1.143,0.265,150.0
28.435,-1.148,1.054,113.0
28.429,-1.155,0.904,109.0
28.428,-1.163,0.755,103.0
28.428,-1.17,0.602,103.0
28.436,-1.178,0.453,103.0
28.438,-1.186,0.304,99.0
28.439,-1.192,1.094,60.0
28.438,-1.199,0.944,58.0
28.447,-1.207,0.794,60.0
28.451,-1.214,0.642,59.0
28.463,-1.222,0.493,59.0
28.47,-1.23,0.343,51.0
31.382,-1.362,1.25,0.0
166.03,-7.246,5.743,9.0
85.628,-3.759,2.512,8.0
31.347,-1.384,0.752,3.0
31.309,-1.39,0.586,25.0
31.274,-1.396,0.421,29.0
159.665,-7.162,6.59,31.0
166.008,-7.487,5.978,16.0
85.846,-3.893,2.64,14.0
85.064,-3.877,2.161,29.0
85.027,-3.897,1.713,28.0
83.191,-3.833,1.24,20.0
86.351,-3.995,3.686,12.0
86.154,-4.006,3.225,9.0
85.6,-4.001,2.755,23.0
84.894,-3.988,2.278,35.0
84.569,-3.993,1.825,40.0
83.338,-3.955,1.361,4.0
85.719,-4.083,3.783,19.0
86.256,-4.129,3.354,18.0
85.568,-4.117,2.878,34.0
84.936,-4.105,2.402,34.0
84.652,-4.111,1.95,38.0
86.055,-4.2,1.532,11.0
85.277,-4.177,3.888,35.0
86.35,-4.249,3.483,37.0
85.193,-4.211,2.99,32.0
84.935,-4.217,2.526,32.0
84.691,-4.224,2.076,39.0
85.849,-4.302,1.655,36.0
84.052,-4.228,3.957,29.0
86.17,-4.352,3.604,31.0
85.123,-4.318,3.113,26.0
84.681,-4.314,2.645,26.0
84.727,-4.334,2.202,34.0
84.986,-4.366,1.764,39.0
28.386,-1.463,1.378,16.0
83.946,-4.346,3.637,22.0
83.692,-4.35,3.186,26.0
84.449,-4.408,2.764,35.0
84.507,-4.429,2.324,43.0
84.127,-4.427,1.873,36.0
28.415,-1.5,1.423,66.0
83.443,-4.423,3.741,31.0
83.682,-4.452,3.313,37.0
83.858,-4.479,2.872,33.0
84.128,-4.511,2.442,43.0
83.669,-4.503,1.99,34.0
28.417,-1.534,1.466,72.0
83.574,-4.529,3.874,35.0
83.577,-4.545,3.436,32.0
83.537,-4.56,2.989,47.0
84.091,-4.607,2.568,47.0
83.592,-4.595,2.116,42.0
28.423,-1.568,1.51,68.0
83.783,-4.638,4.014,23.0
24.628,-1.368,1.051,5.0
24.61,-1.371,0.919,3.0
24.608,-1.376,0.79,15.0
24.621,-1.381,0.662,11.0
24.515,-1.38,1.341,39.0
24.543,-1.386,1.214,24.0
24.57,-1.392,1.086,40.0
24.531,-1.394,0.954,26.0
24.562,-1.4,0.827,39.0
24.585,-1.406,0.699,42.0
24.461,-1.403,1.376,78.0
24.507,-1.41,1.25,48.0
24.515,-1.415,1.122,44.0
24.51,-1.419,0.991,39.0
24.53,-1.424,0.864,49.0
24.57,-1.431,0.737,70.0
24.425,-1.427,1.413,50.0
24.467,-1.433,1.287,67.0
24.495,-1.439,1.16,51.0
24.513,-1.444,1.03,41.0
24.496,-1.447,0.901,51.0
24.531,-1.453,0.774,59.0
24.404,-1.45,1.45,45.0
24.435,-1.456,1.324,50.0
24.475,-1.462,1.198,50.0
24.497,-1.467,1.068,38.0
24.483,-1.47,0.94,41.0
24.51,-1.476,0.813,76.0
24.398,-1.473,1.488,42.0
24.425,-1.478,1.362,74.0
24.458,-1.484,1.236,73.0
24.45,-1.487,1.105,46.0
24.465,-1.492,0.978,64.0
24.48,-1.496,0.85,60.0
24.396,-1.496,1.527,33.0
24.411,-1.5,1.4,52.0
24.459,-1.506,1.275,95.0
24.444,-1.509,1.144,54.0
24.456,-1.513,1.016,46.0
24.463,-1.517,0.889,65.0
24.396,-1.517,1.567,47.0
24.403,-1.521,1.439,34.0
24.436,-1.526,1.313,62.0
24.463,-1.531,1.184,71.0
24.457,-1.534,1.056,65.0
24.454,-1.537,0.928,68.0
24.4,-1.538,1.606,31.0
24.406,-1.541,1.478,35.0
24.428,-1.546,1.352,49.0
24.473,-1.552,1.224,86.0
24.468,-1.554,1.096,30.0
24.458,-1.557,0.967,55.0
24.396,-1.557,1.645,60.0
24.419,-1.562,1.519,34.0
24.424,-1.565,1.391,74.0
24.477,-1.571,1.263,83.0
24.483,-1.574,1.135,34.0
24.465,-1.576,1.007,53.0
24.364,-1.574,1.683,47.0
24.417,-1.58,1.558,52.0
24.423,-1.583,1.43,68.0
24.461,-1.588,1.302,66.0
24.49,-1.592,1.175,69.0
24.467,-1.593,1.046,38.0
24.346,-1.59,1.721,36.0
24.434,-1.598,1.599,73.0
24.435,-1.601,1.471,63.0
24.462,-1.605,1.342,70.0
24.473,-1.608,1.214,52.0
24.489,-1.612,1.087,34.0
24.321,-1.605,1.758,29.0
24.43,-1.614,1.638,56.0
24.443,-1.617,1.51,64.0
24.453,-1.62,1.38,64.0
24.49,-1.625,1.254,58.0
24.494,-1.627,1.126,38.0
24.324,-1.621,1.798,38.0
24.429,-1.63,1.677,43.0
24.451,-1.633,1.551,71.0
24.451,-1.635,1.42,51.0
24.488,-1.639,1.294,42.0
24.51,-1.643,1.167,30.0
24.302,-1.634,1.836,53.0
24.409,-1.642,1.715,42.0
24.454,-1.647,1.59,51.0
24.451,-1.649,1.459,56.0
24.495,-1.653,1.333,42.0
24.519,-1.657,1.206,27.0
24.28,-1.646,1.873,53.0
24.382,-1.654,1.753,30.0
24.48,-1.662,1.631,41.0
24.464,-1.662,1.5,55.0
24.497,-1.666,1.373,51.0
24.537,-1.671,1.247,14.0
24.27,-1.657,1.912,47.0
24.364,-1.665,1.791,39.0
24.491,-1.675,1.671,37.0
24.476,-1.675,1.54,33.0
24.476,-1.676,1.411,41.0
24.551,-1.683,1.287,2.0
24.26,-1.668,1.95,32.0
24.319,-1.673,1.827,42.0
24.47,-1.684,1.709,30.0
24.468,-1.685,1.578,24.0
24.466,-1.686,1.45,42.0
24.518,-1.691,1.324,3.0
24.309,-1.681,1.993,23.0
24.278,-1.68,1.863,40.0
24.461,-1.693,1.748,29.0
24.49,-1.696,1.619,23.0
24.464,-1.696,1.488,23.0
24.495,-1.699,1.362,14.0
24.586,-1.71,2.055,21.0
24.241,-1.687,1.898,40.0
24.453,-1.702,1.786,28.0
24.516,-1.707,1.659,14.0
24.525,-1.708,1.531,12.0
24.489,-1.706,1.4,20.0
24.742,-1.729,2.108,30.0
24.223,-1.693,1.935,36.0
24.398,-1.706,1.821,21.0
24.517,-1.715,1.698,16.0
24.54,-1.717,1.571,16.0
24.5,-1.714,1.439,15.0
24.807,-1.741,2.153,33.0
24.214,-1.699,1.973,27.0
24.303,-1.706,1.852,27.0
24.533,-1.722,1.738,21.0
24.55,-1.724,1.61,12.0
24.575,-1.726,1.482,15.0
24.817,-1.748,2.192,28.0
24.36,-1.716,2.023,18.0
24.253,-1.708,1.886,40.0
24.516,-1.727,1.775,24.0
60.011,-4.227,4.028,2.0
24.594,-1.732,1.521,4.0
24.844,-1.755,2.234,28.0
24.697,-1.744,2.09,18.0
24.22,-1.71,1.921,41.0
24.489,-1.729,1.811,26.0
24.599,-1.737,1.689,1.0
24.585,-1.736,1.558,13.0
24.882,-1.762,2.275,28.0
24.786,-1.755,2.135,17.0
24.206,-1.713,1.957,37.0
24.404,-1.726,1.842,21.0
24.596,-1.74,1.726,14.0
24.578,-1.738,1.595,17.0
24.913,-1.767,2.316,10.0
24.818,-1.76,2.176,21.0
24.228,-1.717,1.996,24.0
24.248,-1.718,1.866,28.0
24.561,-1.74,1.76,14.0
24.564,-1.739,1.631,3.0
24.929,-1.77,2.355,0.0
24.834,-1.763,2.214,21.0
24.473,-1.736,2.052,16.0
24.228,-1.718,1.901,38.0
24.536,-1.739,1.795,23.0
59.966,-4.249,4.071,4.0
52.361,-3.721,5.027,3.0
24.864,-1.766,2.254,26.0
24.755,-1.757,2.113,12.0
24.212,-1.717,1.936,41.0
24.483,-1.735,1.828,24.0
24.602,-1.743,1.706,3.0
30.997,-2.202,3.022,0.0
24.887,-1.767,2.293,17.0
24.813,-1.76,2.155,18.0
24.222,-1.717,1.972,32.0
24.327,-1.724,1.852,24.0
24.581,-1.74,1.741,15.0
31.031,-2.204,3.071,6.0
24.922,-1.768,2.333,3.0
24.822,-1.76,2.192,23.0
24.273,-1.719,2.012,19.0
24.252,-1.716,1.882,38.0
24.534,-1.735,1.773,21.0
31.015,-2.2,3.114,46.0
24.966,-1.769,2.374,1.0
24.842,-1.759,2.23,25.0
24.632,-1.742,2.077,17.0
24.218,-1.711,1.913,41.0
24.502,-1.73,1.806,26.0
31.015,-2.196,3.159,27.0
25.011,-1.769,2.413,0.0
24.861,-1.757,2.266,28.0
24.767,-1.748,2.123,24.0
24.226,-1.708,1.948,36.0
24.403,-1.719,1.833,20.0
38.962,-2.753,4.023,8.0
31.034,-2.19,3.038,5.0
24.886,-1.754,2.304,26.0
24.776,-1.744,2.158,27.0
24.224,-1.703,1.981,23.0
24.286,-1.706,1.857,34.0
38.969,-2.745,4.079,5.0
31.012,-2.182,3.079,32.0
24.935,-1.752,2.342,18.0
24.797,-1.74,2.194,29.0
24.493,-1.717,2.037,17.0
24.255,-1.698,1.888,38.0
36.286,-2.547,3.847,3.0
31.028,-2.175,3.123,9.0
24.955,-1.747,2.378,27.0
24.857,-1.738,2.233,34.0
24.74,-1.727,2.09,30.0
24.237,-1.69,1.918,38.0
30.401,-2.126,3.264,21.0
25.016,-1.747,2.551,5.0
24.979,-1.741,2.413,38.0
24.88,-1.732,2.268,35.0
24.768,-1.722,2.125,38.0
24.235,-1.682,1.95,29.0
30.429,-2.118,3.307,63.0
25.02,-1.739,2.584,11.0
24.999,-1.734,2.448,45.0
24.894,-1.724,2.301,29.0
24.784,-1.714,2.158,46.0
24.347,-1.681,1.99,21.0
30.401,-2.105,3.343,34.0
25.01,-1.729,2.615,17.0
24.995,-1.725,2.479,57.0
24.961,-1.72,2.339,38.0
24.815,-1.707,2.192,42.0
24.632,-1.691,2.044,18.0
36.963,-2.545,4.112,7.0
25.019,-1.72,2.648,27.0
25.007,-1.716,2.512,63.0
24.976,-1.71,2.372,48.0
24.814,-1.696,2.223,28.0
24.752,-1.689,2.085,29.0
36.983,-2.531,4.16,3.0
25.059,-1.711,2.683,39.0
24.999,-1.704,2.542,64.0
24.98,-1.699,2.402,46.0
24.87,-1.688,2.258,16.0
24.772,-1.679,2.116,43.0
32.058,-2.179,3.645,29.0
25.055,-1.699,2.713,41.0
25.007,-1.693,2.572,60.0
24.993,-1.688,2.433,33.0
31.057,-2.094,2.856,21.0
24.792,-1.668,2.147,52.0
32.006,-2.159,3.676,33.0
25.032,-1.685,2.739,24.0
25.03,-1.681,2.604,53.0
24.989,-1.675,2.462,21.0
31.047,-2.077,2.891,33.0
24.815,-1.656,2.177,39.0
31.96,-2.139,3.708,26.0
36.957,-2.468,4.087,4.0
25.056,-1.669,2.635,41.0
25.026,-1.663,2.494,3.0
52.943,-3.512,4.99,4.0
28.431,-1.882,2.526,37.0
31.947,-2.12,3.743,47.0
30.256,-2.003,3.38,16.0
25.039,-1.654,2.661,29.0
38.925,-2.565,3.922,1.0
47.641,-3.132,4.542,1.0
28.431,-1.864,2.557,42.0
31.96,-2.101,3.779,74.0
30.238,-1.983,3.41,44.0
25.072,-1.64,2.691,29.0
30.445,-1.987,3.1,10.0
47.545,-3.096,4.583,8.0
28.418,-1.846,2.585,15.0
0.0,0.0,0.0,0.0
30.221,-1.963,3.44,47.0
25.096,-1.626,2.72,38.0
30.432,-1.967,3.129,57.0
47.527,-3.064,4.629,2.0
45.141,-2.903,4.152,7.0
30.119,-1.941,3.624,28.0
30.213,-1.942,3.47,43.0
25.116,-1.61,2.747,37.0
30.432,-1.946,3.16,72.0
30.485,-1.944,3.0,29.0
45.323,-2.883,4.214,3.0
30.12,-1.92,3.654,31.0
30.201,-1.92,3.498,34.0
25.146,-1.594,2.775,38.0
30.417,-1.923,3.188,65.0
30.49,-1.922,3.029,48.0
45.408,-2.855,4.265,2.0
30.107,-1.897,3.681,12.0
30.182,-1.897,3.524,41.0
25.168,-1.577,2.801,38.0
30.393,-1.898,3.214,43.0
30.464,-1.898,3.055,64.0
47.471,-2.948,4.502,5.0
30.081,-1.873,3.706,14.0
30.157,-1.872,3.549,45.0
25.172,-1.557,2.824,29.0
30.453,-1.879,3.247,18.0
30.481,-1.875,3.083,62.0
47.5,-2.913,4.546,7.0
30.064,-1.848,3.73,53.0
30.12,-1.845,3.571,37.0
25.191,-1.538,2.848,27.0
31.699,-1.93,3.407,46.0
30.456,-1.849,3.107,41.0
30.488,-1.845,2.944,13.0
30.046,-1.822,3.753,66.0
30.117,-1.821,3.596,20.0
25.223,-1.519,2.873,26.0
31.753,-1.907,3.439,57.0
30.795,-1.843,3.167,33.0
30.48,-1.819,2.968,29.0
30.059,-1.797,3.78,51.0
33.339,-1.987,4.008,1.0
25.25,-1.5,2.896,28.0
31.75,-1.879,3.464,40.0
31.608,-1.865,3.275,40.0
30.491,-1.793,2.992,57.0
36.807,-2.169,4.656,3.0
33.371,-1.959,4.037,10.0
25.276,-1.479,2.918,10.0
40.202,-2.344,4.416,4.0
31.726,-1.843,3.31,57.0
30.495,-1.766,3.015,62.0
38.47,-2.232,4.895,4.0
33.245,-1.922,4.046,9.0
25.386,-1.462,2.949,11.0
25.299,-1.452,2.796,14.0
31.734,-1.815,3.333,18.0
30.502,-1.738,3.036,47.0
38.423,-2.194,4.916,45.0
36.985,-2.103,4.526,7.0
25.421,-1.441,2.97,23.0
25.324,-1.429,2.816,10.0
36.86,-2.074,3.896,6.0
31.035,-1.74,3.109,41.0
0.0,0.0,0.0,0.0
37.027,-2.071,4.555,10.0
25.45,-1.418,2.99,33.0
52.593,-2.919,5.882,8.0
36.986,-2.045,3.932,11.0
31.603,-1.741,3.185,32.0
44.364,-2.448,5.732,2.0
38.473,-2.114,4.756,43.0
25.465,-1.394,3.006,43.0
58.761,-3.204,6.606,19.0
46.091,-2.504,4.926,5.0
31.672,-1.714,3.21,4.0
51.897,-2.812,6.734,6.0
39.209,-2.116,4.869,6.0
25.475,-1.369,3.021,44.0
47.031,-2.518,5.312,7.0
36.921,-1.968,3.966,7.0
24.013,-1.275,2.446,14.0
25.551,-1.359,3.329,4.0
25.499,-1.35,3.179,26.0
25.46,-1.342,3.033,31.0
46.566,-2.446,5.283,2.0
23.95,-1.252,2.584,9.0
24.003,-1.25,2.457,37.0
25.552,-1.332,3.341,47.0
25.506,-1.324,3.192,54.0
25.482,-1.317,3.047,18.0
38.559,-1.984,4.392,49.0
23.929,-1.226,2.592,33.0
24.001,-1.225,2.467,40.0
25.56,-1.305,3.354,44.0
25.512,-1.297,3.204,15.0
33.803,-1.712,4.057,1.0
23.823,-1.201,2.723,18.0
23.879,-1.198,2.597,27.0
23.997,-1.199,2.476,38.0
37.161,-1.859,4.89,4.0
39.967,-1.99,5.035,4.0
23.734,-1.176,2.857,19.0
23.811,-1.175,2.731,49.0
23.879,-1.173,2.605,43.0
24.004,-1.174,2.485,52.0
0.0,0.0,0.0,0.0
40.074,-1.952,5.063,3.0
23.7,-1.149,2.861,18.0
23.81,-1.148,2.738,54.0
23.868,-1.146,2.612,26.0
37.085,-1.773,3.851,6.0
23.852,-1.141,3.155,2.0
23.708,-1.128,3.002,13.0
23.686,-1.121,2.866,38.0
23.813,-1.122,2.745,37.0
59.993,-2.815,6.582,21.0
46.357,-2.165,4.827,5.0
23.865,-1.114,3.163,32.0
23.718,-1.102,3.009,48.0
23.685,-1.095,2.872,36.0
23.808,-1.095,2.751,3.0
52.123,-2.387,5.73,10.0
59.957,-2.732,6.256,10.0
23.858,-1.087,3.167,83.0
23.829,-1.08,3.028,53.0
23.711,-1.069,2.88,23.0
40.452,-1.815,4.682,2.0
37.08,-1.656,4.083,29.0
37.133,-1.65,3.881,8.0
23.842,-1.059,3.169,39.0
23.853,-1.054,3.035,29.0
39.419,-1.733,4.794,5.0
47.34,-2.07,5.486,31.0
31.832,-1.385,3.51,1.0
31.837,-1.378,3.332,3.0
36.917,-1.597,4.912,14.0
39.361,-1.693,5.014,15.0
39.373,-1.685,4.793,8.0
48.917,-2.083,5.673,6.0
46.525,-1.97,5.134,20.0
24.701,-1.04,2.587,26.0
23.659,-0.996,3.149,28.0
36.775,-1.539,4.687,2.0
39.33,-1.637,4.79,4.0
28.394,-1.176,3.295,39.0
28.41,-1.17,3.136,52.0
24.704,-1.012,2.588,37.0
28.41,-1.162,3.783,26.0
28.404,-1.155,3.621,51.0
28.392,-1.148,3.458,76.0
28.4,-1.142,3.296,104.0
28.397,-1.136,3.135,51.0
24.703,-0.983,2.588,37.0
28.385,-1.127,3.78,76.0
28.386,-1.121,3.618,96.0
28.386,-1.115,3.457,95.0
28.395,-1.109,3.294,97.0
24.775,-0.962,2.734,32.0
24.712,-0.953,2.588,37.0
28.397,-1.094,3.779,65.0
28.41,-1.088,3.619,61.0
28.407,-1.081,3.458,57.0
28.391,-1.074,3.292,28.0
24.785,-0.932,2.733,44.0
24.73,-0.925,2.587,34.0
32.326,-1.206,4.299,29.0
32.296,-1.198,4.111,64.0
32.232,-1.188,3.919,30.0
32.066,-1.175,3.714,9.0
24.815,-0.904,2.733,34.0
24.761,-0.896,2.587,6.0
32.349,-1.168,4.298,68.0
38.734,-1.39,4.925,36.0
39.059,-1.393,4.743,26.0
24.935,-0.884,2.884,16.0
24.827,-0.874,2.73,39.0
43.723,-1.531,4.561,5.0
39.129,-1.366,5.191,35.0
39.082,-1.355,4.961,25.0
43.824,-1.51,5.313,9.0
24.929,-0.853,2.877,16.0
24.827,-0.844,2.725,27.0
51.472,-1.74,5.357,2.0
0.0,0.0,0.0,0.0
25.237,-0.844,3.197,14.0
44.253,-1.471,5.353,18.0
24.922,-0.823,2.87,21.0
44.256,-1.452,4.845,10.0
51.292,-1.673,5.324,4.0
25.243,-0.82,3.335,71.0
25.229,-0.813,3.189,61.0
25.174,-0.806,3.038,20.0
24.855,-0.791,2.855,25.0
24.93,-0.787,2.721,1.0
51.829,-1.627,5.363,2.0
25.249,-0.789,3.328,62.0
25.238,-0.783,3.181,48.0
25.141,-0.775,3.025,23.0
24.848,-0.76,2.845,53.0
44.437,-1.351,4.835,38.0
44.46,-1.342,4.584,5.0
32.846,-0.987,4.316,2.0
25.249,-0.753,3.173,14.0
25.176,-0.745,3.019,19.0
24.844,-0.73,2.835,50.0
45.463,-1.327,4.928,2.0
57.9,-1.678,5.946,10.0
32.976,-0.95,4.319,5.0
47.7,-1.365,5.974,14.0
44.476,-1.263,5.314,7.0
24.809,-0.699,2.819,30.0
45.516,-1.273,4.913,2.0
54.665,-1.517,5.589,5.0
33.062,-0.912,4.315,6.0
25.253,-0.691,3.15,32.0
44.748,-1.216,5.325,9.0
24.839,-0.669,2.811,17.0
45.442,-1.216,4.882,1.0
47.293,-1.256,4.811,15.0
33.856,-0.893,4.401,11.0
25.248,-0.661,3.136,41.0
24.82,-0.644,2.94,53.0
44.509,-1.147,5.013,8.0
47.131,-1.205,5.038,9.0
58.011,-1.472,5.87,5.0
36.88,-0.929,4.773,20.0
24.974,-0.624,3.088,22.0
24.821,-0.615,2.926,57.0
44.303,-1.089,4.964,41.0
51.721,-1.261,5.499,20.0
58.197,-1.407,5.854,4.0
36.886,-0.884,4.752,6.0
24.798,-0.589,3.051,23.0
24.815,-0.585,2.91,19.0
44.573,-1.042,4.966,24.0
44.623,-1.034,4.716,58.0
44.381,-1.02,4.436,14.0
44.229,-1.008,5.669,10.0
24.78,-0.56,3.032,45.0
40.18,-0.9,4.685,6.0
51.965,-1.154,5.755,13.0
44.635,-0.981,4.687,14.0
31.48,-0.687,3.125,36.0
24.775,-0.535,3.158,5.0
24.779,-0.53,3.015,59.0
40.355,-0.856,4.677,17.0
51.858,-1.091,5.706,5.0
44.425,-0.926,4.633,29.0
31.491,-0.65,3.103,39.0
24.775,-0.506,3.139,84.0
24.812,-0.502,3.0,28.0
40.338,-0.809,4.645,4.0
40.378,-0.802,4.412,11.0
31.612,-0.622,3.272,34.0
31.554,-0.615,3.085,13.0
24.768,-0.477,3.119,49.0
40.619,-0.775,4.88,19.0
40.315,-0.762,4.61,3.0
44.797,-0.838,4.859,16.0
31.62,-0.585,3.248,32.0
37.706,-0.691,3.656,31.0
41.116,-0.744,5.144,5.0
37.555,-0.673,4.48,2.0
43.829,-0.777,4.975,17.0
31.776,-0.558,3.42,18.0
31.694,-0.55,3.228,4.0
37.7,-0.648,3.623,50.0
40.546,-0.688,5.037,9.0
37.56,-0.63,4.448,29.0
37.615,-0.624,4.236,12.0
31.76,-0.521,3.39,34.0
37.63,-0.612,3.799,43.0
28.331,-0.455,2.697,3.0
37.697,-0.596,4.648,64.0
37.652,-0.589,4.424,41.0
37.608,-0.582,4.2,62.0
37.656,-0.576,3.984,6.0
37.648,-0.569,3.766,29.0
28.309,-0.423,2.668,8.0
46.64,-0.686,5.707,4.0
37.54,-0.546,4.375,17.0
45.384,-0.652,5.025,1.0
37.646,-0.535,3.947,30.0
55.056,-0.773,5.454,7.0
43.366,-0.602,4.045,5.0
46.616,-0.634,5.657,6.0
54.211,-0.729,6.263,7.0
54.223,-0.72,5.949,17.0
54.217,-0.71,5.629,10.0
54.23,-0.702,5.317,53.0
54.259,-0.694,5.006,22.0
46.57,-0.583,5.602,9.0
53.632,-0.662,6.14,14.0
31.857,-0.388,3.461,65.0
43.394,-0.522,4.459,2.0
43.622,-0.517,4.23,3.0
31.152,-0.364,2.841,43.0
37.521,-0.429,4.473,27.0
31.841,-0.359,3.61,8.0
31.851,-0.354,3.426,29.0
51.09,-0.56,5.194,2.0
47.238,-0.51,4.528,24.0
31.152,-0.331,2.806,42.0
36.43,-0.378,4.301,14.0
31.813,-0.325,3.571,50.0
0.0,0.0,0.0,0.0
47.304,-0.469,4.755,17.0
47.016,-0.459,4.453,39.0
38.679,-0.372,3.44,50.0
47.547,-0.445,5.559,12.0
31.836,-0.293,3.536,61.0
52.206,-0.473,5.495,59.0
47.02,-0.419,4.671,59.0
31.086,-0.272,2.908,41.0
38.568,-0.332,3.384,51.0
37.196,-0.31,4.304,4.0
47.099,-0.385,5.175,12.0
47.067,-0.378,4.897,4.0
38.854,-0.307,3.812,42.0
38.771,-0.3,3.579,2.0
52.335,-0.398,4.528,16.0
31.863,-0.233,3.647,48.0
38.877,-0.279,4.222,66.0
38.903,-0.274,3.998,48.0
38.852,-0.268,3.763,36.0
31.1,-0.21,2.831,2.0
42.188,-0.28,3.596,3.0
31.863,-0.202,3.606,34.0
39.043,-0.243,4.19,49.0
38.906,-0.237,3.948,57.0
31.016,-0.184,2.964,37.0
38.551,-0.224,3.46,34.0
57.953,-0.33,4.866,17.0
39.089,-0.211,4.372,55.0
42.978,-0.226,4.556,5.0
51.204,-0.263,5.129,10.0
31.037,-0.155,2.925,35.0
38.585,-0.188,3.412,28.0
57.831,-0.275,4.778,9.0
37.003,-0.165,4.088,3.0
51.255,-0.222,5.363,45.0
52.094,-0.219,5.147,10.0
42.94,-0.175,3.987,4.0
57.942,-0.23,5.044,11.0
43.051,-0.165,3.498,8.0
42.76,-0.152,4.664,3.0
52.243,-0.18,5.393,36.0
30.999,-0.102,3.019,56.0
44.743,-0.143,4.092,3.0
57.898,-0.178,4.959,14.0
38.564,-0.114,3.079,11.0
52.211,-0.14,5.621,32.0
30.963,-0.079,3.152,5.0
31.004,-0.075,2.975,21.0
57.862,-0.134,5.209,27.0
42.825,-0.094,3.606,6.0
53.041,-0.111,4.158,26.0
42.7,-0.077,4.534,3.0
30.927,-0.052,3.103,26.0
52.367,-0.083,4.948,13.0
40.403,-0.06,3.577,12.0
53.719,-0.073,4.444,5.0
53.609,-0.068,4.123,43.0
46.008,-0.045,4.816,6.0
30.948,-0.027,3.058,40.0
44.803,-0.034,4.165,3.0
44.346,-0.029,3.86,5.0
53.616,-0.03,4.355,26.0
68.303,-0.031,5.15,27.0
30.807,-0.005,3.177,34.0
30.937,-0.002,3.01,1.0
51.165,0.0,4.679,5.0
42.664,0.005,3.647,2.0
52.796,0.011,4.207,26.0
101.493,0.031,7.496,18.0
30.853,0.018,3.134,42.0
42.412,0.029,4.059,1.0
40.389,0.031,3.629,3.0
53.668,0.047,4.503,51.0
43.84,0.043,3.423,16.0
45.576,0.049,3.293,3.0
45.797,0.061,4.578,8.0
53.327,0.076,5.019,27.0
40.406,0.061,3.567,15.0
53.345,0.086,4.391,27.0
0.0,0.0,0.0,0.0
45.523,0.081,3.217,60.0
45.769,0.094,4.501,12.0
53.702,0.115,4.966,2.0
40.446,0.09,3.503,2.0
52.629,0.122,4.246,21.0
45.594,0.109,3.412,50.0
45.515,0.113,3.141,35.0
45.829,0.126,4.431,15.0
51.058,0.145,4.637,8.0
53.693,0.156,4.562,7.0
45.73,0.137,3.613,8.0
45.592,0.14,3.336,69.0
58.632,0.185,3.949,42.0
45.789,0.156,4.349,17.0
53.514,0.187,4.77,25.0
45.77,0.163,3.812,40.0
0.0,0.0,0.0,0.0
45.569,0.169,3.257,37.0
60.299,0.228,3.96,39.0
45.695,0.184,4.262,7.0
0.0,0.0,0.0,0.0
45.758,0.191,3.732,72.0
0.0,0.0,0.0,0.0
58.614,0.253,4.089,23.0
46.211,0.203,2.954,30.0
53.635,0.249,4.909,28.0
45.358,0.213,3.886,58.0
45.475,0.216,3.629,56.0
45.645,0.221,3.371,51.0
0.0,0.0,0.0,0.0
67.151,0.333,4.176,20.0
53.759,0.28,4.825,12.0
45.76,0.241,3.839,26.0
0.0,0.0,0.0,0.0
0.0,0.0,0.0,0.0
104.207,0.567,6.902,25.0
67.189,0.37,4.059,15.0
45.737,0.262,4.023,9.0
45.438,0.263,3.73,59.0
60.432,0.354,4.607,48.0
58.616,0.346,4.12,39.0
46.236,0.275,2.979,53.0
59.476,0.357,3.485,19.0
45.2,0.282,3.893,31.0
45.45,0.286,3.648,59.0
103.633,0.657,7.711,14.0
103.885,0.664,7.111,7.0
67.178,0.432,4.206,27.0
101.133,0.656,5.743,6.0
45.377,0.304,3.825,54.0
67.305,0.454,5.279,25.0
58.578,0.398,4.251,26.0
46.256,0.316,3.081,15.0
59.416,0.409,3.612,47.0
66.961,0.463,3.679,28.0
45.418,0.324,3.744,66.0
101.456,0.728,7.77,19.0
58.62,0.423,4.145,23.0
46.251,0.335,2.995,48.0
59.54,0.434,3.507,3.0
66.943,0.491,3.552,19.0
45.495,0.343,3.664,2.0
58.505,0.443,4.369,38.0
67.216,0.511,4.627,36.0
59.379,0.453,3.733,26.0
101.184,0.776,5.77,15.0
65.844,0.507,3.37,36.0
43.585,0.344,3.428,5.0
58.599,0.465,4.264,38.0
46.272,0.368,3.096,43.0
59.474,0.475,3.626,31.0
67.01,0.537,3.694,31.0
65.867,0.529,3.246,27.0
58.432,0.48,4.483,29.0
67.228,0.554,4.764,18.0
59.342,0.491,3.857,16.0
103.743,0.86,6.125,5.0
66.337,0.551,3.529,43.0
102.105,0.851,4.835,26.0
58.636,0.499,4.386,62.0
67.21,0.573,4.633,14.0
59.398,0.507,3.746,63.0
67.062,0.574,3.83,5.0
65.853,0.565,3.376,40.0
102.07,0.878,4.637,5.0
67.398,0.591,4.909,7.0
46.281,0.406,3.1,53.0
59.595,0.524,3.642,13.0
67.034,0.59,3.697,42.0
65.892,0.581,3.248,7.0
111.7,0.986,4.855,22.0
67.2,0.604,4.762,23.0
59.367,0.534,3.858,27.0
101.216,0.911,5.984,35.0
65.915,0.593,3.504,39.0
102.14,0.921,4.834,16.0
110.343,0.995,4.578,21.0
46.294,0.424,3.188,10.0
59.535,0.546,3.751,56.0
67.101,0.616,3.835,11.0
65.919,0.604,3.375,33.0
111.651,1.024,5.065,10.0
126.496,1.161,5.0,21.0
46.288,0.431,3.096,48.0
101.291,0.943,6.18,17.0
66.741,0.621,3.681,42.0
102.087,0.95,5.023,21.0
111.603,1.038,4.839,24.0
126.634,1.177,4.75,11.0
59.403,0.56,3.853,59.0
101.235,0.953,5.974,7.0
65.877,0.619,3.501,39.0
102.16,0.96,4.822,7.0
110.346,1.035,4.562,21.0
103.836,0.973,3.686,26.0
59.582,0.565,3.743,28.0
67.095,0.636,3.821,24.0
65.96,0.624,3.371,23.0
111.629,1.055,5.04,29.0
126.571,1.194,4.974,30.0
103.497,0.974,3.463,24.0
101.294,0.965,6.157,11.0
66.547,0.633,3.654,44.0
102.085,0.968,5.007,28.0
110.466,1.045,4.76,21.0
126.743,1.197,4.719,9.0
20.282,0.191,0.637,4.0
101.068,0.962,5.935,5.0
65.916,0.626,3.484,41.0
102.082,0.967,4.797,4.0
110.381,1.042,4.53,15.0
103.838,0.978,3.654,29.0
20.271,0.19,0.594,16.0
67.077,0.636,3.8,29.0
65.954,0.623,3.35,15.0
111.635,1.051,5.016,30.0
126.598,1.188,4.936,29.0
103.307,0.966,3.423,27.0
20.26,0.188,0.552,26.0
66.367,0.623,3.622,45.0
102.099,0.956,4.975,28.0
110.607,1.031,4.743,21.0
150.3,1.396,5.551,8.0
20.277,0.187,0.63,8.0
20.267,0.186,0.511,32.0
65.908,0.611,3.462,37.0
102.104,0.943,4.765,2.0
110.342,1.014,4.504,16.0
103.813,0.95,3.619,43.0
20.256,0.184,0.588,15.0
20.27,0.183,0.47,30.0
65.905,0.601,3.325,12.0
111.662,1.013,4.979,20.0
117.315,1.059,4.546,22.0
103.604,0.93,3.398,41.0
20.264,0.181,0.546,25.0
20.278,0.18,0.428,29.0
102.115,0.911,4.939,19.0
111.536,0.989,4.742,20.0
150.294,1.325,5.509,18.0
20.268,0.177,0.622,13.0
20.262,0.176,0.503,29.0
20.267,0.175,0.385,26.0
102.084,0.887,4.726,6.0
0.0,0.0,0.0,0.0
103.797,0.89,3.588,15.0
20.244,0.172,0.579,14.0
20.253,0.171,0.461,25.0
20.249,0.17,0.343,25.0
102.007,0.859,4.51,27.0
111.757,0.934,4.287,15.0
103.72,0.86,3.37,22.0
20.213,0.166,0.536,18.0
20.231,0.165,0.418,26.0
20.213,0.163,0.3,25.0
102.034,0.827,4.296,20.0
126.387,1.015,4.582,41.0
20.247,0.161,0.615,11.0
20.158,0.159,0.492,18.0
20.186,0.158,0.375,23.0
20.183,0.156,0.257,22.0
110.319,0.855,4.413,18.0
125.742,0.966,4.296,29.0
20.182,0.153,0.571,15.0
20.167,0.151,0.45,21.0
20.181,0.15,0.333,24.0
20.181,0.149,0.215,22.0
111.712,0.823,4.237,26.0
20.254,0.147,0.649,3.0
20.168,0.145,0.528,18.0
20.155,0.143,0.408,24.0
20.171,0.142,0.291,24.0
20.181,0.14,0.173,24.0
111.723,0.775,4.003,22.0
20.203,0.138,0.605,12.0
20.152,0.136,0.486,20.0
20.159,0.134,0.366,24.0
20.167,0.133,0.249,25.0
20.188,0.131,0.131,25.0
142.233,0.92,4.798,16.0
20.177,0.128,0.562,18.0
20.159,0.126,0.444,24.0
20.156,0.125,0.324,26.0
20.164,0.123,0.206,24.0
20.196,0.121,0.088,33.0
20.225,0.12,0.639,9.0
20.164,0.118,0.52,20.0
20.164,0.116,0.402,27.0
20.153,0.114,0.282,28.0
20.162,0.112,0.165,26.0
20.188,0.11,0.047,38.0
20.187,0.109,0.597,18.0
20.161,0.107,0.478,26.0
20.15,0.105,0.361,27.0
20.147,0.103,0.241,27.0
20.174,0.101,0.123,24.0
20.171,0.099,0.006,26.0
20.188,0.098,0.555,26.0
20.161,0.095,0.437,28.0
20.147,0.093,0.319,27.0
20.146,0.091,0.199,27.0
20.185,0.089,0.082,35.0
20.187,0.087,-0.035,31.0
20.165,0.085,0.513,25.0
20.16,0.083,0.395,27.0
20.148,0.081,0.278,26.0
20.151,0.078,0.158,25.0
20.203,0.076,0.041,32.0
20.194,0.074,-0.076,28.0
20.155,0.072,0.472,29.0
20.146,0.07,0.354,27.0
20.145,0.067,0.237,27.0
20.144,0.065,0.117,27.0
20.206,0.063,0.0,33.0
20.205,0.06,-0.118,25.0
20.149,0.058,0.431,32.0
20.14,0.056,0.313,27.0
20.142,0.053,0.195,28.0
20.154,0.051,0.076,18.0
20.197,0.049,-0.04,17.0
20.227,0.046,-0.159,17.0
20.138,0.044,0.39,28.0
20.142,0.041,0.273,29.0
20.138,0.039,0.155,26.0
20.285,0.036,0.036,11.0
20.27,0.034,-0.081,150.0
20.249,0.031,-0.199,150.0
20.131,0.029,0.35,28.0
20.128,0.026,0.232,27.0
20.131,0.023,0.115,29.0
20.236,0.021,-0.004,151.0
20.257,0.018,-0.122,151.0
20.266,0.015,-0.24,150.0
20.134,0.013,0.309,28.0
20.13,0.01,0.192,27.0
20.205,0.007,0.075,72.0
20.256,0.004,-0.044,150.0
20.269,0.002,-0.162,68.0
20.232,0.0,-0.28,10.0
20.128,-0.003,0.27,27.0
20.134,-0.006,0.152,28.0
20.178,-0.009,0.035,14.0
20.175,-0.011,-0.084,15.0
20.192,-0.014,-0.201,3.0
20.209,-0.017,-0.319,0.0
20.122,-0.02,0.23,31.0
20.126,-0.023,0.113,38.0
20.132,-0.026,-0.003,29.0
20.159,-0.029,-0.123,27.0
20.139,-0.032,-0.24,18.0
20.179,-0.035,-0.358,2.0
20.12,-0.038,0.191,42.0
20.135,-0.041,0.074,42.0
20.148,-0.044,-0.042,30.0
20.147,-0.047,-0.162,30.0
20.168,-0.05,-0.279,26.0
20.175,-0.054,-0.397,12.0
20.12,-0.057,0.152,34.0
20.126,-0.06,0.035,34.0
20.142,-0.063,-0.081,31.0
20.129,-0.066,-0.201,17.0
20.164,-0.069,-0.318,26.0
20.176,-0.073,-0.436,23.0
20.129,-0.076,0.114,42.0
20.135,-0.079,-0.003,30.0
20.139,-0.083,-0.12,33.0
20.127,-0.086,-0.239,34.0
20.153,-0.089,-0.357,25.0
20.187,-0.093,-0.475,27.0
20.134,-0.096,0.076,39.0
20.159,-0.099,-0.041,29.0
20.146,-0.103,-0.158,29.0
20.127,-0.106,-0.277,35.0
20.152,-0.109,-0.395,39.0
20.189,-0.113,-0.513,26.0
20.143,-0.117,0.038,29.0
20.161,-0.12,-0.078,26.0
20.14,-0.123,-0.196,13.0
20.141,-0.127,-0.315,34.0
20.15,-0.13,-0.432,36.0
20.193,-0.134,-0.551,30.0
20.196,-0.138,0.001,26.0
20.156,-0.141,-0.116,19.0
20.144,-0.145,-0.233,27.0
20.149,-0.149,-0.352,29.0
20.185,-0.152,-0.47,28.0
20.2,-0.156,-0.588,36.0
20.21,-0.16,-0.035,6.0
20.172,-0.163,-0.153,9.0
20.16,-0.167,-0.269,24.0
20.169,-0.171,-0.389,28.0
20.169,-0.174,-0.506,35.0
20.21,-0.178,-0.625,36.0
53.318,-0.482,-0.19,1.0
52.776,-0.487,-0.495,5.0
20.176,-0.19,-0.306,6.0
20.184,-0.193,-0.426,26.0
20.188,-0.197,-0.543,38.0
20.209,-0.202,-0.661,37.0
56.447,-0.576,-0.304,0.0
45.178,-0.469,-0.505,19.0
37.918,-0.401,-0.644,31.0
20.184,-0.217,-0.462,10.0
20.196,-0.221,-0.579,28.0
20.207,-0.225,-0.697,36.0
59.549,-0.677,-0.425,2.0
44.778,-0.517,-0.579,24.0
35.969,-0.422,-0.673,4.0
30.097,-0.359,-0.741,5.0
20.211,-0.245,-0.615,25.0
20.214,-0.249,-0.732,36.0
52.907,-0.664,-0.468,12.0
38.863,-0.495,-0.569,14.0
32.034,-0.415,-0.655,9.0
28.675,-0.377,-0.755,2.0
20.209,-0.27,-0.65,9.0
20.236,-0.274,-0.768,29.0
45.329,-0.625,-0.478,11.0
37.992,-0.531,-0.621,27.0
31.049,-0.44,-0.688,27.0
27.505,-0.396,-0.771,2.0
26.935,-0.393,-0.912,1.0
20.224,-0.299,-0.802,14.0
44.936,-0.676,-0.55,28.0
37.923,-0.578,-0.684,2.0
30.185,-0.466,-0.719,25.0
26.413,-0.413,-0.785,2.0
25.835,-0.41,-0.918,0.0
20.253,-0.326,-0.837,1.0
38.751,-0.632,-0.539,12.0
31.545,-0.521,-0.621,9.0
0.0,0.0,0.0,0.0
25.39,-0.43,-0.797,3.0
24.64,-0.423,-0.916,0.0
21.46,-0.373,-0.923,7.0
38.133,-0.672,-0.592,22.0
30.858,-0.55,-0.658,31.0
28.127,-0.508,-0.763,2.0
24.202,-0.442,-0.799,1.0
23.621,-0.437,-0.917,0.0
0.0,0.0,0.0,0.0
37.702,-0.715,-0.646,13.0
30.49,-0.585,-0.699,28.0
27.129,-0.527,-0.779,1.0
23.036,-0.452,-0.797,1.0
22.738,-0.452,-0.919,0.0
0.0,0.0,0.0,0.0
31.489,-0.64,-0.59,11.0
29.559,-0.607,-0.724,9.0
25.5,-0.53,-0.773,1.0
22.023,-0.463,-0.797,2.0
21.837,-0.464,-0.917,1.0
38.44,-0.826,-1.837,0.0
30.958,-0.672,-0.627,31.0
28.273,-0.62,-0.737,3.0
23.896,-0.53,-0.761,5.0
21.268,-0.476,-0.802,1.0
21.059,-0.477,-0.916,0.0
20.919,-0.479,-1.031,0.0
30.562,-0.706,-0.666,35.0
25.346,-0.592,-0.698,3.0
23.685,-0.559,-0.79,7.0
20.61,-0.491,-0.808,1.0
20.379,-0.49,-0.917,0.0
20.179,-0.49,-1.025,0.0
30.411,-0.746,-0.707,24.0
24.858,-0.616,-0.722,13.0
22.359,-0.559,-0.778,1.0
19.995,-0.505,-0.813,1.0
19.797,-0.505,-0.92,0.0
19.657,-0.506,-1.027,0.0
0.0,0.0,0.0,0.0
24.111,-0.632,-0.735,22.0
21.586,-0.571,-0.783,0.0
19.32,-0.516,-0.814,1.0
19.179,-0.517,-0.919,0.0
19.04,-0.518,-1.022,0.0
28.166,-0.773,-0.736,1.0
23.772,-0.658,-0.758,17.0
20.829,-0.582,-0.784,0.0
18.767,-0.529,-0.817,0.0
18.521,-0.527,-0.913,0.0
18.524,-0.532,-1.02,0.0
25.354,-0.734,-0.697,1.0
23.553,-0.687,-0.783,5.0
20.396,-0.6,-0.796,2.0
18.17,-0.54,-0.816,0.0
17.96,-0.538,-0.91,0.0
17.786,-0.538,-1.004,0.0
24.656,-0.751,-0.712,16.0
22.267,-0.684,-0.771,1.0
19.815,-0.614,-0.8,3.0
17.691,-0.553,-0.818,0.0
17.405,-0.548,-0.905,0.0
17.304,-0.55,-1.0,0.0
24.154,-0.773,-0.729,23.0
21.781,-0.702,-0.783,1.0
19.42,-0.631,-0.81,3.0
17.179,-0.563,-0.817,0.0
16.943,-0.56,-0.903,0.0
16.698,-0.556,-0.987,0.0
23.802,-0.798,-0.748,16.0
20.962,-0.708,-0.78,0.0
18.705,-0.637,-0.803,3.0
16.839,-0.578,-0.822,0.0
16.408,-0.567,-0.895,0.0
16.144,-0.562,-0.974,0.0
23.429,-0.821,-0.765,6.0
20.413,-0.721,-0.784,0.0
18.375,-0.654,-0.812,1.0
16.312,-0.585,-0.816,0.0
16.139,-0.583,-0.9,1.0
16.006,-0.583,-0.985,0.0
22.439,-0.822,-0.76,1.0
19.898,-0.734,-0.788,0.0
17.793,-0.661,-0.807,0.0
16.163,-0.605,-0.828,1.0
16.011,-0.604,-0.912,0.0
15.865,-0.603,-0.995,0.0
21.926,-0.837,-0.768,3.0
19.499,-0.75,-0.795,0.0
17.272,-0.669,-0.803,2.0
15.981,-0.623,-0.837,1.0
15.907,-0.625,-0.924,0.0
14.883,-0.589,-0.95,0.0
21.358,-0.85,-0.772,1.0
18.815,-0.754,-0.788,0.0
16.934,-0.683,-0.806,1.0
15.832,-0.643,-0.846,1.0
15.806,-0.646,-0.936,0.0
14.59,-0.601,-0.948,0.0
20.699,-0.857,-0.771,2.0
18.479,-0.77,-0.794,0.0
16.718,-0.701,-0.814,2.0
15.727,-0.664,-0.858,1.0
15.717,-0.668,-0.947,0.0
14.468,-0.619,-0.955,0.0
20.28,-0.872,-0.776,0.0
18.127,-0.784,-0.798,0.0
16.311,-0.711,-0.811,2.0
15.633,-0.685,-0.869,1.0
15.586,-0.688,-0.955,0.0
14.275,-0.634,-0.957,0.0
19.866,-0.886,-0.781,0.0
17.678,-0.794,-0.796,1.0
16.189,-0.732,-0.821,2.0
15.526,-0.706,-0.878,1.0
15.512,-0.71,-0.966,0.0
14.069,-0.648,-0.957,0.0
19.477,-0.901,-0.784,0.0
17.342,-0.807,-0.797,0.0
16.041,-0.751,-0.829,1.0
15.427,-0.727,-0.887,1.0
15.405,-0.73,-0.974,0.0
13.834,-0.66,-0.954,0.0
19.046,-0.912,-0.784,0.0
17.043,-0.821,-0.799,0.0
15.833,-0.767,-0.833,0.0
15.337,-0.748,-0.896,1.0
15.195,-0.745,-0.975,0.0
13.685,-0.675,-0.956,0.0
18.607,-0.921,-0.783,0.0
16.712,-0.832,-0.798,1.0
15.594,-0.781,-0.834,0.0
15.261,-0.769,-0.905,1.0
14.894,-0.755,-0.968,0.0
13.607,-0.694,-0.963,0.0
18.385,-0.941,-0.789,0.0
16.536,-0.851,-0.804,1.0
15.399,-0.797,-0.836,0.0
15.187,-0.791,-0.913,0.0
14.672,-0.768,-0.966,0.0
13.414,-0.707,-0.96,0.0
18.04,-0.953,-0.789,0.0
16.367,-0.87,-0.809,1.0
15.286,-0.817,-0.843,0.0
15.098,-0.811,-0.92,1.0
14.642,-0.791,-0.976,0.0
13.276,-0.722,-0.961,0.0
17.662,-0.962,-0.786,0.0
16.165,-0.886,-0.811,0.0
15.196,-0.837,-0.849,0.0
15.034,-0.833,-0.927,1.0
14.689,-0.818,-0.99,0.0
13.182,-0.738,-0.963,0.0
17.492,-0.982,-0.791,0.0
15.987,-0.903,-0.814,0.0
15.038,-0.853,-0.851,0.0
14.973,-0.854,-0.934,1.0
14.246,-0.817,-0.97,0.0
13.059,-0.753,-0.963,0.0
17.252,-0.997,-0.792,0.0
15.863,-0.922,-0.818,0.0
14.95,-0.873,-0.856,1.0
14.902,-0.875,-0.939,1.0
14.15,-0.836,-0.973,0.0
12.962,-0.769,-0.965,0.0
17.083,-1.016,-0.795,0.0
15.771,-0.943,-0.823,1.0
14.885,-0.894,-0.862,1.0
14.859,-0.897,-0.946,1.0
13.928,-0.845,-0.966,0.0
12.844,-0.784,-0.964,0.0
16.944,-1.036,-0.798,1.0
15.643,-0.961,-0.826,1.0
14.805,-0.914,-0.866,1.0
14.778,-0.917,-0.949,1.0
13.842,-0.863,-0.968,0.0
12.729,-0.798,-0.963,0.0
16.711,-1.049,-0.797,0.0
15.522,-0.979,-0.828,1.0
14.733,-0.934,-0.869,1.0
14.713,-0.937,-0.953,1.0
13.703,-0.877,-0.965,0.0
12.681,-0.816,-0.966,0.0
16.527,-1.065,-0.797,1.0
15.402,-0.997,-0.829,1.0
14.688,-0.955,-0.874,1.0
14.657,-0.958,-0.957,1.0
13.926,-0.915,-0.988,0.0
12.613,-0.832,-0.966,0.0
16.392,-1.083,-0.798,1.0
15.338,-1.018,-0.833,1.0
14.627,-0.976,-0.877,1.0
14.606,-0.979,-0.96,1.0
14.408,-0.97,-1.029,0.0
12.558,-0.849,-0.968,0.0
16.275,-1.102,-0.799,1.0
15.319,-1.042,-0.839,1.0
14.562,-0.995,-0.879,1.0
14.533,-0.998,-0.961,1.0
14.304,-0.987,-1.027,0.0
12.522,-0.868,-0.97,0.0
16.193,-1.123,-0.801,1.0
15.208,-1.059,-0.838,1.0
14.5,-1.015,-0.881,1.0
14.469,-1.017,-0.962,1.0
14.432,-1.019,-1.042,0.0
12.453,-0.883,-0.969,0.0
16.118,-1.144,-0.803,1.0
15.118,-1.078,-0.839,1.0
14.436,-1.034,-0.882,1.0
14.407,-1.036,-0.963,1.0
14.219,-1.027,-1.031,0.0
12.397,-0.899,-0.969,0.0
16.096,-1.168,-0.807,1.0
15.053,-1.097,-0.839,1.0
14.393,-1.054,-0.883,1.0
14.371,-1.057,-0.965,1.0
13.804,-1.019,-1.005,0.0
12.4,-0.92,-0.972,0.0
15.955,-1.184,-0.804,1.0
14.963,-1.115,-0.838,1.0
14.345,-1.073,-0.884,1.0
14.325,-1.076,-0.965,1.0
13.681,-1.032,-0.999,0.0
12.351,-0.936,-0.971,0.0
15.868,-1.203,-0.803,1.0
14.885,-1.133,-0.837,1.0
14.284,-1.092,-0.883,1.0
14.26,-1.094,-0.964,1.0
13.313,-1.026,-0.974,0.0
12.275,-0.95,-0.968,0.0
15.813,-1.224,-0.803,1.0
14.873,-1.156,-0.839,0.0
14.24,-1.111,-0.883,1.0
14.182,-1.111,-0.961,1.0
13.135,-1.033,-0.963,0.0
12.25,-0.967,-0.968,0.0
15.8,-1.247,-0.805,1.0
14.85,-1.177,-0.839,1.0
14.185,-1.129,-0.881,1.0
14.166,-1.132,-0.961,1.0
13.225,-1.061,-0.972,0.0
12.23,-0.985,-0.967,0.0
15.796,-1.272,-0.806,1.0
14.785,-1.195,-0.837,0.0
14.137,-1.147,-0.88,1.0
14.117,-1.15,-0.959,1.0
13.183,-1.078,-0.969,0.0
12.241,-1.005,-0.969,0.0
15.773,-1.294,-0.806,1.0
14.714,-1.212,-0.834,0.0
14.113,-1.167,-0.879,1.0
14.077,-1.168,-0.957,1.0
13.199,-1.099,-0.971,0.0
12.223,-1.022,-0.968,0.0
15.757,-1.317,-0.805,1.0
14.714,-1.235,-0.834,0.0
14.059,-1.184,-0.875,1.0
14.04,-1.187,-0.954,1.0
13.148,-1.115,-0.967,0.0
12.269,-1.045,-0.971,0.0
15.739,-1.34,-0.804,1.0
14.709,-1.256,-0.833,1.0
14.02,-1.202,-0.872,1.0
14.012,-1.206,-0.952,1.0
13.173,-1.137,-0.968,0.0
12.241,-1.061,-0.968,0.0
15.765,-1.366,-0.804,1.0
14.785,-1.285,-0.836,1.0
13.986,-1.22,-0.869,1.0
13.963,-1.222,-0.947,1.0
13.228,-1.162,-0.971,0.0
12.25,-1.08,-0.968,0.0
15.805,-1.393,-0.805,1.0
14.723,-1.302,-0.831,1.0
13.947,-1.237,-0.865,1.0
13.925,-1.239,-0.943,1.0
13.251,-1.183,-0.971,0.0
12.304,-1.103,-0.97,0.0
15.809,-1.416,-0.802,1.0
14.674,-1.318,-0.826,1.0
13.916,-1.254,-0.861,1.0
13.892,-1.256,-0.938,1.0
13.328,-1.209,-0.974,0.0
12.333,-1.123,-0.97,0.0
15.821,-1.44,-0.8,1.0
14.734,-1.345,-0.827,0.0
13.875,-1.271,-0.856,1.0
13.867,-1.274,-0.934,1.0
13.332,-1.229,-0.972,0.0
12.331,-1.14,-0.967,0.0
15.857,-1.465,-0.798,1.0
14.858,-1.377,-0.83,0.0
13.865,-1.289,-0.852,0.0
13.818,-1.289,-0.927,1.0
13.462,-1.26,-0.978,0.0
12.392,-1.163,-0.969,0.0
15.939,-1.495,-0.798,1.0
14.932,-1.405,-0.83,1.0
13.898,-1.311,-0.85,0.0
13.789,-1.305,-0.921,1.0
13.706,-1.301,-0.992,0.0
12.56,-1.196,-0.979,0.0
15.991,-1.522,-0.796,1.0
14.955,-1.427,-0.827,1.0
13.954,-1.336,-0.849,0.0
13.76,-1.321,-0.915,1.0
13.578,-1.308,-0.978,1.0
12.56,-1.213,-0.974,0.0
16.085,-1.552,-0.795,1.0
15.025,-1.454,-0.826,1.0
13.993,-1.358,-0.846,0.0
13.721,-1.335,-0.907,1.0
13.576,-1.325,-0.973,1.0
12.647,-1.238,-0.976,0.0
16.14,-1.579,-0.792,1.0
15.068,-1.478,-0.823,1.0
14.018,-1.379,-0.843,0.0
13.699,-1.351,-0.901,1.0
13.602,-1.345,-0.969,2.0
12.799,-1.27,-0.983,0.0
16.206,-1.606,-0.789,1.0
15.137,-1.504,-0.82,2.0
14.095,-1.404,-0.841,0.0
13.659,-1.364,-0.892,1.0
13.582,-1.36,-0.962,2.0
12.871,-1.293,-0.983,0.0
16.3,-1.636,-0.786,1.0
15.194,-1.529,-0.816,1.0
14.211,-1.434,-0.842,1.0
13.645,-1.38,-0.885,1.0
13.604,-1.38,-0.957,1.0
12.961,-1.318,-0.984,0.0
16.383,-1.664,-0.782,1.0
15.253,-1.553,-0.812,1.0
14.25,-1.455,-0.837,1.0
13.61,-1.393,-0.876,1.0
13.592,-1.395,-0.949,1.0
13.011,-1.339,-0.981,0.0
16.502,-1.696,-0.78,1.0
15.34,-1.58,-0.809,1.0
14.334,-1.48,-0.834,1.0
13.588,-1.407,-0.867,1.0
13.579,-1.409,-0.941,1.0
13.142,-1.368,-0.983,0.0
16.643,-1.73,-0.777,1.0
15.428,-1.607,-0.805,0.0
14.434,-1.508,-0.832,0.0
13.573,-1.421,-0.858,1.0
13.557,-1.423,-0.932,1.0
13.424,-1.412,-0.997,1.0
16.872,-1.773,-0.778,1.0
15.558,-1.638,-0.803,1.0
14.544,-1.535,-0.83,1.0
13.61,-1.44,-0.853,0.0
13.523,-1.434,-0.921,1.0
13.462,-1.431,-0.991,0.0
17.016,-1.807,-0.774,0.0
15.686,-1.67,-0.799,1.0
14.652,-1.563,-0.827,0.0
13.707,-1.465,-0.85,0.0
13.492,-1.446,-0.911,1.0
13.503,-1.45,-0.985,0.0
17.186,-1.843,-0.771,1.0
15.853,-1.704,-0.798,1.0
14.776,-1.592,-0.824,1.0
13.836,-1.494,-0.849,0.0
13.47,-1.457,-0.9,1.0
13.483,-1.462,-0.975,1.0
17.444,-1.889,-0.771,1.0
16.011,-1.737,-0.795,1.0
14.971,-1.628,-0.825,1.0
13.926,-1.518,-0.845,0.0
13.465,-1.47,-0.89,1.0
13.437,-1.47,-0.962,2.0
17.682,-1.933,-0.769,1.0
16.133,-1.767,-0.789,1.0
15.04,-1.65,-0.818,1.0
14.065,-1.547,-0.843,1.0
13.461,-1.483,-0.88,1.0
13.377,-1.477,-0.948,8.0
17.997,-1.985,-0.769,1.0
16.265,-1.797,-0.784,1.0
15.155,-1.678,-0.813,1.0
14.162,-1.571,-0.838,1.0
13.435,-1.493,-0.868,1.0
13.369,-1.489,-0.937,13.0
18.174,-2.021,-0.763,2.0
16.478,-1.836,-0.781,1.0
15.263,-1.704,-0.806,1.0
14.285,-1.597,-0.834,1.0
13.455,-1.507,-0.859,1.0
13.365,-1.5,-0.926,9.0
18.447,-2.068,-0.76,1.0
16.699,-1.875,-0.778,1.0
15.452,-1.738,-0.804,1.0
14.423,-1.626,-0.83,1.0
13.574,-1.533,-0.855,0.0
13.357,-1.511,-0.915,4.0
18.84,-2.129,-0.761,1.0
16.963,-1.92,-0.777,1.0
15.608,-1.769,-0.799,1.0
14.6,-1.658,-0.829,0.0
13.742,-1.563,-0.855,0.0
13.367,-1.523,-0.904,2.0
19.115,-2.175,-0.755,1.0
17.16,-1.956,-0.771,1.0
15.813,-1.805,-0.796,0.0
14.758,-1.687,-0.825,1.0
13.823,-1.583,-0.848,0.0
13.36,-1.533,-0.892,2.0
19.443,-2.228,-0.751,1.0
17.386,-1.995,-0.766,0.0
16.013,-1.84,-0.792,1.0
14.949,-1.721,-0.822,1.0
13.946,-1.608,-0.843,1.0
13.348,-1.541,-0.879,2.0
19.818,-2.286,-0.748,1.0
17.738,-2.049,-0.766,0.0
16.194,-1.873,-0.787,1.0
15.087,-1.747,-0.816,1.0
14.1,-1.635,-0.839,1.0
13.354,-1.551,-0.867,1.0
20.183,-2.342,-0.744,1.0
17.996,-2.091,-0.76,0.0
16.396,-1.908,-0.781,1.0
15.241,-1.776,-0.81,1.0
14.238,-1.661,-0.834,1.0
13.405,-1.566,-0.858,0.0
20.542,-2.397,-0.737,2.0
18.534,-2.166,-0.765,0.0
16.7,-1.954,-0.78,1.0
15.401,-1.804,-0.804,1.0
14.381,-1.687,-0.828,0.0
13.602,-1.598,-0.857,0.0
20.999,-2.464,-0.733,4.0
18.832,-2.212,-0.759,2.0
16.941,-1.992,-0.775,1.0
15.528,-1.828,-0.795,1.0
14.625,-1.724,-0.828,0.0
13.708,-1.618,-0.85,0.0
21.505,-2.536,-0.73,4.0
19.179,-2.264,-0.754,2.0
17.257,-2.039,-0.772,1.0
15.815,-1.871,-0.794,1.0
14.866,-1.761,-0.827,1.0
13.892,-1.647,-0.848,0.0
21.892,-2.593,-0.721,4.0
19.559,-2.319,-0.75,1.0
17.545,-2.082,-0.767,1.0
16.022,-1.904,-0.788,1.0
14.982,-1.782,-0.818,1.0
14.035,-1.671,-0.842,1.0
22.358,-2.659,-0.714,4.0
19.946,-2.375,-0.744,1.0
17.887,-2.131,-0.764,1.0
16.287,-1.943,-0.785,1.0
15.162,-1.81,-0.812,1.0
14.154,-1.692,-0.835,1.0
22.92,-2.737,-0.708,4.0
20.383,-2.436,-0.739,2.0
18.355,-2.195,-0.764,0.0
16.548,-1.981,-0.78,1.0
15.417,-1.847,-0.81,1.0
14.358,-1.722,-0.831,1.0
23.456,-2.81,-0.7,3.0
20.843,-2.499,-0.734,3.0
18.781,-2.254,-0.762,1.0
16.875,-2.026,-0.777,1.0
15.531,-1.867,-0.799,1.0
14.627,-1.76,-0.831,1.0
23.869,-2.869,-0.686,1.0
21.415,-2.575,-0.731,4.0
19.117,-2.301,-0.755,2.0
17.218,-2.074,-0.774,1.0
15.813,-1.906,-0.796,1.0
14.799,-1.785,-0.824,1.0
24.912,-3.002,-0.689,2.0
21.877,-2.638,-0.723,4.0
19.544,-2.358,-0.75,1.0
17.518,-2.115,-0.768,1.0
16.054,-1.939,-0.79,1.0
14.98,-1.811,-0.818,1.0
25.531,-3.084,-0.678,4.0
22.42,-2.709,-0.715,3.0
19.964,-2.414,-0.744,1.0
17.921,-2.168,-0.766,0.0
16.322,-1.976,-0.785,1.0
15.221,-1.844,-0.814,1.0
26.161,-3.166,-0.666,3.0
23.043,-2.79,-0.71,3.0
20.449,-2.477,-0.739,2.0
18.4,-2.23,-0.766,0.0
16.565,-2.008,-0.778,1.0
15.439,-1.873,-0.808,1.0
26.945,-3.266,-0.655,2.0
23.552,-2.856,-0.699,3.0
20.955,-2.542,-0.734,3.0
18.869,-2.29,-0.764,1.0
16.982,-2.062,-0.778,1.0
15.581,-1.892,-0.798,1.0
27.709,-3.363,-0.642,3.0
24.317,-2.952,-0.694,3.0
21.538,-2.615,-0.73,4.0
19.198,-2.332,-0.755,2.0
17.296,-2.101,-0.773,1.0
15.899,-1.932,-0.796,1.0
28.597,-3.473,-0.63,8.0
24.888,-3.023,-0.681,3.0
22.024,-2.676,-0.721,4.0
19.629,-2.385,-0.75,2.0
17.64,-2.144,-0.768,0.0
16.16,-1.965,-0.79,1.0
29.107,-3.537,-0.608,18.0
25.639,-3.115,-0.672,2.0
22.643,-2.752,-0.715,3.0
20.087,-2.441,-0.743,2.0
18.098,-2.2,-0.767,0.0
16.407,-1.995,-0.783,1.0
29.642,-3.602,-0.584,26.0
26.499,-3.22,-0.663,2.0
23.243,-2.824,-0.706,3.0
20.648,-2.509,-0.74,3.0
18.684,-2.271,-0.77,1.0
16.796,-2.042,-0.782,1.0
30.26,-3.676,-0.561,24.0
27.374,-3.325,-0.654,2.0
23.882,-2.901,-0.698,3.0
21.229,-2.578,-0.736,4.0
19.014,-2.309,-0.761,2.0
17.174,-2.086,-0.779,1.0
31.279,-3.797,-0.543,30.0
28.036,-3.403,-0.636,4.0
24.652,-2.991,-0.691,3.0
21.736,-2.637,-0.727,4.0
19.436,-2.358,-0.754,2.0
17.467,-2.119,-0.772,1.0
32.251,-3.911,-0.522,30.0
28.889,-3.502,-0.622,8.0
25.347,-3.072,-0.681,2.0
22.33,-2.706,-0.721,3.0
19.902,-2.411,-0.749,1.0
17.914,-2.17,-0.77,0.0
33.096,-4.007,-0.496,30.0
29.442,-3.564,-0.598,21.0
26.186,-3.169,-0.672,3.0
22.948,-2.776,-0.714,3.0
20.451,-2.473,-0.745,2.0
18.38,-2.222,-0.768,1.0
33.895,-4.096,-0.468,30.0
30.04,-3.629,-0.575,24.0
26.853,-3.243,-0.657,2.0
23.515,-2.839,-0.704,2.0
20.938,-2.527,-0.738,3.0
18.895,-2.279,-0.767,2.0
34.633,-4.176,-0.437,22.0
30.938,-3.729,-0.555,12.0
27.821,-3.352,-0.647,3.0
24.182,-2.912,-0.694,1.0
21.624,-2.603,-0.736,4.0
19.293,-2.321,-0.76,2.0
39.752,-4.781,-0.454,5.0
31.997,-3.846,-0.536,25.0
28.768,-3.456,-0.636,8.0
25.148,-3.019,-0.692,3.0
22.092,-2.651,-0.726,4.0
19.73,-2.367,-0.754,2.0
39.952,-4.79,-0.409,17.0
32.901,-3.942,-0.512,31.0
29.314,-3.51,-0.613,14.0
25.714,-3.077,-0.677,5.0
22.747,-2.721,-0.721,4.0
20.25,-2.421,-0.75,1.0
40.254,-4.81,-0.365,15.0
33.703,-4.024,-0.485,27.0
29.968,-3.576,-0.591,21.0
26.555,-3.166,-0.668,1.0
23.337,-2.781,-0.712,4.0
20.739,-2.47,-0.743,2.0
45.503,-5.417,-0.358,6.0
34.483,-4.101,-0.455,23.0
30.752,-3.655,-0.57,16.0
27.466,-3.262,-0.659,2.0
23.924,-2.839,-0.701,3.0
21.421,-2.54,-0.743,4.0
46.306,-5.489,-0.31,21.0
35.208,-4.17,-0.424,12.0
31.725,-3.754,-0.551,24.0
28.555,-3.376,-0.651,7.0
24.874,-2.938,-0.7,2.0
21.879,-2.582,-0.733,4.0
47.641,-5.622,-0.264,23.0
39.896,-4.703,-0.434,15.0
32.716,-3.853,-0.53,27.0
29.158,-3.43,-0.631,12.0
25.561,-3.004,-0.69,3.0
22.381,-2.628,-0.723,4.0
0.0,0.0,0.0,0.0
40.142,-4.708,-0.39,15.0
33.526,-3.927,-0.504,31.0
29.788,-3.486,-0.61,20.0
26.276,-3.072,-0.678,3.0
23.057,-2.693,-0.718,5.0
50.334,-5.878,-0.161,6.0
40.285,-4.698,-0.344,4.0
34.267,-3.992,-0.476,26.0
30.356,-3.532,-0.586,17.0
27.193,-3.161,-0.67,2.0
23.777,-2.761,-0.713,4.0
55.735,-6.47,-0.115,21.0
0.0,0.0,0.0,0.0
35.0,-4.053,-0.445,12.0
31.258,-3.615,-0.568,18.0
28.107,-3.247,-0.661,2.0
24.601,-2.838,-0.71,4.0
56.687,-6.539,-0.051,3.0
47.545,-5.477,-0.297,22.0
39.825,-4.582,-0.461,13.0
32.335,-3.715,-0.55,31.0
29.108,-3.34,-0.651,3.0
25.119,-2.879,-0.696,5.0
0.0,0.0,0.0,0.0
0.0,0.0,0.0,0.0
40.137,-4.586,-0.42,15.0
33.16,-3.783,-0.527,28.0
29.964,-3.414,-0.636,8.0
25.965,-2.954,-0.69,2.0
65.216,-7.42,0.087,0.0
50.647,-5.753,-0.202,16.0
0.0,0.0,0.0,0.0
33.996,-3.85,-0.503,29.0
30.527,-3.452,-0.614,12.0
26.853,-3.032,-0.684,3.0
65.11,-7.352,0.158,23.0
55.435,-6.249,-0.16,18.0
0.0,0.0,0.0,0.0
34.684,-3.897,-0.474,23.0
31.081,-3.487,-0.592,22.0
27.46,-3.076,-0.669,2.0
65.095,-7.291,0.23,150.0
56.235,-6.288,-0.101,7.0
46.968,-5.243,-0.336,21.0
39.782,-4.433,-0.501,5.0
32.059,-3.567,-0.576,23.0
28.137,-3.125,-0.655,2.0
65.058,-7.226,0.3,2.0
65.308,-7.24,-0.048,2.0
0.0,0.0,0.0,0.0
39.929,-4.411,-0.46,15.0
32.994,-3.638,-0.557,28.0
29.647,-3.263,-0.659,8.0
65.035,-7.159,0.369,1.0
64.988,-7.14,0.021,2.0
50.504,-5.538,-0.253,15.0
0.0,0.0,0.0,0.0
33.736,-3.686,-0.534,28.0
30.268,-3.301,-0.641,7.0
65.055,-7.094,0.437,1.0
64.979,-7.072,0.089,2.0
54.731,-5.945,-0.218,14.0
0.0,0.0,0.0,0.0
34.425,-3.725,-0.509,28.0
31.212,-3.37,-0.629,9.0
65.082,-7.028,0.504,16.0
65.02,-7.007,0.155,1.0
55.686,-5.988,-0.165,29.0
44.742,-4.801,-0.376,14.0
35.011,-3.749,-0.482,11.0
31.962,-3.416,-0.612,10.0
65.064,-6.954,0.569,6.0
65.042,-6.936,0.22,70.0
56.198,-5.98,-0.11,6.0
47.408,-5.034,-0.352,22.0
39.885,-4.226,-0.51,10.0
32.638,-3.451,-0.592,21.0
0.0,0.0,0.0,0.0
65.093,-6.866,0.285,166.0
65.285,-6.871,-0.063,5.0
0.0,0.0,0.0,0.0
40.186,-4.211,-0.475,15.0
33.255,-3.477,-0.571,26.0
0.0,0.0,0.0,0.0
65.086,-6.788,0.347,184.0
64.936,-6.756,-0.001,3.0
51.935,-5.391,-0.284,14.0
40.343,-4.178,-0.438,6.0
34.067,-3.52,-0.552,28.0
0.0,0.0,0.0,0.0
65.089,-6.708,0.409,190.0
64.95,-6.677,0.059,3.0
54.603,-5.6,-0.248,29.0
44.537,-4.556,-0.441,13.0
34.728,-3.544,-0.531,19.0
0.0,0.0,0.0,0.0
65.105,-6.627,0.47,171.0
64.998,-6.599,0.119,5.0
55.567,-5.628,-0.201,30.0
44.9,-4.536,-0.404,19.0
35.146,-3.541,-0.505,9.0
0.0,0.0,0.0,0.0
65.049,-6.536,0.528,18.0
65.013,-6.515,0.178,17.0
56.133,-5.61,-0.153,7.0
46.397,-4.625,-0.376,20.0
38.217,-3.8,-0.515,5.0
0.0,0.0,0.0,0.0
65.11,-6.455,0.585,1.0
65.049,-6.43,0.235,7.0
65.404,-6.447,-0.121,18.0
47.438,-4.663,-0.343,5.0
40.306,-3.951,-0.508,5.0
81.756,-8.014,1.246,3.0
0.0,0.0,0.0,0.0
65.07,-6.342,0.29,5.0
65.246,-6.341,-0.066,2.0
52.949,-5.131,-0.339,3.0
0.0,0.0,0.0,0.0
81.986,-7.921,1.318,14.0
0.0,0.0,0.0,0.0
65.173,-6.259,0.345,150.0
65.045,-6.228,-0.012,7.0
54.382,-5.192,-0.303,28.0
0.0,0.0,0.0,0.0
82.088,-7.813,1.385,37.0
54.909,-5.209,0.63,2.0
65.175,-6.164,0.397,13.0
54.922,-5.178,0.032,10.0
55.156,-5.184,-0.264,29.0
45.018,-4.219,-0.458,17.0
54.941,-5.148,0.97,139.0
54.973,-5.133,0.674,161.0
54.967,-5.116,0.377,163.0
54.963,-5.1,0.074,159.0
55.598,-5.143,-0.224,28.0
0.0,0.0,0.0,0.0
54.955,-5.066,1.012,150.0
54.963,-5.05,0.714,156.0
54.965,-5.033,0.418,162.0
54.952,-5.016,0.115,150.0
55.647,-5.062,-0.184,14.0
46.959,-4.258,-0.409,21.0
54.931,-4.98,1.05,11.0
0.0,0.0,0.0,0.0
0.0,0.0,0.0,0.0
0.0,0.0,0.0,0.0
56.046,-5.011,-0.146,7.0
50.051,-4.46,-0.401,4.0
0.0,0.0,0.0,0.0
0.0,0.0,0.0,0.0
0.0,0.0,0.0,0.0
0.0,0.0,0.0,0.0
56.756,-4.984,-0.109,2.0
49.989,-4.374,-0.367,23.0
83.272,-7.284,1.707,5.0
0.0,0.0,0.0,0.0
0.0,0.0,0.0,0.0
0.0,0.0,0.0,0.0
0.0,0.0,0.0,0.0
50.475,-4.334,-0.338,6.0
84.781,-7.277,1.791,8.0
0.0,0.0,0.0,0.0
0.0,0.0,0.0,0.0
0.0,0.0,0.0,0.0
79.632,-6.732,-0.053,4.0
54.09,-4.555,-0.329,8.0
82.797,-6.969,1.8,27.0
84.869,-7.114,1.384,2.0
81.929,-6.841,0.891,22.0
79.542,-6.615,0.425,16.0
79.898,-6.618,-0.006,26.0
57.341,-4.731,-0.316,3.0
82.693,-6.82,1.845,46.0
0.0,0.0,0.0,0.0
81.976,-6.705,0.937,51.0
79.454,-6.47,0.469,35.0
79.877,-6.479,0.037,39.0
61.083,-4.935,-0.303,4.0
82.432,-6.656,1.883,34.0
131.916,-10.607,2.297,20.0
82.105,-6.573,0.983,38.0
79.334,-6.324,0.51,18.0
65.861,-5.228,0.065,0.0
61.339,-4.849,-0.272,5.0
82.403,-6.51,1.925,42.0
82.662,-6.501,1.48,10.0
81.972,-6.419,1.022,37.0
65.899,-5.138,0.456,0.0
65.561,-5.089,0.096,48.0
61.674,-4.767,-0.244,14.0
82.519,-6.373,1.967,42.0
82.665,-6.354,1.52,25.0
81.983,-6.273,1.06,10.0
65.612,-4.998,0.484,2.0
65.538,-4.97,0.126,255.0
66.298,-5.005,-0.233,2.0
82.515,-6.225,2.003,45.0
83.075,-6.238,1.563,46.0
0.0,0.0,0.0,0.0
65.647,-4.883,0.512,4.0
65.551,-4.853,0.154,154.0
66.323,-4.888,-0.206,2.0
82.351,-6.063,2.033,36.0
83.085,-6.087,1.597,29.0
0.0,0.0,0.0,0.0
65.602,-4.758,0.538,3.0
65.557,-4.733,0.179,1.0
66.065,-4.746,-0.179,2.0
82.463,-5.918,2.067,36.0
82.932,-5.922,1.625,37.0
0.0,0.0,0.0,0.0
65.553,-4.633,0.561,12.0
