X,Y,Z,Reflectivity
15.171,0.454,-0.935,0.0
13.933,0.418,-0.941,0.0
12.908,0.388,-0.947,0.0
11.909,0.358,-0.944,0.0
17.866,0.536,-0.926,0.0
16.15,0.485,-0.931,0.0
14.739,0.443,-0.936,0.0
13.555,0.409,-0.941,0.0
12.589,0.38,-0.947,0.0
11.641,0.352,-0.944,0.0
16.977,0.511,-0.912,0.0
15.658,0.472,-0.932,0.0
14.423,0.436,-0.943,0.0
13.179,0.399,-0.94,0.0
12.248,0.371,-0.945,0.0
11.365,0.345,-0.943,0.0
16.599,0.502,-0.922,0.0
15.202,0.46,-0.933,0.0
14.367,0.435,-0.966,0.0
12.932,0.392,-0.946,0.0
11.949,0.363,-0.944,0.0
11.176,0.34,-0.948,0.0
16.197,0.49,-0.93,0.0
14.776,0.448,-0.934,0.0
13.471,0.409,-0.93,0.0
12.569,0.382,-0.943,0.0
11.684,0.355,-0.944,0.0
10.923,0.333,-0.947,0.0
15.711,0.476,-0.931,0.0
14.469,0.439,-0.941,0.0
13.266,0.403,-0.94,0.0
12.29,0.373,-0.944,0.0
11.438,0.348,-0.945,0.0
10.692,0.326,-0.946,0.0
15.259,0.462,-0.931,0.0
14.133,0.428,-0.945,0.0
12.984,0.394,-0.944,0.0
11.998,0.364,-0.943,0.0
11.165,0.339,-0.943,0.0
10.461,0.318,-0.945,0.0
14.862,0.449,-0.934,0.0
13.698,0.414,-0.94,0.0
12.653,0.383,-0.942,0.0
11.704,0.354,-0.941,0.0
11.005,0.333,-0.949,0.0
10.272,0.311,-0.946,0.0
14.501,0.437,-0.937,0.0
13.345,0.402,-0.94,0.0
12.345,0.372,-0.941,0.0
11.433,0.345,-0.94,0.0
10.672,0.322,-0.94,0.0
10.087,0.305,-0.947,0.0
14.266,0.428,-0.947,0.0
13.025,0.391,-0.94,0.0
12.066,0.362,-0.942,0.0
11.215,0.337,-0.942,0.0
10.507,0.316,-0.944,0.0
9.9,0.297,-0.947,0.0
13.788,0.411,-0.939,0.0
12.76,0.381,-0.943,0.0
11.779,0.351,-0.94,0.0
11.079,0.331,-0.949,0.0
10.307,0.308,-0.944,0.0
9.706,0.29,-0.945,0.0
13.412,0.397,-0.937,0.0
12.444,0.369,-0.941,0.0
11.535,0.342,-0.94,0.0
10.751,0.318,-0.94,0.0
10.146,0.3,-0.946,0.0
9.522,0.282,-0.944,0.0
13.166,0.387,-0.942,0.0
12.162,0.357,-0.941,0.0
11.333,0.333,-0.943,0.0
10.558,0.31,-0.941,0.0
9.924,0.291,-0.942,0.0
9.378,0.275,-0.945,0.0
12.872,0.375,-0.942,0.0
11.921,0.347,-0.942,0.0
11.15,0.324,-0.946,0.0
10.397,0.302,-0.944,0.0
9.784,0.284,-0.945,0.0
9.201,0.267,-0.943,0.0
12.562,0.362,-0.941,0.0
11.683,0.336,-0.943,0.0
10.853,0.312,-0.939,0.0
10.22,0.294,-0.945,0.0
9.638,0.277,-0.947,0.0
9.051,0.26,-0.943,0.0
12.268,0.349,-0.939,0.0
11.397,0.324,-0.938,0.0
10.696,0.304,-0.943,0.0
10.008,0.284,-0.941,0.0
9.417,0.267,-0.941,0.0
8.911,0.252,-0.943,0.0
12.069,0.339,-0.943,0.0
11.263,0.316,-0.945,0.0
10.52,0.295,-0.944,0.0
9.871,0.276,-0.944,0.0
9.285,0.259,-0.943,0.0
8.759,0.245,-0.94,0.0
11.835,0.327,-0.943,0.0
11.09,0.306,-0.948,0.0
10.332,0.285,-0.944,0.0
9.725,0.268,-0.946,0.0
9.169,0.252,-0.945,0.0
8.639,0.237,-0.941,0.0
11.514,0.313,-0.935,0.0
10.804,0.293,-0.94,0.0
10.149,0.275,-0.942,0.0
9.542,0.258,-0.943,0.0
9.034,0.244,-0.945,0.0
8.52,0.23,-0.941,0.0
11.377,0.304,-0.942,0.0
10.628,0.283,-0.941,0.0
10.001,0.266,-0.944,0.0
9.371,0.249,-0.94,0.0
8.854,0.235,-0.94,0.0
8.398,0.222,-0.941,0.0
11.22,0.294,-0.945,0.0
10.458,0.274,-0.942,0.0
9.848,0.257,-0.944,0.0
9.267,0.241,-0.944,0.0
8.732,0.227,-0.94,0.0
8.275,0.215,-0.939,0.0
10.996,0.282,-0.943,0.0
10.296,0.263,-0.942,0.0
9.699,0.248,-0.944,0.0
9.146,0.233,-0.944,0.0
8.648,0.22,-0.944,0.0
8.186,0.208,-0.941,0.0
10.761,0.27,-0.938,0.0
10.163,0.254,-0.945,0.0
9.556,0.238,-0.944,0.0
8.984,0.224,-0.941,0.0
8.535,0.212,-0.943,0.0
8.106,0.201,-0.943,0.0
10.623,0.26,-0.941,0.0
9.948,0.243,-0.939,0.0
9.42,0.229,-0.944,0.0
8.853,0.215,-0.939,0.0
8.432,0.204,-0.944,0.0
7.995,0.193,-0.942,0.0
10.48,0.25,-0.942,0.0
9.863,0.234,-0.944,0.0
9.275,0.22,-0.942,0.0
8.697,0.205,-0.935,0.0
8.274,0.195,-0.937,0.0
7.937,0.186,-0.946,0.0
10.318,0.239,-0.942,0.0
9.694,0.224,-0.941,0.0
9.134,0.21,-0.94,0.0
8.642,0.198,-0.94,0.0
8.248,0.188,-0.945,0.0
7.796,0.177,-0.939,0.0
10.167,0.228,-0.941,0.0
9.594,0.215,-0.944,0.0
9.037,0.201,-0.941,0.0
8.542,0.19,-0.94,0.0
8.128,0.18,-0.942,0.0
7.734,0.171,-0.942,0.0
9.983,0.217,-0.937,0.0
9.445,0.204,-0.941,0.0
8.898,0.192,-0.938,0.0
8.394,0.18,-0.935,0.0
8.03,0.172,-0.941,0.0
7.669,0.163,-0.943,0.0
9.922,0.208,-0.943,0.0
9.324,0.195,-0.941,0.0
8.772,0.182,-0.936,0.0
8.339,0.173,-0.939,0.0
7.958,0.164,-0.942,0.0
7.612,0.156,-0.946,0.0
9.789,0.198,-0.943,0.0
9.224,0.185,-0.942,0.0
8.683,0.174,-0.937,0.0
8.25,0.164,-0.939,0.0
7.907,0.157,-0.946,0.0
7.547,0.149,-0.947,0.0
9.644,0.187,-0.94,0.0
9.092,0.176,-0.939,0.0
8.585,0.165,-0.936,0.0
8.177,0.156,-0.94,0.0
7.832,0.149,-0.946,0.0
7.482,0.141,-0.947,0.0
9.531,0.177,-0.94,0.0
8.993,0.166,-0.938,0.0
8.521,0.157,-0.938,0.0
8.091,0.148,-0.939,0.0
7.734,0.14,-0.942,0.0
7.402,0.134,-0.945,0.0
9.415,0.167,-0.938,0.0
8.896,0.157,-0.938,0.0
8.457,0.148,-0.941,0.0
7.993,0.139,-0.936,0.0
7.703,0.133,-0.947,0.0
7.36,0.126,-0.948,0.0
9.345,0.157,-0.941,0.0
8.802,0.147,-0.937,0.0
8.365,0.139,-0.939,0.0
7.994,0.132,-0.945,0.0
7.637,0.125,-0.947,0.0
7.261,0.118,-0.943,0.0
9.261,0.148,-0.942,0.0
8.718,0.138,-0.937,0.0
8.263,0.13,-0.936,0.0
7.878,0.123,-0.939,0.0
7.552,0.117,-0.944,0.0
7.256,0.111,-0.949,0.0
9.134,0.137,-0.938,0.0
8.653,0.129,-0.939,0.0
8.24,0.122,-0.941,0.0
7.794,0.114,-0.936,0.0
7.52,0.109,-0.947,0.0
7.215,0.104,-0.951,0.0
9.065,0.128,-0.94,0.0
8.601,0.12,-0.941,0.0
8.156,0.113,-0.939,0.0
7.786,0.107,-0.943,0.0
7.445,0.101,-0.944,0.0
7.138,0.096,-0.947,0.0
8.941,0.117,-0.935,0.0
8.51,0.111,-0.939,0.0
8.094,0.104,-0.939,0.0
7.714,0.098,-0.941,0.0
7.422,0.093,-0.948,0.0
7.125,0.089,-0.951,0.0
8.875,0.108,-0.935,0.0
8.441,0.101,-0.938,0.0
8.038,0.095,-0.94,0.0
7.65,0.09,-0.939,0.0
7.328,0.085,-0.942,0.0
7.079,0.081,-0.951,0.0
8.789,0.098,-0.933,0.0
8.366,0.092,-0.936,0.0
7.975,0.087,-0.939,0.0
7.628,0.082,-0.943,0.0
7.29,0.077,-0.943,0.0
7.009,0.073,-0.947,0.0
8.761,0.089,-0.937,0.0
8.302,0.083,-0.936,0.0
7.927,0.078,-0.939,0.0
7.567,0.073,-0.941,0.0
7.295,0.07,-0.949,0.0
7.018,0.066,-0.954,0.0
8.73,0.08,-0.94,0.0
8.279,0.074,-0.939,0.0
7.873,0.069,-0.938,0.0
7.522,0.065,-0.94,0.0
7.222,0.061,-0.945,0.0
6.994,0.058,-0.955,0.0
8.657,0.07,-0.938,0.0
8.215,0.065,-0.937,0.0
7.833,0.061,-0.939,0.0
7.552,0.057,-0.949,0.0
7.199,0.054,-0.946,0.0
6.888,0.05,-0.945,0.0
8.579,0.06,-0.935,0.0
8.145,0.056,-0.934,0.0
7.816,0.052,-0.941,0.0
7.455,0.049,-0.942,0.0
7.166,0.046,-0.946,0.0
6.858,0.043,-0.945,0.0
8.535,0.051,-0.935,0.0
8.139,0.047,-0.938,0.0
7.77,0.044,-0.94,0.0
7.395,0.04,-0.938,0.0
7.138,0.038,-0.947,0.0
6.894,0.035,-0.954,0.0
8.506,0.041,-0.937,0.0
8.155,0.038,-0.945,0.0
7.72,0.035,-0.939,0.0
7.387,0.032,-0.941,0.0
7.107,0.03,-0.946,0.0
6.827,0.028,-0.948,0.0
8.447,0.032,-0.934,0.0
8.062,0.029,-0.938,0.0
7.719,0.027,-0.942,0.0
0.0,0.0,0.0,0.0
0.0,0.0,0.0,0.0
6.786,0.02,-0.946,0.0
8.435,0.023,-0.937,0.0
8.023,0.02,-0.937,0.0
7.666,0.018,-0.939,0.0
0.0,0.0,0.0,0.0
7.066,0.014,-0.947,0.0
6.768,0.012,-0.946,0.0
8.407,0.013,-0.937,0.0
8.018,0.011,-0.94,0.0
7.654,0.01,-0.941,0.0
7.325,0.008,-0.943,0.0
7.05,0.006,-0.948,0.0
6.745,0.005,-0.946,0.0
8.362,0.004,-0.935,0.0
7.962,0.002,-0.936,0.0
7.626,0.001,-0.94,0.0
7.294,0.0,-0.941,0.0
7.02,-0.001,-0.946,0.0
6.749,-0.002,-0.948,0.0
8.333,-0.004,-0.935,0.0
7.942,-0.005,-0.936,0.0
7.63,-0.007,-0.943,0.0
7.315,-0.008,-0.946,0.0
7.001,-0.009,-0.946,0.0
6.737,-0.009,-0.949,0.0
8.352,-0.014,-0.939,0.0
7.958,-0.014,-0.94,0.0
7.598,-0.015,-0.941,0.0
0.0,0.0,0.0,0.0
0.0,0.0,0.0,0.0
6.752,-0.017,-0.952,0.0
8.306,-0.023,-0.936,0.0
7.946,-0.023,-0.94,0.0
7.58,-0.024,-0.94,0.0
0.0,0.0,0.0,0.0
0.0,0.0,0.0,0.0
6.741,-0.025,-0.952,0.0
8.269,-0.032,-0.933,0.0
7.919,-0.032,-0.938,0.0
7.612,-0.032,-0.945,0.0
0.0,0.0,0.0,0.0
0.0,0.0,0.0,0.0
6.719,-0.032,-0.95,0.0
8.285,-0.042,-0.936,0.0
7.937,-0.041,-0.942,0.0
7.55,-0.041,-0.938,0.0
0.0,0.0,0.0,0.0
0.0,0.0,0.0,0.0
6.691,-0.04,-0.947,0.0
8.25,-0.051,-0.933,0.0
7.882,-0.05,-0.936,0.0
7.572,-0.05,-0.942,0.0
7.264,-0.049,-0.945,0.0
0.0,0.0,0.0,0.0
6.75,-0.048,-0.955,0.0
8.243,-0.06,-0.932,0.0
7.901,-0.059,-0.938,0.0
7.555,-0.058,-0.94,0.0
7.301,-0.057,-0.95,0.0
6.967,-0.056,-0.946,0.0
6.691,-0.055,-0.947,0.0
8.246,-0.07,-0.933,0.0
7.925,-0.068,-0.941,0.0
7.565,-0.067,-0.941,0.0
7.226,-0.065,-0.94,0.0
6.966,-0.064,-0.946,0.0
6.724,-0.063,-0.951,0.0
8.264,-0.079,-0.934,0.0
7.894,-0.077,-0.937,0.0
7.545,-0.075,-0.938,0.0
7.29,-0.074,-0.948,0.0
6.979,-0.072,-0.947,0.0
6.704,-0.071,-0.948,0.0
8.284,-0.088,-0.936,0.0
7.893,-0.086,-0.936,0.0
7.586,-0.084,-0.942,0.0
7.259,-0.082,-0.943,0.0
6.998,-0.08,-0.949,0.0
6.733,-0.079,-0.951,0.0
8.299,-0.098,-0.936,0.0
7.926,-0.095,-0.939,0.0
7.574,-0.092,-0.939,0.0
7.239,-0.09,-0.939,0.0
7.016,-0.088,-0.95,0.0
6.732,-0.086,-0.95,0.0
8.316,-0.108,-0.937,0.0
7.933,-0.104,-0.938,0.0
7.598,-0.101,-0.941,0.0
7.228,-0.098,-0.937,0.0
6.996,-0.096,-0.946,0.0
6.764,-0.094,-0.953,0.0
8.335,-0.117,-0.937,0.0
7.977,-0.114,-0.941,0.0
7.65,-0.11,-0.945,0.0
7.299,-0.107,-0.944,0.0
6.987,-0.104,-0.943,0.0
6.756,-0.102,-0.95,0.0
8.325,-0.126,-0.933,0.0
7.948,-0.122,-0.935,0.0
7.624,-0.119,-0.94,0.0
7.328,-0.115,-0.945,0.0
7.038,-0.112,-0.947,0.0
6.782,-0.11,-0.951,0.0
8.363,-0.136,-0.935,0.0
7.979,-0.131,-0.936,0.0
7.659,-0.128,-0.942,0.0
7.342,-0.124,-0.944,0.0
7.076,-0.121,-0.95,0.0
6.806,-0.117,-0.952,0.0
8.397,-0.146,-0.936,0.0
8.017,-0.141,-0.938,0.0
7.681,-0.136,-0.941,0.0
7.341,-0.132,-0.941,0.0
7.096,-0.129,-0.95,0.0
6.809,-0.125,-0.95,0.0
8.456,-0.156,-0.939,0.0
8.064,-0.15,-0.94,0.0
7.703,-0.145,-0.941,0.0
7.381,-0.14,-0.943,0.0
7.102,-0.136,-0.947,0.0
6.858,-0.133,-0.953,0.0
8.49,-0.165,-0.939,0.0
8.099,-0.159,-0.94,0.0
7.738,-0.154,-0.941,0.0
7.406,-0.149,-0.943,0.0
7.12,-0.144,-0.946,0.0
6.868,-0.14,-0.951,0.0
8.51,-0.175,-0.937,0.0
8.143,-0.169,-0.941,0.0
7.791,-0.163,-0.944,0.0
7.428,-0.157,-0.942,0.0
7.157,-0.153,-0.947,0.0
6.874,-0.148,-0.948,0.0
8.549,-0.184,-0.936,0.0
8.167,-0.178,-0.939,0.0
7.78,-0.171,-0.938,0.0
7.455,-0.165,-0.941,0.0
7.211,-0.161,-0.95,0.0
6.93,-0.156,-0.952,0.0
8.619,-0.195,-0.939,0.0
8.213,-0.187,-0.94,0.0
7.813,-0.179,-0.937,0.0
7.485,-0.173,-0.94,0.0
7.206,-0.168,-0.945,0.0
6.989,-0.165,-0.956,0.0
8.68,-0.205,-0.94,0.0
8.242,-0.196,-0.938,0.0
7.884,-0.189,-0.941,0.0
7.522,-0.182,-0.94,0.0
7.194,-0.175,-0.939,0.0
6.957,-0.171,-0.946,0.0
8.733,-0.215,-0.94,0.0
8.287,-0.205,-0.937,0.0
7.925,-0.198,-0.94,0.0
7.6,-0.191,-0.944,0.0
7.327,-0.186,-0.951,0.0
6.984,-0.178,-0.945,0.0
8.778,-0.224,-0.938,0.0
8.376,-0.216,-0.941,0.0
7.98,-0.207,-0.941,0.0
7.609,-0.199,-0.94,0.0
7.329,-0.193,-0.945,0.0
7.107,-0.188,-0.956,0.0
8.838,-0.234,-0.938,0.0
8.384,-0.224,-0.935,0.0
8.01,-0.215,-0.938,0.0
7.655,-0.207,-0.939,0.0
7.363,-0.201,-0.944,0.0
7.102,-0.195,-0.95,0.0
8.942,-0.245,-0.942,0.0
8.486,-0.234,-0.94,0.0
8.064,-0.224,-0.937,0.0
7.73,-0.217,-0.942,0.0
7.414,-0.209,-0.944,0.0
7.164,-0.203,-0.952,0.0
9.038,-0.256,-0.944,0.0
8.527,-0.243,-0.937,0.0
8.151,-0.234,-0.94,0.0
7.783,-0.225,-0.942,0.0
7.459,-0.217,-0.943,0.0
7.16,-0.21,-0.945,0.0
9.131,-0.267,-0.946,0.0
8.63,-0.254,-0.941,0.0
8.193,-0.243,-0.938,0.0
7.82,-0.233,-0.939,0.0
7.558,-0.227,-0.949,0.0
7.243,-0.218,-0.949,0.0
9.212,-0.277,-0.946,0.0
8.708,-0.264,-0.941,0.0
8.26,-0.252,-0.938,0.0
7.891,-0.242,-0.94,0.0
7.595,-0.234,-0.946,0.0
7.302,-0.227,-0.95,0.0
9.301,-0.288,-0.946,0.0
8.822,-0.275,-0.945,0.0
8.369,-0.262,-0.942,0.0
7.957,-0.251,-0.94,0.0
7.669,-0.243,-0.948,0.0
7.332,-0.234,-0.946,0.0
9.418,-0.299,-0.948,0.0
8.89,-0.284,-0.943,0.0
8.416,-0.27,-0.939,0.0
8.03,-0.259,-0.94,0.0
7.71,-0.25,-0.945,0.0
7.437,-0.243,-0.952,0.0
9.526,-0.31,-0.949,0.0
8.976,-0.294,-0.943,0.0
8.521,-0.281,-0.941,0.0
8.113,-0.268,-0.941,0.0
7.773,-0.259,-0.944,0.0
7.461,-0.25,-0.947,0.0
9.63,-0.321,-0.949,0.0
9.098,-0.305,-0.946,0.0
8.607,-0.29,-0.941,0.0
8.201,-0.278,-0.942,0.0
7.842,-0.267,-0.944,0.0
7.532,-0.258,-0.947,0.0
9.752,-0.333,-0.95,0.0
9.217,-0.316,-0.948,0.0
8.702,-0.3,-0.942,0.0
8.258,-0.286,-0.939,0.0
7.894,-0.274,-0.941,0.0
7.603,-0.266,-0.947,0.0
9.889,-0.344,-0.952,0.0
9.352,-0.327,-0.951,0.0
8.812,-0.31,-0.943,0.0
8.375,-0.296,-0.943,0.0
7.991,-0.283,-0.943,0.0
7.661,-0.273,-0.946,0.0
10.019,-0.356,-0.953,0.0
9.458,-0.337,-0.95,0.0
8.916,-0.319,-0.944,0.0
8.481,-0.305,-0.944,0.0
8.054,-0.291,-0.941,0.0
7.738,-0.281,-0.945,0.0
10.155,-0.367,-0.953,0.0
9.573,-0.348,-0.95,0.0
9.05,-0.33,-0.947,0.0
8.591,-0.315,-0.946,0.0
8.179,-0.301,-0.945,0.0
7.805,-0.288,-0.944,0.0
10.3,-0.379,-0.954,0.0
9.685,-0.358,-0.949,0.0
9.165,-0.34,-0.947,0.0
8.697,-0.324,-0.946,0.0
8.271,-0.309,-0.945,0.0
7.89,-0.296,-0.944,0.0
10.443,-0.391,-0.954,0.0
9.827,-0.369,-0.95,0.0
9.333,-0.352,-0.952,0.0
8.775,-0.332,-0.943,0.0
8.336,-0.317,-0.941,0.0
7.981,-0.304,-0.944,0.0
10.587,-0.402,-0.953,0.0
9.971,-0.38,-0.951,0.0
9.452,-0.361,-0.952,0.0
8.902,-0.342,-0.945,0.0
8.498,-0.327,-0.948,0.0
8.066,-0.312,-0.943,0.0
10.717,-0.413,-0.95,0.0
10.164,-0.393,-0.955,0.0
9.604,-0.372,-0.954,0.0
9.042,-0.352,-0.948,0.0
8.584,-0.335,-0.946,0.0
8.174,-0.32,-0.944,0.0
10.959,-0.428,-0.957,0.0
10.332,-0.404,-0.957,0.0
9.723,-0.382,-0.952,0.0
9.197,-0.362,-0.951,0.0
8.704,-0.344,-0.947,0.0
8.272,-0.328,-0.944,0.0
11.123,-0.439,-0.955,0.0
10.472,-0.415,-0.955,0.0
9.868,-0.392,-0.953,0.0
9.325,-0.372,-0.951,0.0
8.832,-0.353,-0.948,0.0
8.392,-0.336,-0.946,0.0
11.294,-0.451,-0.954,0.0
10.645,-0.426,-0.955,0.0
10.051,-0.404,-0.956,0.0
9.48,-0.382,-0.953,0.0
8.974,-0.362,-0.95,0.0
8.517,-0.345,-0.947,0.0
11.484,-0.463,-0.953,0.0
10.739,-0.434,-0.948,0.0
10.208,-0.414,-0.955,0.0
9.665,-0.393,-0.957,0.0
9.112,-0.371,-0.951,0.0
8.633,-0.353,-0.947,0.0
11.713,-0.477,-0.954,0.0
11.147,-0.455,-0.967,0.0
10.379,-0.424,-0.956,0.0
9.831,-0.403,-0.959,0.0
9.281,-0.381,-0.954,0.0
8.769,-0.361,-0.948,0.0
11.977,-0.492,-0.958,0.0
11.163,-0.459,-0.952,0.0
10.531,-0.434,-0.954,0.0
9.923,-0.41,-0.952,0.0
9.433,-0.391,-0.955,0.0
8.922,-0.37,-0.951,0.0
12.317,-0.509,-0.966,0.0
11.438,-0.474,-0.957,0.0
10.783,-0.448,-0.96,0.0
10.129,-0.421,-0.956,0.0
9.596,-0.4,-0.957,0.0
9.056,-0.378,-0.951,0.0
12.577,-0.523,-0.966,0.0
11.664,-0.486,-0.958,0.0
11.002,-0.46,-0.961,0.0
10.309,-0.431,-0.956,0.0
9.755,-0.409,-0.957,0.0
9.265,-0.389,-0.958,0.0
12.792,-0.535,-0.962,0.0
11.903,-0.499,-0.958,0.0
11.178,-0.469,-0.959,0.0
10.457,-0.44,-0.953,0.0
9.934,-0.418,-0.958,0.0
9.414,-0.397,-0.958,0.0
13.113,-0.551,-0.966,0.0
12.201,-0.513,-0.963,0.0
11.368,-0.479,-0.957,0.0
10.747,-0.454,-0.962,0.0
10.09,-0.427,-0.957,0.0
9.568,-0.405,-0.958,0.0
13.373,-0.564,-0.963,0.0
12.521,-0.529,-0.967,0.0
11.646,-0.492,-0.961,0.0
10.858,-0.46,-0.954,0.0
10.306,-0.437,-0.96,0.0
9.765,-0.415,-0.961,0.0
13.616,-0.576,-0.958,0.0
12.714,-0.538,-0.961,0.0
11.902,-0.504,-0.962,0.0
11.089,-0.471,-0.956,0.0
10.497,-0.446,-0.96,0.0
9.914,-0.422,-0.959,0.0
13.944,-0.591,-0.957,0.0
13.076,-0.555,-0.966,0.0
12.235,-0.519,-0.969,0.0
11.322,-0.481,-0.957,0.0
10.706,-0.455,-0.961,0.0
10.097,-0.43,-0.96,0.0
14.375,-0.609,-0.963,0.0
13.353,-0.567,-0.964,0.0
12.492,-0.531,-0.968,0.0
11.548,-0.491,-0.956,0.0
10.938,-0.465,-0.963,0.0
10.289,-0.438,-0.96,0.0
14.58,-0.618,-0.952,0.0
13.62,-0.578,-0.96,0.0
12.718,-0.54,-0.963,0.0
11.89,-0.505,-0.964,0.0
11.125,-0.473,-0.961,0.0
10.457,-0.445,-0.958,0.0
15.531,-0.658,-0.987,0.0
13.941,-0.591,-0.959,0.0
13.085,-0.555,-0.968,0.0
12.171,-0.516,-0.966,0.0
11.375,-0.483,-0.962,0.0
10.747,-0.456,-0.966,0.0
15.687,-0.663,-0.97,0.0
14.394,-0.609,-0.965,0.0
13.363,-0.565,-0.966,0.0
12.483,-0.528,-0.969,0.0
11.589,-0.49,-0.96,0.0
10.975,-0.465,-0.967,0.0
15.708,-0.662,-0.943,0.0
14.567,-0.614,-0.951,0.0
13.529,-0.57,-0.954,0.0
12.731,-0.537,-0.965,0.0
11.89,-0.501,-0.964,0.0
11.122,-0.469,-0.96,0.0
15.728,-0.66,-0.917,1.0
15.538,-0.652,-0.987,0.0
14.044,-0.59,-0.965,0.0
13.101,-0.55,-0.97,0.0
12.21,-0.512,-0.968,0.0
11.403,-0.479,-0.964,0.0
15.743,-0.658,-0.89,1.0
15.715,-0.656,-0.97,0.0
14.416,-0.602,-0.965,0.0
13.383,-0.559,-0.967,0.0
12.495,-0.522,-0.968,0.0
11.61,-0.484,-0.96,0.0
15.778,-0.656,-0.863,1.0
15.782,-0.655,-0.946,0.0
14.597,-0.606,-0.951,0.0
13.588,-0.564,-0.958,0.0
12.785,-0.53,-0.968,0.0
11.917,-0.494,-0.964,0.0
15.856,-0.654,-0.839,1.0
15.774,-0.65,-0.917,1.0
15.685,-0.646,-0.994,0.0
13.979,-0.576,-0.96,0.0
13.126,-0.54,-0.97,0.0
12.328,-0.507,-0.975,0.0
16.242,-0.665,-0.83,0.0
15.803,-0.646,-0.89,1.0
15.779,-0.645,-0.971,0.0
14.403,-0.588,-0.963,0.0
13.397,-0.547,-0.965,0.0
12.545,-0.511,-0.969,0.0
16.783,-0.681,-0.828,1.0
15.832,-0.642,-0.863,1.0
15.799,-0.64,-0.944,0.0
14.65,-0.593,-0.953,0.0
13.607,-0.55,-0.956,0.0
12.814,-0.517,-0.967,0.0
17.109,-0.687,-0.813,1.0
15.949,-0.64,-0.84,1.0
15.852,-0.635,-0.917,1.0
15.783,-0.631,-0.997,0.0
14.137,-0.565,-0.967,0.0
13.212,-0.527,-0.973,0.0
17.668,-0.702,-0.807,1.0
16.211,-0.643,-0.824,0.0
15.875,-0.629,-0.89,1.0
15.883,-0.628,-0.974,0.0
14.431,-0.57,-0.961,0.0
13.456,-0.531,-0.966,0.0
18.348,-0.72,-0.805,1.0
16.926,-0.663,-0.83,0.0
15.921,-0.623,-0.863,1.0
15.89,-0.62,-0.946,0.0
14.812,-0.577,-0.959,0.0
13.769,-0.536,-0.963,0.0
19.075,-0.738,-0.801,0.0
17.282,-0.668,-0.815,2.0
16.069,-0.62,-0.842,1.0
15.956,-0.614,-0.92,0.0
15.912,-0.611,-1.0,0.0
14.185,-0.544,-0.966,0.0
20.05,-0.765,-0.805,0.0
17.953,-0.683,-0.814,0.0
16.272,-0.618,-0.822,0.0
15.981,-0.606,-0.892,1.0
15.975,-0.604,-0.975,0.0
14.487,-0.547,-0.959,0.0
20.616,-0.774,-0.79,2.0
18.494,-0.693,-0.805,0.0
17.036,-0.636,-0.83,0.0
16.036,-0.597,-0.866,1.0
16.034,-0.596,-0.949,0.0
14.894,-0.552,-0.959,0.0
21.703,-0.801,-0.792,1.0
19.292,-0.71,-0.804,0.0
17.5,-0.642,-0.82,0.0
16.176,-0.592,-0.844,1.0
16.097,-0.588,-0.923,0.0
16.017,-0.583,-1.002,0.0
22.442,-0.813,-0.778,2.0
20.157,-0.728,-0.803,0.0
18.332,-0.66,-0.826,1.0
16.509,-0.592,-0.831,0.0
16.205,-0.58,-0.9,1.0
16.231,-0.579,-0.986,1.0
23.72,-0.842,-0.779,13.0
20.98,-0.742,-0.798,0.0
18.698,-0.659,-0.808,4.0
17.002,-0.597,-0.824,0.0
16.308,-0.571,-0.876,1.0
16.274,-0.568,-0.958,1.0
23.954,-0.831,-0.743,21.0
22.077,-0.764,-0.799,1.0
19.182,-0.661,-0.794,1.0
17.697,-0.608,-0.826,0.0
16.597,-0.568,-0.861,0.0
16.585,-0.565,-0.946,0.0
24.95,-0.846,-0.728,11.0
22.75,-0.768,-0.782,7.0
20.278,-0.682,-0.802,0.0
18.366,-0.615,-0.823,0.0
16.921,-0.565,-0.847,0.0
16.879,-0.561,-0.932,0.0
27.631,-0.914,-0.756,1.0
23.769,-0.783,-0.774,16.0
21.274,-0.698,-0.803,0.0
19.243,-0.628,-0.828,0.0
17.272,-0.561,-0.832,0.0
17.175,-0.556,-0.917,0.0
28.524,-0.918,-0.729,1.0
24.322,-0.779,-0.748,23.0
22.077,-0.704,-0.793,2.0
19.709,-0.626,-0.812,7.0
17.792,-0.562,-0.826,0.0
17.446,-0.549,-0.9,0.0
30.415,-0.951,-0.723,21.0
25.228,-0.785,-0.73,6.0
23.493,-0.727,-0.802,5.0
20.347,-0.626,-0.802,3.0
18.304,-0.561,-0.817,0.0
17.786,-0.542,-0.886,0.0
30.6,-0.927,-0.672,38.0
27.904,-0.841,-0.757,1.0
23.798,-0.713,-0.77,15.0
21.053,-0.628,-0.792,1.0
19.125,-0.567,-0.819,0.0
18.207,-0.537,-0.874,1.0
30.961,-0.907,-0.625,31.0
30.012,-0.874,-0.761,6.0
24.53,-0.711,-0.749,14.0
22.169,-0.638,-0.795,1.0
19.963,-0.571,-0.819,0.0
18.576,-0.529,-0.859,1.0
31.435,-0.889,-0.578,9.0
30.449,-0.855,-0.718,26.0
25.239,-0.705,-0.726,2.0
23.567,-0.654,-0.803,5.0
20.674,-0.57,-0.812,0.0
19.025,-0.521,-0.846,1.0
38.01,-1.034,-0.632,20.0
30.63,-0.827,-0.669,35.0
28.355,-0.761,-0.766,1.0
23.805,-0.634,-0.769,16.0
21.425,-0.567,-0.804,0.0
19.515,-0.513,-0.834,1.0
38.326,-1.0,-0.571,18.0
31.099,-0.805,-0.625,30.0
30.196,-0.776,-0.763,8.0
24.514,-0.625,-0.749,13.0
22.392,-0.567,-0.801,1.0
20.133,-0.506,-0.825,1.0
38.633,-0.964,-0.508,29.0
37.843,-0.936,-0.694,3.0
30.466,-0.748,-0.717,31.0
25.2,-0.614,-0.727,3.0
23.702,-0.572,-0.807,12.0
20.836,-0.499,-0.818,1.0
0.0,0.0,0.0,0.0
38.034,-0.896,-0.632,24.0
30.76,-0.718,-0.671,29.0
28.29,-0.655,-0.768,1.0
23.807,-0.546,-0.77,11.0
21.564,-0.49,-0.81,1.0
40.42,-0.912,-0.393,39.0
38.349,-0.857,-0.573,16.0
31.274,-0.692,-0.63,20.0
30.223,-0.663,-0.769,8.0
25.207,-0.547,-0.773,2.0
22.364,-0.481,-0.802,2.0
38.373,-0.818,-0.309,34.0
38.364,-0.809,-0.508,65.0
0.0,0.0,0.0,0.0
30.481,-0.629,-0.724,30.0
27.082,-0.553,-0.785,2.0
23.261,-0.47,-0.795,1.0
45.604,-0.913,-0.291,15.0
45.165,-0.894,-0.523,19.0
38.068,-0.745,-0.639,23.0
30.802,-0.597,-0.681,30.0
28.251,-0.541,-0.772,7.0
25.311,-0.479,-0.824,2.0
52.959,-0.99,-0.25,59.0
45.537,-0.842,-0.453,17.0
38.536,-0.703,-0.584,13.0
31.491,-0.568,-0.644,9.0
29.474,-0.525,-0.757,8.0
26.142,-0.459,-0.808,3.0
20.113,-0.349,-0.062,13.0
52.928,-0.907,-0.44,42.0
44.894,-0.759,-0.608,22.0
0.0,0.0,0.0,0.0
30.407,-0.499,-0.732,26.0
27.021,-0.438,-0.792,1.0
20.148,-0.322,-0.03,23.0
59.386,-0.934,-0.398,16.0
45.165,-0.7,-0.538,19.0
38.04,-0.58,-0.656,22.0
31.124,-0.467,-0.699,28.0
28.189,-0.417,-0.781,2.0
59.504,-0.867,0.005,10.0
56.684,-0.812,-0.29,2.0
52.851,-0.744,-0.547,14.0
38.946,-0.539,-0.61,14.0
32.014,-0.435,-0.669,8.0
29.901,-0.399,-0.781,7.0
59.543,-0.781,0.1,63.0
56.28,-0.724,-0.2,1.0
58.781,-0.742,-0.516,5.0
44.874,-0.556,-0.633,19.0
36.041,-0.437,-0.697,2.0
30.882,-0.367,-0.759,8.0
56.211,-0.655,0.18,1.0
56.283,-0.641,-0.113,1.0
59.434,-0.662,-0.431,7.0
45.049,-0.49,-0.567,21.0
37.921,-0.404,-0.676,31.0
20.207,-0.21,-0.466,17.0
56.198,-0.57,0.266,10.0
56.21,-0.556,-0.028,8.0
56.413,-0.544,-0.324,1.0
49.699,-0.466,-0.55,1.0
20.169,-0.184,-0.329,13.0
20.179,-0.179,-0.435,29.0
53.381,-0.46,0.332,1.0
56.277,-0.47,0.055,3.0
20.198,-0.163,-0.085,6.0
20.152,-0.158,-0.193,6.0
20.164,-0.152,-0.299,28.0
20.161,-0.147,-0.405,34.0
20.167,-0.142,0.155,18.0
20.154,-0.136,0.049,25.0
20.188,-0.131,-0.056,22.0
20.159,-0.126,-0.164,25.0
20.134,-0.12,-0.269,33.0
20.148,-0.115,-0.375,37.0
20.142,-0.11,0.184,23.0
20.128,-0.104,0.078,37.0
20.128,-0.099,-0.027,31.0
20.137,-0.093,-0.134,32.0
20.134,-0.088,-0.241,29.0
20.136,-0.082,-0.346,28.0
20.123,-0.077,0.213,28.0
20.125,-0.071,0.107,36.0
20.126,-0.066,0.001,36.0
20.137,-0.06,-0.106,32.0
20.126,-0.055,-0.212,18.0
20.163,-0.049,-0.319,24.0
20.119,-0.044,0.241,33.0
20.122,-0.038,0.135,31.0
20.143,-0.033,0.029,37.0
20.136,-0.027,-0.078,27.0
20.18,-0.022,-0.185,21.0
20.194,-0.016,-0.291,6.0
20.128,-0.01,0.269,27.0
20.126,-0.005,0.162,28.0
20.159,0.0,0.056,29.0
20.238,0.006,-0.051,152.0
20.266,0.012,-0.158,151.0
20.26,0.017,-0.265,151.0
20.137,0.023,0.296,29.0
20.135,0.028,0.189,28.0
20.154,0.034,0.083,27.0
20.245,0.04,-0.025,8.0
20.243,0.046,-0.132,25.0
20.214,0.051,-0.239,2.0
20.145,0.057,0.322,28.0
20.145,0.063,0.215,27.0
20.15,0.069,0.109,27.0
20.195,0.075,0.0,30.0
20.182,0.08,-0.106,27.0
20.191,0.086,-0.213,20.0
20.159,0.092,0.348,29.0
20.155,0.098,0.241,28.0
20.166,0.104,0.134,26.0
20.185,0.109,0.025,37.0
20.185,0.115,-0.081,32.0
20.183,0.121,-0.187,28.0
20.162,0.127,0.373,27.0
20.17,0.133,0.266,26.0
20.179,0.139,0.159,24.0
20.203,0.145,0.05,27.0
20.209,0.151,-0.056,24.0
20.18,0.157,-0.163,25.0
20.214,0.164,0.399,26.0
20.246,0.17,0.292,27.0
20.289,0.177,0.185,27.0
20.314,0.183,0.075,34.0
20.342,0.189,-0.032,25.0
20.212,0.194,-0.139,11.0
20.273,0.201,0.424,36.0
20.286,0.207,0.316,32.0
20.287,0.213,0.209,26.0
20.313,0.22,0.099,23.0
20.344,0.226,-0.008,0.0
0.0,0.0,0.0,0.0
20.271,0.238,0.447,28.0
20.281,0.244,0.339,21.0
20.288,0.25,0.232,11.0
99.57,1.259,0.598,4.0
99.589,1.29,0.069,5.0
0.0,0.0,0.0,0.0
20.292,0.275,0.47,2.0
20.29,0.281,0.362,0.0
0.0,0.0,0.0,0.0
0.0,0.0,0.0,0.0
99.656,1.473,0.176,5.0
101.55,1.53,-0.362,1.0
196.249,3.026,4.763,24.0
194.962,3.065,3.691,26.0
195.071,3.126,2.652,7.0
99.591,1.626,0.812,4.0
99.759,1.659,0.281,5.0
0.0,0.0,0.0,0.0
0.0,0.0,0.0,0.0
194.577,3.424,3.887,22.0
194.837,3.487,2.85,14.0
0.0,0.0,0.0,0.0
99.876,1.847,0.383,6.0
0.0,0.0,0.0,0.0
0.0,0.0,0.0,0.0
194.522,3.785,4.079,17.0
199.628,3.947,3.119,6.0
103.122,2.068,1.047,5.0
99.945,2.035,0.48,4.0
100.036,2.068,-0.053,6.0
194.847,4.099,5.318,20.0
194.434,4.148,4.264,18.0
194.187,4.203,3.219,20.0
0.0,0.0,0.0,0.0
100.107,2.228,0.576,1.0
100.17,2.26,0.04,9.0
194.763,4.468,5.5,14.0
194.115,4.514,4.44,27.0
193.853,4.566,3.393,25.0
0.0,0.0,0.0,0.0
103.007,2.49,0.687,4.0
100.148,2.45,0.13,3.0
0.0,0.0,0.0,0.0
193.997,4.883,4.611,27.0
193.609,4.934,3.562,29.0
195.23,5.033,2.522,30.0
103.064,2.689,0.777,5.0
0.0,0.0,0.0,0.0
193.485,5.184,5.806,8.0
194.333,5.265,4.786,29.0
193.411,5.3,3.723,33.0
195.395,5.412,2.688,27.0
0.0,0.0,0.0,0.0
0.0,0.0,0.0,0.0
193.272,5.554,5.962,9.0
193.941,5.632,4.937,26.0
193.537,5.679,3.883,34.0
195.404,5.795,2.848,18.0
201.783,6.048,1.854,34.0
196.192,5.938,0.744,30.0
193.367,5.932,6.117,18.0
193.852,6.007,5.087,23.0
193.963,6.071,4.043,28.0
195.295,6.17,2.996,8.0
0.0,0.0,0.0,0.0
196.248,6.322,0.893,26.0
193.288,6.305,6.26,8.0
0.0,0.0,0.0,0.0
194.632,6.47,4.201,20.0
194.886,6.534,3.131,25.0
0.0,0.0,0.0,0.0
196.324,6.705,1.034,33.0
193.505,6.69,6.405,12.0
194.724,6.792,5.392,20.0
195.605,6.884,4.358,13.0
195.69,6.945,3.281,5.0
196.017,7.017,2.225,7.0
196.312,7.089,1.167,30.0
0.0,0.0,0.0,0.0
194.644,7.174,5.522,6.0
195.834,7.274,4.492,6.0
0.0,0.0,0.0,0.0
195.122,7.367,2.342,29.0
195.118,7.427,1.284,12.0
193.648,7.457,6.666,15.0
0.0,0.0,0.0,0.0
196.711,7.696,4.637,7.0
0.0,0.0,0.0,0.0
203.894,8.1,2.571,12.0
196.602,7.869,1.413,21.0
193.575,7.834,6.78,8.0
193.276,7.881,5.719,28.0
0.0,0.0,0.0,0.0
0.0,0.0,0.0,0.0
0.0,0.0,0.0,0.0
196.643,8.256,1.523,18.0
193.748,8.227,6.896,26.0
193.577,8.275,5.835,22.0
192.543,8.29,4.756,6.0
195.495,8.475,3.745,28.0
195.524,8.533,2.68,48.0
195.511,8.591,1.617,31.0
193.647,8.602,6.993,26.0
193.503,8.65,5.932,24.0
0.0,0.0,0.0,0.0
0.0,0.0,0.0,0.0
206.394,9.416,2.932,9.0
197.106,9.053,1.727,6.0
193.384,8.974,7.077,29.0
193.369,9.032,6.021,25.0
195.812,9.205,5.028,9.0
0.0,0.0,0.0,0.0
199.921,9.518,2.932,6.0
0.0,0.0,0.0,0.0
192.847,9.332,7.144,20.0
0.0,0.0,0.0,0.0
194.036,9.504,5.066,7.0
0.0,0.0,0.0,0.0
197.688,9.801,2.981,17.0
197.9,9.868,1.902,21.0
0.0,0.0,0.0,0.0
194.045,9.83,6.205,12.0
194.125,9.888,5.145,6.0
196.94,10.089,4.12,7.0
0.0,0.0,0.0,0.0
206.515,10.702,2.061,5.0
193.189,10.106,7.305,8.0
193.683,10.189,6.262,7.0
0.0,0.0,0.0,0.0
196.585,10.454,4.18,9.0
199.911,10.691,3.155,5.0
196.084,10.543,2.021,18.0
193.807,10.52,7.393,8.0
195.862,10.687,6.394,20.0
196.036,10.752,5.324,38.0
196.109,10.812,4.23,28.0
207.129,11.48,3.33,7.0
202.942,11.306,2.15,4.0
193.824,10.897,7.449,8.0
193.112,10.911,6.358,7.0
194.816,11.064,5.343,6.0
198.038,11.305,4.324,5.0
0.0,0.0,0.0,0.0
0.0,0.0,0.0,0.0
0.0,0.0,0.0,0.0
0.0,0.0,0.0,0.0
194.711,11.436,5.387,5.0
0.0,0.0,0.0,0.0
0.0,0.0,0.0,0.0
0.0,0.0,0.0,0.0
0.0,0.0,0.0,0.0
0.0,0.0,0.0,0.0
0.0,0.0,0.0,0.0
0.0,0.0,0.0,0.0
0.0,0.0,0.0,0.0
0.0,0.0,0.0,0.0
163.129,10.121,6.371,3.0
0.0,0.0,0.0,0.0
0.0,0.0,0.0,0.0
0.0,0.0,0.0,0.0
0.0,0.0,0.0,0.0
0.0,0.0,0.0,0.0
0.0,0.0,0.0,0.0
162.627,10.445,5.471,4.0
174.158,11.232,4.897,15.0
174.016,11.272,3.915,7.0
0.0,0.0,0.0,0.0
0.0,0.0,0.0,0.0
167.965,11.063,6.596,6.0
167.839,11.1,5.662,12.0
162.746,10.807,4.588,23.0
201.571,13.439,4.548,9.0
0.0,0.0,0.0,0.0
199.054,13.379,2.289,8.0
169.16,11.461,6.651,5.0
0.0,0.0,0.0,0.0
168.989,11.541,4.772,14.0
179.087,12.278,4.045,7.0
210.362,14.478,3.588,10.0
199.619,13.795,2.3,6.0
0.0,0.0,0.0,0.0
156.414,10.936,5.283,6.0
167.066,11.724,4.716,9.0
172.45,12.148,3.895,14.0
173.612,12.277,2.959,16.0
199.994,14.195,2.299,4.0
161.4,11.545,6.343,3.0
160.864,11.547,5.429,15.0
155.788,11.221,4.392,6.0
161.969,11.709,3.65,36.0
173.233,12.57,2.943,48.0
173.472,12.633,1.985,18.0
163.723,12.014,6.424,4.0
166.792,12.28,5.617,4.0
166.715,12.317,4.687,24.0
162.176,12.024,3.64,15.0
168.117,12.507,2.84,27.0
168.238,12.561,1.907,28.0
156.727,11.788,6.135,18.0
174.678,13.18,5.863,7.0
156.992,11.885,4.396,40.0
155.972,11.847,3.484,17.0
168.121,12.812,2.818,22.0
162.198,12.404,1.817,5.0
161.521,12.443,6.299,3.0
154.331,11.928,5.158,11.0
167.373,12.975,4.66,25.0
155.71,12.11,3.452,36.0
155.992,12.173,2.589,23.0
155.915,12.206,1.72,12.0
0.0,0.0,0.0,0.0
166.993,13.207,5.549,7.0
154.974,12.295,4.285,16.0
196.56,15.643,4.319,9.0
181.657,14.5,2.977,25.0
181.751,14.553,1.966,7.0
156.971,12.657,6.059,8.0
154.8,12.519,5.11,16.0
161.711,13.116,4.434,16.0
196.549,15.988,4.272,11.0
213.677,17.437,3.45,10.0
213.699,17.491,2.259,7.0
143.784,11.847,5.513,15.0
156.987,12.972,5.141,12.0
156.679,12.984,4.255,12.0
201.88,16.778,4.333,15.0
0.0,0.0,0.0,0.0
115.325,9.64,1.186,6.0
143.79,12.099,5.473,12.0
144.467,12.189,4.689,19.0
144.316,12.208,3.876,9.0
199.582,16.93,4.223,9.0
199.632,16.98,3.106,6.0
128.854,10.99,1.284,9.0
143.362,12.306,5.411,18.0
143.608,12.36,4.615,26.0
144.441,12.464,3.83,19.0
152.557,13.198,3.176,14.0
153.517,13.318,2.336,18.0
128.926,11.215,1.239,7.0
143.349,12.548,5.358,20.0
143.649,12.605,4.564,30.0
143.933,12.661,3.764,13.0
152.565,13.454,3.119,21.0
153.045,13.532,2.27,23.0
108.633,9.629,1.002,1.0
109.809,9.793,4.062,6.0
143.41,12.821,4.499,20.0
143.606,12.868,3.698,13.0
152.321,13.683,3.051,29.0
152.456,13.729,2.199,26.0
108.844,9.825,0.959,1.0
109.662,9.959,4.009,25.0
121.337,11.044,3.754,17.0
152.053,13.872,3.848,23.0
151.877,13.888,2.976,23.0
151.808,13.916,2.121,27.0
0.0,0.0,0.0,0.0
116.245,10.744,4.196,20.0
121.368,11.243,3.698,18.0
137.983,12.81,3.428,17.0
151.421,14.088,2.894,27.0
151.538,14.132,2.044,27.0
0.0,0.0,0.0,0.0
116.005,10.905,4.13,36.0
121.366,11.434,3.637,47.0
137.864,13.017,3.355,24.0
151.288,14.314,2.815,28.0
151.32,14.349,1.962,27.0
0.0,0.0,0.0,0.0
115.965,11.082,4.069,24.0
121.064,11.593,3.564,5.0
121.777,11.686,2.898,17.0
151.172,14.536,2.731,29.0
151.166,14.567,1.879,17.0
0.0,0.0,0.0,0.0
108.323,10.518,3.739,29.0
109.314,10.634,3.157,22.0
121.521,11.846,2.822,45.0
121.585,11.876,2.125,41.0
121.579,11.9,1.44,29.0
0.0,0.0,0.0,0.0
110.09,10.854,3.735,22.0
108.932,10.76,3.08,60.0
121.476,12.022,2.749,64.0
121.575,12.056,2.052,68.0
121.629,12.084,1.366,12.0
0.0,0.0,0.0,0.0
109.989,11.007,3.663,22.0
115.725,11.6,3.199,74.0
121.6,12.211,2.675,18.0
150.631,15.155,2.447,26.0
0.0,0.0,0.0,0.0
0.0,0.0,0.0,0.0
110.115,11.176,3.596,20.0
116.137,11.806,3.135,19.0
115.747,11.787,2.47,41.0
150.619,15.367,2.347,21.0
0.0,0.0,0.0,0.0
0.0,0.0,0.0,0.0
110.397,11.361,3.529,8.0
109.702,11.307,2.886,32.0
115.608,11.936,2.387,41.0
115.622,11.957,1.72,48.0
0.0,0.0,0.0,0.0
82.311,8.543,0.293,0.0
108.359,11.298,3.387,19.0
109.472,11.433,2.801,19.0
109.301,11.433,2.178,42.0
115.598,12.111,1.637,53.0
0.0,0.0,0.0,0.0
0.0,0.0,0.0,0.0
103.655,10.947,3.164,10.0
108.942,11.522,2.708,42.0
109.232,11.57,2.094,65.0
109.311,11.597,1.465,7.0
81.913,8.704,0.634,1.0
82.01,8.728,0.17,3.0
108.7,11.62,3.236,23.0
109.262,11.696,2.632,9.0
109.216,11.709,2.01,42.0
109.294,11.734,1.381,9.0
0.0,0.0,0.0,0.0
77.469,8.344,0.099,6.0
104.28,11.278,3.022,28.0
115.713,12.532,2.696,17.0
149.861,16.254,2.64,23.0
0.0,0.0,0.0,0.0
82.026,8.922,0.505,1.0
76.643,8.349,0.037,7.0
116.711,12.765,3.287,20.0
103.89,11.378,2.335,56.0
149.777,16.426,2.515,18.0
0.0,0.0,0.0,0.0
76.335,8.394,0.406,4.0
75.935,8.363,-0.026,8.0
115.424,12.762,3.154,29.0
103.907,11.503,2.247,43.0
103.77,11.502,1.654,33.0
0.0,0.0,0.0,0.0
75.517,8.392,0.337,18.0
75.56,8.408,-0.09,10.0
104.458,11.669,2.765,21.0
103.94,11.624,2.158,15.0
103.763,11.618,1.565,29.0
76.359,8.561,0.709,3.0
74.959,8.415,0.27,7.0
74.879,8.417,-0.156,14.0
144.173,16.266,3.687,10.0
144.092,16.273,2.864,13.0
144.093,16.293,2.043,11.0
75.607,8.559,0.634,1.0
74.645,8.461,0.201,24.0
74.683,8.475,-0.223,20.0
144.218,16.425,3.557,8.0
149.413,17.034,2.835,10.0
149.797,17.096,1.987,3.0
74.911,8.559,0.56,4.0
74.62,8.536,0.133,10.0
71.518,8.191,-0.279,0.0
153.02,17.583,3.634,10.0
149.435,17.189,2.696,19.0
0.0,0.0,0.0,0.0
74.629,8.602,0.488,10.0
0.0,0.0,0.0,0.0
71.592,8.271,-0.347,1.0
149.593,17.338,3.409,10.0
149.672,17.363,2.558,12.0
75.497,8.767,0.86,5.0
0.0,0.0,0.0,0.0
0.0,0.0,0.0,0.0
71.599,8.34,-0.416,1.0
97.821,11.43,2.135,5.0
149.644,17.501,2.412,16.0
75.503,8.838,0.786,7.0
0.0,0.0,0.0,0.0
69.836,8.191,-0.076,0.0
68.994,8.101,-0.468,2.0
97.747,11.509,2.037,29.0
97.726,11.516,1.479,43.0
0.0,0.0,0.0,0.0
0.0,0.0,0.0,0.0
0.0,0.0,0.0,0.0
68.917,8.152,-0.536,3.0
97.694,11.588,1.938,35.0
97.69,11.596,1.379,60.0
0.0,0.0,0.0,0.0
0.0,0.0,0.0,0.0
69.017,8.214,-0.214,3.0
68.944,8.213,-0.607,2.0
97.695,11.668,1.838,46.0
97.682,11.675,1.279,11.0
0.0,0.0,0.0,0.0
0.0,0.0,0.0,0.0
68.948,8.261,-0.285,2.0
0.0,0.0,0.0,0.0
97.736,11.749,1.737,24.0
0.0,0.0,0.0,0.0
68.89,8.293,0.437,5.0
68.808,8.289,0.037,151.0
68.937,8.312,-0.356,1.0
0.0,0.0,0.0,0.0
97.838,11.833,1.636,2.0
0.0,0.0,0.0,0.0
68.777,8.329,0.364,2.0
68.74,8.331,-0.035,151.0
69.125,8.384,-0.431,0.0
0.0,0.0,0.0,0.0
149.724,18.212,2.345,5.0
0.0,0.0,0.0,0.0
0.0,0.0,0.0,0.0
68.694,8.371,-0.109,55.0
0.0,0.0,0.0,0.0
68.698,8.384,-0.894,4.0
0.0,0.0,0.0,0.0
0.0,0.0,0.0,0.0
68.532,8.389,0.216,1.0
69.955,8.569,-0.186,3.0
0.0,0.0,0.0,0.0
68.672,8.423,-0.969,6.0
0.0,0.0,0.0,0.0
68.677,8.443,0.536,2.0
68.657,8.445,0.142,9.0
69.264,8.525,-0.26,3.0
0.0,0.0,0.0,0.0
68.662,8.462,-1.044,5.0
0.0,0.0,0.0,0.0
68.727,8.487,0.459,8.0
68.677,8.485,0.066,172.0
65.566,8.105,-0.318,2.0
55.716,6.892,-0.589,1.0
0.0,0.0,0.0,0.0
0.0,0.0,0.0,0.0
68.708,8.52,0.383,14.0
68.669,8.519,-0.01,150.0
65.389,8.116,-0.39,4.0
55.805,6.93,-0.652,0.0
40.459,5.027,-0.705,0.0
0.0,0.0,0.0,0.0
68.671,8.547,0.306,21.0
65.419,8.146,-0.083,4.0
65.304,8.135,-0.463,5.0
0.0,0.0,0.0,0.0
0.0,0.0,0.0,0.0
0.0,0.0,0.0,0.0
68.67,8.575,0.229,12.0
65.311,8.159,-0.155,40.0
65.256,8.155,-0.537,12.0
0.0,0.0,0.0,0.0
38.083,4.764,-0.749,0.0
68.698,8.602,0.544,7.0
65.541,8.209,0.144,1.0
65.273,8.178,-0.23,24.0
65.165,8.167,-0.609,2.0
45.318,5.682,-0.684,0.0
0.0,0.0,0.0,0.0
68.683,8.623,0.467,29.0
65.517,8.227,0.069,1.0
65.23,8.194,-0.304,23.0
0.0,0.0,0.0,0.0
42.529,5.346,-0.69,0.0
0.0,0.0,0.0,0.0
68.662,8.64,0.387,15.0
65.152,8.2,-0.005,1.0
65.181,8.205,-0.38,9.0
0.0,0.0,0.0,0.0
0.0,0.0,0.0,0.0
34.33,4.326,-0.793,0.0
68.631,8.652,0.308,6.0
65.175,8.218,-0.08,1.0
65.122,8.212,-0.454,0.0
0.0,0.0,0.0,0.0
38.585,4.868,-0.715,0.0
0.0,0.0,0.0,0.0
68.661,8.669,0.23,0.0
65.147,8.226,-0.154,2.0
64.864,8.191,-0.525,0.0
0.0,0.0,0.0,0.0
38.091,4.812,-0.749,0.0
31.36,3.963,-0.796,0.0
0.0,0.0,0.0,0.0
65.059,8.224,-0.228,2.0
0.0,0.0,0.0,0.0
0.0,0.0,0.0,0.0
37.115,4.694,-0.773,0.0
30.904,3.909,-0.821,1.0
0.0,0.0,0.0,0.0
65.08,8.232,-0.304,1.0
0.0,0.0,0.0,0.0
0.0,0.0,0.0,0.0
35.497,4.492,-0.78,0.0
30.183,3.82,-0.836,0.0
0.0,0.0,0.0,0.0
65.008,8.226,-0.378,0.0
0.0,0.0,0.0,0.0
0.0,0.0,0.0,0.0
34.24,4.333,-0.791,0.0
28.891,3.657,-0.834,0.0
0.0,0.0,0.0,0.0
0.0,0.0,0.0,0.0
0.0,0.0,0.0,0.0
38.502,4.872,-0.713,0.0
33.019,4.178,-0.801,0.0
28.066,3.552,-0.842,0.0
65.063,8.23,-0.153,1.0
65.097,8.234,-0.527,0.0
0.0,0.0,0.0,0.0
38.093,4.818,-0.749,0.0
31.339,3.964,-0.796,0.0
27.302,3.453,-0.85,0.0
65.067,8.225,-0.227,3.0
0.0,0.0,0.0,0.0
45.672,5.772,-0.683,0.0
37.366,4.722,-0.777,0.0
30.934,3.909,-0.82,1.0
26.384,3.334,-0.851,0.0
65.102,8.22,-0.3,4.0
0.0,0.0,0.0,0.0
0.0,0.0,0.0,0.0
35.247,4.448,-0.773,0.0
30.152,3.805,-0.834,0.0
25.663,3.239,-0.857,0.0
65.146,8.214,-0.374,5.0
0.0,0.0,0.0,0.0
0.0,0.0,0.0,0.0
34.154,4.304,-0.787,0.0
28.958,3.649,-0.833,0.0
24.87,3.133,-0.858,0.0
65.211,8.207,-0.447,8.0
0.0,0.0,0.0,0.0
38.868,4.889,-0.712,0.0
33.133,4.167,-0.8,0.0
28.198,3.546,-0.842,0.0
24.235,3.047,-0.863,0.0
65.199,8.188,-0.519,7.0
0.0,0.0,0.0,0.0
38.125,4.785,-0.74,0.0
31.529,3.956,-0.796,0.0
27.247,3.418,-0.844,0.0
23.749,2.979,-0.872,0.0
65.151,8.161,-0.589,2.0
45.966,5.756,-0.679,0.0
0.0,0.0,0.0,0.0
31.054,3.886,-0.817,0.0
26.538,3.32,-0.851,0.0
22.01,2.753,-0.832,0.0
0.0,0.0,0.0,0.0
0.0,0.0,0.0,0.0
0.0,0.0,0.0,0.0
30.098,3.755,-0.825,0.0
25.908,3.231,-0.858,0.0
21.905,2.731,-0.851,2.0
0.0,0.0,0.0,0.0
0.0,0.0,0.0,0.0
34.331,4.27,-0.778,0.0
29.329,3.647,-0.835,0.0
25.154,3.126,-0.86,0.0
21.854,2.716,-0.873,1.0
0.0,0.0,0.0,0.0
39.936,4.95,-0.719,0.0
32.953,4.083,-0.782,0.0
28.275,3.502,-0.835,0.0
24.446,3.027,-0.862,0.0
21.752,2.692,-0.892,0.0
68.662,8.481,-0.915,6.0
39.084,4.825,-0.744,0.0
32.124,3.964,-0.795,0.0
27.556,3.399,-0.843,0.0
23.857,2.941,-0.867,0.0
21.519,2.652,-0.905,0.0
68.659,8.443,-0.986,4.0
37.273,4.581,-0.748,0.0
31.39,3.856,-0.809,0.0
26.766,3.286,-0.846,0.0
23.487,2.882,-0.877,0.0
20.606,2.528,-0.887,0.0
0.0,0.0,0.0,0.0
36.742,4.494,-0.774,0.0
30.611,3.742,-0.82,0.0
25.976,3.174,-0.847,0.0
21.943,2.679,-0.841,0.0
20.363,2.486,-0.897,0.0
0.0,0.0,0.0,0.0
35.222,4.286,-0.777,0.0
29.736,3.616,-0.826,0.0
25.508,3.1,-0.857,0.0
21.867,2.656,-0.86,0.0
20.181,2.45,-0.909,0.0
40.336,4.884,-0.699,0.0
34.155,4.132,-0.787,0.0
28.833,3.486,-0.829,0.0
24.777,2.994,-0.856,0.0
21.777,2.63,-0.877,0.0
0.0,0.0,0.0,0.0
40.012,4.816,-0.732,0.0
32.781,3.943,-0.786,0.0
28.353,3.408,-0.842,0.0
24.371,2.927,-0.866,0.0
21.743,2.61,-0.897,0.0
19.144,2.296,-0.899,0.0
37.73,4.513,-0.726,0.0
32.105,3.837,-0.801,0.0
27.598,3.296,-0.846,0.0
23.797,2.84,-0.868,0.0
21.497,2.564,-0.906,0.0
18.991,2.263,-0.909,0.0
37.365,4.439,-0.753,0.0
31.248,3.709,-0.808,0.0
26.808,3.18,-0.846,0.0
23.419,2.775,-0.875,0.0
20.597,2.439,-0.887,0.0
18.63,2.205,-0.909,0.0
37.157,4.383,-0.782,0.0
30.537,3.599,-0.817,0.0
26.233,3.089,-0.851,0.0
23.05,2.712,-0.882,0.0
20.444,2.404,-0.899,0.0
18.292,2.149,-0.909,0.0
34.793,4.074,-0.762,0.0
29.911,3.499,-0.826,0.0
25.674,3.001,-0.855,0.0
21.857,2.552,-0.855,0.0
20.1,2.345,-0.901,0.0
18.064,2.106,-0.913,0.0
34.144,3.966,-0.778,1.0
29.139,3.381,-0.83,0.0
25.031,2.902,-0.855,0.0
21.783,2.523,-0.871,0.0
19.428,2.248,-0.887,0.0
17.709,2.048,-0.91,0.0
32.76,3.774,-0.773,0.0
28.583,3.289,-0.837,0.0
24.671,2.836,-0.863,0.0
21.786,2.502,-0.889,1.0
19.381,2.224,-0.901,2.0
17.499,2.006,-0.913,0.0
32.295,3.688,-0.789,0.0
27.785,3.169,-0.836,0.0
24.167,2.754,-0.865,0.0
21.771,2.478,-0.905,1.0
19.222,2.186,-0.909,1.0
17.353,1.971,-0.92,0.0
31.694,3.586,-0.799,0.0
27.274,3.083,-0.842,0.0
23.724,2.678,-0.868,0.0
21.622,2.438,-0.916,0.0
18.806,2.118,-0.904,0.0
17.145,1.929,-0.922,0.0
31.406,3.52,-0.815,0.0
26.916,3.013,-0.851,0.0
21.965,2.456,-0.82,0.0
20.59,2.299,-0.888,0.0
18.623,2.077,-0.909,0.0
16.894,1.883,-0.92,0.0
31.429,3.488,-0.838,0.0
26.325,2.917,-0.852,0.0
21.935,2.428,-0.834,2.0
20.332,2.248,-0.891,0.0
18.301,2.021,-0.906,0.0
16.764,1.849,-0.925,0.0
29.749,3.267,-0.814,0.0
25.817,2.831,-0.853,0.0
21.901,2.399,-0.848,3.0
19.853,2.172,-0.883,0.0
18.038,1.971,-0.905,0.0
16.469,1.797,-0.92,0.0
29.543,3.209,-0.828,0.0
25.302,2.745,-0.853,0.0
21.868,2.369,-0.861,5.0
19.657,2.127,-0.887,1.0
17.793,1.923,-0.904,1.0
16.406,1.77,-0.927,0.0
28.968,3.112,-0.831,0.0
24.969,2.678,-0.857,0.0
21.848,2.34,-0.874,6.0
19.629,2.1,-0.898,2.0
17.729,1.894,-0.912,1.0
16.209,1.729,-0.926,0.0
28.382,3.014,-0.831,0.0
24.611,2.609,-0.859,0.0
21.812,2.309,-0.885,4.0
19.519,2.063,-0.905,1.0
17.728,1.871,-0.922,1.0
16.025,1.689,-0.925,0.0
28.12,2.95,-0.839,0.0
24.345,2.55,-0.864,0.0
21.788,2.278,-0.897,3.0
19.315,2.017,-0.906,0.0
17.613,1.836,-0.926,0.0
15.934,1.659,-0.928,0.0
27.706,2.87,-0.842,0.0
24.003,2.482,-0.865,0.0
21.74,2.244,-0.906,2.0
19.12,1.971,-0.907,0.0
17.406,1.792,-0.924,0.0
15.78,1.622,-0.927,0.0
27.378,2.799,-0.846,0.0
23.755,2.425,-0.867,0.0
21.259,2.166,-0.897,0.0
18.905,1.923,-0.906,0.0
17.197,1.747,-0.921,0.0
15.631,1.585,-0.926,0.0
27.014,2.725,-0.847,0.0
23.696,2.386,-0.877,0.0
21.096,2.121,-0.899,0.0
18.695,1.876,-0.904,0.0
17.043,1.707,-0.921,0.0
15.594,1.56,-0.931,0.0
26.69,2.655,-0.849,1.0
23.485,2.332,-0.879,0.0
20.862,2.067,-0.898,0.0
18.442,1.824,-0.9,0.0
16.929,1.672,-0.922,0.0
15.489,1.527,-0.931,0.0
26.604,2.608,-0.857,1.0
23.368,2.287,-0.884,0.0
20.679,2.02,-0.899,0.0
18.205,1.775,-0.896,0.0
16.807,1.636,-0.921,0.0
15.383,1.494,-0.93,0.0
26.227,2.533,-0.854,0.0
21.992,2.12,-0.84,0.0
20.606,1.983,-0.903,0.0
18.301,1.758,-0.907,0.0
16.775,1.608,-0.925,0.0
15.297,1.463,-0.93,0.0
26.111,2.484,-0.859,0.0
22.005,2.089,-0.847,0.0
20.615,1.953,-0.91,0.0
18.185,1.72,-0.906,0.0
16.685,1.574,-0.926,0.0
15.189,1.431,-0.928,0.0
25.765,2.413,-0.855,0.0
21.918,2.048,-0.85,0.0
19.945,1.86,-0.886,0.0
18.126,1.686,-0.909,0.0
16.542,1.536,-0.922,0.0
15.125,1.402,-0.928,0.0
25.747,2.372,-0.861,0.0
21.867,2.01,-0.854,0.0
19.971,1.832,-0.892,0.0
18.115,1.658,-0.913,0.0
16.435,1.501,-0.92,0.0
15.051,1.371,-0.927,0.0
25.548,2.314,-0.86,0.0
21.863,1.976,-0.859,3.0
19.875,1.792,-0.892,0.0
17.962,1.616,-0.908,0.0
16.405,1.472,-0.922,0.0
15.03,1.346,-0.929,0.0
25.295,2.251,-0.856,0.0
21.869,1.942,-0.863,6.0
19.72,1.747,-0.888,0.0
18.219,1.61,-0.924,0.0
16.415,1.447,-0.925,0.0
15.012,1.32,-0.93,0.0
25.266,2.209,-0.859,0.0
21.851,1.905,-0.865,8.0
19.729,1.716,-0.891,0.0
18.004,1.562,-0.916,0.0
16.339,1.414,-0.922,0.0
15.004,1.296,-0.931,0.0
25.288,2.17,-0.863,0.0
21.873,1.872,-0.868,8.0
19.704,1.682,-0.892,0.0
18.007,1.533,-0.918,0.0
16.333,1.387,-0.924,0.0
14.994,1.27,-0.932,0.0
25.18,2.12,-0.861,0.0
21.855,1.835,-0.869,9.0
19.648,1.645,-0.891,0.0
18.08,1.51,-0.922,0.0
16.336,1.361,-0.924,0.0
15.0,1.246,-0.933,0.0
25.181,2.078,-0.862,0.0
21.835,1.797,-0.869,8.0
19.621,1.61,-0.89,0.0
18.064,1.479,-0.922,0.0
16.353,1.335,-0.926,0.0
14.969,1.219,-0.931,0.0
25.154,2.034,-0.86,0.0
21.843,1.761,-0.869,7.0
19.696,1.583,-0.893,0.0
18.18,1.457,-0.927,0.0
16.402,1.311,-0.928,0.0
14.998,1.195,-0.932,0.0
25.304,2.003,-0.864,0.0
21.863,1.726,-0.868,2.0
19.755,1.555,-0.894,0.0
18.335,1.439,-0.934,0.0
16.387,1.282,-0.926,0.0
15.028,1.172,-0.932,0.0
25.571,1.981,-0.871,0.0
21.846,1.687,-0.865,0.0
19.668,1.514,-0.888,0.0
0.0,0.0,0.0,0.0
16.442,1.258,-0.927,0.0
15.082,1.15,-0.934,0.0
25.477,1.93,-0.865,0.0
21.821,1.648,-0.861,0.0
19.913,1.498,-0.896,0.0
17.995,1.35,-0.912,0.0
16.489,1.233,-0.927,0.0
15.079,1.124,-0.931,0.0
25.657,1.899,-0.866,0.0
21.851,1.612,-0.859,0.0
19.883,1.462,-0.891,0.0
0.0,0.0,0.0,0.0
16.484,1.204,-0.923,0.0
15.133,1.102,-0.931,0.0
25.82,1.867,-0.867,0.0
21.875,1.576,-0.855,0.0
20.152,1.447,-0.899,0.0
18.24,1.305,-0.916,0.0
16.603,1.184,-0.926,0.0
15.151,1.076,-0.929,0.0
26.007,1.835,-0.867,0.0
21.934,1.542,-0.852,0.0
0.0,0.0,0.0,0.0
0.0,0.0,0.0,0.0
16.672,1.159,-0.925,0.0
15.218,1.055,-0.929,0.0
26.281,1.808,-0.868,0.0
21.877,1.499,-0.843,0.0
0.0,0.0,0.0,0.0
0.0,0.0,0.0,0.0
16.748,1.135,-0.924,0.0
15.279,1.032,-0.927,0.0
26.361,1.767,-0.862,0.0
21.921,1.464,-0.837,1.0
21.745,1.446,-0.95,0.0
0.0,0.0,0.0,0.0
16.924,1.117,-0.928,0.0
0.0,0.0,0.0,0.0
26.755,1.746,-0.865,0.0
21.925,1.425,-0.829,0.0
21.745,1.408,-0.942,0.0
0.0,0.0,0.0,0.0
0.0,0.0,0.0,0.0
15.553,0.995,-0.932,0.0
27.073,1.719,-0.864,0.0
23.651,1.496,-0.885,0.0
21.767,1.371,-0.933,0.0
18.95,1.188,-0.919,0.0
0.0,0.0,0.0,0.0
15.56,0.968,-0.925,0.0
27.282,1.684,-0.859,0.0
23.71,1.457,-0.876,0.0
21.778,1.333,-0.924,2.0
19.133,1.166,-0.918,0.0
0.0,0.0,0.0,0.0
15.822,0.956,-0.933,0.0
27.7,1.661,-0.858,0.0
24.074,1.437,-0.877,0.0
21.802,1.295,-0.914,4.0
19.28,1.141,-0.916,0.0
0.0,0.0,0.0,0.0
15.979,0.937,-0.934,0.0
28.214,1.641,-0.859,0.0
24.608,1.425,-0.884,0.0
21.81,1.257,-0.902,8.0
19.41,1.113,-0.911,0.0
17.437,0.995,-0.914,0.0
16.112,0.915,-0.932,0.0
28.73,1.619,-0.858,0.0
24.824,1.392,-0.877,0.0
21.812,1.218,-0.889,7.0
0.0,0.0,0.0,0.0
17.775,0.983,-0.92,0.0
16.272,0.896,-0.932,0.0
29.15,1.591,-0.853,0.0
25.202,1.368,-0.874,0.0
21.848,1.18,-0.877,1.0
0.0,0.0,0.0,0.0
17.972,0.961,-0.919,0.0
16.394,0.873,-0.928,0.0
29.577,1.562,-0.846,0.0
25.633,1.347,-0.872,0.0
21.905,1.145,-0.865,1.0
20.21,1.051,-0.91,0.0
18.196,0.941,-0.918,0.0
16.618,0.855,-0.929,0.0
30.451,1.553,-0.85,0.0
26.15,1.327,-0.872,0.0
0.0,0.0,0.0,0.0
20.253,1.017,-0.897,10.0
18.366,0.917,-0.913,0.0
16.783,0.833,-0.926,1.0
30.781,1.516,-0.837,0.0
26.667,1.305,-0.869,0.0
20.22,0.984,-0.769,0.0
20.21,0.978,-0.88,8.0
20.168,0.971,-0.988,2.0
17.143,0.821,-0.932,0.0
31.68,1.503,-0.836,0.0
27.623,1.303,-0.879,0.0
20.205,0.947,-0.752,156.0
20.222,0.943,-0.864,85.0
19.942,0.924,-0.96,15.0
20.229,0.932,-1.084,26.0
32.36,1.478,-0.828,0.0
20.246,0.919,-0.627,32.0
20.19,0.911,-0.735,183.0
20.23,0.907,-0.848,75.0
19.97,0.89,-0.945,3.0
20.224,0.896,-1.066,39.0
33.291,1.461,-0.823,0.0
20.249,0.883,-0.61,0.0
20.248,0.878,-0.719,152.0
20.22,0.871,-0.83,11.0
20.08,0.859,-0.932,1.0
17.943,0.763,-0.93,0.0
34.529,1.455,-0.823,0.0
29.926,1.253,-0.875,1.0
0.0,0.0,0.0,0.0
22.416,0.926,-0.899,3.0
20.196,0.829,-0.919,7.0
18.186,0.741,-0.926,0.0
35.44,1.431,-0.812,0.0
30.189,1.211,-0.854,1.0
26.171,1.042,-0.881,0.0
23.068,0.912,-0.903,1.0
20.274,0.796,-0.903,2.0
18.52,0.722,-0.925,0.0
0.0,0.0,0.0,0.0
30.247,1.16,-0.826,0.0
26.514,1.009,-0.867,0.0
23.484,0.887,-0.896,0.0
20.951,0.786,-0.912,0.0
18.763,0.699,-0.918,0.0
38.008,1.401,-0.795,0.0
32.289,1.181,-0.849,0.0
27.519,0.999,-0.871,0.0
24.064,0.867,-0.893,0.0
21.445,0.767,-0.911,0.0
19.291,0.685,-0.923,0.0
38.732,1.361,-0.77,0.0
32.532,1.134,-0.821,1.0
28.573,0.988,-0.874,0.0
24.754,0.849,-0.893,0.0
22.122,0.753,-0.916,0.0
19.801,0.668,-0.926,0.0
40.129,1.341,-0.755,0.0
33.875,1.123,-0.818,0.0
29.885,0.982,-0.881,1.0
25.306,0.825,-0.885,0.0
22.523,0.728,-0.908,0.0
20.23,0.648,-0.923,0.0
0.0,0.0,0.0,0.0
0.0,0.0,0.0,0.0
30.367,0.946,-0.861,1.0
26.185,0.809,-0.885,0.0
22.99,0.704,-0.9,0.0
20.62,0.626,-0.918,0.0
0.0,0.0,0.0,0.0
36.876,1.097,-0.806,0.0
31.677,0.934,-0.862,1.0
26.737,0.781,-0.872,0.0
23.706,0.686,-0.9,0.0
21.143,0.606,-0.916,0.0
0.0,0.0,0.0,0.0
37.963,1.066,-0.784,0.0
32.402,0.901,-0.842,1.0
28.149,0.775,-0.884,0.0
24.471,0.667,-0.899,0.0
21.938,0.592,-0.923,0.0
0.0,0.0,0.0,0.0
0.0,0.0,0.0,0.0
33.38,0.873,-0.826,0.0
29.116,0.753,-0.878,0.0
25.183,0.645,-0.894,0.0
22.419,0.568,-0.915,0.0
0.0,0.0,0.0,0.0
0.0,0.0,0.0,0.0
35.468,0.869,-0.833,0.0
30.153,0.731,-0.871,0.0
26.085,0.625,-0.892,0.0
22.861,0.542,-0.903,0.0
0.0,0.0,0.0,0.0
0.0,0.0,0.0,0.0
36.658,0.839,-0.813,0.0
31.488,0.712,-0.868,1.0
26.742,0.598,-0.879,0.0
23.799,0.526,-0.908,0.0
0.0,0.0,0.0,0.0
0.0,0.0,0.0,0.0
37.901,0.806,-0.789,0.0
32.468,0.682,-0.851,1.0
28.212,0.585,-0.889,0.0
24.604,0.504,-0.905,0.0
0.0,0.0,0.0,0.0
0.0,0.0,0.0,0.0
0.0,0.0,0.0,0.0
33.378,0.648,-0.829,0.0
29.015,0.556,-0.874,0.0
25.492,0.482,-0.903,0.0
0.0,0.0,0.0,0.0
0.0,0.0,0.0,0.0
0.0,0.0,0.0,0.0
34.053,0.608,-0.797,0.0
30.932,0.544,-0.887,1.0
26.302,0.456,-0.894,0.0
0.0,0.0,0.0,0.0
0.0,0.0,0.0,0.0
0.0,0.0,0.0,0.0
37.243,0.608,-0.818,0.0
31.737,0.51,-0.865,1.0
27.266,0.431,-0.887,0.0
0.0,0.0,0.0,0.0
0.0,0.0,0.0,0.0
0.0,0.0,0.0,0.0
20.164,0.298,-0.413,0.0
20.207,0.294,-0.52,4.0
20.216,0.289,-0.627,17.0
0.0,0.0,0.0,0.0
0.0,0.0,0.0,0.0
20.206,0.273,-0.275,0.0
20.177,0.268,-0.383,17.0
20.176,0.263,-0.489,18.0
20.203,0.258,-0.596,28.0
0.0,0.0,0.0,0.0
0.0,0.0,0.0,0.0
20.197,0.243,-0.244,19.0
20.185,0.238,-0.352,27.0
20.19,0.233,-0.458,24.0
20.19,0.229,-0.564,33.0
20.332,0.225,0.0,8.0
20.241,0.219,-0.107,0.0
20.157,0.214,-0.212,18.0
20.165,0.209,-0.32,28.0
20.176,0.204,-0.426,32.0
20.188,0.199,-0.532,31.0
20.335,0.196,0.031,35.0
20.221,0.19,-0.075,16.0
20.182,0.185,-0.18,18.0
20.174,0.18,-0.288,34.0
20.183,0.175,-0.394,30.0
20.202,0.171,-0.5,26.0
20.235,0.167,0.063,28.0
20.215,0.162,-0.042,24.0
20.178,0.157,-0.148,31.0
20.171,0.152,-0.255,32.0
20.189,0.147,-0.361,29.0
20.206,0.143,-0.467,3.0
20.205,0.138,0.096,40.0
20.181,0.133,-0.009,28.0
20.177,0.129,-0.115,39.0
20.186,0.124,-0.222,27.0
20.223,0.12,-0.328,23.0
0.0,0.0,0.0,0.0
20.173,0.111,0.129,26.0
20.186,0.106,0.023,32.0
20.176,0.102,-0.081,29.0
20.195,0.097,-0.188,25.0
20.22,0.093,-0.295,3.0
0.0,0.0,0.0,0.0
20.15,0.084,0.163,29.0
20.203,0.08,0.057,35.0
20.213,0.075,-0.047,33.0
20.213,0.071,-0.155,26.0
20.198,0.067,-0.26,0.0
20.232,0.062,-0.366,0.0
20.154,0.058,0.197,30.0
20.157,0.054,0.092,27.0
20.241,0.049,-0.012,19.0
20.27,0.045,-0.12,150.0
20.257,0.041,-0.226,151.0
20.265,0.037,-0.331,150.0
20.128,0.032,0.232,28.0
20.142,0.028,0.127,27.0
20.253,0.024,0.022,151.0
20.256,0.019,-0.085,151.0
20.268,0.015,-0.19,150.0
20.231,0.011,-0.295,14.0
20.12,0.007,0.267,28.0
20.114,0.003,0.162,28.0
20.142,0.0,0.057,28.0
20.14,-0.004,-0.048,18.0
20.181,-0.008,-0.154,25.0
20.166,-0.013,-0.258,17.0
20.126,-0.017,0.303,30.0
20.119,-0.021,0.198,36.0
20.125,-0.025,0.093,39.0
20.123,-0.029,-0.012,35.0
20.143,-0.032,-0.117,34.0
20.136,-0.036,-0.222,11.0
20.113,-0.04,0.339,34.0
20.127,-0.044,0.234,30.0
20.112,-0.048,0.13,30.0
20.118,-0.052,0.023,35.0
20.139,-0.056,-0.08,33.0
20.145,-0.06,-0.185,34.0
20.121,-0.063,0.375,35.0
20.118,-0.067,0.271,26.0
20.122,-0.071,0.166,26.0
20.127,-0.075,0.06,37.0
20.129,-0.078,-0.044,26.0
20.138,-0.082,-0.148,35.0
20.119,-0.086,0.412,29.0
20.126,-0.09,0.308,27.0
20.123,-0.093,0.203,20.0
20.13,-0.097,0.097,29.0
20.131,-0.101,-0.006,28.0
20.149,-0.104,-0.111,25.0
20.128,-0.108,0.45,19.0
20.117,-0.111,0.345,18.0
20.117,-0.115,0.241,17.0
20.13,-0.118,0.135,17.0
20.151,-0.122,0.03,25.0
20.164,-0.125,-0.073,22.0
20.183,-0.129,0.489,16.0
20.202,-0.133,0.385,19.0
20.202,-0.136,0.28,16.0
20.191,-0.139,0.173,16.0
58.307,-0.414,0.199,12.0
20.188,-0.146,-0.035,9.0
20.168,-0.15,0.526,8.0
20.224,-0.153,0.423,25.0
53.469,-0.415,0.842,7.0
66.519,-0.526,0.696,27.0
66.506,-0.537,0.352,19.0
