X,Y,Z,Reflectivity
30.96,0.137,3.189,3.0
30.393,0.143,3.986,3.0
30.432,0.147,3.814,8.0
30.478,0.152,3.643,69.0
30.486,0.156,3.465,33.0
36.992,0.195,3.99,4.0
30.955,0.167,3.161,30.0
30.384,0.173,3.957,40.0
30.408,0.177,3.783,33.0
30.509,0.182,3.618,3.0
30.567,0.187,3.445,8.0
36.921,0.231,3.948,6.0
30.963,0.197,3.132,58.0
30.395,0.203,3.929,60.0
30.417,0.207,3.755,12.0
40.201,0.279,4.729,2.0
40.245,0.285,4.497,2.0
47.936,0.345,5.079,4.0
36.345,0.266,3.641,4.0
30.418,0.232,3.901,54.0
42.147,0.327,5.16,4.0
53.005,0.419,6.181,27.0
40.449,0.324,4.478,2.0
30.921,0.252,3.244,41.0
45.88,0.379,4.549,6.0
33.774,0.289,4.296,3.0
57.363,0.499,6.963,7.0
60.673,0.535,7.011,6.0
47.648,0.426,5.224,5.0
30.935,0.28,3.213,39.0
45.913,0.421,4.503,7.0
42.134,0.4,5.314,2.0
52.632,0.506,6.331,4.0
36.334,0.353,4.159,2.0
30.969,0.305,3.361,34.0
45.977,0.458,4.725,21.0
40.334,0.407,3.911,25.0
51.387,0.534,6.422,1.0
57.193,0.601,6.814,20.0
30.975,0.329,3.51,40.0
30.929,0.332,3.322,44.0
57.675,0.626,5.86,10.0
40.328,0.442,3.864,57.0
47.933,0.54,5.935,10.0
31.044,0.353,3.662,7.0
31.01,0.356,3.477,40.0
30.911,0.358,3.283,42.0
52.629,0.617,5.285,8.0
40.316,0.477,3.815,65.0
47.778,0.58,5.857,5.0
31.044,0.379,3.624,59.0
46.402,0.573,5.147,8.0
30.929,0.384,3.247,23.0
36.354,0.456,3.606,3.0
40.37,0.51,3.771,39.0
47.056,0.609,5.71,5.0
31.041,0.405,3.585,20.0
48.21,0.634,5.287,2.0
30.934,0.41,3.209,3.0
36.404,0.485,3.565,5.0
40.516,0.545,3.733,26.0
31.064,0.428,3.729,67.0
46.574,0.645,5.319,20.0
46.187,0.644,5.005,11.0
58.56,0.822,5.999,33.0
54.305,0.768,5.248,2.0
44.076,0.627,4.004,6.0
31.067,0.451,3.689,17.0
47.565,0.696,5.37,7.0
46.183,0.68,4.944,4.0
58.608,0.868,5.926,5.0
54.054,0.805,5.151,11.0
40.407,0.605,3.617,8.0
46.64,0.713,5.475,21.0
47.549,0.731,5.303,3.0
37.126,0.573,3.923,4.0
36.363,0.565,3.627,1.0
52.539,0.821,4.935,17.0
40.41,0.634,3.561,33.0
46.968,0.752,5.447,5.0
47.133,0.758,5.191,4.0
37.053,0.599,3.864,1.0
56.714,0.921,5.578,5.0
0.0,0.0,0.0,0.0
40.399,0.663,3.503,9.0
48.412,0.809,5.546,5.0
46.181,0.775,5.02,5.0
48.148,0.811,4.953,3.0
52.54,0.889,5.092,22.0
43.916,0.746,4.001,11.0
46.429,0.792,3.96,9.0
52.255,0.908,5.91,3.0
53.219,0.928,5.707,4.0
52.558,0.92,5.33,35.0
40.428,0.71,3.859,40.0
40.406,0.712,3.622,12.0
46.432,0.822,3.893,28.0
47.806,0.861,5.336,4.0
52.622,0.95,5.565,7.0
36.335,0.658,3.63,2.0
40.345,0.734,3.791,36.0
46.483,0.848,4.097,11.0
43.192,0.79,3.556,10.0
46.206,0.859,5.088,10.0
52.548,0.98,5.478,21.0
52.61,0.984,5.177,4.0
40.276,0.756,3.724,31.0
46.454,0.874,4.025,54.0
58.03,1.095,4.691,7.0
52.524,1.007,5.702,40.0
58.95,1.133,6.055,5.0
46.572,0.897,4.511,7.0
40.247,0.778,3.659,26.0
46.496,0.9,3.957,10.0
57.879,1.124,4.589,6.0
52.28,1.031,5.593,11.0
36.332,0.718,3.674,3.0
40.363,0.799,3.845,13.0
46.518,0.923,4.155,9.0
52.325,1.041,4.37,5.0
59.205,1.181,4.6,33.0
37.067,0.749,3.906,6.0
46.553,0.943,4.633,40.0
40.269,0.817,3.772,28.0
46.451,0.944,4.075,7.0
43.131,0.879,3.532,7.0
59.48,1.215,4.525,18.0
46.642,0.965,4.838,3.0
46.532,0.964,4.554,4.0
40.233,0.835,3.702,14.0
46.488,0.967,4.001,16.0
43.629,0.909,3.501,1.0
53.406,1.115,3.975,1.0
46.558,0.984,4.752,37.0
52.541,1.112,5.055,24.0
40.307,0.854,3.642,20.0
52.398,1.112,4.424,13.0
58.558,1.244,4.603,34.0
66.261,1.41,4.822,3.0
46.544,1.002,4.673,4.0
52.501,1.132,4.963,24.0
40.403,0.872,3.583,17.0
52.196,1.128,4.318,21.0
59.908,1.296,4.607,15.0
66.329,1.437,4.715,18.0
52.564,1.152,5.187,20.0
46.563,1.021,4.322,12.0
46.522,1.021,4.046,6.0
52.196,1.147,4.229,10.0
67.354,1.481,5.064,11.0
67.737,1.49,4.699,13.0
52.516,1.168,5.091,11.0
40.257,0.896,3.667,13.0
43.57,0.97,3.714,11.0
0.0,0.0,0.0,0.0
66.33,1.479,4.872,30.0
66.032,1.473,4.466,4.0
46.573,1.05,4.434,8.0
40.421,0.912,3.611,15.0
52.237,1.178,4.361,6.0
57.66,1.302,4.471,12.0
68.019,1.536,4.877,12.0
66.07,1.492,4.353,26.0
46.595,1.063,4.353,6.0
46.583,1.063,4.079,5.0
59.611,1.36,4.871,34.0
66.542,1.518,5.041,24.0
67.679,1.544,4.732,6.0
67.507,1.541,4.327,3.0
43.228,0.996,3.96,18.0
43.722,1.007,3.749,17.0
0.0,0.0,0.0,0.0
66.204,1.525,4.895,6.0
66.016,1.52,4.497,31.0
67.474,1.554,4.202,2.0
40.372,0.938,3.625,2.0
43.038,0.999,3.612,8.0
57.694,1.339,4.504,18.0
67.96,1.578,4.902,18.0
66.048,1.533,4.378,3.0
117.697,2.73,7.119,5.0
40.398,0.945,3.553,2.0
59.3,1.386,4.869,33.0
66.457,1.552,5.067,29.0
67.912,1.585,4.774,7.0
67.455,1.574,4.349,2.0
69.149,1.613,4.055,4.0
43.645,1.026,3.758,10.0
0.0,0.0,0.0,0.0
52.817,1.239,3.929,4.0
66.03,1.548,4.52,24.0
67.463,1.58,4.224,2.0
103.088,2.414,5.855,4.0
43.019,1.014,3.624,10.0
66.575,1.569,5.217,13.0
67.946,1.599,4.928,8.0
101.36,2.383,6.749,12.0
101.276,2.378,6.153,6.0
110.163,2.585,6.053,6.0
52.317,1.236,4.309,4.0
66.416,1.567,5.081,19.0
65.981,1.555,4.662,12.0
101.53,2.39,6.57,6.0
69.305,1.629,4.08,5.0
103.886,2.44,5.511,7.0
57.438,1.357,4.622,7.0
52.827,1.246,3.941,4.0
66.021,1.555,4.539,19.0
67.451,1.587,4.237,2.0
103.153,2.423,5.877,5.0
103.799,2.434,5.31,9.0
66.561,1.571,5.229,14.0
67.905,1.599,4.936,9.0
101.39,2.384,6.777,8.0
117.94,2.768,7.182,10.0
103.295,2.421,5.689,6.0
110.555,2.586,5.445,3.0
66.42,1.562,5.089,21.0
67.923,1.595,4.807,7.0
101.52,2.379,6.591,5.0
69.159,1.617,4.08,5.0
103.803,2.422,5.517,6.0
102.872,2.396,4.869,2.0
52.831,1.236,3.947,5.0
66.013,1.542,4.545,24.0
67.507,1.573,4.253,3.0
103.1,2.397,5.883,5.0
103.808,2.409,5.318,8.0
103.1,2.387,4.682,1.0
67.99,1.581,4.947,14.0
66.044,1.532,4.419,8.0
69.509,1.609,4.245,1.0
110.154,2.543,6.074,6.0
69.232,1.595,3.413,2.0
124.896,2.87,5.431,2.0
67.763,1.563,4.799,9.0
101.546,2.337,6.597,5.0
69.201,1.588,4.091,7.0
118.336,2.708,6.293,7.0
124.447,2.841,5.894,3.0
102.759,2.339,4.269,6.0
66.042,1.508,4.548,14.0
104.433,2.379,6.582,5.0
103.284,2.345,5.905,6.0
103.738,2.348,5.315,9.0
103.188,2.329,4.685,4.0
102.572,2.309,4.061,4.0
66.067,1.491,4.42,31.0
117.85,2.651,7.195,4.0
68.674,1.54,3.791,6.0
110.274,2.465,5.434,6.0
124.894,2.783,5.427,2.0
0.0,0.0,0.0,0.0
66.123,1.472,4.294,30.0
68.835,1.527,4.067,7.0
103.653,2.292,5.52,5.0
110.614,2.437,5.234,2.0
102.751,2.256,4.263,6.0
140.339,3.07,5.005,2.0
66.202,1.451,4.168,15.0
103.293,2.256,5.899,3.0
103.809,2.258,5.322,13.0
103.09,2.234,4.675,5.0
102.608,2.215,4.054,2.0
0.0,0.0,0.0,0.0
68.94,1.485,4.204,6.0
103.261,2.215,5.694,7.0
118.316,2.527,5.834,6.0
124.354,2.645,5.395,5.0
139.992,2.965,5.257,2.0
0.0,0.0,0.0,0.0
69.122,1.459,4.079,2.0
103.493,2.175,5.503,7.0
118.191,2.473,5.594,8.0
124.591,2.596,5.16,11.0
0.0,0.0,0.0,0.0
194.795,4.021,5.798,5.0
101.554,2.098,5.792,4.0
103.717,2.132,5.31,10.0
103.055,2.108,4.675,5.0
124.704,2.539,4.92,10.0
0.0,0.0,0.0,0.0
0.0,0.0,0.0,0.0
103.405,2.084,5.694,9.0
69.251,1.388,3.409,1.0
118.734,2.368,5.152,8.0
147.741,2.932,5.537,3.0
0.0,0.0,0.0,0.0
194.76,3.823,5.029,19.0
103.378,2.027,5.486,9.0
118.882,2.319,5.617,9.0
124.698,2.418,5.162,10.0
148.461,2.862,5.266,3.0
0.0,0.0,0.0,0.0
194.522,3.708,4.637,13.0
69.244,1.317,3.538,9.0
118.102,2.233,5.344,12.0
124.951,2.349,4.927,23.0
0.0,0.0,0.0,0.0
0.0,0.0,0.0,0.0
194.543,3.589,4.253,18.0
103.76,1.91,5.096,16.0
118.346,2.164,5.122,19.0
124.773,2.266,4.672,23.0
148.844,2.687,4.692,3.0
194.852,3.493,5.007,5.0
194.735,3.467,3.872,15.0
103.825,1.843,4.892,9.0
118.596,2.091,4.898,27.0
124.8,2.184,4.428,17.0
162.416,2.821,4.8,3.0
194.872,3.36,4.624,10.0
195.013,3.339,3.495,23.0
117.611,2.006,5.312,4.0
118.529,2.007,4.663,17.0
124.812,2.096,4.182,8.0
0.0,0.0,0.0,0.0
194.734,3.218,4.237,10.0
194.802,3.193,3.105,32.0
117.54,1.917,5.074,5.0
133.36,2.158,4.982,3.0
148.477,2.382,4.681,4.0
196.65,3.128,5.037,14.0
194.997,3.076,3.861,25.0
195.96,3.064,2.741,5.0
117.721,1.83,4.853,18.0
125.248,1.928,4.433,10.0
157.146,2.398,4.647,12.0
196.269,2.967,4.643,26.0
194.904,2.918,3.477,35.0
0.0,0.0,0.0,0.0
102.993,1.517,4.045,15.0
125.063,1.824,4.182,27.0
157.086,2.268,4.34,30.0
195.974,2.802,4.257,19.0
194.886,2.758,3.101,25.0
0.0,0.0,0.0,0.0
102.99,1.431,3.845,16.0
125.065,1.718,3.942,27.0
20.292,0.275,0.521,4.0
20.279,0.272,0.401,6.0
20.287,0.269,0.283,2.0
0.0,0.0,0.0,0.0
103.003,1.341,3.649,4.0
20.291,0.26,0.6,1.0
20.302,0.257,0.482,23.0
20.252,0.253,0.361,19.0
20.29,0.251,0.244,12.0
20.312,0.248,0.126,0.0
118.11,1.428,3.955,11.0
20.285,0.241,0.561,24.0
20.274,0.238,0.443,26.0
20.288,0.235,0.323,27.0
20.293,0.232,0.205,22.0
20.31,0.228,0.088,9.0
20.293,0.225,0.64,2.0
20.269,0.222,0.522,27.0
20.276,0.218,0.404,32.0
20.273,0.215,0.284,25.0
20.291,0.212,0.167,27.0
20.337,0.209,0.049,26.0
20.27,0.205,0.601,17.0
20.268,0.202,0.484,30.0
20.275,0.198,0.366,30.0
20.285,0.195,0.246,28.0
20.312,0.191,0.129,29.0
20.329,0.188,0.011,31.0
20.272,0.184,0.563,24.0
20.264,0.18,0.445,28.0
20.264,0.177,0.328,26.0
20.273,0.173,0.208,24.0
20.275,0.17,0.09,28.0
20.224,0.166,-0.026,21.0
20.183,0.162,0.523,18.0
20.177,0.158,0.406,25.0
20.172,0.155,0.289,20.0
20.178,0.151,0.169,24.0
20.206,0.147,0.053,23.0
20.193,0.144,-0.064,24.0
20.177,0.14,0.486,24.0
20.174,0.136,0.369,26.0
20.17,0.132,0.252,24.0
20.183,0.129,0.133,27.0
20.18,0.125,0.015,26.0
20.177,0.121,-0.101,39.0
20.157,0.117,0.448,28.0
20.166,0.113,0.332,28.0
20.159,0.109,0.215,26.0
20.192,0.105,0.096,33.0
20.181,0.101,-0.02,29.0
20.184,0.097,-0.137,31.0
20.151,0.093,0.411,28.0
20.15,0.089,0.294,27.0
20.149,0.085,0.178,27.0
20.201,0.082,0.059,34.0
20.196,0.078,-0.057,29.0
20.199,0.074,-0.174,24.0
20.141,0.069,0.375,29.0
20.15,0.065,0.259,27.0
20.143,0.061,0.142,27.0
20.208,0.057,0.024,26.0
20.224,0.053,-0.093,23.0
20.215,0.049,-0.21,17.0
20.143,0.045,0.34,31.0
20.137,0.041,0.223,27.0
20.145,0.036,0.106,28.0
20.264,0.032,-0.011,150.0
20.252,0.028,-0.129,151.0
20.257,0.024,-0.246,151.0
20.131,0.019,0.305,29.0
20.13,0.015,0.188,27.0
20.186,0.011,0.072,41.0
20.254,0.007,-0.046,150.0
20.246,0.002,-0.164,31.0
20.244,-0.001,-0.281,6.0
20.128,-0.006,0.27,27.0
20.117,-0.01,0.153,27.0
20.131,-0.014,0.037,19.0
20.164,-0.019,-0.081,23.0
20.155,-0.023,-0.198,8.0
20.168,-0.028,-0.314,9.0
20.116,-0.032,0.235,36.0
20.124,-0.036,0.119,40.0
20.121,-0.041,0.003,34.0
20.147,-0.045,-0.115,29.0
20.144,-0.05,-0.231,20.0
20.168,-0.055,-0.348,20.0
20.121,-0.059,0.201,31.0
20.135,-0.064,0.085,42.0
20.135,-0.068,-0.03,29.0
20.14,-0.073,-0.149,37.0
20.141,-0.078,-0.265,33.0
20.156,-0.082,-0.382,26.0
20.132,-0.087,0.168,27.0
20.13,-0.091,0.052,33.0
20.144,-0.096,-0.064,28.0
20.152,-0.101,-0.182,26.0
20.142,-0.106,-0.298,38.0
20.148,-0.111,-0.415,38.0
20.129,-0.115,0.135,19.0
20.151,-0.12,0.019,25.0
20.181,-0.125,-0.097,21.0
20.116,-0.129,-0.214,18.0
20.158,-0.135,-0.331,31.0
20.167,-0.14,-0.448,33.0
20.177,-0.144,0.103,14.0
20.175,-0.149,-0.012,14.0
20.159,-0.154,-0.128,15.0
20.163,-0.159,-0.247,25.0
20.173,-0.164,-0.363,27.0
20.182,-0.168,-0.48,28.0
53.343,-0.459,0.19,6.0
53.348,-0.473,-0.116,4.0
56.497,-0.514,-0.449,1.0
44.873,-0.419,-0.619,11.0
20.179,-0.193,-0.395,18.0
20.188,-0.199,-0.512,29.0
56.185,-0.566,0.114,1.0
56.242,-0.581,-0.209,5.0
52.708,-0.558,-0.5,7.0
38.255,-0.415,-0.587,14.0
31.959,-0.354,-0.675,1.0
20.211,-0.229,-0.543,19.0
56.262,-0.652,0.029,1.0
56.599,-0.67,-0.296,3.0
45.249,-0.547,-0.497,19.0
37.974,-0.469,-0.64,21.0
31.297,-0.395,-0.708,21.0
28.422,-0.366,-0.806,1.0
59.536,-0.781,-0.058,62.0
56.62,-0.757,-0.381,13.0
44.948,-0.613,-0.561,29.0
36.094,-0.502,-0.662,2.0
30.399,-0.431,-0.733,21.0
27.022,-0.39,-0.807,1.0
57.072,-0.837,-0.138,4.0
52.949,-0.791,-0.433,13.0
44.851,-0.681,-0.625,4.0
31.717,-0.491,-0.628,8.0
29.56,-0.465,-0.755,8.0
25.821,-0.413,-0.808,5.0
20.149,-0.327,-0.077,0.0
52.754,-0.872,-0.507,9.0
38.316,-0.643,-0.588,14.0
30.95,-0.528,-0.656,29.0
28.346,-0.491,-0.764,4.0
24.769,-0.436,-0.81,2.0
52.946,-0.945,-0.278,48.0
45.076,-0.817,-0.496,19.0
37.926,-0.698,-0.635,18.0
30.52,-0.57,-0.69,31.0
27.367,-0.518,-0.776,5.0
23.422,-0.45,-0.799,2.0
45.609,-0.888,-0.302,26.0
44.883,-0.887,-0.556,21.0
31.542,-0.632,-0.571,1.0
30.032,-0.61,-0.719,17.0
26.366,-0.543,-0.783,1.0
22.285,-0.465,-0.79,2.0
38.366,-0.81,-0.305,39.0
38.344,-0.82,-0.525,13.0
31.272,-0.678,-0.608,24.0
28.392,-0.623,-0.717,1.0
23.851,-0.53,-0.74,4.0
21.534,-0.485,-0.792,1.0
40.42,-0.921,-0.374,63.0
38.2,-0.881,-0.573,24.0
30.813,-0.719,-0.638,30.0
28.003,-0.662,-0.744,1.0
23.778,-0.568,-0.768,16.0
20.922,-0.506,-0.796,1.0
38.785,-0.948,-0.408,26.0
37.946,-0.938,-0.617,16.0
30.539,-0.764,-0.671,34.0
25.109,-0.635,-0.698,0.0
23.657,-0.605,-0.793,5.0
20.32,-0.526,-0.798,0.0
38.657,-1.009,-0.454,31.0
31.527,-0.832,-0.55,7.0
30.416,-0.812,-0.705,26.0
24.907,-0.672,-0.723,9.0
22.469,-0.613,-0.781,4.0
19.789,-0.545,-0.801,0.0
38.456,-1.069,-0.497,28.0
31.167,-0.876,-0.581,27.0
30.106,-0.855,-0.734,6.0
24.375,-0.699,-0.736,25.0
21.793,-0.632,-0.783,0.0
19.283,-0.565,-0.803,0.0
38.225,-1.129,-0.538,19.0
30.835,-0.92,-0.611,35.0
28.445,-0.857,-0.726,1.0
23.797,-0.724,-0.746,17.0
21.193,-0.651,-0.785,0.0
18.911,-0.587,-0.809,0.0
38.031,-1.189,-0.579,19.0
30.599,-0.966,-0.64,35.0
27.823,-0.886,-0.741,1.0
23.71,-0.763,-0.769,12.0
20.581,-0.668,-0.785,0.0
18.283,-0.599,-0.802,0.0
37.967,-1.253,-0.619,7.0
30.502,-1.016,-0.671,32.0
25.105,-0.844,-0.695,2.0
22.777,-0.772,-0.763,7.0
20.15,-0.69,-0.791,0.0
18.01,-0.622,-0.809,0.0
31.291,-1.088,-0.543,28.0
30.453,-1.068,-0.702,24.0
24.81,-0.878,-0.713,13.0
22.325,-0.797,-0.771,2.0
19.674,-0.708,-0.792,0.0
17.705,-0.643,-0.814,0.0
30.995,-1.132,-0.569,31.0
30.269,-1.115,-0.728,8.0
24.289,-0.902,-0.723,22.0
21.828,-0.818,-0.776,2.0
19.298,-0.729,-0.796,0.0
17.286,-0.658,-0.812,1.0
30.786,-1.179,-0.595,27.0
28.492,-1.1,-0.713,25.0
23.864,-0.929,-0.733,17.0
21.343,-0.837,-0.779,1.0
18.786,-0.743,-0.793,0.0
16.987,-0.677,-0.814,1.0
28.453,-1.141,-0.576,77.0
28.379,-1.147,-0.736,20.0
23.789,-0.969,-0.753,14.0
20.73,-0.851,-0.776,2.0
18.46,-0.764,-0.796,0.0
16.744,-0.698,-0.817,4.0
28.465,-1.192,-0.602,141.0
28.239,-1.192,-0.758,1.0
23.715,-1.008,-0.771,5.0
20.325,-0.871,-0.779,0.0
18.186,-0.785,-0.8,0.0
16.335,-0.711,-0.812,2.0
28.481,-1.244,-0.627,60.0
24.724,-1.088,-0.685,5.0
22.815,-1.012,-0.761,4.0
20.029,-0.895,-0.784,0.0
17.764,-0.799,-0.797,1.0
16.223,-0.735,-0.82,1.0
30.498,-1.388,-0.696,14.0
24.33,-1.115,-0.693,13.0
22.235,-1.026,-0.76,2.0
19.612,-0.911,-0.784,0.0
17.45,-0.817,-0.796,0.0
16.102,-0.759,-0.826,1.0
30.168,-1.427,-0.712,8.0
24.067,-1.146,-0.705,17.0
21.901,-1.05,-0.765,1.0
19.386,-0.936,-0.789,0.0
17.256,-0.839,-0.801,0.0
15.957,-0.781,-0.831,0.0
28.495,-1.4,-0.694,2.0
23.929,-1.184,-0.718,15.0
21.642,-1.077,-0.772,1.0
19.007,-0.952,-0.788,0.0
16.95,-0.855,-0.798,0.0
15.791,-0.802,-0.834,0.0
24.584,-1.252,-0.616,10.0
23.824,-1.222,-0.732,15.0
21.134,-1.09,-0.768,1.0
18.702,-0.971,-0.788,0.0
16.761,-0.876,-0.801,1.0
15.684,-0.825,-0.838,0.0
24.505,-1.293,-0.63,25.0
23.777,-1.262,-0.746,13.0
20.837,-1.113,-0.771,2.0
18.493,-0.994,-0.791,0.0
16.613,-0.898,-0.805,1.0
15.551,-0.846,-0.841,1.0
24.432,-1.333,-0.643,21.0
23.587,-1.295,-0.754,5.0
20.592,-1.137,-0.775,2.0
18.326,-1.018,-0.795,0.0
16.531,-0.924,-0.81,1.0
15.467,-0.87,-0.846,0.0
24.372,-1.375,-0.656,21.0
23.345,-1.324,-0.76,4.0
20.4,-1.164,-0.779,2.0
18.091,-1.038,-0.795,0.0
16.29,-0.94,-0.808,2.0
15.364,-0.892,-0.849,0.0
24.337,-1.417,-0.668,24.0
23.053,-1.349,-0.762,3.0
20.164,-1.187,-0.78,1.0
17.757,-1.051,-0.789,0.0
16.204,-0.965,-0.812,1.0
15.255,-0.914,-0.85,1.0
24.277,-1.457,-0.678,22.0
22.358,-1.349,-0.75,1.0
19.826,-1.203,-0.777,0.0
17.664,-1.078,-0.794,1.0
16.108,-0.989,-0.815,1.0
15.15,-0.935,-0.852,0.0
24.155,-1.493,-0.686,18.0
22.103,-1.374,-0.752,1.0
19.615,-1.226,-0.778,0.0
17.507,-1.1,-0.794,0.0
15.996,-1.01,-0.816,1.0
15.027,-0.955,-0.851,0.0
24.052,-1.53,-0.693,16.0
21.993,-1.407,-0.757,0.0
19.402,-1.247,-0.777,0.0
17.315,-1.119,-0.792,1.0
15.884,-1.032,-0.816,0.0
14.964,-0.977,-0.853,0.0
23.984,-1.569,-0.7,16.0
21.643,-1.423,-0.753,0.0
19.303,-1.275,-0.78,0.0
17.215,-1.143,-0.794,1.0
15.821,-1.056,-0.819,0.0
14.821,-0.995,-0.85,0.0
23.935,-1.609,-0.706,17.0
21.38,-1.444,-0.751,0.0
19.065,-1.294,-0.777,1.0
17.071,-1.165,-0.793,1.0
15.737,-1.079,-0.819,1.0
14.741,-1.016,-0.85,0.0
23.872,-1.647,-0.712,14.0
21.274,-1.475,-0.753,0.0
18.981,-1.322,-0.778,0.0
16.972,-1.188,-0.793,1.0
15.683,-1.103,-0.821,1.0
14.673,-1.037,-0.85,0.0
23.837,-1.687,-0.717,14.0
21.165,-1.505,-0.755,0.0
18.878,-1.349,-0.779,1.0
16.932,-1.215,-0.795,1.0
15.63,-1.127,-0.821,1.0
14.64,-1.061,-0.852,0.0
23.807,-1.726,-0.721,18.0
21.138,-1.54,-0.758,2.0
18.814,-1.377,-0.78,1.0
17.044,-1.253,-0.804,4.0
15.579,-1.151,-0.822,0.0
14.586,-1.082,-0.851,0.0
23.817,-1.769,-0.725,17.0
21.031,-1.569,-0.758,2.0
18.556,-1.39,-0.772,1.0
16.868,-1.27,-0.798,1.0
15.555,-1.176,-0.823,1.0
14.58,-1.108,-0.853,0.0
23.775,-1.807,-0.727,12.0
20.913,-1.596,-0.756,1.0
18.481,-1.417,-0.771,1.0
16.796,-1.293,-0.796,1.0
15.537,-1.201,-0.824,1.0
14.536,-1.129,-0.852,0.0
23.733,-1.845,-0.728,11.0
20.83,-1.626,-0.755,1.0
18.447,-1.446,-0.771,1.0
16.703,-1.315,-0.793,1.0
15.512,-1.226,-0.823,1.0
14.5,-1.151,-0.85,0.0
23.738,-1.886,-0.729,9.0
20.752,-1.655,-0.753,1.0
18.538,-1.485,-0.776,1.0
16.669,-1.341,-0.792,1.0
15.494,-1.252,-0.823,1.0
14.489,-1.175,-0.85,0.0
23.67,-1.921,-0.728,10.0
20.66,-1.683,-0.75,1.0
18.517,-1.515,-0.775,1.0
16.628,-1.366,-0.79,1.0
15.51,-1.279,-0.823,1.0
14.48,-1.199,-0.85,0.0
23.653,-1.959,-0.727,9.0
20.753,-1.725,-0.753,1.0
18.541,-1.547,-0.776,1.0
16.629,-1.393,-0.79,1.0
15.461,-1.301,-0.82,1.0
14.468,-1.222,-0.848,0.0
23.726,-2.004,-0.727,12.0
20.808,-1.764,-0.753,1.0
18.537,-1.578,-0.774,1.0
16.634,-1.421,-0.788,1.0
15.461,-1.326,-0.819,1.0
14.454,-1.245,-0.846,1.0
23.73,-2.044,-0.725,12.0
20.862,-1.803,-0.753,0.0
18.593,-1.613,-0.774,0.0
16.614,-1.447,-0.786,0.0
15.467,-1.352,-0.817,1.0
14.483,-1.271,-0.846,1.0
23.772,-2.086,-0.723,12.0
20.815,-1.833,-0.748,1.0
18.578,-1.642,-0.771,1.0
16.744,-1.485,-0.789,1.0
15.477,-1.378,-0.815,1.0
14.558,-1.301,-0.848,1.0
23.776,-2.124,-0.719,12.0
20.992,-1.882,-0.751,1.0
18.735,-1.685,-0.774,1.0
16.784,-1.515,-0.788,0.0
15.513,-1.406,-0.814,1.0
14.507,-1.319,-0.842,0.0
23.803,-2.164,-0.715,12.0
20.952,-1.912,-0.745,0.0
18.765,-1.718,-0.771,1.0
16.836,-1.547,-0.786,0.0
15.542,-1.433,-0.812,1.0
14.515,-1.343,-0.838,0.0
23.898,-2.211,-0.712,9.0
21.257,-1.973,-0.75,1.0
18.861,-1.756,-0.769,1.0
16.879,-1.577,-0.784,0.0
15.61,-1.464,-0.811,1.0
14.56,-1.37,-0.837,0.0
24.567,-2.31,-0.724,5.0
21.33,-2.013,-0.746,1.0
19.013,-1.8,-0.77,1.0
16.964,-1.611,-0.782,0.0
15.655,-1.492,-0.808,1.0
14.608,-1.397,-0.835,0.0
24.547,-2.346,-0.716,5.0
21.404,-2.052,-0.742,0.0
19.101,-1.837,-0.767,1.0
17.023,-1.642,-0.779,0.0
15.716,-1.521,-0.806,1.0
14.663,-1.424,-0.833,0.0
24.788,-2.406,-0.714,6.0
21.466,-2.09,-0.736,0.0
19.235,-1.878,-0.765,1.0
17.142,-1.679,-0.778,0.0
15.761,-1.549,-0.802,1.0
14.762,-1.455,-0.833,0.0
24.915,-2.455,-0.708,5.0
21.615,-2.136,-0.733,1.0
19.381,-1.921,-0.763,1.0
17.236,-1.713,-0.775,0.0
15.848,-1.58,-0.8,1.0
14.85,-1.485,-0.831,0.0
25.173,-2.516,-0.704,6.0
21.998,-2.205,-0.736,1.0
19.471,-1.957,-0.758,1.0
17.381,-1.752,-0.774,0.0
15.978,-1.616,-0.799,1.0
14.973,-1.519,-0.831,1.0
25.441,-2.579,-0.7,6.0
22.126,-2.249,-0.73,2.0
19.686,-2.006,-0.757,1.0
17.668,-1.806,-0.778,0.0
16.048,-1.645,-0.795,1.0
15.039,-1.546,-0.828,1.0
25.639,-2.634,-0.692,6.0
22.394,-2.307,-0.727,1.0
19.928,-2.058,-0.756,2.0
17.842,-1.848,-0.777,1.0
16.198,-1.682,-0.794,2.0
15.091,-1.572,-0.822,1.0
25.987,-2.705,-0.688,6.0
22.617,-2.36,-0.723,4.0
20.084,-2.101,-0.751,1.0
17.968,-1.885,-0.772,1.0
16.296,-1.714,-0.79,1.0
15.198,-1.603,-0.82,1.0
26.323,-2.775,-0.682,6.0
22.897,-2.419,-0.719,5.0
20.344,-2.155,-0.749,2.0
18.172,-1.93,-0.771,1.0
16.418,-1.748,-0.786,1.0
15.258,-1.629,-0.814,1.0
26.585,-2.836,-0.673,6.0
23.151,-2.475,-0.713,5.0
20.576,-2.205,-0.746,2.0
18.258,-1.962,-0.763,1.0
16.56,-1.784,-0.783,1.0
15.351,-1.658,-0.81,1.0
26.968,-2.911,-0.666,5.0
23.503,-2.543,-0.709,3.0
20.799,-2.255,-0.741,3.0
18.602,-2.022,-0.766,1.0
16.85,-1.836,-0.786,1.0
15.482,-1.691,-0.806,1.0
27.311,-2.981,-0.657,2.0
23.884,-2.613,-0.704,3.0
21.039,-2.307,-0.735,3.0
18.842,-2.071,-0.763,1.0
16.977,-1.87,-0.78,1.0
15.63,-1.726,-0.803,0.0
27.738,-3.06,-0.648,3.0
24.366,-2.694,-0.702,5.0
21.28,-2.358,-0.729,2.0
19.095,-2.121,-0.76,1.0
17.175,-1.912,-0.777,1.0
15.789,-1.762,-0.8,1.0
28.111,-3.134,-0.637,1.0
24.857,-2.777,-0.698,5.0
21.852,-2.446,-0.733,4.0
19.318,-2.167,-0.755,1.0
17.424,-1.959,-0.775,1.0
15.99,-1.802,-0.799,1.0
29.237,-3.292,-0.641,2.0
25.059,-2.827,-0.685,4.0
22.115,-2.5,-0.725,4.0
19.705,-2.232,-0.755,1.0
17.592,-1.997,-0.769,0.0
16.095,-1.831,-0.792,1.0
29.741,-3.38,-0.629,6.0
25.659,-2.922,-0.682,3.0
22.517,-2.569,-0.721,4.0
19.95,-2.281,-0.749,1.0
17.904,-2.051,-0.769,0.0
16.281,-1.869,-0.788,1.0
29.956,-3.436,-0.61,8.0
26.103,-3.0,-0.673,4.0
22.862,-2.632,-0.713,5.0
20.354,-2.348,-0.747,1.0
18.154,-2.098,-0.765,0.0
16.444,-1.904,-0.782,0.0
30.066,-3.479,-0.587,21.0
26.562,-3.079,-0.663,2.0
23.247,-2.699,-0.706,5.0
20.633,-2.4,-0.74,2.0
18.623,-2.17,-0.769,1.0
16.744,-1.955,-0.782,1.0
30.535,-3.563,-0.571,17.0
27.209,-3.18,-0.656,2.0
23.633,-2.767,-0.698,3.0
21.065,-2.47,-0.738,4.0
18.868,-2.217,-0.763,2.0
16.962,-1.996,-0.778,1.0
31.135,-3.662,-0.555,20.0
27.909,-3.287,-0.648,3.0
24.25,-2.861,-0.694,2.0
21.522,-2.543,-0.735,4.0
19.168,-2.269,-0.758,2.0
17.225,-2.043,-0.775,1.0
31.78,-3.766,-0.538,27.0
28.514,-3.384,-0.637,7.0
25.014,-2.973,-0.694,4.0
21.883,-2.605,-0.727,4.0
19.489,-2.324,-0.753,2.0
17.509,-2.091,-0.771,1.0
32.479,-3.876,-0.52,32.0
28.936,-3.458,-0.62,8.0
25.398,-3.039,-0.681,5.0
22.237,-2.665,-0.718,4.0
19.8,-2.377,-0.747,2.0
17.797,-2.139,-0.768,1.0
33.0,-3.964,-0.498,31.0
29.336,-3.529,-0.601,17.0
25.992,-3.131,-0.673,4.0
22.753,-2.745,-0.714,3.0
20.227,-2.443,-0.744,2.0
18.152,-2.196,-0.765,0.0
33.6,-4.062,-0.475,31.0
29.785,-3.605,-0.581,26.0
26.611,-3.225,-0.663,2.0
23.224,-2.819,-0.706,3.0
20.66,-2.511,-0.739,2.0
18.627,-2.267,-0.767,1.0
34.191,-4.158,-0.45,33.0
30.23,-3.681,-0.56,23.0
27.256,-3.323,-0.652,2.0
23.78,-2.903,-0.699,2.0
21.143,-2.584,-0.736,4.0
18.91,-2.314,-0.76,1.0
34.673,-4.24,-0.422,25.0
30.766,-3.767,-0.54,18.0
27.794,-3.407,-0.637,3.0
24.426,-2.997,-0.694,4.0
21.604,-2.654,-0.73,4.0
19.282,-2.372,-0.756,1.0
39.72,-4.883,-0.444,7.0
31.609,-3.89,-0.522,21.0
28.462,-3.506,-0.624,8.0
24.969,-3.079,-0.684,3.0
22.109,-2.73,-0.725,4.0
19.633,-2.426,-0.749,1.0
39.862,-4.924,-0.404,22.0
32.538,-4.023,-0.505,26.0
28.771,-3.561,-0.601,21.0
25.604,-3.172,-0.675,4.0
22.541,-2.795,-0.716,4.0
20.077,-2.492,-0.745,2.0
40.062,-4.97,-0.365,21.0
33.195,-4.122,-0.48,25.0
29.028,-3.608,-0.576,19.0
26.153,-3.253,-0.662,2.0
23.129,-2.88,-0.71,4.0
20.527,-2.558,-0.74,2.0
40.36,-5.028,-0.325,16.0
33.862,-4.221,-0.454,25.0
29.908,-3.731,-0.562,23.0
27.006,-3.372,-0.655,2.0
23.53,-2.941,-0.697,3.0
20.98,-2.624,-0.734,3.0
40.462,-5.059,-0.282,7.0
34.496,-4.316,-0.426,26.0
30.489,-3.817,-0.54,19.0
27.681,-3.468,-0.642,7.0
24.197,-3.034,-0.691,2.0
21.497,-2.698,-0.729,3.0
46.062,-5.778,-0.272,21.0
39.723,-4.986,-0.448,4.0
31.355,-3.938,-0.522,16.0
28.19,-3.543,-0.623,14.0
24.912,-3.133,-0.684,2.0
22.148,-2.788,-0.727,4.0
46.967,-5.909,-0.227,22.0
39.859,-5.017,-0.406,16.0
32.36,-4.075,-0.503,24.0
28.588,-3.602,-0.6,23.0
25.613,-3.23,-0.675,3.0
22.566,-2.847,-0.716,4.0
48.284,-6.09,-0.179,23.0
39.968,-5.043,-0.363,15.0
33.131,-4.183,-0.478,26.0
28.965,-3.658,-0.576,19.0
26.271,-3.32,-0.663,2.0
23.123,-2.924,-0.708,3.0
50.049,-6.326,-0.131,16.0
40.14,-5.076,-0.319,4.0
33.938,-4.293,-0.452,30.0
29.79,-3.77,-0.559,22.0
27.04,-3.424,-0.653,4.0
23.671,-2.998,-0.698,3.0
55.805,-7.067,-0.084,12.0
45.558,-5.771,-0.312,8.0
34.583,-4.382,-0.422,20.0
30.417,-3.855,-0.537,16.0
27.631,-3.504,-0.636,7.0
24.461,-3.103,-0.695,4.0
61.042,-7.741,-0.023,4.0
46.057,-5.842,-0.264,21.0
39.734,-5.041,-0.44,8.0
31.361,-3.98,-0.518,15.0
28.072,-3.564,-0.615,18.0
24.901,-3.162,-0.679,4.0
61.18,-7.767,0.045,2.0
47.263,-6.001,-0.218,22.0
39.829,-5.058,-0.396,14.0
32.437,-4.12,-0.5,22.0
28.792,-3.658,-0.598,16.0
25.675,-3.263,-0.671,2.0
68.143,-8.657,0.127,1.0
48.474,-6.158,-0.168,22.0
39.969,-5.078,-0.353,7.0
33.287,-4.23,-0.475,26.0
29.418,-3.739,-0.577,22.0
26.605,-3.382,-0.665,3.0
68.104,-8.655,0.205,2.0
50.284,-6.39,-0.117,7.0
0.0,0.0,0.0,0.0
34.074,-4.33,-0.447,25.0
29.986,-3.811,-0.554,24.0
27.276,-3.467,-0.65,7.0
67.992,-8.641,0.282,2.0
55.992,-7.115,-0.066,10.0
45.755,-5.814,-0.3,20.0
34.691,-4.407,-0.416,17.0
30.8,-3.913,-0.534,20.0
27.761,-3.527,-0.63,14.0
68.108,-8.652,0.361,2.0
61.015,-7.75,-0.002,4.0
46.505,-5.905,-0.251,21.0
39.745,-5.046,-0.431,12.0
31.756,-4.032,-0.514,21.0
28.364,-3.601,-0.611,17.0
68.142,-8.65,0.439,2.0
68.212,-8.656,0.075,2.0
47.713,-6.053,-0.202,22.0
39.869,-5.057,-0.387,15.0
32.81,-4.161,-0.494,27.0
29.094,-3.689,-0.594,20.0
68.273,-8.657,0.517,4.0
68.309,-8.658,0.152,2.0
49.673,-6.294,-0.155,20.0
40.017,-5.069,-0.343,10.0
33.65,-4.261,-0.468,29.0
29.597,-3.747,-0.571,23.0
68.324,-8.651,0.595,2.0
68.345,-8.649,0.229,2.0
55.688,-7.045,-0.111,11.0
42.084,-5.322,-0.313,7.0
34.383,-4.346,-0.44,28.0
30.238,-3.821,-0.549,22.0
68.313,-8.633,0.672,4.0
68.354,-8.634,0.307,1.0
56.152,-7.089,-0.048,6.0
45.925,-5.795,-0.29,21.0
39.76,-5.015,-0.464,3.0
31.237,-3.938,-0.531,24.0
68.399,-8.624,0.751,3.0
68.495,-8.631,0.385,2.0
68.651,-8.646,0.019,8.0
46.934,-5.908,-0.243,21.0
39.825,-5.01,-0.419,15.0
32.344,-4.067,-0.513,25.0
192.008,-24.148,2.327,21.0
68.752,-8.64,0.465,2.0
68.719,-8.631,0.097,6.0
48.322,-6.065,-0.195,22.0
40.042,-5.023,-0.376,16.0
33.223,-4.165,-0.49,27.0
192.035,-24.078,2.544,31.0
80.538,-10.091,0.635,15.0
68.916,-8.628,0.174,3.0
0.0,0.0,0.0,0.0
40.347,-5.044,-0.334,15.0
33.978,-4.245,-0.463,27.0
192.073,-24.002,2.759,36.0
80.478,-10.048,0.724,31.0
69.147,-8.626,0.251,6.0
55.808,-6.957,-0.1,15.0
45.801,-5.705,-0.328,16.0
34.655,-4.313,-0.434,15.0
192.057,-23.91,2.973,31.0
80.473,-10.009,0.813,23.0
69.362,-8.619,0.329,3.0
69.299,-8.604,-0.048,4.0
46.358,-5.751,-0.281,20.0
39.744,-4.926,-0.453,9.0
192.093,-23.816,3.182,25.0
80.48,-9.968,0.901,10.0
80.418,-9.95,0.47,30.0
80.976,-10.01,0.031,11.0
47.604,-5.879,-0.236,21.0
39.914,-4.925,-0.412,22.0
192.109,-23.71,3.395,12.0
192.051,-23.677,2.362,20.0
80.352,-9.896,0.557,29.0
80.675,-9.925,0.118,21.0
0.0,0.0,0.0,0.0
40.162,-4.931,-0.372,15.0
188.795,-23.188,3.537,21.0
192.116,-23.568,2.569,24.0
80.281,-9.837,0.642,29.0
80.463,-9.848,0.204,29.0
55.543,-6.79,-0.156,9.0
40.459,-4.941,-0.331,8.0
188.464,-23.025,3.731,21.0
153.845,-18.771,2.221,6.0
80.283,-9.783,0.727,33.0
80.407,-9.787,0.288,34.0
55.785,-6.782,-0.098,12.0
45.913,-5.575,-0.327,21.0
188.275,-22.871,3.927,16.0
153.671,-18.641,2.38,13.0
80.281,-9.725,0.812,22.0
80.456,-9.734,0.373,26.0
80.847,-9.769,-0.058,7.0
47.064,-5.68,-0.286,21.0
153.845,-18.574,3.368,15.0
153.71,-18.531,2.54,20.0
80.336,-9.671,0.896,9.0
80.204,-9.642,0.455,24.0
80.792,-9.7,0.025,16.0
48.065,-5.763,-0.243,22.0
153.733,-18.44,3.523,15.0
153.744,-18.414,2.695,22.0
153.684,-18.379,1.87,16.0
80.138,-9.569,0.536,28.0
0.0,0.0,0.0,0.0
49.926,-5.945,-0.202,21.0
138.79,-16.534,3.32,18.0
153.866,-18.3,2.853,11.0
192.286,-22.835,2.531,17.0
80.1,-9.497,0.614,35.0
80.195,-9.494,0.184,31.0
55.402,-6.549,-0.17,11.0
138.94,-16.432,3.46,17.0
85.345,-10.076,1.666,6.0
192.295,-22.665,2.719,23.0
80.009,-9.415,0.693,34.0
80.12,-9.413,0.262,34.0
55.771,-6.542,-0.117,10.0
84.309,-9.894,2.181,11.0
85.372,-10.001,1.749,11.0
192.341,-22.494,2.903,23.0
79.985,-9.338,0.768,27.0
65.35,-7.616,0.276,4.0
56.552,-6.58,-0.065,2.0
84.243,-9.806,2.259,27.0
85.281,-9.909,1.827,14.0
192.429,-22.318,3.087,28.0
80.06,-9.268,0.844,15.0
65.2,-7.534,0.336,150.0
0.0,0.0,0.0,0.0
84.212,-9.72,2.336,35.0
85.501,-9.849,1.91,8.0
85.214,-9.798,1.444,6.0
84.499,-9.697,0.968,14.0
65.167,-7.464,0.395,94.0
65.247,-7.46,0.044,0.0
83.033,-9.498,2.379,21.0
82.851,-9.458,1.926,11.0
84.804,-9.662,1.514,8.0
84.155,-9.569,1.039,27.0
65.152,-7.393,0.453,4.0
65.167,-7.381,0.102,0.0
82.818,-9.385,2.446,34.0
82.418,-9.32,1.988,24.0
84.676,-9.555,1.586,30.0
83.796,-9.437,1.108,23.0
65.131,-7.32,0.509,6.0
65.111,-7.303,0.158,7.0
82.309,-9.236,2.502,34.0
82.173,-9.201,2.053,30.0
83.506,-9.329,1.635,20.0
83.617,-9.322,1.177,11.0
65.093,-7.241,0.564,2.0
65.006,-7.217,0.211,1.0
82.226,-9.133,2.568,33.0
81.901,-9.076,2.115,44.0
82.745,-9.148,1.689,44.0
82.269,-9.075,1.225,3.0
0.0,0.0,0.0,0.0
65.054,-7.145,0.265,1.0
81.945,-9.004,2.626,41.0
81.985,-8.987,2.183,33.0
81.857,-8.952,1.737,33.0
82.105,-8.958,1.288,11.0
0.0,0.0,0.0,0.0
65.064,-7.066,0.317,6.0
81.782,-8.887,2.685,35.0
81.912,-8.878,2.246,43.0
81.82,-8.846,1.8,42.0
82.233,-8.869,1.356,27.0
0.0,0.0,0.0,0.0
65.083,-6.986,0.367,170.0
82.016,-8.808,2.756,54.0
81.683,-8.75,2.302,45.0
81.872,-8.747,1.863,42.0
82.385,-8.78,1.419,29.0
0.0,0.0,0.0,0.0
65.087,-6.902,0.415,165.0
82.304,-8.732,2.826,54.0
81.845,-8.66,2.366,36.0
82.082,-8.663,1.927,46.0
82.05,-8.636,1.473,47.0
0.0,0.0,0.0,0.0
65.107,-6.818,0.462,160.0
82.539,-8.647,2.893,44.0
81.844,-8.55,2.424,48.0
82.045,-8.548,1.983,51.0
81.957,-8.516,1.528,50.0
0.0,0.0,0.0,0.0
65.092,-6.728,0.506,150.0
82.489,-8.53,2.947,37.0
81.757,-8.431,2.475,48.0
82.057,-8.438,2.038,40.0
81.778,-8.386,1.578,41.0
0.0,0.0,0.0,0.0
65.069,-6.635,0.547,4.0
82.014,-8.367,2.983,37.0
82.427,-8.384,2.549,39.0
82.092,-8.326,2.091,50.0
81.737,-8.265,1.63,44.0
0.0,0.0,0.0,0.0
65.066,-6.542,0.589,8.0
81.998,-8.248,3.033,42.0
82.365,-8.259,2.598,49.0
82.036,-8.201,2.14,51.0
81.728,-8.146,1.678,37.0
81.725,-8.122,1.233,3.0
0.0,0.0,0.0,0.0
82.085,-8.137,3.084,39.0
82.092,-8.112,2.637,47.0
82.154,-8.093,2.191,47.0
82.234,-8.075,1.736,47.0
81.755,-8.003,1.28,12.0
0.0,0.0,0.0,0.0
82.021,-8.008,3.128,46.0
81.997,-7.979,2.68,43.0
82.21,-7.974,2.237,50.0
82.378,-7.964,1.783,17.0
82.015,-7.905,1.328,21.0
0.0,0.0,0.0,0.0
82.25,-7.905,3.18,35.0
81.771,-7.832,2.715,39.0
82.095,-7.837,2.277,45.0
82.894,-7.887,1.837,32.0
82.217,-7.797,1.372,34.0
54.934,-5.193,0.617,10.0
82.018,-7.755,3.212,19.0
81.829,-7.711,2.757,46.0
82.14,-7.714,2.317,52.0
82.626,-7.733,1.87,66.0
54.966,-5.126,0.943,150.0
54.96,-5.109,0.643,159.0
81.819,-7.607,3.242,41.0
81.837,-7.581,2.794,38.0
82.047,-7.575,2.351,40.0
82.348,-7.576,1.9,53.0
54.961,-5.039,0.967,150.0
54.961,-5.022,0.666,150.0
81.604,-7.457,3.267,34.0
82.069,-7.472,2.836,45.0
82.107,-7.448,2.387,46.0
82.502,-7.457,1.937,42.0
0.0,0.0,0.0,0.0
0.0,0.0,0.0,0.0
81.723,-7.335,3.305,44.0
82.232,-7.353,2.873,43.0
82.242,-7.326,2.422,42.0
82.725,-7.341,1.974,47.0
0.0,0.0,0.0,0.0
0.0,0.0,0.0,0.0
81.642,-7.191,3.33,36.0
82.247,-7.217,2.903,44.0
82.238,-7.188,2.45,33.0
83.086,-7.235,2.01,25.0
0.0,0.0,0.0,0.0
0.0,0.0,0.0,0.0
81.892,-7.076,3.367,38.0
82.139,-7.07,2.925,47.0
82.152,-7.042,2.473,46.0
83.036,-7.089,2.035,37.0
0.0,0.0,0.0,0.0
0.0,0.0,0.0,0.0
82.16,-6.959,3.401,35.0
82.033,-6.92,2.944,48.0
82.134,-6.899,2.495,46.0
82.699,-6.918,2.048,47.0
82.886,-6.906,1.597,9.0
81.965,-6.802,1.128,39.0
82.784,-6.868,3.448,30.0
82.062,-6.779,2.966,45.0
82.297,-6.77,2.52,43.0
82.285,-6.741,2.057,48.0
82.823,-6.756,1.614,53.0
81.971,-6.66,1.146,33.0
83.416,-6.775,3.492,28.0
82.466,-6.669,2.997,40.0
82.656,-6.656,2.547,49.0
82.28,-6.596,2.073,42.0
82.759,-6.607,1.629,47.0
81.99,-6.518,1.161,33.0
83.529,-6.637,3.511,32.0
82.39,-6.517,3.008,44.0
82.617,-6.507,2.559,44.0
82.233,-6.448,2.084,42.0
82.62,-6.45,1.639,38.0
81.941,-6.369,1.173,34.0
83.367,-6.476,3.516,28.0
82.522,-6.382,3.024,44.0
82.674,-6.364,2.571,49.0
82.401,-6.314,2.099,52.0
82.66,-6.305,1.649,43.0
82.061,-6.231,1.183,10.0
83.531,-6.339,3.531,37.0
82.566,-6.236,3.033,33.0
82.935,-6.235,2.587,53.0
82.396,-6.165,2.105,36.0
83.075,-6.186,1.663,41.0
0.0,0.0,0.0,0.0
83.036,-6.151,3.515,37.0
82.848,-6.106,3.047,52.0
82.839,-6.077,2.588,46.0
82.428,-6.017,2.11,43.0
82.887,-6.021,1.663,45.0
0.0,0.0,0.0,0.0
82.975,-5.994,3.515,45.0
82.979,-5.964,3.054,42.0
82.724,-5.915,2.585,47.0
82.483,-5.868,2.112,41.0
82.929,-5.871,1.664,42.0
0.0,0.0,0.0,0.0
83.81,-5.899,3.549,25.0
83.154,-5.823,3.059,27.0
83.468,-5.814,2.606,44.0
82.558,-5.721,2.112,38.0
82.952,-5.719,1.661,19.0
0.0,0.0,0.0,0.0
24.555,-1.682,1.038,28.0
24.51,-1.67,0.9,16.0
24.523,-1.662,0.764,25.0
24.589,-1.658,0.627,20.0
24.594,-1.65,0.49,21.0
24.596,-1.641,0.353,22.0
24.483,-1.632,1.033,39.0
24.476,-1.622,0.896,44.0
24.515,-1.616,0.761,57.0
24.541,-1.609,0.623,52.0
24.563,-1.602,0.487,39.0
24.543,-1.592,0.35,44.0
24.467,-1.584,1.029,44.0
24.452,-1.575,0.892,68.0
24.497,-1.569,0.757,63.0
24.537,-1.563,0.619,71.0
24.547,-1.554,0.483,80.0
24.538,-1.545,0.346,79.0
24.458,-1.538,1.025,51.0
24.464,-1.529,0.888,65.0
24.504,-1.522,0.753,62.0
24.537,-1.516,0.614,57.0
24.538,-1.507,0.478,70.0
24.539,-1.498,0.341,78.0
24.483,-1.492,1.02,38.0
24.493,-1.484,0.884,46.0
24.532,-1.477,0.748,64.0
24.554,-1.47,0.609,76.0
24.552,-1.461,0.472,64.0
24.542,-1.452,0.335,49.0
24.503,-1.446,1.015,48.0
24.537,-1.44,0.879,47.0
24.572,-1.433,0.743,55.0
24.579,-1.424,0.603,41.0
24.582,-1.416,0.466,39.0
24.586,-1.407,0.329,37.0
24.571,-1.403,1.011,15.0
24.598,-1.396,0.874,8.0
24.614,-1.388,0.737,4.0
83.58,-4.684,2.028,36.0
24.614,-1.37,0.459,1.0
24.46,-1.353,0.32,0.0
83.578,-4.612,3.412,31.0
83.737,-4.591,2.949,43.0
84.1,-4.581,2.491,40.0
83.759,-4.533,2.003,40.0
85.899,-4.617,1.573,38.0
0.0,0.0,0.0,0.0
83.632,-4.453,3.384,32.0
84.857,-4.488,2.957,56.0
84.215,-4.424,2.462,35.0
84.652,-4.417,1.992,49.0
86.066,-4.46,1.543,30.0
82.783,-4.261,1.02,9.0
83.658,-4.293,3.35,13.0
85.058,-4.334,2.929,37.0
84.8,-4.291,2.444,32.0
84.66,-4.254,1.957,50.0
86.125,-4.298,1.507,12.0
82.855,-4.105,0.985,10.0
86.307,-4.263,3.419,31.0
85.433,-4.189,2.903,31.0
84.903,-4.132,2.408,35.0
84.59,-4.086,1.915,45.0
148.718,-7.134,2.534,6.0
83.079,-3.956,0.949,38.0
159.686,-7.577,6.248,16.0
0.0,0.0,0.0,0.0
85.041,-3.974,2.37,28.0
84.993,-3.942,1.883,36.0
31.308,-1.441,0.517,25.0
31.285,-1.429,0.341,29.0
31.409,-1.429,1.212,1.0
167.84,-7.577,5.534,5.0
31.35,-1.404,0.857,3.0
31.293,-1.39,0.676,32.0
28.464,-1.254,0.454,47.0
28.461,-1.244,0.295,65.0
28.461,-1.239,1.082,51.0
28.443,-1.228,0.921,59.0
28.44,-1.218,0.761,62.0
28.426,-1.208,0.597,96.0
28.443,-1.198,0.437,112.0
28.436,-1.188,0.277,105.0
28.435,-1.182,1.064,110.0
28.427,-1.172,0.903,108.0
28.433,-1.162,0.743,150.0
28.442,-1.152,0.58,141.0
28.443,-1.143,0.42,79.0
28.455,-1.133,0.259,70.0
28.443,-1.127,1.046,70.0
28.46,-1.118,0.886,64.0
28.441,-1.107,0.724,34.0
31.245,-1.205,0.616,43.0
31.236,-1.194,0.44,34.0
31.278,-1.186,0.264,40.0
31.253,-1.178,1.128,56.0
31.268,-1.168,0.951,50.0
31.288,-1.157,0.775,44.0
31.295,-1.147,0.596,38.0
31.352,-1.138,0.42,20.0
80.356,-2.891,0.623,23.0
31.286,-1.119,1.106,37.0
31.327,-1.109,0.931,38.0
31.391,-1.101,0.755,15.0
152.039,-5.28,2.784,6.0
84.616,-2.91,1.071,39.0
80.424,-2.738,0.563,17.0
38.688,-1.309,1.339,28.0
38.679,-1.295,1.12,35.0
38.654,-1.281,0.9,58.0
38.654,-1.268,0.678,45.0
38.665,-1.255,0.459,53.0
38.686,-1.243,0.241,58.0
38.621,-1.233,1.306,67.0
38.604,-1.219,1.087,64.0
38.619,-1.206,0.868,70.0
38.599,-1.193,0.646,71.0
38.611,-1.18,0.427,69.0
38.654,-1.169,0.209,73.0
38.576,-1.157,1.272,62.0
38.594,-1.145,1.054,75.0
38.644,-1.133,0.836,83.0
38.606,-1.119,0.613,72.0
38.65,-1.107,0.394,82.0
38.645,-1.094,0.175,68.0
38.577,-1.083,1.238,70.0
38.639,-1.072,1.021,88.0
38.648,-1.06,0.802,63.0
38.642,-1.046,0.579,66.0
38.668,-1.034,0.36,50.0
38.682,-1.022,0.141,46.0
38.677,-1.013,1.207,41.0
38.65,-0.999,0.986,46.0
38.739,-0.989,0.768,25.0
40.44,-1.019,0.569,26.0
40.434,-1.006,0.339,25.0
40.422,-0.993,0.11,33.0
38.729,-0.942,1.172,34.0
38.777,-0.93,0.953,12.0
40.401,-0.956,0.763,37.0
40.398,-0.943,0.53,45.0
40.446,-0.931,0.3,154.0
40.418,-0.917,0.07,50.0
40.415,-0.907,1.183,35.0
38.404,-0.849,0.906,13.0
38.39,-0.836,0.687,44.0
38.37,-0.823,0.464,41.0
38.371,-0.811,0.246,22.0
52.92,-1.102,0.039,12.0
45.733,-0.94,1.292,36.0
38.207,-0.774,0.862,18.0
53.024,-1.057,0.894,18.0
53.005,-1.04,0.587,23.0
52.981,-1.023,0.286,22.0
52.998,-1.006,-0.015,10.0
64.323,-1.205,1.75,58.0
193.322,-3.561,4.16,14.0
192.84,-3.491,3.05,19.0
0.0,0.0,0.0,0.0
20.132,-0.351,0.087,24.0
20.119,-0.345,-0.027,29.0
64.331,-1.087,1.68,16.0
176.625,-2.929,3.606,25.0
20.149,-0.327,0.296,3.0
20.119,-0.321,0.179,10.0
20.128,-0.315,0.064,34.0
20.134,-0.309,-0.049,1.0
59.451,-0.896,1.486,49.0
20.139,-0.297,0.388,8.0
20.119,-0.291,0.273,12.0
20.121,-0.285,0.156,9.0
59.533,-0.825,0.124,60.0
59.562,-0.807,-0.215,2.0
20.162,-0.267,0.48,9.0
20.129,-0.261,0.365,13.0
20.132,-0.255,0.25,9.0
20.147,-0.249,0.133,0.0
56.291,-0.679,0.051,1.0
56.196,-0.661,-0.269,1.0
20.157,-0.231,0.456,15.0
20.152,-0.225,0.341,11.0
64.275,-0.7,0.721,38.0
56.183,-0.595,0.304,10.0
56.202,-0.579,-0.016,7.0
56.363,-0.564,-0.338,1.0
20.182,-0.196,0.432,27.0
64.341,-0.607,1.011,17.0
64.366,-0.589,0.644,27.0
66.496,-0.588,0.278,16.0
20.18,-0.172,-0.03,0.0
20.169,-0.166,-0.146,15.0
20.257,-0.162,0.408,29.0
20.205,-0.155,0.292,17.0
20.162,-0.149,0.176,17.0
20.161,-0.143,0.059,24.0
20.171,-0.138,-0.056,23.0
20.153,-0.132,-0.171,25.0
20.118,-0.126,0.38,19.0
20.139,-0.12,0.265,23.0
20.121,-0.114,0.149,20.0
20.136,-0.109,0.032,29.0
20.142,-0.103,-0.082,28.0
20.15,-0.098,-0.197,26.0
20.117,-0.092,0.353,33.0
20.122,-0.086,0.238,26.0
20.116,-0.081,0.123,33.0
20.125,-0.075,0.006,37.0
20.143,-0.069,-0.108,30.0
20.13,-0.064,-0.224,15.0
20.122,-0.058,0.327,31.0
20.11,-0.053,0.211,31.0
20.125,-0.047,0.096,40.0
20.124,-0.042,-0.02,33.0
20.149,-0.036,-0.136,27.0
20.161,-0.031,-0.251,16.0
20.123,-0.025,0.299,28.0
20.114,-0.02,0.184,28.0
20.144,-0.014,0.068,28.0
20.251,-0.008,-0.049,36.0
20.274,-0.003,-0.165,150.0
20.268,0.001,-0.281,150.0
20.127,0.007,0.271,28.0
20.135,0.012,0.155,26.0
20.256,0.018,0.04,58.0
20.266,0.023,-0.077,150.0
20.256,0.028,-0.193,150.0
20.242,0.034,-0.309,8.0
20.144,0.039,0.242,29.0
20.147,0.045,0.126,28.0
20.215,0.05,0.011,27.0
20.208,0.055,-0.106,24.0
20.212,0.061,-0.222,6.0
43.153,0.141,-0.723,0.0
20.155,0.071,0.213,29.0
20.198,0.077,0.097,29.0
20.19,0.082,-0.018,27.0
20.18,0.087,-0.136,29.0
20.2,0.092,-0.252,23.0
41.87,0.203,-0.764,3.0
20.165,0.103,0.182,28.0
20.185,0.108,0.067,32.0
20.179,0.113,-0.048,28.0
20.168,0.118,-0.166,29.0
20.177,0.123,-0.282,29.0
20.196,0.128,-0.398,23.0
20.19,0.134,0.152,25.0
20.2,0.139,0.036,24.0
20.189,0.144,-0.079,23.0
20.167,0.149,-0.197,25.0
20.168,0.154,-0.313,35.0
20.187,0.159,-0.429,29.0
20.286,0.165,0.122,27.0
20.322,0.17,0.005,28.0
20.2,0.174,-0.11,19.0
20.192,0.179,-0.228,22.0
20.172,0.183,-0.344,31.0
20.196,0.188,-0.461,25.0
20.332,0.195,0.09,34.0
20.311,0.199,-0.025,5.0
20.206,0.203,-0.141,1.0
20.185,0.208,-0.26,25.0
20.183,0.213,-0.376,30.0
20.186,0.218,-0.492,28.0
20.319,0.224,0.058,2.0
0.0,0.0,0.0,0.0
20.211,0.232,-0.174,1.0
20.18,0.237,-0.292,17.0
20.213,0.242,-0.409,23.0
20.196,0.246,-0.525,26.0
99.652,1.242,0.127,5.0
0.0,0.0,0.0,0.0
0.0,0.0,0.0,0.0
20.209,0.265,-0.325,0.0
20.222,0.27,-0.442,2.0
20.211,0.275,-0.558,8.0
99.792,1.381,-0.035,1.0
0.0,0.0,0.0,0.0
0.0,0.0,0.0,0.0
42.925,0.623,-0.762,0.0
34.787,0.513,-0.818,0.0
29.822,0.446,-0.873,0.0
101.555,1.543,-0.204,1.0
0.0,0.0,0.0,0.0
0.0,0.0,0.0,0.0
0.0,0.0,0.0,0.0
33.682,0.541,-0.848,1.0
28.469,0.463,-0.881,0.0
0.0,0.0,0.0,0.0
0.0,0.0,0.0,0.0
0.0,0.0,0.0,0.0
37.467,0.642,-0.79,0.0
31.866,0.553,-0.856,1.0
26.75,0.47,-0.872,0.0
0.0,0.0,0.0,0.0
0.0,0.0,0.0,0.0
43.324,0.789,-0.733,0.0
35.789,0.659,-0.815,0.0
30.833,0.574,-0.88,1.0
25.951,0.489,-0.891,1.0
0.0,0.0,0.0,0.0
0.0,0.0,0.0,0.0
0.0,0.0,0.0,0.0
33.585,0.66,-0.823,0.0
28.919,0.574,-0.875,0.0
24.826,0.498,-0.895,0.0
0.0,0.0,0.0,0.0
0.0,0.0,0.0,0.0
38.129,0.787,-0.776,0.0
32.18,0.671,-0.844,1.0
27.127,0.571,-0.869,0.0
23.756,0.505,-0.898,0.0
0.0,0.0,0.0,0.0
0.0,0.0,0.0,0.0
36.784,0.803,-0.813,0.0
31.145,0.685,-0.871,1.0
26.277,0.583,-0.887,0.0
22.761,0.509,-0.9,0.0
0.0,0.0,0.0,0.0
0.0,0.0,0.0,0.0
35.264,0.809,-0.841,0.0
28.815,0.666,-0.856,0.0
24.918,0.581,-0.885,0.0
22.156,0.521,-0.915,0.0
0.0,0.0,0.0,0.0
0.0,0.0,0.0,0.0
32.465,0.781,-0.832,1.0
27.984,0.678,-0.882,0.0
24.113,0.589,-0.899,0.0
21.036,0.517,-0.906,0.0
0.0,0.0,0.0,0.0
36.85,0.919,-0.797,0.0
31.413,0.789,-0.861,1.0
26.336,0.666,-0.877,0.0
22.816,0.581,-0.892,0.0
20.341,0.521,-0.913,0.0
0.0,0.0,0.0,0.0
0.0,0.0,0.0,0.0
29.694,0.776,-0.867,0.0
25.25,0.664,-0.886,0.0
22.218,0.588,-0.908,0.0
19.716,0.525,-0.92,0.0
39.072,1.046,-0.759,0.0
32.635,0.879,-0.823,1.0
28.28,0.767,-0.876,0.0
24.155,0.659,-0.891,0.0
21.253,0.583,-0.907,0.0
18.885,0.521,-0.916,0.0
37.072,1.028,-0.787,0.0
31.487,0.878,-0.851,1.0
26.488,0.743,-0.869,0.0
23.125,0.652,-0.895,0.0
20.507,0.582,-0.912,0.0
18.355,0.524,-0.923,0.0
35.304,1.012,-0.814,0.0
29.655,0.855,-0.855,0.0
25.562,0.74,-0.885,0.0
22.301,0.649,-0.904,0.0
19.857,0.581,-0.92,0.0
17.894,0.527,-0.933,0.0
32.671,0.965,-0.813,1.0
28.517,0.847,-0.875,0.0
24.35,0.727,-0.888,0.0
21.373,0.641,-0.906,0.0
18.96,0.572,-0.914,0.0
17.077,0.517,-0.922,0.0
31.349,0.953,-0.838,1.0
26.561,0.811,-0.864,0.0
23.159,0.711,-0.888,0.0
20.477,0.631,-0.906,0.0
18.435,0.571,-0.922,0.0
16.616,0.517,-0.928,0.0
29.984,0.936,-0.857,1.0
25.49,0.799,-0.876,0.0
22.431,0.706,-0.901,0.0
19.928,0.63,-0.918,0.0
17.948,0.57,-0.931,0.0
16.194,0.517,-0.934,0.0
28.382,0.907,-0.864,0.0
24.496,0.787,-0.888,0.0
21.687,0.699,-0.912,0.0
18.934,0.613,-0.908,0.0
17.032,0.554,-0.915,0.0
15.684,0.512,-0.934,0.0
26.597,0.87,-0.859,0.0
23.342,0.766,-0.889,0.0
20.604,0.679,-0.904,0.0
18.46,0.611,-0.919,0.0
16.716,0.555,-0.929,0.0
15.284,0.51,-0.938,0.0
25.705,0.858,-0.877,0.0
22.502,0.754,-0.899,0.0
19.979,0.672,-0.914,0.0
17.905,0.605,-0.925,0.0
16.21,0.549,-0.931,0.0
14.843,0.505,-0.939,0.0
24.495,0.834,-0.882,0.0
21.638,0.739,-0.905,0.0
18.95,0.649,-0.902,0.0
17.062,0.587,-0.913,0.0
15.766,0.544,-0.935,0.0
14.493,0.502,-0.944,0.0
23.353,0.809,-0.884,0.0
20.653,0.718,-0.902,0.0
18.512,0.646,-0.916,0.0
16.716,0.585,-0.926,0.0
15.263,0.536,-0.934,0.0
14.076,0.496,-0.943,0.0
22.46,0.791,-0.892,0.0
20.017,0.707,-0.911,0.0
17.962,0.636,-0.922,0.0
16.235,0.577,-0.929,0.0
14.861,0.53,-0.937,0.0
13.839,0.495,-0.953,0.0
21.61,0.773,-0.898,0.0
19.262,0.691,-0.912,0.0
17.188,0.618,-0.914,0.0
15.82,0.57,-0.935,0.0
14.51,0.525,-0.942,0.0
13.377,0.485,-0.946,0.0
20.655,0.749,-0.897,0.0
18.616,0.676,-0.916,0.0
16.755,0.61,-0.922,0.0
15.312,0.559,-0.933,0.0
14.304,0.524,-0.955,0.0
13.03,0.479,-0.946,0.0
20.026,0.735,-0.907,0.0
18.004,0.662,-0.92,0.0
16.255,0.599,-0.925,0.0
14.893,0.551,-0.936,0.0
13.76,0.51,-0.944,0.0
12.695,0.472,-0.945,0.0
19.292,0.716,-0.909,0.0
17.264,0.642,-0.914,0.0
15.885,0.592,-0.933,0.0
14.502,0.542,-0.938,0.0
13.399,0.502,-0.945,0.0
12.404,0.466,-0.947,0.0
18.581,0.696,-0.91,0.0
16.821,0.632,-0.921,0.0
15.342,0.577,-0.929,0.0
14.238,0.537,-0.947,0.0
13.052,0.493,-0.944,0.0
12.102,0.458,-0.946,0.0
18.056,0.683,-0.917,0.0
16.364,0.62,-0.926,0.0
14.957,0.568,-0.933,0.0
0.0,0.0,0.0,0.0
12.785,0.487,-0.948,0.0
11.762,0.449,-0.941,0.0
17.533,0.668,-0.922,0.0
15.948,0.609,-0.932,0.0
14.587,0.558,-0.937,0.0
13.417,0.514,-0.941,0.0
12.442,0.477,-0.945,0.0
11.543,0.444,-0.944,0.0
16.852,0.646,-0.917,0.0
15.445,0.593,-0.93,0.0
14.329,0.551,-0.946,0.0
13.064,0.503,-0.94,0.0
12.116,0.467,-0.942,0.0
11.323,0.438,-0.947,0.0
16.437,0.634,-0.924,0.0
15.036,0.58,-0.932,0.0
0.0,0.0,0.0,0.0
12.765,0.494,-0.941,0.0
11.836,0.459,-0.942,0.0
11.082,0.43,-0.946,0.0
16.057,0.622,-0.931,0.0
14.641,0.568,-0.934,0.0
13.487,0.524,-0.939,0.0
12.488,0.485,-0.943,0.0
11.581,0.451,-0.942,0.0
10.844,0.423,-0.946,0.0
15.467,0.601,-0.925,0.0
14.4,0.56,-0.944,0.0
13.18,0.513,-0.941,0.0
12.186,0.475,-0.942,0.0
11.332,0.442,-0.942,0.0
10.593,0.414,-0.943,0.0
15.11,0.588,-0.93,0.0
0.0,0.0,0.0,0.0
12.875,0.502,-0.942,0.0
11.871,0.464,-0.939,0.0
11.117,0.435,-0.944,0.0
10.4,0.407,-0.944,0.0
14.743,0.575,-0.934,0.0
13.43,0.524,-0.928,0.0
12.595,0.492,-0.944,0.0
11.641,0.455,-0.942,0.0
10.965,0.429,-0.951,0.0
10.227,0.401,-0.947,0.0
14.46,0.564,-0.941,0.0
13.281,0.518,-0.941,0.0
12.251,0.478,-0.94,0.0
11.404,0.446,-0.942,0.0
10.67,0.417,-0.944,0.0
10.025,0.393,-0.945,0.0
13.901,0.542,-0.928,0.0
12.979,0.506,-0.942,0.0
12.02,0.469,-0.942,0.0
11.192,0.437,-0.944,0.0
10.51,0.411,-0.948,0.0
9.877,0.386,-0.948,0.0
13.697,0.533,-0.938,0.0
12.66,0.493,-0.941,0.0
11.697,0.456,-0.937,0.0
10.931,0.426,-0.941,0.0
10.298,0.402,-0.946,0.0
9.705,0.379,-0.948,0.0
13.409,0.52,-0.941,0.0
12.415,0.482,-0.943,0.0
11.508,0.447,-0.941,0.0
10.745,0.417,-0.943,0.0
10.099,0.392,-0.945,0.0
9.513,0.37,-0.946,0.0
13.097,0.506,-0.941,0.0
12.113,0.468,-0.941,0.0
11.268,0.436,-0.941,0.0
10.62,0.411,-0.95,0.0
9.921,0.384,-0.945,0.0
9.36,0.362,-0.946,0.0
12.815,0.493,-0.942,0.0
11.851,0.456,-0.94,0.0
11.102,0.427,-0.945,0.0
10.376,0.399,-0.945,0.0
9.759,0.376,-0.946,0.0
9.181,0.354,-0.943,0.0
12.499,0.478,-0.939,0.0
11.616,0.444,-0.94,0.0
10.945,0.419,-0.949,0.0
10.179,0.39,-0.943,0.0
9.596,0.367,-0.945,0.0
9.034,0.346,-0.943,0.0
12.288,0.467,-0.943,0.0
11.395,0.433,-0.94,0.0
10.675,0.406,-0.943,0.0
9.992,0.38,-0.942,0.0
9.441,0.359,-0.945,0.0
8.911,0.338,-0.944,0.0
11.991,0.452,-0.939,0.0
11.194,0.422,-0.942,0.0
10.49,0.396,-0.943,0.0
9.859,0.372,-0.945,0.0
9.29,0.35,-0.945,0.0
8.769,0.33,-0.943,0.0
11.756,0.44,-0.939,0.0
10.971,0.41,-0.94,0.0
10.312,0.385,-0.943,0.0
9.654,0.361,-0.94,0.0
9.132,0.341,-0.943,0.0
8.594,0.321,-0.938,0.0
11.52,0.427,-0.938,0.0
10.717,0.397,-0.935,0.0
10.154,0.376,-0.944,0.0
9.531,0.352,-0.943,0.0
8.971,0.332,-0.94,0.0
8.512,0.314,-0.942,0.0
11.319,0.415,-0.938,0.0
10.588,0.388,-0.939,0.0
9.964,0.365,-0.942,0.0
9.382,0.343,-0.942,0.0
8.86,0.324,-0.942,0.0
8.417,0.307,-0.944,0.0
11.133,0.403,-0.94,0.0
10.448,0.378,-0.942,0.0
9.812,0.355,-0.942,0.0
9.257,0.334,-0.944,0.0
8.712,0.314,-0.939,0.0
8.309,0.3,-0.944,0.0
10.947,0.391,-0.94,0.0
10.292,0.368,-0.943,0.0
9.668,0.345,-0.942,0.0
9.157,0.326,-0.947,0.0
8.588,0.306,-0.938,0.0
8.212,0.292,-0.945,0.0
10.804,0.381,-0.943,0.0
10.124,0.357,-0.942,0.0
9.544,0.336,-0.944,0.0
8.944,0.314,-0.937,0.0
8.537,0.3,-0.944,0.0
8.107,0.284,-0.944,0.0
10.656,0.37,-0.945,0.0
9.945,0.345,-0.939,0.0
9.37,0.325,-0.939,0.0
8.849,0.306,-0.94,0.0
8.45,0.292,-0.947,0.0
8.018,0.277,-0.945,0.0
10.457,0.357,-0.941,0.0
9.839,0.336,-0.943,0.0
9.265,0.315,-0.942,0.0
8.72,0.296,-0.938,0.0
8.271,0.281,-0.938,0.0
7.915,0.268,-0.944,0.0
10.287,0.345,-0.94,0.0
9.7,0.325,-0.942,0.0
9.14,0.306,-0.941,0.0
8.614,0.288,-0.938,0.0
8.233,0.274,-0.944,0.0
7.823,0.26,-0.943,0.0
10.154,0.335,-0.941,0.0
9.599,0.316,-0.945,0.0
9.034,0.297,-0.942,0.0
8.507,0.279,-0.937,0.0
8.133,0.266,-0.943,0.0
7.77,0.254,-0.947,0.0
10.012,0.323,-0.94,0.0
9.452,0.305,-0.942,0.0
8.92,0.287,-0.941,0.0
8.449,0.271,-0.941,0.0
8.015,0.257,-0.94,0.0
7.667,0.245,-0.944,0.0
9.885,0.313,-0.941,0.0
9.347,0.295,-0.943,0.0
8.796,0.277,-0.939,0.0
8.347,0.262,-0.94,0.0
7.934,0.249,-0.94,0.0
7.586,0.237,-0.943,0.0
9.76,0.302,-0.94,0.0
9.221,0.284,-0.942,0.0
8.708,0.268,-0.94,0.0
8.242,0.253,-0.938,0.0
7.871,0.241,-0.942,0.0
7.518,0.229,-0.943,0.0
9.661,0.292,-0.942,0.0
9.104,0.274,-0.94,0.0
8.627,0.259,-0.941,0.0
8.182,0.245,-0.941,0.0
7.825,0.234,-0.945,0.0
7.47,0.222,-0.946,0.0
9.543,0.281,-0.941,0.0
8.992,0.264,-0.939,0.0
8.497,0.249,-0.936,0.0
8.096,0.236,-0.94,0.0
7.754,0.225,-0.945,0.0
7.41,0.215,-0.946,0.0
9.431,0.27,-0.94,0.0
8.887,0.254,-0.937,0.0
8.428,0.24,-0.938,0.0
8.001,0.227,-0.937,0.0
7.701,0.218,-0.947,0.0
7.36,0.207,-0.948,0.0
9.337,0.26,-0.941,0.0
8.806,0.244,-0.938,0.0
8.389,0.232,-0.942,0.0
7.917,0.218,-0.936,0.0
7.601,0.208,-0.943,0.0
7.28,0.199,-0.945,0.0
9.229,0.249,-0.939,0.0
8.71,0.234,-0.937,0.0
8.306,0.222,-0.941,0.0
7.894,0.21,-0.941,0.0
7.552,0.2,-0.944,0.0
7.257,0.192,-0.949,0.0
9.141,0.239,-0.939,0.0
8.657,0.225,-0.939,0.0
8.214,0.213,-0.939,0.0
7.828,0.202,-0.941,0.0
7.507,0.193,-0.946,0.0
7.194,0.184,-0.948,0.0
9.052,0.228,-0.939,0.0
8.59,0.216,-0.94,0.0
8.158,0.204,-0.94,0.0
7.756,0.193,-0.939,0.0
7.45,0.185,-0.945,0.0
7.155,0.176,-0.95,0.0
8.969,0.218,-0.938,0.0
8.549,0.207,-0.943,0.0
8.086,0.195,-0.939,0.0
7.714,0.185,-0.941,0.0
7.444,0.177,-0.951,0.0
7.105,0.169,-0.949,0.0
8.879,0.208,-0.936,0.0
8.428,0.196,-0.937,0.0
8.029,0.186,-0.939,0.0
7.66,0.176,-0.941,0.0
7.345,0.168,-0.945,0.0
7.057,0.161,-0.949,0.0
8.815,0.198,-0.937,0.0
8.365,0.187,-0.937,0.0
7.966,0.177,-0.938,0.0
7.615,0.168,-0.941,0.0
7.316,0.16,-0.947,0.0
7.016,0.153,-0.949,0.0
8.755,0.188,-0.937,0.0
8.296,0.177,-0.935,0.0
7.932,0.168,-0.94,0.0
7.59,0.16,-0.944,0.0
7.259,0.152,-0.945,0.0
7.04,0.147,-0.957,0.0
8.693,0.178,-0.937,0.0
8.24,0.168,-0.935,0.0
7.857,0.159,-0.937,0.0
7.512,0.151,-0.94,0.0
7.249,0.145,-0.949,0.0
