X,Y,Z,Reflectivity
17.014,1.79,-0.914,0.0
15.541,1.635,-0.924,0.0
14.359,1.511,-0.937,0.0
13.189,1.388,-0.938,0.0
12.249,1.289,-0.941,0.0
11.409,1.2,-0.943,0.0
16.708,1.754,-0.917,0.0
15.197,1.595,-0.922,0.0
14.096,1.479,-0.936,0.0
12.937,1.357,-0.935,0.0
12.044,1.264,-0.939,0.0
11.259,1.181,-0.943,0.0
16.356,1.711,-0.916,0.0
14.926,1.562,-0.922,0.0
0.0,0.0,0.0,0.0
12.746,1.333,-0.935,0.0
11.907,1.245,-0.942,0.0
11.148,1.166,-0.946,0.0
16.079,1.677,-0.918,0.0
14.765,1.539,-0.928,0.0
13.709,1.429,-0.94,0.0
12.57,1.31,-0.936,0.0
11.675,1.217,-0.936,0.0
10.979,1.144,-0.944,0.0
15.805,1.642,-0.92,0.0
14.551,1.511,-0.931,0.0
13.387,1.39,-0.933,0.0
12.432,1.29,-0.939,0.0
11.558,1.199,-0.94,0.0
10.827,1.123,-0.943,0.0
15.599,1.613,-0.925,0.0
14.364,1.485,-0.934,0.0
13.194,1.364,-0.934,0.0
12.259,1.267,-0.939,0.0
11.427,1.18,-0.941,0.0
10.724,1.108,-0.945,0.0
15.261,1.571,-0.921,0.0
14.031,1.444,-0.927,0.0
13.06,1.343,-0.938,0.0
12.063,1.24,-0.937,0.0
11.279,1.159,-0.941,0.0
10.605,1.09,-0.946,0.0
15.011,1.537,-0.921,0.0
13.961,1.429,-0.936,0.0
12.847,1.315,-0.936,0.0
11.911,1.218,-0.937,0.0
11.165,1.142,-0.943,0.0
10.534,1.077,-0.95,0.0
14.829,1.511,-0.924,0.0
13.67,1.392,-0.93,0.0
12.683,1.291,-0.936,0.0
11.822,1.203,-0.942,0.0
11.073,1.126,-0.946,0.0
10.381,1.055,-0.946,0.0
14.655,1.484,-0.928,0.0
13.481,1.364,-0.931,0.0
12.526,1.267,-0.936,0.0
11.632,1.176,-0.938,0.0
10.937,1.105,-0.944,0.0
10.286,1.039,-0.948,0.0
14.477,1.457,-0.93,0.0
13.407,1.348,-0.938,0.0
12.398,1.246,-0.939,0.0
11.517,1.157,-0.939,0.0
10.856,1.09,-0.948,0.0
10.155,1.019,-0.945,0.0
14.322,1.431,-0.933,0.0
13.131,1.312,-0.931,0.0
12.281,1.226,-0.941,0.0
11.396,1.137,-0.94,0.0
10.64,1.061,-0.939,0.0
10.072,1.004,-0.946,0.0
14.146,1.404,-0.934,0.0
12.988,1.288,-0.932,0.0
12.108,1.2,-0.938,0.0
11.328,1.122,-0.944,0.0
10.615,1.05,-0.945,0.0
9.996,0.989,-0.948,0.0
0.0,0.0,0.0,0.0
12.883,1.268,-0.935,0.0
11.952,1.175,-0.936,0.0
11.215,1.102,-0.944,0.0
10.535,1.035,-0.947,0.0
9.876,0.969,-0.945,0.0
0.0,0.0,0.0,0.0
12.776,1.247,-0.938,0.0
11.839,1.155,-0.937,0.0
11.084,1.08,-0.942,0.0
10.429,1.016,-0.946,0.0
9.815,0.955,-0.947,0.0
13.587,1.316,-0.931,0.0
12.579,1.218,-0.934,0.0
11.756,1.137,-0.94,0.0
11.031,1.066,-0.946,0.0
10.284,0.993,-0.941,0.0
9.736,0.939,-0.947,0.0
13.432,1.29,-0.931,0.0
12.484,1.198,-0.936,0.0
11.614,1.113,-0.937,0.0
10.888,1.043,-0.942,0.0
10.208,0.977,-0.942,0.0
9.646,0.922,-0.945,0.0
13.411,1.276,-0.939,0.0
12.402,1.179,-0.939,0.0
11.55,1.097,-0.94,0.0
10.823,1.027,-0.944,0.0
10.125,0.96,-0.941,0.0
9.584,0.908,-0.946,0.0
13.278,1.251,-0.939,0.0
12.258,1.154,-0.936,0.0
11.447,1.076,-0.94,0.0
10.729,1.008,-0.943,0.0
10.123,0.95,-0.948,0.0
9.506,0.891,-0.945,0.0
13.131,1.225,-0.937,0.0
12.133,1.13,-0.935,0.0
11.333,1.055,-0.938,0.0
10.672,0.992,-0.945,0.0
10.063,0.934,-0.949,0.0
9.443,0.876,-0.945,0.0
12.988,1.199,-0.935,0.0
12.005,1.107,-0.932,0.0
11.282,1.039,-0.941,0.0
10.552,0.97,-0.941,0.0
9.962,0.915,-0.945,0.0
9.373,0.86,-0.943,0.0
12.886,1.176,-0.935,0.0
11.963,1.091,-0.936,0.0
11.22,1.022,-0.942,0.0
0.0,0.0,0.0,0.0
9.901,0.899,-0.945,0.0
9.338,0.847,-0.945,0.0
12.818,1.157,-0.937,0.0
11.893,1.072,-0.937,0.0
11.184,1.007,-0.945,0.0
0.0,0.0,0.0,0.0
9.833,0.883,-0.944,0.0
9.275,0.832,-0.944,0.0
12.703,1.133,-0.935,0.0
11.806,1.051,-0.936,0.0
11.125,0.99,-0.946,0.0
0.0,0.0,0.0,0.0
9.785,0.868,-0.944,0.0
9.227,0.817,-0.943,0.0
12.668,1.116,-0.939,0.0
11.744,1.033,-0.937,0.0
11.073,0.973,-0.946,0.0
10.265,0.9,-0.937,0.0
9.744,0.854,-0.945,0.0
9.204,0.805,-0.945,0.0
12.601,1.096,-0.94,0.0
11.71,1.017,-0.939,0.0
11.006,0.954,-0.945,0.0
10.267,0.889,-0.941,0.0
9.686,0.837,-0.943,0.0
9.15,0.79,-0.943,0.0
12.551,1.077,-0.941,0.0
11.643,0.998,-0.939,0.0
10.873,0.93,-0.938,0.0
10.226,0.874,-0.942,0.0
9.65,0.823,-0.943,0.0
9.141,0.778,-0.946,0.0
12.453,1.055,-0.938,0.0
11.585,0.979,-0.938,0.0
10.954,0.924,-0.949,0.0
10.21,0.86,-0.944,0.0
9.601,0.808,-0.942,0.0
9.087,0.763,-0.943,0.0
12.414,1.036,-0.939,0.0
11.556,0.963,-0.94,0.0
10.838,0.901,-0.943,0.0
10.194,0.846,-0.945,0.0
9.585,0.794,-0.943,0.0
9.049,0.749,-0.942,0.0
12.377,1.018,-0.94,0.0
11.533,0.947,-0.941,0.0
0.0,0.0,0.0,0.0
10.146,0.83,-0.944,0.0
9.582,0.782,-0.946,0.0
9.028,0.736,-0.942,0.0
12.328,0.999,-0.939,0.0
11.47,0.928,-0.938,0.0
0.0,0.0,0.0,0.0
10.074,0.811,-0.939,0.0
9.54,0.767,-0.943,0.0
9.03,0.725,-0.944,0.0
12.287,0.98,-0.939,0.0
11.418,0.909,-0.937,0.0
10.662,0.847,-0.935,0.0
10.056,0.797,-0.939,0.0
9.544,0.755,-0.946,0.0
9.021,0.712,-0.945,0.0
12.252,0.962,-0.938,0.0
11.446,0.897,-0.941,0.0
10.765,0.841,-0.945,0.0
10.095,0.787,-0.944,0.0
9.504,0.74,-0.943,0.0
9.034,0.702,-0.947,0.0
12.251,0.946,-0.939,0.0
11.422,0.88,-0.94,0.0
10.621,0.817,-0.934,0.0
10.092,0.774,-0.945,0.0
9.492,0.727,-0.943,0.0
9.005,0.688,-0.945,0.0
12.209,0.927,-0.937,0.0
11.427,0.866,-0.941,0.0
10.645,0.804,-0.937,0.0
10.053,0.758,-0.942,0.0
9.491,0.714,-0.943,0.0
8.986,0.674,-0.944,0.0
12.224,0.912,-0.939,0.0
11.44,0.851,-0.943,0.0
10.684,0.793,-0.94,0.0
10.054,0.744,-0.942,0.0
9.529,0.704,-0.947,0.0
9.013,0.664,-0.947,0.0
12.232,0.896,-0.939,0.0
11.413,0.834,-0.94,0.0
10.68,0.778,-0.94,0.0
10.088,0.733,-0.945,0.0
9.516,0.69,-0.945,0.0
8.989,0.65,-0.944,0.0
12.232,0.879,-0.939,0.0
11.442,0.82,-0.942,0.0
10.597,0.758,-0.932,0.0
10.113,0.721,-0.947,0.0
9.529,0.678,-0.946,0.0
9.006,0.639,-0.945,0.0
12.279,0.866,-0.941,0.0
11.427,0.803,-0.94,0.0
10.765,0.755,-0.946,0.0
10.141,0.709,-0.949,0.0
9.558,0.666,-0.948,0.0
9.029,0.628,-0.946,0.0
12.308,0.85,-0.942,0.0
11.483,0.791,-0.943,0.0
10.865,0.746,-0.953,0.0
10.131,0.694,-0.946,0.0
9.552,0.653,-0.946,0.0
9.038,0.616,-0.945,0.0
12.318,0.834,-0.94,0.0
11.47,0.774,-0.939,0.0
10.802,0.727,-0.945,0.0
10.163,0.682,-0.947,0.0
9.595,0.642,-0.948,0.0
9.089,0.606,-0.949,0.0
12.374,0.82,-0.942,0.0
11.521,0.761,-0.941,0.0
10.951,0.722,-0.955,0.0
10.204,0.67,-0.948,0.0
9.598,0.629,-0.946,0.0
9.103,0.594,-0.948,0.0
12.424,0.806,-0.942,0.0
11.538,0.746,-0.939,0.0
10.794,0.696,-0.939,0.0
10.219,0.657,-0.947,0.0
9.651,0.618,-0.948,0.0
9.125,0.583,-0.947,0.0
12.468,0.791,-0.942,0.0
11.606,0.734,-0.941,0.0
10.906,0.687,-0.945,0.0
10.259,0.645,-0.947,0.0
9.678,0.606,-0.947,0.0
9.158,0.572,-0.947,0.0
12.502,0.775,-0.94,0.0
11.666,0.721,-0.942,0.0
10.94,0.674,-0.944,0.0
10.296,0.632,-0.946,0.0
9.759,0.597,-0.951,0.0
9.204,0.561,-0.949,0.0
12.59,0.763,-0.942,0.0
11.695,0.706,-0.939,0.0
11.011,0.662,-0.945,0.0
10.332,0.619,-0.945,0.0
9.775,0.584,-0.949,0.0
9.233,0.55,-0.948,0.0
12.68,0.75,-0.943,0.0
11.776,0.694,-0.941,0.0
11.022,0.647,-0.941,0.0
10.383,0.607,-0.945,0.0
9.804,0.572,-0.947,0.0
9.279,0.539,-0.948,0.0
12.735,0.735,-0.941,0.0
11.891,0.684,-0.944,0.0
11.146,0.638,-0.946,0.0
10.42,0.595,-0.943,0.0
9.863,0.561,-0.948,0.0
9.299,0.527,-0.945,0.0
12.858,0.723,-0.943,0.0
11.927,0.668,-0.94,0.0
11.22,0.626,-0.947,0.0
10.505,0.584,-0.945,0.0
9.924,0.55,-0.948,0.0
9.377,0.518,-0.948,0.0
12.973,0.711,-0.944,0.0
12.057,0.658,-0.944,0.0
11.29,0.614,-0.946,0.0
10.567,0.572,-0.945,0.0
10.01,0.54,-0.95,0.0
9.442,0.507,-0.948,0.0
13.063,0.697,-0.943,0.0
12.118,0.644,-0.941,0.0
11.302,0.598,-0.94,0.0
10.685,0.563,-0.948,0.0
10.097,0.53,-0.952,0.0
9.507,0.497,-0.949,0.0
13.204,0.686,-0.944,0.0
12.233,0.632,-0.942,0.0
11.475,0.591,-0.946,0.0
10.714,0.549,-0.944,0.0
10.143,0.518,-0.949,0.0
9.597,0.488,-0.951,0.0
13.326,0.673,-0.944,0.0
12.406,0.623,-0.946,0.0
11.552,0.578,-0.944,0.0
10.812,0.538,-0.944,0.0
10.249,0.508,-0.951,0.0
9.664,0.477,-0.95,0.0
13.442,0.659,-0.942,0.0
12.516,0.611,-0.945,0.0
11.64,0.565,-0.943,0.0
10.986,0.531,-0.951,0.0
10.295,0.495,-0.948,0.0
9.744,0.467,-0.95,0.0
13.527,0.644,-0.937,0.0
12.589,0.596,-0.941,0.0
11.792,0.556,-0.945,0.0
11.0,0.516,-0.943,0.0
10.402,0.486,-0.949,0.0
9.808,0.456,-0.948,0.0
20.26,0.935,-1.387,0.0
12.799,0.588,-0.946,0.0
11.884,0.543,-0.943,0.0
11.154,0.507,-0.947,0.0
10.504,0.475,-0.949,0.0
9.912,0.446,-0.95,0.0
20.209,0.904,-1.366,0.0
12.952,0.576,-0.946,0.0
12.055,0.534,-0.946,0.0
11.297,0.497,-0.949,0.0
10.554,0.462,-0.944,0.0
9.988,0.435,-0.948,0.0
14.271,0.618,-0.951,0.0
13.141,0.566,-0.947,0.0
12.211,0.523,-0.947,0.0
11.398,0.486,-0.947,0.0
10.698,0.453,-0.947,0.0
10.093,0.426,-0.948,0.0
14.38,0.602,-0.945,0.0
13.28,0.553,-0.945,0.0
12.393,0.514,-0.949,0.0
11.526,0.475,-0.946,0.0
10.859,0.445,-0.95,0.0
10.209,0.416,-0.949,0.0
14.522,0.588,-0.94,0.0
13.491,0.543,-0.946,0.0
12.524,0.501,-0.946,0.0
11.635,0.463,-0.943,0.0
11.061,0.438,-0.957,0.0
10.324,0.406,-0.949,0.0
14.716,0.576,-0.937,0.0
13.665,0.531,-0.944,0.0
12.808,0.495,-0.954,0.0
11.791,0.453,-0.943,0.0
11.119,0.425,-0.95,0.0
10.432,0.396,-0.948,0.0
14.98,0.565,-0.938,0.0
0.0,0.0,0.0,0.0
12.899,0.481,-0.947,0.0
12.026,0.445,-0.949,0.0
11.236,0.414,-0.947,0.0
10.596,0.388,-0.951,0.0
15.238,0.554,-0.937,0.0
14.295,0.516,-0.956,0.0
13.104,0.47,-0.947,0.0
12.21,0.435,-0.949,0.0
11.422,0.405,-0.95,0.0
10.729,0.378,-0.95,0.0
15.438,0.54,-0.931,0.0
14.432,0.502,-0.948,0.0
13.327,0.46,-0.947,0.0
12.379,0.425,-0.948,0.0
11.559,0.394,-0.947,0.0
10.863,0.368,-0.949,0.0
15.78,0.531,-0.933,0.0
14.611,0.488,-0.942,0.0
13.585,0.451,-0.949,0.0
12.582,0.415,-0.948,0.0
11.774,0.386,-0.951,0.0
11.072,0.36,-0.954,0.0
16.171,0.522,-0.936,0.0
14.897,0.478,-0.942,0.0
13.688,0.436,-0.939,0.0
12.872,0.407,-0.954,0.0
11.932,0.375,-0.948,0.0
11.21,0.35,-0.951,0.0
16.44,0.51,-0.931,0.0
15.174,0.467,-0.941,0.0
14.157,0.433,-0.953,0.0
12.992,0.394,-0.946,0.0
12.172,0.367,-0.951,0.0
11.362,0.34,-0.949,0.0
16.813,0.499,-0.93,0.0
15.423,0.455,-0.935,0.0
14.412,0.422,-0.951,0.0
13.251,0.385,-0.947,0.0
12.379,0.357,-0.951,0.0
11.508,0.329,-0.946,0.0
17.114,0.486,-0.924,0.0
15.879,0.448,-0.942,0.0
14.625,0.409,-0.945,0.0
13.5,0.375,-0.946,0.0
12.587,0.347,-0.949,0.0
11.813,0.323,-0.954,0.0
17.785,0.483,-0.936,0.0
16.196,0.436,-0.938,0.0
14.889,0.398,-0.942,0.0
0.0,0.0,0.0,0.0
12.885,0.339,-0.954,0.0
11.976,0.312,-0.95,0.0
18.133,0.47,-0.928,0.0
16.499,0.424,-0.932,0.0
15.22,0.388,-0.941,0.0
14.162,0.358,-0.952,0.0
13.141,0.329,-0.954,0.0
12.226,0.304,-0.952,0.0
18.54,0.458,-0.922,0.0
16.842,0.412,-0.927,0.0
15.55,0.377,-0.938,0.0
14.472,0.348,-0.952,0.0
13.36,0.319,-0.95,0.0
12.427,0.294,-0.949,0.0
18.914,0.444,-0.912,0.0
17.264,0.402,-0.924,0.0
16.02,0.37,-0.943,0.0
14.714,0.336,-0.945,0.0
13.525,0.306,-0.941,0.0
12.776,0.287,-0.956,0.0
19.786,0.441,-0.924,0.0
17.943,0.396,-0.933,0.0
16.414,0.359,-0.94,0.0
15.058,0.326,-0.944,0.0
0.0,0.0,0.0,0.0
13.032,0.277,-0.955,0.0
20.42,0.432,-0.922,0.0
18.401,0.385,-0.928,0.0
16.722,0.347,-0.932,0.0
15.393,0.316,-0.94,0.0
14.391,0.293,-0.955,0.0
13.325,0.268,-0.955,0.0
20.971,0.419,-0.913,0.0
18.828,0.373,-0.919,0.0
17.183,0.337,-0.93,0.0
15.891,0.308,-0.945,0.0
14.665,0.282,-0.95,0.0
13.594,0.258,-0.952,0.0
20.149,0.38,-0.845,0.0
19.716,0.369,-0.931,0.0
17.706,0.327,-0.929,0.0
16.308,0.298,-0.943,0.0
14.994,0.271,-0.946,0.0
13.957,0.25,-0.955,0.0
22.514,0.401,-0.907,0.0
20.287,0.357,-0.924,3.0
18.344,0.32,-0.932,0.0
16.705,0.288,-0.938,0.0
15.421,0.263,-0.947,0.0
14.382,0.242,-0.959,0.0
23.289,0.39,-0.899,0.0
20.22,0.335,-0.887,11.0
18.904,0.309,-0.928,0.0
17.065,0.276,-0.929,0.0
15.814,0.253,-0.945,0.0
14.632,0.231,-0.951,0.0
24.431,0.384,-0.901,0.0
20.136,0.313,-0.848,7.0
20.074,0.308,-0.951,0.0
17.865,0.271,-0.942,0.0
16.321,0.244,-0.946,0.0
14.983,0.222,-0.947,0.0
20.228,0.297,-0.711,4.0
20.218,0.294,-0.817,11.0
20.274,0.291,-0.925,9.0
18.479,0.262,-0.942,3.0
16.687,0.233,-0.938,0.0
15.446,0.213,-0.949,0.0
20.225,0.277,-0.675,25.0
20.233,0.274,-0.781,28.0
20.22,0.27,-0.887,11.0
18.519,0.244,-0.911,22.0
17.533,0.228,-0.954,0.0
15.915,0.205,-0.949,0.0
20.213,0.258,-0.638,28.0
20.225,0.255,-0.745,28.0
0.0,0.0,0.0,0.0
18.541,0.227,-0.878,6.0
17.747,0.215,-0.933,2.0
16.364,0.195,-0.946,0.0
20.196,0.239,-0.601,35.0
20.22,0.236,-0.707,33.0
0.0,0.0,0.0,0.0
18.532,0.21,-0.844,13.0
18.475,0.207,-0.937,12.0
16.829,0.185,-0.942,0.0
20.193,0.221,-0.563,35.0
20.201,0.218,-0.669,30.0
18.597,0.198,-0.713,150.0
18.535,0.194,-0.809,153.0
18.522,0.191,-0.905,44.0
18.288,0.186,-0.989,4.0
20.193,0.204,-0.526,33.0
20.202,0.2,-0.631,28.0
18.584,0.182,-0.677,21.0
18.513,0.178,-0.773,164.0
18.549,0.176,-0.872,63.0
18.451,0.172,-0.963,3.0
20.196,0.187,-0.488,28.0
20.197,0.184,-0.593,20.0
21.667,0.194,-0.749,150.0
18.518,0.163,-0.738,162.0
18.562,0.161,-0.837,150.0
18.513,0.158,-0.931,24.0
20.201,0.171,-0.449,28.0
20.188,0.168,-0.554,16.0
21.673,0.177,-0.707,152.0
21.618,0.174,-0.82,0.0
18.501,0.146,-0.798,158.0
18.544,0.144,-0.896,52.0
20.202,0.155,-0.41,25.0
20.199,0.152,-0.515,9.0
21.683,0.161,-0.665,34.0
21.599,0.157,-0.777,162.0
18.537,0.132,-0.763,155.0
18.537,0.13,-0.86,20.0
20.189,0.14,-0.371,28.0
20.163,0.137,-0.474,0.0
21.677,0.145,-0.622,13.0
21.621,0.142,-0.736,168.0
21.648,0.139,-0.849,97.0
18.561,0.117,-0.824,29.0
20.215,0.126,-0.331,28.0
20.262,0.124,-0.437,0.0
32.801,0.197,-0.877,0.0
21.672,0.127,-0.694,150.0
21.639,0.124,-0.805,156.0
21.617,0.122,-0.917,150.0
20.208,0.113,-0.291,26.0
41.9,0.229,-0.821,1.0
0.0,0.0,0.0,0.0
21.674,0.113,-0.65,1.0
21.661,0.111,-0.762,155.0
21.653,0.108,-0.874,55.0
20.201,0.1,-0.25,19.0
43.723,0.211,-0.767,0.0
0.0,0.0,0.0,0.0
31.288,0.144,-0.875,0.0
21.659,0.097,-0.718,11.0
21.666,0.095,-0.83,16.0
20.194,0.087,-0.209,17.0
20.214,0.085,-0.313,0.0
38.972,0.161,-0.806,0.0
33.142,0.133,-0.86,2.0
28.262,0.111,-0.879,0.0
21.645,0.083,-0.785,3.0
20.224,0.076,-0.168,28.0
20.287,0.074,-0.273,0.0
40.71,0.146,-0.758,0.0
20.302,0.07,-0.485,0.0
31.119,0.105,-0.904,1.0
26.485,0.087,-0.906,0.0
20.221,0.065,-0.126,27.0
20.226,0.064,-0.231,2.0
20.251,0.062,-0.335,0.0
20.214,0.06,-0.441,0.0
33.233,0.096,-0.898,4.0
20.239,0.056,-0.651,2.0
20.221,0.055,-0.084,16.0
20.225,0.054,-0.189,18.0
20.241,0.052,-0.293,6.0
20.231,0.05,-0.399,14.0
20.263,0.049,-0.504,27.0
20.254,0.047,-0.609,27.0
20.273,0.046,-0.042,23.0
20.278,0.045,-0.147,87.0
20.262,0.043,-0.251,150.0
20.265,0.041,-0.358,150.0
20.27,0.04,-0.462,150.0
20.262,0.038,-0.566,83.0
20.266,0.037,0.0,150.0
20.257,0.036,-0.104,152.0
20.241,0.035,-0.208,152.0
20.263,0.033,-0.315,150.0
20.264,0.032,-0.419,150.0
20.26,0.03,-0.523,150.0
20.25,0.03,0.042,72.0
20.261,0.028,-0.061,152.0
20.25,0.027,-0.166,152.0
20.264,0.026,-0.272,151.0
20.267,0.024,-0.377,150.0
20.259,0.023,-0.481,150.0
20.148,0.022,0.084,31.0
20.241,0.021,-0.018,153.0
20.269,0.02,-0.123,151.0
20.263,0.019,-0.229,151.0
20.275,0.018,-0.333,150.0
20.266,0.017,-0.438,64.0
20.135,0.016,0.127,29.0
20.246,0.015,0.023,152.0
20.259,0.014,-0.08,151.0
20.26,0.013,-0.186,150.0
20.27,0.012,-0.29,69.0
20.238,0.011,-0.394,18.0
20.125,0.01,0.17,29.0
20.148,0.009,0.066,30.0
20.257,0.009,-0.036,150.0
20.252,0.008,-0.143,35.0
20.239,0.007,-0.247,12.0
20.228,0.006,-0.351,6.0
20.123,0.006,0.213,27.0
20.126,0.005,0.109,30.0
20.259,0.004,0.006,22.0
20.239,0.003,-0.099,23.0
20.233,0.003,-0.203,9.0
20.242,0.002,-0.308,4.0
20.13,0.001,0.256,27.0
20.122,0.001,0.153,27.0
20.155,0.0,0.049,25.0
20.19,0.0,-0.056,18.0
20.198,0.0,-0.16,15.0
20.202,0.0,-0.264,6.0
20.126,-0.001,0.299,29.0
20.11,-0.001,0.196,28.0
20.135,-0.002,0.092,31.0
20.153,-0.002,-0.012,12.0
20.174,-0.003,-0.116,16.0
20.196,-0.003,-0.22,2.0
20.126,-0.004,0.342,28.0
20.127,-0.004,0.239,26.0
20.117,-0.004,0.135,26.0
20.119,-0.004,0.03,18.0
20.181,-0.005,-0.072,17.0
20.178,-0.005,-0.176,13.0
20.123,-0.005,0.386,27.0
20.126,-0.006,0.283,27.0
20.123,-0.006,0.179,28.0
20.129,-0.006,0.074,31.0
20.13,-0.006,-0.029,13.0
20.183,-0.006,-0.133,22.0
20.136,-0.006,0.43,29.0
20.125,-0.007,0.326,29.0
20.118,-0.007,0.222,26.0
20.122,-0.006,0.117,28.0
20.142,-0.006,0.013,17.0
20.184,-0.006,-0.09,16.0
20.136,-0.007,0.473,28.0
20.128,-0.007,0.369,26.0
20.117,-0.007,0.265,24.0
20.112,-0.006,0.16,27.0
20.133,-0.006,0.056,30.0
20.152,-0.006,-0.046,15.0
20.155,-0.006,0.516,24.0
20.132,-0.006,0.412,27.0
20.119,-0.006,0.308,27.0
20.115,-0.006,0.203,27.0
20.124,-0.005,0.099,33.0
20.151,-0.005,-0.003,12.0
20.173,-0.005,0.56,26.0
20.136,-0.005,0.455,28.0
20.119,-0.004,0.351,26.0
20.124,-0.004,0.246,25.0
20.116,-0.003,0.142,26.0
20.146,-0.003,0.039,23.0
20.191,-0.003,0.604,27.0
20.16,-0.003,0.499,23.0
20.124,-0.002,0.394,26.0
20.123,-0.002,0.289,26.0
20.119,-0.001,0.185,28.0
20.134,0.0,0.082,33.0
20.194,-0.001,0.647,46.0
20.164,0.0,0.542,23.0
20.138,0.0,0.438,27.0
20.122,0.001,0.331,26.0
20.119,0.001,0.228,26.0
20.124,0.002,0.124,28.0
20.162,0.002,0.689,27.0
20.178,0.003,0.585,27.0
20.146,0.004,0.481,25.0
20.133,0.004,0.374,25.0
20.121,0.005,0.271,26.0
20.123,0.006,0.167,28.0
20.129,0.006,0.73,32.0
20.189,0.007,0.628,38.0
20.157,0.008,0.523,21.0
20.123,0.009,0.416,27.0
20.133,0.01,0.313,25.0
20.124,0.011,0.209,25.0
20.118,0.011,0.772,30.0
20.18,0.012,0.67,37.0
20.169,0.013,0.566,26.0
20.129,0.014,0.459,27.0
20.13,0.016,0.355,25.0
20.123,0.017,0.251,25.0
20.114,0.017,0.814,27.0
20.13,0.018,0.71,31.0
20.182,0.019,0.608,33.0
20.155,0.02,0.501,23.0
20.13,0.022,0.396,27.0
20.126,0.023,0.292,25.0
20.111,0.023,0.855,28.0
20.112,0.024,0.751,27.0
20.178,0.026,0.649,44.0
20.178,0.027,0.543,25.0
20.134,0.029,0.438,29.0
20.121,0.03,0.334,26.0
20.106,0.03,0.897,14.0
20.102,0.032,0.793,27.0
20.14,0.033,0.69,29.0
20.19,0.035,0.585,31.0
20.14,0.036,0.48,24.0
20.13,0.038,0.376,26.0
66.767,0.127,3.117,17.0
20.104,0.039,0.834,26.0
20.109,0.041,0.73,28.0
20.194,0.043,0.627,37.0
20.165,0.045,0.522,26.0
20.136,0.046,0.417,28.0
66.852,0.156,3.26,36.0
20.098,0.048,0.876,19.0
20.091,0.05,0.771,20.0
20.168,0.052,0.668,28.0
20.186,0.054,0.564,29.0
20.142,0.056,0.459,28.0
66.773,0.186,3.393,33.0
20.126,0.058,0.918,7.0
20.124,0.06,0.814,21.0
20.139,0.062,0.708,29.0
20.197,0.064,0.605,25.0
20.161,0.066,0.5,24.0
66.818,0.219,3.53,26.0
66.699,0.226,3.178,41.0
20.11,0.07,0.853,19.0
20.137,0.072,0.748,26.0
20.214,0.074,0.646,26.0
20.177,0.076,0.54,26.0
59.432,0.227,3.26,52.0
103.844,0.408,5.155,23.0
20.118,0.081,0.894,10.0
20.13,0.083,0.788,21.0
20.166,0.085,0.684,13.0
20.192,0.088,0.581,23.0
59.472,0.26,3.379,63.0
66.809,0.3,3.448,25.0
66.029,0.304,3.065,23.0
20.114,0.095,0.827,19.0
20.135,0.097,0.723,19.0
20.202,0.1,0.62,11.0
59.5,0.296,3.498,47.0
66.925,0.341,3.585,30.0
100.472,0.524,4.859,12.0
20.135,0.107,0.867,10.0
20.157,0.11,0.763,16.0
102.605,0.573,3.353,40.0
67.169,0.377,4.08,31.0
104.734,0.601,5.816,15.0
109.898,0.645,5.53,20.0
65.95,0.395,2.968,12.0
20.167,0.123,0.802,4.0
102.503,0.641,3.548,48.0
67.185,0.422,4.211,19.0
59.497,0.381,3.418,7.0
66.914,0.437,3.495,22.0
65.866,0.439,3.09,39.0
101.886,0.693,4.248,58.0
102.354,0.71,3.736,29.0
46.244,0.322,2.986,56.0
59.452,0.422,3.528,32.0
66.947,0.485,3.624,30.0
65.851,0.486,3.214,29.0
142.273,1.071,6.201,7.0
102.122,0.783,3.92,13.0
67.193,0.518,4.467,22.0
59.416,0.466,3.639,45.0
101.157,0.809,5.666,12.0
65.839,0.536,3.337,41.0
102.076,0.845,4.64,27.0
0.0,0.0,0.0,0.0
67.213,0.569,4.593,31.0
59.351,0.511,3.745,51.0
119.282,1.045,6.901,9.0
66.339,0.591,3.484,44.0
102.147,0.925,4.831,19.0
111.71,1.029,4.698,22.0
67.218,0.622,4.717,26.0
59.385,0.558,3.855,10.0
101.247,0.968,6.041,21.0
66.743,0.648,3.626,43.0
102.109,1.008,5.013,18.0
111.634,1.119,4.895,27.0
67.234,0.677,4.839,24.0
46.292,0.473,3.088,51.0
59.646,0.619,3.665,20.0
67.085,0.707,3.763,31.0
66.008,0.706,3.357,16.0
111.598,1.212,5.09,33.0
67.223,0.734,4.958,21.0
46.323,0.513,3.172,38.0
59.669,0.671,3.772,49.0
67.292,0.768,3.894,6.0
66.05,0.765,3.476,22.0
111.537,1.31,5.284,13.0
67.294,0.794,5.082,20.0
46.365,0.555,3.256,50.0
59.685,0.724,3.878,51.0
103.847,1.278,6.189,11.0
66.104,0.825,3.592,30.0
111.594,1.412,5.48,9.0
67.156,0.854,5.188,10.0
46.375,0.597,3.338,47.0
59.751,0.78,3.985,47.0
67.552,0.893,4.142,9.0
67.068,0.899,3.76,42.0
69.308,0.941,3.521,9.0
43.252,0.59,3.415,5.0
46.405,0.642,3.419,40.0
59.745,0.837,4.085,54.0
101.924,1.446,6.421,10.0
67.464,0.968,3.894,4.0
101.95,1.483,5.349,8.0
43.192,0.632,3.483,6.0
46.427,0.687,3.498,79.0
59.694,0.895,4.182,34.0
67.578,1.025,4.37,9.0
67.534,1.037,4.01,16.0
66.233,1.029,3.583,6.0
46.471,0.726,3.824,7.0
46.437,0.733,3.574,56.0
59.502,0.951,4.264,42.0
67.676,1.094,4.485,13.0
67.546,1.104,4.119,24.0
66.244,1.096,3.69,3.0
46.448,0.772,3.896,7.0
67.743,1.139,5.323,27.0
59.361,1.01,4.35,33.0
67.622,1.163,4.589,34.0
0.0,0.0,0.0,0.0
66.239,1.164,3.794,13.0
46.443,0.821,3.969,38.0
47.902,0.856,3.839,4.0
59.29,1.07,4.437,8.0
67.571,1.233,4.691,21.0
67.583,1.246,4.332,6.0
66.223,1.234,3.894,21.0
46.467,0.871,4.044,49.0
43.333,0.82,3.54,17.0
59.28,1.134,4.526,17.0
67.602,1.306,4.795,34.0
67.753,1.322,4.445,4.0
66.217,1.305,3.993,25.0
46.549,0.923,4.121,4.0
52.366,1.048,4.355,6.0
59.029,1.193,4.594,29.0
67.44,1.376,4.882,13.0
66.285,1.366,4.446,38.0
66.217,1.377,4.089,24.0
40.279,0.843,3.624,12.0
43.988,0.929,3.722,4.0
58.64,1.25,4.649,34.0
67.383,1.45,4.976,13.0
0.0,0.0,0.0,0.0
66.172,1.45,4.18,25.0
40.265,0.887,3.68,24.0
46.538,1.035,4.004,5.0
42.919,0.963,3.463,5.0
67.176,1.521,5.054,11.0
67.784,1.548,4.737,10.0
66.046,1.522,4.264,8.0
46.592,1.081,4.324,7.0
40.398,0.945,3.532,9.0
42.767,1.009,3.51,4.0
66.443,1.581,5.09,35.0
65.958,1.584,4.7,8.0
53.514,1.296,3.528,15.0
40.345,0.983,3.8,63.0
46.384,1.14,4.119,9.0
52.363,1.297,4.368,7.0
57.862,1.446,4.511,12.0
65.976,1.662,4.79,17.0
101.278,2.574,6.811,5.0
40.356,1.032,3.855,11.0
40.465,1.043,3.647,54.0
0.0,0.0,0.0,0.0
52.099,1.364,4.129,16.0
69.499,1.834,5.135,5.0
67.922,1.807,4.655,5.0
53.07,1.421,5.137,14.0
40.385,1.089,3.691,71.0
52.165,1.418,4.487,25.0
52.005,1.425,4.187,5.0
52.526,1.45,3.947,28.0
67.986,1.892,4.744,12.0
59.643,1.671,5.849,17.0
40.383,1.139,3.741,52.0
40.422,1.149,3.526,15.0
43.648,1.25,3.568,3.0
68.184,1.967,5.207,5.0
53.024,1.541,3.764,6.0
59.265,1.734,5.884,1.0
48.602,1.432,4.562,8.0
40.474,1.201,3.579,3.0
43.562,1.302,3.613,4.0
52.055,1.567,4.036,4.0
68.369,2.073,4.933,3.0
52.476,1.602,5.271,4.0
53.237,1.636,5.059,8.0
40.433,1.251,3.623,26.0
50.846,1.584,4.276,7.0
51.831,1.626,4.078,4.0
69.771,2.203,5.113,1.0
52.426,1.667,5.326,4.0
53.237,1.704,5.118,7.0
46.597,1.501,4.227,15.0
51.117,1.658,4.355,10.0
43.776,1.429,3.492,4.0
66.625,2.19,4.955,1.0
65.759,2.175,6.752,9.0
54.53,1.815,5.302,4.0
43.692,1.464,4.01,12.0
46.855,1.579,4.041,7.0
50.742,1.722,4.101,4.0
51.994,1.775,3.921,6.0
58.395,2.008,6.058,6.0
60.104,2.079,5.907,14.0
46.189,1.607,4.288,4.0
46.831,1.64,4.087,9.0
58.315,2.054,4.773,7.0
52.104,1.847,3.982,25.0
46.276,1.651,4.847,10.0
60.157,2.159,5.972,8.0
43.652,1.576,4.095,5.0
43.687,1.587,3.855,2.0
47.033,1.719,3.895,4.0
52.071,1.914,4.029,29.0
60.242,2.229,6.368,15.0
60.195,2.24,6.033,3.0
53.461,2.001,5.066,5.0
46.944,1.767,4.187,4.0
52.905,2.003,4.43,17.0
51.74,1.97,4.051,4.0
46.745,1.792,4.985,7.0
60.147,2.319,6.084,3.0
43.378,1.681,4.15,2.0
46.611,1.817,4.199,3.0
42.88,1.681,3.629,4.0
47.134,1.857,3.732,4.0
46.585,1.849,5.009,3.0
46.007,1.835,4.694,4.0
52.575,2.108,5.075,6.0
53.363,2.151,4.853,1.0
46.948,1.902,4.013,7.0
51.235,2.087,4.099,3.0
46.222,1.896,5.008,3.0
46.123,1.901,4.743,5.0
52.453,2.173,5.106,7.0
46.051,1.918,4.225,6.0
47.019,1.968,4.056,13.0
52.354,2.203,4.23,5.0
46.242,1.959,5.047,10.0
46.833,1.994,4.853,4.0
52.308,2.238,5.132,3.0
46.028,1.978,4.258,4.0
47.061,2.033,4.096,6.0
52.603,2.284,4.289,10.0
46.478,2.032,5.107,17.0
46.798,2.056,4.884,8.0
43.982,1.941,4.348,1.0
46.019,2.041,4.291,10.0
53.15,2.368,4.663,2.0
43.729,1.957,3.597,2.0
46.566,2.099,5.15,5.0
46.774,2.118,4.914,2.0
45.834,2.085,4.562,2.0
45.98,2.102,4.319,9.0
53.233,2.444,4.706,1.0
66.482,3.066,5.512,4.0
46.68,2.167,5.194,5.0
46.563,2.172,4.922,3.0
45.789,2.145,4.587,5.0
45.863,2.158,4.336,9.0
53.186,2.513,4.735,1.0
47.133,2.237,3.937,7.0
47.025,2.248,5.261,12.0
46.562,2.235,4.95,3.0
59.134,2.851,5.959,10.0
45.963,2.225,4.373,3.0
45.881,2.231,4.111,1.0
47.141,2.301,3.965,10.0
47.083,2.315,5.295,11.0
46.269,2.284,4.945,1.0
59.167,2.933,5.996,2.0
45.997,2.289,4.401,2.0
52.188,2.607,4.705,0.0
47.126,2.364,3.988,9.0
47.224,2.386,5.335,6.0
46.221,2.345,4.964,3.0
46.707,2.379,4.757,3.0
43.41,2.219,4.175,2.0
46.0,2.361,4.17,2.0
47.244,2.435,4.021,6.0
47.289,2.454,5.365,5.0
46.267,2.409,4.991,14.0
59.287,3.099,6.065,3.0
45.734,2.4,4.42,3.0
45.954,2.42,4.186,7.0
47.243,2.498,4.042,7.0
47.336,2.521,5.391,4.0
45.929,2.454,4.974,20.0
46.698,2.504,4.797,2.0
45.589,2.454,4.425,3.0
45.65,2.466,4.177,3.0
47.23,2.561,4.06,10.0
47.357,2.586,5.412,2.0
46.241,2.534,5.026,8.0
52.483,2.887,5.411,3.0
45.546,2.513,4.438,2.0
0.0,0.0,0.0,0.0
45.956,2.572,5.269,1.0
46.255,2.598,5.044,7.0
46.43,2.616,4.803,2.0
45.558,2.575,4.453,8.0
45.962,2.607,4.236,1.0
46.177,2.629,3.999,9.0
0.0,0.0,0.0,0.0
46.245,2.66,5.056,7.0
46.405,2.677,4.814,1.0
45.885,2.665,4.242,2.0
0.0,0.0,0.0,0.0
0.0,0.0,0.0,0.0
46.199,2.719,5.062,6.0
45.631,2.693,4.744,3.0
46.055,2.736,4.268,5.0
45.835,2.731,3.992,2.0
46.8,2.808,5.401,4.0
46.218,2.781,5.074,3.0
45.831,2.774,4.512,1.0
46.988,2.853,4.363,1.0
47.478,2.892,4.143,3.0
47.146,2.89,5.449,1.0
46.23,2.843,5.083,2.0
45.758,2.83,4.512,5.0
45.48,2.821,4.229,1.0
47.427,2.95,4.145,5.0
47.198,2.956,5.461,3.0
46.239,2.903,5.089,1.0
45.719,2.886,4.513,1.0
45.573,2.886,4.242,3.0
0.0,0.0,0.0,0.0
47.192,3.017,5.464,2.0
0.0,0.0,0.0,0.0
45.721,2.946,4.515,2.0
45.563,2.943,4.244,3.0
46.337,3.003,4.055,2.0
47.171,3.076,5.463,1.0
0.0,0.0,0.0,0.0
45.463,2.988,4.49,3.0
45.511,2.998,4.239,1.0
0.0,0.0,0.0,0.0
0.0,0.0,0.0,0.0
45.496,3.048,4.492,10.0
47.775,3.208,4.448,1.0
46.205,3.131,5.348,1.0
0.0,0.0,0.0,0.0
45.591,3.111,4.498,3.0
47.649,3.259,4.432,1.0
46.196,3.188,5.343,3.0
0.0,0.0,0.0,0.0
45.569,3.166,4.491,7.0
45.601,3.175,4.236,4.0
46.161,3.242,5.332,1.0
0.0,0.0,0.0,0.0
45.594,3.222,4.486,9.0
47.35,3.354,4.391,1.0
0.0,0.0,0.0,0.0
0.0,0.0,0.0,0.0
45.663,3.282,4.484,4.0
0.0,0.0,0.0,0.0
0.0,0.0,0.0,0.0
45.765,3.344,4.482,1.0
45.499,3.338,3.941,1.0
0.0,0.0,0.0,0.0
0.0,0.0,0.0,0.0
45.527,3.392,3.93,1.0
0.0,0.0,0.0,0.0
0.0,0.0,0.0,0.0
45.796,3.453,4.457,0.0
45.43,3.438,3.906,1.0
0.0,0.0,0.0,0.0
0.0,0.0,0.0,0.0
45.433,3.471,4.668,3.0
45.98,3.518,4.458,1.0
45.367,3.483,3.883,1.0
0.0,0.0,0.0,0.0
0.0,0.0,0.0,0.0
45.434,3.52,4.65,2.0
46.0,3.57,4.441,1.0
0.0,0.0,0.0,0.0
0.0,0.0,0.0,0.0
45.961,3.617,4.416,1.0
114.207,9.002,10.325,8.0
114.678,9.053,9.716,6.0
0.0,0.0,0.0,0.0
45.313,3.603,4.855,0.0
0.0,0.0,0.0,0.0
45.991,3.668,4.397,2.0
118.12,9.435,10.62,1.0
112.09,8.967,9.44,1.0
45.184,3.635,5.076,1.0
45.31,3.65,4.831,2.0
0.0,0.0,0.0,0.0
46.002,3.716,4.374,0.0
115.927,9.378,10.361,3.0
116.225,9.416,9.726,5.0
0.0,0.0,0.0,0.0
0.0,0.0,0.0,0.0
0.0,0.0,0.0,0.0
116.18,9.501,10.981,5.0
116.188,9.515,10.317,6.0
116.139,9.525,9.651,3.0
0.0,0.0,0.0,0.0
0.0,0.0,0.0,0.0
0.0,0.0,0.0,0.0
114.849,9.505,10.785,8.0
117.88,9.768,10.396,8.0
117.71,9.767,9.71,7.0
0.0,0.0,0.0,0.0
0.0,0.0,0.0,0.0
0.0,0.0,0.0,0.0
116.132,9.721,10.831,3.0
115.586,9.687,10.118,8.0
112.632,9.451,9.217,6.0
0.0,0.0,0.0,0.0
114.667,9.683,11.943,2.0
46.045,3.892,4.531,0.0
115.364,9.764,10.679,3.0
115.084,9.75,9.996,2.0
96.466,8.182,7.828,6.0
0.0,0.0,0.0,0.0
114.753,9.794,11.87,3.0
114.958,9.822,11.23,2.0
0.0,0.0,0.0,0.0
115.119,9.856,9.914,2.0
96.463,8.267,7.757,4.0
0.0,0.0,0.0,0.0
0.0,0.0,0.0,0.0
115.01,9.925,11.149,7.0
115.123,9.943,10.488,2.0
114.979,9.94,9.817,20.0
92.4,7.996,7.36,1.0
115.066,10.008,12.391,8.0
115.071,10.016,11.728,5.0
114.827,10.003,11.042,9.0
114.954,10.022,10.384,11.0
99.48,8.681,8.416,5.0
111.864,9.771,8.823,3.0
0.0,0.0,0.0,0.0
0.0,0.0,0.0,0.0
115.02,10.111,10.968,3.0
0.0,0.0,0.0,0.0
114.096,10.046,9.559,4.0
109.538,9.654,8.549,2.0
0.0,0.0,0.0,0.0
114.939,10.185,11.524,5.0
116.284,10.311,10.989,2.0
86.163,7.645,7.639,4.0
107.198,9.518,8.89,1.0
109.672,9.748,8.465,9.0
0.0,0.0,0.0,0.0
0.0,0.0,0.0,0.0
114.658,10.25,10.735,8.0
114.721,10.262,10.07,4.0
86.236,7.719,7.075,1.0
91.976,8.239,7.019,3.0
0.0,0.0,0.0,0.0
114.456,10.305,11.273,3.0
0.0,0.0,0.0,0.0
107.134,9.656,9.308,2.0
86.269,7.781,6.999,1.0
96.488,8.708,7.276,2.0
0.0,0.0,0.0,0.0
0.0,0.0,0.0,0.0
99.194,9.005,8.525,3.0
86.02,7.813,6.899,1.0
98.117,8.917,7.306,3.0
114.615,10.462,11.734,1.0
0.0,0.0,0.0,0.0
99.248,9.071,8.433,6.0
91.726,8.387,7.267,3.0
97.749,8.943,7.183,12.0
0.0,0.0,0.0,0.0
0.0,0.0,0.0,0.0
86.156,7.921,7.74,3.0
99.233,9.127,8.333,6.0
91.705,8.438,7.174,2.0
96.556,8.888,7.0,5.0
0.0,0.0,0.0,0.0
114.625,10.598,10.842,6.0
98.151,9.077,8.718,2.0
99.267,9.183,8.235,4.0
91.824,8.498,7.089,7.0
96.432,8.929,6.891,6.0
0.0,0.0,0.0,0.0
114.844,10.678,10.742,3.0
107.149,9.965,9.403,3.0
85.46,7.95,6.998,8.0
92.057,8.566,7.009,3.0
96.396,8.974,6.785,5.0
0.0,0.0,0.0,0.0
0.0,0.0,0.0,0.0
111.494,10.421,9.664,2.0
86.066,8.046,6.956,7.0
92.012,8.604,6.906,1.0
93.62,8.758,6.489,4.0
114.752,10.773,11.146,3.0
99.397,9.332,9.079,2.0
114.688,10.77,9.814,7.0
86.061,8.083,6.858,8.0
90.437,8.496,6.687,1.0
93.37,8.773,6.368,6.0
117.999,11.126,11.328,1.0
92.157,8.69,8.313,6.0
86.395,8.147,7.294,1.0
0.0,0.0,0.0,0.0
98.725,9.313,7.187,2.0
87.52,8.257,5.869,3.0
92.058,8.714,8.732,9.0
85.184,8.063,7.587,5.0
91.784,8.688,7.644,4.0
85.938,8.135,6.654,5.0
96.448,9.13,6.912,4.0
87.582,8.292,5.773,4.0
92.403,8.777,8.656,4.0
85.148,8.086,7.484,3.0
84.928,8.065,6.974,3.0
92.334,8.768,7.04,4.0
80.122,7.609,5.647,2.0
87.596,8.319,5.671,4.0
114.683,10.926,10.606,6.0
91.948,8.758,7.972,5.0
92.277,8.788,7.468,5.0
92.147,8.776,6.916,6.0
96.539,9.193,6.69,3.0
97.758,9.309,6.213,5.0
98.957,9.451,9.032,5.0
85.038,8.12,7.269,4.0
92.079,8.791,7.339,4.0
92.092,8.791,6.799,4.0
85.192,8.132,5.799,3.0
78.376,7.481,4.884,3.0
99.158,9.49,8.928,4.0
85.057,8.139,7.166,9.0
91.737,8.776,7.198,3.0
107.948,10.325,7.837,8.0
85.012,8.13,5.681,2.0
84.693,8.099,5.173,9.0
92.133,8.833,8.18,5.0
85.235,8.169,7.073,8.0
86.039,8.243,6.643,4.0
92.964,8.905,6.631,8.0
111.479,10.677,7.31,4.0
84.741,8.114,5.069,13.0
0.0,0.0,0.0,0.0
92.09,8.836,7.524,10.0
85.912,8.24,6.523,4.0
84.405,8.093,5.913,2.0
87.586,8.396,5.632,5.0
85.112,8.158,4.981,12.0
91.175,8.758,7.859,5.0
92.112,8.844,7.407,10.0
84.516,8.112,6.307,4.0
85.233,8.178,5.86,6.0
87.524,8.395,5.513,4.0
85.174,8.168,4.875,3.0
91.452,8.788,7.763,2.0
92.155,8.851,7.29,5.0
92.609,8.89,6.79,3.0
85.419,8.197,5.761,4.0
78.371,7.518,4.834,3.0
86.854,8.329,4.857,3.0
85.204,8.186,7.119,7.0
91.847,8.819,7.144,4.0
92.907,8.917,6.688,10.0
92.197,8.845,6.096,1.0
84.681,8.12,5.111,9.0
84.404,8.091,4.609,5.0
92.086,8.842,7.572,9.0
85.921,8.245,6.567,5.0
90.481,8.678,6.393,2.0
87.552,8.392,5.671,4.0
84.982,8.143,5.014,15.0
86.257,8.261,4.594,1.0
79.809,7.655,6.454,1.0
84.559,8.106,6.348,4.0
85.053,8.148,5.895,4.0
97.721,9.356,6.199,8.0
85.145,8.148,4.911,4.0
91.789,8.78,4.765,10.0
91.798,8.792,7.298,3.0
107.894,10.326,7.953,10.0
0.0,0.0,0.0,0.0
78.358,7.49,4.863,4.0
97.994,9.361,5.517,3.0
97.449,9.304,4.927,7.0
86.042,8.225,6.723,5.0
80.305,7.67,5.81,2.0
92.481,8.826,6.157,1.0
84.539,8.064,5.132,30.0
84.344,8.039,4.634,5.0
97.397,9.278,4.792,2.0
86.006,8.201,6.601,3.0
96.502,9.194,6.85,4.0
87.562,8.336,5.709,3.0
84.438,8.033,5.01,13.0
86.285,8.203,4.623,2.0
86.89,8.255,4.156,2.0
92.123,8.759,6.943,7.0
96.588,9.176,6.722,2.0
97.665,9.27,6.234,4.0
84.099,7.976,4.874,4.0
91.768,8.697,4.791,6.0
105.714,10.011,4.91,3.0
91.952,8.714,6.803,3.0
93.31,8.834,6.364,3.0
78.345,7.41,4.892,3.0
87.534,8.273,4.952,6.0
97.379,9.195,4.948,9.0
87.451,8.251,3.941,9.0
80.298,7.58,5.829,3.0
87.8,8.28,5.867,3.0
84.979,8.006,5.188,9.0
84.076,7.914,4.639,4.0
87.73,8.25,4.336,6.0
86.761,8.152,3.789,9.0
96.503,9.07,6.869,6.0
90.477,8.495,5.918,2.0
85.602,8.029,5.105,5.0
84.215,7.891,4.529,3.0
96.438,9.028,4.631,3.0
86.301,8.072,3.648,3.0
93.484,8.744,6.522,4.0
85.117,7.953,5.447,4.0
98.066,9.152,5.71,2.0
97.383,9.079,5.1,5.0
96.324,8.971,4.49,2.0
108.19,10.067,4.421,22.0
85.95,7.996,5.875,4.0
84.313,7.834,5.277,6.0
84.933,7.883,4.825,2.0
97.461,9.036,4.966,5.0
87.583,8.111,3.96,10.0
110.458,10.219,4.36,14.0
84.992,7.861,5.69,6.0
78.352,7.238,4.793,4.0
91.61,8.452,5.076,6.0
97.109,8.95,4.812,3.0
87.448,8.05,3.831,10.0
116.241,10.689,4.424,9.0
84.928,7.806,5.566,2.0
87.567,8.037,5.233,2.0
91.794,8.414,4.958,7.0
96.18,8.806,4.632,1.0
108.16,9.891,4.586,9.0
109.683,10.019,4.022,23.0
107.606,9.823,6.901,1.0
83.806,7.639,4.891,2.0
97.138,8.842,5.11,5.0
111.113,10.102,5.195,7.0
86.34,7.84,3.541,4.0
121.221,10.993,4.275,19.0
109.864,9.955,6.891,6.0
83.856,7.587,4.777,3.0
89.691,8.103,4.592,3.0
108.112,9.754,4.903,9.0
120.771,10.882,4.782,26.0
121.298,10.916,4.108,22.0
78.327,7.04,4.802,3.0
84.492,7.584,4.694,6.0
111.305,9.975,5.543,3.0
87.287,7.811,3.836,3.0
109.783,9.811,4.194,10.0
121.179,10.815,3.935,13.0
78.278,6.977,4.689,2.0
85.979,7.651,4.656,4.0
98.81,8.78,4.783,2.0
104.503,9.271,4.448,3.0
122.213,10.827,4.499,15.0
143.724,12.714,4.466,25.0
91.71,8.1,5.366,2.0
97.157,8.567,5.126,6.0
88.148,7.76,4.143,3.0
86.382,7.593,3.555,4.0
121.091,10.627,4.289,18.0
143.731,12.595,4.268,32.0
111.542,9.758,6.37,6.0
89.414,7.808,4.591,3.0
87.388,7.618,3.985,8.0
108.119,9.41,4.299,3.0
121.098,10.523,4.122,17.0
144.005,12.493,4.075,29.0
91.818,7.95,5.116,3.0
97.51,8.428,4.873,3.0
143.541,12.384,6.348,12.0
143.369,12.347,5.502,17.0
143.985,12.379,4.701,19.0
144.05,12.365,3.877,17.0
116.062,9.941,6.307,4.0
88.152,7.536,4.283,3.0
143.474,12.243,6.148,13.0
143.799,12.248,5.322,13.0
144.25,12.265,4.513,27.0
197.099,16.731,5.038,18.0
92.383,7.823,4.893,3.0
87.413,7.387,4.127,7.0
98.941,8.345,4.104,6.0
144.037,12.126,5.134,9.0
156.888,13.184,4.695,12.0
195.078,16.365,4.722,6.0
96.759,8.096,4.993,2.0
99.227,8.285,4.551,4.0
143.562,11.961,5.76,20.0
156.971,13.053,5.382,20.0
156.857,13.018,4.481,13.0
0.0,0.0,0.0,0.0
96.835,8.0,4.865,3.0
99.351,8.19,4.423,4.0
144.011,11.846,5.585,18.0
167.703,13.767,5.527,12.0
156.604,12.83,4.266,12.0
196.44,16.06,4.227,16.0
92.187,7.515,4.509,3.0
109.943,8.942,4.747,5.0
107.266,8.705,4.018,1.0
160.57,13.004,5.08,7.0
156.453,12.643,4.054,23.0
155.999,12.579,3.15,28.0
87.972,7.071,4.186,1.0
109.905,8.814,4.6,5.0
166.827,13.348,6.029,5.0
154.951,12.369,4.697,13.0
167.998,13.382,4.133,9.0
155.94,12.394,2.945,46.0
121.456,9.62,5.622,3.0
166.877,13.186,6.767,5.0
166.927,13.158,5.813,16.0
169.26,13.309,4.909,14.0
155.655,12.211,3.626,17.0
156.008,12.211,2.742,27.0
107.703,8.399,4.843,3.0
110.359,8.584,4.332,2.0
154.666,12.0,5.186,4.0
178.186,13.79,4.938,18.0
155.934,12.039,3.429,24.0
162.191,12.492,2.642,19.0
96.562,7.408,4.218,5.0
156.885,12.005,5.956,8.0
156.922,11.977,5.062,35.0
156.836,11.939,4.147,20.0
162.072,12.307,3.361,13.0
168.213,12.742,2.53,48.0
96.654,7.291,4.101,6.0
169.831,12.776,6.233,6.0
163.489,12.265,5.066,16.0
155.777,11.655,3.923,26.0
167.958,12.534,3.273,17.0
168.239,12.523,2.32,16.0
163.849,12.142,6.747,4.0
0.0,0.0,0.0,0.0
166.675,12.282,4.96,10.0
162.336,11.928,3.888,23.0
173.417,12.708,3.165,42.0
173.459,12.677,2.179,22.0
0.0,0.0,0.0,0.0
160.855,11.665,5.508,9.0
156.192,11.294,4.456,17.0
178.431,12.864,4.056,9.0
173.641,12.482,2.958,20.0
0.0,0.0,0.0,0.0
160.981,11.484,6.235,10.0
0.0,0.0,0.0,0.0
161.732,11.465,4.42,11.0
172.399,12.186,3.713,11.0
0.0,0.0,0.0,0.0
0.0,0.0,0.0,0.0
156.066,10.91,5.861,3.0
155.794,10.855,4.962,5.0
173.097,12.024,4.527,12.0
210.298,14.561,4.284,17.0
210.348,14.517,3.087,12.0
0.0,0.0,0.0,0.0
156.936,10.741,5.71,15.0
0.0,0.0,0.0,0.0
178.288,12.118,4.457,7.0
0.0,0.0,0.0,0.0
199.281,13.456,2.695,6.0
0.0,0.0,0.0,0.0
161.908,10.837,5.705,4.0
162.753,10.854,4.808,21.0
202.338,13.447,4.828,6.0
0.0,0.0,0.0,0.0
0.0,0.0,0.0,0.0
0.0,0.0,0.0,0.0
162.606,10.634,5.547,8.0
174.092,11.342,4.948,7.0
195.263,12.673,4.44,5.0
0.0,0.0,0.0,0.0
0.0,0.0,0.0,0.0
154.977,9.949,0.868,4.0
162.965,10.398,5.378,3.0
0.0,0.0,0.0,0.0
197.845,12.526,4.283,13.0
0.0,0.0,0.0,0.0
207.406,13.031,2.113,21.0
155.428,9.728,0.702,101.0
166.234,10.34,5.307,3.0
195.556,12.113,5.132,8.0
198.247,12.231,4.079,6.0
202.811,12.465,3.002,6.0
0.0,0.0,0.0,0.0
197.674,12.05,0.684,8.0
0.0,0.0,0.0,0.0
195.709,11.802,4.931,12.0
0.0,0.0,0.0,0.0
208.171,12.447,2.865,13.0
197.506,11.763,1.599,21.0
197.305,11.702,0.481,6.0
0.0,0.0,0.0,0.0
0.0,0.0,0.0,0.0
0.0,0.0,0.0,0.0
0.0,0.0,0.0,0.0
197.459,11.424,1.399,33.0
0.0,0.0,0.0,0.0
194.853,11.144,5.62,10.0
0.0,0.0,0.0,0.0
0.0,0.0,0.0,0.0
0.0,0.0,0.0,0.0
196.327,11.024,1.2,8.0
0.0,0.0,0.0,0.0
196.014,10.874,5.465,32.0
196.082,10.824,4.357,56.0
196.047,10.772,3.247,33.0
196.072,10.72,2.119,44.0
0.0,0.0,0.0,0.0
0.0,0.0,0.0,0.0
0.0,0.0,0.0,0.0
196.507,10.501,4.18,6.0
0.0,0.0,0.0,0.0
206.731,10.932,2.039,12.0
197.264,10.379,0.833,5.0
0.0,0.0,0.0,0.0
197.474,10.252,5.135,16.0
0.0,0.0,0.0,0.0
0.0,0.0,0.0,0.0
197.073,10.067,1.765,17.0
197.175,10.018,0.654,14.0
0.0,0.0,0.0,0.0
0.0,0.0,0.0,0.0
197.519,9.842,3.847,6.0
197.806,9.803,2.737,11.0
196.996,9.707,1.594,27.0
0.0,0.0,0.0,0.0
0.0,0.0,0.0,0.0
196.345,9.48,4.763,7.0
0.0,0.0,0.0,0.0
0.0,0.0,0.0,0.0
196.885,9.333,1.426,37.0
0.0,0.0,0.0,0.0
0.0,0.0,0.0,0.0
0.0,0.0,0.0,0.0
206.82,9.536,3.68,9.0
204.958,9.389,2.492,12.0
196.827,8.957,1.264,40.0
0.0,0.0,0.0,0.0
0.0,0.0,0.0,0.0
195.49,8.699,4.423,54.0
195.477,8.644,3.323,57.0
195.536,8.587,2.223,34.0
195.923,8.545,1.105,34.0
0.0,0.0,0.0,0.0
69.066,2.972,-0.387,0.0
0.0,0.0,0.0,0.0
196.746,8.319,3.193,9.0
0.0,0.0,0.0,0.0
196.677,8.2,0.961,37.0
0.0,0.0,0.0,0.0
0.0,0.0,0.0,0.0
197.033,8.013,4.162,5.0
203.801,8.225,3.16,15.0
199.251,7.982,1.971,12.0
196.69,7.821,0.821,30.0
0.0,0.0,0.0,0.0
69.001,2.701,-0.486,0.0
195.133,7.551,3.984,17.0
195.079,7.492,2.888,23.0
195.059,7.43,1.793,18.0
195.043,7.368,0.679,5.0
0.0,0.0,0.0,0.0
69.019,2.565,-0.533,4.0
0.0,0.0,0.0,0.0
195.947,7.136,2.771,22.0
196.439,7.095,1.677,21.0
196.545,7.037,0.557,5.0
0.0,0.0,0.0,0.0
68.915,2.424,-0.576,1.0
195.309,6.784,3.733,23.0
195.815,6.742,2.647,9.0
196.341,6.697,1.554,21.0
0.0,0.0,0.0,0.0
0.0,0.0,0.0,0.0
0.0,0.0,0.0,0.0
195.16,6.387,3.613,14.0
195.499,6.334,2.525,6.0
196.11,6.29,1.436,32.0
0.0,0.0,0.0,0.0
0.0,0.0,0.0,0.0
0.0,0.0,0.0,0.0
0.0,0.0,0.0,0.0
201.723,6.128,2.493,22.0
196.045,5.891,1.327,40.0
0.0,0.0,0.0,0.0
0.0,0.0,0.0,0.0
0.0,0.0,0.0,0.0
193.451,5.542,3.369,5.0
195.41,5.537,2.312,9.0
103.287,2.892,0.645,2.0
103.298,2.858,0.058,2.0
0.0,0.0,0.0,0.0
0.0,0.0,0.0,0.0
193.481,5.147,3.274,14.0
0.0,0.0,0.0,0.0
103.052,2.675,0.594,3.0
100.13,2.566,0.009,3.0
0.0,0.0,0.0,0.0
0.0,0.0,0.0,0.0
195.101,4.788,3.212,13.0
0.0,0.0,0.0,0.0
100.172,2.392,0.533,2.0
100.172,2.36,-0.034,17.0
0.0,0.0,0.0,0.0
0.0,0.0,0.0,0.0
195.372,4.39,3.134,22.0
0.0,0.0,0.0,0.0
100.056,2.182,0.491,4.0
100.007,2.148,-0.075,9.0
0.0,0.0,0.0,0.0
0.0,0.0,0.0,0.0
199.566,4.069,3.124,9.0
0.0,0.0,0.0,0.0
99.948,1.969,0.453,7.0
0.0,0.0,0.0,0.0
0.0,0.0,0.0,0.0
0.0,0.0,0.0,0.0
194.906,3.566,2.982,15.0
0.0,0.0,0.0,0.0
99.856,1.758,0.419,5.0
100.221,1.732,-0.145,1.0
0.0,0.0,0.0,0.0
0.0,0.0,0.0,0.0
194.974,3.157,2.922,23.0
0.0,0.0,0.0,0.0
99.682,1.546,0.388,5.0
101.475,1.538,-0.177,2.0
0.0,0.0,0.0,0.0
0.0,0.0,0.0,0.0
20.307,0.286,0.298,0.0
0.0,0.0,0.0,0.0
99.661,1.334,0.361,6.0
0.0,0.0,0.0,0.0
0.0,0.0,0.0,0.0
20.196,0.249,-0.264,18.0
20.29,0.242,0.293,26.0
20.325,0.235,0.181,22.0
20.313,0.228,0.069,17.0
20.344,0.221,-0.045,0.0
20.196,0.213,-0.156,4.0
20.186,0.206,-0.268,28.0
20.289,0.199,0.289,31.0
20.31,0.192,0.177,29.0
20.303,0.184,0.065,28.0
20.226,0.177,-0.048,23.0
20.194,0.169,-0.16,21.0
20.174,0.162,-0.271,35.0
20.173,0.155,0.284,26.0
20.186,0.147,0.173,26.0
20.204,0.14,0.061,27.0
20.177,0.133,-0.051,29.0
20.175,0.126,-0.163,32.0
20.202,0.119,-0.274,27.0
20.159,0.111,0.281,29.0
20.168,0.104,0.17,28.0
20.19,0.097,0.059,34.0
20.192,0.09,-0.054,30.0
20.2,0.083,-0.165,27.0
52.818,0.199,-0.724,0.0
20.142,0.068,0.279,28.0
20.146,0.061,0.168,28.0
20.192,0.054,0.057,15.0
20.248,0.047,-0.055,47.0
20.26,0.039,-0.167,150.0
20.264,0.032,-0.279,150.0
20.135,0.024,0.278,29.0
20.129,0.017,0.167,27.0
20.201,0.01,0.056,29.0
20.228,0.003,-0.056,23.0
20.177,-0.004,-0.167,12.0
20.181,-0.011,-0.278,10.0
20.123,-0.018,0.277,27.0
20.116,-0.025,0.167,35.0
20.125,-0.033,0.056,40.0
20.141,-0.04,-0.056,31.0
20.149,-0.047,-0.166,33.0
20.142,-0.054,-0.277,28.0
20.122,-0.061,0.278,28.0
20.124,-0.069,0.167,29.0
20.135,-0.076,0.057,36.0
20.139,-0.083,-0.055,28.0
20.142,-0.09,-0.165,34.0
20.131,-0.098,-0.276,37.0
20.134,-0.105,0.279,26.0
20.132,-0.112,0.169,19.0
20.152,-0.119,0.058,28.0
20.184,-0.127,-0.053,21.0
20.141,-0.134,-0.164,17.0
20.151,-0.141,-0.274,28.0
20.234,-0.148,0.282,16.0
66.518,-0.513,0.565,13.0
53.38,-0.431,0.161,3.0
53.321,-0.45,-0.136,6.0
56.59,-0.499,-0.454,1.0
44.892,-0.412,-0.606,27.0
53.374,-0.507,0.753,5.0
64.325,-0.633,0.555,83.0
56.178,-0.573,0.177,3.0
56.255,-0.595,-0.135,2.0
59.505,-0.651,-0.468,1.0
44.75,-0.505,-0.597,30.0
20.136,-0.233,0.287,10.0
20.153,-0.241,0.177,10.0
59.539,-0.734,0.199,25.0
59.53,-0.756,-0.132,21.0
56.627,-0.74,-0.435,9.0
44.921,-0.603,-0.59,29.0
20.143,-0.276,0.291,12.0
20.122,-0.283,0.181,14.0
20.144,-0.291,0.071,27.0
20.121,-0.298,-0.04,6.0
59.263,-0.9,-0.441,8.0
44.923,-0.698,-0.579,30.0
20.184,-0.319,0.297,1.0
20.144,-0.326,0.186,5.0
20.134,-0.333,0.076,31.0
20.13,-0.341,-0.034,24.0
52.924,-0.915,-0.38,56.0
44.928,-0.793,-0.567,34.0
192.884,-3.463,2.895,31.0
53.003,-0.971,0.506,13.0
52.977,-0.989,0.217,40.0
52.934,-1.007,-0.075,55.0
45.593,-0.884,-0.313,23.0
44.959,-0.889,-0.554,14.0
45.688,-0.916,0.7,9.0
38.382,-0.783,0.379,29.0
38.369,-0.797,0.17,53.0
38.363,-0.812,-0.042,12.0
40.427,-0.869,-0.264,22.0
40.421,-0.884,-0.484,29.0
40.438,-0.896,0.634,150.0
40.413,-0.91,0.414,47.0
40.406,-0.924,0.194,40.0
40.413,-0.938,-0.029,37.0
40.421,-0.953,-0.249,38.0
38.778,-0.929,-0.449,20.0
40.439,-0.979,0.649,27.0
0.0,0.0,0.0,0.0
38.723,-0.966,0.201,18.0
38.697,-0.979,-0.012,34.0
38.707,-0.993,-0.222,39.0
38.69,-1.006,-0.432,35.0
38.661,-1.016,0.637,69.0
38.651,-1.029,0.427,69.0
38.652,-1.043,0.218,70.0
38.634,-1.056,0.004,70.0
38.65,-1.07,-0.205,68.0
38.644,-1.084,-0.414,46.0
38.647,-1.094,0.654,87.0
38.639,-1.107,0.445,96.0
38.634,-1.121,0.236,72.0
38.632,-1.134,0.022,73.0
38.646,-1.149,-0.186,67.0
38.631,-1.163,-0.395,44.0
38.634,-1.173,0.673,73.0
38.64,-1.186,0.464,66.0
38.662,-1.201,0.255,60.0
38.676,-1.215,0.042,59.0
38.69,-1.229,-0.166,55.0
38.665,-1.242,-0.375,37.0
38.691,-1.252,0.695,38.0
38.744,-1.268,0.486,9.0
80.422,-2.66,0.575,13.0
80.566,-2.694,0.133,21.0
80.489,-2.721,-0.302,2.0
53.44,-1.825,-0.489,5.0
151.199,-5.199,2.802,4.0
84.261,-2.928,1.106,35.0
80.348,-2.821,0.621,27.0
80.402,-2.851,0.179,26.0
80.611,-2.888,-0.254,8.0
31.395,-1.136,-0.268,4.0
31.317,-1.139,0.599,59.0
31.289,-1.149,0.429,44.0
31.278,-1.16,0.261,37.0
31.245,-1.169,0.089,45.0
31.292,-1.182,-0.079,66.0
31.286,-1.194,-0.248,21.0
28.473,-1.092,0.562,68.0
28.458,-1.101,0.409,69.0
28.451,-1.111,0.255,67.0
28.439,-1.121,0.099,75.0
28.448,-1.131,-0.053,109.0
28.456,-1.142,-0.206,143.0
28.437,-1.147,0.581,139.0
28.44,-1.157,0.428,112.0
28.439,-1.166,0.274,113.0
28.447,-1.177,0.119,128.0
28.458,-1.187,-0.033,129.0
28.434,-1.196,-0.186,88.0
28.448,-1.203,0.601,69.0
28.463,-1.213,0.448,65.0
28.466,-1.223,0.295,59.0
28.466,-1.233,0.139,53.0
31.206,-1.362,-0.014,29.0
31.203,-1.373,-0.182,53.0
31.335,-1.385,0.685,18.0
31.276,-1.392,0.515,36.0
31.281,-1.403,0.347,27.0
31.252,-1.412,0.176,37.0
31.237,-1.423,0.008,37.0
31.211,-1.432,-0.158,38.0
84.62,-3.9,1.915,33.0
147.829,-6.863,2.551,3.0
83.066,-3.885,0.988,40.0
79.905,-3.763,0.513,7.0
69.272,-3.286,0.074,0.0
31.31,-1.496,-0.134,15.0
84.617,-4.059,1.982,42.0
86.086,-4.157,1.554,11.0
82.807,-4.027,1.051,17.0
67.73,-3.315,0.49,2.0
0.0,0.0,0.0,0.0
68.998,-3.424,-0.239,1.0
84.694,-4.217,2.053,45.0
86.036,-4.313,1.625,33.0
82.833,-4.18,1.12,33.0
0.0,0.0,0.0,0.0
0.0,0.0,0.0,0.0
66.055,-3.399,-0.173,0.0
84.685,-4.373,2.126,42.0
85.08,-4.42,1.68,45.0
67.167,-3.511,0.967,0.0
0.0,0.0,0.0,0.0
0.0,0.0,0.0,0.0
66.029,-3.517,-0.114,0.0
83.968,-4.487,2.183,41.0
84.384,-4.536,1.742,29.0
0.0,0.0,0.0,0.0
65.721,-3.575,0.647,9.0
24.597,-1.346,0.11,2.0
24.593,-1.354,-0.02,21.0
83.491,-4.61,2.246,43.0
24.633,-1.368,0.531,3.0
24.591,-1.373,0.399,18.0
24.587,-1.381,0.265,37.0
24.563,-1.387,0.133,42.0
24.557,-1.395,0.002,49.0
24.593,-1.401,0.685,37.0
24.594,-1.409,0.553,40.0
24.558,-1.414,0.422,49.0
24.542,-1.421,0.288,47.0
24.525,-1.428,0.157,59.0
24.527,-1.436,0.026,65.0
24.571,-1.442,0.708,76.0
24.563,-1.449,0.577,73.0
24.541,-1.455,0.445,59.0
24.535,-1.462,0.312,70.0
24.518,-1.469,0.181,66.0
24.526,-1.477,0.05,75.0
24.543,-1.481,0.731,75.0
24.544,-1.489,0.601,65.0
24.531,-1.495,0.47,66.0
24.529,-1.502,0.336,75.0
24.51,-1.509,0.206,51.0
24.523,-1.517,0.075,69.0
24.508,-1.52,0.756,71.0
24.54,-1.529,0.626,103.0
24.525,-1.536,0.495,71.0
24.532,-1.543,0.362,59.0
24.528,-1.55,0.231,38.0
24.536,-1.558,0.101,54.0
24.51,-1.56,0.781,72.0
24.527,-1.568,0.651,59.0
24.537,-1.576,0.521,42.0
24.556,-1.584,0.388,39.0
24.532,-1.59,0.258,27.0
24.573,-1.6,0.127,30.0
24.499,-1.598,0.807,70.0
24.548,-1.608,0.678,44.0
24.59,-1.618,0.549,34.0
24.583,-1.625,0.416,19.0
24.616,-1.634,0.285,4.0
65.581,-4.373,0.413,150.0
24.495,-1.637,0.834,27.0
24.617,-1.651,0.707,25.0
82.898,-5.585,1.943,17.0
0.0,0.0,0.0,0.0
0.0,0.0,0.0,0.0
65.581,-4.475,0.486,165.0
24.574,-1.679,0.865,7.0
83.528,-5.732,2.496,54.0
82.94,-5.715,2.038,52.0
82.883,-5.734,1.589,10.0
0.0,0.0,0.0,0.0
65.558,-4.571,0.561,25.0
83.036,-5.801,3.018,35.0
82.821,-5.807,2.57,58.0
82.49,-5.805,2.121,42.0
82.937,-5.86,1.685,42.0
0.0,0.0,0.0,0.0
65.523,-4.664,0.636,1.0
82.976,-5.917,3.112,40.0
82.78,-5.924,2.665,44.0
82.536,-5.928,2.219,35.0
82.694,-5.961,1.777,53.0
0.0,0.0,0.0,0.0
65.597,-4.763,0.715,0.0
82.803,-6.023,3.204,43.0
82.814,-6.045,2.765,44.0
82.976,-6.077,2.331,65.0
82.562,-6.068,1.874,49.0
83.067,-6.127,1.445,10.0
65.727,-4.865,0.795,0.0
82.82,-6.14,3.305,34.0
82.693,-6.151,2.861,39.0
82.647,-6.168,2.422,53.0
82.549,-6.181,1.973,45.0
83.007,-6.235,1.545,39.0
81.941,-6.176,1.092,3.0
83.031,-6.269,3.416,35.0
82.549,-6.252,2.958,38.0
82.632,-6.278,2.524,48.0
82.329,-6.274,2.07,47.0
82.631,-6.318,1.641,38.0
81.997,-6.29,1.195,30.0
83.334,-6.402,3.533,30.0
82.556,-6.361,3.062,42.0
82.643,-6.387,2.628,38.0
82.203,-6.372,2.171,43.0
82.587,-6.421,1.744,45.0
82.063,-6.4,1.3,19.0
83.785,-6.545,3.658,27.0
82.322,-6.448,3.158,38.0
82.466,-6.478,2.727,49.0
82.236,-6.478,2.276,43.0
82.486,-6.516,1.848,45.0
132.56,-10.503,2.268,20.0
83.738,-6.645,3.762,39.0
82.622,-6.573,3.274,37.0
82.524,-6.583,2.834,47.0
82.579,-6.605,2.391,48.0
82.379,-6.608,1.951,44.0
83.042,-6.679,1.528,20.0
83.472,-6.724,3.859,29.0
83.02,-6.705,3.398,32.0
82.216,-6.656,2.93,48.0
82.442,-6.692,2.494,48.0
82.316,-6.698,2.055,40.0
82.799,-6.755,1.63,43.0
83.375,-6.813,3.963,38.0
82.853,-6.786,3.5,37.0
82.005,-6.732,3.03,42.0
82.265,-6.771,2.597,41.0
82.49,-6.806,2.168,48.0
82.728,-6.842,1.738,27.0
83.416,-6.91,4.076,38.0
82.513,-6.851,3.595,19.0
81.98,-6.822,3.138,38.0
82.2,-6.855,2.704,43.0
82.454,-6.893,2.276,51.0
82.788,-6.937,1.849,44.0
83.216,-6.983,4.176,41.0
82.564,-6.943,3.707,20.0
82.073,-6.917,3.251,41.0
82.202,-6.942,2.813,45.0
82.295,-6.966,2.382,44.0
83.053,-7.046,1.966,25.0
83.144,-7.063,4.285,39.0
0.0,0.0,0.0,0.0
82.006,-6.995,3.358,40.0
82.118,-7.018,2.92,47.0
82.33,-7.051,2.494,45.0
83.052,-7.127,2.077,27.0
83.069,-7.14,4.393,34.0
82.905,-7.139,3.946,46.0
81.755,-7.054,3.459,37.0
82.32,-7.116,3.04,42.0
82.311,-7.129,2.605,40.0
84.021,-7.292,2.216,13.0
83.206,-7.232,4.514,33.0
82.951,-7.222,4.061,40.0
81.837,-7.138,3.574,32.0
82.106,-7.175,3.145,50.0
82.218,-7.197,2.715,39.0
82.362,-7.223,2.286,23.0
83.328,-7.319,4.636,35.0
82.864,-7.29,4.171,41.0
81.974,-7.224,3.694,36.0
81.758,-7.217,3.244,38.0
82.217,-7.27,2.827,37.0
82.239,-7.284,2.395,40.0
83.454,-7.403,4.759,37.0
83.236,-7.395,4.306,42.0
82.072,-7.303,3.811,36.0
81.652,-7.277,3.353,42.0
82.201,-7.337,2.941,45.0
82.096,-7.34,2.505,37.0
83.677,-7.493,4.887,38.0
83.361,-7.475,4.428,42.0
81.96,-7.36,3.921,43.0
81.666,-7.344,3.467,37.0
81.898,-7.376,3.045,40.0
82.203,-7.415,2.623,35.0
83.818,-7.572,5.014,28.0
83.773,-7.578,4.567,41.0
81.997,-7.427,4.037,37.0
81.709,-7.41,3.583,36.0
81.711,-7.421,3.152,40.0
81.992,-7.457,2.729,36.0
83.862,-7.639,5.134,34.0
83.34,-7.6,4.661,42.0
82.372,-7.521,4.171,36.0
81.917,-7.489,3.707,50.0
81.656,-7.474,3.264,44.0
81.882,-7.504,2.842,41.0
84.382,-7.746,5.285,36.0
83.264,-7.651,4.774,44.0
82.524,-7.592,4.295,23.0
82.181,-7.568,3.835,36.0
81.791,-7.541,3.384,35.0
81.917,-7.562,2.958,36.0
84.893,-7.849,5.437,35.0
83.317,-7.71,4.894,31.0
0.0,0.0,0.0,0.0
82.274,-7.628,3.954,33.0
81.774,-7.59,3.498,33.0
81.926,-7.612,3.072,34.0
84.978,-7.909,5.562,11.0
83.479,-7.776,5.021,36.0
83.253,-7.761,4.567,45.0
82.125,-7.663,4.062,39.0
81.987,-7.657,3.622,26.0
81.89,-7.655,3.186,35.0
