X,Y,Z,Reflectivity
10.325,0.291,-0.944,0.0
9.716,0.274,-0.945,0.0
13.445,0.376,-0.937,0.0
12.451,0.348,-0.94,0.0
11.543,0.322,-0.939,0.0
10.768,0.301,-0.94,0.0
10.143,0.283,-0.945,0.0
9.566,0.267,-0.947,0.0
13.179,0.365,-0.941,0.0
12.21,0.338,-0.943,0.0
11.364,0.314,-0.944,0.0
10.588,0.293,-0.942,0.0
9.976,0.276,-0.946,0.0
9.365,0.259,-0.943,0.0
12.876,0.353,-0.941,0.0
11.941,0.327,-0.942,0.0
11.204,0.306,-0.949,0.0
10.434,0.285,-0.946,0.0
9.797,0.267,-0.946,0.0
9.213,0.251,-0.943,0.0
12.575,0.34,-0.94,0.0
11.643,0.315,-0.938,0.0
10.887,0.294,-0.941,0.0
10.204,0.275,-0.942,0.0
9.598,0.259,-0.942,0.0
9.047,0.244,-0.941,0.0
12.324,0.329,-0.942,0.0
11.413,0.304,-0.938,0.0
10.644,0.283,-0.937,0.0
10.059,0.267,-0.946,0.0
9.436,0.251,-0.942,0.0
8.936,0.237,-0.945,0.0
12.037,0.316,-0.939,0.0
11.252,0.295,-0.944,0.0
10.482,0.275,-0.94,0.0
9.889,0.259,-0.946,0.0
9.305,0.243,-0.944,0.0
8.774,0.229,-0.942,0.0
11.824,0.305,-0.942,0.0
11.013,0.284,-0.941,0.0
10.344,0.266,-0.944,0.0
9.707,0.25,-0.944,0.0
9.145,0.235,-0.942,0.0
8.64,0.221,-0.941,0.0
11.528,0.292,-0.936,0.0
10.877,0.275,-0.946,0.0
10.181,0.257,-0.945,0.0
9.564,0.241,-0.944,0.0
8.997,0.226,-0.941,0.0
8.557,0.215,-0.945,0.0
11.313,0.281,-0.936,0.0
10.632,0.264,-0.941,0.0
10.012,0.248,-0.944,0.0
9.37,0.231,-0.94,0.0
8.873,0.219,-0.941,0.0
8.429,0.207,-0.944,0.0
11.21,0.273,-0.944,0.0
10.46,0.254,-0.942,0.0
9.859,0.239,-0.945,0.0
9.26,0.224,-0.942,0.0
8.745,0.211,-0.941,0.0
8.296,0.199,-0.941,0.0
11.04,0.262,-0.946,0.0
10.326,0.245,-0.945,0.0
9.668,0.228,-0.941,0.0
9.131,0.215,-0.943,0.0
8.658,0.204,-0.944,0.0
8.167,0.191,-0.939,0.0
10.713,0.248,-0.933,0.0
10.178,0.235,-0.946,0.0
9.543,0.22,-0.942,0.0
9.002,0.207,-0.942,0.0
8.537,0.195,-0.943,0.0
8.116,0.185,-0.944,0.0
10.635,0.239,-0.942,0.0
9.966,0.224,-0.94,0.0
9.37,0.21,-0.938,0.0
8.82,0.197,-0.936,0.0
8.421,0.187,-0.942,0.0
8.023,0.178,-0.945,0.0
10.477,0.229,-0.942,0.0
9.853,0.215,-0.943,0.0
9.26,0.201,-0.94,0.0
8.741,0.189,-0.939,0.0
8.307,0.179,-0.941,0.0
7.919,0.17,-0.943,0.0
10.325,0.219,-0.942,0.0
9.702,0.205,-0.941,0.0
9.144,0.192,-0.94,0.0
8.635,0.181,-0.939,0.0
8.197,0.171,-0.939,0.0
7.833,0.163,-0.943,0.0
10.185,0.208,-0.943,0.0
9.581,0.195,-0.942,0.0
9.019,0.183,-0.939,0.0
8.537,0.172,-0.94,0.0
8.126,0.163,-0.942,0.0
7.751,0.155,-0.943,0.0
10.016,0.198,-0.94,0.0
9.42,0.185,-0.938,0.0
8.891,0.174,-0.937,0.0
8.429,0.164,-0.938,0.0
8.054,0.156,-0.943,0.0
7.679,0.148,-0.944,0.0
9.922,0.188,-0.943,0.0
9.352,0.176,-0.943,0.0
8.787,0.165,-0.937,0.0
8.339,0.156,-0.938,0.0
7.972,0.148,-0.944,0.0
7.618,0.141,-0.946,0.0
9.801,0.178,-0.943,0.0
9.205,0.166,-0.939,0.0
8.676,0.156,-0.935,0.0
8.237,0.147,-0.937,0.0
7.879,0.14,-0.942,0.0
7.533,0.133,-0.945,0.0
9.663,0.168,-0.941,0.0
9.082,0.157,-0.937,0.0
8.625,0.148,-0.94,0.0
8.177,0.139,-0.939,0.0
7.795,0.132,-0.941,0.0
7.475,0.126,-0.946,0.0
9.557,0.158,-0.942,0.0
8.992,0.147,-0.938,0.0
8.525,0.139,-0.938,0.0
8.008,0.129,-0.929,0.0
7.728,0.124,-0.941,0.0
7.393,0.118,-0.944,0.0
9.436,0.148,-0.94,0.0
8.909,0.138,-0.939,0.0
8.465,0.13,-0.941,0.0
8.042,0.123,-0.942,0.0
7.698,0.117,-0.946,0.0
7.34,0.111,-0.945,0.0
9.338,0.138,-0.94,0.0
8.796,0.129,-0.936,0.0
8.351,0.121,-0.937,0.0
7.991,0.115,-0.944,0.0
7.608,0.109,-0.943,0.0
7.245,0.102,-0.94,0.0
9.235,0.128,-0.939,0.0
8.724,0.12,-0.937,0.0
8.252,0.112,-0.934,0.0
7.862,0.106,-0.936,0.0
7.576,0.101,-0.946,0.0
7.224,0.095,-0.944,0.0
9.173,0.118,-0.941,0.0
8.661,0.111,-0.939,0.0
8.25,0.104,-0.942,0.0
7.827,0.098,-0.94,0.0
7.527,0.093,-0.947,0.0
7.181,0.088,-0.946,0.0
9.054,0.108,-0.938,0.0
8.596,0.102,-0.94,0.0
8.138,0.095,-0.937,0.0
7.784,0.09,-0.942,0.0
7.401,0.085,-0.938,0.0
7.168,0.081,-0.95,0.0
8.974,0.099,-0.937,0.0
8.5,0.092,-0.937,0.0
8.11,0.087,-0.94,0.0
7.694,0.081,-0.937,0.0
7.353,0.077,-0.939,0.0
7.085,0.073,-0.945,0.0
8.907,0.089,-0.938,0.0
8.452,0.083,-0.938,0.0
8.056,0.078,-0.941,0.0
7.673,0.073,-0.941,0.0
7.34,0.069,-0.943,0.0
7.065,0.066,-0.948,0.0
8.827,0.08,-0.936,0.0
8.419,0.075,-0.941,0.0
7.982,0.07,-0.939,0.0
7.628,0.065,-0.942,0.0
7.276,0.061,-0.94,0.0
7.0,0.058,-0.945,0.0
8.742,0.07,-0.934,0.0
8.326,0.065,-0.937,0.0
7.922,0.061,-0.937,0.0
7.571,0.057,-0.94,0.0
7.239,0.054,-0.941,0.0
6.961,0.05,-0.945,0.0
8.709,0.061,-0.937,0.0
8.278,0.056,-0.938,0.0
7.893,0.052,-0.94,0.0
7.543,0.049,-0.942,0.0
7.229,0.046,-0.945,0.0
6.97,0.043,-0.951,0.0
8.66,0.051,-0.937,0.0
8.189,0.047,-0.933,0.0
7.852,0.044,-0.94,0.0
7.521,0.041,-0.944,0.0
7.197,0.038,-0.945,0.0
6.919,0.035,-0.949,0.0
8.615,0.042,-0.938,0.0
8.157,0.038,-0.935,0.0
7.819,0.035,-0.941,0.0
7.482,0.033,-0.944,0.0
7.137,0.03,-0.942,0.0
6.885,0.028,-0.948,0.0
8.555,0.032,-0.936,0.0
8.165,0.029,-0.94,0.0
7.801,0.027,-0.943,0.0
7.473,0.025,-0.947,0.0
7.176,0.022,-0.951,0.0
6.867,0.02,-0.949,0.0
8.495,0.023,-0.934,0.0
8.118,0.02,-0.939,0.0
7.747,0.018,-0.941,0.0
7.431,0.016,-0.946,0.0
7.078,0.014,-0.941,0.0
6.843,0.013,-0.95,0.0
8.473,0.014,-0.936,0.0
8.107,0.012,-0.942,0.0
7.719,0.01,-0.941,0.0
0.0,0.0,0.0,0.0
7.085,0.006,-0.946,0.0
6.844,0.005,-0.953,0.0
8.424,0.004,-0.934,0.0
8.017,0.003,-0.935,0.0
7.695,0.001,-0.941,0.0
7.332,0.0,-0.94,0.0
7.045,0.0,-0.943,0.0
6.759,-0.002,-0.944,0.0
8.361,-0.004,-0.931,0.0
8.015,-0.005,-0.938,0.0
7.655,-0.006,-0.939,0.0
7.337,-0.007,-0.943,0.0
7.051,-0.008,-0.947,0.0
6.774,-0.009,-0.949,0.0
8.379,-0.013,-0.936,0.0
7.99,-0.014,-0.938,0.0
7.67,-0.015,-0.944,0.0
0.0,0.0,0.0,0.0
7.056,-0.016,-0.95,0.0
6.782,-0.017,-0.952,0.0
8.381,-0.023,-0.939,0.0
7.988,-0.023,-0.94,0.0
7.664,-0.024,-0.946,0.0
7.269,-0.024,-0.939,0.0
0.0,0.0,0.0,0.0
6.737,-0.025,-0.948,0.0
8.371,-0.032,-0.94,0.0
7.953,-0.032,-0.938,0.0
7.601,-0.032,-0.94,0.0
0.0,0.0,0.0,0.0
7.008,-0.032,-0.947,0.0
6.72,-0.032,-0.947,0.0
8.31,-0.042,-0.935,0.0
7.902,-0.041,-0.934,0.0
7.603,-0.041,-0.942,0.0
0.0,0.0,0.0,0.0
0.0,0.0,0.0,0.0
6.74,-0.04,-0.951,0.0
8.313,-0.051,-0.937,0.0
7.951,-0.05,-0.941,0.0
7.592,-0.049,-0.941,0.0
7.262,-0.049,-0.943,0.0
0.0,0.0,0.0,0.0
6.732,-0.048,-0.951,0.0
8.299,-0.06,-0.936,0.0
7.907,-0.059,-0.937,0.0
7.625,-0.058,-0.946,0.0
7.275,-0.057,-0.945,0.0
6.973,-0.056,-0.946,0.0
6.731,-0.055,-0.951,0.0
8.292,-0.07,-0.936,0.0
7.93,-0.068,-0.94,0.0
7.581,-0.067,-0.941,0.0
7.252,-0.065,-0.943,0.0
7.02,-0.064,-0.952,0.0
6.739,-0.063,-0.953,0.0
8.287,-0.079,-0.936,0.0
7.892,-0.077,-0.936,0.0
7.586,-0.075,-0.942,0.0
7.265,-0.073,-0.944,0.0
6.98,-0.072,-0.947,0.0
6.727,-0.071,-0.951,0.0
8.28,-0.088,-0.935,0.0
7.926,-0.086,-0.94,0.0
7.558,-0.083,-0.939,0.0
7.251,-0.081,-0.942,0.0
7.011,-0.08,-0.951,0.0
6.695,-0.078,-0.946,0.0
8.298,-0.098,-0.937,0.0
7.934,-0.095,-0.94,0.0
7.593,-0.092,-0.942,0.0
7.278,-0.09,-0.945,0.0
7.03,-0.088,-0.953,0.0
6.738,-0.086,-0.951,0.0
8.299,-0.107,-0.936,0.0
7.924,-0.104,-0.938,0.0
7.579,-0.101,-0.94,0.0
7.23,-0.098,-0.938,0.0
7.007,-0.096,-0.949,0.0
6.709,-0.093,-0.946,0.0
8.307,-0.117,-0.936,0.0
7.948,-0.113,-0.94,0.0
7.594,-0.11,-0.94,0.0
7.29,-0.107,-0.945,0.0
0.0,0.0,0.0,0.0
6.756,-0.102,-0.952,0.0
8.344,-0.126,-0.938,0.0
7.947,-0.122,-0.938,0.0
7.615,-0.118,-0.942,0.0
7.279,-0.115,-0.942,0.0
7.011,-0.112,-0.946,0.0
6.752,-0.109,-0.95,0.0
8.35,-0.136,-0.937,0.0
7.968,-0.131,-0.938,0.0
7.614,-0.127,-0.939,0.0
7.28,-0.123,-0.94,0.0
7.008,-0.12,-0.944,0.0
6.792,-0.117,-0.953,0.0
8.376,-0.145,-0.937,0.0
8.019,-0.141,-0.942,0.0
7.68,-0.136,-0.945,0.0
7.304,-0.131,-0.941,0.0
0.0,0.0,0.0,0.0
6.791,-0.125,-0.951,0.0
8.405,-0.155,-0.938,0.0
7.997,-0.149,-0.937,0.0
7.697,-0.145,-0.945,0.0
7.344,-0.14,-0.943,0.0
7.083,-0.136,-0.949,0.0
6.809,-0.133,-0.951,0.0
8.432,-0.165,-0.938,0.0
8.044,-0.159,-0.939,0.0
7.715,-0.154,-0.944,0.0
7.361,-0.148,-0.942,0.0
7.099,-0.144,-0.949,0.0
6.813,-0.14,-0.949,0.0
8.452,-0.174,-0.936,0.0
8.091,-0.168,-0.941,0.0
7.73,-0.162,-0.942,0.0
7.406,-0.157,-0.945,0.0
7.107,-0.152,-0.946,0.0
6.833,-0.148,-0.948,0.0
8.492,-0.184,-0.937,0.0
8.088,-0.177,-0.937,0.0
7.737,-0.171,-0.939,0.0
7.465,-0.166,-0.949,0.0
7.131,-0.16,-0.946,0.0
6.875,-0.156,-0.951,0.0
8.541,-0.194,-0.938,0.0
8.128,-0.186,-0.938,0.0
7.778,-0.18,-0.94,0.0
7.421,-0.173,-0.939,0.0
7.167,-0.169,-0.947,0.0
6.868,-0.163,-0.946,0.0
8.578,-0.204,-0.937,0.0
8.159,-0.195,-0.937,0.0
7.817,-0.189,-0.941,0.0
7.428,-0.181,-0.936,0.0
7.188,-0.176,-0.946,0.0
6.931,-0.171,-0.95,0.0
8.641,-0.214,-0.939,0.0
8.214,-0.205,-0.938,0.0
7.829,-0.197,-0.937,0.0
7.497,-0.19,-0.94,0.0
7.242,-0.185,-0.948,0.0
6.965,-0.179,-0.951,0.0
8.7,-0.224,-0.94,0.0
8.25,-0.214,-0.937,0.0
7.864,-0.206,-0.936,0.0
7.555,-0.199,-0.942,0.0
7.268,-0.193,-0.947,0.0
6.966,-0.186,-0.946,0.0
8.759,-0.234,-0.94,0.0
8.351,-0.225,-0.942,0.0
7.961,-0.216,-0.942,0.0
7.609,-0.208,-0.943,0.0
7.344,-0.202,-0.951,0.0
7.047,-0.195,-0.952,0.0
8.814,-0.244,-0.94,0.0
8.393,-0.234,-0.941,0.0
7.961,-0.224,-0.936,0.0
7.631,-0.216,-0.94,0.0
7.367,-0.21,-0.948,0.0
7.089,-0.203,-0.952,0.0
8.891,-0.255,-0.941,0.0
8.458,-0.244,-0.942,0.0
8.063,-0.234,-0.942,0.0
7.69,-0.225,-0.941,0.0
7.395,-0.218,-0.946,0.0
7.097,-0.21,-0.947,0.0
8.964,-0.265,-0.942,0.0
8.499,-0.253,-0.939,0.0
8.096,-0.243,-0.939,0.0
7.729,-0.233,-0.94,0.0
7.457,-0.226,-0.948,0.0
7.146,-0.218,-0.948,0.0
9.035,-0.276,-0.942,0.0
8.575,-0.263,-0.94,0.0
8.154,-0.252,-0.939,0.0
7.812,-0.242,-0.943,0.0
7.493,-0.234,-0.946,0.0
7.203,-0.226,-0.949,0.0
9.127,-0.286,-0.943,0.0
8.657,-0.273,-0.942,0.0
8.216,-0.261,-0.938,0.0
7.869,-0.251,-0.943,0.0
7.568,-0.243,-0.948,0.0
7.226,-0.233,-0.945,0.0
9.254,-0.298,-0.947,0.0
8.725,-0.283,-0.941,0.0
8.313,-0.271,-0.942,0.0
7.909,-0.259,-0.94,0.0
7.631,-0.251,-0.949,0.0
7.288,-0.241,-0.946,0.0
9.324,-0.308,-0.946,0.0
8.811,-0.293,-0.942,0.0
8.385,-0.28,-0.942,0.0
7.956,-0.267,-0.938,0.0
7.658,-0.259,-0.944,0.0
7.365,-0.25,-0.949,0.0
9.44,-0.32,-0.948,0.0
8.908,-0.303,-0.943,0.0
8.456,-0.289,-0.941,0.0
8.052,-0.277,-0.941,0.0
7.741,-0.268,-0.947,0.0
7.426,-0.258,-0.949,0.0
9.574,-0.332,-0.951,0.0
8.997,-0.314,-0.943,0.0
8.55,-0.299,-0.942,0.0
8.104,-0.285,-0.938,0.0
7.792,-0.275,-0.944,0.0
7.475,-0.266,-0.947,0.0
9.652,-0.342,-0.949,0.0
9.121,-0.325,-0.946,0.0
8.641,-0.309,-0.943,0.0
8.191,-0.294,-0.939,0.0
7.874,-0.284,-0.946,0.0
7.525,-0.273,-0.945,0.0
9.767,-0.353,-0.949,0.0
9.259,-0.336,-0.95,0.0
8.731,-0.319,-0.943,0.0
8.301,-0.304,-0.942,0.0
7.93,-0.292,-0.943,0.0
7.613,-0.282,-0.947,0.0
9.923,-0.366,-0.953,0.0
9.369,-0.347,-0.95,0.0
8.841,-0.329,-0.944,0.0
8.343,-0.312,-0.937,0.0
7.99,-0.3,-0.941,0.0
7.695,-0.29,-0.948,0.0
10.047,-0.377,-0.953,0.0
9.494,-0.358,-0.951,0.0
8.946,-0.339,-0.945,0.0
8.491,-0.323,-0.943,0.0
8.096,-0.309,-0.943,0.0
7.747,-0.297,-0.945,0.0
10.198,-0.39,-0.955,0.0
9.618,-0.369,-0.952,0.0
9.059,-0.349,-0.946,0.0
8.6,-0.332,-0.945,0.0
8.171,-0.317,-0.942,0.0
7.834,-0.305,-0.945,0.0
10.318,-0.401,-0.953,0.0
9.744,-0.38,-0.952,0.0
9.235,-0.361,-0.952,0.0
8.705,-0.342,-0.945,0.0
8.265,-0.326,-0.942,0.0
7.901,-0.312,-0.943,0.0
10.478,-0.413,-0.954,0.0
9.867,-0.39,-0.951,0.0
9.363,-0.372,-0.953,0.0
8.817,-0.351,-0.946,0.0
8.398,-0.336,-0.946,0.0
7.985,-0.32,-0.943,0.0
10.627,-0.425,-0.954,0.0
10.006,-0.401,-0.951,0.0
9.48,-0.381,-0.952,0.0
8.946,-0.361,-0.947,0.0
8.497,-0.344,-0.946,0.0
8.109,-0.329,-0.946,0.0
10.765,-0.436,-0.952,0.0
10.177,-0.413,-0.954,0.0
9.621,-0.392,-0.953,0.0
9.078,-0.371,-0.949,0.0
8.622,-0.353,-0.947,0.0
8.199,-0.337,-0.945,0.0
11.093,-0.455,-0.965,0.0
10.397,-0.427,-0.96,0.0
9.773,-0.403,-0.954,0.0
9.23,-0.382,-0.952,0.0
8.732,-0.362,-0.947,0.0
8.304,-0.345,-0.945,0.0
11.174,-0.463,-0.956,0.0
10.521,-0.437,-0.956,0.0
9.916,-0.413,-0.954,0.0
9.393,-0.392,-0.955,0.0
8.879,-0.372,-0.95,0.0
8.412,-0.353,-0.945,0.0
11.345,-0.475,-0.955,0.0
10.698,-0.449,-0.957,0.0
10.093,-0.425,-0.957,0.0
9.531,-0.402,-0.955,0.0
9.017,-0.381,-0.952,0.0
8.539,-0.362,-0.947,0.0
11.546,-0.488,-0.955,0.0
10.85,-0.46,-0.955,0.0
10.287,-0.437,-0.96,0.0
9.674,-0.412,-0.955,0.0
9.152,-0.39,-0.952,0.0
8.664,-0.37,-0.948,0.0
11.818,-0.504,-0.96,0.0
11.102,-0.474,-0.96,0.0
10.442,-0.447,-0.959,0.0
9.835,-0.422,-0.956,0.0
9.314,-0.4,-0.955,0.0
8.78,-0.378,-0.947,0.0
12.027,-0.516,-0.958,0.0
11.24,-0.483,-0.955,0.0
10.619,-0.458,-0.959,0.0
9.956,-0.43,-0.953,0.0
9.467,-0.41,-0.956,0.0
8.934,-0.387,-0.95,0.0
12.337,-0.533,-0.964,0.0
11.49,-0.497,-0.959,0.0
10.758,-0.467,-0.954,0.0
10.201,-0.443,-0.96,0.0
9.65,-0.42,-0.959,0.0
9.091,-0.397,-0.952,0.0
12.566,-0.546,-0.962,0.0
11.723,-0.51,-0.96,0.0
11.026,-0.481,-0.961,0.0
10.362,-0.453,-0.959,0.0
9.792,-0.428,-0.958,0.0
9.264,-0.406,-0.955,0.0
12.835,-0.56,-0.963,0.0
11.98,-0.524,-0.961,0.0
11.201,-0.491,-0.958,0.0
10.514,-0.461,-0.956,0.0
9.967,-0.438,-0.959,0.0
9.419,-0.415,-0.956,0.0
13.177,-0.578,-0.967,0.0
12.29,-0.539,-0.967,0.0
11.44,-0.503,-0.96,0.0
10.724,-0.472,-0.957,0.0
10.13,-0.447,-0.958,0.0
9.611,-0.424,-0.96,0.0
13.405,-0.589,-0.962,0.0
12.531,-0.552,-0.965,0.0
11.646,-0.513,-0.958,0.0
10.893,-0.481,-0.954,0.0
10.352,-0.457,-0.962,0.0
9.75,-0.431,-0.957,0.0
13.662,-0.602,-0.958,0.0
12.782,-0.564,-0.963,0.0
11.906,-0.526,-0.96,0.0
11.204,-0.495,-0.963,0.0
10.51,-0.465,-0.959,0.0
9.941,-0.44,-0.959,0.0
14.05,-0.62,-0.961,0.0
13.157,-0.581,-0.969,0.0
12.267,-0.542,-0.968,0.0
11.364,-0.503,-0.958,0.0
10.717,-0.474,-0.96,0.0
10.129,-0.449,-0.961,0.0
14.391,-0.635,-0.961,0.0
13.368,-0.59,-0.962,0.0
12.491,-0.552,-0.965,0.0
11.628,-0.514,-0.96,0.0
10.952,-0.485,-0.962,0.0
10.337,-0.458,-0.963,0.0
14.639,-0.646,-0.952,0.0
13.617,-0.601,-0.957,0.0
12.782,-0.564,-0.965,0.0
11.899,-0.526,-0.962,0.0
11.173,-0.494,-0.962,0.0
10.52,-0.465,-0.961,0.0
15.532,-0.684,-0.984,0.0
14.028,-0.618,-0.962,0.0
13.155,-0.58,-0.971,0.0
12.229,-0.539,-0.968,0.0
11.387,-0.502,-0.961,0.0
10.762,-0.475,-0.965,0.0
15.634,-0.687,-0.963,0.0
14.404,-0.633,-0.962,0.0
13.388,-0.588,-0.965,0.0
12.509,-0.55,-0.968,0.0
11.678,-0.513,-0.965,0.0
10.956,-0.482,-0.963,0.0
15.62,-0.684,-0.935,0.0
14.647,-0.641,-0.953,0.0
13.663,-0.598,-0.96,0.0
12.758,-0.559,-0.965,0.0
11.929,-0.522,-0.965,0.0
11.178,-0.49,-0.962,0.0
15.647,-0.682,-0.909,1.0
15.549,-0.678,-0.984,0.0
14.007,-0.611,-0.96,0.0
13.154,-0.573,-0.971,0.0
12.234,-0.533,-0.968,0.0
11.416,-0.497,-0.963,0.0
15.66,-0.679,-0.882,1.0
15.636,-0.678,-0.962,0.0
14.418,-0.625,-0.962,0.0
13.367,-0.579,-0.963,0.0
12.571,-0.545,-0.972,0.0
11.696,-0.506,-0.965,0.0
15.708,-0.677,-0.856,1.0
15.695,-0.676,-0.937,0.0
14.709,-0.634,-0.955,0.0
13.654,-0.588,-0.959,0.0
12.813,-0.551,-0.967,0.0
11.965,-0.515,-0.966,0.0
15.897,-0.681,-0.838,0.0
15.682,-0.671,-0.908,1.0
15.63,-0.668,-0.987,0.0
14.141,-0.604,-0.968,0.0
13.185,-0.563,-0.971,0.0
12.333,-0.526,-0.973,0.0
16.314,-0.693,-0.831,1.0
15.726,-0.667,-0.883,1.0
15.689,-0.665,-0.962,0.0
14.424,-0.611,-0.961,0.0
13.443,-0.569,-0.966,0.0
12.598,-0.532,-0.971,0.0
16.718,-0.704,-0.821,2.0
15.754,-0.662,-0.856,1.0
15.732,-0.661,-0.937,0.0
14.759,-0.619,-0.957,0.0
13.772,-0.577,-0.965,0.0
12.9,-0.54,-0.971,0.0
17.03,-0.709,-0.806,1.0
15.968,-0.664,-0.839,0.0
15.765,-0.655,-0.91,1.0
15.727,-0.652,-0.991,0.0
14.182,-0.588,-0.968,0.0
13.21,-0.547,-0.97,0.0
17.802,-0.733,-0.81,0.0
16.342,-0.672,-0.829,1.0
15.789,-0.648,-0.883,1.0
15.789,-0.647,-0.966,0.0
14.462,-0.592,-0.961,0.0
13.501,-0.552,-0.967,0.0
18.408,-0.749,-0.804,1.0
16.846,-0.684,-0.824,1.0
15.839,-0.642,-0.857,1.0
15.801,-0.639,-0.939,0.0
14.873,-0.601,-0.961,0.0
13.758,-0.555,-0.96,0.0
19.21,-0.771,-0.805,0.0
17.278,-0.692,-0.813,1.0
16.031,-0.641,-0.838,0.0
15.832,-0.632,-0.911,1.0
15.756,-0.627,-0.989,0.0
14.208,-0.565,-0.966,0.0
19.977,-0.79,-0.801,0.0
17.902,-0.706,-0.81,1.0
16.366,-0.644,-0.826,0.0
15.881,-0.624,-0.885,1.0
15.895,-0.623,-0.969,0.0
14.521,-0.568,-0.961,0.0
20.638,-0.803,-0.79,2.0
18.508,-0.718,-0.804,0.0
17.068,-0.661,-0.83,1.0
15.954,-0.616,-0.86,1.0
15.941,-0.614,-0.942,0.0
15.067,-0.579,-0.969,0.0
21.761,-0.832,-0.793,3.0
19.424,-0.741,-0.808,0.0
17.484,-0.665,-0.818,0.0
16.137,-0.612,-0.841,1.0
16.002,-0.605,-0.917,1.0
15.974,-0.603,-0.998,0.0
22.524,-0.845,-0.78,2.0
20.26,-0.758,-0.806,1.0
18.168,-0.678,-0.817,0.0
16.352,-0.608,-0.822,0.0
16.066,-0.596,-0.891,1.0
16.047,-0.593,-0.973,0.0
23.748,-0.874,-0.779,11.0
20.812,-0.763,-0.79,0.0
18.576,-0.679,-0.802,2.0
17.143,-0.624,-0.831,0.0
16.136,-0.586,-0.866,1.0
16.17,-0.585,-0.951,0.0
23.933,-0.861,-0.741,22.0
21.933,-0.787,-0.793,0.0
19.395,-0.693,-0.802,0.0
17.64,-0.628,-0.822,0.0
16.291,-0.578,-0.844,1.0
16.26,-0.575,-0.927,1.0
25.071,-0.882,-0.731,11.0
22.883,-0.801,-0.786,4.0
20.256,-0.707,-0.801,0.0
18.456,-0.641,-0.827,1.0
16.725,-0.579,-0.836,0.0
16.476,-0.568,-0.91,0.0
27.666,-0.949,-0.757,1.0
23.769,-0.812,-0.773,13.0
21.127,-0.718,-0.797,0.0
18.867,-0.639,-0.812,3.0
17.164,-0.579,-0.827,0.0
16.819,-0.565,-0.898,0.0
28.579,-0.954,-0.731,1.0
24.257,-0.806,-0.746,23.0
22.059,-0.73,-0.793,3.0
19.571,-0.645,-0.807,3.0
17.833,-0.585,-0.828,0.0
17.099,-0.558,-0.883,0.0
30.432,-0.988,-0.724,27.0
25.087,-0.81,-0.727,5.0
23.385,-0.751,-0.799,5.0
19.956,-0.638,-0.788,1.0
18.371,-0.584,-0.82,0.0
17.396,-0.551,-0.867,1.0
30.555,-0.962,-0.673,36.0
27.851,-0.872,-0.758,1.0
23.794,-0.741,-0.771,16.0
21.212,-0.657,-0.799,0.0
19.219,-0.592,-0.824,0.0
17.77,-0.544,-0.855,0.0
30.896,-0.941,-0.626,34.0
29.73,-0.9,-0.756,2.0
24.435,-0.735,-0.748,16.0
22.273,-0.666,-0.8,1.0
19.906,-0.592,-0.819,0.0
18.204,-0.539,-0.843,1.0
31.366,-0.922,-0.58,13.0
30.436,-0.889,-0.721,25.0
25.327,-0.735,-0.731,3.0
23.615,-0.681,-0.807,5.0
20.696,-0.593,-0.815,1.0
18.696,-0.533,-0.833,0.0
37.967,-1.074,-0.636,17.0
30.589,-0.86,-0.671,35.0
28.0,-0.782,-0.76,1.0
23.784,-0.66,-0.772,18.0
21.234,-0.585,-0.799,0.0
19.228,-0.526,-0.824,0.0
38.271,-1.04,-0.575,15.0
31.019,-0.837,-0.627,30.0
30.182,-0.808,-0.767,8.0
24.48,-0.65,-0.752,13.0
22.361,-0.59,-0.803,1.0
19.953,-0.522,-0.82,0.0
38.582,-1.003,-0.513,23.0
31.541,-0.813,-0.583,9.0
30.454,-0.779,-0.721,30.0
25.138,-0.638,-0.728,2.0
23.642,-0.595,-0.808,6.0
20.658,-0.516,-0.814,0.0
38.769,-0.96,-0.448,29.0
38.004,-0.934,-0.637,17.0
30.681,-0.747,-0.674,32.0
28.144,-0.68,-0.768,1.0
23.804,-0.57,-0.773,14.0
21.358,-0.507,-0.805,0.0
40.422,-0.951,-0.399,52.0
38.365,-0.894,-0.579,23.0
31.193,-0.72,-0.633,26.0
30.141,-0.69,-0.771,8.0
23.858,-0.541,-0.735,2.0
22.3,-0.5,-0.803,1.0
40.425,-0.899,-0.331,27.0
0.0,0.0,0.0,0.0
31.62,-0.689,-0.588,1.0
30.466,-0.657,-0.729,26.0
27.073,-0.578,-0.788,0.0
23.115,-0.488,-0.794,1.0
38.376,-0.803,-0.251,48.0
38.361,-0.794,-0.451,27.0
38.013,-0.778,-0.645,21.0
30.713,-0.621,-0.683,29.0
28.582,-0.572,-0.786,6.0
25.192,-0.498,-0.824,1.0
52.936,-1.036,-0.259,8.0
45.48,-0.88,-0.46,26.0
38.456,-0.735,-0.589,13.0
31.386,-0.593,-0.648,18.0
29.233,-0.545,-0.756,8.0
26.003,-0.479,-0.808,1.0
53.009,-0.965,-0.174,14.0
52.919,-0.951,-0.45,49.0
44.901,-0.797,-0.616,18.0
0.0,0.0,0.0,0.0
30.445,-0.525,-0.739,23.0
27.004,-0.46,-0.797,1.0
20.126,-0.338,-0.034,27.0
53.002,-0.878,-0.367,15.0
45.134,-0.736,-0.548,22.0
37.984,-0.611,-0.664,23.0
30.804,-0.488,-0.699,29.0
28.21,-0.44,-0.788,2.0
20.137,-0.309,-0.002,19.0
59.513,-0.9,-0.319,2.0
52.854,-0.786,-0.559,12.0
38.546,-0.563,-0.613,14.0
31.819,-0.457,-0.673,9.0
30.014,-0.424,-0.792,6.0
59.527,-0.827,0.084,56.0
59.515,-0.811,-0.226,5.0
53.006,-0.709,-0.479,5.0
44.861,-0.589,-0.644,14.0
36.001,-0.463,-0.706,3.0
30.712,-0.387,-0.763,9.0
59.583,-0.738,0.176,7.0
56.28,-0.683,-0.128,1.0
56.681,-0.673,-0.426,3.0
45.0,-0.522,-0.578,31.0
37.919,-0.431,-0.686,26.0
20.228,-0.224,-0.472,5.0
56.14,-0.609,0.25,6.0
56.201,-0.596,-0.044,0.0
56.403,-0.583,-0.339,1.0
46.263,-0.466,-0.526,3.0
38.252,-0.376,-0.636,13.0
20.189,-0.193,-0.441,26.0
53.363,-0.497,0.316,13.0
53.333,-0.482,0.036,7.0
53.326,-0.468,-0.243,8.0
20.161,-0.171,-0.2,2.0
20.171,-0.166,-0.306,26.0
20.17,-0.161,-0.412,32.0
58.339,-0.45,0.431,10.0
20.154,-0.15,0.043,11.0
20.17,-0.144,-0.063,18.0
20.134,-0.139,-0.17,19.0
20.148,-0.134,-0.276,32.0
20.154,-0.128,-0.382,38.0
20.135,-0.123,0.177,19.0
20.135,-0.117,0.071,28.0
20.143,-0.112,-0.034,27.0
20.144,-0.106,-0.142,29.0
20.134,-0.101,-0.248,33.0
20.145,-0.095,-0.354,33.0
20.133,-0.09,0.205,26.0
20.128,-0.084,0.099,36.0
20.131,-0.079,-0.006,33.0
20.142,-0.073,-0.114,29.0
20.133,-0.067,-0.22,18.0
20.154,-0.062,-0.327,26.0
20.124,-0.056,0.232,31.0
20.116,-0.05,0.126,33.0
20.134,-0.045,0.02,36.0
20.142,-0.039,-0.087,32.0
20.169,-0.034,-0.193,25.0
20.153,-0.028,-0.3,15.0
20.121,-0.022,0.26,26.0
20.113,-0.016,0.153,27.0
20.149,-0.011,0.047,26.0
20.246,-0.005,-0.06,29.0
20.261,0.0,-0.168,54.0
20.271,0.006,-0.275,142.0
20.134,0.011,0.286,29.0
20.131,0.017,0.18,28.0
20.153,0.023,0.073,26.0
20.257,0.029,-0.034,150.0
20.267,0.035,-0.142,77.0
20.226,0.04,-0.248,36.0
20.147,0.046,0.312,31.0
20.137,0.052,0.205,28.0
20.145,0.058,0.099,27.0
20.203,0.064,-0.009,33.0
20.199,0.07,-0.116,25.0
20.199,0.075,-0.223,15.0
20.153,0.081,0.337,28.0
20.158,0.087,0.23,27.0
20.156,0.093,0.124,25.0
20.191,0.099,0.015,33.0
20.191,0.105,-0.091,32.0
20.172,0.111,-0.198,25.0
20.167,0.117,0.362,29.0
20.167,0.123,0.255,27.0
20.175,0.129,0.148,24.0
20.187,0.135,0.039,25.0
20.194,0.141,-0.067,24.0
20.186,0.147,-0.175,25.0
20.185,0.153,0.386,25.0
20.212,0.16,0.279,22.0
20.245,0.166,0.172,24.0
20.294,0.172,0.063,29.0
20.283,0.178,-0.044,19.0
20.214,0.184,-0.151,22.0
20.286,0.191,0.411,33.0
20.28,0.197,0.304,29.0
20.29,0.203,0.196,27.0
20.323,0.209,0.086,28.0
20.325,0.216,-0.021,2.0
0.0,0.0,0.0,0.0
20.27,0.228,0.434,30.0
20.279,0.234,0.326,28.0
20.282,0.24,0.218,18.0
20.304,0.246,0.108,0.0
99.604,1.24,0.001,5.0
0.0,0.0,0.0,0.0
20.286,0.265,0.456,14.0
20.293,0.271,0.348,3.0
195.54,2.678,2.315,5.0
99.559,1.393,0.637,3.0
99.624,1.425,0.106,6.0
0.0,0.0,0.0,0.0
196.191,2.932,4.621,26.0
195.003,2.975,3.552,31.0
195.668,3.046,2.52,6.0
99.651,1.581,0.741,3.0
99.753,1.613,0.208,5.0
0.0,0.0,0.0,0.0
0.0,0.0,0.0,0.0
194.778,3.337,3.744,26.0
194.892,3.399,2.705,7.0
0.0,0.0,0.0,0.0
99.874,1.803,0.308,9.0
0.0,0.0,0.0,0.0
0.0,0.0,0.0,0.0
194.534,3.701,3.93,17.0
199.678,3.862,2.966,8.0
0.0,0.0,0.0,0.0
99.984,1.996,0.404,5.0
100.039,2.027,-0.131,6.0
194.883,4.02,5.165,16.0
194.41,4.071,4.111,6.0
194.933,4.139,3.075,5.0
0.0,0.0,0.0,0.0
100.056,2.186,0.495,4.0
100.096,2.219,-0.04,13.0
194.61,4.386,5.335,24.0
194.074,4.433,4.278,29.0
193.783,4.487,3.232,17.0
0.0,0.0,0.0,0.0
103.001,2.448,0.6,4.0
100.19,2.412,0.046,1.0
194.67,4.762,5.507,8.0
193.98,4.804,4.444,27.0
193.568,4.855,3.394,25.0
195.118,4.955,2.353,8.0
103.115,2.649,0.688,7.0
100.329,2.608,0.13,1.0
194.574,5.138,5.668,8.0
194.001,5.18,4.605,30.0
193.452,5.226,3.551,35.0
195.327,5.338,2.514,28.0
0.0,0.0,0.0,0.0
0.0,0.0,0.0,0.0
193.46,5.484,5.791,8.0
193.943,5.557,4.758,30.0
193.54,5.605,3.704,27.0
195.307,5.715,2.665,20.0
201.714,5.965,1.664,12.0
196.207,5.865,0.561,21.0
193.247,5.858,5.932,17.0
193.842,5.934,4.903,24.0
193.827,5.993,3.855,22.0
195.253,6.096,2.809,7.0
0.0,0.0,0.0,0.0
196.321,6.251,0.704,34.0
196.175,6.33,6.164,5.0
0.0,0.0,0.0,0.0
194.714,6.405,4.013,26.0
194.921,6.467,2.941,21.0
0.0,0.0,0.0,0.0
196.365,6.64,0.841,34.0
193.426,6.625,6.212,13.0
194.837,6.731,5.201,9.0
195.234,6.805,4.154,15.0
202.782,7.13,3.197,20.0
0.0,0.0,0.0,0.0
196.432,7.027,0.968,32.0
195.204,7.07,6.396,5.0
194.754,7.111,5.323,14.0
195.624,7.204,4.286,5.0
203.046,7.538,3.328,5.0
195.164,7.303,2.139,11.0
195.133,7.364,1.081,22.0
193.591,7.394,6.461,17.0
0.0,0.0,0.0,0.0
196.428,7.618,4.42,5.0
0.0,0.0,0.0,0.0
199.263,7.853,2.301,9.0
196.618,7.809,1.202,32.0
193.791,7.784,6.578,10.0
193.406,7.828,5.514,31.0
0.0,0.0,0.0,0.0
196.699,8.08,3.447,9.0
0.0,0.0,0.0,0.0
196.662,8.199,1.308,25.0
193.583,8.162,6.676,30.0
193.697,8.225,5.624,14.0
192.717,8.242,4.546,9.0
196.725,8.474,3.55,9.0
195.488,8.48,2.463,41.0
195.525,8.539,1.398,56.0
193.573,8.546,6.771,32.0
193.481,8.599,5.713,15.0
195.552,8.749,4.706,6.0
197.134,8.881,3.65,7.0
206.358,9.358,2.695,7.0
196.947,8.989,1.497,26.0
193.668,8.933,6.863,28.0
193.402,8.977,5.797,31.0
0.0,0.0,0.0,0.0
0.0,0.0,0.0,0.0
0.0,0.0,0.0,0.0
197.011,9.383,1.582,17.0
193.297,9.298,6.93,16.0
194.092,9.394,5.897,9.0
0.0,0.0,0.0,0.0
0.0,0.0,0.0,0.0
197.809,9.751,2.744,16.0
197.615,9.8,1.661,21.0
0.0,0.0,0.0,0.0
194.055,9.777,5.967,16.0
197.396,10.002,4.989,9.0
0.0,0.0,0.0,0.0
0.0,0.0,0.0,0.0
201.884,10.407,1.765,6.0
193.423,10.069,7.073,14.0
193.604,10.132,6.017,9.0
0.0,0.0,0.0,0.0
0.0,0.0,0.0,0.0
199.905,10.639,2.905,9.0
206.97,11.074,1.872,9.0
193.11,10.43,7.119,11.0
195.995,10.643,6.149,37.0
196.054,10.702,5.073,45.0
196.09,10.76,3.978,51.0
195.964,10.81,2.9,5.0
196.146,10.877,1.825,11.0
161.908,9.063,6.011,3.0
193.237,10.871,6.111,12.0
0.0,0.0,0.0,0.0
198.13,11.258,4.066,5.0
0.0,0.0,0.0,0.0
0.0,0.0,0.0,0.0
0.0,0.0,0.0,0.0
0.0,0.0,0.0,0.0
0.0,0.0,0.0,0.0
0.0,0.0,0.0,0.0
0.0,0.0,0.0,0.0
208.205,12.351,2.021,7.0
156.252,9.352,5.863,3.0
0.0,0.0,0.0,0.0
0.0,0.0,0.0,0.0
0.0,0.0,0.0,0.0
0.0,0.0,0.0,0.0
0.0,0.0,0.0,0.0
0.0,0.0,0.0,0.0
166.009,10.302,5.336,4.0
0.0,0.0,0.0,0.0
197.916,12.39,4.156,7.0
0.0,0.0,0.0,0.0
0.0,0.0,0.0,0.0
0.0,0.0,0.0,0.0
162.728,10.41,5.246,13.0
174.009,11.18,4.648,7.0
0.0,0.0,0.0,0.0
0.0,0.0,0.0,0.0
0.0,0.0,0.0,0.0
162.002,10.63,6.129,9.0
177.656,11.706,5.737,8.0
168.384,11.141,4.506,7.0
173.706,11.54,3.67,9.0
202.028,13.474,3.149,5.0
0.0,0.0,0.0,0.0
157.138,10.61,5.95,3.0
161.846,10.97,5.229,13.0
173.131,11.78,4.635,12.0
173.765,11.871,3.672,12.0
210.329,14.424,3.278,27.0
0.0,0.0,0.0,0.0
109.467,7.597,4.143,3.0
155.952,10.862,5.036,20.0
161.846,11.314,4.329,19.0
172.382,12.095,3.636,15.0
173.418,12.215,2.696,4.0
0.0,0.0,0.0,0.0
160.932,11.468,6.084,10.0
153.953,11.011,4.964,3.0
156.214,11.213,4.168,19.0
178.634,12.868,3.756,26.0
173.358,12.532,2.682,24.0
0.0,0.0,0.0,0.0
0.0,0.0,0.0,0.0
166.483,12.215,5.352,14.0
155.549,11.452,4.134,14.0
162.12,11.977,3.391,14.0
168.25,12.474,2.584,17.0
0.0,0.0,0.0,0.0
154.582,11.587,5.809,4.0
174.811,13.148,5.596,7.0
156.961,11.844,4.151,27.0
156.178,11.822,3.244,15.0
168.234,12.779,2.558,23.0
122.533,9.34,1.181,3.0
169.319,13.002,6.336,6.0
107.205,8.258,3.413,2.0
167.294,12.928,4.394,21.0
155.917,12.088,3.21,33.0
162.133,12.612,2.435,20.0
0.0,0.0,0.0,0.0
167.081,13.132,6.218,13.0
154.755,12.2,4.896,12.0
161.253,12.752,4.201,16.0
155.969,12.371,3.177,26.0
156.028,12.415,2.308,26.0
0.0,0.0,0.0,0.0
167.035,13.424,6.178,5.0
154.922,12.486,4.864,11.0
156.221,12.628,4.03,17.0
196.254,15.911,3.948,22.0
0.0,0.0,0.0,0.0
0.0,0.0,0.0,0.0
156.883,12.882,5.76,8.0
162.735,13.398,5.063,13.0
155.981,12.88,3.98,9.0
196.35,16.261,3.893,12.0
0.0,0.0,0.0,0.0
115.347,9.607,0.997,4.0
144.028,12.075,5.244,14.0
144.431,12.141,4.448,20.0
197.117,16.615,4.968,17.0
199.614,16.871,3.894,9.0
199.661,16.922,2.775,7.0
108.602,9.231,0.902,2.0
121.086,10.359,4.367,33.0
143.648,12.321,4.374,31.0
197.907,17.018,4.917,13.0
158.99,13.709,3.043,4.0
153.521,13.272,2.079,14.0
108.457,9.401,0.86,6.0
143.28,12.501,5.112,14.0
143.707,12.569,4.321,33.0
153.388,13.45,3.752,11.0
157.381,13.835,2.949,14.0
152.897,13.475,2.008,28.0
108.332,9.573,0.815,3.0
122.061,10.852,4.305,17.0
143.601,12.799,4.257,28.0
152.384,13.614,3.662,25.0
152.435,13.653,2.792,10.0
152.682,13.709,1.938,24.0
0.0,0.0,0.0,0.0
109.742,9.938,3.821,18.0
143.405,13.017,4.187,19.0
152.003,13.829,3.582,29.0
151.632,13.827,2.707,27.0
151.844,13.88,1.857,18.0
93.907,8.605,0.62,3.0
109.665,10.109,3.765,21.0
151.966,14.039,4.363,12.0
151.92,14.064,3.506,27.0
151.262,14.036,2.624,25.0
151.602,14.101,1.777,17.0
0.0,0.0,0.0,0.0
109.547,10.271,3.705,9.0
151.618,14.247,4.273,16.0
151.646,14.28,3.42,19.0
151.17,14.266,2.543,34.0
151.432,14.322,1.694,11.0
0.0,0.0,0.0,0.0
109.438,10.431,3.641,9.0
121.193,11.574,3.35,35.0
138.31,13.236,3.044,15.0
151.093,14.49,2.456,28.0
150.961,14.507,1.604,3.0
0.0,0.0,0.0,0.0
115.986,11.233,3.793,11.0
137.787,13.369,3.728,26.0
121.601,11.822,2.603,30.0
121.64,11.85,1.906,40.0
0.0,0.0,0.0,0.0
0.0,0.0,0.0,0.0
108.807,10.7,3.492,21.0
109.226,10.761,2.888,44.0
121.512,11.994,2.526,70.0
121.58,12.024,1.829,68.0
0.0,0.0,0.0,0.0
0.0,0.0,0.0,0.0
115.591,11.537,3.635,34.0
109.019,10.9,2.813,24.0
121.597,12.179,2.449,25.0
150.631,15.115,2.168,18.0
0.0,0.0,0.0,0.0
0.0,0.0,0.0,0.0
109.865,11.122,3.382,51.0
109.159,11.069,2.743,24.0
150.565,15.295,2.933,20.0
150.638,15.328,2.066,20.0
0.0,0.0,0.0,0.0
0.0,0.0,0.0,0.0
110.213,11.311,3.317,44.0
109.262,11.232,2.669,50.0
115.725,11.916,2.172,22.0
115.62,11.926,1.504,22.0
0.0,0.0,0.0,0.0
0.0,0.0,0.0,0.0
137.391,14.287,4.035,17.0
109.254,11.379,2.59,33.0
115.556,12.055,2.084,25.0
115.571,12.077,1.418,8.0
82.16,8.6,0.542,3.0
82.113,8.609,0.077,0.0
116.466,12.267,3.333,23.0
109.185,11.517,2.506,70.0
109.242,11.541,1.886,56.0
0.0,0.0,0.0,0.0
82.132,8.704,0.479,3.0
82.049,8.71,0.013,150.0
103.659,11.052,2.886,17.0
109.252,11.665,2.422,17.0
109.244,11.68,1.801,62.0
0.0,0.0,0.0,0.0
82.071,8.802,0.414,6.0
82.002,8.809,-0.052,15.0
103.804,11.198,2.807,17.0
115.705,12.498,2.471,20.0
109.337,11.826,1.715,18.0
0.0,0.0,0.0,0.0
82.047,8.9,0.346,3.0
76.877,8.352,-0.11,8.0
103.915,11.334,2.725,25.0
103.901,11.348,2.133,27.0
149.846,16.388,2.226,20.0
0.0,0.0,0.0,0.0
76.303,8.368,0.258,14.0
76.106,8.359,-0.174,8.0
103.944,11.462,2.637,33.0
103.821,11.462,2.043,42.0
103.804,11.475,1.452,15.0
76.932,8.516,0.631,5.0
75.544,8.373,0.19,9.0
75.628,8.394,-0.239,13.0
104.06,11.593,2.549,7.0
103.782,11.576,1.952,27.0
103.745,11.586,1.359,15.0
76.115,8.511,0.557,2.0
75.005,8.398,0.122,11.0
74.965,8.405,-0.304,3.0
144.131,16.218,3.4,10.0
144.078,16.23,2.578,14.0
0.0,0.0,0.0,0.0
75.075,8.477,0.48,3.0
74.667,8.441,0.053,17.0
74.86,8.474,-0.372,3.0
144.08,16.366,3.266,11.0
149.539,17.003,2.539,13.0
76.11,8.663,0.858,1.0
74.683,8.511,0.409,11.0
74.576,8.509,-0.016,4.0
0.0,0.0,0.0,0.0
153.286,17.569,3.331,8.0
149.551,17.158,2.397,15.0
75.332,8.652,0.778,11.0
74.599,8.577,0.338,5.0
0.0,0.0,0.0,0.0
0.0,0.0,0.0,0.0
149.391,17.271,3.103,8.0
149.741,17.327,2.255,21.0
71.421,8.272,0.669,3.0
0.0,0.0,0.0,0.0
0.0,0.0,0.0,0.0
0.0,0.0,0.0,0.0
149.343,17.406,2.957,12.0
149.798,17.474,2.109,19.0
75.842,8.855,0.635,8.0
0.0,0.0,0.0,0.0
0.0,0.0,0.0,0.0
68.886,8.068,-0.608,1.0
97.804,11.488,1.838,14.0
97.68,11.483,1.278,13.0
69.687,8.199,0.514,1.0
69.782,8.218,0.108,1.0
0.0,0.0,0.0,0.0
0.0,0.0,0.0,0.0
97.709,11.561,1.737,49.0
97.652,11.563,1.179,8.0
0.0,0.0,0.0,0.0
0.0,0.0,0.0,0.0
69.17,8.212,-0.357,0.0
0.0,0.0,0.0,0.0
97.685,11.639,1.635,56.0
0.0,0.0,0.0,0.0
0.0,0.0,0.0,0.0
68.736,8.209,-0.034,4.0
68.975,8.245,-0.428,1.0
0.0,0.0,0.0,0.0
97.73,11.72,1.533,32.0
0.0,0.0,0.0,0.0
0.0,0.0,0.0,0.0
68.795,8.268,-0.107,74.0
68.949,8.294,-0.502,4.0
68.717,8.273,-0.892,2.0
0.0,0.0,0.0,0.0
68.954,8.325,0.614,0.0
0.0,0.0,0.0,0.0
68.873,8.327,-0.18,0.0
68.943,8.342,-0.575,1.0
68.734,8.324,-0.966,5.0
0.0,0.0,0.0,0.0
68.762,8.349,0.538,4.0
68.715,8.348,0.145,2.0
69.139,8.406,-0.255,2.0
68.763,8.366,-0.647,0.0
68.792,8.376,-1.041,2.0
0.0,0.0,0.0,0.0
68.779,8.394,0.464,5.0
68.73,8.393,0.071,160.0
69.377,8.478,-0.331,6.0
68.666,8.397,-0.722,1.0
0.0,0.0,0.0,0.0
0.0,0.0,0.0,0.0
68.757,8.432,0.389,4.0
68.699,8.43,-0.004,172.0
69.255,8.503,-0.407,0.0
0.0,0.0,0.0,0.0
0.0,0.0,0.0,0.0
0.0,0.0,0.0,0.0
68.736,8.467,0.313,3.0
68.688,8.466,-0.079,159.0
0.0,0.0,0.0,0.0
68.648,8.471,-0.873,3.0
39.458,4.872,-0.727,0.0
0.0,0.0,0.0,0.0
68.673,8.494,0.236,13.0
65.581,8.115,-0.149,1.0
68.981,8.541,-0.559,0.0
0.0,0.0,0.0,0.0
38.422,4.762,-0.752,0.0
68.731,8.53,0.552,4.0
68.616,8.519,0.158,3.0
65.465,8.131,-0.222,25.0
65.154,8.096,-0.601,0.0
0.0,0.0,0.0,0.0
37.128,4.618,-0.768,0.0
68.693,8.554,0.474,9.0
68.645,8.551,0.081,4.0
65.435,8.154,-0.296,15.0
0.0,0.0,0.0,0.0
0.0,0.0,0.0,0.0
35.952,4.486,-0.784,0.0
68.69,8.579,0.398,28.0
65.402,8.17,0.004,4.0
65.251,8.154,-0.369,30.0
55.833,6.98,-0.641,0.0
40.445,5.058,-0.696,0.0
34.385,4.302,-0.789,0.0
68.666,8.598,0.32,11.0
65.301,8.179,-0.069,6.0
65.216,8.17,-0.443,52.0
0.0,0.0,0.0,0.0
39.699,4.977,-0.729,0.0
32.903,4.127,-0.793,0.0
68.732,8.625,0.241,2.0
65.241,8.189,-0.144,8.0
65.215,8.188,-0.518,6.0
0.0,0.0,0.0,0.0
38.166,4.795,-0.745,1.0
31.553,3.965,-0.797,0.0
0.0,0.0,0.0,0.0
65.197,8.198,-0.219,16.0
0.0,0.0,0.0,0.0
0.0,0.0,0.0,0.0
37.491,4.718,-0.775,0.0
31.029,3.906,-0.819,1.0
65.107,8.198,0.078,0.0
65.166,8.207,-0.294,12.0
0.0,0.0,0.0,0.0
42.621,5.369,-0.685,0.0
35.401,4.461,-0.772,0.0
30.264,3.815,-0.834,0.0
0.0,0.0,0.0,0.0
65.121,8.21,-0.369,4.0
0.0,0.0,0.0,0.0
0.0,0.0,0.0,0.0
34.26,4.321,-0.787,0.0
29.109,3.672,-0.836,0.0
65.121,8.215,-0.07,0.0
65.205,8.226,-0.445,0.0
0.0,0.0,0.0,0.0
39.479,4.981,-0.726,0.0
33.018,4.167,-0.796,0.0
28.11,3.548,-0.839,0.0
65.137,8.22,-0.145,4.0
65.002,8.203,-0.518,0.0
0.0,0.0,0.0,0.0
38.175,4.818,-0.746,0.0
31.275,3.948,-0.791,0.0
27.345,3.452,-0.848,0.0
65.111,8.217,-0.221,7.0
0.0,0.0,0.0,0.0
45.846,5.785,-0.681,0.0
0.0,0.0,0.0,0.0
30.942,3.905,-0.818,1.0
26.544,3.35,-0.854,0.0
65.116,8.214,-0.295,7.0
0.0,0.0,0.0,0.0
0.0,0.0,0.0,0.0
35.604,4.491,-0.777,0.0
30.25,3.815,-0.834,0.0
25.762,3.25,-0.858,0.0
65.159,8.214,-0.369,6.0
0.0,0.0,0.0,0.0
42.597,5.368,-0.729,0.0
34.44,4.34,-0.791,0.0
29.073,3.664,-0.835,0.0
25.014,3.152,-0.861,0.0
65.176,8.207,-0.443,6.0
0.0,0.0,0.0,0.0
40.07,5.044,-0.732,0.0
32.858,4.136,-0.792,0.0
28.295,3.561,-0.844,0.0
24.252,3.052,-0.863,0.0
65.213,8.199,-0.516,3.0
0.0,0.0,0.0,0.0
38.123,4.791,-0.739,0.0
31.392,3.945,-0.791,0.0
27.275,3.427,-0.844,0.0
23.747,2.984,-0.871,0.0
65.139,8.175,-0.588,1.0
0.0,0.0,0.0,0.0
37.619,4.719,-0.771,0.0
31.071,3.897,-0.818,1.0
26.45,3.317,-0.848,0.0
21.962,2.754,-0.83,0.0
65.256,8.172,-0.661,2.0
0.0,0.0,0.0,0.0
35.629,4.459,-0.769,0.0
30.158,3.773,-0.827,0.0
25.824,3.231,-0.856,0.0
21.897,2.739,-0.851,2.0
0.0,0.0,0.0,0.0
0.0,0.0,0.0,0.0
0.0,0.0,0.0,0.0
29.32,3.658,-0.836,0.0
25.143,3.137,-0.861,0.0
21.867,2.728,-0.874,2.0
0.0,0.0,0.0,0.0
0.0,0.0,0.0,0.0
32.933,4.098,-0.783,0.0
28.263,3.516,-0.836,0.0
24.457,3.042,-0.864,0.0
21.772,2.707,-0.894,1.0
0.0,0.0,0.0,0.0
38.57,4.785,-0.737,0.0
31.813,3.945,-0.79,0.0
27.617,3.423,-0.847,0.0
23.853,2.956,-0.868,0.0
21.617,2.678,-0.911,0.0
68.654,8.489,-0.992,2.0
37.453,4.629,-0.755,0.0
31.225,3.857,-0.809,0.0
26.836,3.314,-0.851,0.0
23.44,2.893,-0.877,0.0
20.6,2.542,-0.889,0.0
68.81,8.474,-1.066,0.0
36.864,4.537,-0.781,0.0
30.482,3.75,-0.821,0.0
25.934,3.189,-0.849,0.0
22.111,2.718,-0.851,0.0
20.312,2.496,-0.898,0.0
0.0,0.0,0.0,0.0
0.0,0.0,0.0,0.0
29.851,3.656,-0.834,0.0
25.392,3.108,-0.857,0.0
21.845,2.673,-0.863,0.0
20.205,2.471,-0.914,0.0
39.887,4.867,-0.699,0.0
33.05,4.03,-0.768,0.0
28.779,3.507,-0.833,0.0
24.634,3.001,-0.856,0.0
21.808,2.655,-0.883,1.0
0.0,0.0,0.0,0.0
39.675,4.816,-0.735,0.0
32.567,3.95,-0.789,0.0
27.996,3.394,-0.838,0.0
24.18,2.929,-0.865,0.0
21.729,2.631,-0.901,0.0
19.045,2.305,-0.899,0.0
37.688,4.549,-0.734,0.0
31.957,3.855,-0.805,0.0
27.329,3.294,-0.844,0.0
23.675,2.852,-0.869,0.0
21.123,2.543,-0.896,0.0
18.858,2.269,-0.908,0.0
37.048,4.445,-0.756,0.0
31.018,3.719,-0.81,0.0
26.528,3.178,-0.845,0.0
23.298,2.79,-0.877,0.0
20.511,2.454,-0.89,0.0
18.412,2.202,-0.904,0.0
36.393,4.339,-0.777,0.0
30.426,3.625,-0.823,0.0
26.03,3.099,-0.853,0.0
21.944,2.61,-0.847,0.0
20.331,2.417,-0.901,0.0
18.174,2.159,-0.909,0.0
34.81,4.123,-0.775,0.0
29.728,3.518,-0.832,0.0
25.422,3.006,-0.856,0.0
21.858,2.582,-0.863,0.0
19.378,2.287,-0.876,0.0
17.911,2.113,-0.912,0.0
33.498,3.939,-0.776,1.0
28.681,3.369,-0.828,0.0
24.848,2.916,-0.859,0.0
21.783,2.555,-0.88,1.0
19.35,2.268,-0.892,1.0
17.533,2.053,-0.908,0.0
32.7,3.816,-0.786,0.0
28.085,3.274,-0.835,0.0
24.422,2.845,-0.865,0.0
21.773,2.534,-0.898,0.0
19.272,2.241,-0.905,1.0
17.313,2.012,-0.912,0.0
31.994,3.704,-0.796,0.0
27.589,3.191,-0.843,0.0
23.905,2.762,-0.867,0.0
21.6,2.494,-0.909,0.0
19.027,2.195,-0.909,1.0
17.176,1.979,-0.919,1.0
31.299,3.594,-0.805,0.0
26.935,3.089,-0.846,0.0
23.583,2.702,-0.875,0.0
20.683,2.367,-0.887,0.0
18.698,2.138,-0.908,0.0
17.072,1.951,-0.927,0.0
30.775,3.503,-0.815,0.0
26.39,3.0,-0.849,0.0
23.228,2.638,-0.88,0.0
20.374,2.311,-0.89,0.0
18.426,2.088,-0.91,0.0
16.763,1.898,-0.923,0.0
29.966,3.38,-0.817,0.0
25.862,2.913,-0.852,0.0
21.898,2.464,-0.846,3.0
19.831,2.229,-0.881,0.0
18.126,2.035,-0.908,0.0
16.537,1.855,-0.923,0.0
29.415,3.286,-0.824,0.0
25.453,2.84,-0.857,0.0
21.877,2.438,-0.861,5.0
19.696,2.192,-0.889,1.0
17.868,1.987,-0.908,2.0
16.351,1.816,-0.924,0.0
28.686,3.173,-0.824,0.0
24.903,2.751,-0.856,0.0
21.849,2.411,-0.875,7.0
19.549,2.154,-0.896,2.0
17.78,1.957,-0.916,2.0
16.119,1.772,-0.922,0.0
28.282,3.095,-0.832,0.0
24.55,2.683,-0.861,0.0
21.809,2.381,-0.889,4.0
19.519,2.128,-0.908,2.0
17.684,1.926,-0.923,1.0
15.982,1.738,-0.925,0.0
27.97,3.028,-0.841,0.0
24.131,2.609,-0.862,0.0
21.783,2.352,-0.902,2.0
19.254,2.076,-0.908,0.0
17.563,1.892,-0.928,0.0
15.821,1.702,-0.926,0.0
27.457,2.94,-0.842,0.0
23.858,2.551,-0.867,0.0
21.625,2.309,-0.908,0.0
18.921,2.017,-0.904,0.0
17.325,1.845,-0.926,0.0
15.67,1.666,-0.926,0.0
27.087,2.867,-0.847,0.0
23.636,2.498,-0.872,0.0
21.036,2.22,-0.896,0.0
18.784,1.979,-0.908,0.0
17.063,1.795,-0.922,0.0
15.547,1.633,-0.928,0.0
26.607,2.782,-0.847,0.0
21.951,2.291,-0.823,0.0
20.742,2.162,-0.895,0.0
18.626,1.938,-0.911,0.0
16.951,1.761,-0.925,0.0
15.478,1.606,-0.932,0.0
26.273,2.713,-0.85,0.0
21.916,2.259,-0.833,1.0
20.541,2.114,-0.896,0.0
18.302,1.881,-0.904,0.0
16.753,1.719,-0.922,0.0
15.283,1.566,-0.928,0.0
25.994,2.65,-0.853,0.0
21.925,2.231,-0.844,1.0
20.534,2.086,-0.906,0.0
18.116,1.837,-0.903,1.0
16.543,1.675,-0.919,0.0
15.181,1.535,-0.929,0.0
25.616,2.576,-0.853,0.0
21.913,2.199,-0.853,0.0
0.0,0.0,0.0,0.0
17.974,1.798,-0.904,1.0
16.483,1.646,-0.922,0.0
15.027,1.498,-0.926,0.0
25.438,2.523,-0.858,0.0
21.866,2.164,-0.86,0.0
19.701,1.947,-0.886,0.0
17.888,1.764,-0.907,1.0
16.355,1.61,-0.922,0.0
14.984,1.473,-0.929,0.0
25.211,2.465,-0.86,0.0
21.838,2.131,-0.868,0.0
19.667,1.915,-0.892,0.0
17.822,1.732,-0.911,2.0
16.244,1.576,-0.922,0.0
14.898,1.443,-0.929,0.0
24.917,2.4,-0.859,0.0
21.805,2.096,-0.874,1.0
19.561,1.876,-0.894,0.0
17.774,1.701,-0.914,1.0
16.245,1.552,-0.927,0.0
14.895,1.421,-0.934,0.0
24.752,2.347,-0.861,0.0
21.807,2.064,-0.881,1.0
19.532,1.844,-0.899,0.0
17.635,1.662,-0.912,0.0
16.145,1.519,-0.926,0.0
14.841,1.393,-0.935,0.0
24.606,2.296,-0.863,0.0
21.788,2.029,-0.886,1.0
19.476,1.81,-0.901,0.0
17.602,1.632,-0.915,0.0
16.067,1.487,-0.926,0.0
14.728,1.36,-0.931,0.0
24.493,2.249,-0.865,0.0
21.774,1.995,-0.891,1.0
19.408,1.774,-0.903,0.0
17.456,1.592,-0.912,0.0
15.992,1.456,-0.925,0.0
14.711,1.336,-0.934,0.0
24.382,2.201,-0.866,1.0
21.796,1.963,-0.896,3.0
19.403,1.743,-0.906,0.0
17.345,1.555,-0.909,0.0
15.953,1.427,-0.926,0.0
14.695,1.312,-0.935,0.0
24.327,2.158,-0.868,1.0
21.805,1.93,-0.9,3.0
19.355,1.709,-0.907,0.0
17.391,1.532,-0.914,0.0
15.962,1.403,-0.928,0.0
14.676,1.287,-0.936,0.0
24.274,2.115,-0.869,1.0
21.808,1.895,-0.903,3.0
19.368,1.679,-0.91,0.0
17.362,1.502,-0.915,0.0
15.878,1.37,-0.925,0.0
14.664,1.262,-0.937,0.0
24.259,2.075,-0.871,1.0
21.778,1.858,-0.903,3.0
19.394,1.65,-0.913,0.0
17.325,1.471,-0.914,0.0
15.875,1.344,-0.926,0.0
14.656,1.238,-0.937,0.0
24.236,2.034,-0.872,1.0
21.783,1.823,-0.905,4.0
19.394,1.619,-0.914,0.0
17.305,1.441,-0.913,0.0
15.943,1.324,-0.93,0.0
14.634,1.212,-0.936,0.0
24.325,2.002,-0.875,1.0
21.787,1.788,-0.905,3.0
19.425,1.59,-0.915,0.0
17.277,1.41,-0.912,0.0
15.981,1.301,-0.933,0.0
14.649,1.189,-0.937,0.0
24.336,1.962,-0.875,1.0
21.786,1.752,-0.904,3.0
19.378,1.554,-0.912,0.0
17.236,1.378,-0.909,0.0
15.968,1.273,-0.931,0.0
14.679,1.167,-0.938,0.0
24.365,1.923,-0.874,0.0
21.754,1.712,-0.902,1.0
19.413,1.523,-0.912,0.0
17.341,1.357,-0.913,0.0
16.031,1.251,-0.933,0.0
14.676,1.142,-0.936,0.0
24.325,1.879,-0.871,0.0
21.743,1.675,-0.899,1.0
19.392,1.489,-0.909,0.0
17.349,1.328,-0.911,0.0
16.019,1.222,-0.93,0.0
14.725,1.12,-0.937,0.0
24.424,1.845,-0.87,0.0
21.778,1.64,-0.897,2.0
19.471,1.461,-0.91,0.0
17.503,1.31,-0.916,0.0
16.063,1.198,-0.93,0.0
14.76,1.098,-0.937,0.0
24.696,1.823,-0.876,0.0
21.781,1.603,-0.893,2.0
19.46,1.427,-0.905,0.0
17.477,1.278,-0.911,0.0
16.069,1.171,-0.927,0.0
14.823,1.076,-0.937,0.0
24.8,1.788,-0.874,0.0
21.799,1.566,-0.888,2.0
19.537,1.399,-0.904,0.0
17.716,1.264,-0.919,0.0
16.153,1.149,-0.928,0.0
14.875,1.054,-0.937,0.0
24.932,1.755,-0.872,0.0
21.814,1.529,-0.883,1.0
19.598,1.369,-0.901,0.0
17.761,1.236,-0.917,0.0
16.253,1.127,-0.929,0.0
14.971,1.035,-0.938,0.0
25.022,1.717,-0.867,0.0
21.813,1.491,-0.876,1.0
19.67,1.34,-0.898,0.0
17.802,1.208,-0.913,0.0
16.336,1.105,-0.928,0.0
15.01,1.012,-0.935,0.0
25.259,1.689,-0.867,0.0
21.852,1.456,-0.87,7.0
19.759,1.311,-0.895,0.0
18.046,1.193,-0.919,0.0
16.581,1.092,-0.935,0.0
15.027,0.986,-0.931,0.0
25.618,1.669,-0.869,0.0
21.869,1.419,-0.862,6.0
19.92,1.287,-0.894,0.0
18.188,1.17,-0.918,0.0
0.0,0.0,0.0,0.0
15.056,0.961,-0.926,0.0
25.956,1.645,-0.869,0.0
21.893,1.381,-0.853,3.0
20.255,1.273,-0.9,0.0
0.0,0.0,0.0,0.0
0.0,0.0,0.0,0.0
15.222,0.945,-0.929,0.0
26.139,1.61,-0.863,0.0
21.919,1.344,-0.844,3.0
20.4,1.246,-0.897,0.0
0.0,0.0,0.0,0.0
0.0,0.0,0.0,0.0
15.363,0.926,-0.93,0.0
26.107,1.562,-0.849,0.0
21.906,1.305,-0.832,1.0
0.0,0.0,0.0,0.0
0.0,0.0,0.0,0.0
16.786,0.986,-0.915,0.0
15.506,0.907,-0.93,0.0
27.061,1.571,-0.865,0.0
21.956,1.269,-0.822,0.0
21.726,1.25,-0.932,0.0
0.0,0.0,0.0,0.0
17.1,0.975,-0.922,0.0
15.726,0.892,-0.934,0.0
27.801,1.565,-0.872,0.0
23.984,1.343,-0.883,0.0
21.765,1.213,-0.92,1.0
19.208,1.066,-0.919,0.0
17.294,0.955,-0.922,0.0
15.878,0.872,-0.933,0.0
28.087,1.531,-0.863,0.0
24.363,1.322,-0.882,0.0
21.82,1.178,-0.908,1.0
19.214,1.032,-0.906,0.0
17.567,0.938,-0.924,0.0
16.047,0.853,-0.932,0.0
28.461,1.501,-0.856,0.0
24.751,1.298,-0.878,0.0
21.856,1.14,-0.894,1.0
19.575,1.016,-0.91,0.0
17.759,0.917,-0.922,0.0
16.123,0.828,-0.925,0.0
29.082,1.482,-0.854,0.0
25.203,1.277,-0.876,0.0
21.917,1.105,-0.881,0.0
20.238,1.015,-0.926,7.0
18.03,0.899,-0.923,0.0
16.479,0.817,-0.933,2.0
29.593,1.456,-0.846,0.0
25.731,1.258,-0.875,0.0
20.232,0.984,-0.798,0.0
20.192,0.976,-0.908,10.0
20.223,0.973,-1.019,0.0
16.702,0.799,-0.932,0.0
30.46,1.444,-0.847,0.0
20.25,0.955,-0.673,2.0
20.218,0.947,-0.781,154.0
20.187,0.941,-0.891,35.0
0.0,0.0,0.0,0.0
20.228,0.932,-1.112,1.0
31.113,1.421,-0.839,0.0
20.269,0.92,-0.656,150.0
20.189,0.911,-0.763,183.0
20.23,0.907,-0.876,70.0
19.985,0.891,-0.973,3.0
20.214,0.896,-1.094,14.0
0.0,0.0,0.0,0.0
20.246,0.883,-0.637,8.0
20.231,0.877,-0.746,154.0
20.204,0.87,-0.856,16.0
20.029,0.857,-0.957,0.0
20.247,0.861,-1.077,0.0
32.501,1.37,-0.819,0.0
28.942,1.212,-0.885,0.0
20.235,0.841,-0.727,0.0
22.065,0.912,-0.914,1.0
19.897,0.817,-0.932,0.0
17.858,0.728,-0.933,0.0
33.226,1.342,-0.805,0.0
29.542,1.185,-0.875,1.0
25.52,1.017,-0.893,0.0
22.42,0.887,-0.907,0.0
20.124,0.791,-0.923,1.0
18.051,0.704,-0.925,0.0
34.067,1.317,-0.792,0.0
30.106,1.155,-0.861,1.0
25.574,0.975,-0.869,1.0
22.798,0.863,-0.899,0.0
20.456,0.768,-0.917,0.0
18.45,0.688,-0.926,0.0
36.148,1.335,-0.803,0.0
30.248,1.108,-0.834,0.0
26.599,0.967,-0.876,0.0
23.418,0.845,-0.899,0.0
20.862,0.747,-0.913,0.0
18.765,0.667,-0.922,0.0
37.205,1.309,-0.786,0.0
32.088,1.12,-0.85,1.0
27.689,0.959,-0.881,0.0
24.002,0.825,-0.895,0.0
21.495,0.733,-0.917,0.0
19.143,0.648,-0.919,0.0
0.0,0.0,0.0,0.0
32.62,1.083,-0.828,1.0
28.672,0.944,-0.881,0.0
24.724,0.807,-0.894,0.0
22.128,0.717,-0.918,0.0
19.819,0.637,-0.929,0.0
0.0,0.0,0.0,0.0
33.516,1.056,-0.812,0.0
29.865,0.933,-0.883,0.0
25.457,0.789,-0.891,0.0
22.471,0.69,-0.906,0.0
20.161,0.613,-0.921,0.0
42.298,1.274,-0.749,0.0
0.0,0.0,0.0,0.0
30.688,0.908,-0.871,1.0
26.25,0.769,-0.887,0.0
23.052,0.669,-0.902,0.0
20.582,0.592,-0.915,0.0
0.0,0.0,0.0,0.0
36.99,1.042,-0.807,0.0
31.762,0.887,-0.862,1.0
27.086,0.749,-0.882,0.0
23.597,0.646,-0.894,0.0
21.1,0.572,-0.912,0.0
0.0,0.0,0.0,0.0
0.0,0.0,0.0,0.0
32.401,0.851,-0.838,1.0
27.995,0.728,-0.876,0.0
23.676,0.61,-0.867,0.0
22.082,0.563,-0.926,0.0
0.0,0.0,0.0,0.0
40.392,1.007,-0.779,0.0
33.344,0.822,-0.82,0.0
29.056,0.709,-0.871,0.0
25.347,0.611,-0.895,0.0
22.48,0.536,-0.913,0.0
0.0,0.0,0.0,0.0
0.0,0.0,0.0,0.0
35.467,0.817,-0.825,0.0
30.89,0.704,-0.885,1.0
26.324,0.593,-0.894,0.0
22.983,0.512,-0.902,0.0
0.0,0.0,0.0,0.0
42.767,0.929,-0.71,0.0
36.955,0.793,-0.808,0.0
31.639,0.671,-0.863,1.0
27.187,0.569,-0.885,0.0
23.861,0.493,-0.903,0.0
0.0,0.0,0.0,0.0
0.0,0.0,0.0,0.0
38.334,0.762,-0.785,0.0
32.741,0.642,-0.847,1.0
28.606,0.554,-0.891,0.0
24.808,0.474,-0.904,0.0
0.0,0.0,0.0,0.0
0.0,0.0,0.0,0.0
40.072,0.734,-0.763,0.0
34.118,0.617,-0.833,5.0
29.738,0.53,-0.883,0.0
25.784,0.453,-0.902,0.0
0.0,0.0,0.0,0.0
0.0,0.0,0.0,0.0
42.628,0.716,-0.749,0.0
0.0,0.0,0.0,0.0
31.199,0.509,-0.881,1.0
26.507,0.426,-0.888,0.0
0.0,0.0,0.0,0.0
0.0,0.0,0.0,0.0
0.0,0.0,0.0,0.0
37.372,0.563,-0.802,0.0
20.204,0.299,-0.54,2.0
20.217,0.294,-0.647,9.0
0.0,0.0,0.0,0.0
0.0,0.0,0.0,0.0
20.17,0.278,-0.294,0.0
20.186,0.274,-0.402,15.0
20.203,0.269,-0.509,24.0
20.202,0.264,-0.615,26.0
0.0,0.0,0.0,0.0
0.0,0.0,0.0,0.0
20.191,0.249,-0.263,18.0
20.173,0.244,-0.37,27.0
20.173,0.239,-0.476,22.0
20.186,0.235,-0.583,33.0
20.355,0.232,-0.019,0.0
20.259,0.226,-0.125,0.0
20.17,0.22,-0.23,18.0
20.167,0.215,-0.338,29.0
20.187,0.211,-0.444,26.0
20.189,0.206,-0.55,32.0
20.344,0.203,0.013,34.0
20.223,0.197,-0.092,13.0
20.155,0.191,-0.198,18.0
20.175,0.187,-0.306,33.0
20.17,0.182,-0.411,34.0
20.202,0.178,-0.518,26.0
20.241,0.173,0.046,25.0
20.21,0.169,-0.059,23.0
20.188,0.164,-0.165,24.0
20.178,0.159,-0.273,32.0
20.191,0.155,-0.378,28.0
20.195,0.15,-0.484,12.0
20.203,0.145,0.079,33.0
20.193,0.141,-0.026,27.0
20.174,0.136,-0.131,39.0
20.174,0.132,-0.239,28.0
20.2,0.128,-0.345,24.0
0.0,0.0,0.0,0.0
20.189,0.119,0.113,28.0
20.19,0.114,0.007,28.0
20.178,0.11,-0.098,29.0
20.183,0.106,-0.205,24.0
20.206,0.101,-0.311,9.0
38.803,0.187,-0.8,0.0
20.154,0.092,0.146,27.0
20.202,0.088,0.041,35.0
20.196,0.084,-0.064,28.0
20.201,0.08,-0.171,26.0
52.642,0.197,-0.721,0.0
40.574,0.143,-0.767,0.0
20.152,0.067,0.181,30.0
20.161,0.062,0.076,20.0
20.203,0.058,-0.028,16.0
20.243,0.054,-0.136,24.0
20.258,0.05,-0.242,78.0
20.264,0.046,-0.347,78.0
20.13,0.041,0.216,28.0
20.132,0.037,0.111,29.0
20.253,0.033,0.006,152.0
20.249,0.029,-0.1,152.0
20.258,0.025,-0.206,151.0
20.268,0.021,-0.312,150.0
20.135,0.017,0.251,29.0
20.128,0.013,0.147,27.0
20.213,0.009,0.042,26.0
20.224,0.005,-0.064,41.0
20.179,0.001,-0.169,12.0
20.193,-0.002,-0.275,6.0
20.117,-0.006,0.287,28.0
20.12,-0.01,0.182,30.0
20.128,-0.014,0.078,36.0
20.122,-0.017,-0.028,31.0
20.141,-0.021,-0.132,29.0
20.138,-0.025,-0.237,12.0
20.117,-0.029,0.323,33.0
20.115,-0.033,0.219,32.0
20.123,-0.037,0.114,35.0
20.12,-0.04,0.008,34.0
20.137,-0.044,-0.096,34.0
20.152,-0.048,-0.2,25.0
20.119,-0.052,0.36,33.0
20.124,-0.055,0.256,27.0
20.115,-0.059,0.152,28.0
20.132,-0.063,0.045,36.0
20.138,-0.066,-0.058,28.0
20.141,-0.07,-0.163,37.0
20.12,-0.074,0.398,35.0
20.121,-0.077,0.293,27.0
20.114,-0.081,0.189,25.0
20.127,-0.084,0.083,38.0
20.134,-0.088,-0.021,33.0
20.14,-0.091,-0.125,29.0
20.119,-0.095,0.435,26.0
20.121,-0.098,0.331,26.0
20.117,-0.102,0.227,20.0
20.106,-0.105,0.12,18.0
20.143,-0.109,0.016,27.0
20.152,-0.112,-0.087,24.0
20.143,-0.116,0.474,17.0
20.126,-0.119,0.369,16.0
20.136,-0.122,0.265,15.0
20.146,-0.126,0.159,17.0
20.15,-0.129,0.055,19.0
20.19,-0.132,-0.049,20.0
20.185,-0.136,0.513,8.0
20.244,-0.14,0.41,28.0
20.227,-0.143,0.305,19.0
58.296,-0.421,0.571,7.0
58.341,-0.431,0.27,22.0
20.196,-0.152,-0.01,0.0
20.171,-0.155,0.552,9.0
20.185,-0.158,0.447,20.0
53.477,-0.428,0.909,15.0
66.501,-0.543,0.78,6.0
53.38,-0.443,0.35,4.0
53.351,-0.451,0.074,9.0
53.496,-0.462,1.566,58.0
20.147,-0.176,0.485,11.0
20.204,-0.18,0.382,23.0
53.388,-0.484,0.73,11.0
64.303,-0.592,0.546,7.0
56.18,-0.525,0.187,11.0
53.509,-0.509,1.67,80.0
20.147,-0.194,0.525,11.0
20.151,-0.197,0.42,18.0
20.159,-0.2,0.314,13.0
64.252,-0.646,0.67,34.0
56.163,-0.572,0.296,10.0
53.449,-0.553,1.772,13.0
53.488,-0.561,1.497,12.0
20.135,-0.213,0.459,13.0
20.136,-0.216,0.353,11.0
20.157,-0.219,0.25,12.0
56.175,-0.618,0.406,2.0
53.522,-0.598,1.88,116.0
53.497,-0.604,1.602,80.0
20.152,-0.23,0.499,10.0
20.117,-0.232,0.392,13.0
20.135,-0.234,0.289,10.0
20.158,-0.237,0.185,13.0
58.254,-0.696,2.16,251.0
53.502,-0.645,1.708,65.0
59.399,-0.723,1.59,21.0
20.131,-0.247,0.432,10.0
20.124,-0.249,0.329,13.0
20.124,-0.252,0.225,11.0
58.293,-0.74,2.278,255.0
53.519,-0.685,1.815,150.0
53.479,-0.69,1.537,108.0
53.497,-0.696,1.256,8.0
20.122,-0.264,0.368,10.0
20.118,-0.266,0.265,13.0
58.438,-0.782,2.4,155.0
58.518,-0.789,2.101,50.0
53.484,-0.727,1.644,74.0
59.424,-0.814,1.514,66.0
20.151,-0.278,0.409,7.0
20.132,-0.279,0.305,10.0
58.85,-0.827,2.535,90.0
58.9,-0.833,2.233,91.0
53.502,-0.762,1.752,65.0
