X,Y,Z,Reflectivity
15.73,1.65,-0.92,0.0
14.52,1.522,-0.932,0.0
13.349,1.399,-0.933,0.0
12.389,1.298,-0.938,0.0
11.518,1.206,-0.939,0.0
10.82,1.132,-0.944,0.0
15.543,1.62,-0.923,0.0
14.301,1.489,-0.931,0.0
13.346,1.389,-0.945,0.0
12.282,1.278,-0.942,0.0
11.406,1.186,-0.94,0.0
10.7,1.112,-0.943,0.0
15.316,1.585,-0.923,0.0
14.253,1.474,-0.94,0.0
13.037,1.347,-0.935,0.0
12.111,1.251,-0.939,0.0
11.328,1.169,-0.943,0.0
10.651,1.099,-0.948,0.0
15.085,1.55,-0.922,0.0
14.02,1.439,-0.937,0.0
12.882,1.321,-0.935,0.0
11.976,1.228,-0.939,0.0
11.207,1.148,-0.943,0.0
10.538,1.079,-0.947,0.0
14.931,1.522,-0.925,0.0
0.0,0.0,0.0,0.0
12.734,1.296,-0.934,0.0
11.843,1.204,-0.938,0.0
11.12,1.13,-0.944,0.0
10.456,1.062,-0.948,0.0
14.754,1.492,-0.926,0.0
13.583,1.372,-0.93,0.0
12.644,1.276,-0.938,0.0
11.74,1.184,-0.939,0.0
11.033,1.112,-0.946,0.0
10.35,1.042,-0.946,0.0
14.599,1.464,-0.927,0.0
13.521,1.354,-0.936,0.0
12.567,1.258,-0.941,0.0
11.643,1.164,-0.94,0.0
10.887,1.088,-0.941,0.0
10.274,1.026,-0.947,0.0
14.519,1.443,-0.933,0.0
13.417,1.332,-0.938,0.0
12.445,1.234,-0.941,0.0
11.536,1.143,-0.939,0.0
10.82,1.071,-0.943,0.0
10.176,1.006,-0.945,0.0
14.39,1.417,-0.934,0.0
13.246,1.303,-0.935,0.0
12.324,1.211,-0.94,0.0
11.424,1.121,-0.938,0.0
10.765,1.055,-0.946,0.0
10.091,0.988,-0.944,0.0
14.26,1.39,-0.935,0.0
13.187,1.284,-0.94,0.0
12.177,1.185,-0.937,0.0
11.394,1.107,-0.943,0.0
10.713,1.04,-0.948,0.0
10.054,0.975,-0.947,0.0
14.197,1.37,-0.94,0.0
13.025,1.255,-0.936,0.0
12.053,1.16,-0.935,0.0
11.281,1.085,-0.941,0.0
10.644,1.022,-0.948,0.0
9.991,0.959,-0.947,0.0
14.054,1.342,-0.939,0.0
12.948,1.235,-0.938,0.0
11.948,1.138,-0.934,0.0
11.236,1.069,-0.944,0.0
10.586,1.006,-0.949,0.0
9.894,0.939,-0.944,0.0
13.822,1.305,-0.931,0.0
12.873,1.214,-0.94,0.0
11.879,1.119,-0.935,0.0
11.157,1.049,-0.943,0.0
10.457,0.982,-0.944,0.0
9.85,0.924,-0.945,0.0
13.669,1.276,-0.928,0.0
12.732,1.187,-0.937,0.0
11.858,1.104,-0.94,0.0
11.105,1.032,-0.944,0.0
10.492,0.974,-0.952,0.0
9.793,0.908,-0.944,0.0
13.643,1.258,-0.933,0.0
12.639,1.164,-0.936,0.0
11.79,1.084,-0.94,0.0
11.018,1.012,-0.942,0.0
0.0,0.0,0.0,0.0
9.735,0.891,-0.943,0.0
13.54,1.233,-0.932,0.0
12.585,1.144,-0.937,0.0
11.709,1.063,-0.939,0.0
10.84,0.983,-0.932,0.0
10.372,0.939,-0.95,0.0
9.715,0.878,-0.946,0.0
13.452,1.21,-0.931,0.0
12.554,1.127,-0.94,0.0
11.645,1.044,-0.938,0.0
10.894,0.975,-0.941,0.0
10.274,0.918,-0.945,0.0
9.663,0.862,-0.944,0.0
13.435,1.192,-0.935,0.0
12.446,1.103,-0.937,0.0
11.602,1.026,-0.939,0.0
10.841,0.957,-0.94,0.0
10.233,0.902,-0.945,0.0
9.622,0.847,-0.944,0.0
13.392,1.172,-0.937,0.0
12.424,1.085,-0.939,0.0
11.567,1.009,-0.94,0.0
10.801,0.94,-0.94,0.0
10.204,0.887,-0.946,0.0
9.575,0.831,-0.942,0.0
13.306,1.148,-0.935,0.0
12.403,1.068,-0.941,0.0
11.516,0.99,-0.939,0.0
10.764,0.924,-0.94,0.0
10.195,0.873,-0.948,0.0
9.565,0.818,-0.944,0.0
13.369,1.137,-0.943,0.0
12.365,1.049,-0.941,0.0
11.472,0.972,-0.938,0.0
10.803,0.913,-0.946,0.0
10.159,0.857,-0.947,0.0
9.539,0.803,-0.943,0.0
13.32,1.115,-0.942,0.0
12.325,1.03,-0.941,0.0
11.496,0.959,-0.943,0.0
10.729,0.893,-0.941,0.0
10.114,0.84,-0.945,0.0
9.52,0.789,-0.943,0.0
13.249,1.092,-0.939,0.0
12.276,1.01,-0.94,0.0
11.478,0.942,-0.943,0.0
10.82,0.886,-0.951,0.0
10.109,0.826,-0.946,0.0
9.52,0.777,-0.945,0.0
13.265,1.076,-0.942,0.0
12.27,0.993,-0.941,0.0
11.454,0.925,-0.943,0.0
10.753,0.867,-0.946,0.0
10.09,0.811,-0.945,0.0
9.512,0.763,-0.945,0.0
13.222,1.055,-0.941,0.0
12.205,0.971,-0.937,0.0
11.42,0.907,-0.941,0.0
10.724,0.85,-0.945,0.0
10.085,0.797,-0.945,0.0
9.519,0.751,-0.946,0.0
13.164,1.032,-0.937,0.0
12.231,0.957,-0.939,0.0
11.453,0.894,-0.944,0.0
10.696,0.833,-0.943,0.0
10.104,0.785,-0.947,0.0
9.494,0.736,-0.944,0.0
13.136,1.012,-0.935,0.0
12.235,0.94,-0.94,0.0
11.422,0.876,-0.941,0.0
10.707,0.819,-0.943,0.0
10.06,0.767,-0.943,0.0
9.514,0.724,-0.945,0.0
13.22,1.0,-0.941,0.0
12.259,0.925,-0.941,0.0
11.435,0.86,-0.942,0.0
10.645,0.799,-0.938,0.0
10.101,0.756,-0.946,0.0
9.528,0.712,-0.946,0.0
13.209,0.981,-0.939,0.0
12.266,0.908,-0.941,0.0
11.424,0.844,-0.94,0.0
10.746,0.792,-0.945,0.0
10.08,0.741,-0.943,0.0
9.546,0.7,-0.947,0.0
13.238,0.964,-0.94,0.0
12.29,0.893,-0.941,0.0
11.441,0.829,-0.94,0.0
10.716,0.774,-0.941,0.0
10.103,0.728,-0.944,0.0
9.573,0.688,-0.948,0.0
13.221,0.944,-0.937,0.0
12.325,0.878,-0.942,0.0
11.477,0.815,-0.941,0.0
10.825,0.766,-0.949,0.0
10.192,0.72,-0.95,0.0
9.59,0.675,-0.948,0.0
13.333,0.933,-0.942,0.0
12.342,0.861,-0.94,0.0
11.515,0.801,-0.941,0.0
10.843,0.752,-0.948,0.0
10.214,0.706,-0.95,0.0
9.591,0.661,-0.946,0.0
13.366,0.916,-0.941,0.0
12.372,0.845,-0.94,0.0
11.546,0.786,-0.941,0.0
10.841,0.736,-0.945,0.0
10.233,0.693,-0.949,0.0
9.617,0.649,-0.946,0.0
13.416,0.9,-0.94,0.0
12.438,0.831,-0.941,0.0
11.614,0.774,-0.943,0.0
10.944,0.727,-0.951,0.0
10.239,0.678,-0.946,0.0
9.673,0.639,-0.948,0.0
13.377,0.877,-0.933,0.0
12.51,0.818,-0.942,0.0
11.684,0.761,-0.945,0.0
10.967,0.712,-0.949,0.0
10.315,0.668,-0.95,0.0
9.712,0.627,-0.948,0.0
13.456,0.863,-0.934,0.0
12.588,0.804,-0.943,0.0
11.714,0.746,-0.942,0.0
10.998,0.698,-0.947,0.0
10.35,0.655,-0.949,0.0
9.753,0.615,-0.948,0.0
13.65,0.855,-0.942,0.0
12.646,0.789,-0.942,0.0
11.766,0.732,-0.942,0.0
11.032,0.684,-0.945,0.0
10.378,0.641,-0.947,0.0
9.804,0.603,-0.949,0.0
13.86,0.847,-0.95,0.0
12.761,0.777,-0.945,0.0
11.833,0.718,-0.941,0.0
11.098,0.671,-0.945,0.0
10.445,0.629,-0.947,0.0
9.856,0.592,-0.949,0.0
13.911,0.83,-0.946,0.0
12.841,0.763,-0.944,0.0
11.891,0.704,-0.94,0.0
11.109,0.655,-0.94,0.0
10.491,0.617,-0.946,0.0
9.906,0.58,-0.948,0.0
13.941,0.811,-0.941,0.0
12.896,0.747,-0.941,0.0
11.985,0.692,-0.94,0.0
11.245,0.647,-0.945,0.0
10.559,0.605,-0.946,0.0
9.975,0.569,-0.949,0.0
14.057,0.797,-0.94,0.0
13.008,0.734,-0.941,0.0
12.063,0.678,-0.939,0.0
11.313,0.633,-0.944,0.0
10.581,0.59,-0.941,0.0
10.052,0.558,-0.95,0.0
14.274,0.788,-0.946,0.0
13.169,0.723,-0.944,0.0
12.206,0.668,-0.942,0.0
11.356,0.619,-0.94,0.0
10.679,0.579,-0.943,0.0
10.129,0.547,-0.95,0.0
14.34,0.77,-0.94,0.0
13.256,0.709,-0.942,0.0
12.357,0.658,-0.945,0.0
11.524,0.611,-0.946,0.0
10.803,0.57,-0.946,0.0
10.219,0.537,-0.951,0.0
14.463,0.755,-0.938,0.0
13.363,0.694,-0.94,0.0
12.453,0.644,-0.944,0.0
11.616,0.598,-0.945,0.0
10.943,0.561,-0.95,0.0
10.276,0.525,-0.949,0.0
14.62,0.741,-0.937,0.0
13.565,0.685,-0.943,0.0
12.592,0.632,-0.944,0.0
11.708,0.585,-0.943,0.0
11.02,0.548,-0.948,0.0
10.359,0.513,-0.948,0.0
14.779,0.727,-0.935,0.0
0.0,0.0,0.0,0.0
12.745,0.621,-0.945,0.0
11.844,0.574,-0.944,0.0
11.167,0.539,-0.951,0.0
10.46,0.503,-0.948,0.0
14.979,0.715,-0.935,0.0
0.0,0.0,0.0,0.0
12.889,0.609,-0.945,0.0
11.971,0.563,-0.944,0.0
11.263,0.527,-0.95,0.0
10.591,0.493,-0.951,0.0
15.154,0.701,-0.933,0.0
20.195,0.929,-1.353,0.0
13.071,0.598,-0.947,0.0
12.134,0.553,-0.946,0.0
11.38,0.516,-0.949,0.0
10.673,0.481,-0.948,0.0
15.364,0.688,-0.931,0.0
14.361,0.64,-0.948,0.0
13.137,0.582,-0.939,0.0
12.304,0.542,-0.947,0.0
11.497,0.504,-0.948,0.0
10.78,0.47,-0.947,0.0
15.67,0.679,-0.935,0.0
14.493,0.624,-0.943,0.0
13.435,0.576,-0.947,0.0
12.449,0.53,-0.946,0.0
11.623,0.493,-0.946,0.0
10.915,0.46,-0.948,0.0
15.967,0.668,-0.936,0.0
14.678,0.611,-0.94,0.0
13.481,0.558,-0.936,0.0
12.618,0.519,-0.946,0.0
11.761,0.481,-0.945,0.0
11.109,0.452,-0.953,0.0
16.15,0.653,-0.93,0.0
14.891,0.599,-0.938,0.0
0.0,0.0,0.0,0.0
12.844,0.51,-0.949,0.0
11.968,0.473,-0.949,0.0
11.229,0.441,-0.951,0.0
16.433,0.641,-0.929,0.0
15.148,0.587,-0.938,0.0
14.07,0.542,-0.947,0.0
13.022,0.499,-0.948,0.0
12.157,0.463,-0.95,0.0
11.355,0.43,-0.949,0.0
16.722,0.629,-0.926,0.0
15.38,0.574,-0.934,0.0
14.341,0.532,-0.948,0.0
13.23,0.488,-0.947,0.0
12.311,0.451,-0.948,0.0
11.492,0.419,-0.947,0.0
16.968,0.614,-0.92,0.0
15.709,0.565,-0.936,0.0
14.563,0.52,-0.946,0.0
13.386,0.475,-0.943,0.0
12.568,0.443,-0.953,0.0
11.633,0.408,-0.944,0.0
17.462,0.608,-0.926,0.0
16.071,0.556,-0.938,0.0
14.739,0.506,-0.939,0.0
13.777,0.47,-0.953,0.0
12.726,0.431,-0.949,0.0
11.872,0.4,-0.949,0.0
17.933,0.599,-0.928,0.0
16.361,0.543,-0.934,0.0
15.075,0.497,-0.942,0.0
13.818,0.452,-0.938,0.0
12.957,0.421,-0.949,0.0
12.074,0.39,-0.949,0.0
18.284,0.586,-0.923,0.0
16.64,0.529,-0.929,0.0
15.32,0.484,-0.937,0.0
14.329,0.449,-0.954,0.0
13.239,0.412,-0.952,0.0
12.337,0.381,-0.954,0.0
18.682,0.574,-0.918,0.0
16.934,0.516,-0.923,0.0
15.648,0.473,-0.936,0.0
14.504,0.436,-0.946,0.0
13.394,0.399,-0.946,0.0
12.533,0.371,-0.952,0.0
19.367,0.569,-0.925,0.0
17.468,0.509,-0.928,0.0
16.099,0.466,-0.941,0.0
14.792,0.425,-0.945,0.0
0.0,0.0,0.0,0.0
12.771,0.361,-0.952,0.0
19.85,0.557,-0.921,0.0
17.931,0.499,-0.927,0.0
16.419,0.454,-0.937,0.0
15.112,0.414,-0.944,0.0
14.054,0.382,-0.953,0.0
13.015,0.351,-0.952,0.0
20.366,0.545,-0.916,0.0
18.433,0.49,-0.927,0.0
16.732,0.441,-0.93,0.0
15.409,0.402,-0.94,0.0
14.395,0.373,-0.955,0.0
13.263,0.341,-0.95,0.0
20.912,0.534,-0.91,0.0
18.797,0.476,-0.917,0.0
17.184,0.431,-0.93,0.0
15.787,0.393,-0.94,0.0
14.618,0.36,-0.948,0.0
13.476,0.329,-0.945,0.0
21.853,0.53,-0.918,0.0
19.509,0.469,-0.923,0.0
17.682,0.421,-0.93,0.0
16.232,0.383,-0.941,0.0
14.949,0.35,-0.946,0.0
13.921,0.323,-0.955,0.0
22.412,0.516,-0.908,0.0
20.217,0.461,-0.925,0.0
18.178,0.411,-0.928,0.0
16.576,0.371,-0.936,0.0
15.312,0.34,-0.945,0.0
14.303,0.314,-0.959,0.0
23.132,0.505,-0.9,0.0
20.755,0.449,-0.917,0.0
18.702,0.4,-0.925,0.0
16.986,0.36,-0.932,0.0
15.688,0.329,-0.943,0.0
14.545,0.302,-0.952,0.0
24.005,0.496,-0.896,0.0
21.523,0.44,-0.917,0.0
19.207,0.389,-0.919,0.0
17.578,0.352,-0.936,0.0
16.196,0.321,-0.948,0.0
14.871,0.292,-0.949,0.0
25.048,0.488,-0.894,0.0
22.351,0.431,-0.916,0.0
19.955,0.381,-0.923,0.0
18.065,0.341,-0.932,0.0
16.566,0.31,-0.942,0.0
15.224,0.282,-0.946,0.0
26.171,0.48,-0.891,0.0
22.96,0.417,-0.902,0.0
20.283,0.364,-0.903,2.0
18.63,0.331,-0.93,0.0
16.948,0.298,-0.935,0.0
15.6,0.271,-0.943,0.0
27.02,0.466,-0.874,0.0
23.995,0.409,-0.902,0.0
20.119,0.339,-0.862,10.0
20.013,0.333,-0.964,0.0
17.515,0.288,-0.936,0.0
16.156,0.263,-0.948,0.0
28.55,0.461,-0.874,0.0
25.018,0.399,-0.897,0.0
20.17,0.318,-0.829,3.0
20.239,0.315,-0.94,3.0
18.121,0.279,-0.937,0.0
16.523,0.251,-0.941,0.0
20.219,0.305,-0.584,0.0
20.226,0.302,-0.69,2.0
20.235,0.298,-0.797,9.0
20.26,0.295,-0.905,12.0
18.497,0.266,-0.923,7.0
17.009,0.241,-0.939,0.0
20.202,0.284,-0.548,16.0
20.232,0.281,-0.654,22.0
20.223,0.277,-0.76,25.0
20.16,0.273,-0.865,14.0
18.547,0.248,-0.893,2.0
17.674,0.233,-0.943,1.0
20.209,0.264,-0.511,27.0
20.206,0.26,-0.617,28.0
20.21,0.257,-0.722,28.0
0.0,0.0,0.0,0.0
0.0,0.0,0.0,0.0
18.328,0.224,-0.944,3.0
20.196,0.244,-0.474,22.0
20.184,0.241,-0.579,32.0
20.207,0.237,-0.685,32.0
20.208,0.234,-0.793,36.0
18.55,0.212,-0.824,41.0
18.493,0.208,-0.918,31.0
20.199,0.225,-0.437,28.0
20.179,0.222,-0.542,32.0
20.204,0.219,-0.647,31.0
0.0,0.0,0.0,0.0
18.51,0.194,-0.788,156.0
18.541,0.192,-0.886,50.0
20.178,0.206,-0.398,37.0
20.174,0.203,-0.504,30.0
20.195,0.2,-0.609,27.0
18.546,0.181,-0.657,19.0
18.513,0.178,-0.753,164.0
18.55,0.175,-0.851,54.0
20.184,0.189,-0.36,34.0
20.191,0.186,-0.465,26.0
20.209,0.183,-0.571,22.0
0.0,0.0,0.0,0.0
18.566,0.162,-0.719,153.0
18.507,0.159,-0.813,156.0
20.176,0.171,-0.321,37.0
20.189,0.169,-0.426,27.0
20.183,0.165,-0.531,17.0
21.594,0.174,-0.683,19.0
21.636,0.171,-0.796,152.0
18.516,0.144,-0.778,159.0
20.182,0.155,-0.282,36.0
20.196,0.152,-0.387,27.0
20.196,0.149,-0.492,10.0
21.637,0.157,-0.642,22.0
21.574,0.154,-0.752,178.0
21.668,0.151,-0.867,24.0
20.186,0.139,-0.243,33.0
20.206,0.136,-0.348,28.0
20.224,0.134,-0.453,0.0
32.455,0.211,-0.898,0.0
21.666,0.138,-0.712,155.0
21.663,0.135,-0.824,151.0
20.174,0.124,-0.203,26.0
20.208,0.121,-0.307,27.0
20.256,0.119,-0.413,0.0
32.937,0.19,-0.846,0.0
21.665,0.122,-0.668,15.0
21.615,0.119,-0.779,158.0
20.188,0.109,-0.162,33.0
20.209,0.107,-0.267,20.0
41.926,0.217,-0.771,2.0
0.0,0.0,0.0,0.0
0.0,0.0,0.0,0.0
21.688,0.104,-0.738,150.0
20.19,0.096,-0.122,33.0
20.189,0.093,-0.226,16.0
20.154,0.091,-0.33,0.0
38.32,0.168,-0.83,0.0
32.328,0.138,-0.867,1.0
27.873,0.116,-0.892,0.0
20.195,0.082,-0.081,29.0
20.218,0.08,-0.185,24.0
20.3,0.078,-0.291,0.0
40.504,0.153,-0.794,1.0
33.287,0.122,-0.825,1.0
31.126,0.11,-0.932,0.0
20.218,0.07,-0.04,37.0
20.228,0.068,-0.144,26.0
20.227,0.066,-0.248,0.0
20.229,0.064,-0.355,0.0
20.244,0.062,-0.459,0.0
20.23,0.06,-0.564,0.0
20.211,0.058,0.001,19.0
20.219,0.056,-0.102,19.0
20.236,0.054,-0.207,56.0
20.227,0.052,-0.313,6.0
20.237,0.051,-0.417,14.0
33.238,0.08,-0.858,4.0
20.263,0.048,0.043,10.0
20.257,0.046,-0.06,48.0
20.266,0.044,-0.165,150.0
20.263,0.042,-0.272,150.0
20.254,0.04,-0.376,150.0
20.264,0.039,-0.481,150.0
20.152,0.037,0.084,28.0
20.252,0.036,-0.019,152.0
20.259,0.034,-0.123,151.0
20.254,0.032,-0.229,151.0
20.258,0.031,-0.334,151.0
20.272,0.029,-0.439,150.0
20.146,0.028,0.127,28.0
20.27,0.026,0.023,151.0
20.256,0.025,-0.08,152.0
20.263,0.023,-0.187,151.0
20.262,0.021,-0.291,150.0
20.26,0.02,-0.396,150.0
20.132,0.019,0.169,27.0
20.172,0.017,0.065,36.0
20.227,0.016,-0.038,153.0
20.261,0.015,-0.144,150.0
20.273,0.013,-0.249,132.0
20.251,0.012,-0.352,26.0
20.131,0.011,0.212,27.0
20.124,0.009,0.108,29.0
20.28,0.008,0.004,150.0
20.254,0.007,-0.101,26.0
20.228,0.006,-0.205,10.0
20.233,0.004,-0.309,6.0
20.124,0.003,0.254,28.0
20.126,0.002,0.15,27.0
20.148,0.001,0.047,24.0
20.189,0.0,-0.058,18.0
20.193,0.0,-0.162,15.0
20.194,-0.001,-0.266,6.0
20.129,-0.002,0.297,29.0
20.122,-0.003,0.193,28.0
20.117,-0.004,0.089,31.0
20.131,-0.005,-0.015,14.0
20.175,-0.006,-0.119,23.0
20.192,-0.007,-0.223,2.0
20.118,-0.008,0.339,31.0
20.121,-0.009,0.236,26.0
20.125,-0.01,0.132,28.0
20.137,-0.011,0.027,26.0
20.157,-0.011,-0.076,23.0
20.182,-0.012,-0.179,22.0
20.127,-0.013,0.383,27.0
20.119,-0.014,0.279,26.0
20.116,-0.015,0.176,30.0
20.12,-0.015,0.07,36.0
20.128,-0.016,-0.032,28.0
20.167,-0.017,-0.136,26.0
20.124,-0.017,0.426,29.0
20.122,-0.018,0.322,29.0
20.122,-0.019,0.219,29.0
20.12,-0.019,0.113,34.0
20.146,-0.02,0.01,32.0
20.153,-0.02,-0.093,30.0
20.129,-0.021,0.469,28.0
20.125,-0.021,0.366,28.0
20.119,-0.022,0.262,24.0
20.116,-0.022,0.157,33.0
20.128,-0.023,0.053,40.0
20.132,-0.023,-0.049,34.0
20.148,-0.024,0.513,22.0
20.127,-0.024,0.409,28.0
20.123,-0.024,0.305,28.0
20.114,-0.025,0.199,34.0
20.134,-0.025,0.096,37.0
20.13,-0.025,-0.007,35.0
20.163,-0.026,0.556,22.0
20.131,-0.026,0.451,27.0
20.112,-0.026,0.348,28.0
20.11,-0.026,0.242,27.0
20.119,-0.026,0.139,32.0
20.144,-0.026,0.036,41.0
20.16,-0.027,0.599,19.0
20.133,-0.027,0.495,21.0
20.132,-0.027,0.391,25.0
20.122,-0.027,0.285,26.0
20.121,-0.027,0.181,37.0
20.123,-0.027,0.078,42.0
20.202,-0.028,0.643,26.0
20.141,-0.027,0.538,19.0
20.126,-0.027,0.434,28.0
20.114,-0.027,0.328,29.0
20.107,-0.027,0.225,31.0
20.126,-0.027,0.121,32.0
58.28,-0.08,1.982,51.0
20.143,-0.027,0.581,19.0
20.134,-0.027,0.477,24.0
20.118,-0.026,0.371,27.0
20.119,-0.026,0.268,25.0
20.109,-0.026,0.164,37.0
20.135,-0.026,0.727,24.0
20.194,-0.026,0.626,22.0
20.123,-0.026,0.52,19.0
20.114,-0.025,0.414,28.0
20.115,-0.024,0.31,30.0
20.122,-0.024,0.207,35.0
20.132,-0.025,0.77,26.0
58.279,-0.071,1.931,11.0
20.148,-0.023,0.563,19.0
20.127,-0.023,0.457,26.0
20.113,-0.022,0.353,28.0
20.118,-0.021,0.25,25.0
20.122,-0.022,0.813,28.0
20.134,-0.021,0.709,20.0
20.168,-0.021,0.607,19.0
20.138,-0.02,0.5,21.0
20.131,-0.019,0.396,26.0
20.122,-0.018,0.292,28.0
20.131,-0.019,0.856,26.0
20.124,-0.018,0.752,26.0
20.176,-0.017,0.65,27.0
20.129,-0.016,0.542,19.0
20.124,-0.015,0.439,27.0
20.123,-0.014,0.335,30.0
58.321,-0.044,2.605,165.0
20.114,-0.014,0.794,27.0
20.153,-0.013,0.691,22.0
20.172,-0.012,0.586,21.0
20.139,-0.011,0.481,24.0
20.127,-0.01,0.377,25.0
58.23,-0.03,2.722,255.0
20.118,-0.009,0.836,27.0
20.128,-0.008,0.732,28.0
20.187,-0.007,0.628,34.0
20.154,-0.005,0.523,21.0
20.131,-0.004,0.419,28.0
58.776,-0.015,2.869,34.0
20.104,-0.003,0.877,18.0
20.117,-0.002,0.774,27.0
20.179,-0.001,0.67,31.0
20.169,0.0,0.565,25.0
20.135,0.001,0.46,26.0
59.318,0.003,3.018,50.0
58.284,0.007,2.664,181.0
20.115,0.003,0.815,26.0
20.124,0.005,0.709,29.0
20.186,0.006,0.607,28.0
20.144,0.008,0.501,22.0
59.445,0.023,3.147,32.0
66.787,0.031,3.19,19.0
20.11,0.011,0.856,27.0
20.099,0.012,0.749,29.0
20.191,0.014,0.648,51.0
20.167,0.016,0.543,25.0
59.938,0.046,3.295,59.0
67.001,0.057,3.336,42.0
20.101,0.019,0.896,13.0
20.098,0.02,0.79,27.0
20.133,0.022,0.687,32.0
20.18,0.024,0.584,29.0
66.619,0.079,3.798,13.0
59.345,0.076,3.074,28.0
66.758,0.091,3.113,27.0
20.103,0.029,0.831,26.0
20.109,0.031,0.727,28.0
20.192,0.033,0.625,41.0
46.138,0.076,2.723,43.0
59.525,0.103,3.204,46.0
66.766,0.123,3.247,65.0
20.074,0.039,0.87,19.0
20.093,0.041,0.766,24.0
20.176,0.043,0.665,33.0
46.163,0.098,2.817,29.0
59.95,0.133,3.346,35.0
66.712,0.156,3.375,52.0
20.121,0.049,0.911,8.0
20.1,0.051,0.806,24.0
20.126,0.053,0.703,32.0
60.213,0.159,3.793,21.0
60.011,0.165,3.468,23.0
66.743,0.191,3.509,21.0
66.937,0.199,3.165,42.0
20.12,0.062,0.846,24.0
20.121,0.064,0.742,25.0
0.0,0.0,0.0,0.0
46.175,0.153,2.758,42.0
59.412,0.204,3.239,42.0
66.924,0.238,3.293,12.0
20.114,0.073,0.884,12.0
20.131,0.076,0.781,23.0
58.681,0.222,3.925,24.0
46.195,0.181,2.848,54.0
59.464,0.24,3.356,39.0
66.807,0.278,3.415,33.0
66.061,0.283,3.032,18.0
20.129,0.088,0.819,21.0
58.641,0.258,4.034,41.0
46.219,0.209,2.937,15.0
59.493,0.277,3.47,34.0
66.936,0.32,3.548,42.0
66.058,0.325,3.156,3.0
20.133,0.101,0.857,15.0
0.0,0.0,0.0,0.0
60.326,0.313,3.948,6.0
67.172,0.358,4.044,30.0
101.135,0.553,5.55,7.0
109.906,0.615,5.457,22.0
66.014,0.379,2.933,7.0
60.422,0.347,4.383,46.0
104.663,0.616,7.044,23.0
67.199,0.405,4.17,26.0
59.458,0.366,3.372,3.0
103.612,0.653,5.335,21.0
65.887,0.424,3.047,29.0
60.447,0.391,4.496,20.0
58.63,0.387,4.053,17.0
46.239,0.312,2.953,54.0
59.481,0.41,3.482,25.0
66.938,0.472,3.568,32.0
65.847,0.474,3.166,30.0
67.306,0.485,5.13,30.0
58.603,0.431,4.157,49.0
46.251,0.347,3.038,25.0
59.419,0.455,3.585,47.0
66.988,0.523,3.69,9.0
65.857,0.524,3.283,36.0
43.599,0.348,3.4,6.0
58.533,0.476,4.257,52.0
67.2,0.558,4.534,34.0
59.372,0.502,3.688,62.0
101.175,0.871,5.752,14.0
65.891,0.577,3.4,41.0
52.587,0.463,4.194,7.0
58.597,0.525,4.364,60.0
67.209,0.613,4.652,23.0
59.36,0.55,3.79,30.0
101.228,0.955,5.931,22.0
66.382,0.637,3.54,44.0
52.6,0.507,4.287,28.0
58.608,0.574,4.467,32.0
67.236,0.67,4.769,19.0
59.37,0.601,3.892,22.0
101.502,1.043,6.119,6.0
67.087,0.701,3.691,33.0
58.194,0.611,4.842,20.0
43.377,0.463,3.38,3.0
67.18,0.728,4.878,12.0
46.303,0.509,3.113,51.0
59.692,0.667,3.699,21.0
67.183,0.762,3.809,17.0
58.664,0.669,4.98,24.0
43.374,0.501,3.452,7.0
67.392,0.79,5.006,11.0
46.343,0.551,3.192,58.0
59.699,0.72,3.797,26.0
67.364,0.825,3.929,10.0
40.403,0.497,3.495,9.0
52.495,0.655,4.263,21.0
67.351,0.852,5.112,5.0
46.362,0.595,3.269,72.0
59.738,0.777,3.896,27.0
67.479,0.89,4.044,26.0
40.417,0.535,3.562,45.0
52.406,0.704,4.34,26.0
68.775,0.936,5.331,21.0
46.376,0.639,3.343,63.0
59.79,0.835,3.994,38.0
67.553,0.956,4.155,13.0
44.024,0.626,3.95,9.0
52.24,0.753,4.409,8.0
52.977,0.773,4.189,8.0
46.412,0.686,3.419,67.0
59.871,0.896,4.093,31.0
67.571,1.024,4.262,22.0
44.542,0.679,4.066,4.0
44.006,0.678,3.782,3.0
46.451,0.725,3.745,32.0
46.45,0.733,3.493,9.0
59.83,0.956,4.181,53.0
67.591,1.092,4.365,20.0
52.376,0.851,4.861,39.0
40.413,0.664,3.534,29.0
46.43,0.772,3.812,56.0
67.693,1.138,5.191,43.0
59.72,1.015,4.261,49.0
67.616,1.162,4.464,56.0
40.459,0.699,3.814,10.0
40.419,0.706,3.594,11.0
46.422,0.82,3.879,36.0
42.63,0.761,3.331,8.0
59.754,1.079,4.35,33.0
68.009,1.241,4.589,15.0
40.462,0.743,3.873,37.0
40.386,0.749,3.649,19.0
46.435,0.87,3.947,54.0
57.952,1.097,4.61,9.0
59.551,1.139,4.419,33.0
68.707,1.327,4.731,8.0
46.593,0.905,4.525,2.0
40.25,0.79,3.693,38.0
46.477,0.922,4.015,14.0
43.277,0.867,3.502,4.0
59.641,1.206,4.507,33.0
53.502,1.092,3.758,3.0
46.569,0.957,4.587,45.0
40.295,0.836,3.753,26.0
40.409,0.846,3.546,27.0
52.367,1.108,4.309,11.0
0.0,0.0,0.0,0.0
66.317,1.428,4.746,9.0
46.553,1.009,4.648,8.0
52.507,1.148,4.959,29.0
40.341,0.89,3.593,15.0
43.125,0.961,3.605,11.0
0.0,0.0,0.0,0.0
66.336,1.505,4.833,26.0
37.095,0.847,3.752,1.0
40.435,0.931,3.871,46.0
43.083,1.001,3.893,17.0
43.574,1.021,3.698,13.0
0.0,0.0,0.0,0.0
52.869,1.26,3.918,6.0
59.656,1.431,6.11,2.0
46.568,1.126,4.517,10.0
43.887,1.07,4.019,5.0
40.405,0.993,3.478,4.0
43.132,1.07,3.481,2.0
102.053,2.552,7.687,8.0
36.945,0.93,3.829,3.0
46.572,1.182,4.574,26.0
40.364,1.032,3.745,64.0
40.398,1.041,3.526,30.0
52.246,1.358,4.278,13.0
57.792,1.514,4.421,3.0
37.002,0.975,3.878,4.0
46.604,1.239,4.631,11.0
40.36,1.081,3.792,36.0
40.4,1.09,3.573,21.0
60.021,1.632,4.984,8.0
57.673,1.581,4.477,16.0
46.345,1.278,4.911,5.0
61.002,1.695,6.132,2.0
52.963,1.483,5.036,7.0
52.423,1.478,4.695,7.0
51.22,1.455,4.309,5.0
57.779,1.653,4.549,8.0
46.362,1.336,4.964,6.0
0.0,0.0,0.0,0.0
53.444,1.562,5.14,8.0
40.413,1.189,3.663,57.0
52.545,1.558,4.477,6.0
57.868,1.728,4.618,7.0
59.255,1.782,6.408,7.0
57.638,1.745,5.918,3.0
54.397,1.658,5.289,4.0
40.408,1.24,3.704,37.0
52.603,1.625,4.537,13.0
43.694,1.36,3.531,3.0
46.66,1.462,5.094,16.0
59.211,1.867,6.14,4.0
43.819,1.391,4.304,16.0
43.683,1.396,4.048,9.0
46.788,1.505,4.081,9.0
50.205,1.626,4.107,4.0
46.511,1.517,5.123,11.0
46.223,1.517,4.838,3.0
52.38,1.73,5.196,5.0
43.685,1.451,4.09,5.0
46.901,1.568,4.135,2.0
42.648,1.435,3.528,3.0
46.338,1.57,5.148,13.0
46.252,1.577,4.884,8.0
52.409,1.798,5.247,4.0
46.212,1.595,4.369,6.0
46.866,1.627,4.175,5.0
51.012,1.782,4.266,4.0
46.362,1.631,5.192,4.0
46.859,1.658,4.99,5.0
60.224,2.144,6.083,22.0
52.772,1.89,5.035,6.0
53.12,1.914,4.777,12.0
47.003,1.703,3.971,4.0
46.472,1.695,5.244,8.0
46.8,1.717,5.023,3.0
60.432,2.23,6.154,10.0
53.275,1.976,5.127,5.0
53.171,1.984,4.825,11.0
46.897,1.759,3.999,3.0
46.8,1.768,5.319,12.0
59.699,2.268,6.455,12.0
46.148,1.763,4.735,3.0
52.506,2.017,5.094,6.0
46.129,1.781,4.222,3.0
46.953,1.823,4.04,7.0
46.895,1.834,5.365,4.0
46.161,1.814,5.026,5.0
46.082,1.821,4.763,9.0
52.48,2.084,5.13,4.0
46.089,1.84,4.252,4.0
46.979,1.885,4.076,8.0
59.791,2.417,6.884,18.0
46.183,1.876,5.061,7.0
46.61,1.902,4.85,3.0
43.859,1.799,4.317,2.0
46.085,1.9,4.282,9.0
47.042,1.949,4.113,5.0
59.184,2.471,6.853,16.0
46.38,1.945,5.113,14.0
46.67,1.967,4.887,11.0
59.256,2.509,5.872,6.0
46.033,1.959,4.307,7.0
53.293,2.279,4.693,2.0
58.888,2.536,6.857,10.0
46.735,2.022,5.182,11.0
46.603,2.025,4.908,4.0
43.967,1.92,4.383,1.0
46.049,2.02,4.336,4.0
50.621,2.231,4.487,2.0
59.405,2.637,6.951,6.0
46.83,2.088,5.219,4.0
59.869,2.681,6.34,7.0
45.818,2.061,4.593,5.0
46.042,2.081,4.361,4.0
50.538,2.294,4.507,2.0
0.0,0.0,0.0,0.0
46.952,2.155,5.258,7.0
59.693,2.752,6.352,3.0
45.824,2.121,4.617,4.0
43.483,2.022,4.14,3.0
52.386,2.446,4.697,1.0
0.0,0.0,0.0,0.0
47.101,2.224,5.297,7.0
46.242,2.192,4.942,2.0
44.06,2.097,4.46,2.0
43.484,2.079,4.16,3.0
45.899,2.203,4.136,2.0
0.0,0.0,0.0,0.0
47.19,2.29,5.327,3.0
46.23,2.252,4.961,6.0
59.199,2.895,6.017,5.0
43.508,2.137,4.18,2.0
59.808,2.949,5.414,2.0
46.697,2.319,5.552,1.0
60.344,3.009,6.836,6.0
46.201,2.312,4.976,6.0
46.754,2.349,4.77,5.0
43.447,2.191,4.19,3.0
45.959,2.327,4.177,1.0
46.735,2.383,5.573,1.0
47.295,2.421,5.375,4.0
46.178,2.373,4.989,9.0
46.698,2.408,4.78,3.0
45.627,2.362,4.415,5.0
45.972,2.388,4.193,8.0
0.0,0.0,0.0,0.0
47.317,2.484,5.391,3.0
46.37,2.443,5.024,18.0
46.722,2.47,4.795,3.0
43.464,2.305,4.218,2.0
45.928,2.444,4.201,3.0
60.456,3.241,7.244,1.0
47.403,2.55,5.414,2.0
45.689,2.466,4.961,19.0
59.416,3.218,6.113,3.0
43.403,2.359,4.222,2.0
45.569,2.485,4.179,2.0
0.0,0.0,0.0,0.0
46.083,2.539,5.273,2.0
46.251,2.556,5.032,7.0
47.173,2.616,4.863,5.0
43.487,2.419,4.239,2.0
0.0,0.0,0.0,0.0
47.234,2.663,5.413,1.0
46.236,2.615,5.037,9.0
46.5,2.638,4.8,2.0
45.551,2.592,4.447,3.0
47.733,2.744,5.745,1.0
47.257,2.725,5.421,1.0
46.225,2.673,5.042,5.0
45.757,2.671,4.215,3.0
47.777,2.808,5.755,1.0
47.186,2.781,5.417,1.0
46.19,2.73,5.041,6.0
45.408,2.692,4.695,1.0
45.81,2.723,4.479,4.0
46.035,2.744,4.243,8.0
0.0,0.0,0.0,0.0
46.994,2.829,5.396,4.0
46.202,2.789,5.044,3.0
45.806,2.78,4.48,8.0
47.009,2.861,4.333,1.0
0.0,0.0,0.0,0.0
47.209,2.901,5.42,2.0
46.272,2.851,5.05,0.0
45.754,2.833,4.473,13.0
0.0,0.0,0.0,0.0
47.175,2.956,5.414,3.0
0.0,0.0,0.0,0.0
45.587,2.879,4.453,9.0
45.522,2.882,4.191,1.0
0.0,0.0,0.0,0.0
47.195,3.015,5.411,1.0
0.0,0.0,0.0,0.0
45.568,2.932,4.446,14.0
45.489,2.935,4.182,3.0
0.0,0.0,0.0,0.0
0.0,0.0,0.0,0.0
0.0,0.0,0.0,0.0
45.439,2.979,4.426,14.0
47.566,3.126,4.365,2.0
0.0,0.0,0.0,0.0
46.212,3.063,5.283,2.0
0.0,0.0,0.0,0.0
45.518,3.037,4.425,8.0
45.562,3.048,4.171,2.0
0.0,0.0,0.0,0.0
46.207,3.117,5.272,4.0
0.0,0.0,0.0,0.0
45.651,3.1,4.426,8.0
47.393,3.225,4.327,1.0
0.0,0.0,0.0,0.0
46.134,3.166,5.251,1.0
0.0,0.0,0.0,0.0
45.634,3.144,4.67,1.0
45.666,3.153,4.414,1.0
0.0,0.0,0.0,0.0
0.0,0.0,0.0,0.0
0.0,0.0,0.0,0.0
47.827,3.356,4.607,4.0
45.61,3.207,4.135,1.0
46.12,3.263,5.483,4.0
0.0,0.0,0.0,0.0
0.0,0.0,0.0,0.0
45.625,3.258,4.119,3.0
0.0,0.0,0.0,0.0
0.0,0.0,0.0,0.0
46.235,3.334,4.949,2.0
45.294,3.271,4.585,3.0
0.0,0.0,0.0,0.0
0.0,0.0,0.0,0.0
0.0,0.0,0.0,0.0
45.601,3.342,4.596,1.0
47.276,3.471,4.495,2.0
0.0,0.0,0.0,0.0
0.0,0.0,0.0,0.0
0.0,0.0,0.0,0.0
45.552,3.386,4.569,4.0
0.0,0.0,0.0,0.0
0.0,0.0,0.0,0.0
0.0,0.0,0.0,0.0
45.5,3.428,4.539,1.0
0.0,0.0,0.0,0.0
0.0,0.0,0.0,0.0
0.0,0.0,0.0,0.0
0.0,0.0,0.0,0.0
0.0,0.0,0.0,0.0
45.384,3.518,3.956,2.0
0.0,0.0,0.0,0.0
0.0,0.0,0.0,0.0
45.407,3.548,4.712,3.0
114.566,8.986,9.912,8.0
0.0,0.0,0.0,0.0
0.0,0.0,0.0,0.0
115.984,9.202,9.954,5.0
0.0,0.0,0.0,0.0
0.0,0.0,0.0,0.0
0.0,0.0,0.0,0.0
46.038,3.684,4.445,1.0
116.171,9.306,10.551,2.0
116.154,9.316,9.885,5.0
45.145,3.64,5.108,3.0
45.274,3.654,4.862,3.0
0.0,0.0,0.0,0.0
46.056,3.725,4.411,1.0
116.211,9.409,10.465,3.0
116.191,9.418,9.798,6.0
0.0,0.0,0.0,0.0
0.0,0.0,0.0,0.0
0.0,0.0,0.0,0.0
46.052,3.762,4.374,0.0
116.162,9.5,10.368,6.0
116.338,9.524,9.717,5.0
0.0,0.0,0.0,0.0
0.0,0.0,0.0,0.0
0.0,0.0,0.0,0.0
114.946,9.482,10.823,10.0
0.0,0.0,0.0,0.0
117.844,9.739,9.745,6.0
0.0,0.0,0.0,0.0
0.0,0.0,0.0,0.0
115.748,9.629,11.477,4.0
115.577,9.621,10.784,7.0
117.492,9.789,10.287,4.0
112.624,9.392,9.215,8.0
0.0,0.0,0.0,0.0
0.0,0.0,0.0,0.0
46.124,3.87,4.532,0.0
115.916,9.733,10.712,3.0
115.441,9.701,10.005,8.0
112.603,9.47,9.113,4.0
0.0,0.0,0.0,0.0
114.87,9.713,11.844,3.0
46.033,3.895,4.481,0.0
115.403,9.77,10.557,2.0
109.502,9.278,9.386,1.0
115.46,9.789,9.236,7.0
0.0,0.0,0.0,0.0
114.947,9.797,11.742,8.0
0.0,0.0,0.0,0.0
114.919,9.804,10.404,1.0
109.682,9.364,9.298,2.0
96.458,8.239,7.624,4.0
0.0,0.0,0.0,0.0
115.061,9.878,11.642,5.0
0.0,0.0,0.0,0.0
115.179,9.897,10.313,4.0
109.771,9.438,9.198,2.0
115.818,9.964,9.038,6.0
0.0,0.0,0.0,0.0
114.993,9.941,11.517,5.0
115.049,9.949,10.859,2.0
114.96,9.947,10.175,9.0
109.775,9.502,9.085,2.0
96.454,8.353,7.428,7.0
115.111,10.012,12.075,4.0
114.868,9.995,11.385,11.0
115.029,10.011,10.737,14.0
114.948,10.008,10.055,12.0
109.352,9.525,8.935,6.0
96.58,8.416,7.337,5.0
114.853,10.051,11.926,8.0
115.007,10.066,11.277,5.0
113.991,9.98,10.518,9.0
99.404,8.704,8.589,4.0
109.54,9.596,8.833,4.0
114.537,10.037,8.579,5.0
0.0,0.0,0.0,0.0
115.066,10.127,11.156,2.0
115.997,10.211,10.576,7.0
113.998,10.036,9.725,3.0
112.704,9.925,8.965,4.0
96.525,8.503,7.123,5.0
114.84,10.157,11.671,6.0
115.087,10.179,11.029,5.0
86.078,7.615,7.75,3.0
0.0,0.0,0.0,0.0
98.214,8.692,7.701,1.0
112.685,9.975,8.187,2.0
115.121,10.229,11.566,2.0
0.0,0.0,0.0,0.0
86.078,7.65,7.65,3.0
85.961,7.64,7.135,1.0
109.685,9.75,8.472,9.0
96.471,8.577,6.896,2.0
115.121,10.273,11.429,3.0
114.695,10.234,10.722,9.0
114.759,10.24,10.064,3.0
99.383,8.868,8.131,2.0
84.732,7.562,6.443,4.0
0.0,0.0,0.0,0.0
114.657,10.269,11.245,8.0
114.523,10.257,10.568,4.0
86.114,7.712,7.448,2.0
99.359,8.898,8.009,6.0
91.98,8.237,6.884,5.0
97.508,8.734,6.737,3.0
0.0,0.0,0.0,0.0
99.306,8.922,9.042,3.0
86.203,7.744,7.35,1.0
98.942,8.888,7.855,13.0
84.776,7.615,6.242,5.0
97.381,8.748,6.61,5.0
0.0,0.0,0.0,0.0
114.911,10.352,10.322,4.0
109.276,9.843,9.183,3.0
97.984,8.824,7.658,2.0
84.831,7.639,6.141,3.0
107.581,9.687,7.169,5.0
0.0,0.0,0.0,0.0
85.224,7.695,7.546,1.0
108.127,9.76,8.95,7.0
98.223,8.866,7.552,4.0
109.657,9.896,7.799,3.0
107.481,9.698,7.025,3.0
111.227,10.064,10.351,1.0
107.957,9.766,9.421,2.0
0.0,0.0,0.0,0.0
96.281,8.704,7.279,2.0
91.752,8.293,6.408,3.0
99.396,8.983,6.369,1.0
109.166,9.892,10.017,2.0
98.949,8.962,8.506,2.0
86.16,7.802,6.908,1.0
96.576,8.742,7.175,5.0
86.185,7.799,5.906,2.0
109.836,9.937,6.894,6.0
114.96,10.427,10.397,5.0
86.119,7.807,7.288,2.0
98.53,8.928,7.769,11.0
96.785,8.768,7.062,3.0
97.08,8.791,6.523,4.0
85.234,7.716,5.237,2.0
109.142,9.904,9.724,5.0
108.167,9.81,9.01,2.0
108.004,9.791,8.371,4.0
84.852,7.688,6.077,5.0
84.903,7.691,5.592,2.0
78.325,7.092,4.707,5.0
109.173,9.906,9.579,2.0
107.698,9.766,8.825,2.0
98.125,8.893,7.472,3.0
107.645,9.752,7.565,4.0
109.883,9.95,7.088,2.0
78.287,7.086,4.599,3.0
99.107,8.989,8.559,1.0
97.854,8.869,7.883,4.0
96.51,8.742,7.218,3.0
91.754,8.307,6.323,2.0
109.875,9.942,6.937,6.0
91.601,8.284,5.257,3.0
107.804,9.768,9.161,3.0
99.401,9.0,7.872,4.0
96.993,8.776,7.121,2.0
97.153,8.786,6.561,4.0
87.622,7.919,5.411,3.0
91.718,8.285,5.136,4.0
108.021,9.773,9.029,5.0
108.073,9.77,8.407,4.0
84.873,7.668,6.111,4.0
85.02,7.675,5.622,2.0
78.353,7.069,4.73,4.0
109.831,9.904,5.997,5.0
86.271,7.79,7.09,1.0
98.302,8.869,7.51,3.0
109.667,9.887,7.744,6.0
113.322,10.209,7.336,2.0
96.247,8.665,5.676,5.0
85.916,7.73,4.573,5.0
99.07,8.924,8.003,3.0
84.805,7.633,6.36,4.0
97.356,8.755,6.738,3.0
90.171,8.102,5.711,2.0
86.71,7.786,4.991,2.0
97.195,8.721,5.036,5.0
99.245,8.914,7.876,4.0
91.973,8.253,6.766,4.0
97.338,8.726,6.598,5.0
95.942,8.594,5.939,2.0
84.92,7.601,4.767,2.0
106.7,9.542,5.377,3.0
99.901,8.942,7.785,6.0
96.541,8.633,6.964,2.0
85.059,7.598,5.644,4.0
78.254,6.985,4.732,3.0
85.452,7.62,4.675,3.0
106.669,9.504,5.222,2.0
109.676,9.778,8.388,8.0
96.905,8.63,6.849,2.0
100.471,8.939,6.521,2.0
86.662,7.703,5.116,3.0
86.135,7.649,4.589,5.0
98.62,8.75,4.687,2.0
96.791,8.591,7.262,8.0
97.167,8.615,6.728,6.0
85.49,7.572,5.426,1.0
86.801,7.68,4.999,2.0
97.169,8.588,5.037,6.0
110.431,9.751,5.089,5.0
112.632,9.948,8.286,6.0
107.284,9.464,7.273,7.0
85.361,7.521,5.293,4.0
85.129,7.493,4.78,3.0
89.596,7.878,4.515,2.0
107.829,9.471,4.813,4.0
96.546,8.481,6.963,2.0
91.886,8.061,6.096,2.0
91.646,8.03,5.55,4.0
85.886,7.516,4.697,6.0
97.512,8.525,4.772,1.0
99.798,8.715,4.31,4.0
106.671,9.314,7.538,3.0
85.423,7.448,5.542,1.0
84.717,7.378,5.007,2.0
96.654,8.406,5.145,4.0
88.23,7.664,4.188,3.0
99.768,8.656,4.163,5.0
107.549,9.329,7.44,8.0
85.361,7.394,5.413,4.0
99.06,8.568,5.71,5.0
97.09,8.386,5.027,4.0
87.635,7.561,4.033,12.0
109.877,9.468,4.426,4.0
92.079,7.931,6.237,4.0
91.417,7.862,5.664,5.0
85.233,7.319,4.79,3.0
89.59,7.683,4.51,1.0
143.656,12.303,6.405,7.0
121.068,10.355,4.703,8.0
85.524,7.31,5.668,5.0
91.544,7.812,5.539,6.0
92.027,7.841,5.038,4.0
88.295,7.512,4.316,1.0
98.891,8.402,4.265,3.0
121.212,10.284,4.532,7.0
97.842,8.294,6.343,5.0
91.658,7.757,5.413,10.0
92.234,7.794,4.916,3.0
91.891,7.752,4.359,9.0
98.964,8.337,4.126,6.0
144.135,12.125,5.181,11.0
0.0,0.0,0.0,0.0
91.752,7.697,5.285,4.0
108.138,9.056,5.608,3.0
87.442,7.312,4.022,5.0
143.595,11.988,5.781,19.0
157.036,13.09,5.42,16.0
91.4,7.608,5.66,9.0
92.061,7.65,5.171,4.0
96.825,8.032,4.88,5.0
99.275,8.221,4.424,5.0
143.767,11.887,5.581,20.0
162.747,13.434,5.385,3.0
91.564,7.547,5.539,5.0
92.313,7.595,5.054,9.0
92.086,7.562,4.511,7.0
109.888,9.009,4.741,6.0
154.809,12.669,5.789,12.0
160.534,13.115,5.082,15.0
108.834,8.875,6.428,2.0
107.747,8.77,5.743,7.0
96.793,7.863,4.602,4.0
109.801,8.903,4.578,2.0
193.624,15.67,6.961,5.0
160.566,12.971,4.853,9.0
109.215,8.806,6.292,2.0
121.733,9.795,6.313,4.0
96.78,7.772,4.462,1.0
0.0,0.0,0.0,0.0
0.0,0.0,0.0,0.0
154.978,12.376,4.463,20.0
92.009,7.331,5.17,7.0
96.562,7.678,4.872,3.0
99.138,7.867,4.431,3.0
166.965,13.222,6.489,5.0
167.044,13.202,5.535,16.0
155.146,12.236,4.25,19.0
92.015,7.24,5.041,4.0
96.64,7.587,4.738,2.0
110.072,8.623,4.765,5.0
154.504,12.079,5.788,3.0
181.193,14.136,5.748,7.0
155.474,12.106,4.042,18.0
100.068,7.77,5.341,2.0
119.88,9.287,5.71,5.0
156.875,12.125,6.571,5.0
154.595,11.922,5.574,12.0
172.677,13.288,5.235,6.0
161.607,12.409,3.976,9.0
110.86,8.487,5.762,5.0
119.937,9.161,5.544,7.0
96.524,7.355,3.908,1.0
157.004,11.936,5.443,5.0
156.995,11.909,4.543,35.0
156.146,11.817,3.624,34.0
96.374,7.271,4.876,4.0
96.323,7.248,4.32,8.0
0.0,0.0,0.0,0.0
163.668,12.258,5.45,14.0
166.707,12.455,4.596,14.0
162.181,12.089,3.543,14.0
163.368,12.137,8.042,4.0
110.366,8.178,4.8,5.0
163.668,12.097,6.18,4.0
166.553,12.279,5.319,20.0
155.816,11.46,4.085,19.0
173.878,12.757,3.566,7.0
110.527,8.08,5.292,1.0
107.832,7.862,4.545,3.0
166.257,12.089,6.055,12.0
160.816,11.662,4.92,6.0
162.021,11.718,4.031,21.0
173.546,12.52,3.325,21.0
107.365,7.716,4.996,3.0
161.683,11.586,6.597,13.0
153.631,10.98,5.39,5.0
155.828,11.105,4.56,22.0
168.074,11.945,3.957,16.0
173.611,12.305,3.097,21.0
121.747,8.594,5.503,2.0
154.29,10.86,6.092,6.0
155.863,10.94,5.263,10.0
161.706,11.316,4.519,18.0
174.727,12.193,3.886,13.0
0.0,0.0,0.0,0.0
107.758,7.466,4.731,2.0
155.912,10.77,5.954,10.0
161.73,11.137,5.251,10.0
173.03,11.881,4.613,8.0
173.567,11.881,3.636,12.0
0.0,0.0,0.0,0.0
110.123,7.482,4.692,4.0
156.979,10.632,5.792,5.0
173.419,11.708,5.409,7.0
178.21,11.994,4.523,16.0
0.0,0.0,0.0,0.0
0.0,0.0,0.0,0.0
110.899,7.382,4.585,1.0
161.927,10.743,5.771,14.0
162.708,10.758,4.869,13.0
173.946,11.466,4.196,15.0
203.2,13.349,3.743,6.0
0.0,0.0,0.0,0.0
0.0,0.0,0.0,0.0
162.784,10.569,5.598,4.0
174.088,11.263,4.993,7.0
195.259,12.588,4.467,5.0
209.23,13.443,3.593,6.0
200.202,12.82,2.299,4.0
0.0,0.0,0.0,0.0
0.0,0.0,0.0,0.0
0.0,0.0,0.0,0.0
197.996,12.474,4.287,6.0
0.0,0.0,0.0,0.0
207.39,12.974,2.13,25.0
154.796,9.628,5.826,3.0
166.29,10.306,5.311,5.0
195.704,12.081,5.135,7.0
0.0,0.0,0.0,0.0
202.641,12.418,2.992,6.0
0.0,0.0,0.0,0.0
0.0,0.0,0.0,0.0
0.0,0.0,0.0,0.0
0.0,0.0,0.0,0.0
0.0,0.0,0.0,0.0
208.218,12.439,2.83,9.0
197.521,11.754,1.563,21.0
0.0,0.0,0.0,0.0
195.126,11.493,5.775,6.0
0.0,0.0,0.0,0.0
0.0,0.0,0.0,0.0
0.0,0.0,0.0,0.0
197.459,11.438,1.334,31.0
192.93,11.102,6.585,12.0
194.702,11.155,5.539,8.0
0.0,0.0,0.0,0.0
0.0,0.0,0.0,0.0
207.57,11.738,2.346,13.0
197.383,11.112,1.11,19.0
193.369,10.815,6.384,6.0
195.959,10.909,5.356,22.0
196.071,10.864,4.245,54.0
196.067,10.813,3.112,19.0
196.058,10.765,1.998,150.0
196.114,10.719,0.887,15.0
196.101,10.642,6.259,20.0
0.0,0.0,0.0,0.0
0.0,0.0,0.0,0.0
0.0,0.0,0.0,0.0
206.885,11.011,1.884,9.0
197.425,10.461,0.681,4.0
193.655,10.183,5.972,24.0
197.489,10.331,4.969,8.0
0.0,0.0,0.0,0.0
0.0,0.0,0.0,0.0
197.149,10.158,1.588,36.0
0.0,0.0,0.0,0.0
194.088,9.874,5.782,13.0
196.005,9.918,4.728,9.0
197.618,9.946,3.647,7.0
197.757,9.902,2.51,24.0
196.989,9.81,1.385,33.0
0.0,0.0,0.0,0.0
194.088,9.537,5.584,20.0
0.0,0.0,0.0,0.0
199.232,9.681,3.477,6.0
0.0,0.0,0.0,0.0
197.09,9.472,1.19,23.0
0.0,0.0,0.0,0.0
0.0,0.0,0.0,0.0
0.0,0.0,0.0,0.0
204.936,9.594,3.375,35.0
0.0,0.0,0.0,0.0
197.026,9.118,0.998,32.0
0.0,0.0,0.0,0.0
193.917,8.844,5.204,9.0
195.455,8.857,4.14,6.0
204.982,9.229,3.182,36.0
204.869,9.17,2.003,18.0
195.573,8.697,0.807,22.0
0.0,0.0,0.0,0.0
192.876,8.443,4.995,5.0
0.0,0.0,0.0,0.0
0.0,0.0,0.0,0.0
196.544,8.432,1.739,9.0
196.902,8.392,0.632,15.0
0.0,0.0,0.0,0.0
0.0,0.0,0.0,0.0
0.0,0.0,0.0,0.0
199.082,8.232,2.728,6.0
196.611,8.071,1.565,25.0
0.0,0.0,0.0,0.0
0.0,0.0,0.0,0.0
196.655,7.877,4.742,7.0
0.0,0.0,0.0,0.0
0.0,0.0,0.0,0.0
196.533,7.699,1.396,31.0
0.0,0.0,0.0,0.0
0.0,0.0,0.0,0.0
0.0,0.0,0.0,0.0
0.0,0.0,0.0,0.0
203.089,7.631,2.44,10.0
196.386,7.321,1.233,29.0
0.0,0.0,0.0,0.0
0.0,0.0,0.0,0.0
195.128,7.073,4.383,12.0
202.99,7.297,3.417,8.0
202.8,7.229,2.273,29.0
196.374,6.941,1.077,33.0
0.0,0.0,0.0,0.0
0.0,0.0,0.0,0.0
195.108,6.696,4.231,20.0
195.037,6.636,3.133,20.0
0.0,0.0,0.0,0.0
196.367,6.56,0.928,32.0
0.0,0.0,0.0,0.0
0.0,0.0,0.0,0.0
193.866,6.278,4.061,8.0
195.269,6.265,2.994,8.0
0.0,0.0,0.0,0.0
196.223,6.171,0.784,28.0
0.0,0.0,0.0,0.0
69.007,2.128,-0.498,6.0
193.617,5.889,3.918,24.0
195.333,5.878,2.856,18.0
195.97,5.836,1.765,12.0
196.277,5.784,0.647,9.0
0.0,0.0,0.0,0.0
68.948,1.986,-0.546,3.0
193.421,5.495,3.781,36.0
195.319,5.487,2.723,25.0
0.0,0.0,0.0,0.0
0.0,0.0,0.0,0.0
0.0,0.0,0.0,0.0
0.0,0.0,0.0,0.0
193.496,5.107,3.658,33.0
195.151,5.091,2.596,19.0
103.094,2.655,0.794,6.0
100.255,2.552,0.201,3.0
0.0,0.0,0.0,0.0
0.0,0.0,0.0,0.0
193.739,4.727,3.545,22.0
0.0,0.0,0.0,0.0
102.967,2.445,0.732,3.0
100.111,2.345,0.141,9.0
0.0,0.0,0.0,0.0
0.0,0.0,0.0,0.0
194.232,4.346,3.443,19.0
0.0,0.0,0.0,0.0
99.967,2.17,0.654,2.0
100.028,2.138,0.085,6.0
0.0,0.0,0.0,0.0
58.024,1.202,-0.598,0.0
0.0,0.0,0.0,0.0
103.212,2.063,1.197,6.0
99.854,1.962,0.6,5.0
0.0,0.0,0.0,0.0
0.0,0.0,0.0,0.0
0.0,0.0,0.0,0.0
194.755,3.557,3.248,26.0
0.0,0.0,0.0,0.0
99.813,1.756,0.551,5.0
99.906,1.726,-0.015,5.0
0.0,0.0,0.0,0.0
0.0,0.0,0.0,0.0
194.779,3.156,3.157,36.0
0.0,0.0,0.0,0.0
99.726,1.547,0.505,6.0
99.698,1.513,-0.06,2.0
0.0,0.0,0.0,0.0
0.0,0.0,0.0,0.0
20.305,0.286,0.32,0.0
0.0,0.0,0.0,0.0
99.636,1.336,0.462,5.0
99.614,1.301,-0.102,1.0
0.0,0.0,0.0,0.0
20.198,0.25,-0.245,13.0
20.3,0.243,0.312,27.0
20.303,0.236,0.199,23.0
20.31,0.23,0.086,18.0
20.308,0.223,-0.028,1.0
20.216,0.215,-0.14,2.0
20.185,0.207,-0.252,25.0
20.295,0.2,0.304,30.0
20.308,0.193,0.192,28.0
20.312,0.186,0.079,30.0
20.223,0.179,-0.035,20.0
20.189,0.171,-0.147,24.0
20.176,0.164,-0.259,35.0
20.187,0.156,0.296,26.0
20.184,0.149,0.184,25.0
20.204,0.142,0.072,28.0
20.177,0.135,-0.041,28.0
20.174,0.128,-0.153,40.0
20.197,0.121,-0.265,28.0
20.162,0.113,0.29,29.0
20.165,0.106,0.178,28.0
20.194,0.099,0.066,36.0
20.19,0.092,-0.047,29.0
20.204,0.085,-0.159,27.0
20.174,0.078,-0.27,0.0
20.144,0.07,0.284,28.0
20.154,0.063,0.173,28.0
20.187,0.056,0.061,17.0
20.256,0.049,-0.052,14.0
20.267,0.043,-0.164,150.0
20.264,0.035,-0.276,150.0
20.132,0.028,0.28,29.0
20.124,0.02,0.168,26.0
20.224,0.014,0.057,150.0
20.248,0.006,-0.055,29.0
20.192,0.0,-0.167,10.0
20.174,-0.007,-0.278,6.0
20.124,-0.014,0.276,27.0
20.116,-0.021,0.165,32.0
20.135,-0.028,0.054,40.0
20.141,-0.036,-0.058,32.0
20.15,-0.043,-0.17,34.0
20.144,-0.05,-0.281,28.0
20.122,-0.057,0.273,28.0
20.124,-0.065,0.162,29.0
20.132,-0.072,0.051,34.0
20.142,-0.079,-0.061,29.0
20.141,-0.086,-0.172,34.0
20.137,-0.094,-0.283,38.0
20.143,-0.101,0.272,26.0
20.132,-0.108,0.16,20.0
20.144,-0.115,0.049,28.0
20.159,-0.122,-0.063,22.0
20.144,-0.13,-0.174,18.0
20.16,-0.137,-0.285,31.0
20.221,-0.144,0.271,18.0
58.325,-0.438,0.462,21.0
56.277,-0.443,0.136,3.0
53.338,-0.44,-0.169,10.0
53.052,-0.456,-0.46,3.0
44.878,-0.402,-0.636,8.0
53.375,-0.497,0.715,12.0
64.324,-0.622,0.508,130.0
56.162,-0.564,0.135,2.0
56.183,-0.585,-0.179,6.0
52.863,-0.569,-0.459,5.0
44.733,-0.497,-0.634,18.0
20.148,-0.23,0.27,10.0
20.157,-0.238,0.159,3.0
59.551,-0.724,0.144,51.0
59.536,-0.746,-0.188,1.0
52.968,-0.684,-0.458,6.0
44.874,-0.596,-0.634,8.0
20.134,-0.274,0.271,14.0
20.113,-0.28,0.16,12.0
20.126,-0.288,0.05,19.0
20.158,-0.296,-0.062,0.0
52.933,-0.797,-0.454,13.0
44.859,-0.692,-0.631,7.0
20.164,-0.317,0.273,2.0
20.132,-0.323,0.162,8.0
20.132,-0.331,0.052,44.0
20.117,-0.338,-0.06,8.0
52.91,-0.91,-0.448,40.0
44.879,-0.789,-0.626,8.0
192.919,-3.448,2.638,25.0
53.017,-0.967,0.434,17.0
52.986,-0.986,0.144,41.0
52.936,-1.005,-0.15,51.0
45.539,-0.881,-0.379,31.0
44.879,-0.885,-0.619,6.0
52.949,-1.059,0.732,20.0
38.391,-0.781,0.321,26.0
38.374,-0.795,0.111,53.0
38.38,-0.809,-0.102,19.0
40.438,-0.867,-0.329,11.0
40.439,-0.883,-0.55,17.0
40.446,-0.894,0.567,150.0
40.417,-0.908,0.346,71.0
40.414,-0.923,0.125,40.0
40.413,-0.938,-0.099,37.0
40.418,-0.952,-0.32,41.0
38.563,-0.923,-0.516,25.0
40.436,-0.979,0.576,28.0
38.742,-0.952,0.341,13.0
38.725,-0.965,0.129,20.0
38.705,-0.979,-0.085,33.0
38.716,-0.993,-0.296,45.0
38.56,-1.004,-0.505,23.0
38.654,-1.016,0.561,70.0
38.646,-1.03,0.35,65.0
38.661,-1.044,0.14,69.0
38.623,-1.058,-0.074,70.0
38.649,-1.072,-0.284,62.0
38.574,-1.085,-0.494,28.0
38.639,-1.096,0.573,93.0
38.639,-1.11,0.362,87.0
38.649,-1.125,0.152,74.0
38.634,-1.139,-0.061,74.0
38.644,-1.153,-0.272,62.0
38.582,-1.165,-0.481,35.0
38.632,-1.176,0.586,72.0
38.652,-1.19,0.376,68.0
38.675,-1.206,0.166,63.0
38.688,-1.22,-0.047,60.0
38.681,-1.233,-0.258,50.0
38.638,-1.246,-0.468,28.0
38.711,-1.258,0.602,30.0
38.775,-1.274,0.392,8.0
80.407,-2.671,0.376,25.0
80.997,-2.72,-0.068,33.0
56.866,-1.93,-0.357,1.0
45.109,-1.548,-0.528,19.0
84.337,-2.914,1.346,9.0
83.404,-2.912,0.878,22.0
80.571,-2.841,0.411,20.0
81.101,-2.889,-0.033,50.0
31.378,-1.129,-0.183,1.0
45.061,-1.638,-0.507,12.0
31.29,-1.144,0.513,46.0
31.293,-1.156,0.343,48.0
31.268,-1.166,0.174,45.0
31.28,-1.178,0.001,64.0
31.283,-1.189,-0.168,39.0
28.467,-1.092,-0.307,33.0
28.464,-1.098,0.481,71.0
28.457,-1.108,0.326,70.0
28.447,-1.118,0.172,73.0
28.45,-1.129,0.015,109.0
28.46,-1.139,-0.138,138.0
28.459,-1.15,-0.292,147.0
28.449,-1.156,0.495,117.0
28.441,-1.165,0.341,112.0
28.442,-1.175,0.187,116.0
28.448,-1.186,0.031,128.0
28.438,-1.196,-0.122,92.0
28.438,-1.206,-0.276,66.0
28.457,-1.212,0.511,69.0
28.457,-1.223,0.357,62.0
28.458,-1.233,0.203,51.0
31.199,-1.362,0.051,27.0
31.213,-1.375,-0.116,64.0
31.178,-1.384,-0.284,54.0
31.318,-1.396,0.581,25.0
31.289,-1.406,0.412,29.0
31.265,-1.416,0.242,30.0
31.237,-1.426,0.07,40.0
31.219,-1.436,-0.097,38.0
31.217,-1.447,-0.265,50.0
85.064,-3.96,1.632,15.0
83.014,-3.893,1.144,38.0
79.88,-3.773,0.67,21.0
68.724,-3.27,0.199,2.0
31.345,-1.503,-0.077,0.0
31.271,-1.51,-0.246,21.0
84.693,-4.106,1.681,16.0
82.903,-4.048,1.198,42.0
67.715,-3.33,0.614,0.0
67.352,-3.335,0.241,0.0
67.384,-3.36,-0.121,0.0
57.441,-2.884,-0.413,4.0
85.434,-4.305,1.754,31.0
82.834,-4.202,1.255,35.0
0.0,0.0,0.0,0.0
0.0,0.0,0.0,0.0
66.018,-3.417,-0.072,4.0
61.303,-3.194,-0.396,4.0
84.727,-4.428,1.8,45.0
85.99,-4.524,1.365,3.0
0.0,0.0,0.0,0.0
65.55,-3.493,0.328,0.0
0.0,0.0,0.0,0.0
24.6,-1.327,-0.14,1.0
83.713,-4.531,1.841,32.0
0.0,0.0,0.0,0.0
24.621,-1.349,0.277,3.0
24.589,-1.355,0.142,13.0
24.595,-1.364,0.01,30.0
24.562,-1.37,-0.121,35.0
24.624,-1.378,0.561,8.0
24.584,-1.383,0.428,26.0
24.588,-1.392,0.296,41.0
24.537,-1.397,0.161,43.0
24.55,-1.406,0.029,50.0
24.541,-1.414,-0.101,67.0
24.571,-1.419,0.579,58.0
24.567,-1.427,0.447,60.0
24.546,-1.433,0.315,45.0
24.519,-1.44,0.181,59.0
24.524,-1.448,0.049,71.0
24.527,-1.457,-0.081,71.0
24.564,-1.462,0.6,80.0
24.538,-1.469,0.467,54.0
24.53,-1.477,0.336,73.0
24.517,-1.483,0.202,60.0
24.52,-1.492,0.071,66.0
24.533,-1.501,-0.06,91.0
24.53,-1.503,0.62,65.0
24.539,-1.512,0.489,81.0
24.528,-1.519,0.357,70.0
24.507,-1.526,0.224,48.0
24.528,-1.535,0.092,63.0
24.526,-1.543,-0.038,67.0
24.544,-1.547,0.643,77.0
24.55,-1.555,0.511,60.0
24.536,-1.562,0.38,52.0
24.544,-1.57,0.246,41.0
24.553,-1.579,0.115,39.0
24.555,-1.586,-0.015,37.0
24.553,-1.589,0.665,70.0
24.582,-1.599,0.535,39.0
24.556,-1.604,0.403,27.0
24.566,-1.613,0.269,19.0
24.591,-1.622,0.138,22.0
24.607,-1.631,0.007,6.0
24.578,-1.632,0.689,27.0
24.591,-1.64,0.558,18.0
65.831,-4.411,1.144,4.0
65.391,-4.402,0.781,0.0
65.6,-4.436,0.433,152.0
65.503,-4.449,0.084,2.0
24.695,-1.68,0.717,1.0
83.047,-5.677,1.97,33.0
82.84,-5.688,1.523,4.0
0.0,0.0,0.0,0.0
65.596,-4.542,0.499,152.0
65.463,-4.553,0.149,2.0
82.862,-5.774,2.491,48.0
82.679,-5.784,2.044,39.0
82.967,-5.829,1.609,31.0
0.0,0.0,0.0,0.0
65.604,-4.647,0.566,1.0
65.479,-4.658,0.216,1.0
82.907,-5.907,2.577,53.0
82.47,-5.899,2.124,39.0
82.904,-5.954,1.694,46.0
0.0,0.0,0.0,0.0
65.621,-4.75,0.635,6.0
65.583,-4.767,0.286,1.0
82.808,-6.028,2.662,48.0
82.363,-6.018,2.208,36.0
82.739,-6.068,1.777,46.0
0.0,0.0,0.0,0.0
65.661,-4.852,0.705,2.0
65.57,-4.864,0.355,1.0
82.792,-6.15,2.749,41.0
82.526,-6.153,2.301,41.0
82.675,-6.186,1.865,48.0
83.381,-6.261,1.429,14.0
0.0,0.0,0.0,0.0
65.587,-4.962,0.426,0.0
82.691,-6.264,2.836,42.0
82.47,-6.269,2.39,39.0
82.534,-6.296,1.953,43.0
82.6,-6.323,1.507,15.0
81.994,-6.298,1.06,32.0
65.731,-5.067,0.501,2.0
82.51,-6.37,2.923,39.0
82.299,-6.374,2.477,40.0
82.379,-6.402,2.042,47.0
82.674,-6.446,1.601,39.0
81.987,-6.413,1.152,35.0
79.351,-6.229,0.694,9.0
82.387,-6.476,3.012,40.0
82.617,-6.514,2.581,42.0
82.206,-6.502,2.131,39.0
82.762,-6.568,1.698,54.0
82.115,-6.537,1.249,31.0
81.376,-6.499,0.806,9.0
82.482,-6.596,3.111,39.0
82.442,-6.613,2.672,47.0
82.348,-6.625,2.232,43.0
82.617,-6.667,1.792,51.0
0.0,0.0,0.0,0.0
81.876,-6.648,0.907,51.0
82.499,-6.708,3.21,46.0
82.303,-6.711,2.764,43.0
82.483,-6.744,2.332,42.0
82.627,-6.776,1.89,53.0
0.0,0.0,0.0,0.0
82.055,-6.769,1.008,37.0
81.969,-6.771,3.288,33.0
82.091,-6.8,2.857,49.0
82.181,-6.825,2.423,40.0
82.658,-6.884,1.99,51.0
0.0,0.0,0.0,0.0
0.0,0.0,0.0,0.0
82.106,-6.885,3.393,34.0
82.079,-6.901,2.956,50.0
82.109,-6.922,2.521,42.0
82.945,-7.012,2.1,42.0
84.572,-7.168,1.693,3.0
0.0,0.0,0.0,0.0
82.024,-6.98,3.491,39.0
82.194,-7.012,3.062,61.0
82.389,-7.045,2.632,42.0
83.16,-7.129,2.208,26.0
84.805,-7.289,1.802,12.0
0.0,0.0,0.0,0.0
81.762,-7.054,3.583,36.0
82.175,-7.106,3.164,47.0
82.361,-7.138,2.735,38.0
84.273,-7.321,2.343,12.0
83.178,-7.244,1.872,39.0
0.0,0.0,0.0,0.0
81.909,-7.159,3.692,36.0
81.725,-7.16,3.25,39.0
82.247,-7.221,2.835,42.0
82.283,-7.241,2.392,41.0
82.765,-7.3,1.968,46.0
0.0,0.0,0.0,0.0
82.117,-7.268,3.806,43.0
81.692,-7.246,3.354,41.0
82.212,-7.308,2.939,42.0
82.099,-7.313,2.493,44.0
82.484,-7.363,2.068,47.0
0.0,0.0,0.0,0.0
82.146,-7.359,3.914,49.0
81.681,-7.331,3.459,35.0
81.967,-7.371,3.037,46.0
82.193,-7.407,2.602,42.0
82.355,-7.436,2.171,40.0
54.924,-4.969,1.158,59.0
81.935,-7.423,4.01,36.0
81.705,-7.415,3.566,34.0
81.756,-7.434,3.135,46.0
81.987,-7.469,2.702,47.0
82.025,-7.487,2.27,39.0
82.715,-7.564,1.851,51.0
82.334,-7.539,4.138,41.0
81.856,-7.508,3.68,48.0
81.687,-7.506,3.24,43.0
81.848,-7.534,2.805,41.0
82.058,-7.567,2.378,44.0
82.169,-7.591,1.947,42.0
82.537,-7.635,4.258,39.0
82.122,-7.609,3.801,34.0
81.811,-7.593,3.353,30.0
81.839,-7.607,2.913,37.0
82.086,-7.644,2.488,48.0
82.027,-7.652,2.053,38.0
82.264,-7.684,4.354,32.0
82.207,-7.689,3.914,25.0
81.792,-7.662,3.461,27.0
81.925,-7.686,3.025,47.0
81.985,-7.704,2.594,48.0
81.988,-7.717,2.16,38.0
0.0,0.0,0.0,0.0
82.037,-7.742,4.016,37.0
81.851,-7.736,3.573,35.0
82.312,-7.791,3.149,24.0
81.806,-7.754,2.698,37.0
82.085,-7.792,2.273,42.0
83.172,-7.906,4.625,33.0
81.849,-7.791,4.118,36.0
81.809,-7.797,3.683,36.0
82.459,-7.869,3.268,16.0
81.946,-7.831,2.814,45.0
82.123,-7.859,2.386,39.0
83.464,-7.998,4.755,44.0
81.795,-7.847,4.226,38.0
81.754,-7.853,3.79,32.0
0.0,0.0,0.0,0.0
82.179,-7.913,2.933,41.0
82.096,-7.915,2.497,38.0
83.45,-8.057,4.868,39.0
81.867,-7.912,4.342,35.0
81.807,-7.915,3.904,35.0
82.093,-7.952,3.475,21.0
82.016,-7.953,3.038,49.0
82.079,-7.969,2.607,42.0
83.498,-8.118,4.984,31.0
0.0,0.0,0.0,0.0
81.919,-7.979,4.022,45.0
81.813,-7.977,3.574,40.0
82.055,-8.01,3.15,43.0
81.994,-8.012,2.715,43.0
83.873,-8.207,5.121,18.0
83.409,-8.169,4.65,40.0
82.055,-8.043,4.139,37.0
81.729,-8.018,3.683,44.0
82.516,-8.103,3.281,26.0
81.866,-8.048,2.822,36.0
84.787,-8.346,5.293,25.0
83.545,-8.23,4.771,38.0
82.221,-8.106,4.259,27.0
81.803,-8.071,3.796,36.0
83.317,-8.227,3.424,42.0
81.952,-8.1,2.935,37.0
84.922,-8.405,5.416,21.0
83.818,-8.301,4.901,32.0
82.587,-8.185,4.391,27.0
82.059,-8.138,3.919,39.0
82.099,-8.148,3.486,11.0
82.048,-8.15,3.05,39.0
109.511,-10.894,7.134,17.0
84.092,-8.369,5.031,33.0
82.487,-8.215,4.496,28.0
82.131,-8.184,4.033,31.0
82.046,-8.181,3.594,37.0
82.205,-8.202,3.166,36.0
109.346,-10.927,7.271,40.0
84.33,-8.43,5.159,33.0
83.01,-8.303,4.636,20.0
82.749,-8.281,4.176,31.0
82.076,-8.218,3.707,34.0
82.077,-8.223,3.272,33.0
109.295,-10.965,7.416,38.0
84.787,-8.51,5.302,27.0
83.718,-8.406,4.79,21.0
82.243,-8.261,4.26,38.0
82.166,-8.257,3.821,28.0
81.992,-8.243,3.379,36.0
109.453,-11.022,7.576,26.0
86.59,-8.722,5.532,10.0
83.835,-8.446,4.91,24.0
82.129,-8.277,4.366,28.0
82.188,-8.286,3.932,24.0
81.946,-8.264,3.487,40.0
109.993,-11.111,7.761,20.0
109.405,-11.054,7.136,39.0
84.794,-8.569,5.08,42.0
82.137,-8.302,4.477,22.0
82.935,-8.385,4.08,43.0
81.986,-8.291,3.598,37.0
109.852,-11.128,7.899,18.0
109.348,-11.076,7.282,40.0
84.887,-8.6,5.201,36.0
83.135,-8.423,4.643,26.0
82.445,-8.355,4.166,30.0
82.048,-8.316,3.711,23.0
109.625,-11.129,8.029,32.0
109.317,-11.098,7.424,31.0
84.938,-8.623,5.316,22.0
83.582,-8.485,4.778,29.0
82.159,-8.342,4.259,30.0
82.017,-8.328,3.816,8.0
109.665,-11.154,8.178,24.0
109.596,-11.145,7.588,18.0
109.406,-11.124,6.992,24.0
84.671,-8.609,4.952,43.0
82.135,-8.351,4.367,26.0
83.436,-8.483,3.993,33.0
108.798,-11.08,8.258,25.0
