X,Y,Z,Reflectivity
0.0,0.0,0.0,0.0
0.0,0.0,0.0,0.0
37.297,4.241,-0.766,0.0
75.214,8.524,0.533,3.0
74.753,8.461,0.105,11.0
74.869,8.463,-0.321,4.0
0.0,0.0,0.0,0.0
41.159,4.642,-0.649,0.0
0.0,0.0,0.0,0.0
75.378,8.462,0.464,5.0
75.044,8.413,0.035,9.0
75.267,8.427,-0.392,7.0
0.0,0.0,0.0,0.0
0.0,0.0,0.0,0.0
34.564,3.856,-0.773,0.0
75.656,8.41,0.396,5.0
75.619,8.394,-0.032,20.0
68.839,7.632,-0.421,1.0
0.0,0.0,0.0,0.0
40.669,4.497,-0.715,0.0
34.116,3.768,-0.794,0.0
76.377,8.403,0.333,19.0
76.353,8.389,-0.1,9.0
0.0,0.0,0.0,0.0
0.0,0.0,0.0,0.0
39.698,4.343,-0.733,0.0
32.907,3.596,-0.794,0.0
77.131,8.396,0.27,8.0
77.195,8.39,-0.168,7.0
0.0,0.0,0.0,0.0
0.0,0.0,0.0,0.0
38.22,4.136,-0.738,0.0
32.724,3.536,-0.818,0.0
77.713,8.364,0.205,1.0
77.996,8.381,-0.236,3.0
82.031,8.801,-0.714,5.0
0.0,0.0,0.0,0.0
0.0,0.0,0.0,0.0
0.0,0.0,0.0,0.0
81.98,8.719,0.149,3.0
0.0,0.0,0.0,0.0
0.0,0.0,0.0,0.0
0.0,0.0,0.0,0.0
37.195,3.931,-0.779,0.0
30.181,3.185,-0.804,0.0
0.0,0.0,0.0,0.0
0.0,0.0,0.0,0.0
0.0,0.0,0.0,0.0
42.973,4.492,-0.691,0.0
0.0,0.0,0.0,0.0
30.138,3.141,-0.826,0.0
0.0,0.0,0.0,0.0
82.702,8.564,-0.447,1.0
34.39,3.555,-0.38,0.0
0.0,0.0,0.0,0.0
34.733,3.578,-0.781,0.0
29.97,3.083,-0.844,1.0
0.0,0.0,0.0,0.0
0.0,0.0,0.0,0.0
0.0,0.0,0.0,0.0
34.178,3.48,-0.6,0.0
33.073,3.362,-0.768,0.0
29.134,2.956,-0.841,0.0
0.0,0.0,0.0,0.0
0.0,0.0,0.0,0.0
0.0,0.0,0.0,0.0
39.807,3.998,-0.727,0.0
33.143,3.323,-0.792,1.0
28.415,2.843,-0.84,0.0
85.245,8.488,-0.161,1.0
0.0,0.0,0.0,0.0
0.0,0.0,0.0,0.0
38.828,3.843,-0.735,0.0
32.85,3.245,-0.808,0.0
28.045,2.766,-0.848,0.0
0.0,0.0,0.0,0.0
68.979,6.754,-0.565,1.0
0.0,0.0,0.0,0.0
37.935,3.699,-0.742,0.0
31.972,3.111,-0.806,0.0
27.565,2.678,-0.851,0.0
0.0,0.0,0.0,0.0
0.0,0.0,0.0,0.0
0.0,0.0,0.0,0.0
37.577,3.607,-0.759,0.0
31.047,2.974,-0.802,0.0
27.273,2.607,-0.858,0.0
0.0,0.0,0.0,0.0
0.0,0.0,0.0,0.0
0.0,0.0,0.0,0.0
37.216,3.516,-0.773,0.0
31.052,2.927,-0.82,0.0
26.747,2.516,-0.857,0.0
0.0,0.0,0.0,0.0
0.0,0.0,0.0,0.0
0.0,0.0,0.0,0.0
36.694,3.408,-0.783,0.0
30.707,2.846,-0.828,0.0
26.455,2.447,-0.862,0.0
0.0,0.0,0.0,0.0
0.0,0.0,0.0,0.0
0.0,0.0,0.0,0.0
34.902,3.187,-0.763,0.0
30.433,2.772,-0.836,0.0
26.141,2.376,-0.865,0.0
68.973,6.233,-0.371,0.0
0.0,0.0,0.0,0.0
0.0,0.0,0.0,0.0
33.732,3.025,-0.753,0.0
30.084,2.692,-0.841,0.0
25.793,2.302,-0.866,0.0
68.921,6.116,-0.404,2.0
0.0,0.0,0.0,0.0
0.0,0.0,0.0,0.0
33.792,2.975,-0.77,0.0
29.549,2.595,-0.839,0.0
25.507,2.234,-0.868,0.0
0.0,0.0,0.0,0.0
0.0,0.0,0.0,0.0
41.073,3.557,-0.719,0.0
35.041,3.026,-0.813,0.0
29.268,2.521,-0.843,0.0
25.241,2.169,-0.869,0.0
0.0,0.0,0.0,0.0
0.0,0.0,0.0,0.0
39.927,3.39,-0.714,0.0
33.114,2.804,-0.781,0.0
28.894,2.44,-0.844,0.0
24.848,2.093,-0.865,0.0
68.938,5.769,-0.487,3.0
0.0,0.0,0.0,0.0
0.0,0.0,0.0,0.0
32.952,2.733,-0.789,0.0
28.724,2.376,-0.849,0.0
24.686,2.036,-0.867,1.0
68.915,5.646,-0.511,2.0
49.42,4.036,-0.642,0.0
39.929,3.251,-0.742,0.0
32.915,2.672,-0.799,1.0
28.453,2.303,-0.85,0.0
24.535,1.98,-0.87,0.0
0.0,0.0,0.0,0.0
0.0,0.0,0.0,0.0
39.258,3.126,-0.741,0.0
32.818,2.606,-0.806,1.0
28.292,2.239,-0.853,1.0
24.49,1.932,-0.875,0.0
0.0,0.0,0.0,0.0
0.0,0.0,0.0,0.0
0.0,0.0,0.0,0.0
32.79,2.545,-0.813,1.0
28.196,2.182,-0.856,0.0
24.402,1.882,-0.877,0.0
0.0,0.0,0.0,0.0
0.0,0.0,0.0,0.0
0.0,0.0,0.0,0.0
32.929,2.497,-0.823,1.0
28.049,2.12,-0.858,1.0
24.395,1.838,-0.882,0.0
0.0,0.0,0.0,0.0
0.0,0.0,0.0,0.0
39.573,2.938,-0.772,0.0
32.454,2.402,-0.817,1.0
28.03,2.067,-0.862,1.0
24.186,1.777,-0.878,0.0
0.0,0.0,0.0,0.0
0.0,0.0,0.0,0.0
0.0,0.0,0.0,0.0
32.229,2.325,-0.816,1.0
27.915,2.006,-0.862,0.0
24.095,1.726,-0.878,0.0
0.0,0.0,0.0,0.0
0.0,0.0,0.0,0.0
0.0,0.0,0.0,0.0
32.188,2.262,-0.818,1.0
27.838,1.949,-0.862,1.0
24.051,1.677,-0.878,0.0
0.0,0.0,0.0,0.0
0.0,0.0,0.0,0.0
38.636,2.652,-0.766,0.0
32.156,2.199,-0.819,1.0
27.895,1.9,-0.865,0.0
23.944,1.625,-0.875,0.0
0.0,0.0,0.0,0.0
0.0,0.0,0.0,0.0
38.013,2.538,-0.755,0.0
32.354,2.151,-0.825,1.0
27.921,1.849,-0.866,0.0
24.1,1.589,-0.881,0.0
0.0,0.0,0.0,0.0
0.0,0.0,0.0,0.0
0.0,0.0,0.0,0.0
32.263,2.084,-0.822,0.0
27.993,1.8,-0.868,0.0
24.135,1.546,-0.882,0.0
0.0,0.0,0.0,0.0
0.0,0.0,0.0,0.0
0.0,0.0,0.0,0.0
32.032,2.007,-0.814,3.0
27.988,1.746,-0.866,0.0
24.14,1.5,-0.881,0.0
0.0,0.0,0.0,0.0
0.0,0.0,0.0,0.0
38.236,2.333,-0.754,0.0
32.276,1.96,-0.818,1.0
28.01,1.693,-0.864,0.0
24.285,1.461,-0.883,0.0
0.0,0.0,0.0,0.0
0.0,0.0,0.0,0.0
0.0,0.0,0.0,0.0
32.277,1.898,-0.813,0.0
28.321,1.657,-0.87,0.0
24.534,1.429,-0.889,0.0
0.0,0.0,0.0,0.0
0.0,0.0,0.0,0.0
39.238,2.242,-0.762,0.0
32.614,1.854,-0.816,1.0
28.471,1.61,-0.869,0.0
24.606,1.384,-0.887,0.0
0.0,0.0,0.0,0.0
0.0,0.0,0.0,0.0
39.87,2.2,-0.766,0.0
32.857,1.803,-0.815,1.0
28.416,1.552,-0.861,0.0
24.639,1.338,-0.882,0.0
0.0,0.0,0.0,0.0
51.739,2.768,-0.698,0.0
0.0,0.0,0.0,0.0
33.143,1.753,-0.814,1.0
28.532,1.501,-0.857,0.0
24.804,1.298,-0.882,0.0
68.985,3.575,-0.534,2.0
0.0,0.0,0.0,0.0
40.12,2.055,-0.75,0.0
33.663,1.714,-0.817,0.0
28.599,1.448,-0.851,0.0
25.065,1.261,-0.883,0.0
68.951,3.437,-0.513,1.0
51.944,2.573,-0.67,0.0
0.0,0.0,0.0,0.0
33.879,1.658,-0.811,0.0
29.25,1.422,-0.86,0.0
20.21,0.977,-0.705,0.0
0.0,0.0,0.0,0.0
0.0,0.0,0.0,0.0
42.465,2.006,-0.765,3.0
34.125,1.602,-0.805,0.0
29.505,1.376,-0.857,0.0
20.241,0.938,-0.698,151.0
69.018,3.167,-0.463,4.0
0.0,0.0,0.0,0.0
42.155,1.908,-0.743,0.0
0.0,0.0,0.0,0.0
29.886,1.335,-0.856,0.0
20.254,0.899,-0.69,151.0
69.02,3.031,-0.434,4.0
0.0,0.0,0.0,0.0
42.962,1.86,-0.738,0.0
35.716,1.536,-0.812,0.0
30.158,1.287,-0.85,1.0
20.237,0.858,-0.68,0.0
0.0,0.0,0.0,0.0
0.0,0.0,0.0,0.0
0.0,0.0,0.0,0.0
36.563,1.499,-0.813,0.0
30.255,1.231,-0.838,0.0
26.453,1.069,-0.877,0.0
0.0,0.0,0.0,0.0
0.0,0.0,0.0,0.0
0.0,0.0,0.0,0.0
0.0,0.0,0.0,0.0
31.735,1.228,-0.862,0.0
26.839,1.03,-0.875,0.0
0.0,0.0,0.0,0.0
0.0,0.0,0.0,0.0
0.0,0.0,0.0,0.0
0.0,0.0,0.0,0.0
32.108,1.179,-0.854,0.0
27.268,0.993,-0.873,0.0
0.0,0.0,0.0,0.0
0.0,0.0,0.0,0.0
0.0,0.0,0.0,0.0
0.0,0.0,0.0,0.0
32.445,1.126,-0.843,1.0
28.116,0.968,-0.883,0.0
0.0,0.0,0.0,0.0
0.0,0.0,0.0,0.0
0.0,0.0,0.0,0.0
25.608,0.846,-0.51,0.0
32.633,1.068,-0.826,1.0
28.424,0.921,-0.874,0.0
0.0,0.0,0.0,0.0
69.028,2.187,-0.575,0.0
0.0,0.0,0.0,0.0
0.0,0.0,0.0,0.0
33.014,1.015,-0.813,0.0
28.919,0.88,-0.869,0.0
0.0,0.0,0.0,0.0
68.978,2.049,-0.526,6.0
0.0,0.0,0.0,0.0
40.081,1.166,-0.742,0.0
34.363,0.989,-0.822,0.0
29.9,0.851,-0.877,0.0
0.0,0.0,0.0,0.0
0.0,0.0,0.0,0.0
0.0,0.0,0.0,0.0
0.0,0.0,0.0,0.0
0.0,0.0,0.0,0.0
30.508,0.808,-0.871,0.0
0.0,0.0,0.0,0.0
0.0,0.0,0.0,0.0
0.0,0.0,0.0,0.0
0.0,0.0,0.0,0.0
36.587,0.909,-0.818,0.0
31.37,0.77,-0.87,1.0
100.139,2.418,0.007,24.0
0.0,0.0,0.0,0.0
0.0,0.0,0.0,0.0
0.0,0.0,0.0,0.0
36.988,0.847,-0.796,0.0
31.921,0.721,-0.858,1.0
100.062,2.222,0.091,15.0
0.0,0.0,0.0,0.0
0.0,0.0,0.0,0.0
0.0,0.0,0.0,0.0
38.776,0.813,-0.8,0.0
32.618,0.673,-0.848,1.0
99.899,2.025,0.18,4.0
0.0,0.0,0.0,0.0
0.0,0.0,0.0,0.0
0.0,0.0,0.0,0.0
0.0,0.0,0.0,0.0
34.031,0.637,-0.854,2.0
99.895,1.833,0.272,16.0
0.0,0.0,0.0,0.0
0.0,0.0,0.0,0.0
0.0,0.0,0.0,0.0
0.0,0.0,0.0,0.0
34.311,0.577,-0.828,0.0
99.732,1.642,0.365,5.0
101.461,1.639,-0.17,2.0
0.0,0.0,0.0,0.0
0.0,0.0,0.0,0.0
42.749,0.652,-0.762,0.0
35.556,0.531,-0.824,0.0
99.647,1.455,0.462,7.0
99.681,1.424,-0.069,2.0
0.0,0.0,0.0,0.0
0.0,0.0,0.0,0.0
20.19,0.269,-0.339,12.0
20.215,0.264,-0.447,18.0
20.317,0.258,0.115,0.0
99.569,1.234,0.033,4.0
0.0,0.0,0.0,0.0
20.18,0.238,-0.21,17.0
20.179,0.232,-0.318,27.0
20.19,0.225,-0.425,29.0
20.322,0.22,0.136,32.0
20.336,0.214,0.028,29.0
20.227,0.207,-0.079,2.0
20.16,0.2,-0.188,15.0
20.178,0.194,-0.296,32.0
20.175,0.188,-0.403,35.0
20.279,0.182,0.158,27.0
20.245,0.176,0.05,25.0
20.217,0.17,-0.057,23.0
20.18,0.163,-0.166,23.0
20.17,0.157,-0.273,34.0
20.196,0.151,-0.381,28.0
20.167,0.144,0.18,27.0
20.204,0.139,0.073,29.0
20.178,0.133,-0.034,28.0
20.171,0.126,-0.143,38.0
20.188,0.12,-0.25,27.0
20.199,0.114,-0.357,6.0
20.165,0.108,0.203,30.0
20.186,0.102,0.096,30.0
20.19,0.096,-0.01,27.0
20.192,0.09,-0.119,27.0
20.204,0.084,-0.226,9.0
0.0,0.0,0.0,0.0
20.145,0.072,0.227,29.0
20.153,0.066,0.12,28.0
20.205,0.06,0.014,18.0
20.225,0.054,-0.095,19.0
20.245,0.048,-0.202,150.0
20.269,0.042,-0.309,121.0
20.132,0.036,0.251,30.0
20.133,0.03,0.145,27.0
20.248,0.024,0.039,150.0
20.255,0.018,-0.07,151.0
20.253,0.012,-0.177,51.0
20.236,0.006,-0.284,6.0
20.129,0.001,0.277,27.0
20.11,-0.004,0.17,28.0
20.137,-0.01,0.064,33.0
20.121,-0.016,-0.043,29.0
20.166,-0.022,-0.15,28.0
20.153,-0.028,-0.256,23.0
20.117,-0.033,0.302,30.0
20.11,-0.039,0.196,32.0
20.129,-0.045,0.09,40.0
20.125,-0.051,-0.017,35.0
20.143,-0.056,-0.124,32.0
20.143,-0.062,-0.23,22.0
20.128,-0.067,0.329,30.0
20.12,-0.073,0.223,26.0
20.127,-0.079,0.117,27.0
20.129,-0.085,0.009,31.0
20.147,-0.09,-0.097,26.0
20.153,-0.096,-0.203,21.0
20.132,-0.101,0.356,25.0
20.122,-0.107,0.25,19.0
20.126,-0.112,0.144,17.0
20.148,-0.118,0.036,26.0
20.175,-0.124,-0.069,22.0
20.148,-0.13,-0.175,18.0
20.229,-0.135,0.386,24.0
20.212,-0.141,0.279,18.0
58.314,-0.423,0.499,14.0
58.324,-0.439,0.186,16.0
53.339,-0.416,-0.11,5.0
20.184,-0.162,-0.148,4.0
20.177,-0.168,0.413,19.0
64.336,-0.553,0.979,16.0
53.376,-0.474,0.531,14.0
56.187,-0.513,0.258,6.0
56.189,-0.528,-0.037,6.0
56.363,-0.545,-0.333,1.0
20.145,-0.199,0.441,19.0
20.155,-0.205,0.335,13.0
64.262,-0.672,0.732,9.0
56.158,-0.603,0.339,5.0
56.268,-0.618,0.044,1.0
56.196,-0.633,-0.25,1.0
20.15,-0.232,0.47,12.0
20.118,-0.236,0.364,12.0
20.129,-0.242,0.258,9.0
20.147,-0.247,0.151,9.0
59.546,-0.747,0.134,50.0
59.52,-0.762,-0.177,16.0
59.425,-0.776,1.475,12.0
20.137,-0.268,0.394,10.0
20.116,-0.272,0.288,11.0
20.114,-0.278,0.18,13.0
20.117,-0.283,0.075,18.0
20.129,-0.288,-0.029,3.0
59.475,-0.866,1.565,37.0
53.515,-0.793,1.128,58.0
20.15,-0.303,0.319,3.0
20.133,-0.308,0.211,8.0
20.123,-0.313,0.106,17.0
20.143,-0.318,0.0,40.0
64.313,-1.033,1.791,77.0
176.621,-2.88,3.994,53.0
176.661,-2.924,3.069,36.0
176.818,-2.97,2.129,5.0
20.152,-0.343,0.137,1.0
20.135,-0.348,0.031,19.0
64.332,-1.126,1.89,79.0
190.796,-3.386,4.608,23.0
191.67,-3.449,3.627,19.0
192.884,-3.519,2.623,33.0
52.99,-0.978,0.443,23.0
52.971,-0.991,0.166,45.0
64.331,-1.218,1.991,43.0
64.327,-1.233,1.655,5.0
38.358,-0.744,0.786,6.0
52.972,-1.04,0.803,9.0
52.942,-1.051,0.526,46.0
38.386,-0.771,0.181,8.0
45.704,-0.929,1.487,31.0
40.44,-0.831,1.104,12.0
38.389,-0.798,0.848,45.0
38.378,-0.806,0.643,33.0
38.398,-0.815,0.443,12.0
40.427,-0.868,0.256,21.0
40.413,-0.877,1.38,38.0
40.399,-0.885,1.168,39.0
40.402,-0.894,0.958,36.0
40.405,-0.904,0.743,37.0
40.416,-0.913,0.532,46.0
40.419,-0.922,0.322,40.0
40.412,-0.93,1.446,36.0
0.0,0.0,0.0,0.0
38.711,-0.908,0.981,36.0
40.419,-0.957,0.809,26.0
40.429,-0.966,0.599,26.0
40.422,-0.974,0.388,23.0
45.711,-1.111,1.711,53.0
45.703,-1.121,1.472,4.0
38.644,-0.956,1.043,44.0
38.699,-0.965,0.839,40.0
38.711,-0.974,0.638,25.0
38.692,-0.982,0.436,35.0
38.756,-0.992,1.515,11.0
38.672,-0.997,1.31,27.0
38.589,-1.003,1.106,56.0
38.622,-1.012,0.902,55.0
38.649,-1.021,0.702,63.0
38.655,-1.028,0.501,66.0
38.649,-1.036,1.576,66.0
38.614,-1.043,1.374,60.0
38.554,-1.049,1.17,69.0
38.64,-1.059,0.968,77.0
38.637,-1.066,0.766,71.0
38.619,-1.073,0.565,65.0
38.635,-1.082,1.641,86.0
38.612,-1.089,1.439,67.0
38.558,-1.094,1.236,69.0
38.575,-1.102,1.032,73.0
38.643,-1.112,0.833,99.0
38.634,-1.119,0.632,88.0
38.631,-1.127,1.707,91.0
38.648,-1.134,1.507,103.0
38.583,-1.14,1.303,53.0
38.564,-1.146,1.098,67.0
38.632,-1.155,0.899,79.0
38.639,-1.162,0.698,74.0
38.557,-1.168,1.77,64.0
38.652,-1.177,1.573,88.0
38.622,-1.183,1.371,67.0
38.6,-1.189,1.165,55.0
38.623,-1.197,0.966,65.0
38.633,-1.204,0.766,63.0
38.514,-1.209,1.836,51.0
38.621,-1.218,1.64,70.0
38.654,-1.226,1.44,73.0
38.633,-1.232,1.235,55.0
38.633,-1.239,1.034,51.0
38.66,-1.246,0.834,53.0
31.344,-1.016,1.549,36.0
38.616,-1.258,1.707,62.0
38.645,-1.266,1.508,61.0
38.677,-1.273,1.304,26.0
38.702,-1.28,1.103,10.0
38.715,-1.287,0.903,10.0
28.391,-0.949,1.453,51.0
31.302,-1.052,1.439,43.0
31.342,-1.058,1.278,22.0
31.314,-1.062,1.111,37.0
31.337,-1.067,0.949,33.0
31.378,-1.074,0.788,21.0
31.251,-1.076,1.655,40.0
31.317,-1.082,1.495,53.0
31.279,-1.086,1.331,43.0
31.27,-1.09,1.165,35.0
31.294,-1.095,1.003,37.0
31.314,-1.101,0.842,43.0
31.223,-1.104,1.709,30.0
31.235,-1.108,1.547,34.0
31.277,-1.115,1.387,62.0
31.242,-1.118,1.22,39.0
31.275,-1.123,1.059,49.0
31.288,-1.128,0.897,52.0
31.221,-1.132,1.765,34.0
31.215,-1.136,1.602,39.0
31.244,-1.141,1.441,49.0
31.266,-1.146,1.276,62.0
31.24,-1.149,1.113,50.0
31.265,-1.154,0.952,47.0
31.233,-1.159,1.822,65.0
31.222,-1.163,1.659,56.0
31.222,-1.166,1.496,48.0
31.248,-1.171,1.332,59.0
31.236,-1.175,1.17,53.0
31.246,-1.179,1.008,35.0
28.443,-1.079,1.711,55.0
28.445,-1.082,1.563,56.0
28.436,-1.085,1.415,49.0
28.446,-1.089,1.265,61.0
28.456,-1.093,1.117,61.0
28.447,-1.096,0.969,62.0
28.434,-1.101,1.762,72.0
28.437,-1.104,1.614,68.0
28.432,-1.107,1.466,61.0
28.424,-1.11,1.315,68.0
28.433,-1.113,1.167,74.0
28.426,-1.116,1.02,78.0
28.429,-1.122,1.813,117.0
28.424,-1.124,1.665,116.0
28.423,-1.127,1.517,112.0
28.433,-1.13,1.367,132.0
28.441,-1.134,1.22,141.0
28.437,-1.136,1.072,129.0
28.423,-1.142,1.864,108.0
28.418,-1.144,1.716,99.0
28.406,-1.146,1.567,93.0
28.404,-1.148,1.417,64.0
28.435,-1.152,1.271,105.0
28.427,-1.155,1.123,100.0
28.429,-1.161,1.917,100.0
28.42,-1.162,1.768,95.0
28.414,-1.165,1.62,90.0
28.415,-1.167,1.469,81.0
28.424,-1.17,1.322,91.0
28.422,-1.172,1.174,93.0
28.426,-1.178,1.968,59.0
28.432,-1.181,1.82,57.0
28.419,-1.182,1.671,55.0
28.42,-1.184,1.521,55.0
28.431,-1.187,1.374,54.0
28.435,-1.189,1.226,56.0
28.458,-1.196,2.022,44.0
28.442,-1.197,1.873,45.0
28.445,-1.199,1.725,48.0
28.449,-1.201,1.574,52.0
28.419,-1.202,1.425,38.0
28.449,-1.205,1.278,53.0
30.968,-1.318,2.257,34.0
31.151,-1.328,2.108,37.0
31.295,-1.336,1.954,12.0
31.287,-1.337,1.788,25.0
31.273,-1.339,1.624,26.0
31.375,-1.345,1.467,3.0
30.982,-1.334,2.315,24.0
31.057,-1.339,2.158,37.0
46.63,-2.013,2.997,5.0
161.521,-6.982,9.526,16.0
31.309,-1.355,1.683,21.0
31.327,-1.357,1.521,5.0
31.28,-1.362,2.394,31.0
30.981,-1.35,2.209,44.0
46.619,-2.033,3.081,55.0
163.781,-7.152,9.956,29.0
31.352,-1.37,1.742,5.0
28.397,-1.242,1.43,2.0
31.474,-1.383,2.466,34.0
30.915,-1.36,2.26,44.0
46.615,-2.052,3.164,40.0
163.556,-7.206,10.235,27.0
161.238,-7.11,9.251,32.0
31.353,-1.383,1.635,0.0
31.48,-1.395,2.523,1.0
30.863,-1.369,2.312,30.0
46.626,-2.069,3.249,4.0
46.632,-2.071,3.002,4.0
161.279,-7.166,9.542,31.0
164.305,-7.306,8.864,8.0
24.575,-1.097,2.014,58.0
30.869,-1.379,2.367,17.0
30.943,-1.383,2.211,42.0
46.617,-2.085,3.083,43.0
161.244,-7.213,9.826,14.0
161.256,-7.218,8.985,22.0
24.584,-1.105,2.058,51.0
46.32,-2.082,3.635,17.0
30.881,-1.389,2.262,38.0
46.607,-2.096,3.166,44.0
163.625,-7.364,10.26,18.0
161.338,-7.261,9.275,36.0
24.616,-1.112,2.105,36.0
24.583,-1.111,1.973,39.0
30.811,-1.393,2.311,38.0
46.603,-2.107,3.248,18.0
164.927,-7.458,10.632,23.0
161.241,-7.293,9.552,30.0
31.5,-1.43,2.749,5.0
24.571,-1.116,2.015,56.0
30.79,-1.398,2.363,24.0
30.934,-1.404,2.209,34.0
46.641,-2.117,3.087,14.0
164.031,-7.445,10.0,10.0
31.482,-1.435,2.802,46.0
24.585,-1.12,2.059,43.0
30.812,-1.404,2.419,4.0
30.842,-1.405,2.256,40.0
46.631,-2.123,3.168,36.0
164.234,-7.477,10.298,25.0
31.482,-1.439,2.857,50.0
24.591,-1.123,2.102,24.0
24.574,-1.122,1.971,44.0
30.794,-1.406,2.306,41.0
46.6,-2.126,3.245,22.0
164.914,-7.523,10.622,23.0
31.482,-1.442,2.911,48.0
31.494,-1.441,2.746,17.0
24.562,-1.123,2.013,54.0
30.776,-1.407,2.357,35.0
30.921,-1.413,2.206,30.0
46.664,-2.131,3.085,7.0
31.508,-1.445,2.967,59.0
31.473,-1.442,2.798,43.0
24.574,-1.125,2.055,41.0
30.777,-1.408,2.409,14.0
30.863,-1.411,2.253,40.0
46.634,-2.13,3.16,32.0
46.434,-2.13,4.451,8.0
31.476,-1.442,2.851,48.0
24.588,-1.126,2.097,24.0
24.578,-1.124,1.964,42.0
30.806,-1.407,2.3,41.0
46.603,-2.128,3.235,25.0
47.027,-2.156,4.587,15.0
31.476,-1.441,2.903,44.0
31.511,-1.441,2.74,13.0
24.551,-1.121,2.003,56.0
30.774,-1.404,2.349,33.0
30.931,-1.41,2.198,28.0
53.486,-2.449,5.306,7.0
31.518,-1.441,2.96,55.0
31.474,-1.437,2.789,42.0
24.571,-1.12,2.045,44.0
46.31,-2.109,3.611,5.0
30.879,-1.404,2.245,38.0
53.387,-2.438,5.384,18.0
46.268,-2.11,4.421,20.0
31.469,-1.433,2.84,48.0
24.603,-1.118,2.088,33.0
24.574,-1.115,1.956,33.0
30.828,-1.398,2.291,39.0
47.57,-2.166,4.875,4.0
46.264,-2.103,4.496,19.0
31.472,-1.428,2.891,38.0
24.593,-1.114,2.126,25.0
24.568,-1.111,1.994,54.0
30.819,-1.392,2.339,30.0
59.934,-2.718,6.236,12.0
53.446,-2.42,5.277,13.0
31.489,-1.423,2.942,43.0
31.49,-1.42,2.772,2.0
24.583,-1.107,2.034,51.0
46.314,-2.082,3.588,12.0
37.158,-1.677,3.925,1.0
46.21,-2.081,4.635,6.0
31.482,-1.415,2.991,3.0
24.635,-1.105,2.207,23.0
24.603,-1.101,2.074,42.0
46.338,-2.071,3.661,9.0
52.116,-2.339,5.587,19.0
47.36,-2.121,4.824,5.0
47.125,-2.106,4.55,8.0
24.632,-1.098,2.244,24.0
24.619,-1.095,2.112,42.0
24.581,-1.091,1.979,36.0
42.917,-1.913,4.667,4.0
37.123,-1.651,3.838,10.0
46.216,-2.051,4.532,1.0
24.63,-1.09,2.281,26.0
24.622,-1.087,2.15,50.0
24.589,-1.084,2.016,49.0
37.081,-1.641,4.088,28.0
37.12,-1.639,3.893,5.0
24.69,-1.087,2.458,2.0
24.626,-1.082,2.317,30.0
24.642,-1.08,2.188,53.0
24.6,-1.075,2.054,43.0
42.884,-1.882,4.791,1.0
42.782,-1.873,4.55,1.0
24.688,-1.078,2.494,13.0
24.667,-1.074,2.358,40.0
24.634,-1.069,2.223,57.0
24.621,-1.066,2.091,40.0
47.265,-2.056,5.349,50.0
31.83,-1.38,3.432,10.0
37.148,-1.606,3.806,6.0
24.658,-1.063,2.392,45.0
24.635,-1.059,2.258,66.0
24.63,-1.056,2.126,52.0
47.516,-2.046,5.446,26.0
47.249,-2.028,5.161,8.0
24.708,-1.057,2.566,13.0
24.654,-1.052,2.426,52.0
24.644,-1.048,2.294,73.0
24.637,-1.045,2.162,57.0
39.795,-1.694,4.617,6.0
46.97,-1.994,5.196,22.0
31.823,-1.346,3.35,2.0
24.652,-1.039,2.46,53.0
24.65,-1.036,2.328,69.0
24.644,-1.033,2.196,53.0
33.74,-1.419,3.96,0.0
42.927,-1.8,4.807,1.0
31.788,-1.328,3.389,6.0
24.665,-1.027,2.494,52.0
24.652,-1.023,2.361,72.0
24.652,-1.02,2.229,45.0
28.384,-1.179,3.369,1.0
28.42,-1.176,3.22,27.0
28.408,-1.172,3.066,37.0
24.662,-1.014,2.526,45.0
24.654,-1.01,2.393,74.0
24.649,-1.006,2.26,27.0
28.426,-1.164,3.412,45.0
28.406,-1.159,3.256,52.0
28.391,-1.155,3.1,32.0
24.691,-1.0,2.561,42.0
24.659,-0.995,2.425,69.0
28.424,-1.143,2.643,1.0
28.409,-1.147,3.446,63.0
28.396,-1.142,3.29,90.0
28.398,-1.137,3.137,68.0
24.707,-0.986,2.593,40.0
24.659,-0.98,2.455,51.0
28.396,-1.124,2.675,74.0
28.4,-1.128,3.48,103.0
28.395,-1.123,3.326,98.0
28.387,-1.119,3.171,89.0
24.725,-0.97,2.625,42.0
24.679,-0.965,2.487,41.0
28.402,-1.106,2.71,75.0
28.406,-1.11,3.515,99.0
28.398,-1.104,3.36,97.0
28.387,-1.099,3.205,81.0
24.736,-0.954,2.656,34.0
24.68,-0.948,2.517,38.0
28.418,-1.087,2.745,59.0
28.402,-1.09,3.549,74.0
28.4,-1.085,3.394,62.0
28.407,-1.08,3.24,57.0
24.766,-0.937,2.688,41.0
24.68,-0.93,2.545,26.0
31.731,-1.191,3.1,3.0
28.413,-1.069,3.582,52.0
32.221,-1.207,3.887,12.0
32.03,-1.195,3.689,26.0
24.785,-0.92,2.717,43.0
24.708,-0.913,2.575,24.0
37.19,-1.368,3.675,74.0
32.292,-1.191,4.107,68.0
32.242,-1.184,3.925,35.0
32.077,-1.172,3.729,21.0
24.784,-0.901,2.744,29.0
24.75,-0.895,2.606,15.0
37.201,-1.34,3.715,9.0
32.294,-1.166,4.142,41.0
36.788,-1.321,4.517,9.0
39.055,-1.396,4.582,55.0
24.849,-0.884,2.777,40.0
24.805,-0.878,2.637,13.0
61.564,-2.168,6.212,18.0
39.146,-1.382,5.062,5.0
39.093,-1.373,4.84,42.0
39.1,-1.366,4.627,6.0
24.856,-0.864,2.803,38.0
24.823,-0.858,2.664,13.0
43.8,-1.506,4.463,8.0
0.0,0.0,0.0,0.0
39.131,-1.341,4.883,6.0
43.653,-1.488,5.208,18.0
24.848,-0.842,2.826,28.0
44.112,-1.488,4.776,5.0
47.966,-1.61,4.932,4.0
0.0,0.0,0.0,0.0
44.795,-1.498,5.632,7.0
43.968,-1.462,5.286,6.0
24.895,-0.823,2.854,22.0
44.255,-1.454,4.832,11.0
51.201,-1.673,5.311,5.0
25.25,-0.826,3.337,43.0
25.229,-0.821,3.195,49.0
25.213,-0.815,3.054,14.0
24.967,-0.803,2.884,17.0
44.245,-1.415,4.869,5.0
42.345,-1.346,4.429,2.0
25.253,-0.804,3.359,82.0
25.235,-0.798,3.217,47.0
25.217,-0.793,3.076,40.0
25.055,-0.783,2.916,18.0
24.85,-0.772,2.755,22.0
42.591,-1.316,4.489,2.0
25.246,-0.78,3.379,62.0
25.229,-0.775,3.237,28.0
25.228,-0.77,3.097,46.0
25.104,-0.761,2.941,21.0
24.848,-0.749,2.775,26.0
44.447,-1.331,4.719,67.0
25.246,-0.757,3.398,25.0
38.024,-1.132,4.908,2.0
25.234,-0.747,3.117,36.0
25.145,-0.739,2.965,16.0
24.843,-0.725,2.792,28.0
51.433,-1.492,5.499,4.0
32.364,-0.939,4.381,4.0
32.961,-0.95,4.278,4.0
25.225,-0.722,3.134,17.0
44.461,-1.264,5.275,9.0
24.822,-0.7,2.808,27.0
45.509,-1.275,4.898,2.0
32.352,-0.907,4.402,6.0
33.032,-0.919,4.311,5.0
25.239,-0.697,3.153,21.0
44.609,-1.224,5.322,9.0
24.855,-0.677,2.828,32.0
47.495,-1.284,5.142,6.0
32.362,-0.875,4.425,6.0
33.824,-0.908,4.436,6.0
25.248,-0.672,3.171,26.0
25.074,-0.662,3.007,15.0
24.83,-0.651,2.84,29.0
41.008,-1.067,4.465,11.0
32.378,-0.843,4.447,4.0
38.148,-0.985,5.026,2.0
25.257,-0.647,3.187,28.0
24.809,-0.63,2.99,18.0
42.25,-1.066,4.858,14.0
40.864,-1.022,4.472,4.0
36.953,-0.924,5.096,28.0
39.706,-0.984,5.254,3.0
25.266,-0.621,3.202,13.0
24.761,-0.603,2.998,29.0
40.078,-0.969,4.629,3.0
44.653,-1.071,4.91,33.0
39.202,-0.939,5.427,2.0
44.556,-1.058,5.918,7.0
44.511,-1.047,5.664,7.0
24.791,-0.578,3.013,45.0
40.131,-0.928,4.655,6.0
44.632,-1.023,4.93,32.0
44.551,-1.02,6.189,30.0
51.506,-1.168,6.866,15.0
33.513,-0.753,4.28,4.0
24.783,-0.552,3.024,46.0
40.211,-0.887,4.682,6.0
40.594,-0.888,4.501,9.0
36.886,-0.805,5.14,14.0
34.06,-0.736,4.555,2.0
33.38,-0.714,4.277,2.0
24.764,-0.525,3.031,65.0
40.38,-0.848,4.718,9.0
31.693,-0.659,3.526,1.0
36.623,-0.759,5.118,6.0
0.0,0.0,0.0,0.0
24.776,-0.503,3.183,38.0
24.768,-0.498,3.041,49.0
40.454,-0.805,4.741,15.0
51.516,-1.015,5.75,6.0
32.725,-0.642,4.584,3.0
24.744,-0.48,3.327,16.0
24.759,-0.475,3.189,85.0
24.764,-0.47,3.048,19.0
0.0,0.0,0.0,0.0
44.002,-0.818,4.925,6.0
32.762,-0.606,4.599,7.0
24.75,-0.453,3.335,45.0
24.757,-0.448,3.196,44.0
37.542,-0.672,4.632,9.0
44.281,-0.784,5.215,16.0
44.059,-0.77,4.943,18.0
24.528,-0.426,3.449,10.0
24.75,-0.425,3.341,73.0
41.262,-0.701,5.337,11.0
46.602,-0.782,5.76,4.0
37.543,-0.622,4.43,25.0
37.605,-0.616,4.226,22.0
24.756,-0.403,3.487,44.0
24.765,-0.398,3.347,37.0
36.609,-0.581,4.742,3.0
37.689,-0.59,4.665,54.0
37.661,-0.583,4.45,47.0
37.628,-0.574,4.235,71.0
24.751,-0.375,3.49,55.0
37.151,-0.555,5.028,13.0
37.489,-0.553,4.861,25.0
34.072,-0.495,4.222,1.0
42.923,-0.615,5.077,1.0
40.084,-0.566,4.516,5.0
0.0,0.0,0.0,0.0
36.616,-0.505,4.959,12.0
40.485,-0.551,5.254,8.0
44.52,-0.596,5.521,8.0
54.178,-0.715,6.413,40.0
54.126,-0.703,6.103,54.0
36.447,-0.469,5.146,9.0
36.542,-0.463,4.951,2.0
40.217,-0.501,5.221,6.0
36.209,-0.444,4.492,1.0
37.518,-0.453,4.442,35.0
31.884,-0.378,3.595,6.0
35.964,-0.421,5.078,2.0
32.372,-0.373,4.386,3.0
39.946,-0.453,5.186,1.0
44.203,-0.492,5.483,2.0
46.498,-0.508,5.505,5.0
52.603,-0.565,5.931,9.0
47.265,-0.5,6.673,5.0
36.33,-0.377,4.921,2.0
53.016,-0.54,6.88,8.0
37.532,-0.375,4.654,6.0
36.242,-0.355,4.289,12.0
31.831,-0.305,3.587,32.0
47.842,-0.452,6.75,33.0
32.564,-0.301,4.409,8.0
36.305,-0.328,4.708,3.0
47.763,-0.423,5.918,16.0
47.647,-0.413,5.633,17.0
31.843,-0.269,3.584,39.0
47.633,-0.395,6.715,5.0
32.525,-0.263,4.399,2.0
37.768,-0.298,4.893,4.0
47.268,-0.364,5.85,30.0
47.23,-0.355,5.577,12.0
31.859,-0.234,3.581,59.0
47.434,-0.338,6.679,8.0
47.323,-0.329,6.392,32.0
47.284,-0.32,6.117,4.0
36.085,-0.237,4.459,1.0
0.0,0.0,0.0,0.0
31.852,-0.197,3.574,24.0
54.536,-0.327,7.667,8.0
32.787,-0.19,4.421,10.0
37.552,-0.211,4.849,6.0
38.598,-0.21,4.76,36.0
31.934,-0.167,3.756,23.0
39.094,-0.198,4.377,47.0
36.619,-0.178,5.138,2.0
36.628,-0.171,4.93,6.0
38.352,-0.172,4.942,30.0
39.15,-0.168,4.817,9.0
31.941,-0.131,3.748,66.0
46.211,-0.182,5.16,11.0
47.358,-0.176,6.631,6.0
37.918,-0.134,5.091,14.0
0.0,0.0,0.0,0.0
31.948,-0.101,3.92,58.0
31.926,-0.095,3.735,49.0
36.651,-0.102,4.08,11.0
36.444,-0.094,5.09,13.0
39.257,-0.094,5.257,3.0
31.961,-0.071,4.096,70.0
31.939,-0.065,3.907,51.0
36.52,-0.068,4.259,10.0
42.579,-0.071,4.723,6.0
32.086,-0.046,4.468,47.0
31.972,-0.041,4.268,70.0
31.949,-0.034,4.081,20.0
39.632,-0.036,4.832,14.0
52.212,-0.039,6.067,8.0
42.511,-0.025,4.697,6.0
37.469,-0.012,5.201,17.0
31.947,-0.005,4.25,49.0
45.667,0.0,5.813,5.0
36.313,0.006,4.41,4.0
39.768,0.013,4.602,5.0
42.533,0.021,4.679,5.0
31.927,0.024,4.416,74.0
32.324,0.03,4.284,10.0
36.284,0.04,4.6,2.0
33.458,0.042,4.046,2.0
30.511,0.043,3.515,8.0
30.632,0.049,3.354,28.0
51.943,0.096,7.156,20.0
47.64,0.096,6.288,6.0
32.958,0.072,4.16,8.0
53.355,0.125,6.423,18.0
30.455,0.076,3.491,28.0
30.638,0.082,3.337,54.0
37.878,0.111,5.196,4.0
39.265,0.122,5.16,12.0
52.059,0.17,6.54,8.0
30.479,0.104,3.651,2.0
30.443,0.109,3.471,38.0
30.619,0.115,3.316,14.0
53.422,0.215,7.295,25.0
0.0,0.0,0.0,0.0
48.717,0.212,6.089,4.0
30.48,0.137,3.631,69.0
30.492,0.142,3.457,39.0
37.016,0.178,3.984,2.0
30.409,0.155,4.132,46.0
30.38,0.159,3.952,26.0
30.405,0.164,3.779,39.0
30.462,0.169,3.608,22.0
30.524,0.174,3.439,12.0
36.959,0.216,3.953,3.0
30.353,0.186,4.102,6.0
30.372,0.191,3.929,37.0
30.407,0.196,3.757,27.0
30.476,0.2,3.587,1.0
40.286,0.271,4.51,5.0
47.695,0.328,5.065,3.0
30.342,0.218,4.078,39.0
30.4,0.222,3.909,67.0
30.442,0.227,3.738,2.0
52.988,0.403,6.195,27.0
40.172,0.312,4.465,4.0
30.944,0.244,3.262,16.0
32.977,0.27,4.405,10.0
30.425,0.254,3.887,13.0
47.793,0.406,5.83,3.0
51.28,0.442,5.953,5.0
31.046,0.272,3.425,1.0
30.954,0.276,3.237,52.0
32.691,0.301,4.339,2.0
39.577,0.37,5.023,4.0
47.916,0.454,5.804,3.0
51.012,0.491,5.878,8.0
30.976,0.302,3.39,23.0
46.003,0.455,4.77,13.0
36.204,0.369,4.773,3.0
39.832,0.412,5.019,3.0
52.591,0.551,6.322,6.0
53.842,0.571,6.156,6.0
30.949,0.332,3.359,44.0
52.384,0.569,5.384,4.0
30.468,0.34,3.988,24.0
47.894,0.541,5.991,2.0
53.971,0.617,6.437,17.0
31.022,0.358,3.517,57.0
30.942,0.361,3.329,31.0
52.795,0.624,5.376,17.0
39.261,0.476,5.101,2.0
0.0,0.0,0.0,0.0
31.032,0.384,3.67,29.0
31.029,0.388,3.487,5.0
30.913,0.39,3.295,14.0
36.255,0.462,3.655,1.0
33.405,0.436,4.306,3.0
47.486,0.625,5.844,7.0
31.083,0.413,3.645,52.0
52.237,0.7,5.817,5.0
37.063,0.501,3.912,2.0
58.691,0.801,5.857,13.0
33.356,0.466,4.264,3.0
31.04,0.437,3.787,33.0
47.008,0.667,5.462,21.0
46.851,0.67,5.167,3.0
37.166,0.536,3.884,2.0
36.35,0.528,3.588,3.0
51.798,0.768,6.565,4.0
31.087,0.465,3.759,53.0
46.909,0.707,5.399,8.0
46.256,0.701,5.05,5.0
48.102,0.735,4.973,3.0
56.779,0.874,5.542,6.0
31.065,0.488,3.902,30.0
46.407,0.734,5.558,5.0
52.211,0.831,5.95,9.0
37.028,0.593,4.0,3.0
58.624,0.945,5.994,4.0
52.539,0.852,5.067,18.0
31.082,0.514,3.867,61.0
47.102,0.784,5.586,10.0
48.147,0.806,5.429,9.0
37.067,0.624,3.96,3.0
53.437,0.905,5.4,5.0
40.471,0.689,3.855,28.0
31.088,0.539,3.83,3.0
47.077,0.821,5.526,6.0
47.853,0.84,5.338,5.0
37.093,0.654,3.918,7.0
52.565,0.932,5.247,20.0
40.391,0.72,3.798,32.0
46.401,0.842,5.66,7.0
47.017,0.857,5.46,6.0
46.207,0.847,5.097,9.0
52.539,0.967,5.484,49.0
52.631,0.973,5.188,7.0
40.304,0.749,3.739,34.0
47.493,0.898,5.732,7.0
52.249,0.992,6.0,5.0
52.528,1.002,5.726,22.0
52.55,1.007,5.417,4.0
46.538,0.895,4.527,4.0
40.235,0.777,3.68,32.0
54.202,1.064,6.47,5.0
52.473,1.034,5.957,17.0
52.263,1.034,5.628,13.0
36.476,0.725,3.712,2.0
46.576,0.929,4.469,10.0
46.52,0.931,4.194,5.0
52.194,1.061,6.161,6.0
46.184,0.942,5.181,3.0
37.084,0.759,3.943,2.0
46.56,0.957,4.675,32.0
52.494,1.083,4.965,16.0
40.389,0.836,3.586,25.0
48.578,1.021,5.665,0.0
46.211,0.974,5.119,7.0
37.032,0.783,3.886,6.0
52.95,1.124,5.242,11.0
52.444,1.116,4.887,14.0
46.484,0.993,4.061,8.0
58.254,1.262,6.711,3.0
55.247,1.201,6.041,4.0
46.528,1.014,4.816,37.0
52.515,1.148,5.124,21.0
46.552,1.02,4.271,5.0
43.988,0.967,3.78,4.0
36.83,0.821,4.189,2.0
46.57,1.041,5.024,12.0
46.559,1.043,4.751,3.0
40.417,0.907,3.885,38.0
40.266,0.907,3.636,2.0
43.394,0.979,3.666,18.0
46.455,1.062,5.215,15.0
46.6,1.068,4.958,7.0
52.616,1.209,5.291,17.0
46.558,1.072,4.405,4.0
40.399,0.932,3.587,11.0
42.876,0.992,3.558,5.0
46.553,1.09,5.156,40.0
46.465,1.09,4.873,5.0
52.675,1.239,5.217,20.0
40.36,0.951,3.758,9.0
40.37,0.953,3.524,6.0
52.262,1.236,4.258,3.0
48.081,1.151,5.251,2.0
59.608,1.43,6.161,5.0
46.549,1.118,4.539,12.0
43.814,1.054,4.012,6.0
43.471,1.048,3.727,10.0
43.028,1.039,3.439,3.0
57.69,1.41,6.209,4.0
57.702,1.412,5.872,2.0
40.334,0.988,3.869,29.0
46.369,1.138,4.172,10.0
52.344,1.287,4.405,9.0
57.883,1.425,4.535,9.0
46.449,1.156,4.924,8.0
46.521,1.16,4.66,5.0
40.34,1.006,3.805,62.0
40.408,1.009,3.572,21.0
52.23,1.306,4.312,15.0
57.815,1.448,4.437,3.0
36.951,0.935,3.858,3.0
46.571,1.18,4.59,14.0
40.407,1.025,3.746,58.0
40.393,1.025,3.505,8.0
0.0,0.0,0.0,0.0
65.96,1.678,4.954,23.0
52.459,1.348,5.39,2.0
52.852,1.359,5.12,7.0
40.438,1.041,3.681,60.0
0.0,0.0,0.0,0.0
52.134,1.344,4.132,17.0
52.931,1.366,3.887,6.0
46.586,1.214,4.708,30.0
40.36,1.052,3.842,27.0
40.402,1.054,3.609,23.0
52.218,1.363,4.355,23.0
57.793,1.509,4.483,3.0
68.094,1.779,4.887,13.0
54.133,1.428,5.378,5.0
40.364,1.065,3.773,69.0
40.409,1.066,3.541,13.0
52.151,1.377,4.261,19.0
65.861,1.739,4.997,4.0
67.953,1.796,4.76,8.0
53.13,1.416,5.187,18.0
40.375,1.076,3.705,70.0
51.884,1.383,4.458,25.0
52.108,1.389,4.167,7.0
52.623,1.403,3.902,10.0
68.075,1.815,4.651,5.0
52.749,1.419,5.058,8.0
40.389,1.086,3.636,19.0
52.236,1.404,4.397,18.0
57.622,1.549,4.507,9.0
68.141,1.832,4.934,14.0
104.815,2.818,6.979,6.0
40.371,1.094,3.799,49.0
40.401,1.095,3.566,19.0
43.402,1.175,3.577,4.0
52.511,1.422,4.016,11.0
67.886,1.838,4.796,11.0
110.255,2.985,7.147,3.0
40.391,1.102,3.73,75.0
42.842,1.168,3.705,2.0
52.057,1.418,4.198,6.0
52.532,1.431,3.924,20.0
67.744,1.844,4.666,5.0
67.407,1.834,4.25,1.0
40.379,1.107,3.656,38.0
59.964,1.642,5.079,13.0
57.755,1.581,4.554,16.0
52.939,1.448,3.86,5.0
104.947,2.869,7.04,5.0
67.443,1.842,4.131,3.0
40.404,1.111,3.585,22.0
43.66,1.2,3.619,3.0
52.511,1.441,4.046,10.0
68.022,1.865,4.836,12.0
102.311,2.805,6.678,5.0
101.179,2.771,6.014,3.0
40.401,1.113,3.511,3.0
43.023,1.185,3.487,4.0
52.531,1.445,3.95,29.0
53.748,1.476,3.722,2.0
110.048,3.02,6.98,2.0
69.123,1.895,3.981,2.0
59.989,1.655,5.102,11.0
57.774,1.591,4.575,13.0
52.798,1.452,3.873,6.0
68.256,1.875,4.601,3.0
67.47,1.851,4.154,4.0
69.171,1.895,3.857,2.0
43.625,1.202,3.629,4.0
52.521,1.445,4.061,10.0
68.112,1.872,4.868,10.0
102.256,2.806,6.701,5.0
101.226,2.774,6.044,3.0
118.316,3.237,6.376,8.0
52.016,1.431,4.228,5.0
52.517,1.442,3.962,29.0
53.774,1.474,3.742,3.0
200.272,5.481,12.75,7.0
69.1,1.888,3.997,2.0
103.845,2.833,5.402,6.0
57.767,1.584,4.588,14.0
52.733,1.443,3.879,6.0
68.312,1.865,4.626,4.0
67.406,1.837,4.164,4.0
103.713,2.822,5.803,6.0
103.268,2.804,5.178,1.0
57.589,1.571,4.464,9.0
68.107,1.854,4.88,11.0
104.542,2.84,6.881,4.0
69.506,1.884,4.163,2.0
103.566,2.802,5.599,7.0
103.224,2.786,4.98,5.0
52.538,1.424,3.972,17.0
67.693,1.83,4.721,4.0
124.717,3.365,7.97,2.0
69.194,1.862,4.01,9.0
103.793,2.787,5.41,6.0
0.0,0.0,0.0,0.0
68.201,1.834,5.024,10.0
68.258,1.83,4.629,5.0
67.46,1.804,4.18,3.0
69.234,1.847,3.88,6.0
117.914,3.139,5.922,2.0
120.098,3.188,5.333,5.0
68.107,1.814,4.886,19.0
104.708,2.781,6.9,5.0
69.619,1.844,4.18,4.0
103.797,2.741,5.616,10.0
103.079,2.715,4.976,6.0
120.015,3.153,5.095,3.0
67.856,1.787,4.734,7.0
102.518,2.692,6.554,3.0
69.123,1.809,4.015,6.0
103.846,2.711,5.417,5.0
124.811,3.248,5.783,4.0
102.7,2.664,4.16,6.0
103.065,2.68,6.991,5.0
67.491,1.749,4.183,2.0
69.06,1.784,3.877,9.0
102.969,2.651,5.169,1.0
120.017,3.08,5.327,4.0
194.145,4.968,7.489,4.0
102.23,2.62,6.734,5.0
69.571,1.776,4.176,10.0
103.895,2.644,5.631,8.0
110.367,2.799,5.328,3.0
102.453,2.589,4.35,3.0
0.0,0.0,0.0,0.0
67.509,1.702,4.315,4.0
69.432,1.744,4.033,10.0
103.895,2.6,5.428,12.0
116.261,2.899,5.387,2.0
102.708,2.551,4.16,5.0
0.0,0.0,0.0,0.0
67.461,1.671,4.181,2.0
110.055,2.715,6.178,3.0
103.666,2.546,5.216,2.0
103.126,2.523,4.577,2.0
132.641,3.232,5.115,2.0
135.015,3.276,4.42,3.0
69.427,1.685,4.167,6.0
103.591,2.504,5.614,2.0
110.406,2.657,5.338,2.0
102.901,2.465,4.365,1.0
0.0,0.0,0.0,0.0
194.75,4.626,5.997,12.0
103.139,2.449,5.988,3.0
103.832,2.453,5.422,12.0
102.946,2.422,4.776,3.0
102.569,2.401,4.152,6.0
0.0,0.0,0.0,0.0
194.68,4.516,5.615,13.0
110.402,2.559,6.195,5.0
69.213,1.596,3.479,1.0
0.0,0.0,0.0,0.0
133.047,3.036,5.123,2.0
0.0,0.0,0.0,0.0
194.685,4.399,5.235,24.0
68.636,1.549,3.716,3.0
118.337,2.656,5.718,2.0
124.875,2.788,5.307,5.0
140.16,3.113,5.127,3.0
0.0,0.0,0.0,0.0
194.579,4.274,4.855,21.0
103.797,2.276,5.42,13.0
103.038,2.246,4.779,4.0
102.685,2.225,4.165,5.0
140.616,3.029,4.87,2.0
194.787,4.172,5.616,24.0
194.51,4.142,4.479,14.0
118.272,2.512,5.946,7.0
118.769,2.507,5.278,2.0
157.135,3.296,6.069,3.0
147.636,3.078,4.83,3.0
194.869,4.037,5.242,8.0
194.357,4.0,4.097,15.0
69.285,1.421,3.349,6.0
124.604,2.54,5.297,5.0
0.0,0.0,0.0,0.0
0.0,0.0,0.0,0.0
194.733,3.888,4.861,21.0
0.0,0.0,0.0,0.0
118.32,2.337,5.49,10.0
124.728,2.446,5.061,11.0
0.0,0.0,0.0,0.0
0.0,0.0,0.0,0.0
194.566,3.733,4.481,12.0
0.0,0.0,0.0,0.0
118.345,2.243,5.263,20.0
124.815,2.347,4.823,24.0
0.0,0.0,0.0,0.0
0.0,0.0,0.0,0.0
194.539,3.573,4.108,11.0
194.845,3.549,2.98,6.0
118.392,2.144,5.036,19.0
124.75,2.241,4.582,18.0
148.113,2.638,4.58,3.0
194.912,3.441,4.874,5.0
194.789,3.41,3.74,22.0
0.0,0.0,0.0,0.0
118.538,2.043,4.817,27.0
124.854,2.134,4.349,23.0
0.0,0.0,0.0,0.0
194.855,3.268,4.503,7.0
194.81,3.238,3.373,25.0
0.0,0.0,0.0,0.0
118.521,1.936,4.592,7.0
124.807,2.019,4.111,8.0
196.921,3.153,5.341,6.0
196.133,3.108,4.162,22.0
194.79,3.054,3.002,25.0
0.0,0.0,0.0,0.0
118.511,1.824,4.368,7.0
157.134,2.392,4.879,22.0
196.361,2.956,4.957,26.0
195.023,2.903,3.773,30.0
0.0,0.0,0.0,0.0
99.886,1.454,0.774,1.0
118.424,1.706,4.143,21.0
157.693,2.245,4.602,14.0
20.306,0.285,0.474,0.0
20.261,0.281,0.354,0.0
0.0,0.0,0.0,0.0
99.646,1.349,0.585,5.0
118.255,1.584,3.918,13.0
20.278,0.267,0.554,9.0
20.288,0.264,0.436,19.0
20.29,0.26,0.316,13.0
20.288,0.257,0.199,1.0
99.545,1.243,0.399,5.0
148.574,1.832,4.646,18.0
20.288,0.246,0.516,27.0
20.274,0.242,0.398,25.0
20.29,0.239,0.279,21.0
20.298,0.235,0.161,15.0
20.329,0.232,0.044,1.0
20.269,0.228,0.596,16.0
20.263,0.224,0.479,27.0
20.267,0.22,0.361,32.0
20.28,0.216,0.242,25.0
20.303,0.212,0.124,28.0
20.324,0.209,0.007,17.0
20.271,0.205,0.56,28.0
20.27,0.201,0.442,32.0
20.288,0.197,0.325,27.0
20.296,0.193,0.205,28.0
20.317,0.189,0.088,35.0
20.306,0.185,-0.029,18.0
20.262,0.181,0.523,32.0
20.255,0.177,0.405,26.0
20.259,0.173,0.288,25.0
20.24,0.169,0.169,25.0
20.235,0.165,0.051,23.0
20.204,0.161,-0.065,23.0
20.164,0.156,0.484,20.0
20.184,0.153,0.368,25.0
20.181,0.148,0.251,21.0
20.191,0.144,0.132,26.0
20.187,0.14,0.015,26.0
20.176,0.136,-0.101,34.0
20.171,0.132,0.449,26.0
20.166,0.127,0.332,27.0
20.175,0.123,0.215,23.0
20.191,0.119,0.097,33.0
20.182,0.115,-0.019,28.0
20.182,0.111,-0.136,35.0
20.163,0.106,0.414,29.0
20.162,0.102,0.297,28.0
20.147,0.098,0.18,27.0
20.189,0.093,0.062,33.0
20.197,0.089,-0.054,33.0
20.201,0.085,-0.171,26.0
20.146,0.08,0.378,29.0
20.142,0.076,0.262,26.0
20.146,0.071,0.145,26.0
20.2,0.067,0.027,31.0
20.201,0.063,-0.089,25.0
20.212,0.058,-0.206,5.0
20.15,0.053,0.344,30.0
20.139,0.049,0.227,28.0
20.146,0.045,0.111,28.0
20.248,0.04,-0.007,25.0
20.27,0.035,-0.124,150.0
20.259,0.031,-0.241,150.0
20.136,0.026,0.31,29.0
20.126,0.022,0.193,27.0
20.177,0.017,0.078,37.0
20.256,0.013,-0.04,151.0
20.259,0.008,-0.157,150.0
20.244,0.004,-0.274,17.0
20.127,0.0,0.277,27.0
20.121,-0.005,0.16,27.0
20.131,-0.01,0.044,18.0
20.158,-0.014,-0.073,19.0
20.164,-0.019,-0.19,10.0
20.166,-0.024,-0.306,8.0
20.122,-0.028,0.244,34.0
20.125,-0.033,0.128,35.0
20.13,-0.038,0.012,34.0
20.144,-0.043,-0.105,32.0
20.133,-0.047,-0.222,16.0
20.167,-0.053,-0.338,22.0
20.124,-0.057,0.212,31.0
20.137,-0.062,0.096,41.0
20.136,-0.067,-0.019,29.0
20.137,-0.072,-0.137,35.0
20.136,-0.077,-0.254,33.0
20.153,-0.082,-0.37,24.0
20.133,-0.087,0.18,28.0
20.128,-0.091,0.064,35.0
20.15,-0.097,-0.051,28.0
20.144,-0.102,-0.169,29.0
20.144,-0.107,-0.285,37.0
20.153,-0.112,-0.402,38.0
20.13,-0.116,0.149,19.0
20.147,-0.121,0.033,26.0
20.164,-0.126,-0.082,22.0
20.134,-0.131,-0.2,10.0
20.149,-0.136,-0.316,31.0
20.154,-0.142,-0.432,35.0
20.191,-0.147,0.119,15.0
20.187,-0.152,0.003,11.0
20.168,-0.157,-0.112,12.0
20.171,-0.162,-0.231,21.0
20.174,-0.168,-0.347,25.0
20.181,-0.173,-0.463,24.0
53.379,-0.471,0.236,11.0
56.231,-0.511,-0.075,7.0
56.567,-0.529,-0.4,1.0
44.908,-0.432,-0.581,31.0
20.201,-0.199,-0.377,8.0
20.178,-0.204,-0.493,23.0
56.211,-0.584,0.166,2.0
56.211,-0.598,-0.156,6.0
52.828,-0.576,-0.45,5.0
38.784,-0.433,-0.557,5.0
35.803,-0.409,-0.721,4.0
29.739,-0.348,-0.769,2.0
59.584,-0.712,0.091,20.0
56.329,-0.689,-0.237,0.0
52.717,-0.659,-0.525,5.0
38.133,-0.487,-0.603,15.0
31.638,-0.413,-0.682,26.0
28.289,-0.376,-0.772,2.0
59.527,-0.808,0.007,86.0
56.623,-0.784,-0.318,9.0
45.09,-0.636,-0.512,19.0
37.885,-0.545,-0.652,20.0
30.614,-0.449,-0.702,28.0
27.013,-0.403,-0.775,2.0
20.129,-0.305,-0.025,9.0
59.265,-0.916,-0.413,8.0
44.894,-0.707,-0.571,25.0
36.005,-0.577,-0.668,2.0
30.089,-0.49,-0.731,20.0
26.152,-0.434,-0.786,1.0
20.124,-0.339,-0.052,8.0
52.91,-0.906,-0.44,28.0
38.584,-0.672,-0.543,9.0
31.407,-0.556,-0.625,13.0
28.81,-0.518,-0.738,14.0
25.343,-0.463,-0.795,1.0
52.959,-0.981,-0.207,63.0
45.456,-0.854,-0.438,19.0
38.205,-0.729,-0.587,18.0
30.823,-0.597,-0.653,30.0
28.306,-0.556,-0.762,2.0
23.599,-0.47,-0.771,1.0
45.608,-0.922,-0.236,6.0
38.363,-0.786,-0.418,26.0
37.938,-0.788,-0.631,17.0
30.511,-0.643,-0.685,33.0
25.345,-0.541,-0.714,1.0
23.211,-0.502,-0.787,3.0
40.44,-0.886,-0.26,27.0
0.0,0.0,0.0,0.0
31.534,-0.709,-0.563,2.0
30.403,-0.693,-0.72,19.0
0.0,0.0,0.0,0.0
22.37,-0.523,-0.786,1.0
40.422,-0.955,-0.309,45.0
38.485,-0.921,-0.514,25.0
31.254,-0.757,-0.596,25.0
0.0,0.0,0.0,0.0
24.212,-0.601,-0.741,21.0
21.725,-0.546,-0.79,0.0
38.744,-0.983,-0.341,37.0
38.246,-0.982,-0.556,14.0
30.832,-0.801,-0.624,31.0
28.484,-0.748,-0.742,2.0
23.79,-0.632,-0.756,17.0
20.976,-0.564,-0.786,0.0
38.675,-1.048,-0.384,41.0
38.034,-1.043,-0.595,15.0
30.579,-0.848,-0.653,35.0
27.404,-0.768,-0.745,1.0
23.713,-0.672,-0.78,9.0
20.699,-0.593,-0.799,1.0
38.626,-1.115,-0.427,50.0
37.891,-1.105,-0.635,15.0
30.474,-0.898,-0.684,32.0
25.202,-0.751,-0.712,6.0
22.961,-0.691,-0.78,2.0
20.132,-0.612,-0.799,3.0
38.574,-1.182,-0.467,32.0
31.312,-0.969,-0.558,20.0
30.38,-0.95,-0.714,15.0
24.606,-0.777,-0.721,14.0
22.171,-0.707,-0.777,2.0
19.628,-0.632,-0.8,8.0
38.466,-1.248,-0.506,15.0
31.05,-1.017,-0.585,29.0
0.0,0.0,0.0,0.0
24.137,-0.806,-0.732,21.0
21.888,-0.738,-0.789,0.0
18.921,-0.644,-0.79,3.0
38.264,-1.311,-0.541,14.0
30.766,-1.064,-0.61,31.0
28.457,-0.993,-0.726,1.0
23.781,-0.837,-0.745,21.0
21.13,-0.751,-0.782,0.0
18.594,-0.666,-0.794,3.0
38.081,-1.373,-0.575,7.0
30.593,-1.113,-0.636,37.0
27.787,-1.02,-0.735,0.0
23.739,-0.879,-0.766,10.0
20.571,-0.768,-0.781,1.0
18.334,-0.69,-0.8,1.0
31.256,-1.184,-0.5,43.0
30.514,-1.166,-0.662,31.0
25.124,-0.968,-0.688,2.0
23.502,-0.913,-0.779,5.0
20.393,-0.799,-0.792,1.0
18.039,-0.712,-0.803,1.0
28.463,-1.13,-0.481,69.0
28.465,-1.139,-0.642,67.0
24.899,-1.004,-0.703,5.0
22.416,-0.911,-0.762,1.0
19.927,-0.817,-0.791,1.0
17.797,-0.735,-0.808,1.0
28.458,-1.181,-0.504,123.0
28.451,-1.191,-0.665,143.0
24.348,-1.027,-0.707,18.0
22.048,-0.937,-0.768,1.0
19.533,-0.836,-0.791,0.0
17.415,-0.752,-0.805,1.0
28.476,-1.235,-0.528,61.0
28.473,-1.244,-0.689,56.0
24.002,-1.056,-0.716,18.0
21.804,-0.967,-0.777,1.0
19.226,-0.859,-0.794,0.0
17.229,-0.775,-0.809,1.0
30.791,-1.391,-0.594,34.0
28.53,-1.299,-0.711,4.0
23.861,-1.094,-0.73,16.0
21.294,-0.983,-0.774,1.0
18.937,-0.881,-0.796,0.0
16.913,-0.793,-0.807,1.0
30.697,-1.443,-0.614,34.0
28.005,-1.326,-0.718,2.0
23.778,-1.134,-0.745,12.0
21.021,-1.01,-0.779,0.0
18.553,-0.897,-0.793,1.0
16.657,-0.811,-0.806,1.0
30.627,-1.497,-0.633,33.0
24.727,-1.217,-0.651,3.0
23.666,-1.173,-0.757,8.0
20.667,-1.031,-0.78,0.0
18.295,-0.919,-0.794,0.0
16.519,-0.835,-0.81,1.0
30.59,-1.552,-0.652,33.0
24.462,-1.25,-0.66,16.0
23.326,-1.199,-0.761,5.0
20.318,-1.051,-0.779,0.0
18.121,-0.944,-0.798,0.0
16.368,-0.858,-0.813,1.0
30.569,-1.607,-0.67,4.0
24.335,-1.288,-0.671,17.0
22.898,-1.22,-0.761,4.0
20.127,-1.079,-0.784,0.0
17.786,-0.959,-0.793,0.0
16.221,-0.881,-0.815,1.0
24.516,-1.335,-0.551,39.0
24.259,-1.329,-0.682,17.0
22.402,-1.235,-0.756,2.0
19.876,-1.102,-0.785,1.0
17.623,-0.983,-0.796,0.0
16.104,-0.904,-0.818,0.0
24.483,-1.378,-0.563,34.0
24.13,-1.366,-0.691,16.0
22.091,-1.258,-0.757,1.0
19.528,-1.119,-0.781,1.0
17.499,-1.009,-0.799,0.0
16.071,-0.932,-0.824,1.0
24.473,-1.422,-0.575,37.0
24.016,-1.404,-0.699,14.0
21.812,-1.283,-0.758,1.0
19.319,-1.143,-0.782,1.0
17.354,-1.032,-0.8,0.0
15.88,-0.95,-0.822,1.0
24.45,-1.466,-0.585,41.0
23.952,-1.444,-0.708,15.0
21.42,-1.299,-0.753,1.0
19.154,-1.168,-0.783,0.0
17.115,-1.05,-0.796,0.0
15.772,-0.973,-0.823,1.0
24.43,-1.51,-0.595,32.0
23.86,-1.483,-0.715,14.0
21.264,-1.328,-0.756,1.0
18.901,-1.187,-0.78,0.0
17.008,-1.074,-0.798,0.0
15.713,-0.998,-0.825,1.0
24.434,-1.555,-0.604,31.0
23.821,-1.524,-0.722,14.0
21.005,-1.351,-0.754,0.0
18.793,-1.215,-0.782,1.0
16.915,-1.099,-0.799,1.0
15.607,-1.02,-0.825,0.0
24.444,-1.6,-0.612,31.0
23.794,-1.565,-0.729,13.0
20.898,-1.382,-0.757,0.0
18.629,-1.238,-0.781,1.0
16.814,-1.124,-0.799,1.0
15.574,-1.046,-0.828,0.0
24.47,-1.646,-0.619,26.0
23.786,-1.608,-0.735,13.0
20.882,-1.419,-0.762,1.0
18.475,-1.262,-0.78,1.0
16.767,-1.151,-0.802,1.0
15.509,-1.07,-0.828,1.0
24.544,-1.696,-0.627,18.0
23.726,-1.647,-0.739,8.0
20.678,-1.443,-0.76,0.0
18.366,-1.288,-0.779,1.0
16.62,-1.171,-0.798,1.0
15.454,-1.094,-0.829,1.0
24.752,-1.755,-0.638,5.0
23.645,-1.685,-0.741,5.0
20.517,-1.469,-0.758,0.0
18.301,-1.316,-0.78,1.0
16.564,-1.197,-0.798,1.0
15.379,-1.117,-0.827,1.0
24.814,-1.804,-0.643,6.0
23.611,-1.725,-0.744,7.0
20.519,-1.505,-0.761,1.0
18.33,-1.351,-0.784,1.0
16.574,-1.228,-0.801,1.0
15.354,-1.143,-0.828,1.0
24.962,-1.859,-0.65,6.0
23.644,-1.769,-0.748,5.0
20.498,-1.541,-0.762,1.0
18.287,-1.381,-0.784,2.0
16.529,-1.254,-0.801,1.0
15.374,-1.171,-0.831,1.0
24.917,-1.9,-0.651,6.0
23.469,-1.797,-0.744,5.0
20.375,-1.567,-0.759,1.0
18.261,-1.411,-0.784,2.0
16.482,-1.279,-0.799,2.0
15.329,-1.195,-0.829,1.0
25.163,-1.963,-0.659,6.0
23.383,-1.831,-0.742,5.0
20.405,-1.605,-0.761,1.0
18.282,-1.444,-0.785,1.0
16.447,-1.305,-0.798,1.0
15.302,-1.219,-0.828,1.0
25.194,-2.009,-0.66,6.0
23.447,-1.877,-0.744,5.0
20.328,-1.634,-0.758,2.0
18.292,-1.477,-0.785,1.0
16.442,-1.333,-0.798,1.0
15.338,-1.249,-0.829,1.0
25.361,-2.065,-0.663,6.0
23.431,-1.916,-0.743,5.0
20.336,-1.67,-0.757,2.0
18.271,-1.506,-0.784,1.0
16.415,-1.359,-0.795,1.0
15.345,-1.276,-0.829,1.0
25.272,-2.102,-0.659,6.0
23.453,-1.958,-0.741,5.0
20.298,-1.701,-0.754,1.0
18.292,-1.539,-0.783,1.0
16.43,-1.388,-0.794,1.0
15.34,-1.301,-0.827,1.0
27.068,-2.296,-0.703,1.0
23.477,-1.999,-0.74,5.0
20.385,-1.742,-0.755,0.0
18.316,-1.572,-0.782,0.0
16.381,-1.411,-0.79,1.0
15.349,-1.327,-0.825,1.0
27.007,-2.336,-0.697,4.0
23.455,-2.036,-0.735,5.0
20.434,-1.781,-0.753,0.0
18.289,-1.6,-0.777,1.0
16.392,-1.439,-0.787,1.0
15.353,-1.353,-0.823,1.0
27.068,-2.385,-0.694,7.0
23.57,-2.084,-0.735,5.0
20.463,-1.816,-0.75,1.0
18.346,-1.634,-0.776,1.0
16.484,-1.474,-0.789,1.0
15.393,-1.382,-0.821,1.0
27.088,-2.431,-0.688,6.0
23.696,-2.134,-0.733,5.0
20.623,-1.864,-0.752,1.0
18.439,-1.672,-0.776,1.0
16.506,-1.502,-0.786,1.0
15.443,-1.411,-0.82,1.0
27.199,-2.485,-0.684,7.0
23.712,-2.173,-0.727,6.0
20.695,-1.903,-0.749,0.0
18.562,-1.713,-0.776,1.0
16.591,-1.537,-0.785,0.0
15.441,-1.435,-0.816,1.0
27.255,-2.533,-0.678,7.0
23.956,-2.233,-0.727,5.0
20.915,-1.956,-0.75,1.0
18.655,-1.751,-0.774,1.0
16.69,-1.572,-0.784,0.0
15.498,-1.464,-0.814,1.0
27.479,-2.596,-0.674,7.0
24.014,-2.276,-0.721,5.0
21.029,-1.999,-0.747,0.0
18.773,-1.791,-0.772,0.0
16.861,-1.614,-0.786,1.0
15.557,-1.494,-0.811,1.0
27.768,-2.665,-0.671,7.0
24.323,-2.342,-0.721,5.0
21.055,-2.034,-0.74,1.0
18.924,-1.834,-0.771,1.0
16.922,-1.645,-0.783,0.0
15.632,-1.525,-0.809,1.0
27.772,-2.708,-0.66,3.0
24.6,-2.406,-0.72,5.0
21.348,-2.094,-0.742,0.0
19.051,-1.874,-0.768,1.0
16.987,-1.677,-0.778,0.0
15.677,-1.552,-0.804,1.0
27.894,-2.761,-0.651,2.0
24.779,-2.46,-0.714,5.0
21.468,-2.137,-0.736,1.0
19.24,-1.921,-0.767,2.0
17.147,-1.717,-0.778,0.0
15.777,-1.585,-0.802,1.0
28.056,-2.817,-0.641,1.0
24.974,-2.515,-0.707,5.0
21.842,-2.206,-0.738,1.0
19.38,-1.963,-0.763,1.0
17.331,-1.76,-0.777,0.0
15.91,-1.621,-0.801,1.0
28.654,-2.918,-0.641,1.0
25.213,-2.574,-0.702,6.0
21.957,-2.248,-0.731,1.0
19.609,-2.013,-0.762,1.0
17.56,-1.808,-0.779,0.0
16.0,-1.652,-0.797,1.0
29.537,-3.049,-0.645,1.0
25.571,-2.646,-0.698,6.0
22.339,-2.318,-0.731,2.0
19.771,-2.057,-0.757,2.0
17.831,-1.86,-0.781,1.0
16.169,-1.692,-0.796,1.0
30.19,-3.157,-0.642,3.0
25.917,-2.717,-0.692,6.0
22.523,-2.367,-0.724,3.0
20.045,-2.112,-0.756,2.0
17.967,-1.898,-0.776,1.0
16.262,-1.723,-0.791,1.0
30.403,-3.219,-0.628,4.0
26.112,-2.772,-0.681,6.0
22.854,-2.432,-0.721,4.0
20.217,-2.157,-0.75,2.0
18.138,-1.94,-0.772,1.0
16.357,-1.754,-0.786,1.0
30.91,-3.313,-0.619,7.0
26.569,-2.855,-0.677,4.0
23.07,-2.485,-0.713,4.0
20.536,-2.217,-0.749,3.0
18.238,-1.974,-0.764,1.0
16.545,-1.795,-0.784,1.0
31.293,-3.393,-0.606,9.0
26.834,-2.917,-0.666,2.0
23.485,-2.559,-0.71,4.0
20.768,-2.268,-0.743,3.0
18.627,-2.039,-0.768,1.0
16.799,-1.844,-0.784,1.0
31.443,-3.448,-0.587,10.0
27.362,-3.007,-0.66,2.0
23.979,-2.641,-0.709,5.0
21.005,-2.319,-0.737,3.0
18.844,-2.085,-0.764,1.0
16.985,-1.884,-0.781,1.0
31.691,-3.513,-0.569,24.0
27.729,-3.081,-0.648,2.0
24.344,-2.71,-0.702,5.0
21.341,-2.381,-0.733,3.0
19.108,-2.137,-0.76,1.0
17.212,-1.929,-0.778,1.0
32.066,-3.592,-0.552,24.0
28.414,-3.189,-0.643,4.0
24.873,-2.797,-0.698,5.0
21.813,-2.459,-0.733,3.0
19.396,-2.191,-0.757,1.0
17.345,-1.963,-0.771,1.0
32.6,-3.687,-0.537,32.0
29.329,-3.324,-0.642,2.0
25.118,-2.852,-0.686,3.0
22.113,-2.516,-0.726,4.0
19.792,-2.257,-0.757,2.0
17.674,-2.02,-0.772,0.0
32.992,-3.767,-0.517,31.0
29.753,-3.404,-0.627,8.0
25.672,-2.943,-0.68,3.0
22.504,-2.584,-0.721,4.0
20.0,-2.301,-0.749,1.0
17.901,-2.064,-0.767,0.0
33.501,-3.86,-0.498,34.0
29.871,-3.448,-0.605,14.0
26.172,-3.027,-0.672,3.0
22.891,-2.652,-0.714,5.0
20.435,-2.372,-0.748,1.0
18.263,-2.124,-0.767,0.0
33.943,-3.945,-0.476,32.0
30.098,-3.504,-0.584,21.0
26.764,-3.121,-0.664,2.0
23.214,-2.712,-0.704,5.0
20.685,-2.421,-0.739,2.0
18.662,-2.188,-0.768,1.0
34.413,-4.033,-0.453,28.0
30.652,-3.598,-0.569,20.0
27.377,-3.219,-0.656,2.0
23.735,-2.795,-0.699,2.0
21.163,-2.497,-0.738,4.0
18.926,-2.237,-0.762,2.0
34.939,-4.127,-0.428,22.0
31.326,-3.706,-0.553,22.0
28.204,-3.342,-0.65,5.0
24.311,-2.885,-0.694,2.0
21.621,-2.57,-0.734,4.0
19.229,-2.29,-0.757,2.0
39.764,-4.731,-0.451,4.0
31.985,-3.811,-0.536,28.0
28.565,-3.409,-0.632,7.0
25.052,-2.994,-0.692,4.0
21.928,-2.625,-0.724,4.0
19.616,-2.352,-0.754,3.0
39.872,-4.778,-0.415,13.0
32.674,-3.921,-0.516,29.0
29.127,-3.5,-0.617,8.0
25.472,-3.065,-0.68,3.0
22.409,-2.701,-0.719,3.0
19.941,-2.407,-0.747,2.0
40.07,-4.834,-0.379,17.0
33.15,-4.004,-0.493,28.0
29.478,-3.565,-0.597,22.0
26.103,-3.161,-0.672,2.0
22.886,-2.776,-0.713,2.0
20.402,-2.478,-0.745,2.0
40.247,-4.885,-0.342,16.0
33.768,-4.104,-0.469,28.0
29.902,-3.639,-0.576,24.0
26.666,-3.249,-0.66,3.0
23.316,-2.845,-0.703,2.0
20.796,-2.541,-0.739,4.0
40.508,-4.946,-0.305,6.0
34.343,-4.198,-0.443,26.0
30.336,-3.713,-0.554,21.0
27.308,-3.346,-0.649,2.0
23.933,-2.936,-0.697,2.0
21.28,-2.614,-0.735,3.0
46.124,-5.663,-0.3,21.0
39.687,-4.878,-0.472,2.0
31.138,-3.831,-0.537,22.0
27.985,-3.447,-0.636,7.0
24.524,-3.024,-0.69,3.0
21.77,-2.688,-0.729,4.0
46.623,-5.754,-0.256,21.0
39.752,-4.911,-0.431,12.0
31.885,-3.943,-0.518,26.0
28.47,-3.524,-0.618,15.0
25.182,-3.121,-0.682,4.0
22.235,-2.759,-0.722,4.0
47.55,-5.896,-0.211,23.0
39.926,-4.955,-0.392,23.0
32.772,-4.071,-0.498,25.0
28.761,-3.577,-0.594,20.0
25.706,-3.2,-0.669,3.0
22.724,-2.831,-0.714,3.0
48.901,-6.09,-0.167,23.0
40.155,-5.005,-0.352,15.0
33.462,-4.175,-0.473,25.0
29.332,-3.663,-0.575,22.0
26.555,-3.319,-0.663,2.0
23.266,-2.911,-0.706,4.0
55.44,-6.933,-0.129,6.0
40.411,-5.057,-0.311,13.0
34.182,-4.281,-0.446,30.0
29.947,-3.753,-0.555,22.0
27.186,-3.41,-0.65,5.0
23.723,-2.978,-0.694,3.0
55.799,-7.003,-0.07,12.0
45.848,-5.758,-0.303,20.0
34.736,-4.365,-0.416,16.0
30.713,-3.863,-0.536,22.0
27.908,-3.512,-0.637,7.0
24.545,-3.092,-0.692,3.0
68.696,-8.65,-0.01,5.0
46.27,-5.83,-0.255,21.0
39.817,-5.02,-0.433,8.0
31.572,-3.983,-0.516,20.0
28.217,-3.562,-0.612,21.0
25.139,-3.176,-0.68,3.0
68.615,-8.665,0.064,5.0
47.508,-6.002,-0.21,22.0
39.869,-5.04,-0.39,15.0
32.527,-4.114,-0.496,22.0
28.742,-3.637,-0.593,20.0
25.909,-3.281,-0.673,2.0
68.384,-8.657,0.138,2.0
48.392,-6.129,-0.161,7.0
39.983,-5.066,-0.347,12.0
