X,Y,Z,Reflectivity
165.358,-20.406,4.27,25.0
189.496,-23.394,3.878,6.0
192.03,-23.717,2.882,24.0
80.389,-9.933,0.776,27.0
80.446,-9.944,0.347,18.0
85.572,-10.582,2.766,5.0
165.378,-20.456,4.461,18.0
139.641,-17.278,3.02,12.0
192.122,-23.78,3.109,25.0
80.457,-9.962,0.871,13.0
80.421,-9.961,0.442,21.0
85.345,-10.575,2.858,10.0
63.109,-7.821,1.776,2.0
139.619,-17.307,3.182,19.0
192.089,-23.818,3.33,22.0
191.98,-23.811,2.302,21.0
80.452,-9.981,0.534,27.0
84.879,-10.535,2.94,13.0
153.858,-19.098,4.507,4.0
139.597,-17.33,3.343,17.0
198.426,-24.638,3.67,7.0
192.059,-23.852,2.526,28.0
80.461,-9.995,0.628,28.0
84.598,-10.514,3.03,21.0
139.019,-17.277,4.234,10.0
63.088,-7.841,1.584,4.0
197.684,-24.571,3.889,7.0
192.062,-23.875,2.751,28.0
80.477,-10.005,0.722,25.0
84.498,-10.511,3.125,20.0
85.51,-10.636,2.704,5.0
63.08,-7.846,1.657,18.0
139.552,-17.357,2.905,12.0
192.09,-23.893,2.97,30.0
80.484,-10.011,0.814,21.0
84.51,-10.518,3.223,11.0
85.427,-10.63,2.799,9.0
63.047,-7.844,1.728,20.0
139.569,-17.364,3.064,25.0
192.064,-23.894,3.191,30.0
80.553,-10.021,0.906,7.0
137.515,-17.117,5.402,7.0
85.018,-10.58,2.884,8.0
63.13,-7.855,1.803,6.0
139.563,-17.362,3.226,25.0
192.059,-23.889,3.412,16.0
192.062,-23.887,2.384,26.0
137.523,-17.115,5.56,4.0
84.684,-10.536,2.97,13.0
141.496,-17.599,4.204,7.0
139.611,-17.36,3.385,18.0
198.345,-24.658,3.748,7.0
192.096,-23.877,2.602,24.0
137.296,-17.077,5.708,4.0
84.513,-10.507,3.059,20.0
139.112,-17.289,4.291,11.0
63.013,-7.829,1.599,5.0
197.959,-24.588,3.963,5.0
192.068,-23.85,2.819,25.0
137.12,-17.039,5.856,12.0
84.483,-10.493,3.154,20.0
85.494,-10.614,2.734,4.0
63.03,-7.821,1.671,9.0
139.626,-17.321,2.953,16.0
192.093,-23.821,3.034,23.0
137.038,-17.006,6.008,15.0
84.5,-10.48,3.25,9.0
85.377,-10.583,2.826,10.0
165.319,-20.483,4.569,10.0
139.705,-17.302,3.111,17.0
192.102,-23.781,3.248,19.0
137.005,-16.973,6.159,10.0
84.529,-10.465,3.346,1.0
84.976,-10.514,2.907,16.0
165.406,-20.454,4.755,5.0
139.701,-17.266,3.267,13.0
192.062,-23.727,3.46,5.0
110.712,-13.688,5.099,17.0
137.673,-17.009,5.602,4.0
84.681,-10.454,2.99,22.0
139.197,-17.174,4.155,13.0
165.422,-20.397,4.048,10.0
189.052,-23.297,3.613,11.0
110.709,-13.654,5.22,26.0
137.403,-16.933,5.741,4.0
84.592,-10.417,3.079,20.0
139.127,-17.12,4.302,13.0
165.347,-20.332,4.225,17.0
188.842,-23.205,3.813,6.0
110.807,-13.628,5.346,21.0
137.116,-16.849,5.877,15.0
84.547,-10.38,3.17,14.0
84.832,-10.406,2.715,13.0
165.281,-20.26,4.401,31.0
188.443,-23.082,4.008,20.0
136.89,-16.782,6.752,16.0
137.108,-16.793,6.023,13.0
84.835,-10.381,3.27,9.0
84.513,-10.332,2.795,23.0
165.113,-20.169,4.571,16.0
188.775,-23.039,4.214,7.0
136.973,-16.733,6.901,7.0
137.129,-16.735,6.168,12.0
84.878,-10.347,3.361,13.0
84.499,-10.291,2.882,32.0
85.819,-10.442,2.467,11.0
0.0,0.0,0.0,0.0
141.515,-17.22,7.277,3.0
137.132,-16.668,6.312,10.0
85.797,-10.417,3.486,13.0
84.504,-10.249,2.969,33.0
84.182,-10.199,2.505,19.0
139.186,-16.848,3.392,15.0
111.155,-13.468,5.828,8.0
137.154,-16.598,6.452,13.0
85.746,-10.364,3.571,15.0
84.61,-10.215,3.059,25.0
84.178,-10.152,2.589,34.0
139.108,-16.758,3.532,23.0
111.283,-13.42,5.948,11.0
140.918,-16.972,6.771,12.0
84.228,-10.131,3.592,16.0
84.61,-10.164,3.143,21.0
84.306,-10.116,2.678,32.0
138.933,-16.652,3.664,25.0
117.903,-14.146,6.42,21.0
141.25,-16.923,6.927,8.0
84.128,-10.066,3.671,20.0
84.88,-10.143,3.237,16.0
84.431,-10.076,2.764,30.0
84.354,-10.054,2.307,17.0
117.648,-14.038,6.521,21.0
118.9,-14.166,5.947,27.0
84.051,-10.0,3.748,17.0
84.082,-9.99,3.286,15.0
84.576,-10.035,2.85,31.0
84.33,-9.993,2.386,24.0
117.553,-13.945,6.627,15.0
118.835,-14.076,6.054,27.0
83.993,-9.934,3.824,14.0
83.957,-9.915,3.36,35.0
84.586,-9.975,2.928,33.0
84.189,-9.914,2.459,34.0
117.819,-13.89,6.749,18.0
118.932,-13.999,6.168,30.0
84.224,-9.898,3.912,9.0
83.919,-9.847,3.434,40.0
84.442,-9.893,2.999,29.0
84.144,-9.844,2.533,45.0
118.058,-13.827,6.87,24.0
118.963,-13.909,6.276,23.0
137.029,-15.996,6.487,10.0
83.912,-9.779,3.508,39.0
83.836,-9.755,3.051,41.0
83.524,-9.703,2.587,24.0
114.356,-13.3,6.756,11.0
119.063,-13.822,6.387,23.0
83.919,-9.725,4.046,27.0
83.903,-9.707,3.582,43.0
83.789,-9.677,3.122,42.0
83.212,-9.595,2.649,18.0
114.336,-13.199,6.852,13.0
85.139,-9.81,4.64,14.0
83.875,-9.647,4.114,42.0
84.053,-9.649,3.659,38.0
0.0,0.0,0.0,0.0
82.465,-9.435,2.694,18.0
109.759,-12.572,6.67,32.0
84.99,-9.716,4.702,15.0
83.891,-9.572,4.184,36.0
83.957,-9.562,3.723,39.0
83.486,-9.49,3.248,35.0
82.236,-9.331,2.753,27.0
109.766,-12.47,6.759,27.0
84.951,-9.631,4.768,13.0
83.978,-9.502,4.256,35.0
83.853,-9.469,3.784,44.0
82.633,-9.313,3.28,13.0
82.231,-9.251,2.817,29.0
109.816,-12.369,6.846,29.0
109.864,-12.347,6.251,10.0
83.977,-9.419,4.32,34.0
83.807,-9.38,3.846,48.0
82.558,-9.223,3.339,29.0
82.437,-9.191,2.886,38.0
110.016,-12.28,6.942,19.0
86.567,-9.641,4.989,15.0
83.853,-9.319,4.375,36.0
83.802,-9.294,3.907,41.0
82.589,-9.14,3.4,38.0
82.4,-9.101,2.943,35.0
117.157,-12.955,7.477,9.0
86.547,-9.547,5.05,16.0
83.705,-9.214,4.426,34.0
83.836,-9.208,3.966,42.0
82.553,-9.048,3.456,39.0
82.375,-9.01,2.999,35.0
117.164,-12.829,7.558,4.0
86.698,-9.471,5.118,16.0
83.735,-9.126,4.484,33.0
83.918,-9.126,4.027,31.0
82.605,-8.964,3.512,32.0
82.251,-8.905,3.049,34.0
111.724,-12.109,7.281,9.0
86.755,-9.38,5.178,18.0
83.837,-9.043,4.544,37.0
83.897,-9.028,4.08,43.0
83.13,-8.924,3.588,27.0
82.29,-8.814,3.102,35.0
111.753,-11.983,7.353,20.0
85.229,-9.116,5.139,17.0
84.03,-8.965,4.606,34.0
83.981,-8.938,4.136,41.0
82.992,-8.812,3.632,27.0
82.429,-8.731,3.157,35.0
111.791,-11.855,7.422,11.0
84.193,-8.905,5.127,18.0
84.124,-8.875,4.66,40.0
83.82,-8.821,4.176,23.0
82.078,-8.617,3.638,12.0
82.494,-8.639,3.205,33.0
112.107,-11.753,7.506,11.0
84.205,-8.805,5.174,14.0
84.077,-8.769,4.704,37.0
83.594,-8.696,4.209,34.0
81.971,-8.506,3.677,14.0
82.061,-8.494,3.232,36.0
109.361,-11.33,7.379,26.0
84.806,-8.763,5.254,10.0
83.643,-8.619,4.723,25.0
83.186,-8.548,4.231,31.0
82.018,-8.407,3.721,17.0
81.997,-8.382,3.27,36.0
109.307,-11.185,7.429,33.0
84.91,-8.664,5.303,28.0
83.583,-8.505,4.76,28.0
82.26,-8.347,4.223,40.0
82.139,-8.312,3.766,27.0
82.048,-8.281,3.31,33.0
109.305,-11.042,7.48,36.0
84.809,-8.542,5.336,18.0
83.618,-8.398,4.8,28.0
82.317,-8.243,4.263,30.0
82.066,-8.195,3.798,36.0
83.141,-8.279,3.39,38.0
109.401,-10.904,7.535,36.0
84.909,-8.438,5.378,25.0
83.599,-8.283,4.833,31.0
82.34,-8.134,4.298,34.0
81.82,-8.06,3.82,43.0
82.215,-8.075,3.385,21.0
109.337,-10.748,7.572,31.0
86.098,-8.438,5.487,17.0
83.489,-8.157,4.859,36.0
81.867,-7.975,4.303,29.0
81.793,-7.943,3.849,35.0
82.815,-8.02,3.44,13.0
109.578,-10.621,7.627,39.0
86.474,-8.354,5.541,15.0
83.469,-8.039,4.886,31.0
81.943,-7.868,4.334,36.0
81.829,-7.834,3.876,36.0
82.013,-7.827,3.432,14.0
109.933,-10.501,7.688,34.0
86.289,-8.216,5.555,19.0
83.476,-7.923,4.911,39.0
82.004,-7.758,4.363,26.0
82.101,-7.743,3.913,22.0
81.783,-7.688,3.446,27.0
113.421,-10.671,7.963,25.0
84.939,-7.964,5.492,12.0
83.407,-7.794,4.93,35.0
0.0,0.0,0.0,0.0
82.166,-7.628,3.937,36.0
81.757,-7.566,3.466,36.0
113.356,-10.498,7.986,27.0
84.888,-7.835,5.508,24.0
83.426,-7.673,4.95,37.0
83.736,-7.676,4.495,49.0
81.896,-7.482,3.942,35.0
81.699,-7.439,3.48,35.0
112.544,-10.254,7.953,22.0
84.768,-7.696,5.518,20.0
83.893,-7.59,4.994,37.0
83.567,-7.535,4.501,40.0
82.54,-7.417,3.988,47.0
81.815,-7.327,3.499,34.0
114.979,-10.3,8.144,11.0
85.17,-7.603,5.557,16.0
84.107,-7.482,5.02,28.0
83.25,-7.38,4.497,45.0
82.848,-7.318,4.014,43.0
81.782,-7.2,3.509,29.0
84.758,-7.464,6.014,8.0
84.49,-7.413,5.523,35.0
84.138,-7.355,5.031,17.0
83.154,-7.243,4.501,37.0
82.915,-7.197,4.026,37.0
81.784,-7.073,3.516,31.0
60.199,-5.208,4.277,3.0
84.94,-7.321,5.559,26.0
84.159,-7.226,5.038,17.0
83.399,-7.134,4.52,43.0
83.336,-7.103,4.052,41.0
81.976,-6.963,3.529,29.0
115.423,-9.805,8.206,13.0
85.993,-7.277,5.632,16.0
83.945,-7.076,5.028,11.0
83.821,-7.039,4.544,46.0
83.377,-6.976,4.056,41.0
82.374,-6.866,3.548,21.0
115.575,-9.634,8.217,13.0
85.951,-7.136,5.63,21.0
83.635,-6.917,5.009,32.0
83.5,-6.879,4.526,44.0
83.3,-6.836,4.05,35.0
83.454,-6.823,3.592,20.0
117.585,-9.616,8.357,9.0
85.758,-6.983,5.614,37.0
83.642,-6.785,5.006,19.0
83.261,-6.726,4.509,40.0
83.116,-6.689,4.037,40.0
83.946,-6.728,3.608,34.0
117.684,-9.433,8.355,24.0
85.737,-6.844,5.605,33.0
83.724,-6.656,5.004,32.0
83.268,-6.593,4.502,42.0
83.219,-6.562,4.034,27.0
83.741,-6.576,3.59,27.0
60.357,-4.739,4.278,5.0
85.698,-6.7,5.593,31.0
83.99,-6.539,5.009,26.0
83.274,-6.457,4.491,38.0
83.483,-6.446,4.035,33.0
83.547,-6.424,3.57,24.0
60.307,-4.636,4.265,6.0
84.199,-6.444,5.481,26.0
83.946,-6.398,4.993,36.0
83.897,-6.367,4.51,46.0
83.374,-6.301,4.015,33.0
83.478,-6.282,3.552,30.0
117.818,-8.863,8.309,22.0
84.175,-6.304,5.463,19.0
84.346,-6.288,4.999,37.0
83.769,-6.218,4.485,33.0
83.339,-6.159,3.994,38.0
82.912,-6.101,3.509,30.0
117.845,-8.666,8.284,22.0
84.071,-6.154,5.435,19.0
84.383,-6.15,4.979,34.0
83.826,-6.081,4.467,25.0
83.369,-6.021,3.974,35.0
82.833,-5.955,3.483,31.0
24.574,-1.765,1.72,1.0
24.592,-1.758,1.582,10.0
24.571,-1.749,1.443,4.0
84.088,-5.958,4.455,44.0
83.586,-5.895,3.958,35.0
83.858,-5.888,3.5,15.0
24.511,-1.719,1.708,27.0
24.499,-1.71,1.569,20.0
24.473,-1.7,1.429,39.0
24.548,-1.698,1.292,3.0
24.553,-1.69,1.154,5.0
24.545,-1.682,1.016,27.0
24.472,-1.675,1.696,40.0
24.464,-1.666,1.557,59.0
24.45,-1.657,1.418,51.0
24.491,-1.652,1.28,47.0
24.494,-1.644,1.142,41.0
24.49,-1.636,1.004,38.0
24.42,-1.63,1.683,42.0
24.433,-1.622,1.545,66.0
24.431,-1.614,1.407,74.0
24.466,-1.609,1.268,63.0
24.487,-1.602,1.131,39.0
24.464,-1.593,0.992,58.0
24.384,-1.585,1.669,54.0
24.412,-1.579,1.533,37.0
24.424,-1.572,1.395,72.0
24.468,-1.567,1.257,89.0
24.445,-1.558,1.118,35.0
24.465,-1.551,0.98,39.0
24.383,-1.544,1.658,46.0
24.369,-1.535,1.518,28.0
24.422,-1.53,1.383,52.0
24.463,-1.525,1.245,88.0
24.43,-1.515,1.105,56.0
24.471,-1.51,0.968,70.0
24.404,-1.503,1.646,79.0
24.398,-1.495,1.507,39.0
24.411,-1.488,1.37,61.0
24.466,-1.483,1.231,62.0
24.501,-1.477,1.094,35.0
24.491,-1.469,0.955,36.0
24.414,-1.462,1.633,61.0
24.394,-1.453,1.493,63.0
24.439,-1.447,1.357,57.0
24.488,-1.442,1.218,43.0
24.522,-1.436,1.081,40.0
24.544,-1.43,0.943,43.0
24.435,-1.421,1.619,40.0
24.418,-1.412,1.479,61.0
24.484,-1.408,1.344,42.0
28.408,-1.624,1.395,1.0
24.585,-1.398,1.068,20.0
24.608,-1.391,0.929,3.0
24.485,-1.381,1.607,35.0
24.464,-1.372,1.466,42.0
28.422,-1.585,1.541,68.0
83.718,-4.643,4.057,15.0
83.44,-4.601,3.57,37.0
83.539,-4.58,3.1,36.0
28.403,-1.553,1.844,18.0
28.424,-1.545,1.683,66.0
28.412,-1.536,1.521,69.0
83.75,-4.5,3.999,34.0
83.576,-4.463,3.515,31.0
0.0,0.0,0.0,0.0
28.416,-1.505,1.824,76.0
28.417,-1.495,1.662,65.0
28.413,-1.486,1.5,68.0
83.994,-4.368,3.947,25.0
86.151,-4.454,3.558,15.0
85.062,-4.371,3.03,35.0
28.42,-1.456,1.802,71.0
28.407,-1.446,1.639,69.0
28.409,-1.437,1.477,68.0
85.255,-4.288,3.94,31.0
86.37,-4.317,3.499,38.0
85.435,-4.245,2.975,32.0
28.416,-1.407,1.779,74.0
28.411,-1.398,1.616,70.0
28.405,-1.389,1.453,64.0
85.485,-4.155,3.88,30.0
86.498,-4.178,3.432,19.0
85.042,-4.081,2.891,17.0
28.393,-1.357,1.753,35.0
28.408,-1.349,1.592,45.0
28.394,-1.34,1.428,40.0
85.823,-4.023,3.819,30.0
165.569,-7.715,6.426,20.0
86.6,-4.008,2.867,13.0
161.147,-7.431,9.808,22.0
161.17,-7.383,8.887,21.0
28.39,-1.291,1.403,4.0
159.53,-7.212,6.958,28.0
165.56,-7.434,6.274,22.0
28.468,-1.27,0.916,0.0
161.451,-7.172,9.677,15.0
31.317,-1.381,1.697,21.0
31.333,-1.372,1.519,6.0
28.419,-1.236,1.212,38.0
28.448,-1.229,1.051,59.0
28.441,-1.221,0.888,64.0
28.448,-1.216,1.677,59.0
28.425,-1.206,1.513,57.0
28.413,-1.197,1.349,86.0
28.421,-1.189,1.184,100.0
28.419,-1.18,1.022,100.0
28.432,-1.172,0.859,105.0
28.43,-1.166,1.647,110.0
28.418,-1.158,1.483,89.0
28.427,-1.149,1.321,136.0
28.417,-1.141,1.155,88.0
28.432,-1.133,0.993,72.0
28.442,-1.125,0.83,67.0
28.444,-1.119,1.618,71.0
28.433,-1.11,1.454,51.0
28.428,-1.102,1.291,28.0
31.227,-1.201,1.235,40.0
31.262,-1.194,1.058,61.0
31.278,-1.185,0.88,53.0
31.206,-1.176,1.741,27.0
31.227,-1.168,1.563,41.0
31.267,-1.16,1.385,49.0
31.227,-1.15,1.201,40.0
31.262,-1.142,1.023,44.0
31.321,-1.135,0.846,48.0
31.224,-1.125,1.707,30.0
31.249,-1.117,1.528,32.0
31.275,-1.109,1.35,42.0
31.28,-1.1,1.168,35.0
31.341,-1.093,0.99,34.0
31.409,-1.087,0.812,4.0
28.391,-0.977,1.519,48.0
31.314,-1.068,1.495,38.0
38.646,-1.307,1.623,61.0
38.663,-1.297,1.398,46.0
38.649,-1.285,1.175,48.0
38.652,-1.275,0.953,65.0
28.389,-0.93,1.485,77.0
38.55,-1.252,1.794,58.0
38.649,-1.245,1.576,85.0
38.605,-1.232,1.348,69.0
38.598,-1.222,1.127,61.0
38.633,-1.213,0.906,73.0
38.465,-1.199,1.964,24.0
38.587,-1.192,1.748,69.0
38.641,-1.183,1.528,95.0
38.572,-1.17,1.299,54.0
38.602,-1.16,1.079,78.0
38.633,-1.151,0.857,99.0
38.508,-1.139,1.917,35.0
38.621,-1.131,1.7,75.0
38.631,-1.121,1.478,68.0
38.555,-1.108,1.249,68.0
38.626,-1.1,1.029,81.0
38.641,-1.09,0.807,83.0
38.593,-1.08,1.87,55.0
38.628,-1.07,1.649,76.0
38.657,-1.06,1.427,37.0
38.57,-1.048,1.199,50.0
38.633,-1.039,0.978,70.0
38.671,-1.03,0.756,51.0
45.882,-1.212,2.162,4.0
45.785,-1.197,1.893,15.0
45.714,-1.183,1.626,13.0
38.667,-0.99,1.149,55.0
38.688,-0.981,0.927,50.0
40.425,-1.015,0.736,25.0
45.771,-1.139,2.094,12.0
40.43,-0.995,1.616,24.0
40.421,-0.984,1.382,27.0
38.692,-0.932,1.096,53.0
40.399,-0.962,0.911,38.0
40.412,-0.952,0.679,36.0
40.396,-0.942,1.79,41.0
40.402,-0.932,1.557,38.0
40.403,-0.922,1.324,40.0
40.4,-0.912,1.087,37.0
38.405,-0.857,0.811,6.0
38.389,-0.847,0.59,21.0
40.423,-0.882,1.733,27.0
40.44,-0.872,1.5,24.0
45.715,-0.975,1.432,10.0
45.687,-0.962,1.162,5.0
38.444,-0.8,0.756,4.0
52.951,-1.089,0.736,40.0
45.736,-0.93,1.893,53.0
45.69,-0.917,1.626,53.0
64.312,-1.276,1.918,73.0
38.16,-0.747,0.914,5.0
0.0,0.0,0.0,0.0
193.077,-3.688,2.393,13.0
45.841,-0.865,1.828,39.0
64.303,-1.197,2.192,42.0
64.323,-1.182,1.82,80.0
190.81,-3.463,4.281,13.0
193.096,-3.458,3.216,6.0
176.677,-3.122,1.922,11.0
59.294,-1.034,2.273,31.0
64.294,-1.105,2.092,77.0
64.309,-1.09,1.721,36.0
176.618,-2.952,3.687,47.0
20.159,-0.332,0.304,1.0
20.126,-0.326,0.187,9.0
59.302,-0.949,2.18,62.0
53.488,-0.844,1.657,52.0
59.483,-0.924,1.498,28.0
20.156,-0.308,0.388,3.0
20.124,-0.303,0.271,11.0
20.122,-0.298,0.155,13.0
53.529,-0.783,1.882,150.0
53.484,-0.769,1.57,80.0
53.508,-0.758,1.262,12.0
20.122,-0.28,0.356,12.0
20.12,-0.275,0.239,11.0
20.142,-0.271,0.123,9.0
53.505,-0.709,1.794,79.0
59.398,-0.774,1.648,15.0
20.138,-0.258,0.442,11.0
20.122,-0.253,0.323,11.0
20.147,-0.249,0.206,12.0
56.166,-0.681,0.251,2.0
53.51,-0.637,1.705,72.0
20.144,-0.235,0.524,10.0
20.139,-0.231,0.408,15.0
20.15,-0.226,0.289,13.0
64.34,-0.71,0.552,26.0
56.224,-0.608,0.157,3.0
53.473,-0.566,1.613,19.0
20.136,-0.209,0.49,14.0
20.167,-0.204,0.374,19.0
53.378,-0.531,0.677,13.0
53.374,-0.519,0.367,11.0
53.352,-0.508,0.058,4.0
53.473,-0.497,1.521,6.0
20.159,-0.183,0.456,19.0
53.48,-0.475,0.902,16.0
66.53,-0.577,0.729,25.0
58.317,-0.493,0.301,23.0
20.201,-0.166,-0.012,7.0
20.178,-0.162,0.539,7.0
20.234,-0.158,0.423,29.0
20.2,-0.154,0.305,17.0
20.164,-0.149,0.185,17.0
20.156,-0.145,0.068,20.0
20.176,-0.141,-0.048,22.0
20.155,-0.137,0.503,17.0
20.125,-0.133,0.385,16.0
20.118,-0.129,0.268,18.0
20.112,-0.125,0.15,19.0
20.138,-0.121,0.033,27.0
20.148,-0.117,-0.083,27.0
20.122,-0.113,0.466,26.0
20.119,-0.109,0.349,27.0
20.123,-0.105,0.233,23.0
20.128,-0.101,0.114,30.0
20.135,-0.097,-0.002,35.0
20.147,-0.093,-0.119,34.0
20.128,-0.089,0.43,33.0
20.128,-0.085,0.313,27.0
20.114,-0.081,0.196,26.0
20.12,-0.078,0.077,41.0
20.12,-0.074,-0.039,30.0
20.141,-0.07,-0.156,36.0
20.122,-0.066,0.393,32.0
20.115,-0.062,0.276,29.0
20.111,-0.059,0.159,29.0
20.129,-0.055,0.04,36.0
20.148,-0.051,-0.076,35.0
20.154,-0.048,-0.193,21.0
20.117,-0.044,0.356,33.0
20.113,-0.04,0.239,30.0
20.124,-0.037,0.122,34.0
20.126,-0.033,0.003,30.0
20.158,-0.029,-0.113,26.0
20.165,-0.026,-0.231,7.0
20.127,-0.022,0.318,31.0
20.111,-0.019,0.201,29.0
20.132,-0.015,0.084,29.0
20.205,-0.012,-0.034,18.0
20.219,-0.008,-0.151,16.0
20.245,-0.005,-0.269,18.0
20.132,-0.001,0.281,28.0
20.134,0.001,0.164,27.0
20.255,0.004,0.047,150.0
20.263,0.008,-0.072,151.0
20.255,0.011,-0.19,151.0
20.268,0.015,-0.308,150.0
20.136,0.018,0.242,28.0
20.142,0.021,0.125,28.0
20.273,0.025,0.008,150.0
20.261,0.028,-0.111,150.0
20.246,0.031,-0.229,150.0
20.249,0.035,-0.347,18.0
20.135,0.038,0.204,29.0
20.143,0.041,0.086,20.0
20.196,0.044,-0.03,17.0
20.219,0.047,-0.15,23.0
20.261,0.051,-0.268,0.0
40.502,0.108,-0.772,0.0
20.157,0.057,0.165,29.0
20.198,0.06,0.048,33.0
20.193,0.063,-0.069,28.0
20.174,0.066,-0.188,18.0
20.225,0.069,-0.307,0.0
38.454,0.138,-0.807,0.0
20.166,0.075,0.126,26.0
20.194,0.078,0.008,28.0
20.182,0.081,-0.108,28.0
20.176,0.084,-0.228,19.0
20.234,0.087,-0.346,0.0
0.0,0.0,0.0,0.0
20.188,0.092,0.086,37.0
20.19,0.095,-0.03,29.0
20.186,0.098,-0.148,31.0
20.192,0.101,-0.267,27.0
20.205,0.104,-0.385,2.0
0.0,0.0,0.0,0.0
20.189,0.109,0.046,37.0
20.184,0.112,-0.07,30.0
20.168,0.115,-0.187,23.0
20.194,0.118,-0.308,27.0
20.194,0.12,-0.425,2.0
32.181,0.197,-0.866,1.0
20.18,0.125,0.006,27.0
20.181,0.128,-0.11,35.0
20.166,0.131,-0.228,31.0
20.195,0.133,-0.348,29.0
20.187,0.136,-0.465,14.0
21.632,0.149,-0.625,6.0
20.217,0.141,-0.033,24.0
20.179,0.143,-0.15,27.0
20.175,0.146,-0.268,32.0
20.181,0.148,-0.387,25.0
20.196,0.151,-0.505,21.0
20.955,0.159,-0.647,4.0
20.212,0.155,-0.073,23.0
20.167,0.158,-0.191,24.0
20.18,0.16,-0.308,33.0
20.175,0.163,-0.428,28.0
20.194,0.165,-0.546,23.0
21.665,0.18,-0.713,41.0
20.212,0.169,-0.114,24.0
20.173,0.172,-0.232,27.0
20.175,0.174,-0.349,31.0
20.179,0.176,-0.469,25.0
20.191,0.179,-0.587,25.0
18.567,0.166,-0.648,19.0
20.193,0.182,-0.155,15.0
20.183,0.185,-0.273,29.0
20.179,0.187,-0.39,33.0
20.183,0.189,-0.51,29.0
20.207,0.192,-0.629,28.0
20.197,0.194,-0.746,0.0
20.169,0.195,-0.196,18.0
20.179,0.197,-0.313,28.0
20.194,0.199,-0.432,25.0
20.182,0.201,-0.551,31.0
20.222,0.204,-0.67,28.0
18.65,0.19,-0.727,150.0
20.194,0.207,-0.237,25.0
20.176,0.209,-0.355,30.0
20.177,0.21,-0.472,27.0
20.19,0.213,-0.593,32.0
20.225,0.215,-0.712,29.0
18.645,0.2,-0.765,150.0
20.19,0.217,-0.278,27.0
20.183,0.219,-0.396,28.0
20.182,0.221,-0.514,28.0
20.202,0.223,-0.634,31.0
20.216,0.226,-0.753,26.0
20.19,0.227,-0.87,11.0
20.196,0.228,-0.32,27.0
20.182,0.229,-0.438,20.0
20.196,0.231,-0.556,28.0
20.197,0.233,-0.676,28.0
0.0,0.0,0.0,0.0
0.0,0.0,0.0,0.0
20.198,0.237,-0.361,25.0
20.172,0.239,-0.479,19.0
20.204,0.241,-0.597,27.0
20.211,0.242,-0.718,27.0
20.125,0.243,-0.832,14.0
18.583,0.226,-0.877,1.0
20.218,0.246,-0.404,23.0
20.205,0.247,-0.521,27.0
20.204,0.249,-0.639,23.0
20.225,0.251,-0.76,27.0
20.218,0.252,-0.878,13.0
18.515,0.233,-0.912,31.0
20.203,0.254,-0.445,18.0
20.217,0.255,-0.563,26.0
20.215,0.257,-0.681,20.0
20.222,0.258,-0.801,23.0
20.256,0.26,-0.921,7.0
18.216,0.235,-0.935,2.0
20.218,0.261,-0.486,23.0
20.211,0.262,-0.604,24.0
20.237,0.264,-0.723,22.0
20.168,0.264,-0.84,13.0
18.553,0.244,-0.881,1.0
17.577,0.233,-0.938,0.0
20.225,0.267,-0.527,21.0
20.218,0.268,-0.645,19.0
20.256,0.27,-0.765,21.0
20.237,0.271,-0.884,11.0
18.499,0.249,-0.916,12.0
16.789,0.227,-0.93,0.0
20.209,0.272,-0.568,16.0
20.211,0.274,-0.686,14.0
20.212,0.275,-0.804,15.0
20.244,0.276,-0.926,3.0
18.024,0.247,-0.929,0.0
16.35,0.225,-0.939,0.0
20.218,0.277,-0.609,11.0
20.213,0.278,-0.727,10.0
20.15,0.278,-0.842,9.0
18.604,0.258,-0.888,0.0
17.292,0.241,-0.927,0.0
15.715,0.22,-0.934,0.0
20.22,0.281,-0.65,8.0
20.235,0.282,-0.769,10.0
20.253,0.284,-0.888,11.0
18.489,0.26,-0.92,2.0
16.71,0.235,-0.93,0.0
15.271,0.216,-0.939,0.0
20.224,0.284,-0.691,3.0
20.21,0.285,-0.809,8.0
20.247,0.286,-0.929,3.0
17.916,0.254,-0.928,0.0
16.27,0.231,-0.938,0.0
14.823,0.211,-0.941,0.0
20.23,0.287,-0.732,3.0
20.14,0.286,-0.847,9.0
0.0,0.0,0.0,0.0
17.083,0.244,-0.92,0.0
15.655,0.224,-0.934,0.0
14.482,0.208,-0.949,0.0
20.231,0.288,-0.773,5.0
20.271,0.29,-0.893,12.0
18.436,0.264,-0.92,0.0
16.61,0.238,-0.927,0.0
15.199,0.218,-0.938,0.0
14.009,0.202,-0.946,0.0
20.197,0.289,-0.812,8.0
20.198,0.289,-0.93,1.0
17.851,0.256,-0.926,0.0
16.204,0.233,-0.937,0.0
14.752,0.212,-0.94,0.0
13.546,0.195,-0.942,0.0
20.148,0.288,-0.85,9.0
18.718,0.268,-0.899,0.0
17.06,0.244,-0.919,0.0
15.599,0.224,-0.933,0.0
14.445,0.208,-0.949,0.0
13.241,0.19,-0.947,0.0
20.282,0.289,-0.896,13.0
18.449,0.263,-0.923,0.0
16.641,0.238,-0.929,0.0
15.16,0.217,-0.937,0.0
14.012,0.201,-0.948,0.0
12.906,0.185,-0.949,0.0
20.173,0.286,-0.931,1.0
17.816,0.253,-0.926,0.0
16.168,0.23,-0.935,0.0
14.757,0.21,-0.941,0.0
13.458,0.191,-0.937,0.0
12.561,0.179,-0.948,0.0
18.55,0.261,-0.892,1.0
17.056,0.24,-0.92,0.0
15.578,0.219,-0.931,0.0
14.393,0.203,-0.946,0.0
13.229,0.186,-0.947,0.0
12.218,0.172,-0.946,0.0
18.484,0.257,-0.925,1.0
16.566,0.231,-0.925,0.0
15.186,0.211,-0.937,0.0
13.983,0.195,-0.946,0.0
12.858,0.179,-0.945,0.0
11.912,0.166,-0.945,0.0
17.798,0.244,-0.924,0.0
16.187,0.222,-0.935,0.0
14.751,0.202,-0.938,0.0
13.481,0.185,-0.938,0.0
12.545,0.172,-0.946,0.0
11.589,0.159,-0.942,0.0
17.111,0.231,-0.921,0.0
15.628,0.211,-0.932,0.0
14.431,0.195,-0.945,0.0
13.196,0.178,-0.943,0.0
12.27,0.165,-0.948,0.0
11.37,0.153,-0.946,0.0
16.611,0.22,-0.925,0.0
15.206,0.201,-0.936,0.0
20.182,0.267,-1.36,0.0
12.921,0.171,-0.947,0.0
11.939,0.157,-0.945,0.0
11.141,0.147,-0.947,0.0
16.221,0.21,-0.934,0.0
14.778,0.191,-0.937,0.0
13.552,0.175,-0.938,0.0
12.557,0.162,-0.944,0.0
11.624,0.15,-0.942,0.0
10.873,0.14,-0.945,0.0
15.648,0.198,-0.93,0.0
14.426,0.182,-0.941,0.0
13.31,0.167,-0.946,0.0
12.274,0.154,-0.945,0.0
11.383,0.142,-0.943,0.0
10.617,0.133,-0.942,0.0
15.255,0.187,-0.934,0.0
20.24,0.248,-1.357,0.0
12.965,0.158,-0.945,0.0
11.943,0.145,-0.942,0.0
11.213,0.136,-0.95,0.0
10.43,0.126,-0.944,0.0
14.857,0.176,-0.936,0.0
20.245,0.24,-1.394,0.0
12.647,0.149,-0.944,0.0
11.699,0.138,-0.943,0.0
0.0,0.0,0.0,0.0
10.241,0.12,-0.946,0.0
14.516,0.166,-0.94,0.0
13.346,0.152,-0.943,0.0
12.385,0.14,-0.947,0.0
11.442,0.129,-0.943,0.0
10.659,0.12,-0.941,0.0
10.048,0.113,-0.946,0.0
20.247,0.222,-1.347,0.0
13.058,0.143,-0.945,0.0
12.016,0.131,-0.94,0.0
11.223,0.121,-0.944,0.0
10.507,0.113,-0.946,0.0
9.872,0.106,-0.946,0.0
20.198,0.212,-1.379,0.0
12.743,0.133,-0.944,0.0
11.832,0.123,-0.946,0.0
20.263,0.209,-1.74,0.0
10.321,0.106,-0.947,0.0
9.7,0.099,-0.947,0.0
13.438,0.134,-0.94,0.0
12.486,0.123,-0.946,0.0
11.441,0.112,-0.934,0.0
20.283,0.198,-1.777,0.0
10.16,0.098,-0.949,0.0
9.535,0.092,-0.947,0.0
13.178,0.124,-0.944,0.0
12.196,0.114,-0.945,0.0
11.278,0.104,-0.939,0.0
10.583,0.097,-0.944,0.0
9.929,0.09,-0.944,0.0
9.337,0.084,-0.943,0.0
12.89,0.113,-0.945,0.0
11.935,0.104,-0.944,0.0
11.182,0.097,-0.95,0.0
10.356,0.089,-0.941,0.0
9.766,0.083,-0.945,0.0
9.198,0.077,-0.944,0.0
12.578,0.102,-0.942,0.0
11.502,0.093,-0.929,0.0
20.26,0.162,-1.754,0.0
10.216,0.081,-0.945,0.0
9.634,0.075,-0.947,0.0
9.032,0.07,-0.941,0.0
12.345,0.092,-0.944,0.0
11.448,0.085,-0.942,0.0
10.681,0.078,-0.941,0.0
10.029,0.073,-0.944,0.0
9.46,0.068,-0.945,0.0
8.883,0.063,-0.94,0.0
12.097,0.082,-0.944,0.0
11.314,0.076,-0.949,0.0
10.495,0.07,-0.941,0.0
9.875,0.065,-0.944,0.0
9.315,0.06,-0.945,0.0
8.747,0.056,-0.939,0.0
11.839,0.072,-0.942,0.0
11.066,0.066,-0.945,0.0
10.353,0.061,-0.944,0.0
9.729,0.056,-0.945,0.0
9.136,0.052,-0.941,0.0
8.669,0.049,-0.943,0.0
11.531,0.062,-0.935,0.0
10.864,0.057,-0.944,0.0
10.203,0.053,-0.946,0.0
9.579,0.048,-0.945,0.0
9.017,0.045,-0.942,0.0
8.549,0.041,-0.943,0.0
11.432,0.052,-0.943,0.0
10.591,0.047,-0.935,0.0
10.006,0.044,-0.942,0.0
9.411,0.04,-0.942,0.0
8.874,0.037,-0.94,0.0
8.421,0.034,-0.941,0.0
11.209,0.042,-0.941,0.0
10.498,0.039,-0.942,0.0
9.848,0.035,-0.941,0.0
9.267,0.032,-0.941,0.0
8.757,0.029,-0.94,0.0
8.331,0.027,-0.943,0.0
11.084,0.033,-0.946,0.0
10.405,0.03,-0.948,0.0
9.72,0.026,-0.942,0.0
9.146,0.024,-0.941,0.0
8.638,0.022,-0.939,0.0
8.219,0.02,-0.942,0.0
20.208,0.043,-1.752,0.0
10.219,0.02,-0.945,0.0
9.593,0.018,-0.943,0.0
9.04,0.016,-0.942,0.0
8.529,0.014,-0.939,0.0
8.09,0.012,-0.938,0.0
10.712,0.013,-0.943,0.0
10.054,0.011,-0.943,0.0
9.471,0.009,-0.943,0.0
8.888,0.008,-0.938,0.0
8.46,0.006,-0.942,0.0
8.018,0.005,-0.94,0.0
10.533,0.004,-0.94,0.0
9.925,0.002,-0.943,0.0
9.349,0.001,-0.943,0.0
8.787,0.0,-0.939,0.0
8.351,0.0,-0.941,0.0
7.925,-0.001,-0.939,0.0
10.406,-0.005,-0.942,0.0
9.787,-0.006,-0.943,0.0
9.196,-0.007,-0.939,0.0
8.691,-0.008,-0.939,0.0
8.267,-0.008,-0.941,0.0
7.841,-0.009,-0.939,0.0
10.264,-0.015,-0.942,0.0
9.668,-0.015,-0.943,0.0
9.074,-0.015,-0.937,0.0
8.578,-0.016,-0.937,0.0
8.188,-0.016,-0.942,0.0
7.812,-0.016,-0.944,0.0
10.135,-0.024,-0.942,0.0
9.532,-0.024,-0.941,0.0
8.968,-0.024,-0.937,0.0
8.465,-0.024,-0.934,0.0
8.111,-0.024,-0.942,0.0
7.732,-0.024,-0.944,0.0
9.993,-0.034,-0.94,0.0
9.431,-0.033,-0.941,0.0
8.887,-0.032,-0.938,0.0
8.424,-0.032,-0.939,0.0
8.035,-0.032,-0.943,0.0
7.66,-0.031,-0.943,0.0
9.914,-0.043,-0.943,0.0
9.334,-0.042,-0.942,0.0
8.77,-0.041,-0.936,0.0
8.338,-0.04,-0.939,0.0
7.922,-0.039,-0.938,0.0
7.587,-0.039,-0.942,0.0
9.774,-0.052,-0.94,0.0
9.205,-0.051,-0.938,0.0
8.722,-0.05,-0.939,0.0
8.26,-0.048,-0.938,0.0
7.874,-0.047,-0.94,0.0
7.545,-0.046,-0.945,0.0
9.687,-0.062,-0.941,0.0
9.12,-0.06,-0.939,0.0
8.626,-0.058,-0.938,0.0
8.182,-0.056,-0.938,0.0
7.858,-0.055,-0.946,0.0
7.471,-0.054,-0.943,0.0
9.581,-0.072,-0.94,0.0
9.029,-0.069,-0.938,0.0
8.533,-0.066,-0.936,0.0
8.107,-0.064,-0.937,0.0
7.748,-0.063,-0.94,0.0
7.446,-0.061,-0.947,0.0
9.476,-0.081,-0.939,0.0
8.976,-0.078,-0.941,0.0
8.442,-0.075,-0.933,0.0
8.061,-0.073,-0.939,0.0
7.692,-0.071,-0.94,0.0
7.39,-0.069,-0.946,0.0
9.393,-0.09,-0.939,0.0
8.865,-0.087,-0.937,0.0
8.387,-0.083,-0.935,0.0
7.977,-0.081,-0.936,0.0
7.657,-0.079,-0.943,0.0
7.308,-0.076,-0.942,0.0
9.335,-0.1,-0.941,0.0
8.809,-0.096,-0.938,0.0
8.339,-0.092,-0.936,0.0
7.942,-0.089,-0.938,0.0
7.601,-0.087,-0.942,0.0
7.301,-0.084,-0.947,0.0
9.252,-0.109,-0.94,0.0
8.72,-0.105,-0.936,0.0
8.315,-0.101,-0.94,0.0
7.882,-0.097,-0.937,0.0
7.564,-0.095,-0.943,0.0
7.245,-0.092,-0.946,0.0
9.184,-0.119,-0.94,0.0
8.679,-0.114,-0.938,0.0
8.248,-0.11,-0.939,0.0
7.851,-0.106,-0.94,0.0
7.505,-0.102,-0.942,0.0
7.222,-0.1,-0.948,0.0
9.114,-0.128,-0.939,0.0
8.606,-0.123,-0.936,0.0
8.157,-0.118,-0.934,0.0
7.779,-0.114,-0.936,0.0
7.472,-0.111,-0.943,0.0
7.185,-0.108,-0.948,0.0
9.052,-0.138,-0.939,0.0
8.534,-0.132,-0.934,0.0
8.132,-0.127,-0.936,0.0
7.751,-0.122,-0.938,0.0
7.428,-0.119,-0.942,0.0
7.133,-0.115,-0.946,0.0
8.983,-0.147,-0.937,0.0
8.548,-0.141,-0.941,0.0
8.101,-0.136,-0.938,0.0
7.731,-0.131,-0.94,0.0
7.374,-0.126,-0.939,0.0
7.13,-0.123,-0.949,0.0
8.951,-0.157,-0.939,0.0
8.491,-0.15,-0.939,0.0
8.089,-0.145,-0.941,0.0
7.676,-0.139,-0.938,0.0
7.395,-0.135,-0.946,0.0
7.085,-0.131,-0.947,0.0
8.896,-0.166,-0.938,0.0
8.423,-0.159,-0.936,0.0
8.043,-0.153,-0.94,0.0
7.65,-0.147,-0.938,0.0
7.331,-0.143,-0.942,0.0
7.044,-0.138,-0.945,0.0
8.856,-0.176,-0.938,0.0
8.393,-0.168,-0.937,0.0
7.965,-0.161,-0.934,0.0
7.605,-0.155,-0.937,0.0
7.312,-0.151,-0.942,0.0
7.052,-0.147,-0.95,0.0
8.816,-0.185,-0.938,0.0
8.342,-0.177,-0.935,0.0
7.979,-0.171,-0.94,0.0
7.617,-0.165,-0.941,0.0
7.31,-0.159,-0.945,0.0
7.022,-0.155,-0.948,0.0
8.788,-0.195,-0.938,0.0
8.334,-0.187,-0.937,0.0
7.902,-0.179,-0.933,0.0
7.618,-0.174,-0.944,0.0
7.318,-0.168,-0.949,0.0
6.994,-0.162,-0.947,0.0
8.76,-0.205,-0.938,0.0
8.281,-0.195,-0.934,0.0
7.909,-0.188,-0.937,0.0
7.58,-0.182,-0.942,0.0
7.252,-0.175,-0.943,0.0
7.008,-0.171,-0.951,0.0
8.728,-0.214,-0.937,0.0
8.283,-0.205,-0.936,0.0
7.925,-0.198,-0.941,0.0
7.534,-0.19,-0.938,0.0
7.238,-0.184,-0.943,0.0
6.992,-0.179,-0.951,0.0
8.714,-0.224,-0.938,0.0
8.264,-0.214,-0.936,0.0
7.89,-0.206,-0.939,0.0
7.543,-0.199,-0.941,0.0
7.261,-0.193,-0.948,0.0
6.949,-0.186,-0.946,0.0
8.696,-0.234,-0.938,0.0
8.24,-0.223,-0.935,0.0
7.883,-0.215,-0.939,0.0
7.544,-0.208,-0.943,0.0
7.226,-0.201,-0.944,0.0
6.966,-0.195,-0.95,0.0
8.69,-0.244,-0.939,0.0
8.244,-0.233,-0.937,0.0
7.858,-0.224,-0.938,0.0
7.559,-0.217,-0.946,0.0
7.231,-0.209,-0.946,0.0
6.965,-0.203,-0.951,0.0
8.663,-0.253,-0.937,0.0
8.222,-0.242,-0.935,0.0
7.825,-0.232,-0.935,0.0
7.518,-0.225,-0.941,0.0
7.193,-0.216,-0.941,0.0
6.933,-0.21,-0.947,0.0
8.668,-0.264,-0.938,0.0
8.242,-0.252,-0.938,0.0
7.841,-0.242,-0.937,0.0
7.503,-0.233,-0.94,0.0
7.217,-0.226,-0.945,0.0
6.931,-0.218,-0.947,0.0
8.66,-0.274,-0.937,0.0
8.241,-0.262,-0.938,0.0
7.85,-0.251,-0.938,0.0
7.526,-0.242,-0.943,0.0
7.249,-0.235,-0.949,0.0
6.959,-0.227,-0.951,0.0
8.676,-0.284,-0.939,0.0
8.246,-0.272,-0.939,0.0
7.876,-0.261,-0.941,0.0
7.513,-0.251,-0.941,0.0
7.247,-0.243,-0.948,0.0
6.973,-0.236,-0.952,0.0
8.69,-0.295,-0.94,0.0
8.225,-0.28,-0.936,0.0
7.866,-0.27,-0.939,0.0
7.532,-0.26,-0.942,0.0
7.241,-0.252,-0.947,0.0
6.967,-0.244,-0.95,0.0
8.708,-0.305,-0.941,0.0
8.26,-0.291,-0.939,0.0
7.874,-0.279,-0.939,0.0
7.549,-0.269,-0.943,0.0
7.238,-0.26,-0.946,0.0
6.967,-0.252,-0.95,0.0
8.709,-0.315,-0.939,0.0
8.269,-0.301,-0.938,0.0
7.872,-0.288,-0.937,0.0
7.543,-0.278,-0.941,0.0
7.236,-0.268,-0.944,0.0
6.976,-0.26,-0.949,0.0
8.726,-0.325,-0.94,0.0
8.296,-0.311,-0.94,0.0
7.91,-0.298,-0.94,0.0
7.523,-0.285,-0.937,0.0
7.253,-0.277,-0.944,0.0
6.972,-0.267,-0.947,0.0
8.744,-0.336,-0.939,0.0
8.313,-0.321,-0.939,0.0
7.901,-0.307,-0.937,0.0
7.565,-0.295,-0.94,0.0
7.259,-0.285,-0.943,0.0
7.009,-0.276,-0.95,0.0
8.786,-0.347,-0.941,0.0
8.332,-0.331,-0.939,0.0
7.934,-0.316,-0.938,0.0
7.58,-0.304,-0.94,0.0
7.325,-0.295,-0.949,0.0
7.016,-0.284,-0.949,0.0
8.816,-0.357,-0.942,0.0
8.339,-0.34,-0.937,0.0
7.932,-0.325,-0.935,0.0
7.621,-0.314,-0.942,0.0
7.312,-0.303,-0.945,0.0
7.039,-0.293,-0.949,0.0
8.861,-0.369,-0.943,0.0
8.359,-0.35,-0.936,0.0
7.996,-0.336,-0.94,0.0
7.613,-0.322,-0.938,0.0
7.345,-0.312,-0.946,0.0
7.061,-0.301,-0.949,0.0
8.883,-0.379,-0.942,0.0
8.411,-0.361,-0.938,0.0
8.006,-0.345,-0.938,0.0
7.657,-0.331,-0.94,0.0
7.372,-0.321,-0.946,0.0
7.083,-0.31,-0.949,0.0
8.922,-0.39,-0.942,0.0
8.45,-0.371,-0.939,0.0
8.055,-0.355,-0.939,0.0
7.705,-0.342,-0.942,0.0
7.393,-0.329,-0.945,0.0
7.085,-0.317,-0.945,0.0
8.979,-0.402,-0.943,0.0
8.482,-0.381,-0.938,0.0
8.069,-0.364,-0.937,0.0
7.739,-0.351,-0.942,0.0
7.393,-0.337,-0.941,0.0
7.121,-0.326,-0.946,0.0
9.043,-0.413,-0.945,0.0
8.575,-0.394,-0.943,0.0
8.15,-0.376,-0.942,0.0
7.772,-0.36,-0.942,0.0
7.451,-0.347,-0.944,0.0
7.158,-0.335,-0.947,0.0
9.122,-0.426,-0.948,0.0
8.637,-0.405,-0.945,0.0
8.175,-0.385,-0.939,0.0
7.815,-0.37,-0.942,0.0
7.479,-0.355,-0.943,0.0
7.207,-0.344,-0.949,0.0
9.152,-0.436,-0.945,0.0
8.668,-0.415,-0.943,0.0
8.218,-0.395,-0.939,0.0
7.85,-0.379,-0.941,0.0
7.523,-0.365,-0.943,0.0
7.233,-0.352,-0.947,0.0
9.23,-0.449,-0.947,0.0
8.717,-0.425,-0.942,0.0
8.31,-0.407,-0.944,0.0
7.897,-0.388,-0.941,0.0
7.535,-0.372,-0.94,0.0
7.263,-0.36,-0.946,0.0
9.315,-0.461,-0.949,0.0
8.793,-0.437,-0.944,0.0
8.351,-0.417,-0.942,0.0
7.932,-0.397,-0.939,0.0
7.625,-0.384,-0.945,0.0
7.299,-0.369,-0.945,0.0
9.397,-0.474,-0.95,0.0
8.874,-0.449,-0.946,0.0
8.419,-0.428,-0.943,0.0
7.989,-0.407,-0.94,0.0
7.666,-0.392,-0.944,0.0
7.346,-0.377,-0.945,0.0
9.469,-0.485,-0.95,0.0
8.945,-0.46,-0.946,0.0
8.463,-0.437,-0.941,0.0
8.036,-0.417,-0.939,0.0
7.739,-0.403,-0.947,0.0
7.409,-0.387,-0.947,0.0
9.604,-0.5,-0.955,0.0
9.027,-0.472,-0.947,0.0
8.571,-0.45,-0.946,0.0
8.109,-0.427,-0.94,0.0
7.769,-0.411,-0.944,0.0
7.446,-0.395,-0.945,0.0
9.653,-0.511,-0.952,0.0
9.129,-0.485,-0.95,0.0
8.651,-0.461,-0.947,0.0
8.168,-0.437,-0.94,0.0
7.812,-0.419,-0.942,0.0
7.503,-0.404,-0.946,0.0
9.746,-0.524,-0.952,0.0
9.225,-0.497,-0.951,0.0
8.691,-0.47,-0.944,0.0
8.278,-0.449,-0.945,0.0
7.9,-0.43,-0.945,0.0
7.563,-0.413,-0.946,0.0
9.871,-0.538,-0.955,0.0
9.317,-0.509,-0.952,0.0
8.801,-0.482,-0.947,0.0
8.331,-0.458,-0.943,0.0
7.951,-0.439,-0.943,0.0
7.627,-0.422,-0.946,0.0
9.938,-0.549,-0.952,0.0
9.427,-0.522,-0.954,0.0
8.87,-0.493,-0.946,0.0
8.428,-0.47,-0.945,0.0
8.015,-0.448,-0.943,0.0
7.693,-0.431,-0.947,0.0
10.058,-0.562,-0.953,0.0
9.518,-0.534,-0.953,0.0
8.974,-0.505,-0.947,0.0
8.48,-0.478,-0.942,0.0
8.09,-0.458,-0.943,0.0
7.764,-0.441,-0.947,0.0
10.178,-0.576,-0.953,0.0
9.66,-0.548,-0.957,0.0
9.118,-0.519,-0.953,0.0
8.589,-0.49,-0.945,0.0
8.174,-0.468,-0.944,0.0
7.833,-0.449,-0.947,0.0
10.364,-0.593,-0.96,0.0
9.75,-0.559,-0.955,0.0
9.207,-0.53,-0.952,0.0
8.693,-0.501,-0.947,0.0
8.263,-0.478,-0.945,0.0
7.903,-0.458,-0.947,0.0
10.49,-0.607,-0.96,0.0
9.886,-0.573,-0.958,0.0
9.317,-0.542,-0.953,0.0
8.801,-0.513,-0.949,0.0
8.358,-0.488,-0.946,0.0
7.943,-0.465,-0.942,0.0
10.551,-0.616,-0.953,0.0
9.95,-0.582,-0.952,0.0
9.447,-0.554,-0.955,0.0
8.902,-0.524,-0.949,0.0
8.446,-0.498,-0.946,0.0
8.049,-0.476,-0.945,0.0
10.697,-0.631,-0.954,0.0
10.109,-0.597,-0.956,0.0
9.565,-0.566,-0.956,0.0
9.031,-0.536,-0.952,0.0
8.582,-0.51,-0.951,0.0
8.123,-0.484,-0.944,0.0
10.812,-0.643,-0.951,0.0
10.239,-0.61,-0.956,0.0
9.66,-0.577,-0.953,0.0
9.174,-0.549,-0.956,0.0
8.697,-0.522,-0.953,0.0
8.21,-0.494,-0.944,0.0
11.077,-0.664,-0.961,0.0
10.421,-0.626,-0.96,0.0
9.828,-0.591,-0.958,0.0
9.27,-0.559,-0.954,0.0
8.764,-0.53,-0.949,0.0
8.329,-0.504,-0.947,0.0
11.149,-0.673,-0.953,0.0
10.513,-0.636,-0.955,0.0
9.951,-0.603,-0.957,0.0
9.424,-0.572,-0.958,0.0
8.876,-0.54,-0.95,0.0
8.446,-0.515,-0.949,0.0
11.422,-0.694,-0.961,0.0
10.629,-0.647,-0.951,0.0
10.104,-0.616,-0.958,0.0
9.547,-0.584,-0.957,0.0
9.028,-0.553,-0.954,0.0
8.549,-0.524,-0.949,0.0
11.539,-0.706,-0.956,0.0
10.255,-0.629,-0.959,0.0
9.682,-0.595,-0.958,0.0
9.167,-0.564,-0.956,0.0
8.681,-0.535,-0.952,0.0
11.787,-0.725,-0.96,0.0
11.047,-0.68,-0.959,0.0
10.423,-0.643,-0.96,0.0
9.853,-0.609,-0.961,0.0
9.277,-0.574,-0.955,0.0
8.796,-0.545,-0.952,0.0
12.055,-0.745,-0.965,0.0
11.24,-0.695,-0.96,0.0
10.523,-0.652,-0.955,0.0
9.991,-0.62,-0.961,0.0
9.461,-0.588,-0.96,0.0
8.893,-0.554,-0.95,0.0
12.34,-0.766,-0.971,0.0
11.446,-0.711,-0.961,0.0
10.645,-0.662,-0.951,0.0
10.117,-0.63,-0.959,0.0
9.592,-0.598,-0.96,0.0
9.097,-0.568,-0.959,0.0
12.534,-0.781,-0.968,0.0
11.627,-0.725,-0.96,0.0
10.281,-0.643,-0.959,0.0
9.717,-0.608,-0.958,0.0
9.183,-0.575,-0.955,0.0
12.707,-0.794,-0.964,0.0
11.9,-0.744,-0.965,0.0
11.086,-0.694,-0.958,0.0
10.466,-0.656,-0.961,0.0
9.887,-0.62,-0.961,0.0
9.36,-0.588,-0.959,0.0
12.984,-0.813,-0.965,0.0
12.165,-0.762,-0.969,0.0
11.297,-0.708,-0.96,0.0
10.57,-0.664,-0.955,0.0
10.057,-0.632,-0.962,0.0
9.509,-0.598,-0.96,0.0
24.501,-1.537,-1.786,0.0
12.436,-0.78,-0.972,0.0
11.551,-0.725,-0.964,0.0
10.223,-0.643,-0.963,0.0
9.649,-0.608,-0.96,0.0
13.52,-0.849,-0.965,0.0
12.641,-0.794,-0.969,0.0
11.783,-0.741,-0.965,0.0
10.381,-0.653,-0.961,0.0
9.828,-0.619,-0.962,0.0
13.875,-0.871,-0.969,0.0
12.822,-0.806,-0.963,0.0
12.056,-0.758,-0.969,0.0
11.249,-0.708,-0.965,0.0
10.541,-0.663,-0.96,0.0
9.986,-0.629,-0.962,0.0
14.211,-0.892,-0.97,0.0
13.13,-0.825,-0.966,0.0
12.358,-0.776,-0.974,0.0
11.405,-0.717,-0.96,0.0
10.73,-0.675,-0.96,0.0
10.141,-0.638,-0.961,0.0
14.722,-0.924,-0.982,0.0
24.597,-1.544,-1.771,0.0
12.58,-0.79,-0.972,0.0
11.609,-0.729,-0.959,0.0
10.311,-0.648,-0.961,0.0
14.776,-0.925,-0.963,1.0
13.769,-0.863,-0.97,0.0
12.75,-0.799,-0.965,0.0
11.97,-0.75,-0.97,0.0
11.181,-0.701,-0.965,0.0
10.489,-0.658,-0.961,0.0
14.77,-0.923,-0.939,1.0
14.064,-0.879,-0.968,0.0
13.051,-0.816,-0.967,0.0
12.218,-0.764,-0.971,0.0
11.404,-0.713,-0.966,0.0
10.676,-0.667,-0.961,0.0
14.768,-0.92,-0.915,1.0
14.703,-0.916,-0.988,0.0
24.49,-1.526,-1.775,0.0
12.504,-0.779,-0.973,0.0
11.612,-0.723,-0.965,0.0
14.792,-0.918,-0.893,1.0
14.796,-0.918,-0.971,1.0
13.824,-0.858,-0.98,0.0
12.724,-0.789,-0.97,0.0
11.881,-0.737,-0.968,0.0
11.12,-0.69,-0.965,0.0
14.812,-0.916,-0.87,1.0
14.806,-0.915,-0.947,1.0
14.008,-0.865,-0.97,0.0
12.964,-0.801,-0.967,0.0
12.18,-0.752,-0.973,0.0
11.364,-0.701,-0.967,0.0
14.949,-0.92,-0.854,0.0
14.816,-0.911,-0.924,1.0
14.624,-0.899,-0.989,0.0
24.511,-1.506,-1.789,0.0
12.473,-0.766,-0.976,0.0
11.58,-0.711,-0.967,0.0
15.274,-0.935,-0.848,0.0
14.823,-0.906,-0.9,1.0
14.828,-0.906,-0.979,1.0
24.512,-1.497,-1.749,0.0
12.678,-0.774,-0.971,0.0
11.843,-0.722,-0.969,0.0
15.547,-0.945,-0.837,0.0
14.835,-0.901,-0.877,1.0
14.851,-0.901,-0.955,1.0
13.943,-0.846,-0.971,0.0
12.982,-0.787,-0.973,0.0
12.114,-0.734,-0.971,0.0
15.809,-0.954,-0.825,1.0
14.951,-0.902,-0.859,0.0
14.851,-0.895,-0.931,1.0
14.621,-0.88,-0.994,0.0
24.534,-1.476,-1.797,0.0
12.422,-0.746,-0.975,0.0
16.191,-0.97,-0.818,1.0
15.277,-0.914,-0.852,1.0
14.861,-0.888,-0.906,1.0
14.815,-0.885,-0.983,0.0
13.645,-0.814,-0.976,0.0
12.618,-0.752,-0.969,0.0
16.441,-0.976,-0.803,1.0
15.505,-0.92,-0.839,0.0
14.893,-0.882,-0.883,1.0
14.888,-0.881,-0.962,1.0
13.977,-0.826,-0.977,0.0
12.943,-0.764,-0.972,0.0
17.043,-1.003,-0.804,0.0
15.822,-0.929,-0.829,0.0
14.948,-0.877,-0.862,0.0
14.907,-0.873,-0.939,1.0
14.397,-0.842,-0.982,0.0
24.551,-1.435,-1.804,0.0
17.584,-1.024,-0.801,0.0
16.239,-0.944,-0.824,2.0
15.295,-0.888,-0.856,0.0
14.944,-0.866,-0.916,1.0
14.871,-0.861,-0.989,0.0
24.565,-1.42,-1.764,0.0
18.282,-1.053,-0.802,1.0
16.436,-0.945,-0.807,1.0
15.543,-0.892,-0.844,1.0
14.972,-0.858,-0.893,1.0
14.92,-0.854,-0.968,1.0
13.82,-0.789,-0.969,0.0
18.8,-1.07,-0.793,1.0
16.975,-0.964,-0.805,0.0
15.788,-0.895,-0.831,1.0
15.044,-0.851,-0.872,1.0
15.019,-0.848,-0.949,1.0
14.681,-0.828,-1.004,0.0
19.633,-1.103,-0.795,1.0
17.58,-0.986,-0.804,0.0
16.141,-0.903,-0.822,0.0
15.222,-0.85,-0.856,0.0
15.042,-0.838,-0.925,1.0
14.824,-0.824,-0.989,1.0
20.319,-1.126,-0.789,1.0
18.316,-1.013,-0.807,0.0
16.553,-0.913,-0.815,1.0
15.544,-0.856,-0.848,0.0
15.055,-0.827,-0.9,1.0
14.905,-0.817,-0.969,4.0
21.052,-1.15,-0.782,2.0
18.814,-1.025,-0.797,0.0
16.991,-0.924,-0.809,0.0
15.806,-0.857,-0.836,1.0
15.133,-0.818,-0.88,0.0
15.087,-0.814,-0.956,0.0
21.869,-1.176,-0.776,1.0
19.479,-1.045,-0.793,0.0
17.555,-0.939,-0.806,0.0
16.128,-0.86,-0.826,0.0
15.27,-0.812,-0.862,0.0
15.142,-0.804,-0.934,0.0
22.775,-1.205,-0.77,5.0
20.306,-1.071,-0.793,0.0
18.16,-0.955,-0.804,0.0
16.516,-0.866,-0.819,1.0
15.505,-0.811,-0.849,0.0
15.188,-0.792,-0.911,1.0
23.687,-1.231,-0.762,10.0
20.993,-1.088,-0.785,1.0
18.823,-0.972,-0.802,0.0
16.924,-0.871,-0.811,0.0
15.786,-0.81,-0.839,0.0
15.245,-0.78,-0.89,1.0
23.916,-1.22,-0.73,16.0
21.827,-1.109,-0.78,1.0
19.587,-0.992,-0.802,0.0
17.552,-0.886,-0.812,0.0
16.166,-0.814,-0.832,0.0
15.328,-0.769,-0.869,1.0
24.319,-1.216,-0.702,17.0
22.722,-1.132,-0.775,3.0
20.158,-1.0,-0.792,0.0
18.18,-0.899,-0.811,0.0
16.489,-0.813,-0.822,1.0
15.463,-0.759,-0.851,0.0
24.655,-1.206,-0.672,3.0
23.75,-1.158,-0.771,10.0
21.016,-1.021,-0.792,1.0
18.66,-0.903,-0.802,0.0
16.931,-0.816,-0.816,0.0
15.899,-0.764,-0.85,0.0
28.244,-1.352,-0.724,3.0
23.908,-1.139,-0.737,16.0
21.714,-1.031,-0.783,2.0
19.42,-0.918,-0.804,0.0
17.409,-0.82,-0.811,1.0
16.136,-0.757,-0.836,1.0
30.372,-1.419,-0.729,9.0
24.345,-1.133,-0.711,14.0
22.49,-1.042,-0.775,1.0
20.036,-0.924,-0.797,0.0
18.014,-0.828,-0.811,0.0
16.381,-0.749,-0.823,1.0
30.566,-1.393,-0.685,26.0
24.719,-1.121,-0.683,1.0
23.712,-1.071,-0.779,9.0
20.761,-0.933,-0.792,0.0
18.621,-0.833,-0.808,0.0
16.841,-0.75,-0.819,1.0
28.476,-1.263,-0.593,53.0
28.434,-1.256,-0.741,28.0
23.867,-1.049,-0.746,17.0
21.777,-0.952,-0.797,2.0
19.356,-0.842,-0.81,0.0
17.397,-0.754,-0.819,1.0
28.45,-1.227,-0.548,60.0
28.436,-1.22,-0.696,71.0
24.373,-1.04,-0.724,16.0
22.249,-0.945,-0.779,1.0
19.959,-0.843,-0.803,0.0
17.999,-0.757,-0.819,0.0
28.457,-1.191,-0.504,115.0
28.459,-1.185,-0.652,143.0
25.078,-1.038,-0.706,3.0
23.635,-0.973,-0.791,5.0
20.607,-0.844,-0.798,2.0
18.446,-0.751,-0.811,0.0
28.458,-1.153,-0.46,98.0
28.448,-1.146,-0.608,67.0
28.386,-1.138,-0.755,14.0
23.797,-0.948,-0.76,15.0
21.451,-0.85,-0.798,1.0
19.141,-0.754,-0.812,0.0
28.469,-1.116,-0.417,63.0
28.465,-1.109,-0.566,34.0
28.5,-1.103,-0.715,18.0
24.312,-0.936,-0.74,18.0
22.094,-0.845,-0.788,3.0
19.908,-0.757,-0.815,0.0
31.321,-1.184,-0.411,44.0
31.192,-1.172,-0.573,32.0
30.471,-1.137,-0.719,25.0
25.032,-0.928,-0.725,10.0
23.401,-0.862,-0.8,5.0
20.53,-0.751,-0.81,0.0
45.027,-1.64,-0.525,16.0
38.015,-1.375,-0.643,3.0
30.554,-1.097,-0.677,32.0
27.606,-0.985,-0.759,0.0
23.77,-0.842,-0.778,17.0
21.187,-0.745,-0.805,0.0
45.529,-1.593,-0.465,14.0
38.136,-1.324,-0.589,13.0
30.803,-1.061,-0.637,28.0
28.599,-0.978,-0.744,1.0
24.064,-0.817,-0.753,20.0
22.088,-0.744,-0.807,1.0
38.725,-1.297,-0.339,33.0
38.477,-1.279,-0.539,14.0
31.179,-1.028,-0.6,28.0
30.381,-0.994,-0.747,13.0
24.705,-0.802,-0.737,11.0
22.563,-0.726,-0.792,2.0
38.679,-1.237,-0.284,55.0
38.587,-1.224,-0.486,30.0
37.919,-1.193,-0.677,7.0
30.496,-0.951,-0.707,31.0
25.183,-0.779,-0.717,1.0
23.672,-0.726,-0.798,7.0
38.659,-1.177,-0.23,66.0
38.621,-1.165,-0.432,41.0
38.0,-1.136,-0.625,27.0
30.627,-0.907,-0.668,32.0
28.054,-0.823,-0.759,1.0
23.808,-0.693,-0.77,19.0
38.649,-1.116,-0.177,107.0
38.655,-1.105,-0.38,53.0
38.278,-1.084,-0.578,21.0
30.931,-0.867,-0.633,29.0
30.028,-0.834,-0.772,6.0
24.44,-0.672,-0.757,25.0
38.66,-1.055,-0.125,67.0
38.684,-1.044,-0.328,55.0
38.531,-1.03,-0.53,18.0
31.393,-0.83,-0.6,16.0
30.402,-0.795,-0.741,23.0
25.125,-0.65,-0.745,5.0
38.726,-0.993,-0.073,33.0
38.769,-0.983,-0.277,27.0
38.72,-0.97,-0.481,27.0
37.853,-0.938,-0.673,13.0
30.508,-0.747,-0.704,34.0
27.573,-0.667,-0.781,0.0
40.416,-0.969,-0.024,37.0
40.414,-0.957,-0.236,39.0
40.416,-0.946,-0.45,62.0
38.071,-0.879,-0.628,23.0
30.805,-0.703,-0.671,31.0
28.272,-0.637,-0.765,6.0
40.428,-0.901,0.027,34.0
40.432,-0.889,-0.185,8.0
38.371,-0.832,-0.378,11.0
38.315,-0.82,-0.584,22.0
31.257,-0.659,-0.642,23.0
0.0,0.0,0.0,0.0
52.941,-1.088,0.102,12.0
45.616,-0.925,-0.152,13.0
45.534,-0.909,-0.393,30.0
44.859,-0.883,-0.629,14.0
31.528,-0.611,-0.608,1.0
30.431,-0.58,-0.748,21.0
53.011,-0.998,0.167,14.0
20.116,-0.372,-0.043,12.0
52.914,-0.964,-0.393,60.0
44.936,-0.805,-0.575,35.0
37.837,-0.667,-0.685,13.0
30.589,-0.53,-0.716,29.0
20.146,-0.343,0.087,26.0
20.133,-0.337,-0.019,32.0
59.472,-0.978,-0.371,9.0
45.26,-0.731,-0.526,19.0
38.099,-0.603,-0.645,19.0
31.085,-0.483,-0.691,28.0
20.121,-0.307,0.11,16.0
20.123,-0.301,0.004,11.0
56.928,-0.835,-0.29,3.0
52.838,-0.758,-0.554,14.0
38.805,-0.545,-0.613,14.0
31.963,-0.439,-0.675,9.0
20.161,-0.271,0.133,11.0
59.541,-0.783,0.079,63.0
56.321,-0.724,-0.224,1.0
53.065,-0.665,-0.498,9.0
44.824,-0.548,-0.658,11.0
35.932,-0.428,-0.718,5.0
56.173,-0.653,0.435,2.0
56.17,-0.635,0.136,1.0
56.161,-0.617,-0.161,4.0
58.802,-0.628,-0.487,17.0
44.907,-0.465,-0.61,33.0
37.896,-0.38,-0.717,8.0
53.376,-0.52,0.471,8.0
53.352,-0.503,0.187,5.0
53.342,-0.486,-0.096,6.0
20.172,-0.177,-0.145,3.0
20.152,-0.171,-0.253,19.0
20.163,-0.164,-0.36,28.0
58.329,-0.459,0.575,7.0
20.176,-0.152,0.091,13.0
20.195,-0.146,-0.015,23.0
20.129,-0.139,-0.125,19.0
20.125,-0.132,-0.232,18.0
20.145,-0.126,-0.339,38.0
20.145,-0.12,0.219,22.0
20.129,-0.114,0.111,23.0
20.129,-0.107,0.004,28.0
20.143,-0.1,-0.105,27.0
20.154,-0.094,-0.212,24.0
20.145,-0.088,-0.32,34.0
20.12,-0.081,0.238,28.0
20.114,-0.074,0.131,30.0
20.127,-0.068,0.023,34.0
20.14,-0.062,-0.085,35.0
20.161,-0.055,-0.193,29.0
20.163,-0.048,-0.301,25.0
20.117,-0.042,0.257,29.0
20.115,-0.035,0.15,31.0
20.135,-0.029,0.042,35.0
20.129,-0.023,-0.067,20.0
20.174,-0.016,-0.175,13.0
20.233,-0.009,-0.283,5.0
20.131,-0.003,0.275,29.0
20.124,0.002,0.168,28.0
20.166,0.009,0.06,40.0
20.253,0.016,-0.049,151.0
20.261,0.022,-0.158,151.0
20.266,0.029,-0.266,150.0
20.147,0.035,0.293,31.0
20.145,0.042,0.185,28.0
20.177,0.049,0.078,23.0
20.209,0.056,-0.032,32.0
20.207,0.062,-0.14,27.0
20.219,0.069,-0.249,7.0
20.154,0.076,0.31,28.0
20.16,0.082,0.202,28.0
20.189,0.089,0.094,27.0
20.173,0.096,-0.015,27.0
20.166,0.102,-0.123,36.0
20.187,0.109,-0.232,29.0
20.161,0.116,0.327,29.0
20.178,0.123,0.219,24.0
20.185,0.129,0.11,29.0
20.181,0.136,0.0,26.0
20.177,0.143,-0.108,28.0
20.173,0.149,-0.216,29.0
20.198,0.157,0.343,25.0
20.26,0.164,0.235,25.0
20.269,0.171,0.126,25.0
20.32,0.178,0.015,32.0
20.224,0.184,-0.093,10.0
20.175,0.19,-0.201,16.0
20.276,0.198,0.359,36.0
20.293,0.205,0.25,27.0
20.303,0.212,0.141,25.0
20.323,0.219,0.029,8.0
0.0,0.0,0.0,0.0
20.213,0.231,-0.188,2.0
20.28,0.239,0.373,26.0
20.282,0.246,0.264,19.0
20.314,0.253,0.155,0.0
99.593,1.277,0.214,6.0
0.0,0.0,0.0,0.0
0.0,0.0,0.0,0.0
195.242,2.703,3.727,23.0
195.204,2.769,2.673,8.0
0.0,0.0,0.0,0.0
99.701,1.48,0.278,6.0
101.355,1.537,-0.264,1.0
0.0,0.0,0.0,0.0
195.039,3.103,3.847,13.0
194.793,3.161,2.787,18.0
0.0,0.0,0.0,0.0
99.846,1.688,0.339,5.0
99.909,1.721,-0.2,1.0
0.0,0.0,0.0,0.0
194.526,3.496,3.951,15.0
0.0,0.0,0.0,0.0
0.0,0.0,0.0,0.0
99.853,1.892,0.395,8.0
99.942,1.928,-0.145,1.0
0.0,0.0,0.0,0.0
194.279,3.895,4.054,14.0
196.417,4.0,3.033,6.0
0.0,0.0,0.0,0.0
99.941,2.1,0.449,5.0
100.012,2.135,-0.093,6.0
0.0,0.0,0.0,0.0
194.098,4.287,4.148,24.0
195.28,4.377,3.113,19.0
0.0,0.0,0.0,0.0
100.168,2.311,0.499,2.0
100.134,2.343,-0.044,20.0
0.0,0.0,0.0,0.0
194.015,4.69,4.24,29.0
193.536,4.742,3.177,13.0
0.0,0.0,0.0,0.0
103.04,2.591,0.56,3.0
100.399,2.557,0.0,1.0
0.0,0.0,0.0,0.0
193.661,5.08,4.317,23.0
193.538,5.142,3.261,20.0
195.061,5.243,2.223,24.0
103.207,2.808,0.604,2.0
103.281,2.845,0.042,1.0
0.0,0.0,0.0,0.0
193.766,5.487,4.396,33.0
0.0,0.0,0.0,0.0
195.598,5.662,2.305,15.0
196.006,5.74,1.221,35.0
0.0,0.0,0.0,0.0
0.0,0.0,0.0,0.0
193.931,5.893,4.47,24.0
0.0,0.0,0.0,0.0
195.479,6.065,2.372,7.0
196.107,6.148,1.289,37.0
0.0,0.0,0.0,0.0
0.0,0.0,0.0,0.0
195.314,6.342,4.566,8.0
195.13,6.396,3.494,24.0
195.391,6.469,2.431,11.0
196.33,6.565,1.35,27.0
0.0,0.0,0.0,0.0
0.0,0.0,0.0,0.0
195.672,6.761,4.63,16.0
195.543,6.82,3.557,25.0
195.988,6.896,2.491,23.0
196.329,6.972,1.402,31.0
0.0,0.0,0.0,0.0
0.0,0.0,0.0,0.0
195.915,7.174,4.684,7.0
0.0,0.0,0.0,0.0
0.0,0.0,0.0,0.0
195.103,7.329,1.437,32.0
0.0,0.0,0.0,0.0
0.0,0.0,0.0,0.0
195.506,7.561,4.715,5.0
200.495,7.818,3.735,10.0
203.785,8.008,2.677,6.0
196.547,7.785,1.484,21.0
196.611,7.852,0.406,5.0
0.0,0.0,0.0,0.0
0.0,0.0,0.0,0.0
0.0,0.0,0.0,0.0
0.0,0.0,0.0,0.0
196.535,8.188,1.513,23.0
196.979,8.268,0.435,5.0
0.0,0.0,0.0,0.0
192.683,8.244,4.705,12.0
195.461,8.423,3.698,9.0
195.541,8.485,2.623,45.0
195.496,8.545,1.527,55.0
195.517,8.607,0.452,7.0
0.0,0.0,0.0,0.0
0.0,0.0,0.0,0.0
0.0,0.0,0.0,0.0
206.25,9.37,2.783,19.0
196.898,9.006,1.553,27.0
196.848,9.064,0.468,8.0
0.0,0.0,0.0,0.0
0.0,0.0,0.0,0.0
0.0,0.0,0.0,0.0
0.0,0.0,0.0,0.0
197.03,9.41,1.561,25.0
197.053,9.473,0.475,8.0
0.0,0.0,0.0,0.0
0.0,0.0,0.0,0.0
197.745,9.727,3.77,6.0
197.775,9.786,2.678,19.0
197.139,9.816,1.561,27.0
197.192,9.878,0.473,8.0
0.0,0.0,0.0,0.0
197.241,10.043,4.845,9.0
197.166,10.096,3.754,6.0
0.0,0.0,0.0,0.0
197.009,10.205,1.552,22.0
0.0,0.0,0.0,0.0
0.0,0.0,0.0,0.0
0.0,0.0,0.0,0.0
0.0,0.0,0.0,0.0
0.0,0.0,0.0,0.0
196.176,10.556,1.531,29.0
196.003,10.603,0.444,12.0
0.0,0.0,0.0,0.0
196.102,10.77,4.789,33.0
196.119,10.827,3.701,18.0
0.0,0.0,0.0,0.0
197.257,11.002,1.516,21.0
197.396,11.07,0.424,5.0
0.0,0.0,0.0,0.0
0.0,0.0,0.0,0.0
0.0,0.0,0.0,0.0
0.0,0.0,0.0,0.0
197.424,11.405,1.488,21.0
197.473,11.463,0.393,7.0
0.0,0.0,0.0,0.0
196.021,11.538,4.728,5.0
208.188,12.313,3.864,7.0
208.132,12.37,2.707,6.0
197.49,11.796,1.452,19.0
0.0,0.0,0.0,0.0
0.0,0.0,0.0,0.0
195.959,11.922,4.685,19.0
0.0,0.0,0.0,0.0
202.572,12.44,2.59,6.0
155.451,9.591,1.108,66.0
155.325,9.626,0.242,3.0
0.0,0.0,0.0,0.0
195.727,12.291,4.633,7.0
0.0,0.0,0.0,0.0
0.0,0.0,0.0,0.0
0.0,0.0,0.0,0.0
154.954,9.899,0.201,4.0
0.0,0.0,0.0,0.0
173.996,11.26,4.07,16.0
0.0,0.0,0.0,0.0
0.0,0.0,0.0,0.0
0.0,0.0,0.0,0.0
154.907,10.191,0.154,20.0
0.0,0.0,0.0,0.0
201.657,13.432,4.654,9.0
0.0,0.0,0.0,0.0
199.193,13.373,2.374,10.0
0.0,0.0,0.0,0.0
155.001,10.49,0.102,8.0
0.0,0.0,0.0,0.0
179.086,12.265,4.071,12.0
210.424,14.468,3.608,13.0
199.51,13.77,2.305,9.0
0.0,0.0,0.0,0.0
0.0,0.0,0.0,0.0
0.0,0.0,0.0,0.0
172.549,12.141,3.855,13.0
173.518,12.255,2.906,15.0
0.0,0.0,0.0,0.0
140.656,10.007,0.768,150.0
0.0,0.0,0.0,0.0
0.0,0.0,0.0,0.0
178.605,12.9,3.915,21.0
173.215,12.554,2.828,38.0
173.401,12.61,1.86,10.0
140.541,10.258,0.707,150.0
0.0,0.0,0.0,0.0
0.0,0.0,0.0,0.0
162.108,12.005,3.479,16.0
168.272,12.503,2.669,25.0
0.0,0.0,0.0,0.0
122.202,9.141,0.556,2.0
0.0,0.0,0.0,0.0
0.0,0.0,0.0,0.0
161.984,12.289,3.398,14.0
168.217,12.801,2.585,14.0
122.423,9.346,1.195,3.0
114.069,8.737,0.462,24.0
0.0,0.0,0.0,0.0
0.0,0.0,0.0,0.0
155.924,12.105,3.189,28.0
162.124,12.626,2.406,14.0
0.0,0.0,0.0,0.0
113.99,8.931,0.4,65.0
0.0,0.0,0.0,0.0
0.0,0.0,0.0,0.0
155.98,12.382,3.104,34.0
156.037,12.422,2.229,18.0
0.0,0.0,0.0,0.0
110.563,8.854,0.325,14.0
0.0,0.0,0.0,0.0
69.007,5.559,-0.572,1.0
196.412,15.926,3.796,33.0
0.0,0.0,0.0,0.0
110.513,9.011,0.893,3.0
109.237,8.933,0.257,1.0
0.0,0.0,0.0,0.0
0.0,0.0,0.0,0.0
