X,Y,Z,Reflectivity
46.126,-3.443,-0.52,13.0
35.688,-2.676,-0.596,2.0
30.266,-2.28,-0.671,3.0
65.682,-4.953,0.369,0.0
65.562,-4.967,0.012,16.0
57.443,-4.371,-0.302,3.0
45.933,-3.511,-0.496,21.0
36.036,-2.767,-0.585,1.0
30.435,-2.347,-0.66,5.0
61.965,-4.784,0.379,4.0
61.469,-4.766,0.041,19.0
57.366,-4.467,-0.272,3.0
46.515,-3.638,-0.478,21.0
39.141,-3.075,-0.615,1.0
30.779,-2.429,-0.651,4.0
61.485,-4.855,0.409,8.0
79.678,-6.319,0.097,11.0
61.192,-4.873,-0.258,4.0
46.513,-3.72,-0.453,22.0
0.0,0.0,0.0,0.0
31.082,-2.507,-0.64,3.0
79.492,-6.416,0.573,32.0
79.687,-6.458,0.142,34.0
60.863,-4.952,-0.221,4.0
46.774,-3.821,-0.428,21.0
38.89,-3.19,-0.567,14.0
31.483,-2.593,-0.63,2.0
79.441,-6.547,0.619,28.0
79.447,-6.572,0.189,23.0
79.307,-6.585,-0.241,2.0
47.084,-3.925,-0.403,20.0
39.35,-3.293,-0.55,14.0
31.869,-2.678,-0.618,1.0
0.0,0.0,0.0,0.0
65.42,-5.521,0.196,1.0
79.442,-6.729,-0.191,6.0
0.0,0.0,0.0,0.0
39.507,-3.372,-0.527,14.0
32.772,-2.808,-0.614,1.0
0.0,0.0,0.0,0.0
0.0,0.0,0.0,0.0
68.504,-5.914,-0.12,1.0
49.608,-4.298,-0.36,24.0
39.981,-3.477,-0.507,15.0
33.785,-2.949,-0.611,2.0
0.0,0.0,0.0,0.0
0.0,0.0,0.0,0.0
56.574,-4.975,-0.06,6.0
50.261,-4.435,-0.33,21.0
40.225,-3.562,-0.481,15.0
34.201,-3.039,-0.594,2.0
0.0,0.0,0.0,0.0
0.0,0.0,0.0,0.0
55.739,-4.989,-0.018,4.0
54.634,-4.907,-0.319,15.0
0.0,0.0,0.0,0.0
35.482,-3.209,-0.59,11.0
54.938,-4.97,0.615,61.0
54.942,-4.987,0.318,150.0
54.958,-5.004,0.022,151.0
54.826,-5.009,-0.278,29.0
44.737,-4.101,-0.469,3.0
35.439,-3.259,-0.562,11.0
54.966,-5.056,0.657,157.0
54.96,-5.072,0.361,170.0
54.968,-5.089,0.065,167.0
55.283,-5.134,-0.238,30.0
0.0,0.0,0.0,0.0
35.438,-3.312,-0.534,11.0
54.943,-5.137,0.701,112.0
54.926,-5.151,0.405,5.0
65.155,-6.129,0.13,4.0
55.764,-5.262,-0.194,30.0
0.0,0.0,0.0,0.0
38.218,-3.629,-0.545,8.0
0.0,0.0,0.0,0.0
65.144,-6.204,0.534,6.0
65.153,-6.223,0.184,156.0
55.828,-5.348,-0.148,7.0
46.44,-4.462,-0.374,20.0
37.851,-3.647,-0.508,9.0
0.0,0.0,0.0,0.0
65.105,-6.293,0.59,5.0
65.047,-6.305,0.239,4.0
65.522,-6.369,-0.117,7.0
47.366,-4.617,-0.34,7.0
40.254,-3.935,-0.505,5.0
81.736,-7.991,1.251,2.0
0.0,0.0,0.0,0.0
65.047,-6.394,0.296,6.0
65.378,-6.444,-0.059,11.0
50.108,-4.952,-0.315,9.0
0.0,0.0,0.0,0.0
81.768,-8.106,1.325,10.0
0.0,0.0,0.0,0.0
65.068,-6.483,0.355,21.0
65.012,-6.495,0.0,8.0
0.0,0.0,0.0,0.0
0.0,0.0,0.0,0.0
81.878,-8.226,1.403,30.0
0.0,0.0,0.0,0.0
65.096,-6.571,0.416,183.0
64.952,-6.573,0.06,4.0
54.619,-5.542,-0.242,28.0
44.58,-4.534,-0.437,13.0
81.826,-8.325,1.479,38.0
0.0,0.0,0.0,0.0
65.102,-6.654,0.477,172.0
64.974,-6.657,0.121,4.0
55.628,-5.714,-0.194,29.0
44.704,-4.603,-0.395,19.0
81.968,-8.442,1.56,46.0
0.0,0.0,0.0,0.0
65.113,-6.736,0.542,150.0
64.994,-6.74,0.186,4.0
56.182,-5.84,-0.14,18.0
45.192,-4.708,-0.355,6.0
81.926,-8.537,1.641,41.0
0.0,0.0,0.0,0.0
65.051,-6.807,0.606,1.0
65.079,-6.825,0.251,151.0
65.363,-6.87,-0.098,5.0
47.823,-5.038,-0.327,21.0
81.901,-8.629,1.723,36.0
82.07,-8.665,1.287,6.0
0.0,0.0,0.0,0.0
65.089,-6.901,0.317,167.0
65.138,-6.921,-0.031,3.0
48.124,-5.124,-0.28,3.0
81.853,-8.717,1.806,36.0
82.256,-8.777,1.374,24.0
0.0,0.0,0.0,0.0
65.092,-6.973,0.384,169.0
65.001,-6.977,0.035,3.0
51.61,-5.551,-0.247,12.0
81.83,-8.804,1.891,39.0
82.175,-8.856,1.459,35.0
0.0,0.0,0.0,0.0
65.066,-7.04,0.452,4.0
64.966,-7.042,0.104,2.0
54.872,-5.96,-0.204,27.0
81.763,-8.882,1.977,38.0
82.121,-8.937,1.545,29.0
0.0,0.0,0.0,0.0
65.048,-7.104,0.522,3.0
65.023,-7.114,0.174,0.0
55.869,-6.124,-0.148,29.0
81.907,-8.98,2.068,39.0
82.5,-9.06,1.642,31.0
83.949,-9.235,1.222,1.0
65.026,-7.165,0.593,2.0
65.047,-7.18,0.245,2.0
56.354,-6.232,-0.088,5.0
81.954,-9.064,2.159,34.0
82.927,-9.186,1.742,43.0
0.0,0.0,0.0,0.0
0.0,0.0,0.0,0.0
65.109,-7.247,0.317,21.0
65.242,-7.275,-0.029,2.0
82.041,-9.15,2.253,35.0
83.024,-9.272,1.836,28.0
84.399,-9.44,1.414,31.0
0.0,0.0,0.0,0.0
65.144,-7.309,0.389,150.0
65.067,-7.311,0.041,0.0
82.496,-9.272,2.356,33.0
82.607,-9.297,1.917,31.0
84.71,-9.547,1.514,27.0
84.019,-9.483,1.044,19.0
65.155,-7.364,0.463,3.0
65.108,-7.37,0.114,1.0
82.955,-9.393,2.464,30.0
82.629,-9.368,2.013,13.0
85.126,-9.664,1.619,14.0
84.135,-9.564,1.142,32.0
65.204,-7.423,0.537,2.0
65.217,-7.435,0.19,157.0
83.047,-9.47,2.563,31.0
84.119,-9.604,2.147,25.0
85.131,-9.731,1.718,23.0
84.408,-9.66,1.244,31.0
80.06,-9.174,0.753,6.0
65.239,-7.486,0.265,170.0
83.054,-9.532,2.658,20.0
84.011,-9.653,2.24,19.0
85.285,-9.811,1.819,14.0
84.849,-9.772,1.348,9.0
80.049,-9.23,0.846,16.0
65.219,-7.529,0.341,76.0
0.0,0.0,0.0,0.0
84.297,-9.744,2.346,35.0
85.58,-9.903,1.925,13.0
192.309,-22.278,3.279,24.0
85.11,-9.87,0.998,3.0
79.968,-9.284,0.511,8.0
0.0,0.0,0.0,0.0
84.21,-9.79,2.443,43.0
84.244,-9.802,1.994,12.0
85.348,-9.94,1.555,8.0
192.369,-22.429,2.48,21.0
80.032,-9.34,0.606,29.0
84.384,-9.853,2.999,31.0
84.175,-9.836,2.541,43.0
84.232,-9.852,2.093,14.0
85.352,-9.991,1.657,20.0
192.28,-22.529,2.706,29.0
80.018,-9.384,0.699,27.0
84.285,-9.889,3.095,30.0
84.197,-9.886,2.641,38.0
84.266,-9.901,2.194,3.0
85.353,-10.037,1.757,13.0
192.365,-22.641,2.936,18.0
80.081,-9.433,0.795,23.0
84.326,-9.938,3.196,32.0
84.329,-9.945,2.745,32.0
84.43,-9.963,2.298,8.0
85.293,-10.072,1.859,16.0
188.3,-22.253,3.1,18.0
80.293,-9.496,0.893,10.0
84.111,-9.953,3.289,23.0
84.536,-10.009,2.855,33.0
84.314,-9.988,2.397,23.0
138.958,-16.473,3.194,8.0
188.203,-22.325,3.323,9.0
153.643,-18.237,1.894,9.0
84.191,-9.999,3.394,22.0
84.603,-10.053,2.958,31.0
84.203,-10.01,2.495,33.0
138.883,-16.519,3.359,23.0
153.744,-18.298,2.898,13.0
153.813,-18.317,2.078,15.0
84.104,-10.021,3.491,19.0
84.615,-10.086,3.06,26.0
84.233,-10.045,2.597,30.0
138.941,-16.576,3.528,21.0
153.773,-18.354,3.085,16.0
153.702,-18.356,2.262,18.0
84.082,-10.048,3.591,25.0
84.581,-10.11,3.161,22.0
84.327,-10.083,2.701,29.0
138.937,-16.619,3.693,25.0
153.82,-18.406,3.27,27.0
153.727,-18.403,2.446,19.0
84.069,-10.071,3.692,16.0
85.027,-10.187,3.279,14.0
84.409,-10.116,2.805,29.0
85.456,-10.244,2.374,11.0
153.808,-18.444,3.452,19.0
153.729,-18.441,2.63,24.0
84.332,-10.123,3.805,12.0
0.0,0.0,0.0,0.0
84.46,-10.141,2.907,25.0
84.125,-10.103,2.437,13.0
153.809,-18.476,3.635,12.0
153.77,-18.476,2.816,18.0
137.06,-16.48,6.349,8.0
84.889,-10.208,3.477,19.0
84.511,-10.163,3.01,27.0
84.15,-10.12,2.539,31.0
139.157,-16.739,3.456,23.0
153.778,-18.5,2.999,19.0
140.881,-16.962,6.693,6.0
84.707,-10.198,3.571,16.0
84.592,-10.184,3.113,22.0
84.204,-10.137,2.641,34.0
138.978,-16.733,3.617,21.0
153.813,-18.521,3.182,27.0
140.805,-16.968,6.859,11.0
84.256,-10.152,3.653,7.0
84.721,-10.207,3.22,15.0
84.328,-10.159,2.745,31.0
138.944,-16.739,3.78,15.0
153.818,-18.53,3.365,18.0
118.742,-14.317,5.926,6.0
137.062,-16.522,6.106,8.0
85.363,-10.288,3.345,14.0
84.501,-10.183,2.852,31.0
84.153,-10.14,2.389,5.0
153.824,-18.534,3.544,13.0
118.77,-14.322,6.067,20.0
84.247,-10.156,3.851,4.0
85.373,-10.289,3.446,18.0
84.519,-10.184,2.95,29.0
84.148,-10.137,2.487,22.0
139.214,-16.769,3.371,20.0
118.722,-14.314,6.203,20.0
137.052,-16.517,6.426,13.0
84.942,-10.233,3.528,17.0
84.559,-10.184,3.05,27.0
84.177,-10.135,2.586,34.0
139.035,-16.736,3.528,23.0
111.3,-13.41,5.945,11.0
140.843,-16.962,6.766,12.0
84.334,-10.152,3.599,15.0
84.616,-10.182,3.149,21.0
84.265,-10.136,2.685,33.0
138.927,-16.706,3.683,23.0
62.651,-7.541,3.417,5.0
141.177,-16.984,6.943,9.0
84.229,-10.128,3.689,12.0
84.935,-10.208,3.256,16.0
84.391,-10.138,2.784,28.0
138.974,-16.688,3.842,14.0
62.572,-7.521,3.484,14.0
118.774,-14.269,5.976,15.0
84.331,-10.125,3.79,11.0
85.097,-10.211,3.36,17.0
84.519,-10.136,2.884,27.0
84.149,-10.087,2.42,14.0
62.548,-7.505,3.554,28.0
118.7,-14.233,6.107,26.0
84.295,-10.101,3.883,6.0
84.34,-10.1,3.425,17.0
84.486,-10.111,2.978,30.0
84.173,-10.068,2.516,26.0
62.542,-7.488,3.624,19.0
118.762,-14.209,6.244,26.0
137.304,-16.415,6.479,15.0
84.109,-10.048,3.508,20.0
84.601,-10.1,3.075,24.0
84.264,-10.053,2.611,30.0
109.541,-13.083,6.47,10.0
118.761,-14.172,6.374,25.0
137.199,-16.358,6.626,16.0
84.065,-10.015,3.598,30.0
84.803,-10.095,3.174,18.0
84.379,-10.037,2.705,34.0
109.621,-13.055,6.593,17.0
117.798,-14.016,6.449,23.0
118.828,-14.125,5.867,20.0
83.971,-9.973,3.684,26.0
84.259,-9.998,3.244,16.0
84.529,-10.022,2.8,31.0
62.416,-7.409,3.821,13.0
117.606,-13.946,6.564,18.0
118.781,-14.071,5.989,28.0
83.932,-9.933,3.771,26.0
83.992,-9.931,3.321,34.0
84.59,-9.993,2.89,35.0
62.438,-7.385,3.887,22.0
117.566,-13.89,6.685,13.0
118.768,-14.017,6.112,28.0
84.135,-9.919,3.868,12.0
83.93,-9.884,3.407,30.0
84.492,-9.941,2.975,31.0
62.427,-7.354,3.951,16.0
117.768,-13.856,6.819,17.0
118.868,-13.97,6.239,25.0
136.934,-16.075,6.435,16.0
83.905,-9.838,3.492,40.0
84.184,-9.861,3.049,25.0
110.015,-12.903,7.075,16.0
117.775,-13.795,6.938,20.0
118.851,-13.904,6.359,26.0
136.865,-15.991,6.571,14.0
83.858,-9.787,3.572,39.0
83.819,-9.771,3.119,37.0
62.387,-7.281,4.075,5.0
114.324,-13.325,6.849,9.0
118.894,-13.84,6.479,23.0
83.933,-9.757,4.111,22.0
83.891,-9.74,3.656,38.0
83.729,-9.71,3.197,35.0
62.397,-7.245,4.136,6.0
109.81,-12.732,6.684,15.0
114.426,-13.249,6.346,8.0
83.876,-9.698,4.189,35.0
84.051,-9.705,3.744,31.0
83.764,-9.66,3.278,35.0
108.864,-12.571,7.32,39.0
109.799,-12.66,6.788,28.0
114.391,-13.17,6.451,12.0
83.964,-9.653,4.271,28.0
83.92,-9.634,3.816,31.0
83.807,-9.608,3.357,39.0
108.78,-12.488,7.415,43.0
109.789,-12.583,6.888,21.0
114.399,-13.091,6.556,6.0
84.205,-9.621,4.36,25.0
83.832,-9.564,3.887,37.0
83.959,-9.564,3.439,43.0
108.71,-12.4,7.51,43.0
109.434,-12.462,6.965,19.0
119.141,-13.545,6.935,17.0
84.433,-9.584,4.447,26.0
83.753,-9.492,3.957,39.0
84.173,-9.525,3.521,9.0
108.728,-12.32,7.606,45.0
109.019,-12.331,7.033,21.0
109.839,-12.403,6.488,24.0
84.691,-9.546,4.534,34.0
83.717,-9.421,4.028,37.0
82.486,-9.268,3.521,13.0
108.802,-12.241,7.704,35.0
108.845,-12.224,7.114,23.0
109.835,-12.312,6.581,33.0
84.5,-9.456,4.594,26.0
83.792,-9.36,4.101,37.0
83.802,-9.345,3.646,42.0
108.746,-12.143,7.79,35.0
108.841,-12.131,7.202,41.0
109.824,-12.217,6.67,35.0
83.878,-9.314,4.628,18.0
83.854,-9.295,4.171,36.0
82.451,-9.123,3.652,18.0
108.749,-12.05,7.876,19.0
108.851,-12.036,7.289,34.0
109.852,-12.123,6.757,22.0
83.652,-9.214,4.68,15.0
83.721,-9.204,4.229,40.0
83.587,-9.172,3.768,43.0
111.367,-12.237,8.152,15.0
109.051,-11.959,7.386,19.0
110.044,-12.043,6.852,7.0
86.336,-9.429,4.896,7.0
83.681,-9.122,4.289,39.0
83.764,-9.113,3.836,28.0
111.91,-12.192,8.274,17.0
111.686,-12.141,7.647,16.0
113.392,-12.3,7.143,3.0
85.511,-9.257,4.91,20.0
83.762,-9.049,4.353,39.0
84.09,-9.066,3.911,36.0
111.305,-12.017,8.309,17.0
111.876,-12.051,7.739,19.0
113.442,-12.192,7.226,18.0
85.271,-9.144,4.956,23.0
83.91,-8.979,4.419,37.0
84.562,-9.03,3.992,25.0
111.498,-11.922,8.401,16.0
111.716,-11.918,7.803,23.0
116.26,-12.375,7.483,14.0
84.377,-8.961,4.961,18.0
84.302,-8.934,4.494,28.0
84.199,-8.903,4.029,36.0
108.681,-11.506,8.26,18.0
108.963,-11.509,7.682,22.0
113.543,-11.964,7.381,12.0
84.25,-8.857,5.006,24.0
84.05,-8.816,4.534,38.0
83.731,-8.762,4.059,21.0
108.692,-11.388,8.328,21.0
109.018,-11.395,7.753,29.0
109.424,-11.41,7.18,11.0
84.154,-8.754,5.051,29.0
83.96,-8.713,4.579,50.0
0.0,0.0,0.0,0.0
108.532,-11.25,8.379,22.0
109.116,-11.282,7.823,28.0
109.375,-11.28,7.24,24.0
84.728,-8.716,5.134,21.0
83.26,-8.544,4.588,40.0
82.901,-8.487,4.113,42.0
108.563,-11.127,8.443,41.0
109.654,-11.209,7.923,21.0
109.347,-11.149,7.298,36.0
84.884,-8.633,5.189,33.0
0.0,0.0,0.0,0.0
82.592,-8.357,4.142,41.0
108.443,-10.986,8.489,43.0
109.7,-11.084,7.981,27.0
109.294,-11.013,7.349,37.0
84.629,-8.504,5.216,39.0
0.0,0.0,0.0,0.0
82.354,-8.233,4.169,29.0
108.459,-10.856,8.543,36.0
109.796,-10.959,8.041,18.0
109.332,-10.882,7.403,31.0
84.768,-8.414,5.263,39.0
83.533,-8.269,4.726,34.0
82.159,-8.112,4.196,32.0
112.284,-11.099,8.894,15.0
110.008,-10.842,8.106,24.0
109.451,-10.757,7.459,19.0
85.781,-8.407,5.363,17.0
83.482,-8.159,4.759,42.0
81.889,-7.982,4.216,36.0
112.119,-10.94,8.927,29.0
112.795,-10.974,8.356,16.0
109.635,-10.635,7.515,25.0
113.951,-11.021,7.169,11.0
83.532,-8.056,4.794,35.0
81.767,-7.865,4.241,34.0
112.05,-10.788,8.964,33.0
112.678,-10.815,8.389,19.0
109.923,-10.519,7.575,26.0
86.411,-8.244,5.467,13.0
83.42,-7.936,4.816,40.0
81.847,-7.763,4.273,26.0
111.996,-10.633,8.998,31.0
112.982,-10.693,8.45,22.0
113.397,-10.699,7.851,18.0
84.793,-7.976,5.392,21.0
83.385,-7.82,4.84,43.0
82.13,-7.679,4.313,28.0
112.385,-10.518,9.063,28.0
112.92,-10.535,8.478,22.0
113.66,-10.57,7.902,24.0
84.865,-7.868,5.419,39.0
83.261,-7.695,4.856,36.0
0.0,0.0,0.0,0.0
112.436,-10.369,9.097,13.0
112.937,-10.381,8.508,19.0
113.099,-10.363,7.89,24.0
84.23,-7.692,5.399,17.0
83.46,-7.597,4.887,33.0
83.496,-7.577,4.426,47.0
114.542,-10.403,9.293,10.0
112.475,-10.18,8.497,10.0
85.335,-7.698,5.971,7.0
84.469,-7.595,5.432,14.0
84.003,-7.529,4.934,30.0
83.383,-7.45,4.435,38.0
114.365,-10.224,9.299,20.0
112.454,-10.018,8.515,7.0
84.683,-7.519,5.939,10.0
84.663,-7.491,5.458,31.0
83.622,-7.374,4.926,26.0
83.218,-7.314,4.439,40.0
60.637,-5.333,4.939,4.0
121.145,-10.617,9.191,26.0
84.881,-7.412,5.965,15.0
84.58,-7.36,5.463,29.0
83.847,-7.272,4.948,18.0
83.15,-7.186,4.445,32.0
24.631,-2.13,2.008,0.0
121.178,-10.442,9.204,23.0
60.229,-5.171,4.238,4.0
86.056,-7.363,5.566,23.0
84.212,-7.18,4.977,12.0
83.355,-7.082,4.461,38.0
24.625,-2.093,2.009,3.0
60.552,-5.129,4.603,3.0
115.38,-9.736,8.125,12.0
86.437,-7.267,5.594,24.0
83.724,-7.014,4.95,20.0
83.828,-6.998,4.489,40.0
24.637,-2.057,2.011,3.0
60.549,-5.038,4.604,6.0
86.784,-7.194,6.111,5.0
85.801,-7.086,5.553,33.0
83.638,-6.882,4.945,39.0
83.378,-6.835,4.464,41.0
24.334,-1.995,1.986,5.0
54.179,-4.425,4.117,1.0
86.571,-7.044,6.094,9.0
85.837,-6.957,5.552,33.0
83.637,-6.753,4.941,32.0
83.191,-6.693,4.449,36.0
24.067,-1.936,1.963,10.0
115.534,-9.258,8.774,3.0
117.654,-9.392,8.273,21.0
85.653,-6.81,5.533,42.0
83.655,-6.626,4.935,33.0
83.206,-6.565,4.443,37.0
24.012,-1.894,1.956,16.0
115.058,-9.042,8.725,13.0
60.294,-4.719,4.233,6.0
0.0,0.0,0.0,0.0
83.822,-6.509,4.935,38.0
83.238,-6.438,4.433,38.0
24.012,-1.857,1.952,40.0
54.036,-4.162,4.089,21.0
117.588,-9.021,8.237,22.0
84.148,-6.429,5.412,25.0
83.818,-6.379,4.92,43.0
83.871,-6.358,4.452,41.0
24.094,-1.826,1.954,27.0
114.917,-8.672,8.676,20.0
117.753,-8.848,8.225,19.0
84.167,-6.298,5.396,25.0
84.346,-6.286,4.933,40.0
83.686,-6.211,4.424,34.0
24.166,-1.793,1.955,42.0
24.553,-1.814,1.848,1.0
117.882,-8.672,8.206,21.0
84.065,-6.158,5.369,26.0
84.358,-6.154,4.913,35.0
83.74,-6.084,4.405,32.0
24.193,-1.756,1.951,47.0
24.57,-1.776,1.842,24.0
118.341,-8.517,8.205,15.0
60.051,-4.303,3.818,15.0
84.482,-6.028,4.895,15.0
83.976,-5.966,4.393,39.0
24.204,-1.718,1.944,40.0
24.437,-1.727,1.824,20.0
24.515,-1.725,1.691,19.0
24.499,-1.716,1.549,14.0
24.485,-1.707,1.41,37.0
84.32,-5.855,4.382,10.0
24.257,-1.683,1.94,38.0
24.331,-1.68,1.807,42.0
24.474,-1.682,1.68,39.0
24.468,-1.674,1.538,55.0
24.464,-1.666,1.4,57.0
24.508,-1.662,1.264,40.0
24.284,-1.645,1.932,49.0
24.304,-1.639,1.796,35.0
24.423,-1.639,1.666,44.0
24.439,-1.633,1.526,67.0
24.45,-1.626,1.389,65.0
24.478,-1.621,1.252,64.0
24.299,-1.607,1.923,51.0
24.321,-1.601,1.786,40.0
24.391,-1.597,1.653,61.0
24.403,-1.591,1.513,42.0
24.434,-1.585,1.376,82.0
24.481,-1.581,1.24,86.0
24.307,-1.568,1.912,41.0
24.318,-1.561,1.774,39.0
24.391,-1.558,1.641,39.0
24.351,-1.548,1.498,28.0
24.431,-1.546,1.364,42.0
24.477,-1.541,1.228,87.0
24.328,-1.529,1.901,43.0
24.338,-1.522,1.763,43.0
24.393,-1.518,1.628,83.0
24.359,-1.509,1.485,28.0
24.427,-1.505,1.35,72.0
24.471,-1.5,1.214,83.0
24.343,-1.49,1.888,60.0
24.377,-1.485,1.752,40.0
24.391,-1.478,1.614,59.0
24.386,-1.47,1.473,46.0
24.43,-1.465,1.336,56.0
24.479,-1.461,1.2,38.0
24.374,-1.452,1.876,58.0
24.417,-1.448,1.74,61.0
24.407,-1.439,1.6,42.0
24.397,-1.431,1.458,59.0
24.473,-1.428,1.323,60.0
24.521,-1.423,1.186,43.0
24.425,-1.415,1.864,65.0
24.469,-1.41,1.727,53.0
24.425,-1.4,1.585,32.0
24.442,-1.394,1.444,56.0
24.559,-1.393,1.311,32.0
83.743,-4.725,3.996,21.0
24.477,-1.378,1.851,36.0
24.547,-1.374,1.716,30.0
24.467,-1.362,1.57,38.0
28.406,-1.573,1.658,38.0
28.419,-1.565,1.497,70.0
83.645,-4.584,3.932,32.0
24.536,-1.341,1.837,33.0
28.427,-1.545,1.966,72.0
28.415,-1.535,1.803,20.0
28.414,-1.527,1.638,69.0
28.42,-1.519,1.476,68.0
83.701,-4.448,3.87,38.0
28.432,-1.507,2.107,74.0
28.425,-1.497,1.943,71.0
28.412,-1.488,1.78,72.0
28.407,-1.48,1.614,68.0
28.406,-1.471,1.452,68.0
84.761,-4.366,3.851,48.0
28.423,-1.459,2.083,73.0
28.415,-1.45,1.919,68.0
28.412,-1.442,1.757,65.0
28.406,-1.433,1.591,69.0
28.406,-1.425,1.428,59.0
85.486,-4.263,3.811,39.0
28.418,-1.413,2.058,71.0
28.413,-1.404,1.895,66.0
28.397,-1.395,1.731,66.0
28.407,-1.387,1.566,75.0
28.411,-1.379,1.404,42.0
85.619,-4.131,3.741,22.0
46.69,-2.245,3.339,15.0
28.401,-1.357,1.868,7.0
28.395,-1.348,1.705,12.0
28.385,-1.34,1.538,21.0
28.375,-1.331,1.376,4.0
86.351,-4.026,3.694,9.0
46.582,-2.163,3.287,27.0
164.905,-7.612,10.691,25.0
161.205,-7.394,9.525,35.0
161.15,-7.346,8.583,27.0
164.343,-7.444,7.811,14.0
165.508,-7.449,6.918,10.0
46.628,-2.09,3.245,5.0
163.494,-7.284,10.438,22.0
161.347,-7.141,9.374,31.0
31.307,-1.376,1.636,24.0
31.384,-1.371,1.46,3.0
28.472,-1.236,1.161,50.0
31.132,-1.346,2.135,41.0
28.459,-1.222,1.787,47.0
28.438,-1.213,1.623,57.0
28.419,-1.204,1.455,53.0
28.417,-1.196,1.292,97.0
28.425,-1.188,1.13,105.0
28.425,-1.183,1.918,103.0
28.425,-1.175,1.755,107.0
28.413,-1.167,1.591,99.0
28.417,-1.159,1.425,69.0
28.437,-1.152,1.262,141.0
28.422,-1.143,1.098,98.0
28.429,-1.138,1.888,112.0
28.423,-1.13,1.723,77.0
28.427,-1.122,1.56,66.0
28.437,-1.114,1.394,59.0
28.445,-1.107,1.231,53.0
31.224,-1.207,1.172,30.0
31.203,-1.2,2.036,13.0
31.202,-1.191,1.856,41.0
31.212,-1.183,1.677,47.0
31.21,-1.174,1.494,46.0
31.269,-1.168,1.317,63.0
31.254,-1.159,1.137,57.0
31.205,-1.151,1.999,33.0
31.206,-1.143,1.82,31.0
31.212,-1.134,1.64,37.0
31.283,-1.129,1.46,61.0
31.279,-1.12,1.28,46.0
31.294,-1.113,1.101,33.0
31.239,-1.104,1.964,30.0
31.255,-1.096,1.784,53.0
31.268,-1.089,1.605,24.0
31.295,-1.081,1.423,44.0
38.677,-1.327,1.536,43.0
38.709,-1.318,1.315,18.0
28.404,-0.96,1.75,73.0
28.379,-0.952,1.585,62.0
31.343,-1.043,1.569,28.0
38.604,-1.275,1.706,66.0
38.675,-1.268,1.487,78.0
38.621,-1.256,1.263,57.0
28.388,-0.917,1.713,84.0
28.381,-0.909,1.548,76.0
38.475,-1.223,1.877,65.0
38.624,-1.218,1.657,81.0
38.653,-1.209,1.436,81.0
38.581,-1.197,1.211,56.0
28.388,-0.874,1.675,82.0
28.382,-0.867,1.511,73.0
38.515,-1.167,1.828,54.0
38.636,-1.161,1.607,97.0
38.614,-1.151,1.383,65.0
38.556,-1.14,1.159,66.0
28.387,-0.832,1.637,79.0
28.374,-0.825,1.472,59.0
38.609,-1.113,1.78,68.0
38.624,-1.104,1.553,68.0
38.592,-1.093,1.329,68.0
38.588,-1.084,1.107,74.0
28.379,-0.791,1.597,77.0
38.572,-1.065,1.947,36.0
38.634,-1.057,1.726,52.0
38.679,-1.049,1.501,35.0
38.625,-1.038,1.276,28.0
38.62,-1.028,1.052,62.0
28.382,-0.749,1.556,74.0
38.631,-1.011,1.894,42.0
45.815,-1.187,1.981,31.0
45.702,-1.173,1.707,54.0
38.705,-0.984,1.223,40.0
38.67,-0.974,0.998,40.0
28.38,-0.709,1.514,72.0
45.8,-1.133,2.179,8.0
40.437,-0.991,1.69,25.0
40.42,-0.981,1.451,27.0
38.743,-0.931,1.167,24.0
0.0,0.0,0.0,0.0
40.418,-0.953,2.097,7.0
40.406,-0.943,1.862,39.0
40.397,-0.934,1.628,38.0
40.392,-0.924,1.389,39.0
40.398,-0.915,1.156,40.0
40.435,-0.907,0.923,6.0
40.404,-0.897,2.035,32.0
40.406,-0.887,1.8,27.0
40.426,-0.879,1.567,27.0
40.432,-0.87,1.329,24.0
45.704,-0.973,1.238,10.0
38.413,-0.809,0.818,10.0
45.697,-0.952,2.23,26.0
45.718,-0.942,1.965,57.0
45.668,-0.931,1.699,56.0
45.755,-0.923,1.432,34.0
38.243,-0.763,0.975,2.0
38.239,-0.754,0.754,2.0
45.708,-0.891,2.158,68.0
45.792,-0.883,1.896,43.0
45.739,-0.872,1.629,36.0
64.309,-1.211,1.911,78.0
190.859,-3.556,4.566,19.0
191.703,-3.532,3.478,16.0
45.767,-0.832,2.087,43.0
59.282,-1.065,2.359,22.0
64.294,-1.141,2.185,83.0
64.315,-1.128,1.806,81.0
176.618,-3.062,3.938,40.0
176.649,-3.025,2.914,107.0
45.984,-0.776,2.02,24.0
59.247,-0.988,2.259,64.0
64.3,-1.058,2.078,37.0
64.307,-1.045,1.699,21.0
53.502,-0.859,1.103,68.0
20.133,-0.319,0.298,6.0
59.146,-0.924,2.499,75.0
59.276,-0.914,2.16,41.0
53.487,-0.814,1.639,67.0
59.434,-0.892,1.47,19.0
20.147,-0.298,0.381,8.0
20.12,-0.294,0.264,13.0
58.515,-0.842,2.373,150.0
53.557,-0.759,1.86,150.0
53.479,-0.747,1.546,98.0
20.151,-0.277,0.463,8.0
20.121,-0.273,0.346,13.0
20.124,-0.269,0.229,10.0
58.242,-0.767,2.26,255.0
53.507,-0.694,1.765,65.0
59.414,-0.759,1.615,16.0
20.132,-0.253,0.428,10.0
20.122,-0.249,0.311,10.0
20.161,-0.245,0.194,8.0
58.329,-0.699,2.161,162.0
53.493,-0.63,1.671,72.0
20.143,-0.233,0.512,11.0
20.14,-0.23,0.393,14.0
20.162,-0.226,0.276,9.0
64.336,-0.71,0.508,26.0
53.521,-0.58,1.888,137.0
53.455,-0.569,1.575,10.0
20.13,-0.21,0.476,14.0
20.166,-0.207,0.357,16.0
53.369,-0.539,0.636,8.0
53.377,-0.53,0.327,3.0
53.513,-0.52,1.792,91.0
20.158,-0.192,0.558,9.0
20.173,-0.189,0.441,24.0
64.354,-0.591,1.026,16.0
66.541,-0.599,0.673,8.0
66.502,-0.586,0.286,16.0
53.507,-0.461,1.694,114.0
20.159,-0.17,0.52,6.0
20.265,-0.167,0.405,25.0
20.219,-0.163,0.285,16.0
20.207,-0.16,0.167,14.0
20.167,-0.156,0.049,13.0
20.186,-0.152,0.601,13.0
20.179,-0.149,0.483,19.0
20.169,-0.145,0.366,17.0
20.141,-0.141,0.246,16.0
20.149,-0.138,0.129,15.0
20.148,-0.135,0.011,25.0
20.14,-0.131,0.562,18.0
20.119,-0.127,0.444,17.0
20.118,-0.124,0.327,19.0
20.104,-0.121,0.208,18.0
20.138,-0.118,0.091,33.0
20.135,-0.114,-0.025,29.0
20.135,-0.111,0.524,22.0
20.125,-0.107,0.406,27.0
20.123,-0.104,0.289,25.0
20.124,-0.101,0.17,25.0
20.135,-0.098,0.053,35.0
20.148,-0.095,-0.064,30.0
20.128,-0.091,0.485,27.0
20.113,-0.088,0.367,32.0
20.107,-0.085,0.25,25.0
20.105,-0.081,0.131,30.0
20.127,-0.079,0.014,36.0
20.144,-0.076,-0.103,31.0
20.121,-0.072,0.446,30.0
20.106,-0.069,0.328,29.0
20.125,-0.066,0.212,28.0
20.118,-0.063,0.092,39.0
20.123,-0.06,-0.024,34.0
20.15,-0.057,-0.142,33.0
20.119,-0.054,0.407,28.0
20.112,-0.051,0.29,28.0
20.121,-0.048,0.173,34.0
20.125,-0.045,0.053,39.0
20.14,-0.043,-0.063,29.0
20.164,-0.04,-0.181,24.0
20.125,-0.037,0.368,30.0
20.113,-0.034,0.25,27.0
20.119,-0.031,0.133,30.0
20.146,-0.028,0.014,26.0
20.178,-0.026,-0.103,25.0
20.177,-0.023,-0.221,2.0
20.124,-0.02,0.328,29.0
20.12,-0.017,0.21,28.0
20.126,-0.014,0.093,29.0
20.191,-0.012,-0.026,17.0
20.208,-0.009,-0.143,14.0
20.23,-0.006,-0.262,12.0
20.123,-0.004,0.288,28.0
20.122,-0.001,0.17,27.0
20.224,0.0,0.053,151.0
20.257,0.003,-0.066,151.0
20.259,0.006,-0.184,151.0
20.275,0.008,-0.303,150.0
20.127,0.011,0.247,28.0
20.125,0.013,0.13,27.0
20.255,0.016,0.013,152.0
20.26,0.018,-0.107,151.0
20.239,0.021,-0.225,151.0
20.266,0.023,-0.344,150.0
20.135,0.025,0.207,28.0
20.166,0.028,0.089,24.0
20.267,0.03,-0.028,29.0
20.246,0.033,-0.148,44.0
20.239,0.035,-0.266,15.0
20.228,0.038,-0.384,6.0
20.138,0.04,0.166,27.0
20.211,0.042,0.048,17.0
20.217,0.044,-0.069,19.0
20.207,0.047,-0.189,11.0
20.278,0.049,-0.308,0.0
37.888,0.096,-0.798,0.0
20.155,0.053,0.124,29.0
20.216,0.055,0.007,30.0
20.204,0.057,-0.11,24.0
20.217,0.06,-0.23,1.0
42.833,0.131,-0.739,0.0
0.0,0.0,0.0,0.0
20.199,0.066,0.083,32.0
20.208,0.068,-0.034,29.0
20.199,0.07,-0.152,27.0
20.213,0.072,-0.272,2.0
41.399,0.152,-0.8,0.0
33.142,0.125,-0.834,0.0
20.2,0.077,0.041,36.0
20.195,0.079,-0.076,29.0
20.182,0.081,-0.194,18.0
20.214,0.084,-0.314,2.0
0.0,0.0,0.0,0.0
0.0,0.0,0.0,0.0
20.19,0.089,0.0,29.0
20.183,0.09,-0.118,30.0
20.195,0.092,-0.236,23.0
20.208,0.094,-0.356,1.0
0.0,0.0,0.0,0.0
21.676,0.105,-0.635,5.0
20.186,0.099,-0.041,37.0
20.181,0.101,-0.159,29.0
20.208,0.103,-0.278,26.0
20.182,0.104,-0.397,0.0
32.878,0.173,-0.84,0.0
21.69,0.116,-0.681,88.0
20.188,0.108,-0.083,39.0
20.184,0.11,-0.201,26.0
20.191,0.112,-0.319,26.0
20.19,0.113,-0.439,0.0
21.654,0.123,-0.598,2.0
21.623,0.125,-0.723,165.0
20.186,0.117,-0.125,46.0
20.187,0.119,-0.243,28.0
20.2,0.12,-0.362,22.0
20.126,0.122,-0.48,0.0
21.701,0.133,-0.644,87.0
21.576,0.134,-0.767,167.0
20.182,0.125,-0.168,26.0
20.187,0.127,-0.285,29.0
20.183,0.128,-0.403,16.0
32.71,0.21,-0.849,0.0
21.674,0.141,-0.689,152.0
21.641,0.142,-0.814,150.0
20.176,0.133,-0.21,33.0
20.192,0.134,-0.328,29.0
20.196,0.135,-0.446,12.0
21.645,0.146,-0.607,2.0
21.581,0.147,-0.731,164.0
18.524,0.128,-0.736,155.0
20.177,0.139,-0.252,35.0
20.189,0.14,-0.37,27.0
20.183,0.142,-0.488,14.0
21.64,0.153,-0.652,17.0
21.625,0.154,-0.778,153.0
18.507,0.133,-0.774,160.0
20.178,0.145,-0.294,35.0
20.198,0.146,-0.412,23.0
20.192,0.147,-0.53,10.0
21.669,0.159,-0.698,152.0
18.572,0.137,-0.707,152.0
18.548,0.138,-0.815,151.0
20.182,0.15,-0.336,35.0
20.195,0.151,-0.455,26.0
20.218,0.152,-0.573,7.0
21.64,0.164,-0.742,155.0
18.514,0.141,-0.744,165.0
18.543,0.142,-0.853,55.0
20.194,0.154,-0.378,28.0
20.199,0.155,-0.497,25.0
20.836,0.161,-0.634,4.0
21.627,0.168,-0.787,0.0
18.507,0.145,-0.782,162.0
18.53,0.146,-0.892,56.0
20.196,0.158,-0.421,27.0
20.18,0.158,-0.538,18.0
21.682,0.171,-0.705,152.0
18.526,0.147,-0.713,155.0
18.561,0.148,-0.823,151.0
18.486,0.148,-0.928,11.0
20.19,0.16,-0.463,28.0
20.191,0.161,-0.581,14.0
21.659,0.173,-0.75,152.0
18.516,0.149,-0.751,174.0
18.548,0.15,-0.861,70.0
18.508,0.15,-0.967,4.0
20.204,0.162,-0.505,27.0
20.313,0.164,-0.626,9.0
18.573,0.15,-0.681,136.0
18.498,0.15,-0.789,160.0
18.539,0.151,-0.899,54.0
0.0,0.0,0.0,0.0
20.206,0.163,-0.547,21.0
0.0,0.0,0.0,0.0
18.51,0.151,-0.717,159.0
18.543,0.151,-0.829,150.0
18.486,0.151,-0.935,5.0
16.558,0.136,-0.934,0.0
20.194,0.164,-0.588,16.0
21.635,0.176,-0.756,52.0
18.515,0.151,-0.756,174.0
18.547,0.151,-0.868,70.0
18.508,0.151,-0.974,6.0
16.078,0.132,-0.94,0.0
0.0,0.0,0.0,0.0
18.577,0.151,-0.688,150.0
18.497,0.15,-0.793,158.0
18.514,0.15,-0.904,40.0
18.347,0.149,-1.004,4.0
15.506,0.126,-0.939,0.0
21.665,0.174,-0.72,152.0
18.507,0.149,-0.723,161.0
18.546,0.149,-0.833,74.0
18.463,0.149,-0.939,2.0
16.46,0.133,-0.934,0.0
15.02,0.121,-0.94,0.0
21.647,0.172,-0.763,69.0
18.51,0.147,-0.761,169.0
18.542,0.147,-0.87,150.0
18.496,0.147,-0.978,6.0
15.966,0.127,-0.938,0.0
14.606,0.116,-0.944,0.0
18.582,0.145,-0.693,151.0
18.502,0.144,-0.798,155.0
18.511,0.144,-0.907,38.0
0.0,0.0,0.0,0.0
15.404,0.12,-0.936,0.0
18.543,0.144,-1.236,0.0
18.518,0.141,-0.727,161.0
18.555,0.142,-0.837,64.0
18.455,0.141,-0.941,2.0
16.428,0.125,-0.935,0.0
14.956,0.114,-0.939,0.0
18.543,0.141,-1.273,0.0
18.518,0.138,-0.764,162.0
18.556,0.138,-0.874,69.0
18.52,0.137,-0.981,4.0
15.904,0.118,-0.937,0.0
14.569,0.107,-0.943,0.0
13.402,0.099,-0.947,0.0
18.554,0.134,-0.802,152.0
18.512,0.133,-0.908,33.0
0.0,0.0,0.0,0.0
15.42,0.11,-0.939,0.0
18.539,0.132,-1.237,0.0
13.105,0.093,-0.951,0.0
18.553,0.128,-0.838,29.0
18.45,0.127,-0.941,1.0
16.449,0.113,-0.935,0.0
14.949,0.102,-0.939,0.0
20.172,0.138,-1.385,0.0
12.687,0.086,-0.946,0.0
18.547,0.123,-0.874,29.0
18.501,0.122,-0.979,2.0
15.833,0.104,-0.931,0.0
14.575,0.095,-0.944,0.0
13.399,0.087,-0.946,0.0
12.383,0.08,-0.947,0.0
18.506,0.116,-0.907,34.0
16.836,0.105,-0.924,0.0
15.404,0.095,-0.935,0.0
14.307,0.088,-0.954,0.0
13.103,0.08,-0.95,0.0
12.095,0.073,-0.948,0.0
18.444,0.109,-0.939,1.0
16.395,0.096,-0.93,0.0
14.974,0.087,-0.937,0.0
20.197,0.116,-1.384,0.0
12.715,0.073,-0.946,0.0
11.727,0.066,-0.941,0.0
18.359,0.1,-0.969,0.0
15.914,0.086,-0.933,1.0
14.603,0.078,-0.942,0.0
13.407,0.071,-0.944,0.0
12.388,0.065,-0.945,0.0
11.458,0.06,-0.941,0.0
16.881,0.085,-0.922,0.0
15.466,0.077,-0.935,0.0
14.347,0.07,-0.952,0.0
13.108,0.064,-0.947,0.0
12.129,0.058,-0.948,0.0
11.314,0.054,-0.95,0.0
16.432,0.074,-0.928,0.0
15.048,0.067,-0.938,0.0
13.905,0.061,-0.948,0.0
12.722,0.055,-0.943,0.0
11.757,0.05,-0.94,0.0
20.185,0.086,-1.733,0.0
16.028,0.064,-0.934,0.0
14.692,0.058,-0.942,0.0
13.426,0.052,-0.94,0.0
12.46,0.047,-0.946,0.0
11.54,0.043,-0.944,0.0
10.761,0.04,-0.943,0.0
15.558,0.054,-0.935,0.0
14.351,0.049,-0.946,0.0
13.204,0.044,-0.948,0.0
12.16,0.039,-0.945,0.0
11.331,0.036,-0.947,0.0
10.579,0.033,-0.946,0.0
15.109,0.043,-0.935,0.0
13.935,0.039,-0.943,0.0
12.811,0.035,-0.942,0.0
11.882,0.031,-0.944,0.0
11.164,0.029,-0.952,0.0
10.368,0.026,-0.945,0.0
14.762,0.033,-0.939,0.0
20.278,0.044,-1.408,0.0
12.59,0.026,-0.947,0.0
11.562,0.023,-0.939,0.0
10.833,0.021,-0.943,0.0
10.198,0.019,-0.948,0.0
20.268,0.033,-1.324,0.0
13.257,0.02,-0.943,0.0
12.278,0.018,-0.945,0.0
11.361,0.015,-0.942,0.0
10.683,0.014,-0.948,0.0
9.984,0.012,-0.945,0.0
20.234,0.019,-1.355,1.0
12.999,0.011,-0.946,0.0
12.024,0.009,-0.946,0.0
11.199,0.007,-0.947,0.0
10.485,0.006,-0.948,0.0
9.838,0.005,-0.947,0.0
12.714,0.002,-0.946,0.0
11.7,0.0,-0.939,0.0
10.282,-0.001,-0.947,0.0
9.66,-0.002,-0.946,0.0
12.436,-0.007,-0.946,0.0
11.563,-0.007,-0.947,0.0
10.736,-0.008,-0.943,0.0
10.082,-0.008,-0.945,0.0
9.502,-0.009,-0.946,0.0
13.168,-0.016,-0.946,0.0
12.149,-0.016,-0.943,0.0
11.249,-0.016,-0.939,0.0
10.551,-0.016,-0.944,0.0
9.933,-0.016,-0.946,0.0
9.33,-0.016,-0.943,0.0
12.846,-0.025,-0.943,0.0
11.992,-0.025,-0.95,0.0
11.044,-0.024,-0.939,0.0
10.407,-0.024,-0.947,0.0
9.757,-0.023,-0.944,0.0
9.183,-0.023,-0.943,0.0
12.614,-0.035,-0.945,0.0
11.659,-0.034,-0.941,0.0
10.946,-0.033,-0.947,0.0
10.234,-0.032,-0.946,0.0
9.613,-0.031,-0.945,0.0
9.038,-0.03,-0.942,0.0
12.347,-0.045,-0.943,0.0
11.444,-0.043,-0.941,0.0
10.741,-0.041,-0.945,0.0
10.032,-0.04,-0.942,0.0
9.48,-0.039,-0.946,0.0
8.917,-0.038,-0.942,0.0
12.152,-0.055,-0.946,0.0
11.255,-0.052,-0.942,0.0
10.519,-0.05,-0.941,0.0
9.925,-0.048,-0.947,0.0
9.335,-0.046,-0.945,0.0
8.774,-0.045,-0.94,0.0
11.893,-0.064,-0.943,0.0
11.072,-0.061,-0.942,0.0
10.386,-0.059,-0.944,0.0
9.735,-0.056,-0.942,0.0
9.191,-0.054,-0.943,0.0
8.668,-0.052,-0.941,0.0
11.686,-0.074,-0.943,0.0
10.955,-0.07,-0.947,0.0
10.201,-0.067,-0.941,0.0
9.6,-0.064,-0.943,0.0
9.06,-0.062,-0.943,0.0
8.554,-0.06,-0.94,0.0
11.428,-0.083,-0.937,0.0
10.779,-0.08,-0.947,0.0
10.097,-0.076,-0.946,0.0
9.456,-0.072,-0.942,0.0
8.923,-0.07,-0.94,0.0
8.428,-0.067,-0.938,0.0
11.319,-0.093,-0.943,0.0
10.591,-0.088,-0.944,0.0
9.949,-0.085,-0.945,0.0
9.341,-0.081,-0.942,0.0
8.806,-0.077,-0.94,0.0
8.347,-0.074,-0.94,0.0
11.167,-0.103,-0.945,0.0
10.451,-0.098,-0.945,0.0
9.795,-0.093,-0.943,0.0
9.207,-0.089,-0.94,0.0
8.701,-0.085,-0.94,0.0
8.269,-0.082,-0.941,0.0
10.302,-0.107,-0.944,0.0
9.66,-0.101,-0.942,0.0
9.064,-0.096,-0.937,0.0
8.61,-0.093,-0.94,0.0
8.154,-0.089,-0.938,0.0
10.848,-0.122,-0.945,0.0
10.172,-0.116,-0.945,0.0
9.544,-0.11,-0.942,0.0
8.992,-0.105,-0.94,0.0
8.509,-0.101,-0.94,0.0
8.096,-0.097,-0.941,0.0
10.658,-0.131,-0.941,0.0
10.04,-0.125,-0.944,0.0
9.41,-0.119,-0.94,0.0
8.885,-0.113,-0.94,0.0
8.408,-0.109,-0.938,0.0
8.018,-0.105,-0.941,0.0
10.564,-0.141,-0.944,0.0
9.904,-0.134,-0.943,0.0
9.34,-0.128,-0.943,0.0
8.762,-0.121,-0.936,0.0
8.36,-0.117,-0.942,0.0
7.939,-0.112,-0.941,0.0
10.449,-0.151,-0.945,0.0
9.811,-0.143,-0.944,0.0
9.209,-0.136,-0.94,0.0
8.7,-0.13,-0.939,0.0
8.271,-0.125,-0.941,0.0
7.899,-0.12,-0.944,0.0
10.314,-0.16,-0.944,0.0
9.679,-0.152,-0.942,0.0
9.085,-0.144,-0.936,0.0
8.589,-0.138,-0.936,0.0
8.186,-0.133,-0.94,0.0
7.806,-0.128,-0.941,0.0
10.222,-0.17,-0.946,0.0
9.589,-0.161,-0.942,0.0
9.011,-0.153,-0.938,0.0
8.53,-0.146,-0.938,0.0
8.108,-0.14,-0.938,0.0
7.726,-0.135,-0.939,0.0
10.115,-0.179,-0.946,0.0
9.483,-0.17,-0.941,0.0
8.974,-0.162,-0.942,0.0
8.458,-0.155,-0.938,0.0
8.064,-0.149,-0.941,0.0
7.67,-0.143,-0.94,0.0
10.017,-0.189,-0.946,0.0
9.405,-0.179,-0.942,0.0
8.85,-0.17,-0.937,0.0
8.406,-0.163,-0.94,0.0
7.988,-0.157,-0.939,0.0
7.654,-0.151,-0.944,0.0
9.918,-0.199,-0.945,0.0
9.314,-0.188,-0.941,0.0
8.773,-0.179,-0.937,0.0
8.321,-0.171,-0.937,0.0
7.946,-0.165,-0.941,0.0
7.599,-0.159,-0.944,0.0
9.821,-0.208,-0.944,0.0
9.27,-0.198,-0.944,0.0
8.718,-0.188,-0.938,0.0
8.263,-0.18,-0.938,0.0
7.908,-0.174,-0.943,0.0
7.575,-0.168,-0.947,0.0
9.699,-0.217,-0.94,0.0
9.17,-0.207,-0.941,0.0
8.655,-0.197,-0.938,0.0
8.19,-0.188,-0.936,0.0
7.818,-0.181,-0.939,0.0
7.5,-0.175,-0.944,0.0
9.672,-0.228,-0.945,0.0
9.107,-0.216,-0.942,0.0
8.604,-0.206,-0.939,0.0
8.14,-0.196,-0.936,0.0
7.768,-0.189,-0.938,0.0
7.448,-0.183,-0.943,0.0
9.573,-0.237,-0.942,0.0
9.044,-0.225,-0.941,0.0
8.563,-0.215,-0.941,0.0
8.105,-0.205,-0.938,0.0
7.733,-0.197,-0.939,0.0
7.422,-0.191,-0.944,0.0
9.508,-0.247,-0.942,0.0
8.943,-0.234,-0.937,0.0
8.48,-0.223,-0.937,0.0
8.041,-0.213,-0.935,0.0
7.711,-0.206,-0.942,0.0
7.398,-0.199,-0.946,0.0
9.464,-0.257,-0.943,0.0
8.907,-0.244,-0.938,0.0
8.428,-0.232,-0.936,0.0
8.016,-0.222,-0.937,0.0
7.685,-0.215,-0.943,0.0
7.345,-0.207,-0.944,0.0
9.426,-0.267,-0.945,0.0
8.839,-0.253,-0.936,0.0
8.394,-0.242,-0.937,0.0
7.983,-0.231,-0.938,0.0
7.643,-0.223,-0.942,0.0
7.319,-0.215,-0.944,0.0
9.373,-0.277,-0.944,0.0
8.814,-0.263,-0.938,0.0
8.357,-0.251,-0.937,0.0
7.952,-0.24,-0.938,0.0
7.652,-0.233,-0.947,0.0
7.282,-0.223,-0.943,0.0
9.326,-0.287,-0.944,0.0
8.769,-0.272,-0.938,0.0
8.339,-0.26,-0.939,0.0
7.922,-0.249,-0.938,0.0
7.574,-0.24,-0.941,0.0
7.288,-0.232,-0.947,0.0
9.284,-0.297,-0.944,0.0
8.758,-0.282,-0.94,0.0
8.316,-0.27,-0.94,0.0
7.89,-0.258,-0.938,0.0
7.573,-0.249,-0.944,0.0
7.237,-0.239,-0.943,0.0
9.264,-0.308,-0.945,0.0
8.71,-0.291,-0.938,0.0
8.272,-0.278,-0.938,0.0
7.859,-0.266,-0.937,0.0
7.546,-0.257,-0.943,0.0
7.235,-0.248,-0.946,0.0
9.219,-0.317,-0.944,0.0
8.69,-0.301,-0.939,0.0
8.202,-0.286,-0.933,0.0
7.846,-0.275,-0.938,0.0
7.519,-0.265,-0.942,0.0
7.234,-0.257,-0.948,0.0
9.197,-0.328,-0.944,0.0
8.664,-0.311,-0.939,0.0
8.193,-0.296,-0.934,0.0
7.83,-0.284,-0.938,0.0
7.481,-0.273,-0.939,0.0
7.214,-0.265,-0.947,0.0
9.172,-0.338,-0.944,0.0
8.67,-0.321,-0.942,0.0
8.186,-0.305,-0.936,0.0
7.828,-0.294,-0.94,0.0
7.508,-0.283,-0.944,0.0
7.198,-0.273,-0.946,0.0
9.137,-0.348,-0.943,0.0
8.612,-0.33,-0.937,0.0
8.174,-0.315,-0.936,0.0
7.804,-0.302,-0.939,0.0
7.5,-0.292,-0.945,0.0
7.202,-0.282,-0.948,0.0
9.131,-0.358,-0.943,0.0
8.625,-0.341,-0.94,0.0
8.172,-0.325,-0.937,0.0
7.788,-0.311,-0.938,0.0
7.46,-0.3,-0.941,0.0
7.191,-0.291,-0.948,0.0
9.097,-0.368,-0.941,0.0
8.601,-0.35,-0.938,0.0
8.183,-0.335,-0.939,0.0
7.806,-0.321,-0.941,0.0
7.472,-0.309,-0.943,0.0
7.198,-0.299,-0.949,0.0
9.117,-0.38,-0.944,0.0
8.607,-0.361,-0.939,0.0
8.178,-0.344,-0.939,0.0
7.793,-0.33,-0.939,0.0
7.463,-0.318,-0.942,0.0
7.172,-0.307,-0.946,0.0
9.108,-0.39,-0.943,0.0
8.611,-0.371,-0.94,0.0
8.178,-0.354,-0.939,0.0
7.77,-0.338,-0.937,0.0
7.467,-0.327,-0.942,0.0
7.188,-0.316,-0.948,0.0
9.143,-0.403,-0.946,0.0
8.626,-0.382,-0.941,0.0
8.173,-0.364,-0.938,0.0
7.803,-0.349,-0.94,0.0
7.505,-0.337,-0.947,0.0
7.17,-0.324,-0.945,0.0
9.153,-0.414,-0.947,0.0
8.636,-0.392,-0.942,0.0
8.195,-0.374,-0.94,0.0
7.796,-0.358,-0.939,0.0
7.495,-0.346,-0.945,0.0
7.198,-0.334,-0.948,0.0
9.142,-0.424,-0.945,0.0
8.644,-0.403,-0.942,0.0
8.186,-0.383,-0.938,0.0
7.814,-0.368,-0.94,0.0
7.495,-0.354,-0.944,0.0
7.202,-0.342,-0.948,0.0
9.158,-0.435,-0.945,0.0
8.668,-0.414,-0.943,0.0
8.217,-0.394,-0.94,0.0
7.841,-0.378,-0.942,0.0
7.507,-0.364,-0.944,0.0
7.208,-0.351,-0.947,0.0
9.173,-0.447,-0.945,0.0
8.683,-0.424,-0.943,0.0
8.231,-0.404,-0.94,0.0
7.857,-0.388,-0.942,0.0
7.52,-0.373,-0.944,0.0
7.227,-0.36,-0.948,0.0
9.208,-0.459,-0.946,0.0
8.717,-0.436,-0.944,0.0
8.241,-0.414,-0.939,0.0
7.878,-0.398,-0.942,0.0
7.544,-0.382,-0.945,0.0
7.257,-0.369,-0.95,0.0
9.262,-0.471,-0.949,0.0
8.75,-0.447,-0.945,0.0
8.281,-0.425,-0.941,0.0
7.887,-0.407,-0.941,0.0
7.551,-0.391,-0.943,0.0
7.246,-0.377,-0.946,0.0
9.303,-0.484,-0.95,0.0
8.766,-0.458,-0.944,0.0
8.351,-0.438,-0.946,0.0
7.91,-0.416,-0.941,0.0
7.578,-0.401,-0.944,0.0
7.263,-0.386,-0.945,0.0
9.334,-0.495,-0.95,0.0
8.784,-0.468,-0.943,0.0
8.346,-0.446,-0.942,0.0
7.94,-0.426,-0.941,0.0
7.589,-0.409,-0.942,0.0
7.303,-0.396,-0.947,0.0
9.357,-0.506,-0.948,0.0
8.864,-0.482,-0.947,0.0
8.386,-0.457,-0.943,0.0
7.954,-0.436,-0.939,0.0
7.628,-0.419,-0.943,0.0
7.295,-0.403,-0.943,0.0
9.43,-0.52,-0.951,0.0
8.886,-0.492,-0.946,0.0
8.419,-0.468,-0.943,0.0
8.02,-0.447,-0.943,0.0
7.658,-0.429,-0.943,0.0
7.331,-0.412,-0.944,0.0
9.49,-0.533,-0.953,0.0
8.93,-0.503,-0.946,0.0
8.467,-0.479,-0.944,0.0
8.023,-0.456,-0.939,0.0
7.703,-0.439,-0.945,0.0
7.367,-0.422,-0.945,0.0
9.561,-0.547,-0.955,0.0
8.983,-0.515,-0.946,0.0
8.503,-0.49,-0.943,0.0
8.088,-0.467,-0.942,0.0
7.748,-0.449,-0.946,0.0
7.408,-0.431,-0.945,0.0
9.609,-0.559,-0.954,0.0
9.053,-0.528,-0.948,0.0
8.553,-0.501,-0.943,0.0
8.112,-0.477,-0.94,0.0
7.794,-0.459,-0.947,0.0
7.441,-0.44,-0.945,0.0
9.66,-0.571,-0.953,0.0
9.124,-0.541,-0.95,0.0
8.611,-0.512,-0.944,0.0
8.161,-0.487,-0.941,0.0
7.824,-0.469,-0.945,0.0
7.477,-0.449,-0.945,0.0
9.712,-0.583,-0.952,0.0
9.179,-0.553,-0.95,0.0
8.685,-0.525,-0.946,0.0
8.208,-0.497,-0.94,0.0
7.85,-0.477,-0.943,0.0
7.516,-0.459,-0.944,0.0
9.812,-0.598,-0.954,0.0
9.234,-0.564,-0.949,0.0
8.749,-0.536,-0.947,0.0
8.267,-0.508,-0.941,0.0
7.914,-0.488,-0.945,0.0
7.564,-0.468,-0.945,0.0
9.878,-0.61,-0.953,0.0
9.331,-0.578,-0.952,0.0
8.789,-0.546,-0.945,0.0
8.34,-0.52,-0.943,0.0
7.982,-0.499,-0.947,0.0
7.614,-0.478,-0.945,0.0
9.977,-0.625,-0.955,0.0
9.443,-0.593,-0.956,0.0
8.876,-0.559,-0.947,0.0
8.383,-0.53,-0.941,0.0
8.002,-0.507,-0.942,0.0
7.685,-0.489,-0.947,0.0
10.068,-0.639,-0.956,0.0
9.514,-0.606,-0.955,0.0
8.967,-0.572,-0.949,0.0
8.496,-0.544,-0.947,0.0
8.04,-0.516,-0.94,0.0
7.731,-0.498,-0.946,0.0
10.156,-0.653,-0.955,0.0
9.596,-0.618,-0.955,0.0
9.064,-0.586,-0.952,0.0
8.57,-0.555,-0.947,0.0
8.115,-0.527,-0.942,0.0
7.787,-0.507,-0.946,0.0
10.23,-0.665,-0.953,0.0
9.723,-0.634,-0.959,0.0
9.124,-0.596,-0.95,0.0
8.645,-0.567,-0.948,0.0
8.19,-0.538,-0.943,0.0
7.847,-0.517,-0.946,0.0
10.371,-0.682,-0.957,0.0
9.801,-0.646,-0.958,0.0
9.22,-0.609,-0.951,0.0
8.728,-0.578,-0.949,0.0
8.261,-0.549,-0.943,0.0
7.917,-0.528,-0.947,0.0
10.458,-0.695,-0.955,0.0
9.914,-0.661,-0.959,0.0
9.316,-0.622,-0.952,0.0
8.806,-0.59,-0.948,0.0
8.373,-0.562,-0.947,0.0
7.953,-0.535,-0.943,0.0
10.583,-0.711,-0.956,0.0
9.999,-0.673,-0.957,0.0
9.443,-0.637,-0.955,0.0
8.897,-0.602,-0.949,0.0
8.467,-0.574,-0.949,0.0
8.032,-0.546,-0.944,0.0
10.688,-0.725,-0.954,0.0
10.105,-0.687,-0.957,0.0
9.548,-0.65,-0.956,0.0
9.011,-0.615,-0.952,0.0
8.548,-0.585,-0.949,0.0
8.117,-0.557,-0.946,0.0
10.797,-0.739,-0.953,0.0
10.23,-0.701,-0.958,0.0
9.667,-0.664,-0.958,0.0
9.1,-0.626,-0.952,0.0
8.613,-0.594,-0.947,0.0
8.18,-0.566,-0.944,0.0
10.961,-0.756,-0.955,0.0
10.324,-0.714,-0.955,0.0
9.776,-0.677,-0.957,0.0
9.241,-0.641,-0.956,0.0
8.747,-0.608,-0.952,0.0
8.276,-0.577,-0.946,0.0
11.106,-0.772,-0.956,0.0
10.513,-0.732,-0.961,0.0
9.921,-0.692,-0.961,0.0
9.354,-0.654,-0.957,0.0
8.847,-0.62,-0.953,0.0
8.372,-0.588,-0.947,0.0
11.307,-0.792,-0.96,0.0
10.631,-0.746,-0.96,0.0
10.035,-0.705,-0.96,0.0
9.458,-0.666,-0.957,0.0
8.93,-0.63,-0.951,0.0
8.486,-0.6,-0.95,0.0
11.478,-0.809,-0.961,0.0
10.695,-0.755,-0.953,0.0
10.135,-0.717,-0.957,0.0
9.615,-0.681,-0.961,0.0
9.087,-0.645,-0.957,0.0
8.601,-0.612,-0.952,0.0
11.632,-0.825,-0.96,0.0
10.894,-0.774,-0.957,0.0
10.27,-0.731,-0.958,0.0
9.729,-0.693,-0.961,0.0
9.198,-0.657,-0.958,0.0
8.703,-0.622,-0.953,0.0
11.808,-0.842,-0.96,0.0
11.067,-0.791,-0.959,0.0
10.465,-0.749,-0.963,0.0
9.885,-0.708,-0.963,0.0
9.305,-0.668,-0.957,0.0
8.807,-0.633,-0.953,0.0
12.045,-0.864,-0.964,0.0
11.249,-0.808,-0.96,0.0
10.573,-0.76,-0.959,0.0
9.994,-0.72,-0.961,0.0
9.433,-0.68,-0.958,0.0
8.906,-0.643,-0.952,0.0
12.258,-0.883,-0.965,0.0
11.443,-0.825,-0.962,0.0
10.736,-0.775,-0.96,0.0
10.101,-0.73,-0.958,0.0
9.572,-0.693,-0.96,0.0
9.049,-0.656,-0.956,0.0
12.559,-0.908,-0.973,0.0
11.619,-0.841,-0.962,0.0
10.909,-0.791,-0.961,0.0
10.281,-0.746,-0.962,0.0
9.745,-0.708,-0.964,0.0
9.184,-0.668,-0.958,0.0
12.763,-0.926,-0.971,0.0
11.842,-0.86,-0.964,0.0
11.066,-0.805,-0.96,0.0
10.407,-0.758,-0.96,0.0
9.892,-0.721,-0.965,0.0
9.34,-0.682,-0.961,0.0
12.948,-0.942,-0.968,0.0
12.02,-0.876,-0.963,0.0
11.237,-0.819,-0.96,0.0
10.549,-0.77,-0.958,0.0
10.018,-0.732,-0.964,0.0
9.464,-0.692,-0.961,0.0
13.102,-0.956,-0.962,0.0
12.344,-0.901,-0.972,0.0
11.477,-0.839,-0.964,0.0
10.663,-0.78,-0.954,0.0
10.136,-0.742,-0.961,0.0
9.648,-0.707,-0.966,0.0
14.092,-1.03,-1.015,0.0
12.504,-0.914,-0.967,0.0
11.68,-0.855,-0.965,0.0
10.978,-0.804,-0.967,0.0
10.291,-0.754,-0.961,0.0
9.756,-0.716,-0.963,0.0
13.867,-1.015,-0.979,0.0
12.782,-0.936,-0.97,0.0
11.913,-0.873,-0.967,0.0
11.03,-0.809,-0.955,0.0
10.46,-0.768,-0.961,0.0
9.912,-0.728,-0.964,0.0
14.186,-1.039,-0.981,0.0
12.99,-0.952,-0.967,0.0
12.171,-0.892,-0.97,0.0
11.32,-0.83,-0.964,0.0
10.646,-0.781,-0.963,0.0
10.075,-0.74,-0.965,0.0
14.367,-1.052,-0.973,0.0
13.824,-1.013,-1.009,0.0
12.416,-0.91,-0.972,0.0
11.526,-0.845,-0.965,0.0
10.789,-0.792,-0.96,0.0
10.212,-0.75,-0.963,0.0
14.386,-1.053,-0.953,1.0
13.789,-1.01,-0.986,0.0
12.64,-0.926,-0.971,0.0
11.734,-0.86,-0.964,0.0
11.005,-0.807,-0.963,0.0
10.39,-0.762,-0.964,0.0
14.397,-1.053,-0.932,1.0
14.028,-1.026,-0.982,0.0
12.922,-0.945,-0.973,0.0
12.022,-0.88,-0.97,0.0
11.233,-0.822,-0.966,0.0
10.571,-0.774,-0.965,0.0
14.404,-1.052,-0.911,1.0
14.348,-1.048,-0.983,0.0
13.063,-0.954,-0.964,0.0
12.219,-0.892,-0.967,0.0
11.475,-0.838,-0.969,0.0
10.721,-0.783,-0.962,0.0
14.417,-1.05,-0.889,1.0
14.412,-1.05,-0.965,1.0
13.98,-1.019,-1.01,0.0
12.545,-0.914,-0.974,0.0
11.669,-0.85,-0.967,0.0
10.955,-0.798,-0.966,0.0
14.426,-1.048,-0.868,1.0
14.392,-1.046,-0.942,1.0
13.887,-1.009,-0.982,0.0
12.816,-0.931,-0.975,0.0
11.905,-0.865,-0.968,0.0
11.113,-0.807,-0.963,0.0
14.576,-1.056,-0.854,1.0
14.421,-1.044,-0.921,1.0
14.236,-1.03,-0.984,0.0
13.011,-0.942,-0.969,0.0
12.205,-0.883,-0.974,0.0
11.347,-0.821,-0.965,0.0
14.868,-1.073,-0.848,0.0
14.429,-1.041,-0.899,1.0
14.426,-1.04,-0.975,1.0
14.321,-1.032,-1.045,0.0
12.44,-0.896,-0.973,0.0
11.593,-0.835,-0.968,0.0
15.189,-1.091,-0.843,1.0
14.464,-1.038,-0.879,1.0
14.431,-1.035,-0.953,1.0
13.787,-0.989,-0.984,0.0
12.705,-0.911,-0.974,0.0
11.802,-0.845,-0.967,0.0
15.392,-1.1,-0.83,1.0
14.515,-1.036,-0.859,1.0
14.452,-1.031,-0.931,1.0
14.031,-1.0,-0.979,0.0
12.952,-0.923,-0.972,0.0
12.055,-0.859,-0.969,0.0
15.709,-1.116,-0.823,1.0
14.797,-1.05,-0.853,0.0
14.463,-1.026,-0.909,1.0
14.412,-1.021,-0.983,0.0
13.257,-0.939,-0.974,0.0
12.434,-0.88,-0.979,0.0
16.024,-1.131,-0.814,1.0
15.14,-1.067,-0.848,1.0
14.497,-1.021,-0.888,1.0
14.48,-1.019,-0.965,1.0
13.951,-0.981,-1.003,0.0
12.6,-0.885,-0.972,0.0
16.416,-1.15,-0.808,1.0
15.366,-1.076,-0.837,1.0
14.53,-1.016,-0.867,1.0
14.515,-1.014,-0.944,1.0
13.899,-0.97,-0.977,0.0
12.885,-0.898,-0.973,0.0
16.828,-1.17,-0.801,1.0
15.641,-1.086,-0.826,1.0
14.723,-1.021,-0.855,0.0
14.527,-1.006,-0.922,1.0
14.314,-0.991,-0.983,0.0
13.174,-0.911,-0.974,0.0
17.323,-1.194,-0.797,1.0
15.928,-1.097,-0.816,1.0
15.074,-1.037,-0.851,0.0
14.559,-1.0,-0.9,1.0
14.534,-0.997,-0.975,1.0
14.432,-0.989,-1.044,0.0
18.029,-1.232,-0.801,2.0
16.301,-1.112,-0.809,1.0
15.389,-1.048,-0.845,1.0
14.573,-0.991,-0.878,1.0
14.573,-0.99,-0.954,1.0
13.953,-0.946,-0.987,0.0
18.481,-1.25,-0.792,1.0
16.786,-1.134,-0.807,1.0
15.61,-1.053,-0.832,0.0
14.66,-0.987,-0.86,0.0
14.6,-0.981,-0.933,1.0
14.179,-0.952,-0.98,0.0
19.073,-1.277,-0.787,0.0
17.191,-1.149,-0.799,0.0
15.901,-1.061,-0.822,0.0
15.003,-0.999,-0.856,0.0
14.637,-0.973,-0.912,1.0
14.608,-0.969,-0.987,0.0
19.697,-1.304,-0.781,0.0
17.884,-1.182,-0.803,0.0
16.235,-1.07,-0.814,1.0
15.279,-1.005,-0.847,1.0
14.657,-0.963,-0.89,1.0
14.658,-0.961,-0.966,1.0
20.458,-1.338,-0.778,1.0
18.365,-1.198,-0.795,2.0
16.668,-1.086,-0.809,1.0
15.531,-1.009,-0.836,1.0
14.718,-0.955,-0.87,1.0
14.687,-0.951,-0.945,1.0
20.951,-1.353,-0.764,0.0
18.968,-1.222,-0.791,0.0
17.173,-1.104,-0.806,1.0
15.816,-1.014,-0.827,1.0
14.943,-0.956,-0.859,0.0
14.737,-0.941,-0.925,1.0
21.89,-1.394,-0.764,0.0
19.632,-1.247,-0.788,0.0
17.703,-1.122,-0.803,0.0
16.142,-1.021,-0.818,1.0
15.231,-0.961,-0.852,0.0
14.743,-0.928,-0.902,1.0
23.062,-1.448,-0.769,1.0
20.292,-1.27,-0.783,0.0
18.313,-1.144,-0.802,2.0
16.542,-1.03,-0.813,0.0
15.506,-0.963,-0.843,1.0
14.807,-0.918,-0.883,1.0
23.763,-1.469,-0.755,11.0
21.08,-1.299,-0.78,3.0
18.777,-1.154,-0.793,0.0
17.02,-1.044,-0.81,0.0
15.768,-0.964,-0.833,1.0
14.901,-0.909,-0.865,0.0
23.938,-1.456,-0.724,16.0
21.697,-1.316,-0.769,1.0
19.43,-1.175,-0.79,0.0
17.537,-1.057,-0.807,1.0
16.125,-0.969,-0.827,1.0
15.257,-0.915,-0.862,1.0
24.259,-1.45,-0.696,17.0
22.653,-1.35,-0.768,1.0
20.23,-1.202,-0.792,2.0
18.145,-1.075,-0.807,0.0
16.333,-0.964,-0.812,1.0
15.446,-0.909,-0.849,1.0
24.379,-1.431,-0.662,26.0
23.536,-1.377,-0.762,8.0
20.73,-1.209,-0.78,2.0
18.599,-1.081,-0.799,0.0
16.822,-0.974,-0.811,0.0
15.685,-0.906,-0.838,1.0
24.426,-1.406,-0.626,28.0
23.849,-1.368,-0.736,14.0
21.497,-1.229,-0.776,1.0
19.337,-1.102,-0.801,1.0
17.393,-0.988,-0.812,0.0
15.977,-0.904,-0.829,0.0
24.483,-1.382,-0.59,33.0
24.138,-1.357,-0.708,17.0
22.319,-1.25,-0.772,1.0
19.94,-1.113,-0.796,1.0
17.849,-0.992,-0.806,0.0
16.352,-0.906,-0.824,1.0
24.526,-1.354,-0.554,39.0
24.36,-1.34,-0.678,17.0
23.452,-1.285,-0.776,5.0
20.601,-1.124,-0.791,1.0
18.471,-1.004,-0.806,0.0
16.711,-0.905,-0.817,1.0
24.543,-1.325,-0.518,23.0
24.487,-1.317,-0.645,26.0
23.807,-1.275,-0.752,14.0
21.183,-1.129,-0.782,1.0
19.038,-1.011,-0.803,0.0
17.197,-0.91,-0.816,1.0
30.926,-1.63,-0.607,29.0
24.555,-1.289,-0.611,11.0
24.03,-1.256,-0.724,17.0
22.051,-1.147,-0.782,2.0
19.608,-1.016,-0.798,0.0
17.663,-0.911,-0.812,0.0
31.194,-1.604,-0.568,26.0
30.475,-1.56,-0.714,13.0
24.358,-1.241,-0.699,11.0
23.016,-1.167,-0.783,2.0
20.124,-1.016,-0.79,0.0
18.173,-0.913,-0.809,0.0
31.314,-1.568,-0.524,20.0
30.57,-1.523,-0.672,27.0
24.706,-1.225,-0.673,4.0
23.698,-1.17,-0.772,11.0
21.009,-1.032,-0.795,1.0
18.614,-0.91,-0.802,1.0
31.242,-1.521,-0.479,34.0
30.729,-1.489,-0.632,32.0
28.265,-1.362,-0.73,3.0
23.865,-1.145,-0.744,15.0
21.656,-1.033,-0.789,1.0
19.332,-0.918,-0.806,0.0
31.208,-1.476,-0.435,47.0
30.971,-1.457,-0.594,30.0
0.0,0.0,0.0,0.0
24.186,-1.125,-0.72,14.0
22.236,-1.029,-0.779,2.0
19.804,-0.911,-0.798,0.0
31.197,-1.43,-0.391,58.0
31.117,-1.418,-0.553,43.0
30.539,-1.384,-0.704,22.0
24.686,-1.112,-0.701,5.0
23.305,-1.044,-0.785,5.0
20.45,-0.911,-0.796,0.0
31.166,-1.383,-0.348,27.0
28.463,-1.255,-0.468,53.0
28.468,-1.248,-0.618,55.0
28.259,-1.231,-0.764,7.0
23.795,-1.03,-0.769,15.0
21.266,-0.915,-0.799,0.0
28.445,-1.218,-0.279,75.0
28.436,-1.21,-0.429,100.0
28.455,-1.203,-0.579,129.0
28.438,-1.195,-0.731,72.0
23.945,-0.999,-0.742,18.0
21.878,-0.907,-0.793,1.0
28.453,-1.174,-0.242,117.0
28.452,-1.167,-0.392,150.0
28.448,-1.158,-0.541,116.0
28.447,-1.15,-0.694,65.0
24.63,-0.989,-0.731,12.0
22.493,-0.897,-0.786,2.0
28.47,-1.13,-0.205,69.0
28.469,-1.121,-0.354,61.0
28.473,-1.113,-0.504,51.0
30.494,-1.184,-0.704,18.0
25.179,-0.971,-0.714,3.0
23.609,-0.903,-0.795,5.0
31.331,-1.193,-0.185,64.0
31.32,-1.183,-0.35,41.0
31.283,-1.173,-0.515,37.0
30.556,-1.137,-0.667,36.0
27.937,-1.032,-0.758,0.0
23.795,-0.872,-0.771,17.0
31.36,-1.143,-0.146,0.0
45.471,-1.644,-0.452,1.0
38.2,-1.37,-0.582,13.0
30.763,-1.094,-0.634,31.0
28.729,-1.014,-0.744,1.0
24.049,-0.842,-0.75,21.0
80.72,-2.808,-0.278,8.0
53.831,-1.856,-0.47,3.0
38.466,-1.315,-0.539,13.0
31.087,-1.054,-0.603,27.0
30.388,-1.021,-0.75,8.0
24.611,-0.819,-0.738,18.0
38.732,-1.281,-0.087,40.0
38.683,-1.268,-0.291,42.0
38.606,-1.254,-0.495,21.0
31.431,-1.012,-0.573,11.0
30.453,-0.971,-0.716,33.0
25.265,-0.798,-0.728,2.0
38.668,-1.212,-0.041,61.0
38.66,-1.2,-0.246,60.0
38.613,-1.187,-0.45,39.0
37.94,-1.155,-0.647,20.0
30.551,-0.921,-0.683,36.0
27.679,-0.826,-0.766,1.0
38.657,-1.144,0.002,79.0
38.663,-1.133,-0.202,102.0
38.646,-1.12,-0.407,48.0
38.098,-1.092,-0.607,13.0
30.742,-0.872,-0.652,31.0
28.485,-0.799,-0.756,1.0
38.654,-1.075,0.045,72.0
38.652,-1.063,-0.159,66.0
38.677,-1.052,-0.364,54.0
38.352,-1.031,-0.568,14.0
31.127,-0.827,-0.627,28.0
30.12,-0.791,-0.766,8.0
38.702,-1.006,0.088,37.0
38.727,-0.995,-0.117,32.0
38.773,-0.984,-0.323,25.0
38.555,-0.966,-0.53,26.0
31.469,-0.779,-0.6,9.0
30.425,-0.743,-0.742,23.0
40.419,-0.977,0.135,35.0
40.42,-0.964,-0.079,37.0
40.411,-0.951,-0.294,41.0
0.0,0.0,0.0,0.0
37.835,-0.866,-0.681,13.0
30.525,-0.689,-0.712,32.0
40.41,-0.902,0.177,43.0
40.436,-0.889,-0.038,3.0
38.369,-0.831,-0.24,16.0
38.347,-0.818,-0.448,55.0
38.026,-0.799,-0.647,22.0
30.709,-0.636,-0.686,32.0
52.934,-1.082,0.284,51.0
52.936,-1.065,0.002,66.0
45.671,-0.903,-0.241,19.0
45.416,-0.883,-0.486,19.0
38.269,-0.732,-0.613,13.0
31.145,-0.586,-0.665,23.0
81.708,-1.514,0.519,7.0
20.122,-0.366,0.02,15.0
53.02,-0.948,-0.228,13.0
52.901,-0.928,-0.515,17.0
38.579,-0.664,-0.582,9.0
31.679,-0.535,-0.647,8.0
20.14,-0.334,0.146,9.0
20.143,-0.328,0.039,50.0
59.56,-0.95,-0.201,9.0
52.978,-0.828,-0.468,11.0
44.84,-0.686,-0.635,17.0
35.969,-0.538,-0.702,2.0
20.127,-0.295,0.164,14.0
59.537,-0.854,0.169,10.0
