X,Y,Z,Reflectivity
20.153,0.097,0.188,26.0
20.145,0.097,0.737,7.0
20.186,0.096,0.62,17.0
20.172,0.095,0.502,22.0
20.154,0.094,0.381,27.0
20.143,0.093,0.263,26.0
20.151,0.092,0.146,24.0
107.177,0.489,3.696,28.0
20.194,0.091,0.578,22.0
20.148,0.089,0.459,28.0
20.141,0.088,0.338,27.0
20.15,0.087,0.221,26.0
20.179,0.086,0.103,28.0
20.223,0.086,0.654,10.0
20.173,0.084,0.535,22.0
20.149,0.083,0.416,27.0
20.139,0.082,0.296,26.0
20.15,0.081,0.178,28.0
20.196,0.08,0.061,35.0
20.209,0.079,0.612,26.0
20.153,0.078,0.492,25.0
20.135,0.076,0.374,27.0
20.143,0.075,0.254,26.0
20.148,0.074,0.137,25.0
20.195,0.072,0.019,31.0
20.18,0.072,0.569,29.0
20.143,0.07,0.45,29.0
20.141,0.069,0.332,25.0
20.136,0.067,0.212,27.0
20.178,0.066,0.094,25.0
20.207,0.064,-0.022,37.0
20.169,0.063,0.526,26.0
20.147,0.062,0.407,29.0
20.142,0.06,0.29,25.0
20.146,0.059,0.17,28.0
20.202,0.057,0.052,28.0
20.212,0.056,-0.065,28.0
20.152,0.054,0.483,28.0
20.139,0.053,0.365,27.0
20.133,0.051,0.247,28.0
20.134,0.049,0.127,27.0
20.2,0.048,0.01,18.0
20.224,0.046,-0.108,23.0
20.154,0.044,0.441,30.0
20.136,0.043,0.323,28.0
20.137,0.041,0.205,27.0
20.166,0.039,0.086,21.0
20.246,0.038,-0.031,13.0
20.254,0.036,-0.15,49.0
20.132,0.034,0.398,28.0
20.14,0.032,0.281,28.0
20.133,0.03,0.163,26.0
20.281,0.029,0.044,21.0
20.26,0.027,-0.073,151.0
20.243,0.025,-0.192,151.0
20.141,0.023,0.357,28.0
20.131,0.021,0.239,27.0
20.131,0.019,0.121,28.0
20.245,0.017,0.002,152.0
20.26,0.015,-0.116,151.0
20.265,0.013,-0.234,150.0
20.135,0.011,0.315,27.0
20.126,0.009,0.197,27.0
20.166,0.007,0.08,44.0
20.257,0.005,-0.039,151.0
20.265,0.003,-0.157,150.0
20.25,0.0,-0.275,23.0
20.119,-0.001,0.274,27.0
20.121,-0.003,0.156,28.0
20.203,-0.005,0.039,18.0
20.198,-0.007,-0.08,17.0
20.227,-0.01,-0.198,3.0
20.231,-0.012,-0.317,0.0
20.12,-0.014,0.233,28.0
20.13,-0.016,0.115,35.0
20.124,-0.019,-0.002,17.0
20.165,-0.021,-0.121,25.0
20.166,-0.024,-0.239,14.0
43.037,-0.056,-0.762,5.0
20.116,-0.028,0.192,35.0
20.14,-0.031,0.074,39.0
20.123,-0.033,-0.042,29.0
20.153,-0.036,-0.162,28.0
20.171,-0.038,-0.28,24.0
20.214,-0.041,-0.399,1.0
20.121,-0.043,0.151,34.0
20.135,-0.046,0.033,35.0
20.147,-0.048,-0.083,32.0
20.138,-0.051,-0.203,12.0
20.169,-0.053,-0.321,24.0
20.17,-0.056,-0.439,2.0
20.121,-0.059,0.111,44.0
20.122,-0.061,-0.006,36.0
20.138,-0.064,-0.123,31.0
20.136,-0.066,-0.243,28.0
20.146,-0.069,-0.361,18.0
20.17,-0.072,-0.479,5.0
20.139,-0.075,0.071,42.0
20.143,-0.078,-0.046,29.0
20.151,-0.08,-0.163,34.0
20.14,-0.083,-0.283,32.0
20.163,-0.086,-0.401,28.0
20.195,-0.089,-0.519,8.0
20.131,-0.092,0.031,35.0
20.153,-0.095,-0.085,28.0
20.138,-0.097,-0.203,19.0
20.141,-0.1,-0.322,35.0
20.162,-0.103,-0.44,33.0
20.194,-0.106,-0.559,7.0
20.153,-0.109,-0.007,30.0
20.144,-0.112,-0.125,28.0
20.137,-0.115,-0.242,33.0
20.139,-0.118,-0.361,35.0
20.184,-0.121,-0.48,28.0
20.189,-0.124,-0.598,9.0
20.163,-0.127,-0.046,25.0
20.145,-0.13,-0.163,19.0
20.137,-0.133,-0.28,32.0
20.149,-0.136,-0.4,34.0
20.172,-0.14,-0.518,36.0
20.2,-0.143,-0.637,16.0
20.167,-0.146,-0.084,18.0
20.128,-0.149,-0.202,12.0
20.155,-0.152,-0.319,27.0
20.163,-0.155,-0.439,29.0
20.18,-0.159,-0.557,38.0
20.226,-0.162,-0.676,19.0
20.184,-0.166,-0.123,10.0
20.164,-0.169,-0.24,20.0
20.18,-0.172,-0.358,26.0
20.171,-0.175,-0.477,28.0
20.189,-0.179,-0.595,39.0
20.213,-0.182,-0.714,18.0
53.234,-0.492,-0.425,2.0
44.873,-0.422,-0.619,6.0
20.196,-0.193,-0.396,22.0
20.183,-0.196,-0.515,31.0
20.207,-0.2,-0.634,39.0
20.217,-0.203,-0.752,16.0
49.684,-0.51,-0.489,2.0
38.207,-0.399,-0.598,14.0
20.203,-0.214,-0.434,13.0
20.183,-0.217,-0.553,27.0
20.212,-0.221,-0.671,36.0
20.231,-0.225,-0.79,17.0
45.029,-0.51,-0.526,25.0
37.801,-0.435,-0.661,15.0
30.996,-0.362,-0.722,6.0
20.21,-0.239,-0.59,24.0
20.22,-0.243,-0.708,34.0
20.231,-0.246,-0.826,19.0
44.853,-0.556,-0.603,10.0
35.914,-0.452,-0.691,3.0
29.638,-0.378,-0.743,3.0
20.202,-0.261,-0.626,12.0
20.221,-0.265,-0.744,31.0
20.124,-0.268,-0.858,12.0
38.281,-0.518,-0.583,14.0
31.583,-0.433,-0.664,25.0
28.225,-0.392,-0.758,2.0
20.166,-0.283,-0.661,0.0
20.241,-0.288,-0.781,22.0
20.192,-0.292,-0.897,7.0
37.912,-0.556,-0.644,20.0
30.557,-0.454,-0.696,29.0
26.965,-0.406,-0.771,2.0
26.431,-0.403,-0.912,0.0
20.228,-0.312,-0.816,4.0
19.699,-0.308,-0.909,1.0
35.891,-0.569,-0.672,2.0
29.856,-0.479,-0.732,18.0
25.996,-0.422,-0.788,3.0
25.45,-0.418,-0.923,0.0
21.398,-0.356,-0.9,3.0
19.607,-0.33,-0.938,2.0
31.163,-0.531,-0.636,25.0
28.527,-0.492,-0.748,6.0
25.07,-0.437,-0.803,2.0
24.04,-0.424,-0.912,0.0
21.45,-0.383,-0.938,1.0
18.846,-0.34,-0.934,0.0
30.578,-0.559,-0.675,32.0
27.354,-0.505,-0.763,2.0
23.767,-0.444,-0.801,1.0
23.47,-0.443,-0.929,0.0
0.0,0.0,0.0,0.0
18.22,-0.352,-0.933,0.0
0.0,0.0,0.0,0.0
26.148,-0.516,-0.772,1.0
22.76,-0.454,-0.804,1.0
22.501,-0.453,-0.928,0.0
0.0,0.0,0.0,0.0
0.0,0.0,0.0,0.0
28.775,-0.599,-0.729,6.0
25.079,-0.527,-0.781,2.0
21.826,-0.463,-0.806,1.0
21.712,-0.465,-0.93,0.0
38.411,-0.832,-1.868,1.0
17.148,-0.375,-0.934,0.0
28.032,-0.619,-0.755,2.0
23.832,-0.532,-0.78,5.0
21.195,-0.477,-0.816,1.0
20.899,-0.475,-0.928,1.0
17.044,-0.395,-0.954,1.0
25.306,-0.593,-0.72,8.0
0.0,0.0,0.0,0.0
20.48,-0.489,-0.82,1.0
20.323,-0.489,-0.934,0.0
16.562,-0.406,-0.953,2.0
0.0,0.0,0.0,0.0
21.913,-0.548,-0.784,1.0
19.923,-0.502,-0.828,1.0
19.751,-0.502,-0.937,0.0
17.607,-0.452,-0.937,0.0
23.801,-0.622,-0.749,19.0
21.011,-0.553,-0.782,0.0
19.328,-0.514,-0.832,1.0
19.195,-0.514,-0.939,0.0
15.773,-0.43,-0.954,0.0
23.435,-0.645,-0.771,6.0
20.531,-0.569,-0.794,0.0
18.779,-0.525,-0.835,1.0
18.62,-0.525,-0.937,0.0
18.505,-0.526,-1.039,0.0
15.316,-0.439,-0.948,0.0
22.35,-0.646,-0.767,1.0
19.926,-0.58,-0.799,0.0
18.22,-0.535,-0.835,1.0
18.053,-0.534,-0.934,0.0
17.986,-0.537,-1.035,0.0
14.991,-0.451,-0.949,0.0
21.774,-0.66,-0.777,0.0
19.423,-0.593,-0.805,0.0
17.71,-0.545,-0.836,0.0
17.512,-0.544,-0.93,0.0
17.546,-0.549,-1.033,0.0
14.58,-0.46,-0.943,0.0
21.135,-0.671,-0.783,0.0
18.744,-0.6,-0.802,0.0
17.233,-0.556,-0.837,0.0
17.163,-0.558,-0.934,0.0
16.87,-0.553,-1.016,0.0
14.415,-0.476,-0.952,0.0
20.27,-0.673,-0.777,0.0
18.239,-0.61,-0.804,0.0
16.821,-0.567,-0.839,0.0
16.636,-0.565,-0.927,0.0
16.203,-0.554,-0.997,0.0
14.179,-0.489,-0.954,0.0
19.842,-0.688,-0.786,0.0
17.715,-0.619,-0.804,0.0
16.281,-0.573,-0.833,1.0
16.221,-0.575,-0.925,1.0
16.017,-0.572,-1.006,0.0
13.873,-0.499,-0.951,0.0
19.167,-0.694,-0.783,0.0
17.239,-0.628,-0.803,0.0
16.108,-0.591,-0.843,1.0
16.051,-0.593,-0.935,0.0
14.721,-0.548,-0.942,0.0
13.606,-0.51,-0.949,0.0
18.755,-0.707,-0.789,0.0
17.044,-0.647,-0.815,0.0
15.985,-0.611,-0.856,1.0
15.942,-0.613,-0.947,0.0
14.515,-0.562,-0.946,0.0
13.424,-0.523,-0.952,0.0
18.316,-0.718,-0.791,1.0
16.742,-0.661,-0.82,0.0
15.879,-0.631,-0.869,1.0
15.839,-0.633,-0.959,0.0
14.421,-0.58,-0.956,0.0
13.326,-0.54,-0.961,0.0
17.986,-0.732,-0.797,1.0
16.319,-0.669,-0.817,1.0
15.772,-0.651,-0.88,1.0
15.704,-0.652,-0.968,0.0
14.208,-0.594,-0.958,0.0
13.133,-0.552,-0.961,0.0
17.507,-0.74,-0.795,0.0
16.229,-0.69,-0.83,1.0
15.684,-0.671,-0.892,1.0
15.492,-0.667,-0.972,0.0
13.941,-0.604,-0.955,0.0
12.971,-0.566,-0.963,0.0
17.23,-0.755,-0.8,1.0
15.97,-0.704,-0.833,0.0
15.597,-0.692,-0.903,1.0
15.258,-0.681,-0.973,0.0
13.667,-0.614,-0.95,0.0
12.765,-0.577,-0.961,0.0
16.858,-0.765,-0.8,1.0
15.657,-0.714,-0.833,0.0
15.487,-0.711,-0.912,1.0
14.679,-0.678,-0.95,0.0
13.565,-0.631,-0.956,0.0
12.624,-0.59,-0.963,0.0
16.528,-0.776,-0.8,1.0
15.512,-0.732,-0.84,1.0
15.418,-0.732,-0.923,0.0
14.535,-0.694,-0.955,0.0
13.469,-0.647,-0.962,0.0
12.48,-0.603,-0.963,0.0
16.328,-0.792,-0.806,1.0
15.409,-0.752,-0.848,1.0
15.334,-0.753,-0.932,1.0
14.39,-0.71,-0.959,0.0
13.306,-0.661,-0.963,0.0
12.277,-0.613,-0.959,0.0
16.191,-0.811,-0.813,0.0
15.309,-0.771,-0.856,1.0
15.263,-0.773,-0.941,1.0
14.258,-0.726,-0.962,0.0
13.119,-0.672,-0.96,0.0
12.175,-0.627,-0.961,0.0
16.009,-0.827,-0.817,0.0
15.22,-0.791,-0.864,1.0
15.167,-0.792,-0.948,0.0
14.208,-0.746,-0.97,0.0
13.027,-0.688,-0.964,0.0
12.097,-0.643,-0.965,0.0
15.814,-0.842,-0.82,1.0
15.128,-0.81,-0.871,1.0
14.987,-0.807,-0.948,1.0
13.887,-0.751,-0.959,0.0
12.872,-0.7,-0.963,0.0
11.956,-0.654,-0.963,0.0
15.697,-0.86,-0.826,1.0
15.05,-0.83,-0.877,1.0
14.905,-0.826,-0.954,3.0
13.639,-0.76,-0.952,0.0
12.715,-0.712,-0.96,0.0
11.809,-0.665,-0.959,0.0
15.578,-0.879,-0.831,1.0
14.985,-0.85,-0.884,1.0
14.882,-0.848,-0.963,2.0
24.567,-1.408,-1.733,0.0
12.656,-0.729,-0.965,0.0
11.688,-0.677,-0.958,0.0
15.457,-0.897,-0.835,1.0
14.935,-0.871,-0.891,1.0
14.895,-0.873,-0.974,0.0
13.57,-0.799,-0.966,0.0
12.549,-0.743,-0.965,0.0
11.633,-0.692,-0.961,0.0
15.335,-0.914,-0.838,1.0
14.864,-0.89,-0.896,1.0
14.784,-0.89,-0.975,0.0
24.487,-1.482,-1.758,0.0
12.464,-0.758,-0.966,0.0
11.497,-0.702,-0.956,0.0
15.247,-0.933,-0.842,1.0
14.801,-0.91,-0.901,1.0
14.73,-0.91,-0.981,0.0
24.538,-1.524,-1.776,0.0
12.422,-0.775,-0.969,0.0
11.442,-0.717,-0.958,0.0
15.109,-0.949,-0.842,0.0
14.757,-0.931,-0.906,1.0
14.642,-0.928,-0.982,0.0
13.138,-0.836,-0.957,0.0
12.389,-0.792,-0.973,0.0
11.418,-0.734,-0.962,0.0
15.023,-0.967,-0.845,0.0
14.698,-0.95,-0.91,1.0
14.444,-0.938,-0.976,0.0
13.054,-0.852,-0.958,0.0
12.245,-0.803,-0.968,0.0
11.31,-0.745,-0.958,0.0
14.928,-0.984,-0.847,0.0
14.631,-0.969,-0.913,1.0
14.259,-0.949,-0.97,0.0
13.01,-0.869,-0.96,0.0
12.136,-0.815,-0.965,0.0
11.245,-0.758,-0.958,0.0
14.776,-0.998,-0.844,0.0
14.591,-0.989,-0.916,1.0
14.105,-0.961,-0.965,0.0
12.967,-0.887,-0.962,0.0
12.05,-0.828,-0.962,0.0
11.181,-0.772,-0.957,0.0
14.699,-1.015,-0.845,0.0
14.529,-1.008,-0.918,1.0
14.043,-0.978,-0.966,0.0
12.899,-0.903,-0.962,0.0
12.009,-0.844,-0.963,0.0
11.151,-0.787,-0.958,0.0
14.631,-1.033,-0.846,0.0
14.466,-1.026,-0.918,1.0
14.052,-1.001,-0.971,0.0
12.823,-0.917,-0.96,0.0
11.976,-0.86,-0.964,0.0
11.119,-0.802,-0.958,0.0
14.594,-1.053,-0.849,1.0
14.418,-1.045,-0.919,1.0
14.034,-1.021,-0.974,0.0
12.789,-0.935,-0.961,0.0
11.914,-0.874,-0.963,0.0
11.078,-0.816,-0.958,0.0
14.482,-1.068,-0.846,0.0
14.364,-1.063,-0.92,1.0
14.058,-1.045,-0.979,0.0
12.761,-0.952,-0.962,0.0
11.889,-0.891,-0.963,0.0
11.073,-0.833,-0.96,0.0
14.472,-1.089,-0.848,0.0
14.304,-1.081,-0.919,1.0
14.011,-1.063,-0.979,0.0
12.778,-0.973,-0.966,0.0
11.866,-0.907,-0.964,0.0
11.031,-0.847,-0.958,0.0
14.405,-1.106,-0.847,0.0
14.274,-1.1,-0.919,1.0
14.062,-1.088,-0.984,0.0
12.712,-0.987,-0.963,0.0
11.834,-0.923,-0.963,0.0
11.041,-0.864,-0.96,0.0
14.4,-1.127,-0.848,0.0
14.218,-1.117,-0.917,1.0
14.053,-1.109,-0.985,0.0
12.715,-1.007,-0.964,0.0
11.867,-0.943,-0.967,0.0
11.025,-0.88,-0.96,0.0
14.371,-1.147,-0.848,0.0
14.174,-1.135,-0.915,1.0
14.047,-1.129,-0.986,0.0
12.723,-1.026,-0.966,0.0
11.806,-0.956,-0.962,0.0
11.041,-0.898,-0.962,0.0
14.329,-1.165,-0.846,0.0
14.12,-1.152,-0.912,1.0
14.075,-1.152,-0.988,0.0
12.705,-1.044,-0.964,0.0
11.835,-0.976,-0.965,0.0
11.047,-0.914,-0.963,0.0
14.317,-1.185,-0.845,0.0
14.095,-1.17,-0.911,1.0
14.04,-1.17,-0.985,0.0
12.727,-1.064,-0.966,0.0
11.828,-0.993,-0.964,0.0
11.042,-0.93,-0.962,0.0
14.323,-1.206,-0.845,0.0
14.048,-1.187,-0.907,1.0
14.02,-1.189,-0.983,0.0
12.729,-1.083,-0.965,0.0
11.849,-1.012,-0.965,0.0
11.043,-0.946,-0.961,0.0
14.338,-1.228,-0.844,0.0
14.011,-1.204,-0.903,1.0
13.977,-1.205,-0.979,1.0
12.771,-1.105,-0.967,0.0
11.882,-1.031,-0.966,0.0
11.083,-0.965,-0.963,0.0
14.364,-1.25,-0.844,0.0
13.989,-1.222,-0.9,1.0
13.959,-1.223,-0.976,1.0
12.775,-1.123,-0.965,0.0
11.913,-1.051,-0.967,0.0
11.09,-0.982,-0.962,0.0
14.409,-1.275,-0.845,1.0
13.945,-1.237,-0.895,1.0
13.928,-1.24,-0.971,1.0
12.841,-1.147,-0.968,0.0
11.969,-1.072,-0.969,0.0
11.109,-0.998,-0.962,0.0
14.52,-1.304,-0.848,1.0
13.898,-1.252,-0.889,1.0
13.912,-1.257,-0.967,1.0
12.846,-1.165,-0.966,0.0
12.002,-1.091,-0.969,0.0
11.141,-1.016,-0.962,0.0
14.434,-1.316,-0.84,0.0
13.875,-1.269,-0.884,1.0
13.852,-1.27,-0.959,1.0
12.978,-1.194,-0.972,0.0
12.022,-1.109,-0.968,0.0
11.15,-1.032,-0.959,0.0
14.441,-1.335,-0.836,0.0
13.842,-1.284,-0.878,1.0
13.833,-1.287,-0.954,1.0
13.1,-1.222,-0.977,0.0
12.075,-1.13,-0.968,0.0
11.269,-1.058,-0.966,0.0
14.479,-1.358,-0.834,0.0
13.812,-1.299,-0.871,1.0
13.803,-1.302,-0.947,1.0
13.135,-1.242,-0.976,0.0
12.084,-1.146,-0.965,0.0
11.25,-1.07,-0.96,0.0
14.541,-1.382,-0.832,0.0
13.798,-1.315,-0.866,1.0
13.768,-1.316,-0.94,1.0
13.216,-1.267,-0.977,0.0
12.124,-1.165,-0.963,0.0
11.334,-1.093,-0.963,0.0
14.612,-1.407,-0.83,0.0
13.773,-1.33,-0.858,1.0
13.73,-1.329,-0.932,1.0
13.355,-1.296,-0.981,1.0
12.229,-1.191,-0.966,0.0
11.384,-1.111,-0.962,0.0
14.669,-1.431,-0.827,0.0
13.765,-1.346,-0.852,0.0
13.715,-1.344,-0.925,1.0
13.46,-1.323,-0.983,1.0
12.377,-1.22,-0.972,0.0
11.558,-1.142,-0.972,0.0
14.777,-1.459,-0.827,0.0
13.826,-1.368,-0.849,0.0
13.667,-1.356,-0.915,1.0
13.569,-1.35,-0.984,1.0
12.491,-1.246,-0.975,0.0
11.622,-1.162,-0.971,0.0
14.939,-1.492,-0.828,1.0
13.912,-1.393,-0.848,0.0
13.649,-1.37,-0.907,1.0
13.568,-1.365,-0.977,1.0
12.608,-1.272,-0.978,0.0
11.683,-1.182,-0.97,0.0
15.005,-1.516,-0.824,1.0
13.997,-1.417,-0.845,0.0
13.629,-1.383,-0.898,1.0
13.546,-1.378,-0.968,1.0
12.736,-1.299,-0.98,0.0
11.792,-1.206,-0.973,0.0
15.078,-1.54,-0.819,1.0
14.117,-1.445,-0.844,1.0
13.613,-1.397,-0.889,1.0
13.553,-1.394,-0.96,1.0
12.901,-1.33,-0.985,0.0
11.884,-1.228,-0.973,0.0
15.149,-1.563,-0.814,1.0
14.19,-1.468,-0.84,1.0
13.586,-1.408,-0.878,1.0
13.573,-1.41,-0.954,1.0
12.978,-1.351,-0.983,0.0
11.978,-1.25,-0.973,0.0
15.251,-1.59,-0.809,1.0
14.268,-1.49,-0.835,1.0
13.573,-1.421,-0.869,1.0
13.542,-1.421,-0.942,1.0
13.122,-1.38,-0.985,0.0
12.033,-1.268,-0.969,0.0
15.366,-1.617,-0.805,1.0
14.406,-1.519,-0.834,0.0
13.58,-1.435,-0.86,1.0
13.517,-1.431,-0.931,2.0
13.287,-1.41,-0.988,0.0
12.183,-1.296,-0.973,0.0
15.485,-1.645,-0.801,1.0
14.52,-1.545,-0.83,1.0
13.606,-1.451,-0.852,0.0
13.515,-1.444,-0.921,1.0
13.469,-1.442,-0.992,0.0
12.238,-1.313,-0.968,0.0
15.681,-1.68,-0.799,1.0
14.645,-1.573,-0.826,0.0
13.758,-1.48,-0.851,0.0
13.472,-1.452,-0.908,1.0
13.484,-1.456,-0.983,1.0
13.316,-1.441,-1.043,0.0
15.875,-1.716,-0.797,1.0
14.793,-1.602,-0.823,1.0
13.85,-1.502,-0.846,0.0
13.458,-1.462,-0.897,1.0
13.474,-1.467,-0.971,1.0
13.329,-1.454,-1.034,0.0
16.06,-1.749,-0.794,1.0
14.975,-1.634,-0.822,1.0
13.997,-1.53,-0.844,0.0
13.463,-1.474,-0.887,1.0
13.401,-1.47,-0.955,3.0
13.331,-1.465,-1.023,1.0
16.195,-1.777,-0.787,1.0
15.094,-1.659,-0.816,1.0
14.091,-1.552,-0.838,1.0
13.452,-1.484,-0.875,1.0
13.362,-1.477,-0.941,10.0
13.327,-1.475,-1.012,1.0
16.357,-1.808,-0.782,1.0
15.224,-1.686,-0.81,1.0
14.256,-1.581,-0.836,1.0
13.461,-1.495,-0.864,1.0
13.376,-1.488,-0.931,12.0
13.324,-1.485,-1.0,3.0
16.62,-1.85,-0.779,1.0
15.376,-1.714,-0.804,1.0
14.374,-1.605,-0.83,0.0
13.478,-1.507,-0.853,0.0
13.371,-1.497,-0.919,6.0
13.337,-1.496,-0.989,7.0
16.859,-1.888,-0.776,1.0
15.555,-1.745,-0.8,0.0
14.574,-1.637,-0.828,1.0
13.698,-1.541,-0.854,0.0
13.371,-1.507,-0.906,2.0
13.352,-1.507,-0.977,8.0
17.128,-1.93,-0.772,1.0
15.747,-1.777,-0.795,0.0
14.725,-1.664,-0.823,1.0
13.822,-1.564,-0.849,0.0
13.387,-1.517,-0.895,2.0
13.342,-1.514,-0.964,7.0
17.329,-1.964,-0.765,1.0
16.003,-1.816,-0.793,1.0
14.956,-1.699,-0.822,1.0
13.953,-1.587,-0.843,1.0
13.375,-1.524,-0.881,2.0
13.349,-1.523,-0.951,5.0
17.735,-2.021,-0.766,0.0
16.202,-1.848,-0.787,1.0
15.097,-1.724,-0.815,1.0
14.092,-1.611,-0.838,1.0
13.367,-1.53,-0.867,1.0
13.357,-1.531,-0.939,2.0
18.035,-2.065,-0.761,0.0
16.41,-1.881,-0.781,1.0
15.279,-1.753,-0.809,0.0
14.301,-1.643,-0.836,0.0
13.418,-1.543,-0.857,0.0
13.352,-1.537,-0.925,2.0
18.548,-2.133,-0.764,0.0
16.697,-1.922,-0.777,1.0
15.462,-1.782,-0.803,0.0
14.432,-1.665,-0.829,1.0
13.626,-1.574,-0.856,0.0
13.35,-1.544,-0.911,2.0
18.919,-2.185,-0.759,1.0
17.069,-1.973,-0.777,1.0
15.697,-1.816,-0.799,0.0
14.637,-1.695,-0.825,1.0
13.761,-1.595,-0.85,0.0
13.325,-1.546,-0.895,2.0
19.261,-2.232,-0.753,1.0
17.338,-2.011,-0.771,1.0
15.955,-1.852,-0.795,1.0
14.904,-1.732,-0.825,1.0
13.918,-1.619,-0.845,1.0
13.331,-1.552,-0.881,2.0
19.628,-2.283,-0.746,1.0
17.646,-2.054,-0.766,1.0
16.123,-1.878,-0.786,1.0
15.055,-1.755,-0.817,1.0
14.1,-1.645,-0.841,1.0
13.33,-1.557,-0.866,1.0
20.146,-2.35,-0.744,1.0
17.959,-2.096,-0.76,0.0
16.379,-1.913,-0.781,1.0
15.257,-1.783,-0.811,1.0
14.256,-1.668,-0.834,1.0
13.413,-1.57,-0.857,0.0
20.583,-2.407,-0.737,2.0
18.62,-2.179,-0.767,1.0
16.768,-1.963,-0.78,1.0
15.43,-1.808,-0.803,1.0
14.462,-1.696,-0.83,0.0
13.631,-1.599,-0.856,0.0
21.247,-2.49,-0.737,4.0
18.973,-2.225,-0.76,2.0
17.086,-2.005,-0.776,1.0
15.64,-1.836,-0.796,1.0
14.743,-1.732,-0.829,1.0
13.774,-1.619,-0.849,0.0
21.699,-2.548,-0.729,5.0
19.356,-2.274,-0.753,2.0
17.44,-2.05,-0.772,1.0
15.96,-1.876,-0.794,1.0
14.947,-1.758,-0.824,1.0
13.986,-1.646,-0.846,0.0
22.079,-2.596,-0.716,4.0
19.845,-2.334,-0.75,2.0
17.73,-2.086,-0.765,0.0
16.192,-1.906,-0.787,1.0
15.111,-1.779,-0.815,1.0
14.165,-1.669,-0.84,1.0
22.776,-2.681,-0.713,5.0
20.321,-2.392,-0.744,2.0
18.285,-2.153,-0.768,0.0
16.53,-1.947,-0.784,1.0
15.367,-1.811,-0.811,1.0
14.314,-1.688,-0.832,0.0
23.255,-2.739,-0.7,4.0
20.771,-2.447,-0.737,3.0
18.742,-2.208,-0.765,1.0
16.844,-1.985,-0.779,1.0
15.496,-1.827,-0.8,1.0
14.576,-1.719,-0.83,0.0
24.077,-2.837,-0.697,2.0
21.45,-2.527,-0.735,4.0
19.133,-2.255,-0.758,2.0
17.228,-2.03,-0.777,1.0
15.852,-1.869,-0.799,1.0
14.849,-1.751,-0.828,1.0
24.901,-2.933,-0.691,3.0
21.898,-2.579,-0.725,4.0
19.625,-2.312,-0.754,1.0
17.553,-2.068,-0.77,1.0
16.083,-1.895,-0.792,1.0
15.026,-1.771,-0.82,1.0
25.648,-3.02,-0.681,6.0
22.514,-2.651,-0.718,4.0
20.107,-2.367,-0.749,2.0
17.981,-2.117,-0.767,0.0
16.362,-1.926,-0.786,1.0
15.256,-1.796,-0.814,1.0
26.16,-3.077,-0.663,2.0
23.032,-2.709,-0.707,5.0
20.564,-2.418,-0.741,2.0
18.536,-2.18,-0.769,1.0
16.753,-1.97,-0.784,1.0
15.443,-1.816,-0.806,1.0
27.272,-3.204,-0.659,2.0
23.716,-2.785,-0.699,2.0
21.285,-2.5,-0.741,4.0
18.965,-2.227,-0.763,2.0
17.111,-2.009,-0.78,1.0
15.713,-1.844,-0.8,1.0
28.27,-3.316,-0.648,3.0
24.638,-2.889,-0.696,3.0
21.781,-2.553,-0.732,7.0
19.409,-2.274,-0.758,2.0
17.506,-2.051,-0.777,1.0
16.018,-1.876,-0.796,1.0
29.166,-3.414,-0.633,8.0
25.367,-2.968,-0.686,4.0
22.196,-2.596,-0.718,4.0
19.887,-2.325,-0.752,1.0
17.801,-2.08,-0.768,1.0
16.262,-1.9,-0.788,1.0
29.754,-3.474,-0.61,19.0
26.112,-3.047,-0.674,3.0
22.982,-2.681,-0.716,5.0
20.456,-2.385,-0.748,1.0
18.433,-2.148,-0.773,0.0
16.695,-1.945,-0.789,1.0
30.22,-3.518,-0.582,18.0
27.075,-3.15,-0.666,3.0
23.648,-2.75,-0.708,5.0
20.982,-2.439,-0.742,3.0
18.843,-2.189,-0.767,1.0
16.999,-1.974,-0.782,1.0
31.156,-3.615,-0.562,16.0
27.838,-3.228,-0.651,1.0
24.438,-2.832,-0.701,4.0
21.604,-2.502,-0.737,4.0
19.302,-2.234,-0.762,1.0
17.334,-2.005,-0.777,1.0
32.309,-3.735,-0.544,34.0
28.992,-3.349,-0.642,5.0
25.201,-2.909,-0.692,3.0
22.195,-2.56,-0.73,4.0
19.794,-2.282,-0.757,1.0
17.77,-2.047,-0.774,0.0
33.087,-3.81,-0.516,31.0
29.851,-3.434,-0.625,8.0
25.997,-2.988,-0.682,3.0
22.751,-2.613,-0.721,5.0
20.341,-2.334,-0.753,1.0
18.196,-2.087,-0.771,0.0
33.995,-3.896,-0.489,31.0
30.342,-3.474,-0.598,16.0
26.93,-3.081,-0.674,3.0
23.336,-2.667,-0.711,4.0
20.871,-2.384,-0.747,3.0
18.769,-2.142,-0.772,1.0
34.75,-3.963,-0.458,29.0
31.072,-3.54,-0.575,10.0
27.667,-3.149,-0.659,1.0
24.318,-2.765,-0.711,3.0
21.436,-2.435,-0.741,4.0
19.16,-2.175,-0.765,1.0
39.82,-4.517,-0.477,7.0
32.148,-3.643,-0.556,25.0
28.43,-3.218,-0.643,1.0
24.929,-2.819,-0.699,6.0
22.042,-2.49,-0.735,3.0
19.685,-2.221,-0.762,1.0
40.052,-4.517,-0.431,15.0
33.176,-3.737,-0.533,28.0
29.928,-3.367,-0.641,8.0
25.7,-2.888,-0.69,4.0
22.721,-2.55,-0.731,4.0
20.263,-2.272,-0.76,1.0
40.347,-4.522,-0.386,7.0
33.93,-3.798,-0.506,36.0
30.58,-3.419,-0.618,9.0
26.549,-2.964,-0.681,2.0
23.262,-2.594,-0.721,5.0
20.729,-2.309,-0.753,3.0
0.0,0.0,0.0,0.0
34.735,-3.862,-0.476,22.0
31.3,-3.475,-0.596,9.0
27.358,-3.034,-0.67,2.0
24.023,-2.66,-0.716,5.0
21.163,-2.341,-0.744,3.0
46.791,-5.173,-0.338,21.0
39.789,-4.392,-0.499,5.0
32.144,-3.543,-0.574,22.0
28.187,-3.102,-0.657,2.0
24.908,-2.738,-0.713,5.0
21.876,-2.401,-0.743,3.0
47.606,-5.224,-0.289,8.0
40.028,-4.385,-0.456,15.0
33.077,-3.618,-0.553,27.0
29.671,-3.241,-0.657,5.0
25.516,-2.783,-0.702,6.0
22.467,-2.447,-0.737,4.0
0.0,0.0,0.0,0.0
0.0,0.0,0.0,0.0
33.887,-3.677,-0.528,28.0
30.449,-3.298,-0.64,4.0
26.311,-2.845,-0.693,6.0
22.943,-2.477,-0.727,4.0
54.62,-5.896,-0.206,25.0
0.0,0.0,0.0,0.0
34.604,-3.722,-0.5,23.0
31.429,-3.374,-0.625,9.0
26.927,-2.886,-0.679,3.0
23.66,-2.532,-0.723,5.0
55.888,-5.979,-0.148,30.0
0.0,0.0,0.0,0.0
35.149,-3.747,-0.468,11.0
32.183,-3.424,-0.604,10.0
27.802,-2.953,-0.67,1.0
24.507,-2.598,-0.722,5.0
65.34,-6.926,-0.101,5.0
47.758,-5.052,-0.329,21.0
40.04,-4.227,-0.489,15.0
32.826,-3.459,-0.58,20.0
28.262,-2.972,-0.65,1.0
25.233,-2.649,-0.715,6.0
65.135,-6.836,-0.03,2.0
0.0,0.0,0.0,0.0
40.289,-4.211,-0.448,15.0
33.637,-3.508,-0.557,29.0
30.023,-3.125,-0.658,2.0
25.914,-2.692,-0.706,6.0
65.005,-6.751,0.04,4.0
0.0,0.0,0.0,0.0
0.0,0.0,0.0,0.0
34.472,-3.557,-0.534,27.0
30.871,-3.179,-0.643,5.0
26.641,-2.738,-0.697,6.0
64.963,-6.674,0.11,3.0
55.46,-5.684,-0.202,30.0
44.855,-4.587,-0.403,19.0
35.143,-3.586,-0.507,12.0
32.215,-3.28,-0.637,9.0
27.32,-2.775,-0.686,3.0
64.983,-6.6,0.178,6.0
56.096,-5.684,-0.146,8.0
0.0,0.0,0.0,0.0
37.479,-3.779,-0.502,9.0
32.996,-3.319,-0.618,10.0
27.814,-2.792,-0.67,2.0
65.047,-6.527,0.245,19.0
65.361,-6.542,-0.102,13.0
50.272,-5.019,-0.347,5.0
0.0,0.0,0.0,0.0
33.861,-3.364,-0.6,10.0
28.775,-2.852,-0.664,1.0
65.041,-6.446,0.311,12.0
65.196,-6.444,-0.036,5.0
54.515,-5.374,-0.322,4.0
0.0,0.0,0.0,0.0
34.461,-3.38,-0.576,16.0
30.175,-2.952,-0.666,2.0
65.052,-6.362,0.376,2.0
65.002,-6.34,0.027,3.0
54.8,-5.331,-0.27,29.0
44.708,-4.337,-0.464,9.0
34.882,-3.375,-0.549,20.0
30.698,-2.962,-0.648,3.0
65.109,-6.281,0.44,8.0
64.982,-6.252,0.09,1.0
55.494,-5.324,-0.22,29.0
45.301,-4.334,-0.427,20.0
38.145,-3.639,-0.564,4.0
31.3,-2.978,-0.631,1.0
65.144,-6.196,0.5,2.0
65.132,-6.177,0.152,150.0
55.927,-5.288,-0.169,22.0
46.804,-4.413,-0.397,21.0
38.775,-3.646,-0.537,14.0
33.135,-3.107,-0.637,2.0
54.955,-5.151,0.473,150.0
65.174,-6.09,0.211,141.0
55.048,-5.128,-0.117,28.0
47.98,-4.456,-0.364,11.0
39.608,-3.667,-0.513,15.0
34.564,-3.191,-0.633,5.0
54.966,-5.073,0.522,150.0
54.965,-5.057,0.227,168.0
54.957,-5.041,-0.068,150.0
50.303,-4.6,-0.338,10.0
40.507,-3.692,-0.489,15.0
35.295,-3.208,-0.616,11.0
54.934,-4.99,0.569,19.0
54.968,-4.977,0.274,2.0
55.667,-5.024,-0.02,2.0
54.797,-4.929,-0.32,27.0
41.798,-3.747,-0.469,13.0
36.911,-3.298,-0.613,10.0
0.0,0.0,0.0,0.0
0.0,0.0,0.0,0.0
64.19,-5.695,0.029,1.0
55.092,-4.871,-0.276,13.0
45.431,-4.004,-0.472,19.0
37.534,-3.297,-0.592,13.0
0.0,0.0,0.0,0.0
0.0,0.0,0.0,0.0
0.0,0.0,0.0,0.0
55.551,-4.826,-0.233,4.0
46.451,-4.021,-0.446,20.0
38.083,-3.285,-0.57,14.0
0.0,0.0,0.0,0.0
0.0,0.0,0.0,0.0
64.08,-5.485,0.131,1.0
79.372,-6.77,-0.272,3.0
47.105,-4.003,-0.415,12.0
39.421,-3.338,-0.56,14.0
0.0,0.0,0.0,0.0
65.497,-5.522,0.537,8.0
79.426,-6.671,0.223,14.0
79.496,-6.653,-0.213,6.0
0.0,0.0,0.0,0.0
40.133,-3.333,-0.541,15.0
81.984,-6.805,1.175,37.0
79.3,-6.556,0.709,22.0
79.392,-6.538,0.28,28.0
79.63,-6.533,-0.156,11.0
50.402,-4.119,-0.371,16.0
41.066,-3.343,-0.524,16.0
82.017,-6.673,1.233,28.0
79.318,-6.427,0.764,12.0
79.4,-6.408,0.335,26.0
79.898,-6.421,-0.102,37.0
54.076,-4.329,-0.361,7.0
42.225,-3.366,-0.51,7.0
82.032,-6.534,1.289,22.0
81.591,-6.471,0.841,15.0
61.487,-4.856,0.301,29.0
0.0,0.0,0.0,0.0
57.31,-4.489,-0.345,2.0
0.0,0.0,0.0,0.0
82.082,-6.397,1.343,8.0
81.991,-6.362,0.897,12.0
62.044,-4.793,0.343,1.0
61.747,-4.75,0.0,5.0
57.406,-4.397,-0.309,5.0
46.492,-3.546,-0.503,20.0
83.269,-6.344,1.413,12.0
0.0,0.0,0.0,0.0
65.689,-4.96,0.403,0.0
65.581,-4.929,0.04,175.0
0.0,0.0,0.0,0.0
49.273,-3.671,-0.503,5.0
83.06,-6.181,1.458,13.0
0.0,0.0,0.0,0.0
65.607,-4.836,0.44,1.0
65.525,-4.808,0.077,15.0
0.0,0.0,0.0,0.0
0.0,0.0,0.0,0.0
82.949,-6.023,1.502,6.0
0.0,0.0,0.0,0.0
65.515,-4.711,0.475,0.0
65.456,-4.685,0.112,2.0
65.993,-4.701,-0.245,0.0
49.53,-3.511,-0.453,15.0
82.978,-5.876,1.545,14.0
0.0,0.0,0.0,0.0
65.557,-4.595,0.508,142.0
65.431,-4.563,0.145,2.0
66.044,-4.582,-0.212,2.0
53.199,-3.673,-0.46,8.0
82.891,-5.716,1.584,8.0
0.0,0.0,0.0,0.0
65.58,-4.476,0.539,175.0
65.456,-4.444,0.175,2.0
66.002,-4.458,-0.182,2.0
24.628,-1.655,-0.202,2.0
24.602,-1.65,0.481,17.0
24.589,-1.641,0.347,17.0
65.547,-4.351,0.568,13.0
24.553,-1.621,0.076,23.0
24.56,-1.613,-0.057,33.0
24.535,-1.603,-0.19,37.0
24.566,-1.602,0.49,40.0
24.542,-1.592,0.356,42.0
24.536,-1.582,0.222,41.0
24.533,-1.573,0.086,54.0
24.532,-1.565,-0.047,61.0
24.504,-1.554,-0.181,49.0
24.554,-1.555,0.499,77.0
24.539,-1.544,0.365,79.0
24.52,-1.535,0.231,63.0
24.519,-1.526,0.094,55.0
24.536,-1.518,-0.038,102.0
24.496,-1.507,-0.172,60.0
24.557,-1.507,0.508,80.0
24.552,-1.498,0.373,83.0
24.528,-1.488,0.239,61.0
24.509,-1.478,0.102,60.0
24.524,-1.47,-0.031,70.0
24.525,-1.461,-0.165,71.0
24.563,-1.46,0.516,71.0
24.552,-1.451,0.381,50.0
24.543,-1.441,0.247,44.0
24.526,-1.431,0.11,44.0
24.542,-1.423,-0.024,56.0
24.539,-1.414,-0.158,60.0
24.593,-1.414,0.523,34.0
24.584,-1.404,0.388,30.0
24.595,-1.396,0.253,35.0
24.549,-1.385,0.116,28.0
24.584,-1.378,-0.018,27.0
24.582,-1.369,-0.152,26.0
83.796,-4.656,1.802,39.0
0.0,0.0,0.0,0.0
65.731,-3.603,0.693,2.0
0.0,0.0,0.0,0.0
0.0,0.0,0.0,0.0
65.633,-3.526,-0.393,6.0
84.351,-4.518,1.832,53.0
86.047,-4.576,1.396,14.0
0.0,0.0,0.0,0.0
0.0,0.0,0.0,0.0
66.043,-3.438,-0.022,0.0
65.618,-3.392,-0.382,4.0
84.896,-4.375,1.857,47.0
86.08,-4.405,1.41,13.0
82.864,-4.209,0.902,8.0
67.15,-3.385,0.355,0.0
0.0,0.0,0.0,0.0
65.561,-3.257,-0.372,4.0
84.707,-4.194,1.864,40.0
83.403,-4.097,1.377,7.0
82.869,-4.04,0.912,4.0
68.769,-3.327,0.372,1.0
31.319,-1.504,-0.002,0.0
31.249,-1.489,-0.174,33.0
84.633,-4.018,1.87,40.0
83.486,-3.931,1.385,3.0
83.091,-3.881,0.921,34.0
31.266,-1.448,0.171,32.0
31.229,-1.435,0.0,40.0
31.22,-1.423,-0.172,59.0
31.355,-1.424,0.694,1.0
31.279,-1.409,0.52,36.0
31.232,-1.395,0.347,36.0
31.226,-1.383,0.172,26.0
28.461,-1.25,0.0,60.0
28.458,-1.239,-0.156,63.0
28.46,-1.234,0.63,71.0
28.448,-1.223,0.473,62.0
28.426,-1.211,0.316,93.0
28.449,-1.202,0.156,130.0
28.445,-1.191,0.0,117.0
28.445,-1.181,-0.156,107.0
28.443,-1.175,0.629,121.0
28.455,-1.164,0.473,150.0
28.451,-1.153,0.315,150.0
28.438,-1.143,0.155,76.0
28.458,-1.133,-0.001,69.0
28.463,-1.122,-0.158,66.0
28.47,-1.116,0.628,68.0
31.272,-1.215,0.517,11.0
31.24,-1.202,0.344,45.0
31.247,-1.19,0.168,44.0
31.278,-1.179,-0.004,46.0
31.352,-1.171,-0.177,40.0
31.31,-1.163,0.688,54.0
31.309,-1.151,0.515,44.0
31.375,-1.142,0.342,4.0
80.535,-2.902,0.425,20.0
81.007,-2.889,-0.02,31.0
56.74,-2.003,-0.328,0.0
31.385,-1.101,0.685,2.0
152.219,-5.285,2.482,5.0
0.0,0.0,0.0,0.0
80.378,-2.73,0.412,21.0
38.742,-1.301,-0.016,31.0
38.715,-1.286,-0.23,37.0
38.666,-1.275,0.838,57.0
38.658,-1.261,0.623,44.0
38.661,-1.246,0.408,62.0
38.66,-1.232,0.19,62.0
38.663,-1.218,-0.023,62.0
38.647,-1.203,-0.238,62.0
38.663,-1.194,0.829,81.0
38.628,-1.178,0.614,72.0
38.624,-1.164,0.399,71.0
38.66,-1.151,0.181,82.0
38.654,-1.137,-0.032,80.0
38.669,-1.123,-0.247,75.0
38.65,-1.113,0.819,92.0
38.63,-1.099,0.604,67.0
38.636,-1.084,0.389,69.0
38.636,-1.07,0.171,69.0
38.653,-1.057,-0.043,64.0
38.685,-1.043,-0.258,50.0
38.674,-1.033,0.808,55.0
38.674,-1.019,0.593,37.0
38.698,-1.005,0.378,35.0
38.738,-0.992,0.159,12.0
38.766,-0.978,-0.055,24.0
0.0,0.0,0.0,0.0
40.421,-0.995,0.832,28.0
40.412,-0.979,0.606,36.0
40.407,-0.964,0.381,38.0
40.414,-0.95,0.152,44.0
40.416,-0.936,-0.072,60.0
40.422,-0.921,-0.297,31.0
40.408,-0.91,0.817,26.0
38.392,-0.85,0.562,11.0
38.383,-0.836,0.348,41.0
38.365,-0.821,0.13,50.0
38.378,-0.808,-0.083,23.0
45.559,-0.943,-0.353,10.0
38.388,-0.784,0.76,4.0
52.967,-1.063,0.754,28.0
52.962,-1.043,0.458,46.0
52.984,-1.025,0.157,35.0
52.985,-1.006,-0.137,14.0
52.907,-0.985,-0.432,50.0
191.703,-3.514,3.714,28.0
193.048,-3.469,2.662,23.0
20.142,-0.355,0.165,2.0
20.139,-0.347,0.05,43.0
20.111,-0.339,-0.061,12.0
52.945,-0.875,-0.458,20.0
59.558,-0.967,1.125,15.0
20.137,-0.319,0.267,8.0
20.113,-0.312,0.155,14.0
20.111,-0.304,0.04,19.0
56.943,-0.843,-0.203,3.0
52.963,-0.765,-0.485,11.0
20.143,-0.285,0.37,11.0
20.12,-0.277,0.257,12.0
20.142,-0.27,0.144,10.0
59.552,-0.779,0.088,62.0
56.269,-0.716,-0.231,1.0
52.825,-0.654,-0.512,11.0
20.142,-0.243,0.358,12.0
20.148,-0.236,0.246,11.0
56.165,-0.638,0.371,7.0
56.134,-0.618,0.051,1.0
56.266,-0.6,-0.263,4.0
52.488,-0.541,-0.54,5.0
20.177,-0.201,0.347,11.0
53.367,-0.515,0.62,8.0
53.376,-0.496,0.32,9.0
53.342,-0.478,0.016,7.0
20.177,-0.173,-0.106,7.0
20.141,-0.166,-0.219,13.0
20.256,-0.161,0.336,25.0
20.186,-0.153,0.221,17.0
20.151,-0.146,0.108,15.0
20.169,-0.139,-0.006,25.0
20.153,-0.132,-0.119,24.0
20.145,-0.125,-0.232,25.0
20.129,-0.119,0.32,26.0
20.115,-0.112,0.207,20.0
20.134,-0.105,0.094,36.0
20.135,-0.098,-0.02,32.0
20.142,-0.091,-0.133,35.0
20.14,-0.084,-0.246,31.0
20.121,-0.078,0.306,30.0
20.119,-0.071,0.193,28.0
20.127,-0.064,0.08,40.0
20.125,-0.057,-0.034,34.0
20.153,-0.051,-0.148,33.0
20.163,-0.044,-0.261,24.0
20.116,-0.037,0.291,28.0
20.121,-0.03,0.178,31.0
20.137,-0.023,0.065,29.0
20.196,-0.017,-0.05,16.0
20.219,-0.01,-0.164,14.0
20.275,-0.003,-0.278,62.0
20.139,0.003,0.276,29.0
20.122,0.009,0.162,26.0
20.225,0.016,0.049,36.0
20.262,0.023,-0.066,150.0
20.259,0.03,-0.18,66.0
20.242,0.036,-0.294,2.0
20.143,0.043,0.26,29.0
20.149,0.05,0.146,27.0
20.208,0.056,0.033,32.0
20.201,0.063,-0.082,29.0
20.199,0.07,-0.196,20.0
20.213,0.077,-0.31,1.0
20.163,0.083,0.243,29.0
20.161,0.09,0.129,24.0
20.183,0.097,0.015,29.0
20.174,0.103,-0.099,36.0
20.176,0.11,-0.213,26.0
20.193,0.116,-0.327,29.0
20.175,0.123,0.225,25.0
20.206,0.13,0.112,33.0
20.213,0.136,-0.001,27.0
20.175,0.143,-0.117,28.0
20.173,0.149,-0.231,33.0
20.18,0.156,-0.345,34.0
20.282,0.163,0.208,25.0
20.314,0.17,0.094,31.0
20.329,0.176,-0.02,25.0
20.201,0.182,-0.136,17.0
20.176,0.188,-0.25,25.0
20.186,0.194,-0.364,33.0
20.313,0.202,0.189,28.0
20.339,0.209,0.075,23.0
20.178,0.214,-0.039,0.0
20.236,0.221,-0.156,0.0
20.197,0.226,-0.269,22.0
20.183,0.232,-0.384,24.0
20.312,0.241,0.17,2.0
99.612,1.215,0.271,5.0
0.0,0.0,0.0,0.0
0.0,0.0,0.0,0.0
0.0,0.0,0.0,0.0
20.215,0.272,-0.405,2.0
99.874,1.379,0.735,1.0
99.686,1.408,0.169,5.0
0.0,0.0,0.0,0.0
0.0,0.0,0.0,0.0
0.0,0.0,0.0,0.0
37.687,0.577,-0.793,0.0
99.822,1.565,0.631,5.0
99.832,1.596,0.065,5.0
0.0,0.0,0.0,0.0
0.0,0.0,0.0,0.0
0.0,0.0,0.0,0.0
37.223,0.638,-0.823,0.0
99.869,1.748,0.526,7.0
100.047,1.78,-0.039,4.0
0.0,0.0,0.0,0.0
0.0,0.0,0.0,0.0
42.974,0.802,-0.752,0.0
0.0,0.0,0.0,0.0
99.964,1.932,0.416,5.0
99.949,1.96,-0.149,2.0
0.0,0.0,0.0,0.0
0.0,0.0,0.0,0.0
42.649,0.873,-0.794,0.0
0.0,0.0,0.0,0.0
100.029,2.113,0.305,5.0
100.166,2.143,-0.262,2.0
0.0,0.0,0.0,0.0
0.0,0.0,0.0,0.0
0.0,0.0,0.0,0.0
32.799,0.739,-0.835,0.0
100.237,2.295,0.19,4.0
0.0,0.0,0.0,0.0
0.0,0.0,0.0,0.0
0.0,0.0,0.0,0.0
0.0,0.0,0.0,0.0
32.055,0.779,-0.854,1.0
100.215,2.47,0.071,3.0
0.0,0.0,0.0,0.0
0.0,0.0,0.0,0.0
0.0,0.0,0.0,0.0
36.9,0.949,-0.816,0.0
31.276,0.814,-0.87,1.0
0.0,0.0,0.0,0.0
0.0,0.0,0.0,0.0
0.0,0.0,0.0,0.0
0.0,0.0,0.0,0.0
35.546,0.976,-0.83,0.0
30.044,0.833,-0.873,0.0
0.0,0.0,0.0,0.0
69.001,1.955,-0.512,6.0
0.0,0.0,0.0,0.0
0.0,0.0,0.0,0.0
33.223,0.968,-0.818,0.0
28.628,0.842,-0.868,0.0
0.0,0.0,0.0,0.0
68.994,2.069,-0.599,3.0
0.0,0.0,0.0,0.0
38.423,1.173,-0.776,0.0
32.493,1.0,-0.841,1.0
28.094,0.872,-0.888,0.0
0.0,0.0,0.0,0.0
0.0,0.0,0.0,0.0
0.0,0.0,0.0,0.0
37.358,1.201,-0.803,0.0
31.881,1.033,-0.867,0.0
26.621,0.87,-0.876,0.0
0.0,0.0,0.0,0.0
0.0,0.0,0.0,0.0
0.0,0.0,0.0,0.0
36.069,1.217,-0.823,0.0
30.193,1.027,-0.862,1.0
25.939,0.889,-0.889,0.0
68.988,2.387,-0.48,5.0
0.0,0.0,0.0,0.0
40.257,1.413,-0.74,0.0
0.0,0.0,0.0,0.0
29.358,1.044,-0.878,0.0
24.925,0.893,-0.887,0.0
69.045,2.495,-0.574,2.0
0.0,0.0,0.0,0.0
38.157,1.397,-0.753,0.0
32.371,1.193,-0.827,1.0
28.453,1.056,-0.89,0.0
24.395,0.911,-0.902,1.0
0.0,0.0,0.0,0.0
0.0,0.0,0.0,0.0
0.0,0.0,0.0,0.0
32.026,1.229,-0.863,0.0
0.0,0.0,0.0,0.0
23.285,0.905,-0.894,1.0
0.0,0.0,0.0,0.0
0.0,0.0,0.0,0.0
0.0,0.0,0.0,0.0
30.179,1.203,-0.856,1.0
25.963,1.041,-0.885,0.0
22.429,0.904,-0.893,2.0
0.0,0.0,0.0,0.0
0.0,0.0,0.0,0.0
0.0,0.0,0.0,0.0
29.454,1.216,-0.877,0.0
20.225,0.839,-0.718,3.0
20.234,0.845,-0.835,8.0
0.0,0.0,0.0,0.0
38.843,1.641,-0.765,0.0
32.693,1.388,-0.831,0.0
20.236,0.863,-0.632,3.0
20.191,0.866,-0.747,159.0
20.235,0.873,-0.865,65.0
0.0,0.0,0.0,0.0
37.061,1.617,-0.784,0.0
31.723,1.391,-0.853,0.0
20.263,0.893,-0.663,150.0
20.187,0.894,-0.776,169.0
20.209,0.899,-0.893,59.0
43.551,1.949,-0.737,0.0
35.567,1.6,-0.806,0.0
29.983,1.355,-0.851,0.0
20.243,0.919,-0.693,152.0
20.241,0.923,-0.809,151.0
20.156,0.924,-0.921,17.0
42.472,1.957,-0.783,0.0
33.852,1.567,-0.818,0.0
28.54,1.327,-0.853,0.0
20.252,0.946,-0.724,62.0
20.223,0.949,-0.839,15.0
20.204,0.952,-0.954,5.0
0.0,0.0,0.0,0.0
32.138,1.529,-0.826,0.0
27.897,1.333,-0.877,0.0
20.141,0.966,-0.751,0.0
20.304,0.978,-0.874,2.0
18.75,0.907,-0.915,0.0
36.694,1.784,-0.789,0.0
30.901,1.509,-0.841,0.0
26.533,1.3,-0.875,0.0
0.0,0.0,0.0,0.0
20.256,1.001,-0.903,14.0
18.272,0.906,-0.919,0.0
34.156,1.702,-0.787,0.0
29.488,1.475,-0.849,0.0
25.411,1.276,-0.877,0.0
21.872,1.102,-0.883,0.0
20.126,1.019,-0.929,0.0
17.657,0.897,-0.916,0.0
33.017,1.684,-0.813,1.0
28.252,1.446,-0.858,0.0
24.345,1.251,-0.879,0.0
21.857,1.127,-0.917,0.0
19.187,0.993,-0.915,0.0
17.273,0.897,-0.924,0.0
31.83,1.659,-0.833,0.0
27.044,1.415,-0.864,0.0
23.699,1.244,-0.893,0.0
0.0,0.0,0.0,0.0
18.511,0.978,-0.913,0.0
16.703,0.886,-0.92,0.0
30.351,1.615,-0.843,0.0
25.95,1.386,-0.87,0.0
21.875,1.172,-0.859,0.0
0.0,0.0,0.0,0.0
17.967,0.969,-0.914,0.0
16.458,0.89,-0.932,0.0
29.139,1.581,-0.855,0.0
24.855,1.353,-0.873,0.0
21.796,1.19,-0.891,1.0
0.0,0.0,0.0,0.0
17.513,0.962,-0.919,0.0
15.936,0.879,-0.928,0.0
28.028,1.55,-0.867,0.0
24.018,1.332,-0.882,0.0
21.714,1.208,-0.922,0.0
0.0,0.0,0.0,0.0
17.075,0.955,-0.924,0.0
15.515,0.871,-0.929,0.0
26.461,1.488,-0.861,0.0
21.92,1.236,-0.84,2.0
20.471,1.158,-0.902,0.0
0.0,0.0,0.0,0.0
16.665,0.948,-0.928,0.0
15.111,0.862,-0.929,1.0
25.383,1.451,-0.867,0.0
21.829,1.251,-0.871,8.0
19.745,1.135,-0.902,0.0
0.0,0.0,0.0,0.0
16.136,0.933,-0.925,0.0
14.923,0.865,-0.942,0.0
24.494,1.423,-0.877,0.0
21.8,1.269,-0.905,6.0
19.328,1.128,-0.914,0.0
0.0,0.0,0.0,0.0
15.765,0.925,-0.929,0.0
14.498,0.853,-0.938,0.0
21.958,1.294,-0.821,0.0
21.399,1.264,-0.923,0.0
0.0,0.0,0.0,0.0
0.0,0.0,0.0,0.0
15.302,0.91,-0.927,0.0
14.113,0.842,-0.937,0.0
21.878,1.307,-0.854,5.0
20.022,1.199,-0.897,0.0
0.0,0.0,0.0,0.0
0.0,0.0,0.0,0.0
15.068,0.908,-0.938,0.0
13.928,0.842,-0.947,0.0
21.819,1.32,-0.888,11.0
19.513,1.183,-0.906,0.0
17.391,1.057,-0.908,0.0
0.0,0.0,0.0,0.0
14.605,0.891,-0.933,0.0
13.507,0.826,-0.941,0.0
21.766,1.333,-0.921,1.0
0.0,0.0,0.0,0.0
0.0,0.0,0.0,0.0
15.367,0.947,-0.918,0.0
14.32,0.884,-0.938,0.0
13.253,0.82,-0.945,0.0
20.79,1.287,-0.914,0.0
0.0,0.0,0.0,0.0
0.0,0.0,0.0,0.0
15.091,0.94,-0.926,0.0
13.975,0.872,-0.938,0.0
12.926,0.808,-0.943,0.0
19.646,1.229,-0.896,0.0
0.0,0.0,0.0,0.0
0.0,0.0,0.0,0.0
14.795,0.931,-0.933,0.0
13.796,0.87,-0.95,0.0
12.665,0.8,-0.945,0.0
19.337,1.221,-0.914,0.0
0.0,0.0,0.0,0.0
0.0,0.0,0.0,0.0
14.433,0.916,-0.933,0.0
13.363,0.85,-0.942,0.0
12.389,0.79,-0.945,0.0
0.0,0.0,0.0,0.0
0.0,0.0,0.0,0.0
0.0,0.0,0.0,0.0
14.137,0.905,-0.937,0.0
13.047,0.837,-0.941,0.0
12.083,0.776,-0.941,0.0
18.166,1.167,-0.917,0.0
0.0,0.0,0.0,0.0
14.945,0.963,-0.927,0.0
13.903,0.897,-0.945,0.0
12.811,0.828,-0.945,0.0
11.852,0.767,-0.943,0.0
17.666,1.143,-0.921,0.0
0.0,0.0,0.0,0.0
14.572,0.946,-0.928,0.0
13.41,0.872,-0.933,0.0
12.49,0.813,-0.942,0.0
11.633,0.759,-0.945,0.0
0.0,0.0,0.0,0.0
0.0,0.0,0.0,0.0
14.236,0.93,-0.93,0.0
13.152,0.86,-0.937,0.0
12.254,0.803,-0.944,0.0
11.371,0.746,-0.942,0.0
16.678,1.093,-0.924,0.0
15.077,0.989,-0.922,0.0
14.017,0.921,-0.938,0.0
12.951,0.852,-0.943,0.0
11.984,0.789,-0.942,0.0
11.197,0.739,-0.946,0.0
16.2,1.067,-0.923,0.0
14.86,0.98,-0.933,0.0
13.834,0.914,-0.948,0.0
12.617,0.834,-0.939,0.0
11.754,0.778,-0.943,0.0
11.05,0.733,-0.951,0.0
0.0,0.0,0.0,0.0
14.503,0.961,-0.934,0.0
13.375,0.887,-0.938,0.0
12.366,0.821,-0.94,0.0
11.523,0.766,-0.943,0.0
10.758,0.716,-0.943,0.0
15.253,1.014,-0.918,0.0
14.129,0.94,-0.932,0.0
13.137,0.875,-0.943,0.0
12.121,0.808,-0.941,0.0
11.32,0.755,-0.945,0.0
10.565,0.706,-0.943,0.0
15.025,1.002,-0.928,0.0
13.876,0.926,-0.937,0.0
12.818,0.856,-0.94,0.0
11.878,0.794,-0.941,0.0
11.066,0.741,-0.941,0.0
10.415,0.698,-0.946,0.0
14.758,0.987,-0.935,0.0
13.672,0.915,-0.945,0.0
12.575,0.842,-0.942,0.0
11.638,0.78,-0.94,0.0
11.038,0.741,-0.956,0.0
10.248,0.688,-0.947,0.0
14.562,0.976,-0.945,0.0
13.246,0.888,-0.936,0.0
12.309,0.826,-0.941,0.0
11.431,0.768,-0.941,0.0
10.772,0.724,-0.95,0.0
10.093,0.679,-0.949,0.0
14.014,0.94,-0.931,0.0
13.033,0.875,-0.941,0.0
12.037,0.809,-0.939,0.0
11.23,0.755,-0.942,0.0
10.525,0.708,-0.944,0.0
9.918,0.668,-0.947,0.0
13.866,0.931,-0.942,0.0
12.739,0.856,-0.939,0.0
11.819,0.795,-0.94,0.0
11.064,0.744,-0.945,0.0
10.352,0.697,-0.944,0.0
9.76,0.657,-0.947,0.0
13.517,0.908,-0.939,0.0
12.487,0.839,-0.94,0.0
11.543,0.776,-0.935,0.0
10.957,0.737,-0.952,0.0
10.203,0.687,-0.946,0.0
9.584,0.646,-0.944,0.0
13.222,0.888,-0.938,0.0
12.243,0.822,-0.939,0.0
11.4,0.766,-0.941,0.0
10.668,0.717,-0.943,0.0
10.057,0.676,-0.948,0.0
9.465,0.637,-0.947,0.0
12.955,0.869,-0.938,0.0
11.979,0.804,-0.937,0.0
11.229,0.754,-0.943,0.0
10.463,0.703,-0.94,0.0
9.876,0.663,-0.945,0.0
9.344,0.628,-0.949,0.0
12.681,0.849,-0.937,0.0
11.783,0.789,-0.939,0.0
10.993,0.737,-0.939,0.0
10.347,0.693,-0.945,0.0
9.725,0.652,-0.945,0.0
9.19,0.616,-0.946,0.0
12.438,0.831,-0.937,0.0
11.572,0.773,-0.938,0.0
11.027,0.737,-0.958,0.0
10.177,0.68,-0.944,0.0
9.574,0.64,-0.944,0.0
9.049,0.605,-0.945,0.0
12.211,0.814,-0.937,0.0
11.38,0.758,-0.939,0.0
10.623,0.708,-0.938,0.0
10.022,0.668,-0.944,0.0
9.44,0.629,-0.944,0.0
8.916,0.594,-0.944,0.0
11.989,0.796,-0.937,0.0
11.187,0.743,-0.939,0.0
10.494,0.697,-0.941,0.0
9.895,0.657,-0.946,0.0
9.332,0.62,-0.946,0.0
8.808,0.585,-0.944,0.0
11.824,0.782,-0.94,0.0
11.028,0.729,-0.94,0.0
10.344,0.684,-0.942,0.0
9.743,0.644,-0.945,0.0
9.17,0.606,-0.942,0.0
8.685,0.574,-0.943,0.0
11.615,0.765,-0.939,0.0
10.902,0.718,-0.944,0.0
10.219,0.673,-0.944,0.0
9.603,0.632,-0.944,0.0
9.075,0.597,-0.945,0.0
8.607,0.566,-0.946,0.0
11.451,0.75,-0.941,0.0
10.702,0.701,-0.941,0.0
10.097,0.661,-0.946,0.0
9.456,0.619,-0.942,0.0
8.943,0.585,-0.943,0.0
8.484,0.555,-0.944,0.0
11.231,0.732,-0.937,0.0
10.493,0.683,-0.936,0.0
9.933,0.646,-0.944,0.0
9.355,0.609,-0.944,0.0
8.799,0.572,-0.939,0.0
8.402,0.546,-0.945,0.0
11.133,0.721,-0.943,0.0
10.398,0.673,-0.941,0.0
9.816,0.635,-0.945,0.0
9.242,0.598,-0.944,0.0
8.769,0.567,-0.947,0.0
8.302,0.536,-0.945,0.0
10.932,0.703,-0.94,0.0
10.266,0.659,-0.942,0.0
9.671,0.621,-0.943,0.0
9.123,0.585,-0.943,0.0
8.628,0.554,-0.942,0.0
8.212,0.527,-0.945,0.0
10.781,0.688,-0.94,0.0
10.171,0.648,-0.945,0.0
9.553,0.609,-0.943,0.0
9.0,0.573,-0.941,0.0
8.555,0.545,-0.944,0.0
8.121,0.517,-0.944,0.0
10.668,0.675,-0.942,0.0
10.035,0.635,-0.944,0.0
9.432,0.596,-0.942,0.0
8.87,0.56,-0.938,0.0
8.439,0.533,-0.942,0.0
8.044,0.507,-0.944,0.0
10.476,0.657,-0.937,0.0
9.914,0.621,-0.944,0.0
9.28,0.581,-0.938,0.0
8.801,0.551,-0.941,0.0
8.361,0.523,-0.942,0.0
7.967,0.498,-0.944,0.0
10.39,0.646,-0.941,0.0
9.81,0.609,-0.945,0.0
9.238,0.573,-0.944,0.0
8.7,0.539,-0.94,0.0
8.309,0.515,-0.946,0.0
7.897,0.489,-0.945,0.0
10.286,0.633,-0.943,0.0
9.67,0.594,-0.942,0.0
9.128,0.56,-0.942,0.0
8.64,0.53,-0.943,0.0
8.193,0.502,-0.941,0.0
7.829,0.479,-0.945,0.0
10.152,0.618,-0.941,0.0
9.557,0.581,-0.941,0.0
9.038,0.549,-0.942,0.0
8.532,0.518,-0.94,0.0
8.117,0.492,-0.941,0.0
7.76,0.47,-0.945,0.0
10.066,0.606,-0.944,0.0
9.482,0.57,-0.944,0.0
8.922,0.536,-0.939,0.0
8.436,0.506,-0.938,0.0
8.074,0.484,-0.944,0.0
7.715,0.462,-0.947,0.0
9.954,0.592,-0.943,0.0
9.369,0.557,-0.941,0.0
8.827,0.524,-0.938,0.0
8.377,0.496,-0.939,0.0
7.995,0.473,-0.943,0.0
7.64,0.452,-0.945,0.0
9.848,0.578,-0.942,0.0
9.266,0.544,-0.94,0.0
8.75,0.513,-0.938,0.0
8.347,0.488,-0.944,0.0
7.942,0.464,-0.944,0.0
7.588,0.443,-0.946,0.0
9.759,0.566,-0.943,0.0
9.212,0.533,-0.943,0.0
8.68,0.502,-0.938,0.0
8.241,0.476,-0.939,0.0
7.858,0.453,-0.941,0.0
7.528,0.433,-0.945,0.0
9.67,0.553,-0.943,0.0
9.127,0.521,-0.942,0.0
8.635,0.492,-0.941,0.0
8.223,0.468,-0.944,0.0
7.802,0.443,-0.941,0.0
7.513,0.426,-0.95,0.0
9.579,0.54,-0.942,0.0
9.059,0.51,-0.943,0.0
8.538,0.48,-0.937,0.0
8.152,0.457,-0.943,0.0
7.785,0.436,-0.945,0.0
7.453,0.417,-0.948,0.0
9.515,0.528,-0.943,0.0
8.955,0.496,-0.939,0.0
8.498,0.47,-0.94,0.0
8.079,0.446,-0.941,0.0
7.736,0.426,-0.945,0.0
7.416,0.408,-0.949,0.0
9.44,0.516,-0.943,0.0
8.896,0.485,-0.939,0.0
8.435,0.459,-0.939,0.0
8.041,0.437,-0.942,0.0
7.689,0.417,-0.946,0.0
7.36,0.398,-0.948,0.0
9.363,0.503,-0.942,0.0
8.816,0.473,-0.937,0.0
8.418,0.45,-0.943,0.0
7.999,0.427,-0.943,0.0
7.67,0.409,-0.949,0.0
7.339,0.39,-0.95,0.0
9.304,0.491,-0.942,0.0
8.772,0.462,-0.939,0.0
8.383,0.441,-0.945,0.0
7.951,0.417,-0.943,0.0
7.609,0.398,-0.946,0.0
7.294,0.381,-0.949,0.0
9.19,0.477,-0.937,0.0
8.72,0.451,-0.939,0.0
8.302,0.429,-0.941,0.0
7.9,0.407,-0.942,0.0
7.57,0.389,-0.946,0.0
7.252,0.372,-0.948,0.0
9.198,0.468,-0.943,0.0
8.685,0.441,-0.94,0.0
8.249,0.418,-0.94,0.0
7.831,0.396,-0.938,0.0
7.53,0.38,-0.945,0.0
7.232,0.364,-0.95,0.0
9.133,0.456,-0.941,0.0
8.634,0.43,-0.939,0.0
8.23,0.409,-0.942,0.0
7.82,0.387,-0.941,0.0
7.485,0.37,-0.944,0.0
7.224,0.356,-0.952,0.0
9.034,0.442,-0.936,0.0
8.577,0.418,-0.937,0.0
8.194,0.398,-0.942,0.0
7.788,0.378,-0.941,0.0
7.495,0.363,-0.949,0.0
7.182,0.347,-0.95,0.0
9.028,0.432,-0.94,0.0
8.546,0.408,-0.938,0.0
8.175,0.389,-0.944,0.0
7.791,0.37,-0.945,0.0
7.468,0.353,-0.949,0.0
7.139,0.337,-0.948,0.0
8.979,0.42,-0.938,0.0
8.547,0.399,-0.942,0.0
8.133,0.379,-0.943,0.0
7.733,0.359,-0.941,0.0
7.447,0.345,-0.949,0.0
7.146,0.33,-0.952,0.0
8.944,0.409,-0.938,0.0
8.519,0.389,-0.942,0.0
8.09,0.368,-0.941,0.0
7.68,0.348,-0.938,0.0
7.432,0.336,-0.95,0.0
7.095,0.32,-0.948,0.0
8.931,0.399,-0.94,0.0
8.468,0.377,-0.939,0.0
8.094,0.359,-0.944,0.0
7.677,0.34,-0.94,0.0
7.387,0.326,-0.947,0.0
7.1,0.312,-0.95,0.0
8.894,0.388,-0.939,0.0
8.462,0.368,-0.941,0.0
8.039,0.348,-0.94,0.0
7.664,0.331,-0.94,0.0
7.384,0.317,-0.948,0.0
7.056,0.302,-0.946,0.0
8.866,0.377,-0.938,0.0
8.424,0.357,-0.939,0.0
8.017,0.338,-0.939,0.0
7.691,0.323,-0.946,0.0
7.403,0.31,-0.952,0.0
7.082,0.295,-0.952,0.0
8.843,0.366,-0.938,0.0
8.382,0.345,-0.936,0.0
7.995,0.328,-0.938,0.0
7.675,0.314,-0.945,0.0
7.316,0.298,-0.943,0.0
7.067,0.287,-0.951,0.0
8.855,0.356,-0.94,0.0
8.4,0.337,-0.94,0.0
8.017,0.32,-0.942,0.0
7.653,0.304,-0.944,0.0
7.34,0.291,-0.947,0.0
7.038,0.278,-0.948,0.0
8.836,0.346,-0.939,0.0
8.395,0.327,-0.94,0.0
7.994,0.31,-0.94,0.0
7.625,0.294,-0.941,0.0
7.335,0.282,-0.947,0.0
7.082,0.271,-0.955,0.0
8.828,0.335,-0.939,0.0
8.371,0.316,-0.938,0.0
8.015,0.301,-0.943,0.0
7.637,0.286,-0.943,0.0
7.354,0.274,-0.95,0.0
7.071,0.262,-0.953,0.0
8.813,0.324,-0.938,0.0
8.426,0.309,-0.944,0.0
8.003,0.292,-0.942,0.0
7.628,0.277,-0.942,0.0
7.342,0.265,-0.948,0.0
7.012,0.252,-0.945,0.0
8.821,0.314,-0.939,0.0
8.425,0.299,-0.944,0.0
8.023,0.283,-0.944,0.0
7.639,0.268,-0.943,0.0
7.334,0.256,-0.947,0.0
7.053,0.245,-0.951,0.0
8.816,0.304,-0.938,0.0
8.424,0.289,-0.943,0.0
7.998,0.273,-0.941,0.0
7.621,0.258,-0.94,0.0
7.316,0.247,-0.944,0.0
7.045,0.236,-0.949,0.0
8.842,0.294,-0.94,0.0
8.398,0.278,-0.94,0.0
8.034,0.264,-0.944,0.0
7.657,0.251,-0.944,0.0
7.342,0.239,-0.946,0.0
7.087,0.229,-0.953,0.0
8.846,0.284,-0.939,0.0
8.41,0.268,-0.94,0.0
8.023,0.254,-0.941,0.0
7.639,0.241,-0.94,0.0
7.37,0.231,-0.949,0.0
7.079,0.221,-0.951,0.0
8.883,0.274,-0.941,0.0
8.439,0.259,-0.941,0.0
8.029,0.245,-0.94,0.0
7.676,0.233,-0.943,0.0
7.371,0.222,-0.947,0.0
7.095,0.213,-0.952,0.0
8.866,0.263,-0.937,0.0
8.442,0.249,-0.939,0.0
8.038,0.236,-0.939,0.0
7.672,0.223,-0.94,0.0
7.384,0.214,-0.947,0.0
7.111,0.204,-0.952,0.0
8.923,0.254,-0.941,0.0
8.497,0.241,-0.943,0.0
8.058,0.227,-0.939,0.0
7.693,0.215,-0.941,0.0
7.38,0.205,-0.944,0.0
7.124,0.196,-0.951,0.0
8.955,0.244,-0.941,0.0
8.502,0.23,-0.941,0.0
8.075,0.217,-0.938,0.0
7.732,0.207,-0.943,0.0
7.45,0.198,-0.95,0.0
7.153,0.188,-0.952,0.0
8.983,0.234,-0.941,0.0
8.572,0.222,-0.945,0.0
8.156,0.21,-0.945,0.0
7.78,0.198,-0.945,0.0
7.438,0.188,-0.945,0.0
7.17,0.18,-0.952,0.0
9.009,0.224,-0.939,0.0
8.563,0.212,-0.94,0.0
8.154,0.2,-0.941,0.0
7.767,0.189,-0.94,0.0
7.5,0.181,-0.95,0.0
7.157,0.171,-0.946,0.0
9.07,0.215,-0.942,0.0
8.604,0.202,-0.941,0.0
8.18,0.191,-0.94,0.0
7.8,0.18,-0.94,0.0
7.476,0.171,-0.943,0.0
7.2,0.164,-0.949,0.0
9.098,0.205,-0.94,0.0
8.625,0.193,-0.939,0.0
8.205,0.182,-0.938,0.0
7.81,0.171,-0.938,0.0
7.525,0.164,-0.945,0.0
7.252,0.156,-0.951,0.0
9.128,0.195,-0.938,0.0
8.664,0.183,-0.938,0.0
8.27,0.173,-0.941,0.0
7.891,0.164,-0.943,0.0
7.589,0.156,-0.949,0.0
7.271,0.148,-0.949,0.0
9.257,0.187,-0.946,0.0
8.748,0.175,-0.942,0.0
8.303,0.164,-0.94,0.0
7.921,0.155,-0.941,0.0
7.591,0.147,-0.944,0.0
7.343,0.141,-0.954,0.0
9.295,0.177,-0.943,0.0
8.762,0.165,-0.938,0.0
8.405,0.157,-0.946,0.0
7.961,0.147,-0.941,0.0
7.664,0.14,-0.948,0.0
7.308,0.132,-0.945,0.0
9.344,0.167,-0.942,0.0
8.82,0.156,-0.938,0.0
8.414,0.147,-0.941,0.0
7.983,0.138,-0.938,0.0
7.711,0.132,-0.948,0.0
7.343,0.124,-0.944,0.0
9.397,0.157,-0.94,0.0
8.921,0.148,-0.942,0.0
8.451,0.138,-0.939,0.0
7.992,0.129,-0.933,0.0
7.732,0.123,-0.945,0.0
7.432,0.117,-0.949,0.0
9.539,0.149,-0.947,0.0
8.97,0.138,-0.94,0.0
8.517,0.13,-0.939,0.0
8.113,0.122,-0.94,0.0
7.804,0.116,-0.947,0.0
7.482,0.109,-0.95,0.0
9.608,0.139,-0.946,0.0
9.062,0.13,-0.942,0.0
8.609,0.121,-0.942,0.0
8.15,0.113,-0.937,0.0
7.835,0.107,-0.944,0.0
7.487,0.101,-0.944,0.0
9.635,0.129,-0.941,0.0
9.154,0.121,-0.944,0.0
8.659,0.112,-0.94,0.0
8.325,0.107,-0.95,0.0
7.895,0.099,-0.945,0.0
7.553,0.094,-0.945,0.0
9.779,0.12,-0.946,0.0
9.24,0.112,-0.944,0.0
8.732,0.104,-0.94,0.0
8.328,0.097,-0.943,0.0
7.982,0.092,-0.947,0.0
7.642,0.086,-0.949,0.0
9.864,0.11,-0.945,0.0
9.331,0.103,-0.944,0.0
8.815,0.095,-0.94,0.0
8.411,0.089,-0.944,0.0
7.995,0.083,-0.941,0.0
7.661,0.078,-0.944,0.0
9.96,0.101,-0.944,0.0
9.409,0.093,-0.943,0.0
8.917,0.087,-0.942,0.0
8.445,0.08,-0.939,0.0
8.102,0.076,-0.945,0.0
7.762,0.071,-0.948,0.0
10.117,0.092,-0.948,0.0
9.541,0.085,-0.946,0.0
8.971,0.078,-0.938,0.0
8.525,0.072,-0.939,0.0
8.161,0.068,-0.943,0.0
7.8,0.063,-0.944,0.0
10.225,0.082,-0.948,0.0
9.658,0.075,-0.947,0.0
9.091,0.069,-0.941,0.0
8.665,0.064,-0.945,0.0
8.284,0.06,-0.948,0.0
7.879,0.055,-0.945,0.0
10.346,0.072,-0.947,0.0
9.788,0.067,-0.949,0.0
9.242,0.061,-0.946,0.0
8.737,0.056,-0.943,0.0
8.333,0.052,-0.944,0.0
7.964,0.048,-0.946,0.0
10.456,0.063,-0.945,0.0
9.881,0.057,-0.946,0.0
9.339,0.052,-0.945,0.0
8.825,0.048,-0.942,0.0
8.422,0.044,-0.944,0.0
8.044,0.041,-0.946,0.0
10.614,0.053,-0.947,0.0
9.986,0.048,-0.944,0.0
9.438,0.044,-0.944,0.0
8.916,0.04,-0.94,0.0
8.507,0.036,-0.943,0.0
8.102,0.033,-0.942,0.0
10.758,0.043,-0.946,0.0
10.166,0.039,-0.949,0.0
9.602,0.035,-0.948,0.0
9.052,0.031,-0.943,0.0
8.599,0.028,-0.943,0.0
8.229,0.026,-0.947,0.0
10.989,0.034,-0.953,0.0
10.273,0.03,-0.946,0.0
9.728,0.027,-0.948,0.0
9.205,0.023,-0.947,0.0
8.734,0.021,-0.946,0.0
8.301,0.018,-0.944,0.0
20.249,0.044,-1.729,0.0
10.416,0.021,-0.945,0.0
9.833,0.018,-0.945,0.0
9.333,0.015,-0.948,0.0
8.828,0.013,-0.944,0.0
8.373,0.011,-0.94,0.0
11.256,0.014,-0.946,0.0
10.587,0.012,-0.946,0.0
9.998,0.009,-0.947,0.0
9.458,0.007,-0.948,0.0
8.964,0.005,-0.946,0.0
8.505,0.003,-0.944,0.0
11.455,0.005,-0.947,0.0
10.78,0.002,-0.948,0.0
10.19,0.0,-0.951,0.0
9.633,0.0,-0.952,0.0
9.122,-0.002,-0.95,0.0
8.618,-0.003,-0.944,0.0
11.658,-0.004,-0.947,0.0
10.327,-0.007,-0.949,0.0
9.739,-0.008,-0.948,0.0
9.239,-0.009,-0.949,0.0
8.751,-0.01,-0.946,0.0
11.934,-0.014,-0.952,0.0
11.172,-0.015,-0.951,0.0
10.491,-0.016,-0.949,0.0
9.891,-0.016,-0.948,0.0
9.372,-0.017,-0.948,0.0
8.877,-0.018,-0.946,0.0
12.18,-0.024,-0.953,0.0
11.337,-0.024,-0.948,0.0
10.648,-0.024,-0.947,0.0
10.067,-0.025,-0.95,0.0
9.514,-0.025,-0.948,0.0
9.027,-0.025,-0.948,0.0
12.426,-0.034,-0.954,0.0
11.543,-0.033,-0.948,0.0
20.077,-0.062,-1.755,0.0
10.192,-0.033,-0.946,0.0
9.686,-0.032,-0.95,0.0
9.158,-0.032,-0.948,0.0
12.662,-0.044,-0.953,0.0
11.793,-0.043,-0.95,0.0
11.014,-0.042,-0.945,0.0
10.4,-0.041,-0.949,0.0
9.872,-0.04,-0.953,0.0
9.334,-0.039,-0.951,0.0
12.956,-0.054,-0.954,0.0
12.118,-0.052,-0.957,0.0
11.276,-0.05,-0.95,0.0
10.57,-0.049,-0.947,0.0
10.043,-0.048,-0.953,0.0
9.448,-0.046,-0.947,0.0
13.206,-0.064,-0.951,0.0
