X,Y,Z,Reflectivity
11.172,0.099,-0.947,0.0
10.41,0.091,-0.943,0.0
9.794,0.085,-0.944,0.0
9.222,0.079,-0.943,0.0
8.709,0.074,-0.942,0.0
8.244,0.069,-0.94,0.0
20.267,0.164,-1.746,0.0
10.252,0.082,-0.943,0.0
9.645,0.076,-0.943,0.0
9.087,0.071,-0.942,0.0
8.575,0.066,-0.939,0.0
8.146,0.062,-0.94,0.0
10.75,0.078,-0.941,0.0
10.054,0.072,-0.938,0.0
9.512,0.067,-0.943,0.0
8.925,0.062,-0.938,0.0
8.437,0.058,-0.936,0.0
8.071,0.055,-0.942,0.0
10.57,0.069,-0.939,0.0
9.953,0.063,-0.942,0.0
9.387,0.059,-0.943,0.0
8.822,0.054,-0.939,0.0
8.38,0.051,-0.94,0.0
7.963,0.047,-0.94,0.0
10.439,0.059,-0.941,0.0
9.802,0.054,-0.941,0.0
9.253,0.05,-0.942,0.0
8.707,0.046,-0.938,0.0
8.278,0.043,-0.94,0.0
7.933,0.04,-0.947,0.0
10.324,0.049,-0.944,0.0
9.715,0.045,-0.945,0.0
9.145,0.041,-0.942,0.0
8.615,0.038,-0.939,0.0
8.183,0.035,-0.939,0.0
7.831,0.033,-0.945,0.0
10.201,0.04,-0.945,0.0
9.586,0.036,-0.944,0.0
8.994,0.033,-0.938,0.0
8.501,0.03,-0.936,0.0
8.112,0.027,-0.941,0.0
7.754,0.025,-0.945,0.0
10.028,0.03,-0.941,0.0
9.474,0.027,-0.944,0.0
8.877,0.024,-0.936,0.0
8.4,0.022,-0.935,0.0
8.01,0.02,-0.938,0.0
7.656,0.018,-0.942,0.0
9.888,0.02,-0.939,0.0
9.331,0.018,-0.94,0.0
8.78,0.015,-0.936,0.0
8.333,0.014,-0.937,0.0
7.934,0.012,-0.939,0.0
7.585,0.01,-0.942,0.0
9.799,0.011,-0.942,0.0
9.231,0.009,-0.941,0.0
8.701,0.007,-0.937,0.0
8.262,0.005,-0.939,0.0
7.848,0.004,-0.937,0.0
7.534,0.003,-0.944,0.0
9.688,0.001,-0.942,0.0
9.132,0.0,-0.94,0.0
8.629,-0.001,-0.939,0.0
8.187,-0.002,-0.939,0.0
7.842,-0.003,-0.945,0.0
7.483,-0.004,-0.945,0.0
9.589,-0.008,-0.942,0.0
9.008,-0.008,-0.937,0.0
8.544,-0.009,-0.938,0.0
8.1,-0.01,-0.937,0.0
7.748,-0.01,-0.941,0.0
7.44,-0.011,-0.947,0.0
9.499,-0.017,-0.942,0.0
8.912,-0.017,-0.936,0.0
8.455,-0.018,-0.936,0.0
8.079,-0.018,-0.942,0.0
7.697,-0.018,-0.942,0.0
7.364,-0.019,-0.945,0.0
9.412,-0.027,-0.943,0.0
8.846,-0.026,-0.937,0.0
8.39,-0.026,-0.937,0.0
7.976,-0.026,-0.938,0.0
7.668,-0.026,-0.946,0.0
7.326,-0.026,-0.947,0.0
9.299,-0.036,-0.94,0.0
8.774,-0.035,-0.937,0.0
8.331,-0.035,-0.938,0.0
7.891,-0.034,-0.935,0.0
7.607,-0.034,-0.945,0.0
7.246,-0.034,-0.943,0.0
9.191,-0.045,-0.937,0.0
8.716,-0.044,-0.939,0.0
8.243,-0.043,-0.935,0.0
7.84,-0.042,-0.935,0.0
7.543,-0.042,-0.944,0.0
7.239,-0.041,-0.948,0.0
9.128,-0.055,-0.938,0.0
8.652,-0.053,-0.939,0.0
8.199,-0.052,-0.937,0.0
7.802,-0.05,-0.937,0.0
7.477,-0.05,-0.941,0.0
7.188,-0.049,-0.947,0.0
9.052,-0.064,-0.937,0.0
8.601,-0.062,-0.94,0.0
8.185,-0.061,-0.942,0.0
7.763,-0.059,-0.938,0.0
7.466,-0.058,-0.946,0.0
7.155,-0.057,-0.948,0.0
8.992,-0.074,-0.938,0.0
8.516,-0.071,-0.937,0.0
8.093,-0.069,-0.937,0.0
7.74,-0.067,-0.941,0.0
7.369,-0.065,-0.939,0.0
7.13,-0.064,-0.95,0.0
8.94,-0.083,-0.938,0.0
8.443,-0.08,-0.935,0.0
8.062,-0.077,-0.939,0.0
7.643,-0.075,-0.935,0.0
7.395,-0.074,-0.947,0.0
7.107,-0.072,-0.951,0.0
8.914,-0.093,-0.941,0.0
8.406,-0.089,-0.936,0.0
8.046,-0.086,-0.942,0.0
7.656,-0.084,-0.941,0.0
7.335,-0.081,-0.944,0.0
7.019,-0.079,-0.944,0.0
8.819,-0.101,-0.937,0.0
8.375,-0.098,-0.937,0.0
7.964,-0.094,-0.937,0.0
7.619,-0.092,-0.941,0.0
7.295,-0.089,-0.943,0.0
7.008,-0.087,-0.946,0.0
8.762,-0.111,-0.935,0.0
8.348,-0.107,-0.939,0.0
7.928,-0.103,-0.937,0.0
7.591,-0.1,-0.942,0.0
7.286,-0.097,-0.946,0.0
6.993,-0.095,-0.948,0.0
8.749,-0.121,-0.939,0.0
8.291,-0.116,-0.937,0.0
7.896,-0.112,-0.937,0.0
7.562,-0.108,-0.942,0.0
7.255,-0.105,-0.945,0.0
6.99,-0.103,-0.951,0.0
8.694,-0.13,-0.937,0.0
8.266,-0.125,-0.938,0.0
7.897,-0.121,-0.941,0.0
7.52,-0.117,-0.94,0.0
7.263,-0.114,-0.949,0.0
6.966,-0.111,-0.951,0.0
8.647,-0.139,-0.935,0.0
8.224,-0.134,-0.936,0.0
7.862,-0.129,-0.94,0.0
7.505,-0.125,-0.941,0.0
7.218,-0.122,-0.946,0.0
6.931,-0.118,-0.949,0.0
8.615,-0.149,-0.935,0.0
8.206,-0.143,-0.937,0.0
7.829,-0.138,-0.939,0.0
7.473,-0.133,-0.94,0.0
7.191,-0.13,-0.945,0.0
6.904,-0.126,-0.947,0.0
8.6,-0.158,-0.936,0.0
8.165,-0.152,-0.935,0.0
7.803,-0.147,-0.938,0.0
7.466,-0.142,-0.941,0.0
7.184,-0.138,-0.947,0.0
6.888,-0.134,-0.947,0.0
8.572,-0.168,-0.936,0.0
8.169,-0.162,-0.938,0.0
7.809,-0.156,-0.941,0.0
7.459,-0.151,-0.942,0.0
7.152,-0.146,-0.944,0.0
6.896,-0.142,-0.95,0.0
8.56,-0.178,-0.937,0.0
8.144,-0.171,-0.937,0.0
7.759,-0.164,-0.937,0.0
7.424,-0.158,-0.939,0.0
7.18,-0.155,-0.95,0.0
6.904,-0.15,-0.953,0.0
8.545,-0.187,-0.936,0.0
8.127,-0.18,-0.937,0.0
7.749,-0.173,-0.937,0.0
7.416,-0.167,-0.94,0.0
7.147,-0.162,-0.946,0.0
6.878,-0.158,-0.95,0.0
8.534,-0.197,-0.937,0.0
8.119,-0.189,-0.937,0.0
7.763,-0.182,-0.94,0.0
7.418,-0.176,-0.941,0.0
7.161,-0.171,-0.949,0.0
6.877,-0.166,-0.951,0.0
8.545,-0.207,-0.939,0.0
8.095,-0.198,-0.935,0.0
7.749,-0.191,-0.939,0.0
7.435,-0.185,-0.944,0.0
7.134,-0.179,-0.946,0.0
6.857,-0.173,-0.948,0.0
8.52,-0.216,-0.936,0.0
8.132,-0.208,-0.939,0.0
7.728,-0.199,-0.937,0.0
7.425,-0.193,-0.943,0.0
7.166,-0.188,-0.95,0.0
6.87,-0.181,-0.95,0.0
8.522,-0.226,-0.937,0.0
8.103,-0.217,-0.936,0.0
7.738,-0.208,-0.938,0.0
7.461,-0.203,-0.947,0.0
7.143,-0.195,-0.947,0.0
6.88,-0.19,-0.951,0.0
8.52,-0.236,-0.936,0.0
8.098,-0.226,-0.935,0.0
7.754,-0.218,-0.939,0.0
7.431,-0.21,-0.943,0.0
7.123,-0.203,-0.944,0.0
6.858,-0.197,-0.948,0.0
8.536,-0.246,-0.937,0.0
8.131,-0.236,-0.938,0.0
7.753,-0.227,-0.938,0.0
7.434,-0.219,-0.942,0.0
7.188,-0.213,-0.952,0.0
6.887,-0.206,-0.951,0.0
8.535,-0.255,-0.936,0.0
8.133,-0.245,-0.937,0.0
7.747,-0.235,-0.936,0.0
7.449,-0.228,-0.943,0.0
7.166,-0.221,-0.948,0.0
6.847,-0.212,-0.944,0.0
8.571,-0.266,-0.938,0.0
8.157,-0.255,-0.939,0.0
7.775,-0.245,-0.938,0.0
7.473,-0.237,-0.945,0.0
7.156,-0.228,-0.945,0.0
6.871,-0.221,-0.946,0.0
8.606,-0.277,-0.94,0.0
8.156,-0.264,-0.937,0.0
7.77,-0.253,-0.936,0.0
7.483,-0.245,-0.944,0.0
7.199,-0.238,-0.949,0.0
6.918,-0.23,-0.951,0.0
8.615,-0.287,-0.939,0.0
8.199,-0.274,-0.939,0.0
7.809,-0.263,-0.938,0.0
7.474,-0.253,-0.941,0.0
7.188,-0.245,-0.945,0.0
6.916,-0.237,-0.948,0.0
8.638,-0.297,-0.939,0.0
8.2,-0.283,-0.937,0.0
7.838,-0.273,-0.939,0.0
7.503,-0.262,-0.942,0.0
7.201,-0.253,-0.944,0.0
6.962,-0.246,-0.952,0.0
8.656,-0.307,-0.938,0.0
8.248,-0.294,-0.939,0.0
7.859,-0.282,-0.939,0.0
7.521,-0.271,-0.941,0.0
7.208,-0.261,-0.943,0.0
6.97,-0.254,-0.951,0.0
8.715,-0.318,-0.941,0.0
8.28,-0.304,-0.94,0.0
7.885,-0.291,-0.939,0.0
7.553,-0.28,-0.942,0.0
7.254,-0.271,-0.945,0.0
6.988,-0.262,-0.95,0.0
8.747,-0.328,-0.94,0.0
8.29,-0.313,-0.937,0.0
7.905,-0.3,-0.938,0.0
7.566,-0.289,-0.94,0.0
7.273,-0.279,-0.944,0.0
7.017,-0.271,-0.951,0.0
8.793,-0.339,-0.941,0.0
8.346,-0.324,-0.939,0.0
7.953,-0.31,-0.939,0.0
7.596,-0.297,-0.94,0.0
7.306,-0.288,-0.945,0.0
7.049,-0.279,-0.951,0.0
8.85,-0.35,-0.943,0.0
8.406,-0.334,-0.942,0.0
7.961,-0.318,-0.936,0.0
7.643,-0.307,-0.942,0.0
7.344,-0.296,-0.946,0.0
7.076,-0.287,-0.951,0.0
8.882,-0.36,-0.941,0.0
8.463,-0.345,-0.943,0.0
8.02,-0.328,-0.938,0.0
7.651,-0.315,-0.938,0.0
7.373,-0.305,-0.945,0.0
7.095,-0.295,-0.949,0.0
8.954,-0.372,-0.943,0.0
8.506,-0.355,-0.943,0.0
8.066,-0.338,-0.938,0.0
7.692,-0.324,-0.938,0.0
7.418,-0.314,-0.946,0.0
7.123,-0.303,-0.948,0.0
9.017,-0.383,-0.944,0.0
8.555,-0.365,-0.942,0.0
8.14,-0.349,-0.942,0.0
7.74,-0.334,-0.939,0.0
7.444,-0.322,-0.944,0.0
7.144,-0.311,-0.946,0.0
9.095,-0.395,-0.946,0.0
8.62,-0.376,-0.944,0.0
8.162,-0.358,-0.938,0.0
7.794,-0.343,-0.94,0.0
7.486,-0.331,-0.944,0.0
7.211,-0.32,-0.949,0.0
9.181,-0.407,-0.948,0.0
8.673,-0.386,-0.943,0.0
8.243,-0.369,-0.941,0.0
7.865,-0.353,-0.942,0.0
7.534,-0.34,-0.944,0.0
7.242,-0.328,-0.948,0.0
9.238,-0.418,-0.947,0.0
8.747,-0.397,-0.944,0.0
8.313,-0.379,-0.943,0.0
7.907,-0.362,-0.941,0.0
7.587,-0.349,-0.945,0.0
7.277,-0.336,-0.946,0.0
9.34,-0.431,-0.949,0.0
8.813,-0.408,-0.944,0.0
8.355,-0.388,-0.941,0.0
7.956,-0.371,-0.94,0.0
7.662,-0.359,-0.948,0.0
7.323,-0.345,-0.946,0.0
9.42,-0.442,-0.95,0.0
8.907,-0.42,-0.946,0.0
8.406,-0.398,-0.939,0.0
8.011,-0.381,-0.94,0.0
7.699,-0.367,-0.945,0.0
7.365,-0.353,-0.945,0.0
9.508,-0.454,-0.95,0.0
8.97,-0.43,-0.945,0.0
8.526,-0.41,-0.945,0.0
8.067,-0.39,-0.939,0.0
7.742,-0.375,-0.943,0.0
7.403,-0.36,-0.943,0.0
9.646,-0.468,-0.955,0.0
9.07,-0.442,-0.947,0.0
8.6,-0.421,-0.945,0.0
8.152,-0.4,-0.941,0.0
7.799,-0.384,-0.943,0.0
7.466,-0.369,-0.944,0.0
9.732,-0.48,-0.954,0.0
9.176,-0.454,-0.949,0.0
8.682,-0.431,-0.945,0.0
8.214,-0.409,-0.94,0.0
7.871,-0.394,-0.944,0.0
7.54,-0.379,-0.945,0.0
9.808,-0.491,-0.951,0.0
9.27,-0.466,-0.95,0.0
8.771,-0.442,-0.946,0.0
8.32,-0.421,-0.943,0.0
7.938,-0.403,-0.943,0.0
7.616,-0.388,-0.947,0.0
9.914,-0.503,-0.951,0.0
9.39,-0.478,-0.952,0.0
8.862,-0.453,-0.946,0.0
8.386,-0.43,-0.942,0.0
7.997,-0.411,-0.942,0.0
7.681,-0.396,-0.946,0.0
10.035,-0.516,-0.952,0.0
9.51,-0.491,-0.954,0.0
8.946,-0.463,-0.946,0.0
8.501,-0.441,-0.946,0.0
8.063,-0.42,-0.941,0.0
7.753,-0.405,-0.947,0.0
10.214,-0.532,-0.958,0.0
9.631,-0.503,-0.955,0.0
9.058,-0.475,-0.947,0.0
8.602,-0.452,-0.947,0.0
8.18,-0.431,-0.945,0.0
7.795,-0.412,-0.943,0.0
10.341,-0.545,-0.958,0.0
9.744,-0.515,-0.955,0.0
9.201,-0.488,-0.952,0.0
8.696,-0.462,-0.947,0.0
8.261,-0.44,-0.945,0.0
7.908,-0.423,-0.947,0.0
10.425,-0.556,-0.954,0.0
9.809,-0.524,-0.95,0.0
9.321,-0.5,-0.953,0.0
8.798,-0.473,-0.948,0.0
8.355,-0.45,-0.945,0.0
7.959,-0.43,-0.944,0.0
10.549,-0.568,-0.953,0.0
9.985,-0.539,-0.955,0.0
9.433,-0.511,-0.953,0.0
8.947,-0.486,-0.953,0.0
8.422,-0.458,-0.943,0.0
8.03,-0.438,-0.942,0.0
10.78,-0.586,-0.96,0.0
10.099,-0.551,-0.954,0.0
9.578,-0.523,-0.956,0.0
9.049,-0.496,-0.952,0.0
8.541,-0.469,-0.945,0.0
8.109,-0.446,-0.941,0.0
10.89,-0.598,-0.956,0.0
10.266,-0.565,-0.956,0.0
9.715,-0.536,-0.957,0.0
9.151,-0.506,-0.951,0.0
8.696,-0.482,-0.951,0.0
8.21,-0.456,-0.942,0.0
11.102,-0.614,-0.96,0.0
10.41,-0.577,-0.956,0.0
9.853,-0.547,-0.958,0.0
9.278,-0.517,-0.952,0.0
8.797,-0.491,-0.95,0.0
8.325,-0.466,-0.944,0.0
11.295,-0.63,-0.962,0.0
10.545,-0.589,-0.954,0.0
9.952,-0.557,-0.954,0.0
9.429,-0.529,-0.955,0.0
8.901,-0.5,-0.949,0.0
8.444,-0.476,-0.946,0.0
11.458,-0.643,-0.96,0.0
10.738,-0.604,-0.957,0.0
10.119,-0.57,-0.956,0.0
9.612,-0.543,-0.961,0.0
9.08,-0.514,-0.956,0.0
8.551,-0.485,-0.946,0.0
11.638,-0.657,-0.959,0.0
10.903,-0.617,-0.957,0.0
10.293,-0.583,-0.958,0.0
9.736,-0.553,-0.959,0.0
9.176,-0.522,-0.953,0.0
8.718,-0.497,-0.952,0.0
11.868,-0.674,-0.962,0.0
11.071,-0.63,-0.956,0.0
10.466,-0.596,-0.96,0.0
9.836,-0.561,-0.955,0.0
9.348,-0.534,-0.958,0.0
8.831,-0.506,-0.952,0.0
12.121,-0.692,-0.965,0.0
11.241,-0.643,-0.955,0.0
10.563,-0.605,-0.953,0.0
9.997,-0.573,-0.956,0.0
9.507,-0.546,-0.96,0.0
8.971,-0.516,-0.954,0.0
12.405,-0.711,-0.97,0.0
11.516,-0.661,-0.961,0.0
10.765,-0.619,-0.956,0.0
10.138,-0.583,-0.955,0.0
9.626,-0.555,-0.958,0.0
9.125,-0.527,-0.957,0.0
12.59,-0.724,-0.965,0.0
11.761,-0.677,-0.964,0.0
11.034,-0.636,-0.963,0.0
10.365,-0.598,-0.961,0.0
9.788,-0.566,-0.959,0.0
9.26,-0.536,-0.957,0.0
12.891,-0.744,-0.969,0.0
11.985,-0.692,-0.964,0.0
11.139,-0.644,-0.955,0.0
10.534,-0.609,-0.96,0.0
9.961,-0.577,-0.961,0.0
9.43,-0.547,-0.96,0.0
13.108,-0.758,-0.966,0.0
12.293,-0.711,-0.97,0.0
11.387,-0.659,-0.959,0.0
10.641,-0.617,-0.954,0.0
10.099,-0.586,-0.959,0.0
9.577,-0.556,-0.96,0.0
24.534,-1.42,-1.77,0.0
12.485,-0.723,-0.966,0.0
11.642,-0.675,-0.962,0.0
10.875,-0.631,-0.958,0.0
10.337,-0.6,-0.965,0.0
9.748,-0.566,-0.962,0.0
13.668,-0.792,-0.964,0.0
12.701,-0.736,-0.963,0.0
11.845,-0.687,-0.961,0.0
11.106,-0.645,-0.96,0.0
10.502,-0.61,-0.964,0.0
9.927,-0.577,-0.964,0.0
14.049,-0.814,-0.969,0.0
13.026,-0.755,-0.967,0.0
12.182,-0.706,-0.969,0.0
11.319,-0.657,-0.961,0.0
10.599,-0.615,-0.956,0.0
10.068,-0.585,-0.961,0.0
14.627,-0.847,-0.986,0.0
24.548,-1.422,-1.784,0.0
12.467,-0.722,-0.971,0.0
11.575,-0.671,-0.964,0.0
10.905,-0.632,-0.966,0.0
10.244,-0.594,-0.961,0.0
14.882,-0.86,-0.979,0.0
13.641,-0.789,-0.969,0.0
12.668,-0.733,-0.967,0.0
11.817,-0.684,-0.965,0.0
11.066,-0.64,-0.962,0.0
10.469,-0.606,-0.966,0.0
14.914,-0.86,-0.957,1.0
13.967,-0.806,-0.97,0.0
12.974,-0.749,-0.969,0.0
12.093,-0.698,-0.968,0.0
11.309,-0.653,-0.965,0.0
10.589,-0.611,-0.959,0.0
14.954,-0.86,-0.935,1.0
14.504,-0.834,-0.983,0.0
24.582,-1.415,-1.796,0.0
12.398,-0.713,-0.972,0.0
11.517,-0.663,-0.963,0.0
10.837,-0.623,-0.964,0.0
14.966,-0.858,-0.911,1.0
14.853,-0.851,-0.982,0.0
24.55,-1.407,-1.753,0.0
12.673,-0.726,-0.972,0.0
11.82,-0.677,-0.969,0.0
11.082,-0.635,-0.967,0.0
14.987,-0.856,-0.888,1.0
14.917,-0.851,-0.962,1.0
13.971,-0.797,-0.974,0.0
12.929,-0.737,-0.97,0.0
12.13,-0.692,-0.974,0.0
11.274,-0.643,-0.965,0.0
15.01,-0.853,-0.864,1.0
15.003,-0.852,-0.942,1.0
14.542,-0.825,-0.989,0.0
24.53,-1.392,-1.8,0.0
12.424,-0.704,-0.977,0.0
11.527,-0.653,-0.967,0.0
15.263,-0.862,-0.853,0.0
14.995,-0.846,-0.917,1.0
14.829,-0.837,-0.984,0.0
24.646,-1.39,-1.768,0.0
12.608,-0.71,-0.97,0.0
11.778,-0.663,-0.968,0.0
15.542,-0.872,-0.843,1.0
15.022,-0.842,-0.893,1.0
14.905,-0.835,-0.964,2.0
13.69,-0.767,-0.959,0.0
12.898,-0.722,-0.971,0.0
12.097,-0.676,-0.974,0.0
15.783,-0.879,-0.829,1.0
15.034,-0.837,-0.868,0.0
15.026,-0.836,-0.946,1.0
14.687,-0.816,-1.003,0.0
13.081,-0.726,-0.962,0.0
12.378,-0.686,-0.975,0.0
16.145,-0.892,-0.821,0.0
15.272,-0.843,-0.856,0.0
15.044,-0.83,-0.922,1.0
14.835,-0.817,-0.988,1.0
13.579,-0.747,-0.975,0.0
12.575,-0.691,-0.969,0.0
16.51,-0.904,-0.811,1.0
15.552,-0.851,-0.845,0.0
15.071,-0.823,-0.898,1.0
14.9,-0.813,-0.967,3.0
13.769,-0.75,-0.965,0.0
12.921,-0.703,-0.974,0.0
16.979,-0.921,-0.805,0.0
15.819,-0.857,-0.832,1.0
15.119,-0.818,-0.875,0.0
15.061,-0.813,-0.952,1.0
14.368,-0.775,-0.983,0.0
13.141,-0.708,-0.968,0.0
17.554,-0.942,-0.802,0.0
16.176,-0.867,-0.824,0.0
15.264,-0.816,-0.857,0.0
15.126,-0.808,-0.93,1.0
14.792,-0.789,-0.986,0.0
13.439,-0.715,-0.966,0.0
18.202,-0.966,-0.801,0.0
16.536,-0.876,-0.814,1.0
15.535,-0.821,-0.846,0.0
15.146,-0.799,-0.905,1.0
14.927,-0.786,-0.97,1.0
13.79,-0.725,-0.968,0.0
18.78,-0.984,-0.794,0.0
16.99,-0.888,-0.807,0.0
15.837,-0.826,-0.835,1.0
15.202,-0.792,-0.882,0.0
15.204,-0.79,-0.961,1.0
14.321,-0.743,-0.98,0.0
19.554,-1.011,-0.793,0.0
17.623,-0.909,-0.807,0.0
16.202,-0.834,-0.826,0.0
15.319,-0.787,-0.862,1.0
15.249,-0.782,-0.938,1.0
14.487,-0.741,-0.967,0.0
20.22,-1.03,-0.786,0.0
18.208,-0.926,-0.802,0.0
16.525,-0.838,-0.814,1.0
15.536,-0.786,-0.848,0.0
15.282,-0.771,-0.914,1.0
15.214,-0.766,-0.989,0.0
21.092,-1.058,-0.783,1.0
18.844,-0.943,-0.798,0.0
17.002,-0.849,-0.808,0.0
15.872,-0.79,-0.839,0.0
15.306,-0.76,-0.889,1.0
15.318,-0.759,-0.97,0.0
21.961,-1.084,-0.778,2.0
19.585,-0.964,-0.796,0.0
17.618,-0.864,-0.807,0.0
16.22,-0.794,-0.829,1.0
15.397,-0.751,-0.868,1.0
15.362,-0.748,-0.946,0.0
23.082,-1.119,-0.778,5.0
20.452,-0.989,-0.796,0.0
18.353,-0.884,-0.81,1.0
16.466,-0.791,-0.814,0.0
15.543,-0.745,-0.849,0.0
15.414,-0.736,-0.923,1.0
23.779,-1.131,-0.761,12.0
21.151,-1.003,-0.787,1.0
18.929,-0.895,-0.803,0.0
17.094,-0.806,-0.816,0.0
16.017,-0.752,-0.848,0.0
15.453,-0.724,-0.899,1.0
23.98,-1.119,-0.728,17.0
21.945,-1.02,-0.78,1.0
19.58,-0.907,-0.798,0.0
17.657,-0.815,-0.814,0.0
16.206,-0.746,-0.831,1.0
15.507,-0.711,-0.876,1.0
24.515,-1.12,-0.703,9.0
23.152,-1.054,-0.785,2.0
20.319,-0.921,-0.794,0.0
18.197,-0.822,-0.808,0.0
16.499,-0.743,-0.819,1.0
15.639,-0.701,-0.858,0.0
28.147,-1.257,-0.76,2.0
23.774,-1.058,-0.766,13.0
21.24,-0.941,-0.795,0.0
18.86,-0.832,-0.806,0.0
16.992,-0.747,-0.815,0.0
15.955,-0.699,-0.848,0.0
28.462,-1.241,-0.721,48.0
23.989,-1.041,-0.733,18.0
21.958,-0.949,-0.785,2.0
19.59,-0.843,-0.805,0.0
17.619,-0.755,-0.815,0.0
16.323,-0.697,-0.841,2.0
28.459,-1.209,-0.674,117.0
24.838,-1.051,-0.717,11.0
23.331,-0.982,-0.795,2.0
20.517,-0.86,-0.808,1.0
18.236,-0.761,-0.814,1.0
16.719,-0.695,-0.833,2.0
28.462,-1.177,-0.627,127.0
28.238,-1.162,-0.769,7.0
23.788,-0.974,-0.772,14.0
20.985,-0.855,-0.793,1.0
18.834,-0.764,-0.81,0.0
17.035,-0.688,-0.821,1.0
28.46,-1.144,-0.581,70.0
28.435,-1.137,-0.728,40.0
24.012,-0.955,-0.74,17.0
21.921,-0.867,-0.792,1.0
19.557,-0.77,-0.809,0.0
17.491,-0.685,-0.815,1.0
28.488,-1.11,-0.535,47.0
28.485,-1.104,-0.684,15.0
24.926,-0.961,-0.729,10.0
22.749,-0.872,-0.786,2.0
20.339,-0.776,-0.809,2.0
18.134,-0.688,-0.816,1.0
31.267,-1.18,-0.538,42.0
30.533,-1.146,-0.685,34.0
24.955,-0.931,-0.69,1.0
23.749,-0.881,-0.783,11.0
20.863,-0.769,-0.797,1.0
18.584,-0.681,-0.807,1.0
38.185,-1.392,-0.596,4.0
30.682,-1.112,-0.639,31.0
28.55,-1.028,-0.744,1.0
23.856,-0.853,-0.749,21.0
21.885,-0.778,-0.801,0.0
19.078,-0.674,-0.798,1.0
38.421,-1.35,-0.54,12.0
31.063,-1.084,-0.599,29.0
30.386,-1.054,-0.744,8.0
24.754,-0.852,-0.738,11.0
22.631,-0.774,-0.793,7.0
20.06,-0.681,-0.808,0.0
38.663,-1.306,-0.483,16.0
37.971,-1.273,-0.673,3.0
30.497,-1.015,-0.7,30.0
25.043,-0.828,-0.708,1.0
23.639,-0.776,-0.792,9.0
20.857,-0.68,-0.808,0.0
38.65,-1.251,-0.423,34.0
38.037,-1.222,-0.615,13.0
30.66,-0.978,-0.657,31.0
28.148,-0.891,-0.753,1.0
23.833,-0.748,-0.762,18.0
21.614,-0.673,-0.804,0.0
38.64,-1.196,-0.365,56.0
38.327,-1.177,-0.562,13.0
31.03,-0.945,-0.618,29.0
30.148,-0.911,-0.761,8.0
24.521,-0.735,-0.748,15.0
22.348,-0.664,-0.798,1.0
38.666,-1.141,-0.307,83.0
38.574,-1.128,-0.508,30.0
31.407,-0.911,-0.579,9.0
30.436,-0.875,-0.723,20.0
25.323,-0.721,-0.735,2.0
23.678,-0.668,-0.811,5.0
38.661,-1.083,-0.25,68.0
38.664,-1.073,-0.453,35.0
37.963,-1.044,-0.644,13.0
30.556,-0.833,-0.682,34.0
28.071,-0.758,-0.774,1.0
23.799,-0.636,-0.781,17.0
38.696,-1.026,-0.195,45.0
38.708,-1.016,-0.398,52.0
38.217,-0.993,-0.594,14.0
30.889,-0.794,-0.645,30.0
29.08,-0.74,-0.76,2.0
24.277,-0.611,-0.762,21.0
38.785,-0.968,-0.14,23.0
38.82,-0.958,-0.344,11.0
38.508,-0.941,-0.544,23.0
31.385,-0.758,-0.611,11.0
30.406,-0.726,-0.752,19.0
25.121,-0.594,-0.753,10.0
40.424,-0.946,-0.09,38.0
40.418,-0.934,-0.302,39.0
0.0,0.0,0.0,0.0
37.833,-0.854,-0.684,13.0
30.519,-0.68,-0.712,32.0
25.336,-0.558,-0.725,0.0
38.391,-0.836,-0.032,10.0
38.376,-0.825,-0.234,25.0
38.362,-0.814,-0.435,67.0
38.092,-0.798,-0.637,22.0
30.81,-0.636,-0.677,30.0
28.706,-0.585,-0.782,7.0
52.94,-1.066,0.027,65.0
52.98,-1.051,-0.251,6.0
45.486,-0.89,-0.455,28.0
38.424,-0.741,-0.59,14.0
31.397,-0.596,-0.648,19.0
28.818,-0.539,-0.747,8.0
20.136,-0.371,0.037,1.0
53.01,-0.964,-0.181,10.0
52.91,-0.946,-0.459,47.0
44.866,-0.789,-0.63,15.0
36.071,-0.624,-0.697,2.0
30.337,-0.516,-0.746,21.0
20.149,-0.338,0.063,44.0
20.12,-0.331,-0.042,20.0
59.429,-0.962,-0.44,13.0
44.987,-0.715,-0.575,30.0
37.916,-0.592,-0.685,15.0
30.67,-0.47,-0.716,28.0
20.135,-0.303,0.088,20.0
20.125,-0.297,-0.017,2.0
59.481,-0.862,-0.366,4.0
45.305,-0.642,-0.522,6.0
38.116,-0.529,-0.641,15.0
31.709,-0.43,-0.7,23.0
20.153,-0.268,0.114,9.0
59.541,-0.775,0.022,63.0
56.365,-0.717,-0.276,0.0
52.685,-0.654,-0.542,10.0
39.165,-0.475,-0.61,8.0
35.838,-0.424,-0.748,4.0
56.184,-0.65,0.385,3.0
56.194,-0.633,0.088,1.0
56.173,-0.616,-0.208,6.0
58.749,-0.626,-0.535,6.0
44.863,-0.465,-0.646,16.0
20.199,-0.203,-0.398,9.0
64.274,-0.629,0.517,8.0
53.36,-0.506,0.146,3.0
53.324,-0.489,-0.136,4.0
20.181,-0.179,-0.16,2.0
20.146,-0.172,-0.266,19.0
20.155,-0.166,-0.374,27.0
58.328,-0.464,0.537,14.0
58.33,-0.447,0.227,11.0
20.193,-0.148,-0.028,19.0
20.143,-0.141,-0.137,19.0
20.151,-0.135,-0.244,25.0
20.145,-0.129,-0.351,38.0
20.153,-0.123,0.208,21.0
20.141,-0.117,0.101,26.0
20.133,-0.111,-0.005,28.0
20.142,-0.104,-0.114,27.0
20.154,-0.098,-0.222,20.0
20.141,-0.092,-0.328,36.0
20.122,-0.086,0.229,28.0
20.121,-0.079,0.123,30.0
20.13,-0.073,0.015,34.0
20.137,-0.067,-0.093,34.0
20.148,-0.061,-0.2,27.0
20.153,-0.054,-0.308,26.0
20.111,-0.048,0.251,33.0
20.122,-0.042,0.143,32.0
20.136,-0.036,0.036,38.0
20.137,-0.029,-0.072,28.0
20.181,-0.023,-0.18,22.0
20.181,-0.016,-0.287,6.0
20.121,-0.01,0.271,27.0
20.13,-0.004,0.164,28.0
20.178,0.002,0.057,38.0
20.258,0.008,-0.052,151.0
20.263,0.015,-0.16,151.0
20.268,0.021,-0.268,150.0
20.139,0.027,0.292,30.0
20.139,0.034,0.184,28.0
20.157,0.04,0.077,24.0
20.2,0.047,-0.032,18.0
20.222,0.053,-0.14,26.0
20.222,0.059,-0.248,0.0
20.151,0.066,0.311,28.0
20.148,0.072,0.203,28.0
20.169,0.079,0.096,26.0
20.192,0.085,-0.013,27.0
20.181,0.092,-0.121,33.0
20.191,0.098,-0.229,24.0
20.161,0.105,0.33,29.0
20.165,0.112,0.222,26.0
20.178,0.118,0.114,24.0
20.171,0.125,0.004,28.0
20.196,0.131,-0.103,32.0
20.18,0.138,-0.211,26.0
20.18,0.145,0.348,26.0
20.202,0.151,0.24,22.0
20.193,0.158,0.132,19.0
20.279,0.165,0.022,28.0
20.226,0.171,-0.086,20.0
20.181,0.177,-0.194,17.0
20.283,0.185,0.367,32.0
20.288,0.192,0.259,28.0
20.305,0.199,0.15,28.0
20.326,0.206,0.039,27.0
20.292,0.212,-0.069,0.0
20.209,0.218,-0.177,2.0
20.274,0.226,0.384,30.0
20.296,0.233,0.275,22.0
20.299,0.239,0.166,9.0
99.529,1.208,0.273,5.0
0.0,0.0,0.0,0.0
0.0,0.0,0.0,0.0
20.281,0.267,0.4,9.0
20.326,0.274,0.292,0.0
0.0,0.0,0.0,0.0
99.708,1.41,0.35,6.0
101.498,1.468,-0.19,1.0
0.0,0.0,0.0,0.0
196.119,2.978,4.022,23.0
194.808,3.019,2.945,26.0
0.0,0.0,0.0,0.0
99.784,1.611,0.423,6.0
99.912,1.645,-0.115,4.0
0.0,0.0,0.0,0.0
194.643,3.343,4.129,19.0
194.715,3.409,3.08,29.0
0.0,0.0,0.0,0.0
99.778,1.812,0.492,5.0
0.0,0.0,0.0,0.0
0.0,0.0,0.0,0.0
194.414,3.736,4.257,19.0
0.0,0.0,0.0,0.0
103.151,2.047,1.143,9.0
100.022,2.018,0.558,3.0
100.07,2.053,0.018,5.0
0.0,0.0,0.0,0.0
194.438,4.13,4.382,19.0
194.198,4.19,3.326,17.0
0.0,0.0,0.0,0.0
0.0,0.0,0.0,0.0
100.122,2.258,0.079,7.0
0.0,0.0,0.0,0.0
194.237,4.525,4.495,22.0
193.874,4.579,3.436,26.0
195.073,4.672,2.401,7.0
103.049,2.502,0.7,5.0
100.269,2.468,0.138,2.0
0.0,0.0,0.0,0.0
193.978,4.919,4.599,29.0
193.563,4.97,3.539,29.0
195.289,5.079,2.512,26.0
103.042,2.712,0.755,5.0
0.0,0.0,0.0,0.0
0.0,0.0,0.0,0.0
194.053,5.317,4.703,26.0
193.392,5.361,3.636,35.0
195.481,5.483,2.614,22.0
195.897,5.556,1.535,16.0
196.122,5.627,0.471,5.0
0.0,0.0,0.0,0.0
193.929,5.711,4.794,25.0
193.62,5.763,3.733,22.0
195.632,5.887,2.708,9.0
196.022,5.96,1.627,15.0
196.195,6.028,0.561,20.0
0.0,0.0,0.0,0.0
193.883,6.107,4.881,15.0
194.942,6.204,3.845,8.0
195.408,6.281,2.79,12.0
196.3,6.374,1.714,5.0
196.364,6.436,0.644,22.0
0.0,0.0,0.0,0.0
194.81,6.535,4.984,5.0
195.24,6.611,3.93,25.0
196.125,6.705,2.878,9.0
202.778,6.997,1.85,26.0
196.446,6.843,0.721,29.0
0.0,0.0,0.0,0.0
195.474,6.958,5.074,7.0
195.366,7.016,4.004,6.0
202.877,7.349,3.05,7.0
203.248,7.426,1.925,11.0
196.526,7.243,0.787,27.0
0.0,0.0,0.0,0.0
194.906,7.338,5.125,6.0
195.189,7.411,4.065,22.0
195.275,7.477,2.999,6.0
0.0,0.0,0.0,0.0
196.603,7.651,0.849,34.0
0.0,0.0,0.0,0.0
0.0,0.0,0.0,0.0
196.743,7.875,4.154,12.0
196.819,7.941,3.078,6.0
0.0,0.0,0.0,0.0
196.651,8.056,0.901,35.0
0.0,0.0,0.0,0.0
193.893,8.099,5.206,20.0
0.0,0.0,0.0,0.0
196.714,8.34,3.124,19.0
0.0,0.0,0.0,0.0
195.639,8.413,0.941,21.0
0.0,0.0,0.0,0.0
193.964,8.498,5.251,19.0
195.489,8.626,4.219,38.0
204.993,9.106,3.298,26.0
204.975,9.167,2.152,72.0
196.93,8.87,0.986,33.0
0.0,0.0,0.0,0.0
194.185,8.902,5.292,6.0
0.0,0.0,0.0,0.0
204.863,9.515,3.329,20.0
205.318,9.601,2.188,16.0
197.122,9.28,1.017,28.0
0.0,0.0,0.0,0.0
194.025,9.288,5.315,9.0
0.0,0.0,0.0,0.0
199.49,9.673,3.269,8.0
197.903,9.654,2.133,19.0
197.175,9.68,1.04,28.0
0.0,0.0,0.0,0.0
193.984,9.682,5.335,27.0
196.155,9.85,4.313,6.0
197.784,9.991,3.258,8.0
206.417,10.488,2.242,6.0
197.2,10.083,1.055,36.0
0.0,0.0,0.0,0.0
193.839,10.067,5.343,4.0
0.0,0.0,0.0,0.0
0.0,0.0,0.0,0.0
206.77,10.923,2.255,10.0
197.184,10.475,1.063,22.0
0.0,0.0,0.0,0.0
196.075,10.577,5.409,44.0
196.064,10.635,4.326,53.0
196.084,10.693,3.243,38.0
196.063,10.747,2.139,73.0
196.096,10.809,1.056,50.0
0.0,0.0,0.0,0.0
194.852,10.899,5.373,6.0
0.0,0.0,0.0,0.0
0.0,0.0,0.0,0.0
0.0,0.0,0.0,0.0
197.448,11.274,1.056,24.0
0.0,0.0,0.0,0.0
195.101,11.301,5.372,5.0
0.0,0.0,0.0,0.0
202.437,11.84,3.331,6.0
208.213,12.24,2.252,17.0
197.566,11.669,1.041,34.0
0.0,0.0,0.0,0.0
0.0,0.0,0.0,0.0
0.0,0.0,0.0,0.0
0.0,0.0,0.0,0.0
0.0,0.0,0.0,0.0
155.521,9.492,0.803,10.0
0.0,0.0,0.0,0.0
0.0,0.0,0.0,0.0
0.0,0.0,0.0,0.0
0.0,0.0,0.0,0.0
0.0,0.0,0.0,0.0
155.216,9.777,0.778,7.0
0.0,0.0,0.0,0.0
0.0,0.0,0.0,0.0
209.211,13.409,4.519,7.0
0.0,0.0,0.0,0.0
0.0,0.0,0.0,0.0
154.962,10.058,0.748,14.0
0.0,0.0,0.0,0.0
178.368,11.725,4.809,12.0
173.794,11.472,3.718,8.0
0.0,0.0,0.0,0.0
0.0,0.0,0.0,0.0
154.95,10.356,0.712,150.0
0.0,0.0,0.0,0.0
173.138,11.712,4.628,13.0
173.641,11.791,3.673,10.0
210.366,14.343,3.278,24.0
0.0,0.0,0.0,0.0
154.943,10.649,0.673,11.0
0.0,0.0,0.0,0.0
161.882,11.258,4.282,24.0
173.896,12.139,3.631,9.0
0.0,0.0,0.0,0.0
0.0,0.0,0.0,0.0
140.639,9.93,0.568,53.0
0.0,0.0,0.0,0.0
162.054,11.572,4.237,15.0
168.106,12.049,3.456,21.0
173.559,12.486,2.599,8.0
0.0,0.0,0.0,0.0
140.562,10.185,0.521,151.0
0.0,0.0,0.0,0.0
155.996,11.43,4.025,14.0
168.197,12.368,3.4,10.0
173.285,12.786,2.533,25.0
0.0,0.0,0.0,0.0
122.012,9.065,0.408,4.0
0.0,0.0,0.0,0.0
155.687,11.691,3.959,10.0
167.963,12.656,3.331,11.0
168.25,12.718,2.394,31.0
122.446,9.287,1.045,7.0
114.15,8.688,0.335,17.0
0.0,0.0,0.0,0.0
156.678,12.049,3.918,19.0
156.149,12.047,3.03,23.0
162.144,12.551,2.238,48.0
0.0,0.0,0.0,0.0
114.046,8.885,0.286,150.0
0.0,0.0,0.0,0.0
167.947,13.217,4.126,14.0
155.938,12.31,2.956,47.0
155.947,12.348,2.081,41.0
114.022,9.056,0.871,7.0
110.618,8.814,0.225,10.0
0.0,0.0,0.0,0.0
156.11,12.56,3.759,39.0
196.535,15.858,3.63,26.0
0.0,0.0,0.0,0.0
110.533,8.971,0.789,15.0
109.328,8.9,0.167,6.0
0.0,0.0,0.0,0.0
195.024,16.028,4.596,12.0
202.904,16.723,3.642,12.0
0.0,0.0,0.0,0.0
0.0,0.0,0.0,0.0
108.249,8.997,0.107,4.0
0.0,0.0,0.0,0.0
197.118,16.535,4.538,16.0
198.65,16.709,3.456,10.0
128.938,10.874,1.518,4.0
107.943,9.129,0.653,2.0
107.722,9.135,0.047,28.0
0.0,0.0,0.0,0.0
197.881,16.933,4.442,5.0
199.434,17.109,3.355,8.0
128.956,11.091,1.442,9.0
107.704,9.287,0.588,20.0
107.604,9.304,-0.018,36.0
0.0,0.0,0.0,0.0
152.588,13.311,3.332,27.0
153.714,13.44,2.49,16.0
129.125,11.319,1.364,9.0
107.69,9.463,0.52,21.0
101.325,8.927,-0.081,5.0
68.952,6.091,-0.443,2.0
152.551,13.554,3.234,25.0
152.942,13.62,2.378,23.0
129.295,11.541,1.282,2.0
0.0,0.0,0.0,0.0
0.0,0.0,0.0,0.0
68.975,6.203,-0.49,3.0
152.123,13.759,3.121,32.0
152.112,13.789,2.263,29.0
0.0,0.0,0.0,0.0
0.0,0.0,0.0,0.0
93.463,8.532,-0.201,1.0
68.865,6.301,-0.536,0.0
151.667,13.952,3.006,25.0
151.774,13.993,2.151,24.0
0.0,0.0,0.0,0.0
92.896,8.602,0.257,151.0
92.94,8.626,-0.266,1.0
0.0,0.0,0.0,0.0
151.321,14.151,2.889,29.0
151.498,14.198,2.036,29.0
0.0,0.0,0.0,0.0
92.7,8.725,0.188,16.0
0.0,0.0,0.0,0.0
0.0,0.0,0.0,0.0
151.234,14.37,2.773,28.0
151.315,14.408,1.919,22.0
0.0,0.0,0.0,0.0
92.358,8.829,0.116,3.0
0.0,0.0,0.0,0.0
0.0,0.0,0.0,0.0
151.088,14.577,2.652,27.0
150.959,14.59,1.795,14.0
0.0,0.0,0.0,0.0
92.227,8.95,0.042,2.0
0.0,0.0,0.0,0.0
0.0,0.0,0.0,0.0
121.583,11.904,2.035,58.0
121.586,11.925,1.347,10.0
0.0,0.0,0.0,0.0
0.0,0.0,0.0,0.0
0.0,0.0,0.0,0.0
0.0,0.0,0.0,0.0
121.587,12.072,1.934,53.0
0.0,0.0,0.0,0.0
0.0,0.0,0.0,0.0
0.0,0.0,0.0,0.0
0.0,0.0,0.0,0.0
0.0,0.0,0.0,0.0
150.603,15.158,2.268,22.0
0.0,0.0,0.0,0.0
0.0,0.0,0.0,0.0
0.0,0.0,0.0,0.0
0.0,0.0,0.0,0.0
0.0,0.0,0.0,0.0
150.665,15.361,2.134,20.0
0.0,0.0,0.0,0.0
0.0,0.0,0.0,0.0
0.0,0.0,0.0,0.0
68.873,7.069,-0.595,0.0
0.0,0.0,0.0,0.0
115.627,11.937,1.534,23.0
0.0,0.0,0.0,0.0
0.0,0.0,0.0,0.0
82.501,8.557,-0.319,1.0
0.0,0.0,0.0,0.0
0.0,0.0,0.0,0.0
115.625,12.081,1.426,5.0
82.181,8.599,0.545,3.0
81.948,8.587,0.079,1.0
0.0,0.0,0.0,0.0
0.0,0.0,0.0,0.0
0.0,0.0,0.0,0.0
0.0,0.0,0.0,0.0
82.082,8.686,0.467,3.0
82.04,8.694,0.001,61.0
0.0,0.0,0.0,0.0
0.0,0.0,0.0,0.0
0.0,0.0,0.0,0.0
0.0,0.0,0.0,0.0
82.095,8.783,0.387,6.0
82.04,8.789,-0.079,106.0
0.0,0.0,0.0,0.0
0.0,0.0,0.0,0.0
40.694,4.379,-0.738,0.0
0.0,0.0,0.0,0.0
77.303,8.357,0.288,4.0
77.166,8.354,-0.152,8.0
0.0,0.0,0.0,0.0
0.0,0.0,0.0,0.0
0.0,0.0,0.0,0.0
82.094,8.953,0.689,1.0
76.485,8.352,0.206,11.0
76.696,8.385,-0.229,10.0
0.0,0.0,0.0,0.0
0.0,0.0,0.0,0.0
37.589,4.126,-0.759,0.0
81.966,9.026,0.604,3.0
75.923,8.37,0.127,5.0
75.875,8.374,-0.306,3.0
0.0,0.0,0.0,0.0
0.0,0.0,0.0,0.0
37.247,4.127,-0.791,0.0
75.652,8.406,0.478,4.0
75.499,8.399,0.046,12.0
75.317,8.388,-0.382,14.0
0.0,0.0,0.0,0.0
43.397,4.844,-0.72,0.0
35.537,3.972,-0.792,0.0
75.183,8.427,0.395,5.0
74.884,8.402,-0.033,12.0
69.013,7.752,-0.424,2.0
0.0,0.0,0.0,0.0
41.098,4.627,-0.726,2.0
34.369,3.874,-0.803,0.0
74.702,8.442,0.312,13.0
74.692,8.449,-0.114,19.0
68.858,7.797,-0.498,2.0
0.0,0.0,0.0,0.0
0.0,0.0,0.0,0.0
32.567,3.7,-0.797,0.0
74.63,8.499,0.23,150.0
74.647,8.509,-0.196,2.0
0.0,0.0,0.0,0.0
0.0,0.0,0.0,0.0
38.013,4.346,-0.755,0.0
31.711,3.63,-0.811,0.0
0.0,0.0,0.0,0.0
71.541,8.215,-0.268,1.0
0.0,0.0,0.0,0.0
0.0,0.0,0.0,0.0
37.07,4.269,-0.778,0.0
30.629,3.53,-0.818,0.0
0.0,0.0,0.0,0.0
71.544,8.271,-0.347,2.0
0.0,0.0,0.0,0.0
41.858,4.848,-0.686,0.0
35.109,4.07,-0.776,0.0
30.015,3.483,-0.835,0.0
0.0,0.0,0.0,0.0
0.0,0.0,0.0,0.0
0.0,0.0,0.0,0.0
41.394,4.824,-0.726,0.0
34.114,3.979,-0.793,1.0
28.991,3.385,-0.84,0.0
0.0,0.0,0.0,0.0
68.905,8.065,-0.491,2.0
0.0,0.0,0.0,0.0
0.0,0.0,0.0,0.0
32.608,3.826,-0.796,0.0
28.088,3.298,-0.846,0.0
0.0,0.0,0.0,0.0
69.0,8.121,-0.572,2.0
0.0,0.0,0.0,0.0
37.848,4.461,-0.75,0.0
31.656,3.734,-0.809,0.0
27.202,3.211,-0.851,0.0
69.121,8.172,-0.256,0.0
0.0,0.0,0.0,0.0
0.0,0.0,0.0,0.0
37.032,4.387,-0.777,0.0
30.747,3.645,-0.821,0.0
26.273,3.117,-0.853,0.0
69.121,8.212,-0.337,0.0
0.0,0.0,0.0,0.0
0.0,0.0,0.0,0.0
35.14,4.182,-0.779,0.0
29.838,3.554,-0.832,0.0
25.695,3.062,-0.864,0.0
69.006,8.234,-0.418,1.0
0.0,0.0,0.0,0.0
40.509,4.839,-0.709,0.0
33.283,3.978,-0.776,0.0
28.766,3.44,-0.836,0.0
24.815,2.97,-0.863,0.0
68.968,8.262,-0.498,4.0
0.0,0.0,0.0,0.0
40.169,4.817,-0.751,0.0
32.687,3.922,-0.801,1.0
27.994,3.361,-0.847,0.0
24.138,2.9,-0.869,0.0
68.955,8.29,-0.58,2.0
68.832,8.279,-0.973,1.0
37.481,4.51,-0.744,0.0
31.572,3.801,-0.811,0.0
27.065,3.26,-0.851,0.0
23.562,2.84,-0.876,0.0
0.0,0.0,0.0,0.0
0.0,0.0,0.0,0.0
37.171,4.487,-0.782,0.0
30.606,3.696,-0.823,0.0
26.306,3.178,-0.858,0.0
23.22,2.807,-0.891,0.0
0.0,0.0,0.0,0.0
0.0,0.0,0.0,0.0
35.076,4.245,-0.78,0.0
29.56,3.579,-0.83,0.0
25.501,3.089,-0.862,0.0
21.891,2.653,-0.866,0.0
68.808,8.342,-0.822,0.0
40.171,4.872,-0.71,0.0
32.936,3.996,-0.771,0.0
28.648,3.477,-0.838,0.0
24.626,2.99,-0.862,0.0
21.773,2.645,-0.887,1.0
68.727,8.349,-0.904,2.0
39.768,4.832,-0.75,0.0
32.347,3.932,-0.796,1.0
27.671,3.364,-0.842,0.0
24.069,2.928,-0.871,0.0
21.721,2.643,-0.911,0.0
68.824,8.375,-0.986,1.0
37.296,4.539,-0.748,0.0
31.566,3.843,-0.814,0.0
27.011,3.289,-0.854,0.0
23.501,2.863,-0.878,0.0
20.589,2.509,-0.888,0.0
0.0,0.0,0.0,0.0
36.94,4.501,-0.784,0.0
30.372,3.702,-0.82,0.0
25.948,3.163,-0.852,0.0
21.934,2.675,-0.846,0.0
20.324,2.479,-0.9,0.0
0.0,0.0,0.0,0.0
34.73,4.235,-0.779,0.0
29.461,3.593,-0.83,0.0
25.248,3.08,-0.858,0.0
21.839,2.665,-0.868,0.0
19.961,2.437,-0.908,0.0
39.711,4.845,-0.71,0.0
32.649,3.983,-0.77,0.0
28.543,3.483,-0.837,0.0
24.549,2.996,-0.864,0.0
21.784,2.659,-0.891,1.0
19.096,2.331,-0.891,0.0
39.509,4.821,-0.752,0.0
32.23,3.932,-0.798,0.0
27.647,3.374,-0.843,0.0
23.87,2.913,-0.867,0.0
21.646,2.642,-0.911,0.0
18.881,2.305,-0.903,0.0
37.21,4.539,-0.751,0.0
31.17,3.802,-0.808,0.0
26.886,3.28,-0.851,0.0
23.388,2.853,-0.877,0.0
20.552,2.507,-0.889,0.0
18.389,2.244,-0.901,0.0
36.732,4.478,-0.784,0.0
30.299,3.693,-0.82,0.0
25.941,3.162,-0.851,0.0
21.922,2.672,-0.847,0.0
20.374,2.484,-0.904,0.0
18.167,2.215,-0.911,1.0
34.533,4.205,-0.776,0.0
29.323,3.57,-0.827,0.0
25.194,3.067,-0.855,0.0
21.808,2.655,-0.867,0.0
19.98,2.433,-0.91,0.0
17.899,2.179,-0.918,0.0
32.678,3.974,-0.772,0.0
28.3,3.441,-0.83,0.0
24.473,2.975,-0.858,0.0
21.764,2.646,-0.89,0.0
19.27,2.343,-0.899,0.0
17.372,2.112,-0.91,0.0
32.284,3.919,-0.798,0.0
27.594,3.349,-0.841,0.0
23.954,2.907,-0.867,0.0
21.571,2.617,-0.907,0.0
18.897,2.293,-0.903,0.0
17.102,2.075,-0.915,0.0
30.96,3.75,-0.8,0.0
26.812,3.247,-0.846,0.0
23.527,2.848,-0.878,0.0
20.55,2.488,-0.886,0.0
18.379,2.225,-0.898,0.0
16.817,2.035,-0.918,0.0
30.371,3.669,-0.818,0.0
26.0,3.14,-0.849,0.0
21.993,2.656,-0.844,0.0
20.375,2.46,-0.901,0.0
18.173,2.194,-0.908,0.0
16.438,1.984,-0.916,0.0
29.264,3.526,-0.819,0.0
25.256,3.042,-0.852,0.0
21.815,2.626,-0.861,0.0
20.36,2.451,-0.922,0.0
17.975,2.163,-0.917,0.0
16.291,1.96,-0.925,1.0
28.579,3.432,-0.831,0.0
24.691,2.964,-0.859,0.0
21.782,2.614,-0.882,0.0
19.428,2.331,-0.901,0.0
17.429,2.09,-0.908,0.0
16.03,1.922,-0.927,0.0
27.751,3.32,-0.836,0.0
24.118,2.884,-0.865,0.0
21.681,2.592,-0.901,0.0
19.006,2.271,-0.901,0.0
17.187,2.053,-0.913,0.0
15.708,1.876,-0.925,0.0
27.066,3.225,-0.843,0.0
23.631,2.815,-0.871,0.0
20.683,2.463,-0.881,0.0
18.698,2.225,-0.905,0.0
16.923,2.013,-0.916,0.0
15.479,1.841,-0.927,0.0
26.294,3.12,-0.846,0.0
23.175,2.748,-0.878,0.0
20.428,2.421,-0.891,0.0
18.338,2.172,-0.907,0.0
16.591,1.965,-0.915,0.0
15.212,1.801,-0.926,0.0
25.694,3.034,-0.852,0.0
21.93,2.588,-0.853,0.0
20.302,2.395,-0.905,0.0
18.054,2.128,-0.91,0.0
16.486,1.943,-0.926,0.0
14.961,1.762,-0.926,0.0
24.934,2.929,-0.851,0.0
21.818,2.561,-0.869,1.0
19.384,2.274,-0.883,0.0
17.604,2.064,-0.905,0.0
16.142,1.892,-0.922,0.0
14.79,1.733,-0.93,0.0
24.362,2.846,-0.855,0.0
21.766,2.541,-0.888,1.0
19.3,2.252,-0.898,1.0
17.359,2.024,-0.909,0.0
15.91,1.854,-0.924,0.0
14.629,1.704,-0.933,0.0
23.928,2.779,-0.862,0.0
21.605,2.507,-0.901,0.0
19.136,2.219,-0.908,1.0
17.14,1.986,-0.913,1.0
15.658,1.814,-0.924,0.0
14.428,1.67,-0.934,0.0
23.603,2.724,-0.871,0.0
20.768,2.395,-0.885,0.0
18.688,2.153,-0.903,1.0
17.0,1.957,-0.921,0.0
15.468,1.78,-0.926,0.0
14.283,1.643,-0.937,0.0
23.372,2.679,-0.883,0.0
20.421,2.339,-0.888,0.0
18.496,2.117,-0.91,0.0
16.748,1.915,-0.922,0.0
15.223,1.74,-0.925,0.0
14.224,1.625,-0.945,0.0
21.927,2.496,-0.848,0.0
19.828,2.255,-0.879,0.0
18.207,2.069,-0.911,0.0
16.438,1.867,-0.918,0.0
15.019,1.704,-0.925,0.0
14.023,1.59,-0.944,0.0
21.846,2.468,-0.863,3.0
19.615,2.214,-0.886,1.0
17.876,2.016,-0.91,0.0
16.233,1.829,-0.92,0.0
14.863,1.674,-0.928,0.0
0.0,0.0,0.0,0.0
21.831,2.447,-0.88,6.0
19.512,2.185,-0.897,2.0
17.705,1.981,-0.915,1.0
16.039,1.793,-0.922,0.0
14.722,1.644,-0.931,0.0
13.574,1.515,-0.935,0.0
21.79,2.422,-0.895,3.0
19.364,2.15,-0.906,2.0
17.642,1.957,-0.926,0.0
15.832,1.755,-0.923,0.0
14.6,1.617,-0.934,0.0
13.471,1.49,-0.939,0.0
21.724,2.394,-0.909,1.0
19.082,2.1,-0.907,0.0
17.29,1.901,-0.92,0.0
15.635,1.717,-0.923,0.0
14.45,1.586,-0.935,0.0
13.406,1.47,-0.944,0.0
20.919,2.284,-0.89,0.0
18.722,2.042,-0.903,0.0
16.997,1.852,-0.917,0.0
15.478,1.685,-0.925,0.0
14.364,1.562,-0.94,0.0
13.246,1.439,-0.942,0.0
20.597,2.228,-0.891,0.0
18.587,2.008,-0.91,0.0
16.719,1.804,-0.913,0.0
15.301,1.649,-0.925,0.0
14.27,1.536,-0.943,0.0
13.063,1.405,-0.938,0.0
20.103,2.153,-0.883,0.0
18.269,1.954,-0.906,0.0
16.532,1.766,-0.914,0.0
15.132,1.615,-0.924,0.0
14.115,1.505,-0.942,0.0
13.042,1.389,-0.945,0.0
19.828,2.102,-0.883,0.0
17.828,1.887,-0.895,0.0
16.414,1.735,-0.917,0.0
14.942,1.578,-0.922,0.0
14.086,1.486,-0.949,0.0
12.777,1.346,-0.933,0.0
19.579,2.053,-0.884,0.0
17.752,1.859,-0.902,2.0
16.276,1.702,-0.919,0.0
14.851,1.551,-0.925,0.0
0.0,0.0,0.0,0.0
12.783,1.332,-0.941,0.0
19.479,2.02,-0.89,0.0
17.737,1.837,-0.911,1.0
16.088,1.664,-0.918,0.0
14.81,1.53,-0.93,0.0
0.0,0.0,0.0,0.0
12.674,1.306,-0.94,0.0
19.412,1.99,-0.898,0.0
17.733,1.815,-0.92,1.0
15.986,1.634,-0.92,0.0
14.707,1.501,-0.932,0.0
13.721,1.399,-0.947,0.0
12.597,1.282,-0.941,0.0
19.29,1.954,-0.902,0.0
17.6,1.78,-0.922,0.0
15.915,1.607,-0.924,0.0
14.567,1.469,-0.93,0.0
13.413,1.35,-0.932,0.0
12.524,1.259,-0.941,0.0
19.119,1.912,-0.903,0.0
17.476,1.745,-0.924,0.0
15.82,1.577,-0.926,0.0
14.51,1.445,-0.932,0.0
13.424,1.335,-0.939,0.0
12.446,1.235,-0.941,0.0
19.04,1.88,-0.907,0.0
17.248,1.7,-0.919,0.0
15.741,1.549,-0.928,0.0
14.427,1.418,-0.933,0.0
13.392,1.314,-0.942,0.0
12.439,1.219,-0.945,0.0
18.906,1.842,-0.908,0.0
17.105,1.664,-0.918,0.0
15.626,1.517,-0.927,0.0
14.431,1.399,-0.939,0.0
13.383,1.295,-0.946,0.0
12.338,1.192,-0.942,0.0
18.645,1.792,-0.902,0.0
16.997,1.631,-0.918,0.0
15.543,1.488,-0.927,0.0
14.39,1.376,-0.941,0.0
13.238,1.263,-0.94,0.0
12.264,1.169,-0.941,0.0
18.593,1.762,-0.906,0.0
16.938,1.602,-0.92,0.0
15.436,1.457,-0.925,0.0
14.187,1.337,-0.932,0.0
13.22,1.244,-0.943,0.0
12.229,1.148,-0.941,0.0
18.539,1.731,-0.908,0.0
16.787,1.564,-0.917,0.0
15.378,1.43,-0.926,0.0
14.248,1.323,-0.94,0.0
13.161,1.219,-0.942,0.0
12.141,1.123,-0.938,0.0
18.587,1.709,-0.915,0.0
16.78,1.54,-0.92,0.0
15.287,1.4,-0.924,0.0
14.233,1.301,-0.942,0.0
13.102,1.195,-0.941,0.0
12.154,1.107,-0.941,0.0
18.256,1.653,-0.902,0.0
16.762,1.514,-0.923,0.0
15.263,1.376,-0.926,0.0
14.235,1.281,-0.945,0.0
13.133,1.179,-0.946,0.0
12.152,1.089,-0.943,0.0
18.35,1.635,-0.91,0.0
16.635,1.479,-0.918,0.0
15.188,1.347,-0.924,0.0
14.147,1.252,-0.941,0.0
13.098,1.157,-0.945,0.0
12.133,1.069,-0.944,0.0
18.273,1.601,-0.909,0.0
16.691,1.459,-0.923,0.0
15.157,1.322,-0.923,0.0
14.155,1.232,-0.943,0.0
13.066,1.134,-0.944,0.0
12.113,1.049,-0.943,0.0
18.29,1.575,-0.911,0.0
16.582,1.425,-0.919,0.0
15.162,1.3,-0.925,0.0
14.166,1.211,-0.945,0.0
13.066,1.115,-0.945,0.0
12.106,1.03,-0.943,0.0
18.099,1.531,-0.902,0.0
16.518,1.394,-0.916,0.0
15.147,1.275,-0.925,0.0
14.125,1.186,-0.943,0.0
13.058,1.094,-0.944,0.0
12.058,1.008,-0.94,0.0
18.199,1.512,-0.908,0.0
16.613,1.377,-0.921,0.0
15.16,1.253,-0.925,0.0
14.184,1.169,-0.946,0.0
13.033,1.072,-0.942,0.0
12.078,0.991,-0.941,0.0
18.002,1.468,-0.897,0.0
16.609,1.35,-0.92,0.0
15.189,1.232,-0.926,0.0
14.165,1.146,-0.944,0.0
13.048,1.053,-0.943,0.0
12.084,0.973,-0.941,0.0
18.533,1.482,-0.922,0.0
16.593,1.323,-0.918,0.0
15.144,1.204,-0.922,0.0
14.188,1.125,-0.944,0.0
13.079,1.035,-0.944,0.0
12.15,0.959,-0.944,0.0
18.555,1.455,-0.921,0.0
16.705,1.306,-0.922,0.0
15.254,1.189,-0.927,0.0
14.108,1.097,-0.937,0.0
13.028,1.01,-0.938,0.0
12.169,0.941,-0.944,0.0
0.0,0.0,0.0,0.0
16.746,1.282,-0.922,0.0
15.321,1.17,-0.928,0.0
14.348,1.093,-0.951,0.0
13.105,0.995,-0.941,0.0
12.186,0.923,-0.943,0.0
0.0,0.0,0.0,0.0
16.829,1.262,-0.923,0.0
15.354,1.148,-0.927,0.0
14.26,1.063,-0.942,0.0
13.219,0.982,-0.947,0.0
12.254,0.908,-0.946,0.0
0.0,0.0,0.0,0.0
16.901,1.24,-0.923,0.0
15.448,1.13,-0.929,0.0
14.207,1.036,-0.935,0.0
13.23,0.962,-0.944,0.0
12.324,0.893,-0.948,0.0
0.0,0.0,0.0,0.0
16.981,1.218,-0.922,0.0
15.486,1.108,-0.927,0.0
14.55,1.037,-0.953,0.0
13.263,0.943,-0.942,0.0
12.37,0.876,-0.947,0.0
0.0,0.0,0.0,0.0
17.095,1.199,-0.923,0.0
15.629,1.092,-0.93,0.0
14.621,1.018,-0.952,0.0
13.371,0.928,-0.945,0.0
12.41,0.859,-0.946,0.0
19.231,1.322,-0.925,0.0
17.145,1.174,-0.919,0.0
15.841,1.081,-0.937,0.0
14.552,0.99,-0.942,0.0
13.404,0.908,-0.942,0.0
12.48,0.843,-0.946,0.0
19.308,1.295,-0.921,0.0
17.333,1.158,-0.922,0.0
0.0,0.0,0.0,0.0
14.549,0.965,-0.936,0.0
13.538,0.895,-0.946,0.0
12.559,0.827,-0.947,0.0
19.403,1.269,-0.917,0.0
0.0,0.0,0.0,0.0
0.0,0.0,0.0,0.0
14.628,0.946,-0.934,0.0
13.609,0.877,-0.944,0.0
12.654,0.813,-0.948,0.0
19.395,1.237,-0.907,0.0
0.0,0.0,0.0,0.0
0.0,0.0,0.0,0.0
14.819,0.934,-0.939,0.0
13.776,0.865,-0.948,0.0
12.751,0.798,-0.948,0.0
19.624,1.219,-0.908,0.0
0.0,0.0,0.0,0.0
0.0,0.0,0.0,0.0
14.919,0.915,-0.937,0.0
13.92,0.851,-0.95,0.0
12.79,0.779,-0.944,0.0
19.698,1.19,-0.9,0.0
0.0,0.0,0.0,0.0
16.331,0.979,-0.924,0.0
15.013,0.896,-0.934,1.0
13.95,0.829,-0.944,0.0
12.958,0.767,-0.948,0.0
19.87,1.168,-0.895,0.0
0.0,0.0,0.0,0.0
16.518,0.962,-0.925,0.0
15.092,0.876,-0.929,1.0
14.056,0.812,-0.942,0.0
13.041,0.75,-0.946,0.0
20.371,1.163,-0.905,0.0
0.0,0.0,0.0,0.0
16.597,0.939,-0.918,0.0
15.182,0.855,-0.924,0.0
14.249,0.799,-0.945,0.0
13.198,0.737,-0.948,0.0
20.868,1.156,-0.912,0.0
0.0,0.0,0.0,0.0
16.829,0.924,-0.919,0.0
15.313,0.837,-0.921,0.0
14.437,0.785,-0.947,0.0
13.29,0.72,-0.944,0.0
21.734,1.168,-0.934,0.0
19.007,1.017,-0.92,0.0
17.1,0.91,-0.921,0.0
15.62,0.828,-0.928,0.0
14.527,0.766,-0.942,0.0
13.408,0.704,-0.942,0.0
21.819,1.137,-0.921,0.0
19.078,0.989,-0.908,0.0
17.38,0.896,-0.922,0.0
15.928,0.817,-0.933,1.0
14.679,0.75,-0.94,0.0
13.569,0.69,-0.943,0.0
21.86,1.102,-0.904,0.0
20.122,1.009,-0.941,0.0
17.568,0.877,-0.917,0.0
16.251,0.807,-0.938,1.0
14.857,0.734,-0.939,0.0
0.0,0.0,0.0,0.0
21.84,1.066,-0.885,0.0
20.189,0.98,-0.927,5.0
20.235,0.977,-1.039,0.0
16.346,0.785,-0.929,0.0
15.059,0.719,-0.938,0.0
13.955,0.663,-0.945,0.0
20.247,0.954,-0.802,109.0
20.171,0.945,-0.908,20.0
20.191,0.941,-1.018,2.0
16.628,0.771,-0.93,0.0
15.289,0.705,-0.938,0.0
14.286,0.655,-0.954,0.0
20.18,0.918,-0.781,162.0
20.21,0.914,-0.891,53.0
0.0,0.0,0.0,0.0
20.195,0.903,-1.11,2.0
15.494,0.689,-0.935,0.0
14.405,0.637,-0.948,0.0
20.193,0.885,-0.761,160.0
20.223,0.881,-0.871,42.0
0.0,0.0,0.0,0.0
20.214,0.871,-1.091,1.0
15.799,0.676,-0.938,0.0
14.582,0.621,-0.944,0.0
20.234,0.854,-0.742,7.0
20.279,0.851,-0.853,4.0
19.59,0.817,-0.929,0.0
17.645,0.731,-0.934,0.0
16.096,0.663,-0.938,0.0
14.797,0.606,-0.943,0.0
24.606,0.999,-0.877,0.0
22.33,0.901,-0.915,0.0
20.118,0.807,-0.933,1.0
17.93,0.714,-0.929,0.0
16.336,0.647,-0.935,0.0
15.038,0.591,-0.941,0.0
0.0,0.0,0.0,0.0
22.589,0.875,-0.901,0.0
20.215,0.778,-0.915,0.0
18.24,0.697,-0.925,0.0
16.64,0.632,-0.933,0.0
15.314,0.578,-0.941,0.0
26.131,0.978,-0.873,1.0
23.027,0.856,-0.892,0.0
20.665,0.762,-0.911,0.0
18.613,0.682,-0.922,0.0
16.93,0.616,-0.93,0.0
15.575,0.563,-0.939,0.0
27.315,0.978,-0.88,0.0
23.818,0.847,-0.894,0.0
21.117,0.746,-0.906,0.0
18.83,0.66,-0.91,0.0
17.378,0.605,-0.933,0.0
15.991,0.553,-0.945,0.0
28.305,0.97,-0.878,0.0
24.474,0.832,-0.889,0.0
21.985,0.742,-0.916,0.0
19.676,0.659,-0.927,0.0
17.849,0.593,-0.936,0.0
16.257,0.537,-0.94,0.0
29.636,0.969,-0.882,0.0
25.144,0.816,-0.882,0.0
22.396,0.721,-0.905,0.0
20.094,0.642,-0.921,0.0
18.213,0.578,-0.932,0.0
16.539,0.52,-0.935,0.0
30.239,0.943,-0.861,1.0
26.153,0.808,-0.884,0.0
22.935,0.703,-0.897,0.0
20.549,0.625,-0.915,0.0
18.567,0.56,-0.926,0.0
16.85,0.504,-0.93,0.0
31.656,0.938,-0.86,1.0
26.898,0.791,-0.873,0.0
23.836,0.694,-0.901,0.0
21.122,0.61,-0.912,0.0
18.965,0.543,-0.92,0.0
17.32,0.492,-0.933,0.0
32.33,0.91,-0.834,1.0
28.29,0.789,-0.88,0.0
24.637,0.681,-0.897,0.0
21.902,0.6,-0.916,0.0
19.681,0.534,-0.928,0.0
17.824,0.48,-0.935,0.0
33.563,0.894,-0.82,0.0
29.46,0.778,-0.875,0.0
25.652,0.671,-0.898,0.0
22.513,0.583,-0.909,0.0
20.195,0.518,-0.923,0.0
18.238,0.463,-0.93,0.0
35.563,0.895,-0.817,0.0
30.864,0.769,-0.872,1.0
26.333,0.65,-0.884,0.0
23.041,0.563,-0.897,0.0
20.843,0.504,-0.922,0.0
18.71,0.448,-0.927,0.0
37.173,0.882,-0.8,0.0
31.926,0.75,-0.856,1.0
27.731,0.645,-0.89,0.0
24.116,0.555,-0.904,0.0
21.4,0.487,-0.915,0.0
19.209,0.433,-0.923,0.0
0.0,0.0,0.0,0.0
32.958,0.727,-0.834,1.0
28.673,0.626,-0.877,0.0
24.96,0.539,-0.898,0.0
22.345,0.477,-0.922,0.0
19.884,0.42,-0.925,0.0
0.0,0.0,0.0,0.0
35.166,0.727,-0.837,0.0
29.952,0.612,-0.87,0.0
26.015,0.525,-0.896,0.0
22.755,0.454,-0.903,0.0
20.564,0.406,-0.925,0.0
42.807,0.836,-0.727,0.0
37.307,0.72,-0.83,0.0
31.686,0.604,-0.871,1.0
26.835,0.505,-0.882,0.0
23.723,0.441,-0.905,0.0
20.131,0.37,-0.874,1.0
0.0,0.0,0.0,0.0
0.0,0.0,0.0,0.0
0.0,0.0,0.0,0.0
28.421,0.497,-0.889,0.0
24.794,0.428,-0.906,0.0
20.117,0.343,-0.84,4.0
0.0,0.0,0.0,0.0
0.0,0.0,0.0,0.0
34.555,0.566,-0.839,0.0
29.883,0.483,-0.886,0.0
25.819,0.412,-0.901,0.0
20.218,0.318,-0.812,0.0
0.0,0.0,0.0,0.0
42.984,0.658,-0.748,0.0
37.104,0.56,-0.84,0.0
20.201,0.3,-0.565,2.0
20.219,0.296,-0.672,7.0
20.226,0.292,-0.778,16.0
0.0,0.0,0.0,0.0
20.187,0.283,-0.317,0.0
20.222,0.279,-0.424,10.0
20.204,0.275,-0.531,25.0
20.211,0.27,-0.637,26.0
20.22,0.266,-0.743,25.0
0.0,0.0,0.0,0.0
20.19,0.258,-0.283,11.0
20.191,0.254,-0.389,23.0
20.175,0.249,-0.496,21.0
20.195,0.245,-0.602,30.0
20.213,0.241,-0.708,33.0
20.292,0.238,-0.143,0.0
20.206,0.233,-0.248,22.0
20.171,0.229,-0.353,28.0
20.18,0.225,-0.461,24.0
20.186,0.221,-0.567,33.0
20.201,0.217,-0.673,30.0
20.226,0.213,-0.108,1.0
20.168,0.209,-0.213,18.0
20.172,0.205,-0.318,29.0
20.181,0.201,-0.425,32.0
20.193,0.197,-0.531,28.0
20.203,0.193,-0.637,23.0
20.234,0.189,-0.072,17.0
20.183,0.185,-0.177,18.0
20.168,0.181,-0.282,33.0
20.164,0.177,-0.389,29.0
20.199,0.174,-0.495,27.0
20.21,0.17,-0.601,8.0
20.222,0.166,-0.036,25.0
20.18,0.162,-0.14,29.0
20.17,0.158,-0.245,33.0
20.19,0.155,-0.353,30.0
20.195,0.151,-0.458,13.0
32.073,0.234,-0.894,0.0
20.19,0.144,0.0,27.0
20.181,0.14,-0.104,36.0
20.173,0.136,-0.208,27.0
20.192,0.132,-0.316,28.0
20.196,0.129,-0.421,2.0
32.932,0.204,-0.858,0.0
20.197,0.122,0.038,40.0
20.176,0.118,-0.066,33.0
20.174,0.114,-0.171,29.0
20.204,0.111,-0.278,24.0
41.906,0.223,-0.796,2.0
0.0,0.0,0.0,0.0
20.2,0.1,0.075,39.0
20.192,0.097,-0.029,28.0
20.184,0.093,-0.134,29.0
20.197,0.09,-0.241,13.0
43.54,0.187,-0.746,0.0
37.814,0.156,-0.844,0.0
20.16,0.08,0.113,28.0
20.201,0.077,0.008,31.0
20.2,0.073,-0.096,26.0
20.2,0.07,-0.202,14.0
20.316,0.067,-0.309,0.0
20.252,0.063,-0.413,0.0
20.14,0.06,0.151,28.0
20.199,0.057,0.047,16.0
20.258,0.053,-0.057,7.0
20.249,0.05,-0.164,34.0
20.26,0.047,-0.269,63.0
20.273,0.044,-0.375,83.0
20.141,0.04,0.19,29.0
20.15,0.037,0.085,27.0
20.243,0.034,-0.018,152.0
20.256,0.031,-0.125,151.0
20.261,0.028,-0.23,151.0
20.267,0.025,-0.335,150.0
20.131,0.022,0.229,28.0
20.14,0.019,0.124,28.0
20.244,0.016,0.02,152.0
20.262,0.013,-0.086,150.0
20.248,0.01,-0.19,23.0
20.24,0.007,-0.295,8.0
20.12,0.004,0.268,27.0
20.115,0.001,0.163,27.0
20.138,-0.001,0.059,28.0
20.147,-0.004,-0.046,17.0
20.183,-0.007,-0.15,22.0
20.156,-0.009,-0.254,12.0
20.129,-0.012,0.307,32.0
20.109,-0.015,0.203,34.0
20.119,-0.018,0.099,37.0
20.116,-0.021,-0.006,33.0
20.152,-0.023,-0.11,31.0
20.145,-0.026,-0.214,13.0
20.124,-0.029,0.347,33.0
20.115,-0.031,0.243,30.0
20.12,-0.034,0.139,29.0
20.131,-0.037,0.033,37.0
20.131,-0.039,-0.069,31.0
20.145,-0.042,-0.173,34.0
20.115,-0.045,0.388,30.0
20.109,-0.047,0.284,30.0
20.114,-0.05,0.18,29.0
20.123,-0.052,0.074,39.0
20.129,-0.055,-0.028,33.0
20.133,-0.057,-0.133,32.0
20.115,-0.06,0.428,29.0
20.117,-0.062,0.325,29.0
20.13,-0.065,0.221,27.0
20.119,-0.067,0.115,31.0
20.124,-0.07,0.011,34.0
20.143,-0.072,-0.091,31.0
20.124,-0.074,0.469,27.0
20.119,-0.077,0.366,33.0
20.125,-0.079,0.262,27.0
20.118,-0.081,0.156,26.0
20.13,-0.083,0.052,37.0
20.141,-0.086,-0.051,28.0
20.137,-0.088,0.511,23.0
20.118,-0.09,0.406,26.0
20.115,-0.092,0.303,25.0
20.094,-0.094,0.197,20.0
20.127,-0.096,0.093,32.0
20.135,-0.099,-0.009,30.0
20.133,-0.101,0.552,17.0
20.112,-0.103,0.447,19.0
20.128,-0.105,0.344,21.0
20.096,-0.107,0.238,19.0
20.128,-0.109,0.134,18.0
20.143,-0.111,0.031,30.0
20.152,-0.113,0.594,14.0
20.137,-0.115,0.49,17.0
20.12,-0.117,0.386,16.0
20.126,-0.119,0.28,16.0
20.141,-0.121,0.176,17.0
20.152,-0.123,0.073,19.0
53.523,-0.333,1.689,33.0
20.154,-0.127,0.532,11.0
20.192,-0.129,0.429,20.0
20.164,-0.13,0.322,17.0
20.158,-0.132,0.218,16.0
20.176,-0.133,0.114,15.0
53.511,-0.361,1.799,120.0
20.183,-0.137,0.574,10.0
20.182,-0.139,0.47,17.0
20.235,-0.141,0.365,24.0
20.203,-0.142,0.26,17.0
20.217,-0.144,0.156,15.0
58.293,-0.422,2.08,201.0
53.499,-0.391,1.634,53.0
20.17,-0.149,0.512,7.0
20.24,-0.15,0.407,27.0
20.263,-0.152,0.303,16.0
58.325,-0.442,0.574,15.0
58.229,-0.448,2.198,255.0
53.508,-0.415,1.745,94.0
20.171,-0.158,0.554,8.0
20.152,-0.159,0.447,18.0
53.471,-0.425,0.912,12.0
66.527,-0.532,0.793,20.0
58.309,-0.474,2.324,255.0
53.535,-0.438,1.858,150.0
53.495,-0.44,1.58,124.0
20.134,-0.166,0.489,8.0
20.189,-0.168,0.386,12.0
64.356,-0.54,0.901,31.0
58.303,-0.496,2.445,255.0
58.254,-0.498,2.143,255.0
53.501,-0.46,1.691,85.0
20.146,-0.174,0.531,9.0
20.167,-0.175,0.427,24.0
53.479,-0.467,0.858,41.0
58.309,-0.516,2.565,255.0
58.241,-0.518,2.262,255.0
53.509,-0.477,1.802,116.0
53.493,-0.479,1.521,22.0
20.143,-0.181,0.469,12.0
20.194,-0.182,0.366,22.0
58.307,-0.534,2.688,255.0
58.307,-0.535,2.386,255.0
58.296,-0.537,2.086,150.0
53.497,-0.495,1.633,75.0
20.131,-0.186,0.51,13.0
20.171,-0.187,0.408,23.0
58.357,-0.55,2.813,162.0
58.308,-0.551,2.508,255.0
58.229,-0.551,2.204,255.0
53.502,-0.508,1.745,72.0
53.492,-0.509,1.468,15.0
20.144,-0.192,0.449,15.0
45.839,-0.442,2.304,50.0
58.312,-0.563,2.63,255.0
58.293,-0.564,2.327,255.0
53.528,-0.519,1.855,150.0
53.492,-0.519,1.579,59.0
20.143,-0.195,0.49,15.0
45.438,-0.447,2.378,15.0
58.252,-0.573,2.748,255.0
58.297,-0.574,2.449,255.0
58.256,-0.575,2.141,255.0
53.489,-0.528,1.69,44.0
20.158,-0.199,0.533,9.0
45.363,-0.453,2.468,30.0
45.947,-0.459,2.262,62.0
58.299,-0.582,2.568,255.0
58.223,-0.582,2.259,255.0
53.506,-0.534,1.8,102.0
53.442,-0.534,1.522,8.0
45.131,-0.456,2.548,43.0
45.46,-0.459,2.331,20.0
58.235,-0.587,2.685,255.0
58.31,-0.588,2.382,255.0
58.339,-0.587,2.081,150.0
53.455,-0.538,1.631,10.0
52.832,-0.537,3.092,18.0
45.497,-0.462,2.426,18.0
58.336,-0.592,2.809,154.0
58.31,-0.591,2.5,255.0
58.223,-0.589,2.195,255.0
53.497,-0.54,1.741,17.0
52.877,-0.54,3.202,48.0
45.158,-0.46,2.5,39.0
45.704,-0.465,2.294,43.0
58.31,-0.592,2.619,255.0
58.302,-0.59,2.317,255.0
53.525,-0.541,1.85,150.0
