X,Y,Z,Reflectivity
11.552,-0.08,-0.943,0.0
10.818,-0.076,-0.946,0.0
10.128,-0.073,-0.946,0.0
9.537,-0.07,-0.946,0.0
8.956,-0.066,-0.941,0.0
12.245,-0.094,-0.946,0.0
11.333,-0.089,-0.941,0.0
10.669,-0.085,-0.948,0.0
9.954,-0.081,-0.944,0.0
9.344,-0.077,-0.94,0.0
8.825,-0.074,-0.94,0.0
12.017,-0.104,-0.945,0.0
11.16,-0.098,-0.943,0.0
10.474,-0.093,-0.946,0.0
9.814,-0.089,-0.944,0.0
9.22,-0.085,-0.941,0.0
8.717,-0.081,-0.94,0.0
11.807,-0.113,-0.945,0.0
10.314,-0.102,-0.945,0.0
9.684,-0.097,-0.945,0.0
9.077,-0.092,-0.939,0.0
8.625,-0.089,-0.942,0.0
11.559,-0.122,-0.941,0.0
10.167,-0.111,-0.945,0.0
9.559,-0.105,-0.945,0.0
9.005,-0.101,-0.943,0.0
8.494,-0.096,-0.939,0.0
11.406,-0.132,-0.943,0.0
10.673,-0.125,-0.944,0.0
10.023,-0.119,-0.945,0.0
9.419,-0.114,-0.944,0.0
8.885,-0.108,-0.942,0.0
8.415,-0.104,-0.941,0.0
11.256,-0.142,-0.945,0.0
10.512,-0.134,-0.943,0.0
9.89,-0.128,-0.945,0.0
9.272,-0.121,-0.94,0.0
8.77,-0.116,-0.941,0.0
8.336,-0.112,-0.943,0.0
11.085,-0.152,-0.944,0.0
10.369,-0.144,-0.943,0.0
9.758,-0.137,-0.944,0.0
9.2,-0.13,-0.944,0.0
8.671,-0.124,-0.94,0.0
8.227,-0.119,-0.94,0.0
10.942,-0.161,-0.944,0.0
10.261,-0.153,-0.945,0.0
9.649,-0.145,-0.945,0.0
9.054,-0.138,-0.94,0.0
8.57,-0.132,-0.939,0.0
8.157,-0.127,-0.942,0.0
10.822,-0.171,-0.946,0.0
10.15,-0.162,-0.946,0.0
9.494,-0.153,-0.94,0.0
8.965,-0.146,-0.941,0.0
8.509,-0.14,-0.942,0.0
8.073,-0.135,-0.941,0.0
10.664,-0.181,-0.944,0.0
10.022,-0.171,-0.945,0.0
9.421,-0.163,-0.943,0.0
8.857,-0.154,-0.939,0.0
8.396,-0.148,-0.939,0.0
7.977,-0.142,-0.938,0.0
10.526,-0.19,-0.943,0.0
9.945,-0.181,-0.949,0.0
9.315,-0.171,-0.942,0.0
8.781,-0.163,-0.94,0.0
8.343,-0.156,-0.942,0.0
7.922,-0.15,-0.94,0.0
10.423,-0.2,-0.945,0.0
9.771,-0.189,-0.942,0.0
9.237,-0.181,-0.944,0.0
8.699,-0.172,-0.94,0.0
8.251,-0.164,-0.94,0.0
7.867,-0.158,-0.941,0.0
10.311,-0.21,-0.945,0.0
9.689,-0.199,-0.943,0.0
9.13,-0.189,-0.942,0.0
8.594,-0.179,-0.937,0.0
8.173,-0.172,-0.938,0.0
7.792,-0.166,-0.94,0.0
10.238,-0.22,-0.947,0.0
9.586,-0.208,-0.942,0.0
9.049,-0.198,-0.942,0.0
8.53,-0.188,-0.938,0.0
8.129,-0.181,-0.941,0.0
7.7,-0.173,-0.936,0.0
10.127,-0.23,-0.946,0.0
9.515,-0.217,-0.944,0.0
8.961,-0.206,-0.94,0.0
8.439,-0.196,-0.935,0.0
8.058,-0.189,-0.94,0.0
7.689,-0.182,-0.941,0.0
10.028,-0.239,-0.945,0.0
9.43,-0.227,-0.943,0.0
8.867,-0.215,-0.938,0.0
8.393,-0.205,-0.937,0.0
7.992,-0.197,-0.938,0.0
7.642,-0.19,-0.942,0.0
9.952,-0.249,-0.946,0.0
9.362,-0.236,-0.944,0.0
8.812,-0.224,-0.939,0.0
8.34,-0.214,-0.938,0.0
7.932,-0.205,-0.938,0.0
7.612,-0.198,-0.944,0.0
9.855,-0.259,-0.944,0.0
9.287,-0.245,-0.943,0.0
8.758,-0.233,-0.94,0.0
8.315,-0.223,-0.941,0.0
7.91,-0.214,-0.941,0.0
7.533,-0.205,-0.94,0.0
9.784,-0.269,-0.945,0.0
9.241,-0.256,-0.945,0.0
8.712,-0.243,-0.941,0.0
8.231,-0.231,-0.937,0.0
7.846,-0.222,-0.939,0.0
7.517,-0.214,-0.943,0.0
9.733,-0.279,-0.946,0.0
9.182,-0.265,-0.945,0.0
8.64,-0.251,-0.939,0.0
8.177,-0.239,-0.936,0.0
7.802,-0.23,-0.938,0.0
7.48,-0.222,-0.943,0.0
9.647,-0.288,-0.944,0.0
9.097,-0.274,-0.942,0.0
8.585,-0.26,-0.938,0.0
8.164,-0.249,-0.94,0.0
7.76,-0.238,-0.938,0.0
7.445,-0.23,-0.943,0.0
9.595,-0.298,-0.944,0.0
9.042,-0.283,-0.941,0.0
8.544,-0.269,-0.938,0.0
8.09,-0.257,-0.936,0.0
7.745,-0.247,-0.941,0.0
7.445,-0.239,-0.947,0.0
9.552,-0.309,-0.945,0.0
8.967,-0.292,-0.938,0.0
8.498,-0.278,-0.938,0.0
8.043,-0.265,-0.935,0.0
7.727,-0.256,-0.942,0.0
7.394,-0.247,-0.944,0.0
9.518,-0.319,-0.946,0.0
8.939,-0.302,-0.94,0.0
8.492,-0.288,-0.941,0.0
8.054,-0.275,-0.94,0.0
7.702,-0.265,-0.943,0.0
7.38,-0.255,-0.946,0.0
9.474,-0.329,-0.946,0.0
8.915,-0.312,-0.941,0.0
8.429,-0.297,-0.938,0.0
8.03,-0.284,-0.94,0.0
7.658,-0.273,-0.941,0.0
7.334,-0.263,-0.943,0.0
9.44,-0.34,-0.947,0.0
8.868,-0.321,-0.94,0.0
8.379,-0.305,-0.936,0.0
7.968,-0.292,-0.936,0.0
7.66,-0.283,-0.944,0.0
7.323,-0.272,-0.944,0.0
9.404,-0.35,-0.947,0.0
8.854,-0.332,-0.941,0.0
8.369,-0.315,-0.937,0.0
7.96,-0.302,-0.938,0.0
7.624,-0.291,-0.942,0.0
7.348,-0.282,-0.95,0.0
9.382,-0.361,-0.947,0.0
8.827,-0.342,-0.941,0.0
8.349,-0.325,-0.938,0.0
7.971,-0.312,-0.941,0.0
7.641,-0.301,-0.946,0.0
7.296,-0.289,-0.945,0.0
9.359,-0.372,-0.947,0.0
8.804,-0.351,-0.941,0.0
8.349,-0.335,-0.94,0.0
7.914,-0.319,-0.937,0.0
7.586,-0.308,-0.941,0.0
7.296,-0.298,-0.947,0.0
9.329,-0.382,-0.946,0.0
8.788,-0.362,-0.941,0.0
8.343,-0.345,-0.941,0.0
7.899,-0.329,-0.936,0.0
7.593,-0.318,-0.943,0.0
7.277,-0.306,-0.946,0.0
9.333,-0.393,-0.948,0.0
8.776,-0.372,-0.941,0.0
8.33,-0.355,-0.941,0.0
7.925,-0.339,-0.941,0.0
7.582,-0.326,-0.943,0.0
7.27,-0.315,-0.946,0.0
9.309,-0.404,-0.947,0.0
8.781,-0.383,-0.943,0.0
8.299,-0.364,-0.938,0.0
7.937,-0.35,-0.943,0.0
7.61,-0.337,-0.947,0.0
7.269,-0.323,-0.946,0.0
9.302,-0.415,-0.947,0.0
8.766,-0.393,-0.942,0.0
8.307,-0.374,-0.94,0.0
7.919,-0.358,-0.941,0.0
7.585,-0.345,-0.945,0.0
7.266,-0.332,-0.946,0.0
9.28,-0.425,-0.945,0.0
8.766,-0.403,-0.942,0.0
8.298,-0.383,-0.939,0.0
7.909,-0.367,-0.94,0.0
7.56,-0.353,-0.941,0.0
7.282,-0.341,-0.948,0.0
9.3,-0.437,-0.947,0.0
8.781,-0.414,-0.944,0.0
8.275,-0.392,-0.936,0.0
7.907,-0.377,-0.94,0.0
7.568,-0.362,-0.942,0.0
7.275,-0.35,-0.947,0.0
9.295,-0.447,-0.946,0.0
8.783,-0.425,-0.943,0.0
8.31,-0.404,-0.939,0.0
7.927,-0.387,-0.941,0.0
7.566,-0.371,-0.941,0.0
7.263,-0.358,-0.945,0.0
9.302,-0.459,-0.946,0.0
8.788,-0.435,-0.943,0.0
8.298,-0.413,-0.937,0.0
7.926,-0.396,-0.94,0.0
7.591,-0.381,-0.944,0.0
7.286,-0.368,-0.947,0.0
9.321,-0.47,-0.947,0.0
8.819,-0.447,-0.945,0.0
8.355,-0.425,-0.942,0.0
7.938,-0.406,-0.941,0.0
7.611,-0.391,-0.945,0.0
7.303,-0.377,-0.948,0.0
9.376,-0.484,-0.95,0.0
8.841,-0.458,-0.946,0.0
8.358,-0.435,-0.941,0.0
7.959,-0.416,-0.941,0.0
7.634,-0.401,-0.946,0.0
7.308,-0.385,-0.947,0.0
9.401,-0.496,-0.951,0.0
8.847,-0.468,-0.944,0.0
8.393,-0.446,-0.943,0.0
7.978,-0.426,-0.941,0.0
7.635,-0.409,-0.944,0.0
7.303,-0.393,-0.944,0.0
9.411,-0.507,-0.949,0.0
8.881,-0.48,-0.945,0.0
8.392,-0.455,-0.94,0.0
7.979,-0.435,-0.939,0.0
7.653,-0.419,-0.944,0.0
7.333,-0.403,-0.946,0.0
9.466,-0.52,-0.952,0.0
8.936,-0.493,-0.948,0.0
8.46,-0.468,-0.945,0.0
7.999,-0.445,-0.939,0.0
7.694,-0.43,-0.946,0.0
7.363,-0.413,-0.947,0.0
9.51,-0.533,-0.953,0.0
8.969,-0.504,-0.949,0.0
8.452,-0.477,-0.941,0.0
8.034,-0.455,-0.94,0.0
7.691,-0.438,-0.943,0.0
7.379,-0.422,-0.946,0.0
9.532,-0.544,-0.951,0.0
9.009,-0.516,-0.949,0.0
8.495,-0.489,-0.942,0.0
8.058,-0.465,-0.939,0.0
7.742,-0.449,-0.946,0.0
7.408,-0.431,-0.946,0.0
9.578,-0.557,-0.952,0.0
9.053,-0.528,-0.95,0.0
8.51,-0.498,-0.94,0.0
8.098,-0.476,-0.94,0.0
7.751,-0.457,-0.943,0.0
7.422,-0.439,-0.944,0.0
9.653,-0.571,-0.954,0.0
9.072,-0.539,-0.947,0.0
8.581,-0.511,-0.943,0.0
8.146,-0.487,-0.941,0.0
7.792,-0.468,-0.944,0.0
7.431,-0.448,-0.942,0.0
9.687,-0.583,-0.953,0.0
9.147,-0.552,-0.95,0.0
8.624,-0.522,-0.943,0.0
8.154,-0.496,-0.938,0.0
7.829,-0.478,-0.944,0.0
7.496,-0.459,-0.946,0.0
9.764,-0.597,-0.955,0.0
9.183,-0.563,-0.949,0.0
8.677,-0.534,-0.944,0.0
8.226,-0.508,-0.941,0.0
7.876,-0.488,-0.945,0.0
7.518,-0.467,-0.944,0.0
9.804,-0.609,-0.953,0.0
9.255,-0.576,-0.95,0.0
8.748,-0.547,-0.946,0.0
8.281,-0.519,-0.942,0.0
7.902,-0.497,-0.943,0.0
7.57,-0.478,-0.945,0.0
9.885,-0.623,-0.954,0.0
9.344,-0.591,-0.953,0.0
8.814,-0.559,-0.948,0.0
8.308,-0.528,-0.94,0.0
7.943,-0.507,-0.943,0.0
7.596,-0.486,-0.943,0.0
9.966,-0.637,-0.955,0.0
9.414,-0.604,-0.954,0.0
8.879,-0.571,-0.948,0.0
8.39,-0.541,-0.943,0.0
8.004,-0.518,-0.944,0.0
7.652,-0.497,-0.945,0.0
10.044,-0.651,-0.955,0.0
9.489,-0.617,-0.955,0.0
8.938,-0.583,-0.948,0.0
8.463,-0.553,-0.945,0.0
8.056,-0.528,-0.944,0.0
7.712,-0.507,-0.946,0.0
10.135,-0.666,-0.956,0.0
9.583,-0.631,-0.957,0.0
9.024,-0.596,-0.95,0.0
8.551,-0.566,-0.948,0.0
8.103,-0.538,-0.943,0.0
7.778,-0.518,-0.948,0.0
10.244,-0.681,-0.958,0.0
9.675,-0.645,-0.958,0.0
9.109,-0.609,-0.952,0.0
8.614,-0.578,-0.948,0.0
8.176,-0.55,-0.945,0.0
7.822,-0.527,-0.947,0.0
10.337,-0.696,-0.958,0.0
9.756,-0.658,-0.958,0.0
9.209,-0.623,-0.954,0.0
8.685,-0.589,-0.948,0.0
8.26,-0.562,-0.947,0.0
7.875,-0.537,-0.946,0.0
10.402,-0.708,-0.955,0.0
9.851,-0.672,-0.958,0.0
9.262,-0.634,-0.952,0.0
8.767,-0.601,-0.949,0.0
8.321,-0.572,-0.947,0.0
7.918,-0.546,-0.944,0.0
10.539,-0.725,-0.959,0.0
9.93,-0.685,-0.957,0.0
9.397,-0.65,-0.957,0.0
8.848,-0.613,-0.95,0.0
8.38,-0.582,-0.946,0.0
7.977,-0.556,-0.944,0.0
10.594,-0.736,-0.953,0.0
10.04,-0.7,-0.958,0.0
9.492,-0.663,-0.957,0.0
8.944,-0.626,-0.952,0.0
8.455,-0.593,-0.946,0.0
8.058,-0.567,-0.945,0.0
10.718,-0.752,-0.954,0.0
10.153,-0.714,-0.959,0.0
9.611,-0.678,-0.96,0.0
9.033,-0.638,-0.952,0.0
8.56,-0.606,-0.949,0.0
8.121,-0.577,-0.945,0.0
10.865,-0.77,-0.956,0.0
10.223,-0.726,-0.955,0.0
9.667,-0.688,-0.956,0.0
9.14,-0.652,-0.954,0.0
8.661,-0.619,-0.951,0.0
8.207,-0.588,-0.946,0.0
11.0,-0.786,-0.957,0.0
10.353,-0.741,-0.957,0.0
9.809,-0.704,-0.959,0.0
9.274,-0.667,-0.958,0.0
8.773,-0.632,-0.954,0.0
8.292,-0.599,-0.947,0.0
11.138,-0.802,-0.957,0.0
10.513,-0.759,-0.96,0.0
9.932,-0.718,-0.961,0.0
9.345,-0.677,-0.955,0.0
8.842,-0.642,-0.952,0.0
8.36,-0.608,-0.945,0.0
11.312,-0.821,-0.96,0.0
10.619,-0.772,-0.958,0.0
10.035,-0.731,-0.959,0.0
9.498,-0.693,-0.96,0.0
8.907,-0.651,-0.949,0.0
8.498,-0.623,-0.951,0.0
11.491,-0.84,-0.962,0.0
10.721,-0.785,-0.955,0.0
10.16,-0.745,-0.96,0.0
9.587,-0.704,-0.958,0.0
9.077,-0.668,-0.956,0.0
8.612,-0.635,-0.954,0.0
11.646,-0.857,-0.961,0.0
10.867,-0.801,-0.955,0.0
10.297,-0.76,-0.961,0.0
9.705,-0.717,-0.959,0.0
9.199,-0.681,-0.958,0.0
8.681,-0.644,-0.951,0.0
11.839,-0.876,-0.963,0.0
11.041,-0.818,-0.957,0.0
10.441,-0.775,-0.961,0.0
9.85,-0.732,-0.961,0.0
9.323,-0.694,-0.96,0.0
8.786,-0.655,-0.952,0.0
12.025,-0.895,-0.964,0.0
11.203,-0.835,-0.958,0.0
10.561,-0.788,-0.959,0.0
9.972,-0.745,-0.961,0.0
9.432,-0.706,-0.959,0.0
8.907,-0.668,-0.954,0.0
12.261,-0.917,-0.967,0.0
11.425,-0.855,-0.962,0.0
10.711,-0.803,-0.96,0.0
10.105,-0.759,-0.961,0.0
9.601,-0.722,-0.964,0.0
9.024,-0.679,-0.955,0.0
12.525,-0.941,-0.972,0.0
11.595,-0.872,-0.962,0.0
10.939,-0.824,-0.966,0.0
10.208,-0.769,-0.957,0.0
9.722,-0.734,-0.964,0.0
9.157,-0.692,-0.957,0.0
12.717,-0.959,-0.971,0.0
11.791,-0.89,-0.963,0.0
11.058,-0.836,-0.962,0.0
10.392,-0.786,-0.961,0.0
9.837,-0.745,-0.962,0.0
9.278,-0.704,-0.957,0.0
12.892,-0.975,-0.967,0.0
12.011,-0.909,-0.965,0.0
11.221,-0.851,-0.961,0.0
10.539,-0.8,-0.961,0.0
9.978,-0.758,-0.963,0.0
9.413,-0.716,-0.959,0.0
13.09,-0.993,-0.965,0.0
12.208,-0.927,-0.964,0.0
11.436,-0.869,-0.964,0.0
10.681,-0.812,-0.959,0.0
10.13,-0.771,-0.964,0.0
9.588,-0.731,-0.963,0.0
13.901,-1.057,-1.005,0.0
12.487,-0.95,-0.969,0.0
11.649,-0.887,-0.966,0.0
10.864,-0.828,-0.96,0.0
10.273,-0.784,-0.963,0.0
9.723,-0.742,-0.963,0.0
14.005,-1.066,-0.994,0.0
12.704,-0.968,-0.969,0.0
11.796,-0.9,-0.962,0.0
11.047,-0.843,-0.961,0.0
10.444,-0.798,-0.964,0.0
9.893,-0.756,-0.966,0.0
14.111,-1.076,-0.981,0.0
12.925,-0.986,-0.967,0.0
12.102,-0.924,-0.97,0.0
11.231,-0.858,-0.961,0.0
10.563,-0.807,-0.96,0.0
9.995,-0.764,-0.962,0.0
14.248,-1.087,-0.971,1.0
13.157,-1.004,-0.966,0.0
12.384,-0.946,-0.975,0.0
11.449,-0.875,-0.963,0.0
10.726,-0.82,-0.96,0.0
10.18,-0.779,-0.965,0.0
14.284,-1.09,-0.953,1.0
14.046,-1.072,-1.011,0.0
12.549,-0.958,-0.97,0.0
11.679,-0.892,-0.966,0.0
11.028,-0.843,-0.97,0.0
10.318,-0.789,-0.963,0.0
14.287,-1.09,-0.932,1.0
13.963,-1.065,-0.985,0.0
12.756,-0.973,-0.967,0.0
11.914,-0.909,-0.967,0.0
11.109,-0.848,-0.961,0.0
10.496,-0.802,-0.964,0.0
14.284,-1.088,-0.911,1.0
14.202,-1.082,-0.981,0.0
13.049,-0.995,-0.97,0.0
12.201,-0.93,-0.973,0.0
11.366,-0.867,-0.966,0.0
10.678,-0.814,-0.965,0.0
14.294,-1.088,-0.89,1.0
14.289,-1.087,-0.966,1.0
13.858,-1.054,-1.01,0.0
12.395,-0.943,-0.97,0.0
11.569,-0.88,-0.966,0.0
10.873,-0.828,-0.966,0.0
14.326,-1.088,-0.871,1.0
14.315,-1.087,-0.946,1.0
13.875,-1.053,-0.99,0.0
12.654,-0.96,-0.971,0.0
11.817,-0.897,-0.969,0.0
11.042,-0.838,-0.964,0.0
14.436,-1.093,-0.856,1.0
14.313,-1.083,-0.924,1.0
14.07,-1.065,-0.983,0.0
12.922,-0.978,-0.972,0.0
12.049,-0.912,-0.97,0.0
11.264,-0.852,-0.967,0.0
14.673,-1.107,-0.848,1.0
14.32,-1.081,-0.903,1.0
14.294,-1.078,-0.977,1.0
13.189,-0.995,-0.972,0.0
12.351,-0.931,-0.976,0.0
11.467,-0.864,-0.966,0.0
15.011,-1.129,-0.845,1.0
14.322,-1.076,-0.881,1.0
14.314,-1.075,-0.956,1.0
13.929,-1.046,-1.005,0.0
12.542,-0.942,-0.971,0.0
11.706,-0.878,-0.968,0.0
15.283,-1.144,-0.836,1.0
14.373,-1.075,-0.862,1.0
14.332,-1.072,-0.935,1.0
13.901,-1.039,-0.981,0.0
12.764,-0.954,-0.969,0.0
11.958,-0.893,-0.971,0.0
15.563,-1.159,-0.828,1.0
14.614,-1.088,-0.854,0.0
14.35,-1.067,-0.914,1.0
14.249,-1.059,-0.984,0.0
13.073,-0.971,-0.972,0.0
12.219,-0.907,-0.973,0.0
15.842,-1.173,-0.818,0.0
14.91,-1.103,-0.848,0.0
14.373,-1.063,-0.893,1.0
14.348,-1.06,-0.968,1.0
14.038,-1.037,-1.021,0.0
12.474,-0.92,-0.973,0.0
16.189,-1.192,-0.811,1.0
15.214,-1.119,-0.842,1.0
14.409,-1.059,-0.873,1.0
14.372,-1.055,-0.948,1.0
13.82,-1.014,-0.984,0.0
12.737,-0.933,-0.974,0.0
16.585,-1.212,-0.805,1.0
15.427,-1.127,-0.829,1.0
14.529,-1.06,-0.857,0.0
14.397,-1.049,-0.927,1.0
14.123,-1.028,-0.983,0.0
12.995,-0.945,-0.973,0.0
17.087,-1.24,-0.802,2.0
15.74,-1.14,-0.821,1.0
14.821,-1.073,-0.851,1.0
14.435,-1.044,-0.906,1.0
14.415,-1.041,-0.981,0.0
14.156,-1.021,-1.038,0.0
17.472,-1.257,-0.793,1.0
16.144,-1.16,-0.817,1.0
15.143,-1.087,-0.846,1.0
14.443,-1.035,-0.884,1.0
14.443,-1.034,-0.96,1.0
13.998,-1.001,-1.004,0.0
18.069,-1.289,-0.791,2.0
16.477,-1.173,-0.808,1.0
15.366,-1.093,-0.834,1.0
14.492,-1.029,-0.864,1.0
14.47,-1.026,-0.939,1.0
14.022,-0.993,-0.983,0.0
18.591,-1.313,-0.785,0.0
16.877,-1.19,-0.801,1.0
15.68,-1.104,-0.826,1.0
14.732,-1.036,-0.855,0.0
14.492,-1.017,-0.917,1.0
14.366,-1.007,-0.985,0.0
19.295,-1.349,-0.785,0.0
17.398,-1.215,-0.798,1.0
15.992,-1.114,-0.818,1.0
15.098,-1.05,-0.853,1.0
14.522,-1.009,-0.896,1.0
14.52,-1.007,-0.973,1.0
20.0,-1.384,-0.782,1.0
17.991,-1.242,-0.798,2.0
16.331,-1.125,-0.81,1.0
15.391,-1.059,-0.845,1.0
14.577,-1.001,-0.877,1.0
14.545,-0.997,-0.951,1.0
20.623,-1.41,-0.774,1.0
18.477,-1.261,-0.79,0.0
16.826,-1.146,-0.808,1.0
15.62,-1.062,-0.833,1.0
14.66,-0.994,-0.859,0.0
14.57,-0.986,-0.93,1.0
21.255,-1.435,-0.765,0.0
19.088,-1.286,-0.787,1.0
17.211,-1.157,-0.799,1.0
15.918,-1.068,-0.824,1.0
15.019,-1.005,-0.856,0.0
14.621,-0.977,-0.91,1.0
22.215,-1.48,-0.765,0.0
19.828,-1.318,-0.786,0.0
17.948,-1.19,-0.806,0.0
16.234,-1.074,-0.815,1.0
15.28,-1.009,-0.848,1.0
14.647,-0.965,-0.889,1.0
23.356,-1.535,-0.768,5.0
20.489,-1.343,-0.781,1.0
18.367,-1.201,-0.796,2.0
16.642,-1.085,-0.81,1.0
15.55,-1.012,-0.839,1.0
14.714,-0.955,-0.871,1.0
23.793,-1.54,-0.746,13.0
20.993,-1.356,-0.768,0.0
18.964,-1.221,-0.793,0.0
17.132,-1.1,-0.808,0.0
15.845,-1.015,-0.83,1.0
14.952,-0.955,-0.862,0.0
23.98,-1.528,-0.715,15.0
21.915,-1.393,-0.768,0.0
19.587,-1.241,-0.789,0.0
17.664,-1.116,-0.806,0.0
16.146,-1.018,-0.821,1.0
15.236,-0.958,-0.855,0.0
24.305,-1.523,-0.687,22.0
23.023,-1.439,-0.772,1.0
20.343,-1.268,-0.788,0.0
18.296,-1.137,-0.807,2.0
16.48,-1.021,-0.813,1.0
15.499,-0.957,-0.846,1.0
24.381,-1.502,-0.653,29.0
23.736,-1.458,-0.76,9.0
20.963,-1.283,-0.781,2.0
18.721,-1.142,-0.797,0.0
16.962,-1.032,-0.811,0.0
15.742,-0.955,-0.836,1.0
24.427,-1.477,-0.617,34.0
23.897,-1.44,-0.729,13.0
21.561,-1.295,-0.77,1.0
19.34,-1.158,-0.795,1.0
17.471,-1.042,-0.809,1.0
16.086,-0.956,-0.83,1.0
24.459,-1.451,-0.582,43.0
24.213,-1.431,-0.703,14.0
22.528,-1.326,-0.772,1.0
20.052,-1.177,-0.794,2.0
18.008,-1.053,-0.808,0.0
16.296,-0.949,-0.817,1.0
24.488,-1.422,-0.546,42.0
24.364,-1.41,-0.671,22.0
23.664,-1.364,-0.776,5.0
20.603,-1.183,-0.785,2.0
18.487,-1.058,-0.802,1.0
16.758,-0.955,-0.815,0.0
24.522,-1.394,-0.511,46.0
24.44,-1.384,-0.637,24.0
23.834,-1.344,-0.747,14.0
21.268,-1.195,-0.78,1.0
19.046,-1.066,-0.798,0.0
17.172,-0.957,-0.81,0.0
24.545,-1.364,-0.476,38.0
24.484,-1.355,-0.603,27.0
24.026,-1.324,-0.718,15.0
22.034,-1.209,-0.776,1.0
19.686,-1.076,-0.797,0.0
17.671,-0.962,-0.808,0.0
24.572,-1.333,-0.442,22.0
24.495,-1.323,-0.569,25.0
24.323,-1.308,-0.693,19.0
23.009,-1.232,-0.778,5.0
20.429,-1.089,-0.798,1.0
18.255,-0.969,-0.81,0.0
37.968,-2.009,-0.629,5.0
30.588,-1.611,-0.667,25.0
24.483,-1.283,-0.663,19.0
23.643,-1.234,-0.767,10.0
21.004,-1.091,-0.792,1.0
18.727,-0.968,-0.804,0.0
38.011,-1.959,-0.577,10.0
30.757,-1.577,-0.628,28.0
24.61,-1.255,-0.632,4.0
23.873,-1.212,-0.741,14.0
21.703,-1.096,-0.788,1.0
19.322,-0.971,-0.803,0.0
38.687,-1.938,-0.534,2.0
31.012,-1.545,-0.591,27.0
30.233,-1.499,-0.735,8.0
24.207,-1.194,-0.718,15.0
22.238,-1.091,-0.777,2.0
19.837,-0.968,-0.797,0.0
31.255,-1.519,-0.388,34.0
31.165,-1.507,-0.551,39.0
30.521,-1.467,-0.7,26.0
24.553,-1.174,-0.695,5.0
23.47,-1.116,-0.788,5.0
20.626,-0.976,-0.801,0.0
31.209,-1.47,-0.346,43.0
31.182,-1.461,-0.51,44.0
30.612,-1.426,-0.662,31.0
24.659,-1.142,-0.665,0.0
23.784,-1.095,-0.767,13.0
21.261,-0.973,-0.798,0.0
31.178,-1.421,-0.304,48.0
31.193,-1.414,-0.469,60.0
30.764,-1.386,-0.625,31.0
28.583,-1.28,-0.734,9.0
23.933,-1.065,-0.741,16.0
21.898,-0.969,-0.793,3.0
28.473,-1.254,-0.241,57.0
28.464,-1.245,-0.391,58.0
28.452,-1.237,-0.541,55.0
28.451,-1.229,-0.694,57.0
24.408,-1.048,-0.725,16.0
22.299,-0.951,-0.78,1.0
28.453,-1.208,-0.205,114.0
28.45,-1.199,-0.355,111.0
28.445,-1.191,-0.505,112.0
28.456,-1.184,-0.659,124.0
25.046,-1.035,-0.712,4.0
23.6,-0.968,-0.796,5.0
28.452,-1.162,-0.17,150.0
28.44,-1.153,-0.32,99.0
28.45,-1.145,-0.47,67.0
28.458,-1.137,-0.623,58.0
28.359,-1.124,-0.771,7.0
23.797,-0.937,-0.773,14.0
28.469,-1.115,-0.135,66.0
28.452,-1.106,-0.285,23.0
31.261,-1.205,-0.478,33.0
30.682,-1.174,-0.635,29.0
28.571,-1.085,-0.742,2.0
23.95,-0.902,-0.749,19.0
31.329,-1.174,-0.11,67.0
31.369,-1.165,-0.276,28.0
31.382,-1.157,-0.443,7.0
30.952,-1.132,-0.604,27.0
30.327,-1.099,-0.752,8.0
24.576,-0.884,-0.74,14.0
80.996,-2.896,-0.191,17.0
54.565,-1.934,-0.418,0.0
44.946,-1.58,-0.582,10.0
31.303,-1.091,-0.574,26.0
30.459,-1.052,-0.72,22.0
25.231,-0.864,-0.731,5.0
81.029,-2.757,-0.1,26.0
38.779,-1.307,-0.253,11.0
38.678,-1.292,-0.457,24.0
37.958,-1.257,-0.654,9.0
30.522,-1.001,-0.688,35.0
27.666,-0.899,-0.77,1.0
38.703,-1.249,-0.004,54.0
38.673,-1.236,-0.21,55.0
38.637,-1.222,-0.414,39.0
38.049,-1.192,-0.614,14.0
30.685,-0.952,-0.658,33.0
28.324,-0.87,-0.758,1.0
38.648,-1.178,0.037,69.0
38.649,-1.165,-0.167,70.0
38.643,-1.153,-0.373,62.0
38.236,-1.129,-0.576,18.0
30.963,-0.904,-0.631,30.0
29.899,-0.864,-0.768,4.0
38.66,-1.108,0.077,86.0
38.644,-1.095,-0.127,73.0
38.659,-1.083,-0.333,55.0
38.449,-1.065,-0.539,18.0
31.276,-0.856,-0.605,23.0
30.359,-0.821,-0.749,18.0
38.666,-1.037,0.117,65.0
38.668,-1.024,-0.087,38.0
38.711,-1.013,-0.293,37.0
38.626,-0.998,-0.502,23.0
37.853,-0.966,-0.694,7.0
30.472,-0.768,-0.721,31.0
0.0,0.0,0.0,0.0
0.0,0.0,0.0,0.0
40.411,-0.983,-0.267,37.0
0.0,0.0,0.0,0.0
37.971,-0.899,-0.66,19.0
30.596,-0.714,-0.694,32.0
40.419,-0.933,0.202,77.0
40.419,-0.919,-0.013,104.0
40.426,-0.907,-0.228,28.0
40.433,-0.893,-0.448,15.0
38.125,-0.829,-0.626,22.0
30.869,-0.661,-0.671,30.0
38.381,-0.812,0.228,44.0
38.384,-0.8,0.023,17.0
45.606,-0.935,-0.215,12.0
45.44,-0.917,-0.462,26.0
38.333,-0.761,-0.594,13.0
31.266,-0.61,-0.652,23.0
52.968,-1.018,0.363,42.0
53.014,-1.002,0.079,19.0
52.962,-0.983,-0.203,33.0
52.923,-0.965,-0.491,19.0
44.872,-0.803,-0.656,6.0
35.886,-0.63,-0.717,2.0
20.145,-0.348,0.155,2.0
20.138,-0.341,0.048,47.0
20.105,-0.333,-0.059,13.0
52.959,-0.861,-0.446,19.0
44.862,-0.714,-0.618,21.0
0.0,0.0,0.0,0.0
20.128,-0.308,0.172,15.0
20.153,-0.301,0.064,25.0
20.114,-0.294,-0.043,0.0
56.599,-0.809,-0.43,11.0
44.992,-0.628,-0.583,30.0
37.835,-0.515,-0.693,21.0
20.132,-0.268,0.188,10.0
20.167,-0.262,0.08,1.0
59.574,-0.753,-0.08,12.0
56.645,-0.697,-0.386,4.0
45.15,-0.54,-0.55,18.0
38.003,-0.442,-0.667,29.0
20.164,-0.228,0.204,2.0
56.159,-0.617,0.268,9.0
56.164,-0.598,-0.033,0.0
56.451,-0.581,-0.342,1.0
46.239,-0.461,-0.529,4.0
20.181,-0.194,-0.339,9.0
53.387,-0.499,0.58,5.0
53.368,-0.48,0.293,5.0
53.325,-0.46,0.006,4.0
20.182,-0.167,-0.108,9.0
20.137,-0.16,-0.216,9.0
20.155,-0.153,-0.324,29.0
20.18,-0.147,0.233,17.0
20.146,-0.139,0.125,15.0
20.153,-0.132,0.016,25.0
20.165,-0.126,-0.094,26.0
20.158,-0.119,-0.202,22.0
20.138,-0.112,-0.31,38.0
20.123,-0.105,0.246,27.0
20.117,-0.098,0.138,24.0
20.122,-0.091,0.029,32.0
20.141,-0.084,-0.08,33.0
20.149,-0.077,-0.189,35.0
20.138,-0.07,-0.298,29.0
20.129,-0.063,0.259,31.0
20.123,-0.056,0.15,30.0
20.13,-0.049,0.042,39.0
20.135,-0.042,-0.068,29.0
20.173,-0.035,-0.177,26.0
20.159,-0.028,-0.286,16.0
20.129,-0.021,0.271,27.0
20.126,-0.015,0.162,28.0
20.151,-0.008,0.054,27.0
20.261,-0.001,-0.057,150.0
20.251,0.005,-0.166,151.0
20.266,0.012,-0.276,150.0
20.134,0.019,0.282,30.0
20.131,0.026,0.173,28.0
20.158,0.033,0.065,18.0
20.232,0.041,-0.046,7.0
20.226,0.047,-0.155,25.0
20.251,0.055,-0.265,0.0
20.15,0.061,0.293,28.0
20.138,0.068,0.184,29.0
20.195,0.075,0.075,31.0
20.19,0.083,-0.035,28.0
20.186,0.089,-0.145,32.0
20.199,0.096,-0.255,25.0
20.161,0.103,0.303,30.0
20.159,0.11,0.194,26.0
20.197,0.118,0.085,34.0
20.18,0.125,-0.026,27.0
20.178,0.132,-0.136,38.0
20.17,0.138,-0.245,35.0
20.187,0.146,0.313,26.0
20.182,0.153,0.203,20.0
20.247,0.161,0.094,26.0
20.301,0.168,-0.017,25.0
20.219,0.175,-0.127,23.0
20.175,0.181,-0.237,22.0
20.295,0.19,0.323,32.0
20.301,0.197,0.212,28.0
20.325,0.204,0.102,29.0
20.334,0.212,-0.009,5.0
0.0,0.0,0.0,0.0
20.197,0.224,-0.229,17.0
20.287,0.233,0.33,28.0
20.284,0.24,0.22,16.0
99.609,1.214,0.538,5.0
99.575,1.249,-0.013,4.0
0.0,0.0,0.0,0.0
0.0,0.0,0.0,0.0
194.762,2.653,3.24,29.0
0.0,0.0,0.0,0.0
99.638,1.426,0.571,5.0
99.772,1.462,0.018,4.0
0.0,0.0,0.0,0.0
0.0,0.0,0.0,0.0
194.839,3.067,3.3,30.0
0.0,0.0,0.0,0.0
99.777,1.64,0.601,5.0
99.807,1.673,0.045,9.0
0.0,0.0,0.0,0.0
0.0,0.0,0.0,0.0
194.498,3.473,3.345,14.0
103.188,1.878,1.211,26.0
99.96,1.854,0.626,3.0
99.953,1.888,0.07,2.0
0.0,0.0,0.0,0.0
0.0,0.0,0.0,0.0
195.501,3.909,3.407,13.0
103.157,2.098,1.233,8.0
100.053,2.068,0.648,1.0
100.021,2.102,0.09,20.0
0.0,0.0,0.0,0.0
0.0,0.0,0.0,0.0
194.198,4.295,3.42,21.0
0.0,0.0,0.0,0.0
102.933,2.345,0.684,4.0
100.106,2.316,0.107,11.0
0.0,0.0,0.0,0.0
0.0,0.0,0.0,0.0
193.601,4.693,3.439,30.0
195.175,4.796,2.396,8.0
103.114,2.569,0.7,7.0
100.398,2.535,0.12,1.0
0.0,0.0,0.0,0.0
0.0,0.0,0.0,0.0
193.451,5.103,3.458,32.0
195.13,5.209,2.416,29.0
103.184,2.788,0.71,2.0
103.306,2.827,0.133,2.0
0.0,0.0,0.0,0.0
0.0,0.0,0.0,0.0
193.573,5.514,3.474,8.0
195.653,5.64,2.436,21.0
195.963,5.711,1.361,35.0
0.0,0.0,0.0,0.0
0.0,0.0,0.0,0.0
0.0,0.0,0.0,0.0
0.0,0.0,0.0,0.0
195.481,6.044,2.439,9.0
196.132,6.128,1.367,33.0
0.0,0.0,0.0,0.0
0.0,0.0,0.0,0.0
0.0,0.0,0.0,0.0
195.11,6.381,3.508,25.0
195.541,6.458,2.438,8.0
196.33,6.549,1.365,25.0
0.0,0.0,0.0,0.0
0.0,0.0,0.0,0.0
0.0,0.0,0.0,0.0
195.546,6.806,3.508,22.0
195.893,6.881,2.433,24.0
196.314,6.96,1.354,28.0
0.0,0.0,0.0,0.0
0.0,0.0,0.0,0.0
0.0,0.0,0.0,0.0
203.356,7.504,3.632,6.0
0.0,0.0,0.0,0.0
195.138,7.326,1.329,29.0
0.0,0.0,0.0,0.0
0.0,0.0,0.0,0.0
0.0,0.0,0.0,0.0
0.0,0.0,0.0,0.0
203.922,8.016,2.49,6.0
196.637,7.791,1.314,34.0
0.0,0.0,0.0,0.0
0.0,0.0,0.0,0.0
0.0,0.0,0.0,0.0
196.901,8.085,3.465,11.0
0.0,0.0,0.0,0.0
196.651,8.196,1.281,25.0
0.0,0.0,0.0,0.0
0.0,0.0,0.0,0.0
0.0,0.0,0.0,0.0
195.578,8.432,3.404,31.0
195.516,8.491,2.319,56.0
195.528,8.549,1.234,44.0
0.0,0.0,0.0,0.0
0.0,0.0,0.0,0.0
0.0,0.0,0.0,0.0
0.0,0.0,0.0,0.0
206.284,9.379,2.399,10.0
197.017,9.019,1.197,32.0
0.0,0.0,0.0,0.0
0.0,0.0,0.0,0.0
0.0,0.0,0.0,0.0
0.0,0.0,0.0,0.0
0.0,0.0,0.0,0.0
197.165,9.424,1.144,25.0
0.0,0.0,0.0,0.0
0.0,0.0,0.0,0.0
0.0,0.0,0.0,0.0
197.655,9.729,3.284,9.0
197.841,9.798,2.187,24.0
197.14,9.82,1.081,32.0
0.0,0.0,0.0,0.0
0.0,0.0,0.0,0.0
0.0,0.0,0.0,0.0
0.0,0.0,0.0,0.0
201.814,10.397,2.162,16.0
197.129,10.217,1.012,9.0
0.0,0.0,0.0,0.0
69.024,3.617,-0.421,0.0
0.0,0.0,0.0,0.0
199.746,10.632,3.177,7.0
206.991,11.079,2.138,9.0
0.0,0.0,0.0,0.0
0.0,0.0,0.0,0.0
68.914,3.75,-0.448,0.0
0.0,0.0,0.0,0.0
195.856,10.815,3.035,5.0
195.913,10.873,1.942,6.0
197.547,11.02,0.856,25.0
0.0,0.0,0.0,0.0
68.976,3.886,-0.478,2.0
0.0,0.0,0.0,0.0
0.0,0.0,0.0,0.0
0.0,0.0,0.0,0.0
197.456,11.397,0.766,30.0
0.0,0.0,0.0,0.0
68.969,4.02,-0.509,4.0
0.0,0.0,0.0,0.0
208.117,12.298,3.034,10.0
208.186,12.359,1.871,7.0
197.589,11.783,0.67,24.0
0.0,0.0,0.0,0.0
69.006,4.154,-0.544,0.0
0.0,0.0,0.0,0.0
202.845,12.37,2.855,7.0
0.0,0.0,0.0,0.0
0.0,0.0,0.0,0.0
0.0,0.0,0.0,0.0
0.0,0.0,0.0,0.0
0.0,0.0,0.0,0.0
0.0,0.0,0.0,0.0
0.0,0.0,0.0,0.0
155.007,9.828,0.36,11.0
0.0,0.0,0.0,0.0
0.0,0.0,0.0,0.0
0.0,0.0,0.0,0.0
0.0,0.0,0.0,0.0
0.0,0.0,0.0,0.0
154.94,10.112,0.268,150.0
0.0,0.0,0.0,0.0
0.0,0.0,0.0,0.0
0.0,0.0,0.0,0.0
0.0,0.0,0.0,0.0
0.0,0.0,0.0,0.0
154.952,10.395,0.173,15.0
0.0,0.0,0.0,0.0
0.0,0.0,0.0,0.0
0.0,0.0,0.0,0.0
199.533,13.646,2.335,7.0
0.0,0.0,0.0,0.0
0.0,0.0,0.0,0.0
0.0,0.0,0.0,0.0
0.0,0.0,0.0,0.0
0.0,0.0,0.0,0.0
0.0,0.0,0.0,0.0
140.604,9.906,0.759,23.0
0.0,0.0,0.0,0.0
0.0,0.0,0.0,0.0
0.0,0.0,0.0,0.0
0.0,0.0,0.0,0.0
0.0,0.0,0.0,0.0
140.609,10.153,0.659,151.0
0.0,0.0,0.0,0.0
0.0,0.0,0.0,0.0
0.0,0.0,0.0,0.0
0.0,0.0,0.0,0.0
0.0,0.0,0.0,0.0
122.082,9.026,0.482,9.0
0.0,0.0,0.0,0.0
0.0,0.0,0.0,0.0
0.0,0.0,0.0,0.0
0.0,0.0,0.0,0.0
122.287,9.22,1.079,7.0
0.0,0.0,0.0,0.0
0.0,0.0,0.0,0.0
0.0,0.0,0.0,0.0
0.0,0.0,0.0,0.0
0.0,0.0,0.0,0.0
0.0,0.0,0.0,0.0
114.09,8.818,0.273,180.0
0.0,0.0,0.0,0.0
0.0,0.0,0.0,0.0
0.0,0.0,0.0,0.0
0.0,0.0,0.0,0.0
114.179,8.986,0.825,11.0
113.976,8.995,0.179,15.0
0.0,0.0,0.0,0.0
0.0,0.0,0.0,0.0
0.0,0.0,0.0,0.0
37.452,2.99,-0.791,0.0
110.566,8.88,0.705,30.0
109.702,8.835,0.079,3.0
0.0,0.0,0.0,0.0
0.0,0.0,0.0,0.0
0.0,0.0,0.0,0.0
35.892,2.923,-0.789,0.0
110.245,9.029,0.606,8.0
108.691,8.925,-0.017,7.0
68.969,5.679,-0.401,1.0
0.0,0.0,0.0,0.0
0.0,0.0,0.0,0.0
35.091,2.913,-0.803,0.0
108.223,9.032,0.498,2.0
108.013,9.037,-0.115,6.0
68.992,5.787,-0.464,1.0
0.0,0.0,0.0,0.0
0.0,0.0,0.0,0.0
33.141,2.802,-0.789,0.0
107.676,9.15,0.395,22.0
107.925,9.193,-0.214,3.0
0.0,0.0,0.0,0.0
0.0,0.0,0.0,0.0
39.805,3.416,-0.76,0.0
32.783,2.82,-0.812,0.0
107.592,9.302,0.292,35.0
0.0,0.0,0.0,0.0
0.0,0.0,0.0,0.0
0.0,0.0,0.0,0.0
37.943,3.311,-0.761,0.0
31.901,2.791,-0.821,0.0
107.618,9.461,0.187,6.0
0.0,0.0,0.0,0.0
0.0,0.0,0.0,0.0
0.0,0.0,0.0,0.0
37.128,3.293,-0.782,0.0
31.224,2.776,-0.835,0.0
0.0,0.0,0.0,0.0
0.0,0.0,0.0,0.0
0.0,0.0,0.0,0.0
0.0,0.0,0.0,0.0
34.932,3.147,-0.771,0.0
30.469,2.751,-0.845,0.0
93.635,8.491,-0.024,20.0
68.965,6.267,-0.41,2.0
0.0,0.0,0.0,0.0
41.873,3.821,-0.729,0.0
34.988,3.199,-0.808,0.0
29.362,2.691,-0.845,0.0
0.0,0.0,0.0,0.0
68.959,6.358,-0.482,1.0
0.0,0.0,0.0,0.0
0.0,0.0,0.0,0.0
33.105,3.071,-0.8,0.0
28.398,2.639,-0.847,0.0
92.811,8.662,-0.219,4.0
0.0,0.0,0.0,0.0
0.0,0.0,0.0,0.0
38.776,3.639,-0.757,0.0
32.317,3.038,-0.815,0.0
27.721,2.612,-0.857,0.0
0.0,0.0,0.0,0.0
0.0,0.0,0.0,0.0
0.0,0.0,0.0,0.0
37.604,3.576,-0.775,0.0
30.888,2.943,-0.813,0.0
27.017,2.579,-0.865,0.0
0.0,0.0,0.0,0.0
0.0,0.0,0.0,0.0
0.0,0.0,0.0,0.0
0.0,0.0,0.0,0.0
30.369,2.93,-0.833,0.0
26.113,2.524,-0.865,0.0
69.119,6.704,-0.391,0.0
0.0,0.0,0.0,0.0
0.0,0.0,0.0,0.0
34.468,3.359,-0.788,1.0
29.718,2.901,-0.849,0.0
25.363,2.481,-0.869,0.0
68.889,6.76,-0.468,2.0
0.0,0.0,0.0,0.0
39.462,3.884,-0.718,0.0
33.076,3.261,-0.794,0.0
28.4,2.805,-0.844,0.0
24.653,2.439,-0.873,0.0
0.0,0.0,0.0,0.0
0.0,0.0,0.0,0.0
38.151,3.797,-0.738,0.0
31.854,3.175,-0.801,0.0
27.867,2.782,-0.86,0.0
23.899,2.39,-0.874,0.0
0.0,0.0,0.0,0.0
0.0,0.0,0.0,0.0
37.384,3.759,-0.766,0.0
31.71,3.194,-0.834,0.0
26.934,2.716,-0.863,0.0
23.515,2.375,-0.888,0.0
0.0,0.0,0.0,0.0
0.0,0.0,0.0,0.0
36.514,3.709,-0.792,0.0
30.09,3.061,-0.828,0.0
26.044,2.653,-0.865,0.0
21.922,2.236,-0.854,3.0
0.0,0.0,0.0,0.0
41.331,4.233,-0.71,0.0
34.595,3.548,-0.792,0.0
29.56,3.035,-0.848,0.0
25.09,2.58,-0.864,0.0
21.836,2.248,-0.877,7.0
0.0,0.0,0.0,0.0
39.672,4.099,-0.729,0.0
33.469,3.463,-0.807,0.0
28.271,2.929,-0.846,0.0
24.528,2.544,-0.874,0.0
21.786,2.263,-0.901,3.0
0.0,0.0,0.0,0.0
37.976,3.958,-0.744,0.0
31.635,3.301,-0.801,0.0
27.554,2.879,-0.858,0.0
23.768,2.486,-0.876,0.0
21.331,2.234,-0.909,0.0
0.0,0.0,0.0,0.0
0.0,0.0,0.0,0.0
30.582,3.216,-0.811,0.0
26.415,2.782,-0.855,0.0
21.95,2.314,-0.836,1.0
20.502,2.164,-0.898,0.0
0.0,0.0,0.0,0.0
34.989,3.704,-0.771,0.0
29.924,3.171,-0.831,0.0
25.586,2.714,-0.86,0.0
21.884,2.324,-0.86,6.0
19.827,2.108,-0.893,0.0
40.392,4.302,-0.71,0.0
33.613,3.584,-0.783,0.0
29.087,3.104,-0.844,0.0
24.891,2.659,-0.867,0.0
21.826,2.334,-0.885,6.0
19.534,2.091,-0.905,1.0
38.955,4.177,-0.732,0.0
32.945,3.536,-0.808,0.0
27.79,2.985,-0.841,0.0
24.093,2.591,-0.87,0.0
21.767,2.343,-0.911,2.0
19.22,2.071,-0.914,0.0
37.458,4.042,-0.752,0.0
32.102,3.467,-0.828,0.0
27.044,2.923,-0.852,0.0
21.952,2.375,-0.82,0.0
20.705,2.242,-0.892,0.0
18.67,2.024,-0.912,0.0
36.036,3.911,-0.768,0.0
30.068,3.266,-0.814,0.0
26.149,2.843,-0.858,0.0
21.918,2.385,-0.847,3.0
19.97,2.175,-0.886,0.0
18.151,1.979,-0.91,0.0
34.533,3.768,-0.78,0.0
29.407,3.211,-0.832,0.0
25.105,2.743,-0.855,0.0
21.841,2.389,-0.871,7.0
19.619,2.147,-0.895,2.0
17.772,1.947,-0.913,1.0
32.873,3.604,-0.783,0.0
28.309,3.106,-0.837,0.0
24.503,2.69,-0.865,0.0
21.799,2.395,-0.897,4.0
19.427,2.137,-0.911,2.0
17.639,1.942,-0.928,0.0
31.697,3.491,-0.795,0.0
27.501,3.031,-0.848,0.0
23.885,2.634,-0.873,0.0
21.655,2.39,-0.918,0.0
18.891,2.086,-0.91,0.0
17.092,1.889,-0.921,0.0
31.482,3.481,-0.829,0.0
26.774,2.962,-0.859,0.0
21.93,2.428,-0.829,1.0
20.406,2.261,-0.891,0.0
18.337,2.033,-0.906,0.0
16.751,1.858,-0.924,0.0
29.595,3.284,-0.817,0.0
25.704,2.854,-0.857,0.0
21.87,2.43,-0.855,4.0
19.737,2.194,-0.887,1.0
17.917,1.993,-0.908,1.0
16.379,1.823,-0.924,0.0
28.763,3.202,-0.83,0.0
24.682,2.749,-0.854,0.0
21.828,2.433,-0.881,5.0
19.552,2.18,-0.903,2.0
17.721,1.977,-0.92,1.0
16.041,1.791,-0.926,0.0
27.846,3.109,-0.839,0.0
24.164,2.699,-0.866,0.0
21.776,2.433,-0.906,2.0
19.142,2.14,-0.908,0.0
17.371,1.943,-0.924,0.0
15.76,1.764,-0.929,0.0
26.956,3.016,-0.846,0.0
23.545,2.636,-0.874,0.0
20.738,2.322,-0.889,0.0
18.611,2.085,-0.907,0.0
16.897,1.894,-0.92,0.0
15.336,1.72,-0.924,0.0
26.022,2.917,-0.849,0.0
21.918,2.458,-0.841,2.0
20.044,2.249,-0.884,0.0
18.157,2.038,-0.907,0.0
16.61,1.865,-0.926,0.0
15.05,1.691,-0.925,0.0
25.129,2.822,-0.851,0.0
21.84,2.453,-0.865,6.0
19.652,2.208,-0.891,1.0
17.797,2.0,-0.911,0.0
16.182,1.82,-0.922,0.0
14.846,1.67,-0.931,0.0
24.466,2.75,-0.859,0.0
21.808,2.452,-0.891,4.0
19.424,2.185,-0.905,1.0
17.516,1.971,-0.918,0.0
15.896,1.789,-0.925,0.0
14.578,1.642,-0.932,0.0
23.787,2.676,-0.864,0.0
21.636,2.435,-0.91,0.0
18.888,2.126,-0.903,0.0
17.119,1.927,-0.919,0.0
15.538,1.75,-0.924,0.0
14.371,1.619,-0.937,0.0
21.998,2.476,-0.826,0.0
20.583,2.317,-0.891,0.0
18.479,2.08,-0.907,0.0
16.734,1.884,-0.919,0.0
15.301,1.723,-0.928,0.0
14.182,1.598,-0.942,0.0
21.891,2.463,-0.849,3.0
19.773,2.225,-0.88,0.0
18.086,2.036,-0.909,0.0
16.395,1.846,-0.92,0.0
14.993,1.688,-0.928,0.0
0.0,0.0,0.0,0.0
21.839,2.456,-0.873,7.0
19.572,2.201,-0.895,1.0
17.689,1.99,-0.911,0.0
16.106,1.812,-0.923,0.0
14.777,1.663,-0.932,0.0
13.68,1.54,-0.942,0.0
21.802,2.45,-0.898,2.0
19.314,2.17,-0.906,1.0
17.434,1.959,-0.918,0.0
15.772,1.773,-0.923,0.0
14.518,1.632,-0.933,0.0
13.411,1.508,-0.939,0.0
21.617,2.426,-0.915,0.0
18.791,2.109,-0.903,0.0
17.03,1.911,-0.916,0.0
15.507,1.74,-0.925,0.0
14.342,1.61,-0.938,0.0
13.269,1.49,-0.945,0.0
20.461,2.293,-0.89,0.0
18.338,2.054,-0.903,0.0
16.695,1.87,-0.918,0.0
15.223,1.705,-0.926,0.0
14.158,1.586,-0.943,0.0
13.008,1.457,-0.941,0.0
19.728,2.206,-0.881,1.0
17.961,2.008,-0.905,1.0
16.399,1.833,-0.92,0.0
14.941,1.67,-0.926,0.0
13.935,1.558,-0.944,0.0
12.714,1.421,-0.934,0.0
19.568,2.183,-0.896,2.0
17.738,1.978,-0.914,2.0
16.067,1.792,-0.92,0.0
14.751,1.645,-0.931,0.0
13.536,1.509,-0.932,0.0
12.552,1.399,-0.937,0.0
19.309,2.148,-0.905,1.0
17.552,1.952,-0.924,0.0
15.814,1.758,-0.923,0.0
14.528,1.615,-0.933,0.0
13.478,1.498,-0.943,0.0
12.418,1.38,-0.94,0.0
18.765,2.08,-0.9,0.0
17.047,1.889,-0.916,0.0
15.57,1.725,-0.926,0.0
14.352,1.59,-0.937,0.0
13.241,1.467,-0.941,0.0
12.245,1.356,-0.941,0.0
18.342,2.026,-0.9,0.0
16.739,1.848,-0.917,0.0
15.265,1.685,-0.924,0.0
14.147,1.561,-0.939,0.0
13.052,1.44,-0.941,0.0
12.096,1.335,-0.942,0.0
18.004,1.981,-0.902,1.0
16.42,1.806,-0.916,0.0
14.992,1.648,-0.923,0.0
0.0,0.0,0.0,0.0
12.877,1.415,-0.942,0.0
11.91,1.308,-0.94,0.0
17.761,1.945,-0.908,1.0
16.115,1.764,-0.916,0.0
14.824,1.622,-0.928,0.0
0.0,0.0,0.0,0.0
12.575,1.375,-0.933,0.0
11.742,1.284,-0.938,0.0
17.673,1.927,-0.921,1.0
15.905,1.733,-0.92,0.0
14.65,1.596,-0.931,0.0
13.414,1.46,-0.931,0.0
12.508,1.361,-0.94,0.0
11.612,1.263,-0.94,0.0
17.334,1.88,-0.921,0.0
15.661,1.697,-0.921,0.0
14.431,1.563,-0.931,0.0
13.514,1.463,-0.951,0.0
12.333,1.335,-0.939,0.0
11.489,1.243,-0.941,0.0
16.856,1.818,-0.911,0.0
15.474,1.668,-0.925,0.0
14.316,1.542,-0.938,0.0
0.0,0.0,0.0,0.0
12.19,1.312,-0.94,0.0
11.392,1.225,-0.944,0.0
16.596,1.779,-0.913,0.0
15.168,1.625,-0.921,0.0
14.225,1.523,-0.945,0.0
13.016,1.393,-0.94,0.0
12.116,1.296,-0.945,0.0
11.242,1.202,-0.942,0.0
16.426,1.75,-0.918,0.0
14.963,1.593,-0.922,0.0
13.961,1.485,-0.94,0.0
12.797,1.36,-0.936,0.0
11.919,1.266,-0.94,0.0
11.118,1.181,-0.941,0.0
16.192,1.713,-0.919,0.0
14.823,1.567,-0.926,0.0
0.0,0.0,0.0,0.0
12.599,1.33,-0.933,0.0
11.761,1.241,-0.938,0.0
11.058,1.166,-0.946,0.0
15.969,1.677,-0.92,0.0
14.646,1.537,-0.928,0.0
13.483,1.414,-0.931,0.0
12.514,1.311,-0.937,0.0
11.676,1.223,-0.941,0.0
10.919,1.143,-0.943,0.0
15.728,1.639,-0.92,0.0
14.502,1.51,-0.931,0.0
13.392,1.394,-0.936,0.0
12.408,1.29,-0.939,0.0
11.55,1.2,-0.941,0.0
10.861,1.128,-0.947,0.0
15.626,1.616,-0.926,0.0
14.422,1.49,-0.937,0.0
13.246,1.367,-0.936,0.0
12.3,1.269,-0.941,0.0
11.416,1.177,-0.939,0.0
10.757,1.108,-0.946,0.0
15.378,1.577,-0.923,0.0
14.283,1.463,-0.939,0.0
13.079,1.338,-0.934,0.0
12.148,1.242,-0.938,0.0
11.352,1.16,-0.942,0.0
10.663,1.089,-0.946,0.0
15.179,1.543,-0.922,0.0
14.161,1.438,-0.941,0.0
12.981,1.317,-0.937,0.0
12.042,1.22,-0.939,0.0
11.279,1.142,-0.944,0.0
10.605,1.073,-0.948,0.0
14.994,1.51,-0.922,0.0
0.0,0.0,0.0,0.0
12.87,1.293,-0.938,0.0
11.936,1.198,-0.939,0.0
11.179,1.121,-0.943,0.0
10.488,1.051,-0.945,0.0
14.878,1.484,-0.924,0.0
0.0,0.0,0.0,0.0
12.698,1.264,-0.934,0.0
11.816,1.174,-0.937,0.0
11.102,1.102,-0.944,0.0
10.473,1.039,-0.95,0.0
14.766,1.458,-0.927,0.0
13.613,1.343,-0.932,0.0
12.635,1.245,-0.937,0.0
11.765,1.158,-0.941,0.0
11.046,1.086,-0.946,0.0
10.376,1.019,-0.948,0.0
14.668,1.433,-0.93,0.0
13.535,1.321,-0.935,0.0
12.544,1.223,-0.938,0.0
11.684,1.138,-0.941,0.0
10.977,1.067,-0.947,0.0
10.269,0.997,-0.944,0.0
14.545,1.406,-0.93,0.0
13.403,1.294,-0.933,0.0
12.491,1.204,-0.94,0.0
11.58,1.115,-0.939,0.0
10.941,1.052,-0.95,0.0
10.183,0.978,-0.942,0.0
14.484,1.384,-0.934,0.0
13.402,1.279,-0.94,0.0
12.396,1.181,-0.94,0.0
11.515,1.096,-0.94,0.0
10.789,1.026,-0.942,0.0
10.147,0.963,-0.944,0.0
14.386,1.359,-0.935,0.0
13.29,1.253,-0.939,0.0
12.323,1.16,-0.94,0.0
11.471,1.079,-0.942,0.0
10.785,1.013,-0.947,0.0
10.108,0.948,-0.945,0.0
14.281,1.332,-0.934,0.0
13.223,1.232,-0.94,0.0
12.225,1.137,-0.938,0.0
11.418,1.06,-0.942,0.0
10.746,0.997,-0.948,0.0
10.096,0.935,-0.948,0.0
14.248,1.313,-0.938,0.0
13.121,1.207,-0.938,0.0
12.162,1.117,-0.939,0.0
11.351,1.041,-0.941,0.0
10.725,0.982,-0.951,0.0
10.082,0.922,-0.951,0.0
14.181,1.289,-0.939,0.0
13.094,1.188,-0.941,0.0
12.075,1.094,-0.936,0.0
11.32,1.024,-0.943,0.0
10.728,0.969,-0.955,0.0
9.987,0.901,-0.946,0.0
14.182,1.272,-0.944,0.0
13.027,1.166,-0.941,0.0
12.031,1.075,-0.937,0.0
11.232,1.002,-0.939,0.0
10.596,0.944,-0.946,0.0
9.949,0.885,-0.945,0.0
14.081,1.245,-0.942,0.0
12.999,1.148,-0.943,0.0
11.971,1.055,-0.936,0.0
11.267,0.991,-0.946,0.0
10.675,0.938,-0.956,0.0
9.922,0.87,-0.945,0.0
0.0,0.0,0.0,0.0
12.923,1.125,-0.941,0.0
11.945,1.037,-0.937,0.0
11.269,0.977,-0.949,0.0
10.581,0.916,-0.951,0.0
9.916,0.857,-0.947,0.0
13.862,1.191,-0.934,0.0
12.861,1.103,-0.939,0.0
11.893,1.018,-0.935,0.0
11.228,0.959,-0.948,0.0
10.462,0.892,-0.942,0.0
9.868,0.839,-0.944,0.0
0.0,0.0,0.0,0.0
12.818,1.082,-0.938,0.0
11.899,1.002,-0.938,0.0
11.207,0.942,-0.948,0.0
10.427,0.875,-0.941,0.0
9.863,0.826,-0.946,0.0
13.798,1.148,-0.935,0.0
12.761,1.06,-0.936,0.0
11.862,0.983,-0.937,0.0
11.141,0.921,-0.944,0.0
10.438,0.862,-0.943,0.0
9.856,0.812,-0.946,0.0
0.0,0.0,0.0,0.0
12.806,1.046,-0.941,0.0
11.865,0.967,-0.938,0.0
11.171,0.909,-0.947,0.0
10.417,0.845,-0.942,0.0
9.829,0.796,-0.944,0.0
0.0,0.0,0.0,0.0
12.756,1.025,-0.938,0.0
11.847,0.949,-0.937,0.0
11.133,0.89,-0.945,0.0
10.436,0.832,-0.944,0.0
9.832,0.783,-0.945,0.0
13.6,1.076,-0.924,0.0
12.77,1.008,-0.939,0.0
11.863,0.934,-0.939,0.0
11.114,0.873,-0.943,0.0
10.419,0.817,-0.943,0.0
9.833,0.769,-0.945,0.0
13.886,1.079,-0.943,0.0
12.803,0.992,-0.941,0.0
11.916,0.921,-0.943,0.0
11.097,0.856,-0.941,0.0
10.444,0.804,-0.944,0.0
9.846,0.756,-0.946,0.0
13.938,1.063,-0.946,0.0
12.802,0.974,-0.94,0.0
11.896,0.903,-0.94,0.0
11.116,0.842,-0.942,0.0
10.48,0.791,-0.947,0.0
9.83,0.741,-0.943,0.0
14.015,1.049,-0.95,0.0
12.817,0.957,-0.94,0.0
11.925,0.888,-0.941,0.0
11.161,0.829,-0.944,0.0
10.44,0.773,-0.942,0.0
9.894,0.731,-0.948,0.0
13.932,1.023,-0.942,0.0
12.855,0.941,-0.941,0.0
11.955,0.873,-0.942,0.0
11.159,0.812,-0.942,0.0
10.526,0.764,-0.948,0.0
9.923,0.719,-0.949,1.0
13.859,0.997,-0.935,0.0
12.922,0.927,-0.943,0.0
11.98,0.857,-0.941,0.0
11.181,0.798,-0.942,0.0
10.498,0.747,-0.943,0.0
9.957,0.706,-0.95,0.0
13.918,0.981,-0.936,0.0
12.927,0.908,-0.941,0.0
12.015,0.842,-0.941,0.0
11.262,0.787,-0.946,0.0
10.507,0.732,-0.941,0.0
9.988,0.694,-0.95,0.0
0.0,0.0,0.0,0.0
12.982,0.893,-0.941,0.0
12.068,0.828,-0.942,0.0
11.272,0.771,-0.943,0.0
10.553,0.719,-0.942,0.0
10.018,0.681,-0.95,0.0
14.005,0.946,-0.933,0.0
13.064,0.879,-0.943,0.0
12.113,0.813,-0.941,0.0
11.361,0.76,-0.947,0.0
10.633,0.709,-0.946,0.0
10.056,0.669,-0.95,0.0
14.095,0.931,-0.934,0.0
13.026,0.857,-0.935,0.0
12.207,0.801,-0.944,0.0
11.31,0.74,-0.939,0.0
10.709,0.698,-0.948,0.0
10.109,0.657,-0.951,0.0
14.197,0.916,-0.936,0.0
13.169,0.847,-0.94,0.0
12.239,0.785,-0.942,0.0
11.419,0.729,-0.943,0.0
10.702,0.681,-0.943,0.0
10.151,0.644,-0.951,0.0
14.274,0.9,-0.934,0.0
13.266,0.833,-0.941,0.0
12.316,0.771,-0.942,0.0
11.491,0.717,-0.944,0.0
10.866,0.675,-0.952,0.0
10.207,0.632,-0.951,0.0
14.366,0.884,-0.933,0.0
13.295,0.815,-0.937,0.0
12.381,0.756,-0.941,0.0
11.564,0.704,-0.944,0.0
10.818,0.656,-0.943,0.0
10.241,0.619,-0.949,0.0
14.487,0.869,-0.934,0.0
13.385,0.8,-0.936,0.0
12.527,0.746,-0.945,0.0
11.676,0.693,-0.946,0.0
10.958,0.648,-0.949,0.0
10.307,0.607,-0.949,0.0
14.57,0.852,-0.931,0.0
13.65,0.795,-0.947,0.0
12.596,0.731,-0.943,0.0
11.708,0.677,-0.942,0.0
11.018,0.634,-0.947,0.0
10.368,0.595,-0.948,0.0
14.797,0.843,-0.936,0.0
13.845,0.785,-0.952,0.0
12.758,0.721,-0.947,0.0
11.828,0.666,-0.944,0.0
11.152,0.625,-0.951,0.0
10.415,0.582,-0.946,0.0
14.976,0.831,-0.938,0.0
13.916,0.768,-0.947,0.0
12.87,0.708,-0.947,0.0
11.932,0.653,-0.944,0.0
11.227,0.612,-0.95,0.0
10.507,0.571,-0.947,0.0
15.067,0.813,-0.933,2.0
14.148,0.76,-0.953,0.0
13.005,0.695,-0.947,0.0
12.017,0.64,-0.942,0.0
11.296,0.599,-0.948,0.0
10.639,0.561,-0.951,0.0
15.235,0.798,-0.932,1.0
14.18,0.74,-0.945,0.0
13.044,0.678,-0.94,0.0
12.153,0.628,-0.944,0.0
11.394,0.586,-0.947,0.0
10.715,0.549,-0.949,0.0
15.468,0.787,-0.934,0.0
14.33,0.726,-0.943,0.0
13.322,0.672,-0.95,0.0
12.307,0.618,-0.946,0.0
11.494,0.574,-0.946,0.0
10.746,0.534,-0.943,0.0
15.66,0.773,-0.933,0.0
14.479,0.712,-0.941,0.0
13.376,0.654,-0.942,0.0
12.484,0.608,-0.948,0.0
11.621,0.563,-0.946,0.0
10.993,0.53,-0.955,0.0
15.913,0.762,-0.934,0.0
14.645,0.698,-0.939,0.0
13.549,0.642,-0.942,0.0
12.616,0.595,-0.947,0.0
11.734,0.551,-0.945,0.0
11.054,0.516,-0.951,0.0
16.092,0.746,-0.93,0.0
14.844,0.685,-0.938,0.0
20.194,0.927,-1.386,0.0
12.763,0.583,-0.946,0.0
11.901,0.541,-0.947,0.0
11.14,0.504,-0.947,0.0
16.339,0.734,-0.929,0.0
15.046,0.672,-0.937,0.0
20.183,0.897,-1.366,0.0
12.877,0.569,-0.942,0.0
12.101,0.532,-0.951,0.0
11.305,0.494,-0.95,0.0
16.589,0.72,-0.926,0.0
15.253,0.658,-0.934,0.0
14.268,0.612,-0.951,0.0
13.163,0.562,-0.95,0.0
12.232,0.519,-0.949,0.0
11.408,0.482,-0.947,0.0
16.857,0.707,-0.924,0.0
15.493,0.646,-0.933,0.0
14.394,0.597,-0.944,0.0
13.265,0.547,-0.943,0.0
12.413,0.509,-0.95,0.0
11.567,0.471,-0.948,0.0
17.104,0.692,-0.919,0.0
15.835,0.637,-0.936,0.0
14.574,0.583,-0.94,0.0
13.51,0.537,-0.946,0.0
12.567,0.497,-0.948,0.0
11.733,0.461,-0.948,0.0
17.63,0.688,-0.928,0.0
16.111,0.625,-0.935,0.0
14.823,0.571,-0.94,0.0
13.629,0.522,-0.939,0.0
12.795,0.487,-0.95,0.0
11.908,0.451,-0.949,0.0
17.95,0.675,-0.925,0.0
16.345,0.611,-0.93,0.0
15.102,0.561,-0.94,0.0
14.023,0.517,-0.95,0.0
13.032,0.478,-0.953,0.0
12.107,0.441,-0.95,0.0
18.31,0.662,-0.921,0.0
16.72,0.6,-0.931,0.0
15.355,0.548,-0.937,0.0
14.263,0.506,-0.948,0.0
13.184,0.464,-0.948,0.0
12.316,0.431,-0.951,0.0
18.66,0.648,-0.916,0.0
16.93,0.584,-0.922,0.0
15.622,0.536,-0.934,0.0
14.506,0.494,-0.947,0.0
13.473,0.456,-0.951,0.0
12.529,0.421,-0.952,0.0
19.113,0.637,-0.914,0.0
17.349,0.575,-0.923,0.0
16.057,0.528,-0.94,0.0
14.737,0.481,-0.943,0.0
13.689,0.444,-0.949,0.0
12.78,0.411,-0.954,0.0
19.825,0.634,-0.923,0.0
17.95,0.57,-0.931,0.0
16.326,0.514,-0.934,0.0
15.04,0.47,-0.942,0.0
13.972,0.434,-0.95,0.0
12.994,0.4,-0.953,0.0
20.229,0.619,-0.914,0.0
18.315,0.556,-0.925,0.0
16.698,0.503,-0.933,0.0
15.309,0.458,-0.938,0.0
14.318,0.425,-0.954,0.0
13.24,0.39,-0.953,0.0
20.701,0.605,-0.907,0.0
18.719,0.543,-0.92,0.0
16.992,0.489,-0.925,0.0
15.668,0.447,-0.938,0.0
14.542,0.412,-0.948,0.0
13.437,0.378,-0.948,0.0
21.447,0.599,-0.91,0.0
19.303,0.534,-0.921,0.0
17.573,0.483,-0.932,0.0
16.12,0.439,-0.942,0.0
14.841,0.401,-0.946,0.0
13.853,0.371,-0.957,0.0
22.208,0.59,-0.91,0.0
19.896,0.524,-0.92,0.0
18.033,0.471,-0.93,0.0
16.462,0.427,-0.938,0.0
15.171,0.39,-0.945,0.0
14.077,0.359,-0.952,0.0
22.776,0.576,-0.899,0.0
20.52,0.514,-0.919,0.0
18.583,0.462,-0.93,0.0
16.833,0.414,-0.933,0.0
15.504,0.378,-0.942,0.0
14.501,0.351,-0.958,0.0
23.768,0.571,-0.902,0.0
21.081,0.501,-0.911,0.0
18.859,0.444,-0.915,0.0
17.247,0.403,-0.93,0.0
16.003,0.37,-0.947,0.0
14.707,0.337,-0.948,0.0
24.55,0.558,-0.894,0.0
21.939,0.494,-0.914,0.0
19.706,0.44,-0.925,0.0
17.802,0.394,-0.931,0.0
16.382,0.359,-0.944,0.0
15.033,0.326,-0.946,0.0
25.629,0.552,-0.892,0.0
22.589,0.481,-0.906,0.0
20.373,0.43,-0.924,0.0
18.341,0.383,-0.93,0.0
16.715,0.346,-0.936,0.0
15.41,0.315,-0.944,0.0
26.538,0.539,-0.881,0.0
23.334,0.469,-0.897,0.0
20.966,0.417,-0.916,0.0
18.78,0.37,-0.922,0.0
17.159,0.334,-0.933,0.0
15.882,0.306,-0.947,0.0
28.202,0.54,-0.89,0.0
24.626,0.466,-0.906,0.0
20.159,0.377,-0.848,0.0
19.665,0.364,-0.932,0.0
17.767,0.325,-0.936,0.0
16.344,0.296,-0.947,0.0
29.205,0.525,-0.873,0.0
25.547,0.454,-0.897,0.0
22.554,0.396,-0.911,0.0
20.27,0.352,-0.927,5.0
18.29,0.314,-0.932,0.0
16.653,0.283,-0.936,0.0
31.103,0.524,-0.877,1.0
26.617,0.443,-0.889,0.0
23.326,0.384,-0.901,0.0
20.2,0.328,-0.889,10.0
18.821,0.302,-0.927,0.0
17.094,0.271,-0.932,0.0
32.185,0.507,-0.852,1.0
28.291,0.44,-0.897,0.0
24.53,0.377,-0.906,0.0
20.154,0.306,-0.852,7.0
20.121,0.302,-0.956,0.0
17.778,0.263,-0.938,0.0
20.208,0.296,-0.499,1.0
20.206,0.292,-0.604,9.0
20.213,0.289,-0.71,11.0
20.203,0.285,-0.818,17.0
20.266,0.282,-0.927,9.0
18.478,0.254,-0.942,7.0
20.204,0.275,-0.463,16.0
20.204,0.271,-0.568,26.0
20.209,0.268,-0.674,20.0
20.22,0.264,-0.782,27.0
20.205,0.261,-0.887,13.0
18.533,0.236,-0.911,17.0
20.231,0.255,-0.427,26.0
20.2,0.251,-0.532,28.0
20.215,0.248,-0.638,29.0
20.22,0.244,-0.745,29.0
18.568,0.221,-0.782,38.0
18.541,0.218,-0.877,11.0
20.182,0.235,-0.389,31.0
20.186,0.231,-0.494,29.0
20.202,0.228,-0.6,33.0
20.223,0.225,-0.708,28.0
18.608,0.204,-0.749,151.0
18.539,0.2,-0.843,26.0
20.171,0.215,-0.352,33.0
20.189,0.212,-0.457,26.0
20.197,0.209,-0.562,30.0
20.207,0.206,-0.67,26.0
18.575,0.186,-0.712,150.0
18.508,0.182,-0.806,157.0
20.176,0.196,-0.314,35.0
20.175,0.193,-0.419,34.0
20.189,0.19,-0.524,27.0
20.184,0.187,-0.631,18.0
18.575,0.169,-0.677,67.0
18.511,0.166,-0.771,175.0
20.172,0.178,-0.275,36.0
20.176,0.175,-0.38,29.0
20.197,0.172,-0.486,27.0
20.212,0.169,-0.593,9.0
21.639,0.178,-0.747,156.0
18.517,0.15,-0.736,156.0
20.178,0.161,-0.237,36.0
20.183,0.158,-0.342,33.0
20.187,0.155,-0.446,18.0
20.17,0.152,-0.552,0.0
21.674,0.16,-0.706,153.0
21.65,0.157,-0.818,152.0
20.192,0.144,-0.197,27.0
20.179,0.141,-0.302,30.0
20.183,0.138,-0.407,14.0
33.305,0.224,-0.847,0.0
21.698,0.143,-0.665,88.0
21.611,0.139,-0.774,171.0
20.176,0.128,-0.158,39.0
20.186,0.125,-0.262,27.0
20.195,0.122,-0.367,14.0
0.0,0.0,0.0,0.0
21.673,0.126,-0.621,1.0
21.629,0.123,-0.732,157.0
20.184,0.112,-0.118,37.0
20.19,0.11,-0.223,24.0
20.2,0.107,-0.327,12.0
0.0,0.0,0.0,0.0
32.98,0.167,-0.879,0.0
21.667,0.107,-0.69,2.0
20.196,0.098,-0.078,35.0
20.189,0.095,-0.182,27.0
20.221,0.093,-0.287,7.0
41.17,0.184,-0.801,0.0
0.0,0.0,0.0,0.0
31.166,0.132,-0.929,0.0
20.201,0.084,-0.037,34.0
20.202,0.081,-0.141,27.0
20.217,0.079,-0.246,3.0
43.315,0.164,-0.755,0.0
0.0,0.0,0.0,0.0
31.278,0.111,-0.869,2.0
20.212,0.07,0.003,33.0
20.198,0.068,-0.1,25.0
20.214,0.066,-0.205,11.0
20.17,0.063,-0.31,0.0
20.261,0.061,-0.417,0.0
33.235,0.098,-0.855,6.0
20.205,0.057,0.044,19.0
20.235,0.055,-0.059,10.0
20.228,0.053,-0.163,18.0
20.233,0.051,-0.27,13.0
20.257,0.049,-0.375,36.0
20.251,0.047,-0.479,34.0
20.163,0.045,0.086,28.0
20.271,0.044,-0.018,75.0
20.267,0.042,-0.122,150.0
20.253,0.04,-0.229,151.0
20.266,0.038,-0.334,150.0
20.264,0.036,-0.438,150.0
20.14,0.034,0.127,29.0
20.261,0.032,0.023,150.0
20.259,0.031,-0.08,151.0
20.253,0.029,-0.187,151.0
20.265,0.027,-0.291,151.0
20.263,0.025,-0.396,150.0
20.125,0.023,0.169,28.0
20.167,0.022,0.065,36.0
20.251,0.02,-0.038,152.0
20.259,0.018,-0.144,151.0
20.273,0.017,-0.249,150.0
20.263,0.015,-0.353,69.0
20.128,0.014,0.211,28.0
20.124,0.012,0.107,29.0
20.263,0.011,0.004,151.0
20.271,0.009,-0.102,73.0
20.231,0.008,-0.206,13.0
20.241,0.006,-0.31,7.0
20.124,0.005,0.253,28.0
20.123,0.003,0.149,27.0
20.152,0.002,0.046,23.0
20.204,0.0,-0.059,18.0
20.182,0.0,-0.163,14.0
20.185,-0.002,-0.267,6.0
20.127,-0.003,0.296,29.0
20.117,-0.004,0.192,29.0
20.124,-0.006,0.089,32.0
20.117,-0.007,-0.016,16.0
20.18,-0.008,-0.12,26.0
20.181,-0.009,-0.223,2.0
20.126,-0.011,0.339,31.0
20.12,-0.012,0.235,26.0
20.126,-0.013,0.132,28.0
20.121,-0.014,0.026,29.0
20.145,-0.015,-0.077,24.0
20.176,-0.016,-0.181,23.0
20.127,-0.017,0.381,27.0
20.119,-0.018,0.278,25.0
20.111,-0.019,0.174,32.0
20.124,-0.02,0.069,38.0
20.131,-0.021,-0.034,34.0
20.162,-0.022,-0.138,28.0
20.136,-0.024,0.425,29.0
20.12,-0.024,0.321,30.0
20.12,-0.025,0.217,31.0
20.108,-0.026,0.112,33.0
20.13,-0.027,0.008,35.0
20.149,-0.028,-0.094,32.0
20.13,-0.029,0.467,27.0
20.124,-0.03,0.363,29.0
20.115,-0.03,0.26,26.0
20.116,-0.031,0.155,35.0
20.132,-0.032,0.051,40.0
20.135,-0.032,-0.051,33.0
20.141,-0.034,0.511,24.0
20.13,-0.034,0.407,27.0
20.125,-0.035,0.303,27.0
20.109,-0.035,0.198,31.0
20.127,-0.036,0.094,37.0
20.133,-0.036,-0.008,36.0
20.151,-0.037,0.554,19.0
20.127,-0.038,0.45,28.0
20.118,-0.038,0.346,29.0
20.112,-0.039,0.241,29.0
20.12,-0.039,0.137,30.0
20.138,-0.039,0.034,39.0
20.164,-0.041,0.597,16.0
20.138,-0.041,0.493,24.0
20.119,-0.041,0.389,27.0
20.115,-0.041,0.283,28.0
20.116,-0.041,0.18,31.0
20.129,-0.042,0.077,41.0
58.286,-0.125,1.853,66.0
20.137,-0.043,0.536,19.0
20.117,-0.043,0.432,28.0
20.108,-0.043,0.326,30.0
20.113,-0.043,0.223,29.0
20.12,-0.043,0.12,33.0
58.309,-0.13,1.978,175.0
20.141,-0.044,0.579,16.0
20.128,-0.044,0.475,24.0
20.111,-0.044,0.369,29.0
20.108,-0.044,0.266,29.0
20.116,-0.044,0.163,33.0
58.308,-0.132,2.103,157.0
20.176,-0.045,0.623,15.0
20.131,-0.045,0.518,20.0
20.114,-0.045,0.412,28.0
20.112,-0.044,0.309,30.0
20.107,-0.044,0.205,31.0
58.28,-0.132,2.226,150.0
58.299,-0.131,1.926,174.0
20.131,-0.045,0.561,17.0
20.127,-0.044,0.455,26.0
20.119,-0.044,0.352,30.0
20.115,-0.043,0.248,29.0
58.295,-0.13,2.35,13.0
58.303,-0.129,2.05,171.0
20.166,-0.044,0.605,14.0
20.142,-0.043,0.498,22.0
20.12,-0.043,0.394,26.0
20.11,-0.042,0.29,29.0
58.285,-0.126,2.474,69.0
58.271,-0.124,2.173,139.0
58.307,-0.122,1.873,150.0
20.12,-0.041,0.54,19.0
20.122,-0.041,0.437,28.0
20.112,-0.04,0.333,33.0
58.28,-0.119,2.597,208.0
20.117,-0.04,0.792,17.0
58.306,-0.115,1.995,160.0
20.147,-0.039,0.583,16.0
20.134,-0.038,0.479,25.0
20.125,-0.037,0.375,27.0
58.227,-0.111,2.717,255.0
20.132,-0.037,0.835,20.0
58.276,-0.106,2.116,70.0
20.171,-0.035,0.626,19.0
20.153,-0.034,0.522,21.0
20.123,-0.033,0.417,30.0
58.816,-0.101,2.867,79.0
58.271,-0.097,2.539,144.0
