X,Y,Z,Reflectivity
10.823,0.706,-0.95,0.0
10.182,0.662,-0.95,0.0
14.4,0.93,-0.937,0.0
13.282,0.855,-0.938,0.0
12.363,0.793,-0.941,0.0
11.539,0.737,-0.944,0.0
10.875,0.693,-0.95,0.0
10.226,0.649,-0.95,0.0
14.486,0.914,-0.937,0.0
13.368,0.84,-0.938,0.0
12.436,0.779,-0.941,0.0
11.604,0.724,-0.944,0.0
10.945,0.68,-0.95,0.0
10.287,0.637,-0.95,0.0
14.516,0.893,-0.931,0.0
13.563,0.831,-0.945,0.0
12.553,0.767,-0.944,0.0
11.669,0.71,-0.943,0.0
11.058,0.67,-0.954,0.0
10.314,0.623,-0.947,0.0
14.685,0.881,-0.934,0.0
13.792,0.824,-0.953,0.0
12.652,0.753,-0.944,0.0
11.784,0.699,-0.946,0.0
11.044,0.653,-0.947,0.0
10.39,0.612,-0.948,0.0
14.882,0.87,-0.938,0.0
13.817,0.805,-0.947,0.0
12.752,0.74,-0.944,0.0
11.841,0.684,-0.943,0.0
11.131,0.641,-0.948,0.0
10.466,0.6,-0.949,0.0
15.018,0.855,-0.938,0.0
13.922,0.79,-0.946,0.0
12.865,0.727,-0.944,0.0
11.921,0.671,-0.942,0.0
11.217,0.629,-0.948,0.0
10.504,0.586,-0.945,0.0
15.132,0.839,-0.935,1.0
14.095,0.778,-0.948,0.0
13.037,0.717,-0.948,0.0
12.033,0.659,-0.942,0.0
11.321,0.617,-0.949,0.0
10.608,0.576,-0.947,0.0
15.135,0.816,-0.924,1.0
14.218,0.763,-0.946,0.0
13.149,0.703,-0.947,0.0
12.172,0.648,-0.944,0.0
11.385,0.603,-0.946,0.0
10.701,0.564,-0.947,0.0
15.391,0.806,-0.929,1.0
14.349,0.748,-0.944,0.0
13.302,0.691,-0.947,0.0
12.318,0.636,-0.946,0.0
11.494,0.591,-0.946,0.0
10.822,0.554,-0.95,0.0
15.74,0.8,-0.937,1.0
14.495,0.734,-0.942,0.0
13.374,0.674,-0.942,0.0
12.441,0.624,-0.945,0.0
11.623,0.58,-0.947,0.0
10.967,0.545,-0.953,0.0
15.886,0.784,-0.933,0.0
14.631,0.719,-0.938,0.0
13.511,0.661,-0.94,0.0
12.598,0.613,-0.947,0.0
11.732,0.568,-0.945,0.0
11.085,0.534,-0.954,0.0
16.098,0.77,-0.931,0.0
14.802,0.705,-0.937,0.0
13.627,0.646,-0.936,0.0
12.742,0.601,-0.946,0.0
11.889,0.558,-0.947,0.0
11.211,0.523,-0.954,0.0
16.288,0.755,-0.927,0.0
15.008,0.692,-0.936,0.0
20.199,0.927,-1.369,0.0
12.942,0.591,-0.949,0.0
12.039,0.547,-0.948,0.0
11.26,0.509,-0.948,0.0
16.521,0.741,-0.925,0.0
15.242,0.68,-0.936,0.0
14.225,0.631,-0.95,0.0
13.07,0.577,-0.945,0.0
12.214,0.536,-0.949,0.0
11.406,0.498,-0.949,0.0
16.793,0.728,-0.923,0.0
15.464,0.667,-0.934,0.0
14.384,0.617,-0.946,0.0
13.299,0.567,-0.948,0.0
12.341,0.523,-0.947,0.0
11.537,0.486,-0.947,0.0
17.052,0.714,-0.92,0.0
15.804,0.658,-0.938,0.0
14.556,0.602,-0.942,0.0
13.436,0.553,-0.943,0.0
12.545,0.513,-0.949,0.0
11.688,0.476,-0.947,0.0
17.47,0.706,-0.923,0.0
16.114,0.647,-0.939,0.0
14.762,0.589,-0.939,0.0
13.548,0.538,-0.936,0.0
12.807,0.505,-0.954,0.0
11.858,0.465,-0.948,0.0
17.917,0.697,-0.927,0.0
16.319,0.631,-0.932,0.0
15.034,0.578,-0.939,0.0
14.02,0.536,-0.953,0.0
12.946,0.492,-0.95,0.0
12.042,0.455,-0.948,0.0
18.263,0.684,-0.924,0.0
16.584,0.618,-0.928,0.0
15.288,0.566,-0.937,0.0
14.272,0.525,-0.953,0.0
13.165,0.481,-0.95,0.0
12.285,0.446,-0.953,0.0
18.599,0.671,-0.919,0.0
16.942,0.607,-0.928,0.0
15.576,0.554,-0.936,0.0
14.461,0.511,-0.948,0.0
13.393,0.47,-0.95,0.0
12.458,0.435,-0.951,0.0
18.88,0.654,-0.909,0.0
17.285,0.595,-0.925,0.0
15.975,0.546,-0.94,0.0
14.659,0.498,-0.943,0.0
13.547,0.457,-0.944,0.0
12.694,0.425,-0.953,0.0
19.604,0.652,-0.92,0.0
17.8,0.588,-0.93,0.0
16.253,0.533,-0.936,0.0
14.925,0.486,-0.941,0.0
13.897,0.449,-0.951,0.0
12.929,0.415,-0.954,0.0
20.107,0.641,-0.917,0.0
18.21,0.576,-0.928,0.0
16.507,0.518,-0.929,0.0
15.223,0.474,-0.94,0.0
14.246,0.441,-0.955,0.0
13.149,0.404,-0.952,0.0
20.6,0.628,-0.912,0.0
18.639,0.564,-0.925,0.0
16.881,0.507,-0.927,0.0
15.516,0.463,-0.937,0.0
14.535,0.43,-0.955,0.0
13.34,0.392,-0.948,0.0
21.09,0.615,-0.905,0.0
18.946,0.548,-0.914,0.0
17.438,0.5,-0.934,0.0
16.001,0.456,-0.944,0.0
14.726,0.416,-0.947,0.0
13.527,0.379,-0.942,0.0
22.008,0.612,-0.914,0.0
19.734,0.545,-0.924,0.0
17.851,0.489,-0.931,0.0
16.337,0.444,-0.94,0.0
15.052,0.405,-0.946,0.0
13.951,0.373,-0.951,0.0
22.536,0.598,-0.903,0.0
20.229,0.532,-0.918,0.0
18.299,0.477,-0.927,0.0
16.708,0.432,-0.937,0.0
15.349,0.393,-0.942,0.0
14.315,0.364,-0.955,0.0
23.131,0.583,-0.893,0.0
20.814,0.52,-0.913,0.0
18.757,0.465,-0.922,0.0
17.014,0.418,-0.928,0.0
15.739,0.383,-0.942,0.0
14.584,0.352,-0.95,0.0
24.25,0.581,-0.899,0.0
21.45,0.509,-0.908,0.0
19.438,0.457,-0.926,0.0
17.582,0.409,-0.932,0.0
16.18,0.373,-0.944,0.0
14.881,0.34,-0.947,0.0
24.979,0.566,-0.887,0.0
22.343,0.502,-0.912,0.0
19.944,0.444,-0.919,0.0
18.169,0.4,-0.935,0.0
16.555,0.361,-0.939,0.0
15.271,0.33,-0.947,0.0
26.16,0.561,-0.888,0.0
22.958,0.488,-0.901,0.0
20.638,0.434,-0.918,0.0
18.539,0.386,-0.924,0.0
16.9,0.348,-0.932,0.0
15.598,0.318,-0.942,0.0
27.107,0.549,-0.877,0.0
23.974,0.48,-0.901,0.0
21.364,0.424,-0.916,0.0
19.13,0.375,-0.923,0.0
17.447,0.339,-0.933,0.0
16.133,0.31,-0.948,0.0
28.805,0.549,-0.885,0.0
24.972,0.471,-0.898,0.0
22.319,0.417,-0.92,0.0
19.867,0.367,-0.925,0.0
18.075,0.33,-0.937,0.0
16.523,0.298,-0.943,0.0
30.03,0.538,-0.872,0.0
26.138,0.463,-0.896,0.0
22.906,0.401,-0.905,0.0
20.282,0.351,-0.91,10.0
18.573,0.318,-0.931,0.0
16.921,0.286,-0.937,0.0
31.62,0.531,-0.864,1.0
27.1,0.449,-0.883,0.0
23.873,0.391,-0.903,0.0
20.124,0.326,-0.869,9.0
19.983,0.32,-0.967,0.0
17.459,0.276,-0.937,0.0
32.987,0.517,-0.845,0.0
28.654,0.444,-0.884,0.0
25.003,0.382,-0.902,0.0
20.165,0.304,-0.835,7.0
20.233,0.302,-0.944,3.0
18.158,0.267,-0.942,0.0
20.209,0.295,-0.482,1.0
20.212,0.291,-0.588,10.0
20.212,0.287,-0.693,15.0
20.22,0.284,-0.801,23.0
20.264,0.281,-0.909,13.0
18.515,0.253,-0.928,22.0
20.22,0.274,-0.446,15.0
20.207,0.27,-0.551,26.0
20.221,0.266,-0.657,23.0
20.222,0.263,-0.765,27.0
0.0,0.0,0.0,0.0
18.538,0.234,-0.895,6.0
20.203,0.253,-0.409,25.0
20.189,0.249,-0.514,26.0
20.195,0.245,-0.619,29.0
20.21,0.242,-0.727,30.0
0.0,0.0,0.0,0.0
18.538,0.216,-0.86,12.0
20.185,0.232,-0.371,32.0
20.179,0.229,-0.476,27.0
20.192,0.225,-0.582,33.0
20.201,0.222,-0.69,28.0
18.641,0.202,-0.733,151.0
18.568,0.198,-0.827,150.0
20.179,0.213,-0.334,32.0
20.186,0.21,-0.439,27.0
20.186,0.206,-0.544,30.0
20.211,0.203,-0.651,27.0
18.56,0.183,-0.695,24.0
18.509,0.18,-0.79,161.0
20.176,0.194,-0.295,34.0
20.174,0.191,-0.4,35.0
20.195,0.188,-0.506,27.0
20.172,0.184,-0.612,17.0
21.635,0.194,-0.769,51.0
18.511,0.163,-0.754,175.0
20.181,0.176,-0.257,36.0
20.174,0.172,-0.361,29.0
20.201,0.169,-0.467,26.0
20.189,0.166,-0.573,9.0
21.648,0.175,-0.727,156.0
18.561,0.147,-0.72,151.0
20.18,0.158,-0.218,34.0
20.178,0.155,-0.323,32.0
20.181,0.152,-0.427,18.0
20.219,0.149,-0.535,1.0
21.682,0.157,-0.686,146.0
21.604,0.153,-0.796,160.0
20.17,0.141,-0.179,27.0
20.182,0.138,-0.283,29.0
20.187,0.135,-0.388,18.0
20.261,0.133,-0.496,0.0
21.673,0.139,-0.643,57.0
21.612,0.136,-0.754,168.0
20.183,0.125,-0.139,44.0
20.193,0.122,-0.244,28.0
20.196,0.119,-0.348,17.0
0.0,0.0,0.0,0.0
0.0,0.0,0.0,0.0
21.673,0.12,-0.713,151.0
20.182,0.109,-0.099,33.0
20.188,0.107,-0.204,20.0
20.204,0.104,-0.309,14.0
0.0,0.0,0.0,0.0
33.155,0.163,-0.854,0.0
21.643,0.103,-0.669,0.0
20.196,0.095,-0.059,34.0
20.195,0.092,-0.164,29.0
20.215,0.09,-0.268,6.0
41.662,0.18,-0.773,1.0
0.0,0.0,0.0,0.0
31.226,0.127,-0.902,3.0
20.209,0.08,-0.018,36.0
20.206,0.078,-0.122,25.0
20.223,0.076,-0.227,3.0
0.0,0.0,0.0,0.0
37.658,0.132,-0.815,0.0
33.05,0.112,-0.886,5.0
20.206,0.067,0.022,29.0
20.221,0.064,-0.081,24.0
20.21,0.062,-0.185,16.0
20.251,0.06,-0.293,0.0
20.236,0.058,-0.397,1.0
33.277,0.092,-0.825,4.0
20.174,0.054,0.063,18.0
20.261,0.052,-0.04,6.0
20.262,0.05,-0.144,29.0
20.266,0.048,-0.251,72.0
20.271,0.046,-0.356,81.0
20.265,0.043,-0.46,66.0
20.153,0.042,0.105,30.0
20.267,0.04,0.001,150.0
20.261,0.038,-0.102,151.0
20.244,0.036,-0.209,152.0
20.267,0.034,-0.313,150.0
20.267,0.032,-0.418,150.0
20.134,0.03,0.147,28.0
20.247,0.028,0.043,77.0
20.251,0.027,-0.06,152.0
20.255,0.025,-0.167,151.0
20.267,0.023,-0.271,150.0
20.264,0.021,-0.376,150.0
20.121,0.02,0.189,28.0
20.14,0.018,0.085,32.0
20.219,0.016,-0.018,154.0
20.262,0.015,-0.125,150.0
20.268,0.013,-0.229,79.0
20.248,0.011,-0.333,22.0
20.127,0.01,0.231,27.0
20.124,0.008,0.127,29.0
20.255,0.007,0.023,28.0
20.219,0.005,-0.082,40.0
20.21,0.004,-0.186,10.0
20.238,0.002,-0.29,4.0
20.123,0.001,0.273,26.0
20.124,0.0,0.169,28.0
20.142,-0.001,0.066,29.0
20.155,-0.003,-0.039,13.0
20.166,-0.004,-0.143,17.0
20.171,-0.005,-0.247,5.0
20.123,-0.007,0.315,31.0
20.115,-0.008,0.212,29.0
20.111,-0.009,0.108,33.0
20.104,-0.011,0.003,19.0
20.164,-0.012,-0.1,23.0
20.165,-0.013,-0.204,13.0
20.129,-0.015,0.358,29.0
20.118,-0.016,0.254,26.0
20.111,-0.017,0.151,28.0
20.13,-0.018,0.045,36.0
20.127,-0.019,-0.057,29.0
20.168,-0.02,-0.161,25.0
20.122,-0.021,0.401,28.0
20.113,-0.022,0.297,28.0
20.108,-0.023,0.193,33.0
20.124,-0.024,0.088,38.0
20.133,-0.025,-0.014,34.0
20.145,-0.026,-0.118,32.0
20.13,-0.028,0.444,29.0
20.112,-0.028,0.34,30.0
20.108,-0.029,0.236,29.0
20.113,-0.03,0.131,31.0
20.141,-0.031,0.027,38.0
20.144,-0.032,-0.076,32.0
20.143,-0.033,0.487,26.0
20.125,-0.034,0.382,27.0
20.119,-0.034,0.279,27.0
20.11,-0.035,0.173,33.0
20.128,-0.036,0.07,40.0
20.121,-0.036,-0.033,37.0
20.162,-0.038,0.53,23.0
20.125,-0.038,0.425,29.0
20.118,-0.039,0.322,29.0
20.108,-0.039,0.216,30.0
20.118,-0.04,0.113,35.0
20.135,-0.04,0.009,35.0
20.161,-0.042,0.573,18.0
20.127,-0.042,0.468,26.0
20.125,-0.042,0.365,29.0
20.107,-0.043,0.259,28.0
20.111,-0.043,0.156,35.0
20.131,-0.044,0.052,41.0
20.183,-0.045,0.617,16.0
20.132,-0.045,0.511,20.0
20.122,-0.045,0.408,27.0
20.106,-0.046,0.302,29.0
20.112,-0.046,0.199,28.0
20.134,-0.046,0.095,39.0
58.301,-0.138,1.907,165.0
20.13,-0.047,0.554,17.0
20.137,-0.047,0.451,27.0
20.105,-0.047,0.345,31.0
20.106,-0.048,0.242,28.0
20.118,-0.048,0.138,31.0
58.282,-0.142,2.031,197.0
20.155,-0.049,0.598,14.0
20.14,-0.049,0.494,22.0
20.111,-0.049,0.388,28.0
20.104,-0.049,0.284,30.0
20.108,-0.048,0.181,30.0
58.311,-0.145,2.156,159.0
58.317,-0.144,1.856,153.0
20.129,-0.049,0.537,18.0
20.122,-0.049,0.431,28.0
20.114,-0.049,0.327,31.0
20.111,-0.049,0.224,29.0
58.281,-0.145,2.28,144.0
58.27,-0.144,1.978,213.0
20.146,-0.049,0.58,15.0
20.118,-0.049,0.473,24.0
20.123,-0.048,0.37,31.0
20.115,-0.048,0.266,30.0
58.281,-0.143,2.402,128.0
58.297,-0.142,2.102,176.0
20.169,-0.048,0.623,14.0
20.11,-0.048,0.516,19.0
20.117,-0.047,0.412,28.0
20.126,-0.047,0.308,32.0
58.318,-0.139,2.527,157.0
58.298,-0.138,2.225,150.0
58.302,-0.136,1.924,180.0
20.125,-0.046,0.558,17.0
20.13,-0.045,0.455,26.0
20.117,-0.045,0.351,32.0
58.23,-0.133,2.646,255.0
58.3,-0.131,2.348,16.0
58.299,-0.129,2.047,170.0
20.162,-0.043,0.601,15.0
20.132,-0.043,0.497,22.0
20.115,-0.042,0.392,26.0
58.279,-0.125,2.769,246.0
58.295,-0.122,2.469,44.0
58.273,-0.119,2.168,92.0
58.272,-0.117,1.86,150.0
20.135,-0.039,0.539,19.0
20.116,-0.038,0.435,30.0
59.274,-0.116,2.941,44.0
58.296,-0.111,2.591,197.0
20.113,-0.037,0.79,18.0
58.307,-0.105,1.983,150.0
20.153,-0.035,0.581,18.0
20.133,-0.034,0.476,24.0
58.473,-0.102,3.023,13.0
58.238,-0.098,2.709,255.0
20.119,-0.032,0.832,20.0
58.273,-0.091,2.103,19.0
20.192,-0.03,0.624,21.0
20.146,-0.029,0.519,21.0
0.0,0.0,0.0,0.0
58.786,-0.083,2.856,67.0
58.272,-0.079,2.53,11.0
20.118,-0.025,0.767,24.0
58.275,-0.071,1.921,9.0
20.154,-0.023,0.56,21.0
59.926,-0.071,3.345,49.0
59.277,-0.067,3.001,37.0
58.227,-0.061,2.646,255.0
20.122,-0.019,0.808,26.0
20.152,-0.018,0.705,22.0
20.183,-0.016,0.601,22.0
46.131,-0.04,2.668,30.0
58.511,-0.046,3.081,15.0
58.251,-0.042,2.765,209.0
20.124,-0.012,0.848,26.0
20.122,-0.011,0.744,27.0
20.192,-0.009,0.642,38.0
46.137,-0.023,2.761,50.0
59.932,-0.025,3.276,42.0
59.293,-0.02,2.933,27.0
58.289,-0.014,2.575,150.0
20.113,-0.003,0.784,27.0
20.15,-0.001,0.681,24.0
58.715,-0.006,3.633,17.0
59.926,-0.001,3.396,8.0
59.308,0.004,3.053,47.0
58.28,0.009,2.691,183.0
20.115,0.005,0.824,28.0
20.122,0.006,0.72,32.0
68.056,0.021,4.346,18.0
46.12,0.019,2.705,38.0
59.739,0.03,3.192,34.0
66.779,0.04,3.215,35.0
20.123,0.014,0.864,25.0
20.102,0.016,0.759,28.0
66.629,0.052,4.386,22.0
58.643,0.052,3.554,11.0
59.926,0.059,3.32,50.0
66.81,0.073,3.347,33.0
20.112,0.024,0.903,10.0
20.112,0.026,0.798,27.0
45.507,0.058,3.085,68.0
58.666,0.082,3.671,52.0
66.608,0.1,3.82,18.0
59.353,0.095,3.088,26.0
66.777,0.115,3.127,30.0
20.099,0.037,0.837,25.0
45.52,0.083,3.173,61.0
58.674,0.113,3.784,53.0
46.145,0.094,2.735,52.0
59.447,0.129,3.207,45.0
66.805,0.152,3.256,41.0
20.101,0.048,0.875,18.0
45.561,0.109,3.263,43.0
58.651,0.147,3.894,45.0
60.185,0.158,3.682,19.0
59.756,0.165,3.338,18.0
66.776,0.192,3.382,34.0
20.14,0.06,0.915,7.0
45.602,0.136,3.354,63.0
58.64,0.183,4.005,14.0
60.219,0.195,3.797,49.0
101.418,0.343,5.855,29.0
66.823,0.234,3.508,36.0
66.157,0.24,3.127,12.0
0.0,0.0,0.0,0.0
45.536,0.171,3.195,45.0
60.291,0.235,3.913,38.0
46.195,0.186,2.751,18.0
67.12,0.279,3.647,14.0
103.623,0.446,5.089,23.0
0.0,0.0,0.0,0.0
45.603,0.202,3.283,40.0
0.0,0.0,0.0,0.0
46.2,0.217,2.836,55.0
59.466,0.288,3.339,58.0
66.831,0.333,3.403,11.0
45.508,0.227,3.597,53.0
45.64,0.234,3.368,50.0
58.653,0.309,4.019,38.0
46.215,0.25,2.919,53.0
59.472,0.33,3.444,53.0
66.871,0.381,3.522,27.0
45.475,0.259,3.675,56.0
60.422,0.354,4.566,64.0
58.622,0.352,4.121,55.0
46.257,0.285,3.004,17.0
59.472,0.375,3.55,30.0
66.922,0.432,3.644,8.0
45.427,0.294,3.752,46.0
60.449,0.4,4.674,16.0
58.616,0.397,4.223,9.0
101.25,0.702,6.752,5.0
59.399,0.421,3.648,9.0
101.37,0.733,5.693,22.0
45.23,0.328,3.814,39.0
45.437,0.337,3.592,7.0
58.525,0.443,4.317,19.0
67.217,0.52,4.597,15.0
46.255,0.365,2.92,14.0
103.771,0.836,6.005,10.0
45.068,0.364,3.878,8.0
52.604,0.434,4.248,16.0
58.45,0.491,4.411,27.0
67.243,0.576,4.713,16.0
46.261,0.404,2.998,43.0
59.584,0.53,3.548,6.0
40.41,0.361,3.545,33.0
52.605,0.478,4.337,12.0
58.349,0.54,4.501,29.0
67.318,0.634,4.829,12.0
46.281,0.444,3.075,50.0
59.622,0.582,3.647,18.0
50.922,0.499,4.551,6.0
58.104,0.579,4.884,11.0
58.306,0.591,4.592,29.0
67.245,0.693,4.933,18.0
46.301,0.485,3.151,19.0
59.635,0.635,3.743,49.0
40.452,0.433,3.681,24.0
44.296,0.482,3.795,1.0
52.575,0.58,4.225,18.0
67.24,0.754,5.039,27.0
46.347,0.528,3.227,15.0
59.667,0.689,3.839,57.0
40.357,0.469,3.735,32.0
40.412,0.476,3.525,17.0
52.539,0.628,4.303,19.0
67.202,0.816,5.141,23.0
46.37,0.571,3.301,41.0
59.715,0.746,3.934,44.0
40.318,0.506,3.795,63.0
40.455,0.516,3.592,11.0
52.49,0.678,4.38,41.0
43.328,0.568,3.38,3.0
46.387,0.616,3.372,40.0
59.77,0.806,4.028,50.0
40.33,0.546,3.857,9.0
40.551,0.556,3.662,26.0
52.455,0.73,4.456,26.0
52.933,0.746,4.209,8.0
46.419,0.663,3.444,69.0
59.692,0.864,4.112,42.0
36.424,0.53,3.539,2.0
44.703,0.659,4.104,2.0
40.418,0.603,3.494,14.0
43.158,0.652,3.496,7.0
46.432,0.711,3.513,62.0
59.66,0.924,4.196,51.0
36.36,0.566,3.585,2.0
52.477,0.827,4.892,16.0
40.401,0.644,3.55,32.0
46.448,0.75,3.828,5.0
46.456,0.759,3.58,11.0
59.589,0.985,4.275,62.0
53.537,0.89,5.355,3.0
52.55,0.884,4.974,17.0
40.405,0.687,3.607,3.0
46.429,0.798,3.891,25.0
43.001,0.748,3.373,3.0
59.468,1.046,4.347,37.0
67.762,1.198,6.871,11.0
40.483,0.724,3.886,33.0
40.433,0.731,3.664,19.0
46.429,0.848,3.954,62.0
42.535,0.785,3.394,2.0
59.46,1.11,4.426,33.0
52.563,0.987,5.4,13.0
40.511,0.768,3.943,3.0
40.275,0.772,3.703,35.0
46.465,0.9,4.018,33.0
43.209,0.845,3.504,5.0
59.469,1.175,4.504,33.0
37.015,0.736,3.851,3.0
46.545,0.935,4.591,12.0
40.279,0.817,3.756,31.0
40.411,0.827,3.546,25.0
52.342,1.083,4.311,12.0
57.87,1.208,4.456,4.0
46.758,0.983,4.924,9.0
46.552,0.987,4.65,38.0
52.48,1.123,4.959,33.0
40.34,0.871,3.589,19.0
52.209,1.139,4.364,5.0
0.0,0.0,0.0,0.0
52.733,1.168,5.618,12.0
46.563,1.041,4.708,6.0
52.518,1.185,5.026,8.0
40.242,0.916,3.629,3.0
43.672,1.003,3.703,16.0
0.0,0.0,0.0,0.0
46.583,1.086,5.018,17.0
37.008,0.87,3.785,0.0
52.74,1.251,5.109,9.0
43.808,1.048,4.001,9.0
40.4,0.975,3.472,3.0
52.246,1.271,4.207,4.0
48.058,1.177,5.232,2.0
37.008,0.914,3.827,2.0
46.562,1.159,4.563,24.0
40.361,1.013,3.731,51.0
40.392,1.022,3.516,13.0
52.217,1.332,4.263,17.0
48.126,1.236,5.293,5.0
37.015,0.958,3.869,4.0
46.58,1.215,4.615,17.0
40.346,1.061,3.774,56.0
40.402,1.071,3.56,27.0
52.202,1.395,4.318,26.0
46.213,1.243,5.132,3.0
46.41,1.258,4.901,5.0
46.568,1.271,4.663,2.0
52.832,1.454,4.998,7.0
40.405,1.12,3.602,31.0
42.991,1.201,3.599,3.0
46.211,1.3,5.18,9.0
36.86,1.044,3.93,4.0
59.144,1.688,5.982,13.0
53.102,1.526,5.076,5.0
40.419,1.17,3.643,36.0
50.761,1.48,4.3,11.0
46.181,1.356,5.222,4.0
58.979,1.744,6.345,24.0
52.428,1.561,5.354,5.0
53.438,1.602,5.159,5.0
40.416,1.22,3.682,58.0
52.574,1.598,4.503,9.0
58.454,1.79,6.665,6.0
46.649,1.437,5.063,20.0
59.161,1.836,6.096,3.0
43.771,1.367,4.266,8.0
43.754,1.375,4.025,4.0
52.514,1.662,4.544,9.0
58.958,1.879,6.775,34.0
46.659,1.496,5.105,8.0
57.678,1.861,5.993,0.0
65.816,2.137,6.471,8.0
60.103,1.964,5.581,9.0
52.276,1.72,4.568,17.0
59.608,1.975,6.901,5.0
46.443,1.548,5.121,10.0
46.2,1.549,4.84,8.0
52.419,1.769,5.197,5.0
43.68,1.482,4.091,3.0
52.298,1.786,4.613,8.0
46.725,1.607,5.447,14.0
46.311,1.602,5.143,12.0
46.29,1.611,4.886,6.0
60.163,2.106,6.012,7.0
53.405,1.88,5.044,5.0
46.886,1.661,4.171,6.0
46.72,1.666,5.482,10.0
46.304,1.661,5.177,4.0
58.28,2.103,6.195,5.0
60.204,2.184,6.061,9.0
53.248,1.943,5.068,6.0
53.163,1.951,4.768,20.0
52.644,1.945,6.216,2.0
46.573,1.73,5.24,5.0
60.17,2.248,6.438,34.0
45.911,1.724,4.654,1.0
53.322,2.014,5.111,3.0
46.194,1.754,4.174,1.0
52.613,2.012,6.248,1.0
60.325,2.32,6.828,20.0
46.756,1.807,5.033,4.0
60.253,2.341,6.147,6.0
52.513,2.051,5.067,5.0
53.48,2.1,4.866,4.0
52.675,2.083,6.288,1.0
59.702,2.373,6.796,23.0
46.184,1.844,5.0,6.0
46.006,1.847,4.721,8.0
52.515,2.118,5.099,6.0
46.083,1.868,4.22,2.0
39.397,1.609,4.726,1.0
59.027,2.422,6.753,20.0
46.173,1.904,5.025,5.0
60.086,2.489,6.2,6.0
52.382,2.18,5.115,6.0
46.036,1.926,4.241,6.0
59.791,2.52,7.206,3.0
59.146,2.504,6.798,5.0
46.292,1.968,5.063,12.0
46.871,2.003,4.861,5.0
52.356,2.248,5.139,3.0
45.988,1.983,4.26,5.0
46.868,2.036,5.672,1.0
66.016,2.881,7.62,3.0
46.47,2.037,5.105,20.0
46.833,2.061,4.879,9.0
59.199,2.618,5.838,3.0
46.038,2.045,4.285,8.0
59.895,2.68,7.275,5.0
0.0,0.0,0.0,0.0
46.433,2.095,5.121,5.0
46.77,2.119,4.893,4.0
45.829,2.086,4.539,1.0
45.987,2.102,4.299,9.0
46.767,2.153,5.7,2.0
47.731,2.207,5.55,1.0
46.548,2.161,5.152,6.0
46.482,2.167,4.88,6.0
45.778,2.142,4.551,6.0
45.885,2.156,4.307,10.0
0.0,0.0,0.0,0.0
47.643,2.265,5.556,0.0
46.828,2.234,5.199,13.0
47.013,2.252,4.952,1.0
59.097,2.842,5.895,7.0
45.974,2.219,4.33,9.0
0.0,0.0,0.0,0.0
0.0,0.0,0.0,0.0
46.977,2.302,5.23,11.0
46.148,2.27,4.874,1.0
60.926,3.008,6.095,3.0
45.941,2.277,4.339,8.0
0.0,0.0,0.0,0.0
60.471,3.03,7.087,0.0
47.009,2.364,5.245,6.0
60.691,3.063,6.425,2.0
60.934,3.086,6.11,2.0
45.947,2.336,4.35,11.0
0.0,0.0,0.0,0.0
60.391,3.103,7.09,7.0
47.022,2.424,5.256,3.0
0.0,0.0,0.0,0.0
59.501,3.089,5.978,4.0
45.87,2.389,4.352,13.0
0.0,0.0,0.0,0.0
60.409,3.181,7.103,3.0
47.045,2.485,5.266,2.0
46.436,2.461,4.932,4.0
52.356,2.783,5.267,1.0
45.919,2.449,4.363,7.0
47.16,2.534,5.818,0.0
60.393,3.255,7.109,2.0
46.419,2.51,5.202,4.0
45.868,2.488,4.877,11.0
45.679,2.494,4.344,14.0
47.209,2.597,5.828,1.0
46.687,2.575,5.499,1.0
47.162,2.609,5.289,2.0
46.812,2.597,4.981,5.0
45.687,2.543,4.604,1.0
45.849,2.561,4.363,9.0
47.16,2.652,5.824,1.0
45.943,2.591,5.413,3.0
47.261,2.673,5.301,1.0
46.567,2.642,4.956,4.0
45.792,2.606,4.615,2.0
45.763,2.612,4.355,9.0
47.233,2.715,5.833,1.0
46.671,2.69,5.498,1.0
46.767,2.704,5.245,2.0
46.927,2.72,4.993,4.0
45.403,2.64,4.574,1.0
45.636,2.66,4.341,7.0
47.394,2.783,5.85,1.0
0.0,0.0,0.0,0.0
47.056,2.777,5.275,0.0
46.777,2.768,4.974,3.0
47.207,2.802,4.753,1.0
45.593,2.713,4.333,4.0
0.0,0.0,0.0,0.0
0.0,0.0,0.0,0.0
0.0,0.0,0.0,0.0
45.801,2.765,4.865,5.0
45.545,2.764,4.323,3.0
0.0,0.0,0.0,0.0
0.0,0.0,0.0,0.0
46.167,2.836,5.163,1.0
46.007,2.832,4.88,3.0
45.752,2.83,4.335,4.0
0.0,0.0,0.0,0.0
0.0,0.0,0.0,0.0
46.203,2.892,5.158,3.0
46.056,2.889,4.876,1.0
45.72,2.882,4.322,2.0
0.0,0.0,0.0,0.0
0.0,0.0,0.0,0.0
46.199,2.945,5.147,2.0
46.101,2.945,4.869,1.0
0.0,0.0,0.0,0.0
47.15,3.053,5.509,2.0
46.201,2.998,5.134,0.0
46.021,2.992,4.848,1.0
0.0,0.0,0.0,0.0
47.169,3.107,5.496,1.0
0.0,0.0,0.0,0.0
45.352,3.006,4.505,1.0
47.72,3.17,4.469,1.0
0.0,0.0,0.0,0.0
0.0,0.0,0.0,0.0
0.0,0.0,0.0,0.0
46.257,3.11,4.84,1.0
45.424,3.06,4.495,11.0
47.755,3.223,4.454,2.0
0.0,0.0,0.0,0.0
46.229,3.147,5.351,1.0
0.0,0.0,0.0,0.0
45.592,3.12,4.492,4.0
47.486,3.256,4.409,1.0
0.0,0.0,0.0,0.0
46.192,3.193,5.327,2.0
0.0,0.0,0.0,0.0
45.587,3.167,4.471,5.0
45.567,3.172,4.21,3.0
0.0,0.0,0.0,0.0
0.0,0.0,0.0,0.0
0.0,0.0,0.0,0.0
45.661,3.22,4.455,4.0
45.569,3.219,4.187,5.0
46.11,3.278,5.536,0.0
0.0,0.0,0.0,0.0
0.0,0.0,0.0,0.0
45.721,3.27,4.437,3.0
0.0,0.0,0.0,0.0
0.0,0.0,0.0,0.0
46.337,3.35,5.004,0.0
45.783,3.32,4.416,1.0
0.0,0.0,0.0,0.0
0.0,0.0,0.0,0.0
0.0,0.0,0.0,0.0
0.0,0.0,0.0,0.0
0.0,0.0,0.0,0.0
0.0,0.0,0.0,0.0
45.551,3.384,4.596,3.0
47.353,3.523,4.507,1.0
0.0,0.0,0.0,0.0
0.0,0.0,0.0,0.0
0.0,0.0,0.0,0.0
45.521,3.424,4.561,1.0
0.0,0.0,0.0,0.0
0.0,0.0,0.0,0.0
0.0,0.0,0.0,0.0
0.0,0.0,0.0,0.0
0.0,0.0,0.0,0.0
45.389,3.5,3.96,2.0
0.0,0.0,0.0,0.0
0.0,0.0,0.0,0.0
45.426,3.529,4.713,3.0
45.235,3.525,3.91,0.0
0.0,0.0,0.0,0.0
0.0,0.0,0.0,0.0
45.441,3.566,4.677,1.0
46.009,3.613,4.467,1.0
114.585,9.018,9.809,6.0
0.0,0.0,0.0,0.0
0.0,0.0,0.0,0.0
45.964,3.645,4.422,1.0
112.234,8.908,10.153,2.0
114.66,9.109,9.715,2.0
0.0,0.0,0.0,0.0
45.295,3.619,4.844,3.0
0.0,0.0,0.0,0.0
45.854,3.669,4.37,1.0
112.175,8.991,9.403,5.0
45.112,3.634,5.043,1.0
45.344,3.655,4.807,0.0
0.0,0.0,0.0,0.0
0.0,0.0,0.0,0.0
0.0,0.0,0.0,0.0
112.117,9.062,9.292,6.0
45.184,3.67,5.008,4.0
0.0,0.0,0.0,0.0
114.705,9.327,11.388,3.0
114.538,9.318,10.7,2.0
116.148,9.455,10.182,6.0
116.16,9.463,9.516,16.0
0.0,0.0,0.0,0.0
0.0,0.0,0.0,0.0
116.211,9.521,11.422,3.0
115.98,9.508,10.718,5.0
116.145,9.527,10.066,6.0
116.488,9.561,9.426,7.0
0.0,0.0,0.0,0.0
0.0,0.0,0.0,0.0
46.057,3.801,4.479,1.0
0.0,0.0,0.0,0.0
117.893,9.738,10.095,12.0
111.345,9.203,8.894,1.0
0.0,0.0,0.0,0.0
0.0,0.0,0.0,0.0
115.817,9.623,11.142,7.0
112.778,9.374,10.187,7.0
112.577,9.36,9.521,12.0
117.943,9.812,9.296,15.0
0.0,0.0,0.0,0.0
0.0,0.0,0.0,0.0
115.749,9.677,11.009,2.0
0.0,0.0,0.0,0.0
112.574,9.417,9.398,5.0
117.613,9.843,9.142,8.0
0.0,0.0,0.0,0.0
0.0,0.0,0.0,0.0
115.985,9.751,10.904,5.0
115.559,9.719,10.184,9.0
96.565,8.124,7.953,1.0
112.615,9.477,8.628,5.0
114.684,9.691,11.979,2.0
46.066,3.893,4.544,0.0
0.0,0.0,0.0,0.0
115.352,9.751,10.035,5.0
115.51,9.768,9.382,7.0
85.02,7.192,6.416,5.0
114.784,9.748,11.855,4.0
0.0,0.0,0.0,0.0
114.884,9.758,10.534,2.0
0.0,0.0,0.0,0.0
115.422,9.805,9.24,7.0
106.311,9.034,7.898,5.0
114.847,9.797,11.725,7.0
0.0,0.0,0.0,0.0
115.01,9.81,10.409,3.0
0.0,0.0,0.0,0.0
115.436,9.848,9.103,7.0
85.055,7.257,6.218,4.0
114.845,9.835,11.586,7.0
115.265,9.87,10.96,2.0
114.912,9.84,10.261,7.0
0.0,0.0,0.0,0.0
115.402,9.882,8.96,5.0
84.972,7.276,6.108,4.0
114.856,9.87,11.446,6.0
115.242,9.902,10.815,3.0
115.2,9.897,10.145,4.0
91.832,7.889,7.546,2.0
115.696,9.939,8.841,9.0
85.033,7.305,6.007,4.0
114.913,9.904,11.306,5.0
115.019,9.912,10.65,2.0
114.981,9.907,9.98,3.0
96.57,8.319,7.814,1.0
115.409,9.942,8.673,4.0
84.94,7.316,5.894,2.0
115.057,9.942,11.173,6.0
115.117,9.943,9.843,6.0
115.033,9.933,9.16,11.0
115.16,9.943,8.505,7.0
91.992,7.942,6.264,5.0
115.12,9.969,11.028,2.0
115.195,9.971,10.368,2.0
114.931,9.946,9.679,10.0
115.068,9.955,9.013,19.0
115.106,9.956,8.351,9.0
91.998,7.956,6.144,6.0
115.002,9.974,10.865,3.0
114.891,9.96,10.189,8.0
115.004,9.966,9.533,21.0
115.014,9.965,8.856,10.0
91.717,7.944,6.533,3.0
91.888,7.956,6.016,7.0
114.988,9.984,10.71,2.0
114.927,9.974,10.037,22.0
106.229,9.215,8.662,4.0
96.392,8.358,7.293,5.0
91.766,7.955,6.414,2.0
85.408,7.401,5.478,5.0
115.023,9.992,10.558,5.0
114.966,9.982,9.886,29.0
115.02,9.982,9.225,8.0
115.1,9.984,8.554,10.0
107.572,9.328,7.373,9.0
85.489,7.41,5.366,4.0
115.018,9.993,10.399,8.0
114.978,9.983,9.729,23.0
96.51,8.376,7.606,6.0
106.626,9.249,7.777,9.0
92.002,7.976,6.179,4.0
98.236,8.513,6.031,2.0
114.97,9.984,10.234,17.0
115.022,9.983,9.57,22.0
96.451,8.366,7.466,10.0
106.588,9.24,7.624,5.0
91.873,7.96,6.042,7.0
78.327,6.783,4.699,1.0
114.953,9.975,10.07,22.0
115.011,9.972,9.408,16.0
115.087,9.972,8.747,8.0
91.707,7.942,6.431,4.0
85.445,7.395,5.498,4.0
86.724,7.501,5.081,2.0
114.948,9.961,9.905,19.0
114.999,9.957,9.244,18.0
115.104,9.959,8.586,16.0
107.587,9.301,7.392,7.0
91.36,7.894,5.75,4.0
99.079,8.556,5.664,3.0
115.0,9.946,9.746,6.0
115.096,9.946,9.087,14.0
115.214,9.948,8.43,7.0
92.006,7.938,6.191,5.0
91.412,7.882,5.623,4.0
105.98,9.132,5.908,4.0
109.823,9.476,9.148,3.0
115.992,9.999,8.989,8.0
106.384,9.162,7.63,3.0
85.43,7.352,5.625,2.0
97.634,8.395,5.865,3.0
91.919,7.898,4.992,4.0
91.886,7.905,7.521,1.0
115.537,9.93,8.787,9.0
92.035,7.903,6.467,3.0
85.401,7.327,5.5,5.0
99.21,8.504,5.816,4.0
89.347,7.653,4.724,1.0
96.497,8.274,7.759,7.0
106.415,9.114,7.941,5.0
107.519,9.2,7.4,7.0
97.947,8.373,6.167,6.0
99.012,8.456,5.662,4.0
89.465,7.635,4.601,4.0
115.433,9.859,9.114,7.0
84.997,7.251,6.218,4.0
87.645,7.469,5.905,2.0
91.498,7.789,5.627,3.0
85.034,7.232,4.74,2.0
108.166,9.191,5.406,6.0
97.917,8.325,7.586,3.0
85.688,7.277,6.143,4.0
85.415,7.246,5.629,4.0
91.55,7.758,5.496,7.0
92.106,7.797,4.999,4.0
91.931,7.775,4.46,3.0
85.041,7.195,6.463,6.0
96.351,8.141,6.765,8.0
97.753,8.25,6.299,7.0
91.663,7.727,5.368,9.0
96.915,8.161,5.117,3.0
91.882,7.728,4.322,6.0
117.546,9.89,8.759,4.0
107.598,9.041,7.395,3.0
115.971,9.732,7.3,12.0
84.877,7.113,4.845,2.0
96.832,8.107,4.969,5.0
99.194,8.295,4.519,3.0
115.905,9.692,8.464,1.0
97.88,8.174,6.582,4.0
91.442,7.626,5.621,9.0
110.331,9.189,6.135,5.0
96.909,8.062,4.831,2.0
99.365,8.256,4.382,5.0
107.653,8.944,7.703,11.0
108.775,9.023,7.154,6.0
91.551,7.583,5.493,9.0
92.12,7.621,4.987,4.0
87.222,7.206,4.22,4.0
109.877,9.065,4.683,3.0
85.576,7.058,5.996,5.0
91.623,7.545,5.89,5.0
97.303,8.001,5.694,5.0
107.668,8.841,5.668,4.0
87.75,7.195,4.114,5.0
99.86,8.177,4.108,4.0
116.266,9.516,7.973,2.0
91.55,7.48,5.75,8.0
85.593,6.983,4.883,1.0
96.815,7.887,4.955,2.0
96.519,7.851,4.383,3.0
143.988,11.695,5.713,6.0
91.751,7.447,6.156,5.0
97.337,7.887,5.97,6.0
92.065,7.447,5.116,6.0
96.826,7.82,4.814,5.0
109.976,8.868,4.834,6.0
167.141,13.457,6.386,3.0
110.311,8.873,7.238,10.0
108.557,8.717,6.497,7.0
92.089,7.381,4.981,6.0
96.712,7.739,4.664,4.0
109.907,8.781,4.668,8.0
167.025,13.322,6.133,5.0
91.25,7.269,5.852,10.0
99.088,7.88,5.783,3.0
92.337,7.329,4.858,6.0
97.191,7.701,4.544,1.0
110.012,8.702,4.51,3.0
167.003,13.188,5.887,15.0
99.897,7.877,6.258,3.0
91.841,7.227,5.224,6.0
110.814,8.705,5.664,3.0
96.901,7.598,4.387,3.0
109.912,8.602,4.343,1.0
154.494,12.069,5.218,11.0
108.604,8.471,6.643,4.0
92.089,7.168,5.102,3.0
108.26,8.409,5.374,4.0
99.422,7.708,4.354,2.0
169.419,13.111,6.445,9.0
172.569,13.329,5.574,6.0
99.127,7.642,5.917,3.0
157.364,12.105,8.484,5.0
107.497,8.253,5.177,2.0
154.196,11.814,6.526,9.0
154.486,11.812,5.651,6.0
156.962,11.977,4.84,25.0
92.32,7.03,5.375,1.0
110.884,8.425,5.817,7.0
119.856,9.086,5.597,8.0
96.679,7.315,3.95,6.0
174.692,13.189,6.136,11.0
163.445,12.314,4.803,7.0
92.276,6.936,5.237,5.0
120.447,9.033,6.143,3.0
96.373,7.211,4.362,18.0
163.511,12.209,6.445,9.0
163.702,12.196,5.514,22.0
166.725,12.396,4.661,16.0
111.04,8.234,6.143,7.0
108.069,7.995,5.357,2.0
99.636,7.353,4.367,2.0
0.0,0.0,0.0,0.0
166.464,12.228,5.367,14.0
155.721,11.413,4.129,22.0
96.409,7.046,5.195,2.0
0.0,0.0,0.0,0.0
110.144,8.01,4.669,4.0
166.232,12.06,6.077,13.0
154.989,11.217,4.777,8.0
161.986,11.696,4.064,16.0
120.125,8.647,6.301,5.0
107.454,7.714,5.019,4.0
161.674,11.576,6.623,9.0
153.608,10.972,5.397,5.0
155.834,11.103,4.581,30.0
168.055,11.944,3.98,16.0
108.128,7.658,5.517,4.0
121.8,8.604,5.516,3.0
154.381,10.876,6.106,3.0
155.965,10.958,5.26,5.0
161.727,11.335,4.529,17.0
174.786,12.218,3.893,7.0
107.01,7.453,5.311,2.0
157.146,10.916,6.898,6.0
155.961,10.802,5.951,8.0
161.759,11.172,5.231,4.0
162.827,11.217,4.334,7.0
173.599,11.926,3.627,11.0
155.818,10.663,7.517,4.0
110.12,7.513,4.681,3.0
156.996,10.681,5.775,15.0
173.27,11.754,5.365,4.0
178.325,12.061,4.501,7.0
0.0,0.0,0.0,0.0
157.748,10.597,7.393,5.0
0.0,0.0,0.0,0.0
162.035,10.816,5.736,4.0
162.696,10.826,4.812,17.0
179.194,11.89,4.276,5.0
209.773,13.876,3.807,5.0
107.689,7.093,4.9,2.0
161.733,10.618,6.435,5.0
162.695,10.649,5.543,6.0
179.039,11.68,5.057,4.0
173.984,11.317,3.921,4.0
0.0,0.0,0.0,0.0
161.185,10.402,7.12,9.0
0.0,0.0,0.0,0.0
162.769,10.436,5.329,9.0
179.047,11.44,4.82,4.0
198.024,12.61,4.199,12.0
0.0,0.0,0.0,0.0
0.0,0.0,0.0,0.0
156.191,9.832,5.801,4.0
0.0,0.0,0.0,0.0
195.859,12.244,5.017,5.0
198.253,12.35,3.946,7.0
0.0,0.0,0.0,0.0
163.266,10.085,6.784,4.0
0.0,0.0,0.0,0.0
0.0,0.0,0.0,0.0
195.801,11.96,4.762,11.0
0.0,0.0,0.0,0.0
0.0,0.0,0.0,0.0
0.0,0.0,0.0,0.0
0.0,0.0,0.0,0.0
0.0,0.0,0.0,0.0
0.0,0.0,0.0,0.0
202.22,12.01,3.506,5.0
208.183,12.317,2.423,7.0
156.191,9.189,6.09,3.0
0.0,0.0,0.0,0.0
0.0,0.0,0.0,0.0
0.0,0.0,0.0,0.0
0.0,0.0,0.0,0.0
0.0,0.0,0.0,0.0
162.049,9.288,6.118,4.0
193.209,11.029,6.193,12.0
0.0,0.0,0.0,0.0
0.0,0.0,0.0,0.0
0.0,0.0,0.0,0.0
196.076,11.007,1.8,6.0
193.159,10.775,7.06,6.0
196.047,10.889,6.047,18.0
196.045,10.841,4.931,50.0
196.057,10.796,3.797,55.0
196.126,10.751,2.682,41.0
196.138,10.704,1.566,33.0
193.319,10.481,6.835,12.0
193.667,10.453,5.745,9.0
0.0,0.0,0.0,0.0
0.0,0.0,0.0,0.0
0.0,0.0,0.0,0.0
197.109,10.443,1.343,26.0
193.55,10.182,6.615,14.0
0.0,0.0,0.0,0.0
196.826,10.252,4.488,7.0
197.853,10.257,3.366,5.0
201.894,10.416,2.289,7.0
197.16,10.121,1.115,28.0
194.104,9.894,6.412,5.0
197.973,10.04,5.415,10.0
197.832,9.98,4.286,11.0
197.664,9.921,3.14,17.0
197.798,9.876,2.018,23.0
197.344,9.803,0.895,27.0
0.0,0.0,0.0,0.0
194.047,9.514,5.088,6.0
0.0,0.0,0.0,0.0
0.0,0.0,0.0,0.0
197.123,9.507,1.793,8.0
196.908,9.448,0.675,18.0
193.894,9.227,5.973,25.0
195.51,9.25,4.913,6.0
0.0,0.0,0.0,0.0
204.857,9.584,2.803,31.0
196.928,9.161,1.579,25.0
0.0,0.0,0.0,0.0
193.694,8.883,5.759,22.0
0.0,0.0,0.0,0.0
197.079,8.929,3.625,9.0
204.953,9.233,2.589,37.0
196.508,8.799,1.37,42.0
0.0,0.0,0.0,0.0
195.505,8.627,5.613,11.0
195.479,8.572,4.505,17.0
196.511,8.563,3.415,20.0
0.0,0.0,0.0,0.0
196.723,8.461,1.17,31.0
0.0,0.0,0.0,0.0
193.856,8.205,5.367,16.0
0.0,0.0,0.0,0.0
196.793,8.219,3.22,11.0
0.0,0.0,0.0,0.0
196.74,8.108,0.974,37.0
0.0,0.0,0.0,0.0
193.709,7.85,5.172,15.0
200.658,8.072,4.222,6.0
204.025,8.148,3.139,7.0
199.36,7.907,1.921,18.0
196.68,7.744,0.783,23.0
0.0,0.0,0.0,0.0
195.081,7.547,5.022,18.0
195.052,7.488,3.918,23.0
195.192,7.435,2.817,14.0
196.484,7.428,1.707,5.0
196.608,7.376,0.598,8.0
0.0,0.0,0.0,0.0
195.621,7.202,4.854,16.0
202.854,7.409,3.887,10.0
195.871,7.097,2.648,23.0
196.26,7.052,1.526,28.0
0.0,0.0,0.0,0.0
0.0,0.0,0.0,0.0
195.881,6.845,4.686,7.0
195.231,6.762,3.568,26.0
0.0,0.0,0.0,0.0
196.289,6.683,1.354,26.0
0.0,0.0,0.0,0.0
0.0,0.0,0.0,0.0
0.0,0.0,0.0,0.0
195.164,6.389,3.4,21.0
0.0,0.0,0.0,0.0
196.153,6.302,1.186,31.0
0.0,0.0,0.0,0.0
0.0,0.0,0.0,0.0
193.817,6.028,4.306,31.0
195.08,6.008,3.235,6.0
201.745,6.149,2.21,34.0
196.088,5.917,1.025,31.0
0.0,0.0,0.0,0.0
73.087,2.162,-0.439,6.0
193.494,5.643,4.145,34.0
195.46,5.64,3.088,14.0
0.0,0.0,0.0,0.0
0.0,0.0,0.0,0.0
0.0,0.0,0.0,0.0
0.0,0.0,0.0,0.0
193.52,5.263,3.997,32.0
195.6,5.258,2.941,20.0
103.151,2.74,0.971,5.0
100.376,2.635,0.371,1.0
0.0,0.0,0.0,0.0
0.0,0.0,0.0,0.0
193.794,4.887,3.861,28.0
195.071,4.858,2.791,23.0
0.0,0.0,0.0,0.0
100.187,2.431,0.298,2.0
0.0,0.0,0.0,0.0
0.0,0.0,0.0,0.0
193.976,4.501,3.728,20.0
195.289,4.467,2.657,15.0
0.0,0.0,0.0,0.0
100.063,2.225,0.229,6.0
0.0,0.0,0.0,0.0
0.0,0.0,0.0,0.0
195.553,4.143,3.628,17.0
103.166,2.151,1.335,5.0
102.978,2.112,0.755,4.0
99.918,2.017,0.163,5.0
0.0,0.0,0.0,0.0
0.0,0.0,0.0,0.0
194.58,3.724,3.486,9.0
103.175,1.942,1.271,15.0
99.855,1.846,0.671,4.0
99.87,1.813,0.102,13.0
0.0,0.0,0.0,0.0
0.0,0.0,0.0,0.0
194.763,3.332,3.375,28.0
0.0,0.0,0.0,0.0
99.717,1.639,0.612,5.0
99.798,1.607,0.044,5.0
0.0,0.0,0.0,0.0
0.0,0.0,0.0,0.0
194.736,2.932,3.265,35.0
0.0,0.0,0.0,0.0
99.682,1.433,0.557,5.0
99.614,1.399,-0.009,3.0
0.0,0.0,0.0,0.0
20.137,0.269,-0.226,0.0
20.303,0.263,0.329,19.0
20.295,0.256,0.216,10.0
20.316,0.25,0.103,1.0
99.65,1.192,-0.059,1.0
0.0,0.0,0.0,0.0
20.186,0.227,-0.237,22.0
20.295,0.221,0.319,31.0
20.305,0.214,0.206,29.0
20.324,0.208,0.093,31.0
20.311,0.2,-0.021,20.0
20.215,0.192,-0.134,20.0
20.175,0.185,-0.246,31.0
20.25,0.178,0.309,27.0
20.215,0.171,0.196,20.0
20.237,0.164,0.084,28.0
20.198,0.156,-0.03,23.0
20.177,0.15,-0.142,34.0
20.188,0.142,-0.255,33.0
20.166,0.135,0.3,29.0
20.157,0.128,0.187,27.0
20.187,0.121,0.075,33.0
20.179,0.114,-0.038,33.0
20.19,0.107,-0.15,33.0
20.2,0.1,-0.263,17.0
20.151,0.092,0.292,28.0
20.147,0.085,0.18,29.0
20.2,0.078,0.068,35.0
20.205,0.071,-0.045,33.0
20.224,0.064,-0.158,23.0
20.262,0.057,-0.271,0.0
20.148,0.049,0.285,32.0
20.143,0.042,0.173,27.0
20.198,0.035,0.061,24.0
20.255,0.028,-0.052,151.0
20.254,0.021,-0.165,151.0
20.264,0.013,-0.277,69.0
20.121,0.006,0.278,28.0
20.117,0.0,0.167,28.0
20.144,-0.007,0.055,27.0
20.142,-0.014,-0.058,22.0
20.164,-0.021,-0.169,25.0
20.165,-0.028,-0.281,24.0
20.118,-0.035,0.273,32.0
20.115,-0.042,0.161,32.0
20.138,-0.05,0.05,38.0
20.136,-0.057,-0.063,32.0
20.147,-0.064,-0.174,35.0
20.135,-0.071,-0.286,33.0
20.127,-0.078,0.268,29.0
20.127,-0.086,0.157,25.0
20.129,-0.093,0.045,29.0
20.152,-0.1,-0.067,27.0
20.154,-0.108,-0.179,24.0
20.14,-0.115,-0.29,36.0
20.139,-0.122,0.264,17.0
20.154,-0.129,0.153,16.0
20.141,-0.136,0.042,15.0
20.171,-0.144,-0.071,14.0
20.168,-0.151,-0.182,6.0
20.159,-0.158,-0.293,25.0
64.366,-0.528,0.836,22.0
53.365,-0.457,0.399,9.0
53.418,-0.477,0.104,2.0
56.258,-0.523,-0.206,7.0
52.617,-0.509,-0.483,5.0
38.846,-0.39,-0.571,6.0
64.355,-0.666,0.829,19.0
56.201,-0.602,0.413,4.0
56.185,-0.622,0.103,1.0
56.36,-0.645,-0.212,0.0
52.881,-0.624,-0.49,10.0
39.124,-0.476,-0.578,14.0
20.138,-0.251,0.257,12.0
20.152,-0.259,0.146,11.0
59.517,-0.787,0.105,69.0
56.643,-0.77,-0.216,1.0
52.941,-0.738,-0.494,19.0
38.765,-0.555,-0.575,11.0
20.126,-0.294,0.256,11.0
20.116,-0.301,0.145,14.0
20.144,-0.309,0.035,37.0
59.557,-0.936,-0.229,7.0
52.81,-0.85,-0.494,24.0
38.589,-0.635,-0.573,13.0
176.66,-2.961,2.252,18.0
20.151,-0.345,0.146,2.0
20.118,-0.352,0.035,17.0
52.957,-0.946,-0.203,46.0
45.54,-0.83,-0.425,17.0
38.483,-0.716,-0.57,13.0
53.004,-1.001,0.677,18.0
52.929,-1.019,0.385,64.0
52.93,-1.039,0.095,64.0
45.592,-0.911,-0.172,4.0
38.364,-0.781,-0.356,37.0
38.32,-0.793,-0.566,34.0
38.388,-0.806,0.493,44.0
38.386,-0.82,0.282,9.0
40.413,-0.878,0.075,37.0
40.414,-0.894,-0.149,42.0
40.421,-0.909,-0.371,65.0
38.385,-0.878,-0.563,25.0
40.419,-0.936,0.523,39.0
40.419,-0.95,0.302,35.0
40.423,-0.965,0.08,30.0
38.806,-0.941,-0.138,9.0
38.791,-0.955,-0.351,32.0
38.363,-0.958,-0.557,15.0
38.718,-0.978,0.507,32.0
38.685,-0.991,0.295,53.0
38.672,-1.005,0.083,60.0
38.665,-1.019,-0.132,50.0
38.678,-1.034,-0.343,55.0
38.332,-1.039,-0.55,19.0
38.64,-1.057,0.513,72.0
38.656,-1.072,0.302,85.0
38.673,-1.086,0.09,81.0
38.662,-1.1,-0.124,113.0
38.64,-1.114,-0.335,63.0
38.338,-1.12,-0.542,19.0
38.637,-1.138,0.521,85.0
38.643,-1.152,0.31,72.0
38.656,-1.167,0.099,61.0
38.656,-1.181,-0.115,59.0
38.653,-1.195,-0.326,59.0
38.403,-1.202,-0.533,14.0
38.672,-1.219,0.531,58.0
38.686,-1.234,0.321,56.0
38.715,-1.249,0.11,37.0
38.721,-1.264,-0.104,35.0
38.721,-1.278,-0.316,31.0
38.466,-1.284,-0.523,12.0
84.434,-2.839,1.186,34.0
80.384,-2.732,0.69,21.0
80.425,-2.762,0.253,30.0
80.91,-2.809,-0.194,11.0
54.431,-1.91,-0.427,1.0
44.913,-1.592,-0.597,4.0
31.349,-1.118,0.45,42.0
31.352,-1.13,0.279,17.0
31.334,-1.141,0.109,32.0
31.324,-1.152,-0.064,60.0
31.346,-1.164,-0.235,52.0
31.312,-1.175,-0.405,43.0
31.233,-1.179,0.46,42.0
31.254,-1.191,0.29,17.0
28.477,-1.095,0.11,59.0
28.459,-1.105,-0.047,65.0
28.45,-1.115,-0.202,66.0
28.453,-1.126,-0.356,68.0
28.448,-1.132,0.43,147.0
28.448,-1.142,0.276,151.0
28.454,-1.152,0.121,150.0
28.439,-1.162,-0.035,107.0
28.448,-1.172,-0.19,113.0
28.449,-1.183,-0.344,105.0
28.444,-1.188,0.442,100.0
28.441,-1.198,0.288,72.0
28.446,-1.209,0.134,61.0
28.453,-1.22,-0.022,61.0
28.465,-1.231,-0.177,63.0
28.463,-1.241,-0.331,52.0
31.249,-1.368,0.501,45.0
31.241,-1.379,0.331,37.0
31.236,-1.391,0.162,47.0
31.194,-1.4,-0.009,42.0
31.21,-1.412,-0.179,54.0
31.195,-1.422,-0.348,48.0
31.391,-1.437,0.519,0.0
83.024,-3.832,0.924,36.0
31.324,-1.456,0.178,1.0
31.313,-1.467,0.006,9.0
31.257,-1.476,-0.162,24.0
31.222,-1.485,-0.331,39.0
83.097,-3.969,1.419,6.0
82.942,-3.99,0.968,4.0
68.136,-3.301,0.426,2.0
0.0,0.0,0.0,0.0
65.656,-3.228,-0.305,3.0
47.586,-2.357,-0.478,1.0
86.083,-4.278,1.519,25.0
82.817,-4.146,1.014,24.0
0.0,0.0,0.0,0.0
66.657,-3.384,0.089,0.0
65.692,-3.358,-0.266,2.0
53.786,-2.768,-0.508,0.0
85.988,-4.441,1.57,37.0
0.0,0.0,0.0,0.0
0.0,0.0,0.0,0.0
0.0,0.0,0.0,0.0
65.886,-3.494,-0.226,1.0
54.243,-2.896,-0.478,5.0
85.886,-4.599,1.623,24.0
0.0,0.0,0.0,0.0
65.718,-3.564,0.532,6.0
65.525,-3.576,0.171,24.0
24.584,-1.35,-0.068,22.0
24.563,-1.358,-0.2,35.0
24.622,-1.365,0.481,16.0
24.598,-1.372,0.348,24.0
24.581,-1.379,0.216,34.0
24.556,-1.386,0.081,41.0
24.547,-1.394,-0.05,47.0
24.534,-1.402,-0.183,60.0
24.581,-1.408,0.498,51.0
24.561,-1.415,0.365,48.0
24.546,-1.423,0.233,41.0
24.522,-1.429,0.098,48.0
24.528,-1.438,-0.033,71.0
24.515,-1.446,-0.165,69.0
24.569,-1.452,0.515,76.0
24.544,-1.459,0.383,73.0
24.527,-1.466,0.251,66.0
24.52,-1.474,0.116,74.0
24.529,-1.483,-0.014,92.0
24.509,-1.49,-0.146,60.0
24.551,-1.496,0.534,81.0
24.536,-1.503,0.402,71.0
24.518,-1.51,0.27,76.0
24.517,-1.518,0.136,45.0
24.534,-1.528,0.004,72.0
24.517,-1.535,-0.127,64.0
24.536,-1.539,0.553,61.0
24.525,-1.547,0.421,61.0
24.538,-1.555,0.29,40.0
24.528,-1.563,0.156,42.0
24.54,-1.572,0.024,41.0
24.529,-1.579,-0.107,45.0
24.558,-1.584,0.574,49.0
24.56,-1.592,0.442,31.0
24.549,-1.599,0.311,28.0
24.549,-1.607,0.176,25.0
24.585,-1.617,0.045,17.0
24.566,-1.624,-0.086,11.0
24.58,-1.628,0.595,26.0
24.613,-1.638,0.464,10.0
24.553,-1.642,0.332,0.0
65.578,-4.406,0.529,172.0
65.475,-4.42,0.178,2.0
66.019,-4.478,-0.174,3.0
82.621,-5.613,2.075,40.0
82.885,-5.657,1.639,12.0
0.0,0.0,0.0,0.0
65.598,-4.518,0.588,170.0
65.465,-4.53,0.236,1.0
65.868,-4.578,-0.113,3.0
82.531,-5.746,2.148,36.0
82.933,-5.799,1.715,48.0
0.0,0.0,0.0,0.0
65.499,-4.62,0.647,1.0
65.56,-4.645,0.297,1.0
65.707,-4.675,-0.052,0.0
82.519,-5.88,2.225,34.0
82.712,-5.919,1.788,49.0
0.0,0.0,0.0,0.0
65.625,-4.735,0.711,1.0
65.603,-4.754,0.36,1.0
65.711,-4.782,0.009,0.0
82.497,-6.012,2.304,41.0
82.532,-6.039,1.864,47.0
83.193,-6.112,1.434,1.0
0.0,0.0,0.0,0.0
65.565,-4.855,0.424,1.0
65.549,-4.874,0.074,178.0
82.675,-6.155,2.391,50.0
82.57,-6.171,1.946,46.0
83.055,-6.231,1.515,24.0
0.0,0.0,0.0,0.0
65.733,-4.969,0.49,1.0
65.548,-4.974,0.139,234.0
82.5,-6.269,2.469,45.0
82.44,-6.287,2.026,44.0
82.608,-6.322,1.59,35.0
81.94,-6.295,1.132,37.0
65.763,-5.071,0.558,5.0
61.695,-4.775,0.194,4.0
82.455,-6.39,2.552,39.0
82.237,-6.396,2.107,43.0
82.683,-6.454,1.678,48.0
81.965,-6.421,1.219,35.0
79.372,-6.24,0.757,11.0
61.514,-4.853,0.259,2.0
82.556,-6.521,2.643,46.0
82.209,-6.515,2.194,41.0
82.698,-6.576,1.766,51.0
82.237,-6.562,1.31,16.0
81.553,-6.53,0.865,26.0
79.4,-6.379,0.42,25.0
82.335,-6.623,2.725,39.0
82.476,-6.656,2.291,49.0
82.52,-6.681,1.853,47.0
83.525,-6.784,1.422,12.0
82.032,-6.685,0.961,41.0
79.359,-6.488,0.507,26.0
82.217,-6.729,2.812,42.0
82.451,-6.769,2.381,46.0
82.494,-6.794,1.943,45.0
85.006,-7.022,1.542,12.0
82.068,-6.8,1.052,32.0
79.463,-6.605,0.596,22.0
82.029,-6.826,2.897,37.0
82.116,-6.853,2.464,42.0
82.866,-6.936,2.045,42.0
0.0,0.0,0.0,0.0
0.0,0.0,0.0,0.0
0.0,0.0,0.0,0.0
82.015,-6.934,2.99,36.0
82.159,-6.966,2.559,41.0
83.028,-7.059,2.144,36.0
84.684,-7.221,1.728,3.0
0.0,0.0,0.0,0.0
0.0,0.0,0.0,0.0
82.413,-7.075,3.1,51.0
82.406,-7.093,2.662,43.0
84.113,-7.259,2.27,16.0
83.282,-7.207,1.797,10.0
0.0,0.0,0.0,0.0
0.0,0.0,0.0,0.0
82.134,-7.155,3.187,52.0
82.234,-7.181,2.754,45.0
82.308,-7.206,2.319,21.0
83.11,-7.295,1.892,38.0
0.0,0.0,0.0,0.0
0.0,0.0,0.0,0.0
81.77,-7.223,3.271,40.0
82.22,-7.28,2.851,47.0
82.197,-7.295,2.415,43.0
82.571,-7.347,1.979,52.0
0.0,0.0,0.0,0.0
0.0,0.0,0.0,0.0
81.686,-7.312,3.367,36.0
82.165,-7.372,2.951,49.0
82.062,-7.38,2.511,44.0
82.373,-7.426,2.075,44.0
54.942,-4.964,1.093,45.0
54.936,-4.975,0.802,105.0
81.714,-7.409,3.468,37.0
81.949,-7.446,3.044,42.0
82.129,-7.478,2.615,47.0
82.054,-7.489,2.169,42.0
54.942,-5.025,1.161,150.0
54.96,-5.038,0.87,150.0
81.725,-7.5,3.571,36.0
82.018,-7.542,3.149,50.0
81.885,-7.546,2.709,39.0
82.085,-7.58,2.273,47.0
82.631,-7.646,1.849,62.0
54.967,-5.097,0.939,150.0
81.859,-7.599,3.68,28.0
81.872,-7.615,3.246,40.0
81.8,-7.623,2.809,42.0
82.151,-7.671,2.377,45.0
82.47,-7.716,1.949,63.0
82.428,-7.728,1.512,37.0
82.188,-7.713,3.798,21.0
81.923,-7.702,3.351,8.0
81.821,-7.707,2.913,40.0
82.113,-7.748,2.48,47.0
81.958,-7.748,2.041,40.0
82.311,-7.797,1.614,43.0
81.833,-7.759,3.887,28.0
82.005,-7.789,3.459,15.0
82.176,-7.819,3.031,41.0
82.033,-7.818,2.582,49.0
82.033,-7.832,2.147,42.0
82.492,-7.891,1.723,39.0
81.905,-7.843,3.996,33.0
82.069,-7.871,3.567,24.0
82.11,-7.888,3.134,44.0
81.989,-7.89,2.687,45.0
82.189,-7.921,2.258,46.0
82.645,-7.979,1.833,15.0
81.937,-7.92,4.104,35.0
81.784,-7.916,3.662,42.0
82.138,-7.962,3.242,36.0
82.021,-7.963,2.794,42.0
82.209,-7.994,2.365,43.0
82.535,-8.038,1.937,30.0
81.98,-7.993,4.212,35.0
81.736,-7.98,3.766,34.0
82.731,-8.089,3.373,19.0
81.921,-8.021,2.898,47.0
82.171,-8.057,2.471,43.0
82.309,-8.082,2.04,42.0
82.578,-8.118,4.351,36.0
81.789,-8.051,3.875,36.0
0.0,0.0,0.0,0.0
82.001,-8.092,3.008,44.0
82.12,-8.115,2.577,39.0
81.992,-8.113,2.14,43.0
82.662,-8.189,4.465,30.0
82.174,-8.151,4.003,38.0
82.072,-8.151,3.563,27.0
82.089,-8.162,3.121,40.0
82.054,-8.169,2.685,56.0
81.927,-8.167,2.247,43.0
82.422,-8.226,4.562,21.0
82.373,-8.229,4.122,24.0
82.042,-8.205,3.671,44.0
82.156,-8.226,3.232,36.0
81.852,-8.205,2.787,41.0
82.202,-8.25,2.364,44.0
83.287,-8.369,4.722,20.0
82.453,-8.293,4.237,40.0
82.145,-8.27,3.786,29.0
82.038,-8.268,3.337,41.0
81.924,-8.265,2.899,42.0
82.44,-8.326,2.48,46.0
84.14,-8.508,4.883,25.0
82.14,-8.312,4.33,31.0
0.0,0.0,0.0,0.0
82.021,-8.315,3.445,45.0
82.085,-8.329,3.014,40.0
82.363,-8.366,2.587,50.0
84.764,-8.621,5.032,37.0
82.223,-8.368,4.444,22.0
83.278,-8.482,4.059,49.0
81.952,-8.354,3.551,37.0
82.463,-8.413,3.136,40.0
82.347,-8.408,2.695,50.0
84.808,-8.67,5.147,29.0
83.292,-8.521,4.611,39.0
82.624,-8.459,4.136,23.0
81.955,-8.396,3.659,32.0
82.056,-8.412,3.229,46.0
82.45,-8.459,2.808,38.0
84.819,-8.714,5.261,10.0
83.569,-8.591,4.739,23.0
83.451,-8.583,4.29,32.0
84.556,-8.702,3.889,16.0
81.913,-8.436,3.333,38.0
82.513,-8.503,2.92,37.0
109.447,-11.294,6.936,20.0
84.374,-8.711,4.897,36.0
83.806,-8.656,4.419,39.0
84.143,-8.695,3.98,26.0
81.997,-8.478,3.444,39.0
82.451,-8.53,3.027,33.0
109.449,-11.339,7.081,26.0
84.121,-8.718,4.994,29.0
84.029,-8.712,4.542,45.0
83.593,-8.67,4.066,29.0
82.032,-8.512,3.555,36.0
82.568,-8.572,3.14,35.0
109.498,-11.383,7.23,10.0
84.181,-8.754,5.11,27.0
84.052,-8.743,4.655,39.0
83.629,-8.701,4.178,33.0
81.988,-8.534,3.661,13.0
82.482,-8.589,3.245,36.0
112.142,-11.694,7.552,18.0
84.135,-8.775,5.217,11.0
84.176,-8.78,4.771,35.0
83.813,-8.745,4.297,21.0
84.438,-8.812,3.879,22.0
82.321,-8.594,3.346,32.0
111.945,-11.704,7.685,13.0
116.326,-12.163,7.365,5.0
84.383,-8.823,4.894,21.0
84.119,-8.797,4.421,23.0
84.761,-8.866,4.004,26.0
82.226,-8.602,3.448,33.0
111.82,-11.716,7.822,12.0
109.557,-11.479,7.079,9.0
84.289,-8.831,4.997,21.0
84.035,-8.805,4.525,43.0
84.03,-8.805,4.078,21.0
82.168,-8.611,3.551,27.0
108.947,-11.435,7.763,32.0
113.465,-11.908,7.48,6.0
84.177,-8.834,5.1,21.0
84.079,-8.823,4.637,44.0
83.862,-8.8,4.178,22.0
0.0,0.0,0.0,0.0
108.948,-11.45,7.906,34.0
112.111,-11.78,7.535,13.0
84.115,-8.837,5.204,9.0
84.327,-8.858,4.76,32.0
84.247,-8.848,4.307,13.0
84.359,-8.86,3.863,18.0
109.011,-11.467,8.049,23.0
111.949,-11.772,7.669,18.0
113.587,-11.942,7.173,14.0
84.575,-8.889,4.881,23.0
84.158,-8.844,4.408,15.0
84.576,-8.887,3.979,20.0
109.101,-11.482,8.195,21.0
111.854,-11.767,7.803,13.0
113.607,-11.947,7.318,14.0
84.345,-8.867,4.974,26.0
84.11,-8.84,4.512,34.0
84.188,-8.846,4.067,23.0
108.805,-11.452,8.309,23.0
108.974,-11.463,7.739,30.0
113.507,-11.935,7.454,8.0
84.197,-8.85,5.07,24.0
84.093,-8.835,4.616,39.0
83.837,-8.805,4.154,20.0
108.586,-11.424,8.428,31.0
108.954,-11.456,7.872,33.0
112.097,-11.781,7.499,12.0
84.14,-8.838,5.17,14.0
84.235,-8.844,4.725,34.0
84.057,-8.822,4.267,15.0
108.491,-11.406,8.554,29.0
108.995,-11.451,8.01,24.0
112.094,-11.769,7.635,13.0
113.515,-11.912,7.113,8.0
84.696,-8.882,4.854,23.0
84.155,-8.821,4.374,16.0
108.23,-11.364,8.666,31.0
109.115,-11.448,8.151,22.0
111.866,-11.729,7.755,10.0
113.592,-11.902,7.255,7.0
84.29,-8.826,4.932,20.0
84.049,-8.795,4.469,30.0
107.991,-11.321,8.777,46.0
108.993,-11.416,8.273,21.0
109.031,-11.411,7.69,21.0
109.51,-11.453,7.124,14.0
84.127,-8.792,5.022,26.0
84.032,-8.776,4.567,39.0
107.909,-11.289,8.898,42.0
108.628,-11.354,8.372,25.0
109.0,-11.383,7.815,37.0
112.168,-11.704,7.427,11.0
84.187,-8.778,5.123,18.0
84.069,-8.758,4.666,34.0
108.032,-11.275,9.034,25.0
108.478,-11.31,8.487,29.0
108.972,-11.351,7.939,32.0
112.115,-11.666,7.555,21.0
84.64,-8.799,5.249,13.0
84.198,-8.746,4.77,27.0
108.042,-11.243,9.16,30.0
108.308,-11.259,8.599,30.0
109.034,-11.322,8.07,24.0
112.055,-11.624,7.678,8.0
109.454,-11.343,6.912,22.0
84.28,-8.726,4.87,33.0
107.954,-11.197,9.276,38.0
108.137,-11.203,8.707,26.0
109.097,-11.289,8.197,15.0
109.371,-11.306,7.616,18.0
109.418,-11.299,7.031,29.0
84.371,-8.703,4.968,30.0
107.951,-11.155,9.395,38.0
108.016,-11.149,8.816,28.0
108.694,-11.205,8.284,24.0
109.379,-11.262,7.736,20.0
109.355,-11.247,7.145,28.0
84.585,-8.689,5.071,27.0
107.822,-11.097,9.501,36.0
108.089,-11.11,8.939,26.0
108.573,-11.145,8.392,37.0
109.242,-11.199,7.842,24.0
109.406,-11.202,7.264,29.0
84.92,-8.684,5.181,26.0
107.844,-11.05,9.617,33.0
107.952,-11.045,9.041,33.0
108.454,-11.081,8.496,35.0
109.587,-11.182,7.981,24.0
109.323,-11.139,7.372,34.0
84.949,-8.645,5.27,26.0
107.913,-11.002,9.735,28.0
107.909,-10.984,9.15,34.0
108.177,-10.996,8.586,40.0
109.667,-11.132,8.098,34.0
109.377,-11.086,7.486,25.0
84.95,-8.599,5.356,8.0
108.094,-10.961,9.862,26.0
107.878,-10.922,9.256,29.0
108.183,-10.937,8.694,39.0
109.721,-11.074,8.213,24.0
109.68,-11.054,7.616,23.0
109.524,-11.023,7.013,18.0
108.782,-10.968,10.032,27.0
107.77,-10.848,9.353,35.0
108.24,-10.878,8.804,40.0
109.199,-10.956,8.279,18.0
109.884,-11.009,7.734,26.0
109.447,-10.948,7.111,23.0
108.678,-10.89,10.127,26.0
107.776,-10.781,9.456,40.0
108.319,-10.816,8.914,30.0
109.008,-10.867,8.367,18.0
109.772,-10.925,7.83,29.0
109.487,-10.879,7.216,18.0
108.683,-10.819,10.229,20.0
107.814,-10.713,9.559,40.0
108.221,-10.733,9.006,35.0
112.528,-11.14,8.741,19.0
109.832,-10.854,7.935,28.0
109.676,-10.821,7.329,19.0
112.089,-11.079,10.652,18.0
107.866,-10.641,9.661,29.0
108.106,-10.646,9.092,39.0
112.173,-11.025,8.813,25.0
109.978,-10.79,8.042,24.0
109.561,-10.73,7.415,16.0
112.142,-11.003,10.754,15.0
108.495,-10.623,9.812,23.0
108.308,-10.584,9.203,31.0
112.131,-10.936,8.905,33.0
110.093,-10.717,8.143,13.0
109.549,-10.645,7.506,23.0
112.067,-10.909,10.842,20.0
111.206,-10.803,10.15,16.0
108.895,-10.557,9.342,35.0
112.121,-10.848,8.995,24.0
112.616,-10.874,8.42,11.0
109.609,-10.563,7.599,37.0
110.654,-10.682,10.796,17.0
111.712,-10.762,10.286,20.0
109.081,-10.486,9.446,25.0
111.989,-10.743,9.074,28.0
112.737,-10.792,8.519,16.0
109.886,-10.498,7.704,36.0
24.541,-2.348,2.413,6.0
112.038,-10.698,10.403,16.0
110.747,-10.551,9.676,40.0
112.255,-10.671,9.181,26.0
112.492,-10.671,8.585,24.0
109.966,-10.41,7.791,29.0
24.539,-2.326,2.432,45.0
24.549,-2.322,2.297,2.0
110.903,-10.468,9.77,29.0
112.266,-10.572,9.264,7.0
112.453,-10.567,8.663,30.0
112.942,-10.59,8.082,21.0
24.541,-2.304,2.449,78.0
24.576,-2.302,2.317,33.0
112.139,-10.482,9.958,25.0
120.864,-11.27,10.057,17.0
112.427,-10.46,8.738,33.0
112.975,-10.488,8.161,25.0
24.532,-2.281,2.465,48.0
24.544,-2.276,2.331,55.0
24.575,-2.274,2.198,1.0
114.765,-10.592,9.625,10.0
112.565,-10.364,8.822,28.0
112.893,-10.37,8.229,25.0
24.558,-2.259,2.483,24.0
24.558,-2.253,2.348,86.0
24.581,-2.25,2.214,33.0
114.44,-10.449,9.669,11.0
112.512,-10.248,8.887,23.0
112.888,-10.258,8.296,25.0
24.6,-2.238,2.503,11.0
24.552,-2.228,2.362,46.0
24.561,-2.223,2.227,56.0
24.605,-2.222,2.093,2.0
114.612,-10.323,9.119,14.0
112.495,-10.108,8.331,23.0
39.294,-3.535,4.02,1.0
24.558,-2.204,2.376,4.0
24.559,-2.198,2.24,63.0
24.584,-2.194,2.104,32.0
114.447,-10.191,9.166,13.0
112.493,-9.991,8.39,15.0
39.235,-3.489,4.035,2.0
114.036,-10.114,11.095,7.0
24.568,-2.173,2.254,30.0
24.586,-2.168,2.117,54.0
