X,Y,Z,Reflectivity
111.947,-8.627,10.953,17.0
47.478,-3.652,4.384,5.0
24.024,-1.845,2.089,22.0
23.989,-1.839,1.957,45.0
30.918,-2.377,3.395,35.0
47.283,-3.628,4.936,17.0
54.009,-4.136,5.346,5.0
47.193,-3.608,4.412,9.0
24.029,-1.833,2.116,7.0
24.0,-1.828,1.985,43.0
39.038,-2.981,4.331,3.0
39.008,-2.973,4.116,6.0
59.184,-4.503,5.924,4.0
47.053,-3.573,4.451,3.0
46.508,-3.525,4.148,4.0
24.016,-1.817,2.012,24.0
45.948,-3.485,5.149,14.0
39.044,-2.955,4.163,4.0
47.327,-3.575,4.79,2.0
111.518,-8.407,10.67,15.0
46.572,-3.504,4.204,6.0
24.092,-1.809,2.045,22.0
45.751,-3.444,5.177,9.0
30.949,-2.325,3.333,25.0
47.565,-3.565,4.864,7.0
59.027,-4.415,5.71,7.0
47.248,-3.527,4.315,4.0
24.193,-1.802,2.078,4.0
36.885,-2.754,4.212,15.0
36.155,-2.694,3.932,2.0
47.356,-3.52,4.892,11.0
47.589,-3.53,4.652,1.0
47.459,-3.513,4.382,21.0
112.944,-8.343,9.817,15.0
36.92,-2.734,4.253,2.0
30.399,-2.245,3.336,8.0
30.979,-2.283,3.231,38.0
111.235,-8.179,10.985,22.0
111.648,-8.191,10.419,11.0
112.94,-8.268,9.927,10.0
30.409,-2.231,3.533,33.0
30.395,-2.225,3.365,46.0
30.979,-2.262,3.26,13.0
47.633,-3.47,4.749,4.0
59.405,-4.318,5.599,9.0
24.931,-1.808,2.214,4.0
30.41,-2.21,3.562,71.0
30.427,-2.206,3.397,61.0
31.118,-2.25,3.304,2.0
47.614,-3.435,4.791,6.0
47.109,-3.39,4.483,1.0
24.88,-1.786,2.232,20.0
30.421,-2.189,3.591,60.0
30.423,-2.183,3.424,66.0
36.274,-2.596,3.884,4.0
30.983,-2.211,3.145,45.0
52.433,-3.734,5.036,2.0
24.868,-1.766,2.253,28.0
32.097,-2.285,3.817,3.0
36.919,-2.621,4.188,2.0
30.404,-2.152,3.282,23.0
38.948,-2.75,3.987,4.0
24.986,-1.759,2.421,14.0
24.89,-1.748,2.276,34.0
32.084,-2.258,3.843,6.0
53.255,-3.738,6.086,6.0
30.418,-2.129,3.309,62.0
38.917,-2.716,4.016,5.0
24.992,-1.739,2.442,44.0
24.899,-1.728,2.297,28.0
32.072,-2.231,3.868,14.0
51.392,-3.564,5.914,1.0
30.408,-2.103,3.332,33.0
25.021,-1.725,2.602,38.0
24.985,-1.718,2.461,64.0
24.949,-1.711,2.321,26.0
32.072,-2.203,3.893,33.0
32.015,-2.193,3.709,16.0
36.958,-2.524,4.078,5.0
25.025,-1.704,2.621,56.0
25.009,-1.698,2.482,51.0
31.062,-2.103,2.912,2.0
32.05,-2.174,3.913,11.0
31.998,-2.163,3.73,33.0
25.04,-1.688,2.781,0.0
25.023,-1.681,2.638,52.0
25.013,-1.675,2.5,18.0
31.066,-2.075,2.934,2.0
31.976,-2.14,3.927,36.0
31.949,-2.131,3.746,45.0
30.27,-2.012,3.382,9.0
25.017,-1.658,2.654,31.0
39.04,-2.579,3.927,1.0
45.399,-2.99,4.318,1.0
0.0,0.0,0.0,0.0
31.947,-2.1,3.767,74.0
30.237,-1.982,3.398,42.0
30.412,-1.987,3.246,4.0
30.456,-1.983,3.083,30.0
47.58,-3.089,4.554,3.0
31.979,-2.079,3.968,68.0
0.0,0.0,0.0,0.0
30.235,-1.952,3.416,45.0
30.372,-1.955,3.26,22.0
30.454,-1.953,3.101,60.0
47.523,-3.038,4.576,5.0
50.979,-3.265,6.356,8.0
30.142,-1.923,3.59,23.0
30.227,-1.922,3.432,18.0
30.358,-1.923,3.275,35.0
30.45,-1.923,3.117,62.0
30.532,-1.921,2.956,4.0
38.535,-2.429,4.825,11.0
30.097,-1.89,3.6,35.0
25.226,-1.578,2.877,18.0
30.382,-1.894,3.293,16.0
30.444,-1.892,3.131,53.0
30.487,-1.888,2.967,15.0
38.695,-2.399,4.864,3.0
30.082,-1.858,3.613,58.0
25.24,-1.553,2.891,26.0
31.737,-1.946,3.455,36.0
30.456,-1.861,3.147,26.0
30.476,-1.855,2.98,36.0
30.039,-1.83,3.79,63.0
30.077,-1.826,3.626,34.0
25.256,-1.527,2.904,24.0
31.736,-1.912,3.469,39.0
31.217,-1.874,3.238,17.0
30.477,-1.823,2.992,43.0
30.047,-1.799,3.803,60.0
33.314,-1.987,4.03,2.0
25.261,-1.501,2.914,24.0
31.757,-1.879,3.483,29.0
31.709,-1.869,3.301,46.0
30.499,-1.791,3.006,63.0
30.066,-1.767,3.817,2.0
33.335,-1.951,4.044,10.0
25.3,-1.475,2.928,7.0
40.238,-2.336,4.428,4.0
31.71,-1.834,3.312,45.0
30.505,-1.758,3.016,61.0
38.457,-2.217,4.895,6.0
33.237,-1.908,4.043,8.0
25.391,-1.452,2.946,20.0
25.297,-1.441,2.791,3.0
31.733,-1.8,3.324,7.0
30.508,-1.724,3.025,43.0
38.437,-2.173,4.903,35.0
36.987,-2.082,4.51,7.0
25.43,-1.426,2.957,37.0
46.612,-2.603,5.155,3.0
47.934,-2.665,5.033,4.0
30.927,-1.713,3.074,40.0
45.212,-2.505,5.778,5.0
0.0,0.0,0.0,0.0
25.447,-1.397,2.965,31.0
52.575,-2.876,5.825,5.0
51.45,-2.802,5.413,9.0
31.316,-1.698,3.119,27.0
45.069,-2.445,5.768,3.0
38.507,-2.079,4.711,12.0
25.481,-1.37,2.973,39.0
47.695,-2.553,5.293,4.0
37.069,-1.976,3.905,7.0
24.039,-1.275,2.398,35.0
25.533,-1.355,3.271,24.0
25.495,-1.347,3.122,43.0
0.0,0.0,0.0,0.0
47.579,-2.491,5.286,14.0
23.971,-1.249,2.528,24.0
24.034,-1.247,2.4,67.0
25.531,-1.325,3.274,54.0
25.517,-1.318,3.127,43.0
33.829,-1.739,3.955,1.0
23.862,-1.221,2.653,18.0
23.954,-1.22,2.528,35.0
24.043,-1.219,2.402,49.0
46.493,-2.357,5.965,13.0
33.52,-1.692,4.11,2.0
23.782,-1.194,2.781,23.0
23.84,-1.191,2.651,32.0
23.962,-1.192,2.53,40.0
38.73,-1.918,3.871,10.0
40.402,-1.999,5.184,3.0
23.738,-1.169,2.911,20.0
23.791,-1.166,2.782,55.0
23.84,-1.162,2.651,37.0
23.975,-1.163,2.531,36.0
38.715,-1.871,3.868,59.0
37.204,-1.796,4.772,4.0
23.691,-1.138,2.904,25.0
23.79,-1.137,2.781,53.0
23.833,-1.133,2.649,28.0
46.361,-2.195,4.891,42.0
46.29,-2.181,4.622,40.0
23.763,-1.118,3.046,23.0
23.675,-1.108,2.9,27.0
23.785,-1.108,2.778,27.0
37.048,-1.717,4.114,8.0
37.132,-1.712,3.913,3.0
53.371,-2.449,5.323,19.0
23.737,-1.088,3.04,49.0
23.714,-1.081,2.902,26.0
40.428,-1.834,4.717,2.0
37.067,-1.672,4.111,26.0
37.145,-1.667,3.909,2.0
24.705,-1.103,2.46,1.0
23.869,-1.064,3.053,44.0
23.806,-1.055,2.909,3.0
39.643,-1.749,4.618,2.0
37.073,-1.627,4.104,5.0
31.825,-1.389,3.343,5.0
24.661,-1.071,2.451,39.0
39.356,-1.705,5.026,14.0
39.367,-1.697,4.802,6.0
39.714,-1.702,4.618,4.0
46.791,-1.995,5.169,22.0
24.701,-1.048,2.588,22.0
24.651,-1.04,2.443,64.0
39.865,-1.678,5.08,2.0
39.35,-1.647,4.789,5.0
28.404,-1.182,3.295,32.0
28.419,-1.176,3.132,50.0
24.706,-1.017,2.582,40.0
24.657,-1.009,2.437,72.0
28.409,-1.16,3.611,51.0
28.389,-1.153,3.446,70.0
28.401,-1.146,3.285,107.0
28.381,-1.139,3.118,24.0
24.706,-0.986,2.574,39.0
24.65,-0.978,2.428,34.0
28.402,-1.124,3.6,101.0
28.396,-1.117,3.437,100.0
28.386,-1.11,3.273,98.0
24.779,-0.963,2.713,43.0
24.681,-0.954,2.562,28.0
28.407,-1.092,2.787,35.0
28.41,-1.089,3.59,67.0
28.416,-1.082,3.428,55.0
32.066,-1.214,3.684,2.0
24.769,-0.932,2.702,42.0
24.689,-0.924,2.552,21.0
37.187,-1.383,3.632,47.0
32.283,-1.196,4.065,52.0
32.213,-1.186,3.871,32.0
24.889,-0.911,2.848,11.0
24.792,-0.902,2.692,39.0
24.719,-0.893,2.543,5.0
37.229,-1.337,3.618,19.0
38.867,-1.391,4.875,58.0
39.059,-1.389,4.674,34.0
24.845,-0.878,2.831,25.0
24.816,-0.871,2.682,23.0
43.772,-1.527,4.481,7.0
42.754,-1.483,4.133,2.0
44.627,-1.541,5.574,7.0
43.641,-1.497,5.199,18.0
24.874,-0.847,2.82,34.0
43.942,-1.488,4.725,10.0
43.909,-1.477,4.471,10.0
42.923,-1.434,4.125,6.0
44.69,-1.487,5.556,6.0
25.068,-0.828,2.971,27.0
24.858,-0.815,2.803,59.0
40.144,-1.309,4.293,2.0
47.792,-1.548,4.837,3.0
43.134,-1.388,4.119,17.0
25.234,-0.807,3.121,53.0
25.069,-0.797,2.956,26.0
24.861,-0.785,2.788,51.0
42.576,-1.336,4.526,4.0
42.432,-1.323,4.267,3.0
44.368,-1.373,4.208,9.0
25.223,-0.776,3.103,47.0
25.096,-0.767,2.942,22.0
24.853,-0.754,2.77,11.0
44.453,-1.34,4.695,60.0
42.611,-1.275,4.255,9.0
44.51,-1.323,4.19,32.0
25.211,-0.745,3.083,35.0
24.848,-0.729,2.895,22.0
40.077,-1.167,4.438,3.0
0.0,0.0,0.0,0.0
44.487,-1.277,4.41,49.0
47.127,-1.344,4.402,4.0
25.149,-0.712,3.057,29.0
24.82,-0.698,2.873,46.0
47.492,-1.325,5.223,3.0
52.471,-1.454,5.463,7.0
50.64,-1.393,4.981,6.0
28.351,-0.774,2.626,56.0
25.154,-0.681,3.037,24.0
24.841,-0.668,2.855,39.0
40.993,-1.094,4.475,7.0
47.296,-1.252,4.885,7.0
47.137,-1.239,4.597,11.0
28.351,-0.74,2.602,69.0
24.82,-0.642,2.976,30.0
0.0,0.0,0.0,0.0
0.0,0.0,0.0,0.0
51.755,-1.309,5.301,9.0
51.789,-1.299,5.006,14.0
28.352,-0.706,2.577,71.0
24.825,-0.612,2.954,48.0
44.211,-1.083,5.005,39.0
51.726,-1.257,5.556,8.0
61.638,-1.485,6.258,10.0
31.514,-0.753,3.017,1.0
28.353,-0.672,2.551,76.0
24.817,-0.583,2.93,29.0
44.613,-1.039,5.008,19.0
44.629,-1.031,4.751,66.0
44.5,-1.02,4.475,19.0
31.467,-0.715,2.982,48.0
28.356,-0.639,2.524,77.0
40.205,-0.897,4.707,5.0
40.612,-0.898,4.519,9.0
44.629,-0.979,4.707,5.0
31.482,-0.684,3.135,35.0
28.345,-0.611,2.658,41.0
28.348,-0.606,2.495,82.0
40.369,-0.854,4.685,22.0
51.859,-1.088,5.718,4.0
44.413,-0.923,4.639,23.0
31.481,-0.649,3.102,38.0
28.34,-0.579,2.629,69.0
28.348,-0.574,2.466,79.0
40.325,-0.807,4.638,3.0
40.393,-0.801,4.411,14.0
31.606,-0.621,3.267,35.0
37.744,-0.734,3.679,5.0
28.33,-0.546,2.597,13.0
28.334,-0.541,2.434,36.0
43.94,-0.829,5.005,3.0
31.765,-0.594,3.433,6.0
31.618,-0.585,3.233,21.0
37.699,-0.691,3.633,51.0
47.753,-0.867,4.325,5.0
31.303,-0.563,2.654,61.0
44.025,-0.781,4.964,24.0
31.734,-0.558,3.393,28.0
57.767,-1.005,5.841,4.0
37.718,-0.65,3.591,44.0
40.426,-0.69,3.615,5.0
31.312,-0.529,2.618,38.0
37.635,-0.626,4.2,10.0
31.743,-0.523,3.357,29.0
37.635,-0.614,3.761,62.0
28.301,-0.457,2.661,11.0
31.224,-0.499,2.754,24.0
38.566,-0.61,3.179,46.0
37.623,-0.585,4.152,63.0
37.645,-0.58,3.935,56.0
37.661,-0.574,3.717,18.0
54.349,-0.82,5.043,6.0
31.252,-0.466,2.718,54.0
38.566,-0.569,3.131,60.0
31.832,-0.461,3.473,31.0
37.647,-0.54,3.887,10.0
54.803,-0.776,5.339,14.0
43.465,-0.609,3.977,5.0
54.291,-0.753,4.653,10.0
38.595,-0.529,3.084,35.0
31.849,-0.428,3.433,62.0
54.278,-0.722,5.534,3.0
54.24,-0.712,5.213,74.0
31.163,-0.404,2.811,43.0
38.553,-0.495,3.253,55.0
47.003,-0.596,3.694,12.0
31.857,-0.396,3.391,5.0
54.769,-0.672,5.51,8.0
43.522,-0.528,4.125,3.0
31.166,-0.373,2.769,37.0
47.05,-0.557,3.907,17.0
46.856,-0.548,3.619,32.0
43.27,-0.494,4.547,4.0
54.837,-0.618,5.442,13.0
47.206,-0.525,4.409,8.0
38.617,-0.424,3.377,50.0
51.515,-0.559,4.207,48.0
44.574,-0.477,3.381,50.0
52.485,-0.548,5.441,17.0
47.263,-0.486,4.623,24.0
31.119,-0.316,2.862,41.0
38.555,-0.386,3.318,57.0
52.245,-0.516,4.192,20.0
44.601,-0.435,3.32,7.0
52.027,-0.494,5.319,44.0
47.015,-0.439,4.531,53.0
38.7,-0.356,3.504,21.0
44.649,-0.406,3.777,12.0
44.636,-0.399,3.517,43.0
52.345,-0.462,3.82,11.0
47.042,-0.403,4.739,47.0
31.078,-0.261,2.949,26.0
38.577,-0.32,3.435,22.0
52.301,-0.427,4.347,36.0
44.531,-0.358,3.442,19.0
52.721,-0.417,3.768,81.0
38.873,-0.297,3.857,56.0
31.084,-0.233,2.902,47.0
52.303,-0.387,4.578,6.0
44.519,-0.324,3.633,8.0
58.217,-0.417,4.411,7.0
58.365,-0.41,4.083,0.0
38.861,-0.263,3.796,50.0
51.295,-0.34,4.71,17.0
42.131,-0.274,3.622,6.0
46.813,-0.299,3.747,14.0
38.617,-0.242,2.865,29.0
58.38,-0.36,3.992,36.0
31.031,-0.183,2.982,41.0
38.559,-0.223,3.479,35.0
57.944,-0.329,4.89,15.0
38.54,-0.214,3.023,36.0
58.334,-0.318,4.237,13.0
53.269,-0.285,3.559,46.0
31.055,-0.157,2.934,36.0
38.581,-0.192,3.42,26.0
57.865,-0.282,4.791,9.0
52.691,-0.25,4.049,8.0
53.456,-0.249,3.797,21.0
53.303,-0.242,3.475,1.0
43.004,-0.184,3.993,3.0
42.839,-0.179,3.727,3.0
38.559,-0.157,3.129,3.0
52.712,-0.209,3.965,5.0
53.38,-0.206,3.703,20.0
45.539,-0.171,2.893,47.0
52.389,-0.184,4.777,9.0
57.923,-0.197,4.942,9.0
38.541,-0.127,3.062,20.0
53.591,-0.172,3.94,53.0
68.495,-0.213,4.637,4.0
45.534,-0.137,2.817,70.0
57.875,-0.16,5.178,17.0
42.901,-0.114,3.587,9.0
52.903,-0.136,4.114,21.0
53.546,-0.133,3.845,5.0
45.51,-0.109,3.002,44.0
58.742,-0.135,3.534,7.0
40.426,-0.083,3.548,11.0
42.981,-0.084,3.52,8.0
53.605,-0.1,4.076,54.0
102.022,-0.183,7.15,12.0
45.495,-0.077,2.922,65.0
46.115,-0.074,2.694,41.0
0.0,0.0,0.0,0.0
52.85,-0.068,4.236,26.0
66.677,-0.08,4.953,26.0
45.475,-0.051,3.107,33.0
58.724,-0.061,3.671,6.0
59.938,-0.058,3.397,19.0
61.904,-0.045,5.214,1.0
53.055,-0.034,4.158,26.0
100.411,-0.057,7.28,5.0
45.464,-0.022,3.026,65.0
58.688,-0.024,3.562,8.0
59.928,-0.02,3.288,47.0
53.658,-0.005,4.422,22.0
68.318,-0.002,5.229,2.0
68.274,0.002,4.826,16.0
66.697,0.007,4.318,15.0
46.119,0.008,2.716,30.0
59.37,0.014,3.151,51.0
52.953,0.025,4.267,27.0
66.448,0.036,4.965,25.0
45.495,0.027,3.132,70.0
58.645,0.04,3.688,65.0
66.64,0.05,3.802,9.0
66.768,0.054,3.419,21.0
43.765,0.045,3.445,13.0
103.27,0.113,7.522,13.0
58.652,0.068,3.928,14.0
46.126,0.056,2.814,42.0
59.711,0.077,3.294,49.0
66.747,0.09,3.293,66.0
0.0,0.0,0.0,0.0
45.517,0.073,3.23,56.0
58.657,0.098,3.818,27.0
59.994,0.104,3.548,18.0
66.667,0.119,3.553,24.0
66.916,0.123,3.176,33.0
45.632,0.093,3.419,39.0
45.532,0.095,3.144,40.0
60.166,0.129,3.802,24.0
60.012,0.132,3.434,23.0
66.749,0.151,3.43,33.0
20.109,0.046,0.916,10.0
45.573,0.114,3.326,55.0
58.641,0.149,3.935,47.0
46.161,0.12,2.827,46.0
59.395,0.157,3.284,34.0
66.996,0.18,3.313,37.0
20.105,0.055,0.876,18.0
45.524,0.133,3.234,57.0
60.244,0.179,3.925,54.0
46.212,0.139,2.74,12.0
66.806,0.204,3.564,35.0
66.171,0.205,3.142,20.0
20.121,0.063,0.838,22.0
58.636,0.194,4.05,41.0
60.236,0.202,3.807,7.0
59.448,0.201,3.408,25.0
66.822,0.228,3.433,32.0
20.128,0.069,0.916,10.0
20.127,0.07,0.798,23.0
0.0,0.0,0.0,0.0
46.187,0.171,2.826,40.0
67.133,0.25,3.714,11.0
103.622,0.39,5.117,47.0
20.11,0.076,0.875,16.0
20.139,0.076,0.759,26.0
60.297,0.24,3.923,10.0
59.494,0.238,3.522,27.0
66.863,0.269,3.567,42.0
66.046,0.268,3.129,22.0
20.146,0.082,0.836,20.0
20.143,0.082,0.719,16.0
46.214,0.197,2.915,62.0
59.461,0.254,3.401,63.0
104.612,0.45,5.369,19.0
20.142,0.087,0.913,7.0
20.144,0.087,0.795,21.0
107.19,0.467,3.609,26.0
67.185,0.302,4.099,25.0
67.089,0.303,3.7,31.0
100.5,0.455,4.955,13.0
20.12,0.091,0.871,15.0
20.142,0.091,0.755,19.0
20.226,0.092,0.64,10.0
59.482,0.28,3.508,64.0
66.834,0.315,3.549,26.0
65.982,0.311,3.118,24.0
20.126,0.095,0.831,19.0
20.137,0.095,0.714,2.0
20.201,0.096,0.598,22.0
59.498,0.29,3.388,18.0
109.933,0.536,5.615,10.0
20.145,0.098,0.91,3.0
20.137,0.098,0.79,19.0
20.264,0.099,0.676,0.0
20.173,0.098,0.556,23.0
66.879,0.334,3.671,18.0
65.931,0.33,3.231,7.0
20.135,0.1,0.869,11.0
20.146,0.1,0.749,9.0
20.213,0.101,0.633,10.0
20.17,0.1,0.514,23.0
66.834,0.34,3.529,16.0
65.977,0.336,3.097,31.0
20.156,0.102,0.827,18.0
102.538,0.521,3.601,36.0
20.185,0.102,0.59,19.0
20.158,0.102,0.472,25.0
109.906,0.566,5.575,20.0
20.15,0.103,0.903,3.0
20.14,0.103,0.785,11.0
102.588,0.525,3.39,23.0
20.187,0.103,0.548,24.0
20.149,0.102,0.43,27.0
65.93,0.341,3.206,21.0
20.152,0.103,0.861,14.0
20.14,0.103,0.743,3.0
20.192,0.103,0.624,12.0
20.17,0.103,0.506,22.0
20.154,0.102,0.387,26.0
65.991,0.34,3.069,23.0
20.149,0.103,0.819,16.0
102.558,0.524,3.569,43.0
20.162,0.102,0.581,19.0
20.16,0.102,0.463,27.0
20.164,0.101,0.345,28.0
20.143,0.102,0.894,7.0
20.152,0.102,0.776,13.0
20.239,0.102,0.661,3.0
20.183,0.101,0.539,24.0
20.155,0.1,0.42,27.0
20.145,0.099,0.302,28.0
20.139,0.1,0.851,16.0
20.138,0.1,0.733,3.0
20.191,0.099,0.617,16.0
20.158,0.098,0.496,22.0
20.149,0.098,0.378,27.0
20.161,0.097,0.26,26.0
20.155,0.098,0.809,21.0
107.153,0.517,3.676,13.0
20.171,0.096,0.574,19.0
20.144,0.095,0.453,28.0
20.156,0.094,0.335,28.0
20.152,0.094,0.217,26.0
20.15,0.094,0.767,22.0
20.229,0.094,0.651,9.0
20.182,0.093,0.531,24.0
20.147,0.092,0.411,27.0
20.152,0.091,0.293,28.0
20.148,0.09,0.175,26.0
20.141,0.09,0.724,8.0
20.201,0.089,0.607,23.0
20.149,0.088,0.488,25.0
20.146,0.087,0.368,27.0
20.15,0.086,0.251,27.0
20.156,0.085,0.133,24.0
20.236,0.085,0.685,2.0
20.18,0.084,0.565,26.0
20.154,0.083,0.446,28.0
20.15,0.082,0.326,26.0
20.153,0.081,0.209,27.0
20.186,0.08,0.091,32.0
20.204,0.08,0.641,18.0
20.166,0.078,0.522,23.0
20.15,0.077,0.404,26.0
20.149,0.076,0.284,26.0
20.142,0.074,0.166,27.0
20.211,0.074,0.048,36.0
20.194,0.073,0.598,27.0
20.156,0.072,0.479,27.0
20.143,0.07,0.361,26.0
20.148,0.069,0.241,26.0
20.146,0.068,0.124,26.0
20.193,0.067,0.006,33.0
20.172,0.066,0.556,26.0
20.143,0.064,0.437,30.0
20.145,0.063,0.319,25.0
20.146,0.061,0.199,28.0
20.193,0.06,0.082,24.0
20.207,0.059,-0.035,35.0
20.162,0.058,0.513,26.0
20.138,0.056,0.394,27.0
20.132,0.055,0.277,26.0
20.148,0.053,0.157,25.0
20.208,0.052,0.039,25.0
20.212,0.05,-0.078,22.0
20.154,0.049,0.47,29.0
20.139,0.047,0.352,28.0
20.142,0.046,0.234,27.0
20.139,0.044,0.114,28.0
20.213,0.043,-0.002,10.0
20.239,0.041,-0.121,24.0
20.14,0.039,0.427,30.0
20.138,0.038,0.309,29.0
20.128,0.036,0.192,26.0
20.157,0.034,0.072,16.0
20.277,0.033,-0.045,65.0
20.269,0.031,-0.163,150.0
20.141,0.029,0.386,27.0
20.133,0.027,0.267,27.0
20.14,0.025,0.15,27.0
20.267,0.024,0.03,150.0
20.266,0.022,-0.087,151.0
20.256,0.02,-0.206,151.0
20.139,0.018,0.343,27.0
20.122,0.016,0.226,26.0
20.144,0.014,0.108,28.0
20.241,0.013,-0.011,152.0
20.264,0.011,-0.129,151.0
20.268,0.009,-0.247,150.0
20.132,0.007,0.302,28.0
20.123,0.005,0.184,27.0
20.181,0.003,0.067,41.0
20.257,0.001,-0.052,150.0
20.24,-0.001,-0.17,23.0
20.241,-0.003,-0.289,8.0
20.121,-0.005,0.261,28.0
20.132,-0.007,0.143,29.0
20.196,-0.009,0.025,14.0
20.16,-0.011,-0.094,15.0
20.206,-0.013,-0.212,1.0
43.326,-0.034,-0.708,2.0
20.123,-0.018,0.219,32.0
20.132,-0.02,0.102,35.0
20.127,-0.022,-0.015,20.0
20.169,-0.025,-0.135,25.0
20.154,-0.027,-0.253,18.0
20.2,-0.03,-0.371,0.0
20.116,-0.032,0.178,34.0
20.138,-0.034,0.06,39.0
20.15,-0.037,-0.056,29.0
20.162,-0.039,-0.176,26.0
20.169,-0.041,-0.294,24.0
20.167,-0.044,-0.412,1.0
20.128,-0.046,0.137,37.0
20.129,-0.049,0.02,36.0
20.142,-0.051,-0.097,30.0
20.121,-0.054,-0.216,14.0
20.164,-0.057,-0.335,21.0
20.182,-0.059,-0.453,2.0
20.132,-0.062,0.097,45.0
20.129,-0.064,-0.02,31.0
20.144,-0.067,-0.138,35.0
20.13,-0.069,-0.257,28.0
20.16,-0.072,-0.375,21.0
33.23,-0.123,-0.812,2.0
20.138,-0.078,0.057,37.0
20.148,-0.08,-0.06,30.0
20.153,-0.083,-0.177,29.0
20.143,-0.086,-0.297,33.0
20.166,-0.088,-0.415,31.0
20.197,-0.091,-0.533,4.0
20.134,-0.094,0.017,36.0
20.153,-0.097,-0.1,28.0
20.136,-0.1,-0.217,27.0
20.134,-0.103,-0.336,33.0
20.171,-0.106,-0.455,32.0
20.202,-0.109,-0.573,3.0
20.15,-0.112,-0.021,29.0
20.153,-0.114,-0.139,28.0
20.14,-0.117,-0.256,33.0
20.144,-0.12,-0.376,36.0
20.176,-0.123,-0.494,27.0
28.136,-0.176,-0.854,1.0
20.176,-0.13,-0.061,25.0
20.136,-0.133,-0.178,13.0
20.148,-0.136,-0.295,30.0
20.151,-0.139,-0.415,34.0
20.185,-0.142,-0.534,36.0
20.206,-0.145,-0.652,12.0
20.164,-0.148,-0.099,18.0
20.137,-0.151,-0.216,19.0
20.161,-0.155,-0.334,28.0
20.173,-0.158,-0.454,28.0
20.193,-0.161,-0.572,38.0
20.202,-0.164,-0.69,13.0
20.178,-0.168,-0.138,9.0
20.158,-0.171,-0.255,19.0
20.169,-0.174,-0.373,27.0
20.172,-0.177,-0.492,30.0
20.198,-0.181,-0.61,38.0
24.609,-0.224,-0.888,1.0
53.013,-0.494,-0.462,5.0
20.177,-0.191,-0.293,5.0
20.183,-0.194,-0.41,25.0
20.176,-0.198,-0.53,36.0
20.198,-0.201,-0.648,38.0
20.219,-0.205,-0.767,9.0
45.657,-0.472,-0.483,6.0
38.015,-0.399,-0.622,29.0
20.205,-0.215,-0.448,14.0
20.194,-0.219,-0.568,28.0
20.202,-0.222,-0.686,36.0
20.232,-0.226,-0.805,14.0
44.886,-0.511,-0.556,33.0
0.0,0.0,0.0,0.0
30.462,-0.357,-0.732,4.0
20.205,-0.24,-0.605,25.0
20.214,-0.244,-0.723,34.0
20.21,-0.247,-0.84,13.0
39.277,-0.489,-0.557,14.0
32.145,-0.406,-0.643,8.0
29.192,-0.373,-0.753,2.0
20.21,-0.262,-0.641,16.0
20.226,-0.266,-0.76,33.0
20.14,-0.268,-0.874,14.0
38.06,-0.516,-0.608,26.0
31.26,-0.429,-0.681,28.0
27.895,-0.388,-0.77,2.0
20.219,-0.285,-0.677,2.0
20.231,-0.289,-0.796,24.0
20.247,-0.293,-0.914,3.0
0.0,0.0,0.0,0.0
30.373,-0.452,-0.715,27.0
26.777,-0.403,-0.786,2.0
26.396,-0.402,-0.931,0.0
20.205,-0.312,-0.83,8.0
19.646,-0.307,-0.922,5.0
31.66,-0.502,-0.616,7.0
29.555,-0.474,-0.746,8.0
25.734,-0.418,-0.8,4.0
25.389,-0.417,-0.939,0.0
21.376,-0.355,-0.915,5.0
19.596,-0.329,-0.953,1.0
30.896,-0.526,-0.654,31.0
28.193,-0.486,-0.76,3.0
24.794,-0.432,-0.813,2.0
23.583,-0.416,-0.912,0.0
21.462,-0.383,-0.955,0.0
18.652,-0.336,-0.938,0.0
30.491,-0.557,-0.697,30.0
26.971,-0.498,-0.773,1.0
23.755,-0.443,-0.818,2.0
23.21,-0.437,-0.936,0.0
19.599,-0.373,-0.905,0.0
18.124,-0.349,-0.942,0.0
0.0,0.0,0.0,0.0
25.676,-0.506,-0.778,2.0
22.755,-0.453,-0.821,1.0
22.487,-0.452,-0.944,0.0
0.0,0.0,0.0,0.0
17.503,-0.359,-0.938,0.0
28.54,-0.593,-0.745,4.0
24.859,-0.521,-0.793,1.0
21.825,-0.462,-0.823,1.0
21.697,-0.464,-0.946,0.0
38.41,-0.83,-1.898,1.0
17.057,-0.372,-0.942,0.0
25.411,-0.56,-0.703,1.0
23.545,-0.524,-0.788,4.0
21.172,-0.476,-0.831,2.0
20.901,-0.474,-0.944,0.0
16.931,-0.391,-0.961,0.0
24.691,-0.576,-0.721,8.0
22.33,-0.526,-0.781,1.0
20.461,-0.486,-0.835,1.0
20.305,-0.487,-0.948,0.0
16.376,-0.4,-0.955,2.0
23.904,-0.59,-0.735,18.0
21.506,-0.535,-0.785,0.0
19.942,-0.501,-0.844,2.0
19.723,-0.5,-0.951,0.0
17.374,-0.444,-0.938,0.0
15.94,-0.411,-0.953,0.0
23.765,-0.618,-0.766,14.0
20.734,-0.544,-0.788,0.0
19.365,-0.512,-0.848,1.0
19.215,-0.513,-0.954,0.0
15.549,-0.422,-0.952,0.0
22.887,-0.627,-0.77,5.0
20.247,-0.559,-0.798,0.0
18.81,-0.524,-0.85,1.0
18.672,-0.524,-0.954,0.0
15.14,-0.432,-0.949,0.0
22.093,-0.636,-0.775,0.0
19.403,-0.563,-0.793,0.0
18.223,-0.533,-0.85,1.0
17.92,-0.528,-0.941,0.0
18.068,-0.537,-1.054,0.0
14.726,-0.441,-0.944,0.0
21.251,-0.642,-0.775,0.0
18.941,-0.576,-0.8,0.0
17.703,-0.543,-0.85,0.0
17.521,-0.542,-0.944,0.0
17.425,-0.543,-1.04,0.0
14.467,-0.454,-0.947,0.0
20.465,-0.648,-0.774,0.0
18.321,-0.584,-0.799,0.0
17.235,-0.554,-0.851,0.0
17.184,-0.556,-0.95,0.0
15.665,-0.511,-0.956,0.0
14.316,-0.471,-0.957,0.0
19.763,-0.654,-0.774,1.0
17.891,-0.597,-0.804,0.0
16.813,-0.565,-0.852,0.0
16.624,-0.562,-0.94,0.0
16.371,-0.558,-1.021,0.0
13.969,-0.48,-0.952,0.0
19.15,-0.662,-0.774,1.0
17.583,-0.612,-0.812,0.0
16.285,-0.571,-0.846,1.0
16.245,-0.574,-0.939,1.0
14.799,-0.526,-0.941,0.0
13.705,-0.491,-0.951,0.0
18.773,-0.676,-0.782,2.0
17.104,-0.621,-0.811,0.0
16.101,-0.588,-0.856,1.0
16.052,-0.591,-0.948,0.0
14.582,-0.54,-0.945,0.0
13.484,-0.503,-0.952,0.0
18.44,-0.692,-0.79,0.0
31.317,-1.183,-1.523,1.0
15.99,-0.608,-0.869,1.0
15.961,-0.611,-0.961,0.0
14.415,-0.556,-0.951,0.0
13.342,-0.518,-0.958,0.0
18.077,-0.706,-0.796,1.0
16.303,-0.64,-0.811,0.0
15.879,-0.628,-0.882,1.0
15.805,-0.629,-0.97,0.0
14.251,-0.571,-0.957,0.0
13.177,-0.532,-0.961,0.0
17.695,-0.717,-0.799,1.0
16.189,-0.661,-0.824,1.0
15.781,-0.648,-0.894,1.0
15.733,-0.65,-0.983,0.0
13.953,-0.581,-0.952,0.0
13.003,-0.545,-0.963,0.0
17.15,-0.722,-0.793,1.0
15.911,-0.674,-0.827,0.0
15.693,-0.669,-0.906,1.0
15.265,-0.655,-0.971,0.0
13.836,-0.597,-0.959,0.0
12.811,-0.556,-0.962,0.0
16.883,-0.737,-0.799,1.0
15.71,-0.69,-0.833,0.0
15.624,-0.69,-0.918,0.0
14.628,-0.65,-0.945,0.0
13.549,-0.606,-0.953,0.0
12.645,-0.569,-0.963,0.0
16.609,-0.75,-0.802,1.0
15.599,-0.709,-0.843,1.0
15.504,-0.709,-0.927,0.0
14.503,-0.667,-0.952,0.0
13.44,-0.622,-0.959,0.0
12.472,-0.581,-0.962,0.0
16.313,-0.762,-0.804,1.0
15.501,-0.728,-0.852,1.0
15.437,-0.73,-0.937,0.0
14.384,-0.684,-0.957,0.0
13.315,-0.637,-0.963,0.0
12.326,-0.593,-0.962,0.0
16.239,-0.784,-0.815,1.0
15.389,-0.748,-0.861,1.0
15.33,-0.749,-0.945,1.0
14.209,-0.698,-0.959,0.0
13.071,-0.646,-0.957,0.0
12.163,-0.605,-0.96,0.0
15.989,-0.797,-0.817,0.0
15.3,-0.767,-0.869,1.0
15.27,-0.77,-0.955,0.0
14.014,-0.711,-0.958,0.0
12.969,-0.661,-0.961,0.0
12.103,-0.621,-0.966,0.0
15.854,-0.816,-0.823,0.0
15.209,-0.787,-0.876,1.0
15.126,-0.787,-0.958,0.0
13.742,-0.718,-0.951,0.0
12.817,-0.674,-0.96,0.0
11.916,-0.63,-0.961,0.0
15.711,-0.833,-0.828,0.0
15.127,-0.806,-0.884,1.0
14.914,-0.799,-0.957,2.0
13.612,-0.733,-0.952,0.0
12.718,-0.689,-0.963,0.0
11.772,-0.641,-0.958,0.0
15.586,-0.851,-0.834,1.0
15.066,-0.827,-0.892,1.0
14.868,-0.82,-0.965,3.0
24.607,-1.365,-1.74,0.0
12.585,-0.702,-0.962,0.0
11.67,-0.654,-0.959,0.0
15.473,-0.869,-0.839,0.0
14.992,-0.847,-0.898,1.0
14.844,-0.843,-0.974,1.0
24.558,-1.402,-1.754,0.0
12.478,-0.716,-0.962,0.0
11.577,-0.668,-0.959,0.0
15.34,-0.886,-0.842,0.0
14.946,-0.868,-0.905,1.0
14.754,-0.861,-0.978,0.0
24.482,-1.436,-1.765,0.0
12.41,-0.731,-0.965,0.0
11.499,-0.681,-0.96,0.0
15.242,-0.905,-0.846,0.0
14.885,-0.888,-0.911,1.0
14.646,-0.878,-0.98,0.0
24.524,-1.477,-1.783,0.0
12.372,-0.749,-0.97,0.0
11.436,-0.696,-0.962,0.0
15.112,-0.921,-0.848,0.0
14.83,-0.908,-0.916,1.0
14.447,-0.889,-0.975,0.0
13.064,-0.808,-0.957,0.0
12.302,-0.764,-0.971,0.0
11.322,-0.707,-0.958,0.0
14.912,-0.932,-0.845,0.0
14.768,-0.928,-0.92,1.0
14.158,-0.893,-0.963,0.0
12.958,-0.822,-0.956,0.0
12.137,-0.773,-0.965,0.0
11.242,-0.72,-0.958,0.0
14.824,-0.95,-0.848,0.0
14.719,-0.948,-0.925,1.0
14.008,-0.906,-0.96,0.0
12.929,-0.84,-0.96,0.0
12.047,-0.787,-0.963,0.0
11.17,-0.733,-0.957,0.0
14.728,-0.967,-0.849,0.0
14.645,-0.966,-0.927,1.0
14.026,-0.93,-0.967,0.0
12.864,-0.856,-0.961,0.0
11.962,-0.8,-0.962,0.0
11.121,-0.747,-0.957,0.0
14.644,-0.985,-0.85,1.0
14.59,-0.986,-0.93,1.0
14.022,-0.951,-0.973,0.0
12.763,-0.87,-0.959,0.0
11.923,-0.816,-0.964,0.0
11.077,-0.762,-0.958,0.0
14.576,-1.003,-0.852,1.0
14.543,-1.005,-0.932,1.0
13.973,-0.97,-0.974,0.0
12.69,-0.884,-0.958,0.0
11.858,-0.83,-0.963,0.0
11.049,-0.777,-0.959,0.0
14.528,-1.022,-0.854,1.0
14.483,-1.023,-0.933,1.0
13.931,-0.989,-0.976,0.0
12.689,-0.904,-0.962,0.0
11.788,-0.844,-0.96,0.0
11.004,-0.791,-0.959,0.0
14.477,-1.041,-0.855,1.0
14.433,-1.042,-0.934,1.0
13.867,-1.005,-0.976,0.0
12.675,-0.923,-0.964,0.0
11.759,-0.86,-0.961,0.0
11.029,-0.81,-0.964,0.0
14.418,-1.059,-0.855,1.0
14.37,-1.059,-0.933,1.0
13.867,-1.026,-0.979,0.0
12.667,-0.941,-0.967,0.0
11.733,-0.876,-0.962,0.0
10.958,-0.821,-0.96,0.0
14.379,-1.078,-0.856,1.0
14.324,-1.078,-0.933,1.0
13.984,-1.056,-0.99,0.0
12.53,-0.95,-0.959,0.0
11.743,-0.894,-0.965,0.0
10.939,-0.836,-0.96,0.0
14.324,-1.095,-0.855,1.0
14.278,-1.096,-0.933,1.0
13.996,-1.079,-0.993,0.0
12.606,-0.975,-0.966,0.0
11.732,-0.911,-0.966,0.0
10.948,-0.854,-0.963,0.0
14.267,-1.112,-0.854,1.0
14.218,-1.113,-0.93,1.0
14.014,-1.101,-0.996,0.0
12.574,-0.992,-0.965,0.0
11.699,-0.926,-0.964,0.0
10.926,-0.868,-0.962,0.0
14.233,-1.131,-0.853,0.0
14.179,-1.131,-0.929,1.0
13.943,-1.116,-0.992,0.0
12.558,-1.009,-0.965,0.0
11.704,-0.944,-0.965,0.0
10.915,-0.884,-0.961,0.0
14.199,-1.149,-0.852,0.0
14.137,-1.148,-0.927,1.0
13.827,-1.127,-0.984,0.0
12.639,-1.034,-0.971,0.0
11.699,-0.961,-0.965,0.0
10.944,-0.902,-0.964,0.0
14.182,-1.168,-0.85,0.0
14.09,-1.165,-0.924,1.0
13.959,-1.158,-0.993,0.0
12.569,-1.047,-0.966,0.0
11.721,-0.979,-0.966,0.0
11.004,-0.923,-0.969,0.0
14.163,-1.187,-0.849,0.0
14.072,-1.184,-0.922,1.0
13.984,-1.18,-0.994,0.0
12.619,-1.069,-0.969,0.0
11.719,-0.996,-0.965,0.0
10.972,-0.936,-0.965,0.0
14.177,-1.209,-0.848,0.0
14.037,-1.201,-0.918,1.0
13.964,-1.199,-0.991,0.0
12.673,-1.091,-0.972,0.0
11.766,-1.017,-0.968,0.0
11.001,-0.954,-0.967,0.0
14.215,-1.232,-0.849,0.0
13.991,-1.216,-0.913,1.0
13.937,-1.216,-0.988,0.0
12.697,-1.111,-0.972,0.0
11.791,-1.035,-0.968,0.0
11.005,-0.97,-0.965,0.0
14.176,-1.248,-0.845,0.0
13.952,-1.232,-0.909,1.0
13.903,-1.232,-0.983,0.0
12.66,-1.125,-0.967,0.0
11.782,-1.051,-0.965,0.0
11.043,-0.988,-0.967,0.0
14.251,-1.274,-0.846,0.0
13.924,-1.249,-0.904,1.0
13.893,-1.25,-0.979,1.0
12.746,-1.15,-0.971,0.0
11.85,-1.073,-0.968,0.0
11.079,-1.006,-0.967,0.0
14.26,-1.294,-0.843,0.0
13.874,-1.263,-0.897,2.0
13.863,-1.266,-0.974,1.0
12.76,-1.169,-0.968,0.0
11.887,-1.092,-0.968,0.0
11.076,-1.021,-0.964,0.0
14.315,-1.318,-0.843,0.0
13.863,-1.28,-0.893,2.0
13.836,-1.281,-0.968,1.0
12.854,-1.194,-0.972,0.0
11.933,-1.112,-0.968,0.0
11.117,-1.039,-0.964,0.0
14.347,-1.34,-0.84,0.0
13.808,-1.293,-0.885,1.0
13.803,-1.296,-0.961,1.0
12.887,-1.214,-0.97,0.0
11.981,-1.132,-0.968,0.0
11.168,-1.058,-0.964,0.0
14.378,-1.361,-0.837,0.0
13.801,-1.31,-0.879,1.0
13.771,-1.311,-0.953,1.0
13.008,-1.242,-0.974,0.0
11.992,-1.148,-0.964,0.0
11.216,-1.077,-0.964,0.0
14.439,-1.385,-0.835,0.0
13.769,-1.324,-0.872,1.0
13.747,-1.325,-0.946,1.0
13.148,-1.271,-0.979,0.0
12.085,-1.172,-0.967,0.0
11.279,-1.097,-0.965,0.0
14.498,-1.408,-0.832,0.0
13.748,-1.338,-0.864,1.0
13.734,-1.341,-0.939,1.0
13.241,-1.296,-0.98,0.0
12.203,-1.198,-0.971,0.0
11.36,-1.118,-0.966,0.0
14.581,-1.433,-0.83,0.0
13.74,-1.354,-0.857,1.0
13.691,-1.353,-0.93,1.0
13.371,-1.325,-0.983,0.0
12.273,-1.219,-0.97,0.0
11.479,-1.143,-0.971,0.0
14.668,-1.459,-0.827,0.0
13.751,-1.371,-0.851,0.0
13.668,-1.366,-0.921,1.0
13.485,-1.351,-0.984,0.0
12.4,-1.246,-0.974,0.0
11.55,-1.163,-0.971,0.0
14.822,-1.491,-0.828,0.0
13.841,-1.396,-0.849,0.0
13.65,-1.38,-0.912,1.0
13.558,-1.374,-0.982,0.0
12.612,-1.281,-0.983,0.0
11.624,-1.183,-0.97,0.0
14.937,-1.519,-0.826,1.0
13.926,-1.419,-0.847,0.0
13.608,-1.39,-0.902,1.0
13.525,-1.385,-0.972,2.0
12.876,-1.322,-0.996,0.0
11.716,-1.205,-0.971,0.0
15.023,-1.544,-0.822,1.0
14.023,-1.444,-0.844,1.0
13.604,-1.404,-0.893,1.0
13.543,-1.401,-0.965,2.0
12.868,-1.334,-0.988,0.0
11.809,-1.227,-0.971,0.0
15.107,-1.568,-0.817,1.0
14.118,-1.468,-0.841,1.0
13.577,-1.415,-0.883,1.0
13.537,-1.414,-0.956,2.0
12.918,-1.352,-0.983,0.0
11.921,-1.251,-0.972,0.0
15.213,-1.594,-0.812,1.0
14.23,-1.494,-0.838,1.0
13.562,-1.427,-0.873,1.0
13.523,-1.426,-0.945,2.0
13.043,-1.378,-0.983,0.0
12.074,-1.279,-0.976,0.0
15.296,-1.618,-0.806,1.0
14.358,-1.521,-0.835,1.0
13.547,-1.438,-0.862,1.0
13.518,-1.438,-0.935,2.0
13.159,-1.403,-0.982,0.0
12.155,-1.299,-0.974,0.0
15.425,-1.646,-0.802,1.0
14.466,-1.546,-0.831,1.0
13.568,-1.453,-0.853,0.0
13.502,-1.449,-0.924,2.0
13.416,-1.443,-0.991,0.0
12.2,-1.315,-0.968,0.0
15.579,-1.676,-0.798,1.0
14.593,-1.573,-0.827,0.0
13.723,-1.482,-0.852,0.0
13.452,-1.455,-0.91,3.0
13.476,-1.461,-0.985,1.0
13.039,-1.416,-1.025,0.0
15.806,-1.714,-0.797,1.0
14.751,-1.603,-0.824,0.0
13.821,-1.504,-0.847,0.0
13.439,-1.465,-0.898,2.0
13.466,-1.471,-0.974,2.0
13.332,-1.459,-1.037,0.0
16.022,-1.751,-0.795,1.0
14.945,-1.636,-0.822,1.0
13.962,-1.531,-0.844,0.0
13.454,-1.478,-0.888,1.0
13.391,-1.474,-0.957,4.0
13.325,-1.469,-1.025,1.0
16.155,-1.778,-0.788,1.0
15.071,-1.662,-0.817,1.0
14.085,-1.555,-0.84,1.0
13.456,-1.488,-0.876,1.0
13.382,-1.483,-0.945,12.0
13.335,-1.48,-1.014,1.0
16.325,-1.809,-0.782,1.0
15.203,-1.688,-0.81,1.0
14.229,-1.582,-0.836,1.0
13.419,-1.494,-0.862,1.0
13.362,-1.49,-0.931,12.0
13.319,-1.488,-1.001,2.0
16.605,-1.852,-0.78,1.0
15.349,-1.715,-0.804,1.0
14.372,-1.608,-0.831,1.0
13.488,-1.511,-0.854,0.0
13.364,-1.5,-0.919,5.0
13.326,-1.498,-0.989,6.0
16.829,-1.889,-0.775,1.0
15.554,-1.748,-0.801,1.0
14.565,-1.639,-0.828,1.0
13.666,-1.54,-0.853,0.0
13.38,-1.51,-0.907,2.0
13.333,-1.507,-0.977,7.0
17.132,-1.934,-0.773,1.0
15.747,-1.779,-0.795,0.0
14.72,-1.666,-0.823,1.0
13.805,-1.564,-0.848,0.0
13.383,-1.518,-0.894,1.0
13.352,-1.517,-0.965,6.0
17.346,-1.968,-0.766,0.0
15.975,-1.815,-0.791,1.0
14.931,-1.698,-0.82,1.0
13.958,-1.589,-0.844,1.0
13.37,-1.524,-0.88,2.0
13.352,-1.524,-0.951,4.0
17.753,-2.024,-0.766,0.0
16.216,-1.851,-0.787,1.0
15.101,-1.726,-0.814,1.0
14.088,-1.612,-0.837,1.0
13.37,-1.531,-0.867,1.0
13.365,-1.533,-0.939,2.0
18.042,-2.066,-0.76,0.0
16.425,-1.883,-0.781,1.0
15.293,-1.755,-0.809,1.0
14.3,-1.643,-0.835,0.0
13.405,-1.542,-0.855,0.0
13.348,-1.537,-0.924,2.0
18.546,-2.133,-0.762,0.0
16.718,-1.924,-0.777,1.0
15.484,-1.784,-0.803,0.0
14.47,-1.669,-0.83,1.0
13.624,-1.573,-0.855,0.0
13.347,-1.543,-0.909,2.0
18.926,-2.185,-0.758,1.0
17.061,-1.971,-0.775,1.0
15.716,-1.817,-0.798,0.0
14.681,-1.699,-0.826,1.0
13.778,-1.596,-0.85,0.0
13.331,-1.546,-0.894,2.0
19.314,-2.237,-0.753,1.0
17.381,-2.014,-0.771,1.0
15.972,-1.853,-0.794,1.0
14.895,-1.729,-0.822,1.0
13.954,-1.621,-0.845,1.0
13.334,-1.551,-0.88,2.0
19.716,-2.29,-0.747,1.0
17.697,-2.057,-0.765,1.0
16.165,-1.88,-0.786,1.0
15.099,-1.758,-0.817,1.0
14.129,-1.646,-0.84,1.0
13.335,-1.555,-0.865,1.0
20.21,-2.353,-0.744,1.0
18.093,-2.108,-0.763,0.0
16.455,-1.919,-0.782,0.0
15.302,-1.785,-0.811,1.0
14.296,-1.669,-0.834,0.0
13.454,-1.572,-0.858,0.0
20.642,-2.409,-0.736,2.0
18.648,-2.177,-0.765,1.0
16.775,-1.96,-0.778,1.0
15.464,-1.808,-0.802,1.0
14.473,-1.693,-0.828,0.0
13.673,-1.6,-0.856,0.0
21.336,-2.494,-0.737,4.0
18.997,-2.222,-0.758,2.0
17.16,-2.008,-0.776,1.0
15.707,-1.839,-0.797,0.0
14.739,-1.727,-0.826,1.0
13.803,-1.618,-0.848,0.0
21.774,-2.549,-0.727,7.0
19.414,-2.274,-0.752,2.0
17.512,-2.052,-0.772,1.0
15.993,-1.875,-0.792,1.0
14.987,-1.757,-0.823,1.0
14.032,-1.646,-0.846,1.0
22.125,-2.593,-0.713,4.0
19.894,-2.332,-0.748,2.0
17.794,-2.087,-0.764,0.0
16.229,-1.904,-0.785,1.0
15.153,-1.778,-0.814,1.0
14.183,-1.665,-0.838,1.0
22.909,-2.687,-0.712,5.0
20.415,-2.395,-0.743,2.0
18.412,-2.16,-0.769,0.0
16.608,-1.949,-0.784,1.0
15.398,-1.808,-0.809,1.0
14.376,-1.688,-0.832,0.0
23.297,-2.733,-0.696,3.0
20.894,-2.451,-0.736,2.0
18.813,-2.207,-0.763,1.0
16.912,-1.985,-0.778,1.0
15.551,-1.825,-0.798,1.0
14.65,-1.72,-0.831,1.0
24.351,-2.856,-0.698,2.0
21.645,-2.539,-0.736,4.0
19.249,-2.258,-0.758,3.0
17.316,-2.031,-0.776,1.0
15.904,-1.866,-0.798,1.0
14.921,-1.751,-0.828,1.0
25.069,-2.939,-0.689,3.0
21.927,-2.57,-0.72,5.0
19.687,-2.308,-0.751,2.0
17.633,-2.067,-0.769,1.0
16.155,-1.894,-0.791,1.0
15.073,-1.767,-0.819,1.0
25.734,-3.014,-0.677,3.0
22.603,-2.647,-0.715,4.0
20.234,-2.369,-0.748,1.0
18.07,-2.116,-0.766,0.0
16.41,-1.921,-0.783,1.0
15.329,-1.795,-0.814,1.0
26.51,-3.101,-0.665,2.0
23.165,-2.709,-0.704,5.0
20.691,-2.419,-0.74,2.0
18.664,-2.182,-0.769,1.0
16.83,-1.967,-0.783,1.0
15.505,-1.812,-0.804,1.0
27.43,-3.203,-0.654,3.0
24.101,-2.813,-0.703,5.0
21.519,-2.511,-0.743,4.0
19.075,-2.225,-0.762,2.0
17.227,-2.009,-0.78,1.0
15.801,-1.843,-0.8,1.0
28.33,-3.301,-0.642,4.0
24.816,-2.891,-0.694,4.0
21.854,-2.545,-0.728,7.0
19.503,-2.27,-0.755,1.0
17.576,-2.045,-0.774,1.0
16.067,-1.869,-0.794,1.0
29.414,-3.419,-0.63,8.0
25.633,-2.978,-0.686,3.0
22.384,-2.599,-0.718,4.0
20.021,-2.324,-0.751,1.0
17.963,-2.084,-0.769,0.0
16.337,-1.895,-0.787,1.0
29.935,-3.47,-0.605,17.0
26.27,-3.043,-0.671,2.0
23.123,-2.677,-0.713,5.0
20.624,-2.386,-0.748,2.0
18.59,-2.15,-0.774,0.0
16.723,-1.933,-0.785,1.0
30.482,-3.521,-0.578,17.0
27.268,-3.148,-0.662,1.0
23.805,-2.746,-0.705,3.0
21.092,-2.432,-0.739,3.0
18.967,-2.185,-0.766,1.0
17.118,-1.971,-0.783,1.0
31.396,-3.613,-0.557,23.0
28.128,-3.235,-0.649,2.0
24.669,-2.835,-0.7,4.0
21.75,-2.498,-0.736,4.0
19.427,-2.229,-0.76,1.0
17.419,-1.998,-0.775,0.0
32.572,-3.733,-0.538,34.0
29.354,-3.361,-0.641,4.0
25.326,-2.898,-0.688,3.0
22.365,-2.557,-0.729,4.0
19.943,-2.278,-0.756,1.0
17.951,-2.049,-0.776,0.0
33.419,-3.813,-0.511,31.0
30.122,-3.433,-0.621,8.0
26.211,-2.985,-0.68,2.0
23.001,-2.617,-0.722,4.0
20.504,-2.331,-0.752,2.0
18.443,-2.095,-0.775,0.0
34.196,-3.882,-0.482,34.0
30.623,-3.473,-0.594,17.0
27.129,-3.073,-0.67,1.0
23.731,-2.686,-0.715,4.0
20.993,-2.374,-0.745,2.0
18.849,-2.129,-0.769,1.0
34.978,-3.949,-0.45,16.0
31.516,-3.554,-0.573,23.0
27.807,-3.133,-0.654,2.0
24.579,-2.766,-0.711,5.0
21.647,-2.434,-0.742,4.0
19.289,-2.166,-0.764,1.0
39.886,-4.478,-0.466,13.0
32.554,-3.65,-0.553,26.0
29.551,-3.309,-0.66,4.0
25.246,-2.824,-0.701,5.0
22.205,-2.481,-0.734,4.0
19.836,-2.214,-0.762,1.0
40.172,-4.482,-0.421,15.0
33.5,-3.732,-0.529,31.0
30.102,-3.349,-0.636,6.0
25.936,-2.882,-0.688,3.0
22.782,-2.529,-0.726,4.0
20.438,-2.266,-0.761,2.0
0.0,0.0,0.0,0.0
34.208,-3.785,-0.5,28.0
30.895,-3.414,-0.616,9.0
26.787,-2.956,-0.68,2.0
23.364,-2.575,-0.717,4.0
20.852,-2.295,-0.751,3.0
0.0,0.0,0.0,0.0
34.938,-3.838,-0.469,12.0
31.646,-3.471,-0.593,11.0
27.488,-3.011,-0.664,2.0
24.412,-2.67,-0.72,5.0
21.335,-2.33,-0.743,2.0
47.185,-5.152,-0.326,22.0
39.864,-4.345,-0.488,13.0
32.529,-3.54,-0.572,22.0
28.405,-3.087,-0.653,1.0
25.065,-2.72,-0.71,5.0
22.015,-2.385,-0.741,2.0
0.0,0.0,0.0,0.0
40.168,-4.343,-0.445,15.0
33.434,-3.609,-0.549,28.0
29.837,-3.215,-0.652,2.0
25.8,-2.776,-0.701,6.0
22.629,-2.431,-0.736,4.0
54.25,-5.826,-0.251,7.0
0.0,0.0,0.0,0.0
34.163,-3.656,-0.522,29.0
30.806,-3.291,-0.638,5.0
26.487,-2.824,-0.69,5.0
23.201,-2.47,-0.728,4.0
55.137,-5.868,-0.192,30.0
0.0,0.0,0.0,0.0
34.868,-3.697,-0.493,14.0
31.681,-3.353,-0.62,9.0
27.142,-2.867,-0.676,2.0
23.976,-2.528,-0.726,5.0
56.082,-5.912,-0.133,12.0
0.0,0.0,0.0,0.0
39.905,-4.19,-0.52,4.0
32.492,-3.405,-0.6,10.0
27.947,-2.923,-0.665,1.0
24.752,-2.584,-0.721,5.0
65.289,-6.814,-0.082,5.0
0.0,0.0,0.0,0.0
40.152,-4.173,-0.479,15.0
33.219,-3.445,-0.577,26.0
28.92,-2.994,-0.657,1.0
25.514,-2.636,-0.716,6.0
65.017,-6.715,-0.011,2.0
51.83,-5.342,-0.285,21.0
40.321,-4.146,-0.437,6.0
33.966,-3.485,-0.553,26.0
30.376,-3.11,-0.657,3.0
26.187,-2.676,-0.706,6.0
64.949,-6.635,0.058,6.0
54.723,-5.577,-0.243,28.0
0.0,0.0,0.0,0.0
34.7,-3.521,-0.528,14.0
31.111,-3.149,-0.64,3.0
26.771,-2.704,-0.694,6.0
64.988,-6.562,0.127,6.0
55.789,-5.62,-0.188,29.0
45.067,-4.529,-0.393,19.0
37.591,-3.769,-0.533,3.0
32.227,-3.224,-0.629,6.0
27.487,-2.743,-0.684,3.0
65.059,-6.491,0.194,150.0
65.426,-6.511,-0.154,10.0
46.899,-4.656,-0.361,12.0
0.0,0.0,0.0,0.0
33.624,-3.321,-0.622,6.0
28.185,-2.778,-0.672,3.0
65.046,-6.408,0.261,7.0
65.379,-6.424,-0.087,10.0
39.469,-3.868,-0.264,2.0
40.315,-3.941,-0.489,8.0
34.212,-3.336,-0.599,11.0
29.109,-2.831,-0.665,2.0
65.113,-6.331,0.325,5.0
65.077,-6.311,-0.023,2.0
0.0,0.0,0.0,0.0
0.0,0.0,0.0,0.0
34.719,-3.34,-0.573,22.0
30.371,-2.914,-0.665,2.0
65.121,-6.246,0.388,16.0
65.025,-6.22,0.039,2.0
55.145,-5.259,-0.262,29.0
44.805,-4.261,-0.457,13.0
35.313,-3.349,-0.549,13.0
30.724,-2.906,-0.643,1.0
65.212,-6.167,0.45,6.0
54.93,-5.179,0.085,10.0
55.758,-5.242,-0.212,29.0
45.788,-4.292,-0.424,22.0
38.441,-3.593,-0.563,14.0
31.554,-2.941,-0.631,1.0
54.965,-5.121,0.43,153.0
54.974,-5.106,0.136,165.0
55.791,-5.167,-0.161,18.0
47.238,-4.361,-0.394,21.0
39.097,-3.599,-0.537,15.0
32.962,-3.025,-0.63,1.0
54.969,-5.043,0.48,152.0
54.965,-5.027,0.185,163.0
55.588,-5.068,-0.111,13.0
0.0,0.0,0.0,0.0
39.855,-3.611,-0.511,15.0
34.511,-3.117,-0.628,2.0
0.0,0.0,0.0,0.0
0.0,0.0,0.0,0.0
55.875,-5.011,-0.062,5.0
50.327,-4.498,-0.332,9.0
40.276,-3.588,-0.482,9.0
35.248,-3.13,-0.612,2.0
0.0,0.0,0.0,0.0
0.0,0.0,0.0,0.0
64.18,-5.659,-0.018,1.0
54.702,-4.807,-0.315,24.0
45.037,-3.944,-0.502,6.0
36.161,-3.157,-0.597,2.0
0.0,0.0,0.0,0.0
0.0,0.0,0.0,0.0
0.0,0.0,0.0,0.0
55.101,-4.756,-0.272,5.0
45.717,-3.932,-0.472,20.0
37.656,-3.228,-0.592,13.0
0.0,0.0,0.0,0.0
0.0,0.0,0.0,0.0
64.109,-5.451,0.085,2.0
60.774,-5.149,-0.253,2.0
46.604,-3.935,-0.445,21.0
38.829,-3.266,-0.58,14.0
82.003,-6.894,1.055,0.0
79.426,-6.653,0.594,22.0
79.414,-6.627,0.165,24.0
79.227,-6.586,-0.27,3.0
49.505,-4.1,-0.435,9.0
39.604,-3.268,-0.562,15.0
82.008,-6.762,1.116,35.0
79.329,-6.514,0.651,27.0
79.446,-6.498,0.224,34.0
79.422,-6.471,-0.212,11.0
49.644,-4.029,-0.401,23.0
40.704,-3.291,-0.548,15.0
81.958,-6.622,1.174,33.0
79.354,-6.385,0.707,20.0
79.388,-6.362,0.279,27.0
79.639,-6.356,-0.158,13.0
50.393,-4.006,-0.372,10.0
41.811,-3.31,-0.534,15.0
81.985,-6.487,1.23,31.0
81.457,-6.417,0.782,10.0
61.56,-4.829,0.258,6.0
61.558,-4.808,-0.08,1.0
53.817,-4.186,-0.361,6.0
42.692,-3.307,-0.517,4.0
82.033,-6.35,1.284,16.0
65.734,-5.066,0.673,5.0
65.665,-5.039,0.317,0.0
65.662,-5.016,-0.044,2.0
57.425,-4.367,-0.349,4.0
45.942,-3.479,-0.528,20.0
83.41,-6.312,1.358,12.0
65.655,-4.945,0.713,1.0
65.54,-4.913,0.357,1.0
65.519,-4.89,-0.004,72.0
56.739,-4.216,-0.311,6.0
46.605,-3.447,-0.508,20.0
0.0,0.0,0.0,0.0
0.0,0.0,0.0,0.0
65.508,-4.795,0.394,0.0
65.467,-4.771,0.032,1.0
0.0,0.0,0.0,0.0
49.342,-3.562,-0.51,5.0
0.0,0.0,0.0,0.0
0.0,0.0,0.0,0.0
65.54,-4.681,0.43,1.0
65.362,-4.645,0.068,1.0
60.197,-4.258,-0.264,4.0
49.428,-3.479,-0.485,8.0
82.857,-5.826,1.487,1.0
0.0,0.0,0.0,0.0
65.592,-4.566,0.464,171.0
65.456,-4.534,0.101,2.0
66.621,-4.591,-0.259,1.0
49.538,-3.397,-0.461,8.0
128.903,-8.827,2.377,3.0
0.0,0.0,0.0,0.0
65.582,-4.444,0.496,175.0
65.45,-4.412,0.132,2.0
24.581,-1.648,-0.083,3.0
24.563,-1.638,-0.217,13.0
24.591,-1.638,0.464,25.0
24.569,-1.628,0.33,23.0
24.547,-1.618,0.196,27.0
24.538,-1.608,0.06,28.0
24.544,-1.6,-0.073,42.0
24.515,-1.59,-0.206,44.0
24.555,-1.59,0.474,46.0
24.53,-1.579,0.34,45.0
24.529,-1.57,0.206,37.0
24.528,-1.562,0.07,54.0
24.533,-1.554,-0.063,72.0
24.505,-1.543,-0.196,46.0
24.552,-1.543,0.484,98.0
24.533,-1.533,0.349,72.0
24.518,-1.523,0.215,58.0
24.519,-1.514,0.079,56.0
24.528,-1.506,-0.054,95.0
24.502,-1.496,-0.187,65.0
24.549,-1.495,0.492,73.0
24.538,-1.486,0.358,74.0
24.528,-1.476,0.224,62.0
24.512,-1.466,0.088,52.0
24.532,-1.459,-0.045,71.0
24.515,-1.449,-0.179,68.0
24.568,-1.449,0.501,66.0
24.56,-1.439,0.366,51.0
24.543,-1.429,0.232,40.0
24.538,-1.42,0.095,40.0
24.557,-1.412,-0.038,52.0
24.542,-1.403,-0.172,51.0
24.597,-1.402,0.508,25.0
24.585,-1.392,0.374,23.0
24.585,-1.383,0.239,27.0
24.581,-1.374,0.102,15.0
24.598,-1.366,-0.032,9.0
24.581,-1.356,-0.166,16.0
84.199,-4.634,1.762,40.0
0.0,0.0,0.0,0.0
65.707,-3.568,0.655,2.0
0.0,0.0,0.0,0.0
0.0,0.0,0.0,0.0
61.3,-3.262,-0.402,4.0
84.615,-4.489,1.789,41.0
86.096,-4.535,1.349,10.0
0.0,0.0,0.0,0.0
0.0,0.0,0.0,0.0
66.498,-3.428,-0.059,1.0
65.603,-3.359,-0.418,2.0
84.92,-4.334,1.811,49.0
83.013,-4.205,1.314,15.0
82.914,-4.171,0.857,6.0
67.384,-3.364,0.32,0.0
0.0,0.0,0.0,0.0
31.337,-1.541,-0.195,3.0
84.616,-4.147,1.816,41.0
83.07,-4.04,1.326,14.0
82.851,-3.998,0.867,38.0
69.374,-3.322,0.338,1.0
31.307,-1.487,-0.019,17.0
31.213,-1.471,-0.19,37.0
84.755,-3.981,1.828,35.0
31.315,-1.458,0.503,0.0
31.332,-1.448,0.331,19.0
31.231,-1.431,0.155,41.0
31.208,-1.419,-0.016,44.0
31.205,-1.407,-0.188,53.0
31.321,-1.407,0.677,21.0
31.252,-1.392,0.504,42.0
28.456,-1.256,0.302,39.0
28.456,-1.245,0.142,62.0
28.448,-1.235,-0.014,63.0
28.443,-1.224,-0.17,73.0
28.432,-1.218,0.615,69.0
28.432,-1.207,0.459,96.0
28.435,-1.197,0.302,113.0
28.44,-1.186,0.142,112.0
28.449,-1.176,-0.014,127.0
28.451,-1.166,-0.17,150.0
28.439,-1.159,0.615,150.0
28.443,-1.149,0.459,130.0
28.441,-1.138,0.301,70.0
28.449,-1.128,0.142,67.0
28.477,-1.118,-0.015,64.0
31.284,-1.218,-0.189,22.0
31.259,-1.21,0.675,23.0
31.231,-1.197,0.502,38.0
31.262,-1.186,0.33,45.0
31.284,-1.175,0.154,43.0
31.314,-1.165,-0.018,26.0
31.356,-1.155,-0.192,2.0
31.343,-1.148,0.674,54.0
31.337,-1.136,0.501,39.0
83.868,-3.009,0.876,25.0
80.777,-2.869,0.389,22.0
81.329,-2.858,-0.057,31.0
56.85,-1.977,-0.354,2.0
147.344,-5.087,3.152,2.0
84.495,-2.887,1.34,4.0
38.797,-1.31,0.4,2.0
38.743,-1.294,0.181,17.0
38.701,-1.278,-0.033,44.0
38.684,-1.264,-0.247,52.0
38.646,-1.253,0.82,64.0
38.642,-1.238,0.606,60.0
38.642,-1.224,0.391,66.0
38.649,-1.21,0.174,67.0
38.644,-1.196,-0.04,66.0
38.65,-1.183,-0.254,62.0
38.639,-1.172,0.812,107.0
38.626,-1.158,0.598,75.0
38.64,-1.144,0.384,83.0
38.639,-1.129,0.165,114.0
38.654,-1.116,-0.048,83.0
38.659,-1.101,-0.263,65.0
38.655,-1.092,0.803,85.0
38.642,-1.077,0.588,66.0
38.645,-1.063,0.374,65.0
38.654,-1.049,0.155,64.0
38.672,-1.035,-0.058,47.0
38.7,-1.021,-0.274,36.0
38.691,-1.01,0.793,33.0
38.739,-0.997,0.579,11.0
38.745,-0.984,0.363,10.0
40.43,-1.012,0.15,23.0
40.407,-0.996,-0.073,32.0
40.415,-0.982,-0.298,39.0
40.409,-0.971,0.816,41.0
40.409,-0.956,0.591,39.0
40.409,-0.942,0.366,59.0
40.436,-0.928,0.137,151.0
40.424,-0.913,-0.087,30.0
40.44,-0.899,-0.312,7.0
38.412,-0.843,0.762,32.0
38.391,-0.829,0.548,49.0
38.386,-0.815,0.334,30.0
52.929,-1.105,0.16,6.0
52.94,-1.086,-0.134,10.0
45.561,-0.918,-0.369,28.0
38.222,-0.76,0.743,2.0
53.033,-1.036,0.736,11.0
53.004,-1.015,0.44,19.0
53.019,-0.997,0.139,3.0
20.115,-0.37,-0.059,10.0
52.906,-0.956,-0.451,49.0
191.643,-3.411,3.648,27.0
176.661,-3.079,2.376,29.0
20.141,-0.344,0.158,6.0
20.138,-0.336,0.044,52.0
59.539,-0.974,-0.202,11.0
52.957,-0.848,-0.475,13.0
20.176,-0.317,0.374,2.0
20.12,-0.308,0.261,10.0
20.116,-0.301,0.148,13.0
59.512,-0.871,0.101,22.0
56.758,-0.811,-0.22,1.0
52.802,-0.736,-0.499,15.0
20.133,-0.274,0.363,14.0
20.124,-0.267,0.251,11.0
20.157,-0.26,0.138,5.0
59.562,-0.749,0.07,29.0
56.238,-0.688,-0.247,1.0
52.796,-0.627,-0.527,10.0
20.153,-0.233,0.353,12.0
64.331,-0.721,0.767,21.0
64.332,-0.698,0.407,20.0
56.34,-0.592,0.035,1.0
56.325,-0.572,-0.279,3.0
52.947,-0.519,-0.559,4.0
53.479,-0.508,0.906,42.0
64.381,-0.589,0.73,33.0
66.506,-0.586,0.382,27.0
56.247,-0.476,0.002,5.0
20.169,-0.163,-0.112,14.0
20.142,-0.156,-0.224,16.0
20.195,-0.15,0.33,18.0
20.152,-0.143,0.216,17.0
20.129,-0.136,0.103,17.0
20.141,-0.129,-0.011,25.0
20.156,-0.122,-0.124,25.0
20.137,-0.115,-0.237,31.0
20.118,-0.108,0.315,28.0
20.125,-0.101,0.202,24.0
20.133,-0.094,0.089,38.0
20.137,-0.087,-0.025,29.0
20.145,-0.08,-0.138,36.0
20.14,-0.074,-0.251,28.0
20.117,-0.067,0.301,32.0
20.117,-0.06,0.188,30.0
20.129,-0.053,0.075,40.0
20.123,-0.047,-0.039,34.0
20.159,-0.04,-0.152,28.0
20.178,-0.033,-0.266,19.0
20.127,-0.026,0.287,27.0
20.119,-0.019,0.174,28.0
20.15,-0.013,0.061,28.0
20.262,-0.006,-0.054,150.0
20.254,0.0,-0.168,151.0
20.27,0.007,-0.282,150.0
20.135,0.014,0.272,28.0
20.137,0.021,0.158,27.0
20.252,0.027,0.045,10.0
20.25,0.034,-0.07,12.0
20.212,0.041,-0.183,15.0
20.233,0.047,-0.298,0.0
20.148,0.054,0.256,28.0
20.146,0.061,0.142,27.0
20.201,0.067,0.029,32.0
20.191,0.074,-0.086,28.0
20.191,0.081,-0.2,21.0
20.201,0.087,-0.314,14.0
20.163,0.094,0.239,29.0
20.173,0.101,0.126,23.0
20.188,0.108,0.012,27.0
20.176,0.114,-0.103,38.0
20.18,0.121,-0.217,28.0
20.185,0.127,-0.331,31.0
20.175,0.134,0.222,24.0
20.206,0.141,0.108,29.0
20.235,0.148,-0.005,25.0
20.191,0.154,-0.121,25.0
20.175,0.16,-0.234,30.0
20.173,0.167,-0.348,34.0
20.298,0.175,0.205,29.0
20.32,0.182,0.091,33.0
20.328,0.188,-0.023,19.0
20.206,0.193,-0.139,6.0
20.185,0.199,-0.253,24.0
20.182,0.205,-0.367,32.0
20.307,0.214,0.187,26.0
20.318,0.22,0.072,8.0
0.0,0.0,0.0,0.0
20.141,0.232,-0.158,0.0
20.195,0.238,-0.272,10.0
20.196,0.245,-0.387,20.0
0.0,0.0,0.0,0.0
99.644,1.275,0.258,5.0
0.0,0.0,0.0,0.0
0.0,0.0,0.0,0.0
0.0,0.0,0.0,0.0
38.694,0.543,-0.779,0.0
99.685,1.434,0.723,2.0
99.755,1.464,0.16,5.0
0.0,0.0,0.0,0.0
0.0,0.0,0.0,0.0
0.0,0.0,0.0,0.0
37.538,0.597,-0.794,0.0
99.866,1.623,0.622,4.0
99.805,1.653,0.056,6.0
0.0,0.0,0.0,0.0
0.0,0.0,0.0,0.0
0.0,0.0,0.0,0.0
37.138,0.66,-0.824,0.0
99.885,1.809,0.517,5.0
0.0,0.0,0.0,0.0
0.0,0.0,0.0,0.0
0.0,0.0,0.0,0.0
42.991,0.83,-0.757,0.0
0.0,0.0,0.0,0.0
100.055,1.997,0.408,4.0
99.931,2.025,-0.159,8.0
0.0,0.0,0.0,0.0
0.0,0.0,0.0,0.0
0.0,0.0,0.0,0.0
34.214,0.732,-0.834,0.0
100.109,2.179,0.297,2.0
100.058,2.205,-0.27,1.0
0.0,0.0,0.0,0.0
49.619,1.122,-0.702,0.0
0.0,0.0,0.0,0.0
32.825,0.761,-0.837,1.0
100.312,2.361,0.184,1.0
0.0,0.0,0.0,0.0
0.0,0.0,0.0,0.0
0.0,0.0,0.0,0.0
38.642,0.953,-0.811,0.0
32.063,0.8,-0.855,1.0
100.122,2.532,0.066,1.0
0.0,0.0,0.0,0.0
0.0,0.0,0.0,0.0
0.0,0.0,0.0,0.0
36.903,0.974,-0.818,0.0
31.207,0.832,-0.87,1.0
103.388,2.795,-0.055,1.0
69.028,1.884,-0.429,2.0
0.0,0.0,0.0,0.0
42.552,1.185,-0.753,0.0
35.262,0.992,-0.825,0.0
30.024,0.853,-0.874,0.0
0.0,0.0,0.0,0.0
69.006,2.002,-0.514,6.0
0.0,0.0,0.0,0.0
0.0,0.0,0.0,0.0
33.631,1.003,-0.829,0.0
28.652,0.862,-0.869,0.0
0.0,0.0,0.0,0.0
68.888,2.114,-0.6,0.0
0.0,0.0,0.0,0.0
0.0,0.0,0.0,0.0
32.613,1.026,-0.845,1.0
28.073,0.891,-0.887,0.0
0.0,0.0,0.0,0.0
0.0,0.0,0.0,0.0
0.0,0.0,0.0,0.0
37.527,1.233,-0.807,0.0
31.983,1.059,-0.87,0.0
26.547,0.886,-0.874,0.0
0.0,0.0,0.0,0.0
0.0,0.0,0.0,0.0
0.0,0.0,0.0,0.0
35.883,1.236,-0.818,1.0
30.115,1.045,-0.859,1.0
25.964,0.907,-0.889,0.0
68.973,2.432,-0.477,4.0
0.0,0.0,0.0,0.0
0.0,0.0,0.0,0.0
34.057,1.227,-0.822,0.0
29.325,1.063,-0.876,0.0
24.926,0.91,-0.887,1.0
68.921,2.538,-0.57,1.0
0.0,0.0,0.0,0.0
0.0,0.0,0.0,0.0
32.675,1.228,-0.834,1.0
28.752,1.087,-0.898,0.0
24.178,0.92,-0.893,2.0
0.0,0.0,0.0,0.0
0.0,0.0,0.0,0.0
37.098,1.44,-0.781,0.0
31.887,1.245,-0.857,0.0
0.0,0.0,0.0,0.0
22.96,0.908,-0.88,0.0
0.0,0.0,0.0,0.0
0.0,0.0,0.0,0.0
35.86,1.445,-0.805,0.0
30.181,1.223,-0.853,1.0
25.868,1.055,-0.88,0.0
22.507,0.923,-0.894,1.0
0.0,0.0,0.0,0.0
0.0,0.0,0.0,0.0
34.573,1.444,-0.826,0.0
29.161,1.225,-0.867,0.0
20.26,0.855,-0.718,150.0
20.222,0.858,-0.832,18.0
0.0,0.0,0.0,0.0
38.64,1.66,-0.757,0.0
32.583,1.407,-0.825,0.0
20.259,0.879,-0.631,27.0
20.192,0.881,-0.745,172.0
20.221,0.887,-0.862,55.0
0.0,0.0,0.0,0.0
36.956,1.639,-0.778,0.0
31.502,1.403,-0.843,0.0
20.257,0.907,-0.66,75.0
20.173,0.908,-0.773,164.0
20.21,0.914,-0.891,64.0
42.584,1.937,-0.716,4.0
35.443,1.62,-0.798,0.0
30.04,1.379,-0.849,0.0
20.252,0.934,-0.69,60.0
20.249,0.938,-0.806,81.0
20.188,0.94,-0.92,10.0
42.495,1.99,-0.777,1.0
33.772,1.588,-0.811,0.0
28.667,1.354,-0.853,0.0
20.207,0.958,-0.719,0.0
20.248,0.965,-0.837,2.0
20.11,0.962,-0.947,1.0
38.739,1.863,-0.767,0.0
32.205,1.556,-0.822,0.0
27.927,1.355,-0.873,0.0
24.194,1.179,-0.898,0.0
20.239,0.99,-0.868,0.0
18.822,0.925,-0.915,0.0
36.296,1.792,-0.774,0.0
30.893,1.531,-0.836,0.0
26.553,1.321,-0.871,0.0
0.0,0.0,0.0,0.0
20.281,1.017,-0.901,6.0
18.289,0.921,-0.918,0.0
34.411,1.741,-0.787,0.0
29.361,1.491,-0.84,0.0
25.548,1.302,-0.877,0.0
21.843,1.117,-0.878,0.0
19.639,1.009,-0.903,0.0
17.744,0.915,-0.918,0.0
33.087,1.713,-0.808,1.0
28.233,1.467,-0.852,0.0
24.383,1.271,-0.876,0.0
21.784,1.14,-0.91,0.0
19.156,1.006,-0.91,0.0
17.364,0.915,-0.925,0.0
31.807,1.683,-0.827,0.0
27.452,1.457,-0.871,0.0
23.731,1.264,-0.89,0.0
21.746,1.162,-0.943,0.0
18.92,1.015,-0.929,0.0
16.795,0.904,-0.921,0.0
30.592,1.652,-0.843,0.0
25.992,1.408,-0.866,0.0
21.896,1.19,-0.855,0.0
0.0,0.0,0.0,0.0
17.943,0.981,-0.909,0.0
16.487,0.905,-0.931,0.0
29.221,1.609,-0.852,1.0
25.063,1.384,-0.875,0.0
21.821,1.209,-0.887,3.0
0.0,0.0,0.0,0.0
17.691,0.986,-0.925,0.0
16.014,0.895,-0.929,0.0
28.036,1.572,-0.862,0.0
24.09,1.355,-0.879,0.0
21.784,1.229,-0.92,2.0
0.0,0.0,0.0,0.0
17.056,0.968,-0.919,0.0
