X,Y,Z,Reflectivity
45.777,-4.057,-0.451,21.0
37.936,-3.351,-0.577,14.0
31.13,-2.741,-0.64,1.0
0.0,0.0,0.0,0.0
0.0,0.0,0.0,0.0
56.972,-4.98,-0.198,1.0
46.902,-4.086,-0.419,21.0
38.897,-3.377,-0.557,15.0
32.031,-2.772,-0.631,1.0
0.0,0.0,0.0,0.0
0.0,0.0,0.0,0.0
0.0,0.0,0.0,0.0
0.0,0.0,0.0,0.0
39.745,-3.39,-0.535,15.0
33.563,-2.853,-0.632,1.0
0.0,0.0,0.0,0.0
65.586,-5.551,0.236,8.0
79.532,-6.707,-0.141,10.0
50.298,-4.226,-0.364,24.0
40.799,-3.416,-0.515,15.0
34.677,-2.893,-0.624,2.0
79.345,-6.615,0.777,12.0
79.411,-6.596,0.351,21.0
79.703,-6.595,-0.076,19.0
53.875,-4.441,-0.347,7.0
45.446,-3.732,-0.537,5.0
35.466,-2.902,-0.61,2.0
81.654,-6.677,0.865,34.0
79.462,-6.471,0.414,34.0
80.009,-6.491,-0.013,33.0
54.323,-4.39,-0.307,5.0
46.079,-3.709,-0.508,19.0
36.29,-2.909,-0.596,1.0
81.959,-6.566,0.932,45.0
79.345,-6.331,0.475,16.0
79.422,-6.311,0.046,1.0
61.333,-4.854,-0.3,4.0
46.845,-3.693,-0.482,20.0
39.37,-3.091,-0.617,2.0
82.028,-6.436,0.993,42.0
61.865,-4.833,0.415,1.0
65.537,-5.098,0.086,12.0
61.624,-4.774,-0.257,30.0
0.0,0.0,0.0,0.0
39.713,-3.051,-0.594,1.0
82.003,-6.295,1.051,16.0
65.725,-5.023,0.487,1.0
65.536,-4.987,0.132,255.0
66.156,-5.013,-0.23,2.0
49.527,-3.736,-0.44,22.0
40.157,-3.016,-0.573,2.0
65.834,-4.941,0.888,0.0
65.644,-4.904,0.531,8.0
65.536,-4.874,0.176,219.0
66.302,-4.908,-0.186,2.0
49.941,-3.681,-0.41,7.0
41.176,-3.021,-0.561,2.0
0.0,0.0,0.0,0.0
65.572,-4.783,0.573,5.0
65.575,-4.761,0.218,1.0
65.996,-4.769,-0.144,2.0
53.491,-3.847,-0.405,18.0
44.001,-3.15,-0.572,1.0
0.0,0.0,0.0,0.0
65.557,-4.665,0.613,2.0
65.485,-4.637,0.258,1.0
65.823,-4.639,-0.103,3.0
53.71,-3.767,-0.375,6.0
45.317,-3.163,-0.562,4.0
0.0,0.0,0.0,0.0
65.619,-4.551,0.652,151.0
65.526,-4.522,0.296,2.0
65.684,-4.51,-0.066,2.0
56.775,-3.878,-0.365,17.0
45.66,-3.104,-0.541,3.0
65.747,-4.463,1.045,2.0
65.568,-4.427,0.687,22.0
24.627,-1.654,0.124,7.0
24.597,-1.643,-0.011,11.0
24.552,-1.632,-0.144,23.0
24.519,-1.621,-0.277,26.0
24.574,-1.622,0.403,29.0
24.544,-1.611,0.269,28.0
24.566,-1.604,0.136,35.0
24.54,-1.594,0.0,42.0
24.523,-1.584,-0.132,48.0
24.5,-1.574,-0.265,44.0
24.539,-1.574,0.415,66.0
24.522,-1.564,0.281,44.0
24.513,-1.554,0.148,44.0
24.524,-1.546,0.012,68.0
24.518,-1.537,-0.12,67.0
24.49,-1.527,-0.253,50.0
24.531,-1.526,0.426,68.0
24.514,-1.517,0.292,70.0
24.507,-1.507,0.159,58.0
24.519,-1.499,0.023,75.0
24.52,-1.49,-0.11,71.0
24.5,-1.481,-0.243,61.0
24.542,-1.48,0.436,67.0
24.516,-1.469,0.302,64.0
24.52,-1.461,0.169,59.0
24.521,-1.452,0.033,61.0
24.531,-1.444,-0.1,68.0
24.519,-1.435,-0.234,63.0
24.564,-1.434,0.446,56.0
24.559,-1.424,0.312,45.0
24.549,-1.415,0.178,42.0
24.555,-1.406,0.042,41.0
24.557,-1.398,-0.091,39.0
24.544,-1.388,-0.225,42.0
24.613,-1.388,0.456,18.0
24.604,-1.379,0.321,12.0
24.599,-1.369,0.187,6.0
65.533,-3.624,0.134,38.0
24.603,-1.351,-0.083,1.0
24.594,-1.342,-0.218,2.0
85.709,-4.667,1.615,20.0
0.0,0.0,0.0,0.0
0.0,0.0,0.0,0.0
0.0,0.0,0.0,0.0
66.088,-3.502,-0.205,1.0
56.212,-2.958,-0.482,6.0
85.444,-4.483,1.634,37.0
82.769,-4.312,1.13,6.0
0.0,0.0,0.0,0.0
66.581,-3.419,0.174,1.0
0.0,0.0,0.0,0.0
54.109,-2.739,-0.45,0.0
84.633,-4.27,1.639,13.0
82.861,-4.149,1.151,39.0
82.475,-4.099,0.694,1.0
0.0,0.0,0.0,0.0
68.756,-3.367,-0.181,0.0
31.245,-1.518,-0.253,30.0
84.805,-4.107,1.66,16.0
83.0,-3.988,1.17,37.0
79.896,-3.809,0.688,15.0
31.281,-1.479,0.094,15.0
31.234,-1.465,-0.076,32.0
31.191,-1.452,-0.247,50.0
85.046,-3.946,1.679,14.0
31.313,-1.441,0.446,26.0
31.266,-1.427,0.274,32.0
31.213,-1.413,0.099,45.0
31.217,-1.401,-0.072,64.0
31.18,-1.388,-0.243,24.0
31.294,-1.387,0.622,31.0
28.47,-1.251,0.409,54.0
28.451,-1.24,0.252,60.0
28.441,-1.229,0.093,61.0
28.439,-1.218,-0.062,90.0
28.446,-1.208,-0.219,110.0
28.448,-1.203,0.568,112.0
28.438,-1.192,0.411,109.0
28.447,-1.181,0.255,137.0
28.441,-1.17,0.095,150.0
28.457,-1.161,-0.06,150.0
28.446,-1.149,-0.217,74.0
28.447,-1.143,0.569,92.0
28.447,-1.133,0.413,68.0
28.466,-1.123,0.256,65.0
28.439,-1.111,0.096,39.0
31.269,-1.21,-0.065,58.0
31.312,-1.2,-0.238,44.0
31.279,-1.192,0.627,63.0
31.27,-1.18,0.454,41.0
31.313,-1.17,0.282,48.0
31.321,-1.158,0.106,15.0
81.034,-2.968,-0.17,26.0
54.822,-1.987,-0.417,0.0
31.371,-1.13,0.628,34.0
84.213,-3.003,1.222,21.0
80.471,-2.84,0.723,11.0
80.442,-2.809,0.271,31.0
80.974,-2.797,-0.173,19.0
38.762,-1.324,-0.297,7.0
38.726,-1.314,0.773,7.0
38.746,-1.3,0.559,15.0
38.71,-1.284,0.345,20.0
38.697,-1.269,0.127,47.0
38.696,-1.255,-0.086,59.0
38.667,-1.24,-0.299,54.0
38.64,-1.23,0.768,67.0
38.632,-1.216,0.554,66.0
38.647,-1.202,0.34,69.0
38.635,-1.187,0.123,65.0
38.64,-1.173,-0.09,69.0
38.661,-1.16,-0.304,84.0
38.64,-1.15,0.763,110.0
38.635,-1.135,0.549,98.0
38.645,-1.121,0.335,94.0
38.627,-1.105,0.117,70.0
38.631,-1.092,-0.096,70.0
38.666,-1.078,-0.31,57.0
38.641,-1.068,0.756,71.0
38.657,-1.054,0.542,69.0
38.649,-1.04,0.328,55.0
38.675,-1.026,0.11,50.0
38.709,-1.012,-0.104,36.0
38.748,-0.999,-0.319,31.0
38.763,-0.989,0.751,24.0
40.436,-1.017,0.559,25.0
40.421,-1.002,0.334,24.0
40.405,-0.986,0.106,37.0
40.413,-0.972,-0.117,38.0
40.42,-0.957,-0.342,50.0
40.408,-0.946,0.772,38.0
40.448,-0.932,0.548,150.0
40.438,-0.917,0.324,150.0
40.423,-0.902,0.095,11.0
38.37,-0.842,-0.122,14.0
38.358,-0.828,-0.335,46.0
38.398,-0.818,0.723,28.0
52.94,-1.109,0.703,6.0
52.917,-1.089,0.408,64.0
52.929,-1.07,0.109,65.0
52.938,-1.05,-0.185,50.0
45.572,-0.888,-0.412,18.0
0.0,0.0,0.0,0.0
193.074,-3.637,2.501,29.0
81.77,-1.512,0.604,4.0
20.109,-0.364,0.034,19.0
20.108,-0.357,-0.077,4.0
52.897,-0.921,-0.497,19.0
176.629,-3.023,3.208,96.0
20.155,-0.337,0.253,2.0
20.119,-0.33,0.141,10.0
20.133,-0.322,0.027,35.0
59.573,-0.933,-0.251,2.0
52.877,-0.81,-0.517,15.0
20.152,-0.302,0.358,9.0
20.129,-0.294,0.245,13.0
20.12,-0.287,0.133,9.0
59.507,-0.829,0.055,74.0
56.277,-0.764,-0.261,0.0
52.883,-0.698,-0.54,8.0
20.129,-0.26,0.348,14.0
20.144,-0.252,0.236,9.0
56.145,-0.684,0.346,2.0
56.328,-0.666,0.027,2.0
56.182,-0.644,-0.286,2.0
52.548,-0.584,-0.561,5.0
20.167,-0.218,0.339,17.0
64.312,-0.672,0.724,54.0
64.306,-0.649,0.365,5.0
56.201,-0.547,0.0,6.0
53.342,-0.5,-0.298,1.0
20.168,-0.182,-0.225,9.0
53.484,-0.466,0.874,11.0
58.335,-0.488,0.627,14.0
58.323,-0.467,0.3,10.0
20.214,-0.155,-0.01,21.0
20.183,-0.147,-0.123,20.0
20.148,-0.14,-0.236,24.0
20.131,-0.133,0.318,18.0
20.125,-0.126,0.205,19.0
20.129,-0.119,0.092,31.0
20.132,-0.112,-0.022,32.0
20.14,-0.105,-0.134,34.0
20.128,-0.098,-0.247,36.0
20.122,-0.091,0.306,28.0
20.123,-0.084,0.193,27.0
20.129,-0.077,0.08,40.0
20.116,-0.07,-0.034,32.0
20.15,-0.064,-0.146,34.0
20.151,-0.057,-0.259,26.0
20.123,-0.05,0.293,29.0
20.121,-0.043,0.18,39.0
20.132,-0.036,0.068,38.0
20.142,-0.029,-0.046,22.0
20.169,-0.022,-0.16,17.0
20.212,-0.015,-0.273,5.0
20.13,-0.008,0.28,28.0
20.123,-0.001,0.167,27.0
20.24,0.004,0.054,65.0
20.257,0.011,-0.06,151.0
20.258,0.018,-0.174,151.0
20.261,0.025,-0.288,80.0
20.134,0.032,0.266,31.0
20.139,0.039,0.153,27.0
20.218,0.046,0.04,22.0
20.216,0.052,-0.075,29.0
20.211,0.059,-0.188,24.0
20.17,0.066,-0.301,0.0
20.143,0.073,0.252,28.0
20.159,0.08,0.138,25.0
20.203,0.087,0.025,32.0
20.183,0.093,-0.089,30.0
20.183,0.1,-0.203,25.0
20.204,0.107,-0.317,26.0
20.169,0.113,0.237,28.0
20.18,0.12,0.123,27.0
20.19,0.127,0.01,26.0
20.179,0.134,-0.105,31.0
20.183,0.14,-0.219,31.0
20.177,0.147,-0.332,36.0
20.208,0.154,0.221,20.0
20.266,0.162,0.107,27.0
20.313,0.168,-0.006,27.0
20.189,0.174,-0.122,19.0
20.173,0.18,-0.235,23.0
20.168,0.187,-0.349,33.0
20.291,0.195,0.205,29.0
20.327,0.202,0.091,29.0
20.322,0.208,-0.023,1.0
0.0,0.0,0.0,0.0
20.202,0.22,-0.253,22.0
20.193,0.227,-0.366,26.0
20.297,0.235,0.187,11.0
99.572,1.187,0.36,5.0
0.0,0.0,0.0,0.0
0.0,0.0,0.0,0.0
0.0,0.0,0.0,0.0
20.191,0.266,-0.384,3.0
0.0,0.0,0.0,0.0
99.7,1.381,0.27,5.0
0.0,0.0,0.0,0.0
0.0,0.0,0.0,0.0
0.0,0.0,0.0,0.0
0.0,0.0,0.0,0.0
99.805,1.543,0.742,1.0
99.864,1.574,0.178,5.0
0.0,0.0,0.0,0.0
0.0,0.0,0.0,0.0
0.0,0.0,0.0,0.0
0.0,0.0,0.0,0.0
99.889,1.734,0.647,6.0
99.885,1.764,0.082,11.0
0.0,0.0,0.0,0.0
0.0,0.0,0.0,0.0
0.0,0.0,0.0,0.0
37.0,0.698,-0.81,0.0
99.921,1.922,0.548,5.0
99.971,1.954,-0.017,6.0
0.0,0.0,0.0,0.0
0.0,0.0,0.0,0.0
42.732,0.873,-0.737,0.0
0.0,0.0,0.0,0.0
100.061,2.112,0.447,4.0
100.103,2.142,-0.119,7.0
0.0,0.0,0.0,0.0
0.0,0.0,0.0,0.0
0.0,0.0,0.0,0.0
35.263,0.796,-0.845,0.0
100.265,2.301,0.341,2.0
0.0,0.0,0.0,0.0
0.0,0.0,0.0,0.0
0.0,0.0,0.0,0.0
0.0,0.0,0.0,0.0
33.278,0.812,-0.833,0.0
100.26,2.483,0.233,1.0
0.0,0.0,0.0,0.0
0.0,0.0,0.0,0.0
0.0,0.0,0.0,0.0
38.915,1.008,-0.796,0.0
32.418,0.85,-0.847,1.0
0.0,0.0,0.0,0.0
0.0,0.0,0.0,0.0
0.0,0.0,0.0,0.0
0.0,0.0,0.0,0.0
37.423,1.036,-0.808,0.0
31.602,0.884,-0.862,1.0
0.0,0.0,0.0,0.0
73.156,2.094,-0.41,5.0
0.0,0.0,0.0,0.0
42.477,1.239,-0.725,0.0
36.678,1.08,-0.834,0.0
30.74,0.914,-0.874,1.0
0.0,0.0,0.0,0.0
68.988,2.093,-0.467,4.0
0.0,0.0,0.0,0.0
41.176,1.272,-0.751,0.0
0.0,0.0,0.0,0.0
29.748,0.935,-0.881,1.0
0.0,0.0,0.0,0.0
68.852,2.206,-0.548,1.0
0.0,0.0,0.0,0.0
40.226,1.31,-0.782,0.0
32.652,1.072,-0.821,1.0
28.35,0.939,-0.874,0.0
0.0,0.0,0.0,0.0
0.0,0.0,0.0,0.0
0.0,0.0,0.0,0.0
0.0,0.0,0.0,0.0
32.305,1.115,-0.852,1.0
27.783,0.966,-0.891,0.0
0.0,0.0,0.0,0.0
0.0,0.0,0.0,0.0
0.0,0.0,0.0,0.0
37.036,1.33,-0.813,0.0
30.272,1.094,-0.837,0.0
26.301,0.958,-0.877,1.0
69.025,2.537,-0.415,2.0
0.0,0.0,0.0,0.0
0.0,0.0,0.0,0.0
35.013,1.313,-0.813,0.0
30.073,1.136,-0.87,1.0
25.12,0.955,-0.87,0.0
69.028,2.647,-0.505,1.0
0.0,0.0,0.0,0.0
0.0,0.0,0.0,0.0
33.231,1.299,-0.815,0.0
28.766,1.131,-0.869,0.0
24.726,0.979,-0.889,0.0
0.0,0.0,0.0,0.0
0.0,0.0,0.0,0.0
38.587,1.558,-0.773,0.0
32.381,1.316,-0.837,1.0
0.0,0.0,0.0,0.0
20.228,0.832,-0.754,2.0
0.0,0.0,0.0,0.0
0.0,0.0,0.0,0.0
36.815,1.543,-0.787,0.0
30.358,1.28,-0.826,0.0
20.263,0.859,-0.667,2.0
20.217,0.862,-0.781,154.0
0.0,0.0,0.0,0.0
0.0,0.0,0.0,0.0
0.0,0.0,0.0,0.0
30.0,1.309,-0.857,0.0
20.247,0.888,-0.694,153.0
20.234,0.892,-0.809,151.0
0.0,0.0,0.0,0.0
0.0,0.0,0.0,0.0
0.0,0.0,0.0,0.0
20.236,0.912,-0.606,0.0
20.187,0.915,-0.72,160.0
20.231,0.922,-0.838,63.0
0.0,0.0,0.0,0.0
38.236,1.761,-0.758,0.0
32.269,1.494,-0.824,0.0
27.881,1.297,-0.875,0.0
20.25,0.946,-0.751,150.0
20.222,0.95,-0.866,16.0
46.499,2.196,-0.722,0.0
37.047,1.758,-0.787,0.0
31.17,1.486,-0.841,0.0
26.572,1.272,-0.871,0.0
20.178,0.971,-0.777,0.0
20.215,0.977,-0.895,10.0
44.467,2.162,-0.754,0.0
35.385,1.727,-0.803,0.0
29.88,1.465,-0.849,0.0
25.612,1.261,-0.877,0.0
21.914,1.084,-0.876,0.0
20.249,1.006,-0.926,7.0
40.529,2.024,-0.747,0.0
33.776,1.693,-0.815,0.0
28.632,1.442,-0.855,0.0
24.57,1.242,-0.877,0.0
21.824,1.108,-0.905,0.0
19.327,0.985,-0.912,0.0
38.126,1.953,-0.759,0.0
32.078,1.65,-0.822,0.0
27.647,1.427,-0.867,0.0
23.923,1.24,-0.89,0.0
21.884,1.139,-0.94,0.0
18.873,0.986,-0.919,0.0
0.0,0.0,0.0,0.0
30.644,1.615,-0.831,0.0
26.353,1.394,-0.866,0.0
21.893,1.162,-0.847,0.0
0.0,0.0,0.0,0.0
18.206,0.974,-0.914,0.0
34.287,1.842,-0.785,0.0
29.292,1.579,-0.839,0.0
25.442,1.376,-0.874,0.0
21.836,1.186,-0.878,0.0
0.0,0.0,0.0,0.0
17.853,0.976,-0.923,0.0
33.139,1.82,-0.81,1.0
28.781,1.586,-0.868,1.0
24.508,1.355,-0.88,0.0
21.786,1.209,-0.91,2.0
0.0,0.0,0.0,0.0
17.209,0.961,-0.917,0.0
31.76,1.78,-0.824,0.0
27.253,1.533,-0.864,0.0
21.935,1.237,-0.821,0.0
21.528,1.219,-0.932,0.0
0.0,0.0,0.0,0.0
16.874,0.962,-0.925,0.0
30.544,1.746,-0.84,0.0
25.793,1.479,-0.858,0.0
21.873,1.258,-0.853,4.0
0.0,0.0,0.0,0.0
0.0,0.0,0.0,0.0
16.414,0.953,-0.925,0.0
29.021,1.69,-0.844,0.0
25.334,1.48,-0.882,1.0
21.81,1.278,-0.885,10.0
19.459,1.143,-0.903,0.0
0.0,0.0,0.0,0.0
16.007,0.946,-0.928,0.0
27.844,1.65,-0.853,0.0
24.184,1.438,-0.88,0.0
21.774,1.298,-0.917,2.0
0.0,0.0,0.0,0.0
17.127,1.027,-0.921,0.0
15.564,0.935,-0.926,0.0
26.737,1.611,-0.861,0.0
21.933,1.325,-0.833,1.0
20.605,1.248,-0.901,0.0
0.0,0.0,0.0,0.0
0.0,0.0,0.0,0.0
15.225,0.93,-0.931,0.0
25.471,1.559,-0.861,0.0
21.863,1.342,-0.865,9.0
19.769,1.216,-0.896,0.0
0.0,0.0,0.0,0.0
0.0,0.0,0.0,0.0
14.95,0.927,-0.938,0.0
24.54,1.525,-0.869,0.0
21.803,1.358,-0.897,7.0
19.434,1.213,-0.911,0.0
0.0,0.0,0.0,0.0
0.0,0.0,0.0,0.0
14.581,0.917,-0.938,0.0
23.694,1.492,-0.877,0.0
21.735,1.372,-0.929,0.0
0.0,0.0,0.0,0.0
0.0,0.0,0.0,0.0
0.0,0.0,0.0,0.0
14.29,0.911,-0.942,0.0
21.9,1.398,-0.845,3.0
20.311,1.299,-0.901,0.0
18.229,1.168,-0.913,0.0
0.0,0.0,0.0,0.0
15.018,0.967,-0.927,0.0
13.937,0.899,-0.941,0.0
21.82,1.41,-0.877,10.0
19.668,1.273,-0.904,0.0
17.763,1.152,-0.919,0.0
0.0,0.0,0.0,0.0
14.751,0.961,-0.934,0.0
13.675,0.893,-0.946,0.0
21.791,1.424,-0.911,3.0
19.371,1.268,-0.921,0.0
17.361,1.139,-0.926,0.0
0.0,0.0,0.0,0.0
14.296,0.941,-0.929,0.0
13.346,0.881,-0.944,0.0
21.787,1.439,-0.946,0.0
18.489,1.223,-0.909,0.0
16.805,1.114,-0.923,0.0
15.17,1.007,-0.922,0.0
14.05,0.935,-0.936,0.0
13.011,0.867,-0.942,0.0
19.731,1.316,-0.888,0.0
17.875,1.194,-0.908,0.0
16.275,1.089,-0.92,0.0
14.966,1.003,-0.934,0.0
13.874,0.932,-0.946,0.0
12.8,0.861,-0.947,0.0
19.474,1.311,-0.908,0.0
17.556,1.184,-0.919,0.0
16.08,1.086,-0.935,0.0
14.64,0.99,-0.937,0.0
13.432,0.91,-0.938,0.0
12.502,0.849,-0.945,0.0
19.122,1.298,-0.922,0.0
17.004,1.156,-0.918,0.0
15.594,1.062,-0.931,0.0
0.0,0.0,0.0,0.0
13.127,0.897,-0.937,0.0
12.228,0.837,-0.944,0.0
18.183,1.244,-0.905,0.0
16.553,1.134,-0.92,0.0
15.089,1.035,-0.925,0.0
13.885,0.954,-0.933,0.0
12.922,0.889,-0.943,0.0
11.979,0.826,-0.944,0.0
17.663,1.217,-0.908,0.0
16.175,1.116,-0.925,0.0
14.819,1.024,-0.932,0.0
13.835,0.957,-0.952,0.0
12.635,0.875,-0.942,0.0
11.715,0.813,-0.942,0.0
17.283,1.198,-0.915,0.0
15.822,1.098,-0.929,0.0
14.445,1.004,-0.932,0.0
13.34,0.929,-0.939,0.0
12.359,0.861,-0.942,0.0
11.488,0.802,-0.942,0.0
16.832,1.174,-0.918,0.0
15.311,1.069,-0.923,0.0
0.0,0.0,0.0,0.0
13.098,0.917,-0.943,0.0
12.093,0.847,-0.941,0.0
11.31,0.794,-0.945,0.0
16.35,1.146,-0.918,0.0
14.981,1.051,-0.927,0.0
0.0,0.0,0.0,0.0
12.809,0.901,-0.942,0.0
11.855,0.835,-0.941,0.0
11.101,0.783,-0.945,0.0
16.033,1.129,-0.925,0.0
14.723,1.038,-0.934,0.0
13.538,0.955,-0.937,0.0
12.491,0.882,-0.938,0.0
11.655,0.824,-0.943,0.0
10.922,0.773,-0.947,0.0
15.566,1.1,-0.922,0.0
0.0,0.0,0.0,0.0
13.255,0.939,-0.938,0.0
12.286,0.871,-0.942,0.0
11.435,0.812,-0.943,0.0
10.664,0.758,-0.942,0.0
15.183,1.077,-0.923,0.0
0.0,0.0,0.0,0.0
12.976,0.922,-0.939,0.0
12.022,0.855,-0.941,0.0
11.252,0.801,-0.946,0.0
10.48,0.747,-0.942,0.0
14.897,1.059,-0.928,0.0
13.639,0.971,-0.929,0.0
12.731,0.907,-0.94,0.0
11.816,0.842,-0.943,0.0
11.014,0.786,-0.942,0.0
10.341,0.739,-0.945,0.0
14.711,1.048,-0.939,0.0
13.533,0.965,-0.942,0.0
12.449,0.888,-0.939,0.0
11.585,0.827,-0.942,0.0
10.896,0.779,-0.949,0.0
10.164,0.727,-0.944,0.0
0.0,0.0,0.0,0.0
13.135,0.938,-0.934,0.0
12.207,0.872,-0.939,0.0
11.383,0.814,-0.943,0.0
10.628,0.761,-0.942,0.0
10.019,0.718,-0.946,1.0
0.0,0.0,0.0,0.0
12.921,0.924,-0.938,0.0
11.988,0.857,-0.94,0.0
11.177,0.8,-0.942,0.0
10.448,0.748,-0.942,0.0
9.907,0.71,-0.95,0.0
13.634,0.974,-0.932,0.0
12.669,0.906,-0.939,0.0
11.744,0.84,-0.938,0.0
10.97,0.785,-0.941,0.0
10.294,0.737,-0.943,0.0
9.72,0.696,-0.947,0.0
13.467,0.962,-0.94,0.0
12.414,0.887,-0.938,0.0
11.547,0.826,-0.94,0.0
10.791,0.772,-0.942,0.0
10.155,0.727,-0.945,0.0
9.562,0.685,-0.946,0.0
13.122,0.937,-0.935,0.0
12.188,0.87,-0.939,0.0
11.346,0.81,-0.94,0.0
10.576,0.756,-0.938,0.0
10.035,0.717,-0.948,1.0
9.422,0.674,-0.945,0.0
12.896,0.919,-0.937,0.0
11.973,0.854,-0.939,0.0
11.151,0.795,-0.939,0.0
10.449,0.746,-0.942,0.0
9.902,0.707,-0.95,0.0
9.297,0.664,-0.946,0.0
12.641,0.899,-0.936,0.0
11.754,0.836,-0.938,0.0
11.032,0.785,-0.945,0.0
10.299,0.733,-0.943,0.0
9.715,0.692,-0.946,0.0
9.169,0.653,-0.946,0.0
12.458,0.884,-0.94,0.0
11.576,0.822,-0.94,0.0
10.845,0.77,-0.944,0.0
10.145,0.72,-0.943,0.0
9.58,0.68,-0.946,0.0
9.023,0.641,-0.943,0.0
12.192,0.863,-0.937,0.0
11.398,0.807,-0.941,0.0
10.573,0.748,-0.934,0.0
10.059,0.712,-0.948,0.0
9.434,0.668,-0.944,0.0
8.911,0.631,-0.944,0.0
11.999,0.846,-0.938,0.0
11.277,0.795,-0.947,0.0
10.486,0.739,-0.941,0.0
9.886,0.697,-0.945,0.0
9.341,0.658,-0.947,0.0
8.792,0.62,-0.943,0.0
11.79,0.828,-0.937,0.0
11.013,0.773,-0.939,0.0
10.335,0.725,-0.941,0.0
9.759,0.685,-0.946,0.0
9.203,0.646,-0.945,0.0
8.691,0.61,-0.943,0.0
11.609,0.811,-0.938,0.0
10.895,0.761,-0.943,0.0
10.242,0.715,-0.946,0.0
9.617,0.671,-0.945,0.0
9.057,0.632,-0.942,0.0
8.587,0.599,-0.943,0.0
11.483,0.798,-0.942,0.0
10.629,0.738,-0.933,0.0
10.082,0.7,-0.944,0.0
9.468,0.657,-0.942,0.0
8.969,0.623,-0.944,0.0
8.467,0.588,-0.941,0.0
11.283,0.78,-0.94,0.0
10.554,0.729,-0.94,0.0
9.997,0.69,-0.948,0.0
9.368,0.647,-0.944,0.0
8.861,0.611,-0.944,0.0
8.386,0.578,-0.942,0.0
11.151,0.766,-0.942,0.0
10.408,0.714,-0.94,0.0
9.838,0.675,-0.945,0.0
9.259,0.635,-0.944,0.0
8.739,0.599,-0.942,0.0
8.291,0.568,-0.942,0.0
11.011,0.751,-0.944,0.0
10.312,0.703,-0.943,0.0
9.682,0.659,-0.942,0.0
9.139,0.622,-0.943,0.0
8.646,0.588,-0.942,0.0
8.211,0.558,-0.942,0.0
10.824,0.732,-0.94,0.0
10.173,0.688,-0.942,0.0
9.597,0.648,-0.944,0.0
9.046,0.611,-0.943,0.0
8.585,0.579,-0.945,0.0
8.147,0.55,-0.944,0.0
10.676,0.716,-0.939,0.0
10.084,0.676,-0.945,0.0
9.462,0.634,-0.942,0.0
8.943,0.599,-0.943,0.0
8.493,0.568,-0.944,0.0
8.056,0.539,-0.943,0.0
10.514,0.699,-0.937,0.0
9.948,0.661,-0.943,0.0
9.393,0.624,-0.945,0.0
8.828,0.586,-0.94,0.0
8.425,0.559,-0.946,0.0
8.003,0.53,-0.945,0.0
10.431,0.688,-0.94,0.0
9.835,0.648,-0.943,0.0
9.275,0.61,-0.943,0.0
8.756,0.576,-0.942,0.0
8.296,0.545,-0.94,0.0
7.926,0.52,-0.944,0.0
10.325,0.674,-0.941,0.0
9.713,0.633,-0.941,0.0
9.17,0.597,-0.942,0.0
8.65,0.563,-0.939,0.0
8.251,0.536,-0.944,0.0
7.856,0.51,-0.944,0.0
10.237,0.661,-0.944,0.0
9.616,0.62,-0.942,0.0
9.072,0.585,-0.941,0.0
8.604,0.554,-0.943,0.0
8.151,0.524,-0.94,0.0
7.793,0.501,-0.944,0.0
10.129,0.647,-0.943,0.0
9.522,0.607,-0.942,0.0
8.98,0.572,-0.94,0.0
8.537,0.543,-0.943,0.0
8.072,0.513,-0.939,0.0
7.753,0.492,-0.947,0.0
10.021,0.633,-0.943,0.0
9.466,0.597,-0.945,0.0
8.894,0.56,-0.939,0.0
8.445,0.531,-0.941,0.0
8.035,0.505,-0.942,0.0
7.699,0.483,-0.947,0.0
9.915,0.618,-0.942,0.0
9.332,0.581,-0.94,0.0
8.829,0.549,-0.94,0.0
8.37,0.52,-0.94,0.0
7.984,0.495,-0.943,0.0
7.646,0.474,-0.947,0.0
9.835,0.605,-0.942,0.0
9.261,0.569,-0.94,0.0
8.754,0.537,-0.939,0.0
8.324,0.51,-0.942,0.0
7.947,0.486,-0.945,0.0
7.614,0.466,-0.95,0.0
9.761,0.593,-0.943,0.0
9.228,0.56,-0.945,0.0
8.709,0.527,-0.941,0.0
8.273,0.5,-0.943,0.0
7.885,0.476,-0.944,0.0
7.538,0.454,-0.946,0.0
9.678,0.58,-0.943,0.0
9.138,0.546,-0.942,0.0
8.647,0.516,-0.941,0.0
8.218,0.49,-0.943,0.0
7.835,0.466,-0.944,0.0
7.52,0.447,-0.95,0.0
9.59,0.566,-0.941,0.0
9.069,0.534,-0.942,0.0
8.562,0.503,-0.939,0.0
8.14,0.478,-0.94,0.0
7.814,0.458,-0.947,0.0
7.455,0.436,-0.947,0.0
9.502,0.552,-0.939,0.0
8.988,0.521,-0.94,0.0
8.51,0.492,-0.939,0.0
8.12,0.469,-0.943,0.0
7.74,0.446,-0.944,0.0
7.428,0.428,-0.948,0.0
9.453,0.54,-0.941,0.0
8.932,0.51,-0.94,0.0
8.471,0.482,-0.94,0.0
8.041,0.457,-0.939,0.0
7.691,0.436,-0.943,0.0
7.356,0.416,-0.944,0.0
9.399,0.528,-0.941,0.0
8.88,0.498,-0.94,0.0
8.397,0.47,-0.937,0.0
7.999,0.447,-0.939,0.0
7.672,0.428,-0.945,0.0
7.362,0.41,-0.949,0.0
9.328,0.515,-0.94,0.0
8.823,0.486,-0.939,0.0
8.377,0.461,-0.94,0.0
7.984,0.438,-0.942,0.0
7.661,0.419,-0.948,0.0
7.304,0.399,-0.946,0.0
9.307,0.505,-0.943,0.0
8.785,0.475,-0.94,0.0
8.379,0.452,-0.944,0.0
7.928,0.427,-0.94,0.0
7.632,0.41,-0.948,0.0
7.285,0.39,-0.947,0.0
9.259,0.493,-0.943,0.0
8.738,0.464,-0.939,0.0
8.31,0.44,-0.941,0.0
7.944,0.42,-0.946,0.0
7.569,0.399,-0.944,0.0
7.28,0.383,-0.95,0.0
9.189,0.479,-0.94,0.0
8.69,0.452,-0.938,0.0
8.275,0.429,-0.94,0.0
7.888,0.408,-0.942,0.0
7.57,0.391,-0.948,0.0
7.244,0.373,-0.948,0.0
9.162,0.468,-0.941,0.0
8.673,0.442,-0.94,0.0
8.234,0.418,-0.939,0.0
7.888,0.4,-0.945,0.0
7.532,0.381,-0.946,0.0
7.22,0.364,-0.948,0.0
9.141,0.457,-0.942,0.0
8.652,0.432,-0.941,0.0
8.249,0.41,-0.944,0.0
7.848,0.389,-0.944,0.0
7.539,0.373,-0.949,0.0
7.218,0.356,-0.95,0.0
9.078,0.444,-0.938,0.0
8.6,0.42,-0.938,0.0
8.202,0.399,-0.941,0.0
7.819,0.379,-0.942,0.0
7.49,0.362,-0.946,0.0
7.214,0.348,-0.952,0.0
9.071,0.434,-0.94,0.0
8.619,0.411,-0.942,0.0
8.197,0.39,-0.943,0.0
7.831,0.371,-0.946,0.0
7.465,0.352,-0.944,0.0
7.197,0.339,-0.952,0.0
9.07,0.424,-0.942,0.0
8.596,0.4,-0.942,0.0
8.165,0.379,-0.941,0.0
7.781,0.36,-0.942,0.0
7.477,0.344,-0.947,0.0
7.171,0.329,-0.95,0.0
9.017,0.411,-0.939,0.0
8.567,0.389,-0.94,0.0
8.133,0.368,-0.939,0.0
7.766,0.35,-0.941,0.0
7.478,0.336,-0.949,0.0
7.173,0.321,-0.951,0.0
9.002,0.4,-0.938,0.0
8.571,0.379,-0.942,0.0
8.11,0.358,-0.937,0.0
7.763,0.341,-0.942,0.0
7.477,0.327,-0.95,0.0
7.177,0.313,-0.952,0.0
9.028,0.391,-0.942,0.0
8.533,0.368,-0.939,0.0
8.141,0.35,-0.941,0.0
7.728,0.33,-0.938,0.0
7.481,0.319,-0.951,0.0
7.163,0.304,-0.951,0.0
9.01,0.379,-0.941,0.0
8.521,0.357,-0.938,0.0
8.12,0.339,-0.939,0.0
7.779,0.324,-0.945,0.0
7.44,0.308,-0.946,0.0
7.121,0.294,-0.946,0.0
8.98,0.368,-0.938,0.0
8.581,0.35,-0.944,0.0
8.16,0.331,-0.944,0.0
7.746,0.313,-0.941,0.0
7.42,0.299,-0.943,0.0
7.18,0.288,-0.953,0.0
9.007,0.358,-0.94,0.0
8.551,0.338,-0.941,0.0
8.136,0.32,-0.941,0.0
7.753,0.304,-0.941,0.0
7.443,0.291,-0.946,0.0
7.153,0.278,-0.949,0.0
9.004,0.347,-0.939,0.0
8.565,0.329,-0.942,0.0
8.13,0.31,-0.94,0.0
7.777,0.296,-0.943,0.0
7.46,0.282,-0.947,0.0
7.155,0.27,-0.949,0.0
9.031,0.337,-0.941,0.0
8.568,0.319,-0.941,0.0
8.129,0.301,-0.938,0.0
7.773,0.286,-0.942,0.0
7.437,0.272,-0.943,0.0
7.147,0.261,-0.947,0.0
9.04,0.327,-0.941,0.0
8.569,0.308,-0.94,0.0
8.187,0.293,-0.944,0.0
7.767,0.277,-0.94,0.0
7.467,0.264,-0.945,0.0
7.158,0.252,-0.947,0.0
9.052,0.316,-0.94,0.0
8.574,0.298,-0.938,0.0
8.192,0.283,-0.942,0.0
7.823,0.269,-0.945,0.0
7.529,0.258,-0.951,0.0
7.189,0.245,-0.949,0.0
9.084,0.307,-0.941,0.0
8.648,0.29,-0.944,0.0
8.221,0.274,-0.943,0.0
7.84,0.26,-0.944,0.0
7.536,0.249,-0.95,0.0
7.209,0.237,-0.949,0.0
9.079,0.295,-0.938,0.0
8.688,0.281,-0.946,0.0
8.221,0.265,-0.941,0.0
7.833,0.25,-0.941,0.0
7.534,0.239,-0.947,0.0
7.257,0.229,-0.953,0.0
9.151,0.287,-0.942,0.0
8.655,0.269,-0.939,0.0
8.238,0.255,-0.94,0.0
7.834,0.241,-0.938,0.0
7.556,0.231,-0.947,0.0
7.276,0.221,-0.953,0.0
9.163,0.276,-0.94,0.0
8.69,0.26,-0.939,0.0
8.283,0.246,-0.942,0.0
7.89,0.233,-0.942,0.0
7.528,0.221,-0.94,0.0
7.28,0.212,-0.95,0.0
9.228,0.267,-0.942,0.0
8.706,0.25,-0.937,0.0
8.284,0.236,-0.938,0.0
7.906,0.224,-0.94,0.0
7.604,0.214,-0.946,0.0
7.294,0.204,-0.949,0.0
9.259,0.257,-0.941,0.0
8.742,0.241,-0.937,0.0
8.366,0.229,-0.943,0.0
7.918,0.215,-0.937,0.0
7.64,0.206,-0.947,0.0
7.336,0.196,-0.95,0.0
9.292,0.246,-0.939,0.0
8.824,0.232,-0.941,0.0
8.344,0.218,-0.936,0.0
8.001,0.207,-0.943,0.0
7.645,0.196,-0.943,0.0
7.338,0.187,-0.946,0.0
9.376,0.237,-0.942,0.0
8.875,0.223,-0.941,0.0
8.431,0.21,-0.941,0.0
8.022,0.198,-0.94,0.0
7.689,0.188,-0.944,0.0
7.395,0.18,-0.949,0.0
9.421,0.227,-0.941,0.0
8.948,0.214,-0.943,0.0
8.53,0.202,-0.946,0.0
8.089,0.19,-0.943,0.0
7.75,0.181,-0.946,0.0
7.439,0.172,-0.95,0.0
9.531,0.218,-0.946,0.0
8.981,0.204,-0.941,0.0
8.555,0.193,-0.943,0.0
8.111,0.181,-0.94,0.0
7.779,0.172,-0.944,0.0
7.47,0.164,-0.948,0.0
9.606,0.209,-0.947,0.0
9.064,0.195,-0.943,0.0
8.571,0.183,-0.939,0.0
8.207,0.173,-0.945,0.0
7.835,0.164,-0.945,0.0
7.508,0.156,-0.948,0.0
9.64,0.198,-0.943,0.0
9.128,0.186,-0.942,0.0
8.656,0.174,-0.941,0.0
8.204,0.164,-0.938,0.0
7.897,0.156,-0.947,0.0
7.547,0.148,-0.946,0.0
9.736,0.189,-0.944,0.0
9.205,0.177,-0.943,0.0
8.715,0.166,-0.941,0.0
8.265,0.155,-0.938,0.0
7.926,0.147,-0.943,0.0
7.632,0.14,-0.951,0.0
9.831,0.179,-0.945,0.0
9.317,0.168,-0.947,0.0
8.797,0.157,-0.942,0.0
8.333,0.147,-0.939,0.0
7.992,0.139,-0.944,0.0
7.651,0.132,-0.946,0.0
9.922,0.17,-0.945,0.0
9.361,0.158,-0.943,0.0
8.871,0.148,-0.942,0.0
8.438,0.139,-0.943,0.0
8.004,0.131,-0.938,0.0
7.691,0.124,-0.944,0.0
10.019,0.16,-0.945,0.0
9.443,0.149,-0.942,0.0
8.961,0.14,-0.943,0.0
8.492,0.131,-0.941,0.0
8.083,0.123,-0.94,0.0
7.764,0.116,-0.945,0.0
10.168,0.151,-0.949,0.0
9.57,0.14,-0.945,0.0
9.044,0.131,-0.943,0.0
8.592,0.123,-0.943,0.0
8.174,0.115,-0.942,0.0
7.839,0.109,-0.946,0.0
10.242,0.141,-0.946,0.0
9.658,0.131,-0.944,0.0
9.104,0.122,-0.94,0.0
8.685,0.114,-0.945,0.0
8.261,0.107,-0.943,0.0
7.89,0.101,-0.944,0.0
10.327,0.131,-0.943,0.0
9.789,0.122,-0.947,0.0
9.243,0.114,-0.944,0.0
8.738,0.106,-0.941,0.0
8.346,0.099,-0.944,0.0
7.954,0.093,-0.943,0.0
10.473,0.122,-0.945,0.0
9.899,0.113,-0.947,0.0
9.333,0.105,-0.943,0.0
8.836,0.098,-0.942,0.0
8.394,0.091,-0.94,0.0
8.023,0.085,-0.942,0.0
10.629,0.112,-0.947,0.0
10.011,0.104,-0.946,0.0
9.503,0.097,-0.949,0.0
8.936,0.089,-0.942,0.0
8.529,0.084,-0.945,0.0
8.157,0.078,-0.948,0.0
10.805,0.103,-0.95,0.0
10.145,0.095,-0.947,0.0
9.61,0.088,-0.949,0.0
9.044,0.081,-0.943,0.0
8.633,0.076,-0.946,0.0
8.21,0.071,-0.945,0.0
20.259,0.174,-1.757,0.0
10.268,0.086,-0.946,0.0
9.71,0.079,-0.947,0.0
9.166,0.073,-0.944,0.0
8.698,0.068,-0.943,0.0
8.297,0.063,-0.944,0.0
11.157,0.084,-0.953,0.0
10.406,0.077,-0.945,0.0
9.847,0.071,-0.947,0.0
9.302,0.065,-0.946,0.0
8.811,0.06,-0.944,0.0
8.404,0.056,-0.945,0.0
11.304,0.074,-0.951,0.0
10.621,0.068,-0.951,0.0
9.983,0.062,-0.947,0.0
9.442,0.057,-0.948,0.0
8.948,0.052,-0.946,0.0
8.507,0.048,-0.946,0.0
11.426,0.064,-0.947,0.0
10.709,0.059,-0.945,0.0
10.087,0.053,-0.944,0.0
9.563,0.049,-0.947,0.0
9.049,0.044,-0.945,0.0
8.61,0.041,-0.945,0.0
11.552,0.055,-0.942,0.0
20.113,0.092,-1.747,0.0
10.292,0.045,-0.949,0.0
9.721,0.041,-0.949,0.0
9.213,0.037,-0.949,0.0
8.71,0.033,-0.944,0.0
11.819,0.045,-0.947,0.0
11.11,0.041,-0.949,0.0
10.432,0.036,-0.947,0.0
9.873,0.033,-0.95,0.0
9.332,0.029,-0.948,0.0
8.825,0.026,-0.944,0.0
12.1,0.036,-0.952,0.0
11.313,0.031,-0.95,0.0
10.623,0.028,-0.949,0.0
10.002,0.024,-0.948,0.0
9.456,0.021,-0.947,0.0
8.97,0.019,-0.946,0.0
12.317,0.026,-0.951,0.0
11.492,0.022,-0.948,0.0
10.759,0.019,-0.945,0.0
10.194,0.016,-0.951,0.0
9.637,0.014,-0.95,0.0
9.138,0.012,-0.95,0.0
12.56,0.016,-0.951,0.0
11.647,0.013,-0.944,0.0
10.333,0.008,-0.948,0.0
9.85,0.006,-0.956,0.0
9.246,0.004,-0.947,0.0
12.825,0.006,-0.951,0.0
11.941,0.004,-0.949,0.0
10.558,0.0,-0.952,0.0
9.933,-0.001,-0.949,0.0
9.433,-0.002,-0.951,0.0
13.12,-0.003,-0.953,0.0
12.228,-0.005,-0.953,0.0
11.37,-0.006,-0.946,0.0
10.675,-0.007,-0.946,0.0
10.16,-0.008,-0.954,0.0
9.598,-0.009,-0.953,0.0
12.455,-0.014,-0.95,0.0
11.649,-0.015,-0.95,0.0
20.02,-0.028,-1.742,0.0
10.33,-0.016,-0.953,0.0
9.728,-0.017,-0.949,0.0
12.733,-0.023,-0.951,0.0
11.879,-0.023,-0.95,0.0
11.119,-0.023,-0.949,0.0
10.499,-0.024,-0.952,0.0
9.952,-0.024,-0.955,0.0
13.064,-0.033,-0.954,0.0
12.168,-0.032,-0.953,0.0
11.366,-0.031,-0.951,0.0
10.62,-0.031,-0.945,0.0
10.07,-0.031,-0.949,0.0
12.469,-0.041,-0.955,0.0
11.623,-0.04,-0.953,0.0
10.989,-0.039,-0.959,0.0
10.293,-0.038,-0.952,0.0
14.744,-0.054,-0.949,0.0
12.714,-0.049,-0.952,0.0
11.858,-0.048,-0.951,0.0
11.175,-0.046,-0.956,0.0
10.487,-0.045,-0.952,0.0
15.103,-0.064,-0.946,0.0
13.098,-0.059,-0.958,0.0
12.177,-0.056,-0.956,0.0
11.367,-0.054,-0.952,0.0
10.715,-0.052,-0.954,0.0
15.541,-0.074,-0.946,0.0
14.442,-0.071,-0.955,0.0
13.357,-0.067,-0.953,0.0
12.468,-0.064,-0.956,0.0
11.573,-0.061,-0.948,0.0
10.992,-0.059,-0.959,0.0
16.049,-0.085,-0.948,0.0
14.758,-0.08,-0.949,0.0
20.19,-0.112,-1.404,0.0
12.761,-0.072,-0.956,0.0
11.907,-0.069,-0.954,0.0
11.144,-0.065,-0.951,0.0
16.488,-0.096,-0.944,0.0
15.16,-0.09,-0.947,0.0
14.011,-0.084,-0.949,0.0
13.118,-0.08,-0.958,0.0
12.21,-0.076,-0.956,0.0
11.413,-0.072,-0.954,0.0
16.926,-0.106,-0.938,0.0
15.612,-0.1,-0.947,0.0
14.469,-0.094,-0.953,0.0
13.366,-0.088,-0.952,0.0
12.517,-0.083,-0.957,0.0
11.677,-0.079,-0.954,0.0
16.159,-0.11,-0.95,0.0
14.832,-0.102,-0.95,0.0
13.887,-0.097,-0.963,0.0
12.847,-0.091,-0.958,0.0
12.036,-0.086,-0.961,0.0
18.146,-0.129,-0.939,0.0
16.652,-0.12,-0.948,0.0
15.292,-0.111,-0.95,0.0
14.003,-0.103,-0.944,0.0
13.195,-0.098,-0.959,0.0
12.328,-0.093,-0.96,0.0
18.656,-0.139,-0.93,1.0
17.097,-0.129,-0.941,0.0
15.757,-0.12,-0.949,0.0
14.595,-0.112,-0.956,0.0
13.45,-0.105,-0.952,0.0
12.626,-0.099,-0.959,0.0
17.667,-0.139,-0.938,0.0
16.327,-0.129,-0.952,0.0
14.953,-0.12,-0.951,0.0
13.912,-0.112,-0.957,0.0
12.996,-0.106,-0.962,0.0
20.267,-0.164,-0.931,41.0
18.371,-0.15,-0.939,0.0
16.781,-0.138,-0.945,0.0
15.474,-0.128,-0.954,0.0
14.253,-0.119,-0.953,0.0
13.275,-0.112,-0.956,0.0
20.298,-0.169,-0.893,23.0
18.814,-0.158,-0.925,0.0
17.366,-0.147,-0.944,0.0
15.922,-0.135,-0.95,0.0
14.739,-0.126,-0.956,0.0
13.767,-0.119,-0.965,0.0
22.664,-0.194,-0.952,1.0
20.175,-0.173,-0.952,3.0
18.0,-0.156,-0.943,0.0
16.535,-0.144,-0.954,0.0
15.181,-0.133,-0.955,0.0
14.01,-0.123,-0.954,0.0
22.725,-0.198,-0.91,14.0
20.294,-0.178,-0.918,77.0
18.549,-0.163,-0.935,1.0
16.982,-0.15,-0.946,0.0
15.647,-0.139,-0.953,0.0
14.524,-0.13,-0.96,0.0
24.554,-0.218,-0.934,9.0
20.266,-0.181,-0.876,2.0
19.319,-0.173,-0.935,0.0
17.624,-0.158,-0.946,0.0
16.281,-0.147,-0.959,0.0
14.874,-0.135,-0.953,0.0
20.218,-0.181,-0.729,19.0
22.721,-0.205,-0.937,19.0
20.295,-0.183,-0.942,29.0
18.234,-0.165,-0.942,0.0
16.741,-0.152,-0.952,0.0
15.385,-0.14,-0.954,0.0
20.215,-0.183,-0.688,33.0
22.742,-0.206,-0.892,4.0
20.27,-0.184,-0.9,28.0
18.774,-0.171,-0.932,0.0
17.264,-0.158,-0.947,0.0
15.868,-0.145,-0.952,0.0
20.21,-0.183,-0.647,39.0
24.564,-0.223,-0.914,1.0
22.701,-0.207,-0.962,2.0
20.085,-0.183,-0.956,3.0
17.887,-0.164,-0.944,0.0
16.51,-0.151,-0.957,0.0
20.201,-0.183,-0.605,41.0
20.223,-0.183,-0.71,28.0
22.731,-0.207,-0.916,25.0
20.284,-0.185,-0.924,67.0
18.547,-0.169,-0.941,1.0
16.985,-0.155,-0.949,0.0
20.191,-0.182,-0.564,41.0
20.211,-0.182,-0.668,33.0
24.563,-0.222,-0.939,3.0
20.255,-0.183,-0.881,2.0
19.354,-0.175,-0.942,0.0
17.589,-0.159,-0.947,0.0
20.175,-0.18,-0.521,36.0
20.197,-0.18,-0.626,39.0
20.205,-0.18,-0.731,18.0
22.711,-0.203,-0.941,16.0
20.264,-0.181,-0.944,28.0
18.3,-0.163,-0.947,0.0
20.187,-0.178,-0.48,29.0
20.191,-0.178,-0.584,37.0
20.216,-0.178,-0.689,30.0
22.723,-0.2,-0.894,2.0
20.278,-0.178,-0.902,26.0
18.77,-0.164,-0.932,0.0
20.184,-0.175,-0.438,29.0
20.189,-0.174,-0.542,36.0
20.21,-0.174,-0.646,34.0
24.57,-0.211,-0.915,11.0
22.691,-0.195,-0.963,1.0
20.182,-0.173,-0.96,3.0
20.191,-0.171,-0.396,29.0
20.178,-0.17,-0.5,30.0
20.189,-0.17,-0.604,37.0
20.216,-0.17,-0.711,23.0
22.658,-0.189,-0.914,4.0
20.285,-0.169,-0.923,63.0
20.173,-0.166,-0.354,27.0
20.189,-0.165,-0.458,27.0
20.188,-0.165,-0.562,37.0
20.203,-0.164,-0.669,30.0
24.518,-0.199,-0.938,10.0
20.292,-0.164,-0.881,1.0
20.176,-0.16,-0.312,27.0
20.163,-0.16,-0.416,29.0
20.176,-0.159,-0.52,35.0
20.199,-0.158,-0.627,33.0
20.217,-0.158,-0.732,1.0
22.602,-0.175,-0.935,23.0
20.167,-0.154,-0.27,29.0
20.168,-0.153,-0.374,28.0
20.174,-0.152,-0.478,28.0
20.187,-0.151,-0.584,37.0
20.202,-0.151,-0.689,14.0
22.61,-0.167,-0.888,7.0
20.149,-0.147,-0.228,18.0
20.155,-0.146,-0.332,29.0
20.166,-0.145,-0.436,31.0
20.173,-0.144,-0.542,35.0
20.213,-0.143,-0.647,25.0
24.839,-0.174,-0.924,0.0
20.161,-0.139,-0.186,15.0
20.138,-0.138,-0.29,30.0
20.152,-0.137,-0.394,32.0
20.164,-0.136,-0.5,28.0
20.192,-0.135,-0.605,27.0
20.166,-0.131,-0.145,23.0
20.155,-0.129,-0.248,28.0
20.141,-0.128,-0.351,33.0
20.153,-0.126,-0.458,33.0
20.195,-0.125,-0.563,29.0
28.089,-0.172,-0.928,3.0
20.17,-0.121,-0.103,25.0
20.142,-0.12,-0.206,15.0
20.148,-0.118,-0.31,35.0
20.142,-0.116,-0.415,36.0
20.185,-0.115,-0.52,28.0
20.206,-0.114,-0.625,2.0
20.156,-0.111,-0.06,27.0
20.16,-0.11,-0.165,28.0
20.133,-0.108,-0.268,33.0
20.144,-0.106,-0.374,34.0
20.166,-0.105,-0.478,33.0
20.19,-0.103,-0.583,6.0
20.138,-0.1,-0.019,34.0
20.158,-0.099,-0.123,28.0
20.16,-0.097,-0.227,21.0
20.141,-0.095,-0.332,36.0
20.158,-0.093,-0.437,34.0
20.191,-0.091,-0.542,13.0
20.137,-0.089,0.021,33.0
20.144,-0.087,-0.082,29.0
20.141,-0.085,-0.185,34.0
20.144,-0.083,-0.291,34.0
20.157,-0.081,-0.395,26.0
20.174,-0.079,-0.499,16.0
20.132,-0.076,0.063,42.0
20.138,-0.074,-0.04,28.0
20.144,-0.072,-0.144,34.0
20.131,-0.07,-0.25,28.0
20.153,-0.068,-0.354,23.0
20.171,-0.066,-0.459,18.0
20.128,-0.063,0.104,40.0
20.125,-0.061,0.0,36.0
20.138,-0.059,-0.103,30.0
20.15,-0.057,-0.209,22.0
20.159,-0.055,-0.313,26.0
20.166,-0.052,-0.418,15.0
20.126,-0.05,0.144,34.0
20.141,-0.047,0.041,39.0
20.137,-0.045,-0.062,29.0
20.148,-0.043,-0.168,32.0
20.154,-0.04,-0.272,25.0
20.163,-0.038,-0.376,9.0
20.12,-0.035,0.185,37.0
20.137,-0.033,0.081,42.0
20.128,-0.03,-0.021,32.0
20.147,-0.028,-0.128,29.0
20.163,-0.025,-0.232,6.0
20.174,-0.023,-0.336,6.0
20.122,-0.02,0.226,30.0
20.114,-0.017,0.122,31.0
20.156,-0.015,0.018,23.0
20.152,-0.012,-0.087,19.0
20.166,-0.009,-0.192,10.0
20.208,-0.007,-0.296,2.0
20.121,-0.004,0.266,26.0
20.123,-0.001,0.162,28.0
20.154,0.0,0.058,28.0
20.269,0.003,-0.048,80.0
20.271,0.006,-0.152,80.0
20.275,0.009,-0.257,83.0
20.121,0.012,0.306,28.0
20.126,0.014,0.202,27.0
20.13,0.017,0.098,30.0
20.243,0.02,-0.007,152.0
20.258,0.023,-0.112,151.0
20.258,0.026,-0.217,151.0
20.13,0.029,0.346,28.0
20.131,0.032,0.241,27.0
20.129,0.035,0.137,27.0
20.263,0.038,0.031,10.0
20.273,0.041,-0.073,32.0
20.245,0.044,-0.177,23.0
20.137,0.047,0.386,29.0
20.14,0.05,0.281,28.0
20.142,0.053,0.177,27.0
20.129,0.056,0.07,20.0
20.216,0.06,-0.033,28.0
20.215,0.063,-0.138,25.0
20.152,0.066,0.425,33.0
20.138,0.069,0.32,26.0
20.142,0.072,0.216,27.0
20.142,0.076,0.11,26.0
20.203,0.079,0.005,32.0
20.198,0.083,-0.099,28.0
20.164,0.085,0.464,28.0
20.144,0.089,0.359,27.0
20.145,0.092,0.254,27.0
20.148,0.095,0.148,26.0
20.184,0.099,0.043,35.0
20.183,0.103,-0.06,36.0
20.17,0.106,0.503,24.0
20.168,0.109,0.398,28.0
20.153,0.112,0.293,27.0
20.159,0.116,0.186,26.0
20.184,0.119,0.081,35.0
20.174,0.123,-0.022,27.0
20.181,0.126,0.541,20.0
20.169,0.13,0.436,24.0
20.171,0.133,0.331,25.0
20.161,0.137,0.224,24.0
20.184,0.141,0.119,26.0
20.193,0.144,0.014,25.0
20.202,0.148,0.579,14.0
20.154,0.151,0.473,19.0
20.176,0.155,0.368,24.0
20.185,0.159,0.261,24.0
20.192,0.163,0.156,22.0
20.241,0.167,0.051,24.0
20.285,0.171,0.619,8.0
20.235,0.174,0.512,24.0
20.25,0.178,0.406,26.0
20.275,0.182,0.299,28.0
20.297,0.186,0.194,27.0
20.32,0.19,0.088,34.0
103.273,0.986,3.338,30.0
20.261,0.197,0.549,23.0
20.274,0.201,0.444,31.0
20.271,0.205,0.336,31.0
20.287,0.209,0.23,27.0
20.294,0.213,0.125,28.0
103.118,1.103,3.52,17.0
20.266,0.221,0.586,14.0
20.267,0.224,0.48,26.0
20.263,0.228,0.372,32.0
20.287,0.233,0.266,24.0
20.292,0.237,0.16,18.0
117.876,1.401,4.233,11.0
140.222,1.694,4.302,17.0
20.28,0.249,0.516,26.0
20.28,0.253,0.408,25.0
20.291,0.257,0.302,18.0
20.296,0.261,0.196,1.0
117.845,1.542,4.437,24.0
118.252,1.572,3.834,23.0
20.28,0.274,0.551,2.0
20.277,0.278,0.443,4.0
20.296,0.282,0.337,0.0
0.0,0.0,0.0,0.0
117.789,1.687,4.637,23.0
118.476,1.722,4.043,22.0
157.171,2.317,4.54,34.0
196.314,2.937,4.623,28.0
194.988,2.959,3.57,27.0
195.723,3.013,2.56,5.0
117.682,1.835,4.833,33.0
133.187,2.104,4.769,3.0
157.133,2.517,4.803,6.0
197.054,3.2,4.971,10.0
194.734,3.204,3.891,11.0
194.801,3.248,2.87,28.0
148.016,2.498,6.325,3.0
118.491,2.026,4.441,2.0
0.0,0.0,0.0,0.0
0.0,0.0,0.0,0.0
194.758,3.459,4.21,8.0
194.605,3.499,3.185,21.0
102.941,1.873,4.567,5.0
118.47,2.181,4.632,8.0
148.65,2.77,5.031,4.0
0.0,0.0,0.0,0.0
194.685,3.717,4.522,8.0
195.219,3.771,3.508,6.0
118.845,2.322,5.466,8.0
103.034,2.036,4.194,4.0
148.585,2.97,5.266,3.0
0.0,0.0,0.0,0.0
194.945,3.987,4.838,16.0
194.246,4.016,3.796,6.0
118.254,2.472,5.625,8.0
124.446,2.63,5.262,9.0
132.973,2.84,4.921,3.0
0.0,0.0,0.0,0.0
194.909,4.254,5.138,22.0
194.146,4.282,4.094,24.0
69.263,1.544,3.401,2.0
112.106,2.525,4.913,2.0
102.679,2.336,3.957,2.0
0.0,0.0,0.0,0.0
194.735,4.523,5.428,15.0
194.187,4.556,4.388,23.0
103.78,2.46,5.255,8.0
116.224,2.782,5.268,2.0
102.697,2.481,4.111,7.0
0.0,0.0,0.0,0.0
194.781,4.801,5.72,10.0
194.198,4.831,4.674,32.0
103.87,2.611,5.413,15.0
102.831,2.608,4.813,4.0
102.506,2.625,4.255,4.0
0.0,0.0,0.0,0.0
0.0,0.0,0.0,0.0
194.363,5.117,4.961,23.0
103.726,2.757,5.555,7.0
103.095,2.765,4.974,7.0
120.259,3.254,5.164,6.0
193.803,5.291,7.273,5.0
193.18,5.322,6.226,23.0
194.434,5.405,5.236,20.0
69.081,1.938,3.798,3.0
103.411,2.927,5.136,10.0
0.0,0.0,0.0,0.0
102.869,2.961,4.004,4.0
0.0,0.0,0.0,0.0
196.065,5.74,5.549,6.0
69.169,2.044,3.898,3.0
103.78,3.093,5.297,12.0
101.943,3.062,4.66,2.0
193.778,5.869,7.806,10.0
193.794,5.916,6.776,22.0
194.238,5.977,5.757,6.0
69.166,2.148,3.991,2.0
103.546,3.241,5.422,7.0
117.939,3.719,5.545,4.0
193.613,6.154,8.053,20.0
193.694,6.204,7.025,17.0
196.04,6.327,6.064,6.0
103.749,3.379,6.122,7.0
103.314,3.39,5.543,2.0
104.151,3.442,5.031,2.0
196.106,6.529,8.406,17.0
194.008,6.508,7.28,21.0
193.497,6.538,6.229,20.0
67.463,2.299,4.065,3.0
118.672,4.075,6.515,2.0
196.567,6.797,9.74,9.0
196.299,6.838,8.658,7.0
193.636,6.794,7.507,19.0
195.345,6.904,6.529,5.0
103.613,3.694,6.372,6.0
103.603,3.718,5.816,1.0
104.358,3.772,5.298,1.0
197.211,7.178,8.938,5.0
194.716,7.137,7.783,5.0
193.437,7.138,6.698,17.0
68.526,2.551,4.297,8.0
202.53,7.591,11.612,7.0
196.166,7.4,10.194,7.0
104.278,3.96,4.848,3.0
197.793,7.56,8.136,12.0
193.588,7.448,6.926,5.0
53.435,2.073,3.412,1.0
103.595,4.044,6.058,3.0
194.988,7.662,10.355,21.0
194.567,7.695,9.266,8.0
195.24,7.77,8.25,12.0
0.0,0.0,0.0,0.0
69.029,2.788,4.485,5.0
67.412,2.739,4.017,3.0
194.869,7.967,10.563,16.0
194.267,7.992,9.466,20.0
195.088,8.076,8.456,9.0
194.561,8.103,7.387,8.0
69.368,2.913,4.583,2.0
67.29,2.843,4.083,5.0
195.203,8.296,10.79,13.0
194.076,8.298,9.662,24.0
193.174,8.307,8.577,9.0
0.0,0.0,0.0,0.0
67.709,2.952,4.544,5.0
67.334,2.952,4.154,2.0
195.926,8.638,11.029,22.0
194.009,8.604,9.855,25.0
193.49,8.63,8.783,16.0
194.754,8.736,7.791,22.0
69.616,3.148,4.742,1.0
68.74,3.125,4.309,2.0
196.137,8.966,11.234,12.0
194.68,8.947,10.077,27.0
192.994,8.917,8.947,26.0
193.222,8.978,7.915,16.0
47.369,2.219,3.272,1.0
204.473,9.628,13.013,17.0
196.24,9.288,11.425,21.0
0.0,0.0,0.0,0.0
192.999,9.232,9.126,25.0
193.08,9.286,8.087,20.0
47.474,2.301,3.322,1.0
0.0,0.0,0.0,0.0
0.0,0.0,0.0,0.0
194.282,9.56,10.412,21.0
193.099,9.552,9.303,22.0
193.002,9.595,8.253,18.0
47.632,2.386,3.375,1.0
205.835,10.365,13.468,6.0
0.0,0.0,0.0,0.0
195.188,9.926,10.63,23.0
193.537,9.891,9.488,29.0
193.151,9.92,8.422,16.0
65.48,3.389,4.696,1.0
67.064,3.487,4.444,2.0
205.555,10.741,12.502,6.0
194.737,10.223,10.765,20.0
193.864,10.225,9.66,21.0
192.806,10.219,8.561,23.0
242.052,12.927,17.552,18.0
0.0,0.0,0.0,0.0
0.0,0.0,0.0,0.0
195.091,10.563,10.935,15.0
193.861,10.544,9.809,22.0
0.0,0.0,0.0,0.0
242.525,13.357,17.774,17.0
0.0,0.0,0.0,0.0
0.0,0.0,0.0,0.0
195.258,10.895,11.088,25.0
193.543,10.848,9.936,26.0
194.039,10.924,8.902,8.0
47.443,2.691,3.511,7.0
206.183,11.747,14.13,6.0
0.0,0.0,0.0,0.0
195.84,11.251,11.257,7.0
193.558,11.169,10.069,19.0
193.758,11.23,9.023,8.0
46.965,2.742,3.507,1.0
206.483,12.106,14.289,9.0
0.0,0.0,0.0,0.0
0.0,0.0,0.0,0.0
194.11,11.521,10.223,24.0
194.096,11.569,9.162,15.0
243.806,14.64,18.364,25.0
206.78,12.464,14.439,6.0
0.0,0.0,0.0,0.0
0.0,0.0,0.0,0.0
194.171,11.845,10.343,16.0
162.241,9.938,7.754,3.0
244.28,15.076,18.547,25.0
0.0,0.0,0.0,0.0
0.0,0.0,0.0,0.0
0.0,0.0,0.0,0.0
195.764,12.267,10.539,10.0
194.568,12.239,9.407,6.0
244.593,15.497,18.706,18.0
0.0,0.0,0.0,0.0
0.0,0.0,0.0,0.0
0.0,0.0,0.0,0.0
195.927,12.6,10.649,16.0
121.825,7.863,5.952,4.0
46.118,2.998,3.55,1.0
0.0,0.0,0.0,0.0
110.465,7.234,7.285,6.0
120.377,7.912,7.264,2.0
107.735,7.107,5.907,2.0
0.0,0.0,0.0,0.0
46.303,3.088,3.586,2.0
245.644,16.436,17.668,12.0
109.862,7.375,7.295,4.0
0.0,0.0,0.0,0.0
196.76,13.302,10.873,7.0
155.94,10.579,7.759,4.0
47.394,3.237,3.691,2.0
246.102,16.869,17.805,12.0
108.94,7.492,7.278,3.0
111.012,7.66,6.792,7.0
111.166,7.697,6.188,1.0
108.144,7.512,5.422,4.0
246.528,17.248,19.295,19.0
246.566,17.303,17.931,22.0
109.674,7.72,7.367,3.0
92.449,6.529,5.689,2.0
111.195,7.879,6.228,1.0
108.068,7.682,5.455,4.0
247.039,17.685,19.419,20.0
247.1,17.742,18.052,15.0
115.374,8.308,7.787,3.0
111.647,8.065,6.906,4.0
111.151,8.054,6.26,8.0
107.28,7.799,5.448,4.0
107.873,7.895,8.511,9.0
247.437,18.162,18.148,11.0
115.947,8.536,7.86,2.0
107.857,7.965,6.701,11.0
92.341,6.839,5.225,4.0
120.439,8.948,6.149,4.0
45.725,3.42,3.619,0.0
109.327,8.201,8.045,3.0
118.414,8.907,8.056,3.0
96.899,7.31,6.044,5.0
92.253,6.98,5.241,3.0
110.842,8.411,5.683,5.0
107.317,8.2,8.519,8.0
107.79,8.259,7.954,6.0
91.299,7.014,6.229,4.0
99.902,7.695,6.25,2.0
97.068,7.498,5.532,5.0
87.855,6.806,4.519,1.0
110.3,8.601,8.775,2.0
110.203,8.616,8.15,10.0
107.658,8.439,7.362,5.0
99.92,7.853,6.265,2.0
91.46,7.207,5.226,6.0
92.263,7.29,4.759,6.0
108.118,8.601,8.614,1.0
107.499,8.572,7.964,2.0
91.687,7.329,6.28,4.0
91.264,7.315,5.733,10.0
99.292,7.979,5.683,2.0
107.958,8.698,5.579,1.0
107.128,8.688,8.545,3.0
116.099,9.439,8.611,2.0
91.776,7.48,6.293,3.0
91.626,7.487,5.761,11.0
97.442,7.982,5.584,2.0
92.023,7.558,4.76,3.0
117.867,9.742,9.407,3.0
112.343,9.306,8.337,8.0
85.619,7.11,5.874,2.0
116.013,9.657,7.299,8.0
91.774,7.657,5.261,10.0
96.917,8.107,5.015,5.0
112.679,9.486,8.995,7.0
108.558,9.16,8.055,5.0
96.441,8.156,6.616,5.0
97.794,8.289,6.151,9.0
99.093,8.419,5.679,4.0
92.298,7.86,4.773,2.0
96.462,8.266,7.697,7.0
115.315,9.902,8.552,7.0
107.668,9.266,7.381,6.0
91.306,7.876,5.738,5.0
91.561,7.915,5.241,2.0
96.713,8.379,4.995,5.0
111.968,9.762,8.925,5.0
114.541,10.007,8.486,6.0
107.315,9.395,7.347,7.0
85.384,7.49,5.358,5.0
91.691,8.06,5.239,3.0
97.175,8.562,5.008,5.0
109.616,9.716,8.726,9.0
96.548,8.575,7.141,13.0
97.399,8.669,6.655,5.0
98.329,8.77,6.156,4.0
86.718,7.75,4.943,3.0
97.237,8.708,4.998,6.0
99.297,8.946,7.888,5.0
96.658,8.724,7.134,2.0
91.85,8.307,6.262,2.0
109.833,9.953,6.857,2.0
83.9,7.618,4.767,5.0
97.192,8.842,4.977,5.0
91.733,8.395,7.27,2.0
0.0,0.0,0.0,0.0
85.051,7.812,5.78,5.0
84.109,7.741,5.233,2.0
98.873,9.118,5.596,1.0
97.225,8.983,4.957,5.0
95.896,8.911,7.577,2.0
98.488,9.167,7.226,3.0
97.899,9.128,6.63,2.0
84.682,7.91,5.248,8.0
84.963,7.952,4.787,3.0
97.358,9.129,4.938,7.0
86.002,8.11,6.773,12.0
98.485,9.303,7.198,2.0
85.266,8.068,5.75,3.0
78.329,7.424,4.832,6.0
87.119,8.272,4.883,2.0
97.474,9.272,4.914,6.0
84.097,8.045,6.596,3.0
92.692,8.881,6.746,4.0
85.46,8.202,5.735,5.0
78.364,7.533,4.809,3.0
85.061,8.191,4.739,5.0
97.484,9.403,4.882,5.0
91.744,8.899,7.164,5.0
83.915,8.152,6.077,5.0
84.795,8.25,5.661,6.0
87.358,8.512,5.329,2.0
85.2,8.315,4.716,9.0
84.218,8.233,4.187,2.0
80.039,7.868,6.219,2.0
84.114,8.281,6.058,3.0
92.068,9.077,6.109,2.0
0.0,0.0,0.0,0.0
85.125,8.419,4.677,12.0
86.826,8.601,4.28,1.0
85.204,8.486,6.584,5.0
84.272,8.405,6.034,6.0
80.321,8.021,5.296,1.0
90.108,9.013,5.42,8.0
77.325,7.746,4.214,1.0
107.346,10.769,5.244,5.0
83.892,8.46,6.444,1.0
72.883,7.359,5.184,3.0
73.013,7.383,4.779,2.0
89.978,9.111,5.37,10.0
84.161,8.535,4.545,5.0
0.0,0.0,0.0,0.0
92.223,9.414,7.038,4.0
72.953,7.456,5.153,6.0
73.165,7.487,4.752,3.0
89.92,9.214,5.32,1.0
83.934,8.612,4.491,5.0
85.689,8.804,4.099,18.0
74.579,7.7,5.653,2.0
72.885,7.534,5.11,6.0
73.108,7.567,4.709,4.0
90.011,9.328,5.278,1.0
84.217,8.739,4.46,7.0
85.633,8.898,4.049,17.0
74.638,7.793,5.615,3.0
72.86,7.616,5.066,5.0
78.342,8.199,5.002,5.0
89.445,9.373,5.193,4.0
99.077,10.394,5.19,10.0
85.804,9.014,4.007,8.0
74.544,7.868,5.564,4.0
72.924,7.705,5.027,6.0
78.459,8.299,4.962,4.0
88.557,9.378,5.087,8.0
87.858,9.314,4.549,2.0
85.769,9.104,3.953,12.0
74.77,7.974,5.533,4.0
72.887,7.78,4.979,5.0
73.107,7.812,4.577,1.0
88.615,9.479,5.035,4.0
84.841,9.085,4.338,6.0
85.789,9.198,3.899,10.0
74.359,8.008,5.454,4.0
72.933,7.862,4.933,7.0
77.0,8.309,4.769,2.0
80.928,8.741,4.543,6.0
96.773,10.463,4.883,3.0
85.801,9.288,3.841,6.0
73.987,8.044,5.376,7.0
84.315,9.175,5.645,4.0
76.997,8.386,4.715,2.0
80.882,8.818,4.484,5.0
96.536,10.536,4.802,16.0
96.739,10.57,4.261,19.0
78.629,8.628,5.656,4.0
73.934,8.119,4.896,7.0
76.95,8.458,4.655,1.0
76.873,8.457,4.204,4.0
91.945,10.124,4.505,4.0
96.561,10.644,4.182,6.0
76.792,8.499,5.466,1.0
84.343,9.342,5.522,3.0
74.731,8.284,4.465,3.0
76.775,8.517,4.142,4.0
0.0,0.0,0.0,0.0
107.482,11.945,4.574,8.0
65.887,7.352,4.639,2.0
73.635,8.222,4.763,1.0
74.689,8.346,4.404,3.0
76.862,8.595,4.086,4.0
90.42,10.12,4.291,4.0
107.856,12.082,4.505,18.0
76.934,8.651,5.356,7.0
78.262,8.806,5.0,7.0
90.168,10.153,5.245,4.0
106.977,12.055,5.601,2.0
90.468,10.203,4.219,8.0
91.778,10.359,3.758,13.0
76.811,8.702,5.283,8.0
78.533,8.902,4.952,9.0
85.608,9.711,4.909,3.0
75.736,8.597,3.902,1.0
90.483,10.278,4.144,5.0
91.763,10.432,3.679,26.0
68.593,7.826,4.659,3.0
78.344,8.944,4.872,8.0
76.879,8.782,4.341,3.0
87.7,10.025,4.441,4.0
86.967,9.947,3.908,6.0
91.783,10.506,3.6,27.0
68.515,7.87,4.592,4.0
78.359,9.005,4.804,4.0
75.921,8.73,4.219,8.0
105.144,12.097,5.231,9.0
86.941,10.009,3.828,3.0
91.765,10.572,3.516,17.0
68.276,7.892,4.515,3.0
74.615,8.629,4.505,1.0
85.637,9.908,4.681,11.0
87.618,10.143,4.279,2.0
105.163,12.182,4.533,8.0
92.008,10.664,3.441,6.0
71.836,8.353,4.683,7.0
0.0,0.0,0.0,0.0
85.571,9.958,4.596,9.0
105.417,12.274,5.049,8.0
90.907,10.59,3.834,10.0
92.044,10.729,3.355,11.0
68.549,8.015,4.403,3.0
75.347,8.813,4.407,2.0
85.59,10.014,4.516,11.0
90.703,10.618,4.256,15.0
90.885,10.644,3.745,43.0
92.021,10.783,3.266,15.0
74.185,8.718,4.693,1.0
75.449,8.87,4.339,5.0
85.685,10.077,4.436,29.0
90.645,10.664,4.164,16.0
91.001,10.71,3.66,13.0
92.012,10.835,3.174,12.0
74.596,8.808,4.645,3.0
75.371,8.902,4.26,3.0
85.712,10.126,4.353,16.0
86.827,10.262,3.902,17.0
85.938,10.161,3.37,14.0
96.73,11.442,3.24,6.0
78.484,9.308,4.806,6.0
80.799,9.585,4.484,6.0
92.575,10.984,4.606,20.0
92.398,10.966,4.058,10.0
85.909,10.2,3.281,22.0
96.861,11.505,3.145,10.0
78.664,9.366,4.737,3.0
89.865,10.702,4.894,7.0
85.754,10.215,4.177,8.0
85.735,10.215,3.677,50.0
85.862,10.233,3.19,31.0
96.898,11.553,3.045,17.0
75.222,8.989,4.449,3.0
89.851,10.738,4.799,11.0
90.296,10.793,4.304,11.0
85.82,10.261,3.589,45.0
91.487,10.941,3.302,20.0
96.95,11.598,2.944,4.0
68.473,8.209,3.977,7.0
89.853,10.772,4.704,21.0
103.649,12.429,4.829,18.0
86.569,10.382,3.528,68.0
91.463,10.971,3.204,26.0
139.668,16.759,4.092,9.0
75.21,9.042,4.287,2.0
89.889,10.807,4.607,18.0
103.51,12.446,4.711,23.0
86.674,10.423,3.438,51.0
91.464,11.001,3.104,23.0
97.525,11.733,2.751,17.0
79.053,9.528,4.419,12.0
89.796,10.823,4.502,7.0
103.562,12.483,4.597,6.0
86.573,10.435,3.338,58.0
96.958,11.689,3.181,8.0
97.589,11.768,2.643,24.0
79.137,9.558,4.335,10.0
88.648,10.706,4.347,2.0
136.204,16.45,5.895,15.0
86.179,10.409,3.226,61.0
96.995,11.716,3.074,13.0
97.756,11.809,2.539,26.0
79.186,9.581,4.247,3.0
103.783,12.556,4.97,6.0
136.213,16.478,5.741,17.0
85.959,10.399,3.121,43.0
97.212,11.761,2.971,18.0
97.833,11.837,2.429,17.0
97.612,11.826,5.124,4.0
103.72,12.564,4.85,12.0
136.309,16.511,5.589,11.0
85.986,10.415,3.023,28.0
97.319,11.787,2.863,31.0
97.86,11.853,2.317,15.0
109.197,13.243,5.606,3.0
139.638,16.931,6.367,5.0
98.96,11.997,3.943,2.0
91.5,11.091,3.111,23.0
97.353,11.801,2.752,31.0
97.853,11.861,2.205,14.0
109.165,13.246,5.479,8.0
136.242,16.529,6.053,3.0
108.849,13.203,4.209,10.0
91.568,11.105,3.006,11.0
97.589,11.834,2.645,20.0
97.847,11.865,2.091,7.0
109.215,13.255,5.353,4.0
136.118,16.516,5.889,12.0
108.88,13.208,4.084,14.0
97.198,11.789,3.078,20.0
97.803,11.861,2.536,12.0
139.705,16.941,2.821,8.0
103.69,12.583,4.96,7.0
136.213,16.524,5.733,18.0
85.892,10.416,3.122,37.0
97.256,11.792,2.966,36.0
97.843,11.861,2.423,10.0
139.726,16.937,2.658,8.0
103.703,12.577,4.84,8.0
99.136,12.019,4.056,2.0
85.961,10.418,3.023,27.0
97.309,11.79,2.854,32.0
97.831,11.851,2.306,17.0
139.794,16.932,2.494,4.0
103.608,12.554,4.71,5.0
139.168,16.856,5.527,8.0
91.499,11.078,3.109,21.0
97.412,11.79,2.741,23.0
97.84,11.839,2.191,21.0
97.864,11.84,1.631,5.0
136.317,16.495,6.038,10.0
86.582,10.472,3.336,17.0
114.889,13.891,3.768,11.0
97.623,11.799,2.632,25.0
97.75,11.811,2.075,24.0
97.824,11.817,1.517,5.0
136.269,16.462,5.874,17.0
86.098,10.396,3.216,57.0
96.974,11.704,3.066,17.0
97.736,11.791,2.519,29.0
97.723,11.786,1.958,20.0
97.76,11.786,1.4,4.0
86.72,10.455,3.634,11.0
86.062,10.369,3.113,37.0
96.979,11.679,2.951,8.0
97.764,11.769,2.404,37.0
97.742,11.762,1.842,25.0
97.664,11.748,1.282,1.0
86.695,10.425,3.53,43.0
91.438,10.99,3.198,26.0
97.596,11.723,2.853,6.0
97.753,11.737,2.287,38.0
97.696,11.724,1.725,40.0
0.0,0.0,0.0,0.0
86.115,10.326,3.403,54.0
96.824,11.603,3.27,11.0
97.568,11.685,2.735,21.0
97.714,11.697,2.167,31.0
97.693,11.688,1.608,54.0
0.0,0.0,0.0,0.0
85.841,10.259,3.289,43.0
96.88,11.571,3.154,28.0
97.649,11.655,2.619,41.0
97.682,11.653,2.049,27.0
97.678,11.646,1.489,61.0
0.0,0.0,0.0,0.0
91.493,10.895,3.394,24.0
96.927,11.533,3.04,4.0
97.704,11.618,2.505,52.0
97.691,11.61,1.934,36.0
97.669,11.6,1.373,61.0
0.0,0.0,0.0,0.0
91.831,10.891,3.298,23.0
98.188,11.636,2.964,19.0
97.757,11.576,2.39,47.0
97.709,11.563,1.819,31.0
