X,Y,Z,Reflectivity
120.82,12.929,5.347,21.0
98.483,10.534,3.793,34.0
84.297,9.023,5.572,3.0
84.659,9.055,5.108,2.0
80.951,8.653,4.418,3.0
90.51,9.669,4.41,11.0
120.772,12.895,5.191,17.0
98.297,10.49,3.661,21.0
73.112,7.806,4.739,2.0
88.424,9.434,5.223,5.0
79.687,8.496,4.248,3.0
85.752,9.137,4.069,12.0
97.929,10.428,4.083,14.0
98.216,10.453,3.531,17.0
73.117,7.784,4.645,3.0
88.531,9.417,5.114,6.0
84.995,9.035,4.42,2.0
85.787,9.113,3.959,8.0
98.624,10.469,3.984,26.0
104.634,11.1,3.627,5.0
69.123,7.334,4.3,9.0
81.027,8.59,4.574,6.0
90.256,9.561,4.575,4.0
87.277,9.239,3.914,6.0
103.235,10.92,4.036,10.0
97.465,10.303,3.251,18.0
69.145,7.308,4.21,3.0
98.948,10.45,5.455,6.0
83.879,8.851,4.141,4.0
98.681,10.404,4.296,33.0
103.207,10.873,3.9,8.0
97.42,10.256,3.121,19.0
89.377,9.407,5.324,8.0
87.777,9.23,4.723,3.0
85.801,9.014,4.123,10.0
103.219,10.834,4.356,17.0
103.871,10.894,3.787,10.0
121.571,12.741,3.734,23.0
76.393,8.002,4.45,1.0
84.086,8.8,4.413,4.0
85.773,8.968,4.009,9.0
136.403,14.249,5.578,4.0
97.489,10.175,3.428,18.0
137.352,14.324,4.043,16.0
81.048,8.447,4.615,4.0
84.085,8.754,4.304,1.0
87.469,9.097,3.974,2.0
107.483,11.168,4.255,17.0
97.555,10.128,3.301,13.0
110.026,11.412,3.093,17.0
81.097,8.405,4.511,2.0
85.812,8.884,4.279,8.0
87.47,9.046,3.859,7.0
104.049,10.749,3.983,6.0
110.362,11.39,3.592,8.0
109.782,11.32,2.942,41.0
83.643,8.616,4.542,4.0
85.672,8.815,4.159,18.0
107.476,11.045,4.601,20.0
97.588,10.018,3.607,39.0
110.214,11.303,3.442,33.0
109.312,11.2,2.787,22.0
79.701,8.156,4.224,4.0
96.038,9.816,4.537,9.0
103.96,10.614,4.315,6.0
111.188,11.338,3.966,20.0
109.863,11.192,3.287,57.0
109.168,11.109,2.641,23.0
85.615,8.7,4.425,10.0
107.518,10.913,4.94,5.0
97.658,9.899,3.927,13.0
110.125,11.15,3.785,12.0
115.808,11.712,3.317,50.0
115.756,11.694,2.652,33.0
91.787,9.258,4.625,3.0
87.51,8.814,3.908,6.0
111.265,11.193,4.329,17.0
110.013,11.053,3.639,20.0
115.729,11.613,3.166,54.0
121.552,12.184,2.628,48.0
107.39,10.746,5.273,6.0
97.736,9.766,4.239,12.0
115.26,11.502,4.336,16.0
115.595,11.519,3.675,12.0
109.049,10.853,2.843,35.0
121.532,12.08,2.472,49.0
97.628,9.685,4.668,32.0
97.707,9.679,4.11,19.0
122.626,12.13,4.455,40.0
108.834,10.751,3.321,47.0
121.432,11.979,3.009,29.0
121.529,11.972,2.316,56.0
97.772,9.612,4.548,9.0
115.259,11.314,4.701,23.0
108.384,10.623,3.8,15.0
109.271,10.694,3.194,31.0
121.531,11.878,2.857,42.0
121.674,11.875,2.166,22.0
97.82,9.525,4.427,2.0
105.342,10.242,4.163,2.0
115.934,11.254,3.919,11.0
137.87,13.362,3.857,28.0
138.223,13.376,3.076,22.0
151.075,14.6,2.499,31.0
86.571,8.345,3.81,9.0
108.119,10.405,4.139,26.0
109.346,10.507,3.56,23.0
121.349,11.642,3.245,46.0
151.427,14.504,3.183,26.0
151.219,14.463,2.314,32.0
107.923,10.294,4.615,22.0
110.299,10.502,4.086,19.0
109.404,10.4,3.425,12.0
137.842,13.081,3.515,23.0
151.409,14.345,2.995,28.0
151.425,14.325,2.131,27.0
110.74,10.446,4.599,22.0
115.994,10.921,4.153,33.0
121.377,11.407,3.652,18.0
151.707,14.234,3.682,19.0
151.241,14.166,2.807,28.0
151.523,14.169,1.948,29.0
108.174,10.084,4.361,16.0
109.652,10.203,3.793,14.0
151.884,14.107,4.387,15.0
151.913,14.083,3.505,26.0
151.503,14.02,2.63,26.0
151.968,14.039,1.77,7.0
109.983,10.127,4.302,17.0
121.683,11.182,4.063,23.0
144.735,13.276,4.007,7.0
152.045,13.92,3.327,31.0
151.932,13.884,2.457,23.0
129.461,11.809,1.355,3.0
109.7,9.972,4.161,10.0
121.253,10.999,3.906,18.0
143.66,13.005,3.807,18.0
152.257,13.755,3.151,31.0
152.534,13.754,2.286,25.0
108.76,9.789,1.01,2.0
121.963,10.936,4.482,10.0
143.539,12.845,4.455,27.0
152.464,13.615,3.864,22.0
152.568,13.597,2.982,18.0
152.861,13.596,2.116,28.0
108.316,9.614,0.882,2.0
143.066,12.65,5.094,12.0
143.63,12.673,4.295,32.0
152.772,13.449,3.695,15.0
158.698,13.94,2.92,4.0
153.275,13.437,1.947,16.0
107.896,9.439,0.757,6.0
121.094,10.551,4.174,15.0
143.97,12.516,4.143,28.0
197.83,17.157,4.563,9.0
199.352,17.251,3.444,9.0
128.916,11.131,1.494,8.0
107.746,9.284,0.635,13.0
144.476,12.395,4.819,12.0
143.993,12.323,3.982,17.0
199.604,17.042,4.385,8.0
199.526,16.998,3.228,7.0
129.007,10.964,1.353,3.0
107.863,9.146,0.518,2.0
144.473,12.198,4.662,20.0
196.951,16.586,5.234,19.0
202.369,16.999,4.226,8.0
0.0,0.0,0.0,0.0
115.319,9.64,1.084,3.0
108.41,9.04,0.403,2.0
161.18,13.379,5.026,13.0
194.996,16.143,4.971,9.0
196.356,16.214,3.888,30.0
213.541,17.587,2.993,25.0
110.449,9.073,0.92,5.0
109.395,8.964,0.29,5.0
161.176,13.142,4.854,23.0
156.044,12.69,3.812,31.0
196.254,15.917,3.679,9.0
181.655,14.693,2.355,10.0
110.537,8.916,0.805,10.0
110.578,8.898,0.178,1.0
154.886,12.399,4.504,21.0
194.971,15.565,4.563,9.0
155.971,12.418,2.765,40.0
155.941,12.382,1.865,22.0
114.113,9.037,0.718,15.0
0.0,0.0,0.0,0.0
155.179,12.19,4.358,24.0
155.747,12.198,3.49,37.0
162.048,12.656,2.712,34.0
162.292,12.639,1.78,6.0
114.095,8.859,0.605,24.0
0.0,0.0,0.0,0.0
169.261,13.035,4.588,4.0
156.139,11.988,3.348,17.0
168.256,12.88,2.652,25.0
122.479,9.347,1.224,6.0
0.0,0.0,0.0,0.0
0.0,0.0,0.0,0.0
166.714,12.577,4.36,8.0
167.671,12.607,3.434,25.0
168.26,12.611,2.493,35.0
0.0,0.0,0.0,0.0
122.016,9.086,0.414,11.0
0.0,0.0,0.0,0.0
167.216,12.342,4.216,8.0
173.67,12.774,3.395,11.0
173.411,12.715,2.409,28.0
0.0,0.0,0.0,0.0
141.143,10.282,0.35,3.0
0.0,0.0,0.0,0.0
166.927,12.047,4.058,6.0
173.856,12.504,3.244,27.0
0.0,0.0,0.0,0.0
140.878,10.065,1.022,3.0
0.0,0.0,0.0,0.0
0.0,0.0,0.0,0.0
172.67,12.176,4.049,21.0
0.0,0.0,0.0,0.0
0.0,0.0,0.0,0.0
0.0,0.0,0.0,0.0
154.842,10.765,0.117,3.0
0.0,0.0,0.0,0.0
173.624,11.948,3.923,5.0
210.383,14.423,3.567,11.0
0.0,0.0,0.0,0.0
154.883,10.54,0.862,13.0
0.0,0.0,0.0,0.0
68.947,4.657,-0.393,1.0
173.718,11.655,3.783,6.0
0.0,0.0,0.0,0.0
0.0,0.0,0.0,0.0
154.961,10.272,0.737,152.0
0.0,0.0,0.0,0.0
68.991,4.539,-0.449,4.0
0.0,0.0,0.0,0.0
201.433,13.102,3.092,7.0
0.0,0.0,0.0,0.0
154.996,10.0,0.617,19.0
0.0,0.0,0.0,0.0
68.938,4.412,-0.501,1.0
198.19,12.591,4.007,17.0
0.0,0.0,0.0,0.0
0.0,0.0,0.0,0.0
155.325,9.739,0.501,11.0
0.0,0.0,0.0,0.0
0.0,0.0,0.0,0.0
0.0,0.0,0.0,0.0
203.057,12.472,2.815,6.0
0.0,0.0,0.0,0.0
197.703,12.037,0.497,7.0
0.0,0.0,0.0,0.0
0.0,0.0,0.0,0.0
208.289,12.469,3.913,6.0
208.152,12.403,2.741,16.0
197.46,11.712,1.49,27.0
0.0,0.0,0.0,0.0
0.0,0.0,0.0,0.0
0.0,0.0,0.0,0.0
0.0,0.0,0.0,0.0
0.0,0.0,0.0,0.0
197.407,11.339,1.361,26.0
0.0,0.0,0.0,0.0
0.0,0.0,0.0,0.0
0.0,0.0,0.0,0.0
207.137,11.627,3.622,9.0
196.106,10.952,2.33,24.0
196.085,10.893,1.23,64.0
0.0,0.0,0.0,0.0
0.0,0.0,0.0,0.0
0.0,0.0,0.0,0.0
196.233,10.642,3.313,5.0
206.97,11.163,2.334,18.0
197.24,10.579,1.12,23.0
0.0,0.0,0.0,0.0
69.192,3.671,-0.388,0.0
0.0,0.0,0.0,0.0
0.0,0.0,0.0,0.0
201.917,10.497,2.164,12.0
197.258,10.199,1.01,26.0
0.0,0.0,0.0,0.0
68.945,3.523,-0.425,2.0
0.0,0.0,0.0,0.0
197.641,9.95,3.117,14.0
197.831,9.898,2.014,25.0
197.303,9.813,0.907,30.0
0.0,0.0,0.0,0.0
0.0,0.0,0.0,0.0
0.0,0.0,0.0,0.0
199.974,9.677,3.055,5.0
196.94,9.469,1.908,6.0
196.966,9.411,0.809,22.0
0.0,0.0,0.0,0.0
0.0,0.0,0.0,0.0
0.0,0.0,0.0,0.0
206.434,9.581,3.057,13.0
196.856,9.077,1.818,9.0
196.966,9.024,0.72,22.0
0.0,0.0,0.0,0.0
68.953,3.116,-0.523,3.0
0.0,0.0,0.0,0.0
195.504,8.686,2.812,58.0
195.539,8.625,1.722,54.0
195.533,8.565,0.633,16.0
0.0,0.0,0.0,0.0
68.965,2.978,-0.552,4.0
0.0,0.0,0.0,0.0
0.0,0.0,0.0,0.0
196.653,8.278,1.655,23.0
196.753,8.221,0.561,10.0
0.0,0.0,0.0,0.0
0.0,0.0,0.0,0.0
0.0,0.0,0.0,0.0
203.88,8.235,2.777,15.0
196.508,7.873,1.584,26.0
0.0,0.0,0.0,0.0
0.0,0.0,0.0,0.0
0.0,0.0,0.0,0.0
0.0,0.0,0.0,0.0
195.13,7.477,2.594,32.0
195.15,7.413,1.51,14.0
0.0,0.0,0.0,0.0
0.0,0.0,0.0,0.0
0.0,0.0,0.0,0.0
0.0,0.0,0.0,0.0
195.943,7.106,2.548,19.0
196.324,7.054,1.463,31.0
0.0,0.0,0.0,0.0
0.0,0.0,0.0,0.0
0.0,0.0,0.0,0.0
0.0,0.0,0.0,0.0
195.278,6.678,2.49,6.0
196.265,6.646,1.414,25.0
0.0,0.0,0.0,0.0
0.0,0.0,0.0,0.0
0.0,0.0,0.0,0.0
0.0,0.0,0.0,0.0
195.483,6.279,2.45,6.0
196.072,6.234,1.372,40.0
0.0,0.0,0.0,0.0
0.0,0.0,0.0,0.0
0.0,0.0,0.0,0.0
0.0,0.0,0.0,0.0
195.804,5.877,2.419,7.0
196.001,5.818,1.338,34.0
0.0,0.0,0.0,0.0
0.0,0.0,0.0,0.0
0.0,0.0,0.0,0.0
0.0,0.0,0.0,0.0
195.105,5.445,2.382,23.0
103.187,2.845,0.69,2.0
0.0,0.0,0.0,0.0
0.0,0.0,0.0,0.0
0.0,0.0,0.0,0.0
0.0,0.0,0.0,0.0
0.0,0.0,0.0,0.0
102.983,2.619,0.678,4.0
100.384,2.521,0.107,1.0
0.0,0.0,0.0,0.0
0.0,0.0,0.0,0.0
0.0,0.0,0.0,0.0
0.0,0.0,0.0,0.0
100.161,2.336,0.653,1.0
100.118,2.3,0.101,10.0
0.0,0.0,0.0,0.0
0.0,0.0,0.0,0.0
0.0,0.0,0.0,0.0
103.221,2.221,1.239,5.0
99.978,2.119,0.65,2.0
99.998,2.084,0.099,5.0
0.0,0.0,0.0,0.0
0.0,0.0,0.0,0.0
0.0,0.0,0.0,0.0
103.157,2.002,1.239,29.0
99.854,1.904,0.65,4.0
99.834,1.87,0.101,8.0
99.923,1.837,-0.457,1.0
58.866,1.062,-0.592,0.0
0.0,0.0,0.0,0.0
0.0,0.0,0.0,0.0
99.697,1.689,0.654,4.0
99.73,1.656,0.107,5.0
0.0,0.0,0.0,0.0
0.0,0.0,0.0,0.0
0.0,0.0,0.0,0.0
0.0,0.0,0.0,0.0
99.662,1.476,0.663,3.0
99.703,1.442,0.116,4.0
0.0,0.0,0.0,0.0
0.0,0.0,0.0,0.0
20.206,0.271,-0.31,4.0
20.302,0.264,0.248,10.0
20.308,0.257,0.137,1.0
99.588,1.227,0.129,5.0
0.0,0.0,0.0,0.0
20.207,0.234,-0.196,16.0
20.193,0.227,-0.307,27.0
20.297,0.22,0.252,29.0
20.317,0.214,0.141,30.0
20.333,0.207,0.029,30.0
20.206,0.198,-0.082,9.0
20.165,0.191,-0.192,17.0
20.175,0.184,-0.303,36.0
20.263,0.177,0.255,27.0
20.189,0.169,0.144,20.0
20.218,0.162,0.034,28.0
20.182,0.155,-0.078,26.0
20.18,0.148,-0.188,24.0
20.186,0.14,-0.298,30.0
20.175,0.133,0.259,29.0
20.158,0.126,0.148,26.0
20.192,0.119,0.038,37.0
20.188,0.111,-0.073,32.0
20.188,0.104,-0.183,27.0
20.213,0.097,-0.293,7.0
20.156,0.089,0.264,28.0
20.153,0.082,0.154,28.0
20.202,0.076,0.044,35.0
20.215,0.068,-0.067,28.0
20.218,0.061,-0.177,15.0
20.239,0.054,-0.287,4.0
20.133,0.046,0.27,29.0
20.139,0.039,0.16,27.0
20.243,0.032,0.051,67.0
20.251,0.025,-0.06,151.0
20.252,0.018,-0.171,151.0
20.242,0.011,-0.281,14.0
20.125,0.003,0.277,27.0
20.12,-0.003,0.167,28.0
20.134,-0.01,0.058,30.0
20.13,-0.017,-0.053,28.0
20.167,-0.024,-0.162,29.0
20.158,-0.031,-0.272,25.0
20.123,-0.038,0.284,31.0
20.117,-0.045,0.175,33.0
20.134,-0.052,0.066,41.0
20.138,-0.059,-0.045,29.0
20.141,-0.066,-0.154,37.0
20.137,-0.073,-0.263,36.0
20.123,-0.08,0.293,29.0
20.136,-0.087,0.184,26.0
20.128,-0.094,0.074,35.0
20.142,-0.101,-0.036,27.0
20.153,-0.109,-0.145,27.0
20.144,-0.116,-0.254,34.0
20.15,-0.122,0.302,17.0
20.156,-0.13,0.193,18.0
20.167,-0.137,0.084,12.0
20.178,-0.144,-0.026,10.0
20.164,-0.151,-0.135,13.0
20.162,-0.158,-0.245,20.0
64.368,-0.528,0.999,21.0
53.361,-0.456,0.539,5.0
53.37,-0.474,0.25,5.0
56.208,-0.52,-0.045,15.0
56.431,-0.541,-0.351,1.0
45.184,-0.449,-0.525,17.0
20.176,-0.207,0.323,17.0
20.174,-0.214,0.214,2.0
56.179,-0.616,0.294,2.0
56.217,-0.636,-0.014,1.0
56.604,-0.66,-0.321,2.0
45.628,-0.548,-0.505,5.0
20.136,-0.248,0.334,14.0
20.138,-0.255,0.225,11.0
20.15,-0.262,0.117,11.0
59.514,-0.796,0.018,77.0
56.549,-0.776,-0.287,1.0
52.817,-0.743,-0.553,9.0
20.15,-0.289,0.346,8.0
20.125,-0.296,0.237,10.0
20.108,-0.303,0.129,14.0
20.128,-0.31,0.018,35.0
59.556,-0.94,-0.265,3.0
52.785,-0.852,-0.519,15.0
176.631,-2.9,3.151,64.0
176.662,-2.963,2.2,16.0
20.128,-0.344,0.142,1.0
20.114,-0.351,0.031,15.0
52.976,-0.944,-0.201,40.0
45.563,-0.827,-0.418,15.0
191.894,-3.542,3.553,4.0
53.014,-0.997,0.696,20.0
52.933,-1.013,0.41,65.0
52.934,-1.031,0.12,64.0
45.608,-0.905,-0.141,14.0
38.372,-0.774,-0.325,23.0
38.402,-0.785,0.738,30.0
38.38,-0.798,0.531,48.0
38.384,-0.812,0.325,19.0
40.432,-0.869,0.121,19.0
40.423,-0.883,-0.095,31.0
40.417,-0.897,-0.312,40.0
40.41,-0.907,0.806,38.0
40.417,-0.921,0.589,40.0
40.409,-0.935,0.372,36.0
40.412,-0.948,0.151,35.0
40.416,-0.962,-0.065,30.0
0.0,0.0,0.0,0.0
0.0,0.0,0.0,0.0
38.758,-0.959,0.595,8.0
38.709,-0.971,0.386,34.0
38.681,-0.983,0.175,39.0
38.669,-0.996,-0.031,41.0
38.691,-1.01,-0.239,48.0
38.65,-1.019,0.831,63.0
38.657,-1.032,0.624,69.0
38.634,-1.044,0.417,65.0
38.63,-1.057,0.206,71.0
38.659,-1.071,0.0,82.0
38.658,-1.084,-0.206,83.0
38.641,-1.093,0.864,83.0
38.645,-1.106,0.657,96.0
38.637,-1.119,0.45,87.0
38.619,-1.13,0.239,69.0
38.632,-1.144,0.032,68.0
38.657,-1.157,-0.173,65.0
38.622,-1.165,0.896,74.0
38.632,-1.179,0.69,72.0
38.638,-1.191,0.483,63.0
38.662,-1.205,0.273,59.0
38.681,-1.219,0.067,57.0
38.7,-1.232,-0.139,55.0
38.663,-1.24,0.932,62.0
38.68,-1.253,0.726,37.0
38.765,-1.269,0.52,10.0
80.43,-2.658,0.642,15.0
80.46,-2.686,0.213,21.0
80.843,-2.727,-0.216,10.0
31.4,-1.066,0.786,4.0
151.131,-5.18,2.977,5.0
84.263,-2.916,1.211,26.0
80.432,-2.808,0.718,13.0
80.436,-2.835,0.29,24.0
81.152,-2.888,-0.139,32.0
31.298,-1.12,0.813,43.0
31.299,-1.131,0.647,47.0
31.296,-1.14,0.48,43.0
31.28,-1.15,0.31,48.0
31.271,-1.16,0.143,42.0
31.281,-1.17,-0.022,64.0
31.271,-1.176,0.844,60.0
31.271,-1.186,0.677,16.0
28.47,-1.088,0.464,50.0
28.456,-1.097,0.31,64.0
28.453,-1.106,0.158,64.0
28.452,-1.115,0.007,67.0
28.448,-1.12,0.796,98.0
28.442,-1.129,0.644,150.0
28.44,-1.138,0.493,151.0
28.441,-1.147,0.339,139.0
28.44,-1.156,0.188,113.0
28.436,-1.165,0.037,107.0
28.437,-1.171,0.826,106.0
28.436,-1.18,0.675,102.0
28.431,-1.188,0.523,81.0
28.435,-1.197,0.369,65.0
28.443,-1.206,0.218,63.0
28.455,-1.215,0.067,63.0
28.449,-1.221,0.856,47.0
31.32,-1.354,0.777,18.0
31.271,-1.361,0.609,27.0
31.227,-1.368,0.44,35.0
31.229,-1.378,0.274,35.0
31.237,-1.388,0.108,47.0
86.185,-3.846,2.69,14.0
85.135,-3.825,2.205,30.0
85.174,-3.852,1.755,13.0
31.332,-1.426,0.476,8.0
31.364,-1.437,0.31,7.0
31.285,-1.443,0.143,19.0
85.994,-3.983,2.781,22.0
84.964,-3.961,2.297,34.0
84.615,-3.968,1.839,42.0
83.218,-3.927,1.359,6.0
82.955,-3.94,0.916,31.0
68.703,-3.283,0.394,2.0
85.721,-4.113,2.871,39.0
84.883,-4.097,2.393,38.0
84.673,-4.111,1.939,37.0
86.077,-4.204,1.506,9.0
82.863,-4.071,1.011,16.0
67.409,-3.331,0.466,2.0
85.156,-4.224,2.953,35.0
84.717,-4.226,2.488,34.0
84.66,-4.248,2.039,45.0
86.038,-4.341,1.608,29.0
82.805,-4.201,1.11,22.0
0.0,0.0,0.0,0.0
84.993,-4.351,3.048,32.0
84.415,-4.345,2.581,32.0
84.687,-4.383,2.142,40.0
84.938,-4.42,1.691,39.0
0.0,0.0,0.0,0.0
0.0,0.0,0.0,0.0
83.586,-4.412,3.102,20.0
84.268,-4.471,2.681,36.0
84.104,-4.484,2.231,49.0
84.112,-4.508,1.779,39.0
0.0,0.0,0.0,0.0
65.806,-3.563,0.697,3.0
83.325,-4.526,3.196,39.0
83.187,-4.541,2.751,36.0
83.682,-4.589,2.325,57.0
83.574,-4.606,1.873,37.0
24.605,-1.362,0.421,2.0
24.598,-1.368,0.291,27.0
24.621,-1.374,0.975,2.0
24.586,-1.378,0.844,19.0
24.599,-1.385,0.714,19.0
24.585,-1.391,0.582,21.0
24.595,-1.398,0.452,38.0
24.572,-1.403,0.322,46.0
24.529,-1.405,1.003,38.0
24.545,-1.412,0.874,44.0
24.563,-1.419,0.745,62.0
24.565,-1.425,0.613,72.0
24.563,-1.431,0.484,63.0
24.548,-1.437,0.354,52.0
24.513,-1.439,1.035,44.0
24.5,-1.444,0.905,43.0
24.527,-1.452,0.776,57.0
24.551,-1.459,0.645,68.0
24.556,-1.466,0.516,74.0
24.54,-1.471,0.387,76.0
24.495,-1.472,1.067,40.0
24.466,-1.476,0.936,51.0
24.492,-1.484,0.808,66.0
24.526,-1.492,0.678,55.0
24.557,-1.5,0.549,81.0
24.534,-1.505,0.42,60.0
24.447,-1.503,1.098,53.0
24.462,-1.51,0.97,66.0
24.48,-1.516,0.841,59.0
24.519,-1.524,0.711,73.0
24.543,-1.532,0.582,78.0
24.538,-1.537,0.453,65.0
24.453,-1.536,1.132,38.0
24.438,-1.54,1.002,30.0
24.453,-1.547,0.874,64.0
24.507,-1.556,0.744,69.0
24.533,-1.563,0.616,58.0
24.543,-1.569,0.487,46.0
24.473,-1.569,1.167,57.0
24.474,-1.574,1.038,46.0
24.453,-1.578,0.908,68.0
24.498,-1.586,0.778,59.0
24.547,-1.595,0.651,60.0
24.57,-1.602,0.523,37.0
24.485,-1.6,1.202,68.0
24.465,-1.604,1.072,30.0
24.463,-1.609,0.943,52.0
24.457,-1.614,0.812,28.0
24.54,-1.625,0.686,26.0
24.586,-1.633,0.558,25.0
24.51,-1.632,1.238,47.0
24.487,-1.635,1.108,29.0
24.481,-1.64,0.978,21.0
24.507,-1.646,0.848,17.0
24.626,-1.659,0.723,23.0
82.766,-5.596,1.996,31.0
24.536,-1.662,1.274,28.0
24.576,-1.67,1.147,10.0
24.565,-1.674,1.017,29.0
24.573,-1.679,0.885,12.0
83.659,-5.733,2.575,34.0
82.631,-5.679,2.109,32.0
84.288,-5.806,4.498,17.0
83.64,-5.777,4.022,25.0
83.909,-5.811,3.594,18.0
24.578,-1.706,0.921,3.0
82.966,-5.777,2.673,44.0
82.547,-5.764,2.227,37.0
84.208,-5.894,4.616,32.0
83.458,-5.855,4.135,21.0
83.715,-5.889,3.708,42.0
82.905,-5.847,3.228,39.0
82.926,-5.863,2.793,41.0
82.712,-5.863,2.353,46.0
84.569,-6.008,4.76,26.0
83.68,-5.96,4.27,34.0
83.465,-5.958,3.819,40.0
82.751,-5.921,3.343,42.0
83.135,-5.963,2.922,39.0
82.923,-5.962,2.48,57.0
84.42,-6.084,4.877,39.0
83.66,-6.043,4.393,36.0
83.31,-6.031,3.935,35.0
82.833,-6.009,3.47,32.0
82.875,-6.026,3.036,47.0
82.834,-6.037,2.6,44.0
84.334,-6.16,4.997,35.0
84.004,-6.149,4.535,26.0
83.328,-6.112,4.061,37.0
83.161,-6.113,3.607,33.0
82.714,-6.092,3.152,37.0
82.868,-6.117,2.723,37.0
84.201,-6.23,5.115,39.0
83.865,-6.216,4.653,38.0
83.321,-6.188,4.184,39.0
83.433,-6.208,3.742,10.0
82.887,-6.18,3.283,36.0
82.665,-6.176,2.841,35.0
84.141,-6.3,5.237,32.0
83.857,-6.29,4.778,48.0
83.535,-6.277,4.32,42.0
85.976,-6.472,3.986,27.0
83.265,-6.28,3.422,29.0
82.601,-6.241,2.962,31.0
84.106,-6.369,5.361,26.0
83.701,-6.349,4.895,36.0
83.569,-6.35,4.448,51.0
83.652,-6.366,4.004,27.0
83.562,-6.37,3.561,25.0
82.452,-6.297,3.081,36.0
84.215,-6.446,5.496,13.0
84.194,-6.454,5.051,27.0
83.394,-6.402,4.564,40.0
83.308,-6.406,4.113,43.0
84.614,-6.516,3.733,19.0
82.385,-6.355,3.202,30.0
0.0,0.0,0.0,0.0
84.778,-6.562,5.214,19.0
83.572,-6.478,4.7,41.0
83.15,-6.455,4.23,40.0
84.428,-6.563,3.852,21.0
82.682,-6.437,3.337,32.0
86.036,-6.712,5.874,26.0
85.716,-6.696,5.401,29.0
83.585,-6.538,4.827,35.0
83.081,-6.507,4.351,41.0
83.952,-6.585,3.957,13.0
83.609,-6.566,3.502,31.0
60.321,-4.748,4.21,5.0
85.688,-6.752,5.529,40.0
83.696,-6.603,4.961,34.0
83.234,-6.574,4.487,35.0
83.206,-6.58,4.047,31.0
83.84,-6.638,3.637,30.0
117.749,-9.343,8.399,25.0
85.948,-6.827,5.677,28.0
0.0,0.0,0.0,0.0
83.383,-6.637,4.62,42.0
83.052,-6.617,4.166,37.0
83.785,-6.683,3.762,30.0
54.058,-4.322,3.938,8.0
86.089,-6.888,5.817,29.0
85.609,-6.856,5.333,18.0
83.57,-6.699,4.758,46.0
83.054,-6.665,4.291,35.0
83.304,-6.691,3.866,36.0
60.488,-4.869,4.498,6.0
86.378,-6.959,5.967,17.0
85.703,-6.909,5.468,35.0
83.638,-6.749,4.887,39.0
83.229,-6.721,4.424,37.0
83.208,-6.725,3.986,36.0
54.142,-4.386,4.107,1.0
117.523,-9.526,8.294,9.0
85.718,-6.952,5.597,36.0
83.608,-6.786,5.009,21.0
83.453,-6.778,4.561,43.0
83.221,-6.764,4.11,34.0
121.361,-9.888,9.39,8.0
116.178,-9.469,8.374,10.0
85.898,-7.005,5.738,20.0
86.782,-7.082,5.33,18.0
83.615,-6.828,4.695,39.0
83.303,-6.807,4.239,37.0
115.431,-9.453,9.104,12.0
115.371,-9.452,8.489,11.0
86.168,-7.062,5.885,16.0
86.162,-7.065,5.42,17.0
83.664,-6.864,4.822,40.0
83.441,-6.848,4.369,41.0
115.387,-9.493,9.273,14.0
60.524,-4.981,4.544,7.0
60.282,-4.963,4.206,4.0
86.031,-7.084,5.54,20.0
83.608,-6.887,4.943,37.0
83.685,-6.897,4.507,35.0
24.624,-2.034,2.016,4.0
60.558,-5.003,4.636,5.0
115.553,-9.549,8.235,14.0
85.906,-7.101,5.66,23.0
83.695,-6.919,5.072,13.0
83.728,-6.924,4.632,37.0
24.626,-2.041,2.052,38.0
121.294,-10.055,9.465,12.0
115.395,-9.567,8.394,16.0
85.856,-7.119,5.781,18.0
86.407,-7.166,5.362,18.0
83.722,-6.945,4.753,33.0
24.613,-2.046,2.087,55.0
121.061,-10.065,9.625,19.0
118.128,-9.821,8.764,7.0
60.24,-5.008,4.144,4.0
86.612,-7.201,5.5,25.0
83.716,-6.961,4.874,27.0
24.609,-2.051,2.123,49.0
120.881,-10.075,9.786,19.0
60.504,-5.041,4.577,5.0
115.487,-9.622,8.112,11.0
86.238,-7.185,5.601,16.0
83.759,-6.978,4.998,12.0
24.586,-2.053,2.157,30.0
24.611,-2.055,2.028,15.0
60.551,-5.054,4.668,6.0
115.312,-9.623,8.266,16.0
85.844,-7.163,5.698,17.0
86.27,-7.198,5.27,20.0
24.624,-2.059,2.195,22.0
24.613,-2.057,2.063,42.0
121.284,-10.136,9.522,13.0
118.042,-9.862,8.628,7.0
85.782,-7.165,5.815,12.0
86.607,-7.232,5.412,19.0
24.642,-2.062,2.232,3.0
24.604,-2.058,2.097,48.0
120.945,-10.114,9.666,20.0
118.113,-9.874,8.799,16.0
60.24,-5.034,4.167,4.0
86.707,-7.243,5.54,27.0
58.938,-4.935,5.421,5.0
24.584,-2.057,2.13,31.0
24.622,-2.059,2.002,1.0
60.54,-5.061,4.595,5.0
115.462,-9.649,8.149,17.0
86.113,-7.193,5.621,18.0
46.474,-3.891,4.34,4.0
24.593,-2.057,2.165,28.0
24.611,-2.058,2.035,22.0
60.543,-5.06,4.678,5.0
115.334,-9.632,8.3,15.0
85.864,-7.167,5.723,16.0
60.917,-5.097,5.773,1.0
24.607,-2.057,2.2,15.0
24.618,-2.057,2.069,45.0
121.235,-10.123,9.533,14.0
118.005,-9.846,8.65,7.0
85.773,-7.152,5.832,12.0
23.881,-1.996,2.295,1.0
24.607,-2.055,2.233,1.0
24.589,-2.052,2.1,53.0
120.925,-10.083,9.671,20.0
118.114,-9.84,8.816,11.0
60.225,-5.013,4.174,4.0
23.864,-1.991,2.326,14.0
46.52,-3.879,4.284,3.0
24.597,-2.048,2.133,34.0
24.633,-2.049,2.002,2.0
60.545,-5.034,4.599,7.0
115.525,-9.598,8.16,12.0
23.832,-1.984,2.354,27.0
23.891,-1.987,2.232,2.0
24.503,-2.036,2.157,22.0
24.602,-2.042,2.032,24.0
115.454,-9.575,8.922,5.0
115.369,-9.559,8.3,15.0
23.837,-1.98,2.386,59.0
23.883,-1.981,2.262,18.0
24.37,-2.019,2.177,5.0
24.6,-2.036,2.064,39.0
115.416,-9.543,9.066,6.0
115.358,-9.529,8.446,18.0
23.839,-1.974,2.417,70.0
23.883,-1.975,2.293,41.0
23.923,-1.976,2.168,13.0
24.159,-1.992,2.057,18.0
115.383,-9.507,9.208,11.0
60.541,-4.983,4.507,6.0
23.819,-1.965,2.445,49.0
23.875,-1.967,2.322,55.0
23.917,-1.968,2.197,32.0
23.955,-1.968,2.069,22.0
24.594,-2.018,1.993,2.0
60.539,-4.962,4.581,6.0
23.816,-1.957,2.474,41.0
23.853,-1.957,2.349,60.0
23.894,-1.957,2.224,52.0
23.949,-1.959,2.098,35.0
24.263,-1.982,1.995,14.0
119.518,-9.752,9.187,5.0
23.823,-1.948,2.503,42.0
23.845,-1.947,2.376,65.0
23.881,-1.947,2.251,63.0
23.92,-1.947,2.124,50.0
23.995,-1.95,2.001,26.0
121.302,-9.848,9.467,16.0
23.838,-1.94,2.533,37.0
23.837,-1.936,2.404,59.0
23.878,-1.937,2.279,66.0
23.914,-1.936,2.151,57.0
23.973,-1.938,2.027,40.0
120.894,-9.76,9.573,20.0
23.827,-1.928,2.559,4.0
23.841,-1.926,2.431,53.0
23.875,-1.925,2.306,57.0
23.907,-1.924,2.177,56.0
23.955,-1.925,2.053,55.0
24.093,-1.933,1.935,2.0
52.61,-4.232,5.711,4.0
23.842,-1.914,2.458,28.0
23.88,-1.914,2.333,41.0
23.91,-1.913,2.204,51.0
23.952,-1.913,2.078,52.0
24.024,-1.915,1.955,12.0
112.422,-8.986,12.326,23.0
23.832,-1.901,2.483,2.0
23.873,-1.9,2.358,19.0
23.904,-1.899,2.229,37.0
23.946,-1.899,2.103,45.0
23.991,-1.899,1.978,22.0
30.886,-2.451,3.419,11.0
47.094,-3.729,4.957,13.0
23.858,-1.885,2.381,3.0
23.903,-1.885,2.254,16.0
23.928,-1.883,2.126,27.0
23.989,-1.885,2.002,30.0
30.902,-2.434,3.453,37.0
39.056,-3.07,4.151,5.0
47.61,-3.734,4.802,1.0
47.127,-3.688,4.492,2.0
23.964,-1.871,2.154,18.0
23.976,-1.869,2.025,24.0
46.096,-3.601,5.198,9.0
112.584,-8.778,12.079,18.0
54.022,-4.202,5.501,4.0
111.686,-8.668,10.756,18.0
46.521,-3.603,4.227,5.0
23.996,-1.854,2.05,24.0
39.087,-3.028,4.445,3.0
30.921,-2.389,3.348,15.0
47.295,-3.647,4.862,4.0
58.066,-4.467,5.647,5.0
111.58,-8.565,10.245,16.0
24.046,-1.841,2.077,15.0
36.864,-2.83,4.227,6.0
30.924,-2.368,3.377,36.0
47.329,-3.616,4.909,14.0
58.921,-4.491,5.784,6.0
47.274,-3.595,4.383,9.0
24.059,-1.825,2.1,2.0
36.891,-2.805,4.264,16.0
45.993,-3.488,5.064,5.0
39.007,-2.951,4.081,10.0
59.251,-4.472,5.869,5.0
47.045,-3.542,4.403,6.0
112.777,-8.471,9.941,9.0
46.159,-3.475,5.376,3.0
30.381,-2.281,3.371,3.0
39.056,-2.925,4.119,3.0
52.46,-3.919,5.24,2.0
58.999,-4.396,5.571,3.0
46.512,-3.457,4.138,5.0
112.683,-8.393,13.218,28.0
30.405,-2.258,3.399,5.0
30.971,-2.294,3.292,22.0
47.68,-3.523,4.802,3.0
59.074,-4.354,5.626,8.0
46.511,-3.419,4.175,3.0
30.41,-2.24,3.591,18.0
30.411,-2.234,3.424,24.0
36.268,-2.656,3.884,2.0
31.017,-2.265,3.148,2.0
59.758,-4.353,5.737,6.0
24.92,-1.81,2.256,4.0
30.411,-2.214,3.615,91.0
30.419,-2.208,3.448,68.0
30.42,-2.202,3.28,4.0
30.974,-2.236,3.166,46.0
111.38,-8.017,10.776,16.0
24.898,-1.787,2.272,17.0
30.407,-2.187,3.636,29.0
30.426,-2.182,3.47,66.0
30.41,-2.174,3.301,36.0
38.969,-2.778,4.011,8.0
30.991,-2.203,3.019,2.0
24.888,-1.764,2.288,27.0
32.073,-2.277,3.858,18.0
36.855,-2.609,4.229,4.0
30.419,-2.146,3.322,60.0
38.96,-2.741,4.036,11.0
24.982,-1.752,2.45,26.0
24.92,-1.743,2.307,32.0
32.078,-2.247,3.88,15.0
53.42,-3.731,6.165,9.0
30.41,-2.117,3.341,36.0
25.002,-1.735,2.606,16.0
24.99,-1.729,2.467,59.0
24.954,-1.721,2.326,32.0
32.075,-2.216,3.899,21.0
32.026,-2.206,3.715,9.0
36.963,-2.538,4.083,5.0
25.031,-1.713,2.624,52.0
24.996,-1.705,2.482,58.0
24.976,-1.699,2.342,27.0
32.069,-2.184,3.917,19.0
32.003,-2.173,3.73,38.0
25.019,-1.693,2.777,0.0
25.023,-1.687,2.636,55.0
24.997,-1.68,2.495,26.0
31.059,-2.081,2.929,6.0
31.979,-2.146,3.923,34.0
31.945,-2.136,3.741,42.0
30.282,-2.018,3.377,4.0
25.02,-1.662,2.649,31.0
52.519,-3.476,5.269,4.0
53.057,-3.5,5.03,3.0
31.982,-2.113,3.939,66.0
31.947,-2.103,3.756,72.0
30.236,-1.983,3.387,36.0
30.4,-1.987,3.233,22.0
30.472,-1.985,3.071,33.0
45.234,-2.936,4.309,2.0
0.0,0.0,0.0,0.0
0.0,0.0,0.0,0.0
30.227,-1.951,3.399,34.0
30.378,-1.953,3.243,37.0
30.452,-1.951,3.082,53.0
47.56,-3.037,4.55,5.0
31.982,-2.044,3.966,2.0
30.165,-1.921,3.572,17.0
30.261,-1.92,3.414,3.0
30.39,-1.921,3.256,53.0
30.465,-1.918,3.095,57.0
47.528,-2.982,4.564,5.0
38.267,-2.403,4.76,4.0
30.116,-1.884,3.577,39.0
25.182,-1.569,2.85,22.0
30.405,-1.888,3.268,20.0
30.459,-1.884,3.104,53.0
47.518,-2.929,4.578,10.0
30.035,-1.853,3.746,43.0
30.099,-1.849,3.585,38.0
25.218,-1.543,2.862,26.0
31.714,-1.934,3.418,47.0
30.458,-1.85,3.113,39.0
30.49,-1.845,2.946,16.0
30.042,-1.819,3.755,60.0
30.123,-1.816,3.596,5.0
25.223,-1.515,2.869,27.0
31.733,-1.898,3.429,58.0
30.892,-1.841,3.165,40.0
30.49,-1.81,2.953,21.0
36.914,-2.192,4.623,4.0
33.506,-1.982,4.007,1.0
25.255,-1.488,2.878,31.0
31.751,-1.862,3.437,43.0
31.247,-1.826,3.207,40.0
30.5,-1.775,2.96,39.0
36.889,-2.148,4.627,11.0
33.352,-1.934,3.995,5.0
25.272,-1.459,2.884,19.0
37.04,-2.13,4.016,9.0
31.671,-1.814,3.256,47.0
30.52,-1.741,2.967,49.0
38.8,-2.214,4.872,15.0
33.414,-1.898,4.007,10.0
25.363,-1.435,2.898,20.0
46.104,-2.597,5.004,8.0
31.694,-1.777,3.262,15.0
30.526,-1.705,2.971,53.0
38.457,-2.148,4.833,46.0
33.489,-1.862,4.019,2.0
25.425,-1.408,2.907,10.0
46.136,-2.543,5.011,9.0
46.116,-2.531,4.75,11.0
30.517,-1.668,2.972,36.0
46.535,-2.543,5.851,7.0
36.965,-2.011,4.438,3.0
25.5,-1.381,2.917,1.0
39.833,-2.148,4.328,7.0
51.555,-2.767,5.311,6.0
24.07,-1.286,2.344,42.0
25.527,-1.364,3.21,13.0
25.454,-1.354,3.056,27.0
42.478,-2.249,4.859,3.0
36.836,-1.941,4.002,7.0
23.985,-1.258,2.47,24.0
24.071,-1.257,2.344,70.0
25.519,-1.332,3.208,59.0
25.484,-1.324,3.058,25.0
38.556,-1.994,4.409,51.0
23.901,-1.23,2.595,28.0
24.002,-1.229,2.47,40.0
24.072,-1.227,2.342,38.0
25.521,-1.3,3.206,14.0
33.777,-1.713,4.051,1.0
23.819,-1.202,2.721,22.0
23.864,-1.198,2.589,28.0
24.004,-1.2,2.468,41.0
38.762,-1.929,3.767,5.0
39.857,-1.981,5.002,3.0
23.747,-1.174,2.845,25.0
23.813,-1.172,2.717,47.0
23.885,-1.17,2.587,37.0
38.675,-1.884,3.971,13.0
38.729,-1.878,3.758,16.0
23.721,-1.149,2.973,3.0
23.689,-1.142,2.834,20.0
23.813,-1.142,2.713,49.0
46.362,-2.212,5.014,6.0
46.316,-2.199,4.747,18.0
46.288,-2.187,4.482,12.0
23.715,-1.119,2.967,59.0
23.701,-1.112,2.83,27.0
23.815,-1.112,2.708,11.0
59.95,-2.786,6.47,28.0
0.0,0.0,0.0,0.0
46.307,-2.13,4.472,27.0
23.831,-1.094,2.975,38.0
23.739,-1.084,2.828,24.0
39.869,-1.811,4.522,2.0
52.097,-2.355,5.607,16.0
46.291,-2.081,4.719,9.0
24.683,-1.104,2.376,4.0
23.846,-1.064,2.97,22.0
33.769,-1.499,4.013,2.0
43.025,-1.9,4.867,0.0
31.846,-1.399,3.417,5.0
24.666,-1.077,2.506,16.0
24.649,-1.071,2.364,57.0
37.381,-1.621,4.643,2.0
33.744,-1.455,3.997,1.0
42.983,-1.843,4.846,1.0
31.778,-1.355,3.398,18.0
24.663,-1.046,2.497,47.0
24.656,-1.04,2.356,76.0
39.237,-1.651,4.858,4.0
28.425,-1.189,3.356,5.0
28.414,-1.182,3.192,39.0
24.709,-1.022,2.632,22.0
24.653,-1.014,2.485,61.0
24.661,-1.009,2.345,45.0
28.405,-1.159,3.504,56.0
28.398,-1.151,3.34,85.0
28.392,-1.144,3.176,106.0
24.72,-0.991,2.621,43.0
24.676,-0.983,2.476,48.0
28.41,-1.126,2.688,101.0
28.399,-1.122,3.489,102.0
28.395,-1.115,3.325,102.0
28.385,-1.108,3.161,22.0
24.713,-0.959,2.608,42.0
24.663,-0.951,2.462,28.0
28.421,-1.09,2.675,62.0
28.414,-1.086,3.476,63.0
28.399,-1.079,3.31,35.0
24.793,-0.936,2.748,39.0
24.727,-0.928,2.596,36.0
37.186,-1.388,3.691,66.0
37.275,-1.383,3.487,17.0
32.244,-1.192,3.926,34.0
32.06,-1.178,3.719,8.0
24.812,-0.906,2.735,36.0
24.747,-0.898,2.583,5.0
37.196,-1.342,3.67,24.0
37.277,-1.336,3.464,31.0
0.0,0.0,0.0,0.0
24.914,-0.883,2.874,17.0
24.835,-0.875,2.722,39.0
43.752,-1.532,4.539,9.0
48.907,-1.702,4.794,3.0
28.376,-0.981,2.619,50.0
43.645,-1.502,5.257,18.0
24.887,-0.851,2.854,24.0
24.858,-0.844,2.707,9.0
47.944,-1.619,4.941,3.0
42.752,-1.434,4.161,4.0
28.372,-0.945,2.598,64.0
44.314,-1.469,5.306,11.0
24.883,-0.819,2.836,40.0
44.217,-1.446,4.784,4.0
47.813,-1.554,4.893,3.0
43.362,-1.4,4.188,17.0
28.368,-0.91,2.577,66.0
25.101,-0.8,2.986,26.0
24.851,-0.787,2.813,66.0
40.107,-1.261,4.308,3.0
54.969,-1.718,5.582,20.0
0.0,0.0,0.0,0.0
28.363,-0.874,2.554,70.0
25.123,-0.769,2.969,24.0
24.858,-0.756,2.793,31.0
44.45,-1.343,4.738,67.0
42.61,-1.278,4.292,6.0
0.0,0.0,0.0,0.0
28.361,-0.839,2.53,75.0
24.951,-0.733,2.927,15.0
40.049,-1.168,4.467,7.0
57.263,-1.659,6.055,6.0
44.481,-1.28,4.442,48.0
47.145,-1.346,4.437,6.0
28.364,-0.804,2.506,87.0
24.829,-0.699,2.891,44.0
41.125,-1.149,4.55,3.0
52.47,-1.456,5.501,9.0
50.553,-1.392,5.003,4.0
47.139,-1.289,4.393,4.0
28.361,-0.77,2.48,70.0
24.84,-0.669,2.869,47.0
41.002,-1.096,4.498,7.0
47.305,-1.255,4.915,4.0
47.134,-1.241,4.62,16.0
28.358,-0.741,2.615,68.0
28.369,-0.736,2.453,79.0
44.659,-1.149,5.115,3.0
0.0,0.0,0.0,0.0
51.735,-1.31,5.324,9.0
51.774,-1.301,5.023,17.0
28.347,-0.707,2.586,73.0
28.367,-0.702,2.425,77.0
44.167,-1.083,5.013,39.0
51.715,-1.259,5.569,8.0
61.658,-1.489,6.283,10.0
31.47,-0.754,3.021,1.0
28.349,-0.674,2.557,76.0
28.363,-0.669,2.395,77.0
44.59,-1.041,5.014,19.0
44.628,-1.033,4.758,66.0
44.524,-1.023,4.489,21.0
31.448,-0.716,2.985,48.0
28.347,-0.64,2.527,77.0
28.359,-0.635,2.364,73.0
40.596,-0.9,4.52,7.0
44.645,-0.982,4.711,7.0
31.486,-0.686,3.139,34.0
28.341,-0.613,2.658,49.0
28.348,-0.608,2.495,84.0
28.359,-0.602,2.332,72.0
51.84,-1.089,5.712,4.0
44.44,-0.926,4.638,20.0
31.486,-0.65,3.103,38.0
28.34,-0.58,2.625,74.0
28.347,-0.575,2.462,78.0
28.346,-0.57,2.298,68.0
40.384,-0.803,4.402,11.0
31.593,-0.622,3.26,36.0
37.746,-0.737,3.675,6.0
28.32,-0.548,2.59,18.0
28.341,-0.543,2.427,49.0
28.358,-0.539,2.264,69.0
31.76,-0.595,3.423,6.0
31.611,-0.587,3.223,15.0
37.704,-0.694,3.624,57.0
47.782,-0.871,4.31,4.0
31.308,-0.565,2.642,65.0
61.555,-1.102,4.839,0.0
31.714,-0.559,3.378,36.0
57.696,-1.008,5.808,5.0
37.734,-0.653,3.578,34.0
40.423,-0.693,3.594,10.0
31.31,-0.531,2.602,26.0
54.141,-0.91,4.186,19.0
31.739,-0.525,3.339,22.0
37.646,-0.617,3.741,65.0
28.301,-0.459,2.647,7.0
31.229,-0.502,2.736,39.0
38.573,-0.614,3.156,38.0
38.639,-0.608,2.937,27.0
37.635,-0.583,3.909,64.0
37.681,-0.578,3.694,20.0
54.345,-0.825,5.01,4.0
31.222,-0.469,2.693,44.0
38.563,-0.573,3.102,61.0
38.651,-0.569,2.886,81.0
37.65,-0.544,3.858,5.0
54.923,-0.785,5.307,6.0
31.174,-0.441,2.831,7.0
38.547,-0.539,3.272,25.0
38.611,-0.534,3.052,38.0
38.643,-0.529,2.831,72.0
54.627,-0.733,5.521,4.0
54.246,-0.72,5.165,56.0
31.192,-0.409,2.788,48.0
38.544,-0.5,3.216,67.0
46.926,-0.602,3.643,7.0
38.654,-0.491,2.776,54.0
54.758,-0.681,5.455,9.0
54.362,-0.668,5.098,5.0
38.626,-0.469,3.396,8.0
47.018,-0.564,3.855,38.0
46.803,-0.555,3.565,30.0
60.785,-0.713,4.278,10.0
54.625,-0.626,5.36,22.0
31.138,-0.352,2.874,35.0
38.588,-0.432,3.336,58.0
51.538,-0.569,4.149,11.0
44.579,-0.486,3.329,61.0
52.308,-0.563,3.603,50.0
47.245,-0.497,4.565,29.0
31.147,-0.323,2.827,41.0
51.437,-0.526,4.367,20.0
52.047,-0.526,4.111,10.0
38.665,-0.386,2.828,37.0
64.329,-0.633,4.331,34.0
47.022,-0.451,4.47,27.0
38.675,-0.365,3.45,45.0
52.122,-0.486,4.344,6.0
44.596,-0.41,3.452,36.0
52.323,-0.474,3.746,57.0
52.744,-0.471,3.469,60.0
31.09,-0.27,2.906,43.0
38.557,-0.33,3.378,53.0
52.338,-0.441,4.279,12.0
52.33,-0.435,3.968,23.0
52.712,-0.432,3.689,88.0
52.78,-0.426,3.387,43.0
38.77,-0.303,3.561,8.0
44.641,-0.343,3.838,5.0
46.83,-0.354,3.752,9.0
38.614,-0.287,2.864,46.0
104.125,-0.764,7.118,24.0
104.16,-0.752,6.514,9.0
51.307,-0.357,4.627,14.0
0.0,0.0,0.0,0.0
43.827,-0.295,3.439,18.0
58.326,-0.386,4.23,28.0
53.236,-0.346,3.55,53.0
45.595,-0.292,2.775,5.0
38.564,-0.237,3.413,22.0
46.855,-0.283,3.872,4.0
38.585,-0.229,2.962,40.0
58.341,-0.339,4.133,74.0
58.482,-0.334,3.802,44.0
45.574,-0.255,2.697,79.0
40.422,-0.216,3.508,2.0
38.53,-0.202,3.117,5.0
52.717,-0.271,3.957,21.0
53.319,-0.269,3.685,40.0
58.538,-0.29,3.704,23.0
45.913,-0.222,2.638,57.0
57.915,-0.266,4.925,14.0
38.547,-0.173,3.052,53.0
53.537,-0.235,3.926,10.0
53.319,-0.23,3.593,20.0
45.531,-0.191,2.802,71.0
58.872,-0.242,3.28,46.0
57.2,-0.221,4.764,6.0
52.679,-0.199,4.078,12.0
53.498,-0.197,3.828,32.0
45.549,-0.163,2.989,18.0
45.793,-0.16,2.737,49.0
58.536,-0.199,3.158,75.0
43.062,-0.136,3.509,9.0
53.621,-0.165,4.055,27.0
53.504,-0.16,3.733,7.0
45.502,-0.132,2.903,71.0
46.13,-0.13,2.674,44.0
58.473,-0.16,3.049,20.0
38.559,-0.097,3.072,31.0
53.609,-0.13,3.957,26.0
45.548,-0.107,3.095,10.0
45.545,-0.103,2.823,31.0
59.92,-0.131,3.364,40.0
59.267,-0.124,2.982,52.0
53.281,-0.1,4.147,57.0
102.093,-0.184,7.346,9.0
45.471,-0.078,3.006,66.0
46.118,-0.076,2.774,43.0
59.23,-0.093,3.217,36.0
58.335,-0.087,2.828,150.0
66.653,-0.085,5.065,10.0
66.675,-0.08,4.675,16.0
45.504,-0.052,2.924,43.0
46.123,-0.049,2.689,31.0
59.187,-0.059,3.104,32.0
58.22,-0.053,2.714,255.0
66.599,-0.047,4.934,1.0
45.477,-0.029,3.102,55.0
58.698,-0.034,3.66,20.0
59.924,-0.03,3.38,29.0
59.328,-0.026,2.999,25.0
58.276,-0.022,2.605,12.0
68.266,-0.012,4.927,25.0
45.469,-0.005,3.015,37.0
46.11,-0.002,2.787,51.0
59.864,0.0,3.262,34.0
66.785,0.004,3.248,29.0
20.116,0.002,0.861,29.0
45.516,0.014,3.196,46.0
58.671,0.022,3.777,47.0
46.121,0.02,2.698,14.0
59.345,0.028,3.119,47.0
66.769,0.036,3.119,11.0
20.1,0.011,0.821,25.0
45.497,0.035,3.107,63.0
58.653,0.048,3.662,26.0
59.954,0.053,3.392,43.0
66.753,0.062,3.378,44.0
20.099,0.019,0.899,15.0
20.095,0.02,0.782,26.0
58.669,0.071,3.892,54.0
46.125,0.058,2.788,51.0
59.54,0.077,3.251,45.0
66.755,0.09,3.247,50.0
20.097,0.028,0.86,25.0
20.108,0.028,0.742,29.0
58.662,0.094,3.774,12.0
60.005,0.099,3.509,33.0
66.67,0.112,3.507,39.0
20.132,0.034,0.939,5.0
20.1,0.035,0.82,25.0
20.127,0.036,0.703,32.0
60.151,0.118,3.75,13.0
59.838,0.12,3.379,34.0
66.772,0.136,3.378,38.0
20.085,0.041,0.896,15.0
20.093,0.042,0.779,21.0
20.196,0.043,0.665,35.0
46.155,0.106,2.783,55.0
59.397,0.138,3.233,30.0
66.99,0.158,3.255,46.0
20.112,0.048,0.857,24.0
20.111,0.048,0.739,30.0
20.198,0.049,0.624,26.0
46.201,0.119,2.692,4.0
66.782,0.174,3.5,40.0
20.126,0.053,0.936,6.0
20.082,0.053,0.815,20.0
20.158,0.054,0.7,25.0
20.19,0.054,0.583,34.0
59.431,0.168,3.343,26.0
66.937,0.191,3.372,33.0
20.107,0.057,0.895,14.0
20.117,0.058,0.775,22.0
20.212,0.058,0.661,28.0
20.169,0.059,0.541,23.0
66.837,0.204,3.621,22.0
66.353,0.204,3.205,21.0
20.129,0.062,0.854,21.0
20.127,0.062,0.734,29.0
20.196,0.062,0.619,24.0
20.158,0.062,0.499,24.0
66.815,0.216,3.481,48.0
20.137,0.065,0.931,8.0
20.127,0.065,0.812,22.0
20.187,0.065,0.694,22.0
20.181,0.066,0.576,28.0
20.155,0.066,0.458,30.0
104.524,0.353,5.23,22.0
20.105,0.068,0.888,15.0
20.121,0.068,0.77,25.0
20.192,0.068,0.653,20.0
20.169,0.068,0.534,22.0
20.158,0.068,0.416,30.0
66.067,0.23,3.168,14.0
20.119,0.07,0.847,20.0
20.146,0.07,0.73,30.0
20.19,0.07,0.611,23.0
20.148,0.07,0.492,23.0
20.142,0.069,0.374,26.0
20.134,0.071,0.923,10.0
20.132,0.071,0.805,22.0
20.188,0.071,0.689,17.0
20.174,0.071,0.569,28.0
20.146,0.071,0.45,28.0
20.137,0.07,0.331,25.0
20.12,0.072,0.88,17.0
20.147,0.072,0.763,28.0
20.199,0.071,0.647,18.0
20.162,0.071,0.525,22.0
20.149,0.071,0.407,27.0
20.146,0.07,0.289,25.0
20.125,0.072,0.838,23.0
20.156,0.071,0.721,27.0
20.196,0.071,0.604,24.0
20.153,0.071,0.483,26.0
20.132,0.07,0.364,26.0
20.147,0.07,0.246,26.0
20.134,0.071,0.796,24.0
20.207,0.07,0.68,18.0
20.18,0.07,0.561,27.0
20.144,0.069,0.44,29.0
20.153,0.069,0.322,25.0
20.145,0.068,0.204,27.0
20.142,0.069,0.753,32.0
20.206,0.069,0.637,20.0
20.169,0.068,0.518,22.0
20.137,0.067,0.397,27.0
20.148,0.067,0.279,25.0
20.145,0.066,0.161,28.0
20.18,0.067,0.711,26.0
20.188,0.066,0.593,28.0
20.138,0.065,0.474,27.0
20.141,0.065,0.354,27.0
20.148,0.064,0.236,27.0
20.144,0.063,0.118,28.0
20.217,0.064,0.67,29.0
20.179,0.063,0.55,23.0
20.144,0.062,0.431,29.0
20.138,0.061,0.311,25.0
20.144,0.06,0.193,29.0
20.197,0.06,0.076,25.0
20.199,0.06,0.626,26.0
20.15,0.059,0.506,24.0
20.143,0.058,0.388,26.0
20.139,0.057,0.268,26.0
20.139,0.056,0.151,26.0
20.217,0.055,0.033,29.0
20.183,0.055,0.582,32.0
20.137,0.054,0.463,28.0
20.137,0.053,0.346,27.0
20.139,0.052,0.226,28.0
20.144,0.051,0.108,27.0
20.209,0.05,-0.009,23.0
20.164,0.049,0.539,27.0
20.144,0.048,0.421,29.0
20.14,0.047,0.303,27.0
20.133,0.046,0.183,27.0
20.181,0.045,0.066,17.0
20.236,0.044,-0.052,8.0
20.151,0.043,0.496,28.0
20.138,0.042,0.378,26.0
20.132,0.041,0.26,27.0
20.143,0.04,0.14,27.0
20.271,0.039,0.023,8.0
20.249,0.037,-0.095,32.0
20.143,0.036,0.453,29.0
20.143,0.035,0.335,28.0
20.128,0.034,0.217,26.0
20.145,0.032,0.097,26.0
20.277,0.031,-0.02,70.0
20.258,0.03,-0.138,117.0
20.137,0.028,0.41,28.0
20.135,0.027,0.292,28.0
20.141,0.026,0.174,26.0
20.221,0.024,0.055,27.0
20.259,0.023,-0.063,151.0
20.261,0.021,-0.181,150.0
20.147,0.02,0.367,26.0
20.144,0.018,0.25,26.0
20.145,0.017,0.132,27.0
20.253,0.015,0.012,152.0
20.253,0.014,-0.106,151.0
20.257,0.012,-0.224,150.0
20.131,0.011,0.325,27.0
20.127,0.009,0.207,27.0
20.139,0.007,0.089,33.0
20.236,0.006,-0.029,152.0
20.26,0.004,-0.148,150.0
20.269,0.002,-0.267,67.0
20.127,0.001,0.283,28.0
20.124,0.0,0.165,27.0
20.243,-0.002,0.047,29.0
20.235,-0.004,-0.072,27.0
20.236,-0.005,-0.19,8.0
20.249,-0.007,-0.309,2.0
20.124,-0.009,0.24,27.0
20.122,-0.011,0.123,32.0
20.153,-0.013,0.005,11.0
20.156,-0.015,-0.114,18.0
20.164,-0.017,-0.232,6.0
0.0,0.0,0.0,0.0
20.123,-0.02,0.199,33.0
20.122,-0.022,0.082,34.0
20.133,-0.024,-0.035,23.0
20.167,-0.026,-0.155,24.0
20.156,-0.028,-0.272,17.0
39.443,-0.059,-0.764,0.0
20.124,-0.032,0.158,32.0
20.143,-0.035,0.04,37.0
20.151,-0.037,-0.076,29.0
20.135,-0.039,-0.196,13.0
20.166,-0.041,-0.314,19.0
37.652,-0.081,-0.807,2.0
20.125,-0.045,0.117,42.0
20.129,-0.048,0.0,36.0
20.14,-0.05,-0.118,29.0
20.148,-0.052,-0.237,24.0
20.162,-0.054,-0.355,17.0
20.176,-0.056,-0.474,0.0
20.141,-0.059,0.076,45.0
20.138,-0.061,-0.041,30.0
20.142,-0.063,-0.159,33.0
20.139,-0.066,-0.279,27.0
20.17,-0.068,-0.397,24.0
33.149,-0.116,-0.846,6.0
27.424,-0.529,-0.762,3.0
23.385,-0.455,-0.786,2.0
22.872,-0.45,-0.901,0.0
0.0,0.0,0.0,0.0
0.0,0.0,0.0,0.0
16.668,-0.338,-0.949,0.0
26.378,-0.54,-0.776,1.0
22.382,-0.463,-0.788,2.0
21.964,-0.459,-0.901,1.0
21.817,-0.46,-1.024,0.0
0.0,0.0,0.0,0.0
16.269,-0.35,-0.953,0.0
24.429,-0.531,-0.757,4.0
21.602,-0.474,-0.795,1.0
21.291,-0.471,-0.907,0.0
21.176,-0.473,-1.027,0.0
17.133,-0.386,-0.93,0.0
15.712,-0.357,-0.945,0.0
23.787,-0.546,-0.774,9.0
20.902,-0.485,-0.802,1.0
20.735,-0.485,-0.916,1.0
20.776,-0.49,-1.04,0.0
17.002,-0.405,-0.95,2.0
15.469,-0.371,-0.954,0.0
23.258,-0.564,-0.793,3.0
20.265,-0.496,-0.808,1.0
20.16,-0.498,-0.921,0.0
18.409,-0.458,-0.95,0.0
16.636,-0.418,-0.955,1.0
14.955,-0.379,-0.945,0.0
21.975,-0.562,-0.782,0.0
19.724,-0.508,-0.816,1.0
19.56,-0.509,-0.923,0.0
19.406,-0.509,-1.03,0.0
14.602,-0.389,-0.945,0.0
21.004,-0.565,-0.779,0.0
19.143,-0.519,-0.821,1.0
18.974,-0.519,-0.923,0.0
18.888,-0.521,-1.03,0.0
15.865,-0.441,-0.958,0.0
14.359,-0.402,-0.95,0.0
20.575,-0.582,-0.793,0.0
18.614,-0.53,-0.825,0.0
18.393,-0.528,-0.921,0.0
17.256,-0.499,-0.966,0.0
15.348,-0.448,-0.948,0.0
14.154,-0.416,-0.957,0.0
19.926,-0.591,-0.796,0.0
18.054,-0.539,-0.826,0.0
17.912,-0.539,-0.922,0.0
17.714,-0.537,-1.017,0.0
15.02,-0.459,-0.949,0.0
13.788,-0.425,-0.951,0.0
19.477,-0.604,-0.805,0.0
17.571,-0.549,-0.827,0.0
17.404,-0.548,-0.92,0.0
17.347,-0.55,-1.019,0.0
14.622,-0.467,-0.944,0.0
13.502,-0.435,-0.949,0.0
18.768,-0.609,-0.8,0.0
17.126,-0.559,-0.829,0.0
16.992,-0.559,-0.92,0.0
16.607,-0.55,-0.997,0.0
14.404,-0.481,-0.948,0.0
13.352,-0.449,-0.956,0.0
18.341,-0.621,-0.806,0.0
16.734,-0.57,-0.831,0.0
16.493,-0.566,-0.915,0.0
16.159,-0.559,-0.991,0.0
14.163,-0.493,-0.951,0.0
13.114,-0.46,-0.956,0.0
17.777,-0.627,-0.803,0.0
16.271,-0.578,-0.829,1.0
16.214,-0.58,-0.919,1.0
16.039,-0.578,-1.004,0.0
13.907,-0.504,-0.951,0.0
12.95,-0.473,-0.96,0.0
17.26,-0.634,-0.801,0.0
16.109,-0.596,-0.84,1.0
16.036,-0.597,-0.929,0.0
14.782,-0.554,-0.943,0.0
13.664,-0.516,-0.95,0.0
12.713,-0.483,-0.958,0.0
17.091,-0.653,-0.813,0.0
15.963,-0.614,-0.851,1.0
15.935,-0.617,-0.942,0.0
14.554,-0.567,-0.946,0.0
13.477,-0.529,-0.953,0.0
12.542,-0.495,-0.96,0.0
16.793,-0.666,-0.818,0.0
15.872,-0.634,-0.865,1.0
15.843,-0.637,-0.954,0.0
14.419,-0.583,-0.953,0.0
13.369,-0.544,-0.961,0.0
12.388,-0.507,-0.962,0.0
16.376,-0.674,-0.816,1.0
15.771,-0.653,-0.877,1.0
15.701,-0.654,-0.963,0.0
14.209,-0.596,-0.955,0.0
13.18,-0.556,-0.961,0.0
12.216,-0.519,-0.961,0.0
16.246,-0.693,-0.827,1.0
15.681,-0.673,-0.888,1.0
15.64,-0.675,-0.975,0.0
13.991,-0.608,-0.954,0.0
13.01,-0.568,-0.962,0.0
11.984,-0.527,-0.956,0.0
15.995,-0.706,-0.83,0.0
15.6,-0.693,-0.899,1.0
15.34,-0.685,-0.972,0.0
13.733,-0.617,-0.951,0.0
12.787,-0.578,-0.959,0.0
11.865,-0.54,-0.958,0.0
15.701,-0.717,-0.83,0.0
15.508,-0.712,-0.909,1.0
14.832,-0.685,-0.955,0.0
13.567,-0.631,-0.952,0.0
12.658,-0.592,-0.961,0.0
11.715,-0.551,-0.957,0.0
15.563,-0.734,-0.838,0.0
15.417,-0.732,-0.918,1.0
14.572,-0.696,-0.952,0.0
13.462,-0.646,-0.958,0.0
12.519,-0.604,-0.962,0.0
11.58,-0.562,-0.957,0.0
15.428,-0.752,-0.845,1.0
15.342,-0.752,-0.928,1.0
14.438,-0.711,-0.956,0.0
13.286,-0.658,-0.957,0.0
12.305,-0.613,-0.957,0.0
11.426,-0.573,-0.954,0.0
15.327,-0.771,-0.852,1.0
15.253,-0.771,-0.936,1.0
14.419,-0.733,-0.967,0.0
13.125,-0.671,-0.957,0.0
12.193,-0.627,-0.959,0.0
11.34,-0.586,-0.957,0.0
15.23,-0.789,-0.859,1.0
15.2,-0.792,-0.945,0.0
14.143,-0.741,-0.96,0.0
12.973,-0.683,-0.956,0.0
12.128,-0.642,-0.963,0.0
11.182,-0.595,-0.952,0.0
15.143,-0.808,-0.866,0.0
15.017,-0.806,-0.945,1.0
13.93,-0.751,-0.956,0.0
12.866,-0.698,-0.958,0.0
12.022,-0.655,-0.964,0.0
11.143,-0.611,-0.957,0.0
15.068,-0.828,-0.873,1.0
14.927,-0.824,-0.95,2.0
13.811,-0.766,-0.958,0.0
12.79,-0.713,-0.962,0.0
11.876,-0.666,-0.961,0.0
11.046,-0.623,-0.957,0.0
15.006,-0.848,-0.88,1.0
14.88,-0.845,-0.958,2.0
13.69,-0.781,-0.959,0.0
12.657,-0.726,-0.96,0.0
11.743,-0.677,-0.958,0.0
11.02,-0.638,-0.962,0.0
14.937,-0.867,-0.886,1.0
14.888,-0.868,-0.968,1.0
13.586,-0.796,-0.96,0.0
12.537,-0.738,-0.959,0.0
11.677,-0.691,-0.96,0.0
10.904,-0.649,-0.959,0.0
14.894,-0.888,-0.892,1.0
14.817,-0.887,-0.972,1.0
24.596,-1.48,-1.754,0.0
12.478,-0.755,-0.962,0.0
11.593,-0.704,-0.96,0.0
10.827,-0.661,-0.958,0.0
14.824,-0.907,-0.897,1.0
14.781,-0.908,-0.978,0.0
24.563,-1.517,-1.765,0.0
12.45,-0.772,-0.967,0.0
11.521,-0.718,-0.96,0.0
10.705,-0.67,-0.953,0.0
14.764,-0.926,-0.901,1.0
14.698,-0.926,-0.98,0.0
24.544,-1.554,-1.776,0.0
12.38,-0.787,-0.967,0.0
11.471,-0.733,-0.962,0.0
10.689,-0.686,-0.957,0.0
14.694,-0.944,-0.904,1.0
14.552,-0.939,-0.977,0.0
13.097,-0.849,-0.954,0.0
12.318,-0.802,-0.968,0.0
11.406,-0.746,-0.961,0.0
10.613,-0.697,-0.955,0.0
14.654,-0.964,-0.908,1.0
14.393,-0.951,-0.973,0.0
13.118,-0.871,-0.961,0.0
12.23,-0.815,-0.967,0.0
11.286,-0.756,-0.956,0.0
10.596,-0.713,-0.958,0.0
14.608,-0.984,-0.911,1.0
14.26,-0.964,-0.969,0.0
13.054,-0.887,-0.961,0.0
12.134,-0.828,-0.964,0.0
11.25,-0.771,-0.957,0.0
10.564,-0.727,-0.959,0.0
14.542,-1.001,-0.912,1.0
14.155,-0.979,-0.967,0.0
13.017,-0.904,-0.963,0.0
12.078,-0.842,-0.963,0.0
11.195,-0.784,-0.956,0.0
10.553,-0.742,-0.961,0.0
14.507,-1.021,-0.914,1.0
14.073,-0.994,-0.966,0.0
12.947,-0.919,-0.962,0.0
12.037,-0.858,-0.963,0.0
11.17,-0.799,-0.957,0.0
10.503,-0.754,-0.96,0.0
14.43,-1.037,-0.913,1.0
14.09,-1.017,-0.971,0.0
12.942,-0.938,-0.965,0.0
12.001,-0.873,-0.963,0.0
11.129,-0.813,-0.956,0.0
10.474,-0.768,-0.959,0.0
14.389,-1.056,-0.913,1.0
14.071,-1.036,-0.972,0.0
12.905,-0.954,-0.965,0.0
11.945,-0.887,-0.961,0.0
11.104,-0.828,-0.956,0.0
10.46,-0.783,-0.96,0.0
14.334,-1.073,-0.913,1.0
14.065,-1.057,-0.975,0.0
12.807,-0.966,-0.959,0.0
11.955,-0.905,-0.964,0.0
11.097,-0.844,-0.958,0.0
10.438,-0.797,-0.96,0.0
14.291,-1.091,-0.912,1.0
14.039,-1.076,-0.975,0.0
12.841,-0.988,-0.964,0.0
11.912,-0.92,-0.962,0.0
11.111,-0.861,-0.96,0.0
10.434,-0.812,-0.96,0.0
14.247,-1.109,-0.911,1.0
14.117,-1.103,-0.981,0.0
12.875,-1.009,-0.967,0.0
11.959,-0.941,-0.967,0.0
11.057,-0.873,-0.956,0.0
10.454,-0.829,-0.963,0.0
14.197,-1.125,-0.908,1.0
14.123,-1.124,-0.982,0.0
12.799,-1.022,-0.962,0.0
11.935,-0.956,-0.965,0.0
11.085,-0.892,-0.959,0.0
10.432,-0.842,-0.961,0.0
14.149,-1.142,-0.905,1.0
14.088,-1.141,-0.98,0.0
12.839,-1.044,-0.965,0.0
11.905,-0.971,-0.963,0.0
11.096,-0.908,-0.96,0.0
10.434,-0.857,-0.961,0.0
14.128,-1.16,-0.904,1.0
14.083,-1.16,-0.979,0.0
12.852,-1.063,-0.966,0.0
11.931,-0.99,-0.964,0.0
11.128,-0.927,-0.962,0.0
10.432,-0.872,-0.96,0.0
14.077,-1.176,-0.899,1.0
14.065,-1.179,-0.977,0.0
12.881,-1.083,-0.967,0.0
11.89,-1.003,-0.96,0.0
11.124,-0.942,-0.96,0.0
10.458,-0.888,-0.961,0.0
14.041,-1.192,-0.896,1.0
14.024,-1.195,-0.972,1.0
12.927,-1.105,-0.969,0.0
11.949,-1.025,-0.963,0.0
11.133,-0.958,-0.96,0.0
10.507,-0.907,-0.965,0.0
14.015,-1.209,-0.892,1.0
13.988,-1.211,-0.968,1.0
12.923,-1.122,-0.966,0.0
11.998,-1.045,-0.965,0.0
11.119,-0.972,-0.956,0.0
10.511,-0.921,-0.963,0.0
13.966,-1.224,-0.886,1.0
13.965,-1.227,-0.964,1.0
12.991,-1.145,-0.969,0.0
12.016,-1.063,-0.964,0.0
11.147,-0.989,-0.956,0.0
10.54,-0.938,-0.963,0.0
13.941,-1.24,-0.881,1.0
13.929,-1.243,-0.958,1.0
13.096,-1.172,-0.973,0.0
12.067,-1.083,-0.965,0.0
11.276,-1.015,-0.965,0.0
10.537,-0.952,-0.96,0.0
13.911,-1.255,-0.876,1.0
13.898,-1.258,-0.952,1.0
13.13,-1.192,-0.972,0.0
12.09,-1.101,-0.963,0.0
11.296,-1.031,-0.963,0.0
10.558,-0.967,-0.959,0.0
13.889,-1.271,-0.87,1.0
13.861,-1.272,-0.945,1.0
13.2,-1.215,-0.973,0.0
12.202,-1.126,-0.968,0.0
11.359,-1.051,-0.965,0.0
10.658,-0.99,-0.964,0.0
13.847,-1.284,-0.862,1.0
13.845,-1.288,-0.939,1.0
13.275,-1.238,-0.974,0.0
12.203,-1.141,-0.964,0.0
11.406,-1.07,-0.964,0.0
10.653,-1.002,-0.96,0.0
13.847,-1.301,-0.857,1.0
13.823,-1.303,-0.932,1.0
13.407,-1.267,-0.978,0.0
12.362,-1.171,-0.972,0.0
11.499,-1.093,-0.967,0.0
10.79,-1.028,-0.968,0.0
13.841,-1.317,-0.851,0.0
13.776,-1.315,-0.923,1.0
13.511,-1.293,-0.98,0.0
12.263,-1.177,-0.958,0.0
11.61,-1.117,-0.972,0.0
10.784,-1.04,-0.962,0.0
13.899,-1.339,-0.848,0.0
13.752,-1.328,-0.915,1.0
13.524,-1.31,-0.974,1.0
12.595,-1.223,-0.978,0.0
11.701,-1.139,-0.973,0.0
10.85,-1.059,-0.963,0.0
13.963,-1.361,-0.845,0.0
13.721,-1.341,-0.906,1.0
13.56,-1.329,-0.97,1.0
12.875,-1.265,-0.993,0.0
11.736,-1.156,-0.97,0.0
10.944,-1.08,-0.965,0.0
14.034,-1.384,-0.842,0.0
13.698,-1.354,-0.897,1.0
13.611,-1.349,-0.966,2.0
12.827,-1.274,-0.983,0.0
11.811,-1.176,-0.97,0.0
11.046,-1.103,-0.968,0.0
14.151,-1.411,-0.841,0.0
13.675,-1.367,-0.888,1.0
13.59,-1.361,-0.957,1.0
12.874,-1.292,-0.979,0.0
11.884,-1.196,-0.969,0.0
11.126,-1.122,-0.968,0.0
14.238,-1.434,-0.838,1.0
13.655,-1.379,-0.878,1.0
13.613,-1.377,-0.95,1.0
12.987,-1.317,-0.979,0.0
12.026,-1.223,-0.973,0.0
11.198,-1.141,-0.967,0.0
14.321,-1.457,-0.834,1.0
13.638,-1.391,-0.869,1.0
13.615,-1.391,-0.942,1.0
13.111,-1.343,-0.98,0.0
12.128,-1.245,-0.973,0.0
11.276,-1.16,-0.967,0.0
14.43,-1.483,-0.831,0.0
13.63,-1.403,-0.859,1.0
13.596,-1.403,-0.931,1.0
13.408,-1.386,-0.993,0.0
12.154,-1.259,-0.967,0.0
11.415,-1.186,-0.971,0.0
14.579,-1.512,-0.829,0.0
13.667,-1.42,-0.852,0.0
13.568,-1.413,-0.919,1.0
13.507,-1.409,-0.991,1.0
12.216,-1.277,-0.963,0.0
11.506,-1.206,-0.97,0.0
14.722,-1.541,-0.826,1.0
13.799,-1.447,-0.849,0.0
13.555,-1.424,-0.908,1.0
13.513,-1.422,-0.981,2.0
13.304,-1.403,-1.038,0.0
11.629,-1.229,-0.971,0.0
14.871,-1.569,-0.823,1.0
13.909,-1.471,-0.846,0.0
13.535,-1.434,-0.897,1.0
13.52,-1.435,-0.971,1.0
13.25,-1.409,-1.024,0.0
11.743,-1.251,-0.971,0.0
15.056,-1.602,-0.822,1.0
14.027,-1.495,-0.842,1.0
13.52,-1.443,-0.885,1.0
13.509,-1.445,-0.959,1.0
13.12,-1.406,-1.003,0.0
11.868,-1.274,-0.972,0.0
15.182,-1.627,-0.816,1.0
14.17,-1.521,-0.839,1.0
13.495,-1.452,-0.872,1.0
13.486,-1.453,-0.946,1.0
13.062,-1.41,-0.988,0.0
12.037,-1.302,-0.976,0.0
15.297,-1.652,-0.809,1.0
14.329,-1.55,-0.836,1.0
13.504,-1.463,-0.861,1.0
13.419,-1.456,-0.93,4.0
13.222,-1.437,-0.988,0.0
12.108,-1.318,-0.971,0.0
15.415,-1.676,-0.802,1.0
14.436,-1.572,-0.829,1.0
13.57,-1.48,-0.853,0.0
13.37,-1.46,-0.914,8.0
13.384,-1.464,-0.988,1.0
12.286,-1.346,-0.974,0.0
15.594,-1.706,-0.797,0.0
14.59,-1.599,-0.825,0.0
13.736,-1.507,-0.851,0.0
13.394,-1.472,-0.904,5.0
13.363,-1.471,-0.974,6.0
13.311,-1.468,-1.043,0.0
15.889,-1.749,-0.798,1.0
14.808,-1.632,-0.823,1.0
13.895,-1.534,-0.848,0.0
13.446,-1.486,-0.894,2.0
13.355,-1.479,-0.961,8.0
13.337,-1.479,-1.032,1.0
16.067,-1.779,-0.791,1.0
14.977,-1.66,-0.818,1.0
