X,Y,Z,Reflectivity
36.966,-0.287,4.7,32.0
47.25,-0.358,5.749,29.0
46.919,-0.347,5.452,21.0
31.828,-0.229,3.521,40.0
38.916,-0.273,4.094,64.0
38.885,-0.266,3.879,59.0
47.309,-0.323,6.064,4.0
47.37,-0.315,5.812,3.0
0.0,0.0,0.0,0.0
31.84,-0.199,3.555,29.0
39.034,-0.237,4.145,47.0
38.903,-0.229,3.92,59.0
37.512,-0.22,4.846,19.0
38.623,-0.219,4.777,44.0
31.939,-0.175,3.775,1.0
39.109,-0.207,4.405,27.0
39.069,-0.199,4.187,23.0
46.071,-0.226,4.687,1.0
37.873,-0.185,4.929,19.0
38.628,-0.181,4.815,14.0
39.177,-0.176,4.668,20.0
39.118,-0.168,4.443,21.0
42.806,-0.176,4.628,5.0
51.292,-0.201,5.265,40.0
38.258,-0.148,5.015,35.0
39.215,-0.144,4.924,11.0
31.934,-0.111,3.834,49.0
36.845,-0.121,4.218,17.0
36.915,-0.114,4.024,3.0
52.242,-0.152,5.409,19.0
31.952,-0.091,4.216,13.0
31.963,-0.085,4.042,63.0
31.955,-0.078,3.864,70.0
36.545,-0.083,4.214,5.0
52.214,-0.108,5.735,39.0
42.874,-0.081,4.474,4.0
31.979,-0.058,4.247,40.0
31.965,-0.052,4.068,60.0
31.953,-0.045,3.89,12.0
52.205,-0.064,6.063,21.0
36.127,-0.037,3.997,4.0
42.548,-0.036,4.474,3.0
31.962,-0.024,4.27,75.0
36.331,-0.02,4.653,3.0
36.137,-0.013,4.428,5.0
36.477,-0.006,4.265,3.0
36.692,0.001,4.088,13.0
36.266,0.008,3.841,5.0
31.929,0.01,4.29,48.0
36.407,0.018,4.69,24.0
36.203,0.025,4.463,14.0
39.607,0.036,4.659,2.0
36.499,0.04,4.092,10.0
30.707,0.039,3.274,23.0
31.93,0.044,4.313,34.0
0.0,0.0,0.0,0.0
36.172,0.064,4.484,3.0
36.254,0.071,4.29,1.0
30.506,0.066,3.441,23.0
30.674,0.073,3.291,53.0
47.322,0.117,6.424,6.0
47.08,0.126,6.129,5.0
32.979,0.095,4.109,7.0
39.983,0.123,4.756,6.0
30.442,0.099,3.453,38.0
30.648,0.106,3.307,37.0
37.884,0.136,5.166,5.0
0.0,0.0,0.0,0.0
48.617,0.193,6.088,1.0
30.476,0.127,3.643,52.0
30.469,0.133,3.474,40.0
30.597,0.14,3.319,6.0
30.424,0.143,4.166,50.0
30.397,0.149,3.993,2.0
51.837,0.264,6.52,9.0
30.477,0.161,3.66,73.0
30.468,0.167,3.49,25.0
37.031,0.21,4.036,6.0
23.013,0.134,3.164,4.0
30.367,0.183,4.005,34.0
30.418,0.189,3.841,68.0
51.919,0.333,6.262,6.0
30.498,0.201,3.508,16.0
37.07,0.252,4.059,1.0
30.314,0.21,4.182,39.0
30.361,0.217,4.018,44.0
30.41,0.223,3.854,56.0
42.192,0.318,5.108,5.0
53.035,0.411,6.125,26.0
48.256,0.383,5.305,1.0
38.849,0.314,5.376,5.0
32.951,0.273,4.375,10.0
30.432,0.258,3.87,8.0
47.785,0.415,5.804,3.0
60.683,0.539,7.033,3.0
31.023,0.281,3.422,2.0
38.551,0.357,5.35,2.0
32.66,0.308,4.349,6.0
39.544,0.381,5.043,4.0
47.821,0.47,5.826,5.0
51.031,0.511,5.932,12.0
30.965,0.316,3.427,22.0
53.558,0.557,7.451,4.0
33.028,0.35,4.409,10.0
33.549,0.362,4.29,2.0
47.913,0.526,5.853,7.0
53.92,0.602,6.285,9.0
30.972,0.352,3.437,27.0
22.713,0.262,3.167,1.0
33.01,0.387,4.416,10.0
39.819,0.475,5.103,0.0
0.0,0.0,0.0,0.0
31.017,0.382,3.623,42.0
46.396,0.58,5.16,10.0
53.278,0.677,7.442,3.0
32.902,0.424,4.409,10.0
33.39,0.437,4.286,2.0
47.501,0.631,5.826,7.0
31.059,0.418,3.635,58.0
52.27,0.714,5.824,7.0
53.869,0.748,7.535,19.0
32.826,0.461,4.406,4.0
39.827,0.567,5.12,3.0
57.484,0.829,7.06,7.0
47.259,0.691,5.539,6.0
47.632,0.705,5.315,4.0
30.982,0.465,4.338,1.0
33.236,0.506,4.466,2.0
52.536,0.809,6.762,5.0
31.038,0.483,3.816,34.0
46.737,0.737,5.483,20.0
47.73,0.762,5.332,12.0
56.936,0.922,7.979,18.0
30.698,0.502,4.128,27.0
35.779,0.592,4.608,1.0
31.049,0.519,3.82,34.0
47.208,0.798,5.542,5.0
48.041,0.821,5.37,5.0
56.952,0.988,7.985,8.0
30.479,0.533,4.1,26.0
39.316,0.695,5.065,3.0
40.394,0.721,4.971,3.0
47.122,0.851,5.533,5.0
47.919,0.874,5.357,2.0
52.793,0.976,7.403,6.0
30.721,0.573,4.132,40.0
31.067,0.585,4.002,48.0
46.401,0.882,5.71,10.0
47.044,0.902,5.524,8.0
52.353,1.013,5.852,12.0
31.108,0.61,4.361,56.0
30.682,0.607,4.126,25.0
31.063,0.62,4.001,31.0
57.834,1.165,7.114,9.0
52.193,1.061,6.125,5.0
36.918,0.756,4.124,2.0
61.224,1.272,8.578,5.0
30.771,0.644,4.135,22.0
31.088,0.656,4.001,10.0
46.702,0.994,5.74,4.0
52.55,1.128,6.161,12.0
46.234,0.999,5.159,8.0
53.138,1.164,7.438,16.0
30.964,0.683,4.157,16.0
46.439,1.032,5.97,2.0
52.617,1.179,6.46,18.0
52.567,1.187,6.155,5.0
57.887,1.316,6.45,6.0
0.0,0.0,0.0,0.0
31.091,0.721,4.169,24.0
52.533,1.227,6.744,7.0
47.796,1.125,5.858,10.0
46.894,1.111,5.481,3.0
46.49,1.109,5.17,30.0
52.886,1.277,7.382,6.0
46.177,1.123,6.181,10.0
52.517,1.285,6.729,4.0
52.319,1.289,6.4,6.0
46.596,1.155,5.435,5.0
46.252,1.155,5.132,6.0
52.617,1.33,7.331,12.0
33.619,0.855,4.491,3.0
47.842,1.224,6.117,3.0
52.675,1.355,6.429,4.0
58.114,1.504,6.762,6.0
48.181,1.255,5.332,2.0
30.513,0.804,4.242,21.0
39.376,1.044,5.248,9.0
47.972,1.279,6.118,9.0
46.658,1.251,5.679,18.0
55.798,1.505,6.474,3.0
48.242,1.308,5.323,2.0
30.506,0.837,4.23,23.0
46.741,1.29,6.212,12.0
46.665,1.295,5.935,20.0
47.148,1.315,5.721,4.0
58.068,1.627,6.715,1.0
48.301,1.362,5.31,2.0
30.478,0.869,4.214,12.0
46.676,1.337,6.185,19.0
59.284,1.708,7.515,22.0
59.296,1.717,7.171,13.0
59.176,1.721,6.818,5.0
58.538,1.712,6.411,32.0
46.753,1.383,6.443,28.0
39.348,1.169,5.196,5.0
52.12,1.556,6.583,3.0
47.369,1.422,5.706,3.0
60.041,1.811,6.889,31.0
46.64,1.413,5.085,17.0
30.351,0.93,4.168,2.0
39.26,1.208,5.165,2.0
52.408,1.619,6.593,10.0
60.388,1.874,7.244,35.0
59.368,1.851,6.782,29.0
46.667,1.461,5.064,8.0
46.513,1.472,6.363,5.0
54.283,1.726,7.112,1.0
51.888,1.657,6.499,1.0
59.392,1.905,7.092,7.0
46.551,1.499,5.291,5.0
37.12,1.2,4.007,3.0
30.337,0.992,4.132,3.0
48.118,1.579,6.276,1.0
60.108,1.98,7.493,4.0
58.903,1.948,6.998,6.0
46.662,1.549,5.276,20.0
46.797,1.559,5.024,3.0
30.336,1.022,4.113,3.0
59.889,2.024,7.774,5.0
47.583,1.614,5.902,5.0
52.763,1.797,6.235,4.0
65.475,2.238,7.362,12.0
46.737,1.603,4.987,4.0
30.338,1.051,4.093,3.0
59.378,2.065,7.668,5.0
47.66,1.663,5.879,4.0
46.712,1.635,5.489,21.0
46.246,1.625,5.168,7.0
46.649,1.645,4.946,14.0
39.384,1.403,5.286,8.0
58.787,2.101,7.55,1.0
39.427,1.413,4.835,2.0
61.11,2.197,7.136,12.0
46.218,1.668,5.131,9.0
46.391,1.679,4.884,9.0
39.272,1.435,5.241,3.0
58.775,2.155,7.504,0.0
46.754,1.72,5.698,4.0
46.626,1.719,5.41,1.0
46.218,1.71,5.096,6.0
60.254,2.236,6.298,10.0
39.127,1.466,5.191,2.0
61.272,2.302,7.774,5.0
46.794,1.763,5.666,15.0
46.752,1.767,5.387,2.0
58.887,2.231,6.446,8.0
46.192,1.755,4.791,7.0
47.782,1.833,6.3,5.0
47.792,1.838,6.024,6.0
52.651,2.03,6.332,3.0
60.323,2.332,6.899,17.0
46.222,1.792,5.02,3.0
46.035,1.79,4.735,5.0
47.68,1.871,6.245,6.0
60.479,2.379,7.57,10.0
52.628,2.075,6.282,1.0
59.627,2.357,6.767,29.0
46.491,1.842,5.008,3.0
46.035,1.828,4.694,3.0
60.484,2.425,7.866,7.0
46.897,1.885,5.827,11.0
59.702,2.405,7.071,0.0
46.753,1.887,5.262,10.0
46.719,1.89,4.989,6.0
66.134,2.682,6.682,5.0
59.74,2.445,7.713,6.0
46.837,1.92,5.774,2.0
60.055,2.468,7.055,7.0
46.572,1.918,5.197,5.0
46.488,1.918,4.919,13.0
60.362,2.496,6.04,2.0
46.806,1.953,5.996,16.0
39.353,1.645,4.812,1.0
59.21,2.48,6.898,22.0
46.351,1.945,5.126,12.0
46.724,1.964,4.898,10.0
59.2,2.494,5.864,5.0
47.01,1.997,5.974,1.0
39.318,1.674,4.767,1.0
59.18,2.523,6.833,18.0
46.264,1.976,5.069,12.0
46.903,2.007,4.867,4.0
52.359,2.245,5.131,5.0
47.716,2.063,6.013,1.0
59.266,2.567,7.123,7.0
58.997,2.559,6.748,2.0
46.249,2.009,5.017,5.0
46.882,2.04,4.815,3.0
52.391,2.284,5.078,4.0
47.941,2.107,5.988,2.0
59.663,2.626,7.105,8.0
47.039,2.073,5.328,2.0
60.24,2.66,6.467,6.0
45.863,2.028,4.659,4.0
43.513,1.926,4.169,3.0
46.802,2.089,5.793,1.0
61.105,2.732,7.207,3.0
46.906,2.1,5.259,8.0
59.806,2.68,6.353,6.0
45.805,2.056,4.6,4.0
45.999,2.067,4.354,6.0
46.716,2.116,5.727,2.0
0.0,0.0,0.0,0.0
46.538,2.113,5.163,6.0
46.749,2.125,4.911,3.0
51.838,2.359,5.145,2.0
45.999,2.096,4.3,9.0
46.731,2.146,5.673,1.0
0.0,0.0,0.0,0.0
46.26,2.129,5.077,11.0
46.493,2.141,4.828,19.0
59.19,2.729,5.803,5.0
45.412,2.097,4.19,4.0
46.661,2.17,5.607,0.0
0.0,0.0,0.0,0.0
46.254,2.155,5.019,7.0
46.504,2.169,4.771,18.0
43.481,2.03,4.209,2.0
45.884,2.144,4.176,2.0
0.0,0.0,0.0,0.0
47.114,2.219,5.326,5.0
46.552,2.195,4.992,2.0
44.053,2.079,4.464,2.0
45.928,2.169,4.387,6.0
45.768,2.163,4.107,1.0
0.0,0.0,0.0,0.0
46.85,2.231,5.236,13.0
47.093,2.244,4.988,2.0
45.824,2.185,4.583,5.0
45.963,2.194,4.33,13.0
53.204,2.541,4.704,2.0
0.0,0.0,0.0,0.0
46.401,2.233,5.123,11.0
46.728,2.25,4.887,1.0
45.681,2.2,4.508,3.0
59.517,2.869,5.528,4.0
47.159,2.275,4.107,7.0
60.382,2.932,6.937,1.0
46.214,2.245,5.039,10.0
46.607,2.265,4.811,4.0
43.453,2.112,4.229,3.0
59.687,2.903,5.462,3.0
47.109,2.293,4.038,10.0
47.185,2.312,5.355,5.0
46.226,2.265,4.977,3.0
60.948,2.987,6.206,3.0
45.979,2.254,4.41,5.0
46.146,2.263,4.158,1.0
47.145,2.314,3.974,8.0
46.914,2.316,5.257,9.0
46.2,2.281,4.908,1.0
60.882,3.008,6.113,2.0
45.973,2.271,4.344,10.0
53.125,2.625,4.711,3.0
47.069,2.327,3.902,3.0
46.61,2.318,5.156,9.0
60.644,3.016,6.354,5.0
45.64,2.27,4.516,4.0
45.979,2.287,4.278,3.0
47.139,2.345,4.112,3.0
43.804,2.179,3.567,2.0
46.216,2.313,5.045,12.0
46.804,2.342,4.836,9.0
43.489,2.176,4.24,3.0
59.858,2.996,5.482,2.0
47.138,2.359,4.043,9.0
43.812,2.193,3.503,1.0
46.166,2.323,4.97,1.0
46.706,2.35,4.756,2.0
45.98,2.313,4.414,5.0
52.916,2.662,4.766,2.0
47.143,2.371,3.972,10.0
47.205,2.375,3.704,1.0
60.683,3.069,6.441,3.0
52.517,2.655,5.268,2.0
45.954,2.323,4.341,7.0
47.1,2.379,3.898,4.0
68.39,3.455,5.263,2.0
46.682,2.37,4.883,4.0
45.675,2.318,4.511,7.0
45.915,2.33,4.267,4.0
47.182,2.393,4.106,5.0
43.826,2.222,3.559,2.0
51.423,2.607,3.878,2.0
46.718,2.38,4.814,4.0
43.431,2.211,4.221,3.0
47.173,2.4,4.031,5.0
241.304,12.274,19.217,24.0
66.923,3.402,4.942,4.0
60.874,3.109,6.175,1.0
45.951,2.346,4.393,12.0
53.162,2.712,4.773,2.0
47.134,2.403,3.952,8.0
241.352,12.301,18.837,22.0
66.14,3.37,4.779,3.0
45.723,2.339,4.565,3.0
45.934,2.348,4.318,4.0
47.123,2.408,4.155,1.0
47.142,2.407,3.878,1.0
51.382,2.622,3.928,1.0
52.748,2.69,3.727,1.0
45.515,2.331,4.47,5.0
45.923,2.35,4.242,4.0
47.2,2.413,4.084,9.0
52.86,2.701,4.262,3.0
66.787,3.41,4.996,1.0
204.688,10.445,14.128,8.0
45.891,2.351,4.432,7.0
47.145,2.411,4.002,4.0
241.316,12.33,19.06,24.0
66.637,3.401,4.876,5.0
0.0,0.0,0.0,0.0
45.948,2.352,4.361,9.0
53.204,2.721,4.739,1.0
47.137,2.409,3.924,4.0
51.423,2.625,3.976,1.0
47.699,2.432,3.411,1.0
67.152,3.422,4.412,0.0
45.952,2.349,4.283,6.0
47.201,2.411,4.125,7.0
52.746,2.691,4.302,3.0
51.454,2.622,3.893,1.0
52.837,2.69,3.69,0.0
67.093,3.412,4.298,0.0
45.915,2.343,4.203,1.0
47.2,2.405,4.045,6.0
52.89,2.692,4.225,1.0
66.923,3.402,4.951,4.0
0.0,0.0,0.0,0.0
0.0,0.0,0.0,0.0
53.176,2.705,4.778,2.0
47.154,2.396,3.961,11.0
47.217,2.395,3.692,1.0
47.646,2.414,3.443,1.0
0.0,0.0,0.0,0.0
0.0,0.0,0.0,0.0
47.173,2.391,4.157,2.0
52.589,2.661,4.327,2.0
51.492,2.602,3.938,2.0
47.657,2.405,3.362,1.0
67.187,3.386,4.35,1.0
195.081,9.818,11.501,8.0
47.124,2.377,4.071,7.0
52.828,2.661,4.256,1.0
241.126,12.127,18.023,20.0
47.399,2.38,3.262,0.0
205.788,10.319,12.968,7.0
195.322,9.78,11.178,23.0
47.153,2.366,3.991,10.0
241.172,12.08,19.009,20.0
66.305,3.316,4.84,5.0
47.411,2.367,3.181,0.0
0.0,0.0,0.0,0.0
195.306,9.721,10.838,20.0
47.108,2.349,3.905,2.0
240.989,11.994,18.575,17.0
52.735,2.619,3.757,1.0
0.0,0.0,0.0,0.0
0.0,0.0,0.0,0.0
194.446,9.61,10.452,17.0
47.205,2.337,3.83,2.0
51.457,2.542,3.875,1.0
47.515,2.343,3.302,0.0
67.205,3.307,4.274,1.0
198.175,9.737,11.455,10.0
194.181,9.523,10.1,22.0
65.434,3.213,5.195,7.0
52.765,2.586,3.881,2.0
0.0,0.0,0.0,0.0
0.0,0.0,0.0,0.0
195.69,9.534,10.969,5.0
193.853,9.425,9.744,30.0
65.593,3.192,5.092,4.0
47.597,2.311,3.417,1.0
0.0,0.0,0.0,0.0
0.0,0.0,0.0,0.0
194.292,9.375,10.549,22.0
193.184,9.303,9.372,18.0
51.509,2.482,3.908,2.0
47.288,2.273,3.312,1.0
67.303,3.228,4.323,1.0
196.02,9.382,11.433,21.0
194.355,9.281,10.208,13.0
192.798,9.186,9.011,28.0
47.565,2.267,3.524,0.0
204.597,9.729,13.969,10.0
67.253,3.19,4.2,2.0
195.724,9.263,11.071,23.0
194.443,9.18,9.87,19.0
192.756,9.079,8.67,22.0
67.035,3.158,4.848,5.0
204.497,9.609,13.6,14.0
0.0,0.0,0.0,0.0
195.662,9.148,10.722,25.0
194.605,9.075,9.535,9.0
192.876,8.971,8.333,24.0
47.338,2.201,3.338,1.0
0.0,0.0,0.0,0.0
0.0,0.0,0.0,0.0
194.772,8.984,10.324,22.0
192.916,8.874,9.109,23.0
193.402,8.874,8.012,17.0
69.573,3.191,4.783,1.0
67.336,3.079,4.238,3.0
195.871,8.93,11.192,19.0
194.443,8.841,9.965,23.0
193.298,8.764,8.786,19.0
194.077,8.774,7.7,16.0
69.569,3.143,4.66,1.0
67.285,3.03,4.115,2.0
195.609,8.783,10.831,15.0
193.531,8.665,9.574,25.0
193.382,8.631,8.446,24.0
193.846,8.626,7.346,22.0
68.93,3.063,4.494,1.0
68.797,3.048,4.086,1.0
194.25,8.58,10.413,26.0
193.498,8.518,9.231,21.0
193.472,8.49,8.109,20.0
193.73,8.476,6.999,27.0
68.73,3.002,4.358,2.0
195.769,8.522,11.28,19.0
193.958,8.416,10.051,27.0
193.285,8.358,8.876,5.0
195.513,8.426,7.848,5.0
193.552,8.313,6.651,25.0
67.358,2.888,4.153,5.0
195.233,8.341,10.903,21.0
194.157,8.265,9.717,18.0
194.994,8.27,8.611,5.0
194.412,8.218,7.46,5.0
193.295,8.141,6.3,23.0
203.428,8.549,12.179,18.0
194.669,8.15,10.527,23.0
194.41,8.109,9.386,19.0
194.991,8.102,8.265,25.0
0.0,0.0,0.0,0.0
193.251,7.972,5.96,22.0
68.793,2.83,3.998,1.0
194.197,7.958,10.163,22.0
194.536,7.942,9.054,19.0
195.38,7.944,7.943,22.0
193.613,7.84,6.753,13.0
193.447,7.804,5.629,23.0
0.0,0.0,0.0,0.0
194.508,7.791,9.841,22.0
195.367,7.794,8.753,5.0
195.691,7.774,7.617,16.0
193.387,7.65,6.411,21.0
0.0,0.0,0.0,0.0
194.906,7.653,10.65,11.0
194.902,7.619,9.522,9.0
0.0,0.0,0.0,0.0
0.0,0.0,0.0,0.0
0.0,0.0,0.0,0.0
195.078,7.494,5.004,17.0
195.829,7.495,10.364,8.0
195.314,7.439,9.205,9.0
198.004,7.508,8.189,6.0
193.616,7.307,6.87,21.0
198.44,7.453,5.895,5.0
196.098,7.333,4.696,4.0
195.609,7.284,10.016,16.0
196.037,7.263,8.903,6.0
194.757,7.18,7.72,14.0
0.0,0.0,0.0,0.0
194.807,7.111,5.452,8.0
195.166,7.088,4.335,6.0
195.581,7.071,9.678,20.0
196.447,7.066,8.585,11.0
193.86,6.936,7.353,25.0
0.0,0.0,0.0,0.0
195.173,6.911,5.131,5.0
195.248,6.876,4.006,23.0
104.345,3.656,4.985,2.0
193.695,6.749,8.136,6.0
193.661,6.712,7.018,13.0
0.0,0.0,0.0,0.0
195.585,6.702,4.812,8.0
195.196,6.653,3.677,22.0
117.867,3.995,5.434,2.0
193.756,6.527,7.811,26.0
193.36,6.475,6.68,11.0
194.533,6.478,5.581,7.0
194.815,6.448,4.465,17.0
195.035,6.419,3.349,16.0
117.583,3.846,5.224,6.0
193.745,6.298,7.49,13.0
193.4,6.249,6.363,9.0
194.18,6.234,5.249,15.0
194.015,6.188,4.125,24.0
195.273,6.188,3.027,5.0
193.662,6.099,8.284,14.0
193.789,6.061,7.17,7.0
193.611,6.015,6.048,9.0
193.893,5.982,4.919,23.0
193.856,5.942,3.802,16.0
195.57,5.954,2.711,9.0
193.468,5.847,7.956,10.0
194.072,5.823,6.861,6.0
196.084,5.843,5.804,9.0
193.79,5.732,4.599,34.0
0.0,0.0,0.0,0.0
195.581,5.701,2.391,19.0
193.667,5.603,7.649,8.0
193.045,5.542,6.513,21.0
194.405,5.541,5.44,21.0
193.585,5.474,4.283,31.0
196.559,5.515,3.219,7.0
0.0,0.0,0.0,0.0
193.816,5.352,7.346,6.0
193.289,5.294,6.214,27.0
194.409,5.28,5.129,24.0
193.559,5.215,3.974,32.0
195.596,5.226,2.892,24.0
103.115,2.731,0.931,4.0
194.513,5.108,7.064,5.0
0.0,0.0,0.0,0.0
193.995,5.003,4.811,33.0
193.536,4.946,3.666,34.0
195.284,4.948,2.579,12.0
103.086,2.588,0.768,7.0
0.0,0.0,0.0,0.0
194.481,4.787,5.637,8.0
194.153,4.736,4.512,26.0
193.663,4.677,3.368,19.0
0.0,0.0,0.0,0.0
100.093,2.369,0.59,2.0
0.0,0.0,0.0,0.0
194.654,4.513,5.34,25.0
193.92,4.448,4.205,29.0
195.236,4.434,3.094,23.0
0.0,0.0,0.0,0.0
100.053,2.224,0.437,2.0
0.0,0.0,0.0,0.0
194.834,4.232,5.048,23.0
0.0,0.0,0.0,0.0
0.0,0.0,0.0,0.0
102.933,2.162,0.885,8.0
100.075,2.077,0.287,2.0
0.0,0.0,0.0,0.0
194.642,3.938,4.752,14.0
195.613,3.91,3.653,7.0
103.144,2.036,1.324,9.0
99.864,1.947,0.71,3.0
99.875,1.922,0.137,3.0
0.0,0.0,0.0,0.0
194.526,3.642,4.464,12.0
194.556,3.592,3.348,18.0
0.0,0.0,0.0,0.0
99.903,1.793,0.562,7.0
99.86,1.768,-0.008,7.0
0.0,0.0,0.0,0.0
194.725,3.343,4.185,20.0
194.805,3.296,3.072,26.0
99.859,1.663,0.992,1.0
99.776,1.635,0.419,6.0
0.0,0.0,0.0,0.0
196.597,3.119,5.073,22.0
195.095,3.042,3.916,22.0
195.043,2.989,2.796,6.0
0.0,0.0,0.0,0.0
99.723,1.475,0.277,5.0
0.0,0.0,0.0,0.0
20.296,0.289,0.494,0.0
20.295,0.283,0.378,1.0
20.252,0.277,0.261,0.0
99.588,1.337,0.707,4.0
99.518,1.31,0.137,4.0
0.0,0.0,0.0,0.0
20.29,0.255,0.466,27.0
20.277,0.249,0.35,20.0
20.277,0.244,0.233,19.0
20.314,0.239,0.116,7.0
99.591,1.145,0.0,3.0
0.0,0.0,0.0,0.0
20.274,0.221,0.438,35.0
20.295,0.216,0.322,30.0
20.293,0.21,0.206,28.0
20.323,0.205,0.088,33.0
20.312,0.199,-0.027,16.0
20.203,0.192,-0.142,18.0
20.284,0.187,0.411,29.0
20.271,0.181,0.295,28.0
20.259,0.176,0.18,25.0
20.242,0.17,0.062,23.0
20.217,0.164,-0.053,24.0
20.18,0.158,-0.168,21.0
20.178,0.152,0.383,26.0
20.179,0.146,0.268,25.0
20.165,0.14,0.153,25.0
20.184,0.135,0.036,28.0
20.189,0.129,-0.079,32.0
20.178,0.123,-0.194,24.0
20.163,0.117,0.357,29.0
20.165,0.111,0.242,28.0
20.178,0.105,0.127,23.0
20.186,0.099,0.01,27.0
20.193,0.094,-0.104,29.0
20.196,0.088,-0.219,16.0
20.14,0.081,0.332,28.0
20.155,0.076,0.217,28.0
20.158,0.069,0.102,27.0
20.212,0.064,-0.014,32.0
20.226,0.058,-0.129,26.0
55.037,0.142,-0.665,5.0
20.134,0.045,0.307,30.0
20.133,0.04,0.193,28.0
20.171,0.034,0.078,22.0
20.258,0.028,-0.038,151.0
20.253,0.022,-0.153,151.0
20.273,0.016,-0.269,150.0
20.13,0.01,0.284,28.0
20.116,0.004,0.169,28.0
20.154,-0.001,0.055,20.0
20.172,-0.008,-0.061,16.0
20.158,-0.013,-0.175,15.0
20.164,-0.02,-0.29,10.0
20.117,-0.025,0.261,29.0
20.115,-0.031,0.147,32.0
20.135,-0.038,0.032,35.0
20.143,-0.044,-0.083,34.0
20.137,-0.05,-0.198,18.0
20.152,-0.056,-0.313,26.0
20.121,-0.062,0.239,29.0
20.127,-0.069,0.124,36.0
20.132,-0.075,0.01,34.0
20.135,-0.081,-0.105,29.0
20.139,-0.087,-0.22,26.0
20.139,-0.094,-0.334,36.0
20.129,-0.1,0.217,23.0
20.132,-0.106,0.103,32.0
20.139,-0.112,-0.01,25.0
20.14,-0.118,-0.127,25.0
20.131,-0.124,-0.241,30.0
20.149,-0.131,-0.356,34.0
20.179,-0.137,0.197,18.0
20.17,-0.144,0.082,11.0
20.184,-0.15,-0.031,9.0
20.161,-0.156,-0.148,12.0
20.168,-0.163,-0.262,24.0
20.172,-0.17,-0.377,26.0
53.374,-0.465,0.467,8.0
53.404,-0.483,0.164,4.0
56.249,-0.526,-0.145,12.0
58.738,-0.568,-0.49,2.0
44.861,-0.448,-0.629,9.0
20.228,-0.209,-0.398,1.0
64.358,-0.683,0.5,10.0
56.28,-0.616,0.118,1.0
56.157,-0.633,-0.199,1.0
52.856,-0.613,-0.492,14.0
38.978,-0.465,-0.584,14.0
32.103,-0.394,-0.663,9.0
20.159,-0.253,0.137,7.0
59.534,-0.768,0.068,71.0
56.229,-0.743,-0.253,0.0
52.724,-0.714,-0.54,6.0
38.125,-0.528,-0.606,16.0
31.362,-0.445,-0.676,27.0
20.136,-0.291,0.119,14.0
20.117,-0.298,0.005,11.0
59.441,-0.9,-0.32,10.0
45.164,-0.699,-0.503,19.0
37.96,-0.6,-0.638,22.0
30.608,-0.494,-0.687,27.0
20.149,-0.331,0.101,30.0
20.132,-0.337,-0.012,30.0
52.957,-0.905,-0.331,33.0
44.941,-0.783,-0.539,33.0
37.709,-0.669,-0.665,13.0
30.473,-0.551,-0.71,27.0
53.009,-0.974,0.223,12.0
52.976,-0.991,-0.076,20.0
45.632,-0.869,-0.323,17.0
44.873,-0.87,-0.575,18.0
31.533,-0.622,-0.582,2.0
0.0,0.0,0.0,0.0
38.393,-0.781,0.13,15.0
38.376,-0.794,-0.085,48.0
38.361,-0.806,-0.302,35.0
38.376,-0.819,-0.522,11.0
31.336,-0.68,-0.603,17.0
0.0,0.0,0.0,0.0
40.441,-0.902,0.106,150.0
40.42,-0.915,-0.12,40.0
40.421,-0.929,-0.348,56.0
38.35,-0.895,-0.55,21.0
31.036,-0.735,-0.62,27.0
28.505,-0.685,-0.73,1.0
0.0,0.0,0.0,0.0
38.782,-0.956,-0.144,26.0
38.755,-0.968,-0.362,31.0
38.16,-0.966,-0.575,16.0
30.762,-0.789,-0.637,33.0
28.453,-0.74,-0.749,1.0
38.673,-1.016,0.047,65.0
38.674,-1.029,-0.17,51.0
38.666,-1.043,-0.387,42.0
38.027,-1.039,-0.599,17.0
30.583,-0.846,-0.653,36.0
27.583,-0.773,-0.745,1.0
38.663,-1.093,0.022,95.0
38.675,-1.107,-0.195,96.0
38.625,-1.119,-0.412,43.0
37.914,-1.112,-0.621,26.0
30.518,-0.905,-0.671,37.0
25.221,-0.757,-0.697,1.0
38.658,-1.17,-0.001,70.0
38.655,-1.184,-0.218,62.0
38.612,-1.196,-0.435,33.0
37.885,-1.188,-0.643,10.0
30.463,-0.966,-0.688,37.0
25.118,-0.805,-0.709,3.0
38.719,-1.25,-0.024,51.0
38.713,-1.264,-0.241,37.0
38.635,-1.275,-0.457,22.0
31.39,-1.047,-0.55,22.0
30.437,-1.025,-0.704,22.0
25.1,-0.855,-0.722,7.0
81.001,-2.778,-0.094,32.0
54.791,-1.899,-0.37,0.0
44.936,-1.573,-0.555,10.0
31.161,-1.102,-0.563,25.0
30.405,-1.086,-0.72,12.0
24.578,-0.887,-0.719,14.0
31.345,-1.138,-0.052,14.0
31.366,-1.15,-0.227,31.0
31.336,-1.161,-0.403,27.0
30.998,-1.159,-0.575,27.0
0.0,0.0,0.0,0.0
24.377,-0.929,-0.725,20.0
31.272,-1.198,-0.066,22.0
28.481,-1.102,-0.219,60.0
28.469,-1.112,-0.379,64.0
28.461,-1.122,-0.541,60.0
28.46,-1.132,-0.7,55.0
24.063,-0.966,-0.726,18.0
28.452,-1.148,-0.072,150.0
28.456,-1.158,-0.231,150.0
28.442,-1.168,-0.39,116.0
28.447,-1.179,-0.552,121.0
28.446,-1.189,-0.711,96.0
23.896,-1.008,-0.731,19.0
28.449,-1.206,-0.083,84.0
28.455,-1.216,-0.242,60.0
28.462,-1.227,-0.401,58.0
28.47,-1.237,-0.563,57.0
28.43,-1.246,-0.721,35.0
23.855,-1.054,-0.738,15.0
31.236,-1.386,-0.102,69.0
31.197,-1.396,-0.276,57.0
31.195,-1.407,-0.45,62.0
30.687,-1.395,-0.617,33.0
28.402,-1.301,-0.729,4.0
23.81,-1.1,-0.744,14.0
31.242,-1.449,-0.112,40.0
31.205,-1.458,-0.285,47.0
31.191,-1.469,-0.459,45.0
30.664,-1.455,-0.625,32.0
28.054,-1.341,-0.728,2.0
23.783,-1.146,-0.75,13.0
31.304,-1.513,-0.12,0.0
31.279,-1.524,-0.294,20.0
31.281,-1.535,-0.468,22.0
30.651,-1.515,-0.633,28.0
24.592,-1.225,-0.644,2.0
23.758,-1.192,-0.755,12.0
65.634,-3.306,-0.268,3.0
47.593,-2.414,-0.459,1.0
37.968,-1.94,-0.577,13.0
30.618,-1.575,-0.639,30.0
24.501,-1.27,-0.647,21.0
23.67,-1.235,-0.757,10.0
65.661,-3.437,-0.281,7.0
46.642,-2.458,-0.458,1.0
38.048,-2.019,-0.585,7.0
24.526,-1.311,-0.516,19.0
24.447,-1.315,-0.65,23.0
23.63,-1.28,-0.759,7.0
24.609,-1.337,-0.109,3.0
24.562,-1.343,-0.245,30.0
24.558,-1.352,-0.381,45.0
24.515,-1.358,-0.519,44.0
24.401,-1.361,-0.652,18.0
23.677,-1.33,-0.764,5.0
24.557,-1.382,-0.111,46.0
24.527,-1.39,-0.247,53.0
24.517,-1.398,-0.383,49.0
24.489,-1.405,-0.521,45.0
24.382,-1.408,-0.654,26.0
23.475,-1.364,-0.759,6.0
24.54,-1.43,-0.113,75.0
24.513,-1.437,-0.249,78.0
24.5,-1.445,-0.384,51.0
24.477,-1.453,-0.522,39.0
24.389,-1.457,-0.655,31.0
23.575,-1.417,-0.764,5.0
24.53,-1.477,-0.114,76.0
24.498,-1.484,-0.249,59.0
24.499,-1.493,-0.385,78.0
24.471,-1.5,-0.522,44.0
24.35,-1.502,-0.654,26.0
23.555,-1.462,-0.763,5.0
24.519,-1.524,-0.114,73.0
24.496,-1.531,-0.249,54.0
24.494,-1.54,-0.384,56.0
24.467,-1.547,-0.522,43.0
24.399,-1.552,-0.655,29.0
23.321,-1.492,-0.755,5.0
24.537,-1.573,-0.113,51.0
24.522,-1.58,-0.248,38.0
24.521,-1.589,-0.383,46.0
24.478,-1.595,-0.52,36.0
24.405,-1.599,-0.654,26.0
23.516,-1.55,-0.76,5.0
24.564,-1.621,-0.111,22.0
24.569,-1.63,-0.247,10.0
24.554,-1.638,-0.382,16.0
24.489,-1.642,-0.518,22.0
24.452,-1.649,-0.653,22.0
23.547,-1.596,-0.758,5.0
58.383,-3.964,-0.259,7.0
49.297,-3.365,-0.49,4.0
36.929,-2.534,-0.57,1.0
30.648,-2.114,-0.645,14.0
24.518,-1.7,-0.651,16.0
23.533,-1.64,-0.755,5.0
57.564,-4.018,-0.246,3.0
49.315,-3.459,-0.482,5.0
36.693,-2.586,-0.561,1.0
30.845,-2.185,-0.644,9.0
24.736,-1.761,-0.653,6.0
23.578,-1.687,-0.752,5.0
59.235,-4.244,-0.242,6.0
0.0,0.0,0.0,0.0
39.061,-2.826,-0.589,1.0
31.061,-2.258,-0.642,5.0
24.811,-1.813,-0.649,4.0
23.638,-1.735,-0.749,10.0
59.684,-4.387,-0.231,5.0
0.0,0.0,0.0,0.0
38.998,-2.893,-0.579,2.0
31.252,-2.329,-0.639,3.0
27.413,-2.053,-0.711,1.0
23.742,-1.786,-0.746,8.0
61.619,-4.641,-0.223,5.0
0.0,0.0,0.0,0.0
39.255,-2.984,-0.572,2.0
31.623,-2.415,-0.637,2.0
27.475,-2.108,-0.705,1.0
23.783,-1.833,-0.74,10.0
61.668,-4.756,-0.205,26.0
0.0,0.0,0.0,0.0
39.841,-3.1,-0.569,5.0
31.425,-2.456,-0.624,2.0
27.604,-2.167,-0.699,2.0
23.771,-1.874,-0.732,11.0
61.543,-4.856,-0.184,2.0
47.289,-3.747,-0.4,13.0
40.006,-3.183,-0.558,14.0
32.224,-2.575,-0.629,2.0
27.719,-2.225,-0.692,2.0
23.828,-1.921,-0.726,13.0
79.38,-6.402,-0.208,10.0
0.0,0.0,0.0,0.0
39.721,-3.231,-0.538,14.0
32.558,-2.659,-0.623,2.0
27.889,-2.287,-0.686,3.0
23.868,-1.966,-0.717,14.0
79.429,-6.546,-0.177,6.0
0.0,0.0,0.0,0.0
39.837,-3.309,-0.524,15.0
32.813,-2.737,-0.614,1.0
28.147,-2.357,-0.68,4.0
23.916,-2.011,-0.709,16.0
79.475,-6.685,-0.143,9.0
49.692,-4.196,-0.36,24.0
39.949,-3.386,-0.508,15.0
33.175,-2.823,-0.606,1.0
28.625,-2.445,-0.679,4.0
23.952,-2.054,-0.699,18.0
0.0,0.0,0.0,0.0
50.011,-4.308,-0.339,24.0
40.208,-3.476,-0.492,15.0
34.194,-2.967,-0.608,2.0
29.156,-2.54,-0.677,2.0
23.908,-2.09,-0.686,12.0
56.814,-4.97,-0.047,3.0
50.286,-4.414,-0.315,12.0
40.35,-3.555,-0.473,15.0
34.309,-3.034,-0.592,1.0
29.426,-2.611,-0.668,4.0
23.87,-2.126,-0.672,4.0
55.982,-4.989,-0.017,5.0
54.628,-4.885,-0.314,10.0
0.0,0.0,0.0,0.0
35.418,-3.189,-0.592,11.0
29.797,-2.693,-0.66,4.0
25.878,-2.347,-0.714,4.0
54.99,-4.989,0.014,51.0
54.79,-4.988,-0.283,28.0
0.0,0.0,0.0,0.0
35.361,-3.241,-0.571,12.0
30.376,-2.794,-0.655,5.0
26.158,-2.414,-0.707,6.0
54.968,-5.074,0.046,160.0
54.992,-5.093,-0.251,29.0
0.0,0.0,0.0,0.0
35.294,-3.291,-0.548,12.0
30.524,-2.855,-0.64,2.0
26.526,-2.49,-0.7,6.0
54.933,-5.157,0.081,7.0
55.47,-5.223,-0.218,30.0
45.232,-4.273,-0.423,19.0
35.41,-3.356,-0.527,12.0
30.8,-2.929,-0.626,2.0
26.871,-2.564,-0.692,6.0
65.105,-6.211,0.139,2.0
55.597,-5.321,-0.182,27.0
45.625,-4.38,-0.397,20.0
37.655,-3.626,-0.535,5.0
32.019,-3.093,-0.628,5.0
27.361,-2.651,-0.686,6.0
65.02,-6.3,0.183,3.0
55.847,-5.428,-0.144,8.0
0.0,0.0,0.0,0.0
36.844,-3.602,-0.498,4.0
32.261,-3.164,-0.611,3.0
27.747,-2.729,-0.676,4.0
65.005,-6.395,0.229,7.0
65.4,-6.451,-0.122,13.0
46.911,-4.641,-0.341,10.0
38.084,-3.778,-0.487,13.0
33.377,-3.321,-0.607,10.0
27.802,-2.774,-0.656,1.0
65.041,-6.49,0.278,17.0
65.322,-6.536,-0.074,11.0
0.0,0.0,0.0,0.0
40.129,-4.037,-0.483,8.0
33.407,-3.371,-0.583,19.0
28.764,-2.911,-0.657,1.0
65.092,-6.586,0.327,168.0
65.082,-6.602,-0.023,3.0
50.764,-5.163,-0.292,14.0
40.256,-4.106,-0.453,13.0
33.61,-3.438,-0.56,26.0
29.459,-3.021,-0.649,1.0
65.091,-6.675,0.38,180.0
64.951,-6.678,0.028,3.0
51.902,-5.35,-0.257,8.0
0.0,0.0,0.0,0.0
34.024,-3.525,-0.539,29.0
30.541,-3.173,-0.649,4.0
65.093,-6.762,0.433,179.0
64.973,-6.766,0.083,4.0
0.0,0.0,0.0,0.0
0.0,0.0,0.0,0.0
34.4,-3.609,-0.516,27.0
30.962,-3.257,-0.632,9.0
65.107,-6.848,0.489,168.0
64.949,-6.847,0.138,2.0
55.349,-5.849,-0.18,29.0
44.186,-4.681,-0.386,19.0
34.768,-3.692,-0.491,20.0
31.584,-3.362,-0.616,9.0
65.11,-6.93,0.546,150.0
64.933,-6.927,0.194,2.0
55.976,-5.985,-0.133,26.0
0.0,0.0,0.0,0.0
35.092,-3.769,-0.465,11.0
32.031,-3.449,-0.597,10.0
65.082,-7.007,0.604,0.0
65.024,-7.016,0.254,3.0
65.376,-7.069,-0.096,8.0
47.283,-5.124,-0.328,22.0
39.841,-4.327,-0.491,12.0
32.321,-3.518,-0.572,22.0
0.0,0.0,0.0,0.0
65.053,-7.095,0.313,2.0
65.319,-7.138,-0.035,7.0
0.0,0.0,0.0,0.0
39.987,-4.388,-0.456,15.0
32.909,-3.619,-0.552,27.0
0.0,0.0,0.0,0.0
65.181,-7.182,0.375,1.0
64.998,-7.176,0.025,8.0
50.2,-5.554,-0.255,24.0
40.18,-4.454,-0.42,15.0
33.499,-3.721,-0.53,30.0
0.0,0.0,0.0,0.0
65.201,-7.255,0.438,3.0
65.034,-7.25,0.087,0.0
50.959,-5.692,-0.21,17.0
40.364,-4.517,-0.383,5.0
33.977,-3.81,-0.505,32.0
83.754,-9.391,1.095,10.0
65.15,-7.318,0.502,4.0
65.099,-7.326,0.151,10.0
55.229,-6.226,-0.173,12.0
44.784,-5.058,-0.38,6.0
34.474,-3.901,-0.478,31.0
83.987,-9.503,1.182,29.0
65.197,-7.39,0.567,3.0
65.197,-7.402,0.217,176.0
55.808,-6.347,-0.118,13.0
46.048,-5.246,-0.345,21.0
35.01,-3.996,-0.45,13.0
84.341,-9.625,1.272,33.0
80.116,-9.158,0.778,4.0
65.22,-7.467,0.283,196.0
56.371,-6.464,-0.062,3.0
47.39,-5.444,-0.306,22.0
39.769,-4.576,-0.47,9.0
84.783,-9.756,1.365,10.0
80.027,-9.222,0.86,14.0
65.217,-7.527,0.351,96.0
65.392,-7.559,-0.005,1.0
48.087,-5.567,-0.261,21.0
39.949,-4.633,-0.43,21.0
192.427,-22.315,3.303,28.0
80.681,-9.369,0.952,6.0
79.944,-9.297,0.515,13.0
65.67,-7.648,0.065,3.0
49.62,-5.788,-0.216,23.0
40.143,-4.69,-0.39,15.0
85.358,-9.971,1.557,6.0
192.252,-22.489,2.477,28.0
80.022,-9.373,0.601,31.0
80.311,-9.42,0.165,46.0
50.587,-5.942,-0.167,7.0
40.332,-4.744,-0.349,6.0
85.371,-10.041,1.648,10.0
192.282,-22.646,2.682,29.0
80.021,-9.436,0.687,32.0
80.158,-9.464,0.251,32.0
55.707,-6.586,-0.124,14.0
45.862,-5.429,-0.347,20.0
85.357,-10.105,1.74,8.0
153.878,-18.238,2.313,6.0
80.095,-9.504,0.774,31.0
80.184,-9.526,0.339,26.0
56.309,-6.698,-0.063,5.0
46.654,-5.557,-0.302,21.0
153.805,-18.32,3.305,18.0
153.744,-18.332,2.481,16.0
80.27,-9.581,0.865,14.0
80.328,-9.599,0.428,27.0
80.785,-9.665,0.0,12.0
47.68,-5.711,-0.256,22.0
153.827,-18.427,3.476,19.0
153.783,-18.439,2.653,19.0
153.559,-18.431,1.826,11.0
80.212,-9.637,0.516,27.0
80.858,-9.725,0.089,28.0
48.727,-5.867,-0.206,23.0
153.863,-18.529,3.652,9.0
153.749,-18.532,2.825,19.0
153.688,-18.541,2.003,13.0
80.289,-9.695,0.609,30.0
80.819,-9.769,0.18,24.0
50.478,-6.108,-0.157,11.0
139.163,-16.841,3.462,13.0
153.915,-18.641,3.004,9.0
153.647,-18.624,2.175,14.0
80.246,-9.735,0.7,31.0
80.46,-9.77,0.272,33.0
55.7,-6.77,-0.109,14.0
139.587,-16.969,3.632,10.0
188.025,-22.873,3.886,23.0
192.192,-23.397,2.943,14.0
80.295,-9.783,0.792,27.0
80.348,-9.797,0.363,38.0
80.725,-9.851,-0.066,9.0
165.244,-20.17,4.487,19.0
188.087,-22.973,4.101,20.0
188.302,-23.014,3.101,23.0
80.558,-9.852,0.887,13.0
80.32,-9.83,0.454,32.0
80.794,-9.896,0.026,21.0
85.826,-10.514,2.429,6.0
188.664,-23.126,4.332,9.0
188.252,-23.089,3.318,24.0
192.066,-23.571,2.337,20.0
80.323,-9.864,0.548,32.0
80.716,-9.919,0.119,24.0
139.132,-17.102,4.101,8.0
139.7,-17.18,3.369,12.0
188.531,-23.196,3.537,20.0
192.107,-23.648,2.56,23.0
80.335,-9.894,0.64,32.0
80.588,-9.932,0.212,33.0
139.173,-17.157,4.262,15.0
165.375,-20.395,4.179,15.0
188.612,-23.269,3.757,18.0
192.073,-23.707,2.78,21.0
80.389,-9.927,0.733,30.0
80.527,-9.949,0.304,19.0
85.649,-10.585,2.722,4.0
63.084,-7.799,1.666,9.0
139.559,-17.258,2.941,10.0
192.126,-23.768,3.002,16.0
80.393,-9.949,0.826,20.0
80.406,-9.955,0.397,16.0
85.536,-10.594,2.818,9.0
63.071,-7.813,1.74,20.0
139.59,-17.297,3.104,20.0
192.089,-23.809,3.225,17.0
80.559,-9.988,0.922,5.0
80.442,-9.977,0.491,23.0
85.077,-10.556,2.902,12.0
63.147,-7.836,1.815,10.0
139.577,-17.324,3.266,18.0
192.047,-23.84,3.448,10.0
192.052,-23.847,2.419,24.0
80.451,-9.992,0.584,27.0
84.742,-10.529,2.988,15.0
63.26,-7.86,1.891,6.0
139.602,-17.349,3.428,17.0
0.0,0.0,0.0,0.0
192.015,-23.868,2.642,26.0
80.484,-10.006,0.677,28.0
84.516,-10.512,3.079,22.0
139.023,-17.292,4.32,13.0
63.093,-7.847,1.623,7.0
139.626,-17.367,2.829,6.0
192.048,-23.889,2.865,22.0
80.503,-10.015,0.77,25.0
84.496,-10.517,3.175,15.0
85.467,-10.636,2.754,8.0
63.082,-7.85,1.695,22.0
139.591,-17.37,2.99,20.0
192.059,-23.898,3.087,26.0
80.518,-10.019,0.863,11.0
84.538,-10.525,3.275,6.0
85.215,-10.607,2.844,8.0
63.118,-7.855,1.768,28.0
139.556,-17.366,3.15,29.0
192.11,-23.904,3.309,19.0
192.003,-23.889,2.278,16.0
137.537,-17.123,5.488,9.0
84.751,-10.548,2.927,10.0
63.195,-7.863,1.844,14.0
139.526,-17.357,3.311,25.0
198.371,-24.673,3.644,6.0
192.047,-23.883,2.503,30.0
126.783,-15.777,5.206,5.0
84.546,-10.517,3.018,15.0
63.309,-7.872,1.92,4.0
139.553,-17.348,3.473,17.0
197.994,-24.607,3.865,9.0
192.038,-23.861,2.721,27.0
139.092,-17.294,5.87,4.0
84.506,-10.502,3.112,20.0
139.196,-17.292,4.38,10.0
63.043,-7.829,1.639,12.0
139.58,-17.327,2.882,10.0
192.111,-23.842,2.937,20.0
137.037,-17.019,5.937,14.0
84.449,-10.482,3.206,14.0
85.48,-10.605,2.785,7.0
63.063,-7.82,1.711,23.0
139.607,-17.305,3.038,17.0
192.113,-23.804,3.152,8.0
136.983,-16.985,6.09,12.0
84.495,-10.47,3.303,4.0
85.161,-10.547,2.871,13.0
63.091,-7.809,1.782,4.0
139.654,-17.278,3.194,16.0
188.943,-23.365,3.311,11.0
110.711,-13.701,5.045,10.0
126.782,-15.679,5.096,4.0
84.858,-10.487,2.954,25.0
139.187,-17.191,4.086,9.0
139.655,-17.239,3.35,12.0
188.808,-23.293,3.516,16.0
110.739,-13.673,5.168,24.0
127.244,-15.699,5.255,4.0
84.614,-10.432,3.038,25.0
139.075,-17.134,4.233,17.0
165.393,-20.362,4.149,16.0
188.41,-23.181,3.713,22.0
110.807,-13.645,5.292,25.0
137.215,-16.882,5.815,14.0
84.538,-10.393,3.127,17.0
85.334,-10.482,2.689,6.0
165.211,-20.279,4.32,21.0
188.393,-23.109,3.913,24.0
110.881,-13.613,5.414,10.0
137.105,-16.817,5.956,17.0
84.632,-10.371,3.221,11.0
84.605,-10.358,2.757,22.0
165.166,-20.206,4.493,21.0
187.962,-22.976,4.103,7.0
136.96,-16.757,6.833,17.0
137.128,-16.761,6.101,11.0
84.946,-10.372,3.322,10.0
84.497,-10.308,2.841,23.0
85.831,-10.461,2.424,10.0
189.233,-23.044,4.328,6.0
111.199,-13.554,5.664,1.0
137.062,-16.688,6.242,12.0
85.091,-10.349,3.417,12.0
84.453,-10.26,2.928,37.0
84.261,-10.227,2.468,10.0
139.272,-16.888,3.33,10.0
118.816,-14.421,6.175,12.0
137.152,-16.627,6.388,10.0
85.769,-10.386,3.532,15.0
84.625,-10.236,3.02,26.0
84.2,-10.173,2.552,31.0
139.146,-16.795,3.469,16.0
118.661,-14.337,6.287,12.0
140.909,-17.003,6.705,7.0
84.724,-10.211,3.575,14.0
84.571,-10.18,3.104,26.0
84.245,-10.129,2.637,33.0
138.874,-16.679,3.599,24.0
118.122,-14.201,6.379,18.0
141.116,-16.943,6.856,11.0
84.045,-10.077,3.629,21.0
84.75,-10.149,3.194,21.0
84.404,-10.094,2.726,31.0
84.382,-10.08,2.27,8.0
62.579,-7.483,3.44,6.0
118.825,-14.189,5.89,20.0
84.154,-10.035,3.716,17.0
0.0,0.0,0.0,0.0
84.551,-10.055,2.812,32.0
84.348,-10.018,2.349,21.0
62.563,-7.439,3.499,4.0
118.768,-14.101,5.998,33.0
83.962,-9.953,3.787,21.0
83.977,-9.941,3.324,35.0
84.588,-10.0,2.89,38.0
84.217,-9.942,2.424,29.0
117.653,-13.904,6.69,15.0
118.798,-14.018,6.11,31.0
84.19,-9.918,3.875,12.0
83.911,-9.87,3.399,38.0
84.506,-9.926,2.966,30.0
84.208,-9.877,2.5,37.0
117.874,-13.84,6.81,23.0
118.865,-13.933,6.223,22.0
136.873,-16.018,6.424,13.0
83.867,-9.799,3.473,40.0
83.948,-9.793,3.021,36.0
83.977,-9.781,2.569,37.0
118.236,-13.787,6.937,12.0
118.946,-13.846,6.332,25.0
83.902,-9.75,4.011,17.0
83.882,-9.732,3.546,42.0
83.816,-9.707,3.09,42.0
83.104,-9.61,2.614,20.0
114.323,-13.234,6.807,17.0
85.095,-9.832,4.604,10.0
83.911,-9.678,4.084,36.0
84.044,-9.677,3.625,40.0
83.73,-9.624,3.158,37.0
82.952,-9.518,2.679,16.0
109.846,-12.619,6.632,26.0
84.979,-9.744,4.668,14.0
83.886,-9.6,4.152,39.0
84.007,-9.597,3.692,39.0
82.525,-9.41,3.179,13.0
82.429,-9.383,2.728,17.0
109.76,-12.508,6.716,30.0
84.932,-9.66,4.733,15.0
83.937,-9.528,4.221,37.0
83.953,-9.511,3.757,44.0
83.319,-9.422,3.275,35.0
82.228,-9.281,2.786,19.0
109.799,-12.408,6.803,30.0
84.845,-9.568,4.794,10.0
84.021,-9.455,4.29,36.0
83.794,-9.411,3.814,46.0
82.59,-9.257,3.31,26.0
82.438,-9.222,2.856,38.0
109.921,-12.311,6.895,24.0
86.527,-9.67,4.955,11.0
83.885,-9.355,4.346,35.0
83.787,-9.324,3.876,39.0
82.759,-9.191,3.377,36.0
82.428,-9.136,2.915,35.0
110.059,-12.213,6.984,12.0
86.525,-9.58,5.017,19.0
83.781,-9.255,4.401,37.0
83.814,-9.239,3.937,40.0
82.572,-9.083,3.428,38.0
82.38,-9.043,2.971,34.0
116.883,-12.844,7.501,9.0
86.584,-9.493,5.082,17.0
83.705,-9.157,4.454,36.0
83.863,-9.153,3.997,31.0
82.583,-8.994,3.484,39.0
82.302,-8.944,3.023,33.0
113.352,-12.331,7.349,10.0
86.681,-9.407,5.145,17.0
83.782,-9.071,4.514,35.0
83.953,-9.068,4.055,41.0
83.42,-8.99,3.574,54.0
82.252,-8.844,3.075,35.0
111.727,-12.027,7.316,17.0
85.347,-9.165,5.119,12.0
83.866,-8.983,4.572,34.0
83.967,-8.972,4.109,37.0
82.863,-8.833,3.601,24.0
82.354,-8.758,3.129,34.0
111.778,-11.9,7.386,18.0
84.329,-8.955,5.11,15.0
84.151,-8.914,4.637,37.0
83.956,-8.871,4.157,27.0
83.205,-8.77,3.665,25.0
82.48,-8.673,3.181,36.0
113.514,-11.949,7.566,7.0
84.223,-8.842,5.151,18.0
84.079,-8.804,4.68,34.0
83.592,-8.73,4.186,31.0
81.937,-8.536,3.653,15.0
82.285,-8.552,3.218,38.0
112.153,-11.667,7.536,13.0
84.458,-8.762,5.21,13.0
83.651,-8.655,4.701,25.0
0.0,0.0,0.0,0.0
81.986,-8.438,3.697,15.0
82.022,-8.42,3.25,45.0
109.399,-11.242,7.407,36.0
84.894,-8.699,5.28,27.0
83.521,-8.535,4.735,28.0
82.458,-8.403,4.212,33.0
82.007,-8.335,3.738,20.0
82.067,-8.319,3.29,36.0
109.317,-11.091,7.454,34.0
84.81,-8.58,5.314,16.0
83.662,-8.44,4.781,24.0
82.319,-8.281,4.243,37.0
82.14,-8.24,3.781,29.0
82.245,-8.229,3.333,32.0
109.345,-10.951,7.503,40.0
84.837,-8.471,5.353,27.0
83.711,-8.333,4.819,32.0
82.261,-8.166,4.274,33.0
81.81,-8.098,3.799,37.0
83.268,-8.219,3.409,37.0
109.356,-10.803,7.548,36.0
85.736,-8.443,5.444,15.0
83.505,-8.199,4.84,38.0
81.931,-8.02,4.288,31.0
81.75,-7.979,3.828,34.0
82.414,-8.02,3.404,17.0
109.453,-10.661,7.595,27.0
86.465,-8.396,5.521,10.0
83.42,-8.074,4.865,42.0
81.819,-7.895,4.311,34.0
81.783,-7.868,3.857,31.0
82.28,-7.892,3.427,13.0
109.771,-10.537,7.654,28.0
86.418,-8.269,5.546,27.0
83.472,-7.962,4.894,43.0
82.099,-7.805,4.352,27.0
82.015,-7.774,3.893,33.0
81.835,-7.732,3.432,23.0
113.354,-10.718,7.936,16.0
0.0,0.0,0.0,0.0
83.465,-7.839,4.918,39.0
81.982,-7.675,4.367,15.0
82.278,-7.678,3.928,35.0
81.765,-7.606,3.451,31.0
113.582,-10.573,7.982,27.0
84.966,-7.882,5.499,29.0
83.364,-7.708,4.932,39.0
83.507,-7.696,4.469,48.0
81.934,-7.527,3.93,34.0
81.712,-7.481,3.467,36.0
112.911,-10.345,7.959,27.0
84.222,-7.689,5.468,13.0
83.665,-7.612,4.967,28.0
83.633,-7.584,4.491,39.0
82.017,-7.413,3.95,41.0
81.775,-7.367,3.484,29.0
112.672,-10.155,7.962,11.0
0.0,0.0,0.0,0.0
84.182,-7.534,5.011,27.0
83.452,-7.442,4.495,44.0
82.751,-7.354,3.998,53.0
81.73,-7.239,3.495,36.0
84.769,-7.512,6.002,7.0
84.551,-7.465,5.515,36.0
83.781,-7.37,4.998,18.0
83.222,-7.294,4.493,40.0
82.928,-7.242,4.016,37.0
81.726,-7.111,3.503,34.0
60.19,-5.239,4.268,5.0
84.692,-7.344,5.533,30.0
84.067,-7.263,5.023,15.0
83.216,-7.163,4.499,36.0
83.228,-7.138,4.036,42.0
81.866,-6.996,3.515,34.0
60.186,-5.145,4.271,2.0
85.823,-7.308,5.611,19.0
0.0,0.0,0.0,0.0
83.59,-7.064,4.523,47.0
83.336,-7.016,4.045,41.0
82.405,-6.912,3.541,18.0
115.457,-9.687,8.197,16.0
86.065,-7.193,5.628,16.0
83.661,-6.964,5.003,31.0
83.692,-6.94,4.529,40.0
83.352,-6.885,4.045,42.0
83.05,-6.834,3.568,34.0
116.215,-9.565,8.249,13.0
85.708,-7.025,5.603,36.0
83.622,-6.827,4.998,24.0
83.331,-6.777,4.506,39.0
83.146,-6.736,4.031,44.0
83.571,-6.744,3.586,36.0
117.66,-9.494,8.345,19.0
86.095,-6.918,5.622,24.0
83.679,-6.697,4.995,22.0
83.239,-6.634,4.495,35.0
83.25,-6.609,4.029,23.0
83.738,-6.621,3.585,31.0
60.302,-4.767,4.27,6.0
85.626,-6.74,5.583,40.0
83.759,-6.566,4.991,31.0
83.285,-6.501,4.487,42.0
83.309,-6.475,4.021,37.0
83.542,-6.467,3.566,32.0
60.31,-4.668,4.262,6.0
84.183,-6.487,5.476,14.0
83.967,-6.443,4.99,37.0
83.777,-6.4,4.5,47.0
83.425,-6.346,4.014,28.0
83.652,-6.337,3.555,33.0
117.738,-8.916,8.299,22.0
84.166,-6.346,5.459,26.0
84.326,-6.33,4.995,44.0
83.702,-6.255,4.479,36.0
83.347,-6.201,3.992,39.0
83.02,-6.15,3.511,36.0
117.835,-8.726,8.28,23.0
84.139,-6.202,5.438,19.0
84.34,-6.188,4.975,36.0
83.866,-6.125,4.467,37.0
83.312,-6.058,3.97,37.0
82.891,-6.0,3.484,40.0
118.443,-8.568,8.291,19.0
60.04,-4.323,3.863,17.0
84.494,-6.055,4.96,16.0
83.96,-5.99,4.448,38.0
83.516,-5.931,3.955,37.0
83.599,-5.911,3.488,37.0
24.543,-1.733,1.71,16.0
24.518,-1.723,1.57,16.0
24.484,-1.713,1.429,30.0
84.309,-5.872,4.44,22.0
83.716,-5.804,3.936,23.0
24.577,-1.696,1.017,30.0
24.482,-1.687,1.697,40.0
24.481,-1.679,1.559,45.0
24.459,-1.67,1.419,60.0
24.514,-1.665,1.281,41.0
24.509,-1.657,1.143,34.0
24.494,-1.649,1.004,28.0
24.427,-1.642,1.684,43.0
24.443,-1.635,1.547,76.0
24.446,-1.627,1.408,61.0
24.473,-1.621,1.269,62.0
24.485,-1.614,1.132,37.0
24.463,-1.605,0.993,54.0
24.395,-1.598,1.671,59.0
24.419,-1.592,1.534,42.0
24.427,-1.584,1.397,75.0
24.469,-1.579,1.258,87.0
24.458,-1.57,1.119,35.0
24.451,-1.561,0.981,38.0
24.38,-1.555,1.658,40.0
24.379,-1.547,1.52,28.0
24.422,-1.541,1.384,43.0
24.472,-1.536,1.246,90.0
24.44,-1.527,1.106,53.0
24.459,-1.52,0.969,60.0
24.398,-1.514,1.647,85.0
24.367,-1.504,1.506,29.0
24.413,-1.499,1.371,70.0
24.463,-1.494,1.232,78.0
24.493,-1.488,1.095,38.0
24.492,-1.48,0.957,33.0
24.407,-1.472,1.634,63.0
24.392,-1.463,1.494,58.0
24.444,-1.458,1.359,46.0
24.481,-1.453,1.219,48.0
24.515,-1.447,1.082,53.0
24.514,-1.439,0.943,41.0
24.427,-1.431,1.62,45.0
24.411,-1.422,1.48,66.0
24.463,-1.417,1.345,56.0
24.548,-1.414,1.208,34.0
24.573,-1.408,1.069,38.0
24.591,-1.401,0.931,11.0
24.446,-1.39,1.606,28.0
24.449,-1.382,1.467,51.0
28.413,-1.597,1.543,53.0
83.766,-4.683,4.067,16.0
83.418,-4.637,3.576,40.0
83.369,-4.608,3.101,55.0
28.413,-1.566,1.847,1.0
28.421,-1.557,1.686,59.0
28.418,-1.548,1.524,69.0
83.721,-4.535,4.005,34.0
83.583,-4.501,3.523,35.0
83.545,-4.473,3.047,14.0
28.429,-1.518,1.828,64.0
28.42,-1.508,1.665,67.0
28.422,-1.499,1.503,69.0
83.942,-4.402,3.954,29.0
86.107,-4.489,3.566,14.0
85.024,-4.407,3.038,30.0
28.42,-1.468,1.805,72.0
28.424,-1.46,1.643,67.0
28.407,-1.45,1.48,69.0
84.787,-4.302,3.928,42.0
86.365,-4.354,3.509,36.0
85.32,-4.276,2.981,29.0
28.427,-1.42,1.783,72.0
28.414,-1.41,1.62,66.0
28.412,-1.401,1.457,64.0
85.414,-4.188,3.887,28.0
86.402,-4.209,3.439,34.0
85.054,-4.117,2.901,23.0
28.41,-1.37,1.758,68.0
28.403,-1.361,1.595,73.0
28.403,-1.352,1.433,56.0
85.783,-4.057,3.829,23.0
159.704,-7.507,6.219,14.0
0.0,0.0,0.0,0.0
161.152,-7.498,9.829,14.0
160.992,-7.44,8.897,31.0
28.383,-1.302,1.406,5.0
159.536,-7.275,6.978,31.0
165.547,-7.499,6.295,21.0
86.551,-3.894,2.798,1.0
161.407,-7.235,9.696,17.0
31.346,-1.395,1.703,8.0
31.323,-1.384,1.523,5.0
28.422,-1.247,1.216,1.0
28.446,-1.24,1.054,47.0
28.449,-1.231,0.892,63.0
28.459,-1.227,1.682,47.0
28.443,-1.217,1.518,57.0
28.433,-1.208,1.354,58.0
28.418,-1.199,1.188,88.0
28.43,-1.191,1.026,107.0
28.438,-1.183,0.864,103.0
28.433,-1.177,1.651,112.0
28.417,-1.168,1.488,88.0
28.426,-1.16,1.325,120.0
28.435,-1.152,1.16,129.0
28.423,-1.143,0.997,99.0
28.434,-1.135,0.834,72.0
28.425,-1.129,1.621,77.0
28.426,-1.121,1.458,55.0
28.447,-1.113,1.296,61.0
28.423,-1.104,1.129,36.0
31.256,-1.205,1.063,44.0
31.275,-1.197,0.885,55.0
31.209,-1.188,1.746,26.0
31.22,-1.18,1.568,39.0
31.262,-1.172,1.39,62.0
31.224,-1.161,1.207,39.0
31.281,-1.154,1.03,53.0
31.303,-1.146,0.851,52.0
31.212,-1.137,1.712,35.0
31.235,-1.128,1.533,34.0
31.276,-1.121,1.356,48.0
31.271,-1.112,1.173,36.0
31.311,-1.104,0.995,37.0
31.385,-1.098,0.817,22.0
31.256,-1.086,1.678,41.0
31.294,-1.079,1.5,42.0
38.656,-1.321,1.63,42.0
38.673,-1.311,1.405,37.0
38.668,-1.3,1.183,36.0
38.666,-1.289,0.961,57.0
28.391,-0.941,1.49,75.0
38.564,-1.267,1.802,53.0
38.651,-1.259,1.584,85.0
38.61,-1.247,1.357,68.0
38.605,-1.236,1.135,61.0
38.622,-1.225,0.913,67.0
38.482,-1.213,1.972,10.0
38.564,-1.204,1.754,66.0
38.637,-1.196,1.535,90.0
38.589,-1.183,1.307,57.0
38.576,-1.172,1.085,68.0
38.633,-1.164,0.865,98.0
38.5,-1.151,1.924,36.0
38.623,-1.144,1.708,88.0
38.649,-1.134,1.486,83.0
38.542,-1.12,1.256,67.0
38.593,-1.111,1.036,69.0
38.639,-1.102,0.815,83.0
38.582,-1.092,1.878,57.0
38.646,-1.083,1.658,81.0
38.645,-1.073,1.435,41.0
38.556,-1.06,1.206,62.0
38.646,-1.052,0.986,82.0
38.666,-1.042,0.764,58.0
38.653,-1.032,1.829,40.0
38.68,-1.023,1.607,10.0
45.726,-1.197,1.636,4.0
38.658,-1.001,1.156,42.0
38.689,-0.992,0.935,50.0
0.0,0.0,0.0,0.0
45.777,-1.151,2.103,27.0
45.741,-1.138,1.837,4.0
40.425,-0.995,1.39,28.0
38.69,-0.943,1.104,51.0
0.0,0.0,0.0,0.0
40.407,-0.963,0.687,37.0
40.408,-0.954,1.798,38.0
40.404,-0.943,1.565,38.0
40.395,-0.932,1.331,39.0
40.407,-0.922,1.094,38.0
40.405,-0.912,0.861,32.0
40.426,-0.902,0.629,3.0
40.418,-0.893,1.741,30.0
40.417,-0.882,1.507,27.0
40.44,-0.873,1.274,25.0
38.375,-0.819,0.984,3.0
38.406,-0.81,0.763,12.0
52.934,-1.103,0.747,12.0
45.724,-0.942,1.902,56.0
45.677,-0.93,1.636,56.0
64.322,-1.293,1.932,31.0
38.248,-0.759,0.924,13.0
53.029,-1.04,0.975,1.0
53.024,-1.027,0.669,6.0
45.79,-0.876,1.836,42.0
45.766,-0.865,1.571,19.0
64.316,-1.199,1.835,78.0
190.926,-3.514,4.325,12.0
203.755,-3.702,3.439,5.0
0.0,0.0,0.0,0.0
59.296,-1.049,2.286,25.0
64.285,-1.121,2.106,81.0
64.322,-1.107,1.735,37.0
176.642,-2.998,3.728,73.0
176.615,-2.956,2.707,46.0
20.136,-0.332,0.192,8.0
59.304,-0.965,2.194,60.0
53.496,-0.857,1.669,43.0
59.493,-0.94,1.512,25.0
53.503,-0.833,1.045,14.0
20.133,-0.309,0.277,10.0
20.128,-0.304,0.16,15.0
53.532,-0.796,1.895,150.0
53.481,-0.783,1.583,73.0
53.519,-0.771,1.275,41.0
20.124,-0.285,0.361,10.0
20.121,-0.28,0.244,13.0
20.144,-0.276,0.128,12.0
53.51,-0.722,1.807,102.0
59.43,-0.789,1.663,16.0
20.133,-0.262,0.446,11.0
20.117,-0.258,0.328,12.0
20.149,-0.253,0.211,14.0
56.213,-0.696,0.265,2.0
53.509,-0.65,1.719,70.0
20.166,-0.24,0.53,9.0
20.14,-0.235,0.413,13.0
20.146,-0.231,0.295,15.0
64.289,-0.724,0.569,5.0
56.182,-0.621,0.172,2.0
53.444,-0.579,1.627,11.0
20.135,-0.213,0.496,14.0
20.169,-0.209,0.38,19.0
53.368,-0.543,0.691,8.0
53.361,-0.532,0.382,4.0
56.206,-0.548,0.077,1.0
53.474,-0.51,1.537,9.0
20.157,-0.188,0.462,17.0
53.473,-0.487,0.916,33.0
66.516,-0.592,0.747,15.0
66.513,-0.577,0.361,28.0
56.265,-0.477,-0.02,4.0
20.178,-0.166,0.544,8.0
20.233,-0.163,0.428,29.0
20.25,-0.159,0.311,22.0
20.18,-0.154,0.191,17.0
20.148,-0.15,0.074,16.0
20.185,-0.146,-0.042,22.0
20.157,-0.141,0.508,16.0
20.14,-0.137,0.391,16.0
20.118,-0.133,0.274,17.0
20.115,-0.129,0.155,18.0
20.14,-0.125,0.038,29.0
20.15,-0.121,-0.077,25.0
20.12,-0.117,0.472,23.0
20.117,-0.113,0.355,27.0
20.127,-0.109,0.238,23.0
20.124,-0.105,0.119,27.0
20.127,-0.101,0.002,35.0
20.141,-0.097,-0.114,32.0
20.121,-0.093,0.435,32.0
20.115,-0.089,0.318,27.0
20.118,-0.085,0.202,26.0
20.128,-0.082,0.083,40.0
20.139,-0.078,-0.033,28.0
20.141,-0.074,-0.15,36.0
20.116,-0.07,0.399,33.0
20.116,-0.066,0.282,29.0
20.109,-0.063,0.165,30.0
20.13,-0.059,0.047,38.0
20.145,-0.055,-0.069,33.0
20.148,-0.052,-0.186,25.0
20.125,-0.048,0.362,32.0
20.12,-0.044,0.245,30.0
20.118,-0.041,0.128,32.0
20.135,-0.037,0.01,33.0
20.155,-0.033,-0.107,27.0
20.169,-0.03,-0.224,5.0
20.118,-0.026,0.325,33.0
20.118,-0.023,0.208,29.0
20.126,-0.019,0.091,31.0
20.188,-0.016,-0.027,15.0
20.207,-0.012,-0.144,16.0
20.232,-0.009,-0.262,9.0
20.126,-0.005,0.287,28.0
20.128,-0.002,0.17,27.0
20.226,0.001,0.053,150.0
20.262,0.004,-0.065,151.0
20.257,0.008,-0.183,151.0
20.264,0.011,-0.301,150.0
20.13,0.014,0.249,28.0
20.133,0.018,0.132,28.0
20.264,0.021,0.015,151.0
20.261,0.024,-0.103,150.0
20.248,0.028,-0.221,151.0
20.26,0.031,-0.339,59.0
20.14,0.034,0.211,28.0
20.151,0.037,0.094,25.0
20.2,0.041,-0.022,15.0
20.22,0.044,-0.142,22.0
20.253,0.047,-0.26,0.0
20.274,0.05,-0.378,0.0
20.156,0.053,0.172,29.0
20.208,0.056,0.055,33.0
20.214,0.06,-0.061,30.0
20.207,0.063,-0.181,23.0
20.252,0.066,-0.299,0.0
0.0,0.0,0.0,0.0
20.162,0.072,0.133,27.0
20.201,0.075,0.016,29.0
20.191,0.078,-0.101,27.0
20.173,0.081,-0.22,18.0
20.208,0.084,-0.338,0.0
0.0,0.0,0.0,0.0
20.195,0.089,0.094,35.0
20.188,0.092,-0.023,29.0
20.192,0.095,-0.141,30.0
20.185,0.098,-0.26,25.0
20.199,0.101,-0.378,2.0
0.0,0.0,0.0,0.0
20.195,0.106,0.054,40.0
20.179,0.109,-0.063,31.0
20.179,0.112,-0.18,24.0
20.193,0.115,-0.3,27.0
20.189,0.118,-0.417,3.0
32.691,0.195,-0.867,0.0
20.184,0.123,0.014,28.0
20.186,0.125,-0.103,36.0
20.176,0.128,-0.22,29.0
20.182,0.131,-0.34,28.0
20.187,0.134,-0.458,12.0
21.642,0.146,-0.617,3.0
20.215,0.138,-0.025,26.0
20.174,0.141,-0.143,29.0
20.182,0.143,-0.261,31.0
20.187,0.146,-0.38,26.0
20.193,0.149,-0.498,22.0
21.007,0.157,-0.641,4.0
20.212,0.153,-0.066,25.0
20.173,0.155,-0.183,20.0
20.176,0.158,-0.301,33.0
20.167,0.16,-0.42,28.0
20.192,0.163,-0.539,23.0
21.659,0.178,-0.704,41.0
20.208,0.167,-0.106,24.0
20.183,0.169,-0.224,27.0
20.174,0.172,-0.341,29.0
20.173,0.174,-0.461,25.0
20.198,0.177,-0.579,25.0
0.0,0.0,0.0,0.0
20.203,0.181,-0.147,18.0
20.175,0.183,-0.265,28.0
20.178,0.185,-0.382,32.0
20.174,0.187,-0.502,29.0
20.202,0.19,-0.62,27.0
20.2,0.192,-0.739,0.0
20.174,0.193,-0.188,17.0
20.186,0.195,-0.306,29.0
20.185,0.197,-0.424,27.0
20.184,0.2,-0.543,29.0
20.2,0.202,-0.662,29.0
18.639,0.188,-0.72,150.0
20.191,0.205,-0.23,24.0
20.18,0.207,-0.347,29.0
20.187,0.209,-0.465,26.0
20.191,0.211,-0.585,33.0
20.212,0.214,-0.703,28.0
18.7,0.2,-0.76,150.0
20.197,0.216,-0.27,27.0
20.179,0.218,-0.388,28.0
20.184,0.22,-0.506,28.0
20.196,0.222,-0.626,32.0
20.225,0.224,-0.745,27.0
0.0,0.0,0.0,0.0
20.201,0.227,-0.312,27.0
20.194,0.228,-0.43,23.0
20.197,0.23,-0.548,28.0
20.204,0.232,-0.668,29.0
20.228,0.234,-0.787,28.0
0.0,0.0,0.0,0.0
20.2,0.236,-0.353,25.0
20.173,0.238,-0.471,18.0
20.204,0.24,-0.589,27.0
20.219,0.242,-0.71,28.0
20.135,0.242,-0.824,16.0
18.618,0.226,-0.871,1.0
20.214,0.245,-0.395,22.0
20.212,0.247,-0.513,26.0
20.21,0.248,-0.631,25.0
20.225,0.25,-0.751,27.0
20.186,0.251,-0.868,13.0
18.529,0.232,-0.905,22.0
20.22,0.253,-0.436,19.0
20.217,0.255,-0.554,26.0
20.199,0.256,-0.671,20.0
20.224,0.258,-0.792,25.0
20.272,0.26,-0.913,10.0
18.428,0.238,-0.938,3.0
20.207,0.26,-0.477,21.0
20.218,0.262,-0.595,24.0
20.217,0.263,-0.713,23.0
20.168,0.264,-0.831,15.0
0.0,0.0,0.0,0.0
17.698,0.234,-0.936,0.0
20.228,0.267,-0.519,22.0
20.216,0.268,-0.636,20.0
20.226,0.27,-0.755,20.0
20.206,0.271,-0.874,10.0
18.508,0.249,-0.909,11.0
16.952,0.229,-0.931,0.0
20.213,0.272,-0.559,15.0
20.213,0.274,-0.677,14.0
20.211,0.275,-0.795,17.0
20.262,0.277,-0.918,8.0
18.29,0.251,-0.935,0.0
16.442,0.226,-0.937,0.0
20.22,0.277,-0.601,10.0
20.211,0.278,-0.719,9.0
20.161,0.279,-0.834,10.0
0.0,0.0,0.0,0.0
17.567,0.245,-0.934,0.0
15.88,0.222,-0.937,0.0
20.226,0.282,-0.642,8.0
20.227,0.283,-0.76,9.0
20.205,0.283,-0.877,10.0
18.519,0.26,-0.914,2.0
16.829,0.238,-0.929,0.0
15.378,0.218,-0.939,0.0
20.226,0.285,-0.683,3.0
20.22,0.286,-0.801,7.0
20.277,0.287,-0.922,5.0
18.025,0.256,-0.927,0.0
16.33,0.233,-0.935,0.0
14.904,0.213,-0.94,0.0
20.227,0.288,-0.724,2.0
20.144,0.287,-0.839,8.0
20.019,0.286,-0.95,0.0
17.129,0.245,-0.915,0.0
