X,Y,Z,Reflectivity
11.344,1.122,-0.944,0.0
10.642,1.051,-0.946,0.0
15.145,1.489,-0.923,0.0
13.968,1.372,-0.93,0.0
12.965,1.271,-0.937,0.0
12.008,1.176,-0.937,0.0
11.299,1.105,-0.946,0.0
10.586,1.034,-0.947,0.0
15.014,1.46,-0.923,0.0
0.0,0.0,0.0,0.0
12.888,1.249,-0.938,0.0
11.882,1.15,-0.934,0.0
11.191,1.082,-0.943,0.0
10.524,1.016,-0.947,0.0
14.95,1.436,-0.926,0.0
13.872,1.331,-0.938,0.0
12.784,1.225,-0.937,0.0
11.851,1.134,-0.937,0.0
11.144,1.065,-0.945,0.0
10.46,0.998,-0.946,0.0
14.859,1.41,-0.927,0.0
13.676,1.296,-0.931,0.0
12.74,1.206,-0.939,0.0
11.817,1.117,-0.94,0.0
11.12,1.049,-0.947,0.0
10.396,0.979,-0.945,0.0
14.779,1.385,-0.929,0.0
13.634,1.276,-0.934,0.0
12.639,1.181,-0.937,0.0
11.781,1.099,-0.942,0.0
11.049,1.029,-0.946,0.0
10.346,0.962,-0.945,0.0
14.704,1.36,-0.93,0.0
13.63,1.259,-0.939,0.0
12.583,1.16,-0.938,0.0
11.734,1.08,-0.942,0.0
11.009,1.012,-0.947,0.0
10.268,0.943,-0.941,0.0
14.59,1.332,-0.928,0.0
13.566,1.236,-0.939,0.0
12.556,1.142,-0.94,0.0
11.675,1.06,-0.942,0.0
11.002,0.998,-0.95,0.0
10.274,0.93,-0.945,0.0
14.551,1.31,-0.93,0.0
13.409,1.205,-0.932,0.0
12.493,1.121,-0.939,0.0
11.611,1.04,-0.94,0.0
10.861,0.971,-0.941,0.0
10.253,0.915,-0.946,0.0
14.513,1.288,-0.931,0.0
13.362,1.184,-0.933,0.0
12.461,1.102,-0.94,0.0
11.593,1.023,-0.941,0.0
10.857,0.956,-0.943,0.0
10.207,0.898,-0.944,0.0
14.476,1.266,-0.932,0.0
13.415,1.17,-0.939,0.0
12.405,1.08,-0.939,0.0
11.576,1.006,-0.942,0.0
10.852,0.942,-0.945,0.0
10.181,0.882,-0.944,0.0
14.423,1.242,-0.932,0.0
13.382,1.15,-0.94,0.0
12.447,1.067,-0.944,0.0
11.509,0.985,-0.939,0.0
10.829,0.925,-0.945,0.0
10.199,0.869,-0.947,0.0
14.423,1.222,-0.934,0.0
13.36,1.13,-0.94,0.0
12.384,1.045,-0.941,0.0
11.525,0.971,-0.942,0.0
10.838,0.911,-0.947,0.0
10.156,0.852,-0.945,0.0
14.412,1.202,-0.935,0.0
13.324,1.108,-0.939,0.0
12.337,1.024,-0.939,0.0
11.502,0.953,-0.941,0.0
10.835,0.895,-0.948,0.0
10.193,0.841,-0.949,0.0
14.434,1.183,-0.938,0.0
13.381,1.094,-0.944,0.0
12.358,1.009,-0.941,0.0
11.497,0.936,-0.941,0.0
10.816,0.879,-0.946,0.0
10.174,0.825,-0.948,0.0
14.423,1.162,-0.937,0.0
13.379,1.075,-0.944,0.0
12.337,0.989,-0.94,0.0
11.494,0.92,-0.941,0.0
0.0,0.0,0.0,0.0
10.181,0.811,-0.948,0.0
14.436,1.143,-0.938,0.0
13.334,1.053,-0.941,0.0
12.364,0.974,-0.942,0.0
11.511,0.905,-0.942,0.0
10.818,0.848,-0.946,0.0
10.173,0.796,-0.947,0.0
14.44,1.122,-0.938,0.0
13.253,1.027,-0.934,0.0
12.366,0.956,-0.941,0.0
11.523,0.889,-0.942,0.0
10.886,0.838,-0.951,0.0
10.178,0.781,-0.947,0.0
14.448,1.102,-0.937,0.0
13.357,1.016,-0.94,0.0
12.379,0.939,-0.941,0.0
11.543,0.874,-0.943,0.0
10.827,0.817,-0.945,0.0
10.186,0.767,-0.946,0.0
14.491,1.084,-0.938,0.0
13.358,0.996,-0.939,0.0
12.417,0.924,-0.942,0.0
11.582,0.859,-0.944,0.0
10.935,0.809,-0.953,0.0
10.187,0.752,-0.944,0.0
14.574,1.069,-0.941,0.0
13.468,0.985,-0.944,0.0
12.434,0.907,-0.941,0.0
11.598,0.843,-0.943,0.0
10.91,0.791,-0.948,0.0
10.211,0.738,-0.944,0.0
14.6,1.049,-0.939,0.0
13.472,0.965,-0.941,0.0
12.482,0.891,-0.941,0.0
11.648,0.829,-0.944,0.0
10.925,0.776,-0.947,0.0
10.258,0.726,-0.946,0.0
14.685,1.033,-0.941,0.0
13.477,0.945,-0.938,0.0
12.548,0.877,-0.943,0.0
11.654,0.812,-0.942,0.0
10.93,0.76,-0.944,0.0
10.305,0.714,-0.947,0.0
14.699,1.012,-0.937,0.0
13.492,0.926,-0.935,0.0
12.587,0.861,-0.942,0.0
11.687,0.797,-0.941,0.0
11.013,0.749,-0.947,0.0
10.354,0.702,-0.948,0.0
14.803,0.996,-0.939,0.0
13.612,0.913,-0.938,0.0
12.672,0.847,-0.944,0.0
11.762,0.784,-0.942,0.0
11.094,0.737,-0.95,0.0
10.407,0.689,-0.949,0.0
14.805,0.974,-0.933,0.0
13.82,0.906,-0.947,0.0
12.749,0.833,-0.944,0.0
11.824,0.77,-0.942,0.0
11.104,0.721,-0.946,0.0
10.428,0.675,-0.947,0.0
14.831,0.953,-0.928,0.0
13.907,0.891,-0.947,0.0
12.846,0.82,-0.946,0.0
11.877,0.755,-0.941,0.0
11.221,0.711,-0.951,0.0
10.467,0.661,-0.945,0.0
15.014,0.942,-0.932,0.0
13.959,0.872,-0.944,0.0
12.904,0.803,-0.944,0.0
12.004,0.745,-0.945,0.0
11.223,0.694,-0.946,0.0
10.572,0.651,-0.949,0.0
15.099,0.924,-0.93,0.0
13.974,0.852,-0.937,0.0
13.02,0.79,-0.945,0.0
12.052,0.729,-0.942,0.0
11.364,0.685,-0.951,0.0
10.618,0.638,-0.948,0.0
15.132,0.902,-0.924,0.0
14.092,0.837,-0.937,0.0
13.104,0.775,-0.944,0.0
12.13,0.715,-0.941,0.0
11.397,0.669,-0.947,0.0
10.69,0.625,-0.947,0.0
15.21,0.884,-0.919,0.0
14.182,0.82,-0.935,0.0
13.224,0.762,-0.944,0.0
12.283,0.705,-0.946,0.0
11.463,0.655,-0.945,0.0
10.76,0.613,-0.947,0.0
15.4,0.871,-0.921,0.0
14.315,0.806,-0.934,0.0
13.33,0.747,-0.943,0.0
12.375,0.691,-0.944,0.0
11.557,0.643,-0.945,0.0
10.937,0.606,-0.955,0.0
15.724,0.865,-0.929,0.0
14.521,0.795,-0.937,1.0
13.382,0.73,-0.937,0.0
12.477,0.678,-0.943,0.0
11.645,0.63,-0.944,0.0
10.98,0.591,-0.95,0.0
15.9,0.85,-0.928,0.0
14.752,0.785,-0.942,1.0
0.0,0.0,0.0,0.0
12.619,0.666,-0.944,0.0
11.759,0.618,-0.944,0.0
11.072,0.579,-0.95,0.0
16.027,0.832,-0.923,0.0
14.862,0.768,-0.937,0.0
0.0,0.0,0.0,0.0
12.768,0.654,-0.945,0.0
11.883,0.606,-0.945,0.0
11.167,0.566,-0.949,0.0
16.288,0.821,-0.925,1.0
15.033,0.754,-0.935,0.0
0.0,0.0,0.0,0.0
12.892,0.64,-0.944,0.0
12.013,0.594,-0.945,0.0
11.275,0.555,-0.948,0.0
16.643,0.813,-0.931,1.0
15.233,0.74,-0.934,0.0
14.221,0.688,-0.95,0.0
13.077,0.629,-0.946,0.0
12.176,0.583,-0.947,0.0
11.432,0.545,-0.951,0.0
16.825,0.796,-0.926,0.0
15.415,0.726,-0.932,0.0
14.329,0.671,-0.944,0.0
13.252,0.617,-0.946,0.0
12.337,0.572,-0.948,0.0
11.49,0.53,-0.945,0.0
20.211,0.925,-1.093,11.0
15.679,0.714,-0.933,0.0
14.493,0.657,-0.941,0.0
13.474,0.607,-0.949,0.0
12.505,0.561,-0.948,0.0
11.653,0.52,-0.947,0.0
20.227,0.896,-1.074,42.0
16.007,0.705,-0.936,0.0
14.652,0.642,-0.936,0.0
13.626,0.593,-0.946,0.0
12.721,0.551,-0.952,0.0
11.788,0.508,-0.946,0.0
20.235,0.866,-1.054,0.0
16.228,0.69,-0.933,0.0
14.913,0.631,-0.938,0.0
0.0,0.0,0.0,0.0
12.86,0.538,-0.949,0.0
11.993,0.499,-0.95,0.0
18.076,0.746,-0.922,0.0
16.443,0.675,-0.928,0.0
15.164,0.619,-0.937,0.0
14.299,0.58,-0.962,0.0
13.075,0.528,-0.951,0.0
12.184,0.489,-0.952,0.0
18.411,0.733,-0.919,0.0
16.73,0.662,-0.925,0.0
15.394,0.606,-0.934,0.0
14.326,0.56,-0.948,0.0
13.255,0.515,-0.949,0.0
12.364,0.478,-0.952,0.0
18.698,0.717,-0.913,0.0
17.034,0.649,-0.923,0.0
15.688,0.594,-0.934,0.0
14.54,0.547,-0.945,0.0
13.419,0.502,-0.945,0.0
12.547,0.467,-0.951,0.0
19.232,0.71,-0.916,0.0
17.443,0.64,-0.924,0.0
16.065,0.585,-0.937,0.0
14.757,0.534,-0.942,0.0
13.74,0.494,-0.951,0.0
12.763,0.456,-0.952,0.0
19.797,0.702,-0.919,0.0
17.891,0.63,-0.926,0.0
16.303,0.57,-0.931,0.0
15.059,0.523,-0.942,0.0
13.965,0.482,-0.949,0.0
12.981,0.445,-0.952,0.0
20.283,0.69,-0.916,0.0
18.301,0.618,-0.924,0.0
16.676,0.559,-0.931,0.0
15.312,0.51,-0.939,0.0
14.275,0.472,-0.951,0.0
13.231,0.435,-0.953,0.0
20.698,0.675,-0.908,0.0
18.714,0.605,-0.921,0.0
16.958,0.545,-0.925,0.0
15.679,0.5,-0.94,0.0
14.52,0.46,-0.948,0.0
13.415,0.422,-0.948,0.0
21.468,0.67,-0.913,0.0
19.234,0.595,-0.92,0.0
17.522,0.538,-0.932,0.0
16.084,0.491,-0.943,0.0
14.785,0.448,-0.945,0.0
13.742,0.413,-0.952,0.0
22.18,0.661,-0.913,0.0
19.873,0.588,-0.924,0.0
17.999,0.528,-0.932,0.0
16.37,0.477,-0.937,0.0
15.097,0.436,-0.945,0.0
14.014,0.402,-0.951,0.0
22.632,0.644,-0.9,0.0
20.276,0.572,-0.914,0.0
18.391,0.515,-0.927,0.0
16.68,0.463,-0.931,0.0
15.4,0.424,-0.941,0.0
14.35,0.392,-0.954,0.0
23.373,0.634,-0.896,0.0
20.914,0.562,-0.913,0.0
18.746,0.5,-0.917,0.0
17.045,0.45,-0.926,0.0
15.825,0.415,-0.944,0.0
14.625,0.38,-0.95,0.0
24.382,0.629,-0.899,0.0
21.722,0.555,-0.916,0.0
19.557,0.496,-0.928,0.0
17.672,0.444,-0.934,0.0
16.224,0.404,-0.944,0.0
14.901,0.368,-0.946,0.0
25.159,0.616,-0.89,0.0
22.387,0.543,-0.91,0.0
19.995,0.481,-0.919,0.0
18.092,0.431,-0.929,0.0
16.558,0.391,-0.937,0.0
15.257,0.357,-0.945,0.0
26.224,0.608,-0.887,0.0
22.949,0.527,-0.898,0.0
20.742,0.472,-0.921,0.0
18.606,0.419,-0.926,0.0
16.972,0.379,-0.934,0.0
15.586,0.345,-0.94,0.0
27.114,0.595,-0.875,0.0
23.976,0.521,-0.9,0.0
21.301,0.458,-0.912,0.0
19.155,0.408,-0.923,0.0
17.496,0.369,-0.936,0.0
16.105,0.336,-0.946,0.0
28.605,0.593,-0.878,0.0
24.96,0.512,-0.897,0.0
22.357,0.453,-0.921,0.0
19.839,0.398,-0.924,0.0
18.071,0.359,-0.937,0.0
16.507,0.325,-0.943,0.0
29.818,0.581,-0.866,0.0
25.92,0.5,-0.889,1.0
22.906,0.437,-0.906,0.0
20.443,0.386,-0.918,0.0
18.53,0.346,-0.93,0.0
16.876,0.312,-0.936,0.0
31.558,0.578,-0.864,1.0
26.87,0.486,-0.877,0.0
23.87,0.427,-0.904,0.0
20.121,0.356,-0.87,7.0
19.717,0.345,-0.956,0.0
17.337,0.3,-0.931,0.0
32.884,0.563,-0.845,1.0
28.362,0.48,-0.877,0.0
24.944,0.417,-0.902,0.0
20.143,0.333,-0.836,3.0
20.184,0.33,-0.944,2.0
18.023,0.291,-0.937,0.0
34.555,0.553,-0.829,0.0
29.958,0.473,-0.875,0.0
25.875,0.404,-0.891,0.0
20.2,0.311,-0.803,0.0
20.272,0.308,-0.912,12.0
18.534,0.278,-0.931,1.0
0.0,0.0,0.0,0.0
20.204,0.297,-0.555,3.0
20.218,0.293,-0.661,9.0
20.207,0.289,-0.768,18.0
20.161,0.285,-0.872,10.0
18.536,0.259,-0.899,2.0
20.215,0.279,-0.414,10.0
20.21,0.275,-0.519,24.0
20.222,0.272,-0.625,26.0
20.219,0.268,-0.733,26.0
20.192,0.264,-0.837,17.0
0.0,0.0,0.0,0.0
20.204,0.258,-0.377,24.0
20.172,0.254,-0.482,18.0
20.204,0.25,-0.588,29.0
20.204,0.247,-0.695,29.0
0.0,0.0,0.0,0.0
20.264,0.24,-0.909,7.0
20.184,0.237,-0.34,29.0
20.204,0.233,-0.445,27.0
20.184,0.23,-0.55,30.0
20.209,0.226,-0.658,32.0
19.464,0.215,-0.735,17.0
18.542,0.201,-0.797,153.0
20.188,0.217,-0.303,31.0
20.169,0.213,-0.407,33.0
20.189,0.21,-0.513,30.0
20.194,0.207,-0.62,28.0
0.0,0.0,0.0,0.0
18.51,0.183,-0.762,160.0
20.173,0.197,-0.265,31.0
20.171,0.194,-0.37,34.0
20.179,0.191,-0.475,25.0
20.187,0.187,-0.582,23.0
0.0,0.0,0.0,0.0
18.518,0.166,-0.727,157.0
20.173,0.179,-0.227,31.0
20.187,0.175,-0.332,34.0
20.184,0.172,-0.437,26.0
20.163,0.169,-0.543,17.0
21.674,0.178,-0.697,77.0
21.619,0.174,-0.808,48.0
20.194,0.161,-0.189,24.0
20.162,0.157,-0.293,33.0
20.184,0.154,-0.399,25.0
20.181,0.151,-0.505,9.0
21.677,0.159,-0.655,32.0
21.576,0.155,-0.765,167.0
20.182,0.143,-0.15,40.0
20.173,0.14,-0.255,31.0
20.198,0.137,-0.36,27.0
20.273,0.135,-0.468,0.0
21.644,0.141,-0.612,2.0
21.62,0.137,-0.724,161.0
20.192,0.126,-0.111,44.0
20.194,0.123,-0.215,27.0
20.212,0.121,-0.321,25.0
0.0,0.0,0.0,0.0
32.852,0.187,-0.865,0.0
21.67,0.12,-0.682,18.0
20.188,0.11,-0.071,37.0
20.183,0.107,-0.175,29.0
20.196,0.104,-0.28,18.0
41.849,0.211,-0.801,1.0
0.0,0.0,0.0,0.0
30.159,0.144,-0.89,0.0
20.196,0.094,-0.031,29.0
20.196,0.092,-0.135,29.0
20.202,0.089,-0.24,13.0
43.77,0.188,-0.751,0.0
0.0,0.0,0.0,0.0
31.598,0.127,-0.869,5.0
20.204,0.079,0.009,33.0
20.21,0.077,-0.095,27.0
20.195,0.074,-0.199,17.0
0.0,0.0,0.0,0.0
39.188,0.135,-0.795,0.0
33.258,0.11,-0.847,2.0
20.218,0.065,0.05,28.0
20.217,0.063,-0.054,20.0
20.261,0.06,-0.158,21.0
20.24,0.058,-0.265,1.0
20.244,0.056,-0.37,2.0
20.237,0.054,-0.474,7.0
20.154,0.052,0.09,28.0
20.25,0.05,-0.013,10.0
20.266,0.047,-0.118,73.0
20.238,0.045,-0.224,151.0
20.267,0.043,-0.329,80.0
20.266,0.041,-0.434,82.0
20.145,0.039,0.131,29.0
20.268,0.037,0.027,52.0
20.259,0.035,-0.076,151.0
20.257,0.033,-0.183,151.0
20.261,0.031,-0.288,151.0
20.259,0.029,-0.392,150.0
20.123,0.027,0.172,28.0
20.154,0.025,0.068,29.0
20.24,0.023,-0.035,152.0
20.26,0.021,-0.142,151.0
20.264,0.019,-0.246,151.0
20.266,0.017,-0.351,84.0
20.123,0.016,0.213,28.0
20.129,0.014,0.11,30.0
20.264,0.012,0.006,151.0
20.264,0.01,-0.099,138.0
20.233,0.008,-0.203,17.0
20.236,0.007,-0.308,8.0
20.128,0.005,0.256,28.0
20.122,0.003,0.152,27.0
20.158,0.002,0.048,25.0
20.191,0.0,-0.057,17.0
20.181,-0.001,-0.161,14.0
20.192,-0.002,-0.265,7.0
20.122,-0.004,0.297,29.0
20.118,-0.006,0.194,29.0
20.116,-0.007,0.091,33.0
20.113,-0.009,-0.014,17.0
20.174,-0.01,-0.118,26.0
20.177,-0.012,-0.222,4.0
20.123,-0.013,0.34,32.0
20.111,-0.015,0.236,28.0
20.117,-0.016,0.133,28.0
20.133,-0.017,0.027,33.0
20.131,-0.019,-0.076,27.0
20.164,-0.02,-0.18,24.0
20.123,-0.022,0.382,28.0
20.119,-0.023,0.279,26.0
20.118,-0.024,0.175,34.0
20.121,-0.025,0.069,40.0
20.125,-0.027,-0.033,33.0
20.16,-0.028,-0.137,31.0
20.137,-0.029,0.425,31.0
20.114,-0.03,0.321,30.0
20.112,-0.031,0.217,32.0
20.12,-0.033,0.112,33.0
20.13,-0.034,0.008,35.0
20.138,-0.035,-0.094,35.0
20.137,-0.036,0.468,27.0
20.116,-0.037,0.363,29.0
20.113,-0.038,0.26,28.0
20.11,-0.039,0.155,33.0
20.134,-0.04,0.051,40.0
20.133,-0.041,-0.051,33.0
20.144,-0.042,0.511,24.0
20.128,-0.043,0.407,27.0
20.111,-0.044,0.303,29.0
20.121,-0.045,0.198,28.0
20.118,-0.046,0.094,39.0
20.129,-0.046,-0.008,37.0
20.139,-0.048,0.553,18.0
20.123,-0.048,0.449,28.0
20.106,-0.049,0.346,31.0
20.106,-0.05,0.24,28.0
20.121,-0.05,0.137,29.0
20.135,-0.051,0.033,39.0
20.16,-0.053,0.597,15.0
20.138,-0.053,0.493,23.0
20.112,-0.053,0.389,29.0
20.111,-0.054,0.283,29.0
20.117,-0.055,0.18,28.0
20.131,-0.055,0.077,40.0
58.315,-0.164,1.853,151.0
20.124,-0.057,0.536,18.0
20.11,-0.057,0.432,28.0
20.108,-0.058,0.326,29.0
20.112,-0.058,0.223,26.0
20.122,-0.058,0.12,33.0
58.239,-0.173,1.975,255.0
20.14,-0.06,0.579,14.0
20.119,-0.06,0.475,23.0
20.104,-0.06,0.369,31.0
20.118,-0.06,0.266,26.0
20.114,-0.061,0.162,28.0
58.246,-0.18,2.1,255.0
20.17,-0.062,0.623,10.0
20.118,-0.062,0.518,19.0
20.112,-0.062,0.412,28.0
20.11,-0.062,0.308,28.0
20.115,-0.062,0.205,26.0
58.27,-0.185,2.225,232.0
58.249,-0.185,1.923,255.0
20.13,-0.063,0.561,15.0
20.128,-0.063,0.455,26.0
20.101,-0.063,0.351,31.0
20.123,-0.063,0.248,25.0
58.306,-0.188,2.349,170.0
58.242,-0.187,2.046,255.0
20.171,-0.064,0.605,12.0
20.128,-0.064,0.497,21.0
20.104,-0.063,0.394,31.0
20.115,-0.063,0.29,28.0
58.274,-0.188,2.471,215.0
58.249,-0.187,2.17,255.0
58.281,-0.186,1.87,228.0
20.117,-0.063,0.54,17.0
20.12,-0.063,0.436,28.0
20.117,-0.063,0.332,31.0
58.233,-0.186,2.592,255.0
58.298,-0.185,2.294,178.0
58.227,-0.183,1.991,255.0
20.138,-0.062,0.583,14.0
20.127,-0.062,0.479,23.0
20.116,-0.061,0.375,33.0
58.283,-0.181,2.718,255.0
58.298,-0.18,2.418,182.0
58.25,-0.178,2.115,247.0
58.259,-0.176,1.808,21.0
20.123,-0.06,0.521,19.0
20.112,-0.059,0.417,30.0
58.672,-0.177,2.859,87.0
58.258,-0.173,2.537,246.0
58.3,-0.171,2.238,181.0
58.237,-0.168,1.93,255.0
20.128,-0.057,0.562,15.0
20.123,-0.056,0.459,24.0
58.897,-0.169,2.992,33.0
58.238,-0.164,2.657,255.0
58.319,-0.162,2.359,150.0
58.258,-0.159,2.05,219.0
20.174,-0.054,0.605,13.0
20.135,-0.053,0.5,22.0
58.521,-0.157,3.094,68.0
58.276,-0.153,2.779,209.0
58.318,-0.15,2.48,158.0
58.307,-0.147,2.173,155.0
58.314,-0.144,1.871,167.0
20.137,-0.048,0.542,18.0
58.861,-0.145,3.234,33.0
67.662,-0.163,3.367,15.0
58.248,-0.137,2.596,255.0
58.285,-0.133,2.291,21.0
58.296,-0.13,1.989,172.0
20.168,-0.043,0.584,16.0
46.15,-0.102,2.63,13.0
58.482,-0.125,3.029,20.0
58.224,-0.121,2.714,255.0
58.288,-0.117,2.409,14.0
58.283,-0.113,2.107,99.0
20.2,-0.037,0.626,19.0
46.137,-0.088,2.723,54.0
59.159,-0.109,3.185,37.0
58.886,-0.104,2.866,68.0
58.295,-0.099,2.529,150.0
20.118,-0.032,0.768,21.0
58.274,-0.09,1.925,62.0
58.754,-0.093,3.588,7.0
59.91,-0.09,3.347,33.0
59.203,-0.084,3.0,32.0
58.229,-0.078,2.643,255.0
20.121,-0.025,0.809,24.0
20.148,-0.023,0.705,21.0
45.52,-0.055,2.871,51.0
46.141,-0.052,2.67,37.0
58.491,-0.061,3.08,26.0
58.253,-0.056,2.76,207.0
20.12,-0.017,0.849,25.0
20.121,-0.015,0.744,26.0
45.49,-0.037,2.96,75.0
46.122,-0.034,2.761,42.0
59.928,-0.038,3.276,46.0
59.269,-0.032,2.927,33.0
58.321,-0.026,2.576,150.0
20.118,-0.007,0.784,27.0
45.479,-0.017,3.05,64.0
58.707,-0.017,3.631,16.0
59.931,-0.011,3.394,8.0
59.312,-0.005,3.045,51.0
58.223,0.0,2.686,212.0
20.117,0.002,0.824,29.0
45.51,0.003,3.141,31.0
68.046,0.012,4.342,17.0
46.12,0.013,2.702,43.0
59.685,0.023,3.181,34.0
66.774,0.033,3.21,29.0
20.117,0.012,0.862,25.0
68.273,0.039,4.845,17.0
66.626,0.046,4.379,17.0
58.677,0.047,3.551,13.0
59.931,0.055,3.309,58.0
66.839,0.069,3.342,33.0
20.111,0.023,0.9,12.0
66.509,0.074,4.847,24.0
45.506,0.056,3.078,66.0
58.665,0.079,3.662,58.0
66.629,0.097,3.804,17.0
59.35,0.094,3.079,22.0
66.765,0.114,3.115,25.0
45.689,0.077,3.417,4.0
45.52,0.082,3.166,60.0
58.66,0.113,3.772,49.0
46.144,0.095,2.721,48.0
59.43,0.129,3.194,50.0
66.848,0.154,3.243,37.0
0.0,0.0,0.0,0.0
45.551,0.11,3.252,46.0
58.634,0.149,3.879,49.0
60.145,0.161,3.658,13.0
59.558,0.167,3.311,15.0
66.821,0.196,3.366,36.0
43.648,0.128,3.426,12.0
45.589,0.139,3.339,60.0
58.637,0.187,3.987,21.0
60.211,0.2,3.772,36.0
101.4,0.352,5.822,19.0
66.818,0.241,3.487,55.0
52.628,0.189,4.227,7.0
0.0,0.0,0.0,0.0
45.546,0.176,3.179,37.0
60.277,0.242,3.885,31.0
46.211,0.192,2.737,11.0
67.081,0.288,3.62,23.0
45.785,0.197,3.76,59.0
0.0,0.0,0.0,0.0
45.622,0.209,3.267,33.0
0.0,0.0,0.0,0.0
67.177,0.327,4.096,14.0
59.477,0.298,3.315,26.0
45.736,0.23,3.837,53.0
0.0,0.0,0.0,0.0
45.644,0.243,3.348,40.0
58.651,0.321,3.988,23.0
46.219,0.26,2.9,54.0
59.488,0.344,3.419,24.0
45.272,0.262,3.878,44.0
45.452,0.27,3.653,73.0
60.435,0.369,4.539,60.0
58.619,0.367,4.087,53.0
46.242,0.296,2.98,43.0
59.471,0.391,3.52,44.0
45.731,0.301,3.996,8.0
45.414,0.306,3.727,62.0
67.316,0.465,5.17,30.0
58.597,0.414,4.184,30.0
46.229,0.334,3.058,6.0
59.411,0.439,3.616,25.0
45.741,0.339,4.074,28.0
45.293,0.343,3.794,60.0
43.621,0.337,3.423,7.0
58.517,0.462,4.277,53.0
67.204,0.542,4.557,36.0
59.383,0.489,3.713,25.0
45.646,0.377,4.142,4.0
45.056,0.38,3.849,25.0
52.615,0.452,4.216,16.0
58.492,0.513,4.371,51.0
67.229,0.6,4.667,28.0
59.358,0.54,3.808,18.0
53.974,0.493,4.985,7.0
40.419,0.376,3.518,19.0
52.595,0.498,4.298,22.0
58.556,0.565,4.468,39.0
67.233,0.66,4.774,25.0
59.371,0.593,3.902,12.0
40.387,0.405,3.794,37.0
40.41,0.412,3.581,25.0
58.123,0.604,4.842,21.0
43.374,0.458,3.378,5.0
67.191,0.721,4.877,14.0
46.311,0.505,3.116,50.0
40.322,0.442,3.852,58.0
40.495,0.451,3.652,24.0
58.659,0.664,4.978,28.0
43.359,0.498,3.444,7.0
67.354,0.787,4.992,13.0
46.347,0.55,3.189,61.0
40.323,0.481,3.913,25.0
40.418,0.489,3.706,37.0
40.419,0.496,3.491,11.0
52.5,0.654,4.249,20.0
67.458,0.854,5.1,4.0
46.372,0.595,3.26,70.0
36.34,0.469,3.581,3.0
40.374,0.528,3.763,34.0
40.403,0.536,3.549,45.0
52.316,0.704,4.312,26.0
68.697,0.938,5.295,32.0
46.387,0.642,3.328,63.0
58.616,0.816,5.863,12.0
58.618,0.826,5.549,9.0
44.004,0.629,3.93,9.0
44.191,0.64,3.706,4.0
46.469,0.682,3.648,12.0
46.415,0.69,3.396,52.0
53.622,0.801,5.441,5.0
54.057,0.818,5.194,2.0
0.0,0.0,0.0,0.0
44.0,0.683,3.751,4.0
46.437,0.729,3.71,54.0
67.894,1.079,5.062,6.0
48.111,0.769,4.948,1.0
56.754,0.918,5.531,6.0
52.462,0.859,4.831,26.0
40.408,0.669,3.499,13.0
46.428,0.778,3.772,57.0
67.714,1.148,5.139,19.0
37.074,0.632,3.863,5.0
52.575,0.907,5.194,25.0
40.443,0.705,3.778,9.0
40.402,0.713,3.552,38.0
46.44,0.828,3.834,9.0
42.536,0.767,3.283,9.0
37.063,0.672,3.91,5.0
52.854,0.969,5.29,18.0
40.404,0.749,3.826,40.0
40.369,0.756,3.601,8.0
46.492,0.88,3.898,8.0
57.914,1.108,4.545,5.0
52.555,1.012,5.612,43.0
58.966,1.147,5.977,3.0
46.563,0.915,4.468,12.0
40.243,0.799,3.64,36.0
46.463,0.931,3.952,13.0
58.037,1.175,4.624,3.0
52.488,1.07,5.67,7.0
46.637,0.96,4.785,16.0
46.572,0.968,4.526,11.0
40.222,0.844,3.687,22.0
46.482,0.985,4.01,28.0
52.256,1.118,4.227,11.0
46.938,1.011,5.127,6.0
46.573,1.012,4.834,6.0
52.777,1.158,5.192,22.0
52.63,1.165,4.886,6.0
40.386,0.903,3.531,20.0
52.231,1.178,4.285,7.0
46.292,1.051,5.11,5.0
46.57,1.067,4.887,12.0
52.691,1.217,5.243,14.0
40.415,0.942,3.798,23.0
40.448,0.951,3.582,2.0
43.018,1.021,3.577,9.0
46.503,1.111,5.186,37.0
53.208,1.282,5.643,1.0
57.642,1.401,5.8,6.0
46.61,1.142,4.431,4.0
46.401,1.146,4.159,8.0
52.376,1.305,4.411,9.0
46.342,1.163,5.218,11.0
57.723,1.46,6.184,4.0
61.502,1.569,6.253,4.0
52.911,1.36,5.086,9.0
40.433,1.048,3.667,67.0
50.561,1.32,4.31,3.0
58.905,1.549,6.693,7.0
0.0,0.0,0.0,0.0
46.595,1.244,4.784,4.0
53.308,1.435,5.177,12.0
40.373,1.095,3.701,70.0
40.41,1.104,3.485,6.0
67.867,1.868,7.778,4.0
58.429,1.62,6.376,3.0
46.594,1.302,4.83,17.0
59.386,1.671,5.825,22.0
40.384,1.144,3.74,47.0
40.394,1.153,3.521,17.0
59.234,1.703,6.845,33.0
59.095,1.711,6.504,33.0
46.602,1.359,4.873,7.0
52.513,1.542,5.199,2.0
53.002,1.567,4.958,7.0
40.452,1.205,3.563,2.0
61.819,1.854,7.2,1.0
46.17,1.394,5.123,4.0
46.33,1.408,4.886,5.0
52.467,1.606,5.24,2.0
53.146,1.638,5.017,7.0
40.455,1.255,3.598,7.0
52.659,1.646,6.178,4.0
46.367,1.458,5.184,20.0
46.315,1.465,4.923,8.0
52.453,1.67,5.282,5.0
53.193,1.705,5.065,7.0
46.805,1.51,4.2,3.0
59.198,1.924,6.993,34.0
46.634,1.524,5.251,23.0
57.592,1.894,6.167,5.0
58.544,1.938,5.941,6.0
53.207,1.772,5.107,6.0
46.853,1.57,4.24,4.0
53.048,1.79,6.307,3.0
46.675,1.585,5.291,16.0
46.991,1.605,5.067,3.0
61.625,2.117,6.3,5.0
49.608,1.714,4.798,10.0
43.352,1.508,3.955,13.0
47.424,1.661,5.673,1.0
46.698,1.645,5.328,9.0
46.901,1.663,5.091,4.0
58.372,2.081,6.008,0.0
52.491,1.882,5.113,5.0
46.2,1.666,4.246,5.0
46.872,1.703,5.639,10.0
46.775,1.709,5.368,6.0
46.57,1.71,5.086,17.0
60.292,2.227,6.245,16.0
52.399,1.946,5.139,5.0
43.014,1.606,3.981,7.0
46.814,1.761,5.662,18.0
52.947,2.002,6.11,1.0
46.203,1.756,5.075,7.0
46.607,1.781,4.856,10.0
60.23,2.313,5.943,5.0
46.145,1.782,4.298,5.0
60.431,2.351,7.345,16.0
60.212,2.354,6.983,4.0
46.206,1.816,5.102,8.0
46.883,1.851,4.911,4.0
57.188,2.27,5.674,6.0
46.104,1.84,4.319,5.0
39.407,1.584,4.811,2.0
59.85,2.417,6.973,19.0
46.482,1.886,5.157,5.0
46.629,1.901,4.909,8.0
60.213,2.467,6.005,3.0
46.114,1.899,4.344,3.0
52.633,2.184,6.452,3.0
59.737,2.49,6.989,20.0
46.666,1.954,5.2,9.0
46.446,1.954,4.911,9.0
59.177,2.501,5.929,4.0
43.534,1.849,4.12,3.0
52.598,2.25,6.472,2.0
59.187,2.544,6.951,7.0
46.785,2.019,5.233,8.0
60.192,2.61,6.391,3.0
45.854,1.997,4.613,3.0
43.527,1.904,4.137,3.0
46.794,2.062,5.777,2.0
59.464,2.632,7.007,7.0
47.04,2.091,5.28,3.0
59.954,2.676,6.389,9.0
45.882,2.057,4.634,5.0
43.51,1.959,4.152,2.0
47.897,2.173,5.93,1.0
0.0,0.0,0.0,0.0
47.078,2.153,5.301,4.0
59.745,2.744,6.386,5.0
59.101,2.725,5.988,2.0
43.496,2.014,4.164,2.0
47.888,2.233,5.944,1.0
0.0,0.0,0.0,0.0
47.131,2.215,5.321,4.0
46.223,2.181,4.955,3.0
44.107,2.09,4.481,2.0
43.476,2.068,4.174,2.0
48.019,2.301,5.973,0.0
46.665,2.245,5.542,0.0
47.167,2.278,5.336,3.0
46.231,2.241,4.967,7.0
59.22,2.881,6.031,6.0
43.482,2.123,4.185,3.0
46.965,2.311,5.853,0.0
46.721,2.306,5.559,2.0
60.286,2.988,6.833,7.0
46.258,2.3,4.979,4.0
46.76,2.333,4.771,5.0
43.439,2.176,4.189,4.0
46.917,2.367,5.855,0.0
46.68,2.363,5.562,1.0
47.311,2.404,5.37,4.0
46.168,2.354,4.976,4.0
46.755,2.392,4.777,4.0
43.439,2.23,4.195,3.0
47.138,2.438,5.889,1.0
60.475,3.138,7.213,4.0
47.331,2.464,5.378,3.0
46.26,2.416,4.991,14.0
59.378,3.112,6.073,3.0
43.447,2.284,4.2,2.0
47.137,2.496,5.893,2.0
60.456,3.212,7.216,0.0
47.344,2.523,5.383,4.0
45.97,2.458,4.963,14.0
46.633,2.502,4.772,1.0
45.7,2.459,4.419,4.0
47.221,2.56,5.905,1.0
60.345,3.281,7.204,2.0
0.0,0.0,0.0,0.0
46.255,2.53,4.994,12.0
52.407,2.875,5.363,2.0
45.718,2.516,4.422,9.0
47.191,2.616,5.901,1.0
0.0,0.0,0.0,0.0
46.988,2.62,5.343,4.0
46.362,2.593,5.004,5.0
45.709,2.571,4.419,15.0
47.249,2.677,5.906,0.0
45.75,2.599,5.458,6.0
47.224,2.69,5.366,3.0
46.166,2.637,4.98,5.0
45.634,2.622,4.408,10.0
47.245,2.734,5.901,1.0
47.799,2.773,5.698,2.0
47.242,2.748,5.363,3.0
46.134,2.691,4.971,4.0
45.445,2.658,4.64,2.0
45.628,2.676,4.401,7.0
47.248,2.79,5.895,1.0
0.0,0.0,0.0,0.0
46.87,2.781,5.314,2.0
46.184,2.747,4.969,3.0
45.703,2.733,4.401,12.0
0.0,0.0,0.0,0.0
0.0,0.0,0.0,0.0
47.227,2.857,5.345,1.0
46.099,2.796,4.951,4.0
45.658,2.783,4.386,10.0
0.0,0.0,0.0,0.0
0.0,0.0,0.0,0.0
47.28,2.914,5.34,0.0
46.116,2.849,4.942,4.0
45.591,2.83,4.368,6.0
0.0,0.0,0.0,0.0
0.0,0.0,0.0,0.0
46.26,2.904,5.212,1.0
46.028,2.896,4.919,2.0
45.309,2.863,4.328,2.0
0.0,0.0,0.0,0.0
0.0,0.0,0.0,0.0
46.188,2.951,5.188,3.0
46.079,2.95,4.909,4.0
0.0,0.0,0.0,0.0
0.0,0.0,0.0,0.0
46.195,3.002,5.172,1.0
46.055,2.999,4.889,3.0
0.0,0.0,0.0,0.0
47.061,3.103,5.519,2.0
0.0,0.0,0.0,0.0
46.224,3.059,4.888,1.0
0.0,0.0,0.0,0.0
0.0,0.0,0.0,0.0
0.0,0.0,0.0,0.0
46.187,3.105,4.863,1.0
45.049,3.034,4.486,2.0
47.818,3.226,4.49,2.0
0.0,0.0,0.0,0.0
0.0,0.0,0.0,0.0
0.0,0.0,0.0,0.0
46.234,3.155,4.845,1.0
45.622,3.119,4.52,3.0
47.711,3.268,4.456,1.0
0.0,0.0,0.0,0.0
46.219,3.191,5.353,2.0
0.0,0.0,0.0,0.0
46.346,3.21,4.832,0.0
45.562,3.16,4.49,6.0
45.638,3.171,4.237,3.0
0.0,0.0,0.0,0.0
46.154,3.232,5.319,0.0
0.0,0.0,0.0,0.0
45.634,3.21,4.47,6.0
45.608,3.213,4.208,6.0
46.072,3.266,5.547,0.0
0.0,0.0,0.0,0.0
0.0,0.0,0.0,0.0
45.714,3.26,4.449,4.0
45.509,3.249,4.17,1.0
0.0,0.0,0.0,0.0
0.0,0.0,0.0,0.0
0.0,0.0,0.0,0.0
45.787,3.306,4.427,1.0
0.0,0.0,0.0,0.0
0.0,0.0,0.0,0.0
0.0,0.0,0.0,0.0
45.779,3.346,4.394,1.0
0.0,0.0,0.0,0.0
0.0,0.0,0.0,0.0
0.0,0.0,0.0,0.0
45.523,3.363,4.597,2.0
0.0,0.0,0.0,0.0
0.0,0.0,0.0,0.0
0.0,0.0,0.0,0.0
0.0,0.0,0.0,0.0
45.507,3.4,4.561,2.0
0.0,0.0,0.0,0.0
0.0,0.0,0.0,0.0
0.0,0.0,0.0,0.0
0.0,0.0,0.0,0.0
0.0,0.0,0.0,0.0
45.332,3.467,3.948,1.0
0.0,0.0,0.0,0.0
0.0,0.0,0.0,0.0
45.461,3.502,4.707,2.0
45.363,3.503,3.91,1.0
0.0,0.0,0.0,0.0
0.0,0.0,0.0,0.0
45.439,3.533,4.664,2.0
45.931,3.573,4.445,1.0
0.0,0.0,0.0,0.0
0.0,0.0,0.0,0.0
45.934,3.606,4.402,1.0
114.487,8.994,10.315,7.0
114.633,9.012,9.67,4.0
0.0,0.0,0.0,0.0
45.307,3.582,4.826,0.0
45.881,3.631,4.353,0.0
115.95,9.185,10.333,4.0
114.596,9.083,9.554,6.0
0.0,0.0,0.0,0.0
45.261,3.606,4.776,2.0
0.0,0.0,0.0,0.0
116.026,9.256,10.892,7.0
112.296,8.963,9.895,2.0
114.687,9.16,9.446,5.0
0.0,0.0,0.0,0.0
0.0,0.0,0.0,0.0
0.0,0.0,0.0,0.0
116.222,9.339,10.79,5.0
0.0,0.0,0.0,0.0
111.214,8.947,9.044,6.0
45.245,3.657,4.942,6.0
0.0,0.0,0.0,0.0
46.044,3.724,4.495,0.0
116.228,9.405,10.666,7.0
116.08,9.396,9.984,2.0
107.012,8.666,8.589,4.0
0.0,0.0,0.0,0.0
0.0,0.0,0.0,0.0
46.063,3.749,4.448,1.0
116.162,9.458,10.534,21.0
116.204,9.466,9.867,21.0
116.155,9.465,9.196,12.0
0.0,0.0,0.0,0.0
115.99,9.496,11.74,4.0
46.077,3.772,4.397,1.0
116.156,9.513,10.403,5.0
116.165,9.517,9.734,5.0
107.03,8.772,8.352,7.0
0.0,0.0,0.0,0.0
114.972,9.463,11.506,2.0
114.536,9.43,10.799,4.0
112.321,9.249,9.929,1.0
0.0,0.0,0.0,0.0
107.066,8.821,8.231,9.0
115.101,9.522,12.05,4.0
115.652,9.568,11.438,7.0
114.767,9.495,10.685,8.0
117.773,9.745,10.272,10.0
117.768,9.747,9.592,4.0
112.368,9.302,8.506,10.0
114.872,9.547,11.89,2.0
115.712,9.616,11.306,8.0
112.774,9.372,10.366,7.0
117.672,9.779,10.123,5.0
117.846,9.795,9.458,15.0
112.281,9.334,8.365,6.0
115.136,9.608,11.776,1.0
46.076,3.844,4.445,1.0
115.111,9.604,10.44,13.0
112.659,9.399,9.554,9.0
117.674,9.819,9.3,9.0
112.187,9.362,8.22,3.0
0.0,0.0,0.0,0.0
0.0,0.0,0.0,0.0
115.141,9.641,10.298,12.0
112.6,9.427,9.409,5.0
117.511,9.839,9.14,14.0
96.382,8.069,6.942,1.0
0.0,0.0,0.0,0.0
116.077,9.749,10.907,3.0
115.451,9.696,10.179,9.0
112.74,9.467,9.276,3.0
97.206,8.161,7.437,3.0
112.275,9.427,7.944,4.0
46.089,3.882,4.538,1.0
115.782,9.75,10.73,2.0
115.422,9.717,10.028,4.0
112.736,9.489,9.131,2.0
108.361,9.12,8.151,2.0
117.607,9.897,8.168,3.0
46.066,3.888,4.475,0.0
115.345,9.734,10.537,3.0
96.465,8.137,8.254,5.0
112.594,9.496,8.972,5.0
107.818,9.091,7.969,13.0
85.457,7.204,5.823,3.0
115.268,9.747,11.046,3.0
114.882,9.71,10.343,3.0
115.573,9.764,9.735,7.0
112.639,9.513,8.825,5.0
107.65,9.09,7.813,7.0
85.463,7.214,5.71,7.0
115.055,9.739,10.871,3.0
114.97,9.729,10.195,4.0
115.591,9.777,9.58,7.0
84.947,7.182,6.541,2.0
96.44,8.151,6.869,2.0
85.416,7.217,5.591,4.0
0.0,0.0,0.0,0.0
109.556,9.275,9.565,3.0
115.476,9.773,9.412,8.0
85.05,7.194,6.431,5.0
96.328,8.144,6.729,6.0
97.826,8.268,6.269,6.0
0.0,0.0,0.0,0.0
96.526,8.174,8.292,2.0
115.477,9.773,9.251,7.0
108.384,9.167,8.045,6.0
96.331,8.144,6.595,2.0
97.795,8.265,6.131,4.0
114.89,9.731,10.376,5.0
96.457,8.164,8.152,5.0
112.511,9.517,8.857,3.0
107.406,9.08,7.823,8.0
85.493,7.223,5.733,8.0
113.836,9.613,6.976,5.0
109.644,9.279,9.746,3.0
115.546,9.771,9.6,8.0
84.906,7.175,6.562,2.0
112.201,9.476,8.011,4.0
85.449,7.212,5.609,4.0
91.693,7.734,5.49,12.0
115.329,9.747,10.085,2.0
115.484,9.752,9.43,8.0
97.264,8.207,7.38,2.0
96.335,8.124,6.742,7.0
97.779,8.24,6.279,8.0
91.704,7.723,5.36,12.0
115.511,9.744,9.935,7.0
112.602,9.491,9.031,6.0
108.335,9.123,8.062,4.0
85.25,7.173,5.844,2.0
115.977,9.753,7.28,6.0
84.873,7.132,4.838,2.0
115.573,9.726,9.771,18.0
112.559,9.463,8.865,11.0
117.587,9.878,8.579,8.0
85.514,7.177,5.737,4.0
115.985,9.727,7.111,8.0
92.036,7.713,5.113,3.0
112.785,9.464,9.371,3.0
117.556,9.855,9.085,14.0
96.353,8.069,6.89,4.0
97.971,8.198,6.428,11.0
91.43,7.644,5.471,13.0
91.987,7.684,4.975,3.0
112.648,9.42,9.193,9.0
117.948,9.852,8.941,6.0
107.699,8.988,7.54,7.0
116.083,9.677,7.447,6.0
91.728,7.641,5.354,1.0
96.185,8.004,5.06,3.0
117.875,9.818,9.445,13.0
112.157,9.332,8.337,6.0
85.399,7.098,5.854,4.0
91.584,7.603,5.739,6.0
92.161,7.644,5.243,1.0
96.877,8.027,4.953,4.0
107.116,8.881,8.421,1.0
107.813,8.929,7.852,4.0
116.075,9.602,7.782,6.0
91.304,7.544,5.584,7.0
92.283,7.617,5.112,6.0
91.973,7.584,4.565,4.0
107.007,8.828,8.253,9.0
85.716,7.063,6.115,2.0
91.642,7.542,6.007,3.0
91.659,7.534,5.47,1.0
92.283,7.576,4.975,6.0
92.056,7.549,4.431,4.0
111.357,9.135,8.42,4.0
91.724,7.514,6.405,5.0
91.72,7.505,5.875,8.0
97.423,7.961,5.668,1.0
107.886,8.805,5.654,3.0
121.234,9.883,5.657,7.0
115.967,9.455,8.593,2.0
91.757,7.47,6.268,2.0
91.462,7.436,5.72,5.0
85.493,6.941,4.845,2.0
120.741,9.791,6.146,9.0
144.727,11.721,6.535,4.0
107.584,8.713,7.811,3.0
91.694,7.414,6.127,5.0
97.377,7.862,5.944,4.0
92.117,7.427,5.083,6.0
87.422,7.038,4.319,4.0
109.986,8.844,4.801,5.0
107.742,8.661,7.66,2.0
110.322,8.855,7.206,11.0
108.633,8.706,6.468,4.0
92.183,7.376,4.947,5.0
96.713,7.727,4.633,2.0
109.85,8.764,4.631,7.0
110.28,8.795,7.673,4.0
91.217,7.262,5.819,9.0
91.376,7.263,5.302,3.0
92.189,7.317,4.808,6.0
107.501,8.519,4.988,1.0
109.899,8.696,4.467,1.0
97.286,7.692,6.622,4.0
99.915,7.887,6.223,5.0
91.834,7.236,5.19,8.0
91.918,7.231,4.655,2.0
96.926,7.612,4.35,4.0
167.104,13.103,6.539,7.0
91.198,7.143,6.068,7.0
99.174,7.755,6.025,2.0
91.894,7.173,5.053,3.0
91.864,7.157,4.513,1.0
110.06,8.562,4.774,4.0
154.629,12.009,5.818,7.0
120.669,9.36,7.846,3.0
97.014,7.51,5.747,2.0
0.0,0.0,0.0,0.0
120.011,9.257,5.715,3.0
108.01,8.316,4.523,2.0
154.666,11.887,5.588,11.0
100.048,7.678,6.354,3.0
108.112,8.281,6.242,9.0
110.961,8.483,5.767,7.0
119.844,9.144,5.527,8.0
96.646,7.361,3.902,3.0
157.02,11.937,5.437,10.0
107.745,8.178,6.682,6.0
92.199,6.984,5.186,4.0
108.226,8.181,5.464,5.0
96.276,7.263,4.298,5.0
166.267,12.52,6.467,3.0
174.842,13.14,5.796,4.0
107.662,8.075,6.516,4.0
110.98,8.306,6.076,7.0
107.416,8.022,5.264,2.0
110.194,8.213,4.754,6.0
163.644,12.171,6.121,13.0
0.0,0.0,0.0,0.0
92.412,6.845,5.456,4.0
96.47,7.129,5.139,2.0
154.67,11.407,7.351,4.0
163.622,12.04,6.82,6.0
108.755,7.985,3.908,2.0
160.947,11.792,4.86,9.0
111.125,8.124,6.397,8.0
107.179,7.816,5.552,2.0
107.451,7.818,4.949,4.0
0.0,0.0,0.0,0.0
160.948,11.658,5.549,9.0
156.232,11.291,4.491,9.0
111.333,8.026,6.247,3.0
108.037,7.769,5.44,3.0
121.408,8.709,5.416,13.0
161.165,11.535,6.249,10.0
169.333,12.091,5.595,7.0
166.845,11.888,4.557,7.0
111.15,7.897,6.076,1.0
96.256,6.821,4.709,1.0
107.896,7.627,4.658,2.0
0.0,0.0,0.0,0.0
155.849,10.961,4.925,23.0
162.683,11.415,4.208,7.0
0.0,0.0,0.0,0.0
157.067,10.957,7.456,12.0
110.373,7.679,4.606,2.0
155.878,10.818,5.597,15.0
161.674,11.191,4.877,15.0
167.97,11.596,4.105,16.0
106.984,7.362,5.54,2.0
121.832,8.36,5.609,3.0
0.0,0.0,0.0,0.0
155.967,10.642,5.375,3.0
173.176,11.787,4.977,17.0
202.237,13.728,4.655,4.0
0.0,0.0,0.0,0.0
107.689,7.263,4.805,2.0
157.046,10.561,6.107,6.0
0.0,0.0,0.0,0.0
162.786,10.886,4.449,16.0
173.785,11.588,3.757,6.0
121.632,8.08,5.956,3.0
110.134,7.294,4.761,3.0
161.832,10.686,6.069,14.0
162.715,10.711,5.153,22.0
179.085,11.755,4.645,12.0
0.0,0.0,0.0,0.0
193.501,12.613,9.206,6.0
161.265,10.479,6.747,4.0
166.273,10.77,6.005,4.0
0.0,0.0,0.0,0.0
202.469,13.031,4.974,7.0
0.0,0.0,0.0,0.0
107.727,6.883,4.977,2.0
0.0,0.0,0.0,0.0
162.84,10.334,5.657,5.0
0.0,0.0,0.0,0.0
0.0,0.0,0.0,0.0
0.0,0.0,0.0,0.0
193.247,12.091,8.664,4.0
192.861,12.024,7.542,6.0
166.192,10.325,5.547,6.0
0.0,0.0,0.0,0.0
0.0,0.0,0.0,0.0
0.0,0.0,0.0,0.0
192.971,11.812,8.393,6.0
0.0,0.0,0.0,0.0
0.0,0.0,0.0,0.0
195.653,11.845,5.134,7.0
198.479,11.974,4.073,5.0
0.0,0.0,0.0,0.0
0.0,0.0,0.0,0.0
155.998,9.291,5.683,3.0
0.0,0.0,0.0,0.0
0.0,0.0,0.0,0.0
0.0,0.0,0.0,0.0
0.0,0.0,0.0,0.0
194.017,11.324,7.926,4.0
0.0,0.0,0.0,0.0
195.038,11.292,5.74,6.0
0.0,0.0,0.0,0.0
0.0,0.0,0.0,0.0
0.0,0.0,0.0,0.0
193.838,11.026,7.669,6.0
192.903,10.929,6.531,6.0
195.363,11.021,5.499,7.0
197.742,11.108,4.417,5.0
207.064,11.587,3.446,7.0
196.119,10.928,2.146,37.0
193.934,10.741,7.428,8.0
195.917,10.806,6.387,25.0
196.058,10.765,5.272,49.0
196.084,10.718,4.135,54.0
196.093,10.675,3.019,32.0
196.137,10.63,1.903,8.0
193.12,10.399,7.155,20.0
193.974,10.396,6.08,6.0
198.558,10.593,5.094,6.0
197.834,10.508,3.929,6.0
0.0,0.0,0.0,0.0
197.219,10.378,1.671,21.0
193.414,10.112,6.931,19.0
194.007,10.093,5.846,20.0
0.0,0.0,0.0,0.0
0.0,0.0,0.0,0.0
0.0,0.0,0.0,0.0
197.062,10.056,1.432,36.0
193.98,9.829,6.718,5.0
194.108,9.784,5.617,27.0
195.655,9.815,4.549,7.0
197.474,9.856,3.45,10.0
197.838,9.825,2.331,21.0
197.247,9.746,1.202,32.0
194.193,9.522,6.497,5.0
193.999,9.462,5.388,14.0
0.0,0.0,0.0,0.0
199.714,9.637,3.255,5.0
0.0,0.0,0.0,0.0
197.103,9.409,0.974,25.0
193.362,9.161,6.248,22.0
0.0,0.0,0.0,0.0
0.0,0.0,0.0,0.0
0.0,0.0,0.0,0.0
196.928,9.121,1.868,5.0
196.997,9.073,0.752,24.0
193.53,8.839,6.036,23.0
0.0,0.0,0.0,0.0
196.889,8.889,3.906,9.0
204.963,9.197,2.882,35.0
195.604,8.724,1.64,21.0
195.57,8.669,0.531,8.0
195.433,8.589,5.88,21.0
192.626,8.413,4.703,6.0
196.98,8.548,3.692,9.0
0.0,0.0,0.0,0.0
196.684,8.43,1.437,30.0
0.0,0.0,0.0,0.0
193.597,8.171,5.619,14.0
0.0,0.0,0.0,0.0
196.969,8.203,3.484,9.0
0.0,0.0,0.0,0.0
196.675,8.085,1.232,34.0
0.0,0.0,0.0,0.0
193.708,7.833,5.421,12.0
196.72,7.898,4.39,11.0
0.0,0.0,0.0,0.0
199.231,7.885,2.171,9.0
196.658,7.731,1.03,34.0
0.0,0.0,0.0,0.0
195.324,7.546,5.27,8.0
195.014,7.48,4.158,18.0
195.228,7.431,3.057,7.0
203.253,7.677,2.012,7.0
196.579,7.367,0.834,25.0
0.0,0.0,0.0,0.0
195.467,7.196,5.082,8.0
0.0,0.0,0.0,0.0
195.93,7.099,2.878,22.0
196.315,7.057,1.756,9.0
196.525,7.006,0.646,10.0
0.0,0.0,0.0,0.0
196.301,6.864,4.917,16.0
195.309,6.772,3.79,25.0
195.985,6.738,2.695,15.0
196.385,6.693,1.571,21.0
0.0,0.0,0.0,0.0
0.0,0.0,0.0,0.0
195.762,6.478,4.723,5.0
195.195,6.401,3.608,14.0
195.608,6.354,2.511,6.0
196.113,6.315,1.392,34.0
0.0,0.0,0.0,0.0
0.0,0.0,0.0,0.0
193.865,6.047,4.505,25.0
0.0,0.0,0.0,0.0
201.728,6.17,2.412,29.0
196.039,5.935,1.219,41.0
0.0,0.0,0.0,0.0
0.0,0.0,0.0,0.0
193.696,5.669,4.334,33.0
195.866,5.673,3.279,14.0
0.0,0.0,0.0,0.0
0.0,0.0,0.0,0.0
103.306,2.897,-0.025,1.0
0.0,0.0,0.0,0.0
193.726,5.298,4.176,31.0
195.641,5.292,3.116,8.0
0.0,0.0,0.0,0.0
0.0,0.0,0.0,0.0
0.0,0.0,0.0,0.0
0.0,0.0,0.0,0.0
193.791,4.921,4.024,34.0
195.087,4.891,2.953,31.0
0.0,0.0,0.0,0.0
100.233,2.45,0.38,2.0
0.0,0.0,0.0,0.0
0.0,0.0,0.0,0.0
193.947,4.539,3.879,22.0
195.173,4.506,2.806,22.0
0.0,0.0,0.0,0.0
100.042,2.246,0.304,1.0
100.034,2.214,-0.256,1.0
0.0,0.0,0.0,0.0
195.848,4.194,3.775,5.0
103.169,2.177,1.409,4.0
102.932,2.139,0.828,5.0
99.98,2.046,0.233,2.0
0.0,0.0,0.0,0.0
0.0,0.0,0.0,0.0
194.753,3.785,3.62,6.0
103.176,1.971,1.339,42.0
99.88,1.875,0.736,2.0
99.836,1.841,0.165,12.0
0.0,0.0,0.0,0.0
0.0,0.0,0.0,0.0
194.973,3.393,3.495,23.0
0.0,0.0,0.0,0.0
99.658,1.668,0.669,5.0
99.741,1.637,0.101,5.0
0.0,0.0,0.0,0.0
0.0,0.0,0.0,0.0
194.725,2.991,3.369,33.0
0.0,0.0,0.0,0.0
99.6,1.465,0.608,5.0
99.636,1.433,0.041,2.0
0.0,0.0,0.0,0.0
0.0,0.0,0.0,0.0
20.306,0.27,0.339,13.0
20.297,0.263,0.225,3.0
20.355,0.257,0.112,0.0
99.577,1.225,-0.015,3.0
0.0,0.0,0.0,0.0
20.195,0.234,-0.228,20.0
20.292,0.227,0.327,32.0
20.301,0.221,0.214,27.0
20.331,0.214,0.101,29.0
20.307,0.207,-0.014,18.0
20.201,0.199,-0.126,16.0
20.174,0.192,-0.239,26.0
20.277,0.185,0.317,29.0
20.26,0.178,0.203,23.0
20.247,0.171,0.09,27.0
20.214,0.164,-0.024,22.0
20.18,0.156,-0.136,33.0
20.17,0.149,-0.249,34.0
20.173,0.142,0.305,27.0
20.178,0.135,0.193,27.0
20.202,0.128,0.08,31.0
20.183,0.121,-0.033,31.0
20.18,0.114,-0.146,34.0
20.206,0.107,-0.258,23.0
20.162,0.099,0.296,29.0
20.151,0.092,0.184,29.0
20.199,0.085,0.072,37.0
20.202,0.078,-0.042,34.0
20.221,0.071,-0.155,26.0
20.238,0.064,-0.267,0.0
20.147,0.056,0.288,30.0
20.148,0.049,0.175,28.0
20.198,0.042,0.063,13.0
20.256,0.035,-0.05,151.0
20.255,0.028,-0.163,151.0
20.271,0.021,-0.276,150.0
20.127,0.014,0.28,29.0
20.125,0.007,0.168,28.0
20.155,0.0,0.056,23.0
20.16,-0.007,-0.057,20.0
20.167,-0.014,-0.169,22.0
20.159,-0.021,-0.281,18.0
20.121,-0.028,0.273,29.0
20.118,-0.035,0.161,34.0
20.14,-0.042,0.05,38.0
20.14,-0.05,-0.063,34.0
20.152,-0.057,-0.175,33.0
20.148,-0.064,-0.287,30.0
20.126,-0.071,0.267,28.0
20.119,-0.078,0.155,27.0
20.125,-0.085,0.044,31.0
20.144,-0.092,-0.069,28.0
20.144,-0.1,-0.181,26.0
20.146,-0.107,-0.292,38.0
20.124,-0.114,0.262,19.0
20.134,-0.121,0.15,17.0
20.171,-0.128,0.039,22.0
20.158,-0.136,-0.074,18.0
20.161,-0.143,-0.186,10.0
20.156,-0.15,-0.297,27.0
66.529,-0.519,0.852,17.0
53.288,-0.435,0.387,1.0
53.338,-0.455,0.092,8.0
56.251,-0.5,-0.219,4.0
52.922,-0.49,-0.498,6.0
38.81,-0.373,-0.58,6.0
64.344,-0.64,0.812,62.0
64.37,-0.664,0.456,15.0
56.229,-0.6,0.088,1.0
56.157,-0.62,-0.227,1.0
52.879,-0.603,-0.506,12.0
39.034,-0.46,-0.589,14.0
20.146,-0.243,0.251,10.0
20.166,-0.251,0.14,8.0
59.536,-0.763,0.085,70.0
56.347,-0.744,-0.236,0.0
52.863,-0.717,-0.513,17.0
38.712,-0.539,-0.589,14.0
20.136,-0.286,0.248,13.0
20.122,-0.293,0.137,14.0
20.136,-0.301,0.026,26.0
59.537,-0.913,-0.254,5.0
52.762,-0.829,-0.516,19.0
38.445,-0.618,-0.588,14.0
176.648,-2.892,2.171,134.0
20.142,-0.337,0.136,5.0
20.125,-0.343,0.025,32.0
52.983,-0.925,-0.229,22.0
45.507,-0.811,-0.447,17.0
38.329,-0.698,-0.588,16.0
53.033,-0.982,0.65,5.0
52.955,-0.999,0.357,56.0
52.933,-1.019,0.066,62.0
45.618,-0.895,-0.198,19.0
38.384,-0.767,-0.378,7.0
38.264,-0.778,-0.587,23.0
38.392,-0.792,0.47,43.0
38.379,-0.805,0.259,40.0
38.395,-0.82,0.048,7.0
40.423,-0.878,-0.175,27.0
40.421,-0.893,-0.397,35.0
38.222,-0.858,-0.585,22.0
40.406,-0.919,0.497,40.0
40.407,-0.933,0.275,39.0
40.411,-0.948,0.053,38.0
40.408,-0.963,-0.172,33.0
38.809,-0.939,-0.378,19.0
38.221,-0.939,-0.582,16.0
38.733,-0.962,0.479,6.0
38.691,-0.975,0.266,36.0
38.69,-0.989,0.054,42.0
38.68,-1.004,-0.161,40.0
38.684,-1.019,-0.373,46.0
38.188,-1.019,-0.578,15.0
38.645,-1.042,0.482,69.0
38.643,-1.056,0.271,75.0
38.681,-1.071,0.059,82.0
38.661,-1.085,-0.156,91.0
38.641,-1.099,-0.367,53.0
38.161,-1.1,-0.572,20.0
38.644,-1.124,0.488,98.0
38.642,-1.138,0.277,72.0
38.644,-1.153,0.065,68.0
38.642,-1.167,-0.149,67.0
38.632,-1.182,-0.36,50.0
38.223,-1.183,-0.566,13.0
38.662,-1.206,0.496,63.0
38.679,-1.221,0.285,59.0
38.69,-1.235,0.073,45.0
38.714,-1.25,-0.141,41.0
38.687,-1.264,-0.353,38.0
38.311,-1.265,-0.558,13.0
84.736,-2.818,1.107,36.0
80.441,-2.706,0.611,27.0
80.497,-2.737,0.172,34.0
80.55,-2.768,-0.275,6.0
53.941,-1.874,-0.478,3.0
38.342,-1.346,-0.549,12.0
84.088,-2.972,1.121,23.0
80.271,-2.867,0.632,21.0
80.332,-2.899,0.194,22.0
31.328,-1.142,-0.098,39.0
31.359,-1.154,-0.269,35.0
31.309,-1.164,-0.439,37.0
31.246,-1.169,0.425,40.0
31.242,-1.18,0.255,43.0
31.248,-1.191,0.085,19.0
28.47,-1.096,-0.08,58.0
28.458,-1.106,-0.235,66.0
28.458,-1.116,-0.39,65.0
28.443,-1.122,0.397,86.0
28.455,-1.132,0.242,150.0
28.444,-1.142,0.087,152.0
28.448,-1.153,-0.07,119.0
28.451,-1.163,-0.224,108.0
28.442,-1.173,-0.379,103.0
28.442,-1.179,0.407,115.0
28.446,-1.19,0.253,101.0
28.44,-1.2,0.098,72.0
28.44,-1.211,-0.058,63.0
28.461,-1.222,-0.213,58.0
28.465,-1.232,-0.368,59.0
31.225,-1.358,0.46,29.0
31.225,-1.369,0.29,40.0
31.224,-1.38,0.121,48.0
31.225,-1.392,-0.051,60.0
31.202,-1.402,-0.221,63.0
31.206,-1.414,-0.39,55.0
31.332,-1.426,0.475,18.0
31.346,-1.438,0.306,9.0
31.265,-1.445,0.135,24.0
31.269,-1.457,-0.037,25.0
31.225,-1.466,-0.206,35.0
31.221,-1.477,-0.375,40.0
83.061,-3.945,1.3,25.0
82.569,-3.949,0.845,11.0
68.241,-3.289,0.328,1.0
0.0,0.0,0.0,0.0
65.582,-3.209,-0.401,3.0
31.295,-1.542,-0.36,0.0
83.106,-4.111,1.344,25.0
82.969,-4.134,0.892,7.0
66.565,-3.339,0.355,0.0
66.721,-3.371,-0.011,1.0
65.636,-3.34,-0.366,4.0
47.502,-2.434,-0.522,3.0
86.118,-4.428,1.44,12.0
0.0,0.0,0.0,0.0
0.0,0.0,0.0,0.0
0.0,0.0,0.0,0.0
65.619,-3.466,-0.329,6.0
47.957,-2.55,-0.499,0.0
85.999,-4.586,1.487,6.0
0.0,0.0,0.0,0.0
65.627,-3.545,0.425,0.0
65.499,-3.561,0.064,3.0
24.586,-1.345,-0.108,19.0
24.556,-1.352,-0.241,34.0
24.62,-1.359,0.44,1.0
24.6,-1.366,0.307,25.0
24.566,-1.373,0.174,28.0
24.565,-1.382,0.039,36.0
24.559,-1.39,-0.093,53.0
24.532,-1.397,-0.225,58.0
24.589,-1.404,0.456,45.0
24.564,-1.411,0.323,45.0
24.53,-1.417,0.19,47.0
24.531,-1.426,0.055,53.0
24.536,-1.435,-0.076,70.0
24.513,-1.442,-0.208,63.0
24.555,-1.448,0.472,68.0
24.538,-1.455,0.339,69.0
24.523,-1.462,0.206,58.0
24.522,-1.47,0.072,85.0
24.525,-1.479,-0.059,83.0
24.508,-1.487,-0.191,64.0
24.558,-1.493,0.489,77.0
24.531,-1.499,0.356,74.0
24.51,-1.506,0.224,59.0
24.524,-1.515,0.09,63.0
24.529,-1.524,-0.041,78.0
24.513,-1.531,-0.173,52.0
24.547,-1.537,0.507,76.0
24.539,-1.544,0.375,62.0
24.527,-1.551,0.243,39.0
24.539,-1.561,0.108,49.0
24.53,-1.568,-0.023,47.0
24.521,-1.576,-0.154,44.0
24.565,-1.582,0.526,44.0
24.555,-1.589,0.394,36.0
24.536,-1.596,0.262,26.0
24.546,-1.604,0.127,25.0
24.58,-1.615,-0.003,19.0
24.565,-1.622,-0.135,20.0
24.589,-1.626,0.546,30.0
24.604,-1.635,0.414,9.0
65.473,-4.374,0.752,1.0
65.559,-4.4,0.395,150.0
65.405,-4.412,0.043,1.0
58.424,-3.96,-0.274,3.0
83.034,-5.638,1.914,23.0
0.0,0.0,0.0,0.0
65.745,-4.505,0.81,0.0
65.583,-4.515,0.45,157.0
65.486,-4.529,0.099,2.0
60.813,-4.226,-0.233,2.0
82.809,-5.765,1.981,41.0
82.977,-5.803,1.54,7.0
0.0,0.0,0.0,0.0
65.477,-4.619,0.507,1.0
65.428,-4.637,0.156,1.0
66.153,-4.709,-0.195,2.0
82.509,-5.882,2.047,41.0
82.974,-5.941,1.614,19.0
0.0,0.0,0.0,0.0
65.564,-4.735,0.567,5.0
65.535,-4.753,0.216,2.0
66.215,-4.823,-0.136,3.0
82.344,-6.007,2.118,38.0
82.984,-6.078,1.691,34.0
0.0,0.0,0.0,0.0
65.635,-4.847,0.628,8.0
65.491,-4.857,0.277,60.0
65.81,-4.9,-0.073,2.0
82.389,-6.142,2.196,38.0
82.874,-6.202,1.766,55.0
82.636,-6.208,1.318,11.0
65.624,-4.95,0.69,2.0
65.483,-4.958,0.338,0.0
65.561,-4.984,-0.01,9.0
82.525,-6.282,2.279,39.0
82.632,-6.313,1.841,44.0
132.847,-10.189,2.25,24.0
81.966,-6.311,0.942,21.0
61.923,-4.786,0.381,3.0
61.493,-4.77,0.05,20.0
82.289,-6.391,2.353,43.0
82.465,-6.427,1.918,48.0
82.661,-6.466,1.481,9.0
81.97,-6.436,1.023,40.0
61.534,-4.849,0.439,6.0
79.362,-6.276,0.144,8.0
82.648,-6.544,2.447,45.0
82.378,-6.546,2.0,46.0
82.868,-6.606,1.569,27.0
81.969,-6.557,1.106,36.0
79.357,-6.371,0.648,28.0
79.426,-6.399,0.226,26.0
82.692,-6.67,2.534,41.0
82.246,-6.655,2.081,40.0
82.773,-6.72,1.654,52.0
81.963,-6.677,1.193,37.0
79.294,-6.481,0.731,21.0
79.398,-6.512,0.309,28.0
82.245,-6.753,2.608,41.0
82.457,-6.791,2.175,44.0
82.786,-6.84,1.742,30.0
82.144,-6.81,1.283,18.0
81.485,-6.776,0.839,10.0
79.385,-6.623,0.394,13.0
82.218,-6.867,2.696,42.0
82.607,-6.92,2.269,61.0
82.948,-6.97,1.836,29.0
0.0,0.0,0.0,0.0
0.0,0.0,0.0,0.0
0.0,0.0,0.0,0.0
82.315,-6.988,2.79,47.0
82.376,-7.014,2.353,25.0
82.96,-7.084,1.928,20.0
0.0,0.0,0.0,0.0
0.0,0.0,0.0,0.0
0.0,0.0,0.0,0.0
82.239,-7.092,2.88,47.0
82.238,-7.112,2.442,25.0
83.146,-7.21,2.026,18.0
0.0,0.0,0.0,0.0
0.0,0.0,0.0,0.0
0.0,0.0,0.0,0.0
82.25,-7.199,2.973,49.0
82.297,-7.222,2.537,34.0
82.664,-7.273,2.108,45.0
83.312,-7.349,1.673,1.0
0.0,0.0,0.0,0.0
0.0,0.0,0.0,0.0
82.108,-7.29,3.064,41.0
82.176,-7.315,2.629,39.0
82.418,-7.355,2.199,41.0
83.244,-7.448,1.77,16.0
54.849,-4.92,0.875,0.0
54.888,-4.936,0.584,1.0
81.795,-7.363,3.148,34.0
82.178,-7.415,2.726,42.0
82.153,-7.431,2.289,48.0
82.818,-7.509,1.859,30.0
54.957,-4.995,0.942,150.0
54.954,-5.007,0.65,158.0
81.657,-7.448,3.241,37.0
81.899,-7.487,2.816,39.0
82.015,-7.514,2.384,39.0
82.234,-7.551,1.945,46.0
54.969,-5.06,1.008,150.0
54.968,-5.072,0.717,151.0
81.814,-7.555,3.346,37.0
81.835,-7.574,2.912,39.0
82.085,-7.613,2.485,46.0
82.043,-7.626,2.04,45.0
54.939,-5.118,1.075,62.0
54.949,-5.131,0.784,150.0
81.78,-7.643,3.445,27.0
81.91,-7.67,3.015,38.0
81.998,-7.694,2.582,46.0
81.987,-7.709,2.139,44.0
82.793,-7.801,1.721,33.0
82.188,-7.761,1.273,11.0
81.868,-7.737,3.55,30.0
82.276,-7.791,3.13,31.0
81.86,-7.767,2.679,42.0
82.066,-7.801,2.242,46.0
82.772,-7.883,1.822,13.0
82.034,-7.829,1.371,31.0
81.882,-7.823,3.652,36.0
82.313,-7.877,3.234,35.0
82.033,-7.865,2.788,44.0
82.16,-7.892,2.347,43.0
82.349,-7.925,1.917,15.0
82.003,-7.907,1.475,42.0
81.846,-7.9,3.754,37.0
82.361,-7.963,3.341,15.0
82.098,-7.951,2.895,49.0
82.199,-7.974,2.454,46.0
82.396,-8.008,2.022,42.0
81.832,-7.966,1.575,38.0
81.721,-7.964,3.852,35.0
81.953,-7.999,3.428,27.0
82.04,-8.021,2.996,43.0
82.153,-8.045,2.556,38.0
82.135,-8.056,2.121,52.0
81.844,-8.041,1.68,33.0
82.021,-8.067,3.972,52.0
81.936,-8.07,3.533,28.0
82.099,-8.099,3.104,38.0
81.98,-8.099,2.656,44.0
82.08,-8.121,2.225,44.0
82.039,-8.13,1.79,29.0
82.213,-8.156,4.087,30.0
82.065,-8.153,3.644,40.0
82.252,-8.183,3.216,35.0
81.873,-8.156,2.759,43.0
82.053,-8.186,2.33,53.0
82.252,-8.218,1.901,23.0
82.648,-8.266,4.218,31.0
82.102,-8.222,3.753,29.0
82.021,-8.225,3.315,35.0
81.87,-8.221,2.866,45.0
82.531,-8.297,2.452,43.0
82.594,-8.315,2.016,37.0
82.192,-8.284,4.302,35.0
82.224,-8.296,3.867,20.0
82.0,-8.283,3.42,45.0
81.999,-8.293,2.977,43.0
82.476,-8.352,2.558,41.0
81.997,-8.314,2.109,41.0
82.148,-8.339,4.406,28.0
83.395,-8.473,4.03,43.0
81.998,-8.341,3.527,40.0
82.339,-8.385,3.097,34.0
82.309,-8.391,2.659,47.0
81.837,-8.353,2.212,39.0
83.134,-8.495,4.569,36.0
82.806,-8.469,4.111,30.0
81.948,-8.389,3.633,33.0
82.183,-8.422,3.198,50.0
82.4,-8.453,2.77,41.0
81.705,-8.39,2.314,34.0
83.418,-8.576,4.694,26.0
83.207,-8.561,4.24,34.0
84.653,-8.718,3.864,13.0
81.973,-8.45,3.298,48.0
82.534,-8.516,2.883,40.0
81.823,-8.45,2.425,41.0
84.272,-8.713,4.853,33.0
83.772,-8.668,4.379,35.0
84.418,-8.741,3.964,27.0
81.969,-8.495,3.405,41.0
82.613,-8.569,2.994,37.0
81.764,-8.489,2.531,37.0
84.078,-8.739,4.954,31.0
84.026,-8.739,4.503,40.0
83.845,-8.727,4.047,20.0
82.068,-8.547,3.517,38.0
82.527,-8.602,3.1,40.0
82.008,-8.554,2.646,50.0
84.135,-8.787,5.068,23.0
84.041,-8.782,4.616,40.0
83.667,-8.748,4.15,29.0
82.102,-8.59,3.627,19.0
82.467,-8.633,3.206,35.0
82.323,-8.624,2.765,64.0
84.177,-8.83,5.181,15.0
84.215,-8.837,4.735,38.0
84.111,-8.831,4.282,19.0
84.02,-8.826,3.821,19.0
82.498,-8.67,3.314,33.0
82.497,-8.675,2.877,39.0
113.542,-11.956,7.137,15.0
84.494,-8.9,4.862,22.0
84.567,-8.911,4.416,19.0
84.334,-8.891,3.947,34.0
82.801,-8.733,3.436,24.0
82.446,-8.699,2.983,36.0
113.711,-12.015,7.299,10.0
84.267,-8.906,4.96,20.0
84.287,-8.911,4.512,29.0
84.097,-8.893,4.047,43.0
82.88,-8.768,3.547,33.0
82.379,-8.719,3.089,36.0
116.258,-12.321,7.616,12.0
84.386,-8.945,5.077,17.0
84.11,-8.917,4.613,39.0
83.992,-8.906,4.151,39.0
82.995,-8.803,3.661,19.0
82.377,-8.741,3.195,33.0
111.767,-11.875,7.466,24.0
84.189,-8.946,5.174,10.0
84.305,-8.959,4.733,31.0
84.137,-8.942,4.267,25.0
84.205,-8.951,3.823,21.0
82.622,-8.785,3.312,31.0
111.794,-11.904,7.615,32.0
113.494,-12.085,7.126,13.0
84.742,-9.024,4.868,24.0
83.991,-8.944,4.369,36.0
84.653,-9.015,3.953,26.0
83.35,-8.877,3.449,39.0
111.781,-11.923,7.759,28.0
113.466,-12.101,7.27,9.0
85.236,-9.09,5.006,22.0
83.919,-8.949,4.473,37.0
84.13,-8.971,4.037,29.0
83.235,-8.876,3.55,38.0
111.85,-11.946,7.908,12.0
111.747,-11.932,7.303,15.0
85.245,-9.101,5.115,17.0
83.922,-8.958,4.58,36.0
83.965,-8.962,4.134,33.0
83.166,-8.876,3.652,20.0
108.934,-11.644,7.839,27.0
111.737,-11.94,7.444,26.0
109.963,-11.747,6.739,8.0
84.222,-8.996,4.702,24.0
84.126,-8.983,4.248,25.0
84.119,-8.981,3.8,26.0
109.002,-11.657,7.982,20.0
111.802,-11.951,7.589,26.0
113.45,-12.123,7.095,11.0
85.074,-9.088,4.856,28.0
83.957,-8.966,4.345,33.0
84.68,-9.041,3.931,23.0
111.871,-11.963,8.333,15.0
111.786,-11.949,7.727,25.0
113.449,-12.121,7.236,15.0
85.27,-9.107,4.974,20.0
83.893,-8.956,4.446,36.0
84.324,-9.0,4.018,25.0
110.485,-11.81,8.368,11.0
111.873,-11.952,7.873,13.0
111.765,-11.934,7.267,8.0
85.312,-9.105,5.082,18.0
83.946,-8.955,4.552,32.0
84.0,-8.957,4.106,34.0
110.345,-11.786,8.494,10.0
108.936,-11.628,7.801,29.0
111.752,-11.922,7.402,24.0
84.121,-8.968,5.114,7.0
84.158,-8.968,4.665,32.0
84.032,-8.95,4.209,26.0
108.499,-11.575,8.483,29.0
108.986,-11.617,7.937,24.0
111.808,-11.91,7.542,30.0
113.439,-12.076,7.032,8.0
84.424,-8.981,4.781,32.0
84.202,-8.953,4.318,25.0
108.534,-11.559,8.616,34.0
109.014,-11.6,8.069,13.0
111.766,-11.884,7.672,32.0
113.436,-12.053,7.166,9.0
84.499,-8.972,4.885,25.0
84.25,-8.939,4.42,23.0
108.487,-11.53,8.742,28.0
109.0,-11.574,8.196,11.0
111.762,-11.858,7.801,20.0
116.243,-12.323,7.478,9.0
84.28,-8.927,4.97,17.0
84.221,-8.914,4.516,35.0
108.349,-11.488,8.856,34.0
108.584,-11.501,8.29,22.0
108.91,-11.525,7.727,29.0
116.313,-12.296,7.617,6.0
84.23,-8.896,5.063,22.0
84.127,-8.878,4.605,33.0
