X,Y,Z,Reflectivity
12.32,0.493,-0.946,0.0
11.501,0.458,-0.945,0.0
10.751,0.426,-0.943,0.0
10.203,0.402,-0.951,0.0
9.633,0.377,-0.95,0.0
13.376,0.52,-0.941,0.0
12.476,0.482,-0.945,0.0
11.637,0.447,-0.945,0.0
0.0,0.0,0.0,0.0
10.296,0.391,-0.949,0.0
9.724,0.367,-0.949,0.0
13.541,0.508,-0.939,0.0
12.691,0.473,-0.948,0.0
11.752,0.436,-0.942,0.0
11.084,0.408,-0.95,0.0
10.448,0.383,-0.952,0.0
9.837,0.358,-0.95,0.0
13.93,0.504,-0.951,0.0
12.827,0.461,-0.945,0.0
11.955,0.427,-0.945,0.0
11.206,0.398,-0.948,0.0
10.553,0.372,-0.95,0.0
9.937,0.349,-0.948,0.0
13.992,0.488,-0.94,0.0
13.016,0.451,-0.945,0.0
12.153,0.418,-0.948,0.0
11.352,0.388,-0.948,0.0
10.625,0.361,-0.944,0.0
10.102,0.341,-0.953,0.0
14.31,0.48,-0.945,0.0
13.254,0.442,-0.947,0.0
12.344,0.409,-0.948,0.0
11.503,0.378,-0.947,0.0
10.801,0.353,-0.948,0.0
10.183,0.33,-0.949,0.0
14.575,0.47,-0.946,0.0
13.417,0.43,-0.943,0.0
12.457,0.396,-0.942,0.0
11.728,0.37,-0.951,0.0
11.019,0.346,-0.953,0.0
10.324,0.322,-0.949,0.0
14.766,0.457,-0.94,0.0
13.637,0.419,-0.942,0.0
12.764,0.389,-0.95,0.0
11.901,0.361,-0.951,0.0
11.177,0.336,-0.953,0.0
10.484,0.313,-0.951,0.0
15.053,0.447,-0.94,0.0
13.982,0.412,-0.948,0.0
13.03,0.381,-0.953,0.0
12.099,0.351,-0.951,0.0
11.306,0.326,-0.95,0.0
10.641,0.304,-0.951,0.0
15.301,0.435,-0.935,0.0
14.326,0.404,-0.952,0.0
13.239,0.37,-0.951,0.0
12.282,0.341,-0.949,0.0
11.502,0.317,-0.951,0.0
10.795,0.295,-0.95,0.0
15.659,0.425,-0.937,0.0
14.519,0.391,-0.946,0.0
13.432,0.359,-0.947,0.0
12.513,0.332,-0.95,0.0
11.653,0.307,-0.947,0.0
11.014,0.288,-0.954,0.0
16.091,0.417,-0.94,0.0
14.789,0.381,-0.943,0.0
13.546,0.346,-0.936,0.0
12.699,0.321,-0.947,0.0
11.908,0.299,-0.951,0.0
11.144,0.277,-0.95,0.0
16.411,0.406,-0.936,0.0
15.126,0.371,-0.943,0.0
13.907,0.338,-0.941,0.0
13.022,0.314,-0.952,0.0
12.129,0.29,-0.952,0.0
11.337,0.269,-0.95,0.0
16.763,0.395,-0.932,0.0
15.408,0.36,-0.939,0.0
14.429,0.334,-0.956,0.0
13.249,0.304,-0.949,0.0
12.324,0.28,-0.949,0.0
11.547,0.26,-0.95,0.0
17.11,0.383,-0.926,0.0
15.816,0.351,-0.94,0.0
14.644,0.322,-0.948,0.0
13.416,0.292,-0.941,0.0
12.585,0.272,-0.95,0.0
11.727,0.251,-0.947,0.0
17.719,0.376,-0.932,0.0
16.234,0.342,-0.94,0.0
14.912,0.311,-0.943,0.0
13.909,0.287,-0.954,0.0
12.894,0.264,-0.953,0.0
12.017,0.243,-0.952,0.0
18.227,0.367,-0.931,0.0
16.623,0.331,-0.937,0.0
15.27,0.301,-0.941,0.0
14.206,0.277,-0.952,0.0
13.216,0.256,-0.956,0.0
12.281,0.235,-0.954,0.0
18.63,0.355,-0.923,0.0
16.933,0.319,-0.928,0.0
15.697,0.293,-0.943,0.0
14.502,0.268,-0.949,0.0
13.346,0.244,-0.944,0.0
12.521,0.226,-0.952,0.0
19.748,0.355,-0.946,0.0
17.514,0.311,-0.932,0.0
16.129,0.284,-0.943,0.0
14.797,0.258,-0.945,0.0
13.842,0.238,-0.957,0.0
12.849,0.219,-0.956,0.0
20.192,0.342,-0.935,2.0
18.101,0.303,-0.933,0.0
16.518,0.273,-0.939,0.0
15.196,0.249,-0.945,0.0
14.123,0.229,-0.953,0.0
13.16,0.21,-0.957,0.0
20.285,0.323,-0.905,13.0
18.575,0.292,-0.926,0.0
16.91,0.263,-0.933,0.0
15.543,0.239,-0.94,0.0
14.537,0.221,-0.956,0.0
13.41,0.201,-0.953,0.0
20.145,0.3,-0.864,10.0
0.0,0.0,0.0,0.0
17.509,0.255,-0.935,0.0
16.111,0.231,-0.947,0.0
14.792,0.21,-0.947,0.0
13.602,0.191,-0.942,0.0
20.188,0.281,-0.831,16.0
20.253,0.279,-0.94,2.0
18.17,0.247,-0.939,2.0
16.499,0.221,-0.94,0.0
15.226,0.201,-0.948,0.0
20.2,0.264,-1.364,0.0
20.237,0.263,-0.798,29.0
20.246,0.26,-0.904,14.0
18.512,0.234,-0.924,23.0
16.964,0.212,-0.937,0.0
15.59,0.192,-0.943,0.0
14.522,0.176,-0.954,0.0
20.233,0.244,-0.761,30.0
18.571,0.221,-0.796,41.0
18.524,0.217,-0.89,13.0
17.791,0.206,-0.95,2.0
16.162,0.185,-0.948,0.0
14.873,0.167,-0.95,0.0
20.22,0.226,-0.724,29.0
18.587,0.205,-0.763,152.0
18.548,0.202,-0.858,24.0
18.297,0.196,-0.944,3.0
16.578,0.175,-0.942,0.0
15.309,0.159,-0.95,0.0
0.0,0.0,0.0,0.0
18.567,0.189,-0.728,153.0
18.565,0.186,-0.825,151.0
18.497,0.183,-0.92,24.0
0.0,0.0,0.0,0.0
15.754,0.151,-0.948,0.0
20.225,0.193,-0.65,24.0
18.575,0.174,-0.694,64.0
18.499,0.17,-0.787,166.0
18.538,0.168,-0.887,70.0
18.51,0.165,-0.982,5.0
16.267,0.143,-0.948,0.0
20.21,0.176,-0.611,14.0
21.665,0.186,-0.768,151.0
18.518,0.156,-0.753,167.0
18.547,0.154,-0.852,55.0
18.478,0.151,-0.945,6.0
16.716,0.134,-0.942,0.0
20.221,0.161,-0.573,4.0
21.619,0.169,-0.725,159.0
18.569,0.143,-0.719,152.0
18.557,0.14,-0.817,152.0
18.531,0.137,-0.912,51.0
18.467,0.134,-1.005,2.0
20.218,0.146,-0.533,0.0
21.683,0.154,-0.685,151.0
21.607,0.15,-0.794,159.0
21.578,0.147,-0.908,20.0
18.55,0.124,-0.877,19.0
18.45,0.121,-0.968,1.0
20.352,0.133,-0.497,0.0
21.685,0.139,-0.642,75.0
21.616,0.136,-0.753,173.0
21.648,0.133,-0.868,150.0
0.0,0.0,0.0,0.0
18.501,0.109,-0.934,19.0
0.0,0.0,0.0,0.0
31.087,0.179,-0.86,0.0
21.669,0.122,-0.711,154.0
21.663,0.119,-0.826,150.0
21.617,0.117,-0.937,150.0
21.672,0.114,-1.051,0.0
0.0,0.0,0.0,0.0
33.144,0.17,-0.851,0.0
21.671,0.109,-0.669,1.0
21.669,0.106,-0.783,152.0
21.65,0.104,-0.894,69.0
20.235,0.095,-0.941,8.0
41.741,0.194,-0.773,0.0
0.0,0.0,0.0,0.0
31.1,0.138,-0.897,0.0
21.64,0.094,-0.738,17.0
21.651,0.091,-0.851,12.0
20.844,0.086,-0.927,23.0
44.032,0.18,-0.725,0.0
0.0,0.0,0.0,0.0
32.341,0.126,-0.867,2.0
27.843,0.105,-0.893,0.0
21.689,0.08,-0.808,1.0
21.603,0.077,-0.916,40.0
0.0,0.0,0.0,0.0
40.363,0.14,-0.791,1.0
33.248,0.112,-0.823,1.0
20.232,0.066,-0.607,0.0
20.178,0.064,-0.71,0.0
20.266,0.062,-0.818,2.0
20.24,0.062,-0.25,0.0
20.249,0.06,-0.355,0.0
20.253,0.058,-0.459,0.0
20.229,0.056,-0.565,2.0
20.234,0.055,-0.67,4.0
20.241,0.053,-0.775,8.0
20.252,0.053,-0.208,81.0
20.243,0.051,-0.313,9.0
20.24,0.049,-0.417,18.0
33.227,0.079,-0.86,3.0
20.252,0.046,-0.628,32.0
20.247,0.045,-0.733,38.0
20.27,0.044,-0.167,83.0
20.276,0.043,-0.271,133.0
20.269,0.041,-0.375,150.0
20.259,0.04,-0.481,150.0
20.263,0.038,-0.586,140.0
20.255,0.037,-0.69,79.0
20.261,0.036,-0.124,150.0
20.241,0.035,-0.228,152.0
20.259,0.034,-0.332,151.0
20.261,0.032,-0.439,150.0
20.263,0.031,-0.543,150.0
20.26,0.03,-0.648,150.0
20.261,0.029,-0.081,151.0
20.262,0.028,-0.186,152.0
20.265,0.027,-0.29,151.0
20.258,0.026,-0.396,150.0
20.262,0.024,-0.501,150.0
20.264,0.023,-0.605,146.0
20.241,0.023,-0.038,152.0
20.264,0.022,-0.142,151.0
20.265,0.021,-0.247,151.0
20.264,0.02,-0.353,150.0
20.264,0.019,-0.458,90.0
20.268,0.018,-0.562,64.0
20.262,0.017,0.004,151.0
20.265,0.016,-0.099,152.0
20.252,0.015,-0.203,151.0
20.262,0.015,-0.31,88.0
20.267,0.014,-0.415,58.0
20.253,0.013,-0.519,23.0
20.242,0.013,0.047,131.0
20.262,0.012,-0.056,151.0
20.266,0.011,-0.161,150.0
20.251,0.01,-0.267,46.0
20.234,0.009,-0.371,13.0
20.234,0.009,-0.475,7.0
20.136,0.008,0.09,34.0
20.265,0.008,-0.013,150.0
20.246,0.007,-0.117,53.0
20.232,0.007,-0.223,12.0
20.235,0.006,-0.327,7.0
20.247,0.005,-0.431,5.0
20.133,0.005,0.133,31.0
20.236,0.005,0.029,22.0
20.249,0.004,-0.074,29.0
20.214,0.004,-0.18,11.0
20.231,0.003,-0.284,7.0
20.244,0.003,-0.388,3.0
20.119,0.003,0.176,29.0
20.138,0.002,0.072,31.0
20.215,0.002,-0.03,18.0
20.186,0.002,-0.136,18.0
20.224,0.001,-0.24,7.0
20.245,0.001,-0.345,2.0
20.124,0.001,0.219,27.0
20.118,0.001,0.116,29.0
20.205,0.0,0.012,15.0
20.204,0.0,-0.092,18.0
20.211,0.0,-0.196,9.0
20.244,0.0,-0.301,2.0
20.136,0.0,0.263,26.0
20.12,0.0,0.159,28.0
20.153,0.0,0.055,28.0
20.194,0.0,-0.049,18.0
20.195,0.0,-0.153,17.0
20.218,0.0,-0.257,7.0
20.125,0.0,0.305,29.0
20.123,0.0,0.202,27.0
20.124,0.0,0.098,29.0
20.19,0.0,-0.006,15.0
20.2,0.0,-0.11,18.0
20.216,0.0,-0.214,6.0
20.13,0.0,0.349,28.0
20.129,0.0,0.245,26.0
20.131,0.0,0.141,27.0
20.141,0.001,0.036,19.0
20.239,0.001,-0.067,26.0
20.216,0.001,-0.171,13.0
20.127,0.001,0.392,27.0
20.131,0.002,0.288,27.0
20.117,0.002,0.185,27.0
20.123,0.002,0.079,31.0
20.237,0.003,-0.023,21.0
20.218,0.003,-0.127,17.0
20.139,0.003,0.435,28.0
20.129,0.004,0.331,27.0
20.122,0.004,0.228,25.0
20.127,0.005,0.122,29.0
20.265,0.005,0.019,30.0
20.246,0.006,-0.084,48.0
20.14,0.006,0.479,28.0
20.129,0.007,0.375,25.0
20.124,0.007,0.271,26.0
20.116,0.008,0.165,27.0
20.138,0.009,0.062,29.0
20.263,0.009,-0.041,150.0
20.16,0.01,0.522,24.0
20.138,0.01,0.418,27.0
20.126,0.011,0.314,26.0
20.122,0.012,0.208,26.0
20.127,0.013,0.105,30.0
20.245,0.014,0.001,151.0
20.179,0.014,0.566,28.0
20.139,0.015,0.461,28.0
20.141,0.016,0.357,25.0
20.128,0.017,0.251,27.0
20.12,0.018,0.148,26.0
20.229,0.019,0.044,68.0
20.185,0.019,0.609,35.0
20.15,0.02,0.504,22.0
20.134,0.021,0.4,27.0
20.127,0.022,0.294,26.0
20.116,0.023,0.19,26.0
20.123,0.024,0.087,29.0
20.193,0.025,0.652,50.0
20.172,0.026,0.547,25.0
20.14,0.027,0.442,27.0
20.135,0.028,0.337,26.0
20.129,0.029,0.233,26.0
20.135,0.031,0.129,26.0
20.144,0.031,0.693,33.0
20.182,0.032,0.59,30.0
20.145,0.034,0.485,22.0
20.143,0.035,0.379,26.0
20.134,0.036,0.275,27.0
20.138,0.038,0.171,28.0
20.115,0.038,0.734,29.0
20.191,0.04,0.633,39.0
20.177,0.041,0.528,26.0
20.132,0.043,0.421,28.0
20.137,0.044,0.317,28.0
20.127,0.046,0.213,26.0
20.107,0.046,0.776,25.0
20.164,0.048,0.674,28.0
20.182,0.049,0.57,28.0
20.141,0.051,0.463,28.0
20.143,0.053,0.359,26.0
20.143,0.055,0.255,26.0
20.116,0.055,0.818,24.0
20.122,0.057,0.714,31.0
20.201,0.059,0.613,27.0
20.161,0.06,0.505,26.0
20.138,0.062,0.401,29.0
20.144,0.064,0.297,26.0
20.126,0.064,0.86,23.0
20.13,0.066,0.756,22.0
20.211,0.068,0.654,28.0
20.177,0.07,0.547,27.0
20.151,0.072,0.442,28.0
20.138,0.074,0.338,27.0
20.135,0.074,0.902,11.0
20.137,0.076,0.798,22.0
20.183,0.079,0.695,26.0
20.197,0.081,0.589,24.0
20.149,0.083,0.483,24.0
20.144,0.085,0.379,26.0
66.069,0.281,3.095,18.0
20.114,0.087,0.837,19.0
20.141,0.089,0.734,27.0
20.207,0.092,0.63,11.0
20.166,0.094,0.524,24.0
20.158,0.096,0.42,30.0
100.489,0.485,4.91,8.0
20.134,0.099,0.879,12.0
20.125,0.101,0.774,19.0
107.167,0.554,3.559,18.0
20.19,0.106,0.565,20.0
20.155,0.108,0.46,25.0
109.943,0.598,5.595,21.0
65.976,0.366,3.014,28.0
20.143,0.114,0.815,13.0
102.481,0.594,3.609,47.0
20.213,0.119,0.607,11.0
20.173,0.121,0.501,22.0
66.896,0.406,3.537,25.0
65.879,0.408,3.14,25.0
20.15,0.127,0.855,1.0
102.325,0.66,3.804,35.0
20.267,0.133,0.647,0.0
20.183,0.135,0.54,18.0
66.962,0.452,3.672,13.0
65.82,0.453,3.267,2.0
101.829,0.714,4.523,15.0
102.072,0.729,3.993,45.0
117.606,0.856,3.991,32.0
20.203,0.149,0.58,13.0
101.405,0.756,5.757,32.0
66.015,0.501,3.404,9.0
65.865,0.509,3.053,20.0
102.032,0.803,4.188,38.0
126.417,1.013,4.532,30.0
20.259,0.165,0.62,2.0
103.714,0.85,6.089,19.0
66.962,0.558,3.582,35.0
65.882,0.559,3.18,26.0
102.028,0.88,4.383,42.0
117.215,1.028,4.425,18.0
103.786,0.925,3.377,38.0
59.562,0.534,3.61,16.0
67.054,0.611,3.714,27.0
65.88,0.61,3.304,29.0
126.4,1.19,5.667,8.0
117.117,1.12,4.641,14.0
103.838,1.009,3.572,26.0
59.557,0.582,3.721,58.0
67.167,0.666,3.845,4.0
65.974,0.665,3.432,34.0
132.562,1.356,6.189,15.0
110.391,1.146,4.577,16.0
103.961,1.096,3.767,22.0
59.492,0.63,3.827,58.0
101.648,1.094,6.007,9.0
66.536,0.726,3.582,42.0
102.011,1.13,4.949,8.0
110.385,1.24,4.779,16.0
124.914,1.423,4.755,24.0
59.445,0.681,3.932,26.0
109.949,1.277,6.696,20.0
67.005,0.789,3.729,21.0
102.049,1.22,5.135,12.0
126.53,1.533,5.705,15.0
124.768,1.533,4.973,11.0
46.348,0.573,3.15,38.0
110.015,1.378,6.9,7.0
67.243,0.853,3.863,41.0
102.086,1.313,5.319,14.0
124.861,1.627,5.852,11.0
126.829,1.674,5.279,2.0
59.383,0.788,4.141,15.0
101.8,1.369,6.564,6.0
67.458,0.919,3.996,49.0
66.118,0.912,3.561,18.0
69.299,0.968,3.369,6.0
69.342,0.981,3.007,2.0
59.28,0.844,4.238,9.0
59.807,0.862,3.96,9.0
67.506,0.985,4.115,33.0
66.171,0.977,3.679,31.0
110.738,1.655,5.576,7.0
110.276,1.668,4.971,3.0
46.449,0.706,3.401,34.0
59.892,0.922,4.068,8.0
67.543,1.052,4.232,40.0
66.208,1.043,3.793,34.0
103.902,1.656,5.406,14.0
110.407,1.781,5.163,6.0
67.734,1.099,5.074,31.0
67.685,1.111,4.713,24.0
67.584,1.121,4.349,33.0
66.221,1.111,3.904,27.0
101.818,1.727,5.466,4.0
103.813,1.78,5.025,21.0
67.76,1.169,5.187,9.0
59.845,1.043,4.265,30.0
67.643,1.192,4.462,36.0
66.196,1.179,4.01,4.0
100.042,1.8,5.532,2.0
103.647,1.885,5.185,17.0
42.558,0.779,3.327,17.0
59.802,1.106,4.359,23.0
68.046,1.272,4.599,11.0
68.96,1.302,4.288,4.0
103.829,1.98,5.907,5.0
69.421,1.338,3.583,5.0
57.971,1.124,4.625,9.0
59.658,1.168,4.442,34.0
68.777,1.36,4.756,6.0
66.251,1.323,4.223,40.0
69.225,1.396,4.046,3.0
103.289,2.103,5.49,9.0
43.178,0.884,3.511,5.0
59.434,1.229,4.517,28.0
53.529,1.117,3.784,5.0
110.074,2.32,7.186,5.0
69.124,1.471,4.145,4.0
103.294,2.218,5.647,6.0
52.261,1.13,4.331,15.0
0.0,0.0,0.0,0.0
66.322,1.46,4.789,26.0
102.685,2.281,6.857,3.0
104.427,2.341,6.419,6.0
103.391,2.338,5.805,5.0
43.415,0.989,3.663,18.0
0.0,0.0,0.0,0.0
66.302,1.536,4.886,14.0
66.027,1.544,4.507,26.0
67.495,1.592,4.247,4.0
69.262,1.648,3.991,4.0
43.015,1.03,3.692,8.0
57.396,1.387,4.619,6.0
52.818,1.286,3.968,1.0
65.993,1.621,4.6,14.0
53.485,1.325,3.442,1.0
69.61,1.738,4.109,4.0
40.402,1.016,3.525,12.0
52.217,1.324,4.277,18.0
65.96,1.686,5.048,15.0
68.083,1.754,4.84,10.0
103.2,2.68,6.786,5.0
67.507,1.768,4.078,2.0
40.404,1.065,3.582,28.0
52.126,1.385,4.341,26.0
52.382,1.402,4.081,2.0
68.182,1.84,4.94,9.0
68.237,1.856,4.579,5.0
67.49,1.849,4.168,3.0
40.394,1.114,3.635,46.0
59.979,1.667,5.075,8.0
57.888,1.621,4.587,9.0
52.529,1.482,3.875,29.0
67.94,1.932,4.648,7.0
102.86,2.947,6.487,3.0
40.398,1.165,3.689,62.0
43.803,1.273,3.763,5.0
57.662,1.687,4.644,12.0
68.309,2.013,5.128,7.0
68.135,2.023,4.748,10.0
69.362,2.074,4.462,6.0
40.433,1.217,3.743,26.0
46.741,1.417,4.075,8.0
57.836,1.766,4.73,12.0
68.313,2.1,5.213,7.0
68.468,2.12,4.856,8.0
68.102,2.123,4.464,3.0
53.126,1.667,4.984,7.0
43.108,1.362,3.811,6.0
50.382,1.603,4.182,6.0
51.949,1.663,4.026,4.0
68.407,2.206,4.933,6.0
68.553,2.225,4.575,9.0
53.29,1.741,5.063,7.0
42.857,1.409,3.839,3.0
51.109,1.691,4.302,8.0
43.704,1.456,3.437,4.0
51.613,1.73,3.781,2.0
53.256,1.797,3.615,5.0
49.663,1.687,4.775,8.0
43.201,1.477,3.919,6.0
46.912,1.614,4.002,6.0
58.445,2.023,4.664,2.0
52.706,1.836,3.92,20.0
67.578,2.369,4.662,7.0
52.495,1.853,5.106,10.0
43.105,1.531,3.959,6.0
46.856,1.674,4.048,8.0
51.72,1.859,4.183,4.0
43.162,1.561,3.257,12.0
68.735,2.501,4.815,32.0
52.404,1.92,5.154,6.0
46.128,1.7,4.285,5.0
46.919,1.739,4.103,5.0
47.072,1.755,3.856,2.0
0.0,0.0,0.0,0.0
68.864,2.598,4.895,11.0
60.26,2.289,5.989,4.0
42.95,1.64,4.034,7.0
46.976,1.805,4.156,8.0
42.621,1.647,3.534,0.0
47.165,1.833,3.655,5.0
68.595,2.681,4.944,4.0
65.591,2.581,6.583,3.0
54.751,2.166,5.196,1.0
53.372,2.123,4.774,4.0
52.902,2.116,4.439,18.0
47.183,1.898,3.702,4.0
43.953,1.778,3.21,1.0
45.982,1.872,4.659,3.0
52.515,2.15,5.034,5.0
59.328,2.441,5.362,3.0
46.932,1.942,3.981,6.0
68.132,2.834,5.408,7.0
51.71,2.162,3.823,3.0
45.968,1.935,4.7,4.0
52.504,2.222,5.08,6.0
53.619,2.281,4.895,3.0
47.02,2.01,4.03,17.0
52.734,2.266,4.232,4.0
47.342,2.045,3.541,10.0
46.935,2.041,4.84,6.0
52.294,2.286,5.105,4.0
46.022,2.021,4.24,3.0
47.042,2.076,4.072,13.0
52.739,2.339,4.276,7.0
47.187,2.103,3.568,1.0
46.888,2.104,4.873,9.0
51.981,2.344,5.116,2.0
46.007,2.084,4.275,10.0
59.719,2.718,5.216,2.0
52.736,2.412,4.317,4.0
68.932,3.169,5.266,3.0
46.483,2.152,4.867,14.0
45.799,2.129,4.543,4.0
45.808,2.139,4.292,11.0
53.211,2.497,4.688,2.0
47.098,2.22,3.891,1.0
69.048,3.269,5.326,1.0
47.18,2.25,4.975,2.0
45.835,2.195,4.58,4.0
45.965,2.211,4.339,11.0
45.827,2.214,4.069,2.0
47.146,2.287,3.927,12.0
65.732,3.205,5.115,5.0
46.252,2.27,4.909,2.0
60.939,3.004,6.131,3.0
45.957,2.275,4.37,5.0
46.109,2.292,4.125,1.0
47.143,2.354,3.958,11.0
47.163,2.365,3.701,1.0
66.499,3.357,7.101,1.0
46.64,2.364,4.722,2.0
45.961,2.339,4.399,7.0
47.201,2.422,3.992,5.0
52.863,2.724,4.18,1.0
46.207,2.397,4.962,5.0
59.309,3.09,6.04,4.0
45.806,2.395,4.411,10.0
45.915,2.411,4.163,7.0
47.258,2.491,4.023,5.0
47.273,2.501,3.764,2.0
46.329,2.469,5.001,18.0
46.608,2.493,4.772,1.0
45.649,2.451,4.42,3.0
45.706,2.463,4.168,3.0
47.274,2.558,4.049,6.0
47.173,2.562,3.78,8.0
46.244,2.529,5.015,10.0
52.396,2.876,5.391,3.0
45.618,2.513,4.44,3.0
45.338,2.507,4.156,1.0
45.874,2.546,3.952,3.0
47.233,2.631,3.807,7.0
46.283,2.596,5.041,8.0
46.495,2.617,4.805,2.0
45.581,2.575,4.457,8.0
45.861,2.6,4.225,1.0
45.943,2.614,3.977,5.0
47.14,2.692,3.82,3.0
46.222,2.657,5.054,6.0
46.427,2.678,4.817,1.0
43.511,2.518,4.272,1.0
45.911,2.667,4.247,2.0
45.826,2.671,3.985,5.0
53.078,3.104,4.321,2.0
46.221,2.722,5.072,6.0
45.542,2.691,4.742,3.0
45.951,2.733,4.268,3.0
47.434,2.83,4.142,2.0
46.182,2.765,3.776,2.0
46.229,2.787,5.088,3.0
45.526,2.753,4.756,1.0
46.961,2.858,4.376,1.0
47.408,2.894,4.154,4.0
46.959,2.876,3.853,4.0
46.201,2.849,5.098,2.0
45.759,2.839,4.537,4.0
45.52,2.832,4.254,3.0
0.0,0.0,0.0,0.0
47.186,2.954,3.884,1.0
46.193,2.912,5.109,1.0
45.59,2.899,4.27,3.0
0.0,0.0,0.0,0.0
45.825,2.932,3.781,2.0
46.327,2.984,5.133,0.0
46.175,2.982,4.857,1.0
45.855,2.995,3.791,3.0
0.0,0.0,0.0,0.0
46.191,3.045,4.865,1.0
45.807,3.053,3.792,1.0
0.0,0.0,0.0,0.0
46.252,3.111,4.876,2.0
44.958,3.032,4.487,2.0
47.775,3.231,4.494,2.0
0.0,0.0,0.0,0.0
46.238,3.172,4.878,1.0
45.685,3.142,4.562,6.0
45.684,3.149,4.3,3.0
0.0,0.0,0.0,0.0
46.27,3.234,4.882,2.0
45.429,3.183,4.536,1.0
0.0,0.0,0.0,0.0
46.249,3.293,4.878,2.0
45.429,3.243,4.535,3.0
47.36,3.388,4.456,1.0
45.573,3.268,4.031,1.0
0.0,0.0,0.0,0.0
46.203,3.35,4.87,0.0
45.601,3.314,4.548,3.0
47.323,3.446,4.448,2.0
45.548,3.325,4.024,1.0
0.0,0.0,0.0,0.0
0.0,0.0,0.0,0.0
45.593,3.371,4.542,3.0
114.258,8.502,9.437,2.0
0.0,0.0,0.0,0.0
0.0,0.0,0.0,0.0
107.414,8.125,8.852,3.0
0.0,0.0,0.0,0.0
0.0,0.0,0.0,0.0
45.734,3.515,3.758,3.0
0.0,0.0,0.0,0.0
0.0,0.0,0.0,0.0
45.391,3.536,3.975,1.0
110.455,8.62,9.05,2.0
0.0,0.0,0.0,0.0
45.365,3.568,4.736,3.0
114.509,9.039,10.644,3.0
114.543,9.058,9.997,2.0
110.885,8.786,9.05,3.0
0.0,0.0,0.0,0.0
0.0,0.0,0.0,0.0
0.0,0.0,0.0,0.0
116.007,9.292,10.743,5.0
115.839,9.294,10.071,2.0
114.775,9.226,9.327,4.0
45.2,3.654,4.946,7.0
0.0,0.0,0.0,0.0
0.0,0.0,0.0,0.0
116.164,9.436,10.715,6.0
112.499,9.153,9.738,2.0
116.203,9.471,9.4,17.0
0.0,0.0,0.0,0.0
116.039,9.527,11.99,3.0
46.019,3.783,4.492,0.0
114.691,9.444,10.531,3.0
0.0,0.0,0.0,0.0
111.249,9.19,8.951,2.0
0.0,0.0,0.0,0.0
0.0,0.0,0.0,0.0
46.05,3.836,4.475,1.0
115.376,9.626,10.542,9.0
112.632,9.411,9.65,8.0
112.637,9.425,9.011,9.0
0.0,0.0,0.0,0.0
0.0,0.0,0.0,0.0
46.096,3.889,4.456,1.0
114.855,9.704,10.437,3.0
115.502,9.772,9.839,3.0
115.415,9.778,9.176,7.0
0.0,0.0,0.0,0.0
114.798,9.792,11.696,7.0
115.12,9.832,11.071,2.0
109.872,9.409,9.301,5.0
96.501,8.275,7.62,7.0
0.0,0.0,0.0,0.0
115.384,9.962,11.69,5.0
114.956,9.936,10.989,2.0
99.157,8.581,8.902,2.0
114.981,9.963,9.667,26.0
115.004,9.978,9.014,6.0
115.068,10.037,12.25,8.0
114.968,10.039,11.58,11.0
114.904,10.046,10.914,8.0
114.945,10.061,10.249,7.0
99.544,8.722,8.308,6.0
96.312,8.45,7.49,4.0
114.905,10.135,12.16,2.0
114.841,10.139,11.494,6.0
115.488,10.206,10.897,2.0
109.567,9.694,9.699,4.0
99.485,8.812,8.238,1.0
109.684,9.726,8.458,2.0
0.0,0.0,0.0,0.0
115.082,10.268,11.441,2.0
114.69,10.244,10.743,8.0
0.0,0.0,0.0,0.0
111.006,9.934,9.118,2.0
92.06,8.248,7.035,2.0
114.885,10.346,12.0,3.0
114.545,10.324,11.306,3.0
0.0,0.0,0.0,0.0
107.388,9.696,9.357,2.0
86.228,7.793,7.02,2.0
98.176,8.882,7.433,4.0
0.0,0.0,0.0,0.0
0.0,0.0,0.0,0.0
0.0,0.0,0.0,0.0
92.791,8.458,8.016,4.0
91.699,8.365,7.397,1.0
97.975,8.947,7.344,13.0
0.0,0.0,0.0,0.0
115.013,10.562,11.179,2.0
86.153,7.917,7.878,4.0
85.203,7.836,7.294,1.0
91.772,8.448,7.331,2.0
100.446,9.254,7.45,2.0
0.0,0.0,0.0,0.0
0.0,0.0,0.0,0.0
107.037,9.922,9.702,4.0
85.784,7.957,7.275,8.0
95.95,8.908,7.586,4.0
98.449,9.147,7.221,3.0
0.0,0.0,0.0,0.0
114.918,10.734,10.98,5.0
114.562,10.707,10.287,3.0
96.629,9.037,8.113,6.0
91.829,8.594,7.183,1.0
80.394,7.53,5.828,3.0
0.0,0.0,0.0,0.0
85.03,8.004,8.051,1.0
92.16,8.681,8.195,3.0
85.871,8.093,7.134,5.0
85.945,8.105,6.647,3.0
80.239,7.573,5.747,3.0
114.049,10.811,11.353,5.0
92.125,8.736,8.64,3.0
85.111,8.076,7.491,3.0
84.431,8.016,6.937,4.0
86.101,8.179,6.581,3.0
80.144,7.618,5.667,4.0
0.0,0.0,0.0,0.0
114.406,10.926,10.622,7.0
84.743,8.096,7.381,5.0
84.707,8.097,6.881,8.0
86.016,8.227,6.493,2.0
90.504,8.661,6.314,2.0
117.77,11.317,11.502,3.0
111.101,10.68,10.209,3.0
91.151,8.766,7.849,6.0
92.1,8.861,7.393,11.0
92.28,8.883,6.877,2.0
85.355,8.221,5.871,4.0
117.974,11.408,11.403,5.0
99.399,9.614,9.034,6.0
85.43,8.266,7.272,2.0
92.003,8.905,7.293,5.0
84.306,8.164,6.198,9.0
84.761,8.211,5.746,12.0
118.194,11.495,11.304,2.0
99.373,9.666,8.931,6.0
87.604,8.524,7.368,2.0
85.433,8.316,6.685,3.0
83.987,8.178,6.089,4.0
84.826,8.263,5.664,4.0
92.255,9.019,8.729,1.0
99.36,9.716,8.827,6.0
92.183,9.016,7.658,4.0
92.421,9.042,7.136,5.0
83.805,8.201,5.99,3.0
86.921,8.509,5.713,3.0
0.0,0.0,0.0,0.0
91.586,8.998,8.04,10.0
92.162,9.057,7.559,7.0
84.167,8.273,6.409,2.0
80.189,7.884,5.645,2.0
90.121,8.863,5.827,4.0
91.596,9.039,8.469,9.0
91.701,9.05,7.95,7.0
92.248,9.105,7.465,5.0
73.005,7.207,5.48,4.0
73.06,7.213,5.064,2.0
90.178,8.906,5.732,6.0
91.823,9.098,8.388,2.0
85.982,8.519,7.358,1.0
92.135,9.129,7.353,5.0
84.191,8.343,6.225,7.0
93.276,9.245,6.36,2.0
90.289,8.95,5.639,6.0
91.977,9.146,8.298,1.0
91.732,9.121,7.746,5.0
85.091,8.461,6.693,4.0
84.161,8.369,6.127,7.0
73.108,7.27,4.901,1.0
90.085,8.96,5.522,6.0
91.996,9.177,8.193,2.0
91.758,9.152,7.642,6.0
85.155,8.494,6.6,5.0
72.782,7.259,5.214,1.0
80.374,8.017,5.295,3.0
89.854,8.964,5.403,2.0
99.203,9.924,8.718,2.0
91.763,9.178,7.534,10.0
72.703,7.271,5.549,1.0
84.117,8.412,5.927,3.0
80.373,8.037,5.201,3.0
90.963,9.097,5.363,2.0
85.006,8.523,7.369,2.0
91.69,9.192,7.418,13.0
72.766,7.293,5.466,2.0
72.873,7.303,5.047,3.0
78.419,7.858,4.98,2.0
81.088,8.126,4.684,4.0
84.92,8.531,7.257,3.0
91.774,9.217,7.313,10.0
73.059,7.336,5.4,3.0
85.112,8.545,5.791,1.0
99.542,9.992,6.201,6.0
81.047,8.135,4.583,4.0
99.129,9.974,8.35,10.0
91.885,9.241,7.209,4.0
72.997,7.34,5.306,3.0
84.865,8.531,5.67,5.0
89.989,9.045,5.493,10.0
81.058,8.146,4.483,1.0
84.943,8.555,7.049,3.0
68.685,6.915,5.302,2.0
84.284,8.483,6.019,3.0
84.74,8.527,5.555,2.0
90.146,9.068,5.391,7.0
84.07,8.456,4.543,3.0
99.091,9.987,8.096,11.0
68.698,6.92,5.216,2.0
72.839,7.335,5.11,2.0
96.318,9.696,6.191,4.0
99.566,10.02,5.827,5.0
85.394,8.592,4.506,12.0
99.157,9.994,7.975,7.0
85.551,8.619,6.386,5.0
78.236,7.879,5.388,1.0
78.458,7.898,4.943,3.0
81.098,8.161,4.642,4.0
85.529,8.605,4.404,7.0
91.9,9.261,7.271,9.0
72.963,7.348,5.352,4.0
84.972,8.554,5.742,3.0
89.999,9.056,5.555,6.0
81.028,8.151,4.534,3.0
91.776,9.229,4.608,2.0
91.938,9.259,7.156,6.0
84.285,8.483,6.073,3.0
72.99,7.342,4.838,2.0
90.028,9.051,5.44,9.0
77.215,7.76,4.22,1.0
107.421,10.792,5.253,6.0
68.747,6.915,5.26,3.0
84.117,8.456,5.95,3.0
76.569,7.693,4.974,1.0
0.0,0.0,0.0,0.0
84.659,8.497,4.515,10.0
107.359,10.771,5.108,3.0
85.534,8.591,6.43,3.0
72.887,7.315,5.059,3.0
99.46,9.976,6.329,5.0
81.133,8.133,4.686,5.0
84.512,8.467,4.394,8.0
111.64,11.179,5.163,7.0
73.028,7.32,5.391,3.0
85.107,8.524,5.792,3.0
90.241,9.032,5.622,6.0
81.034,8.106,4.572,3.0
91.814,9.178,4.652,6.0
97.687,9.76,4.387,5.0
84.226,8.421,6.105,7.0
73.104,7.304,4.876,1.0
90.119,8.997,5.491,5.0
85.109,8.49,4.687,2.0
97.726,9.742,4.82,9.0
97.754,9.74,4.258,15.0
73.015,7.279,5.193,2.0
80.399,8.008,5.254,8.0
88.224,8.781,5.257,1.0
84.758,8.429,4.554,11.0
97.617,9.701,4.684,30.0
97.72,9.706,4.126,38.0
79.729,7.922,5.563,2.0
90.267,8.961,5.777,6.0
81.076,8.042,4.721,4.0
84.647,8.389,4.433,4.0
97.661,9.671,4.553,34.0
97.734,9.672,3.995,13.0
93.316,9.236,6.384,3.0
90.375,8.936,5.662,4.0
81.078,8.01,4.611,1.0
91.76,9.058,4.682,3.0
97.703,9.636,4.423,6.0
115.28,11.36,4.557,7.0
91.902,9.058,6.162,3.0
87.141,8.579,5.34,2.0
85.215,8.382,4.731,12.0
97.506,9.582,4.843,4.0
86.197,8.463,3.786,4.0
137.961,13.535,5.267,10.0
87.061,8.54,5.718,2.0
87.224,8.546,5.227,5.0
84.486,8.27,4.575,3.0
97.513,9.536,4.71,5.0
86.163,8.417,3.666,1.0
108.167,10.557,3.981,21.0
90.127,8.794,5.796,7.0
85.342,8.318,4.996,4.0
86.527,8.424,4.568,1.0
97.863,9.518,4.592,8.0
110.245,10.711,4.539,8.0
108.241,10.506,3.835,29.0
85.225,8.268,5.363,5.0
85.252,8.26,4.873,10.0
91.792,8.884,4.719,9.0
107.734,10.415,4.908,4.0
105.184,10.158,4.187,2.0
115.985,11.19,3.951,20.0
85.102,8.205,5.239,2.0
85.078,8.192,4.747,5.0
97.405,9.368,4.874,8.0
86.67,8.325,3.83,9.0
108.13,10.375,4.158,26.0
109.388,10.485,3.577,18.0
84.613,8.103,5.093,16.0
84.227,8.055,4.584,5.0
84.108,8.034,4.094,4.0
107.891,10.293,4.621,19.0
110.326,10.512,4.092,19.0
109.396,10.411,3.429,17.0
84.586,8.041,4.975,9.0
86.465,8.209,4.587,3.0
97.924,9.284,4.632,3.0
110.741,10.487,4.591,14.0
116.005,10.971,4.143,33.0
121.397,11.467,3.639,43.0
98.119,9.256,5.636,2.0
87.782,8.269,4.537,1.0
87.728,8.252,4.03,5.0
108.184,10.162,4.338,11.0
116.076,10.889,3.988,10.0
151.618,14.206,4.339,20.0
84.062,7.864,4.714,4.0
97.479,9.107,4.906,3.0
87.293,8.143,3.892,10.0
110.449,10.288,4.279,19.0
121.867,11.335,4.022,20.0
138.057,12.825,3.766,13.0
91.593,8.494,5.012,4.0
120.324,11.14,5.894,8.0
108.11,9.995,4.674,6.0
116.24,10.73,4.347,27.0
121.419,11.191,3.844,27.0
152.054,13.996,3.944,13.0
86.161,7.916,4.599,4.0
98.258,9.012,4.682,2.0
108.219,9.911,4.534,8.0
109.667,10.027,3.955,36.0
143.013,13.056,4.339,22.0
152.068,13.861,3.742,27.0
97.28,8.848,5.063,5.0
87.767,7.97,4.063,6.0
120.722,10.944,4.896,10.0
121.719,11.015,4.225,25.0
143.616,12.977,4.163,26.0
152.218,13.733,3.542,23.0
98.017,8.823,4.971,2.0
108.138,9.717,4.862,7.0
109.781,9.847,4.307,6.0
121.147,10.849,4.047,22.0
143.783,12.854,3.981,27.0
152.514,13.612,3.352,22.0
106.542,9.486,5.263,2.0
110.498,9.82,4.825,15.0
122.142,10.834,4.634,12.0
143.554,12.712,4.61,23.0
152.675,13.495,4.029,11.0
152.546,13.461,3.154,20.0
108.0,9.505,5.194,4.0
120.743,10.605,5.115,9.0
143.286,12.561,5.248,18.0
143.756,12.577,4.428,32.0
0.0,0.0,0.0,0.0
158.731,13.838,3.075,4.0
87.344,7.592,4.087,9.0
109.868,9.532,4.512,6.0
121.089,10.484,4.279,29.0
143.764,12.423,4.244,30.0
197.827,17.062,4.708,12.0
199.184,17.146,3.601,6.0
99.078,8.502,4.509,5.0
99.904,8.554,3.974,2.0
143.72,12.282,4.895,8.0
144.007,12.281,4.066,13.0
0.0,0.0,0.0,0.0
199.147,16.916,3.348,8.0
99.086,8.389,4.383,7.0
143.752,12.143,5.536,14.0
144.469,12.178,4.738,17.0
196.989,16.569,5.314,7.0
202.067,16.961,4.298,16.0
0.0,0.0,0.0,0.0
121.211,10.119,5.211,13.0
108.037,8.997,4.026,2.0
161.258,13.4,5.087,6.0
195.033,16.17,5.018,7.0
196.384,16.245,3.931,23.0
213.575,17.629,3.059,36.0
99.798,8.208,4.165,3.0
154.71,12.693,5.573,9.0
167.907,13.742,5.089,16.0
155.881,12.73,3.819,12.0
196.453,16.006,3.694,24.0
0.0,0.0,0.0,0.0
99.734,8.074,4.04,2.0
193.778,15.651,6.744,6.0
154.98,12.487,4.51,14.0
0.0,0.0,0.0,0.0
155.94,12.505,2.745,23.0
155.993,12.479,1.856,19.0
169.693,13.52,6.671,5.0
167.132,13.281,5.617,12.0
161.113,12.768,4.493,15.0
155.858,12.32,3.444,14.0
155.975,12.299,2.556,28.0
0.0,0.0,0.0,0.0
169.201,13.251,6.449,3.0
181.223,14.156,5.874,5.0
167.317,13.033,4.469,17.0
156.038,12.123,3.264,28.0
162.136,12.562,2.468,37.0
122.312,9.454,1.166,4.0
154.679,11.9,5.715,11.0
156.884,12.035,4.903,14.0
156.797,11.996,4.006,11.0
168.111,12.826,3.322,12.0
168.248,12.801,2.367,28.0
122.185,9.272,1.024,6.0
174.734,13.197,6.257,5.0
163.544,12.314,4.924,14.0
155.911,11.707,3.807,26.0
168.031,12.581,3.131,29.0
168.242,12.56,2.178,30.0
0.0,0.0,0.0,0.0
0.0,0.0,0.0,0.0
160.984,11.888,4.667,7.0
162.237,11.942,3.779,24.0
173.272,12.718,3.034,41.0
173.382,12.688,2.052,15.0
140.545,10.256,0.864,22.0
160.834,11.675,5.4,13.0
156.135,11.296,4.354,21.0
168.152,12.129,3.733,15.0
173.481,12.473,2.848,14.0
0.0,0.0,0.0,0.0
140.632,10.047,0.711,150.0
156.315,11.108,5.077,9.0
161.935,11.469,4.341,21.0
173.939,12.278,3.674,13.0
0.0,0.0,0.0,0.0
0.0,0.0,0.0,0.0
154.999,10.835,0.62,16.0
167.086,11.615,5.252,5.0
173.222,11.999,4.46,8.0
210.345,14.519,4.222,31.0
200.983,13.824,2.873,5.0
0.0,0.0,0.0,0.0
154.917,10.585,0.459,152.0
173.381,11.775,5.269,4.0
202.323,13.689,5.0,7.0
0.0,0.0,0.0,0.0
199.932,13.432,2.654,6.0
0.0,0.0,0.0,0.0
154.929,10.334,0.301,150.0
162.716,10.788,4.781,9.0
173.901,11.484,4.123,16.0
203.212,13.372,3.667,6.0
0.0,0.0,0.0,0.0
0.0,0.0,0.0,0.0
154.93,10.079,0.147,4.0
0.0,0.0,0.0,0.0
195.419,12.581,4.44,8.0
202.444,12.982,3.454,7.0
0.0,0.0,0.0,0.0
155.226,9.879,0.877,8.0
0.0,0.0,0.0,0.0
0.0,0.0,0.0,0.0
197.833,12.407,4.309,7.0
0.0,0.0,0.0,0.0
207.357,12.899,2.15,50.0
155.378,9.626,0.733,13.0
0.0,0.0,0.0,0.0
195.682,11.989,5.187,8.0
0.0,0.0,0.0,0.0
202.834,12.319,3.083,6.0
0.0,0.0,0.0,0.0
197.61,11.899,0.75,24.0
0.0,0.0,0.0,0.0
0.0,0.0,0.0,0.0
0.0,0.0,0.0,0.0
0.0,0.0,0.0,0.0
197.356,11.587,1.688,17.0
197.255,11.529,0.574,7.0
0.0,0.0,0.0,0.0
0.0,0.0,0.0,0.0
0.0,0.0,0.0,0.0
0.0,0.0,0.0,0.0
197.367,11.237,1.518,23.0
0.0,0.0,0.0,0.0
0.0,0.0,0.0,0.0
196.111,10.969,4.681,18.0
196.06,10.914,3.574,34.0
196.022,10.858,2.469,58.0
196.066,10.806,1.345,118.0
0.0,0.0,0.0,0.0
0.0,0.0,0.0,0.0
196.328,10.625,4.526,12.0
200.15,10.774,3.486,6.0
206.876,11.078,2.437,12.0
197.121,10.502,1.193,15.0
0.0,0.0,0.0,0.0
0.0,0.0,0.0,0.0
0.0,0.0,0.0,0.0
0.0,0.0,0.0,0.0
201.779,10.434,2.221,14.0
197.253,10.145,1.043,28.0
0.0,0.0,0.0,0.0
68.937,3.507,-0.41,2.0
197.964,9.98,4.259,10.0
197.831,9.918,3.144,8.0
197.837,9.862,2.032,25.0
197.189,9.773,0.898,25.0
0.0,0.0,0.0,0.0
68.857,3.373,-0.46,0.0
196.997,9.561,4.097,8.0
200.01,9.647,3.035,8.0
196.911,9.442,1.882,5.0
196.962,9.386,0.757,23.0
0.0,0.0,0.0,0.0
68.866,3.241,-0.508,0.0
0.0,0.0,0.0,0.0
206.389,9.558,2.989,19.0
196.978,9.062,1.747,9.0
196.837,8.996,0.622,13.0
0.0,0.0,0.0,0.0
68.996,3.114,-0.555,3.0
195.484,8.731,3.8,32.0
195.485,8.671,2.703,54.0
195.531,8.612,1.607,56.0
195.31,8.547,0.492,5.0
0.0,0.0,0.0,0.0
68.884,2.973,-0.598,1.0
196.876,8.41,3.704,13.0
0.0,0.0,0.0,0.0
196.723,8.28,1.496,26.0
0.0,0.0,0.0,0.0
0.0,0.0,0.0,0.0
0.0,0.0,0.0,0.0
203.909,8.302,3.714,9.0
203.895,8.241,2.573,12.0
196.54,7.881,1.38,33.0
0.0,0.0,0.0,0.0
0.0,0.0,0.0,0.0
0.0,0.0,0.0,0.0
195.132,7.557,3.445,15.0
195.113,7.493,2.354,25.0
195.07,7.433,1.263,21.0
0.0,0.0,0.0,0.0
0.0,0.0,0.0,0.0
0.0,0.0,0.0,0.0
202.791,7.449,3.475,16.0
0.0,0.0,0.0,0.0
196.392,7.092,1.173,35.0
0.0,0.0,0.0,0.0
0.0,0.0,0.0,0.0
0.0,0.0,0.0,0.0
194.961,6.771,3.246,26.0
0.0,0.0,0.0,0.0
196.315,6.689,1.078,31.0
0.0,0.0,0.0,0.0
0.0,0.0,0.0,0.0
0.0,0.0,0.0,0.0
195.184,6.377,3.161,18.0
0.0,0.0,0.0,0.0
196.269,6.285,0.99,30.0
0.0,0.0,0.0,0.0
69.066,2.167,-0.427,2.0
0.0,0.0,0.0,0.0
195.213,5.976,3.079,16.0
201.711,6.109,2.059,24.0
196.128,5.877,0.911,35.0
0.0,0.0,0.0,0.0
73.144,2.143,-0.481,6.0
0.0,0.0,0.0,0.0
195.437,5.579,3.007,17.0
0.0,0.0,0.0,0.0
0.0,0.0,0.0,0.0
0.0,0.0,0.0,0.0
0.0,0.0,0.0,0.0
0.0,0.0,0.0,0.0
195.447,5.176,2.94,23.0
103.093,2.695,0.978,9.0
100.39,2.591,0.395,1.0
106.505,2.715,-0.182,1.0
0.0,0.0,0.0,0.0
0.0,0.0,0.0,0.0
195.177,4.764,2.876,29.0
0.0,0.0,0.0,0.0
100.235,2.377,0.364,2.0
100.093,2.34,-0.201,3.0
0.0,0.0,0.0,0.0
0.0,0.0,0.0,0.0
195.393,4.355,2.825,26.0
0.0,0.0,0.0,0.0
99.931,2.159,0.337,4.0
100.001,2.127,-0.226,2.0
0.0,0.0,0.0,0.0
0.0,0.0,0.0,0.0
199.609,4.026,2.838,7.0
102.961,2.042,0.894,9.0
99.855,1.946,0.314,8.0
0.0,0.0,0.0,0.0
0.0,0.0,0.0,0.0
0.0,0.0,0.0,0.0
0.0,0.0,0.0,0.0
0.0,0.0,0.0,0.0
99.801,1.732,0.295,5.0
0.0,0.0,0.0,0.0
0.0,0.0,0.0,0.0
0.0,0.0,0.0,0.0
195.706,3.117,2.711,8.0
0.0,0.0,0.0,0.0
99.724,1.52,0.28,5.0
0.0,0.0,0.0,0.0
0.0,0.0,0.0,0.0
0.0,0.0,0.0,0.0
20.284,0.28,0.278,1.0
0.0,0.0,0.0,0.0
99.611,1.308,0.268,6.0
0.0,0.0,0.0,0.0
20.244,0.251,-0.17,0.0
20.198,0.243,-0.281,24.0
20.294,0.236,0.276,28.0
20.308,0.23,0.165,23.0
20.35,0.223,0.053,22.0
20.295,0.215,-0.06,0.0
20.184,0.207,-0.171,9.0
20.173,0.2,-0.282,29.0
20.287,0.193,0.275,29.0
20.289,0.186,0.163,28.0
20.279,0.179,0.052,27.0
20.208,0.171,-0.061,23.0
20.165,0.163,-0.171,19.0
20.179,0.157,-0.283,35.0
20.176,0.149,0.273,26.0
20.178,0.141,0.162,26.0
20.192,0.134,0.052,30.0
20.18,0.127,-0.06,31.0
20.169,0.12,-0.171,28.0
20.206,0.113,-0.283,25.0
20.156,0.105,0.274,28.0
20.153,0.098,0.163,26.0
20.196,0.091,0.052,34.0
20.201,0.084,-0.06,30.0
20.221,0.077,-0.171,26.0
20.236,0.07,-0.282,0.0
20.145,0.062,0.275,30.0
20.138,0.055,0.164,27.0
20.228,0.048,0.054,10.0
20.27,0.041,-0.058,150.0
20.254,0.034,-0.169,151.0
20.27,0.027,-0.281,150.0
20.127,0.019,0.276,28.0
20.117,0.012,0.166,27.0
20.155,0.005,0.056,23.0
20.183,-0.002,-0.056,17.0
20.167,-0.009,-0.166,19.0
20.173,-0.016,-0.277,17.0
20.127,-0.023,0.279,27.0
20.119,-0.03,0.169,36.0
20.129,-0.037,0.059,41.0
20.134,-0.045,-0.052,30.0
20.141,-0.052,-0.163,35.0
20.151,-0.059,-0.273,30.0
20.127,-0.066,0.282,29.0
20.126,-0.074,0.172,28.0
20.137,-0.081,0.062,36.0
20.146,-0.088,-0.049,28.0
20.146,-0.095,-0.159,31.0
20.135,-0.103,-0.269,36.0
20.149,-0.109,0.287,23.0
20.142,-0.117,0.177,19.0
20.157,-0.124,0.067,24.0
20.156,-0.131,-0.044,19.0
20.15,-0.138,-0.154,17.0
20.154,-0.146,-0.264,27.0
20.252,-0.153,0.294,10.0
66.517,-0.528,0.602,28.0
53.34,-0.443,0.192,6.0
56.224,-0.487,-0.109,4.0
56.64,-0.51,-0.418,1.0
44.932,-0.421,-0.577,41.0
20.168,-0.196,0.298,4.0
64.305,-0.648,0.601,32.0
56.16,-0.586,0.219,3.0
56.075,-0.605,-0.092,1.0
56.802,-0.633,-0.402,2.0
44.936,-0.517,-0.563,35.0
20.134,-0.238,0.304,11.0
20.145,-0.245,0.194,11.0
59.533,-0.747,0.252,12.0
59.525,-0.768,-0.077,66.0
56.62,-0.751,-0.381,12.0
45.019,-0.613,-0.548,23.0
20.146,-0.28,0.311,11.0
20.118,-0.287,0.202,14.0
20.139,-0.295,0.092,24.0
20.117,-0.301,-0.018,16.0
59.403,-0.913,-0.377,17.0
45.092,-0.709,-0.531,25.0
176.639,-2.831,2.803,72.0
176.634,-2.893,1.844,127.0
20.127,-0.337,0.1,16.0
20.121,-0.344,-0.01,29.0
52.944,-0.924,-0.314,42.0
45.141,-0.804,-0.513,19.0
192.777,-3.489,3.141,15.0
53.033,-0.978,0.576,9.0
52.95,-0.996,0.288,49.0
52.934,-1.014,-0.003,66.0
45.604,-0.89,-0.25,17.0
45.275,-0.9,-0.493,4.0
38.409,-0.774,0.643,7.0
38.381,-0.787,0.435,37.0
38.388,-0.801,0.227,46.0
38.376,-0.814,0.015,9.0
40.429,-0.872,-0.202,26.0
40.425,-0.887,-0.42,30.0
40.412,-0.897,0.697,55.0
40.414,-0.912,0.478,39.0
40.409,-0.926,0.26,40.0
40.414,-0.94,0.037,39.0
40.415,-0.955,-0.181,38.0
0.0,0.0,0.0,0.0
40.434,-0.981,0.719,27.0
0.0,0.0,0.0,0.0
38.704,-0.966,0.27,26.0
38.684,-0.979,0.057,36.0
38.688,-0.993,-0.151,37.0
38.699,-1.007,-0.36,45.0
38.661,-1.016,0.709,66.0
38.659,-1.03,0.501,70.0
38.645,-1.043,0.292,71.0
38.631,-1.056,0.079,71.0
38.644,-1.07,-0.128,71.0
38.661,-1.084,-0.337,58.0
38.645,-1.094,0.733,90.0
38.638,-1.107,0.524,110.0
38.638,-1.121,0.316,71.0
38.619,-1.134,0.104,68.0
38.636,-1.148,-0.104,66.0
38.644,-1.162,-0.312,58.0
38.643,-1.171,0.757,82.0
38.631,-1.184,0.549,66.0
38.655,-1.198,0.341,62.0
38.67,-1.213,0.129,59.0
38.697,-1.228,-0.078,57.0
38.68,-1.241,-0.286,45.0
38.674,-1.249,0.784,44.0
38.717,-1.264,0.577,20.0
83.381,-2.753,0.794,5.0
80.42,-2.683,0.325,31.0
81.011,-2.731,-0.107,32.0
56.834,-1.936,-0.38,1.0
31.444,-1.078,0.66,0.0
84.298,-2.919,1.316,12.0
83.355,-2.915,0.853,18.0
80.597,-2.847,0.384,22.0
81.068,-2.89,-0.049,37.0
31.373,-1.129,-0.187,1.0
31.314,-1.134,0.68,55.0
31.283,-1.144,0.511,45.0
31.287,-1.155,0.343,47.0
31.248,-1.164,0.172,44.0
31.277,-1.175,0.004,64.0
31.298,-1.187,-0.163,46.0
28.471,-1.086,0.64,42.0
28.471,-1.095,0.487,65.0
28.449,-1.104,0.334,65.0
28.445,-1.114,0.179,68.0
28.445,-1.123,0.026,79.0
28.454,-1.134,-0.125,105.0
28.438,-1.139,0.662,150.0
28.442,-1.148,0.51,139.0
28.45,-1.158,0.358,150.0
28.429,-1.167,0.202,102.0
28.444,-1.178,0.05,117.0
28.444,-1.187,-0.101,104.0
28.437,-1.192,0.686,72.0
28.447,-1.202,0.534,63.0
28.445,-1.212,0.382,61.0
28.46,-1.222,0.227,61.0
28.46,-1.231,0.074,56.0
31.204,-1.36,-0.084,26.0
31.34,-1.372,0.783,13.0
31.312,-1.381,0.615,29.0
31.255,-1.389,0.447,33.0
31.244,-1.399,0.276,33.0
31.233,-1.409,0.109,43.0
31.221,-1.418,-0.057,41.0
85.049,-3.88,2.202,28.0
85.004,-3.906,1.747,28.0
83.152,-3.849,1.264,26.0
82.661,-3.853,0.808,13.0
79.844,-3.747,0.353,5.0
31.328,-1.481,-0.028,2.0
84.822,-4.024,2.275,31.0
84.57,-4.039,1.816,42.0
83.083,-3.995,1.341,14.0
82.318,-3.984,0.881,5.0
67.718,-3.299,0.364,1.0
0.0,0.0,0.0,0.0
84.832,-4.177,2.357,32.0
84.701,-4.196,1.901,44.0
86.086,-4.292,1.472,22.0
82.84,-4.156,0.967,11.0
0.0,0.0,0.0,0.0
66.364,-3.372,0.067,1.0
84.38,-4.302,2.426,38.0
84.674,-4.343,1.984,53.0
86.004,-4.438,1.556,31.0
0.0,0.0,0.0,0.0
0.0,0.0,0.0,0.0
0.0,0.0,0.0,0.0
84.161,-4.437,2.505,37.0
83.853,-4.445,2.049,36.0
85.741,-4.571,1.638,32.0
0.0,0.0,0.0,0.0
65.754,-3.546,0.55,6.0
65.48,-3.552,0.2,0.0
84.125,-4.578,2.591,37.0
83.676,-4.578,2.132,43.0
24.621,-1.354,0.496,2.0
24.613,-1.361,0.363,5.0
24.609,-1.369,0.232,29.0
24.583,-1.375,0.101,33.0
24.608,-1.38,0.784,19.0
24.593,-1.386,0.653,15.0
24.58,-1.393,0.521,28.0
24.572,-1.4,0.388,41.0
24.557,-1.406,0.258,47.0
24.529,-1.412,0.127,48.0
24.55,-1.417,0.808,64.0
24.574,-1.425,0.679,69.0
24.569,-1.432,0.548,57.0
24.554,-1.438,0.415,59.0
24.548,-1.445,0.284,53.0
24.531,-1.451,0.154,64.0
24.513,-1.454,0.835,71.0
24.56,-1.464,0.706,75.0
24.542,-1.469,0.575,72.0
24.536,-1.476,0.442,59.0
24.534,-1.483,0.312,73.0
24.515,-1.489,0.182,58.0
24.481,-1.491,0.861,66.0
24.524,-1.5,0.732,70.0
24.536,-1.507,0.603,57.0
24.545,-1.515,0.471,90.0
24.528,-1.521,0.34,71.0
24.508,-1.526,0.21,45.0
24.468,-1.528,0.889,73.0
24.501,-1.536,0.761,57.0
24.53,-1.545,0.631,73.0
24.531,-1.551,0.499,60.0
24.535,-1.559,0.369,54.0
24.536,-1.566,0.239,39.0
24.474,-1.565,0.918,76.0
24.49,-1.572,0.789,60.0
24.544,-1.582,0.661,58.0
24.556,-1.59,0.529,39.0
24.545,-1.596,0.398,28.0
24.562,-1.603,0.269,25.0
24.46,-1.6,0.947,61.0
24.494,-1.609,0.819,42.0
24.559,-1.62,0.691,33.0
24.56,-1.626,0.559,27.0
24.613,-1.636,0.43,10.0
24.556,-1.639,0.299,0.0
24.484,-1.637,0.978,25.0
24.497,-1.644,0.849,19.0
24.626,-1.659,0.723,22.0
82.832,-5.602,1.987,34.0
82.89,-5.628,1.55,2.0
0.0,0.0,0.0,0.0
24.579,-1.679,1.013,33.0
24.596,-1.685,0.883,4.0
83.645,-5.753,2.562,39.0
82.723,-5.71,2.088,40.0
82.918,-5.744,1.655,25.0
0.0,0.0,0.0,0.0
83.813,-5.839,3.56,24.0
83.028,-5.805,3.088,39.0
82.733,-5.803,2.639,45.0
82.506,-5.807,2.188,43.0
82.867,-5.852,1.759,56.0
0.0,0.0,0.0,0.0
83.48,-5.928,3.653,53.0
82.936,-5.908,3.191,46.0
82.72,-5.911,2.745,41.0
82.586,-5.921,2.296,44.0
82.518,-5.936,1.858,44.0
0.0,0.0,0.0,0.0
83.487,-6.037,3.763,45.0
82.848,-6.009,3.295,47.0
82.906,-6.032,2.86,46.0
83.04,-6.06,2.417,61.0
82.397,-6.032,1.964,41.0
83.055,-6.1,1.542,26.0
83.349,-6.134,3.867,37.0
82.897,-6.117,3.408,37.0
82.676,-6.119,2.962,41.0
82.947,-6.158,2.526,61.0
82.418,-6.137,2.075,37.0
83.007,-6.198,1.652,41.0
83.439,-6.243,3.983,30.0
83.6,-6.272,3.548,31.0
82.576,-6.212,3.069,33.0
82.897,-6.254,2.636,50.0
82.582,-6.248,2.191,40.0
82.689,-6.274,1.757,37.0
83.609,-6.354,4.104,33.0
83.715,-6.379,3.667,12.0
82.358,-6.291,3.172,30.0
82.551,-6.323,2.736,40.0
82.362,-6.326,2.295,35.0
82.555,-6.357,1.866,38.0
83.244,-6.421,4.198,42.0
84.732,-6.553,3.826,19.0
82.453,-6.391,3.288,36.0
82.485,-6.41,2.845,46.0
82.31,-6.413,2.406,43.0
82.389,-6.434,1.974,44.0
83.071,-6.499,4.303,36.0
84.378,-6.617,3.925,20.0
83.258,-6.544,3.434,27.0
82.366,-6.49,2.954,44.0
82.653,-6.528,2.529,42.0
82.23,-6.511,2.084,40.0
83.105,-6.591,4.42,32.0
83.197,-6.613,3.985,28.0
83.923,-6.685,3.578,18.0
82.442,-6.581,3.071,45.0
82.502,-6.601,2.639,47.0
82.28,-6.599,2.199,35.0
83.324,-6.694,4.548,35.0
83.137,-6.693,4.099,39.0
83.678,-6.75,3.685,39.0
82.606,-6.678,3.193,35.0
82.308,-6.667,2.748,37.0
82.609,-6.706,2.323,44.0
83.554,-6.794,4.677,42.0
83.267,-6.784,4.221,39.0
83.514,-6.817,3.793,29.0
82.281,-6.73,3.296,44.0
82.149,-6.732,2.858,46.0
82.348,-6.762,2.431,45.0
83.692,-6.885,4.804,38.0
83.554,-6.886,4.355,43.0
83.34,-6.88,3.904,43.0
82.234,-6.802,3.411,31.0
81.995,-6.795,2.968,44.0
82.223,-6.826,2.545,41.0
83.737,-6.964,4.927,28.0
83.625,-6.967,4.478,49.0
83.327,-6.953,4.023,38.0
82.297,-6.879,3.53,26.0
81.996,-6.866,3.086,43.0
82.195,-6.894,2.66,39.0
0.0,0.0,0.0,0.0
83.689,-7.043,4.601,44.0
83.299,-7.021,4.14,41.0
81.9,-6.915,3.631,26.0
82.077,-6.94,3.207,42.0
82.29,-6.97,2.781,35.0
84.668,-7.184,5.224,17.0
84.028,-7.139,4.741,20.0
83.164,-7.076,4.253,42.0
81.671,-6.96,3.737,13.0
81.987,-6.996,3.32,38.0
82.132,-7.02,2.893,46.0
84.662,-7.249,5.346,16.0
83.706,-7.177,4.843,21.0
83.076,-7.132,4.368,38.0
82.904,-7.127,3.914,50.0
81.809,-7.042,3.43,40.0
82.432,-7.105,3.023,39.0
84.619,-7.307,5.466,25.0
83.795,-7.245,4.97,19.0
83.149,-7.198,4.493,39.0
82.94,-7.188,4.035,34.0
81.77,-7.096,3.547,36.0
82.159,-7.139,3.132,40.0
84.501,-7.356,5.581,31.0
84.482,-7.362,5.133,15.0
83.308,-7.267,4.623,36.0
82.987,-7.248,4.158,39.0
81.9,-7.161,3.672,34.0
81.73,-7.154,3.233,37.0
84.672,-7.425,5.716,30.0
84.722,-7.437,5.271,15.0
83.492,-7.336,4.754,39.0
82.985,-7.298,4.278,38.0
82.162,-7.234,3.802,38.0
81.654,-7.197,3.348,34.0
84.997,-7.506,5.861,20.0
84.594,-7.476,5.386,30.0
83.76,-7.408,4.89,30.0
83.333,-7.377,4.417,39.0
82.497,-7.31,3.937,42.0
81.728,-7.248,3.47,34.0
84.905,-7.545,5.978,8.0
0.0,0.0,0.0,0.0
84.206,-7.493,5.038,27.0
83.594,-7.444,4.551,43.0
82.881,-7.387,4.074,41.0
81.943,-7.309,3.596,37.0
112.55,-10.059,8.088,9.0
85.646,-7.659,5.7,30.0
84.202,-7.534,5.158,30.0
83.611,-7.486,4.672,40.0
82.976,-7.435,4.198,49.0
81.952,-7.349,3.713,39.0
112.57,-10.113,8.251,26.0
85.604,-7.694,5.821,25.0
84.301,-7.581,5.286,33.0
83.443,-7.509,4.783,40.0
83.129,-7.484,4.326,51.0
81.835,-7.372,3.827,34.0
112.724,-10.175,8.425,22.0
85.797,-7.748,5.958,6.0
84.331,-7.618,5.41,22.0
83.596,-7.555,4.911,31.0
83.609,-7.56,4.469,43.0
81.901,-7.409,3.946,35.0
116.135,-10.527,8.848,9.0
112.561,-10.206,7.977,23.0
0.0,0.0,0.0,0.0
83.784,-7.601,5.041,34.0
83.611,-7.589,4.588,42.0
82.046,-7.449,4.069,28.0
112.711,-10.254,8.746,24.0
112.662,-10.252,8.143,27.0
85.809,-7.809,5.748,30.0
84.011,-7.648,5.173,38.0
83.241,-7.579,4.685,34.0
82.302,-7.496,4.196,32.0
112.496,-10.268,8.887,30.0
112.871,-10.302,8.318,24.0
85.879,-7.839,5.872,14.0
84.277,-7.694,5.307,34.0
83.234,-7.6,4.801,36.0
82.584,-7.543,4.326,26.0
112.509,-10.296,9.049,17.0
112.941,-10.336,8.482,19.0
113.193,-10.358,7.899,24.0
84.467,-7.73,5.438,19.0
83.421,-7.635,4.928,34.0
83.653,-7.657,4.5,41.0
120.667,-11.067,9.873,9.0
112.816,-10.346,8.63,19.0
112.889,-10.352,8.036,23.0
85.371,-7.828,5.614,17.0
83.704,-7.675,5.061,38.0
83.358,-7.643,4.598,47.0
120.858,-11.104,10.058,8.0
112.593,-10.343,8.769,27.0
112.881,-10.367,8.191,24.0
85.887,-7.886,5.766,27.0
84.196,-7.73,5.206,36.0
83.265,-7.644,4.706,37.0
114.737,-10.556,9.706,9.0
112.499,-10.346,8.916,26.0
112.863,-10.376,8.344,22.0
85.854,-7.891,5.882,12.0
84.663,-7.779,5.351,37.0
83.259,-7.649,4.82,35.0
114.4,-10.533,9.833,7.0
112.429,-10.346,9.065,17.0
112.857,-10.382,8.498,22.0
113.322,-10.421,7.918,28.0
84.856,-7.801,5.477,25.0
83.438,-7.668,4.942,33.0
114.355,-10.532,9.985,9.0
120.719,-11.112,9.896,13.0
112.693,-10.368,8.637,26.0
113.0,-10.392,8.047,25.0
85.613,-7.869,5.642,19.0
83.768,-7.697,5.074,36.0
114.486,-10.543,10.151,9.0
114.793,-10.564,9.565,12.0
112.55,-10.351,8.776,26.0
112.913,-10.379,8.191,24.0
85.904,-7.892,5.774,28.0
84.231,-7.735,5.213,34.0
24.575,-2.261,2.212,10.0
114.676,-10.546,9.706,8.0
112.489,-10.338,8.92,24.0
112.855,-10.365,8.335,23.0
113.419,-10.41,7.771,17.0
84.525,-7.753,5.341,36.0
24.562,-2.258,2.242,30.0
114.389,-10.507,9.832,10.0
112.427,-10.318,9.061,15.0
112.9,-10.354,8.484,21.0
113.204,-10.375,7.903,28.0
84.494,-7.738,5.448,18.0
24.555,-2.253,2.274,44.0
114.348,-10.485,9.976,11.0
114.576,-10.498,9.381,8.0
112.75,-10.321,8.616,13.0
112.724,-10.311,8.012,26.0
85.799,-7.841,5.641,17.0
24.547,-2.248,2.304,62.0
24.576,-2.248,2.175,8.0
114.481,-10.465,9.518,11.0
112.61,-10.285,8.747,26.0
112.763,-10.29,8.156,25.0
85.813,-7.823,5.748,28.0
24.558,-2.244,2.336,87.0
24.572,-2.242,2.205,29.0
114.501,-10.439,9.662,15.0
112.474,-10.244,8.875,31.0
112.899,-10.273,8.304,24.0
85.864,-7.805,5.856,17.0
24.556,-2.237,2.366,70.0
24.562,-2.235,2.234,46.0
114.595,-10.415,9.809,8.0
112.554,-10.218,9.019,11.0
112.994,-10.247,8.447,15.0
112.588,-10.199,7.814,7.0
24.552,-2.229,2.395,45.0
24.553,-2.226,2.263,83.0
24.575,-2.225,2.133,13.0
114.482,-10.355,9.308,17.0
116.037,-10.484,8.812,4.0
112.565,-10.158,7.945,19.0
24.548,-2.22,2.424,22.0
24.562,-2.218,2.293,95.0
24.572,-2.216,2.161,38.0
113.681,-10.241,9.374,19.0
114.625,-10.313,8.835,11.0
112.686,-10.126,8.081,18.0
24.557,-2.211,2.453,3.0
24.553,-2.208,2.32,45.0
24.568,-2.206,2.188,51.0
113.595,-10.187,9.495,16.0
114.583,-10.261,8.961,13.0
112.519,-10.064,8.194,23.0
114.269,-10.242,11.544,15.0
24.549,-2.197,2.347,17.0
24.56,-2.194,2.215,65.0
24.583,-2.193,2.082,12.0
114.575,-10.208,9.087,11.0
112.471,-10.007,8.314,29.0
39.255,-3.5,4.009,1.0
24.562,-2.186,2.375,0.0
24.561,-2.183,2.242,55.0
24.589,-2.182,2.109,43.0
114.422,-10.139,9.197,14.0
121.232,-10.725,9.092,9.0
39.252,-3.48,4.051,2.0
112.721,-9.978,11.021,6.0
24.545,-2.169,2.267,27.0
24.579,-2.168,2.134,60.0
60.674,-5.343,4.941,6.0
121.194,-10.657,9.215,26.0
112.357,-9.902,11.715,20.0
114.034,-10.032,11.269,6.0
24.558,-2.156,2.293,2.0
24.576,-2.154,2.159,61.0
24.615,-2.154,2.029,4.0
120.965,-10.568,9.319,23.0
112.261,-9.828,11.82,34.0
114.055,-9.967,11.387,9.0
46.493,-4.055,4.388,6.0
24.585,-2.14,2.184,51.0
24.595,-2.137,2.052,27.0
120.78,-10.479,9.424,17.0
112.306,-9.764,11.935,23.0
113.937,-9.887,11.486,17.0
46.453,-4.022,4.43,4.0
24.589,-2.125,2.208,35.0
24.605,-2.122,2.076,47.0
60.591,-5.217,4.785,6.0
23.815,-2.055,2.553,19.0
39.206,-3.376,3.99,1.0
53.857,-4.628,5.187,2.0
24.595,-2.109,2.232,12.0
24.6,-2.105,2.099,60.0
120.88,-10.327,9.658,14.0
23.817,-2.039,2.576,51.0
23.906,-2.042,2.455,3.0
117.353,-10.003,11.411,11.0
24.577,-2.09,2.253,0.0
24.599,-2.088,2.121,56.0
24.653,-2.088,1.991,0.0
23.818,-2.022,2.597,76.0
23.832,-2.018,2.468,12.0
60.951,-5.151,5.98,5.0
46.476,-3.919,4.301,3.0
24.616,-2.071,2.144,32.0
24.613,-2.066,2.009,6.0
23.813,-2.003,2.618,43.0
23.821,-1.999,2.488,41.0
23.83,-1.995,2.358,23.0
46.478,-3.883,4.341,4.0
24.569,-2.048,2.16,28.0
24.613,-2.047,2.03,25.0
23.81,-1.984,2.637,19.0
23.811,-1.98,2.506,43.0
23.831,-1.976,2.378,59.0
23.888,-1.976,2.25,35.0
23.968,-1.978,2.127,15.0
24.37,-2.007,2.029,25.0
30.873,-2.548,3.444,3.0
23.824,-1.961,2.527,51.0
23.826,-1.956,2.396,62.0
23.886,-1.957,2.268,61.0
23.929,-1.955,2.141,49.0
23.992,-1.956,2.016,26.0
30.867,-2.521,3.467,6.0
23.815,-1.94,2.543,24.0
23.835,-1.937,2.414,56.0
23.871,-1.935,2.285,63.0
23.912,-1.933,2.157,59.0
23.964,-1.933,2.03,47.0
30.837,-2.492,3.486,19.0
47.881,-3.859,5.149,3.0
23.85,-1.917,2.433,41.0
23.876,-1.914,2.302,42.0
23.911,-1.912,2.174,49.0
23.962,-1.911,2.047,54.0
30.872,-2.467,3.511,14.0
112.626,-8.975,12.188,22.0
23.854,-1.895,2.449,3.0
23.884,-1.893,2.318,12.0
23.912,-1.89,2.19,24.0
23.967,-1.889,2.063,34.0
45.9,-3.625,5.251,9.0
30.871,-2.431,3.36,0.0
38.978,-3.061,4.028,4.0
58.033,-4.544,5.67,5.0
23.953,-1.87,2.208,1.0
23.996,-1.868,2.08,24.0
36.87,-2.876,4.241,8.0
30.903,-2.403,3.383,36.0
39.038,-3.027,4.057,6.0
112.038,-8.663,11.015,19.0
47.361,-3.652,4.394,5.0
24.036,-1.848,2.097,21.0
36.869,-2.839,4.262,8.0
30.926,-2.374,3.403,17.0
47.207,-3.614,4.933,11.0
59.022,-4.504,5.835,5.0
47.184,-3.591,4.403,9.0
24.042,-1.824,2.111,1.0
36.89,-2.803,4.284,10.0
46.037,-3.488,5.091,14.0
39.006,-2.946,4.096,11.0
54.111,-4.074,5.377,0.0
47.08,-3.534,4.418,4.0
46.504,-3.48,4.107,3.0
112.638,-8.442,13.139,23.0
30.396,-2.271,3.376,7.0
30.973,-2.306,3.267,42.0
111.143,-8.252,11.098,23.0
47.983,-3.551,4.525,9.0
46.47,-3.429,4.125,3.0
30.422,-2.248,3.562,2.0
30.391,-2.238,3.389,31.0
30.987,-2.274,3.283,6.0
47.73,-3.493,4.786,4.0
59.42,-4.334,5.629,11.0
24.921,-1.812,2.222,6.0
30.413,-2.214,3.574,81.0
30.427,-2.208,3.405,64.0
36.312,-2.626,3.861,3.0
47.6,-3.431,4.792,5.0
47.062,-3.381,4.476,2.0
24.87,-1.781,2.227,21.0
30.408,-2.18,3.585,33.0
30.433,-2.175,3.417,60.0
36.266,-2.583,3.869,4.0
30.998,-2.2,3.131,39.0
24.977,-1.766,2.384,10.0
24.857,-1.752,2.234,33.0
47.288,-3.337,5.591,9.0
36.933,-2.597,4.159,9.0
30.42,-2.131,3.255,17.0
24.99,-1.745,2.532,24.0
24.964,-1.737,2.39,56.0
24.851,-1.723,2.241,35.0
32.025,-2.223,3.796,20.0
32.052,-2.216,3.619,7.0
25.032,-1.725,2.686,23.0
25.008,-1.717,2.54,65.0
24.978,-1.709,2.398,50.0
24.849,-1.694,2.247,20.0
32.038,-2.186,3.805,49.0
32.047,-2.179,3.626,23.0
25.041,-1.696,2.692,52.0
25.013,-1.688,2.547,46.0
24.999,-1.681,2.405,13.0
31.052,-2.08,2.815,23.0
31.959,-2.143,3.802,48.0
0.0,0.0,0.0,0.0
25.058,-1.667,2.699,44.0
38.924,-2.58,3.97,4.0
47.568,-3.142,4.586,5.0
28.43,-1.871,2.582,20.0
0.0,0.0,0.0,0.0
30.235,-1.983,3.431,49.0
25.092,-1.639,2.707,32.0
30.427,-1.98,3.108,37.0
45.153,-2.927,4.359,6.0
28.429,-1.836,2.585,19.0
0.0,0.0,0.0,0.0
30.226,-1.946,3.434,45.0
30.37,-1.947,3.279,21.0
30.454,-1.945,3.114,64.0
30.487,-1.939,2.946,1.0
28.423,-1.801,2.587,20.0
30.137,-1.91,3.596,39.0
25.221,-1.592,2.867,17.0
30.357,-1.908,3.279,38.0
30.451,-1.906,3.115,60.0
47.517,-2.964,4.593,4.0
28.427,-1.766,2.588,19.0
30.094,-1.87,3.592,46.0
25.197,-1.559,2.865,22.0
