X,Y,Z,Reflectivity
20.222,0.274,-0.651,25.0
20.22,0.27,-0.756,26.0
20.167,0.266,-0.861,15.0
18.572,0.241,-0.89,2.0
17.677,0.227,-0.94,3.0
20.198,0.257,-0.508,26.0
20.208,0.253,-0.613,29.0
20.21,0.25,-0.719,30.0
20.215,0.247,-0.827,23.0
18.557,0.223,-0.856,6.0
18.406,0.218,-0.945,4.0
20.188,0.237,-0.47,24.0
20.196,0.234,-0.575,33.0
20.218,0.231,-0.681,31.0
0.0,0.0,0.0,0.0
18.562,0.206,-0.821,150.0
18.511,0.202,-0.915,36.0
20.189,0.218,-0.432,28.0
20.182,0.215,-0.537,31.0
20.199,0.212,-0.643,29.0
0.0,0.0,0.0,0.0
18.512,0.188,-0.784,158.0
18.547,0.186,-0.882,54.0
20.18,0.2,-0.394,37.0
20.19,0.197,-0.499,29.0
20.193,0.194,-0.604,24.0
18.555,0.175,-0.653,27.0
18.518,0.172,-0.749,167.0
18.544,0.169,-0.846,63.0
20.181,0.183,-0.355,34.0
20.186,0.18,-0.46,28.0
20.182,0.176,-0.565,19.0
21.678,0.186,-0.722,151.0
18.573,0.157,-0.715,151.0
18.498,0.154,-0.808,158.0
20.182,0.166,-0.316,36.0
20.186,0.163,-0.421,25.0
20.19,0.16,-0.526,14.0
21.673,0.169,-0.679,24.0
21.628,0.165,-0.791,156.0
18.515,0.139,-0.773,157.0
20.179,0.15,-0.277,34.0
20.198,0.147,-0.382,27.0
20.207,0.144,-0.487,5.0
21.67,0.152,-0.637,26.0
21.575,0.148,-0.746,183.0
21.603,0.145,-0.86,59.0
20.181,0.134,-0.238,32.0
20.191,0.132,-0.343,27.0
20.152,0.129,-0.446,0.0
32.634,0.204,-0.895,0.0
21.681,0.133,-0.707,152.0
21.659,0.13,-0.819,152.0
20.186,0.119,-0.198,26.0
20.205,0.117,-0.302,25.0
41.853,0.237,-0.844,0.0
0.0,0.0,0.0,0.0
21.67,0.117,-0.663,7.0
21.637,0.114,-0.775,156.0
20.185,0.105,-0.157,34.0
20.187,0.103,-0.262,18.0
41.912,0.208,-0.76,1.0
0.0,0.0,0.0,0.0
31.208,0.148,-0.892,0.0
21.665,0.1,-0.731,47.0
20.196,0.092,-0.116,31.0
20.189,0.089,-0.221,14.0
20.189,0.087,-0.325,0.0
38.106,0.16,-0.815,0.0
32.42,0.133,-0.861,2.0
27.998,0.111,-0.888,0.0
20.211,0.079,-0.075,33.0
20.218,0.077,-0.18,26.0
52.964,0.196,-0.746,0.0
40.526,0.146,-0.784,0.0
33.232,0.116,-0.814,0.0
31.13,0.105,-0.924,0.0
20.213,0.067,-0.034,34.0
20.231,0.065,-0.139,26.0
20.22,0.063,-0.243,0.0
20.221,0.061,-0.349,0.0
20.217,0.059,-0.454,0.0
20.245,0.057,-0.559,1.0
20.228,0.055,0.006,17.0
20.229,0.054,-0.097,17.0
20.223,0.052,-0.201,51.0
20.231,0.05,-0.308,17.0
20.244,0.048,-0.412,26.0
33.221,0.076,-0.849,2.0
20.237,0.045,0.048,12.0
20.273,0.043,-0.055,74.0
20.265,0.041,-0.16,150.0
20.261,0.04,-0.266,150.0
20.261,0.038,-0.371,150.0
20.265,0.036,-0.475,150.0
20.149,0.035,0.09,29.0
20.244,0.033,-0.013,152.0
20.261,0.032,-0.117,151.0
20.255,0.03,-0.223,151.0
20.264,0.028,-0.328,151.0
20.265,0.027,-0.433,150.0
20.14,0.026,0.132,28.0
20.255,0.024,0.029,151.0
20.255,0.023,-0.075,152.0
20.262,0.021,-0.181,151.0
20.263,0.02,-0.286,150.0
20.263,0.018,-0.39,150.0
20.124,0.017,0.174,28.0
20.167,0.016,0.071,51.0
20.229,0.014,-0.032,154.0
20.265,0.013,-0.138,150.0
20.275,0.012,-0.243,73.0
20.244,0.01,-0.347,15.0
20.129,0.009,0.217,27.0
20.129,0.008,0.113,30.0
20.27,0.007,0.01,66.0
20.216,0.006,-0.095,20.0
20.23,0.005,-0.199,10.0
20.24,0.003,-0.304,5.0
20.121,0.002,0.26,27.0
20.117,0.001,0.156,28.0
20.152,0.0,0.052,27.0
20.191,0.0,-0.053,16.0
20.181,-0.001,-0.157,15.0
20.194,-0.002,-0.261,6.0
20.126,-0.003,0.302,29.0
20.113,-0.004,0.198,29.0
20.115,-0.005,0.095,32.0
20.134,-0.006,-0.01,14.0
20.177,-0.007,-0.113,21.0
20.178,-0.007,-0.217,2.0
20.125,-0.008,0.345,31.0
20.114,-0.009,0.241,26.0
20.128,-0.01,0.138,27.0
20.136,-0.011,0.033,27.0
20.17,-0.011,-0.07,21.0
20.179,-0.012,-0.174,23.0
20.136,-0.013,0.389,27.0
20.12,-0.014,0.285,27.0
20.113,-0.014,0.181,31.0
20.124,-0.015,0.076,36.0
20.12,-0.016,-0.027,28.0
20.153,-0.016,-0.13,25.0
20.129,-0.017,0.431,28.0
20.121,-0.018,0.328,29.0
20.113,-0.018,0.224,28.0
20.113,-0.019,0.119,31.0
20.134,-0.019,0.015,32.0
20.139,-0.019,-0.087,28.0
20.14,-0.02,0.475,27.0
20.131,-0.021,0.371,27.0
20.112,-0.021,0.267,25.0
20.104,-0.021,0.162,32.0
20.127,-0.022,0.058,40.0
20.12,-0.022,-0.044,33.0
20.153,-0.023,0.518,23.0
20.122,-0.023,0.414,28.0
20.121,-0.023,0.311,29.0
20.105,-0.023,0.205,33.0
20.128,-0.024,0.102,36.0
20.131,-0.024,-0.001,34.0
20.163,-0.025,0.562,22.0
20.129,-0.025,0.458,27.0
20.111,-0.025,0.353,28.0
20.116,-0.025,0.248,26.0
20.118,-0.025,0.145,32.0
20.139,-0.025,0.042,41.0
20.176,-0.026,0.606,19.0
20.133,-0.025,0.501,20.0
20.121,-0.025,0.397,26.0
20.115,-0.025,0.292,27.0
20.117,-0.025,0.189,35.0
20.127,-0.025,0.085,39.0
20.204,-0.026,0.65,27.0
20.141,-0.025,0.545,19.0
20.121,-0.025,0.441,27.0
20.11,-0.025,0.335,29.0
20.113,-0.025,0.231,28.0
20.115,-0.024,0.128,32.0
58.293,-0.074,2.001,22.0
20.157,-0.025,0.588,19.0
20.141,-0.024,0.484,24.0
20.126,-0.024,0.377,26.0
20.122,-0.024,0.274,25.0
20.114,-0.023,0.17,35.0
20.137,-0.024,0.734,25.0
20.191,-0.023,0.632,25.0
20.132,-0.023,0.526,19.0
20.119,-0.022,0.42,28.0
20.103,-0.022,0.316,30.0
20.118,-0.021,0.213,33.0
20.127,-0.022,0.776,27.0
20.195,-0.021,0.674,23.0
20.151,-0.02,0.569,19.0
20.128,-0.02,0.463,26.0
20.118,-0.019,0.359,27.0
20.122,-0.018,0.255,24.0
20.122,-0.019,0.819,28.0
20.132,-0.018,0.715,23.0
20.208,-0.017,0.614,21.0
20.147,-0.016,0.506,21.0
20.125,-0.016,0.402,26.0
20.122,-0.015,0.298,32.0
20.124,-0.015,0.861,25.0
20.125,-0.014,0.757,27.0
20.188,-0.013,0.656,30.0
20.157,-0.012,0.548,20.0
20.129,-0.011,0.444,27.0
20.113,-0.01,0.34,30.0
58.306,-0.033,2.617,180.0
20.127,-0.01,0.799,27.0
20.15,-0.009,0.696,22.0
20.166,-0.008,0.59,23.0
20.137,-0.007,0.486,24.0
20.124,-0.005,0.382,25.0
58.237,-0.018,2.736,255.0
20.119,-0.005,0.841,28.0
20.123,-0.003,0.737,28.0
20.18,-0.002,0.633,38.0
20.155,-0.001,0.528,22.0
20.13,0.0,0.423,28.0
59.118,-0.001,2.901,9.0
20.103,0.0,0.882,17.0
20.113,0.002,0.778,27.0
20.16,0.003,0.674,29.0
20.176,0.004,0.57,26.0
20.137,0.006,0.465,26.0
59.33,0.017,3.033,50.0
58.288,0.021,2.678,169.0
20.111,0.008,0.82,26.0
20.116,0.01,0.714,30.0
20.189,0.012,0.612,34.0
20.16,0.013,0.507,23.0
59.512,0.039,3.166,34.0
66.765,0.049,3.206,35.0
20.118,0.016,0.862,26.0
20.11,0.018,0.755,28.0
20.189,0.019,0.653,48.0
20.164,0.021,0.548,25.0
59.936,0.063,3.311,57.0
66.777,0.076,3.343,34.0
20.093,0.024,0.902,10.0
20.097,0.026,0.795,27.0
20.131,0.028,0.693,31.0
20.187,0.03,0.59,33.0
66.61,0.099,3.815,12.0
59.347,0.093,3.091,24.0
66.776,0.111,3.132,29.0
20.104,0.035,0.836,27.0
20.108,0.037,0.732,27.0
20.196,0.039,0.631,42.0
46.14,0.09,2.736,51.0
59.512,0.122,3.219,43.0
66.77,0.144,3.265,43.0
20.083,0.045,0.876,18.0
20.099,0.047,0.772,23.0
20.162,0.049,0.67,27.0
60.145,0.148,3.687,13.0
59.935,0.154,3.362,28.0
66.716,0.178,3.396,33.0
20.11,0.056,0.917,7.0
20.106,0.058,0.812,22.0
20.131,0.06,0.708,31.0
60.214,0.18,3.809,48.0
46.177,0.143,2.68,11.0
66.807,0.215,3.531,21.0
66.694,0.222,3.171,42.0
20.117,0.069,0.851,20.0
20.121,0.071,0.747,25.0
0.0,0.0,0.0,0.0
46.192,0.17,2.771,47.0
59.435,0.225,3.255,49.0
103.78,0.407,5.134,24.0
20.128,0.081,0.89,12.0
20.127,0.083,0.785,23.0
0.0,0.0,0.0,0.0
46.209,0.198,2.86,59.0
59.471,0.262,3.371,61.0
66.813,0.303,3.432,26.0
66.041,0.308,3.049,23.0
20.146,0.096,0.825,20.0
58.64,0.281,4.049,42.0
46.221,0.228,2.95,18.0
59.481,0.301,3.484,43.0
66.882,0.347,3.562,29.0
100.517,0.536,4.83,10.0
20.144,0.11,0.862,9.0
0.0,0.0,0.0,0.0
104.8,0.588,6.885,14.0
67.174,0.385,4.061,31.0
104.741,0.616,5.774,12.0
103.59,0.624,5.17,30.0
101.816,0.627,4.551,18.0
60.426,0.373,4.399,21.0
103.767,0.656,7.01,25.0
67.197,0.434,4.188,34.0
59.546,0.393,3.393,3.0
66.925,0.451,3.464,13.0
65.851,0.454,3.065,34.0
67.303,0.465,5.025,28.0
58.624,0.414,4.069,15.0
46.245,0.333,2.967,53.0
59.411,0.437,3.494,19.0
66.968,0.502,3.587,35.0
65.849,0.504,3.183,32.0
101.537,0.78,7.764,14.0
58.568,0.458,4.17,57.0
67.199,0.536,4.432,18.0
59.428,0.483,3.601,47.0
67.063,0.555,3.711,10.0
65.843,0.555,3.299,52.0
43.564,0.369,3.408,6.0
58.638,0.506,4.279,56.0
67.182,0.59,4.549,15.0
59.401,0.531,3.704,62.0
101.115,0.92,5.774,14.0
65.897,0.61,3.417,33.0
52.593,0.489,4.208,12.0
58.659,0.554,4.384,32.0
67.181,0.646,4.666,8.0
59.364,0.58,3.805,48.0
109.748,1.091,6.457,4.0
66.891,0.676,3.584,38.0
58.127,0.59,4.751,8.0
58.606,0.604,4.481,5.0
101.08,1.059,7.195,19.0
59.381,0.632,3.907,31.0
101.66,1.099,6.154,16.0
67.103,0.737,3.709,34.0
58.635,0.647,4.893,43.0
43.349,0.485,3.387,2.0
69.316,0.788,5.05,4.0
46.32,0.534,3.126,44.0
59.702,0.699,3.713,10.0
67.212,0.798,3.826,22.0
58.666,0.701,4.994,12.0
43.316,0.524,3.457,9.0
67.79,0.833,5.051,9.0
46.359,0.577,3.204,60.0
59.717,0.754,3.813,11.0
67.426,0.864,3.948,31.0
40.401,0.52,3.505,3.0
52.492,0.685,4.275,26.0
67.591,0.894,5.146,6.0
46.373,0.621,3.28,60.0
59.783,0.811,3.912,11.0
67.477,0.929,4.058,32.0
40.426,0.559,3.572,38.0
52.342,0.733,4.346,3.0
43.259,0.613,3.361,3.0
46.392,0.666,3.354,54.0
59.792,0.869,4.006,26.0
67.522,0.995,4.166,23.0
44.023,0.652,3.959,9.0
52.48,0.787,4.439,6.0
46.449,0.705,3.681,30.0
46.447,0.713,3.43,20.0
59.911,0.931,4.106,26.0
67.551,1.062,4.271,32.0
0.0,0.0,0.0,0.0
40.411,0.646,3.48,5.0
46.422,0.751,3.75,56.0
67.707,1.109,5.102,35.0
67.681,1.121,4.74,18.0
67.597,1.132,4.376,34.0
52.586,0.886,4.889,2.0
40.41,0.689,3.541,41.0
46.423,0.8,3.82,44.0
67.776,1.181,5.209,8.0
59.771,1.053,4.274,33.0
67.668,1.205,4.479,26.0
40.423,0.724,3.818,38.0
46.53,0.842,4.145,8.0
46.435,0.849,3.888,27.0
42.528,0.786,3.33,25.0
59.726,1.116,4.358,28.0
68.23,1.288,4.614,9.0
40.462,0.768,3.88,27.0
40.294,0.773,3.648,12.0
46.479,0.901,3.958,39.0
57.949,1.135,4.619,8.0
59.708,1.181,4.44,33.0
68.83,1.375,4.751,6.0
46.566,0.936,4.53,44.0
40.234,0.816,3.698,32.0
46.476,0.952,4.022,14.0
43.181,0.893,3.501,5.0
59.535,1.243,4.508,24.0
66.325,1.398,4.668,7.0
53.012,1.125,5.23,9.0
52.472,1.124,4.894,18.0
40.408,0.873,3.551,24.0
52.22,1.139,4.304,21.0
0.0,0.0,0.0,0.0
66.343,1.475,4.757,26.0
52.62,1.177,5.262,5.0
40.435,0.913,3.825,12.0
40.379,0.919,3.602,5.0
43.33,0.995,3.628,18.0
59.683,1.383,4.676,7.0
52.86,1.236,3.858,2.0
52.594,1.237,5.327,4.0
40.369,0.958,3.871,26.0
43.837,1.049,3.966,4.0
43.12,1.041,3.664,17.0
43.095,1.049,3.431,3.0
52.881,1.298,3.925,4.0
59.361,1.467,6.087,4.0
46.568,1.16,4.523,28.0
40.4,1.015,3.705,37.0
40.402,1.023,3.483,5.0
0.0,0.0,0.0,0.0
65.963,1.698,4.976,30.0
52.51,1.36,5.448,8.0
46.581,1.216,4.58,8.0
40.363,1.062,3.75,69.0
40.395,1.072,3.53,28.0
52.241,1.396,4.284,25.0
57.63,1.553,4.414,4.0
36.956,1.002,3.878,4.0
60.894,1.664,6.059,3.0
52.878,1.456,4.974,6.0
40.39,1.12,3.576,22.0
43.249,1.209,3.595,3.0
57.958,1.632,4.504,5.0
46.451,1.317,4.926,8.0
59.236,1.691,5.96,16.0
52.998,1.524,5.043,6.0
40.41,1.17,3.622,11.0
51.016,1.488,4.296,9.0
52.039,1.529,4.1,7.0
59.163,1.749,6.338,10.0
52.443,1.561,5.332,5.0
53.387,1.6,5.137,5.0
40.415,1.219,3.664,62.0
0.0,0.0,0.0,0.0
43.419,1.328,3.466,2.0
46.65,1.437,5.046,14.0
66.688,2.068,6.85,14.0
43.798,1.367,4.259,5.0
40.435,1.271,3.708,16.0
52.558,1.663,4.534,9.0
43.839,1.397,3.544,4.0
46.654,1.497,5.094,4.0
59.126,1.91,6.132,3.0
52.872,1.718,5.195,4.0
60.089,1.965,5.569,7.0
52.29,1.721,4.562,12.0
50.752,1.681,4.152,3.0
46.479,1.55,5.119,10.0
46.187,1.55,4.834,8.0
52.44,1.77,5.201,4.0
43.675,1.484,4.088,4.0
52.292,1.787,4.61,9.0
0.0,0.0,0.0,0.0
46.315,1.604,5.144,11.0
46.281,1.612,4.886,8.0
60.19,2.109,6.024,8.0
53.361,1.88,5.042,7.0
46.918,1.663,4.177,6.0
46.981,1.676,3.926,5.0
46.341,1.664,5.187,4.0
46.956,1.696,4.998,3.0
60.289,2.19,6.085,11.0
53.273,1.946,5.079,5.0
53.164,1.953,4.777,22.0
50.556,1.868,4.267,4.0
46.638,1.735,5.259,6.0
46.808,1.751,5.02,4.0
54.437,2.048,5.539,1.0
53.232,2.014,5.118,4.0
53.095,2.019,4.814,1.0
46.922,1.795,3.997,6.0
60.332,2.324,6.851,19.0
46.641,1.806,5.039,3.0
46.019,1.792,4.718,3.0
52.564,2.058,5.094,6.0
46.276,1.821,4.231,3.0
46.976,1.858,4.037,6.0
59.699,2.378,6.824,22.0
46.185,1.849,5.024,6.0
46.033,1.853,4.753,5.0
52.481,2.123,5.125,4.0
46.096,1.875,4.247,5.0
46.991,1.92,4.071,10.0
59.047,2.43,6.792,19.0
46.207,1.912,5.058,8.0
46.874,1.948,4.872,5.0
60.258,2.517,5.925,5.0
46.046,1.933,4.274,6.0
47.07,1.986,4.109,7.0
59.097,2.511,6.836,8.0
46.418,1.982,5.112,12.0
46.738,2.005,4.888,7.0
59.2,2.552,5.858,2.0
46.015,1.993,4.299,8.0
50.615,2.202,4.45,2.0
61.221,2.683,7.12,2.0
46.517,2.047,5.151,12.0
46.678,2.064,4.91,3.0
45.87,2.037,4.566,1.0
46.061,2.055,4.33,6.0
47.093,2.111,4.167,1.0
0.0,0.0,0.0,0.0
46.776,2.121,5.206,8.0
59.757,2.721,6.318,3.0
45.786,2.094,4.583,3.0
46.013,2.114,4.35,6.0
53.229,2.457,4.738,1.0
0.0,0.0,0.0,0.0
46.957,2.192,5.25,10.0
59.744,2.8,6.347,1.0
45.939,2.162,4.621,4.0
45.966,2.172,4.368,6.0
45.854,2.176,4.104,1.0
0.0,0.0,0.0,0.0
47.074,2.259,5.285,9.0
46.29,2.231,4.939,3.0
59.17,2.863,5.978,15.0
43.424,2.11,4.146,4.0
59.735,2.914,5.372,1.0
46.747,2.296,5.53,0.0
47.005,2.318,5.297,6.0
46.189,2.287,4.948,2.0
46.708,2.321,4.738,2.0
43.483,2.169,4.169,2.0
46.716,2.357,5.545,1.0
47.237,2.392,5.342,4.0
46.233,2.35,4.969,7.0
46.711,2.383,4.755,3.0
45.619,2.336,4.39,3.0
45.959,2.363,4.167,3.0
60.433,3.129,7.193,6.0
47.274,2.456,5.362,4.0
46.257,2.412,4.987,13.0
59.271,3.101,6.053,4.0
45.71,2.4,4.413,3.0
45.933,2.421,4.179,7.0
60.437,3.208,7.212,0.0
47.333,2.521,5.382,4.0
45.995,2.459,4.972,15.0
46.635,2.501,4.775,1.0
45.669,2.458,4.421,3.0
45.691,2.467,4.168,3.0
60.443,3.288,7.228,2.0
47.126,2.572,5.37,3.0
46.24,2.532,5.009,10.0
52.382,2.878,5.376,2.0
45.655,2.517,4.43,5.0
45.365,2.509,4.148,2.0
0.0,0.0,0.0,0.0
47.048,2.629,5.371,3.0
46.252,2.593,5.019,8.0
46.485,2.614,4.779,1.0
45.629,2.574,4.435,11.0
45.744,2.608,5.487,7.0
47.217,2.699,5.397,2.0
46.189,2.649,5.019,8.0
45.699,2.636,4.448,3.0
45.913,2.658,4.212,1.0
47.821,2.787,5.742,3.0
47.192,2.759,5.399,2.0
46.191,2.708,5.024,7.0
45.381,2.668,4.676,3.0
45.734,2.697,4.456,5.0
45.912,2.716,4.215,3.0
0.0,0.0,0.0,0.0
47.008,2.808,5.382,3.0
46.206,2.768,5.029,4.0
45.748,2.756,4.459,11.0
0.0,0.0,0.0,0.0
0.0,0.0,0.0,0.0
47.16,2.877,5.4,2.0
46.221,2.827,5.031,1.0
45.721,2.812,4.456,9.0
0.0,0.0,0.0,0.0
47.181,2.937,5.401,2.0
0.0,0.0,0.0,0.0
45.652,2.864,4.447,12.0
0.0,0.0,0.0,0.0
47.154,2.993,5.395,1.0
0.0,0.0,0.0,0.0
45.606,2.917,4.439,10.0
45.567,2.922,4.178,1.0
0.0,0.0,0.0,0.0
0.0,0.0,0.0,0.0
0.0,0.0,0.0,0.0
45.507,2.966,4.423,12.0
47.594,3.11,4.357,3.0
0.0,0.0,0.0,0.0
46.256,3.049,5.279,2.0
0.0,0.0,0.0,0.0
45.517,3.021,4.416,7.0
45.558,3.031,4.162,2.0
47.282,3.167,5.656,0.0
46.222,3.102,5.266,3.0
0.0,0.0,0.0,0.0
45.623,3.082,4.416,7.0
47.431,3.211,4.323,1.0
0.0,0.0,0.0,0.0
46.138,3.151,5.245,1.0
0.0,0.0,0.0,0.0
45.644,3.137,4.406,2.0
0.0,0.0,0.0,0.0
0.0,0.0,0.0,0.0
0.0,0.0,0.0,0.0
47.809,3.339,4.601,3.0
46.15,3.25,5.482,1.0
0.0,0.0,0.0,0.0
0.0,0.0,0.0,0.0
45.633,3.244,4.116,3.0
0.0,0.0,0.0,0.0
0.0,0.0,0.0,0.0
46.228,3.319,4.946,1.0
45.274,3.256,4.581,2.0
45.652,3.296,4.1,1.0
0.0,0.0,0.0,0.0
0.0,0.0,0.0,0.0
0.0,0.0,0.0,0.0
47.327,3.461,4.499,1.0
0.0,0.0,0.0,0.0
0.0,0.0,0.0,0.0
0.0,0.0,0.0,0.0
45.544,3.373,4.568,4.0
47.412,3.517,4.485,1.0
0.0,0.0,0.0,0.0
0.0,0.0,0.0,0.0
0.0,0.0,0.0,0.0
45.529,3.419,4.543,1.0
0.0,0.0,0.0,0.0
0.0,0.0,0.0,0.0
0.0,0.0,0.0,0.0
0.0,0.0,0.0,0.0
45.381,3.508,3.959,1.0
0.0,0.0,0.0,0.0
0.0,0.0,0.0,0.0
45.412,3.54,4.717,3.0
0.0,0.0,0.0,0.0
0.0,0.0,0.0,0.0
45.421,3.583,4.688,1.0
116.192,9.177,11.315,3.0
116.021,9.185,9.972,2.0
0.0,0.0,0.0,0.0
0.0,0.0,0.0,0.0
0.0,0.0,0.0,0.0
46.012,3.675,4.448,1.0
0.0,0.0,0.0,0.0
112.179,8.981,9.563,6.0
45.172,3.636,5.119,2.0
45.232,3.645,4.864,4.0
0.0,0.0,0.0,0.0
46.119,3.723,4.425,1.0
115.847,9.363,10.453,5.0
116.216,9.404,9.821,5.0
45.09,3.668,5.075,0.0
0.0,0.0,0.0,0.0
0.0,0.0,0.0,0.0
116.143,9.474,11.056,11.0
116.059,9.477,10.382,6.0
116.285,9.506,9.737,10.0
0.0,0.0,0.0,0.0
0.0,0.0,0.0,0.0
0.0,0.0,0.0,0.0
114.541,9.436,10.811,5.0
0.0,0.0,0.0,0.0
117.831,9.726,9.771,9.0
0.0,0.0,0.0,0.0
115.002,9.547,12.096,3.0
0.0,0.0,0.0,0.0
115.414,9.598,10.797,11.0
112.79,9.387,9.905,11.0
112.764,9.394,9.256,1.0
0.0,0.0,0.0,0.0
0.0,0.0,0.0,0.0
0.0,0.0,0.0,0.0
115.913,9.725,10.743,3.0
115.572,9.704,10.049,10.0
112.712,9.471,9.154,6.0
0.0,0.0,0.0,0.0
0.0,0.0,0.0,0.0
46.024,3.891,4.494,0.0
115.812,9.798,10.63,2.0
115.649,9.792,9.951,2.0
115.51,9.787,9.276,7.0
0.0,0.0,0.0,0.0
114.918,9.789,11.778,7.0
0.0,0.0,0.0,0.0
0.0,0.0,0.0,0.0
109.758,9.366,9.342,1.0
96.512,8.241,7.661,5.0
0.0,0.0,0.0,0.0
115.005,9.872,11.675,5.0
115.243,9.897,11.035,4.0
109.846,9.444,9.242,2.0
96.496,8.302,7.565,6.0
0.0,0.0,0.0,0.0
115.102,9.951,11.572,3.0
114.988,9.945,10.897,2.0
115.049,9.956,10.228,4.0
114.983,9.954,9.561,24.0
96.476,8.356,7.469,11.0
115.078,10.012,12.119,9.0
114.869,9.997,11.433,18.0
114.955,10.008,10.777,20.0
114.974,10.014,10.104,17.0
114.836,10.006,9.432,4.0
96.517,8.414,7.373,6.0
0.0,0.0,0.0,0.0
114.964,10.067,11.323,6.0
114.859,10.061,10.648,8.0
114.766,10.057,9.966,4.0
109.471,9.596,8.877,4.0
96.666,8.477,7.283,7.0
0.0,0.0,0.0,0.0
114.971,10.126,11.2,2.0
115.942,10.214,10.624,4.0
113.964,10.043,9.774,7.0
98.081,8.646,7.846,2.0
96.666,8.524,7.178,6.0
114.696,10.155,11.711,2.0
115.172,10.198,11.092,3.0
114.927,10.178,10.405,2.0
109.695,9.717,9.286,3.0
109.72,9.722,8.657,2.0
96.741,8.574,7.076,6.0
114.901,10.223,11.602,3.0
0.0,0.0,0.0,0.0
114.99,10.233,10.281,3.0
0.0,0.0,0.0,0.0
109.626,9.76,8.524,7.0
96.527,8.596,6.95,2.0
115.079,10.285,11.487,2.0
114.674,10.249,10.782,11.0
114.69,10.251,10.12,2.0
86.236,7.708,7.103,1.0
84.796,7.581,6.495,5.0
109.761,9.815,7.776,4.0
114.76,10.298,11.319,9.0
99.226,8.904,9.211,3.0
106.834,9.586,9.3,1.0
99.248,8.906,8.056,3.0
84.837,7.613,6.398,4.0
109.747,9.849,7.646,10.0
0.0,0.0,0.0,0.0
85.041,7.658,7.792,3.0
86.169,7.758,7.398,1.0
99.232,8.934,7.936,5.0
84.785,7.634,6.291,4.0
97.448,8.775,6.67,4.0
0.0,0.0,0.0,0.0
85.067,7.683,7.69,3.0
108.124,9.764,9.15,8.0
108.154,9.766,8.517,4.0
84.817,7.659,6.19,5.0
97.229,8.779,6.537,3.0
0.0,0.0,0.0,0.0
85.143,7.709,7.593,3.0
108.048,9.782,9.01,3.0
108.048,9.78,8.375,4.0
84.857,7.681,6.087,6.0
84.966,7.69,5.606,1.0
111.14,10.088,10.414,1.0
85.074,7.719,7.478,2.0
108.008,9.799,8.869,2.0
107.961,9.792,8.23,5.0
84.869,7.696,5.981,4.0
109.887,9.964,7.112,2.0
111.225,10.113,10.279,2.0
99.077,9.005,8.582,3.0
91.739,8.336,7.415,2.0
96.304,8.748,7.218,2.0
91.85,8.341,6.355,3.0
110.003,9.989,6.977,5.0
115.075,10.476,10.484,3.0
107.031,9.739,9.132,2.0
97.986,8.913,7.793,4.0
107.883,9.811,7.945,5.0
91.809,8.346,6.232,5.0
110.08,10.005,6.838,4.0
114.972,10.475,10.322,2.0
97.9,8.915,8.223,4.0
97.912,8.912,7.658,8.0
95.779,8.715,6.928,1.0
97.438,8.863,6.485,2.0
78.376,7.127,4.765,4.0
85.111,7.757,7.528,2.0
97.994,8.926,8.099,4.0
97.997,8.922,7.532,10.0
84.851,7.721,6.024,4.0
84.955,7.728,5.541,3.0
78.333,7.124,4.657,3.0
99.278,9.046,8.646,4.0
86.08,7.839,6.998,1.0
100.501,9.147,7.588,3.0
84.927,7.726,5.912,5.0
110.131,10.014,7.033,3.0
86.704,7.881,5.037,1.0
97.963,8.921,8.397,3.0
91.745,8.35,7.332,2.0
107.9,9.814,7.999,5.0
91.735,8.339,6.261,4.0
110.062,9.999,6.878,5.0
88.991,8.081,5.048,3.0
86.046,7.827,7.255,1.0
97.978,8.906,7.692,10.0
107.873,9.799,7.846,5.0
83.818,7.609,5.604,2.0
78.334,7.107,4.785,5.0
91.714,8.317,5.074,3.0
108.107,9.818,8.963,2.0
108.056,9.805,8.334,5.0
84.768,7.687,6.046,6.0
84.955,7.698,5.561,3.0
78.322,7.093,4.676,6.0
85.686,7.755,4.622,3.0
86.053,7.799,7.014,1.0
96.575,8.745,7.313,2.0
91.826,8.308,6.421,4.0
109.766,9.925,7.031,6.0
87.927,7.944,5.125,2.0
97.099,8.767,5.101,4.0
99.245,8.972,7.947,5.0
96.691,8.733,7.184,5.0
83.861,7.567,5.746,1.0
90.229,8.136,5.652,3.0
91.666,8.259,5.213,4.0
97.468,8.775,4.982,5.0
97.945,8.826,7.704,2.0
97.013,8.734,7.069,3.0
107.502,9.67,7.211,3.0
78.302,7.037,4.793,3.0
84.083,7.55,4.662,4.0
106.739,9.578,5.303,3.0
98.367,8.833,7.595,3.0
109.725,9.843,7.838,15.0
98.621,8.838,6.474,2.0
78.213,7.002,4.675,3.0
85.799,7.675,4.633,4.0
111.331,9.95,5.371,6.0
109.693,9.809,8.311,7.0
97.421,8.702,6.817,2.0
90.203,8.049,5.791,2.0
86.92,7.749,5.069,3.0
86.273,7.683,4.535,4.0
108.111,9.619,5.061,5.0
96.53,8.593,7.173,12.0
97.309,8.652,6.669,2.0
85.247,7.571,5.35,3.0
84.232,7.473,4.792,6.0
97.209,8.616,4.97,4.0
87.35,7.734,3.963,7.0
0.0,0.0,0.0,0.0
107.38,9.498,7.203,4.0
98.224,8.678,6.022,3.0
117.545,10.373,6.517,10.0
88.834,7.83,4.413,1.0
99.753,8.784,4.382,5.0
0.0,0.0,0.0,0.0
109.289,9.611,7.173,7.0
86.839,7.628,5.198,3.0
85.931,7.539,4.64,6.0
97.791,8.569,4.717,2.0
120.756,10.57,5.13,9.0
85.041,7.443,5.949,1.0
91.828,8.025,5.893,4.0
91.414,7.979,5.338,8.0
89.098,7.766,4.68,4.0
87.367,7.607,4.087,8.0
99.779,8.677,4.094,2.0
107.505,9.345,7.362,9.0
111.748,9.7,7.008,8.0
84.898,7.359,4.834,4.0
97.144,8.409,4.961,4.0
87.375,7.554,3.96,6.0
108.218,9.345,4.282,2.0
85.258,7.357,5.714,3.0
97.681,8.416,5.982,5.0
91.927,7.909,5.1,3.0
97.059,8.34,4.817,6.0
143.53,12.316,6.298,13.0
121.108,10.377,4.618,9.0
85.459,7.317,5.603,6.0
91.617,7.832,5.478,4.0
109.76,9.368,5.931,4.0
87.799,7.483,4.229,6.0
109.781,9.344,4.657,5.0
143.867,12.227,5.278,19.0
97.895,8.311,6.276,10.0
99.007,8.392,5.776,2.0
92.421,7.821,4.86,3.0
87.406,7.385,4.084,7.0
98.922,8.346,4.054,4.0
144.08,12.139,5.077,8.0
115.991,9.76,7.269,7.0
84.958,7.137,4.833,1.0
96.777,8.116,4.949,4.0
99.234,8.308,4.495,5.0
143.557,12.001,5.677,25.0
157.018,13.105,5.307,7.0
91.379,7.616,5.594,10.0
91.961,7.65,5.1,5.0
96.892,8.047,4.816,6.0
99.264,8.229,4.353,6.0
143.88,11.908,5.482,10.0
162.756,13.448,5.267,10.0
91.673,7.562,5.478,4.0
92.377,7.606,4.989,6.0
87.639,7.203,4.23,6.0
109.975,9.023,4.664,3.0
154.766,12.675,5.674,13.0
167.834,13.721,5.19,20.0
99.162,8.091,5.783,2.0
107.852,8.783,5.67,3.0
96.685,7.859,4.527,3.0
99.854,8.101,4.092,4.0
193.461,15.666,6.817,5.0
160.794,12.999,4.744,9.0
109.135,8.804,6.21,2.0
87.402,7.036,4.47,5.0
110.206,8.855,5.004,2.0
0.0,0.0,0.0,0.0
193.634,15.497,6.551,6.0
154.937,12.378,4.354,16.0
107.726,8.586,5.978,7.0
96.717,7.692,4.811,6.0
99.275,7.88,4.368,3.0
0.0,0.0,0.0,0.0
154.679,12.226,5.015,14.0
155.127,12.239,4.142,14.0
92.172,7.253,4.986,1.0
96.832,7.603,4.681,5.0
110.019,8.62,4.686,3.0
107.16,8.378,3.939,1.0
167.307,13.052,5.191,14.0
155.54,12.111,3.936,24.0
100.092,7.771,5.273,4.0
120.03,9.298,5.635,7.0
157.112,12.142,6.474,5.0
154.571,11.919,5.466,14.0
172.696,13.287,5.117,6.0
155.729,11.955,3.723,12.0
0.0,0.0,0.0,0.0
107.686,8.223,4.905,3.0
156.768,11.942,6.242,4.0
174.751,13.28,5.938,4.0
156.969,11.9,4.435,27.0
156.175,11.812,3.518,28.0
108.121,8.152,5.396,2.0
96.357,7.247,4.256,4.0
154.261,11.572,5.93,4.0
163.577,12.243,5.335,22.0
166.747,12.45,4.486,13.0
168.162,12.525,3.561,8.0
0.0,0.0,0.0,0.0
110.258,8.163,4.721,6.0
0.0,0.0,0.0,0.0
166.609,12.272,5.209,22.0
156.069,11.466,3.986,9.0
168.189,12.325,3.334,15.0
107.677,7.862,5.082,1.0
0.0,0.0,0.0,0.0
166.319,12.077,5.944,14.0
155.003,11.224,4.636,8.0
167.029,12.063,4.042,5.0
173.864,12.525,3.214,20.0
107.4,7.706,4.924,2.0
161.586,11.561,6.485,6.0
153.699,10.967,5.289,8.0
171.97,12.236,4.917,13.0
172.518,12.241,3.948,15.0
173.653,12.287,2.982,16.0
121.672,8.574,5.42,2.0
109.446,7.69,4.25,2.0
155.852,10.92,5.161,18.0
161.689,11.295,4.414,22.0
174.141,12.129,3.759,21.0
210.369,14.61,3.341,5.0
110.027,7.609,4.759,1.0
156.055,10.757,5.857,5.0
161.836,11.123,5.15,18.0
167.939,11.507,4.368,10.0
0.0,0.0,0.0,0.0
0.0,0.0,0.0,0.0
110.567,7.495,4.64,4.0
162.012,10.946,5.873,6.0
173.211,11.665,5.291,5.0
178.811,12.003,4.423,8.0
0.0,0.0,0.0,0.0
0.0,0.0,0.0,0.0
156.893,10.417,6.386,3.0
161.955,10.716,5.668,8.0
178.319,11.757,5.221,7.0
173.923,11.429,4.084,18.0
0.0,0.0,0.0,0.0
199.87,13.049,2.416,5.0
0.0,0.0,0.0,0.0
162.683,10.528,5.491,4.0
0.0,0.0,0.0,0.0
195.356,12.556,4.347,5.0
202.764,12.985,3.357,6.0
0.0,0.0,0.0,0.0
154.57,9.812,5.91,3.0
0.0,0.0,0.0,0.0
0.0,0.0,0.0,0.0
197.981,12.432,4.168,9.0
0.0,0.0,0.0,0.0
207.412,12.932,2.006,21.0
0.0,0.0,0.0,0.0
166.259,10.265,5.211,4.0
195.77,12.043,5.022,7.0
0.0,0.0,0.0,0.0
0.0,0.0,0.0,0.0
0.0,0.0,0.0,0.0
0.0,0.0,0.0,0.0
0.0,0.0,0.0,0.0
195.8,11.741,4.794,11.0
0.0,0.0,0.0,0.0
208.157,12.382,2.707,16.0
197.469,11.7,1.447,25.0
162.586,9.571,5.642,3.0
194.917,11.427,5.654,6.0
0.0,0.0,0.0,0.0
0.0,0.0,0.0,0.0
0.0,0.0,0.0,0.0
197.451,11.383,1.221,28.0
192.939,11.049,6.476,8.0
194.693,11.1,5.429,6.0
0.0,0.0,0.0,0.0
0.0,0.0,0.0,0.0
0.0,0.0,0.0,0.0
196.118,10.985,0.994,17.0
195.888,10.897,6.357,15.0
196.074,10.855,5.248,44.0
196.07,10.805,4.136,58.0
196.07,10.754,3.003,34.0
196.085,10.707,1.892,42.0
0.0,0.0,0.0,0.0
193.719,10.453,6.077,6.0
0.0,0.0,0.0,0.0
197.868,10.574,3.962,6.0
0.0,0.0,0.0,0.0
197.108,10.429,1.691,19.0
0.0,0.0,0.0,0.0
193.956,10.136,5.878,19.0
197.303,10.257,4.86,10.0
0.0,0.0,0.0,0.0
0.0,0.0,0.0,0.0
197.076,10.09,1.486,38.0
0.0,0.0,0.0,0.0
194.065,9.808,5.682,32.0
195.968,9.85,4.627,6.0
197.615,9.879,3.547,6.0
197.814,9.837,2.41,22.0
197.076,9.748,1.287,27.0
0.0,0.0,0.0,0.0
193.922,9.463,5.484,12.0
0.0,0.0,0.0,0.0
0.0,0.0,0.0,0.0
0.0,0.0,0.0,0.0
197.144,9.404,1.094,29.0
0.0,0.0,0.0,0.0
0.0,0.0,0.0,0.0
195.737,9.148,4.237,6.0
206.374,9.588,3.301,12.0
0.0,0.0,0.0,0.0
197.015,9.045,0.905,36.0
0.0,0.0,0.0,0.0
193.898,8.765,5.11,8.0
195.538,8.782,4.048,13.0
195.501,8.727,2.943,24.0
195.495,8.672,1.82,50.0
195.525,8.617,0.716,37.0
0.0,0.0,0.0,0.0
192.703,8.361,4.904,15.0
0.0,0.0,0.0,0.0
0.0,0.0,0.0,0.0
196.664,8.363,1.654,23.0
196.899,8.319,0.546,5.0
0.0,0.0,0.0,0.0
0.0,0.0,0.0,0.0
0.0,0.0,0.0,0.0
199.214,8.16,2.646,9.0
196.59,7.994,1.483,24.0
0.0,0.0,0.0,0.0
0.0,0.0,0.0,0.0
196.659,7.799,4.661,8.0
0.0,0.0,0.0,0.0
199.405,7.793,2.48,9.0
196.626,7.624,1.318,9.0
0.0,0.0,0.0,0.0
0.0,0.0,0.0,0.0
0.0,0.0,0.0,0.0
203.379,7.619,3.509,7.0
203.155,7.548,2.361,7.0
196.398,7.239,1.156,31.0
0.0,0.0,0.0,0.0
0.0,0.0,0.0,0.0
195.358,7.003,4.315,8.0
202.755,7.207,3.338,25.0
202.807,7.145,2.198,29.0
196.328,6.86,1.005,34.0
0.0,0.0,0.0,0.0
0.0,0.0,0.0,0.0
195.146,6.615,4.162,20.0
195.05,6.55,3.064,17.0
0.0,0.0,0.0,0.0
196.32,6.475,0.859,27.0
0.0,0.0,0.0,0.0
0.0,0.0,0.0,0.0
193.944,6.195,3.996,18.0
195.708,6.191,2.933,6.0
196.284,6.148,1.84,6.0
196.19,6.082,0.718,18.0
0.0,0.0,0.0,0.0
69.018,2.097,-0.521,5.0
193.572,5.801,3.854,27.0
195.51,5.797,2.796,21.0
195.881,5.747,1.702,12.0
0.0,0.0,0.0,0.0
0.0,0.0,0.0,0.0
68.945,1.958,-0.566,2.0
193.435,5.411,3.723,39.0
195.323,5.401,2.666,27.0
103.197,2.822,0.83,6.0
0.0,0.0,0.0,0.0
0.0,0.0,0.0,0.0
0.0,0.0,0.0,0.0
193.551,5.025,3.604,35.0
195.135,5.003,2.542,8.0
103.052,2.61,0.765,8.0
100.193,2.505,0.173,3.0
0.0,0.0,0.0,0.0
0.0,0.0,0.0,0.0
193.856,4.64,3.495,19.0
0.0,0.0,0.0,0.0
0.0,0.0,0.0,0.0
100.119,2.299,0.116,9.0
0.0,0.0,0.0,0.0
0.0,0.0,0.0,0.0
194.202,4.246,3.392,5.0
103.122,2.221,1.225,3.0
99.981,2.12,0.629,3.0
99.975,2.087,0.061,5.0
0.0,0.0,0.0,0.0
0.0,0.0,0.0,0.0
194.501,3.853,3.296,4.0
103.176,2.009,1.172,15.0
99.946,1.913,0.578,5.0
100.151,1.884,0.01,1.0
0.0,0.0,0.0,0.0
0.0,0.0,0.0,0.0
194.89,3.458,3.208,32.0
0.0,0.0,0.0,0.0
99.83,1.703,0.53,6.0
99.782,1.668,-0.036,3.0
0.0,0.0,0.0,0.0
0.0,0.0,0.0,0.0
194.737,3.048,3.117,35.0
0.0,0.0,0.0,0.0
99.678,1.493,0.485,6.0
99.841,1.46,-0.079,1.0
0.0,0.0,0.0,0.0
0.0,0.0,0.0,0.0
20.309,0.275,0.316,6.0
20.302,0.268,0.203,0.0
99.605,1.283,0.445,5.0
99.696,1.25,-0.118,1.0
0.0,0.0,0.0,0.0
20.202,0.239,-0.248,22.0
20.288,0.232,0.308,29.0
20.3,0.225,0.196,26.0
20.326,0.219,0.083,28.0
20.314,0.211,-0.031,7.0
20.203,0.203,-0.143,13.0
20.177,0.196,-0.255,29.0
20.279,0.189,0.301,30.0
20.285,0.183,0.189,27.0
20.266,0.175,0.076,27.0
20.211,0.168,-0.037,23.0
20.183,0.161,-0.149,27.0
20.174,0.153,-0.261,35.0
20.174,0.146,0.293,26.0
20.178,0.139,0.182,26.0
20.19,0.132,0.07,29.0
20.187,0.125,-0.043,31.0
20.177,0.117,-0.155,33.0
20.205,0.11,-0.267,25.0
20.154,0.102,0.288,29.0
20.148,0.095,0.176,28.0
20.2,0.088,0.065,37.0
20.198,0.081,-0.048,30.0
20.209,0.074,-0.16,26.0
20.293,0.067,-0.273,0.0
20.142,0.059,0.283,29.0
20.142,0.052,0.171,27.0
20.207,0.045,0.06,12.0
20.26,0.038,-0.053,150.0
20.25,0.031,-0.165,151.0
20.269,0.024,-0.277,150.0
20.133,0.016,0.279,29.0
20.127,0.009,0.167,27.0
20.154,0.002,0.056,23.0
20.162,-0.004,-0.056,19.0
20.173,-0.012,-0.168,21.0
20.163,-0.019,-0.279,17.0
20.116,-0.026,0.275,28.0
20.125,-0.033,0.164,36.0
20.139,-0.04,0.053,40.0
20.144,-0.048,-0.059,32.0
20.151,-0.055,-0.17,33.0
20.15,-0.062,-0.281,30.0
20.123,-0.069,0.273,28.0
20.121,-0.076,0.162,27.0
20.132,-0.084,0.051,33.0
20.144,-0.091,-0.061,28.0
20.149,-0.098,-0.172,30.0
20.137,-0.106,-0.283,36.0
20.128,-0.112,0.272,19.0
20.141,-0.12,0.161,18.0
20.147,-0.127,0.05,24.0
20.165,-0.134,-0.062,19.0
20.154,-0.142,-0.173,14.0
20.154,-0.149,-0.284,28.0
66.501,-0.515,0.895,14.0
64.269,-0.521,0.512,2.0
53.356,-0.453,0.131,9.0
56.252,-0.497,-0.176,6.0
53.087,-0.489,-0.458,3.0
44.857,-0.43,-0.634,10.0
64.344,-0.638,0.866,32.0
64.333,-0.66,0.512,24.0
56.207,-0.597,0.138,1.0
56.283,-0.619,-0.176,1.0
53.001,-0.603,-0.457,5.0
44.871,-0.526,-0.633,10.0
20.137,-0.242,0.271,10.0
20.147,-0.25,0.161,10.0
59.538,-0.76,0.149,54.0
59.523,-0.782,-0.183,6.0
53.008,-0.716,-0.454,7.0
44.752,-0.62,-0.628,15.0
20.127,-0.285,0.272,12.0
20.112,-0.292,0.162,15.0
20.138,-0.299,0.052,31.0
59.535,-0.908,-0.178,9.0
52.942,-0.826,-0.448,21.0
44.874,-0.717,-0.626,10.0
176.652,-2.877,2.414,101.0
20.153,-0.335,0.165,3.0
20.145,-0.342,0.054,27.0
20.116,-0.349,-0.057,9.0
52.909,-0.938,-0.441,36.0
44.882,-0.812,-0.62,10.0
193.105,-3.553,2.666,25.0
52.965,-0.993,0.441,47.0
52.954,-1.013,0.151,58.0
52.936,-1.033,-0.143,20.0
45.526,-0.905,-0.372,10.0
38.356,-0.776,-0.523,22.0
38.391,-0.788,0.537,34.0
38.382,-0.802,0.327,50.0
38.398,-0.816,0.117,11.0
40.421,-0.874,-0.101,26.0
40.42,-0.889,-0.322,32.0
40.401,-0.903,-0.542,34.0
40.407,-0.915,0.574,49.0
40.409,-0.929,0.353,40.0
40.419,-0.945,0.132,38.0
40.416,-0.959,-0.091,35.0
0.0,0.0,0.0,0.0
38.587,-0.945,-0.508,27.0
0.0,0.0,0.0,0.0
38.7,-0.972,0.348,35.0
38.687,-0.985,0.137,39.0
38.668,-0.999,-0.077,36.0
38.687,-1.014,-0.288,52.0
38.577,-1.025,-0.497,24.0
38.649,-1.037,0.57,68.0
38.649,-1.051,0.359,70.0
38.646,-1.065,0.148,68.0
38.66,-1.08,-0.065,80.0
38.644,-1.094,-0.275,63.0
38.602,-1.106,-0.485,34.0
38.641,-1.118,0.582,102.0
38.634,-1.131,0.372,72.0
38.644,-1.146,0.161,67.0
38.637,-1.16,-0.052,67.0
38.644,-1.174,-0.262,59.0
38.598,-1.188,-0.471,30.0
38.645,-1.199,0.596,66.0
38.661,-1.214,0.386,64.0
38.684,-1.228,0.176,53.0
38.696,-1.243,-0.037,47.0
38.705,-1.257,-0.247,36.0
38.657,-1.27,-0.457,24.0
38.726,-1.281,0.613,3.0
83.38,-2.789,0.868,14.0
80.605,-2.726,0.401,32.0
81.29,-2.778,-0.044,34.0
56.707,-1.959,-0.338,0.0
45.13,-1.575,-0.514,19.0
31.375,-1.102,0.51,6.0
83.711,-2.971,0.908,23.0
31.356,-1.124,0.17,3.0
31.339,-1.135,-0.002,8.0
31.343,-1.146,-0.172,40.0
31.347,-1.158,-0.342,25.0
31.271,-1.162,0.523,43.0
31.257,-1.172,0.354,49.0
31.24,-1.183,0.184,40.0
28.45,-1.087,0.011,27.0
28.469,-1.098,-0.142,66.0
28.473,-1.109,-0.297,65.0
28.457,-1.114,0.49,76.0
28.436,-1.123,0.336,89.0
28.443,-1.134,0.182,150.0
28.446,-1.145,0.026,152.0
28.446,-1.154,-0.127,116.0
28.447,-1.165,-0.281,102.0
28.442,-1.171,0.505,114.0
28.442,-1.18,0.352,117.0
28.434,-1.19,0.198,94.0
28.437,-1.2,0.041,70.0
28.445,-1.211,-0.112,62.0
28.462,-1.222,-0.265,60.0
28.463,-1.228,0.522,56.0
31.223,-1.358,0.404,25.0
31.236,-1.369,0.236,47.0
31.209,-1.379,0.064,46.0
31.217,-1.391,-0.104,65.0
31.189,-1.401,-0.272,54.0
31.343,-1.414,0.594,4.0
31.319,-1.424,0.425,20.0
31.302,-1.434,0.256,14.0
31.265,-1.443,0.084,29.0
31.249,-1.453,-0.084,35.0
31.21,-1.463,-0.252,42.0
84.849,-3.994,1.664,15.0
82.97,-3.934,1.18,37.0
79.822,-3.812,0.705,13.0
68.776,-3.309,0.23,0.0
68.969,-3.342,-0.14,0.0
31.317,-1.528,-0.232,5.0
84.618,-4.145,1.717,32.0
82.94,-4.092,1.236,43.0
67.655,-3.361,0.644,0.0
0.0,0.0,0.0,0.0
66.891,-3.369,-0.089,0.0
57.391,-2.91,-0.386,5.0
85.151,-4.332,1.787,34.0
82.841,-4.243,1.293,25.0
0.0,0.0,0.0,0.0
0.0,0.0,0.0,0.0
66.055,-3.451,-0.04,0.0
65.573,-3.448,-0.393,4.0
84.474,-4.455,1.835,52.0
85.896,-4.559,1.404,1.0
65.951,-3.523,0.724,0.0
0.0,0.0,0.0,0.0
0.0,0.0,0.0,0.0
24.585,-1.338,-0.128,10.0
83.579,-4.564,1.88,37.0
24.552,-1.348,0.42,0.0
24.596,-1.359,0.289,15.0
24.56,-1.365,0.154,26.0
24.573,-1.374,0.022,32.0
24.545,-1.381,-0.108,44.0
24.612,-1.389,0.573,19.0
24.587,-1.395,0.441,37.0
24.553,-1.401,0.308,45.0
24.532,-1.408,0.174,45.0
24.535,-1.417,0.042,54.0
24.539,-1.425,-0.088,69.0
24.574,-1.431,0.593,80.0
24.56,-1.438,0.46,63.0
24.546,-1.445,0.329,55.0
24.518,-1.451,0.195,57.0
24.522,-1.46,0.063,84.0
24.524,-1.468,-0.067,76.0
24.556,-1.473,0.613,80.0
24.545,-1.48,0.481,63.0
24.53,-1.487,0.35,72.0
24.516,-1.494,0.216,56.0
24.521,-1.502,0.085,60.0
24.533,-1.511,-0.045,83.0
24.552,-1.516,0.635,88.0
24.535,-1.522,0.503,80.0
24.536,-1.53,0.372,79.0
24.51,-1.536,0.238,44.0
24.538,-1.546,0.107,58.0
24.538,-1.553,-0.023,54.0
24.537,-1.557,0.657,73.0
24.545,-1.565,0.526,49.0
24.537,-1.572,0.394,47.0
24.547,-1.58,0.261,35.0
24.559,-1.588,0.13,35.0
24.549,-1.596,0.0,27.0
24.547,-1.599,0.68,64.0
24.57,-1.608,0.55,39.0
24.582,-1.616,0.419,26.0
24.596,-1.625,0.285,14.0
65.542,-4.35,0.41,127.0
65.388,-4.361,0.061,1.0
24.594,-1.643,0.706,27.0
24.626,-1.652,0.575,3.0
65.773,-4.434,1.185,1.0
0.0,0.0,0.0,0.0
65.59,-4.461,0.476,167.0
65.418,-4.47,0.126,2.0
83.415,-5.71,2.477,41.0
83.006,-5.707,2.023,45.0
82.915,-5.724,1.578,12.0
0.0,0.0,0.0,0.0
65.571,-4.565,0.542,58.0
65.518,-4.581,0.193,2.0
82.878,-5.805,2.545,57.0
82.527,-5.803,2.095,42.0
82.966,-5.859,1.664,39.0
0.0,0.0,0.0,0.0
65.581,-4.67,0.611,1.0
65.581,-4.689,0.261,0.0
82.905,-5.937,2.634,48.0
82.52,-5.933,2.182,40.0
82.793,-5.976,1.748,55.0
0.0,0.0,0.0,0.0
65.602,-4.772,0.68,3.0
65.546,-4.787,0.331,0.0
82.842,-6.061,2.721,39.0
82.688,-6.071,2.275,43.0
82.706,-6.095,1.835,49.0
83.06,-6.144,1.393,7.0
0.0,0.0,0.0,0.0
65.502,-4.881,0.402,1.0
82.684,-6.17,2.805,34.0
82.648,-6.19,2.363,42.0
82.631,-6.211,1.923,42.0
83.077,-6.267,1.484,25.0
82.039,-6.211,1.029,2.0
65.595,-4.984,0.475,0.0
82.616,-6.287,2.895,42.0
82.377,-6.289,2.448,35.0
82.429,-6.315,2.012,48.0
82.615,-6.352,1.569,33.0
81.925,-6.321,1.121,40.0
65.757,-5.091,0.551,4.0
82.493,-6.396,2.985,41.0
82.473,-6.415,2.545,45.0
82.149,-6.411,2.099,43.0
82.691,-6.474,1.666,47.0
81.974,-6.44,1.217,31.0
79.399,-6.258,0.757,12.0
82.314,-6.497,3.074,41.0
82.519,-6.533,2.644,47.0
82.239,-6.532,2.198,42.0
82.705,-6.59,1.764,54.0
82.229,-6.573,1.317,12.0
81.645,-6.546,0.874,28.0
82.596,-6.631,3.182,33.0
82.336,-6.629,2.734,41.0
82.583,-6.669,2.304,48.0
82.515,-6.684,1.856,47.0
83.534,-6.787,1.437,14.0
82.068,-6.689,0.977,43.0
82.264,-6.714,3.268,45.0
82.235,-6.73,2.83,49.0
82.404,-6.763,2.399,46.0
82.499,-6.791,1.956,44.0
85.092,-7.024,1.567,10.0
82.031,-6.791,1.075,32.0
82.08,-6.804,3.36,38.0
82.012,-6.816,2.922,41.0
82.158,-6.846,2.491,43.0
82.861,-6.923,2.065,44.0
84.659,-7.093,1.661,0.0
0.0,0.0,0.0,0.0
82.192,-6.915,3.466,29.0
81.939,-6.911,3.021,42.0
82.179,-6.949,2.594,42.0
82.944,-7.032,2.17,37.0
84.685,-7.199,1.768,8.0
0.0,0.0,0.0,0.0
81.793,-6.98,3.552,34.0
82.09,-7.022,3.129,56.0
82.4,-7.066,2.705,43.0
83.324,-7.163,2.285,20.0
0.0,0.0,0.0,0.0
0.0,0.0,0.0,0.0
81.761,-7.073,3.654,29.0
82.027,-7.111,3.23,52.0
82.297,-7.151,2.804,44.0
82.263,-7.164,2.359,19.0
83.155,-7.259,1.945,33.0
0.0,0.0,0.0,0.0
82.217,-7.203,3.778,45.0
81.626,-7.167,3.318,36.0
82.232,-7.236,2.907,38.0
82.244,-7.252,2.464,43.0
82.539,-7.295,2.035,40.0
0.0,0.0,0.0,0.0
82.197,-7.29,3.883,42.0
81.668,-7.258,3.425,42.0
82.15,-7.316,3.009,46.0
82.111,-7.327,2.565,43.0
82.471,-7.375,2.141,42.0
83.238,-7.459,1.72,11.0
82.215,-7.377,3.99,53.0
81.799,-7.353,3.536,33.0
81.808,-7.369,3.104,38.0
82.218,-7.42,2.675,43.0
82.189,-7.432,2.24,43.0
82.97,-7.518,1.823,28.0
82.052,-7.444,4.09,31.0
81.725,-7.427,3.64,36.0
81.642,-7.433,3.204,41.0
81.943,-7.475,2.774,48.0
82.046,-7.498,2.344,43.0
82.242,-7.531,1.916,41.0
82.525,-7.566,4.223,41.0
82.087,-7.539,3.765,47.0
81.736,-7.519,3.316,39.0
81.831,-7.541,2.878,40.0
82.048,-7.574,2.452,46.0
82.079,-7.59,2.02,39.0
82.575,-7.646,4.336,32.0
82.193,-7.623,3.879,36.0
81.83,-7.602,3.429,28.0
81.883,-7.618,2.99,37.0
82.019,-7.643,2.56,47.0
81.989,-7.654,2.127,37.0
81.913,-7.656,4.41,14.0
82.094,-7.684,3.985,29.0
81.811,-7.669,3.538,31.0
82.011,-7.7,3.105,34.0
81.868,-7.698,2.666,40.0
82.07,-7.729,2.238,44.0
83.023,-7.829,4.582,39.0
81.87,-7.73,4.085,35.0
81.84,-7.738,3.65,37.0
0.0,0.0,0.0,0.0
81.825,-7.759,2.775,35.0
82.144,-7.8,2.352,40.0
83.284,-7.919,4.709,37.0
81.761,-7.784,4.189,38.0
81.744,-7.792,3.756,39.0
84.861,-8.1,3.441,10.0
82.099,-7.847,2.895,48.0
82.072,-7.854,2.46,38.0
83.473,-7.999,4.832,36.0
81.805,-7.848,4.301,38.0
81.822,-7.858,3.869,34.0
82.811,-7.963,3.471,13.0
82.097,-7.904,3.006,45.0
82.051,-7.91,2.571,40.0
83.386,-8.049,4.942,35.0
81.866,-7.91,4.417,23.0
81.858,-7.917,3.983,42.0
81.93,-7.933,3.544,23.0
82.013,-7.95,3.113,45.0
82.038,-7.961,2.68,36.0
83.564,-8.12,5.065,25.0
83.405,-8.112,4.613,43.0
82.017,-7.984,4.102,37.0
81.748,-7.966,3.647,39.0
82.225,-8.021,3.233,33.0
81.976,-8.004,2.79,41.0
83.776,-8.192,5.191,8.0
83.434,-8.165,4.728,37.0
82.106,-8.041,4.217,34.0
81.696,-8.008,3.755,44.0
83.087,-8.152,3.38,28.0
81.94,-8.047,2.9,38.0
85.054,-8.365,5.388,16.0
83.537,-8.222,4.847,35.0
82.747,-8.149,4.363,31.0
81.803,-8.063,3.871,44.0
0.0,0.0,0.0,0.0
82.044,-8.099,3.014,38.0
84.939,-8.398,5.495,8.0
84.014,-8.311,4.989,34.0
83.114,-8.227,4.495,33.0
82.162,-8.138,3.999,39.0
82.04,-8.132,3.559,29.0
82.163,-8.151,3.13,38.0
109.473,-10.875,7.232,18.0
84.492,-8.398,5.132,36.0
0.0,0.0,0.0,0.0
82.263,-8.186,4.116,32.0
82.06,-8.17,3.672,39.0
82.377,-8.207,3.249,32.0
109.333,-10.909,7.373,39.0
84.661,-8.45,5.259,36.0
83.512,-8.34,4.743,25.0
82.328,-8.225,4.232,29.0
82.161,-8.212,3.787,29.0
82.057,-8.206,3.347,34.0
109.335,-10.952,7.521,38.0
84.839,-8.5,5.385,16.0
83.833,-8.402,4.875,28.0
82.164,-8.238,4.334,38.0
82.155,-8.241,3.897,28.0
81.916,-8.22,3.453,37.0
109.723,-11.028,7.697,25.0
109.488,-11.007,7.098,23.0
84.231,-8.469,5.012,29.0
82.137,-8.261,4.442,25.0
82.228,-8.273,4.01,32.0
81.938,-8.246,3.562,37.0
109.936,-11.082,7.858,22.0
109.377,-11.027,7.236,41.0
84.61,-8.531,5.146,28.0
0.0,0.0,0.0,0.0
82.607,-8.332,4.139,39.0
82.073,-8.28,3.677,34.0
109.691,-11.085,7.987,24.0
109.307,-11.046,7.377,43.0
84.844,-8.574,5.275,21.0
83.63,-8.453,4.745,24.0
82.297,-8.318,4.233,38.0
82.092,-8.299,3.786,14.0
109.649,-11.104,8.131,27.0
109.406,-11.078,7.53,26.0
109.44,-11.082,6.949,15.0
84.491,-8.555,4.908,36.0
82.135,-8.316,4.333,32.0
83.341,-8.439,3.955,29.0
109.575,-11.115,8.271,23.0
109.823,-11.137,7.705,18.0
109.406,-11.094,7.093,42.0
84.832,-8.601,5.038,42.0
82.171,-8.331,4.444,24.0
83.212,-8.436,4.058,44.0
108.623,-11.031,8.345,31.0
109.904,-11.158,7.856,18.0
109.361,-11.101,7.233,38.0
84.888,-8.614,5.153,35.0
82.99,-8.42,4.597,27.0
82.765,-8.397,4.144,39.0
108.479,-11.025,8.476,36.0
109.66,-11.14,7.981,25.0
109.31,-11.101,7.372,38.0
84.957,-8.625,5.268,28.0
83.512,-8.477,4.733,27.0
82.251,-8.346,4.224,29.0
108.197,-10.999,8.593,37.0
109.686,-11.146,8.125,28.0
109.419,-11.114,7.52,23.0
84.921,-8.622,5.375,13.0
84.459,-8.572,4.895,33.0
82.147,-8.335,4.323,29.0
108.107,-10.988,8.726,40.0
109.388,-11.113,8.242,21.0
109.829,-11.152,7.688,18.0
109.403,-11.103,7.063,36.0
84.829,-8.605,5.023,40.0
82.155,-8.331,4.427,25.0
108.029,-10.974,8.856,42.0
108.665,-11.032,8.324,24.0
109.926,-11.154,7.832,19.0
109.386,-11.092,7.199,47.0
84.845,-8.599,5.13,41.0
82.383,-8.345,4.541,21.0
107.951,-10.956,8.983,41.0
108.511,-11.004,8.449,39.0
109.67,-11.114,7.95,23.0
109.293,-11.069,7.325,41.0
84.875,-8.59,5.236,26.0
83.458,-8.442,4.703,23.0
107.908,-10.936,9.113,39.0
108.267,-10.963,8.561,42.0
109.659,-11.095,8.083,28.0
109.358,-11.057,7.463,34.0
84.901,-8.578,5.34,10.0
83.687,-8.449,4.816,23.0
107.901,-10.915,9.243,37.0
108.177,-10.933,8.685,41.0
109.689,-11.076,8.216,22.0
109.619,-11.06,7.612,22.0
109.523,-11.042,7.018,17.0
84.055,-8.467,4.937,26.0
107.772,-10.877,9.362,39.0
108.175,-10.907,8.814,35.0
109.025,-10.982,8.298,19.0
109.888,-11.058,7.762,23.0
109.436,-11.004,7.142,37.0
84.245,-8.463,5.047,30.0
107.736,-10.844,9.486,38.0
108.119,-10.871,8.937,37.0
108.741,-10.922,8.403,27.0
109.848,-11.022,7.886,23.0
109.333,-10.959,7.263,40.0
84.427,-8.455,5.155,42.0
107.746,-10.811,9.612,41.0
108.027,-10.826,9.054,39.0
108.456,-10.857,8.505,31.0
109.701,-10.97,8.001,19.0
109.314,-10.919,7.387,39.0
84.801,-8.463,5.273,28.0
107.821,-10.78,9.742,26.0
107.967,-10.782,9.171,40.0
108.428,-10.814,8.625,41.0
109.855,-10.943,8.135,23.0
109.407,-10.887,7.512,36.0
84.894,-8.438,5.373,23.0
108.597,-10.815,9.932,27.0
107.91,-10.733,9.284,36.0
108.432,-10.77,8.744,28.0
110.024,-10.914,8.268,23.0
109.407,-10.84,7.632,36.0
109.658,-10.851,7.06,12.0
108.711,-10.778,10.062,27.0
107.861,-10.679,9.399,33.0
108.473,-10.725,8.865,22.0
112.496,-11.108,8.574,19.0
109.433,-10.791,7.75,34.0
86.533,-8.521,5.663,16.0
108.725,-10.728,10.179,14.0
108.006,-10.641,9.526,29.0
108.351,-10.659,8.97,30.0
112.453,-11.046,8.69,21.0
109.723,-10.763,7.886,27.0
86.43,-8.467,5.746,20.0
111.807,-10.974,10.585,18.0
108.428,-10.625,9.677,29.0
108.221,-10.588,9.071,34.0
112.11,-10.953,8.777,32.0
109.931,-10.723,8.013,17.0
86.466,-8.422,5.836,16.0
112.189,-10.949,10.735,18.0
108.721,-10.593,9.812,21.0
108.545,-10.559,9.205,29.0
112.161,-10.893,8.893,25.0
112.865,-10.944,8.337,18.0
109.636,-10.615,7.506,28.0
111.979,-10.862,10.825,17.0
111.222,-10.771,10.145,20.0
108.967,-10.534,9.347,32.0
112.14,-10.821,9.0,26.0
112.519,-10.84,8.42,16.0
109.667,-10.548,7.613,34.0
110.637,-10.662,10.802,17.0
111.869,-10.761,10.312,19.0
109.237,-10.489,9.474,25.0
112.065,-10.742,9.098,27.0
112.704,-10.784,8.538,17.0
109.907,-10.499,7.73,38.0
24.533,-2.348,2.418,7.0
112.022,-10.701,10.428,16.0
110.744,-10.559,9.705,41.0
112.258,-10.683,9.215,25.0
112.401,-10.678,8.615,28.0
109.996,-10.431,7.833,29.0
24.534,-2.33,2.44,42.0
24.566,-2.329,2.308,2.0
110.844,-10.489,9.812,26.0
112.284,-10.605,9.316,11.0
112.164,-10.573,8.695,34.0
112.786,-10.612,8.13,20.0
24.532,-2.312,2.461,70.0
24.547,-2.309,2.328,36.0
112.072,-10.52,10.017,19.0
120.893,-11.325,10.133,14.0
112.275,-10.496,8.8,32.0
112.831,-10.528,8.228,24.0
24.532,-2.293,2.482,47.0
24.546,-2.289,2.348,55.0
112.237,-10.447,10.125,8.0
120.465,-11.189,10.197,16.0
112.462,-10.424,8.905,35.0
112.843,-10.438,8.32,24.0
24.554,-2.275,2.504,24.0
24.549,-2.269,2.368,84.0
24.551,-2.264,2.234,23.0
114.369,-10.528,9.77,9.0
112.495,-10.333,8.995,18.0
113.006,-10.358,8.419,19.0
24.608,-2.259,2.528,13.0
24.549,-2.249,2.387,67.0
24.558,-2.244,2.253,48.0
24.585,-2.242,2.118,0.0
114.55,-10.424,9.243,11.0
116.077,-10.539,8.733,8.0
24.614,-2.238,2.547,0.0
24.549,-2.227,2.405,28.0
24.559,-2.223,2.271,97.0
24.563,-2.218,2.134,27.0
114.22,-10.292,9.297,18.0
114.679,-10.309,8.708,11.0
39.293,-3.538,4.094,1.0
24.515,-2.202,2.419,0.0
24.564,-2.201,2.288,48.0
24.575,-2.196,2.152,50.0
113.817,-10.15,9.341,18.0
120.718,-10.74,9.245,8.0
112.521,-10.027,11.799,17.0
118.143,-10.501,11.736,5.0
24.562,-2.177,2.304,11.0
24.581,-2.174,2.168,65.0
24.608,-2.171,2.035,2.0
120.885,-10.639,9.334,26.0
112.25,-9.894,11.841,37.0
120.425,-10.586,12.038,3.0
46.448,-4.072,4.386,5.0
24.584,-2.149,2.183,54.0
24.585,-2.144,2.048,26.0
120.747,-10.505,9.396,19.0
112.283,-9.785,11.912,28.0
113.958,-9.903,11.458,19.0
46.464,-4.026,4.415,5.0
24.598,-2.126,2.198,42.0
24.612,-2.121,2.064,41.0
60.605,-5.211,4.749,5.0
23.809,-2.05,2.539,17.0
47.422,-4.072,4.794,3.0
53.879,-4.613,5.148,4.0
24.597,-2.1,2.211,24.0
24.602,-2.095,2.076,55.0
120.999,-10.278,9.545,14.0
23.811,-2.025,2.551,58.0
23.911,-2.028,2.429,14.0
60.794,-5.141,5.84,1.0
24.627,-2.077,2.226,4.0
24.607,-2.069,2.089,50.0
120.94,-10.143,9.598,17.0
23.825,-2.001,2.564,93.0
23.825,-1.995,2.432,49.0
23.876,-1.993,2.304,21.0
23.936,-1.992,2.175,1.0
24.268,-2.014,2.07,23.0
115.379,-9.55,9.208,9.0
23.819,-1.974,2.574,43.0
23.816,-1.967,2.441,48.0
23.863,-1.965,2.313,62.0
23.913,-1.963,2.183,44.0
23.963,-1.962,2.055,34.0
24.277,-1.981,1.947,0.0
23.823,-1.947,2.584,6.0
23.827,-1.941,2.452,50.0
23.866,-1.938,2.323,61.0
23.903,-1.935,2.191,58.0
23.955,-1.934,2.063,55.0
24.076,-1.938,1.94,3.0
52.596,-4.238,5.725,4.0
23.829,-1.914,2.46,20.0
23.912,-1.914,2.336,31.0
23.904,-1.908,2.199,42.0
23.96,-1.906,2.071,46.0
24.03,-1.906,1.943,12.0
52.52,-4.17,5.734,1.0
38.973,-3.084,4.037,4.0
23.916,-1.886,2.343,0.0
23.94,-1.882,2.21,9.0
23.974,-1.879,2.079,23.0
23.996,-1.875,1.947,26.0
30.905,-2.417,3.382,21.0
39.004,-3.04,4.05,5.0
112.128,-8.71,11.017,20.0
47.131,-3.649,4.362,5.0
24.018,-1.853,2.089,24.0
23.997,-1.845,1.953,44.0
30.932,-2.381,3.393,36.0
47.274,-3.626,4.92,18.0
58.954,-4.507,5.806,6.0
47.327,-3.605,4.391,8.0
24.081,-1.828,2.099,2.0
24.032,-1.818,1.961,27.0
46.036,-3.486,5.059,5.0
39.008,-2.944,4.067,9.0
54.076,-4.066,5.335,2.0
47.224,-3.539,4.389,6.0
112.895,-8.432,9.862,12.0
24.148,-1.797,1.974,38.0
30.403,-2.265,3.345,3.0
30.979,-2.299,3.234,31.0
52.511,-3.883,5.187,2.0
47.086,-3.469,4.383,4.0
112.903,-8.289,9.877,17.0
24.166,-1.768,1.979,39.0
30.402,-2.225,3.349,42.0
30.99,-2.26,3.239,26.0
47.601,-3.458,4.707,1.0
47.046,-3.406,4.383,4.0
24.897,-1.796,2.18,10.0
24.194,-1.739,1.983,34.0
30.423,-2.187,3.353,62.0
38.973,-2.791,4.075,7.0
31.017,-2.213,3.068,12.0
24.912,-1.771,2.322,13.0
24.796,-1.756,2.172,27.0
24.253,-1.711,1.988,22.0
30.418,-2.147,3.353,54.0
38.974,-2.741,4.076,5.0
25.009,-1.752,2.474,35.0
24.912,-1.738,2.322,31.0
24.804,-1.724,2.172,44.0
24.374,-1.688,1.998,20.0
30.411,-2.107,3.352,23.0
25.034,-1.727,2.618,43.0
24.986,-1.717,2.471,62.0
24.941,-1.707,2.324,25.0
24.792,-1.691,2.17,56.0
24.442,-1.661,2.002,16.0
36.962,-2.511,4.071,4.0
25.028,-1.693,2.615,59.0
25.0,-1.685,2.471,22.0
31.042,-2.084,2.889,35.0
24.807,-1.658,2.169,42.0
24.427,-1.627,1.998,24.0
25.069,-1.669,2.759,29.0
30.441,-2.018,3.177,16.0
54.168,-3.577,5.347,5.0
52.373,-3.445,4.868,6.0
28.44,-1.863,2.483,52.0
24.404,-1.592,1.993,25.0
24.674,-1.057,2.502,45.0
24.647,-1.05,2.357,77.0
24.646,-1.043,2.215,51.0
24.591,-1.035,2.066,26.0
28.42,-1.189,2.224,45.0
28.409,-1.182,2.06,80.0
24.662,-1.022,2.479,69.0
24.656,-1.015,2.336,42.0
28.398,-1.163,2.526,70.0
24.553,-0.999,2.04,25.0
28.418,-1.15,2.198,107.0
28.422,-1.143,2.035,110.0
24.65,-0.987,2.454,44.0
28.396,-1.13,2.663,96.0
28.395,-1.123,2.498,93.0
24.564,-0.966,2.017,21.0
28.422,-1.111,2.17,69.0
28.438,-1.105,2.008,68.0
28.401,-1.098,2.8,34.0
28.407,-1.092,2.636,41.0
31.64,-1.209,2.752,15.0
31.593,-1.2,2.563,37.0
31.461,-1.187,2.371,31.0
31.118,-1.167,2.166,37.0
37.198,-1.388,3.628,41.0
28.363,-1.052,2.602,39.0
28.369,-1.046,2.439,26.0
59.708,-2.187,4.782,30.0
31.211,-1.136,2.32,25.0
31.127,-1.126,2.134,38.0
37.243,-1.341,3.594,22.0
28.369,-1.014,2.572,65.0
28.386,-1.008,2.41,67.0
28.371,-1.001,2.241,72.0
28.379,-0.995,2.078,76.0
28.385,-0.989,1.915,79.0
43.123,-1.494,4.113,3.0
28.373,-0.976,2.541,70.0
28.383,-0.971,2.378,73.0
28.378,-0.964,2.21,73.0
28.388,-0.958,2.047,76.0
28.395,-0.952,1.883,75.0
28.364,-0.945,2.672,12.0
28.369,-0.939,2.508,73.0
28.382,-0.933,2.345,75.0
28.378,-0.927,2.177,74.0
28.377,-0.921,2.013,74.0
28.394,-0.915,1.85,73.0
28.363,-0.908,2.638,52.0
28.368,-0.902,2.474,72.0
28.382,-0.896,2.311,70.0
28.379,-0.89,2.143,75.0
28.375,-0.884,1.978,79.0
28.383,-0.878,1.815,83.0
28.363,-0.872,2.604,71.0
28.366,-0.866,2.439,77.0
28.381,-0.86,2.276,72.0
28.374,-0.854,2.108,73.0
28.375,-0.848,1.943,75.0
28.38,-0.842,1.78,74.0
28.359,-0.835,2.567,74.0
28.362,-0.829,2.403,76.0
28.364,-0.823,2.238,71.0
28.361,-0.817,2.07,73.0
28.369,-0.812,1.907,72.0
28.382,-0.807,1.743,73.0
28.359,-0.799,2.53,80.0
28.364,-0.794,2.366,72.0
28.364,-0.788,2.201,71.0
28.373,-0.783,2.034,69.0
28.373,-0.777,1.869,72.0
28.37,-0.771,1.705,73.0
28.359,-0.764,2.492,73.0
28.361,-0.759,2.327,69.0
28.357,-0.753,2.162,69.0
28.369,-0.747,1.995,70.0
28.365,-0.742,1.831,69.0
28.39,-0.737,1.668,71.0
28.368,-0.73,2.454,86.0
28.365,-0.724,2.288,70.0
28.361,-0.718,2.123,69.0
28.348,-0.713,1.954,68.0
28.358,-0.707,1.791,71.0
28.372,-0.702,1.627,73.0
28.36,-0.695,2.413,76.0
28.355,-0.69,2.247,67.0
28.361,-0.684,2.082,63.0
28.354,-0.679,1.914,69.0
28.364,-0.674,1.75,71.0
28.373,-0.669,1.586,74.0
28.363,-0.662,2.372,74.0
28.352,-0.656,2.206,70.0
28.347,-0.651,2.04,69.0
28.355,-0.646,1.873,76.0
28.364,-0.641,1.709,72.0
28.365,-0.636,1.545,70.0
28.355,-0.629,2.329,76.0
28.347,-0.624,2.163,70.0
28.352,-0.618,1.998,71.0
28.35,-0.613,1.831,71.0
28.358,-0.608,1.666,71.0
28.36,-0.603,1.501,66.0
28.357,-0.597,2.286,73.0
28.352,-0.592,2.12,73.0
28.347,-0.586,1.955,71.0
28.349,-0.581,1.787,72.0
28.354,-0.576,1.622,73.0
59.356,-1.197,3.053,19.0
28.354,-0.565,2.242,76.0
28.348,-0.56,2.076,74.0
28.345,-0.555,1.911,74.0
28.342,-0.55,1.742,74.0
28.357,-0.546,1.578,72.0
45.701,-0.872,2.279,39.0
28.342,-0.534,2.196,71.0
28.336,-0.529,2.03,76.0
28.349,-0.524,1.866,73.0
28.347,-0.52,1.698,73.0
28.36,-0.515,1.533,65.0
45.688,-0.823,2.206,72.0
54.089,-0.962,4.105,38.0
53.813,-0.948,3.769,19.0
51.893,-0.905,3.332,15.0
