X,Y,Z,Reflectivity
30.921,-1.896,3.287,9.0
30.47,-1.865,3.076,67.0
54.291,-3.316,5.184,6.0
28.425,-1.733,2.561,47.0
28.431,-1.73,2.41,66.0
25.195,-1.538,2.847,29.0
31.609,-1.925,3.402,40.0
30.453,-1.851,3.114,41.0
30.497,-1.85,2.951,11.0
28.419,-1.721,2.597,14.0
28.431,-1.718,2.447,70.0
25.242,-1.53,2.885,27.0
31.741,-1.92,3.457,43.0
30.488,-1.84,3.156,16.0
30.489,-1.836,2.989,51.0
45.638,-2.743,4.229,4.0
28.423,-1.705,2.481,69.0
25.267,-1.52,2.92,20.0
31.77,-1.907,3.5,16.0
31.747,-1.901,3.326,30.0
30.486,-1.821,3.027,58.0
47.592,-2.837,4.469,2.0
28.427,-1.691,2.517,66.0
36.479,-2.176,4.261,4.0
25.242,-1.502,2.812,35.0
31.738,-1.884,3.364,50.0
30.491,-1.806,3.065,65.0
47.491,-2.806,4.518,6.0
28.431,-1.676,2.552,58.0
36.469,-2.156,4.305,3.0
25.247,-1.489,2.843,46.0
31.739,-1.867,3.403,47.0
30.601,-1.795,3.112,42.0
30.507,-1.785,2.938,19.0
28.411,-1.659,2.583,29.0
33.435,-1.958,3.986,2.0
25.25,-1.474,2.873,32.0
31.76,-1.849,3.442,35.0
31.511,-1.83,3.241,45.0
30.499,-1.767,2.972,45.0
28.414,-1.642,2.615,3.0
33.359,-1.933,4.015,6.0
25.289,-1.461,2.906,17.0
25.349,-1.461,2.775,4.0
31.694,-1.821,3.295,46.0
30.5,-1.748,3.006,59.0
51.486,-2.943,4.796,3.0
33.262,-1.907,4.04,8.0
25.392,-1.451,2.946,18.0
25.313,-1.442,2.799,8.0
31.726,-1.803,3.333,8.0
30.509,-1.729,3.04,44.0
45.816,-2.589,4.317,4.0
36.972,-2.095,4.531,6.0
25.429,-1.436,2.978,23.0
25.305,-1.425,2.825,15.0
36.847,-2.069,3.91,10.0
31.126,-1.742,3.134,36.0
30.53,-1.704,2.908,29.0
0.0,0.0,0.0,0.0
25.451,-1.42,3.006,27.0
47.351,-2.634,5.335,8.0
36.894,-2.045,3.952,9.0
31.662,-1.75,3.219,22.0
30.53,-1.682,2.938,43.0
38.465,-2.125,4.793,46.0
25.471,-1.402,3.034,29.0
25.419,-1.395,2.889,1.0
46.142,-2.524,4.988,5.0
46.103,-2.514,4.732,10.0
30.527,-1.66,2.967,30.0
46.536,-2.536,5.844,7.0
37.023,-2.011,4.446,5.0
25.48,-1.379,2.92,3.0
39.744,-2.144,4.333,8.0
46.104,-2.479,4.775,5.0
24.07,-1.29,2.362,25.0
45.214,-2.429,5.72,1.0
25.467,-1.363,3.081,17.0
53.496,-2.853,6.18,8.0
39.75,-2.113,4.37,9.0
24.003,-1.271,2.508,9.0
24.051,-1.269,2.381,44.0
25.525,-1.35,3.252,25.0
25.494,-1.344,3.107,40.0
0.0,0.0,0.0,0.0
47.653,-2.494,5.281,8.0
23.972,-1.25,2.525,21.0
24.035,-1.249,2.4,61.0
25.519,-1.328,3.273,51.0
25.508,-1.323,3.131,49.0
36.966,-1.91,4.334,3.0
47.283,-2.434,5.279,9.0
23.951,-1.228,2.542,36.0
24.024,-1.227,2.419,63.0
25.535,-1.307,3.296,43.0
25.5,-1.3,3.151,29.0
37.032,-1.882,4.371,7.0
23.847,-1.207,2.681,20.0
23.93,-1.206,2.559,35.0
24.015,-1.206,2.436,37.0
25.56,-1.286,3.319,8.0
39.314,-1.97,4.888,3.0
23.773,-1.187,2.824,18.0
23.825,-1.184,2.696,35.0
23.9,-1.183,2.573,35.0
24.012,-1.184,2.454,44.0
37.189,-1.838,4.857,9.0
39.89,-1.963,4.988,3.0
23.741,-1.163,2.837,26.0
23.81,-1.162,2.712,48.0
23.896,-1.161,2.59,36.0
38.676,-1.872,3.979,15.0
0.0,0.0,0.0,0.0
39.943,-1.928,5.023,3.0
23.684,-1.138,2.847,18.0
23.809,-1.139,2.728,52.0
23.883,-1.138,2.604,15.0
37.098,-1.76,3.841,7.0
23.86,-1.133,3.149,8.0
23.703,-1.121,2.996,37.0
23.689,-1.115,2.862,39.0
23.791,-1.115,2.74,28.0
23.859,-1.113,2.617,2.0
37.107,-1.724,3.865,10.0
23.848,-1.11,3.162,33.0
23.72,-1.098,3.012,48.0
23.678,-1.091,2.875,34.0
23.792,-1.092,2.755,3.0
52.145,-2.383,5.749,7.0
37.136,-1.689,3.889,8.0
23.854,-1.086,3.176,77.0
23.807,-1.079,3.037,50.0
23.714,-1.069,2.893,24.0
42.905,-1.926,4.992,1.0
37.052,-1.656,4.105,23.0
0.0,0.0,0.0,0.0
23.842,-1.061,3.187,45.0
23.855,-1.057,3.055,39.0
39.301,-1.733,4.815,3.0
39.644,-1.74,4.632,5.0
47.251,-2.064,5.258,39.0
31.825,-1.383,3.365,12.0
0.0,0.0,0.0,0.0
39.518,-1.71,5.081,9.0
39.302,-1.692,4.833,8.0
48.965,-2.098,5.744,6.0
47.408,-2.021,5.297,40.0
31.791,-1.348,3.375,11.0
32.479,-1.378,4.372,2.0
36.74,-1.551,4.739,13.0
39.279,-1.65,4.847,5.0
28.37,-1.185,3.339,1.0
28.414,-1.181,3.186,32.0
28.419,-1.175,3.029,15.0
32.454,-1.342,4.382,4.0
28.399,-1.168,3.675,32.0
28.421,-1.163,3.518,45.0
28.406,-1.156,3.354,54.0
28.401,-1.15,3.195,96.0
24.747,-0.997,2.646,37.0
28.382,-1.143,3.842,30.0
28.391,-1.137,3.683,88.0
28.389,-1.131,3.523,98.0
28.393,-1.125,3.362,94.0
28.404,-1.119,3.205,114.0
24.743,-0.97,2.653,35.0
28.372,-1.112,3.849,22.0
28.387,-1.106,3.691,92.0
28.391,-1.1,3.532,77.0
28.402,-1.094,3.371,67.0
28.398,-1.088,3.212,37.0
24.754,-0.943,2.661,35.0
28.394,-1.081,3.86,35.0
28.408,-1.076,3.701,56.0
32.273,-1.215,4.023,15.0
32.165,-1.204,3.825,38.0
32.012,-1.191,3.628,3.0
24.766,-0.916,2.668,35.0
32.374,-1.197,4.408,21.0
32.328,-1.188,4.219,61.0
38.992,-1.424,4.869,10.0
39.065,-1.418,4.654,15.0
24.856,-0.897,2.821,22.0
24.804,-0.889,2.677,34.0
32.292,-1.157,4.402,27.0
32.378,-1.152,4.231,25.0
39.016,-1.38,4.878,56.0
39.004,-1.371,4.652,14.0
24.844,-0.868,2.824,26.0
24.818,-0.862,2.681,21.0
32.295,-1.12,4.407,51.0
0.0,0.0,0.0,0.0
33.497,-1.146,4.191,4.0
43.545,-1.481,5.199,32.0
24.86,-0.84,2.828,28.0
24.872,-0.835,2.689,2.0
32.322,-1.083,4.413,27.0
25.235,-0.84,3.302,22.0
25.226,-0.834,3.158,23.0
44.324,-1.456,5.294,7.0
24.879,-0.812,2.831,37.0
44.11,-1.43,4.772,6.0
25.236,-0.816,3.447,52.0
25.24,-0.811,3.304,71.0
25.234,-0.805,3.16,71.0
25.121,-0.796,3.001,21.0
24.852,-0.782,2.828,53.0
44.399,-1.388,4.803,2.0
25.247,-0.787,3.448,70.0
25.245,-0.781,3.304,42.0
25.244,-0.775,3.16,44.0
25.132,-0.767,3.001,24.0
24.842,-0.753,2.826,66.0
44.458,-1.338,4.807,37.0
32.381,-0.971,4.42,2.0
37.987,-1.131,4.969,2.0
25.25,-0.746,3.159,17.0
25.181,-0.738,3.005,19.0
24.838,-0.723,2.823,44.0
51.585,-1.491,5.573,3.0
32.353,-0.932,4.413,6.0
32.983,-0.943,4.311,6.0
25.249,-0.716,3.156,13.0
44.459,-1.252,5.3,8.0
24.85,-0.694,2.821,35.0
47.476,-1.317,5.122,6.0
32.345,-0.893,4.407,5.0
33.073,-0.906,4.317,4.0
25.246,-0.686,3.151,30.0
44.771,-1.207,5.329,7.0
24.822,-0.664,2.814,20.0
52.806,-1.403,5.687,16.0
47.148,-1.246,6.415,15.0
33.944,-0.89,4.424,5.0
25.254,-0.656,3.147,42.0
24.824,-0.64,2.949,44.0
0.0,0.0,0.0,0.0
0.0,0.0,0.0,0.0
32.38,-0.817,4.397,2.0
36.755,-0.92,4.781,8.0
44.499,-1.105,5.534,4.0
24.811,-0.611,2.941,50.0
44.221,-1.079,4.991,40.0
51.744,-1.253,5.546,10.0
36.931,-0.889,5.005,27.0
44.537,-1.063,5.78,7.0
25.014,-0.591,3.103,12.0
24.825,-0.582,2.935,41.0
44.462,-1.033,5.004,8.0
44.633,-1.028,4.769,61.0
44.469,-1.017,6.011,3.0
44.219,-1.002,5.723,12.0
24.776,-0.557,3.065,24.0
24.809,-0.552,2.924,17.0
40.595,-0.895,4.554,8.0
51.964,-1.136,5.533,8.0
44.002,-0.954,5.931,3.0
33.44,-0.718,4.315,1.0
24.771,-0.527,3.054,64.0
40.424,-0.852,4.749,4.0
31.706,-0.662,3.543,1.0
44.416,-0.918,4.711,16.0
0.0,0.0,0.0,0.0
24.763,-0.502,3.185,45.0
24.785,-0.498,3.045,42.0
40.502,-0.806,4.74,15.0
40.347,-0.795,4.491,2.0
31.68,-0.618,3.345,18.0
24.752,-0.478,3.314,29.0
24.76,-0.474,3.172,77.0
40.936,-0.775,5.009,6.0
40.471,-0.759,4.716,3.0
44.329,-0.822,4.912,18.0
31.676,-0.581,3.329,40.0
24.759,-0.449,3.302,73.0
24.748,-0.444,3.158,15.0
37.529,-0.666,4.572,33.0
40.535,-0.712,4.702,5.0
52.595,-0.915,5.799,5.0
31.696,-0.545,3.313,38.0
24.777,-0.421,3.29,38.0
40.847,-0.686,5.188,8.0
46.712,-0.776,5.664,5.0
37.577,-0.617,4.337,27.0
37.609,-0.611,4.125,57.0
37.648,-0.604,3.913,14.0
37.773,-0.598,4.993,1.0
37.711,-0.59,4.767,54.0
37.665,-0.582,4.544,34.0
37.572,-0.574,4.312,48.0
37.621,-0.567,4.102,22.0
37.632,-0.561,3.887,59.0
37.774,-0.554,4.968,24.0
37.712,-0.546,4.742,5.0
42.625,-0.61,5.113,8.0
37.569,-0.531,4.286,10.0
31.818,-0.443,3.447,47.0
37.681,-0.518,3.866,3.0
40.609,-0.549,5.312,5.0
44.521,-0.594,5.566,5.0
46.646,-0.614,5.562,3.0
53.9,-0.7,6.111,54.0
31.861,-0.408,3.429,57.0
43.474,-0.549,4.429,1.0
40.031,-0.496,5.207,4.0
36.17,-0.442,4.495,1.0
37.519,-0.452,4.446,37.0
31.845,-0.378,3.586,12.0
31.854,-0.372,3.403,20.0
50.64,-0.583,5.12,0.0
37.759,-0.425,4.881,4.0
44.185,-0.491,5.456,4.0
0.0,0.0,0.0,0.0
31.807,-0.342,3.556,30.0
52.559,-0.556,5.573,9.0
47.302,-0.492,4.743,34.0
38.149,-0.388,4.9,4.0
37.398,-0.374,4.586,49.0
0.0,0.0,0.0,0.0
31.826,-0.307,3.531,74.0
0.0,0.0,0.0,0.0
52.247,-0.488,5.195,8.0
36.314,-0.329,4.632,1.0
47.732,-0.425,5.812,30.0
37.194,-0.325,4.313,8.0
31.814,-0.273,3.501,48.0
47.06,-0.396,4.907,37.0
47.069,-0.388,4.637,5.0
36.993,-0.296,4.685,31.0
47.238,-0.37,5.708,46.0
31.86,-0.244,3.664,27.0
47.129,-0.354,5.143,5.0
38.916,-0.286,4.022,38.0
38.854,-0.279,3.791,61.0
47.381,-0.328,5.954,3.0
38.704,-0.262,4.638,10.0
31.864,-0.21,3.633,50.0
39.036,-0.252,4.221,40.0
38.907,-0.245,3.982,65.0
38.898,-0.239,3.757,5.0
38.585,-0.226,4.81,50.0
31.923,-0.182,3.793,1.0
39.096,-0.218,4.419,29.0
39.071,-0.212,4.185,13.0
51.17,-0.27,5.186,3.0
31.04,-0.159,2.966,50.0
39.092,-0.19,4.832,5.0
31.928,-0.15,3.76,50.0
39.114,-0.178,4.379,26.0
51.241,-0.226,5.435,13.0
51.673,-0.22,5.181,26.0
31.048,-0.127,2.933,33.0
31.947,-0.122,3.914,32.0
31.927,-0.117,3.725,50.0
46.157,-0.163,5.117,7.0
52.208,-0.177,5.48,32.0
30.988,-0.101,3.072,30.0
42.955,-0.133,4.01,5.0
31.953,-0.09,3.878,69.0
36.545,-0.098,4.222,4.0
36.735,-0.093,4.03,12.0
45.964,-0.111,4.771,3.0
30.989,-0.07,3.037,57.0
52.354,-0.112,4.828,12.0
31.974,-0.059,3.843,29.0
52.19,-0.09,5.969,43.0
36.064,-0.057,3.915,17.0
45.942,-0.067,4.715,6.0
57.809,-0.076,5.598,12.0
51.215,-0.061,4.662,7.0
36.48,-0.033,4.341,4.0
36.795,-0.028,4.163,11.0
36.479,-0.023,3.915,13.0
30.861,-0.015,3.129,31.0
44.791,-0.017,4.282,7.0
51.162,-0.013,4.594,5.0
39.769,0.0,4.683,18.0
36.956,0.005,4.135,13.0
30.758,0.008,3.262,22.0
30.876,0.012,3.092,38.0
52.367,0.026,4.94,3.0
40.416,0.025,3.578,11.0
47.42,0.044,5.522,3.0
36.542,0.038,4.042,20.0
30.735,0.036,3.22,46.0
45.567,0.058,4.504,20.0
44.802,0.063,4.168,2.0
44.439,0.067,3.877,3.0
30.498,0.055,3.511,20.0
30.633,0.059,3.347,44.0
30.773,0.063,3.183,32.0
45.798,0.099,4.466,14.0
42.975,0.097,3.941,1.0
44.508,0.106,3.823,2.0
30.467,0.081,3.466,34.0
30.667,0.085,3.309,47.0
30.956,0.089,3.16,25.0
45.809,0.137,4.404,13.0
53.784,0.168,4.858,6.0
45.807,0.147,3.872,11.0
30.546,0.107,3.432,43.0
51.244,0.185,5.458,6.0
30.968,0.115,3.118,48.0
45.789,0.175,4.338,3.0
45.788,0.18,4.071,9.0
45.77,0.185,3.804,52.0
30.572,0.132,3.391,35.0
40.037,0.177,4.207,3.0
30.95,0.14,3.071,18.0
44.725,0.207,4.173,2.0
45.764,0.216,4.003,10.0
45.718,0.22,3.734,42.0
37.068,0.189,4.058,7.0
30.956,0.161,3.207,6.0
0.0,0.0,0.0,0.0
53.629,0.289,4.925,50.0
45.295,0.248,3.895,42.0
45.466,0.253,3.646,75.0
36.953,0.216,3.99,6.0
30.966,0.184,3.162,54.0
53.688,0.324,5.168,20.0
53.896,0.33,4.867,9.0
60.518,0.377,5.113,8.0
45.489,0.287,3.579,7.0
47.601,0.314,5.066,3.0
36.364,0.243,3.656,3.0
41.988,0.284,3.976,3.0
45.752,0.313,4.061,7.0
45.395,0.315,3.765,73.0
101.442,0.712,7.823,21.0
30.942,0.225,3.244,41.0
36.381,0.268,3.601,2.0
45.526,0.339,4.24,45.0
40.416,0.304,3.524,21.0
52.615,0.4,4.281,7.0
58.468,0.449,4.418,20.0
53.746,0.428,5.55,6.0
45.852,0.368,4.466,22.0
53.933,0.437,4.938,6.0
44.993,0.368,3.852,41.0
43.52,0.359,3.472,7.0
58.62,0.488,4.336,61.0
40.143,0.345,4.08,2.0
58.372,0.506,5.59,6.0
58.574,0.512,5.267,7.0
45.296,0.399,3.804,19.0
58.346,0.517,4.56,26.0
67.351,0.602,4.871,8.0
45.917,0.422,4.591,14.0
53.925,0.5,5.076,6.0
40.398,0.377,3.565,66.0
52.6,0.494,4.33,24.0
58.623,0.554,4.484,27.0
67.182,0.639,4.747,8.0
40.287,0.394,3.96,2.0
40.509,0.398,3.745,9.0
40.387,0.399,3.497,3.0
58.226,0.579,4.695,19.0
67.3,0.674,5.033,5.0
46.303,0.466,3.194,11.0
40.331,0.416,3.895,43.0
40.429,0.419,3.667,13.0
58.631,0.611,4.975,16.0
43.35,0.454,3.421,3.0
67.206,0.708,4.911,8.0
59.365,0.628,3.992,11.0
40.316,0.437,3.824,68.0
40.407,0.44,3.595,30.0
58.592,0.64,4.87,25.0
67.312,0.739,5.194,5.0
46.389,0.511,3.308,4.0
59.601,0.66,3.904,47.0
40.366,0.457,3.757,28.0
58.672,0.667,5.116,6.0
52.583,0.599,4.277,21.0
67.264,0.77,5.072,16.0
46.345,0.532,3.224,57.0
59.7,0.688,3.805,20.0
40.485,0.476,3.696,17.0
44.279,0.522,3.782,7.0
43.317,0.512,3.446,5.0
69.076,0.82,5.084,8.0
59.571,0.709,4.037,14.0
109.958,1.313,6.81,13.0
40.444,0.492,3.619,20.0
52.453,0.64,4.385,33.0
67.158,0.821,5.222,13.0
46.367,0.568,3.329,54.0
59.717,0.734,3.939,35.0
67.46,0.831,4.057,13.0
40.397,0.506,3.541,4.0
52.522,0.66,4.295,23.0
67.576,0.851,5.13,5.0
46.364,0.585,3.244,37.0
101.578,1.284,6.515,6.0
67.335,0.853,3.925,38.0
52.44,0.676,4.499,20.0
67.15,0.867,5.367,15.0
46.396,0.599,3.436,17.0
59.75,0.773,4.069,45.0
67.58,0.876,4.209,9.0
66.76,0.866,3.768,44.0
52.39,0.69,4.396,26.0
68.762,0.908,5.367,21.0
46.366,0.613,3.347,72.0
59.77,0.79,3.959,10.0
67.462,0.893,4.074,43.0
66.102,0.876,3.607,19.0
43.213,0.581,3.544,4.0
46.432,0.625,3.536,4.0
59.441,0.8,4.18,33.0
110.087,1.483,7.086,3.0
67.428,0.909,3.946,33.0
101.991,1.377,5.374,8.0
68.845,0.942,5.517,8.0
46.399,0.634,3.446,50.0
59.789,0.818,4.09,55.0
67.532,0.925,4.218,10.0
0.0,0.0,0.0,0.0
69.355,0.95,3.523,2.0
43.299,0.6,3.386,2.0
46.373,0.643,3.355,50.0
59.783,0.829,3.975,5.0
67.474,0.936,4.085,36.0
66.1,0.916,3.615,11.0
69.317,0.961,3.386,9.0
46.433,0.651,3.542,58.0
59.585,0.835,4.196,34.0
101.965,1.429,6.582,10.0
67.476,0.945,3.954,7.0
124.854,1.748,6.588,5.0
69.312,0.97,3.252,11.0
46.401,0.656,3.448,65.0
59.812,0.845,4.093,36.0
67.507,0.954,4.225,14.0
66.151,0.933,3.746,25.0
110.521,1.558,5.613,11.0
69.351,0.977,3.117,2.0
59.283,0.844,4.287,16.0
101.443,1.442,6.741,17.0
67.482,0.958,4.089,34.0
66.159,0.938,3.616,6.0
69.35,0.982,3.385,5.0
103.879,1.469,4.465,22.0
59.664,0.852,4.198,35.0
102.001,1.454,6.579,6.0
69.259,0.985,4.061,2.0
101.876,1.448,5.368,4.0
69.318,0.983,3.247,6.0
117.792,1.668,4.831,9.0
59.803,0.854,4.089,24.0
67.524,0.962,4.221,23.0
66.162,0.941,3.749,26.0
110.511,1.569,5.605,10.0
69.349,0.982,3.112,2.0
103.012,1.456,4.021,22.0
101.412,1.446,6.731,17.0
67.487,0.959,4.084,31.0
66.156,0.938,3.616,6.0
69.308,0.981,3.377,6.0
103.89,1.466,4.454,23.0
103.008,1.45,3.815,24.0
102.017,1.447,6.565,8.0
101.989,1.443,5.967,3.0
101.952,1.438,5.368,3.0
69.327,0.975,3.238,9.0
117.778,1.652,4.812,11.0
118.398,1.656,4.147,31.0
67.523,0.95,4.209,25.0
66.155,0.928,3.737,25.0
110.377,1.544,5.588,13.0
126.702,1.766,5.66,4.0
117.784,1.636,4.574,25.0
125.097,1.733,4.128,16.0
67.475,0.94,4.069,29.0
102.139,1.417,5.561,14.0
69.288,0.958,3.366,11.0
103.92,1.432,4.432,38.0
102.968,1.413,3.79,15.0
125.076,1.711,3.875,26.0
67.449,0.927,3.931,24.0
124.921,1.71,6.549,7.0
69.377,0.946,3.231,7.0
103.92,1.411,4.223,18.0
118.389,1.601,4.12,22.0
125.138,1.686,3.625,4.0
66.209,0.895,3.724,32.0
69.31,0.933,3.492,8.0
110.338,1.478,4.914,3.0
117.799,1.572,4.547,34.0
118.278,1.571,3.874,15.0
20.282,0.268,0.546,6.0
69.343,0.919,3.758,7.0
69.297,0.914,3.35,2.0
103.94,1.364,4.417,6.0
117.777,1.538,4.304,15.0
125.085,1.626,3.841,27.0
20.296,0.262,0.504,21.0
69.276,0.898,3.612,4.0
110.315,1.422,5.107,18.0
103.957,1.333,4.205,28.0
118.128,1.505,4.076,5.0
20.279,0.257,0.581,6.0
20.291,0.255,0.463,25.0
69.26,0.874,3.47,2.0
110.294,1.384,4.882,12.0
133.361,1.663,5.124,21.0
118.108,1.464,3.835,15.0
20.287,0.25,0.54,25.0
20.276,0.248,0.422,25.0
126.559,1.551,6.085,8.0
124.87,1.52,5.272,11.0
117.831,1.424,4.287,19.0
20.268,0.243,0.617,1.0
20.286,0.241,0.499,26.0
20.271,0.24,0.38,24.0
126.537,1.497,5.824,18.0
124.859,1.466,5.015,16.0
133.32,1.555,4.576,26.0
20.252,0.234,0.575,18.0
20.279,0.232,0.457,27.0
20.268,0.231,0.339,27.0
110.343,1.256,4.851,12.0
103.974,1.174,3.964,38.0
133.337,1.492,4.303,19.0
20.277,0.225,0.534,24.0
20.271,0.223,0.415,31.0
20.287,0.221,0.297,25.0
126.583,1.379,5.305,27.0
103.884,1.121,3.747,21.0
20.267,0.216,0.612,11.0
20.264,0.214,0.492,27.0
20.271,0.212,0.374,34.0
20.287,0.211,0.256,26.0
132.568,1.373,5.285,11.0
102.961,1.056,3.504,18.0
20.251,0.205,0.57,20.0
20.272,0.203,0.451,31.0
20.279,0.201,0.332,31.0
20.294,0.199,0.214,27.0
126.7,1.24,4.792,7.0
20.29,0.196,0.649,2.0
20.268,0.194,0.53,29.0
20.258,0.191,0.409,28.0
20.283,0.189,0.291,28.0
20.298,0.187,0.174,29.0
103.832,0.954,3.717,24.0
20.264,0.183,0.607,17.0
20.268,0.181,0.489,28.0
20.268,0.179,0.368,27.0
20.293,0.177,0.25,27.0
20.284,0.175,0.132,24.0
103.772,0.887,3.506,29.0
20.234,0.17,0.565,17.0
20.239,0.168,0.447,24.0
20.22,0.165,0.327,24.0
20.226,0.163,0.209,21.0
20.242,0.161,0.091,28.0
20.262,0.159,0.643,4.0
20.172,0.156,0.522,17.0
20.172,0.153,0.405,23.0
20.172,0.151,0.285,21.0
20.186,0.148,0.168,25.0
20.199,0.146,0.05,23.0
20.203,0.144,0.6,14.0
20.159,0.141,0.482,20.0
20.162,0.139,0.364,24.0
20.164,0.136,0.244,22.0
20.188,0.133,0.127,27.0
20.176,0.131,0.009,26.0
20.177,0.129,0.559,19.0
20.171,0.126,0.441,25.0
20.167,0.123,0.323,27.0
20.155,0.12,0.204,24.0
20.2,0.118,0.087,33.0
20.175,0.115,-0.03,31.0
20.173,0.113,0.519,23.0
20.16,0.11,0.401,28.0
20.155,0.107,0.283,27.0
20.156,0.104,0.164,26.0
20.185,0.101,0.047,36.0
20.191,0.099,-0.07,32.0
20.16,0.096,0.478,29.0
20.158,0.093,0.361,28.0
20.158,0.09,0.244,26.0
20.154,0.087,0.125,25.0
20.188,0.085,0.007,27.0
20.183,0.082,-0.109,28.0
20.159,0.079,0.44,29.0
20.143,0.076,0.322,26.0
20.147,0.073,0.205,27.0
20.197,0.07,0.085,28.0
20.197,0.067,-0.031,36.0
20.214,0.064,-0.149,25.0
20.142,0.061,0.4,28.0
20.144,0.058,0.282,26.0
20.143,0.055,0.165,25.0
20.186,0.051,0.046,20.0
20.216,0.048,-0.071,17.0
20.246,0.045,-0.189,23.0
20.145,0.042,0.361,30.0
20.136,0.039,0.243,27.0
20.138,0.036,0.126,28.0
20.253,0.033,0.007,150.0
20.264,0.029,-0.11,150.0
20.255,0.026,-0.227,150.0
20.136,0.023,0.322,28.0
20.132,0.02,0.205,27.0
20.148,0.016,0.088,28.0
20.253,0.013,-0.03,151.0
20.264,0.01,-0.148,151.0
20.269,0.006,-0.266,81.0
20.128,0.003,0.284,27.0
20.118,0.0,0.167,27.0
20.175,-0.003,0.05,19.0
20.199,-0.006,-0.068,18.0
20.196,-0.01,-0.185,6.0
20.204,-0.013,-0.303,0.0
20.119,-0.017,0.246,28.0
20.119,-0.02,0.129,33.0
20.141,-0.024,0.012,28.0
20.147,-0.027,-0.106,28.0
20.153,-0.031,-0.223,10.0
20.174,-0.034,-0.341,7.0
20.117,-0.038,0.208,39.0
20.137,-0.042,0.091,41.0
20.122,-0.045,-0.025,34.0
20.147,-0.049,-0.144,33.0
20.147,-0.053,-0.261,26.0
20.18,-0.057,-0.379,19.0
20.124,-0.06,0.171,30.0
20.145,-0.064,0.054,36.0
20.14,-0.068,-0.062,33.0
20.149,-0.072,-0.181,28.0
20.14,-0.075,-0.298,29.0
20.168,-0.079,-0.416,28.0
20.128,-0.083,0.134,32.0
20.134,-0.087,0.017,34.0
20.146,-0.091,-0.099,28.0
20.138,-0.094,-0.217,26.0
20.134,-0.098,-0.334,34.0
20.165,-0.102,-0.452,32.0
20.127,-0.106,0.098,38.0
20.153,-0.11,-0.018,28.0
20.15,-0.114,-0.135,27.0
20.128,-0.118,-0.254,33.0
20.146,-0.122,-0.371,36.0
20.177,-0.126,-0.489,28.0
20.157,-0.13,0.062,28.0
20.164,-0.134,-0.054,20.0
20.15,-0.138,-0.171,15.0
20.153,-0.142,-0.29,29.0
20.162,-0.146,-0.407,33.0
20.184,-0.151,-0.525,37.0
20.199,-0.155,0.027,11.0
20.179,-0.159,-0.089,11.0
20.145,-0.163,-0.206,12.0
20.165,-0.167,-0.325,25.0
20.172,-0.171,-0.442,27.0
20.193,-0.176,-0.56,38.0
53.359,-0.476,-0.019,6.0
56.461,-0.515,-0.348,1.0
44.967,-0.42,-0.537,19.0
37.871,-0.361,-0.676,3.0
20.186,-0.197,-0.477,28.0
20.191,-0.201,-0.594,37.0
56.223,-0.573,-0.116,12.0
58.792,-0.612,-0.462,10.0
44.868,-0.477,-0.613,13.0
35.933,-0.389,-0.703,3.0
20.189,-0.223,-0.512,17.0
20.208,-0.227,-0.629,34.0
56.233,-0.646,-0.211,1.0
52.856,-0.619,-0.505,8.0
38.445,-0.459,-0.59,14.0
31.932,-0.388,-0.678,9.0
29.044,-0.359,-0.785,2.0
20.222,-0.255,-0.664,25.0
56.602,-0.726,-0.307,15.0
45.101,-0.588,-0.506,19.0
37.956,-0.504,-0.646,24.0
30.845,-0.416,-0.706,26.0
27.724,-0.38,-0.795,1.0
20.223,-0.282,-0.697,8.0
56.592,-0.803,-0.4,5.0
44.845,-0.646,-0.576,24.0
35.991,-0.527,-0.67,2.0
30.229,-0.449,-0.741,18.0
26.551,-0.401,-0.805,2.0
26.289,-0.403,-0.949,0.0
52.882,-0.823,-0.458,20.0
38.64,-0.61,-0.558,12.0
31.403,-0.503,-0.635,9.0
29.011,-0.471,-0.757,5.0
25.452,-0.42,-0.812,4.0
25.2,-0.421,-0.949,0.0
45.383,-0.769,-0.464,20.0
38.063,-0.654,-0.609,19.0
30.756,-0.536,-0.67,30.0
27.564,-0.487,-0.762,1.0
24.334,-0.435,-0.814,2.0
23.665,-0.429,-0.928,0.0
44.959,-0.826,-0.529,39.0
0.0,0.0,0.0,0.0
30.462,-0.575,-0.71,24.0
26.861,-0.513,-0.784,1.0
23.235,-0.449,-0.812,1.0
22.882,-0.448,-0.932,0.0
44.875,-0.889,-0.595,8.0
31.449,-0.631,-0.599,14.0
29.429,-0.597,-0.73,8.0
25.517,-0.524,-0.783,3.0
22.121,-0.46,-0.807,2.0
21.839,-0.459,-0.922,0.0
38.226,-0.813,-0.564,23.0
30.935,-0.666,-0.635,31.0
28.194,-0.614,-0.741,1.0
23.996,-0.528,-0.771,5.0
21.286,-0.474,-0.807,1.0
21.127,-0.476,-0.923,0.0
37.992,-0.865,-0.615,21.0
30.555,-0.703,-0.671,33.0
25.304,-0.589,-0.701,3.0
23.618,-0.556,-0.793,5.0
20.598,-0.49,-0.811,1.0
20.366,-0.49,-0.919,0.0
31.576,-0.767,-0.556,7.0
30.434,-0.747,-0.711,23.0
24.861,-0.616,-0.724,13.0
22.311,-0.559,-0.78,1.0
19.961,-0.505,-0.813,1.0
19.725,-0.504,-0.918,0.0
31.144,-0.804,-0.592,30.0
0.0,0.0,0.0,0.0
24.151,-0.636,-0.737,22.0
21.487,-0.571,-0.781,0.0
19.315,-0.519,-0.814,1.0
19.05,-0.517,-0.912,0.0
30.724,-0.84,-0.625,36.0
28.084,-0.776,-0.733,1.0
23.773,-0.663,-0.757,18.0
20.837,-0.587,-0.786,1.0
18.73,-0.532,-0.814,0.0
18.396,-0.528,-0.906,0.0
30.527,-0.883,-0.661,35.0
27.34,-0.799,-0.75,0.0
23.55,-0.694,-0.781,5.0
20.374,-0.606,-0.795,3.0
18.17,-0.545,-0.814,0.0
17.844,-0.54,-0.902,0.0
30.451,-0.929,-0.699,22.0
24.826,-0.764,-0.712,12.0
22.477,-0.698,-0.774,1.0
19.78,-0.62,-0.797,5.0
17.685,-0.559,-0.814,0.0
17.304,-0.552,-0.896,0.0
30.179,-0.97,-0.73,8.0
24.285,-0.787,-0.727,23.0
21.905,-0.716,-0.782,2.0
19.344,-0.638,-0.803,3.0
17.189,-0.571,-0.813,0.0
16.828,-0.564,-0.892,0.0
28.355,-0.957,-0.72,1.0
23.83,-0.811,-0.742,16.0
21.235,-0.728,-0.783,0.0
18.729,-0.647,-0.8,5.0
16.87,-0.588,-0.817,0.0
16.271,-0.572,-0.882,1.0
27.618,-0.977,-0.734,0.0
23.711,-0.845,-0.766,10.0
20.606,-0.741,-0.784,0.0
18.373,-0.665,-0.806,2.0
16.322,-0.596,-0.81,0.0
16.07,-0.591,-0.89,1.0
25.034,-0.926,-0.694,10.0
22.993,-0.857,-0.769,2.0
20.292,-0.762,-0.795,1.0
17.865,-0.676,-0.804,1.0
16.162,-0.617,-0.82,0.0
15.947,-0.613,-0.901,1.0
24.541,-0.949,-0.707,14.0
22.169,-0.863,-0.765,2.0
19.651,-0.771,-0.791,0.0
17.357,-0.686,-0.8,2.0
16.023,-0.638,-0.83,1.0
15.858,-0.636,-0.913,1.0
24.025,-0.969,-0.717,19.0
21.673,-0.88,-0.771,1.0
19.172,-0.784,-0.792,0.0
16.934,-0.697,-0.798,1.0
15.829,-0.657,-0.837,1.0
15.757,-0.659,-0.923,0.0
23.823,-1.0,-0.736,21.0
21.262,-0.899,-0.778,0.0
18.661,-0.794,-0.789,0.0
16.802,-0.72,-0.809,2.0
15.697,-0.678,-0.845,1.0
15.661,-0.681,-0.933,0.0
23.633,-1.032,-0.753,12.0
20.545,-0.903,-0.772,0.0
18.247,-0.808,-0.79,0.0
16.384,-0.73,-0.804,1.0
15.599,-0.7,-0.855,1.0
15.543,-0.702,-0.941,0.0
23.384,-1.061,-0.767,5.0
20.232,-0.924,-0.779,0.0
17.973,-0.826,-0.795,0.0
16.259,-0.753,-0.813,2.0
15.492,-0.722,-0.864,1.0
15.455,-0.725,-0.95,0.0
22.368,-1.053,-0.754,2.0
19.76,-0.936,-0.779,0.0
17.577,-0.838,-0.793,0.0
16.129,-0.774,-0.821,1.0
15.377,-0.743,-0.871,1.0
15.364,-0.747,-0.958,0.0
22.004,-1.073,-0.761,2.0
19.44,-0.954,-0.783,0.0
17.295,-0.854,-0.795,0.0
15.916,-0.791,-0.824,1.0
15.295,-0.765,-0.879,1.0
15.274,-0.769,-0.965,0.0
21.567,-1.089,-0.763,1.0
19.031,-0.967,-0.782,0.0
17.0,-0.869,-0.795,0.0
15.764,-0.81,-0.829,0.0
15.19,-0.786,-0.885,1.0
15.057,-0.784,-0.963,0.0
21.168,-1.105,-0.766,1.0
18.798,-0.987,-0.787,0.0
16.768,-0.886,-0.797,1.0
15.663,-0.832,-0.836,0.0
15.124,-0.808,-0.893,1.0
14.906,-0.802,-0.965,3.0
20.808,-1.122,-0.768,2.0
18.51,-1.004,-0.789,0.0
16.614,-0.906,-0.802,0.0
15.54,-0.853,-0.84,0.0
15.041,-0.83,-0.899,1.0
14.876,-0.826,-0.974,2.0
20.567,-1.145,-0.774,2.0
18.269,-1.022,-0.791,0.0
16.472,-0.927,-0.807,1.0
15.417,-0.872,-0.844,0.0
14.98,-0.852,-0.906,1.0
14.834,-0.849,-0.981,0.0
20.264,-1.162,-0.776,2.0
18.086,-1.043,-0.795,0.0
16.259,-0.943,-0.807,2.0
15.312,-0.893,-0.848,0.0
14.919,-0.875,-0.911,1.0
14.795,-0.872,-0.988,0.0
19.979,-1.18,-0.777,1.0
17.693,-1.051,-0.789,0.0
16.167,-0.965,-0.812,1.0
15.197,-0.912,-0.851,0.0
14.852,-0.896,-0.916,1.0
14.658,-0.89,-0.987,0.0
19.569,-1.19,-0.773,0.0
17.543,-1.072,-0.792,0.0
16.025,-0.985,-0.814,1.0
14.98,-0.925,-0.847,0.0
14.779,-0.917,-0.92,1.0
14.355,-0.896,-0.975,0.0
19.418,-1.214,-0.777,0.0
17.304,-1.087,-0.791,0.0
15.878,-1.003,-0.815,1.0
14.891,-0.945,-0.85,0.0
14.722,-0.94,-0.924,1.0
14.084,-0.903,-0.964,0.0
19.202,-1.233,-0.778,0.0
17.214,-1.111,-0.795,1.0
15.763,-1.022,-0.817,0.0
14.762,-0.962,-0.85,0.0
14.659,-0.96,-0.927,1.0
14.057,-0.926,-0.969,0.0
18.953,-1.25,-0.777,0.0
17.001,-1.126,-0.793,1.0
15.707,-1.046,-0.821,0.0
14.647,-0.98,-0.85,0.0
14.595,-0.981,-0.929,1.0
14.024,-0.947,-0.972,0.0
18.788,-1.271,-0.778,1.0
16.919,-1.15,-0.796,1.0
15.605,-1.065,-0.822,1.0
14.605,-1.002,-0.853,1.0
14.546,-1.003,-0.932,1.0
13.966,-0.967,-0.974,0.0
18.568,-1.287,-0.775,1.0
16.765,-1.167,-0.794,1.0
15.518,-1.086,-0.823,0.0
14.553,-1.023,-0.855,1.0
14.479,-1.023,-0.932,1.0
13.937,-0.989,-0.976,0.0
18.4,-1.307,-0.775,1.0
16.649,-1.188,-0.795,1.0
15.438,-1.106,-0.823,1.0
14.478,-1.042,-0.855,1.0
14.436,-1.044,-0.934,1.0
13.809,-1.003,-0.972,0.0
18.263,-1.328,-0.774,1.0
16.605,-1.212,-0.797,1.0
15.357,-1.126,-0.824,1.0
14.412,-1.062,-0.855,1.0
14.358,-1.062,-0.933,1.0
13.824,-1.028,-0.976,0.0
18.306,-1.362,-0.781,1.0
16.513,-1.234,-0.797,1.0
15.345,-1.151,-0.826,1.0
14.352,-1.081,-0.855,1.0
14.306,-1.083,-0.933,1.0
13.876,-1.055,-0.983,0.0
18.212,-1.385,-0.78,2.0
16.459,-1.257,-0.797,1.0
15.318,-1.175,-0.828,1.0
14.299,-1.101,-0.855,1.0
14.252,-1.102,-0.932,1.0
13.971,-1.085,-0.992,0.0
18.207,-1.415,-0.783,1.0
16.427,-1.282,-0.798,1.0
15.251,-1.195,-0.827,1.0
14.276,-1.123,-0.855,0.0
14.203,-1.122,-0.931,1.0
14.069,-1.116,-1.001,0.0
18.116,-1.437,-0.782,1.0
16.354,-1.302,-0.797,1.0
15.237,-1.218,-0.828,1.0
14.251,-1.144,-0.855,0.0
14.156,-1.141,-0.929,1.0
13.928,-1.127,-0.992,0.0
18.082,-1.464,-0.782,1.0
16.311,-1.325,-0.796,1.0
15.236,-1.243,-0.829,1.0
14.183,-1.161,-0.852,0.0
14.116,-1.161,-0.927,1.0
13.993,-1.155,-0.998,0.0
18.046,-1.49,-0.781,0.0
16.295,-1.35,-0.796,1.0
15.225,-1.266,-0.829,1.0
14.18,-1.184,-0.852,0.0
14.065,-1.179,-0.924,1.0
13.909,-1.17,-0.992,0.0
18.034,-1.517,-0.78,0.0
16.277,-1.375,-0.795,1.0
15.225,-1.291,-0.829,1.0
14.178,-1.206,-0.852,0.0
14.029,-1.198,-0.921,1.0
13.952,-1.196,-0.994,0.0
17.953,-1.539,-0.776,0.0
16.279,-1.4,-0.794,2.0
15.192,-1.312,-0.826,1.0
14.175,-1.228,-0.851,0.0
13.976,-1.216,-0.917,1.0
13.918,-1.215,-0.991,0.0
18.043,-1.575,-0.779,1.0
16.289,-1.427,-0.794,2.0
15.23,-1.339,-0.827,1.0
14.142,-1.247,-0.848,0.0
13.945,-1.234,-0.914,1.0
13.876,-1.233,-0.986,0.0
18.07,-1.605,-0.778,1.0
16.297,-1.452,-0.792,2.0
15.249,-1.364,-0.826,1.0
14.259,-1.28,-0.853,0.0
13.908,-1.253,-0.909,1.0
13.867,-1.253,-0.984,0.0
18.044,-1.63,-0.774,1.0
16.315,-1.479,-0.79,2.0
15.297,-1.391,-0.826,1.0
14.207,-1.296,-0.847,0.0
13.863,-1.269,-0.904,2.0
13.857,-1.273,-0.981,0.0
18.107,-1.663,-0.773,1.0
16.36,-1.507,-0.789,1.0
15.278,-1.412,-0.822,1.0
14.243,-1.321,-0.846,0.0
13.839,-1.288,-0.899,1.0
13.813,-1.29,-0.974,1.0
18.185,-1.697,-0.772,1.0
16.372,-1.532,-0.786,1.0
15.271,-1.434,-0.817,1.0
14.246,-1.342,-0.843,0.0
13.79,-1.303,-0.893,1.0
13.789,-1.307,-0.969,2.0
18.234,-1.728,-0.769,1.0
16.424,-1.561,-0.784,1.0
15.32,-1.46,-0.816,1.0
14.304,-1.368,-0.842,0.0
13.754,-1.319,-0.886,1.0
13.74,-1.322,-0.961,1.0
18.343,-1.764,-0.769,1.0
16.534,-1.595,-0.784,1.0
15.35,-1.485,-0.812,1.0
14.326,-1.39,-0.839,0.0
13.733,-1.337,-0.88,1.0
13.708,-1.338,-0.955,1.0
18.44,-1.799,-0.766,1.0
16.643,-1.628,-0.783,1.0
15.459,-1.517,-0.813,1.0
14.429,-1.42,-0.84,0.0
13.691,-1.351,-0.872,1.0
13.697,-1.356,-0.949,1.0
18.567,-1.837,-0.765,1.0
16.744,-1.661,-0.782,0.0
15.477,-1.539,-0.808,1.0
14.441,-1.44,-0.835,0.0
13.668,-1.367,-0.865,1.0
13.655,-1.37,-0.94,1.0
18.751,-1.88,-0.764,1.0
16.85,-1.694,-0.78,0.0
15.567,-1.569,-0.806,1.0
14.467,-1.462,-0.83,0.0
13.666,-1.385,-0.859,1.0
13.631,-1.386,-0.932,1.0
18.927,-1.923,-0.763,1.0
16.964,-1.728,-0.777,0.0
15.644,-1.597,-0.803,1.0
14.58,-1.493,-0.83,0.0
13.681,-1.404,-0.854,0.0
13.601,-1.4,-0.924,1.0
19.067,-1.961,-0.76,1.0
17.052,-1.758,-0.773,0.0
15.799,-1.633,-0.803,0.0
14.712,-1.525,-0.83,0.0
13.77,-1.431,-0.852,0.0
13.563,-1.413,-0.914,1.0
19.29,-2.008,-0.759,2.0
17.275,-1.803,-0.774,0.0
15.882,-1.661,-0.799,1.0
14.799,-1.552,-0.827,1.0
13.85,-1.456,-0.85,0.0
13.539,-1.427,-0.905,1.0
19.466,-2.05,-0.755,2.0
17.456,-1.843,-0.772,1.0
15.952,-1.688,-0.793,1.0
14.931,-1.584,-0.826,1.0
13.95,-1.484,-0.848,0.0
13.517,-1.441,-0.896,1.0
19.683,-2.097,-0.752,1.0
17.639,-1.883,-0.77,0.0
16.111,-1.724,-0.791,1.0
15.013,-1.61,-0.821,1.0
14.044,-1.51,-0.845,0.0
13.507,-1.456,-0.887,2.0
19.983,-2.152,-0.751,1.0
17.937,-1.936,-0.772,1.0
16.227,-1.755,-0.787,1.0
15.128,-1.64,-0.818,1.0
14.162,-1.539,-0.843,0.0
13.47,-1.467,-0.876,2.0
20.293,-2.208,-0.75,3.0
18.066,-1.97,-0.766,1.0
16.337,-1.785,-0.782,1.0
15.218,-1.666,-0.813,1.0
14.241,-1.563,-0.838,1.0
13.474,-1.482,-0.867,1.0
20.571,-2.261,-0.746,2.0
18.293,-2.014,-0.763,1.0
16.567,-1.828,-0.781,1.0
15.324,-1.694,-0.808,1.0
14.346,-1.59,-0.835,1.0
13.475,-1.496,-0.858,1.0
20.758,-2.303,-0.738,4.0
18.526,-2.059,-0.76,2.0
16.779,-1.869,-0.78,1.0
15.491,-1.729,-0.806,1.0
14.478,-1.619,-0.832,0.0
13.585,-1.523,-0.855,0.0
21.018,-2.353,-0.732,2.0
18.848,-2.114,-0.759,1.0
16.97,-1.907,-0.776,1.0
15.605,-1.757,-0.8,1.0
14.607,-1.648,-0.828,1.0
13.728,-1.552,-0.853,0.0
21.444,-2.422,-0.731,3.0
19.107,-2.162,-0.755,1.0
17.174,-1.947,-0.772,1.0
15.772,-1.791,-0.796,1.0
14.756,-1.679,-0.825,1.0
13.821,-1.576,-0.848,1.0
21.789,-2.482,-0.725,4.0
19.461,-2.22,-0.754,1.0
17.414,-1.99,-0.769,0.0
15.971,-1.829,-0.793,1.0
14.936,-1.713,-0.823,1.0
13.943,-1.603,-0.844,1.0
22.206,-2.55,-0.721,4.0
19.77,-2.274,-0.749,1.0
17.731,-2.043,-0.768,0.0
16.149,-1.864,-0.789,1.0
15.086,-1.744,-0.819,1.0
14.087,-1.632,-0.841,1.0
22.532,-2.607,-0.713,5.0
20.104,-2.33,-0.745,1.0
17.909,-2.079,-0.76,0.0
16.314,-1.897,-0.783,1.0
15.184,-1.768,-0.811,1.0
14.206,-1.657,-0.836,1.0
22.994,-2.68,-0.707,5.0
20.477,-2.39,-0.741,2.0
18.43,-2.154,-0.766,0.0
16.57,-1.94,-0.78,0.0
15.392,-1.805,-0.808,1.0
14.345,-1.685,-0.831,0.0
23.259,-2.729,-0.695,4.0
20.778,-2.441,-0.733,3.0
18.732,-2.204,-0.762,1.0
16.816,-1.981,-0.777,1.0
15.474,-1.826,-0.799,1.0
14.539,-1.719,-0.829,0.0
23.886,-2.821,-0.692,3.0
21.292,-2.518,-0.732,4.0
19.08,-2.259,-0.759,2.0
17.072,-2.024,-0.773,1.0
15.714,-1.866,-0.796,1.0
14.755,-1.755,-0.828,1.0
24.615,-2.924,-0.69,2.0
21.737,-2.586,-0.726,4.0
19.355,-2.305,-0.751,2.0
17.413,-2.077,-0.772,0.0
15.956,-1.906,-0.793,1.0
14.894,-1.781,-0.821,1.0
25.259,-3.018,-0.684,5.0
22.083,-2.641,-0.717,4.0
19.73,-2.363,-0.747,2.0
17.676,-2.12,-0.766,0.0
16.165,-1.941,-0.788,1.0
15.057,-1.81,-0.815,1.0
25.745,-3.092,-0.672,4.0
22.553,-2.712,-0.71,4.0
20.1,-2.42,-0.741,2.0
18.034,-2.173,-0.764,0.0
16.383,-1.977,-0.782,1.0
15.29,-1.847,-0.813,1.0
26.34,-3.179,-0.661,4.0
23.131,-2.795,-0.705,3.0
20.565,-2.487,-0.737,2.0
18.488,-2.239,-0.764,0.0
16.616,-2.014,-0.776,1.0
15.437,-1.873,-0.805,1.0
27.073,-3.282,-0.652,2.0
23.634,-2.868,-0.696,3.0
21.029,-2.554,-0.733,4.0
18.898,-2.298,-0.762,1.0
17.017,-2.071,-0.778,1.0
15.585,-1.899,-0.796,1.0
27.69,-3.371,-0.638,3.0
24.385,-2.971,-0.693,5.0
21.542,-2.627,-0.728,4.0
19.175,-2.341,-0.753,1.0
17.283,-2.112,-0.772,1.0
15.877,-1.942,-0.794,0.0
28.509,-3.484,-0.627,8.0
24.818,-3.035,-0.679,4.0
21.976,-2.69,-0.72,4.0
19.587,-2.4,-0.749,1.0
17.627,-2.161,-0.769,1.0
16.111,-1.977,-0.789,1.0
28.978,-3.553,-0.607,18.0
25.723,-3.156,-0.676,4.0
22.589,-2.774,-0.716,4.0
20.014,-2.46,-0.743,1.0
18.048,-2.22,-0.767,0.0
16.363,-2.014,-0.784,1.0
29.143,-3.584,-0.579,21.0
26.262,-3.232,-0.662,4.0
23.109,-2.846,-0.707,5.0
20.489,-2.525,-0.739,2.0
18.498,-2.281,-0.766,1.0
16.649,-2.055,-0.779,1.0
29.911,-3.689,-0.561,25.0
27.099,-3.344,-0.654,5.0
23.617,-2.916,-0.696,4.0
20.985,-2.592,-0.734,3.0
18.844,-2.329,-0.76,2.0
17.032,-2.107,-0.778,1.0
30.583,-3.78,-0.54,21.0
27.748,-3.431,-0.639,7.0
24.283,-3.004,-0.689,1.0
21.527,-2.665,-0.729,4.0
19.267,-2.386,-0.755,2.0
17.35,-2.15,-0.774,1.0
31.477,-3.898,-0.521,22.0
28.407,-3.519,-0.622,10.0
25.058,-3.105,-0.683,2.0
22.103,-2.74,-0.724,4.0
19.636,-2.436,-0.748,1.0
17.644,-2.19,-0.767,1.0
32.55,-4.037,-0.502,27.0
28.717,-3.563,-0.597,22.0
25.673,-3.186,-0.671,4.0
22.558,-2.8,-0.713,4.0
20.167,-2.505,-0.745,2.0
18.233,-2.265,-0.772,1.0
33.331,-4.139,-0.477,27.0
29.074,-3.611,-0.571,18.0
26.364,-3.275,-0.659,2.0
23.227,-2.886,-0.707,4.0
20.592,-2.559,-0.738,2.0
18.579,-2.31,-0.765,2.0
34.025,-4.228,-0.447,26.0
30.034,-3.733,-0.556,18.0
27.261,-3.389,-0.65,2.0
23.666,-2.942,-0.694,2.0
21.137,-2.628,-0.733,3.0
19.0,-2.363,-0.76,1.0
34.664,-4.309,-0.416,15.0
30.988,-3.853,-0.538,12.0
28.091,-3.493,-0.638,7.0
24.675,-3.068,-0.695,2.0
21.742,-2.704,-0.729,3.0
19.366,-2.409,-0.753,2.0
39.763,-4.943,-0.432,9.0
31.887,-3.964,-0.517,21.0
28.455,-3.537,-0.614,19.0
25.181,-3.13,-0.68,5.0
22.28,-2.77,-0.721,4.0
19.826,-2.465,-0.748,1.0
39.933,-4.963,-0.388,24.0
32.845,-4.081,-0.495,25.0
28.845,-3.584,-0.589,20.0
25.883,-3.216,-0.669,4.0
22.85,-2.839,-0.713,4.0
20.369,-2.531,-0.745,2.0
40.216,-4.995,-0.344,16.0
33.636,-4.176,-0.468,25.0
29.341,-3.643,-0.564,19.0
26.747,-3.32,-0.66,2.0
23.448,-2.91,-0.705,3.0
20.897,-2.593,-0.74,3.0
40.455,-5.019,-0.299,6.0
34.398,-4.266,-0.438,21.0
30.429,-3.773,-0.55,18.0
27.633,-3.426,-0.65,6.0
24.076,-2.984,-0.695,1.0
21.433,-2.656,-0.733,4.0
46.039,-5.703,-0.287,21.0
39.707,-4.917,-0.46,5.0
31.431,-3.891,-0.531,17.0
28.261,-3.497,-0.632,8.0
24.924,-3.084,-0.691,2.0
22.055,-2.728,-0.729,4.0
47.201,-5.837,-0.239,22.0
39.831,-4.923,-0.415,18.0
32.539,-4.02,-0.513,25.0
28.707,-3.545,-0.608,17.0
25.753,-3.179,-0.683,5.0
22.643,-2.794,-0.722,4.0
48.733,-6.013,-0.191,24.0
40.144,-4.95,-0.371,15.0
33.367,-4.112,-0.486,27.0
29.164,-3.593,-0.584,20.0
26.33,-3.242,-0.668,4.0
23.22,-2.858,-0.713,5.0
50.23,-6.181,-0.138,11.0
40.376,-4.966,-0.327,10.0
34.15,-4.197,-0.459,29.0
30.087,-3.696,-0.568,22.0
27.129,-3.331,-0.657,2.0
23.719,-2.911,-0.701,3.0
55.726,-6.837,-0.088,15.0
45.941,-5.633,-0.318,20.0
34.794,-4.263,-0.427,21.0
30.919,-3.786,-0.548,17.0
28.1,-3.439,-0.648,7.0
24.583,-3.007,-0.699,5.0
80.737,-9.873,-0.036,9.0
46.95,-5.737,-0.271,21.0
39.753,-4.854,-0.442,17.0
31.899,-3.892,-0.528,26.0
28.755,-3.506,-0.63,9.0
25.119,-3.06,-0.685,2.0
80.867,-9.852,0.058,18.0
48.017,-5.844,-0.222,22.0
39.966,-4.86,-0.398,21.0
32.912,-3.999,-0.507,24.0
29.304,-3.558,-0.608,21.0
25.969,-3.151,-0.678,2.0
80.851,-9.809,0.149,20.0
0.0,0.0,0.0,0.0
40.214,-4.87,-0.355,15.0
33.727,-4.08,-0.481,28.0
29.907,-3.615,-0.587,25.0
26.624,-3.216,-0.665,3.0
80.748,-9.752,0.241,27.0
55.57,-6.704,-0.13,12.0
45.769,-5.516,-0.352,12.0
34.476,-4.151,-0.453,26.0
30.7,-3.693,-0.568,22.0
27.7,-3.329,-0.66,3.0
80.511,-9.676,0.331,22.0
56.162,-6.742,-0.068,6.0
46.516,-5.578,-0.305,21.0
39.755,-4.762,-0.477,3.0
31.731,-3.797,-0.551,26.0
28.402,-3.395,-0.645,7.0
80.266,-9.595,0.42,27.0
80.972,-9.668,-0.009,13.0
47.62,-5.679,-0.26,22.0
39.868,-4.749,-0.435,14.0
32.735,-3.895,-0.532,28.0
29.125,-3.462,-0.629,11.0
80.151,-9.527,0.508,27.0
80.917,-9.605,0.079,19.0
48.553,-5.756,-0.211,11.0
40.191,-4.759,-0.394,15.0
33.469,-3.958,-0.507,28.0
29.679,-3.506,-0.608,22.0
80.041,-9.456,0.595,33.0
80.242,-9.466,0.167,33.0
50.555,-5.955,-0.165,7.0
40.301,-4.741,-0.351,7.0
34.129,-4.01,-0.48,28.0
30.36,-3.563,-0.59,19.0
80.014,-9.391,0.682,29.0
80.107,-9.388,0.254,32.0
55.711,-6.519,-0.122,14.0
45.943,-5.369,-0.351,22.0
34.907,-4.073,-0.453,20.0
31.268,-3.644,-0.574,17.0
80.019,-9.326,0.767,26.0
65.261,-7.594,0.276,7.0
56.328,-6.545,-0.063,3.0
47.171,-5.473,-0.311,22.0
39.759,-4.606,-0.475,8.0
32.223,-3.728,-0.557,30.0
80.02,-9.258,0.85,16.0
65.201,-7.531,0.344,150.0
65.223,-7.522,-0.005,0.0
48.639,-5.6,-0.269,23.0
39.972,-4.595,-0.436,16.0
32.899,-3.776,-0.535,27.0
84.487,-9.699,0.986,13.0
65.189,-7.471,0.411,83.0
65.067,-7.444,0.062,0.0
50.261,-5.74,-0.226,24.0
40.241,-4.588,-0.397,12.0
33.806,-3.848,-0.514,33.0
84.218,-9.588,1.07,33.0
65.208,-7.41,0.479,5.0
65.053,-7.379,0.129,2.0
55.145,-6.244,-0.191,10.0
44.769,-5.061,-0.395,4.0
34.445,-3.887,-0.489,30.0
83.83,-9.461,1.15,28.0
65.165,-7.34,0.544,3.0
65.148,-7.325,0.194,160.0
55.824,-6.265,-0.138,21.0
45.291,-5.073,-0.355,8.0
35.095,-3.924,-0.464,12.0
83.721,-9.363,1.232,25.0
65.146,-7.271,0.608,0.0
65.074,-7.248,0.258,3.0
56.446,-6.275,-0.083,4.0
47.309,-5.249,-0.324,21.0
39.871,-4.415,-0.487,11.0
82.237,-9.109,1.29,15.0
0.0,0.0,0.0,0.0
65.087,-7.179,0.321,2.0
65.28,-7.186,-0.034,4.0
0.0,0.0,0.0,0.0
40.106,-4.397,-0.452,15.0
82.156,-9.01,1.367,24.0
0.0,0.0,0.0,0.0
65.035,-7.101,0.382,1.0
64.965,-7.079,0.025,2.0
51.413,-5.59,-0.255,15.0
0.0,0.0,0.0,0.0
82.188,-8.919,1.444,37.0
0.0,0.0,0.0,0.0
65.054,-7.028,0.442,56.0
64.963,-7.002,0.085,2.0
54.802,-5.894,-0.222,28.0
0.0,0.0,0.0,0.0
82.248,-8.828,1.519,45.0
0.0,0.0,0.0,0.0
65.103,-6.955,0.501,159.0
64.824,-6.909,0.143,2.0
55.728,-5.925,-0.176,29.0
44.876,-4.761,-0.383,17.0
82.063,-8.708,1.589,41.0
0.0,0.0,0.0,0.0
65.041,-6.867,0.558,5.0
65.03,-6.849,0.201,26.0
56.25,-5.91,-0.129,6.0
0.0,0.0,0.0,0.0
81.876,-8.585,1.656,42.0
0.0,0.0,0.0,0.0
65.004,-6.78,0.613,4.0
65.095,-6.773,0.257,157.0
65.27,-6.774,-0.094,4.0
0.0,0.0,0.0,0.0
81.815,-8.471,1.724,44.0
81.957,-8.464,1.284,7.0
0.0,0.0,0.0,0.0
65.092,-6.686,0.31,170.0
65.071,-6.667,-0.039,2.0
51.23,-5.235,-0.307,15.0
82.032,-8.384,1.796,48.0
81.91,-8.348,1.351,23.0
0.0,0.0,0.0,0.0
65.089,-6.597,0.363,175.0
64.963,-6.567,0.011,4.0
0.0,0.0,0.0,0.0
82.161,-8.285,1.864,26.0
81.845,-8.229,1.414,39.0
0.0,0.0,0.0,0.0
65.065,-6.504,0.414,6.0
64.968,-6.476,0.062,64.0
55.216,-5.489,-0.245,29.0
82.828,-8.235,1.942,14.0
81.8,-8.109,1.475,42.0
0.0,0.0,0.0,0.0
65.049,-6.41,0.462,34.0
64.995,-6.387,0.11,5.0
55.614,-5.449,-0.206,20.0
82.505,-8.085,1.995,39.0
81.825,-7.994,1.535,38.0
0.0,0.0,0.0,0.0
65.1,-6.321,0.509,13.0
65.081,-6.301,0.156,7.0
55.905,-5.396,-0.168,6.0
82.155,-7.931,2.044,40.0
81.95,-7.886,1.594,48.0
0.0,0.0,0.0,0.0
65.11,-6.226,0.554,2.0
65.159,-6.211,0.201,166.0
56.054,-5.327,-0.13,3.0
81.968,-7.79,2.095,40.0
82.597,-7.823,1.663,36.0
54.935,-5.186,0.808,12.0
54.915,-5.166,0.504,13.0
65.213,-6.116,0.244,159.0
54.951,-5.137,-0.091,109.0
82.044,-7.67,2.15,39.0
54.936,-5.118,1.141,150.0
54.951,-5.102,0.843,150.0
54.963,-5.086,0.539,153.0
54.974,-5.07,0.241,162.0
54.971,-5.052,-0.057,150.0
82.029,-7.54,2.201,35.0
54.929,-5.031,1.175,150.0
54.935,-5.014,0.876,150.0
54.914,-4.994,0.571,37.0
54.908,-4.976,0.273,2.0
55.687,-5.03,-0.025,3.0
82.303,-7.433,2.256,40.0
83.146,-7.482,1.827,45.0
0.0,0.0,0.0,0.0
0.0,0.0,0.0,0.0
0.0,0.0,0.0,0.0
64.218,-5.696,0.007,3.0
82.372,-7.305,2.304,37.0
83.139,-7.346,1.872,36.0
0.0,0.0,0.0,0.0
0.0,0.0,0.0,0.0
0.0,0.0,0.0,0.0
0.0,0.0,0.0,0.0
82.22,-7.157,2.342,9.0
83.062,-7.202,1.914,23.0
0.0,0.0,0.0,0.0
0.0,0.0,0.0,0.0
0.0,0.0,0.0,0.0
64.098,-5.474,0.072,7.0
82.306,-7.026,2.385,40.0
83.104,-7.066,1.954,23.0
0.0,0.0,0.0,0.0
0.0,0.0,0.0,0.0
79.376,-6.669,0.559,10.0
79.484,-6.652,0.127,22.0
82.185,-6.876,2.419,40.0
82.537,-6.877,1.978,43.0
83.096,-6.895,1.538,12.0
82.008,-6.777,1.062,42.0
79.341,-6.529,0.594,28.0
79.523,-6.517,0.161,26.0
82.517,-6.76,2.464,48.0
82.341,-6.717,2.009,40.0
83.079,-6.748,1.572,65.0
81.951,-6.627,1.094,35.0
79.39,-6.394,0.626,27.0
79.386,-6.368,0.192,24.0
82.711,-6.63,2.502,43.0
82.278,-6.566,2.039,46.0
82.743,-6.575,1.597,48.0
81.927,-6.48,1.125,35.0
79.274,-6.244,0.654,1.0
61.513,-4.824,0.171,19.0
82.449,-6.462,2.524,47.0
82.235,-6.416,2.066,43.0
82.628,-6.417,1.623,39.0
81.931,-6.335,1.152,35.0
65.741,-5.061,0.564,5.0
65.584,-5.027,0.204,191.0
82.687,-6.333,2.557,47.0
82.564,-6.293,2.1,43.0
82.804,-6.282,1.652,53.0
0.0,0.0,0.0,0.0
65.614,-4.932,0.583,9.0
65.563,-4.906,0.222,152.0
82.998,-6.206,2.591,44.0
82.4,-6.131,2.119,34.0
82.972,-6.143,1.678,36.0
0.0,0.0,0.0,0.0
65.603,-4.811,0.6,7.0
65.545,-4.785,0.239,0.0
82.858,-6.043,2.607,43.0
82.503,-5.987,2.142,40.0
82.849,-5.982,1.695,53.0
0.0,0.0,0.0,0.0
65.561,-4.687,0.614,1.0
65.602,-4.668,0.254,1.0
82.7,-5.878,2.62,39.0
82.502,-5.834,2.159,37.0
82.898,-5.831,1.713,39.0
0.0,0.0,0.0,0.0
65.612,-4.569,0.627,154.0
65.572,-4.542,0.266,1.0
83.509,-5.778,2.659,31.0
82.501,-5.678,2.172,35.0
83.042,-5.686,1.729,13.0
65.889,-4.488,1.002,2.0
65.607,-4.445,0.637,151.0
24.614,-1.658,0.103,1.0
24.517,-1.65,0.784,36.0
24.56,-1.643,0.65,25.0
24.573,-1.636,0.514,29.0
24.561,-1.626,0.376,26.0
24.536,-1.615,0.24,25.0
24.557,-1.608,0.105,33.0
24.492,-1.601,0.785,64.0
24.532,-1.595,0.651,56.0
24.538,-1.586,0.516,44.0
24.535,-1.577,0.378,55.0
24.527,-1.567,0.242,40.0
24.526,-1.559,0.107,59.0
24.489,-1.554,0.787,71.0
24.539,-1.548,0.653,85.0
24.532,-1.538,0.517,59.0
24.524,-1.529,0.379,69.0
24.519,-1.519,0.243,80.0
24.512,-1.51,0.108,57.0
24.499,-1.507,0.788,62.0
24.542,-1.5,0.653,72.0
24.544,-1.491,0.518,75.0
24.541,-1.482,0.379,73.0
24.536,-1.473,0.243,66.0
24.523,-1.463,0.108,53.0
24.537,-1.461,0.789,68.0
24.565,-1.453,0.653,73.0
24.559,-1.444,0.517,53.0
24.559,-1.435,0.379,52.0
24.555,-1.426,0.243,46.0
24.547,-1.416,0.107,43.0
24.578,-1.415,0.789,39.0
24.594,-1.407,0.653,17.0
24.592,-1.397,0.516,16.0
24.588,-1.388,0.377,15.0
24.597,-1.379,0.241,23.0
24.595,-1.37,0.105,7.0
83.498,-4.642,2.673,38.0
83.911,-4.633,2.22,38.0
84.033,-4.608,1.757,32.0
0.0,0.0,0.0,0.0
65.814,-3.56,0.639,0.0
0.0,0.0,0.0,0.0
84.443,-4.525,2.692,45.0
84.588,-4.502,2.227,42.0
84.775,-4.48,1.761,42.0
82.935,-4.352,1.253,8.0
0.0,0.0,0.0,0.0
0.0,0.0,0.0,0.0
84.789,-4.376,2.69,38.0
84.788,-4.345,2.218,42.0
84.886,-4.318,1.748,41.0
82.899,-4.187,1.238,36.0
68.113,-3.416,0.638,0.0
0.0,0.0,0.0,0.0
85.795,-4.256,2.703,38.0
84.672,-4.169,2.197,39.0
84.588,-4.133,1.723,41.0
82.967,-4.023,1.22,35.0
82.664,-3.98,0.756,10.0
79.81,-3.813,0.285,3.0
85.632,-4.075,2.677,20.0
84.928,-4.011,2.181,35.0
84.994,-3.982,1.709,29.0
31.335,-1.456,0.452,7.0
31.301,-1.443,0.277,27.0
31.232,-1.429,0.103,43.0
86.204,-3.928,2.67,14.0
85.199,-3.851,2.164,19.0
31.294,-1.402,0.62,30.0
31.219,-1.388,0.441,35.0
28.462,-1.254,0.243,53.0
28.46,-1.244,0.085,65.0
28.459,-1.238,0.872,58.0
28.449,-1.228,0.713,61.0
28.437,-1.217,0.554,69.0
28.431,-1.206,0.392,98.0
28.446,-1.197,0.233,108.0
28.442,-1.187,0.075,110.0
28.435,-1.181,0.861,106.0
28.439,-1.17,0.702,122.0
28.427,-1.159,0.543,151.0
28.443,-1.149,0.381,127.0
28.444,-1.139,0.222,71.0
28.457,-1.129,0.063,68.0
28.449,-1.124,0.85,68.0
28.457,-1.114,0.691,59.0
31.255,-1.212,0.584,25.0
31.223,-1.199,0.406,45.0
31.253,-1.189,0.231,37.0
31.292,-1.179,0.056,44.0
31.279,-1.173,0.921,52.0
31.284,-1.161,0.746,46.0
31.304,-1.151,0.571,41.0
31.345,-1.141,0.393,20.0
80.35,-2.896,0.558,29.0
80.431,-2.871,0.108,29.0
31.327,-1.111,0.907,44.0
31.388,-1.102,0.733,14.0
152.051,-5.283,2.7,11.0
84.818,-2.917,1.022,39.0
80.413,-2.737,0.518,16.0
38.754,-1.305,0.032,16.0
38.673,-1.293,1.1,37.0
38.663,-1.279,0.883,58.0
38.653,-1.265,0.666,47.0
38.65,-1.251,0.445,58.0
38.674,-1.238,0.228,60.0
38.667,-1.223,0.011,62.0
38.606,-1.212,1.077,68.0
38.63,-1.199,0.86,73.0
38.631,-1.186,0.643,72.0
38.616,-1.172,0.422,72.0
38.628,-1.159,0.205,70.0
38.663,-1.146,-0.011,76.0
38.623,-1.136,1.054,82.0
38.648,-1.122,0.837,84.0
38.627,-1.108,0.62,68.0
38.615,-1.094,0.399,73.0
38.639,-1.081,0.181,70.0
38.653,-1.068,-0.035,63.0
38.635,-1.058,1.03,91.0
38.644,-1.044,0.812,56.0
38.665,-1.032,0.596,53.0
38.675,-1.018,0.374,47.0
38.707,-1.006,0.157,28.0
38.746,-0.993,-0.06,29.0
38.667,-0.981,1.005,44.0
0.0,0.0,0.0,0.0
40.427,-0.997,0.595,26.0
40.414,-0.983,0.363,36.0
40.409,-0.969,0.136,38.0
40.411,-0.955,-0.091,38.0
0.0,0.0,0.0,0.0
40.41,-0.93,0.794,40.0
40.408,-0.917,0.566,150.0
40.415,-0.902,0.334,10.0
38.364,-0.843,0.1,19.0
38.366,-0.83,-0.115,47.0
38.408,-0.821,0.942,17.0
38.404,-0.807,0.725,8.0
52.929,-1.095,0.701,42.0
52.926,-1.077,0.397,68.0
52.948,-1.059,0.098,62.0
52.94,-1.04,-0.2,49.0
38.16,-0.74,0.906,0.0
191.711,-3.654,3.471,6.0
192.997,-3.612,2.404,21.0
67.6,-1.243,0.454,2.0
20.138,-0.363,0.021,28.0
20.137,-0.356,-0.092,0.0
176.704,-3.081,4.053,33.0
176.621,-3.018,3.052,70.0
20.152,-0.337,0.234,3.0
20.119,-0.33,0.118,13.0
20.133,-0.324,0.004,28.0
59.499,-0.937,-0.322,5.0
53.512,-0.827,1.181,72.0
20.145,-0.304,0.33,9.0
20.118,-0.297,0.216,14.0
20.124,-0.291,0.1,9.0
59.52,-0.841,-0.038,82.0
56.549,-0.78,-0.356,10.0
20.137,-0.272,0.426,11.0
20.125,-0.265,0.312,12.0
20.142,-0.258,0.198,11.0
56.235,-0.704,0.23,1.0
56.25,-0.685,-0.088,1.0
59.543,-0.706,-0.43,4.0
20.152,-0.233,0.408,16.0
20.159,-0.226,0.294,15.0
64.321,-0.702,0.574,35.0
56.185,-0.596,0.177,5.0
56.235,-0.578,-0.14,15.0
56.617,-0.563,-0.462,1.0
20.196,-0.195,0.389,25.0
64.354,-0.601,0.877,35.0
64.337,-0.58,0.512,5.0
56.244,-0.49,0.123,3.0
20.198,-0.169,-0.07,8.0
20.156,-0.162,-0.184,10.0
20.235,-0.157,0.37,27.0
20.185,-0.15,0.255,17.0
20.144,-0.143,0.14,15.0
20.151,-0.137,0.023,26.0
20.156,-0.13,-0.09,26.0
20.164,-0.124,-0.204,20.0
20.129,-0.118,0.347,26.0
20.133,-0.111,0.233,23.0
20.13,-0.105,0.119,26.0
20.125,-0.099,0.002,35.0
20.133,-0.093,-0.111,30.0
20.15,-0.087,-0.225,24.0
20.12,-0.08,0.326,30.0
20.118,-0.074,0.211,29.0
20.121,-0.068,0.097,40.0
20.12,-0.062,-0.018,36.0
20.144,-0.056,-0.133,32.0
20.154,-0.049,-0.247,21.0
20.123,-0.043,0.304,29.0
20.115,-0.037,0.189,34.0
20.133,-0.031,0.075,35.0
20.12,-0.025,-0.04,18.0
20.177,-0.019,-0.155,14.0
20.229,-0.012,-0.271,7.0
20.124,-0.006,0.281,28.0
20.13,0.0,0.167,27.0
20.232,0.005,0.052,82.0
20.258,0.011,-0.064,152.0
20.254,0.017,-0.179,151.0
20.264,0.023,-0.295,149.0
20.142,0.029,0.258,29.0
20.146,0.035,0.144,27.0
20.204,0.041,0.029,19.0
20.215,0.048,-0.087,24.0
20.208,0.054,-0.203,13.0
0.0,0.0,0.0,0.0
20.147,0.066,0.234,28.0
20.156,0.072,0.119,26.0
20.198,0.078,0.005,27.0
20.179,0.083,-0.111,29.0
20.197,0.089,-0.227,24.0
20.192,0.095,-0.342,13.0
20.168,0.101,0.21,27.0
20.194,0.107,0.095,34.0
20.174,0.113,-0.019,27.0
20.172,0.119,-0.136,41.0
20.172,0.124,-0.251,32.0
20.186,0.13,-0.367,30.0
20.182,0.136,0.185,25.0
20.218,0.142,0.07,28.0
20.218,0.148,-0.044,22.0
20.159,0.153,-0.161,19.0
20.161,0.159,-0.276,34.0
20.174,0.165,-0.392,34.0
20.301,0.172,0.16,29.0
20.335,0.178,0.044,32.0
20.24,0.183,-0.071,4.0
20.16,0.188,-0.187,14.0
20.181,0.194,-0.303,28.0
20.18,0.2,-0.418,31.0
20.307,0.207,0.134,27.0
20.327,0.213,0.017,5.0
0.0,0.0,0.0,0.0
20.183,0.222,-0.214,15.0
20.181,0.228,-0.33,25.0
20.215,0.234,-0.446,22.0
99.586,1.182,0.524,5.0
99.53,1.208,-0.044,2.0
0.0,0.0,0.0,0.0
0.0,0.0,0.0,0.0
20.204,0.261,-0.357,4.0
20.202,0.267,-0.473,7.0
99.618,1.345,0.389,6.0
101.408,1.397,-0.183,1.0
0.0,0.0,0.0,0.0
0.0,0.0,0.0,0.0
0.0,0.0,0.0,0.0
33.919,0.503,-0.841,1.0
99.72,1.509,0.25,5.0
0.0,0.0,0.0,0.0
0.0,0.0,0.0,0.0
0.0,0.0,0.0,0.0
38.543,0.624,-0.789,0.0
32.437,0.533,-0.85,1.0
99.815,1.67,0.109,9.0
0.0,0.0,0.0,0.0
0.0,0.0,0.0,0.0
0.0,0.0,0.0,0.0
37.134,0.66,-0.814,0.0
31.528,0.568,-0.872,1.0
0.0,0.0,0.0,0.0
0.0,0.0,0.0,0.0
0.0,0.0,0.0,0.0
42.784,0.816,-0.755,0.0
35.257,0.681,-0.824,0.0
29.958,0.586,-0.872,0.0
100.035,1.985,-0.181,1.0
0.0,0.0,0.0,0.0
0.0,0.0,0.0,0.0
0.0,0.0,0.0,0.0
33.452,0.697,-0.831,0.0
28.675,0.604,-0.877,0.0
0.0,0.0,0.0,0.0
0.0,0.0,0.0,0.0
0.0,0.0,0.0,0.0
38.365,0.847,-0.791,0.0
32.228,0.719,-0.849,1.0
27.698,0.624,-0.888,0.0
0.0,0.0,0.0,0.0
0.0,0.0,0.0,0.0
0.0,0.0,0.0,0.0
36.824,0.866,-0.815,0.0
31.264,0.743,-0.871,0.0
26.279,0.631,-0.883,0.0
0.0,0.0,0.0,0.0
0.0,0.0,0.0,0.0
0.0,0.0,0.0,0.0
34.298,0.856,-0.812,0.0
29.608,0.746,-0.871,0.0
25.349,0.644,-0.891,0.0
0.0,0.0,0.0,0.0
0.0,0.0,0.0,0.0
0.0,0.0,0.0,0.0
32.801,0.864,-0.827,0.0
28.321,0.753,-0.877,0.0
24.47,0.656,-0.899,0.0
0.0,0.0,0.0,0.0
45.939,1.252,-0.698,0.0
0.0,0.0,0.0,0.0
31.748,0.88,-0.851,1.0
26.873,0.75,-0.875,0.0
23.556,0.663,-0.902,0.0
0.0,0.0,0.0,0.0
43.067,1.232,-0.723,0.0
35.686,1.028,-0.805,0.0
30.549,0.887,-0.868,0.0
25.966,0.76,-0.887,0.0
22.613,0.666,-0.902,0.0
0.0,0.0,0.0,0.0
41.126,1.23,-0.757,0.0
0.0,0.0,0.0,0.0
28.733,0.871,-0.862,0.0
24.798,0.758,-0.888,0.0
22.021,0.677,-0.915,0.0
0.0,0.0,0.0,0.0
38.527,1.202,-0.772,0.0
32.521,1.021,-0.839,1.0
27.766,0.878,-0.879,0.0
23.912,0.76,-0.895,0.0
21.005,0.672,-0.907,0.0
0.0,0.0,0.0,0.0
37.077,1.202,-0.804,0.0
30.223,0.986,-0.829,0.0
26.275,0.862,-0.875,0.0
22.857,0.755,-0.893,0.0
20.396,0.678,-0.914,0.0
0.0,0.0,0.0,0.0
0.0,0.0,0.0,0.0
29.953,1.013,-0.872,1.0
25.255,0.859,-0.883,0.0
22.286,0.762,-0.908,0.0
19.792,0.681,-0.92,0.0
0.0,0.0,0.0,0.0
32.704,1.137,-0.817,1.0
28.038,0.98,-0.862,1.0
24.279,0.854,-0.889,0.0
21.458,0.759,-0.91,0.0
18.963,0.674,-0.914,0.0
37.125,1.327,-0.778,0.0
31.954,1.148,-0.853,0.0
26.719,0.965,-0.868,1.0
23.27,0.844,-0.892,0.0
20.63,0.752,-0.91,0.0
18.471,0.677,-0.921,0.0
35.354,1.302,-0.8,0.0
30.152,1.116,-0.856,1.0
25.474,0.947,-0.87,1.0
22.487,0.84,-0.901,0.0
19.938,0.748,-0.914,0.0
17.931,0.676,-0.925,0.0
32.953,1.248,-0.802,0.0
28.876,1.099,-0.869,0.0
24.304,0.929,-0.872,1.0
21.6,0.829,-0.902,0.0
19.358,0.747,-0.92,0.0
17.453,0.676,-0.93,0.0
32.164,1.251,-0.838,0.0
27.606,1.078,-0.878,0.0
23.337,0.915,-0.877,0.0
20.254,0.798,-0.88,6.0
18.635,0.737,-0.917,0.0
