X,Y,Z,Reflectivity
81.794,-7.099,3.404,34.0
82.231,-7.108,2.97,38.0
82.305,-7.086,2.52,42.0
83.041,-7.122,2.077,37.0
84.893,-7.252,1.656,0.0
0.0,0.0,0.0,0.0
82.123,-6.988,3.442,38.0
82.003,-6.948,2.984,48.0
82.113,-6.93,2.536,42.0
82.848,-6.963,2.094,46.0
84.687,-7.089,1.675,11.0
82.023,-6.839,1.17,34.0
82.372,-6.866,3.472,31.0
82.021,-6.807,3.005,39.0
82.254,-6.798,2.56,39.0
82.404,-6.782,2.102,43.0
82.736,-6.781,1.654,43.0
82.013,-6.695,1.188,34.0
83.412,-6.807,3.534,38.0
82.415,-6.696,3.037,43.0
82.549,-6.678,2.585,52.0
82.25,-6.625,2.114,42.0
82.766,-6.639,1.671,49.0
82.01,-6.55,1.203,29.0
83.675,-6.68,3.56,23.0
82.301,-6.541,3.047,41.0
82.526,-6.53,2.598,45.0
82.128,-6.469,2.124,37.0
82.623,-6.481,1.681,45.0
81.964,-6.4,1.215,30.0
83.575,-6.523,3.567,31.0
82.534,-6.413,3.066,41.0
82.638,-6.392,2.612,42.0
82.28,-6.335,2.138,42.0
82.626,-6.333,1.69,42.0
82.065,-6.263,1.225,25.0
83.53,-6.37,3.573,35.0
82.588,-6.268,3.075,35.0
82.898,-6.263,2.628,48.0
82.386,-6.194,2.147,38.0
83.027,-6.213,1.704,39.0
0.0,0.0,0.0,0.0
83.047,-6.182,3.558,29.0
82.76,-6.13,3.087,41.0
82.824,-6.105,2.629,51.0
82.336,-6.04,2.15,38.0
82.877,-6.051,1.704,51.0
0.0,0.0,0.0,0.0
82.988,-6.024,3.557,34.0
82.994,-5.994,3.097,42.0
82.679,-5.942,2.626,44.0
82.477,-5.899,2.153,41.0
82.942,-5.902,1.705,47.0
0.0,0.0,0.0,0.0
83.767,-5.926,3.589,35.0
83.076,-5.847,3.098,33.0
83.101,-5.818,2.638,42.0
82.591,-5.753,2.154,37.0
82.96,-5.749,1.703,32.0
0.0,0.0,0.0,0.0
24.565,-1.691,1.051,27.0
24.527,-1.68,0.913,15.0
24.542,-1.672,0.777,22.0
24.616,-1.668,0.64,10.0
24.607,-1.659,0.503,16.0
24.611,-1.65,0.366,11.0
24.465,-1.638,1.044,28.0
24.477,-1.63,0.908,44.0
24.495,-1.623,0.773,55.0
24.536,-1.616,0.635,47.0
24.558,-1.609,0.499,39.0
24.552,-1.6,0.362,38.0
24.469,-1.592,1.041,48.0
24.449,-1.582,0.904,71.0
24.495,-1.576,0.769,66.0
24.535,-1.57,0.631,69.0
24.533,-1.561,0.495,68.0
24.533,-1.552,0.358,76.0
24.459,-1.545,1.037,54.0
24.454,-1.536,0.9,63.0
24.496,-1.53,0.765,62.0
24.529,-1.523,0.627,65.0
24.551,-1.516,0.49,80.0
24.54,-1.507,0.353,80.0
24.47,-1.5,1.032,44.0
24.474,-1.491,0.895,56.0
24.522,-1.485,0.76,58.0
24.555,-1.478,0.622,72.0
24.548,-1.469,0.484,66.0
24.537,-1.46,0.347,58.0
24.516,-1.456,1.028,42.0
24.523,-1.447,0.891,44.0
24.566,-1.441,0.755,62.0
24.575,-1.433,0.615,51.0
24.573,-1.424,0.478,45.0
24.574,-1.415,0.341,39.0
24.549,-1.41,1.022,26.0
24.572,-1.403,0.885,17.0
24.6,-1.396,0.749,14.0
83.539,-4.711,2.067,24.0
24.621,-1.379,0.471,9.0
24.624,-1.371,0.334,1.0
83.56,-4.641,3.452,40.0
83.608,-4.614,2.986,50.0
84.116,-4.611,2.532,38.0
83.704,-4.559,2.042,37.0
85.765,-4.64,1.612,30.0
0.0,0.0,0.0,0.0
83.698,-4.486,3.427,35.0
85.004,-4.525,3.003,41.0
84.19,-4.451,2.502,42.0
84.629,-4.444,2.032,44.0
85.897,-4.481,1.581,39.0
82.759,-4.289,1.06,7.0
83.607,-4.319,3.388,23.0
85.021,-4.361,2.968,38.0
84.538,-4.306,2.477,44.0
84.688,-4.282,1.997,43.0
86.023,-4.32,1.546,28.0
82.83,-4.132,1.024,20.0
86.326,-4.291,3.46,35.0
85.431,-4.215,2.943,27.0
85.084,-4.169,2.454,33.0
84.608,-4.115,1.956,40.0
142.38,-6.875,2.492,5.0
83.028,-3.98,0.987,35.0
86.564,-4.134,3.426,14.0
84.997,-4.028,2.886,14.0
85.103,-4.002,2.411,31.0
84.629,-3.949,1.913,36.0
31.327,-1.451,0.532,5.0
31.3,-1.438,0.355,28.0
31.399,-1.438,1.226,0.0
86.74,-3.941,2.898,1.0
85.09,-3.835,2.364,15.0
31.311,-1.4,0.69,25.0
31.252,-1.387,0.513,39.0
28.463,-1.253,0.307,56.0
31.34,-1.373,1.205,1.0
28.453,-1.237,0.934,55.0
28.443,-1.227,0.773,60.0
28.434,-1.217,0.61,70.0
28.427,-1.206,0.45,98.0
28.442,-1.197,0.29,115.0
28.441,-1.191,1.077,108.0
28.432,-1.181,0.916,111.0
28.435,-1.171,0.756,118.0
28.437,-1.161,0.592,150.0
28.445,-1.151,0.432,131.0
28.446,-1.142,0.272,74.0
28.435,-1.136,1.058,77.0
28.449,-1.126,0.898,67.0
28.452,-1.116,0.737,63.0
28.439,-1.106,0.574,27.0
31.228,-1.204,0.454,39.0
31.262,-1.195,0.278,42.0
31.249,-1.187,1.141,57.0
31.268,-1.177,0.965,50.0
31.275,-1.166,0.789,42.0
31.314,-1.157,0.609,53.0
31.325,-1.146,0.433,42.0
80.334,-2.915,0.657,21.0
31.272,-1.127,1.119,45.0
31.288,-1.117,0.943,40.0
31.351,-1.109,0.767,31.0
151.372,-5.304,2.836,4.0
84.395,-2.929,1.104,37.0
80.453,-2.765,0.598,27.0
38.712,-1.321,1.356,17.0
38.694,-1.308,1.136,23.0
38.665,-1.294,0.917,52.0
38.675,-1.281,0.694,40.0
38.674,-1.268,0.475,37.0
38.686,-1.256,0.257,58.0
38.617,-1.245,1.322,68.0
38.604,-1.231,1.103,64.0
38.623,-1.219,0.885,71.0
38.609,-1.205,0.662,71.0
38.628,-1.193,0.443,67.0
38.664,-1.182,0.225,70.0
38.587,-1.17,1.289,61.0
38.594,-1.158,1.07,74.0
38.636,-1.146,0.852,100.0
38.636,-1.133,0.629,86.0
38.649,-1.121,0.411,90.0
38.655,-1.108,0.191,80.0
38.559,-1.096,1.254,69.0
38.628,-1.085,1.037,85.0
38.635,-1.072,0.818,68.0
38.629,-1.059,0.594,66.0
38.649,-1.046,0.375,57.0
38.676,-1.035,0.157,55.0
38.658,-1.025,1.222,30.0
38.645,-1.011,1.001,59.0
38.719,-1.0,0.783,27.0
0.0,0.0,0.0,0.0
0.0,0.0,0.0,0.0
40.424,-1.005,0.125,26.0
38.716,-0.953,1.186,35.0
38.732,-0.941,0.967,31.0
40.411,-0.968,0.779,39.0
40.409,-0.956,0.545,41.0
40.408,-0.942,0.316,66.0
40.445,-0.93,0.086,150.0
40.408,-0.92,1.199,40.0
40.417,-0.907,0.969,6.0
38.383,-0.849,0.702,18.0
38.381,-0.836,0.479,41.0
38.378,-0.823,0.261,49.0
38.384,-0.812,0.043,25.0
45.717,-0.955,1.309,40.0
38.374,-0.789,0.88,8.0
52.982,-1.073,0.914,17.0
52.962,-1.056,0.607,37.0
52.949,-1.039,0.305,49.0
52.977,-1.024,0.005,39.0
64.332,-1.226,1.775,73.0
193.272,-3.621,4.23,17.0
203.574,-3.753,3.297,6.0
0.0,0.0,0.0,0.0
20.122,-0.358,0.094,12.0
20.126,-0.352,-0.019,35.0
64.31,-1.108,1.704,21.0
176.617,-2.988,3.672,62.0
20.154,-0.334,0.304,0.0
20.122,-0.327,0.186,9.0
20.137,-0.321,0.072,40.0
20.126,-0.315,-0.042,7.0
59.453,-0.915,1.507,37.0
20.159,-0.304,0.396,6.0
20.126,-0.297,0.28,11.0
20.111,-0.291,0.163,11.0
59.522,-0.845,0.145,27.0
59.526,-0.826,-0.193,11.0
20.169,-0.274,0.488,7.0
20.125,-0.267,0.372,14.0
20.134,-0.261,0.257,10.0
20.145,-0.256,0.14,2.0
59.604,-0.739,0.075,11.0
56.26,-0.681,-0.249,1.0
20.147,-0.238,0.463,14.0
20.137,-0.232,0.348,11.0
64.263,-0.723,0.744,23.0
56.169,-0.615,0.324,10.0
56.285,-0.599,0.003,0.0
56.452,-0.585,-0.318,1.0
20.169,-0.203,0.439,24.0
53.448,-0.523,0.858,12.0
53.382,-0.507,0.553,6.0
53.352,-0.491,0.242,7.0
53.333,-0.475,-0.062,8.0
20.183,-0.174,-0.139,10.0
20.256,-0.169,0.416,32.0
20.226,-0.162,0.299,19.0
20.189,-0.156,0.183,17.0
20.146,-0.15,0.065,17.0
20.176,-0.145,-0.049,22.0
20.151,-0.139,-0.164,23.0
20.14,-0.133,0.387,17.0
20.122,-0.127,0.272,19.0
20.131,-0.122,0.156,19.0
20.135,-0.116,0.039,30.0
20.144,-0.11,-0.075,28.0
20.154,-0.104,-0.191,28.0
20.131,-0.099,0.36,35.0
20.132,-0.093,0.245,27.0
20.122,-0.088,0.13,29.0
20.125,-0.082,0.012,36.0
20.14,-0.076,-0.102,32.0
20.125,-0.071,-0.217,16.0
20.125,-0.065,0.333,32.0
20.116,-0.06,0.218,30.0
20.115,-0.054,0.102,38.0
20.124,-0.048,-0.014,36.0
20.152,-0.043,-0.13,31.0
20.148,-0.038,-0.245,17.0
20.124,-0.032,0.305,29.0
20.113,-0.026,0.19,30.0
20.136,-0.021,0.074,30.0
20.195,-0.015,-0.042,18.0
20.219,-0.01,-0.158,14.0
20.25,-0.005,-0.275,39.0
20.135,0.0,0.277,28.0
20.12,0.005,0.161,26.0
20.241,0.011,0.046,150.0
20.263,0.016,-0.071,151.0
20.268,0.021,-0.187,151.0
20.263,0.027,-0.304,58.0
20.14,0.032,0.248,29.0
20.149,0.037,0.132,27.0
20.212,0.043,0.017,19.0
20.217,0.048,-0.1,23.0
20.206,0.054,-0.216,5.0
0.0,0.0,0.0,0.0
20.151,0.064,0.219,28.0
20.17,0.069,0.103,26.0
20.198,0.074,-0.012,27.0
20.189,0.08,-0.13,29.0
20.212,0.085,-0.246,20.0
20.206,0.09,-0.362,0.0
20.156,0.095,0.189,28.0
20.187,0.1,0.073,34.0
20.179,0.105,-0.042,29.0
20.181,0.11,-0.16,33.0
20.188,0.116,-0.276,28.0
20.186,0.121,-0.392,18.0
20.185,0.126,0.158,25.0
20.199,0.131,0.042,25.0
20.181,0.136,-0.073,25.0
20.171,0.141,-0.191,23.0
20.168,0.146,-0.307,35.0
20.179,0.151,-0.423,25.0
20.229,0.156,0.128,23.0
20.289,0.162,0.011,26.0
20.223,0.166,-0.104,21.0
20.164,0.17,-0.222,23.0
20.178,0.175,-0.338,32.0
20.187,0.18,-0.454,25.0
20.33,0.187,0.096,34.0
20.321,0.192,-0.02,16.0
20.215,0.195,-0.136,4.0
20.185,0.2,-0.254,25.0
20.183,0.205,-0.37,30.0
20.181,0.209,-0.486,29.0
20.328,0.216,0.064,11.0
0.0,0.0,0.0,0.0
20.209,0.224,-0.168,2.0
20.202,0.229,-0.286,23.0
20.19,0.233,-0.403,24.0
20.186,0.238,-0.519,26.0
99.632,1.2,0.155,4.0
0.0,0.0,0.0,0.0
0.0,0.0,0.0,0.0
20.197,0.257,-0.319,3.0
20.219,0.262,-0.436,8.0
20.201,0.266,-0.553,16.0
99.637,1.339,-0.008,3.0
0.0,0.0,0.0,0.0
0.0,0.0,0.0,0.0
42.765,0.603,-0.747,1.0
35.522,0.508,-0.825,0.0
30.17,0.439,-0.875,0.0
101.409,1.498,-0.175,2.0
0.0,0.0,0.0,0.0
0.0,0.0,0.0,0.0
0.0,0.0,0.0,0.0
33.347,0.521,-0.83,0.0
28.647,0.454,-0.878,0.0
0.0,0.0,0.0,0.0
0.0,0.0,0.0,0.0
0.0,0.0,0.0,0.0
0.0,0.0,0.0,0.0
31.999,0.542,-0.85,1.0
26.997,0.463,-0.873,0.0
0.0,0.0,0.0,0.0
0.0,0.0,0.0,0.0
0.0,0.0,0.0,0.0
36.838,0.662,-0.829,0.0
31.016,0.564,-0.877,1.0
26.059,0.479,-0.887,0.0
0.0,0.0,0.0,0.0
0.0,0.0,0.0,0.0
0.0,0.0,0.0,0.0
34.023,0.653,-0.823,0.0
29.08,0.564,-0.871,0.0
24.924,0.488,-0.891,0.0
0.0,0.0,0.0,0.0
0.0,0.0,0.0,0.0
0.0,0.0,0.0,0.0
32.402,0.66,-0.84,1.0
27.735,0.571,-0.88,0.0
24.005,0.499,-0.9,0.0
0.0,0.0,0.0,0.0
0.0,0.0,0.0,0.0
37.037,0.791,-0.808,0.0
31.289,0.674,-0.866,1.0
26.466,0.575,-0.885,0.0
22.861,0.501,-0.897,0.0
0.0,0.0,0.0,0.0
0.0,0.0,0.0,0.0
35.059,0.788,-0.826,0.0
29.049,0.658,-0.855,0.0
25.19,0.576,-0.887,0.0
22.241,0.512,-0.912,0.0
0.0,0.0,0.0,0.0
0.0,0.0,0.0,0.0
32.827,0.774,-0.832,1.0
0.0,0.0,0.0,0.0
24.214,0.579,-0.896,0.0
21.168,0.51,-0.906,0.0
0.0,0.0,0.0,0.0
36.979,0.905,-0.789,0.0
31.574,0.778,-0.857,1.0
26.512,0.658,-0.876,0.0
22.935,0.573,-0.89,0.0
20.408,0.514,-0.911,0.0
0.0,0.0,0.0,0.0
35.277,0.899,-0.817,0.0
29.738,0.763,-0.861,0.0
25.46,0.657,-0.887,0.0
22.317,0.58,-0.906,0.0
19.803,0.518,-0.919,0.0
39.015,1.026,-0.748,0.0
32.884,0.871,-0.821,1.0
28.44,0.758,-0.874,0.0
24.389,0.654,-0.894,0.0
21.442,0.578,-0.91,0.0
19.025,0.516,-0.918,0.0
37.072,1.011,-0.778,0.0
31.606,0.867,-0.846,1.0
26.51,0.731,-0.863,0.0
23.166,0.643,-0.891,0.0
20.519,0.573,-0.908,0.0
18.437,0.517,-0.923,0.0
35.414,0.998,-0.809,0.0
30.012,0.851,-0.859,0.0
25.652,0.731,-0.883,0.0
22.352,0.64,-0.901,0.0
19.887,0.573,-0.917,0.0
17.895,0.518,-0.929,0.0
32.996,0.959,-0.814,2.0
28.472,0.832,-0.867,0.0
24.497,0.719,-0.888,0.0
21.509,0.635,-0.906,0.0
18.977,0.563,-0.91,0.0
17.135,0.511,-0.921,0.0
31.427,0.94,-0.833,1.0
26.658,0.801,-0.861,0.0
23.483,0.709,-0.894,0.0
20.599,0.625,-0.906,0.0
18.503,0.564,-0.921,0.0
16.682,0.511,-0.927,0.0
29.993,0.921,-0.85,0.0
25.781,0.795,-0.88,0.0
22.54,0.698,-0.9,0.0
19.996,0.622,-0.916,0.0
17.919,0.56,-0.925,0.0
16.252,0.51,-0.934,0.0
28.49,0.897,-0.86,0.0
24.649,0.779,-0.887,0.0
21.802,0.692,-0.911,0.0
18.888,0.602,-0.901,0.0
17.123,0.548,-0.916,0.0
15.778,0.507,-0.936,0.0
26.719,0.861,-0.857,0.0
23.499,0.76,-0.889,0.0
20.629,0.67,-0.9,0.0
18.464,0.602,-0.915,0.0
16.749,0.548,-0.927,0.0
15.312,0.503,-0.937,0.0
25.816,0.849,-0.876,0.0
22.522,0.744,-0.894,0.0
20.003,0.663,-0.91,0.0
17.953,0.597,-0.923,0.0
16.269,0.543,-0.931,0.0
14.898,0.499,-0.939,0.0
24.609,0.825,-0.88,0.0
21.765,0.732,-0.905,0.0
19.414,0.655,-0.92,0.0
17.196,0.583,-0.916,0.0
15.858,0.539,-0.937,0.0
14.531,0.496,-0.943,0.0
23.562,0.804,-0.886,0.0
20.797,0.712,-0.903,0.0
18.632,0.64,-0.917,0.0
16.763,0.578,-0.924,0.0
15.325,0.53,-0.934,0.0
14.213,0.493,-0.949,0.0
22.554,0.782,-0.89,0.0
20.115,0.7,-0.91,0.0
18.062,0.631,-0.922,0.0
16.289,0.57,-0.928,0.0
14.935,0.525,-0.938,0.0
13.78,0.486,-0.946,0.0
21.759,0.766,-0.899,0.0
19.326,0.683,-0.91,0.0
17.292,0.613,-0.915,0.0
15.895,0.565,-0.935,0.0
14.583,0.52,-0.943,0.0
13.376,0.478,-0.943,0.0
20.795,0.743,-0.898,0.0
18.633,0.667,-0.913,0.0
16.814,0.604,-0.921,0.0
15.338,0.552,-0.931,0.0
14.194,0.512,-0.944,0.0
13.076,0.473,-0.946,0.0
20.146,0.728,-0.907,0.0
18.042,0.654,-0.917,0.0
16.377,0.595,-0.927,0.0
14.986,0.546,-0.937,0.0
13.807,0.504,-0.944,0.0
12.763,0.467,-0.947,0.0
19.528,0.714,-0.915,0.0
17.485,0.641,-0.92,0.0
16.002,0.588,-0.935,0.0
14.57,0.536,-0.938,0.0
13.356,0.493,-0.937,0.0
12.442,0.46,-0.946,0.0
18.689,0.69,-0.91,0.0
16.866,0.624,-0.919,0.0
15.42,0.572,-0.93,0.0
14.343,0.533,-0.95,0.0
13.109,0.488,-0.944,0.0
12.181,0.455,-0.949,0.0
18.144,0.676,-0.917,0.0
16.434,0.613,-0.926,0.0
15.006,0.561,-0.932,0.0
13.929,0.522,-0.948,0.0
12.825,0.482,-0.948,0.0
11.843,0.446,-0.944,0.0
17.519,0.658,-0.917,0.0
15.966,0.601,-0.929,0.0
14.648,0.552,-0.937,0.0
13.375,0.505,-0.935,0.0
12.49,0.472,-0.946,0.0
11.576,0.439,-0.944,0.0
16.933,0.64,-0.917,0.0
15.466,0.586,-0.928,0.0
14.347,0.544,-0.944,0.0
13.119,0.498,-0.941,0.0
12.169,0.463,-0.944,0.0
11.333,0.432,-0.945,0.0
16.477,0.626,-0.923,0.0
15.094,0.574,-0.933,0.0
13.74,0.524,-0.929,0.0
12.835,0.49,-0.944,0.0
11.878,0.454,-0.943,0.0
11.086,0.425,-0.944,0.0
16.088,0.614,-0.929,0.0
14.72,0.563,-0.936,0.0
13.5,0.517,-0.937,0.0
12.512,0.48,-0.942,0.0
11.619,0.446,-0.943,0.0
10.849,0.417,-0.944,0.0
15.563,0.596,-0.927,0.0
14.427,0.553,-0.943,0.0
13.237,0.508,-0.942,0.0
12.245,0.471,-0.944,0.0
11.412,0.439,-0.947,0.0
10.641,0.41,-0.945,0.0
15.179,0.583,-0.931,0.0
14.023,0.539,-0.942,0.0
12.94,0.498,-0.944,0.0
11.914,0.459,-0.94,0.0
11.14,0.43,-0.944,0.0
10.476,0.404,-0.949,0.0
14.773,0.568,-0.932,0.0
13.603,0.523,-0.938,0.0
12.578,0.484,-0.94,0.0
11.641,0.449,-0.939,0.0
10.967,0.423,-0.949,0.0
10.259,0.396,-0.947,0.0
14.463,0.556,-0.938,0.0
13.283,0.511,-0.939,0.0
12.324,0.475,-0.943,0.0
11.448,0.441,-0.943,0.0
10.68,0.412,-0.942,0.0
10.062,0.389,-0.947,0.0
14.18,0.545,-0.944,0.0
12.938,0.497,-0.937,0.0
12.046,0.463,-0.942,0.0
11.226,0.432,-0.945,0.0
10.504,0.405,-0.945,0.0
9.885,0.381,-0.947,0.0
13.69,0.525,-0.935,0.0
12.724,0.488,-0.943,0.0
11.787,0.453,-0.942,0.0
11.04,0.424,-0.948,0.0
10.311,0.396,-0.946,0.0
9.697,0.373,-0.946,0.0
13.397,0.512,-0.938,0.0
12.421,0.475,-0.942,0.0
11.528,0.441,-0.941,0.0
10.737,0.411,-0.94,0.0
10.13,0.388,-0.946,0.0
9.535,0.366,-0.946,0.0
13.12,0.5,-0.94,0.0
12.147,0.463,-0.941,0.0
11.265,0.429,-0.938,0.0
10.567,0.403,-0.943,0.0
9.951,0.38,-0.946,0.0
9.382,0.358,-0.947,0.0
12.807,0.486,-0.939,0.0
11.891,0.451,-0.941,0.0
11.112,0.421,-0.944,0.0
10.395,0.394,-0.945,0.0
9.764,0.37,-0.944,0.0
9.212,0.35,-0.945,0.0
12.551,0.473,-0.941,0.0
11.601,0.437,-0.937,0.0
10.967,0.413,-0.95,0.0
10.222,0.385,-0.946,0.0
9.608,0.362,-0.945,0.0
9.021,0.34,-0.94,0.0
12.285,0.46,-0.941,0.0
11.462,0.429,-0.944,0.0
10.718,0.401,-0.945,0.0
9.974,0.373,-0.939,0.0
9.45,0.354,-0.945,0.0
8.895,0.333,-0.941,0.0
12.011,0.446,-0.939,0.0
11.247,0.418,-0.945,0.0
10.513,0.39,-0.944,0.0
9.886,0.367,-0.946,0.0
9.333,0.346,-0.948,0.0
8.789,0.326,-0.944,0.0
11.8,0.435,-0.941,0.0
11.042,0.407,-0.945,0.0
10.286,0.379,-0.94,0.0
9.698,0.357,-0.943,0.0
9.13,0.336,-0.942,0.0
8.623,0.317,-0.94,0.0
11.554,0.421,-0.939,0.0
10.833,0.395,-0.943,0.0
10.191,0.371,-0.947,0.0
9.581,0.349,-0.947,0.0
8.975,0.327,-0.939,0.0
8.542,0.311,-0.944,0.0
11.364,0.41,-0.941,0.0
10.639,0.383,-0.943,0.0
9.993,0.36,-0.943,0.0
9.377,0.337,-0.941,0.0
8.908,0.32,-0.946,0.0
8.408,0.302,-0.942,0.0
11.164,0.398,-0.941,0.0
10.439,0.372,-0.94,0.0
9.844,0.35,-0.944,0.0
9.272,0.329,-0.944,0.0
8.736,0.31,-0.941,0.0
8.304,0.295,-0.943,0.0
11.025,0.388,-0.945,0.0
10.278,0.361,-0.941,0.0
9.68,0.34,-0.942,0.0
9.147,0.321,-0.945,0.0
8.643,0.303,-0.943,0.0
8.186,0.286,-0.941,0.0
10.749,0.373,-0.937,0.0
10.141,0.351,-0.943,0.0
9.574,0.331,-0.946,0.0
9.022,0.312,-0.945,0.0
8.517,0.294,-0.942,0.0
8.108,0.279,-0.944,0.0
10.61,0.362,-0.94,0.0
9.946,0.339,-0.939,0.0
9.407,0.32,-0.942,0.0
8.865,0.301,-0.941,0.0
8.413,0.286,-0.942,0.0
8.02,0.272,-0.945,0.0
10.455,0.351,-0.94,0.0
9.846,0.33,-0.943,0.0
9.267,0.31,-0.941,0.0
8.741,0.292,-0.939,0.0
8.315,0.277,-0.942,0.0
7.912,0.264,-0.943,0.0
10.356,0.342,-0.945,0.0
9.694,0.319,-0.941,0.0
9.139,0.3,-0.94,0.0
8.617,0.283,-0.937,0.0
8.24,0.27,-0.945,0.0
7.836,0.256,-0.944,0.0
10.181,0.329,-0.943,0.0
9.58,0.309,-0.943,0.0
9.012,0.29,-0.939,0.0
8.522,0.274,-0.938,0.0
8.155,0.262,-0.945,0.0
7.746,0.248,-0.943,0.0
10.018,0.318,-0.94,0.0
9.403,0.297,-0.937,0.0
8.892,0.281,-0.938,0.0
8.425,0.265,-0.938,0.0
8.041,0.253,-0.942,0.0
7.648,0.24,-0.941,0.0
9.885,0.307,-0.94,0.0
9.282,0.287,-0.936,0.0
8.777,0.271,-0.936,0.0
8.34,0.257,-0.939,0.0
7.924,0.243,-0.938,0.0
7.617,0.233,-0.946,0.0
9.781,0.296,-0.942,0.0
9.224,0.279,-0.942,0.0
8.712,0.263,-0.94,0.0
8.244,0.248,-0.938,0.0
7.878,0.236,-0.942,0.0
7.524,0.225,-0.944,0.0
9.657,0.286,-0.941,0.0
9.081,0.268,-0.938,0.0
8.626,0.254,-0.941,0.0
8.173,0.239,-0.939,0.0
7.8,0.228,-0.942,0.0
7.464,0.217,-0.945,0.0
9.546,0.275,-0.941,0.0
9.007,0.259,-0.94,0.0
8.544,0.244,-0.941,0.0
8.08,0.23,-0.938,0.0
7.728,0.22,-0.942,0.0
7.392,0.21,-0.944,0.0
9.427,0.264,-0.94,0.0
8.881,0.248,-0.936,0.0
8.425,0.234,-0.937,0.0
7.983,0.221,-0.935,0.0
7.664,0.212,-0.942,0.0
7.345,0.202,-0.946,0.0
9.338,0.254,-0.941,0.0
8.792,0.238,-0.936,0.0
8.377,0.226,-0.941,0.0
7.949,0.214,-0.939,0.0
7.629,0.204,-0.946,0.0
7.286,0.194,-0.946,0.0
9.253,0.244,-0.941,0.0
8.672,0.228,-0.932,0.0
8.291,0.217,-0.939,0.0
7.891,0.205,-0.94,0.0
7.551,0.196,-0.944,0.0
7.242,0.187,-0.947,0.0
9.129,0.233,-0.938,0.0
8.664,0.22,-0.94,0.0
8.176,0.207,-0.934,0.0
7.81,0.197,-0.938,0.0
7.508,0.188,-0.946,0.0
7.204,0.18,-0.949,0.0
9.043,0.223,-0.937,0.0
8.569,0.21,-0.938,0.0
8.177,0.199,-0.942,0.0
7.757,0.188,-0.939,0.0
7.439,0.18,-0.944,0.0
7.147,0.172,-0.948,0.0
8.968,0.213,-0.938,0.0
8.511,0.201,-0.939,0.0
8.079,0.189,-0.938,0.0
7.717,0.18,-0.941,0.0
7.383,0.171,-0.943,0.0
7.112,0.164,-0.95,0.0
8.899,0.203,-0.938,0.0
8.448,0.191,-0.939,0.0
8.033,0.181,-0.939,0.0
7.67,0.172,-0.942,0.0
7.371,0.164,-0.948,0.0
7.034,0.156,-0.945,0.0
8.821,0.192,-0.937,0.0
8.411,0.182,-0.942,0.0
7.963,0.172,-0.938,0.0
7.603,0.163,-0.94,0.0
7.317,0.156,-0.947,0.0
7.01,0.148,-0.948,0.0
8.752,0.182,-0.937,0.0
8.292,0.172,-0.935,0.0
7.928,0.163,-0.94,0.0
7.569,0.155,-0.941,0.0
7.269,0.148,-0.946,0.0
6.989,0.141,-0.95,0.0
8.7,0.173,-0.937,0.0
8.261,0.163,-0.937,0.0
7.858,0.154,-0.937,0.0
7.517,0.146,-0.94,0.0
7.219,0.139,-0.945,0.0
0.0,0.0,0.0,0.0
8.638,0.163,-0.937,0.0
8.208,0.154,-0.937,0.0
7.866,0.146,-0.943,0.0
7.468,0.138,-0.939,0.0
7.213,0.132,-0.949,0.0
6.926,0.126,-0.951,0.0
8.554,0.153,-0.933,0.0
8.162,0.144,-0.937,0.0
7.815,0.137,-0.942,0.0
7.465,0.13,-0.943,0.0
7.162,0.124,-0.946,0.0
6.852,0.117,-0.945,0.0
8.544,0.144,-0.937,0.0
8.132,0.136,-0.938,0.0
7.75,0.128,-0.939,0.0
0.0,0.0,0.0,0.0
7.144,0.116,-0.948,0.0
6.86,0.11,-0.95,0.0
8.528,0.135,-0.94,0.0
8.048,0.126,-0.933,0.0
7.729,0.119,-0.94,0.0
0.0,0.0,0.0,0.0
7.116,0.108,-0.948,0.0
6.819,0.102,-0.948,0.0
8.471,0.125,-0.938,0.0
8.031,0.117,-0.935,0.0
7.696,0.111,-0.94,0.0
0.0,0.0,0.0,0.0
7.091,0.1,-0.948,0.0
6.822,0.095,-0.952,0.0
8.416,0.115,-0.936,0.0
8.025,0.108,-0.938,0.0
7.69,0.102,-0.943,0.0
0.0,0.0,0.0,0.0
0.0,0.0,0.0,0.0
6.785,0.087,-0.95,0.0
8.393,0.105,-0.937,0.0
8.013,0.099,-0.94,0.0
7.64,0.093,-0.94,0.0
7.319,0.088,-0.943,0.0
7.051,0.084,-0.949,0.0
6.796,0.08,-0.954,0.0
8.381,0.096,-0.939,0.0
7.985,0.09,-0.94,0.0
7.627,0.085,-0.941,0.0
7.325,0.08,-0.947,0.0
7.04,0.076,-0.95,0.0
6.772,0.072,-0.953,0.0
8.335,0.086,-0.936,0.0
7.932,0.081,-0.936,0.0
7.608,0.076,-0.941,0.0
7.274,0.072,-0.942,0.0
7.042,0.068,-0.952,0.0
6.762,0.064,-0.953,0.0
8.317,0.077,-0.937,0.0
7.955,0.072,-0.941,0.0
7.606,0.068,-0.943,0.0
7.275,0.063,-0.944,0.0
0.0,0.0,0.0,0.0
6.711,0.056,-0.948,0.0
8.296,0.067,-0.936,0.0
7.927,0.063,-0.94,0.0
7.6,0.059,-0.944,0.0
7.245,0.055,-0.942,0.0
0.0,0.0,0.0,0.0
6.705,0.048,-0.949,0.0
8.298,0.058,-0.938,0.0
7.921,0.054,-0.941,0.0
7.539,0.05,-0.938,0.0
7.239,0.047,-0.942,0.0
0.0,0.0,0.0,0.0
6.741,0.041,-0.955,0.0
8.304,0.049,-0.94,0.0
7.882,0.045,-0.937,0.0
7.575,0.042,-0.943,0.0
0.0,0.0,0.0,0.0
0.0,0.0,0.0,0.0
6.688,0.033,-0.948,0.0
8.29,0.039,-0.939,0.0
7.912,0.036,-0.941,0.0
7.583,0.033,-0.945,0.0
7.222,0.03,-0.942,0.0
0.0,0.0,0.0,0.0
6.703,0.026,-0.95,0.0
8.273,0.03,-0.938,0.0
7.867,0.027,-0.936,0.0
7.544,0.025,-0.94,0.0
7.179,0.022,-0.936,0.0
0.0,0.0,0.0,0.0
6.689,0.018,-0.949,0.0
8.288,0.021,-0.94,0.0
7.887,0.018,-0.939,0.0
7.567,0.016,-0.943,0.0
7.225,0.014,-0.942,0.0
0.0,0.0,0.0,0.0
6.733,0.01,-0.955,0.0
8.28,0.011,-0.939,0.0
7.891,0.009,-0.939,0.0
7.532,0.007,-0.939,0.0
7.194,0.006,-0.938,0.0
0.0,0.0,0.0,0.0
6.776,0.003,-0.96,0.0
8.267,0.002,-0.936,0.0
7.873,0.0,-0.936,0.0
7.573,0.0,-0.943,0.0
7.245,-0.002,-0.944,0.0
0.0,0.0,0.0,0.0
6.705,-0.004,-0.949,0.0
8.272,-0.007,-0.936,0.0
7.929,-0.008,-0.941,0.0
7.563,-0.009,-0.941,0.0
7.272,-0.01,-0.946,0.0
0.0,0.0,0.0,0.0
6.701,-0.012,-0.948,0.0
8.29,-0.016,-0.936,0.0
7.897,-0.017,-0.936,0.0
7.622,-0.018,-0.946,0.0
7.306,-0.018,-0.949,0.0
0.0,0.0,0.0,0.0
6.734,-0.019,-0.951,0.0
8.312,-0.025,-0.937,0.0
7.904,-0.026,-0.935,0.0
7.596,-0.026,-0.941,0.0
0.0,0.0,0.0,0.0
0.0,0.0,0.0,0.0
6.757,-0.027,-0.952,0.0
8.32,-0.035,-0.936,0.0
7.965,-0.035,-0.94,0.0
7.645,-0.035,-0.945,0.0
0.0,0.0,0.0,0.0
0.0,0.0,0.0,0.0
6.731,-0.035,-0.946,0.0
8.336,-0.044,-0.935,0.0
7.962,-0.044,-0.937,0.0
7.629,-0.043,-0.941,0.0
7.264,-0.043,-0.937,0.0
7.024,-0.043,-0.946,0.0
6.791,-0.043,-0.952,0.0
8.388,-0.054,-0.938,0.0
7.985,-0.053,-0.937,0.0
7.651,-0.052,-0.941,0.0
7.3,-0.051,-0.939,0.0
7.104,-0.051,-0.954,0.0
6.795,-0.05,-0.95,0.0
8.393,-0.063,-0.935,0.0
8.02,-0.062,-0.938,0.0
7.693,-0.061,-0.942,0.0
7.356,-0.059,-0.943,0.0
7.085,-0.059,-0.948,0.0
6.84,-0.058,-0.953,0.0
8.421,-0.072,-0.934,0.0
8.068,-0.071,-0.94,0.0
7.702,-0.069,-0.94,0.0
7.379,-0.068,-0.942,0.0
7.121,-0.067,-0.949,0.0
6.887,-0.066,-0.957,0.0
8.479,-0.082,-0.936,0.0
8.094,-0.08,-0.939,0.0
7.733,-0.078,-0.94,0.0
7.393,-0.076,-0.94,0.0
7.171,-0.075,-0.952,0.0
6.852,-0.073,-0.948,0.0
8.527,-0.091,-0.937,0.0
8.119,-0.089,-0.937,0.0
7.793,-0.087,-0.943,0.0
7.453,-0.084,-0.944,0.0
7.141,-0.082,-0.944,0.0
6.918,-0.081,-0.953,0.0
8.571,-0.101,-0.937,0.0
8.195,-0.098,-0.941,0.0
7.824,-0.095,-0.942,0.0
7.461,-0.092,-0.94,0.0
7.185,-0.09,-0.945,0.0
6.929,-0.088,-0.95,0.0
8.633,-0.111,-0.938,0.0
8.212,-0.107,-0.938,0.0
7.847,-0.104,-0.939,0.0
7.511,-0.101,-0.941,0.0
7.263,-0.099,-0.951,0.0
6.959,-0.096,-0.95,0.0
8.689,-0.12,-0.938,0.0
8.279,-0.116,-0.94,0.0
7.891,-0.112,-0.939,0.0
7.542,-0.109,-0.94,0.0
7.282,-0.107,-0.948,0.0
6.963,-0.103,-0.945,0.0
8.728,-0.13,-0.936,0.0
8.326,-0.125,-0.939,0.0
7.945,-0.121,-0.94,0.0
7.597,-0.117,-0.941,0.0
7.3,-0.114,-0.945,0.0
7.05,-0.112,-0.952,0.0
8.81,-0.14,-0.939,0.0
8.377,-0.134,-0.938,0.0
8.026,-0.13,-0.943,0.0
7.631,-0.125,-0.94,0.0
7.328,-0.122,-0.943,0.0
7.101,-0.119,-0.953,0.0
8.905,-0.15,-0.942,0.0
8.424,-0.143,-0.937,0.0
8.112,-0.139,-0.947,0.0
7.683,-0.134,-0.94,0.0
7.401,-0.13,-0.946,0.0
7.114,-0.126,-0.949,0.0
8.966,-0.159,-0.941,0.0
8.497,-0.153,-0.938,0.0
8.11,-0.147,-0.94,0.0
7.751,-0.142,-0.941,0.0
7.462,-0.138,-0.947,0.0
7.158,-0.134,-0.948,0.0
9.056,-0.169,-0.942,0.0
8.591,-0.162,-0.941,0.0
8.172,-0.156,-0.939,0.0
7.785,-0.15,-0.938,0.0
7.491,-0.146,-0.944,0.0
7.194,-0.141,-0.946,0.0
9.128,-0.179,-0.941,0.0
8.652,-0.171,-0.939,0.0
8.219,-0.164,-0.937,0.0
7.832,-0.158,-0.936,0.0
7.538,-0.154,-0.943,0.0
7.287,-0.15,-0.951,0.0
9.227,-0.189,-0.942,0.0
8.774,-0.182,-0.944,0.0
8.319,-0.174,-0.94,0.0
7.918,-0.167,-0.939,0.0
7.633,-0.162,-0.947,0.0
7.31,-0.157,-0.947,0.0
9.359,-0.2,-0.947,0.0
8.836,-0.191,-0.942,0.0
8.379,-0.182,-0.938,0.0
8.01,-0.176,-0.942,0.0
7.687,-0.17,-0.946,0.0
7.369,-0.164,-0.947,0.0
9.449,-0.21,-0.946,0.0
8.943,-0.201,-0.944,0.0
8.498,-0.192,-0.943,0.0
8.063,-0.184,-0.939,0.0
7.748,-0.178,-0.945,0.0
7.434,-0.172,-0.947,0.0
9.556,-0.221,-0.946,0.0
9.04,-0.21,-0.944,0.0
8.555,-0.2,-0.939,0.0
8.164,-0.193,-0.942,0.0
7.796,-0.185,-0.942,0.0
7.514,-0.18,-0.949,0.0
9.671,-0.231,-0.947,0.0
9.164,-0.221,-0.946,0.0
8.684,-0.21,-0.944,0.0
8.242,-0.201,-0.941,0.0
7.889,-0.194,-0.944,0.0
7.552,-0.187,-0.945,0.0
9.815,-0.242,-0.949,0.0
9.26,-0.23,-0.946,0.0
8.735,-0.219,-0.939,0.0
8.336,-0.21,-0.942,0.0
7.964,-0.202,-0.943,0.0
7.623,-0.194,-0.944,0.0
9.926,-0.253,-0.948,0.0
9.393,-0.24,-0.948,0.0
8.86,-0.228,-0.942,0.0
8.422,-0.218,-0.941,0.0
8.071,-0.211,-0.946,0.0
7.727,-0.203,-0.947,0.0
10.071,-0.264,-0.95,0.0
9.515,-0.251,-0.948,0.0
8.967,-0.237,-0.942,0.0
8.542,-0.228,-0.944,0.0
8.128,-0.218,-0.942,0.0
7.789,-0.21,-0.945,0.0
10.244,-0.275,-0.953,0.0
9.652,-0.261,-0.95,0.0
9.116,-0.248,-0.946,0.0
8.619,-0.236,-0.941,0.0
8.228,-0.226,-0.943,0.0
7.881,-0.218,-0.946,0.0
10.377,-0.286,-0.952,0.0
9.791,-0.271,-0.95,0.0
9.256,-0.258,-0.948,0.0
8.75,-0.245,-0.944,0.0
8.369,-0.236,-0.948,0.0
7.952,-0.225,-0.944,0.0
10.502,-0.296,-0.949,0.0
9.941,-0.282,-0.952,0.0
9.368,-0.267,-0.947,0.0
8.848,-0.253,-0.943,0.0
8.435,-0.243,-0.944,0.0
8.064,-0.233,-0.946,0.0
10.681,-0.308,-0.951,0.0
10.086,-0.292,-0.952,0.0
9.503,-0.276,-0.947,0.0
8.991,-0.263,-0.946,0.0
8.543,-0.251,-0.944,0.0
8.135,-0.24,-0.943,0.0
10.841,-0.318,-0.95,0.0
10.26,-0.303,-0.954,0.0
9.686,-0.287,-0.952,0.0
9.176,-0.273,-0.952,0.0
8.665,-0.259,-0.945,0.0
8.247,-0.248,-0.944,0.0
11.048,-0.331,-0.952,0.0
10.423,-0.313,-0.954,0.0
9.822,-0.296,-0.951,0.0
9.301,-0.282,-0.951,0.0
8.78,-0.267,-0.945,0.0
8.37,-0.256,-0.946,0.0
11.257,-0.343,-0.954,0.0
10.591,-0.324,-0.954,0.0
10.006,-0.307,-0.954,0.0
9.445,-0.291,-0.952,0.0
8.913,-0.276,-0.946,0.0
8.472,-0.263,-0.945,0.0
11.435,-0.354,-0.952,0.0
10.794,-0.335,-0.956,0.0
10.163,-0.317,-0.954,0.0
9.596,-0.3,-0.953,0.0
9.09,-0.285,-0.951,0.0
8.593,-0.271,-0.945,0.0
11.619,-0.365,-0.95,0.0
11.005,-0.347,-0.958,0.0
10.347,-0.327,-0.955,0.0
9.769,-0.31,-0.955,0.0
9.25,-0.294,-0.953,0.0
8.743,-0.279,-0.948,0.0
11.972,-0.381,-0.96,0.0
11.146,-0.355,-0.953,0.0
10.525,-0.337,-0.956,0.0
9.929,-0.319,-0.955,0.0
9.395,-0.303,-0.954,0.0
8.858,-0.286,-0.946,0.0
12.226,-0.393,-0.961,0.0
11.346,-0.366,-0.952,0.0
10.719,-0.347,-0.956,0.0
10.089,-0.328,-0.954,0.0
9.542,-0.311,-0.953,0.0
9.043,-0.295,-0.951,0.0
12.44,-0.405,-0.958,0.0
11.561,-0.377,-0.952,0.0
10.91,-0.357,-0.956,0.0
10.287,-0.337,-0.957,0.0
9.725,-0.32,-0.956,0.0
9.177,-0.303,-0.951,0.0
12.717,-0.418,-0.959,0.0
11.876,-0.391,-0.958,0.0
11.138,-0.368,-0.957,0.0
10.457,-0.346,-0.955,0.0
9.897,-0.328,-0.956,0.0
9.364,-0.311,-0.954,0.0
12.997,-0.43,-0.959,0.0
12.178,-0.404,-0.962,0.0
11.295,-0.376,-0.952,0.0
10.678,-0.356,-0.958,0.0
10.076,-0.337,-0.957,0.0
9.522,-0.319,-0.955,0.0
13.311,-0.444,-0.96,0.0
12.424,-0.415,-0.961,0.0
11.555,-0.387,-0.955,0.0
10.856,-0.364,-0.955,0.0
10.293,-0.346,-0.96,0.0
9.7,-0.327,-0.956,0.0
13.602,-0.456,-0.958,0.0
12.69,-0.427,-0.96,0.0
11.85,-0.399,-0.959,0.0
11.1,-0.375,-0.958,0.0
10.469,-0.354,-0.958,0.0
9.888,-0.335,-0.957,0.0
13.872,-0.468,-0.953,0.0
13.011,-0.44,-0.962,0.0
12.168,-0.412,-0.964,0.0
11.328,-0.384,-0.958,0.0
10.672,-0.362,-0.959,0.0
10.087,-0.343,-0.959,0.0
14.326,-0.485,-0.96,0.0
13.314,-0.451,-0.962,0.0
12.42,-0.422,-0.962,0.0
11.545,-0.393,-0.956,0.0
10.857,-0.37,-0.956,0.0
10.283,-0.351,-0.96,0.0
14.566,-0.494,-0.95,0.0
13.573,-0.461,-0.956,0.0
12.705,-0.432,-0.962,0.0
11.849,-0.404,-0.96,0.0
11.142,-0.38,-0.962,0.0
10.461,-0.357,-0.958,0.0
15.062,-0.512,-0.956,0.0
13.902,-0.473,-0.955,0.0
13.014,-0.443,-0.962,0.0
12.198,-0.416,-0.967,0.0
11.329,-0.387,-0.958,0.0
10.717,-0.366,-0.962,0.0
15.6,-0.531,-0.963,0.0
14.35,-0.489,-0.961,0.0
13.364,-0.455,-0.964,0.0
12.431,-0.424,-0.963,0.0
11.575,-0.395,-0.958,0.0
10.878,-0.372,-0.957,0.0
16.41,-0.558,-0.983,0.0
14.608,-0.497,-0.952,0.0
13.617,-0.463,-0.958,0.0
12.717,-0.433,-0.963,0.0
11.893,-0.405,-0.962,0.0
11.153,-0.38,-0.961,0.0
16.532,-0.561,-0.961,0.0
15.163,-0.515,-0.96,0.0
13.909,-0.472,-0.953,0.0
13.037,-0.443,-0.963,0.0
12.239,-0.416,-0.968,0.0
11.366,-0.386,-0.958,0.0
16.637,-0.563,-0.937,0.0
15.686,-0.531,-0.965,0.0
14.395,-0.487,-0.96,0.0
13.365,-0.452,-0.963,0.0
12.506,-0.423,-0.966,0.0
11.622,-0.393,-0.958,0.0
16.726,-0.563,-0.911,0.0
16.442,-0.554,-0.981,0.0
14.704,-0.495,-0.954,0.0
13.611,-0.458,-0.955,0.0
12.781,-0.43,-0.964,0.0
12.013,-0.405,-0.969,0.0
16.801,-0.563,-0.884,0.0
16.746,-0.561,-0.968,0.0
15.28,-0.512,-0.963,0.0
13.965,-0.467,-0.954,0.0
13.152,-0.44,-0.967,0.0
12.308,-0.412,-0.969,0.0
16.887,-0.562,-0.857,0.0
16.831,-0.56,-0.942,0.0
15.683,-0.521,-0.959,0.0
14.41,-0.479,-0.957,0.0
13.419,-0.446,-0.962,0.0
12.565,-0.417,-0.966,0.0
17.069,-0.564,-0.835,0.0
16.953,-0.559,-0.917,0.0
16.858,-0.556,-0.999,0.0
14.748,-0.486,-0.952,0.0
13.777,-0.453,-0.961,0.0
12.882,-0.424,-0.966,0.0
17.441,-0.571,-0.82,0.0
17.026,-0.556,-0.888,0.0
17.069,-0.557,-0.979,0.0
15.29,-0.499,-0.958,0.0
14.188,-0.462,-0.963,0.0
13.267,-0.432,-0.969,0.0
18.146,-0.587,-0.819,0.0
17.167,-0.555,-0.863,1.0
17.199,-0.555,-0.954,0.0
17.039,-0.549,-1.036,0.0
14.532,-0.468,-0.959,0.0
13.484,-0.434,-0.96,0.0
18.882,-0.604,-0.816,0.0
17.341,-0.554,-0.839,0.0
17.293,-0.551,-0.926,0.0
17.238,-0.549,-1.015,0.0
14.885,-0.473,-0.954,0.0
13.929,-0.442,-0.965,0.0
19.709,-0.622,-0.814,4.0
17.729,-0.559,-0.824,0.0
17.442,-0.549,-0.901,0.0
17.291,-0.543,-0.985,0.0
15.552,-0.487,-0.967,0.0
14.328,-0.448,-0.965,0.0
20.063,-0.624,-0.791,3.0
18.237,-0.566,-0.814,0.0
17.572,-0.544,-0.875,0.0
17.428,-0.539,-0.96,0.0
17.628,-0.544,-1.063,0.0
14.577,-0.449,-0.954,0.0
21.118,-0.646,-0.793,0.0
19.11,-0.584,-0.816,0.0
17.8,-0.542,-0.853,0.0
17.759,-0.54,-0.945,0.0
17.764,-0.538,-1.037,0.0
15.088,-0.456,-0.959,0.0
22.222,-0.668,-0.792,1.0
19.852,-0.595,-0.81,1.0
18.064,-0.54,-0.831,0.0
18.001,-0.537,-0.923,0.0
17.812,-0.53,-1.006,0.0
15.584,-0.462,-0.961,0.0
23.518,-0.694,-0.794,5.0
20.704,-0.609,-0.806,3.0
18.581,-0.545,-0.82,0.0
18.198,-0.532,-0.899,0.0
17.858,-0.52,-0.975,0.0
23.824,-0.688,-0.759,20.0
21.236,-0.611,-0.786,0.0
19.232,-0.552,-0.812,0.0
18.453,-0.527,-0.876,1.0
18.508,-0.527,-0.975,0.0
24.61,-0.694,-0.738,14.0
22.643,-0.636,-0.796,0.0
20.099,-0.563,-0.811,0.0
18.777,-0.524,-0.856,1.0
18.756,-0.521,-0.953,0.0
18.836,-0.522,-1.055,0.0
27.24,-0.75,-0.765,0.0
23.719,-0.65,-0.789,11.0
20.838,-0.569,-0.801,0.0
19.099,-0.519,-0.835,1.0
19.087,-0.517,-0.933,0.0
19.149,-0.516,-1.036,0.0
28.504,-0.764,-0.747,1.0
23.951,-0.639,-0.751,21.0
22.035,-0.585,-0.805,0.0
19.65,-0.519,-0.822,0.0
19.396,-0.51,-0.912,0.0
19.437,-0.509,-1.015,0.0
30.391,-0.791,-0.739,18.0
25.096,-0.65,-0.74,7.0
23.559,-0.607,-0.817,3.0
20.366,-0.522,-0.813,0.0
19.735,-0.503,-0.89,1.0
19.615,-0.498,-0.987,0.0
30.558,-0.77,-0.686,36.0
27.704,-0.694,-0.765,1.0
23.768,-0.592,-0.779,20.0
21.201,-0.525,-0.807,0.0
20.06,-0.495,-0.868,1.0
20.102,-0.493,-0.973,0.0
30.995,-0.754,-0.637,30.0
0.0,0.0,0.0,0.0
24.442,-0.588,-0.755,11.0
22.204,-0.531,-0.803,0.0
20.486,-0.487,-0.847,1.0
20.692,-0.489,-0.963,1.0
31.525,-0.739,-0.589,7.0
30.439,-0.709,-0.727,27.0
25.34,-0.586,-0.736,4.0
23.639,-0.544,-0.811,5.0
21.007,-0.48,-0.83,1.0
21.047,-0.478,-0.941,1.0
38.023,-0.856,-0.64,21.0
30.719,-0.687,-0.676,32.0
28.275,-0.628,-0.769,5.0
24.032,-0.53,-0.78,5.0
21.65,-0.474,-0.815,1.0
21.499,-0.467,-0.921,0.0
38.312,-0.825,-0.574,18.0
31.315,-0.67,-0.632,22.0
30.28,-0.642,-0.767,8.0
25.234,-0.531,-0.773,0.0
22.484,-0.47,-0.805,2.0
22.058,-0.457,-0.904,1.0
38.36,-0.788,-0.504,17.0
0.0,0.0,0.0,0.0
30.51,-0.616,-0.717,30.0
27.157,-0.544,-0.782,2.0
23.397,-0.465,-0.795,1.0
22.87,-0.45,-0.896,0.0
45.227,-0.882,-0.513,19.0
38.103,-0.737,-0.629,22.0
30.955,-0.593,-0.672,30.0
28.448,-0.54,-0.768,7.0
25.383,-0.477,-0.817,1.0
23.741,-0.442,-0.887,1.0
52.903,-0.975,-0.504,5.0
38.604,-0.705,-0.568,10.0
31.527,-0.57,-0.628,3.0
29.688,-0.531,-0.748,11.0
26.51,-0.469,-0.805,4.0
24.409,-0.427,-0.868,1.0
52.94,-0.917,-0.41,49.0
44.941,-0.77,-0.581,32.0
37.874,-0.642,-0.686,13.0
30.551,-0.512,-0.716,27.0
27.65,-0.458,-0.791,1.0
25.433,-0.417,-0.86,5.0
59.461,-0.962,-0.355,10.0
45.353,-0.725,-0.506,15.0
38.216,-0.604,-0.625,13.0
31.258,-0.488,-0.677,16.0
29.492,-0.454,-0.792,7.0
26.437,-0.402,-0.848,2.0
56.908,-0.854,-0.24,3.0
52.926,-0.784,-0.498,15.0
44.762,-0.653,-0.653,11.0
35.954,-0.517,-0.715,2.0
30.377,-0.431,-0.762,20.0
27.516,-0.385,-0.833,2.0
59.525,-0.82,-0.146,20.0
56.623,-0.769,-0.433,11.0
44.986,-0.601,-0.578,24.0
37.898,-0.499,-0.688,20.0
31.306,-0.405,-0.731,23.0
28.697,-0.366,-0.82,1.0
59.57,-0.747,-0.043,21.0
56.511,-0.696,-0.334,2.0
46.152,-0.558,-0.513,3.0
38.149,-0.454,-0.627,13.0
35.764,-0.418,-0.774,2.0
20.187,-0.231,-0.542,13.0
56.273,-0.633,0.055,1.0
56.193,-0.62,-0.237,4.0
52.868,-0.572,-0.498,5.0
44.86,-0.475,-0.661,10.0
20.202,-0.209,-0.403,1.0
20.185,-0.205,-0.508,24.0
56.154,-0.558,0.15,6.0
56.215,-0.547,-0.143,16.0
56.581,-0.538,-0.439,1.0
44.924,-0.416,-0.587,18.0
20.16,-0.182,-0.368,18.0
20.178,-0.178,-0.474,25.0
66.491,-0.571,0.289,7.0
53.346,-0.447,-0.047,5.0
20.177,-0.164,-0.123,8.0
20.132,-0.159,-0.229,15.0
20.161,-0.155,-0.335,27.0
20.164,-0.15,-0.44,34.0
20.187,-0.146,0.12,16.0
20.16,-0.141,0.015,19.0
20.158,-0.136,-0.09,19.0
20.137,-0.131,-0.197,15.0
20.142,-0.126,-0.302,34.0
20.15,-0.122,-0.407,37.0
20.155,-0.117,0.153,22.0
20.138,-0.112,0.047,31.0
20.142,-0.107,-0.057,28.0
20.141,-0.103,-0.164,29.0
20.135,-0.098,-0.27,36.0
20.147,-0.093,-0.375,26.0
20.13,-0.088,0.185,27.0
20.129,-0.083,0.079,40.0
20.123,-0.078,-0.025,29.0
20.133,-0.073,-0.132,32.0
20.144,-0.068,-0.238,20.0
20.157,-0.063,-0.343,24.0
20.117,-0.058,0.217,29.0
20.125,-0.054,0.111,37.0
20.125,-0.049,0.006,35.0
20.148,-0.044,-0.101,34.0
20.153,-0.039,-0.206,21.0
20.176,-0.034,-0.313,19.0
20.114,-0.028,0.248,27.0
20.118,-0.023,0.142,29.0
20.143,-0.019,0.037,28.0
20.165,-0.013,-0.07,19.0
20.191,-0.008,-0.176,12.0
20.223,-0.003,-0.283,8.0
20.128,0.001,0.278,28.0
20.122,0.006,0.173,28.0
20.155,0.011,0.067,32.0
20.237,0.017,-0.04,152.0
20.261,0.022,-0.146,151.0
20.251,0.027,-0.252,151.0
20.146,0.032,0.309,30.0
20.138,0.037,0.203,27.0
20.15,0.043,0.097,28.0
20.2,0.048,-0.01,17.0
20.222,0.053,-0.116,24.0
20.206,0.059,-0.222,7.0
20.145,0.064,0.339,28.0
20.138,0.069,0.233,27.0
20.147,0.075,0.127,26.0
20.204,0.08,0.019,34.0
20.2,0.085,-0.087,31.0
20.188,0.091,-0.193,26.0
20.155,0.096,0.368,28.0
20.162,0.101,0.262,28.0
20.163,0.107,0.155,26.0
20.177,0.112,0.047,35.0
20.177,0.117,-0.058,29.0
20.176,0.123,-0.165,38.0
20.171,0.128,0.396,27.0
20.173,0.134,0.29,25.0
20.17,0.139,0.184,23.0
20.206,0.145,0.075,31.0
20.212,0.15,-0.03,26.0
20.188,0.156,-0.137,27.0
20.192,0.161,0.425,22.0
20.227,0.167,0.319,25.0
20.284,0.173,0.212,26.0
20.3,0.179,0.103,28.0
20.328,0.185,-0.003,32.0
20.223,0.189,-0.11,10.0
20.28,0.196,0.454,32.0
20.278,0.201,0.346,32.0
20.29,0.207,0.239,26.0
20.306,0.213,0.13,27.0
20.315,0.218,0.023,10.0
0.0,0.0,0.0,0.0
20.272,0.229,0.48,27.0
20.266,0.235,0.373,27.0
20.279,0.241,0.266,20.0
20.308,0.247,0.156,3.0
99.567,1.24,0.242,5.0
0.0,0.0,0.0,0.0
20.288,0.264,0.507,16.0
20.287,0.27,0.399,8.0
20.275,0.275,0.292,0.0
0.0,0.0,0.0,0.0
99.663,1.412,0.368,6.0
99.782,1.442,-0.16,2.0
157.108,2.32,4.126,7.0
196.314,2.954,4.113,26.0
194.724,2.986,3.047,37.0
0.0,0.0,0.0,0.0
99.762,1.586,0.491,5.0
99.735,1.615,-0.037,5.0
0.0,0.0,0.0,0.0
194.699,3.27,4.317,12.0
195.003,3.331,3.287,25.0
0.0,0.0,0.0,0.0
99.854,1.761,0.61,4.0
99.844,1.79,0.08,16.0
0.0,0.0,0.0,0.0
194.543,3.608,4.543,18.0
194.757,3.67,3.512,9.0
103.13,1.972,1.3,6.0
102.965,1.999,0.75,8.0
99.957,1.969,0.196,2.0
0.0,0.0,0.0,0.0
194.567,3.955,4.768,11.0
196.268,4.047,3.764,6.0
195.858,4.097,2.693,5.0
102.832,2.179,0.865,1.0
100.0,2.149,0.308,2.0
0.0,0.0,0.0,0.0
194.823,4.312,4.994,21.0
193.985,4.348,3.935,26.0
195.363,4.437,2.901,24.0
0.0,0.0,0.0,0.0
100.213,2.336,0.419,2.0
0.0,0.0,0.0,0.0
194.63,4.662,5.2,22.0
193.982,4.702,4.146,34.0
193.546,4.746,3.081,8.0
0.0,0.0,0.0,0.0
103.01,2.587,0.539,2.0
168.688,4.296,5.585,4.0
194.393,5.008,5.396,24.0
193.717,5.049,4.341,26.0
193.486,5.099,3.281,28.0
195.103,5.199,2.263,32.0
103.159,2.779,0.644,3.0
193.179,5.277,6.595,19.0
194.283,5.362,5.589,8.0
193.774,5.406,4.537,28.0
193.366,5.45,3.471,24.0
195.534,5.567,2.46,21.0
195.903,5.637,1.416,22.0
157.69,4.599,5.538,5.0
193.014,5.686,5.743,18.0
193.895,5.767,4.727,27.0
193.768,5.819,3.664,23.0
195.374,5.925,2.645,7.0
196.08,6.004,1.602,8.0
193.75,6.012,6.989,6.0
195.737,6.13,6.008,8.0
194.064,6.132,4.911,18.0
194.36,6.198,3.854,19.0
195.193,6.284,2.822,8.0
0.0,0.0,0.0,0.0
193.917,6.377,7.17,21.0
193.687,6.425,6.118,15.0
198.132,6.632,5.193,6.0
195.235,6.591,4.044,7.0
194.91,6.639,2.989,23.0
202.871,6.971,2.02,5.0
193.621,6.73,7.327,19.0
0.0,0.0,0.0,0.0
194.738,6.886,5.27,11.0
195.185,6.957,4.209,14.0
202.803,7.29,3.281,21.0
0.0,0.0,0.0,0.0
194.651,7.136,7.531,15.0
193.795,7.161,6.45,6.0
0.0,0.0,0.0,0.0
196.414,7.374,4.396,5.0
195.098,7.383,3.314,19.0
195.074,7.438,2.26,17.0
198.917,7.671,7.854,7.0
193.628,7.522,6.598,17.0
193.289,7.563,5.539,15.0
196.644,7.754,4.553,9.0
203.796,8.097,3.617,7.0
203.831,8.157,2.515,15.0
195.439,7.907,7.864,21.0
193.341,7.877,6.733,14.0
193.356,7.932,5.684,23.0
0.0,0.0,0.0,0.0
0.0,0.0,0.0,0.0
0.0,0.0,0.0,0.0
193.52,8.193,7.925,5.0
193.955,8.268,6.889,21.0
193.522,8.304,5.824,20.0
192.671,8.323,4.735,8.0
195.476,8.503,3.744,39.0
195.523,8.561,2.684,52.0
193.45,8.559,8.053,17.0
193.632,8.62,7.007,27.0
193.287,8.662,5.945,28.0
193.89,8.747,4.892,5.0
0.0,0.0,0.0,0.0
206.394,9.432,2.967,15.0
193.043,8.909,8.16,25.0
193.292,8.977,7.119,28.0
193.509,9.044,6.075,20.0
195.631,9.201,5.058,8.0
0.0,0.0,0.0,0.0
0.0,0.0,0.0,0.0
192.963,9.279,8.274,8.0
192.977,9.332,7.222,21.0
0.0,0.0,0.0,0.0
193.894,9.49,5.125,24.0
0.0,0.0,0.0,0.0
197.515,9.783,3.071,10.0
192.879,9.645,8.379,22.0
193.062,9.708,7.333,14.0
193.952,9.807,6.309,7.0
193.964,9.863,5.231,8.0
197.004,10.073,4.239,8.0
0.0,0.0,0.0,0.0
192.849,10.009,8.478,20.0
193.067,10.074,7.432,18.0
193.573,10.155,6.393,10.0
195.235,10.297,5.362,5.0
196.456,10.416,4.323,5.0
0.0,0.0,0.0,0.0
192.738,10.369,8.565,20.0
193.283,10.453,7.532,6.0
196.052,10.656,6.566,7.0
196.016,10.71,5.473,36.0
196.09,10.769,4.403,54.0
196.154,10.827,3.331,21.0
193.587,10.783,8.688,13.0
193.544,10.833,7.626,9.0
192.847,10.849,6.542,5.0
0.0,0.0,0.0,0.0
0.0,0.0,0.0,0.0
0.0,0.0,0.0,0.0
193.872,11.167,8.779,19.0
193.829,11.219,7.713,6.0
0.0,0.0,0.0,0.0
0.0,0.0,0.0,0.0
0.0,0.0,0.0,0.0
0.0,0.0,0.0,0.0
193.385,11.505,8.827,8.0
0.0,0.0,0.0,0.0
192.547,11.558,6.673,5.0
0.0,0.0,0.0,0.0
195.744,11.858,4.613,8.0
0.0,0.0,0.0,0.0
0.0,0.0,0.0,0.0
163.067,10.054,6.598,4.0
162.738,10.077,5.689,4.0
0.0,0.0,0.0,0.0
196.046,12.246,4.677,5.0
198.468,12.454,3.644,4.0
161.313,10.206,7.462,3.0
174.494,11.087,7.11,6.0
154.547,9.86,5.444,5.0
0.0,0.0,0.0,0.0
195.636,12.586,4.716,5.0
0.0,0.0,0.0,0.0
162.106,10.56,7.537,13.0
157.083,10.272,6.436,4.0
162.041,10.638,5.745,15.0
162.721,10.729,4.855,13.0
179.024,11.852,4.355,15.0
0.0,0.0,0.0,0.0
121.814,8.161,5.689,5.0
110.264,7.416,4.54,3.0
156.986,10.6,5.595,13.0
0.0,0.0,0.0,0.0
167.891,11.425,4.113,6.0
210.352,14.373,3.993,27.0
194.08,13.364,9.095,5.0
110.134,7.611,4.552,2.0
156.101,10.829,5.588,7.0
161.479,11.244,4.87,16.0
162.748,11.375,4.009,8.0
173.78,12.193,3.321,20.0
107.342,7.589,5.043,5.0
110.293,7.825,4.571,6.0
160.932,11.459,5.778,9.0
154.95,11.074,4.69,9.0
161.914,11.614,4.003,16.0
173.291,12.479,3.326,22.0
96.503,7.0,4.543,1.0
107.953,7.858,4.483,3.0
178.888,13.067,6.435,4.0
166.548,12.209,5.051,24.0
167.245,12.302,4.145,9.0
168.104,12.41,3.236,18.0
97.08,7.22,4.573,2.0
110.144,8.218,4.577,5.0
169.676,12.704,6.109,4.0
163.461,12.28,4.962,15.0
155.648,11.731,3.86,10.0
168.048,12.71,3.236,13.0
119.882,9.134,5.649,3.0
96.603,7.384,4.015,2.0
154.623,11.858,5.566,8.0
172.58,13.276,5.235,4.0
156.338,12.066,3.874,20.0
156.087,12.085,3.0,28.0
96.853,7.552,4.56,5.0
109.989,8.603,4.566,5.0
166.943,13.097,6.003,10.0
154.814,12.185,4.687,24.0
167.994,13.265,4.152,22.0
155.956,12.354,2.987,40.0
87.894,7.012,4.132,3.0
109.948,8.796,4.556,5.0
166.93,13.393,5.986,4.0
160.566,12.922,4.847,13.0
156.11,12.6,3.844,28.0
196.248,15.889,3.738,23.0
87.696,7.149,4.113,4.0
154.986,12.672,6.404,5.0
156.91,12.865,5.608,9.0
161.342,13.266,4.849,15.0
195.016,16.081,4.775,8.0
196.222,16.227,3.711,16.0
87.525,7.287,4.092,6.0
109.779,9.164,4.519,3.0
144.042,12.056,5.126,10.0
144.469,12.125,4.318,11.0
197.007,16.582,4.789,20.0
199.661,16.852,3.74,6.0
87.462,7.431,4.073,10.0
86.545,7.372,3.546,4.0
121.128,10.345,4.286,27.0
143.617,12.298,4.265,28.0
197.783,16.982,4.766,20.0
0.0,0.0,0.0,0.0
87.281,7.564,4.046,10.0
86.397,7.505,3.52,3.0
121.094,10.546,4.256,15.0
143.715,12.549,4.232,35.0
152.789,13.376,3.644,12.0
157.301,13.806,2.872,13.0
87.841,7.759,4.048,9.0
86.448,7.655,3.499,4.0
122.072,10.835,4.258,16.0
143.628,12.782,4.189,27.0
152.433,13.598,3.592,24.0
154.273,13.796,2.772,8.0
87.574,7.881,4.01,7.0
0.0,0.0,0.0,0.0
121.638,10.996,4.204,21.0
143.482,13.001,4.141,20.0
152.022,13.808,3.533,28.0
151.683,13.812,2.675,21.0
87.651,8.03,3.984,10.0
110.403,10.137,4.399,10.0
109.671,10.092,3.752,20.0
151.802,14.002,4.326,13.0
151.924,14.045,3.478,25.0
151.293,14.02,2.614,26.0
87.546,8.16,3.947,12.0
108.195,10.107,4.27,13.0
116.053,10.865,3.927,10.0
151.68,14.232,4.265,21.0
151.702,14.266,3.412,20.0
151.202,14.252,2.551,31.0
87.207,8.267,3.897,11.0
108.135,10.272,4.224,18.0
116.071,11.048,3.879,14.0
121.2,11.56,3.357,48.0
138.293,13.22,3.053,17.0
151.133,14.479,2.486,27.0
138.298,13.325,6.119,11.0
108.121,10.437,4.175,5.0
116.072,11.228,3.828,11.0
137.829,13.36,3.755,30.0
121.596,11.808,2.628,30.0
121.652,11.839,1.945,27.0
97.767,9.567,4.28,5.0
137.871,13.517,5.258,12.0
108.693,10.677,3.532,14.0
109.221,10.75,2.922,56.0
121.499,11.983,2.566,69.0
121.601,12.017,1.882,71.0
97.739,9.711,4.229,18.0
115.249,11.471,4.337,22.0
115.563,11.523,3.695,22.0
108.976,10.886,2.859,26.0
121.591,12.169,2.504,38.0
150.699,15.112,2.254,19.0
111.515,11.241,4.766,10.0
111.235,11.231,4.125,23.0
109.876,11.114,3.454,46.0
116.036,11.758,2.98,13.0
150.641,15.294,3.019,14.0
150.62,15.319,2.168,20.0
107.439,10.984,4.53,18.0
97.611,9.995,3.564,37.0
110.297,11.314,3.404,38.0
109.391,11.239,2.746,39.0
115.677,11.906,2.25,29.0
115.635,11.924,1.596,37.0
114.59,11.875,4.765,2.0
97.579,10.128,3.503,9.0
121.591,12.64,3.678,21.0
109.365,11.388,2.679,26.0
109.331,11.404,2.059,20.0
115.584,12.077,1.523,34.0
103.194,10.834,4.226,14.0
107.979,11.354,3.808,14.0
116.772,12.297,3.457,15.0
109.093,11.507,2.601,50.0
109.229,11.54,1.987,60.0
0.0,0.0,0.0,0.0
98.473,10.47,3.967,32.0
98.238,10.459,3.401,7.0
103.615,11.048,2.999,15.0
109.237,11.666,2.531,16.0
109.226,11.683,1.912,47.0
0.0,0.0,0.0,0.0
136.575,14.699,5.408,10.0
98.224,10.586,3.331,41.0
103.714,11.193,2.929,20.0
115.701,12.506,2.599,28.0
149.839,16.218,2.517,18.0
0.0,0.0,0.0,0.0
121.388,13.218,4.719,11.0
108.311,11.809,3.596,17.0
116.653,12.736,3.209,19.0
103.884,11.357,2.258,53.0
149.794,16.398,2.408,20.0
0.0,0.0,0.0,0.0
96.842,10.663,3.692,49.0
97.865,10.79,3.175,20.0
115.439,12.744,3.089,20.0
103.853,11.479,2.178,45.0
103.757,11.485,1.587,25.0
0.0,0.0,0.0,0.0
102.812,11.443,3.84,11.0
97.906,10.91,3.1,10.0
104.506,11.66,2.715,19.0
103.882,11.605,2.098,18.0
103.758,11.606,1.506,35.0
76.345,8.551,0.674,3.0
105.111,11.821,3.842,15.0
108.839,12.253,3.36,9.0
144.118,16.245,3.629,11.0
144.092,16.262,2.791,14.0
144.068,16.279,1.973,10.0
75.575,8.55,0.606,1.0
97.175,11.037,3.471,8.0
104.27,11.855,3.131,13.0
144.132,16.406,3.507,9.0
149.392,17.025,2.77,9.0
0.0,0.0,0.0,0.0
74.888,8.555,0.536,4.0
97.225,11.148,3.39,8.0
115.37,13.242,3.366,26.0
152.937,17.571,3.591,13.0
149.494,17.195,2.643,19.0
75.43,8.686,0.904,0.0
74.637,8.604,0.47,8.0
97.236,11.25,3.307,19.0
97.817,11.328,2.768,16.0
149.537,17.334,3.38,11.0
149.73,17.374,2.516,11.0
75.493,8.769,0.838,6.0
0.0,0.0,0.0,0.0
97.439,11.37,3.226,17.0
97.782,11.42,2.68,30.0
97.795,11.432,2.122,6.0
149.731,17.522,2.381,12.0
75.487,8.842,0.77,5.0
0.0,0.0,0.0,0.0
98.374,11.573,3.167,31.0
97.706,11.505,2.587,47.0
97.77,11.522,2.032,29.0
97.703,11.525,1.462,50.0
0.0,0.0,0.0,0.0
0.0,0.0,0.0,0.0
114.903,13.623,3.592,3.0
97.718,11.595,2.496,56.0
97.665,11.598,1.938,35.0
97.656,11.607,1.37,60.0
0.0,0.0,0.0,0.0
0.0,0.0,0.0,0.0
139.697,16.685,4.233,3.0
97.729,11.68,2.403,43.0
97.69,11.685,1.845,41.0
97.69,11.695,1.276,6.0
68.766,8.239,0.505,0.0
0.0,0.0,0.0,0.0
97.694,11.749,2.866,12.0
97.773,11.766,2.31,36.0
97.768,11.774,1.751,18.0
0.0,0.0,0.0,0.0
68.821,8.301,0.439,5.0
68.792,8.305,0.047,151.0
97.373,11.786,2.76,30.0
97.838,11.85,2.214,12.0
0.0,0.0,0.0,0.0
0.0,0.0,0.0,0.0
68.825,8.354,0.371,3.0
68.761,8.353,-0.021,151.0
97.358,11.857,2.661,12.0
149.597,18.23,3.233,18.0
149.657,18.249,2.378,4.0
0.0,0.0,0.0,0.0
68.713,8.391,0.299,1.0
68.735,8.4,-0.093,151.0
149.797,18.35,3.939,14.0
149.575,18.333,3.078,28.0
0.0,0.0,0.0,0.0
0.0,0.0,0.0,0.0
68.682,8.434,0.227,2.0
68.713,8.444,-0.165,2.0
149.716,18.439,3.782,16.0
149.655,18.44,2.925,27.0
0.0,0.0,0.0,0.0
68.713,8.476,0.549,5.0
68.643,8.472,0.156,7.0
65.586,8.101,-0.225,0.0
91.629,11.34,2.219,13.0
91.566,11.338,1.693,10.0
0.0,0.0,0.0,0.0
68.741,8.52,0.477,8.0
68.655,8.515,0.084,150.0
65.461,8.124,-0.294,16.0
91.561,11.384,2.12,26.0
91.499,11.381,1.595,26.0
0.0,0.0,0.0,0.0
68.658,8.548,0.404,12.0
68.651,8.551,0.01,6.0
65.392,8.15,-0.363,8.0
91.506,11.425,2.021,49.0
91.467,11.424,1.496,34.0
69.08,8.631,0.734,0.0
68.682,8.585,0.329,37.0
65.341,8.172,-0.06,6.0
65.208,8.16,-0.433,42.0
91.483,11.466,1.92,52.0
91.432,11.463,1.395,15.0
0.0,0.0,0.0,0.0
68.683,8.618,0.254,3.0
65.231,8.188,-0.132,6.0
65.203,8.189,-0.505,10.0
91.46,11.503,1.819,47.0
68.96,8.675,0.976,0.0
68.692,8.644,0.579,1.0
0.0,0.0,0.0,0.0
65.16,8.206,-0.203,13.0
64.865,8.173,-0.574,0.0
91.463,11.538,1.718,38.0
69.139,8.724,0.902,1.0
68.654,8.665,0.502,8.0
0.0,0.0,0.0,0.0
65.083,8.22,-0.275,3.0
0.0,0.0,0.0,0.0
91.479,11.571,1.615,40.0
69.056,8.737,0.823,1.0
68.628,8.685,0.426,19.0
0.0,0.0,0.0,0.0
64.958,8.225,-0.348,1.0
0.0,0.0,0.0,0.0
91.49,11.6,1.513,17.0
69.17,8.771,0.747,1.0
68.617,8.703,0.347,18.0
0.0,0.0,0.0,0.0
64.892,8.235,-0.42,0.0
0.0,0.0,0.0,0.0
91.605,11.637,1.412,1.0
68.944,8.759,0.667,0.0
68.686,8.728,0.272,5.0
0.0,0.0,0.0,0.0
65.155,8.283,-0.495,0.0
0.0,0.0,0.0,0.0
69.136,8.797,0.987,1.0
68.67,8.738,0.588,2.0
64.745,8.239,0.182,0.0
64.741,8.24,-0.195,1.0
65.016,8.277,-0.569,0.0
0.0,0.0,0.0,0.0
69.045,8.796,0.908,1.0
68.629,8.743,0.509,14.0
64.729,8.247,0.109,2.0
0.0,0.0,0.0,0.0
0.0,0.0,0.0,0.0
0.0,0.0,0.0,0.0
69.025,8.8,0.829,0.0
68.638,8.751,0.431,29.0
64.736,8.254,0.036,1.0
0.0,0.0,0.0,0.0
0.0,0.0,0.0,0.0
0.0,0.0,0.0,0.0
69.111,8.816,0.752,1.0
68.626,8.753,0.353,20.0
64.806,8.266,-0.037,2.0
0.0,0.0,0.0,0.0
0.0,0.0,0.0,0.0
39.817,5.08,-0.712,0.0
69.033,8.807,0.673,0.0
68.613,8.752,0.275,4.0
64.781,8.263,-0.111,2.0
65.079,8.301,-0.491,0.0
0.0,0.0,0.0,0.0
39.028,4.979,-0.742,0.0
68.67,8.758,0.591,2.0
64.911,8.278,0.186,1.0
64.886,8.274,-0.184,1.0
64.801,8.263,-0.562,0.0
0.0,0.0,0.0,0.0
37.521,4.784,-0.756,0.0
68.631,8.748,0.513,15.0
64.777,8.255,0.113,2.0
0.0,0.0,0.0,0.0
0.0,0.0,0.0,0.0
0.0,0.0,0.0,0.0
37.07,4.723,-0.789,0.0
68.624,8.738,0.435,25.0
64.808,8.251,0.039,2.0
0.0,0.0,0.0,0.0
0.0,0.0,0.0,0.0
0.0,0.0,0.0,0.0
34.626,4.406,-0.776,0.0
68.628,8.727,0.358,17.0
0.0,0.0,0.0,0.0
64.986,8.26,-0.406,0.0
0.0,0.0,0.0,0.0
40.178,5.105,-0.715,0.0
33.993,4.319,-0.8,0.0
68.626,8.712,0.28,5.0
0.0,0.0,0.0,0.0
0.0,0.0,0.0,0.0
0.0,0.0,0.0,0.0
0.0,0.0,0.0,0.0
0.0,0.0,0.0,0.0
0.0,0.0,0.0,0.0
65.028,8.235,-0.178,0.0
64.669,8.187,-0.548,0.0
0.0,0.0,0.0,0.0
37.701,4.771,-0.755,0.0
31.185,3.946,-0.804,0.0
0.0,0.0,0.0,0.0
65.123,8.227,-0.251,5.0
0.0,0.0,0.0,0.0
0.0,0.0,0.0,0.0
37.031,4.674,-0.783,0.0
30.582,3.859,-0.822,1.0
65.362,8.237,0.049,0.0
65.187,8.211,-0.322,12.0
0.0,0.0,0.0,0.0
42.554,5.356,-0.702,0.0
0.0,0.0,0.0,0.0
29.719,3.739,-0.831,0.0
65.261,8.198,-0.021,3.0
65.211,8.188,-0.394,52.0
55.727,6.994,-0.655,0.0
40.55,5.087,-0.714,0.0
33.969,4.26,-0.792,0.0
28.719,3.601,-0.834,0.0
65.327,8.177,-0.091,17.0
65.248,8.163,-0.464,30.0
0.0,0.0,0.0,0.0
38.778,4.847,-0.724,0.0
32.617,4.075,-0.795,0.0
27.907,3.486,-0.84,0.0
65.429,8.158,-0.16,17.0
65.314,8.139,-0.533,3.0
0.0,0.0,0.0,0.0
38.233,4.76,-0.754,0.0
31.594,3.932,-0.803,0.0
27.3,3.396,-0.851,0.0
65.46,8.127,-0.228,6.0
0.0,0.0,0.0,0.0
0.0,0.0,0.0,0.0
36.937,4.578,-0.767,0.0
30.91,3.829,-0.818,0.0
26.388,3.268,-0.85,0.0
69.246,8.557,-0.314,2.0
55.675,6.875,-0.571,0.0
68.73,8.483,-1.098,1.0
0.0,0.0,0.0,0.0
30.155,3.718,-0.83,0.0
25.823,3.182,-0.858,0.0
0.0,0.0,0.0,0.0
0.0,0.0,0.0,0.0
0.0,0.0,0.0,0.0
34.43,4.225,-0.785,0.0
29.12,3.571,-0.831,0.0
25.204,3.09,-0.863,0.0
0.0,0.0,0.0,0.0
68.681,8.393,-0.843,2.0
39.716,4.85,-0.715,0.0
32.666,3.986,-0.778,0.0
28.391,3.462,-0.838,0.0
24.485,2.984,-0.863,0.0
69.061,8.396,-0.522,0.0
68.709,8.347,-0.912,2.0
39.679,4.817,-0.753,0.0
32.304,3.919,-0.801,0.0
27.687,3.356,-0.845,0.0
23.987,2.906,-0.869,0.0
68.819,8.315,-0.588,2.0
