X,Y,Z,Reflectivity
32.04,0.674,-0.859,1.0
100.047,2.069,0.101,5.0
0.0,0.0,0.0,0.0
0.0,0.0,0.0,0.0
0.0,0.0,0.0,0.0
0.0,0.0,0.0,0.0
32.775,0.627,-0.848,1.0
99.871,1.875,0.195,13.0
0.0,0.0,0.0,0.0
0.0,0.0,0.0,0.0
0.0,0.0,0.0,0.0
0.0,0.0,0.0,0.0
34.027,0.586,-0.846,1.0
99.841,1.687,0.293,5.0
0.0,0.0,0.0,0.0
0.0,0.0,0.0,0.0
0.0,0.0,0.0,0.0
0.0,0.0,0.0,0.0
35.249,0.541,-0.841,0.0
99.685,1.499,0.393,5.0
101.306,1.492,-0.14,1.0
0.0,0.0,0.0,0.0
0.0,0.0,0.0,0.0
20.205,0.279,-0.353,5.0
20.211,0.273,-0.461,16.0
99.549,1.312,0.497,6.0
99.594,1.283,-0.032,2.0
0.0,0.0,0.0,0.0
20.191,0.247,-0.223,11.0
20.19,0.241,-0.331,25.0
20.203,0.235,-0.439,26.0
20.326,0.23,0.123,26.0
20.324,0.224,0.015,14.0
20.227,0.217,-0.092,0.0
20.154,0.21,-0.201,17.0
20.187,0.204,-0.308,30.0
20.181,0.198,-0.415,36.0
20.308,0.193,0.146,30.0
20.321,0.187,0.038,29.0
20.214,0.18,-0.068,20.0
20.165,0.173,-0.177,18.0
20.167,0.167,-0.285,34.0
20.181,0.161,-0.392,26.0
20.181,0.155,0.169,26.0
20.205,0.149,0.061,26.0
20.188,0.143,-0.045,26.0
20.172,0.137,-0.154,37.0
20.187,0.131,-0.261,28.0
20.193,0.125,-0.368,15.0
20.168,0.119,0.192,29.0
20.195,0.113,0.086,36.0
20.178,0.107,-0.02,28.0
20.189,0.101,-0.13,30.0
20.191,0.095,-0.237,15.0
43.3,0.192,-0.737,0.0
20.14,0.083,0.217,29.0
20.151,0.077,0.11,28.0
20.205,0.071,0.003,28.0
20.229,0.066,-0.105,24.0
20.207,0.06,-0.212,15.0
20.23,0.054,-0.319,7.0
20.134,0.048,0.241,29.0
20.135,0.042,0.135,28.0
20.263,0.037,0.029,150.0
20.251,0.031,-0.08,152.0
20.254,0.025,-0.187,151.0
20.268,0.019,-0.294,82.0
20.126,0.013,0.267,28.0
20.136,0.007,0.161,28.0
20.156,0.002,0.054,25.0
20.148,-0.003,-0.053,18.0
20.174,-0.009,-0.16,24.0
20.173,-0.015,-0.266,20.0
20.122,-0.02,0.293,28.0
20.123,-0.026,0.187,39.0
20.128,-0.031,0.081,41.0
20.12,-0.037,-0.026,35.0
20.144,-0.043,-0.132,32.0
20.14,-0.048,-0.239,21.0
20.118,-0.054,0.32,31.0
20.124,-0.06,0.214,27.0
20.123,-0.065,0.108,35.0
20.12,-0.071,0.0,33.0
20.144,-0.077,-0.105,28.0
20.143,-0.082,-0.211,22.0
20.131,-0.088,0.348,30.0
20.125,-0.093,0.242,24.0
20.12,-0.099,0.136,19.0
20.13,-0.104,0.028,27.0
20.159,-0.11,-0.077,24.0
20.159,-0.115,-0.183,20.0
20.15,-0.121,0.377,17.0
20.152,-0.126,0.271,16.0
20.172,-0.131,0.165,17.0
20.151,-0.137,0.057,11.0
20.175,-0.142,-0.048,11.0
20.17,-0.148,-0.154,15.0
20.244,-0.154,0.407,20.0
20.27,-0.159,0.301,6.0
64.371,-0.525,0.62,21.0
53.359,-0.449,0.228,11.0
56.222,-0.488,-0.054,4.0
56.425,-0.504,-0.35,1.0
20.182,-0.185,0.436,24.0
20.173,-0.19,0.329,11.0
64.313,-0.625,0.713,60.0
56.144,-0.56,0.323,9.0
56.14,-0.574,0.028,0.0
56.252,-0.59,-0.266,3.0
20.144,-0.216,0.465,14.0
20.128,-0.221,0.359,11.0
20.138,-0.226,0.253,10.0
20.138,-0.232,0.145,1.0
59.584,-0.702,0.119,23.0
56.278,-0.677,-0.181,1.0
20.174,-0.247,0.495,8.0
20.131,-0.252,0.389,12.0
20.127,-0.257,0.283,10.0
20.12,-0.262,0.176,10.0
59.554,-0.791,0.21,14.0
59.518,-0.806,-0.1,24.0
59.422,-0.818,1.552,76.0
53.489,-0.75,1.116,7.0
20.134,-0.287,0.314,9.0
20.112,-0.292,0.207,11.0
20.124,-0.296,0.102,17.0
20.135,-0.302,-0.002,23.0
64.341,-0.98,1.779,11.0
59.576,-0.922,1.336,5.0
176.666,-2.777,3.039,32.0
20.156,-0.321,0.239,2.0
20.134,-0.326,0.133,7.0
20.141,-0.331,0.028,46.0
64.318,-1.072,1.88,79.0
190.803,-3.226,4.58,32.0
191.613,-3.284,3.598,24.0
193.012,-3.354,2.596,29.0
62.23,-1.096,0.511,1.0
61.263,-1.092,0.183,3.0
64.324,-1.161,1.981,77.0
64.345,-1.176,1.646,7.0
38.051,-0.704,0.775,0.0
53.009,-0.994,0.797,9.0
52.973,-1.005,0.52,42.0
52.94,-1.016,0.243,61.0
45.744,-0.889,1.483,46.0
45.72,-0.898,1.243,25.0
38.411,-0.763,0.844,7.0
45.676,-0.918,0.761,4.0
38.378,-0.78,0.439,24.0
38.385,-0.789,0.239,48.0
40.439,-0.84,1.377,27.0
40.432,-0.848,1.166,27.0
38.393,-0.814,0.907,12.0
38.399,-0.822,0.702,6.0
40.403,-0.874,0.529,39.0
40.45,-0.884,0.319,150.0
40.404,-0.891,1.442,38.0
40.42,-0.9,1.232,38.0
0.0,0.0,0.0,0.0
40.401,-0.917,0.806,37.0
40.41,-0.926,0.596,36.0
40.415,-0.935,0.386,34.0
40.412,-0.943,1.511,28.0
0.0,0.0,0.0,0.0
38.688,-0.919,1.043,48.0
0.0,0.0,0.0,0.0
40.443,-0.977,0.665,26.0
40.44,-0.986,0.455,22.0
45.72,-1.124,1.787,43.0
45.705,-1.133,1.548,10.0
38.659,-0.966,1.108,41.0
38.668,-0.974,0.903,42.0
38.678,-0.982,0.702,38.0
38.68,-0.99,0.501,38.0
38.7,-0.998,1.579,22.0
38.67,-1.005,1.376,31.0
38.574,-1.01,1.171,48.0
38.612,-1.018,0.968,72.0
38.642,-1.027,0.768,63.0
38.652,-1.034,0.567,62.0
38.649,-1.042,1.643,87.0
38.649,-1.049,1.441,52.0
38.567,-1.054,1.238,65.0
38.584,-1.062,1.034,72.0
38.648,-1.07,0.835,78.0
38.63,-1.077,0.633,67.0
38.64,-1.086,1.709,82.0
38.629,-1.092,1.508,72.0
38.57,-1.097,1.305,64.0
38.546,-1.104,1.1,66.0
38.64,-1.113,0.902,93.0
38.642,-1.12,0.701,99.0
38.582,-1.126,1.775,61.0
38.637,-1.135,1.576,94.0
38.601,-1.14,1.373,62.0
38.557,-1.145,1.168,61.0
38.602,-1.153,0.969,70.0
38.641,-1.161,0.769,74.0
38.515,-1.165,1.838,67.0
38.651,-1.175,1.644,82.0
38.667,-1.182,1.443,81.0
38.585,-1.186,1.236,60.0
38.6,-1.193,1.036,64.0
38.633,-1.2,0.837,62.0
38.485,-1.203,1.905,47.0
38.594,-1.213,1.709,69.0
38.667,-1.221,1.512,79.0
38.629,-1.226,1.306,55.0
38.63,-1.232,1.105,52.0
38.656,-1.239,0.905,57.0
28.385,-0.915,1.455,63.0
38.583,-1.25,1.778,43.0
38.643,-1.257,1.579,65.0
38.653,-1.264,1.375,40.0
38.677,-1.27,1.175,32.0
38.674,-1.276,0.974,26.0
28.385,-0.942,1.506,57.0
31.304,-1.043,1.498,38.0
38.668,-1.294,1.649,21.0
38.698,-1.301,1.446,6.0
31.346,-1.058,1.009,17.0
31.393,-1.064,0.847,16.0
31.245,-1.065,1.714,43.0
31.261,-1.07,1.552,38.0
31.282,-1.075,1.391,42.0
31.283,-1.079,1.225,27.0
31.302,-1.084,1.063,40.0
31.31,-1.089,0.902,39.0
31.236,-1.092,1.77,46.0
31.233,-1.096,1.607,23.0
31.278,-1.102,1.447,62.0
31.255,-1.105,1.28,47.0
31.246,-1.108,1.118,43.0
31.269,-1.113,0.957,39.0
31.216,-1.118,1.826,27.0
31.225,-1.121,1.663,47.0
31.217,-1.125,1.501,42.0
31.237,-1.129,1.336,44.0
31.23,-1.133,1.174,43.0
31.283,-1.138,1.014,57.0
31.2,-1.142,1.881,34.0
31.198,-1.145,1.719,24.0
31.222,-1.149,1.558,35.0
31.26,-1.154,1.394,68.0
31.242,-1.157,1.232,46.0
31.259,-1.161,1.07,57.0
31.205,-1.165,1.939,33.0
31.21,-1.169,1.777,31.0
31.212,-1.172,1.615,41.0
31.226,-1.176,1.45,36.0
31.234,-1.179,1.288,30.0
31.228,-1.182,1.126,23.0
28.442,-1.082,1.819,66.0
28.443,-1.085,1.671,61.0
28.445,-1.088,1.523,61.0
28.439,-1.09,1.372,59.0
28.442,-1.093,1.224,62.0
28.446,-1.096,1.077,63.0
28.429,-1.101,1.87,72.0
28.42,-1.103,1.721,69.0
28.419,-1.105,1.573,68.0
28.433,-1.109,1.423,51.0
28.431,-1.111,1.276,72.0
28.432,-1.114,1.129,72.0
28.432,-1.119,1.923,121.0
28.423,-1.121,1.774,113.0
28.426,-1.124,1.626,116.0
28.416,-1.126,1.475,97.0
28.44,-1.129,1.328,128.0
28.439,-1.131,1.181,123.0
28.429,-1.136,1.975,111.0
28.415,-1.138,1.826,102.0
28.405,-1.139,1.677,97.0
28.418,-1.142,1.528,94.0
28.429,-1.144,1.38,110.0
28.427,-1.146,1.233,109.0
28.422,-1.152,2.026,108.0
28.429,-1.154,1.879,106.0
28.416,-1.155,1.73,100.0
28.418,-1.157,1.579,96.0
28.42,-1.159,1.432,59.0
28.43,-1.161,1.284,97.0
28.418,-1.166,2.078,71.0
28.431,-1.168,1.93,70.0
28.417,-1.169,1.782,71.0
28.419,-1.171,1.631,76.0
28.412,-1.172,1.483,80.0
28.428,-1.174,1.336,88.0
28.434,-1.18,2.131,57.0
28.437,-1.182,1.983,57.0
28.434,-1.183,1.835,55.0
28.441,-1.184,1.684,55.0
28.443,-1.186,1.536,55.0
28.431,-1.187,1.388,49.0
31.435,-1.318,2.414,23.0
28.435,-1.194,2.035,41.0
28.424,-1.194,1.886,49.0
28.434,-1.196,1.735,51.0
28.443,-1.197,1.587,55.0
28.432,-1.198,1.439,47.0
31.462,-1.332,2.473,60.0
30.994,-1.313,2.274,23.0
31.124,-1.319,2.12,32.0
31.305,-1.328,1.966,1.0
28.427,-1.207,1.637,35.0
28.438,-1.208,1.49,44.0
31.465,-1.343,2.529,4.0
31.256,-1.335,2.348,26.0
31.04,-1.326,2.17,43.0
31.287,-1.337,2.021,14.0
31.363,-1.341,1.862,2.0
31.285,-1.339,1.695,20.0
24.598,-1.057,2.022,53.0
31.416,-1.351,2.417,47.0
30.97,-1.332,2.221,41.0
46.606,-2.006,3.095,6.0
31.319,-1.348,1.916,1.0
31.306,-1.348,1.752,31.0
24.604,-1.064,2.066,40.0
31.465,-1.361,2.478,46.0
30.932,-1.338,2.274,34.0
31.122,-1.347,2.122,27.0
31.285,-1.354,1.97,2.0
31.309,-1.355,1.808,2.0
24.62,-1.071,2.112,52.0
24.598,-1.07,1.981,36.0
31.069,-1.351,2.339,26.0
31.021,-1.349,2.17,40.0
46.609,-2.027,3.017,17.0
163.707,-7.121,9.746,19.0
24.635,-1.076,2.157,57.0
24.577,-1.073,2.023,47.0
31.439,-1.373,2.423,36.0
30.943,-1.351,2.219,43.0
46.614,-2.035,3.099,55.0
163.614,-7.141,10.026,27.0
24.648,-1.08,2.201,55.0
24.593,-1.077,2.067,43.0
31.473,-1.378,2.48,33.0
30.894,-1.352,2.269,39.0
46.65,-2.042,3.182,13.0
163.52,-7.154,10.3,18.0
24.651,-1.083,2.244,48.0
24.618,-1.081,2.111,46.0
24.603,-1.08,1.981,34.0
30.933,-1.357,2.325,26.0
31.017,-1.36,2.169,38.0
46.622,-2.043,3.017,14.0
24.653,-1.085,2.288,37.0
24.632,-1.083,2.156,50.0
24.584,-1.08,2.022,45.0
31.356,-1.377,2.411,28.0
30.945,-1.358,2.217,44.0
46.611,-2.044,3.096,64.0
24.65,-1.085,2.329,27.0
24.642,-1.084,2.199,50.0
24.597,-1.081,2.065,43.0
31.471,-1.382,2.474,34.0
30.901,-1.356,2.267,39.0
46.633,-2.044,3.176,13.0
24.66,-1.086,2.372,16.0
24.662,-1.084,2.242,45.0
24.619,-1.081,2.109,47.0
24.603,-1.079,1.975,31.0
30.947,-1.356,2.322,26.0
31.028,-1.358,2.165,37.0
24.668,-1.085,2.415,4.0
24.656,-1.083,2.283,39.0
24.635,-1.08,2.151,51.0
24.586,-1.077,2.015,45.0
31.372,-1.372,2.406,33.0
30.963,-1.353,2.212,43.0
24.684,-1.083,2.457,3.0
24.657,-1.08,2.324,34.0
24.642,-1.078,2.193,53.0
24.59,-1.074,2.056,42.0
31.464,-1.373,2.465,42.0
30.922,-1.347,2.26,38.0
24.679,-1.08,2.498,12.0
24.653,-1.077,2.365,31.0
24.643,-1.075,2.233,53.0
24.616,-1.072,2.098,44.0
31.466,-1.368,2.516,4.0
31.007,-1.346,2.316,24.0
37.143,-1.619,3.82,6.0
24.655,-1.073,2.405,29.0
24.645,-1.07,2.273,55.0
24.636,-1.068,2.14,59.0
24.591,-1.064,2.006,52.0
31.337,-1.354,2.391,39.0
37.13,-1.611,3.878,8.0
24.651,-1.067,2.444,28.0
24.638,-1.065,2.312,53.0
24.634,-1.062,2.178,61.0
24.596,-1.059,2.045,39.0
31.46,-1.352,2.449,60.0
31.824,-1.373,3.375,13.0
24.66,-1.062,2.483,28.0
24.649,-1.059,2.352,54.0
24.631,-1.056,2.217,58.0
24.613,-1.053,2.085,35.0
31.434,-1.342,2.496,24.0
31.812,-1.364,3.423,24.0
24.664,-1.055,2.522,25.0
24.653,-1.052,2.39,58.0
24.636,-1.049,2.255,72.0
24.631,-1.046,2.124,47.0
24.601,-1.043,1.991,36.0
31.826,-1.354,3.474,31.0
24.688,-1.048,2.563,20.0
24.655,-1.044,2.428,59.0
24.645,-1.041,2.293,74.0
24.648,-1.038,2.162,53.0
24.597,-1.034,2.028,35.0
46.768,-1.974,5.175,22.0
24.716,-1.04,2.603,19.0
24.66,-1.035,2.465,53.0
24.646,-1.032,2.33,68.0
24.649,-1.029,2.199,49.0
24.616,-1.025,2.065,27.0
36.503,-1.526,4.093,1.0
31.79,-1.326,3.394,5.0
24.667,-1.026,2.502,50.0
24.641,-1.022,2.365,72.0
24.658,-1.019,2.235,45.0
24.655,-1.017,2.104,26.0
28.419,-1.176,3.228,20.0
28.411,-1.172,3.075,38.0
24.676,-1.015,2.538,43.0
24.662,-1.012,2.402,74.0
24.65,-1.008,2.27,31.0
28.398,-1.158,2.463,49.0
28.422,-1.164,3.269,52.0
28.405,-1.159,3.114,40.0
24.702,-1.005,2.576,40.0
24.649,-1.0,2.436,69.0
24.645,-0.996,2.303,27.0
28.411,-1.145,2.504,89.0
28.407,-1.149,3.307,63.0
28.399,-1.145,3.153,85.0
24.722,-0.993,2.612,38.0
24.655,-0.987,2.47,60.0
28.405,-1.134,2.694,18.0
28.419,-1.131,2.543,104.0
28.404,-1.134,3.345,102.0
28.405,-1.13,3.193,106.0
24.739,-0.981,2.647,39.0
24.674,-0.975,2.505,52.0
28.4,-1.118,2.731,41.0
28.41,-1.115,2.58,88.0
28.404,-1.118,3.384,102.0
28.398,-1.114,3.229,110.0
24.737,-0.967,2.68,29.0
24.677,-0.961,2.538,44.0
28.398,-1.101,2.768,21.0
28.407,-1.098,2.617,51.0
28.397,-1.102,3.42,98.0
28.399,-1.097,3.267,86.0
24.78,-0.953,2.717,41.0
24.676,-0.946,2.569,30.0
28.442,-1.086,2.809,9.0
28.43,-1.081,2.655,60.0
28.406,-1.084,3.457,67.0
28.413,-1.08,3.304,64.0
24.775,-0.938,2.747,27.0
24.723,-0.932,2.605,45.0
37.216,-1.398,3.721,4.0
31.682,-1.185,2.997,9.0
28.4,-1.066,3.492,31.0
32.136,-1.201,3.777,24.0
24.826,-0.923,2.783,24.0
24.743,-0.917,2.637,37.0
37.172,-1.371,3.761,31.0
37.231,-1.368,3.567,51.0
32.263,-1.189,4.005,47.0
32.178,-1.18,3.82,36.0
24.859,-0.908,2.816,18.0
24.794,-0.901,2.672,36.0
37.191,-1.346,3.807,7.0
37.209,-1.341,3.608,46.0
38.775,-1.401,4.859,21.0
39.074,-1.406,4.684,20.0
24.886,-0.891,2.848,13.0
24.775,-0.883,2.698,30.0
43.659,-1.549,4.518,3.0
37.229,-1.314,3.652,2.0
38.64,-1.368,4.886,46.0
0.0,0.0,0.0,0.0
24.921,-0.874,2.88,14.0
24.833,-0.866,2.732,40.0
40.308,-1.4,4.216,2.0
51.836,-1.791,5.141,4.0
38.895,-1.348,4.961,27.0
36.852,-1.271,4.499,4.0
25.037,-0.858,2.92,9.0
24.841,-0.847,2.759,44.0
43.756,-1.485,4.623,1.0
43.867,-1.481,4.397,3.0
39.064,-1.323,5.024,13.0
33.455,-1.127,4.12,14.0
25.063,-0.839,2.949,19.0
24.864,-0.828,2.788,43.0
43.993,-1.458,4.693,3.0
43.95,-1.449,4.45,7.0
25.239,-0.834,3.272,31.0
25.246,-0.829,3.134,14.0
25.074,-0.819,2.976,23.0
24.863,-0.808,2.812,45.0
44.184,-1.428,4.757,3.0
47.797,-1.536,4.886,2.0
25.249,-0.813,3.298,69.0
25.235,-0.808,3.158,60.0
25.137,-0.8,3.007,17.0
24.869,-0.787,2.837,38.0
36.748,-1.156,3.991,1.0
42.379,-1.326,4.371,4.0
25.249,-0.791,3.322,73.0
25.244,-0.786,3.182,57.0
25.162,-0.779,3.034,24.0
24.847,-0.764,2.857,29.0
36.706,-1.123,4.019,5.0
42.62,-1.296,4.435,1.0
25.244,-0.769,3.344,36.0
25.239,-0.763,3.204,12.0
25.181,-0.757,3.058,31.0
24.904,-0.744,2.885,23.0
40.219,-1.194,4.439,7.0
44.466,-1.311,4.665,49.0
25.266,-0.746,3.369,4.0
44.793,-1.314,5.726,4.0
25.237,-0.735,3.087,35.0
24.888,-0.72,2.905,15.0
40.068,-1.152,4.456,6.0
45.352,-1.296,4.795,1.0
42.871,-1.226,5.752,2.0
44.649,-1.268,5.744,1.0
25.227,-0.711,3.106,24.0
44.471,-1.246,5.226,6.0
24.852,-0.691,2.783,3.0
51.546,-1.424,5.491,2.0
32.349,-0.894,4.366,2.0
33.064,-0.908,4.279,7.0
25.25,-0.688,3.128,42.0
44.705,-1.209,5.287,8.0
24.841,-0.667,2.801,14.0
47.442,-1.264,5.089,1.0
46.524,-1.241,6.314,6.0
33.839,-0.896,4.404,8.0
25.272,-0.664,3.149,37.0
24.821,-0.647,2.953,27.0
44.409,-1.149,5.038,14.0
0.0,0.0,0.0,0.0
32.355,-0.831,4.413,5.0
39.594,-1.009,5.18,2.0
25.267,-0.638,3.166,32.0
24.835,-0.622,2.971,32.0
44.623,-1.11,5.092,25.0
40.798,-1.007,4.43,5.0
36.974,-0.912,5.067,20.0
39.667,-0.971,5.215,2.0
25.274,-0.613,3.182,17.0
24.794,-0.596,2.982,40.0
43.33,-1.034,4.971,4.0
44.666,-1.057,4.878,33.0
39.251,-0.928,5.403,5.0
44.53,-1.044,5.881,22.0
25.297,-0.588,3.2,17.0
24.788,-0.571,2.995,53.0
43.247,-0.988,4.986,5.0
44.662,-1.011,4.902,33.0
35.888,-0.811,4.961,5.0
44.425,-0.995,5.892,5.0
25.314,-0.562,3.216,2.0
24.775,-0.545,3.007,61.0
40.22,-0.876,4.659,9.0
40.617,-0.876,4.48,3.0
37.031,-0.798,5.138,25.0
34.027,-0.726,4.531,3.0
24.752,-0.523,3.157,12.0
24.772,-0.518,3.019,64.0
40.351,-0.837,4.693,12.0
31.72,-0.651,3.513,1.0
36.631,-0.75,5.1,7.0
36.748,-0.745,4.91,13.0
24.747,-0.497,3.168,53.0
24.796,-0.493,3.033,36.0
40.524,-0.797,4.731,15.0
43.264,-0.842,4.811,2.0
36.641,-0.711,5.117,2.0
24.736,-0.475,3.315,25.0
24.755,-0.47,3.179,82.0
24.784,-0.466,3.041,7.0
44.018,-0.818,5.156,11.0
44.094,-0.811,4.92,18.0
39.162,-0.717,5.484,3.0
24.742,-0.448,3.325,54.0
24.772,-0.443,3.19,35.0
40.612,-0.719,4.999,8.0
44.119,-0.772,5.184,18.0
44.341,-0.767,4.962,18.0
24.607,-0.424,3.454,15.0
24.754,-0.421,3.335,65.0
24.782,-0.416,3.199,3.0
46.652,-0.775,5.757,5.0
37.574,-0.616,4.426,13.0
37.607,-0.609,4.22,34.0
24.766,-0.399,3.484,53.0
24.752,-0.393,3.342,30.0
37.149,-0.583,4.806,13.0
37.686,-0.584,4.66,57.0
37.666,-0.576,4.446,25.0
37.594,-0.568,4.227,58.0
24.751,-0.371,3.487,50.0
37.202,-0.55,5.032,15.0
37.517,-0.547,4.863,13.0
34.056,-0.49,4.219,1.0
52.591,-0.746,6.219,4.0
40.077,-0.561,4.515,9.0
23.981,-0.333,3.384,22.0
36.589,-0.5,4.956,10.0
40.493,-0.545,5.256,7.0
44.49,-0.59,5.519,4.0
54.186,-0.708,6.417,24.0
54.008,-0.695,6.093,49.0
36.185,-0.461,5.111,6.0
22.992,-0.288,3.117,3.0
40.225,-0.497,5.226,4.0
36.193,-0.44,4.494,2.0
37.515,-0.448,4.447,36.0
39.991,-0.47,4.516,3.0
37.599,-0.437,5.315,1.0
32.399,-0.37,4.396,3.0
39.9,-0.447,5.188,1.0
44.175,-0.487,5.489,3.0
46.492,-0.503,5.515,7.0
52.595,-0.559,5.943,11.0
40.131,-0.42,5.676,0.0
36.288,-0.373,4.926,3.0
53.012,-0.534,6.895,10.0
37.529,-0.37,4.665,5.0
36.083,-0.349,4.281,9.0
31.832,-0.302,3.597,25.0
47.816,-0.446,6.763,22.0
32.631,-0.298,4.429,10.0
0.0,0.0,0.0,0.0
47.752,-0.418,5.935,14.0
36.041,-0.308,4.275,2.0
31.839,-0.266,3.597,36.0
47.585,-0.389,6.729,7.0
32.622,-0.261,4.427,9.0
37.771,-0.295,4.911,4.0
47.24,-0.359,5.869,38.0
47.235,-0.351,5.6,13.0
31.857,-0.23,3.597,55.0
47.403,-0.334,6.699,11.0
47.313,-0.324,6.416,17.0
47.252,-0.315,6.139,6.0
47.817,-0.309,5.935,3.0
0.0,0.0,0.0,0.0
31.859,-0.194,3.593,28.0
38.996,-0.23,5.506,23.0
36.53,-0.209,4.949,3.0
47.78,-0.264,6.2,4.0
0.0,0.0,0.0,0.0
31.92,-0.164,3.776,12.0
39.101,-0.194,4.404,39.0
47.215,-0.225,6.658,10.0
36.478,-0.167,4.935,4.0
38.382,-0.168,4.973,35.0
39.197,-0.164,4.852,6.0
31.942,-0.128,3.772,63.0
46.305,-0.178,5.206,6.0
47.339,-0.172,6.666,6.0
37.189,-0.128,5.023,13.0
0.0,0.0,0.0,0.0
31.954,-0.098,3.947,65.0
31.948,-0.092,3.765,64.0
36.869,-0.1,4.135,13.0
36.604,-0.091,5.144,10.0
36.854,-0.085,4.968,10.0
31.963,-0.068,4.125,75.0
31.94,-0.062,3.936,50.0
36.5,-0.064,4.29,10.0
37.228,-0.058,4.164,4.0
32.091,-0.043,4.5,46.0
31.962,-0.037,4.298,51.0
31.946,-0.032,4.112,26.0
39.705,-0.032,4.88,9.0
52.149,-0.033,6.112,24.0
36.565,-0.017,4.077,13.0
37.53,-0.008,5.249,35.0
31.947,-0.001,4.284,50.0
36.393,0.004,4.671,18.0
36.218,0.01,4.437,12.0
39.757,0.018,4.644,7.0
42.502,0.027,4.722,4.0
31.953,0.028,4.455,68.0
31.951,0.033,4.271,14.0
32.651,0.04,4.177,7.0
35.943,0.051,4.388,2.0
39.641,0.062,4.613,2.0
30.61,0.053,3.388,24.0
51.96,0.104,7.222,12.0
47.934,0.104,6.386,5.0
32.741,0.076,4.173,6.0
53.407,0.134,6.496,14.0
30.467,0.081,3.531,15.0
30.602,0.087,3.372,53.0
51.67,0.16,7.155,11.0
32.894,0.107,4.365,8.0
53.445,0.184,6.785,14.0
33.377,0.12,4.042,7.0
30.458,0.114,3.514,35.0
30.589,0.12,3.354,36.0
30.407,0.127,4.194,29.0
36.327,0.158,4.801,2.0
51.808,0.234,6.548,14.0
30.471,0.142,3.673,66.0
30.475,0.147,3.499,23.0
37.03,0.185,4.039,5.0
30.417,0.16,4.178,5.0
30.397,0.165,3.999,37.0
30.402,0.17,3.824,34.0
30.453,0.174,3.652,21.0
30.496,0.18,3.482,25.0
51.28,0.311,5.562,7.0
30.346,0.192,4.149,5.0
30.393,0.197,3.979,51.0
30.427,0.202,3.808,57.0
40.192,0.273,4.794,3.0
40.367,0.281,4.583,4.0
37.066,0.263,3.995,11.0
30.334,0.224,4.126,40.0
30.358,0.229,3.954,43.0
30.426,0.234,3.787,7.0
52.649,0.413,6.244,25.0
36.281,0.29,4.094,4.0
36.975,0.301,3.96,10.0
22.862,0.192,3.093,0.0
30.402,0.261,3.937,31.0
42.104,0.367,5.209,4.0
52.536,0.466,6.191,9.0
40.329,0.363,4.521,3.0
30.95,0.283,3.291,20.0
22.811,0.216,3.069,2.0
30.464,0.293,3.922,8.0
47.926,0.467,5.892,4.0
51.045,0.505,5.975,12.0
30.98,0.31,3.448,17.0
30.939,0.314,3.266,52.0
33.019,0.346,4.415,11.0
33.54,0.356,4.29,2.0
47.883,0.515,5.847,4.0
53.89,0.587,6.264,10.0
30.95,0.341,3.419,29.0
30.927,0.345,3.238,30.0
33.205,0.381,4.412,9.0
39.909,0.463,5.071,2.0
53.906,0.633,6.536,18.0
31.049,0.368,3.582,67.0
30.947,0.371,3.391,15.0
52.49,0.637,5.45,13.0
30.471,0.379,4.021,24.0
53.981,0.679,6.81,14.0
31.052,0.395,3.737,2.0
31.031,0.398,3.551,20.0
47.982,0.622,5.215,8.0
53.358,0.698,5.492,7.0
39.296,0.526,5.149,4.0
47.872,0.648,5.994,5.0
31.064,0.424,3.709,64.0
46.491,0.64,5.277,18.0
46.159,0.642,4.973,12.0
58.603,0.821,5.975,30.0
39.359,0.564,5.119,4.0
57.5,0.831,7.143,18.0
31.06,0.453,3.678,16.0
47.591,0.699,5.355,5.0
37.101,0.55,3.96,9.0
58.669,0.876,5.923,5.0
52.492,0.8,6.773,6.0
31.039,0.476,3.824,35.0
46.704,0.723,5.483,20.0
47.518,0.741,5.297,5.0
37.122,0.583,3.923,6.0
36.362,0.575,3.633,1.0
47.966,0.775,6.138,2.0
31.056,0.505,3.793,23.0
47.04,0.77,5.472,8.0
47.454,0.782,5.239,5.0
37.073,0.615,3.879,5.0
52.591,0.878,5.198,12.0
31.072,0.528,3.942,46.0
46.441,0.795,5.621,10.0
36.098,0.622,4.159,2.0
46.17,0.8,5.046,9.0
37.113,0.647,3.842,2.0
52.551,0.922,5.136,12.0
31.064,0.555,3.905,32.0
47.435,0.852,5.687,8.0
52.226,0.943,5.958,4.0
46.173,0.838,4.994,2.0
52.552,0.96,5.379,18.0
40.476,0.743,3.909,23.0
31.076,0.58,3.871,4.0
47.222,0.887,5.606,3.0
52.026,0.981,5.874,4.0
52.531,0.996,5.62,44.0
53.47,1.019,5.41,2.0
40.417,0.774,3.855,28.0
49.112,0.956,6.058,4.0
47.073,0.92,5.531,10.0
52.492,1.032,5.862,24.0
52.351,1.033,5.537,10.0
53.091,1.053,5.307,7.0
40.343,0.804,3.799,25.0
47.538,0.962,5.805,3.0
52.517,1.068,6.106,7.0
46.32,0.946,5.115,10.0
46.679,0.956,4.879,10.0
46.56,0.958,4.596,31.0
40.257,0.832,3.74,27.0
52.201,1.096,6.307,10.0
59.498,1.254,6.84,13.0
47.115,0.996,5.142,5.0
46.554,0.988,4.805,4.0
52.626,1.121,5.126,13.0
40.277,0.861,3.689,23.0
52.401,1.137,6.261,7.0
36.863,0.803,4.189,1.0
53.087,1.16,5.723,3.0
46.54,1.02,4.741,15.0
52.51,1.155,5.045,15.0
40.264,0.889,3.634,19.0
52.532,1.177,6.206,6.0
57.863,1.299,6.497,7.0
46.56,1.049,4.956,40.0
52.638,1.189,5.291,9.0
46.554,1.055,4.409,8.0
40.409,0.919,3.592,19.0
47.503,1.095,5.546,10.0
46.548,1.076,5.161,20.0
46.491,1.078,4.883,4.0
52.78,1.226,5.231,23.0
40.385,0.941,3.768,8.0
40.411,0.945,3.535,2.0
36.844,0.872,4.248,3.0
46.709,1.109,5.113,4.0
36.985,0.88,3.832,1.0
46.558,1.11,4.548,5.0
43.814,1.048,4.026,6.0
43.203,1.035,3.718,5.0
46.591,1.131,5.305,38.0
53.239,1.295,5.751,2.0
66.504,1.622,6.795,7.0
46.566,1.138,4.481,8.0
46.389,1.136,4.194,6.0
52.357,1.285,4.43,8.0
46.267,1.149,5.2,11.0
46.462,1.156,4.949,6.0
57.665,1.438,5.806,6.0
40.337,1.008,3.822,56.0
40.394,1.011,3.592,20.0
52.272,1.311,4.344,16.0
48.141,1.222,5.337,4.0
37.023,0.941,3.888,5.0
46.571,1.186,4.619,20.0
40.365,1.029,3.764,60.0
40.396,1.031,3.531,21.0
52.185,1.335,4.259,16.0
59.417,1.537,6.497,5.0
52.48,1.36,5.431,5.0
53.098,1.378,5.185,12.0
40.369,1.049,3.702,76.0
51.938,1.351,4.46,13.0
52.099,1.357,4.171,14.0
57.774,1.522,6.226,6.0
46.595,1.229,4.748,18.0
52.885,1.396,5.081,14.0
40.376,1.067,3.639,35.0
52.073,1.378,4.39,26.0
52.385,1.388,4.112,3.0
36.977,0.99,3.926,5.0
46.588,1.249,4.673,3.0
40.359,1.082,3.813,36.0
40.389,1.085,3.576,20.0
43.435,1.168,3.592,5.0
57.591,1.549,4.428,6.0
46.606,1.266,4.872,8.0
53.737,1.462,5.304,4.0
40.37,1.099,3.748,69.0
40.401,1.1,3.511,5.0
51.986,1.417,4.215,5.0
52.527,1.433,3.953,28.0
46.623,1.284,4.797,12.0
59.782,1.648,5.8,22.0
40.382,1.113,3.682,63.0
59.941,1.654,5.11,7.0
57.817,1.596,4.591,9.0
52.577,1.452,3.869,12.0
59.314,1.653,6.003,1.0
52.904,1.476,5.044,5.0
40.401,1.127,3.616,11.0
43.418,1.211,3.628,3.0
52.532,1.466,4.084,4.0
53.021,1.481,3.813,5.0
46.427,1.308,4.62,0.0
40.378,1.137,3.781,41.0
40.384,1.138,3.546,14.0
58.249,1.642,4.768,4.0
52.549,1.481,3.995,16.0
67.86,1.913,4.765,11.0
59.233,1.684,5.792,13.0
40.4,1.148,3.714,56.0
50.656,1.44,4.361,6.0
57.681,1.64,4.623,11.0
52.598,1.495,3.909,6.0
67.898,1.93,4.652,6.0
52.991,1.518,5.09,5.0
40.435,1.158,3.647,11.0
51.202,1.466,4.319,3.0
52.025,1.489,4.08,2.0
53.05,1.518,3.851,4.0
68.981,1.974,4.606,6.0
40.421,1.165,3.812,12.0
40.392,1.164,3.573,15.0
43.648,1.257,3.606,3.0
68.876,1.983,5.281,6.0
53.117,1.529,3.763,7.0
69.251,1.993,4.503,4.0
40.412,1.171,3.739,60.0
43.82,1.269,3.799,6.0
57.698,1.67,4.664,7.0
68.22,1.974,5.109,8.0
0.0,0.0,0.0,0.0
103.073,2.978,6.518,3.0
40.426,1.176,3.668,26.0
51.081,1.485,4.336,9.0
52.037,1.511,4.112,5.0
68.316,1.983,4.994,4.0
69.002,2.001,4.642,23.0
67.436,1.954,4.145,4.0
43.127,1.258,3.835,2.0
53.222,1.55,4.422,1.0
68.249,1.986,5.271,6.0
53.148,1.545,3.789,7.0
69.22,2.011,4.531,9.0
69.646,2.021,4.153,2.0
43.686,1.276,3.805,4.0
57.7,1.683,4.688,11.0
68.248,1.988,5.146,8.0
67.397,1.961,4.681,4.0
103.083,2.997,6.559,3.0
69.139,2.007,3.996,1.0
51.025,1.489,4.35,7.0
52.039,1.517,4.132,7.0
68.29,1.988,5.023,3.0
68.932,2.004,4.661,23.0
67.429,1.958,4.167,3.0
103.776,3.01,5.809,6.0
51.304,1.495,4.278,1.0
68.225,1.985,5.29,6.0
53.085,1.543,3.806,6.0
69.217,2.008,4.552,13.0
69.697,2.019,4.177,2.0
116.688,3.375,6.313,5.0
57.66,1.676,4.7,12.0
68.337,1.983,5.171,7.0
53.319,1.544,3.723,4.0
102.901,2.976,6.574,3.0
103.381,2.985,6.002,3.0
104.069,3.0,5.438,6.0
52.05,1.507,4.145,5.0
68.166,1.969,5.029,3.0
68.91,1.987,4.682,14.0
67.475,1.942,4.185,4.0
103.749,2.98,5.829,7.0
103.129,2.957,5.194,9.0
68.002,1.957,5.286,4.0
53.046,1.523,3.812,8.0
69.251,1.985,4.573,2.0
69.625,1.991,4.185,2.0
116.615,3.329,6.331,6.0
110.548,3.149,5.358,3.0
52.628,1.504,3.991,4.0
67.606,1.928,4.732,8.0
102.753,2.924,6.593,2.0
69.037,1.96,4.019,2.0
103.909,2.943,5.445,8.0
103.313,2.92,4.812,1.0
52.568,1.49,3.886,6.0
68.674,1.942,4.676,8.0
67.447,1.902,4.199,2.0
69.1,1.944,3.892,2.0
103.281,2.899,5.216,9.0
124.73,3.492,5.572,1.0
68.12,1.912,4.906,9.0
69.123,1.935,4.573,8.0
101.148,2.824,6.102,2.0
69.123,1.924,3.76,3.0
110.615,3.071,5.372,6.0
102.47,2.837,4.38,5.0
53.834,1.494,3.772,4.0
110.133,3.047,7.071,2.0
69.116,1.906,4.035,2.0
103.795,2.854,5.444,5.0
103.278,2.832,4.817,1.0
102.543,2.804,4.187,5.0
68.309,1.871,4.654,5.0
67.483,1.842,4.203,4.0
103.681,2.822,5.853,3.0
0.0,0.0,0.0,0.0
120.205,3.25,5.374,2.0
157.277,4.24,6.117,3.0
104.704,2.827,6.932,6.0
69.642,1.874,4.204,3.0
103.733,2.781,5.657,6.0
103.185,2.757,5.015,6.0
120.132,3.199,5.14,7.0
0.0,0.0,0.0,0.0
102.848,2.732,6.61,1.0
69.345,1.835,4.052,7.0
103.827,2.737,5.461,6.0
125.034,3.284,5.837,2.0
102.603,2.685,4.192,5.0
193.287,5.04,6.773,4.0
67.469,1.76,4.205,3.0
69.073,1.794,3.902,9.0
127.155,3.291,6.444,3.0
119.984,3.093,5.369,3.0
193.811,4.975,7.546,5.0
0.0,0.0,0.0,0.0
69.591,1.779,4.203,8.0
103.811,2.643,5.664,7.0
110.46,2.8,5.382,5.0
0.0,0.0,0.0,0.0
0.0,0.0,0.0,0.0
0.0,0.0,0.0,0.0
69.261,1.733,4.048,6.0
103.835,2.586,5.464,11.0
116.716,2.893,5.461,2.0
102.524,2.53,4.191,7.0
0.0,0.0,0.0,0.0
194.746,4.761,5.696,8.0
103.416,2.526,5.846,6.0
124.533,3.027,6.312,8.0
124.798,3.018,5.598,2.0
126.363,3.041,4.922,2.0
0.0,0.0,0.0,0.0
194.549,4.636,5.315,16.0
110.278,2.623,6.018,2.0
110.499,2.615,5.387,5.0
125.102,2.945,5.371,3.0
0.0,0.0,0.0,0.0
194.915,4.541,6.083,8.0
194.514,4.507,4.939,23.0
103.857,2.401,5.467,9.0
116.608,2.681,5.46,5.0
102.698,2.348,4.21,8.0
0.0,0.0,0.0,0.0
194.814,4.404,5.705,17.0
194.304,4.367,4.56,29.0
103.791,2.326,5.264,7.0
103.223,2.299,4.633,2.0
133.071,2.947,5.2,3.0
0.0,0.0,0.0,0.0
194.931,4.263,5.331,21.0
194.031,4.219,4.182,11.0
118.27,2.562,5.771,7.0
124.77,2.685,5.361,3.0
132.784,2.84,4.934,3.0
194.67,4.135,6.081,7.0
194.759,4.11,4.953,15.0
196.183,4.114,3.853,5.0
118.18,2.468,5.54,7.0
124.819,2.588,5.125,12.0
0.0,0.0,0.0,0.0
0.0,0.0,0.0,0.0
194.466,3.947,4.573,8.0
195.675,3.942,3.464,8.0
118.442,2.375,5.324,7.0
124.764,2.483,4.884,15.0
0.0,0.0,0.0,0.0
0.0,0.0,0.0,0.0
194.435,3.783,4.205,19.0
0.0,0.0,0.0,0.0
118.631,2.278,5.109,19.0
124.635,2.374,4.644,9.0
0.0,0.0,0.0,0.0
194.65,3.647,4.973,7.0
194.669,3.617,3.844,20.0
0.0,0.0,0.0,0.0
118.372,2.167,4.876,30.0
148.71,2.698,5.26,7.0
0.0,0.0,0.0,0.0
194.772,3.472,4.611,14.0
194.649,3.438,3.477,20.0
0.0,0.0,0.0,0.0
118.485,2.058,4.657,10.0
148.482,2.555,4.974,3.0
0.0,0.0,0.0,0.0
194.64,3.283,4.238,17.0
194.808,3.252,3.11,26.0
0.0,0.0,0.0,0.0
133.401,2.185,4.989,2.0
157.125,2.548,4.966,3.0
196.923,3.159,5.079,14.0
194.899,3.092,3.876,26.0
195.551,3.07,2.757,7.0
0.0,0.0,0.0,0.0
125.219,1.925,4.451,8.0
157.143,2.39,4.675,15.0
196.213,2.949,4.7,26.0
194.869,2.894,3.517,34.0
0.0,0.0,0.0,0.0
99.669,1.445,0.645,3.0
125.124,1.794,4.219,19.0
157.284,2.228,4.391,18.0
20.265,0.283,0.448,1.0
20.325,0.28,0.329,0.0
0.0,0.0,0.0,0.0
99.6,1.338,0.461,6.0
125.097,1.66,3.989,25.0
20.275,0.265,0.529,18.0
20.285,0.261,0.411,20.0
20.274,0.257,0.291,15.0
20.318,0.254,0.175,1.0
99.605,1.229,0.282,5.0
20.274,0.246,0.609,6.0
20.28,0.242,0.492,25.0
20.267,0.238,0.374,26.0
20.287,0.235,0.255,23.0
20.301,0.231,0.138,16.0
20.331,0.227,0.02,1.0
20.287,0.223,0.573,23.0
20.265,0.219,0.455,30.0
20.284,0.215,0.338,30.0
20.295,0.211,0.218,27.0
20.312,0.207,0.101,30.0
20.326,0.203,-0.016,16.0
20.264,0.198,0.536,34.0
20.276,0.194,0.419,29.0
20.293,0.191,0.302,29.0
20.302,0.187,0.182,28.0
20.317,0.182,0.065,30.0
20.239,0.178,-0.052,18.0
20.26,0.174,0.5,27.0
20.244,0.169,0.382,26.0
20.215,0.165,0.265,23.0
20.171,0.16,0.146,19.0
20.235,0.157,0.029,27.0
20.184,0.152,-0.087,25.0
20.188,0.148,0.463,25.0
20.17,0.144,0.346,25.0
20.156,0.139,0.229,20.0
20.19,0.135,0.111,34.0
20.178,0.131,-0.005,26.0
20.178,0.127,-0.121,41.0
20.164,0.122,0.428,29.0
20.164,0.118,0.311,28.0
20.168,0.113,0.194,26.0
20.181,0.109,0.076,34.0
20.198,0.105,-0.04,33.0
20.187,0.1,-0.156,32.0
20.155,0.096,0.393,28.0
20.15,0.091,0.277,27.0
20.146,0.086,0.16,25.0
20.202,0.082,0.042,33.0
20.187,0.078,-0.074,27.0
20.204,0.073,-0.191,17.0
20.145,0.068,0.359,28.0
20.158,0.064,0.243,28.0
20.144,0.06,0.127,28.0
20.209,0.055,0.009,24.0
20.237,0.051,-0.108,24.0
20.226,0.046,-0.224,53.0
20.144,0.041,0.326,30.0
20.137,0.037,0.21,28.0
20.147,0.032,0.094,27.0
20.246,0.028,-0.024,151.0
20.255,0.023,-0.141,151.0
20.27,0.018,-0.258,150.0
20.126,0.013,0.293,29.0
20.121,0.009,0.177,28.0
20.205,0.004,0.061,29.0
20.225,0.0,-0.057,43.0
20.207,-0.005,-0.173,9.0
20.199,-0.01,-0.29,1.0
20.123,-0.015,0.261,27.0
20.117,-0.019,0.144,30.0
20.136,-0.024,0.029,29.0
20.145,-0.029,-0.089,30.0
20.14,-0.034,-0.205,10.0
20.177,-0.039,-0.322,21.0
20.114,-0.044,0.228,34.0
20.134,-0.049,0.112,40.0
20.127,-0.054,-0.003,35.0
20.132,-0.059,-0.121,30.0
20.138,-0.064,-0.236,27.0
20.151,-0.069,-0.353,20.0
20.125,-0.074,0.197,29.0
20.137,-0.079,0.081,39.0
20.141,-0.084,-0.034,28.0
20.134,-0.089,-0.152,35.0
20.133,-0.094,-0.267,36.0
20.148,-0.099,-0.384,37.0
20.135,-0.104,0.167,24.0
20.135,-0.109,0.051,30.0
20.162,-0.115,-0.064,24.0
20.132,-0.12,-0.182,17.0
20.151,-0.125,-0.298,35.0
20.148,-0.13,-0.414,37.0
20.161,-0.135,0.136,16.0
20.182,-0.141,0.02,20.0
20.16,-0.146,-0.095,17.0
20.127,-0.151,-0.213,16.0
20.154,-0.156,-0.329,27.0
20.172,-0.162,-0.445,27.0
66.514,-0.552,0.352,19.0
53.346,-0.457,-0.023,11.0
20.167,-0.178,-0.124,0.0
44.985,-0.409,-0.541,15.0
20.178,-0.188,-0.359,13.0
20.188,-0.194,-0.475,30.0
56.174,-0.555,0.216,7.0
56.232,-0.57,-0.105,13.0
58.815,-0.613,-0.448,13.0
44.856,-0.479,-0.604,18.0
36.0,-0.394,-0.692,2.0
20.188,-0.226,-0.504,9.0
56.316,-0.647,0.137,0.0
56.202,-0.66,-0.185,0.0
52.844,-0.636,-0.477,13.0
38.864,-0.478,-0.578,14.0
32.041,-0.403,-0.66,13.0
28.861,-0.371,-0.761,2.0
59.535,-0.78,0.063,77.0
59.433,-0.796,-0.278,1.0
45.428,-0.621,-0.473,4.0
38.027,-0.53,-0.618,24.0
31.089,-0.442,-0.684,28.0
27.679,-0.402,-0.768,2.0
20.134,-0.297,-0.006,6.0
59.408,-0.894,-0.358,15.0
45.013,-0.69,-0.529,25.0
37.751,-0.589,-0.664,13.0
30.355,-0.482,-0.708,26.0
26.648,-0.431,-0.775,1.0
20.113,-0.33,-0.032,19.0
52.943,-0.885,-0.389,43.0
44.892,-0.763,-0.587,17.0
31.533,-0.545,-0.596,1.0
29.629,-0.521,-0.73,9.0
25.95,-0.463,-0.788,2.0
52.995,-0.96,-0.153,32.0
45.564,-0.839,-0.393,16.0
38.477,-0.72,-0.552,13.0
31.17,-0.592,-0.629,24.0
28.797,-0.555,-0.746,7.0
25.404,-0.497,-0.804,2.0
45.629,-0.905,-0.19,15.0
45.399,-0.913,-0.448,7.0
38.121,-0.778,-0.594,18.0
30.705,-0.636,-0.658,31.0
27.771,-0.583,-0.754,1.0
24.068,-0.513,-0.791,5.0
40.448,-0.872,-0.218,3.0
40.448,-0.884,-0.449,27.0
37.901,-0.84,-0.637,13.0
30.486,-0.684,-0.69,33.0
25.349,-0.577,-0.719,3.0
23.408,-0.54,-0.798,5.0
40.423,-0.942,-0.266,44.0
40.393,-0.954,-0.496,2.0
31.521,-0.753,-0.567,8.0
30.408,-0.736,-0.724,19.0
24.705,-0.605,-0.729,14.0
22.206,-0.551,-0.782,1.0
38.775,-0.971,-0.299,27.0
38.462,-0.975,-0.516,20.0
31.158,-0.799,-0.596,28.0
0.0,0.0,0.0,0.0
24.078,-0.633,-0.738,23.0
21.649,-0.576,-0.788,0.0
38.686,-1.038,-0.342,57.0
38.229,-1.038,-0.556,16.0
30.8,-0.846,-0.624,31.0
28.193,-0.783,-0.735,1.0
23.795,-0.668,-0.756,18.0
20.956,-0.595,-0.785,1.0
38.655,-1.107,-0.384,52.0
37.994,-1.099,-0.593,27.0
30.599,-0.895,-0.652,33.0
27.499,-0.812,-0.746,1.0
23.688,-0.707,-0.777,8.0
20.499,-0.618,-0.79,2.0
38.618,-1.174,-0.423,44.0
37.89,-1.164,-0.631,12.0
30.504,-0.946,-0.681,32.0
25.262,-0.792,-0.711,4.0
23.13,-0.732,-0.783,2.0
19.801,-0.633,-0.783,5.0
38.612,-1.244,-0.462,25.0
31.379,-1.021,-0.554,23.0
30.429,-0.999,-0.71,20.0
24.623,-0.817,-0.717,17.0
22.53,-0.755,-0.785,4.0
19.492,-0.659,-0.79,0.0
38.504,-1.311,-0.498,13.0
31.047,-1.067,-0.578,29.0
30.191,-1.047,-0.734,6.0
24.268,-0.849,-0.73,23.0
21.92,-0.774,-0.784,0.0
18.99,-0.677,-0.788,1.0
38.299,-1.373,-0.531,14.0
30.762,-1.112,-0.601,33.0
28.58,-1.043,-0.721,1.0
23.815,-0.877,-0.738,19.0
21.322,-0.792,-0.782,0.0
18.713,-0.701,-0.793,0.0
31.294,-1.18,-0.462,43.0
30.609,-1.163,-0.625,35.0
28.474,-1.091,-0.743,7.0
23.782,-0.919,-0.758,12.0
20.669,-0.806,-0.776,2.0
18.422,-0.724,-0.797,1.0
28.47,-1.125,-0.444,69.0
28.458,-1.134,-0.605,62.0
28.159,-1.131,-0.759,2.0
23.679,-0.959,-0.775,5.0
20.477,-0.836,-0.786,2.0
18.176,-0.748,-0.801,1.0
28.455,-1.178,-0.467,119.0
28.466,-1.188,-0.629,150.0
25.068,-1.054,-0.696,6.0
22.893,-0.97,-0.767,1.0
20.098,-0.858,-0.788,0.0
17.909,-0.771,-0.804,0.0
28.463,-1.231,-0.49,62.0
28.467,-1.24,-0.651,58.0
24.428,-1.072,-0.697,12.0
22.348,-0.989,-0.766,4.0
19.758,-0.881,-0.789,0.0
17.606,-0.791,-0.803,1.0
31.012,-1.399,-0.556,40.0
0.0,0.0,0.0,0.0
24.144,-1.105,-0.706,15.0
21.923,-1.01,-0.767,1.0
19.412,-0.901,-0.789,0.0
17.304,-0.809,-0.802,1.0
30.92,-1.452,-0.576,33.0
28.451,-1.345,-0.691,1.0
23.971,-1.142,-0.717,16.0
21.661,-1.039,-0.773,1.0
19.105,-0.923,-0.79,0.0
17.032,-0.829,-0.801,0.0
30.806,-1.504,-0.594,34.0
28.369,-1.395,-0.708,3.0
23.842,-1.18,-0.729,14.0
21.233,-1.058,-0.771,1.0
18.805,-0.944,-0.79,0.0
16.826,-0.85,-0.802,1.0
30.725,-1.558,-0.612,33.0
24.551,-1.253,-0.628,16.0
23.784,-1.222,-0.742,13.0
21.001,-1.086,-0.776,1.0
18.581,-0.967,-0.791,0.0
16.685,-0.874,-0.805,1.0
30.685,-1.613,-0.629,25.0
24.481,-1.295,-0.64,23.0
23.661,-1.26,-0.752,10.0
20.656,-1.107,-0.775,2.0
18.431,-0.994,-0.795,0.0
16.538,-0.898,-0.807,1.0
24.542,-1.336,-0.516,38.0
24.402,-1.336,-0.651,19.0
23.534,-1.297,-0.76,5.0
20.49,-1.136,-0.779,2.0
18.25,-1.018,-0.797,0.0
16.494,-0.926,-0.813,1.0
24.505,-1.379,-0.528,43.0
24.35,-1.379,-0.661,19.0
23.224,-1.323,-0.761,2.0
20.288,-1.163,-0.781,1.0
18.126,-1.045,-0.8,1.0
16.267,-0.944,-0.81,2.0
24.488,-1.424,-0.538,41.0
24.33,-1.423,-0.672,20.0
22.776,-1.34,-0.757,1.0
20.1,-1.19,-0.783,1.0
17.726,-1.055,-0.79,0.0
16.191,-0.97,-0.813,1.0
24.464,-1.468,-0.548,40.0
24.276,-1.465,-0.68,23.0
22.373,-1.358,-0.753,1.0
19.752,-1.206,-0.777,1.0
17.661,-1.084,-0.794,0.0
16.106,-0.995,-0.815,1.0
24.456,-1.513,-0.557,39.0
24.18,-1.504,-0.687,16.0
22.216,-1.39,-0.756,0.0
19.592,-1.233,-0.778,0.0
17.523,-1.108,-0.794,0.0
16.005,-1.018,-0.815,1.0
24.45,-1.558,-0.566,36.0
24.1,-1.544,-0.692,17.0
22.116,-1.424,-0.759,0.0
19.413,-1.257,-0.777,0.0
17.346,-1.129,-0.792,1.0
15.993,-1.047,-0.82,0.0
24.443,-1.602,-0.573,29.0
24.059,-1.585,-0.698,16.0
21.83,-1.446,-0.756,0.0
19.313,-1.286,-0.779,0.0
17.243,-1.154,-0.792,1.0
15.846,-1.066,-0.817,1.0
24.477,-1.649,-0.58,26.0
23.992,-1.625,-0.702,15.0
21.542,-1.466,-0.751,0.0
19.178,-1.312,-0.778,0.0
17.17,-1.181,-0.793,1.0
15.794,-1.092,-0.817,1.0
24.584,-1.701,-0.588,3.0
23.922,-1.663,-0.705,14.0
21.55,-1.506,-0.756,0.0
19.162,-1.346,-0.781,0.0
17.104,-1.207,-0.793,1.0
15.751,-1.117,-0.818,1.0
28.305,-2.01,-0.682,4.0
23.905,-1.706,-0.709,14.0
21.445,-1.537,-0.756,0.0
18.99,-1.368,-0.777,1.0
17.134,-1.24,-0.797,4.0
15.715,-1.143,-0.819,1.0
28.138,-2.048,-0.682,1.0
23.844,-1.744,-0.711,19.0
21.267,-1.563,-0.752,2.0
18.995,-1.402,-0.78,1.0
17.126,-1.27,-0.798,5.0
15.706,-1.171,-0.82,1.0
28.212,-2.104,-0.686,3.0
23.853,-1.787,-0.713,15.0
21.244,-1.599,-0.753,1.0
18.844,-1.425,-0.775,0.0
17.035,-1.294,-0.796,2.0
15.649,-1.194,-0.818,1.0
27.888,-2.13,-0.68,1.0
23.841,-1.829,-0.714,14.0
21.254,-1.637,-0.755,1.0
18.794,-1.454,-0.774,0.0
16.903,-1.314,-0.79,1.0
15.674,-1.224,-0.82,1.0
27.874,-2.177,-0.681,2.0
23.834,-1.87,-0.714,13.0
21.132,-1.665,-0.751,1.0
18.829,-1.49,-0.775,0.0
16.912,-1.344,-0.79,1.0
15.655,-1.249,-0.819,1.0
27.927,-2.23,-0.682,2.0
23.839,-1.912,-0.714,14.0
21.141,-1.702,-0.75,1.0
18.797,-1.52,-0.773,1.0
16.92,-1.374,-0.79,0.0
15.678,-1.278,-0.819,1.0
27.866,-2.273,-0.678,3.0
23.836,-1.952,-0.712,15.0
21.231,-1.746,-0.752,1.0
18.889,-1.56,-0.776,2.0
16.949,-1.405,-0.79,0.0
15.637,-1.302,-0.816,1.0
28.098,-2.34,-0.681,6.0
23.855,-1.994,-0.711,15.0
21.2,-1.779,-0.749,2.0
18.823,-1.586,-0.771,0.0
16.993,-1.438,-0.79,0.0
15.631,-1.328,-0.813,1.0
27.909,-2.371,-0.673,3.0
23.837,-2.033,-0.707,20.0
21.235,-1.818,-0.747,1.0
18.892,-1.624,-0.771,0.0
17.011,-1.468,-0.788,0.0
15.664,-1.357,-0.813,1.0
28.019,-2.427,-0.671,4.0
23.841,-2.073,-0.703,16.0
21.282,-1.857,-0.745,1.0
18.981,-1.663,-0.771,1.0
17.114,-1.505,-0.79,1.0
15.725,-1.388,-0.813,1.0
28.13,-2.483,-0.668,6.0
23.832,-2.111,-0.697,15.0
21.369,-1.9,-0.743,0.0
19.073,-1.702,-0.771,1.0
17.075,-1.53,-0.784,0.0
15.746,-1.416,-0.81,1.0
28.17,-2.533,-0.662,4.0
23.84,-2.151,-0.692,13.0
21.456,-1.943,-0.741,1.0
19.088,-1.734,-0.766,1.0
17.145,-1.563,-0.783,0.0
15.792,-1.445,-0.808,1.0
28.324,-2.592,-0.658,5.0
23.844,-2.189,-0.685,9.0
21.862,-2.014,-0.748,4.0
19.247,-1.779,-0.767,1.0
17.267,-1.602,-0.783,0.0
15.836,-1.474,-0.806,1.0
28.508,-2.654,-0.653,3.0
25.116,-2.346,-0.713,6.0
21.736,-2.037,-0.737,4.0
19.367,-1.821,-0.765,1.0
17.359,-1.638,-0.781,0.0
15.957,-1.511,-0.806,1.0
28.581,-2.705,-0.645,4.0
25.336,-2.406,-0.711,6.0
21.888,-2.085,-0.734,2.0
19.495,-1.863,-0.763,2.0
17.503,-1.678,-0.781,0.0
16.009,-1.54,-0.803,1.0
28.959,-2.786,-0.642,2.0
25.525,-2.463,-0.706,6.0
22.099,-2.139,-0.732,1.0
19.679,-1.911,-0.762,2.0
17.577,-1.712,-0.777,1.0
16.101,-1.574,-0.801,1.0
29.643,-2.896,-0.645,2.0
25.83,-2.531,-0.703,6.0
22.45,-2.207,-0.734,1.0
19.783,-1.951,-0.757,1.0
17.791,-1.76,-0.779,0.0
16.151,-1.603,-0.796,1.0
30.13,-2.988,-0.641,2.0
26.027,-2.589,-0.697,6.0
22.532,-2.248,-0.726,1.0
19.985,-2.0,-0.756,1.0
18.019,-1.808,-0.78,0.0
16.269,-1.638,-0.794,1.0
30.313,-3.05,-0.631,2.0
26.243,-2.648,-0.689,6.0
22.876,-2.315,-0.726,1.0
20.173,-2.047,-0.753,2.0
18.107,-1.843,-0.775,1.0
16.36,-1.67,-0.79,1.0
30.755,-3.138,-0.624,5.0
26.395,-2.7,-0.68,6.0
23.037,-2.363,-0.719,3.0
20.357,-2.094,-0.749,2.0
18.244,-1.882,-0.771,1.0
16.485,-1.706,-0.787,1.0
31.25,-3.232,-0.617,9.0
26.792,-2.778,-0.675,5.0
23.318,-2.424,-0.715,4.0
20.605,-2.148,-0.746,2.0
18.44,-1.927,-0.768,1.0
16.63,-1.743,-0.784,1.0
31.676,-3.319,-0.606,10.0
27.0,-2.836,-0.664,2.0
23.749,-2.501,-0.714,5.0
20.952,-2.212,-0.746,4.0
18.697,-1.979,-0.768,1.0
16.852,-1.789,-0.784,1.0
32.061,-3.401,-0.594,10.0
27.427,-2.917,-0.658,1.0
24.141,-2.574,-0.711,5.0
21.131,-2.258,-0.739,3.0
18.953,-2.031,-0.766,1.0
17.046,-1.831,-0.782,1.0
32.25,-3.463,-0.577,14.0
27.875,-3.0,-0.65,2.0
24.607,-2.655,-0.708,5.0
21.383,-2.312,-0.734,2.0
19.202,-2.082,-0.764,1.0
17.172,-1.866,-0.777,1.0
32.41,-3.52,-0.558,24.0
28.41,-3.093,-0.644,2.0
24.995,-2.728,-0.702,6.0
21.797,-2.384,-0.733,2.0
19.417,-2.129,-0.759,1.0
17.376,-1.91,-0.774,1.0
32.818,-3.605,-0.542,29.0
29.576,-3.256,-0.649,8.0
25.23,-2.784,-0.691,6.0
22.211,-2.456,-0.731,4.0
19.652,-2.178,-0.754,1.0
17.707,-1.967,-0.775,1.0
33.285,-3.696,-0.526,32.0
29.856,-3.322,-0.633,7.0
25.617,-2.857,-0.683,4.0
22.543,-2.519,-0.725,4.0
20.098,-2.251,-0.756,1.0
17.83,-2.002,-0.767,2.0
33.667,-3.777,-0.506,33.0
30.221,-3.397,-0.618,8.0
26.215,-2.953,-0.678,1.0
22.883,-2.583,-0.718,4.0
20.339,-2.301,-0.749,2.0
18.171,-2.06,-0.768,0.0
33.99,-3.851,-0.484,35.0
30.413,-3.453,-0.598,13.0
26.649,-3.032,-0.668,2.0
23.179,-2.642,-0.709,4.0
20.649,-2.359,-0.744,2.0
18.528,-2.121,-0.768,0.0
34.413,-3.936,-0.462,28.0
30.689,-3.517,-0.578,14.0
27.197,-3.123,-0.66,3.0
23.561,-2.711,-0.701,3.0
20.995,-2.42,-0.739,3.0
18.879,-2.181,-0.767,1.0
34.85,-4.023,-0.439,21.0
31.119,-3.598,-0.561,14.0
27.658,-3.204,-0.648,2.0
24.226,-2.811,-0.701,5.0
21.546,-2.505,-0.74,4.0
19.152,-2.231,-0.762,2.0
39.823,-4.636,-0.469,3.0
31.791,-3.707,-0.546,26.0
28.41,-3.319,-0.641,3.0
24.721,-2.893,-0.694,3.0
21.786,-2.554,-0.729,7.0
19.441,-2.283,-0.756,2.0
39.851,-4.677,-0.434,13.0
32.435,-3.813,-0.528,29.0
29.004,-3.416,-0.629,8.0
25.328,-2.988,-0.688,5.0
22.094,-2.611,-0.72,4.0
19.814,-2.345,-0.753,1.0
40.057,-4.738,-0.4,15.0
33.021,-3.912,-0.508,29.0
29.414,-3.49,-0.611,16.0
25.707,-3.055,-0.675,5.0
22.62,-2.693,-0.716,4.0
20.142,-2.402,-0.746,1.0
40.206,-4.792,-0.364,15.0
33.539,-4.003,-0.484,28.0
29.798,-3.562,-0.591,23.0
26.366,-3.156,-0.668,2.0
23.147,-2.775,-0.711,4.0
20.533,-2.466,-0.742,2.0
40.396,-4.848,-0.328,6.0
34.116,-4.1,-0.46,28.0
30.185,-3.633,-0.57,23.0
26.844,-3.235,-0.654,2.0
23.498,-2.836,-0.699,2.0
20.954,-2.533,-0.737,3.0
45.869,-5.541,-0.329,20.0
34.595,-4.185,-0.434,21.0
30.796,-3.73,-0.552,20.0
27.685,-3.358,-0.648,3.0
24.193,-2.939,-0.697,3.0
21.477,-2.612,-0.734,4.0
46.25,-5.623,-0.285,21.0
39.678,-4.83,-0.458,6.0
31.496,-3.838,-0.533,25.0
28.36,-3.46,-0.636,7.0
24.688,-3.016,-0.686,4.0
21.881,-2.677,-0.726,4.0
47.273,-5.781,-0.245,23.0
39.786,-4.871,-0.42,16.0
32.37,-3.967,-0.515,24.0
28.777,-3.531,-0.616,13.0
25.469,-3.129,-0.682,4.0
22.442,-2.761,-0.722,4.0
47.996,-5.902,-0.199,22.0
40.023,-4.926,-0.381,21.0
33.039,-4.071,-0.492,26.0
28.954,-3.572,-0.59,20.0
26.131,-3.227,-0.673,6.0
22.873,-2.828,-0.712,4.0
49.642,-6.135,-0.155,24.0
40.266,-4.981,-0.342,15.0
33.716,-4.175,-0.467,26.0
29.242,-3.625,-0.565,19.0
26.728,-3.317,-0.66,2.0
23.434,-2.911,-0.705,3.0
55.496,-6.891,-0.115,8.0
40.495,-5.033,-0.301,8.0
34.321,-4.269,-0.44,19.0
30.238,-3.765,-0.553,19.0
27.479,-3.425,-0.65,5.0
23.908,-2.983,-0.694,2.0
55.986,-6.982,-0.057,9.0
46.119,-5.756,-0.295,20.0
39.694,-4.958,-0.466,3.0
30.987,-3.874,-0.533,21.0
28.053,-3.51,-0.634,9.0
24.63,-3.085,-0.689,2.0
68.96,-8.634,0.002,2.0
46.672,-5.848,-0.248,21.0
39.794,-4.989,-0.425,11.0
31.837,-3.995,-0.514,20.0
28.471,-3.575,-0.613,20.0
25.279,-3.177,-0.68,3.0
68.724,-8.635,0.076,7.0
47.684,-5.995,-0.202,22.0
39.918,-5.022,-0.383,16.0
32.741,-4.122,-0.493,22.0
28.868,-3.637,-0.589,21.0
25.884,-3.264,-0.668,2.0
68.655,-8.654,0.151,5.0
49.427,-6.234,-0.155,23.0
40.062,-5.056,-0.34,9.0
33.551,-4.237,-0.469,27.0
29.418,-3.717,-0.568,21.0
26.765,-3.384,-0.66,3.0
68.397,-8.646,0.226,1.0
55.651,-7.038,-0.113,9.0
45.568,-5.766,-0.337,4.0
34.245,-4.336,-0.44,26.0
30.093,-3.812,-0.548,20.0
27.416,-3.475,-0.646,7.0
68.167,-8.639,0.302,2.0
56.015,-7.101,-0.052,7.0
45.902,-5.822,-0.288,20.0
39.699,-5.037,-0.466,3.0
31.015,-3.937,-0.53,16.0
27.793,-3.53,-0.624,17.0
68.098,-8.648,0.377,2.0
60.988,-7.748,0.011,3.0
46.795,-5.947,-0.241,21.0
39.752,-5.053,-0.422,12.0
31.939,-4.062,-0.51,19.0
28.364,-3.609,-0.605,16.0
67.942,-8.643,0.453,2.0
67.999,-8.652,0.089,2.0
47.887,-6.095,-0.193,22.0
39.848,-5.073,-0.378,10.0
32.843,-4.183,-0.487,24.0
29.118,-3.71,-0.588,20.0
67.943,-8.655,0.53,3.0
67.997,-8.663,0.166,2.0
49.79,-6.345,-0.144,18.0
40.041,-5.104,-0.334,2.0
33.72,-4.299,-0.462,27.0
29.666,-3.783,-0.565,23.0
67.955,-8.665,0.606,1.0
67.968,-8.668,0.243,2.0
55.691,-7.103,-0.098,10.0
45.52,-5.806,-0.329,5.0
34.434,-4.393,-0.433,22.0
30.261,-3.861,-0.542,19.0
68.171,-8.698,0.686,1.0
67.857,-8.658,0.32,2.0
60.952,-7.777,-0.038,5.0
45.949,-5.863,-0.279,21.0
39.757,-5.074,-0.455,5.0
31.173,-3.979,-0.523,11.0
81.067,-10.347,0.908,3.0
67.78,-8.65,0.397,4.0
61.026,-7.787,0.03,6.0
46.919,-5.987,-0.231,22.0
39.78,-5.076,-0.409,11.0
32.3,-4.122,-0.505,22.0
191.886,-24.488,2.371,20.0
67.837,-8.655,0.475,6.0
67.894,-8.662,0.112,2.0
48.261,-6.156,-0.184,22.0
39.898,-5.089,-0.365,7.0
33.201,-4.235,-0.482,25.0
191.958,-24.485,2.59,29.0
67.93,-8.663,0.553,3.0
68.05,-8.676,0.188,2.0
50.085,-6.384,-0.134,15.0
42.212,-5.38,-0.339,2.0
33.997,-4.332,-0.455,29.0
191.941,-24.463,2.808,28.0
68.278,-8.699,0.633,2.0
68.004,-8.661,0.266,2.0
55.817,-7.107,-0.085,12.0
45.685,-5.816,-0.314,15.0
34.628,-4.407,-0.423,18.0
191.943,-24.433,3.027,30.0
68.197,-8.677,0.71,6.0
68.002,-8.649,0.344,2.0
60.998,-7.756,-0.023,4.0
46.226,-5.876,-0.265,20.0
39.733,-5.049,-0.441,9.0
191.961,-24.397,3.244,25.0
68.26,-8.671,0.788,7.0
68.139,-8.652,0.421,2.0
68.28,-8.666,0.049,2.0
47.508,-6.027,-0.22,21.0
39.865,-5.055,-0.398,21.0
191.938,-24.346,3.462,19.0
192.03,-24.344,2.434,24.0
68.336,-8.658,0.499,3.0
68.425,-8.665,0.126,2.0
0.0,0.0,0.0,0.0
40.001,-5.061,-0.353,10.0
197.601,-25.006,3.785,5.0
191.989,-24.28,2.648,26.0
68.469,-8.653,0.577,2.0
68.463,-8.647,0.203,2.0
55.584,-7.017,-0.132,9.0
0.0,0.0,0.0,0.0
197.474,-24.923,4.004,14.0
191.986,-24.212,2.863,32.0
80.64,-10.162,0.77,9.0
68.649,-8.645,0.281,3.0
55.964,-7.043,-0.071,7.0
45.94,-5.778,-0.305,20.0
139.595,-17.564,2.984,17.0
191.997,-24.137,3.075,38.0
80.547,-10.118,0.857,13.0
68.732,-8.627,0.356,4.0
68.881,-8.64,-0.012,1.0
46.779,-5.863,-0.259,21.0
139.518,-17.494,3.134,30.0
192.0,-24.053,3.283,25.0
80.722,-10.103,0.947,4.0
68.893,-8.616,0.432,4.0
69.086,-8.633,0.062,12.0
48.04,-5.998,-0.214,22.0
139.509,-17.426,3.285,28.0
191.991,-23.958,3.492,9.0
192.032,-23.94,2.463,31.0
80.457,-10.021,0.592,26.0
69.246,-8.617,0.137,8.0
49.726,-6.183,-0.167,18.0
139.6,-17.364,3.438,18.0
198.196,-24.627,3.815,8.0
192.06,-23.84,2.668,28.0
80.439,-9.975,0.676,29.0
80.693,-9.996,0.246,9.0
55.586,-6.879,-0.128,10.0
63.08,-7.81,1.62,6.0
188.437,-23.305,3.829,10.0
192.102,-23.732,2.87,15.0
80.373,-9.918,0.761,30.0
80.434,-9.915,0.33,30.0
56.038,-6.901,-0.07,6.0
165.274,-20.362,4.419,21.0
188.319,-23.173,4.023,23.0
188.576,-23.177,3.015,23.0
80.446,-9.875,0.846,20.0
80.351,-9.853,0.413,35.0
80.771,-9.894,-0.018,14.0
165.211,-20.246,4.588,21.0
188.042,-23.014,4.211,7.0
188.063,-22.987,3.202,24.0
80.599,-9.839,0.931,5.0
80.285,-9.789,0.495,33.0
80.939,-9.857,0.064,16.0
85.832,-10.458,2.472,10.0
189.363,-23.041,4.433,17.0
153.817,-18.69,2.773,9.0
153.646,-18.645,1.928,15.0
80.307,-9.732,0.576,29.0
80.801,-9.78,0.145,23.0
84.163,-10.192,2.508,16.0
139.141,-16.824,3.398,14.0
153.814,-18.572,2.928,16.0
153.589,-18.518,2.081,15.0
80.185,-9.655,0.654,30.0
80.454,-9.673,0.225,28.0
84.198,-10.129,2.593,31.0
139.009,-16.697,3.532,26.0
153.757,-18.44,3.079,17.0
153.621,-18.396,2.233,16.0
80.109,-9.579,0.732,31.0
80.319,-9.59,0.302,22.0
84.298,-10.072,2.678,30.0
139.047,-16.585,3.667,17.0
85.342,-10.163,1.79,6.0
153.788,-18.285,2.381,6.0
80.114,-9.51,0.809,22.0
80.135,-9.499,0.377,30.0
84.402,-10.01,2.761,37.0
84.396,-9.992,2.305,9.0
85.315,-10.084,1.869,22.0
192.291,-22.691,3.159,11.0
80.353,-9.466,0.887,10.0
80.018,-9.412,0.451,30.0
84.407,-9.934,2.839,33.0
84.185,-9.89,2.377,37.0
85.904,-10.074,1.961,7.0
192.34,-22.515,3.336,20.0
192.336,-22.477,2.298,20.0
79.954,-9.328,0.523,22.0
84.246,-9.835,2.91,25.0
84.199,-9.811,2.453,41.0
84.258,-9.799,2.0,20.0
85.249,-9.896,1.555,16.0
84.77,-9.822,1.088,28.0
65.365,-7.56,0.486,1.0
83.891,-9.709,2.973,37.0
83.372,-9.63,2.504,40.0
84.202,-9.707,2.073,14.0
85.185,-9.801,1.629,31.0
84.375,-9.689,1.157,40.0
65.208,-7.475,0.541,2.0
83.689,-9.599,3.038,44.0
83.029,-9.504,2.565,27.0
84.238,-9.623,2.145,13.0
85.001,-9.69,1.696,22.0
84.085,-9.567,1.223,27.0
0.0,0.0,0.0,0.0
82.697,-9.397,3.071,30.0
82.811,-9.39,2.626,27.0
81.979,-9.276,2.156,22.0
84.896,-9.586,1.763,9.0
84.05,-9.471,1.292,21.0
0.0,0.0,0.0,0.0
82.528,-9.286,3.132,34.0
82.197,-9.228,2.673,31.0
82.036,-9.19,2.223,37.0
82.995,-9.277,1.791,32.0
84.289,-9.402,1.362,14.0
0.0,0.0,0.0,0.0
82.571,-9.197,3.198,30.0
82.221,-9.137,2.738,33.0
82.069,-9.099,2.288,35.0
82.345,-9.108,1.841,37.0
82.185,-9.07,1.391,27.0
0.0,0.0,0.0,0.0
82.644,-9.107,3.264,34.0
82.281,-9.045,2.803,41.0
81.719,-8.961,2.34,35.0
81.812,-8.95,1.89,40.0
82.256,-8.978,1.454,24.0
0.0,0.0,0.0,0.0
82.581,-8.998,3.323,38.0
82.275,-8.943,2.863,44.0
81.552,-8.842,2.395,32.0
81.738,-8.841,1.947,38.0
82.161,-8.865,1.512,42.0
0.0,0.0,0.0,0.0
83.071,-8.947,3.402,50.0
82.326,-8.844,2.922,43.0
81.637,-8.748,2.454,37.0
81.909,-8.755,2.008,43.0
82.111,-8.754,1.566,39.0
0.0,0.0,0.0,0.0
83.191,-8.854,3.463,37.0
82.398,-8.745,2.981,42.0
81.721,-8.651,2.511,34.0
81.9,-8.647,2.062,52.0
81.906,-8.625,1.616,46.0
0.0,0.0,0.0,0.0
82.266,-8.646,3.478,35.0
82.573,-8.654,3.04,45.0
81.74,-8.544,2.564,41.0
81.749,-8.521,2.11,41.0
81.841,-8.507,1.667,43.0
82.009,-8.502,1.223,2.0
82.001,-8.507,3.518,36.0
82.383,-8.521,3.084,39.0
81.837,-8.441,2.617,32.0
81.911,-8.425,2.165,46.0
81.868,-8.397,1.717,47.0
81.938,-8.381,1.271,8.0
81.942,-8.387,3.563,34.0
82.331,-8.401,3.131,38.0
82.362,-8.38,2.681,58.0
81.931,-8.312,2.211,42.0
81.919,-8.287,1.764,40.0
81.936,-8.265,1.317,21.0
81.961,-8.271,3.61,39.0
82.279,-8.278,3.173,37.0
82.057,-8.231,2.717,64.0
81.956,-8.196,2.256,51.0
81.96,-8.172,1.808,24.0
81.77,-8.129,1.357,27.0
82.011,-8.157,3.656,38.0
82.28,-8.157,3.217,40.0
81.829,-8.088,2.751,39.0
82.327,-8.111,2.31,49.0
82.675,-8.12,1.867,43.0
81.801,-8.011,1.399,34.0
81.724,-8.007,3.684,36.0
82.219,-8.03,3.254,34.0
82.039,-7.986,2.798,42.0
82.185,-7.975,2.344,47.0
82.344,-7.965,1.898,13.0
81.993,-7.906,1.441,43.0
81.866,-7.897,3.727,34.0
82.519,-7.934,3.304,16.0
81.899,-7.848,2.83,44.0
82.133,-7.844,2.379,44.0
82.11,-7.816,1.928,28.0
82.233,-7.803,1.481,34.0
81.857,-7.77,3.762,33.0
0.0,0.0,0.0,0.0
81.804,-7.712,2.861,37.0
82.138,-7.717,2.413,47.0
