X,Y,Z,Reflectivity
52.914,-0.987,-0.312,55.0
44.975,-0.851,-0.524,34.0
37.774,-0.725,-0.657,13.0
30.464,-0.593,-0.708,26.0
26.917,-0.531,-0.78,1.0
22.841,-0.457,-0.793,2.0
38.38,-0.778,-0.278,7.0
38.363,-0.788,-0.498,26.0
31.463,-0.655,-0.589,9.0
30.209,-0.638,-0.742,8.0
25.0,-0.534,-0.758,1.0
21.986,-0.476,-0.792,1.0
40.446,-0.886,-0.346,25.0
38.328,-0.85,-0.547,20.0
31.055,-0.697,-0.621,29.0
28.433,-0.646,-0.735,2.0
23.806,-0.548,-0.752,13.0
21.23,-0.495,-0.793,0.0
40.423,-0.952,-0.397,58.0
38.066,-0.908,-0.592,22.0
30.651,-0.739,-0.652,32.0
27.709,-0.676,-0.751,1.0
23.719,-0.586,-0.779,14.0
20.641,-0.515,-0.796,0.0
38.719,-0.977,-0.428,37.0
37.872,-0.966,-0.636,13.0
30.472,-0.786,-0.686,34.0
25.28,-0.659,-0.716,5.0
23.432,-0.618,-0.798,3.0
20.103,-0.536,-0.8,0.0
38.59,-1.039,-0.473,24.0
31.371,-0.853,-0.564,14.0
30.338,-0.834,-0.719,15.0
24.555,-0.682,-0.725,14.0
22.247,-0.625,-0.784,0.0
19.431,-0.552,-0.796,0.0
38.421,-1.1,-0.517,17.0
31.041,-0.898,-0.594,30.0
29.624,-0.866,-0.737,1.0
23.894,-0.705,-0.734,19.0
21.421,-0.639,-0.78,0.0
19.134,-0.576,-0.806,0.0
38.155,-1.158,-0.556,15.0
30.73,-0.942,-0.624,34.0
28.26,-0.875,-0.735,1.0
23.779,-0.743,-0.757,15.0
20.985,-0.662,-0.788,0.0
18.602,-0.593,-0.805,0.0
38.002,-1.219,-0.596,13.0
30.531,-0.989,-0.653,37.0
27.467,-0.898,-0.744,0.0
23.416,-0.772,-0.77,5.0
20.401,-0.679,-0.788,0.0
18.244,-0.613,-0.809,0.0
37.97,-1.285,-0.636,4.0
30.483,-1.041,-0.684,26.0
25.28,-0.871,-0.712,6.0
22.728,-0.79,-0.772,4.0
19.993,-0.701,-0.793,0.0
17.87,-0.632,-0.811,0.0
31.167,-1.11,-0.554,28.0
30.417,-1.092,-0.714,9.0
24.544,-0.889,-0.716,14.0
22.087,-0.806,-0.772,1.0
19.545,-0.72,-0.795,0.0
17.487,-0.649,-0.811,0.0
30.898,-1.154,-0.579,30.0
28.659,-1.079,-0.7,1.0
24.038,-0.913,-0.724,20.0
21.72,-0.831,-0.78,3.0
19.035,-0.735,-0.793,0.0
17.187,-0.669,-0.814,2.0
28.479,-1.114,-0.561,66.0
28.434,-1.121,-0.722,25.0
23.813,-0.946,-0.74,16.0
21.101,-0.845,-0.778,1.0
18.633,-0.752,-0.793,0.0
16.845,-0.686,-0.813,2.0
28.457,-1.164,-0.586,133.0
28.276,-1.165,-0.743,12.0
23.776,-0.987,-0.76,13.0
20.603,-0.862,-0.778,1.0
18.376,-0.775,-0.799,0.0
16.579,-0.704,-0.815,1.0
28.453,-1.214,-0.611,84.0
25.008,-1.075,-0.679,4.0
23.344,-1.011,-0.767,5.0
20.161,-0.88,-0.779,0.0
18.059,-0.794,-0.8,1.0
16.255,-0.72,-0.813,2.0
30.51,-1.358,-0.681,20.0
24.562,-1.101,-0.687,6.0
22.535,-1.017,-0.759,1.0
19.871,-0.904,-0.784,0.0
17.718,-0.812,-0.8,0.0
16.212,-0.748,-0.824,1.0
30.367,-1.407,-0.702,10.0
24.218,-1.13,-0.697,16.0
22.066,-1.037,-0.761,1.0
19.517,-0.923,-0.786,0.0
17.393,-0.828,-0.799,1.0
16.069,-0.771,-0.829,0.0
29.866,-1.438,-0.714,5.0
24.0,-1.163,-0.709,16.0
21.867,-1.067,-0.77,2.0
19.225,-0.945,-0.788,0.0
17.113,-0.846,-0.799,0.0
15.876,-0.791,-0.831,1.0
28.501,-1.424,-0.701,4.0
23.882,-1.201,-0.723,16.0
21.406,-1.084,-0.769,1.0
18.892,-0.963,-0.788,0.0
16.84,-0.864,-0.798,0.0
15.736,-0.812,-0.835,0.0
24.541,-1.271,-0.621,22.0
23.801,-1.241,-0.737,15.0
21.0,-1.102,-0.769,1.0
18.663,-0.985,-0.791,0.0
16.709,-0.888,-0.803,1.0
15.612,-0.835,-0.838,1.0
24.482,-1.313,-0.635,26.0
23.711,-1.279,-0.749,10.0
20.748,-1.126,-0.773,2.0
18.452,-1.008,-0.793,0.0
16.588,-0.912,-0.807,1.0
15.516,-0.858,-0.843,0.0
24.404,-1.353,-0.648,17.0
23.589,-1.316,-0.759,5.0
20.529,-1.152,-0.776,2.0
18.227,-1.029,-0.794,1.0
16.371,-0.93,-0.806,1.0
15.414,-0.881,-0.846,0.0
24.364,-1.395,-0.66,23.0
23.214,-1.337,-0.76,4.0
20.294,-1.176,-0.779,2.0
17.977,-1.048,-0.793,0.0
16.252,-0.953,-0.809,1.0
15.315,-0.903,-0.849,0.0
24.319,-1.437,-0.671,19.0
22.703,-1.349,-0.755,1.0
20.05,-1.198,-0.78,1.0
17.642,-1.06,-0.787,1.0
16.192,-0.978,-0.814,1.0
15.232,-0.926,-0.852,0.0
24.228,-1.476,-0.681,22.0
22.252,-1.363,-0.75,1.0
19.744,-1.216,-0.777,1.0
17.599,-1.09,-0.793,0.0
16.073,-1.001,-0.815,1.0
15.084,-0.944,-0.85,0.0
24.109,-1.512,-0.688,16.0
21.969,-1.385,-0.75,1.0
19.546,-1.239,-0.777,0.0
17.401,-1.109,-0.792,0.0
15.931,-1.021,-0.815,0.0
14.998,-0.966,-0.851,0.0
24.039,-1.551,-0.695,15.0
21.833,-1.416,-0.754,0.0
19.362,-1.262,-0.777,0.0
17.301,-1.133,-0.794,1.0
15.908,-1.048,-0.819,0.0
14.922,-0.988,-0.852,0.0
23.995,-1.591,-0.702,16.0
21.617,-1.441,-0.754,0.0
19.162,-1.284,-0.776,0.0
17.129,-1.153,-0.792,1.0
15.762,-1.067,-0.817,1.0
14.807,-1.007,-0.851,0.0
23.913,-1.629,-0.708,15.0
21.358,-1.462,-0.752,0.0
19.072,-1.312,-0.778,0.0
17.034,-1.177,-0.792,1.0
15.721,-1.092,-0.819,1.0
14.708,-1.027,-0.849,0.0
23.857,-1.667,-0.712,14.0
21.278,-1.494,-0.755,0.0
18.958,-1.338,-0.778,0.0
16.938,-1.201,-0.792,1.0
15.683,-1.117,-0.821,1.0
14.704,-1.053,-0.853,0.0
23.835,-1.708,-0.718,14.0
21.223,-1.528,-0.757,1.0
18.881,-1.366,-0.779,1.0
17.045,-1.239,-0.801,2.0
15.627,-1.141,-0.822,0.0
14.624,-1.073,-0.851,0.0
23.799,-1.747,-0.721,19.0
21.061,-1.553,-0.756,2.0
18.721,-1.387,-0.776,0.0
17.01,-1.266,-0.802,2.0
15.608,-1.167,-0.823,1.0
14.591,-1.096,-0.851,0.0
23.81,-1.789,-0.725,13.0
20.983,-1.584,-0.756,1.0
18.533,-1.405,-0.771,1.0
16.848,-1.283,-0.797,2.0
15.554,-1.19,-0.822,1.0
14.581,-1.121,-0.853,0.0
23.805,-1.831,-0.727,12.0
20.886,-1.613,-0.755,1.0
18.481,-1.433,-0.771,1.0
16.728,-1.303,-0.793,1.0
15.523,-1.215,-0.822,1.0
14.546,-1.143,-0.852,0.0
23.713,-1.864,-0.726,10.0
20.844,-1.646,-0.754,1.0
18.547,-1.47,-0.774,0.0
16.717,-1.331,-0.793,1.0
15.516,-1.24,-0.822,1.0
14.493,-1.164,-0.849,0.0
23.732,-1.906,-0.728,10.0
20.759,-1.674,-0.752,1.0
18.53,-1.501,-0.774,1.0
16.653,-1.354,-0.79,1.0
15.539,-1.269,-0.824,1.0
14.483,-1.187,-0.849,0.0
23.718,-1.945,-0.727,11.0
20.763,-1.709,-0.752,1.0
18.608,-1.538,-0.777,2.0
16.664,-1.383,-0.79,1.0
15.508,-1.292,-0.822,1.0
14.467,-1.21,-0.847,0.0
23.719,-1.984,-0.726,11.0
20.968,-1.761,-0.758,1.0
18.535,-1.563,-0.773,1.0
16.701,-1.414,-0.791,0.0
15.474,-1.315,-0.819,1.0
14.468,-1.235,-0.846,1.0
23.708,-2.023,-0.724,15.0
20.866,-1.787,-0.753,0.0
18.608,-1.6,-0.774,1.0
16.651,-1.437,-0.787,0.0
15.49,-1.342,-0.818,1.0
14.484,-1.26,-0.845,1.0
23.745,-2.065,-0.722,11.0
20.871,-1.821,-0.75,1.0
18.601,-1.629,-0.772,1.0
16.693,-1.468,-0.787,0.0
15.479,-1.366,-0.815,1.0
14.556,-1.289,-0.847,1.0
23.757,-2.104,-0.719,13.0
20.939,-1.861,-0.749,1.0
18.668,-1.665,-0.771,1.0
16.8,-1.504,-0.789,0.0
15.537,-1.396,-0.816,1.0
14.561,-1.313,-0.845,1.0
23.804,-2.147,-0.715,12.0
21.039,-1.904,-0.749,1.0
18.792,-1.706,-0.772,2.0
16.822,-1.533,-0.786,0.0
15.552,-1.422,-0.813,1.0
14.498,-1.331,-0.838,0.0
23.812,-2.185,-0.71,13.0
21.131,-1.945,-0.747,1.0
18.826,-1.739,-0.769,1.0
16.88,-1.565,-0.785,0.0
15.584,-1.449,-0.81,1.0
14.522,-1.355,-0.835,0.0
24.304,-2.268,-0.718,5.0
21.373,-2.001,-0.749,3.0
18.949,-1.78,-0.769,1.0
16.945,-1.597,-0.783,0.0
15.639,-1.478,-0.809,1.0
14.61,-1.386,-0.836,0.0
24.48,-2.321,-0.716,5.0
21.514,-2.047,-0.748,1.0
19.108,-1.823,-0.769,1.0
16.994,-1.627,-0.779,0.0
15.717,-1.51,-0.808,1.0
14.683,-1.415,-0.835,0.0
24.674,-2.377,-0.713,6.0
21.488,-2.076,-0.739,1.0
19.183,-1.859,-0.765,1.0
17.132,-1.666,-0.779,0.0
15.749,-1.536,-0.803,1.0
14.722,-1.44,-0.832,0.0
24.93,-2.438,-0.711,6.0
21.697,-2.128,-0.738,0.0
19.362,-1.905,-0.765,1.0
17.21,-1.699,-0.776,0.0
15.862,-1.57,-0.803,1.0
14.853,-1.475,-0.833,1.0
25.107,-2.492,-0.706,6.0
21.823,-2.172,-0.733,1.0
19.456,-1.942,-0.76,2.0
17.318,-1.734,-0.774,0.0
15.957,-1.603,-0.801,1.0
14.939,-1.505,-0.832,1.0
25.447,-2.562,-0.704,6.0
22.072,-2.228,-0.731,1.0
19.617,-1.986,-0.757,1.0
17.557,-1.783,-0.776,0.0
16.045,-1.634,-0.797,1.0
15.011,-1.533,-0.828,1.0
25.623,-2.615,-0.696,6.0
22.256,-2.278,-0.727,1.0
19.86,-2.038,-0.757,1.0
17.784,-1.83,-0.777,0.0
16.159,-1.668,-0.795,1.0
15.058,-1.558,-0.823,1.0
25.818,-2.67,-0.688,6.0
22.611,-2.345,-0.726,3.0
20.053,-2.085,-0.754,2.0
17.941,-1.87,-0.775,1.0
16.26,-1.7,-0.791,1.0
15.164,-1.59,-0.821,1.0
26.188,-2.743,-0.684,6.0
22.807,-2.395,-0.72,4.0
20.299,-2.137,-0.752,2.0
18.101,-1.911,-0.771,1.0
16.348,-1.73,-0.786,1.0
15.237,-1.617,-0.816,1.0
26.427,-2.803,-0.675,6.0
23.076,-2.453,-0.715,4.0
20.477,-2.182,-0.747,2.0
18.213,-1.946,-0.765,1.0
16.504,-1.768,-0.784,1.0
15.332,-1.646,-0.812,1.0
26.85,-2.881,-0.669,5.0
23.318,-2.508,-0.708,3.0
20.744,-2.237,-0.743,3.0
18.361,-1.984,-0.76,0.0
16.687,-1.808,-0.782,0.0
15.431,-1.676,-0.807,1.0
27.061,-2.937,-0.657,2.0
23.827,-2.592,-0.709,5.0
20.923,-2.281,-0.736,3.0
18.766,-2.051,-0.764,1.0
16.935,-1.855,-0.782,1.0
15.536,-1.706,-0.803,0.0
27.52,-3.02,-0.65,2.0
24.346,-2.677,-0.708,5.0
21.178,-2.334,-0.731,3.0
18.979,-2.097,-0.76,1.0
17.059,-1.889,-0.776,1.0
15.748,-1.748,-0.803,0.0
27.939,-3.099,-0.641,2.0
24.639,-2.738,-0.699,5.0
21.649,-2.411,-0.732,4.0
19.219,-2.145,-0.756,1.0
17.338,-1.939,-0.776,1.0
15.916,-1.784,-0.8,1.0
28.711,-3.217,-0.638,4.0
25.016,-2.808,-0.691,6.0
21.991,-2.474,-0.727,3.0
19.52,-2.2,-0.754,1.0
17.515,-1.979,-0.772,0.0
16.058,-1.818,-0.795,1.0
0.0,0.0,0.0,0.0
25.416,-2.881,-0.683,3.0
22.32,-2.535,-0.721,4.0
19.847,-2.259,-0.751,1.0
17.865,-2.037,-0.773,0.0
16.226,-1.854,-0.79,1.0
29.906,-3.415,-0.619,8.0
25.909,-2.964,-0.676,4.0
22.689,-2.6,-0.715,4.0
20.165,-2.316,-0.747,1.0
18.017,-2.073,-0.765,0.0
16.375,-1.888,-0.784,1.0
29.987,-3.455,-0.596,17.0
26.267,-3.031,-0.664,2.0
23.109,-2.672,-0.709,5.0
20.543,-2.38,-0.744,2.0
18.487,-2.146,-0.77,0.0
16.674,-1.939,-0.785,0.0
30.245,-3.514,-0.576,19.0
27.041,-3.147,-0.661,2.0
23.536,-2.744,-0.703,5.0
20.81,-2.431,-0.736,2.0
18.763,-2.195,-0.765,1.0
16.85,-1.975,-0.779,1.0
30.93,-3.623,-0.562,19.0
27.54,-3.231,-0.65,2.0
24.052,-2.827,-0.697,1.0
21.35,-2.513,-0.737,4.0
19.086,-2.251,-0.762,2.0
17.121,-2.022,-0.776,1.0
31.511,-3.72,-0.545,25.0
28.38,-3.355,-0.645,5.0
24.611,-2.914,-0.692,2.0
21.729,-2.577,-0.731,4.0
19.307,-2.293,-0.753,2.0
17.42,-2.073,-0.774,1.0
32.174,-3.825,-0.528,30.0
28.748,-3.423,-0.627,8.0
25.28,-3.015,-0.688,5.0
22.045,-2.633,-0.721,4.0
19.687,-2.355,-0.75,2.0
17.664,-2.116,-0.769,1.0
32.787,-3.925,-0.508,33.0
29.152,-3.495,-0.609,12.0
25.666,-3.081,-0.674,3.0
22.524,-2.708,-0.716,4.0
20.089,-2.419,-0.747,2.0
17.981,-2.168,-0.766,0.0
33.316,-4.015,-0.485,29.0
29.584,-3.569,-0.59,24.0
26.274,-3.174,-0.666,4.0
22.997,-2.782,-0.709,3.0
20.476,-2.481,-0.742,2.0
18.414,-2.234,-0.767,0.0
33.924,-4.113,-0.461,31.0
30.02,-3.644,-0.57,26.0
26.945,-3.275,-0.657,2.0
23.482,-2.858,-0.701,2.0
20.9,-2.547,-0.737,3.0
18.812,-2.295,-0.765,1.0
34.455,-4.201,-0.435,27.0
30.517,-3.726,-0.549,20.0
27.553,-3.368,-0.644,2.0
24.207,-2.962,-0.699,2.0
21.398,-2.622,-0.733,4.0
19.079,-2.341,-0.756,1.0
39.673,-4.864,-0.46,4.0
31.35,-3.848,-0.533,14.0
28.375,-3.486,-0.634,7.0
24.643,-3.031,-0.686,2.0
21.864,-2.692,-0.727,4.0
19.458,-2.399,-0.751,2.0
39.77,-4.9,-0.422,20.0
32.124,-3.962,-0.513,25.0
28.662,-3.539,-0.612,15.0
25.337,-3.131,-0.68,3.0
22.338,-2.764,-0.72,4.0
19.844,-2.458,-0.746,2.0
39.98,-4.949,-0.383,23.0
32.883,-4.074,-0.491,23.0
28.891,-3.583,-0.587,20.0
25.855,-3.209,-0.667,3.0
22.802,-2.833,-0.711,4.0
20.327,-2.528,-0.743,2.0
40.202,-4.997,-0.343,16.0
33.57,-4.176,-0.466,26.0
29.587,-3.684,-0.57,21.0
26.63,-3.319,-0.659,2.0
23.371,-2.915,-0.704,4.0
20.779,-2.594,-0.737,3.0
40.489,-5.053,-0.302,10.0
34.272,-4.28,-0.44,28.0
30.193,-3.773,-0.55,23.0
27.328,-3.418,-0.647,5.0
23.838,-2.984,-0.692,2.0
21.236,-2.661,-0.731,3.0
45.909,-5.749,-0.294,20.0
34.805,-4.361,-0.41,16.0
31.015,-3.889,-0.531,21.0
27.966,-3.509,-0.632,7.0
24.599,-3.089,-0.688,2.0
21.862,-2.748,-0.729,3.0
46.41,-5.83,-0.247,21.0
39.798,-5.002,-0.425,10.0
31.882,-4.01,-0.511,21.0
28.379,-3.571,-0.61,19.0
25.257,-3.181,-0.679,3.0
22.394,-2.822,-0.722,4.0
47.647,-6.002,-0.201,23.0
39.895,-5.028,-0.382,18.0
32.785,-4.134,-0.49,23.0
28.806,-3.634,-0.588,19.0
25.871,-3.266,-0.667,2.0
22.831,-2.884,-0.711,4.0
0.0,0.0,0.0,0.0
40.009,-5.054,-0.339,9.0
33.627,-4.25,-0.465,27.0
29.362,-3.712,-0.567,22.0
26.752,-3.384,-0.66,3.0
23.442,-2.967,-0.704,3.0
55.6,-7.035,-0.112,7.0
0.0,0.0,0.0,0.0
34.313,-4.344,-0.436,28.0
30.099,-3.812,-0.547,20.0
27.424,-3.475,-0.646,7.0
24.094,-3.054,-0.696,3.0
56.0,-7.097,-0.051,10.0
45.828,-5.809,-0.287,20.0
39.725,-5.037,-0.461,4.0
30.991,-3.931,-0.529,13.0
27.825,-3.53,-0.624,14.0
24.677,-3.132,-0.686,3.0
61.019,-7.743,0.012,4.0
46.703,-5.927,-0.24,21.0
39.777,-5.049,-0.418,13.0
31.906,-4.051,-0.509,22.0
28.457,-3.614,-0.606,17.0
25.284,-3.212,-0.674,2.0
68.098,-8.649,0.092,2.0
47.896,-6.084,-0.191,22.0
39.89,-5.067,-0.373,12.0
32.868,-4.176,-0.486,22.0
29.183,-3.709,-0.588,20.0
26.097,-3.317,-0.666,2.0
68.129,-8.658,0.17,2.0
49.749,-6.322,-0.142,18.0
40.061,-5.091,-0.329,3.0
33.733,-4.287,-0.46,26.0
29.726,-3.778,-0.565,25.0
26.957,-3.427,-0.656,3.0
68.147,-8.662,0.247,2.0
55.762,-7.087,-0.095,10.0
45.513,-5.784,-0.321,8.0
34.446,-4.378,-0.431,21.0
30.312,-3.852,-0.541,21.0
27.536,-3.5,-0.639,7.0
68.033,-8.646,0.324,2.0
60.96,-7.746,-0.035,3.0
45.948,-5.837,-0.272,20.0
39.712,-5.045,-0.451,6.0
31.296,-3.975,-0.524,16.0
27.995,-3.556,-0.618,18.0
68.049,-8.643,0.403,2.0
61.051,-7.752,0.034,2.0
47.222,-5.995,-0.226,22.0
39.789,-5.05,-0.407,16.0
32.397,-4.112,-0.505,23.0
28.77,-3.651,-0.602,16.0
68.219,-8.656,0.481,3.0
68.258,-8.659,0.115,2.0
48.554,-6.157,-0.177,22.0
39.966,-5.067,-0.364,14.0
33.268,-4.217,-0.481,27.0
29.354,-3.72,-0.581,21.0
68.335,-8.66,0.559,3.0
68.313,-8.654,0.193,2.0
50.213,-6.359,-0.125,8.0
40.19,-5.088,-0.32,3.0
34.04,-4.308,-0.453,30.0
29.976,-3.792,-0.559,23.0
68.317,-8.643,0.637,3.0
68.381,-8.647,0.271,2.0
55.904,-7.066,-0.077,10.0
45.681,-5.772,-0.312,18.0
34.662,-4.378,-0.422,21.0
30.753,-3.883,-0.539,24.0
68.341,-8.629,0.715,6.0
68.368,-8.628,0.348,2.0
68.675,-8.662,-0.017,7.0
46.247,-5.83,-0.263,21.0
39.799,-5.015,-0.44,9.0
31.732,-3.997,-0.521,21.0
80.837,-10.182,0.937,5.0
68.61,-8.637,0.428,2.0
68.704,-8.643,0.06,8.0
47.546,-5.978,-0.217,22.0
39.926,-5.017,-0.396,17.0
32.805,-4.12,-0.501,24.0
191.942,-24.111,2.439,22.0
80.629,-10.121,0.592,6.0
68.759,-8.625,0.137,4.0
49.131,-6.159,-0.169,22.0
40.207,-5.037,-0.354,15.0
33.632,-4.211,-0.476,27.0
192.016,-24.045,2.654,31.0
80.537,-10.077,0.682,23.0
69.032,-8.631,0.214,6.0
55.596,-6.945,-0.13,7.0
40.511,-5.057,-0.311,8.0
34.356,-4.286,-0.448,24.0
192.047,-23.964,2.868,30.0
80.492,-10.035,0.77,28.0
69.276,-8.629,0.292,4.0
55.964,-6.965,-0.069,7.0
45.971,-5.717,-0.303,20.0
39.728,-4.937,-0.475,4.0
192.05,-23.871,3.079,18.0
80.498,-9.996,0.859,18.0
80.398,-9.974,0.427,12.0
80.809,-10.016,-0.011,4.0
47.001,-5.82,-0.259,21.0
39.782,-4.922,-0.432,20.0
188.845,-23.373,3.234,18.0
80.628,-9.968,0.948,4.0
80.392,-9.929,0.514,30.0
80.838,-9.974,0.076,17.0
48.256,-5.948,-0.213,22.0
40.032,-4.93,-0.391,23.0
188.677,-23.243,3.435,19.0
192.107,-23.638,2.467,32.0
80.317,-9.872,0.6,31.0
80.639,-9.901,0.161,40.0
49.955,-6.127,-0.167,11.0
40.329,-4.941,-0.351,15.0
188.377,-23.088,3.631,22.0
192.197,-23.529,2.673,23.0
80.285,-9.816,0.686,29.0
80.438,-9.823,0.247,38.0
55.667,-6.791,-0.127,17.0
45.765,-5.577,-0.35,15.0
188.142,-22.934,3.827,22.0
153.767,-18.719,2.301,11.0
80.281,-9.76,0.77,29.0
80.376,-9.76,0.331,35.0
56.159,-6.811,-0.07,5.0
46.495,-5.632,-0.307,21.0
153.826,-18.642,3.288,4.0
153.692,-18.601,2.458,15.0
80.295,-9.705,0.853,16.0
80.399,-9.704,0.414,28.0
80.908,-9.753,-0.017,15.0
47.55,-5.725,-0.265,22.0
153.853,-18.53,3.446,22.0
153.764,-18.492,2.618,21.0
80.495,-9.666,0.937,5.0
80.193,-9.617,0.494,32.0
80.61,-9.654,0.063,16.0
48.368,-5.785,-0.221,20.0
138.82,-16.61,3.249,13.0
153.78,-18.371,2.772,19.0
153.704,-18.334,1.944,16.0
80.124,-9.543,0.574,29.0
80.356,-9.557,0.142,20.0
50.386,-5.984,-0.18,13.0
139.017,-16.518,3.39,18.0
188.467,-22.356,3.582,12.0
192.279,-22.772,2.62,28.0
80.018,-9.462,0.651,35.0
80.164,-9.465,0.221,37.0
55.61,-6.556,-0.145,14.0
139.052,-16.399,3.527,13.0
85.374,-10.051,1.706,13.0
192.303,-22.603,2.807,26.0
80.016,-9.389,0.729,30.0
80.026,-9.374,0.298,33.0
56.141,-6.566,-0.092,6.0
84.27,-9.861,2.218,13.0
85.347,-9.969,1.787,12.0
192.277,-22.42,2.99,24.0
80.024,-9.314,0.805,20.0
65.237,-7.58,0.304,16.0
65.366,-7.582,-0.046,1.0
84.251,-9.778,2.297,29.0
85.426,-9.895,1.868,18.0
192.36,-22.239,3.171,24.0
80.276,-9.264,0.882,10.0
65.262,-7.518,0.365,159.0
65.167,-7.493,0.014,0.0
0.0,0.0,0.0,0.0
82.941,-9.523,1.891,12.0
85.29,-9.773,1.484,9.0
84.304,-9.641,1.003,18.0
65.161,-7.438,0.424,12.0
65.052,-7.412,0.072,0.0
82.874,-9.447,2.411,28.0
82.634,-9.4,1.957,13.0
84.971,-9.647,1.553,16.0
84.029,-9.521,1.073,27.0
65.139,-7.366,0.481,2.0
65.124,-7.35,0.129,17.0
82.487,-9.315,2.47,28.0
82.684,-9.317,2.03,31.0
84.52,-9.503,1.618,20.0
83.65,-9.386,1.141,18.0
65.109,-7.29,0.536,4.0
65.11,-7.275,0.185,7.0
82.274,-9.198,2.535,35.0
81.949,-9.141,2.081,36.0
83.079,-9.247,1.661,34.0
83.634,-9.288,1.211,6.0
65.249,-7.23,0.592,0.0
65.035,-7.191,0.238,2.0
82.177,-9.092,2.6,33.0
81.932,-9.044,2.148,35.0
82.116,-9.043,1.709,37.0
82.158,-9.027,1.256,5.0
0.0,0.0,0.0,0.0
65.077,-7.118,0.291,2.0
81.798,-8.952,2.654,39.0
81.983,-8.95,2.215,40.0
81.825,-8.912,1.767,44.0
82.11,-8.922,1.321,17.0
0.0,0.0,0.0,0.0
65.056,-7.036,0.341,66.0
81.934,-8.865,2.721,47.0
81.751,-8.823,2.273,42.0
81.846,-8.811,1.832,44.0
82.243,-8.832,1.386,36.0
0.0,0.0,0.0,0.0
65.084,-6.956,0.391,172.0
82.129,-8.782,2.79,57.0
81.652,-8.708,2.33,37.0
81.865,-8.709,1.892,43.0
82.255,-8.727,1.446,40.0
0.0,0.0,0.0,0.0
65.097,-6.872,0.439,164.0
82.405,-8.704,2.859,48.0
81.783,-8.614,2.393,43.0
82.026,-8.617,1.954,48.0
81.971,-8.589,1.5,47.0
0.0,0.0,0.0,0.0
65.122,-6.788,0.484,153.0
82.574,-8.611,2.923,33.0
81.888,-8.516,2.452,42.0
82.059,-8.51,2.011,51.0
81.927,-8.473,1.555,54.0
0.0,0.0,0.0,0.0
65.073,-6.693,0.527,17.0
82.32,-8.471,2.968,45.0
81.851,-8.398,2.506,38.0
82.006,-8.39,2.064,47.0
81.746,-8.34,1.604,36.0
0.0,0.0,0.0,0.0
65.05,-6.6,0.568,6.0
82.009,-8.324,3.009,44.0
82.569,-8.356,2.58,42.0
82.107,-8.284,2.118,49.0
81.693,-8.218,1.654,37.0
81.996,-8.225,1.214,1.0
65.129,-6.514,0.609,0.0
81.99,-8.204,3.058,41.0
82.244,-8.204,2.619,49.0
81.978,-8.152,2.164,45.0
81.902,-8.12,1.707,34.0
81.737,-8.079,1.258,7.0
0.0,0.0,0.0,0.0
82.053,-8.089,3.108,38.0
82.121,-8.07,2.662,45.0
82.277,-8.059,2.218,42.0
82.392,-8.045,1.763,27.0
81.851,-7.968,1.305,17.0
0.0,0.0,0.0,0.0
82.056,-7.965,3.153,45.0
82.009,-7.935,2.703,41.0
82.122,-7.919,2.258,45.0
82.63,-7.942,1.812,17.0
82.034,-7.86,1.351,33.0
0.0,0.0,0.0,0.0
82.436,-7.875,3.211,23.0
81.807,-7.789,2.738,39.0
82.085,-7.789,2.298,44.0
82.802,-7.83,1.857,55.0
82.289,-7.756,1.396,42.0
54.943,-5.162,0.631,150.0
81.878,-7.694,3.228,35.0
81.797,-7.66,2.776,42.0
82.126,-7.664,2.338,48.0
82.431,-7.665,1.887,60.0
54.955,-5.093,0.957,150.0
54.956,-5.076,0.656,152.0
81.7,-7.549,3.256,38.0
81.882,-7.538,2.815,39.0
82.061,-7.527,2.372,43.0
82.231,-7.515,1.917,39.0
54.934,-5.002,0.98,76.0
54.934,-4.986,0.679,9.0
81.606,-7.407,3.287,35.0
82.235,-7.437,2.861,44.0
82.123,-7.399,2.406,45.0
82.58,-7.413,1.958,55.0
0.0,0.0,0.0,0.0
0.0,0.0,0.0,0.0
81.713,-7.284,3.322,40.0
82.211,-7.3,2.89,46.0
82.285,-7.279,2.44,34.0
83.088,-7.323,2.0,42.0
0.0,0.0,0.0,0.0
0.0,0.0,0.0,0.0
81.692,-7.146,3.349,37.0
82.221,-7.164,2.918,47.0
82.325,-7.145,2.47,39.0
82.986,-7.175,2.024,34.0
0.0,0.0,0.0,0.0
0.0,0.0,0.0,0.0
82.069,-7.041,3.39,43.0
82.065,-7.011,2.938,46.0
82.119,-6.988,2.487,41.0
82.956,-7.032,2.048,48.0
0.0,0.0,0.0,0.0
81.961,-6.892,1.121,1.0
82.347,-6.924,3.424,35.0
81.991,-6.865,2.957,43.0
82.23,-6.856,2.512,42.0
82.517,-6.852,2.057,50.0
82.876,-6.853,1.611,40.0
81.974,-6.752,1.141,35.0
83.053,-6.838,3.472,41.0
82.108,-6.731,2.979,43.0
82.431,-6.73,2.537,42.0
82.223,-6.684,2.068,44.0
82.8,-6.704,1.626,50.0
81.974,-6.609,1.158,33.0
83.628,-6.74,3.512,18.0
82.436,-6.615,3.008,42.0
82.618,-6.601,2.557,47.0
82.155,-6.535,2.081,42.0
82.712,-6.552,1.639,46.0
82.0,-6.467,1.172,36.0
83.606,-6.591,3.525,29.0
82.41,-6.467,3.019,44.0
82.534,-6.447,2.567,43.0
82.183,-6.392,2.093,42.0
82.636,-6.399,1.649,38.0
81.974,-6.319,1.183,30.0
83.439,-6.429,3.528,33.0
82.503,-6.327,3.032,36.0
82.816,-6.321,2.585,52.0
82.543,-6.271,2.111,45.0
82.842,-6.265,1.661,49.0
0.0,0.0,0.0,0.0
83.377,-6.273,3.533,43.0
82.587,-6.183,3.042,34.0
82.964,-6.182,2.596,51.0
82.373,-6.109,2.113,31.0
82.956,-6.123,1.668,33.0
0.0,0.0,0.0,0.0
82.84,-6.081,3.514,28.0
82.953,-6.06,3.058,44.0
82.899,-6.026,2.596,51.0
82.454,-5.964,2.118,39.0
82.907,-5.967,1.67,47.0
0.0,0.0,0.0,0.0
83.105,-5.947,3.526,59.0
82.975,-5.906,3.059,45.0
82.732,-5.86,2.591,46.0
82.509,-5.814,2.118,44.0
82.958,-5.817,1.669,30.0
0.0,0.0,0.0,0.0
24.599,-1.714,1.043,15.0
24.594,-1.705,0.906,14.0
83.66,-5.771,2.617,23.0
82.469,-5.659,2.113,37.0
86.592,-5.911,1.737,9.0
0.0,0.0,0.0,0.0
24.502,-1.662,1.037,25.0
24.479,-1.651,0.899,28.0
24.522,-1.646,0.765,37.0
24.548,-1.638,0.626,24.0
24.567,-1.631,0.49,28.0
24.564,-1.622,0.354,26.0
24.481,-1.615,1.033,45.0
24.459,-1.604,0.896,55.0
24.503,-1.598,0.761,61.0
24.534,-1.591,0.623,56.0
24.554,-1.584,0.487,50.0
24.536,-1.574,0.35,54.0
24.471,-1.567,1.029,42.0
24.462,-1.558,0.892,73.0
24.496,-1.551,0.757,59.0
24.538,-1.545,0.619,95.0
24.542,-1.536,0.483,84.0
24.535,-1.527,0.346,77.0
24.46,-1.52,1.024,44.0
24.464,-1.511,0.888,61.0
24.513,-1.505,0.753,56.0
24.549,-1.499,0.614,68.0
24.546,-1.49,0.477,65.0
24.546,-1.481,0.341,75.0
24.497,-1.475,1.02,33.0
24.5,-1.466,0.883,53.0
24.549,-1.461,0.748,79.0
24.561,-1.453,0.609,77.0
24.557,-1.444,0.472,63.0
24.541,-1.434,0.334,47.0
24.511,-1.429,1.014,44.0
24.559,-1.424,0.879,43.0
24.572,-1.415,0.742,29.0
24.575,-1.407,0.602,18.0
24.59,-1.399,0.465,26.0
24.596,-1.39,0.328,26.0
83.14,-4.691,3.416,17.0
83.495,-4.68,2.964,39.0
84.222,-4.691,2.518,39.0
83.624,-4.627,2.023,40.0
0.0,0.0,0.0,0.0
0.0,0.0,0.0,0.0
83.719,-4.561,3.412,38.0
83.952,-4.542,2.95,28.0
84.122,-4.521,2.485,38.0
84.351,-4.503,2.011,33.0
85.694,-4.545,1.563,45.0
0.0,0.0,0.0,0.0
83.649,-4.395,3.377,24.0
84.975,-4.433,2.953,41.0
84.342,-4.369,2.458,30.0
84.658,-4.355,1.984,48.0
86.033,-4.396,1.534,33.0
82.811,-4.202,1.012,37.0
86.434,-4.372,3.452,36.0
85.164,-4.277,2.923,41.0
85.002,-4.237,2.44,28.0
84.65,-4.19,1.946,37.0
86.057,-4.229,1.495,11.0
82.953,-4.048,0.977,12.0
86.372,-4.199,3.41,23.0
85.182,-4.11,2.883,20.0
84.943,-4.069,2.398,28.0
84.613,-4.023,1.905,39.0
86.447,-4.08,1.46,1.0
83.094,-3.893,0.937,33.0
165.588,-7.73,6.454,14.0
86.551,-4.009,2.886,17.0
85.183,-3.915,2.361,23.0
85.132,-3.882,1.872,22.0
31.269,-1.415,0.512,36.0
31.24,-1.403,0.335,37.0
165.568,-7.404,6.362,21.0
31.399,-1.393,1.029,2.0
31.36,-1.38,0.852,13.0
28.455,-1.242,0.609,59.0
28.454,-1.232,0.449,65.0
28.44,-1.222,0.289,71.0
28.437,-1.216,1.076,62.0
28.43,-1.206,0.915,82.0
28.427,-1.196,0.755,106.0
28.423,-1.185,0.592,111.0
28.452,-1.177,0.432,116.0
28.448,-1.167,0.272,150.0
28.445,-1.161,1.058,150.0
28.442,-1.15,0.898,139.0
28.437,-1.14,0.737,75.0
28.444,-1.131,0.574,69.0
28.454,-1.122,0.414,68.0
28.465,-1.112,0.254,39.0
28.443,-1.105,1.039,36.0
31.243,-1.203,0.966,42.0
31.286,-1.194,0.79,60.0
31.285,-1.183,0.61,62.0
31.28,-1.172,0.434,45.0
31.335,-1.164,0.258,39.0
31.261,-1.155,1.121,62.0
31.276,-1.144,0.944,45.0
31.32,-1.135,0.769,47.0
31.39,-1.126,0.59,19.0
84.239,-2.995,1.108,34.0
80.427,-2.833,0.604,27.0
31.323,-1.096,1.1,42.0
31.382,-1.087,0.924,11.0
38.721,-1.328,0.921,2.0
38.726,-1.315,0.699,7.0
38.761,-1.304,0.48,7.0
38.723,-1.289,0.261,28.0
38.652,-1.278,1.327,54.0
38.634,-1.264,1.108,54.0
38.631,-1.251,0.889,62.0
38.624,-1.237,0.666,67.0
38.646,-1.225,0.448,64.0
38.66,-1.213,0.229,66.0
38.603,-1.202,1.294,65.0
38.587,-1.189,1.075,70.0
38.63,-1.177,0.857,93.0
38.624,-1.163,0.634,82.0
38.637,-1.151,0.416,85.0
38.646,-1.139,0.197,105.0
38.568,-1.127,1.26,70.0
38.592,-1.115,1.042,68.0
38.641,-1.103,0.824,83.0
38.613,-1.09,0.601,66.0
38.641,-1.078,0.382,65.0
38.652,-1.065,0.163,66.0
38.587,-1.054,1.226,52.0
38.631,-1.042,1.008,74.0
38.672,-1.03,0.79,50.0
38.684,-1.018,0.566,35.0
38.686,-1.006,0.347,36.0
38.731,-0.994,0.128,16.0
38.701,-0.983,1.194,51.0
38.686,-0.97,0.973,40.0
40.435,-1.001,0.788,25.0
40.41,-0.987,0.554,31.0
40.415,-0.975,0.325,38.0
40.411,-0.962,0.095,38.0
0.0,0.0,0.0,0.0
40.405,-0.938,0.978,38.0
40.408,-0.925,0.748,58.0
40.404,-0.912,0.514,53.0
40.445,-0.9,0.285,3.0
38.375,-0.841,0.052,25.0
40.44,-0.877,1.169,27.0
38.389,-0.82,0.891,27.0
38.401,-0.808,0.672,7.0
52.932,-1.097,0.621,44.0
52.918,-1.079,0.319,66.0
52.942,-1.063,0.019,63.0
64.329,-1.275,1.792,73.0
38.166,-0.744,0.846,3.0
192.819,-3.698,3.176,6.0
203.419,-3.838,2.172,21.0
67.605,-1.254,0.337,14.0
20.125,-0.367,-0.014,29.0
64.331,-1.157,1.723,27.0
176.62,-3.121,3.727,5.0
176.658,-3.067,2.721,43.0
20.138,-0.343,0.193,3.0
20.136,-0.337,0.078,40.0
20.134,-0.331,-0.035,21.0
59.503,-0.961,1.529,6.0
53.511,-0.849,1.07,23.0
20.138,-0.312,0.287,9.0
20.114,-0.306,0.17,14.0
20.123,-0.3,0.056,17.0
56.837,-0.83,-0.165,2.0
59.417,-0.852,1.459,9.0
20.13,-0.282,0.379,11.0
20.121,-0.276,0.264,12.0
20.139,-0.27,0.147,10.0
59.556,-0.781,0.097,63.0
56.24,-0.721,-0.229,0.0
20.151,-0.252,0.471,12.0
20.128,-0.246,0.355,11.0
20.152,-0.24,0.241,12.0
56.154,-0.654,0.345,5.0
56.31,-0.638,0.024,1.0
56.292,-0.622,-0.296,2.0
20.146,-0.216,0.446,18.0
20.162,-0.211,0.331,11.0
53.38,-0.543,0.573,5.0
53.356,-0.527,0.263,3.0
56.26,-0.539,-0.044,3.0
20.172,-0.187,-0.13,0.0
20.207,-0.182,0.423,24.0
66.511,-0.579,1.011,14.0
58.324,-0.491,0.553,18.0
58.308,-0.474,0.214,17.0
20.181,-0.158,-0.041,16.0
20.148,-0.152,-0.156,18.0
20.179,-0.146,0.396,19.0
20.142,-0.14,0.28,16.0
20.133,-0.134,0.165,18.0
20.141,-0.129,0.048,31.0
20.149,-0.123,-0.067,25.0
20.145,-0.117,-0.182,28.0
20.124,-0.111,0.369,29.0
20.129,-0.105,0.254,26.0
20.13,-0.1,0.138,24.0
20.128,-0.094,0.021,33.0
20.143,-0.088,-0.093,30.0
20.15,-0.083,-0.209,22.0
20.124,-0.077,0.342,33.0
20.116,-0.072,0.227,28.0
20.125,-0.066,0.111,38.0
20.123,-0.06,-0.005,38.0
20.146,-0.055,-0.12,32.0
20.135,-0.049,-0.236,15.0
20.121,-0.044,0.314,29.0
20.108,-0.038,0.199,34.0
20.129,-0.033,0.084,37.0
20.109,-0.027,-0.032,18.0
20.166,-0.022,-0.148,17.0
20.208,-0.016,-0.264,6.0
20.122,-0.011,0.287,28.0
20.129,-0.005,0.171,28.0
20.217,0.0,0.056,150.0
20.265,0.005,-0.061,151.0
20.257,0.01,-0.177,151.0
20.265,0.016,-0.294,150.0
20.133,0.021,0.258,28.0
20.141,0.027,0.143,28.0
20.279,0.032,0.027,8.0
20.212,0.038,-0.09,17.0
20.207,0.043,-0.206,9.0
20.275,0.048,-0.323,0.0
20.145,0.054,0.229,29.0
20.159,0.059,0.113,27.0
20.206,0.064,-0.001,29.0
20.189,0.069,-0.119,27.0
20.196,0.075,-0.235,14.0
43.853,0.174,-0.763,0.0
20.153,0.085,0.2,29.0
20.19,0.09,0.084,34.0
20.177,0.095,-0.031,29.0
20.181,0.101,-0.149,33.0
20.19,0.105,-0.265,27.0
20.191,0.111,-0.381,14.0
20.166,0.116,0.17,27.0
20.197,0.121,0.054,28.0
20.188,0.126,-0.061,26.0
20.169,0.131,-0.179,23.0
20.179,0.136,-0.295,33.0
20.195,0.141,-0.412,25.0
20.204,0.147,0.139,23.0
20.243,0.152,0.023,27.0
20.218,0.157,-0.093,21.0
20.168,0.161,-0.21,26.0
20.173,0.166,-0.326,34.0
20.19,0.171,-0.443,28.0
20.32,0.177,0.109,33.0
20.338,0.183,-0.007,27.0
20.205,0.186,-0.124,11.0
20.171,0.191,-0.242,24.0
20.183,0.196,-0.358,33.0
20.185,0.201,-0.474,27.0
20.334,0.207,0.076,26.0
20.338,0.212,-0.04,0.0
20.198,0.216,-0.156,1.0
20.196,0.22,-0.274,24.0
20.184,0.225,-0.39,27.0
20.19,0.23,-0.506,25.0
99.565,1.159,0.217,5.0
0.0,0.0,0.0,0.0
20.165,0.244,-0.187,0.0
20.193,0.249,-0.306,8.0
20.22,0.254,-0.423,17.0
20.211,0.258,-0.539,24.0
99.728,1.3,0.057,4.0
0.0,0.0,0.0,0.0
0.0,0.0,0.0,0.0
0.0,0.0,0.0,0.0
20.295,0.283,-0.458,0.0
20.223,0.286,-0.573,0.0
101.352,1.459,-0.108,1.0
0.0,0.0,0.0,0.0
0.0,0.0,0.0,0.0
0.0,0.0,0.0,0.0
34.393,0.526,-0.833,0.0
29.143,0.452,-0.874,0.0
0.0,0.0,0.0,0.0
0.0,0.0,0.0,0.0
0.0,0.0,0.0,0.0
38.878,0.637,-0.783,0.0
32.546,0.54,-0.843,1.0
28.265,0.475,-0.895,0.0
0.0,0.0,0.0,0.0
0.0,0.0,0.0,0.0
0.0,0.0,0.0,0.0
37.091,0.655,-0.809,0.0
31.447,0.562,-0.867,1.0
26.476,0.479,-0.883,0.0
0.0,0.0,0.0,0.0
0.0,0.0,0.0,0.0
0.0,0.0,0.0,0.0
35.223,0.666,-0.828,0.0
29.484,0.564,-0.864,0.0
25.485,0.493,-0.894,0.0
0.0,0.0,0.0,0.0
0.0,0.0,0.0,0.0
0.0,0.0,0.0,0.0
32.988,0.664,-0.832,1.0
28.573,0.581,-0.886,0.0
24.366,0.5,-0.897,0.0
0.0,0.0,0.0,0.0
0.0,0.0,0.0,0.0
0.0,0.0,0.0,0.0
31.643,0.675,-0.854,1.0
26.747,0.575,-0.876,0.0
23.251,0.505,-0.896,0.0
0.0,0.0,0.0,0.0
0.0,0.0,0.0,0.0
35.748,0.796,-0.817,0.0
29.908,0.672,-0.859,0.0
25.815,0.585,-0.891,0.0
22.509,0.514,-0.908,0.0
0.0,0.0,0.0,0.0
0.0,0.0,0.0,0.0
33.295,0.779,-0.82,0.0
28.723,0.677,-0.877,0.0
24.623,0.585,-0.894,0.0
21.659,0.519,-0.912,0.0
0.0,0.0,0.0,0.0
0.0,0.0,0.0,0.0
31.986,0.783,-0.845,1.0
27.02,0.666,-0.873,0.0
23.434,0.582,-0.893,0.0
20.768,0.52,-0.912,0.0
0.0,0.0,0.0,0.0
35.635,0.904,-0.799,0.0
30.478,0.778,-0.86,0.0
25.991,0.668,-0.887,0.0
22.618,0.585,-0.902,0.0
20.115,0.524,-0.919,0.0
0.0,0.0,0.0,0.0
0.0,0.0,0.0,0.0
28.689,0.761,-0.861,0.0
24.781,0.662,-0.89,0.0
21.818,0.587,-0.91,0.0
19.45,0.526,-0.924,0.0
0.0,0.0,0.0,0.0
32.039,0.876,-0.835,1.0
27.461,0.755,-0.874,0.0
23.671,0.655,-0.893,0.0
20.795,0.579,-0.906,0.0
18.663,0.523,-0.921,0.0
35.789,1.007,-0.792,0.0
30.724,0.869,-0.857,1.0
26.115,0.743,-0.88,0.0
22.653,0.648,-0.897,0.0
20.195,0.581,-0.916,0.0
18.151,0.525,-0.929,0.0
33.401,0.97,-0.799,0.0
28.839,0.842,-0.857,0.0
24.846,0.729,-0.883,0.0
21.858,0.645,-0.905,0.0
19.434,0.576,-0.918,0.0
17.489,0.521,-0.927,0.0
32.18,0.962,-0.829,1.0
28.047,0.843,-0.885,0.0
23.949,0.723,-0.895,0.0
20.933,0.635,-0.905,0.0
18.706,0.57,-0.918,0.0
16.899,0.518,-0.927,0.0
30.252,0.93,-0.836,0.0
26.103,0.806,-0.872,0.0
22.687,0.704,-0.89,0.0
20.165,0.628,-0.91,0.0
18.14,0.568,-0.924,0.0
16.406,0.516,-0.931,0.0
29.375,0.926,-0.866,0.0
24.944,0.79,-0.88,0.0
22.108,0.703,-0.908,0.0
19.691,0.629,-0.925,0.0
17.633,0.566,-0.931,0.0
16.039,0.517,-0.94,0.0
27.911,0.901,-0.875,0.0
23.888,0.774,-0.887,0.0
20.904,0.68,-0.898,0.0
18.653,0.609,-0.911,0.0
16.912,0.555,-0.924,0.0
15.443,0.509,-0.934,0.0
26.182,0.864,-0.869,0.0
22.741,0.753,-0.887,0.0
20.323,0.675,-0.91,0.0
18.133,0.605,-0.919,0.0
16.455,0.551,-0.93,0.0
15.072,0.507,-0.94,0.0
24.98,0.841,-0.876,0.0
22.127,0.747,-0.904,0.0
19.608,0.665,-0.915,0.0
17.697,0.602,-0.93,0.0
16.058,0.548,-0.938,0.0
14.652,0.502,-0.941,0.0
23.886,0.819,-0.882,0.0
20.958,0.721,-0.896,0.0
18.76,0.648,-0.911,0.0
16.892,0.585,-0.92,0.0
15.465,0.537,-0.932,0.0
14.381,0.501,-0.95,0.0
22.72,0.793,-0.881,0.0
20.346,0.712,-0.907,0.0
18.205,0.639,-0.917,0.0
16.457,0.579,-0.927,0.0
15.1,0.533,-0.938,0.0
13.938,0.494,-0.947,0.0
22.167,0.785,-0.901,0.0
19.732,0.701,-0.916,0.0
17.784,0.634,-0.929,0.0
16.071,0.574,-0.935,0.0
14.67,0.526,-0.939,0.0
13.472,0.484,-0.94,0.0
21.122,0.759,-0.898,0.0
18.779,0.677,-0.907,0.0
16.98,0.614,-0.919,0.0
15.511,0.562,-0.931,0.0
14.391,0.523,-0.947,0.0
13.204,0.481,-0.946,0.0
20.36,0.741,-0.903,0.0
18.291,0.668,-0.918,0.0
16.548,0.605,-0.926,0.0
15.126,0.555,-0.936,0.0
14.018,0.516,-0.949,0.0
12.91,0.476,-0.949,0.0
19.696,0.725,-0.91,0.0
17.696,0.653,-0.921,0.0
16.092,0.596,-0.931,0.0
14.686,0.545,-0.936,0.0
13.424,0.499,-0.934,0.0
12.553,0.468,-0.947,0.0
18.805,0.7,-0.904,0.0
17.05,0.636,-0.918,0.0
15.579,0.582,-0.93,0.0
14.416,0.54,-0.946,0.0
13.21,0.496,-0.944,0.0
12.263,0.462,-0.947,0.0
18.322,0.688,-0.914,0.0
16.567,0.624,-0.923,0.0
15.19,0.573,-0.934,0.0
0.0,0.0,0.0,0.0
12.907,0.489,-0.946,0.0
11.93,0.453,-0.944,0.0
17.806,0.675,-0.922,0.0
16.14,0.613,-0.929,0.0
14.772,0.562,-0.936,0.0
13.527,0.515,-0.937,0.0
12.555,0.479,-0.943,0.0
11.665,0.446,-0.944,0.0
17.032,0.65,-0.913,0.0
15.665,0.599,-0.93,0.0
14.436,0.553,-0.941,0.0
13.211,0.507,-0.94,0.0
12.272,0.471,-0.944,0.0
11.423,0.44,-0.946,0.0
16.598,0.637,-0.919,0.0
15.224,0.585,-0.932,0.0
14.025,0.54,-0.94,0.0
12.904,0.498,-0.941,0.0
11.96,0.462,-0.942,0.0
11.169,0.432,-0.945,0.0
16.187,0.624,-0.926,0.0
14.808,0.572,-0.933,0.0
13.511,0.523,-0.93,0.0
12.659,0.49,-0.946,0.0
11.702,0.454,-0.943,0.0
10.927,0.425,-0.945,0.0
15.756,0.61,-0.93,0.0
14.482,0.561,-0.939,0.0
13.354,0.518,-0.943,0.0
12.358,0.48,-0.946,0.0
11.471,0.446,-0.945,0.0
10.728,0.418,-0.947,0.0
15.273,0.593,-0.929,0.0
14.187,0.551,-0.945,0.0
13.068,0.508,-0.947,0.0
12.04,0.469,-0.943,0.0
11.247,0.439,-0.947,0.0
10.499,0.41,-0.945,0.0
14.899,0.579,-0.932,0.0
13.601,0.529,-0.93,0.0
12.723,0.496,-0.944,0.0
11.741,0.458,-0.941,0.0
11.027,0.431,-0.948,0.0
10.308,0.403,-0.946,0.0
14.539,0.566,-0.935,0.0
13.36,0.52,-0.937,0.0
12.401,0.483,-0.942,0.0
11.49,0.448,-0.941,0.0
10.705,0.418,-0.939,0.0
10.105,0.395,-0.946,0.0
14.265,0.555,-0.943,0.0
13.094,0.51,-0.941,0.0
12.128,0.472,-0.942,0.0
11.261,0.439,-0.942,0.0
10.562,0.412,-0.945,0.0
9.935,0.388,-0.947,0.0
0.0,0.0,0.0,0.0
12.818,0.498,-0.943,0.0
11.822,0.46,-0.939,0.0
11.014,0.429,-0.94,0.0
10.372,0.404,-0.946,0.0
9.746,0.38,-0.946,0.0
13.457,0.522,-0.935,0.0
12.501,0.485,-0.941,0.0
11.605,0.45,-0.941,0.0
10.894,0.423,-0.948,0.0
10.18,0.395,-0.945,0.0
9.59,0.373,-0.947,0.0
13.215,0.511,-0.94,0.0
12.27,0.474,-0.944,0.0
11.397,0.441,-0.944,0.0
10.638,0.411,-0.944,0.0
9.971,0.386,-0.943,0.0
9.438,0.365,-0.948,0.0
12.941,0.498,-0.943,0.0
11.996,0.462,-0.943,0.0
11.179,0.43,-0.944,0.0
10.428,0.402,-0.942,0.0
9.833,0.379,-0.946,0.0
9.268,0.357,-0.946,0.0
12.673,0.485,-0.943,0.0
11.69,0.448,-0.938,0.0
10.97,0.42,-0.944,0.0
10.252,0.392,-0.943,0.0
9.671,0.37,-0.946,0.0
9.097,0.348,-0.943,0.0
12.383,0.471,-0.942,0.0
11.473,0.436,-0.939,0.0
10.714,0.407,-0.94,0.0
10.061,0.383,-0.942,0.0
9.512,0.362,-0.946,0.0
8.941,0.34,-0.942,0.0
12.124,0.458,-0.942,0.0
11.27,0.425,-0.941,0.0
10.533,0.398,-0.94,0.0
9.923,0.375,-0.945,0.0
9.339,0.352,-0.944,0.0
8.824,0.333,-0.943,0.0
11.857,0.444,-0.939,0.0
11.14,0.417,-0.947,0.0
10.372,0.388,-0.942,0.0
9.753,0.365,-0.944,0.0
9.186,0.343,-0.943,0.0
8.676,0.324,-0.941,0.0
11.624,0.431,-0.939,0.0
0.0,0.0,0.0,0.0
10.224,0.379,-0.945,0.0
9.588,0.355,-0.943,0.0
9.04,0.335,-0.942,0.0
8.554,0.317,-0.941,0.0
11.417,0.419,-0.94,0.0
10.684,0.392,-0.941,0.0
10.031,0.368,-0.942,0.0
9.464,0.347,-0.945,0.0
8.9,0.326,-0.94,0.0
8.461,0.31,-0.944,0.0
11.228,0.408,-0.941,0.0
10.543,0.382,-0.945,0.0
9.887,0.358,-0.943,0.0
9.287,0.336,-0.941,0.0
8.795,0.318,-0.942,0.0
8.304,0.3,-0.938,0.0
11.056,0.397,-0.943,0.0
10.353,0.371,-0.943,0.0
9.739,0.349,-0.943,0.0
9.188,0.329,-0.944,0.0
8.656,0.309,-0.94,0.0
8.238,0.294,-0.943,0.0
10.944,0.387,-0.949,0.0
10.233,0.362,-0.946,0.0
9.575,0.338,-0.941,0.0
9.026,0.318,-0.941,0.0
8.569,0.302,-0.943,0.0
8.15,0.287,-0.945,0.0
10.703,0.373,-0.943,0.0
10.006,0.348,-0.939,0.0
9.448,0.329,-0.942,0.0
8.906,0.309,-0.941,0.0
8.479,0.294,-0.945,0.0
8.037,0.278,-0.943,0.0
10.508,0.361,-0.94,0.0
9.898,0.339,-0.943,0.0
9.297,0.318,-0.94,0.0
8.792,0.3,-0.941,0.0
8.33,0.284,-0.94,0.0
7.917,0.27,-0.939,0.0
10.368,0.35,-0.942,0.0
9.728,0.328,-0.94,0.0
9.203,0.309,-0.942,0.0
8.669,0.291,-0.939,0.0
8.246,0.276,-0.941,0.0
7.86,0.263,-0.943,0.0
10.258,0.34,-0.945,0.0
9.63,0.318,-0.943,0.0
9.089,0.3,-0.943,0.0
8.552,0.282,-0.938,0.0
8.178,0.269,-0.944,0.0
7.803,0.256,-0.946,0.0
10.095,0.328,-0.943,0.0
9.501,0.308,-0.942,0.0
8.947,0.289,-0.939,0.0
8.441,0.272,-0.936,0.0
8.07,0.26,-0.942,0.0
7.72,0.248,-0.946,0.0
9.938,0.316,-0.941,0.0
9.364,0.297,-0.94,0.0
8.869,0.281,-0.942,0.0
8.372,0.264,-0.939,0.0
8.005,0.252,-0.944,0.0
7.618,0.24,-0.943,0.0
9.808,0.305,-0.94,0.0
9.277,0.288,-0.943,0.0
8.721,0.27,-0.937,0.0
8.265,0.255,-0.937,0.0
7.902,0.243,-0.942,0.0
7.557,0.232,-0.945,0.0
9.702,0.295,-0.942,0.0
9.152,0.277,-0.941,0.0
8.634,0.261,-0.938,0.0
8.224,0.248,-0.942,0.0
7.835,0.235,-0.943,0.0
7.511,0.225,-0.948,0.0
9.575,0.284,-0.94,0.0
9.026,0.267,-0.938,0.0
8.564,0.252,-0.94,0.0
8.139,0.239,-0.941,0.0
7.759,0.227,-0.943,0.0
7.459,0.218,-0.95,0.0
9.467,0.273,-0.94,0.0
8.921,0.257,-0.937,0.0
8.497,0.243,-0.942,0.0
8.042,0.23,-0.939,0.0
7.693,0.219,-0.943,0.0
7.353,0.209,-0.944,0.0
9.381,0.263,-0.942,0.0
8.838,0.247,-0.938,0.0
8.39,0.234,-0.939,0.0
7.979,0.221,-0.94,0.0
7.631,0.211,-0.943,0.0
7.295,0.201,-0.944,0.0
9.258,0.252,-0.939,0.0
8.738,0.237,-0.936,0.0
8.322,0.225,-0.94,0.0
7.905,0.213,-0.939,0.0
7.571,0.203,-0.944,0.0
7.264,0.194,-0.948,0.0
9.176,0.242,-0.939,0.0
8.693,0.228,-0.94,0.0
8.232,0.215,-0.938,0.0
7.819,0.204,-0.937,0.0
7.513,0.195,-0.944,0.0
7.21,0.186,-0.948,0.0
9.079,0.231,-0.938,0.0
8.591,0.218,-0.937,0.0
8.154,0.206,-0.937,0.0
7.792,0.196,-0.941,0.0
7.475,0.187,-0.946,0.0
7.162,0.178,-0.948,0.0
8.99,0.221,-0.937,0.0
8.521,0.209,-0.937,0.0
8.121,0.198,-0.94,0.0
7.745,0.188,-0.942,0.0
7.417,0.179,-0.945,0.0
7.134,0.171,-0.951,0.0
8.936,0.211,-0.939,0.0
8.485,0.2,-0.941,0.0
8.057,0.189,-0.94,0.0
7.664,0.179,-0.939,0.0
7.405,0.172,-0.95,0.0
7.084,0.163,-0.95,0.0
8.832,0.201,-0.936,0.0
8.364,0.189,-0.934,0.0
7.998,0.18,-0.939,0.0
7.625,0.17,-0.94,0.0
7.32,0.163,-0.945,0.0
7.041,0.156,-0.95,0.0
8.793,0.192,-0.938,0.0
8.352,0.181,-0.939,0.0
7.972,0.171,-0.942,0.0
7.59,0.162,-0.942,0.0
7.292,0.155,-0.947,0.0
6.992,0.148,-0.949,0.0
8.729,0.181,-0.938,0.0
8.265,0.171,-0.936,0.0
7.911,0.162,-0.941,0.0
7.547,0.154,-0.942,0.0
7.232,0.146,-0.945,0.0
6.989,0.141,-0.953,0.0
8.641,0.171,-0.935,0.0
8.22,0.162,-0.936,0.0
7.834,0.153,-0.937,0.0
7.541,0.146,-0.946,0.0
7.22,0.139,-0.948,0.0
6.874,0.131,-0.942,0.0
8.589,0.161,-0.935,0.0
8.195,0.153,-0.939,0.0
7.836,0.145,-0.943,0.0
7.402,0.136,-0.934,0.0
7.167,0.13,-0.945,0.0
6.909,0.125,-0.951,0.0
8.534,0.152,-0.934,0.0
8.139,0.143,-0.937,0.0
7.775,0.136,-0.94,0.0
7.45,0.129,-0.944,0.0
7.183,0.123,-0.952,0.0
6.847,0.117,-0.947,0.0
8.534,0.143,-0.939,0.0
8.068,0.134,-0.934,0.0
7.759,0.127,-0.942,0.0
0.0,0.0,0.0,0.0
0.0,0.0,0.0,0.0
6.869,0.11,-0.954,0.0
8.493,0.133,-0.939,0.0
8.043,0.125,-0.935,0.0
7.7,0.118,-0.939,0.0
0.0,0.0,0.0,0.0
7.066,0.106,-0.944,0.0
6.833,0.102,-0.952,0.0
8.434,0.123,-0.936,0.0
8.014,0.116,-0.935,0.0
7.695,0.11,-0.942,0.0
0.0,0.0,0.0,0.0
0.0,0.0,0.0,0.0
6.78,0.094,-0.948,0.0
8.415,0.114,-0.938,0.0
8.028,0.107,-0.941,0.0
7.669,0.101,-0.942,0.0
0.0,0.0,0.0,0.0
0.0,0.0,0.0,0.0
6.755,0.086,-0.947,0.0
8.4,0.104,-0.94,0.0
8.002,0.098,-0.941,0.0
7.618,0.092,-0.939,0.0
7.283,0.087,-0.94,0.0
0.0,0.0,0.0,0.0
6.78,0.079,-0.953,0.0
8.35,0.095,-0.937,0.0
7.98,0.089,-0.941,0.0
7.585,0.083,-0.937,0.0
7.299,0.079,-0.945,0.0
7.019,0.075,-0.948,0.0
6.759,0.071,-0.952,0.0
8.316,0.085,-0.936,0.0
7.916,0.08,-0.936,0.0
7.583,0.075,-0.939,0.0
7.265,0.071,-0.942,0.0
7.009,0.067,-0.949,0.0
6.77,0.063,-0.956,0.0
8.292,0.076,-0.935,0.0
7.912,0.071,-0.937,0.0
7.589,0.067,-0.942,0.0
7.292,0.063,-0.947,0.0
0.0,0.0,0.0,0.0
6.729,0.056,-0.951,0.0
8.304,0.067,-0.938,0.0
7.883,0.062,-0.935,0.0
7.564,0.058,-0.94,0.0
7.306,0.055,-0.951,0.0
0.0,0.0,0.0,0.0
6.745,0.048,-0.955,0.0
8.263,0.057,-0.935,0.0
7.899,0.053,-0.938,0.0
7.571,0.049,-0.942,0.0
7.3,0.046,-0.951,0.0
0.0,0.0,0.0,0.0
6.775,0.04,-0.96,0.0
8.257,0.048,-0.935,0.0
7.881,0.044,-0.937,0.0
7.577,0.041,-0.944,0.0
7.242,0.038,-0.944,0.0
0.0,0.0,0.0,0.0
6.714,0.032,-0.952,0.0
8.256,0.038,-0.936,0.0
7.877,0.035,-0.937,0.0
7.554,0.032,-0.941,0.0
7.252,0.029,-0.946,0.0
0.0,0.0,0.0,0.0
6.695,0.025,-0.949,0.0
8.234,0.029,-0.933,0.0
7.895,0.026,-0.939,0.0
7.563,0.024,-0.943,0.0
7.296,0.021,-0.951,0.0
0.0,0.0,0.0,0.0
6.692,0.017,-0.949,0.0
8.268,0.02,-0.937,0.0
7.915,0.017,-0.942,0.0
7.558,0.015,-0.942,0.0
7.259,0.013,-0.946,0.0
0.0,0.0,0.0,0.0
6.721,0.009,-0.953,0.0
8.269,0.01,-0.937,0.0
7.915,0.008,-0.941,0.0
7.553,0.006,-0.941,0.0
7.274,0.005,-0.948,0.0
0.0,0.0,0.0,0.0
6.717,0.002,-0.951,0.0
8.284,0.001,-0.938,0.0
7.924,0.0,-0.941,0.0
7.585,-0.001,-0.944,0.0
7.231,-0.002,-0.941,0.0
0.0,0.0,0.0,0.0
6.79,-0.005,-0.96,0.0
8.286,-0.007,-0.936,0.0
7.91,-0.009,-0.938,0.0
7.601,-0.01,-0.944,0.0
0.0,0.0,0.0,0.0
0.0,0.0,0.0,0.0
6.732,-0.013,-0.951,0.0
8.302,-0.017,-0.936,0.0
7.9,-0.018,-0.935,0.0
7.603,-0.018,-0.943,0.0
0.0,0.0,0.0,0.0
0.0,0.0,0.0,0.0
6.756,-0.02,-0.953,0.0
8.344,-0.026,-0.939,0.0
7.937,-0.027,-0.938,0.0
7.599,-0.027,-0.94,0.0
0.0,0.0,0.0,0.0
7.041,-0.028,-0.951,0.0
6.763,-0.028,-0.952,0.0
8.346,-0.036,-0.937,0.0
7.949,-0.035,-0.937,0.0
7.608,-0.035,-0.939,0.0
7.348,-0.036,-0.949,0.0
7.017,-0.035,-0.946,0.0
6.785,-0.036,-0.952,0.0
8.339,-0.045,-0.933,0.0
7.97,-0.044,-0.936,0.0
7.646,-0.044,-0.941,0.0
0.0,0.0,0.0,0.0
7.061,-0.043,-0.949,0.0
6.765,-0.043,-0.947,0.0
8.401,-0.054,-0.937,0.0
8.043,-0.054,-0.942,0.0
7.654,-0.053,-0.939,0.0
7.351,-0.052,-0.944,0.0
7.1,-0.051,-0.951,0.0
6.84,-0.051,-0.955,0.0
8.416,-0.064,-0.935,0.0
8.044,-0.062,-0.938,0.0
7.706,-0.061,-0.942,0.0
7.403,-0.06,-0.947,0.0
7.093,-0.059,-0.947,0.0
6.822,-0.058,-0.949,0.0
8.462,-0.073,-0.936,0.0
8.076,-0.071,-0.938,0.0
7.72,-0.07,-0.94,0.0
7.376,-0.068,-0.94,0.0
7.121,-0.067,-0.947,0.0
6.865,-0.066,-0.951,0.0
8.519,-0.083,-0.938,0.0
8.113,-0.08,-0.938,0.0
7.793,-0.079,-0.944,0.0
7.412,-0.076,-0.94,0.0
7.155,-0.075,-0.947,0.0
6.899,-0.074,-0.952,0.0
8.574,-0.093,-0.939,0.0
8.174,-0.09,-0.94,0.0
7.793,-0.087,-0.94,0.0
7.444,-0.085,-0.94,0.0
7.196,-0.083,-0.948,0.0
6.957,-0.082,-0.956,0.0
8.609,-0.102,-0.938,0.0
8.198,-0.099,-0.938,0.0
7.858,-0.096,-0.943,0.0
7.49,-0.093,-0.941,0.0
7.215,-0.091,-0.946,0.0
6.973,-0.089,-0.953,0.0
8.673,-0.112,-0.939,0.0
8.25,-0.108,-0.939,0.0
7.899,-0.105,-0.942,0.0
7.538,-0.101,-0.942,0.0
7.271,-0.099,-0.949,0.0
7.003,-0.097,-0.953,0.0
8.739,-0.121,-0.94,0.0
8.282,-0.117,-0.936,0.0
7.902,-0.113,-0.937,0.0
7.558,-0.109,-0.939,0.0
7.323,-0.107,-0.95,0.0
7.038,-0.105,-0.952,0.0
8.778,-0.131,-0.938,0.0
8.352,-0.126,-0.938,0.0
7.986,-0.122,-0.941,0.0
7.628,-0.118,-0.941,0.0
7.311,-0.114,-0.943,0.0
7.036,-0.111,-0.946,0.0
8.864,-0.141,-0.94,0.0
8.426,-0.135,-0.94,0.0
8.019,-0.13,-0.938,0.0
7.677,-0.126,-0.941,0.0
7.328,-0.122,-0.939,0.0
7.115,-0.12,-0.951,0.0
8.942,-0.151,-0.941,0.0
8.504,-0.145,-0.941,0.0
8.128,-0.14,-0.944,0.0
7.729,-0.134,-0.941,0.0
7.422,-0.131,-0.945,0.0
7.149,-0.127,-0.949,0.0
9.025,-0.161,-0.942,0.0
8.558,-0.154,-0.94,0.0
8.147,-0.148,-0.939,0.0
7.782,-0.143,-0.941,0.0
7.491,-0.139,-0.947,0.0
7.167,-0.134,-0.945,0.0
9.126,-0.171,-0.944,0.0
8.616,-0.163,-0.938,0.0
8.23,-0.157,-0.941,0.0
7.834,-0.151,-0.939,0.0
7.544,-0.147,-0.946,0.0
7.221,-0.142,-0.945,0.0
9.191,-0.18,-0.942,0.0
8.727,-0.173,-0.942,0.0
8.284,-0.166,-0.939,0.0
7.909,-0.16,-0.941,0.0
7.613,-0.155,-0.947,0.0
7.274,-0.149,-0.945,0.0
9.307,-0.191,-0.945,0.0
8.786,-0.182,-0.94,0.0
8.368,-0.175,-0.94,0.0
7.989,-0.168,-0.942,0.0
7.675,-0.163,-0.947,0.0
7.354,-0.157,-0.948,0.0
9.413,-0.201,-0.946,0.0
8.875,-0.191,-0.94,0.0
8.428,-0.183,-0.938,0.0
8.043,-0.176,-0.94,0.0
7.686,-0.17,-0.94,0.0
7.407,-0.165,-0.947,0.0
9.483,-0.211,-0.943,0.0
9.0,-0.201,-0.943,0.0
8.516,-0.192,-0.939,0.0
8.118,-0.185,-0.94,0.0
7.779,-0.178,-0.943,0.0
7.486,-0.173,-0.948,0.0
9.649,-0.222,-0.949,0.0
9.095,-0.211,-0.943,0.0
8.62,-0.201,-0.941,0.0
8.176,-0.192,-0.937,0.0
7.868,-0.187,-0.945,0.0
7.539,-0.18,-0.946,0.0
9.742,-0.232,-0.947,0.0
9.205,-0.221,-0.944,0.0
8.712,-0.211,-0.94,0.0
8.293,-0.202,-0.941,0.0
7.923,-0.194,-0.942,0.0
7.605,-0.188,-0.946,0.0
9.868,-0.243,-0.947,0.0
9.347,-0.231,-0.947,0.0
8.804,-0.219,-0.94,0.0
8.388,-0.21,-0.942,0.0
7.994,-0.202,-0.941,0.0
7.681,-0.195,-0.946,0.0
10.03,-0.254,-0.951,0.0
9.456,-0.241,-0.947,0.0
8.917,-0.229,-0.941,0.0
8.488,-0.219,-0.942,0.0
8.105,-0.211,-0.944,0.0
7.741,-0.202,-0.943,0.0
10.187,-0.265,-0.953,0.0
9.599,-0.252,-0.949,0.0
9.059,-0.239,-0.945,0.0
8.581,-0.227,-0.942,0.0
8.174,-0.218,-0.941,0.0
7.82,-0.21,-0.943,0.0
10.317,-0.276,-0.952,0.0
9.739,-0.262,-0.95,0.0
9.22,-0.249,-0.949,0.0
8.714,-0.237,-0.945,0.0
8.304,-0.227,-0.945,0.0
7.91,-0.217,-0.943,0.0
10.447,-0.286,-0.95,0.0
9.867,-0.272,-0.95,0.0
9.352,-0.259,-0.95,0.0
8.817,-0.245,-0.944,0.0
8.371,-0.234,-0.942,0.0
8.01,-0.225,-0.944,0.0
10.614,-0.297,-0.951,0.0
10.021,-0.282,-0.951,0.0
9.44,-0.267,-0.947,0.0
8.934,-0.254,-0.945,0.0
8.513,-0.243,-0.946,0.0
8.094,-0.232,-0.943,0.0
10.776,-0.308,-0.951,0.0
10.209,-0.293,-0.955,0.0
9.614,-0.278,-0.951,0.0
9.079,-0.263,-0.947,0.0
8.619,-0.251,-0.946,0.0
8.193,-0.24,-0.943,0.0
10.972,-0.32,-0.952,0.0
10.329,-0.303,-0.952,0.0
9.752,-0.287,-0.95,0.0
9.214,-0.272,-0.948,0.0
8.732,-0.259,-0.945,0.0
8.301,-0.248,-0.943,0.0
11.174,-0.332,-0.954,0.0
10.513,-0.313,-0.953,0.0
9.924,-0.297,-0.953,0.0
9.364,-0.282,-0.95,0.0
8.857,-0.268,-0.946,0.0
8.437,-0.256,-0.946,0.0
11.308,-0.342,-0.948,0.0
10.659,-0.323,-0.951,0.0
10.1,-0.307,-0.954,0.0
9.52,-0.291,-0.951,0.0
9.0,-0.276,-0.947,0.0
8.542,-0.263,-0.945,0.0
11.533,-0.354,-0.95,0.0
10.877,-0.335,-0.954,0.0
10.26,-0.317,-0.954,0.0
9.688,-0.3,-0.953,0.0
9.2,-0.286,-0.954,0.0
8.662,-0.271,-0.945,0.0
11.822,-0.368,-0.956,0.0
11.052,-0.345,-0.952,0.0
10.429,-0.327,-0.953,0.0
9.851,-0.31,-0.954,0.0
9.324,-0.294,-0.953,0.0
8.799,-0.279,-0.946,0.0
12.076,-0.381,-0.957,0.0
11.273,-0.356,-0.953,0.0
10.623,-0.337,-0.955,0.0
10.034,-0.319,-0.956,0.0
9.481,-0.303,-0.954,0.0
8.936,-0.286,-0.946,0.0
12.351,-0.394,-0.96,0.0
11.473,-0.367,-0.952,0.0
10.836,-0.348,-0.956,0.0
10.18,-0.328,-0.953,0.0
9.64,-0.311,-0.954,0.0
9.146,-0.296,-0.954,0.0
12.618,-0.406,-0.96,0.0
11.74,-0.379,-0.955,0.0
11.051,-0.358,-0.957,0.0
10.404,-0.338,-0.957,0.0
9.833,-0.32,-0.957,0.0
9.311,-0.304,-0.956,0.0
12.87,-0.418,-0.958,0.0
12.055,-0.393,-0.961,0.0
11.227,-0.367,-0.954,0.0
10.604,-0.347,-0.958,0.0
10.001,-0.328,-0.957,0.0
9.465,-0.312,-0.956,0.0
13.179,-0.432,-0.96,0.0
12.337,-0.405,-0.963,0.0
11.486,-0.378,-0.957,0.0
10.775,-0.356,-0.956,0.0
10.198,-0.337,-0.958,0.0
9.623,-0.319,-0.955,0.0
13.425,-0.443,-0.955,0.0
12.566,-0.415,-0.96,0.0
11.731,-0.389,-0.958,0.0
10.97,-0.364,-0.954,0.0
10.378,-0.345,-0.958,0.0
9.812,-0.327,-0.957,0.0
13.791,-0.458,-0.958,0.0
12.87,-0.428,-0.961,0.0
12.029,-0.401,-0.961,0.0
11.216,-0.374,-0.957,0.0
10.57,-0.353,-0.957,0.0
10.001,-0.335,-0.958,0.0
14.152,-0.472,-0.958,0.0
13.173,-0.44,-0.961,0.0
12.322,-0.412,-0.963,0.0
11.457,-0.384,-0.957,0.0
10.783,-0.362,-0.957,0.0
10.196,-0.343,-0.959,0.0
14.458,-0.484,-0.954,0.0
13.461,-0.451,-0.958,0.0
12.598,-0.423,-0.963,0.0
11.718,-0.394,-0.958,0.0
11.019,-0.371,-0.959,0.0
10.414,-0.351,-0.961,0.0
14.748,-0.494,-0.947,0.0
13.771,-0.462,-0.956,0.0
12.904,-0.434,-0.964,0.0
12.052,-0.405,-0.964,0.0
11.265,-0.379,-0.96,0.0
10.598,-0.357,-0.959,0.0
15.162,-0.509,-0.947,0.0
14.174,-0.476,-0.959,0.0
13.235,-0.445,-0.965,0.0
12.344,-0.416,-0.966,0.0
11.467,-0.386,-0.957,0.0
10.791,-0.364,-0.957,0.0
16.389,-0.55,-0.994,0.0
14.489,-0.487,-0.954,0.0
13.476,-0.453,-0.958,0.0
12.613,-0.424,-0.964,0.0
11.75,-0.395,-0.96,0.0
11.039,-0.372,-0.959,0.0
16.657,-0.558,-0.981,0.0
14.815,-0.497,-0.949,0.0
13.849,-0.465,-0.96,0.0
12.905,-0.433,-0.963,0.0
12.104,-0.406,-0.966,0.0
11.288,-0.379,-0.96,0.0
16.772,-0.561,-0.957,0.0
16.482,-0.551,-1.026,0.0
14.208,-0.475,-0.958,0.0
13.239,-0.443,-0.963,0.0
12.393,-0.415,-0.966,0.0
11.557,-0.387,-0.962,0.0
16.834,-0.561,-0.929,0.0
16.579,-0.552,-1.001,0.0
14.525,-0.484,-0.953,0.0
13.53,-0.451,-0.959,0.0
12.662,-0.422,-0.964,0.0
11.827,-0.394,-0.962,0.0
16.915,-0.561,-0.902,0.0
16.742,-0.555,-0.98,0.0
14.924,-0.495,-0.951,0.0
13.918,-0.461,-0.961,0.0
12.992,-0.43,-0.965,0.0
12.174,-0.403,-0.968,0.0
16.973,-0.559,-0.874,0.0
16.971,-0.559,-0.962,0.0
15.741,-0.518,-0.974,0.0
14.306,-0.471,-0.961,0.0
13.318,-0.438,-0.964,0.0
12.426,-0.409,-0.964,0.0
17.089,-0.559,-0.848,0.0
17.001,-0.556,-0.932,0.0
16.792,-0.549,-1.007,0.0
14.584,-0.476,-0.952,0.0
13.615,-0.444,-0.96,0.0
12.744,-0.416,-0.965,0.0
17.293,-0.561,-0.825,0.0
17.142,-0.556,-0.907,0.0
16.932,-0.548,-0.984,0.0
15.006,-0.485,-0.951,0.0
13.994,-0.452,-0.96,0.0
13.085,-0.423,-0.966,0.0
17.874,-0.574,-0.819,0.0
17.233,-0.553,-0.879,0.0
17.173,-0.55,-0.965,0.0
15.628,-0.5,-0.961,0.0
14.401,-0.46,-0.96,0.0
13.405,-0.428,-0.964,0.0
18.449,-0.586,-0.811,0.0
17.395,-0.552,-0.854,1.0
17.355,-0.55,-0.942,0.0
17.377,-0.55,-1.036,0.0
14.742,-0.466,-0.955,0.0
13.785,-0.435,-0.965,0.0
19.559,-0.613,-0.823,1.0
17.596,-0.551,-0.831,0.0
17.522,-0.548,-0.918,0.0
17.348,-0.541,-1.001,0.0
15.221,-0.474,-0.957,0.0
14.148,-0.44,-0.963,0.0
20.009,-0.619,-0.803,3.0
18.059,-0.557,-0.819,0.0
17.651,-0.544,-0.892,0.0
17.343,-0.533,-0.968,0.0
15.747,-0.483,-0.96,0.0
14.458,-0.443,-0.957,0.0
20.62,-0.628,-0.789,1.0
18.723,-0.569,-0.813,0.0
17.84,-0.541,-0.867,0.0
17.708,-0.535,-0.954,0.0
17.893,-0.54,-1.057,0.0
14.927,-0.449,-0.96,0.0
21.911,-0.656,-0.797,0.0
19.606,-0.585,-0.815,0.0
18.062,-0.538,-0.844,0.0
17.997,-0.535,-0.936,0.0
18.01,-0.534,-1.03,0.0
15.444,-0.456,-0.964,0.0
22.975,-0.675,-0.792,2.0
20.462,-0.599,-0.811,1.0
18.44,-0.538,-0.826,0.0
18.272,-0.532,-0.916,0.0
17.98,-0.522,-0.994,0.0
15.9,-0.46,-0.961,0.0
23.791,-0.685,-0.775,16.0
21.005,-0.602,-0.793,1.0
19.039,-0.544,-0.817,0.0
18.48,-0.526,-0.89,1.0
18.41,-0.523,-0.982,0.0
24.404,-0.686,-0.748,25.0
22.299,-0.625,-0.799,0.0
