X,Y,Z,Reflectivity
84.18,-10.129,2.579,31.0
139.195,-16.761,3.52,24.0
153.819,-18.536,3.068,20.0
153.61,-18.524,2.228,15.0
80.215,-9.681,0.734,31.0
80.65,-9.741,0.307,27.0
84.224,-10.176,2.678,27.0
139.109,-16.817,3.68,18.0
153.814,-18.607,3.247,8.0
153.751,-18.612,2.409,12.0
80.285,-9.726,0.828,19.0
80.361,-9.742,0.4,33.0
84.324,-10.226,2.78,29.0
139.187,-16.887,3.845,15.0
188.04,-22.827,4.19,11.0
188.234,-22.865,3.17,12.0
80.608,-9.797,0.927,5.0
80.251,-9.76,0.494,29.0
84.505,-10.281,2.885,30.0
85.794,-10.443,2.47,11.0
0.0,0.0,0.0,0.0
188.123,-22.92,3.388,17.0
153.741,-18.741,1.948,10.0
80.255,-9.789,0.588,26.0
84.761,-10.343,2.995,30.0
85.727,-10.464,2.57,9.0
165.372,-20.194,4.075,6.0
188.416,-23.018,3.617,20.0
192.196,-23.489,2.663,20.0
80.322,-9.821,0.684,28.0
84.673,-10.358,3.092,26.0
84.242,-10.308,2.625,4.0
165.279,-20.23,4.269,23.0
188.418,-23.07,3.839,14.0
188.83,-23.129,2.841,16.0
80.39,-9.85,0.779,25.0
84.518,-10.361,3.186,14.0
84.797,-10.397,2.743,14.0
165.244,-20.265,4.462,23.0
188.45,-23.117,4.061,22.0
188.593,-23.141,3.057,21.0
80.518,-9.883,0.875,14.0
84.679,-10.399,3.292,7.0
84.673,-10.399,2.839,25.0
165.226,-20.295,4.656,12.0
188.482,-23.155,4.283,8.0
188.593,-23.173,3.28,23.0
192.063,-23.605,2.315,21.0
137.649,-16.927,5.515,6.0
84.748,-10.422,2.941,25.0
165.584,-20.363,4.862,7.0
139.652,-17.175,3.338,8.0
188.865,-23.231,3.504,17.0
192.096,-23.632,2.54,27.0
137.711,-16.951,5.679,3.0
84.647,-10.418,3.037,20.0
139.099,-17.12,4.246,14.0
165.257,-20.339,4.144,15.0
188.795,-23.237,3.723,9.0
192.028,-23.637,2.76,14.0
137.231,-16.902,5.82,10.0
84.54,-10.411,3.132,18.0
85.581,-10.538,2.712,9.0
165.264,-20.348,4.336,18.0
188.431,-23.198,3.939,8.0
188.731,-23.234,2.936,16.0
137.106,-16.891,5.974,16.0
84.541,-10.412,3.231,11.0
85.088,-10.477,2.796,17.0
165.167,-20.335,4.527,17.0
188.341,-23.185,4.152,18.0
188.62,-23.217,3.15,19.0
137.005,-16.876,6.128,12.0
84.541,-10.41,3.328,2.0
84.872,-10.448,2.886,27.0
85.723,-10.55,2.447,1.0
139.67,-17.185,3.24,5.0
188.732,-23.218,3.366,22.0
110.716,-13.63,5.079,9.0
137.709,-16.946,5.58,5.0
84.71,-10.42,2.977,22.0
139.186,-17.116,4.133,12.0
139.478,-17.147,3.394,7.0
188.676,-23.189,3.582,15.0
110.738,-13.621,5.208,21.0
137.49,-16.903,5.726,9.0
84.617,-10.398,3.07,21.0
139.123,-17.088,4.29,10.0
165.259,-20.291,4.211,17.0
188.446,-23.13,3.791,17.0
110.802,-13.611,5.336,20.0
137.202,-16.844,5.873,14.0
84.539,-10.373,3.165,14.0
84.787,-10.398,2.71,12.0
165.157,-20.246,4.394,25.0
188.573,-23.106,4.009,19.0
136.965,-16.797,6.752,17.0
137.079,-16.8,6.021,15.0
84.804,-10.387,3.269,9.0
84.652,-10.362,2.801,24.0
165.136,-20.204,4.577,17.0
188.871,-23.095,4.222,11.0
136.969,-16.763,6.906,13.0
137.078,-16.765,6.173,8.0
84.954,-10.382,3.369,6.0
84.546,-10.326,2.89,29.0
85.785,-10.471,2.472,8.0
0.0,0.0,0.0,0.0
111.059,-13.56,5.721,6.0
137.057,-16.721,6.322,11.0
85.498,-10.422,3.483,12.0
84.611,-10.306,2.985,29.0
84.252,-10.255,2.52,8.0
139.747,-16.999,3.428,5.0
62.672,-7.631,3.296,4.0
137.274,-16.7,6.481,9.0
85.904,-10.441,3.593,13.0
84.624,-10.277,3.075,27.0
84.208,-10.218,2.608,27.0
139.09,-16.865,3.562,15.0
111.17,-13.493,5.966,20.0
140.608,-17.05,6.789,8.0
85.851,-10.4,3.682,6.0
84.751,-10.258,3.169,21.0
84.289,-10.193,2.7,25.0
139.104,-16.808,3.708,15.0
62.62,-7.574,3.427,9.0
140.693,-16.999,6.939,9.0
137.348,-16.578,6.034,8.0
84.956,-10.244,3.266,15.0
84.448,-10.173,2.792,32.0
139.004,-16.73,3.849,11.0
62.581,-7.54,3.49,15.0
118.817,-14.299,5.985,12.0
84.339,-10.139,3.792,11.0
85.166,-10.227,3.363,17.0
84.554,-10.143,2.882,29.0
84.174,-10.087,2.416,13.0
62.555,-7.504,3.552,27.0
118.808,-14.236,6.104,26.0
84.305,-10.09,3.876,6.0
84.168,-10.062,3.407,19.0
84.595,-10.102,2.968,32.0
84.174,-10.041,2.5,29.0
62.53,-7.467,3.614,12.0
118.854,-14.175,6.225,31.0
137.306,-16.354,6.45,14.0
84.069,-10.001,3.487,23.0
84.605,-10.052,3.053,27.0
84.249,-9.998,2.586,36.0
111.084,-13.198,6.529,13.0
118.764,-14.091,6.338,26.0
137.067,-16.241,6.574,17.0
83.871,-9.925,3.56,33.0
84.514,-9.988,3.132,28.0
84.287,-9.949,2.668,30.0
117.438,-13.878,7.016,11.0
118.991,-14.041,6.464,24.0
136.876,-16.129,6.694,12.0
83.803,-9.861,3.636,37.0
84.01,-9.872,3.191,35.0
84.191,-9.88,2.744,34.0
119.012,-13.982,7.222,17.0
0.0,0.0,0.0,0.0
118.956,-13.934,5.928,17.0
83.925,-9.816,3.72,38.0
83.728,-9.779,3.258,34.0
0.0,0.0,0.0,0.0
109.787,-12.819,6.763,7.0
118.43,-13.806,6.653,23.0
83.879,-9.762,4.257,15.0
84.088,-9.771,3.804,20.0
83.778,-9.721,3.336,36.0
83.929,-9.724,2.888,28.0
109.843,-12.741,6.865,32.0
114.385,-13.245,6.529,11.0
84.023,-9.714,4.339,23.0
84.054,-9.701,3.876,21.0
83.852,-9.662,3.412,39.0
83.785,-9.64,2.955,36.0
109.762,-12.645,6.955,26.0
114.348,-13.149,6.625,19.0
84.209,-9.666,4.421,19.0
83.827,-9.606,3.937,38.0
83.958,-9.605,3.488,40.0
83.221,-9.505,3.006,31.0
109.197,-12.487,7.013,25.0
119.134,-13.598,7.003,20.0
84.547,-9.633,4.509,27.0
83.789,-9.529,4.004,41.0
84.389,-9.581,3.575,15.0
82.737,-9.377,3.056,29.0
108.949,-12.363,7.086,27.0
109.829,-12.439,6.544,20.0
84.752,-9.58,4.588,28.0
83.735,-9.447,4.069,35.0
0.0,0.0,0.0,0.0
82.535,-9.278,3.114,33.0
108.839,-12.251,7.165,37.0
109.794,-12.334,6.628,37.0
84.533,-9.477,4.643,21.0
83.759,-9.372,4.135,33.0
83.916,-9.371,3.686,38.0
82.557,-9.202,3.178,25.0
108.849,-12.147,7.25,42.0
109.808,-12.228,6.714,35.0
83.732,-9.305,4.662,13.0
83.823,-9.297,4.202,44.0
82.407,-9.121,3.682,15.0
82.621,-9.127,3.242,35.0
108.873,-12.042,7.332,33.0
109.831,-12.122,6.795,21.0
83.686,-9.217,4.719,9.0
83.71,-9.199,4.256,41.0
83.647,-9.174,3.796,48.0
82.627,-9.043,3.3,34.0
109.068,-11.952,7.422,13.0
110.043,-12.031,6.886,10.0
86.18,-9.402,4.92,12.0
83.699,-9.11,4.314,41.0
83.802,-9.102,3.861,27.0
82.607,-8.953,3.355,36.0
111.774,-12.13,7.682,14.0
113.412,-12.279,7.172,7.0
85.342,-9.218,4.929,17.0
83.786,-9.03,4.373,36.0
84.118,-9.046,3.93,29.0
83.438,-8.953,3.442,47.0
111.91,-12.022,7.763,19.0
113.463,-12.159,7.248,13.0
85.247,-9.114,4.978,27.0
84.092,-8.969,4.442,37.0
84.248,-8.966,3.988,42.0
83.121,-8.825,3.48,38.0
111.764,-11.88,7.822,22.0
113.741,-12.06,7.336,9.0
84.367,-8.923,4.978,24.0
84.13,-8.876,4.494,29.0
84.457,-8.89,4.049,21.0
82.185,-8.631,3.489,32.0
108.981,-11.457,7.691,20.0
109.477,-11.48,7.124,14.0
84.101,-8.796,5.01,29.0
84.03,-8.767,4.535,46.0
83.569,-8.698,4.052,27.0
82.033,-8.517,3.528,36.0
109.083,-11.337,7.758,28.0
109.414,-11.342,7.18,20.0
84.326,-8.719,5.069,20.0
83.465,-8.608,4.549,36.0
82.821,-8.52,4.059,30.0
81.941,-8.408,3.566,37.0
109.387,-11.237,7.837,22.0
109.393,-11.206,7.234,33.0
84.905,-8.674,5.146,32.0
82.502,-8.406,4.538,24.0
82.877,-8.422,4.103,39.0
81.994,-8.31,3.609,34.0
109.875,-11.148,7.924,20.0
109.336,-11.062,7.282,50.0
84.446,-8.521,5.158,35.0
82.547,-8.306,4.579,20.0
82.439,-8.272,4.119,26.0
82.049,-8.211,3.648,41.0
109.837,-11.003,7.971,19.0
109.359,-10.923,7.332,25.0
84.743,-8.44,5.213,40.0
83.548,-8.297,4.671,32.0
82.208,-8.142,4.142,34.0
81.816,-8.08,3.672,45.0
109.914,-10.865,8.023,29.0
109.65,-10.807,7.396,16.0
0.0,0.0,0.0,0.0
83.408,-8.172,4.695,43.0
81.989,-8.009,4.164,40.0
81.762,-7.965,3.701,34.0
112.886,-11.008,8.281,11.0
86.445,-8.404,5.863,13.0
83.373,-8.08,5.193,7.0
83.568,-8.075,4.734,41.0
81.801,-7.881,4.182,39.0
81.742,-7.851,3.729,33.0
112.74,-10.838,8.31,17.0
109.947,-10.537,7.493,25.0
83.458,-7.974,5.225,10.0
83.335,-7.937,4.748,48.0
81.771,-7.764,4.206,34.0
82.119,-7.773,3.77,31.0
112.901,-10.695,8.355,20.0
113.564,-10.723,7.775,13.0
0.0,0.0,0.0,0.0
83.289,-7.814,4.769,44.0
82.138,-7.683,4.248,37.0
82.17,-7.662,3.795,30.0
112.846,-10.53,8.381,24.0
113.719,-10.577,7.814,19.0
84.65,-7.847,5.346,44.0
83.244,-7.692,4.786,41.0
82.362,-7.586,4.279,32.0
82.019,-7.53,3.807,37.0
112.946,-10.377,8.415,22.0
85.886,-7.864,5.921,10.0
84.227,-7.687,5.337,33.0
83.327,-7.579,4.808,38.0
83.149,-7.537,4.337,49.0
81.944,-7.403,3.82,43.0
112.604,-10.18,8.411,22.0
85.409,-7.695,5.903,14.0
84.394,-7.578,5.363,21.0
83.569,-7.478,4.837,43.0
83.233,-7.422,4.354,40.0
82.278,-7.313,3.848,50.0
112.504,-10.005,8.42,20.0
84.849,-7.518,5.877,17.0
84.758,-7.483,5.398,25.0
83.414,-7.339,4.838,32.0
83.107,-7.287,4.358,39.0
82.898,-7.243,3.886,37.0
121.278,-10.602,9.09,23.0
84.662,-7.374,5.872,18.0
84.758,-7.355,5.405,16.0
83.627,-7.231,4.859,25.0
83.089,-7.16,4.364,39.0
83.05,-7.131,3.9,39.0
121.322,-10.42,9.102,19.0
0.0,0.0,0.0,0.0
85.745,-7.31,5.473,19.0
83.997,-7.134,4.885,19.0
83.176,-7.039,4.372,35.0
83.131,-7.01,3.906,35.0
118.202,-9.971,8.872,18.0
60.248,-5.062,4.184,5.0
86.633,-7.252,5.531,24.0
83.645,-6.975,4.865,37.0
83.598,-6.946,4.395,45.0
83.365,-6.9,3.917,37.0
60.507,-5.009,4.541,6.0
60.264,-4.969,4.184,4.0
85.776,-7.045,5.475,35.0
83.627,-6.842,4.861,40.0
83.157,-6.778,4.369,41.0
83.26,-6.761,3.909,39.0
60.519,-4.914,4.538,6.0
86.405,-6.988,5.995,19.0
85.751,-6.907,5.468,33.0
83.582,-6.706,4.852,38.0
83.073,-6.639,4.358,37.0
83.359,-6.636,3.907,16.0
115.247,-9.174,8.632,12.0
86.236,-6.837,5.974,13.0
85.671,-6.764,5.454,36.0
83.58,-6.571,4.843,39.0
83.165,-6.513,4.353,41.0
83.285,-6.497,3.892,12.0
54.025,-4.213,4.039,9.0
86.129,-6.689,5.955,13.0
0.0,0.0,0.0,0.0
83.631,-6.441,4.833,40.0
83.441,-6.399,4.354,45.0
85.561,-6.535,3.985,12.0
114.973,-8.778,8.576,12.0
117.559,-8.936,8.106,14.0
84.093,-6.365,5.325,31.0
84.044,-6.334,4.841,63.0
83.499,-6.267,4.34,46.0
83.355,-6.231,3.865,30.0
115.04,-8.595,8.556,10.0
117.95,-8.773,8.107,14.0
84.079,-6.227,5.305,29.0
84.285,-6.215,4.835,46.0
83.598,-6.139,4.325,42.0
83.368,-6.095,3.845,37.0
24.586,-1.796,1.822,17.0
86.102,-6.263,5.895,10.0
60.032,-4.347,3.771,15.0
84.544,-6.096,4.826,30.0
83.711,-6.008,4.307,39.0
83.503,-5.967,3.827,41.0
24.538,-1.752,1.811,26.0
59.963,-4.262,4.087,4.0
24.574,-1.738,1.536,10.0
24.497,-1.725,1.39,10.0
84.1,-5.896,4.3,36.0
83.655,-5.838,3.806,30.0
24.433,-1.703,1.795,35.0
24.484,-1.699,1.66,28.0
24.473,-1.69,1.521,40.0
24.49,-1.683,1.381,52.0
24.513,-1.677,1.244,27.0
24.526,-1.67,1.106,20.0
24.355,-1.657,1.779,41.0
24.454,-1.656,1.648,48.0
24.448,-1.648,1.509,64.0
24.455,-1.64,1.369,62.0
24.491,-1.635,1.233,55.0
24.489,-1.627,1.094,36.0
24.332,-1.614,1.767,33.0
24.42,-1.612,1.635,76.0
24.418,-1.604,1.497,42.0
24.456,-1.599,1.358,82.0
24.481,-1.593,1.221,85.0
24.472,-1.584,1.082,37.0
24.337,-1.574,1.756,42.0
24.401,-1.57,1.622,41.0
24.39,-1.561,1.483,34.0
24.428,-1.556,1.345,50.0
24.474,-1.551,1.209,86.0
24.459,-1.542,1.07,50.0
24.344,-1.533,1.744,38.0
24.401,-1.528,1.61,81.0
24.373,-1.519,1.469,27.0
24.429,-1.515,1.332,75.0
24.475,-1.51,1.196,83.0
24.462,-1.501,1.057,51.0
24.369,-1.493,1.733,41.0
24.386,-1.487,1.595,66.0
24.401,-1.479,1.457,47.0
24.444,-1.474,1.319,50.0
24.492,-1.47,1.183,40.0
24.513,-1.463,1.045,51.0
24.421,-1.455,1.722,70.0
24.403,-1.446,1.582,44.0
24.411,-1.439,1.443,47.0
24.477,-1.435,1.306,58.0
24.513,-1.429,1.168,49.0
24.533,-1.423,1.03,37.0
24.47,-1.417,1.71,57.0
24.399,-1.404,1.566,48.0
24.448,-1.4,1.43,57.0
24.544,-1.397,1.293,33.0
24.544,-1.389,1.154,3.0
83.226,-4.688,3.44,17.0
24.551,-1.379,1.699,40.0
24.453,-1.366,1.552,38.0
28.421,-1.579,1.642,49.0
28.408,-1.569,1.477,69.0
83.535,-4.588,3.869,32.0
83.657,-4.57,3.399,31.0
28.432,-1.549,1.947,77.0
28.408,-1.539,1.783,27.0
28.419,-1.53,1.621,68.0
28.408,-1.521,1.456,68.0
83.667,-4.454,3.813,32.0
83.637,-4.428,3.336,28.0
28.429,-1.501,1.925,76.0
28.425,-1.492,1.762,73.0
28.409,-1.482,1.599,68.0
28.412,-1.473,1.434,66.0
84.871,-4.377,3.802,46.0
83.667,-4.289,3.272,12.0
28.416,-1.452,1.901,72.0
28.417,-1.443,1.739,66.0
28.403,-1.434,1.576,68.0
28.394,-1.425,1.41,49.0
85.784,-4.279,3.772,44.0
85.849,-4.257,3.286,27.0
28.413,-1.404,1.877,73.0
28.409,-1.395,1.714,66.0
28.418,-1.387,1.552,74.0
28.381,-1.376,1.385,17.0
85.715,-4.132,3.695,16.0
86.011,-4.121,3.218,0.0
28.395,-1.355,1.851,5.0
28.391,-1.346,1.688,9.0
28.39,-1.338,1.525,17.0
28.343,-1.327,1.358,0.0
159.648,-7.43,6.739,27.0
165.733,-7.664,6.049,16.0
164.896,-7.596,10.599,17.0
161.214,-7.378,9.437,34.0
161.168,-7.327,8.511,24.0
164.244,-7.417,7.716,6.0
165.431,-7.421,6.827,15.0
165.904,-7.394,5.898,15.0
163.564,-7.262,10.356,26.0
31.327,-1.381,1.803,5.0
31.302,-1.371,1.622,24.0
28.426,-1.236,1.308,28.0
28.463,-1.23,1.146,57.0
28.442,-1.221,0.983,63.0
28.437,-1.215,1.771,58.0
28.428,-1.207,1.608,56.0
28.419,-1.198,1.444,55.0
28.416,-1.189,1.278,99.0
28.44,-1.182,1.117,109.0
28.425,-1.173,0.953,105.0
28.432,-1.168,1.742,110.0
28.424,-1.16,1.578,101.0
28.422,-1.151,1.415,112.0
28.423,-1.143,1.249,108.0
28.433,-1.135,1.086,73.0
28.439,-1.128,0.924,72.0
28.441,-1.122,1.712,72.0
28.441,-1.114,1.548,65.0
28.45,-1.106,1.385,52.0
31.234,-1.206,1.339,26.0
31.233,-1.197,1.159,62.0
31.257,-1.189,0.981,44.0
31.241,-1.182,1.846,64.0
31.227,-1.173,1.665,57.0
31.223,-1.163,1.485,44.0
31.266,-1.156,1.305,65.0
31.265,-1.147,1.125,56.0
31.275,-1.139,0.946,43.0
31.233,-1.131,1.809,33.0
31.243,-1.122,1.63,28.0
31.284,-1.115,1.452,62.0
31.28,-1.106,1.268,35.0
31.312,-1.099,1.09,41.0
31.356,-1.092,0.912,24.0
28.398,-0.983,1.611,54.0
31.292,-1.074,1.594,20.0
38.657,-1.317,1.748,5.0
38.647,-1.305,1.521,61.0
38.661,-1.295,1.299,40.0
38.64,-1.284,1.076,44.0
28.39,-0.937,1.575,79.0
38.508,-1.261,1.915,5.0
38.597,-1.253,1.697,68.0
38.642,-1.244,1.473,88.0
38.605,-1.233,1.249,64.0
38.613,-1.223,1.028,65.0
28.393,-0.893,1.54,78.0
38.483,-1.201,1.866,67.0
38.624,-1.194,1.65,86.0
38.6,-1.183,1.422,70.0
38.556,-1.171,1.198,62.0
38.633,-1.164,0.979,77.0
28.389,-0.849,1.503,76.0
38.564,-1.143,1.819,44.0
38.631,-1.134,1.599,85.0
38.587,-1.123,1.371,66.0
38.547,-1.112,1.148,69.0
38.643,-1.105,0.928,79.0
38.548,-1.093,1.989,7.0
38.628,-1.085,1.77,67.0
38.645,-1.075,1.548,60.0
38.587,-1.064,1.319,62.0
38.581,-1.053,1.096,67.0
38.635,-1.045,0.875,54.0
38.61,-1.036,1.939,37.0
45.857,-1.219,2.038,6.0
38.757,-1.02,1.499,12.0
38.693,-1.008,1.269,49.0
38.629,-0.997,1.044,49.0
38.733,-0.99,0.824,38.0
45.836,-1.161,2.238,8.0
45.757,-1.147,1.969,45.0
40.437,-1.003,1.507,22.0
0.0,0.0,0.0,0.0
38.717,-0.942,0.992,38.0
40.411,-0.973,0.802,39.0
40.407,-0.964,1.915,34.0
40.397,-0.953,1.681,38.0
40.396,-0.943,1.447,37.0
40.391,-0.933,1.209,37.0
40.403,-0.924,0.977,38.0
40.408,-0.914,0.744,36.0
40.402,-0.904,1.855,38.0
40.402,-0.895,1.621,29.0
40.422,-0.885,1.388,28.0
40.428,-0.876,1.151,26.0
38.398,-0.823,0.872,34.0
38.393,-0.813,0.65,16.0
45.693,-0.957,2.03,45.0
45.672,-0.946,1.765,60.0
45.723,-0.936,1.502,49.0
64.311,-1.302,1.734,12.0
38.21,-0.764,0.809,26.0
53.019,-1.048,0.817,13.0
45.769,-0.894,1.963,49.0
45.699,-0.882,1.695,49.0
64.316,-1.226,2.014,72.0
64.336,-1.211,1.635,4.0
191.701,-3.565,3.765,25.0
192.864,-3.544,2.675,32.0
45.922,-0.833,1.898,15.0
64.297,-1.151,2.284,85.0
64.301,-1.136,1.912,79.0
176.578,-3.08,4.21,24.0
176.628,-3.042,3.191,124.0
20.184,-0.342,0.247,1.0
59.208,-0.992,2.351,80.0
64.283,-1.063,2.181,51.0
64.329,-1.049,1.81,27.0
53.515,-0.86,1.19,70.0
20.142,-0.319,0.331,4.0
20.129,-0.314,0.214,11.0
59.142,-0.912,2.253,80.0
53.501,-0.812,1.728,69.0
59.419,-0.89,1.575,70.0
20.154,-0.297,0.415,6.0
20.126,-0.292,0.298,10.0
20.126,-0.288,0.181,12.0
58.353,-0.822,2.127,140.0
53.493,-0.742,1.639,107.0
59.414,-0.812,1.477,8.0
20.115,-0.27,0.381,13.0
20.121,-0.266,0.264,10.0
20.146,-0.262,0.148,8.0
53.527,-0.685,1.861,150.0
53.488,-0.673,1.549,99.0
20.135,-0.249,0.466,11.0
20.125,-0.244,0.347,10.0
20.154,-0.24,0.231,12.0
56.177,-0.659,0.318,3.0
53.456,-0.616,1.768,12.0
20.163,-0.228,0.549,8.0
20.144,-0.223,0.432,18.0
20.173,-0.22,0.313,14.0
64.299,-0.688,0.627,44.0
56.197,-0.589,0.222,10.0
53.504,-0.55,1.676,81.0
20.135,-0.203,0.514,15.0
20.187,-0.199,0.398,24.0
53.387,-0.517,0.737,7.0
53.375,-0.506,0.428,11.0
53.369,-0.495,0.118,9.0
53.498,-0.485,1.582,80.0
20.158,-0.179,0.479,10.0
53.473,-0.464,0.961,10.0
66.526,-0.564,0.802,9.0
58.332,-0.484,0.365,21.0
20.201,-0.163,0.009,12.0
20.19,-0.159,0.561,7.0
20.229,-0.155,0.445,28.0
20.193,-0.151,0.326,17.0
20.159,-0.147,0.207,18.0
20.14,-0.143,0.089,16.0
20.171,-0.139,-0.026,24.0
20.138,-0.135,0.523,17.0
20.124,-0.131,0.406,17.0
20.115,-0.128,0.289,19.0
20.112,-0.124,0.17,19.0
20.14,-0.12,0.053,32.0
20.148,-0.117,-0.063,27.0
20.131,-0.113,0.486,26.0
20.119,-0.109,0.369,28.0
20.128,-0.105,0.252,25.0
20.119,-0.102,0.133,23.0
20.129,-0.098,0.016,33.0
20.139,-0.094,-0.1,29.0
20.126,-0.09,0.449,32.0
20.12,-0.087,0.332,28.0
20.115,-0.083,0.215,26.0
20.128,-0.08,0.096,39.0
20.116,-0.076,-0.02,31.0
20.14,-0.073,-0.137,36.0
20.122,-0.069,0.411,31.0
20.114,-0.065,0.294,29.0
20.115,-0.062,0.177,31.0
20.126,-0.059,0.058,39.0
20.139,-0.055,-0.058,31.0
20.161,-0.052,-0.175,30.0
20.127,-0.048,0.373,31.0
20.117,-0.045,0.256,29.0
20.11,-0.042,0.139,30.0
20.128,-0.038,0.02,34.0
20.155,-0.035,-0.096,29.0
20.169,-0.032,-0.214,5.0
20.121,-0.028,0.335,32.0
20.116,-0.025,0.217,29.0
20.118,-0.022,0.101,32.0
20.145,-0.019,-0.017,13.0
20.194,-0.015,-0.135,16.0
20.231,-0.012,-0.253,8.0
20.131,-0.009,0.296,29.0
20.122,-0.006,0.179,28.0
20.192,-0.003,0.062,32.0
20.252,0.0,-0.057,151.0
20.254,0.003,-0.175,151.0
20.267,0.006,-0.293,150.0
20.129,0.009,0.257,29.0
20.132,0.012,0.14,26.0
20.259,0.015,0.023,151.0
20.259,0.018,-0.096,151.0
20.234,0.021,-0.214,152.0
20.259,0.024,-0.332,150.0
20.132,0.027,0.218,28.0
20.15,0.03,0.1,27.0
20.244,0.033,-0.016,13.0
20.242,0.036,-0.136,23.0
55.028,0.107,-0.692,6.0
20.241,0.042,-0.372,1.0
20.147,0.045,0.178,28.0
20.206,0.048,0.06,23.0
20.214,0.05,-0.056,26.0
20.198,0.053,-0.176,20.0
0.0,0.0,0.0,0.0
39.214,0.115,-0.8,0.0
20.155,0.061,0.138,28.0
20.204,0.064,0.02,29.0
20.199,0.067,-0.097,25.0
20.192,0.07,-0.216,10.0
43.158,0.155,-0.714,0.0
0.0,0.0,0.0,0.0
20.192,0.077,0.098,32.0
20.195,0.08,-0.019,28.0
20.189,0.083,-0.137,29.0
20.19,0.085,-0.257,17.0
41.871,0.183,-0.777,1.0
0.0,0.0,0.0,0.0
20.2,0.093,0.057,39.0
20.186,0.095,-0.06,33.0
20.182,0.098,-0.178,26.0
20.203,0.1,-0.298,23.0
20.233,0.103,-0.416,0.0
32.778,0.171,-0.866,0.0
20.177,0.107,0.016,28.0
20.19,0.11,-0.101,38.0
20.173,0.112,-0.219,28.0
20.195,0.115,-0.339,26.0
20.196,0.117,-0.457,0.0
21.66,0.128,-0.616,17.0
20.182,0.121,-0.024,28.0
20.175,0.123,-0.142,38.0
20.177,0.126,-0.26,29.0
20.187,0.128,-0.38,23.0
20.211,0.13,-0.498,2.0
21.67,0.142,-0.66,48.0
20.194,0.134,-0.065,28.0
20.171,0.136,-0.183,20.0
20.185,0.138,-0.301,30.0
20.168,0.14,-0.42,19.0
20.197,0.143,-0.539,6.0
21.655,0.156,-0.704,153.0
20.179,0.146,-0.107,29.0
20.171,0.148,-0.224,33.0
20.184,0.15,-0.342,30.0
20.194,0.153,-0.462,26.0
20.194,0.155,-0.58,10.0
21.643,0.168,-0.748,152.0
20.192,0.158,-0.148,22.0
20.168,0.16,-0.265,33.0
20.175,0.161,-0.383,29.0
20.187,0.164,-0.503,26.0
20.189,0.166,-0.621,13.0
18.583,0.154,-0.68,56.0
20.19,0.168,-0.189,24.0
20.173,0.17,-0.307,34.0
20.174,0.172,-0.425,29.0
20.197,0.174,-0.545,27.0
20.21,0.176,-0.664,21.0
18.529,0.163,-0.717,154.0
20.188,0.179,-0.231,27.0
20.178,0.18,-0.349,32.0
20.181,0.182,-0.467,26.0
20.195,0.184,-0.587,27.0
0.0,0.0,0.0,0.0
18.508,0.172,-0.755,159.0
20.182,0.188,-0.273,29.0
20.178,0.189,-0.391,34.0
20.175,0.191,-0.508,29.0
20.194,0.193,-0.629,28.0
0.0,0.0,0.0,0.0
18.523,0.18,-0.794,155.0
20.179,0.196,-0.315,29.0
20.192,0.198,-0.433,25.0
20.191,0.199,-0.55,30.0
20.204,0.201,-0.671,27.0
18.602,0.187,-0.726,151.0
18.551,0.187,-0.833,21.0
20.178,0.204,-0.356,33.0
20.186,0.205,-0.474,29.0
20.198,0.207,-0.592,32.0
20.216,0.209,-0.713,26.0
18.575,0.193,-0.764,152.0
18.548,0.194,-0.871,19.0
20.181,0.211,-0.398,31.0
20.185,0.212,-0.516,30.0
20.2,0.214,-0.634,31.0
0.0,0.0,0.0,0.0
18.574,0.199,-0.802,150.0
18.505,0.199,-0.907,25.0
20.196,0.217,-0.44,26.0
20.183,0.218,-0.557,30.0
20.218,0.22,-0.676,30.0
0.0,0.0,0.0,0.0
18.548,0.204,-0.839,9.0
18.247,0.202,-0.933,3.0
20.182,0.222,-0.481,28.0
20.191,0.223,-0.599,30.0
20.21,0.225,-0.717,29.0
18.556,0.207,-0.769,45.0
18.538,0.208,-0.877,11.0
17.68,0.2,-0.94,1.0
20.19,0.227,-0.523,30.0
20.209,0.228,-0.641,31.0
20.23,0.229,-0.76,26.0
0.0,0.0,0.0,0.0
18.507,0.212,-0.914,33.0
16.824,0.193,-0.929,0.0
20.191,0.231,-0.564,32.0
20.207,0.232,-0.682,30.0
0.0,0.0,0.0,0.0
20.264,0.234,-0.923,0.0
17.924,0.208,-0.922,2.0
16.384,0.191,-0.938,0.0
20.205,0.234,-0.606,31.0
20.215,0.235,-0.724,29.0
19.433,0.227,-0.81,15.0
18.52,0.217,-0.882,8.0
17.624,0.207,-0.942,0.0
15.822,0.186,-0.939,0.0
20.2,0.236,-0.647,29.0
20.227,0.237,-0.766,28.0
0.0,0.0,0.0,0.0
18.474,0.218,-0.917,17.0
16.745,0.198,-0.93,0.0
15.318,0.182,-0.94,0.0
20.214,0.238,-0.688,30.0
20.234,0.239,-0.807,25.0
0.0,0.0,0.0,0.0
17.735,0.21,-0.916,2.0
16.288,0.193,-0.937,0.0
14.879,0.177,-0.943,0.0
20.221,0.239,-0.729,30.0
0.0,0.0,0.0,0.0
18.533,0.219,-0.885,9.0
17.57,0.208,-0.943,0.0
15.707,0.187,-0.935,0.0
14.479,0.172,-0.947,0.0
20.233,0.239,-0.77,29.0
0.0,0.0,0.0,0.0
18.493,0.219,-0.92,14.0
16.715,0.198,-0.931,0.0
15.261,0.181,-0.939,0.0
20.183,0.24,-1.361,0.0
0.0,0.0,0.0,0.0
18.583,0.219,-0.853,2.0
17.7,0.209,-0.916,2.0
16.213,0.191,-0.935,0.0
14.79,0.175,-0.94,0.0
20.158,0.238,-1.4,0.0
0.0,0.0,0.0,0.0
18.53,0.216,-0.887,12.0
17.525,0.205,-0.942,0.0
15.615,0.183,-0.932,0.0
14.42,0.169,-0.945,0.0
13.272,0.155,-0.948,0.0
0.0,0.0,0.0,0.0
18.482,0.214,-0.922,11.0
16.638,0.192,-0.927,0.0
15.2,0.176,-0.937,0.0
20.191,0.234,-1.364,0.0
12.914,0.149,-0.947,0.0
18.562,0.212,-0.854,8.0
17.726,0.202,-0.919,2.0
16.225,0.185,-0.936,0.0
14.749,0.168,-0.938,0.0
13.555,0.154,-0.942,0.0
12.58,0.143,-0.948,0.0
18.527,0.208,-0.888,16.0
17.614,0.198,-0.947,0.0
15.68,0.176,-0.935,0.0
14.386,0.161,-0.944,0.0
13.284,0.148,-0.949,0.0
12.289,0.137,-0.95,0.0
18.491,0.203,-0.922,11.0
16.657,0.183,-0.928,0.0
15.224,0.167,-0.937,0.0
20.146,0.221,-1.36,0.0
12.913,0.141,-0.947,0.0
11.952,0.13,-0.947,0.0
17.808,0.191,-0.922,3.0
16.209,0.174,-0.934,0.0
14.778,0.158,-0.938,0.0
20.11,0.215,-1.396,0.0
12.637,0.135,-0.951,0.0
11.605,0.123,-0.942,0.0
18.341,0.191,-0.984,2.0
15.67,0.163,-0.932,0.0
14.469,0.15,-0.945,0.0
13.306,0.138,-0.949,0.0
12.303,0.127,-0.949,0.0
11.369,0.117,-0.944,0.0
16.659,0.168,-0.925,0.0
15.227,0.153,-0.935,0.0
18.519,0.186,-1.245,0.0
12.939,0.129,-0.947,0.0
11.956,0.119,-0.945,0.0
11.144,0.111,-0.946,0.0
16.211,0.158,-0.931,0.0
14.85,0.144,-0.939,0.0
18.547,0.179,-1.281,0.0
12.592,0.121,-0.945,0.0
11.658,0.112,-0.943,0.0
20.215,0.193,-1.754,0.0
15.75,0.147,-0.933,0.0
14.445,0.134,-0.94,0.0
13.317,0.123,-0.944,0.0
12.328,0.113,-0.947,0.0
11.393,0.104,-0.942,0.0
10.654,0.097,-0.944,0.0
15.328,0.136,-0.936,0.0
18.547,0.164,-1.24,1.0
13.007,0.114,-0.946,0.0
12.075,0.106,-0.95,0.0
11.22,0.098,-0.948,0.0
10.475,0.091,-0.946,0.0
14.893,0.126,-0.935,0.0
18.524,0.155,-1.272,0.0
12.68,0.106,-0.944,0.0
11.588,0.096,-0.932,0.0
20.243,0.167,-1.747,0.0
10.282,0.084,-0.948,0.0
14.56,0.115,-0.94,0.0
13.371,0.105,-0.941,0.0
12.389,0.097,-0.945,0.0
11.446,0.089,-0.941,1.0
10.727,0.082,-0.945,0.0
10.108,0.077,-0.949,0.0
18.533,0.137,-1.229,0.0
13.1,0.096,-0.945,0.0
12.136,0.088,-0.947,0.0
11.324,0.081,-0.951,0.0
10.503,0.075,-0.943,0.0
9.882,0.07,-0.945,0.0
18.532,0.126,-1.261,0.0
12.707,0.086,-0.939,0.0
11.71,0.078,-0.933,0.0
20.115,0.133,-1.723,0.0
10.339,0.068,-0.946,0.0
9.7,0.063,-0.944,0.0
13.485,0.084,-0.94,0.0
12.476,0.077,-0.943,0.0
11.48,0.07,-0.934,0.0
10.781,0.065,-0.941,0.0
10.186,0.06,-0.949,0.0
9.546,0.056,-0.946,0.0
13.218,0.074,-0.943,0.0
12.244,0.067,-0.945,0.0
11.374,0.062,-0.944,0.0
10.567,0.056,-0.94,0.0
9.966,0.052,-0.945,0.0
9.347,0.048,-0.941,0.0
12.938,0.064,-0.945,0.0
11.96,0.058,-0.943,0.0
11.106,0.053,-0.94,0.0
10.405,0.049,-0.942,0.0
9.808,0.045,-0.946,0.0
9.247,0.042,-0.946,0.0
12.654,0.053,-0.944,0.0
11.645,0.048,-0.936,0.0
20.199,0.082,-1.742,0.0
10.264,0.041,-0.946,0.0
9.641,0.037,-0.945,0.0
9.085,0.034,-0.944,0.0
12.372,0.043,-0.942,0.0
11.509,0.039,-0.943,0.0
10.725,0.036,-0.942,0.0
10.043,0.032,-0.941,0.0
9.492,0.03,-0.945,0.0
8.916,0.027,-0.94,0.0
12.182,0.034,-0.946,0.0
11.267,0.03,-0.941,0.0
10.582,0.027,-0.945,0.0
9.94,0.025,-0.947,0.0
9.35,0.022,-0.945,0.0
8.798,0.02,-0.941,0.0
11.891,0.024,-0.941,0.0
11.03,0.021,-0.937,0.0
10.396,0.018,-0.944,0.0
9.79,0.016,-0.947,0.0
9.175,0.014,-0.941,0.0
8.668,0.013,-0.94,0.0
11.632,0.014,-0.938,0.0
20.214,0.022,-1.748,0.0
10.258,0.01,-0.947,0.0
9.624,0.008,-0.945,0.0
9.067,0.007,-0.943,0.0
8.544,0.005,-0.939,0.0
11.483,0.004,-0.943,0.0
10.643,0.003,-0.935,0.0
10.07,0.001,-0.944,0.0
9.431,0.0,-0.94,0.0
8.912,0.0,-0.94,0.0
8.391,-0.001,-0.934,0.0
10.524,-0.006,-0.94,0.0
9.906,-0.007,-0.942,0.0
9.342,-0.007,-0.944,0.0
8.772,-0.008,-0.938,0.0
8.338,-0.008,-0.94,0.0
10.399,-0.015,-0.943,0.0
9.787,-0.015,-0.944,0.0
9.189,-0.015,-0.941,0.0
8.701,-0.016,-0.942,0.0
8.263,-0.016,-0.943,0.0
20.133,-0.045,-1.736,0.0
10.251,-0.024,-0.943,0.0
9.61,-0.024,-0.94,0.0
9.081,-0.024,-0.942,0.0
8.571,-0.023,-0.939,0.0
8.139,-0.023,-0.939,0.0
10.77,-0.034,-0.942,0.0
10.096,-0.033,-0.942,0.0
9.483,-0.032,-0.94,0.0
8.952,-0.032,-0.94,0.0
8.52,-0.031,-0.944,0.0
8.056,-0.031,-0.94,0.0
10.626,-0.043,-0.943,0.0
10.0,-0.042,-0.945,0.0
9.409,-0.041,-0.944,0.0
8.833,-0.04,-0.939,0.0
8.374,-0.039,-0.939,0.0
7.979,-0.038,-0.941,0.0
10.501,-0.053,-0.945,0.0
9.848,-0.051,-0.943,0.0
9.262,-0.049,-0.94,0.0
8.751,-0.048,-0.94,0.0
8.32,-0.047,-0.943,0.0
7.9,-0.046,-0.941,0.0
10.346,-0.063,-0.943,0.0
9.726,-0.06,-0.943,0.0
9.147,-0.058,-0.939,0.0
8.642,-0.056,-0.939,0.0
8.22,-0.054,-0.941,0.0
7.812,-0.053,-0.94,0.0
10.21,-0.072,-0.942,0.0
9.566,-0.069,-0.938,0.0
9.036,-0.066,-0.938,0.0
8.549,-0.064,-0.938,0.0
8.102,-0.062,-0.936,0.0
7.774,-0.061,-0.944,0.0
10.12,-0.082,-0.945,0.0
9.487,-0.078,-0.941,0.0
8.922,-0.075,-0.936,0.0
8.458,-0.072,-0.937,0.0
8.055,-0.07,-0.94,0.0
7.691,-0.068,-0.942,0.0
9.974,-0.091,-0.942,0.0
9.362,-0.087,-0.938,0.0
8.833,-0.083,-0.936,0.0
8.387,-0.08,-0.938,0.0
8.008,-0.078,-0.942,0.0
7.615,-0.075,-0.94,0.0
9.913,-0.101,-0.946,0.0
9.247,-0.096,-0.936,0.0
8.757,-0.092,-0.937,0.0
8.297,-0.088,-0.936,0.0
7.886,-0.085,-0.936,0.0
7.586,-0.083,-0.944,0.0
9.784,-0.11,-0.943,0.0
9.198,-0.105,-0.94,0.0
8.686,-0.101,-0.938,0.0
8.225,-0.097,-0.936,0.0
7.875,-0.094,-0.942,0.0
7.524,-0.091,-0.944,0.0
9.66,-0.119,-0.94,0.0
9.074,-0.114,-0.935,0.0
8.631,-0.109,-0.94,0.0
8.159,-0.105,-0.936,0.0
7.802,-0.102,-0.94,0.0
7.464,-0.098,-0.943,0.0
9.578,-0.129,-0.941,0.0
9.03,-0.123,-0.939,0.0
8.558,-0.118,-0.939,0.0
8.095,-0.113,-0.936,0.0
7.729,-0.109,-0.938,0.0
7.443,-0.107,-0.947,0.0
9.511,-0.139,-0.942,0.0
8.952,-0.132,-0.938,0.0
8.492,-0.127,-0.939,0.0
8.044,-0.121,-0.937,0.0
7.722,-0.118,-0.944,0.0
7.379,-0.114,-0.945,0.0
9.443,-0.148,-0.943,0.0
8.88,-0.141,-0.938,0.0
8.408,-0.135,-0.936,0.0
8.009,-0.13,-0.939,0.0
7.666,-0.126,-0.943,0.0
7.352,-0.122,-0.947,0.0
9.347,-0.158,-0.941,0.0
8.799,-0.15,-0.936,0.0
8.351,-0.144,-0.936,0.0
7.944,-0.138,-0.937,0.0
7.631,-0.134,-0.944,0.0
7.328,-0.13,-0.949,0.0
9.316,-0.168,-0.944,0.0
8.766,-0.159,-0.939,0.0
8.297,-0.152,-0.936,0.0
7.923,-0.147,-0.94,0.0
7.602,-0.142,-0.946,0.0
7.277,-0.138,-0.948,0.0
9.226,-0.177,-0.941,0.0
8.71,-0.168,-0.938,0.0
8.241,-0.161,-0.935,0.0
7.876,-0.155,-0.94,0.0
7.523,-0.15,-0.941,0.0
7.215,-0.145,-0.944,0.0
9.153,-0.186,-0.939,0.0
8.653,-0.177,-0.938,0.0
8.187,-0.169,-0.934,0.0
7.817,-0.163,-0.937,0.0
7.476,-0.158,-0.94,0.0
7.224,-0.154,-0.95,0.0
9.117,-0.196,-0.941,0.0
8.609,-0.187,-0.938,0.0
8.164,-0.179,-0.936,0.0
7.766,-0.171,-0.936,0.0
7.457,-0.166,-0.941,0.0
7.181,-0.161,-0.948,0.0
9.048,-0.205,-0.939,0.0
8.563,-0.196,-0.937,0.0
8.128,-0.187,-0.936,0.0
7.74,-0.18,-0.937,0.0
7.468,-0.175,-0.947,0.0
7.133,-0.169,-0.945,0.0
9.033,-0.215,-0.942,0.0
8.527,-0.205,-0.937,0.0
8.103,-0.196,-0.937,0.0
7.711,-0.188,-0.937,0.0
7.401,-0.183,-0.942,0.0
7.134,-0.177,-0.949,0.0
8.958,-0.224,-0.938,0.0
8.502,-0.215,-0.938,0.0
8.079,-0.206,-0.938,0.0
7.715,-0.198,-0.941,0.0
7.375,-0.191,-0.941,0.0
7.106,-0.185,-0.948,0.0
8.929,-0.234,-0.938,0.0
8.445,-0.223,-0.935,0.0
8.045,-0.214,-0.937,0.0
7.672,-0.206,-0.938,0.0
7.384,-0.2,-0.945,0.0
7.103,-0.194,-0.95,0.0
8.898,-0.244,-0.938,0.0
8.423,-0.233,-0.936,0.0
8.003,-0.223,-0.935,0.0
7.677,-0.215,-0.941,0.0
7.335,-0.207,-0.941,0.0
7.038,-0.2,-0.944,0.0
8.882,-0.254,-0.939,0.0
8.438,-0.243,-0.94,0.0
8.012,-0.233,-0.938,0.0
7.642,-0.224,-0.939,0.0
7.337,-0.216,-0.944,0.0
7.044,-0.209,-0.946,0.0
8.858,-0.264,-0.939,0.0
8.383,-0.252,-0.936,0.0
7.984,-0.241,-0.937,0.0
7.675,-0.234,-0.945,0.0
7.351,-0.225,-0.947,0.0
7.04,-0.217,-0.947,0.0
8.838,-0.274,-0.939,0.0
8.387,-0.262,-0.938,0.0
7.98,-0.251,-0.938,0.0
7.587,-0.24,-0.936,0.0
7.335,-0.234,-0.947,0.0
7.078,-0.227,-0.954,0.0
8.813,-0.284,-0.938,0.0
8.366,-0.271,-0.937,0.0
7.985,-0.26,-0.94,0.0
7.626,-0.25,-0.942,0.0
7.328,-0.242,-0.947,0.0
7.062,-0.235,-0.953,0.0
8.804,-0.294,-0.938,0.0
8.36,-0.281,-0.938,0.0
7.953,-0.269,-0.937,0.0
7.613,-0.259,-0.941,0.0
7.309,-0.25,-0.945,0.0
7.03,-0.242,-0.949,0.0
8.795,-0.304,-0.938,0.0
8.377,-0.291,-0.94,0.0
7.949,-0.278,-0.937,0.0
7.62,-0.268,-0.942,0.0
7.303,-0.259,-0.944,0.0
7.037,-0.251,-0.95,0.0
8.819,-0.315,-0.94,0.0
8.356,-0.3,-0.938,0.0
7.951,-0.287,-0.937,0.0
7.615,-0.277,-0.942,0.0
7.341,-0.269,-0.949,0.0
7.027,-0.259,-0.949,0.0
8.823,-0.325,-0.941,0.0
8.353,-0.31,-0.938,0.0
7.943,-0.296,-0.936,0.0
7.623,-0.286,-0.942,0.0
7.272,-0.275,-0.94,0.0
7.044,-0.268,-0.951,0.0
8.828,-0.336,-0.941,0.0
8.367,-0.32,-0.939,0.0
7.964,-0.306,-0.938,0.0
7.636,-0.296,-0.943,0.0
7.329,-0.285,-0.947,0.0
7.053,-0.276,-0.951,0.0
8.834,-0.346,-0.94,0.0
8.391,-0.331,-0.94,0.0
7.942,-0.315,-0.935,0.0
7.615,-0.303,-0.94,0.0
7.338,-0.294,-0.947,0.0
7.028,-0.283,-0.947,0.0
8.85,-0.357,-0.941,0.0
8.391,-0.34,-0.939,0.0
7.97,-0.325,-0.937,0.0
7.62,-0.312,-0.939,0.0
7.321,-0.302,-0.943,0.0
7.068,-0.293,-0.951,0.0
8.869,-0.368,-0.941,0.0
8.414,-0.35,-0.94,0.0
8.026,-0.336,-0.942,0.0
7.662,-0.323,-0.943,0.0
7.357,-0.311,-0.946,0.0
7.041,-0.299,-0.946,0.0
8.899,-0.379,-0.942,0.0
8.432,-0.361,-0.94,0.0
8.03,-0.345,-0.94,0.0
7.666,-0.331,-0.941,0.0
7.375,-0.32,-0.947,0.0
7.078,-0.309,-0.949,0.0
8.933,-0.39,-0.943,0.0
8.434,-0.37,-0.938,0.0
8.037,-0.354,-0.938,0.0
7.681,-0.34,-0.941,0.0
7.378,-0.328,-0.945,0.0
7.093,-0.317,-0.948,0.0
8.96,-0.401,-0.943,0.0
8.501,-0.382,-0.942,0.0
8.064,-0.364,-0.939,0.0
7.694,-0.349,-0.939,0.0
7.38,-0.337,-0.942,0.0
7.145,-0.327,-0.952,0.0
8.984,-0.412,-0.942,0.0
8.516,-0.392,-0.941,0.0
8.102,-0.375,-0.94,0.0
7.756,-0.36,-0.944,0.0
7.431,-0.347,-0.946,0.0
7.139,-0.335,-0.949,0.0
9.046,-0.424,-0.945,0.0
8.553,-0.403,-0.941,0.0
8.106,-0.383,-0.937,0.0
7.761,-0.369,-0.941,0.0
7.469,-0.356,-0.947,0.0
7.186,-0.344,-0.952,0.0
9.069,-0.434,-0.944,0.0
8.601,-0.414,-0.942,0.0
8.15,-0.394,-0.938,0.0
7.804,-0.379,-0.943,0.0
7.475,-0.364,-0.945,0.0
7.161,-0.351,-0.945,0.0
9.138,-0.447,-0.946,0.0
8.647,-0.425,-0.943,0.0
8.182,-0.403,-0.938,0.0
7.812,-0.387,-0.94,0.0
7.487,-0.372,-0.942,0.0
7.206,-0.36,-0.947,0.0
9.195,-0.459,-0.947,0.0
8.702,-0.436,-0.944,0.0
8.229,-0.414,-0.939,0.0
7.853,-0.397,-0.94,0.0
7.539,-0.382,-0.944,0.0
7.235,-0.369,-0.947,0.0
9.283,-0.472,-0.951,0.0
8.756,-0.447,-0.945,0.0
8.31,-0.426,-0.943,0.0
7.902,-0.407,-0.941,0.0
7.602,-0.393,-0.948,0.0
7.281,-0.378,-0.948,0.0
9.321,-0.483,-0.949,0.0
8.81,-0.459,-0.945,0.0
8.342,-0.436,-0.941,0.0
7.934,-0.416,-0.94,0.0
7.611,-0.401,-0.944,0.0
7.282,-0.385,-0.943,0.0
9.41,-0.497,-0.952,0.0
8.887,-0.471,-0.948,0.0
8.422,-0.448,-0.944,0.0
7.974,-0.426,-0.939,0.0
7.665,-0.411,-0.945,0.0
7.336,-0.395,-0.945,0.0
9.49,-0.51,-0.953,0.0
8.952,-0.482,-0.948,0.0
8.427,-0.456,-0.939,0.0
8.048,-0.437,-0.942,0.0
7.719,-0.42,-0.946,0.0
7.389,-0.404,-0.946,0.0
9.557,-0.522,-0.953,0.0
9.017,-0.494,-0.948,0.0
8.502,-0.467,-0.941,0.0
8.091,-0.446,-0.941,0.0
7.741,-0.428,-0.943,0.0
7.436,-0.413,-0.947,0.0
9.643,-0.535,-0.954,0.0
9.126,-0.508,-0.952,0.0
8.566,-0.478,-0.941,0.0
8.132,-0.455,-0.939,0.0
7.813,-0.439,-0.945,0.0
7.486,-0.422,-0.947,0.0
9.708,-0.546,-0.952,0.0
9.163,-0.517,-0.949,0.0
8.7,-0.493,-0.948,0.0
8.184,-0.465,-0.938,0.0
7.873,-0.449,-0.945,0.0
7.531,-0.431,-0.946,0.0
9.791,-0.559,-0.952,0.0
9.256,-0.53,-0.95,0.0
8.764,-0.503,-0.948,0.0
8.318,-0.479,-0.946,0.0
7.909,-0.457,-0.943,0.0
7.568,-0.439,-0.944,0.0
9.923,-0.574,-0.956,0.0
9.361,-0.543,-0.953,0.0
8.81,-0.513,-0.945,0.0
8.385,-0.49,-0.946,0.0
7.979,-0.467,-0.944,0.0
7.64,-0.449,-0.945,0.0
9.983,-0.585,-0.953,0.0
9.439,-0.555,-0.952,0.0
8.927,-0.526,-0.949,0.0
8.431,-0.499,-0.943,0.0
8.062,-0.478,-0.946,0.0
7.72,-0.459,-0.948,0.0
10.086,-0.599,-0.953,0.0
9.546,-0.568,-0.953,0.0
9.003,-0.537,-0.948,0.0
8.524,-0.51,-0.945,0.0
8.084,-0.485,-0.94,0.0
7.778,-0.468,-0.947,0.0
10.239,-0.615,-0.957,0.0
9.663,-0.582,-0.955,0.0
9.127,-0.551,-0.952,0.0
8.63,-0.522,-0.948,0.0
8.202,-0.498,-0.945,0.0
7.838,-0.477,-0.946,0.0
10.343,-0.628,-0.956,0.0
9.757,-0.594,-0.954,0.0
9.242,-0.564,-0.954,0.0
8.74,-0.535,-0.951,0.0
8.253,-0.506,-0.943,0.0
7.907,-0.486,-0.946,0.0
10.46,-0.642,-0.956,0.0
9.88,-0.608,-0.956,0.0
9.318,-0.574,-0.952,0.0
8.822,-0.545,-0.95,0.0
8.363,-0.518,-0.946,0.0
8.0,-0.497,-0.948,0.0
10.538,-0.653,-0.951,0.0
9.978,-0.62,-0.954,0.0
9.487,-0.59,-0.959,0.0
8.888,-0.554,-0.947,0.0
8.497,-0.531,-0.951,0.0
8.04,-0.504,-0.944,0.0
10.735,-0.671,-0.957,0.0
10.099,-0.633,-0.954,0.0
9.571,-0.601,-0.956,0.0
9.047,-0.569,-0.953,0.0
8.58,-0.541,-0.951,0.0
8.112,-0.513,-0.943,0.0
10.262,-0.648,-0.958,0.0
9.671,-0.612,-0.955,0.0
9.148,-0.581,-0.953,0.0
8.652,-0.55,-0.948,0.0
8.229,-0.525,-0.947,0.0
11.051,-0.702,-0.959,0.0
10.379,-0.661,-0.956,0.0
9.828,-0.627,-0.958,0.0
9.268,-0.593,-0.954,0.0
8.79,-0.563,-0.953,0.0
8.321,-0.534,-0.947,0.0
11.178,-0.716,-0.956,0.0
10.544,-0.676,-0.959,0.0
9.967,-0.64,-0.96,0.0
9.4,-0.605,-0.957,0.0
8.888,-0.573,-0.952,0.0
8.448,-0.546,-0.951,0.0
11.445,-0.738,-0.965,0.0
10.663,-0.689,-0.956,0.0
10.087,-0.652,-0.958,0.0
9.548,-0.619,-0.959,0.0
8.985,-0.583,-0.951,0.0
8.559,-0.557,-0.952,0.0
11.621,-0.754,-0.965,0.0
10.828,-0.703,-0.957,0.0
10.249,-0.667,-0.961,0.0
9.664,-0.63,-0.959,0.0
9.149,-0.597,-0.957,0.0
8.652,-0.566,-0.951,0.0
11.77,-0.768,-0.962,0.0
11.07,-0.723,-0.964,0.0
10.396,-0.68,-0.961,0.0
9.799,-0.642,-0.959,0.0
9.256,-0.607,-0.955,0.0
8.771,-0.576,-0.952,0.0
11.971,-0.785,-0.962,0.0
11.121,-0.73,-0.953,0.0
10.489,-0.689,-0.955,0.0
9.927,-0.653,-0.958,0.0
9.414,-0.621,-0.959,0.0
8.877,-0.586,-0.952,0.0
12.286,-0.809,-0.971,0.0
11.42,-0.753,-0.963,0.0
10.669,-0.704,-0.957,0.0
10.076,-0.666,-0.958,0.0
9.562,-0.633,-0.961,0.0
9.017,-0.597,-0.954,0.0
12.471,-0.824,-0.968,0.0
11.595,-0.767,-0.962,0.0
10.836,-0.718,-0.957,0.0
10.255,-0.68,-0.961,0.0
9.736,-0.646,-0.965,0.0
9.159,-0.609,-0.956,0.0
12.669,-0.84,-0.966,0.0
11.804,-0.783,-0.963,0.0
11.022,-0.732,-0.958,0.0
10.419,-0.693,-0.962,0.0
9.855,-0.656,-0.962,0.0
9.333,-0.622,-0.961,0.0
12.909,-0.858,-0.966,0.0
12.031,-0.8,-0.964,0.0
11.229,-0.748,-0.959,0.0
10.538,-0.702,-0.957,0.0
10.016,-0.668,-0.963,0.0
9.471,-0.632,-0.961,0.0
13.161,-0.876,-0.966,0.0
12.333,-0.822,-0.97,0.0
11.499,-0.767,-0.966,0.0
10.714,-0.715,-0.958,0.0
10.144,-0.678,-0.961,0.0
9.615,-0.643,-0.962,0.0
14.461,-0.964,-1.04,0.0
12.512,-0.835,-0.966,0.0
11.703,-0.781,-0.965,0.0
10.961,-0.732,-0.963,0.0
10.344,-0.692,-0.964,0.0
9.801,-0.656,-0.966,0.0
13.895,-0.927,-0.979,0.0
12.797,-0.854,-0.969,0.0
11.897,-0.795,-0.964,0.0
11.106,-0.742,-0.96,0.0
10.491,-0.702,-0.962,0.0
9.952,-0.666,-0.966,0.0
14.086,-0.94,-0.971,0.0
13.036,-0.87,-0.967,0.0
12.231,-0.817,-0.972,0.0
11.323,-0.757,-0.961,0.0
10.659,-0.713,-0.961,0.0
10.066,-0.673,-0.961,0.0
14.534,-0.969,-0.98,0.0
13.145,-0.877,-0.956,0.0
12.497,-0.834,-0.975,0.0
11.602,-0.775,-0.967,0.0
10.861,-0.725,-0.963,0.0
10.266,-0.686,-0.965,0.0
14.608,-0.973,-0.963,1.0
13.913,-0.927,-0.99,0.0
12.719,-0.848,-0.972,0.0
11.821,-0.788,-0.967,0.0
11.072,-0.739,-0.965,0.0
10.417,-0.695,-0.963,0.0
14.63,-0.973,-0.942,1.0
13.974,-0.93,-0.973,0.0
12.941,-0.861,-0.969,0.0
12.059,-0.802,-0.968,0.0
11.259,-0.749,-0.963,0.0
10.602,-0.706,-0.963,0.0
14.622,-0.97,-0.918,1.0
14.498,-0.962,-0.987,0.0
13.168,-0.874,-0.965,0.0
12.349,-0.82,-0.972,0.0
11.515,-0.764,-0.967,0.0
10.741,-0.713,-0.959,0.0
14.642,-0.969,-0.896,1.0
14.619,-0.967,-0.972,1.0
14.065,-0.93,-1.009,0.0
12.576,-0.832,-0.97,0.0
11.755,-0.777,-0.968,0.0
11.076,-0.733,-0.971,0.0
14.666,-0.967,-0.875,1.0
14.646,-0.965,-0.95,1.0
13.931,-0.918,-0.977,0.0
12.826,-0.845,-0.968,0.0
11.994,-0.79,-0.969,0.0
11.188,-0.737,-0.963,0.0
14.738,-0.968,-0.855,0.0
14.652,-0.962,-0.927,1.0
14.217,-0.933,-0.975,0.0
13.047,-0.855,-0.964,0.0
12.325,-0.808,-0.976,0.0
11.478,-0.752,-0.969,0.0
15.087,-0.986,-0.851,0.0
14.665,-0.958,-0.904,1.0
14.644,-0.956,-0.98,0.0
13.533,-0.883,-0.978,0.0
12.61,-0.822,-0.978,0.0
11.715,-0.763,-0.97,0.0
15.339,-0.997,-0.841,1.0
14.701,-0.954,-0.883,1.0
14.672,-0.952,-0.958,1.0
13.804,-0.895,-0.975,0.0
12.776,-0.828,-0.97,0.0
11.976,-0.775,-0.972,0.0
15.618,-1.008,-0.831,1.0
14.736,-0.951,-0.861,0.0
14.696,-0.947,-0.936,1.0
14.021,-0.903,-0.968,0.0
13.005,-0.837,-0.966,0.0
12.267,-0.789,-0.975,0.0
15.899,-1.019,-0.82,1.0
15.045,-0.964,-0.854,0.0
14.715,-0.942,-0.913,1.0
14.658,-0.937,-0.988,0.0
13.37,-0.854,-0.971,0.0
12.545,-0.801,-0.977,0.0
16.263,-1.035,-0.812,1.0
15.335,-0.975,-0.846,0.0
14.72,-0.934,-0.889,1.0
14.738,-0.935,-0.969,1.0
13.826,-0.876,-0.982,0.0
12.725,-0.805,-0.97,0.0
16.681,-1.053,-0.806,0.0
15.594,-0.983,-0.835,1.0
14.782,-0.93,-0.869,1.0
14.739,-0.927,-0.945,1.0
14.021,-0.88,-0.972,0.0
13.059,-0.819,-0.974,0.0
17.115,-1.07,-0.799,0.0
15.869,-0.991,-0.823,1.0
15.006,-0.936,-0.857,0.0
14.782,-0.92,-0.923,1.0
14.676,-0.912,-0.994,0.0
24.527,-1.523,-1.79,0.0
17.874,-1.107,-0.805,1.0
16.206,-1.002,-0.814,1.0
15.314,-0.945,-0.85,0.0
14.816,-0.913,-0.901,1.0
14.805,-0.911,-0.978,1.0
13.658,-0.839,-0.974,0.0
18.362,-1.125,-0.797,1.0
16.61,-1.016,-0.807,0.0
15.597,-0.952,-0.84,1.0
14.839,-0.904,-0.878,1.0
14.837,-0.903,-0.955,1.0
14.005,-0.85,-0.975,0.0
18.979,-1.149,-0.792,0.0
17.19,-1.039,-0.807,1.0
15.853,-0.956,-0.827,1.0
15.01,-0.904,-0.863,0.0
14.857,-0.893,-0.932,1.0
14.703,-0.882,-0.999,0.0
19.632,-1.174,-0.787,1.0
17.636,-1.052,-0.799,0.0
16.22,-0.966,-0.819,1.0
15.316,-0.91,-0.855,1.0
14.901,-0.884,-0.91,1.0
14.873,-0.88,-0.986,0.0
20.413,-1.205,-0.785,2.0
18.333,-1.079,-0.8,1.0
16.484,-0.968,-0.806,0.0
15.536,-0.911,-0.842,1.0
14.937,-0.874,-0.888,1.0
14.918,-0.871,-0.965,1.0
21.021,-1.223,-0.774,1.0
18.919,-1.098,-0.795,1.0
17.1,-0.99,-0.808,0.0
15.804,-0.913,-0.831,0.0
15.011,-0.865,-0.867,0.0
14.957,-0.86,-0.943,1.0
21.892,-1.255,-0.77,1.0
19.564,-1.118,-0.79,1.0
17.644,-1.006,-0.805,0.0
16.23,-0.923,-0.826,1.0
15.325,-0.869,-0.86,0.0
15.0,-0.849,-0.921,1.0
22.912,-1.293,-0.768,2.0
20.429,-1.149,-0.791,2.0
18.301,-1.026,-0.804,0.0
16.576,-0.927,-0.817,1.0
15.55,-0.867,-0.848,1.0
15.023,-0.836,-0.898,1.0
23.782,-1.319,-0.759,11.0
21.052,-1.164,-0.781,2.0
18.85,-1.039,-0.798,0.0
17.013,-0.935,-0.811,0.0
15.819,-0.867,-0.837,1.0
15.095,-0.825,-0.877,0.0
23.922,-1.303,-0.724,15.0
21.882,-1.188,-0.777,2.0
19.481,-1.054,-0.793,0.0
17.552,-0.947,-0.808,0.0
16.142,-0.868,-0.827,1.0
15.287,-0.819,-0.864,0.0
24.257,-1.296,-0.696,18.0
22.775,-1.213,-0.772,3.0
20.385,-1.082,-0.798,0.0
18.148,-0.96,-0.806,0.0
16.5,-0.87,-0.82,1.0
15.465,-0.813,-0.849,0.0
24.474,-1.281,-0.663,19.0
23.651,-1.234,-0.764,10.0
20.98,-1.091,-0.788,1.0
18.698,-0.969,-0.801,0.0
16.843,-0.87,-0.81,0.0
15.789,-0.812,-0.842,0.0
24.598,-1.261,-0.628,9.0
23.91,-1.221,-0.735,15.0
21.707,-1.104,-0.781,1.0
19.455,-0.986,-0.803,0.0
17.47,-0.882,-0.813,0.0
16.075,-0.809,-0.832,0.0
30.205,-1.514,-0.723,9.0
24.285,-1.212,-0.708,17.0
22.506,-1.119,-0.774,3.0
20.041,-0.992,-0.796,0.0
18.143,-0.895,-0.816,0.0
16.403,-0.806,-0.823,1.0
30.559,-1.496,-0.684,26.0
24.641,-1.201,-0.68,4.0
23.664,-1.148,-0.777,6.0
20.81,-1.005,-0.794,0.0
18.556,-0.893,-0.805,0.0
16.843,-0.807,-0.819,0.0
30.676,-1.464,-0.639,33.0
28.15,-1.337,-0.734,2.0
23.844,-1.128,-0.746,15.0
21.523,-1.013,-0.789,1.0
19.281,-0.904,-0.807,0.0
17.318,-0.808,-0.816,0.0
30.919,-1.436,-0.597,34.0
0.0,0.0,0.0,0.0
24.205,-1.114,-0.721,15.0
22.174,-1.016,-0.779,1.0
19.835,-0.904,-0.8,0.0
17.793,-0.807,-0.811,1.0
31.118,-1.406,-0.554,45.0
30.52,-1.372,-0.703,22.0
24.825,-1.11,-0.702,5.0
23.291,-1.036,-0.783,5.0
20.419,-0.904,-0.793,0.0
18.342,-0.808,-0.809,0.0
28.471,-1.248,-0.464,59.0
28.461,-1.241,-0.613,56.0
28.343,-1.229,-0.759,13.0
23.8,-1.027,-0.764,15.0
21.408,-0.918,-0.8,0.0
18.985,-0.81,-0.809,0.0
28.457,-1.209,-0.422,113.0
28.46,-1.202,-0.571,131.0
28.442,-1.194,-0.719,96.0
24.053,-1.004,-0.737,19.0
22.006,-0.913,-0.79,1.0
19.581,-0.808,-0.805,0.0
28.457,-1.169,-0.38,144.0
28.457,-1.162,-0.529,149.0
28.441,-1.154,-0.678,78.0
24.867,-1.003,-0.726,7.0
22.928,-0.919,-0.79,2.0
20.352,-0.811,-0.808,1.0
28.474,-1.129,-0.339,68.0
28.476,-1.122,-0.489,60.0
28.487,-1.115,-0.639,54.0
28.07,-1.092,-0.779,1.0
23.756,-0.918,-0.784,11.0
20.722,-0.795,-0.793,2.0
31.296,-1.195,-0.329,38.0
31.279,-1.186,-0.493,43.0
30.643,-1.155,-0.644,30.0
28.333,-1.06,-0.747,1.0
23.846,-0.886,-0.754,18.0
21.685,-0.8,-0.799,1.0
31.401,-1.152,-0.286,4.0
38.397,-1.399,-0.551,10.0
30.949,-1.119,-0.607,27.0
30.288,-1.087,-0.756,8.0
24.554,-0.875,-0.742,16.0
22.388,-0.792,-0.794,2.0
54.7,-1.923,-0.422,1.0
44.94,-1.568,-0.583,7.0
31.347,-1.085,-0.571,26.0
30.45,-1.046,-0.718,22.0
25.171,-0.858,-0.727,5.0
23.056,-0.779,-0.787,5.0
38.776,-1.303,-0.247,10.0
38.664,-1.288,-0.449,25.0
37.975,-1.255,-0.641,10.0
30.532,-1.001,-0.679,34.0
27.796,-0.903,-0.765,1.0
23.78,-0.766,-0.78,16.0
38.686,-1.238,-0.194,57.0
38.637,-1.225,-0.398,43.0
38.154,-1.199,-0.594,13.0
30.765,-0.959,-0.644,31.0
28.62,-0.883,-0.75,1.0
23.94,-0.732,-0.753,21.0
38.662,-1.174,-0.144,68.0
38.644,-1.163,-0.347,62.0
38.425,-1.145,-0.548,18.0
31.121,-0.918,-0.611,26.0
30.267,-0.885,-0.754,10.0
24.697,-0.715,-0.745,12.0
38.663,-1.11,-0.094,89.0
38.651,-1.099,-0.298,62.0
38.598,-1.086,-0.501,27.0
31.441,-0.875,-0.577,7.0
30.451,-0.839,-0.72,28.0
25.282,-0.689,-0.731,1.0
38.661,-1.045,-0.045,66.0
38.688,-1.034,-0.249,49.0
38.686,-1.023,-0.454,37.0
37.949,-0.993,-0.649,15.0
30.585,-0.791,-0.685,34.0
27.839,-0.711,-0.77,1.0
38.748,-0.981,0.002,22.0
38.783,-0.97,-0.202,26.0
38.805,-0.96,-0.408,19.0
38.172,-0.932,-0.607,21.0
30.891,-0.745,-0.654,27.0
28.553,-0.68,-0.756,1.0
40.422,-0.954,0.05,39.0
40.412,-0.941,-0.162,38.0
40.41,-0.929,-0.376,59.0
38.387,-0.871,-0.564,14.0
31.324,-0.701,-0.626,17.0
30.279,-0.668,-0.766,8.0
38.386,-0.838,0.093,10.0
38.369,-0.826,-0.109,31.0
38.363,-0.814,-0.312,51.0
38.354,-0.803,-0.52,36.0
0.0,0.0,0.0,0.0
30.465,-0.618,-0.736,25.0
52.947,-1.062,0.189,67.0
52.943,-1.046,-0.091,63.0
45.674,-0.888,-0.32,19.0
44.995,-0.861,-0.559,34.0
37.918,-0.714,-0.672,18.0
30.625,-0.567,-0.705,29.0
67.557,-1.233,0.317,13.0
20.137,-0.361,-0.012,29.0
52.985,-0.934,-0.313,18.0
45.373,-0.786,-0.514,19.0
38.187,-0.649,-0.635,15.0
31.052,-0.518,-0.681,26.0
20.128,-0.33,0.116,12.0
20.133,-0.324,0.009,36.0
59.544,-0.941,-0.288,4.0
52.831,-0.817,-0.541,17.0
38.674,-0.586,-0.602,13.0
31.877,-0.473,-0.665,9.0
20.126,-0.293,0.137,12.0
59.521,-0.848,0.091,29.0
59.592,-0.83,-0.225,2.0
52.992,-0.721,-0.488,7.0
44.877,-0.596,-0.652,12.0
35.992,-0.467,-0.715,4.0
20.157,-0.256,0.158,9.0
59.596,-0.737,0.152,7.0
56.312,-0.679,-0.156,1.0
56.762,-0.665,-0.465,1.0
44.903,-0.512,-0.607,33.0
37.635,-0.417,-0.709,13.0
64.301,-0.694,0.57,21.0
56.171,-0.588,0.199,7.0
56.205,-0.57,-0.1,13.0
56.501,-0.554,-0.407,1.0
45.027,-0.427,-0.565,17.0
20.183,-0.185,-0.361,20.0
64.385,-0.57,0.634,21.0
20.2,-0.172,0.091,0.0
20.181,-0.165,-0.016,0.0
20.166,-0.158,-0.126,14.0
20.132,-0.152,-0.233,18.0
20.152,-0.145,-0.341,32.0
20.162,-0.139,0.217,17.0
20.124,-0.132,0.109,16.0
20.14,-0.126,0.001,25.0
20.154,-0.12,-0.108,26.0
20.141,-0.113,-0.215,19.0
20.144,-0.107,-0.323,38.0
20.133,-0.1,0.235,27.0
20.115,-0.093,0.127,25.0
20.124,-0.087,0.019,32.0
20.142,-0.08,-0.09,32.0
20.152,-0.074,-0.198,30.0
20.14,-0.067,-0.306,28.0
20.119,-0.06,0.252,31.0
20.117,-0.054,0.144,31.0
20.139,-0.047,0.036,39.0
20.143,-0.04,-0.073,31.0
20.165,-0.034,-0.181,26.0
20.168,-0.027,-0.289,15.0
20.122,-0.02,0.269,26.0
20.125,-0.014,0.161,28.0
20.154,-0.007,0.053,28.0
20.263,0.0,-0.057,150.0
20.258,0.005,-0.165,151.0
20.271,0.012,-0.274,150.0
20.131,0.019,0.285,28.0
20.125,0.025,0.177,28.0
20.154,0.032,0.069,20.0
20.251,0.039,-0.041,6.0
20.234,0.046,-0.15,25.0
20.266,0.053,-0.259,0.0
20.149,0.06,0.3,27.0
20.152,0.067,0.192,28.0
20.183,0.074,0.084,28.0
20.197,0.08,-0.026,28.0
20.188,0.087,-0.134,32.0
20.19,0.094,-0.243,25.0
20.158,0.1,0.315,30.0
20.164,0.107,0.207,26.0
20.199,0.114,0.098,31.0
20.177,0.121,-0.012,27.0
20.172,0.127,-0.12,38.0
20.178,0.134,-0.229,33.0
20.174,0.142,0.329,26.0
20.17,0.148,0.22,20.0
20.211,0.155,0.112,23.0
20.277,0.162,0.001,28.0
20.217,0.169,-0.107,23.0
20.178,0.175,-0.216,22.0
20.284,0.184,0.344,33.0
20.285,0.191,0.235,28.0
20.301,0.198,0.125,29.0
20.335,0.205,0.014,22.0
0.0,0.0,0.0,0.0
20.196,0.217,-0.204,15.0
20.268,0.225,0.357,32.0
20.301,0.232,0.247,22.0
20.305,0.24,0.138,3.0
99.598,1.21,0.129,6.0
0.0,0.0,0.0,0.0
0.0,0.0,0.0,0.0
20.295,0.267,0.369,6.0
195.456,2.647,2.499,9.0
0.0,0.0,0.0,0.0
99.711,1.416,0.185,5.0
0.0,0.0,0.0,0.0
0.0,0.0,0.0,0.0
194.949,2.979,3.654,23.0
195.65,3.054,2.607,6.0
99.765,1.591,0.788,2.0
99.824,1.624,0.237,5.0
0.0,0.0,0.0,0.0
0.0,0.0,0.0,0.0
194.605,3.377,3.746,20.0
195.045,3.451,2.696,6.0
0.0,0.0,0.0,0.0
99.861,1.834,0.286,10.0
0.0,0.0,0.0,0.0
0.0,0.0,0.0,0.0
194.483,3.781,3.835,14.0
199.544,3.945,2.85,21.0
102.954,2.069,0.911,5.0
99.975,2.044,0.331,3.0
100.008,2.078,-0.212,6.0
0.0,0.0,0.0,0.0
196.364,4.229,3.957,5.0
195.223,4.266,2.871,28.0
0.0,0.0,0.0,0.0
100.089,2.253,0.372,3.0
100.141,2.286,-0.172,11.0
0.0,0.0,0.0,0.0
193.961,4.579,3.985,30.0
195.006,4.67,2.944,27.0
0.0,0.0,0.0,0.0
100.293,2.467,0.411,1.0
100.226,2.5,-0.135,1.0
73.211,1.85,-0.497,0.0
193.751,4.981,4.05,29.0
195.561,5.093,3.021,9.0
194.971,5.141,1.948,9.0
103.096,2.753,0.457,2.0
103.405,2.796,-0.105,1.0
0.0,0.0,0.0,0.0
193.596,5.385,4.109,33.0
195.71,5.509,3.085,12.0
195.689,5.573,2.014,5.0
196.027,5.648,0.927,26.0
0.0,0.0,0.0,0.0
0.0,0.0,0.0,0.0
193.72,5.795,4.165,36.0
195.555,5.915,3.135,8.0
0.0,0.0,0.0,0.0
196.193,6.061,0.979,34.0
0.0,0.0,0.0,0.0
0.0,0.0,0.0,0.0
194.377,6.224,4.227,25.0
195.083,6.309,3.173,22.0
0.0,0.0,0.0,0.0
196.321,6.478,1.023,24.0
0.0,0.0,0.0,0.0
0.0,0.0,0.0,0.0
195.269,6.662,4.286,8.0
195.07,6.717,3.212,20.0
202.791,7.047,2.226,36.0
196.342,6.886,1.059,31.0
0.0,0.0,0.0,0.0
0.0,0.0,0.0,0.0
195.028,7.057,4.313,13.0
203.117,7.413,3.377,6.0
203.36,7.487,2.263,7.0
196.213,7.288,1.086,7.0
0.0,0.0,0.0,0.0
0.0,0.0,0.0,0.0
195.178,7.469,4.34,15.0
0.0,0.0,0.0,0.0
199.326,7.757,2.241,6.0
196.602,7.711,1.109,32.0
0.0,0.0,0.0,0.0
0.0,0.0,0.0,0.0
196.868,7.939,4.395,9.0
196.867,8.002,3.312,8.0
0.0,0.0,0.0,0.0
196.719,8.123,1.124,27.0
0.0,0.0,0.0,0.0
0.0,0.0,0.0,0.0
0.0,0.0,0.0,0.0
196.579,8.403,3.316,23.0
195.513,8.418,2.22,20.0
195.507,8.478,1.122,50.0
0.0,0.0,0.0,0.0
0.0,0.0,0.0,0.0
195.564,8.701,4.38,8.0
204.947,9.181,3.458,26.0
205.068,9.251,2.328,10.0
196.953,8.948,1.129,38.0
0.0,0.0,0.0,0.0
0.0,0.0,0.0,0.0
0.0,0.0,0.0,0.0
200.034,9.369,3.368,8.0
0.0,0.0,0.0,0.0
197.096,9.351,1.122,25.0
0.0,0.0,0.0,0.0
0.0,0.0,0.0,0.0
0.0,0.0,0.0,0.0
0.0,0.0,0.0,0.0
197.843,9.727,2.223,20.0
197.174,9.756,1.105,30.0
0.0,0.0,0.0,0.0
0.0,0.0,0.0,0.0
196.571,9.947,4.364,5.0
197.94,10.076,3.298,6.0
206.49,10.573,2.298,8.0
197.086,10.15,1.08,26.0
0.0,0.0,0.0,0.0
0.0,0.0,0.0,0.0
0.0,0.0,0.0,0.0
0.0,0.0,0.0,0.0
206.906,11.008,2.271,14.0
197.223,10.551,1.05,20.0
0.0,0.0,0.0,0.0
0.0,0.0,0.0,0.0
196.074,10.707,4.292,61.0
196.108,10.767,3.204,20.0
196.113,10.824,2.116,25.0
197.396,10.954,1.014,7.0
0.0,0.0,0.0,0.0
0.0,0.0,0.0,0.0
198.121,11.215,4.295,7.0
0.0,0.0,0.0,0.0
209.019,11.951,2.207,6.0
197.489,11.348,0.969,33.0
0.0,0.0,0.0,0.0
69.051,4.008,-0.429,2.0
0.0,0.0,0.0,0.0
0.0,0.0,0.0,0.0
208.182,12.311,2.144,13.0
197.595,11.743,0.915,28.0
0.0,0.0,0.0,0.0
68.892,4.134,-0.447,0.0
0.0,0.0,0.0,0.0
199.731,12.147,3.11,7.0
0.0,0.0,0.0,0.0
155.37,9.534,0.673,16.0
0.0,0.0,0.0,0.0
0.0,0.0,0.0,0.0
198.115,12.376,4.126,9.0
0.0,0.0,0.0,0.0
0.0,0.0,0.0,0.0
154.949,9.808,0.619,9.0
0.0,0.0,0.0,0.0
68.94,4.402,-0.493,4.0
198.053,12.751,4.054,5.0
0.0,0.0,0.0,0.0
0.0,0.0,0.0,0.0
154.959,10.103,0.561,152.0
0.0,0.0,0.0,0.0
68.943,4.532,-0.52,4.0
0.0,0.0,0.0,0.0
0.0,0.0,0.0,0.0
0.0,0.0,0.0,0.0
154.932,10.393,0.497,154.0
0.0,0.0,0.0,0.0
0.0,0.0,0.0,0.0
210.342,14.336,4.133,24.0
210.378,14.395,2.957,7.0
0.0,0.0,0.0,0.0
154.963,10.683,0.429,20.0
0.0,0.0,0.0,0.0
68.841,4.784,-0.579,0.0
173.728,12.163,3.335,28.0
