X,Y,Z,Reflectivity
26.166,-2.392,-0.715,6.0
22.975,-2.095,-0.751,2.0
55.119,-5.022,-0.267,30.0
0.0,0.0,0.0,0.0
37.153,-3.366,-0.575,13.0
31.096,-2.81,-0.65,4.0
27.008,-2.434,-0.709,5.0
23.677,-2.128,-0.748,7.0
55.654,-4.998,-0.208,15.0
46.481,-4.162,-0.422,21.0
38.496,-3.437,-0.554,14.0
31.779,-2.829,-0.63,2.0
27.745,-2.463,-0.698,7.0
23.813,-2.108,-0.726,15.0
56.54,-5.002,-0.151,6.0
0.0,0.0,0.0,0.0
39.654,-3.487,-0.528,15.0
33.461,-2.933,-0.628,2.0
28.463,-2.488,-0.686,2.0
23.905,-2.083,-0.703,15.0
57.137,-4.975,-0.092,0.0
50.289,-4.365,-0.349,22.0
40.63,-3.515,-0.499,15.0
34.982,-3.018,-0.62,2.0
29.627,-2.548,-0.683,6.0
24.349,-2.087,-0.691,12.0
79.5,-6.811,-0.046,3.0
54.251,-4.632,-0.321,9.0
45.067,-3.835,-0.508,4.0
0.0,0.0,0.0,0.0
30.458,-2.575,-0.671,6.0
25.028,-2.109,-0.685,5.0
56.699,-4.775,0.023,1.0
55.355,-4.646,-0.272,4.0
46.112,-3.857,-0.473,21.0
38.266,-3.19,-0.601,11.0
30.872,-2.565,-0.65,5.0
25.441,-2.106,-0.671,2.0
79.698,-6.594,0.111,14.0
60.789,-5.011,-0.24,3.0
46.942,-3.856,-0.436,21.0
39.149,-3.205,-0.577,14.0
31.988,-2.609,-0.643,2.0
27.743,-2.255,-0.706,4.0
79.471,-6.455,0.186,34.0
79.356,-6.421,-0.237,11.0
49.285,-3.973,-0.411,23.0
40.389,-3.243,-0.557,12.0
33.27,-2.662,-0.637,2.0
28.789,-2.295,-0.705,3.0
79.369,-6.322,0.261,9.0
66.199,-5.253,-0.136,0.0
50.287,-3.975,-0.372,12.0
41.819,-3.293,-0.538,14.0
34.215,-2.684,-0.623,2.0
29.525,-2.307,-0.696,7.0
61.714,-4.818,0.259,4.0
61.686,-4.796,-0.071,5.0
53.906,-4.175,-0.351,7.0
0.0,0.0,0.0,0.0
35.455,-2.724,-0.614,2.0
30.208,-2.312,-0.686,4.0
65.526,-5.01,0.333,0.0
65.552,-4.991,-0.018,17.0
57.389,-4.351,-0.324,3.0
46.292,-3.496,-0.514,21.0
36.237,-2.725,-0.597,2.0
30.833,-2.309,-0.673,6.0
65.605,-4.907,0.389,1.0
65.567,-4.884,0.037,187.0
58.532,-4.341,-0.281,7.0
47.049,-3.474,-0.483,15.0
38.941,-2.863,-0.609,0.0
31.266,-2.289,-0.657,3.0
65.689,-4.804,0.443,1.0
65.493,-4.767,0.09,1.0
61.219,-4.437,-0.244,1.0
49.453,-3.568,-0.467,16.0
39.324,-2.824,-0.583,2.0
32.09,-2.295,-0.648,2.0
65.484,-4.677,0.495,1.0
65.478,-4.654,0.143,1.0
66.069,-4.674,-0.21,2.0
53.236,-3.748,-0.461,5.0
40.297,-2.824,-0.566,1.0
33.535,-2.34,-0.651,2.0
65.599,-4.57,0.546,168.0
65.416,-4.536,0.193,2.0
66.026,-4.556,-0.16,4.0
53.332,-3.662,-0.422,18.0
43.953,-3.004,-0.584,1.0
24.611,-1.674,-0.46,7.0
65.6,-4.455,0.594,166.0
65.505,-4.426,0.241,2.0
24.642,-1.657,-0.042,0.0
24.582,-1.644,-0.177,10.0
24.528,-1.633,-0.308,21.0
24.531,-1.625,-0.441,34.0
24.564,-1.624,0.239,24.0
24.549,-1.615,0.107,27.0
24.56,-1.607,-0.025,32.0
24.526,-1.596,-0.159,40.0
24.501,-1.587,-0.291,41.0
24.506,-1.579,-0.424,45.0
24.534,-1.578,0.256,40.0
24.534,-1.569,0.123,45.0
24.535,-1.561,-0.008,57.0
24.52,-1.551,-0.143,58.0
24.493,-1.541,-0.275,58.0
24.502,-1.534,-0.408,61.0
24.538,-1.533,0.272,75.0
24.52,-1.523,0.139,44.0
24.521,-1.515,0.007,86.0
24.509,-1.505,-0.128,67.0
24.494,-1.496,-0.26,61.0
24.503,-1.488,-0.393,66.0
24.538,-1.487,0.287,77.0
24.52,-1.477,0.154,59.0
24.516,-1.468,0.021,73.0
24.521,-1.46,-0.113,70.0
24.508,-1.451,-0.246,71.0
24.503,-1.442,-0.378,59.0
24.555,-1.442,0.301,48.0
24.539,-1.432,0.168,50.0
24.548,-1.424,0.035,46.0
24.544,-1.415,-0.099,58.0
24.532,-1.406,-0.232,55.0
24.528,-1.397,-0.365,48.0
24.607,-1.398,0.315,35.0
24.576,-1.388,0.182,28.0
24.576,-1.379,0.048,24.0
24.561,-1.369,-0.086,28.0
24.567,-1.36,-0.22,25.0
24.577,-1.352,-0.353,36.0
0.0,0.0,0.0,0.0
65.73,-3.583,0.52,4.0
0.0,0.0,0.0,0.0
65.952,-3.548,-0.199,1.0
55.478,-2.964,-0.469,5.0
42.417,-2.251,-0.589,2.0
67.288,-3.561,0.93,0.0
0.0,0.0,0.0,0.0
0.0,0.0,0.0,0.0
66.058,-3.423,-0.169,0.0
57.135,-2.941,-0.457,7.0
42.457,-2.17,-0.57,2.0
82.848,-4.22,1.182,35.0
67.269,-3.401,0.594,1.0
0.0,0.0,0.0,0.0
68.587,-3.419,-0.146,0.0
31.322,-1.55,-0.237,5.0
31.253,-1.535,-0.406,31.0
82.983,-4.063,1.218,36.0
79.934,-3.883,0.738,10.0
68.982,-3.325,0.261,1.0
31.298,-1.497,-0.054,9.0
31.209,-1.481,-0.224,39.0
31.2,-1.47,-0.394,48.0
83.17,-3.903,1.252,25.0
31.347,-1.459,0.301,8.0
31.246,-1.443,0.13,37.0
31.199,-1.429,-0.043,44.0
31.213,-1.419,-0.213,59.0
31.202,-1.407,-0.383,47.0
31.259,-1.403,0.481,42.0
31.231,-1.39,0.31,37.0
28.461,-1.256,0.127,47.0
28.457,-1.246,-0.03,62.0
28.453,-1.235,-0.185,59.0
28.443,-1.224,-0.34,78.0
28.439,-1.218,0.446,71.0
28.434,-1.207,0.291,103.0
28.45,-1.198,0.136,149.0
28.439,-1.186,-0.022,109.0
28.452,-1.176,-0.177,116.0
28.461,-1.166,-0.333,127.0
28.443,-1.16,0.454,150.0
28.453,-1.149,0.298,135.0
28.45,-1.139,0.143,70.0
28.457,-1.129,-0.015,64.0
28.47,-1.119,-0.17,61.0
31.275,-1.218,-0.358,19.0
31.236,-1.21,0.506,21.0
31.252,-1.199,0.335,48.0
31.259,-1.187,0.164,43.0
31.277,-1.176,-0.009,46.0
31.347,-1.167,-0.181,31.0
45.129,-1.664,-0.508,12.0
31.323,-1.147,0.513,46.0
83.983,-3.047,0.916,22.0
80.53,-2.891,0.437,19.0
80.941,-2.875,-0.011,27.0
56.751,-1.994,-0.319,1.0
45.399,-1.578,-0.504,13.0
152.159,-5.258,2.518,4.0
84.959,-2.904,0.94,31.0
80.422,-2.718,0.448,13.0
38.734,-1.295,0.0,33.0
38.703,-1.279,-0.212,42.0
38.652,-1.263,-0.424,33.0
38.656,-1.254,0.644,54.0
38.66,-1.239,0.432,62.0
38.657,-1.225,0.219,63.0
38.648,-1.21,0.003,65.0
38.661,-1.197,-0.208,65.0
38.621,-1.181,-0.42,43.0
38.648,-1.173,0.647,82.0
38.652,-1.159,0.435,84.0
38.649,-1.144,0.222,84.0
38.625,-1.129,0.006,74.0
38.659,-1.115,-0.206,86.0
38.645,-1.101,-0.418,38.0
38.638,-1.091,0.648,69.0
38.635,-1.077,0.436,67.0
38.643,-1.062,0.223,67.0
38.651,-1.048,0.007,65.0
38.686,-1.035,-0.205,46.0
38.705,-1.022,-0.418,46.0
38.7,-1.011,0.65,30.0
38.712,-0.997,0.437,14.0
38.767,-0.984,0.224,9.0
0.0,0.0,0.0,0.0
40.413,-0.996,-0.215,32.0
40.406,-0.981,-0.438,45.0
40.409,-0.97,0.677,38.0
40.412,-0.955,0.454,37.0
40.409,-0.94,0.231,65.0
40.422,-0.926,0.004,130.0
40.425,-0.911,-0.218,27.0
40.452,-0.897,-0.441,6.0
38.392,-0.84,0.641,34.0
38.377,-0.825,0.429,50.0
38.38,-0.811,0.217,26.0
52.949,-1.1,0.001,7.0
45.603,-0.931,-0.25,16.0
45.345,-0.909,-0.499,18.0
53.022,-1.047,0.879,13.0
53.02,-1.027,0.586,13.0
53.005,-1.008,0.293,14.0
20.112,-0.375,-0.001,12.0
52.956,-0.968,-0.297,32.0
45.387,-0.813,-0.505,19.0
176.616,-3.113,2.904,14.0
20.149,-0.347,0.219,0.0
20.112,-0.339,0.108,13.0
20.137,-0.332,-0.005,33.0
59.453,-0.96,-0.344,8.0
45.373,-0.716,-0.513,12.0
20.141,-0.312,0.327,7.0
20.122,-0.304,0.215,13.0
20.121,-0.296,0.104,11.0
59.511,-0.856,-0.026,77.0
56.541,-0.793,-0.338,5.0
45.308,-0.618,-0.522,6.0
20.139,-0.269,0.323,14.0
20.143,-0.261,0.211,9.0
56.252,-0.71,0.278,1.0
59.524,-0.731,-0.04,1.0
59.593,-0.709,-0.371,2.0
45.341,-0.523,-0.534,14.0
20.17,-0.226,0.318,15.0
64.254,-0.699,0.657,36.0
56.178,-0.592,0.263,12.0
56.19,-0.571,-0.054,15.0
56.39,-0.552,-0.367,1.0
20.169,-0.19,-0.243,6.0
64.343,-0.587,0.996,20.0
66.515,-0.582,0.66,28.0
58.327,-0.49,0.255,27.0
20.176,-0.162,-0.025,10.0
20.163,-0.155,-0.137,18.0
20.142,-0.147,-0.249,28.0
20.151,-0.141,0.305,16.0
20.131,-0.133,0.193,19.0
20.143,-0.126,0.081,27.0
20.14,-0.119,-0.032,28.0
20.144,-0.112,-0.144,31.0
20.141,-0.105,-0.256,38.0
20.124,-0.098,0.297,28.0
20.123,-0.091,0.185,27.0
20.126,-0.084,0.073,40.0
20.131,-0.076,-0.04,29.0
20.145,-0.07,-0.152,37.0
20.148,-0.062,-0.264,27.0
20.126,-0.055,0.289,31.0
20.109,-0.048,0.177,37.0
20.128,-0.041,0.065,41.0
20.124,-0.034,-0.048,30.0
20.171,-0.027,-0.161,25.0
20.179,-0.02,-0.274,7.0
20.135,-0.013,0.28,28.0
20.122,-0.006,0.168,28.0
20.212,0.0,0.056,150.0
20.254,0.007,-0.058,151.0
20.254,0.014,-0.171,151.0
20.268,0.021,-0.284,150.0
20.141,0.028,0.271,30.0
20.15,0.035,0.158,27.0
20.202,0.042,0.046,19.0
20.212,0.049,-0.068,27.0
20.21,0.056,-0.181,25.0
20.255,0.063,-0.294,0.0
20.15,0.07,0.26,28.0
20.158,0.077,0.148,26.0
20.2,0.084,0.035,33.0
20.188,0.091,-0.079,33.0
20.176,0.098,-0.191,26.0
20.207,0.105,-0.305,26.0
20.164,0.112,0.249,28.0
20.173,0.119,0.137,25.0
20.191,0.126,0.024,26.0
20.179,0.133,-0.09,28.0
20.171,0.14,-0.203,26.0
20.177,0.147,-0.316,36.0
20.225,0.155,0.238,23.0
20.27,0.162,0.125,22.0
20.318,0.169,0.012,29.0
20.192,0.175,-0.102,18.0
20.165,0.181,-0.215,18.0
20.179,0.188,-0.329,32.0
20.296,0.197,0.226,28.0
20.311,0.204,0.113,27.0
20.323,0.211,0.0,3.0
0.0,0.0,0.0,0.0
20.187,0.223,-0.229,17.0
20.198,0.23,-0.342,25.0
20.3,0.238,0.213,14.0
99.542,1.204,0.488,6.0
99.686,1.238,-0.07,3.0
0.0,0.0,0.0,0.0
0.0,0.0,0.0,0.0
20.194,0.271,-0.356,0.0
0.0,0.0,0.0,0.0
99.668,1.408,0.418,6.0
99.759,1.441,-0.14,1.0
0.0,0.0,0.0,0.0
0.0,0.0,0.0,0.0
0.0,0.0,0.0,0.0
99.68,1.576,0.905,1.0
99.827,1.611,0.346,5.0
0.0,0.0,0.0,0.0
0.0,0.0,0.0,0.0
0.0,0.0,0.0,0.0
41.273,0.72,-0.789,0.0
99.851,1.78,0.83,1.0
99.874,1.811,0.269,11.0
0.0,0.0,0.0,0.0
0.0,0.0,0.0,0.0
0.0,0.0,0.0,0.0
0.0,0.0,0.0,0.0
102.949,2.038,0.774,5.0
100.084,2.012,0.189,3.0
0.0,0.0,0.0,0.0
0.0,0.0,0.0,0.0
0.0,0.0,0.0,0.0
38.5,0.823,-0.798,0.0
100.054,2.178,0.668,1.0
100.11,2.212,0.104,8.0
0.0,0.0,0.0,0.0
0.0,0.0,0.0,0.0
0.0,0.0,0.0,0.0
0.0,0.0,0.0,0.0
102.985,2.444,0.599,1.0
0.0,0.0,0.0,0.0
0.0,0.0,0.0,0.0
0.0,0.0,0.0,0.0
0.0,0.0,0.0,0.0
36.62,0.925,-0.823,0.0
0.0,0.0,0.0,0.0
0.0,0.0,0.0,0.0
0.0,0.0,0.0,0.0
0.0,0.0,0.0,0.0
42.723,1.147,-0.758,0.0
35.626,0.968,-0.834,0.0
0.0,0.0,0.0,0.0
0.0,0.0,0.0,0.0
69.038,1.944,-0.504,4.0
0.0,0.0,0.0,0.0
0.0,0.0,0.0,0.0
33.492,0.973,-0.816,0.0
196.214,5.779,0.593,8.0
0.0,0.0,0.0,0.0
68.948,2.072,-0.571,3.0
0.0,0.0,0.0,0.0
39.545,1.211,-0.779,0.0
32.839,1.016,-0.833,1.0
0.0,0.0,0.0,0.0
0.0,0.0,0.0,0.0
0.0,0.0,0.0,0.0
0.0,0.0,0.0,0.0
38.469,1.249,-0.796,0.0
32.356,1.06,-0.853,1.0
0.0,0.0,0.0,0.0
0.0,0.0,0.0,0.0
0.0,0.0,0.0,0.0
0.0,0.0,0.0,0.0
36.201,1.241,-0.787,0.0
31.927,1.103,-0.875,0.0
0.0,0.0,0.0,0.0
0.0,0.0,0.0,0.0
0.0,0.0,0.0,0.0
0.0,0.0,0.0,0.0
35.774,1.29,-0.815,0.0
30.15,1.096,-0.859,1.0
0.0,0.0,0.0,0.0
68.975,2.552,-0.467,4.0
0.0,0.0,0.0,0.0
0.0,0.0,0.0,0.0
34.077,1.288,-0.814,0.0
29.739,1.132,-0.879,0.0
0.0,0.0,0.0,0.0
0.0,0.0,0.0,0.0
0.0,0.0,0.0,0.0
39.988,1.57,-0.773,0.0
32.93,1.302,-0.823,0.0
28.342,1.128,-0.87,0.0
0.0,0.0,0.0,0.0
0.0,0.0,0.0,0.0
0.0,0.0,0.0,0.0
38.299,1.57,-0.784,0.0
32.364,1.335,-0.846,0.0
0.0,0.0,0.0,0.0
0.0,0.0,0.0,0.0
0.0,0.0,0.0,0.0
42.846,1.817,-0.68,0.0
36.6,1.562,-0.792,0.0
30.2,1.297,-0.825,0.0
20.253,0.875,-0.669,27.0
69.034,3.007,-0.392,1.0
0.0,0.0,0.0,0.0
0.0,0.0,0.0,0.0
0.0,0.0,0.0,0.0
0.0,0.0,0.0,0.0
20.245,0.908,-0.693,151.0
69.012,3.12,-0.476,2.0
0.0,0.0,0.0,0.0
42.511,1.943,-0.777,1.0
33.892,1.558,-0.816,0.0
29.153,1.347,-0.868,0.0
20.265,0.941,-0.719,78.0
0.0,0.0,0.0,0.0
0.0,0.0,0.0,0.0
0.0,0.0,0.0,0.0
32.382,1.539,-0.819,0.0
28.298,1.352,-0.877,0.0
24.565,1.18,-0.902,0.0
0.0,0.0,0.0,0.0
44.597,2.168,-0.672,0.0
0.0,0.0,0.0,0.0
31.661,1.554,-0.841,0.0
27.159,1.34,-0.877,0.0
23.813,1.181,-0.904,0.0
0.0,0.0,0.0,0.0
0.0,0.0,0.0,0.0
36.594,1.844,-0.808,0.0
30.53,1.546,-0.851,0.0
25.987,1.322,-0.873,0.0
21.922,1.12,-0.861,0.0
52.004,2.675,-0.622,0.0
0.0,0.0,0.0,0.0
33.987,1.763,-0.794,0.0
29.129,1.518,-0.85,0.0
25.174,1.318,-0.878,0.0
21.823,1.147,-0.886,0.0
0.0,0.0,0.0,0.0
0.0,0.0,0.0,0.0
33.126,1.767,-0.818,1.0
28.41,1.522,-0.866,0.0
24.435,1.314,-0.885,0.0
21.791,1.177,-0.914,0.0
0.0,0.0,0.0,0.0
37.696,2.056,-0.766,0.0
32.051,1.755,-0.834,0.0
27.293,1.501,-0.869,0.0
23.73,1.31,-0.892,0.0
21.341,1.183,-0.924,0.0
0.0,0.0,0.0,0.0
0.0,0.0,0.0,0.0
30.666,1.723,-0.841,0.0
26.054,1.469,-0.866,0.0
21.897,1.24,-0.853,3.0
20.379,1.158,-0.91,0.0
41.653,2.379,-0.723,0.0
35.256,2.021,-0.813,0.0
30.034,1.728,-0.865,0.0
25.387,1.466,-0.879,1.0
21.836,1.266,-0.881,10.0
19.631,1.142,-0.904,0.0
38.872,2.272,-0.729,0.0
33.113,1.942,-0.81,1.0
28.383,1.67,-0.857,0.0
24.485,1.446,-0.882,0.0
21.8,1.292,-0.91,7.0
19.452,1.157,-0.924,0.0
37.77,2.256,-0.761,0.0
31.945,1.915,-0.826,1.0
27.439,1.65,-0.867,0.0
23.618,1.425,-0.884,0.0
21.756,1.317,-0.939,0.0
0.0,0.0,0.0,0.0
35.566,2.169,-0.768,0.0
30.697,1.878,-0.838,0.0
26.039,1.598,-0.86,0.0
21.914,1.349,-0.851,4.0
20.316,1.255,-0.906,0.0
0.0,0.0,0.0,0.0
0.0,0.0,0.0,0.0
29.387,1.833,-0.844,0.0
25.495,1.595,-0.879,0.0
21.829,1.37,-0.88,8.0
19.648,1.237,-0.905,0.0
0.0,0.0,0.0,0.0
32.825,2.081,-0.803,1.0
28.44,1.808,-0.859,0.0
24.411,1.556,-0.877,0.0
21.806,1.394,-0.911,4.0
19.37,1.242,-0.92,0.0
0.0,0.0,0.0,0.0
31.99,2.065,-0.83,0.0
27.238,1.763,-0.863,0.0
21.945,1.424,-0.821,0.0
21.723,1.414,-0.94,0.0
0.0,0.0,0.0,0.0
17.013,1.113,-0.932,0.0
30.328,1.991,-0.832,2.0
26.05,1.714,-0.864,0.0
21.893,1.444,-0.851,3.0
0.0,0.0,0.0,0.0
18.086,1.2,-0.913,0.0
16.568,1.102,-0.932,0.0
29.327,1.956,-0.848,0.0
25.075,1.677,-0.869,0.0
21.818,1.463,-0.882,3.0
19.516,1.312,-0.903,0.0
17.716,1.194,-0.921,0.0
16.145,1.091,-0.932,0.0
28.09,1.903,-0.855,0.0
24.258,1.647,-0.877,0.0
21.765,1.481,-0.912,0.0
19.188,1.309,-0.916,0.0
17.207,1.177,-0.921,0.0
15.786,1.082,-0.936,0.0
26.921,1.85,-0.86,0.0
23.449,1.615,-0.883,0.0
20.705,1.429,-0.899,0.0
0.0,0.0,0.0,0.0
16.734,1.16,-0.921,0.0
15.279,1.062,-0.929,0.0
25.886,1.803,-0.865,0.0
21.852,1.525,-0.856,0.0
0.0,0.0,0.0,0.0
17.936,1.257,-0.91,0.0
16.388,1.151,-0.926,0.0
14.983,1.055,-0.933,0.0
24.938,1.759,-0.871,0.0
21.793,1.54,-0.887,2.0
19.494,1.381,-0.905,0.0
17.453,1.239,-0.913,0.0
16.049,1.141,-0.932,0.0
14.726,1.05,-0.94,0.0
23.746,1.695,-0.866,0.0
21.576,1.543,-0.911,0.0
19.424,1.392,-0.931,0.0
17.092,1.228,-0.92,0.0
15.599,1.122,-0.93,0.0
14.522,1.047,-0.949,0.0
23.37,1.688,-0.888,0.0
20.813,1.506,-0.911,0.0
0.0,0.0,0.0,0.0
16.669,1.21,-0.923,0.0
15.219,1.107,-0.93,0.0
13.925,1.015,-0.932,0.0
21.817,1.592,-0.863,1.0
19.73,1.443,-0.894,0.0
0.0,0.0,0.0,0.0
16.199,1.189,-0.922,0.0
14.894,1.095,-0.934,0.0
13.702,1.009,-0.938,0.0
21.769,1.605,-0.894,1.0
19.403,1.433,-0.909,0.0
17.284,1.278,-0.909,0.0
15.83,1.173,-0.926,0.0
14.625,1.086,-0.94,0.0
13.419,0.998,-0.94,0.0
21.155,1.574,-0.902,0.0
0.0,0.0,0.0,0.0
16.977,1.267,-0.919,0.0
15.428,1.154,-0.926,0.0
14.331,1.073,-0.943,0.0
13.223,0.992,-0.946,0.0
20.204,1.516,-0.892,0.0
0.0,0.0,0.0,0.0
16.539,1.245,-0.921,0.0
15.086,1.137,-0.929,0.0
0.0,0.0,0.0,0.0
12.921,0.977,-0.945,0.0
19.627,1.485,-0.897,0.0
17.708,1.342,-0.911,0.0
16.088,1.221,-0.921,0.0
14.787,1.124,-0.933,0.0
13.671,1.04,-0.942,0.0
12.58,0.959,-0.939,0.0
19.311,1.472,-0.913,0.0
17.24,1.316,-0.914,0.0
15.761,1.204,-0.926,0.0
14.482,1.108,-0.936,0.0
13.381,1.026,-0.942,0.0
12.388,0.951,-0.944,0.0
18.575,1.425,-0.906,0.0
16.864,1.296,-0.92,0.0
15.345,1.181,-0.925,0.0
14.231,1.096,-0.942,0.0
13.004,1.003,-0.936,0.0
12.111,0.935,-0.942,0.0
18.37,1.418,-0.924,0.0
16.364,1.265,-0.918,0.0
15.001,1.161,-0.928,0.0
13.919,1.079,-0.943,0.0
12.833,0.996,-0.943,0.0
11.882,0.923,-0.942,0.0
17.585,1.365,-0.911,0.0
16.035,1.246,-0.924,0.0
14.68,1.142,-0.93,0.0
13.569,1.057,-0.939,0.0
12.571,0.98,-0.943,0.0
11.666,0.911,-0.943,0.0
17.119,1.336,-0.913,0.0
15.664,1.223,-0.926,0.0
14.476,1.132,-0.939,0.0
13.334,1.044,-0.944,0.0
12.328,0.966,-0.944,0.0
11.436,0.897,-0.942,0.0
16.698,1.309,-0.916,0.0
15.245,1.196,-0.924,0.0
14.155,1.112,-0.94,0.0
12.928,1.016,-0.934,0.0
12.066,0.949,-0.942,0.0
11.277,0.888,-0.946,0.0
16.325,1.284,-0.92,0.0
14.917,1.175,-0.927,0.0
13.843,1.091,-0.94,0.0
12.73,1.004,-0.939,0.0
11.819,0.933,-0.94,0.0
11.049,0.873,-0.943,0.0
15.915,1.256,-0.921,0.0
14.618,1.155,-0.93,0.0
13.432,1.062,-0.932,0.0
12.468,0.987,-0.939,0.0
11.624,0.921,-0.942,0.0
10.978,0.87,-0.954,0.0
15.604,1.235,-0.926,0.0
14.363,1.138,-0.935,0.0
13.283,1.053,-0.942,0.0
12.252,0.972,-0.94,0.0
11.431,0.907,-0.944,0.0
10.676,0.848,-0.943,0.0
15.174,1.204,-0.923,0.0
14.113,1.12,-0.94,0.0
12.964,1.03,-0.938,0.0
12.022,0.955,-0.941,0.0
11.269,0.896,-0.947,0.0
10.483,0.834,-0.942,0.0
14.902,1.184,-0.928,0.0
13.759,1.094,-0.936,0.0
12.707,1.011,-0.938,0.0
11.787,0.938,-0.939,0.0
11.051,0.88,-0.945,0.0
10.374,0.827,-0.947,0.0
14.577,1.159,-0.928,0.0
13.473,1.072,-0.936,0.0
12.472,0.993,-0.938,0.0
11.612,0.925,-0.942,0.0
10.897,0.869,-0.947,0.0
10.192,0.813,-0.945,0.0
14.414,1.147,-0.939,0.0
13.286,1.058,-0.942,0.0
12.249,0.976,-0.939,0.0
11.384,0.907,-0.94,0.0
10.688,0.852,-0.944,0.0
10.035,0.801,-0.945,0.0
14.212,1.131,-0.946,0.0
12.985,1.034,-0.939,0.0
12.005,0.956,-0.938,0.0
11.212,0.893,-0.942,0.0
10.499,0.837,-0.943,0.0
9.887,0.789,-0.945,0.0
13.739,1.093,-0.934,0.0
12.71,1.011,-0.937,0.0
11.784,0.938,-0.937,0.0
11.056,0.88,-0.944,0.0
10.358,0.825,-0.945,0.0
9.748,0.777,-0.946,0.0
13.516,1.074,-0.937,0.0
12.499,0.993,-0.939,0.0
11.593,0.922,-0.938,0.0
0.0,0.0,0.0,0.0
10.199,0.811,-0.944,0.0
9.588,0.763,-0.943,0.0
13.289,1.054,-0.94,0.0
12.255,0.972,-0.937,0.0
11.385,0.904,-0.936,0.0
10.621,0.843,-0.936,0.0
10.042,0.797,-0.943,0.0
9.462,0.752,-0.944,0.0
12.987,1.028,-0.936,0.0
12.044,0.954,-0.937,0.0
11.251,0.891,-0.941,0.0
10.451,0.828,-0.935,0.0
9.876,0.782,-0.941,0.0
9.316,0.738,-0.942,0.0
12.787,1.01,-0.938,0.0
11.823,0.934,-0.936,0.0
11.096,0.876,-0.942,0.0
10.363,0.819,-0.941,0.0
9.758,0.771,-0.943,0.0
9.192,0.726,-0.941,0.0
12.558,0.989,-0.938,0.0
11.647,0.917,-0.937,0.0
10.994,0.866,-0.948,0.0
10.242,0.806,-0.943,0.0
9.631,0.758,-0.943,0.0
9.112,0.718,-0.945,0.0
12.34,0.968,-0.937,0.0
11.486,0.901,-0.938,0.0
10.779,0.846,-0.943,0.0
10.09,0.791,-0.942,0.0
9.513,0.746,-0.943,0.0
8.987,0.705,-0.943,0.0
12.14,0.949,-0.937,0.0
11.336,0.885,-0.94,0.0
10.564,0.825,-0.937,0.0
9.932,0.776,-0.94,0.0
9.4,0.734,-0.944,0.0
8.913,0.696,-0.947,0.0
11.916,0.927,-0.934,0.0
11.164,0.868,-0.94,0.0
10.466,0.813,-0.941,0.0
9.838,0.765,-0.943,0.0
9.276,0.721,-0.943,0.0
8.781,0.682,-0.943,0.0
11.754,0.909,-0.936,0.0
11.018,0.852,-0.941,0.0
10.326,0.798,-0.941,0.0
9.679,0.748,-0.939,0.0
9.18,0.71,-0.944,0.0
8.698,0.672,-0.945,0.0
11.554,0.889,-0.934,0.0
10.873,0.836,-0.941,0.0
10.199,0.784,-0.942,0.0
9.58,0.736,-0.941,0.0
9.099,0.699,-0.946,0.0
8.602,0.661,-0.945,0.0
11.441,0.875,-0.938,0.0
10.604,0.81,-0.93,0.0
10.057,0.768,-0.94,0.0
9.469,0.723,-0.941,0.0
8.968,0.685,-0.943,0.0
8.506,0.649,-0.944,0.0
11.326,0.86,-0.941,0.0
10.534,0.8,-0.936,0.0
9.953,0.755,-0.942,0.0
9.375,0.711,-0.942,0.0
8.87,0.672,-0.943,0.0
8.429,0.639,-0.945,0.0
11.157,0.842,-0.939,0.0
10.451,0.788,-0.94,0.0
9.827,0.74,-0.94,0.0
9.323,0.702,-0.947,0.0
8.795,0.662,-0.944,0.0
8.338,0.627,-0.943,0.0
11.019,0.825,-0.939,0.0
10.373,0.776,-0.944,0.0
9.734,0.728,-0.942,0.0
9.177,0.685,-0.942,0.0
8.691,0.649,-0.942,0.0
8.273,0.617,-0.945,0.0
10.977,0.815,-0.947,0.0
10.226,0.759,-0.941,0.0
9.613,0.713,-0.94,0.0
9.09,0.673,-0.942,0.0
8.627,0.639,-0.944,0.0
8.199,0.606,-0.945,0.0
10.757,0.792,-0.939,0.0
10.085,0.742,-0.938,0.0
9.548,0.702,-0.943,0.0
8.984,0.66,-0.94,0.0
8.54,0.626,-0.943,0.0
8.125,0.596,-0.944,0.0
10.577,0.771,-0.933,0.0
10.038,0.731,-0.943,0.0
9.452,0.688,-0.942,0.0
8.935,0.65,-0.943,0.0
8.463,0.615,-0.942,0.0
8.04,0.584,-0.942,0.0
10.495,0.758,-0.935,0.0
9.938,0.717,-0.943,1.0
9.378,0.676,-0.944,0.0
8.835,0.636,-0.941,0.0
8.396,0.604,-0.943,0.0
7.989,0.574,-0.943,0.0
10.447,0.747,-0.941,0.0
9.846,0.703,-0.943,0.0
9.298,0.663,-0.944,0.0
8.763,0.624,-0.941,0.0
8.344,0.594,-0.944,0.0
7.956,0.566,-0.946,0.0
10.333,0.731,-0.939,0.0
9.766,0.69,-0.944,0.0
9.184,0.648,-0.94,0.0
8.683,0.612,-0.94,0.0
8.27,0.582,-0.943,0.0
7.881,0.554,-0.944,0.0
10.305,0.72,-0.945,0.0
9.664,0.675,-0.942,0.0
9.126,0.636,-0.942,0.0
8.63,0.601,-0.941,0.0
8.204,0.571,-0.942,0.0
7.841,0.545,-0.945,0.0
10.197,0.704,-0.943,0.0
9.579,0.661,-0.941,0.0
9.056,0.624,-0.942,0.0
8.543,0.588,-0.938,0.0
8.175,0.562,-0.945,0.0
7.788,0.534,-0.945,0.0
10.125,0.691,-0.944,0.0
9.521,0.648,-0.942,0.0
9.016,0.613,-0.944,0.0
8.478,0.576,-0.937,0.0
8.111,0.55,-0.944,0.0
7.76,0.526,-0.948,0.0
10.028,0.675,-0.943,0.0
9.438,0.634,-0.941,0.0
8.923,0.599,-0.941,0.0
8.457,0.567,-0.941,0.0
8.047,0.538,-0.942,0.0
7.693,0.514,-0.945,0.0
9.964,0.662,-0.943,0.0
9.392,0.623,-0.943,0.0
8.865,0.587,-0.941,0.0
8.445,0.558,-0.945,0.0
8.023,0.529,-0.944,0.0
7.646,0.504,-0.944,0.0
9.904,0.648,-0.944,0.0
9.338,0.61,-0.943,0.0
8.773,0.572,-0.936,0.0
8.355,0.544,-0.941,0.0
8.008,0.521,-0.948,0.0
7.616,0.494,-0.945,0.0
9.836,0.634,-0.943,0.0
9.282,0.598,-0.943,0.0
8.732,0.561,-0.937,0.0
8.33,0.534,-0.943,0.0
7.942,0.509,-0.944,0.0
7.598,0.486,-0.947,0.0
9.762,0.62,-0.942,0.0
9.22,0.584,-0.942,0.0
8.711,0.551,-0.94,0.0
8.271,0.522,-0.941,0.0
7.894,0.497,-0.943,0.0
7.552,0.475,-0.945,0.0
9.706,0.607,-0.941,0.0
9.188,0.573,-0.944,0.0
8.683,0.54,-0.941,0.0
8.251,0.512,-0.942,0.0
7.829,0.485,-0.939,0.0
7.508,0.465,-0.944,0.0
9.679,0.595,-0.943,0.0
9.096,0.558,-0.938,0.0
8.636,0.529,-0.94,0.0
8.193,0.5,-0.94,0.0
7.865,0.479,-0.947,0.0
7.491,0.456,-0.945,0.0
9.607,0.58,-0.941,0.0
9.123,0.55,-0.945,0.0
8.61,0.518,-0.941,0.0
8.17,0.49,-0.94,0.0
7.831,0.469,-0.946,0.0
7.496,0.448,-0.949,0.0
9.587,0.569,-0.942,0.0
9.071,0.537,-0.943,0.0
8.567,0.506,-0.94,0.0
8.158,0.481,-0.942,0.0
7.792,0.458,-0.944,0.0
7.495,0.44,-0.951,0.0
9.548,0.556,-0.942,0.0
9.005,0.523,-0.939,0.0
8.541,0.495,-0.94,0.0
8.089,0.468,-0.937,0.0
7.77,0.448,-0.944,0.0
7.424,0.427,-0.945,0.0
9.494,0.543,-0.94,0.0
8.983,0.512,-0.94,0.0
8.508,0.484,-0.939,0.0
8.134,0.461,-0.944,0.0
7.75,0.438,-0.944,0.0
7.456,0.421,-0.951,0.0
9.495,0.532,-0.942,0.0
8.954,0.5,-0.939,0.0
8.505,0.474,-0.94,0.0
8.095,0.45,-0.942,0.0
7.736,0.429,-0.944,0.0
7.433,0.411,-0.95,0.0
9.472,0.52,-0.942,0.0
8.93,0.489,-0.939,0.0
8.496,0.464,-0.941,0.0
8.093,0.44,-0.943,0.0
7.733,0.42,-0.945,0.0
7.399,0.4,-0.947,0.0
9.464,0.508,-0.943,0.0
8.947,0.479,-0.942,0.0
8.484,0.453,-0.941,0.0
8.107,0.432,-0.946,0.0
7.722,0.41,-0.945,0.0
7.405,0.392,-0.948,0.0
9.454,0.497,-0.943,0.0
8.914,0.467,-0.94,0.0
8.45,0.441,-0.938,0.0
8.067,0.42,-0.942,0.0
7.738,0.402,-0.948,0.0
7.388,0.382,-0.947,0.0
9.461,0.486,-0.945,0.0
8.928,0.457,-0.942,0.0
8.48,0.433,-0.942,0.0
8.039,0.409,-0.94,0.0
7.712,0.391,-0.945,0.0
7.401,0.374,-0.949,0.0
9.434,0.473,-0.943,0.0
8.935,0.447,-0.943,0.0
8.476,0.422,-0.942,0.0
8.064,0.4,-0.943,0.0
7.702,0.381,-0.944,0.0
7.41,0.366,-0.95,0.0
9.467,0.464,-0.946,0.0
8.881,0.433,-0.937,0.0
8.459,0.411,-0.94,0.0
8.015,0.388,-0.937,0.0
7.73,0.373,-0.947,0.0
7.398,0.356,-0.949,0.0
9.45,0.451,-0.944,0.0
8.92,0.424,-0.941,0.0
8.482,0.402,-0.942,0.0
8.061,0.381,-0.942,0.0
7.727,0.364,-0.946,0.0
7.419,0.348,-0.951,0.0
9.44,0.439,-0.942,0.0
8.916,0.413,-0.94,0.0
8.474,0.391,-0.941,0.0
8.079,0.372,-0.943,0.0
7.752,0.355,-0.949,0.0
7.422,0.339,-0.95,0.0
9.451,0.428,-0.942,0.0
8.947,0.404,-0.941,0.0
8.493,0.382,-0.941,0.0
8.053,0.36,-0.939,0.0
7.76,0.346,-0.948,0.0
7.444,0.331,-0.952,0.0
9.465,0.417,-0.941,0.0
8.963,0.393,-0.942,0.0
8.524,0.372,-0.943,0.0
8.11,0.353,-0.944,0.0
7.743,0.335,-0.944,0.0
7.42,0.32,-0.947,0.0
9.515,0.407,-0.944,0.0
8.976,0.383,-0.941,0.0
8.535,0.362,-0.942,0.0
8.118,0.343,-0.943,0.0
7.775,0.327,-0.946,0.0
7.455,0.312,-0.949,0.0
9.531,0.396,-0.943,0.0
9.012,0.373,-0.942,0.0
8.552,0.352,-0.942,0.0
8.103,0.332,-0.938,0.0
7.816,0.319,-0.949,0.0
7.46,0.303,-0.948,0.0
9.585,0.387,-0.946,0.0
9.002,0.361,-0.938,0.0
8.589,0.343,-0.943,0.0
8.116,0.323,-0.937,0.0
7.813,0.309,-0.946,0.0
7.497,0.295,-0.95,0.0
9.6,0.375,-0.944,0.0
9.058,0.352,-0.941,0.0
8.585,0.332,-0.939,0.0
8.178,0.315,-0.941,0.0
7.828,0.3,-0.945,0.0
7.506,0.286,-0.948,0.0
9.625,0.364,-0.942,0.0
9.14,0.344,-0.945,0.0
8.636,0.323,-0.941,0.0
8.225,0.306,-0.943,0.0
7.86,0.291,-0.945,0.0
7.516,0.277,-0.946,0.0
9.684,0.354,-0.943,0.0
9.149,0.333,-0.942,0.0
8.689,0.314,-0.943,0.0
8.246,0.297,-0.941,0.0
7.908,0.283,-0.947,0.0
7.566,0.269,-0.948,0.0
9.757,0.345,-0.946,0.0
9.196,0.323,-0.942,0.0
8.698,0.304,-0.939,0.0
8.294,0.288,-0.943,0.0
7.911,0.273,-0.943,0.0
7.609,0.261,-0.949,0.0
9.797,0.334,-0.944,0.0
9.264,0.314,-0.944,0.0
8.761,0.295,-0.941,0.0
8.33,0.279,-0.942,0.0
7.967,0.265,-0.945,0.0
7.639,0.253,-0.949,0.0
9.857,0.324,-0.944,0.0
9.316,0.304,-0.944,0.0
8.793,0.285,-0.939,0.0
8.401,0.271,-0.945,0.0
7.999,0.256,-0.944,0.0
7.646,0.243,-0.945,0.0
9.924,0.313,-0.944,0.0
9.34,0.293,-0.94,0.0
8.889,0.277,-0.944,0.0
8.396,0.26,-0.939,0.0
8.035,0.247,-0.943,0.0
7.687,0.235,-0.945,0.0
9.985,0.303,-0.944,0.0
9.414,0.284,-0.941,0.0
8.925,0.267,-0.941,0.0
8.47,0.252,-0.941,0.0
8.088,0.239,-0.943,0.0
7.746,0.227,-0.946,0.0
10.053,0.293,-0.943,0.0
9.526,0.276,-0.945,0.0
9.001,0.259,-0.943,0.0
8.529,0.243,-0.941,0.0
8.151,0.231,-0.944,0.0
7.785,0.219,-0.945,0.0
10.176,0.284,-0.947,0.0
9.571,0.265,-0.943,0.0
9.067,0.249,-0.943,0.0
8.622,0.235,-0.945,0.0
8.191,0.222,-0.943,0.0
7.847,0.211,-0.946,0.0
10.249,0.274,-0.945,0.0
9.687,0.257,-0.946,0.0
9.162,0.241,-0.945,0.0
8.683,0.226,-0.944,0.0
8.279,0.214,-0.946,0.0
7.879,0.202,-0.943,0.0
10.337,0.264,-0.944,0.0
9.767,0.247,-0.946,0.0
9.229,0.232,-0.944,0.0
8.749,0.218,-0.944,0.0
8.314,0.205,-0.942,0.0
7.96,0.195,-0.946,0.0
10.456,0.254,-0.946,0.0
9.872,0.238,-0.947,0.0
9.313,0.223,-0.944,0.0
8.822,0.209,-0.943,0.0
8.394,0.197,-0.944,0.0
7.991,0.186,-0.942,0.0
10.54,0.244,-0.944,0.0
9.953,0.228,-0.945,0.0
9.43,0.214,-0.947,0.0
8.871,0.2,-0.94,0.0
8.495,0.189,-0.947,0.0
8.1,0.179,-0.947,0.0
10.644,0.234,-0.942,0.0
10.065,0.219,-0.946,0.0
9.502,0.205,-0.945,0.0
9.012,0.192,-0.946,0.0
8.565,0.181,-0.946,0.0
8.145,0.171,-0.944,0.0
10.808,0.225,-0.946,0.0
10.185,0.21,-0.947,0.0
9.616,0.196,-0.946,0.0
9.096,0.184,-0.945,0.0
8.607,0.172,-0.941,0.0
8.272,0.164,-0.95,0.0
10.992,0.216,-0.95,0.0
10.304,0.201,-0.947,0.0
9.74,0.188,-0.947,0.0
9.215,0.175,-0.947,0.0
8.723,0.164,-0.944,0.0
8.316,0.155,-0.946,0.0
11.077,0.205,-0.945,0.0
10.423,0.191,-0.946,0.0
9.862,0.179,-0.948,0.0
9.281,0.166,-0.944,0.0
8.788,0.156,-0.941,0.0
8.408,0.147,-0.946,0.0
11.239,0.196,-0.946,0.0
10.586,0.182,-0.948,0.0
9.977,0.17,-0.948,0.0
9.441,0.159,-0.949,0.0
8.934,0.149,-0.946,0.0
8.498,0.14,-0.946,0.0
11.363,0.186,-0.943,0.0
10.679,0.172,-0.944,0.0
10.081,0.161,-0.946,0.0
9.543,0.15,-0.948,0.0
9.018,0.14,-0.944,0.0
8.585,0.132,-0.946,0.0
11.557,0.176,-0.945,0.0
10.834,0.163,-0.944,0.0
10.233,0.152,-0.947,0.0
9.655,0.142,-0.947,0.0
9.165,0.133,-0.948,0.0
8.687,0.124,-0.946,0.0
11.765,0.167,-0.947,0.0
11.154,0.156,-0.958,0.0
10.381,0.143,-0.948,0.0
9.812,0.134,-0.949,0.0
9.294,0.125,-0.949,0.0
8.776,0.116,-0.944,0.0
11.983,0.158,-0.949,0.0
11.163,0.145,-0.944,0.0
10.562,0.135,-0.95,0.0
9.947,0.125,-0.949,0.0
9.459,0.117,-0.953,0.0
8.885,0.108,-0.943,0.0
12.167,0.148,-0.948,0.0
11.354,0.136,-0.945,0.0
10.695,0.126,-0.947,0.0
10.076,0.117,-0.948,0.0
9.568,0.109,-0.951,0.0
8.999,0.101,-0.943,0.0
12.442,0.139,-0.952,0.0
11.549,0.127,-0.945,0.0
20.418,0.22,-1.781,0.0
10.245,0.109,-0.949,0.0
9.704,0.101,-0.951,0.0
9.157,0.094,-0.947,0.0
12.648,0.129,-0.95,0.0
11.771,0.118,-0.947,0.0
11.128,0.109,-0.955,0.0
10.351,0.1,-0.944,0.0
9.84,0.093,-0.95,0.0
9.324,0.086,-0.95,0.0
12.91,0.119,-0.951,0.0
11.992,0.109,-0.947,0.0
11.255,0.1,-0.949,0.0
10.608,0.092,-0.952,0.0
10.019,0.085,-0.953,0.0
9.444,0.079,-0.949,0.0
13.2,0.11,-0.953,0.0
12.274,0.1,-0.951,0.0
11.445,0.091,-0.948,1.0
10.679,0.083,-0.943,0.0
10.136,0.077,-0.949,0.0
9.59,0.071,-0.949,0.0
13.387,0.1,-0.947,0.0
12.52,0.091,-0.952,0.0
11.498,0.082,-0.935,0.0
20.204,0.14,-1.753,0.0
10.325,0.07,-0.951,0.0
9.795,0.064,-0.954,0.0
20.224,0.133,-1.399,0.0
12.75,0.082,-0.949,0.0
11.907,0.074,-0.95,0.0
11.165,0.068,-0.951,0.0
10.486,0.062,-0.949,0.0
9.932,0.057,-0.951,0.0
13.957,0.08,-0.943,0.0
13.08,0.073,-0.953,0.0
12.197,0.066,-0.953,0.0
11.385,0.059,-0.951,0.0
10.722,0.054,-0.953,0.0
10.099,0.049,-0.951,0.0
14.384,0.071,-0.949,0.0
13.36,0.063,-0.952,0.0
12.461,0.057,-0.954,0.0
11.623,0.051,-0.952,0.0
20.128,0.086,-1.756,0.0
10.324,0.042,-0.955,0.0
14.743,0.061,-0.948,0.0
13.617,0.054,-0.948,0.0
12.758,0.048,-0.955,0.0
11.9,0.043,-0.955,0.0
11.147,0.039,-0.954,0.0
10.484,0.035,-0.953,0.0
15.073,0.051,-0.945,0.0
14.114,0.045,-0.959,0.0
13.032,0.04,-0.954,0.0
12.116,0.035,-0.952,0.0
11.409,0.031,-0.957,0.0
10.717,0.028,-0.955,0.0
15.488,0.041,-0.944,0.0
14.383,0.035,-0.952,0.0
13.301,0.031,-0.951,0.0
12.406,0.027,-0.953,0.0
11.605,0.024,-0.953,0.0
20.224,0.038,-1.768,0.0
15.933,0.03,-0.944,0.0
14.746,0.026,-0.951,0.0
20.272,0.033,-1.414,0.0
12.704,0.019,-0.954,0.0
11.883,0.016,-0.955,0.0
16.379,0.02,-0.941,0.0
15.092,0.017,-0.947,0.0
13.049,0.011,-0.957,0.0
12.176,0.008,-0.957,0.0
11.352,0.006,-0.952,0.0
16.817,0.01,-0.936,0.0
15.543,0.007,-0.947,0.0
12.487,0.001,-0.958,0.0
11.611,0.0,-0.952,0.0
16.087,-0.001,-0.951,0.0
14.757,-0.003,-0.949,0.0
12.719,-0.006,-0.953,0.0
11.904,-0.007,-0.954,0.0
16.501,-0.011,-0.945,0.0
15.187,-0.012,-0.949,0.0
13.134,-0.013,-0.96,0.0
12.208,-0.014,-0.956,0.0
15.608,-0.02,-0.947,0.0
12.523,-0.02,-0.957,0.0
16.169,-0.029,-0.95,0.0
14.832,-0.028,-0.95,0.0
12.858,-0.027,-0.958,0.0
16.606,-0.038,-0.944,0.0
15.272,-0.036,-0.949,0.0
13.208,-0.034,-0.959,0.0
16.314,-0.052,-0.951,0.0
15.023,-0.049,-0.954,0.0
20.278,-0.069,-0.929,60.0
16.757,-0.059,-0.943,0.0
15.454,-0.056,-0.95,0.0
23.492,-0.086,-0.908,0.0
14.758,-0.059,-0.955,0.0
24.82,-0.098,-0.91,0.0
16.558,-0.07,-0.951,0.0
15.211,-0.065,-0.953,0.0
26.178,-0.111,-0.906,0.0
22.957,-0.099,-0.914,0.0
20.278,-0.088,-0.912,78.0
15.711,-0.071,-0.952,0.0
28.049,-0.125,-0.914,13.0
24.228,-0.109,-0.915,0.0
16.307,-0.077,-0.955,0.0
28.1,-0.131,-0.859,2.0
25.388,-0.12,-0.907,0.0
22.641,-0.108,-0.925,0.0
20.266,-0.097,-0.935,46.0
16.773,-0.082,-0.948,0.0
20.201,-0.097,-0.576,2.0
28.042,-0.136,-0.944,3.0
23.48,-0.115,-0.912,0.0
20.242,-0.1,-0.893,16.0
20.209,-0.1,-0.535,24.0
28.082,-0.14,-0.888,17.0
24.785,-0.124,-0.912,0.0
20.185,-0.101,-0.492,31.0
29.566,-0.149,-0.874,2.0
22.737,-0.116,-0.909,2.0
20.284,-0.104,-0.916,63.0
20.164,-0.102,-0.45,37.0
20.187,-0.103,-0.554,17.0
28.053,-0.143,-0.916,13.0
24.382,-0.125,-0.924,0.0
20.167,-0.102,-0.408,43.0
20.197,-0.103,-0.513,26.0
0.0,0.0,0.0,0.0
25.297,-0.129,-0.906,0.0
22.62,-0.116,-0.927,2.0
20.277,-0.104,-0.935,50.0
20.152,-0.102,-0.366,37.0
20.165,-0.102,-0.47,30.0
20.198,-0.102,-0.575,8.0
28.029,-0.142,-0.945,3.0
23.643,-0.12,-0.919,0.0
20.142,-0.1,-0.323,41.0
20.163,-0.1,-0.427,37.0
20.188,-0.1,-0.532,24.0
28.086,-0.14,-0.887,12.0
24.764,-0.123,-0.91,0.0
20.139,-0.098,-0.281,39.0
20.147,-0.098,-0.385,33.0
20.172,-0.098,-0.489,29.0
20.185,-0.098,-0.595,1.0
22.998,-0.111,-0.915,0.0
20.142,-0.095,-0.239,33.0
20.149,-0.095,-0.342,36.0
20.162,-0.095,-0.446,32.0
20.171,-0.094,-0.552,11.0
28.026,-0.131,-0.912,19.0
24.273,-0.113,-0.915,0.0
20.148,-0.092,-0.196,28.0
20.139,-0.091,-0.3,37.0
20.162,-0.091,-0.404,33.0
20.203,-0.091,-0.51,24.0
29.393,-0.131,-0.894,1.0
20.144,-0.087,-0.154,38.0
20.13,-0.087,-0.257,36.0
20.145,-0.086,-0.361,27.0
20.161,-0.086,-0.467,29.0
20.192,-0.085,-0.571,0.0
28.028,-0.117,-0.938,4.0
20.144,-0.082,-0.111,31.0
20.169,-0.082,-0.215,25.0
20.137,-0.081,-0.318,32.0
20.151,-0.08,-0.424,29.0
20.194,-0.079,-0.529,7.0
28.062,-0.109,-0.879,5.0
20.146,-0.076,-0.068,32.0
20.148,-0.075,-0.172,37.0
20.126,-0.074,-0.275,32.0
20.129,-0.073,-0.381,20.0
20.163,-0.073,-0.485,15.0
58.421,-0.208,-1.707,3.0
20.132,-0.07,-0.025,32.0
20.14,-0.069,-0.129,34.0
20.147,-0.068,-0.233,19.0
20.157,-0.067,-0.339,26.0
20.178,-0.065,-0.443,25.0
33.093,-0.106,-0.898,5.0
20.125,-0.062,0.015,39.0
20.145,-0.061,-0.087,35.0
20.152,-0.06,-0.191,29.0
20.147,-0.059,-0.297,27.0
20.18,-0.057,-0.401,22.0
20.186,-0.056,-0.505,0.0
20.151,-0.054,0.058,47.0
20.136,-0.053,-0.045,31.0
20.143,-0.051,-0.148,30.0
20.149,-0.05,-0.254,24.0
20.167,-0.049,-0.358,19.0
20.176,-0.047,-0.462,1.0
20.125,-0.045,0.1,43.0
20.124,-0.044,-0.002,36.0
20.14,-0.042,-0.106,33.0
20.131,-0.041,-0.211,16.0
20.165,-0.039,-0.316,25.0
20.198,-0.038,-0.421,2.0
20.119,-0.036,0.142,35.0
20.142,-0.034,0.039,41.0
20.133,-0.032,-0.064,29.0
20.149,-0.031,-0.17,29.0
20.179,-0.029,-0.274,24.0
20.19,-0.027,-0.379,1.0
20.116,-0.025,0.184,37.0
20.134,-0.024,0.08,40.0
20.122,-0.022,-0.022,29.0
20.178,-0.02,-0.128,31.0
20.168,-0.018,-0.232,4.0
20.174,-0.016,-0.336,1.0
20.117,-0.014,0.226,28.0
20.121,-0.012,0.122,30.0
20.134,-0.01,0.018,18.0
20.158,-0.008,-0.087,16.0
20.18,-0.006,-0.191,9.0
20.205,-0.004,-0.295,2.0
20.121,-0.002,0.267,27.0
20.116,0.0,0.164,29.0
20.144,0.001,0.06,29.0
20.249,0.003,-0.045,36.0
20.252,0.005,-0.15,46.0
20.27,0.007,-0.254,55.0
20.133,0.009,0.309,28.0
20.12,0.012,0.205,27.0
20.142,0.014,0.101,30.0
20.255,0.016,-0.004,151.0
20.264,0.018,-0.108,151.0
20.255,0.021,-0.213,151.0
20.138,0.023,0.35,26.0
20.129,0.025,0.246,27.0
20.128,0.027,0.142,26.0
20.212,0.03,0.037,33.0
20.257,0.032,-0.067,150.0
20.263,0.035,-0.172,150.0
20.14,0.037,0.391,28.0
20.132,0.039,0.287,29.0
20.134,0.042,0.184,27.0
20.147,0.044,0.078,26.0
20.235,0.047,-0.026,7.0
20.232,0.05,-0.13,24.0
20.146,0.052,0.432,30.0
20.139,0.054,0.328,28.0
20.137,0.057,0.224,28.0
20.14,0.059,0.118,26.0
20.209,0.062,0.014,28.0
20.212,0.065,-0.089,30.0
20.157,0.067,0.473,28.0
20.149,0.07,0.369,27.0
20.141,0.073,0.265,25.0
20.143,0.075,0.159,28.0
20.203,0.078,0.055,35.0
20.195,0.081,-0.049,29.0
20.176,0.084,0.514,25.0
20.153,0.086,0.409,28.0
20.152,0.089,0.305,26.0
20.148,0.092,0.199,27.0
20.176,0.095,0.094,26.0
20.186,0.098,-0.009,29.0
20.191,0.101,0.555,25.0
20.154,0.103,0.449,28.0
20.154,0.106,0.345,28.0
20.145,0.109,0.238,27.0
20.164,0.112,0.134,25.0
20.181,0.116,0.029,39.0
20.196,0.118,0.594,15.0
20.161,0.121,0.489,20.0
20.162,0.124,0.384,26.0
20.153,0.127,0.277,28.0
20.174,0.13,0.173,26.0
20.2,0.134,0.069,33.0
20.241,0.137,0.635,3.0
20.179,0.139,0.528,19.0
20.167,0.143,0.423,25.0
20.167,0.146,0.316,24.0
20.182,0.149,0.212,22.0
20.191,0.153,0.108,26.0
117.6,0.907,3.919,26.0
20.205,0.159,0.568,14.0
20.165,0.162,0.462,18.0
20.188,0.165,0.355,23.0
20.236,0.169,0.251,25.0
20.261,0.173,0.146,25.0
126.426,1.096,4.451,25.0
20.277,0.179,0.608,13.0
20.268,0.182,0.502,28.0
20.274,0.186,0.395,27.0
20.289,0.189,0.289,31.0
20.294,0.193,0.184,30.0
126.652,1.224,4.696,14.0
103.007,1.013,3.281,19.0
20.261,0.202,0.539,27.0
20.258,0.206,0.432,32.0
20.275,0.21,0.327,33.0
20.29,0.214,0.221,26.0
132.511,1.417,5.159,14.0
103.01,1.119,3.471,17.0
20.26,0.223,0.577,15.0
20.263,0.227,0.469,26.0
20.275,0.231,0.364,30.0
20.274,0.235,0.258,23.0
124.94,1.467,5.091,28.0
117.867,1.405,4.186,12.0
20.29,0.245,0.614,0.0
20.279,0.249,0.506,28.0
20.281,0.253,0.4,25.0
20.315,0.257,0.295,19.0
126.696,1.626,5.392,7.0
117.833,1.535,4.4,23.0
118.237,1.563,3.797,22.0
20.279,0.271,0.543,3.0
20.288,0.275,0.437,8.0
20.295,0.28,0.331,1.0
110.385,1.541,4.895,4.0
117.812,1.667,4.608,26.0
118.401,1.698,4.012,24.0
157.53,2.29,4.497,16.0
196.223,2.892,4.575,25.0
194.997,2.912,3.526,25.0
69.317,1.046,3.195,3.0
117.746,1.801,4.81,20.0
133.201,2.064,4.745,4.0
157.066,2.466,4.757,14.0
196.882,3.132,4.933,13.0
196.274,3.161,3.888,20.0
110.298,1.795,5.276,5.0
117.607,1.938,5.009,5.0
118.484,1.977,4.425,7.0
148.528,2.509,4.753,3.0
0.0,0.0,0.0,0.0
194.676,3.367,4.188,14.0
103.782,1.813,5.141,28.0
125.457,2.218,5.556,5.0
118.52,2.119,4.624,21.0
148.696,2.689,5.005,4.0
0.0,0.0,0.0,0.0
194.658,3.6,4.506,19.0
69.358,1.296,3.551,9.0
110.702,2.092,5.085,2.0
124.76,2.383,5.073,15.0
148.697,2.872,5.25,3.0
148.279,2.897,4.457,2.0
194.742,3.845,4.83,21.0
103.356,2.061,5.462,9.0
118.239,2.382,5.625,8.0
133.397,2.716,5.641,3.0
132.871,2.734,4.906,3.0
147.667,3.071,4.676,2.0
194.887,4.095,5.146,20.0
103.407,2.193,5.63,8.0
118.266,2.534,5.816,9.0
124.816,2.702,5.48,6.0
0.0,0.0,0.0,0.0
148.039,3.269,4.922,3.0
194.792,4.344,5.45,19.0
68.697,1.546,3.849,5.0
103.807,2.358,5.267,12.0
116.512,2.672,5.294,3.0
102.642,2.377,4.112,7.0
0.0,0.0,0.0,0.0
194.965,4.602,5.754,16.0
69.187,1.648,3.984,2.0
103.844,2.497,5.43,9.0
117.13,2.842,5.504,2.0
131.673,3.225,5.479,4.0
0.0,0.0,0.0,0.0
0.0,0.0,0.0,0.0
69.553,1.75,4.111,4.0
124.468,3.16,6.696,7.0
103.069,2.641,4.999,6.0
120.023,3.102,5.173,4.0
157.016,4.094,5.937,4.0
193.129,5.08,6.278,14.0
103.236,2.738,6.255,3.0
69.174,1.851,3.823,7.0
104.103,2.809,5.201,2.0
110.533,3.008,4.925,1.0
102.74,2.819,4.033,4.0
193.164,5.346,6.558,13.0
67.452,1.882,4.185,3.0
118.494,3.335,6.722,3.0
103.928,2.948,5.341,8.0
0.0,0.0,0.0,0.0
102.245,2.947,4.157,3.0
193.632,5.627,6.846,17.0
103.104,3.022,6.543,4.0
69.281,2.046,4.026,3.0
118.488,3.528,6.255,6.0
117.922,3.539,5.586,3.0
102.306,3.094,4.302,5.0
193.741,5.906,7.119,16.0
103.019,3.166,6.68,4.0
0.0,0.0,0.0,0.0
102.993,3.214,5.579,3.0
110.729,3.482,5.396,4.0
102.285,3.24,4.44,4.0
193.731,6.185,7.379,22.0
68.656,2.21,4.545,9.0
69.238,2.245,4.213,3.0
103.067,3.365,5.72,6.0
103.246,3.396,5.169,6.0
102.293,3.39,4.576,4.0
193.768,6.468,7.634,24.0
53.283,1.793,3.597,3.0
68.091,2.307,4.233,4.0
103.322,3.526,5.87,4.0
103.25,3.548,5.302,3.0
0.0,0.0,0.0,0.0
193.596,6.744,7.872,10.0
67.603,2.374,4.65,8.0
68.373,2.418,4.337,7.0
118.571,4.221,6.885,8.0
196.685,7.049,10.346,7.0
104.221,3.76,4.924,4.0
196.406,7.134,8.231,10.0
0.0,0.0,0.0,0.0
53.358,1.966,3.45,1.0
67.54,2.505,4.004,4.0
202.392,7.556,10.893,11.0
195.175,7.334,9.457,21.0
195.861,7.407,8.441,8.0
69.294,2.641,4.936,28.0
68.944,2.645,4.54,6.0
68.601,2.648,4.148,1.0
118.718,4.611,6.529,2.0
194.743,7.611,9.665,24.0
0.0,0.0,0.0,0.0
68.714,2.724,4.975,9.0
67.804,2.704,4.544,6.0
68.61,2.753,4.228,6.0
68.723,2.774,3.857,0.0
194.251,7.891,9.86,24.0
194.633,7.953,8.834,17.0
68.878,2.836,5.064,5.0
67.277,2.786,4.583,6.0
69.166,2.881,4.338,6.0
203.701,8.535,11.657,7.0
194.219,8.184,10.068,22.0
194.333,8.238,9.029,18.0
47.421,2.026,3.538,3.0
66.967,2.877,4.635,7.0
68.812,2.973,4.391,4.0
68.926,2.995,4.018,0.0
194.991,8.521,10.316,24.0
193.651,8.509,9.199,26.0
47.326,2.095,3.581,3.0
67.811,3.019,4.763,9.0
69.463,3.109,4.503,2.0
0.0,0.0,0.0,0.0
195.197,8.832,10.523,24.0
193.344,8.794,9.379,22.0
68.934,3.16,5.285,5.0
47.326,2.181,3.371,2.0
69.778,3.232,4.592,0.0
67.238,3.131,4.054,0.0
195.988,9.177,10.758,24.0
194.546,9.156,9.625,26.0
69.022,3.273,5.359,2.0
66.592,3.174,4.808,7.0
69.785,3.343,4.66,1.0
67.241,3.237,4.117,1.0
195.583,9.464,10.916,17.0
0.0,0.0,0.0,0.0
65.539,3.212,5.149,7.0
66.612,3.28,4.87,4.0
47.346,2.342,3.204,0.0
67.093,3.336,4.169,1.0
195.41,9.764,11.08,24.0
194.256,9.753,9.961,14.0
43.859,2.218,3.484,1.0
66.701,3.389,4.935,2.0
204.708,10.452,14.03,6.0
0.0,0.0,0.0,0.0
195.008,10.053,11.224,25.0
194.204,10.058,10.12,15.0
47.221,2.464,3.791,6.0
67.52,3.539,5.052,5.0
52.77,2.779,3.66,1.0
0.0,0.0,0.0,0.0
0.0,0.0,0.0,0.0
194.039,10.358,10.268,20.0
47.142,2.535,3.823,7.0
66.596,3.596,5.035,2.0
52.775,2.863,3.702,1.0
0.0,0.0,0.0,0.0
195.2,10.682,11.539,12.0
194.149,10.67,10.419,23.0
47.216,2.614,3.864,6.0
47.108,2.619,3.597,1.0
205.819,11.49,14.588,6.0
0.0,0.0,0.0,0.0
206.714,11.64,12.368,11.0
194.798,11.014,10.592,25.0
47.183,2.687,3.895,1.0
47.379,2.71,3.651,17.0
206.203,11.841,14.758,7.0
0.0,0.0,0.0,0.0
0.0,0.0,0.0,0.0
195.894,11.384,10.782,17.0
45.833,2.683,3.814,3.0
47.299,2.78,3.675,1.0
46.992,2.772,3.393,0.0
0.0,0.0,0.0,0.0
0.0,0.0,0.0,0.0
194.222,11.597,10.811,4.0
47.3,2.844,3.966,3.0
47.304,2.855,3.705,3.0
46.961,2.845,3.42,1.0
0.0,0.0,0.0,0.0
207.601,12.676,12.818,6.0
110.718,6.786,6.227,2.0
45.76,2.825,3.863,3.0
47.07,2.916,3.714,3.0
244.241,15.191,17.929,17.0
207.075,12.927,14.039,6.0
0.0,0.0,0.0,0.0
196.921,12.385,11.185,9.0
45.62,2.889,3.877,1.0
46.691,2.967,3.709,4.0
244.713,15.607,18.091,19.0
110.362,7.064,7.539,4.0
0.0,0.0,0.0,0.0
196.065,12.642,11.236,14.0
47.546,3.087,4.064,2.0
47.189,3.074,3.772,3.0
245.174,16.026,18.245,23.0
110.018,7.217,7.567,2.0
209.008,13.756,13.224,6.0
208.78,13.79,12.059,9.0
46.165,3.07,3.967,1.0
245.503,16.385,19.738,21.0
245.538,16.442,18.379,18.0
111.457,7.487,7.715,6.0
110.796,7.468,7.057,5.0
92.079,6.227,5.356,1.0
0.0,0.0,0.0,0.0
45.78,3.127,3.699,2.0
246.071,16.861,18.516,15.0
108.054,7.428,7.521,2.0
109.808,7.573,7.036,1.0
110.945,7.677,6.496,2.0
45.837,3.203,3.72,3.0
246.533,17.282,18.639,22.0
116.214,8.171,8.13,2.0
108.178,7.63,6.967,5.0
111.268,7.873,6.551,7.0
46.869,3.348,3.818,1.0
246.878,17.687,18.741,20.0
0.0,0.0,0.0,0.0
107.456,7.744,6.952,5.0
111.499,8.059,6.596,6.0
45.587,3.317,3.981,1.0
107.779,7.866,8.81,6.0
110.842,8.113,8.443,2.0
111.796,8.206,7.883,1.0
115.324,8.489,7.491,2.0
107.785,7.958,6.402,1.0
45.441,3.377,3.979,1.0
114.278,8.518,9.369,2.0
107.869,8.063,8.242,8.0
118.389,8.872,8.374,3.0
96.962,7.286,6.318,3.0
107.332,8.089,6.398,8.0
248.336,18.937,19.02,10.0
108.17,8.271,7.67,2.0
112.66,8.638,7.361,4.0
99.046,7.614,5.92,2.0
45.427,3.515,3.994,1.0
45.674,3.543,3.759,1.0
110.199,8.57,8.455,9.0
112.105,8.74,7.964,2.0
91.255,7.133,5.973,7.0
99.804,7.823,5.976,5.0
114.395,9.025,10.07,4.0
111.065,8.784,9.154,2.0
120.697,9.568,9.272,2.0
91.805,7.296,6.53,4.0
110.293,8.787,7.228,9.0
108.434,8.661,6.502,4.0
0.0,0.0,0.0,0.0
111.757,9.003,9.218,11.0
108.141,8.732,8.314,10.0
107.536,8.704,7.653,5.0
91.701,7.439,6.014,5.0
97.297,7.913,5.837,5.0
116.081,9.501,10.23,5.0
116.255,9.536,9.591,3.0
107.071,8.802,8.233,10.0
97.629,8.043,6.949,4.0
108.707,8.977,7.129,7.0
91.238,7.553,5.473,12.0
112.797,9.396,9.94,3.0
117.413,9.801,9.684,9.0
118.003,9.872,9.07,8.0
112.226,9.41,7.984,6.0
85.451,7.18,5.601,5.0
91.53,7.709,5.487,4.0
115.061,9.752,10.132,5.0
96.385,8.186,7.944,6.0
115.432,9.823,8.865,8.0
92.119,7.855,6.547,5.0
85.531,7.309,5.598,3.0
91.57,7.842,5.481,2.0
114.804,9.893,10.099,7.0
114.906,9.921,9.458,7.0
96.439,8.343,7.395,9.0
106.623,9.242,7.565,9.0
90.763,7.883,5.93,11.0
83.772,7.291,5.003,2.0
114.964,10.066,10.096,4.0
109.457,9.602,8.994,3.0
96.443,8.478,7.381,6.0
96.472,8.496,6.83,6.0
96.935,8.553,6.318,1.0
98.281,8.689,5.853,3.0
86.106,7.658,7.547,3.0
86.213,7.682,7.069,1.0
84.812,7.571,6.475,6.0
109.632,9.805,7.74,8.0
85.209,7.634,5.536,1.0
96.16,8.632,5.707,4.0
107.795,9.733,9.425,6.0
107.871,9.757,8.82,3.0
98.237,8.901,7.477,3.0
84.901,7.706,5.974,6.0
84.477,7.682,5.468,5.0
78.381,7.141,4.632,3.0
85.227,7.809,7.429,1.0
107.275,9.846,8.744,2.0
91.969,8.455,6.975,5.0
93.424,8.603,6.548,4.0
85.025,7.843,5.48,8.0
78.362,7.242,4.609,1.0
86.19,8.011,7.487,2.0
85.976,8.003,6.981,7.0
92.002,8.578,6.95,3.0
96.316,8.995,6.721,2.0
97.512,9.123,6.252,4.0
85.353,7.999,4.991,2.0
92.077,8.677,7.968,6.0
96.748,9.131,7.823,5.0
92.178,8.714,6.931,4.0
84.277,7.98,5.85,1.0
87.653,8.312,5.589,3.0
84.727,8.047,4.925,10.0
84.789,8.098,7.305,6.0
92.115,8.81,7.413,4.0
84.432,8.087,6.315,4.0
90.613,8.693,6.255,1.0
90.439,8.689,5.731,3.0
85.172,8.195,4.916,12.0
92.152,8.915,7.902,2.0
85.258,8.259,6.826,7.0
84.238,8.171,6.266,8.0
84.767,8.233,5.816,6.0
90.185,8.773,5.676,5.0
85.307,8.311,4.886,6.0
94.101,9.216,8.028,4.0
85.111,8.346,6.776,8.0
84.242,8.272,6.228,10.0
85.363,8.393,5.818,5.0
78.452,7.724,4.901,5.0
81.089,7.996,4.607,3.0
91.773,9.097,7.784,8.0
92.145,9.144,7.291,13.0
85.88,8.533,6.306,3.0
85.163,8.473,5.761,5.0
90.37,9.003,5.6,7.0
81.01,8.081,4.561,3.0
98.848,9.91,8.333,4.0
83.824,8.413,6.588,2.0
72.966,7.332,5.319,4.0
84.805,8.532,5.692,3.0
90.202,9.087,5.542,6.0
81.076,8.179,4.521,4.0
78.845,7.994,6.603,1.0
85.284,8.655,6.656,5.0
72.865,7.403,5.271,6.0
80.205,8.159,5.338,1.0
123.784,12.608,7.533,5.0
81.049,8.265,4.473,3.0
78.776,8.072,6.551,8.0
85.08,8.727,6.589,3.0
72.897,7.485,5.23,5.0
77.901,8.008,5.137,3.0
89.756,9.237,5.408,1.0
83.636,8.617,4.564,3.0
72.249,7.479,5.963,5.0
79.298,8.217,6.092,3.0
72.913,7.563,5.185,7.0
84.618,8.786,5.526,4.0
84.434,8.777,5.033,2.0
84.244,8.767,4.543,9.0
78.663,8.224,6.44,2.0
79.325,8.3,6.041,4.0
72.776,7.622,5.127,6.0
77.861,8.163,5.033,4.0
89.572,9.401,5.279,6.0
79.693,8.373,4.244,2.0
74.635,7.877,6.059,3.0
79.352,8.381,5.988,1.0
72.84,7.7,5.081,4.0
73.191,7.744,4.68,6.0
81.092,8.588,4.723,1.0
79.706,8.45,4.189,3.0
74.605,7.944,6.004,2.0
74.65,7.955,5.58,4.0
72.926,7.778,5.034,5.0
89.172,9.518,5.637,4.0
88.684,9.475,5.101,5.0
84.802,9.069,4.394,2.0
74.798,8.033,5.963,1.0
74.616,8.02,5.521,4.0
72.804,7.831,4.97,4.0
89.281,9.61,5.577,3.0
88.742,9.561,5.036,3.0
84.572,9.12,4.317,4.0
68.815,7.451,5.432,1.0
78.868,8.546,5.774,3.0
72.942,7.909,4.923,5.0
76.83,8.337,4.738,2.0
80.992,8.795,4.532,5.0
86.898,9.445,4.367,2.0
68.83,7.51,5.379,4.0
73.983,8.078,5.357,4.0
0.0,0.0,0.0,0.0
76.846,8.402,4.676,5.0
80.765,8.837,4.453,6.0
96.566,10.575,4.774,22.0
68.789,7.562,5.317,5.0
78.966,8.686,5.651,7.0
73.746,8.117,4.854,6.0
74.753,8.232,4.486,2.0
80.76,8.9,4.385,2.0
91.86,10.131,4.463,8.0
68.742,7.61,5.254,6.0
76.943,8.522,5.439,1.0
73.836,8.183,4.796,1.0
74.573,8.269,4.409,3.0
76.841,8.526,4.104,3.0
0.0,0.0,0.0,0.0
68.761,7.662,5.194,5.0
65.863,7.343,4.597,2.0
85.714,9.561,5.491,4.0
74.838,8.352,4.358,4.0
76.815,8.578,4.033,4.0
0.0,0.0,0.0,0.0
68.729,7.706,5.128,4.0
72.69,8.154,5.006,1.0
78.555,8.816,4.959,4.0
72.23,8.11,4.139,2.0
136.826,15.372,7.057,10.0
90.451,10.167,4.148,6.0
68.69,7.747,5.061,2.0
72.761,8.209,4.943,3.0
78.15,8.82,4.861,13.0
76.699,8.66,4.324,3.0
107.066,12.095,5.421,18.0
85.894,9.708,3.859,15.0
68.601,7.778,4.989,3.0
68.406,7.759,4.581,4.0
78.083,8.859,4.781,5.0
76.698,8.706,4.248,8.0
107.61,12.22,5.344,13.0
85.889,9.758,3.774,19.0
84.616,9.642,6.07,8.0
68.093,7.761,4.493,3.0
86.959,9.915,5.238,3.0
75.903,8.657,4.13,7.0
107.879,12.309,5.251,9.0
85.842,9.799,3.686,23.0
84.843,9.713,6.001,8.0
73.622,8.43,4.784,4.0
74.886,8.577,4.435,1.0
75.862,8.692,4.05,4.0
136.968,15.698,6.528,12.0
85.862,9.844,3.601,19.0
68.153,7.835,4.75,4.0
84.574,9.725,5.409,4.0
80.154,9.219,4.665,4.0
87.904,10.113,4.602,2.0
105.21,12.107,4.906,12.0
85.876,9.885,3.512,11.0
72.805,8.403,4.998,1.0
78.315,9.039,4.926,11.0
70.632,8.154,4.037,1.0
90.698,10.473,4.654,3.0
105.182,12.148,4.793,16.0
91.811,10.607,3.658,22.0
68.432,7.925,4.624,3.0
78.339,9.073,4.843,7.0
75.628,8.76,4.241,5.0
90.696,10.507,4.556,14.0
90.64,10.503,4.032,6.0
91.928,10.655,3.563,13.0
73.244,8.509,4.869,4.0
78.263,9.092,4.752,2.0
75.625,8.786,4.158,2.0
90.692,10.538,4.456,11.0
110.851,12.883,4.811,16.0
92.014,10.695,3.467,12.0
71.864,8.371,4.698,3.0
86.856,10.118,5.178,8.0
85.535,9.964,4.608,6.0
105.365,12.274,5.061,7.0
110.855,12.916,4.687,7.0
99.082,11.546,3.621,13.0
68.559,8.005,4.405,3.0
79.945,9.334,4.676,3.0
85.587,9.992,4.514,12.0
105.371,12.302,4.942,5.0
90.932,10.617,3.743,18.0
99.068,11.569,3.509,15.0
75.532,8.836,4.767,1.0
75.368,8.816,4.323,4.0
85.624,10.015,4.419,11.0
90.628,10.6,4.146,6.0
85.905,10.048,3.438,19.0
98.855,11.563,3.389,12.0
74.699,8.752,4.629,1.0
75.587,8.855,4.248,4.0
85.734,10.043,4.324,11.0
90.73,10.627,4.047,30.0
85.913,10.062,3.339,20.0
98.522,11.54,3.263,10.0
80.796,9.478,4.912,3.0
87.084,10.213,4.793,9.0
0.0,0.0,0.0,0.0
90.777,10.643,3.944,43.0
92.007,10.787,3.47,34.0
98.048,11.495,3.135,13.0
71.316,8.372,4.253,1.0
87.433,10.262,4.71,9.0
90.698,10.643,4.364,9.0
90.867,10.66,3.842,43.0
92.017,10.794,3.362,38.0
97.513,11.439,3.002,10.0
75.466,8.862,4.411,4.0
85.615,10.051,4.511,18.0
90.675,10.643,4.256,22.0
90.896,10.666,3.735,37.0
92.015,10.796,3.252,12.0
97.537,11.443,2.889,23.0
75.49,8.865,4.322,7.0
85.663,10.057,4.411,33.0
90.715,10.646,4.151,22.0
90.945,10.671,3.628,20.0
98.7,11.579,3.371,8.0
97.609,11.449,2.775,32.0
75.425,8.854,4.228,2.0
85.719,10.059,4.31,15.0
90.74,10.644,4.042,29.0
85.935,10.078,3.325,18.0
98.364,11.532,3.241,18.0
97.736,11.457,2.66,28.0
87.272,10.237,4.786,10.0
90.734,10.638,4.454,5.0
90.796,10.641,3.935,43.0
92.007,10.78,3.449,38.0
97.381,11.406,3.091,12.0
97.81,11.454,2.544,25.0
87.708,10.276,4.704,10.0
90.722,10.624,4.343,15.0
90.875,10.638,3.828,47.0
92.011,10.766,3.338,13.0
97.467,11.401,2.976,33.0
97.802,11.436,2.425,11.0
85.585,10.012,4.485,13.0
86.992,10.171,4.058,4.0
85.926,10.041,3.515,17.0
99.03,11.567,3.472,14.0
97.486,11.383,2.858,23.0
149.642,17.467,3.529,17.0
90.654,10.583,4.639,6.0
90.714,10.585,4.12,11.0
85.913,10.019,3.408,42.0
97.258,11.337,3.29,17.0
97.807,11.395,2.748,16.0
149.556,17.419,3.343,8.0
90.69,10.563,4.53,18.0
90.676,10.554,4.007,8.0
91.995,10.702,3.537,12.0
97.351,11.319,3.174,40.0
97.833,11.37,2.629,37.0
152.527,17.718,3.224,3.0
80.989,9.407,3.946,3.0
110.884,12.87,4.765,14.0
98.976,11.482,3.684,4.0
115.175,13.353,3.615,16.0
97.74,11.325,2.507,14.0
149.304,17.292,2.974,13.0
105.237,12.185,4.998,10.0
85.889,9.937,3.585,26.0
103.8,12.001,3.737,7.0
115.264,13.318,3.477,39.0
149.668,17.285,3.654,11.0
149.417,17.246,2.791,18.0
105.208,12.137,4.867,16.0
91.75,10.577,3.716,27.0
97.173,11.194,3.377,10.0
115.369,13.281,3.336,24.0
152.984,17.6,3.548,10.0
149.504,17.19,2.61,15.0
105.52,12.125,4.751,6.0
91.786,10.538,3.605,24.0
97.202,11.151,3.259,13.0
97.772,11.208,2.707,28.0
153.572,17.594,3.372,3.0
149.549,17.122,2.428,22.0
85.847,9.82,3.759,25.0
110.581,12.639,4.206,14.0
104.232,11.904,3.368,30.0
97.762,11.156,2.589,13.0
144.085,16.432,2.99,11.0
149.644,17.054,2.248,9.0
91.761,10.447,3.907,30.0
110.401,12.558,4.066,12.0
104.267,11.85,3.242,23.0
144.106,16.364,3.639,12.0
144.076,16.347,2.813,16.0
144.039,16.331,1.988,8.0
91.741,10.39,3.794,15.0
97.057,10.981,3.456,11.0
104.327,11.793,3.117,16.0
144.209,16.287,3.467,10.0
