X,Y,Z,Reflectivity
30.846,3.862,-0.826,0.0
65.536,8.192,0.056,3.0
65.395,8.17,-0.317,9.0
0.0,0.0,0.0,0.0
0.0,0.0,0.0,0.0
0.0,0.0,0.0,0.0
29.865,3.724,-0.832,0.0
68.655,8.546,-0.013,23.0
65.46,8.144,-0.388,5.0
0.0,0.0,0.0,0.0
40.331,5.012,-0.704,0.0
0.0,0.0,0.0,0.0
28.89,3.587,-0.835,0.0
68.65,8.507,-0.086,57.0
68.915,8.535,-0.48,1.0
68.607,8.492,-0.871,2.0
39.176,4.846,-0.725,0.0
32.712,4.045,-0.793,0.0
28.09,3.471,-0.841,0.0
68.955,8.504,-0.158,2.0
68.651,8.46,-0.55,0.0
68.648,8.455,-0.942,5.0
38.752,4.77,-0.757,0.0
31.921,3.927,-0.806,0.0
27.342,3.362,-0.847,0.0
69.82,8.565,-0.232,7.0
68.773,8.43,-0.621,1.0
68.66,8.411,-1.013,2.0
37.176,4.551,-0.765,0.0
30.846,3.774,-0.811,0.0
26.789,3.275,-0.858,0.0
69.274,8.45,-0.3,5.0
68.813,8.387,-0.692,0.0
0.0,0.0,0.0,0.0
35.617,4.335,-0.768,0.0
30.232,3.677,-0.825,0.0
25.979,3.158,-0.857,0.0
69.159,8.385,-0.368,0.0
0.0,0.0,0.0,0.0
40.907,4.952,-0.685,0.0
34.726,4.201,-0.783,0.0
29.319,3.544,-0.828,0.0
25.321,3.059,-0.86,0.0
68.965,8.308,-0.434,3.0
0.0,0.0,0.0,0.0
40.234,4.839,-0.713,0.0
33.032,3.969,-0.777,0.0
28.553,3.429,-0.835,0.0
24.694,2.963,-0.863,0.0
68.916,8.246,-0.5,4.0
0.0,0.0,0.0,0.0
0.0,0.0,0.0,0.0
32.507,3.879,-0.795,0.0
27.915,3.328,-0.842,0.0
24.25,2.889,-0.87,0.0
68.915,8.186,-0.565,2.0
0.0,0.0,0.0,0.0
37.774,4.478,-0.74,0.0
31.714,3.757,-0.806,0.0
27.299,3.231,-0.849,0.0
23.709,2.804,-0.873,0.0
0.0,0.0,0.0,0.0
0.0,0.0,0.0,0.0
37.214,4.378,-0.763,0.0
30.957,3.639,-0.814,0.0
26.615,3.126,-0.852,0.0
23.449,2.751,-0.884,0.0
0.0,0.0,0.0,0.0
42.965,5.019,-0.675,0.0
35.632,4.158,-0.762,0.0
30.226,3.524,-0.822,0.0
26.095,3.039,-0.858,0.0
21.916,2.55,-0.846,0.0
0.0,0.0,0.0,0.0
41.975,4.862,-0.696,1.0
35.052,4.055,-0.781,0.0
29.804,3.445,-0.837,0.0
25.382,2.931,-0.857,0.0
21.886,2.524,-0.864,0.0
0.0,0.0,0.0,0.0
40.767,4.68,-0.711,0.0
33.504,3.842,-0.775,0.0
28.66,3.283,-0.829,0.0
24.936,2.853,-0.863,0.0
21.806,2.493,-0.879,1.0
0.0,0.0,0.0,0.0
39.51,4.494,-0.721,0.0
32.904,3.738,-0.788,0.0
28.219,3.202,-0.839,0.0
24.521,2.779,-0.869,0.0
21.793,2.467,-0.896,3.0
0.0,0.0,0.0,0.0
38.343,4.319,-0.73,0.0
32.281,3.631,-0.799,0.0
27.605,3.101,-0.842,0.0
24.001,2.693,-0.869,0.0
21.762,2.439,-0.912,1.0
0.0,0.0,0.0,0.0
0.0,0.0,0.0,0.0
31.69,3.529,-0.808,0.0
27.2,3.025,-0.851,0.0
23.843,2.648,-0.881,0.0
21.345,2.368,-0.91,0.0
0.0,0.0,0.0,0.0
37.126,4.095,-0.764,0.0
31.897,3.514,-0.837,0.0
26.703,2.938,-0.855,0.0
21.976,2.415,-0.829,0.0
20.563,2.257,-0.892,0.0
42.946,4.693,-0.671,0.0
36.131,3.942,-0.769,0.0
30.045,3.273,-0.81,0.0
26.085,2.838,-0.854,0.0
21.945,2.384,-0.843,2.0
20.208,2.193,-0.891,0.0
0.0,0.0,0.0,0.0
0.0,0.0,0.0,0.0
29.878,3.218,-0.826,0.0
25.7,2.764,-0.859,0.0
21.901,2.352,-0.856,4.0
19.897,2.134,-0.891,0.0
40.591,4.333,-0.69,0.0
34.382,3.664,-0.779,0.0
29.711,3.161,-0.841,0.0
25.14,2.671,-0.856,0.0
21.859,2.319,-0.869,5.0
19.695,2.086,-0.894,0.0
40.429,4.262,-0.713,0.0
33.494,3.525,-0.78,0.0
28.998,3.047,-0.839,0.0
24.824,2.604,-0.861,0.0
21.836,2.287,-0.881,6.0
19.522,2.042,-0.898,1.0
39.476,4.109,-0.72,0.0
33.378,3.468,-0.797,0.0
28.389,2.945,-0.838,0.0
24.502,2.537,-0.865,0.0
21.8,2.254,-0.893,5.0
19.379,2.0,-0.903,0.0
39.136,4.02,-0.736,0.0
32.554,3.338,-0.796,0.0
27.951,2.86,-0.841,0.0
24.269,2.479,-0.87,0.0
21.725,2.216,-0.902,1.0
19.303,1.965,-0.91,0.0
37.893,3.838,-0.734,0.0
32.17,3.252,-0.804,0.0
27.577,2.783,-0.845,0.0
23.9,2.408,-0.87,0.0
21.52,2.164,-0.905,0.0
19.049,1.912,-0.908,0.0
37.894,3.784,-0.753,0.0
31.605,3.15,-0.806,0.0
26.938,2.679,-0.839,1.0
23.644,2.347,-0.872,0.0
21.104,2.091,-0.897,0.0
18.769,1.857,-0.904,0.0
37.46,3.685,-0.763,0.0
0.0,0.0,0.0,0.0
26.718,2.618,-0.845,1.0
23.565,2.305,-0.88,0.0
20.836,2.034,-0.896,0.0
18.54,1.807,-0.901,0.0
36.97,3.582,-0.769,0.0
30.618,2.961,-0.809,0.0
26.718,2.578,-0.856,0.0
23.282,2.242,-0.88,0.0
20.816,2.001,-0.904,0.0
18.67,1.791,-0.916,0.0
36.388,3.47,-0.772,0.0
30.699,2.922,-0.824,1.0
26.352,2.502,-0.855,0.0
23.191,2.198,-0.885,0.0
20.618,1.95,-0.903,0.0
18.403,1.737,-0.91,0.0
35.178,3.301,-0.76,0.0
30.436,2.849,-0.828,0.0
26.193,2.447,-0.86,0.0
22.452,2.093,-0.865,0.0
20.477,1.905,-0.904,0.0
18.288,1.697,-0.91,0.0
35.432,3.269,-0.777,0.0
30.244,2.784,-0.833,0.0
26.113,2.398,-0.865,0.0
21.813,1.999,-0.848,0.0
20.418,1.867,-0.908,0.0
18.253,1.665,-0.914,0.0
34.924,3.167,-0.777,0.0
29.898,2.704,-0.832,0.0
25.785,2.327,-0.862,0.0
21.878,1.969,-0.856,4.0
19.865,1.784,-0.889,0.0
18.137,1.625,-0.913,0.0
35.059,3.122,-0.789,0.0
29.652,2.634,-0.833,0.0
25.543,2.263,-0.861,0.0
21.856,1.932,-0.861,6.0
19.867,1.752,-0.894,0.0
17.937,1.578,-0.908,0.0
34.158,2.986,-0.777,0.0
30.105,2.624,-0.853,1.0
25.406,2.209,-0.862,0.0
21.858,1.896,-0.866,7.0
19.705,1.705,-0.891,0.0
18.099,1.562,-0.919,0.0
33.277,2.853,-0.764,0.0
29.433,2.516,-0.84,0.0
25.463,2.171,-0.868,0.0
21.863,1.859,-0.87,7.0
19.792,1.679,-0.898,0.0
17.91,1.515,-0.913,0.0
33.308,2.799,-0.77,0.0
29.293,2.455,-0.84,0.0
25.318,2.116,-0.867,0.0
21.835,1.82,-0.872,8.0
19.686,1.636,-0.896,0.0
17.945,1.488,-0.917,0.0
33.007,2.718,-0.767,0.0
29.122,2.391,-0.839,0.0
25.252,2.067,-0.868,0.0
21.821,1.781,-0.874,8.0
19.676,1.602,-0.897,0.0
17.997,1.461,-0.921,0.0
33.095,2.668,-0.772,0.0
29.241,2.35,-0.844,0.0
25.024,2.005,-0.862,0.0
21.832,1.744,-0.875,7.0
19.564,1.558,-0.893,0.0
18.344,1.457,-0.94,0.0
33.213,2.619,-0.776,1.0
29.188,2.295,-0.844,0.0
25.168,1.973,-0.867,0.0
21.804,1.704,-0.875,1.0
19.637,1.53,-0.897,0.0
0.0,0.0,0.0,0.0
33.164,2.558,-0.775,0.0
29.186,2.244,-0.844,0.0
25.119,1.925,-0.865,0.0
21.811,1.666,-0.875,1.0
19.667,1.497,-0.898,0.0
0.0,0.0,0.0,0.0
33.175,2.5,-0.774,0.0
29.283,2.2,-0.845,1.0
25.368,1.899,-0.873,0.0
21.822,1.628,-0.874,0.0
19.678,1.463,-0.898,0.0
0.0,0.0,0.0,0.0
34.766,2.558,-0.809,0.0
29.44,2.159,-0.848,0.0
25.46,1.861,-0.874,0.0
21.846,1.591,-0.873,1.0
19.656,1.427,-0.895,0.0
18.013,1.303,-0.92,0.0
33.198,2.383,-0.768,0.0
29.425,2.105,-0.844,0.0
25.395,1.81,-0.869,0.0
21.788,1.547,-0.868,0.0
19.71,1.395,-0.894,0.0
17.944,1.265,-0.913,0.0
33.577,2.35,-0.772,0.0
29.939,2.087,-0.854,0.0
25.531,1.773,-0.869,0.0
21.845,1.512,-0.866,0.0
19.673,1.356,-0.889,0.0
17.966,1.234,-0.911,0.0
34.49,2.351,-0.787,1.0
29.949,2.033,-0.848,1.0
25.826,1.747,-0.874,0.0
21.853,1.472,-0.862,3.0
19.911,1.336,-0.895,0.0
18.094,1.21,-0.914,0.0
35.19,2.335,-0.795,0.0
30.265,1.999,-0.85,2.0
26.016,1.712,-0.874,0.0
21.87,1.433,-0.857,4.0
20.168,1.316,-0.902,0.0
18.224,1.184,-0.915,0.0
35.172,2.268,-0.785,0.0
30.197,1.939,-0.84,0.0
26.201,1.675,-0.873,0.0
21.889,1.394,-0.852,3.0
0.0,0.0,0.0,0.0
0.0,0.0,0.0,0.0
35.476,2.222,-0.781,0.0
30.639,1.911,-0.843,0.0
26.264,1.631,-0.866,0.0
21.918,1.355,-0.846,3.0
20.59,1.267,-0.907,0.0
0.0,0.0,0.0,0.0
35.488,2.158,-0.769,0.0
30.903,1.871,-0.839,0.0
26.162,1.576,-0.854,0.0
21.927,1.315,-0.838,1.0
21.382,1.276,-0.934,0.0
0.0,0.0,0.0,0.0
36.048,2.124,-0.767,0.0
31.311,1.837,-0.837,0.0
26.958,1.574,-0.868,0.0
21.917,1.273,-0.828,0.0
21.597,1.249,-0.935,0.0
0.0,0.0,0.0,0.0
0.0,0.0,0.0,0.0
31.7,1.801,-0.834,0.0
0.0,0.0,0.0,0.0
23.879,1.343,-0.892,0.0
21.703,1.215,-0.929,0.0
0.0,0.0,0.0,0.0
37.438,2.067,-0.763,0.0
32.07,1.761,-0.829,0.0
27.863,1.523,-0.872,0.0
24.039,1.307,-0.886,0.0
21.782,1.178,-0.922,1.0
19.176,1.032,-0.917,0.0
38.484,2.053,-0.765,0.0
32.367,1.718,-0.82,0.0
28.068,1.481,-0.864,0.0
24.168,1.269,-0.878,0.0
21.829,1.14,-0.912,0.0
19.396,1.008,-0.917,0.0
38.252,1.969,-0.739,0.0
33.087,1.694,-0.82,0.0
28.364,1.444,-0.857,0.0
24.756,1.253,-0.885,0.0
21.813,1.098,-0.899,0.0
20.188,1.01,-0.942,1.0
0.0,0.0,0.0,0.0
33.792,1.666,-0.817,0.0
28.968,1.42,-0.858,0.0
24.905,1.214,-0.875,0.0
20.241,0.98,-0.821,1.0
20.181,0.972,-0.929,7.0
42.354,2.021,-0.767,2.0
34.315,1.627,-0.807,0.0
29.732,1.401,-0.861,0.0
20.249,0.948,-0.698,151.0
20.249,0.943,-0.808,151.0
20.177,0.934,-0.915,28.0
0.0,0.0,0.0,0.0
34.656,1.578,-0.792,0.0
29.73,1.345,-0.841,0.0
20.25,0.911,-0.684,151.0
20.177,0.902,-0.791,158.0
20.201,0.897,-0.902,41.0
42.874,1.886,-0.718,0.0
36.183,1.581,-0.801,0.0
30.267,1.313,-0.834,0.0
20.257,0.873,-0.67,1.0
20.257,0.867,-0.78,150.0
20.213,0.86,-0.887,14.0
0.0,0.0,0.0,0.0
36.797,1.539,-0.787,0.0
32.144,1.335,-0.861,0.0
27.34,1.127,-0.883,0.0
20.203,0.827,-0.762,0.0
20.307,0.826,-0.876,1.0
0.0,0.0,0.0,0.0
0.0,0.0,0.0,0.0
32.49,1.289,-0.845,0.0
28.11,1.107,-0.885,0.0
24.082,0.941,-0.888,2.0
21.472,0.833,-0.908,0.0
0.0,0.0,0.0,0.0
0.0,0.0,0.0,0.0
32.613,1.233,-0.82,0.0
28.559,1.072,-0.875,0.0
24.793,0.923,-0.894,0.0
22.032,0.814,-0.913,0.0
0.0,0.0,0.0,0.0
0.0,0.0,0.0,0.0
33.168,1.192,-0.805,0.0
29.334,1.046,-0.873,1.0
25.195,0.891,-0.885,0.0
22.459,0.788,-0.91,0.0
0.0,0.0,0.0,0.0
0.0,0.0,0.0,0.0
34.682,1.182,-0.81,0.0
30.019,1.015,-0.865,1.0
26.087,0.874,-0.892,0.0
22.755,0.756,-0.901,0.0
0.0,0.0,0.0,0.0
0.0,0.0,0.0,0.0
36.584,1.181,-0.82,0.0
30.283,0.968,-0.844,0.0
26.301,0.834,-0.874,0.0
23.286,0.731,-0.899,0.0
0.0,0.0,0.0,0.0
0.0,0.0,0.0,0.0
36.941,1.125,-0.791,0.0
31.906,0.962,-0.857,2.0
27.291,0.815,-0.879,0.0
23.935,0.708,-0.9,0.0
0.0,0.0,0.0,0.0
0.0,0.0,0.0,0.0
38.727,1.109,-0.789,0.0
32.421,0.918,-0.837,1.0
28.345,0.795,-0.884,0.0
24.654,0.684,-0.901,0.0
0.0,0.0,0.0,0.0
0.0,0.0,0.0,0.0
0.0,0.0,0.0,0.0
33.42,0.887,-0.827,0.0
29.24,0.768,-0.88,0.0
25.136,0.653,-0.891,0.0
0.0,0.0,0.0,0.0
0.0,0.0,0.0,0.0
0.0,0.0,0.0,0.0
35.396,0.876,-0.837,0.0
30.015,0.734,-0.87,0.0
26.062,0.63,-0.895,0.0
0.0,0.0,0.0,0.0
0.0,0.0,0.0,0.0
0.0,0.0,0.0,0.0
0.0,0.0,0.0,0.0
31.42,0.714,-0.875,1.0
26.686,0.598,-0.885,0.0
0.0,0.0,0.0,0.0
0.0,0.0,0.0,0.0
0.0,0.0,0.0,0.0
37.17,0.79,-0.793,0.0
32.098,0.673,-0.856,1.0
27.872,0.576,-0.891,0.0
0.0,0.0,0.0,0.0
0.0,0.0,0.0,0.0
0.0,0.0,0.0,0.0
0.0,0.0,0.0,0.0
32.994,0.635,-0.84,0.0
28.743,0.545,-0.884,0.0
0.0,0.0,0.0,0.0
0.0,0.0,0.0,0.0
0.0,0.0,0.0,0.0
0.0,0.0,0.0,0.0
34.208,0.6,-0.828,1.0
29.757,0.514,-0.878,0.0
99.835,1.693,-0.163,1.0
0.0,0.0,0.0,0.0
0.0,0.0,0.0,0.0
42.707,0.688,-0.753,0.0
35.709,0.566,-0.819,0.0
31.282,0.487,-0.883,1.0
99.828,1.525,-0.034,3.0
0.0,0.0,0.0,0.0
0.0,0.0,0.0,0.0
0.0,0.0,0.0,0.0
20.22,0.286,-0.437,3.0
20.209,0.281,-0.543,23.0
99.653,1.355,0.098,5.0
0.0,0.0,0.0,0.0
20.083,0.262,-0.192,0.0
20.177,0.258,-0.302,17.0
20.176,0.252,-0.408,25.0
20.191,0.247,-0.515,26.0
20.322,0.243,0.047,1.0
0.0,0.0,0.0,0.0
20.185,0.23,-0.166,2.0
20.186,0.225,-0.274,26.0
20.179,0.219,-0.381,30.0
20.181,0.214,-0.487,30.0
20.333,0.21,0.075,37.0
20.321,0.204,-0.031,18.0
20.201,0.198,-0.138,19.0
20.17,0.192,-0.246,27.0
20.177,0.187,-0.352,33.0
20.193,0.181,-0.459,28.0
20.248,0.176,0.103,28.0
20.234,0.171,-0.002,23.0
20.187,0.165,-0.108,26.0
20.173,0.16,-0.217,30.0
20.185,0.154,-0.323,32.0
20.186,0.149,-0.429,16.0
20.19,0.144,0.132,26.0
20.189,0.139,0.026,29.0
20.177,0.133,-0.079,29.0
20.174,0.128,-0.187,25.0
20.185,0.123,-0.293,26.0
41.865,0.244,-0.829,1.0
20.168,0.112,0.162,29.0
20.199,0.107,0.056,36.0
20.194,0.102,-0.049,31.0
20.185,0.097,-0.157,29.0
20.201,0.092,-0.263,8.0
42.034,0.18,-0.768,0.0
20.152,0.081,0.193,30.0
20.176,0.076,0.087,25.0
20.21,0.071,-0.018,31.0
20.215,0.066,-0.126,25.0
20.196,0.061,-0.232,6.0
20.246,0.056,-0.339,2.0
20.134,0.051,0.223,29.0
20.14,0.046,0.118,29.0
20.269,0.041,0.012,150.0
20.261,0.036,-0.095,151.0
20.252,0.031,-0.201,151.0
20.273,0.026,-0.308,150.0
20.13,0.021,0.254,28.0
20.12,0.016,0.149,27.0
20.2,0.011,0.044,29.0
20.235,0.006,-0.063,41.0
20.191,0.001,-0.169,12.0
20.18,-0.003,-0.274,7.0
20.122,-0.008,0.286,27.0
20.114,-0.012,0.181,31.0
20.122,-0.017,0.076,37.0
20.115,-0.022,-0.03,32.0
20.157,-0.027,-0.136,31.0
20.136,-0.031,-0.241,16.0
20.127,-0.036,0.319,31.0
20.115,-0.041,0.213,29.0
20.128,-0.046,0.108,37.0
20.132,-0.05,0.001,36.0
20.145,-0.055,-0.103,31.0
20.155,-0.06,-0.209,22.0
20.124,-0.064,0.352,34.0
20.125,-0.069,0.247,27.0
20.123,-0.074,0.141,26.0
20.118,-0.078,0.034,31.0
20.145,-0.083,-0.07,28.0
20.156,-0.088,-0.175,33.0
20.13,-0.092,0.385,29.0
20.134,-0.096,0.28,25.0
20.122,-0.101,0.175,19.0
20.138,-0.106,0.068,28.0
20.164,-0.11,-0.036,24.0
20.154,-0.114,-0.141,24.0
20.15,-0.119,0.419,17.0
20.149,-0.123,0.314,15.0
20.157,-0.128,0.209,16.0
20.158,-0.132,0.102,15.0
20.188,-0.137,-0.002,19.0
20.167,-0.141,-0.107,16.0
20.216,-0.146,0.455,27.0
20.266,-0.15,0.35,20.0
66.543,-0.508,0.805,13.0
20.159,-0.158,0.137,0.0
53.362,-0.431,0.085,4.0
53.333,-0.442,-0.191,8.0
20.147,-0.171,0.488,10.0
20.19,-0.175,0.384,20.0
53.392,-0.475,0.738,8.0
53.352,-0.486,0.454,6.0
56.184,-0.523,0.185,11.0
56.228,-0.535,-0.106,11.0
20.147,-0.196,0.523,14.0
20.147,-0.199,0.418,18.0
20.159,-0.204,0.313,15.0
64.219,-0.663,0.658,28.0
56.157,-0.591,0.284,7.0
56.305,-0.603,-0.007,2.0
53.507,-0.585,1.483,55.0
20.139,-0.224,0.453,12.0
20.132,-0.228,0.348,10.0
20.142,-0.232,0.242,9.0
20.163,-0.236,0.138,2.0
59.573,-0.71,0.099,34.0
53.496,-0.648,1.578,99.0
20.173,-0.248,0.49,8.0
20.128,-0.251,0.384,12.0
20.119,-0.255,0.278,10.0
20.127,-0.259,0.173,9.0
59.527,-0.777,0.205,17.0
53.504,-0.71,1.675,72.0
59.412,-0.799,1.552,73.0
20.153,-0.274,0.421,6.0
20.125,-0.278,0.315,9.0
20.121,-0.281,0.21,13.0
20.121,-0.285,0.106,12.0
53.51,-0.769,1.773,69.0
59.44,-0.865,1.662,26.0
53.508,-0.789,1.218,100.0
20.176,-0.301,0.352,3.0
20.128,-0.303,0.247,7.0
20.124,-0.307,0.143,11.0
59.389,-0.918,2.077,21.0
64.3,-1.005,1.915,21.0
176.617,-2.791,4.345,26.0
176.618,-2.822,3.413,59.0
176.646,-2.853,2.5,60.0
20.152,-0.328,0.18,3.0
64.307,-1.061,2.368,17.0
64.297,-1.072,2.034,79.0
64.329,-1.083,1.702,33.0
0.0,0.0,0.0,0.0
0.0,0.0,0.0,0.0
0.0,0.0,0.0,0.0
64.292,-1.125,2.486,17.0
64.297,-1.136,2.153,66.0
64.312,-1.146,1.82,76.0
190.879,-3.431,4.395,10.0
191.828,-3.479,3.425,8.0
192.971,-3.529,2.447,22.0
45.797,-0.846,1.856,41.0
45.714,-0.851,1.616,43.0
64.317,-1.207,1.94,65.0
45.823,-0.867,1.14,3.0
38.307,-0.73,0.755,6.0
52.983,-1.018,0.771,22.0
45.748,-0.887,1.94,59.0
45.677,-0.892,1.7,56.0
45.729,-0.9,1.465,52.0
45.704,-0.906,1.223,31.0
38.402,-0.766,0.829,6.0
45.66,-0.918,0.75,8.0
45.7,-0.927,2.024,30.0
45.702,-0.933,1.788,13.0
40.43,-0.831,1.372,12.0
40.435,-0.837,1.159,20.0
38.397,-0.799,0.901,38.0
38.395,-0.805,0.703,41.0
40.414,-0.855,1.867,28.0
40.412,-0.86,1.657,29.0
40.424,-0.865,1.448,30.0
40.409,-0.87,1.235,33.0
40.403,-0.875,1.026,32.0
40.399,-0.88,0.817,37.0
40.412,-0.888,1.944,37.0
40.401,-0.892,1.734,37.0
40.404,-0.897,1.525,36.0
40.399,-0.902,1.312,39.0
0.0,0.0,0.0,0.0
40.411,-0.912,0.894,36.0
40.403,-0.919,2.021,31.0
40.409,-0.924,1.812,36.0
40.405,-0.928,1.602,35.0
40.398,-0.932,1.388,35.0
38.717,-0.898,1.131,33.0
38.754,-0.903,0.931,20.0
28.375,-0.666,1.473,58.0
40.433,-0.954,1.89,26.0
40.434,-0.958,1.68,25.0
40.427,-0.962,1.467,25.0
40.429,-0.966,1.258,2.0
38.686,-0.929,1.003,42.0
28.374,-0.686,1.527,70.0
45.846,-1.113,2.23,14.0
45.771,-1.116,1.989,39.0
45.712,-1.119,1.746,45.0
45.676,-1.123,1.509,31.0
38.663,-0.954,1.077,47.0
28.373,-0.705,1.582,76.0
38.64,-0.963,1.954,17.0
45.816,-1.147,2.079,17.0
45.748,-1.149,1.835,17.0
45.751,-1.153,1.599,4.0
38.666,-0.978,1.151,36.0
28.383,-0.723,1.637,72.0
28.372,-0.725,1.49,61.0
38.645,-0.991,1.828,38.0
38.651,-0.994,1.625,19.0
38.721,-0.999,1.427,21.0
38.654,-1.0,1.225,24.0
28.376,-0.739,1.691,74.0
28.379,-0.742,1.545,69.0
38.597,-1.012,1.901,35.0
38.639,-1.016,1.699,41.0
38.684,-1.02,1.501,34.0
38.609,-1.021,1.298,49.0
28.382,-0.755,1.747,71.0
28.386,-0.757,1.6,70.0
38.573,-1.032,1.974,6.0
38.635,-1.036,1.773,56.0
38.641,-1.039,1.574,67.0
38.624,-1.041,1.373,47.0
28.383,-0.77,1.802,76.0
28.384,-0.771,1.654,68.0
28.382,-0.773,1.507,66.0
38.581,-1.053,1.845,53.0
38.652,-1.057,1.648,78.0
38.646,-1.06,1.448,58.0
28.385,-0.783,1.857,76.0
28.383,-0.785,1.71,67.0
28.37,-0.786,1.562,69.0
38.532,-1.069,1.918,40.0
38.621,-1.074,1.722,68.0
38.64,-1.076,1.523,62.0
28.386,-0.796,1.912,76.0
28.378,-0.797,1.764,68.0
28.384,-0.798,1.617,69.0
28.375,-0.799,1.466,61.0
38.588,-1.088,1.794,58.0
38.631,-1.091,1.597,78.0
28.382,-0.807,1.966,80.0
28.379,-0.808,1.819,73.0
28.381,-0.808,1.671,70.0
28.378,-0.809,1.521,71.0
38.529,-1.1,1.865,47.0
38.634,-1.105,1.67,78.0
28.383,-0.817,2.021,75.0
28.38,-0.817,1.873,72.0
28.382,-0.818,1.726,70.0
28.375,-0.819,1.575,71.0
38.499,-1.112,1.938,10.0
38.601,-1.116,1.743,63.0
28.38,-0.826,2.075,75.0
28.383,-0.826,1.927,73.0
28.368,-0.826,1.779,70.0
28.379,-0.827,1.629,72.0
28.375,-0.827,1.482,68.0
38.532,-1.124,1.813,37.0
28.383,-0.833,2.13,75.0
28.376,-0.833,1.981,73.0
28.378,-0.834,1.834,71.0
28.383,-0.834,1.684,72.0
28.382,-0.835,1.536,74.0
38.471,-1.132,1.882,43.0
28.387,-0.84,2.184,77.0
28.377,-0.84,2.035,69.0
28.38,-0.84,1.887,70.0
28.389,-0.84,1.737,71.0
28.383,-0.84,1.589,73.0
38.464,-1.139,1.955,6.0
28.388,-0.846,2.238,76.0
28.384,-0.845,2.089,71.0
28.381,-0.845,1.941,72.0
28.377,-0.845,1.79,73.0
28.385,-0.845,1.642,74.0
28.381,-0.845,1.495,72.0
28.385,-0.85,2.291,77.0
28.384,-0.85,2.142,73.0
28.373,-0.849,1.994,71.0
28.386,-0.849,1.843,72.0
28.382,-0.848,1.696,73.0
28.38,-0.848,1.548,75.0
28.384,-0.853,2.344,80.0
28.38,-0.852,2.195,73.0
28.382,-0.852,2.047,70.0
28.386,-0.852,1.897,72.0
28.381,-0.851,1.748,73.0
28.383,-0.85,1.601,73.0
28.376,-0.855,2.397,85.0
28.376,-0.854,2.248,68.0
28.375,-0.853,2.099,73.0
28.384,-0.853,1.949,74.0
28.38,-0.852,1.801,79.0
28.379,-0.851,1.653,75.0
28.377,-0.856,2.449,77.0
28.379,-0.855,2.3,71.0
28.372,-0.854,2.151,75.0
28.377,-0.853,2.0,71.0
28.378,-0.852,1.853,78.0
28.389,-0.852,1.705,72.0
28.371,-0.856,2.501,73.0
28.378,-0.855,2.352,75.0
28.376,-0.854,2.203,72.0
28.377,-0.852,2.052,70.0
28.373,-0.851,1.904,71.0
28.393,-0.851,1.757,73.0
28.367,-0.855,2.552,71.0
28.368,-0.853,2.403,77.0
28.386,-0.852,2.255,70.0
28.371,-0.85,2.103,70.0
28.372,-0.849,1.954,78.0
28.385,-0.848,1.807,76.0
28.355,-0.852,2.602,66.0
28.368,-0.851,2.454,74.0
28.379,-0.849,2.306,70.0
28.367,-0.848,2.153,71.0
28.382,-0.846,2.006,70.0
28.381,-0.845,1.857,72.0
28.352,-0.849,2.653,27.0
28.367,-0.847,2.505,70.0
28.372,-0.846,2.356,73.0
28.379,-0.844,2.205,73.0
28.38,-0.842,2.056,70.0
28.382,-0.841,1.907,72.0
44.537,-1.327,4.246,3.0
28.371,-0.843,2.555,63.0
28.366,-0.841,2.405,77.0
28.364,-0.839,2.253,71.0
28.374,-0.837,2.105,68.0
28.389,-0.836,1.957,75.0
50.986,-1.509,4.949,4.0
28.365,-0.837,2.603,60.0
28.374,-0.835,2.455,73.0
28.369,-0.833,2.302,70.0
28.376,-0.831,2.153,72.0
28.379,-0.829,2.005,70.0
42.623,-1.252,4.211,10.0
44.53,-1.304,4.164,18.0
28.375,-0.828,2.504,72.0
28.366,-0.826,2.35,70.0
28.367,-0.823,2.201,74.0
28.38,-0.821,2.053,73.0
44.485,-1.294,4.471,29.0
0.0,0.0,0.0,0.0
28.358,-0.82,2.55,66.0
28.371,-0.818,2.399,78.0
28.368,-0.815,2.249,74.0
28.38,-0.813,2.101,74.0
44.469,-1.281,4.544,60.0
0.0,0.0,0.0,0.0
28.36,-0.811,2.597,61.0
28.368,-0.809,2.446,83.0
28.381,-0.806,2.297,74.0
28.375,-0.803,2.147,69.0
57.867,-1.647,6.01,15.0
44.488,-1.262,4.385,65.0
42.76,-1.208,3.987,3.0
28.368,-0.798,2.492,101.0
28.369,-0.795,2.342,68.0
28.371,-0.793,2.193,70.0
51.46,-1.445,5.429,0.0
44.494,-1.245,4.457,7.0
47.15,-1.314,4.473,10.0
28.354,-0.787,2.537,76.0
28.367,-0.784,2.388,76.0
28.375,-0.781,2.238,73.0
57.055,-1.579,6.111,5.0
55.014,-1.517,5.599,7.0
50.747,-1.393,4.895,3.0
28.357,-0.775,2.582,62.0
28.365,-0.772,2.432,67.0
28.375,-0.769,2.283,72.0
47.486,-1.294,5.162,22.0
54.582,-1.48,5.642,1.0
50.656,-1.367,4.966,5.0
28.348,-0.762,2.625,53.0
28.363,-0.759,2.476,68.0
28.369,-0.755,2.326,72.0
41.054,-1.098,4.526,8.0
47.382,-1.262,4.971,35.0
47.264,-1.253,4.707,38.0
47.132,-1.243,4.438,20.0
28.369,-0.744,2.52,71.0
28.368,-0.741,2.369,75.0
39.897,-1.047,4.46,2.0
51.921,-1.356,5.526,4.0
47.165,-1.226,4.768,19.0
47.164,-1.22,4.511,3.0
28.351,-0.729,2.561,73.0
28.368,-0.726,2.412,78.0
44.435,-1.143,5.034,16.0
47.123,-1.205,5.086,6.0
54.497,-1.386,5.59,6.0
55.021,-1.391,5.345,1.0
28.348,-0.713,2.602,62.0
28.361,-0.709,2.452,77.0
42.329,-1.064,4.857,16.0
40.751,-1.018,4.458,4.0
51.729,-1.285,5.381,17.0
51.772,-1.279,5.103,35.0
28.334,-0.696,2.641,37.0
28.362,-0.693,2.493,77.0
24.826,-0.609,2.884,30.0
44.511,-1.086,4.932,19.0
51.724,-1.254,5.454,57.0
61.544,-1.482,6.153,12.0
51.805,-1.24,4.902,12.0
28.357,-0.675,2.532,75.0
24.833,-0.593,2.92,45.0
44.439,-1.055,4.986,42.0
44.702,-1.054,4.775,12.0
53.932,-1.264,5.466,6.0
31.478,-0.733,3.022,3.0
28.351,-0.656,2.57,69.0
24.815,-0.576,2.952,48.0
43.696,-1.008,4.962,6.0
44.645,-1.023,4.829,47.0
44.62,-1.016,4.582,25.0
31.456,-0.711,3.061,44.0
28.345,-0.636,2.606,64.0
24.795,-0.559,2.982,59.0
0.0,0.0,0.0,0.0
44.688,-0.993,4.893,17.0
44.614,-0.984,4.64,66.0
31.472,-0.689,3.103,33.0
31.459,-0.684,2.933,23.0
24.793,-0.541,3.014,64.0
40.233,-0.871,4.674,8.0
40.604,-0.873,4.497,7.0
51.939,-1.108,5.467,8.0
31.503,-0.667,3.146,27.0
31.449,-0.66,2.972,35.0
24.779,-0.522,3.044,69.0
24.842,-0.519,2.917,4.0
31.717,-0.658,3.552,1.0
44.458,-0.914,4.735,13.0
31.538,-0.643,3.189,35.0
31.49,-0.637,3.014,23.0
24.78,-0.503,3.075,81.0
24.848,-0.5,2.948,13.0
51.214,-1.023,5.798,4.0
45.455,-0.9,4.895,3.0
31.575,-0.619,3.23,34.0
43.709,-0.85,4.235,5.0
24.777,-0.483,3.104,82.0
40.512,-0.783,4.855,13.0
40.317,-0.772,4.612,3.0
44.615,-0.846,4.857,8.0
31.623,-0.594,3.271,39.0
37.695,-0.702,3.696,3.0
24.767,-0.462,3.131,43.0
40.715,-0.753,4.926,24.0
40.401,-0.74,4.668,7.0
44.45,-0.806,4.889,15.0
31.671,-0.569,3.312,40.0
57.602,-1.024,5.712,5.0
24.761,-0.441,3.158,24.0
37.542,-0.662,4.583,34.0
43.931,-0.767,5.124,18.0
44.19,-0.763,4.909,19.0
31.706,-0.542,3.349,34.0
40.587,-0.687,4.067,2.0
41.24,-0.699,5.305,9.0
46.702,-0.783,5.752,7.0
37.541,-0.622,4.418,39.0
37.61,-0.616,4.217,7.0
31.776,-0.515,3.39,27.0
37.633,-0.603,3.81,30.0
41.212,-0.661,5.344,2.0
37.707,-0.598,4.683,7.0
37.661,-0.59,4.471,62.0
37.574,-0.582,4.251,64.0
37.647,-0.576,4.054,16.0
37.642,-0.569,3.849,60.0
37.744,-0.571,4.932,43.0
37.714,-0.563,4.721,38.0
44.2,-0.652,5.29,18.0
37.569,-0.547,4.287,35.0
31.835,-0.457,3.459,22.0
37.643,-0.534,3.885,35.0
47.297,-0.671,6.226,5.0
37.695,-0.527,4.755,6.0
42.628,-0.588,5.142,6.0
37.542,-0.511,4.319,33.0
31.841,-0.427,3.489,6.0
37.651,-0.498,3.92,4.0
44.945,-0.594,5.958,10.0
34.251,-0.446,4.351,2.0
46.555,-0.598,5.658,3.0
37.528,-0.474,4.351,15.0
54.209,-0.675,5.988,10.0
45.911,-0.563,4.82,2.0
36.416,-0.446,4.859,3.0
37.737,-0.455,4.826,4.0
44.24,-0.525,5.415,8.0
37.467,-0.437,4.375,10.0
31.835,-0.365,3.543,27.0
31.865,-0.359,3.371,4.0
40.818,-0.459,5.48,5.0
37.749,-0.418,4.859,5.0
36.133,-0.393,4.451,4.0
46.49,-0.496,5.466,4.0
31.809,-0.333,3.565,24.0
52.532,-0.54,5.6,14.0
32.391,-0.332,4.374,2.0
53.021,-0.533,6.866,8.0
37.517,-0.369,4.651,6.0
36.061,-0.348,4.268,12.0
31.823,-0.301,3.591,25.0
47.414,-0.439,5.089,29.0
36.446,-0.336,4.949,2.0
36.452,-0.328,4.748,2.0
37.5,-0.33,4.676,35.0
47.683,-0.411,5.677,36.0
31.841,-0.268,3.615,25.0
47.097,-0.387,5.088,15.0
36.541,-0.298,4.988,3.0
43.642,-0.347,5.714,3.0
36.938,-0.287,4.631,15.0
47.235,-0.358,5.656,46.0
31.857,-0.235,3.638,36.0
38.874,-0.278,4.225,31.0
36.569,-0.26,5.016,4.0
47.301,-0.327,6.224,52.0
37.45,-0.251,4.719,4.0
36.703,-0.239,4.418,3.0
31.869,-0.201,3.659,47.0
39.082,-0.239,4.272,29.0
47.312,-0.285,6.518,14.0
40.292,-0.235,5.326,1.0
38.427,-0.217,4.866,7.0
38.66,-0.21,4.676,12.0
31.918,-0.167,3.683,55.0
39.09,-0.197,4.295,42.0
39.158,-0.194,5.417,5.0
37.514,-0.177,4.98,27.0
38.446,-0.175,4.889,15.0
39.158,-0.17,4.758,13.0
31.932,-0.133,3.702,61.0
46.206,-0.183,5.101,5.0
40.666,-0.157,5.647,4.0
37.562,-0.137,5.005,38.0
0.0,0.0,0.0,0.0
31.929,-0.104,3.895,46.0
31.923,-0.097,3.717,48.0
36.529,-0.104,4.05,12.0
36.41,-0.1,5.074,16.0
39.249,-0.1,5.249,21.0
31.953,-0.075,4.094,68.0
31.962,-0.069,3.913,70.0
57.74,-0.113,6.748,11.0
52.187,-0.091,5.809,15.0
32.098,-0.052,4.486,19.0
31.979,-0.046,4.29,38.0
31.97,-0.039,4.109,58.0
39.633,-0.041,4.869,15.0
52.194,-0.044,6.12,45.0
36.533,-0.023,4.08,13.0
37.671,-0.019,5.28,14.0
31.953,-0.01,4.299,67.0
36.524,-0.004,4.708,7.0
36.212,0.002,4.461,13.0
39.769,0.01,4.677,8.0
36.677,0.016,4.109,13.0
31.93,0.019,4.486,25.0
31.932,0.025,4.306,50.0
36.271,0.036,4.687,3.0
36.082,0.043,4.457,6.0
39.619,0.055,4.672,3.0
39.841,0.063,4.475,4.0
31.924,0.055,4.495,60.0
52.203,0.1,7.055,11.0
0.0,0.0,0.0,0.0
33.085,0.076,4.095,10.0
40.022,0.1,4.73,1.0
30.49,0.082,3.432,31.0
39.154,0.113,5.522,15.0
38.053,0.117,5.152,5.0
0.0,0.0,0.0,0.0
32.882,0.113,4.077,2.0
30.479,0.111,3.608,20.0
30.488,0.117,3.438,35.0
30.39,0.122,4.292,41.0
53.442,0.225,7.245,14.0
33.137,0.146,4.305,3.0
30.448,0.14,3.781,3.0
30.481,0.146,3.613,72.0
30.5,0.151,3.444,36.0
39.071,0.201,5.524,15.0
30.399,0.163,4.125,25.0
30.371,0.168,3.95,30.0
30.393,0.174,3.778,36.0
30.477,0.18,3.617,5.0
30.536,0.186,3.452,15.0
38.978,0.245,5.515,15.0
30.342,0.197,4.121,17.0
30.365,0.203,3.952,40.0
30.401,0.208,3.781,41.0
40.183,0.283,4.771,3.0
40.372,0.292,4.567,6.0
30.281,0.226,4.286,43.0
30.33,0.232,4.121,21.0
30.368,0.237,3.953,42.0
30.42,0.244,3.785,2.0
59.48,0.487,7.064,9.0
36.301,0.304,4.107,5.0
47.057,0.405,6.661,6.0
47.995,0.422,6.521,3.0
39.343,0.352,5.122,5.0
42.094,0.385,5.237,4.0
57.415,0.536,6.818,5.0
36.276,0.345,4.103,4.0
38.902,0.378,5.506,3.0
22.774,0.226,3.093,2.0
30.45,0.308,3.962,24.0
51.291,0.527,6.378,1.0
40.251,0.421,4.777,2.0
30.977,0.329,3.501,39.0
38.756,0.422,5.481,11.0
48.684,0.538,6.608,5.0
30.471,0.342,3.962,16.0
47.914,0.546,5.953,5.0
40.249,0.466,4.772,3.0
31.036,0.365,3.504,60.0
38.682,0.464,5.466,5.0
54.427,0.663,7.38,2.0
30.48,0.376,3.959,5.0
53.846,0.674,6.682,22.0
31.042,0.394,3.675,32.0
31.056,0.4,3.501,2.0
47.163,0.619,6.656,9.0
51.684,0.687,6.998,8.0
39.292,0.529,5.096,5.0
47.803,0.652,5.922,12.0
31.067,0.429,3.672,60.0
46.45,0.65,5.227,7.0
47.158,0.672,6.645,6.0
48.105,0.693,6.503,3.0
35.902,0.523,4.648,1.0
31.039,0.458,3.838,8.0
31.061,0.463,3.664,7.0
47.58,0.718,5.342,9.0
0.0,0.0,0.0,0.0
30.887,0.479,4.166,10.0
39.559,0.62,5.11,4.0
31.024,0.492,3.827,42.0
46.871,0.751,5.515,21.0
47.771,0.773,5.349,7.0
57.077,0.94,8.009,14.0
30.609,0.509,4.119,22.0
39.378,0.661,5.073,1.0
31.06,0.526,3.821,17.0
47.251,0.808,5.543,8.0
47.919,0.827,5.349,5.0
53.319,0.937,7.462,7.0
30.489,0.54,4.092,23.0
31.072,0.555,3.992,32.0
46.415,0.837,5.692,7.0
47.049,0.856,5.501,10.0
47.877,0.878,5.325,3.0
31.084,0.58,4.338,2.0
30.836,0.58,4.125,47.0
31.065,0.589,3.977,47.0
46.414,0.887,5.672,3.0
52.179,1.006,6.078,5.0
52.522,1.02,5.819,14.0
31.095,0.613,4.325,45.0
30.913,0.614,4.121,9.0
31.078,0.622,3.965,6.0
47.555,0.96,5.789,3.0
52.522,1.068,6.093,6.0
46.272,0.948,5.104,11.0
53.007,1.102,7.346,4.0
31.049,0.65,4.124,24.0
46.424,0.979,5.899,4.0
54.254,1.152,6.577,5.0
52.55,1.123,6.069,3.0
46.773,1.007,5.134,11.0
30.462,0.665,4.205,3.0
31.089,0.684,4.112,42.0
46.413,1.027,5.872,6.0
52.267,1.164,6.306,13.0
52.374,1.174,6.019,2.0
55.25,1.247,6.033,5.0
30.495,0.698,4.192,13.0
39.312,0.905,5.176,8.0
52.524,1.216,6.613,26.0
46.892,1.092,5.629,17.0
47.313,1.108,5.408,3.0
46.567,1.098,5.056,7.0
30.73,0.734,4.205,40.0
52.537,1.262,6.885,26.0
47.77,1.154,5.984,4.0
57.067,1.386,6.814,8.0
46.579,1.138,5.294,39.0
60.368,1.483,6.515,5.0
52.674,1.312,7.172,18.0
46.448,1.162,6.055,7.0
52.225,1.313,6.506,8.0
58.756,1.485,6.975,7.0
46.315,1.177,5.232,8.0
53.216,1.359,5.706,4.0
52.658,1.363,7.131,2.0
54.341,1.414,7.044,4.0
33.553,0.877,4.155,1.0
46.571,1.223,5.494,3.0
58.961,1.556,6.617,7.0
46.406,1.23,4.941,5.0
33.629,0.903,4.529,2.0
47.992,1.294,6.184,9.0
52.162,1.414,6.42,8.0
52.611,1.432,6.166,3.0
46.182,1.263,5.146,4.0
36.786,1.01,3.888,3.0
46.476,1.292,6.221,6.0
46.694,1.303,5.979,16.0
52.445,1.47,6.412,2.0
52.698,1.483,6.133,3.0
48.331,1.365,5.346,2.0
46.598,1.322,4.886,25.0
46.668,1.34,6.207,25.0
59.307,1.71,7.544,22.0
59.282,1.715,7.198,11.0
59.158,1.719,6.834,5.0
58.563,1.707,6.428,32.0
0.0,0.0,0.0,0.0
39.288,1.164,5.191,5.0
52.113,1.549,6.583,3.0
47.384,1.413,5.711,3.0
60.226,1.803,6.904,13.0
0.0,0.0,0.0,0.0
57.68,1.739,5.947,4.0
52.147,1.59,6.842,2.0
60.0,1.836,7.523,2.0
60.261,1.85,7.206,17.0
59.449,1.831,6.759,31.0
46.619,1.441,5.031,9.0
66.726,2.069,6.816,8.0
48.122,1.509,6.267,3.0
60.548,1.905,7.533,35.0
52.784,1.666,6.26,4.0
46.334,1.467,5.222,14.0
46.334,1.471,4.954,8.0
52.433,1.669,5.304,4.0
52.754,1.698,6.817,2.0
47.577,1.536,5.871,4.0
58.998,1.91,6.938,22.0
46.48,1.509,5.192,21.0
46.245,1.505,4.898,6.0
52.405,1.71,5.248,5.0
59.861,1.975,7.673,4.0
59.187,1.958,7.242,15.0
52.656,1.746,6.137,3.0
46.397,1.543,5.134,11.0
46.23,1.541,4.847,7.0
43.376,1.45,4.298,4.0
59.201,2.0,7.524,17.0
59.586,2.018,7.226,2.0
46.702,1.585,5.392,18.0
46.694,1.588,5.116,9.0
58.424,1.992,6.062,5.0
49.623,1.696,4.862,7.0
46.894,1.619,5.908,19.0
47.556,1.646,5.714,0.0
46.69,1.619,5.338,8.0
57.578,2.001,6.243,6.0
60.594,2.111,6.219,3.0
46.185,1.612,4.473,4.0
39.397,1.389,4.918,4.0
46.764,1.652,5.565,14.0
46.62,1.65,5.276,5.0
58.485,2.074,6.274,7.0
60.204,2.139,6.109,22.0
52.854,1.882,5.058,6.0
39.397,1.416,4.871,3.0
61.113,2.201,7.199,7.0
46.23,1.668,5.176,5.0
46.702,1.688,4.953,5.0
66.293,2.401,6.647,7.0
43.655,1.584,4.124,5.0
61.303,2.246,7.504,9.0
46.693,1.713,5.443,1.0
46.194,1.697,5.116,9.0
60.237,2.217,6.315,15.0
52.387,1.931,5.188,4.0
46.159,1.704,4.304,5.0
46.804,1.744,5.67,14.0
46.704,1.743,5.385,4.0
46.52,1.738,5.093,5.0
46.086,1.725,4.773,6.0
52.635,1.973,5.146,7.0
46.144,1.732,4.244,3.0
52.667,1.995,6.313,4.0
46.839,1.776,5.34,12.0
46.751,1.775,5.058,5.0
60.297,2.293,6.167,6.0
43.742,1.665,4.219,2.0
50.539,1.927,4.582,1.0
60.386,2.322,7.157,17.0
46.621,1.794,5.253,5.0
46.715,1.801,4.991,4.0
59.959,2.314,6.051,1.0
42.823,1.654,4.073,4.0
46.94,1.815,4.193,9.0
60.268,2.351,7.061,4.0
59.504,2.323,6.624,20.0
46.891,1.832,4.946,4.0
60.148,2.352,5.989,2.0
46.118,1.806,4.324,5.0
47.007,1.843,4.134,8.0
59.999,2.371,6.946,10.0
46.179,1.826,5.076,12.0
46.195,1.829,4.808,11.0
52.455,2.078,5.149,5.0
46.118,1.828,4.259,3.0
43.486,1.726,3.764,7.0
59.398,2.376,6.792,13.0
46.181,1.848,5.011,3.0
46.017,1.843,4.724,5.0
52.575,2.107,5.086,5.0
53.454,2.144,4.861,1.0
46.96,1.885,3.998,3.0
46.789,1.892,5.282,11.0
46.746,1.891,5.004,6.0
66.164,2.678,6.697,4.0
54.834,2.221,5.226,1.0
59.139,2.397,5.292,3.0
50.394,2.044,4.217,2.0
46.345,1.893,5.163,4.0
46.646,1.906,4.925,8.0
60.246,2.463,6.009,4.0
46.076,1.884,4.322,7.0
47.034,1.924,4.138,7.0
52.571,2.152,4.32,5.0
46.183,1.904,5.076,7.0
60.088,2.478,6.252,5.0
52.433,2.162,5.15,6.0
46.064,1.9,4.251,4.0
46.967,1.939,4.061,12.0
68.159,2.814,5.499,4.0
46.224,1.921,5.009,1.0
45.947,1.91,4.71,6.0
52.447,2.181,5.07,8.0
53.6,2.229,4.864,7.0
46.94,1.952,3.987,4.0
68.133,2.835,5.392,7.0
46.351,1.941,4.951,6.0
45.811,1.918,4.625,3.0
43.505,1.822,4.139,3.0
53.442,2.237,4.768,4.0
52.635,2.204,4.389,2.0
47.25,1.979,3.666,6.0
46.758,1.97,4.921,9.0
59.338,2.5,5.898,6.0
46.058,1.94,4.309,8.0
47.064,1.982,4.125,12.0
52.553,2.213,4.3,11.0
47.323,1.993,3.597,2.0
59.926,2.539,6.211,2.0
52.458,2.222,5.13,6.0
53.683,2.273,4.937,4.0
47.023,1.991,4.045,16.0
52.634,2.228,4.222,1.0
51.787,2.191,3.853,3.0
45.936,1.955,4.686,5.0
52.401,2.229,5.04,3.0
53.676,2.282,4.849,4.0
43.575,1.852,3.679,4.0
47.262,2.008,3.715,2.0
68.636,2.916,4.996,4.0
43.958,1.878,4.413,1.0
46.019,1.965,4.35,7.0
53.217,2.271,4.72,2.0
51.901,2.214,4.296,5.0
47.309,2.017,3.641,5.0
67.913,2.894,4.832,7.0
52.352,2.242,5.168,4.0
46.019,1.97,4.273,3.0
47.01,2.011,4.091,12.0
0.0,0.0,0.0,0.0
47.394,2.025,3.568,3.0
67.084,2.865,4.661,7.0
52.473,2.252,5.092,5.0
53.656,2.301,4.893,2.0
47.034,2.015,4.014,7.0
52.789,2.26,4.193,3.0
47.423,2.029,3.491,1.0
53.474,2.286,3.626,0.0
43.499,1.868,4.147,4.0
59.175,2.539,5.295,5.0
43.61,1.869,3.648,3.0
47.252,2.024,3.673,5.0
68.292,2.922,4.911,4.0
69.486,2.971,4.593,4.0
46.002,1.976,4.307,5.0
47.039,2.018,4.129,6.0
0.0,0.0,0.0,0.0
47.3,2.025,3.595,6.0
67.306,2.879,4.725,8.0
69.089,2.953,4.448,8.0
49.495,2.123,4.548,2.0
47.023,2.015,4.046,12.0
52.804,2.26,4.236,4.0
47.399,2.026,3.521,2.0
53.628,2.29,3.672,1.0
68.738,2.933,4.307,3.0
53.584,2.295,4.829,3.0
43.589,1.864,3.674,3.0
47.199,2.016,3.703,2.0
68.458,2.921,4.965,3.0
69.473,2.96,4.635,3.0
67.333,2.865,4.101,6.0
47.085,2.011,4.161,4.0
52.366,2.233,4.322,6.0
47.306,2.015,3.629,5.0
67.549,2.873,4.781,10.0
69.352,2.945,4.506,20.0
203.458,8.631,12.04,5.0
47.038,2.001,4.074,14.0
52.545,2.232,4.244,6.0
51.704,2.193,3.874,3.0
67.462,2.857,4.655,8.0
0.0,0.0,0.0,0.0
198.209,8.37,11.377,5.0
43.586,1.846,3.697,5.0
47.271,1.999,3.733,2.0
68.709,2.9,5.026,8.0
67.75,2.854,4.555,2.0
67.385,2.835,4.138,3.0
195.264,8.202,10.861,17.0
52.463,2.209,4.356,10.0
47.245,1.986,3.647,3.0
67.664,2.839,4.829,8.0
69.185,2.897,4.528,4.0
67.401,2.818,4.019,2.0
194.783,8.13,10.486,26.0
68.131,2.85,5.534,7.0
51.701,2.158,3.898,4.0
67.027,2.793,4.663,7.0
69.155,2.876,4.402,7.0
68.764,2.854,3.978,1.0
194.283,8.049,10.112,26.0
47.232,1.96,3.751,5.0
68.758,2.848,5.06,6.0
67.657,2.797,4.585,3.0
69.139,2.852,4.276,2.0
0.0,0.0,0.0,0.0
194.205,7.979,9.758,22.0
47.236,1.944,3.666,4.0
47.787,1.962,3.429,3.0
69.094,2.831,4.557,5.0
67.36,2.753,4.043,3.0
194.811,7.947,10.565,22.0
194.389,7.912,9.415,14.0
51.664,2.105,3.916,4.0
67.202,2.732,4.701,8.0
68.793,2.79,4.413,3.0
68.737,2.781,4.002,3.0
194.285,7.841,10.183,23.0
194.421,7.828,9.061,21.0
43.96,1.772,3.25,1.0
67.708,2.722,4.612,8.0
68.646,2.753,4.277,6.0
0.0,0.0,0.0,0.0
194.295,7.752,9.829,25.0
194.919,7.757,8.729,17.0
68.592,2.731,4.946,14.0
68.895,2.736,4.566,6.0
67.369,2.668,4.073,5.0
194.912,7.698,10.632,16.0
194.898,7.676,9.499,8.0
195.282,7.672,8.385,4.0
67.345,2.646,4.731,6.0
53.515,2.097,3.448,1.0
68.709,2.684,4.027,1.0
194.883,7.592,10.27,15.0
195.07,7.577,9.149,8.0
0.0,0.0,0.0,0.0
53.376,2.067,3.652,2.0
68.358,2.639,4.279,1.0
0.0,0.0,0.0,0.0
194.758,7.475,9.911,22.0
195.918,7.496,8.832,11.0
194.747,7.428,7.65,6.0
68.846,2.625,4.584,7.0
0.0,0.0,0.0,0.0
0.0,0.0,0.0,0.0
195.146,7.369,9.572,22.0
196.017,7.378,8.476,7.0
194.33,7.29,7.276,8.0
68.573,2.57,4.439,7.0
202.371,7.561,11.924,16.0
119.059,4.432,6.322,6.0
195.26,7.243,9.215,7.0
197.745,7.309,8.186,5.0
193.46,7.125,6.887,20.0
68.362,2.516,4.299,12.0
103.623,3.799,5.914,2.0
195.615,7.144,10.029,16.0
197.155,7.176,8.946,7.0
193.707,7.024,7.667,8.0
0.0,0.0,0.0,0.0
67.48,2.434,4.12,2.0
117.718,4.23,6.504,2.0
195.349,6.992,9.658,21.0
196.196,6.996,8.542,17.0
193.708,6.879,7.31,23.0
0.0,0.0,0.0,0.0
103.172,3.644,6.111,5.0
118.227,4.158,6.315,3.0
117.753,4.123,5.607,2.0
193.527,6.751,8.075,8.0
193.428,6.719,6.949,18.0
198.008,6.849,5.968,5.0
0.0,0.0,0.0,0.0
196.693,6.76,10.153,14.0
118.0,4.038,5.406,2.0
193.572,6.594,7.726,25.0
193.675,6.569,6.609,16.0
194.831,6.579,5.522,5.0
117.115,3.945,6.512,2.0
104.263,3.495,5.191,5.0
195.912,6.536,8.619,9.0
193.772,6.434,7.382,21.0
193.538,6.398,6.254,8.0
0.0,0.0,0.0,0.0
103.493,3.394,5.567,2.0
117.914,3.848,5.658,6.0
193.612,6.287,8.167,23.0
193.489,6.251,7.022,16.0
0.0,0.0,0.0,0.0
193.767,6.199,4.788,5.0
110.878,3.534,5.763,5.0
102.281,3.242,4.722,2.0
193.73,6.109,7.82,20.0
193.256,6.063,6.662,24.0
194.421,6.067,5.578,6.0
193.851,6.016,4.44,24.0
110.715,3.421,5.553,3.0
102.293,3.144,4.537,5.0
193.526,5.915,7.464,16.0
193.051,5.866,6.307,22.0
193.909,5.859,5.215,15.0
193.604,5.819,4.089,33.0
118.511,3.545,5.732,2.0
102.373,3.043,4.358,2.0
193.762,5.728,7.128,9.0
193.022,5.672,5.966,23.0
193.957,5.667,4.875,27.0
193.54,5.62,3.745,24.0
0.0,0.0,0.0,0.0
102.825,2.951,4.195,2.0
193.54,5.518,6.777,7.0
194.083,5.5,5.654,12.0
193.651,5.451,4.521,26.0
193.466,5.411,3.4,8.0
194.753,5.417,8.73,6.0
193.374,5.342,7.549,6.0
193.165,5.299,6.423,25.0
194.53,5.302,5.326,25.0
193.733,5.243,4.183,30.0
195.673,5.259,3.096,6.0
120.231,3.212,5.18,7.0
156.76,4.157,5.846,6.0
0.0,0.0,0.0,0.0
194.15,5.076,4.979,27.0
193.616,5.024,3.846,30.0
195.263,5.029,2.753,24.0
102.739,2.628,4.248,8.0
200.499,5.089,7.133,6.0
194.398,4.895,5.791,7.0
194.074,4.849,4.641,27.0
193.55,4.798,3.511,26.0
0.0,0.0,0.0,0.0
102.616,2.503,4.066,1.0
134.922,3.265,4.567,3.0
194.575,4.669,5.463,18.0
193.946,4.614,4.305,33.0
195.108,4.604,3.206,7.0
0.0,0.0,0.0,0.0
0.0,0.0,0.0,0.0
0.0,0.0,0.0,0.0
194.662,4.435,5.136,21.0
193.957,4.378,3.978,15.0
195.257,4.367,2.878,26.0
0.0,0.0,0.0,0.0
124.076,2.723,4.496,2.0
194.837,4.235,5.936,8.0
194.622,4.189,4.806,21.0
196.16,4.181,3.694,5.0
103.145,2.176,1.347,5.0
102.983,2.152,0.752,1.0
0.0,0.0,0.0,0.0
0.0,0.0,0.0,0.0
194.462,3.937,4.481,16.0
195.436,3.915,3.358,5.0
103.182,2.044,1.178,6.0
99.963,1.959,0.566,4.0
147.751,2.862,4.865,2.0
0.0,0.0,0.0,0.0
194.547,3.683,4.163,18.0
0.0,0.0,0.0,0.0
0.0,0.0,0.0,0.0
99.891,1.824,0.402,7.0
0.0,0.0,0.0,0.0
0.0,0.0,0.0,0.0
194.901,3.427,3.856,25.0
0.0,0.0,0.0,0.0
0.0,0.0,0.0,0.0
99.734,1.685,0.24,5.0
0.0,0.0,0.0,0.0
197.069,3.236,4.714,8.0
194.928,3.154,3.539,28.0
0.0,0.0,0.0,0.0
99.661,1.566,0.651,5.0
99.751,1.543,0.077,4.0
157.035,2.392,4.408,5.0
196.204,2.941,4.377,24.0
194.772,2.875,3.226,35.0
0.0,0.0,0.0,0.0
99.655,1.422,0.493,5.0
99.769,1.401,-0.079,1.0
20.276,0.279,0.537,2.0
20.3,0.275,0.421,8.0
20.297,0.27,0.304,5.0
20.303,0.265,0.185,0.0
99.548,1.277,0.338,5.0
0.0,0.0,0.0,0.0
20.292,0.25,0.506,28.0
20.278,0.245,0.389,25.0
20.277,0.24,0.273,20.0
20.289,0.235,0.154,16.0
20.339,0.23,0.038,2.0
0.0,0.0,0.0,0.0
20.273,0.219,0.475,30.0
20.268,0.214,0.358,32.0
20.288,0.209,0.242,26.0
20.313,0.205,0.124,28.0
20.337,0.2,0.007,28.0
20.215,0.193,-0.108,14.0
20.283,0.189,0.445,32.0
20.283,0.183,0.328,27.0
20.28,0.178,0.212,25.0
20.28,0.173,0.093,28.0
20.212,0.167,-0.022,19.0
20.18,0.162,-0.138,26.0
20.185,0.157,0.413,25.0
20.198,0.151,0.297,23.0
20.179,0.146,0.181,23.0
20.193,0.141,0.064,25.0
20.196,0.136,-0.051,27.0
20.177,0.13,-0.167,31.0
20.165,0.125,0.383,28.0
20.165,0.119,0.268,28.0
20.164,0.114,0.152,25.0
20.187,0.109,0.035,34.0
20.183,0.103,-0.08,31.0
20.185,0.098,-0.196,22.0
20.148,0.092,0.354,29.0
20.152,0.087,0.239,27.0
20.16,0.081,0.124,26.0
20.202,0.076,0.006,29.0
20.204,0.071,-0.109,25.0
20.224,0.065,-0.225,1.0
20.14,0.06,0.327,29.0
20.14,0.054,0.211,28.0
20.16,0.048,0.096,24.0
20.233,0.043,-0.021,15.0
20.266,0.038,-0.137,150.0
20.256,0.032,-0.253,150.0
20.144,0.026,0.299,29.0
20.134,0.021,0.184,27.0
20.193,0.015,0.069,42.0
20.254,0.01,-0.048,150.0
20.248,0.004,-0.164,22.0
20.238,-0.001,-0.28,4.0
20.12,-0.007,0.272,27.0
20.122,-0.012,0.157,28.0
20.14,-0.018,0.042,29.0
20.15,-0.024,-0.075,28.0
20.144,-0.029,-0.19,17.0
20.171,-0.035,-0.305,23.0
20.117,-0.041,0.245,33.0
20.118,-0.047,0.13,37.0
20.128,-0.052,0.015,36.0
20.14,-0.058,-0.101,29.0
20.129,-0.064,-0.216,18.0
20.145,-0.07,-0.331,24.0
20.129,-0.076,0.22,27.0
20.13,-0.082,0.105,39.0
20.131,-0.087,-0.009,29.0
20.137,-0.093,-0.126,33.0
20.139,-0.099,-0.241,36.0
20.143,-0.105,-0.356,35.0
20.143,-0.111,0.195,21.0
20.147,-0.117,0.08,28.0
20.175,-0.123,-0.034,23.0
20.149,-0.129,-0.151,21.0
20.137,-0.135,-0.266,29.0
20.157,-0.141,-0.381,34.0
20.206,-0.147,0.171,15.0
20.187,-0.153,0.056,6.0
20.191,-0.159,-0.059,3.0
20.177,-0.165,-0.176,2.0
20.153,-0.171,-0.291,19.0
20.186,-0.178,-0.406,29.0
53.363,-0.485,0.389,12.0
56.222,-0.529,0.089,4.0
56.284,-0.546,-0.231,4.0
52.511,-0.525,-0.52,4.0
38.277,-0.394,-0.597,13.0
20.24,-0.215,-0.431,4.0
56.146,-0.613,0.344,6.0
56.293,-0.631,0.025,2.0
56.6,-0.652,-0.297,2.0
45.345,-0.537,-0.501,19.0
37.989,-0.461,-0.636,23.0
31.478,-0.391,-0.706,23.0
59.539,-0.758,0.298,7.0
59.531,-0.776,-0.039,74.0
56.591,-0.755,-0.359,13.0
44.978,-0.614,-0.546,33.0
0.0,0.0,0.0,0.0
30.501,-0.435,-0.717,27.0
20.15,-0.293,0.079,27.0
20.132,-0.299,-0.035,3.0
59.17,-0.898,-0.439,5.0
44.841,-0.695,-0.592,19.0
35.987,-0.569,-0.679,2.0
29.995,-0.484,-0.737,20.0
20.148,-0.33,0.058,55.0
20.124,-0.336,-0.056,6.0
52.923,-0.902,-0.448,29.0
38.564,-0.669,-0.549,11.0
31.455,-0.556,-0.626,12.0
28.807,-0.518,-0.737,12.0
53.012,-0.968,0.1,8.0
52.947,-0.984,-0.2,55.0
45.464,-0.86,-0.43,25.0
38.225,-0.735,-0.582,17.0
30.941,-0.605,-0.647,29.0
28.626,-0.569,-0.761,7.0
52.958,-1.067,0.048,12.0
38.377,-0.785,-0.182,30.0
38.38,-0.798,-0.4,74.0
38.022,-0.803,-0.616,22.0
30.639,-0.657,-0.67,31.0
25.33,-0.551,-0.698,1.0
40.428,-0.89,0.0,35.0
40.412,-0.904,-0.23,42.0
40.409,-0.917,-0.459,68.0
37.894,-0.872,-0.649,13.0
30.482,-0.712,-0.695,31.0
25.238,-0.598,-0.718,4.0
40.417,-0.968,-0.037,35.0
0.0,0.0,0.0,0.0
38.659,-0.951,-0.474,27.0
31.536,-0.787,-0.568,9.0
30.41,-0.769,-0.72,21.0
24.752,-0.634,-0.726,11.0
38.696,-1.001,-0.069,35.0
38.697,-1.014,-0.288,53.0
38.508,-1.022,-0.505,17.0
31.189,-0.838,-0.588,27.0
30.159,-0.82,-0.74,8.0
24.438,-0.673,-0.738,24.0
38.674,-1.075,-0.102,81.0
38.66,-1.088,-0.32,59.0
38.349,-1.092,-0.534,13.0
30.919,-0.89,-0.609,30.0
29.18,-0.85,-0.739,1.0
23.858,-0.703,-0.739,17.0
38.649,-1.149,-0.132,74.0
38.638,-1.162,-0.35,52.0
38.165,-1.161,-0.562,13.0
30.691,-0.944,-0.628,32.0
28.188,-0.877,-0.736,1.0
23.797,-0.749,-0.756,18.0
38.685,-1.226,-0.162,61.0
38.656,-1.238,-0.38,39.0
38.04,-1.231,-0.588,13.0
30.562,-1.0,-0.648,32.0
27.681,-0.915,-0.743,1.0
23.54,-0.786,-0.765,11.0
56.88,-1.914,-0.28,4.0
38.761,-1.317,-0.409,10.0
37.974,-1.304,-0.615,9.0
30.492,-1.057,-0.668,34.0
25.407,-0.89,-0.7,1.0
23.5,-0.831,-0.78,5.0
0.0,0.0,0.0,0.0
45.006,-1.618,-0.505,19.0
31.276,-1.136,-0.527,27.0
30.485,-1.117,-0.689,27.0
25.022,-0.926,-0.706,11.0
22.896,-0.855,-0.775,3.0
31.337,-1.177,-0.195,61.0
31.294,-1.187,-0.371,45.0
31.197,-1.194,-0.546,25.0
28.467,-1.1,-0.661,28.0
24.687,-0.962,-0.712,11.0
22.305,-0.877,-0.769,2.0
28.454,-1.125,-0.195,73.0
28.451,-1.135,-0.355,76.0
28.443,-1.145,-0.515,105.0
28.448,-1.155,-0.677,117.0
24.279,-0.994,-0.715,17.0
21.985,-0.908,-0.771,1.0
28.45,-1.182,-0.211,125.0
28.456,-1.192,-0.371,119.0
28.444,-1.201,-0.53,121.0
28.437,-1.211,-0.693,70.0
24.011,-1.031,-0.72,18.0
21.858,-0.946,-0.778,2.0
28.479,-1.239,-0.226,66.0
28.478,-1.249,-0.386,51.0
30.85,-1.363,-0.591,24.0
28.64,-1.276,-0.712,7.0
23.884,-1.072,-0.728,16.0
21.58,-0.977,-0.779,1.0
31.203,-1.418,-0.263,57.0
31.198,-1.429,-0.438,60.0
30.775,-1.42,-0.604,32.0
28.329,-1.318,-0.718,3.0
23.839,-1.117,-0.738,17.0
21.289,-1.005,-0.778,2.0
31.22,-1.48,-0.277,45.0
31.21,-1.491,-0.452,38.0
30.72,-1.479,-0.617,32.0
28.074,-1.361,-0.724,1.0
23.788,-1.162,-0.746,15.0
21.035,-1.035,-0.778,1.0
48.669,-2.403,-0.452,0.0
38.186,-1.899,-0.568,8.0
30.668,-1.536,-0.628,28.0
24.584,-1.24,-0.643,10.0
23.75,-1.206,-0.754,11.0
20.88,-1.068,-0.78,1.0
47.584,-2.443,-0.46,2.0
37.978,-1.963,-0.579,12.0
30.636,-1.595,-0.638,30.0
24.463,-1.282,-0.649,19.0
23.6,-1.246,-0.758,8.0
20.69,-1.099,-0.78,2.0
48.058,-2.561,-0.48,1.0
24.579,-1.318,-0.382,13.0
24.52,-1.324,-0.518,27.0
24.401,-1.326,-0.655,19.0
23.507,-1.286,-0.762,5.0
20.551,-1.132,-0.781,2.0
24.565,-1.357,-0.252,43.0
24.548,-1.364,-0.389,45.0
24.513,-1.371,-0.525,43.0
24.36,-1.371,-0.66,19.0
23.419,-1.327,-0.765,5.0
20.433,-1.165,-0.782,2.0
24.524,-1.402,-0.258,68.0
24.514,-1.41,-0.394,53.0
24.482,-1.417,-0.53,43.0
24.346,-1.418,-0.666,24.0
23.304,-1.365,-0.767,5.0
20.305,-1.197,-0.781,2.0
24.529,-1.45,-0.263,80.0
24.5,-1.457,-0.399,70.0
24.472,-1.463,-0.535,37.0
24.327,-1.464,-0.67,27.0
23.149,-1.401,-0.766,2.0
20.154,-1.227,-0.779,1.0
24.502,-1.495,-0.267,62.0
24.5,-1.504,-0.403,59.0
24.467,-1.51,-0.539,41.0
24.311,-1.509,-0.673,22.0
22.844,-1.427,-0.76,1.0
20.021,-1.258,-0.777,0.0
24.505,-1.542,-0.271,63.0
24.509,-1.551,-0.407,49.0
24.469,-1.558,-0.542,38.0
24.302,-1.556,-0.676,22.0
22.817,-1.469,-0.761,4.0
20.044,-1.298,-0.78,0.0
24.52,-1.591,-0.273,39.0
24.526,-1.6,-0.409,44.0
24.482,-1.606,-0.544,33.0
24.312,-1.604,-0.678,23.0
22.693,-1.505,-0.759,1.0
19.983,-1.333,-0.779,1.0
24.56,-1.64,-0.275,0.0
24.61,-1.652,-0.412,12.0
24.492,-1.653,-0.546,22.0
24.312,-1.649,-0.679,16.0
22.573,-1.539,-0.756,1.0
19.922,-1.366,-0.777,1.0
45.08,-3.095,-0.506,3.0
35.322,-2.438,-0.592,2.0
30.373,-2.107,-0.677,8.0
24.357,-1.698,-0.68,14.0
22.499,-1.577,-0.753,1.0
19.931,-1.404,-0.777,2.0
46.531,-3.282,-0.522,4.0
35.264,-2.499,-0.59,2.0
30.319,-2.159,-0.675,8.0
24.365,-1.744,-0.68,14.0
22.523,-1.62,-0.753,1.0
20.003,-1.446,-0.779,1.0
46.146,-3.34,-0.514,9.0
35.363,-2.572,-0.59,2.0
30.419,-2.223,-0.675,8.0
24.427,-1.794,-0.68,11.0
22.521,-1.662,-0.751,1.0
19.95,-1.479,-0.776,2.0
0.0,0.0,0.0,0.0
35.596,-2.654,-0.59,2.0
30.319,-2.271,-0.67,5.0
24.477,-1.842,-0.678,11.0
22.624,-1.71,-0.752,1.0
19.964,-1.517,-0.774,1.0
45.342,-3.447,-0.495,20.0
35.622,-2.72,-0.585,2.0
30.158,-2.314,-0.662,4.0
24.67,-1.901,-0.68,16.0
22.647,-1.753,-0.749,1.0
20.085,-1.562,-0.775,2.0
0.0,0.0,0.0,0.0
35.615,-2.784,-0.579,1.0
30.469,-2.393,-0.663,8.0
24.812,-1.957,-0.679,16.0
22.754,-1.803,-0.748,1.0
20.1,-1.6,-0.772,2.0
46.008,-3.664,-0.485,18.0
36.011,-2.88,-0.578,2.0
30.429,-2.444,-0.655,7.0
24.98,-2.015,-0.678,14.0
22.978,-1.861,-0.75,2.0
20.205,-1.644,-0.771,2.0
45.777,-3.727,-0.472,20.0
36.251,-2.963,-0.572,2.0
30.611,-2.512,-0.652,8.0
25.171,-2.075,-0.677,12.0
23.134,-1.914,-0.749,4.0
20.239,-1.682,-0.767,1.0
45.731,-3.802,-0.458,20.0
37.161,-3.102,-0.576,4.0
30.691,-2.572,-0.644,4.0
25.004,-2.104,-0.665,3.0
23.295,-1.968,-0.747,5.0
20.26,-1.719,-0.761,1.0
45.714,-3.88,-0.443,21.0
37.567,-3.201,-0.571,13.0
30.749,-2.63,-0.636,3.0
27.012,-2.319,-0.709,3.0
23.449,-2.022,-0.744,5.0
20.366,-1.762,-0.758,1.0
45.819,-3.967,-0.429,22.0
37.879,-3.291,-0.562,14.0
30.968,-2.701,-0.629,2.0
27.102,-2.373,-0.702,6.0
23.65,-2.078,-0.742,5.0
20.459,-1.805,-0.754,1.0
46.025,-4.062,-0.413,22.0
37.989,-3.365,-0.549,14.0
31.602,-2.809,-0.629,2.0
27.186,-2.426,-0.693,6.0
23.705,-2.123,-0.734,9.0
20.876,-1.876,-0.761,2.0
46.33,-4.165,-0.396,21.0
38.14,-3.441,-0.534,14.0
32.216,-2.916,-0.628,3.0
27.402,-2.489,-0.686,6.0
23.789,-2.169,-0.726,10.0
20.905,-1.913,-0.752,0.0
46.688,-4.272,-0.378,21.0
38.573,-3.542,-0.523,15.0
32.396,-2.984,-0.616,1.0
27.571,-2.549,-0.678,6.0
24.036,-2.23,-0.722,5.0
21.315,-1.985,-0.757,2.0
47.212,-4.395,-0.359,22.0
38.826,-3.626,-0.507,15.0
33.849,-3.172,-0.627,3.0
27.923,-2.626,-0.672,5.0
24.654,-2.326,-0.728,5.0
21.473,-2.033,-0.751,2.0
47.054,-4.455,-0.334,5.0
38.521,-3.658,-0.483,14.0
34.111,-3.25,-0.614,11.0
28.168,-2.693,-0.663,7.0
24.795,-2.378,-0.719,5.0
21.628,-2.081,-0.745,1.0
50.236,-4.834,-0.328,4.0
40.242,-3.884,-0.482,6.0
34.11,-3.302,-0.595,11.0
28.379,-2.756,-0.652,1.0
25.183,-2.453,-0.716,5.0
21.87,-2.138,-0.741,0.0
50.148,-4.9,-0.299,4.0
40.315,-3.951,-0.46,15.0
34.167,-3.359,-0.575,11.0
29.32,-2.891,-0.656,1.0
25.576,-2.53,-0.712,6.0
22.264,-2.209,-0.741,1.0
51.514,-5.11,-0.275,14.0
40.357,-4.015,-0.435,10.0
34.143,-3.407,-0.554,25.0
29.847,-2.987,-0.649,5.0
25.941,-2.604,-0.705,6.0
22.485,-2.263,-0.734,1.0
0.0,0.0,0.0,0.0
0.0,0.0,0.0,0.0
34.329,-3.474,-0.534,29.0
30.457,-3.091,-0.643,4.0
26.21,-2.668,-0.695,6.0
22.872,-2.335,-0.731,2.0
54.534,-5.566,-0.22,29.0
44.503,-4.554,-0.421,10.0
34.612,-3.552,-0.515,25.0
30.885,-3.178,-0.63,4.0
26.565,-2.741,-0.687,5.0
23.087,-2.389,-0.722,3.0
55.3,-5.72,-0.185,31.0
0.0,0.0,0.0,0.0
34.851,-3.624,-0.494,16.0
31.472,-3.281,-0.62,9.0
26.911,-2.813,-0.676,4.0
23.516,-2.465,-0.718,3.0
55.812,-5.849,-0.145,30.0
45.06,-4.734,-0.362,19.0
35.065,-3.693,-0.471,11.0
31.891,-3.367,-0.604,10.0
27.293,-2.889,-0.665,1.0
24.057,-2.553,-0.717,5.0
56.113,-5.953,-0.105,13.0
0.0,0.0,0.0,0.0
39.888,-4.252,-0.505,4.0
32.158,-3.437,-0.585,12.0
27.921,-2.991,-0.659,2.0
24.529,-2.634,-0.712,5.0
65.349,-7.016,-0.071,5.0
47.606,-5.123,-0.309,21.0
39.982,-4.312,-0.475,12.0
32.481,-3.512,-0.565,28.0
28.541,-3.093,-0.651,1.0
25.013,-2.718,-0.706,5.0
65.359,-7.099,-0.018,6.0
0.0,0.0,0.0,0.0
40.057,-4.37,-0.444,15.0
32.993,-3.608,-0.547,27.0
29.655,-3.25,-0.652,8.0
25.346,-2.784,-0.694,6.0
65.117,-7.151,0.035,2.0
50.439,-5.551,-0.244,24.0
40.171,-4.43,-0.411,13.0
33.482,-3.7,-0.527,28.0
30.098,-3.334,-0.636,6.0
25.895,-2.875,-0.687,5.0
65.022,-7.216,0.091,1.0
50.93,-5.664,-0.203,13.0
40.436,-4.506,-0.379,4.0
33.873,-3.783,-0.504,35.0
30.354,-3.397,-0.615,10.0
26.47,-2.969,-0.679,3.0
65.055,-7.293,0.148,2.0
55.122,-6.192,-0.17,13.0
42.195,-4.749,-0.358,6.0
34.349,-3.874,-0.48,31.0
30.666,-3.466,-0.594,21.0
27.063,-3.065,-0.67,2.0
65.167,-7.377,0.208,155.0
55.698,-6.317,-0.122,17.0
45.885,-5.214,-0.348,20.0
34.807,-3.963,-0.455,25.0
31.106,-3.548,-0.574,15.0
27.494,-3.142,-0.656,3.0
65.22,-7.452,0.268,179.0
56.2,-6.433,-0.071,5.0
47.063,-5.397,-0.313,22.0
39.728,-4.564,-0.482,6.0
31.693,-3.647,-0.555,26.0
28.468,-3.283,-0.652,2.0
65.204,-7.517,0.329,150.0
65.39,-7.55,-0.02,0.0
47.821,-5.531,-0.272,22.0
39.837,-4.616,-0.445,14.0
32.508,-3.773,-0.538,33.0
29.126,-3.387,-0.639,8.0
79.986,-9.298,0.48,6.0
65.64,-7.642,0.042,3.0
48.4,-5.644,-0.229,11.0
40.019,-4.675,-0.408,15.0
33.076,-3.87,-0.515,28.0
29.499,-3.457,-0.618,17.0
80.004,-9.374,0.559,33.0
80.434,-9.439,0.13,45.0
50.161,-5.895,-0.187,16.0
40.258,-4.739,-0.371,15.0
33.736,-3.978,-0.492,29.0
