X,Y,Z,Reflectivity
45.594,-0.646,2.284,32.0
58.906,-0.835,2.641,19.0
58.876,-0.835,2.335,96.0
53.51,-0.759,1.845,132.0
46.349,-0.664,2.896,45.0
46.272,-0.663,2.651,28.0
45.694,-0.654,2.381,7.0
46.045,-0.659,2.156,46.0
58.901,-0.843,2.454,91.0
59.222,-0.847,2.161,67.0
46.416,-0.67,2.994,54.0
52.224,-0.753,3.097,8.0
46.256,-0.667,2.503,6.0
45.661,-0.657,2.23,26.0
58.961,-0.849,2.575,50.0
58.977,-0.848,2.271,87.0
46.494,-0.674,3.092,35.0
46.329,-0.671,2.84,16.0
46.28,-0.67,2.597,10.0
45.604,-0.659,2.318,27.0
46.04,-0.665,2.102,54.0
59.037,-0.851,2.39,84.0
38.646,-0.562,2.647,57.0
46.383,-0.674,2.936,47.0
46.274,-0.671,2.689,8.0
28.3,-0.409,1.495,1.0
52.881,-0.764,2.52,7.0
58.987,-0.851,2.505,79.0
38.652,-0.562,2.724,56.0
46.452,-0.674,3.033,46.0
52.213,-0.756,3.137,12.0
46.273,-0.668,2.535,8.0
45.619,-0.658,2.263,36.0
58.994,-0.849,2.621,32.0
38.671,-0.561,2.802,31.0
46.516,-0.673,3.128,16.0
46.346,-0.669,2.876,37.0
46.272,-0.666,2.627,19.0
45.611,-0.654,2.352,12.0
46.054,-0.659,2.136,48.0
38.644,-0.557,2.876,64.0
38.64,-0.556,2.674,66.0
46.413,-0.666,2.97,48.0
46.276,-0.661,2.716,23.0
46.233,-0.659,2.473,19.0
45.796,-0.65,2.213,19.0
38.634,-0.553,2.95,92.0
38.651,-0.551,2.75,51.0
46.488,-0.661,3.065,31.0
46.303,-0.655,2.807,45.0
46.265,-0.652,2.564,45.0
45.581,-0.64,2.29,35.0
38.602,-0.547,3.023,72.0
38.65,-0.545,2.824,61.0
46.518,-0.654,3.157,5.0
46.306,-0.648,2.897,46.0
46.255,-0.644,2.653,51.0
46.047,-0.638,2.402,20.0
38.581,-0.539,3.095,66.0
38.647,-0.538,2.899,103.0
38.647,-0.535,2.697,67.0
0.0,0.0,0.0,0.0
46.276,-0.634,2.742,66.0
46.234,-0.63,2.499,68.0
38.552,-0.53,3.167,55.0
38.619,-0.528,2.971,69.0
38.637,-0.526,2.77,56.0
44.803,-0.606,2.974,11.0
45.669,-0.614,2.793,38.0
46.246,-0.619,2.587,71.0
38.554,-0.52,3.241,39.0
38.619,-0.518,3.043,43.0
38.644,-0.515,2.843,82.0
44.801,-0.593,3.058,5.0
44.887,-0.591,2.829,52.0
46.046,-0.603,2.662,51.0
38.582,-0.509,3.315,2.0
38.577,-0.505,3.112,44.0
38.627,-0.503,2.913,32.0
38.651,-0.5,2.709,51.0
44.827,-0.576,2.907,59.0
44.967,-0.573,2.681,50.0
31.203,-0.401,2.738,40.0
38.565,-0.492,3.182,66.0
69.132,-0.876,5.341,10.0
38.638,-0.486,2.778,65.0
44.794,-0.559,2.987,65.0
44.92,-0.557,2.76,52.0
31.186,-0.389,2.793,48.0
38.563,-0.478,3.252,46.0
47.034,-0.578,3.718,20.0
46.75,-0.57,3.446,9.0
44.748,-0.541,3.064,46.0
52.283,-0.627,3.306,47.0
54.268,-0.656,4.959,6.0
38.59,-0.463,3.323,25.0
47.014,-0.559,3.801,44.0
46.782,-0.551,3.532,33.0
44.725,-0.522,3.142,6.0
52.294,-0.605,3.399,62.0
54.423,-0.634,5.07,11.0
38.657,-0.446,3.397,6.0
47.023,-0.538,3.885,16.0
46.868,-0.531,3.62,34.0
38.658,-0.433,2.783,38.0
52.308,-0.581,3.492,53.0
54.475,-0.609,5.171,17.0
31.158,-0.345,2.793,46.0
38.564,-0.422,3.253,59.0
46.985,-0.509,3.711,14.0
44.592,-0.478,3.287,52.0
52.321,-0.555,3.582,21.0
54.415,-0.581,5.26,18.0
31.136,-0.329,2.844,44.0
38.589,-0.403,3.322,54.0
51.517,-0.531,4.158,46.0
44.572,-0.454,3.362,48.0
52.334,-0.527,3.672,7.0
47.283,-0.48,4.651,36.0
47.09,-0.472,4.383,11.0
38.648,-0.382,3.392,42.0
51.483,-0.502,4.241,40.0
44.558,-0.429,3.436,41.0
38.678,-0.368,2.778,35.0
47.308,-0.453,4.733,29.0
47.017,-0.444,4.454,45.0
38.674,-0.36,3.459,32.0
51.451,-0.472,4.325,19.0
52.325,-0.473,4.121,13.0
52.368,-0.466,3.848,16.0
51.99,-0.467,5.288,45.0
47.021,-0.416,4.532,55.0
31.114,-0.271,2.833,37.0
38.547,-0.33,3.302,36.0
52.328,-0.441,4.206,12.0
52.332,-0.433,3.93,33.0
52.244,-0.436,5.399,5.0
47.033,-0.386,4.61,19.0
31.083,-0.25,2.881,40.0
38.548,-0.305,3.364,48.0
52.318,-0.407,4.289,21.0
44.542,-0.339,3.415,24.0
47.048,-0.361,4.937,12.0
38.897,-0.293,3.874,17.0
31.069,-0.229,2.929,38.0
51.301,-0.371,4.558,15.0
52.326,-0.371,4.371,7.0
46.814,-0.325,3.662,8.0
38.91,-0.272,4.144,60.0
38.893,-0.265,3.934,51.0
38.859,-0.26,3.723,23.0
42.992,-0.28,3.886,4.0
42.15,-0.269,3.586,3.0
46.825,-0.291,3.735,38.0
39.003,-0.244,4.214,37.0
38.921,-0.237,3.997,61.0
38.875,-0.231,3.784,37.0
42.872,-0.248,3.94,8.0
40.438,-0.228,3.501,2.0
46.858,-0.256,3.807,10.0
39.08,-0.215,4.281,53.0
38.979,-0.208,4.061,6.0
38.907,-0.202,3.845,3.0
31.043,-0.156,2.898,34.0
38.573,-0.187,3.396,37.0
57.936,-0.273,4.792,22.0
39.099,-0.185,4.34,42.0
61.069,-0.279,6.451,10.0
51.259,-0.226,5.14,44.0
31.016,-0.131,2.941,46.0
38.573,-0.157,3.451,31.0
57.843,-0.226,4.866,9.0
39.122,-0.154,4.399,5.0
51.26,-0.192,5.488,18.0
51.979,-0.187,5.285,40.0
30.979,-0.106,2.98,45.0
52.379,-0.17,4.759,5.0
44.462,-0.137,3.802,3.0
36.706,-0.114,4.178,23.0
39.986,-0.117,4.336,2.0
52.387,-0.144,5.399,18.0
31.003,-0.08,3.025,51.0
52.355,-0.127,4.828,5.0
57.928,-0.13,5.031,7.0
36.526,-0.082,4.207,4.0
52.211,-0.108,5.732,25.0
42.911,-0.081,4.48,3.0
30.941,-0.053,3.06,39.0
52.395,-0.081,4.901,6.0
40.424,-0.055,3.564,10.0
57.755,-0.079,6.729,10.0
42.59,-0.051,4.732,1.0
46.044,-0.046,4.867,20.0
30.924,-0.025,3.099,26.0
44.796,-0.029,4.248,3.0
51.159,-0.024,4.577,8.0
0.0,0.0,0.0,0.0
36.675,-0.01,4.122,13.0
36.377,-0.004,3.891,12.0
30.837,0.002,3.129,33.0
44.767,0.011,4.301,3.0
51.184,0.022,4.642,7.0
39.631,0.018,4.719,5.0
36.396,0.023,4.136,17.0
35.933,0.029,3.888,1.0
30.77,0.031,3.16,35.0
44.798,0.053,4.359,6.0
44.84,0.061,4.121,1.0
33.49,0.047,4.028,2.0
30.509,0.048,3.504,9.0
30.634,0.054,3.351,23.0
30.727,0.06,3.192,45.0
45.739,0.098,4.504,15.0
44.765,0.104,4.166,2.0
33.441,0.079,4.062,8.0
30.468,0.078,3.534,3.0
30.584,0.084,3.381,43.0
30.71,0.09,3.225,35.0
30.964,0.097,3.084,46.0
45.835,0.152,4.318,30.0
53.419,0.18,6.549,7.0
30.468,0.108,3.569,12.0
30.539,0.114,3.411,42.0
39.937,0.157,4.239,3.0
30.953,0.128,3.117,40.0
52.233,0.226,4.978,5.0
33.28,0.146,4.116,7.0
30.482,0.139,3.603,67.0
30.502,0.145,3.439,38.0
42.557,0.211,4.563,1.0
30.959,0.159,3.15,23.0
51.016,0.273,4.915,5.0
30.416,0.164,3.794,33.0
30.473,0.171,3.634,45.0
30.491,0.176,3.469,25.0
37.018,0.221,4.006,12.0
30.942,0.191,3.18,23.0
52.434,0.334,5.104,9.0
30.425,0.196,3.826,68.0
30.414,0.202,3.658,1.0
30.498,0.209,3.501,5.0
51.159,0.36,5.587,6.0
30.935,0.224,3.21,30.0
36.381,0.27,3.577,3.0
30.413,0.228,3.854,46.0
42.146,0.325,5.109,4.0
53.044,0.419,6.139,27.0
40.396,0.327,4.449,1.0
30.94,0.257,3.239,35.0
36.33,0.308,3.605,4.0
30.429,0.261,3.884,16.0
42.149,0.371,5.148,2.0
52.556,0.473,6.131,6.0
40.309,0.37,4.476,3.0
30.933,0.29,3.265,29.0
45.923,0.44,4.597,27.0
30.461,0.295,3.915,11.0
47.878,0.473,5.89,3.0
57.461,0.578,6.752,6.0
30.98,0.318,3.466,9.0
30.964,0.324,3.295,48.0
52.664,0.561,5.316,6.0
30.456,0.328,3.94,14.0
47.896,0.526,5.931,3.0
51.048,0.571,6.04,8.0
30.975,0.352,3.491,33.0
30.946,0.358,3.317,37.0
57.668,0.679,5.866,8.0
39.263,0.468,5.111,3.0
54.167,0.655,6.751,15.0
40.272,0.496,4.796,2.0
31.014,0.388,3.519,45.0
47.808,0.607,5.162,7.0
53.247,0.687,5.457,8.0
39.32,0.513,5.148,3.0
48.038,0.636,6.023,6.0
31.051,0.417,3.721,27.0
47.005,0.641,5.368,15.0
48.698,0.673,5.293,3.0
58.223,0.817,6.008,8.0
35.923,0.509,4.729,4.0
52.145,0.75,6.574,7.0
31.065,0.452,3.744,63.0
46.636,0.688,5.357,21.0
58.628,0.877,6.411,16.0
37.118,0.563,3.854,1.0
30.478,0.467,4.032,10.0
33.338,0.517,4.225,1.0
31.051,0.488,3.762,37.0
46.996,0.748,5.429,8.0
40.79,0.657,4.486,2.0
37.115,0.605,3.877,3.0
30.635,0.505,4.072,14.0
31.093,0.518,3.959,4.0
31.072,0.524,3.783,7.0
47.044,0.802,5.462,8.0
47.794,0.825,5.284,3.0
37.079,0.647,3.894,6.0
30.591,0.539,4.083,19.0
31.073,0.554,3.974,31.0
46.407,0.837,5.676,7.0
47.049,0.857,5.488,11.0
47.847,0.881,5.315,3.0
52.569,0.978,5.549,23.0
30.78,0.578,4.125,46.0
31.067,0.59,3.989,50.0
46.412,0.891,5.7,8.0
47.069,0.912,5.514,9.0
52.405,1.026,5.847,18.0
52.391,1.036,5.555,9.0
30.642,0.612,4.121,21.0
31.063,0.627,4.003,32.0
57.857,1.178,7.133,6.0
52.182,1.073,6.136,8.0
36.894,0.765,4.133,2.0
46.816,0.98,4.984,10.0
30.688,0.649,4.14,25.0
31.092,0.664,4.02,18.0
46.726,1.006,5.78,2.0
52.482,1.14,6.193,8.0
36.866,0.807,4.144,1.0
53.104,1.173,5.674,5.0
30.636,0.684,4.145,16.0
39.316,0.885,5.098,6.0
52.612,1.194,6.527,22.0
47.208,1.081,5.587,6.0
47.23,1.09,5.326,14.0
46.592,1.084,4.994,13.0
30.833,0.725,4.182,44.0
52.33,1.24,6.803,10.0
47.796,1.141,5.945,6.0
46.999,1.131,5.578,14.0
46.601,1.13,5.27,33.0
60.361,1.475,6.489,6.0
30.704,0.758,4.174,9.0
46.424,1.155,6.049,6.0
52.248,1.309,6.514,5.0
47.177,1.191,5.612,5.0
46.808,1.191,5.305,4.0
59.167,1.516,6.375,3.0
30.68,0.794,4.178,5.0
39.342,1.026,5.135,4.0
52.223,1.371,6.523,3.0
46.613,1.231,5.555,13.0
47.325,1.26,5.374,2.0
0.0,0.0,0.0,0.0
46.664,1.263,6.364,4.0
39.325,1.071,5.141,4.0
46.644,1.28,5.834,19.0
47.036,1.299,5.614,5.0
67.868,1.886,7.719,2.0
57.694,1.614,6.238,6.0
30.396,0.859,4.15,1.0
46.772,1.33,6.121,14.0
52.179,1.493,6.534,2.0
59.219,1.705,7.076,34.0
59.286,1.718,6.75,10.0
58.608,1.708,6.344,33.0
46.738,1.376,6.387,32.0
52.193,1.546,6.836,5.0
59.263,1.766,7.427,4.0
58.012,1.738,6.936,2.0
60.021,1.809,6.838,34.0
46.641,1.414,5.051,23.0
30.316,0.928,4.145,2.0
54.356,1.673,7.123,1.0
52.385,1.622,6.567,5.0
48.645,1.514,5.818,1.0
59.269,1.856,6.754,33.0
46.663,1.469,5.055,6.0
30.368,0.965,4.152,3.0
60.64,1.938,7.947,34.0
39.428,1.266,4.943,1.0
59.692,1.928,7.139,19.0
46.549,1.511,5.304,7.0
37.122,1.211,4.021,2.0
30.327,0.999,4.146,1.0
54.455,1.803,7.134,1.0
39.366,1.31,4.933,4.0
59.138,1.978,7.07,4.0
46.694,1.569,5.318,24.0
46.81,1.581,5.067,2.0
46.55,1.587,6.36,2.0
58.876,2.017,7.708,11.0
46.921,1.615,5.876,18.0
59.208,2.048,7.072,1.0
46.69,1.623,5.312,9.0
57.615,2.012,6.23,5.0
46.639,1.644,6.366,1.0
58.823,2.083,7.694,5.0
46.816,1.665,5.856,2.0
61.201,2.187,7.302,9.0
46.71,1.676,5.308,8.0
46.795,1.687,5.053,3.0
46.645,1.697,6.359,2.0
60.333,2.205,7.881,4.0
47.659,1.749,5.953,3.0
46.741,1.723,5.567,7.0
46.645,1.726,5.291,11.0
46.824,1.741,5.046,9.0
46.641,1.75,6.349,2.0
61.414,2.313,8.008,8.0
47.73,1.805,5.951,5.0
52.631,1.998,6.257,3.0
60.267,2.298,6.822,21.0
46.777,1.791,5.029,8.0
39.409,1.522,5.354,3.0
47.728,1.851,6.21,5.0
46.954,1.828,5.841,19.0
60.402,2.361,7.164,6.0
59.651,2.34,6.735,28.0
46.758,1.841,5.014,3.0
39.416,1.566,5.343,4.0
60.505,2.413,7.854,19.0
46.845,1.875,5.813,12.0
0.0,0.0,0.0,0.0
46.816,1.887,5.27,10.0
46.635,1.887,4.985,6.0
39.392,1.608,5.326,2.0
59.666,2.445,7.724,5.0
47.018,1.932,5.817,3.0
59.876,2.469,7.06,6.0
46.727,1.934,5.243,10.0
46.41,1.927,4.943,4.0
60.49,2.535,8.154,4.0
46.806,1.967,6.04,21.0
59.744,2.52,7.367,11.0
58.83,2.488,6.912,17.0
46.771,1.984,5.228,8.0
46.382,1.975,4.92,3.0
46.518,1.998,6.25,25.0
46.835,2.017,6.023,3.0
46.789,2.022,5.749,2.0
66.122,2.867,7.738,4.0
46.747,2.032,5.204,7.0
60.021,2.618,6.339,6.0
30.303,1.333,4.057,1.0
46.903,2.069,6.009,2.0
58.741,2.599,7.188,4.0
59.409,2.636,6.923,3.0
46.796,2.082,5.186,6.0
46.741,2.085,4.913,4.0
46.919,2.111,6.257,9.0
52.52,2.37,6.701,2.0
46.74,2.115,5.694,2.0
0.0,0.0,0.0,0.0
46.336,2.108,5.109,7.0
46.79,2.134,4.892,4.0
46.81,2.153,6.216,1.0
46.916,2.164,5.959,1.0
46.732,2.161,5.666,2.0
47.726,2.212,5.508,0.0
46.25,2.15,5.072,11.0
46.477,2.165,4.832,17.0
46.784,2.198,6.183,2.0
47.026,2.215,5.944,1.0
46.684,2.204,5.631,1.0
47.507,2.248,5.453,1.0
46.206,2.192,5.038,16.0
46.727,2.222,4.828,4.0
46.767,2.242,6.151,1.0
47.819,2.297,6.013,3.0
46.644,2.247,5.595,1.0
60.333,2.913,6.884,1.0
46.199,2.235,5.006,8.0
60.93,2.955,6.254,4.0
46.635,2.28,6.101,0.0
46.906,2.298,5.865,0.0
46.7,2.293,5.569,1.0
59.925,2.948,6.795,12.0
46.198,2.278,4.973,3.0
46.738,2.309,4.763,3.0
0.0,0.0,0.0,0.0
0.0,0.0,0.0,0.0
60.362,3.018,7.153,1.0
46.994,2.355,5.293,5.0
46.732,2.351,4.727,1.0
0.0,0.0,0.0,0.0
0.0,0.0,0.0,0.0
60.405,3.075,7.11,6.0
46.919,2.392,5.247,3.0
60.695,3.1,6.439,4.0
52.803,2.703,5.299,3.0
0.0,0.0,0.0,0.0
60.545,3.128,7.427,0.0
60.364,3.124,7.056,2.0
46.441,2.407,5.156,0.0
46.764,2.428,4.922,1.0
45.795,2.382,4.557,3.0
0.0,0.0,0.0,0.0
0.0,0.0,0.0,0.0
60.382,3.175,7.006,0.0
46.167,2.431,5.085,3.0
47.085,2.483,4.915,2.0
45.644,2.411,4.502,2.0
0.0,0.0,0.0,0.0
0.0,0.0,0.0,0.0
47.524,2.536,5.471,3.0
45.869,2.451,5.011,19.0
46.811,2.506,4.844,1.0
45.632,2.446,4.46,2.0
47.151,2.546,5.931,1.0
60.384,3.265,7.245,4.0
47.34,2.563,5.406,3.0
45.834,2.485,4.964,20.0
52.413,2.846,5.374,3.0
45.738,2.487,4.427,8.0
47.217,2.585,5.894,2.0
0.0,0.0,0.0,0.0
46.161,2.533,5.226,4.0
46.32,2.545,4.971,7.0
45.727,2.516,4.644,1.0
45.824,2.525,4.389,12.0
47.214,2.62,5.845,1.0
47.208,2.622,5.57,2.0
47.278,2.629,5.305,1.0
46.972,2.615,4.993,4.0
45.917,2.562,4.351,5.0
0.0,0.0,0.0,0.0
46.085,2.592,5.39,2.0
0.0,0.0,0.0,0.0
46.211,2.605,4.864,2.0
45.788,2.583,4.555,3.0
45.922,2.593,4.304,3.0
45.735,2.6,5.565,4.0
0.0,0.0,0.0,0.0
46.258,2.634,5.092,4.0
46.237,2.636,4.817,3.0
43.454,2.479,4.276,1.0
45.83,2.617,4.245,1.0
47.773,2.746,5.761,2.0
47.26,2.719,5.424,2.0
46.187,2.659,5.032,6.0
45.492,2.621,4.689,1.0
45.635,2.632,4.439,7.0
47.742,2.773,5.703,1.0
47.029,2.733,5.344,3.0
46.184,2.686,4.98,3.0
45.384,2.641,4.626,1.0
45.543,2.653,4.378,6.0
0.0,0.0,0.0,0.0
46.668,2.739,5.247,1.0
46.601,2.737,4.969,3.0
47.237,2.776,4.758,1.0
45.62,2.682,4.332,7.0
47.354,2.786,4.223,7.0
0.0,0.0,0.0,0.0
46.238,2.738,5.143,0.0
45.643,2.704,4.812,3.0
45.819,2.718,4.294,3.0
47.369,2.811,4.166,2.0
46.854,2.797,5.427,1.0
46.196,2.759,5.081,4.0
45.563,2.722,4.747,1.0
45.81,2.737,4.502,4.0
45.986,2.75,4.253,3.0
45.777,2.738,3.97,3.0
47.076,2.832,5.393,3.0
46.201,2.78,5.024,3.0
45.683,2.751,4.432,12.0
0.0,0.0,0.0,0.0
45.775,2.758,3.911,4.0
47.17,2.858,5.343,0.0
45.933,2.784,4.935,4.0
45.61,2.765,4.365,3.0
47.387,2.874,4.262,17.0
47.339,2.872,3.984,2.0
46.221,2.819,5.174,2.0
45.84,2.796,4.864,2.0
45.483,2.775,4.293,3.0
47.411,2.893,4.201,5.0
47.206,2.881,3.91,4.0
46.176,2.833,5.107,2.0
45.85,2.812,4.537,3.0
45.525,2.793,4.236,1.0
47.439,2.911,4.139,1.0
46.528,2.855,3.79,3.0
46.29,2.855,5.055,0.0
45.682,2.817,4.457,12.0
45.81,2.825,3.933,3.0
46.822,2.887,3.749,3.0
46.1,2.856,4.97,4.0
45.639,2.827,4.388,4.0
0.0,0.0,0.0,0.0
45.672,2.828,3.857,3.0
47.25,2.926,3.717,2.0
46.099,2.867,4.904,1.0
45.762,2.846,4.602,3.0
45.628,2.837,4.323,3.0
0.0,0.0,0.0,0.0
47.279,2.938,3.926,1.0
244.431,15.19,18.887,18.0
45.796,2.857,4.539,3.0
45.507,2.838,4.246,1.0
47.424,2.957,4.145,4.0
46.965,2.927,3.832,3.0
244.364,15.229,18.526,23.0
45.594,2.852,4.452,13.0
45.761,2.86,3.931,1.0
46.718,2.919,3.742,3.0
244.421,15.269,18.169,23.0
45.495,2.851,4.374,3.0
0.0,0.0,0.0,0.0
45.722,2.863,3.86,4.0
47.216,2.955,3.712,2.0
46.843,2.931,3.412,1.0
45.639,2.864,4.319,3.0
0.0,0.0,0.0,0.0
47.052,2.949,3.901,1.0
244.457,15.317,18.853,19.0
110.463,6.918,7.879,1.0
45.751,2.875,4.526,4.0
45.467,2.855,4.233,1.0
47.465,2.979,4.143,4.0
46.963,2.946,3.822,3.0
244.517,15.329,18.482,27.0
207.185,12.981,14.46,5.0
45.525,2.861,4.433,10.0
47.504,2.984,4.349,3.0
45.724,2.869,3.92,2.0
46.797,2.935,3.736,3.0
244.386,15.318,18.095,26.0
207.309,12.986,14.149,5.0
45.56,2.862,4.365,2.0
0.0,0.0,0.0,0.0
45.708,2.867,3.847,3.0
47.306,2.964,3.702,2.0
244.56,15.315,17.721,11.0
0.0,0.0,0.0,0.0
45.561,2.859,4.293,3.0
0.0,0.0,0.0,0.0
47.169,2.954,3.895,2.0
244.38,15.295,18.741,27.0
110.169,6.889,7.809,2.0
0.0,0.0,0.0,0.0
47.451,2.969,4.119,2.0
46.696,2.919,3.781,3.0
244.372,15.261,18.35,23.0
207.162,12.926,14.356,7.0
0.0,0.0,0.0,0.0
47.471,2.966,4.321,3.0
45.76,2.856,3.9,3.0
46.971,2.928,3.729,3.0
46.726,2.91,3.434,1.0
0.0,0.0,0.0,0.0
0.0,0.0,0.0,0.0
0.0,0.0,0.0,0.0
244.307,15.182,19.002,26.0
110.146,6.836,7.917,1.0
207.579,12.868,13.718,5.0
207.745,12.866,12.526,5.0
47.47,2.945,4.166,3.0
46.8,2.9,3.835,4.0
244.201,15.112,18.594,21.0
207.029,12.797,14.543,8.0
207.673,12.821,13.384,13.0
207.656,12.804,12.181,15.0
45.804,2.829,3.945,3.0
46.977,2.897,3.772,4.0
46.782,2.881,3.485,0.0
0.0,0.0,0.0,0.0
207.699,12.76,13.046,13.0
196.88,12.079,11.229,5.0
45.96,2.824,3.882,3.0
47.321,2.903,3.723,3.0
46.889,2.872,3.416,0.0
0.0,0.0,0.0,0.0
0.0,0.0,0.0,0.0
196.004,11.957,10.858,12.0
46.844,2.861,3.88,4.0
243.951,14.879,18.789,23.0
206.98,12.603,14.741,7.0
0.0,0.0,0.0,0.0
0.0,0.0,0.0,0.0
194.165,11.77,10.435,14.0
46.988,2.851,3.813,3.0
243.976,14.78,18.385,29.0
206.959,12.516,14.393,7.0
0.0,0.0,0.0,0.0
110.732,6.675,6.407,5.0
194.187,11.687,10.115,23.0
47.272,2.847,3.757,3.0
46.891,2.819,3.455,1.0
0.0,0.0,0.0,0.0
207.904,12.456,12.888,5.0
0.0,0.0,0.0,0.0
193.978,11.583,9.782,15.0
243.638,14.556,18.962,22.0
206.654,12.324,14.883,7.0
0.0,0.0,0.0,0.0
0.0,0.0,0.0,0.0
194.162,11.513,10.59,20.0
193.863,11.476,9.453,8.0
243.534,14.421,18.546,28.0
206.426,12.198,14.52,9.0
0.0,0.0,0.0,0.0
0.0,0.0,0.0,0.0
194.286,11.413,10.27,5.0
193.834,11.365,9.125,8.0
46.917,2.75,3.493,1.0
0.0,0.0,0.0,0.0
0.0,0.0,0.0,0.0
195.805,11.408,11.151,22.0
193.451,11.247,9.898,25.0
193.955,11.256,8.805,18.0
47.343,2.746,3.444,0.0
0.0,0.0,0.0,0.0
0.0,0.0,0.0,0.0
195.765,11.282,10.819,17.0
193.499,11.127,9.574,18.0
193.929,11.128,8.477,8.0
206.162,11.826,14.652,7.0
206.804,11.834,13.497,7.0
206.938,11.813,12.308,7.0
193.467,11.02,10.37,12.0
193.791,11.013,9.266,8.0
0.0,0.0,0.0,0.0
205.981,11.672,14.293,9.0
206.741,11.685,13.148,9.0
195.127,11.001,11.278,25.0
193.425,10.88,10.043,20.0
194.14,10.894,8.96,5.0
193.705,10.843,7.821,6.0
0.0,0.0,0.0,0.0
0.0,0.0,0.0,0.0
0.0,0.0,0.0,0.0
193.72,10.749,9.734,17.0
193.712,10.722,8.614,12.0
193.864,10.703,7.501,6.0
0.0,0.0,0.0,0.0
195.147,10.729,11.754,9.0
194.191,10.649,10.572,24.0
193.482,10.581,9.397,24.0
193.159,10.535,8.267,21.0
193.151,10.508,7.152,19.0
0.0,0.0,0.0,0.0
195.121,10.567,11.426,25.0
193.911,10.471,10.232,23.0
192.876,10.387,9.043,22.0
193.461,10.388,7.953,8.0
193.252,10.347,6.83,18.0
0.0,0.0,0.0,0.0
194.584,10.369,11.066,26.0
193.915,10.302,9.908,23.0
192.85,10.216,8.722,22.0
192.837,10.185,7.61,20.0
193.52,10.191,6.52,7.0
0.0,0.0,0.0,0.0
0.0,0.0,0.0,0.0
192.762,10.068,9.534,23.0
193.086,10.053,8.415,22.0
192.96,10.014,7.295,6.0
194.056,10.04,6.22,17.0
195.137,10.072,11.582,14.0
194.523,10.006,10.42,16.0
192.859,9.887,9.217,28.0
193.06,9.864,8.093,13.0
197.521,10.061,7.143,5.0
194.117,9.854,5.899,14.0
195.33,9.888,11.268,23.0
194.526,9.812,10.099,9.0
192.967,9.701,8.903,21.0
193.334,9.686,7.787,20.0
0.0,0.0,0.0,0.0
194.083,9.658,5.582,20.0
195.531,9.699,10.959,17.0
193.591,9.567,9.734,24.0
192.739,9.492,8.58,18.0
192.911,9.466,7.457,24.0
0.0,0.0,0.0,0.0
193.953,9.449,5.265,14.0
194.186,9.428,10.571,21.0
193.221,9.347,9.405,24.0
193.083,9.304,8.284,22.0
193.261,9.276,7.157,18.0
194.462,9.3,6.084,7.0
196.308,9.352,5.011,11.0
0.0,0.0,0.0,0.0
192.841,9.114,9.072,27.0
193.341,9.101,7.981,18.0
193.799,9.086,6.865,31.0
193.73,9.046,5.747,26.0
0.0,0.0,0.0,0.0
194.517,9.01,9.96,25.0
193.311,8.916,8.784,22.0
193.575,8.889,7.68,22.0
193.098,8.832,6.532,28.0
194.081,8.838,5.447,8.0
0.0,0.0,0.0,0.0
193.5,8.737,9.601,28.0
193.436,8.694,8.482,24.0
193.952,8.677,7.387,27.0
193.156,8.605,6.227,29.0
193.88,8.599,5.137,20.0
195.497,8.634,4.058,55.0
193.616,8.509,9.301,24.0
193.397,8.458,8.175,25.0
193.822,8.436,7.079,26.0
193.459,8.382,5.933,14.0
192.661,8.307,4.801,16.0
196.984,8.454,3.778,6.0
194.612,8.31,9.044,14.0
195.452,8.304,7.957,6.0
193.502,8.18,6.765,27.0
193.619,8.143,5.636,7.0
0.0,0.0,0.0,0.0
196.77,8.195,3.469,16.0
194.974,8.073,8.756,8.0
195.495,8.053,7.654,6.0
193.378,7.924,6.461,13.0
193.727,7.896,5.339,24.0
196.948,7.984,4.296,16.0
203.902,8.225,3.28,21.0
195.106,7.821,8.461,8.0
0.0,0.0,0.0,0.0
193.367,7.664,6.163,9.0
0.0,0.0,0.0,0.0
200.352,7.854,4.066,9.0
0.0,0.0,0.0,0.0
199.438,7.722,8.344,5.0
193.617,7.455,6.989,9.0
0.0,0.0,0.0,0.0
195.18,7.428,4.786,5.0
0.0,0.0,0.0,0.0
0.0,0.0,0.0,0.0
194.887,7.279,7.864,8.0
193.619,7.187,6.702,14.0
194.592,7.177,5.618,7.0
195.138,7.154,4.497,8.0
202.759,7.387,3.511,15.0
0.0,0.0,0.0,0.0
193.836,6.967,7.537,24.0
193.546,6.909,6.414,6.0
194.78,6.906,5.337,9.0
195.125,6.874,4.21,16.0
194.956,6.822,3.089,7.0
202.691,7.045,2.051,6.0
193.632,6.675,7.244,12.0
193.375,6.622,6.127,9.0
0.0,0.0,0.0,0.0
195.142,6.587,3.927,24.0
195.571,6.554,2.815,23.0
196.25,6.53,1.702,18.0
193.602,6.387,6.965,20.0
194.808,6.381,5.893,6.0
194.24,6.313,4.763,7.0
0.0,0.0,0.0,0.0
195.266,6.25,2.533,8.0
196.088,6.227,1.421,36.0
193.247,6.081,6.677,25.0
194.24,6.062,5.598,8.0
193.827,6.001,4.478,26.0
0.0,0.0,0.0,0.0
201.744,6.145,2.331,27.0
196.105,5.925,1.146,32.0
192.954,5.77,6.396,24.0
194.285,5.763,5.33,25.0
193.602,5.693,4.204,30.0
195.609,5.701,3.109,20.0
0.0,0.0,0.0,0.0
0.0,0.0,0.0,0.0
193.434,5.482,6.149,6.0
194.224,5.454,5.063,26.0
193.434,5.382,3.938,42.0
195.365,5.385,2.842,22.0
103.26,2.82,0.912,5.0
0.0,0.0,0.0,0.0
194.578,5.2,5.923,4.0
194.013,5.132,4.796,32.0
193.577,5.068,3.678,35.0
195.063,5.058,2.574,15.0
103.067,2.644,0.771,6.0
100.337,2.548,0.179,1.0
194.375,4.876,5.658,12.0
194.129,4.818,4.543,29.0
193.544,4.749,3.424,23.0
0.0,0.0,0.0,0.0
102.902,2.47,0.636,1.0
100.169,2.378,0.048,35.0
194.737,4.559,5.417,22.0
193.898,4.487,4.287,27.0
195.338,4.469,3.206,23.0
0.0,0.0,0.0,0.0
100.032,2.234,0.491,3.0
100.052,2.207,-0.078,8.0
194.902,4.238,5.177,22.0
0.0,0.0,0.0,0.0
195.994,4.151,2.97,5.0
102.937,2.153,0.964,6.0
100.116,2.065,0.366,2.0
0.0,0.0,0.0,0.0
194.77,3.899,4.931,24.0
194.918,3.848,3.824,9.0
0.0,0.0,0.0,0.0
99.96,1.916,0.812,1.0
99.864,1.887,0.243,8.0
0.0,0.0,0.0,0.0
194.75,3.56,4.695,16.0
194.673,3.501,3.583,21.0
0.0,0.0,0.0,0.0
99.75,1.736,0.69,3.0
99.788,1.708,0.123,5.0
0.0,0.0,0.0,0.0
196.816,3.249,4.51,8.0
194.737,3.156,3.354,36.0
0.0,0.0,0.0,0.0
99.697,1.558,0.573,5.0
99.713,1.529,0.007,5.0
0.0,0.0,0.0,0.0
195.901,2.884,4.263,24.0
194.898,2.81,3.133,30.0
0.0,0.0,0.0,0.0
99.587,1.377,0.459,6.0
0.0,0.0,0.0,0.0
0.0,0.0,0.0,0.0
20.29,0.261,0.418,25.0
20.291,0.255,0.303,19.0
20.298,0.249,0.188,9.0
20.3,0.243,0.071,0.0
0.0,0.0,0.0,0.0
20.201,0.23,-0.158,2.0
20.279,0.224,0.396,39.0
20.28,0.218,0.281,26.0
20.303,0.212,0.166,28.0
20.33,0.206,0.049,30.0
20.259,0.199,-0.066,3.0
20.181,0.192,-0.18,15.0
20.273,0.186,0.374,29.0
20.287,0.18,0.259,27.0
20.25,0.174,0.144,20.0
20.24,0.167,0.027,27.0
20.196,0.161,-0.086,25.0
20.176,0.154,-0.2,28.0
20.17,0.148,0.352,26.0
20.168,0.141,0.237,22.0
20.182,0.135,0.123,28.0
20.173,0.129,0.007,26.0
20.175,0.123,-0.106,41.0
20.188,0.116,-0.221,27.0
20.158,0.109,0.331,30.0
20.166,0.103,0.217,28.0
20.18,0.097,0.103,29.0
20.193,0.09,-0.012,27.0
20.19,0.084,-0.126,27.0
20.236,0.078,-0.241,5.0
20.143,0.071,0.312,28.0
20.141,0.065,0.198,29.0
20.158,0.058,0.084,19.0
20.22,0.052,-0.031,8.0
20.254,0.045,-0.146,37.0
20.269,0.039,-0.261,85.0
20.136,0.032,0.293,29.0
20.136,0.026,0.179,26.0
20.236,0.019,0.066,69.0
20.251,0.013,-0.05,151.0
20.252,0.007,-0.164,28.0
20.226,0.0,-0.278,4.0
20.125,-0.006,0.275,28.0
20.117,-0.012,0.161,28.0
20.139,-0.019,0.047,33.0
20.147,-0.026,-0.067,30.0
20.162,-0.032,-0.181,25.0
20.16,-0.039,-0.295,24.0
20.119,-0.045,0.257,34.0
20.122,-0.052,0.143,33.0
20.137,-0.059,0.03,36.0
20.13,-0.065,-0.084,31.0
20.153,-0.072,-0.198,24.0
20.142,-0.079,-0.312,35.0
20.128,-0.085,0.24,27.0
20.142,-0.092,0.127,27.0
20.131,-0.099,0.013,29.0
20.151,-0.106,-0.101,26.0
20.117,-0.112,-0.214,19.0
20.141,-0.119,-0.328,37.0
20.146,-0.125,0.224,17.0
20.147,-0.132,0.111,16.0
20.194,-0.139,-0.001,20.0
20.144,-0.146,-0.117,16.0
20.155,-0.152,-0.23,22.0
20.158,-0.159,-0.344,26.0
66.522,-0.548,0.692,16.0
53.358,-0.457,0.255,10.0
56.213,-0.501,-0.047,7.0
56.452,-0.523,-0.37,0.0
44.982,-0.431,-0.548,33.0
37.695,-0.374,-0.671,15.0
64.3,-0.659,0.622,29.0
56.196,-0.595,0.228,2.0
56.258,-0.614,-0.087,1.0
56.686,-0.639,-0.412,1.0
44.847,-0.52,-0.578,38.0
36.067,-0.431,-0.667,2.0
20.155,-0.247,0.181,11.0
59.541,-0.75,0.201,36.0
59.54,-0.771,-0.132,23.0
56.644,-0.753,-0.45,4.0
44.862,-0.611,-0.608,16.0
35.993,-0.503,-0.69,2.0
20.126,-0.287,0.168,15.0
20.154,-0.294,0.055,25.0
20.138,-0.301,-0.057,1.0
52.923,-0.81,-0.453,17.0
44.846,-0.702,-0.636,3.0
31.697,-0.507,-0.627,7.0
20.138,-0.328,0.155,8.0
20.136,-0.335,0.043,48.0
20.132,-0.342,-0.069,2.0
52.908,-0.917,-0.485,13.0
38.505,-0.681,-0.568,13.0
31.277,-0.565,-0.637,19.0
53.0,-0.972,0.379,15.0
52.991,-0.99,0.083,46.0
52.944,-1.008,-0.213,19.0
45.423,-0.88,-0.441,24.0
38.203,-0.754,-0.585,20.0
30.942,-0.621,-0.647,29.0
38.401,-0.782,0.254,19.0
38.371,-0.794,0.039,49.0
38.372,-0.808,-0.174,28.0
40.435,-0.867,-0.414,5.0
38.12,-0.831,-0.604,26.0
30.729,-0.681,-0.658,33.0
40.446,-0.907,0.247,152.0
40.414,-0.92,0.021,40.0
40.412,-0.935,-0.204,40.0
0.0,0.0,0.0,0.0
37.998,-0.906,-0.62,22.0
30.584,-0.741,-0.67,34.0
0.0,0.0,0.0,0.0
38.749,-0.963,0.002,24.0
38.738,-0.976,-0.213,36.0
38.678,-0.989,-0.432,35.0
37.924,-0.983,-0.636,13.0
30.491,-0.802,-0.681,36.0
38.669,-1.026,0.202,68.0
38.654,-1.04,-0.013,66.0
38.661,-1.054,-0.229,62.0
38.633,-1.068,-0.448,33.0
37.871,-1.06,-0.65,11.0
30.476,-0.865,-0.693,23.0
38.646,-1.106,0.186,149.0
38.66,-1.12,-0.028,87.0
38.675,-1.135,-0.244,102.0
38.605,-1.147,-0.462,36.0
37.911,-1.14,-0.665,5.0
30.465,-0.927,-0.704,23.0
38.673,-1.187,0.173,69.0
38.67,-1.201,-0.042,59.0
38.66,-1.214,-0.257,55.0
38.577,-1.226,-0.475,20.0
31.351,-1.007,-0.56,19.0
30.433,-0.989,-0.713,23.0
38.764,-1.269,0.161,20.0
38.781,-1.284,-0.054,9.0
38.768,-1.298,-0.269,6.0
38.598,-1.306,-0.487,13.0
31.234,-1.069,-0.567,28.0
30.408,-1.051,-0.721,16.0
80.504,-2.803,0.312,29.0
81.044,-2.852,-0.135,22.0
54.684,-1.944,-0.395,0.0
44.929,-1.614,-0.578,4.0
31.076,-1.127,-0.573,28.0
30.354,-1.112,-0.728,8.0
31.308,-1.154,0.114,46.0
31.309,-1.166,-0.059,72.0
31.311,-1.177,-0.233,46.0
31.283,-1.188,-0.409,42.0
31.039,-1.19,-0.579,17.0
28.488,-1.102,-0.689,46.0
28.468,-1.108,0.098,72.0
28.456,-1.118,-0.059,68.0
28.451,-1.128,-0.217,72.0
28.445,-1.138,-0.377,91.0
28.46,-1.149,-0.536,141.0
28.465,-1.161,-0.694,122.0
28.452,-1.165,0.093,123.0
28.449,-1.176,-0.064,122.0
28.445,-1.186,-0.221,124.0
28.447,-1.197,-0.382,104.0
28.439,-1.207,-0.539,80.0
28.45,-1.218,-0.697,52.0
28.456,-1.224,0.089,68.0
28.463,-1.235,-0.067,58.0
28.471,-1.246,-0.225,50.0
31.182,-1.376,-0.422,47.0
30.876,-1.374,-0.588,32.0
28.762,-1.291,-0.707,3.0
31.263,-1.409,0.095,52.0
31.261,-1.42,-0.076,52.0
31.205,-1.429,-0.249,52.0
31.204,-1.441,-0.424,53.0
30.892,-1.437,-0.591,30.0
28.355,-1.33,-0.699,1.0
79.923,-3.763,0.241,6.0
31.306,-1.485,-0.078,12.0
31.224,-1.493,-0.25,34.0
31.241,-1.505,-0.426,32.0
30.894,-1.5,-0.592,31.0
28.551,-1.397,-0.704,1.0
0.0,0.0,0.0,0.0
68.864,-3.407,-0.172,0.0
53.872,-2.685,-0.432,1.0
38.221,-1.919,-0.521,2.0
30.902,-1.563,-0.591,31.0
24.62,-1.254,-0.607,3.0
66.265,-3.387,0.201,0.0
66.102,-3.403,-0.163,1.0
56.229,-2.916,-0.449,6.0
42.234,-2.206,-0.574,1.0
31.017,-1.631,-0.592,26.0
24.535,-1.299,-0.604,29.0
0.0,0.0,0.0,0.0
66.104,-3.537,-0.159,1.0
24.586,-1.324,-0.194,1.0
24.566,-1.332,-0.332,31.0
24.545,-1.34,-0.466,32.0
24.476,-1.346,-0.6,26.0
65.556,-3.614,0.209,93.0
24.596,-1.365,-0.056,37.0
24.556,-1.372,-0.191,42.0
24.528,-1.379,-0.328,46.0
24.513,-1.387,-0.463,48.0
24.466,-1.394,-0.596,34.0
24.553,-1.402,0.081,43.0
24.546,-1.41,-0.052,66.0
24.517,-1.418,-0.187,57.0
24.514,-1.426,-0.324,75.0
24.486,-1.434,-0.458,51.0
24.447,-1.441,-0.592,43.0
24.517,-1.448,0.085,70.0
24.535,-1.458,-0.048,78.0
24.507,-1.465,-0.183,60.0
24.491,-1.473,-0.319,50.0
24.495,-1.482,-0.454,71.0
24.44,-1.488,-0.587,38.0
24.521,-1.496,0.091,67.0
24.539,-1.506,-0.043,109.0
24.51,-1.513,-0.177,43.0
24.506,-1.522,-0.314,71.0
24.489,-1.53,-0.448,49.0
24.447,-1.536,-0.581,31.0
24.536,-1.545,0.097,68.0
24.535,-1.553,-0.037,59.0
24.516,-1.561,-0.171,44.0
24.503,-1.569,-0.307,46.0
24.504,-1.578,-0.442,41.0
24.455,-1.583,-0.574,34.0
24.563,-1.593,0.104,34.0
24.542,-1.601,-0.029,27.0
24.534,-1.609,-0.164,24.0
24.523,-1.617,-0.3,23.0
24.527,-1.626,-0.435,21.0
24.47,-1.631,-0.567,27.0
24.631,-1.644,0.112,1.0
65.746,-4.413,-0.059,2.0
0.0,0.0,0.0,0.0
44.271,-3.003,-0.527,3.0
34.904,-2.38,-0.606,1.0
30.486,-2.09,-0.696,4.0
65.565,-4.501,0.322,2.0
65.722,-4.534,-0.035,2.0
0.0,0.0,0.0,0.0
46.675,-3.253,-0.539,9.0
35.365,-2.477,-0.601,2.0
30.369,-2.138,-0.682,8.0
65.573,-4.622,0.347,1.0
65.72,-4.655,-0.009,2.0
56.867,-4.048,-0.318,13.0
46.396,-3.318,-0.517,13.0
35.734,-2.568,-0.593,2.0
30.555,-2.207,-0.674,8.0
65.582,-4.742,0.375,1.0
65.511,-4.76,0.017,0.0
0.0,0.0,0.0,0.0
46.339,-3.398,-0.496,21.0
36.184,-2.667,-0.585,2.0
30.654,-2.27,-0.662,5.0
65.539,-4.858,0.405,1.0
65.532,-4.88,0.048,112.0
57.297,-4.287,-0.269,4.0
46.61,-3.503,-0.477,21.0
38.723,-2.924,-0.607,1.0
30.892,-2.343,-0.652,3.0
65.837,-4.999,0.439,0.0
65.583,-5.001,0.08,150.0
61.587,-4.717,-0.259,7.0
46.988,-3.614,-0.457,21.0
39.271,-3.034,-0.596,2.0
31.155,-2.418,-0.642,2.0
61.868,-4.805,0.444,1.0
61.482,-4.796,0.107,15.0
61.395,-4.809,-0.225,3.0
47.269,-3.719,-0.435,21.0
39.965,-3.158,-0.585,9.0
31.549,-2.504,-0.633,2.0
79.388,-6.304,0.614,27.0
79.398,-6.331,0.183,19.0
79.353,-6.354,-0.246,10.0
0.0,0.0,0.0,0.0
39.555,-3.193,-0.556,14.0
32.221,-2.612,-0.628,2.0
79.375,-6.438,0.66,31.0
79.509,-6.475,0.23,29.0
79.422,-6.494,-0.2,5.0
0.0,0.0,0.0,0.0
39.67,-3.269,-0.534,15.0
32.767,-2.712,-0.618,1.0
79.374,-6.573,0.709,26.0
79.388,-6.6,0.279,31.0
79.619,-6.644,-0.15,9.0
49.852,-4.176,-0.369,24.0
40.192,-3.38,-0.515,15.0
33.729,-2.848,-0.615,1.0
0.0,0.0,0.0,0.0
64.069,-5.433,0.267,1.0
79.47,-6.763,-0.097,5.0
50.246,-4.292,-0.338,21.0
40.58,-3.48,-0.493,15.0
34.656,-2.983,-0.608,2.0
0.0,0.0,0.0,0.0
0.0,0.0,0.0,0.0
57.027,-4.945,-0.031,0.0
54.075,-4.706,-0.327,6.0
40.44,-3.533,-0.462,5.0
35.591,-3.121,-0.6,2.0
0.0,0.0,0.0,0.0
0.0,0.0,0.0,0.0
55.913,-4.939,0.01,2.0
0.0,0.0,0.0,0.0
41.928,-3.73,-0.449,11.0
36.782,-3.283,-0.593,12.0
0.0,0.0,0.0,0.0
0.0,0.0,0.0,0.0
55.035,-4.947,0.05,0.0
55.191,-4.978,-0.252,29.0
45.113,-4.082,-0.449,12.0
0.0,0.0,0.0,0.0
54.962,-4.992,0.686,151.0
54.958,-5.007,0.389,169.0
54.969,-5.025,0.093,163.0
55.542,-5.094,-0.211,29.0
45.595,-4.195,-0.418,19.0
38.393,-3.544,-0.559,14.0
54.976,-5.076,0.729,156.0
54.974,-5.091,0.433,160.0
54.965,-5.107,0.137,168.0
55.877,-5.208,-0.166,29.0
46.596,-4.356,-0.39,20.0
38.652,-3.625,-0.531,14.0
54.932,-5.153,0.774,15.0
65.202,-6.135,0.568,2.0
65.191,-6.153,0.217,172.0
56.054,-5.307,-0.12,5.0
47.237,-4.485,-0.355,15.0
38.458,-3.663,-0.496,13.0
82.114,-7.824,1.227,1.0
0.0,0.0,0.0,0.0
65.124,-6.239,0.272,150.0
65.277,-6.272,-0.084,4.0
50.36,-4.853,-0.336,3.0
40.316,-3.896,-0.486,8.0
81.902,-7.918,1.295,8.0
0.0,0.0,0.0,0.0
65.036,-6.322,0.329,5.0
65.118,-6.347,-0.026,4.0
54.566,-5.334,-0.315,5.0
0.0,0.0,0.0,0.0
81.795,-8.02,1.367,18.0
0.0,0.0,0.0,0.0
65.052,-6.412,0.388,1.0
64.965,-6.42,0.032,8.0
0.0,0.0,0.0,0.0
0.0,0.0,0.0,0.0
81.81,-8.13,1.442,35.0
0.0,0.0,0.0,0.0
65.079,-6.5,0.448,56.0
64.97,-6.506,0.091,8.0
55.2,-5.541,-0.218,29.0
0.0,0.0,0.0,0.0
81.787,-8.232,1.517,40.0
0.0,0.0,0.0,0.0
65.109,-6.585,0.509,159.0
64.92,-6.582,0.153,4.0
55.902,-5.682,-0.167,26.0
45.266,-4.613,-0.378,19.0
81.787,-8.336,1.596,36.0
0.0,0.0,0.0,0.0
65.06,-6.662,0.572,5.0
65.038,-6.675,0.216,32.0
56.364,-5.799,-0.114,6.0
49.594,-5.115,-0.365,4.0
81.821,-8.44,1.677,45.0
0.0,0.0,0.0,0.0
65.017,-6.737,0.636,13.0
65.093,-6.759,0.281,157.0
65.243,-6.791,-0.066,4.0
48.207,-5.029,-0.307,4.0
81.831,-8.538,1.76,44.0
81.981,-8.572,1.324,11.0
0.0,0.0,0.0,0.0
65.089,-6.834,0.347,175.0
64.947,-6.835,0.0,2.0
0.0,0.0,0.0,0.0
81.933,-8.643,1.847,40.0
82.268,-8.696,1.414,28.0
0.0,0.0,0.0,0.0
65.092,-6.909,0.415,179.0
64.966,-6.909,0.067,5.0
54.749,-5.835,-0.236,21.0
81.888,-8.729,1.93,40.0
82.309,-8.79,1.5,44.0
0.0,0.0,0.0,0.0
65.111,-6.981,0.483,150.0
64.943,-6.976,0.135,2.0
55.42,-5.965,-0.18,29.0
81.78,-8.805,2.014,38.0
81.999,-8.844,1.581,42.0
0.0,0.0,0.0,0.0
65.047,-7.041,0.552,0.0
65.064,-7.057,0.204,2.0
56.211,-6.108,-0.123,23.0
81.835,-8.895,2.105,34.0
81.897,-8.916,1.668,45.0
82.154,-8.959,1.234,2.0
0.0,0.0,0.0,0.0
65.004,-7.114,0.275,1.0
65.315,-7.161,-0.072,7.0
81.898,-8.981,2.194,37.0
82.12,-9.02,1.762,42.0
82.217,-9.045,1.324,13.0
0.0,0.0,0.0,0.0
65.139,-7.191,0.346,1.0
65.02,-7.19,0.0,3.0
82.052,-9.076,2.29,33.0
82.617,-9.152,1.863,36.0
82.195,-9.119,1.415,25.0
0.0,0.0,0.0,0.0
65.117,-7.247,0.419,3.0
65.132,-7.261,0.071,0.0
82.116,-9.156,2.384,34.0
82.694,-9.234,1.959,37.0
84.036,-9.397,1.542,18.0
83.691,-9.372,1.079,9.0
65.159,-7.308,0.492,5.0
65.136,-7.317,0.144,14.0
82.346,-9.252,2.484,37.0
82.511,-9.284,2.048,21.0
84.831,-9.557,1.652,25.0
83.87,-9.462,1.177,28.0
65.165,-7.362,0.567,1.0
65.169,-7.373,0.218,170.0
83.014,-9.395,2.598,29.0
82.045,-9.296,2.129,17.0
85.156,-9.66,1.755,19.0
84.171,-9.561,1.277,23.0
80.494,-9.156,0.792,3.0
65.18,-7.424,0.293,194.0
82.819,-9.436,2.687,21.0
82.352,-9.394,2.232,17.0
85.189,-9.729,1.854,18.0
84.67,-9.681,1.383,11.0
84.568,-9.681,0.931,7.0
65.237,-7.478,0.369,163.0
0.0,0.0,0.0,0.0
84.241,-9.67,2.382,37.0
85.604,-9.837,1.964,9.0
85.243,-9.807,1.492,5.0
84.664,-9.751,1.031,17.0
65.343,-7.535,0.448,1.0
83.961,-9.685,2.922,27.0
84.071,-9.707,2.476,44.0
84.293,-9.743,2.033,11.0
85.295,-9.868,1.594,20.0
84.877,-9.83,1.133,24.0
79.988,-9.274,0.642,16.0
83.888,-9.73,3.018,37.0
83.951,-9.746,2.572,35.0
84.287,-9.793,2.132,24.0
85.29,-9.919,1.693,14.0
85.124,-9.91,1.236,9.0
80.001,-9.322,0.735,24.0
83.932,-9.785,3.119,32.0
83.699,-9.765,2.664,25.0
84.242,-9.836,2.231,14.0
85.335,-9.972,1.797,6.0
192.368,-22.501,3.025,33.0
80.091,-9.377,0.832,16.0
84.007,-9.84,3.223,35.0
84.265,-9.877,2.783,31.0
84.189,-9.875,2.33,29.0
85.481,-10.034,1.902,12.0
192.308,-22.592,3.256,11.0
80.457,-9.459,0.932,4.0
84.008,-9.882,3.323,34.0
84.533,-9.95,2.893,34.0
84.204,-9.917,2.433,31.0
85.27,-10.05,1.999,10.0
188.395,-22.219,3.413,19.0
192.257,-22.691,2.458,28.0
83.967,-9.916,3.422,31.0
84.668,-10.003,2.999,39.0
84.223,-9.956,2.533,35.0
138.917,-16.431,3.424,17.0
85.311,-10.097,1.647,4.0
192.29,-22.773,2.689,20.0
84.145,-9.971,3.532,24.0
84.635,-10.034,3.1,22.0
84.284,-9.997,2.637,36.0
139.252,-16.524,3.599,20.0
85.317,-10.129,1.749,8.0
153.848,-18.276,2.337,12.0
83.984,-9.983,3.627,27.0
84.908,-10.096,3.213,17.0
84.353,-10.034,2.74,36.0
84.383,-10.041,2.282,12.0
153.793,-18.309,3.338,13.0
153.857,-18.325,2.52,15.0
84.047,-10.017,3.73,18.0
84.433,-10.065,3.296,14.0
84.513,-10.078,2.847,28.0
84.332,-10.06,2.382,14.0
153.729,-18.344,3.523,12.0
153.725,-18.351,2.703,20.0
84.259,-10.065,3.841,10.0
84.234,-10.064,3.39,15.0
84.52,-10.1,2.95,29.0
84.167,-10.06,2.48,20.0
138.908,-16.608,3.352,18.0
153.796,-18.394,2.891,14.0
137.339,-16.438,6.428,11.0
84.223,-10.081,3.493,19.0
84.504,-10.116,3.052,31.0
84.209,-10.082,2.582,34.0
138.982,-16.642,3.521,26.0
153.79,-18.42,3.076,19.0
137.224,-16.449,6.588,10.0
84.087,-10.079,3.587,20.0
84.595,-10.14,3.156,19.0
84.292,-10.104,2.686,34.0
138.942,-16.657,3.686,23.0
153.815,-18.442,3.26,25.0
141.164,-16.94,6.947,12.0
84.143,-10.096,3.691,16.0
0.0,0.0,0.0,0.0
84.42,-10.129,2.791,28.0
85.656,-10.277,2.375,5.0
153.765,-18.45,3.441,19.0
118.759,-14.261,5.986,11.0
84.362,-10.129,3.8,11.0
0.0,0.0,0.0,0.0
84.476,-10.14,2.893,27.0
84.144,-10.1,2.432,13.0
153.828,-18.463,3.625,6.0
118.765,-14.267,6.128,24.0
84.247,-10.118,3.895,6.0
84.61,-10.159,3.459,17.0
84.513,-10.145,2.994,31.0
84.174,-10.103,2.532,30.0
139.101,-16.694,3.441,20.0
118.621,-14.249,6.262,23.0
137.239,-16.48,6.508,12.0
84.297,-10.119,3.545,16.0
84.556,-10.147,3.095,28.0
84.255,-10.109,2.633,32.0
138.945,-16.668,3.599,24.0
118.057,-14.176,6.369,19.0
141.043,-16.928,6.854,10.0
84.07,-10.086,3.634,16.0
84.766,-10.166,3.201,18.0
84.344,-10.112,2.734,27.0
138.873,-16.644,3.759,20.0
62.58,-7.508,3.448,7.0
141.34,-16.949,7.03,11.0
84.199,-10.092,3.736,14.0
85.261,-10.214,3.318,15.0
84.52,-10.121,2.836,24.0
84.233,-10.083,2.376,9.0
62.551,-7.495,3.518,25.0
118.765,-14.223,6.043,24.0
84.309,-10.091,3.836,10.0
84.265,-10.081,3.374,15.0
84.506,-10.105,2.931,28.0
84.163,-10.059,2.468,21.0
62.525,-7.481,3.588,24.0
118.776,-14.202,6.177,29.0
137.298,-16.406,6.403,11.0
84.191,-10.054,3.466,19.0
84.588,-10.095,3.028,26.0
84.219,-10.046,2.564,30.0
62.547,-7.469,3.659,5.0
118.788,-14.175,6.311,30.0
137.284,-16.369,6.557,17.0
84.046,-10.014,3.553,30.0
84.647,-10.08,3.123,19.0
84.311,-10.033,2.66,36.0
109.596,-13.057,6.535,14.0
118.455,-14.101,6.424,25.0
118.857,-14.137,5.806,13.0
83.961,-9.978,3.643,25.0
84.623,-10.05,3.216,16.0
84.479,-10.026,2.757,30.0
62.386,-7.412,3.788,8.0
117.878,-13.993,6.521,21.0
118.851,-14.097,5.934,24.0
83.885,-9.94,3.729,26.0
84.039,-9.951,3.284,27.0
84.571,-10.006,2.85,36.0
62.426,-7.394,3.857,20.0
117.555,-13.911,6.628,14.0
118.787,-14.043,6.058,31.0
83.972,-9.918,3.822,17.0
83.986,-9.911,3.37,35.0
84.588,-9.973,2.939,36.0
62.424,-7.369,3.923,22.0
117.682,-13.877,6.76,13.0
118.881,-14.004,6.188,29.0
84.349,-9.926,3.927,8.0
83.92,-9.866,3.454,36.0
84.443,-9.918,3.022,31.0
62.38,-7.335,3.986,9.0
117.568,-13.81,6.876,20.0
118.904,-13.951,6.312,28.0
136.825,-16.036,6.512,18.0
83.892,-9.821,3.541,37.0
83.974,-9.821,3.092,36.0
62.348,-7.301,4.047,9.0
118.86,-13.901,7.074,10.0
118.809,-13.879,6.428,29.0
83.945,-9.794,4.08,9.0
83.886,-9.776,3.625,37.0
83.772,-9.752,3.168,39.0
62.358,-7.269,4.11,12.0
114.248,-13.299,6.914,10.0
118.756,-13.807,6.543,22.0
83.897,-9.741,4.161,26.0
83.971,-9.738,3.711,30.0
83.744,-9.7,3.25,35.0
62.37,-7.234,4.173,6.0
109.831,-12.721,6.753,23.0
114.383,-13.23,6.415,11.0
83.916,-9.693,4.243,32.0
84.063,-9.698,3.796,27.0
83.795,-9.654,3.332,36.0
108.777,-12.549,7.384,39.0
109.802,-12.649,6.857,34.0
114.367,-13.155,6.522,17.0
84.142,-9.665,4.334,28.0
83.847,-9.617,3.866,37.0
83.851,-9.605,3.413,39.0
108.709,-12.469,7.481,47.0
109.719,-12.565,6.955,19.0
109.937,-12.57,6.374,6.0
84.276,-9.622,4.42,23.0
83.84,-9.558,3.943,36.0
84.07,-9.57,3.499,34.0
108.643,-12.384,7.577,40.0
109.074,-12.413,7.015,21.0
109.893,-12.486,6.469,19.0
84.624,-9.6,4.514,31.0
83.725,-9.483,4.012,34.0
82.456,-9.326,3.505,9.0
108.682,-12.308,7.677,42.0
108.954,-12.318,7.102,32.0
109.808,-12.394,6.561,30.0
84.778,-9.553,4.597,32.0
83.712,-9.417,4.085,37.0
0.0,0.0,0.0,0.0
108.722,-12.228,7.774,28.0
108.797,-12.214,7.187,37.0
109.827,-12.308,6.656,32.0
84.077,-9.406,4.63,17.0
83.809,-9.36,4.16,34.0
83.852,-9.349,3.707,42.0
108.672,-12.134,7.861,27.0
108.841,-12.13,7.28,45.0
109.851,-12.219,6.749,24.0
86.543,-9.609,4.837,9.0
83.804,-9.288,4.228,39.0
0.0,0.0,0.0,0.0
108.748,-12.049,7.955,23.0
108.867,-12.039,7.369,37.0
109.941,-12.134,6.842,13.0
86.582,-9.538,4.907,11.0
83.665,-9.199,4.287,35.0
83.787,-9.196,3.837,34.0
111.48,-12.252,8.242,10.0
109.079,-11.964,7.469,18.0
117.267,-12.836,7.389,9.0
86.348,-9.432,4.961,18.0
83.69,-9.125,4.351,39.0
83.808,-9.12,3.902,25.0
111.645,-12.166,8.339,18.0
111.649,-12.141,7.727,17.0
113.392,-12.304,7.229,10.0
86.094,-9.323,5.01,19.0
83.771,-9.053,4.417,40.0
83.914,-9.051,3.967,22.0
110.821,-11.969,8.358,22.0
111.859,-12.054,7.823,19.0
113.395,-12.193,7.31,8.0
85.347,-9.157,5.026,17.0
83.87,-8.98,4.481,35.0
84.116,-8.989,4.035,32.0
110.284,-11.801,8.395,21.0
108.964,-11.633,7.696,18.0
116.218,-12.379,7.572,11.0
84.382,-8.968,5.026,17.0
84.192,-8.928,4.555,39.0
84.008,-8.89,4.086,34.0
108.56,-11.503,8.335,25.0
108.926,-11.515,7.765,32.0
113.569,-11.978,7.473,7.0
84.187,-8.859,5.069,26.0
84.044,-8.824,4.6,42.0
83.696,-8.767,4.124,30.0
108.576,-11.389,8.405,31.0
109.04,-11.409,7.841,40.0
112.177,-11.71,7.451,13.0
84.237,-8.772,5.124,24.0
83.963,-8.724,4.646,50.0
83.265,-8.631,4.153,34.0
108.425,-11.253,8.46,29.0
109.071,-11.291,7.909,33.0
109.377,-11.295,7.329,27.0
84.811,-8.736,5.209,12.0
83.409,-8.572,4.664,26.0
82.706,-8.479,4.171,31.0
108.477,-11.134,8.525,34.0
109.451,-11.205,7.999,24.0
109.314,-11.163,7.386,34.0
84.935,-8.652,5.262,27.0
83.539,-8.488,4.717,31.0
82.332,-8.344,4.197,38.0
108.266,-10.987,8.566,41.0
109.697,-11.102,8.073,28.0
109.334,-11.035,7.444,37.0
84.78,-8.534,5.297,26.0
83.662,-8.401,4.766,31.0
82.32,-8.245,4.237,29.0
108.407,-10.87,8.632,40.0
109.77,-10.976,8.133,21.0
109.371,-10.906,7.5,34.0
84.869,-8.441,5.342,29.0
83.638,-8.296,4.805,32.0
82.343,-8.146,4.276,28.0
108.417,-10.738,8.682,22.0
110.065,-10.87,8.206,25.0
109.339,-10.768,7.547,29.0
85.927,-8.439,5.447,21.0
83.493,-8.178,4.833,38.0
81.881,-7.998,4.288,27.0
112.143,-10.966,9.029,25.0
110.034,-10.728,8.249,18.0
109.497,-10.645,7.602,30.0
86.505,-8.385,5.52,11.0
83.395,-8.061,4.86,34.0
81.809,-7.885,4.316,32.0
112.078,-10.815,9.067,24.0
112.611,-10.833,8.486,13.0
109.784,-10.53,7.664,29.0
86.444,-8.267,5.547,26.0
83.485,-7.96,4.895,40.0
82.086,-7.804,4.361,25.0
112.041,-10.662,9.105,27.0
112.777,-10.7,8.537,20.0
109.954,-10.4,7.713,17.0
0.0,0.0,0.0,0.0
83.461,-7.848,4.921,39.0
0.0,0.0,0.0,0.0
112.411,-10.549,9.17,21.0
112.896,-10.561,8.581,22.0
113.405,-10.575,7.989,23.0
84.959,-7.898,5.505,24.0
83.367,-7.727,4.939,31.0
83.57,-7.722,4.488,43.0
120.71,-11.163,9.879,10.0
112.844,-10.402,8.607,20.0
112.841,-10.369,7.978,24.0
0.0,0.0,0.0,0.0
83.595,-7.632,4.974,34.0
83.806,-7.628,4.522,40.0
114.414,-10.423,9.391,17.0
116.04,-10.536,8.878,8.0
112.536,-10.184,7.983,22.0
0.0,0.0,0.0,0.0
84.152,-7.565,5.024,37.0
83.558,-7.488,4.525,36.0
113.868,-10.212,9.37,21.0
114.685,-10.251,8.796,13.0
60.164,-5.359,4.278,2.0
84.507,-7.502,5.531,24.0
84.224,-7.453,5.043,21.0
83.255,-7.342,4.522,35.0
60.658,-5.353,5.0,9.0
121.003,-10.641,9.299,27.0
60.218,-5.277,4.291,5.0
84.48,-7.378,5.54,30.0
84.302,-7.337,5.058,13.0
83.216,-7.218,4.53,32.0
24.616,-2.136,2.032,8.0
120.932,-10.458,9.307,24.0
116.009,-9.996,8.279,9.0
0.0,0.0,0.0,0.0
86.367,-7.389,5.19,10.0
83.687,-7.136,4.563,34.0
24.627,-2.1,2.035,17.0
60.592,-5.149,4.667,5.0
115.387,-9.772,8.242,14.0
85.925,-7.251,5.648,17.0
86.055,-7.236,5.176,10.0
83.855,-7.026,4.576,41.0
24.608,-2.063,2.034,19.0
60.549,-5.056,4.666,6.0
115.503,-9.611,8.253,18.0
85.871,-7.118,5.646,26.0
83.644,-6.909,5.032,28.0
83.528,-6.874,4.558,36.0
24.41,-2.009,2.017,15.0
121.296,-9.947,9.345,6.0
117.407,-9.592,8.387,17.0
85.731,-6.978,5.634,38.0
83.625,-6.78,5.028,12.0
83.317,-6.731,4.544,36.0
24.027,-1.941,1.985,23.0
120.887,-9.731,9.307,6.0
117.776,-9.443,8.406,25.0
85.79,-6.853,5.632,29.0
83.806,-6.669,5.033,27.0
83.366,-6.609,4.539,40.0
24.005,-1.903,1.981,21.0
115.11,-9.09,8.851,18.0
60.373,-4.749,4.303,4.0
85.679,-6.712,5.616,40.0
83.987,-6.555,5.033,20.0
83.385,-6.483,4.53,41.0
23.998,-1.865,1.977,45.0
115.135,-8.913,8.838,11.0
60.358,-4.654,4.293,7.0
84.185,-6.465,5.506,17.0
84.134,-6.435,5.029,36.0
83.879,-6.39,4.543,37.0
24.012,-1.829,1.974,39.0
114.994,-8.723,8.806,12.0
60.347,-4.558,4.281,5.0
84.152,-6.33,5.487,25.0
84.301,-6.315,5.023,45.0
83.742,-6.248,4.519,31.0
24.149,-1.801,1.98,40.0
24.585,-1.826,1.877,1.0
60.339,-4.463,4.267,5.0
84.183,-6.2,5.47,16.0
84.353,-6.187,5.006,34.0
84.118,-6.144,4.518,41.0
24.179,-1.765,1.977,42.0
24.531,-1.783,1.866,22.0
118.284,-8.562,8.333,16.0
60.018,-4.326,3.883,9.0
84.442,-6.06,4.987,23.0
84.043,-6.006,4.49,27.0
24.207,-1.729,1.971,38.0
24.393,-1.734,1.849,21.0
24.547,-1.738,1.721,17.0
24.533,-1.729,1.579,16.0
24.481,-1.718,1.438,26.0
84.214,-5.884,4.472,31.0
24.231,-1.692,1.965,27.0
24.312,-1.69,1.834,41.0
24.477,-1.693,1.708,36.0
24.452,-1.684,1.565,29.0
24.457,-1.677,1.427,62.0
24.523,-1.674,1.293,36.0
24.288,-1.656,1.961,34.0
24.303,-1.649,1.824,47.0
24.419,-1.65,1.694,42.0
24.445,-1.644,1.555,75.0
24.435,-1.636,1.416,54.0
24.489,-1.632,1.281,68.0
24.322,-1.619,1.953,39.0
24.309,-1.611,1.814,45.0
24.389,-1.608,1.681,42.0
24.435,-1.604,1.543,58.0
24.44,-1.596,1.405,74.0
24.474,-1.591,1.269,83.0
24.336,-1.58,1.942,37.0
24.315,-1.571,1.803,45.0
24.371,-1.567,1.668,49.0
24.365,-1.559,1.527,29.0
24.414,-1.555,1.392,50.0
24.467,-1.551,1.256,85.0
24.331,-1.54,1.93,38.0
24.327,-1.532,1.791,42.0
24.37,-1.527,1.655,71.0
24.354,-1.519,1.513,28.0
24.41,-1.515,1.378,60.0
24.464,-1.511,1.243,83.0
24.338,-1.501,1.917,55.0
24.364,-1.495,1.78,40.0
24.388,-1.489,1.643,68.0
24.384,-1.481,1.501,48.0
24.422,-1.476,1.365,54.0
24.472,-1.472,1.229,53.0
24.357,-1.462,1.904,73.0
24.395,-1.457,1.767,56.0
24.41,-1.45,1.629,56.0
24.396,-1.442,1.487,66.0
24.453,-1.438,1.352,75.0
24.506,-1.434,1.216,45.0
24.39,-1.424,1.891,53.0
24.449,-1.42,1.756,50.0
24.438,-1.412,1.616,33.0
24.427,-1.404,1.473,61.0
24.497,-1.401,1.338,37.0
28.398,-1.616,1.39,29.0
24.444,-1.388,1.878,55.0
24.492,-1.383,1.742,27.0
24.471,-1.374,1.601,30.0
24.464,-1.366,1.458,34.0
28.421,-1.579,1.532,71.0
83.757,-4.629,4.04,15.0
24.503,-1.351,1.865,47.0
28.423,-1.558,2.001,73.0
28.425,-1.55,1.839,17.0
28.419,-1.541,1.673,68.0
28.423,-1.533,1.511,71.0
83.766,-4.494,3.978,31.0
28.409,-1.52,2.141,36.0
28.422,-1.512,1.979,71.0
28.412,-1.503,1.816,69.0
28.416,-1.495,1.651,66.0
28.409,-1.486,1.488,70.0
84.042,-4.371,3.924,25.0
28.417,-1.473,2.118,73.0
28.423,-1.465,1.956,68.0
28.413,-1.456,1.792,66.0
28.41,-1.448,1.627,70.0
28.415,-1.44,1.465,70.0
85.24,-4.295,3.909,30.0
28.414,-1.427,2.094,71.0
28.418,-1.419,1.931,68.0
28.407,-1.41,1.768,66.0
28.401,-1.401,1.602,69.0
28.412,-1.394,1.44,64.0
85.378,-4.166,3.841,26.0
28.412,-1.382,2.069,53.0
28.415,-1.373,1.906,56.0
28.401,-1.364,1.742,59.0
28.404,-1.356,1.577,73.0
28.403,-1.348,1.414,46.0
85.714,-4.044,3.778,21.0
46.601,-2.191,3.351,8.0
46.671,-2.18,3.087,2.0
161.111,-7.482,9.734,21.0
161.045,-7.432,8.791,30.0
28.399,-1.302,1.387,3.0
159.59,-7.275,6.883,27.0
30.993,-1.407,2.198,33.0
46.627,-2.104,3.039,10.0
161.359,-7.235,9.591,24.0
31.328,-1.395,1.679,7.0
31.32,-1.386,1.499,5.0
28.426,-1.25,1.197,0.0
31.064,-1.36,2.172,41.0
31.301,-1.362,2.008,14.0
28.433,-1.229,1.661,30.0
28.445,-1.221,1.495,55.0
28.434,-1.213,1.331,57.0
28.419,-1.204,1.168,73.0
28.426,-1.2,1.957,59.0
28.417,-1.191,1.793,75.0
28.414,-1.183,1.63,99.0
28.405,-1.175,1.463,77.0
28.426,-1.168,1.301,116.0
28.439,-1.16,1.138,120.0
28.429,-1.155,1.927,110.0
28.421,-1.146,1.762,113.0
28.404,-1.137,1.597,95.0
28.413,-1.13,1.432,52.0
28.433,-1.123,1.269,69.0
28.444,-1.116,1.106,67.0
28.428,-1.11,1.894,72.0
28.437,-1.102,1.731,54.0
31.206,-1.201,1.72,14.0
31.221,-1.193,1.537,48.0
31.252,-1.186,1.359,72.0
31.238,-1.177,1.179,41.0
31.193,-1.169,2.042,32.0
31.193,-1.161,1.862,32.0
31.223,-1.154,1.684,48.0
31.219,-1.145,1.501,42.0
31.271,-1.138,1.323,56.0
31.255,-1.129,1.143,42.0
31.221,-1.122,2.006,34.0
31.239,-1.114,1.827,38.0
31.24,-1.106,1.647,36.0
31.269,-1.099,1.465,49.0
31.319,-1.092,1.287,34.0
31.351,-1.085,1.108,36.0
28.399,-0.977,1.789,79.0
28.394,-0.969,1.625,59.0
28.394,-0.961,1.461,56.0
38.623,-1.298,1.761,35.0
38.642,-1.288,1.539,67.0
38.65,-1.279,1.317,53.0
28.385,-0.933,1.752,74.0
28.379,-0.925,1.587,77.0
38.457,-1.244,1.929,33.0
38.577,-1.238,1.709,71.0
38.655,-1.231,1.49,90.0
38.603,-1.219,1.265,62.0
28.388,-0.891,1.715,83.0
28.391,-0.884,1.551,74.0
38.482,-1.188,1.88,65.0
38.618,-1.182,1.66,91.0
38.639,-1.173,1.437,81.0
38.569,-1.161,1.213,64.0
28.39,-0.849,1.677,80.0
28.386,-0.842,1.512,72.0
38.56,-1.133,1.831,50.0
38.634,-1.126,1.608,84.0
38.607,-1.116,1.384,65.0
38.563,-1.105,1.16,73.0
28.383,-0.807,1.637,76.0
38.568,-1.087,2.002,3.0
38.636,-1.08,1.782,65.0
38.642,-1.07,1.555,61.0
38.603,-1.06,1.33,60.0
38.589,-1.05,1.107,65.0
28.375,-0.766,1.597,74.0
38.596,-1.033,1.948,34.0
45.857,-1.216,2.049,10.0
38.764,-1.018,1.504,10.0
38.697,-1.008,1.278,50.0
38.644,-0.997,1.053,49.0
28.376,-0.726,1.556,74.0
45.865,-1.162,2.249,4.0
45.766,-1.149,1.979,45.0
45.708,-1.137,1.708,7.0
0.0,0.0,0.0,0.0
38.708,-0.945,0.998,41.0
28.37,-0.686,1.513,71.0
40.414,-0.968,1.921,29.0
40.403,-0.958,1.687,35.0
40.399,-0.949,1.449,38.0
40.345,-0.938,1.213,38.0
40.415,-0.931,0.982,37.0
40.416,-0.922,2.095,9.0
40.396,-0.912,1.859,38.0
40.398,-0.903,1.625,36.0
40.407,-0.893,1.387,29.0
40.429,-0.885,1.154,28.0
38.391,-0.832,0.874,45.0
40.436,-0.867,2.033,24.0
45.71,-0.97,2.033,11.0
45.671,-0.958,1.766,57.0
45.713,-0.949,1.498,51.0
45.718,-0.939,1.233,24.0
38.305,-0.778,0.812,8.0
45.699,-0.918,2.225,47.0
45.749,-0.909,1.962,55.0
45.69,-0.898,1.694,55.0
64.285,-1.25,2.005,61.0
64.27,-1.235,1.631,3.0
191.833,-3.646,3.758,13.0
45.719,-0.858,2.151,72.0
45.859,-0.851,1.892,38.0
64.275,-1.179,2.279,74.0
64.3,-1.166,1.9,78.0
190.778,-3.42,4.533,30.0
191.528,-3.394,3.441,14.0
45.921,-0.803,2.086,21.0
59.214,-1.023,2.346,56.0
64.275,-1.097,2.174,87.0
64.319,-1.084,1.795,75.0
176.624,-2.943,3.907,34.0
59.576,-0.98,0.972,5.0
64.3,-1.044,2.814,22.0
59.238,-0.95,2.249,75.0
53.507,-0.846,1.72,72.0
59.472,-0.928,1.56,31.0
53.505,-0.824,1.093,17.0
20.13,-0.306,0.294,10.0
58.9,-0.883,2.477,96.0
59.271,-0.877,2.148,7.0
53.484,-0.78,1.627,80.0
59.473,-0.855,1.458,8.0
20.132,-0.285,0.376,10.0
20.126,-0.281,0.259,13.0
58.342,-0.803,2.353,176.0
53.523,-0.726,1.847,150.0
53.483,-0.715,1.534,87.0
20.141,-0.265,0.458,10.0
20.126,-0.261,0.341,13.0
20.14,-0.257,0.225,9.0
58.243,-0.733,2.246,255.0
53.507,-0.663,1.753,64.0
53.482,-0.653,1.441,15.0
20.123,-0.241,0.423,13.0
20.133,-0.238,0.306,10.0
20.163,-0.234,0.189,0.0
58.296,-0.666,2.145,105.0
53.431,-0.601,1.655,12.0
20.141,-0.222,0.506,13.0
20.153,-0.219,0.387,14.0
