X,Y,Z,Reflectivity
9.834,0.333,-0.946,0.0
9.285,0.313,-0.945,0.0
8.775,0.294,-0.941,0.0
8.322,0.277,-0.94,0.0
7.992,0.264,-0.947,0.0
7.623,0.251,-0.945,0.0
9.88,0.323,-0.945,0.0
9.312,0.302,-0.942,0.0
8.828,0.285,-0.942,0.0
8.374,0.268,-0.94,0.0
8.019,0.255,-0.945,0.0
7.658,0.242,-0.945,0.0
9.91,0.311,-0.941,0.0
9.42,0.294,-0.947,0.0
8.865,0.275,-0.94,0.0
8.431,0.26,-0.941,0.0
8.077,0.247,-0.946,0.0
7.702,0.234,-0.945,0.0
10.039,0.303,-0.947,0.0
9.471,0.284,-0.945,0.0
8.977,0.267,-0.945,0.0
8.516,0.252,-0.945,0.0
8.108,0.238,-0.944,0.0
7.755,0.226,-0.946,0.0
10.088,0.292,-0.944,0.0
9.525,0.274,-0.944,0.0
9.008,0.257,-0.942,0.0
8.566,0.243,-0.944,0.0
8.17,0.23,-0.945,0.0
7.807,0.218,-0.946,0.0
10.216,0.284,-0.948,0.0
9.594,0.264,-0.943,0.0
9.071,0.248,-0.941,0.0
8.633,0.234,-0.944,0.0
8.224,0.221,-0.945,0.0
7.855,0.21,-0.946,0.0
10.274,0.273,-0.945,0.0
9.694,0.255,-0.945,0.0
9.152,0.239,-0.942,0.0
8.684,0.225,-0.943,0.0
8.279,0.213,-0.944,0.0
7.916,0.202,-0.946,0.0
10.374,0.263,-0.946,0.0
9.806,0.247,-0.947,0.0
9.258,0.231,-0.945,0.0
8.765,0.217,-0.944,0.0
8.353,0.205,-0.945,0.0
7.972,0.194,-0.946,0.0
10.473,0.253,-0.945,0.0
9.871,0.236,-0.945,0.0
9.353,0.222,-0.946,0.0
8.814,0.208,-0.941,0.0
8.407,0.196,-0.943,0.0
8.04,0.186,-0.946,0.0
10.559,0.243,-0.943,0.0
9.953,0.227,-0.943,0.0
9.421,0.213,-0.944,0.0
8.926,0.2,-0.944,0.0
8.472,0.188,-0.942,0.0
8.1,0.178,-0.945,0.0
10.695,0.233,-0.944,0.0
10.087,0.218,-0.946,0.0
9.556,0.204,-0.948,0.0
8.986,0.19,-0.941,0.0
8.555,0.18,-0.943,0.0
8.165,0.17,-0.944,0.0
10.773,0.223,-0.94,0.0
10.214,0.209,-0.947,0.0
9.641,0.195,-0.946,0.0
9.09,0.182,-0.942,0.0
8.655,0.172,-0.945,0.0
8.252,0.162,-0.946,0.0
10.92,0.213,-0.942,0.0
10.334,0.2,-0.947,0.0
9.76,0.187,-0.947,0.0
9.213,0.174,-0.945,0.0
8.726,0.163,-0.943,0.0
8.333,0.154,-0.946,0.0
11.119,0.205,-0.946,0.0
10.442,0.19,-0.945,0.0
9.898,0.178,-0.95,0.0
9.32,0.166,-0.946,0.0
8.836,0.156,-0.944,0.0
8.428,0.147,-0.947,0.0
11.267,0.195,-0.946,0.0
10.584,0.181,-0.946,0.0
9.993,0.169,-0.947,0.0
9.431,0.158,-0.946,0.0
8.959,0.148,-0.947,0.0
8.52,0.139,-0.947,0.0
11.386,0.185,-0.943,0.0
10.65,0.171,-0.939,0.0
10.127,0.16,-0.948,0.0
9.594,0.15,-0.95,0.0
9.031,0.139,-0.944,0.0
8.611,0.131,-0.946,0.0
11.61,0.176,-0.947,0.0
10.916,0.163,-0.949,0.0
10.276,0.152,-0.949,0.0
9.701,0.141,-0.949,0.0
9.2,0.132,-0.95,0.0
8.691,0.123,-0.944,0.0
11.849,0.167,-0.952,0.0
11.034,0.153,-0.945,0.0
10.384,0.142,-0.945,0.0
9.832,0.133,-0.949,0.0
9.314,0.124,-0.949,0.0
8.818,0.116,-0.946,0.0
11.941,0.156,-0.944,0.0
11.261,0.145,-0.95,0.0
10.552,0.134,-0.947,0.0
9.949,0.124,-0.947,0.0
9.427,0.116,-0.948,0.0
8.901,0.108,-0.943,0.0
12.226,0.147,-0.95,0.0
11.429,0.136,-0.949,0.0
10.704,0.125,-0.946,0.0
10.107,0.116,-0.948,0.0
9.566,0.108,-0.949,0.0
9.073,0.101,-0.949,0.0
12.443,0.138,-0.949,0.0
11.605,0.126,-0.947,0.0
10.951,0.117,-0.952,0.0
10.258,0.108,-0.948,0.0
9.716,0.1,-0.95,0.0
9.2,0.093,-0.949,0.0
12.704,0.128,-0.951,0.0
11.753,0.117,-0.943,0.0
11.119,0.108,-0.951,0.0
10.439,0.1,-0.95,0.0
9.874,0.093,-0.951,0.0
9.315,0.086,-0.947,0.0
12.978,0.119,-0.953,0.0
11.993,0.108,-0.944,0.0
11.32,0.1,-0.952,0.0
10.54,0.091,-0.943,0.0
10.003,0.084,-0.949,0.0
9.496,0.078,-0.952,0.0
13.217,0.109,-0.951,0.0
12.327,0.099,-0.952,0.0
11.457,0.09,-0.946,1.0
10.804,0.083,-0.951,0.0
10.211,0.077,-0.953,0.0
9.676,0.071,-0.955,0.0
13.435,0.099,-0.946,0.0
12.553,0.09,-0.951,0.0
11.53,0.081,-0.934,0.0
20.318,0.139,-1.757,0.0
10.361,0.069,-0.951,0.0
9.779,0.063,-0.95,0.0
20.215,0.131,-1.392,0.0
12.84,0.081,-0.952,0.0
11.972,0.073,-0.951,0.0
11.171,0.067,-0.948,0.0
10.528,0.061,-0.949,0.0
9.958,0.056,-0.951,0.0
14.147,0.08,-0.952,0.0
13.132,0.072,-0.953,0.0
12.228,0.065,-0.952,0.0
11.419,0.059,-0.951,0.0
10.755,0.054,-0.953,0.0
10.138,0.049,-0.952,0.0
14.516,0.07,-0.953,0.0
13.371,0.062,-0.949,0.0
12.484,0.056,-0.952,0.0
11.6,0.05,-0.947,0.0
20.233,0.085,-1.759,0.0
10.306,0.041,-0.951,0.0
14.769,0.06,-0.946,0.0
13.692,0.053,-0.949,0.0
12.759,0.047,-0.951,0.0
11.902,0.042,-0.952,0.0
11.149,0.038,-0.95,0.0
10.516,0.034,-0.952,0.0
15.161,0.05,-0.945,0.0
20.297,0.064,-1.373,0.0
13.131,0.039,-0.957,0.0
12.179,0.034,-0.953,0.0
11.383,0.03,-0.951,0.0
10.694,0.027,-0.95,0.0
15.561,0.04,-0.944,0.0
14.516,0.035,-0.957,0.0
13.409,0.03,-0.954,0.0
12.453,0.026,-0.953,0.0
11.641,0.023,-0.952,0.0
20.211,0.037,-1.76,0.0
16.051,0.03,-0.946,0.0
14.751,0.025,-0.947,0.0
20.248,0.032,-1.406,0.0
12.751,0.018,-0.954,0.0
11.943,0.015,-0.956,0.0
20.22,0.024,-1.725,0.0
16.481,0.019,-0.942,0.0
15.201,0.016,-0.949,0.0
13.102,0.01,-0.957,0.0
12.228,0.008,-0.957,0.0
11.454,0.006,-0.957,0.0
16.918,0.009,-0.937,0.0
15.603,0.006,-0.946,0.0
12.544,0.0,-0.959,0.0
11.635,0.0,-0.951,0.0
16.167,-0.002,-0.951,0.0
14.832,-0.004,-0.95,0.0
12.774,-0.006,-0.953,0.0
11.964,-0.007,-0.955,0.0
16.591,-0.012,-0.945,0.0
15.262,-0.012,-0.949,0.0
13.163,-0.014,-0.957,0.0
12.265,-0.014,-0.956,0.0
15.694,-0.021,-0.946,0.0
12.608,-0.021,-0.959,0.0
16.283,-0.03,-0.951,0.0
14.927,-0.029,-0.951,0.0
12.975,-0.028,-0.963,0.0
16.677,-0.038,-0.943,0.0
15.376,-0.037,-0.951,0.0
13.25,-0.034,-0.957,0.0
14.671,-0.043,-0.955,0.0
16.425,-0.053,-0.952,0.0
15.074,-0.05,-0.952,0.0
20.281,-0.069,-0.923,74.0
15.548,-0.057,-0.951,0.0
16.093,-0.064,-0.952,0.0
14.817,-0.059,-0.954,0.0
25.006,-0.099,-0.909,0.0
16.601,-0.07,-0.949,0.0
15.291,-0.065,-0.954,0.0
26.271,-0.111,-0.902,0.0
23.091,-0.099,-0.912,0.0
20.277,-0.088,-0.906,67.0
28.039,-0.125,-0.906,17.0
24.338,-0.11,-0.912,0.0
16.403,-0.077,-0.956,0.0
0.0,0.0,0.0,0.0
22.674,-0.107,-0.92,1.0
20.275,-0.097,-0.93,61.0
18.436,-0.089,-0.941,0.0
16.814,-0.082,-0.945,0.0
20.206,-0.097,-0.57,5.0
28.048,-0.136,-0.937,5.0
23.752,-0.116,-0.916,0.0
20.27,-0.1,-0.888,8.0
20.205,-0.099,-0.529,26.0
28.085,-0.139,-0.88,10.0
24.765,-0.124,-0.904,0.0
20.245,-0.102,-0.95,13.0
20.177,-0.101,-0.487,32.0
20.206,-0.102,-0.591,2.0
22.829,-0.116,-0.906,1.0
20.269,-0.103,-0.909,50.0
20.167,-0.102,-0.444,38.0
20.186,-0.102,-0.548,18.0
28.048,-0.143,-0.907,15.0
24.595,-0.125,-0.925,0.0
20.162,-0.102,-0.401,41.0
20.187,-0.102,-0.506,27.0
29.486,-0.15,-0.891,3.0
22.677,-0.115,-0.922,2.0
20.273,-0.103,-0.929,62.0
20.156,-0.101,-0.359,36.0
20.165,-0.101,-0.463,33.0
20.194,-0.101,-0.568,10.0
28.037,-0.141,-0.936,6.0
23.844,-0.12,-0.919,0.0
20.142,-0.1,-0.317,41.0
20.16,-0.1,-0.421,37.0
20.186,-0.1,-0.525,25.0
28.142,-0.139,-0.88,7.0
22.526,-0.111,-0.937,0.0
20.139,-0.097,-0.274,40.0
20.15,-0.097,-0.378,31.0
20.174,-0.097,-0.483,29.0
20.211,-0.097,-0.59,1.0
28.021,-0.134,-0.962,0.0
23.228,-0.111,-0.917,0.0
20.151,-0.095,-0.232,29.0
20.149,-0.094,-0.336,36.0
20.16,-0.094,-0.44,33.0
20.185,-0.094,-0.546,13.0
28.036,-0.13,-0.904,19.0
24.551,-0.113,-0.918,0.0
20.154,-0.091,-0.19,30.0
20.145,-0.09,-0.294,36.0
20.149,-0.09,-0.397,31.0
20.191,-0.09,-0.504,26.0
29.507,-0.13,-0.889,1.0
26.126,-0.114,-0.921,0.0
20.136,-0.086,-0.147,38.0
20.133,-0.086,-0.251,35.0
20.145,-0.085,-0.354,27.0
20.159,-0.084,-0.46,28.0
20.193,-0.084,-0.565,1.0
28.039,-0.116,-0.929,5.0
20.146,-0.081,-0.105,31.0
20.152,-0.08,-0.208,25.0
20.138,-0.08,-0.312,32.0
20.159,-0.079,-0.418,28.0
20.197,-0.078,-0.523,8.0
28.06,-0.107,-0.871,3.0
20.145,-0.075,-0.062,32.0
20.146,-0.074,-0.166,37.0
20.131,-0.073,-0.269,31.0
20.131,-0.072,-0.375,19.0
20.164,-0.071,-0.479,17.0
58.418,-0.205,-1.69,1.0
20.144,-0.068,-0.02,34.0
20.147,-0.067,-0.123,32.0
20.13,-0.066,-0.227,18.0
20.148,-0.065,-0.333,26.0
20.179,-0.064,-0.437,25.0
33.109,-0.104,-0.888,5.0
20.133,-0.061,0.022,38.0
20.135,-0.06,-0.081,35.0
20.151,-0.058,-0.184,30.0
20.135,-0.057,-0.29,27.0
20.156,-0.056,-0.394,19.0
20.167,-0.055,-0.498,0.0
20.146,-0.053,0.064,46.0
20.134,-0.051,-0.038,32.0
20.15,-0.05,-0.142,30.0
20.122,-0.048,-0.247,20.0
20.169,-0.047,-0.352,20.0
20.17,-0.046,-0.456,1.0
20.121,-0.044,0.106,42.0
20.133,-0.042,0.003,35.0
20.146,-0.041,-0.1,34.0
20.131,-0.039,-0.206,19.0
20.17,-0.038,-0.31,25.0
20.19,-0.036,-0.414,1.0
20.115,-0.034,0.148,36.0
20.14,-0.032,0.045,41.0
20.124,-0.031,-0.058,29.0
20.159,-0.029,-0.164,28.0
20.17,-0.027,-0.268,22.0
20.176,-0.026,-0.372,1.0
20.116,-0.024,0.19,37.0
20.125,-0.022,0.086,39.0
20.126,-0.02,-0.016,29.0
20.168,-0.018,-0.122,27.0
20.178,-0.016,-0.226,3.0
20.191,-0.014,-0.33,1.0
20.126,-0.012,0.232,27.0
20.117,-0.01,0.128,28.0
20.134,-0.008,0.025,18.0
20.183,-0.006,-0.08,15.0
20.19,-0.004,-0.184,10.0
20.229,-0.002,-0.289,4.0
20.126,0.0,0.274,28.0
20.126,0.001,0.171,28.0
20.136,0.003,0.067,29.0
20.258,0.005,-0.039,150.0
20.274,0.007,-0.143,150.0
20.273,0.009,-0.248,76.0
20.121,0.011,0.315,27.0
20.13,0.014,0.212,27.0
20.131,0.016,0.107,29.0
20.257,0.018,0.002,151.0
20.249,0.02,-0.102,151.0
20.252,0.023,-0.207,151.0
20.131,0.025,0.356,26.0
20.133,0.027,0.252,27.0
20.147,0.029,0.149,26.0
20.17,0.032,0.043,18.0
20.27,0.034,-0.061,150.0
20.261,0.037,-0.165,88.0
20.14,0.039,0.398,29.0
20.131,0.041,0.294,29.0
20.136,0.044,0.19,27.0
20.148,0.046,0.083,27.0
20.21,0.049,-0.02,10.0
20.227,0.052,-0.124,23.0
20.148,0.054,0.438,29.0
20.144,0.056,0.334,28.0
20.141,0.059,0.23,28.0
20.147,0.062,0.124,27.0
20.207,0.064,0.02,31.0
20.203,0.067,-0.084,33.0
20.16,0.069,0.479,26.0
20.15,0.072,0.375,28.0
20.138,0.075,0.271,25.0
20.15,0.078,0.164,28.0
20.2,0.081,0.06,35.0
20.2,0.083,-0.043,29.0
20.176,0.086,0.52,25.0
20.148,0.088,0.415,29.0
20.152,0.091,0.311,27.0
20.149,0.094,0.204,27.0
20.17,0.097,0.1,25.0
20.188,0.1,-0.004,29.0
20.192,0.103,0.56,22.0
20.15,0.105,0.455,27.0
20.151,0.108,0.35,27.0
20.15,0.111,0.244,27.0
20.163,0.115,0.139,27.0
20.181,0.118,0.035,38.0
20.201,0.12,0.6,14.0
20.157,0.123,0.494,19.0
20.162,0.126,0.39,26.0
20.167,0.13,0.283,27.0
20.17,0.133,0.178,24.0
20.207,0.136,0.074,34.0
20.251,0.139,0.641,2.0
20.167,0.141,0.533,19.0
20.16,0.145,0.428,24.0
20.17,0.148,0.321,24.0
20.178,0.151,0.217,22.0
20.194,0.155,0.112,24.0
117.606,0.919,3.947,22.0
20.206,0.161,0.573,13.0
20.171,0.164,0.467,18.0
20.195,0.167,0.361,22.0
20.249,0.171,0.256,25.0
20.274,0.175,0.151,25.0
126.429,1.111,4.483,17.0
20.268,0.181,0.613,10.0
20.264,0.185,0.507,28.0
20.275,0.188,0.4,28.0
20.289,0.192,0.295,29.0
20.293,0.195,0.189,29.0
126.677,1.239,4.729,17.0
102.953,1.025,3.307,19.0
20.265,0.205,0.545,25.0
20.269,0.209,0.437,31.0
20.27,0.212,0.332,35.0
20.284,0.216,0.227,25.0
132.566,1.434,5.195,12.0
103.02,1.133,3.5,16.0
20.26,0.226,0.582,13.0
20.266,0.23,0.475,26.0
20.275,0.234,0.369,28.0
20.287,0.238,0.264,23.0
124.942,1.485,5.126,27.0
117.885,1.424,4.223,14.0
140.164,1.719,4.287,11.0
20.288,0.252,0.512,27.0
20.278,0.256,0.406,24.0
20.298,0.26,0.3,17.0
126.648,1.643,5.424,7.0
117.817,1.551,4.431,23.0
118.254,1.58,3.83,21.0
20.273,0.274,0.548,2.0
20.292,0.279,0.443,4.0
20.311,0.283,0.337,0.0
69.316,0.977,3.092,2.0
117.795,1.683,4.638,24.0
118.448,1.716,4.045,25.0
157.271,2.31,4.533,29.0
196.19,2.919,4.626,25.0
195.125,2.943,3.581,23.0
110.375,1.683,5.119,7.0
117.701,1.817,4.84,27.0
118.589,1.855,4.255,4.0
157.089,2.488,4.798,9.0
196.841,3.158,4.98,7.0
196.272,3.188,3.938,14.0
110.383,1.812,5.309,2.0
103.203,1.715,4.421,4.0
118.441,1.992,4.452,8.0
124.896,2.127,4.028,2.0
197.957,3.411,5.344,5.0
194.623,3.393,4.233,16.0
103.76,1.827,5.164,36.0
125.633,2.239,5.593,7.0
118.46,2.136,4.652,22.0
148.894,2.716,5.051,4.0
0.0,0.0,0.0,0.0
194.592,3.631,4.557,17.0
69.403,1.308,3.572,6.0
126.91,2.418,5.863,3.0
124.712,2.403,5.106,19.0
124.232,2.42,4.419,2.0
0.0,0.0,0.0,0.0
194.747,3.877,4.88,19.0
103.331,2.077,5.487,9.0
124.702,2.534,5.965,9.0
118.758,2.439,5.056,3.0
0.0,0.0,0.0,0.0
147.598,3.095,4.713,3.0
194.891,4.128,5.197,22.0
103.35,2.209,5.654,7.0
103.843,2.243,5.133,6.0
124.625,2.718,5.503,7.0
102.595,2.26,3.978,1.0
123.971,2.758,4.153,2.0
194.786,4.378,5.5,16.0
103.296,2.343,5.816,4.0
103.826,2.379,5.297,13.0
116.449,2.694,5.326,8.0
102.669,2.398,4.143,8.0
0.0,0.0,0.0,0.0
194.731,4.634,5.799,8.0
69.2,1.662,4.004,4.0
103.838,2.516,5.457,8.0
116.988,2.862,5.53,4.0
124.968,3.084,5.232,3.0
0.0,0.0,0.0,0.0
200.742,5.046,6.283,6.0
69.565,1.764,4.13,8.0
124.384,3.183,6.725,8.0
110.59,2.855,5.394,2.0
120.091,3.127,5.208,8.0
193.655,5.087,7.371,8.0
193.334,5.122,6.335,18.0
67.462,1.802,4.104,2.0
69.19,1.864,3.842,6.0
103.995,2.828,5.224,2.0
102.81,2.818,4.608,1.0
102.739,2.84,4.059,3.0
0.0,0.0,0.0,0.0
102.936,2.894,6.414,6.0
103.535,2.935,5.899,3.0
103.908,2.969,5.367,7.0
118.647,3.418,5.487,2.0
125.702,3.65,5.145,2.0
193.677,5.67,6.899,14.0
101.253,2.989,6.452,5.0
69.216,2.058,4.04,3.0
118.609,3.556,6.292,4.0
110.565,3.341,5.266,4.0
102.379,3.118,4.332,6.0
193.802,5.948,7.168,18.0
118.624,3.672,7.722,3.0
67.458,2.103,4.031,5.0
103.223,3.243,5.618,3.0
110.705,3.505,5.423,4.0
102.38,3.265,4.47,6.0
193.815,6.226,7.43,19.0
68.56,2.221,4.555,10.0
69.201,2.257,4.227,8.0
103.031,3.386,5.744,7.0
103.148,3.412,5.187,5.0
102.412,3.413,4.604,3.0
193.747,6.505,7.679,22.0
53.234,1.802,3.607,4.0
69.124,2.356,4.312,1.0
103.222,3.543,5.887,3.0
103.069,3.562,5.317,2.0
117.991,4.106,5.455,2.0
193.617,6.786,7.919,15.0
67.825,2.396,4.682,11.0
68.301,2.429,4.348,6.0
67.44,2.415,3.931,2.0
196.61,7.089,10.388,15.0
195.522,7.096,9.284,12.0
196.399,7.176,8.276,6.0
0.0,0.0,0.0,0.0
68.646,2.544,4.454,4.0
67.485,2.518,4.016,3.0
202.451,7.603,10.944,6.0
195.35,7.383,9.51,16.0
195.802,7.447,8.483,12.0
69.285,2.656,4.951,15.0
68.9,2.658,4.552,4.0
67.806,2.632,4.115,0.0
118.75,4.637,6.557,2.0
194.78,7.655,9.708,25.0
195.057,7.712,8.675,11.0
68.785,2.741,4.995,10.0
67.683,2.713,4.549,7.0
68.559,2.765,4.239,3.0
68.624,2.784,3.866,1.0
194.186,7.924,9.895,20.0
194.618,7.991,8.871,8.0
68.839,2.849,5.076,7.0
67.094,2.792,4.584,5.0
69.119,2.892,4.349,5.0
203.41,8.561,11.679,12.0
194.091,8.215,10.099,24.0
194.405,8.275,9.068,13.0
47.397,2.033,3.545,6.0
0.0,0.0,0.0,0.0
68.812,2.985,4.402,3.0
68.581,2.991,4.009,0.0
194.838,8.544,10.339,34.0
193.404,8.53,9.221,23.0
47.21,2.098,3.579,3.0
67.628,3.021,4.761,7.0
69.648,3.128,4.526,1.0
0.0,0.0,0.0,0.0
194.821,8.847,10.534,15.0
193.304,8.825,9.408,20.0
52.672,2.423,4.047,3.0
47.483,2.196,3.39,2.0
69.782,3.244,4.604,0.0
67.091,3.135,4.056,0.0
196.112,9.213,10.795,25.0
194.531,9.186,9.654,24.0
68.942,3.281,5.363,2.0
47.556,2.274,3.441,2.0
69.802,3.355,4.671,0.0
67.231,3.247,4.127,2.0
195.483,9.492,10.941,18.0
194.138,9.473,9.814,21.0
65.657,3.227,5.168,3.0
66.543,3.286,4.875,5.0
47.369,2.351,3.212,1.0
67.361,3.359,4.195,0.0
195.446,9.794,11.11,13.0
194.421,9.792,9.997,22.0
43.784,2.221,3.484,1.0
66.665,3.398,4.942,2.0
52.744,2.701,3.622,0.0
0.0,0.0,0.0,0.0
195.325,10.098,11.267,19.0
194.298,10.094,10.153,21.0
47.217,2.471,3.797,6.0
67.486,3.547,5.059,4.0
52.813,2.789,3.671,1.0
0.0,0.0,0.0,0.0
194.97,10.392,11.405,17.0
194.063,10.392,10.296,25.0
47.174,2.544,3.831,8.0
47.267,2.56,3.58,1.0
47.81,2.601,3.36,0.0
0.0,0.0,0.0,0.0
195.118,10.711,11.561,15.0
194.408,10.717,10.459,23.0
47.226,2.623,3.871,5.0
47.096,2.626,3.602,2.0
205.787,11.522,14.613,8.0
0.0,0.0,0.0,0.0
206.743,11.676,12.399,17.0
194.743,11.044,10.614,19.0
47.168,2.694,3.9,1.0
47.391,2.718,3.658,12.0
206.021,11.865,14.772,6.0
0.0,0.0,0.0,0.0
0.0,0.0,0.0,0.0
195.786,11.413,10.801,20.0
45.819,2.69,3.819,3.0
47.359,2.791,3.687,1.0
243.551,14.413,17.622,19.0
0.0,0.0,0.0,0.0
0.0,0.0,0.0,0.0
194.309,11.637,10.842,4.0
47.318,2.854,3.974,3.0
47.329,2.865,3.713,3.0
243.97,14.828,17.8,22.0
206.902,12.621,13.937,6.0
207.784,12.725,12.853,9.0
196.798,12.097,11.095,18.0
45.765,2.833,3.87,4.0
46.83,2.91,3.701,3.0
244.381,15.24,17.967,20.0
207.223,12.971,14.073,8.0
0.0,0.0,0.0,0.0
196.827,12.409,11.201,6.0
45.713,2.902,3.89,1.0
46.78,2.98,3.721,4.0
244.799,15.654,18.124,26.0
110.351,7.081,7.55,5.0
107.846,6.945,6.785,2.0
196.026,12.668,11.252,6.0
47.523,3.093,4.067,2.0
47.281,3.087,3.784,2.0
111.446,7.302,8.304,6.0
208.114,13.681,14.336,6.0
208.846,13.777,13.235,16.0
120.124,7.951,6.949,2.0
46.166,3.077,3.971,1.0
45.794,3.062,3.686,1.0
245.727,16.487,18.418,23.0
111.451,7.501,7.725,1.0
111.015,7.496,7.081,1.0
92.077,6.238,5.364,1.0
45.805,3.134,3.705,2.0
246.178,16.9,18.548,23.0
108.064,7.442,7.531,1.0
109.881,7.594,7.05,2.0
110.668,7.671,6.489,2.0
45.849,3.21,3.724,2.0
246.523,17.313,18.659,15.0
116.269,8.19,8.143,4.0
108.215,7.645,6.979,4.0
111.298,7.888,6.562,6.0
46.93,3.359,3.827,1.0
247.026,17.732,18.772,20.0
0.0,0.0,0.0,0.0
0.0,0.0,0.0,0.0
111.502,8.075,6.605,6.0
45.552,3.321,3.981,1.0
107.687,7.873,8.812,2.0
107.84,7.906,8.223,2.0
111.674,8.21,7.883,1.0
117.622,8.672,7.65,2.0
111.125,8.218,6.609,2.0
107.807,8.068,8.244,8.0
108.644,8.154,7.692,2.0
110.559,8.32,7.213,7.0
107.351,8.101,6.407,6.0
45.713,3.482,3.759,0.0
114.508,8.745,8.778,5.0
108.313,8.293,7.687,1.0
112.878,8.666,7.382,3.0
99.258,7.64,5.939,3.0
45.413,3.519,3.995,1.0
45.674,3.547,3.762,0.0
110.229,8.584,8.464,4.0
116.387,9.086,8.275,2.0
91.285,7.144,5.981,5.0
99.846,7.835,5.986,5.0
110.391,8.74,9.105,4.0
0.0,0.0,0.0,0.0
107.547,8.556,7.656,2.0
97.348,7.764,6.385,3.0
108.523,8.677,6.513,5.0
114.879,9.243,10.128,2.0
111.738,9.012,9.223,12.0
108.078,8.737,8.315,13.0
107.499,8.71,7.658,6.0
91.71,7.449,6.02,4.0
97.302,7.922,5.843,5.0
116.182,9.519,10.246,4.0
0.0,0.0,0.0,0.0
107.062,8.809,8.238,9.0
91.594,7.554,6.525,3.0
116.098,9.598,7.621,4.0
91.362,7.571,5.485,12.0
117.538,9.801,10.363,5.0
117.355,9.806,9.687,8.0
117.807,9.865,9.061,9.0
112.237,9.419,7.991,5.0
85.461,7.187,5.606,5.0
91.609,7.722,5.495,6.0
115.014,9.755,10.134,6.0
96.343,8.188,7.946,5.0
115.425,9.83,8.869,6.0
92.066,7.857,6.547,4.0
85.47,7.31,5.599,3.0
86.742,7.435,5.195,3.0
114.932,9.912,10.115,9.0
114.984,9.936,9.47,20.0
96.483,8.353,7.403,8.0
106.661,9.253,7.573,9.0
90.808,7.893,5.937,10.0
83.802,7.299,5.008,3.0
113.911,9.982,10.009,9.0
114.17,10.023,9.387,7.0
96.435,8.481,7.385,5.0
96.533,8.507,6.839,6.0
97.1,8.573,6.333,1.0
98.204,8.687,5.853,2.0
86.178,7.669,7.557,2.0
86.035,7.671,7.058,1.0
84.789,7.573,6.476,5.0
109.757,9.821,7.753,16.0
85.072,7.627,5.53,3.0
78.308,7.035,4.65,4.0
107.971,9.756,9.445,3.0
107.856,9.763,8.823,4.0
108.026,9.794,8.227,4.0
84.878,7.709,5.976,6.0
83.949,7.639,5.437,2.0
78.331,7.141,4.632,3.0
85.145,7.807,7.426,1.0
0.0,0.0,0.0,0.0
91.805,8.446,6.966,5.0
93.532,8.619,6.559,5.0
85.033,7.849,5.483,9.0
87.436,8.086,5.145,2.0
111.679,10.387,9.706,2.0
86.042,8.014,6.99,9.0
92.019,8.585,6.954,2.0
96.42,9.01,6.732,3.0
97.583,9.133,6.262,3.0
85.34,8.001,4.994,2.0
92.061,8.679,7.97,6.0
85.614,8.083,6.926,4.0
92.184,8.718,6.934,6.0
84.366,7.99,5.86,2.0
87.674,8.317,5.594,2.0
84.582,8.037,4.919,8.0
84.808,8.102,7.311,6.0
92.181,8.818,7.423,4.0
84.549,8.1,6.328,4.0
90.649,8.697,6.262,3.0
90.558,8.701,5.743,2.0
85.202,8.201,4.92,12.0
92.117,8.913,7.903,2.0
85.27,8.262,6.83,7.0
84.225,8.172,6.268,7.0
84.689,8.228,5.814,5.0
90.195,8.776,5.681,6.0
85.364,8.319,4.893,7.0
94.083,9.217,8.029,4.0
85.203,8.358,6.786,8.0
84.265,8.276,6.233,11.0
85.346,8.394,5.819,4.0
78.476,7.729,4.906,4.0
81.131,8.002,4.612,3.0
91.843,9.105,7.794,8.0
68.76,6.825,5.443,1.0
84.232,8.371,6.189,4.0
85.138,8.471,5.762,5.0
90.331,9.0,5.601,8.0
81.042,8.086,4.566,4.0
84.854,8.51,7.156,4.0
91.77,9.214,7.216,7.0
72.983,7.336,5.323,4.0
84.844,8.539,5.697,3.0
90.214,9.091,5.545,6.0
81.068,8.181,4.523,3.0
78.872,7.998,6.607,2.0
85.271,8.657,6.657,5.0
72.823,7.401,5.27,7.0
80.33,8.174,5.348,2.0
89.996,9.169,5.48,1.0
99.429,10.143,5.489,5.0
78.802,8.078,6.555,9.0
85.181,8.74,6.599,3.0
72.93,7.491,5.234,4.0
77.85,8.005,5.136,3.0
76.365,7.861,4.603,1.0
83.523,8.608,4.56,4.0
74.972,7.764,6.189,5.0
79.343,8.224,6.097,4.0
72.89,7.563,5.184,6.0
84.671,8.795,5.531,4.0
84.385,8.775,5.032,1.0
84.258,8.771,4.546,6.0
93.061,9.732,7.622,4.0
79.344,8.305,6.044,4.0
72.796,7.627,5.129,5.0
77.877,8.167,5.036,3.0
89.668,9.413,5.287,7.0
79.687,8.374,4.245,1.0
74.647,7.879,6.062,3.0
79.387,8.386,5.993,2.0
72.835,7.701,5.082,3.0
73.17,7.744,4.68,6.0
88.616,9.388,5.162,11.0
79.686,8.451,4.188,3.0
74.738,7.961,6.015,3.0
74.626,7.955,5.579,4.0
72.902,7.778,5.032,4.0
78.477,8.379,4.962,3.0
88.684,9.477,5.102,6.0
84.78,9.069,4.394,3.0
74.792,8.035,5.964,1.0
74.618,8.023,5.521,4.0
72.866,7.84,4.975,4.0
73.105,7.872,4.566,2.0
88.706,9.56,5.034,3.0
84.686,9.135,4.323,4.0
68.737,7.445,5.427,1.0
78.899,8.551,5.777,2.0
72.976,7.915,4.925,6.0
76.859,8.342,4.74,2.0
80.981,8.796,4.532,5.0
86.898,9.447,4.367,2.0
84.328,9.205,6.589,11.0
73.937,8.075,5.353,5.0
84.503,9.236,5.634,5.0
76.858,8.405,4.677,3.0
80.826,8.846,4.457,5.0
96.581,10.579,4.774,22.0
68.774,7.562,5.316,6.0
78.929,8.684,5.648,6.0
73.819,8.126,4.859,6.0
74.795,8.239,4.488,2.0
77.008,8.488,4.181,3.0
91.935,10.142,4.466,10.0
68.789,7.617,5.258,7.0
77.139,8.546,5.452,2.0
84.378,9.353,5.481,2.0
74.562,8.269,4.409,3.0
76.855,8.529,4.105,4.0
0.0,0.0,0.0,0.0
68.774,7.665,5.195,5.0
65.868,7.344,4.597,2.0
85.665,9.557,5.488,4.0
74.85,8.355,4.358,4.0
76.821,8.58,4.033,3.0
90.432,10.107,4.231,7.0
68.766,7.711,5.132,3.0
68.617,7.698,4.726,1.0
78.551,8.817,4.959,4.0
72.373,8.127,4.147,2.0
136.737,15.362,7.054,10.0
90.44,10.167,4.147,7.0
68.706,7.749,5.062,2.0
68.582,7.738,4.659,3.0
78.2,8.827,4.863,14.0
76.688,8.66,4.322,3.0
87.637,9.901,4.437,4.0
85.904,9.711,3.858,16.0
68.662,7.786,4.992,3.0
68.49,7.769,4.586,5.0
78.032,8.854,4.777,5.0
76.817,8.72,4.254,5.0
107.562,12.215,5.342,12.0
85.883,9.758,3.774,23.0
84.594,9.641,6.067,9.0
68.148,7.769,4.495,4.0
74.59,8.505,4.492,3.0
76.85,8.766,4.18,2.0
107.925,12.316,5.252,8.0
85.864,9.803,3.686,24.0
84.873,9.717,6.001,7.0
73.562,8.424,4.779,3.0
74.853,8.574,4.432,1.0
75.823,8.687,4.047,4.0
136.895,15.691,6.522,12.0
85.865,9.846,3.599,18.0
67.885,7.805,4.73,4.0
81.051,9.32,5.182,3.0
71.006,8.167,4.131,1.0
87.896,10.112,4.6,1.0
105.18,12.104,4.902,13.0
85.875,9.885,3.511,12.0
72.773,8.399,4.994,2.0
78.298,9.037,4.924,11.0
72.188,8.334,4.124,1.0
90.525,10.452,4.643,3.0
105.187,12.149,4.792,15.0
91.797,10.605,3.656,21.0
68.432,7.925,4.623,2.0
78.361,9.076,4.843,9.0
75.598,8.757,4.238,4.0
90.678,10.505,4.554,14.0
90.667,10.506,4.033,5.0
91.933,10.655,3.563,12.0
68.31,7.935,4.541,2.0
78.249,9.09,4.751,2.0
75.684,8.792,4.161,2.0
90.643,10.531,4.453,12.0
110.858,12.883,4.809,17.0
91.992,10.692,3.463,13.0
71.829,8.366,4.696,4.0
77.336,9.008,4.609,1.0
85.564,9.966,4.609,8.0
90.679,10.563,4.354,5.0
110.848,12.914,4.686,8.0
99.122,11.549,3.622,13.0
68.515,7.999,4.401,4.0
79.928,9.331,4.674,3.0
85.61,9.993,4.515,12.0
105.417,12.306,4.942,6.0
90.891,10.611,3.739,16.0
99.045,11.565,3.507,16.0
75.509,8.832,4.765,1.0
75.381,8.816,4.323,4.0
85.63,10.014,4.418,12.0
86.91,10.164,3.976,9.0
85.921,10.048,3.437,23.0
98.891,11.566,3.39,10.0
74.816,8.764,4.635,3.0
75.48,8.841,4.241,3.0
85.698,10.036,4.323,8.0
90.709,10.622,4.046,27.0
85.929,10.063,3.339,21.0
98.486,11.534,3.261,8.0
80.834,9.48,4.914,3.0
87.062,10.209,4.791,9.0
90.709,10.635,4.47,4.0
90.785,10.642,3.943,47.0
92.003,10.784,3.468,33.0
98.014,11.488,3.133,13.0
71.303,8.369,4.251,1.0
87.329,10.247,4.705,13.0
90.707,10.641,4.364,10.0
90.87,10.659,3.841,48.0
92.011,10.791,3.361,36.0
97.527,11.438,3.003,12.0
75.449,8.858,4.41,4.0
85.606,10.048,4.511,17.0
90.692,10.642,4.258,23.0
90.919,10.667,3.737,45.0
92.025,10.795,3.253,11.0
97.546,11.441,2.888,22.0
75.463,8.86,4.32,6.0
85.678,10.056,4.412,31.0
90.686,10.64,4.148,21.0
90.939,10.667,3.628,19.0
98.71,11.577,3.371,9.0
97.63,11.448,2.775,32.0
75.507,8.861,4.232,3.0
85.675,10.051,4.309,14.0
90.736,10.641,4.042,31.0
85.92,10.073,3.324,19.0
98.311,11.523,3.24,17.0
97.751,11.455,2.66,28.0
87.366,10.245,4.791,12.0
90.736,10.636,4.453,6.0
90.786,10.637,3.934,46.0
92.0,10.776,3.449,37.0
97.42,11.407,3.094,14.0
97.805,11.45,2.545,25.0
87.711,10.273,4.704,12.0
90.649,10.612,4.34,15.0
90.865,10.633,3.827,40.0
92.049,10.767,3.34,12.0
97.457,11.396,2.976,34.0
97.805,11.433,2.426,10.0
85.614,10.012,4.487,13.0
86.992,10.168,4.059,4.0
85.896,10.035,3.514,25.0
99.006,11.561,3.472,14.0
97.478,11.378,2.859,19.0
97.735,11.405,2.305,8.0
90.702,10.586,4.642,9.0
90.708,10.58,4.12,9.0
85.895,10.013,3.408,44.0
97.228,11.329,3.29,17.0
97.815,11.393,2.748,18.0
149.565,17.414,3.346,9.0
90.695,10.56,4.531,19.0
90.699,10.553,4.009,6.0
91.988,10.697,3.537,12.0
97.327,11.313,3.174,41.0
97.803,11.362,2.628,37.0
149.328,17.341,3.158,2.0
81.0,9.404,3.947,3.0
110.865,12.864,4.764,14.0
99.134,11.495,3.691,2.0
115.239,13.355,3.617,21.0
97.749,11.322,2.506,13.0
149.315,17.287,2.974,13.0
95.752,11.082,4.547,4.0
85.86,9.93,3.584,23.0
103.855,12.003,3.738,6.0
115.298,13.317,3.476,40.0
149.649,17.275,3.653,12.0
149.381,17.235,2.79,20.0
105.242,12.136,4.867,12.0
91.765,10.574,3.716,31.0
97.158,11.187,3.378,9.0
115.346,13.273,3.336,23.0
153.141,17.611,3.551,8.0
149.581,17.192,2.611,16.0
105.489,12.116,4.75,7.0
91.795,10.535,3.606,24.0
104.176,11.946,3.495,14.0
97.772,11.204,2.708,30.0
0.0,0.0,0.0,0.0
149.578,17.119,2.43,18.0
85.876,9.82,3.761,27.0
110.605,12.637,4.21,14.0
104.268,11.903,3.37,31.0
97.794,11.155,2.589,14.0
144.083,16.423,2.989,13.0
149.741,17.056,2.248,7.0
91.755,10.441,3.906,33.0
110.361,12.547,4.064,9.0
104.274,11.844,3.241,21.0
144.134,16.358,3.639,14.0
144.13,16.345,2.813,18.0
144.031,16.323,1.986,5.0
91.786,10.389,3.794,13.0
97.071,10.977,3.456,13.0
104.314,11.785,3.115,15.0
144.096,16.266,3.464,9.0
144.093,16.252,2.638,12.0
103.814,11.699,1.306,3.0
105.207,11.84,4.22,30.0
97.027,10.909,3.336,19.0
97.707,10.974,2.799,40.0
103.983,11.669,2.373,7.0
103.817,11.64,1.774,32.0
0.0,0.0,0.0,0.0
107.975,12.077,4.201,16.0
116.984,13.07,3.881,14.0
104.579,11.673,2.87,16.0
103.859,11.581,2.245,31.0
103.749,11.558,1.649,38.0
0.0,0.0,0.0,0.0
96.994,10.778,3.659,19.0
97.701,10.844,3.125,27.0
103.972,11.528,2.729,15.0
103.853,11.503,2.122,45.0
103.797,11.486,1.526,12.0
82.061,9.072,0.737,1.0
96.867,10.689,3.538,32.0
97.834,10.782,3.012,25.0
103.934,11.442,2.606,40.0
103.953,11.432,2.0,15.0
149.821,16.459,2.025,10.0
81.977,8.997,0.64,3.0
108.207,11.852,3.824,30.0
108.79,11.9,3.222,11.0
103.96,11.359,2.485,29.0
149.805,16.35,2.707,25.0
0.0,0.0,0.0,0.0
82.024,8.933,0.545,0.0
98.18,10.668,3.355,39.0
104.224,11.31,2.964,25.0
115.675,12.537,2.628,26.0
109.27,11.829,1.847,20.0
0.0,0.0,0.0,0.0
82.059,8.863,0.449,5.0
97.9,10.549,3.232,28.0
103.633,11.152,2.829,21.0
115.689,12.433,2.496,13.0
109.271,11.729,1.723,67.0
0.0,0.0,0.0,0.0
82.027,8.784,0.356,4.0
97.521,10.416,3.109,16.0
108.828,11.608,2.848,48.0
109.223,11.634,2.233,64.0
109.309,11.628,1.6,14.0
0.0,0.0,0.0,0.0
82.06,8.708,0.264,1.0
103.652,10.968,3.188,2.0
109.034,11.521,2.73,36.0
109.248,11.527,2.11,56.0
115.583,12.179,1.562,23.0
82.303,8.661,0.643,1.0
82.126,8.631,0.172,0.0
137.403,14.399,4.072,13.0
109.225,11.428,2.613,34.0
115.573,12.075,2.105,42.0
115.666,12.068,1.436,6.0
82.172,8.561,0.551,1.0
0.0,0.0,0.0,0.0
110.027,11.411,3.139,23.0
109.264,11.314,2.494,21.0
115.708,11.963,1.981,16.0
83.793,8.651,0.948,0.0
0.0,0.0,0.0,0.0
0.0,0.0,0.0,0.0
109.808,11.267,3.015,45.0
115.726,11.854,2.517,44.0
150.607,15.403,2.418,21.0
0.0,0.0,0.0,0.0
0.0,0.0,0.0,0.0
0.0,0.0,0.0,0.0
115.854,11.754,3.057,16.0
150.667,15.26,3.117,13.0
150.643,15.232,2.259,24.0
0.0,0.0,0.0,0.0
0.0,0.0,0.0,0.0
0.0,0.0,0.0,0.0
109.015,10.929,2.763,22.0
121.572,12.166,2.388,48.0
121.588,12.146,1.695,37.0
0.0,0.0,0.0,0.0
0.0,0.0,0.0,0.0
85.361,8.484,-0.275,2.0
121.461,12.027,2.952,46.0
121.549,12.012,2.261,49.0
121.585,11.994,1.571,55.0
0.0,0.0,0.0,0.0
0.0,0.0,0.0,0.0
0.0,0.0,0.0,0.0
121.562,11.881,2.832,37.0
121.647,11.868,2.142,12.0
150.8,14.683,1.797,5.0
0.0,0.0,0.0,0.0
92.348,8.958,0.041,4.0
0.0,0.0,0.0,0.0
138.23,13.329,3.083,15.0
151.126,14.544,2.512,28.0
0.0,0.0,0.0,0.0
0.0,0.0,0.0,0.0
92.526,8.852,-0.048,1.0
68.9,6.579,-0.427,0.0
151.553,14.411,3.234,26.0
151.215,14.347,2.367,32.0
0.0,0.0,0.0,0.0
92.807,8.77,0.389,54.0
92.753,8.748,-0.136,1.0
0.0,0.0,0.0,0.0
151.487,14.195,3.09,23.0
151.653,14.18,2.234,27.0
0.0,0.0,0.0,0.0
92.868,8.648,0.305,151.0
0.0,0.0,0.0,0.0
0.0,0.0,0.0,0.0
151.65,13.997,2.955,29.0
151.772,13.977,2.098,26.0
0.0,0.0,0.0,0.0
93.368,8.56,0.221,1.0
0.0,0.0,0.0,0.0
0.0,0.0,0.0,0.0
152.016,13.811,2.827,14.0
152.707,13.842,1.975,19.0
0.0,0.0,0.0,0.0
0.0,0.0,0.0,0.0
0.0,0.0,0.0,0.0
0.0,0.0,0.0,0.0
153.797,13.746,2.728,15.0
153.06,13.646,1.848,11.0
107.701,9.578,0.69,5.0
107.578,9.544,0.069,3.0
0.0,0.0,0.0,0.0
0.0,0.0,0.0,0.0
153.709,13.503,2.596,10.0
129.033,11.307,1.448,14.0
107.683,9.413,0.6,19.0
107.625,9.385,-0.018,29.0
0.0,0.0,0.0,0.0
0.0,0.0,0.0,0.0
153.592,13.255,2.469,14.0
128.885,11.095,1.343,8.0
107.684,9.245,0.513,20.0
107.758,9.227,-0.105,7.0
0.0,0.0,0.0,0.0
0.0,0.0,0.0,0.0
199.729,16.92,3.052,5.0
115.268,9.738,1.111,2.0
107.832,9.086,0.43,2.0
108.134,9.087,-0.189,2.0
68.952,5.778,-0.51,2.0
0.0,0.0,0.0,0.0
213.505,17.744,3.1,10.0
110.486,9.156,0.981,4.0
108.915,9.0,0.354,1.0
0.0,0.0,0.0,0.0
68.865,5.659,-0.56,1.0
0.0,0.0,0.0,0.0
0.0,0.0,0.0,0.0
110.543,8.979,0.902,8.0
110.045,8.912,0.278,3.0
0.0,0.0,0.0,0.0
0.0,0.0,0.0,0.0
0.0,0.0,0.0,0.0
155.96,12.447,2.042,42.0
114.207,9.086,0.853,8.0
113.962,9.039,0.209,19.0
0.0,0.0,0.0,0.0
0.0,0.0,0.0,0.0
0.0,0.0,0.0,0.0
162.182,12.667,2.016,37.0
114.287,8.897,0.776,3.0
114.141,8.858,0.134,151.0
0.0,0.0,0.0,0.0
0.0,0.0,0.0,0.0
0.0,0.0,0.0,0.0
141.163,10.78,1.663,2.0
0.0,0.0,0.0,0.0
0.0,0.0,0.0,0.0
0.0,0.0,0.0,0.0
0.0,0.0,0.0,0.0
0.0,0.0,0.0,0.0
168.239,12.552,1.878,4.0
122.275,9.09,0.678,10.0
0.0,0.0,0.0,0.0
0.0,0.0,0.0,0.0
0.0,0.0,0.0,0.0
0.0,0.0,0.0,0.0
0.0,0.0,0.0,0.0
140.611,10.203,0.699,152.0
0.0,0.0,0.0,0.0
0.0,0.0,0.0,0.0
0.0,0.0,0.0,0.0
0.0,0.0,0.0,0.0
0.0,0.0,0.0,0.0
0.0,0.0,0.0,0.0
0.0,0.0,0.0,0.0
68.99,4.846,-0.473,1.0
0.0,0.0,0.0,0.0
40.356,2.814,-0.728,0.0
0.0,0.0,0.0,0.0
154.902,10.679,0.609,150.0
0.0,0.0,0.0,0.0
0.0,0.0,0.0,0.0
0.0,0.0,0.0,0.0
0.0,0.0,0.0,0.0
0.0,0.0,0.0,0.0
154.955,10.399,0.537,155.0
0.0,0.0,0.0,0.0
68.958,4.59,-0.539,2.0
0.0,0.0,0.0,0.0
0.0,0.0,0.0,0.0
0.0,0.0,0.0,0.0
154.986,10.111,0.469,29.0
0.0,0.0,0.0,0.0
69.044,4.465,-0.569,0.0
0.0,0.0,0.0,0.0
0.0,0.0,0.0,0.0
0.0,0.0,0.0,0.0
155.2,9.829,0.406,4.0
0.0,0.0,0.0,0.0
0.0,0.0,0.0,0.0
0.0,0.0,0.0,0.0
38.581,2.4,-0.763,0.0
0.0,0.0,0.0,0.0
0.0,0.0,0.0,0.0
0.0,0.0,0.0,0.0
59.468,3.62,-0.535,0.0
0.0,0.0,0.0,0.0
0.0,0.0,0.0,0.0
197.511,11.807,1.478,27.0
0.0,0.0,0.0,0.0
0.0,0.0,0.0,0.0
0.0,0.0,0.0,0.0
0.0,0.0,0.0,0.0
0.0,0.0,0.0,0.0
197.448,11.42,1.417,32.0
0.0,0.0,0.0,0.0
0.0,0.0,0.0,0.0
0.0,0.0,0.0,0.0
0.0,0.0,0.0,0.0
37.524,2.116,-0.777,0.0
196.09,10.957,1.354,43.0
0.0,0.0,0.0,0.0
0.0,0.0,0.0,0.0
0.0,0.0,0.0,0.0
0.0,0.0,0.0,0.0
37.422,2.036,-0.784,0.0
197.169,10.629,1.315,20.0
0.0,0.0,0.0,0.0
0.0,0.0,0.0,0.0
0.0,0.0,0.0,0.0
0.0,0.0,0.0,0.0
37.607,1.971,-0.796,0.0
197.145,10.233,1.275,32.0
0.0,0.0,0.0,0.0
0.0,0.0,0.0,0.0
0.0,0.0,0.0,0.0
0.0,0.0,0.0,0.0
36.795,1.854,-0.785,0.0
197.116,9.836,1.243,30.0
0.0,0.0,0.0,0.0
0.0,0.0,0.0,0.0
0.0,0.0,0.0,0.0
0.0,0.0,0.0,0.0
36.755,1.778,-0.789,0.0
197.056,9.432,1.218,27.0
0.0,0.0,0.0,0.0
0.0,0.0,0.0,0.0
0.0,0.0,0.0,0.0
42.616,1.986,-0.683,1.0
36.89,1.708,-0.795,0.0
196.969,9.026,1.2,35.0
0.0,0.0,0.0,0.0
0.0,0.0,0.0,0.0
0.0,0.0,0.0,0.0
0.0,0.0,0.0,0.0
0.0,0.0,0.0,0.0
195.583,8.563,1.181,27.0
0.0,0.0,0.0,0.0
0.0,0.0,0.0,0.0
0.0,0.0,0.0,0.0
0.0,0.0,0.0,0.0
36.907,1.557,-0.798,0.0
196.659,8.203,1.186,35.0
0.0,0.0,0.0,0.0
0.0,0.0,0.0,0.0
0.0,0.0,0.0,0.0
0.0,0.0,0.0,0.0
36.852,1.479,-0.796,0.0
196.578,7.802,1.189,37.0
0.0,0.0,0.0,0.0
0.0,0.0,0.0,0.0
0.0,0.0,0.0,0.0
0.0,0.0,0.0,0.0
36.844,1.403,-0.794,0.0
196.429,7.388,1.202,25.0
0.0,0.0,0.0,0.0
0.0,0.0,0.0,0.0
0.0,0.0,0.0,0.0
0.0,0.0,0.0,0.0
36.938,1.329,-0.792,0.0
196.314,6.975,1.22,34.0
0.0,0.0,0.0,0.0
0.0,0.0,0.0,0.0
0.0,0.0,0.0,0.0
0.0,0.0,0.0,0.0
37.228,1.262,-0.794,0.0
196.254,6.566,1.247,26.0
0.0,0.0,0.0,0.0
0.0,0.0,0.0,0.0
0.0,0.0,0.0,0.0
0.0,0.0,0.0,0.0
37.246,1.186,-0.788,0.0
196.14,6.154,1.28,40.0
0.0,0.0,0.0,0.0
0.0,0.0,0.0,0.0
0.0,0.0,0.0,0.0
0.0,0.0,0.0,0.0
38.119,1.133,-0.798,0.0
195.962,5.74,1.321,23.0
0.0,0.0,0.0,0.0
0.0,0.0,0.0,0.0
0.0,0.0,0.0,0.0
46.108,1.289,-0.702,0.0
38.127,1.053,-0.789,0.0
103.13,2.804,0.721,5.0
0.0,0.0,0.0,0.0
0.0,0.0,0.0,0.0
0.0,0.0,0.0,0.0
0.0,0.0,0.0,0.0
38.316,0.978,-0.782,0.0
103.062,2.587,0.751,8.0
100.328,2.486,0.183,1.0
0.0,0.0,0.0,0.0
0.0,0.0,0.0,0.0
0.0,0.0,0.0,0.0
38.733,0.908,-0.778,0.0
102.957,2.37,0.783,2.0
100.152,2.272,0.216,5.0
0.0,0.0,0.0,0.0
0.0,0.0,0.0,0.0
49.53,1.074,-0.707,0.0
0.0,0.0,0.0,0.0
103.016,2.156,0.821,4.0
99.861,2.056,0.253,2.0
0.0,0.0,0.0,0.0
0.0,0.0,0.0,0.0
0.0,0.0,0.0,0.0
0.0,0.0,0.0,0.0
99.898,1.882,0.837,1.0
99.868,1.847,0.294,14.0
0.0,0.0,0.0,0.0
65.842,1.172,-0.527,1.0
0.0,0.0,0.0,0.0
0.0,0.0,0.0,0.0
99.79,1.672,0.88,2.0
99.763,1.638,0.338,6.0
101.494,1.631,-0.206,1.0
0.0,0.0,0.0,0.0
0.0,0.0,0.0,0.0
42.753,0.643,-0.786,0.0
0.0,0.0,0.0,0.0
99.621,1.426,0.387,6.0
0.0,0.0,0.0,0.0
0.0,0.0,0.0,0.0
20.208,0.269,-0.252,0.0
20.203,0.262,-0.361,22.0
20.297,0.255,0.199,11.0
20.336,0.249,0.089,2.0
99.95,1.191,-0.1,1.0
0.0,0.0,0.0,0.0
20.181,0.226,-0.24,22.0
20.187,0.22,-0.35,32.0
20.307,0.214,0.21,30.0
20.331,0.207,0.1,31.0
20.333,0.2,-0.008,28.0
20.207,0.192,-0.12,21.0
20.169,0.184,-0.228,27.0
20.181,0.178,-0.338,34.0
20.182,0.17,0.221,20.0
20.213,0.164,0.112,28.0
20.199,0.157,0.003,25.0
20.182,0.15,-0.107,32.0
20.177,0.143,-0.216,28.0
20.193,0.136,-0.325,29.0
20.169,0.129,0.233,27.0
20.175,0.122,0.125,25.0
20.186,0.115,0.016,29.0
20.185,0.108,-0.094,29.0
20.178,0.101,-0.203,19.0
20.222,0.095,-0.312,1.0
20.153,0.087,0.247,29.0
20.159,0.081,0.138,28.0
20.208,0.074,0.029,32.0
20.203,0.067,-0.08,25.0
20.22,0.06,-0.189,13.0
20.233,0.054,-0.298,6.0
20.137,0.046,0.26,29.0
20.148,0.039,0.152,28.0
20.24,0.033,0.044,83.0
20.257,0.026,-0.066,151.0
20.245,0.019,-0.175,151.0
20.246,0.012,-0.284,22.0
20.124,0.006,0.275,28.0
20.116,0.0,0.167,28.0
20.141,-0.007,0.059,29.0
20.132,-0.013,-0.05,27.0
20.167,-0.02,-0.159,27.0
20.172,-0.027,-0.267,24.0
20.123,-0.034,0.291,32.0
20.117,-0.04,0.183,34.0
20.131,-0.047,0.075,42.0
20.129,-0.054,-0.034,30.0
20.144,-0.061,-0.143,35.0
20.139,-0.067,-0.25,33.0
20.119,-0.074,0.307,29.0
20.133,-0.081,0.199,26.0
20.135,-0.087,0.091,36.0
20.126,-0.094,-0.018,30.0
20.141,-0.101,-0.126,27.0
20.14,-0.107,-0.234,26.0
20.133,-0.114,0.324,19.0
20.135,-0.12,0.216,17.0
20.144,-0.127,0.108,15.0
20.191,-0.134,-0.001,21.0
20.165,-0.14,-0.108,17.0
20.139,-0.147,-0.216,13.0
53.452,-0.407,0.907,6.0
66.523,-0.528,0.773,22.0
53.353,-0.441,0.335,5.0
53.352,-0.459,0.044,4.0
56.276,-0.502,-0.253,4.0
52.856,-0.49,-0.52,5.0
20.173,-0.192,0.36,18.0
64.337,-0.635,0.806,52.0
64.34,-0.657,0.463,21.0
56.23,-0.592,0.099,1.0
56.205,-0.61,-0.201,1.0
53.03,-0.593,-0.472,6.0
20.141,-0.231,0.379,13.0
20.135,-0.237,0.271,9.0
20.143,-0.244,0.164,9.0
59.542,-0.74,0.161,45.0
59.518,-0.76,-0.155,23.0
56.582,-0.741,-0.449,8.0
20.153,-0.269,0.398,10.0
20.13,-0.275,0.291,11.0
20.118,-0.282,0.183,14.0
20.141,-0.289,0.074,27.0
20.133,-0.295,-0.032,8.0
59.355,-0.889,-0.412,14.0
53.507,-0.816,1.112,51.0
20.171,-0.314,0.311,1.0
20.136,-0.32,0.204,5.0
20.145,-0.326,0.095,23.0
20.129,-0.332,-0.012,37.0
52.996,-0.893,-0.313,18.0
193.525,-3.316,4.225,8.0
192.858,-3.365,3.184,7.0
203.374,-3.612,2.276,21.0
53.001,-0.958,0.306,9.0
52.982,-0.974,0.024,37.0
52.949,-0.991,-0.256,17.0
38.207,-0.725,0.875,39.0
52.98,-1.022,0.931,15.0
52.945,-1.037,0.649,50.0
52.919,-1.053,0.363,21.0
38.379,-0.776,0.059,24.0
38.366,-0.788,-0.143,50.0
38.407,-0.798,0.921,41.0
38.403,-0.81,0.717,27.0
40.436,-0.866,0.541,4.0
40.428,-0.878,0.322,150.0
40.446,-0.891,0.108,150.0
40.414,-0.903,-0.105,50.0
0.0,0.0,0.0,0.0
40.404,-0.926,0.801,38.0
40.407,-0.938,0.586,36.0
40.414,-0.95,0.368,31.0
40.424,-0.963,0.154,27.0
0.0,0.0,0.0,0.0
38.668,-0.943,1.016,40.0
38.736,-0.956,0.812,34.0
38.721,-0.967,0.607,13.0
38.689,-0.978,0.398,39.0
38.682,-0.989,0.193,47.0
38.678,-1.001,-0.01,52.0
38.605,-1.008,1.06,72.0
38.633,-1.02,0.856,62.0
38.653,-1.032,0.652,67.0
38.62,-1.042,0.443,65.0
38.64,-1.055,0.239,71.0
38.656,-1.067,0.035,78.0
38.58,-1.073,1.106,66.0
38.618,-1.086,0.903,73.0
38.633,-1.098,0.699,91.0
38.63,-1.109,0.491,108.0
38.623,-1.12,0.287,70.0
38.651,-1.132,0.083,71.0
38.58,-1.139,1.153,66.0
38.619,-1.151,0.951,75.0
38.635,-1.163,0.747,74.0
38.616,-1.173,0.539,67.0
38.643,-1.186,0.335,66.0
38.679,-1.198,0.132,61.0
38.624,-1.205,1.204,64.0
38.635,-1.216,1.0,68.0
38.637,-1.227,0.797,53.0
38.675,-1.239,0.589,34.0
38.704,-1.251,0.386,19.0
38.762,-1.264,0.182,17.0
38.689,-1.27,1.256,26.0
38.711,-1.282,1.052,10.0
38.773,-1.295,0.85,0.0
152.019,-5.118,2.515,5.0
84.731,-2.877,0.956,23.0
80.641,-2.761,0.485,28.0
31.312,-1.078,1.057,46.0
31.331,-1.087,0.893,42.0
31.334,-1.096,0.728,39.0
31.35,-1.105,0.56,30.0
31.352,-1.114,0.395,20.0
31.363,-1.123,0.23,3.0
31.275,-1.126,1.098,58.0
31.266,-1.134,0.932,46.0
31.263,-1.142,0.768,43.0
31.294,-1.151,0.6,55.0
31.257,-1.158,0.435,32.0
31.261,-1.167,0.271,40.0
31.246,-1.173,1.139,56.0
31.252,-1.181,0.974,28.0
28.441,-1.082,0.737,32.0
28.463,-1.09,0.585,62.0
28.459,-1.098,0.435,67.0
28.455,-1.105,0.286,65.0
28.438,-1.11,1.075,76.0
28.429,-1.117,0.926,88.0
28.441,-1.125,0.776,145.0
28.442,-1.132,0.624,150.0
28.442,-1.139,0.475,150.0
28.45,-1.147,0.326,131.0
28.434,-1.152,1.115,109.0
28.431,-1.159,0.966,108.0
28.42,-1.166,0.816,99.0
28.429,-1.173,0.664,103.0
28.434,-1.181,0.515,98.0
28.431,-1.188,0.366,88.0
28.445,-1.194,1.156,59.0
28.438,-1.2,1.006,59.0
28.447,-1.208,0.858,58.0
28.456,-1.215,0.705,58.0
28.452,-1.222,0.556,55.0
28.464,-1.229,0.407,48.0
165.501,-7.184,6.969,12.0
165.772,-7.233,6.109,15.0
85.674,-3.759,2.708,3.0
31.339,-1.382,0.823,2.0
31.336,-1.39,0.658,13.0
31.282,-1.395,0.493,35.0
159.567,-7.147,6.952,30.0
165.604,-7.456,6.347,21.0
86.626,-3.919,2.865,11.0
85.122,-3.871,2.361,21.0
84.779,-3.876,1.907,31.0
0.0,0.0,0.0,0.0
85.792,-3.958,3.865,21.0
159.655,-7.402,6.355,21.0
85.051,-3.961,2.939,17.0
85.197,-3.987,2.489,19.0
84.748,-3.986,2.033,34.0
84.836,-4.009,1.591,7.0
85.928,-4.076,4.0,30.0
86.562,-4.126,3.575,22.0
85.022,-4.07,3.066,22.0
85.535,-4.113,2.628,34.0
84.675,-4.09,2.158,41.0
84.651,-4.108,1.715,36.0
85.158,-4.15,4.093,20.0
86.067,-4.211,3.686,33.0
85.371,-4.195,3.209,15.0
85.678,-4.229,2.763,41.0
84.794,-4.203,2.292,35.0
84.696,-4.216,1.847,37.0
28.422,-1.42,1.41,48.0
85.276,-4.279,3.784,48.0
83.661,-4.214,3.273,11.0
85.0,-4.299,2.872,41.0
84.357,-4.284,2.409,37.0
84.671,-4.316,1.975,41.0
28.422,-1.454,1.453,71.0
84.594,-4.345,3.884,40.0
83.605,-4.311,3.401,15.0
84.962,-4.397,3.003,40.0
84.249,-4.377,2.538,39.0
84.695,-4.416,2.108,33.0
28.425,-1.487,1.498,73.0
83.735,-4.398,3.975,39.0
83.572,-4.405,3.53,32.0
83.6,-4.423,3.086,24.0
84.261,-4.473,2.67,35.0
84.22,-4.487,2.229,41.0
28.419,-1.519,1.542,74.0
28.403,-1.523,1.393,39.0
83.395,-4.489,3.655,35.0
83.45,-4.507,3.213,36.0
83.194,-4.508,2.768,37.0
84.053,-4.57,2.357,40.0
28.428,-1.551,1.588,69.0
28.419,-1.555,1.439,63.0
83.603,-4.589,3.795,34.0
83.436,-4.595,3.343,37.0
83.451,-4.609,2.907,29.0
84.103,-4.66,2.491,16.0
28.432,-1.581,1.633,8.0
28.429,-1.585,1.484,40.0
24.548,-1.372,1.153,4.0
24.597,-1.379,1.024,11.0
24.573,-1.382,0.895,14.0
24.575,-1.386,0.767,22.0
24.444,-1.383,1.443,65.0
24.507,-1.391,1.319,47.0
24.562,-1.398,1.193,33.0
24.543,-1.4,1.061,41.0
24.556,-1.405,0.933,40.0
24.551,-1.409,0.805,52.0
24.419,-1.406,1.481,70.0
24.463,-1.411,1.355,78.0
24.502,-1.417,1.229,43.0
24.496,-1.42,1.098,45.0
24.507,-1.425,0.971,37.0
24.537,-1.43,0.844,55.0
24.405,-1.427,1.519,79.0
24.431,-1.432,1.393,43.0
24.477,-1.438,1.267,64.0
24.494,-1.443,1.138,47.0
24.502,-1.446,1.01,33.0
24.503,-1.45,0.882,55.0
24.391,-1.448,1.558,68.0
24.41,-1.453,1.431,43.0
24.44,-1.457,1.305,49.0
24.484,-1.463,1.177,41.0
24.507,-1.468,1.05,36.0
24.474,-1.469,0.921,45.0
24.403,-1.469,1.598,72.0
24.393,-1.472,1.47,40.0
24.42,-1.476,1.344,72.0
24.467,-1.482,1.216,79.0
24.455,-1.485,1.087,47.0
24.477,-1.489,0.961,71.0
24.404,-1.489,1.638,85.0
24.366,-1.489,1.508,27.0
24.414,-1.495,1.383,54.0
24.457,-1.501,1.255,90.0
24.441,-1.503,1.127,57.0
24.457,-1.507,1.0,39.0
24.381,-1.507,1.677,74.0
24.388,-1.51,1.55,34.0
24.389,-1.512,1.422,29.0
24.447,-1.519,1.295,80.0
24.461,-1.522,1.168,64.0
24.467,-1.525,1.04,58.0
24.343,-1.522,1.715,27.0
24.401,-1.528,1.591,41.0
24.38,-1.529,1.462,27.0
24.439,-1.535,1.335,47.0
24.477,-1.54,1.209,84.0
24.46,-1.542,1.08,45.0
24.322,-1.537,1.753,27.0
24.387,-1.544,1.63,37.0
24.367,-1.545,1.501,28.0
24.426,-1.55,1.374,61.0
24.467,-1.555,1.248,86.0
24.466,-1.557,1.12,35.0
24.314,-1.552,1.792,46.0
24.374,-1.558,1.669,48.0
24.411,-1.563,1.544,37.0
24.427,-1.566,1.414,64.0
24.468,-1.57,1.288,83.0
24.477,-1.573,1.161,58.0
24.299,-1.566,1.831,65.0
24.348,-1.571,1.707,38.0
24.425,-1.578,1.584,52.0
24.416,-1.579,1.453,51.0
24.457,-1.583,1.328,77.0
24.481,-1.587,1.201,81.0
24.296,-1.579,1.871,67.0
24.32,-1.583,1.745,30.0
24.415,-1.59,1.624,70.0
24.418,-1.592,1.493,49.0
24.456,-1.596,1.368,78.0
24.475,-1.599,1.24,65.0
24.289,-1.591,1.91,55.0
24.32,-1.595,1.785,36.0
24.403,-1.602,1.663,50.0
24.441,-1.606,1.535,62.0
24.443,-1.607,1.407,64.0
24.482,-1.611,1.281,68.0
24.315,-1.605,1.952,37.0
24.295,-1.605,1.823,48.0
24.351,-1.609,1.699,27.0
24.446,-1.617,1.575,73.0
24.443,-1.618,1.446,59.0
24.48,-1.621,1.321,66.0
24.419,-1.622,2.0,22.0
24.286,-1.614,1.861,50.0
24.332,-1.618,1.737,26.0
24.438,-1.626,1.614,57.0
24.45,-1.628,1.486,63.0
24.474,-1.63,1.359,58.0
24.669,-1.648,2.061,23.0
24.282,-1.623,1.901,57.0
24.316,-1.626,1.775,29.0
24.434,-1.634,1.653,47.0
24.456,-1.637,1.526,71.0
24.448,-1.637,1.397,51.0
24.782,-1.664,2.11,40.0
24.292,-1.632,1.94,39.0
24.306,-1.633,1.813,43.0
24.431,-1.642,1.691,42.0
24.46,-1.645,1.565,61.0
24.458,-1.645,1.436,60.0
24.798,-1.673,2.151,53.0
24.347,-1.643,1.983,20.0
24.284,-1.639,1.85,44.0
24.4,-1.647,1.728,42.0
24.468,-1.652,1.604,49.0
24.466,-1.652,1.475,60.0
24.803,-1.68,2.19,50.0
24.628,-1.668,2.045,15.0
24.269,-1.643,1.887,50.0
24.36,-1.65,1.763,35.0
24.465,-1.657,1.642,44.0
24.465,-1.657,1.513,61.0
24.825,-1.687,2.231,28.0
24.742,-1.681,2.093,28.0
24.269,-1.648,1.925,42.0
24.34,-1.653,1.799,39.0
24.461,-1.661,1.679,38.0
24.465,-1.661,1.551,48.0
24.876,-1.694,2.275,20.0
24.788,-1.688,2.136,45.0
24.268,-1.652,1.962,26.0
24.285,-1.653,1.833,47.0
24.439,-1.663,1.716,35.0
24.469,-1.665,1.589,36.0
24.948,-1.703,2.32,24.0
24.794,-1.692,2.174,55.0
24.493,-1.67,2.018,15.0
24.27,-1.655,1.869,51.0
24.41,-1.664,1.751,34.0
24.479,-1.668,1.627,42.0
24.983,-1.707,2.362,43.0
24.839,-1.697,2.217,34.0
24.704,-1.686,2.074,23.0
24.25,-1.655,1.905,43.0
24.354,-1.661,1.784,38.0
24.465,-1.668,1.663,39.0
24.975,-1.708,2.399,62.0
24.845,-1.698,2.255,26.0
24.773,-1.692,2.117,42.0
24.251,-1.655,1.941,34.0
24.301,-1.658,1.817,45.0
24.46,-1.668,1.699,36.0
24.983,-1.709,2.438,67.0
24.913,-1.703,2.299,18.0
24.782,-1.693,2.155,55.0
24.317,-1.66,1.983,20.0
24.274,-1.656,1.851,50.0
24.426,-1.665,1.734,35.0
24.992,-1.709,2.477,68.0
24.958,-1.705,2.34,31.0
24.8,-1.693,2.194,43.0
24.639,-1.68,2.046,15.0
24.265,-1.654,1.886,48.0
24.376,-1.66,1.766,34.0
25.01,-1.708,2.515,70.0
24.985,-1.705,2.379,46.0
24.824,-1.692,2.232,27.0
24.723,-1.684,2.089,29.0
24.275,-1.652,1.922,41.0
24.324,-1.654,1.797,39.0
25.016,-1.706,2.553,68.0
24.99,-1.702,2.417,54.0
24.879,-1.693,2.273,16.0
24.783,-1.684,2.13,44.0
24.27,-1.648,1.957,26.0
24.288,-1.647,1.83,49.0
25.024,-1.703,2.59,61.0
24.991,-1.698,2.452,48.0
24.956,-1.694,2.316,18.0
24.788,-1.68,2.165,53.0
24.485,-1.658,2.009,15.0
24.275,-1.642,1.863,50.0
25.019,-1.697,2.624,59.0
25.008,-1.694,2.49,51.0
24.975,-1.69,2.352,26.0
24.82,-1.677,2.203,39.0
24.686,-1.666,2.059,19.0
24.263,-1.636,1.895,57.0
25.04,-1.693,2.662,57.0
25.014,-1.689,2.525,53.0
24.983,-1.684,2.388,28.0
24.835,-1.672,2.238,13.0
24.768,-1.665,2.101,38.0
24.29,-1.631,1.93,39.0
25.054,-1.687,2.698,54.0
25.018,-1.682,2.559,49.0
24.996,-1.678,2.423,23.0
31.057,-2.082,2.842,31.0
24.794,-1.659,2.136,46.0
24.32,-1.625,1.966,24.0
25.078,-1.681,2.735,41.0
25.034,-1.675,2.595,45.0
25.012,-1.671,2.458,11.0
31.047,-2.071,2.882,33.0
24.799,-1.651,2.169,42.0
24.504,-1.629,2.012,22.0
36.97,-2.466,4.08,2.0
25.036,-1.667,2.628,39.0
25.015,-1.662,2.491,3.0
52.986,-3.516,4.987,4.0
28.43,-1.883,2.523,30.0
24.678,-1.631,2.058,22.0
30.287,-2.008,3.381,5.0
25.072,-1.659,2.664,36.0
25.054,-1.655,2.527,0.0
47.645,-3.142,4.545,1.0
28.421,-1.871,2.558,38.0
28.441,-1.868,2.408,16.0
30.241,-1.993,3.414,46.0
25.07,-1.648,2.695,36.0
38.935,-2.556,3.976,6.0
47.552,-3.115,4.595,8.0
28.43,-1.858,2.594,7.0
28.439,-1.855,2.443,52.0
0.0,0.0,0.0,0.0
25.091,-1.638,2.729,44.0
30.438,-1.983,3.146,47.0
45.072,-2.93,4.411,3.0
52.699,-3.42,4.874,6.0
28.447,-1.842,2.478,53.0
0.0,0.0,0.0,0.0
25.119,-1.627,2.762,42.0
30.432,-1.967,3.181,65.0
30.469,-1.965,3.018,24.0
45.14,-2.906,4.228,9.0
28.439,-1.827,2.51,60.0
0.0,0.0,0.0,0.0
25.116,-1.614,2.791,28.0
30.406,-1.949,3.214,56.0
30.448,-1.947,3.051,44.0
44.632,-2.848,4.231,3.0
28.437,-1.811,2.542,55.0
0.0,0.0,0.0,0.0
30.23,-1.925,3.394,15.0
30.38,-1.93,3.246,44.0
30.458,-1.931,3.086,56.0
47.513,-3.005,4.557,4.0
28.422,-1.793,2.573,33.0
30.151,-1.907,3.582,32.0
25.223,-1.591,2.86,16.0
30.363,-1.911,3.277,37.0
30.447,-1.911,3.118,60.0
30.512,-1.911,2.959,5.0
28.45,-1.777,2.606,5.0
30.107,-1.886,3.61,37.0
25.248,-1.577,2.889,18.0
30.389,-1.893,3.313,4.0
30.435,-1.891,3.149,53.0
30.472,-1.888,2.987,25.0
29.593,-1.829,2.741,3.0
30.077,-1.864,3.638,64.0
30.224,-1.867,3.491,1.0
31.782,-1.958,3.497,2.0
30.438,-1.87,3.181,24.0
30.474,-1.867,3.019,61.0
45.521,-2.782,4.263,1.0
30.076,-1.843,3.669,63.0
30.212,-1.846,3.52,10.0
25.199,-1.535,2.798,31.0
45.971,-2.793,4.85,6.0
30.492,-1.847,3.05,78.0
47.513,-2.87,4.495,5.0
30.046,-1.819,3.694,33.0
30.172,-1.821,3.544,5.0
25.218,-1.518,2.824,37.0
31.715,-1.903,3.376,50.0
30.486,-1.824,3.079,59.0
47.511,-2.835,4.54,4.0
30.053,-1.797,3.724,31.0
36.455,-2.173,4.317,3.0
25.232,-1.499,2.85,37.0
31.751,-1.881,3.409,55.0
30.642,-1.809,3.123,41.0
30.507,-1.796,2.943,19.0
36.912,-2.178,4.607,10.0
33.433,-1.967,3.989,1.0
25.254,-1.48,2.875,32.0
31.752,-1.856,3.437,41.0
31.422,-1.831,3.23,43.0
30.52,-1.772,2.97,46.0
36.898,-2.148,4.638,8.0
33.37,-1.936,4.01,7.0
25.283,-1.461,2.9,18.0
25.327,-1.459,2.763,1.0
31.691,-1.82,3.284,46.0
30.497,-1.746,2.993,55.0
38.496,-2.208,4.871,7.0
33.277,-1.902,4.027,9.0
25.375,-1.446,2.931,21.0
25.32,-1.437,2.783,1.0
31.722,-1.794,3.312,8.0
30.502,-1.72,3.018,44.0
38.437,-2.172,4.894,41.0
37.001,-2.083,4.507,5.0
25.423,-1.426,2.956,32.0
46.646,-2.607,5.163,3.0
47.947,-2.671,5.043,4.0
31.02,-1.721,3.092,40.0
45.515,-2.53,5.83,4.0
0.0,0.0,0.0,0.0
25.448,-1.405,2.978,40.0
52.632,-2.894,5.864,7.0
51.452,-2.819,5.449,12.0
31.561,-1.723,3.169,32.0
52.138,-2.852,6.716,3.0
38.513,-2.098,4.747,39.0
25.459,-1.381,2.997,44.0
58.831,-3.181,6.595,13.0
37.013,-1.993,3.945,11.0
24.044,-1.29,2.43,2.0
44.324,-2.382,5.739,2.0
25.513,-1.366,3.161,4.0
25.488,-1.359,3.017,36.0
53.626,-2.849,6.046,4.0
36.96,-1.955,3.963,7.0
24.013,-1.265,2.442,25.0
25.542,-1.348,3.323,27.0
25.51,-1.341,3.177,45.0
25.458,-1.333,3.029,28.0
38.55,-2.01,4.37,2.0
23.941,-1.243,2.581,18.0
24.0,-1.241,2.455,49.0
25.543,-1.323,3.339,51.0
25.515,-1.316,3.193,49.0
25.494,-1.309,3.048,7.0
38.554,-1.972,4.392,49.0
23.917,-1.218,2.592,35.0
23.994,-1.217,2.468,35.0
25.542,-1.297,3.353,32.0
25.511,-1.29,3.206,3.0
23.789,-1.197,2.857,1.0
23.798,-1.193,2.723,28.0
23.89,-1.193,2.601,30.0
23.997,-1.193,2.48,47.0
37.162,-1.849,4.897,3.0
47.722,-2.365,6.021,8.0
23.728,-1.17,2.861,19.0
23.811,-1.169,2.736,54.0
23.879,-1.167,2.611,45.0
24.001,-1.168,2.491,43.0
45.41,-2.212,6.005,3.0
40.081,-1.944,5.075,2.0
23.688,-1.143,2.867,17.0
23.802,-1.144,2.746,54.0
23.866,-1.142,2.62,24.0
37.099,-1.767,3.867,10.0
23.871,-1.138,3.166,3.0
23.698,-1.124,3.01,13.0
23.689,-1.119,2.877,37.0
23.807,-1.119,2.755,35.0
23.856,-1.116,2.628,8.0
37.102,-1.728,3.881,10.0
23.835,-1.11,3.171,27.0
23.721,-1.1,3.022,46.0
23.69,-1.093,2.885,28.0
23.786,-1.092,2.761,3.0
47.775,-2.183,5.28,7.0
37.126,-1.688,3.896,6.0
23.848,-1.085,3.18,79.0
23.806,-1.077,3.041,50.0
23.721,-1.068,2.896,23.0
42.855,-1.92,4.989,1.0
37.081,-1.654,4.109,21.0
0.0,0.0,0.0,0.0
23.846,-1.058,3.187,40.0
23.851,-1.053,3.053,28.0
39.338,-1.727,4.815,3.0
39.677,-1.733,4.629,5.0
47.234,-2.053,5.246,54.0
31.821,-1.376,3.356,7.0
0.0,0.0,0.0,0.0
39.597,-1.703,5.078,12.0
39.328,-1.683,4.822,10.0
42.891,-1.825,5.014,2.0
36.451,-1.544,4.056,0.0
31.812,-1.34,3.362,2.0
23.644,-0.996,3.17,10.0
36.778,-1.54,4.724,9.0
39.297,-1.637,4.825,7.0
28.396,-1.176,3.324,36.0
28.419,-1.171,3.167,53.0
24.721,-1.013,2.616,30.0
28.413,-1.164,3.814,13.0
28.406,-1.157,3.652,49.0
28.392,-1.15,3.49,69.0
28.387,-1.143,3.326,92.0
28.402,-1.137,3.169,103.0
