X,Y,Z,Reflectivity
38.364,-0.802,-0.121,32.0
38.38,-0.815,-0.327,5.0
40.413,-0.87,0.774,6.0
40.428,-0.884,0.557,150.0
40.442,-0.898,0.339,156.0
40.404,-0.911,0.117,42.0
40.423,-0.926,-0.099,36.0
40.419,-0.94,-0.316,39.0
40.416,-0.95,0.803,31.0
40.434,-0.965,0.586,26.0
0.0,0.0,0.0,0.0
0.0,0.0,0.0,0.0
38.735,-0.964,-0.066,30.0
38.729,-0.977,-0.274,35.0
38.701,-0.987,0.798,41.0
38.674,-0.999,0.589,54.0
38.646,-1.012,0.382,55.0
38.641,-1.025,0.171,64.0
38.64,-1.038,-0.036,65.0
38.666,-1.052,-0.243,61.0
38.664,-1.062,0.827,89.0
38.629,-1.074,0.619,70.0
38.643,-1.087,0.412,91.0
38.647,-1.101,0.201,115.0
38.665,-1.115,-0.005,78.0
38.669,-1.128,-0.212,93.0
38.642,-1.136,0.858,105.0
38.629,-1.149,0.651,73.0
38.63,-1.162,0.444,67.0
38.642,-1.175,0.233,68.0
38.663,-1.189,0.027,61.0
38.671,-1.203,-0.179,53.0
38.635,-1.211,0.891,67.0
38.649,-1.224,0.684,53.0
38.685,-1.238,0.478,34.0
38.708,-1.251,0.267,33.0
38.756,-1.266,0.06,20.0
38.78,-1.28,-0.146,5.0
38.728,-1.287,0.927,9.0
152.011,-5.102,2.827,8.0
84.366,-2.859,1.118,36.0
80.399,-2.751,0.627,27.0
80.427,-2.778,0.198,28.0
80.814,-2.819,-0.231,11.0
31.337,-1.099,0.778,48.0
31.336,-1.11,0.611,38.0
31.33,-1.12,0.444,43.0
31.347,-1.131,0.273,26.0
31.339,-1.141,0.106,39.0
31.317,-1.15,-0.06,55.0
31.29,-1.156,0.807,64.0
31.291,-1.166,0.64,62.0
31.234,-1.174,0.472,37.0
31.24,-1.185,0.302,29.0
28.451,-1.088,0.124,38.0
28.465,-1.098,-0.027,64.0
28.45,-1.103,0.761,71.0
28.446,-1.112,0.609,71.0
28.428,-1.12,0.457,81.0
28.441,-1.13,0.303,150.0
28.445,-1.139,0.152,151.0
28.453,-1.149,0.001,150.0
28.439,-1.154,0.789,114.0
28.436,-1.163,0.637,111.0
28.427,-1.171,0.486,106.0
28.442,-1.181,0.332,111.0
28.434,-1.19,0.181,92.0
28.441,-1.199,0.03,71.0
28.447,-1.205,0.819,66.0
28.456,-1.215,0.668,61.0
28.471,-1.224,0.516,55.0
28.44,-1.232,0.362,39.0
31.227,-1.362,0.231,42.0
31.218,-1.371,0.065,45.0
85.68,-3.781,2.556,5.0
85.123,-3.781,2.087,23.0
31.345,-1.401,0.601,8.0
31.288,-1.408,0.431,28.0
31.289,-1.418,0.265,26.0
31.246,-1.426,0.099,37.0
85.925,-3.939,2.657,17.0
84.949,-3.92,2.175,34.0
84.909,-3.943,1.723,29.0
83.111,-3.885,1.237,33.0
82.648,-3.888,0.792,16.0
69.037,-3.269,0.296,0.0
85.948,-4.087,2.753,31.0
84.748,-4.055,2.265,35.0
84.603,-4.072,1.812,45.0
83.207,-4.029,1.332,17.0
82.376,-4.014,0.882,5.0
67.517,-3.31,0.365,1.0
85.644,-4.214,2.84,39.0
84.822,-4.198,2.362,34.0
84.701,-4.216,1.91,41.0
86.061,-4.309,1.477,31.0
82.883,-4.175,0.983,10.0
0.0,0.0,0.0,0.0
84.998,-4.321,2.917,38.0
84.366,-4.313,2.448,32.0
84.67,-4.353,2.008,45.0
85.897,-4.44,1.574,44.0
0.0,0.0,0.0,0.0
0.0,0.0,0.0,0.0
85.046,-4.459,3.019,41.0
84.168,-4.438,2.543,38.0
83.969,-4.449,2.092,32.0
0.0,0.0,0.0,0.0
0.0,0.0,0.0,0.0
65.737,-3.539,0.588,5.0
83.715,-4.521,3.072,35.0
84.065,-4.563,2.64,46.0
83.815,-4.571,2.189,41.0
83.965,-4.603,1.741,33.0
24.646,-1.358,0.38,1.0
24.606,-1.362,0.25,25.0
83.181,-4.62,3.155,15.0
24.62,-1.374,0.803,14.0
24.622,-1.381,0.673,10.0
24.59,-1.386,0.54,18.0
24.578,-1.391,0.41,35.0
24.574,-1.398,0.28,48.0
24.555,-1.401,0.962,35.0
24.557,-1.407,0.832,45.0
24.575,-1.415,0.703,59.0
24.577,-1.421,0.571,56.0
24.555,-1.426,0.44,59.0
24.541,-1.432,0.311,49.0
24.514,-1.434,0.991,34.0
24.512,-1.44,0.862,52.0
24.548,-1.449,0.734,74.0
24.554,-1.456,0.602,71.0
24.55,-1.462,0.472,60.0
24.544,-1.468,0.343,74.0
24.491,-1.469,1.022,35.0
24.481,-1.474,0.892,59.0
24.513,-1.482,0.765,53.0
24.542,-1.49,0.633,61.0
24.549,-1.496,0.504,77.0
24.533,-1.501,0.374,69.0
24.456,-1.501,1.053,52.0
24.467,-1.507,0.924,79.0
24.482,-1.514,0.796,67.0
24.536,-1.523,0.666,78.0
24.536,-1.53,0.536,69.0
24.54,-1.536,0.407,80.0
24.465,-1.535,1.086,51.0
24.456,-1.54,0.957,62.0
24.482,-1.548,0.829,65.0
24.524,-1.556,0.698,64.0
24.529,-1.562,0.569,45.0
24.548,-1.569,0.44,57.0
24.479,-1.568,1.12,32.0
24.458,-1.573,0.99,56.0
24.467,-1.578,0.861,55.0
24.517,-1.587,0.731,62.0
24.554,-1.595,0.603,48.0
24.58,-1.603,0.474,35.0
24.492,-1.601,1.154,45.0
24.481,-1.606,1.024,43.0
24.479,-1.611,0.895,42.0
24.513,-1.619,0.765,42.0
24.566,-1.628,0.637,23.0
24.592,-1.635,0.509,23.0
24.503,-1.633,1.188,40.0
24.462,-1.635,1.058,24.0
24.468,-1.641,0.929,21.0
24.499,-1.648,0.799,24.0
24.639,-1.663,0.674,13.0
83.036,-5.624,1.836,25.0
24.548,-1.666,1.225,20.0
24.566,-1.672,1.096,11.0
24.552,-1.676,0.967,29.0
83.146,-5.695,2.829,18.0
83.015,-5.703,2.388,35.0
83.099,-5.726,1.954,46.0
0.0,0.0,0.0,0.0
83.621,-5.791,3.852,36.0
24.569,-1.706,1.002,12.0
83.071,-5.786,2.944,41.0
82.871,-5.788,2.501,54.0
82.582,-5.785,2.059,39.0
84.008,-5.898,4.433,38.0
83.532,-5.88,3.967,35.0
83.295,-5.879,3.517,63.0
82.979,-5.873,3.059,40.0
82.668,-5.866,2.613,39.0
82.493,-5.87,2.175,36.0
84.159,-6.002,4.562,26.0
83.463,-5.967,4.084,31.0
83.468,-5.982,3.644,53.0
82.973,-5.961,3.177,41.0
82.72,-5.958,2.734,41.0
82.575,-5.963,2.295,43.0
84.334,-6.103,4.692,40.0
83.508,-6.057,4.205,40.0
83.372,-6.062,3.76,42.0
82.754,-6.031,3.289,45.0
82.909,-6.058,2.86,46.0
83.109,-6.086,2.43,42.0
84.275,-6.185,4.811,42.0
83.6,-6.149,4.333,45.0
83.354,-6.144,3.881,36.0
82.911,-6.126,3.416,33.0
82.662,-6.121,2.971,40.0
82.99,-6.159,2.548,49.0
84.308,-6.271,4.938,42.0
83.727,-6.24,4.462,37.0
83.401,-6.229,4.006,41.0
83.623,-6.258,3.569,36.0
82.621,-6.197,3.092,35.0
82.836,-6.226,2.664,42.0
84.049,-6.33,5.046,38.0
83.911,-6.332,4.595,42.0
83.471,-6.311,4.132,33.0
83.68,-6.339,3.694,11.0
82.47,-6.26,3.208,33.0
82.674,-6.288,2.782,41.0
84.4,-6.434,5.193,23.0
83.595,-6.383,4.703,41.0
83.25,-6.368,4.246,38.0
85.513,-6.554,3.902,13.0
82.61,-6.343,3.336,29.0
82.539,-6.349,2.9,41.0
85.492,-6.59,5.387,20.0
83.599,-6.454,4.828,39.0
83.188,-6.433,4.366,34.0
83.285,-6.452,3.925,18.0
83.475,-6.478,3.496,33.0
82.41,-6.407,3.019,39.0
85.699,-6.676,5.53,38.0
83.717,-6.532,4.961,36.0
83.319,-6.511,4.499,44.0
83.233,-6.515,4.047,30.0
83.804,-6.569,3.634,30.0
82.341,-6.465,3.139,34.0
85.745,-6.747,5.661,36.0
83.79,-6.601,5.09,23.0
83.477,-6.586,4.63,49.0
83.127,-6.567,4.165,37.0
83.67,-6.62,3.752,38.0
82.588,-6.544,3.27,34.0
86.144,-6.84,5.816,25.0
85.534,-6.8,5.323,27.0
83.564,-6.653,4.76,43.0
83.008,-6.617,4.284,37.0
83.364,-6.654,3.863,33.0
82.868,-6.623,3.404,17.0
86.307,-6.912,5.956,21.0
85.742,-6.875,5.464,34.0
83.617,-6.713,4.888,34.0
83.13,-6.682,4.414,41.0
83.177,-6.693,3.979,42.0
83.547,-6.731,3.558,36.0
86.54,-6.988,6.103,11.0
85.749,-6.93,5.594,38.0
83.606,-6.764,5.014,20.0
83.411,-6.756,4.554,44.0
83.212,-6.746,4.106,39.0
83.921,-6.812,3.699,25.0
117.57,-9.564,8.469,9.0
85.787,-6.984,5.726,20.0
86.845,-7.077,5.338,15.0
83.595,-6.819,4.69,39.0
83.287,-6.8,4.234,37.0
83.5,-6.824,3.805,35.0
115.37,-9.45,8.483,11.0
86.127,-7.06,5.878,16.0
86.229,-7.073,5.43,20.0
83.66,-6.868,4.819,39.0
83.545,-6.865,4.371,46.0
83.374,-6.856,3.924,36.0
60.546,-4.99,4.543,5.0
86.72,-7.152,6.048,9.0
86.225,-7.117,5.559,18.0
83.598,-6.905,4.94,36.0
83.722,-6.92,4.507,42.0
83.452,-6.903,4.053,40.0
60.535,-5.018,4.633,6.0
115.457,-9.576,8.226,13.0
85.928,-7.131,5.669,19.0
86.476,-7.181,5.239,10.0
83.798,-6.963,4.635,39.0
83.371,-6.931,4.173,42.0
121.411,-10.117,9.474,18.0
115.314,-9.613,8.389,12.0
85.802,-7.155,5.788,15.0
86.397,-7.209,5.363,19.0
83.763,-6.993,4.758,39.0
83.183,-6.948,4.286,38.0
120.976,-10.128,9.621,17.0
118.049,-9.885,8.762,16.0
85.799,-7.187,5.914,7.0
86.683,-7.263,5.508,24.0
83.819,-7.026,4.883,26.0
83.352,-6.99,4.417,39.0
24.603,-2.068,1.993,0.0
118.542,-9.966,8.975,10.0
115.315,-9.697,8.119,12.0
86.057,-7.239,5.596,17.0
0.0,0.0,0.0,0.0
83.662,-7.041,4.556,47.0
24.621,-2.077,2.03,15.0
60.557,-5.108,4.673,7.0
115.659,-9.758,8.313,12.0
85.758,-7.237,5.7,15.0
84.712,-7.149,5.183,11.0
83.858,-7.078,4.689,33.0
24.623,-2.083,2.066,47.0
60.605,-5.128,4.765,4.0
118.207,-10.001,8.669,9.0
85.454,-7.23,5.805,13.0
85.023,-7.194,5.326,15.0
83.949,-7.104,4.815,23.0
24.608,-2.087,2.101,63.0
120.953,-10.258,9.686,14.0
118.459,-10.046,8.858,19.0
60.245,-5.108,4.179,3.0
86.008,-7.292,5.511,18.0
84.172,-7.137,4.948,13.0
24.602,-2.09,2.136,62.0
24.616,-2.091,2.006,2.0
60.519,-5.141,4.611,2.0
60.171,-5.11,4.259,2.0
85.745,-7.282,5.615,20.0
0.0,0.0,0.0,0.0
24.611,-2.094,2.172,50.0
24.606,-2.093,2.04,25.0
60.589,-5.153,4.703,7.0
116.193,-9.88,8.391,17.0
85.04,-7.229,5.689,15.0
84.632,-7.193,5.214,18.0
24.613,-2.097,2.207,36.0
24.619,-2.096,2.076,50.0
60.581,-5.157,4.788,6.0
118.526,-10.085,8.726,8.0
84.918,-7.223,5.8,12.0
84.734,-7.205,5.339,15.0
24.618,-2.098,2.242,9.0
24.595,-2.095,2.109,63.0
120.891,-10.293,9.722,13.0
118.545,-10.088,8.892,12.0
60.252,-5.125,4.199,3.0
86.059,-7.317,5.54,18.0
46.463,-3.96,4.297,3.0
24.605,-2.095,2.144,54.0
24.653,-2.098,2.016,4.0
60.56,-5.152,4.625,2.0
115.826,-9.847,8.23,11.0
0.0,0.0,0.0,0.0
46.474,-3.959,4.362,5.0
24.609,-2.095,2.178,44.0
24.612,-2.093,2.046,30.0
60.592,-5.15,4.709,7.0
116.245,-9.874,8.415,12.0
85.101,-7.224,5.708,15.0
53.86,-4.583,5.128,2.0
24.611,-2.092,2.211,27.0
24.603,-2.09,2.079,52.0
60.615,-5.145,4.793,4.0
118.329,-10.036,8.726,12.0
85.275,-7.228,5.834,10.0
117.409,-9.976,11.337,12.0
24.629,-2.09,2.246,3.0
24.602,-2.086,2.111,60.0
60.674,-5.141,4.878,0.0
118.483,-10.031,8.893,17.0
60.253,-5.096,4.202,4.0
117.378,-9.953,11.489,9.0
46.479,-3.937,4.299,3.0
24.602,-2.081,2.143,45.0
24.616,-2.08,2.01,5.0
60.573,-5.116,4.624,5.0
115.362,-9.734,8.19,14.0
60.904,-5.151,6.039,3.0
46.479,-3.927,4.358,4.0
24.606,-2.076,2.175,36.0
24.587,-2.072,2.039,29.0
60.558,-5.1,4.699,6.0
115.601,-9.724,8.354,10.0
23.848,-2.011,2.395,6.0
58.066,-4.891,5.519,2.0
24.625,-2.071,2.208,14.0
24.61,-2.067,2.072,47.0
121.12,-10.166,9.548,13.0
117.979,-9.89,8.671,14.0
23.836,-2.003,2.423,26.0
60.93,-5.113,5.867,3.0
24.649,-2.066,2.24,0.0
24.607,-2.059,2.102,45.0
120.929,-10.109,9.683,21.0
118.189,-9.869,8.83,14.0
23.823,-1.994,2.451,41.0
23.872,-1.995,2.327,11.0
46.533,-3.884,4.287,4.0
24.59,-2.049,2.13,37.0
24.64,-2.051,2.002,2.0
60.537,-5.032,4.595,6.0
23.823,-1.985,2.48,46.0
23.845,-1.984,2.353,28.0
23.903,-1.985,2.23,5.0
24.348,-2.02,2.138,17.0
24.601,-2.037,2.028,23.0
115.423,-9.547,8.896,8.0
23.814,-1.974,2.507,45.0
23.82,-1.972,2.379,62.0
23.896,-1.975,2.257,36.0
24.001,-1.98,2.135,14.0
24.372,-2.008,2.037,27.0
115.425,-9.496,9.029,12.0
23.812,-1.963,2.534,55.0
23.831,-1.961,2.407,58.0
23.881,-1.962,2.283,56.0
23.919,-1.962,2.155,33.0
23.993,-1.965,2.032,19.0
115.39,-9.438,9.153,9.0
23.817,-1.952,2.562,37.0
23.815,-1.949,2.432,62.0
23.873,-1.95,2.309,68.0
23.906,-1.949,2.18,54.0
23.965,-1.95,2.056,40.0
24.091,-1.957,1.937,0.0
23.823,-1.94,2.589,3.0
23.838,-1.938,2.461,46.0
23.856,-1.935,2.333,62.0
23.891,-1.935,2.204,59.0
23.948,-1.936,2.08,54.0
24.042,-1.94,1.958,14.0
52.218,-4.224,5.73,2.0
23.835,-1.924,2.485,29.0
23.857,-1.922,2.358,47.0
23.89,-1.921,2.229,56.0
23.934,-1.921,2.104,56.0
24.011,-1.923,1.981,20.0
30.848,-2.477,3.417,2.0
23.836,-1.91,2.51,3.0
23.868,-1.908,2.384,31.0
23.905,-1.907,2.255,41.0
23.927,-1.905,2.127,48.0
23.984,-1.906,2.003,32.0
30.885,-2.46,3.452,31.0
47.604,-3.784,5.061,6.0
23.841,-1.891,2.404,12.0
23.896,-1.891,2.278,21.0
23.916,-1.889,2.15,27.0
23.974,-1.889,2.025,31.0
30.892,-2.44,3.483,17.0
112.488,-8.867,12.068,20.0
47.564,-3.74,4.843,3.0
23.907,-1.875,2.301,0.0
23.943,-1.874,2.174,13.0
23.972,-1.872,2.047,27.0
45.879,-3.592,5.216,11.0
47.534,-3.713,5.144,2.0
38.91,-3.032,3.998,2.0
112.135,-8.718,10.899,16.0
46.543,-3.61,4.269,7.0
24.007,-1.858,2.071,29.0
36.841,-2.857,4.222,5.0
30.921,-2.392,3.374,35.0
39.001,-3.01,4.042,4.0
111.94,-8.62,10.977,19.0
47.343,-3.637,4.384,6.0
24.034,-1.842,2.094,15.0
36.882,-2.832,4.259,9.0
39.053,-2.992,4.294,3.0
47.229,-3.609,4.934,7.0
59.03,-4.499,5.838,5.0
47.159,-3.586,4.406,9.0
24.044,-1.824,2.115,1.0
36.904,-2.805,4.292,8.0
51.787,-3.926,5.738,5.0
39.006,-2.949,4.107,12.0
47.86,-3.609,4.772,0.0
58.212,-4.379,5.486,5.0
46.524,-3.491,4.13,5.0
112.614,-8.468,13.187,25.0
30.397,-2.279,3.392,4.0
30.961,-2.315,3.284,39.0
47.561,-3.547,4.779,1.0
59.026,-4.39,5.608,5.0
46.483,-3.448,4.162,5.0
47.375,-3.521,5.584,0.0
36.894,-2.735,4.145,2.0
30.969,-2.289,3.308,5.0
47.64,-3.511,4.822,6.0
59.332,-4.361,5.68,10.0
46.656,-3.42,4.211,4.0
30.396,-2.232,3.605,40.0
30.409,-2.227,3.438,40.0
36.214,-2.644,3.894,3.0
30.999,-2.257,3.16,15.0
111.244,-8.076,10.728,21.0
47.069,-3.408,4.28,4.0
30.405,-2.205,3.627,73.0
30.432,-2.2,3.461,77.0
30.411,-2.193,3.29,12.0
30.977,-2.227,3.178,42.0
111.436,-7.988,10.819,20.0
24.886,-1.779,2.279,16.0
0.0,0.0,0.0,0.0
30.413,-2.17,3.479,40.0
30.4,-2.163,3.309,43.0
38.942,-2.762,4.019,10.0
31.043,-2.195,3.033,5.0
24.903,-1.756,2.296,32.0
32.086,-2.266,3.867,22.0
32.039,-2.256,3.684,0.0
30.412,-2.134,3.328,58.0
38.937,-2.725,4.041,7.0
25.011,-1.744,2.458,43.0
24.926,-1.733,2.312,32.0
32.068,-2.233,3.884,21.0
51.396,-3.567,5.939,2.0
30.421,-2.104,3.346,22.0
25.03,-1.726,2.611,39.0
24.987,-1.718,2.469,65.0
24.975,-1.711,2.33,30.0
32.073,-2.201,3.901,35.0
32.002,-2.189,3.714,24.0
36.953,-2.519,4.083,7.0
25.024,-1.7,2.623,57.0
25.019,-1.694,2.484,43.0
31.052,-2.096,2.912,24.0
31.992,-2.162,3.907,14.0
31.972,-2.153,3.726,28.0
25.058,-1.682,2.781,1.0
25.042,-1.675,2.637,45.0
25.016,-1.667,2.495,3.0
52.983,-3.521,4.992,5.0
0.0,0.0,0.0,0.0
31.943,-2.117,3.737,52.0
30.261,-1.999,3.371,21.0
30.426,-2.003,3.217,16.0
52.499,-3.444,5.259,4.0
45.24,-2.957,4.281,2.0
0.0,0.0,0.0,0.0
31.953,-2.083,3.751,69.0
30.241,-1.964,3.381,26.0
30.395,-1.967,3.225,41.0
30.462,-1.964,3.063,44.0
44.756,-2.877,4.251,4.0
31.969,-2.057,3.943,21.0
0.0,0.0,0.0,0.0
30.244,-1.931,3.392,11.0
30.389,-1.933,3.235,52.0
30.467,-1.931,3.073,56.0
47.545,-3.003,4.532,6.0
37.348,-2.361,4.619,2.0
30.15,-1.898,3.559,42.0
25.157,-1.578,2.829,27.0
30.384,-1.899,3.243,36.0
30.467,-1.897,3.082,64.0
47.497,-2.946,4.54,8.0
30.055,-1.865,3.725,30.0
30.13,-1.862,3.565,42.0
25.182,-1.55,2.838,27.0
31.275,-1.918,3.346,26.0
30.475,-1.862,3.09,58.0
47.478,-2.889,4.55,6.0
30.043,-1.829,3.731,64.0
30.144,-1.828,3.574,15.0
25.212,-1.523,2.847,29.0
31.753,-1.911,3.404,61.0
30.492,-1.827,3.098,53.0
47.477,-2.834,4.559,4.0
30.044,-1.794,3.737,20.0
36.438,-2.167,4.326,1.0
25.239,-1.495,2.854,45.0
31.724,-1.871,3.407,47.0
30.816,-1.81,3.136,42.0
52.157,-3.052,5.016,9.0
36.956,-2.163,4.602,17.0
46.724,-2.723,5.555,4.0
25.252,-1.465,2.859,32.0
37.016,-2.139,3.979,7.0
31.145,-1.792,3.173,39.0
52.645,-3.018,5.069,7.0
36.977,-2.119,4.608,8.0
33.428,-1.908,3.977,6.0
25.296,-1.437,2.866,24.0
36.928,-2.089,3.973,13.0
31.652,-1.783,3.227,39.0
30.523,-1.712,2.94,40.0
38.47,-2.158,4.797,33.0
25.46,-1.422,3.03,23.0
47.135,-2.621,5.344,9.0
36.942,-2.045,3.975,11.0
31.671,-1.746,3.23,8.0
30.525,-1.676,2.941,30.0
38.487,-2.112,4.799,17.0
25.463,-1.391,3.03,41.0
47.199,-2.567,5.35,16.0
36.935,-2.0,3.974,11.0
46.119,-2.485,4.702,6.0
24.08,-1.292,2.319,44.0
39.261,-2.106,4.894,4.0
25.466,-1.359,3.03,32.0
53.606,-2.849,6.074,10.0
36.881,-1.951,3.966,5.0
24.005,-1.264,2.446,26.0
24.081,-1.262,2.318,65.0
25.511,-1.336,3.178,58.0
25.476,-1.328,3.029,26.0
38.585,-2.002,4.368,9.0
23.942,-1.236,2.572,37.0
24.012,-1.234,2.444,62.0
24.094,-1.232,2.316,30.0
25.509,-1.304,3.174,27.0
33.755,-1.717,4.009,3.0
23.829,-1.206,2.694,22.0
23.914,-1.205,2.565,35.0
24.026,-1.205,2.442,37.0
30.578,-1.526,2.935,34.0
36.243,-1.807,4.504,3.0
23.778,-1.179,2.819,33.0
23.821,-1.175,2.689,35.0
23.89,-1.173,2.558,28.0
38.695,-1.891,3.925,25.0
30.562,-1.487,2.927,27.0
23.75,-1.154,2.946,15.0
23.76,-1.148,2.812,33.0
23.817,-1.145,2.683,41.0
46.341,-2.217,4.952,7.0
38.718,-1.843,3.918,14.0
31.009,-1.469,2.962,34.0
23.708,-1.121,2.935,40.0
23.769,-1.118,2.807,39.0
23.848,-1.116,2.68,23.0
42.498,-1.98,4.529,2.0
53.569,-2.483,5.405,26.0
46.239,-2.132,4.403,14.0
23.734,-1.092,2.931,26.0
23.774,-1.088,2.8,6.0
37.049,-1.687,4.152,11.0
52.167,-2.363,5.543,19.0
46.223,-2.083,4.648,20.0
24.664,-1.106,2.34,11.0
23.807,-1.065,2.931,15.0
33.719,-1.5,3.959,2.0
47.272,-2.091,5.28,1.0
46.252,-2.036,4.897,10.0
24.663,-1.08,2.471,24.0
24.645,-1.073,2.329,58.0
39.335,-1.709,4.828,7.0
42.89,-1.853,5.018,1.0
47.322,-2.033,5.266,21.0
31.818,-1.359,3.355,2.0
24.657,-1.048,2.459,58.0
24.65,-1.042,2.318,72.0
39.342,-1.659,4.811,8.0
28.409,-1.19,3.311,3.0
28.407,-1.184,3.148,38.0
24.704,-1.024,2.594,38.0
24.653,-1.016,2.447,67.0
24.658,-1.01,2.307,33.0
28.411,-1.161,3.461,56.0
28.396,-1.154,3.295,93.0
28.396,-1.147,3.132,50.0
24.693,-0.991,2.58,40.0
24.662,-0.985,2.436,41.0
28.398,-1.127,2.643,82.0
28.41,-1.124,3.445,104.0
28.398,-1.117,3.28,117.0
24.785,-0.969,2.72,40.0
24.657,-0.958,2.562,29.0
28.399,-1.098,2.789,28.0
28.418,-1.092,2.628,50.0
28.412,-1.088,3.429,66.0
28.402,-1.081,3.264,38.0
24.77,-0.936,2.704,42.0
24.672,-0.927,2.549,23.0
37.197,-1.39,3.63,28.0
28.359,-1.053,2.605,26.0
32.21,-1.191,3.867,40.0
32.036,-1.178,3.661,1.0
24.802,-0.906,2.692,39.0
24.703,-0.897,2.536,10.0
37.223,-1.344,3.609,32.0
28.375,-1.018,2.588,62.0
39.072,-1.396,4.665,36.0
24.852,-0.882,2.823,30.0
24.81,-0.875,2.676,19.0
51.302,-1.798,5.233,5.0
61.422,-2.139,5.912,10.0
28.37,-0.982,2.568,64.0
25.088,-0.864,2.977,6.0
24.853,-0.85,2.805,42.0
43.873,-1.492,4.7,4.0
43.917,-1.483,4.447,12.0
43.082,-1.446,4.115,6.0
28.372,-0.946,2.547,72.0
25.062,-0.831,2.955,28.0
24.864,-0.819,2.788,63.0
40.174,-1.315,4.272,3.0
43.677,-1.42,4.388,3.0
42.93,-1.387,4.067,17.0
28.366,-0.91,2.524,72.0
25.069,-0.8,2.935,22.0
24.865,-0.788,2.768,28.0
42.595,-1.341,4.495,4.0
42.441,-1.327,4.23,2.0
44.389,-1.379,4.168,14.0
28.364,-0.875,2.5,73.0
24.929,-0.764,2.898,26.0
24.848,-0.756,2.744,0.0
44.458,-1.344,4.654,32.0
42.606,-1.279,4.209,9.0
44.518,-1.327,4.142,10.0
28.368,-0.84,2.476,84.0
24.835,-0.73,2.865,41.0
41.132,-1.201,4.506,2.0
57.886,-1.678,6.007,15.0
44.479,-1.281,4.354,67.0
28.361,-0.811,2.613,68.0
28.371,-0.805,2.45,81.0
24.838,-0.7,2.842,44.0
45.512,-1.273,4.944,2.0
54.727,-1.519,5.628,5.0
50.863,-1.402,4.931,5.0
28.359,-0.776,2.585,66.0
28.364,-0.771,2.423,74.0
24.836,-0.669,2.817,13.0
52.788,-1.413,5.682,26.0
47.254,-1.255,4.812,13.0
47.135,-1.242,4.523,6.0
28.358,-0.742,2.557,75.0
28.358,-0.736,2.393,81.0
52.572,-1.353,5.91,14.0
54.191,-1.384,5.777,6.0
51.715,-1.311,5.213,6.0
44.457,-1.118,4.22,16.0
28.354,-0.707,2.527,81.0
28.362,-0.702,2.364,73.0
44.526,-1.093,4.958,29.0
51.745,-1.26,5.461,15.0
51.914,-1.254,5.177,2.0
28.312,-0.678,2.656,37.0
28.351,-0.674,2.496,77.0
28.361,-0.669,2.333,72.0
44.647,-1.042,4.922,36.0
44.621,-1.033,4.66,49.0
31.46,-0.722,3.102,37.0
28.339,-0.646,2.627,64.0
28.353,-0.641,2.464,77.0
28.359,-0.636,2.301,74.0
51.93,-1.152,5.666,40.0
44.618,-0.981,4.608,46.0
31.474,-0.686,3.067,66.0
28.341,-0.613,2.595,71.0
28.345,-0.608,2.431,76.0
28.354,-0.603,2.268,71.0
44.548,-0.937,4.808,5.0
31.54,-0.658,3.22,27.0
31.484,-0.651,3.031,25.0
28.34,-0.581,2.561,80.0
28.35,-0.576,2.397,72.0
28.347,-0.571,2.233,70.0
44.401,-0.884,4.738,8.0
31.523,-0.622,3.179,32.0
37.745,-0.738,3.588,50.0
28.338,-0.549,2.526,44.0
28.351,-0.545,2.362,66.0
28.346,-0.54,2.198,71.0
31.671,-0.595,3.339,41.0
31.553,-0.587,3.143,1.0
37.767,-0.697,3.542,7.0
40.414,-0.739,3.551,12.0
31.327,-0.568,2.571,30.0
54.096,-0.972,4.127,16.0
31.672,-0.561,3.299,36.0
37.668,-0.661,3.704,11.0
28.33,-0.492,2.62,1.0
31.239,-0.538,2.704,47.0
61.724,-1.053,4.986,4.0
54.049,-0.913,4.052,48.0
37.649,-0.626,3.871,8.0
37.67,-0.621,3.653,26.0
43.068,-0.702,3.925,3.0
31.257,-0.504,2.663,45.0
38.591,-0.617,3.064,49.0
51.719,-0.819,3.807,0.0
37.639,-0.586,3.818,63.0
28.325,-0.436,2.707,2.0
31.217,-0.476,2.802,8.0
38.55,-0.582,3.232,54.0
38.614,-0.577,3.012,82.0
38.643,-0.572,2.79,50.0
43.739,-0.636,4.375,3.0
28.276,-0.406,2.663,1.0
31.197,-0.444,2.756,46.0
38.534,-0.543,3.175,51.0
38.63,-0.538,2.958,53.0
38.645,-0.532,2.735,58.0
54.489,-0.737,5.371,14.0
43.495,-0.582,4.033,5.0
31.222,-0.413,2.713,12.0
47.034,-0.615,3.807,15.0
46.775,-0.605,3.514,5.0
44.737,-0.572,3.101,46.0
54.366,-0.681,5.278,4.0
31.159,-0.386,2.842,40.0
38.562,-0.472,3.292,52.0
46.955,-0.568,3.73,43.0
44.615,-0.533,3.284,10.0
60.711,-0.718,4.117,14.0
54.418,-0.629,5.199,20.0
31.163,-0.356,2.795,39.0
60.937,-0.688,5.11,10.0
46.809,-0.522,3.647,27.0
38.675,-0.426,2.788,36.0
52.301,-0.569,3.466,17.0
47.149,-0.501,4.432,15.0
38.639,-0.405,3.406,43.0
51.499,-0.533,4.238,51.0
44.565,-0.456,3.403,52.0
52.327,-0.528,3.692,38.0
52.792,-0.527,3.417,11.0
31.11,-0.302,2.875,42.0
38.559,-0.37,3.337,53.0
52.317,-0.495,4.223,9.0
52.344,-0.488,3.914,25.0
64.302,-0.592,4.433,62.0
52.768,-0.479,3.331,49.0
38.72,-0.342,3.516,31.0
44.629,-0.388,3.791,14.0
64.313,-0.552,5.088,12.0
52.352,-0.443,3.83,14.0
52.714,-0.44,3.549,90.0
52.803,-0.434,3.248,10.0
38.552,-0.307,3.437,34.0
44.565,-0.349,3.712,7.0
44.372,-0.343,3.436,18.0
52.713,-0.401,3.769,61.0
53.191,-0.399,3.493,44.0
105.496,-0.78,6.314,7.0
38.543,-0.275,3.372,15.0
46.836,-0.329,3.823,7.0
58.142,-0.402,4.405,11.0
58.384,-0.397,4.077,11.0
58.472,-0.392,3.742,4.0
45.564,-0.3,2.651,73.0
61.097,-0.387,5.241,4.0
46.817,-0.291,3.742,9.0
58.269,-0.357,4.315,12.0
58.397,-0.351,3.978,11.0
58.527,-0.346,3.645,14.0
45.761,-0.266,2.583,49.0
57.958,-0.322,4.871,24.0
38.55,-0.21,3.013,48.0
58.354,-0.313,4.22,13.0
53.265,-0.28,3.535,23.0
45.548,-0.235,2.757,70.0
46.169,-0.233,2.526,10.0
42.94,-0.207,3.533,2.0
52.7,-0.249,4.027,18.0
53.406,-0.247,3.767,24.0
58.512,-0.265,3.78,5.0
45.768,-0.203,2.69,59.0
58.843,-0.255,3.116,59.0
38.581,-0.158,3.105,10.0
53.52,-0.215,3.994,2.0
53.359,-0.209,3.67,15.0
45.531,-0.174,2.86,59.0
58.834,-0.22,3.352,26.0
58.919,-0.215,3.014,53.0
38.547,-0.132,3.033,30.0
53.569,-0.179,3.901,38.0
106.31,-0.346,7.12,6.0
45.554,-0.144,2.779,49.0
58.747,-0.181,3.241,42.0
59.043,-0.177,2.914,49.0
53.345,-0.148,4.1,28.0
53.501,-0.144,3.798,13.0
45.493,-0.119,2.963,53.0
46.118,-0.117,2.729,56.0
58.467,-0.144,3.118,39.0
58.23,-0.138,2.765,255.0
53.625,-0.116,4.021,39.0
101.921,-0.213,7.046,28.0
45.516,-0.091,2.879,51.0
59.942,-0.115,3.435,15.0
59.115,-0.109,3.042,32.0
58.259,-0.104,2.658,242.0
66.677,-0.105,4.873,19.0
45.471,-0.068,3.057,50.0
58.735,-0.084,3.604,11.0
59.918,-0.082,3.32,50.0
59.247,-0.076,2.938,32.0
20.115,-0.024,0.879,22.0
66.664,-0.068,4.746,35.0
45.484,-0.043,2.971,58.0
46.122,-0.041,2.743,63.0
107.209,-0.089,5.737,26.0
58.254,-0.044,2.777,239.0
20.116,-0.014,0.841,30.0
45.508,-0.023,3.152,43.0
58.69,-0.026,3.722,8.0
46.159,-0.018,2.657,4.0
59.319,-0.019,3.06,52.0
58.302,-0.015,2.668,159.0
20.108,-0.004,0.802,27.0
45.49,-0.001,3.062,54.0
58.659,0.001,3.606,12.0
59.929,0.005,3.333,57.0
66.912,0.009,3.322,42.0
20.112,0.003,0.881,26.0
20.108,0.005,0.763,30.0
66.636,0.028,4.355,20.0
46.121,0.022,2.743,43.0
59.414,0.031,3.185,53.0
66.739,0.038,3.181,30.0
20.092,0.012,0.84,26.0
20.117,0.013,0.723,35.0
58.666,0.049,3.717,62.0
66.625,0.059,3.83,12.0
66.764,0.062,3.447,25.0
20.089,0.019,0.917,10.0
20.101,0.02,0.8,27.0
20.166,0.021,0.685,31.0
46.134,0.056,2.83,44.0
59.733,0.075,3.314,39.0
66.739,0.087,3.312,65.0
20.107,0.027,0.878,22.0
20.109,0.027,0.76,24.0
20.189,0.028,0.645,41.0
60.034,0.094,3.562,18.0
66.695,0.107,3.565,20.0
66.856,0.11,3.181,24.0
20.105,0.033,0.837,26.0
20.125,0.034,0.72,34.0
20.194,0.035,0.604,34.0
59.993,0.113,3.437,43.0
66.709,0.127,3.43,41.0
20.102,0.039,0.915,10.0
20.09,0.039,0.795,22.0
20.183,0.04,0.681,29.0
20.17,0.04,0.563,26.0
59.399,0.128,3.281,42.0
66.972,0.146,3.306,46.0
20.114,0.044,0.875,22.0
20.101,0.044,0.754,25.0
20.201,0.045,0.64,32.0
20.166,0.045,0.521,25.0
66.726,0.16,3.547,25.0
66.851,0.162,3.161,26.0
20.106,0.049,0.832,20.0
20.128,0.049,0.713,28.0
20.191,0.049,0.597,32.0
20.151,0.05,0.478,26.0
66.896,0.174,3.416,45.0
20.105,0.052,0.908,13.0
20.108,0.052,0.791,19.0
20.195,0.053,0.674,28.0
20.175,0.053,0.555,26.0
20.14,0.053,0.437,31.0
66.969,0.185,3.281,39.0
20.138,0.055,0.868,22.0
20.119,0.056,0.749,28.0
20.2,0.056,0.632,26.0
20.159,0.056,0.513,24.0
20.136,0.056,0.394,28.0
66.118,0.191,3.1,10.0
20.106,0.058,0.825,20.0
20.166,0.058,0.709,26.0
20.184,0.058,0.589,29.0
20.139,0.058,0.47,27.0
20.137,0.058,0.352,26.0
20.118,0.06,0.901,15.0
20.12,0.059,0.783,22.0
20.22,0.06,0.668,28.0
20.171,0.059,0.546,23.0
20.148,0.059,0.428,31.0
20.143,0.059,0.31,25.0
20.118,0.061,0.858,24.0
20.129,0.06,0.741,30.0
20.198,0.06,0.625,23.0
20.154,0.06,0.504,24.0
20.151,0.06,0.386,27.0
20.138,0.06,0.268,25.0
20.136,0.061,0.817,25.0
20.187,0.061,0.7,27.0
20.184,0.06,0.582,29.0
20.144,0.06,0.461,28.0
20.146,0.06,0.343,26.0
20.152,0.059,0.225,27.0
20.133,0.06,0.774,26.0
20.215,0.06,0.658,28.0
20.157,0.06,0.539,23.0
20.141,0.059,0.418,29.0
20.146,0.059,0.3,26.0
20.156,0.058,0.183,30.0
20.14,0.059,0.731,33.0
20.196,0.059,0.615,25.0
20.151,0.058,0.496,24.0
20.139,0.058,0.375,26.0
20.13,0.057,0.257,27.0
20.142,0.057,0.14,27.0
20.206,0.057,0.69,28.0
20.184,0.057,0.572,28.0
20.151,0.056,0.453,28.0
20.142,0.055,0.332,26.0
20.135,0.055,0.215,27.0
20.151,0.054,0.097,24.0
20.214,0.055,0.648,29.0
20.161,0.054,0.528,26.0
20.145,0.053,0.41,28.0
20.138,0.052,0.289,26.0
20.143,0.052,0.172,27.0
20.208,0.051,0.054,24.0
20.192,0.051,0.604,33.0
20.144,0.05,0.485,27.0
20.145,0.049,0.367,26.0
20.144,0.048,0.247,28.0
20.141,0.048,0.129,27.0
20.208,0.047,0.011,18.0
20.176,0.047,0.561,27.0
20.141,0.046,0.442,29.0
20.14,0.045,0.324,28.0
20.143,0.044,0.204,28.0
20.157,0.043,0.086,22.0
20.237,0.042,-0.031,6.0
20.154,0.042,0.517,27.0
20.144,0.041,0.399,28.0
20.134,0.04,0.281,28.0
20.128,0.039,0.161,26.0
20.286,0.038,0.044,9.0
20.258,0.037,-0.074,23.0
20.145,0.036,0.474,29.0
20.144,0.035,0.356,28.0
20.127,0.034,0.238,26.0
20.135,0.032,0.118,28.0
20.263,0.031,0.0,76.0
20.268,0.03,-0.117,118.0
20.147,0.029,0.431,30.0
20.13,0.028,0.313,28.0
20.126,0.027,0.195,27.0
20.14,0.025,0.075,19.0
20.262,0.024,-0.042,151.0
20.257,0.023,-0.161,150.0
20.142,0.022,0.388,27.0
20.138,0.021,0.27,27.0
20.124,0.019,0.152,27.0
20.257,0.018,0.033,150.0
20.254,0.017,-0.085,152.0
20.258,0.015,-0.203,151.0
20.134,0.014,0.345,27.0
20.131,0.012,0.228,27.0
20.131,0.011,0.11,30.0
20.242,0.01,-0.009,152.0
20.261,0.008,-0.127,151.0
20.267,0.007,-0.246,150.0
20.132,0.005,0.303,28.0
20.12,0.003,0.185,28.0
20.183,0.002,0.068,38.0
20.261,0.0,-0.052,150.0
20.252,0.0,-0.17,38.0
20.235,-0.002,-0.289,9.0
20.128,-0.004,0.26,27.0
20.119,-0.005,0.143,29.0
20.219,-0.007,0.025,17.0
20.192,-0.009,-0.094,18.0
20.233,-0.01,-0.213,2.0
20.234,-0.012,-0.331,0.0
20.124,-0.014,0.218,30.0
20.131,-0.016,0.101,33.0
20.132,-0.017,-0.016,16.0
20.175,-0.019,-0.136,24.0
20.174,-0.021,-0.254,13.0
41.684,-0.048,-0.769,5.0
20.124,-0.025,0.176,32.0
20.133,-0.027,0.059,34.0
20.143,-0.029,-0.058,27.0
20.142,-0.03,-0.178,19.0
20.155,-0.032,-0.295,15.0
37.646,-0.065,-0.773,5.0
20.124,-0.037,0.135,37.0
20.133,-0.039,0.017,34.0
20.146,-0.041,-0.099,29.0
20.129,-0.043,-0.219,11.0
20.166,-0.045,-0.338,16.0
36.369,-0.085,-0.822,0.0
20.135,-0.049,0.093,46.0
20.13,-0.051,-0.023,33.0
20.151,-0.053,-0.141,33.0
20.15,-0.055,-0.261,26.0
20.162,-0.057,-0.379,17.0
0.0,0.0,0.0,0.0
20.129,-0.062,0.053,39.0
20.144,-0.064,-0.064,33.0
20.152,-0.067,-0.182,27.0
20.143,-0.069,-0.301,26.0
20.178,-0.071,-0.42,25.0
33.119,-0.121,-0.883,4.0
20.127,-0.076,0.012,37.0
20.139,-0.078,-0.105,32.0
20.136,-0.08,-0.222,27.0
20.141,-0.083,-0.342,23.0
20.171,-0.085,-0.46,24.0
58.433,-0.255,-1.677,1.0
20.14,-0.091,-0.028,29.0
20.144,-0.093,-0.145,35.0
20.139,-0.095,-0.263,35.0
20.156,-0.098,-0.383,33.0
20.194,-0.101,-0.502,23.0
28.093,-0.143,-0.862,11.0
20.143,-0.106,-0.068,29.0
20.149,-0.108,-0.186,20.0
20.143,-0.111,-0.303,38.0
20.149,-0.113,-0.423,34.0
20.193,-0.116,-0.542,22.0
28.074,-0.165,-0.917,2.0
20.154,-0.122,-0.108,27.0
20.143,-0.124,-0.225,29.0
20.149,-0.127,-0.343,35.0
20.164,-0.13,-0.463,29.0
20.205,-0.132,-0.582,24.0
20.163,-0.138,-0.147,23.0
20.151,-0.141,-0.265,29.0
20.159,-0.144,-0.382,33.0
20.172,-0.147,-0.502,33.0
20.219,-0.15,-0.622,27.0
24.613,-0.186,-0.901,0.0
20.15,-0.156,-0.186,7.0
20.156,-0.158,-0.304,27.0
20.17,-0.161,-0.422,29.0
20.17,-0.164,-0.541,37.0
20.222,-0.167,-0.661,28.0
24.567,-0.207,-0.947,1.0
20.157,-0.173,-0.225,17.0
20.181,-0.176,-0.343,24.0
20.176,-0.179,-0.46,24.0
20.182,-0.182,-0.58,37.0
20.212,-0.186,-0.699,26.0
22.727,-0.212,-0.919,26.0
44.883,-0.428,-0.586,16.0
20.182,-0.195,-0.381,17.0
20.183,-0.198,-0.499,27.0
20.195,-0.201,-0.619,39.0
20.226,-0.205,-0.738,24.0
22.641,-0.233,-0.958,0.0
38.457,-0.403,-0.575,14.0
20.204,-0.215,-0.42,9.0
20.185,-0.218,-0.537,26.0
20.202,-0.221,-0.657,35.0
20.216,-0.224,-0.776,21.0
20.277,-0.228,-0.896,47.0
37.946,-0.435,-0.639,26.0
31.224,-0.363,-0.707,5.0
20.211,-0.238,-0.575,22.0
20.212,-0.241,-0.695,33.0
20.224,-0.245,-0.813,23.0
20.263,-0.249,-0.933,41.0
35.954,-0.449,-0.671,4.0
30.124,-0.381,-0.738,7.0
20.201,-0.259,-0.612,11.0
20.221,-0.262,-0.732,30.0
20.157,-0.265,-0.848,11.0
19.672,-0.262,-0.942,3.0
31.814,-0.43,-0.651,20.0
28.492,-0.39,-0.749,2.0
20.2,-0.28,-0.648,1.0
20.235,-0.284,-0.77,23.0
20.198,-0.287,-0.886,13.0
19.065,-0.274,-0.947,0.0
30.836,-0.45,-0.686,31.0
27.276,-0.403,-0.765,1.0
26.721,-0.399,-0.905,1.0
20.221,-0.305,-0.805,8.0
19.777,-0.302,-0.902,0.0
18.245,-0.282,-0.939,0.0
30.019,-0.471,-0.72,24.0
26.286,-0.417,-0.784,3.0
25.706,-0.412,-0.916,0.0
20.297,-0.329,-0.843,2.0
19.624,-0.322,-0.93,7.0
17.7,-0.293,-0.941,0.0
28.921,-0.486,-0.744,6.0
25.29,-0.43,-0.798,3.0
24.618,-0.423,-0.919,0.0
21.441,-0.372,-0.927,4.0
19.414,-0.34,-0.953,0.0
17.066,-0.303,-0.937,0.0
27.31,-0.49,-0.749,1.0
24.169,-0.438,-0.803,2.0
23.639,-0.433,-0.923,0.0
0.0,0.0,0.0,0.0
16.775,-0.317,-0.95,0.0
26.705,-0.511,-0.777,1.0
23.274,-0.45,-0.813,1.0
22.956,-0.448,-0.935,0.0
19.758,-0.39,-0.921,0.0
0.0,0.0,0.0,0.0
16.284,-0.327,-0.949,0.0
25.497,-0.519,-0.784,4.0
22.281,-0.458,-0.814,1.0
22.049,-0.457,-0.934,0.0
38.341,-0.804,-1.851,0.0
17.348,-0.367,-0.938,0.0
15.746,-0.336,-0.943,0.0
24.138,-0.521,-0.781,5.0
21.478,-0.468,-0.819,2.0
21.273,-0.467,-0.935,0.0
38.374,-0.851,-1.913,0.0
17.043,-0.381,-0.949,1.0
15.519,-0.35,-0.954,0.0
23.141,-0.528,-0.785,2.0
20.854,-0.48,-0.828,1.0
20.703,-0.481,-0.942,0.0
16.656,-0.394,-0.953,0.0
15.089,-0.36,-0.951,0.0
22.016,-0.53,-0.781,0.0
20.233,-0.492,-0.835,2.0
20.19,-0.495,-0.95,0.0
16.342,-0.407,-0.96,2.0
14.696,-0.369,-0.949,0.0
21.221,-0.539,-0.785,0.0
19.714,-0.504,-0.843,1.0
19.646,-0.507,-0.954,0.0
17.096,-0.445,-0.931,0.0
15.752,-0.413,-0.949,0.0
14.366,-0.38,-0.949,0.0
20.517,-0.548,-0.789,0.0
19.161,-0.516,-0.848,1.0
18.987,-0.515,-0.95,0.0
15.391,-0.424,-0.95,0.0
14.15,-0.393,-0.955,0.0
19.848,-0.556,-0.792,0.0
18.619,-0.526,-0.85,1.0
18.405,-0.524,-0.947,0.0
14.958,-0.433,-0.945,0.0
13.895,-0.405,-0.958,0.0
19.25,-0.565,-0.795,0.0
18.153,-0.537,-0.855,1.0
17.75,-0.529,-0.938,0.0
17.87,-0.537,-1.05,0.0
14.577,-0.441,-0.941,0.0
13.486,-0.411,-0.949,0.0
18.717,-0.575,-0.799,0.0
17.595,-0.545,-0.852,0.0
17.376,-0.542,-0.942,0.0
15.77,-0.496,-0.948,0.0
14.4,-0.456,-0.949,0.0
13.321,-0.425,-0.955,0.0
18.156,-0.583,-0.799,0.0
17.203,-0.557,-0.856,1.0
17.12,-0.558,-0.951,0.0
15.676,-0.515,-0.963,0.0
14.149,-0.468,-0.951,0.0
13.101,-0.437,-0.957,0.0
17.738,-0.595,-0.804,0.0
16.762,-0.566,-0.856,0.0
16.623,-0.566,-0.945,0.0
14.938,-0.512,-0.937,0.0
13.874,-0.479,-0.951,0.0
12.878,-0.448,-0.957,0.0
17.381,-0.608,-0.81,0.0
16.285,-0.573,-0.852,1.0
16.246,-0.576,-0.944,1.0
14.685,-0.524,-0.94,0.0
13.643,-0.49,-0.952,0.0
12.659,-0.458,-0.956,0.0
16.994,-0.619,-0.812,0.0
16.1,-0.59,-0.862,1.0
16.076,-0.593,-0.954,0.0
14.506,-0.539,-0.946,0.0
13.468,-0.503,-0.956,0.0
12.498,-0.47,-0.959,0.0
31.359,-1.188,-1.537,0.0
15.987,-0.609,-0.875,1.0
15.92,-0.611,-0.963,0.0
14.339,-0.554,-0.952,0.0
13.299,-0.517,-0.96,0.0
12.343,-0.483,-0.962,0.0
16.206,-0.637,-0.813,0.0
15.889,-0.629,-0.888,1.0
15.833,-0.63,-0.976,0.0
14.081,-0.564,-0.951,0.0
13.121,-0.529,-0.962,0.0
12.174,-0.494,-0.962,0.0
16.086,-0.656,-0.824,0.0
15.8,-0.648,-0.901,1.0
15.655,-0.646,-0.982,0.0
13.826,-0.574,-0.948,0.0
12.927,-0.54,-0.961,0.0
11.945,-0.502,-0.957,0.0
15.825,-0.669,-0.828,0.0
15.723,-0.668,-0.913,1.0
14.968,-0.64,-0.955,0.0
13.694,-0.589,-0.954,0.0
12.739,-0.552,-0.961,0.0
11.796,-0.514,-0.958,0.0
15.712,-0.687,-0.838,1.0
15.645,-0.689,-0.924,0.0
14.576,-0.645,-0.945,0.0
13.472,-0.6,-0.952,0.0
12.584,-0.564,-0.962,0.0
11.611,-0.523,-0.954,0.0
15.585,-0.706,-0.847,1.0
15.539,-0.707,-0.933,0.0
14.473,-0.663,-0.952,0.0
13.347,-0.615,-0.956,0.0
12.444,-0.576,-0.963,0.0
11.462,-0.534,-0.953,0.0
15.495,-0.725,-0.857,1.0
15.431,-0.726,-0.942,0.0
14.377,-0.68,-0.96,0.0
13.189,-0.628,-0.957,0.0
12.268,-0.587,-0.961,0.0
11.342,-0.546,-0.954,0.0
15.398,-0.744,-0.865,1.0
15.371,-0.747,-0.952,1.0
14.208,-0.694,-0.961,0.0
12.99,-0.638,-0.955,0.0
12.127,-0.599,-0.961,0.0
11.247,-0.559,-0.956,0.0
15.31,-0.763,-0.874,1.0
15.289,-0.766,-0.96,0.0
13.861,-0.698,-0.95,0.0
12.928,-0.655,-0.961,0.0
12.049,-0.614,-0.965,0.0
11.121,-0.57,-0.955,0.0
15.218,-0.782,-0.881,1.0
15.151,-0.783,-0.964,0.0
13.825,-0.718,-0.959,0.0
12.78,-0.667,-0.961,0.0
11.852,-0.622,-0.959,0.0
11.069,-0.584,-0.959,0.0
15.132,-0.801,-0.888,1.0
14.893,-0.792,-0.959,1.0
13.602,-0.727,-0.954,0.0
12.619,-0.678,-0.958,0.0
11.744,-0.634,-0.959,0.0
10.928,-0.593,-0.955,0.0
15.094,-0.822,-0.897,1.0
14.88,-0.814,-0.969,1.0
13.586,-0.747,-0.962,0.0
12.565,-0.694,-0.963,0.0
11.611,-0.645,-0.956,0.0
10.804,-0.603,-0.952,0.0
15.02,-0.84,-0.903,1.0
14.84,-0.834,-0.977,0.0
24.6,-1.391,-1.76,0.0
12.488,-0.709,-0.966,0.0
11.576,-0.661,-0.961,0.0
10.749,-0.617,-0.954,0.0
14.962,-0.86,-0.909,1.0
14.709,-0.85,-0.978,0.0
24.597,-1.429,-1.775,0.0
12.373,-0.722,-0.965,0.0
11.453,-0.672,-0.958,0.0
10.715,-0.632,-0.958,0.0
14.916,-0.881,-0.916,1.0
14.675,-0.871,-0.984,0.0
24.509,-1.461,-1.784,0.0
12.321,-0.738,-0.968,0.0
11.391,-0.686,-0.96,0.0
10.591,-0.64,-0.953,0.0
14.847,-0.899,-0.92,1.0
14.335,-0.872,-0.97,0.0
13.061,-0.798,-0.958,0.0
12.243,-0.752,-0.969,0.0
11.328,-0.699,-0.961,0.0
10.555,-0.655,-0.955,0.0
14.795,-0.919,-0.925,1.0
14.087,-0.879,-0.96,0.0
13.008,-0.816,-0.961,0.0
12.103,-0.762,-0.964,0.0
11.145,-0.705,-0.951,0.0
10.504,-0.668,-0.956,0.0
14.731,-0.938,-0.928,1.0
13.961,-0.893,-0.958,0.0
12.904,-0.829,-0.959,0.0
12.049,-0.777,-0.965,0.0
11.178,-0.724,-0.959,0.0
10.437,-0.679,-0.955,0.0
14.672,-0.956,-0.931,1.0
13.952,-0.913,-0.964,0.0
12.858,-0.845,-0.961,0.0
11.956,-0.79,-0.963,0.0
11.092,-0.736,-0.956,0.0
10.406,-0.694,-0.956,0.0
14.623,-0.976,-0.933,1.0
13.978,-0.936,-0.971,0.0
12.837,-0.864,-0.965,0.0
11.857,-0.801,-0.959,0.0
11.084,-0.752,-0.96,0.0
10.38,-0.708,-0.958,0.0
14.569,-0.994,-0.935,1.0
14.035,-0.961,-0.98,0.0
12.759,-0.878,-0.963,0.0
11.826,-0.817,-0.961,0.0
10.997,-0.763,-0.956,0.0
10.304,-0.718,-0.954,0.0
14.495,-1.011,-0.935,1.0
13.895,-0.973,-0.975,0.0
12.725,-0.895,-0.965,0.0
11.767,-0.831,-0.96,0.0
11.055,-0.784,-0.964,0.0
10.326,-0.735,-0.959,0.0
14.451,-1.029,-0.936,1.0
13.95,-0.997,-0.982,0.0
12.625,-0.906,-0.96,0.0
11.759,-0.848,-0.962,0.0
10.986,-0.795,-0.961,0.0
10.254,-0.745,-0.955,0.0
14.396,-1.047,-0.936,1.0
13.871,-1.012,-0.98,0.0
12.631,-0.925,-0.963,0.0
11.705,-0.861,-0.96,0.0
10.961,-0.81,-0.961,0.0
10.271,-0.762,-0.958,0.0
14.37,-1.066,-0.937,1.0
13.853,-1.032,-0.981,0.0
12.637,-0.945,-0.966,0.0
11.7,-0.878,-0.962,0.0
10.931,-0.824,-0.96,0.0
10.244,-0.775,-0.958,0.0
14.305,-1.082,-0.935,1.0
13.99,-1.062,-0.993,0.0
12.619,-0.962,-0.966,0.0
11.705,-0.896,-0.963,0.0
10.893,-0.837,-0.958,0.0
10.252,-0.791,-0.959,0.0
14.258,-1.099,-0.933,1.0
14.03,-1.086,-0.997,0.0
12.579,-0.977,-0.964,0.0
11.686,-0.911,-0.963,0.0
10.914,-0.854,-0.961,0.0
10.257,-0.806,-0.961,0.0
14.216,-1.117,-0.931,1.0
13.979,-1.102,-0.994,0.0
12.609,-0.998,-0.967,0.0
11.691,-0.928,-0.964,0.0
10.933,-0.871,-0.963,0.0
10.233,-0.819,-0.959,0.0
14.185,-1.134,-0.93,1.0
13.918,-1.117,-0.99,0.0
12.567,-1.012,-0.964,0.0
11.662,-0.943,-0.961,0.0
10.929,-0.887,-0.962,0.0
10.261,-0.835,-0.961,0.0
14.133,-1.15,-0.926,1.0
13.927,-1.137,-0.99,0.0
12.579,-1.031,-0.965,0.0
11.695,-0.962,-0.964,0.0
10.924,-0.902,-0.961,0.0
10.253,-0.849,-0.96,0.0
14.093,-1.167,-0.922,1.0
13.963,-1.16,-0.992,0.0
12.636,-1.053,-0.968,0.0
11.725,-0.98,-0.965,0.0
10.988,-0.922,-0.966,0.0
10.264,-0.864,-0.96,0.0
14.069,-1.184,-0.919,1.0
13.926,-1.176,-0.988,0.0
12.614,-1.069,-0.965,0.0
11.778,-1.001,-0.968,0.0
11.006,-0.939,-0.966,0.0
10.316,-0.883,-0.963,0.0
14.036,-1.2,-0.915,1.0
13.966,-1.198,-0.988,0.0
12.664,-1.09,-0.966,0.0
11.747,-1.014,-0.963,0.0
11.011,-0.954,-0.964,0.0
10.313,-0.896,-0.961,0.0
13.99,-1.215,-0.909,1.0
13.958,-1.216,-0.985,0.0
12.727,-1.112,-0.969,0.0
11.824,-1.036,-0.967,0.0
11.023,-0.969,-0.963,0.0
10.337,-0.912,-0.961,0.0
13.965,-1.231,-0.905,1.0
13.933,-1.232,-0.98,0.0
12.766,-1.132,-0.969,0.0
11.865,-1.055,-0.968,0.0
11.051,-0.986,-0.963,0.0
10.363,-0.928,-0.961,0.0
13.928,-1.246,-0.899,1.0
13.91,-1.248,-0.974,1.0
12.816,-1.153,-0.969,0.0
11.891,-1.073,-0.966,0.0
11.087,-1.004,-0.963,0.0
10.38,-0.943,-0.959,0.0
13.905,-1.261,-0.893,1.0
13.874,-1.262,-0.968,1.0
12.842,-1.172,-0.967,0.0
11.943,-1.093,-0.967,0.0
11.13,-1.021,-0.963,0.0
10.459,-0.963,-0.963,0.0
13.866,-1.275,-0.886,1.0
13.848,-1.277,-0.961,1.0
12.963,-1.199,-0.971,0.0
12.01,-1.114,-0.968,0.0
11.217,-1.043,-0.966,0.0
10.506,-0.98,-0.963,0.0
13.822,-1.288,-0.877,1.0
13.828,-1.292,-0.954,1.0
13.083,-1.226,-0.975,0.0
12.039,-1.131,-0.965,0.0
11.231,-1.058,-0.963,0.0
10.579,-0.999,-0.965,0.0
13.807,-1.303,-0.871,1.0
13.796,-1.305,-0.946,1.0
13.123,-1.245,-0.972,0.0
12.033,-1.145,-0.959,0.0
11.282,-1.076,-0.962,0.0
10.608,-1.015,-0.963,0.0
13.785,-1.317,-0.863,1.0
13.767,-1.319,-0.938,1.0
13.267,-1.274,-0.977,0.0
12.129,-1.168,-0.961,0.0
11.379,-1.098,-0.965,0.0
10.632,-1.029,-0.96,0.0
13.767,-1.331,-0.855,1.0
13.75,-1.332,-0.93,1.0
13.376,-1.299,-0.978,1.0
12.21,-1.189,-0.961,0.0
11.481,-1.121,-0.967,0.0
10.756,-1.053,-0.966,0.0
13.823,-1.352,-0.851,0.0
13.723,-1.345,-0.921,1.0
13.482,-1.325,-0.979,1.0
12.482,-1.229,-0.976,0.0
11.582,-1.143,-0.969,0.0
10.81,-1.07,-0.964,0.0
13.908,-1.375,-0.849,0.0
13.692,-1.357,-0.911,1.0
13.531,-1.344,-0.974,1.0
13.248,-1.319,-1.028,0.0
11.676,-1.165,-0.97,0.0
10.88,-1.088,-0.964,0.0
13.978,-1.396,-0.845,0.0
13.67,-1.369,-0.901,1.0
13.553,-1.36,-0.968,1.0
12.941,-1.302,-0.996,0.0
11.73,-1.183,-0.968,0.0
10.958,-1.107,-0.964,0.0
14.105,-1.423,-0.844,0.0
13.658,-1.381,-0.892,1.0
13.569,-1.375,-0.96,1.0
12.913,-1.312,-0.986,0.0
11.935,-1.215,-0.977,0.0
11.124,-1.135,-0.971,0.0
14.206,-1.448,-0.84,1.0
13.618,-1.391,-0.88,1.0
13.6,-1.392,-0.953,1.0
12.913,-1.324,-0.977,0.0
11.968,-1.23,-0.971,0.0
11.199,-1.153,-0.97,0.0
14.268,-1.467,-0.834,1.0
13.618,-1.403,-0.87,1.0
13.592,-1.404,-0.943,1.0
13.072,-1.353,-0.98,0.0
12.095,-1.254,-0.973,0.0
11.277,-1.172,-0.969,0.0
14.417,-1.496,-0.832,0.0
13.616,-1.416,-0.86,1.0
13.59,-1.416,-0.933,1.0
13.407,-1.399,-0.995,0.0
12.151,-1.271,-0.968,0.0
11.362,-1.191,-0.967,0.0
14.539,-1.522,-0.828,0.0
13.653,-1.431,-0.852,0.0
13.559,-1.424,-0.92,1.0
13.504,-1.421,-0.991,1.0
12.296,-1.297,-0.97,0.0
11.503,-1.215,-0.97,0.0
14.682,-1.549,-0.824,1.0
13.793,-1.458,-0.85,0.0
13.537,-1.433,-0.908,1.0
13.522,-1.434,-0.982,1.0
13.09,-1.391,-1.022,0.0
11.671,-1.243,-0.975,0.0
14.875,-1.581,-0.823,1.0
13.907,-1.481,-0.845,0.0
13.515,-1.442,-0.895,1.0
13.516,-1.444,-0.97,1.0
13.258,-1.419,-1.024,0.0
11.765,-1.262,-0.973,0.0
15.036,-1.61,-0.82,1.0
14.054,-1.507,-0.842,0.0
13.511,-1.451,-0.883,1.0
13.509,-1.454,-0.958,1.0
13.057,-1.407,-0.997,0.0
11.905,-1.286,-0.974,0.0
15.21,-1.64,-0.816,1.0
14.24,-1.538,-0.841,1.0
13.506,-1.461,-0.871,1.0
13.452,-1.457,-0.942,2.0
13.084,-1.42,-0.987,0.0
12.072,-1.312,-0.976,0.0
15.312,-1.662,-0.807,1.0
14.344,-1.559,-0.834,1.0
13.514,-1.471,-0.859,1.0
13.379,-1.458,-0.924,7.0
13.328,-1.455,-0.993,0.0
12.134,-1.327,-0.97,0.0
15.469,-1.689,-0.801,1.0
14.491,-1.584,-0.829,0.0
13.606,-1.49,-0.852,0.0
13.37,-1.466,-0.911,8.0
13.351,-1.466,-0.982,4.0
13.002,-1.43,-1.027,0.0
15.72,-1.726,-0.799,0.0
14.674,-1.613,-0.825,0.0
13.769,-1.516,-0.849,0.0
13.399,-1.477,-0.9,3.0
13.353,-1.474,-0.969,8.0
13.344,-1.475,-1.041,0.0
15.952,-1.761,-0.796,1.0
14.891,-1.646,-0.823,1.0
13.946,-1.543,-0.846,0.0
13.433,-1.488,-0.889,1.0
13.361,-1.482,-0.957,10.0
13.337,-1.481,-1.027,1.0
16.128,-1.789,-0.788,1.0
15.066,-1.673,-0.817,1.0
14.07,-1.564,-0.839,1.0
13.428,-1.495,-0.875,1.0
13.366,-1.49,-0.943,12.0
13.32,-1.486,-1.012,1.0
16.355,-1.822,-0.783,1.0
15.207,-1.696,-0.809,1.0
14.255,-1.592,-0.836,1.0
13.438,-1.502,-0.861,1.0
13.368,-1.496,-0.929,12.0
13.318,-1.492,-0.998,3.0
16.654,-1.863,-0.779,1.0
15.418,-1.727,-0.805,1.0
14.441,-1.619,-0.831,0.0
13.54,-1.519,-0.854,0.0
13.37,-1.502,-0.915,3.0
13.343,-1.5,-0.985,8.0
16.949,-1.903,-0.775,1.0
15.637,-1.758,-0.799,1.0
14.653,-1.648,-0.828,1.0
13.759,-1.549,-0.853,0.0
13.403,-1.511,-0.903,2.0
13.352,-1.506,-0.972,10.0
17.315,-1.951,-0.773,1.0
15.935,-1.797,-0.797,1.0
14.839,-1.675,-0.822,1.0
13.921,-1.572,-0.848,1.0
13.385,-1.513,-0.887,2.0
13.342,-1.51,-0.956,9.0
17.621,-1.991,-0.768,0.0
16.135,-1.825,-0.789,1.0
15.075,-1.706,-0.818,1.0
14.073,-1.594,-0.841,1.0
13.398,-1.519,-0.873,1.0
13.355,-1.515,-0.942,10.0
17.995,-2.039,-0.764,0.0
16.385,-1.857,-0.783,1.0
15.228,-1.727,-0.81,1.0
14.265,-1.619,-0.837,0.0
13.426,-1.525,-0.859,1.0
13.352,-1.518,-0.926,7.0
18.556,-2.107,-0.767,0.0
16.703,-1.897,-0.779,1.0
15.482,-1.76,-0.805,1.0
14.478,-1.647,-0.832,0.0
13.633,-1.552,-0.857,0.0
13.361,-1.521,-0.912,3.0
18.948,-2.155,-0.761,1.0
17.089,-1.944,-0.778,1.0
15.712,-1.789,-0.799,0.0
14.658,-1.67,-0.826,1.0
13.792,-1.572,-0.851,1.0
13.375,-1.525,-0.897,2.0
19.378,-2.207,-0.755,1.0
17.313,-1.973,-0.767,0.0
15.994,-1.823,-0.795,1.0
14.942,-1.704,-0.824,1.0
13.969,-1.594,-0.845,1.0
13.369,-1.526,-0.881,2.0
19.844,-2.262,-0.751,1.0
17.831,-2.033,-0.77,0.0
16.238,-1.852,-0.788,1.0
15.121,-1.725,-0.816,1.0
14.148,-1.615,-0.839,1.0
13.379,-1.528,-0.865,1.0
20.331,-2.319,-0.745,2.0
18.255,-2.083,-0.766,0.0
16.524,-1.886,-0.782,1.0
15.321,-1.749,-0.808,0.0
14.398,-1.644,-0.837,0.0
13.519,-1.544,-0.858,0.0
20.863,-2.38,-0.739,3.0
18.757,-2.14,-0.765,1.0
16.918,-1.931,-0.78,1.0
15.58,-1.778,-0.803,0.0
14.589,-1.665,-0.83,1.0
13.743,-1.569,-0.856,0.0
21.42,-2.443,-0.733,4.0
19.178,-2.187,-0.758,1.0
17.206,-1.963,-0.772,1.0
15.872,-1.811,-0.799,0.0
14.845,-1.694,-0.827,1.0
13.909,-1.587,-0.849,1.0
22.015,-2.509,-0.727,4.0
19.65,-2.24,-0.753,1.0
17.605,-2.007,-0.769,0.0
16.144,-1.84,-0.793,1.0
15.077,-1.719,-0.821,1.0
14.071,-1.604,-0.841,1.0
22.632,-2.577,-0.72,5.0
20.198,-2.3,-0.75,2.0
18.056,-2.056,-0.767,0.0
16.395,-1.866,-0.785,1.0
15.265,-1.738,-0.812,1.0
14.307,-1.629,-0.838,0.0
23.261,-2.645,-0.711,5.0
20.737,-2.358,-0.744,2.0
18.663,-2.121,-0.769,1.0
16.746,-1.903,-0.781,1.0
15.512,-1.763,-0.806,1.0
14.554,-1.654,-0.834,0.0
24.063,-2.732,-0.706,5.0
21.249,-2.411,-0.736,3.0
19.063,-2.163,-0.762,1.0
17.165,-1.947,-0.779,1.0
15.791,-1.79,-0.801,1.0
14.773,-1.675,-0.828,1.0
24.753,-2.804,-0.695,5.0
21.913,-2.481,-0.732,3.0
19.524,-2.21,-0.756,1.0
17.54,-1.984,-0.774,0.0
16.091,-1.82,-0.796,1.0
15.044,-1.701,-0.825,1.0
25.418,-2.872,-0.682,3.0
22.491,-2.539,-0.723,4.0
20.148,-2.274,-0.755,1.0
17.885,-2.018,-0.767,1.0
16.373,-1.846,-0.79,1.0
15.227,-1.716,-0.816,1.0
26.53,-2.988,-0.679,2.0
23.145,-2.605,-0.715,5.0
20.573,-2.314,-0.745,1.0
18.453,-2.075,-0.768,1.0
16.691,-1.876,-0.784,1.0
15.5,-1.741,-0.811,1.0
27.271,-3.061,-0.664,2.0
23.787,-2.668,-0.705,5.0
21.149,-2.371,-0.739,2.0
18.984,-2.127,-0.767,1.0
17.085,-1.913,-0.781,1.0
15.759,-1.763,-0.804,1.0
27.93,-3.122,-0.645,1.0
24.819,-2.773,-0.704,5.0
21.894,-2.444,-0.738,4.0
19.432,-2.168,-0.76,1.0
17.539,-1.955,-0.779,1.0
16.078,-1.791,-0.8,1.0
29.696,-3.306,-0.648,5.0
25.441,-2.829,-0.69,6.0
22.49,-2.499,-0.729,4.0
20.051,-2.226,-0.759,1.0
18.042,-2.002,-0.779,1.0
16.334,-1.811,-0.792,1.0
30.387,-3.366,-0.625,9.0
26.352,-2.917,-0.682,3.0
23.096,-2.554,-0.72,5.0
20.603,-2.276,-0.754,3.0
18.424,-2.034,-0.772,1.0
16.718,-1.844,-0.79,1.0
31.215,-3.44,-0.603,9.0
27.192,-2.994,-0.67,1.0
23.87,-2.626,-0.715,3.0
21.024,-2.31,-0.743,3.0
18.883,-2.073,-0.768,2.0
17.046,-1.869,-0.784,1.0
31.919,-3.498,-0.576,24.0
28.007,-3.066,-0.655,1.0
24.849,-2.717,-0.713,5.0
21.713,-2.372,-0.74,2.0
19.451,-2.122,-0.767,2.0
17.474,-1.905,-0.782,1.0
32.903,-3.584,-0.554,28.0
29.44,-3.203,-0.652,2.0
25.461,-2.767,-0.699,6.0
22.357,-2.426,-0.735,4.0
19.916,-2.159,-0.761,1.0
17.978,-1.947,-0.782,2.0
33.792,-3.658,-0.527,31.0
30.473,-3.294,-0.637,4.0
26.322,-2.841,-0.69,4.0
22.867,-2.465,-0.724,4.0
20.46,-2.203,-0.756,2.0
18.256,-1.963,-0.772,1.0
34.551,-3.713,-0.496,27.0
31.466,-3.377,-0.619,9.0
26.973,-2.891,-0.674,2.0
23.648,-2.531,-0.719,5.0
20.99,-2.243,-0.75,2.0
18.841,-2.011,-0.774,1.0
35.196,-3.755,-0.463,12.0
32.265,-3.437,-0.596,10.0
27.848,-2.962,-0.663,1.0
24.586,-2.611,-0.718,5.0
21.462,-2.276,-0.741,3.0
19.365,-2.051,-0.772,2.0
40.035,-4.238,-0.478,15.0
32.958,-3.483,-0.569,22.0
29.329,-3.094,-0.662,1.0
25.376,-2.673,-0.71,6.0
22.261,-2.341,-0.742,4.0
19.778,-2.077,-0.765,1.0
40.339,-4.235,-0.434,15.0
33.885,-3.551,-0.544,27.0
30.506,-3.191,-0.652,4.0
26.133,-2.729,-0.701,6.0
22.821,-2.379,-0.733,3.0
20.312,-2.114,-0.761,2.0
0.0,0.0,0.0,0.0
34.662,-3.6,-0.516,22.0
31.255,-3.24,-0.631,9.0
26.805,-2.774,-0.687,3.0
23.428,-2.42,-0.725,3.0
20.804,-2.145,-0.755,1.0
45.036,-4.642,-0.378,20.0
35.209,-3.622,-0.483,10.0
32.571,-3.344,-0.62,10.0
27.576,-2.826,-0.674,1.0
24.474,-2.503,-0.729,5.0
21.433,-2.188,-0.752,1.0
47.031,-4.8,-0.34,6.0
40.093,-4.083,-0.503,4.0
33.272,-3.382,-0.594,11.0
28.389,-2.879,-0.661,1.0
25.127,-2.544,-0.719,4.0
21.992,-2.222,-0.746,1.0
50.961,-5.147,-0.309,25.0
40.29,-4.06,-0.459,11.0
33.972,-3.416,-0.568,26.0
29.874,-2.997,-0.661,7.0
25.974,-2.601,-0.713,6.0
22.584,-2.257,-0.741,1.0
54.289,-5.423,-0.268,29.0
0.0,0.0,0.0,0.0
34.701,-3.451,-0.541,18.0
30.613,-3.038,-0.643,2.0
26.628,-2.636,-0.701,6.0
23.178,-2.29,-0.734,4.0
55.401,-5.471,-0.211,30.0
44.99,-4.432,-0.411,19.0
35.309,-3.47,-0.51,8.0
31.385,-3.078,-0.624,3.0
27.339,-2.675,-0.69,4.0
24.013,-2.344,-0.734,5.0
55.927,-5.457,-0.151,6.0
46.601,-4.536,-0.374,20.0
37.794,-3.669,-0.505,8.0
32.861,-3.183,-0.618,6.0
28.038,-2.709,-0.677,5.0
24.786,-2.389,-0.73,5.0
65.318,-6.294,-0.106,6.0
47.995,-4.612,-0.334,5.0
0.0,0.0,0.0,0.0
34.337,-3.283,-0.609,11.0
28.69,-2.736,-0.662,3.0
25.564,-2.432,-0.726,6.0
65.159,-6.197,-0.036,0.0
54.462,-5.165,-0.321,12.0
0.0,0.0,0.0,0.0
34.951,-3.297,-0.583,16.0
30.027,-2.825,-0.661,2.0
25.955,-2.436,-0.71,6.0
54.961,-5.155,0.026,150.0
54.832,-5.128,-0.266,29.0
0.0,0.0,0.0,0.0
35.539,-3.305,-0.555,12.0
30.765,-2.853,-0.645,4.0
26.911,-2.489,-0.708,6.0
54.972,-5.082,0.083,156.0
55.599,-5.125,-0.212,29.0
45.258,-4.16,-0.415,11.0
38.181,-3.499,-0.558,14.0
31.835,-2.909,-0.636,1.0
27.596,-2.515,-0.698,5.0
54.942,-5.004,0.138,101.0
55.674,-5.055,-0.158,13.0
47.456,-4.296,-0.388,21.0
39.16,-3.534,-0.533,15.0
32.495,-2.924,-0.617,3.0
28.127,-2.524,-0.684,3.0
0.0,0.0,0.0,0.0
56.001,-5.006,-0.104,6.0
0.0,0.0,0.0,0.0
40.005,-3.554,-0.507,15.0
34.179,-3.027,-0.616,1.0
29.302,-2.587,-0.685,3.0
0.0,0.0,0.0,0.0
56.773,-4.993,-0.052,2.0
54.255,-4.757,-0.34,8.0
40.525,-3.541,-0.476,5.0
35.364,-3.08,-0.604,2.0
30.106,-2.614,-0.676,7.0
0.0,0.0,0.0,0.0
0.0,0.0,0.0,0.0
54.566,-4.703,-0.292,9.0
45.241,-3.886,-0.49,11.0
37.314,-3.194,-0.604,9.0
30.641,-2.615,-0.66,7.0
0.0,0.0,0.0,0.0
64.134,-5.45,0.057,0.0
60.815,-5.15,-0.272,1.0
46.205,-3.899,-0.459,21.0
38.441,-3.232,-0.588,12.0
31.307,-2.623,-0.647,2.0
79.42,-6.651,0.566,21.0
79.481,-6.631,0.14,22.0
79.339,-6.595,-0.286,2.0
47.109,-3.902,-0.427,20.0
39.305,-3.244,-0.568,14.0
32.259,-2.652,-0.639,2.0
79.357,-6.521,0.633,29.0
79.499,-6.507,0.207,34.0
79.462,-6.48,-0.219,9.0
49.468,-4.019,-0.407,24.0
40.481,-3.276,-0.551,15.0
33.286,-2.684,-0.632,1.0
79.319,-6.391,0.698,21.0
79.383,-6.37,0.272,25.0
79.599,-6.362,-0.155,18.0
50.433,-4.015,-0.374,12.0
41.618,-3.3,-0.532,9.0
34.23,-2.704,-0.622,1.0
81.471,-6.431,0.782,7.0
61.534,-4.837,0.26,16.0
0.0,0.0,0.0,0.0
53.979,-4.208,-0.358,8.0
42.455,-3.296,-0.51,4.0
34.968,-2.704,-0.609,2.0
65.782,-5.082,0.682,7.0
0.0,0.0,0.0,0.0
65.617,-5.027,-0.026,2.0
57.374,-4.377,-0.338,4.0
0.0,0.0,0.0,0.0
36.005,-2.724,-0.6,2.0
65.737,-4.968,0.73,0.0
65.57,-4.933,0.375,0.0
65.529,-4.909,0.021,150.0
57.29,-4.273,-0.296,5.0
46.844,-3.478,-0.495,19.0
38.699,-2.861,-0.617,0.0
0.0,0.0,0.0,0.0
65.6,-4.821,0.421,1.0
65.531,-4.795,0.067,2.0
59.711,-4.349,-0.267,4.0
0.0,0.0,0.0,0.0
39.038,-2.818,-0.596,1.0
0.0,0.0,0.0,0.0
65.457,-4.697,0.464,1.0
65.449,-4.674,0.111,1.0
69.445,-4.936,-0.264,0.0
49.559,-3.506,-0.456,17.0
40.25,-2.835,-0.588,2.0
0.0,0.0,0.0,0.0
65.571,-4.588,0.507,150.0
