X,Y,Z,Reflectivity
38.661,-1.061,-0.442,35.0
37.997,-1.033,-0.634,16.0
30.599,-0.824,-0.674,34.0
28.293,-0.754,-0.772,1.0
23.806,-0.628,-0.774,19.0
38.706,-1.013,-0.184,39.0
38.726,-1.004,-0.388,37.0
38.311,-0.983,-0.584,13.0
30.994,-0.787,-0.639,29.0
29.954,-0.753,-0.775,4.0
0.0,0.0,0.0,0.0
0.0,0.0,0.0,0.0
40.404,-0.984,-0.347,34.0
38.558,-0.929,-0.534,21.0
31.47,-0.75,-0.604,9.0
30.394,-0.716,-0.743,23.0
25.322,-0.59,-0.752,4.0
40.416,-0.931,-0.078,39.0
40.414,-0.92,-0.291,42.0
40.419,-0.909,-0.503,31.0
37.844,-0.841,-0.674,13.0
30.563,-0.67,-0.705,31.0
25.272,-0.547,-0.716,0.0
38.377,-0.822,-0.021,39.0
38.367,-0.811,-0.223,55.0
38.359,-0.8,-0.425,37.0
38.107,-0.784,-0.626,16.0
30.901,-0.628,-0.671,29.0
28.75,-0.576,-0.776,7.0
52.947,-1.047,0.041,65.0
52.938,-1.032,-0.236,20.0
45.509,-0.874,-0.443,23.0
38.502,-0.728,-0.581,12.0
31.478,-0.587,-0.641,9.0
0.0,0.0,0.0,0.0
20.132,-0.364,0.042,10.0
20.112,-0.358,-0.063,11.0
52.913,-0.928,-0.446,47.0
44.868,-0.773,-0.619,18.0
0.0,0.0,0.0,0.0
30.361,-0.506,-0.739,24.0
20.151,-0.33,0.068,47.0
20.121,-0.324,-0.037,19.0
59.373,-0.939,-0.423,14.0
45.016,-0.699,-0.563,25.0
37.954,-0.578,-0.675,22.0
30.91,-0.461,-0.713,29.0
20.128,-0.295,0.094,14.0
59.52,-0.856,-0.035,26.0
59.545,-0.839,-0.35,2.0
45.549,-0.628,-0.513,3.0
38.23,-0.516,-0.633,16.0
31.877,-0.42,-0.696,18.0
20.149,-0.26,0.119,6.0
59.552,-0.752,0.037,55.0
56.213,-0.693,-0.261,1.0
52.827,-0.636,-0.53,15.0
39.001,-0.458,-0.598,3.0
35.89,-0.411,-0.741,3.0
56.18,-0.627,0.4,3.0
56.211,-0.611,0.102,1.0
56.196,-0.594,-0.194,13.0
58.757,-0.603,-0.52,6.0
44.874,-0.447,-0.635,23.0
20.178,-0.195,-0.392,17.0
53.352,-0.5,0.443,13.0
53.372,-0.484,0.16,10.0
53.36,-0.468,-0.122,12.0
20.169,-0.17,-0.155,8.0
20.157,-0.164,-0.262,25.0
20.166,-0.158,-0.369,30.0
20.207,-0.152,0.191,17.0
20.159,-0.146,0.083,14.0
20.184,-0.14,-0.023,24.0
20.159,-0.133,-0.132,22.0
20.141,-0.127,-0.239,26.0
20.141,-0.121,-0.346,39.0
20.133,-0.115,0.212,22.0
20.132,-0.109,0.105,28.0
20.122,-0.102,0.0,29.0
20.136,-0.096,-0.11,27.0
20.165,-0.09,-0.217,26.0
20.152,-0.083,-0.324,34.0
20.121,-0.077,0.234,28.0
20.126,-0.071,0.127,32.0
20.135,-0.065,0.02,34.0
20.148,-0.059,-0.088,33.0
20.145,-0.052,-0.195,27.0
20.17,-0.046,-0.303,25.0
20.121,-0.04,0.255,29.0
20.119,-0.033,0.148,31.0
20.135,-0.027,0.041,34.0
20.179,-0.021,-0.068,22.0
20.174,-0.014,-0.175,12.0
20.231,-0.008,-0.283,6.0
20.129,-0.002,0.276,29.0
20.122,0.004,0.169,28.0
20.167,0.01,0.061,38.0
20.249,0.017,-0.048,151.0
20.272,0.023,-0.156,151.0
20.267,0.029,-0.264,150.0
20.144,0.036,0.296,31.0
20.147,0.042,0.188,29.0
20.152,0.048,0.081,24.0
20.208,0.055,-0.028,29.0
20.21,0.061,-0.136,26.0
20.211,0.068,-0.244,6.0
20.154,0.074,0.315,28.0
20.16,0.081,0.208,28.0
20.175,0.087,0.1,25.0
20.186,0.094,-0.009,28.0
20.184,0.1,-0.117,35.0
20.175,0.107,-0.225,26.0
20.163,0.114,0.334,29.0
20.174,0.12,0.226,26.0
20.171,0.126,0.118,24.0
20.187,0.133,0.008,27.0
20.189,0.14,-0.099,28.0
20.171,0.146,-0.207,25.0
20.198,0.153,0.352,25.0
20.218,0.16,0.244,24.0
20.265,0.167,0.136,25.0
20.315,0.174,0.026,29.0
20.231,0.18,-0.082,12.0
20.183,0.186,-0.19,14.0
20.28,0.194,0.371,35.0
20.271,0.2,0.262,27.0
20.306,0.207,0.154,27.0
20.302,0.214,0.043,18.0
0.0,0.0,0.0,0.0
20.204,0.226,-0.174,1.0
20.28,0.234,0.388,28.0
20.284,0.241,0.279,20.0
20.304,0.248,0.17,2.0
99.56,1.249,0.29,6.0
0.0,0.0,0.0,0.0
0.0,0.0,0.0,0.0
20.277,0.275,0.403,2.0
195.002,2.711,2.835,26.0
0.0,0.0,0.0,0.0
99.659,1.45,0.366,6.0
99.821,1.484,-0.17,1.0
0.0,0.0,0.0,0.0
196.253,3.061,4.057,25.0
194.742,3.1,2.975,31.0
0.0,0.0,0.0,0.0
99.785,1.654,0.439,5.0
99.889,1.688,-0.099,5.0
0.0,0.0,0.0,0.0
194.643,3.429,4.161,8.0
194.67,3.491,3.11,21.0
103.19,1.884,1.092,15.0
99.86,1.856,0.507,5.0
99.854,1.887,-0.031,1.0
0.0,0.0,0.0,0.0
194.478,3.817,4.287,14.0
195.547,3.903,3.254,8.0
103.114,2.092,1.159,6.0
100.024,2.061,0.573,4.0
100.025,2.094,0.032,13.0
0.0,0.0,0.0,0.0
194.358,4.214,4.408,24.0
194.186,4.27,3.353,21.0
0.0,0.0,0.0,0.0
103.08,2.334,0.653,2.0
100.132,2.3,0.093,6.0
0.0,0.0,0.0,0.0
194.234,4.604,4.52,24.0
193.664,4.655,3.458,30.0
195.083,4.751,2.426,7.0
103.025,2.541,0.712,8.0
100.326,2.508,0.15,1.0
0.0,0.0,0.0,0.0
193.945,4.997,4.623,31.0
193.445,5.046,3.56,35.0
195.219,5.157,2.534,26.0
103.191,2.759,0.769,6.0
103.28,2.794,0.209,1.0
0.0,0.0,0.0,0.0
193.89,5.392,4.722,25.0
193.417,5.442,3.66,34.0
195.552,5.563,2.637,25.0
195.939,5.638,1.558,20.0
196.139,5.707,0.494,14.0
0.0,0.0,0.0,0.0
193.921,5.79,4.816,25.0
193.847,5.851,3.76,25.0
0.0,0.0,0.0,0.0
196.191,6.049,1.65,9.0
196.303,6.115,0.583,22.0
0.0,0.0,0.0,0.0
193.903,6.189,4.901,8.0
195.26,6.296,3.872,12.0
195.111,6.352,2.806,10.0
196.551,6.464,1.737,5.0
196.354,6.518,0.664,22.0
0.0,0.0,0.0,0.0
195.223,6.633,5.015,13.0
195.285,6.694,3.95,22.0
196.203,6.79,2.899,9.0
202.805,7.082,1.87,37.0
196.452,6.923,0.738,28.0
0.0,0.0,0.0,0.0
195.167,7.027,5.083,6.0
200.176,7.272,4.121,7.0
196.015,7.184,2.965,6.0
203.194,7.511,1.943,20.0
195.136,7.273,0.799,8.0
0.0,0.0,0.0,0.0
195.327,7.437,5.153,5.0
195.219,7.493,4.082,8.0
0.0,0.0,0.0,0.0
199.405,7.778,1.968,14.0
196.643,7.735,0.865,34.0
0.0,0.0,0.0,0.0
193.735,7.771,5.167,24.0
195.301,7.898,4.139,9.0
196.874,8.018,3.093,5.0
0.0,0.0,0.0,0.0
196.759,8.14,0.917,33.0
0.0,0.0,0.0,0.0
193.905,8.176,5.22,9.0
0.0,0.0,0.0,0.0
196.269,8.394,3.13,30.0
195.554,8.425,2.027,22.0
195.523,8.487,0.954,46.0
0.0,0.0,0.0,0.0
193.824,8.566,5.259,21.0
195.473,8.7,4.23,9.0
204.946,9.182,3.309,38.0
204.958,9.245,2.164,16.0
196.973,8.947,0.998,38.0
0.0,0.0,0.0,0.0
194.174,8.978,5.302,5.0
0.0,0.0,0.0,0.0
200.112,9.375,3.264,6.0
0.0,0.0,0.0,0.0
197.033,9.351,1.027,23.0
0.0,0.0,0.0,0.0
193.942,9.362,5.323,15.0
0.0,0.0,0.0,0.0
197.87,9.67,3.251,8.0
197.831,9.729,2.142,24.0
197.232,9.757,1.049,30.0
0.0,0.0,0.0,0.0
193.994,9.756,5.343,18.0
196.378,9.932,4.326,8.0
197.889,10.069,3.268,9.0
201.926,10.332,2.201,7.0
197.17,10.15,1.062,29.0
0.0,0.0,0.0,0.0
197.477,10.328,5.451,5.0
0.0,0.0,0.0,0.0
0.0,0.0,0.0,0.0
206.99,11.01,2.265,8.0
197.164,10.544,1.068,20.0
0.0,0.0,0.0,0.0
196.024,10.646,5.414,32.0
196.087,10.708,4.333,56.0
196.12,10.768,3.25,30.0
196.125,10.826,2.147,34.0
196.102,10.882,1.061,15.0
0.0,0.0,0.0,0.0
194.898,10.976,5.381,4.0
0.0,0.0,0.0,0.0
0.0,0.0,0.0,0.0
0.0,0.0,0.0,0.0
197.461,11.352,1.061,31.0
0.0,0.0,0.0,0.0
0.0,0.0,0.0,0.0
0.0,0.0,0.0,0.0
0.0,0.0,0.0,0.0
208.076,12.312,2.254,17.0
197.508,11.742,1.045,28.0
0.0,0.0,0.0,0.0
0.0,0.0,0.0,0.0
0.0,0.0,0.0,0.0
0.0,0.0,0.0,0.0
0.0,0.0,0.0,0.0
155.421,9.542,0.803,67.0
0.0,0.0,0.0,0.0
0.0,0.0,0.0,0.0
0.0,0.0,0.0,0.0
0.0,0.0,0.0,0.0
0.0,0.0,0.0,0.0
0.0,0.0,0.0,0.0
0.0,0.0,0.0,0.0
174.068,11.167,4.729,4.0
0.0,0.0,0.0,0.0
0.0,0.0,0.0,0.0
0.0,0.0,0.0,0.0
154.945,10.108,0.747,102.0
0.0,0.0,0.0,0.0
178.409,11.786,4.811,7.0
173.755,11.525,3.717,13.0
0.0,0.0,0.0,0.0
0.0,0.0,0.0,0.0
154.935,10.404,0.711,150.0
0.0,0.0,0.0,0.0
173.146,11.766,4.626,13.0
173.636,11.844,3.672,15.0
210.372,14.408,3.277,27.0
0.0,0.0,0.0,0.0
154.855,10.691,0.671,11.0
0.0,0.0,0.0,0.0
161.818,11.301,4.28,23.0
174.1,12.207,3.633,11.0
0.0,0.0,0.0,0.0
0.0,0.0,0.0,0.0
140.653,9.971,0.568,150.0
0.0,0.0,0.0,0.0
161.903,11.609,4.232,14.0
168.126,12.096,3.455,18.0
173.354,12.518,2.594,15.0
0.0,0.0,0.0,0.0
140.551,10.222,0.519,151.0
0.0,0.0,0.0,0.0
155.846,11.461,4.019,17.0
168.134,12.407,3.397,20.0
168.21,12.455,2.457,16.0
0.0,0.0,0.0,0.0
0.0,0.0,0.0,0.0
0.0,0.0,0.0,0.0
155.576,11.724,3.953,7.0
162.06,12.254,3.211,15.0
168.259,12.763,2.391,16.0
122.494,9.323,1.043,2.0
114.101,8.714,0.333,62.0
0.0,0.0,0.0,0.0
156.083,12.044,3.9,25.0
156.058,12.08,3.026,28.0
162.108,12.589,2.235,39.0
0.0,0.0,0.0,0.0
114.021,8.911,0.282,77.0
0.0,0.0,0.0,0.0
167.971,13.258,4.122,13.0
155.993,12.35,2.953,46.0
155.953,12.384,2.079,29.0
114.063,9.086,0.869,6.0
110.587,8.835,0.222,7.0
0.0,0.0,0.0,0.0
156.07,12.591,3.755,31.0
196.431,15.895,3.623,30.0
0.0,0.0,0.0,0.0
110.482,8.993,0.787,15.0
109.195,8.913,0.164,3.0
0.0,0.0,0.0,0.0
0.0,0.0,0.0,0.0
202.78,16.757,3.634,8.0
0.0,0.0,0.0,0.0
108.927,9.052,0.717,1.0
107.997,9.001,0.104,6.0
0.0,0.0,0.0,0.0
196.966,16.569,4.528,13.0
198.839,16.773,3.452,16.0
177.55,15.017,2.085,6.0
107.865,9.148,0.649,4.0
107.72,9.16,0.042,25.0
0.0,0.0,0.0,0.0
0.0,0.0,0.0,0.0
153.61,13.211,2.578,4.0
128.987,11.122,1.439,13.0
107.746,9.314,0.584,19.0
107.612,9.327,-0.021,33.0
0.0,0.0,0.0,0.0
152.612,13.342,3.327,25.0
153.778,13.476,2.487,18.0
129.175,11.349,1.361,8.0
107.641,9.479,0.516,15.0
101.242,8.939,-0.084,2.0
68.924,6.102,-0.445,2.0
152.505,13.581,3.227,29.0
152.918,13.648,2.373,22.0
129.407,11.578,1.278,2.0
0.0,0.0,0.0,0.0
0.0,0.0,0.0,0.0
68.989,6.218,-0.492,3.0
152.087,13.784,3.116,30.0
152.103,13.817,2.257,27.0
0.0,0.0,0.0,0.0
92.862,8.473,0.321,3.0
0.0,0.0,0.0,0.0
68.814,6.308,-0.539,0.0
151.514,13.967,2.998,24.0
151.806,14.024,2.147,25.0
0.0,0.0,0.0,0.0
92.912,8.621,0.254,150.0
92.85,8.636,-0.27,1.0
0.0,0.0,0.0,0.0
151.342,14.182,2.883,31.0
151.449,14.221,2.029,31.0
0.0,0.0,0.0,0.0
92.732,8.744,0.184,12.0
0.0,0.0,0.0,0.0
0.0,0.0,0.0,0.0
151.225,14.397,2.767,24.0
151.268,14.429,1.91,19.0
0.0,0.0,0.0,0.0
92.357,8.846,0.112,4.0
0.0,0.0,0.0,0.0
0.0,0.0,0.0,0.0
151.147,14.61,2.646,24.0
150.95,14.618,1.788,10.0
0.0,0.0,0.0,0.0
92.205,8.964,0.037,1.0
0.0,0.0,0.0,0.0
0.0,0.0,0.0,0.0
121.585,11.927,2.029,62.0
121.591,11.949,1.339,8.0
0.0,0.0,0.0,0.0
0.0,0.0,0.0,0.0
0.0,0.0,0.0,0.0
0.0,0.0,0.0,0.0
121.621,12.098,1.928,50.0
0.0,0.0,0.0,0.0
0.0,0.0,0.0,0.0
0.0,0.0,0.0,0.0
0.0,0.0,0.0,0.0
0.0,0.0,0.0,0.0
150.565,15.18,2.258,22.0
0.0,0.0,0.0,0.0
0.0,0.0,0.0,0.0
82.591,8.37,-0.176,1.0
0.0,0.0,0.0,0.0
0.0,0.0,0.0,0.0
150.625,15.385,2.123,22.0
0.0,0.0,0.0,0.0
0.0,0.0,0.0,0.0
82.475,8.465,-0.25,1.0
68.886,7.083,-0.6,1.0
0.0,0.0,0.0,0.0
115.596,11.955,1.525,21.0
0.0,0.0,0.0,0.0
82.167,8.524,0.149,1.0
0.0,0.0,0.0,0.0
0.0,0.0,0.0,0.0
0.0,0.0,0.0,0.0
115.68,12.108,1.416,4.0
82.221,8.619,0.539,3.0
82.041,8.613,0.072,1.0
0.0,0.0,0.0,0.0
0.0,0.0,0.0,0.0
42.885,4.523,-0.698,0.0
0.0,0.0,0.0,0.0
82.148,8.709,0.459,3.0
82.034,8.71,-0.007,150.0
0.0,0.0,0.0,0.0
0.0,0.0,0.0,0.0
41.344,4.41,-0.714,0.0
0.0,0.0,0.0,0.0
82.031,8.793,0.378,6.0
82.031,8.805,-0.088,12.0
0.0,0.0,0.0,0.0
0.0,0.0,0.0,0.0
39.974,4.309,-0.73,0.0
0.0,0.0,0.0,0.0
77.213,8.362,0.279,7.0
77.053,8.356,-0.16,9.0
0.0,0.0,0.0,0.0
0.0,0.0,0.0,0.0
38.479,4.19,-0.741,0.0
82.02,8.96,0.68,2.0
76.37,8.353,0.198,10.0
76.452,8.373,-0.237,8.0
0.0,0.0,0.0,0.0
0.0,0.0,0.0,0.0
0.0,0.0,0.0,0.0
76.94,8.486,0.558,2.0
75.759,8.364,0.118,7.0
75.839,8.383,-0.313,2.0
0.0,0.0,0.0,0.0
0.0,0.0,0.0,0.0
37.131,4.12,-0.793,0.0
75.596,8.413,0.469,8.0
75.434,8.404,0.038,9.0
75.279,8.396,-0.391,8.0
0.0,0.0,0.0,0.0
41.27,4.614,-0.69,0.0
35.239,3.945,-0.79,0.0
75.123,8.433,0.386,4.0
74.862,8.411,-0.041,13.0
68.813,7.74,-0.431,1.0
0.0,0.0,0.0,0.0
41.072,4.63,-0.73,1.0
34.075,3.846,-0.8,0.0
74.704,8.453,0.304,16.0
74.652,8.455,-0.122,21.0
68.899,7.812,-0.505,0.0
0.0,0.0,0.0,0.0
0.0,0.0,0.0,0.0
32.433,3.689,-0.797,0.0
74.594,8.506,0.222,149.0
0.0,0.0,0.0,0.0
0.0,0.0,0.0,0.0
0.0,0.0,0.0,0.0
37.658,4.31,-0.752,0.0
31.652,3.627,-0.813,0.0
71.706,8.236,0.134,0.0
71.597,8.23,-0.275,1.0
0.0,0.0,0.0,0.0
0.0,0.0,0.0,0.0
36.668,4.227,-0.773,0.0
30.672,3.539,-0.822,0.0
0.0,0.0,0.0,0.0
71.557,8.281,-0.354,2.0
0.0,0.0,0.0,0.0
41.897,4.857,-0.691,1.0
0.0,0.0,0.0,0.0
30.087,3.494,-0.84,0.0
0.0,0.0,0.0,0.0
71.784,8.36,-0.437,0.0
0.0,0.0,0.0,0.0
41.17,4.802,-0.726,0.0
33.987,3.968,-0.794,0.0
28.812,3.367,-0.838,0.0
0.0,0.0,0.0,0.0
68.876,8.069,-0.498,2.0
0.0,0.0,0.0,0.0
39.233,4.603,-0.736,0.0
32.731,3.844,-0.802,0.0
28.025,3.294,-0.847,0.0
0.0,0.0,0.0,0.0
68.993,8.127,-0.579,2.0
0.0,0.0,0.0,0.0
0.0,0.0,0.0,0.0
31.483,3.717,-0.808,0.0
27.123,3.205,-0.852,0.0
68.856,8.148,-0.263,0.0
0.0,0.0,0.0,0.0
0.0,0.0,0.0,0.0
36.886,4.373,-0.778,0.0
30.81,3.655,-0.826,0.0
26.333,3.127,-0.857,0.0
69.124,8.218,-0.344,0.0
0.0,0.0,0.0,0.0
42.364,5.042,-0.696,0.0
34.909,4.158,-0.777,0.0
29.84,3.556,-0.835,0.0
25.559,3.049,-0.862,0.0
69.058,8.246,-0.425,2.0
0.0,0.0,0.0,0.0
40.74,4.87,-0.717,0.0
33.133,3.963,-0.777,0.0
28.774,3.444,-0.839,0.0
24.775,2.967,-0.865,0.0
68.911,8.261,-0.505,5.0
0.0,0.0,0.0,0.0
38.288,4.594,-0.719,0.0
32.6,3.914,-0.803,1.0
27.857,3.346,-0.846,0.0
24.102,2.897,-0.87,0.0
68.935,8.293,-0.586,2.0
68.695,8.267,-0.979,2.0
37.515,4.517,-0.749,0.0
31.514,3.796,-0.813,0.0
27.041,3.259,-0.853,0.0
23.51,2.835,-0.876,0.0
0.0,0.0,0.0,0.0
0.0,0.0,0.0,0.0
0.0,0.0,0.0,0.0
30.6,3.697,-0.826,0.0
26.2,3.167,-0.857,0.0
22.012,2.662,-0.847,0.0
0.0,0.0,0.0,0.0
41.609,5.037,-0.691,0.0
35.026,4.241,-0.782,0.0
29.52,3.576,-0.832,0.0
25.465,3.086,-0.863,0.0
21.891,2.654,-0.868,0.0
68.684,8.331,-0.828,1.0
39.942,4.846,-0.71,0.0
32.95,3.999,-0.775,0.0
28.529,3.464,-0.837,0.0
24.641,2.993,-0.865,0.0
21.795,2.648,-0.89,1.0
68.759,8.357,-0.911,3.0
39.455,4.796,-0.749,0.0
32.362,3.935,-0.799,0.0
27.681,3.367,-0.845,0.0
23.966,2.916,-0.869,0.0
21.667,2.637,-0.911,0.0
68.749,8.368,-0.991,1.0
37.317,4.543,-0.752,0.0
31.483,3.834,-0.815,0.0
26.949,3.283,-0.855,0.0
23.482,2.861,-0.88,0.0
20.662,2.519,-0.893,0.0
0.0,0.0,0.0,0.0
35.819,4.366,-0.764,0.0
30.358,3.701,-0.822,0.0
25.824,3.149,-0.85,0.0
21.917,2.673,-0.847,0.0
20.291,2.476,-0.901,0.0
0.0,0.0,0.0,0.0
34.552,4.215,-0.778,0.0
29.526,3.602,-0.834,0.0
25.13,3.066,-0.857,0.0
21.839,2.665,-0.87,0.0
19.955,2.436,-0.909,0.0
39.643,4.837,-0.711,0.0
32.625,3.981,-0.773,0.0
28.321,3.456,-0.833,0.0
24.411,2.98,-0.861,0.0
21.787,2.66,-0.893,1.0
0.0,0.0,0.0,0.0
39.438,4.812,-0.754,0.0
32.181,3.927,-0.799,0.0
27.56,3.363,-0.842,0.0
23.792,2.904,-0.866,0.0
21.519,2.627,-0.907,0.0
18.846,2.301,-0.903,0.0
37.175,4.535,-0.753,0.0
31.068,3.79,-0.807,0.0
26.767,3.265,-0.849,0.0
23.418,2.857,-0.879,0.0
20.524,2.504,-0.889,0.0
18.381,2.243,-0.901,0.0
35.692,4.351,-0.764,0.0
30.106,3.67,-0.817,0.0
25.931,3.161,-0.852,0.0
21.861,2.665,-0.846,0.0
20.268,2.471,-0.901,0.0
18.142,2.212,-0.91,1.0
34.66,4.221,-0.781,0.0
29.274,3.564,-0.827,0.0
25.148,3.062,-0.855,0.0
21.801,2.654,-0.868,0.0
19.919,2.425,-0.908,0.0
17.905,2.18,-0.919,0.0
32.638,3.969,-0.772,0.0
28.476,3.462,-0.837,0.0
24.439,2.971,-0.858,0.0
21.763,2.646,-0.891,0.0
19.142,2.327,-0.894,0.0
17.355,2.11,-0.91,0.0
32.415,3.935,-0.803,0.0
27.616,3.351,-0.842,0.0
24.017,2.914,-0.87,0.0
21.542,2.614,-0.906,0.0
18.991,2.304,-0.908,0.0
17.096,2.074,-0.916,0.0
30.995,3.754,-0.802,0.0
26.795,3.245,-0.847,0.0
23.432,2.837,-0.875,0.0
20.603,2.494,-0.889,0.0
18.342,2.22,-0.897,0.0
16.824,2.036,-0.92,0.0
30.442,3.678,-0.821,0.0
25.999,3.14,-0.85,0.0
21.935,2.649,-0.843,0.0
20.254,2.445,-0.896,0.0
18.179,2.194,-0.909,0.0
16.434,1.984,-0.916,0.0
29.351,3.536,-0.823,0.0
25.309,3.048,-0.854,0.0
21.871,2.633,-0.863,0.0
19.993,2.406,-0.906,0.0
17.941,2.159,-0.916,0.0
16.259,1.956,-0.923,0.0
28.469,3.418,-0.828,0.0
24.667,2.961,-0.858,0.0
21.752,2.61,-0.882,1.0
19.137,2.296,-0.887,0.0
17.495,2.098,-0.912,0.0
16.022,1.921,-0.927,0.0
27.732,3.318,-0.836,0.0
24.138,2.886,-0.865,0.0
21.697,2.594,-0.902,0.0
19.076,2.28,-0.904,0.0
17.199,2.055,-0.914,0.0
15.733,1.879,-0.926,0.0
27.012,3.218,-0.842,0.0
23.646,2.816,-0.872,0.0
20.913,2.49,-0.891,0.0
18.811,2.239,-0.911,0.0
16.891,2.009,-0.915,0.0
15.497,1.843,-0.928,0.0
26.264,3.116,-0.845,0.0
22.677,2.689,-0.859,0.0
20.4,2.417,-0.89,0.0
18.339,2.172,-0.907,0.0
16.641,1.97,-0.918,1.0
15.24,1.804,-0.928,0.0
25.697,3.034,-0.852,0.0
21.916,2.586,-0.852,0.0
20.23,2.386,-0.902,0.0
18.052,2.128,-0.91,0.0
16.504,1.945,-0.927,0.0
14.982,1.765,-0.927,0.0
24.965,2.932,-0.852,0.0
21.808,2.56,-0.869,0.0
19.307,2.265,-0.88,0.0
17.585,2.062,-0.904,0.0
16.144,1.892,-0.922,0.0
14.808,1.735,-0.931,0.0
24.431,2.853,-0.857,0.0
21.796,2.544,-0.889,1.0
19.291,2.25,-0.897,1.0
17.362,2.024,-0.909,0.0
15.89,1.852,-0.922,0.0
14.627,1.704,-0.933,0.0
23.996,2.786,-0.864,0.0
21.631,2.51,-0.902,0.0
19.095,2.214,-0.906,1.0
17.16,1.989,-0.914,1.0
15.676,1.816,-0.924,0.0
14.473,1.675,-0.937,0.0
23.562,2.718,-0.87,0.0
20.595,2.374,-0.878,0.0
18.703,2.155,-0.904,0.0
16.987,1.956,-0.92,0.0
15.474,1.78,-0.926,0.0
14.337,1.649,-0.94,0.0
23.332,2.674,-0.882,0.0
20.455,2.342,-0.89,0.0
18.528,2.12,-0.912,0.0
16.69,1.908,-0.918,0.0
15.203,1.737,-0.924,0.0
14.171,1.618,-0.942,0.0
21.887,2.491,-0.846,0.0
19.882,2.26,-0.882,0.0
18.195,2.067,-0.911,0.0
16.455,1.868,-0.919,0.0
15.027,1.705,-0.925,0.0
14.01,1.588,-0.943,0.0
21.85,2.468,-0.863,3.0
19.596,2.211,-0.885,0.0
17.866,2.014,-0.909,0.0
16.247,1.83,-0.921,0.0
14.886,1.676,-0.929,0.0
0.0,0.0,0.0,0.0
21.828,2.446,-0.879,6.0
19.549,2.189,-0.899,2.0
17.693,1.979,-0.914,1.0
16.018,1.79,-0.921,0.0
14.741,1.646,-0.931,0.0
13.547,1.512,-0.934,0.0
21.802,2.423,-0.895,3.0
19.369,2.15,-0.905,2.0
17.636,1.956,-0.925,0.0
15.811,1.752,-0.921,0.0
14.58,1.614,-0.933,0.0
13.519,1.495,-0.942,0.0
21.713,2.392,-0.908,1.0
19.087,2.101,-0.907,0.0
17.273,1.899,-0.919,0.0
15.702,1.725,-0.926,0.0
14.417,1.582,-0.933,0.0
13.394,1.468,-0.943,0.0
20.803,2.271,-0.885,0.0
18.692,2.038,-0.901,0.0
16.95,1.846,-0.914,0.0
15.509,1.688,-0.926,0.0
14.336,1.558,-0.938,0.0
13.213,1.435,-0.94,0.0
20.514,2.219,-0.887,0.0
18.637,2.013,-0.911,0.0
16.74,1.806,-0.914,0.0
15.278,1.647,-0.922,0.0
14.244,1.534,-0.941,0.0
13.191,1.419,-0.947,0.0
20.082,2.15,-0.881,0.0
18.368,1.964,-0.91,0.0
16.574,1.771,-0.915,0.0
15.161,1.618,-0.925,0.0
14.092,1.502,-0.94,0.0
12.97,1.381,-0.939,0.0
19.848,2.103,-0.884,0.0
17.868,1.891,-0.897,0.0
16.428,1.737,-0.918,0.0
14.991,1.583,-0.924,0.0
13.939,1.47,-0.939,0.0
12.908,1.36,-0.943,0.0
19.603,2.055,-0.884,0.0
17.785,1.862,-0.903,1.0
16.257,1.7,-0.918,0.0
14.901,1.556,-0.927,0.0
0.0,0.0,0.0,0.0
12.749,1.328,-0.938,0.0
19.516,2.024,-0.891,0.0
17.751,1.838,-0.911,1.0
16.086,1.663,-0.917,0.0
14.796,1.528,-0.929,0.0
0.0,0.0,0.0,0.0
12.68,1.306,-0.94,0.0
19.391,1.987,-0.896,0.0
17.689,1.81,-0.917,1.0
16.012,1.636,-0.921,0.0
14.702,1.5,-0.931,0.0
13.549,1.381,-0.934,0.0
12.602,1.283,-0.941,0.0
19.274,1.952,-0.9,0.0
17.622,1.782,-0.923,0.0
15.895,1.605,-0.922,0.0
14.608,1.473,-0.932,0.0
13.402,1.349,-0.931,0.0
12.533,1.26,-0.942,0.0
19.175,1.918,-0.904,0.0
17.485,1.746,-0.923,0.0
15.819,1.577,-0.925,0.0
14.51,1.445,-0.932,0.0
13.509,1.343,-0.944,0.0
12.479,1.239,-0.943,0.0
0.0,0.0,0.0,0.0
17.312,1.707,-0.922,0.0
15.685,1.544,-0.924,0.0
14.463,1.421,-0.935,0.0
13.454,1.32,-0.946,0.0
12.403,1.215,-0.942,0.0
18.864,1.838,-0.905,0.0
17.118,1.665,-0.918,0.0
15.619,1.517,-0.926,0.0
14.408,1.397,-0.937,0.0
13.311,1.288,-0.941,0.0
12.319,1.191,-0.94,0.0
18.677,1.795,-0.903,0.0
17.016,1.633,-0.918,0.0
15.558,1.49,-0.927,0.0
14.323,1.369,-0.936,0.0
13.271,1.267,-0.942,0.0
12.286,1.171,-0.942,0.0
18.798,1.781,-0.915,0.0
16.99,1.607,-0.922,0.0
15.428,1.456,-0.924,0.0
14.278,1.345,-0.937,0.0
13.244,1.246,-0.944,0.0
12.234,1.149,-0.941,0.0
18.652,1.742,-0.913,0.0
16.853,1.571,-0.92,0.0
15.377,1.43,-0.925,0.0
14.271,1.325,-0.941,0.0
13.16,1.22,-0.942,0.0
12.193,1.128,-0.941,0.0
18.327,1.685,-0.901,0.0
16.812,1.543,-0.921,0.0
15.273,1.399,-0.923,0.0
14.226,1.3,-0.941,0.0
13.101,1.195,-0.94,0.0
12.151,1.107,-0.941,0.0
18.427,1.669,-0.91,0.0
16.806,1.519,-0.924,0.0
15.282,1.378,-0.926,0.0
14.27,1.284,-0.946,0.0
13.076,1.174,-0.941,0.0
12.131,1.087,-0.941,0.0
18.297,1.63,-0.907,0.0
16.636,1.479,-0.918,0.0
15.229,1.351,-0.925,0.0
14.156,1.253,-0.941,0.0
13.059,1.154,-0.942,0.0
12.125,1.069,-0.942,0.0
18.256,1.6,-0.907,0.0
16.652,1.456,-0.92,0.0
15.243,1.33,-0.928,0.0
14.142,1.231,-0.942,0.0
13.108,1.138,-0.946,0.0
12.097,1.048,-0.941,0.0
18.271,1.574,-0.909,0.0
16.649,1.431,-0.922,0.0
15.181,1.301,-0.925,0.0
14.202,1.214,-0.947,0.0
13.061,1.114,-0.944,0.0
12.117,1.032,-0.944,0.0
18.519,1.567,-0.923,0.0
16.533,1.395,-0.916,0.0
15.217,1.281,-0.928,0.0
14.255,1.197,-0.951,0.0
13.071,1.095,-0.945,0.0
12.098,1.012,-0.942,0.0
18.272,1.518,-0.91,0.0
16.638,1.379,-0.922,0.0
15.185,1.255,-0.926,0.0
14.169,1.168,-0.945,0.0
13.04,1.073,-0.942,0.0
12.116,0.994,-0.943,0.0
0.0,0.0,0.0,0.0
16.63,1.353,-0.921,0.0
15.188,1.232,-0.926,0.0
14.212,1.15,-0.947,0.0
13.095,1.057,-0.945,0.0
12.104,0.974,-0.942,0.0
18.552,1.484,-0.923,0.0
16.652,1.328,-0.921,0.0
15.22,1.211,-0.926,0.0
14.209,1.127,-0.945,0.0
13.071,1.034,-0.942,0.0
12.159,0.959,-0.945,0.0
18.554,1.454,-0.921,0.0
16.742,1.309,-0.924,0.0
15.231,1.187,-0.925,0.0
14.305,1.112,-0.95,0.0
13.008,1.008,-0.936,0.0
12.151,0.939,-0.942,0.0
0.0,0.0,0.0,0.0
16.785,1.285,-0.923,0.0
15.257,1.165,-0.924,0.0
14.356,1.093,-0.951,0.0
13.117,0.996,-0.942,0.0
12.233,0.926,-0.946,0.0
0.0,0.0,0.0,0.0
16.836,1.262,-0.923,0.0
15.366,1.149,-0.927,0.0
14.228,1.06,-0.939,0.0
13.179,0.979,-0.943,0.0
12.26,0.908,-0.945,0.0
0.0,0.0,0.0,0.0
16.901,1.24,-0.922,0.0
15.431,1.129,-0.927,0.0
14.294,1.042,-0.94,0.0
13.292,0.966,-0.948,0.0
12.328,0.893,-0.947,0.0
0.0,0.0,0.0,0.0
17.018,1.221,-0.924,0.0
15.467,1.106,-0.925,0.0
14.351,1.023,-0.939,0.0
13.323,0.947,-0.946,0.0
12.365,0.876,-0.946,0.0
0.0,0.0,0.0,0.0
17.093,1.198,-0.922,0.0
15.642,1.093,-0.93,0.0
14.474,1.008,-0.942,0.0
13.314,0.924,-0.94,0.0
12.419,0.859,-0.946,0.0
19.307,1.326,-0.928,0.0
17.091,1.17,-0.915,0.0
15.768,1.075,-0.932,0.0
14.597,0.992,-0.944,0.0
13.449,0.911,-0.944,0.0
12.466,0.841,-0.944,0.0
19.308,1.294,-0.92,0.0
0.0,0.0,0.0,0.0
0.0,0.0,0.0,0.0
14.583,0.967,-0.937,0.0
13.486,0.891,-0.941,0.0
12.565,0.828,-0.946,0.0
19.406,1.269,-0.916,0.0
17.434,1.136,-0.919,0.0
0.0,0.0,0.0,0.0
14.652,0.947,-0.935,0.0
13.739,0.885,-0.952,0.0
12.678,0.814,-0.949,0.0
19.476,1.241,-0.91,0.0
0.0,0.0,0.0,0.0
0.0,0.0,0.0,0.0
14.833,0.935,-0.939,0.0
13.819,0.867,-0.951,0.0
12.799,0.8,-0.951,0.0
19.652,1.22,-0.908,0.0
0.0,0.0,0.0,0.0
0.0,0.0,0.0,0.0
14.962,0.918,-0.939,0.0
13.893,0.849,-0.948,0.0
12.859,0.783,-0.948,0.0
19.704,1.19,-0.899,0.0
0.0,0.0,0.0,0.0
16.231,0.972,-0.918,0.0
15.037,0.897,-0.934,1.0
13.971,0.83,-0.945,0.0
12.937,0.765,-0.946,0.0
20.007,1.175,-0.901,0.0
0.0,0.0,0.0,0.0
16.535,0.963,-0.925,0.0
15.101,0.875,-0.929,1.0
14.002,0.808,-0.938,0.0
13.095,0.753,-0.949,0.0
20.333,1.16,-0.902,0.0
18.481,1.05,-0.92,0.0
16.597,0.939,-0.917,0.0
15.157,0.853,-0.922,0.0
14.242,0.798,-0.944,0.0
13.21,0.737,-0.948,0.0
0.0,0.0,0.0,0.0
0.0,0.0,0.0,0.0
16.87,0.926,-0.92,0.0
15.355,0.839,-0.923,0.0
14.459,0.786,-0.948,0.0
13.349,0.723,-0.948,0.0
21.773,1.169,-0.934,0.0
18.975,1.014,-0.917,0.0
17.071,0.908,-0.918,0.0
15.592,0.826,-0.925,0.0
14.565,0.768,-0.944,0.0
13.425,0.704,-0.943,0.0
21.82,1.136,-0.919,0.0
19.091,0.989,-0.908,0.0
17.404,0.897,-0.922,0.0
15.944,0.818,-0.933,1.0
14.707,0.751,-0.941,0.0
13.538,0.688,-0.94,0.0
21.877,1.102,-0.904,0.0
20.086,1.007,-0.939,0.0
17.616,0.879,-0.919,0.0
16.282,0.808,-0.939,1.0
14.888,0.735,-0.94,0.0
13.965,0.686,-0.957,0.0
20.269,0.988,-0.82,0.0
20.192,0.979,-0.926,4.0
20.225,0.975,-1.037,0.0
16.364,0.785,-0.93,0.0
15.101,0.721,-0.94,0.0
14.106,0.67,-0.954,0.0
20.244,0.954,-0.801,150.0
20.196,0.946,-0.908,22.0
20.19,0.941,-1.017,2.0
16.633,0.771,-0.929,0.0
15.305,0.705,-0.938,0.0
14.316,0.656,-0.955,0.0
20.181,0.918,-0.779,162.0
20.222,0.914,-0.89,61.0
0.0,0.0,0.0,0.0
20.207,0.903,-1.11,2.0
15.488,0.688,-0.934,0.0
14.43,0.637,-0.948,0.0
20.191,0.885,-0.76,159.0
20.223,0.881,-0.87,35.0
20.043,0.868,-0.97,1.0
20.222,0.871,-1.09,0.0
15.847,0.678,-0.94,0.0
14.591,0.621,-0.944,0.0
20.242,0.854,-0.741,6.0
20.287,0.851,-0.852,3.0
19.538,0.815,-0.926,0.0
17.604,0.729,-0.931,0.0
16.116,0.663,-0.939,0.0
14.815,0.606,-0.943,0.0
24.676,1.002,-0.878,0.0
22.378,0.902,-0.916,0.0
20.143,0.807,-0.933,2.0
17.923,0.714,-0.928,0.0
16.362,0.647,-0.935,0.0
15.072,0.593,-0.943,0.0
24.982,0.974,-0.861,0.0
22.607,0.876,-0.901,0.0
20.226,0.778,-0.914,0.0
18.259,0.698,-0.925,0.0
16.637,0.632,-0.932,0.0
15.324,0.578,-0.941,0.0
26.213,0.98,-0.874,1.0
23.084,0.857,-0.893,0.0
20.66,0.762,-0.91,0.0
18.627,0.682,-0.922,0.0
16.92,0.615,-0.928,0.0
15.57,0.562,-0.938,0.0
27.501,0.985,-0.885,0.0
23.815,0.846,-0.893,0.0
21.178,0.747,-0.907,0.0
18.884,0.662,-0.912,0.0
17.362,0.604,-0.931,0.0
15.993,0.552,-0.944,0.0
28.301,0.968,-0.876,0.0
24.588,0.835,-0.892,0.0
22.069,0.744,-0.918,0.0
19.541,0.654,-0.919,0.0
17.914,0.595,-0.939,0.0
16.26,0.536,-0.939,0.0
29.441,0.962,-0.874,0.0
25.298,0.82,-0.886,0.0
22.468,0.723,-0.907,0.0
20.112,0.642,-0.921,0.0
18.183,0.576,-0.93,0.0
16.579,0.521,-0.936,0.0
30.254,0.942,-0.86,1.0
26.187,0.809,-0.884,0.0
22.942,0.703,-0.896,0.0
20.562,0.625,-0.915,0.0
18.614,0.561,-0.927,0.0
16.931,0.506,-0.934,0.0
31.645,0.937,-0.858,1.0
26.771,0.786,-0.868,0.0
23.782,0.692,-0.897,0.0
21.176,0.611,-0.914,0.0
18.939,0.542,-0.918,0.0
17.295,0.491,-0.93,0.0
32.429,0.912,-0.835,1.0
28.39,0.791,-0.882,0.0
24.675,0.681,-0.897,0.0
21.924,0.6,-0.916,0.0
19.726,0.535,-0.929,0.0
17.881,0.481,-0.937,0.0
33.741,0.898,-0.822,0.0
29.325,0.773,-0.87,0.0
25.627,0.67,-0.896,0.0
22.526,0.583,-0.909,0.0
20.233,0.519,-0.924,0.0
18.273,0.464,-0.931,0.0
35.584,0.895,-0.816,0.0
30.981,0.772,-0.875,1.0
26.345,0.65,-0.883,0.0
23.093,0.564,-0.898,0.0
20.799,0.503,-0.919,0.0
18.707,0.448,-0.926,0.0
37.159,0.881,-0.798,0.0
31.967,0.75,-0.855,1.0
27.851,0.647,-0.892,0.0
24.16,0.555,-0.904,0.0
21.431,0.487,-0.915,0.0
19.403,0.437,-0.932,0.0
40.503,0.902,-0.81,0.0
32.991,0.727,-0.834,0.0
28.782,0.628,-0.879,0.0
24.997,0.539,-0.898,0.0
22.361,0.477,-0.921,0.0
19.859,0.419,-0.923,0.0
0.0,0.0,0.0,0.0
35.064,0.724,-0.833,0.0
30.15,0.616,-0.875,1.0
26.141,0.528,-0.899,0.0
22.857,0.456,-0.907,0.0
20.504,0.404,-0.921,0.0
42.732,0.834,-0.724,0.0
37.284,0.719,-0.828,0.0
31.638,0.603,-0.869,1.0
26.847,0.505,-0.881,0.0
23.724,0.441,-0.904,0.0
20.159,0.37,-0.874,2.0
0.0,0.0,0.0,0.0
38.359,0.688,-0.791,0.0
33.724,0.597,-0.872,2.0
28.489,0.498,-0.89,0.0
24.764,0.427,-0.904,0.0
20.126,0.343,-0.84,3.0
0.0,0.0,0.0,0.0
0.0,0.0,0.0,0.0
34.763,0.569,-0.843,0.0
29.741,0.48,-0.88,0.0
25.946,0.413,-0.904,0.0
20.193,0.317,-0.809,0.0
0.0,0.0,0.0,0.0
0.0,0.0,0.0,0.0
37.013,0.558,-0.836,0.0
20.189,0.3,-0.564,2.0
20.209,0.296,-0.67,8.0
20.226,0.292,-0.777,17.0
0.0,0.0,0.0,0.0
20.218,0.283,-0.317,0.0
20.222,0.279,-0.423,10.0
20.202,0.274,-0.53,25.0
20.215,0.27,-0.637,26.0
20.208,0.266,-0.742,25.0
0.0,0.0,0.0,0.0
20.199,0.257,-0.282,11.0
20.181,0.253,-0.388,24.0
20.18,0.249,-0.495,21.0
20.196,0.245,-0.601,31.0
20.209,0.241,-0.707,32.0
20.201,0.237,-0.142,0.0
20.197,0.233,-0.247,22.0
20.18,0.228,-0.352,28.0
20.18,0.224,-0.46,24.0
20.191,0.22,-0.566,32.0
20.21,0.217,-0.672,30.0
20.227,0.213,-0.107,2.0
20.174,0.208,-0.212,18.0
20.173,0.204,-0.317,29.0
20.17,0.2,-0.424,34.0
20.182,0.196,-0.53,28.0
20.215,0.193,-0.637,22.0
20.223,0.189,-0.071,17.0
20.182,0.185,-0.176,18.0
20.165,0.181,-0.281,33.0
20.181,0.177,-0.388,29.0
20.194,0.173,-0.494,37.0
20.204,0.169,-0.599,8.0
20.219,0.166,-0.035,25.0
20.186,0.162,-0.14,29.0
20.175,0.158,-0.245,33.0
20.186,0.154,-0.352,30.0
20.181,0.15,-0.457,14.0
32.073,0.233,-0.893,0.0
20.184,0.143,0.001,28.0
20.183,0.139,-0.103,37.0
20.181,0.135,-0.208,27.0
20.187,0.132,-0.315,27.0
20.21,0.128,-0.42,1.0
32.865,0.203,-0.855,0.0
20.195,0.121,0.038,40.0
20.184,0.118,-0.066,35.0
20.179,0.114,-0.17,29.0
20.201,0.111,-0.278,24.0
41.893,0.222,-0.794,2.0
0.0,0.0,0.0,0.0
20.204,0.1,0.076,39.0
20.198,0.097,-0.028,28.0
20.193,0.093,-0.133,29.0
20.202,0.089,-0.239,12.0
0.0,0.0,0.0,0.0
37.548,0.154,-0.836,0.0
20.152,0.079,0.114,28.0
20.201,0.076,0.01,30.0
20.203,0.073,-0.094,26.0
20.2,0.069,-0.201,14.0
20.275,0.066,-0.307,0.0
20.246,0.062,-0.411,0.0
20.143,0.059,0.152,28.0
20.21,0.056,0.048,16.0
20.251,0.053,-0.056,8.0
20.241,0.049,-0.163,41.0
20.268,0.046,-0.268,71.0
20.268,0.043,-0.373,142.0
20.137,0.04,0.191,29.0
20.148,0.036,0.087,28.0
20.243,0.033,-0.016,152.0
20.259,0.03,-0.123,151.0
20.267,0.027,-0.228,151.0
20.272,0.024,-0.333,150.0
20.126,0.021,0.23,28.0
20.128,0.018,0.126,28.0
20.251,0.015,0.022,151.0
20.267,0.012,-0.084,150.0
20.232,0.009,-0.188,16.0
20.238,0.006,-0.293,7.0
20.131,0.003,0.27,27.0
20.115,0.0,0.166,28.0
20.135,-0.002,0.062,29.0
20.132,-0.005,-0.043,17.0
20.18,-0.008,-0.148,24.0
20.161,-0.01,-0.252,13.0
20.123,-0.013,0.309,33.0
20.11,-0.016,0.205,33.0
20.119,-0.019,0.102,37.0
20.128,-0.022,-0.004,33.0
20.161,-0.024,-0.108,30.0
20.142,-0.027,-0.211,14.0
20.126,-0.03,0.35,32.0
20.116,-0.033,0.246,29.0
20.118,-0.035,0.142,30.0
20.13,-0.038,0.036,38.0
20.148,-0.04,-0.067,30.0
20.146,-0.043,-0.171,34.0
20.116,-0.046,0.39,32.0
20.115,-0.048,0.286,29.0
20.114,-0.051,0.182,28.0
20.128,-0.053,0.076,40.0
20.133,-0.056,-0.027,34.0
20.137,-0.058,-0.131,33.0
20.125,-0.061,0.431,29.0
20.113,-0.063,0.326,29.0
20.131,-0.066,0.223,26.0
20.117,-0.068,0.117,29.0
20.127,-0.07,0.013,35.0
20.137,-0.072,-0.09,32.0
20.128,-0.075,0.471,27.0
20.119,-0.077,0.367,33.0
20.119,-0.08,0.263,27.0
20.126,-0.082,0.157,26.0
20.137,-0.084,0.053,38.0
20.139,-0.086,-0.049,27.0
20.134,-0.089,0.512,22.0
20.121,-0.091,0.408,26.0
20.126,-0.093,0.304,25.0
20.101,-0.095,0.198,20.0
20.138,-0.097,0.095,31.0
20.127,-0.099,-0.008,29.0
20.124,-0.102,0.553,18.0
20.112,-0.104,0.449,18.0
20.124,-0.106,0.346,20.0
20.107,-0.107,0.24,19.0
20.127,-0.109,0.136,18.0
20.156,-0.112,0.033,31.0
20.153,-0.114,0.595,14.0
20.139,-0.116,0.491,17.0
20.131,-0.118,0.387,16.0
20.123,-0.119,0.281,16.0
20.147,-0.121,0.178,17.0
20.137,-0.123,0.074,18.0
53.511,-0.334,1.691,36.0
20.158,-0.127,0.533,11.0
20.189,-0.129,0.429,20.0
20.168,-0.131,0.323,17.0
20.169,-0.132,0.219,16.0
20.172,-0.134,0.115,15.0
53.52,-0.362,1.801,123.0
20.183,-0.138,0.575,10.0
20.178,-0.139,0.471,17.0
20.234,-0.141,0.366,25.0
20.205,-0.143,0.261,17.0
20.205,-0.144,0.157,14.0
58.294,-0.424,2.083,197.0
53.5,-0.393,1.636,58.0
20.164,-0.149,0.512,7.0
20.263,-0.151,0.408,28.0
20.252,-0.152,0.304,15.0
58.319,-0.443,0.576,16.0
58.238,-0.45,2.202,255.0
53.507,-0.417,1.747,92.0
53.511,-0.42,1.471,6.0
20.154,-0.159,0.448,17.0
53.479,-0.426,0.915,13.0
66.528,-0.534,0.795,19.0
58.315,-0.475,2.325,255.0
53.531,-0.439,1.859,150.0
53.505,-0.441,1.582,126.0
20.14,-0.167,0.489,8.0
20.18,-0.168,0.386,13.0
64.354,-0.541,0.902,29.0
58.308,-0.497,2.446,255.0
58.26,-0.499,2.143,255.0
53.505,-0.461,1.692,87.0
20.146,-0.174,0.531,9.0
20.175,-0.175,0.428,24.0
53.479,-0.468,0.861,39.0
58.305,-0.517,2.568,255.0
58.308,-0.519,2.267,255.0
53.509,-0.479,1.804,114.0
53.493,-0.48,1.523,25.0
20.132,-0.181,0.469,12.0
20.188,-0.182,0.367,22.0
58.301,-0.535,2.69,255.0
58.306,-0.537,2.389,255.0
58.314,-0.538,2.088,150.0
53.489,-0.495,1.634,78.0
20.135,-0.187,0.511,13.0
20.169,-0.188,0.408,24.0
58.357,-0.551,2.813,162.0
58.307,-0.552,2.51,255.0
58.226,-0.552,2.207,255.0
53.504,-0.509,1.746,72.0
53.505,-0.51,1.47,17.0
20.134,-0.192,0.449,15.0
45.833,-0.443,2.304,49.0
58.309,-0.565,2.631,255.0
58.287,-0.565,2.329,255.0
53.516,-0.52,1.857,150.0
53.486,-0.52,1.58,56.0
20.142,-0.196,0.491,15.0
45.456,-0.448,2.38,15.0
58.252,-0.575,2.75,255.0
58.301,-0.576,2.45,255.0
58.247,-0.576,2.142,255.0
53.498,-0.529,1.692,40.0
20.154,-0.199,0.533,9.0
45.358,-0.454,2.469,29.0
45.922,-0.46,2.262,60.0
58.299,-0.584,2.571,255.0
58.312,-0.584,2.265,255.0
53.515,-0.536,1.802,91.0
53.435,-0.535,1.524,9.0
45.127,-0.456,2.549,44.0
45.464,-0.46,2.333,21.0
58.235,-0.589,2.688,255.0
58.307,-0.589,2.383,255.0
58.329,-0.589,2.083,152.0
53.456,-0.539,1.633,10.0
52.84,-0.539,3.093,19.0
45.5,-0.463,2.428,17.0
58.335,-0.593,2.811,151.0
58.307,-0.592,2.502,255.0
58.211,-0.59,2.197,255.0
53.494,-0.541,1.743,17.0
52.896,-0.541,3.204,47.0
45.143,-0.461,2.501,39.0
45.691,-0.465,2.295,44.0
58.234,-0.592,2.618,255.0
58.301,-0.591,2.319,255.0
53.531,-0.542,1.853,150.0
60.507,-0.619,3.79,12.0
45.097,-0.46,2.591,26.0
45.474,-0.462,2.377,18.0
58.243,-0.591,2.737,255.0
58.305,-0.59,2.438,255.0
58.256,-0.587,2.135,255.0
106.011,-1.081,6.855,2.0
52.825,-0.537,3.142,56.0
45.323,-0.458,2.46,24.0
45.932,-0.463,2.251,61.0
58.307,-0.586,2.556,255.0
58.226,-0.583,2.251,255.0
52.302,-0.529,3.487,21.0
52.954,-0.533,3.256,26.0
45.118,-0.453,2.54,40.0
45.453,-0.454,2.318,22.0
58.212,-0.579,2.667,255.0
58.301,-0.577,2.37,255.0
52.316,-0.523,3.594,55.0
53.147,-0.529,3.375,4.0
52.839,-0.523,3.081,21.0
45.462,-0.448,2.41,19.0
58.353,-0.572,2.791,168.0
58.304,-0.568,2.487,255.0
52.324,-0.515,3.7,7.0
106.079,-1.039,6.948,3.0
52.806,-0.514,3.184,50.0
45.17,-0.437,2.484,53.0
45.873,-0.441,2.284,49.0
58.305,-0.558,2.602,255.0
38.678,-0.374,2.811,37.0
52.317,-0.502,3.53,21.0
52.852,-0.504,3.291,26.0
64.304,-0.609,3.664,13.0
45.346,-0.426,2.347,25.0
58.236,-0.544,2.712,255.0
44.571,-0.421,3.326,27.0
52.314,-0.49,3.631,58.0
52.789,-0.491,3.39,17.0
64.305,-0.593,3.788,28.0
45.212,-0.413,2.428,48.0
58.342,-0.53,2.83,20.0
44.566,-0.409,3.413,44.0
52.323,-0.476,3.734,21.0
64.31,-0.58,4.254,66.0
64.29,-0.575,3.91,8.0
64.307,-0.57,3.576,16.0
45.781,-0.402,2.308,56.0
52.332,-0.464,4.109,6.0
52.352,-0.461,3.836,10.0
64.304,-0.56,4.376,67.0
52.772,-0.455,3.311,42.0
64.309,-0.549,3.7,91.0
45.261,-0.383,2.368,41.0
52.312,-0.447,4.207,9.0
52.345,-0.442,3.935,26.0
52.385,-0.438,3.664,48.0
52.732,-0.436,3.408,67.0
64.328,-0.526,3.821,64.0
45.439,-0.368,2.463,38.0
52.314,-0.428,4.306,61.0
44.54,-0.36,3.432,16.0
52.37,-0.418,3.762,26.0
52.715,-0.416,3.506,84.0
52.809,-0.411,3.236,21.0
45.574,-0.35,2.555,41.0
52.314,-0.406,4.404,56.0
46.832,-0.359,3.697,3.0
52.368,-0.396,3.859,10.0
52.718,-0.393,3.603,75.0
52.863,-0.389,3.337,26.0
45.584,-0.331,2.64,10.0
52.326,-0.383,4.502,16.0
44.331,-0.32,3.581,18.0
44.495,-0.316,3.361,4.0
52.733,-0.37,3.701,38.0
53.21,-0.367,3.456,46.0
105.501,-0.716,6.302,6.0
38.556,-0.264,3.388,46.0
44.524,-0.3,3.678,14.0
43.989,-0.291,3.403,18.0
52.723,-0.343,3.796,20.0
53.243,-0.341,3.554,17.0
104.104,-0.654,6.406,23.0
51.303,-0.325,4.601,16.0
61.06,-0.38,5.154,5.0
46.833,-0.286,3.707,20.0
38.608,-0.231,2.848,36.0
58.388,-0.342,4.002,58.0
58.495,-0.336,3.703,34.0
51.321,-0.298,4.694,7.0
42.144,-0.239,3.632,3.0
58.002,-0.323,4.692,8.0
38.587,-0.209,2.914,42.0
58.349,-0.31,4.1,68.0
58.492,-0.303,3.803,13.0
31.069,-0.162,2.895,31.0
38.576,-0.197,3.391,26.0
57.966,-0.289,4.79,31.0
38.548,-0.187,2.977,51.0
58.371,-0.276,4.201,7.0
53.29,-0.245,3.555,51.0
31.038,-0.144,2.946,46.0
38.577,-0.174,3.457,40.0
57.92,-0.253,4.885,16.0
38.533,-0.163,3.042,32.0
52.699,-0.216,3.882,3.0
53.349,-0.211,3.649,42.0
31.004,-0.124,2.995,41.0
38.626,-0.149,3.526,9.0
42.828,-0.16,3.683,5.0
43.027,-0.154,3.468,3.0
52.686,-0.182,3.968,10.0
53.452,-0.177,3.744,30.0
31.002,-0.104,3.046,38.0
42.949,-0.137,3.992,5.0
57.911,-0.177,5.076,7.0
56.997,-0.166,4.687,6.0
38.552,-0.107,2.966,16.0
53.569,-0.14,3.838,28.0
30.98,-0.082,3.094,17.0
31.034,-0.078,2.935,9.0
57.885,-0.137,5.167,20.0
42.845,-0.094,3.592,4.0
38.531,-0.079,3.027,29.0
53.621,-0.102,3.928,37.0
51.627,-0.099,5.24,8.0
30.993,-0.055,2.981,32.0
51.638,-0.084,4.691,12.0
0.0,0.0,0.0,0.0
38.549,-0.05,3.089,6.0
66.688,-0.077,4.99,18.0
45.968,-0.054,4.739,4.0
30.973,-0.031,3.027,39.0
43.025,-0.037,3.976,3.0
44.408,-0.031,3.863,3.0
42.893,-0.023,3.503,3.0
68.371,-0.026,5.221,16.0
46.01,-0.018,4.814,5.0
30.922,-0.007,3.07,42.0
44.762,-0.003,4.205,7.0
40.415,0.003,3.578,11.0
62.044,0.015,5.162,3.0
52.696,0.021,4.104,9.0
36.308,0.014,3.854,3.0
30.853,0.017,3.11,38.0
44.777,0.032,4.274,2.0
51.144,0.046,4.603,8.0
53.69,0.057,4.545,3.0
52.684,0.064,4.18,21.0
30.696,0.037,3.304,5.0
30.791,0.043,3.148,36.0
44.927,0.07,4.353,4.0
44.782,0.078,4.095,1.0
40.433,0.077,3.481,4.0
52.732,0.109,4.259,15.0
30.638,0.064,3.342,41.0
30.751,0.069,3.188,39.0
30.964,0.075,3.044,9.0
44.745,0.116,4.155,3.0
53.736,0.15,4.702,5.0
67.1,0.198,5.513,15.0
30.608,0.091,3.381,56.0
30.725,0.097,3.229,32.0
30.965,0.103,3.087,46.0
45.818,0.16,4.318,24.0
53.671,0.198,4.77,22.0
45.793,0.176,3.825,25.0
30.548,0.118,3.417,43.0
39.946,0.162,4.252,3.0
30.949,0.131,3.127,34.0
52.3,0.23,4.998,5.0
45.775,0.21,4.129,14.0
45.259,0.216,3.84,44.0
30.499,0.146,3.451,41.0
37.005,0.184,3.988,2.0
30.955,0.16,3.169,10.0
60.661,0.325,5.877,19.0
53.526,0.297,4.898,43.0
0.0,0.0,0.0,0.0
30.48,0.175,3.489,28.0
37.055,0.22,4.041,8.0
30.956,0.189,3.208,4.0
30.94,0.195,3.037,2.0
42.091,0.274,3.905,5.0
45.748,0.306,3.998,5.0
30.505,0.205,3.531,14.0
48.66,0.336,5.368,2.0
30.948,0.22,3.246,2.0
36.342,0.265,3.612,5.0
45.824,0.343,4.307,5.0
45.788,0.352,4.057,4.0
53.231,0.412,6.226,28.0
40.014,0.317,4.463,4.0
36.798,0.298,3.904,7.0
30.933,0.256,3.111,1.0
45.819,0.389,4.361,31.0
58.642,0.509,5.264,9.0
52.449,0.459,6.197,10.0
40.415,0.361,4.555,3.0
37.098,0.339,3.979,8.0
30.934,0.288,3.147,2.0
40.317,0.384,3.883,6.0
54.023,0.525,4.912,5.0
0.0,0.0,0.0,0.0
36.296,0.362,4.132,2.0
30.971,0.315,3.357,33.0
45.984,0.477,4.729,16.0
40.334,0.426,3.929,7.0
40.411,0.435,3.718,39.0
52.58,0.57,6.331,7.0
53.816,0.594,6.185,6.0
30.948,0.348,3.388,34.0
30.931,0.353,3.215,15.0
52.603,0.612,5.182,16.0
40.332,0.477,3.754,54.0
52.609,0.628,6.391,2.0
31.048,0.376,3.602,58.0
30.98,0.382,3.424,14.0
30.918,0.387,3.245,23.0
36.316,0.461,3.615,2.0
40.338,0.521,3.796,40.0
50.943,0.663,6.241,7.0
31.06,0.41,3.634,63.0
46.473,0.623,5.184,10.0
30.941,0.421,3.279,14.0
58.403,0.806,5.87,6.0
58.663,0.822,5.577,15.0
47.856,0.676,5.91,9.0
31.036,0.444,3.662,35.0
52.205,0.758,5.873,6.0
46.122,0.679,4.932,9.0
53.659,0.8,5.445,4.0
36.442,0.551,3.499,0.0
57.21,0.873,7.119,11.0
31.063,0.48,3.694,13.0
52.162,0.816,5.916,5.0
46.159,0.731,4.978,8.0
48.069,0.771,4.921,1.0
56.78,0.922,5.502,5.0
31.067,0.509,3.893,44.0
46.446,0.77,5.565,10.0
36.153,0.607,4.133,4.0
46.218,0.785,5.024,10.0
37.07,0.637,3.827,2.0
52.549,0.914,5.137,46.0
31.085,0.545,3.922,63.0
46.459,0.824,5.606,7.0
46.99,0.843,5.411,5.0
46.189,0.838,5.06,9.0
52.55,0.963,5.468,23.0
52.723,0.977,5.197,8.0
31.066,0.581,3.945,32.0
57.797,1.092,7.02,4.0
52.249,0.997,6.058,8.0
52.532,1.014,5.795,6.0
52.634,1.026,5.517,16.0
53.11,1.046,5.275,10.0
31.059,0.617,3.968,17.0
57.855,1.161,7.071,5.0
47.076,0.953,5.493,4.0
46.212,0.946,5.132,8.0
37.069,0.766,3.912,4.0
46.554,0.971,4.657,33.0
31.083,0.654,3.993,7.0
46.693,0.991,5.739,3.0
52.542,1.126,6.167,17.0
46.195,0.999,5.162,7.0
52.568,1.148,5.584,13.0
46.545,1.025,4.688,10.0
39.304,0.873,5.076,1.0
52.6,1.18,6.501,14.0
52.487,1.187,6.195,5.0
57.895,1.321,6.507,10.0
46.591,1.072,4.978,32.0
52.583,1.22,5.329,12.0
39.311,0.92,5.102,4.0
47.725,1.126,5.927,4.0
46.873,1.115,5.561,20.0
46.71,1.121,5.278,21.0
60.374,1.46,6.487,4.0
59.629,1.454,6.077,6.0
46.444,1.142,6.054,9.0
47.767,1.184,5.96,7.0
47.28,1.181,5.636,13.0
46.678,1.175,5.3,11.0
59.412,1.508,6.416,1.0
66.535,1.702,6.817,6.0
54.346,1.402,7.114,9.0
52.196,1.357,6.541,5.0
46.629,1.221,5.582,34.0
46.977,1.239,5.358,2.0
59.118,1.571,6.414,5.0
52.482,1.405,5.403,6.0
39.331,1.062,5.168,7.0
46.655,1.269,5.869,35.0
47.186,1.292,5.672,10.0
67.817,1.872,7.766,5.0
57.702,1.604,6.287,5.0
46.602,1.304,4.819,14.0
46.677,1.318,6.154,13.0
52.173,1.483,6.586,3.0
59.315,1.697,7.155,10.0
59.253,1.706,6.811,34.0
57.705,1.673,6.311,6.0
57.642,1.683,5.984,4.0
0.0,0.0,0.0,0.0
52.163,1.545,6.605,2.0
47.376,1.413,5.733,6.0
66.587,1.998,7.679,4.0
58.867,1.777,6.46,32.0
57.594,1.75,5.999,7.0
39.348,1.206,5.217,4.0
52.481,1.618,6.663,19.0
60.274,1.87,7.314,12.0
59.274,1.85,6.855,7.0
46.62,1.464,5.131,36.0
57.601,1.82,6.018,3.0
39.357,1.254,5.23,6.0
39.413,1.263,5.016,5.0
47.507,1.531,5.779,5.0
59.036,1.915,6.844,14.0
46.505,1.516,5.131,13.0
46.23,1.516,4.842,3.0
39.287,1.3,5.231,4.0
52.431,1.744,6.686,1.0
58.868,1.969,7.175,19.0
46.651,1.569,5.419,3.0
46.395,1.568,5.129,17.0
46.16,1.569,4.845,6.0
39.379,1.35,5.252,8.0
46.84,1.615,5.983,11.0
47.645,1.651,5.817,3.0
46.712,1.627,5.435,20.0
46.329,1.622,5.13,13.0
46.387,1.632,4.877,9.0
39.368,1.397,5.257,7.0
58.813,2.098,7.522,1.0
39.384,1.412,4.814,1.0
61.136,2.204,7.122,11.0
46.24,1.675,5.127,9.0
46.471,1.691,4.892,6.0
39.347,1.444,5.259,4.0
60.272,2.223,7.715,0.0
39.336,1.457,4.812,3.0
52.328,1.948,6.101,1.0
46.474,1.738,5.157,6.0
60.191,2.262,6.341,8.0
30.309,1.149,4.054,3.0
60.654,2.309,7.768,4.0
46.793,1.79,5.728,17.0
60.349,2.318,7.04,15.0
46.367,1.789,5.147,8.0
46.838,1.815,4.936,4.0
30.317,1.185,4.055,1.0
60.536,2.376,7.754,3.0
46.802,1.845,5.729,3.0
59.94,2.374,6.992,2.0
46.339,1.842,5.144,4.0
46.905,1.872,4.943,9.0
30.327,1.221,4.056,1.0
60.56,2.448,7.756,2.0
46.777,1.899,5.725,1.0
59.725,2.434,6.965,14.0
46.513,1.903,5.161,3.0
46.531,1.912,4.901,12.0
60.508,2.507,8.09,10.0
46.815,1.948,5.992,20.0
52.634,2.198,6.437,3.0
59.225,2.483,6.902,28.0
46.584,1.961,5.165,9.0
46.565,1.967,4.9,6.0
30.32,1.292,4.05,3.0
46.863,2.003,5.993,3.0
39.294,1.686,4.801,1.0
58.873,2.536,6.853,8.0
46.722,2.02,5.174,11.0
46.698,2.027,4.907,8.0
46.608,2.04,6.219,3.0
46.822,2.056,5.98,1.0
58.765,2.589,7.17,4.0
59.457,2.629,6.91,6.0
46.728,2.073,5.166,10.0
46.743,2.081,4.903,3.0
46.89,2.105,6.247,10.0
52.548,2.367,6.7,3.0
59.734,2.699,7.276,4.0
0.0,0.0,0.0,0.0
46.377,2.11,5.116,6.0
46.74,2.133,4.892,3.0
46.87,2.157,6.233,1.0
46.92,2.166,5.97,1.0
46.741,2.164,5.681,2.0
47.686,2.215,5.519,0.0
46.309,2.158,5.096,8.0
46.659,2.181,4.87,8.0
46.753,2.203,6.204,1.0
46.999,2.222,5.967,1.0
46.74,2.216,5.667,1.0
47.459,2.257,5.478,2.0
46.281,2.207,5.079,12.0
46.761,2.237,4.866,3.0
46.718,2.253,6.183,1.0
47.255,2.285,5.983,3.0
46.732,2.266,5.649,1.0
0.0,0.0,0.0,0.0
46.307,2.258,5.065,16.0
46.709,2.285,4.843,4.0
46.676,2.301,6.16,2.0
47.103,2.328,5.946,3.0
46.705,2.315,5.628,1.0
60.331,2.998,6.919,7.0
46.265,2.305,5.042,15.0
46.876,2.342,4.842,6.0
46.646,2.349,6.136,2.0
47.049,2.375,5.919,2.0
46.727,2.364,5.61,0.0
60.389,3.064,6.899,1.0
46.234,2.351,5.018,10.0
46.751,2.384,4.808,4.0
46.616,2.396,6.111,1.0
47.067,2.424,5.899,1.0
60.425,3.12,7.226,7.0
47.278,2.447,5.378,4.0
46.255,2.4,4.997,12.0
46.706,2.429,4.78,2.0
46.567,2.441,6.08,1.0
47.121,2.475,5.882,1.0
60.45,3.182,7.198,1.0
47.148,2.488,5.339,4.0
46.514,2.46,5.001,16.0
46.654,2.474,4.749,1.0
46.529,2.486,6.05,1.0
47.102,2.521,5.853,1.0
60.388,3.24,7.156,4.0
46.959,2.524,5.291,4.0
45.743,2.464,4.892,12.0
52.388,2.829,5.303,1.0
30.414,1.654,3.936,1.0
47.148,2.57,5.83,1.0
46.725,2.552,5.509,1.0
46.082,2.522,5.164,3.0
46.416,2.546,4.935,4.0
45.693,2.511,4.597,2.0
30.5,1.688,3.928,0.0
47.142,2.615,5.799,0.0
47.1,2.618,5.523,3.0
0.0,0.0,0.0,0.0
46.959,2.619,4.962,5.0
0.0,0.0,0.0,0.0
0.0,0.0,0.0,0.0
46.246,2.613,5.391,1.0
0.0,0.0,0.0,0.0
46.308,2.626,4.861,3.0
45.595,2.59,4.525,7.0
0.0,0.0,0.0,0.0
0.0,0.0,0.0,0.0
0.0,0.0,0.0,0.0
46.215,2.657,5.083,7.0
46.418,2.673,4.839,2.0
43.457,2.507,4.281,1.0
0.0,0.0,0.0,0.0
47.811,2.781,5.778,4.0
47.25,2.753,5.438,0.0
46.202,2.696,5.046,7.0
45.515,2.66,4.71,3.0
0.0,0.0,0.0,0.0
47.227,2.784,5.943,0.0
0.0,0.0,0.0,0.0
46.883,2.771,5.358,2.0
46.182,2.734,5.007,5.0
45.754,2.717,4.435,12.0
47.246,2.825,5.906,0.0
0.0,0.0,0.0,0.0
47.072,2.822,5.34,2.0
46.151,2.77,4.964,4.0
45.695,2.75,4.39,6.0
0.0,0.0,0.0,0.0
0.0,0.0,0.0,0.0
0.0,0.0,0.0,0.0
45.801,2.785,4.886,3.0
45.568,2.778,4.338,3.0
0.0,0.0,0.0,0.0
0.0,0.0,0.0,0.0
46.279,2.846,5.167,2.0
45.938,2.828,4.859,1.0
45.644,2.817,4.303,3.0
0.0,0.0,0.0,0.0
0.0,0.0,0.0,0.0
46.204,2.875,5.115,2.0
45.763,2.854,4.533,2.0
45.501,2.841,4.246,3.0
0.0,0.0,0.0,0.0
47.147,2.965,5.446,2.0
0.0,0.0,0.0,0.0
45.592,2.875,4.471,7.0
45.55,2.875,4.205,1.0
0.0,0.0,0.0,0.0
47.144,2.997,5.398,1.0
0.0,0.0,0.0,0.0
45.563,2.904,4.422,10.0
47.553,3.033,4.341,4.0
0.0,0.0,0.0,0.0
46.189,2.966,5.24,2.0
46.004,2.956,4.953,2.0
45.557,2.932,4.373,4.0
47.502,3.06,4.286,3.0
0.0,0.0,0.0,0.0
46.222,2.997,5.193,1.0
46.104,2.991,4.913,3.0
47.157,3.083,5.52,3.0
0.0,0.0,0.0,0.0
46.144,3.02,4.866,1.0
45.567,2.986,4.273,1.0
0.0,0.0,0.0,0.0
0.0,0.0,0.0,0.0
45.467,3.002,4.474,11.0
45.523,3.007,4.217,2.0
46.924,3.101,4.076,2.0
46.241,3.073,5.305,3.0
0.0,0.0,0.0,0.0
45.527,3.029,4.426,5.0
47.539,3.164,4.347,2.0
47.622,3.171,4.08,1.0
46.217,3.093,5.247,1.0
0.0,0.0,0.0,0.0
45.731,3.064,4.391,2.0
47.641,3.194,4.024,1.0
0.0,0.0,0.0,0.0
46.155,3.111,4.914,1.0
44.991,3.033,4.529,1.0
47.778,3.222,4.528,1.0
0.0,0.0,0.0,0.0
46.253,3.136,4.867,0.0
45.533,3.088,4.527,6.0
47.697,3.235,4.46,1.0
45.808,3.109,3.754,2.0
0.0,0.0,0.0,0.0
45.577,3.107,4.472,5.0
47.423,3.234,4.373,1.0
0.0,0.0,0.0,0.0
45.751,3.12,3.69,1.0
0.0,0.0,0.0,0.0
45.673,3.129,4.421,3.0
47.55,3.257,4.047,2.0
47.149,3.231,3.74,2.0
46.248,3.183,4.952,1.0
45.652,3.141,4.622,4.0
45.66,3.141,4.358,4.0
246.099,16.932,19.192,21.0
46.254,3.195,4.889,2.0
45.698,3.156,4.564,4.0
45.698,3.156,4.299,2.0
246.205,16.998,18.861,17.0
45.562,3.156,4.487,4.0
45.441,3.148,4.211,1.0
47.165,3.266,4.093,1.0
45.832,3.173,3.712,3.0
246.223,17.046,18.519,27.0
47.826,3.322,4.643,1.0
47.419,3.292,4.047,3.0
46.76,3.245,3.721,2.0
246.336,17.094,18.178,12.0
47.812,3.328,4.573,1.0
246.288,17.125,19.246,27.0
246.359,17.123,17.83,12.0
45.506,3.173,4.551,3.0
45.643,3.181,4.299,5.0
246.28,17.142,18.889,19.0
109.393,7.611,7.756,1.0
45.592,3.182,4.492,4.0
45.552,3.177,4.223,3.0
45.836,3.194,3.713,3.0
246.283,17.153,18.525,21.0
109.161,7.599,7.58,4.0
47.83,3.34,4.642,2.0
47.514,3.313,4.058,2.0
46.714,3.255,3.714,2.0
246.301,17.154,18.156,16.0
109.466,7.62,7.437,4.0
47.899,3.343,4.575,1.0
246.368,17.16,19.219,20.0
246.327,17.145,17.791,11.0
108.287,7.533,7.194,5.0
45.638,3.183,4.291,6.0
246.295,17.137,18.839,26.0
109.268,7.596,7.726,5.0
109.788,7.628,7.128,2.0
45.496,3.168,4.207,1.0
47.257,3.288,4.095,1.0
45.934,3.193,3.714,3.0
246.276,17.106,18.461,14.0
0.0,0.0,0.0,0.0
111.327,7.719,7.058,6.0
47.518,3.299,4.044,2.0
246.295,17.083,19.533,22.0
246.215,17.061,18.073,22.0
108.366,7.503,7.328,7.0
111.191,7.691,6.877,6.0
246.211,17.029,19.145,25.0
246.205,17.012,17.694,8.0
109.795,7.579,7.255,2.0
110.921,7.649,6.688,5.0
45.785,3.159,3.753,2.0
246.07,16.961,18.746,30.0
0.0,0.0,0.0,0.0
111.391,7.661,7.184,8.0
0.0,0.0,0.0,0.0
47.408,3.262,4.087,2.0
246.068,16.911,19.783,22.0
246.062,16.891,18.356,23.0
109.569,7.512,7.527,2.0
111.162,7.612,6.994,6.0
107.087,7.325,6.119,1.0
47.677,3.266,4.034,1.0
47.342,3.238,3.73,2.0
245.987,16.805,17.957,15.0
109.748,7.488,7.365,5.0
110.905,7.558,6.801,2.0
0.0,0.0,0.0,0.0
45.782,3.119,3.8,1.0
47.538,3.234,3.669,0.0
111.485,7.575,7.959,2.0
111.22,7.547,7.284,2.0
91.85,6.224,5.485,1.0
196.141,13.273,10.58,6.0
45.792,3.102,3.727,1.0
245.829,16.627,18.583,12.0
111.406,7.523,7.775,4.0
110.675,7.464,7.071,6.0
120.187,8.094,6.983,4.0
107.929,7.258,5.648,3.0
47.08,3.168,3.755,1.0
245.623,16.504,18.169,15.0
111.366,7.471,7.593,4.0
0.0,0.0,0.0,0.0
196.777,13.161,11.116,7.0
0.0,0.0,0.0,0.0
46.541,3.109,3.637,2.0
111.497,7.437,8.067,5.0
110.391,7.351,7.347,2.0
120.514,8.011,7.309,2.0
107.774,7.153,5.914,3.0
121.408,8.045,5.96,2.0
245.439,16.27,18.777,20.0
208.146,13.772,14.718,9.0
208.839,13.793,13.556,8.0
0.0,0.0,0.0,0.0
162.025,10.665,8.626,13.0
193.587,12.721,9.191,6.0
111.482,7.325,8.347,7.0
0.0,0.0,0.0,0.0
107.443,7.034,6.8,1.0
195.955,12.805,11.251,6.0
195.251,12.737,10.081,5.0
107.479,6.999,4.929,1.0
245.146,15.959,17.955,11.0
110.604,7.185,7.459,5.0
0.0,0.0,0.0,0.0
195.803,12.672,10.92,10.0
121.929,7.876,6.095,2.0
161.144,10.389,7.126,5.0
110.714,7.134,7.927,1.0
110.379,7.098,7.263,1.0
0.0,0.0,0.0,0.0
194.977,12.486,10.556,19.0
193.974,12.396,9.381,5.0
174.512,11.132,7.433,4.0
110.325,7.032,7.717,7.0
0.0,0.0,0.0,0.0
196.959,12.498,11.498,19.0
195.105,12.355,10.242,5.0
0.0,0.0,0.0,0.0
0.0,0.0,0.0,0.0
0.0,0.0,0.0,0.0
0.0,0.0,0.0,0.0
196.862,12.344,11.169,14.0
195.025,12.201,9.92,14.0
0.0,0.0,0.0,0.0
0.0,0.0,0.0,0.0
0.0,0.0,0.0,0.0
0.0,0.0,0.0,0.0
196.043,12.139,10.81,9.0
162.036,10.009,7.982,4.0
193.096,11.902,8.4,5.0
0.0,0.0,0.0,0.0
207.759,12.756,13.522,9.0
207.524,12.711,12.307,7.0
194.131,11.86,10.391,19.0
0.0,0.0,0.0,0.0
163.441,9.935,6.845,4.0
0.0,0.0,0.0,0.0
0.0,0.0,0.0,0.0
110.658,6.68,6.381,3.0
193.903,11.677,10.064,24.0
0.0,0.0,0.0,0.0
0.0,0.0,0.0,0.0
0.0,0.0,0.0,0.0
0.0,0.0,0.0,0.0
194.112,11.543,10.883,20.0
193.992,11.503,9.755,9.0
193.914,11.466,8.613,8.0
156.209,9.213,6.038,5.0
0.0,0.0,0.0,0.0
0.0,0.0,0.0,0.0
194.255,11.364,10.576,19.0
163.473,9.537,7.958,6.0
0.0,0.0,0.0,0.0
0.0,0.0,0.0,0.0
193.323,11.181,6.052,5.0
195.842,11.3,11.482,7.0
193.52,11.131,10.23,24.0
194.072,11.13,9.139,15.0
0.0,0.0,0.0,0.0
192.776,10.988,6.837,8.0
194.951,11.078,5.792,5.0
195.392,11.071,11.143,28.0
193.585,10.935,9.922,25.0
193.82,10.914,8.821,7.0
193.711,10.874,7.68,8.0
192.811,10.789,6.534,5.0
195.875,10.926,5.514,8.0
194.662,10.824,10.795,26.0
193.49,10.723,9.613,24.0
193.366,10.68,8.492,20.0
193.683,10.661,7.371,5.0
195.931,10.749,6.331,27.0
196.016,10.718,5.207,45.0
194.258,10.586,10.464,24.0
193.398,10.502,9.304,22.0
193.305,10.459,8.186,9.0
193.118,10.414,7.049,20.0
193.673,10.407,5.953,13.0
0.0,0.0,0.0,0.0
193.739,10.334,10.133,22.0
192.844,10.247,8.975,25.0
