X,Y,Z,Reflectivity
83.804,-9.342,3.825,39.0
108.743,-12.138,8.023,14.0
108.908,-12.135,7.442,37.0
109.998,-12.235,6.917,14.0
86.555,-9.61,4.964,22.0
83.791,-9.288,4.349,37.0
83.821,-9.276,3.896,33.0
108.783,-12.055,8.118,13.0
109.07,-12.064,7.545,25.0
117.094,-12.928,7.46,8.0
86.584,-9.542,5.037,15.0
83.717,-9.21,4.414,33.0
83.838,-9.208,3.964,35.0
110.782,-12.184,8.357,11.0
111.472,-12.236,7.8,8.0
113.262,-12.408,7.307,6.0
86.636,-9.473,5.108,15.0
83.714,-9.137,4.48,32.0
83.888,-9.139,4.034,31.0
110.728,-12.08,8.44,13.0
111.508,-12.14,7.891,23.0
111.69,-12.135,7.294,9.0
86.782,-9.411,5.184,17.0
83.845,-9.075,4.551,32.0
83.892,-9.062,4.098,39.0
110.581,-11.961,8.515,18.0
111.808,-12.069,7.996,22.0
111.731,-12.036,7.38,22.0
109.942,-11.819,6.65,9.0
83.919,-9.004,4.617,27.0
84.013,-8.996,4.164,36.0
108.567,-11.642,8.437,19.0
108.968,-11.659,7.871,27.0
111.784,-11.934,7.462,26.0
84.197,-8.969,5.152,11.0
84.246,-8.955,4.696,38.0
84.289,-8.942,4.237,25.0
108.479,-11.524,8.507,33.0
108.978,-11.55,7.949,31.0
111.916,-11.835,7.55,16.0
84.149,-8.878,5.207,8.0
84.343,-8.879,4.758,33.0
84.026,-8.827,4.28,16.0
108.43,-11.406,8.577,27.0
108.968,-11.436,8.021,29.0
112.042,-11.731,7.632,13.0
84.364,-8.813,5.275,5.0
84.17,-8.773,4.801,29.0
83.752,-8.71,4.32,33.0
108.253,-11.274,8.631,32.0
109.042,-11.328,8.095,24.0
109.409,-11.338,7.521,18.0
109.413,-11.312,6.908,16.0
84.392,-8.705,4.865,29.0
83.587,-8.602,4.362,29.0
108.238,-11.154,8.696,26.0
109.291,-11.234,8.177,21.0
109.652,-11.243,7.602,18.0
109.356,-11.186,6.968,22.0
84.649,-8.637,4.929,49.0
82.142,-8.362,4.333,31.0
108.118,-11.02,8.747,41.0
109.502,-11.133,8.255,20.0
109.788,-11.132,7.672,20.0
109.473,-11.073,7.036,20.0
84.063,-8.481,4.941,31.0
82.179,-8.271,4.378,29.0
108.248,-10.908,8.817,38.0
109.205,-10.975,8.291,17.0
109.759,-11.001,7.728,25.0
109.563,-10.953,7.098,20.0
84.04,-8.38,4.982,34.0
83.044,-8.26,4.466,37.0
108.454,-10.801,8.886,24.0
112.517,-11.174,8.597,17.0
109.475,-10.841,7.761,30.0
86.518,-8.545,5.647,14.0
83.896,-8.264,5.013,32.0
83.332,-8.188,4.52,28.0
108.413,-10.664,8.935,26.0
109.953,-10.785,8.452,10.0
109.444,-10.705,7.807,28.0
86.47,-8.435,5.682,25.0
83.486,-8.121,5.025,29.0
0.0,0.0,0.0,0.0
108.468,-10.534,8.985,18.0
112.501,-10.894,8.695,10.0
109.665,-10.589,7.869,24.0
86.45,-8.323,5.716,15.0
83.426,-8.009,5.055,19.0
83.118,-7.957,4.577,37.0
111.989,-10.733,9.321,26.0
112.392,-10.739,8.73,27.0
109.979,-10.477,7.933,22.0
86.521,-8.218,5.753,10.0
83.42,-7.901,5.085,19.0
83.231,-7.861,4.613,38.0
112.343,-10.621,9.39,14.0
112.167,-10.572,8.752,33.0
112.827,-10.603,8.176,26.0
86.572,-8.111,5.784,15.0
84.284,-7.873,5.165,29.0
83.24,-7.753,4.64,39.0
120.921,-11.273,10.145,13.0
112.446,-10.449,8.807,30.0
112.916,-10.461,8.217,27.0
85.896,-7.933,5.765,29.0
84.111,-7.745,5.178,39.0
83.282,-7.645,4.665,39.0
114.524,-10.523,9.639,10.0
112.549,-10.308,8.846,27.0
112.764,-10.294,8.235,25.0
85.687,-7.797,5.772,27.0
84.157,-7.634,5.202,35.0
83.527,-7.553,4.699,40.0
113.642,-10.285,9.592,8.0
114.576,-10.334,9.031,8.0
112.505,-10.114,8.242,24.0
85.556,-7.666,5.782,26.0
84.257,-7.526,5.225,32.0
83.425,-7.427,4.71,39.0
24.596,-2.191,2.081,16.0
120.561,-10.704,9.527,10.0
112.564,-9.961,8.266,22.0
84.774,-7.476,5.744,25.0
84.623,-7.438,5.262,19.0
83.481,-7.314,4.727,25.0
24.607,-2.157,2.085,44.0
120.654,-10.543,9.552,15.0
116.211,-10.121,8.55,11.0
84.705,-7.352,5.751,20.0
84.67,-7.324,5.276,9.0
83.576,-7.206,4.742,24.0
24.607,-2.122,2.088,54.0
60.601,-5.208,4.804,7.0
118.468,-10.146,8.729,8.0
84.947,-7.25,5.775,13.0
85.09,-7.237,5.31,16.0
83.839,-7.106,4.765,32.0
24.612,-2.087,2.09,57.0
121.007,-10.225,9.602,13.0
118.044,-9.938,8.705,16.0
85.797,-7.198,5.838,12.0
86.383,-7.221,5.394,21.0
83.712,-6.973,4.761,33.0
24.585,-2.048,2.089,42.0
121.038,-10.049,9.607,6.0
115.368,-9.542,8.509,14.0
86.291,-7.111,5.873,19.0
86.312,-7.087,5.391,23.0
83.592,-6.839,4.754,40.0
23.98,-1.962,2.038,28.0
120.825,-9.851,9.588,22.0
60.49,-4.913,4.46,6.0
86.01,-6.96,5.851,31.0
85.601,-6.901,5.344,28.0
83.573,-6.713,4.749,38.0
23.974,-1.926,2.036,48.0
115.441,-9.239,9.155,8.0
54.086,-4.312,3.985,3.0
86.175,-6.843,5.857,23.0
85.722,-6.782,5.345,27.0
83.562,-6.586,4.742,39.0
23.992,-1.891,2.035,34.0
24.026,-1.886,1.903,0.0
60.471,-4.728,4.449,3.0
85.887,-6.69,5.827,20.0
85.496,-6.633,5.321,20.0
83.556,-6.458,4.732,37.0
24.014,-1.856,2.034,33.0
24.213,-1.863,1.914,1.0
54.051,-4.143,3.969,3.0
60.458,-4.616,4.093,3.0
84.155,-6.4,5.224,26.0
83.748,-6.344,4.729,41.0
24.054,-1.821,2.033,25.0
24.418,-1.841,1.926,14.0
60.302,-4.528,4.416,3.0
84.141,-6.293,5.679,12.0
84.113,-6.266,5.204,40.0
84.333,-6.257,4.744,44.0
24.148,-1.791,2.036,29.0
24.307,-1.795,1.912,29.0
24.585,-1.808,1.795,2.0
84.233,-6.169,5.666,8.0
84.221,-6.142,5.19,33.0
84.346,-6.126,4.723,39.0
24.253,-1.761,2.038,22.0
24.245,-1.753,1.9,34.0
24.597,-1.77,1.789,11.0
86.016,-6.166,5.762,14.0
84.262,-6.014,5.169,17.0
84.457,-6.002,4.705,24.0
24.454,-1.737,2.048,19.0
24.242,-1.714,1.892,40.0
24.479,-1.723,1.773,27.0
24.495,-1.717,1.633,19.0
24.468,-1.707,1.493,27.0
24.499,-1.702,1.356,25.0
24.583,-1.707,2.05,21.0
24.264,-1.677,1.886,45.0
24.417,-1.68,1.759,35.0
24.463,-1.676,1.622,43.0
24.46,-1.668,1.483,64.0
24.475,-1.662,1.346,49.0
24.595,-1.668,2.042,18.0
24.275,-1.639,1.877,54.0
24.331,-1.635,1.743,27.0
24.438,-1.635,1.61,65.0
24.444,-1.628,1.472,69.0
24.472,-1.622,1.335,75.0
24.484,-1.622,2.022,28.0
24.278,-1.6,1.867,60.0
24.334,-1.596,1.733,36.0
24.413,-1.594,1.598,60.0
24.408,-1.587,1.459,50.0
24.467,-1.583,1.324,80.0
24.379,-1.576,2.002,26.0
24.294,-1.563,1.856,55.0
24.322,-1.557,1.72,25.0
24.397,-1.554,1.585,32.0
24.394,-1.547,1.446,32.0
24.446,-1.543,1.31,69.0
24.342,-1.534,1.986,28.0
24.332,-1.526,1.847,42.0
24.356,-1.52,1.71,45.0
24.381,-1.514,1.571,60.0
24.403,-1.508,1.433,39.0
24.451,-1.504,1.297,81.0
24.349,-1.495,1.973,44.0
24.364,-1.489,1.835,55.0
24.391,-1.483,1.698,48.0
24.392,-1.476,1.557,77.0
24.41,-1.469,1.42,44.0
24.467,-1.466,1.284,60.0
24.342,-1.456,1.958,67.0
24.401,-1.452,1.823,60.0
24.424,-1.446,1.686,62.0
24.388,-1.436,1.542,72.0
24.423,-1.431,1.405,66.0
24.497,-1.428,1.27,53.0
24.336,-1.416,1.942,57.0
24.435,-1.414,1.81,48.0
24.474,-1.409,1.673,44.0
24.394,-1.397,1.526,65.0
24.462,-1.394,1.391,41.0
28.407,-1.61,1.454,48.0
24.398,-1.38,1.93,40.0
24.475,-1.377,1.796,21.0
24.529,-1.372,1.66,27.0
24.461,-1.361,1.513,37.0
28.42,-1.573,1.596,66.0
28.415,-1.565,1.434,70.0
24.476,-1.345,1.918,51.0
28.418,-1.553,2.065,56.0
28.417,-1.544,1.902,72.0
28.408,-1.535,1.736,57.0
28.421,-1.528,1.575,68.0
28.418,-1.52,1.413,61.0
24.512,-1.307,1.902,58.0
28.426,-1.508,2.043,67.0
28.415,-1.498,1.88,71.0
28.417,-1.49,1.715,69.0
28.416,-1.482,1.552,71.0
28.398,-1.473,1.389,36.0
28.417,-1.47,2.183,32.0
28.421,-1.461,2.02,69.0
28.413,-1.453,1.856,67.0
28.407,-1.444,1.69,69.0
28.408,-1.436,1.528,73.0
85.117,-4.279,4.094,20.0
28.415,-1.424,2.158,69.0
28.417,-1.415,1.995,65.0
28.408,-1.407,1.832,68.0
28.399,-1.398,1.665,68.0
28.407,-1.39,1.503,73.0
85.989,-4.184,4.059,26.0
30.776,-1.492,2.31,37.0
46.664,-2.249,3.234,9.0
28.382,-1.36,1.804,29.0
28.407,-1.353,1.64,51.0
28.41,-1.345,1.477,56.0
86.14,-4.055,3.988,11.0
30.822,-1.446,2.285,44.0
46.655,-2.175,3.19,31.0
163.96,-7.596,10.269,24.0
161.261,-7.427,9.16,33.0
28.385,-1.299,1.449,1.0
169.795,-7.723,7.698,8.0
30.915,-1.401,2.261,44.0
46.621,-2.099,3.142,60.0
163.644,-7.323,10.088,28.0
31.354,-1.394,1.749,4.0
28.361,-1.253,1.42,3.0
28.421,-1.248,1.26,0.0
30.981,-1.355,2.234,45.0
31.214,-1.356,2.072,25.0
28.435,-1.227,1.724,30.0
28.451,-1.22,1.558,55.0
28.432,-1.212,1.394,52.0
28.415,-1.203,1.23,70.0
28.429,-1.198,2.02,59.0
28.425,-1.19,1.856,75.0
28.408,-1.182,1.692,100.0
28.413,-1.174,1.526,104.0
28.43,-1.167,1.363,120.0
28.429,-1.159,1.2,119.0
28.427,-1.154,1.989,112.0
28.423,-1.146,1.825,115.0
28.412,-1.138,1.661,100.0
28.416,-1.13,1.494,73.0
28.428,-1.123,1.332,67.0
28.44,-1.116,1.169,67.0
28.434,-1.11,1.957,70.0
28.439,-1.103,1.794,58.0
31.224,-1.202,1.789,12.0
31.204,-1.193,1.605,43.0
31.253,-1.187,1.428,64.0
31.262,-1.179,1.249,51.0
31.17,-1.169,2.109,44.0
31.2,-1.162,1.931,32.0
31.209,-1.154,1.752,28.0
31.239,-1.147,1.57,34.0
31.272,-1.14,1.392,65.0
31.274,-1.132,1.212,40.0
31.193,-1.123,2.073,34.0
31.243,-1.116,1.896,44.0
31.226,-1.107,1.715,40.0
31.269,-1.101,1.534,45.0
31.297,-1.094,1.355,35.0
31.323,-1.087,1.176,28.0
28.396,-0.979,1.852,80.0
28.394,-0.972,1.688,61.0
28.382,-0.964,1.523,55.0
31.326,-1.056,1.497,31.0
38.637,-1.293,1.624,66.0
38.657,-1.284,1.402,60.0
28.387,-0.936,1.815,77.0
28.385,-0.929,1.651,75.0
28.383,-0.922,1.486,70.0
38.528,-1.242,1.791,61.0
38.64,-1.236,1.574,91.0
38.622,-1.225,1.35,66.0
28.395,-0.895,1.778,86.0
28.386,-0.887,1.613,74.0
38.458,-1.192,1.963,17.0
38.564,-1.186,1.742,67.0
38.644,-1.179,1.522,95.0
38.58,-1.168,1.297,56.0
28.392,-0.853,1.739,83.0
28.381,-0.846,1.574,76.0
38.505,-1.138,1.913,34.0
38.63,-1.132,1.692,84.0
38.622,-1.123,1.468,69.0
38.571,-1.112,1.244,67.0
28.389,-0.812,1.7,74.0
28.378,-0.805,1.534,71.0
38.578,-1.085,1.862,55.0
38.643,-1.077,1.638,83.0
38.648,-1.068,1.415,39.0
38.578,-1.057,1.19,60.0
28.391,-0.772,1.659,74.0
28.377,-0.764,1.494,64.0
38.653,-1.032,1.811,34.0
38.698,-1.024,1.585,11.0
38.705,-1.015,1.362,37.0
38.658,-1.005,1.137,37.0
28.386,-0.732,1.618,75.0
38.646,-0.987,1.978,9.0
45.787,-1.159,2.078,19.0
45.72,-1.147,1.806,18.0
40.443,-1.005,1.363,24.0
38.693,-0.952,1.08,51.0
28.383,-0.692,1.575,78.0
40.42,-0.976,2.008,24.0
40.399,-0.967,1.773,29.0
40.408,-0.958,1.535,38.0
40.41,-0.949,1.301,41.0
0.0,0.0,0.0,0.0
28.374,-0.653,1.531,70.0
40.398,-0.921,1.945,38.0
40.4,-0.912,1.711,39.0
40.398,-0.903,1.472,35.0
40.422,-0.895,1.239,29.0
40.444,-0.886,1.005,3.0
28.378,-0.615,1.486,54.0
40.43,-0.868,1.883,23.0
45.712,-0.971,1.864,13.0
45.681,-0.96,1.593,46.0
45.72,-0.951,1.329,37.0
38.378,-0.79,0.894,5.0
59.364,-1.209,3.016,24.0
45.704,-0.921,2.056,30.0
45.708,-0.911,1.791,50.0
45.738,-0.902,1.522,43.0
64.324,-1.255,1.768,62.0
193.237,-3.73,4.192,19.0
45.705,-0.871,2.247,60.0
45.775,-0.863,1.984,43.0
64.27,-1.198,2.413,11.0
64.279,-1.185,2.033,81.0
64.324,-1.172,1.662,10.0
191.65,-3.453,3.841,21.0
45.728,-0.813,2.172,56.0
59.246,-1.042,2.471,19.0
64.266,-1.117,2.306,69.0
64.296,-1.104,1.927,77.0
176.608,-2.999,4.272,49.0
176.628,-2.964,3.248,54.0
45.998,-0.762,2.109,49.0
59.184,-0.968,2.369,80.0
59.42,-0.96,2.033,7.0
59.489,-0.949,1.683,25.0
53.503,-0.843,1.203,94.0
20.152,-0.313,0.336,6.0
59.083,-0.906,2.607,57.0
58.976,-0.893,2.259,89.0
53.493,-0.799,1.738,64.0
59.411,-0.876,1.579,75.0
20.15,-0.293,0.418,7.0
20.12,-0.289,0.301,11.0
58.408,-0.827,2.477,158.0
58.322,-0.815,2.135,150.0
53.493,-0.737,1.646,98.0
59.405,-0.807,1.477,7.0
20.137,-0.269,0.383,13.0
20.13,-0.266,0.266,11.0
58.295,-0.758,2.37,255.0
53.535,-0.686,1.865,150.0
53.487,-0.676,1.553,99.0
20.144,-0.25,0.465,11.0
20.132,-0.246,0.348,10.0
20.144,-0.243,0.231,14.0
58.301,-0.692,2.266,200.0
53.497,-0.625,1.768,21.0
53.506,-0.615,1.456,10.0
20.134,-0.227,0.428,18.0
20.158,-0.224,0.312,16.0
64.257,-0.704,0.621,26.0
58.309,-0.627,2.16,211.0
53.497,-0.565,1.669,26.0
20.139,-0.209,0.511,14.0
20.18,-0.206,0.393,21.0
53.365,-0.536,0.728,12.0
53.346,-0.527,0.418,7.0
53.528,-0.518,1.885,150.0
53.5,-0.508,1.572,41.0
20.146,-0.188,0.474,11.0
53.477,-0.49,0.943,24.0
64.37,-0.578,0.759,26.0
66.509,-0.587,0.398,25.0
53.516,-0.461,1.784,100.0
20.17,-0.17,0.554,10.0
20.225,-0.167,0.438,27.0
20.217,-0.164,0.318,20.0
20.203,-0.161,0.2,16.0
20.174,-0.157,0.083,12.0
53.517,-0.407,1.683,19.0
20.173,-0.15,0.517,11.0
20.193,-0.147,0.4,19.0
20.156,-0.143,0.279,15.0
20.146,-0.14,0.162,16.0
20.146,-0.137,0.045,28.0
20.15,-0.133,0.596,16.0
20.123,-0.13,0.477,16.0
20.108,-0.127,0.36,18.0
20.108,-0.124,0.241,19.0
20.134,-0.121,0.124,20.0
20.135,-0.118,0.006,28.0
20.136,-0.114,0.557,17.0
20.121,-0.111,0.439,25.0
20.119,-0.108,0.321,25.0
20.127,-0.105,0.202,23.0
20.132,-0.102,0.085,40.0
20.135,-0.099,-0.031,29.0
20.134,-0.096,0.517,24.0
20.118,-0.093,0.4,33.0
20.118,-0.09,0.282,26.0
20.117,-0.087,0.163,26.0
20.126,-0.084,0.046,35.0
20.142,-0.081,-0.071,34.0
20.131,-0.078,0.478,27.0
20.118,-0.075,0.36,31.0
20.116,-0.072,0.243,26.0
20.119,-0.07,0.124,36.0
20.127,-0.067,0.007,38.0
20.144,-0.064,-0.11,32.0
20.125,-0.061,0.439,32.0
20.117,-0.058,0.321,29.0
20.111,-0.055,0.203,30.0
20.132,-0.053,0.084,40.0
20.132,-0.05,-0.032,34.0
20.156,-0.047,-0.15,33.0
20.133,-0.044,0.398,28.0
20.116,-0.042,0.281,26.0
20.105,-0.039,0.163,31.0
20.128,-0.037,0.044,36.0
20.155,-0.034,-0.073,28.0
20.157,-0.032,-0.19,15.0
20.125,-0.029,0.358,31.0
20.122,-0.026,0.241,27.0
20.122,-0.024,0.123,32.0
20.121,-0.021,0.004,15.0
20.158,-0.019,-0.113,19.0
20.188,-0.016,-0.231,2.0
20.122,-0.014,0.317,29.0
20.122,-0.011,0.2,28.0
20.144,-0.009,0.083,29.0
20.252,-0.007,-0.036,38.0
20.255,-0.004,-0.154,44.0
20.261,-0.002,-0.273,53.0
20.131,0.0,0.277,28.0
20.129,0.002,0.159,27.0
20.266,0.004,0.042,150.0
20.263,0.006,-0.077,151.0
20.254,0.009,-0.196,151.0
20.271,0.011,-0.314,150.0
20.127,0.013,0.236,28.0
20.131,0.015,0.118,29.0
20.237,0.018,0.0,152.0
20.254,0.02,-0.119,151.0
20.254,0.022,-0.237,151.0
20.272,0.024,-0.356,150.0
20.136,0.026,0.194,29.0
20.16,0.028,0.077,17.0
20.253,0.03,-0.04,37.0
20.26,0.032,-0.16,58.0
20.239,0.034,-0.278,19.0
20.236,0.037,-0.397,8.0
20.146,0.038,0.153,28.0
20.223,0.04,0.035,16.0
20.211,0.042,-0.082,19.0
20.201,0.044,-0.202,10.0
20.243,0.046,-0.321,0.0
20.233,0.048,-0.439,0.0
20.16,0.05,0.111,28.0
20.216,0.052,-0.006,29.0
20.21,0.054,-0.124,25.0
20.175,0.055,-0.243,0.0
43.176,0.123,-0.774,0.0
33.302,0.098,-0.791,0.0
20.207,0.06,0.069,35.0
20.209,0.062,-0.048,32.0
20.202,0.064,-0.166,25.0
20.208,0.066,-0.286,0.0
38.946,0.131,-0.779,0.0
32.65,0.112,-0.844,2.0
20.205,0.07,0.027,34.0
20.198,0.072,-0.09,26.0
20.195,0.074,-0.208,13.0
43.875,0.165,-0.713,0.0
0.0,0.0,0.0,0.0
31.257,0.122,-0.873,0.0
20.188,0.08,-0.014,29.0
20.189,0.081,-0.132,29.0
20.204,0.083,-0.25,15.0
41.754,0.175,-0.766,0.0
0.0,0.0,0.0,0.0
21.703,0.094,-0.652,0.0
20.191,0.088,-0.056,39.0
20.191,0.09,-0.174,27.0
20.199,0.091,-0.293,15.0
0.0,0.0,0.0,0.0
32.8,0.153,-0.863,0.0
21.678,0.102,-0.697,151.0
20.188,0.096,-0.099,34.0
20.197,0.097,-0.217,25.0
20.194,0.098,-0.335,10.0
0.0,0.0,0.0,0.0
21.676,0.109,-0.616,2.0
21.613,0.11,-0.741,162.0
20.173,0.103,-0.142,35.0
20.198,0.104,-0.26,28.0
20.202,0.105,-0.378,3.0
0.0,0.0,0.0,0.0
21.676,0.116,-0.662,38.0
21.608,0.117,-0.786,159.0
20.188,0.109,-0.185,25.0
20.208,0.11,-0.303,26.0
20.227,0.111,-0.421,0.0
32.85,0.183,-0.88,0.0
21.617,0.122,-0.706,159.0
21.657,0.123,-0.834,93.0
20.185,0.114,-0.227,29.0
20.215,0.116,-0.345,24.0
20.115,0.116,-0.462,0.0
21.682,0.126,-0.627,32.0
21.575,0.127,-0.75,178.0
21.582,0.128,-0.877,53.0
20.193,0.119,-0.27,28.0
20.188,0.12,-0.388,11.0
33.002,0.198,-0.827,0.0
21.681,0.131,-0.672,150.0
21.645,0.132,-0.798,156.0
18.556,0.113,-0.793,152.0
20.196,0.123,-0.312,29.0
20.208,0.124,-0.431,2.0
21.713,0.134,-0.589,0.0
21.624,0.134,-0.716,167.0
21.594,0.135,-0.841,46.0
18.539,0.116,-0.831,24.0
20.211,0.126,-0.355,27.0
20.203,0.127,-0.473,1.0
21.67,0.137,-0.634,51.0
21.582,0.137,-0.76,167.0
18.542,0.118,-0.762,154.0
18.537,0.119,-0.87,24.0
20.193,0.128,-0.397,16.0
32.884,0.21,-0.839,0.0
21.678,0.139,-0.68,152.0
21.653,0.139,-0.808,151.0
18.559,0.12,-0.801,152.0
18.5,0.12,-0.907,42.0
20.207,0.13,-0.439,7.0
21.645,0.14,-0.597,2.0
21.594,0.14,-0.722,173.0
21.601,0.14,-0.851,21.0
18.558,0.121,-0.839,21.0
18.465,0.121,-0.944,2.0
20.2,0.131,-0.481,2.0
21.684,0.141,-0.643,53.0
21.6,0.14,-0.767,162.0
18.529,0.121,-0.768,155.0
18.536,0.121,-0.877,26.0
18.489,0.121,-0.983,2.0
32.659,0.211,-0.845,0.0
21.669,0.14,-0.687,154.0
21.639,0.14,-0.813,150.0
18.564,0.121,-0.808,151.0
18.507,0.121,-0.914,33.0
16.852,0.11,-0.931,0.0
21.683,0.139,-0.606,9.0
21.583,0.139,-0.729,178.0
21.605,0.139,-0.857,20.0
18.551,0.12,-0.846,19.0
18.448,0.119,-0.949,1.0
16.376,0.106,-0.939,0.0
21.69,0.138,-0.651,81.0
21.613,0.137,-0.775,160.0
18.554,0.118,-0.773,154.0
18.533,0.118,-0.883,24.0
18.489,0.118,-0.989,2.0
15.829,0.101,-0.94,0.0
21.643,0.135,-0.693,158.0
21.641,0.135,-0.82,150.0
18.575,0.116,-0.812,150.0
18.496,0.115,-0.919,24.0
16.752,0.104,-0.931,0.0
15.301,0.095,-0.94,0.0
21.584,0.132,-0.735,187.0
21.596,0.131,-0.862,53.0
18.546,0.113,-0.849,15.0
18.425,0.112,-0.953,1.0
16.251,0.098,-0.936,0.0
14.856,0.09,-0.942,0.0
21.621,0.128,-0.78,158.0
21.554,0.127,-0.904,36.0
18.542,0.109,-0.886,21.0
18.406,0.108,-0.989,0.0
15.812,0.092,-0.942,0.0
14.496,0.085,-0.949,0.0
21.659,0.123,-0.825,100.0
18.549,0.105,-0.815,15.0
18.48,0.104,-0.92,15.0
16.678,0.094,-0.929,0.0
15.261,0.086,-0.94,0.0
14.0,0.078,-0.944,0.0
21.642,0.118,-0.868,151.0
18.562,0.1,-0.852,5.0
18.359,0.099,-0.951,0.0
16.127,0.086,-0.931,0.0
14.815,0.079,-0.942,0.0
13.609,0.072,-0.945,0.0
21.606,0.111,-0.909,150.0
18.517,0.094,-0.887,8.0
17.113,0.087,-0.919,0.0
15.812,0.08,-0.944,0.0
14.466,0.072,-0.948,0.0
13.289,0.066,-0.949,0.0
0.0,0.0,0.0,0.0
18.476,0.088,-0.921,8.0
16.707,0.079,-0.93,0.0
15.262,0.072,-0.941,0.0
13.967,0.065,-0.943,0.0
12.957,0.06,-0.951,0.0
20.526,0.091,-0.943,4.0
18.01,0.079,-0.933,0.0
16.128,0.07,-0.929,0.0
14.801,0.064,-0.941,0.0
13.546,0.058,-0.941,0.0
12.616,0.053,-0.95,0.0
18.578,0.075,-0.889,1.0
17.143,0.068,-0.92,0.0
15.805,0.062,-0.941,0.0
14.478,0.056,-0.948,0.0
13.306,0.051,-0.949,0.0
12.253,0.047,-0.946,0.0
18.517,0.067,-0.921,1.0
16.7,0.059,-0.928,0.0
15.287,0.053,-0.939,0.0
14.027,0.048,-0.945,0.0
12.977,0.044,-0.951,0.0
11.983,0.04,-0.948,0.0
17.97,0.056,-0.928,0.0
16.178,0.05,-0.93,0.0
14.838,0.045,-0.94,0.0
13.631,0.04,-0.944,0.0
12.609,0.036,-0.947,0.0
11.603,0.033,-0.94,0.0
17.21,0.045,-0.921,0.0
15.779,0.04,-0.936,0.0
14.49,0.036,-0.945,0.0
13.305,0.032,-0.946,0.0
12.294,0.029,-0.947,0.0
11.43,0.026,-0.947,0.0
16.737,0.035,-0.926,0.0
15.33,0.031,-0.938,0.0
20.223,0.04,-1.355,0.0
12.93,0.024,-0.943,0.0
12.045,0.022,-0.949,0.0
11.193,0.019,-0.948,0.0
16.353,0.025,-0.935,0.0
14.878,0.021,-0.937,0.0
20.276,0.028,-1.396,0.0
12.669,0.016,-0.947,0.0
11.703,0.014,-0.944,0.0
20.201,0.023,-1.748,0.0
15.846,0.015,-0.934,0.0
14.574,0.012,-0.944,0.0
13.36,0.01,-0.943,0.0
12.383,0.008,-0.948,0.0
11.497,0.007,-0.947,0.0
10.722,0.006,-0.946,0.0
15.444,0.005,-0.937,0.0
13.116,0.002,-0.949,0.0
12.107,0.0,-0.948,0.0
11.223,0.0,-0.944,0.0
10.522,0.0,-0.947,0.0
14.999,-0.005,-0.936,0.0
12.743,-0.006,-0.944,0.0
11.807,-0.007,-0.945,0.0
10.313,-0.007,-0.946,0.0
14.668,-0.015,-0.94,0.0
12.492,-0.015,-0.947,0.0
11.554,-0.015,-0.944,0.0
10.803,-0.015,-0.946,0.0
10.147,-0.015,-0.948,0.0
13.217,-0.024,-0.946,0.0
12.211,-0.023,-0.946,0.0
11.288,-0.023,-0.941,0.0
10.56,-0.022,-0.942,0.0
9.937,-0.022,-0.945,0.0
12.9,-0.033,-0.945,0.0
12.005,-0.032,-0.949,0.0
11.187,-0.031,-0.951,0.0
10.417,-0.03,-0.946,0.0
9.785,-0.029,-0.946,0.0
12.662,-0.042,-0.948,0.0
11.682,-0.04,-0.943,0.0
10.966,-0.039,-0.95,0.0
10.231,-0.037,-0.946,0.0
9.612,-0.036,-0.945,0.0
13.336,-0.054,-0.942,0.0
12.384,-0.052,-0.947,0.0
11.435,-0.049,-0.941,0.0
10.658,-0.047,-0.94,0.0
10.072,-0.045,-0.947,0.0
9.453,-0.044,-0.945,0.0
13.113,-0.064,-0.946,0.0
12.116,-0.061,-0.945,0.0
11.237,-0.058,-0.942,0.0
10.522,-0.055,-0.945,0.0
9.867,-0.053,-0.943,0.0
9.304,-0.051,-0.944,0.0
12.852,-0.074,-0.947,0.0
11.863,-0.07,-0.943,0.0
11.043,-0.066,-0.942,0.0
10.345,-0.063,-0.944,0.0
9.732,-0.061,-0.945,0.0
9.151,-0.058,-0.942,0.0
12.561,-0.083,-0.944,0.0
11.664,-0.079,-0.945,0.0
10.88,-0.075,-0.944,0.0
10.164,-0.071,-0.943,0.0
9.593,-0.068,-0.946,0.0
9.003,-0.065,-0.94,0.0
12.348,-0.093,-0.946,0.0
11.405,-0.088,-0.94,0.0
10.674,-0.083,-0.942,0.0
10.027,-0.08,-0.944,0.0
9.442,-0.076,-0.944,0.0
8.894,-0.073,-0.942,0.0
12.131,-0.103,-0.947,0.0
11.237,-0.097,-0.942,0.0
10.52,-0.092,-0.943,0.0
9.891,-0.088,-0.945,0.0
9.296,-0.084,-0.943,0.0
8.777,-0.08,-0.941,0.0
11.839,-0.112,-0.94,0.0
10.362,-0.101,-0.943,0.0
9.746,-0.096,-0.945,0.0
9.154,-0.092,-0.941,0.0
8.662,-0.088,-0.941,0.0
11.654,-0.122,-0.941,0.0
10.201,-0.109,-0.943,0.0
9.612,-0.104,-0.945,0.0
9.044,-0.099,-0.942,0.0
8.554,-0.095,-0.941,0.0
11.492,-0.131,-0.943,0.0
10.745,-0.124,-0.944,0.0
10.082,-0.118,-0.944,0.0
9.471,-0.112,-0.943,0.0
8.916,-0.107,-0.94,0.0
8.425,-0.103,-0.937,0.0
11.317,-0.141,-0.943,0.0
10.587,-0.133,-0.944,0.0
9.936,-0.127,-0.943,0.0
9.32,-0.12,-0.94,0.0
8.812,-0.115,-0.94,0.0
8.349,-0.11,-0.939,0.0
11.199,-0.151,-0.947,0.0
10.422,-0.142,-0.942,0.0
9.825,-0.135,-0.945,0.0
9.256,-0.129,-0.945,0.0
8.725,-0.123,-0.941,0.0
8.262,-0.118,-0.94,0.0
11.073,-0.161,-0.95,0.0
10.295,-0.151,-0.942,0.0
9.679,-0.144,-0.942,0.0
9.101,-0.137,-0.94,0.0
8.587,-0.13,-0.937,0.0
8.186,-0.126,-0.94,0.0
10.875,-0.17,-0.945,0.0
10.195,-0.161,-0.945,0.0
9.549,-0.152,-0.94,0.0
9.024,-0.145,-0.942,0.0
8.524,-0.139,-0.939,0.0
8.114,-0.134,-0.941,0.0
10.728,-0.179,-0.944,0.0
10.081,-0.17,-0.946,0.0
9.469,-0.161,-0.943,0.0
8.902,-0.153,-0.939,0.0
8.431,-0.147,-0.938,0.0
8.033,-0.141,-0.941,0.0
10.581,-0.189,-0.943,0.0
9.932,-0.179,-0.942,0.0
9.359,-0.17,-0.942,0.0
8.828,-0.162,-0.94,0.0
8.358,-0.155,-0.939,0.0
7.947,-0.149,-0.939,0.0
10.479,-0.199,-0.944,0.0
9.85,-0.188,-0.945,0.0
9.26,-0.179,-0.941,0.0
8.734,-0.17,-0.939,0.0
8.271,-0.163,-0.938,0.0
7.895,-0.157,-0.941,0.0
10.39,-0.209,-0.947,0.0
9.731,-0.197,-0.943,0.0
9.161,-0.187,-0.94,0.0
8.653,-0.179,-0.939,0.0
8.218,-0.171,-0.94,0.0
7.83,-0.165,-0.941,0.0
10.282,-0.218,-0.947,0.0
9.62,-0.206,-0.941,0.0
9.076,-0.196,-0.94,0.0
8.57,-0.187,-0.938,0.0
8.158,-0.179,-0.94,0.0
7.775,-0.173,-0.941,0.0
10.174,-0.228,-0.946,0.0
9.546,-0.216,-0.942,0.0
8.999,-0.205,-0.94,0.0
8.495,-0.195,-0.938,0.0
8.086,-0.188,-0.939,0.0
7.705,-0.18,-0.94,0.0
10.083,-0.238,-0.946,0.0
9.467,-0.225,-0.943,0.0
8.934,-0.214,-0.941,0.0
8.394,-0.203,-0.934,0.0
8.023,-0.196,-0.939,0.0
7.673,-0.189,-0.942,0.0
9.99,-0.248,-0.946,0.0
9.413,-0.235,-0.945,0.0
8.824,-0.222,-0.937,0.0
8.325,-0.211,-0.932,0.0
7.988,-0.204,-0.941,0.0
7.637,-0.197,-0.944,0.0
9.918,-0.258,-0.946,0.0
9.327,-0.244,-0.943,0.0
8.769,-0.231,-0.938,0.0
8.312,-0.221,-0.937,0.0
7.919,-0.212,-0.939,0.0
7.584,-0.205,-0.943,0.0
9.812,-0.267,-0.944,0.0
9.254,-0.254,-0.943,0.0
8.714,-0.241,-0.938,0.0
8.243,-0.229,-0.936,0.0
7.887,-0.221,-0.941,0.0
7.546,-0.213,-0.943,0.0
9.755,-0.277,-0.945,0.0
9.201,-0.263,-0.944,0.0
8.642,-0.249,-0.936,0.0
8.21,-0.238,-0.937,0.0
7.814,-0.228,-0.937,0.0
7.512,-0.221,-0.944,0.0
9.694,-0.287,-0.945,0.0
9.15,-0.273,-0.944,0.0
8.592,-0.258,-0.936,0.0
8.151,-0.247,-0.936,0.0
7.803,-0.238,-0.941,0.0
7.479,-0.23,-0.945,0.0
9.635,-0.298,-0.945,0.0
9.094,-0.283,-0.944,0.0
8.565,-0.268,-0.938,0.0
8.096,-0.255,-0.934,0.0
7.763,-0.246,-0.94,0.0
7.462,-0.238,-0.947,0.0
9.579,-0.307,-0.945,0.0
9.02,-0.291,-0.941,0.0
8.527,-0.277,-0.939,0.0
8.088,-0.265,-0.937,0.0
7.737,-0.255,-0.941,0.0
7.401,-0.246,-0.943,0.0
9.553,-0.318,-0.947,0.0
8.984,-0.301,-0.942,0.0
8.456,-0.285,-0.935,0.0
8.036,-0.273,-0.935,0.0
7.702,-0.263,-0.941,0.0
7.39,-0.254,-0.945,0.0
9.511,-0.329,-0.947,0.0
8.938,-0.311,-0.941,0.0
8.457,-0.296,-0.939,0.0
8.035,-0.283,-0.939,0.0
7.687,-0.272,-0.942,0.0
7.362,-0.263,-0.945,0.0
9.453,-0.338,-0.946,0.0
8.9,-0.32,-0.941,0.0
8.425,-0.305,-0.939,0.0
8.005,-0.292,-0.938,0.0
7.657,-0.281,-0.941,0.0
7.344,-0.271,-0.945,0.0
9.442,-0.35,-0.948,0.0
8.861,-0.33,-0.94,0.0
8.383,-0.314,-0.937,0.0
7.972,-0.3,-0.937,0.0
7.631,-0.289,-0.941,0.0
7.319,-0.279,-0.944,0.0
9.397,-0.36,-0.947,0.0
8.849,-0.341,-0.941,0.0
8.376,-0.324,-0.939,0.0
7.954,-0.31,-0.938,0.0
7.625,-0.299,-0.942,0.0
7.322,-0.288,-0.947,0.0
9.377,-0.37,-0.947,0.0
8.827,-0.351,-0.942,0.0
8.331,-0.333,-0.936,0.0
7.932,-0.319,-0.937,0.0
7.615,-0.308,-0.943,0.0
7.299,-0.297,-0.946,0.0
9.357,-0.381,-0.947,0.0
8.804,-0.361,-0.941,0.0
8.337,-0.343,-0.938,0.0
7.947,-0.329,-0.941,0.0
7.586,-0.316,-0.941,0.0
7.288,-0.305,-0.946,0.0
9.336,-0.392,-0.947,0.0
8.795,-0.371,-0.942,0.0
8.306,-0.352,-0.936,0.0
7.927,-0.338,-0.939,0.0
7.605,-0.326,-0.945,0.0
7.294,-0.314,-0.948,0.0
9.306,-0.402,-0.945,0.0
8.783,-0.381,-0.942,0.0
8.324,-0.363,-0.94,0.0
7.937,-0.348,-0.942,0.0
7.608,-0.335,-0.946,0.0
7.278,-0.323,-0.946,0.0
9.316,-0.414,-0.947,0.0
8.79,-0.392,-0.943,0.0
8.307,-0.373,-0.938,0.0
7.923,-0.357,-0.941,0.0
7.58,-0.344,-0.943,0.0
7.279,-0.332,-0.947,0.0
9.317,-0.425,-0.948,0.0
8.777,-0.402,-0.942,0.0
8.311,-0.383,-0.939,0.0
7.903,-0.366,-0.939,0.0
7.551,-0.351,-0.939,0.0
7.27,-0.34,-0.946,0.0
9.294,-0.435,-0.946,0.0
8.793,-0.413,-0.944,0.0
8.294,-0.392,-0.937,0.0
7.912,-0.376,-0.939,0.0
7.59,-0.362,-0.944,0.0
7.264,-0.348,-0.945,0.0
9.335,-0.448,-0.949,0.0
8.79,-0.424,-0.943,0.0
8.286,-0.401,-0.936,0.0
7.926,-0.386,-0.941,0.0
7.58,-0.37,-0.942,0.0
7.264,-0.357,-0.944,0.0
9.332,-0.459,-0.948,0.0
8.818,-0.435,-0.945,0.0
8.321,-0.413,-0.939,0.0
7.931,-0.395,-0.94,0.0
7.593,-0.38,-0.943,0.0
7.277,-0.366,-0.945,0.0
9.34,-0.47,-0.948,0.0
8.816,-0.445,-0.944,0.0
8.368,-0.425,-0.943,0.0
7.938,-0.405,-0.94,0.0
7.627,-0.39,-0.946,0.0
7.303,-0.376,-0.947,0.0
9.378,-0.482,-0.95,0.0
8.833,-0.456,-0.944,0.0
8.35,-0.433,-0.939,0.0
7.955,-0.415,-0.94,0.0
7.633,-0.4,-0.945,0.0
7.308,-0.384,-0.946,0.0
9.404,-0.495,-0.951,0.0
8.852,-0.467,-0.944,0.0
8.383,-0.445,-0.941,0.0
7.95,-0.423,-0.938,0.0
7.647,-0.409,-0.945,0.0
7.329,-0.394,-0.947,0.0
9.433,-0.507,-0.951,0.0
8.873,-0.479,-0.944,0.0
8.403,-0.455,-0.941,0.0
7.98,-0.434,-0.939,0.0
7.632,-0.417,-0.941,0.0
7.339,-0.402,-0.946,0.0
9.454,-0.518,-0.951,0.0
8.912,-0.49,-0.946,0.0
8.446,-0.467,-0.943,0.0
8.006,-0.444,-0.94,0.0
7.67,-0.427,-0.943,0.0
7.359,-0.412,-0.946,0.0
9.497,-0.531,-0.952,0.0
8.921,-0.501,-0.943,0.0
8.459,-0.476,-0.942,0.0
8.046,-0.455,-0.941,0.0
7.691,-0.437,-0.943,0.0
7.369,-0.42,-0.945,0.0
9.54,-0.544,-0.952,0.0
8.991,-0.514,-0.947,0.0
8.494,-0.488,-0.942,0.0
8.051,-0.464,-0.939,0.0
7.71,-0.446,-0.942,0.0
7.392,-0.429,-0.944,0.0
9.594,-0.557,-0.953,0.0
9.054,-0.527,-0.95,0.0
8.548,-0.5,-0.944,0.0
8.09,-0.475,-0.939,0.0
7.782,-0.458,-0.947,0.0
7.434,-0.44,-0.946,0.0
9.656,-0.57,-0.955,0.0
9.089,-0.539,-0.949,0.0
8.568,-0.51,-0.942,0.0
8.117,-0.485,-0.939,0.0
7.804,-0.468,-0.946,0.0
7.442,-0.448,-0.943,0.0
9.667,-0.581,-0.951,0.0
9.123,-0.55,-0.948,0.0
8.601,-0.52,-0.941,0.0
8.172,-0.496,-0.941,0.0
7.848,-0.478,-0.947,0.0
7.514,-0.459,-0.948,0.0
9.744,-0.595,-0.953,0.0
9.208,-0.564,-0.952,0.0
8.69,-0.534,-0.946,0.0
8.218,-0.507,-0.941,0.0
7.848,-0.486,-0.942,0.0
7.535,-0.468,-0.946,0.0
9.815,-0.609,-0.954,0.0
9.258,-0.576,-0.951,0.0
8.742,-0.546,-0.946,0.0
8.253,-0.517,-0.94,0.0
7.896,-0.496,-0.943,0.0
7.558,-0.477,-0.944,0.0
9.887,-0.623,-0.955,0.0
9.324,-0.589,-0.952,0.0
8.813,-0.558,-0.948,0.0
8.333,-0.53,-0.943,0.0
7.956,-0.508,-0.945,0.0
7.612,-0.487,-0.946,0.0
9.943,-0.635,-0.954,0.0
9.416,-0.603,-0.955,0.0
8.856,-0.569,-0.947,0.0
8.38,-0.54,-0.943,0.0
7.997,-0.517,-0.944,0.0
7.637,-0.496,-0.944,0.0
10.038,-0.65,-0.956,0.0
9.49,-0.617,-0.956,0.0
8.932,-0.582,-0.948,0.0
8.467,-0.553,-0.946,0.0
8.055,-0.528,-0.945,0.0
7.699,-0.506,-0.946,0.0
10.108,-0.664,-0.955,0.0
9.573,-0.63,-0.957,0.0
9.021,-0.596,-0.951,0.0
8.521,-0.564,-0.946,0.0
8.111,-0.539,-0.945,0.0
7.74,-0.516,-0.944,0.0
10.211,-0.679,-0.957,0.0
9.662,-0.644,-0.958,0.0
9.103,-0.609,-0.952,0.0
8.621,-0.578,-0.95,0.0
8.156,-0.548,-0.943,0.0
7.814,-0.527,-0.947,0.0
10.302,-0.693,-0.957,0.0
9.777,-0.66,-0.961,0.0
9.169,-0.62,-0.951,0.0
8.684,-0.589,-0.949,0.0
8.225,-0.56,-0.944,0.0
7.855,-0.536,-0.945,0.0
10.379,-0.706,-0.955,0.0
9.841,-0.672,-0.959,0.0
9.247,-0.633,-0.951,0.0
8.759,-0.601,-0.95,0.0
8.292,-0.57,-0.945,0.0
7.907,-0.545,-0.944,0.0
10.482,-0.721,-0.955,0.0
9.93,-0.685,-0.959,0.0
9.371,-0.648,-0.956,0.0
8.845,-0.613,-0.951,0.0
8.364,-0.581,-0.945,0.0
7.968,-0.555,-0.944,0.0
10.575,-0.735,-0.954,0.0
10.037,-0.7,-0.96,0.0
9.447,-0.66,-0.955,0.0
8.916,-0.624,-0.95,0.0
8.453,-0.593,-0.947,0.0
8.054,-0.567,-0.946,0.0
10.74,-0.754,-0.958,0.0
10.129,-0.713,-0.958,0.0
9.574,-0.675,-0.958,0.0
9.046,-0.64,-0.955,0.0
8.551,-0.606,-0.949,0.0
8.115,-0.577,-0.945,0.0
10.798,-0.765,-0.953,0.0
10.187,-0.724,-0.954,0.0
9.682,-0.689,-0.959,0.0
9.109,-0.65,-0.952,0.0
8.678,-0.621,-0.955,0.0
8.201,-0.588,-0.947,0.0
11.002,-0.787,-0.959,0.0
10.363,-0.743,-0.959,0.0
9.781,-0.702,-0.958,0.0
9.248,-0.666,-0.957,0.0
8.758,-0.632,-0.954,0.0
8.278,-0.598,-0.947,0.0
11.096,-0.8,-0.955,0.0
10.474,-0.757,-0.958,0.0
9.913,-0.718,-0.961,0.0
9.322,-0.676,-0.955,0.0
8.832,-0.642,-0.952,0.0
8.361,-0.609,-0.947,0.0
11.24,-0.817,-0.955,0.0
10.599,-0.772,-0.958,0.0
10.036,-0.732,-0.961,0.0
9.448,-0.69,-0.957,0.0
8.93,-0.654,-0.953,0.0
8.454,-0.62,-0.948,0.0
11.476,-0.84,-0.963,0.0
10.749,-0.788,-0.959,0.0
10.132,-0.744,-0.959,0.0
9.566,-0.704,-0.958,0.0
9.055,-0.667,-0.956,0.0
8.595,-0.635,-0.954,0.0
11.627,-0.857,-0.962,0.0
10.918,-0.806,-0.962,0.0
10.244,-0.757,-0.958,0.0
9.694,-0.718,-0.959,0.0
9.18,-0.681,-0.958,0.0
8.67,-0.644,-0.952,0.0
11.786,-0.874,-0.961,0.0
10.979,-0.815,-0.954,0.0
10.411,-0.774,-0.961,0.0
9.822,-0.731,-0.96,0.0
9.303,-0.694,-0.96,0.0
8.782,-0.656,-0.953,0.0
12.015,-0.896,-0.965,0.0
11.177,-0.834,-0.958,0.0
10.519,-0.786,-0.958,0.0
9.981,-0.747,-0.964,0.0
9.382,-0.703,-0.956,0.0
8.87,-0.666,-0.952,0.0
12.237,-0.917,-0.968,0.0
11.391,-0.854,-0.962,0.0
10.695,-0.803,-0.961,0.0
10.104,-0.76,-0.963,0.0
9.533,-0.718,-0.96,0.0
9.041,-0.682,-0.959,0.0
12.459,-0.937,-0.97,0.0
11.57,-0.872,-0.963,0.0
10.908,-0.823,-0.966,0.0
10.182,-0.769,-0.957,0.0
9.695,-0.733,-0.963,0.0
9.156,-0.693,-0.959,0.0
12.616,-0.953,-0.966,0.0
11.765,-0.89,-0.964,0.0
10.987,-0.832,-0.959,0.0
10.36,-0.785,-0.96,0.0
9.798,-0.744,-0.961,0.0
9.271,-0.705,-0.959,0.0
12.879,-0.976,-0.969,0.0
11.996,-0.91,-0.967,0.0
11.13,-0.846,-0.956,0.0
10.508,-0.799,-0.96,0.0
9.941,-0.757,-0.962,0.0
9.401,-0.716,-0.96,0.0
13.075,-0.994,-0.967,0.0
12.206,-0.929,-0.967,0.0
11.401,-0.868,-0.964,0.0
10.67,-0.814,-0.96,0.0
10.129,-0.773,-0.966,0.0
9.544,-0.729,-0.961,0.0
13.813,-1.053,-1.002,0.0
12.479,-0.952,-0.972,0.0
11.616,-0.887,-0.967,0.0
10.88,-0.831,-0.965,0.0
10.236,-0.783,-0.962,0.0
9.715,-0.744,-0.965,0.0
14.02,-1.07,-0.998,0.0
12.687,-0.969,-0.971,0.0
11.795,-0.902,-0.965,0.0
10.99,-0.841,-0.959,0.0
10.392,-0.796,-0.962,0.0
9.824,-0.753,-0.962,0.0
14.054,-1.074,-0.981,0.0
12.874,-0.985,-0.967,0.0
12.007,-0.919,-0.966,0.0
11.248,-0.861,-0.966,0.0
10.572,-0.81,-0.964,0.0
9.943,-0.763,-0.96,0.0
14.22,-1.088,-0.973,1.0
13.167,-1.008,-0.971,0.0
12.293,-0.941,-0.971,0.0
11.425,-0.875,-0.965,0.0
10.7,-0.82,-0.96,0.0
10.12,-0.776,-0.962,0.0
14.281,-1.093,-0.957,1.0
14.057,-1.076,-1.016,0.0
12.512,-0.958,-0.971,0.0
11.656,-0.893,-0.967,0.0
10.956,-0.84,-0.967,0.0
10.306,-0.791,-0.965,0.0
14.278,-1.092,-0.936,1.0
13.961,-1.068,-0.989,0.0
12.754,-0.976,-0.971,0.0
11.858,-0.908,-0.967,0.0
11.081,-0.849,-0.962,0.0
10.449,-0.801,-0.963,0.0
14.265,-1.09,-0.914,1.0
14.115,-1.079,-0.979,0.0
13.043,-0.997,-0.974,0.0
12.106,-0.926,-0.969,0.0
11.312,-0.865,-0.966,0.0
10.623,-0.813,-0.963,0.0
14.286,-1.09,-0.895,1.0
14.272,-1.09,-0.969,1.0
13.57,-1.036,-0.993,0.0
12.414,-0.948,-0.975,0.0
11.556,-0.882,-0.969,0.0
10.832,-0.827,-0.966,0.0
14.302,-1.09,-0.874,1.0
14.312,-1.09,-0.95,1.0
13.887,-1.058,-0.995,0.0
12.565,-0.957,-0.968,0.0
11.741,-0.894,-0.967,0.0
11.002,-0.838,-0.965,0.0
14.37,-1.092,-0.857,1.0
14.307,-1.087,-0.929,1.0
14.013,-1.065,-0.984,0.0
12.831,-0.975,-0.97,0.0
11.994,-0.911,-0.97,0.0
11.197,-0.85,-0.965,0.0
14.662,-1.111,-0.852,1.0
14.312,-1.084,-0.907,1.0
14.253,-1.079,-0.979,0.0
13.08,-0.99,-0.968,0.0
12.202,-0.924,-0.968,0.0
11.415,-0.864,-0.966,0.0
14.903,-1.125,-0.844,0.0
14.328,-1.081,-0.886,1.0
14.323,-1.08,-0.962,1.0
14.053,-1.06,-1.019,0.0
12.512,-0.943,-0.973,0.0
11.67,-0.879,-0.969,0.0
15.247,-1.146,-0.84,1.0
14.353,-1.078,-0.866,1.0
14.317,-1.075,-0.939,1.0
13.869,-1.041,-0.984,0.0
12.815,-0.961,-0.977,0.0
11.904,-0.893,-0.97,0.0
15.476,-1.158,-0.828,1.0
14.543,-1.087,-0.855,0.0
14.35,-1.072,-0.919,1.0
14.194,-1.06,-0.985,0.0
13.075,-0.976,-0.976,0.0
12.172,-0.908,-0.973,0.0
15.741,-1.171,-0.818,1.0
14.82,-1.102,-0.848,0.0
14.345,-1.066,-0.896,1.0
14.335,-1.064,-0.973,1.0
14.21,-1.054,-1.039,0.0
12.475,-0.925,-0.978,0.0
16.099,-1.19,-0.812,1.0
15.17,-1.121,-0.845,1.0
14.394,-1.063,-0.877,1.0
14.36,-1.059,-0.952,1.0
13.809,-1.018,-0.988,0.0
12.727,-0.937,-0.978,0.0
16.453,-1.209,-0.804,1.0
15.357,-1.127,-0.831,1.0
14.453,-1.059,-0.858,1.0
14.375,-1.053,-0.93,1.0
14.098,-1.032,-0.987,0.0
12.96,-0.947,-0.975,0.0
17.046,-1.243,-0.807,2.0
15.666,-1.141,-0.823,1.0
14.776,-1.075,-0.854,0.0
14.417,-1.048,-0.911,1.0
14.355,-1.042,-0.982,0.0
13.729,-0.996,-1.012,0.0
17.265,-1.249,-0.79,2.0
16.015,-1.157,-0.817,0.0
15.087,-1.089,-0.849,1.0
14.433,-1.04,-0.889,1.0
14.429,-1.039,-0.965,1.0
14.097,-1.014,-1.017,0.0
17.951,-1.287,-0.793,1.0
16.372,-1.173,-0.809,1.0
15.3,-1.094,-0.837,1.0
14.475,-1.034,-0.869,1.0
14.451,-1.031,-0.943,1.0
13.973,-0.996,-0.986,0.0
18.403,-1.308,-0.785,1.0
16.786,-1.191,-0.804,1.0
15.623,-1.107,-0.83,1.0
14.67,-1.038,-0.858,1.0
14.488,-1.024,-0.923,1.0
14.276,-1.007,-0.985,0.0
19.168,-1.349,-0.787,0.0
17.242,-1.211,-0.798,1.0
15.907,-1.116,-0.82,1.0
14.966,-1.048,-0.852,0.0
14.519,-1.015,-0.902,1.0
14.495,-1.012,-0.977,1.0
19.803,-1.379,-0.783,0.0
17.893,-1.243,-0.801,2.0
16.239,-1.127,-0.812,1.0
15.28,-1.058,-0.846,1.0
14.532,-1.004,-0.881,1.0
14.53,-1.003,-0.957,1.0
20.374,-1.402,-0.774,1.0
18.296,-1.257,-0.791,1.0
16.672,-1.143,-0.808,1.0
15.521,-1.062,-0.835,1.0
14.611,-0.998,-0.862,1.0
14.577,-0.994,-0.937,1.0
21.084,-1.434,-0.768,1.0
18.94,-1.285,-0.789,1.0
17.09,-1.157,-0.801,1.0
15.791,-1.067,-0.825,1.0
14.943,-1.008,-0.859,0.0
14.608,-0.983,-0.916,1.0
21.901,-1.47,-0.763,0.0
19.637,-1.315,-0.787,0.0
17.628,-1.178,-0.799,0.0
16.153,-1.077,-0.818,1.0
15.204,-1.011,-0.85,1.0
14.631,-0.971,-0.895,1.0
22.969,-1.521,-0.765,2.0
20.281,-1.339,-0.782,0.0
18.282,-1.205,-0.8,2.0
16.476,-1.083,-0.809,1.0
15.47,-1.014,-0.841,0.0
14.671,-0.96,-0.875,1.0
23.686,-1.546,-0.753,9.0
20.788,-1.353,-0.769,0.0
18.727,-1.216,-0.791,1.0
16.987,-1.1,-0.808,0.0
15.744,-1.017,-0.832,1.0
14.842,-0.956,-0.862,0.0
23.924,-1.537,-0.723,15.0
21.672,-1.389,-0.769,0.0
19.384,-1.239,-0.789,0.0
17.466,-1.113,-0.804,0.0
16.051,-1.02,-0.823,1.0
15.183,-0.962,-0.859,0.0
24.228,-1.532,-0.696,19.0
22.528,-1.42,-0.765,1.0
20.042,-1.26,-0.785,0.0
18.202,-1.141,-0.811,1.0
16.346,-1.022,-0.814,1.0
15.419,-0.961,-0.848,0.0
24.371,-1.515,-0.663,28.0
23.688,-1.468,-0.769,5.0
20.876,-1.29,-0.787,1.0
18.528,-1.141,-0.797,1.0
16.888,-1.037,-0.815,0.0
15.675,-0.959,-0.839,1.0
24.43,-1.491,-0.628,37.0
23.843,-1.451,-0.738,14.0
21.25,-1.289,-0.769,1.0
19.159,-1.158,-0.796,1.0
17.333,-1.044,-0.811,1.0
15.976,-0.959,-0.831,1.0
24.456,-1.465,-0.592,43.0
24.109,-1.439,-0.71,13.0
22.179,-1.319,-0.77,0.0
19.825,-1.175,-0.794,1.0
17.795,-1.051,-0.806,0.0
16.251,-0.957,-0.822,1.0
24.48,-1.437,-0.557,39.0
24.346,-1.424,-0.681,23.0
23.384,-1.363,-0.777,5.0
20.51,-1.191,-0.791,3.0
18.362,-1.062,-0.805,1.0
16.576,-0.955,-0.814,1.0
24.5,-1.408,-0.521,49.0
24.407,-1.397,-0.648,25.0
23.799,-1.357,-0.756,12.0
21.106,-1.199,-0.784,2.0
18.859,-1.067,-0.799,0.0
17.007,-0.959,-0.81,0.0
24.532,-1.379,-0.487,41.0
24.461,-1.369,-0.614,25.0
23.956,-1.336,-0.727,16.0
21.778,-1.209,-0.777,1.0
19.497,-1.078,-0.798,0.0
17.465,-0.962,-0.807,0.0
24.57,-1.349,-0.452,34.0
24.505,-1.339,-0.58,35.0
24.259,-1.32,-0.701,16.0
22.605,-1.225,-0.775,2.0
20.223,-1.091,-0.799,1.0
18.089,-0.972,-0.81,0.0
31.492,-1.686,-0.535,4.0
24.542,-1.308,-0.546,16.0
24.442,-1.297,-0.672,18.0
23.554,-1.245,-0.774,6.0
20.833,-1.096,-0.794,1.0
18.533,-0.97,-0.804,0.0
37.983,-1.982,-0.593,10.0
30.694,-1.594,-0.64,29.0
24.538,-1.268,-0.64,16.0
23.818,-1.225,-0.749,14.0
21.391,-1.095,-0.786,1.0
19.075,-0.972,-0.801,0.0
38.104,-1.934,-0.542,3.0
30.935,-1.562,-0.603,28.0
28.63,-1.439,-0.708,2.0
24.055,-1.203,-0.724,15.0
22.093,-1.099,-0.781,2.0
19.676,-0.974,-0.799,0.0
31.303,-1.543,-0.402,17.0
31.139,-1.527,-0.564,34.0
30.487,-1.487,-0.713,17.0
24.513,-1.189,-0.704,11.0
23.104,-1.115,-0.786,4.0
20.395,-0.979,-0.801,0.0
31.219,-1.493,-0.36,43.0
31.188,-1.483,-0.523,44.0
30.57,-1.446,-0.674,31.0
24.659,-1.159,-0.676,1.0
23.723,-1.109,-0.775,11.0
21.002,-0.976,-0.797,1.0
31.184,-1.444,-0.318,48.0
31.193,-1.436,-0.482,59.0
30.713,-1.406,-0.637,31.0
28.448,-1.294,-0.742,4.0
23.859,-1.079,-0.749,16.0
21.698,-0.975,-0.795,1.0
31.196,-1.396,-0.278,59.0
31.172,-1.387,-0.442,37.0
28.473,-1.259,-0.554,51.0
28.469,-1.251,-0.707,55.0
24.177,-1.055,-0.728,17.0
22.133,-0.96,-0.783,2.0
28.45,-1.229,-0.217,61.0
28.439,-1.22,-0.367,74.0
28.442,-1.212,-0.517,104.0
28.457,-1.205,-0.67,128.0
25.019,-1.052,-0.721,10.0
23.426,-0.978,-0.799,4.0
28.458,-1.183,-0.181,116.0
28.456,-1.174,-0.331,147.0
28.445,-1.166,-0.481,124.0
28.439,-1.157,-0.634,86.0
28.229,-1.14,-0.779,5.0
23.772,-0.954,-0.782,11.0
28.459,-1.136,-0.146,71.0
28.468,-1.128,-0.297,61.0
28.477,-1.12,-0.447,60.0
28.462,-1.111,-0.601,34.0
28.468,-1.103,-0.751,16.0
23.842,-0.916,-0.755,18.0
31.307,-1.197,-0.123,70.0
31.311,-1.188,-0.289,43.0
31.309,-1.178,-0.454,34.0
30.849,-1.152,-0.614,27.0
30.126,-1.116,-0.759,4.0
24.385,-0.896,-0.744,22.0
31.359,-1.145,-0.086,3.0
54.468,-1.973,-0.438,1.0
44.959,-1.615,-0.6,6.0
31.174,-1.11,-0.584,25.0
30.44,-1.074,-0.731,22.0
25.282,-0.885,-0.741,9.0
81.082,-2.82,-0.13,34.0
56.856,-1.961,-0.392,2.0
38.696,-1.322,-0.472,14.0
37.977,-1.286,-0.668,4.0
30.503,-1.024,-0.699,33.0
25.081,-0.834,-0.707,1.0
38.733,-1.279,-0.018,41.0
38.705,-1.267,-0.224,46.0
38.649,-1.252,-0.428,33.0
38.001,-1.22,-0.627,13.0
30.591,-0.972,-0.667,33.0
28.166,-0.886,-0.764,1.0
38.667,-1.208,0.023,65.0
38.659,-1.195,-0.181,66.0
38.629,-1.182,-0.386,49.0
38.147,-1.155,-0.588,20.0
30.848,-0.925,-0.639,33.0
29.049,-0.862,-0.757,1.0
38.659,-1.138,0.064,83.0
38.654,-1.125,-0.14,122.0
38.645,-1.112,-0.345,60.0
38.4,-1.093,-0.551,21.0
31.129,-0.876,-0.613,26.0
30.25,-0.842,-0.756,10.0
38.654,-1.067,0.104,71.0
38.65,-1.054,-0.1,65.0
38.682,-1.042,-0.306,53.0
38.571,-1.027,-0.515,22.0
31.553,-0.83,-0.589,9.0
30.431,-0.791,-0.73,28.0
38.731,-0.997,0.143,27.0
38.744,-0.985,-0.062,27.0
38.799,-0.973,-0.268,30.0
38.728,-0.959,-0.478,26.0
37.924,-0.926,-0.671,13.0
30.533,-0.736,-0.703,32.0
40.42,-0.964,0.189,38.0
40.414,-0.951,-0.025,38.0
40.417,-0.938,-0.241,38.0
40.411,-0.925,-0.461,44.0
38.065,-0.858,-0.637,22.0
30.753,-0.683,-0.679,31.0
38.387,-0.843,0.216,8.0
38.378,-0.83,0.011,32.0
38.363,-0.816,-0.193,54.0
38.354,-0.804,-0.402,38.0
38.235,-0.789,-0.605,13.0
31.113,-0.631,-0.658,27.0
52.93,-1.061,0.346,64.0
52.954,-1.042,0.064,57.0
52.943,-1.025,-0.218,48.0
45.539,-0.866,-0.436,19.0
38.602,-0.721,-0.576,12.0
31.514,-0.578,-0.639,6.0
81.805,-1.479,0.608,4.0
20.144,-0.357,0.042,25.0
20.115,-0.35,-0.065,11.0
52.92,-0.904,-0.461,39.0
44.877,-0.751,-0.631,14.0
35.977,-0.59,-0.699,2.0
20.129,-0.324,0.166,10.0
20.143,-0.317,0.058,41.0
20.12,-0.311,-0.049,6.0
59.25,-0.896,-0.467,4.0
44.893,-0.664,-0.595,31.0
0.0,0.0,0.0,0.0
20.125,-0.284,0.182,13.0
59.522,-0.822,0.221,17.0
59.523,-0.803,-0.097,70.0
56.585,-0.743,-0.401,16.0
45.093,-0.577,-0.562,18.0
37.953,-0.473,-0.677,23.0
20.164,-0.245,0.199,12.0
56.183,-0.664,0.252,2.0
56.294,-0.646,-0.048,2.0
59.543,-0.663,-0.377,9.0
45.596,-0.492,-0.534,9.0
38.129,-0.398,-0.651,15.0
64.321,-0.651,0.683,21.0
53.375,-0.522,0.28,3.0
53.369,-0.504,-0.007,2.0
53.356,-0.485,-0.299,3.0
20.151,-0.176,-0.221,8.0
20.164,-0.169,-0.329,26.0
58.31,-0.472,0.66,10.0
20.195,-0.156,0.12,15.0
20.172,-0.149,0.011,18.0
20.149,-0.142,-0.099,19.0
20.136,-0.135,-0.207,11.0
20.147,-0.128,-0.316,37.0
20.143,-0.122,0.241,22.0
20.125,-0.115,0.133,19.0
20.139,-0.108,0.024,28.0
20.137,-0.101,-0.085,28.0
20.149,-0.094,-0.194,33.0
20.147,-0.087,-0.303,35.0
20.121,-0.08,0.254,28.0
20.118,-0.073,0.145,29.0
20.133,-0.066,0.037,37.0
20.135,-0.059,-0.073,35.0
20.148,-0.052,-0.182,33.0
20.166,-0.045,-0.291,25.0
20.123,-0.038,0.266,27.0
20.114,-0.031,0.158,31.0
20.138,-0.025,0.049,31.0
20.169,-0.018,-0.061,19.0
20.202,-0.011,-0.17,14.0
20.23,-0.004,-0.28,13.0
20.131,0.002,0.278,29.0
20.128,0.009,0.169,27.0
20.169,0.016,0.06,28.0
20.263,0.023,-0.05,150.0
20.27,0.03,-0.16,95.0
20.228,0.037,-0.269,10.0
20.144,0.044,0.289,29.0
20.134,0.051,0.18,28.0
20.182,0.058,0.071,24.0
20.201,0.065,-0.04,36.0
20.2,0.072,-0.149,28.0
20.204,0.079,-0.259,14.0
20.158,0.086,0.299,30.0
20.16,0.094,0.19,28.0
20.183,0.101,0.08,35.0
20.175,0.108,-0.03,31.0
20.182,0.115,-0.139,50.0
20.188,0.122,-0.249,33.0
20.172,0.129,0.309,27.0
20.181,0.136,0.199,23.0
20.21,0.144,0.09,29.0
20.222,0.151,-0.021,25.0
20.193,0.158,-0.131,25.0
20.182,0.165,-0.24,31.0
20.272,0.173,0.319,28.0
20.302,0.18,0.209,29.0
20.311,0.187,0.098,30.0
20.332,0.195,-0.013,25.0
20.223,0.2,-0.123,1.0
20.201,0.207,-0.233,19.0
20.285,0.216,0.327,34.0
20.288,0.223,0.216,25.0
20.314,0.23,0.106,7.0
99.532,1.165,-0.03,4.0
0.0,0.0,0.0,0.0
20.244,0.25,-0.226,0.0
20.301,0.259,0.334,10.0
20.343,0.267,0.224,0.0
99.629,1.342,0.555,5.0
99.666,1.377,0.002,4.0
0.0,0.0,0.0,0.0
0.0,0.0,0.0,0.0
194.756,2.902,3.268,31.0
0.0,0.0,0.0,0.0
99.715,1.556,0.585,5.0
99.75,1.589,0.03,4.0
0.0,0.0,0.0,0.0
0.0,0.0,0.0,0.0
194.879,3.317,3.323,21.0
0.0,0.0,0.0,0.0
99.829,1.767,0.611,5.0
99.869,1.802,0.056,6.0
0.0,0.0,0.0,0.0
0.0,0.0,0.0,0.0
0.0,0.0,0.0,0.0
103.179,2.013,1.219,11.0
99.88,1.982,0.634,2.0
99.975,2.019,0.077,5.0
0.0,0.0,0.0,0.0
0.0,0.0,0.0,0.0
194.277,4.139,3.397,6.0
0.0,0.0,0.0,0.0
100.292,2.204,0.655,1.0
100.148,2.234,0.095,8.0
0.0,0.0,0.0,0.0
0.0,0.0,0.0,0.0
193.907,4.539,3.421,28.0
0.0,0.0,0.0,0.0
102.948,2.48,0.687,4.0
100.213,2.448,0.109,4.0
0.0,0.0,0.0,0.0
0.0,0.0,0.0,0.0
193.48,4.943,3.437,28.0
195.025,5.049,2.394,26.0
103.147,2.704,0.699,4.0
0.0,0.0,0.0,0.0
0.0,0.0,0.0,0.0
0.0,0.0,0.0,0.0
193.479,5.355,3.453,18.0
195.582,5.478,2.415,23.0
195.934,5.552,1.343,25.0
0.0,0.0,0.0,0.0
0.0,0.0,0.0,0.0
0.0,0.0,0.0,0.0
194.169,5.788,3.474,4.0
201.814,6.084,2.5,8.0
196.115,5.978,1.35,36.0
0.0,0.0,0.0,0.0
0.0,0.0,0.0,0.0
0.0,0.0,0.0,0.0
195.621,6.244,3.501,13.0
195.568,6.306,2.423,6.0
196.204,6.392,1.349,24.0
0.0,0.0,0.0,0.0
0.0,0.0,0.0,0.0
0.0,0.0,0.0,0.0
195.233,6.641,3.488,25.0
195.9,6.726,2.419,8.0
196.301,6.803,1.341,36.0
0.0,0.0,0.0,0.0
0.0,0.0,0.0,0.0
0.0,0.0,0.0,0.0
202.831,7.32,3.61,7.0
0.0,0.0,0.0,0.0
196.365,7.214,1.325,28.0
0.0,0.0,0.0,0.0
0.0,0.0,0.0,0.0
0.0,0.0,0.0,0.0
195.016,7.448,3.45,6.0
199.622,7.684,2.427,7.0
196.571,7.628,1.303,29.0
0.0,0.0,0.0,0.0
0.0,0.0,0.0,0.0
0.0,0.0,0.0,0.0
196.825,7.922,3.454,5.0
0.0,0.0,0.0,0.0
196.637,8.036,1.273,29.0
0.0,0.0,0.0,0.0
0.0,0.0,0.0,0.0
0.0,0.0,0.0,0.0
196.73,8.322,3.417,19.0
0.0,0.0,0.0,0.0
195.731,8.403,1.229,13.0
0.0,0.0,0.0,0.0
0.0,0.0,0.0,0.0
59.06,2.59,-0.617,0.0
204.948,9.091,3.515,21.0
204.969,9.154,2.378,70.0
196.86,8.85,1.191,36.0
0.0,0.0,0.0,0.0
0.0,0.0,0.0,0.0
0.0,0.0,0.0,0.0
204.844,9.503,3.461,19.0
205.212,9.584,2.327,10.0
197.127,9.265,1.141,33.0
0.0,0.0,0.0,0.0
0.0,0.0,0.0,0.0
0.0,0.0,0.0,0.0
0.0,0.0,0.0,0.0
197.849,9.636,2.186,10.0
197.184,9.664,1.081,28.0
0.0,0.0,0.0,0.0
0.0,0.0,0.0,0.0
0.0,0.0,0.0,0.0
197.908,9.978,3.223,7.0
206.362,10.465,2.21,9.0
197.229,10.062,1.014,27.0
0.0,0.0,0.0,0.0
68.998,3.561,-0.42,0.0
0.0,0.0,0.0,0.0
0.0,0.0,0.0,0.0
206.782,10.9,2.139,20.0
197.22,10.453,0.942,24.0
0.0,0.0,0.0,0.0
0.0,0.0,0.0,0.0
0.0,0.0,0.0,0.0
196.045,10.665,3.043,21.0
196.05,10.719,1.949,92.0
196.066,10.778,0.855,56.0
0.0,0.0,0.0,0.0
0.0,0.0,0.0,0.0
0.0,0.0,0.0,0.0
0.0,0.0,0.0,0.0
0.0,0.0,0.0,0.0
197.426,11.238,0.773,27.0
0.0,0.0,0.0,0.0
68.938,3.964,-0.507,3.0
0.0,0.0,0.0,0.0
0.0,0.0,0.0,0.0
208.115,12.188,1.88,7.0
197.588,11.627,0.679,24.0
0.0,0.0,0.0,0.0
68.921,4.095,-0.541,4.0
0.0,0.0,0.0,0.0
0.0,0.0,0.0,0.0
0.0,0.0,0.0,0.0
0.0,0.0,0.0,0.0
0.0,0.0,0.0,0.0
0.0,0.0,0.0,0.0
0.0,0.0,0.0,0.0
0.0,0.0,0.0,0.0
0.0,0.0,0.0,0.0
155.232,9.724,0.369,4.0
0.0,0.0,0.0,0.0
0.0,0.0,0.0,0.0
0.0,0.0,0.0,0.0
0.0,0.0,0.0,0.0
0.0,0.0,0.0,0.0
154.999,9.998,0.278,16.0
0.0,0.0,0.0,0.0
0.0,0.0,0.0,0.0
0.0,0.0,0.0,0.0
0.0,0.0,0.0,0.0
0.0,0.0,0.0,0.0
154.966,10.279,0.184,23.0
0.0,0.0,0.0,0.0
0.0,0.0,0.0,0.0
0.0,0.0,0.0,0.0
0.0,0.0,0.0,0.0
0.0,0.0,0.0,0.0
155.003,10.56,0.086,5.0
0.0,0.0,0.0,0.0
0.0,0.0,0.0,0.0
0.0,0.0,0.0,0.0
0.0,0.0,0.0,0.0
0.0,0.0,0.0,0.0
0.0,0.0,0.0,0.0
0.0,0.0,0.0,0.0
0.0,0.0,0.0,0.0
0.0,0.0,0.0,0.0
0.0,0.0,0.0,0.0
140.677,10.048,0.676,151.0
0.0,0.0,0.0,0.0
0.0,0.0,0.0,0.0
0.0,0.0,0.0,0.0
0.0,0.0,0.0,0.0
0.0,0.0,0.0,0.0
140.525,10.282,0.572,150.0
0.0,0.0,0.0,0.0
0.0,0.0,0.0,0.0
0.0,0.0,0.0,0.0
0.0,0.0,0.0,0.0
0.0,0.0,0.0,0.0
0.0,0.0,0.0,0.0
0.0,0.0,0.0,0.0
0.0,0.0,0.0,0.0
0.0,0.0,0.0,0.0
0.0,0.0,0.0,0.0
0.0,0.0,0.0,0.0
114.091,8.732,0.29,123.0
0.0,0.0,0.0,0.0
0.0,0.0,0.0,0.0
0.0,0.0,0.0,0.0
37.523,2.907,-0.755,0.0
114.265,8.909,0.843,8.0
114.024,8.914,0.197,21.0
0.0,0.0,0.0,0.0
0.0,0.0,0.0,0.0
0.0,0.0,0.0,0.0
37.261,2.948,-0.781,0.0
114.065,9.078,0.746,24.0
109.993,8.777,0.097,2.0
0.0,0.0,0.0,0.0
0.0,0.0,0.0,0.0
0.0,0.0,0.0,0.0
0.0,0.0,0.0,0.0
110.463,8.967,0.626,20.0
109.259,8.893,0.001,3.0
68.988,5.631,-0.389,0.0
0.0,0.0,0.0,0.0
0.0,0.0,0.0,0.0
34.99,2.879,-0.795,0.0
108.572,8.983,0.518,2.0
108.353,8.988,-0.095,3.0
68.925,5.732,-0.451,2.0
0.0,0.0,0.0,0.0
0.0,0.0,0.0,0.0
33.105,2.775,-0.783,0.0
107.822,9.087,0.415,6.0
108.036,9.128,-0.195,4.0
0.0,0.0,0.0,0.0
0.0,0.0,0.0,0.0
39.868,3.394,-0.754,0.0
32.907,2.808,-0.809,0.0
107.631,9.232,0.312,30.0
0.0,0.0,0.0,0.0
0.0,0.0,0.0,0.0
0.0,0.0,0.0,0.0
0.0,0.0,0.0,0.0
32.268,2.801,-0.824,1.0
107.604,9.388,0.208,56.0
0.0,0.0,0.0,0.0
0.0,0.0,0.0,0.0
0.0,0.0,0.0,0.0
37.655,3.315,-0.785,0.0
31.345,2.766,-0.832,0.0
99.734,8.844,0.093,3.0
0.0,0.0,0.0,0.0
0.0,0.0,0.0,0.0
0.0,0.0,0.0,0.0
36.002,3.221,-0.788,0.0
30.443,2.729,-0.839,0.0
0.0,0.0,0.0,0.0
69.0,6.227,-0.397,1.0
0.0,0.0,0.0,0.0
42.243,3.828,-0.727,0.0
35.088,3.187,-0.804,0.0
29.597,2.694,-0.846,0.0
0.0,0.0,0.0,0.0
68.98,6.319,-0.468,0.0
0.0,0.0,0.0,0.0
0.0,0.0,0.0,0.0
33.357,3.074,-0.799,1.0
28.574,2.639,-0.847,0.0
92.798,8.605,-0.201,1.0
0.0,0.0,0.0,0.0
0.0,0.0,0.0,0.0
0.0,0.0,0.0,0.0
32.497,3.037,-0.813,0.0
27.841,2.607,-0.855,0.0
0.0,0.0,0.0,0.0
0.0,0.0,0.0,0.0
0.0,0.0,0.0,0.0
37.45,3.539,-0.764,0.0
31.214,2.956,-0.815,0.0
27.185,2.579,-0.865,0.0
0.0,0.0,0.0,0.0
0.0,0.0,0.0,0.0
0.0,0.0,0.0,0.0
0.0,0.0,0.0,0.0
30.392,2.915,-0.827,0.0
26.238,2.521,-0.864,0.0
0.0,0.0,0.0,0.0
0.0,0.0,0.0,0.0
0.0,0.0,0.0,0.0
34.722,3.366,-0.787,0.0
29.826,2.896,-0.846,0.0
25.485,2.479,-0.868,0.0
68.968,6.731,-0.454,2.0
0.0,0.0,0.0,0.0
0.0,0.0,0.0,0.0
33.268,3.263,-0.791,1.0
28.595,2.809,-0.843,0.0
24.819,2.442,-0.874,0.0
68.943,6.805,-0.532,0.0
0.0,0.0,0.0,0.0
38.832,3.845,-0.743,0.0
32.473,3.22,-0.81,0.0
27.708,2.752,-0.849,0.0
24.005,2.388,-0.873,0.0
0.0,0.0,0.0,0.0
0.0,0.0,0.0,0.0
37.729,3.775,-0.765,0.0
31.371,3.144,-0.819,0.0
26.983,2.708,-0.859,0.0
23.553,2.368,-0.884,0.0
0.0,0.0,0.0,0.0
0.0,0.0,0.0,0.0
36.871,3.727,-0.792,0.0
30.211,3.058,-0.824,0.0
26.143,2.65,-0.863,0.0
21.933,2.227,-0.849,2.0
0.0,0.0,0.0,0.0
0.0,0.0,0.0,0.0
34.958,3.568,-0.792,0.0
29.813,3.047,-0.849,0.0
25.324,2.592,-0.866,0.0
21.85,2.24,-0.872,6.0
0.0,0.0,0.0,0.0
39.959,4.111,-0.725,0.0
33.354,3.436,-0.796,0.0
28.317,2.921,-0.841,0.0
24.647,2.545,-0.873,0.0
21.796,2.254,-0.897,3.0
0.0,0.0,0.0,0.0
37.973,3.941,-0.735,0.0
31.73,3.297,-0.796,0.0
27.527,2.864,-0.851,0.0
23.875,2.487,-0.875,0.0
21.545,2.247,-0.913,0.0
0.0,0.0,0.0,0.0
0.0,0.0,0.0,0.0
31.543,3.304,-0.83,0.0
26.735,2.804,-0.859,0.0
21.953,2.305,-0.831,0.0
20.649,2.171,-0.9,0.0
43.168,4.547,-0.694,0.0
35.809,3.776,-0.781,0.0
30.024,3.169,-0.827,0.0
25.798,2.726,-0.86,0.0
21.9,2.317,-0.856,3.0
19.864,2.104,-0.89,0.0
40.498,4.297,-0.702,0.0
34.005,3.612,-0.784,0.0
29.231,3.108,-0.841,0.0
24.903,2.65,-0.862,0.0
21.842,2.327,-0.881,7.0
19.611,2.092,-0.903,1.0
39.643,4.235,-0.736,0.0
32.919,3.52,-0.799,0.0
28.002,2.997,-0.84,0.0
24.218,2.595,-0.868,0.0
21.772,2.335,-0.905,2.0
19.271,2.069,-0.912,0.0
37.964,4.081,-0.752,0.0
0.0,0.0,0.0,0.0
27.299,2.94,-0.853,0.0
23.528,2.537,-0.873,0.0
21.069,2.274,-0.903,0.0
18.728,2.023,-0.91,0.0
36.399,3.937,-0.767,0.0
30.031,3.251,-0.804,0.0
26.398,2.86,-0.859,0.0
21.938,2.379,-0.842,2.0
20.158,2.188,-0.889,0.0
18.336,1.992,-0.914,0.0
34.747,3.779,-0.776,0.0
29.471,3.208,-0.827,0.0
25.364,2.763,-0.857,0.0
21.854,2.383,-0.866,5.0
19.679,2.147,-0.893,2.0
17.841,1.949,-0.912,1.0
33.487,3.661,-0.79,0.0
28.407,3.107,-0.833,0.0
24.619,2.695,-0.863,0.0
21.805,2.389,-0.892,5.0
