X,Y,Z,Reflectivity
149.637,17.327,3.465,15.0
87.674,10.19,4.464,3.0
90.694,10.549,4.1,8.0
85.927,10.003,3.394,43.0
97.249,11.332,3.277,13.0
97.699,11.394,2.736,18.0
97.751,11.411,2.179,7.0
85.686,10.039,4.29,13.0
90.745,10.639,4.024,30.0
85.909,10.08,3.319,19.0
98.41,11.557,3.23,21.0
97.683,11.481,2.649,44.0
97.777,11.503,2.094,26.0
85.767,10.124,4.218,32.0
92.392,10.914,4.015,28.0
85.963,10.162,3.245,15.0
98.079,11.603,3.133,15.0
97.699,11.567,2.563,55.0
97.703,11.578,2.006,32.0
85.727,10.192,4.139,27.0
85.749,10.2,3.65,39.0
91.488,10.891,3.371,21.0
96.957,11.55,3.008,10.0
97.713,11.649,2.475,45.0
97.702,11.657,1.917,32.0
103.68,12.409,4.91,10.0
86.541,10.364,3.603,71.0
86.136,10.322,3.094,20.0
139.721,16.755,4.206,11.0
97.74,11.729,2.384,41.0
97.717,11.735,1.825,27.0
103.53,12.47,4.805,22.0
86.703,10.449,3.528,14.0
91.491,11.032,3.199,18.0
97.49,11.763,2.841,13.0
97.824,11.812,2.292,28.0
97.83,11.821,1.733,5.0
139.663,16.922,6.348,7.0
98.987,11.999,3.933,3.0
91.494,11.097,3.111,18.0
97.35,11.814,2.744,44.0
139.838,16.981,3.142,11.0
161.036,19.568,2.698,3.0
90.769,11.059,4.037,26.0
108.839,13.266,4.218,20.0
91.543,11.163,3.023,16.0
97.336,11.876,2.648,8.0
149.674,18.274,3.214,21.0
0.0,0.0,0.0,0.0
90.776,11.117,3.946,30.0
108.773,13.326,4.105,9.0
91.576,11.224,2.933,14.0
149.747,18.363,3.923,16.0
149.601,18.354,3.065,28.0
0.0,0.0,0.0,0.0
90.919,11.187,3.861,8.0
115.247,14.185,4.235,22.0
91.568,11.275,2.84,19.0
149.659,18.437,3.768,15.0
149.672,18.448,2.913,29.0
0.0,0.0,0.0,0.0
91.166,11.267,3.778,14.0
85.012,10.51,3.034,14.0
91.548,11.322,2.744,33.0
91.667,11.341,2.213,9.0
91.529,11.329,1.685,9.0
0.0,0.0,0.0,0.0
84.825,10.526,3.426,38.0
97.23,12.068,3.37,13.0
91.513,11.363,2.646,38.0
91.557,11.372,2.114,24.0
91.504,11.37,1.589,20.0
0.0,0.0,0.0,0.0
84.81,10.562,3.336,41.0
85.801,10.688,2.882,31.0
91.484,11.4,2.548,47.0
91.516,11.407,2.016,44.0
91.478,11.406,1.491,33.0
69.263,8.64,0.732,1.0
84.864,10.604,3.246,27.0
85.769,10.719,2.788,29.0
91.485,11.436,2.449,53.0
91.481,11.439,1.917,55.0
91.463,11.44,1.391,15.0
69.025,8.637,0.654,0.0
84.912,10.641,3.155,23.0
91.381,11.454,2.87,50.0
91.476,11.468,2.349,45.0
91.46,11.468,1.815,54.0
69.136,8.671,0.976,0.0
68.724,8.622,0.577,1.0
84.982,10.677,3.064,25.0
91.419,11.487,2.771,53.0
91.484,11.497,2.249,53.0
91.442,11.494,1.714,50.0
69.303,8.713,0.902,0.0
68.642,8.632,0.5,9.0
85.026,10.706,2.971,14.0
91.471,11.518,2.672,55.0
91.481,11.52,2.147,49.0
91.437,11.517,1.612,46.0
69.2,8.717,0.823,1.0
68.653,8.65,0.424,14.0
85.715,10.812,2.9,32.0
91.485,11.54,2.57,56.0
91.499,11.542,2.045,43.0
91.442,11.536,1.511,37.0
69.185,8.73,0.747,1.0
68.647,8.663,0.347,14.0
85.761,10.833,2.804,27.0
91.484,11.556,2.467,50.0
91.465,11.554,1.942,44.0
91.401,11.546,1.407,12.0
68.955,8.712,0.667,0.0
68.662,8.676,0.27,6.0
91.425,11.561,2.887,31.0
91.47,11.566,2.363,38.0
91.453,11.563,1.839,39.0
69.216,8.752,0.988,0.0
68.685,8.685,0.586,0.0
0.0,0.0,0.0,0.0
91.46,11.574,2.784,40.0
91.489,11.576,2.26,28.0
91.459,11.571,1.734,37.0
69.282,8.765,0.909,0.0
68.634,8.683,0.507,8.0
0.0,0.0,0.0,0.0
91.495,11.582,2.681,40.0
91.496,11.58,2.155,37.0
91.447,11.573,1.629,39.0
69.225,8.76,0.83,1.0
68.646,8.686,0.43,17.0
0.0,0.0,0.0,0.0
91.498,11.582,2.576,40.0
91.491,11.578,2.05,45.0
91.453,11.572,1.525,34.0
69.127,8.746,0.749,0.0
68.643,8.684,0.35,15.0
0.0,0.0,0.0,0.0
91.469,11.573,2.47,43.0
91.484,11.572,1.945,40.0
91.448,11.565,1.42,14.0
0.0,0.0,0.0,0.0
68.644,8.679,0.271,6.0
65.102,8.231,-0.115,0.0
91.455,11.562,2.364,33.0
91.438,11.557,1.839,41.0
69.195,8.743,0.995,0.0
68.676,8.676,0.586,1.0
0.0,0.0,0.0,0.0
65.131,8.226,-0.19,4.0
91.48,11.552,2.26,32.0
91.438,11.543,1.735,41.0
69.243,8.739,0.915,0.0
68.661,8.663,0.508,8.0
0.0,0.0,0.0,0.0
65.104,8.212,-0.264,11.0
91.486,11.535,2.156,43.0
91.435,11.525,1.63,43.0
69.098,8.706,0.835,1.0
68.659,8.649,0.43,16.0
65.318,8.226,0.034,0.0
65.21,8.211,-0.338,14.0
91.484,11.513,2.051,53.0
91.441,11.503,1.525,51.0
69.333,8.719,0.759,1.0
68.666,8.632,0.351,22.0
65.329,8.21,-0.04,3.0
65.207,8.193,-0.413,30.0
91.482,11.487,1.945,48.0
91.425,11.474,1.421,18.0
0.0,0.0,0.0,0.0
68.648,8.609,0.273,7.0
65.322,8.19,-0.113,11.0
65.215,8.174,-0.487,26.0
91.468,11.455,1.842,50.0
69.108,8.65,0.995,0.0
68.772,8.604,0.597,0.0
68.633,8.584,0.195,6.0
65.306,8.165,-0.188,34.0
65.267,8.157,-0.562,5.0
91.478,11.421,1.738,46.0
0.0,0.0,0.0,0.0
68.704,8.569,0.517,6.0
65.544,8.171,0.111,2.0
65.437,8.155,-0.263,25.0
65.334,8.139,-0.637,1.0
91.52,11.387,1.635,21.0
0.0,0.0,0.0,0.0
68.69,8.537,0.44,10.0
68.666,8.53,0.039,150.0
65.424,8.124,-0.336,3.0
55.779,6.924,-0.606,0.0
149.802,18.569,2.51,3.0
0.0,0.0,0.0,0.0
68.714,8.507,0.363,14.0
68.686,8.499,-0.036,163.0
0.0,0.0,0.0,0.0
55.825,6.901,-0.669,0.0
0.0,0.0,0.0,0.0
0.0,0.0,0.0,0.0
68.717,8.472,0.287,2.0
68.643,8.458,-0.112,15.0
68.868,8.481,-0.507,0.0
68.673,8.453,-0.898,6.0
0.0,0.0,0.0,0.0
68.704,8.436,0.605,1.0
68.724,8.433,0.211,1.0
69.827,8.563,-0.19,4.0
68.864,8.44,-0.583,0.0
68.688,8.414,-0.974,8.0
0.0,0.0,0.0,0.0
68.797,8.405,0.531,5.0
68.715,8.389,0.136,11.0
69.32,8.458,-0.265,6.0
68.976,8.41,-0.658,0.0
68.82,8.387,-1.051,0.0
0.0,0.0,0.0,0.0
68.826,8.364,0.456,4.0
68.772,8.351,0.063,153.0
68.879,8.358,-0.338,1.0
0.0,0.0,0.0,0.0
41.996,5.089,-0.686,0.0
0.0,0.0,0.0,0.0
68.76,8.308,0.382,2.0
68.815,8.307,-0.01,154.0
69.068,8.332,-0.411,1.0
0.0,0.0,0.0,0.0
40.506,4.879,-0.704,0.0
0.0,0.0,0.0,0.0
0.0,0.0,0.0,0.0
68.799,8.254,-0.082,3.0
68.954,8.266,-0.483,4.0
0.0,0.0,0.0,0.0
0.0,0.0,0.0,0.0
0.0,0.0,0.0,0.0
0.0,0.0,0.0,0.0
68.925,8.215,-0.153,2.0
68.904,8.205,-0.553,3.0
0.0,0.0,0.0,0.0
0.0,0.0,0.0,0.0
0.0,0.0,0.0,0.0
69.554,8.24,0.171,0.0
69.474,8.223,-0.225,0.0
68.877,8.144,-0.623,0.0
0.0,0.0,0.0,0.0
0.0,0.0,0.0,0.0
0.0,0.0,0.0,0.0
69.738,8.201,0.102,0.0
71.419,8.391,-0.302,1.0
0.0,0.0,0.0,0.0
0.0,0.0,0.0,0.0
0.0,0.0,0.0,0.0
70.477,8.233,0.436,0.0
0.0,0.0,0.0,0.0
71.594,8.346,-0.373,1.0
0.0,0.0,0.0,0.0
41.668,4.847,-0.697,1.0
34.505,4.01,-0.774,0.0
74.595,8.644,0.389,2.0
0.0,0.0,0.0,0.0
0.0,0.0,0.0,0.0
0.0,0.0,0.0,0.0
0.0,0.0,0.0,0.0
33.485,3.859,-0.783,0.0
74.607,8.571,0.318,14.0
0.0,0.0,0.0,0.0
0.0,0.0,0.0,0.0
0.0,0.0,0.0,0.0
0.0,0.0,0.0,0.0
32.64,3.729,-0.793,0.0
74.626,8.496,0.248,27.0
74.71,8.495,-0.176,20.0
68.842,7.818,-0.554,1.0
0.0,0.0,0.0,0.0
0.0,0.0,0.0,0.0
31.909,3.611,-0.805,0.0
74.877,8.444,0.18,10.0
74.917,8.438,-0.245,5.0
0.0,0.0,0.0,0.0
0.0,0.0,0.0,0.0
37.375,4.193,-0.764,0.0
31.46,3.526,-0.822,0.0
75.421,8.422,0.114,11.0
75.541,8.424,-0.314,3.0
0.0,0.0,0.0,0.0
43.193,4.804,-0.675,0.0
36.4,4.043,-0.775,0.0
31.339,3.477,-0.846,0.0
75.981,8.397,0.049,6.0
77.489,8.552,-0.389,1.0
0.0,0.0,0.0,0.0
42.973,4.73,-0.708,0.0
34.887,3.834,-0.773,0.0
29.863,3.278,-0.831,0.0
76.71,8.387,-0.013,6.0
0.0,0.0,0.0,0.0
0.0,0.0,0.0,0.0
0.0,0.0,0.0,0.0
34.136,3.71,-0.785,0.0
29.253,3.176,-0.839,0.0
77.627,8.392,-0.077,9.0
0.0,0.0,0.0,0.0
0.0,0.0,0.0,0.0
40.071,4.312,-0.726,0.0
33.144,3.561,-0.789,0.0
28.661,3.075,-0.845,0.0
82.203,8.783,-0.148,1.0
68.926,7.353,-0.514,0.0
0.0,0.0,0.0,0.0
39.305,4.179,-0.743,0.0
0.0,0.0,0.0,0.0
28.022,2.971,-0.847,0.0
94.985,10.025,-0.243,1.0
68.816,7.251,-0.567,1.0
0.0,0.0,0.0,0.0
37.786,3.968,-0.743,0.0
31.539,3.307,-0.799,0.0
27.478,2.876,-0.852,0.0
0.0,0.0,0.0,0.0
0.0,0.0,0.0,0.0
0.0,0.0,0.0,0.0
37.197,3.856,-0.759,0.0
31.486,3.258,-0.82,0.0
26.976,2.787,-0.856,0.0
82.563,8.491,-0.332,1.0
0.0,0.0,0.0,0.0
0.0,0.0,0.0,0.0
36.836,3.768,-0.777,0.0
30.254,3.089,-0.809,0.0
26.324,2.684,-0.853,0.0
0.0,0.0,0.0,0.0
0.0,0.0,0.0,0.0
0.0,0.0,0.0,0.0
35.515,3.583,-0.773,0.0
30.119,3.033,-0.825,0.0
26.093,2.623,-0.862,0.0
0.0,0.0,0.0,0.0
0.0,0.0,0.0,0.0
0.0,0.0,0.0,0.0
35.022,3.483,-0.784,0.0
30.08,2.985,-0.844,0.0
25.687,2.545,-0.865,0.0
68.907,6.792,-0.412,2.0
0.0,0.0,0.0,0.0
0.0,0.0,0.0,0.0
33.462,3.278,-0.77,0.0
29.41,2.876,-0.842,0.0
25.23,2.462,-0.865,0.0
68.923,6.691,-0.453,4.0
0.0,0.0,0.0,0.0
0.0,0.0,0.0,0.0
33.342,3.216,-0.786,0.0
28.791,2.772,-0.841,0.0
24.953,2.398,-0.87,0.0
68.877,6.582,-0.491,1.0
0.0,0.0,0.0,0.0
0.0,0.0,0.0,0.0
33.125,3.144,-0.799,0.0
28.456,2.696,-0.847,0.0
24.52,2.318,-0.868,0.0
0.0,0.0,0.0,0.0
0.0,0.0,0.0,0.0
39.225,3.67,-0.742,0.0
32.633,3.046,-0.804,0.0
28.097,2.617,-0.851,0.0
24.353,2.264,-0.874,0.0
68.566,6.336,-0.561,0.0
0.0,0.0,0.0,0.0
38.363,3.529,-0.744,0.0
32.021,2.939,-0.805,1.0
27.86,2.551,-0.857,0.0
24.102,2.202,-0.877,0.0
0.0,0.0,0.0,0.0
0.0,0.0,0.0,0.0
37.618,3.399,-0.747,0.0
31.936,2.879,-0.817,0.0
27.43,2.467,-0.856,0.0
24.007,2.154,-0.884,1.0
0.0,0.0,0.0,0.0
0.0,0.0,0.0,0.0
37.51,3.328,-0.761,0.0
31.323,2.772,-0.814,0.0
27.269,2.408,-0.862,0.0
23.776,2.094,-0.885,0.0
0.0,0.0,0.0,0.0
33.798,2.95,-0.509,0.0
37.229,3.241,-0.77,0.0
30.719,2.667,-0.81,2.0
26.891,2.329,-0.86,0.0
21.979,1.899,-0.826,0.0
0.0,0.0,0.0,0.0
0.0,0.0,0.0,0.0
0.0,0.0,0.0,0.0
30.972,2.636,-0.828,0.0
26.792,2.275,-0.866,0.0
21.97,1.86,-0.833,1.0
0.0,0.0,0.0,0.0
0.0,0.0,0.0,0.0
0.0,0.0,0.0,0.0
30.697,2.56,-0.83,0.0
26.528,2.207,-0.866,0.0
21.949,1.82,-0.839,1.0
0.0,0.0,0.0,0.0
0.0,0.0,0.0,0.0
0.0,0.0,0.0,0.0
30.423,2.484,-0.831,0.0
26.362,2.147,-0.867,0.0
21.924,1.78,-0.844,2.0
0.0,0.0,0.0,0.0
0.0,0.0,0.0,0.0
35.168,2.818,-0.769,0.0
0.0,0.0,0.0,0.0
26.241,2.09,-0.87,0.0
21.914,1.74,-0.848,2.0
0.0,0.0,0.0,0.0
0.0,0.0,0.0,0.0
35.304,2.766,-0.78,0.0
29.833,2.33,-0.828,0.0
26.049,2.028,-0.868,0.0
21.899,1.7,-0.852,0.0
0.0,0.0,0.0,0.0
0.0,0.0,0.0,0.0
35.279,2.701,-0.785,0.0
30.054,2.293,-0.839,0.0
25.905,1.97,-0.868,0.0
21.884,1.659,-0.855,0.0
0.0,0.0,0.0,0.0
0.0,0.0,0.0,0.0
35.356,2.643,-0.792,0.0
30.06,2.239,-0.843,1.0
25.998,1.93,-0.874,0.0
21.869,1.617,-0.857,0.0
0.0,0.0,0.0,0.0
0.0,0.0,0.0,0.0
35.249,2.57,-0.793,0.0
29.953,2.176,-0.843,0.0
26.03,1.884,-0.877,0.0
21.843,1.575,-0.857,0.0
0.0,0.0,0.0,0.0
0.0,0.0,0.0,0.0
35.171,2.498,-0.793,0.0
30.033,2.125,-0.847,1.0
25.753,1.816,-0.869,0.0
21.858,1.535,-0.859,0.0
0.0,0.0,0.0,0.0
42.16,2.927,-0.718,0.0
34.998,2.42,-0.79,0.0
30.042,2.069,-0.847,1.0
25.879,1.776,-0.874,0.0
21.876,1.495,-0.86,0.0
0.0,0.0,0.0,0.0
0.0,0.0,0.0,0.0
35.289,2.374,-0.796,0.0
30.084,2.016,-0.848,1.0
25.868,1.726,-0.872,0.0
21.876,1.454,-0.859,3.0
0.0,0.0,0.0,0.0
0.0,0.0,0.0,0.0
35.087,2.294,-0.789,0.0
29.992,1.953,-0.843,0.0
25.946,1.682,-0.873,0.0
21.878,1.413,-0.857,5.0
0.0,0.0,0.0,0.0
0.0,0.0,0.0,0.0
35.198,2.235,-0.789,0.0
30.319,1.916,-0.85,0.0
25.985,1.635,-0.872,0.0
21.894,1.372,-0.855,5.0
0.0,0.0,0.0,0.0
0.0,0.0,0.0,0.0
35.218,2.168,-0.785,0.0
30.536,1.872,-0.852,0.0
26.068,1.59,-0.871,0.0
21.901,1.33,-0.852,3.0
0.0,0.0,0.0,0.0
0.0,0.0,0.0,0.0
35.433,2.113,-0.783,0.0
30.635,1.818,-0.849,0.0
25.68,1.517,-0.853,0.0
21.897,1.287,-0.848,2.0
0.0,0.0,0.0,0.0
0.0,0.0,0.0,0.0
35.517,2.049,-0.777,0.0
30.505,1.751,-0.838,0.0
26.335,1.504,-0.869,0.0
21.93,1.247,-0.844,1.0
0.0,0.0,0.0,0.0
0.0,0.0,0.0,0.0
36.529,2.037,-0.79,0.0
30.788,1.708,-0.838,0.0
26.651,1.471,-0.872,0.0
23.543,1.293,-0.9,0.0
0.0,0.0,0.0,0.0
0.0,0.0,0.0,0.0
0.0,0.0,0.0,0.0
31.269,1.673,-0.842,0.0
26.839,1.429,-0.87,0.0
23.816,1.261,-0.903,0.0
0.0,0.0,0.0,0.0
0.0,0.0,0.0,0.0
0.0,0.0,0.0,0.0
31.632,1.63,-0.841,0.0
27.055,1.386,-0.867,0.0
23.932,1.219,-0.899,0.0
0.0,0.0,0.0,0.0
0.0,0.0,0.0,0.0
37.619,1.876,-0.777,0.0
31.943,1.584,-0.837,0.0
27.532,1.357,-0.872,0.0
20.221,0.991,-0.751,0.0
0.0,0.0,0.0,0.0
46.413,2.237,-0.686,1.0
0.0,0.0,0.0,0.0
32.215,1.533,-0.831,0.0
27.935,1.321,-0.873,0.0
20.228,0.951,-0.743,152.0
0.0,0.0,0.0,0.0
0.0,0.0,0.0,0.0
38.241,1.756,-0.756,0.0
32.401,1.478,-0.821,0.0
20.224,0.916,-0.623,19.0
20.198,0.909,-0.732,179.0
68.956,3.073,-0.58,1.0
0.0,0.0,0.0,0.0
0.0,0.0,0.0,0.0
0.0,0.0,0.0,0.0
28.902,1.252,-0.875,0.0
20.26,0.872,-0.724,150.0
68.885,2.933,-0.544,1.0
0.0,0.0,0.0,0.0
0.0,0.0,0.0,0.0
32.793,1.366,-0.797,0.0
29.877,1.236,-0.889,0.0
25.144,1.032,-0.884,0.0
69.124,2.807,-0.507,0.0
0.0,0.0,0.0,0.0
0.0,0.0,0.0,0.0
0.0,0.0,0.0,0.0
29.949,1.18,-0.873,1.0
25.393,0.993,-0.878,0.0
69.013,2.667,-0.466,5.0
0.0,0.0,0.0,0.0
0.0,0.0,0.0,0.0
35.422,1.337,-0.819,0.0
30.169,1.13,-0.861,1.0
26.174,0.972,-0.889,1.0
68.96,2.532,-0.423,2.0
0.0,0.0,0.0,0.0
0.0,0.0,0.0,0.0
35.991,1.288,-0.809,0.0
30.299,1.075,-0.845,0.0
26.404,0.929,-0.879,0.0
0.0,0.0,0.0,0.0
0.0,0.0,0.0,0.0
0.0,0.0,0.0,0.0
36.93,1.249,-0.804,0.0
31.997,1.072,-0.87,0.0
26.631,0.884,-0.868,0.0
0.0,0.0,0.0,0.0
0.0,0.0,0.0,0.0
0.0,0.0,0.0,0.0
37.613,1.199,-0.792,0.0
32.146,1.015,-0.85,0.0
28.125,0.879,-0.896,0.0
0.0,0.0,0.0,0.0
0.0,0.0,0.0,0.0
0.0,0.0,0.0,0.0
38.673,1.158,-0.785,0.0
32.932,0.976,-0.846,2.0
28.504,0.836,-0.886,0.0
0.0,0.0,0.0,0.0
69.077,1.978,-0.596,2.0
0.0,0.0,0.0,0.0
0.0,0.0,0.0,0.0
33.426,0.926,-0.831,0.0
28.666,0.785,-0.867,0.0
0.0,0.0,0.0,0.0
0.0,0.0,0.0,0.0
0.0,0.0,0.0,0.0
40.738,1.062,-0.76,0.0
0.0,0.0,0.0,0.0
29.741,0.757,-0.875,0.0
0.0,0.0,0.0,0.0
0.0,0.0,0.0,0.0
0.0,0.0,0.0,0.0
0.0,0.0,0.0,0.0
0.0,0.0,0.0,0.0
30.992,0.73,-0.884,0.0
100.068,2.319,-0.068,9.0
0.0,0.0,0.0,0.0
0.0,0.0,0.0,0.0
0.0,0.0,0.0,0.0
37.175,0.815,-0.826,0.0
31.57,0.683,-0.871,1.0
100.023,2.126,0.025,7.0
0.0,0.0,0.0,0.0
0.0,0.0,0.0,0.0
0.0,0.0,0.0,0.0
37.508,0.751,-0.798,0.0
32.254,0.636,-0.858,1.0
99.959,1.935,0.121,1.0
0.0,0.0,0.0,0.0
0.0,0.0,0.0,0.0
0.0,0.0,0.0,0.0
0.0,0.0,0.0,0.0
33.93,0.605,-0.869,3.0
99.822,1.746,0.22,8.0
0.0,0.0,0.0,0.0
0.0,0.0,0.0,0.0
0.0,0.0,0.0,0.0
0.0,0.0,0.0,0.0
34.305,0.548,-0.843,0.0
99.671,1.559,0.323,5.0
101.426,1.556,-0.212,2.0
0.0,0.0,0.0,0.0
0.0,0.0,0.0,0.0
20.197,0.291,-0.367,0.0
20.202,0.285,-0.475,8.0
99.596,1.376,0.428,6.0
99.703,1.346,-0.101,1.0
0.0,0.0,0.0,0.0
20.201,0.26,-0.237,3.0
20.196,0.254,-0.345,24.0
20.197,0.248,-0.452,21.0
20.322,0.243,0.11,11.0
20.352,0.237,0.001,0.0
0.0,0.0,0.0,0.0
20.171,0.223,-0.214,18.0
20.175,0.217,-0.321,28.0
20.179,0.211,-0.429,31.0
20.327,0.206,0.133,31.0
20.339,0.2,0.025,33.0
20.215,0.193,-0.082,15.0
20.15,0.186,-0.191,18.0
20.17,0.18,-0.298,35.0
20.184,0.174,-0.405,30.0
20.203,0.168,0.156,25.0
20.219,0.163,0.048,26.0
20.195,0.156,-0.058,23.0
20.171,0.15,-0.167,28.0
20.19,0.145,-0.274,32.0
20.197,0.139,-0.381,22.0
20.173,0.132,0.18,27.0
20.192,0.127,0.073,34.0
20.17,0.121,-0.033,29.0
20.183,0.115,-0.142,33.0
20.203,0.109,-0.25,24.0
20.214,0.103,-0.357,0.0
20.158,0.097,0.204,30.0
20.18,0.091,0.098,27.0
20.195,0.086,-0.008,29.0
20.193,0.08,-0.117,25.0
20.209,0.074,-0.224,3.0
20.297,0.069,-0.332,0.0
20.148,0.062,0.23,31.0
20.151,0.056,0.123,29.0
20.269,0.051,0.017,10.0
20.263,0.045,-0.091,150.0
20.249,0.039,-0.198,151.0
20.266,0.033,-0.305,150.0
20.134,0.028,0.256,30.0
20.129,0.022,0.149,27.0
20.232,0.016,0.043,151.0
20.261,0.01,-0.065,60.0
20.22,0.005,-0.171,12.0
20.197,0.0,-0.278,4.0
20.131,-0.005,0.282,27.0
20.113,-0.011,0.176,30.0
20.122,-0.017,0.07,37.0
20.122,-0.023,-0.037,31.0
20.153,-0.028,-0.144,30.0
20.151,-0.034,-0.25,23.0
20.118,-0.039,0.309,32.0
20.121,-0.044,0.203,29.0
20.12,-0.05,0.098,39.0
20.118,-0.056,-0.01,35.0
20.143,-0.061,-0.116,31.0
20.15,-0.067,-0.222,21.0
20.127,-0.072,0.337,32.0
20.125,-0.077,0.231,26.0
20.131,-0.083,0.125,24.0
20.132,-0.088,0.017,27.0
20.146,-0.094,-0.087,27.0
20.15,-0.099,-0.194,23.0
20.133,-0.105,0.366,22.0
20.117,-0.11,0.26,18.0
20.128,-0.115,0.154,18.0
20.145,-0.12,0.046,26.0
20.173,-0.126,-0.059,21.0
20.148,-0.131,-0.165,18.0
20.248,-0.137,0.396,27.0
20.223,-0.142,0.29,18.0
58.315,-0.425,0.53,14.0
58.321,-0.44,0.217,21.0
53.323,-0.417,-0.08,5.0
20.189,-0.163,-0.136,3.0
20.2,-0.168,0.425,26.0
64.321,-0.552,1.017,8.0
53.375,-0.472,0.564,14.0
56.179,-0.512,0.293,2.0
56.241,-0.527,0.0,4.0
56.334,-0.542,-0.296,2.0
20.147,-0.199,0.454,17.0
20.158,-0.204,0.349,13.0
64.371,-0.668,0.777,12.0
56.154,-0.597,0.378,4.0
56.306,-0.613,0.084,1.0
56.235,-0.626,-0.21,0.0
20.143,-0.229,0.484,12.0
20.136,-0.234,0.379,13.0
20.129,-0.239,0.273,9.0
20.127,-0.244,0.166,10.0
59.548,-0.737,0.18,26.0
59.54,-0.752,-0.13,35.0
59.403,-0.764,1.521,34.0
20.146,-0.264,0.41,9.0
20.125,-0.268,0.304,10.0
20.108,-0.273,0.197,13.0
20.126,-0.278,0.092,12.0
20.149,-0.283,-0.012,2.0
59.429,-0.851,1.616,53.0
53.51,-0.779,1.175,77.0
20.153,-0.298,0.337,4.0
20.124,-0.302,0.229,8.0
20.114,-0.307,0.124,13.0
20.134,-0.312,0.019,42.0
64.323,-1.013,1.851,55.0
176.651,-2.823,4.16,51.0
176.621,-2.865,3.238,80.0
176.635,-2.906,2.298,38.0
20.135,-0.335,0.156,2.0
20.15,-0.341,0.051,25.0
64.317,-1.102,1.954,79.0
190.74,-3.313,4.801,26.0
191.621,-3.373,3.823,21.0
192.773,-3.438,2.822,32.0
53.012,-0.957,0.5,2.0
52.999,-0.969,0.223,15.0
64.31,-1.19,2.06,26.0
64.335,-1.205,1.725,39.0
38.218,-0.724,0.825,23.0
52.985,-1.016,0.862,21.0
52.951,-1.027,0.586,53.0
52.911,-1.038,0.311,61.0
45.708,-0.907,1.54,47.0
45.723,-0.917,1.302,37.0
38.406,-0.778,0.893,13.0
38.377,-0.786,0.688,31.0
38.388,-0.794,0.489,46.0
38.387,-0.803,0.289,39.0
40.428,-0.854,1.429,29.0
40.417,-0.862,1.218,29.0
40.405,-0.87,1.007,23.0
40.396,-0.879,0.793,38.0
40.441,-0.888,0.583,150.0
40.441,-0.897,0.372,153.0
40.407,-0.905,1.497,37.0
40.402,-0.913,1.286,40.0
38.734,-0.883,1.031,21.0
40.402,-0.929,0.861,38.0
40.406,-0.937,0.651,37.0
40.42,-0.946,0.441,33.0
40.433,-0.954,1.566,27.0
40.433,-0.963,1.356,27.0
38.68,-0.929,1.096,54.0
38.721,-0.937,0.892,38.0
0.0,0.0,0.0,0.0
0.0,0.0,0.0,0.0
45.748,-1.135,1.852,33.0
45.719,-1.142,1.612,10.0
38.668,-0.974,1.162,40.0
38.648,-0.98,0.956,55.0
38.683,-0.988,0.756,41.0
38.677,-0.996,0.555,47.0
38.649,-1.003,1.631,47.0
38.692,-1.011,1.431,34.0
38.585,-1.015,1.227,41.0
38.627,-1.024,1.023,85.0
38.631,-1.03,0.822,62.0
38.643,-1.038,0.622,63.0
38.633,-1.046,1.698,73.0
38.655,-1.053,1.498,61.0
38.58,-1.058,1.294,63.0
38.564,-1.065,1.09,66.0
38.642,-1.074,0.892,79.0
38.645,-1.081,0.691,72.0
38.614,-1.088,1.765,70.0
38.628,-1.094,1.565,74.0
38.61,-1.1,1.364,63.0
38.535,-1.104,1.157,66.0
38.626,-1.113,0.959,84.0
38.625,-1.12,0.759,99.0
38.535,-1.125,1.829,44.0
38.628,-1.134,1.633,91.0
38.63,-1.14,1.432,72.0
38.561,-1.144,1.225,58.0
38.592,-1.152,1.026,69.0
38.637,-1.159,0.827,74.0
38.468,-1.162,1.894,62.0
38.591,-1.171,1.7,72.0
38.656,-1.179,1.502,86.0
38.587,-1.183,1.295,64.0
38.602,-1.19,1.096,59.0
38.63,-1.197,0.896,65.0
38.472,-1.2,1.965,6.0
38.557,-1.208,1.768,63.0
38.651,-1.216,1.571,75.0
38.615,-1.221,1.366,68.0
38.622,-1.227,1.166,58.0
38.641,-1.233,0.966,64.0
28.393,-0.911,1.5,75.0
38.573,-1.244,1.838,9.0
38.635,-1.251,1.64,65.0
38.647,-1.257,1.437,61.0
38.668,-1.263,1.237,39.0
38.665,-1.268,1.036,29.0
28.393,-0.937,1.552,59.0
31.296,-1.037,1.548,38.0
38.651,-1.286,1.711,9.0
38.664,-1.291,1.507,48.0
31.361,-1.052,1.06,11.0
31.382,-1.056,0.898,3.0
28.399,-0.961,1.604,50.0
31.27,-1.063,1.604,24.0
31.286,-1.067,1.442,43.0
31.307,-1.071,1.277,33.0
31.291,-1.075,1.115,36.0
31.329,-1.08,0.954,33.0
31.24,-1.083,1.822,44.0
31.247,-1.087,1.66,34.0
31.255,-1.091,1.498,38.0
31.253,-1.094,1.332,47.0
31.262,-1.098,1.17,36.0
31.279,-1.103,1.009,34.0
31.232,-1.107,1.878,33.0
31.215,-1.11,1.715,29.0
31.233,-1.114,1.554,34.0
31.272,-1.119,1.39,60.0
31.254,-1.121,1.227,42.0
31.282,-1.126,1.066,49.0
31.227,-1.13,1.935,34.0
31.209,-1.132,1.772,35.0
31.217,-1.136,1.61,43.0
31.217,-1.139,1.445,46.0
31.277,-1.144,1.285,63.0
31.246,-1.146,1.122,51.0
31.199,-1.151,1.991,27.0
31.231,-1.155,1.83,60.0
31.216,-1.157,1.667,46.0
31.241,-1.161,1.503,53.0
31.258,-1.164,1.341,68.0
31.248,-1.167,1.179,53.0
31.186,-1.171,2.047,29.0
31.214,-1.174,1.886,18.0
31.224,-1.177,1.725,10.0
31.239,-1.181,1.56,12.0
31.256,-1.184,1.399,18.0
28.447,-1.08,1.126,24.0
28.444,-1.086,1.92,70.0
28.44,-1.087,1.771,63.0
28.429,-1.089,1.623,64.0
28.432,-1.092,1.472,58.0
28.444,-1.094,1.325,63.0
28.446,-1.096,1.178,64.0
28.424,-1.101,1.971,73.0
28.424,-1.103,1.823,69.0
28.428,-1.105,1.675,68.0
28.425,-1.107,1.524,67.0
28.429,-1.109,1.377,64.0
28.427,-1.111,1.23,71.0
28.437,-1.117,2.025,117.0
28.421,-1.118,1.875,110.0
28.41,-1.119,1.727,106.0
28.418,-1.122,1.576,105.0
28.419,-1.123,1.428,70.0
28.438,-1.126,1.282,115.0
28.428,-1.131,2.076,112.0
28.414,-1.132,1.927,108.0
28.416,-1.133,1.779,102.0
28.412,-1.135,1.628,100.0
28.414,-1.136,1.481,95.0
28.428,-1.139,1.334,108.0
28.431,-1.144,2.129,112.0
28.426,-1.145,1.98,109.0
28.413,-1.146,1.831,103.0
28.416,-1.147,1.681,95.0
28.418,-1.149,1.533,98.0
28.425,-1.15,1.386,98.0
28.423,-1.156,2.181,101.0
28.413,-1.156,2.031,101.0
28.413,-1.157,1.883,100.0
28.414,-1.159,1.732,97.0
28.418,-1.16,1.585,99.0
28.412,-1.16,1.437,63.0
28.422,-1.167,2.232,48.0
28.421,-1.167,2.084,66.0
28.413,-1.168,1.935,71.0
28.413,-1.168,1.784,75.0
28.42,-1.17,1.636,84.0
28.42,-1.171,1.489,87.0
24.63,-1.019,1.979,37.0
28.429,-1.177,2.136,55.0
28.418,-1.177,1.987,57.0
28.428,-1.178,1.836,56.0
28.43,-1.179,1.689,56.0
28.428,-1.179,1.54,62.0
24.601,-1.025,2.022,38.0
28.432,-1.185,2.188,49.0
28.435,-1.186,2.039,55.0
28.43,-1.186,1.888,56.0
28.44,-1.186,1.74,56.0
28.433,-1.187,1.591,53.0
24.597,-1.031,2.066,28.0
31.458,-1.319,2.477,20.0
28.438,-1.193,2.091,44.0
28.447,-1.193,1.94,52.0
28.437,-1.193,1.791,56.0
28.437,-1.193,1.642,55.0
24.631,-1.038,2.113,42.0
24.591,-1.036,1.98,26.0
31.411,-1.323,2.365,25.0
28.421,-1.197,1.988,37.0
28.445,-1.198,1.842,49.0
28.443,-1.198,1.693,52.0
24.644,-1.043,2.158,57.0
24.604,-1.041,2.025,43.0
31.439,-1.33,2.423,59.0
30.987,-1.31,2.223,25.0
31.193,-1.319,2.075,18.0
28.444,-1.202,1.743,47.0
24.646,-1.046,2.202,67.0
24.597,-1.044,2.068,29.0
31.445,-1.334,2.479,46.0
31.025,-1.315,2.28,22.0
31.108,-1.318,2.124,28.0
28.433,-1.204,1.792,36.0
24.652,-1.049,2.246,72.0
24.626,-1.047,2.114,42.0
24.589,-1.045,1.981,28.0
31.36,-1.332,2.359,38.0
31.029,-1.317,2.172,40.0
31.25,-1.326,2.024,15.0
24.659,-1.05,2.289,79.0
24.633,-1.048,2.157,56.0
24.61,-1.047,2.026,44.0
31.438,-1.336,2.419,60.0
30.989,-1.316,2.222,36.0
31.176,-1.323,2.072,25.0
24.661,-1.051,2.332,73.0
24.636,-1.049,2.2,63.0
24.594,-1.046,2.066,29.0
31.46,-1.337,2.475,49.0
31.03,-1.317,2.278,23.0
31.101,-1.319,2.12,29.0
24.656,-1.05,2.374,70.0
24.639,-1.048,2.242,66.0
24.627,-1.046,2.111,40.0
24.575,-1.043,1.975,26.0
31.391,-1.331,2.357,37.0
31.041,-1.314,2.168,29.0
24.664,-1.049,2.416,64.0
24.642,-1.046,2.284,77.0
24.635,-1.045,2.153,53.0
24.601,-1.042,2.018,43.0
31.429,-1.329,2.413,56.0
31.001,-1.31,2.217,20.0
24.667,-1.047,2.458,55.0
24.642,-1.044,2.325,70.0
24.634,-1.042,2.194,57.0
24.581,-1.038,2.057,28.0
31.433,-1.325,2.465,37.0
28.44,-1.197,2.08,40.0
24.674,-1.043,2.499,43.0
24.652,-1.041,2.367,77.0
24.637,-1.038,2.235,69.0
24.628,-1.036,2.101,37.0
24.58,-1.032,1.967,22.0
28.437,-1.192,2.126,47.0
24.692,-1.04,2.541,35.0
24.653,-1.036,2.407,73.0
24.641,-1.033,2.275,72.0
24.644,-1.032,2.143,44.0
24.593,-1.028,2.008,36.0
28.428,-1.186,2.171,50.0
24.698,-1.034,2.582,26.0
24.663,-1.031,2.448,60.0
24.637,-1.028,2.314,65.0
24.654,-1.026,2.183,44.0
24.594,-1.022,2.047,26.0
28.425,-1.179,2.216,40.0
31.797,-1.324,3.376,2.0
24.661,-1.024,2.487,55.0
24.645,-1.021,2.354,69.0
24.648,-1.019,2.221,43.0
24.636,-1.016,2.089,24.0
28.423,-1.17,2.26,1.0
28.413,-1.175,3.061,33.0
24.673,-1.018,2.526,46.0
24.653,-1.014,2.393,81.0
24.645,-1.011,2.259,38.0
28.389,-1.163,2.451,18.0
24.589,-1.004,1.993,35.0
28.423,-1.166,3.105,51.0
24.683,-1.01,2.565,41.0
24.651,-1.006,2.43,66.0
24.66,-1.003,2.297,33.0
28.407,-1.153,2.496,62.0
24.56,-0.994,2.027,25.0
28.405,-1.155,3.146,56.0
24.719,-1.002,2.606,35.0
24.652,-0.997,2.467,63.0
24.655,-0.994,2.334,34.0
28.401,-1.142,2.537,88.0
28.399,-1.139,2.386,51.0
28.412,-1.144,3.19,101.0
24.762,-0.994,2.647,33.0
24.663,-0.987,2.505,57.0
24.656,-0.984,2.37,34.0
28.394,-1.129,2.578,78.0
28.42,-1.127,2.429,104.0
28.411,-1.131,3.231,110.0
24.754,-0.983,2.682,25.0
24.681,-0.977,2.542,49.0
24.624,-0.971,2.402,29.0
28.401,-1.117,2.619,68.0
28.42,-1.114,2.47,99.0
28.407,-1.118,3.272,111.0
28.411,-1.114,3.119,7.0
24.717,-0.966,2.581,33.0
24.63,-0.959,2.438,28.0
28.405,-1.103,2.659,75.0
28.41,-1.1,2.508,68.0
28.408,-1.104,3.312,108.0
28.387,-1.099,3.156,26.0
24.725,-0.954,2.616,41.0
24.653,-0.948,2.474,28.0
28.419,-1.089,2.7,64.0
28.424,-1.085,2.548,66.0
28.407,-1.089,3.35,71.0
28.391,-1.084,3.195,29.0
24.754,-0.941,2.653,35.0
24.658,-0.935,2.507,28.0
28.406,-1.073,2.736,33.0
31.653,-1.191,2.88,17.0
28.416,-1.073,3.389,59.0
28.4,-1.068,3.234,23.0
24.775,-0.928,2.688,40.0
24.662,-0.92,2.54,23.0
31.709,-1.179,3.096,14.0
31.673,-1.173,2.922,10.0
32.213,-1.197,3.884,33.0
32.029,-1.185,3.689,29.0
24.8,-0.914,2.722,40.0
24.711,-0.907,2.577,20.0
37.18,-1.359,3.677,64.0
37.269,-1.357,3.486,49.0
32.254,-1.179,3.93,26.0
32.1,-1.168,3.738,15.0
24.813,-0.899,2.755,29.0
24.738,-0.892,2.61,15.0
37.194,-1.336,3.725,7.0
37.26,-1.332,3.531,59.0
39.074,-1.402,4.81,49.0
39.055,-1.395,4.596,54.0
24.852,-0.884,2.79,38.0
24.788,-0.877,2.646,16.0
51.347,-1.81,5.204,4.0
42.743,-1.5,4.102,2.0
39.095,-1.376,4.86,60.0
39.096,-1.369,4.648,10.0
24.844,-0.866,2.818,27.0
24.816,-0.861,2.678,22.0
43.763,-1.511,4.487,9.0
48.931,-1.682,4.753,3.0
39.099,-1.348,4.907,32.0
44.05,-1.511,5.288,5.0
24.894,-0.85,2.853,20.0
24.824,-0.843,2.708,21.0
48.004,-1.622,4.977,5.0
58.075,-1.953,5.707,2.0
32.99,-1.112,4.178,4.0
37.116,-1.245,4.497,4.0
24.958,-0.833,2.888,17.0
24.827,-0.824,2.736,30.0
51.256,-1.693,5.37,2.0
43.991,-1.446,4.371,8.0
25.249,-0.832,3.225,43.0
44.391,-1.455,5.427,5.0
25.035,-0.816,2.924,25.0
24.86,-0.806,2.765,52.0
40.167,-1.296,4.25,3.0
47.776,-1.533,4.796,2.0
25.23,-0.812,3.249,52.0
25.254,-0.808,3.114,43.0
25.077,-0.798,2.955,26.0
24.859,-0.786,2.791,63.0
40.157,-1.263,4.29,3.0
42.376,-1.325,4.297,6.0
25.245,-0.791,3.277,61.0
25.232,-0.786,3.137,60.0
25.11,-0.778,2.984,23.0
24.842,-0.765,2.814,65.0
44.448,-1.361,4.792,12.0
42.596,-1.297,4.361,7.0
25.231,-0.769,3.3,25.0
25.236,-0.765,3.162,31.0
25.148,-0.757,3.013,21.0
24.844,-0.744,2.838,54.0
44.475,-1.323,4.838,5.0
44.467,-1.314,4.595,50.0
32.867,-0.974,4.33,5.0
33.703,-0.992,4.254,3.0
25.149,-0.735,3.036,25.0
24.832,-0.721,2.859,33.0
40.393,-1.166,4.43,2.0
0.0,0.0,0.0,0.0
36.341,-1.044,4.821,3.0
47.645,-1.36,6.057,39.0
25.165,-0.713,3.061,26.0
24.838,-0.699,2.882,37.0
44.232,-1.237,4.89,3.0
47.537,-1.321,4.995,1.0
39.067,-1.087,5.216,2.0
44.64,-1.233,5.713,2.0
25.258,-0.692,3.093,43.0
24.841,-0.676,2.903,42.0
40.899,-1.106,4.555,4.0
47.415,-1.273,5.021,32.0
46.421,-1.248,6.236,2.0
51.09,-1.364,6.58,10.0
25.203,-0.667,3.107,32.0
24.827,-0.652,2.921,53.0
24.847,-0.648,2.787,1.0
47.188,-1.222,5.034,1.0
32.383,-0.839,4.375,1.0
36.53,-0.939,4.733,1.0
25.272,-0.645,3.135,36.0
24.815,-0.628,2.938,59.0
44.653,-1.122,5.041,6.0
47.196,-1.177,5.069,3.0
32.372,-0.807,4.398,3.0
36.679,-0.907,4.779,6.0
25.254,-0.62,3.15,22.0
24.812,-0.604,2.956,40.0
44.06,-1.064,5.005,19.0
44.896,-1.075,4.853,13.0
36.961,-0.886,5.047,5.0
36.727,-0.872,4.811,7.0
25.3,-0.595,3.173,16.0
24.787,-0.578,2.969,46.0
43.374,-1.004,4.956,8.0
44.652,-1.025,4.856,40.0
39.175,-0.898,5.375,3.0
36.821,-0.837,4.847,28.0
25.321,-0.57,3.192,11.0
24.778,-0.553,2.984,64.0
52.02,-1.151,5.976,5.0
51.919,-1.138,5.678,31.0
39.152,-0.857,5.396,2.0
44.126,-0.957,5.835,5.0
24.759,-0.532,3.136,4.0
24.782,-0.527,2.999,55.0
40.335,-0.851,4.657,15.0
51.765,-1.081,5.69,7.0
37.459,-0.781,5.184,8.0
37.27,-0.77,4.949,17.0
24.756,-0.506,3.149,47.0
24.799,-0.502,3.014,41.0
40.362,-0.809,4.681,8.0
40.37,-0.801,4.458,8.0
36.635,-0.725,5.089,7.0
36.492,-0.715,4.864,6.0
24.755,-0.48,3.161,85.0
57.504,-1.104,7.017,15.0
42.91,-0.815,4.998,2.0
51.226,-0.963,5.682,4.0
32.769,-0.614,4.567,3.0
24.754,-0.459,3.311,45.0
24.754,-0.454,3.173,44.0
37.539,-0.68,4.598,36.0
43.947,-0.788,5.138,12.0
44.037,-0.781,4.903,24.0
24.728,-0.436,3.457,16.0
24.751,-0.432,3.321,69.0
24.763,-0.427,3.184,12.0
46.747,-0.797,5.744,5.0
37.546,-0.632,4.404,37.0
44.455,-0.74,4.967,3.0
24.758,-0.41,3.471,44.0
24.744,-0.404,3.329,37.0
33.78,-0.546,4.356,1.0
37.692,-0.601,4.645,22.0
37.657,-0.593,4.43,62.0
37.621,-0.585,4.216,85.0
24.743,-0.382,3.477,60.0
24.763,-0.377,3.34,12.0
37.429,-0.563,4.838,51.0
0.0,0.0,0.0,0.0
44.477,-0.651,5.246,3.0
37.616,-0.543,4.227,3.0
23.995,-0.344,3.379,26.0
0.0,0.0,0.0,0.0
40.349,-0.562,5.227,10.0
44.529,-0.611,5.513,13.0
54.187,-0.734,6.405,9.0
54.176,-0.722,6.101,16.0
36.539,-0.483,5.154,26.0
36.586,-0.476,4.954,6.0
40.483,-0.519,5.253,3.0
34.1,-0.43,4.229,0.0
37.524,-0.466,4.443,12.0
53.165,-0.649,5.998,13.0
35.953,-0.435,5.079,4.0
36.594,-0.435,4.962,3.0
47.559,-0.556,6.18,2.0
36.135,-0.415,4.488,4.0
37.512,-0.423,4.448,27.0
31.824,-0.353,3.595,6.0
47.405,-0.52,6.704,7.0
38.489,-0.414,5.225,5.0
52.73,-0.557,6.86,6.0
44.129,-0.457,5.487,8.0
50.966,-0.518,6.05,6.0
31.793,-0.317,3.595,21.0
40.149,-0.394,5.682,2.0
32.521,-0.313,4.418,10.0
36.336,-0.342,4.73,8.0
37.511,-0.346,4.667,35.0
47.672,-0.43,5.662,12.0
31.844,-0.281,3.603,31.0
51.125,-0.444,7.238,13.0
32.686,-0.277,4.442,10.0
47.758,-0.395,6.219,5.0
50.895,-0.411,6.334,10.0
47.251,-0.372,5.613,23.0
31.853,-0.245,3.604,46.0
40.091,-0.302,5.677,11.0
32.705,-0.24,4.444,10.0
37.716,-0.269,4.911,5.0
39.087,-0.271,4.864,0.0
38.716,-0.261,4.599,6.0
31.874,-0.209,3.606,50.0
39.094,-0.249,5.534,2.0
36.478,-0.225,4.955,2.0
37.514,-0.225,4.883,31.0
38.601,-0.224,4.801,37.0
38.807,-0.217,4.607,2.0
39.116,-0.211,4.422,21.0
47.365,-0.247,6.701,3.0
36.476,-0.184,4.952,4.0
38.185,-0.185,4.966,30.0
39.004,-0.182,4.847,6.0
39.204,-0.175,4.649,5.0
39.128,-0.167,4.419,28.0
47.35,-0.193,6.692,7.0
36.448,-0.142,4.943,4.0
37.943,-0.141,4.929,2.0
31.941,-0.112,3.964,33.0
31.939,-0.106,3.783,71.0
51.253,-0.161,5.78,9.0
36.603,-0.107,5.167,13.0
37.386,-0.102,5.063,15.0
31.952,-0.082,4.145,49.0
31.958,-0.076,3.96,73.0
31.925,-0.07,3.774,24.0
52.164,-0.105,5.871,21.0
39.403,-0.071,5.553,3.0
32.107,-0.051,4.341,19.0
31.965,-0.046,4.139,70.0
39.723,-0.049,4.912,6.0
52.167,-0.055,6.154,30.0
36.769,-0.033,4.129,13.0
32.117,-0.022,4.518,14.0
31.962,-0.016,4.312,60.0
39.254,-0.012,5.071,2.0
36.124,-0.005,4.457,12.0
39.745,0.001,4.677,19.0
36.734,0.008,4.114,13.0
37.503,0.017,5.263,3.0
31.92,0.019,4.296,47.0
36.245,0.029,4.671,16.0
36.031,0.035,4.433,7.0
36.274,0.042,4.256,2.0
42.481,0.056,4.742,4.0
31.917,0.05,4.468,52.0
32.412,0.056,4.35,10.0
32.731,0.062,4.205,3.0
33.321,0.069,4.087,10.0
39.623,0.09,4.633,3.0
30.578,0.074,3.401,38.0
51.981,0.139,7.255,26.0
32.867,0.094,4.398,10.0
32.797,0.099,4.2,2.0
33.315,0.106,4.072,10.0
30.472,0.102,3.55,23.0
30.571,0.108,3.387,39.0
30.392,0.115,4.228,16.0
32.776,0.13,4.37,10.0
51.299,0.212,6.545,3.0
30.444,0.13,3.706,35.0
30.462,0.136,3.534,27.0
30.579,0.141,3.373,29.0
30.405,0.148,4.214,18.0
30.414,0.153,4.04,39.0
30.423,0.158,3.866,5.0
30.448,0.163,3.691,67.0
30.459,0.169,3.518,34.0
37.118,0.212,4.075,2.0
23.031,0.137,3.179,2.0
30.361,0.186,4.016,44.0
30.417,0.191,3.848,69.0
30.439,0.196,3.673,4.0
30.515,0.202,3.507,6.0
51.184,0.347,5.589,5.0
30.334,0.214,4.17,64.0
30.36,0.219,3.998,33.0
30.407,0.224,3.828,25.0
47.708,0.359,5.727,3.0
36.328,0.279,4.152,2.0
37.135,0.291,4.032,5.0
38.885,0.316,5.32,1.0
30.369,0.251,3.979,33.0
33.612,0.283,4.21,1.0
40.196,0.344,4.799,2.0
36.288,0.316,4.124,4.0
37.108,0.329,4.004,7.0
33.399,0.306,4.547,6.0
39.294,0.366,5.121,4.0
42.135,0.399,5.248,3.0
40.26,0.387,4.778,3.0
36.309,0.354,4.101,4.0
30.95,0.306,3.317,37.0
22.757,0.232,3.081,2.0
30.469,0.315,3.949,16.0
57.967,0.608,7.177,12.0
51.12,0.543,6.029,17.0
30.965,0.333,3.474,41.0
30.931,0.338,3.292,43.0
48.211,0.541,6.491,3.0
33.561,0.381,4.323,1.0
47.886,0.551,5.892,11.0
31.019,0.361,3.634,25.0
31.012,0.365,3.454,33.0
30.933,0.369,3.268,32.0
33.002,0.404,4.416,10.0
51.324,0.635,6.57,3.0
50.923,0.637,6.223,6.0
31.056,0.392,3.612,62.0
30.985,0.396,3.425,5.0
30.935,0.399,3.242,22.0
30.478,0.403,4.052,19.0
51.358,0.686,6.53,2.0
31.048,0.418,3.767,8.0
47.043,0.64,5.431,15.0
46.782,0.642,5.131,2.0
53.111,0.736,5.52,2.0
35.933,0.509,4.745,2.0
52.126,0.745,6.581,5.0
31.063,0.448,3.741,63.0
46.615,0.678,5.34,15.0
46.24,0.678,5.03,7.0
54.359,0.804,5.6,2.0
35.883,0.542,4.705,3.0
31.063,0.473,3.892,7.0
31.071,0.477,3.713,14.0
52.181,0.808,5.928,6.0
46.149,0.72,4.976,6.0
53.612,0.842,5.472,3.0
39.393,0.632,5.127,6.0
31.077,0.502,3.863,56.0
46.913,0.764,5.559,21.0
47.939,0.786,5.398,12.0
37.093,0.612,3.962,4.0
53.501,0.89,5.406,5.0
39.289,0.666,5.073,2.0
31.078,0.53,3.831,8.0
47.209,0.811,5.546,6.0
47.848,0.827,5.338,5.0
53.255,0.927,5.633,5.0
52.546,0.92,5.255,41.0
31.072,0.554,3.979,41.0
46.412,0.832,5.673,9.0
46.993,0.848,5.47,8.0
46.176,0.838,5.103,8.0
52.569,0.959,5.505,36.0
52.718,0.968,5.216,7.0
31.064,0.58,3.944,32.0
57.788,1.085,7.0,7.0
36.097,0.682,4.162,1.0
52.531,0.997,5.747,11.0
52.549,1.003,5.445,10.0
61.203,1.175,5.987,6.0
31.087,0.607,3.911,27.0
47.474,0.931,5.696,3.0
52.356,1.032,5.978,3.0
52.392,1.038,5.672,10.0
37.012,0.736,3.792,1.0
46.555,0.931,4.501,25.0
46.504,0.946,5.797,8.0
52.204,1.066,6.202,14.0
52.499,1.077,5.931,4.0
52.475,1.081,5.618,9.0
46.554,0.964,4.714,15.0
52.529,1.092,5.015,29.0
46.692,0.986,5.763,3.0
52.55,1.114,6.179,21.0
46.186,0.983,5.162,7.0
52.398,1.12,5.546,14.0
46.546,0.999,4.656,7.0
52.493,1.131,4.948,19.0
52.577,1.15,6.424,15.0
52.408,1.15,6.097,8.0
46.807,1.032,5.173,11.0
46.557,1.03,4.869,24.0
52.581,1.168,5.193,30.0
46.541,1.037,4.327,23.0
52.213,1.181,6.311,6.0
52.475,1.191,6.037,0.0
46.611,1.061,5.09,19.0
52.575,1.201,5.43,8.0
52.621,1.206,5.129,8.0
43.32,0.996,3.971,18.0
46.869,1.093,5.604,18.0
47.228,1.104,5.371,5.0
53.191,1.248,5.738,3.0
66.44,1.563,6.774,5.0
40.357,0.952,3.88,25.0
43.842,1.038,3.961,2.0
46.707,1.121,5.521,12.0
46.497,1.118,5.224,28.0
46.54,1.122,4.957,3.0
57.655,1.395,5.8,8.0
40.338,0.978,3.823,57.0
46.377,1.127,4.126,7.0
46.582,1.148,5.441,7.0
46.338,1.144,5.142,3.0
37.001,0.916,3.889,6.0
46.568,1.156,4.619,16.0
40.362,1.004,3.769,58.0
40.398,1.007,3.538,12.0
46.626,1.177,5.38,11.0
48.071,1.217,5.266,2.0
52.517,1.332,5.446,4.0
53.285,1.354,5.21,16.0
40.44,1.03,3.719,65.0
50.437,1.287,4.345,4.0
46.587,1.203,5.309,3.0
58.867,1.523,6.363,5.0
57.644,1.495,5.894,3.0
52.863,1.373,5.092,7.0
40.375,1.051,3.654,53.0
52.127,1.359,4.415,26.0
58.994,1.556,6.635,9.0
46.346,1.224,4.941,5.0
46.587,1.233,4.694,17.0
40.365,1.07,3.828,25.0
40.393,1.072,3.595,23.0
52.307,1.391,4.353,26.0
55.163,1.484,6.121,2.0
36.918,0.994,3.88,2.0
54.242,1.463,5.384,1.0
40.37,1.09,3.767,62.0
40.407,1.093,3.535,12.0
43.355,1.174,3.541,4.0
57.725,1.581,6.316,2.0
46.615,1.278,4.827,21.0
60.345,1.656,5.896,11.0
40.378,1.11,3.705,73.0
42.904,1.181,3.687,2.0
43.03,1.186,3.448,4.0
53.224,1.481,5.74,4.0
52.5,1.463,5.354,3.0
59.234,1.652,5.695,21.0
52.384,1.462,4.725,6.0
59.995,1.677,5.062,6.0
57.937,1.621,4.552,5.0
46.565,1.315,4.947,15.0
59.289,1.677,5.952,22.0
52.919,1.498,5.003,6.0
40.387,1.144,3.578,21.0
43.575,1.235,3.607,2.0
52.527,1.49,4.043,3.0
46.612,1.335,4.877,7.0
59.25,1.698,5.853,7.0
40.382,1.158,3.753,46.0
43.839,1.257,3.814,4.0
57.639,1.654,4.678,7.0
68.416,1.965,5.156,8.0
0.0,0.0,0.0,0.0
53.451,1.55,5.192,8.0
40.413,1.172,3.689,47.0
50.809,1.475,4.336,13.0
52.031,1.51,4.137,6.0
68.098,1.979,5.019,2.0
52.515,1.539,5.321,3.0
53.095,1.556,5.068,9.0
48.531,1.422,4.348,5.0
51.147,1.5,4.279,4.0
52.058,1.526,4.053,4.0
68.324,2.004,4.921,7.0
61.489,1.819,6.126,5.0
40.413,1.195,3.789,11.0
52.609,1.556,4.625,5.0
57.628,1.705,4.724,15.0
52.095,1.541,3.967,3.0
53.294,1.577,3.748,6.0
48.7,1.452,4.768,3.0
40.416,1.205,3.721,55.0
50.372,1.501,4.342,2.0
58.035,1.729,4.658,5.0
69.443,2.07,5.17,2.0
67.927,2.024,4.662,7.0
53.268,1.599,5.124,8.0
40.441,1.214,3.653,32.0
43.483,1.304,3.674,6.0
52.0,1.56,4.084,6.0
68.327,2.049,4.968,4.0
69.215,2.074,4.631,11.0
48.683,1.47,4.598,1.0
46.732,1.41,4.14,4.0
51.317,1.547,4.246,1.0
68.792,2.074,5.283,8.0
53.161,1.602,3.773,8.0
69.45,2.091,4.525,8.0
40.426,1.226,3.746,39.0
52.592,1.593,4.566,9.0
58.092,1.759,4.703,5.0
51.845,1.568,3.889,2.0
67.762,2.049,4.688,9.0
103.027,3.114,6.53,5.0
40.435,1.229,3.674,44.0
51.057,1.552,4.341,5.0
51.985,1.578,4.116,4.0
68.259,2.07,4.999,4.0
68.277,2.069,4.602,6.0
67.466,2.043,4.155,4.0
43.093,1.313,3.838,4.0
43.713,1.33,3.637,3.0
52.119,1.585,4.032,3.0
53.137,1.614,3.795,4.0
69.413,2.106,4.552,4.0
67.479,2.045,4.032,3.0
52.591,1.603,4.586,11.0
58.03,1.767,4.721,5.0
68.226,2.075,5.152,7.0
67.644,2.054,4.706,10.0
103.096,3.127,6.572,5.0
69.155,2.096,4.006,4.0
0.0,0.0,0.0,0.0
52.002,1.582,4.135,4.0
68.305,2.074,5.031,2.0
68.244,2.07,4.622,7.0
67.491,2.044,4.178,3.0
103.655,3.135,5.813,6.0
43.645,1.326,3.644,3.0
69.213,2.101,5.374,6.0
53.068,1.608,3.81,4.0
69.401,2.099,4.571,7.0
67.425,2.037,4.049,4.0
103.141,3.111,5.593,2.0
57.863,1.753,4.723,6.0
68.308,2.066,5.177,7.0
67.824,2.048,4.744,10.0
103.019,3.104,6.594,5.0
69.139,2.08,4.023,5.0
103.593,3.111,5.425,9.0
51.991,1.568,4.146,5.0
68.361,2.057,5.053,2.0
68.476,2.057,4.661,8.0
67.438,2.022,4.19,3.0
103.659,3.101,5.837,4.0
110.182,3.291,5.564,7.0
69.022,2.069,5.375,9.0
53.089,1.588,3.824,4.0
69.343,2.07,4.589,14.0
67.482,2.01,4.065,4.0
118.615,3.525,6.455,6.0
118.049,3.501,5.738,5.0
0.0,0.0,0.0,0.0
68.007,2.019,4.769,9.0
101.977,3.02,6.555,14.0
69.203,2.045,4.039,7.0
104.059,3.068,5.467,6.0
110.608,3.253,5.167,1.0
68.245,2.013,5.054,1.0
68.934,2.028,4.702,9.0
110.346,3.238,6.882,4.0
103.717,3.036,5.854,6.0
110.207,3.217,5.579,6.0
124.63,3.63,5.586,2.0
53.06,1.549,3.828,4.0
69.196,2.015,4.589,12.0
67.496,1.96,4.081,3.0
103.336,2.992,5.637,2.0
110.63,3.195,5.391,3.0
102.352,2.948,4.392,3.0
53.234,1.536,3.739,4.0
102.829,2.958,6.62,5.0
103.313,2.964,6.05,2.0
103.936,2.973,5.47,6.0
118.773,3.387,5.558,2.0
125.962,3.581,5.161,3.0
68.575,1.953,4.684,5.0
67.509,1.916,4.216,3.0
103.783,2.936,5.877,5.0
103.391,2.916,5.241,9.0
0.0,0.0,0.0,0.0
193.884,5.434,7.573,6.0
69.099,1.939,4.585,11.0
69.59,1.946,4.212,2.0
69.1,1.925,3.78,4.0
110.507,3.069,5.388,6.0
102.419,2.835,4.399,5.0
194.043,5.352,7.207,8.0
102.676,2.834,6.617,2.0
69.136,1.901,4.052,2.0
118.502,3.247,6.254,4.0
103.383,2.822,4.843,1.0
102.594,2.791,4.21,5.0
0.0,0.0,0.0,0.0
67.441,1.828,4.215,5.0
69.153,1.867,3.918,4.0
104.032,2.797,5.287,2.0
120.085,3.216,5.393,2.0
0.0,0.0,0.0,0.0
193.204,5.133,6.431,17.0
69.6,1.849,4.216,3.0
103.842,2.747,5.684,9.0
103.078,2.715,5.04,7.0
119.999,3.148,5.159,6.0
194.44,5.079,7.227,5.0
0.0,0.0,0.0,0.0
69.289,1.8,4.062,5.0
103.831,2.687,5.482,9.0
124.807,3.214,5.863,3.0
102.662,2.632,4.214,6.0
0.0,0.0,0.0,0.0
194.445,4.94,5.722,9.0
69.496,1.763,3.939,8.0
103.897,2.623,5.283,5.0
119.89,3.013,5.4,2.0
0.0,0.0,0.0,0.0
148.508,3.695,4.948,2.0
194.281,4.812,5.345,18.0
110.221,2.725,6.036,3.0
110.469,2.716,5.405,3.0
0.0,0.0,0.0,0.0
0.0,0.0,0.0,0.0
194.798,4.716,6.115,7.0
194.136,4.674,4.965,25.0
103.818,2.494,5.485,11.0
102.962,2.46,4.84,4.0
102.719,2.44,4.23,7.0
0.0,0.0,0.0,0.0
194.805,4.577,5.74,18.0
194.147,4.535,4.594,22.0
103.713,2.416,5.281,6.0
116.257,2.692,5.243,2.0
102.674,2.363,4.033,1.0
0.0,0.0,0.0,0.0
194.631,4.426,5.363,24.0
194.044,4.386,4.22,32.0
110.369,2.486,5.408,5.0
124.848,2.794,5.391,5.0
139.986,3.113,5.231,4.0
0.0,0.0,0.0,0.0
194.704,4.272,4.992,15.0
0.0,0.0,0.0,0.0
110.334,2.394,5.193,2.0
124.841,2.691,5.151,8.0
140.589,3.01,4.984,3.0
194.769,4.142,5.754,16.0
194.45,4.106,4.616,16.0
195.548,4.099,3.507,8.0
103.213,2.153,4.663,2.0
124.767,2.584,4.912,3.0
0.0,0.0,0.0,0.0
194.929,3.976,5.389,5.0
194.377,3.936,4.248,15.0
199.585,4.011,3.205,9.0
118.697,2.372,5.139,7.0
124.83,2.474,4.678,2.0
0.0,0.0,0.0,0.0
194.695,3.797,5.017,15.0
194.56,3.762,3.883,15.0
0.0,0.0,0.0,0.0
124.793,2.379,5.169,23.0
148.736,2.81,5.295,3.0
0.0,0.0,0.0,0.0
194.543,3.612,4.647,23.0
194.587,3.58,3.52,13.0
0.0,0.0,0.0,0.0
118.457,2.145,4.684,8.0
0.0,0.0,0.0,0.0
0.0,0.0,0.0,0.0
194.651,3.425,4.288,21.0
194.901,3.396,3.164,27.0
0.0,0.0,0.0,0.0
124.896,2.138,4.707,5.0
148.362,2.513,4.729,4.0
197.14,3.304,5.141,9.0
194.975,3.233,3.934,21.0
194.748,3.196,2.8,7.0
99.641,1.617,0.856,2.0
125.226,2.013,4.487,12.0
0.0,0.0,0.0,0.0
196.293,3.086,4.757,24.0
194.812,3.027,3.573,35.0
0.0,0.0,0.0,0.0
99.721,1.513,0.673,3.0
125.074,1.878,4.253,31.0
157.096,2.328,4.428,20.0
196.213,2.872,4.394,26.0
194.768,2.814,3.213,35.0
0.0,0.0,0.0,0.0
99.61,1.403,0.491,5.0
125.052,1.74,4.025,30.0
20.274,0.278,0.535,3.0
20.29,0.274,0.417,6.0
20.287,0.27,0.298,3.0
0.0,0.0,0.0,0.0
99.634,1.291,0.311,5.0
20.281,0.259,0.616,0.0
20.3,0.255,0.499,26.0
20.281,0.251,0.381,21.0
20.266,0.247,0.261,19.0
20.31,0.243,0.144,4.0
99.546,1.174,0.133,4.0
20.284,0.235,0.58,21.0
20.268,0.231,0.462,28.0
20.28,0.227,0.345,29.0
20.286,0.223,0.225,25.0
20.328,0.219,0.108,24.0
20.328,0.215,-0.008,5.0
20.272,0.211,0.544,30.0
20.274,0.206,0.426,33.0
20.291,0.203,0.309,28.0
20.292,0.198,0.19,28.0
20.322,0.195,0.073,35.0
20.302,0.19,-0.044,10.0
20.264,0.186,0.508,31.0
20.268,0.181,0.391,28.0
20.274,0.177,0.274,26.0
20.259,0.173,0.154,24.0
20.281,0.169,0.037,27.0
20.2,0.164,-0.079,23.0
20.183,0.159,0.471,22.0
20.178,0.155,0.354,24.0
20.171,0.15,0.237,20.0
20.192,0.146,0.119,32.0
20.189,0.142,0.002,27.0
20.172,0.137,-0.113,36.0
20.162,0.133,0.436,27.0
20.159,0.128,0.319,27.0
20.153,0.124,0.203,24.0
20.19,0.12,0.085,32.0
20.181,0.115,-0.031,30.0
20.179,0.111,-0.147,33.0
20.165,0.106,0.402,29.0
20.158,0.102,0.286,28.0
20.154,0.097,0.169,26.0
20.197,0.093,0.051,33.0
20.193,0.088,-0.065,31.0
20.196,0.084,-0.181,23.0
20.148,0.079,0.369,29.0
20.144,0.074,0.252,27.0
20.158,0.07,0.136,26.0
20.196,0.065,0.018,30.0
20.218,0.061,-0.097,25.0
20.209,0.056,-0.214,2.0
20.146,0.051,0.336,31.0
20.142,0.046,0.22,28.0
20.149,0.042,0.103,27.0
20.257,0.037,-0.014,61.0
20.267,0.032,-0.131,150.0
20.265,0.027,-0.248,150.0
20.141,0.022,0.303,29.0
20.135,0.018,0.187,27.0
20.179,0.013,0.071,37.0
20.26,0.008,-0.046,150.0
20.248,0.003,-0.163,36.0
20.24,-0.001,-0.28,6.0
20.13,-0.006,0.271,26.0
20.13,-0.01,0.155,27.0
20.152,-0.015,0.039,22.0
20.157,-0.02,-0.078,26.0
20.153,-0.025,-0.194,11.0
20.163,-0.03,-0.31,14.0
20.121,-0.035,0.239,36.0
20.124,-0.04,0.124,36.0
20.13,-0.045,0.008,35.0
20.145,-0.05,-0.109,30.0
20.131,-0.055,-0.225,18.0
20.16,-0.06,-0.342,22.0
20.125,-0.065,0.209,29.0
20.137,-0.07,0.093,41.0
20.136,-0.075,-0.022,28.0
20.132,-0.08,-0.14,35.0
20.136,-0.086,-0.256,36.0
20.159,-0.091,-0.372,29.0
20.139,-0.096,0.178,27.0
20.141,-0.101,0.062,31.0
20.154,-0.106,-0.052,26.0
20.152,-0.112,-0.17,25.0
20.148,-0.117,-0.286,36.0
20.157,-0.122,-0.402,37.0
20.143,-0.127,0.149,16.0
20.158,-0.133,0.033,22.0
20.16,-0.138,-0.082,19.0
20.128,-0.143,-0.2,9.0
20.148,-0.148,-0.316,27.0
20.164,-0.154,-0.432,32.0
58.324,-0.46,0.347,18.0
53.355,-0.435,0.011,3.0
20.201,-0.17,-0.112,3.0
20.155,-0.175,-0.229,10.0
20.163,-0.181,-0.345,17.0
20.19,-0.186,-0.462,27.0
56.211,-0.534,0.253,10.0
56.208,-0.549,-0.069,15.0
58.781,-0.59,-0.409,12.0
44.911,-0.463,-0.575,34.0
0.0,0.0,0.0,0.0
20.177,-0.219,-0.49,13.0
56.306,-0.627,0.175,1.0
56.32,-0.642,-0.147,0.0
52.981,-0.619,-0.443,5.0
39.488,-0.472,-0.56,8.0
35.83,-0.438,-0.714,2.0
29.297,-0.367,-0.752,4.0
59.539,-0.761,0.103,70.0
56.327,-0.735,-0.224,0.0
52.626,-0.701,-0.511,14.0
38.198,-0.52,-0.594,14.0
31.54,-0.438,-0.671,26.0
28.117,-0.398,-0.759,2.0
20.132,-0.29,0.008,2.0
59.437,-0.874,-0.315,6.0
45.182,-0.677,-0.498,19.0
37.953,-0.58,-0.64,21.0
30.563,-0.476,-0.691,28.0
27.072,-0.429,-0.767,1.0
20.146,-0.324,-0.017,25.0
52.971,-0.869,-0.35,24.0
44.925,-0.75,-0.554,31.0
0.0,0.0,0.0,0.0
30.387,-0.525,-0.726,20.0
26.485,-0.465,-0.784,4.0
20.111,-0.358,-0.043,11.0
52.915,-0.958,-0.416,24.0
44.895,-0.825,-0.609,8.0
31.466,-0.587,-0.61,12.0
28.922,-0.548,-0.726,7.0
25.601,-0.493,-0.79,1.0
52.946,-1.033,-0.178,15.0
45.47,-0.901,-0.413,29.0
38.247,-0.769,-0.566,13.0
30.953,-0.631,-0.638,29.0
28.552,-0.591,-0.752,5.0
24.883,-0.523,-0.798,3.0
38.365,-0.815,-0.175,24.0
40.45,-0.872,-0.416,3.0
38.044,-0.831,-0.608,22.0
30.602,-0.678,-0.667,32.0
25.439,-0.571,-0.7,2.0
23.734,-0.54,-0.789,7.0
40.423,-0.929,-0.231,42.0
0.0,0.0,0.0,0.0
37.88,-0.894,-0.65,13.0
30.446,-0.728,-0.699,30.0
25.206,-0.61,-0.723,7.0
22.916,-0.562,-0.788,2.0
38.795,-0.961,-0.266,33.0
38.596,-0.968,-0.485,25.0
31.428,-0.798,-0.574,14.0
30.305,-0.779,-0.73,12.0
24.554,-0.639,-0.732,14.0
22.189,-0.584,-0.788,0.0
38.693,-1.029,-0.309,54.0
38.383,-1.032,-0.525,14.0
31.038,-0.844,-0.601,30.0
0.0,0.0,0.0,0.0
23.878,-0.664,-0.737,21.0
21.179,-0.595,-0.775,0.0
38.661,-1.096,-0.349,59.0
38.132,-1.093,-0.561,13.0
30.758,-0.891,-0.628,32.0
28.066,-0.822,-0.735,1.0
23.79,-0.704,-0.759,15.0
20.815,-0.623,-0.783,1.0
38.632,-1.165,-0.388,49.0
37.966,-1.157,-0.597,17.0
30.57,-0.941,-0.655,36.0
27.446,-0.854,-0.747,0.0
23.661,-0.744,-0.779,7.0
20.067,-0.637,-0.775,1.0
38.638,-1.236,-0.426,28.0
37.97,-1.226,-0.634,6.0
30.475,-0.994,-0.683,35.0
25.09,-0.826,-0.707,6.0
22.775,-0.757,-0.771,4.0
20.0,-0.671,-0.791,0.0
38.648,-1.307,-0.463,12.0
31.288,-1.068,-0.552,28.0
30.428,-1.048,-0.71,16.0
24.674,-0.858,-0.719,13.0
22.337,-0.784,-0.778,2.0
19.589,-0.694,-0.793,0.0
38.478,-1.371,-0.496,10.0
30.982,-1.114,-0.575,28.0
30.237,-1.097,-0.733,6.0
24.203,-0.886,-0.727,22.0
21.867,-0.808,-0.781,1.0
19.22,-0.716,-0.796,0.0
31.311,-1.174,-0.431,43.0
30.766,-1.163,-0.598,29.0
28.509,-1.087,-0.716,9.0
23.827,-0.917,-0.736,16.0
21.393,-0.83,-0.782,1.0
18.751,-0.734,-0.792,0.0
28.472,-1.12,-0.415,68.0
28.47,-1.129,-0.577,64.0
28.377,-1.135,-0.736,17.0
23.795,-0.96,-0.754,14.0
20.79,-0.845,-0.777,1.0
18.51,-0.759,-0.797,0.0
28.462,-1.172,-0.438,128.0
28.457,-1.181,-0.599,144.0
28.273,-1.183,-0.755,3.0
23.726,-1.0,-0.77,5.0
20.461,-0.87,-0.78,0.0
18.286,-0.784,-0.801,0.0
28.457,-1.225,-0.46,63.0
28.464,-1.235,-0.62,58.0
24.827,-1.085,-0.682,5.0
23.05,-1.015,-0.766,5.0
20.153,-0.894,-0.783,0.0
17.943,-0.802,-0.799,1.0
31.159,-1.4,-0.526,53.0
30.533,-1.382,-0.688,20.0
24.48,-1.116,-0.69,9.0
22.456,-1.031,-0.762,2.0
19.794,-0.916,-0.784,0.0
17.704,-0.825,-0.801,0.0
31.093,-1.455,-0.546,39.0
30.386,-1.433,-0.705,13.0
24.234,-1.151,-0.699,15.0
22.09,-1.057,-0.764,2.0
19.565,-0.942,-0.787,0.0
17.456,-0.847,-0.801,0.0
30.994,-1.509,-0.564,34.0
30.074,-1.475,-0.717,6.0
24.06,-1.188,-0.709,15.0
21.922,-1.09,-0.772,1.0
19.383,-0.97,-0.792,0.0
17.214,-0.868,-0.801,0.0
30.911,-1.564,-0.581,34.0
24.623,-1.254,-0.602,2.0
23.927,-1.227,-0.72,16.0
21.378,-1.103,-0.766,1.0
19.067,-0.99,-0.79,0.0
17.018,-0.89,-0.802,1.0
30.839,-1.618,-0.597,29.0
24.52,-1.295,-0.613,26.0
23.827,-1.266,-0.73,15.0
21.147,-1.131,-0.769,1.0
18.832,-1.014,-0.791,0.0
16.824,-0.912,-0.801,0.0
24.552,-1.334,-0.488,39.0
24.459,-1.338,-0.624,22.0
23.788,-1.309,-0.741,12.0
20.945,-1.16,-0.772,3.0
18.572,-1.035,-0.789,0.0
16.669,-0.935,-0.802,1.0
24.524,-1.378,-0.499,48.0
24.409,-1.38,-0.634,22.0
23.752,-1.352,-0.751,8.0
20.651,-1.182,-0.771,2.0
18.444,-1.062,-0.792,2.0
16.48,-0.955,-0.801,1.0
24.479,-1.422,-0.51,52.0
24.381,-1.424,-0.644,26.0
23.645,-1.39,-0.758,5.0
20.429,-1.208,-0.771,2.0
18.318,-1.089,-0.794,0.0
16.353,-0.978,-0.801,1.0
24.473,-1.467,-0.519,44.0
24.388,-1.47,-0.654,35.0
23.515,-1.426,-0.763,5.0
20.321,-1.239,-0.775,1.0
18.211,-1.117,-0.797,1.0
16.29,-1.005,-0.804,1.0
24.47,-1.512,-0.528,48.0
24.349,-1.513,-0.662,25.0
23.252,-1.453,-0.762,2.0
20.105,-1.263,-0.774,0.0
18.099,-1.143,-0.798,1.0
16.256,-1.033,-0.808,1.0
24.474,-1.558,-0.536,41.0
24.337,-1.558,-0.669,24.0
22.865,-1.471,-0.757,4.0
20.035,-1.296,-0.777,0.0
17.895,-1.164,-0.794,1.0
16.203,-1.06,-0.81,1.0
24.475,-1.603,-0.543,35.0
24.321,-1.601,-0.675,23.0
22.632,-1.498,-0.755,1.0
19.905,-1.324,-0.777,1.0
17.761,-1.188,-0.793,0.0
16.167,-1.087,-0.812,1.0
24.478,-1.648,-0.549,26.0
24.272,-1.642,-0.68,18.0
22.373,-1.521,-0.751,1.0
19.724,-1.348,-0.775,0.0
17.702,-1.216,-0.794,1.0
16.088,-1.111,-0.812,1.0
30.182,-2.087,-0.683,8.0
24.22,-1.683,-0.683,14.0
22.263,-1.555,-0.752,1.0
19.688,-1.382,-0.777,1.0
17.621,-1.243,-0.794,1.0
16.033,-1.137,-0.812,1.0
29.86,-2.119,-0.681,8.0
24.194,-1.725,-0.686,15.0
22.175,-1.589,-0.752,1.0
19.626,-1.413,-0.777,1.0
17.274,-1.25,-0.781,2.0
15.992,-1.163,-0.812,1.0
29.718,-2.163,-0.681,3.0
24.133,-1.765,-0.687,12.0
22.015,-1.617,-0.749,1.0
19.602,-1.447,-0.779,1.0
17.192,-1.275,-0.778,7.0
15.909,-1.185,-0.809,0.0
29.114,-2.171,-0.67,4.0
24.112,-1.806,-0.688,14.0
21.848,-1.644,-0.745,1.0
19.512,-1.475,-0.776,1.0
17.317,-1.315,-0.785,2.0
15.885,-1.212,-0.809,1.0
29.394,-2.243,-0.677,4.0
24.15,-1.852,-0.69,13.0
21.897,-1.686,-0.748,1.0
19.447,-1.504,-0.774,0.0
17.372,-1.35,-0.788,0.0
15.881,-1.24,-0.809,1.0
29.217,-2.282,-0.673,6.0
24.155,-1.895,-0.691,15.0
21.834,-1.72,-0.745,1.0
19.421,-1.537,-0.773,1.0
17.321,-1.376,-0.786,0.0
15.884,-1.268,-0.809,1.0
29.239,-2.335,-0.673,6.0
24.199,-1.94,-0.691,17.0
21.867,-1.76,-0.745,0.0
19.526,-1.579,-0.776,0.0
17.376,-1.411,-0.787,0.0
15.892,-1.296,-0.808,1.0
29.296,-2.389,-0.672,5.0
24.234,-1.984,-0.69,20.0
21.846,-1.796,-0.743,0.0
