X,Y,Z,Reflectivity
9.48,-0.832,-0.959,0.0
8.96,-0.788,-0.955,0.0
12.38,-1.087,-0.97,0.0
11.526,-1.014,-0.966,0.0
10.791,-0.951,-0.963,0.0
10.104,-0.893,-0.958,0.0
9.57,-0.847,-0.96,0.0
9.037,-0.802,-0.956,0.0
12.489,-1.106,-0.968,0.0
11.601,-1.03,-0.963,0.0
10.939,-0.973,-0.967,0.0
10.214,-0.91,-0.96,0.0
9.665,-0.863,-0.961,0.0
9.136,-0.817,-0.959,0.0
12.638,-1.129,-0.969,0.0
11.785,-1.054,-0.968,0.0
11.028,-0.989,-0.965,0.0
10.351,-0.93,-0.964,0.0
9.76,-0.878,-0.962,0.0
9.221,-0.832,-0.959,0.0
12.744,-1.147,-0.966,0.0
11.911,-1.074,-0.967,0.0
11.092,-1.002,-0.961,0.0
10.413,-0.942,-0.96,0.0
9.846,-0.893,-0.961,0.0
9.313,-0.846,-0.96,0.0
13.008,-1.18,-0.974,0.0
12.041,-1.094,-0.967,0.0
11.204,-1.019,-0.96,0.0
10.507,-0.958,-0.959,0.0
9.942,-0.908,-0.961,0.0
9.441,-0.864,-0.964,0.0
13.135,-1.199,-0.971,0.0
12.171,-1.113,-0.965,0.0
11.386,-1.043,-0.965,0.0
0.0,0.0,0.0,0.0
10.05,-0.924,-0.962,0.0
9.502,-0.875,-0.961,0.0
13.348,-1.227,-0.973,0.0
12.372,-1.139,-0.969,0.0
11.52,-1.062,-0.965,0.0
0.0,0.0,0.0,0.0
10.189,-0.942,-0.965,0.0
9.621,-0.891,-0.963,0.0
13.651,-1.262,-0.981,0.0
12.522,-1.16,-0.968,0.0
11.727,-1.088,-0.97,0.0
10.982,-1.02,-0.969,0.0
10.292,-0.957,-0.964,0.0
9.721,-0.906,-0.963,0.0
13.81,-1.284,-0.979,1.0
12.734,-1.186,-0.971,0.0
11.885,-1.108,-0.97,0.0
11.043,-1.031,-0.962,0.0
10.355,-0.968,-0.958,0.0
9.826,-0.92,-0.963,0.0
13.826,-1.292,-0.965,1.0
12.929,-1.21,-0.972,0.0
11.99,-1.124,-0.966,0.0
11.15,-1.046,-0.96,0.0
10.516,-0.988,-0.962,0.0
9.928,-0.934,-0.962,0.0
13.805,-1.297,-0.948,1.0
13.168,-1.238,-0.975,0.0
12.134,-1.142,-0.964,0.0
11.335,-1.069,-0.963,0.0
10.582,-0.999,-0.956,0.0
10.054,-0.95,-0.962,0.0
13.808,-1.302,-0.933,1.0
13.413,-1.267,-0.978,0.0
12.437,-1.176,-0.974,0.0
11.608,-1.099,-0.973,0.0
10.891,-1.032,-0.971,0.0
10.203,-0.968,-0.965,0.0
13.783,-1.305,-0.916,1.0
13.745,-1.303,-0.987,0.0
12.623,-1.198,-0.974,0.0
11.779,-1.119,-0.973,0.0
11.034,-1.049,-0.971,0.0
10.32,-0.982,-0.964,0.0
13.805,-1.312,-0.901,1.0
13.773,-1.31,-0.973,1.0
12.762,-1.215,-0.97,0.0
11.924,-1.136,-0.971,0.0
11.181,-1.067,-0.971,0.0
10.474,-1.0,-0.966,0.0
13.788,-1.314,-0.883,1.0
13.784,-1.315,-0.957,1.0
13.096,-1.25,-0.979,0.0
12.037,-1.15,-0.966,0.0
11.301,-1.081,-0.968,0.0
10.579,-1.013,-0.963,0.0
13.781,-1.317,-0.866,1.0
13.778,-1.318,-0.94,1.0
13.327,-1.275,-0.98,0.0
12.255,-1.174,-0.968,0.0
11.475,-1.1,-0.968,0.0
10.751,-1.031,-0.965,0.0
13.843,-1.325,-0.853,0.0
13.773,-1.32,-0.922,1.0
13.599,-1.304,-0.983,0.0
12.617,-1.211,-0.981,0.0
11.694,-1.123,-0.972,0.0
10.923,-1.05,-0.967,0.0
14.042,-1.347,-0.848,0.0
13.768,-1.321,-0.905,1.0
13.738,-1.319,-0.976,1.0
12.668,-1.217,-0.969,0.0
11.944,-1.148,-0.978,0.0
11.103,-1.068,-0.968,0.0
14.259,-1.369,-0.843,0.0
13.768,-1.323,-0.887,1.0
13.758,-1.323,-0.96,1.0
13.027,-1.253,-0.98,0.0
11.989,-1.154,-0.966,0.0
11.25,-1.083,-0.967,0.0
14.472,-1.391,-0.837,0.0
13.758,-1.323,-0.869,1.0
13.756,-1.323,-0.942,1.0
13.302,-1.28,-0.983,0.0
12.258,-1.18,-0.972,0.0
11.481,-1.106,-0.972,0.0
14.722,-1.415,-0.833,0.0
13.816,-1.329,-0.855,0.0
13.756,-1.323,-0.924,1.0
13.529,-1.302,-0.983,1.0
12.57,-1.21,-0.98,0.0
11.685,-1.125,-0.973,0.0
15.026,-1.444,-0.83,1.0
14.043,-1.35,-0.85,0.0
13.752,-1.323,-0.906,1.0
13.718,-1.32,-0.978,1.0
12.736,-1.226,-0.976,0.0
11.901,-1.146,-0.976,0.0
15.248,-1.465,-0.822,1.0
14.253,-1.369,-0.844,0.0
13.756,-1.322,-0.888,1.0
13.764,-1.323,-0.963,1.0
13.059,-1.255,-0.983,0.0
12.034,-1.157,-0.97,0.0
15.447,-1.483,-0.812,1.0
14.484,-1.39,-0.838,0.0
13.777,-1.322,-0.87,1.0
13.753,-1.32,-0.944,1.0
13.348,-1.281,-0.987,0.0
12.244,-1.176,-0.97,0.0
15.74,-1.508,-0.806,1.0
14.777,-1.416,-0.835,0.0
13.835,-1.326,-0.855,0.0
13.783,-1.321,-0.927,1.0
13.631,-1.306,-0.989,0.0
12.596,-1.207,-0.981,0.0
16.067,-1.537,-0.801,1.0
15.056,-1.44,-0.83,1.0
14.071,-1.346,-0.851,0.0
13.769,-1.316,-0.907,1.0
13.767,-1.316,-0.98,1.0
12.797,-1.223,-0.979,0.0
16.352,-1.56,-0.793,1.0
15.271,-1.457,-0.821,1.0
14.314,-1.365,-0.846,0.0
13.773,-1.313,-0.888,1.0
13.778,-1.314,-0.962,1.0
13.058,-1.245,-0.981,0.0
16.716,-1.591,-0.788,1.0
15.533,-1.477,-0.814,1.0
14.534,-1.382,-0.839,0.0
13.78,-1.31,-0.87,1.0
13.795,-1.311,-0.944,1.0
13.359,-1.269,-0.985,0.0
17.101,-1.622,-0.782,0.0
15.85,-1.502,-0.809,1.0
14.857,-1.408,-0.837,0.0
13.879,-1.314,-0.857,0.0
13.779,-1.304,-0.924,1.0
13.734,-1.3,-0.993,0.0
17.617,-1.664,-0.781,0.0
16.146,-1.524,-0.801,1.0
15.096,-1.425,-0.829,1.0
14.112,-1.331,-0.851,0.0
13.797,-1.301,-0.905,1.0
13.795,-1.3,-0.978,1.0
18.138,-1.706,-0.779,1.0
16.409,-1.542,-0.791,1.0
15.349,-1.442,-0.822,1.0
14.379,-1.35,-0.847,0.0
13.819,-1.296,-0.887,1.0
13.815,-1.295,-0.96,1.0
18.691,-1.75,-0.777,1.0
16.799,-1.571,-0.787,0.0
15.596,-1.458,-0.813,1.0
14.608,-1.364,-0.84,0.0
13.819,-1.29,-0.868,1.0
13.829,-1.29,-0.942,1.0
19.184,-1.786,-0.77,1.0
17.318,-1.611,-0.787,0.0
15.933,-1.481,-0.808,1.0
14.95,-1.388,-0.839,0.0
13.942,-1.294,-0.856,0.0
13.848,-1.284,-0.924,1.0
19.785,-1.832,-0.767,1.0
17.832,-1.649,-0.785,0.0
16.251,-1.501,-0.801,1.0
15.225,-1.405,-0.833,1.0
14.243,-1.314,-0.855,0.0
13.857,-1.277,-0.905,1.0
20.257,-1.863,-0.757,1.0
18.326,-1.684,-0.781,1.0
16.484,-1.513,-0.79,1.0
15.432,-1.415,-0.822,1.0
14.453,-1.324,-0.847,1.0
13.875,-1.27,-0.886,1.0
20.915,-1.911,-0.752,0.0
18.853,-1.72,-0.777,1.0
16.972,-1.547,-0.789,0.0
15.682,-1.428,-0.814,1.0
14.656,-1.333,-0.838,0.0
13.911,-1.264,-0.869,1.0
21.599,-1.959,-0.747,1.0
19.328,-1.75,-0.77,1.0
17.484,-1.582,-0.789,0.0
16.031,-1.448,-0.81,1.0
15.018,-1.355,-0.838,0.0
14.066,-1.268,-0.859,0.0
22.438,-2.019,-0.744,1.0
20.004,-1.797,-0.769,0.0
18.001,-1.615,-0.787,1.0
16.3,-1.46,-0.8,2.0
15.316,-1.37,-0.833,1.0
14.421,-1.288,-0.86,1.0
23.422,-2.09,-0.744,5.0
20.422,-1.819,-0.757,1.0
18.459,-1.642,-0.781,1.0
16.654,-1.479,-0.795,0.0
15.519,-1.376,-0.822,1.0
14.57,-1.29,-0.849,1.0
23.807,-2.105,-0.723,15.0
21.225,-1.874,-0.757,1.0
19.006,-1.675,-0.778,1.0
17.198,-1.513,-0.797,0.0
15.803,-1.388,-0.816,1.0
14.843,-1.302,-0.844,1.0
23.887,-2.092,-0.693,14.0
21.991,-1.923,-0.754,1.0
19.578,-1.708,-0.774,1.0
17.559,-1.53,-0.789,0.0
16.188,-1.408,-0.813,1.0
15.116,-1.312,-0.839,1.0
24.373,-2.113,-0.674,5.0
22.659,-1.961,-0.746,3.0
20.102,-1.736,-0.768,1.0
18.136,-1.563,-0.79,0.0
16.381,-1.41,-0.8,2.0
15.356,-1.319,-0.831,1.0
27.058,-2.321,-0.711,2.0
23.643,-2.024,-0.746,9.0
20.743,-1.772,-0.764,0.0
18.579,-1.584,-0.784,1.0
16.849,-1.434,-0.8,1.0
15.617,-1.326,-0.824,1.0
27.811,-2.358,-0.693,4.0
23.85,-2.018,-0.72,17.0
21.3,-1.799,-0.755,1.0
19.105,-1.61,-0.78,1.0
17.244,-1.45,-0.796,1.0
15.883,-1.333,-0.817,1.0
28.88,-2.42,-0.681,8.0
24.278,-2.03,-0.7,17.0
22.183,-1.85,-0.757,0.0
19.716,-1.64,-0.778,0.0
17.746,-1.473,-0.794,0.0
16.232,-1.345,-0.812,1.0
30.214,-2.5,-0.671,9.0
25.065,-2.068,-0.689,15.0
23.11,-1.903,-0.757,3.0
20.289,-1.666,-0.774,2.0
18.283,-1.498,-0.794,1.0
16.481,-1.347,-0.803,1.0
30.842,-2.518,-0.644,5.0
25.429,-2.071,-0.665,2.0
23.732,-1.927,-0.746,8.0
20.762,-1.682,-0.764,0.0
18.689,-1.51,-0.787,1.0
16.938,-1.365,-0.803,1.0
32.212,-2.593,-0.63,1.0
28.067,-2.253,-0.697,2.0
23.914,-1.914,-0.72,14.0
21.521,-1.719,-0.764,1.0
19.259,-1.534,-0.786,0.0
17.308,-1.375,-0.798,0.0
33.789,-2.68,-0.617,2.0
29.173,-2.308,-0.687,4.0
24.311,-1.917,-0.701,14.0
22.208,-1.747,-0.76,1.0
19.92,-1.562,-0.787,1.0
17.818,-1.394,-0.798,0.0
35.03,-2.736,-0.595,1.0
30.236,-2.355,-0.673,7.0
24.9,-1.933,-0.686,10.0
23.064,-1.785,-0.76,3.0
20.308,-1.567,-0.776,1.0
18.32,-1.41,-0.797,2.0
36.449,-2.801,-0.573,1.0
31.106,-2.383,-0.653,2.0
24.958,-1.906,-0.656,1.0
23.746,-1.808,-0.752,10.0
20.915,-1.587,-0.773,1.0
18.62,-1.409,-0.787,1.0
39.263,-2.967,-0.568,3.0
32.344,-2.436,-0.638,1.0
28.212,-2.118,-0.706,3.0
23.851,-1.785,-0.725,16.0
21.377,-1.594,-0.763,2.0
19.268,-1.432,-0.79,1.0
41.006,-3.044,-0.542,3.0
34.07,-2.52,-0.63,2.0
29.498,-2.174,-0.702,1.0
24.114,-1.771,-0.704,11.0
22.257,-1.63,-0.767,1.0
19.875,-1.45,-0.79,1.0
45.967,-3.349,-0.551,4.0
35.464,-2.574,-0.612,2.0
30.455,-2.203,-0.687,8.0
24.53,-1.768,-0.686,13.0
23.025,-1.653,-0.766,3.0
20.24,-1.448,-0.78,1.0
46.805,-3.344,-0.505,21.0
36.614,-2.606,-0.589,1.0
30.825,-2.186,-0.659,9.0
24.654,-1.742,-0.66,5.0
23.626,-1.663,-0.758,8.0
20.753,-1.455,-0.776,0.0
49.377,-3.456,-0.474,11.0
39.704,-2.768,-0.591,2.0
30.674,-2.13,-0.62,2.0
24.525,-1.697,-0.628,16.0
23.833,-1.642,-0.736,13.0
21.252,-1.459,-0.77,0.0
53.13,-3.64,-0.448,9.0
40.582,-2.769,-0.557,1.0
24.619,-1.673,-0.468,8.0
24.465,-1.656,-0.598,24.0
24.044,-1.621,-0.715,17.0
22.079,-1.482,-0.774,0.0
24.616,-1.649,-0.179,4.0
24.535,-1.636,-0.309,16.0
24.511,-1.628,-0.439,26.0
24.45,-1.617,-0.57,30.0
24.292,-1.6,-0.695,24.0
22.793,-1.495,-0.774,1.0
24.546,-1.607,-0.151,35.0
24.516,-1.597,-0.281,35.0
24.513,-1.59,-0.411,44.0
24.463,-1.58,-0.543,40.0
24.371,-1.567,-0.671,27.0
23.359,-1.495,-0.767,5.0
24.529,-1.566,-0.124,56.0
24.501,-1.558,-0.255,45.0
24.505,-1.55,-0.385,59.0
24.472,-1.541,-0.517,46.0
24.413,-1.53,-0.645,31.0
23.795,-1.485,-0.756,12.0
24.522,-1.526,-0.098,73.0
24.491,-1.517,-0.228,50.0
24.505,-1.51,-0.359,60.0
24.485,-1.502,-0.491,57.0
24.44,-1.492,-0.62,36.0
23.894,-1.451,-0.734,15.0
24.533,-1.487,-0.072,81.0
24.502,-1.477,-0.203,60.0
24.509,-1.471,-0.334,59.0
24.485,-1.462,-0.466,53.0
24.442,-1.452,-0.596,41.0
24.076,-1.423,-0.715,13.0
24.541,-1.447,-0.048,72.0
24.511,-1.437,-0.178,62.0
24.512,-1.429,-0.309,68.0
24.503,-1.421,-0.442,54.0
24.474,-1.412,-0.572,35.0
24.313,-1.395,-0.698,20.0
24.567,-1.406,-0.023,49.0
24.542,-1.397,-0.154,45.0
24.538,-1.389,-0.285,44.0
24.53,-1.38,-0.418,42.0
24.507,-1.372,-0.549,41.0
24.379,-1.357,-0.676,17.0
24.6,-1.365,0.0,11.0
24.579,-1.356,-0.131,15.0
24.554,-1.347,-0.262,23.0
24.553,-1.339,-0.395,24.0
24.517,-1.329,-0.526,24.0
24.472,-1.319,-0.656,24.0
69.418,-3.732,0.064,1.0
65.742,-3.513,-0.289,4.0
52.995,-2.814,-0.517,0.0
37.986,-2.005,-0.577,8.0
30.777,-1.615,-0.632,30.0
24.539,-1.28,-0.635,14.0
0.0,0.0,0.0,0.0
66.315,-3.426,-0.233,0.0
57.213,-2.936,-0.507,2.0
38.05,-1.94,-0.544,2.0
30.923,-1.567,-0.608,29.0
28.636,-1.441,-0.716,3.0
0.0,0.0,0.0,0.0
0.0,0.0,0.0,0.0
31.321,-1.55,-0.25,5.0
31.267,-1.537,-0.42,23.0
31.043,-1.516,-0.584,31.0
30.328,-1.471,-0.732,8.0
68.85,-3.327,0.245,3.0
31.314,-1.502,-0.056,4.0
31.219,-1.487,-0.223,33.0
31.179,-1.475,-0.393,44.0
31.139,-1.463,-0.559,41.0
30.516,-1.423,-0.712,21.0
31.261,-1.452,0.136,32.0
31.218,-1.439,-0.03,38.0
31.206,-1.428,-0.198,56.0
31.16,-1.416,-0.368,45.0
31.173,-1.406,-0.535,53.0
30.557,-1.368,-0.689,21.0
31.259,-1.393,0.161,57.0
31.224,-1.381,-0.006,23.0
28.461,-1.249,-0.158,59.0
28.457,-1.239,-0.314,57.0
28.443,-1.229,-0.466,63.0
28.45,-1.219,-0.619,105.0
28.442,-1.213,0.168,89.0
28.456,-1.204,0.015,142.0
28.443,-1.193,-0.137,130.0
28.435,-1.183,-0.292,102.0
28.454,-1.174,-0.446,121.0
28.458,-1.165,-0.599,120.0
28.442,-1.158,0.189,150.0
28.452,-1.148,0.036,138.0
28.451,-1.139,-0.116,65.0
28.464,-1.129,-0.273,64.0
28.48,-1.12,-0.426,60.0
30.772,-1.199,-0.626,16.0
31.262,-1.212,0.229,18.0
31.244,-1.2,0.061,43.0
31.3,-1.191,-0.107,72.0
31.326,-1.181,-0.279,45.0
31.36,-1.171,-0.448,23.0
30.935,-1.145,-0.609,28.0
31.351,-1.153,0.25,24.0
80.332,-2.927,0.209,29.0
80.937,-2.92,-0.224,13.0
54.384,-1.942,-0.449,1.0
44.952,-1.59,-0.614,4.0
31.176,-1.092,-0.594,30.0
80.407,-2.797,0.694,15.0
80.453,-2.77,0.26,31.0
81.107,-2.763,-0.175,13.0
38.741,-1.306,-0.296,23.0
38.603,-1.288,-0.504,23.0
31.393,-1.036,-0.579,20.0
38.697,-1.268,0.356,42.0
38.698,-1.254,0.147,52.0
38.678,-1.239,-0.061,59.0
38.647,-1.224,-0.273,54.0
38.605,-1.209,-0.482,32.0
37.876,-1.173,-0.677,8.0
38.638,-1.187,0.377,72.0
38.645,-1.173,0.168,68.0
38.679,-1.161,-0.04,83.0
38.669,-1.147,-0.253,93.0
38.624,-1.131,-0.462,44.0
37.886,-1.097,-0.658,13.0
38.642,-1.109,0.398,87.0
38.644,-1.095,0.188,73.0
38.645,-1.081,-0.02,67.0
38.655,-1.067,-0.233,55.0
38.67,-1.054,-0.443,35.0
37.988,-1.022,-0.641,18.0
38.671,-1.03,0.416,56.0
38.675,-1.016,0.207,47.0
38.706,-1.003,-0.002,32.0
38.751,-0.99,-0.216,31.0
38.77,-0.976,-0.426,30.0
38.078,-0.946,-0.625,20.0
40.428,-0.993,0.454,27.0
40.407,-0.978,0.234,35.0
40.411,-0.963,0.015,37.0
40.407,-0.949,-0.207,38.0
40.415,-0.934,-0.427,55.0
38.178,-0.868,-0.611,23.0
40.41,-0.908,0.47,44.0
38.393,-0.848,0.238,8.0
38.374,-0.834,0.03,32.0
38.357,-0.819,-0.182,54.0
38.358,-0.806,-0.39,31.0
38.244,-0.79,-0.597,13.0
52.951,-1.079,0.637,54.0
52.933,-1.059,0.348,64.0
52.954,-1.041,0.06,53.0
52.933,-1.021,-0.232,52.0
45.541,-0.861,-0.447,18.0
38.546,-0.715,-0.588,14.0
193.077,-3.528,2.389,11.0
20.161,-0.361,0.139,1.0
20.135,-0.353,0.029,37.0
20.121,-0.345,-0.081,2.0
52.861,-0.888,-0.502,25.0
38.75,-0.637,-0.579,9.0
20.144,-0.325,0.255,6.0
20.12,-0.317,0.145,13.0
20.143,-0.31,0.035,27.0
57.135,-0.859,-0.215,6.0
52.998,-0.777,-0.489,13.0
44.852,-0.641,-0.658,8.0
20.141,-0.282,0.26,14.0
20.133,-0.274,0.15,9.0
59.544,-0.791,0.121,56.0
56.276,-0.727,-0.198,1.0
53.143,-0.667,-0.477,5.0
44.754,-0.545,-0.646,19.0
20.159,-0.239,0.265,10.0
56.122,-0.646,0.433,1.0
56.232,-0.627,0.126,2.0
56.21,-0.606,-0.186,12.0
58.752,-0.612,-0.515,6.0
44.873,-0.451,-0.639,17.0
53.38,-0.52,0.714,10.0
53.369,-0.5,0.422,9.0
53.361,-0.481,0.129,6.0
53.339,-0.462,-0.167,8.0
20.164,-0.167,-0.173,12.0
20.151,-0.159,-0.283,27.0
20.198,-0.153,0.273,17.0
20.162,-0.146,0.162,17.0
20.156,-0.138,0.051,26.0
20.159,-0.131,-0.06,24.0
20.144,-0.124,-0.17,27.0
20.137,-0.116,-0.281,37.0
20.132,-0.109,0.274,27.0
20.123,-0.102,0.164,26.0
20.126,-0.095,0.054,36.0
20.132,-0.088,-0.058,28.0
20.149,-0.081,-0.168,39.0
20.148,-0.073,-0.279,30.0
20.116,-0.066,0.276,31.0
20.114,-0.059,0.165,32.0
20.131,-0.052,0.055,40.0
20.124,-0.045,-0.057,30.0
20.161,-0.037,-0.167,27.0
20.168,-0.03,-0.278,18.0
20.125,-0.023,0.277,27.0
20.123,-0.016,0.166,29.0
20.143,-0.009,0.056,28.0
20.259,-0.002,-0.056,150.0
20.256,0.005,-0.168,151.0
20.257,0.012,-0.279,151.0
20.144,0.019,0.277,30.0
20.141,0.027,0.166,27.0
20.167,0.034,0.056,14.0
20.21,0.041,-0.056,13.0
20.217,0.048,-0.168,23.0
20.241,0.056,-0.279,0.0
20.14,0.063,0.277,27.0
20.145,0.07,0.166,29.0
20.192,0.077,0.055,36.0
20.183,0.084,-0.057,33.0
20.182,0.092,-0.169,32.0
20.199,0.099,-0.28,27.0
20.166,0.106,0.276,29.0
20.161,0.113,0.164,27.0
20.19,0.12,0.053,28.0
20.191,0.128,-0.059,26.0
20.17,0.134,-0.17,28.0
20.17,0.141,-0.282,35.0
20.194,0.149,0.274,25.0
20.235,0.157,0.163,23.0
20.285,0.164,0.051,27.0
20.226,0.17,-0.062,16.0
20.198,0.177,-0.173,17.0
20.18,0.185,-0.285,30.0
20.284,0.194,0.272,28.0
20.3,0.201,0.16,28.0
20.323,0.208,0.048,20.0
0.0,0.0,0.0,0.0
20.208,0.221,-0.177,3.0
20.194,0.228,-0.288,24.0
20.298,0.237,0.269,22.0
20.326,0.244,0.157,1.0
99.578,1.233,0.219,5.0
0.0,0.0,0.0,0.0
0.0,0.0,0.0,0.0
0.0,0.0,0.0,0.0
0.0,0.0,0.0,0.0
0.0,0.0,0.0,0.0
99.719,1.449,0.196,5.0
0.0,0.0,0.0,0.0
0.0,0.0,0.0,0.0
0.0,0.0,0.0,0.0
0.0,0.0,0.0,0.0
99.634,1.624,0.722,2.0
99.863,1.661,0.17,8.0
0.0,0.0,0.0,0.0
0.0,0.0,0.0,0.0
0.0,0.0,0.0,0.0
103.179,1.866,1.29,13.0
99.973,1.84,0.695,3.0
100.003,1.875,0.14,2.0
0.0,0.0,0.0,0.0
0.0,0.0,0.0,0.0
0.0,0.0,0.0,0.0
103.24,2.084,1.257,8.0
100.037,2.054,0.662,2.0
100.027,2.086,0.106,20.0
0.0,0.0,0.0,0.0
0.0,0.0,0.0,0.0
0.0,0.0,0.0,0.0
0.0,0.0,0.0,0.0
102.908,2.328,0.643,1.0
100.107,2.297,0.069,36.0
0.0,0.0,0.0,0.0
0.0,0.0,0.0,0.0
0.0,0.0,0.0,0.0
0.0,0.0,0.0,0.0
102.976,2.541,0.602,3.0
100.411,2.512,0.028,1.0
0.0,0.0,0.0,0.0
0.0,0.0,0.0,0.0
0.0,0.0,0.0,0.0
194.886,5.153,2.14,20.0
102.985,2.756,0.557,2.0
103.311,2.799,-0.016,2.0
0.0,0.0,0.0,0.0
0.0,0.0,0.0,0.0
43.0,1.207,-0.731,0.0
0.0,0.0,0.0,0.0
196.115,5.651,0.968,25.0
0.0,0.0,0.0,0.0
69.126,2.036,-0.437,0.0
0.0,0.0,0.0,0.0
0.0,0.0,0.0,0.0
0.0,0.0,0.0,0.0
196.284,6.056,0.868,35.0
0.0,0.0,0.0,0.0
68.896,2.17,-0.472,0.0
0.0,0.0,0.0,0.0
0.0,0.0,0.0,0.0
0.0,0.0,0.0,0.0
196.353,6.456,0.761,25.0
0.0,0.0,0.0,0.0
68.945,2.309,-0.51,1.0
0.0,0.0,0.0,0.0
40.885,1.395,-0.76,0.0
202.784,7.014,1.803,21.0
196.509,6.862,0.647,21.0
0.0,0.0,0.0,0.0
68.974,2.451,-0.552,4.0
0.0,0.0,0.0,0.0
40.524,1.465,-0.778,0.0
196.43,7.188,1.626,20.0
0.0,0.0,0.0,0.0
0.0,0.0,0.0,0.0
69.047,2.589,-0.595,2.0
0.0,0.0,0.0,0.0
0.0,0.0,0.0,0.0
196.632,7.582,1.503,24.0
0.0,0.0,0.0,0.0
0.0,0.0,0.0,0.0
0.0,0.0,0.0,0.0
0.0,0.0,0.0,0.0
38.794,1.553,-0.795,0.0
196.692,7.969,1.37,32.0
0.0,0.0,0.0,0.0
0.0,0.0,0.0,0.0
0.0,0.0,0.0,0.0
0.0,0.0,0.0,0.0
0.0,0.0,0.0,0.0
196.694,8.348,1.232,29.0
0.0,0.0,0.0,0.0
0.0,0.0,0.0,0.0
0.0,0.0,0.0,0.0
0.0,0.0,0.0,0.0
0.0,0.0,0.0,0.0
196.866,8.732,1.088,34.0
0.0,0.0,0.0,0.0
0.0,0.0,0.0,0.0
0.0,0.0,0.0,0.0
42.615,1.94,-0.727,3.0
35.508,1.626,-0.806,0.0
197.006,9.114,0.936,33.0
0.0,0.0,0.0,0.0
0.0,0.0,0.0,0.0
0.0,0.0,0.0,0.0
42.418,2.01,-0.757,0.0
34.523,1.646,-0.811,0.0
197.149,9.485,0.779,23.0
0.0,0.0,0.0,0.0
68.847,3.35,-0.502,0.0
0.0,0.0,0.0,0.0
0.0,0.0,0.0,0.0
33.787,1.672,-0.821,0.0
197.176,9.847,0.617,12.0
0.0,0.0,0.0,0.0
68.959,3.481,-0.561,2.0
0.0,0.0,0.0,0.0
0.0,0.0,0.0,0.0
32.986,1.693,-0.83,1.0
0.0,0.0,0.0,0.0
0.0,0.0,0.0,0.0
0.0,0.0,0.0,0.0
0.0,0.0,0.0,0.0
38.306,2.024,-0.781,0.0
32.248,1.713,-0.84,0.0
0.0,0.0,0.0,0.0
0.0,0.0,0.0,0.0
0.0,0.0,0.0,0.0
0.0,0.0,0.0,0.0
37.321,2.038,-0.795,0.0
31.442,1.725,-0.848,0.0
0.0,0.0,0.0,0.0
0.0,0.0,0.0,0.0
0.0,0.0,0.0,0.0
43.059,2.416,-0.714,0.0
35.89,2.023,-0.798,0.0
30.557,1.73,-0.853,0.0
0.0,0.0,0.0,0.0
68.994,3.953,-0.423,2.0
0.0,0.0,0.0,0.0
0.0,0.0,0.0,0.0
34.295,1.991,-0.796,0.0
29.674,1.731,-0.857,0.0
0.0,0.0,0.0,0.0
69.014,4.072,-0.491,5.0
0.0,0.0,0.0,0.0
40.404,2.405,-0.749,0.0
33.183,1.983,-0.803,0.0
28.818,1.73,-0.861,0.0
0.0,0.0,0.0,0.0
0.0,0.0,0.0,0.0
0.0,0.0,0.0,0.0
38.641,2.364,-0.756,0.0
32.162,1.976,-0.811,2.0
28.269,1.744,-0.873,0.0
0.0,0.0,0.0,0.0
0.0,0.0,0.0,0.0
0.0,0.0,0.0,0.0
0.0,0.0,0.0,0.0
32.109,2.024,-0.843,0.0
27.299,1.728,-0.872,0.0
0.0,0.0,0.0,0.0
0.0,0.0,0.0,0.0
0.0,0.0,0.0,0.0
36.041,2.322,-0.78,0.0
30.258,1.956,-0.827,0.0
26.488,1.719,-0.874,0.0
68.977,4.504,-0.388,2.0
0.0,0.0,0.0,0.0
0.0,0.0,0.0,0.0
35.204,2.323,-0.801,0.0
30.057,1.991,-0.855,1.0
25.742,1.711,-0.878,0.0
68.97,4.611,-0.464,4.0
0.0,0.0,0.0,0.0
0.0,0.0,0.0,0.0
33.215,2.243,-0.793,0.0
28.956,1.962,-0.856,0.0
24.944,1.696,-0.879,0.0
0.0,0.0,0.0,0.0
0.0,0.0,0.0,0.0
0.0,0.0,0.0,0.0
32.736,2.26,-0.818,1.0
28.152,1.95,-0.864,1.0
24.077,1.673,-0.876,0.0
0.0,0.0,0.0,0.0
0.0,0.0,0.0,0.0
0.0,0.0,0.0,0.0
31.844,2.246,-0.833,0.0
27.361,1.936,-0.872,0.0
23.647,1.678,-0.888,0.0
0.0,0.0,0.0,0.0
0.0,0.0,0.0,0.0
0.0,0.0,0.0,0.0
30.204,2.173,-0.826,0.0
26.324,1.9,-0.87,0.0
21.917,1.587,-0.849,0.0
0.0,0.0,0.0,0.0
0.0,0.0,0.0,0.0
35.183,2.574,-0.8,0.0
29.948,2.197,-0.855,0.0
25.653,1.887,-0.879,0.0
21.85,1.612,-0.873,0.0
0.0,0.0,0.0,0.0
0.0,0.0,0.0,0.0
32.947,2.456,-0.79,0.0
28.611,2.138,-0.852,0.0
24.61,1.844,-0.873,0.0
21.783,1.637,-0.897,1.0
0.0,0.0,0.0,0.0
0.0,0.0,0.0,0.0
32.751,2.485,-0.826,1.0
27.713,2.108,-0.86,0.0
24.083,1.837,-0.884,0.0
21.654,1.656,-0.919,0.0
0.0,0.0,0.0,0.0
37.444,2.882,-0.777,0.0
31.797,2.453,-0.841,0.0
26.857,2.077,-0.866,0.0
23.393,1.814,-0.888,0.0
20.693,1.609,-0.904,0.0
0.0,0.0,0.0,0.0
35.319,2.763,-0.777,0.0
29.818,2.338,-0.826,0.0
25.976,2.042,-0.871,0.0
21.876,1.724,-0.859,3.0
20.102,1.588,-0.904,0.0
0.0,0.0,0.0,0.0
33.305,2.646,-0.775,0.0
29.13,2.32,-0.845,0.0
24.859,1.984,-0.866,0.0
21.816,1.745,-0.885,9.0
19.557,1.568,-0.905,0.0
0.0,0.0,0.0,0.0
32.842,2.648,-0.807,1.0
28.071,2.269,-0.851,0.0
24.341,1.972,-0.879,1.0
21.786,1.768,-0.912,2.0
19.353,1.574,-0.921,0.0
37.734,3.08,-0.762,0.0
31.679,2.591,-0.82,1.0
27.232,2.232,-0.861,0.0
23.689,1.945,-0.887,0.0
21.311,1.754,-0.92,0.0
18.625,1.536,-0.911,0.0
0.0,0.0,0.0,0.0
30.596,2.536,-0.833,0.0
26.292,2.184,-0.866,0.0
21.909,1.823,-0.849,3.0
20.321,1.694,-0.904,0.0
18.237,1.524,-0.916,0.0
0.0,0.0,0.0,0.0
29.398,2.468,-0.839,0.0
25.39,2.135,-0.87,0.0
21.837,1.84,-0.876,7.0
19.652,1.659,-0.901,0.0
17.936,1.518,-0.925,0.0
32.896,2.79,-0.795,0.0
28.239,2.4,-0.844,0.0
24.378,2.076,-0.869,1.0
21.801,1.86,-0.904,4.0
19.339,1.653,-0.913,0.0
17.301,1.481,-0.916,0.0
31.645,2.716,-0.809,1.0
27.234,2.342,-0.852,0.0
23.875,2.056,-0.883,0.0
21.291,1.837,-0.912,0.0
18.82,1.627,-0.914,0.0
16.974,1.47,-0.922,0.0
30.657,2.661,-0.825,2.0
26.389,2.294,-0.862,0.0
21.936,1.91,-0.842,3.0
0.0,0.0,0.0,0.0
0.0,0.0,0.0,0.0
16.606,1.453,-0.925,0.0
29.533,2.59,-0.836,0.0
25.389,2.23,-0.864,0.0
21.856,1.922,-0.869,7.0
19.653,1.731,-0.896,0.0
17.892,1.579,-0.919,0.0
16.273,1.439,-0.929,0.0
28.332,2.509,-0.841,0.0
24.478,2.171,-0.867,0.0
21.797,1.936,-0.897,4.0
19.357,1.722,-0.91,0.0
17.322,1.543,-0.914,0.0
15.861,1.415,-0.928,0.0
27.355,2.445,-0.85,0.0
23.851,2.134,-0.878,0.0
21.41,1.919,-0.911,0.0
18.826,1.69,-0.911,0.0
17.037,1.531,-0.922,0.0
15.499,1.395,-0.928,0.0
26.433,2.383,-0.858,0.0
21.939,1.98,-0.838,0.0
20.524,1.855,-0.902,0.0
18.383,1.664,-0.915,0.0
16.623,1.507,-0.923,0.0
15.134,1.374,-0.928,0.0
25.291,2.298,-0.856,0.0
21.848,1.988,-0.865,0.0
19.658,1.791,-0.891,0.0
17.988,1.641,-0.92,0.0
16.216,1.481,-0.923,0.0
14.896,1.362,-0.934,0.0
24.569,2.249,-0.866,0.0
21.755,1.994,-0.891,2.0
19.421,1.782,-0.907,0.0
17.351,1.594,-0.912,0.0
15.88,1.461,-0.926,0.0
14.565,1.342,-0.933,0.0
23.767,2.191,-0.871,0.0
21.171,1.954,-0.897,0.0
18.964,1.752,-0.913,0.0
17.029,1.575,-0.919,0.0
15.583,1.443,-0.931,0.0
14.312,1.327,-0.938,0.0
22.98,2.133,-0.874,0.0
20.724,1.925,-0.908,0.0
18.359,1.708,-0.91,0.0
16.588,1.544,-0.919,0.0
15.155,1.413,-0.927,0.0
14.059,1.312,-0.941,0.0
21.858,2.041,-0.862,0.0
19.635,1.835,-0.888,0.0
17.898,1.674,-0.912,0.0
16.232,1.52,-0.922,0.0
14.905,1.397,-0.933,0.0
13.769,1.292,-0.941,0.0
21.746,2.041,-0.889,1.0
19.396,1.822,-0.904,0.0
17.33,1.63,-0.907,0.0
15.914,1.498,-0.926,0.0
14.611,1.377,-0.935,0.0
13.463,1.27,-0.939,0.0
21.243,2.004,-0.898,0.0
19.048,1.798,-0.914,0.0
17.127,1.619,-0.921,0.0
15.54,1.47,-0.927,0.0
14.352,1.359,-0.939,0.0
13.306,1.261,-0.947,0.0
20.496,1.942,-0.895,0.0
18.142,1.72,-0.896,0.0
16.653,1.581,-0.919,0.0
15.14,1.438,-0.924,0.0
14.022,1.333,-0.936,0.0
12.977,1.235,-0.941,0.0
19.75,1.879,-0.889,0.0
17.792,1.694,-0.904,1.0
16.281,1.551,-0.92,0.0
14.863,1.417,-0.927,0.0
13.873,1.324,-0.946,0.0
12.742,1.217,-0.942,0.0
19.441,1.856,-0.902,0.0
17.686,1.689,-0.922,0.0
15.922,1.522,-0.922,0.0
14.602,1.397,-0.931,0.0
13.484,1.291,-0.938,0.0
12.528,1.2,-0.944,0.0
19.019,1.821,-0.909,0.0
17.173,1.645,-0.919,0.0
15.617,1.497,-0.926,0.0
14.345,1.376,-0.935,0.0
13.301,1.277,-0.943,0.0
12.292,1.181,-0.943,0.0
18.163,1.744,-0.892,0.0
16.72,1.606,-0.918,0.0
15.223,1.463,-0.923,0.0
14.206,1.366,-0.945,0.0
13.064,1.257,-0.944,0.0
12.006,1.156,-0.937,0.0
17.894,1.721,-0.903,1.0
16.262,1.565,-0.915,0.0
14.938,1.438,-0.926,0.0
0.0,0.0,0.0,0.0
12.785,1.233,-0.942,0.0
11.838,1.142,-0.94,0.0
17.736,1.709,-0.92,1.0
15.962,1.539,-0.92,0.0
14.715,1.419,-0.933,0.0
13.401,1.293,-0.928,0.0
12.551,1.212,-0.942,0.0
11.639,1.124,-0.94,0.0
17.226,1.662,-0.916,0.0
15.702,1.515,-0.926,0.0
14.42,1.392,-0.933,0.0
13.339,1.288,-0.941,0.0
12.331,1.192,-0.941,0.0
11.455,1.108,-0.941,0.0
16.794,1.621,-0.916,0.0
15.356,1.483,-0.926,0.0
14.204,1.372,-0.938,0.0
13.069,1.263,-0.94,0.0
12.087,1.168,-0.939,0.0
11.296,1.093,-0.943,0.0
16.405,1.584,-0.916,0.0
15.0,1.449,-0.924,0.0
0.0,0.0,0.0,0.0
12.857,1.243,-0.941,0.0
11.865,1.147,-0.937,0.0
11.134,1.077,-0.944,0.0
16.083,1.553,-0.919,0.0
14.754,1.424,-0.928,0.0
13.538,1.307,-0.929,0.0
12.587,1.216,-0.938,0.0
11.731,1.134,-0.942,0.0
10.977,1.061,-0.945,0.0
15.737,1.518,-0.919,0.0
14.492,1.398,-0.93,0.0
13.395,1.293,-0.937,0.0
12.395,1.196,-0.94,0.0
11.54,1.114,-0.941,0.0
10.827,1.046,-0.946,0.0
15.488,1.492,-0.924,0.0
14.314,1.379,-0.937,0.0
13.236,1.276,-0.942,0.0
12.208,1.177,-0.941,0.0
11.376,1.097,-0.942,0.0
10.622,1.024,-0.941,0.0
15.065,1.449,-0.918,0.0
14.269,1.373,-0.951,0.0
12.954,1.246,-0.938,0.0
11.924,1.148,-0.934,0.0
11.218,1.08,-0.943,0.0
10.544,1.015,-0.948,0.0
14.866,1.427,-0.924,0.0
13.796,1.325,-0.937,0.0
12.715,1.221,-0.937,0.0
11.825,1.135,-0.941,0.0
11.086,1.065,-0.946,0.0
10.423,1.001,-0.95,0.0
14.646,1.403,-0.928,0.0
13.513,1.294,-0.934,0.0
12.51,1.198,-0.937,0.0
11.651,1.116,-0.941,0.0
10.907,1.045,-0.944,0.0
10.202,0.977,-0.942,0.0
14.436,1.379,-0.932,0.0
13.401,1.28,-0.942,0.0
12.343,1.179,-0.939,0.0
11.481,1.096,-0.941,0.0
10.772,1.029,-0.945,0.0
10.095,0.964,-0.944,0.0
14.216,1.353,-0.935,0.0
13.106,1.247,-0.937,0.0
12.117,1.153,-0.936,0.0
11.315,1.077,-0.94,0.0
10.644,1.013,-0.946,0.0
10.018,0.953,-0.948,0.0
13.952,1.323,-0.933,0.0
12.898,1.223,-0.937,0.0
11.924,1.13,-0.935,0.0
11.177,1.059,-0.942,0.0
10.533,0.998,-0.948,0.0
9.871,0.935,-0.946,0.0
13.588,1.283,-0.924,0.0
12.718,1.201,-0.938,0.0
11.81,1.115,-0.939,0.0
11.011,1.039,-0.94,0.0
10.369,0.978,-0.945,0.0
9.761,0.921,-0.946,0.0
13.49,1.268,-0.932,0.0
12.528,1.177,-0.938,0.0
11.624,1.092,-0.937,0.0
10.979,1.031,-0.949,0.0
10.232,0.961,-0.944,0.0
9.657,0.907,-0.946,0.0
13.373,1.251,-0.939,0.0
12.355,1.155,-0.938,0.0
11.513,1.076,-0.94,0.0
10.718,1.001,-0.938,0.0
10.108,0.944,-0.943,0.0
9.527,0.89,-0.944,0.0
13.156,1.224,-0.937,0.0
12.152,1.13,-0.935,0.0
11.364,1.056,-0.94,0.0
10.668,0.991,-0.945,0.0
10.025,0.931,-0.946,0.0
9.426,0.875,-0.944,0.0
12.978,1.2,-0.938,0.0
11.944,1.104,-0.931,0.0
11.271,1.041,-0.944,0.0
0.0,0.0,0.0,0.0
9.902,0.914,-0.944,0.0
9.328,0.861,-0.943,0.0
12.761,1.173,-0.935,0.0
11.851,1.088,-0.936,0.0
11.116,1.02,-0.942,0.0
0.0,0.0,0.0,0.0
9.787,0.897,-0.943,0.0
9.244,0.847,-0.944,0.0
12.651,1.155,-0.939,0.0
11.757,1.072,-0.94,0.0
10.994,1.002,-0.942,0.0
0.0,0.0,0.0,0.0
9.689,0.882,-0.943,0.0
9.144,0.832,-0.943,0.0
12.448,1.128,-0.936,0.0
11.595,1.05,-0.938,0.0
11.048,1.0,-0.957,0.0
10.208,0.923,-0.944,0.0
9.623,0.87,-0.945,0.0
9.059,0.818,-0.942,0.0
12.293,1.105,-0.935,0.0
11.477,1.031,-0.939,0.0
10.868,0.976,-0.951,0.0
10.125,0.908,-0.945,0.0
9.539,0.855,-0.946,0.0
8.996,0.806,-0.944,0.0
12.19,1.087,-0.938,0.0
11.344,1.011,-0.938,0.0
10.56,0.94,-0.933,0.0
9.966,0.887,-0.939,0.0
9.413,0.837,-0.941,0.0
8.881,0.789,-0.939,0.0
12.048,1.065,-0.937,0.0
11.281,0.997,-0.942,0.0
10.649,0.94,-0.95,0.0
9.924,0.875,-0.943,0.0
9.347,0.824,-0.942,0.0
8.806,0.775,-0.938,0.0
11.906,1.043,-0.935,0.0
11.164,0.977,-0.941,0.0
0.0,0.0,0.0,0.0
9.855,0.861,-0.945,0.0
9.301,0.812,-0.945,0.0
8.74,0.762,-0.938,0.0
11.779,1.022,-0.935,0.0
11.092,0.962,-0.943,0.0
10.387,0.9,-0.943,0.0
9.764,0.845,-0.943,0.0
9.222,0.797,-0.944,0.0
8.699,0.752,-0.94,0.0
11.72,1.007,-0.938,0.0
11.003,0.945,-0.944,0.0
10.269,0.881,-0.94,0.0
9.659,0.828,-0.94,0.0
9.127,0.781,-0.941,0.0
8.682,0.742,-0.945,0.0
11.57,0.984,-0.935,0.0
0.0,0.0,0.0,0.0
10.223,0.868,-0.943,0.0
9.594,0.813,-0.941,0.0
9.07,0.768,-0.941,0.0
8.622,0.729,-0.944,0.0
11.512,0.969,-0.938,0.0
10.89,0.915,-0.949,0.0
10.118,0.849,-0.94,0.0
9.524,0.798,-0.94,0.0
9.003,0.754,-0.94,0.0
8.574,0.717,-0.945,0.0
11.459,0.953,-0.941,0.0
10.767,0.894,-0.945,0.0
10.072,0.836,-0.942,0.0
9.466,0.784,-0.94,0.0
8.936,0.74,-0.939,0.0
8.53,0.705,-0.945,0.0
11.397,0.937,-0.942,0.0
10.538,0.865,-0.931,0.0
10.01,0.821,-0.942,0.0
9.422,0.771,-0.941,0.0
8.869,0.725,-0.937,0.0
8.477,0.692,-0.944,0.0
11.309,0.918,-0.941,0.0
10.516,0.853,-0.935,0.0
9.948,0.806,-0.941,0.0
9.382,0.758,-0.942,0.0
8.856,0.715,-0.94,0.0
8.443,0.681,-0.945,0.0
11.27,0.904,-0.944,0.0
10.473,0.838,-0.937,0.0
9.932,0.794,-0.945,0.0
9.323,0.744,-0.941,0.0
8.821,0.703,-0.941,0.0
8.401,0.668,-0.944,0.0
11.161,0.883,-0.94,0.0
10.455,0.826,-0.94,0.0
9.853,0.777,-0.942,0.0
9.262,0.729,-0.94,0.0
8.834,0.694,-0.946,0.0
8.349,0.655,-0.942,0.0
11.112,0.867,-0.941,0.0
10.412,0.811,-0.941,0.0
9.785,0.761,-0.94,0.0
9.261,0.719,-0.943,0.0
8.771,0.68,-0.943,0.0
8.333,0.645,-0.944,0.0
11.083,0.852,-0.943,0.0
10.376,0.797,-0.942,0.0
9.752,0.747,-0.941,0.0
9.233,0.706,-0.944,0.0
8.736,0.667,-0.943,0.0
8.297,0.633,-0.943,0.0
11.017,0.835,-0.942,0.0
10.34,0.782,-0.942,0.0
9.726,0.734,-0.942,0.0
9.233,0.696,-0.947,0.0
8.697,0.654,-0.942,0.0
8.28,0.622,-0.944,0.0
11.007,0.822,-0.944,0.0
10.317,0.769,-0.943,0.0
9.706,0.722,-0.943,0.0
9.167,0.68,-0.943,0.0
8.687,0.643,-0.943,0.0
8.252,0.61,-0.943,0.0
10.932,0.803,-0.941,0.0
10.243,0.751,-0.94,0.0
9.699,0.71,-0.945,0.0
9.16,0.669,-0.945,0.0
8.649,0.63,-0.941,0.0
8.224,0.598,-0.942,0.0
10.949,0.791,-0.945,0.0
10.237,0.738,-0.941,0.0
9.675,0.696,-0.944,0.0
9.156,0.658,-0.947,0.0
8.672,0.622,-0.946,0.0
8.217,0.588,-0.943,0.0
10.942,0.778,-0.947,0.0
10.223,0.725,-0.942,0.0
9.639,0.682,-0.943,0.0
9.105,0.643,-0.943,0.0
8.631,0.608,-0.943,0.0
8.211,0.577,-0.944,0.0
10.836,0.757,-0.939,0.0
10.233,0.713,-0.945,0.0
9.638,0.67,-0.944,0.0
9.094,0.631,-0.943,0.0
8.611,0.596,-0.942,0.0
8.207,0.567,-0.944,0.0
10.87,0.746,-0.943,0.0
10.225,0.7,-0.945,0.0
9.643,0.658,-0.945,0.0
9.102,0.62,-0.945,0.0
8.632,0.587,-0.945,0.0
8.188,0.555,-0.943,0.0
10.782,0.726,-0.936,0.0
10.228,0.687,-0.946,0.0
9.613,0.644,-0.943,0.0
9.072,0.606,-0.942,0.0
8.593,0.573,-0.941,0.0
8.2,0.545,-0.944,0.0
10.859,0.718,-0.943,0.0
10.216,0.673,-0.945,0.0
9.636,0.633,-0.945,0.0
9.096,0.596,-0.945,0.0
8.598,0.562,-0.941,0.0
8.204,0.535,-0.945,0.0
10.863,0.704,-0.944,0.0
10.224,0.661,-0.945,0.0
9.624,0.62,-0.944,0.0
9.06,0.582,-0.94,0.0
8.647,0.554,-0.946,0.0
8.212,0.525,-0.945,0.0
10.925,0.694,-0.948,0.0
10.241,0.648,-0.946,0.0
9.633,0.608,-0.944,0.0
9.119,0.574,-0.946,0.0
8.622,0.541,-0.943,0.0
8.199,0.513,-0.943,0.0
10.889,0.677,-0.944,0.0
10.24,0.635,-0.945,0.0
9.665,0.597,-0.946,0.0
9.147,0.564,-0.948,0.0
8.649,0.531,-0.945,0.0
8.216,0.503,-0.944,0.0
10.923,0.665,-0.945,0.0
10.224,0.62,-0.942,0.0
9.631,0.582,-0.941,0.0
9.101,0.549,-0.941,0.0
8.67,0.521,-0.945,0.0
8.244,0.494,-0.945,0.0
10.866,0.647,-0.938,0.0
10.27,0.609,-0.944,0.0
9.686,0.573,-0.945,0.0
9.165,0.54,-0.946,0.0
8.679,0.51,-0.944,0.0
8.252,0.484,-0.944,0.0
10.993,0.64,-0.947,0.0
10.334,0.599,-0.947,0.0
9.72,0.562,-0.945,0.0
9.19,0.53,-0.946,0.0
8.692,0.499,-0.943,0.0
8.273,0.474,-0.944,0.0
11.023,0.627,-0.946,0.0
10.332,0.585,-0.944,0.0
9.772,0.552,-0.947,0.0
9.2,0.518,-0.944,0.0
8.715,0.489,-0.943,0.0
8.307,0.464,-0.945,0.0
11.079,0.615,-0.947,0.0
10.382,0.574,-0.945,0.0
9.799,0.54,-0.947,0.0
9.227,0.507,-0.944,0.0
8.735,0.478,-0.942,0.0
8.332,0.454,-0.945,0.0
11.116,0.602,-0.946,0.0
10.409,0.562,-0.944,0.0
9.825,0.528,-0.945,0.0
9.259,0.496,-0.943,0.0
8.789,0.469,-0.945,0.0
8.357,0.444,-0.945,0.0
11.177,0.59,-0.947,0.0
10.448,0.55,-0.943,0.0
9.874,0.517,-0.946,0.0
9.317,0.486,-0.945,0.0
8.781,0.457,-0.94,0.0
8.393,0.435,-0.945,0.0
11.21,0.577,-0.945,0.0
10.497,0.538,-0.943,0.0
9.926,0.507,-0.946,0.0
9.401,0.478,-0.949,0.0
8.861,0.449,-0.944,0.0
8.442,0.426,-0.946,0.0
11.275,0.565,-0.944,0.0
10.622,0.53,-0.948,0.0
9.965,0.495,-0.945,0.0
9.399,0.465,-0.944,0.0
8.886,0.438,-0.942,0.0
8.447,0.414,-0.942,0.0
11.355,0.553,-0.945,0.0
10.649,0.517,-0.945,0.0
10.023,0.484,-0.944,0.0
9.491,0.457,-0.948,0.0
8.959,0.429,-0.944,0.0
8.528,0.407,-0.946,0.0
11.43,0.541,-0.944,0.0
10.647,0.502,-0.938,0.0
10.121,0.475,-0.948,0.0
9.515,0.445,-0.944,0.0
9.023,0.42,-0.945,0.0
8.56,0.397,-0.944,0.0
11.498,0.529,-0.943,0.0
10.821,0.496,-0.946,0.0
10.176,0.464,-0.946,0.0
9.584,0.435,-0.945,0.0
9.09,0.411,-0.946,0.0
8.645,0.389,-0.948,0.0
11.589,0.518,-0.942,0.0
10.894,0.484,-0.945,0.0
10.276,0.455,-0.948,0.0
9.695,0.427,-0.949,0.0
9.166,0.402,-0.948,0.0
8.664,0.378,-0.944,0.0
11.705,0.507,-0.943,0.0
10.984,0.474,-0.945,0.0
10.328,0.443,-0.945,0.0
9.741,0.416,-0.946,0.0
9.254,0.393,-0.95,0.0
8.735,0.369,-0.945,0.0
11.804,0.495,-0.942,0.0
11.08,0.463,-0.945,0.0
10.439,0.434,-0.947,0.0
9.813,0.405,-0.945,0.0
9.294,0.382,-0.946,0.0
8.807,0.36,-0.945,0.0
11.919,0.484,-0.942,0.0
11.216,0.453,-0.947,0.0
10.483,0.421,-0.943,0.0
9.927,0.397,-0.948,0.0
9.424,0.375,-0.952,0.0
8.899,0.352,-0.948,0.0
12.068,0.474,-0.943,0.0
11.322,0.442,-0.946,0.0
10.633,0.413,-0.947,0.0
10.002,0.386,-0.946,0.0
9.53,0.366,-0.954,0.0
8.979,0.343,-0.948,0.0
12.225,0.464,-0.944,0.0
11.421,0.431,-0.944,0.0
10.69,0.401,-0.942,0.0
10.106,0.377,-0.947,0.0
9.566,0.355,-0.949,0.0
9.069,0.334,-0.949,0.0
12.344,0.452,-0.942,0.0
11.576,0.422,-0.946,0.0
10.78,0.39,-0.94,0.0
10.196,0.367,-0.946,0.0
9.657,0.345,-0.948,0.0
9.121,0.324,-0.945,0.0
12.565,0.444,-0.947,0.0
11.651,0.409,-0.941,0.0
11.024,0.384,-0.95,0.0
10.325,0.358,-0.947,0.0
9.783,0.337,-0.951,0.0
9.222,0.316,-0.946,0.0
12.735,0.433,-0.946,0.0
11.814,0.399,-0.942,0.0
11.138,0.374,-0.948,0.0
10.458,0.349,-0.948,0.0
9.871,0.327,-0.949,0.0
9.321,0.307,-0.947,0.0
12.921,0.423,-0.947,0.0
12.016,0.391,-0.945,0.0
11.258,0.363,-0.946,0.0
10.513,0.337,-0.942,0.0
9.984,0.318,-0.949,0.0
9.458,0.299,-0.95,0.0
13.111,0.412,-0.946,0.0
12.193,0.381,-0.946,0.0
11.41,0.354,-0.946,0.0
10.673,0.329,-0.944,0.0
10.13,0.31,-0.951,0.0
9.573,0.291,-0.951,0.0
13.328,0.402,-0.947,0.0
12.383,0.371,-0.946,0.0
11.546,0.344,-0.944,0.0
10.837,0.32,-0.946,0.0
10.299,0.302,-0.955,0.0
9.683,0.282,-0.95,0.0
13.462,0.39,-0.94,0.0
12.629,0.363,-0.95,0.0
11.701,0.334,-0.943,0.0
11.064,0.313,-0.952,0.0
10.385,0.292,-0.95,0.0
9.814,0.274,-0.951,0.0
13.697,0.38,-0.94,0.0
12.799,0.352,-0.947,0.0
11.933,0.326,-0.947,0.0
11.18,0.303,-0.949,0.0
10.552,0.284,-0.952,0.0
9.936,0.265,-0.95,0.0
0.0,0.0,0.0,0.0
13.048,0.343,-0.949,0.0
12.151,0.317,-0.949,0.0
11.34,0.293,-0.947,0.0
10.649,0.273,-0.947,0.0
10.074,0.256,-0.95,0.0
14.352,0.363,-0.948,0.0
13.249,0.332,-0.946,0.0
12.361,0.307,-0.949,0.0
11.492,0.283,-0.945,0.0
10.821,0.265,-0.948,0.0
10.226,0.248,-0.951,0.0
14.592,0.352,-0.944,0.0
13.497,0.323,-0.946,0.0
12.574,0.298,-0.948,0.0
11.691,0.275,-0.945,0.0
11.043,0.257,-0.952,0.0
10.354,0.239,-0.948,0.0
14.844,0.341,-0.94,0.0
13.764,0.313,-0.945,0.0
12.848,0.29,-0.951,0.0
11.958,0.267,-0.95,0.0
11.236,0.249,-0.953,0.0
10.531,0.231,-0.949,0.0
15.166,0.331,-0.939,0.0
14.072,0.304,-0.947,0.0
13.1,0.28,-0.951,0.0
12.213,0.259,-0.953,0.0
11.399,0.239,-0.95,0.0
10.72,0.223,-0.951,0.0
15.488,0.32,-0.937,0.0
14.474,0.297,-0.953,0.0
13.376,0.271,-0.951,0.0
12.421,0.25,-0.951,0.0
11.605,0.231,-0.95,0.0
10.876,0.214,-0.949,0.0
15.949,0.312,-0.941,0.0
14.694,0.285,-0.945,0.0
13.579,0.261,-0.946,0.0
12.653,0.24,-0.95,0.0
11.828,0.222,-0.951,0.0
11.168,0.208,-0.957,0.0
16.304,0.302,-0.938,0.0
15.016,0.275,-0.943,0.0
0.0,0.0,0.0,0.0
12.971,0.233,-0.954,0.0
12.084,0.214,-0.953,0.0
11.289,0.198,-0.95,0.0
16.664,0.291,-0.933,0.0
15.375,0.265,-0.942,0.0
14.312,0.244,-0.952,0.0
13.242,0.224,-0.953,0.0
12.375,0.207,-0.956,0.0
11.466,0.189,-0.947,0.0
17.065,0.28,-0.928,0.0
15.811,0.257,-0.943,0.0
14.616,0.235,-0.949,0.0
13.428,0.213,-0.945,0.0
12.608,0.198,-0.954,0.0
11.768,0.183,-0.953,0.0
17.634,0.272,-0.931,0.0
16.252,0.248,-0.944,0.0
14.943,0.225,-0.946,0.0
13.801,0.205,-0.948,0.0
12.863,0.189,-0.952,0.0
11.98,0.174,-0.95,0.0
18.381,0.266,-0.94,0.0
16.601,0.237,-0.937,0.0
15.305,0.216,-0.944,0.0
14.232,0.198,-0.954,0.0
13.195,0.181,-0.955,0.0
12.303,0.167,-0.955,0.0
18.516,0.25,-0.916,23.0
17.026,0.227,-0.932,0.0
15.73,0.207,-0.944,0.0
14.517,0.188,-0.949,0.0
13.458,0.172,-0.951,0.0
12.572,0.159,-0.954,0.0
18.551,0.233,-0.886,6.0
17.693,0.22,-0.938,2.0
16.232,0.199,-0.946,0.0
14.9,0.18,-0.948,0.0
20.196,0.241,-1.392,0.0
12.9,0.151,-0.957,0.0
18.558,0.217,-0.854,10.0
18.34,0.211,-0.941,3.0
16.589,0.188,-0.938,0.0
15.317,0.171,-0.948,0.0
20.169,0.222,-1.354,0.0
13.19,0.143,-0.955,0.0
18.568,0.2,-0.822,150.0
18.505,0.197,-0.916,42.0
18.419,0.193,-1.009,3.0
15.727,0.162,-0.945,0.0
14.582,0.148,-0.953,0.0
20.158,0.202,-1.424,0.0
18.516,0.184,-0.787,159.0
18.55,0.182,-0.885,58.0
18.296,0.177,-0.969,4.0
16.259,0.154,-0.948,0.0
14.934,0.14,-0.949,0.0
18.579,0.171,-1.278,0.0
18.514,0.17,-0.754,175.0
18.554,0.167,-0.852,68.0
18.473,0.164,-0.945,4.0
18.488,0.161,-1.044,0.0
15.355,0.131,-0.948,0.0
18.542,0.156,-1.241,0.0
18.548,0.155,-0.721,155.0
18.545,0.152,-0.817,153.0
18.52,0.15,-0.913,48.0
18.423,0.146,-1.006,5.0
15.871,0.124,-0.95,0.0
14.633,0.112,-0.952,0.0
21.649,0.165,-0.801,152.0
18.511,0.138,-0.781,157.0
18.546,0.136,-0.879,35.0
18.452,0.133,-0.973,1.0
16.324,0.115,-0.946,0.0
15.039,0.104,-0.95,0.0
21.583,0.149,-0.758,182.0
21.583,0.146,-0.87,47.0
18.535,0.123,-0.843,12.0
18.467,0.12,-0.939,13.0
16.81,0.107,-0.942,0.0
15.508,0.096,-0.95,0.0
21.63,0.134,-0.717,160.0
21.665,0.132,-0.832,150.0
21.576,0.128,-0.94,46.0
18.514,0.108,-0.905,12.0
17.883,0.102,-0.967,0.0
16.027,0.089,-0.95,1.0
21.685,0.12,-0.678,27.0
21.634,0.117,-0.788,156.0
21.627,0.115,-0.901,150.0
0.0,0.0,0.0,0.0
18.354,0.093,-0.957,0.0
16.478,0.081,-0.945,0.0
21.706,0.107,-0.637,0.0
21.679,0.104,-0.748,152.0
21.663,0.102,-0.86,41.0
20.248,0.093,-0.911,16.0
18.519,0.083,-0.929,4.0
16.983,0.074,-0.94,0.0
31.76,0.138,-0.869,1.0
21.65,0.092,-0.704,1.0
21.659,0.089,-0.817,7.0
21.607,0.086,-0.929,96.0
0.0,0.0,0.0,0.0
17.637,0.067,-0.941,0.0
33.257,0.126,-0.843,4.0
0.0,0.0,0.0,0.0
21.65,0.077,-0.772,1.0
21.576,0.075,-0.884,8.0
20.23,0.068,-0.934,8.0
18.418,0.06,-0.945,0.0
20.232,0.066,-0.471,0.0
31.113,0.098,-0.886,0.0
20.222,0.062,-0.68,0.0
20.225,0.06,-0.788,2.0
20.246,0.058,-0.893,19.0
0.0,0.0,0.0,0.0
20.246,0.056,-0.431,1.0
33.24,0.089,-0.879,7.0
20.231,0.052,-0.639,11.0
20.219,0.05,-0.746,13.0
20.265,0.049,-0.852,56.0
20.167,0.047,-0.953,2.0
20.263,0.047,-0.39,33.0
20.249,0.045,-0.494,47.0
20.255,0.043,-0.599,64.0
20.259,0.042,-0.706,69.0
20.266,0.04,-0.811,150.0
20.21,0.038,-0.913,7.0
20.27,0.038,-0.348,150.0
20.268,0.037,-0.453,150.0
20.269,0.035,-0.558,150.0
20.265,0.034,-0.664,150.0
20.256,0.032,-0.768,150.0
20.261,0.031,-0.874,47.0
20.263,0.031,-0.307,151.0
20.252,0.029,-0.411,151.0
20.258,0.028,-0.516,151.0
20.26,0.026,-0.622,150.0
20.265,0.025,-0.727,150.0
20.261,0.024,-0.832,75.0
20.267,0.024,-0.265,151.0
20.274,0.022,-0.369,151.0
20.252,0.021,-0.473,151.0
20.255,0.02,-0.58,77.0
20.265,0.019,-0.685,58.0
20.254,0.017,-0.789,33.0
20.265,0.017,-0.222,151.0
20.27,0.016,-0.327,150.0
20.27,0.015,-0.431,66.0
20.257,0.014,-0.537,33.0
20.232,0.013,-0.641,14.0
20.223,0.012,-0.745,7.0
20.266,0.012,-0.18,150.0
20.274,0.011,-0.284,68.0
20.241,0.01,-0.388,16.0
20.223,0.009,-0.494,7.0
20.247,0.008,-0.599,5.0
20.242,0.007,-0.703,2.0
20.26,0.007,-0.137,32.0
20.226,0.006,-0.24,12.0
20.241,0.005,-0.345,5.0
20.252,0.004,-0.451,3.0
20.24,0.004,-0.556,2.0
20.23,0.003,-0.659,1.0
20.214,0.003,-0.093,26.0
20.224,0.002,-0.197,9.0
20.242,0.002,-0.302,5.0
20.227,0.001,-0.408,2.0
20.241,0.0,-0.512,1.0
20.237,0.0,-0.616,0.0
20.221,0.0,-0.05,19.0
20.199,0.0,-0.154,16.0
20.217,0.0,-0.258,7.0
20.24,-0.001,-0.365,1.0
20.239,-0.002,-0.469,0.0
32.187,-0.004,-0.912,2.0
20.19,-0.002,-0.007,15.0
20.184,-0.002,-0.111,17.0
20.215,-0.003,-0.215,2.0
20.191,-0.003,-0.32,0.0
20.214,-0.003,-0.425,0.0
32.364,-0.006,-0.847,1.0
20.139,-0.003,0.035,19.0
20.202,-0.004,-0.067,16.0
20.177,-0.004,-0.171,12.0
20.189,-0.004,-0.277,6.0
41.603,-0.01,-0.785,2.0
20.212,-0.005,-0.485,0.0
20.141,-0.004,0.079,35.0
20.149,-0.005,-0.024,13.0
20.167,-0.005,-0.127,17.0
20.196,-0.005,-0.233,2.0
20.227,-0.005,-0.338,0.0
37.377,-0.01,-0.816,0.0
20.131,-0.005,0.122,32.0
20.144,-0.005,0.019,16.0
20.184,-0.005,-0.084,15.0
20.167,-0.005,-0.19,9.0
20.195,-0.005,-0.294,3.0
41.601,-0.01,-0.819,2.0
20.122,-0.004,0.166,29.0
20.13,-0.004,0.063,30.0
20.169,-0.004,-0.04,12.0
20.158,-0.004,-0.146,15.0
20.198,-0.004,-0.25,5.0
20.248,-0.003,-0.354,0.0
20.122,-0.003,0.209,28.0
20.128,-0.003,0.106,32.0
20.178,-0.002,0.002,12.0
20.183,-0.002,-0.103,15.0
20.215,-0.002,-0.207,5.0
20.231,-0.001,-0.311,1.0
20.137,-0.001,0.252,26.0
20.122,0.0,0.148,27.0
20.16,0.0,0.045,24.0
20.207,0.0,-0.06,19.0
20.202,0.0,-0.164,15.0
20.225,0.0,-0.268,8.0
20.127,0.001,0.295,29.0
20.119,0.001,0.192,28.0
20.141,0.002,0.088,29.0
20.245,0.003,-0.016,22.0
20.221,0.003,-0.12,19.0
20.233,0.004,-0.224,9.0
20.132,0.005,0.339,28.0
20.131,0.005,0.235,25.0
20.121,0.006,0.132,27.0
20.251,0.007,0.026,40.0
20.265,0.008,-0.077,150.0
20.262,0.008,-0.181,58.0
20.131,0.009,0.382,27.0
20.124,0.01,0.278,28.0
20.13,0.011,0.175,27.0
20.145,0.011,0.069,32.0
20.227,0.012,-0.033,153.0
20.269,0.013,-0.138,150.0
20.137,0.014,0.425,28.0
20.128,0.015,0.321,26.0
20.119,0.016,0.218,26.0
20.126,0.017,0.112,28.0
20.265,0.018,0.008,151.0
20.259,0.019,-0.095,151.0
20.14,0.02,0.468,29.0
20.128,0.021,0.364,26.0
20.12,0.022,0.26,26.0
20.139,0.023,0.155,26.0
20.187,0.024,0.051,36.0
20.246,0.026,-0.052,151.0
20.154,0.026,0.511,24.0
20.143,0.028,0.407,29.0
20.128,0.029,0.303,27.0
20.125,0.03,0.197,27.0
20.127,0.031,0.094,28.0
20.261,0.033,-0.009,150.0
20.171,0.034,0.554,27.0
20.148,0.035,0.449,28.0
20.13,0.036,0.345,26.0
20.128,0.038,0.24,27.0
20.138,0.039,0.136,26.0
20.263,0.041,0.033,10.0
20.19,0.042,0.597,36.0
20.158,0.043,0.492,23.0
20.146,0.045,0.388,28.0
20.128,0.046,0.282,29.0
20.135,0.048,0.178,27.0
20.146,0.05,0.075,24.0
20.208,0.051,0.641,38.0
20.167,0.052,0.535,27.0
20.141,0.054,0.43,28.0
20.141,0.056,0.324,28.0
20.14,0.057,0.22,28.0
20.144,0.059,0.117,28.0
20.172,0.06,0.681,27.0
20.185,0.062,0.578,31.0
20.151,0.064,0.473,26.0
20.145,0.065,0.366,26.0
20.142,0.067,0.262,25.0
20.143,0.069,0.158,30.0
20.131,0.07,0.722,33.0
20.215,0.072,0.62,24.0
20.17,0.074,0.515,23.0
20.139,0.076,0.407,29.0
20.148,0.078,0.304,25.0
20.148,0.08,0.199,26.0
20.145,0.081,0.763,26.0
20.209,0.083,0.661,12.0
20.177,0.085,0.556,26.0
20.146,0.087,0.449,28.0
20.143,0.09,0.345,27.0
20.154,0.092,0.241,26.0
20.147,0.093,0.805,22.0
20.142,0.095,0.7,8.0
20.204,0.097,0.598,20.0
20.162,0.099,0.49,22.0
20.152,0.102,0.386,27.0
20.156,0.104,0.282,29.0
20.134,0.105,0.845,17.0
20.149,0.107,0.742,13.0
20.237,0.11,0.64,4.0
20.178,0.112,0.531,24.0
20.155,0.115,0.427,26.0
20.154,0.117,0.322,28.0
20.137,0.118,0.886,1.0
20.168,0.121,0.783,4.0
102.55,0.629,3.45,55.0
20.184,0.126,0.572,15.0
20.158,0.128,0.467,22.0
20.158,0.131,0.362,25.0
101.75,0.668,4.681,21.0
101.935,0.682,4.16,36.0
111.718,0.762,3.98,21.0
20.213,0.14,0.613,8.0
20.182,0.143,0.507,20.0
20.163,0.145,0.402,25.0
65.853,0.48,3.16,34.0
110.056,0.816,4.709,7.0
111.742,0.844,4.201,13.0
117.666,0.905,3.801,23.0
20.19,0.158,0.547,15.0
20.184,0.16,0.442,22.0
65.865,0.529,3.291,35.0
102.048,0.834,4.566,31.0
0.0,0.0,0.0,0.0
126.297,1.068,4.326,31.0
20.272,0.174,0.589,15.0
20.249,0.177,0.483,26.0
65.939,0.581,3.422,40.0
102.126,0.916,4.769,22.0
111.548,1.017,4.629,22.0
150.358,1.392,5.439,14.0
20.279,0.19,0.628,2.0
20.264,0.193,0.522,30.0
66.388,0.639,3.572,45.0
102.08,0.999,4.961,27.0
111.665,1.109,4.844,24.0
126.68,1.278,4.822,29.0
132.73,1.359,4.36,19.0
20.262,0.21,0.56,18.0
67.102,0.702,3.737,36.0
66.024,0.702,3.332,6.0
111.6,1.203,5.05,26.0
126.643,1.386,5.058,27.0
103.782,1.152,3.602,21.0
20.281,0.228,0.598,8.0
67.251,0.763,3.872,12.0
66.062,0.76,3.458,17.0
111.55,1.303,5.256,16.0
126.502,1.497,5.286,13.0
103.973,1.247,3.802,22.0
140.211,1.706,4.394,14.0
67.481,0.827,4.01,2.0
66.085,0.821,3.58,28.0
111.578,1.405,5.461,9.0
110.282,1.407,4.809,17.0
103.986,1.343,3.99,18.0
118.282,1.549,3.922,14.0
67.556,0.891,4.137,16.0
66.827,0.893,3.742,44.0
69.329,0.938,3.518,8.0
110.362,1.512,5.01,18.0
103.917,1.442,4.174,27.0
118.452,1.665,4.139,18.0
101.94,1.443,6.425,11.0
67.379,0.965,3.892,3.0
101.886,1.477,5.351,6.0
69.343,1.018,3.271,6.0
103.925,1.544,4.357,17.0
118.546,1.782,4.348,31.0
67.582,1.023,4.378,11.0
67.519,1.034,4.018,15.0
66.21,1.026,3.592,7.0
110.457,1.732,5.401,10.0
103.596,1.643,4.521,37.0
118.491,1.9,4.549,8.0
67.687,1.093,4.501,15.0
67.556,1.103,4.136,27.0
66.284,1.095,3.71,5.0
103.855,1.735,5.255,8.0
103.585,1.75,4.698,28.0
118.66,2.027,4.758,12.0
67.64,1.164,4.614,27.0
67.578,1.175,4.254,5.0
66.234,1.165,3.82,20.0
69.769,1.24,3.649,3.0
103.745,1.864,4.88,17.0
125.388,2.277,5.239,9.0
67.614,1.236,4.727,19.0
67.65,1.25,4.371,6.0
66.221,1.236,3.93,29.0
103.925,1.96,5.608,11.0
69.22,1.319,3.37,10.0
118.088,2.274,5.128,14.0
67.648,1.311,4.841,31.0
67.736,1.326,4.489,6.0
66.22,1.31,4.038,31.0
104.127,2.08,5.788,7.0
103.665,2.09,5.215,10.0
118.268,2.409,5.325,16.0
67.535,1.385,4.942,19.0
66.303,1.373,4.5,35.0
66.241,1.385,4.145,25.0
101.477,2.142,5.802,2.0
103.627,2.208,5.377,4.0
110.427,2.375,5.146,1.0
60.134,1.302,4.495,2.0
0.0,0.0,0.0,0.0
66.141,1.459,4.242,20.0
68.967,1.536,4.051,7.0
68.646,1.542,3.668,4.0
110.266,2.499,5.309,4.0
67.243,1.534,5.13,12.0
67.92,1.563,4.821,13.0
66.059,1.534,4.338,12.0
117.761,2.76,7.095,6.0
110.256,2.607,6.059,7.0
103.698,2.474,5.149,5.0
57.797,1.388,4.498,14.0
65.997,1.599,4.784,8.0
53.5,1.307,3.593,13.0
67.423,1.661,4.163,3.0
69.061,1.716,3.897,2.0
103.833,2.602,5.308,11.0
52.145,1.316,4.136,12.0
65.972,1.678,4.88,22.0
53.714,1.378,3.687,3.0
68.725,1.778,4.344,5.0
69.424,1.811,4.019,5.0
103.806,2.73,5.458,8.0
52.107,1.38,4.208,15.0
65.848,1.757,4.966,5.0
68.006,1.829,4.766,12.0
104.739,2.84,6.771,4.0
101.295,2.768,6.007,5.0
103.818,2.859,5.604,6.0
43.642,1.21,3.586,3.0
52.53,1.468,4.035,12.0
53.007,1.492,3.788,6.0
68.98,1.957,4.554,10.0
67.451,1.928,4.092,6.0
103.791,2.99,5.744,6.0
51.251,1.486,4.282,4.0
43.022,1.257,3.363,3.0
68.305,2.01,4.974,3.0
68.913,2.044,4.642,9.0
103.125,3.08,6.396,4.0
69.176,2.082,3.92,6.0
50.688,1.536,4.303,8.0
58.056,1.771,4.616,5.0
68.19,2.095,5.055,2.0
67.614,2.092,4.643,7.0
68.153,2.124,4.315,4.0
103.606,3.252,6.006,6.0
52.568,1.662,4.531,8.0
43.806,1.394,3.539,5.0
43.065,1.379,3.248,1.0
68.394,2.206,4.784,19.0
68.693,2.232,4.436,5.0
67.457,2.207,3.995,4.0
46.804,1.542,4.093,8.0
50.85,1.686,4.172,4.0
51.9,1.732,3.979,8.0
68.45,2.3,4.873,6.0
68.805,2.327,4.529,7.0
103.856,3.537,6.278,6.0
46.92,1.609,4.161,2.0
0.0,0.0,0.0,0.0
43.707,1.518,3.404,3.0
68.534,2.396,4.961,4.0
53.296,1.875,3.571,4.0
68.408,2.423,4.216,8.0
46.947,1.674,4.22,4.0
47.017,1.686,3.971,6.0
52.164,1.883,4.124,25.0
237.565,8.628,17.475,13.0
67.156,2.454,4.578,5.0
68.535,2.521,4.302,9.0
53.165,1.969,4.839,18.0
46.901,1.747,4.015,3.0
52.481,1.966,4.208,1.0
51.772,1.951,3.866,7.0
67.351,2.554,4.666,7.0
68.627,2.618,4.384,2.0
46.104,1.771,4.248,5.0
46.96,1.814,4.071,7.0
47.112,1.83,3.829,7.0
51.664,2.019,3.914,4.0
67.985,2.673,4.782,6.0
68.854,2.722,4.471,6.0
46.101,1.835,4.296,7.0
47.012,1.882,4.125,8.0
52.845,2.127,4.35,21.0
47.275,1.913,3.63,0.0
68.419,2.784,4.882,4.0
69.25,2.834,4.567,3.0
46.08,1.898,4.341,4.0
53.371,2.211,4.737,2.0
43.537,1.813,3.627,3.0
47.226,1.977,3.673,5.0
68.835,2.897,4.979,4.0
203.443,8.609,13.615,17.0
43.538,1.855,4.144,3.0
53.678,2.299,4.816,4.0
47.054,2.026,3.965,4.0
68.142,2.949,5.365,8.0
47.344,2.059,3.469,3.0
67.65,2.958,4.59,9.0
52.543,2.314,5.051,5.0
59.513,2.634,5.396,7.0
47.069,2.094,4.01,12.0
52.688,2.355,4.196,7.0
47.393,2.129,3.516,3.0
66.851,3.018,4.596,4.0
52.536,2.388,5.097,4.0
45.277,2.069,4.145,6.0
47.044,2.16,4.049,11.0
52.775,2.434,4.249,4.0
51.689,2.396,3.879,2.0
47.357,2.205,3.296,2.0
52.44,2.46,5.132,3.0
50.397,2.375,4.656,3.0
47.064,2.228,4.09,2.0
43.739,2.08,3.557,2.0
69.033,3.3,5.238,2.0
47.608,2.286,3.352,0.0
59.157,2.86,5.839,6.0
45.97,2.232,4.284,8.0
53.18,2.594,4.664,1.0
47.112,2.308,3.869,5.0
240.985,11.863,18.471,17.0
52.717,2.606,3.752,2.0
45.683,2.275,4.543,3.0
45.952,2.297,4.317,8.0
53.054,2.665,4.692,2.0
47.12,2.377,3.904,8.0
47.184,2.39,3.651,1.0
66.259,3.372,4.764,5.0
52.839,2.708,5.294,4.0
45.925,2.363,4.347,10.0
53.194,2.748,4.743,2.0
47.146,2.446,3.939,5.0
241.672,12.592,18.866,17.0
66.523,3.481,4.828,1.0
52.384,2.76,5.283,3.0
45.902,2.428,4.376,9.0
45.945,2.44,4.127,8.0
47.156,2.515,3.97,1.0
242.032,12.96,19.049,24.0
242.107,13.018,17.726,26.0
52.395,2.837,5.318,2.0
45.828,2.491,4.397,11.0
46.009,2.51,4.161,4.0
47.312,2.591,4.013,4.0
47.144,2.592,3.739,6.0
47.344,2.614,3.494,1.0
45.757,2.553,4.418,15.0
45.953,2.584,3.923,5.0
47.223,2.665,3.771,4.0
47.396,2.685,3.524,14.0
45.581,2.61,4.425,8.0
45.885,2.646,3.941,3.0
47.173,2.73,3.791,4.0
47.035,2.732,3.521,1.0
45.463,2.659,4.689,3.0
0.0,0.0,0.0,0.0
45.955,2.707,4.229,3.0
45.829,2.708,3.958,5.0
47.163,2.797,3.813,3.0
243.594,14.5,18.348,21.0
45.843,2.757,4.494,3.0
0.0,0.0,0.0,0.0
47.449,2.873,4.119,1.0
46.349,2.815,3.766,3.0
244.022,14.877,18.482,24.0
45.831,2.821,4.511,3.0
45.496,2.809,4.225,1.0
47.41,2.937,4.134,4.0
47.295,2.94,3.861,3.0
244.46,15.252,18.606,19.0
45.8,2.886,4.525,1.0
45.551,2.879,4.246,3.0
0.0,0.0,0.0,0.0
47.372,3.023,3.621,1.0
45.555,2.944,4.261,3.0
45.789,2.977,3.768,2.0
47.474,3.097,3.642,0.0
46.223,3.035,4.853,0.0
45.785,3.042,3.779,1.0
47.387,3.158,3.647,0.0
46.242,3.102,4.866,1.0
45.11,3.034,4.494,2.0
47.739,3.22,4.489,2.0
47.462,3.229,3.662,1.0
46.245,3.167,4.876,1.0
45.674,3.136,4.559,9.0
45.688,3.145,4.304,3.0
246.287,17.099,19.044,23.0
46.234,3.23,4.881,1.0
45.383,3.179,4.536,1.0
246.694,17.463,19.103,13.0
46.271,3.297,4.89,1.0
