X,Y,Z,Reflectivity
0.0,0.0,0.0,0.0
0.0,0.0,0.0,0.0
68.917,6.731,-0.505,2.0
151.051,14.691,3.054,17.0
151.092,14.666,2.197,21.0
0.0,0.0,0.0,0.0
92.474,8.941,0.284,3.0
0.0,0.0,0.0,0.0
68.883,6.636,-0.569,1.0
151.192,14.502,2.916,28.0
151.318,14.485,2.059,27.0
0.0,0.0,0.0,0.0
92.598,8.828,0.2,55.0
0.0,0.0,0.0,0.0
0.0,0.0,0.0,0.0
151.193,14.292,2.777,29.0
151.572,14.296,1.924,23.0
0.0,0.0,0.0,0.0
92.629,8.701,0.117,1.0
0.0,0.0,0.0,0.0
0.0,0.0,0.0,0.0
151.441,14.101,2.647,25.0
151.769,14.099,1.792,7.0
0.0,0.0,0.0,0.0
0.0,0.0,0.0,0.0
0.0,0.0,0.0,0.0
0.0,0.0,0.0,0.0
151.85,13.916,2.522,28.0
129.503,11.839,1.417,3.0
0.0,0.0,0.0,0.0
0.0,0.0,0.0,0.0
68.975,6.262,-0.424,2.0
0.0,0.0,0.0,0.0
152.596,13.756,2.405,27.0
0.0,0.0,0.0,0.0
0.0,0.0,0.0,0.0
0.0,0.0,0.0,0.0
68.973,6.159,-0.48,3.0
0.0,0.0,0.0,0.0
152.916,13.552,2.286,28.0
108.365,9.579,1.007,3.0
107.618,9.488,0.391,31.0
107.681,9.47,-0.227,1.0
0.0,0.0,0.0,0.0
0.0,0.0,0.0,0.0
153.474,13.36,2.173,14.0
108.499,9.422,0.923,5.0
107.622,9.321,0.308,39.0
0.0,0.0,0.0,0.0
0.0,0.0,0.0,0.0
0.0,0.0,0.0,0.0
177.761,15.195,2.383,7.0
108.589,9.257,0.842,3.0
107.761,9.16,0.226,13.0
0.0,0.0,0.0,0.0
0.0,0.0,0.0,0.0
0.0,0.0,0.0,0.0
129.399,10.849,1.638,8.0
0.0,0.0,0.0,0.0
108.3,9.029,0.15,2.0
0.0,0.0,0.0,0.0
0.0,0.0,0.0,0.0
0.0,0.0,0.0,0.0
213.686,17.565,2.556,10.0
110.431,9.05,0.698,23.0
109.56,8.953,0.076,3.0
0.0,0.0,0.0,0.0
0.0,0.0,0.0,0.0
43.133,3.495,-0.702,0.0
181.665,14.629,2.051,7.0
114.022,9.154,0.646,23.0
110.362,8.833,0.004,1.0
0.0,0.0,0.0,0.0
0.0,0.0,0.0,0.0
0.0,0.0,0.0,0.0
0.0,0.0,0.0,0.0
114.033,8.959,0.573,78.0
0.0,0.0,0.0,0.0
0.0,0.0,0.0,0.0
0.0,0.0,0.0,0.0
0.0,0.0,0.0,0.0
122.371,9.434,1.229,3.0
114.353,8.786,0.506,5.0
0.0,0.0,0.0,0.0
0.0,0.0,0.0,0.0
0.0,0.0,0.0,0.0
0.0,0.0,0.0,0.0
0.0,0.0,0.0,0.0
122.182,9.172,0.471,2.0
0.0,0.0,0.0,0.0
0.0,0.0,0.0,0.0
0.0,0.0,0.0,0.0
39.475,2.923,-0.737,0.0
0.0,0.0,0.0,0.0
140.568,10.299,0.464,150.0
0.0,0.0,0.0,0.0
0.0,0.0,0.0,0.0
0.0,0.0,0.0,0.0
0.0,0.0,0.0,0.0
140.87,10.104,1.183,4.0
0.0,0.0,0.0,0.0
0.0,0.0,0.0,0.0
0.0,0.0,0.0,0.0
0.0,0.0,0.0,0.0
38.503,2.711,-0.758,0.0
0.0,0.0,0.0,0.0
154.926,10.788,0.361,12.0
0.0,0.0,0.0,0.0
0.0,0.0,0.0,0.0
0.0,0.0,0.0,0.0
37.95,2.602,-0.764,0.0
0.0,0.0,0.0,0.0
154.915,10.498,0.292,150.0
0.0,0.0,0.0,0.0
0.0,0.0,0.0,0.0
0.0,0.0,0.0,0.0
37.549,2.504,-0.772,0.0
0.0,0.0,0.0,0.0
154.95,10.21,0.229,10.0
0.0,0.0,0.0,0.0
0.0,0.0,0.0,0.0
0.0,0.0,0.0,0.0
37.361,2.421,-0.782,0.0
0.0,0.0,0.0,0.0
0.0,0.0,0.0,0.0
0.0,0.0,0.0,0.0
0.0,0.0,0.0,0.0
0.0,0.0,0.0,0.0
37.064,2.33,-0.789,0.0
155.441,9.692,0.985,151.0
0.0,0.0,0.0,0.0
0.0,0.0,0.0,0.0
0.0,0.0,0.0,0.0
0.0,0.0,0.0,0.0
0.0,0.0,0.0,0.0
197.575,11.937,1.191,29.0
0.0,0.0,0.0,0.0
0.0,0.0,0.0,0.0
0.0,0.0,0.0,0.0
0.0,0.0,0.0,0.0
35.519,2.095,-0.777,0.0
197.517,11.547,1.138,37.0
0.0,0.0,0.0,0.0
0.0,0.0,0.0,0.0
0.0,0.0,0.0,0.0
42.202,2.419,-0.699,0.0
35.456,2.022,-0.784,0.0
197.417,11.16,1.091,19.0
0.0,0.0,0.0,0.0
0.0,0.0,0.0,0.0
0.0,0.0,0.0,0.0
0.0,0.0,0.0,0.0
36.594,2.015,-0.817,0.0
0.0,0.0,0.0,0.0
0.0,0.0,0.0,0.0
0.0,0.0,0.0,0.0
52.113,2.796,-0.594,0.0
42.137,2.248,-0.714,0.0
0.0,0.0,0.0,0.0
197.241,10.364,1.019,8.0
0.0,0.0,0.0,0.0
68.947,3.58,-0.407,2.0
0.0,0.0,0.0,0.0
42.472,2.18,-0.725,0.0
0.0,0.0,0.0,0.0
197.228,9.964,0.993,33.0
0.0,0.0,0.0,0.0
68.939,3.44,-0.415,1.0
0.0,0.0,0.0,0.0
42.605,2.101,-0.732,0.0
0.0,0.0,0.0,0.0
197.138,9.56,0.976,24.0
0.0,0.0,0.0,0.0
0.0,0.0,0.0,0.0
0.0,0.0,0.0,0.0
42.463,2.006,-0.732,4.0
35.26,1.655,-0.803,0.0
196.957,9.15,0.965,35.0
0.0,0.0,0.0,0.0
69.022,3.164,-0.423,2.0
0.0,0.0,0.0,0.0
43.273,1.957,-0.747,0.0
35.758,1.606,-0.814,0.0
195.545,8.688,0.956,47.0
0.0,0.0,0.0,0.0
69.002,3.022,-0.423,2.0
0.0,0.0,0.0,0.0
43.085,1.86,-0.743,0.0
35.617,1.526,-0.81,0.0
196.791,8.339,0.966,33.0
0.0,0.0,0.0,0.0
0.0,0.0,0.0,0.0
0.0,0.0,0.0,0.0
0.0,0.0,0.0,0.0
0.0,0.0,0.0,0.0
196.656,7.923,0.979,40.0
0.0,0.0,0.0,0.0
0.0,0.0,0.0,0.0
0.0,0.0,0.0,0.0
0.0,0.0,0.0,0.0
36.002,1.394,-0.814,0.0
195.172,7.464,0.991,27.0
0.0,0.0,0.0,0.0
69.059,2.597,-0.407,1.0
0.0,0.0,0.0,0.0
0.0,0.0,0.0,0.0
35.955,1.318,-0.808,0.0
196.43,7.106,1.024,36.0
0.0,0.0,0.0,0.0
0.0,0.0,0.0,0.0
0.0,0.0,0.0,0.0
0.0,0.0,0.0,0.0
36.332,1.255,-0.81,0.0
196.314,6.696,1.058,33.0
0.0,0.0,0.0,0.0
0.0,0.0,0.0,0.0
0.0,0.0,0.0,0.0
0.0,0.0,0.0,0.0
37.255,1.21,-0.823,0.0
196.181,6.282,1.099,35.0
0.0,0.0,0.0,0.0
0.0,0.0,0.0,0.0
0.0,0.0,0.0,0.0
0.0,0.0,0.0,0.0
36.89,1.12,-0.805,0.0
196.079,5.868,1.149,37.0
0.0,0.0,0.0,0.0
0.0,0.0,0.0,0.0
0.0,0.0,0.0,0.0
0.0,0.0,0.0,0.0
37.298,1.056,-0.803,0.0
103.097,2.874,0.633,1.0
0.0,0.0,0.0,0.0
0.0,0.0,0.0,0.0
0.0,0.0,0.0,0.0
44.754,1.188,-0.706,0.0
37.193,0.975,-0.789,0.0
103.102,2.659,0.668,4.0
100.27,2.553,0.103,3.0
0.0,0.0,0.0,0.0
0.0,0.0,0.0,0.0
0.0,0.0,0.0,0.0
37.422,0.903,-0.78,0.0
103.054,2.444,0.705,2.0
100.09,2.342,0.14,8.0
0.0,0.0,0.0,0.0
0.0,0.0,0.0,0.0
0.0,0.0,0.0,0.0
0.0,0.0,0.0,0.0
102.947,2.227,0.746,2.0
100.022,2.13,0.181,2.0
0.0,0.0,0.0,0.0
0.0,0.0,0.0,0.0
0.0,0.0,0.0,0.0
38.52,0.768,-0.771,0.0
102.876,2.012,0.791,1.0
99.851,1.919,0.226,8.0
0.0,0.0,0.0,0.0
0.0,0.0,0.0,0.0
0.0,0.0,0.0,0.0
40.555,0.725,-0.792,0.0
99.807,1.745,0.815,1.0
99.786,1.712,0.274,6.0
0.0,0.0,0.0,0.0
0.0,0.0,0.0,0.0
0.0,0.0,0.0,0.0
0.0,0.0,0.0,0.0
0.0,0.0,0.0,0.0
99.633,1.503,0.326,5.0
101.628,1.498,-0.217,1.0
0.0,0.0,0.0,0.0
0.0,0.0,0.0,0.0
20.196,0.277,-0.373,9.0
20.293,0.271,0.187,0.0
99.593,1.299,0.381,6.0
0.0,0.0,0.0,0.0
0.0,0.0,0.0,0.0
20.202,0.242,-0.252,22.0
20.18,0.235,-0.361,30.0
20.3,0.229,0.199,27.0
20.327,0.223,0.09,29.0
20.31,0.216,-0.019,11.0
20.2,0.208,-0.13,9.0
20.165,0.2,-0.239,24.0
20.178,0.194,-0.348,33.0
20.297,0.188,0.212,28.0
20.277,0.181,0.102,29.0
20.244,0.173,-0.006,20.0
20.187,0.166,-0.117,27.0
20.168,0.159,-0.226,34.0
20.187,0.153,-0.335,31.0
20.178,0.145,0.224,25.0
20.191,0.138,0.116,33.0
20.181,0.132,0.007,27.0
20.173,0.125,-0.103,39.0
20.178,0.118,-0.212,25.0
20.202,0.112,-0.321,16.0
20.161,0.104,0.238,29.0
20.157,0.097,0.13,25.0
20.201,0.091,0.021,32.0
20.178,0.084,-0.088,27.0
20.197,0.077,-0.197,16.0
20.142,0.071,-0.305,0.0
20.145,0.063,0.253,31.0
20.143,0.057,0.144,27.0
20.295,0.05,0.036,9.0
20.261,0.044,-0.074,150.0
20.259,0.037,-0.182,151.0
20.262,0.03,-0.291,150.0
20.137,0.023,0.268,30.0
20.122,0.016,0.16,27.0
20.198,0.01,0.052,26.0
20.196,0.003,-0.057,18.0
20.16,-0.003,-0.165,14.0
20.166,-0.009,-0.274,12.0
20.128,-0.016,0.284,28.0
20.116,-0.022,0.176,36.0
20.127,-0.029,0.068,41.0
20.125,-0.036,-0.041,31.0
20.142,-0.042,-0.149,34.0
20.139,-0.049,-0.256,26.0
20.118,-0.055,0.301,31.0
20.118,-0.062,0.193,27.0
20.131,-0.069,0.085,40.0
20.121,-0.075,-0.023,29.0
20.144,-0.082,-0.131,32.0
20.144,-0.089,-0.239,33.0
20.123,-0.094,0.318,27.0
20.118,-0.101,0.211,19.0
20.14,-0.108,0.103,24.0
20.148,-0.115,-0.005,24.0
20.165,-0.121,-0.113,21.0
20.129,-0.128,-0.221,16.0
20.204,-0.134,0.338,19.0
20.211,-0.141,0.23,15.0
58.324,-0.427,0.354,17.0
56.239,-0.43,0.036,4.0
53.34,-0.425,-0.25,9.0
20.175,-0.167,-0.202,2.0
53.497,-0.459,0.947,19.0
53.395,-0.476,0.66,12.0
64.302,-0.594,0.452,18.0
56.104,-0.536,0.089,1.0
56.191,-0.556,-0.209,9.0
52.905,-0.54,-0.479,5.0
20.154,-0.212,0.376,14.0
20.155,-0.218,0.269,11.0
20.162,-0.224,0.161,0.0
59.531,-0.683,0.154,3.0
56.247,-0.663,-0.153,1.0
58.815,-0.712,-0.473,7.0
20.144,-0.249,0.396,13.0
20.124,-0.255,0.289,11.0
20.128,-0.262,0.182,10.0
59.529,-0.795,0.215,13.0
59.532,-0.814,-0.1,14.0
59.416,-0.831,-0.416,4.0
53.518,-0.763,1.109,11.0
20.142,-0.294,0.31,8.0
20.122,-0.3,0.203,10.0
20.139,-0.306,0.094,27.0
20.134,-0.312,-0.012,27.0
59.475,-0.943,-0.353,8.0
176.606,-2.847,3.851,60.0
176.592,-2.903,2.913,45.0
176.636,-2.959,1.975,9.0
20.136,-0.343,0.116,3.0
20.132,-0.349,0.009,24.0
52.957,-0.936,-0.256,45.0
193.433,-3.474,4.432,11.0
0.0,0.0,0.0,0.0
53.027,-0.984,0.652,13.0
52.934,-0.999,0.364,57.0
52.937,-1.016,0.084,61.0
52.955,-1.032,-0.196,7.0
38.409,-0.758,0.923,2.0
38.419,-0.77,0.719,5.0
38.397,-0.781,0.515,25.0
38.375,-0.793,0.308,54.0
38.378,-0.804,0.104,31.0
38.374,-0.816,-0.098,6.0
40.417,-0.869,1.018,23.0
40.398,-0.881,0.803,41.0
40.44,-0.894,0.59,152.0
40.41,-0.906,0.372,59.0
40.41,-0.918,0.158,43.0
40.416,-0.93,-0.055,35.0
38.728,-0.901,1.021,43.0
40.404,-0.952,0.852,26.0
40.426,-0.965,0.638,26.0
40.421,-0.976,0.42,22.0
0.0,0.0,0.0,0.0
38.743,-0.959,-0.006,24.0
38.647,-0.966,1.066,49.0
38.686,-0.978,0.863,39.0
38.674,-0.99,0.658,41.0
38.662,-1.001,0.45,56.0
38.662,-1.011,0.246,60.0
38.667,-1.023,0.042,63.0
38.579,-1.03,1.112,73.0
38.627,-1.042,0.91,73.0
38.638,-1.053,0.706,68.0
38.618,-1.064,0.498,68.0
38.646,-1.077,0.295,89.0
38.653,-1.088,0.091,82.0
38.559,-1.094,1.161,70.0
38.635,-1.108,0.96,82.0
38.636,-1.119,0.756,107.0
38.604,-1.129,0.548,73.0
38.62,-1.14,0.345,68.0
38.648,-1.152,0.141,63.0
38.587,-1.159,1.212,61.0
38.607,-1.171,1.01,69.0
38.622,-1.181,0.806,68.0
38.622,-1.192,0.599,63.0
38.656,-1.204,0.396,62.0
38.689,-1.216,0.193,55.0
38.63,-1.223,1.265,60.0
38.618,-1.233,1.061,50.0
38.661,-1.245,0.859,55.0
38.683,-1.257,0.652,35.0
38.768,-1.27,0.449,8.0
80.45,-2.658,0.51,12.0
38.725,-1.287,1.32,8.0
31.406,-1.052,0.905,2.0
31.389,-1.06,0.74,1.0
151.686,-5.167,2.763,7.0
84.308,-2.894,1.092,33.0
80.394,-2.782,0.62,22.0
31.289,-1.089,1.11,35.0
31.292,-1.097,0.945,47.0
31.331,-1.107,0.781,49.0
31.308,-1.114,0.613,39.0
31.316,-1.123,0.449,45.0
31.349,-1.132,0.285,34.0
31.253,-1.135,1.152,59.0
31.289,-1.145,0.989,62.0
31.284,-1.153,0.824,61.0
31.288,-1.161,0.657,60.0
31.246,-1.167,0.492,35.0
31.255,-1.175,0.328,50.0
31.236,-1.181,1.196,24.0
28.437,-1.082,0.939,38.0
28.459,-1.09,0.79,46.0
28.449,-1.097,0.638,66.0
28.452,-1.104,0.488,66.0
28.45,-1.112,0.339,69.0
28.434,-1.116,1.129,90.0
28.433,-1.123,0.979,111.0
28.438,-1.13,0.83,150.0
28.44,-1.137,0.678,150.0
28.45,-1.145,0.529,141.0
28.439,-1.152,0.38,110.0
28.436,-1.157,1.17,108.0
28.428,-1.163,1.02,102.0
28.423,-1.17,0.871,95.0
28.429,-1.177,0.719,96.0
28.435,-1.184,0.57,96.0
28.437,-1.191,0.421,78.0
28.447,-1.197,1.212,58.0
28.449,-1.203,1.063,57.0
28.453,-1.21,0.914,57.0
28.447,-1.217,0.762,55.0
28.452,-1.223,0.613,51.0
28.467,-1.23,0.464,45.0
162.534,-7.06,7.171,12.0
165.536,-7.228,6.434,13.0
165.971,-7.285,5.582,5.0
85.07,-3.753,2.407,11.0
31.367,-1.391,0.723,5.0
31.299,-1.395,0.557,24.0
162.474,-7.272,7.413,7.0
159.717,-7.184,6.451,19.0
166.064,-7.507,5.838,13.0
85.117,-3.865,2.537,15.0
85.036,-3.88,2.09,33.0
85.047,-3.9,1.645,20.0
86.281,-3.972,4.068,4.0
86.607,-4.006,3.629,10.0
86.201,-4.006,3.161,13.0
85.686,-4.001,2.686,21.0
84.919,-3.983,2.218,35.0
84.619,-3.987,1.768,37.0
28.379,-1.342,1.382,18.0
85.718,-4.073,3.726,18.0
86.265,-4.116,3.298,10.0
85.875,-4.115,2.825,36.0
84.823,-4.082,2.347,35.0
84.615,-4.089,1.899,36.0
28.413,-1.378,1.428,59.0
85.273,-4.154,3.839,37.0
86.319,-4.222,3.435,39.0
85.532,-4.2,2.947,36.0
85.072,-4.195,2.486,35.0
84.638,-4.19,2.032,39.0
28.418,-1.412,1.473,71.0
84.866,-4.234,3.955,39.0
86.29,-4.321,3.569,42.0
85.057,-4.275,3.064,27.0
84.627,-4.27,2.606,37.0
84.758,-4.292,2.168,36.0
28.42,-1.444,1.517,76.0
28.402,-1.448,1.368,7.0
0.0,0.0,0.0,0.0
0.0,0.0,0.0,0.0
84.768,-4.37,2.744,42.0
84.537,-4.374,2.296,42.0
28.425,-1.476,1.563,72.0
28.416,-1.48,1.414,56.0
0.0,0.0,0.0,0.0
83.676,-4.39,3.281,35.0
84.756,-4.461,2.881,39.0
84.182,-4.445,2.422,34.0
28.43,-1.506,1.609,72.0
28.421,-1.51,1.46,65.0
83.537,-4.454,3.854,32.0
83.74,-4.478,3.417,37.0
83.825,-4.498,2.983,33.0
84.131,-4.529,2.556,34.0
28.423,-1.535,1.654,61.0
28.428,-1.539,1.506,68.0
83.713,-4.548,3.997,24.0
83.481,-4.549,3.541,43.0
83.313,-4.552,3.1,51.0
83.262,-4.563,2.663,28.0
24.474,-1.346,1.464,32.0
28.426,-1.567,1.552,61.0
28.425,-1.571,1.403,52.0
83.417,-4.625,3.674,21.0
83.283,-4.63,3.233,14.0
24.609,-1.372,0.827,14.0
24.433,-1.366,1.502,49.0
24.498,-1.373,1.377,34.0
28.404,-1.597,1.448,30.0
24.533,-1.382,1.12,28.0
24.558,-1.387,0.993,15.0
24.581,-1.392,0.866,32.0
24.416,-1.387,1.54,75.0
24.443,-1.392,1.414,61.0
24.505,-1.399,1.289,51.0
24.535,-1.404,1.16,42.0
24.525,-1.407,1.031,38.0
24.541,-1.411,0.904,47.0
24.405,-1.408,1.579,44.0
24.414,-1.411,1.452,58.0
24.462,-1.417,1.327,66.0
24.504,-1.423,1.199,42.0
24.507,-1.426,1.071,49.0
24.516,-1.43,0.943,39.0
24.407,-1.428,1.62,54.0
24.398,-1.43,1.491,67.0
24.438,-1.435,1.366,42.0
24.474,-1.441,1.238,53.0
24.497,-1.445,1.111,44.0
24.482,-1.447,0.983,27.0
24.417,-1.448,1.661,67.0
24.39,-1.449,1.531,83.0
24.422,-1.453,1.405,43.0
24.445,-1.457,1.276,52.0
24.499,-1.463,1.151,32.0
24.509,-1.466,1.024,33.0
24.393,-1.464,1.699,53.0
24.392,-1.467,1.572,73.0
24.404,-1.47,1.445,44.0
24.435,-1.474,1.316,74.0
24.467,-1.479,1.19,78.0
24.467,-1.481,1.063,47.0
24.366,-1.48,1.739,39.0
24.404,-1.484,1.613,82.0
24.394,-1.486,1.484,33.0
24.424,-1.49,1.356,68.0
24.469,-1.495,1.231,84.0
24.442,-1.496,1.102,53.0
24.338,-1.494,1.777,41.0
24.384,-1.499,1.652,76.0
24.378,-1.501,1.524,29.0
24.414,-1.505,1.396,48.0
24.471,-1.511,1.272,93.0
24.449,-1.511,1.143,56.0
24.331,-1.509,1.817,43.0
24.362,-1.512,1.691,47.0
24.395,-1.516,1.566,44.0
24.37,-1.517,1.434,29.0
24.448,-1.523,1.311,66.0
24.465,-1.526,1.184,73.0
24.314,-1.522,1.856,52.0
24.318,-1.523,1.729,24.0
24.388,-1.53,1.606,37.0
24.359,-1.529,1.474,27.0
24.432,-1.535,1.35,42.0
24.476,-1.54,1.225,83.0
24.316,-1.535,1.896,50.0
24.302,-1.535,1.767,26.0
24.398,-1.543,1.646,40.0
24.361,-1.542,1.514,28.0
24.433,-1.548,1.39,63.0
24.473,-1.552,1.264,83.0
24.322,-1.547,1.937,28.0
24.318,-1.548,1.808,42.0
24.369,-1.552,1.684,38.0
24.405,-1.556,1.556,37.0
24.424,-1.558,1.429,49.0
24.475,-1.563,1.304,80.0
24.357,-1.56,1.979,27.0
24.295,-1.557,1.847,55.0
24.328,-1.56,1.721,35.0
24.403,-1.566,1.596,48.0
24.404,-1.567,1.468,47.0
24.457,-1.571,1.343,79.0
28.441,-1.833,2.358,1.0
24.297,-1.567,1.886,54.0
24.325,-1.569,1.761,40.0
24.409,-1.576,1.636,63.0
24.424,-1.577,1.509,41.0
24.442,-1.579,1.382,74.0
28.431,-1.843,2.403,38.0
24.315,-1.577,1.927,39.0
24.305,-1.576,1.798,49.0
24.376,-1.582,1.673,43.0
24.425,-1.585,1.548,59.0
24.441,-1.587,1.421,71.0
28.448,-1.853,2.451,53.0
24.332,-1.585,1.968,27.0
24.291,-1.583,1.836,52.0
24.346,-1.587,1.71,33.0
24.434,-1.593,1.588,70.0
24.429,-1.593,1.459,60.0
28.448,-1.861,2.497,39.0
24.508,-1.603,2.021,26.0
24.28,-1.588,1.874,59.0
24.305,-1.59,1.746,28.0
24.426,-1.598,1.626,71.0
24.427,-1.599,1.498,55.0
28.438,-1.867,2.541,53.0
24.736,-1.624,2.08,20.0
24.294,-1.595,1.914,45.0
24.321,-1.596,1.786,38.0
24.398,-1.601,1.663,50.0
24.439,-1.604,1.537,64.0
31.065,-2.046,2.826,26.0
24.785,-1.632,2.123,17.0
24.316,-1.6,1.954,29.0
24.291,-1.599,1.822,49.0
24.35,-1.602,1.698,33.0
24.448,-1.608,1.576,71.0
31.075,-2.051,2.875,21.0
24.798,-1.636,2.163,28.0
24.447,-1.613,2.003,25.0
24.282,-1.601,1.859,58.0
24.338,-1.604,1.735,31.0
24.437,-1.61,1.613,67.0
53.082,-3.51,4.995,4.0
28.432,-1.879,2.525,27.0
24.67,-1.629,2.06,22.0
24.276,-1.603,1.896,51.0
24.329,-1.606,1.772,34.0
24.425,-1.611,1.65,52.0
45.379,-3.004,4.341,1.0
31.078,-2.056,2.808,21.0
24.771,-1.638,2.106,25.0
24.304,-1.606,1.936,38.0
24.306,-1.605,1.807,45.0
24.386,-1.61,1.685,34.0
47.566,-3.15,4.623,7.0
31.057,-2.055,2.853,35.0
24.818,-1.641,2.148,31.0
24.34,-1.608,1.976,24.0
24.279,-1.603,1.842,54.0
24.341,-1.606,1.718,32.0
54.195,-3.589,5.35,4.0
31.079,-2.056,2.902,6.0
28.464,-1.881,2.507,12.0
24.539,-1.621,2.028,25.0
24.279,-1.602,1.878,60.0
24.333,-1.605,1.754,31.0
25.025,-1.656,2.508,1.0
52.98,-3.502,5.027,4.0
28.438,-1.878,2.547,44.0
24.74,-1.632,2.082,20.0
24.3,-1.602,1.916,45.0
24.307,-1.601,1.788,39.0
25.044,-1.654,2.547,2.0
47.569,-3.139,4.584,4.0
31.057,-2.047,2.827,27.0
24.791,-1.632,2.122,16.0
24.326,-1.6,1.953,30.0
24.299,-1.597,1.822,49.0
38.928,-2.567,4.016,5.0
47.542,-3.131,4.651,4.0
31.079,-2.044,2.875,4.0
28.427,-1.868,2.475,22.0
24.428,-1.603,1.997,27.0
24.283,-1.592,1.856,59.0
30.437,-2.002,3.184,25.0
54.166,-3.557,5.377,3.0
52.993,-3.476,4.978,5.0
28.436,-1.863,2.516,50.0
24.661,-1.613,2.051,25.0
24.293,-1.587,1.891,57.0
30.429,-1.994,3.227,14.0
52.498,-3.437,5.285,4.0
47.619,-3.113,4.539,2.0
28.429,-1.855,2.555,45.0
28.438,-1.854,2.404,36.0
24.316,-1.583,1.926,38.0
25.064,-1.636,2.693,30.0
30.438,-1.984,3.106,10.0
47.546,-3.095,4.598,8.0
28.416,-1.847,2.593,8.0
28.442,-1.846,2.444,56.0
24.346,-1.578,1.962,28.0
25.09,-1.631,2.73,46.0
30.437,-1.975,3.148,60.0
45.124,-2.924,4.425,3.0
44.903,-2.905,4.158,4.0
28.441,-1.837,2.482,55.0
24.443,-1.576,2.002,23.0
25.124,-1.625,2.767,43.0
30.428,-1.965,3.188,65.0
30.476,-1.964,3.029,33.0
45.123,-2.903,4.239,10.0
28.442,-1.827,2.519,58.0
28.43,-1.823,2.366,34.0
30.246,-1.945,3.371,2.0
30.38,-1.951,3.222,43.0
30.473,-1.953,3.068,45.0
44.67,-2.858,4.253,3.0
28.427,-1.815,2.554,50.0
28.437,-1.812,2.403,64.0
30.228,-1.932,3.408,33.0
30.38,-1.938,3.261,37.0
30.449,-1.939,3.105,63.0
47.56,-3.023,4.589,6.0
28.409,-1.802,2.589,15.0
28.43,-1.8,2.438,69.0
30.224,-1.919,3.446,21.0
30.387,-1.925,3.301,14.0
30.441,-1.924,3.142,66.0
30.485,-1.923,2.98,24.0
45.36,-2.856,4.189,4.0
28.44,-1.787,2.474,66.0
30.218,-1.904,3.483,3.0
25.131,-1.58,2.76,29.0
30.428,-1.909,3.178,59.0
30.462,-1.907,3.014,40.0
45.72,-2.856,4.278,4.0
28.429,-1.772,2.507,63.0
30.182,-1.887,3.516,39.0
25.173,-1.57,2.796,38.0
30.413,-1.892,3.213,39.0
30.476,-1.892,3.052,67.0
47.472,-2.94,4.498,4.0
28.429,-1.756,2.541,57.0
30.175,-1.87,3.55,49.0
25.173,-1.556,2.825,30.0
30.454,-1.878,3.253,18.0
30.474,-1.875,3.087,62.0
54.267,-3.33,5.204,6.0
28.421,-1.74,2.572,36.0
30.123,-1.85,3.579,42.0
25.203,-1.543,2.857,24.0
31.563,-1.928,3.407,40.0
30.453,-1.855,3.119,41.0
30.49,-1.853,2.957,18.0
28.413,-1.722,2.603,5.0
30.087,-1.829,3.608,38.0
25.245,-1.53,2.89,26.0
31.742,-1.919,3.461,40.0
30.537,-1.841,3.161,11.0
30.49,-1.834,2.99,53.0
45.661,-2.74,4.232,5.0
30.098,-1.811,3.642,22.0
25.258,-1.515,2.918,20.0
31.771,-1.901,3.498,17.0
31.724,-1.892,3.317,36.0
30.485,-1.814,3.021,61.0
45.686,-2.711,4.281,3.0
33.329,-1.983,4.067,3.0
25.313,-1.501,2.951,6.0
25.232,-1.492,2.804,29.0
31.704,-1.87,3.347,49.0
30.488,-1.793,3.053,63.0
47.475,-2.784,4.497,4.0
33.099,-1.946,4.073,5.0
36.542,-2.142,4.296,2.0
25.256,-1.476,2.831,40.0
31.733,-1.848,3.381,39.0
30.689,-1.782,3.103,46.0
52.505,-3.041,5.024,9.0
37.002,-2.148,4.59,11.0
46.695,-2.702,5.536,3.0
25.244,-1.456,2.854,29.0
37.025,-2.129,3.981,9.0
31.233,-1.791,3.187,42.0
30.511,-1.744,2.948,36.0
0.0,0.0,0.0,0.0
33.371,-1.906,3.987,4.0
25.301,-1.44,2.884,21.0
46.06,-2.613,4.994,4.0
31.694,-1.792,3.263,37.0
30.52,-1.721,2.976,54.0
38.511,-2.176,4.848,38.0
33.481,-1.885,4.03,7.0
25.401,-1.425,2.918,28.0
46.174,-2.583,5.047,14.0
46.126,-2.571,4.79,5.0
30.525,-1.696,3.003,53.0
38.457,-2.142,4.875,18.0
37.0,-2.053,4.486,9.0
25.425,-1.406,2.943,31.0
52.585,-2.898,5.792,4.0
43.801,-2.405,4.585,3.0
31.016,-1.697,3.077,40.0
45.174,-2.478,5.764,4.0
37.776,-2.064,4.611,38.0
25.46,-1.386,2.967,32.0
58.781,-3.189,6.522,22.0
37.048,-2.002,3.907,6.0
31.643,-1.704,3.164,17.0
45.112,-2.434,5.792,3.0
38.727,-2.082,4.758,10.0
25.473,-1.364,2.988,44.0
47.364,-2.528,5.291,10.0
46.091,-2.451,4.896,9.0
24.029,-1.273,2.42,25.0
25.537,-1.355,3.298,13.0
25.488,-1.347,3.15,31.0
25.479,-1.342,3.008,31.0
53.62,-2.813,6.029,6.0
23.958,-1.252,2.562,11.0
24.018,-1.25,2.436,49.0
25.542,-1.332,3.316,47.0
25.5,-1.324,3.169,52.0
25.484,-1.318,3.026,21.0
38.556,-1.986,4.362,22.0
23.936,-1.228,2.576,37.0
24.008,-1.227,2.451,50.0
25.552,-1.308,3.335,45.0
25.509,-1.301,3.187,27.0
33.748,-1.714,4.03,3.0
38.564,-1.95,4.388,4.0
23.905,-1.204,2.588,30.0
24.002,-1.204,2.466,35.0
25.575,-1.285,3.354,12.0
36.217,-1.811,4.548,3.0
23.749,-1.183,2.85,15.0
23.828,-1.182,2.725,41.0
23.88,-1.179,2.599,39.0
24.009,-1.181,2.481,58.0
37.136,-1.829,4.892,0.0
40.001,-1.961,5.047,3.0
23.7,-1.157,2.858,21.0
23.815,-1.158,2.737,56.0
23.883,-1.156,2.613,39.0
0.0,0.0,0.0,0.0
35.925,-1.733,4.752,1.0
23.695,-1.138,3.002,1.0
23.665,-1.131,2.866,23.0
23.801,-1.132,2.748,51.0
23.857,-1.13,2.622,13.0
46.363,-2.187,4.839,29.0
23.847,-1.126,3.166,15.0
23.712,-1.114,3.016,27.0
23.672,-1.107,2.878,37.0
23.777,-1.107,2.756,24.0
23.867,-1.106,2.634,3.0
37.119,-1.712,3.891,9.0
23.853,-1.101,3.178,42.0
23.719,-1.09,3.027,48.0
23.698,-1.083,2.892,27.0
40.482,-1.843,4.711,2.0
37.071,-1.679,4.107,22.0
37.117,-1.674,3.906,1.0
23.852,-1.076,3.188,80.0
23.827,-1.069,3.051,50.0
23.772,-1.062,2.911,16.0
42.909,-1.907,5.01,2.0
37.08,-1.64,4.122,4.0
46.23,-2.035,4.882,5.0
23.834,-1.049,3.194,28.0
39.067,-1.711,5.017,5.0
39.311,-1.713,4.827,6.0
39.665,-1.72,4.645,2.0
47.281,-2.04,5.272,16.0
31.799,-1.365,3.369,12.0
37.098,-1.593,4.984,14.0
39.848,-1.702,5.13,4.0
39.32,-1.671,4.841,9.0
33.758,-1.427,3.963,0.0
36.577,-1.538,4.089,1.0
31.794,-1.33,3.377,1.0
32.48,-1.358,4.373,3.0
36.727,-1.528,4.738,13.0
28.402,-1.175,3.504,26.0
28.417,-1.17,3.343,45.0
28.411,-1.163,3.183,55.0
24.732,-1.007,2.633,27.0
28.397,-1.156,3.83,22.0
28.404,-1.15,3.67,57.0
28.392,-1.143,3.509,85.0
28.395,-1.137,3.347,96.0
28.403,-1.131,3.188,108.0
24.732,-0.98,2.638,39.0
28.375,-1.123,3.833,17.0
28.389,-1.118,3.674,92.0
28.383,-1.111,3.513,93.0
28.39,-1.105,3.351,83.0
28.389,-1.099,3.191,51.0
24.739,-0.952,2.642,38.0
28.405,-1.092,3.841,45.0
28.396,-1.085,3.679,61.0
28.413,-1.079,3.52,57.0
28.386,-1.072,3.354,25.0
24.838,-0.933,2.795,23.0
24.75,-0.924,2.646,36.0
32.359,-1.207,4.379,12.0
32.278,-1.197,4.185,51.0
32.258,-1.189,3.999,29.0
32.178,-1.178,3.804,22.0
24.834,-0.904,2.796,28.0
24.778,-0.897,2.65,28.0
32.331,-1.168,4.377,41.0
32.324,-1.16,4.192,26.0
39.087,-1.394,4.848,60.0
39.068,-1.385,4.62,23.0
24.857,-0.876,2.799,42.0
24.827,-0.869,2.656,11.0
32.312,-1.129,4.374,47.0
39.107,-1.358,5.072,47.0
33.595,-1.159,4.166,32.0
25.08,-0.86,2.965,5.0
24.859,-0.847,2.799,41.0
43.911,-1.487,4.697,6.0
32.344,-1.092,4.377,28.0
25.232,-0.847,3.271,14.0
44.591,-1.487,5.528,19.0
25.073,-0.83,2.963,26.0
24.857,-0.818,2.797,61.0
40.194,-1.314,4.296,1.0
25.247,-0.823,3.415,49.0
25.238,-0.817,3.27,55.0
25.229,-0.811,3.125,46.0
25.071,-0.8,2.96,26.0
24.856,-0.788,2.794,66.0
51.187,-1.612,5.465,5.0
25.249,-0.792,3.412,77.0
25.238,-0.786,3.266,47.0
25.246,-0.781,3.123,50.0
25.105,-0.771,2.96,24.0
24.858,-0.759,2.79,42.0
44.442,-1.347,4.737,59.0
25.255,-0.762,3.408,24.0
37.986,-1.138,4.909,2.0
25.228,-0.751,3.116,38.0
25.139,-0.743,2.959,16.0
24.852,-0.729,2.784,16.0
51.417,-1.497,5.47,1.0
47.813,-1.386,6.442,9.0
44.652,-1.285,5.76,1.0
25.225,-0.72,3.11,23.0
44.455,-1.26,5.223,5.0
24.843,-0.699,2.777,1.0
51.512,-1.439,5.466,1.0
39.068,-1.085,5.253,5.0
33.085,-0.912,4.259,4.0
25.269,-0.691,3.108,44.0
24.829,-0.674,2.909,49.0
39.892,-1.075,4.448,2.0
47.406,-1.267,5.016,5.0
47.444,-1.261,6.364,22.0
33.505,-0.883,4.302,10.0
24.981,-0.653,3.064,25.0
24.814,-0.644,2.899,67.0
52.542,-1.353,5.84,11.0
53.997,-1.38,5.694,7.0
46.796,-1.188,6.26,15.0
36.92,-0.929,4.727,15.0
24.797,-0.619,3.032,27.0
24.843,-0.615,2.893,35.0
51.753,-1.271,5.732,7.0
51.736,-1.26,5.435,19.0
37.111,-0.897,4.949,3.0
25.313,-0.607,3.23,6.0
24.785,-0.589,3.02,39.0
40.082,-0.944,4.651,4.0
44.631,-1.043,4.923,32.0
44.63,-1.034,4.669,47.0
44.524,-1.024,5.917,6.0
25.321,-0.577,3.219,9.0
24.776,-0.559,3.007,59.0
40.161,-0.899,4.641,8.0
51.911,-1.152,5.702,20.0
44.641,-0.981,4.648,33.0
36.795,-0.802,4.871,15.0
24.765,-0.535,3.136,11.0
24.791,-0.53,2.996,48.0
40.381,-0.856,4.645,26.0
45.768,-0.961,5.003,3.0
44.425,-0.925,4.602,21.0
37.176,-0.766,4.902,13.0
24.771,-0.505,3.123,88.0
24.83,-0.502,2.987,24.0
40.247,-0.806,4.607,2.0
40.404,-0.801,4.393,10.0
31.603,-0.621,3.255,35.0
24.749,-0.481,3.248,45.0
24.772,-0.477,3.108,43.0
40.621,-0.774,4.863,15.0
43.89,-0.828,4.997,2.0
44.801,-0.836,4.844,12.0
31.613,-0.584,3.237,28.0
24.756,-0.452,3.233,59.0
34.109,-0.617,4.258,5.0
44.487,-0.796,5.297,3.0
43.839,-0.776,4.963,23.0
31.77,-0.556,3.414,20.0
31.695,-0.549,3.224,4.0
41.282,-0.706,5.364,12.0
40.541,-0.686,5.033,11.0
37.55,-0.628,4.444,24.0
37.621,-0.622,4.232,16.0
31.778,-0.519,3.392,34.0
37.633,-0.608,3.801,46.0
33.787,-0.539,4.365,2.0
37.692,-0.594,4.651,61.0
37.657,-0.587,4.429,38.0
37.589,-0.579,4.201,60.0
37.687,-0.574,3.995,3.0
37.648,-0.566,3.774,29.0
40.55,-0.6,5.208,6.0
46.575,-0.681,5.711,2.0
37.539,-0.542,4.386,11.0
57.026,-0.813,6.328,14.0
37.675,-0.531,3.963,17.0
55.106,-0.766,5.48,6.0
36.415,-0.498,4.647,2.0
54.195,-0.732,6.601,11.0
37.553,-0.5,4.357,28.0
54.215,-0.713,5.971,32.0
54.227,-0.703,5.659,19.0
54.247,-0.694,5.349,42.0
36.239,-0.454,4.593,2.0
46.516,-0.575,5.625,7.0
40.613,-0.495,4.676,4.0
31.853,-0.383,3.479,60.0
43.313,-0.514,4.482,3.0
54.63,-0.639,5.338,11.0
34.143,-0.39,4.296,1.0
0.0,0.0,0.0,0.0
52.579,-0.584,6.006,12.0
31.831,-0.348,3.448,51.0
43.335,-0.467,4.444,2.0
47.261,-0.501,4.574,27.0
44.154,-0.456,5.514,7.0
35.98,-0.366,4.284,12.0
31.811,-0.318,3.603,24.0
47.416,-0.467,5.091,16.0
52.163,-0.505,5.299,7.0
47.023,-0.448,4.505,50.0
37.508,-0.347,4.647,32.0
47.483,-0.432,5.606,8.0
31.835,-0.285,3.573,51.0
52.195,-0.459,5.551,64.0
47.031,-0.406,4.73,53.0
31.08,-0.263,2.946,20.0
50.91,-0.418,6.255,11.0
46.761,-0.377,5.473,16.0
31.84,-0.252,3.541,49.0
47.085,-0.365,4.959,5.0
38.888,-0.295,3.871,47.0
31.095,-0.231,2.915,55.0
47.262,-0.339,5.756,9.0
37.277,-0.262,4.323,2.0
38.856,-0.267,4.279,52.0
38.927,-0.262,4.057,46.0
38.877,-0.255,3.827,65.0
31.08,-0.199,2.88,34.0
38.68,-0.238,4.668,60.0
31.877,-0.191,3.661,49.0
39.068,-0.229,4.259,53.0
38.935,-0.223,4.015,13.0
31.025,-0.173,3.019,19.0
42.913,-0.233,3.928,3.0
39.181,-0.202,4.683,5.0
39.108,-0.196,4.446,34.0
53.277,-0.259,5.747,7.0
51.245,-0.242,5.224,32.0
31.01,-0.142,2.981,45.0
38.587,-0.171,3.487,25.0
31.948,-0.133,3.78,68.0
46.224,-0.186,5.2,10.0
51.245,-0.199,5.466,27.0
52.208,-0.196,5.26,53.0
31.026,-0.112,2.946,25.0
40.446,-0.141,3.606,3.0
31.939,-0.102,3.74,48.0
36.532,-0.112,4.064,12.0
52.231,-0.154,5.507,25.0
30.96,-0.086,3.081,30.0
42.894,-0.114,4.019,4.0
57.901,-0.147,5.09,10.0
36.544,-0.082,4.233,4.0
52.24,-0.111,5.746,16.0
42.892,-0.086,4.467,3.0
30.947,-0.058,3.04,45.0
52.359,-0.092,4.839,5.0
44.399,-0.072,3.846,7.0
52.107,-0.07,5.967,11.0
36.351,-0.044,3.95,12.0
30.925,-0.033,3.18,3.0
30.991,-0.03,3.003,18.0
51.212,-0.044,4.665,7.0
42.671,-0.031,3.64,6.0
36.668,-0.016,4.15,13.0
36.311,-0.011,3.897,12.0
30.856,-0.006,3.131,38.0
44.76,-0.003,4.277,5.0
51.183,0.001,4.593,5.0
53.719,0.007,4.508,4.0
42.514,0.018,4.752,3.0
30.743,0.017,3.256,22.0
30.908,0.02,3.093,35.0
52.305,0.04,4.924,5.0
40.419,0.035,3.57,12.0
53.367,0.053,4.404,54.0
36.691,0.047,4.049,7.0
30.741,0.042,3.212,45.0
45.494,0.068,4.489,20.0
53.606,0.085,4.971,37.0
44.456,0.076,3.863,3.0
52.677,0.095,4.272,14.0
30.655,0.064,3.338,52.0
30.813,0.067,3.175,30.0
45.794,0.105,4.451,18.0
53.863,0.13,4.916,6.0
53.323,0.133,4.556,27.0
52.657,0.137,4.193,12.0
30.677,0.088,3.295,41.0
30.965,0.093,3.144,42.0
45.832,0.142,4.386,15.0
40.402,0.129,3.627,3.0
45.799,0.15,3.844,17.0
45.609,0.154,3.563,32.0
51.309,0.188,5.433,9.0
30.966,0.116,3.097,42.0
45.721,0.176,4.306,4.0
40.415,0.159,3.566,31.0
45.771,0.184,3.772,65.0
0.0,0.0,0.0,0.0
40.054,0.177,4.179,1.0
30.995,0.139,3.052,2.0
53.308,0.244,4.937,7.0
45.301,0.211,3.926,41.0
45.585,0.217,3.685,46.0
45.628,0.221,3.423,24.0
30.946,0.158,3.18,24.0
53.771,0.279,5.21,10.0
53.707,0.283,4.889,51.0
45.449,0.243,3.868,44.0
0.0,0.0,0.0,0.0
60.421,0.333,4.438,47.0
30.939,0.179,3.129,45.0
53.677,0.315,5.114,69.0
40.4,0.24,3.613,13.0
45.439,0.273,3.793,29.0
60.44,0.368,4.693,26.0
58.627,0.362,4.21,22.0
30.966,0.2,3.081,4.0
42.419,0.276,3.971,4.0
45.719,0.301,4.013,8.0
45.423,0.302,3.717,74.0
67.301,0.453,5.115,37.0
58.613,0.398,4.114,18.0
36.366,0.256,3.558,0.0
45.67,0.325,4.2,45.0
45.049,0.324,3.879,19.0
45.458,0.33,3.644,11.0
58.513,0.428,4.349,24.0
67.207,0.496,4.605,25.0
45.808,0.35,4.404,30.0
45.768,0.353,4.132,2.0
45.174,0.351,3.814,61.0
43.58,0.341,3.42,6.0
58.578,0.462,4.256,43.0
46.268,0.368,3.091,35.0
45.795,0.375,4.324,8.0
40.394,0.333,3.578,50.0
52.595,0.437,4.35,17.0
58.415,0.489,4.484,28.0
67.268,0.566,4.77,18.0
59.364,0.503,3.863,10.0
53.968,0.471,5.001,8.0
40.418,0.354,3.508,6.0
52.588,0.464,4.258,23.0
58.637,0.52,4.398,51.0
67.209,0.6,4.648,7.0
59.45,0.534,3.766,62.0
50.919,0.469,4.628,6.0
44.52,0.412,3.786,8.0
58.295,0.542,4.615,24.0
67.325,0.63,4.93,10.0
46.288,0.435,3.119,50.0
59.627,0.562,3.67,14.0
40.41,0.39,3.6,39.0
58.108,0.564,4.837,17.0
58.568,0.571,4.532,19.0
67.219,0.658,4.801,8.0
59.355,0.583,3.893,51.0
101.604,1.002,6.072,14.0
40.414,0.408,3.527,11.0
58.215,0.589,4.74,11.0
43.602,0.443,3.294,1.0
46.329,0.472,3.224,7.0
59.599,0.61,3.799,56.0
67.171,0.69,3.891,7.0
58.659,0.615,5.011,12.0
43.345,0.455,3.448,4.0
67.2,0.709,4.953,14.0
46.296,0.489,3.137,50.0
59.659,0.632,3.694,6.0
67.098,0.713,3.764,32.0
58.561,0.634,4.894,38.0
43.428,0.471,3.374,1.0
69.314,0.754,4.98,2.0
59.471,0.648,3.919,42.0
104.737,1.144,6.29,6.0
66.097,0.724,3.584,32.0
52.601,0.587,4.297,21.0
67.249,0.751,5.099,29.0
46.337,0.518,3.242,40.0
59.671,0.669,3.819,36.0
67.236,0.755,3.91,13.0
102.024,1.147,5.339,11.0
43.303,0.495,3.455,5.0
69.21,0.793,5.115,7.0
46.332,0.531,3.153,38.0
109.962,1.262,6.828,29.0
66.877,0.768,3.761,21.0
102.036,1.174,5.143,8.0
67.179,0.785,5.229,20.0
46.387,0.542,3.338,30.0
59.675,0.698,3.945,42.0
103.861,1.216,6.249,12.0
66.062,0.774,3.588,25.0
111.552,1.307,5.408,13.0
67.574,0.804,5.129,14.0
46.341,0.551,3.245,64.0
59.711,0.711,3.831,13.0
67.256,0.8,3.915,25.0
102.001,1.214,5.339,12.0
126.529,1.507,5.886,13.0
46.378,0.56,3.428,4.0
59.657,0.72,4.059,16.0
109.962,1.326,6.838,10.0
66.404,0.801,3.734,36.0
111.725,1.347,5.631,13.0
110.303,1.329,4.915,17.0
46.367,0.566,3.336,59.0
59.707,0.728,3.945,35.0
67.42,0.822,4.059,9.0
66.072,0.804,3.585,17.0
111.413,1.356,5.395,6.0
124.888,1.519,5.319,9.0
46.359,0.57,3.243,52.0
109.992,1.352,7.048,6.0
67.22,0.825,3.914,39.0
102.052,1.251,5.335,15.0
124.93,1.53,5.801,18.0
103.959,1.272,4.22,17.0
59.758,0.739,4.061,25.0
109.892,1.357,6.823,6.0
66.46,0.819,3.736,41.0
111.677,1.375,5.614,10.0
110.317,1.356,4.9,19.0
103.969,1.275,4.012,17.0
59.71,0.739,3.936,26.0
67.44,0.834,4.051,23.0
66.086,0.815,3.583,17.0
124.817,1.537,6.024,9.0
124.795,1.534,5.295,7.0
117.862,1.445,4.312,22.0
110.059,1.361,7.035,6.0
67.16,0.828,3.898,39.0
102.06,1.257,5.327,15.0
124.903,1.534,5.775,16.0
103.966,1.274,4.199,24.0
133.276,1.628,4.603,8.0
109.864,1.354,6.797,5.0
66.239,0.813,3.71,37.0
111.669,1.367,5.6,12.0
110.275,1.347,4.876,18.0
104.012,1.266,3.991,19.0
118.115,1.434,3.842,14.0
67.425,0.824,4.035,19.0
66.081,0.805,3.567,10.0
126.601,1.538,6.092,9.0
124.871,1.511,5.265,13.0
117.88,1.421,4.281,18.0
20.29,0.244,0.618,1.0
67.151,0.812,3.88,24.0
102.047,1.229,5.297,12.0
126.546,1.519,5.83,12.0
103.938,1.243,4.171,24.0
133.237,1.587,4.567,13.0
20.265,0.24,0.576,18.0
66.143,0.789,3.687,31.0
111.62,1.325,5.567,11.0
110.288,1.304,4.855,13.0
103.938,1.224,3.958,31.0
140.224,1.643,4.52,17.0
20.277,0.236,0.535,25.0
66.055,0.774,3.546,8.0
111.571,1.301,5.336,8.0
124.94,1.451,5.246,27.0
103.095,1.191,3.715,12.0
20.27,0.233,0.611,6.0
20.273,0.231,0.493,23.0
102.056,1.171,5.27,17.0
132.889,1.517,6.085,8.0
124.942,1.419,4.99,25.0
133.324,1.505,4.533,26.0
20.257,0.227,0.57,19.0
20.271,0.226,0.452,29.0
117.183,1.312,5.811,3.0
110.298,1.228,4.826,16.0
103.965,1.15,3.941,32.0
133.346,1.466,4.261,21.0
20.28,0.221,0.529,26.0
20.273,0.22,0.411,33.0
111.56,1.213,5.304,26.0
126.597,1.367,5.277,27.0
103.91,1.115,3.724,21.0
20.264,0.216,0.605,13.0
20.267,0.214,0.487,27.0
20.271,0.213,0.369,36.0
111.644,1.174,5.077,17.0
132.557,1.384,5.251,15.0
102.958,1.066,3.477,19.0
20.262,0.208,0.564,23.0
20.277,0.206,0.446,32.0
20.281,0.205,0.327,32.0
110.353,1.117,4.791,20.0
103.965,1.043,3.905,11.0
20.283,0.201,0.643,2.0
20.261,0.199,0.522,29.0
20.269,0.198,0.403,31.0
20.287,0.196,0.285,26.0
117.106,1.133,4.839,12.0
103.834,0.996,3.684,24.0
20.255,0.192,0.6,15.0
20.268,0.19,0.48,29.0
20.278,0.189,0.362,32.0
20.305,0.187,0.244,27.0
126.555,1.165,4.97,23.0
103.623,0.944,3.463,58.0
20.265,0.182,0.558,22.0
20.265,0.18,0.438,28.0
20.283,0.179,0.32,26.0
20.299,0.177,0.202,26.0
126.413,1.098,4.702,22.0
20.275,0.174,0.635,9.0
20.247,0.172,0.516,26.0
20.238,0.169,0.396,25.0
20.249,0.168,0.278,25.0
20.244,0.165,0.16,23.0
126.084,1.026,4.432,29.0
20.237,0.162,0.593,14.0
20.167,0.16,0.473,19.0
20.197,0.158,0.354,22.0
20.171,0.155,0.236,19.0
20.211,0.154,0.118,25.0
117.612,0.889,3.895,10.0
20.176,0.15,0.55,17.0
20.186,0.148,0.432,22.0
20.162,0.145,0.312,23.0
20.175,0.143,0.195,22.0
20.212,0.141,0.077,29.0
20.227,0.14,0.628,9.0
20.157,0.137,0.508,19.0
20.163,0.135,0.391,24.0
20.167,0.132,0.271,26.0
20.183,0.13,0.153,25.0
20.188,0.128,0.036,30.0
20.194,0.126,0.586,17.0
20.17,0.124,0.467,23.0
20.165,0.121,0.35,27.0
20.158,0.119,0.23,24.0
20.2,0.116,0.112,30.0
20.164,0.114,-0.004,26.0
20.187,0.112,0.545,25.0
20.167,0.109,0.427,27.0
20.15,0.107,0.309,28.0
20.16,0.104,0.189,26.0
20.186,0.102,0.072,35.0
20.186,0.099,-0.045,35.0
20.164,0.097,0.504,25.0
20.151,0.094,0.386,27.0
20.149,0.092,0.268,26.0
20.153,0.089,0.149,24.0
20.2,0.087,0.031,32.0
20.187,0.084,-0.085,26.0
20.16,0.082,0.463,29.0
20.155,0.079,0.345,27.0
20.15,0.076,0.228,26.0
20.162,0.073,0.108,25.0
20.203,0.071,-0.008,32.0
20.198,0.068,-0.126,25.0
20.153,0.065,0.423,31.0
20.14,0.062,0.306,26.0
20.148,0.06,0.188,28.0
20.185,0.057,0.069,25.0
20.207,0.054,-0.048,23.0
20.216,0.051,-0.166,18.0
20.14,0.048,0.383,28.0
20.141,0.046,0.266,28.0
20.133,0.043,0.149,26.0
20.273,0.04,0.03,8.0
20.268,0.037,-0.088,77.0
20.243,0.034,-0.205,150.0
20.136,0.031,0.344,29.0
20.127,0.028,0.226,27.0
20.143,0.025,0.109,28.0
20.243,0.022,-0.009,151.0
20.26,0.019,-0.127,151.0
20.263,0.016,-0.245,150.0
20.134,0.012,0.304,29.0
20.126,0.009,0.187,27.0
20.217,0.006,0.07,150.0
20.263,0.003,-0.049,150.0
20.263,0.0,-0.167,21.0
20.238,-0.002,-0.284,7.0
20.123,-0.006,0.265,27.0
20.12,-0.009,0.148,28.0
20.134,-0.012,0.031,15.0
20.181,-0.016,-0.088,23.0
20.167,-0.019,-0.205,2.0
20.186,-0.022,-0.323,2.0
20.119,-0.025,0.226,35.0
20.123,-0.029,0.109,39.0
20.127,-0.032,-0.007,32.0
20.148,-0.036,-0.126,29.0
20.158,-0.039,-0.243,23.0
20.163,-0.042,-0.361,8.0
20.116,-0.046,0.188,37.0
20.143,-0.049,0.071,41.0
20.132,-0.053,-0.045,29.0
20.144,-0.056,-0.164,32.0
20.146,-0.06,-0.281,26.0
20.173,-0.063,-0.399,22.0
20.128,-0.067,0.151,34.0
20.132,-0.07,0.034,36.0
20.142,-0.074,-0.083,29.0
20.126,-0.077,-0.201,19.0
20.147,-0.081,-0.319,30.0
20.169,-0.085,-0.436,28.0
20.135,-0.088,0.113,38.0
20.132,-0.092,-0.003,33.0
20.141,-0.096,-0.12,29.0
20.137,-0.099,-0.239,33.0
20.149,-0.103,-0.356,31.0
20.178,-0.107,-0.474,31.0
20.148,-0.111,0.077,35.0
20.156,-0.114,-0.039,26.0
20.155,-0.118,-0.157,25.0
20.144,-0.122,-0.276,34.0
20.147,-0.126,-0.393,36.0
20.185,-0.13,-0.511,33.0
20.172,-0.134,0.04,25.0
20.153,-0.138,-0.076,19.0
20.135,-0.141,-0.193,9.0
20.145,-0.145,-0.312,28.0
20.159,-0.149,-0.429,32.0
20.178,-0.153,-0.547,38.0
20.207,-0.158,0.004,8.0
20.176,-0.161,-0.112,11.0
20.153,-0.165,-0.229,20.0
20.156,-0.169,-0.348,25.0
20.17,-0.173,-0.466,25.0
20.182,-0.177,-0.583,38.0
53.33,-0.48,-0.082,3.0
56.511,-0.52,-0.415,1.0
44.902,-0.423,-0.59,19.0
20.17,-0.194,-0.384,17.0
20.184,-0.198,-0.501,27.0
20.193,-0.202,-0.619,41.0
56.225,-0.576,-0.185,7.0
52.768,-0.551,-0.479,8.0
38.616,-0.411,-0.575,14.0
20.236,-0.219,-0.42,2.0
20.192,-0.223,-0.537,24.0
20.207,-0.227,-0.654,36.0
59.584,-0.685,-0.298,2.0
45.347,-0.531,-0.49,16.0
37.973,-0.452,-0.63,25.0
31.448,-0.381,-0.707,9.0
20.205,-0.249,-0.572,9.0
20.219,-0.253,-0.689,30.0
56.645,-0.724,-0.379,8.0
44.915,-0.583,-0.561,32.0
36.029,-0.475,-0.659,3.0
30.401,-0.408,-0.735,10.0
27.813,-0.379,-0.834,1.0
20.229,-0.28,-0.724,17.0
52.972,-0.746,-0.444,14.0
39.004,-0.558,-0.553,9.0
31.877,-0.462,-0.636,9.0
0.0,0.0,0.0,0.0
26.579,-0.398,-0.841,1.0
20.251,-0.307,-0.758,0.0
45.462,-0.7,-0.454,8.0
38.13,-0.596,-0.601,18.0
30.848,-0.489,-0.665,29.0
27.878,-0.448,-0.765,1.0
25.481,-0.415,-0.847,5.0
25.333,-0.419,-0.989,0.0
45.021,-0.755,-0.522,34.0
37.822,-0.643,-0.658,13.0
30.482,-0.525,-0.706,25.0
26.581,-0.464,-0.772,2.0
24.261,-0.429,-0.845,1.0
22.258,-0.399,-0.905,0.0
44.88,-0.815,-0.593,10.0
31.538,-0.58,-0.598,6.0
29.483,-0.549,-0.73,9.0
25.514,-0.481,-0.782,1.0
23.409,-0.447,-0.852,1.0
23.195,-0.448,-0.979,0.0
38.273,-0.748,-0.564,19.0
30.998,-0.613,-0.636,30.0
28.685,-0.574,-0.754,7.0
0.0,0.0,0.0,0.0
22.248,-0.456,-0.844,1.0
22.07,-0.458,-0.965,0.0
37.985,-0.797,-0.617,22.0
30.575,-0.649,-0.673,33.0
25.348,-0.544,-0.704,1.0
23.343,-0.507,-0.786,3.0
21.354,-0.469,-0.843,1.0
21.26,-0.472,-0.962,0.0
31.543,-0.708,-0.56,3.0
30.432,-0.69,-0.716,20.0
25.032,-0.574,-0.733,6.0
22.3,-0.517,-0.784,0.0
20.624,-0.483,-0.844,1.0
20.58,-0.487,-0.961,0.0
31.14,-0.745,-0.598,27.0
0.0,0.0,0.0,0.0
24.003,-0.586,-0.738,19.0
21.547,-0.531,-0.789,0.0
19.983,-0.498,-0.847,1.0
19.921,-0.501,-0.959,0.0
30.718,-0.781,-0.634,36.0
28.034,-0.719,-0.74,1.0
23.776,-0.616,-0.764,15.0
20.808,-0.544,-0.791,0.0
19.373,-0.512,-0.848,1.0
19.28,-0.514,-0.955,0.0
30.492,-0.821,-0.671,38.0
25.278,-0.687,-0.702,1.0
23.171,-0.635,-0.776,5.0
20.298,-0.562,-0.799,0.0
18.773,-0.525,-0.848,1.0
18.651,-0.526,-0.95,0.0
30.361,-0.863,-0.709,10.0
24.681,-0.708,-0.718,12.0
22.226,-0.644,-0.775,1.0
19.686,-0.575,-0.802,0.0
18.166,-0.536,-0.845,1.0
17.918,-0.533,-0.936,0.0
0.0,0.0,0.0,0.0
23.988,-0.726,-0.73,21.0
21.64,-0.661,-0.783,0.0
19.14,-0.589,-0.805,0.0
17.591,-0.546,-0.841,0.0
17.426,-0.546,-0.933,0.0
28.104,-0.887,-0.73,1.0
23.785,-0.757,-0.754,16.0
20.945,-0.672,-0.785,0.0
18.43,-0.597,-0.798,0.0
17.1,-0.558,-0.839,0.0
16.965,-0.559,-0.93,0.0
25.145,-0.834,-0.684,1.0
23.169,-0.774,-0.764,5.0
20.36,-0.686,-0.788,0.0
18.069,-0.614,-0.805,0.0
16.637,-0.57,-0.837,0.0
16.42,-0.567,-0.921,0.0
24.992,-0.868,-0.711,12.0
22.552,-0.79,-0.771,4.0
19.722,-0.696,-0.787,0.0
17.621,-0.627,-0.806,0.0
16.234,-0.582,-0.836,1.0
16.146,-0.584,-0.925,0.0
24.303,-0.884,-0.72,24.0
21.909,-0.803,-0.774,1.0
19.307,-0.713,-0.793,0.0
17.235,-0.641,-0.809,0.0
16.056,-0.602,-0.846,1.0
15.998,-0.604,-0.935,0.0
23.835,-0.905,-0.733,20.0
21.328,-0.816,-0.778,2.0
18.699,-0.721,-0.789,0.0
17.039,-0.662,-0.819,1.0
15.913,-0.622,-0.856,1.0
15.894,-0.626,-0.946,0.0
23.765,-0.942,-0.757,10.0
20.695,-0.826,-0.778,2.0
18.33,-0.737,-0.794,0.0
16.744,-0.678,-0.823,0.0
15.809,-0.645,-0.867,1.0
15.787,-0.648,-0.957,0.0
23.452,-0.968,-0.772,5.0
20.431,-0.849,-0.789,2.0
18.032,-0.755,-0.8,0.0
16.345,-0.689,-0.82,2.0
15.708,-0.666,-0.878,1.0
15.669,-0.669,-0.966,0.0
22.224,-0.954,-0.754,2.0
19.882,-0.859,-0.788,1.0
17.648,-0.768,-0.801,0.0
16.191,-0.709,-0.829,1.0
15.615,-0.689,-0.889,1.0
15.557,-0.691,-0.975,0.0
21.968,-0.979,-0.767,2.0
19.449,-0.873,-0.79,0.0
17.398,-0.786,-0.806,1.0
15.997,-0.727,-0.834,0.0
15.514,-0.71,-0.898,1.0
15.373,-0.708,-0.978,0.0
21.451,-0.992,-0.769,1.0
19.049,-0.887,-0.792,0.0
16.948,-0.794,-0.801,0.0
15.7,-0.74,-0.833,0.0
15.432,-0.732,-0.908,1.0
15.02,-0.717,-0.969,0.0
20.987,-1.006,-0.771,1.0
18.536,-0.894,-0.787,1.0
16.644,-0.808,-0.802,1.0
15.499,-0.757,-0.837,0.0
15.338,-0.754,-0.916,1.0
14.659,-0.725,-0.959,0.0
20.66,-1.025,-0.777,0.0
18.283,-0.913,-0.792,0.0
16.485,-0.828,-0.808,1.0
15.366,-0.776,-0.842,1.0
15.248,-0.775,-0.923,1.0
14.529,-0.743,-0.963,0.0
20.122,-1.033,-0.774,0.0
17.978,-0.928,-0.794,0.0
16.289,-0.846,-0.812,1.0
15.276,-0.798,-0.85,1.0
15.161,-0.797,-0.93,0.0
14.433,-0.763,-0.968,0.0
19.814,-1.05,-0.777,0.0
17.59,-0.938,-0.79,0.0
16.094,-0.863,-0.815,1.0
15.173,-0.819,-0.856,0.0
15.085,-0.818,-0.937,1.0
14.613,-0.798,-0.991,0.0
19.464,-1.065,-0.778,0.0
17.381,-0.956,-0.794,0.0
15.932,-0.881,-0.818,1.0
15.06,-0.838,-0.86,0.0
14.997,-0.839,-0.942,1.0
14.713,-0.828,-1.008,0.0
19.267,-1.087,-0.784,0.0
17.121,-0.971,-0.794,0.0
15.751,-0.898,-0.819,1.0
14.96,-0.858,-0.865,1.0
14.914,-0.86,-0.947,1.0
13.939,-0.808,-0.964,0.0
18.933,-1.1,-0.783,1.0
16.917,-0.988,-0.795,0.0
15.665,-0.92,-0.825,0.0
14.908,-0.88,-0.871,1.0
14.886,-0.884,-0.955,1.0
13.71,-0.818,-0.957,0.0
18.699,-1.118,-0.784,0.0
16.764,-1.008,-0.798,0.0
15.577,-0.941,-0.83,0.0
14.824,-0.9,-0.875,1.0
14.821,-0.905,-0.959,1.0
13.699,-0.841,-0.965,0.0
18.424,-1.133,-0.784,1.0
16.553,-1.023,-0.798,0.0
15.459,-0.96,-0.832,1.0
14.766,-0.922,-0.88,1.0
14.759,-0.926,-0.964,1.0
13.591,-0.857,-0.965,0.0
18.293,-1.156,-0.788,2.0
16.402,-1.041,-0.799,0.0
15.342,-0.979,-0.834,0.0
14.711,-0.943,-0.885,1.0
14.699,-0.948,-0.967,1.0
13.517,-0.876,-0.966,0.0
18.159,-1.178,-0.791,2.0
16.284,-1.061,-0.801,1.0
15.261,-1.0,-0.837,1.0
14.66,-0.965,-0.888,1.0
14.611,-0.966,-0.968,0.0
14.592,-0.97,-1.05,0.0
17.941,-1.194,-0.789,1.0
16.197,-1.083,-0.804,1.0
15.176,-1.02,-0.839,0.0
14.574,-0.984,-0.89,1.0
14.542,-0.986,-0.97,0.0
14.548,-0.992,-1.053,0.0
17.757,-1.212,-0.789,1.0
16.096,-1.104,-0.806,1.0
15.105,-1.04,-0.841,0.0
14.538,-1.006,-0.893,1.0
14.501,-1.008,-0.973,1.0
14.445,-1.009,-1.051,0.0
17.623,-1.232,-0.789,1.0
15.982,-1.122,-0.806,1.0
15.029,-1.061,-0.842,0.0
14.47,-1.026,-0.894,1.0
14.422,-1.027,-0.973,0.0
14.047,-1.005,-1.027,0.0
17.445,-1.249,-0.787,1.0
15.963,-1.147,-0.81,1.0
14.903,-1.076,-0.84,1.0
14.424,-1.046,-0.896,1.0
14.373,-1.047,-0.974,0.0
13.081,-0.957,-0.96,0.0
17.175,-1.258,-0.78,12.0
15.874,-1.168,-0.81,0.0
14.842,-1.096,-0.84,0.0
14.359,-1.065,-0.895,1.0
14.317,-1.067,-0.973,0.0
13.136,-0.983,-0.967,0.0
17.18,-1.287,-0.784,3.0
15.758,-1.185,-0.808,1.0
14.775,-1.116,-0.84,1.0
14.289,-1.084,-0.894,1.0
14.264,-1.086,-0.973,0.0
13.1,-1.002,-0.967,0.0
17.141,-1.312,-0.786,2.0
15.74,-1.209,-0.81,1.0
14.722,-1.136,-0.84,0.0
14.235,-1.103,-0.893,1.0
14.231,-1.107,-0.973,0.0
13.07,-1.021,-0.967,0.0
17.022,-1.33,-0.783,1.0
15.712,-1.233,-0.811,1.0
14.696,-1.157,-0.841,1.0
14.175,-1.121,-0.892,1.0
14.174,-1.126,-0.971,1.0
13.078,-1.043,-0.97,0.0
17.007,-1.356,-0.784,1.0
15.711,-1.258,-0.812,1.0
14.633,-1.176,-0.839,0.0
14.155,-1.142,-0.892,1.0
14.127,-1.145,-0.969,1.0
13.022,-1.059,-0.967,0.0
17.002,-1.383,-0.785,0.0
15.676,-1.28,-0.812,1.0
14.634,-1.199,-0.84,0.0
14.101,-1.16,-0.889,1.0
14.084,-1.163,-0.967,1.0
13.032,-1.081,-0.968,0.0
16.965,-1.407,-0.784,0.0
15.649,-1.302,-0.811,1.0
14.599,-1.22,-0.838,0.0
14.055,-1.179,-0.887,1.0
14.057,-1.183,-0.965,1.0
13.046,-1.102,-0.969,0.0
16.998,-1.436,-0.786,1.0
15.634,-1.326,-0.81,1.0
14.592,-1.242,-0.837,0.0
14.03,-1.198,-0.885,1.0
14.016,-1.202,-0.962,1.0
13.076,-1.125,-0.971,0.0
16.945,-1.458,-0.783,0.0
15.628,-1.349,-0.809,1.0
14.613,-1.266,-0.838,1.0
13.976,-1.215,-0.881,1.0
13.986,-1.22,-0.959,1.0
13.079,-1.146,-0.97,0.0
17.058,-1.494,-0.787,0.0
15.606,-1.371,-0.806,0.0
14.624,-1.289,-0.837,1.0
13.944,-1.234,-0.877,1.0
13.935,-1.237,-0.954,1.0
13.124,-1.169,-0.972,0.0
17.023,-1.516,-0.783,1.0
15.679,-1.401,-0.808,1.0
14.622,-1.311,-0.835,1.0
13.897,-1.25,-0.872,1.0
13.906,-1.256,-0.95,1.0
13.162,-1.192,-0.973,0.0
17.005,-1.54,-0.779,0.0
15.647,-1.421,-0.804,1.0
14.605,-1.331,-0.831,0.0
13.867,-1.268,-0.868,1.0
13.861,-1.272,-0.944,1.0
13.226,-1.218,-0.975,0.0
17.037,-1.568,-0.777,0.0
15.698,-1.449,-0.803,1.0
14.646,-1.356,-0.831,0.0
13.841,-1.286,-0.863,1.0
13.829,-1.289,-0.939,1.0
13.282,-1.242,-0.976,0.0
17.127,-1.6,-0.777,0.0
15.769,-1.478,-0.803,1.0
14.707,-1.383,-0.83,0.0
13.831,-1.305,-0.859,1.0
13.792,-1.305,-0.933,1.0
13.422,-1.274,-0.982,0.0
17.179,-1.63,-0.775,0.0
15.861,-1.509,-0.803,1.0
14.789,-1.411,-0.831,0.0
13.835,-1.324,-0.855,0.0
13.754,-1.321,-0.926,1.0
13.444,-1.295,-0.98,1.0
17.276,-1.663,-0.774,0.0
15.868,-1.532,-0.799,1.0
14.846,-1.437,-0.829,0.0
13.846,-1.345,-0.851,0.0
13.731,-1.337,-0.92,1.0
13.455,-1.315,-0.976,2.0
17.42,-1.701,-0.774,1.0
15.959,-1.562,-0.797,1.0
14.941,-1.467,-0.829,1.0
13.933,-1.372,-0.852,0.0
13.692,-1.352,-0.912,1.0
13.518,-1.339,-0.976,2.0
17.495,-1.731,-0.771,0.0
16.017,-1.589,-0.794,1.0
15.011,-1.494,-0.827,1.0
13.967,-1.394,-0.848,0.0
13.667,-1.368,-0.905,1.0
13.542,-1.359,-0.972,1.0
17.716,-1.776,-0.773,0.0
16.158,-1.624,-0.794,1.0
15.076,-1.52,-0.824,1.0
14.049,-1.42,-0.847,0.0
13.638,-1.382,-0.897,1.0
13.543,-1.377,-0.966,2.0
17.918,-1.82,-0.774,0.0
16.23,-1.653,-0.79,1.0
15.112,-1.543,-0.819,1.0
14.118,-1.445,-0.844,1.0
13.611,-1.397,-0.889,1.0
13.582,-1.398,-0.962,1.0
18.052,-1.856,-0.771,1.0
16.323,-1.682,-0.787,1.0
15.172,-1.568,-0.815,1.0
14.179,-1.469,-0.84,1.0
13.59,-1.412,-0.88,1.0
13.559,-1.412,-0.953,1.0
18.188,-1.892,-0.767,1.0
16.411,-1.712,-0.782,1.0
15.249,-1.594,-0.81,1.0
14.249,-1.493,-0.837,1.0
13.561,-1.425,-0.871,1.0
13.539,-1.426,-0.944,2.0
18.337,-1.93,-0.763,1.0
16.556,-1.746,-0.78,1.0
15.336,-1.621,-0.806,1.0
14.37,-1.523,-0.836,1.0
13.54,-1.439,-0.862,1.0
13.519,-1.44,-0.935,3.0
18.561,-1.975,-0.762,2.0
16.789,-1.79,-0.781,0.0
15.452,-1.652,-0.803,1.0
14.462,-1.549,-0.832,1.0
13.581,-1.458,-0.856,0.0
13.498,-1.453,-0.925,2.0
18.835,-2.025,-0.761,1.0
16.982,-1.83,-0.779,1.0
15.59,-1.684,-0.8,1.0
14.56,-1.576,-0.829,0.0
13.676,-1.484,-0.853,0.0
13.41,-1.458,-0.91,4.0
19.075,-2.072,-0.759,1.0
17.097,-1.861,-0.773,1.0
15.776,-1.721,-0.8,0.0
14.697,-1.607,-0.827,0.0
13.773,-1.509,-0.85,0.0
13.413,-1.473,-0.901,3.0
19.263,-2.113,-0.753,1.0
17.288,-1.9,-0.77,1.0
15.959,-1.758,-0.798,1.0
14.84,-1.638,-0.824,1.0
13.908,-1.538,-0.848,0.0
13.424,-1.488,-0.892,2.0
19.522,-2.162,-0.749,1.0
17.523,-1.944,-0.768,1.0
16.067,-1.786,-0.791,1.0
14.979,-1.668,-0.821,1.0
14.01,-1.564,-0.844,1.0
13.415,-1.5,-0.882,2.0
19.919,-2.225,-0.75,1.0
17.806,-1.993,-0.767,2.0
16.216,-1.818,-0.787,1.0
15.1,-1.697,-0.816,1.0
14.097,-1.587,-0.839,1.0
13.398,-1.511,-0.87,1.0
20.231,-2.28,-0.746,1.0
18.044,-2.037,-0.763,0.0
16.394,-1.854,-0.782,1.0
15.229,-1.725,-0.811,1.0
14.241,-1.617,-0.836,0.0
13.418,-1.526,-0.861,1.0
20.539,-2.333,-0.741,2.0
18.351,-2.088,-0.761,0.0
16.622,-1.895,-0.78,1.0
15.387,-1.757,-0.807,0.0
14.393,-1.647,-0.833,0.0
13.544,-1.552,-0.858,0.0
20.864,-2.389,-0.735,3.0
18.76,-2.151,-0.763,0.0
16.855,-1.936,-0.777,0.0
15.53,-1.787,-0.801,0.0
14.515,-1.673,-0.828,0.0
13.689,-1.58,-0.855,0.0
21.255,-2.451,-0.731,4.0
18.97,-2.191,-0.755,1.0
17.113,-1.98,-0.774,1.0
15.713,-1.821,-0.797,0.0
14.697,-1.706,-0.825,1.0
13.796,-1.604,-0.85,0.0
21.714,-2.522,-0.728,6.0
19.331,-2.248,-0.752,2.0
17.387,-2.025,-0.771,1.0
15.911,-1.856,-0.793,1.0
14.923,-1.744,-0.825,1.0
13.924,-1.629,-0.845,0.0
21.921,-2.563,-0.715,7.0
19.671,-2.303,-0.748,1.0
17.614,-2.065,-0.765,1.0
16.08,-1.888,-0.787,1.0
15.013,-1.765,-0.816,1.0
14.069,-1.657,-0.841,1.0
22.475,-2.644,-0.712,5.0
20.084,-2.365,-0.745,2.0
17.913,-2.112,-0.761,0.0
16.282,-1.923,-0.782,1.0
15.195,-1.797,-0.812,1.0
14.194,-1.681,-0.835,1.0
23.004,-2.721,-0.708,4.0
20.472,-2.425,-0.74,2.0
18.352,-2.176,-0.763,1.0
16.558,-1.966,-0.779,1.0
15.382,-1.829,-0.807,1.0
14.343,-1.708,-0.83,0.0
23.476,-2.792,-0.699,4.0
20.833,-2.481,-0.733,2.0
18.762,-2.237,-0.761,1.0
16.857,-2.012,-0.777,1.0
15.505,-1.853,-0.798,1.0
14.602,-1.747,-0.831,1.0
23.933,-2.861,-0.69,2.0
21.404,-2.561,-0.732,4.0
19.082,-2.286,-0.756,3.0
17.203,-2.063,-0.775,1.0
15.779,-1.895,-0.796,1.0
14.746,-1.773,-0.824,1.0
24.862,-2.986,-0.691,2.0
21.814,-2.623,-0.724,4.0
19.457,-2.342,-0.75,2.0
17.463,-2.104,-0.769,1.0
15.995,-1.929,-0.791,1.0
14.954,-1.805,-0.82,1.0
25.341,-3.057,-0.679,4.0
22.274,-2.689,-0.717,4.0
19.842,-2.398,-0.745,1.0
17.792,-2.152,-0.766,0.0
16.281,-1.971,-0.788,1.0
15.136,-1.834,-0.814,1.0
25.918,-3.138,-0.668,2.0
22.795,-2.763,-0.71,2.0
20.268,-2.458,-0.74,2.0
18.231,-2.213,-0.765,0.0
16.454,-1.999,-0.779,1.0
15.379,-1.87,-0.811,1.0
26.639,-3.237,-0.658,2.0
23.381,-2.843,-0.703,3.0
20.778,-2.529,-0.736,3.0
18.705,-2.278,-0.765,1.0
16.827,-2.051,-0.779,1.0
15.488,-1.89,-0.8,1.0
27.414,-3.342,-0.648,3.0
24.066,-2.936,-0.698,3.0
21.307,-2.601,-0.732,4.0
19.013,-2.323,-0.757,2.0
17.159,-2.098,-0.776,1.0
15.732,-1.925,-0.796,0.0
28.155,-3.442,-0.635,7.0
24.611,-3.01,-0.686,4.0
21.755,-2.663,-0.724,4.0
19.401,-2.376,-0.751,1.0
17.432,-2.136,-0.769,1.0
16.033,-1.966,-0.793,1.0
28.805,-3.53,-0.618,11.0
25.221,-3.092,-0.676,4.0
22.308,-2.737,-0.717,4.0
19.792,-2.429,-0.745,1.0
17.84,-2.191,-0.767,0.0
16.26,-1.998,-0.786,1.0
29.105,-3.574,-0.591,21.0
26.088,-3.205,-0.67,6.0
22.892,-2.813,-0.711,5.0
20.331,-2.5,-0.742,2.0
18.373,-2.26,-0.769,1.0
16.503,-2.031,-0.779,1.0
29.709,-3.654,-0.571,24.0
26.654,-3.279,-0.655,2.0
23.43,-2.884,-0.701,4.0
20.782,-2.559,-0.735,3.0
18.683,-2.301,-0.761,1.0
16.924,-2.086,-0.78,1.0
30.32,-3.734,-0.548,22.0
27.449,-3.381,-0.643,3.0
24.046,-2.963,-0.692,2.0
21.321,-2.628,-0.73,3.0
19.124,-2.358,-0.757,1.0
17.261,-2.129,-0.776,1.0
31.294,-3.858,-0.53,26.0
28.251,-3.483,-0.629,7.0
24.827,-3.062,-0.686,2.0
