X,Y,Z,Reflectivity
19.697,-1.486,-0.781,1.0
42.824,-3.234,-0.506,3.0
34.554,-2.622,-0.599,2.0
29.681,-2.262,-0.678,4.0
24.249,-1.857,-0.69,14.0
22.107,-1.701,-0.751,1.0
19.685,-1.521,-0.778,0.0
42.485,-3.286,-0.495,9.0
34.412,-2.673,-0.591,2.0
29.73,-2.32,-0.674,8.0
24.298,-1.904,-0.687,14.0
22.157,-1.744,-0.749,1.0
19.704,-1.558,-0.775,1.0
42.099,-3.331,-0.484,8.0
34.752,-2.761,-0.59,1.0
29.696,-2.37,-0.668,5.0
24.461,-1.961,-0.687,18.0
22.261,-1.792,-0.748,1.0
19.823,-1.603,-0.775,1.0
41.537,-3.36,-0.468,11.0
35.309,-2.868,-0.592,2.0
30.067,-2.452,-0.669,8.0
24.669,-2.021,-0.687,18.0
22.531,-1.853,-0.752,1.0
19.932,-1.646,-0.775,1.0
41.731,-3.449,-0.46,10.0
35.497,-2.945,-0.586,2.0
30.004,-2.5,-0.66,5.0
24.673,-2.064,-0.681,13.0
22.607,-1.899,-0.748,2.0
19.943,-1.682,-0.77,2.0
45.099,-3.805,-0.483,4.0
35.681,-3.022,-0.578,2.0
30.26,-2.573,-0.656,8.0
24.591,-2.099,-0.671,5.0
22.673,-1.943,-0.743,3.0
20.012,-1.722,-0.766,1.0
45.004,-3.874,-0.468,4.0
36.58,-3.161,-0.581,5.0
30.291,-2.627,-0.647,3.0
26.716,-2.326,-0.72,1.0
22.851,-1.997,-0.741,2.0
20.142,-1.767,-0.764,1.0
45.076,-3.956,-0.452,12.0
37.169,-3.274,-0.576,13.0
30.646,-2.709,-0.643,3.0
26.669,-2.367,-0.708,4.0
23.223,-2.068,-0.744,5.0
20.301,-1.815,-0.762,1.0
45.118,-4.035,-0.434,20.0
37.253,-3.343,-0.563,13.0
30.941,-2.787,-0.637,3.0
26.741,-2.417,-0.699,6.0
23.457,-2.128,-0.742,5.0
20.371,-1.855,-0.756,1.0
45.075,-4.104,-0.415,20.0
0.0,0.0,0.0,0.0
30.97,-2.84,-0.623,2.0
26.983,-2.483,-0.693,7.0
23.614,-2.18,-0.736,5.0
20.579,-1.907,-0.754,1.0
45.689,-4.234,-0.399,20.0
38.374,-3.568,-0.545,14.0
31.591,-2.947,-0.621,1.0
27.185,-2.545,-0.685,6.0
23.701,-2.226,-0.727,2.0
20.832,-1.963,-0.753,1.0
46.164,-4.351,-0.38,22.0
38.53,-3.643,-0.527,14.0
32.229,-3.057,-0.617,1.0
27.58,-2.625,-0.681,7.0
24.241,-2.315,-0.731,5.0
21.119,-2.024,-0.752,0.0
46.539,-4.459,-0.359,21.0
37.859,-3.638,-0.498,9.0
32.697,-3.152,-0.608,7.0
27.8,-2.688,-0.672,4.0
24.56,-2.383,-0.727,5.0
21.182,-2.062,-0.743,1.0
47.207,-4.594,-0.338,21.0
37.818,-3.691,-0.476,4.0
33.658,-3.295,-0.607,5.0
28.089,-2.758,-0.662,3.0
24.766,-2.439,-0.719,5.0
21.475,-2.122,-0.74,1.0
50.082,-4.948,-0.328,5.0
0.0,0.0,0.0,0.0
33.747,-3.354,-0.588,11.0
0.0,0.0,0.0,0.0
25.11,-2.51,-0.714,5.0
21.859,-2.192,-0.74,1.0
50.547,-5.068,-0.3,25.0
40.246,-4.047,-0.457,12.0
33.651,-3.394,-0.565,25.0
29.308,-2.964,-0.655,2.0
25.498,-2.586,-0.708,6.0
22.177,-2.256,-0.736,2.0
51.431,-5.231,-0.271,17.0
40.311,-4.111,-0.431,9.0
33.846,-3.461,-0.546,26.0
30.016,-3.078,-0.65,2.0
25.811,-2.655,-0.699,6.0
22.599,-2.331,-0.735,2.0
0.0,0.0,0.0,0.0
0.0,0.0,0.0,0.0
34.197,-3.545,-0.528,28.0
30.599,-3.18,-0.641,5.0
26.224,-2.733,-0.692,6.0
22.837,-2.387,-0.726,4.0
0.0,0.0,0.0,0.0
0.0,0.0,0.0,0.0
34.513,-3.624,-0.508,25.0
30.995,-3.263,-0.627,9.0
26.674,-2.816,-0.684,6.0
23.253,-2.461,-0.722,5.0
55.216,-5.843,-0.173,31.0
0.0,0.0,0.0,0.0
34.796,-3.7,-0.485,15.0
31.541,-3.362,-0.614,9.0
26.985,-2.884,-0.671,3.0
23.693,-2.538,-0.718,5.0
55.832,-5.98,-0.131,30.0
0.0,0.0,0.0,0.0
35.052,-3.772,-0.462,11.0
31.857,-3.436,-0.595,10.0
27.455,-2.969,-0.662,2.0
24.244,-2.628,-0.715,5.0
56.281,-6.098,-0.088,15.0
46.998,-5.104,-0.328,21.0
39.864,-4.339,-0.494,7.0
32.049,-3.497,-0.573,23.0
27.998,-3.062,-0.652,1.0
24.772,-2.716,-0.711,5.0
65.37,-7.164,-0.049,9.0
47.336,-5.198,-0.291,16.0
39.908,-4.392,-0.461,15.0
32.605,-3.597,-0.556,28.0
0.0,0.0,0.0,0.0
25.107,-2.782,-0.699,6.0
65.204,-7.222,0.005,1.0
49.657,-5.511,-0.264,23.0
40.077,-4.457,-0.429,15.0
33.165,-3.696,-0.537,30.0
29.867,-3.336,-0.645,8.0
25.52,-2.857,-0.689,5.0
65.111,-7.286,0.061,0.0
50.456,-5.657,-0.224,24.0
40.273,-4.525,-0.396,13.0
33.585,-3.781,-0.514,30.0
30.211,-3.408,-0.626,8.0
26.098,-2.95,-0.681,1.0
0.0,0.0,0.0,0.0
50.768,-5.748,-0.18,9.0
0.0,0.0,0.0,0.0
33.995,-3.864,-0.49,32.0
30.313,-3.452,-0.601,16.0
26.801,-3.058,-0.676,3.0
65.167,-7.434,0.178,16.0
55.48,-6.34,-0.146,19.0
44.912,-5.142,-0.36,7.0
34.499,-3.957,-0.466,25.0
30.726,-3.531,-0.58,14.0
27.285,-3.141,-0.662,2.0
65.249,-7.51,0.239,150.0
55.898,-6.445,-0.095,11.0
45.18,-5.218,-0.32,15.0
35.003,-4.05,-0.44,12.0
31.274,-3.625,-0.561,19.0
27.942,-3.245,-0.652,3.0
65.338,-7.585,0.301,5.0
56.445,-6.563,-0.042,2.0
47.364,-5.516,-0.29,22.0
39.771,-4.64,-0.462,8.0
32.183,-3.761,-0.547,31.0
28.874,-3.38,-0.645,8.0
80.009,-9.363,0.447,35.0
80.595,-9.447,0.017,20.0
48.125,-5.65,-0.248,22.0
39.937,-4.696,-0.424,15.0
32.788,-3.862,-0.524,27.0
29.202,-3.445,-0.624,16.0
80.099,-9.447,0.528,31.0
80.717,-9.534,0.098,19.0
48.654,-5.755,-0.201,9.0
40.134,-4.755,-0.386,15.0
33.402,-3.963,-0.501,28.0
29.672,-3.526,-0.604,21.0
80.109,-9.518,0.609,26.0
80.447,-9.571,0.179,22.0
50.397,-6.004,-0.158,9.0
40.332,-4.812,-0.347,10.0
33.962,-4.057,-0.475,27.0
30.106,-3.602,-0.582,25.0
80.17,-9.59,0.692,29.0
80.432,-9.634,0.262,36.0
55.666,-6.676,-0.117,16.0
45.815,-5.502,-0.346,15.0
34.574,-4.158,-0.447,26.0
30.717,-3.699,-0.562,20.0
80.211,-9.657,0.775,28.0
80.666,-9.723,0.346,19.0
56.119,-6.773,-0.059,5.0
46.212,-5.584,-0.301,21.0
39.692,-4.803,-0.471,5.0
31.535,-3.821,-0.544,19.0
80.302,-9.727,0.861,18.0
80.3,-9.738,0.43,35.0
80.882,-9.82,0.0,10.0
47.327,-5.752,-0.258,22.0
39.804,-4.844,-0.431,22.0
32.276,-3.932,-0.522,28.0
80.653,-9.826,0.951,6.0
80.286,-9.791,0.516,29.0
80.722,-9.854,0.086,22.0
48.096,-5.878,-0.21,22.0
40.033,-4.898,-0.39,18.0
33.044,-4.047,-0.499,27.0
192.144,-23.532,2.474,25.0
80.331,-9.847,0.603,33.0
80.645,-9.895,0.172,33.0
49.907,-6.13,-0.165,24.0
40.277,-4.952,-0.349,15.0
33.733,-4.152,-0.473,29.0
192.078,-23.638,2.682,27.0
80.34,-9.895,0.69,33.0
80.55,-9.93,0.261,29.0
55.627,-6.864,-0.123,12.0
45.569,-5.628,-0.344,7.0
34.39,-4.252,-0.444,24.0
192.119,-23.75,2.892,26.0
80.421,-9.949,0.78,28.0
80.407,-9.955,0.349,6.0
55.932,-6.931,-0.062,6.0
46.06,-5.712,-0.297,20.0
39.708,-4.929,-0.469,4.0
192.13,-23.849,3.106,22.0
80.498,-9.999,0.87,15.0
80.48,-10.003,0.438,4.0
69.273,-8.617,0.0,11.0
46.997,-5.851,-0.251,21.0
39.796,-4.958,-0.426,23.0
192.088,-23.933,3.32,26.0
192.102,-23.949,2.289,17.0
80.49,-10.04,0.528,8.0
69.061,-8.621,0.076,12.0
48.102,-6.008,-0.203,22.0
40.007,-5.001,-0.384,22.0
192.14,-24.019,3.535,8.0
192.021,-24.016,2.504,30.0
80.565,-10.082,0.619,12.0
68.778,-8.612,0.154,3.0
49.741,-6.232,-0.154,12.0
40.268,-5.048,-0.341,12.0
197.314,-24.739,3.853,5.0
191.936,-24.076,2.721,28.0
80.516,-10.104,0.71,23.0
68.716,-8.628,0.232,7.0
55.719,-7.0,-0.11,10.0
45.501,-5.719,-0.333,10.0
139.528,-17.539,2.883,9.0
192.024,-24.147,2.94,42.0
80.56,-10.134,0.802,12.0
68.654,-8.64,0.308,2.0
56.243,-7.081,-0.047,4.0
45.994,-5.794,-0.285,21.0
139.532,-17.579,3.044,24.0
192.014,-24.198,3.159,35.0
68.279,-8.607,0.758,3.0
68.351,-8.619,0.386,2.0
68.654,-8.66,0.02,7.0
47.196,-5.956,-0.238,21.0
139.486,-17.606,3.201,27.0
192.015,-24.241,3.376,21.0
191.977,-24.241,2.348,24.0
68.447,-8.645,0.465,3.0
68.457,-8.649,0.098,2.0
48.474,-6.126,-0.189,22.0
63.133,-7.98,1.521,7.0
197.16,-24.925,3.695,6.0
191.95,-24.27,2.57,29.0
68.358,-8.644,0.542,3.0
68.32,-8.641,0.176,2.0
50.19,-6.35,-0.138,9.0
63.117,-7.987,1.593,24.0
197.319,-24.971,3.924,15.0
191.938,-24.291,2.789,28.0
68.288,-8.643,0.619,3.0
68.312,-8.647,0.255,2.0
55.864,-7.073,-0.09,13.0
63.088,-7.989,1.664,33.0
139.626,-17.682,2.936,6.0
191.922,-24.303,3.009,27.0
68.27,-8.645,0.698,8.0
68.259,-8.644,0.332,1.0
60.973,-7.722,-0.028,3.0
63.085,-7.992,1.736,32.0
139.702,-17.696,3.096,13.0
191.97,-24.315,3.229,27.0
68.276,-8.647,0.775,6.0
68.238,-8.642,0.409,2.0
68.412,-8.664,0.044,2.0
63.089,-7.992,1.809,28.0
139.602,-17.682,3.255,18.0
191.896,-24.302,3.444,16.0
191.937,-24.303,2.398,23.0
68.333,-8.651,0.488,4.0
68.371,-8.655,0.122,2.0
63.064,-7.986,1.88,25.0
63.111,-7.99,1.542,17.0
197.372,-24.982,3.767,8.0
191.981,-24.294,2.619,32.0
68.392,-8.653,0.566,2.0
68.348,-8.646,0.199,1.0
63.142,-7.991,1.954,29.0
63.113,-7.984,1.614,35.0
197.531,-24.98,3.993,12.0
191.895,-24.26,2.832,26.0
68.33,-8.636,0.642,3.0
68.378,-8.64,0.276,1.0
63.299,-8.002,2.03,24.0
63.071,-7.969,1.684,38.0
139.651,-17.638,2.98,18.0
191.989,-24.24,3.047,32.0
68.329,-8.623,0.719,4.0
68.534,-8.647,0.353,1.0
63.41,-8.004,2.104,6.0
63.084,-7.959,1.755,34.0
139.553,-17.597,3.134,28.0
191.989,-24.198,3.264,30.0
192.003,-24.189,2.235,15.0
68.626,-8.642,0.431,2.0
139.719,-17.605,4.792,11.0
63.155,-7.953,1.827,33.0
139.483,-17.553,3.289,19.0
192.012,-24.151,3.477,22.0
191.983,-24.135,2.447,31.0
80.581,-10.125,0.595,7.0
84.523,-10.626,2.993,8.0
63.189,-7.938,1.898,29.0
63.05,-7.916,1.556,14.0
197.275,-24.752,3.791,9.0
191.988,-24.074,2.66,29.0
80.528,-10.092,0.683,24.0
84.477,-10.593,3.084,23.0
63.221,-7.921,1.969,3.0
63.103,-7.901,1.625,21.0
139.508,-17.455,2.831,11.0
192.059,-24.014,2.869,37.0
80.521,-10.061,0.77,25.0
84.556,-10.572,3.178,14.0
139.27,-17.399,4.486,14.0
63.074,-7.873,1.692,23.0
139.632,-17.415,2.984,24.0
192.088,-23.94,3.074,30.0
80.492,-10.024,0.856,13.0
84.539,-10.535,3.268,6.0
85.368,-10.628,2.842,10.0
63.106,-7.85,1.761,14.0
139.57,-17.346,3.131,23.0
192.115,-23.856,3.278,18.0
192.026,-23.826,2.245,18.0
126.797,-15.743,5.038,3.0
84.97,-10.539,2.919,15.0
141.631,-17.55,4.102,3.0
139.673,-17.29,3.281,14.0
189.124,-23.391,3.425,6.0
192.126,-23.741,2.447,30.0
137.716,-17.029,5.617,4.0
84.711,-10.463,2.999,24.0
139.122,-17.165,4.177,13.0
165.445,-20.392,4.058,11.0
189.01,-23.273,3.622,16.0
192.144,-23.637,2.647,28.0
137.117,-16.881,5.733,4.0
84.617,-10.405,3.082,18.0
139.135,-17.089,4.318,11.0
165.304,-20.281,4.222,17.0
188.46,-23.097,3.799,17.0
192.18,-23.528,2.84,14.0
137.068,-16.794,5.868,12.0
84.576,-10.349,3.166,15.0
84.215,-10.292,2.697,13.0
165.205,-20.167,4.385,18.0
188.388,-22.97,3.986,19.0
188.574,-22.967,2.975,7.0
137.12,-16.714,6.007,13.0
84.846,-10.328,3.26,15.0
84.404,-10.261,2.787,28.0
85.75,-10.411,2.36,4.0
188.135,-22.814,4.165,14.0
153.762,-18.623,2.576,14.0
137.061,-16.614,6.141,17.0
85.191,-10.311,3.356,11.0
84.487,-10.212,2.873,29.0
85.69,-10.343,2.442,5.0
153.795,-18.539,3.553,13.0
153.717,-18.506,2.723,21.0
84.3,-10.157,3.858,5.0
84.792,-10.202,3.421,16.0
84.497,-10.151,2.953,30.0
84.152,-10.095,2.478,23.0
139.033,-16.655,3.343,17.0
153.708,-18.388,2.867,14.0
137.393,-16.451,6.417,12.0
84.176,-10.062,3.476,18.0
84.608,-10.099,3.035,26.0
84.187,-10.033,2.558,36.0
139.14,-16.558,3.474,21.0
85.349,-10.142,1.669,4.0
137.156,-16.313,6.53,17.0
84.068,-9.981,3.548,26.0
84.652,-10.035,3.114,23.0
84.256,-9.972,2.635,37.0
139.204,-16.449,3.601,18.0
85.374,-10.073,1.746,13.0
137.001,-16.179,6.646,13.0
83.804,-9.879,3.611,33.0
84.081,-9.895,3.168,31.0
84.182,-9.89,2.707,40.0
84.232,-9.879,2.253,14.0
85.398,-10.0,1.823,7.0
118.862,-13.932,5.87,9.0
83.903,-9.816,3.689,37.0
83.722,-9.777,3.227,34.0
82.822,-9.655,2.735,14.0
84.245,-9.804,2.325,36.0
85.484,-9.931,1.897,15.0
83.892,-9.755,4.215,21.0
84.028,-9.752,3.765,29.0
83.759,-9.703,3.299,36.0
83.914,-9.703,2.841,22.0
84.131,-9.71,2.392,49.0
0.0,0.0,0.0,0.0
83.952,-9.681,4.288,31.0
83.993,-9.666,3.833,32.0
83.808,-9.626,3.369,41.0
83.578,-9.582,2.898,26.0
83.161,-9.516,2.432,32.0
0.0,0.0,0.0,0.0
84.217,-9.628,4.369,28.0
83.824,-9.563,3.892,37.0
83.93,-9.555,3.44,38.0
82.816,-9.409,2.936,32.0
82.939,-9.404,2.49,34.0
82.321,-9.316,2.025,18.0
84.422,-9.563,4.445,31.0
83.753,-9.467,3.953,42.0
82.49,-9.304,3.445,21.0
82.464,-9.281,2.987,36.0
82.379,-9.253,2.535,32.0
82.143,-9.208,2.083,31.0
84.545,-9.486,4.515,48.0
83.755,-9.377,4.015,36.0
82.916,-9.262,3.523,30.0
82.409,-9.185,3.045,41.0
82.184,-9.141,2.588,33.0
82.004,-9.102,2.138,31.0
83.963,-9.328,4.543,30.0
84.016,-9.312,4.088,37.0
82.63,-9.138,3.57,29.0
82.45,-9.097,3.104,39.0
81.941,-9.02,2.639,37.0
81.942,-9.001,2.192,32.0
83.808,-9.215,4.593,31.0
83.842,-9.196,4.137,40.0
82.761,-9.056,3.632,26.0
82.491,-9.006,3.161,36.0
81.871,-8.917,2.69,39.0
81.808,-8.89,2.243,46.0
83.835,-9.119,4.65,21.0
83.834,-9.096,4.191,41.0
82.811,-8.962,3.688,29.0
82.341,-8.89,3.208,38.0
82.035,-8.835,2.749,56.0
81.654,-8.774,2.29,35.0
84.386,-9.076,4.734,29.0
84.127,-9.025,4.259,36.0
84.106,-8.999,3.798,28.0
82.402,-8.795,3.261,33.0
82.169,-8.748,2.804,61.0
81.834,-8.691,2.345,44.0
84.359,-8.967,4.783,39.0
84.597,-8.969,4.333,25.0
84.162,-8.899,3.85,24.0
82.485,-8.7,3.312,33.0
82.512,-8.68,2.863,42.0
81.905,-8.595,2.394,46.0
84.475,-8.872,4.838,26.0
83.962,-8.793,4.348,20.0
84.461,-8.822,3.911,25.0
82.037,-8.545,3.34,44.0
82.543,-8.576,2.908,36.0
81.812,-8.478,2.435,40.0
84.369,-8.75,4.877,42.0
83.7,-8.656,4.379,37.0
84.075,-8.671,3.936,19.0
81.987,-8.432,3.38,44.0
82.086,-8.419,2.934,45.0
81.965,-8.383,2.481,51.0
84.586,-8.658,4.933,36.0
82.144,-8.384,4.338,31.0
83.383,-8.486,3.945,25.0
81.996,-8.321,3.421,47.0
81.997,-8.297,2.971,42.0
82.53,-8.328,2.537,39.0
83.94,-8.477,4.934,29.0
82.174,-8.274,4.378,31.0
82.171,-8.249,3.925,29.0
82.011,-8.208,3.458,22.0
81.976,-8.182,3.006,46.0
82.171,-8.177,2.562,39.0
84.04,-8.37,4.977,35.0
83.043,-8.245,4.46,37.0
82.006,-8.118,3.952,48.0
81.885,-8.082,3.487,27.0
82.022,-8.071,3.041,41.0
82.119,-8.056,2.594,46.0
83.65,-8.212,4.987,30.0
0.0,0.0,0.0,0.0
81.905,-7.989,3.979,45.0
82.031,-7.976,3.525,22.0
82.067,-7.955,3.074,44.0
82.001,-7.925,2.621,38.0
83.412,-8.066,5.004,32.0
81.836,-7.888,4.456,15.0
82.011,-7.879,4.014,39.0
81.854,-7.838,3.546,36.0
82.304,-7.857,3.111,36.0
81.863,-7.79,2.644,40.0
83.485,-7.948,5.036,27.0
0.0,0.0,0.0,0.0
82.073,-7.762,4.042,42.0
81.872,-7.717,3.572,25.0
81.975,-7.702,3.124,37.0
81.862,-7.666,2.668,41.0
83.465,-7.82,5.059,28.0
83.36,-7.782,4.591,46.0
82.217,-7.65,4.073,35.0
81.746,-7.581,3.589,39.0
81.776,-7.557,3.138,49.0
81.932,-7.547,2.692,41.0
83.765,-7.72,5.098,34.0
83.461,-7.664,4.617,57.0
82.09,-7.512,4.087,30.0
81.749,-7.454,3.609,38.0
81.7,-7.424,3.154,41.0
82.25,-7.448,2.721,42.0
84.157,-7.624,5.142,35.0
83.713,-7.556,4.649,50.0
82.863,-7.452,4.142,54.0
81.97,-7.346,3.635,38.0
81.839,-7.308,3.176,47.0
82.208,-7.315,2.735,42.0
84.456,-7.517,5.175,35.0
83.365,-7.391,4.644,39.0
82.893,-7.323,4.158,41.0
81.853,-7.204,3.643,39.0
81.976,-7.188,3.194,52.0
82.322,-7.193,2.751,38.0
86.371,-7.548,5.305,12.0
83.269,-7.249,4.651,30.0
83.072,-7.204,4.178,36.0
81.705,-7.059,3.647,35.0
81.931,-7.052,3.202,40.0
82.297,-7.058,2.759,46.0
84.594,-7.257,5.204,14.0
83.951,-7.173,4.697,25.0
83.251,-7.086,4.195,39.0
82.439,-6.99,3.687,24.0
82.064,-6.932,3.214,39.0
82.136,-6.912,2.76,45.0
86.225,-7.256,5.31,23.0
83.782,-7.022,4.692,43.0
83.417,-6.963,4.207,43.0
83.301,-6.926,3.729,48.0
81.914,-6.784,3.211,34.0
82.214,-6.782,2.766,40.0
86.899,-7.169,5.354,11.0
83.583,-6.867,4.683,41.0
83.182,-6.805,4.196,39.0
83.932,-6.838,3.757,31.0
82.76,-6.716,3.244,38.0
82.462,-6.665,2.773,48.0
85.327,-6.896,5.256,11.0
83.456,-6.716,4.675,42.0
83.051,-6.654,4.188,37.0
83.659,-6.675,3.743,39.0
82.438,-6.551,3.229,35.0
82.467,-6.527,2.77,45.0
83.814,-6.632,5.158,15.0
83.577,-6.585,4.676,45.0
83.145,-6.521,4.187,40.0
84.558,-6.604,3.777,21.0
82.371,-6.407,3.22,30.0
82.513,-6.39,2.765,36.0
84.436,-6.536,5.189,23.0
83.565,-6.44,4.667,44.0
83.417,-6.4,4.191,38.0
86.383,-6.598,3.849,15.0
82.721,-6.291,3.223,40.0
82.713,-6.263,2.761,39.0
84.212,-6.373,5.163,30.0
83.877,-6.319,4.673,56.0
83.315,-6.248,4.174,39.0
83.415,-6.228,3.703,22.0
82.734,-6.149,3.211,39.0
82.857,-6.131,2.752,35.0
84.187,-6.226,5.147,38.0
84.411,-6.212,4.687,42.0
83.476,-6.116,4.167,39.0
83.428,-6.083,3.688,40.0
82.949,-6.02,3.202,43.0
82.729,-5.976,2.73,39.0
84.418,-6.094,5.143,33.0
84.622,-6.079,4.68,28.0
83.423,-5.965,4.145,19.0
83.712,-5.957,3.681,49.0
82.951,-5.876,3.182,39.0
82.98,-5.85,2.718,43.0
24.521,-1.727,1.487,18.0
84.246,-5.906,4.637,26.0
85.529,-5.967,4.227,12.0
24.575,-1.706,1.074,4.0
24.552,-1.696,0.935,28.0
24.563,-1.689,0.798,13.0
24.464,-1.68,1.477,64.0
24.498,-1.674,1.341,44.0
24.498,-1.666,1.203,29.0
24.466,-1.655,1.061,23.0
24.472,-1.647,0.924,32.0
24.511,-1.642,0.788,34.0
24.445,-1.636,1.467,68.0
24.471,-1.629,1.331,75.0
24.481,-1.621,1.193,58.0
24.469,-1.612,1.052,38.0
24.455,-1.603,0.914,67.0
24.499,-1.598,0.778,61.0
24.43,-1.591,1.457,56.0
24.462,-1.585,1.321,86.0
24.469,-1.576,1.183,85.0
24.462,-1.568,1.043,47.0
24.455,-1.559,0.905,88.0
24.493,-1.554,0.768,65.0
24.394,-1.545,1.445,35.0
24.448,-1.54,1.31,76.0
24.454,-1.532,1.172,62.0
24.454,-1.524,1.032,42.0
24.468,-1.516,0.894,69.0
24.51,-1.51,0.758,59.0
24.404,-1.501,1.434,45.0
24.448,-1.496,1.298,76.0
24.466,-1.488,1.161,41.0
24.503,-1.482,1.022,32.0
24.491,-1.473,0.883,52.0
24.548,-1.469,0.747,72.0
24.416,-1.458,1.422,44.0
24.465,-1.453,1.287,68.0
24.501,-1.447,1.15,71.0
24.503,-1.439,1.009,46.0
24.539,-1.433,0.872,47.0
24.577,-1.427,0.735,49.0
24.448,-1.416,1.411,74.0
24.52,-1.412,1.276,44.0
24.561,-1.406,1.139,36.0
24.567,-1.399,0.998,9.0
24.607,-1.393,0.861,6.0
24.638,-1.386,0.723,2.0
28.417,-1.596,1.624,36.0
28.427,-1.586,1.463,67.0
83.664,-4.642,3.832,38.0
83.474,-4.605,3.343,30.0
83.569,-4.582,2.874,58.0
84.095,-4.583,2.416,40.0
28.429,-1.545,1.606,73.0
28.415,-1.535,1.445,66.0
83.47,-4.481,3.77,26.0
83.66,-4.463,3.296,40.0
84.614,-4.487,2.855,59.0
84.323,-4.445,2.368,45.0
28.424,-1.494,1.588,72.0
28.418,-1.484,1.426,60.0
84.676,-4.395,3.768,38.0
83.623,-4.314,3.239,15.0
85.002,-4.357,2.81,39.0
84.714,-4.314,2.321,35.0
28.419,-1.443,1.567,76.0
28.403,-1.432,1.405,40.0
85.831,-4.301,3.758,40.0
85.425,-4.252,3.247,20.0
85.814,-4.244,2.775,38.0
84.748,-4.164,2.26,33.0
28.413,-1.391,1.546,79.0
86.042,-4.184,4.191,20.0
85.747,-4.141,3.69,15.0
162.262,-7.787,6.044,4.0
85.671,-4.083,2.704,20.0
84.974,-4.023,2.2,35.0
28.402,-1.339,1.523,20.0
163.537,-7.66,7.838,16.0
159.664,-7.426,6.743,33.0
165.797,-7.657,6.041,17.0
86.154,-3.951,2.65,17.0
85.131,-3.876,2.134,36.0
161.237,-7.314,8.512,15.0
0.0,0.0,0.0,0.0
165.493,-7.4,6.851,20.0
165.761,-7.358,5.901,17.0
31.335,-1.381,0.937,17.0
28.454,-1.245,0.689,57.0
31.281,-1.363,1.624,27.0
28.445,-1.23,1.314,52.0
28.439,-1.221,1.152,58.0
28.429,-1.211,0.987,65.0
28.424,-1.202,0.824,97.0
28.436,-1.194,0.663,106.0
28.409,-1.187,1.449,62.0
28.422,-1.179,1.287,107.0
28.426,-1.169,1.125,125.0
28.437,-1.161,0.961,141.0
28.445,-1.152,0.799,133.0
28.434,-1.143,0.636,87.0
28.415,-1.137,1.422,67.0
28.433,-1.128,1.261,68.0
28.443,-1.119,1.098,64.0
28.459,-1.111,0.934,58.0
31.262,-1.211,0.848,25.0
31.253,-1.202,0.67,45.0
31.227,-1.194,1.532,57.0
31.254,-1.186,1.355,69.0
31.23,-1.175,1.176,42.0
31.278,-1.167,0.996,63.0
31.305,-1.158,0.818,49.0
31.309,-1.149,0.639,42.0
31.246,-1.141,1.502,43.0
31.298,-1.133,1.325,54.0
31.269,-1.122,1.145,39.0
31.292,-1.114,0.964,35.0
31.357,-1.106,0.787,32.0
151.139,-5.289,2.932,3.0
31.303,-1.088,1.472,48.0
38.685,-1.333,1.597,9.0
38.702,-1.322,1.376,17.0
38.698,-1.31,1.151,21.0
38.677,-1.298,0.929,50.0
38.675,-1.286,0.708,36.0
38.584,-1.275,1.772,61.0
38.664,-1.266,1.554,81.0
38.617,-1.252,1.33,63.0
38.594,-1.24,1.105,66.0
38.617,-1.229,0.885,66.0
38.646,-1.219,0.664,71.0
38.59,-1.208,1.728,74.0
38.652,-1.199,1.509,88.0
38.59,-1.186,1.286,61.0
38.575,-1.174,1.06,70.0
38.627,-1.164,0.841,111.0
38.639,-1.153,0.62,88.0
38.64,-1.144,1.685,96.0
38.635,-1.133,1.464,76.0
38.561,-1.119,1.239,67.0
38.594,-1.109,1.016,73.0
38.646,-1.1,0.796,83.0
38.636,-1.088,0.574,63.0
38.646,-1.08,1.639,82.0
38.635,-1.068,1.417,40.0
38.571,-1.055,1.193,60.0
38.612,-1.045,0.969,71.0
38.676,-1.036,0.749,56.0
38.677,-1.025,0.527,41.0
45.781,-1.202,1.885,10.0
45.714,-1.188,1.62,6.0
38.671,-0.994,1.148,50.0
38.69,-0.983,0.923,50.0
0.0,0.0,0.0,0.0
40.429,-1.005,0.501,27.0
40.429,-0.995,1.613,27.0
40.421,-0.983,1.38,29.0
38.703,-0.931,1.1,50.0
40.4,-0.96,0.912,37.0
40.416,-0.95,0.68,38.0
40.416,-0.939,0.449,46.0
40.399,-0.929,1.56,39.0
40.4,-0.918,1.328,43.0
40.416,-0.907,1.096,33.0
38.398,-0.851,0.816,12.0
38.39,-0.84,0.596,36.0
38.383,-0.83,0.375,54.0
45.672,-0.976,1.703,5.0
45.71,-0.964,1.441,44.0
45.722,-0.952,1.178,9.0
38.397,-0.789,0.765,4.0
52.957,-1.074,0.75,43.0
52.939,-1.06,0.446,63.0
45.703,-0.904,1.641,52.0
64.295,-1.255,1.939,78.0
190.955,-3.676,4.66,9.0
191.781,-3.641,3.557,5.0
193.186,-3.615,2.471,22.0
81.811,-1.51,0.577,5.0
64.294,-1.171,2.219,87.0
64.293,-1.154,1.848,83.0
190.775,-3.375,4.388,18.0
176.649,-3.076,3.026,39.0
176.644,-3.03,2.009,121.0
20.122,-0.339,0.113,13.0
64.286,-1.07,2.126,83.0
64.312,-1.053,1.756,39.0
53.509,-0.862,1.152,77.0
20.151,-0.319,0.315,5.0
20.12,-0.313,0.199,12.0
20.138,-0.308,0.083,24.0
53.499,-0.807,1.689,69.0
59.417,-0.881,1.534,71.0
20.151,-0.293,0.403,8.0
20.116,-0.288,0.285,11.0
20.123,-0.283,0.169,9.0
59.523,-0.822,0.158,47.0
53.498,-0.726,1.609,123.0
20.167,-0.268,0.49,8.0
20.131,-0.263,0.373,13.0
20.13,-0.258,0.255,9.0
20.149,-0.253,0.139,1.0
59.606,-0.735,0.068,7.0
53.494,-0.647,1.528,76.0
20.136,-0.238,0.459,13.0
20.146,-0.233,0.342,10.0
64.226,-0.729,0.716,10.0
56.162,-0.624,0.302,10.0
56.235,-0.61,-0.022,0.0
20.157,-0.214,0.544,10.0
20.173,-0.209,0.428,23.0
53.395,-0.541,0.825,10.0
53.351,-0.528,0.511,12.0
53.351,-0.515,0.203,5.0
53.354,-0.503,-0.104,4.0
20.153,-0.185,0.512,9.0
20.231,-0.181,0.397,14.0
66.522,-0.579,0.922,20.0
58.322,-0.494,0.465,17.0
20.194,-0.166,0.044,5.0
20.195,-0.161,-0.071,14.0
20.194,-0.157,0.48,19.0
20.205,-0.152,0.364,19.0
20.154,-0.147,0.247,15.0
20.139,-0.142,0.128,14.0
20.149,-0.138,0.012,24.0
20.155,-0.133,-0.104,23.0
20.12,-0.128,0.446,17.0
20.137,-0.124,0.33,21.0
20.111,-0.119,0.213,19.0
20.128,-0.115,0.095,34.0
20.134,-0.11,-0.02,32.0
20.142,-0.106,-0.137,34.0
20.131,-0.101,0.413,31.0
20.118,-0.096,0.296,27.0
20.13,-0.092,0.18,27.0
20.129,-0.088,0.061,38.0
20.139,-0.083,-0.054,28.0
20.143,-0.079,-0.17,35.0
20.117,-0.074,0.379,34.0
20.114,-0.07,0.262,27.0
20.12,-0.065,0.146,29.0
20.125,-0.061,0.027,34.0
20.137,-0.057,-0.088,34.0
20.14,-0.052,-0.205,15.0
20.118,-0.048,0.344,34.0
20.122,-0.044,0.228,36.0
20.124,-0.039,0.111,36.0
20.128,-0.035,-0.006,32.0
20.166,-0.031,-0.123,26.0
20.166,-0.027,-0.24,10.0
20.133,-0.022,0.309,31.0
20.118,-0.018,0.193,29.0
20.138,-0.014,0.076,29.0
20.237,-0.01,-0.042,27.0
20.25,-0.006,-0.159,36.0
20.274,-0.002,-0.276,69.0
20.129,0.001,0.274,28.0
20.125,0.005,0.158,26.0
20.246,0.009,0.042,151.0
20.254,0.013,-0.077,151.0
20.258,0.017,-0.194,151.0
20.265,0.022,-0.312,150.0
20.132,0.026,0.239,27.0
20.146,0.03,0.122,28.0
20.249,0.034,0.005,9.0
20.239,0.038,-0.113,24.0
20.221,0.042,-0.23,6.0
20.266,0.046,-0.348,0.0
20.149,0.049,0.203,30.0
20.183,0.053,0.086,22.0
20.212,0.057,-0.03,33.0
20.211,0.061,-0.149,27.0
20.238,0.065,-0.267,1.0
41.098,0.141,-0.782,0.0
20.156,0.073,0.166,27.0
20.198,0.077,0.049,32.0
20.197,0.081,-0.067,30.0
20.195,0.084,-0.186,22.0
20.196,0.088,-0.304,14.0
0.0,0.0,0.0,0.0
20.174,0.095,0.129,26.0
20.179,0.099,0.012,27.0
20.178,0.103,-0.104,36.0
20.184,0.107,-0.224,28.0
20.205,0.11,-0.341,25.0
20.188,0.114,-0.458,0.0
20.196,0.117,0.091,34.0
20.181,0.121,-0.025,26.0
20.174,0.125,-0.142,34.0
20.176,0.128,-0.262,32.0
20.198,0.132,-0.379,27.0
20.19,0.136,-0.496,10.0
20.217,0.139,0.053,24.0
20.211,0.143,-0.063,23.0
20.16,0.146,-0.18,19.0
20.175,0.149,-0.3,32.0
20.18,0.153,-0.417,26.0
20.194,0.156,-0.535,22.0
20.296,0.16,0.015,27.0
20.221,0.163,-0.102,21.0
20.172,0.166,-0.219,27.0
20.175,0.17,-0.338,32.0
20.186,0.173,-0.456,25.0
20.192,0.176,-0.573,25.0
20.313,0.18,-0.023,20.0
20.195,0.183,-0.14,16.0
20.17,0.186,-0.257,27.0
20.179,0.189,-0.377,33.0
20.185,0.192,-0.494,30.0
20.191,0.196,-0.612,31.0
20.265,0.199,-0.062,0.0
20.172,0.201,-0.178,11.0
20.184,0.204,-0.296,27.0
20.183,0.208,-0.415,28.0
20.192,0.211,-0.532,32.0
20.209,0.214,-0.651,33.0
0.0,0.0,0.0,0.0
20.182,0.219,-0.217,18.0
20.19,0.222,-0.335,26.0
20.151,0.225,-0.453,19.0
20.186,0.229,-0.572,30.0
20.207,0.232,-0.69,29.0
0.0,0.0,0.0,0.0
20.19,0.237,-0.256,11.0
20.177,0.24,-0.374,20.0
20.162,0.242,-0.493,20.0
20.204,0.246,-0.611,27.0
20.203,0.249,-0.729,25.0
0.0,0.0,0.0,0.0
20.204,0.254,-0.296,3.0
20.214,0.257,-0.414,15.0
20.212,0.26,-0.533,24.0
20.222,0.263,-0.651,24.0
20.232,0.266,-0.77,24.0
0.0,0.0,0.0,0.0
20.217,0.27,-0.336,0.0
20.207,0.273,-0.453,2.0
20.208,0.275,-0.573,9.0
20.216,0.278,-0.691,8.0
20.209,0.281,-0.809,9.0
0.0,0.0,0.0,0.0
0.0,0.0,0.0,0.0
0.0,0.0,0.0,0.0
20.185,0.29,-0.612,0.0
24.906,0.361,-0.901,0.0
20.137,0.295,-0.845,7.0
0.0,0.0,0.0,0.0
37.898,0.562,-0.779,0.0
31.968,0.478,-0.843,1.0
26.99,0.407,-0.871,0.0
23.497,0.357,-0.896,0.0
20.247,0.31,-0.89,11.0
0.0,0.0,0.0,0.0
0.0,0.0,0.0,0.0
30.739,0.48,-0.871,0.0
25.853,0.407,-0.886,0.0
20.151,0.32,-0.808,0.0
20.246,0.324,-0.93,3.0
0.0,0.0,0.0,0.0
33.888,0.547,-0.83,1.0
28.438,0.462,-0.862,0.0
24.674,0.404,-0.894,0.0
20.104,0.332,-0.846,7.0
19.846,0.329,-0.951,0.0
37.493,0.624,-0.775,0.0
31.783,0.533,-0.842,1.0
26.779,0.451,-0.865,0.0
23.339,0.396,-0.892,0.0
20.354,0.348,-0.897,3.0
18.489,0.318,-0.923,0.0
34.188,0.589,-0.775,0.0
30.091,0.521,-0.857,0.0
25.85,0.45,-0.887,0.0
22.509,0.394,-0.906,0.0
19.934,0.351,-0.918,0.0
17.908,0.317,-0.93,0.0
34.019,0.604,-0.839,2.0
28.71,0.512,-0.875,0.0
24.456,0.439,-0.888,0.0
20.152,0.364,-0.851,0.0
19.049,0.346,-0.916,0.0
17.16,0.313,-0.925,0.0
31.658,0.578,-0.844,1.0
26.58,0.487,-0.863,0.0
23.22,0.428,-0.89,0.0
20.538,0.38,-0.909,0.0
18.444,0.343,-0.924,0.0
16.678,0.312,-0.933,0.0
29.795,0.557,-0.854,0.0
25.674,0.482,-0.885,1.0
22.488,0.424,-0.906,0.0
19.863,0.377,-0.919,0.0
17.803,0.339,-0.927,0.0
16.201,0.31,-0.938,0.0
28.449,0.544,-0.872,0.0
24.366,0.468,-0.889,0.0
21.411,0.413,-0.906,0.0
18.901,0.366,-0.912,0.0
17.055,0.331,-0.922,0.0
15.607,0.305,-0.935,0.0
26.614,0.519,-0.869,0.0
23.014,0.45,-0.885,0.0
20.527,0.403,-0.909,0.0
18.322,0.361,-0.92,0.0
16.6,0.328,-0.931,0.0
15.185,0.302,-0.94,0.0
25.471,0.505,-0.882,0.0
22.362,0.445,-0.904,0.0
19.736,0.394,-0.913,0.0
17.772,0.356,-0.928,0.0
16.152,0.325,-0.938,0.0
14.742,0.298,-0.942,0.0
24.316,0.489,-0.89,0.0
21.153,0.427,-0.898,0.0
18.866,0.382,-0.911,0.0
17.021,0.346,-0.923,0.0
15.595,0.318,-0.937,0.0
14.38,0.294,-0.948,0.0
23.043,0.47,-0.889,0.0
20.505,0.419,-0.911,0.0
18.325,0.376,-0.921,0.0
16.558,0.341,-0.931,0.0
15.125,0.312,-0.938,0.0
0.0,0.0,0.0,0.0
22.275,0.459,-0.904,0.0
19.674,0.407,-0.913,0.0
17.652,0.366,-0.922,0.0
16.089,0.334,-0.936,0.0
14.696,0.306,-0.941,0.0
13.407,0.28,-0.937,0.0
21.043,0.438,-0.895,0.0
18.869,0.393,-0.913,0.0
16.972,0.354,-0.92,0.0
15.487,0.324,-0.932,0.0
14.383,0.302,-0.949,0.0
13.183,0.277,-0.947,0.0
20.429,0.428,-0.909,0.0
18.277,0.383,-0.92,0.0
16.521,0.347,-0.928,0.0
15.065,0.317,-0.935,0.0
13.974,0.295,-0.949,0.0
12.824,0.271,-0.946,0.0
19.731,0.415,-0.916,0.0
17.73,0.374,-0.927,0.0
16.076,0.339,-0.934,0.0
14.65,0.31,-0.938,0.0
13.429,0.285,-0.938,0.0
12.509,0.265,-0.947,0.0
18.798,0.397,-0.909,0.0
16.979,0.359,-0.92,0.0
15.469,0.327,-0.928,0.0
14.418,0.306,-0.951,0.0
13.182,0.28,-0.947,0.0
12.189,0.259,-0.947,0.0
18.271,0.386,-0.918,0.0
16.546,0.35,-0.928,0.0
15.091,0.32,-0.935,0.0
0.0,0.0,0.0,0.0
12.812,0.272,-0.945,0.0
11.856,0.252,-0.944,0.0
17.678,0.373,-0.923,0.0
16.108,0.34,-0.935,0.0
14.696,0.311,-0.938,0.0
13.423,0.284,-0.937,0.0
12.497,0.265,-0.945,0.0
11.592,0.246,-0.945,0.0
16.948,0.357,-0.917,0.0
15.511,0.327,-0.929,0.0
14.344,0.303,-0.943,0.0
13.187,0.278,-0.945,0.0
12.199,0.258,-0.946,0.0
11.298,0.239,-0.942,0.0
16.56,0.347,-0.927,0.0
15.114,0.317,-0.934,0.0
14.103,0.296,-0.954,0.0
12.825,0.269,-0.943,0.0
11.917,0.251,-0.946,0.0
11.094,0.233,-0.946,0.0
16.128,0.336,-0.932,0.0
14.705,0.307,-0.936,0.0
13.431,0.28,-0.933,0.0
12.516,0.261,-0.944,0.0
11.62,0.243,-0.944,0.0
10.851,0.227,-0.945,0.0
15.581,0.322,-0.93,0.0
14.396,0.298,-0.943,0.0
13.212,0.273,-0.942,0.0
12.214,0.253,-0.944,0.0
11.344,0.235,-0.943,0.0
10.624,0.22,-0.945,0.0
15.165,0.311,-0.933,0.0
0.0,0.0,0.0,0.0
12.912,0.264,-0.945,0.0
11.932,0.244,-0.944,0.0
11.135,0.228,-0.946,0.0
10.386,0.212,-0.943,0.0
14.761,0.299,-0.934,0.0
13.577,0.275,-0.939,0.0
12.547,0.254,-0.941,0.0
11.617,0.235,-0.94,0.0
10.898,0.22,-0.946,0.0
10.258,0.207,-0.95,0.0
14.45,0.289,-0.941,0.0
13.321,0.266,-0.945,0.0
12.284,0.245,-0.943,0.0
11.373,0.227,-0.941,0.0
10.673,0.213,-0.945,0.0
10.017,0.199,-0.946,0.0
14.108,0.278,-0.943,0.0
12.995,0.255,-0.945,0.0
11.987,0.235,-0.941,0.0
11.159,0.219,-0.943,0.0
10.442,0.205,-0.943,0.0
9.863,0.193,-0.949,0.0
13.598,0.263,-0.933,0.0
12.634,0.244,-0.94,0.0
11.697,0.226,-0.939,0.0
10.899,0.21,-0.939,0.0
10.294,0.198,-0.947,0.0
9.67,0.186,-0.947,0.0
13.412,0.254,-0.943,0.0
12.393,0.235,-0.943,0.0
11.454,0.216,-0.939,0.0
10.717,0.202,-0.942,0.0
10.083,0.19,-0.946,0.0
9.478,0.178,-0.944,0.0
13.07,0.242,-0.941,0.0
12.125,0.224,-0.944,0.0
11.296,0.209,-0.945,0.0
10.486,0.193,-0.94,0.0
9.914,0.182,-0.946,0.0
9.326,0.171,-0.945,0.0
12.79,0.232,-0.943,0.0
11.82,0.213,-0.94,0.0
11.039,0.199,-0.942,0.0
10.338,0.186,-0.944,0.0
9.724,0.174,-0.945,0.0
9.152,0.164,-0.943,0.0
12.526,0.221,-0.944,0.0
11.604,0.204,-0.942,0.0
10.856,0.19,-0.945,0.0
10.165,0.178,-0.945,0.0
9.558,0.166,-0.944,0.0
9.017,0.157,-0.944,0.0
12.231,0.209,-0.942,0.0
11.408,0.195,-0.945,0.0
10.644,0.181,-0.943,0.0
9.977,0.169,-0.943,0.0
9.394,0.159,-0.943,0.0
8.842,0.149,-0.94,0.0
11.972,0.198,-0.941,0.0
11.201,0.185,-0.945,0.0
10.444,0.172,-0.942,0.0
9.824,0.161,-0.944,0.0
9.243,0.151,-0.943,0.0
8.712,0.142,-0.939,0.0
11.764,0.188,-0.942,0.0
11.03,0.176,-0.948,0.0
10.297,0.163,-0.945,0.0
9.671,0.153,-0.945,0.0
9.108,0.143,-0.943,0.0
8.599,0.135,-0.941,0.0
11.472,0.176,-0.937,0.0
10.757,0.165,-0.941,0.0
10.094,0.154,-0.942,0.0
9.545,0.145,-0.947,0.0
8.971,0.136,-0.942,0.0
8.485,0.128,-0.941,0.0
11.33,0.167,-0.942,0.0
10.592,0.155,-0.942,0.0
9.954,0.145,-0.943,0.0
9.37,0.136,-0.944,0.0
8.818,0.127,-0.94,0.0
8.388,0.12,-0.943,0.0
11.142,0.157,-0.943,0.0
10.442,0.146,-0.944,0.0
9.813,0.137,-0.944,0.0
9.245,0.128,-0.944,0.0
8.712,0.12,-0.941,0.0
8.263,0.113,-0.941,0.0
10.9,0.146,-0.938,0.0
10.254,0.136,-0.942,0.0
9.684,0.128,-0.946,0.0
9.055,0.119,-0.938,0.0
8.613,0.112,-0.943,0.0
8.168,0.106,-0.942,0.0
10.732,0.136,-0.938,0.0
10.144,0.128,-0.946,0.0
9.503,0.119,-0.941,0.0
8.945,0.111,-0.939,0.0
8.489,0.104,-0.941,0.0
8.073,0.099,-0.942,0.0
10.583,0.126,-0.94,0.0
9.95,0.118,-0.941,0.0
9.358,0.11,-0.94,0.0
8.811,0.103,-0.937,0.0
8.399,0.097,-0.942,0.0
7.964,0.091,-0.94,0.0
10.435,0.116,-0.941,0.0
9.815,0.108,-0.942,0.0
9.237,0.101,-0.94,0.0
8.732,0.095,-0.94,0.0
8.3,0.089,-0.942,0.0
7.909,0.084,-0.944,0.0
10.277,0.106,-0.94,0.0
9.711,0.099,-0.944,0.0
9.104,0.092,-0.938,0.0
8.61,0.086,-0.938,0.0
8.192,0.081,-0.94,0.0
7.835,0.077,-0.945,0.0
10.182,0.097,-0.944,0.0
9.591,0.09,-0.945,0.0
8.987,0.084,-0.937,0.0
8.513,0.078,-0.938,0.0
8.139,0.074,-0.945,0.0
7.742,0.069,-0.944,0.0
10.031,0.087,-0.942,0.0
9.409,0.08,-0.938,0.0
8.889,0.075,-0.938,0.0
8.391,0.07,-0.935,0.0
8.028,0.066,-0.941,0.0
7.687,0.062,-0.946,0.0
9.892,0.077,-0.941,0.0
9.348,0.072,-0.943,0.0
8.785,0.066,-0.937,0.0
8.335,0.062,-0.939,0.0
7.939,0.058,-0.94,0.0
7.587,0.055,-0.943,0.0
9.76,0.067,-0.939,0.0
9.222,0.063,-0.941,0.0
8.716,0.058,-0.94,0.0
8.275,0.054,-0.941,0.0
7.862,0.05,-0.94,0.0
7.516,0.047,-0.942,0.0
9.672,0.058,-0.942,0.0
9.111,0.053,-0.94,0.0
8.629,0.05,-0.94,0.0
8.157,0.046,-0.937,0.0
7.822,0.043,-0.944,0.0
7.497,0.04,-0.948,0.0
9.564,0.048,-0.941,0.0
9.007,0.044,-0.939,0.0
8.567,0.041,-0.942,0.0
8.091,0.038,-0.938,0.0
7.745,0.035,-0.943,0.0
7.427,0.033,-0.947,0.0
9.472,0.039,-0.942,0.0
8.897,0.035,-0.936,0.0
8.448,0.032,-0.938,0.0
8.016,0.03,-0.937,0.0
7.703,0.027,-0.945,0.0
7.326,0.025,-0.942,0.0
9.354,0.029,-0.94,0.0
8.82,0.026,-0.937,0.0
8.364,0.024,-0.937,0.0
7.974,0.021,-0.94,0.0
7.618,0.019,-0.942,0.0
7.3,0.018,-0.945,0.0
9.273,0.02,-0.94,0.0
8.747,0.017,-0.937,0.0
8.319,0.015,-0.939,0.0
7.913,0.013,-0.94,0.0
7.574,0.012,-0.944,0.0
7.254,0.01,-0.946,0.0
9.197,0.01,-0.941,0.0
8.685,0.008,-0.938,0.0
8.241,0.007,-0.938,0.0
7.85,0.005,-0.94,0.0
7.519,0.004,-0.944,0.0
7.189,0.003,-0.944,0.0
9.095,0.001,-0.938,0.0
8.626,0.0,-0.94,0.0
8.205,-0.001,-0.941,0.0
7.766,-0.002,-0.936,0.0
7.521,-0.003,-0.95,0.0
7.185,-0.004,-0.95,0.0
9.013,-0.008,-0.937,0.0
8.565,-0.008,-0.94,0.0
8.137,-0.009,-0.94,0.0
7.74,-0.01,-0.939,0.0
7.439,-0.011,-0.946,0.0
7.098,-0.011,-0.944,0.0
8.942,-0.017,-0.937,0.0
8.448,-0.017,-0.934,0.0
8.082,-0.018,-0.94,0.0
7.702,-0.018,-0.941,0.0
7.384,-0.019,-0.945,0.0
7.073,-0.019,-0.946,0.0
8.898,-0.026,-0.939,0.0
8.453,-0.026,-0.94,0.0
8.023,-0.026,-0.939,0.0
7.635,-0.026,-0.938,0.0
7.327,-0.026,-0.943,0.0
7.039,-0.027,-0.946,0.0
8.81,-0.036,-0.936,0.0
8.334,-0.035,-0.933,0.0
8.0,-0.035,-0.941,0.0
7.617,-0.035,-0.941,0.0
7.339,-0.035,-0.949,0.0
6.992,-0.034,-0.945,0.0
8.763,-0.045,-0.936,0.0
8.337,-0.044,-0.939,0.0
7.912,-0.043,-0.936,0.0
7.58,-0.043,-0.941,0.0
7.23,-0.042,-0.94,0.0
7.029,-0.042,-0.954,0.0
8.711,-0.054,-0.936,0.0
8.254,-0.053,-0.934,0.0
7.905,-0.052,-0.94,0.0
7.509,-0.051,-0.937,0.0
7.256,-0.05,-0.947,0.0
6.985,-0.05,-0.952,0.0
8.691,-0.064,-0.939,0.0
8.235,-0.062,-0.937,0.0
7.861,-0.061,-0.939,0.0
7.526,-0.059,-0.943,0.0
7.188,-0.058,-0.942,0.0
6.952,-0.057,-0.951,0.0
8.624,-0.073,-0.936,0.0
8.193,-0.071,-0.936,0.0
7.864,-0.069,-0.943,0.0
7.472,-0.067,-0.94,0.0
7.213,-0.066,-0.949,0.0
6.934,-0.065,-0.952,0.0
8.596,-0.083,-0.937,0.0
8.17,-0.08,-0.937,0.0
7.795,-0.078,-0.939,0.0
7.453,-0.076,-0.941,0.0
7.194,-0.074,-0.95,0.0
6.892,-0.073,-0.949,0.0
8.533,-0.092,-0.934,0.0
8.127,-0.089,-0.936,0.0
7.781,-0.086,-0.94,0.0
7.415,-0.084,-0.939,0.0
7.145,-0.082,-0.946,0.0
6.867,-0.08,-0.949,0.0
8.496,-0.101,-0.933,0.0
8.134,-0.098,-0.939,0.0
7.75,-0.095,-0.939,0.0
7.393,-0.092,-0.939,0.0
7.095,-0.09,-0.942,0.0
6.831,-0.088,-0.946,0.0
8.486,-0.111,-0.935,0.0
8.106,-0.107,-0.939,0.0
7.721,-0.104,-0.938,0.0
7.381,-0.1,-0.94,0.0
7.09,-0.098,-0.943,0.0
6.855,-0.096,-0.952,0.0
8.473,-0.12,-0.936,0.0
8.06,-0.116,-0.936,0.0
7.724,-0.113,-0.941,0.0
7.37,-0.109,-0.94,0.0
7.121,-0.106,-0.949,0.0
6.82,-0.103,-0.948,0.0
8.462,-0.13,-0.937,0.0
8.025,-0.125,-0.934,0.0
7.692,-0.121,-0.939,0.0
7.389,-0.118,-0.945,0.0
7.086,-0.114,-0.946,0.0
6.795,-0.111,-0.946,0.0
8.438,-0.139,-0.936,0.0
8.017,-0.134,-0.934,0.0
7.687,-0.13,-0.94,0.0
7.348,-0.126,-0.941,0.0
7.092,-0.123,-0.948,0.0
6.842,-0.12,-0.954,0.0
8.44,-0.149,-0.937,0.0
8.005,-0.143,-0.934,0.0
7.665,-0.138,-0.938,0.0
7.358,-0.134,-0.943,0.0
7.094,-0.131,-0.949,0.0
6.795,-0.127,-0.948,0.0
8.42,-0.158,-0.936,0.0
8.027,-0.152,-0.938,0.0
7.675,-0.147,-0.94,0.0
7.368,-0.143,-0.945,0.0
7.051,-0.138,-0.944,0.0
6.772,-0.134,-0.945,0.0
8.411,-0.168,-0.935,0.0
8.056,-0.162,-0.941,0.0
7.67,-0.156,-0.94,0.0
7.37,-0.152,-0.945,0.0
7.077,-0.147,-0.948,0.0
6.799,-0.143,-0.949,0.0
8.418,-0.178,-0.936,0.0
8.035,-0.171,-0.939,0.0
7.717,-0.166,-0.945,0.0
7.337,-0.159,-0.941,0.0
7.051,-0.155,-0.944,0.0
6.808,-0.151,-0.95,0.0
8.424,-0.187,-0.937,0.0
8.016,-0.18,-0.936,0.0
7.683,-0.174,-0.941,0.0
7.396,-0.169,-0.948,0.0
7.09,-0.163,-0.949,0.0
6.812,-0.158,-0.951,0.0
8.422,-0.197,-0.936,0.0
8.033,-0.189,-0.938,0.0
7.692,-0.183,-0.941,0.0
7.371,-0.177,-0.944,0.0
7.069,-0.171,-0.945,0.0
6.813,-0.166,-0.95,0.0
8.433,-0.207,-0.936,0.0
8.054,-0.199,-0.939,0.0
7.658,-0.191,-0.936,0.0
7.366,-0.185,-0.942,0.0
7.086,-0.179,-0.947,0.0
6.813,-0.174,-0.949,0.0
8.451,-0.216,-0.936,0.0
8.04,-0.207,-0.936,0.0
7.708,-0.2,-0.94,0.0
7.371,-0.193,-0.942,0.0
7.106,-0.188,-0.948,0.0
6.833,-0.182,-0.95,0.0
8.479,-0.226,-0.938,0.0
8.076,-0.217,-0.938,0.0
7.722,-0.209,-0.94,0.0
7.418,-0.203,-0.946,0.0
7.112,-0.196,-0.947,0.0
6.831,-0.19,-0.948,0.0
8.508,-0.237,-0.939,0.0
8.09,-0.227,-0.938,0.0
7.73,-0.218,-0.939,0.0
7.426,-0.211,-0.945,0.0
7.12,-0.204,-0.946,0.0
6.861,-0.198,-0.95,0.0
8.542,-0.247,-0.94,0.0
8.107,-0.236,-0.937,0.0
7.747,-0.227,-0.939,0.0
7.395,-0.218,-0.938,0.0
7.146,-0.213,-0.947,0.0
6.891,-0.206,-0.952,0.0
8.525,-0.256,-0.935,0.0
8.134,-0.246,-0.937,0.0
7.764,-0.236,-0.938,0.0
7.47,-0.229,-0.945,0.0
7.148,-0.22,-0.944,0.0
6.896,-0.214,-0.95,0.0
8.595,-0.267,-0.939,0.0
8.156,-0.255,-0.937,0.0
7.796,-0.245,-0.939,0.0
7.428,-0.235,-0.936,0.0
7.186,-0.229,-0.946,0.0
6.887,-0.221,-0.945,0.0
8.631,-0.277,-0.939,0.0
8.197,-0.265,-0.938,0.0
7.813,-0.254,-0.937,0.0
7.473,-0.245,-0.939,0.0
7.229,-0.238,-0.948,0.0
6.943,-0.23,-0.95,0.0
8.669,-0.287,-0.939,0.0
8.241,-0.275,-0.939,0.0
7.889,-0.265,-0.942,0.0
7.549,-0.255,-0.944,0.0
7.26,-0.247,-0.949,0.0
6.956,-0.238,-0.948,0.0
8.736,-0.298,-0.942,0.0
8.25,-0.284,-0.935,0.0
7.875,-0.272,-0.936,0.0
7.55,-0.263,-0.94,0.0
7.242,-0.253,-0.942,0.0
7.005,-0.246,-0.95,0.0
8.772,-0.309,-0.941,0.0
8.329,-0.295,-0.939,0.0
7.92,-0.282,-0.937,0.0
7.597,-0.272,-0.942,0.0
7.301,-0.263,-0.945,0.0
6.992,-0.253,-0.944,0.0
8.822,-0.319,-0.941,0.0
8.361,-0.304,-0.938,0.0
7.991,-0.292,-0.94,0.0
7.631,-0.281,-0.941,0.0
7.353,-0.272,-0.947,0.0
7.101,-0.264,-0.954,0.0
8.881,-0.33,-0.941,0.0
8.434,-0.315,-0.94,0.0
8.054,-0.302,-0.942,0.0
7.69,-0.29,-0.943,0.0
7.373,-0.28,-0.945,0.0
7.093,-0.27,-0.948,0.0
8.948,-0.341,-0.942,0.0
8.486,-0.325,-0.94,0.0
8.115,-0.312,-0.943,0.0
7.733,-0.299,-0.943,0.0
7.406,-0.288,-0.944,0.0
7.143,-0.279,-0.95,0.0
9.028,-0.352,-0.944,0.0
8.555,-0.335,-0.941,0.0
8.125,-0.32,-0.939,0.0
7.76,-0.307,-0.94,0.0
7.467,-0.297,-0.946,0.0
7.182,-0.287,-0.949,0.0
9.094,-0.363,-0.944,0.0
8.63,-0.346,-0.943,0.0
8.173,-0.329,-0.938,0.0
7.813,-0.316,-0.94,0.0
7.488,-0.305,-0.942,0.0
7.172,-0.293,-0.942,0.0
9.2,-0.375,-0.947,0.0
8.687,-0.356,-0.942,0.0
8.246,-0.34,-0.939,0.0
7.871,-0.325,-0.94,0.0
7.554,-0.314,-0.944,0.0
7.268,-0.303,-0.948,0.0
9.293,-0.387,-0.949,0.0
8.789,-0.368,-0.945,0.0
8.327,-0.35,-0.941,0.0
7.953,-0.336,-0.943,0.0
7.624,-0.323,-0.946,0.0
7.328,-0.312,-0.95,0.0
9.379,-0.399,-0.949,0.0
8.865,-0.378,-0.945,0.0
8.365,-0.358,-0.938,0.0
7.974,-0.343,-0.938,0.0
7.667,-0.331,-0.944,0.0
7.348,-0.319,-0.945,0.0
9.493,-0.411,-0.952,0.0
8.944,-0.389,-0.945,0.0
8.454,-0.369,-0.939,0.0
8.06,-0.353,-0.94,0.0
7.722,-0.34,-0.943,0.0
7.413,-0.328,-0.946,0.0
9.589,-0.423,-0.952,0.0
9.042,-0.4,-0.947,0.0
8.564,-0.38,-0.943,0.0
8.118,-0.362,-0.939,0.0
7.803,-0.349,-0.945,0.0
7.475,-0.336,-0.946,0.0
9.691,-0.435,-0.952,0.0
9.119,-0.411,-0.945,0.0
8.652,-0.391,-0.944,0.0
8.219,-0.373,-0.942,0.0
7.865,-0.358,-0.945,0.0
7.524,-0.344,-0.945,0.0
9.778,-0.446,-0.951,0.0
9.268,-0.424,-0.951,0.0
8.757,-0.402,-0.946,0.0
8.312,-0.383,-0.944,0.0
7.931,-0.367,-0.944,0.0
7.619,-0.353,-0.948,0.0
9.917,-0.459,-0.953,0.0
9.362,-0.435,-0.951,0.0
8.819,-0.411,-0.943,0.0
8.383,-0.392,-0.943,0.0
8.009,-0.376,-0.944,0.0
7.676,-0.361,-0.947,0.0
10.01,-0.47,-0.951,0.0
9.472,-0.446,-0.951,0.0
8.933,-0.422,-0.945,0.0
8.488,-0.402,-0.945,0.0
8.068,-0.384,-0.942,0.0
7.74,-0.369,-0.946,0.0
10.168,-0.484,-0.955,0.0
9.621,-0.459,-0.955,0.0
9.054,-0.433,-0.947,0.0
8.606,-0.413,-0.948,0.0
8.15,-0.393,-0.942,0.0
7.806,-0.377,-0.945,0.0
10.308,-0.497,-0.955,0.0
9.711,-0.469,-0.952,0.0
9.185,-0.445,-0.95,0.0
8.681,-0.422,-0.946,0.0
8.262,-0.403,-0.945,0.0
7.888,-0.386,-0.945,0.0
10.449,-0.51,-0.956,0.0
9.847,-0.482,-0.954,0.0
9.291,-0.456,-0.95,0.0
8.81,-0.433,-0.949,0.0
8.318,-0.41,-0.941,0.0
7.966,-0.394,-0.944,0.0
10.547,-0.52,-0.951,0.0
10.005,-0.495,-0.956,0.0
9.457,-0.469,-0.955,0.0
8.911,-0.443,-0.948,0.0
8.454,-0.421,-0.945,0.0
8.052,-0.403,-0.944,0.0
10.79,-0.538,-0.96,0.0
10.153,-0.507,-0.957,0.0
9.578,-0.48,-0.954,0.0
9.032,-0.454,-0.949,0.0
8.579,-0.432,-0.948,0.0
8.14,-0.411,-0.943,0.0
10.893,-0.548,-0.954,0.0
10.302,-0.52,-0.958,0.0
9.716,-0.491,-0.955,0.0
9.168,-0.465,-0.951,0.0
8.703,-0.442,-0.95,0.0
8.237,-0.419,-0.943,0.0
11.103,-0.564,-0.958,0.0
10.479,-0.533,-0.96,0.0
9.864,-0.503,-0.957,0.0
9.313,-0.476,-0.954,0.0
8.831,-0.452,-0.952,0.0
8.349,-0.429,-0.945,0.0
11.247,-0.576,-0.955,0.0
10.563,-0.542,-0.953,0.0
10.045,-0.516,-0.96,0.0
9.474,-0.488,-0.957,0.0
8.956,-0.462,-0.953,0.0
8.466,-0.438,-0.946,0.0
11.447,-0.59,-0.956,0.0
10.8,-0.558,-0.959,0.0
10.146,-0.525,-0.955,0.0
9.598,-0.498,-0.956,0.0
9.068,-0.471,-0.952,0.0
8.607,-0.448,-0.95,0.0
11.678,-0.606,-0.959,0.0
10.982,-0.571,-0.96,0.0
10.333,-0.538,-0.958,0.0
9.741,-0.508,-0.956,0.0
9.225,-0.482,-0.955,0.0
8.74,-0.458,-0.951,0.0
11.929,-0.623,-0.962,0.0
11.138,-0.582,-0.957,0.0
10.457,-0.548,-0.954,0.0
9.886,-0.519,-0.956,0.0
9.372,-0.493,-0.956,0.0
8.85,-0.466,-0.95,0.0
12.191,-0.64,-0.966,0.0
11.343,-0.596,-0.959,0.0
10.675,-0.562,-0.959,0.0
10.081,-0.531,-0.96,0.0
9.523,-0.503,-0.957,0.0
9.009,-0.476,-0.954,0.0
12.413,-0.654,-0.964,0.0
11.595,-0.612,-0.962,0.0
10.842,-0.573,-0.957,0.0
10.235,-0.542,-0.959,0.0
9.674,-0.513,-0.958,0.0
9.164,-0.486,-0.956,0.0
12.646,-0.669,-0.963,0.0
11.756,-0.622,-0.958,0.0
11.066,-0.587,-0.96,0.0
10.399,-0.552,-0.958,0.0
9.828,-0.522,-0.958,0.0
9.339,-0.497,-0.96,0.0
12.967,-0.688,-0.968,0.0
12.131,-0.644,-0.969,0.0
11.239,-0.597,-0.958,0.0
10.592,-0.564,-0.96,0.0
10.001,-0.533,-0.959,0.0
9.457,-0.504,-0.957,0.0
13.199,-0.702,-0.965,0.0
12.303,-0.655,-0.964,0.0
11.514,-0.613,-0.963,0.0
10.778,-0.575,-0.96,0.0
10.159,-0.542,-0.958,0.0
9.642,-0.515,-0.961,0.0
13.454,-0.716,-0.962,0.0
12.554,-0.669,-0.964,0.0
11.699,-0.624,-0.96,0.0
10.984,-0.586,-0.96,0.0
10.364,-0.554,-0.961,0.0
9.82,-0.525,-0.963,0.0
13.691,-0.729,-0.958,0.0
12.823,-0.684,-0.964,0.0
12.044,-0.643,-0.969,0.0
11.195,-0.598,-0.961,0.0
10.522,-0.562,-0.959,0.0
9.986,-0.534,-0.963,0.0
14.293,-0.761,-0.977,0.0
13.125,-0.7,-0.966,0.0
12.255,-0.653,-0.966,0.0
11.44,-0.61,-0.963,0.0
10.722,-0.572,-0.959,0.0
10.163,-0.543,-0.963,0.0
14.681,-0.782,-0.979,0.0
13.555,-0.722,-0.975,0.0
12.545,-0.668,-0.968,0.0
11.653,-0.621,-0.962,0.0
10.986,-0.586,-0.965,0.0
10.354,-0.552,-0.964,0.0
14.894,-0.792,-0.969,1.0
13.818,-0.734,-0.971,0.0
12.794,-0.68,-0.966,0.0
11.982,-0.637,-0.969,0.0
11.168,-0.594,-0.962,0.0
10.512,-0.559,-0.961,0.0
15.078,-0.8,-0.956,1.0
14.025,-0.744,-0.962,0.0
13.047,-0.692,-0.964,0.0
12.237,-0.649,-0.969,0.0
11.399,-0.605,-0.963,0.0
10.719,-0.569,-0.962,0.0
15.137,-0.8,-0.934,0.0
14.555,-0.769,-0.974,0.0
13.454,-0.711,-0.971,0.0
12.486,-0.66,-0.968,0.0
11.654,-0.616,-0.965,0.0
10.939,-0.578,-0.963,0.0
15.174,-0.799,-0.911,1.0
14.882,-0.783,-0.971,1.0
13.695,-0.721,-0.965,0.0
12.744,-0.671,-0.967,0.0
11.923,-0.627,-0.967,0.0
11.112,-0.585,-0.959,0.0
15.182,-0.796,-0.886,1.0
15.104,-0.791,-0.96,1.0
14.135,-0.74,-0.973,0.0
12.985,-0.68,-0.963,0.0
12.227,-0.64,-0.971,0.0
11.39,-0.596,-0.964,0.0
15.237,-0.794,-0.863,1.0
15.204,-0.792,-0.94,0.0
14.496,-0.755,-0.973,0.0
13.455,-0.7,-0.974,0.0
12.503,-0.65,-0.971,0.0
11.631,-0.605,-0.964,0.0
15.398,-0.798,-0.845,0.0
15.226,-0.788,-0.916,0.0
14.898,-0.771,-0.974,0.0
13.67,-0.707,-0.966,0.0
12.784,-0.66,-0.971,0.0
11.975,-0.618,-0.972,0.0
15.765,-0.811,-0.838,0.0
15.217,-0.782,-0.889,0.0
15.222,-0.782,-0.968,0.0
13.969,-0.716,-0.963,0.0
13.071,-0.67,-0.969,0.0
12.207,-0.625,-0.969,0.0
16.03,-0.818,-0.824,0.0
15.283,-0.779,-0.866,1.0
15.252,-0.777,-0.944,1.0
14.441,-0.734,-0.97,0.0
13.466,-0.684,-0.975,0.0
12.491,-0.634,-0.97,0.0
16.454,-0.832,-0.818,1.0
15.42,-0.779,-0.847,0.0
15.273,-0.77,-0.918,1.0
14.955,-0.753,-0.978,0.0
13.64,-0.686,-0.964,0.0
12.792,-0.643,-0.971,0.0
16.814,-0.842,-0.806,1.0
15.819,-0.791,-0.841,0.0
15.29,-0.763,-0.892,1.0
15.272,-0.761,-0.972,0.0
13.972,-0.696,-0.963,0.0
13.049,-0.649,-0.967,0.0
17.412,-0.862,-0.804,0.0
16.091,-0.796,-0.827,1.0
15.356,-0.758,-0.869,1.0
15.325,-0.756,-0.949,1.0
14.458,-0.712,-0.971,0.0
13.424,-0.66,-0.972,0.0
18.194,-0.891,-0.809,1.0
16.455,-0.804,-0.817,1.0
15.47,-0.755,-0.849,0.0
15.346,-0.747,-0.923,1.0
14.934,-0.726,-0.977,0.0
13.669,-0.663,-0.965,0.0
18.636,-0.901,-0.796,0.0
16.912,-0.816,-0.81,0.0
15.922,-0.767,-0.845,0.0
15.373,-0.739,-0.898,1.0
15.361,-0.737,-0.978,0.0
13.981,-0.669,-0.963,0.0
19.453,-0.927,-0.797,0.0
17.427,-0.829,-0.804,0.0
16.183,-0.768,-0.831,1.0
15.422,-0.731,-0.874,1.0
15.417,-0.729,-0.954,0.0
14.457,-0.682,-0.97,0.0
20.196,-0.949,-0.792,0.0
18.153,-0.851,-0.806,0.0
16.459,-0.77,-0.816,1.0
15.522,-0.724,-0.852,0.0
15.47,-0.72,-0.93,0.0
14.863,-0.69,-0.971,0.0
21.035,-0.973,-0.788,1.0
18.909,-0.872,-0.807,0.0
16.978,-0.781,-0.813,0.0
15.924,-0.731,-0.847,0.0
15.498,-0.709,-0.905,1.0
15.484,-0.707,-0.985,0.0
21.862,-0.994,-0.781,1.0
19.555,-0.887,-0.8,0.0
17.621,-0.797,-0.813,1.0
16.219,-0.731,-0.834,2.0
15.56,-0.7,-0.881,0.0
15.581,-0.699,-0.964,0.0
22.794,-1.018,-0.775,4.0
20.262,-0.902,-0.794,0.0
18.153,-0.806,-0.806,0.0
16.454,-0.728,-0.818,1.0
15.658,-0.691,-0.86,1.0
15.629,-0.688,-0.94,0.0
23.73,-1.039,-0.766,15.0
21.358,-0.932,-0.8,0.0
18.826,-0.819,-0.803,0.0
16.946,-0.735,-0.813,1.0
15.885,-0.687,-0.844,0.0
15.669,-0.675,-0.915,1.0
24.002,-1.029,-0.733,20.0
21.939,-0.938,-0.784,1.0
19.594,-0.835,-0.802,0.0
17.62,-0.748,-0.814,0.0
16.325,-0.69,-0.84,1.0
15.734,-0.663,-0.891,1.0
24.919,-1.045,-0.718,14.0
23.357,-0.976,-0.794,2.0
20.501,-0.854,-0.804,2.0
18.183,-0.754,-0.809,1.0
16.747,-0.692,-0.833,2.0
15.807,-0.651,-0.868,1.0
28.232,-1.157,-0.765,11.0
23.793,-0.971,-0.768,15.0
21.109,-0.858,-0.791,1.0
18.913,-0.766,-0.809,0.0
17.086,-0.689,-0.82,1.0
15.935,-0.64,-0.848,1.0
28.453,-1.137,-0.722,49.0
24.089,-0.958,-0.737,17.0
22.018,-0.872,-0.788,1.0
19.612,-0.774,-0.806,0.0
17.575,-0.69,-0.814,1.0
16.174,-0.632,-0.833,0.0
28.468,-1.108,-0.674,34.0
25.05,-0.97,-0.723,8.0
23.259,-0.896,-0.793,5.0
20.428,-0.784,-0.804,3.0
18.26,-0.697,-0.814,0.0
31.299,-1.19,-1.559,0.0
30.551,-1.155,-0.671,35.0
27.768,-1.044,-0.755,0.0
23.784,-0.89,-0.77,14.0
21.084,-0.785,-0.795,0.0
18.81,-0.697,-0.807,0.0
17.184,-0.633,-0.827,0.0
30.748,-1.128,-0.624,33.0
29.322,-1.07,-0.748,1.0
24.216,-0.878,-0.744,22.0
22.071,-0.796,-0.795,1.0
19.604,-0.704,-0.808,0.0
17.749,-0.633,-0.824,0.0
31.165,-1.106,-0.581,27.0
30.452,-1.075,-0.726,22.0
25.324,-0.889,-0.736,6.0
22.947,-0.801,-0.788,5.0
20.314,-0.705,-0.804,0.0
18.515,-0.639,-0.829,2.0
37.983,-1.303,-0.645,8.0
30.547,-1.041,-0.678,28.0
27.799,-0.942,-0.762,1.0
23.751,-0.8,-0.777,13.0
21.184,-0.709,-0.803,0.0
19.061,-0.634,-0.822,1.0
38.154,-1.261,-0.586,14.0
30.784,-1.011,-0.633,28.0
28.844,-0.941,-0.743,1.0
24.203,-0.784,-0.752,22.0
22.005,-0.708,-0.799,2.0
19.684,-0.629,-0.817,6.0
38.475,-1.223,-0.528,19.0
31.209,-0.985,-0.592,25.0
30.4,-0.953,-0.735,17.0
25.061,-0.78,-0.739,7.0
23.181,-0.716,-0.805,2.0
20.318,-0.623,-0.812,3.0
38.619,-1.177,-0.469,45.0
37.898,-1.146,-0.658,13.0
30.541,-0.917,-0.69,36.0
27.564,-0.821,-0.769,1.0
23.766,-0.702,-0.787,13.0
20.929,-0.614,-0.803,2.0
38.639,-1.125,-0.408,49.0
38.082,-1.1,-0.601,13.0
30.791,-0.882,-0.646,30.0
28.563,-0.812,-0.752,1.0
23.974,-0.676,-0.757,22.0
22.049,-0.617,-0.811,0.0
38.675,-1.073,-0.348,54.0
38.403,-1.057,-0.547,17.0
31.238,-0.852,-0.608,24.0
30.325,-0.82,-0.752,12.0
0.0,0.0,0.0,0.0
0.0,0.0,0.0,0.0
38.718,-1.02,-0.289,52.0
38.642,-1.008,-0.49,26.0
37.832,-0.978,-0.678,13.0
30.474,-0.781,-0.709,33.0
27.385,-0.695,-0.78,0.0
23.728,-0.596,-0.8,13.0
38.799,-0.966,-0.231,27.0
38.781,-0.956,-0.434,24.0
38.068,-0.929,-0.625,21.0
30.71,-0.742,-0.668,29.0
28.281,-0.676,-0.763,1.0
23.802,-0.563,-0.767,12.0
40.408,-0.947,-0.18,38.0
40.414,-0.937,-0.392,56.0
38.386,-0.88,-0.573,18.0
31.215,-0.707,-0.632,23.0
0.0,0.0,0.0,0.0
25.067,-0.555,-0.771,2.0
40.429,-0.886,-0.12,6.0
38.367,-0.831,-0.315,9.0
38.363,-0.821,-0.516,18.0
0.0,0.0,0.0,0.0
30.468,-0.636,-0.733,28.0
26.98,-0.556,-0.79,3.0
52.914,-1.079,-0.081,6.0
45.584,-0.917,-0.308,17.0
45.088,-0.895,-0.541,23.0
37.97,-0.744,-0.659,22.0
30.675,-0.592,-0.694,30.0
27.766,-0.529,-0.773,7.0
53.001,-0.998,-0.005,18.0
52.953,-0.982,-0.283,62.0
45.47,-0.831,-0.481,18.0
38.301,-0.69,-0.611,14.0
31.269,-0.555,-0.663,19.0
28.974,-0.506,-0.767,6.0
20.145,-0.347,0.026,45.0
20.122,-0.341,-0.079,2.0
52.904,-0.882,-0.486,26.0
44.874,-0.736,-0.653,8.0
35.946,-0.579,-0.712,3.0
30.049,-0.476,-0.753,24.0
20.137,-0.314,0.054,41.0
20.129,-0.308,-0.051,5.0
59.303,-0.892,-0.464,6.0
44.841,-0.662,-0.591,32.0
37.812,-0.548,-0.698,14.0
30.835,-0.438,-0.731,28.0
20.14,-0.281,0.081,11.0
59.514,-0.814,-0.073,81.0
56.581,-0.758,-0.367,10.0
45.21,-0.592,-0.536,15.0
38.055,-0.488,-0.652,23.0
31.829,-0.399,-0.713,16.0
20.199,-0.248,0.108,0.0
59.597,-0.715,0.005,3.0
56.209,-0.658,-0.29,1.0
52.599,-0.6,-0.554,7.0
38.587,-0.429,-0.61,13.0
20.225,-0.219,-0.426,1.0
64.322,-0.679,0.43,27.0
56.183,-0.576,0.079,2.0
56.245,-0.561,-0.217,11.0
53.24,-0.515,-0.492,4.0
44.847,-0.421,-0.651,9.0
20.176,-0.183,-0.399,26.0
64.33,-0.567,0.512,7.0
53.34,-0.455,0.143,1.0
20.212,-0.166,-0.052,0.0
20.162,-0.16,-0.161,14.0
20.157,-0.154,-0.267,27.0
20.159,-0.148,-0.374,32.0
20.18,-0.143,0.185,18.0
20.145,-0.136,0.078,17.0
20.165,-0.13,-0.027,23.0
20.145,-0.124,-0.136,25.0
20.141,-0.118,-0.242,28.0
20.145,-0.112,-0.349,38.0
20.133,-0.106,0.209,24.0
