X,Y,Z,Reflectivity
20.275,-0.231,-0.94,25.0
35.941,-0.418,-0.681,5.0
30.011,-0.353,-0.743,2.0
20.211,-0.241,-0.618,27.0
20.217,-0.244,-0.738,33.0
20.173,-0.247,-0.854,9.0
19.718,-0.244,-0.95,2.0
31.921,-0.403,-0.663,19.0
28.865,-0.369,-0.767,2.0
20.214,-0.261,-0.655,20.0
20.22,-0.265,-0.775,33.0
20.238,-0.268,-0.894,23.0
18.663,-0.25,-0.933,0.0
30.902,-0.421,-0.698,29.0
27.779,-0.383,-0.789,1.0
20.225,-0.282,-0.692,9.0
20.232,-0.286,-0.812,23.0
20.189,-0.289,-0.928,12.0
18.109,-0.262,-0.938,0.0
30.333,-0.445,-0.739,20.0
26.745,-0.397,-0.807,2.0
20.182,-0.303,-0.726,0.0
20.164,-0.306,-0.845,11.0
19.643,-0.302,-0.938,3.0
17.427,-0.271,-0.934,0.0
0.0,0.0,0.0,0.0
25.8,-0.411,-0.824,5.0
25.664,-0.413,-0.969,0.0
21.01,-0.342,-0.918,2.0
19.258,-0.317,-0.953,0.0
16.929,-0.282,-0.937,0.0
27.315,-0.461,-0.761,1.0
24.876,-0.424,-0.837,1.0
23.46,-0.404,-0.926,0.0
18.377,-0.323,-0.941,0.0
16.651,-0.296,-0.95,0.0
26.266,-0.473,-0.776,2.0
24.032,-0.437,-0.85,2.0
21.445,-0.394,-0.883,0.0
19.569,-0.363,-0.922,1.0
17.764,-0.333,-0.94,0.0
16.1,-0.305,-0.946,0.0
25.286,-0.485,-0.79,2.0
23.236,-0.45,-0.861,0.0
23.14,-0.452,-0.992,0.0
0.0,0.0,0.0,0.0
17.215,-0.343,-0.94,0.0
15.668,-0.315,-0.946,0.0
23.244,-0.473,-0.764,1.0
22.254,-0.457,-0.861,2.0
21.973,-0.456,-0.978,0.0
38.361,-0.804,-1.934,0.0
16.925,-0.358,-0.951,0.0
15.37,-0.328,-0.954,0.0
22.456,-0.484,-0.774,2.0
21.533,-0.469,-0.867,1.0
21.322,-0.468,-0.983,0.0
38.448,-0.853,-2.0,0.0
16.547,-0.37,-0.957,0.0
14.776,-0.333,-0.94,0.0
21.711,-0.495,-0.783,1.0
20.911,-0.481,-0.876,1.0
20.786,-0.482,-0.991,0.0
17.265,-0.404,-0.925,0.0
16.138,-0.381,-0.958,0.0
14.426,-0.344,-0.941,0.0
20.925,-0.503,-0.787,1.0
20.283,-0.492,-0.881,1.0
20.189,-0.494,-0.993,0.0
17.161,-0.423,-0.946,3.0
15.579,-0.388,-0.949,0.0
14.222,-0.357,-0.949,0.0
20.255,-0.513,-0.792,1.0
19.748,-0.504,-0.887,0.0
19.595,-0.505,-0.994,0.0
16.917,-0.439,-0.958,1.0
15.144,-0.397,-0.945,0.0
13.931,-0.368,-0.951,0.0
19.662,-0.524,-0.798,0.0
19.202,-0.516,-0.891,0.0
19.074,-0.516,-0.995,0.0
14.748,-0.405,-0.942,0.0
13.656,-0.378,-0.952,0.0
19.063,-0.533,-0.802,1.0
18.658,-0.525,-0.892,0.0
18.534,-0.526,-0.994,0.0
16.081,-0.46,-0.957,0.0
14.461,-0.417,-0.944,0.0
13.392,-0.389,-0.952,0.0
18.507,-0.542,-0.804,0.0
18.156,-0.535,-0.894,0.0
17.744,-0.527,-0.976,0.0
15.561,-0.466,-0.948,0.0
14.278,-0.431,-0.952,0.0
13.199,-0.401,-0.957,0.0
18.022,-0.552,-0.808,0.0
17.688,-0.546,-0.895,0.0
17.48,-0.543,-0.985,0.0
15.213,-0.476,-0.947,0.0
13.984,-0.441,-0.952,0.0
12.914,-0.41,-0.954,0.0
17.525,-0.561,-0.809,0.0
17.195,-0.554,-0.893,0.0
17.088,-0.554,-0.986,0.0
14.841,-0.485,-0.944,0.0
13.74,-0.452,-0.953,0.0
12.72,-0.422,-0.956,0.0
17.083,-0.57,-0.811,0.0
16.775,-0.564,-0.893,0.0
16.522,-0.559,-0.975,0.0
14.54,-0.496,-0.944,0.0
13.479,-0.463,-0.953,0.0
12.501,-0.432,-0.956,0.0
16.766,-0.583,-0.817,0.0
16.301,-0.571,-0.888,1.0
16.22,-0.572,-0.977,0.0
14.372,-0.51,-0.951,0.0
13.3,-0.475,-0.956,0.0
12.368,-0.445,-0.961,0.0
16.295,-0.59,-0.814,0.0
16.123,-0.588,-0.898,1.0
15.983,-0.586,-0.983,0.0
14.134,-0.522,-0.952,0.0
13.125,-0.488,-0.96,0.0
12.167,-0.455,-0.96,0.0
16.129,-0.607,-0.825,1.0
16.002,-0.606,-0.91,0.0
15.774,-0.601,-0.988,0.0
13.851,-0.532,-0.949,0.0
12.897,-0.498,-0.958,0.0
11.939,-0.464,-0.956,0.0
15.965,-0.624,-0.835,1.0
15.904,-0.626,-0.923,0.0
14.831,-0.587,-0.946,0.0
13.622,-0.543,-0.949,0.0
12.733,-0.511,-0.961,0.0
11.781,-0.476,-0.957,0.0
15.849,-0.643,-0.846,1.0
15.834,-0.646,-0.937,0.0
14.543,-0.597,-0.944,0.0
13.503,-0.558,-0.956,0.0
12.55,-0.522,-0.961,0.0
11.568,-0.484,-0.952,0.0
15.753,-0.662,-0.858,1.0
15.721,-0.665,-0.947,0.0
14.42,-0.614,-0.951,0.0
13.336,-0.571,-0.958,0.0
12.408,-0.534,-0.963,0.0
11.439,-0.496,-0.954,0.0
15.662,-0.682,-0.869,1.0
15.623,-0.684,-0.957,0.0
14.307,-0.63,-0.958,0.0
13.217,-0.585,-0.963,0.0
12.233,-0.545,-0.962,0.0
11.333,-0.508,-0.956,0.0
15.581,-0.701,-0.88,1.0
15.506,-0.702,-0.965,0.0
14.001,-0.637,-0.952,0.0
13.061,-0.598,-0.964,0.0
12.032,-0.554,-0.957,0.0
11.178,-0.518,-0.954,0.0
15.483,-0.72,-0.889,1.0
15.429,-0.721,-0.975,0.0
13.795,-0.649,-0.951,0.0
12.818,-0.606,-0.958,0.0
11.893,-0.566,-0.957,0.0
11.119,-0.532,-0.959,0.0
15.395,-0.739,-0.898,1.0
15.118,-0.73,-0.969,0.0
13.629,-0.662,-0.951,0.0
12.688,-0.619,-0.96,0.0
11.768,-0.578,-0.958,0.0
10.981,-0.542,-0.957,0.0
15.327,-0.759,-0.908,1.0
14.757,-0.735,-0.958,0.0
13.586,-0.68,-0.96,0.0
12.573,-0.633,-0.962,0.0
11.621,-0.588,-0.956,0.0
10.903,-0.555,-0.959,0.0
15.258,-0.779,-0.916,1.0
14.575,-0.748,-0.958,0.0
13.401,-0.691,-0.958,0.0
12.425,-0.644,-0.961,0.0
11.483,-0.599,-0.954,0.0
10.794,-0.566,-0.958,0.0
15.16,-0.797,-0.922,0.0
14.547,-0.768,-0.968,0.0
13.341,-0.708,-0.964,0.0
12.302,-0.657,-0.96,0.0
11.449,-0.614,-0.959,0.0
10.662,-0.575,-0.955,0.0
15.084,-0.816,-0.929,1.0
14.353,-0.78,-0.965,0.0
13.023,-0.711,-0.95,0.0
12.226,-0.671,-0.963,0.0
11.326,-0.625,-0.957,0.0
10.592,-0.587,-0.956,0.0
15.039,-0.836,-0.936,1.0
14.726,-0.823,-1.001,0.0
13.017,-0.731,-0.959,0.0
12.102,-0.683,-0.962,0.0
11.228,-0.637,-0.957,0.0
10.492,-0.598,-0.954,0.0
14.951,-0.854,-0.941,1.0
14.107,-0.81,-0.968,0.0
12.939,-0.747,-0.961,0.0
11.983,-0.695,-0.96,0.0
11.123,-0.648,-0.955,0.0
10.465,-0.613,-0.958,0.0
14.921,-0.875,-0.948,1.0
13.811,-0.814,-0.956,0.0
12.84,-0.76,-0.962,0.0
11.897,-0.708,-0.96,0.0
11.11,-0.664,-0.96,0.0
10.405,-0.625,-0.959,0.0
14.86,-0.894,-0.952,1.0
13.728,-0.83,-0.958,0.0
12.704,-0.772,-0.959,0.0
11.796,-0.72,-0.959,0.0
11.073,-0.679,-0.963,0.0
10.346,-0.637,-0.959,0.0
14.797,-0.913,-0.956,1.0
13.67,-0.847,-0.961,0.0
12.651,-0.788,-0.961,0.0
11.689,-0.731,-0.956,0.0
10.283,-0.649,-0.958,0.0
14.731,-0.931,-0.959,1.0
13.642,-0.866,-0.966,0.0
12.623,-0.805,-0.965,0.0
11.67,-0.748,-0.96,0.0
10.25,-0.663,-0.96,0.0
14.706,-0.952,-0.964,1.0
0.0,0.0,0.0,0.0
12.579,-0.822,-0.967,0.0
11.598,-0.761,-0.959,0.0
10.752,-0.709,-0.95,0.0
10.177,-0.674,-0.957,0.0
14.626,-0.969,-0.965,1.0
14.469,-0.963,-1.036,0.0
12.511,-0.836,-0.967,0.0
11.56,-0.776,-0.96,0.0
10.746,-0.724,-0.953,0.0
10.136,-0.686,-0.957,0.0
14.578,-0.988,-0.967,1.0
14.501,-0.987,-1.043,0.0
12.48,-0.853,-0.968,0.0
11.512,-0.79,-0.96,0.0
10.713,-0.738,-0.954,0.0
10.13,-0.701,-0.959,0.0
14.514,-1.005,-0.967,1.0
14.413,-1.002,-1.041,0.0
12.434,-0.868,-0.969,0.0
11.491,-0.806,-0.961,0.0
10.696,-0.753,-0.955,0.0
10.095,-0.714,-0.959,0.0
14.443,-1.022,-0.966,1.0
14.306,-1.016,-1.037,0.0
12.32,-0.878,-0.963,0.0
11.448,-0.82,-0.961,0.0
10.649,-0.765,-0.954,0.0
10.098,-0.729,-0.962,0.0
14.392,-1.039,-0.966,0.0
14.123,-1.024,-1.027,0.0
12.267,-0.893,-0.961,0.0
11.4,-0.833,-0.959,0.0
10.621,-0.779,-0.953,0.0
10.066,-0.741,-0.96,0.0
14.346,-1.057,-0.965,0.0
14.005,-1.036,-1.021,0.0
12.321,-0.915,-0.968,0.0
11.41,-0.85,-0.962,0.0
10.684,-0.799,-0.961,0.0
10.068,-0.756,-0.962,0.0
14.319,-1.076,-0.966,1.0
13.97,-1.053,-1.02,0.0
12.23,-0.926,-0.962,0.0
11.383,-0.865,-0.961,0.0
10.64,-0.812,-0.958,0.0
10.02,-0.767,-0.959,0.0
14.25,-1.091,-0.962,1.0
13.136,-1.009,-0.96,0.0
12.233,-0.943,-0.963,0.0
11.374,-0.88,-0.961,0.0
10.679,-0.83,-0.962,0.0
10.039,-0.783,-0.961,0.0
14.216,-1.108,-0.96,1.0
13.268,-1.038,-0.971,0.0
12.247,-0.962,-0.965,0.0
11.396,-0.898,-0.963,0.0
10.643,-0.842,-0.959,0.0
10.05,-0.798,-0.962,0.0
14.183,-1.126,-0.959,1.0
13.335,-1.062,-0.976,0.0
12.208,-0.976,-0.962,0.0
11.409,-0.915,-0.964,0.0
10.643,-0.857,-0.959,0.0
10.043,-0.811,-0.961,0.0
14.159,-1.144,-0.956,1.0
13.413,-1.087,-0.981,0.0
12.261,-0.997,-0.965,0.0
11.382,-0.929,-0.961,0.0
10.66,-0.873,-0.96,0.0
10.05,-0.826,-0.961,0.0
14.121,-1.16,-0.953,1.0
13.264,-1.093,-0.969,0.0
12.25,-1.013,-0.963,0.0
11.376,-0.944,-0.959,0.0
10.663,-0.888,-0.959,0.0
10.083,-0.843,-0.963,0.0
14.074,-1.176,-0.948,1.0
13.303,-1.115,-0.97,0.0
12.25,-1.03,-0.962,0.0
11.429,-0.964,-0.962,0.0
10.662,-0.902,-0.957,0.0
10.07,-0.855,-0.961,0.0
14.052,-1.192,-0.945,1.0
13.433,-1.143,-0.978,0.0
12.305,-1.051,-0.964,0.0
11.422,-0.979,-0.96,0.0
10.693,-0.919,-0.958,0.0
10.108,-0.872,-0.962,0.0
14.02,-1.208,-0.94,1.0
13.404,-1.159,-0.973,0.0
12.446,-1.079,-0.973,0.0
11.509,-1.001,-0.965,0.0
10.786,-0.941,-0.964,0.0
10.126,-0.886,-0.962,0.0
13.978,-1.223,-0.934,1.0
13.431,-1.178,-0.971,0.0
12.439,-1.094,-0.969,0.0
11.58,-1.022,-0.968,0.0
10.78,-0.954,-0.961,0.0
10.154,-0.902,-0.962,0.0
13.951,-1.238,-0.928,1.0
13.625,-1.213,-0.982,0.0
12.506,-1.116,-0.971,0.0
11.617,-1.04,-0.967,0.0
10.907,-0.979,-0.969,0.0
10.197,-0.919,-0.963,0.0
13.924,-1.253,-0.922,1.0
13.743,-1.24,-0.986,0.0
12.55,-1.136,-0.97,0.0
11.676,-1.06,-0.968,0.0
10.936,-0.995,-0.968,0.0
10.243,-0.935,-0.963,0.0
13.877,-1.266,-0.914,1.0
13.791,-1.261,-0.984,0.0
12.591,-1.155,-0.968,0.0
11.748,-1.081,-0.97,0.0
10.956,-1.011,-0.965,0.0
10.275,-0.95,-0.962,0.0
13.854,-1.28,-0.907,2.0
13.826,-1.281,-0.981,0.0
12.674,-1.177,-0.97,0.0
11.77,-1.096,-0.967,0.0
10.997,-1.027,-0.964,0.0
10.318,-0.967,-0.962,0.0
13.826,-1.294,-0.899,1.0
13.809,-1.296,-0.974,1.0
12.763,-1.201,-0.971,0.0
11.868,-1.119,-0.97,0.0
11.033,-1.043,-0.962,0.0
10.397,-0.986,-0.965,0.0
13.8,-1.307,-0.891,1.0
13.785,-1.309,-0.966,1.0
12.873,-1.226,-0.973,0.0
11.933,-1.139,-0.969,0.0
11.182,-1.07,-0.97,0.0
10.424,-1.0,-0.962,0.0
13.771,-1.32,-0.882,1.0
13.756,-1.322,-0.957,1.0
13.015,-1.253,-0.977,0.0
11.988,-1.157,-0.967,0.0
11.179,-1.082,-0.964,0.0
10.517,-1.021,-0.965,0.0
13.755,-1.333,-0.874,1.0
13.734,-1.335,-0.948,1.0
13.123,-1.278,-0.978,0.0
12.064,-1.178,-0.967,0.0
11.25,-1.101,-0.963,0.0
10.589,-1.039,-0.965,0.0
13.732,-1.346,-0.865,1.0
13.716,-1.347,-0.939,1.0
13.243,-1.304,-0.979,0.0
12.141,-1.198,-0.966,0.0
11.339,-1.122,-0.964,0.0
10.579,-1.049,-0.958,0.0
13.721,-1.359,-0.856,1.0
13.686,-1.358,-0.928,1.0
13.428,-1.336,-0.985,0.0
12.225,-1.219,-0.965,0.0
11.513,-1.15,-0.972,0.0
10.74,-1.076,-0.966,0.0
13.779,-1.378,-0.85,0.0
13.654,-1.369,-0.917,1.0
13.545,-1.361,-0.984,0.0
13.594,-1.369,-1.064,0.0
11.57,-1.167,-0.969,0.0
10.759,-1.088,-0.96,0.0
13.892,-1.403,-0.848,0.0
13.643,-1.38,-0.907,1.0
13.566,-1.376,-0.976,1.0
13.207,-1.342,-1.024,0.0
11.664,-1.188,-0.969,0.0
10.936,-1.116,-0.968,0.0
14.01,-1.428,-0.845,0.0
13.621,-1.391,-0.896,1.0
13.554,-1.387,-0.966,2.0
12.855,-1.318,-0.988,0.0
11.817,-1.214,-0.973,0.0
11.056,-1.138,-0.971,0.0
14.13,-1.453,-0.842,1.0
13.608,-1.402,-0.885,1.0
13.565,-1.4,-0.956,1.0
12.896,-1.334,-0.981,0.0
11.94,-1.237,-0.974,0.0
11.122,-1.155,-0.968,0.0
14.224,-1.475,-0.837,1.0
13.596,-1.412,-0.874,1.0
13.579,-1.413,-0.947,1.0
13.062,-1.362,-0.983,0.0
12.014,-1.255,-0.97,0.0
11.22,-1.174,-0.967,0.0
14.357,-1.5,-0.833,1.0
13.586,-1.422,-0.862,1.0
13.562,-1.422,-0.935,1.0
13.311,-1.399,-0.991,0.0
12.184,-1.283,-0.974,0.0
11.35,-1.197,-0.969,0.0
14.514,-1.528,-0.83,1.0
13.629,-1.438,-0.854,0.0
13.533,-1.43,-0.921,1.0
13.485,-1.427,-0.993,1.0
12.242,-1.298,-0.968,0.0
11.487,-1.22,-0.971,0.0
14.64,-1.553,-0.825,1.0
13.78,-1.464,-0.851,0.0
13.529,-1.439,-0.909,1.0
13.523,-1.441,-0.984,1.0
13.385,-1.429,-1.047,0.0
11.632,-1.244,-0.973,0.0
14.836,-1.584,-0.823,1.0
13.902,-1.487,-0.847,0.0
13.507,-1.447,-0.896,1.0
13.512,-1.449,-0.971,1.0
13.296,-1.429,-1.028,0.0
11.783,-1.268,-0.975,0.0
15.007,-1.613,-0.819,1.0
14.028,-1.51,-0.841,0.0
13.495,-1.454,-0.883,1.0
13.498,-1.457,-0.957,1.0
13.118,-1.418,-1.002,0.0
11.955,-1.294,-0.978,0.0
15.201,-1.643,-0.815,1.0
14.236,-1.541,-0.841,1.0
13.496,-1.463,-0.87,1.0
13.429,-1.458,-0.94,3.0
13.113,-1.425,-0.989,0.0
12.097,-1.317,-0.978,0.0
15.323,-1.666,-0.807,1.0
14.342,-1.561,-0.833,1.0
13.503,-1.472,-0.857,1.0
13.37,-1.459,-0.922,8.0
13.378,-1.462,-0.996,0.0
12.188,-1.334,-0.973,0.0
15.485,-1.692,-0.8,1.0
14.506,-1.587,-0.828,0.0
13.644,-1.494,-0.853,0.0
13.364,-1.466,-0.909,8.0
13.355,-1.466,-0.98,4.0
13.155,-1.447,-1.037,0.0
15.76,-1.73,-0.799,0.0
14.712,-1.617,-0.825,0.0
13.82,-1.521,-0.849,0.0
13.408,-1.477,-0.898,3.0
13.362,-1.474,-0.967,7.0
13.356,-1.475,-1.039,1.0
16.018,-1.766,-0.796,1.0
14.939,-1.649,-0.822,1.0
13.994,-1.546,-0.845,1.0
13.434,-1.486,-0.886,1.0
13.365,-1.48,-0.953,8.0
13.34,-1.479,-1.023,1.0
16.185,-1.792,-0.786,1.0
15.128,-1.676,-0.817,1.0
14.121,-1.566,-0.838,1.0
13.433,-1.492,-0.871,1.0
13.372,-1.486,-0.939,13.0
13.317,-1.482,-1.007,1.0
16.43,-1.826,-0.781,1.0
15.286,-1.7,-0.809,1.0
14.325,-1.594,-0.835,1.0
13.465,-1.5,-0.858,1.0
13.374,-1.491,-0.925,10.0
13.341,-1.489,-0.994,6.0
16.788,-1.872,-0.779,1.0
15.505,-1.73,-0.803,1.0
14.515,-1.621,-0.83,1.0
13.596,-1.519,-0.852,0.0
13.385,-1.497,-0.911,3.0
13.347,-1.494,-0.98,14.0
17.081,-1.909,-0.774,1.0
15.754,-1.762,-0.798,1.0
14.728,-1.649,-0.826,1.0
13.823,-1.549,-0.851,0.0
13.419,-1.505,-0.898,1.0
13.357,-1.499,-0.966,14.0
17.537,-1.965,-0.775,1.0
16.021,-1.797,-0.794,1.0
14.968,-1.679,-0.822,1.0
13.973,-1.569,-0.844,1.0
13.408,-1.506,-0.882,1.0
13.362,-1.503,-0.951,16.0
17.809,-2.0,-0.767,2.0
16.25,-1.826,-0.787,1.0
15.144,-1.702,-0.814,1.0
14.138,-1.59,-0.838,1.0
13.412,-1.509,-0.866,1.0
13.351,-1.504,-0.934,14.0
18.17,-2.044,-0.761,1.0
16.56,-1.863,-0.782,1.0
15.361,-1.729,-0.808,1.0
14.354,-1.617,-0.833,0.0
13.492,-1.52,-0.856,0.0
13.357,-1.506,-0.919,5.0
18.793,-2.116,-0.766,1.0
16.862,-1.9,-0.777,1.0
15.607,-1.759,-0.803,1.0
14.606,-1.647,-0.831,1.0
13.76,-1.552,-0.856,0.0
13.392,-1.511,-0.905,2.0
19.146,-2.158,-0.757,1.0
17.296,-1.95,-0.776,1.0
15.89,-1.792,-0.798,1.0
14.81,-1.671,-0.825,1.0
13.899,-1.569,-0.848,1.0
13.398,-1.513,-0.889,2.0
19.604,-2.211,-0.752,1.0
17.687,-1.995,-0.772,2.0
16.125,-1.819,-0.79,1.0
15.058,-1.699,-0.82,1.0
14.074,-1.588,-0.842,1.0
13.396,-1.512,-0.873,2.0
20.185,-2.276,-0.75,1.0
17.934,-2.023,-0.762,1.0
16.416,-1.852,-0.785,1.0
15.23,-1.718,-0.811,1.0
14.301,-1.614,-0.838,0.0
13.446,-1.517,-0.86,0.0
20.64,-2.327,-0.742,2.0
18.615,-2.099,-0.768,1.0
16.774,-1.891,-0.781,1.0
15.527,-1.751,-0.808,1.0
14.538,-1.639,-0.834,1.0
13.671,-1.542,-0.857,0.0
21.173,-2.385,-0.735,2.0
19.018,-2.142,-0.761,1.0
17.117,-1.928,-0.776,1.0
15.766,-1.776,-0.801,1.0
14.753,-1.662,-0.828,1.0
13.858,-1.561,-0.852,0.0
21.887,-2.463,-0.732,4.0
19.487,-2.192,-0.756,1.0
17.614,-1.981,-0.777,1.0
16.054,-1.806,-0.795,1.0
15.013,-1.688,-0.824,1.0
14.039,-1.579,-0.845,1.0
22.492,-2.527,-0.725,4.0
20.116,-2.259,-0.755,1.0
17.875,-2.007,-0.766,3.0
16.341,-1.835,-0.789,1.0
15.217,-1.708,-0.816,1.0
14.259,-1.6,-0.841,1.0
23.088,-2.589,-0.715,5.0
20.515,-2.299,-0.744,2.0
18.387,-2.06,-0.765,1.0
16.706,-1.871,-0.786,1.0
15.459,-1.731,-0.809,1.0
14.501,-1.624,-0.837,1.0
23.632,-2.643,-0.702,5.0
21.086,-2.358,-0.739,3.0
18.936,-2.116,-0.764,1.0
17.025,-1.902,-0.779,1.0
15.734,-1.757,-0.804,1.0
14.726,-1.644,-0.831,1.0
24.691,-2.754,-0.702,6.0
21.723,-2.422,-0.733,4.0
19.416,-2.164,-0.759,1.0
17.466,-1.945,-0.777,1.0
16.046,-1.787,-0.799,1.0
14.976,-1.667,-0.826,1.0
25.355,-2.819,-0.689,6.0
22.44,-2.493,-0.729,4.0
20.056,-2.227,-0.758,1.0
17.972,-1.995,-0.777,1.0
16.28,-1.806,-0.791,1.0
15.205,-1.686,-0.819,1.0
26.311,-2.915,-0.682,4.0
23.047,-2.551,-0.72,5.0
20.59,-2.278,-0.753,2.0
18.363,-2.03,-0.77,1.0
16.693,-1.844,-0.789,1.0
15.429,-1.704,-0.812,1.0
27.087,-2.989,-0.668,2.0
23.741,-2.617,-0.711,4.0
21.016,-2.315,-0.741,3.0
18.876,-2.078,-0.768,2.0
17.033,-1.874,-0.784,1.0
15.721,-1.728,-0.807,0.0
27.91,-3.065,-0.652,1.0
24.759,-2.717,-0.71,5.0
21.704,-2.38,-0.738,2.0
19.368,-2.122,-0.763,1.0
17.402,-1.905,-0.778,1.0
16.039,-1.754,-0.803,1.0
29.476,-3.221,-0.652,4.0
25.446,-2.778,-0.698,6.0
22.422,-2.446,-0.734,4.0
19.912,-2.17,-0.76,1.0
17.948,-1.954,-0.78,1.0
16.262,-1.769,-0.794,1.0
30.338,-3.298,-0.633,3.0
26.155,-2.84,-0.685,4.0
22.91,-2.485,-0.721,3.0
20.48,-2.219,-0.756,3.0
18.216,-1.972,-0.769,1.0
16.608,-1.796,-0.79,1.0
31.358,-3.389,-0.615,9.0
27.033,-2.918,-0.674,4.0
23.74,-2.56,-0.718,2.0
20.982,-2.26,-0.748,3.0
18.889,-2.032,-0.774,1.0
17.052,-1.833,-0.789,1.0
32.167,-3.455,-0.59,10.0
28.027,-3.006,-0.663,2.0
24.655,-2.641,-0.714,5.0
21.539,-2.305,-0.741,2.0
19.376,-2.071,-0.769,2.0
17.416,-1.859,-0.784,1.0
32.864,-3.506,-0.563,27.0
29.174,-3.108,-0.654,2.0
25.38,-2.7,-0.704,6.0
22.23,-2.362,-0.737,3.0
19.885,-2.11,-0.765,1.0
17.891,-1.896,-0.783,1.0
33.827,-3.583,-0.537,32.0
30.485,-3.224,-0.646,6.0
26.254,-2.773,-0.696,5.0
22.879,-2.413,-0.73,4.0
20.429,-2.152,-0.76,2.0
18.245,-1.919,-0.776,1.0
34.625,-3.64,-0.508,24.0
31.342,-3.29,-0.626,9.0
26.844,-2.813,-0.679,4.0
23.526,-2.461,-0.722,2.0
20.87,-2.181,-0.752,2.0
18.794,-1.961,-0.777,1.0
35.204,-3.67,-0.473,10.0
32.355,-3.368,-0.607,10.0
27.718,-2.88,-0.667,1.0
24.527,-2.545,-0.723,4.0
21.496,-2.227,-0.748,1.0
19.235,-1.99,-0.772,1.0
40.036,-4.139,-0.489,14.0
33.187,-3.424,-0.582,17.0
28.479,-2.933,-0.651,1.0
25.276,-2.599,-0.714,6.0
22.073,-2.266,-0.741,1.0
19.772,-2.026,-0.77,2.0
40.322,-4.13,-0.445,11.0
33.909,-3.467,-0.554,23.0
30.361,-3.098,-0.657,2.0
26.046,-2.653,-0.705,6.0
22.787,-2.317,-0.738,2.0
20.209,-2.051,-0.762,1.0
0.0,0.0,0.0,0.0
34.641,-3.508,-0.525,20.0
31.091,-3.142,-0.637,3.0
26.709,-2.694,-0.692,6.0
23.003,-2.316,-0.718,5.0
20.73,-2.083,-0.758,2.0
45.019,-4.521,-0.39,20.0
37.601,-3.769,-0.526,3.0
32.233,-3.224,-0.622,6.0
27.48,-2.743,-0.68,3.0
24.349,-2.425,-0.732,5.0
21.301,-2.118,-0.754,1.0
46.938,-4.664,-0.353,15.0
0.0,0.0,0.0,0.0
33.704,-3.335,-0.612,10.0
28.146,-2.779,-0.664,2.0
25.116,-2.474,-0.726,5.0
21.909,-2.154,-0.75,0.0
0.0,0.0,0.0,0.0
40.314,-3.952,-0.471,11.0
34.367,-3.362,-0.585,11.0
29.71,-2.899,-0.667,1.0
25.794,-2.512,-0.716,6.0
22.599,-2.196,-0.748,1.0
0.0,0.0,0.0,0.0
0.0,0.0,0.0,0.0
34.829,-3.366,-0.553,25.0
30.538,-2.945,-0.651,3.0
26.498,-2.549,-0.706,6.0
23.233,-2.23,-0.743,1.0
55.308,-5.306,-0.229,30.0
45.186,-4.324,-0.427,20.0
38.157,-3.642,-0.564,4.0
31.083,-2.959,-0.628,1.0
27.246,-2.588,-0.696,6.0
23.927,-2.267,-0.739,5.0
55.902,-5.294,-0.169,20.0
46.69,-4.41,-0.391,21.0
38.848,-3.66,-0.532,15.0
33.165,-3.116,-0.634,2.0
28.065,-2.63,-0.687,5.0
24.528,-2.293,-0.731,5.0
55.193,-5.158,-0.108,29.0
50.271,-4.685,-0.367,4.0
39.739,-3.693,-0.502,15.0
34.754,-3.221,-0.628,8.0
28.791,-2.661,-0.674,5.0
25.651,-2.365,-0.737,1.0
54.99,-5.066,-0.05,151.0
54.587,-5.014,-0.34,8.0
40.281,-3.69,-0.466,7.0
35.319,-3.226,-0.6,12.0
30.174,-2.748,-0.674,5.0
0.0,0.0,0.0,0.0
55.072,-5.0,0.007,4.0
54.91,-4.97,-0.286,29.0
45.027,-4.063,-0.475,5.0
37.047,-3.334,-0.592,13.0
30.681,-2.753,-0.655,2.0
26.874,-2.404,-0.717,6.0
0.0,0.0,0.0,0.0
55.666,-4.962,-0.234,12.0
46.031,-4.09,-0.44,21.0
37.963,-3.363,-0.569,14.0
31.367,-2.77,-0.638,1.0
27.392,-2.412,-0.704,5.0
0.0,0.0,0.0,0.0
56.873,-4.989,-0.183,1.0
47.284,-4.134,-0.405,21.0
39.13,-3.411,-0.548,15.0
32.343,-2.81,-0.626,1.0
28.032,-2.428,-0.693,4.0
0.0,0.0,0.0,0.0
0.0,0.0,0.0,0.0
49.768,-4.279,-0.378,23.0
40.062,-3.432,-0.523,15.0
33.741,-2.882,-0.621,1.0
29.2,-2.486,-0.694,5.0
0.0,0.0,0.0,0.0
79.539,-6.743,-0.104,10.0
50.51,-4.267,-0.337,7.0
41.167,-3.466,-0.499,16.0
35.132,-2.947,-0.614,2.0
29.911,-2.501,-0.683,7.0
79.382,-6.633,0.393,25.0
79.834,-6.646,-0.032,24.0
53.975,-4.477,-0.311,6.0
45.623,-3.771,-0.512,13.0
35.966,-2.963,-0.597,2.0
30.555,-2.508,-0.671,8.0
79.371,-6.511,0.463,28.0
79.881,-6.528,0.037,31.0
57.216,-4.658,-0.28,3.0
46.293,-3.755,-0.479,22.0
39.251,-3.172,-0.617,2.0
31.066,-2.502,-0.655,2.0
79.496,-6.397,0.531,26.0
79.423,-6.365,0.104,14.0
61.217,-4.888,-0.247,4.0
47.214,-3.755,-0.449,21.0
39.854,-3.157,-0.593,14.0
31.663,-2.499,-0.641,2.0
0.0,0.0,0.0,0.0
61.484,-4.829,0.132,25.0
61.696,-4.826,-0.198,2.0
49.312,-3.841,-0.428,23.0
40.371,-3.132,-0.567,3.0
33.35,-2.577,-0.648,2.0
65.783,-5.079,0.549,4.0
65.579,-5.042,0.194,151.0
66.176,-5.067,-0.16,1.0
50.125,-3.822,-0.396,14.0
41.757,-3.171,-0.554,3.0
34.057,-2.575,-0.635,2.0
65.637,-4.958,0.598,8.0
65.548,-4.93,0.245,150.0
66.145,-4.953,-0.108,3.0
53.583,-3.995,-0.381,9.0
44.507,-3.304,-0.556,8.0
34.569,-2.555,-0.618,2.0
65.609,-4.843,0.648,6.0
65.517,-4.814,0.294,0.0
66.732,-4.881,-0.059,1.0
0.0,0.0,0.0,0.0
46.3,-3.356,-0.544,7.0
35.535,-2.564,-0.609,2.0
65.574,-4.726,0.696,1.0
65.651,-4.709,0.343,1.0
65.616,-4.684,-0.01,1.0
57.035,-4.052,-0.322,8.0
46.854,-3.313,-0.518,20.0
36.439,-2.565,-0.599,1.0
65.728,-4.621,0.743,0.0
65.567,-4.586,0.388,35.0
65.449,-4.557,0.034,0.0
59.163,-4.099,-0.294,8.0
0.0,0.0,0.0,0.0
37.747,-2.589,-0.595,2.0
65.433,-4.483,0.784,0.0
65.587,-4.47,0.432,157.0
65.396,-4.435,0.077,2.0
79.431,-5.36,-0.343,2.0
24.632,-1.654,-0.239,3.0
24.535,-1.639,-0.371,24.0
24.606,-1.641,0.31,15.0
65.568,-4.351,0.472,9.0
24.565,-1.621,0.044,22.0
24.552,-1.612,-0.091,38.0
24.529,-1.602,-0.223,36.0
24.52,-1.593,-0.356,47.0
24.553,-1.592,0.324,42.0
24.528,-1.582,0.191,43.0
24.529,-1.573,0.058,46.0
24.528,-1.565,-0.076,61.0
24.501,-1.554,-0.209,41.0
24.508,-1.547,-0.342,71.0
24.542,-1.546,0.338,77.0
24.511,-1.535,0.205,47.0
24.518,-1.527,0.072,63.0
24.526,-1.519,-0.063,92.0
24.496,-1.508,-0.195,57.0
24.506,-1.5,-0.328,54.0
24.551,-1.5,0.351,83.0
24.524,-1.489,0.218,58.0
24.509,-1.48,0.085,68.0
24.531,-1.472,-0.05,72.0
24.521,-1.463,-0.183,66.0
24.517,-1.454,-0.316,81.0
24.547,-1.452,0.364,53.0
24.533,-1.443,0.23,43.0
24.527,-1.434,0.097,41.0
24.552,-1.426,-0.038,59.0
24.532,-1.417,-0.171,60.0
24.528,-1.408,-0.305,58.0
24.598,-1.409,0.376,38.0
24.589,-1.399,0.242,38.0
24.602,-1.391,0.108,32.0
24.585,-1.382,-0.027,31.0
24.557,-1.371,-0.161,27.0
24.559,-1.363,-0.294,38.0
0.0,0.0,0.0,0.0
65.755,-3.615,0.676,6.0
65.779,-3.593,0.318,0.0
0.0,0.0,0.0,0.0
65.6,-3.536,-0.403,4.0
45.246,-2.422,-0.524,1.0
85.997,-4.592,1.386,8.0
0.0,0.0,0.0,0.0
0.0,0.0,0.0,0.0
66.04,-3.453,-0.021,1.0
65.622,-3.407,-0.378,5.0
47.461,-2.447,-0.532,2.0
86.105,-4.426,1.419,13.0
82.878,-4.229,0.914,3.0
0.0,0.0,0.0,0.0
0.0,0.0,0.0,0.0
65.595,-3.276,-0.356,4.0
31.299,-1.551,-0.34,12.0
83.642,-4.132,1.406,7.0
82.835,-4.061,0.94,4.0
68.648,-3.341,0.404,1.0
0.0,0.0,0.0,0.0
31.258,-1.497,-0.16,25.0
31.206,-1.484,-0.33,43.0
86.44,-4.096,1.479,2.0
83.099,-3.906,0.967,42.0
31.287,-1.459,0.193,19.0
31.223,-1.444,0.019,42.0
31.219,-1.433,-0.151,57.0
31.182,-1.42,-0.321,52.0
31.308,-1.42,0.543,34.0
31.241,-1.405,0.371,36.0
31.233,-1.392,0.2,48.0
28.47,-1.259,0.024,49.0
28.457,-1.248,-0.131,61.0
28.45,-1.237,-0.287,59.0
28.448,-1.231,0.5,67.0
28.441,-1.22,0.344,65.0
28.427,-1.209,0.188,98.0
28.449,-1.2,0.029,115.0
28.447,-1.189,-0.125,107.0
28.454,-1.179,-0.281,119.0
28.451,-1.173,0.505,133.0
28.44,-1.161,0.349,151.0
28.449,-1.151,0.193,142.0
28.44,-1.14,0.034,73.0
28.459,-1.131,-0.121,66.0
28.476,-1.121,-0.277,64.0
28.46,-1.114,0.51,66.0
31.228,-1.211,0.388,23.0
31.243,-1.2,0.216,43.0
31.278,-1.19,0.042,58.0
31.333,-1.18,-0.129,62.0
31.386,-1.17,-0.302,21.0
31.307,-1.16,0.564,52.0
31.336,-1.15,0.392,45.0
80.304,-2.918,0.565,27.0
80.464,-2.894,0.115,31.0
80.38,-2.862,-0.325,7.0
53.873,-1.898,-0.514,4.0
152.226,-5.33,2.754,5.0
84.471,-2.927,1.064,31.0
80.437,-2.756,0.57,28.0
80.471,-2.727,0.12,12.0
38.743,-1.298,-0.155,29.0
38.679,-1.282,-0.367,37.0
38.683,-1.273,0.701,45.0
38.671,-1.258,0.488,43.0
38.668,-1.243,0.275,58.0
38.66,-1.229,0.058,64.0
38.662,-1.214,-0.154,58.0
38.638,-1.2,-0.367,56.0
38.659,-1.191,0.7,83.0
38.619,-1.175,0.487,69.0
38.632,-1.161,0.274,71.0
38.649,-1.147,0.057,81.0
38.656,-1.134,-0.155,150.0
38.652,-1.119,-0.368,57.0
38.659,-1.11,0.699,80.0
38.639,-1.095,0.485,71.0
38.65,-1.081,0.272,73.0
38.637,-1.066,0.055,68.0
38.665,-1.052,-0.158,52.0
38.703,-1.039,-0.371,46.0
38.675,-1.028,0.696,53.0
38.69,-1.014,0.483,35.0
38.702,-1.0,0.269,30.0
38.756,-0.987,0.051,13.0
38.819,-0.975,-0.162,13.0
0.0,0.0,0.0,0.0
40.421,-0.989,0.723,29.0
40.407,-0.974,0.499,37.0
40.417,-0.959,0.276,39.0
40.402,-0.943,0.048,44.0
40.417,-0.929,-0.174,51.0
40.427,-0.915,-0.398,26.0
40.411,-0.903,0.716,5.0
38.388,-0.843,0.468,23.0
38.372,-0.829,0.255,54.0
38.366,-0.815,0.039,37.0
38.379,-0.801,-0.173,11.0
45.442,-0.932,-0.456,21.0
52.981,-1.072,0.929,14.0
52.985,-1.052,0.636,27.0
52.953,-1.032,0.342,46.0
52.981,-1.014,0.043,23.0
52.954,-0.994,-0.25,59.0
45.511,-0.838,-0.467,16.0
191.794,-3.476,3.321,4.0
0.0,0.0,0.0,0.0
20.134,-0.349,0.125,6.0
20.13,-0.342,0.011,49.0
59.575,-0.992,-0.296,3.0
52.76,-0.859,-0.555,13.0
59.527,-0.952,1.015,9.0
20.131,-0.314,0.231,10.0
20.116,-0.307,0.119,13.0
59.528,-0.887,0.017,11.0
56.555,-0.822,-0.297,1.0
52.767,-0.748,-0.571,8.0
20.134,-0.279,0.337,13.0
20.125,-0.272,0.225,11.0
20.151,-0.265,0.113,3.0
59.56,-0.761,-0.002,29.0
56.425,-0.701,-0.315,1.0
46.273,-0.559,-0.516,4.0
20.148,-0.237,0.33,10.0
20.174,-0.23,0.218,3.0
56.158,-0.62,0.296,11.0
56.192,-0.6,-0.022,1.0
56.439,-0.582,-0.336,1.0
45.614,-0.454,-0.525,6.0
53.47,-0.516,0.856,19.0
64.349,-0.597,0.672,18.0
66.517,-0.594,0.324,14.0
20.176,-0.172,-0.015,0.0
20.167,-0.165,-0.128,14.0
20.155,-0.158,-0.24,23.0
20.195,-0.151,0.314,18.0
20.144,-0.143,0.201,17.0
20.125,-0.136,0.089,18.0
20.15,-0.129,-0.024,24.0
20.146,-0.122,-0.137,27.0
20.132,-0.115,-0.249,35.0
20.13,-0.108,0.304,27.0
20.134,-0.101,0.192,26.0
20.128,-0.094,0.08,39.0
20.132,-0.087,-0.034,28.0
20.14,-0.08,-0.146,37.0
20.138,-0.073,-0.259,28.0
20.129,-0.066,0.294,32.0
20.114,-0.059,0.182,32.0
20.128,-0.052,0.07,40.0
20.128,-0.045,-0.044,32.0
20.155,-0.038,-0.157,27.0
20.178,-0.032,-0.27,18.0
20.122,-0.025,0.284,27.0
20.122,-0.018,0.171,28.0
20.148,-0.011,0.059,27.0
20.264,-0.004,-0.055,150.0
20.259,0.002,-0.169,151.0
20.27,0.009,-0.282,150.0
20.137,0.016,0.273,29.0
20.135,0.023,0.16,27.0
20.221,0.03,0.047,11.0
20.245,0.037,-0.067,7.0
20.218,0.044,-0.18,17.0
20.39,0.051,-0.296,0.0
20.151,0.058,0.261,28.0
20.149,0.065,0.148,27.0
20.206,0.072,0.035,33.0
20.186,0.079,-0.079,31.0
20.192,0.085,-0.192,24.0
20.212,0.092,-0.306,22.0
20.169,0.099,0.248,29.0
20.173,0.107,0.135,25.0
20.189,0.113,0.022,29.0
20.181,0.12,-0.093,34.0
20.179,0.127,-0.206,26.0
20.19,0.134,-0.319,32.0
20.189,0.141,0.235,23.0
20.193,0.148,0.121,24.0
20.253,0.155,0.008,26.0
20.206,0.161,-0.106,23.0
20.177,0.168,-0.22,25.0
20.175,0.174,-0.333,35.0
20.295,0.183,0.222,29.0
20.321,0.19,0.108,29.0
20.324,0.197,-0.006,18.0
20.242,0.202,-0.121,0.0
20.174,0.208,-0.234,18.0
20.181,0.215,-0.348,29.0
20.292,0.224,0.206,24.0
20.332,0.231,0.092,2.0
99.639,1.166,-0.104,2.0
0.0,0.0,0.0,0.0
20.203,0.249,-0.25,0.0
20.198,0.256,-0.364,11.0
0.0,0.0,0.0,0.0
99.62,1.333,0.377,6.0
101.475,1.39,-0.186,1.0
0.0,0.0,0.0,0.0
0.0,0.0,0.0,0.0
0.0,0.0,0.0,0.0
0.0,0.0,0.0,0.0
99.668,1.531,0.296,6.0
0.0,0.0,0.0,0.0
0.0,0.0,0.0,0.0
0.0,0.0,0.0,0.0
0.0,0.0,0.0,0.0
0.0,0.0,0.0,0.0
99.863,1.73,0.212,15.0
0.0,0.0,0.0,0.0
0.0,0.0,0.0,0.0
0.0,0.0,0.0,0.0
38.855,0.722,-0.798,0.0
99.967,1.895,0.687,3.0
99.894,1.924,0.124,5.0
0.0,0.0,0.0,0.0
0.0,0.0,0.0,0.0
0.0,0.0,0.0,0.0
37.117,0.761,-0.795,0.0
100.081,2.09,0.597,1.0
100.075,2.121,0.032,11.0
0.0,0.0,0.0,0.0
0.0,0.0,0.0,0.0
0.0,0.0,0.0,0.0
36.985,0.829,-0.827,0.0
100.112,2.281,0.504,3.0
100.112,2.312,-0.062,29.0
0.0,0.0,0.0,0.0
0.0,0.0,0.0,0.0
0.0,0.0,0.0,0.0
35.377,0.859,-0.825,0.0
100.306,2.475,0.407,1.0
0.0,0.0,0.0,0.0
73.019,1.845,-0.529,1.0
0.0,0.0,0.0,0.0
40.698,1.052,-0.759,0.0
34.206,0.895,-0.832,0.0
0.0,0.0,0.0,0.0
0.0,0.0,0.0,0.0
69.071,1.872,-0.57,1.0
0.0,0.0,0.0,0.0
40.015,1.108,-0.787,0.0
32.751,0.917,-0.83,1.0
0.0,0.0,0.0,0.0
0.0,0.0,0.0,0.0
0.0,0.0,0.0,0.0
0.0,0.0,0.0,0.0
0.0,0.0,0.0,0.0
32.105,0.956,-0.847,1.0
0.0,0.0,0.0,0.0
0.0,0.0,0.0,0.0
0.0,0.0,0.0,0.0
0.0,0.0,0.0,0.0
36.816,1.152,-0.802,0.0
31.993,1.01,-0.879,0.0
0.0,0.0,0.0,0.0
0.0,0.0,0.0,0.0
0.0,0.0,0.0,0.0
0.0,0.0,0.0,0.0
35.761,1.182,-0.819,0.0
30.131,1.004,-0.861,0.0
0.0,0.0,0.0,0.0
68.865,2.341,-0.475,1.0
0.0,0.0,0.0,0.0
0.0,0.0,0.0,0.0
35.61,1.24,-0.856,0.0
29.713,1.043,-0.883,1.0
0.0,0.0,0.0,0.0
68.971,2.464,-0.556,3.0
0.0,0.0,0.0,0.0
0.0,0.0,0.0,0.0
32.8,1.198,-0.827,0.0
28.527,1.05,-0.881,0.0
0.0,0.0,0.0,0.0
0.0,0.0,0.0,0.0
0.0,0.0,0.0,0.0
37.33,1.417,-0.773,0.0
32.111,1.228,-0.848,0.0
0.0,0.0,0.0,0.0
0.0,0.0,0.0,0.0
0.0,0.0,0.0,0.0
0.0,0.0,0.0,0.0
36.377,1.442,-0.798,0.0
30.249,1.207,-0.836,0.0
26.36,1.059,-0.878,0.0
0.0,0.0,0.0,0.0
0.0,0.0,0.0,0.0
0.0,0.0,0.0,0.0
35.384,1.461,-0.82,0.0
30.04,1.247,-0.867,1.0
20.232,0.845,-0.699,2.0
68.988,2.907,-0.5,5.0
0.0,0.0,0.0,0.0
0.0,0.0,0.0,0.0
33.961,1.456,-0.83,0.0
20.251,0.873,-0.61,1.0
20.193,0.876,-0.723,161.0
69.013,3.017,-0.587,1.0
0.0,0.0,0.0,0.0
0.0,0.0,0.0,0.0
32.519,1.445,-0.836,0.0
20.249,0.905,-0.636,32.0
20.196,0.907,-0.749,178.0
0.0,0.0,0.0,0.0
0.0,0.0,0.0,0.0
37.253,1.703,-0.789,0.0
31.293,1.438,-0.844,0.0
20.244,0.935,-0.662,0.0
20.238,0.94,-0.777,151.0
0.0,0.0,0.0,0.0
42.475,1.996,-0.713,2.0
0.0,0.0,0.0,0.0
0.0,0.0,0.0,0.0
25.859,1.233,-0.88,0.0
20.213,0.969,-0.803,0.0
0.0,0.0,0.0,0.0
0.0,0.0,0.0,0.0
0.0,0.0,0.0,0.0
28.976,1.418,-0.859,0.0
24.941,1.226,-0.882,0.0
21.868,1.08,-0.898,0.0
0.0,0.0,0.0,0.0
0.0,0.0,0.0,0.0
32.411,1.626,-0.817,0.0
28.126,1.417,-0.873,0.0
24.142,1.222,-0.887,0.0
21.814,1.109,-0.926,0.0
0.0,0.0,0.0,0.0
37.648,1.934,-0.786,0.0
31.608,1.63,-0.841,0.0
26.747,1.385,-0.867,0.0
23.706,1.233,-0.904,0.0
0.0,0.0,0.0,0.0
0.0,0.0,0.0,0.0
35.707,1.883,-0.796,0.0
30.572,1.619,-0.856,0.0
25.897,1.377,-0.876,0.0
21.874,1.168,-0.865,0.0
0.0,0.0,0.0,0.0
0.0,0.0,0.0,0.0
33.734,1.824,-0.799,0.0
29.107,1.58,-0.856,0.0
24.965,1.36,-0.88,0.0
21.817,1.194,-0.894,2.0
0.0,0.0,0.0,0.0
38.506,2.125,-0.747,0.0
32.802,1.817,-0.824,1.0
28.188,1.567,-0.87,0.0
24.022,1.341,-0.881,0.0
21.781,1.22,-0.924,2.0
0.0,0.0,0.0,0.0
37.051,2.093,-0.773,0.0
31.56,1.788,-0.839,0.0
26.906,1.53,-0.869,0.0
21.93,1.251,-0.836,1.0
20.61,1.18,-0.904,0.0
0.0,0.0,0.0,0.0
35.369,2.042,-0.789,0.0
30.013,1.738,-0.842,0.0
25.524,1.483,-0.862,1.0
21.86,1.274,-0.866,6.0
19.908,1.164,-0.903,0.0
0.0,0.0,0.0,0.0
33.528,1.975,-0.797,1.0
28.806,1.702,-0.85,0.0
25.32,1.501,-0.892,1.0
21.785,1.296,-0.895,10.0
19.523,1.165,-0.914,0.0
0.0,0.0,0.0,0.0
32.118,1.93,-0.812,1.0
27.829,1.677,-0.863,0.0
23.858,1.442,-0.877,0.0
21.735,1.318,-0.925,1.0
19.36,1.177,-0.936,0.0
0.0,0.0,0.0,0.0
31.637,1.936,-0.847,1.0
26.88,1.65,-0.874,0.0
21.925,1.349,-0.839,2.0
20.611,1.272,-0.909,0.0
0.0,0.0,0.0,0.0
0.0,0.0,0.0,0.0
30.079,1.874,-0.851,0.0
25.676,1.604,-0.874,0.0
21.847,1.368,-0.869,7.0
19.72,1.239,-0.9,0.0
18.039,1.136,-0.927,0.0
0.0,0.0,0.0,0.0
28.503,1.806,-0.85,0.0
24.582,1.561,-0.874,0.0
21.799,1.388,-0.901,8.0
19.406,1.239,-0.915,0.0
0.0,0.0,0.0,0.0
0.0,0.0,0.0,0.0
27.353,1.76,-0.858,0.0
23.658,1.526,-0.878,0.0
21.721,1.405,-0.931,0.0
0.0,0.0,0.0,0.0
0.0,0.0,0.0,0.0
15.572,1.015,-0.938,0.0
26.282,1.717,-0.865,0.0
21.915,1.435,-0.847,3.0
20.173,1.324,-0.896,0.0
18.278,1.203,-0.918,0.0
16.659,1.099,-0.933,0.0
15.047,0.995,-0.93,0.0
25.119,1.664,-0.865,0.0
21.815,1.448,-0.877,9.0
19.626,1.306,-0.902,0.0
17.782,1.186,-0.921,0.0
16.234,1.085,-0.934,0.0
14.846,0.995,-0.94,0.0
24.354,1.635,-0.877,0.0
21.75,1.463,-0.908,1.0
19.434,1.31,-0.923,0.0
17.282,1.168,-0.923,0.0
15.772,1.068,-0.933,0.0
14.546,0.987,-0.944,0.0
23.544,1.601,-0.885,0.0
0.0,0.0,0.0,0.0
0.0,0.0,0.0,0.0
16.786,1.148,-0.922,0.0
15.24,1.045,-0.925,0.0
14.127,0.97,-0.939,0.0
21.877,1.505,-0.856,0.0
0.0,0.0,0.0,0.0
0.0,0.0,0.0,0.0
16.423,1.136,-0.928,0.0
14.968,1.038,-0.932,0.0
0.0,0.0,0.0,0.0
21.794,1.516,-0.887,1.0
19.424,1.353,-0.902,0.0
17.446,1.218,-0.911,0.0
16.02,1.12,-0.93,0.0
14.712,1.031,-0.939,0.0
13.502,0.948,-0.94,0.0
21.581,1.516,-0.912,0.0
0.0,0.0,0.0,0.0
17.107,1.206,-0.92,0.0
15.513,1.096,-0.925,0.0
0.0,0.0,0.0,0.0
13.206,0.936,-0.941,0.0
20.624,1.463,-0.904,0.0
0.0,0.0,0.0,0.0
16.609,1.182,-0.92,0.0
15.143,1.08,-0.927,0.0
14.071,1.005,-0.943,0.0
12.96,0.927,-0.943,0.0
19.652,1.406,-0.892,0.0
17.802,1.276,-0.911,0.0
16.231,1.165,-0.924,0.0
14.825,1.066,-0.931,0.0
13.581,0.978,-0.932,0.0
12.671,0.914,-0.942,0.0
19.382,1.399,-0.91,0.0
17.319,1.251,-0.913,0.0
15.88,1.149,-0.929,0.0
14.566,1.056,-0.938,0.0
13.386,0.972,-0.939,0.0
12.405,0.902,-0.942,0.0
0.0,0.0,0.0,0.0
16.933,1.233,-0.919,0.0
15.4,1.123,-0.925,0.0
0.0,0.0,0.0,0.0
13.101,0.958,-0.94,0.0
12.179,0.892,-0.944,0.0
0.0,0.0,0.0,0.0
16.487,1.208,-0.921,0.0
15.034,1.103,-0.926,0.0
13.98,1.027,-0.944,0.0
12.85,0.946,-0.942,0.0
11.921,0.879,-0.943,0.0
17.599,1.297,-0.909,0.0
16.091,1.187,-0.924,0.0
14.76,1.09,-0.933,0.0
0.0,0.0,0.0,0.0
12.565,0.93,-0.94,0.0
11.677,0.866,-0.942,0.0
17.174,1.272,-0.913,0.0
15.667,1.162,-0.924,0.0
14.481,1.075,-0.937,0.0
13.289,0.988,-0.938,0.0
12.322,0.917,-0.941,0.0
11.463,0.854,-0.942,0.0
16.82,1.252,-0.921,0.0
15.28,1.139,-0.924,0.0
0.0,0.0,0.0,0.0
13.001,0.971,-0.938,0.0
12.086,0.904,-0.942,0.0
11.283,0.845,-0.945,0.0
16.378,1.225,-0.921,0.0
14.94,1.118,-0.926,0.0
0.0,0.0,0.0,0.0
12.764,0.957,-0.941,0.0
11.853,0.89,-0.942,0.0
11.123,0.836,-0.949,0.0
15.998,1.201,-0.924,0.0
14.65,1.101,-0.931,0.0
13.524,1.017,-0.938,0.0
12.483,0.94,-0.939,0.0
11.629,0.876,-0.942,0.0
10.867,0.82,-0.943,0.0
15.57,1.173,-0.923,0.0
14.412,1.087,-0.938,0.0
13.236,0.999,-0.937,0.0
12.282,0.928,-0.942,0.0
11.434,0.864,-0.943,0.0
10.641,0.805,-0.94,0.0
15.169,1.146,-0.922,0.0
14.18,1.072,-0.944,0.0
12.969,0.981,-0.938,0.0
12.032,0.911,-0.941,0.0
11.241,0.852,-0.944,0.0
10.482,0.795,-0.942,0.0
14.891,1.127,-0.927,0.0
0.0,0.0,0.0,0.0
12.676,0.961,-0.936,0.0
11.751,0.891,-0.937,0.0
11.117,0.844,-0.951,0.0
10.338,0.785,-0.944,0.0
14.591,1.106,-0.93,0.0
13.497,1.024,-0.939,0.0
12.503,0.949,-0.942,0.0
11.573,0.879,-0.94,0.0
10.825,0.823,-0.942,0.0
10.154,0.772,-0.943,0.0
14.405,1.093,-0.94,0.0
13.237,1.005,-0.94,0.0
12.264,0.932,-0.942,0.0
11.349,0.863,-0.938,0.0
10.634,0.809,-0.941,0.0
10.018,0.763,-0.945,0.0
14.131,1.073,-0.942,0.0
12.973,0.986,-0.94,0.0
11.969,0.91,-0.937,0.0
11.257,0.856,-0.947,0.0
10.474,0.797,-0.942,0.0
9.892,0.753,-0.947,0.0
13.754,1.044,-0.937,0.0
12.677,0.963,-0.937,0.0
11.749,0.893,-0.936,0.0
10.955,0.833,-0.937,0.0
10.353,0.787,-0.946,0.0
9.679,0.737,-0.941,0.0
13.46,1.021,-0.936,0.0
12.489,0.948,-0.94,0.0
11.582,0.879,-0.939,0.0
10.833,0.823,-0.942,0.0
10.174,0.773,-0.944,0.0
9.559,0.727,-0.942,0.0
13.263,1.005,-0.941,0.0
12.254,0.929,-0.94,0.0
11.406,0.865,-0.941,0.0
10.608,0.805,-0.937,0.0
10.052,0.763,-0.947,0.0
9.455,0.718,-0.945,0.0
12.965,0.981,-0.938,0.0
12.033,0.911,-0.94,0.0
11.222,0.849,-0.941,0.0
10.481,0.794,-0.941,0.0
9.865,0.747,-0.943,0.0
9.315,0.706,-0.944,0.0
12.733,0.961,-0.938,0.0
11.785,0.89,-0.936,0.0
11.074,0.836,-0.944,0.0
10.34,0.781,-0.942,0.0
9.677,0.731,-0.938,0.0
9.235,0.698,-0.949,0.0
12.505,0.942,-0.938,0.0
11.644,0.877,-0.941,0.0
10.937,0.824,-0.947,0.0
10.171,0.766,-0.94,0.0
9.615,0.724,-0.945,0.0
9.077,0.684,-0.944,0.0
12.342,0.926,-0.942,0.0
11.471,0.861,-0.942,0.0
10.695,0.803,-0.94,0.0
10.065,0.755,-0.944,0.0
9.469,0.711,-0.943,0.0
8.959,0.672,-0.944,0.0
12.073,0.903,-0.937,0.0
11.241,0.84,-0.937,0.0
10.496,0.785,-0.936,0.0
9.891,0.739,-0.94,0.0
9.398,0.702,-0.948,0.0
8.853,0.662,-0.944,0.0
11.885,0.885,-0.938,0.0
11.135,0.829,-0.943,0.0
10.407,0.774,-0.941,0.0
9.807,0.73,-0.945,0.0
9.254,0.688,-0.945,0.0
8.73,0.649,-0.942,0.0
11.704,0.867,-0.938,0.0
10.923,0.809,-0.938,0.0
10.29,0.762,-0.944,0.0
9.644,0.714,-0.941,0.0
9.159,0.678,-0.947,0.0
8.643,0.64,-0.944,0.0
11.568,0.852,-0.941,0.0
10.807,0.796,-0.942,0.0
10.1,0.744,-0.938,0.0
9.575,0.705,-0.946,0.0
9.03,0.664,-0.945,0.0
8.533,0.628,-0.942,0.0
11.378,0.833,-0.94,0.0
10.604,0.776,-0.937,0.0
10.021,0.733,-0.943,0.0
9.422,0.689,-0.942,0.0
8.914,0.652,-0.943,0.0
8.453,0.618,-0.943,0.0
11.258,0.819,-0.943,0.0
10.47,0.761,-0.937,0.0
9.892,0.719,-0.943,0.0
9.328,0.678,-0.944,0.0
8.809,0.64,-0.942,0.0
8.35,0.606,-0.942,0.0
11.079,0.8,-0.941,0.0
10.351,0.747,-0.938,0.0
9.822,0.709,-0.947,0.0
9.258,0.668,-0.947,0.0
8.719,0.629,-0.942,0.0
8.299,0.598,-0.945,0.0
10.911,0.782,-0.938,0.0
10.243,0.734,-0.94,0.0
9.692,0.694,-0.945,0.0
9.123,0.653,-0.943,0.0
8.645,0.618,-0.944,0.0
8.219,0.588,-0.945,0.0
10.82,0.77,-0.942,0.0
10.145,0.721,-0.942,0.0
9.57,0.68,-0.943,0.0
9.007,0.639,-0.941,0.0
8.546,0.606,-0.942,0.0
8.119,0.576,-0.942,0.0
10.611,0.748,-0.935,0.0
10.073,0.71,-0.945,0.0
9.459,0.666,-0.942,0.0
8.938,0.629,-0.943,0.0
8.45,0.594,-0.94,0.0
8.048,0.565,-0.942,0.0
10.512,0.735,-0.937,0.0
9.948,0.694,-0.944,0.0
9.388,0.655,-0.945,0.0
8.852,0.617,-0.943,0.0
8.387,0.584,-0.942,0.0
7.995,0.556,-0.944,0.0
10.47,0.725,-0.943,0.0
9.847,0.681,-0.944,0.0
9.237,0.638,-0.939,0.0
8.776,0.605,-0.943,0.0
8.315,0.573,-0.942,0.0
7.933,0.546,-0.944,0.0
10.346,0.709,-0.942,0.0
9.733,0.666,-0.942,0.0
9.183,0.628,-0.942,0.0
8.685,0.593,-0.942,0.0
8.244,0.562,-0.941,0.0
7.883,0.537,-0.946,0.0
10.272,0.696,-0.945,0.0
9.629,0.652,-0.941,0.0
9.1,0.615,-0.941,0.0
8.625,0.582,-0.943,0.0
8.207,0.553,-0.945,0.0
7.829,0.528,-0.946,0.0
10.149,0.68,-0.942,0.0
9.592,0.642,-0.946,0.0
9.019,0.603,-0.941,0.0
8.543,0.57,-0.941,0.0
8.12,0.541,-0.942,0.0
7.754,0.516,-0.944,0.0
10.071,0.666,-0.944,0.0
9.444,0.624,-0.939,0.0
8.931,0.589,-0.939,0.0
8.447,0.557,-0.938,0.0
8.049,0.53,-0.94,0.0
7.728,0.508,-0.947,0.0
9.977,0.652,-0.943,0.0
9.4,0.613,-0.942,0.0
8.869,0.578,-0.94,0.0
8.411,0.547,-0.941,0.0
8.023,0.521,-0.943,0.0
7.691,0.499,-0.949,0.0
9.904,0.639,-0.944,0.0
9.359,0.603,-0.945,0.0
8.802,0.566,-0.939,0.0
8.343,0.536,-0.939,0.0
8.004,0.513,-0.947,0.0
7.63,0.488,-0.947,0.0
9.819,0.624,-0.943,0.0
9.264,0.588,-0.942,0.0
8.745,0.554,-0.94,0.0
8.31,0.526,-0.941,0.0
7.93,0.501,-0.944,0.0
7.595,0.479,-0.948,0.0
9.741,0.611,-0.942,0.0
9.224,0.577,-0.945,0.0
8.672,0.542,-0.938,0.0
8.247,0.514,-0.94,0.0
7.88,0.491,-0.943,0.0
7.542,0.469,-0.946,0.0
9.674,0.597,-0.942,0.0
9.126,0.563,-0.94,0.0
8.625,0.531,-0.938,0.0
8.23,0.506,-0.943,0.0
7.86,0.482,-0.946,0.0
7.519,0.46,-0.948,0.0
9.627,0.585,-0.943,0.0
9.089,0.552,-0.942,0.0
8.577,0.519,-0.938,0.0
8.162,0.493,-0.94,0.0
7.791,0.47,-0.942,0.0
7.465,0.45,-0.946,0.0
9.575,0.573,-0.943,0.0
9.031,0.539,-0.941,0.0
8.549,0.509,-0.94,0.0
8.16,0.485,-0.945,0.0
7.775,0.461,-0.945,0.0
7.451,0.441,-0.948,0.0
9.505,0.559,-0.942,0.0
8.994,0.528,-0.942,0.0
8.503,0.498,-0.939,0.0
8.107,0.474,-0.943,0.0
7.74,0.451,-0.944,0.0
7.452,0.434,-0.952,0.0
9.462,0.547,-0.942,0.0
8.92,0.514,-0.939,0.0
8.478,0.488,-0.941,0.0
8.071,0.463,-0.942,0.0
7.69,0.44,-0.942,0.0
7.405,0.423,-0.949,0.0
9.436,0.535,-0.943,0.0
8.892,0.503,-0.94,0.0
8.446,0.477,-0.941,0.0
8.056,0.454,-0.944,0.0
7.704,0.433,-0.947,0.0
7.396,0.415,-0.951,0.0
9.38,0.522,-0.942,0.0
8.842,0.491,-0.938,0.0
8.4,0.465,-0.939,0.0
8.006,0.442,-0.941,0.0
7.671,0.423,-0.946,0.0
7.354,0.404,-0.949,0.0
9.351,0.511,-0.942,0.0
8.817,0.48,-0.938,0.0
8.392,0.456,-0.941,0.0
7.995,0.433,-0.943,0.0
7.678,0.415,-0.949,0.0
7.354,0.396,-0.951,0.0
9.308,0.498,-0.941,0.0
8.804,0.47,-0.94,0.0
8.356,0.445,-0.939,0.0
7.985,0.424,-0.944,0.0
7.658,0.405,-0.949,0.0
7.292,0.385,-0.945,0.0
9.304,0.488,-0.943,0.0
8.765,0.458,-0.938,0.0
8.363,0.436,-0.942,0.0
7.929,0.412,-0.939,0.0
7.598,0.394,-0.943,0.0
7.289,0.377,-0.947,0.0
9.256,0.475,-0.94,0.0
8.737,0.447,-0.937,0.0
8.338,0.425,-0.941,0.0
7.947,0.404,-0.943,0.0
7.613,0.386,-0.947,0.0
7.291,0.368,-0.948,0.0
9.25,0.464,-0.941,0.0
8.745,0.437,-0.939,0.0
8.341,0.415,-0.943,0.0
7.903,0.392,-0.939,0.0
7.567,0.374,-0.942,0.0
7.275,0.359,-0.947,0.0
9.237,0.452,-0.941,0.0
8.729,0.426,-0.939,0.0
8.306,0.404,-0.94,0.0
7.928,0.384,-0.943,0.0
7.579,0.366,-0.945,0.0
7.255,0.349,-0.946,0.0
9.197,0.44,-0.938,0.0
8.711,0.415,-0.938,0.0
8.271,0.392,-0.937,0.0
7.923,0.375,-0.943,0.0
7.589,0.358,-0.947,0.0
7.263,0.341,-0.947,0.0
9.216,0.43,-0.941,0.0
8.738,0.406,-0.941,0.0
8.309,0.385,-0.942,0.0
7.903,0.364,-0.941,0.0
7.563,0.347,-0.943,0.0
7.261,0.332,-0.947,0.0
9.227,0.419,-0.942,0.0
8.725,0.395,-0.94,0.0
8.315,0.375,-0.942,0.0
7.905,0.355,-0.941,0.0
7.599,0.34,-0.948,0.0
7.289,0.325,-0.951,0.0
9.215,0.408,-0.94,0.0
8.731,0.385,-0.94,0.0
8.33,0.365,-0.944,0.0
7.894,0.345,-0.939,0.0
7.589,0.33,-0.946,0.0
7.31,0.317,-0.953,0.0
9.257,0.398,-0.944,0.0
8.723,0.374,-0.938,0.0
8.311,0.354,-0.941,0.0
7.93,0.337,-0.943,0.0
7.58,0.321,-0.944,0.0
7.289,0.307,-0.949,0.0
9.244,0.386,-0.941,0.0
8.733,0.363,-0.938,0.0
8.349,0.346,-0.944,0.0
7.9,0.326,-0.938,0.0
7.622,0.313,-0.948,0.0
7.31,0.299,-0.951,0.0
9.237,0.375,-0.939,0.0
8.76,0.354,-0.939,0.0
8.34,0.335,-0.941,0.0
7.919,0.317,-0.939,0.0
7.613,0.303,-0.945,0.0
7.299,0.289,-0.948,0.0
9.264,0.365,-0.94,0.0
8.778,0.344,-0.939,0.0
8.395,0.327,-0.945,0.0
7.938,0.308,-0.939,0.0
7.675,0.296,-0.951,0.0
7.335,0.282,-0.95,0.0
9.291,0.354,-0.94,0.0
8.827,0.335,-0.942,0.0
8.373,0.316,-0.94,0.0
7.962,0.299,-0.94,0.0
7.639,0.285,-0.944,0.0
7.366,0.274,-0.952,0.0
9.354,0.345,-0.943,0.0
8.846,0.325,-0.941,0.0
8.397,0.306,-0.94,0.0
7.982,0.29,-0.939,0.0
7.641,0.276,-0.942,0.0
7.363,0.265,-0.949,0.0
9.387,0.335,-0.943,0.0
8.849,0.314,-0.938,0.0
8.438,0.297,-0.942,0.0
8.042,0.282,-0.943,0.0
7.709,0.269,-0.947,0.0
7.345,0.255,-0.944,0.0
9.398,0.323,-0.941,0.0
8.936,0.306,-0.944,0.0
8.454,0.288,-0.94,0.0
8.107,0.274,-0.947,0.0
7.703,0.259,-0.943,0.0
7.419,0.248,-0.95,0.0
9.451,0.314,-0.942,0.0
8.937,0.295,-0.94,0.0
8.507,0.279,-0.942,0.0
8.112,0.264,-0.944,0.0
7.743,0.251,-0.944,0.0
7.454,0.24,-0.951,0.0
9.529,0.304,-0.945,0.0
9.009,0.286,-0.943,0.0
8.551,0.27,-0.943,0.0
8.104,0.254,-0.939,0.0
7.79,0.243,-0.946,0.0
7.452,0.231,-0.947,0.0
9.575,0.294,-0.944,0.0
9.036,0.276,-0.941,0.0
8.572,0.26,-0.94,0.0
8.195,0.247,-0.945,0.0
7.802,0.234,-0.943,0.0
7.49,0.223,-0.947,0.0
9.616,0.284,-0.943,0.0
9.106,0.267,-0.943,0.0
8.615,0.251,-0.94,0.0
8.239,0.238,-0.945,0.0
7.853,0.225,-0.944,0.0
7.558,0.215,-0.951,0.0
9.693,0.274,-0.944,0.0
9.123,0.256,-0.939,0.0
8.686,0.242,-0.942,0.0
8.275,0.229,-0.944,0.0
7.899,0.217,-0.945,0.0
7.571,0.207,-0.948,0.0
9.764,0.265,-0.945,0.0
9.229,0.248,-0.944,0.0
8.729,0.233,-0.941,0.0
8.292,0.22,-0.94,0.0
7.952,0.209,-0.945,0.0
7.624,0.199,-0.949,0.0
9.845,0.255,-0.945,0.0
9.278,0.238,-0.942,0.0
8.784,0.224,-0.94,0.0
8.33,0.21,-0.938,0.0
7.994,0.2,-0.944,0.0
7.653,0.19,-0.946,0.0
9.907,0.245,-0.944,0.0
9.398,0.23,-0.947,0.0
8.847,0.215,-0.94,0.0
8.403,0.202,-0.94,0.0
8.058,0.192,-0.946,0.0
7.701,0.182,-0.946,0.0
9.987,0.234,-0.943,0.0
9.475,0.22,-0.947,0.0
8.911,0.205,-0.939,0.0
8.48,0.194,-0.941,0.0
8.107,0.184,-0.945,0.0
7.768,0.174,-0.948,0.0
10.096,0.225,-0.945,0.0
9.56,0.211,-0.947,0.0
9.009,0.197,-0.942,0.0
8.559,0.185,-0.942,0.0
8.168,0.175,-0.944,0.0
7.821,0.166,-0.947,0.0
10.197,0.215,-0.945,0.0
9.617,0.201,-0.944,0.0
9.123,0.189,-0.945,0.0
8.628,0.177,-0.942,0.0
8.226,0.167,-0.943,0.0
7.851,0.158,-0.944,0.0
10.285,0.205,-0.944,0.0
9.734,0.192,-0.947,0.0
9.214,0.18,-0.946,0.0
8.711,0.169,-0.943,0.0
8.311,0.159,-0.945,0.0
7.939,0.151,-0.946,0.0
10.425,0.196,-0.947,0.0
9.854,0.184,-0.948,0.0
9.326,0.172,-0.948,0.0
8.79,0.16,-0.943,0.0
8.333,0.15,-0.939,0.0
7.996,0.143,-0.945,0.0
10.52,0.186,-0.945,0.0
9.903,0.173,-0.943,0.0
9.404,0.163,-0.947,0.0
8.857,0.152,-0.941,0.0
8.462,0.143,-0.945,0.0
8.012,0.134,-0.938,0.0
10.612,0.176,-0.942,0.0
10.063,0.165,-0.948,0.0
9.476,0.153,-0.944,0.0
8.983,0.144,-0.944,0.0
8.557,0.135,-0.946,0.0
8.102,0.126,-0.94,0.0
10.803,0.167,-0.947,0.0
10.165,0.155,-0.946,0.0
9.633,0.145,-0.948,0.0
9.096,0.135,-0.946,0.0
8.632,0.127,-0.945,0.0
8.227,0.119,-0.945,0.0
10.989,0.158,-0.951,0.0
10.321,0.147,-0.949,0.0
9.728,0.136,-0.947,0.0
9.194,0.127,-0.945,0.0
8.725,0.119,-0.944,0.0
8.326,0.112,-0.946,0.0
11.119,0.149,-0.949,0.0
10.457,0.138,-0.949,0.0
9.871,0.128,-0.949,0.0
9.319,0.119,-0.947,0.0
8.822,0.111,-0.944,0.0
8.381,0.104,-0.942,0.0
11.22,0.138,-0.944,0.0
10.564,0.128,-0.945,0.0
9.952,0.119,-0.944,0.0
9.45,0.111,-0.949,0.0
8.953,0.103,-0.947,0.0
8.472,0.096,-0.942,0.0
11.39,0.129,-0.944,0.0
10.632,0.118,-0.938,0.0
10.14,0.111,-0.949,0.0
9.573,0.103,-0.949,0.0
9.067,0.095,-0.947,0.0
8.611,0.089,-0.946,0.0
11.586,0.119,-0.945,0.0
20.431,0.207,-1.777,0.0
10.288,0.102,-0.95,0.0
9.7,0.094,-0.948,0.0
9.188,0.088,-0.948,0.0
8.708,0.081,-0.945,0.0
11.788,0.11,-0.946,0.0
11.131,0.102,-0.953,0.0
10.428,0.093,-0.948,0.0
9.847,0.086,-0.949,0.0
9.31,0.08,-0.948,0.0
8.803,0.074,-0.943,0.0
12.03,0.1,-0.949,0.0
11.321,0.092,-0.953,0.0
10.567,0.084,-0.946,0.0
9.955,0.078,-0.946,0.0
9.451,0.072,-0.949,0.0
8.955,0.067,-0.947,0.0
12.244,0.091,-0.949,0.0
11.446,0.083,-0.948,1.0
10.769,0.076,-0.949,0.0
10.164,0.07,-0.951,0.0
9.627,0.064,-0.953,0.0
9.084,0.059,-0.947,0.0
12.49,0.081,-0.95,0.0
11.524,0.073,-0.938,0.0
10.908,0.067,-0.946,0.0
10.311,0.061,-0.95,0.0
9.743,0.056,-0.95,0.0
9.239,0.052,-0.95,0.0
12.719,0.071,-0.948,0.0
11.874,0.064,-0.948,0.0
11.137,0.058,-0.949,0.0
10.447,0.053,-0.947,0.0
9.902,0.048,-0.95,0.0
9.382,0.044,-0.95,0.0
13.032,0.062,-0.952,0.0
12.157,0.055,-0.952,0.0
11.343,0.05,-0.949,0.0
10.637,0.045,-0.947,0.0
10.057,0.041,-0.949,0.0
9.517,0.037,-0.949,0.0
13.268,0.052,-0.949,0.0
12.373,0.046,-0.95,0.0
11.558,0.041,-0.949,0.0
10.895,0.037,-0.953,0.0
10.262,0.033,-0.953,0.0
9.67,0.03,-0.949,0.0
13.518,0.042,-0.945,0.0
12.642,0.037,-0.951,0.0
11.805,0.033,-0.95,0.0
11.113,0.029,-0.955,0.0
10.439,0.025,-0.952,0.0
9.877,0.022,-0.953,0.0
20.251,0.047,-1.383,0.0
12.934,0.028,-0.952,0.0
12.092,0.024,-0.954,0.0
11.258,0.02,-0.949,0.0
10.614,0.018,-0.951,0.0
10.038,0.015,-0.952,0.0
20.241,0.031,-1.35,0.0
13.259,0.018,-0.954,0.0
12.34,0.015,-0.953,0.0
11.534,0.012,-0.953,0.0
20.242,0.019,-1.78,0.0
10.254,0.008,-0.956,0.0
14.612,0.012,-0.95,0.0
12.621,0.006,-0.954,0.0
11.713,0.004,-0.948,0.0
10.422,0.001,-0.954,0.0
14.927,0.002,-0.945,0.0
12.915,-0.001,-0.954,0.0
12.021,-0.003,-0.952,0.0
11.245,-0.004,-0.95,0.0
10.612,-0.005,-0.953,0.0
15.36,-0.007,-0.946,0.0
12.269,-0.011,-0.95,0.0
11.519,-0.012,-0.953,0.0
10.774,-0.012,-0.948,0.0
15.748,-0.018,-0.942,0.0
12.582,-0.019,-0.953,0.0
11.749,-0.019,-0.951,0.0
11.072,-0.019,-0.955,0.0
16.314,-0.028,-0.947,0.0
14.941,-0.028,-0.946,0.0
12.944,-0.027,-0.957,0.0
12.12,-0.027,-0.959,0.0
11.31,-0.026,-0.955,0.0
16.689,-0.038,-0.939,0.0
15.357,-0.037,-0.945,0.0
13.258,-0.035,-0.956,0.0
12.417,-0.034,-0.96,0.0
11.523,-0.033,-0.952,0.0
15.83,-0.047,-0.945,0.0
14.682,-0.045,-0.953,0.0
12.642,-0.041,-0.954,0.0
11.82,-0.04,-0.954,0.0
16.402,-0.057,-0.948,0.0
15.074,-0.054,-0.95,0.0
13.064,-0.049,-0.961,0.0
12.15,-0.047,-0.958,0.0
16.834,-0.066,-0.941,0.0
15.513,-0.062,-0.949,0.0
13.296,-0.056,-0.953,0.0
12.485,-0.054,-0.96,0.0
16.088,-0.072,-0.953,0.0
14.759,-0.067,-0.953,0.0
20.186,-0.094,-1.409,0.0
12.792,-0.06,-0.96,0.0
16.553,-0.08,-0.949,0.0
15.176,-0.075,-0.951,0.0
14.042,-0.07,-0.953,0.0
13.132,-0.067,-0.96,0.0
20.283,-0.102,-0.913,70.0
18.566,-0.095,-0.932,0.0
15.63,-0.083,-0.949,0.0
14.555,-0.078,-0.959,0.0
13.468,-0.073,-0.958,0.0
20.28,-0.109,-0.873,2.0
16.24,-0.091,-0.954,0.0
14.907,-0.084,-0.953,0.0
13.911,-0.08,-0.962,0.0
22.602,-0.128,-0.929,10.0
20.281,-0.116,-0.939,30.0
18.293,-0.106,-0.941,0.0
16.683,-0.098,-0.947,0.0
15.374,-0.091,-0.953,0.0
14.256,-0.086,-0.957,0.0
22.629,-0.134,-0.885,6.0
20.275,-0.122,-0.898,38.0
15.913,-0.098,-0.954,0.0
14.68,-0.091,-0.956,0.0
24.694,-0.152,-0.917,0.0
22.496,-0.14,-0.952,4.0
20.19,-0.127,-0.958,2.0
16.451,-0.105,-0.953,0.0
15.109,-0.097,-0.954,0.0
22.611,-0.145,-0.911,37.0
20.281,-0.131,-0.922,82.0
18.477,-0.12,-0.937,0.0
16.909,-0.111,-0.946,0.0
15.593,-0.103,-0.953,0.0
20.216,-0.131,-0.669,1.0
22.619,-0.148,-0.866,1.0
20.267,-0.133,-0.881,3.0
16.176,-0.108,-0.956,0.0
20.219,-0.134,-0.628,21.0
25.015,-0.167,-0.906,0.0
22.607,-0.151,-0.936,25.0
20.225,-0.136,-0.944,18.0
18.205,-0.123,-0.944,0.0
16.685,-0.113,-0.952,0.0
20.207,-0.135,-0.587,33.0
20.22,-0.136,-0.691,0.0
22.595,-0.153,-0.889,13.0
20.278,-0.138,-0.905,39.0
18.717,-0.127,-0.932,0.0
17.128,-0.117,-0.941,0.0
20.195,-0.136,-0.545,39.0
20.196,-0.137,-0.649,15.0
22.526,-0.153,-0.959,4.0
20.174,-0.138,-0.963,2.0
17.962,-0.123,-0.95,0.0
20.179,-0.136,-0.503,35.0
20.204,-0.137,-0.607,29.0
26.187,-0.178,-0.922,0.0
22.604,-0.154,-0.915,37.0
20.28,-0.138,-0.925,68.0
18.512,-0.126,-0.94,1.0
20.168,-0.135,-0.46,34.0
20.189,-0.136,-0.565,34.0
20.211,-0.136,-0.67,5.0
22.611,-0.152,-0.868,0.0
20.272,-0.137,-0.883,2.0
20.165,-0.134,-0.418,37.0
20.18,-0.134,-0.523,37.0
20.211,-0.134,-0.628,20.0
24.988,-0.166,-0.907,0.0
22.601,-0.15,-0.937,32.0
20.264,-0.134,-0.945,26.0
20.158,-0.132,-0.376,36.0
20.176,-0.132,-0.48,28.0
20.191,-0.132,-0.585,28.0
58.312,-0.381,-1.996,2.0
22.609,-0.147,-0.89,10.0
20.269,-0.131,-0.902,29.0
20.149,-0.129,-0.333,34.0
20.162,-0.129,-0.437,36.0
20.19,-0.128,-0.542,30.0
28.096,-0.178,-0.903,2.0
22.529,-0.142,-0.956,7.0
20.147,-0.125,-0.292,36.0
20.153,-0.125,-0.395,36.0
20.172,-0.124,-0.499,27.0
20.18,-0.124,-0.606,18.0
22.598,-0.138,-0.911,22.0
20.141,-0.12,-0.249,32.0
20.151,-0.12,-0.353,37.0
20.165,-0.119,-0.457,34.0
20.192,-0.119,-0.563,27.0
28.069,-0.165,-0.928,4.0
24.504,-0.143,-0.937,0.0
