X,Y,Z,Reflectivity
102.325,3.058,4.441,5.0
193.648,5.77,7.28,19.0
102.135,3.044,6.628,11.0
69.206,2.055,4.087,5.0
103.645,3.067,5.519,2.0
104.368,3.077,4.939,1.0
193.758,5.691,8.041,5.0
193.732,5.671,6.917,9.0
110.398,3.232,6.953,4.0
103.714,3.024,5.928,4.0
110.053,3.197,5.65,4.0
194.85,5.638,8.849,5.0
193.574,5.579,7.665,9.0
193.044,5.543,6.525,19.0
67.444,1.935,4.119,4.0
103.704,2.964,5.729,6.0
110.455,3.144,5.46,4.0
102.216,2.897,4.447,2.0
193.695,5.467,7.303,6.0
193.233,5.433,6.166,17.0
118.394,3.326,7.007,3.0
103.581,2.896,5.526,3.0
110.562,3.078,5.255,7.0
102.395,2.838,4.26,5.0
193.592,5.342,6.931,13.0
193.362,5.311,5.799,6.0
69.152,1.897,3.959,1.0
103.919,2.837,5.344,4.0
0.0,0.0,0.0,0.0
102.986,2.785,4.089,2.0
193.248,5.202,6.55,15.0
194.586,5.213,5.467,18.0
103.781,2.775,5.744,6.0
103.143,2.744,5.109,6.0
120.086,3.179,5.25,5.0
156.931,4.133,5.933,8.0
193.486,5.071,6.191,5.0
194.195,5.063,5.088,22.0
103.789,2.7,5.549,10.0
102.898,2.663,4.903,2.0
102.582,2.64,4.291,6.0
0.0,0.0,0.0,0.0
0.0,0.0,0.0,0.0
193.968,4.911,4.715,31.0
104.006,2.625,5.363,4.0
0.0,0.0,0.0,0.0
102.708,2.563,4.101,2.0
0.0,0.0,0.0,0.0
194.348,4.795,5.487,17.0
193.991,4.758,4.35,31.0
110.51,2.7,5.489,2.0
0.0,0.0,0.0,0.0
0.0,0.0,0.0,0.0
0.0,0.0,0.0,0.0
194.401,4.633,5.117,22.0
193.958,4.593,3.98,31.0
116.817,2.755,5.58,2.0
125.174,2.933,5.253,4.0
0.0,0.0,0.0,0.0
194.959,4.506,5.896,12.0
194.493,4.465,4.752,21.0
194.062,4.426,3.619,17.0
116.288,2.64,5.337,3.0
102.679,2.314,4.115,3.0
148.165,3.316,5.078,3.0
194.698,4.325,5.523,21.0
194.122,4.281,4.382,24.0
194.188,4.253,3.26,11.0
112.271,2.445,4.943,2.0
132.931,2.872,5.08,2.0
0.0,0.0,0.0,0.0
194.862,4.145,5.165,19.0
196.796,4.155,4.077,5.0
0.0,0.0,0.0,0.0
124.626,2.593,5.254,14.0
0.0,0.0,0.0,0.0
0.0,0.0,0.0,0.0
194.618,3.951,4.799,12.0
195.36,3.934,3.686,20.0
103.166,2.059,1.348,7.0
124.721,2.471,5.027,16.0
0.0,0.0,0.0,0.0
197.914,3.854,5.684,6.0
194.516,3.752,4.438,19.0
194.387,3.714,3.306,5.0
103.173,1.953,1.158,19.0
124.772,2.343,4.8,24.0
148.787,2.767,4.86,3.0
0.0,0.0,0.0,0.0
194.573,3.547,4.08,14.0
194.857,3.519,2.96,14.0
0.0,0.0,0.0,0.0
124.791,2.21,4.574,21.0
0.0,0.0,0.0,0.0
0.0,0.0,0.0,0.0
195.063,3.348,3.742,24.0
0.0,0.0,0.0,0.0
99.701,1.674,0.759,3.0
124.897,2.076,4.355,32.0
0.0,0.0,0.0,0.0
196.866,3.197,4.583,9.0
194.7,3.126,3.388,32.0
0.0,0.0,0.0,0.0
99.734,1.563,0.582,5.0
124.945,1.937,4.136,18.0
196.73,3.01,5.372,9.0
196.238,2.963,4.221,25.0
194.698,2.902,3.042,33.0
0.0,0.0,0.0,0.0
99.668,1.446,0.404,6.0
125.001,1.789,3.914,16.0
20.317,0.286,0.518,0.0
20.279,0.282,0.4,1.0
20.271,0.278,0.28,0.0
0.0,0.0,0.0,0.0
99.674,1.327,0.229,5.0
20.3,0.266,0.6,1.0
20.283,0.261,0.482,25.0
20.275,0.257,0.364,18.0
20.285,0.253,0.245,10.0
20.321,0.249,0.128,0.0
99.584,1.204,0.056,4.0
20.287,0.241,0.564,26.0
20.272,0.236,0.447,28.0
20.29,0.232,0.33,27.0
20.293,0.228,0.211,23.0
20.302,0.224,0.094,18.0
20.331,0.22,-0.023,0.0
20.268,0.215,0.529,29.0
20.273,0.211,0.412,34.0
20.283,0.206,0.295,24.0
20.299,0.202,0.176,28.0
20.326,0.198,0.059,33.0
20.282,0.193,-0.057,4.0
20.27,0.189,0.495,31.0
20.275,0.184,0.378,29.0
20.296,0.18,0.261,27.0
20.27,0.175,0.142,23.0
20.283,0.171,0.025,28.0
20.2,0.166,-0.091,22.0
20.184,0.161,0.459,22.0
20.186,0.156,0.343,23.0
20.169,0.152,0.226,20.0
20.206,0.148,0.108,32.0
20.196,0.143,-0.008,27.0
20.177,0.138,-0.125,37.0
20.17,0.133,0.425,27.0
20.158,0.129,0.309,27.0
20.158,0.124,0.192,25.0
20.185,0.12,0.074,32.0
20.183,0.115,-0.041,31.0
20.182,0.11,-0.157,32.0
20.161,0.106,0.393,28.0
20.161,0.101,0.276,28.0
20.158,0.096,0.16,26.0
20.193,0.091,0.042,32.0
20.195,0.087,-0.074,30.0
20.196,0.082,-0.19,19.0
20.142,0.077,0.36,28.0
20.145,0.072,0.244,27.0
20.146,0.067,0.128,27.0
20.199,0.063,0.01,28.0
20.215,0.058,-0.106,25.0
20.219,0.053,-0.222,4.0
20.145,0.048,0.328,30.0
20.127,0.043,0.212,27.0
20.153,0.038,0.096,26.0
20.264,0.033,-0.021,150.0
20.26,0.028,-0.138,151.0
20.256,0.023,-0.254,151.0
20.135,0.018,0.296,29.0
20.129,0.013,0.18,27.0
20.212,0.008,0.065,101.0
20.267,0.003,-0.053,65.0
20.214,-0.002,-0.169,11.0
20.235,-0.006,-0.286,1.0
20.124,-0.011,0.265,27.0
20.119,-0.017,0.15,29.0
20.135,-0.022,0.034,29.0
20.16,-0.027,-0.083,31.0
20.134,-0.032,-0.199,12.0
20.178,-0.037,-0.315,22.0
20.116,-0.042,0.235,33.0
20.122,-0.048,0.119,39.0
20.128,-0.053,0.004,35.0
20.145,-0.058,-0.113,29.0
20.141,-0.063,-0.229,24.0
20.149,-0.069,-0.345,21.0
20.13,-0.074,0.205,28.0
20.13,-0.079,0.09,40.0
20.134,-0.084,-0.025,28.0
20.136,-0.09,-0.143,34.0
20.135,-0.095,-0.259,36.0
20.151,-0.101,-0.375,35.0
20.141,-0.106,0.176,25.0
20.143,-0.111,0.06,31.0
20.152,-0.117,-0.054,24.0
20.125,-0.122,-0.172,19.0
20.148,-0.127,-0.288,33.0
20.152,-0.133,-0.404,35.0
20.177,-0.138,0.148,17.0
20.164,-0.144,0.032,17.0
20.162,-0.149,-0.083,15.0
20.129,-0.155,-0.2,9.0
20.162,-0.16,-0.316,27.0
20.171,-0.166,-0.432,28.0
53.359,-0.454,0.317,4.0
53.353,-0.469,0.011,7.0
56.402,-0.511,-0.311,1.0
45.104,-0.421,-0.512,19.0
37.954,-0.364,-0.648,11.0
20.198,-0.199,-0.461,25.0
56.182,-0.57,0.258,9.0
56.2,-0.586,-0.063,3.0
59.194,-0.633,-0.405,12.0
44.91,-0.493,-0.569,30.0
0.0,0.0,0.0,0.0
30.561,-0.352,-0.737,4.0
59.607,-0.702,0.196,2.0
56.342,-0.68,-0.137,1.0
58.778,-0.726,-0.479,5.0
44.861,-0.567,-0.627,6.0
35.873,-0.463,-0.707,3.0
29.729,-0.393,-0.756,8.0
59.522,-0.802,0.119,72.0
56.692,-0.78,-0.211,1.0
52.877,-0.742,-0.499,15.0
38.44,-0.551,-0.586,14.0
31.446,-0.46,-0.66,22.0
28.243,-0.421,-0.754,2.0
20.149,-0.305,0.014,22.0
59.473,-0.92,-0.296,6.0
45.266,-0.713,-0.484,19.0
38.006,-0.61,-0.627,22.0
30.639,-0.501,-0.681,28.0
27.616,-0.46,-0.772,1.0
20.132,-0.34,-0.009,33.0
52.957,-0.911,-0.328,35.0
44.957,-0.787,-0.536,32.0
0.0,0.0,0.0,0.0
30.451,-0.551,-0.714,25.0
26.916,-0.495,-0.785,1.0
52.976,-0.989,-0.09,19.0
45.618,-0.865,-0.338,18.0
44.871,-0.864,-0.588,15.0
31.476,-0.616,-0.596,9.0
29.544,-0.587,-0.728,9.0
25.651,-0.517,-0.779,2.0
38.384,-0.784,-0.11,21.0
38.366,-0.796,-0.329,56.0
38.314,-0.806,-0.547,26.0
31.1,-0.664,-0.625,28.0
28.431,-0.616,-0.734,2.0
23.974,-0.527,-0.755,5.0
40.419,-0.899,-0.162,38.0
40.419,-0.911,-0.392,53.0
38.135,-0.871,-0.587,24.0
30.684,-0.71,-0.651,30.0
27.924,-0.655,-0.752,1.0
23.776,-0.565,-0.775,16.0
40.414,-0.971,-0.206,37.0
38.781,-0.943,-0.418,23.0
37.924,-0.935,-0.626,13.0
30.502,-0.761,-0.68,33.0
25.119,-0.635,-0.703,1.0
23.627,-0.604,-0.796,5.0
38.724,-1.0,-0.238,41.0
38.645,-1.01,-0.458,30.0
31.531,-0.834,-0.553,7.0
30.386,-0.814,-0.709,23.0
24.922,-0.675,-0.724,8.0
22.494,-0.617,-0.781,2.0
38.66,-1.07,-0.278,64.0
38.48,-1.077,-0.496,24.0
31.221,-0.884,-0.58,24.0
30.16,-0.863,-0.735,8.0
24.469,-0.708,-0.735,25.0
22.004,-0.644,-0.787,1.0
38.649,-1.14,-0.316,69.0
38.294,-1.142,-0.531,18.0
30.92,-0.932,-0.604,33.0
28.706,-0.875,-0.727,1.0
23.85,-0.734,-0.74,17.0
21.485,-0.669,-0.789,0.0
38.654,-1.212,-0.353,54.0
38.134,-1.209,-0.565,13.0
30.666,-0.981,-0.628,33.0
27.878,-0.901,-0.732,1.0
23.763,-0.776,-0.759,15.0
20.943,-0.691,-0.788,0.0
38.703,-1.286,-0.389,27.0
38.01,-1.275,-0.598,11.0
30.57,-1.035,-0.654,30.0
27.505,-0.941,-0.747,1.0
23.347,-0.806,-0.767,7.0
20.393,-0.711,-0.786,0.0
45.131,-1.584,-0.493,19.0
38.001,-1.346,-0.631,2.0
30.499,-1.09,-0.679,29.0
25.106,-0.906,-0.704,6.0
23.077,-0.84,-0.778,4.0
20.193,-0.742,-0.795,0.0
31.375,-1.159,-0.369,23.0
31.206,-1.164,-0.544,35.0
30.464,-1.146,-0.703,18.0
24.655,-0.936,-0.712,13.0
22.248,-0.852,-0.768,3.0
19.821,-0.766,-0.797,0.0
28.482,-1.106,-0.358,67.0
28.478,-1.116,-0.519,61.0
28.464,-1.125,-0.68,58.0
24.234,-0.966,-0.718,15.0
21.901,-0.88,-0.773,1.0
19.364,-0.785,-0.794,0.0
28.453,-1.159,-0.379,144.0
28.46,-1.169,-0.54,150.0
28.458,-1.178,-0.701,123.0
23.886,-0.997,-0.726,19.0
21.628,-0.91,-0.78,1.0
19.046,-0.808,-0.794,0.0
28.448,-1.213,-0.4,77.0
28.454,-1.222,-0.56,58.0
28.418,-1.231,-0.72,31.0
23.808,-1.039,-0.741,18.0
21.489,-0.945,-0.79,0.0
18.725,-0.83,-0.794,0.0
31.191,-1.389,-0.46,64.0
30.65,-1.375,-0.625,34.0
28.028,-1.267,-0.73,2.0
23.755,-1.082,-0.755,12.0
20.917,-0.96,-0.783,0.0
18.383,-0.85,-0.792,0.0
31.192,-1.448,-0.48,48.0
30.593,-1.43,-0.643,32.0
24.637,-1.16,-0.657,1.0
23.572,-1.118,-0.764,5.0
20.587,-0.984,-0.783,0.0
18.337,-0.883,-0.801,1.0
31.214,-1.508,-0.499,42.0
30.565,-1.487,-0.661,27.0
24.591,-1.205,-0.67,8.0
23.335,-1.152,-0.77,5.0
20.201,-1.004,-0.78,0.0
18.075,-0.905,-0.8,1.0
31.292,-1.571,-0.518,20.0
30.52,-1.543,-0.677,25.0
24.362,-1.24,-0.677,13.0
22.788,-1.168,-0.764,3.0
19.895,-1.027,-0.779,0.0
17.75,-0.922,-0.795,0.0
31.317,-1.632,-0.535,22.0
30.523,-1.602,-0.693,3.0
24.251,-1.281,-0.687,16.0
22.342,-1.188,-0.761,2.0
19.758,-1.057,-0.784,0.0
17.555,-0.946,-0.795,0.0
24.574,-1.328,-0.432,25.0
24.507,-1.332,-0.568,36.0
24.129,-1.32,-0.695,16.0
22.07,-1.215,-0.762,1.0
19.598,-1.086,-0.787,0.0
17.412,-0.971,-0.797,0.0
24.537,-1.372,-0.442,47.0
24.467,-1.377,-0.578,29.0
24.026,-1.36,-0.702,16.0
21.784,-1.241,-0.761,1.0
19.37,-1.11,-0.786,1.0
17.262,-0.995,-0.797,0.0
24.504,-1.416,-0.451,64.0
24.451,-1.422,-0.587,33.0
23.936,-1.4,-0.709,14.0
21.491,-1.265,-0.759,1.0
19.189,-1.136,-0.786,1.0
17.211,-1.025,-0.801,0.0
24.488,-1.461,-0.46,81.0
24.439,-1.467,-0.596,36.0
23.899,-1.442,-0.717,15.0
21.223,-1.288,-0.757,2.0
18.998,-1.16,-0.785,0.0
17.012,-1.045,-0.798,1.0
24.491,-1.508,-0.468,63.0
24.422,-1.512,-0.603,27.0
23.842,-1.484,-0.722,14.0
21.199,-1.327,-0.763,2.0
18.785,-1.183,-0.781,0.0
16.935,-1.072,-0.799,0.0
24.489,-1.554,-0.475,59.0
24.421,-1.558,-0.61,30.0
23.814,-1.527,-0.728,13.0
20.904,-1.348,-0.758,0.0
18.672,-1.211,-0.782,1.0
16.858,-1.099,-0.8,1.0
24.493,-1.599,-0.481,39.0
24.422,-1.603,-0.616,28.0
23.792,-1.57,-0.733,12.0
20.845,-1.383,-0.761,0.0
18.637,-1.243,-0.784,1.0
16.821,-1.128,-0.802,1.0
24.531,-1.648,-0.487,20.0
24.472,-1.652,-0.622,25.0
23.769,-1.613,-0.737,13.0
20.86,-1.423,-0.765,1.0
18.475,-1.267,-0.781,1.0
16.74,-1.154,-0.801,1.0
30.72,-2.12,-0.615,8.0
24.552,-1.703,-0.629,13.0
23.718,-1.653,-0.739,9.0
20.642,-1.446,-0.76,0.0
18.386,-1.294,-0.78,1.0
16.686,-1.181,-0.801,1.0
31.037,-2.199,-0.626,7.0
24.77,-1.763,-0.637,4.0
23.684,-1.694,-0.741,6.0
20.511,-1.474,-0.758,1.0
18.359,-1.326,-0.781,1.0
16.684,-1.211,-0.802,1.0
31.188,-2.266,-0.631,5.0
24.888,-1.817,-0.642,4.0
23.666,-1.736,-0.742,10.0
20.656,-1.523,-0.765,2.0
18.366,-1.36,-0.782,1.0
16.726,-1.245,-0.805,1.0
31.116,-2.318,-0.632,4.0
24.885,-1.862,-0.643,1.0
23.71,-1.782,-0.744,5.0
20.575,-1.554,-0.762,1.0
18.323,-1.39,-0.781,2.0
16.636,-1.268,-0.801,1.0
31.119,-2.373,-0.632,2.0
24.934,-1.91,-0.645,4.0
23.671,-1.821,-0.743,5.0
20.508,-1.585,-0.76,1.0
18.363,-1.426,-0.782,1.0
16.556,-1.291,-0.797,1.0
30.96,-2.416,-0.628,7.0
25.26,-1.98,-0.652,2.0
23.617,-1.859,-0.741,5.0
20.506,-1.621,-0.759,1.0
18.37,-1.459,-0.782,1.0
16.564,-1.321,-0.797,1.0
31.136,-2.485,-0.629,3.0
25.436,-2.038,-0.655,2.0
23.625,-1.901,-0.739,5.0
20.443,-1.652,-0.755,1.0
18.4,-1.493,-0.781,1.0
16.532,-1.348,-0.794,1.0
31.002,-2.528,-0.623,4.0
25.465,-2.085,-0.653,2.0
23.637,-1.943,-0.737,5.0
20.491,-1.692,-0.754,0.0
18.475,-1.532,-0.782,1.0
16.575,-1.38,-0.793,1.0
31.228,-2.6,-0.624,3.0
27.306,-2.283,-0.696,2.0
23.678,-1.987,-0.734,9.0
20.703,-1.744,-0.758,1.0
18.473,-1.563,-0.779,1.0
16.613,-1.411,-0.792,1.0
31.364,-2.665,-0.621,3.0
27.275,-2.326,-0.69,2.0
23.725,-2.031,-0.731,13.0
20.722,-1.781,-0.755,0.0
18.553,-1.601,-0.779,1.0
16.61,-1.439,-0.789,0.0
31.571,-2.736,-0.618,1.0
27.31,-2.375,-0.685,6.0
23.762,-2.074,-0.727,11.0
20.805,-1.823,-0.753,1.0
18.58,-1.634,-0.775,1.0
16.723,-1.477,-0.79,0.0
31.491,-2.781,-0.608,1.0
27.479,-2.435,-0.682,7.0
23.786,-2.116,-0.721,13.0
20.907,-1.866,-0.751,1.0
18.707,-1.676,-0.775,1.0
16.834,-1.514,-0.79,1.0
32.243,-2.9,-0.614,9.0
27.621,-2.493,-0.677,4.0
23.808,-2.157,-0.715,13.0
20.993,-1.909,-0.748,0.0
18.822,-1.717,-0.774,1.0
16.891,-1.547,-0.788,0.0
32.728,-2.997,-0.612,1.0
27.782,-2.553,-0.672,7.0
23.851,-2.199,-0.708,10.0
21.389,-1.979,-0.755,1.0
18.955,-1.76,-0.773,1.0
16.98,-1.582,-0.786,0.0
33.028,-3.077,-0.606,2.0
27.965,-2.614,-0.666,5.0
24.794,-2.325,-0.727,5.0
21.442,-2.018,-0.748,2.0
19.076,-1.801,-0.771,1.0
17.056,-1.616,-0.783,0.0
34.152,-3.235,-0.613,7.0
28.183,-2.678,-0.66,7.0
24.804,-2.365,-0.717,5.0
21.527,-2.059,-0.743,1.0
19.217,-1.844,-0.768,1.0
17.188,-1.655,-0.782,0.0
33.935,-3.266,-0.595,11.0
28.371,-2.739,-0.652,3.0
25.052,-2.426,-0.713,5.0
21.681,-2.107,-0.738,1.0
19.443,-1.895,-0.769,1.0
17.39,-1.701,-0.783,1.0
34.15,-3.339,-0.583,11.0
28.66,-2.811,-0.646,2.0
25.385,-2.497,-0.711,6.0
21.943,-2.165,-0.737,1.0
19.564,-1.937,-0.764,2.0
17.483,-1.736,-0.778,0.0
33.967,-3.371,-0.563,20.0
29.737,-2.96,-0.655,2.0
25.615,-2.558,-0.704,6.0
22.201,-2.223,-0.734,1.0
19.733,-1.982,-0.76,1.0
17.725,-1.786,-0.78,0.0
33.964,-3.42,-0.545,31.0
29.927,-3.022,-0.643,1.0
25.984,-2.631,-0.7,6.0
22.412,-2.276,-0.729,2.0
20.004,-2.038,-0.76,2.0
17.988,-1.837,-0.782,1.0
34.153,-3.487,-0.529,28.0
30.54,-3.127,-0.64,3.0
26.105,-2.68,-0.689,6.0
22.783,-2.346,-0.728,2.0
20.151,-2.081,-0.754,2.0
18.127,-1.877,-0.777,1.0
34.401,-3.561,-0.512,29.0
31.034,-3.221,-0.631,9.0
26.558,-2.764,-0.685,6.0
22.945,-2.394,-0.719,4.0
20.454,-2.14,-0.752,2.0
18.22,-1.912,-0.77,1.0
34.651,-3.634,-0.495,24.0
31.185,-3.279,-0.615,9.0
26.815,-2.827,-0.674,4.0
23.301,-2.463,-0.715,5.0
20.713,-2.195,-0.749,4.0
18.495,-1.965,-0.769,1.0
34.837,-3.699,-0.475,18.0
31.72,-3.377,-0.605,9.0
27.097,-2.892,-0.664,2.0
23.768,-2.543,-0.714,5.0
20.972,-2.249,-0.744,3.0
18.757,-2.017,-0.767,0.0
35.061,-3.768,-0.454,12.0
31.987,-3.446,-0.588,10.0
27.62,-2.983,-0.657,2.0
24.294,-2.63,-0.713,5.0
21.147,-2.295,-0.736,2.0
19.006,-2.068,-0.764,1.0
39.84,-4.332,-0.488,6.0
32.149,-3.504,-0.568,20.0
28.062,-3.066,-0.648,1.0
24.715,-2.707,-0.707,5.0
21.606,-2.372,-0.736,3.0
19.267,-2.12,-0.761,1.0
39.914,-4.389,-0.459,14.0
32.585,-3.591,-0.551,28.0
0.0,0.0,0.0,0.0
25.024,-2.771,-0.697,6.0
22.063,-2.448,-0.735,4.0
19.562,-2.176,-0.757,1.0
40.055,-4.453,-0.43,15.0
33.084,-3.685,-0.534,30.0
29.774,-3.324,-0.642,6.0
25.396,-2.841,-0.688,6.0
22.363,-2.507,-0.727,4.0
19.926,-2.239,-0.756,1.0
40.225,-4.518,-0.4,15.0
33.447,-3.764,-0.514,29.0
30.13,-3.398,-0.626,8.0
25.871,-2.924,-0.68,2.0
22.739,-2.575,-0.721,4.0
20.215,-2.294,-0.75,2.0
40.318,-4.573,-0.368,6.0
33.877,-3.85,-0.493,34.0
30.271,-3.447,-0.604,12.0
26.437,-3.017,-0.673,3.0
23.067,-2.637,-0.712,5.0
20.583,-2.358,-0.747,2.0
44.908,-5.142,-0.372,4.0
34.25,-3.929,-0.469,27.0
30.409,-3.495,-0.581,18.0
27.031,-3.113,-0.665,2.0
23.457,-2.706,-0.704,3.0
20.944,-2.421,-0.742,3.0
45.187,-5.221,-0.335,17.0
34.761,-4.023,-0.446,17.0
31.072,-3.603,-0.566,11.0
27.494,-3.194,-0.653,2.0
24.153,-2.811,-0.704,5.0
21.487,-2.505,-0.742,4.0
46.573,-5.428,-0.305,21.0
39.735,-4.639,-0.475,2.0
31.741,-3.712,-0.551,24.0
28.382,-3.325,-0.648,4.0
24.694,-2.898,-0.697,2.0
21.739,-2.556,-0.731,4.0
47.476,-5.579,-0.268,23.0
39.841,-4.689,-0.44,11.0
32.406,-3.82,-0.532,30.0
28.953,-3.419,-0.634,8.0
25.252,-2.987,-0.69,4.0
22.036,-2.611,-0.721,4.0
48.214,-5.71,-0.227,23.0
40.014,-4.746,-0.404,15.0
33.0,-3.92,-0.511,28.0
29.304,-3.487,-0.615,13.0
25.707,-3.063,-0.678,4.0
22.638,-2.702,-0.719,4.0
48.64,-5.803,-0.183,10.0
40.204,-4.803,-0.368,15.0
33.536,-4.013,-0.487,29.0
29.653,-3.553,-0.593,23.0
26.33,-3.16,-0.669,3.0
23.12,-2.779,-0.712,4.0
55.425,-6.659,-0.154,6.0
40.396,-4.86,-0.33,8.0
34.13,-4.112,-0.463,29.0
30.092,-3.63,-0.573,23.0
26.98,-3.26,-0.659,2.0
23.566,-2.851,-0.702,2.0
55.684,-6.735,-0.1,18.0
45.725,-5.537,-0.328,20.0
34.615,-4.197,-0.434,22.0
30.683,-3.725,-0.553,23.0
27.643,-3.361,-0.647,3.0
24.32,-2.961,-0.7,5.0
56.126,-6.831,-0.044,6.0
46.322,-5.644,-0.285,21.0
39.684,-4.841,-0.458,7.0
31.438,-3.84,-0.535,14.0
28.46,-3.481,-0.637,7.0
24.81,-3.038,-0.689,4.0
80.767,-9.887,0.017,14.0
47.352,-5.803,-0.244,22.0
39.804,-4.883,-0.419,20.0
32.29,-3.966,-0.516,23.0
28.706,-3.53,-0.614,14.0
25.48,-3.137,-0.682,3.0
80.74,-9.937,0.101,18.0
48.498,-5.975,-0.199,22.0
40.089,-4.944,-0.38,17.0
32.995,-4.074,-0.493,25.0
29.006,-3.585,-0.589,20.0
26.066,-3.225,-0.67,3.0
80.816,-9.997,0.185,10.0
49.862,-6.173,-0.152,19.0
40.269,-4.99,-0.34,15.0
33.661,-4.176,-0.468,24.0
29.345,-3.644,-0.565,19.0
26.817,-3.334,-0.661,2.0
69.234,-8.604,0.231,6.0
55.574,-6.912,-0.111,9.0
40.551,-5.048,-0.299,7.0
34.338,-4.278,-0.441,19.0
30.334,-3.783,-0.552,19.0
27.609,-3.447,-0.651,7.0
68.902,-8.599,0.304,2.0
56.058,-7.001,-0.052,7.0
46.148,-5.768,-0.29,20.0
39.694,-4.966,-0.467,3.0
31.143,-3.899,-0.533,25.0
28.083,-3.519,-0.632,11.0
68.746,-8.613,0.378,4.0
68.76,-8.621,0.01,1.0
46.788,-5.87,-0.244,21.0
39.796,-4.997,-0.424,11.0
32.066,-4.029,-0.514,26.0
28.5,-3.584,-0.609,21.0
68.674,-8.634,0.453,2.0
68.68,-8.64,0.085,10.0
47.895,-6.029,-0.197,22.0
39.925,-5.029,-0.382,15.0
32.88,-4.145,-0.491,22.0
28.917,-3.648,-0.587,19.0
68.502,-8.64,0.528,2.0
68.526,-8.647,0.16,2.0
49.714,-6.277,-0.15,18.0
40.049,-5.06,-0.339,9.0
33.656,-4.254,-0.465,27.0
29.613,-3.746,-0.568,22.0
68.406,-8.652,0.602,2.0
68.326,-8.645,0.236,2.0
55.742,-7.056,-0.106,10.0
0.0,0.0,0.0,0.0
34.397,-4.359,-0.437,25.0
30.208,-3.83,-0.546,19.0
68.262,-8.654,0.677,6.0
68.132,-8.641,0.311,2.0
56.139,-7.123,-0.044,6.0
45.79,-5.812,-0.286,20.0
39.712,-5.043,-0.46,4.0
31.131,-3.955,-0.527,22.0
68.226,-8.667,0.753,9.0
68.081,-8.651,0.388,2.0
60.997,-7.753,0.02,3.0
46.93,-5.967,-0.24,21.0
39.766,-5.058,-0.416,12.0
32.176,-4.095,-0.509,24.0
68.262,-8.686,0.831,2.0
67.922,-8.645,0.463,4.0
67.979,-8.654,0.1,2.0
48.061,-6.12,-0.191,22.0
39.872,-5.079,-0.372,8.0
33.011,-4.206,-0.484,25.0
191.892,-24.451,2.557,31.0
67.876,-8.65,0.54,4.0
67.973,-8.663,0.177,2.0
49.863,-6.356,-0.141,17.0
40.164,-5.121,-0.329,2.0
33.894,-4.323,-0.459,26.0
191.898,-24.474,2.773,29.0
68.133,-8.69,0.619,1.0
67.883,-8.658,0.254,2.0
55.757,-7.112,-0.095,10.0
45.658,-5.825,-0.322,11.0
34.578,-4.412,-0.429,19.0
191.936,-24.493,2.991,31.0
81.045,-10.342,0.829,1.0
67.833,-8.656,0.331,2.0
60.921,-7.774,-0.034,7.0
46.101,-5.883,-0.273,20.0
39.765,-5.075,-0.448,6.0
191.93,-24.497,3.212,33.0
81.266,-10.371,0.924,1.0
67.773,-8.648,0.407,13.0
61.019,-7.786,0.035,5.0
47.146,-6.016,-0.225,21.0
39.811,-5.08,-0.403,10.0
191.967,-24.498,3.433,19.0
191.899,-24.484,2.404,22.0
67.735,-8.641,0.485,10.0
67.874,-8.657,0.115,2.0
48.685,-6.209,-0.177,22.0
39.942,-5.093,-0.358,5.0
0.0,0.0,0.0,0.0
191.946,-24.475,2.624,28.0
67.964,-8.664,0.564,2.0
68.048,-8.672,0.194,2.0
55.535,-7.076,-0.138,5.0
42.164,-5.372,-0.331,3.0
197.812,-25.207,3.988,9.0
191.926,-24.449,2.839,34.0
68.269,-8.693,0.644,3.0
68.006,-8.657,0.27,2.0
55.885,-7.112,-0.076,9.0
45.692,-5.814,-0.307,20.0
197.82,-25.177,4.209,5.0
191.975,-24.422,3.056,30.0
68.256,-8.679,0.72,7.0
67.998,-8.643,0.346,2.0
61.012,-7.753,-0.016,3.0
46.375,-5.891,-0.26,21.0
139.528,-17.729,3.125,10.0
191.911,-24.373,3.266,25.0
68.276,-8.666,0.797,6.0
68.147,-8.646,0.423,2.0
68.253,-8.656,0.058,1.0
47.721,-6.049,-0.215,22.0
139.457,-17.684,3.28,13.0
191.92,-24.322,3.485,17.0
191.933,-24.31,2.454,28.0
68.31,-8.647,0.5,4.0
68.406,-8.655,0.134,2.0
0.0,0.0,0.0,0.0
63.093,-7.981,1.554,11.0
197.503,-24.968,3.805,10.0
191.939,-24.249,2.669,31.0
80.552,-10.17,0.679,3.0
68.512,-8.645,0.21,2.0
55.634,-7.016,-0.126,12.0
63.102,-7.961,1.623,26.0
139.625,-17.602,2.842,5.0
191.986,-24.185,2.878,33.0
80.544,-10.139,0.768,14.0
68.723,-8.645,0.287,4.0
56.141,-7.058,-0.066,6.0
63.072,-7.932,1.692,28.0
139.526,-17.533,2.995,23.0
192.01,-24.108,3.092,32.0
80.539,-10.104,0.855,16.0
68.838,-8.629,0.362,4.0
69.033,-8.648,-0.006,3.0
63.113,-7.91,1.761,26.0
139.526,-17.47,3.146,30.0
192.032,-24.023,3.299,20.0
80.717,-10.088,0.945,5.0
80.491,-10.052,0.51,8.0
69.13,-8.626,0.067,14.0
63.154,-7.884,1.83,26.0
139.51,-17.399,3.293,27.0
192.135,-23.939,3.504,7.0
192.069,-23.908,2.454,24.0
80.432,-10.003,0.595,29.0
69.286,-8.609,0.14,3.0
63.275,-7.866,1.901,6.0
139.587,-17.334,3.443,13.0
189.098,-23.457,3.65,6.0
192.031,-23.797,2.653,29.0
80.395,-9.952,0.679,29.0
80.62,-9.971,0.248,20.0
139.183,-17.223,4.328,13.0
63.079,-7.796,1.622,3.0
188.397,-23.258,3.832,17.0
192.136,-23.694,2.854,17.0
80.368,-9.9,0.762,30.0
80.381,-9.891,0.33,33.0
85.427,-10.518,2.744,11.0
165.22,-20.316,4.419,25.0
188.128,-23.105,4.021,24.0
188.432,-23.115,2.993,19.0
80.488,-9.862,0.845,17.0
80.339,-9.832,0.412,29.0
84.621,-10.362,2.805,22.0
165.156,-20.197,4.586,17.0
188.075,-22.971,4.208,7.0
188.0,-22.933,3.176,24.0
80.713,-9.833,0.929,6.0
80.253,-9.765,0.492,27.0
84.523,-10.291,2.886,34.0
85.808,-10.432,2.468,9.0
189.083,-22.957,4.418,10.0
153.773,-18.644,2.749,14.0
153.672,-18.607,1.922,14.0
80.265,-9.706,0.571,27.0
84.537,-10.229,2.97,28.0
84.188,-10.172,2.504,20.0
139.288,-16.805,3.391,18.0
153.744,-18.522,2.898,20.0
153.596,-18.479,2.068,17.0
80.175,-9.632,0.648,28.0
84.524,-10.161,3.051,29.0
84.204,-10.107,2.585,36.0
138.905,-16.647,3.514,27.0
153.77,-18.4,3.044,16.0
153.743,-18.37,2.216,16.0
80.111,-9.557,0.723,27.0
84.65,-10.106,3.135,25.0
84.296,-10.047,2.666,38.0
139.234,-16.568,3.653,18.0
85.339,-10.138,1.77,10.0
188.144,-22.316,2.887,8.0
80.083,-9.484,0.797,24.0
84.436,-10.007,3.206,21.0
84.345,-9.978,2.746,35.0
84.345,-9.961,2.29,7.0
85.326,-10.06,1.847,18.0
192.38,-22.645,3.125,18.0
80.301,-9.437,0.871,10.0
84.0,-9.879,3.264,34.0
84.32,-9.898,2.82,29.0
84.206,-9.867,2.362,34.0
85.383,-9.987,1.924,3.0
192.361,-22.463,3.293,20.0
192.308,-22.418,2.256,11.0
83.738,-9.769,3.327,32.0
84.014,-9.782,2.883,22.0
84.169,-9.782,2.433,49.0
0.0,0.0,0.0,0.0
85.353,-9.882,1.536,14.0
84.716,-9.791,1.066,29.0
83.842,-9.698,3.404,35.0
83.882,-9.682,2.951,37.0
83.144,-9.579,2.474,33.0
0.0,0.0,0.0,0.0
85.214,-9.779,1.604,27.0
84.25,-9.651,1.13,36.0
83.878,-9.615,3.475,37.0
83.375,-9.538,3.001,33.0
83.019,-9.478,2.538,28.0
0.0,0.0,0.0,0.0
85.203,-9.688,1.673,22.0
84.009,-9.534,1.195,25.0
84.101,-9.551,3.553,28.0
82.772,-9.379,3.047,36.0
82.637,-9.344,2.594,23.0
82.2,-9.275,2.125,22.0
83.077,-9.354,1.698,11.0
83.859,-9.423,1.26,31.0
82.509,-9.277,3.551,15.0
82.46,-9.251,3.1,33.0
82.196,-9.2,2.644,34.0
82.06,-9.165,2.186,34.0
82.895,-9.238,1.758,40.0
82.221,-9.144,1.297,12.0
0.0,0.0,0.0,0.0
82.576,-9.168,3.168,34.0
82.141,-9.099,2.704,34.0
82.007,-9.063,2.245,38.0
82.112,-9.054,1.802,36.0
82.194,-9.044,1.357,24.0
82.815,-9.119,3.687,29.0
82.554,-9.068,3.226,39.0
82.139,-9.001,2.762,43.0
81.805,-8.944,2.298,34.0
81.753,-8.917,1.852,39.0
82.247,-8.95,1.415,32.0
0.0,0.0,0.0,0.0
82.583,-8.97,3.285,41.0
82.24,-8.911,2.823,49.0
81.6,-8.82,2.348,40.0
81.825,-8.822,1.909,41.0
82.215,-8.844,1.471,41.0
83.912,-9.032,3.852,29.0
82.746,-8.883,3.347,40.0
82.302,-8.813,2.881,47.0
81.63,-8.719,2.403,36.0
81.951,-8.73,1.967,47.0
82.162,-8.732,1.523,44.0
84.331,-8.968,3.926,26.0
82.949,-8.798,3.408,30.0
82.47,-8.724,2.937,43.0
81.803,-8.63,2.46,37.0
81.955,-8.624,2.017,57.0
81.921,-8.598,1.569,45.0
84.668,-8.892,3.993,27.0
82.203,-8.61,3.427,34.0
82.615,-8.629,2.993,43.0
81.818,-8.523,2.509,45.0
81.951,-8.514,2.065,51.0
81.836,-8.479,1.616,42.0
83.984,-8.708,4.01,27.0
81.969,-8.475,3.465,42.0
82.372,-8.493,3.031,38.0
81.751,-8.405,2.553,44.0
81.941,-8.4,2.111,49.0
81.783,-8.361,1.66,36.0
83.418,-8.533,4.029,49.0
81.983,-8.362,3.511,38.0
82.164,-8.355,3.068,42.0
82.455,-8.361,2.619,51.0
82.013,-8.292,2.157,41.0
81.766,-8.244,1.703,34.0
82.172,-8.29,4.011,35.0
81.952,-8.243,3.552,41.0
82.097,-8.232,3.108,43.0
82.149,-8.213,2.651,61.0
81.951,-8.168,2.196,46.0
82.072,-8.157,1.75,34.0
82.195,-8.173,4.053,33.0
81.971,-8.126,3.592,42.0
82.141,-8.118,3.148,39.0
82.095,-8.088,2.688,48.0
82.248,-8.079,2.242,44.0
82.533,-8.082,1.797,30.0
81.997,-8.033,4.08,37.0
81.778,-7.986,3.619,42.0
82.067,-7.989,3.181,44.0
82.02,-7.958,2.721,42.0
82.145,-7.945,2.274,48.0
82.392,-7.945,1.829,12.0
81.837,-7.895,4.107,33.0
81.866,-7.871,3.658,40.0
82.335,-7.89,3.225,19.0
81.772,-7.811,2.746,44.0
82.114,-7.817,2.306,45.0
82.78,-7.855,1.87,49.0
81.834,-7.768,4.138,33.0
81.979,-7.757,3.693,23.0
81.916,-7.724,3.239,24.0
81.797,-7.686,2.776,45.0
82.148,-7.694,2.337,48.0
82.346,-7.688,1.889,47.0
82.156,-7.672,4.183,36.0
81.981,-7.629,3.722,37.0
81.831,-7.588,3.264,48.0
81.856,-7.563,2.806,40.0
82.011,-7.552,2.359,40.0
82.222,-7.545,1.914,36.0
82.341,-7.559,4.218,38.0
81.863,-7.487,3.742,40.0
81.622,-7.438,3.28,40.0
82.11,-7.455,2.839,47.0
82.087,-7.427,2.386,43.0
82.489,-7.437,1.943,42.0
83.136,-7.497,4.282,51.0
82.001,-7.368,3.77,38.0
81.69,-7.313,3.305,44.0
82.218,-7.333,2.864,47.0
82.242,-7.309,2.411,42.0
82.835,-7.335,1.971,45.0
83.032,-7.354,4.298,36.0
82.361,-7.266,3.806,53.0
81.646,-7.175,3.322,38.0
82.258,-7.202,2.883,49.0
82.208,-7.171,2.428,31.0
83.051,-7.216,1.995,29.0
83.021,-7.215,4.313,35.0
82.66,-7.154,3.837,52.0
81.904,-7.061,3.348,37.0
82.149,-7.055,2.895,50.0
82.102,-7.024,2.439,42.0
83.041,-7.078,2.009,33.0
83.129,-7.085,4.333,35.0
82.983,-7.044,3.865,42.0
82.109,-6.942,3.369,36.0
81.989,-6.904,2.902,46.0
82.138,-6.889,2.452,44.0
82.628,-6.904,2.009,42.0
83.416,-6.969,4.359,38.0
83.32,-6.931,3.891,40.0
82.715,-6.852,3.404,31.0
82.078,-6.771,2.914,53.0
82.388,-6.77,2.469,46.0
82.331,-6.738,2.01,42.0
83.216,-6.809,4.356,36.0
83.378,-6.793,3.9,44.0
83.241,-6.753,3.432,24.0
82.518,-6.665,2.936,50.0
82.695,-6.652,2.483,45.0
82.346,-6.597,2.016,37.0
83.01,-6.648,4.349,37.0
83.38,-6.649,3.904,21.0
83.29,-6.612,3.438,32.0
82.435,-6.516,2.935,47.0
82.587,-6.501,2.482,45.0
82.378,-6.458,2.018,42.0
83.134,-6.514,4.357,37.0
83.305,-6.498,3.901,10.0
82.943,-6.442,3.423,22.0
82.515,-6.379,2.938,49.0
82.5,-6.35,2.478,44.0
82.502,-6.322,2.02,46.0
83.535,-6.398,4.376,50.0
0.0,0.0,0.0,0.0
83.341,-6.325,3.437,31.0
82.559,-6.237,2.936,36.0
82.763,-6.224,2.482,64.0
82.444,-6.172,2.014,39.0
83.502,-6.246,4.368,47.0
83.335,-6.204,3.894,36.0
82.941,-6.145,3.413,38.0
82.927,-6.116,2.942,53.0
83.012,-6.094,2.482,52.0
82.446,-6.024,2.006,35.0
83.606,-6.104,4.365,38.0
83.357,-6.055,3.886,43.0
82.741,-5.981,3.395,39.0
83.054,-5.975,2.936,42.0
82.787,-5.928,2.464,60.0
82.535,-5.881,1.997,43.0
83.824,-5.969,4.364,41.0
83.556,-5.919,3.883,42.0
24.586,-1.733,1.005,1.0
83.103,-5.829,2.924,39.0
83.536,-5.83,2.473,21.0
83.0,-5.764,1.994,60.0
24.559,-1.704,1.274,0.0
83.942,-5.795,3.885,14.0
24.531,-1.685,0.997,26.0
24.522,-1.675,0.857,18.0
24.604,-1.672,0.723,24.0
24.608,-1.664,0.585,9.0
24.5,-1.655,1.265,47.0
24.503,-1.646,1.128,39.0
24.479,-1.636,0.99,40.0
24.486,-1.628,0.85,35.0
24.525,-1.622,0.714,58.0
24.552,-1.615,0.578,45.0
24.479,-1.608,1.258,74.0
24.489,-1.6,1.121,41.0
24.459,-1.59,0.982,55.0
24.47,-1.581,0.843,63.0
24.527,-1.577,0.707,67.0
24.536,-1.569,0.57,63.0
24.482,-1.563,1.25,93.0
24.443,-1.552,1.111,34.0
24.445,-1.544,0.974,54.0
24.471,-1.537,0.835,59.0
24.524,-1.532,0.699,70.0
24.539,-1.524,0.562,71.0
24.475,-1.518,1.241,92.0
24.457,-1.508,1.103,48.0
24.464,-1.5,0.966,60.0
24.506,-1.494,0.827,73.0
24.548,-1.488,0.691,75.0
24.561,-1.48,0.553,73.0
24.479,-1.472,1.232,53.0
24.51,-1.466,1.096,43.0
24.495,-1.456,0.957,39.0
24.525,-1.45,0.818,61.0
24.578,-1.445,0.682,71.0
24.576,-1.436,0.544,52.0
24.521,-1.43,1.224,44.0
24.547,-1.423,1.087,41.0
24.543,-1.414,0.948,27.0
24.545,-1.405,0.808,28.0
24.615,-1.401,0.672,13.0
24.631,-1.394,0.534,4.0
28.427,-1.605,1.405,56.0
83.414,-4.679,3.655,25.0
83.201,-4.639,3.176,41.0
83.282,-4.615,2.702,34.0
83.961,-4.623,2.251,39.0
83.837,-4.588,1.776,33.0
28.403,-1.55,1.39,38.0
83.441,-4.525,3.613,41.0
83.677,-4.508,3.151,34.0
84.528,-4.525,2.698,44.0
84.619,-4.5,2.224,43.0
84.756,-4.479,1.749,38.0
83.753,-4.414,4.054,22.0
0.0,0.0,0.0,0.0
84.875,-4.416,3.149,28.0
84.679,-4.376,2.655,34.0
84.733,-4.349,2.178,41.0
85.295,-4.35,1.712,39.0
83.882,-4.265,4.011,23.0
86.262,-4.356,3.636,47.0
85.373,-4.281,3.116,20.0
85.596,-4.263,2.632,33.0
84.588,-4.184,2.123,39.0
84.641,-4.159,1.647,16.0
85.59,-4.192,4.039,18.0
86.536,-4.208,3.593,26.0
85.012,-4.104,3.049,15.0
85.643,-4.106,2.578,19.0
84.817,-4.037,2.074,40.0
84.968,-4.017,1.598,11.0
86.194,-4.061,4.01,14.0
86.662,-4.052,3.54,8.0
85.063,-3.948,2.993,10.0
85.181,-3.925,2.506,18.0
85.076,-3.893,2.023,31.0
31.306,-1.421,0.567,23.0
169.858,-7.685,7.782,12.0
31.427,-1.411,1.261,1.0
165.875,-7.394,5.719,8.0
31.335,-1.386,0.899,16.0
28.459,-1.249,0.656,47.0
28.459,-1.24,0.494,65.0
28.443,-1.234,1.282,50.0
28.438,-1.224,1.12,58.0
28.429,-1.214,0.958,60.0
28.417,-1.204,0.794,93.0
28.437,-1.195,0.633,112.0
28.431,-1.185,0.472,106.0
28.427,-1.18,1.258,109.0
28.43,-1.17,1.097,121.0
28.441,-1.161,0.936,150.0
28.439,-1.152,0.772,143.0
28.436,-1.142,0.61,83.0
28.451,-1.134,0.449,70.0
28.437,-1.128,1.236,71.0
28.456,-1.119,1.074,63.0
28.461,-1.11,0.913,47.0
31.258,-1.209,0.822,42.0
31.271,-1.199,0.645,58.0
31.254,-1.188,0.467,35.0
31.268,-1.182,1.332,70.0
31.231,-1.17,1.152,48.0
31.257,-1.161,0.975,46.0
31.274,-1.151,0.795,42.0
31.326,-1.143,0.618,42.0
31.364,-1.134,0.441,14.0
31.298,-1.125,1.304,56.0
31.277,-1.115,1.126,34.0
31.307,-1.105,0.948,36.0
31.378,-1.097,0.769,10.0
0.0,0.0,0.0,0.0
84.515,-2.903,1.111,39.0
38.665,-1.32,1.575,55.0
38.682,-1.307,1.355,31.0
38.675,-1.294,1.135,37.0
38.659,-1.282,0.91,58.0
38.657,-1.27,0.69,46.0
38.673,-1.258,0.471,50.0
38.662,-1.249,1.538,91.0
38.612,-1.235,1.315,66.0
38.59,-1.222,1.094,63.0
38.607,-1.21,0.871,70.0
38.631,-1.199,0.651,74.0
38.626,-1.187,0.431,68.0
38.652,-1.179,1.498,98.0
38.569,-1.164,1.274,58.0
38.601,-1.152,1.055,74.0
38.636,-1.141,0.832,100.0
38.626,-1.129,0.611,83.0
38.64,-1.117,0.391,86.0
38.632,-1.108,1.456,64.0
38.559,-1.094,1.233,70.0
38.641,-1.084,1.015,87.0
38.616,-1.072,0.79,70.0
38.646,-1.06,0.57,67.0
38.654,-1.048,0.35,58.0
38.681,-1.04,1.416,33.0
38.621,-1.027,1.193,28.0
38.647,-1.016,0.973,60.0
38.703,-1.005,0.749,26.0
38.734,-0.994,0.529,6.0
38.756,-0.983,0.308,11.0
45.702,-1.149,1.622,44.0
38.7,-0.96,1.152,56.0
38.73,-0.949,0.931,29.0
40.398,-0.978,0.737,35.0
40.411,-0.966,0.506,38.0
40.411,-0.955,0.275,41.0
40.407,-0.945,1.387,40.0
0.0,0.0,0.0,0.0
40.406,-0.921,0.925,38.0
40.385,-0.908,0.689,20.0
38.381,-0.852,0.436,9.0
38.374,-0.84,0.216,31.0
40.436,-0.875,1.34,27.0
45.718,-0.976,1.254,9.0
38.412,-0.808,0.833,10.0
45.68,-0.948,0.725,19.0
52.937,-1.083,0.537,68.0
52.945,-1.067,0.234,63.0
64.319,-1.28,2.052,16.0
64.329,-1.262,1.685,18.0
192.013,-3.713,3.93,6.0
192.842,-3.673,2.823,39.0
86.401,-1.619,0.769,1.0
20.141,-0.371,0.064,2.0
64.312,-1.171,1.971,79.0
190.765,-3.419,4.755,26.0
191.681,-3.379,3.678,14.0
176.629,-3.061,2.358,41.0
20.133,-0.343,0.153,7.0
20.149,-0.337,0.038,54.0
64.319,-1.062,1.889,22.0
59.542,-0.967,1.407,5.0
59.496,-0.949,1.064,10.0
20.122,-0.315,0.242,9.0
20.117,-0.309,0.127,14.0
20.126,-0.304,0.011,9.0
59.416,-0.882,1.665,46.0
53.499,-0.779,1.193,8.0
20.124,-0.287,0.333,10.0
20.118,-0.281,0.215,12.0
59.514,-0.817,0.296,7.0
59.53,-0.801,-0.044,64.0
59.398,-0.784,1.585,38.0
20.136,-0.26,0.421,11.0
20.127,-0.254,0.305,10.0
20.144,-0.249,0.188,8.0
56.183,-0.68,0.202,1.0
56.349,-0.667,-0.119,1.0
20.148,-0.233,0.509,13.0
20.145,-0.227,0.393,14.0
64.361,-0.71,0.888,14.0
64.337,-0.692,0.511,69.0
56.185,-0.589,0.123,2.0
56.249,-0.574,-0.199,10.0
20.15,-0.201,0.481,14.0
20.178,-0.195,0.365,16.0
64.346,-0.607,0.796,14.0
53.318,-0.489,0.347,4.0
53.373,-0.475,0.041,4.0
20.18,-0.174,-0.1,7.0
20.216,-0.169,0.453,26.0
20.253,-0.164,0.337,23.0
20.198,-0.158,0.22,15.0
20.16,-0.153,0.101,14.0
20.195,-0.148,-0.014,25.0
20.154,-0.142,-0.129,22.0
20.148,-0.137,0.421,17.0
20.124,-0.132,0.305,18.0
20.123,-0.127,0.189,18.0
20.124,-0.122,0.071,31.0
20.147,-0.117,-0.043,27.0
20.143,-0.111,-0.159,32.0
20.129,-0.106,0.391,31.0
20.124,-0.101,0.275,27.0
20.127,-0.096,0.159,25.0
20.123,-0.091,0.041,32.0
20.138,-0.086,-0.074,32.0
20.154,-0.081,-0.19,29.0
20.113,-0.076,0.359,34.0
20.125,-0.071,0.244,27.0
20.126,-0.066,0.128,36.0
20.12,-0.061,0.01,36.0
20.141,-0.056,-0.106,33.0
20.142,-0.051,-0.222,11.0
20.127,-0.046,0.328,31.0
20.115,-0.041,0.212,35.0
20.125,-0.036,0.096,38.0
20.125,-0.031,-0.021,28.0
20.169,-0.026,-0.137,24.0
20.173,-0.022,-0.253,8.0
20.138,-0.017,0.296,28.0
20.124,-0.012,0.18,28.0
20.164,-0.007,0.064,28.0
20.257,-0.002,-0.053,150.0
20.252,0.001,-0.17,151.0
20.272,0.006,-0.287,150.0
20.141,0.011,0.264,29.0
20.139,0.016,0.148,27.0
20.268,0.021,0.032,59.0
20.263,0.025,-0.086,150.0
20.25,0.03,-0.203,150.0
20.234,0.035,-0.32,8.0
20.138,0.039,0.231,29.0
20.146,0.044,0.115,28.0
20.206,0.049,0.0,27.0
20.22,0.053,-0.119,25.0
20.232,0.058,-0.236,1.0
42.602,0.132,-0.744,0.0
20.147,0.067,0.198,29.0
20.195,0.071,0.082,34.0
20.198,0.076,-0.034,28.0
20.189,0.08,-0.153,29.0
20.196,0.085,-0.269,17.0
41.908,0.186,-0.801,1.0
20.157,0.093,0.164,28.0
20.19,0.098,0.048,36.0
20.195,0.102,-0.068,32.0
20.179,0.107,-0.186,24.0
20.198,0.111,-0.303,27.0
20.2,0.116,-0.42,2.0
20.182,0.12,0.13,28.0
20.181,0.124,0.014,26.0
20.178,0.129,-0.102,32.0
20.167,0.133,-0.221,30.0
20.192,0.137,-0.338,30.0
20.208,0.141,-0.455,21.0
20.227,0.146,0.096,31.0
20.231,0.15,-0.02,22.0
20.178,0.154,-0.136,24.0
20.176,0.158,-0.255,33.0
20.18,0.162,-0.372,30.0
20.184,0.166,-0.489,26.0
20.317,0.172,0.061,31.0
20.238,0.175,-0.055,11.0
20.176,0.179,-0.172,13.0
20.155,0.182,-0.29,28.0
20.17,0.187,-0.407,35.0
20.181,0.191,-0.525,31.0
20.344,0.197,0.025,28.0
20.248,0.2,-0.091,0.0
20.168,0.203,-0.208,17.0
20.182,0.207,-0.327,27.0
20.199,0.211,-0.444,25.0
20.191,0.215,-0.561,33.0
20.294,0.22,-0.01,0.0
0.0,0.0,0.0,0.0
20.199,0.227,-0.244,19.0
20.178,0.23,-0.363,25.0
20.162,0.234,-0.479,18.0
20.206,0.238,-0.597,28.0
0.0,0.0,0.0,0.0
0.0,0.0,0.0,0.0
20.2,0.25,-0.28,3.0
20.186,0.253,-0.399,16.0
20.207,0.257,-0.516,24.0
20.219,0.261,-0.634,24.0
0.0,0.0,0.0,0.0
0.0,0.0,0.0,0.0
20.299,0.273,-0.318,0.0
20.233,0.276,-0.436,0.0
20.224,0.279,-0.554,3.0
20.228,0.283,-0.671,2.0
0.0,0.0,0.0,0.0
0.0,0.0,0.0,0.0
42.892,0.623,-0.751,0.0
35.029,0.515,-0.82,0.0
29.916,0.445,-0.874,0.0
25.38,0.382,-0.888,0.0
0.0,0.0,0.0,0.0
0.0,0.0,0.0,0.0
0.0,0.0,0.0,0.0
33.121,0.521,-0.837,0.0
28.321,0.45,-0.88,0.0
24.385,0.392,-0.899,0.0
0.0,0.0,0.0,0.0
0.0,0.0,0.0,0.0
0.0,0.0,0.0,0.0
31.604,0.528,-0.857,1.0
26.633,0.449,-0.877,0.0
23.194,0.395,-0.898,0.0
0.0,0.0,0.0,0.0
42.816,0.742,-0.739,0.0
34.16,0.598,-0.788,1.0
29.871,0.527,-0.866,0.0
25.61,0.456,-0.891,0.0
22.448,0.403,-0.911,0.0
0.0,0.0,0.0,0.0
0.0,0.0,0.0,0.0
33.089,0.609,-0.826,1.0
28.451,0.528,-0.878,0.0
24.49,0.459,-0.898,0.0
21.472,0.406,-0.912,0.0
0.0,0.0,0.0,0.0
37.187,0.712,-0.783,0.0
31.802,0.614,-0.854,1.0
26.657,0.519,-0.874,0.0
23.093,0.453,-0.891,0.0
20.579,0.407,-0.914,0.0
0.0,0.0,0.0,0.0
35.341,0.707,-0.812,0.0
29.907,0.603,-0.86,0.0
25.593,0.52,-0.887,0.0
22.426,0.458,-0.908,0.0
19.811,0.408,-0.917,0.0
0.0,0.0,0.0,0.0
33.036,0.688,-0.822,0.0
28.47,0.597,-0.874,0.0
24.386,0.515,-0.892,0.0
21.371,0.454,-0.906,0.0
18.96,0.406,-0.914,0.0
37.305,0.801,-0.784,0.0
31.648,0.684,-0.848,1.0
26.706,0.581,-0.871,0.0
23.134,0.506,-0.892,0.0
20.641,0.455,-0.915,0.0
18.404,0.408,-0.923,0.0
35.347,0.786,-0.811,0.0
29.957,0.67,-0.861,0.0
25.633,0.576,-0.885,0.0
22.337,0.505,-0.904,0.0
19.854,0.452,-0.919,0.0
17.83,0.408,-0.929,0.0
32.862,0.754,-0.816,1.0
28.548,0.658,-0.875,1.0
24.432,0.566,-0.891,0.0
21.301,0.496,-0.903,0.0
18.897,0.443,-0.911,0.0
17.044,0.401,-0.921,0.0
31.671,0.747,-0.848,1.0
26.632,0.632,-0.868,0.0
23.171,0.552,-0.89,0.0
20.567,0.493,-0.912,0.0
18.4,0.443,-0.922,0.0
16.642,0.403,-0.931,0.0
29.852,0.723,-0.857,0.0
25.612,0.623,-0.884,0.0
22.363,0.547,-0.902,0.0
19.884,0.489,-0.92,0.0
17.824,0.44,-0.928,0.0
16.196,0.402,-0.938,0.0
28.241,0.701,-0.865,0.0
24.44,0.609,-0.891,0.0
21.243,0.532,-0.898,0.0
18.888,0.475,-0.91,0.0
17.099,0.432,-0.924,0.0
15.652,0.397,-0.937,0.0
26.539,0.673,-0.865,0.0
23.032,0.587,-0.884,0.0
20.474,0.524,-0.905,0.0
18.335,0.471,-0.919,0.0
16.593,0.428,-0.929,0.0
15.182,0.393,-0.938,0.0
25.402,0.658,-0.877,0.0
22.289,0.579,-0.899,0.0
19.829,0.517,-0.915,0.0
17.751,0.465,-0.925,0.0
16.135,0.424,-0.935,0.0
14.759,0.389,-0.941,0.0
24.305,0.641,-0.887,0.0
21.368,0.565,-0.903,0.0
18.909,0.502,-0.91,0.0
17.063,0.454,-0.922,0.0
15.598,0.417,-0.934,0.0
14.44,0.387,-0.949,0.0
22.983,0.616,-0.883,0.0
20.443,0.549,-0.904,0.0
18.329,0.494,-0.917,0.0
16.573,0.448,-0.928,0.0
15.164,0.411,-0.937,0.0
14.075,0.383,-0.952,0.0
22.296,0.606,-0.9,0.0
19.812,0.54,-0.914,0.0
17.771,0.486,-0.924,0.0
16.171,0.444,-0.936,0.0
14.757,0.406,-0.941,0.0
13.448,0.371,-0.936,0.0
21.226,0.585,-0.897,0.0
18.944,0.523,-0.911,0.0
17.007,0.471,-0.917,0.0
15.54,0.431,-0.93,0.0
14.418,0.401,-0.947,0.0
13.206,0.369,-0.945,0.0
20.408,0.568,-0.902,0.0
18.404,0.514,-0.92,0.0
16.553,0.463,-0.924,0.0
15.148,0.425,-0.936,0.0
13.896,0.391,-0.939,0.0
12.887,0.363,-0.947,0.0
19.813,0.557,-0.914,0.0
17.702,0.499,-0.919,0.0
16.139,0.456,-0.932,0.0
14.727,0.417,-0.938,0.0
13.531,0.384,-0.941,0.0
12.54,0.357,-0.945,0.0
18.865,0.535,-0.906,0.0
17.084,0.486,-0.92,0.0
15.624,0.445,-0.932,0.0
14.419,0.411,-0.946,0.0
13.217,0.378,-0.944,0.0
12.284,0.352,-0.949,0.0
18.325,0.523,-0.915,0.0
16.57,0.474,-0.924,0.0
15.161,0.435,-0.933,0.0
13.99,0.402,-0.944,0.0
12.894,0.371,-0.946,0.0
11.927,0.344,-0.944,0.0
17.902,0.514,-0.927,0.0
16.183,0.465,-0.932,0.0
14.784,0.426,-0.938,0.0
13.52,0.39,-0.938,0.0
12.565,0.363,-0.945,0.0
11.667,0.338,-0.946,0.0
17.047,0.491,-0.915,0.0
15.631,0.451,-0.93,0.0
14.451,0.418,-0.944,0.0
13.217,0.383,-0.942,0.0
12.231,0.355,-0.943,0.0
11.377,0.33,-0.944,0.0
16.622,0.48,-0.923,0.0
15.204,0.44,-0.933,0.0
14.134,0.41,-0.949,0.0
12.911,0.375,-0.944,0.0
11.988,0.348,-0.946,0.0
11.138,0.324,-0.945,0.0
16.166,0.468,-0.927,0.0
14.781,0.428,-0.934,0.0
13.519,0.392,-0.933,0.0
12.633,0.367,-0.947,0.0
11.649,0.339,-0.941,0.0
10.9,0.317,-0.944,0.0
15.705,0.454,-0.93,0.0
14.488,0.42,-0.942,0.0
13.291,0.385,-0.942,0.0
12.267,0.356,-0.942,0.0
11.439,0.332,-0.945,0.0
10.694,0.311,-0.946,0.0
15.257,0.441,-0.931,0.0
13.989,0.405,-0.935,0.0
12.994,0.376,-0.944,0.0
12.016,0.348,-0.945,0.0
11.191,0.324,-0.945,0.0
10.487,0.304,-0.947,0.0
14.858,0.428,-0.933,0.0
13.629,0.393,-0.935,0.0
12.689,0.366,-0.945,0.0
11.708,0.338,-0.941,0.0
10.95,0.316,-0.944,0.0
10.284,0.297,-0.947,0.0
14.508,0.417,-0.937,0.0
13.325,0.383,-0.938,0.0
12.379,0.356,-0.944,0.0
11.43,0.328,-0.939,0.0
10.695,0.308,-0.941,0.0
10.09,0.29,-0.947,0.0
14.189,0.405,-0.942,0.0
13.061,0.373,-0.943,0.0
12.129,0.347,-0.946,0.0
11.235,0.321,-0.943,0.0
10.505,0.3,-0.943,0.0
9.878,0.282,-0.945,0.0
13.717,0.389,-0.934,0.0
12.778,0.363,-0.945,0.0
11.78,0.334,-0.94,0.0
11.067,0.314,-0.948,0.0
10.341,0.293,-0.947,0.0
9.697,0.275,-0.944,0.0
13.449,0.379,-0.939,0.0
12.462,0.351,-0.943,0.0
11.575,0.326,-0.943,0.0
10.729,0.302,-0.938,0.0
10.149,0.285,-0.947,0.0
9.538,0.268,-0.945,0.0
13.169,0.367,-0.942,0.0
12.164,0.339,-0.941,0.0
11.333,0.316,-0.943,0.0
10.565,0.294,-0.942,0.0
9.969,0.278,-0.947,0.0
9.379,0.261,-0.946,0.0
12.893,0.356,-0.944,0.0
11.9,0.328,-0.941,0.0
11.123,0.306,-0.944,0.0
10.399,0.286,-0.944,0.0
9.782,0.269,-0.945,0.0
9.189,0.253,-0.942,0.0
12.584,0.343,-0.942,0.0
11.687,0.318,-0.943,0.0
10.891,0.296,-0.942,0.0
10.22,0.278,-0.945,0.0
9.623,0.261,-0.946,0.0
9.049,0.246,-0.942,0.0
12.314,0.331,-0.942,0.0
11.396,0.306,-0.938,0.0
10.691,0.287,-0.942,0.0
10.062,0.27,-0.947,0.0
9.441,0.253,-0.943,0.0
8.924,0.239,-0.944,0.0
12.037,0.319,-0.94,0.0
11.212,0.297,-0.941,0.0
10.489,0.277,-0.941,0.0
9.851,0.26,-0.942,0.0
9.272,0.244,-0.941,0.0
8.759,0.231,-0.941,0.0
11.813,0.308,-0.941,0.0
10.976,0.286,-0.938,0.0
10.374,0.27,-0.947,0.0
9.731,0.252,-0.946,0.0
9.162,0.237,-0.945,0.0
8.648,0.224,-0.942,0.0
11.54,0.295,-0.938,0.0
10.743,0.274,-0.935,0.0
10.162,0.259,-0.944,0.0
9.563,0.243,-0.945,0.0
8.98,0.228,-0.94,0.0
8.501,0.216,-0.939,0.0
11.358,0.285,-0.94,0.0
10.618,0.266,-0.94,0.0
9.981,0.249,-0.942,0.0
9.386,0.234,-0.942,0.0
8.876,0.221,-0.942,0.0
8.395,0.209,-0.94,0.0
11.217,0.275,-0.945,0.0
10.469,0.256,-0.943,0.0
9.836,0.24,-0.943,0.0
9.254,0.226,-0.942,0.0
8.728,0.212,-0.94,0.0
8.296,0.201,-0.942,0.0
10.975,0.263,-0.941,0.0
10.28,0.246,-0.941,0.0
9.707,0.232,-0.945,0.0
9.104,0.217,-0.94,0.0
8.629,0.205,-0.941,0.0
8.203,0.194,-0.943,0.0
10.751,0.252,-0.937,0.0
10.149,0.237,-0.943,0.0
9.543,0.222,-0.943,0.0
8.998,0.209,-0.942,0.0
8.526,0.197,-0.942,0.0
8.108,0.187,-0.944,0.0
10.611,0.242,-0.94,0.0
9.958,0.226,-0.94,0.0
9.407,0.213,-0.942,0.0
8.878,0.2,-0.942,0.0
8.367,0.188,-0.936,0.0
8.041,0.18,-0.947,0.0
10.46,0.231,-0.941,0.0
9.866,0.218,-0.944,0.0
9.29,0.204,-0.943,0.0
8.734,0.191,-0.938,0.0
8.32,0.182,-0.943,0.0
7.913,0.172,-0.943,0.0
10.329,0.221,-0.943,0.0
9.699,0.207,-0.941,0.0
9.141,0.194,-0.94,0.0
8.6,0.182,-0.936,0.0
8.219,0.173,-0.942,0.0
7.808,0.164,-0.941,0.0
10.177,0.211,-0.942,0.0
9.586,0.198,-0.943,0.0
9.024,0.185,-0.94,0.0
8.493,0.174,-0.935,0.0
8.136,0.166,-0.943,0.0
7.738,0.157,-0.942,0.0
10.023,0.2,-0.941,0.0
9.459,0.188,-0.942,0.0
8.913,0.176,-0.94,0.0
8.455,0.167,-0.942,0.0
8.066,0.158,-0.945,0.0
7.662,0.149,-0.943,0.0
9.904,0.19,-0.942,0.0
9.324,0.178,-0.94,0.0
8.765,0.167,-0.935,0.0
8.348,0.158,-0.94,0.0
7.978,0.15,-0.945,0.0
7.613,0.143,-0.946,0.0
9.783,0.18,-0.942,0.0
9.244,0.169,-0.943,0.0
8.69,0.158,-0.937,0.0
8.227,0.149,-0.936,0.0
7.894,0.142,-0.944,0.0
7.531,0.135,-0.945,0.0
9.643,0.17,-0.94,0.0
9.081,0.159,-0.937,0.0
8.61,0.15,-0.939,0.0
8.176,0.141,-0.94,0.0
7.824,0.134,-0.945,0.0
7.496,0.128,-0.949,0.0
9.558,0.16,-0.942,0.0
9.005,0.15,-0.94,0.0
8.557,0.141,-0.942,0.0
8.043,0.132,-0.933,0.0
7.72,0.126,-0.941,0.0
7.379,0.12,-0.942,0.0
9.425,0.15,-0.939,0.0
8.882,0.14,-0.936,0.0
8.417,0.132,-0.936,0.0
7.999,0.124,-0.937,0.0
7.659,0.118,-0.942,0.0
7.312,0.112,-0.942,0.0
9.305,0.14,-0.937,0.0
8.802,0.131,-0.937,0.0
8.359,0.123,-0.938,0.0
7.972,0.117,-0.942,0.0
7.653,0.111,-0.949,0.0
7.257,0.104,-0.942,0.0
9.26,0.13,-0.942,0.0
8.723,0.122,-0.938,0.0
8.261,0.114,-0.936,0.0
7.897,0.108,-0.941,0.0
7.552,0.103,-0.944,0.0
7.248,0.098,-0.948,0.0
9.154,0.121,-0.94,0.0
8.671,0.113,-0.94,0.0
8.205,0.106,-0.937,0.0
7.817,0.1,-0.939,0.0
7.541,0.095,-0.949,0.0
7.207,0.09,-0.949,0.0
9.037,0.11,-0.936,0.0
8.614,0.104,-0.942,0.0
8.171,0.098,-0.941,0.0
7.747,0.092,-0.937,0.0
7.461,0.087,-0.946,0.0
7.154,0.083,-0.949,0.0
8.982,0.101,-0.938,0.0
8.539,0.095,-0.941,0.0
8.087,0.089,-0.938,0.0
7.706,0.083,-0.939,0.0
7.366,0.079,-0.94,0.0
7.079,0.075,-0.945,0.0
8.908,0.091,-0.938,0.0
8.464,0.086,-0.94,0.0
8.038,0.08,-0.939,0.0
7.634,0.075,-0.937,0.0
7.374,0.071,-0.948,0.0
7.076,0.068,-0.95,0.0
8.831,0.082,-0.937,0.0
8.344,0.076,-0.933,0.0
7.981,0.071,-0.939,0.0
7.611,0.067,-0.94,0.0
7.312,0.063,-0.945,0.0
7.053,0.06,-0.953,0.0
8.748,0.072,-0.935,0.0
8.317,0.067,-0.937,0.0
7.924,0.063,-0.938,0.0
7.533,0.059,-0.936,0.0
7.257,0.055,-0.944,0.0
6.986,0.052,-0.949,0.0
8.722,0.063,-0.939,0.0
8.278,0.058,-0.938,0.0
7.88,0.054,-0.938,0.0
7.513,0.05,-0.939,0.0
7.218,0.047,-0.944,0.0
6.947,0.045,-0.948,0.0
8.668,0.053,-0.939,0.0
8.234,0.049,-0.939,0.0
7.846,0.046,-0.94,0.0
7.514,0.043,-0.944,0.0
7.214,0.04,-0.948,0.0
6.93,0.037,-0.951,0.0
8.625,0.044,-0.939,0.0
8.182,0.04,-0.938,0.0
7.821,0.037,-0.941,0.0
7.473,0.034,-0.943,0.0
7.175,0.032,-0.947,0.0
6.869,0.029,-0.946,0.0
8.523,0.034,-0.933,0.0
8.112,0.031,-0.935,0.0
7.778,0.029,-0.941,0.0
7.415,0.026,-0.94,0.0
7.2,0.024,-0.954,0.0
6.843,0.022,-0.947,0.0
8.534,0.025,-0.939,0.0
8.102,0.022,-0.938,0.0
7.762,0.02,-0.943,0.0
7.408,0.018,-0.943,0.0
7.09,0.016,-0.943,0.0
6.81,0.014,-0.945,0.0
8.501,0.016,-0.94,0.0
8.059,0.013,-0.937,0.0
7.695,0.011,-0.938,0.0
0.0,0.0,0.0,0.0
7.084,0.008,-0.946,0.0
6.783,0.006,-0.945,0.0
8.453,0.006,-0.938,0.0
8.039,0.004,-0.938,0.0
7.672,0.003,-0.939,0.0
7.307,0.001,-0.937,0.0
7.09,0.0,-0.95,0.0
6.81,0.0,-0.951,0.0
8.41,-0.002,-0.937,0.0
7.987,-0.004,-0.935,0.0
7.679,-0.005,-0.943,0.0
7.344,-0.006,-0.944,0.0
7.067,-0.007,-0.949,0.0
6.769,-0.008,-0.948,0.0
8.369,-0.012,-0.935,0.0
7.987,-0.012,-0.938,0.0
7.653,-0.013,-0.942,0.0
0.0,0.0,0.0,0.0
7.019,-0.015,-0.945,0.0
6.784,-0.015,-0.953,0.0
8.372,-0.021,-0.938,0.0
7.955,-0.021,-0.937,0.0
7.659,-0.022,-0.945,0.0
7.275,-0.022,-0.94,0.0
7.041,-0.023,-0.95,0.0
6.762,-0.023,-0.951,0.0
8.348,-0.031,-0.938,0.0
7.974,-0.031,-0.941,0.0
7.582,-0.03,-0.938,0.0
0.0,0.0,0.0,0.0
6.973,-0.031,-0.943,0.0
6.752,-0.031,-0.951,0.0
8.292,-0.04,-0.933,0.0
7.941,-0.039,-0.939,0.0
7.622,-0.039,-0.944,0.0
0.0,0.0,0.0,0.0
0.0,0.0,0.0,0.0
6.723,-0.038,-0.949,0.0
8.301,-0.049,-0.936,0.0
7.924,-0.048,-0.938,0.0
7.598,-0.048,-0.942,0.0
0.0,0.0,0.0,0.0
0.0,0.0,0.0,0.0
6.719,-0.046,-0.949,0.0
8.277,-0.058,-0.934,0.0
7.907,-0.057,-0.937,0.0
7.594,-0.056,-0.943,0.0
0.0,0.0,0.0,0.0
6.983,-0.055,-0.947,0.0
6.753,-0.054,-0.954,0.0
8.286,-0.068,-0.936,0.0
7.915,-0.066,-0.938,0.0
7.594,-0.065,-0.943,0.0
7.265,-0.064,-0.944,0.0
7.001,-0.063,-0.95,0.0
6.705,-0.061,-0.948,0.0
8.281,-0.077,-0.935,0.0
7.912,-0.075,-0.938,0.0
7.55,-0.074,-0.938,0.0
7.256,-0.072,-0.943,0.0
7.017,-0.071,-0.952,0.0
6.78,-0.07,-0.958,0.0
8.281,-0.087,-0.935,0.0
7.912,-0.084,-0.938,0.0
7.547,-0.082,-0.937,0.0
7.289,-0.081,-0.947,0.0
7.016,-0.079,-0.952,0.0
6.729,-0.077,-0.951,0.0
8.293,-0.096,-0.936,0.0
7.911,-0.093,-0.938,0.0
7.576,-0.091,-0.94,0.0
7.257,-0.089,-0.943,0.0
6.987,-0.087,-0.947,0.0
6.708,-0.084,-0.947,0.0
8.282,-0.106,-0.934,0.0
7.941,-0.103,-0.94,0.0
7.594,-0.1,-0.942,0.0
7.253,-0.097,-0.941,0.0
6.984,-0.095,-0.946,0.0
6.726,-0.092,-0.949,0.0
8.317,-0.115,-0.937,0.0
7.935,-0.112,-0.938,0.0
7.586,-0.108,-0.939,0.0
7.302,-0.106,-0.946,0.0
0.0,0.0,0.0,0.0
6.77,-0.101,-0.954,0.0
8.32,-0.125,-0.935,0.0
7.964,-0.121,-0.94,0.0
7.612,-0.117,-0.941,0.0
7.262,-0.113,-0.939,0.0
6.967,-0.11,-0.94,0.0
6.774,-0.108,-0.953,0.0
8.329,-0.134,-0.934,0.0
7.956,-0.13,-0.937,0.0
7.633,-0.126,-0.942,0.0
7.296,-0.122,-0.942,0.0
0.0,0.0,0.0,0.0
6.785,-0.116,-0.952,0.0
8.372,-0.144,-0.937,0.0
7.989,-0.139,-0.939,0.0
7.661,-0.135,-0.943,0.0
7.32,-0.13,-0.943,0.0
7.036,-0.127,-0.946,0.0
6.787,-0.124,-0.95,0.0
8.411,-0.154,-0.938,0.0
8.007,-0.148,-0.938,0.0
7.66,-0.143,-0.94,0.0
7.345,-0.139,-0.943,0.0
7.039,-0.135,-0.943,0.0
6.778,-0.131,-0.946,0.0
8.438,-0.164,-0.938,0.0
8.043,-0.158,-0.939,0.0
7.666,-0.152,-0.938,0.0
7.373,-0.147,-0.944,0.0
7.085,-0.143,-0.947,0.0
6.842,-0.14,-0.952,0.0
8.462,-0.173,-0.937,0.0
8.064,-0.167,-0.938,0.0
7.72,-0.161,-0.941,0.0
7.355,-0.155,-0.938,0.0
7.093,-0.151,-0.944,0.0
6.823,-0.147,-0.947,0.0
8.497,-0.183,-0.937,0.0
8.085,-0.176,-0.936,0.0
7.743,-0.17,-0.94,0.0
7.414,-0.164,-0.942,0.0
7.185,-0.16,-0.953,0.0
6.881,-0.155,-0.951,0.0
8.55,-0.193,-0.938,0.0
8.129,-0.185,-0.937,0.0
7.788,-0.179,-0.941,0.0
7.475,-0.173,-0.946,0.0
7.199,-0.168,-0.951,0.0
6.915,-0.163,-0.952,0.0
8.616,-0.203,-0.941,0.0
8.202,-0.195,-0.941,0.0
7.809,-0.188,-0.939,0.0
7.501,-0.182,-0.944,0.0
7.19,-0.176,-0.945,0.0
6.923,-0.17,-0.949,0.0
8.626,-0.213,-0.937,0.0
8.22,-0.204,-0.938,0.0
7.853,-0.196,-0.94,0.0
7.521,-0.19,-0.942,0.0
7.24,-0.184,-0.947,0.0
6.937,-0.178,-0.946,0.0
8.7,-0.223,-0.939,0.0
8.268,-0.214,-0.938,0.0
7.884,-0.205,-0.938,0.0
7.56,-0.198,-0.942,0.0
7.268,-0.192,-0.946,0.0
7.035,-0.187,-0.955,0.0
8.758,-0.233,-0.939,0.0
8.349,-0.224,-0.941,0.0
7.931,-0.214,-0.938,0.0
7.586,-0.206,-0.94,0.0
7.3,-0.2,-0.945,0.0
7.044,-0.194,-0.951,0.0
8.805,-0.243,-0.938,0.0
8.395,-0.233,-0.94,0.0
7.975,-0.223,-0.937,0.0
7.65,-0.215,-0.942,0.0
7.323,-0.207,-0.942,0.0
7.064,-0.202,-0.948,0.0
8.878,-0.253,-0.939,0.0
8.45,-0.243,-0.94,0.0
8.046,-0.232,-0.939,0.0
7.683,-0.223,-0.94,0.0
7.41,-0.217,-0.947,0.0
7.125,-0.21,-0.95,0.0
8.965,-0.264,-0.941,0.0
8.502,-0.252,-0.939,0.0
8.092,-0.241,-0.938,0.0
7.729,-0.232,-0.939,0.0
7.456,-0.225,-0.947,0.0
7.169,-0.218,-0.95,0.0
9.07,-0.275,-0.944,0.0
8.565,-0.261,-0.938,0.0
8.172,-0.251,-0.94,0.0
7.77,-0.24,-0.937,0.0
7.483,-0.233,-0.944,0.0
7.2,-0.225,-0.948,0.0
9.171,-0.286,-0.947,0.0
8.675,-0.272,-0.943,0.0
8.246,-0.26,-0.941,0.0
7.831,-0.249,-0.937,0.0
7.542,-0.241,-0.944,0.0
7.257,-0.233,-0.948,0.0
9.261,-0.297,-0.947,0.0
8.759,-0.283,-0.943,0.0
8.292,-0.269,-0.938,0.0
7.935,-0.259,-0.942,0.0
7.616,-0.25,-0.946,0.0
7.289,-0.24,-0.945,0.0
9.356,-0.308,-0.948,0.0
8.816,-0.292,-0.941,0.0
8.395,-0.279,-0.942,0.0
7.981,-0.267,-0.94,0.0
7.661,-0.258,-0.944,0.0
7.36,-0.249,-0.947,0.0
9.441,-0.319,-0.947,0.0
8.9,-0.302,-0.941,0.0
8.462,-0.288,-0.941,0.0
8.068,-0.276,-0.942,0.0
7.74,-0.266,-0.945,0.0
7.434,-0.257,-0.949,0.0
9.585,-0.331,-0.951,0.0
9.035,-0.313,-0.946,0.0
8.557,-0.298,-0.942,0.0
8.145,-0.285,-0.942,0.0
7.778,-0.274,-0.942,0.0
7.462,-0.264,-0.944,0.0
9.661,-0.341,-0.948,0.0
9.141,-0.324,-0.947,0.0
8.66,-0.308,-0.944,0.0
8.235,-0.295,-0.943,0.0
7.872,-0.283,-0.944,0.0
7.526,-0.272,-0.944,0.0
