X,Y,Z,Reflectivity
54.945,-4.997,1.158,150.0
81.935,-7.461,4.011,28.0
81.683,-7.451,3.566,39.0
81.821,-7.478,3.139,52.0
81.927,-7.502,2.701,50.0
82.054,-7.528,2.271,38.0
82.713,-7.604,1.852,59.0
82.469,-7.59,4.147,52.0
81.849,-7.546,3.681,36.0
81.825,-7.557,3.247,40.0
81.822,-7.569,2.805,40.0
82.096,-7.609,2.381,46.0
82.165,-7.629,1.949,39.0
82.116,-7.634,4.237,38.0
82.211,-7.655,3.807,17.0
81.764,-7.626,3.353,29.0
81.809,-7.643,2.913,39.0
82.11,-7.683,2.491,48.0
81.972,-7.683,2.052,42.0
81.865,-7.683,4.333,28.0
82.116,-7.718,3.912,26.0
81.847,-7.704,3.465,23.0
82.049,-7.735,3.03,42.0
81.961,-7.738,2.594,49.0
81.976,-7.752,2.161,36.0
0.0,0.0,0.0,0.0
82.024,-7.778,4.016,34.0
81.911,-7.778,3.577,33.0
82.299,-7.826,3.15,37.0
81.792,-7.789,2.698,38.0
82.069,-7.826,2.274,41.0
0.0,0.0,0.0,0.0
81.901,-7.831,4.121,39.0
81.85,-7.836,3.685,35.0
82.237,-7.883,3.259,26.0
82.105,-7.881,2.82,40.0
82.127,-7.894,2.387,40.0
83.552,-8.042,4.761,44.0
81.83,-7.886,4.228,37.0
81.786,-7.89,3.794,34.0
82.516,-7.971,3.383,13.0
82.108,-7.941,2.932,42.0
82.175,-7.958,2.5,37.0
83.468,-8.094,4.87,34.0
81.934,-7.953,4.346,28.0
81.779,-7.947,3.905,37.0
81.965,-7.974,3.471,32.0
82.063,-7.992,3.041,40.0
82.104,-8.006,2.609,39.0
83.64,-8.166,4.994,27.0
83.336,-8.144,4.533,32.0
82.025,-8.024,4.027,37.0
81.797,-8.009,3.574,40.0
82.09,-8.046,3.153,39.0
82.001,-8.046,2.715,40.0
84.338,-8.286,5.149,27.0
83.43,-8.204,4.651,39.0
82.206,-8.091,4.146,34.0
81.887,-8.066,3.689,45.0
82.445,-8.129,3.277,35.0
81.833,-8.076,2.819,31.0
84.793,-8.38,5.291,33.0
83.622,-8.27,4.776,32.0
82.294,-8.145,4.262,31.0
82.056,-8.128,3.807,36.0
83.173,-8.245,3.419,32.0
81.891,-8.125,2.933,38.0
84.858,-8.432,5.412,22.0
83.932,-8.345,4.907,24.0
82.382,-8.196,4.379,23.0
82.098,-8.174,3.92,37.0
82.014,-8.172,3.482,26.0
82.005,-8.176,3.049,37.0
109.497,-10.934,7.133,23.0
84.042,-8.397,5.027,34.0
82.245,-8.221,4.483,24.0
82.207,-8.222,4.037,25.0
82.008,-8.208,3.592,42.0
82.238,-8.236,3.167,38.0
109.35,-10.968,7.272,38.0
84.469,-8.476,5.167,36.0
0.0,0.0,0.0,0.0
82.894,-8.325,4.182,43.0
82.067,-8.247,3.706,36.0
82.13,-8.258,3.274,32.0
109.311,-11.007,7.417,39.0
84.789,-8.541,5.302,19.0
83.535,-8.418,4.779,23.0
82.21,-8.288,4.259,38.0
82.159,-8.286,3.82,19.0
82.003,-8.274,3.379,37.0
109.469,-11.063,7.576,23.0
109.435,-11.061,6.991,18.0
84.637,-8.557,4.957,33.0
82.116,-8.305,4.364,31.0
83.27,-8.424,3.984,40.0
81.943,-8.293,3.486,39.0
109.902,-11.14,7.754,17.0
109.43,-11.094,7.138,34.0
84.864,-8.605,5.084,37.0
82.22,-8.338,4.48,23.0
83.133,-8.433,4.089,49.0
81.976,-8.318,3.597,33.0
109.871,-11.166,7.9,22.0
109.389,-11.118,7.283,36.0
84.964,-8.636,5.203,29.0
83.324,-8.47,4.651,38.0
82.639,-8.402,4.173,29.0
82.013,-8.34,3.707,20.0
109.627,-11.166,8.029,25.0
109.314,-11.133,7.424,27.0
84.89,-8.645,5.312,27.0
83.742,-8.529,4.786,26.0
82.23,-8.375,4.262,13.0
83.831,-8.539,3.901,9.0
109.624,-11.184,8.175,24.0
109.624,-11.183,7.59,18.0
109.405,-11.16,6.992,22.0
84.66,-8.634,4.951,41.0
82.264,-8.39,4.372,19.0
83.499,-8.516,3.993,40.0
108.795,-11.114,8.256,25.0
109.948,-11.229,7.755,17.0
109.389,-11.17,7.132,33.0
84.702,-8.648,5.063,34.0
82.906,-8.463,4.514,24.0
83.024,-8.474,4.079,41.0
108.615,-11.106,8.383,37.0
109.435,-11.185,7.862,19.0
109.405,-11.179,7.276,28.0
84.873,-8.67,5.183,28.0
83.39,-8.516,4.648,29.0
82.698,-8.444,4.17,31.0
108.504,-11.098,8.517,40.0
109.314,-11.176,7.996,22.0
109.391,-11.18,7.416,25.0
84.875,-8.671,5.292,27.0
83.754,-8.554,4.776,23.0
0.0,0.0,0.0,0.0
108.342,-11.082,8.643,31.0
109.577,-11.202,8.155,21.0
109.608,-11.2,7.571,18.0
109.408,-11.174,6.961,20.0
84.592,-8.636,4.931,34.0
82.184,-8.387,4.352,13.0
108.147,-11.056,8.765,35.0
108.891,-11.126,8.242,26.0
109.857,-11.218,7.727,17.0
109.389,-11.164,7.098,35.0
84.782,-8.648,5.049,40.0
82.154,-8.376,4.454,12.0
108.03,-11.035,8.891,45.0
108.621,-11.087,8.358,42.0
109.78,-11.198,7.859,20.0
109.385,-11.15,7.234,38.0
84.95,-8.655,5.163,28.0
83.312,-8.483,4.619,38.0
107.946,-11.011,9.02,40.0
108.448,-11.054,8.478,38.0
109.653,-11.168,7.984,24.0
109.309,-11.125,7.362,37.0
84.938,-8.639,5.266,29.0
83.474,-8.484,4.729,25.0
107.905,-10.987,9.147,37.0
108.21,-11.009,8.59,33.0
109.691,-11.151,8.118,24.0
109.371,-11.109,7.496,26.0
84.962,-8.623,5.368,12.0
84.457,-8.566,4.884,29.0
107.917,-10.966,9.277,29.0
108.139,-10.977,8.714,41.0
109.556,-11.111,8.239,23.0
109.721,-11.118,7.65,20.0
109.393,-11.075,7.04,26.0
84.72,-8.57,4.999,33.0
107.76,-10.921,9.39,36.0
108.102,-10.944,8.837,40.0
108.748,-10.998,8.305,18.0
110.016,-11.116,7.798,20.0
109.404,-11.043,7.168,42.0
84.546,-8.527,5.085,31.0
107.729,-10.885,9.512,43.0
108.001,-10.9,8.954,37.0
108.597,-10.948,8.418,32.0
109.765,-11.055,7.906,22.0
109.332,-11.0,7.287,41.0
84.553,-8.498,5.181,39.0
107.72,-10.847,9.634,36.0
107.94,-10.855,9.072,43.0
108.346,-10.884,8.521,34.0
109.658,-11.003,8.022,29.0
109.31,-10.955,7.408,40.0
84.771,-8.487,5.289,25.0
107.859,-10.819,9.768,26.0
107.95,-10.813,9.192,36.0
108.402,-10.846,8.644,38.0
109.713,-10.963,8.146,24.0
109.422,-10.921,7.535,33.0
84.838,-8.457,5.385,17.0
108.621,-10.849,9.956,25.0
107.88,-10.759,9.304,40.0
108.42,-10.799,8.764,31.0
109.889,-10.931,8.277,20.0
109.597,-10.887,7.665,33.0
109.544,-10.868,7.071,13.0
108.721,-10.807,10.082,34.0
107.849,-10.705,9.416,41.0
108.447,-10.749,8.881,22.0
112.519,-11.136,8.595,18.0
109.615,-10.834,7.781,29.0
86.558,-8.544,5.677,12.0
108.696,-10.749,10.193,22.0
107.964,-10.66,9.538,31.0
108.333,-10.68,8.984,36.0
112.503,-11.075,8.708,24.0
109.713,-10.784,7.9,29.0
86.425,-8.483,5.756,14.0
112.055,-11.02,10.622,16.0
108.339,-10.637,9.681,29.0
108.183,-10.605,9.08,36.0
112.115,-10.972,8.792,29.0
109.926,-10.741,8.025,23.0
86.406,-8.431,5.84,14.0
112.157,-10.963,10.745,16.0
108.74,-10.612,9.825,21.0
108.414,-10.562,9.205,31.0
112.133,-10.906,8.902,28.0
112.847,-10.958,8.346,14.0
109.603,-10.626,7.512,23.0
112.033,-10.882,10.84,18.0
111.26,-10.787,10.159,21.0
108.944,-10.545,9.353,39.0
112.131,-10.834,9.006,23.0
112.544,-10.854,8.429,14.0
109.596,-10.552,7.614,40.0
110.615,-10.671,10.806,19.0
111.786,-10.764,10.31,21.0
109.035,-10.479,9.462,23.0
112.068,-10.751,9.104,26.0
112.68,-10.79,8.541,17.0
109.855,-10.501,7.731,38.0
24.54,-2.35,2.419,6.0
112.007,-10.705,10.432,15.0
110.741,-10.564,9.71,39.0
112.211,-10.683,9.215,26.0
112.363,-10.678,8.616,26.0
109.959,-10.43,7.834,34.0
24.54,-2.332,2.441,42.0
24.556,-2.328,2.308,2.0
110.823,-10.489,9.812,28.0
112.188,-10.597,9.309,11.0
112.179,-10.575,8.697,34.0
112.765,-10.611,8.128,18.0
24.536,-2.313,2.461,69.0
24.547,-2.309,2.328,37.0
112.013,-10.514,10.01,20.0
120.861,-11.322,10.127,17.0
112.28,-10.496,8.795,30.0
112.766,-10.521,8.218,23.0
24.534,-2.293,2.481,47.0
24.547,-2.289,2.347,56.0
112.198,-10.441,10.115,9.0
114.774,-10.657,9.707,5.0
112.46,-10.42,8.897,34.0
112.844,-10.435,8.31,24.0
24.556,-2.274,2.502,24.0
24.553,-2.269,2.367,79.0
24.556,-2.264,2.232,24.0
114.415,-10.526,9.763,11.0
112.425,-10.321,8.977,19.0
112.995,-10.35,8.406,18.0
24.584,-2.256,2.523,13.0
24.55,-2.247,2.384,65.0
24.559,-2.243,2.25,50.0
24.59,-2.24,2.116,0.0
114.556,-10.414,9.23,8.0
112.854,-10.237,8.474,13.0
39.305,-3.571,4.062,2.0
24.539,-2.224,2.401,26.0
24.56,-2.22,2.268,96.0
24.562,-2.215,2.13,27.0
114.3,-10.284,9.287,18.0
114.672,-10.295,8.688,10.0
39.291,-3.533,4.087,1.0
114.32,-10.254,11.262,12.0
24.554,-2.196,2.283,45.0
24.574,-2.193,2.147,52.0
113.798,-10.131,9.319,19.0
120.89,-10.736,9.237,10.0
112.421,-10.0,11.768,15.0
114.416,-10.151,11.344,6.0
24.562,-2.173,2.299,9.0
24.572,-2.168,2.162,61.0
24.626,-2.168,2.032,3.0
120.987,-10.624,9.318,26.0
112.266,-9.875,11.82,35.0
114.173,-10.015,11.388,10.0
46.505,-4.068,4.381,5.0
24.58,-2.144,2.177,55.0
24.597,-2.14,2.043,20.0
120.825,-10.489,9.372,19.0
112.237,-9.758,11.88,28.0
113.941,-9.878,11.428,11.0
46.491,-4.019,4.405,10.0
24.604,-2.121,2.192,43.0
24.621,-2.117,2.058,39.0
60.644,-5.201,4.736,6.0
23.812,-2.045,2.532,18.0
23.935,-2.05,2.413,2.0
53.891,-4.602,5.134,3.0
24.596,-2.094,2.204,26.0
24.615,-2.09,2.07,53.0
60.574,-5.13,4.76,5.0
23.814,-2.019,2.545,62.0
23.861,-2.018,2.417,13.0
60.882,-5.133,5.829,2.0
24.629,-2.07,2.219,5.0
24.604,-2.063,2.08,52.0
121.062,-10.121,9.568,15.0
23.827,-1.995,2.556,87.0
23.825,-1.988,2.424,60.0
23.889,-1.988,2.297,28.0
23.932,-1.985,2.166,7.0
24.184,-2.0,2.055,19.0
115.394,-9.519,9.167,14.0
23.819,-1.967,2.565,44.0
23.822,-1.961,2.433,58.0
23.872,-1.959,2.305,66.0
23.912,-1.957,2.173,50.0
23.977,-1.956,2.046,37.0
53.946,-4.388,4.305,1.0
23.834,-1.941,2.576,4.0
23.835,-1.935,2.443,50.0
23.872,-1.932,2.313,57.0
23.897,-1.928,2.18,57.0
23.963,-1.927,2.053,57.0
24.087,-1.931,1.93,1.0
52.622,-4.224,5.705,4.0
23.834,-1.907,2.45,14.0
23.881,-1.904,2.322,24.0
23.906,-1.9,2.188,35.0
23.958,-1.898,2.06,38.0
24.036,-1.899,1.933,9.0
112.517,-8.898,12.232,26.0
38.935,-3.069,4.014,4.0
58.106,-4.564,5.666,3.0
23.939,-1.874,2.198,3.0
23.974,-1.871,2.067,22.0
23.993,-1.866,1.935,26.0
30.908,-2.407,3.367,17.0
47.078,-3.654,4.865,3.0
111.965,-8.66,10.943,17.0
111.59,-8.601,10.272,16.0
24.042,-1.847,2.078,15.0
24.021,-1.839,1.942,37.0
30.935,-2.37,3.377,38.0
47.495,-3.627,4.918,13.0
59.021,-4.492,5.78,7.0
47.506,-3.603,4.381,7.0
24.076,-1.819,2.086,3.0
24.093,-1.814,1.953,27.0
36.073,-2.719,3.943,2.0
38.965,-2.926,4.04,6.0
54.048,-4.045,5.301,2.0
47.273,-3.525,4.366,9.0
24.374,-1.811,2.114,0.0
24.15,-1.788,1.96,40.0
30.406,-2.253,3.328,4.0
30.969,-2.286,3.214,27.0
59.975,-4.412,5.889,3.0
47.086,-3.451,4.354,6.0
57.995,-4.236,5.037,1.0
24.176,-1.759,1.964,43.0
30.416,-2.215,3.331,36.0
30.981,-2.248,3.218,29.0
44.665,-3.228,4.388,2.0
24.921,-1.794,2.306,4.0
24.83,-1.781,2.158,11.0
24.208,-1.73,1.968,36.0
30.423,-2.175,3.333,58.0
38.955,-2.774,4.048,11.0
31.02,-2.201,3.048,10.0
24.877,-1.758,2.302,28.0
24.8,-1.746,2.155,35.0
24.23,-1.7,1.97,26.0
30.429,-2.136,3.333,61.0
25.033,-1.75,2.601,5.0
24.989,-1.74,2.455,48.0
24.887,-1.726,2.302,27.0
24.785,-1.712,2.153,53.0
24.288,-1.672,1.973,23.0
30.424,-2.095,3.331,19.0
25.014,-1.715,2.597,56.0
24.995,-1.707,2.454,46.0
24.943,-1.697,2.305,9.0
24.793,-1.68,2.152,53.0
24.341,-1.643,1.975,22.0
25.077,-1.692,2.743,34.0
25.029,-1.682,2.596,43.0
25.009,-1.674,2.452,3.0
31.054,-2.07,2.867,32.0
24.791,-1.646,2.148,26.0
24.353,-1.611,1.973,26.0
25.091,-1.659,2.741,43.0
30.416,-2.003,3.15,33.0
47.535,-3.118,4.654,3.0
52.423,-3.424,4.831,5.0
28.438,-1.849,2.46,60.0
24.355,-1.578,1.969,29.0
25.109,-1.626,2.739,39.0
30.431,-1.962,3.146,70.0
30.505,-1.958,2.981,4.0
28.426,-1.817,2.613,3.0
28.441,-1.81,2.454,71.0
24.342,-1.543,1.963,32.0
30.379,-1.925,3.307,22.0
30.453,-1.921,3.141,63.0
30.497,-1.915,2.972,5.0
28.433,-1.778,2.607,7.0
28.427,-1.77,2.445,66.0
24.344,-1.509,1.956,36.0
31.112,-1.928,3.378,20.0
30.439,-1.877,3.131,39.0
30.489,-1.872,2.963,11.0
28.42,-1.738,2.597,19.0
28.429,-1.731,2.437,73.0
24.333,-1.475,1.948,56.0
31.771,-1.924,3.439,65.0
30.482,-1.837,3.126,37.0
30.507,-1.831,2.954,12.0
28.406,-1.697,2.586,33.0
28.43,-1.691,2.427,75.0
24.338,-1.441,1.94,69.0
31.752,-1.878,3.426,48.0
30.922,-1.821,3.159,41.0
52.177,-3.058,5.034,8.0
28.423,-1.658,2.577,48.0
28.429,-1.651,2.416,39.0
24.331,-1.407,1.93,52.0
36.981,-2.135,3.975,7.0
31.106,-1.788,3.165,40.0
30.52,-1.746,2.931,20.0
28.406,-1.617,2.563,56.0
24.258,-1.375,2.051,52.0
24.395,-1.376,1.924,36.0
36.908,-2.079,3.95,10.0
31.307,-1.755,3.171,38.0
30.532,-1.703,2.918,29.0
24.198,-1.344,2.172,39.0
24.258,-1.341,2.039,57.0
24.46,-1.345,1.917,44.0
51.453,-2.825,5.481,7.0
31.612,-1.727,3.186,28.0
24.12,-1.311,2.293,42.0
24.186,-1.308,2.159,43.0
24.285,-1.307,2.029,45.0
24.514,-1.314,1.908,61.0
37.056,-1.982,3.927,6.0
24.046,-1.28,2.41,35.0
24.105,-1.276,2.278,64.0
28.411,-1.497,2.52,14.0
24.527,-1.286,2.035,35.0
24.528,-1.28,1.895,43.0
23.972,-1.248,2.527,27.0
24.041,-1.246,2.396,64.0
30.572,-1.576,2.871,21.0
28.398,-1.456,2.502,69.0
24.528,-1.252,2.021,30.0
28.414,-1.443,2.179,35.0
23.987,-1.215,2.513,35.0
24.05,-1.212,2.381,26.0
30.616,-1.535,2.856,65.0
28.401,-1.416,2.483,72.0
24.531,-1.217,2.005,42.0
28.406,-1.403,2.159,67.0
24.01,-1.182,2.499,58.0
38.735,-1.897,3.809,36.0
30.604,-1.491,2.834,43.0
30.677,-1.487,2.661,61.0
24.54,-1.183,1.988,64.0
30.782,-1.476,2.318,59.0
0.0,0.0,0.0,0.0
38.773,-1.844,3.785,16.0
31.356,-1.483,2.88,25.0
46.246,-2.176,3.978,27.0
24.564,-1.149,1.972,49.0
30.802,-1.434,2.297,43.0
0.0,0.0,0.0,0.0
46.408,-2.142,4.494,20.0
31.457,-1.443,2.865,36.0
24.6,-1.122,2.097,39.0
46.322,-2.102,3.682,11.0
30.881,-1.394,2.278,39.0
46.226,-2.079,4.705,15.0
24.657,-1.103,2.367,14.0
24.643,-1.096,2.224,50.0
24.605,-1.088,2.076,41.0
31.46,-1.384,2.475,45.0
30.95,-1.354,2.257,40.0
24.685,-1.075,2.492,32.0
24.65,-1.068,2.346,67.0
24.627,-1.061,2.201,63.0
24.593,-1.053,2.054,34.0
31.435,-1.339,2.445,25.0
28.431,-1.204,2.048,57.0
24.666,-1.04,2.468,66.0
24.649,-1.033,2.323,53.0
24.64,-1.027,2.18,27.0
24.558,-1.017,2.029,29.0
28.415,-1.17,2.184,104.0
28.414,-1.164,2.021,103.0
24.663,-1.006,2.444,72.0
28.387,-1.151,2.649,27.0
28.407,-1.145,2.487,110.0
24.578,-0.985,2.007,42.0
28.422,-1.132,2.158,106.0
28.411,-1.125,1.994,79.0
28.385,-1.119,2.785,20.0
28.394,-1.112,2.622,54.0
28.417,-1.106,2.46,64.0
28.411,-1.099,2.292,28.0
28.414,-1.093,2.129,38.0
31.144,-1.191,2.154,19.0
31.716,-1.207,3.08,2.0
31.643,-1.196,2.89,23.0
31.633,-1.188,2.706,21.0
31.618,-1.18,2.518,19.0
31.231,-1.159,2.307,25.0
31.164,-1.149,2.123,53.0
37.259,-1.366,3.578,76.0
28.376,-1.034,2.56,56.0
28.378,-1.027,2.396,62.0
28.383,-1.021,2.23,64.0
28.386,-1.014,2.066,56.0
31.179,-1.107,2.09,18.0
43.179,-1.525,4.099,5.0
28.375,-0.996,2.529,65.0
28.378,-0.989,2.365,72.0
28.372,-0.982,2.197,72.0
28.395,-0.977,2.035,74.0
28.391,-0.971,1.871,76.0
28.354,-0.963,2.659,22.0
28.372,-0.957,2.496,77.0
28.365,-0.951,2.331,77.0
28.379,-0.945,2.165,71.0
28.392,-0.939,2.001,72.0
28.396,-0.933,1.838,75.0
28.365,-0.926,2.626,57.0
28.373,-0.92,2.463,72.0
28.373,-0.914,2.298,67.0
28.374,-0.908,2.131,72.0
28.374,-0.901,1.967,75.0
28.382,-0.896,1.803,83.0
28.366,-0.889,2.592,71.0
28.363,-0.883,2.427,77.0
28.379,-0.877,2.264,70.0
28.379,-0.871,2.096,74.0
28.371,-0.865,1.932,76.0
28.375,-0.859,1.768,74.0
28.366,-0.853,2.556,71.0
28.369,-0.846,2.391,73.0
28.373,-0.841,2.227,75.0
28.368,-0.834,2.059,73.0
28.371,-0.829,1.895,75.0
28.371,-0.823,1.731,72.0
28.374,-0.816,2.52,107.0
28.364,-0.81,2.354,69.0
28.369,-0.804,2.189,71.0
28.378,-0.799,2.022,70.0
28.376,-0.793,1.858,73.0
28.381,-0.788,1.694,69.0
28.367,-0.781,2.481,71.0
28.367,-0.775,2.316,70.0
28.373,-0.769,2.151,69.0
28.366,-0.763,1.983,71.0
28.367,-0.757,1.819,72.0
28.382,-0.752,1.655,69.0
28.372,-0.746,2.442,81.0
28.363,-0.739,2.276,69.0
28.365,-0.734,2.111,67.0
28.351,-0.728,1.943,69.0
28.366,-0.723,1.779,66.0
28.368,-0.717,1.615,71.0
28.373,-0.711,2.402,79.0
28.367,-0.705,2.236,66.0
28.353,-0.699,2.07,64.0
28.361,-0.694,1.903,71.0
28.372,-0.689,1.739,70.0
28.368,-0.683,1.574,73.0
28.359,-0.676,2.36,76.0
28.351,-0.671,2.194,72.0
28.357,-0.665,2.029,71.0
28.352,-0.66,1.861,73.0
28.362,-0.655,1.697,69.0
28.376,-0.65,1.533,70.0
28.359,-0.643,2.317,76.0
28.355,-0.638,2.152,71.0
28.342,-0.632,1.986,70.0
28.352,-0.627,1.818,71.0
28.365,-0.622,1.654,71.0
28.366,-0.617,1.49,60.0
28.356,-0.61,2.274,74.0
28.351,-0.605,2.108,69.0
28.347,-0.599,1.943,73.0
28.348,-0.595,1.775,73.0
28.36,-0.59,1.611,74.0
59.358,-1.224,3.027,17.0
28.356,-0.578,2.23,75.0
28.35,-0.573,2.064,75.0
28.339,-0.568,1.898,72.0
28.36,-0.563,1.732,74.0
28.358,-0.559,1.567,70.0
59.387,-1.16,2.937,8.0
28.347,-0.547,2.185,77.0
28.355,-0.542,2.02,76.0
28.346,-0.537,1.854,74.0
28.35,-0.532,1.686,70.0
28.366,-0.528,1.522,58.0
45.696,-0.843,2.186,68.0
54.059,-0.984,4.079,14.0
53.795,-0.971,3.746,6.0
28.345,-0.506,1.808,59.0
28.348,-0.502,1.64,77.0
45.679,-0.801,2.377,9.0
45.862,-0.797,2.119,35.0
53.99,-0.926,3.985,44.0
38.618,-0.656,2.624,64.0
58.771,-0.989,3.651,38.0
66.279,-1.105,3.725,40.0
45.647,-0.754,2.3,50.0
45.997,-0.752,2.05,41.0
68.275,-1.101,4.925,15.0
46.444,-0.741,3.078,54.0
52.224,-0.825,3.156,41.0
66.361,-1.038,3.618,9.0
52.855,-0.819,2.573,8.0
59.099,-0.907,2.533,76.0
38.649,-0.584,2.722,67.0
46.393,-0.694,2.995,51.0
46.273,-0.685,2.717,40.0
46.019,-0.674,2.43,18.0
46.067,-0.668,2.164,56.0
58.462,-0.84,2.406,150.0
38.66,-0.546,2.656,9.0
45.107,-0.631,2.835,30.0
46.242,-0.64,2.636,67.0
45.532,-0.623,2.324,43.0
58.309,-0.79,2.637,179.0
58.292,-0.782,2.297,255.0
44.81,-0.591,2.998,69.0
44.933,-0.586,2.744,60.0
52.871,-0.682,2.92,16.0
45.871,-0.585,2.261,47.0
58.293,-0.735,2.532,255.0
58.238,-0.727,2.191,255.0
52.291,-0.641,3.406,59.0
45.039,-0.546,2.669,26.0
45.532,-0.546,2.432,22.0
58.333,-0.691,2.77,171.0
58.301,-0.683,2.428,255.0
53.492,-0.62,1.916,15.0
60.445,-0.687,3.827,25.0
45.08,-0.506,2.59,39.0
45.454,-0.505,2.345,34.0
58.225,-0.639,2.659,255.0
58.297,-0.632,2.322,255.0
53.496,-0.574,1.819,57.0
52.846,-0.555,3.248,51.0
45.202,-0.469,2.514,51.0
46.04,-0.472,2.291,60.0
58.304,-0.591,2.554,255.0
58.205,-0.582,2.21,255.0
53.504,-0.528,1.719,77.0
64.307,-0.622,3.832,55.0
45.237,-0.432,2.431,48.0
58.239,-0.549,2.789,255.0
58.309,-0.543,2.446,255.0
58.319,-0.536,2.106,156.0
53.51,-0.486,1.62,116.0
64.316,-0.571,3.712,47.0
45.722,-0.4,2.371,52.0
58.286,-0.504,2.682,255.0
58.295,-0.497,2.335,255.0
53.537,-0.45,1.831,150.0
53.5,-0.444,1.518,10.0
45.54,-0.369,2.541,59.0
59.776,-0.478,2.986,47.0
58.29,-0.46,2.57,255.0
58.207,-0.453,2.22,255.0
53.5,-0.41,1.728,68.0
20.182,-0.152,0.534,6.0
45.439,-0.335,2.448,25.0
58.27,-0.424,2.798,255.0
58.287,-0.418,2.458,255.0
58.253,-0.411,2.11,232.0
20.167,-0.14,0.613,12.0
20.158,-0.138,0.494,16.0
58.335,-0.39,3.029,53.0
58.284,-0.383,2.685,255.0
58.259,-0.377,2.343,255.0
58.303,-0.372,1.998,174.0
20.133,-0.126,0.572,15.0
20.129,-0.124,0.454,17.0
58.717,-0.353,2.933,39.0
58.295,-0.344,2.57,255.0
58.289,-0.339,2.23,255.0
58.312,-0.334,1.883,150.0
20.113,-0.113,0.531,18.0
20.123,-0.111,0.414,23.0
58.273,-0.313,2.795,255.0
58.297,-0.308,2.454,255.0
58.294,-0.303,2.114,255.0
20.154,-0.103,0.611,10.0
20.124,-0.101,0.492,23.0
20.119,-0.099,0.374,34.0
58.286,-0.278,2.679,255.0
58.231,-0.273,2.335,255.0
58.227,-0.268,1.994,255.0
20.126,-0.09,0.569,15.0
20.112,-0.089,0.451,27.0
20.113,-0.087,0.334,28.0
58.234,-0.245,2.559,255.0
58.239,-0.24,2.218,255.0
58.315,-0.236,1.879,152.0
20.107,-0.079,0.528,19.0
20.104,-0.078,0.41,29.0
20.118,-0.076,0.293,26.0
58.302,-0.214,2.443,165.0
58.251,-0.209,2.099,255.0
20.151,-0.07,0.608,13.0
20.134,-0.069,0.487,24.0
20.107,-0.067,0.369,31.0
20.109,-0.066,0.251,26.0
58.281,-0.184,2.321,150.0
58.284,-0.18,1.979,204.0
20.13,-0.061,0.566,17.0
20.121,-0.059,0.445,28.0
20.113,-0.058,0.328,28.0
20.124,-0.057,0.21,30.0
58.287,-0.157,2.201,134.0
20.176,-0.053,0.643,17.0
20.122,-0.051,0.524,20.0
20.114,-0.05,0.404,26.0
20.119,-0.049,0.286,27.0
20.121,-0.048,0.168,36.0
58.283,-0.132,2.079,144.0
20.154,-0.044,0.6,18.0
20.137,-0.043,0.482,26.0
20.106,-0.042,0.361,29.0
20.109,-0.041,0.244,30.0
20.125,-0.04,0.126,35.0
58.269,-0.109,1.956,7.0
20.136,-0.036,0.558,19.0
20.132,-0.035,0.44,27.0
20.12,-0.034,0.32,29.0
20.119,-0.033,0.202,34.0
20.131,-0.032,0.084,39.0
20.192,-0.03,0.635,25.0
20.136,-0.029,0.515,20.0
20.12,-0.028,0.397,25.0
20.123,-0.027,0.277,24.0
20.124,-0.027,0.159,27.0
20.138,-0.026,0.042,30.0
20.173,-0.024,0.592,25.0
20.134,-0.023,0.473,27.0
20.112,-0.022,0.355,28.0
20.118,-0.021,0.235,26.0
20.123,-0.021,0.117,33.0
20.129,-0.02,0.0,15.0
20.156,-0.018,0.548,23.0
20.132,-0.017,0.43,27.0
20.126,-0.017,0.312,27.0
20.112,-0.016,0.192,28.0
20.131,-0.015,0.074,28.0
20.203,-0.015,-0.043,14.0
20.153,-0.013,0.505,26.0
20.123,-0.013,0.387,24.0
20.121,-0.012,0.269,23.0
20.118,-0.011,0.149,27.0
20.191,-0.011,0.031,15.0
20.223,-0.01,-0.086,16.0
20.137,-0.009,0.462,28.0
20.126,-0.009,0.344,27.0
20.121,-0.008,0.226,26.0
20.129,-0.007,0.106,31.0
20.244,-0.007,-0.011,23.0
20.219,-0.007,-0.129,17.0
20.139,-0.006,0.419,27.0
20.124,-0.005,0.301,28.0
20.123,-0.005,0.182,27.0
20.158,-0.004,0.063,26.0
20.269,-0.004,-0.055,64.0
20.252,-0.004,-0.173,19.0
20.127,-0.003,0.375,26.0
20.124,-0.003,0.257,25.0
20.129,-0.002,0.139,28.0
20.266,-0.002,0.019,150.0
20.275,-0.002,-0.098,150.0
20.255,-0.001,-0.217,38.0
20.128,-0.001,0.332,27.0
20.124,-0.001,0.214,26.0
20.131,-0.001,0.096,29.0
20.25,0.0,-0.023,150.0
20.27,0.0,-0.141,106.0
20.258,0.0,-0.26,52.0
20.126,0.0,0.289,28.0
20.122,0.0,0.171,26.0
20.235,0.0,0.053,54.0
20.259,0.0,-0.066,150.0
20.267,0.0,-0.185,137.0
20.261,0.0,-0.304,46.0
20.119,0.0,0.245,27.0
20.133,0.0,0.128,29.0
20.259,0.0,0.01,151.0
20.267,0.0,-0.11,150.0
20.268,0.0,-0.229,74.0
20.248,0.0,-0.347,24.0
20.126,0.0,0.203,28.0
20.143,0.0,0.085,30.0
20.258,0.0,-0.032,151.0
20.273,0.0,-0.153,76.0
20.257,0.0,-0.272,41.0
20.229,0.0,-0.39,12.0
20.134,-0.001,0.16,27.0
20.283,-0.001,0.042,112.0
20.268,-0.001,-0.076,150.0
20.253,-0.001,-0.196,35.0
20.241,-0.002,-0.315,10.0
20.231,-0.002,-0.433,6.0
20.132,-0.003,0.116,33.0
20.272,-0.003,0.0,150.0
20.262,-0.003,-0.119,29.0
20.234,-0.004,-0.239,11.0
20.231,-0.004,-0.358,7.0
20.234,-0.004,-0.476,5.0
20.158,-0.005,0.074,29.0
20.249,-0.006,-0.043,27.0
20.223,-0.006,-0.162,11.0
20.224,-0.007,-0.282,6.0
20.252,-0.007,-0.401,3.0
20.246,-0.007,-0.52,1.0
20.217,-0.009,0.031,17.0
20.218,-0.009,-0.086,17.0
20.234,-0.01,-0.205,5.0
20.242,-0.01,-0.325,1.0
20.231,-0.011,-0.444,1.0
32.209,-0.018,-0.896,1.0
20.185,-0.013,-0.011,13.0
20.174,-0.013,-0.129,16.0
20.183,-0.014,-0.247,7.0
41.639,-0.031,-0.759,4.0
20.238,-0.015,-0.487,0.0
29.146,-0.023,-0.873,0.0
20.18,-0.018,-0.054,18.0
20.171,-0.018,-0.172,10.0
20.179,-0.019,-0.29,2.0
37.442,-0.037,-0.761,0.0
32.268,-0.033,-0.845,8.0
58.441,-0.063,-1.874,2.0
20.17,-0.023,-0.097,26.0
20.165,-0.024,-0.214,3.0
43.301,-0.054,-0.714,5.0
37.368,-0.048,-0.839,0.0
31.691,-0.042,-0.897,0.0
58.391,-0.08,-1.996,2.0
20.177,-0.029,-0.139,27.0
20.165,-0.03,-0.257,19.0
41.377,-0.065,-0.77,0.0
34.547,-0.056,-0.848,1.0
28.615,-0.047,-0.87,0.0
24.74,-0.042,-0.897,0.0
20.156,-0.036,-0.181,18.0
20.172,-0.037,-0.299,17.0
37.611,-0.072,-0.779,6.0
32.284,-0.064,-0.86,5.0
27.275,-0.055,-0.887,0.0
20.152,-0.044,-0.223,17.0
20.168,-0.045,-0.341,13.0
34.569,-0.08,-0.788,0.0
30.268,-0.072,-0.869,1.0
20.155,-0.053,-0.265,28.0
20.162,-0.054,-0.383,11.0
58.524,-0.161,-1.454,0.0
58.355,-0.164,-1.798,1.0
24.543,-0.07,-0.9,0.0
20.162,-0.062,-0.306,27.0
20.17,-0.063,-0.424,11.0
58.428,-0.188,-1.573,2.0
26.871,-0.088,-0.883,0.0
20.273,-0.069,-0.904,65.0
20.152,-0.072,-0.347,19.0
20.164,-0.073,-0.466,8.0
58.388,-0.217,-1.69,1.0
25.436,-0.096,-0.888,0.0
20.172,-0.083,-0.389,28.0
33.174,-0.139,-0.834,3.0
28.037,-0.119,-0.869,13.0
24.422,-0.106,-0.902,0.0
20.171,-0.094,-0.43,32.0
20.201,-0.096,-0.549,1.0
28.047,-0.135,-0.925,1.0
22.979,-0.113,-0.895,0.0
20.29,-0.101,-0.909,72.0
20.188,-0.106,-0.47,32.0
29.578,-0.158,-0.862,4.0
25.09,-0.136,-0.878,0.0
22.514,-0.124,-0.922,1.0
20.194,-0.119,-0.51,29.0
28.072,-0.168,-0.874,5.0
24.626,-0.149,-0.91,0.0
20.269,-0.125,-0.869,4.0
20.202,-0.132,-0.55,30.0
58.344,-0.388,-1.929,3.0
22.589,-0.152,-0.878,20.0
20.286,-0.139,-0.909,72.0
18.292,-0.127,-0.927,0.0
16.586,-0.117,-0.938,0.0
20.205,-0.146,-0.589,32.0
26.081,-0.191,-0.912,0.0
22.597,-0.168,-0.922,20.0
20.135,-0.152,-0.942,3.0
17.68,-0.135,-0.93,0.0
16.087,-0.125,-0.941,0.0
20.214,-0.161,-0.628,33.0
24.558,-0.198,-0.906,4.0
20.284,-0.166,-0.867,4.0
18.765,-0.156,-0.914,0.0
17.094,-0.143,-0.932,0.0
15.594,-0.133,-0.942,0.0
20.219,-0.176,-0.666,33.0
22.733,-0.201,-0.882,3.0
20.287,-0.181,-0.905,76.0
18.341,-0.166,-0.928,0.0
16.632,-0.153,-0.938,0.0
15.135,-0.141,-0.942,0.0
20.227,-0.192,-0.704,28.0
22.721,-0.219,-0.924,22.0
20.177,-0.197,-0.938,4.0
17.743,-0.175,-0.93,0.0
16.175,-0.162,-0.943,0.0
14.743,-0.149,-0.945,0.0
20.237,-0.209,-0.742,24.0
20.273,-0.212,-0.861,2.0
18.985,-0.201,-0.917,0.0
17.158,-0.184,-0.931,0.0
15.673,-0.17,-0.942,0.0
20.221,-0.226,-0.778,19.0
20.294,-0.229,-0.899,76.0
18.477,-0.211,-0.927,0.0
16.701,-0.193,-0.937,0.0
15.251,-0.178,-0.945,0.0
20.233,-0.244,-0.815,20.0
20.276,-0.247,-0.935,28.0
17.935,-0.221,-0.931,0.0
16.246,-0.202,-0.94,0.0
14.807,-0.186,-0.943,0.0
20.143,-0.261,-0.847,13.0
19.601,-0.257,-0.938,2.0
17.322,-0.229,-0.93,0.0
15.783,-0.211,-0.941,0.0
14.477,-0.196,-0.947,0.0
13.353,-0.182,-0.952,0.0
20.212,-0.281,-0.885,20.0
18.727,-0.263,-0.929,0.0
16.878,-0.239,-0.935,0.0
15.362,-0.22,-0.942,0.0
14.074,-0.204,-0.945,0.0
13.027,-0.19,-0.951,0.0
19.882,-0.296,-0.904,0.0
18.183,-0.273,-0.933,0.0
16.497,-0.25,-0.942,0.0
14.954,-0.229,-0.943,0.0
12.742,-0.199,-0.952,0.0
19.627,-0.311,-0.925,6.0
17.571,-0.281,-0.931,0.0
16.01,-0.259,-0.941,0.0
14.653,-0.239,-0.948,0.0
13.424,-0.221,-0.947,0.0
12.463,-0.207,-0.952,0.0
19.516,-0.329,-0.953,0.0
17.066,-0.291,-0.932,0.0
15.622,-0.268,-0.944,0.0
14.234,-0.247,-0.945,0.0
13.194,-0.231,-0.953,0.0
12.199,-0.216,-0.952,0.0
18.437,-0.33,-0.93,0.0
16.799,-0.304,-0.945,0.0
15.198,-0.277,-0.943,0.0
13.969,-0.257,-0.95,0.0
12.868,-0.239,-0.95,0.0
11.961,-0.224,-0.953,0.0
18.124,-0.344,-0.943,0.0
16.267,-0.312,-0.941,0.0
14.819,-0.286,-0.943,0.0
13.489,-0.263,-0.939,0.0
12.594,-0.248,-0.95,0.0
11.687,-0.232,-0.95,0.0
17.413,-0.35,-0.933,0.0
15.847,-0.321,-0.941,0.0
14.459,-0.295,-0.943,0.0
13.312,-0.274,-0.947,0.0
12.368,-0.257,-0.952,0.0
11.465,-0.24,-0.949,0.0
17.01,-0.36,-0.937,0.0
15.557,-0.332,-0.947,0.0
14.2,-0.306,-0.947,0.0
13.068,-0.284,-0.949,0.0
12.207,-0.267,-0.957,0.0
11.231,-0.248,-0.946,0.0
16.84,-0.376,-0.953,0.0
15.255,-0.343,-0.952,0.0
13.952,-0.317,-0.952,0.0
12.821,-0.293,-0.95,0.0
11.902,-0.274,-0.951,0.0
11.017,-0.256,-0.945,0.0
16.337,-0.384,-0.949,0.0
14.728,-0.349,-0.94,0.0
13.538,-0.323,-0.943,0.0
12.561,-0.302,-0.949,0.0
11.665,-0.283,-0.949,0.0
10.907,-0.266,-0.951,0.0
16.163,-0.399,-0.961,0.0
14.462,-0.36,-0.944,0.0
13.332,-0.334,-0.948,0.0
12.376,-0.312,-0.953,0.0
11.463,-0.292,-0.949,0.0
10.71,-0.275,-0.949,0.0
15.561,-0.403,-0.947,0.0
14.259,-0.372,-0.95,0.0
13.14,-0.345,-0.952,0.0
12.191,-0.323,-0.955,0.0
11.285,-0.301,-0.95,0.0
10.548,-0.283,-0.949,0.0
15.133,-0.41,-0.941,0.0
13.989,-0.382,-0.951,0.0
12.863,-0.354,-0.949,0.0
12.005,-0.332,-0.957,0.0
11.106,-0.31,-0.95,0.0
10.409,-0.293,-0.951,0.0
14.785,-0.419,-0.939,0.0
13.587,-0.388,-0.942,0.0
12.671,-0.364,-0.951,0.0
11.758,-0.34,-0.952,0.0
10.959,-0.319,-0.951,0.0
10.286,-0.302,-0.953,0.0
14.5,-0.429,-0.939,0.0
13.358,-0.398,-0.942,0.0
12.475,-0.374,-0.952,0.0
11.519,-0.348,-0.947,0.0
10.81,-0.329,-0.952,0.0
10.15,-0.311,-0.953,0.0
14.348,-0.443,-0.947,0.0
13.261,-0.412,-0.952,0.0
12.309,-0.385,-0.955,0.0
11.356,-0.358,-0.948,0.0
10.682,-0.339,-0.954,0.0
9.994,-0.319,-0.95,0.0
14.101,-0.453,-0.948,0.0
13.025,-0.421,-0.95,0.0
12.175,-0.397,-0.959,0.0
11.233,-0.368,-0.951,0.0
10.51,-0.347,-0.95,0.0
9.902,-0.329,-0.953,0.0
13.878,-0.464,-0.949,0.0
12.847,-0.432,-0.952,0.0
11.893,-0.403,-0.95,0.0
11.064,-0.377,-0.949,0.0
10.407,-0.357,-0.953,0.0
9.764,-0.337,-0.951,0.0
13.641,-0.474,-0.948,0.0
12.646,-0.442,-0.951,0.0
11.728,-0.413,-0.95,0.0
10.992,-0.389,-0.955,0.0
10.263,-0.366,-0.951,0.0
9.652,-0.346,-0.95,0.0
13.459,-0.486,-0.949,0.0
12.506,-0.454,-0.954,0.0
11.569,-0.423,-0.949,0.0
10.808,-0.397,-0.95,0.0
10.179,-0.377,-0.954,0.0
9.556,-0.356,-0.951,0.0
13.337,-0.499,-0.955,0.0
12.356,-0.465,-0.955,0.0
11.454,-0.434,-0.952,0.0
10.646,-0.406,-0.947,0.0
10.046,-0.385,-0.952,0.0
9.447,-0.364,-0.95,0.0
13.183,-0.511,-0.956,0.0
12.232,-0.477,-0.958,0.0
11.289,-0.443,-0.949,0.0
10.578,-0.417,-0.951,0.0
9.932,-0.394,-0.951,0.0
9.361,-0.374,-0.95,0.0
13.044,-0.523,-0.959,0.0
12.072,-0.487,-0.957,0.0
11.171,-0.453,-0.949,0.0
10.441,-0.426,-0.949,0.0
9.826,-0.404,-0.949,0.0
9.277,-0.383,-0.95,0.0
12.835,-0.532,-0.955,0.0
11.909,-0.497,-0.954,0.0
11.104,-0.466,-0.954,0.0
10.371,-0.438,-0.951,0.0
9.771,-0.415,-0.953,0.0
9.197,-0.393,-0.95,0.0
12.697,-0.544,-0.956,0.0
11.782,-0.508,-0.954,0.0
10.975,-0.476,-0.952,0.0
10.281,-0.448,-0.952,0.0
9.694,-0.425,-0.953,0.0
9.111,-0.401,-0.949,0.0
12.581,-0.556,-0.957,0.0
11.626,-0.517,-0.951,0.0
10.862,-0.486,-0.951,0.0
10.206,-0.459,-0.953,0.0
9.613,-0.435,-0.953,0.0
9.056,-0.412,-0.95,0.0
12.46,-0.568,-0.958,0.0
11.526,-0.529,-0.952,0.0
10.766,-0.496,-0.951,0.0
10.099,-0.468,-0.951,0.0
9.552,-0.445,-0.954,0.0
8.954,-0.42,-0.946,0.0
12.369,-0.582,-0.96,0.0
11.436,-0.54,-0.953,0.0
10.681,-0.507,-0.951,0.0
10.013,-0.478,-0.95,0.0
9.445,-0.453,-0.95,0.0
8.909,-0.43,-0.948,0.0
12.221,-0.591,-0.957,0.0
11.356,-0.552,-0.954,0.0
10.602,-0.518,-0.951,0.0
9.946,-0.489,-0.95,0.0
9.388,-0.464,-0.951,0.0
8.848,-0.439,-0.947,0.0
12.142,-0.604,-0.958,0.0
11.215,-0.561,-0.949,0.0
10.521,-0.529,-0.951,0.0
9.919,-0.501,-0.954,0.0
9.33,-0.474,-0.951,0.0
8.794,-0.449,-0.947,0.0
12.091,-0.619,-0.962,0.0
11.171,-0.574,-0.952,0.0
10.472,-0.541,-0.952,0.0
9.853,-0.512,-0.953,0.0
9.303,-0.485,-0.953,0.0
8.775,-0.46,-0.95,0.0
11.96,-0.628,-0.958,0.0
11.096,-0.586,-0.952,0.0
10.406,-0.552,-0.952,0.0
9.799,-0.523,-0.953,0.0
9.246,-0.495,-0.952,0.0
8.697,-0.468,-0.946,0.0
11.842,-0.639,-0.955,0.0
11.046,-0.599,-0.953,0.0
10.345,-0.564,-0.952,0.0
9.751,-0.534,-0.954,0.0
9.188,-0.505,-0.951,0.0
8.664,-0.479,-0.946,0.0
11.774,-0.652,-0.955,0.0
11.038,-0.614,-0.958,0.0
10.334,-0.577,-0.955,0.0
9.72,-0.546,-0.955,0.0
9.138,-0.515,-0.95,0.0
8.64,-0.489,-0.948,0.0
11.713,-0.665,-0.955,0.0
10.945,-0.624,-0.954,0.0
10.259,-0.587,-0.953,0.0
9.657,-0.555,-0.953,0.0
9.097,-0.526,-0.949,0.0
8.604,-0.499,-0.947,0.0
11.662,-0.678,-0.955,0.0
10.925,-0.638,-0.957,0.0
10.209,-0.599,-0.952,0.0
9.641,-0.568,-0.955,0.0
9.085,-0.538,-0.951,0.0
8.561,-0.509,-0.945,0.0
11.643,-0.693,-0.957,0.0
10.803,-0.646,-0.949,0.0
10.198,-0.612,-0.954,0.0
9.621,-0.58,-0.956,0.0
9.068,-0.549,-0.952,0.0
8.548,-0.52,-0.947,0.0
11.558,-0.704,-0.954,0.0
10.823,-0.662,-0.954,0.0
10.155,-0.623,-0.953,0.0
9.59,-0.591,-0.955,0.0
9.031,-0.559,-0.951,0.0
8.513,-0.53,-0.945,0.0
11.522,-0.717,-0.954,0.0
10.735,-0.671,-0.949,0.0
10.161,-0.638,-0.956,0.0
9.572,-0.603,-0.956,0.0
8.997,-0.569,-0.949,0.0
8.522,-0.542,-0.948,0.0
11.544,-0.734,-0.958,0.0
10.67,-0.681,-0.945,0.0
10.14,-0.65,-0.956,0.0
9.578,-0.617,-0.958,0.0
8.998,-0.582,-0.951,0.0
8.519,-0.553,-0.949,0.0
11.515,-0.748,-0.957,0.0
10.691,-0.697,-0.949,0.0
10.121,-0.663,-0.955,0.0
9.553,-0.628,-0.957,0.0
8.988,-0.593,-0.951,0.0
8.493,-0.563,-0.947,0.0
11.493,-0.762,-0.957,0.0
10.684,-0.711,-0.95,0.0
10.113,-0.676,-0.956,0.0
9.513,-0.638,-0.954,0.0
8.977,-0.604,-0.951,0.0
8.475,-0.573,-0.946,0.0
11.496,-0.777,-0.958,0.0
10.711,-0.727,-0.953,0.0
10.108,-0.689,-0.956,0.0
9.531,-0.652,-0.956,0.0
8.953,-0.615,-0.949,0.0
8.479,-0.584,-0.946,0.0
11.487,-0.792,-0.957,0.0
10.661,-0.737,-0.948,0.0
10.099,-0.701,-0.955,0.0
9.512,-0.663,-0.954,0.0
8.987,-0.629,-0.952,0.0
8.498,-0.597,-0.948,0.0
11.513,-0.808,-0.959,0.0
10.687,-0.753,-0.95,0.0
10.114,-0.715,-0.956,0.0
9.53,-0.676,-0.956,0.0
8.967,-0.639,-0.95,0.0
8.481,-0.606,-0.946,0.0
11.485,-0.821,-0.957,0.0
10.743,-0.771,-0.955,0.0
10.149,-0.731,-0.959,0.0
9.534,-0.689,-0.955,0.0
8.979,-0.651,-0.95,0.0
8.504,-0.619,-0.948,0.0
11.553,-0.84,-0.961,0.0
10.665,-0.779,-0.947,0.0
10.13,-0.742,-0.956,0.0
9.524,-0.7,-0.953,0.0
9.011,-0.665,-0.952,0.0
8.504,-0.63,-0.947,0.0
11.528,-0.853,-0.957,0.0
10.773,-0.8,-0.955,0.0
10.156,-0.757,-0.957,0.0
9.621,-0.719,-0.961,0.0
9.015,-0.676,-0.951,0.0
8.535,-0.643,-0.948,0.0
11.545,-0.869,-0.957,0.0
10.768,-0.813,-0.952,0.0
10.191,-0.772,-0.958,0.0
9.591,-0.729,-0.956,0.0
9.035,-0.689,-0.951,0.0
8.558,-0.655,-0.949,0.0
11.612,-0.888,-0.959,0.0
10.808,-0.829,-0.953,0.0
10.167,-0.782,-0.953,0.0
9.648,-0.745,-0.96,0.0
9.091,-0.704,-0.955,0.0
8.58,-0.667,-0.949,0.0
11.633,-0.903,-0.958,0.0
10.915,-0.85,-0.96,0.0
10.235,-0.8,-0.957,0.0
9.651,-0.756,-0.957,0.0
9.106,-0.716,-0.954,0.0
8.61,-0.679,-0.95,0.0
11.692,-0.921,-0.959,0.0
10.942,-0.865,-0.959,0.0
10.253,-0.813,-0.955,0.0
9.659,-0.768,-0.955,0.0
9.134,-0.729,-0.954,0.0
8.651,-0.692,-0.951,0.0
11.746,-0.939,-0.96,0.0
10.99,-0.881,-0.959,0.0
10.327,-0.831,-0.958,0.0
9.75,-0.786,-0.96,0.0
9.183,-0.743,-0.955,0.0
8.681,-0.705,-0.951,0.0
11.811,-0.958,-0.96,0.0
11.002,-0.894,-0.956,0.0
10.387,-0.847,-0.96,0.0
9.8,-0.802,-0.961,0.0
9.228,-0.757,-0.956,0.0
8.715,-0.717,-0.951,0.0
11.914,-0.979,-0.964,0.0
11.088,-0.914,-0.958,0.0
10.386,-0.858,-0.955,0.0
9.785,-0.811,-0.955,0.0
9.289,-0.772,-0.958,0.0
8.761,-0.73,-0.952,0.0
11.974,-0.997,-0.963,0.0
11.134,-0.929,-0.957,0.0
10.522,-0.881,-0.962,0.0
9.864,-0.828,-0.958,0.0
9.307,-0.784,-0.955,0.0
8.799,-0.743,-0.952,0.0
12.069,-1.018,-0.965,0.0
11.239,-0.95,-0.96,0.0
10.537,-0.893,-0.958,0.0
9.909,-0.842,-0.957,0.0
9.386,-0.8,-0.958,0.0
8.834,-0.755,-0.951,0.0
12.123,-1.035,-0.962,0.0
11.269,-0.964,-0.956,0.0
10.61,-0.91,-0.959,0.0
9.953,-0.856,-0.955,0.0
9.414,-0.812,-0.956,0.0
8.931,-0.772,-0.956,0.0
12.309,-1.063,-0.97,0.0
11.408,-0.988,-0.961,0.0
10.668,-0.926,-0.958,0.0
10.091,-0.878,-0.963,0.0
9.495,-0.828,-0.958,0.0
8.959,-0.783,-0.954,0.0
12.354,-1.079,-0.966,0.0
11.573,-1.013,-0.968,0.0
10.823,-0.95,-0.965,0.0
10.083,-0.887,-0.955,0.0
9.577,-0.845,-0.96,0.0
9.025,-0.798,-0.955,0.0
12.5,-1.103,-0.969,0.0
11.623,-1.028,-0.965,0.0
10.824,-0.96,-0.958,0.0
10.227,-0.909,-0.962,0.0
9.619,-0.857,-0.958,0.0
9.111,-0.814,-0.957,0.0
12.615,-1.125,-0.969,0.0
11.751,-1.05,-0.967,0.0
11.003,-0.985,-0.966,0.0
10.278,-0.923,-0.96,0.0
9.74,-0.876,-0.963,0.0
9.181,-0.828,-0.958,0.0
12.726,-1.146,-0.968,0.0
11.859,-1.07,-0.967,0.0
11.059,-1.0,-0.963,0.0
10.344,-0.938,-0.958,0.0
9.783,-0.889,-0.96,0.0
9.261,-0.843,-0.959,0.0
12.83,-1.166,-0.967,0.0
11.999,-1.093,-0.969,0.0
11.1,-1.013,-0.957,0.0
10.439,-0.955,-0.959,0.0
9.871,-0.905,-0.961,0.0
9.348,-0.859,-0.961,0.0
13.044,-1.196,-0.972,0.0
12.047,-1.107,-0.964,0.0
11.226,-1.034,-0.959,0.0
10.467,-0.966,-0.953,0.0
9.956,-0.92,-0.961,0.0
9.438,-0.874,-0.962,0.0
13.206,-1.221,-0.974,0.0
12.168,-1.128,-0.963,0.0
11.377,-1.056,-0.963,0.0
0.0,0.0,0.0,0.0
10.064,-0.938,-0.963,0.0
9.527,-0.89,-0.963,0.0
13.325,-1.242,-0.971,0.0
12.394,-1.158,-0.971,0.0
11.56,-1.082,-0.968,0.0
0.0,0.0,0.0,0.0
10.167,-0.955,-0.963,0.0
9.601,-0.904,-0.962,0.0
13.627,-1.28,-0.981,0.0
12.604,-1.186,-0.976,0.0
11.704,-1.103,-0.97,0.0
10.885,-1.028,-0.962,0.0
10.27,-0.972,-0.964,0.0
9.721,-0.921,-0.965,0.0
13.787,-1.304,-0.98,1.0
12.71,-1.205,-0.972,0.0
11.863,-1.126,-0.972,0.0
11.026,-1.048,-0.964,0.0
10.327,-0.984,-0.959,0.0
9.825,-0.938,-0.966,0.0
13.778,-1.312,-0.966,1.0
12.842,-1.225,-0.97,0.0
12.004,-1.147,-0.972,0.0
11.161,-1.068,-0.965,0.0
10.455,-1.002,-0.961,0.0
9.898,-0.951,-0.964,0.0
13.78,-1.321,-0.953,1.0
13.081,-1.256,-0.975,0.0
12.09,-1.162,-0.967,0.0
11.274,-1.086,-0.964,0.0
10.608,-1.023,-0.965,0.0
9.976,-0.964,-0.961,0.0
13.772,-1.328,-0.939,1.0
13.339,-1.288,-0.981,0.0
12.202,-1.18,-0.964,0.0
11.389,-1.103,-0.962,0.0
0.0,0.0,0.0,0.0
10.12,-0.983,-0.965,0.0
13.744,-1.333,-0.923,1.0
13.457,-1.306,-0.976,1.0
12.462,-1.211,-0.971,0.0
11.627,-1.132,-0.97,0.0
0.0,0.0,0.0,0.0
10.232,-0.999,-0.965,0.0
13.719,-1.337,-0.907,1.0
13.606,-1.327,-0.972,1.0
12.662,-1.237,-0.973,0.0
11.8,-1.154,-0.972,0.0
11.043,-1.082,-0.969,0.0
10.33,-1.013,-0.962,0.0
13.733,-1.344,-0.893,1.0
13.706,-1.343,-0.965,1.0
12.927,-1.268,-0.979,0.0
11.955,-1.175,-0.971,0.0
11.192,-1.101,-0.97,0.0
10.463,-1.03,-0.963,0.0
13.72,-1.349,-0.877,1.0
13.703,-1.348,-0.949,1.0
13.098,-1.29,-0.978,0.0
12.076,-1.191,-0.968,0.0
11.304,-1.116,-0.967,0.0
10.567,-1.045,-0.961,0.0
13.732,-1.355,-0.862,1.0
13.699,-1.353,-0.933,1.0
13.398,-1.325,-0.985,0.0
12.342,-1.221,-0.975,0.0
11.519,-1.141,-0.972,0.0
10.779,-1.069,-0.968,0.0
13.818,-1.368,-0.852,0.0
13.705,-1.358,-0.918,1.0
13.517,-1.341,-0.978,1.0
12.563,-1.247,-0.978,0.0
11.699,-1.163,-0.973,0.0
10.903,-1.085,-0.966,0.0
13.983,-1.388,-0.845,0.0
13.685,-1.36,-0.901,1.0
13.577,-1.35,-0.966,2.0
12.776,-1.272,-0.979,0.0
11.892,-1.185,-0.975,0.0
11.147,-1.111,-0.974,0.0
14.209,-1.414,-0.842,0.0
13.677,-1.362,-0.884,1.0
13.659,-1.362,-0.956,1.0
13.041,-1.301,-0.984,0.0
12.025,-1.201,-0.972,0.0
11.22,-1.121,-0.967,0.0
14.409,-1.437,-0.837,0.0
13.684,-1.366,-0.868,1.0
13.672,-1.365,-0.94,1.0
13.209,-1.32,-0.981,0.0
12.16,-1.216,-0.968,0.0
11.399,-1.141,-0.968,0.0
14.603,-1.459,-0.83,0.0
13.748,-1.374,-0.855,0.0
13.677,-1.368,-0.924,1.0
13.551,-1.356,-0.989,0.0
12.485,-1.25,-0.978,0.0
11.605,-1.163,-0.971,0.0
14.941,-1.494,-0.831,1.0
13.953,-1.396,-0.85,0.0
13.662,-1.368,-0.905,1.0
13.538,-1.356,-0.971,2.0
12.759,-1.279,-0.984,0.0
11.818,-1.185,-0.974,0.0
15.132,-1.515,-0.823,1.0
14.156,-1.417,-0.845,0.0
13.662,-1.368,-0.888,1.0
13.613,-1.364,-0.959,1.0
13.061,-1.309,-0.99,0.0
11.987,-1.202,-0.973,0.0
15.361,-1.538,-0.815,1.0
14.362,-1.438,-0.839,1.0
13.671,-1.37,-0.871,1.0
13.655,-1.369,-0.945,1.0
13.178,-1.321,-0.982,0.0
12.156,-1.219,-0.971,0.0
15.6,-1.562,-0.808,1.0
14.591,-1.461,-0.833,0.0
13.719,-1.374,-0.857,0.0
13.662,-1.369,-0.927,1.0
13.54,-1.357,-0.991,0.0
12.51,-1.254,-0.983,0.0
15.844,-1.585,-0.8,1.0
14.907,-1.492,-0.832,1.0
13.933,-1.394,-0.852,0.0
13.672,-1.369,-0.91,1.0
13.547,-1.356,-0.974,2.0
12.779,-1.28,-0.987,0.0
16.221,-1.622,-0.798,1.0
15.135,-1.513,-0.825,1.0
14.164,-1.416,-0.847,0.0
13.675,-1.367,-0.892,1.0
13.631,-1.363,-0.962,1.0
13.001,-1.3,-0.987,0.0
16.477,-1.645,-0.789,1.0
15.352,-1.532,-0.816,1.0
14.366,-1.434,-0.84,0.0
13.68,-1.365,-0.874,1.0
13.678,-1.365,-0.947,1.0
13.13,-1.31,-0.979,0.0
16.844,-1.678,-0.784,0.0
15.583,-1.552,-0.808,1.0
14.614,-1.456,-0.835,0.0
13.734,-1.368,-0.859,0.0
13.68,-1.362,-0.929,1.0
13.53,-1.347,-0.991,0.0
17.222,-1.712,-0.778,0.0
15.896,-1.58,-0.803,1.0
14.973,-1.488,-0.836,1.0
13.95,-1.385,-0.854,0.0
13.689,-1.359,-0.911,1.0
13.56,-1.346,-0.974,2.0
17.752,-1.76,-0.778,0.0
16.219,-1.607,-0.797,1.0
15.17,-1.502,-0.826,1.0
14.154,-1.401,-0.847,0.0
13.698,-1.356,-0.893,1.0
13.677,-1.353,-0.964,2.0
18.302,-1.808,-0.778,1.0
16.53,-1.632,-0.79,1.0
15.408,-1.521,-0.818,1.0
14.418,-1.423,-0.843,0.0
13.713,-1.352,-0.875,1.0
13.699,-1.351,-0.947,1.0
18.752,-1.846,-0.772,1.0
16.919,-1.665,-0.785,0.0
15.64,-1.538,-0.809,1.0
14.617,-1.436,-0.835,0.0
13.769,-1.352,-0.86,0.0
13.716,-1.347,-0.929,1.0
19.341,-1.896,-0.769,1.0
17.383,-1.703,-0.783,1.0
15.975,-1.564,-0.805,1.0
14.973,-1.465,-0.835,1.0
13.991,-1.368,-0.854,0.0
13.728,-1.341,-0.911,1.0
19.833,-1.935,-0.762,2.0
17.813,-1.737,-0.779,0.0
16.274,-1.585,-0.798,1.0
15.168,-1.477,-0.825,1.0
14.218,-1.383,-0.849,0.0
13.73,-1.335,-0.893,1.0
20.345,-1.975,-0.754,2.0
18.35,-1.78,-0.777,0.0
16.6,-1.609,-0.791,1.0
15.455,-1.496,-0.82,1.0
14.464,-1.399,-0.844,0.0
13.74,-1.328,-0.874,1.0
20.992,-2.027,-0.749,1.0
18.946,-1.827,-0.776,0.0
16.981,-1.636,-0.786,0.0
15.708,-1.512,-0.812,1.0
14.731,-1.417,-0.839,0.0
13.827,-1.329,-0.861,0.0
21.671,-2.079,-0.744,1.0
19.414,-1.861,-0.769,2.0
17.467,-1.672,-0.784,0.0
16.016,-1.532,-0.805,1.0
15.043,-1.437,-0.836,1.0
14.05,-1.341,-0.855,0.0
22.218,-2.118,-0.732,1.0
20.02,-1.906,-0.765,2.0
17.974,-1.709,-0.782,0.0
16.289,-1.547,-0.797,1.0
15.259,-1.448,-0.827,1.0
14.288,-1.354,-0.85,0.0
23.301,-2.205,-0.736,3.0
20.42,-1.93,-0.753,1.0
18.483,-1.745,-0.779,0.0
16.606,-1.566,-0.789,0.0
15.491,-1.459,-0.818,1.0
14.516,-1.365,-0.844,0.0
24.226,-2.276,-0.733,5.0
21.329,-2.001,-0.757,2.0
19.024,-1.782,-0.776,1.0
17.105,-1.6,-0.79,0.0
15.77,-1.473,-0.812,1.0
14.805,-1.381,-0.84,0.0
24.864,-2.316,-0.718,6.0
21.859,-2.033,-0.747,4.0
19.501,-1.811,-0.769,1.0
17.567,-1.629,-0.788,0.0
16.128,-1.494,-0.808,1.0
15.147,-1.401,-0.839,1.0
0.0,0.0,0.0,0.0
22.497,-2.074,-0.738,4.0
20.062,-1.847,-0.764,1.0
18.087,-1.662,-0.786,1.0
16.41,-1.506,-0.8,1.0
15.351,-1.406,-0.83,1.0
26.822,-2.454,-0.702,7.0
23.59,-2.155,-0.742,5.0
20.601,-1.878,-0.757,0.0
18.599,-1.693,-0.783,1.0
16.811,-1.528,-0.797,0.0
15.562,-1.412,-0.82,1.0
27.634,-2.504,-0.686,5.0
23.821,-2.154,-0.717,13.0
21.249,-1.918,-0.752,2.0
19.054,-1.717,-0.777,1.0
17.205,-1.547,-0.793,0.0
15.859,-1.424,-0.815,1.0
28.737,-2.577,-0.676,3.0
23.846,-2.134,-0.687,9.0
22.061,-1.971,-0.752,1.0
19.612,-1.749,-0.774,1.0
17.614,-1.568,-0.788,1.0
16.195,-1.438,-0.811,1.0
29.814,-2.645,-0.662,3.0
24.259,-2.147,-0.667,2.0
22.834,-2.017,-0.748,2.0
20.138,-1.775,-0.768,1.0
18.22,-1.603,-0.791,2.0
16.383,-1.438,-0.798,1.0
30.78,-2.699,-0.643,3.0
27.068,-2.368,-0.708,6.0
23.645,-2.064,-0.744,6.0
20.776,-1.81,-0.765,0.0
18.641,-1.62,-0.785,1.0
16.847,-1.461,-0.799,0.0
31.901,-2.764,-0.625,1.0
27.798,-2.403,-0.691,5.0
23.845,-2.056,-0.719,17.0
21.31,-1.833,-0.757,1.0
19.138,-1.643,-0.782,0.0
17.277,-1.479,-0.797,0.0
33.545,-2.869,-0.614,1.0
29.243,-2.495,-0.69,4.0
24.231,-2.062,-0.699,17.0
22.095,-1.876,-0.757,1.0
19.77,-1.674,-0.782,1.0
17.697,-1.495,-0.794,0.0
35.303,-2.979,-0.6,2.0
30.129,-2.536,-0.672,4.0
24.92,-2.092,-0.687,8.0
22.998,-1.926,-0.759,2.0
20.244,-1.691,-0.775,1.0
18.306,-1.525,-0.798,1.0
0.0,0.0,0.0,0.0
30.831,-2.558,-0.649,6.0
25.429,-2.104,-0.669,3.0
23.595,-1.947,-0.749,6.0
20.684,-1.702,-0.766,1.0
18.626,-1.529,-0.788,1.0
39.07,-3.203,-0.567,14.0
32.082,-2.622,-0.635,2.0
27.838,-2.269,-0.699,2.0
23.844,-1.938,-0.727,14.0
21.344,-1.729,-0.764,0.0
19.143,-1.547,-0.787,1.0
40.49,-3.268,-0.538,15.0
33.535,-2.698,-0.623,1.0
29.134,-2.337,-0.696,5.0
24.143,-1.931,-0.707,15.0
22.025,-1.756,-0.761,1.0
19.663,-1.563,-0.784,1.0
42.08,-3.342,-0.508,11.0
34.851,-2.759,-0.605,1.0
30.24,-2.387,-0.685,8.0
24.761,-1.948,-0.695,14.0
22.921,-1.797,-0.765,3.0
20.165,-1.577,-0.78,2.0
0.0,0.0,0.0,0.0
36.407,-2.833,-0.589,1.0
30.74,-2.385,-0.661,3.0
24.97,-1.931,-0.671,6.0
23.605,-1.819,-0.76,5.0
20.652,-1.586,-0.775,1.0
47.147,-3.617,-0.458,19.0
39.131,-2.991,-0.588,2.0
31.687,-2.414,-0.644,2.0
27.62,-2.097,-0.71,1.0
23.815,-1.802,-0.739,13.0
21.179,-1.597,-0.77,2.0
49.601,-3.734,-0.424,24.0
40.387,-3.029,-0.56,2.0
33.654,-2.515,-0.645,2.0
28.516,-2.124,-0.701,2.0
23.936,-1.776,-0.715,16.0
21.674,-1.603,-0.763,1.0
53.456,-3.947,-0.396,9.0
45.819,-3.37,-0.583,1.0
34.403,-2.521,-0.62,2.0
29.972,-2.188,-0.703,4.0
24.311,-1.768,-0.699,12.0
22.451,-1.627,-0.765,1.0
54.061,-3.912,-0.34,4.0
46.258,-3.334,-0.537,8.0
35.794,-2.569,-0.606,1.0
30.514,-2.181,-0.681,9.0
24.599,-1.752,-0.68,13.0
23.296,-1.653,-0.768,5.0
57.383,-4.064,-0.299,7.0
46.967,-3.313,-0.494,19.0
37.209,-2.614,-0.589,2.0
30.698,-2.147,-0.652,9.0
24.531,-1.709,-0.652,14.0
23.649,-1.641,-0.754,11.0
59.623,-4.13,-0.246,3.0
49.352,-3.404,-0.466,16.0
40.003,-2.747,-0.591,2.0
30.626,-2.094,-0.618,3.0
24.486,-1.667,-0.625,25.0
23.871,-1.618,-0.736,14.0
79.435,-5.378,-0.246,4.0
53.208,-3.586,-0.448,8.0
24.555,-1.647,-0.337,8.0
24.515,-1.637,-0.47,20.0
24.434,-1.624,-0.598,26.0
24.066,-1.593,-0.718,16.0
24.559,-1.622,-0.051,23.0
24.524,-1.612,-0.181,26.0
24.523,-1.605,-0.312,38.0
24.51,-1.596,-0.445,42.0
24.454,-1.585,-0.574,37.0
24.266,-1.566,-0.699,20.0
24.535,-1.58,-0.026,48.0
24.531,-1.572,-0.157,44.0
24.501,-1.562,-0.287,54.0
24.498,-1.554,-0.42,48.0
24.465,-1.545,-0.55,40.0
24.355,-1.53,-0.678,26.0
24.541,-1.539,-0.002,77.0
24.504,-1.528,-0.133,61.0
24.487,-1.519,-0.263,56.0
24.502,-1.513,-0.397,73.0
24.472,-1.503,-0.527,51.0
24.398,-1.491,-0.656,34.0
24.534,-1.496,0.02,81.0
24.513,-1.487,-0.11,70.0
24.492,-1.478,-0.241,57.0
24.506,-1.471,-0.374,69.0
24.474,-1.461,-0.505,46.0
24.431,-1.451,-0.634,31.0
24.525,-1.453,0.043,66.0
24.531,-1.445,-0.088,68.0
24.519,-1.437,-0.219,57.0
24.508,-1.428,-0.352,66.0
24.512,-1.42,-0.484,57.0
24.457,-1.409,-0.613,33.0
24.561,-1.411,0.064,42.0
24.559,-1.403,-0.066,41.0
24.541,-1.394,-0.197,43.0
24.539,-1.386,-0.331,44.0
24.534,-1.378,-0.463,42.0
24.492,-1.368,-0.593,31.0
24.591,-1.369,0.085,11.0
24.59,-1.361,-0.045,7.0
24.583,-1.352,-0.177,14.0
24.549,-1.342,-0.311,28.0
24.559,-1.335,-0.443,18.0
24.51,-1.324,-0.574,25.0
65.744,-3.542,0.283,0.0
0.0,0.0,0.0,0.0
65.569,-3.488,-0.42,4.0
45.211,-2.39,-0.537,3.0
37.941,-1.993,-0.654,3.0
30.549,-1.594,-0.69,27.0
0.0,0.0,0.0,0.0
66.383,-3.431,-0.017,1.0
65.624,-3.37,-0.369,4.0
47.526,-2.424,-0.527,3.0
37.991,-1.924,-0.625,7.0
30.61,-1.54,-0.668,27.0
67.254,-3.373,0.394,1.0
0.0,0.0,0.0,0.0
65.664,-3.248,-0.32,2.0
31.258,-1.535,-0.323,22.0
31.22,-1.523,-0.491,35.0
30.671,-1.486,-0.647,33.0
79.803,-3.853,0.526,3.0
31.134,-1.492,0.037,0.0
31.259,-1.487,-0.13,27.0
31.181,-1.472,-0.3,46.0
31.19,-1.462,-0.468,46.0
30.762,-1.432,-0.628,32.0
31.291,-1.45,0.228,25.0
31.242,-1.437,0.059,47.0
31.242,-1.426,-0.108,62.0
31.195,-1.413,-0.279,53.0
31.198,-1.402,-0.447,59.0
28.468,-1.27,-0.562,33.0
31.231,-1.387,0.248,46.0
28.465,-1.255,0.073,52.0
28.458,-1.244,-0.08,60.0
28.45,-1.234,-0.236,58.0
28.44,-1.223,-0.389,78.0
28.451,-1.213,-0.543,111.0
28.444,-1.207,0.244,107.0
28.438,-1.197,0.091,130.0
28.441,-1.187,-0.062,112.0
28.447,-1.177,-0.218,109.0
28.458,-1.168,-0.372,148.0
28.44,-1.157,-0.526,81.0
28.45,-1.152,0.261,149.0
28.442,-1.141,0.108,75.0
28.453,-1.131,-0.045,63.0
28.465,-1.122,-0.202,63.0
28.459,-1.111,-0.356,29.0
31.209,-1.208,-0.559,29.0
31.243,-1.203,0.304,42.0
31.268,-1.193,0.135,44.0
31.302,-1.183,-0.033,62.0
31.314,-1.172,-0.205,45.0
45.019,-1.669,-0.539,12.0
31.315,-1.15,-0.544,24.0
31.359,-1.145,0.322,6.0
80.512,-2.91,0.392,20.0
81.186,-2.905,-0.044,29.0
56.759,-2.011,-0.343,0.0
45.224,-1.586,-0.518,19.0
37.992,-1.319,-0.641,14.0
0.0,0.0,0.0,0.0
80.445,-2.746,0.431,24.0
38.754,-1.309,-0.002,10.0
38.731,-1.294,-0.216,25.0
38.662,-1.278,-0.425,34.0
38.032,-1.243,-0.624,15.0
38.681,-1.255,0.435,56.0
38.683,-1.241,0.225,58.0
38.665,-1.226,0.015,62.0
38.646,-1.211,-0.198,61.0
38.62,-1.197,-0.407,46.0
38.066,-1.166,-0.608,23.0
38.623,-1.173,0.45,72.0
38.648,-1.16,0.241,71.0
38.644,-1.145,0.031,73.0
38.652,-1.132,-0.182,117.0
38.649,-1.117,-0.392,54.0
38.19,-1.09,-0.595,19.0
38.638,-1.093,0.466,73.0
38.645,-1.079,0.256,72.0
38.658,-1.065,0.046,68.0
38.658,-1.051,-0.167,51.0
38.69,-1.038,-0.378,44.0
38.283,-1.013,-0.583,19.0
38.695,-1.014,0.48,37.0
38.699,-1.0,0.27,32.0
38.758,-0.987,0.059,12.0
38.791,-0.974,-0.155,19.0
0.0,0.0,0.0,0.0
38.392,-0.936,-0.572,24.0
40.413,-0.974,0.515,37.0
40.413,-0.96,0.294,39.0
40.405,-0.944,0.074,43.0
40.404,-0.93,-0.149,57.0
40.421,-0.916,-0.37,29.0
38.467,-0.857,-0.562,13.0
38.389,-0.845,0.5,15.0
38.379,-0.831,0.29,47.0
38.37,-0.816,0.081,41.0
38.377,-0.803,-0.132,17.0
45.509,-0.935,-0.405,16.0
44.858,-0.906,-0.644,8.0
52.977,-1.055,0.703,35.0
52.964,-1.035,0.413,48.0
52.994,-1.016,0.124,25.0
52.977,-0.997,-0.17,22.0
52.914,-0.976,-0.459,42.0
44.881,-0.811,-0.635,13.0
193.072,-3.434,2.603,16.0
20.159,-0.351,0.161,3.0
20.132,-0.343,0.051,45.0
20.107,-0.335,-0.06,13.0
52.963,-0.863,-0.449,18.0
44.833,-0.715,-0.626,18.0
20.145,-0.315,0.275,8.0
20.12,-0.307,0.164,14.0
20.13,-0.3,0.054,19.0
56.932,-0.828,-0.163,1.0
56.651,-0.803,-0.472,5.0
44.879,-0.619,-0.62,22.0
20.134,-0.271,0.277,12.0
20.152,-0.264,0.167,11.0
59.589,-0.76,0.168,14.0
56.284,-0.697,-0.154,1.0
56.791,-0.683,-0.467,1.0
44.891,-0.523,-0.615,28.0
20.163,-0.228,0.28,15.0
64.338,-0.706,0.54,23.0
56.201,-0.596,0.164,5.0
56.216,-0.576,-0.15,16.0
56.572,-0.558,-0.461,1.0
44.905,-0.427,-0.613,10.0
64.359,-0.591,0.898,44.0
66.52,-0.586,0.562,29.0
58.359,-0.493,0.173,10.0
20.189,-0.163,-0.053,9.0
20.157,-0.155,-0.163,17.0
20.156,-0.148,-0.274,29.0
20.157,-0.141,0.281,17.0
20.143,-0.134,0.17,19.0
20.156,-0.127,0.06,29.0
20.15,-0.12,-0.052,27.0
20.154,-0.112,-0.163,32.0
20.131,-0.105,-0.274,38.0
20.127,-0.098,0.281,29.0
20.126,-0.091,0.17,28.0
20.132,-0.084,0.059,39.0
20.124,-0.076,-0.053,29.0
20.137,-0.069,-0.164,36.0
20.155,-0.062,-0.275,28.0
20.121,-0.055,0.279,31.0
20.114,-0.048,0.168,37.0
20.124,-0.041,0.058,41.0
20.13,-0.033,-0.054,29.0
20.188,-0.026,-0.166,24.0
20.19,-0.019,-0.277,6.0
20.136,-0.012,0.278,28.0
20.126,-0.004,0.167,29.0
20.186,0.002,0.056,46.0
20.252,0.009,-0.057,151.0
20.254,0.016,-0.169,151.0
20.267,0.023,-0.281,150.0
20.147,0.031,0.275,29.0
20.146,0.038,0.164,27.0
20.19,0.045,0.053,19.0
20.213,0.052,-0.06,29.0
20.206,0.059,-0.171,27.0
20.225,0.066,-0.283,0.0
20.147,0.074,0.272,27.0
20.168,0.081,0.161,27.0
20.203,0.088,0.049,35.0
20.182,0.095,-0.063,38.0
20.187,0.103,-0.175,31.0
20.198,0.11,-0.287,27.0
20.162,0.118,0.268,29.0
20.177,0.125,0.157,26.0
20.2,0.132,0.045,24.0
20.189,0.139,-0.068,24.0
20.186,0.146,-0.18,21.0
20.172,0.153,-0.291,36.0
20.263,0.161,0.265,27.0
20.284,0.169,0.153,28.0
20.329,0.176,0.04,31.0
20.248,0.183,-0.073,6.0
20.179,0.189,-0.185,10.0
20.183,0.196,-0.297,29.0
20.288,0.205,0.259,28.0
20.308,0.212,0.147,23.0
20.323,0.219,0.034,3.0
0.0,0.0,0.0,0.0
20.216,0.232,-0.191,2.0
