X,Y,Z,Reflectivity
20.278,0.266,0.517,13.0
20.282,0.264,0.398,12.0
110.378,1.44,5.179,14.0
103.957,1.346,4.269,29.0
102.937,1.323,3.626,6.0
20.271,0.258,0.593,2.0
20.289,0.257,0.475,24.0
20.296,0.255,0.357,19.0
110.31,1.384,4.948,19.0
103.997,1.294,4.057,17.0
118.076,1.458,3.916,12.0
20.264,0.248,0.552,20.0
20.279,0.246,0.434,26.0
20.29,0.244,0.315,23.0
124.95,1.501,5.348,22.0
117.925,1.404,4.357,13.0
20.268,0.239,0.63,0.0
20.267,0.237,0.51,24.0
20.273,0.235,0.392,26.0
20.288,0.233,0.274,23.0
124.912,1.43,5.093,25.0
102.965,1.168,3.597,12.0
20.259,0.227,0.589,16.0
20.265,0.225,0.469,27.0
20.28,0.223,0.351,31.0
20.295,0.221,0.233,25.0
132.556,1.438,5.137,9.0
117.975,1.266,3.883,25.0
20.265,0.215,0.548,26.0
20.263,0.212,0.428,33.0
20.289,0.21,0.31,28.0
20.303,0.208,0.193,28.0
103.948,1.061,3.819,30.0
20.265,0.204,0.626,10.0
20.276,0.202,0.508,29.0
20.268,0.199,0.388,31.0
20.285,0.197,0.27,28.0
20.309,0.195,0.151,29.0
103.763,0.989,3.601,31.0
20.241,0.19,0.584,16.0
20.268,0.188,0.467,30.0
20.277,0.185,0.347,28.0
20.292,0.183,0.228,28.0
20.303,0.18,0.11,30.0
103.734,0.914,3.392,32.0
20.259,0.175,0.544,26.0
20.249,0.173,0.426,25.0
20.244,0.17,0.306,25.0
20.262,0.168,0.188,24.0
20.258,0.165,0.07,23.0
20.265,0.163,0.622,11.0
20.162,0.159,0.501,17.0
20.183,0.157,0.384,25.0
20.189,0.154,0.265,22.0
20.19,0.152,0.147,23.0
20.205,0.149,0.03,25.0
20.189,0.147,0.58,16.0
20.174,0.144,0.462,23.0
20.156,0.141,0.344,24.0
20.14,0.138,0.225,20.0
20.189,0.135,0.107,36.0
20.184,0.132,-0.009,25.0
20.192,0.13,0.54,23.0
20.157,0.127,0.422,26.0
20.16,0.124,0.304,27.0
20.164,0.121,0.185,25.0
20.197,0.118,0.067,32.0
20.188,0.115,-0.049,32.0
20.18,0.113,0.5,24.0
20.156,0.109,0.382,28.0
20.162,0.106,0.264,27.0
20.143,0.103,0.145,25.0
20.202,0.1,0.028,32.0
20.185,0.097,-0.088,31.0
20.153,0.094,0.46,30.0
20.155,0.091,0.342,27.0
20.153,0.088,0.225,27.0
20.173,0.085,0.106,27.0
20.193,0.082,-0.01,27.0
20.192,0.079,-0.128,27.0
20.151,0.076,0.421,29.0
20.148,0.072,0.304,25.0
20.151,0.069,0.186,28.0
20.2,0.066,0.067,32.0
20.21,0.063,-0.05,33.0
20.222,0.059,-0.167,23.0
20.142,0.056,0.382,28.0
20.143,0.053,0.265,28.0
20.151,0.049,0.148,26.0
20.216,0.046,0.028,15.0
20.232,0.043,-0.088,19.0
20.251,0.04,-0.206,150.0
20.142,0.036,0.344,29.0
20.136,0.033,0.227,26.0
20.135,0.029,0.109,28.0
20.246,0.026,-0.009,151.0
20.261,0.022,-0.127,151.0
20.258,0.019,-0.244,151.0
20.134,0.015,0.306,28.0
20.131,0.012,0.188,27.0
20.21,0.008,0.072,101.0
20.264,0.005,-0.047,150.0
20.244,0.001,-0.164,31.0
20.235,-0.002,-0.282,7.0
20.124,-0.005,0.268,27.0
20.129,-0.009,0.151,28.0
20.136,-0.012,0.034,16.0
20.179,-0.016,-0.084,22.0
20.162,-0.02,-0.201,5.0
20.179,-0.024,-0.319,3.0
20.119,-0.027,0.23,35.0
20.125,-0.031,0.114,39.0
20.127,-0.035,-0.002,32.0
20.152,-0.039,-0.121,30.0
20.164,-0.042,-0.238,22.0
20.175,-0.046,-0.356,15.0
20.128,-0.05,0.194,37.0
20.141,-0.054,0.077,42.0
20.138,-0.058,-0.039,30.0
20.152,-0.062,-0.158,33.0
20.141,-0.065,-0.275,27.0
20.177,-0.069,-0.392,24.0
20.128,-0.073,0.157,30.0
20.129,-0.077,0.041,34.0
20.144,-0.081,-0.075,29.0
20.158,-0.085,-0.194,25.0
20.146,-0.089,-0.311,36.0
20.158,-0.093,-0.428,32.0
20.142,-0.097,0.121,33.0
20.138,-0.101,0.005,31.0
20.146,-0.105,-0.111,27.0
20.125,-0.109,-0.23,30.0
20.149,-0.113,-0.347,37.0
20.171,-0.118,-0.464,32.0
20.149,-0.122,0.086,28.0
20.18,-0.126,-0.029,23.0
20.184,-0.13,-0.147,21.0
20.136,-0.134,-0.265,29.0
20.154,-0.138,-0.382,34.0
20.171,-0.143,-0.5,34.0
20.173,-0.147,0.051,14.0
20.177,-0.151,-0.065,14.0
20.163,-0.156,-0.182,5.0
20.158,-0.16,-0.3,26.0
20.171,-0.164,-0.418,29.0
20.18,-0.169,-0.535,38.0
53.347,-0.458,0.044,9.0
53.326,-0.469,-0.263,2.0
20.18,-0.182,-0.216,4.0
20.165,-0.186,-0.335,11.0
20.182,-0.19,-0.452,27.0
20.19,-0.195,-0.569,37.0
56.218,-0.556,-0.047,12.0
58.797,-0.595,-0.39,11.0
44.942,-0.464,-0.558,33.0
0.0,0.0,0.0,0.0
20.186,-0.217,-0.486,16.0
20.207,-0.222,-0.604,32.0
56.261,-0.632,-0.141,1.0
53.086,-0.608,-0.44,7.0
44.661,-0.521,-0.628,5.0
35.812,-0.426,-0.715,4.0
29.479,-0.357,-0.759,4.0
20.208,-0.25,-0.637,24.0
56.33,-0.709,-0.233,1.0
52.645,-0.675,-0.523,4.0
38.183,-0.498,-0.6,17.0
31.532,-0.418,-0.681,25.0
28.219,-0.381,-0.772,2.0
20.238,-0.278,-0.671,6.0
56.616,-0.791,-0.325,9.0
45.061,-0.64,-0.519,19.0
37.835,-0.546,-0.655,16.0
30.496,-0.447,-0.707,28.0
26.956,-0.402,-0.781,2.0
26.466,-0.401,-0.92,0.0
53.037,-0.816,-0.389,5.0
44.846,-0.7,-0.587,16.0
35.873,-0.568,-0.677,2.0
29.844,-0.48,-0.738,16.0
25.909,-0.423,-0.791,3.0
25.201,-0.417,-0.915,0.0
52.872,-0.889,-0.469,19.0
38.483,-0.656,-0.563,14.0
31.206,-0.539,-0.637,22.0
28.626,-0.501,-0.752,7.0
25.06,-0.445,-0.803,2.0
24.008,-0.433,-0.908,0.0
45.302,-0.827,-0.47,19.0
38.02,-0.703,-0.614,22.0
30.642,-0.574,-0.671,29.0
27.437,-0.521,-0.762,5.0
23.505,-0.452,-0.789,1.0
22.991,-0.448,-0.904,0.0
44.939,-0.887,-0.533,32.0
0.0,0.0,0.0,0.0
30.441,-0.616,-0.712,23.0
26.749,-0.548,-0.783,2.0
22.454,-0.466,-0.787,2.0
21.902,-0.46,-0.894,1.0
38.357,-0.814,-0.511,19.0
31.363,-0.674,-0.598,20.0
30.088,-0.654,-0.748,7.0
24.132,-0.531,-0.741,4.0
21.717,-0.483,-0.792,0.0
21.114,-0.475,-0.892,1.0
38.243,-0.87,-0.564,23.0
30.851,-0.71,-0.633,31.0
28.285,-0.658,-0.743,1.0
23.785,-0.56,-0.764,14.0
20.975,-0.499,-0.795,1.0
20.351,-0.489,-0.889,1.0
37.994,-0.923,-0.614,18.0
30.545,-0.75,-0.669,35.0
25.237,-0.626,-0.698,1.0
23.588,-0.592,-0.79,5.0
20.295,-0.514,-0.797,0.0
19.695,-0.504,-0.887,1.0
31.571,-0.816,-0.553,8.0
30.405,-0.794,-0.707,24.0
24.864,-0.656,-0.721,11.0
22.414,-0.597,-0.781,1.0
19.78,-0.532,-0.803,0.0
19.032,-0.518,-0.883,1.0
31.11,-0.854,-0.586,29.0
30.067,-0.833,-0.739,8.0
24.218,-0.678,-0.735,24.0
21.468,-0.607,-0.777,0.0
19.13,-0.546,-0.802,0.0
18.385,-0.53,-0.877,1.0
30.77,-0.894,-0.619,33.0
28.242,-0.828,-0.73,1.0
23.796,-0.704,-0.752,16.0
20.807,-0.621,-0.779,2.0
18.579,-0.56,-0.803,0.0
17.822,-0.542,-0.873,0.0
30.563,-0.936,-0.653,38.0
27.449,-0.848,-0.744,0.0
23.657,-0.738,-0.777,5.0
19.98,-0.629,-0.773,2.0
18.168,-0.577,-0.807,0.0
17.264,-0.553,-0.866,0.0
30.457,-0.983,-0.688,37.0
25.02,-0.814,-0.708,7.0
22.625,-0.742,-0.77,4.0
19.652,-0.65,-0.784,2.0
17.767,-0.593,-0.811,0.0
16.746,-0.564,-0.86,0.0
30.298,-1.027,-0.72,8.0
24.462,-0.836,-0.721,17.0
22.291,-0.768,-0.785,2.0
18.991,-0.66,-0.78,2.0
17.392,-0.609,-0.814,0.0
16.256,-0.574,-0.854,1.0
28.715,-1.021,-0.715,1.0
23.844,-0.854,-0.73,22.0
21.369,-0.772,-0.777,0.0
18.677,-0.68,-0.788,2.0
17.061,-0.626,-0.818,0.0
16.059,-0.594,-0.862,1.0
27.93,-1.039,-0.727,0.0
23.764,-0.891,-0.754,13.0
20.651,-0.78,-0.774,2.0
18.383,-0.7,-0.796,0.0
31.269,-1.201,-1.533,1.0
15.947,-0.617,-0.873,1.0
25.103,-0.976,-0.68,2.0
23.5,-0.921,-0.771,5.0
20.431,-0.806,-0.787,2.0
18.038,-0.717,-0.8,1.0
16.336,-0.655,-0.818,0.0
15.831,-0.639,-0.883,1.0
24.837,-1.008,-0.698,6.0
22.413,-0.916,-0.758,1.0
19.976,-0.822,-0.79,0.0
17.705,-0.734,-0.803,0.0
16.234,-0.678,-0.829,1.0
15.722,-0.661,-0.893,1.0
24.23,-1.024,-0.705,20.0
21.989,-0.936,-0.765,1.0
19.459,-0.834,-0.789,0.0
17.313,-0.747,-0.802,0.0
16.04,-0.697,-0.835,0.0
15.63,-0.684,-0.903,1.0
23.907,-1.052,-0.719,20.0
21.719,-0.962,-0.777,1.0
19.047,-0.849,-0.79,0.0
16.972,-0.762,-0.803,0.0
15.739,-0.711,-0.834,0.0
15.529,-0.707,-0.912,1.0
23.808,-1.088,-0.738,16.0
21.13,-0.972,-0.775,1.0
18.596,-0.861,-0.788,0.0
16.718,-0.78,-0.806,0.0
15.565,-0.731,-0.839,0.0
15.42,-0.729,-0.919,0.0
23.649,-1.122,-0.754,7.0
20.719,-0.989,-0.778,0.0
18.371,-0.883,-0.795,1.0
16.404,-0.793,-0.805,1.0
15.435,-0.751,-0.845,1.0
15.349,-0.752,-0.928,1.0
23.338,-1.147,-0.764,5.0
20.201,-0.999,-0.775,0.0
18.106,-0.901,-0.798,0.0
16.341,-0.818,-0.815,1.0
15.329,-0.773,-0.852,1.0
15.255,-0.774,-0.935,1.0
22.549,-1.147,-0.756,1.0
19.861,-1.016,-0.778,1.0
17.723,-0.913,-0.795,0.0
16.111,-0.835,-0.816,0.0
15.234,-0.794,-0.859,1.0
15.167,-0.796,-0.941,0.0
22.211,-1.169,-0.761,2.0
19.548,-1.035,-0.781,0.0
17.425,-0.928,-0.795,0.0
15.929,-0.853,-0.819,1.0
15.142,-0.816,-0.865,0.0
15.059,-0.816,-0.946,1.0
21.731,-1.181,-0.76,2.0
19.226,-1.051,-0.782,0.0
17.123,-0.941,-0.793,0.0
15.787,-0.873,-0.823,1.0
15.04,-0.837,-0.869,1.0
14.945,-0.836,-0.949,1.0
21.363,-1.198,-0.762,2.0
18.968,-1.07,-0.784,0.0
16.907,-0.959,-0.795,0.0
15.668,-0.894,-0.827,1.0
14.976,-0.859,-0.875,1.0
14.903,-0.86,-0.956,1.0
20.932,-1.211,-0.76,2.0
18.691,-1.087,-0.784,0.0
16.765,-0.98,-0.798,0.0
15.528,-0.913,-0.829,1.0
14.893,-0.88,-0.88,1.0
14.886,-0.885,-0.964,1.0
20.696,-1.233,-0.764,1.0
18.499,-1.108,-0.787,0.0
16.529,-0.995,-0.797,0.0
15.453,-0.935,-0.834,0.0
14.836,-0.903,-0.885,1.0
14.797,-0.905,-0.966,1.0
20.583,-1.262,-0.771,1.0
18.295,-1.127,-0.788,2.0
16.392,-1.015,-0.799,1.0
15.365,-0.957,-0.837,1.0
14.764,-0.924,-0.888,1.0
14.748,-0.928,-0.971,1.0
20.246,-1.276,-0.768,0.0
18.189,-1.152,-0.793,2.0
16.317,-1.039,-0.804,0.0
15.276,-0.978,-0.84,0.0
14.701,-0.945,-0.892,1.0
14.685,-0.95,-0.974,0.0
20.108,-1.302,-0.773,0.0
17.969,-1.169,-0.792,1.0
16.212,-1.06,-0.806,1.0
15.183,-0.998,-0.842,1.0
14.636,-0.967,-0.894,1.0
14.6,-0.969,-0.975,0.0
19.841,-1.319,-0.771,1.0
17.695,-1.182,-0.787,0.0
16.126,-1.082,-0.808,1.0
15.089,-1.018,-0.843,0.0
14.582,-0.988,-0.897,1.0
14.519,-0.989,-0.975,0.0
19.68,-1.342,-0.772,0.0
17.581,-1.205,-0.789,0.0
16.019,-1.103,-0.809,1.0
15.026,-1.039,-0.845,0.0
14.504,-1.008,-0.897,1.0
14.445,-1.009,-0.976,0.0
19.501,-1.363,-0.772,0.0
17.417,-1.223,-0.788,1.0
15.918,-1.123,-0.809,1.0
14.899,-1.056,-0.843,0.0
14.459,-1.029,-0.899,1.0
14.393,-1.03,-0.976,0.0
19.326,-1.384,-0.771,0.0
17.233,-1.239,-0.784,2.0
15.831,-1.144,-0.809,1.0
14.824,-1.076,-0.843,0.0
14.402,-1.05,-0.9,1.0
14.33,-1.05,-0.976,0.0
19.242,-1.41,-0.773,1.0
17.157,-1.263,-0.785,12.0
15.809,-1.169,-0.812,0.0
14.785,-1.098,-0.844,0.0
14.345,-1.07,-0.9,1.0
14.275,-1.07,-0.976,0.0
19.077,-1.43,-0.771,0.0
17.118,-1.289,-0.787,2.0
15.711,-1.188,-0.811,1.0
14.707,-1.117,-0.843,0.0
14.288,-1.09,-0.899,1.0
14.242,-1.091,-0.976,1.0
19.017,-1.458,-0.772,0.0
17.053,-1.312,-0.787,1.0
15.671,-1.211,-0.811,1.0
14.653,-1.137,-0.842,0.0
14.227,-1.109,-0.898,1.0
14.197,-1.111,-0.975,0.0
18.87,-1.478,-0.768,0.0
16.951,-1.333,-0.785,1.0
15.687,-1.238,-0.814,1.0
14.632,-1.16,-0.843,1.0
14.162,-1.127,-0.895,1.0
14.148,-1.131,-0.974,1.0
18.905,-1.511,-0.772,1.0
16.939,-1.359,-0.786,1.0
15.66,-1.262,-0.814,1.0
14.628,-1.184,-0.844,0.0
14.132,-1.148,-0.894,1.0
14.103,-1.15,-0.972,1.0
18.818,-1.535,-0.77,1.0
16.9,-1.384,-0.785,1.0
15.654,-1.287,-0.815,1.0
14.563,-1.202,-0.841,0.0
14.078,-1.166,-0.891,1.0
14.079,-1.171,-0.97,1.0
18.869,-1.57,-0.772,2.0
16.94,-1.414,-0.787,0.0
15.6,-1.308,-0.812,1.0
14.572,-1.226,-0.841,0.0
14.055,-1.187,-0.89,1.0
14.047,-1.191,-0.968,1.0
18.776,-1.592,-0.768,0.0
16.883,-1.437,-0.784,0.0
15.608,-1.333,-0.812,1.0
14.543,-1.247,-0.839,1.0
14.0,-1.205,-0.886,1.0
13.998,-1.209,-0.964,1.0
18.8,-1.624,-0.768,1.0
16.937,-1.468,-0.786,0.0
15.587,-1.356,-0.81,1.0
14.585,-1.273,-0.84,1.0
13.963,-1.223,-0.882,1.0
13.962,-1.228,-0.96,1.0
18.826,-1.655,-0.767,1.0
16.985,-1.499,-0.786,0.0
15.605,-1.382,-0.809,0.0
14.608,-1.298,-0.84,1.0
13.924,-1.242,-0.878,1.0
13.924,-1.246,-0.956,1.0
18.908,-1.692,-0.768,1.0
16.963,-1.523,-0.783,1.0
15.645,-1.409,-0.809,1.0
14.585,-1.318,-0.836,1.0
13.899,-1.26,-0.874,1.0
13.883,-1.263,-0.951,1.0
18.942,-1.723,-0.766,1.0
16.977,-1.55,-0.78,0.0
15.657,-1.434,-0.807,1.0
14.574,-1.339,-0.833,0.0
13.857,-1.278,-0.869,1.0
13.837,-1.28,-0.945,1.0
18.95,-1.752,-0.762,1.0
17.054,-1.582,-0.78,0.0
15.681,-1.459,-0.804,1.0
14.619,-1.365,-0.832,0.0
13.833,-1.296,-0.864,1.0
13.815,-1.299,-0.94,1.0
19.102,-1.795,-0.764,1.0
17.135,-1.615,-0.78,0.0
15.789,-1.493,-0.806,1.0
14.692,-1.393,-0.832,0.0
13.81,-1.314,-0.859,1.0
13.774,-1.315,-0.933,1.0
19.278,-1.839,-0.765,2.0
17.165,-1.643,-0.776,0.0
15.818,-1.518,-0.802,1.0
14.774,-1.422,-0.833,0.0
13.812,-1.334,-0.855,0.0
13.742,-1.331,-0.927,1.0
19.35,-1.873,-0.762,1.0
17.336,-1.684,-0.778,1.0
15.836,-1.542,-0.798,1.0
14.827,-1.449,-0.83,0.0
13.874,-1.359,-0.854,0.0
13.708,-1.348,-0.919,1.0
19.507,-1.916,-0.761,1.0
17.399,-1.714,-0.774,0.0
15.918,-1.572,-0.796,1.0
14.937,-1.48,-0.831,1.0
13.917,-1.383,-0.851,0.0
13.673,-1.363,-0.912,1.0
19.551,-1.947,-0.755,2.0
17.484,-1.746,-0.771,0.0
16.02,-1.605,-0.795,1.0
14.997,-1.506,-0.828,1.0
14.001,-1.41,-0.85,0.0
13.641,-1.378,-0.904,1.0
19.749,-1.994,-0.754,1.0
17.782,-1.8,-0.777,0.0
16.155,-1.64,-0.794,1.0
15.057,-1.532,-0.825,1.0
14.057,-1.435,-0.847,0.0
13.613,-1.393,-0.896,1.0
19.952,-2.04,-0.753,2.0
17.924,-1.838,-0.774,0.0
16.249,-1.671,-0.791,1.0
15.098,-1.556,-0.82,1.0
14.154,-1.463,-0.846,1.0
13.577,-1.407,-0.886,1.0
20.132,-2.085,-0.749,2.0
18.074,-1.876,-0.772,1.0
16.324,-1.699,-0.787,2.0
15.163,-1.582,-0.815,1.0
14.198,-1.486,-0.841,1.0
13.565,-1.423,-0.879,1.0
20.376,-2.136,-0.748,2.0
18.158,-1.908,-0.766,1.0
16.425,-1.73,-0.782,1.0
15.242,-1.61,-0.811,1.0
14.269,-1.511,-0.838,1.0
13.542,-1.437,-0.869,1.0
20.563,-2.181,-0.743,3.0
18.385,-1.954,-0.765,1.0
16.573,-1.766,-0.78,0.0
15.341,-1.638,-0.808,1.0
14.379,-1.54,-0.836,1.0
13.538,-1.453,-0.861,0.0
20.845,-2.235,-0.741,3.0
18.605,-2.0,-0.763,0.0
16.817,-1.812,-0.781,0.0
15.462,-1.67,-0.805,1.0
14.476,-1.567,-0.832,1.0
13.584,-1.474,-0.856,0.0
20.988,-2.275,-0.733,3.0
18.83,-2.046,-0.76,1.0
16.977,-1.848,-0.778,1.0
15.584,-1.701,-0.801,0.0
14.56,-1.592,-0.828,0.0
13.684,-1.5,-0.853,0.0
21.286,-2.331,-0.729,3.0
19.051,-2.091,-0.756,1.0
17.14,-1.885,-0.774,1.0
15.789,-1.741,-0.801,0.0
14.745,-1.629,-0.828,0.0
13.789,-1.527,-0.85,0.0
21.654,-2.395,-0.727,2.0
19.338,-2.144,-0.754,1.0
17.312,-1.923,-0.77,1.0
15.921,-1.772,-0.796,1.0
14.863,-1.658,-0.824,1.0
13.927,-1.557,-0.848,0.0
22.08,-2.466,-0.725,4.0
19.556,-2.188,-0.749,1.0
17.682,-1.983,-0.773,2.0
16.063,-1.805,-0.792,1.0
14.994,-1.688,-0.821,1.0
14.013,-1.581,-0.843,1.0
22.37,-2.521,-0.718,4.0
19.961,-2.254,-0.749,1.0
17.807,-2.015,-0.765,0.0
16.198,-1.836,-0.786,1.0
15.107,-1.716,-0.815,1.0
14.111,-1.606,-0.838,1.0
22.745,-2.586,-0.712,5.0
20.246,-2.306,-0.744,2.0
18.072,-2.062,-0.762,0.0
16.395,-1.874,-0.782,1.0
15.25,-1.747,-0.811,0.0
14.292,-1.64,-0.838,0.0
23.053,-2.643,-0.704,3.0
20.559,-2.361,-0.739,2.0
18.476,-2.126,-0.764,0.0
16.67,-1.921,-0.782,1.0
15.398,-1.778,-0.806,0.0
14.395,-1.665,-0.832,1.0
23.515,-2.718,-0.698,4.0
20.931,-2.423,-0.735,3.0
18.776,-2.177,-0.761,1.0
16.901,-1.963,-0.778,0.0
15.527,-1.807,-0.8,1.0
14.542,-1.695,-0.828,0.0
24.131,-2.81,-0.696,5.0
21.495,-2.507,-0.737,4.0
19.072,-2.227,-0.757,2.0
17.185,-2.01,-0.777,1.0
15.738,-1.844,-0.797,0.0
14.796,-1.737,-0.829,1.0
24.675,-2.894,-0.691,3.0
21.764,-2.556,-0.727,5.0
19.383,-2.28,-0.752,2.0
17.411,-2.051,-0.772,1.0
15.963,-1.883,-0.794,1.0
14.937,-1.765,-0.824,1.0
25.27,-2.983,-0.685,4.0
22.033,-2.605,-0.716,4.0
19.751,-2.338,-0.749,1.0
17.68,-2.096,-0.767,1.0
16.134,-1.916,-0.788,1.0
15.038,-1.788,-0.816,1.0
25.66,-3.049,-0.672,5.0
22.562,-2.684,-0.712,4.0
20.103,-2.395,-0.743,2.0
18.0,-2.147,-0.765,0.0
16.37,-1.956,-0.784,1.0
15.233,-1.822,-0.812,1.0
26.148,-3.125,-0.66,2.0
23.089,-2.763,-0.707,4.0
20.521,-2.459,-0.739,2.0
18.438,-2.212,-0.765,1.0
16.585,-1.993,-0.778,1.0
15.425,-1.856,-0.807,1.0
26.739,-3.214,-0.649,2.0
23.492,-2.827,-0.697,3.0
20.905,-2.518,-0.733,3.0
18.819,-2.27,-0.763,2.0
16.921,-2.044,-0.777,0.0
15.537,-1.879,-0.798,1.0
27.734,-3.351,-0.646,4.0
24.025,-2.906,-0.689,1.0
21.427,-2.595,-0.73,4.0
19.093,-2.315,-0.755,2.0
17.218,-2.09,-0.774,1.0
15.776,-1.917,-0.794,1.0
28.328,-3.439,-0.632,7.0
24.682,-3.0,-0.683,4.0
21.809,-2.653,-0.721,4.0
19.482,-2.373,-0.751,1.0
17.519,-2.136,-0.77,1.0
16.065,-1.961,-0.792,1.0
28.846,-3.518,-0.614,11.0
25.27,-3.085,-0.674,2.0
22.35,-2.731,-0.716,4.0
19.843,-2.427,-0.744,1.0
17.835,-2.184,-0.765,0.0
16.279,-1.995,-0.786,1.0
29.26,-3.583,-0.592,22.0
26.083,-3.197,-0.668,5.0
22.888,-2.808,-0.71,4.0
20.316,-2.494,-0.741,2.0
18.35,-2.255,-0.768,1.0
16.51,-2.031,-0.78,1.0
29.669,-3.647,-0.57,24.0
26.612,-3.274,-0.654,3.0
23.404,-2.881,-0.7,4.0
20.762,-2.558,-0.735,3.0
18.683,-2.304,-0.762,1.0
16.901,-2.086,-0.78,1.0
30.26,-3.732,-0.549,23.0
27.412,-3.383,-0.644,5.0
23.969,-2.96,-0.692,2.0
21.259,-2.628,-0.73,3.0
19.064,-2.358,-0.757,1.0
17.21,-2.13,-0.776,1.0
31.176,-3.857,-0.531,30.0
28.161,-3.486,-0.631,7.0
24.75,-3.065,-0.687,2.0
21.827,-2.705,-0.726,4.0
19.439,-2.411,-0.75,1.0
17.498,-2.172,-0.77,1.0
32.01,-3.97,-0.511,27.0
28.525,-3.54,-0.608,20.0
25.34,-3.146,-0.676,4.0
22.316,-2.772,-0.718,4.0
19.86,-2.469,-0.745,1.0
17.859,-2.221,-0.766,1.0
32.881,-4.087,-0.489,28.0
28.909,-3.595,-0.584,20.0
25.938,-3.227,-0.663,2.0
22.89,-2.849,-0.71,3.0
20.368,-2.537,-0.741,2.0
18.385,-2.291,-0.768,1.0
33.639,-4.189,-0.462,28.0
29.633,-3.692,-0.566,22.0
26.851,-3.346,-0.657,2.0
23.407,-2.918,-0.7,3.0
20.885,-2.605,-0.737,3.0
18.73,-2.337,-0.761,2.0
34.348,-4.284,-0.434,23.0
30.395,-3.792,-0.546,21.0
27.743,-3.462,-0.647,7.0
24.04,-3.001,-0.692,2.0
21.348,-2.666,-0.729,3.0
19.165,-2.394,-0.757,1.0
39.7,-4.957,-0.456,4.0
31.28,-3.906,-0.526,25.0
28.275,-3.532,-0.627,12.0
24.9,-3.111,-0.688,3.0
22.079,-2.76,-0.728,4.0
19.541,-2.443,-0.749,1.0
39.818,-4.976,-0.412,24.0
32.233,-4.028,-0.506,26.0
28.708,-3.588,-0.604,22.0
25.455,-3.182,-0.675,4.0
22.534,-2.818,-0.718,4.0
20.065,-2.509,-0.747,2.0
40.039,-5.005,-0.369,22.0
33.141,-4.143,-0.482,26.0
29.17,-3.647,-0.58,21.0
26.141,-3.268,-0.662,1.0
23.102,-2.889,-0.709,5.0
20.561,-2.571,-0.741,2.0
40.342,-5.043,-0.324,16.0
33.944,-4.243,-0.455,27.0
29.917,-3.74,-0.56,24.0
27.093,-3.387,-0.655,3.0
23.611,-2.951,-0.697,2.0
21.011,-2.627,-0.733,2.0
45.741,-5.716,-0.315,7.0
34.585,-4.321,-0.423,18.0
30.745,-3.841,-0.541,21.0
27.92,-3.488,-0.643,7.0
24.462,-3.056,-0.694,2.0
21.677,-2.708,-0.731,3.0
46.276,-5.779,-0.265,21.0
39.714,-4.958,-0.44,9.0
31.702,-3.957,-0.521,22.0
28.435,-3.549,-0.622,17.0
25.12,-3.134,-0.684,5.0
22.274,-2.779,-0.725,4.0
47.486,-5.923,-0.217,23.0
39.882,-4.973,-0.395,24.0
32.749,-4.082,-0.5,23.0
28.862,-3.597,-0.598,21.0
25.828,-3.218,-0.673,3.0
22.788,-2.839,-0.716,4.0
49.076,-6.112,-0.167,23.0
40.184,-5.003,-0.352,15.0
33.568,-4.178,-0.473,26.0
29.356,-3.652,-0.574,18.0
26.614,-3.31,-0.662,2.0
23.375,-2.907,-0.707,3.0
55.514,-6.901,-0.125,7.0
40.443,-5.025,-0.307,7.0
34.316,-4.262,-0.444,20.0
30.188,-3.748,-0.555,18.0
27.489,-3.412,-0.652,5.0
23.973,-2.974,-0.697,2.0
55.82,-6.924,-0.062,7.0
46.02,-5.705,-0.297,21.0
39.705,-4.92,-0.468,5.0
31.229,-3.867,-0.538,16.0
28.189,-3.489,-0.636,7.0
24.801,-3.069,-0.693,2.0
80.891,-10.007,0.004,7.0
47.176,-5.832,-0.249,22.0
39.817,-4.92,-0.423,18.0
32.267,-3.984,-0.518,25.0
28.642,-3.535,-0.614,17.0
25.563,-3.153,-0.684,4.0
80.805,-9.967,0.096,18.0
48.484,-5.976,-0.201,22.0
40.081,-4.937,-0.38,19.0
33.133,-4.078,-0.495,26.0
29.189,-3.591,-0.592,21.0
26.223,-3.224,-0.672,5.0
80.626,-9.912,0.187,31.0
50.142,-6.159,-0.151,16.0
40.305,-4.947,-0.337,12.0
33.962,-4.165,-0.469,30.0
30.031,-3.68,-0.575,24.0
27.039,-3.312,-0.662,3.0
80.432,-9.85,0.279,34.0
55.71,-6.817,-0.104,14.0
45.88,-5.609,-0.331,20.0
34.603,-4.227,-0.438,22.0
30.836,-3.764,-0.556,24.0
27.781,-3.388,-0.649,4.0
80.345,-9.799,0.369,33.0
80.71,-9.834,-0.06,5.0
46.759,-5.692,-0.284,21.0
39.689,-4.827,-0.458,11.0
31.801,-3.864,-0.537,25.0
28.699,-3.484,-0.638,8.0
80.317,-9.751,0.46,32.0
81.02,-9.827,0.029,12.0
47.828,-5.795,-0.237,22.0
39.901,-4.83,-0.415,19.0
32.843,-3.971,-0.518,28.0
29.225,-3.531,-0.617,16.0
80.27,-9.698,0.549,28.0
80.949,-9.769,0.121,18.0
49.238,-5.935,-0.189,23.0
40.235,-4.845,-0.374,15.0
33.636,-4.046,-0.493,28.0
29.827,-3.584,-0.597,24.0
80.226,-9.641,0.637,25.0
80.397,-9.65,0.209,32.0
55.496,-6.653,-0.152,10.0
40.45,-4.843,-0.332,3.0
34.374,-4.111,-0.466,31.0
30.544,-3.649,-0.577,21.0
80.119,-9.573,0.724,29.0
80.293,-9.581,0.296,25.0
55.941,-6.667,-0.092,9.0
45.99,-5.474,-0.327,21.0
35.051,-4.167,-0.437,13.0
31.535,-3.744,-0.562,22.0
80.094,-9.511,0.811,25.0
80.141,-9.503,0.382,33.0
80.859,-9.576,-0.046,9.0
47.424,-5.608,-0.286,22.0
39.852,-4.707,-0.454,10.0
32.432,-3.825,-0.543,29.0
80.304,-9.474,0.899,12.0
80.044,-9.429,0.468,31.0
80.533,-9.473,0.038,31.0
48.789,-5.731,-0.242,23.0
40.077,-4.701,-0.413,15.0
33.202,-3.889,-0.52,28.0
192.28,-22.527,2.36,23.0
80.015,-9.359,0.552,31.0
80.603,-9.413,0.124,7.0
50.201,-5.854,-0.197,19.0
40.207,-4.682,-0.373,12.0
33.924,-3.944,-0.496,31.0
85.016,-9.886,1.131,15.0
79.964,-9.283,0.635,11.0
65.392,-7.579,0.169,0.0
55.313,-6.401,-0.159,19.0
45.434,-5.249,-0.374,19.0
34.654,-3.997,-0.471,25.0
84.671,-9.769,1.215,28.0
79.988,-9.212,0.718,4.0
65.237,-7.5,0.235,178.0
56.066,-6.435,-0.104,7.0
46.865,-5.37,-0.338,21.0
39.714,-4.543,-0.499,4.0
84.45,-9.663,1.296,26.0
80.257,-9.167,0.802,4.0
65.176,-7.43,0.301,200.0
65.589,-7.464,-0.055,0.0
48.007,-5.454,-0.298,22.0
39.91,-4.526,-0.462,15.0
84.504,-9.586,1.381,20.0
84.129,-9.525,0.924,4.0
65.141,-7.361,0.365,205.0
65.086,-7.341,0.008,0.0
49.9,-5.618,-0.261,23.0
40.184,-4.516,-0.426,15.0
84.515,-9.5,1.464,27.0
0.0,0.0,0.0,0.0
65.162,-7.295,0.428,4.0
65.068,-7.27,0.071,0.0
51.084,-5.697,-0.218,10.0
0.0,0.0,0.0,0.0
82.197,-9.151,1.502,22.0
0.0,0.0,0.0,0.0
65.107,-7.218,0.489,4.0
64.936,-7.184,0.132,1.0
55.45,-6.123,-0.185,28.0
46.577,-5.132,-0.406,4.0
82.361,-9.078,1.582,30.0
0.0,0.0,0.0,0.0
65.042,-7.138,0.549,3.0
64.939,-7.112,0.192,1.0
56.193,-6.14,-0.136,29.0
46.675,-5.089,-0.364,21.0
81.897,-8.932,1.648,40.0
81.974,-8.92,1.207,1.0
0.0,0.0,0.0,0.0
65.037,-7.045,0.251,6.0
56.453,-6.102,-0.086,4.0
47.668,-5.141,-0.329,21.0
81.916,-8.837,1.721,40.0
82.189,-8.845,1.284,9.0
0.0,0.0,0.0,0.0
65.08,-6.971,0.308,167.0
64.978,-6.944,-0.042,3.0
0.0,0.0,0.0,0.0
81.874,-8.732,1.792,37.0
82.329,-8.759,1.357,14.0
0.0,0.0,0.0,0.0
65.086,-6.891,0.363,174.0
64.975,-6.862,0.012,2.0
54.233,-5.715,-0.281,7.0
81.962,-8.639,1.862,46.0
81.987,-8.619,1.42,41.0
0.0,0.0,0.0,0.0
65.101,-6.808,0.418,175.0
64.966,-6.778,0.066,3.0
54.849,-5.708,-0.239,29.0
82.044,-8.539,1.931,42.0
81.945,-8.506,1.486,47.0
0.0,0.0,0.0,0.0
65.106,-6.722,0.47,163.0
64.976,-6.691,0.118,4.0
55.746,-5.726,-0.199,29.0
82.133,-8.439,1.999,38.0
81.804,-8.381,1.548,43.0
0.0,0.0,0.0,0.0
65.095,-6.633,0.522,109.0
64.988,-6.604,0.169,7.0
56.151,-5.69,-0.157,7.0
82.329,-8.345,2.067,66.0
81.727,-8.261,1.609,38.0
0.0,0.0,0.0,0.0
65.053,-6.538,0.57,8.0
65.048,-6.519,0.218,16.0
65.378,-6.534,-0.134,13.0
82.164,-8.213,2.123,52.0
81.742,-8.147,1.67,41.0
81.647,-8.113,1.225,3.0
0.0,0.0,0.0,0.0
65.046,-6.425,0.265,6.0
65.383,-6.44,-0.087,12.0
82.122,-8.09,2.181,52.0
82.167,-8.069,1.736,46.0
81.741,-8.003,1.284,12.0
0.0,0.0,0.0,0.0
65.075,-6.332,0.31,5.0
65.048,-6.311,-0.042,2.0
82.222,-7.978,2.24,51.0
82.408,-7.97,1.798,15.0
82.021,-7.908,1.344,25.0
0.0,0.0,0.0,0.0
65.144,-6.241,0.353,147.0
65.059,-6.214,0.0,1.0
82.092,-7.842,2.29,40.0
82.808,-7.883,1.86,24.0
82.172,-7.798,1.399,40.0
54.893,-5.192,0.631,8.0
54.925,-5.178,0.332,7.0
54.939,-5.163,0.034,111.0
82.145,-7.72,2.343,44.0
82.553,-7.732,1.905,63.0
54.96,-5.13,0.969,151.0
54.964,-5.113,0.665,159.0
54.963,-5.095,0.366,165.0
54.961,-5.079,0.067,155.0
82.065,-7.583,2.389,41.0
82.218,-7.571,1.946,45.0
54.955,-5.043,1.001,150.0
54.958,-5.025,0.696,153.0
54.931,-5.006,0.398,82.0
54.941,-4.99,0.098,6.0
82.112,-7.457,2.436,39.0
82.415,-7.458,1.996,41.0
0.0,0.0,0.0,0.0
0.0,0.0,0.0,0.0
0.0,0.0,0.0,0.0
0.0,0.0,0.0,0.0
82.185,-7.329,2.483,43.0
82.538,-7.333,2.042,39.0
0.0,0.0,0.0,0.0
0.0,0.0,0.0,0.0
0.0,0.0,0.0,0.0
0.0,0.0,0.0,0.0
82.209,-7.197,2.523,35.0
83.084,-7.244,2.097,10.0
0.0,0.0,0.0,0.0
0.0,0.0,0.0,0.0
0.0,0.0,0.0,0.0
0.0,0.0,0.0,0.0
82.227,-7.059,2.562,47.0
83.008,-7.098,2.133,42.0
84.468,-7.194,1.708,3.0
0.0,0.0,0.0,0.0
0.0,0.0,0.0,0.0
79.364,-6.68,0.296,7.0
82.162,-6.913,2.595,40.0
82.807,-6.938,2.163,50.0
82.836,-6.911,1.71,16.0
82.01,-6.814,1.236,30.0
79.292,-6.562,0.761,12.0
79.408,-6.546,0.328,31.0
82.264,-6.779,2.632,45.0
82.293,-6.753,2.181,41.0
82.681,-6.756,1.738,47.0
82.133,-6.683,1.269,15.0
81.481,-6.603,0.812,14.0
79.379,-6.406,0.356,25.0
82.502,-6.655,2.668,49.0
82.269,-6.607,2.209,38.0
82.646,-6.609,1.766,53.0
82.066,-6.535,1.295,15.0
81.652,-6.473,0.841,23.0
61.503,-4.855,0.296,18.0
82.544,-6.513,2.696,44.0
82.23,-6.458,2.234,39.0
82.508,-6.451,1.789,45.0
82.102,-6.391,1.322,9.0
82.001,-6.355,0.87,8.0
62.118,-4.793,0.318,1.0
82.641,-6.372,2.723,44.0
82.514,-6.332,2.265,38.0
82.677,-6.316,1.815,40.0
0.0,0.0,0.0,0.0
65.62,-4.967,0.713,0.0
65.634,-4.945,0.353,0.0
82.724,-6.229,2.747,37.0
82.566,-6.187,2.287,40.0
82.713,-6.168,1.836,44.0
83.127,-6.17,1.38,1.0
0.0,0.0,0.0,0.0
65.586,-4.822,0.367,0.0
82.773,-6.08,2.766,43.0
82.533,-6.032,2.304,47.0
82.493,-6.0,1.848,41.0
0.0,0.0,0.0,0.0
65.683,-4.731,0.742,0.0
65.52,-4.696,0.379,1.0
82.827,-5.93,2.783,45.0
82.603,-5.884,2.32,45.0
82.669,-5.858,1.866,41.0
0.0,0.0,0.0,0.0
65.531,-4.597,0.75,0.0
65.576,-4.578,0.389,150.0
83.128,-5.797,2.805,37.0
82.718,-5.737,2.334,35.0
83.217,-5.741,1.89,27.0
0.0,0.0,0.0,0.0
65.436,-4.468,0.757,0.0
65.582,-4.455,0.397,151.0
24.512,-1.663,0.829,25.0
24.588,-1.659,0.696,26.0
24.576,-1.649,0.56,25.0
24.573,-1.64,0.422,22.0
24.579,-1.631,0.286,20.0
24.552,-1.621,0.15,27.0
24.486,-1.614,0.83,52.0
24.541,-1.609,0.696,67.0
24.551,-1.6,0.561,43.0
24.553,-1.592,0.423,50.0
24.534,-1.581,0.287,39.0
24.524,-1.572,0.151,43.0
24.485,-1.567,0.831,71.0
24.524,-1.561,0.696,74.0
24.533,-1.552,0.561,62.0
24.532,-1.543,0.422,73.0
24.52,-1.533,0.287,68.0
24.503,-1.523,0.151,43.0
24.492,-1.52,0.831,68.0
24.53,-1.513,0.696,59.0
24.541,-1.505,0.56,74.0
24.534,-1.495,0.422,71.0
24.531,-1.486,0.286,75.0
24.516,-1.476,0.15,61.0
24.515,-1.473,0.83,73.0
24.555,-1.466,0.696,73.0
24.562,-1.458,0.559,64.0
24.56,-1.449,0.421,58.0
24.544,-1.439,0.284,47.0
24.542,-1.43,0.148,52.0
24.555,-1.428,0.83,51.0
24.602,-1.421,0.694,34.0
24.582,-1.411,0.558,21.0
24.582,-1.402,0.419,25.0
24.612,-1.394,0.282,31.0
24.586,-1.384,0.146,26.0
24.636,-1.384,0.829,3.0
83.796,-4.676,2.356,52.0
83.552,-4.631,1.884,37.0
0.0,0.0,0.0,0.0
0.0,0.0,0.0,0.0
65.725,-3.571,0.38,0.0
83.965,-4.549,2.814,38.0
84.302,-4.535,2.355,41.0
84.17,-4.497,1.884,39.0
86.049,-4.565,1.438,30.0
0.0,0.0,0.0,0.0
0.0,0.0,0.0,0.0
84.88,-4.428,2.827,49.0
84.464,-4.375,2.343,45.0
84.787,-4.36,1.879,43.0
86.082,-4.395,1.419,19.0
82.871,-4.2,0.905,13.0
67.313,-3.388,0.361,0.0
85.458,-4.286,2.825,48.0
84.822,-4.223,2.331,32.0
84.656,-4.185,1.855,40.0
83.193,-4.081,1.35,11.0
82.639,-4.025,0.881,7.0
68.791,-3.326,0.35,1.0
86.108,-4.148,2.823,26.0
84.898,-4.059,2.309,37.0
84.636,-4.016,1.83,36.0
83.333,-3.923,1.328,10.0
83.046,-3.879,0.86,20.0
31.264,-1.449,0.149,34.0
86.569,-3.997,2.81,14.0
85.075,-3.897,2.286,29.0
31.36,-1.425,0.667,4.0
31.259,-1.409,0.487,38.0
31.226,-1.396,0.312,37.0
31.222,-1.385,0.138,26.0
31.376,-1.386,1.007,5.0
28.453,-1.246,0.754,51.0
28.449,-1.235,0.595,65.0
28.431,-1.224,0.432,65.0
28.427,-1.214,0.273,93.0
28.451,-1.205,0.115,130.0
28.438,-1.198,0.901,105.0
28.427,-1.187,0.742,108.0
28.439,-1.177,0.583,127.0
28.449,-1.168,0.421,150.0
28.448,-1.157,0.262,150.0
28.437,-1.146,0.102,83.0
28.434,-1.141,0.889,89.0
28.449,-1.131,0.73,65.0
28.455,-1.121,0.57,67.0
28.439,-1.11,0.408,39.0
31.241,-1.208,0.273,38.0
31.263,-1.198,0.098,43.0
31.266,-1.191,0.962,46.0
31.281,-1.181,0.787,56.0
31.303,-1.17,0.612,56.0
31.316,-1.16,0.433,52.0
31.352,-1.15,0.258,6.0
80.392,-2.92,0.212,27.0
31.3,-1.13,0.947,55.0
31.333,-1.12,0.772,42.0
31.431,-1.112,0.598,2.0
84.304,-2.953,1.123,35.0
80.395,-2.788,0.62,26.0
80.511,-2.765,0.169,24.0
38.727,-1.321,1.151,5.0
38.684,-1.305,0.932,36.0
38.681,-1.292,0.714,35.0
38.705,-1.279,0.493,25.0
38.683,-1.264,0.276,56.0
38.687,-1.25,0.058,59.0
38.614,-1.24,1.124,66.0
38.626,-1.226,0.907,69.0
38.629,-1.212,0.69,71.0
38.615,-1.198,0.469,67.0
38.64,-1.186,0.252,69.0
38.654,-1.172,0.034,74.0
38.588,-1.162,1.099,73.0
38.643,-1.15,0.883,102.0
38.643,-1.136,0.666,96.0
38.645,-1.122,0.444,86.0
38.649,-1.109,0.227,90.0
38.665,-1.096,0.009,80.0
38.629,-1.086,1.074,82.0
38.63,-1.072,0.857,70.0
38.652,-1.059,0.639,67.0
38.645,-1.045,0.418,62.0
38.674,-1.032,0.2,55.0
38.687,-1.019,-0.017,37.0
38.645,-1.009,1.047,53.0
38.717,-0.997,0.831,39.0
0.0,0.0,0.0,0.0
40.413,-1.013,0.408,23.0
40.419,-1.0,0.18,27.0
40.412,-0.985,-0.047,36.0
38.717,-0.934,1.021,42.0
40.405,-0.961,0.837,40.0
40.399,-0.947,0.609,38.0
40.438,-0.934,0.377,153.0
40.42,-0.92,0.149,150.0
40.434,-0.906,-0.078,23.0
40.415,-0.895,1.034,22.0
38.39,-0.837,0.765,47.0
38.383,-0.824,0.548,40.0
38.376,-0.81,0.327,18.0
52.932,-1.1,0.152,19.0
52.924,-1.083,-0.145,13.0
38.331,-0.774,0.949,5.0
38.23,-0.759,0.73,1.0
53.02,-1.035,0.713,11.0
52.98,-1.016,0.408,21.0
53.026,-0.999,0.108,4.0
52.995,-0.98,-0.19,15.0
190.772,-3.478,4.562,29.0
191.629,-3.43,3.498,23.0
176.598,-3.101,2.223,20.0
20.127,-0.346,0.137,7.0
20.139,-0.34,0.023,51.0
59.549,-0.987,-0.266,6.0
59.528,-0.97,1.37,6.0
59.501,-0.95,1.033,9.0
20.128,-0.314,0.235,10.0
20.112,-0.307,0.119,13.0
59.512,-0.891,0.016,9.0
59.441,-0.871,-0.32,1.0
20.164,-0.289,0.445,7.0
20.122,-0.282,0.33,11.0
20.119,-0.275,0.216,11.0
20.144,-0.269,0.1,4.0
59.555,-0.777,-0.04,27.0
56.623,-0.72,-0.359,4.0
20.144,-0.25,0.425,13.0
20.129,-0.243,0.311,10.0
20.17,-0.237,0.197,3.0
56.097,-0.643,0.224,3.0
56.254,-0.627,-0.093,1.0
58.841,-0.637,-0.431,15.0
20.173,-0.212,0.406,21.0
53.375,-0.545,0.771,10.0
53.384,-0.528,0.468,11.0
53.382,-0.511,0.16,5.0
53.357,-0.494,-0.142,7.0
20.183,-0.18,-0.168,5.0
20.271,-0.175,0.387,16.0
20.25,-0.168,0.271,11.0
58.336,-0.468,0.451,7.0
20.144,-0.154,0.039,14.0
20.177,-0.148,-0.075,21.0
20.143,-0.142,-0.189,15.0
20.131,-0.136,0.362,17.0
20.123,-0.129,0.248,18.0
20.12,-0.123,0.133,18.0
20.133,-0.117,0.017,27.0
20.148,-0.111,-0.096,27.0
20.152,-0.105,-0.211,22.0
20.126,-0.099,0.34,32.0
20.124,-0.092,0.226,26.0
20.122,-0.086,0.111,34.0
20.114,-0.08,-0.004,34.0
20.144,-0.074,-0.119,32.0
20.156,-0.068,-0.233,19.0
20.126,-0.062,0.318,32.0
20.113,-0.056,0.203,31.0
20.126,-0.05,0.088,41.0
20.12,-0.044,-0.027,33.0
20.145,-0.038,-0.142,27.0
20.161,-0.032,-0.257,17.0
20.12,-0.025,0.294,28.0
20.109,-0.019,0.179,28.0
20.147,-0.013,0.065,28.0
20.273,-0.007,-0.051,78.0
20.263,-0.001,-0.167,150.0
20.269,0.004,-0.282,150.0
20.126,0.01,0.27,28.0
20.128,0.016,0.155,26.0
20.243,0.022,0.041,18.0
20.268,0.028,-0.076,83.0
20.24,0.034,-0.191,29.0
20.246,0.04,-0.307,1.0
20.142,0.046,0.245,29.0
20.153,0.052,0.131,28.0
20.207,0.058,0.016,31.0
20.191,0.064,-0.101,25.0
20.195,0.069,-0.216,13.0
20.12,0.075,-0.33,0.0
20.16,0.081,0.22,29.0
20.188,0.087,0.105,28.0
20.182,0.093,-0.009,27.0
20.168,0.098,-0.126,35.0
20.18,0.104,-0.241,27.0
20.206,0.11,-0.357,23.0
20.173,0.116,0.194,26.0
20.207,0.122,0.079,30.0
20.194,0.127,-0.035,25.0
20.174,0.133,-0.152,31.0
20.169,0.139,-0.268,34.0
20.183,0.144,-0.383,27.0
20.21,0.151,0.168,25.0
20.27,0.157,0.053,22.0
20.209,0.162,-0.062,19.0
20.166,0.167,-0.179,18.0
20.177,0.173,-0.295,33.0
20.174,0.178,-0.41,37.0
20.31,0.185,0.142,31.0
20.332,0.191,0.026,29.0
20.239,0.195,-0.089,0.0
20.161,0.2,-0.206,17.0
20.177,0.206,-0.322,27.0
20.186,0.211,-0.437,25.0
20.314,0.219,0.114,17.0
99.619,1.102,-0.008,3.0
0.0,0.0,0.0,0.0
20.198,0.234,-0.234,9.0
20.205,0.239,-0.35,23.0
20.184,0.245,-0.466,16.0
99.589,1.236,0.422,6.0
0.0,0.0,0.0,0.0
0.0,0.0,0.0,0.0
0.0,0.0,0.0,0.0
20.201,0.272,-0.379,1.0
20.218,0.277,-0.495,1.0
99.677,1.397,0.28,5.0
0.0,0.0,0.0,0.0
0.0,0.0,0.0,0.0
0.0,0.0,0.0,0.0
38.785,0.584,-0.783,0.0
32.597,0.498,-0.845,0.0
99.752,1.554,0.137,4.0
0.0,0.0,0.0,0.0
0.0,0.0,0.0,0.0
0.0,0.0,0.0,0.0
0.0,0.0,0.0,0.0
31.571,0.531,-0.865,1.0
99.912,1.709,-0.009,6.0
0.0,0.0,0.0,0.0
0.0,0.0,0.0,0.0
42.973,0.767,-0.748,0.0
0.0,0.0,0.0,0.0
30.263,0.555,-0.874,0.0
0.0,0.0,0.0,0.0
0.0,0.0,0.0,0.0
0.0,0.0,0.0,0.0
0.0,0.0,0.0,0.0
33.611,0.658,-0.828,0.0
28.944,0.574,-0.879,0.0
0.0,0.0,0.0,0.0
0.0,0.0,0.0,0.0
0.0,0.0,0.0,0.0
0.0,0.0,0.0,0.0
32.289,0.679,-0.845,1.0
27.267,0.58,-0.87,0.0
0.0,0.0,0.0,0.0
0.0,0.0,0.0,0.0
0.0,0.0,0.0,0.0
0.0,0.0,0.0,0.0
31.348,0.704,-0.869,1.0
26.389,0.599,-0.883,0.0
0.0,0.0,0.0,0.0
0.0,0.0,0.0,0.0
0.0,0.0,0.0,0.0
0.0,0.0,0.0,0.0
29.512,0.705,-0.865,0.0
25.549,0.615,-0.896,0.0
0.0,0.0,0.0,0.0
0.0,0.0,0.0,0.0
39.191,0.972,-0.756,0.0
32.684,0.817,-0.821,0.0
28.333,0.715,-0.875,0.0
24.492,0.623,-0.897,0.0
0.0,0.0,0.0,0.0
0.0,0.0,0.0,0.0
37.683,0.985,-0.787,0.0
31.871,0.839,-0.852,1.0
26.827,0.712,-0.872,0.0
23.547,0.631,-0.901,0.0
0.0,0.0,0.0,0.0
0.0,0.0,0.0,0.0
0.0,0.0,0.0,0.0
30.443,0.841,-0.863,1.0
25.937,0.722,-0.885,0.0
22.634,0.635,-0.903,0.0
0.0,0.0,0.0,0.0
0.0,0.0,0.0,0.0
33.556,0.962,-0.81,0.0
28.88,0.834,-0.866,0.0
24.913,0.725,-0.891,0.0
21.983,0.644,-0.913,0.0
0.0,0.0,0.0,0.0
0.0,0.0,0.0,0.0
32.334,0.967,-0.834,1.0
28.177,0.849,-0.892,0.0
23.932,0.726,-0.895,0.0
21.043,0.642,-0.909,0.0
0.0,0.0,0.0,0.0
36.99,1.144,-0.802,0.0
30.287,0.943,-0.832,0.0
26.253,0.822,-0.875,0.0
22.868,0.721,-0.894,0.0
20.42,0.648,-0.916,0.0
0.0,0.0,0.0,0.0
35.075,1.125,-0.819,0.0
30.065,0.971,-0.876,1.0
25.193,0.818,-0.882,0.0
22.279,0.728,-0.909,0.0
19.788,0.65,-0.921,0.0
0.0,0.0,0.0,0.0
32.65,1.085,-0.819,1.0
28.294,0.945,-0.873,0.0
24.167,0.812,-0.887,0.0
21.305,0.72,-0.905,0.0
18.76,0.638,-0.906,0.0
36.59,1.25,-0.769,0.0
31.836,1.093,-0.853,0.0
26.723,0.923,-0.87,0.0
23.211,0.805,-0.892,0.0
20.64,0.72,-0.913,0.0
18.389,0.645,-0.92,0.0
35.545,1.252,-0.809,0.0
30.047,1.064,-0.857,1.0
25.729,0.915,-0.882,0.0
22.416,0.801,-0.901,0.0
19.932,0.716,-0.916,0.0
17.965,0.649,-0.929,0.0
33.003,1.197,-0.808,0.0
28.553,1.04,-0.864,0.0
24.586,0.9,-0.886,0.0
21.653,0.796,-0.907,0.0
19.147,0.707,-0.913,0.0
17.334,0.643,-0.927,0.0
32.095,1.195,-0.842,0.0
26.93,1.007,-0.862,0.0
23.65,0.888,-0.893,0.0
20.654,0.779,-0.902,0.0
18.545,0.703,-0.917,0.0
16.796,0.639,-0.928,0.0
30.091,1.149,-0.842,1.0
0.0,0.0,0.0,0.0
22.628,0.871,-0.894,0.0
20.199,0.781,-0.917,3.0
18.074,0.702,-0.925,0.0
16.318,0.636,-0.93,0.0
28.954,1.132,-0.861,0.0
24.559,0.964,-0.872,0.0
22.009,0.867,-0.909,0.0
19.47,0.77,-0.918,0.0
17.404,0.691,-0.922,0.0
15.979,0.637,-0.939,0.0
27.752,1.109,-0.874,0.0
20.377,0.818,-0.759,0.0
20.263,0.816,-0.872,2.0
18.618,0.753,-0.911,0.0
16.909,0.686,-0.926,0.0
15.425,0.628,-0.934,0.0
0.0,0.0,0.0,0.0
22.511,0.922,-0.879,1.0
20.178,0.829,-0.905,7.0
18.133,0.748,-0.92,0.0
16.409,0.679,-0.927,0.0
15.075,0.626,-0.939,0.0
20.235,0.842,-0.709,4.0
20.244,0.845,-0.826,7.0
19.886,0.833,-0.927,0.0
20.22,0.85,-1.061,0.0
16.018,0.675,-0.934,0.0
14.655,0.62,-0.939,0.0
20.252,0.858,-0.746,152.0
20.221,0.859,-0.861,20.0
0.0,0.0,0.0,0.0
20.208,0.864,-1.097,1.0
15.522,0.666,-0.932,0.0
14.335,0.617,-0.944,0.0
20.219,0.871,-0.78,154.0
20.197,0.873,-0.896,27.0
20.213,0.876,-1.014,1.0
16.496,0.717,-0.925,0.0
15.138,0.66,-0.937,0.0
20.175,0.882,-1.366,0.0
20.236,0.885,-0.817,67.0
20.059,0.88,-0.926,9.0
20.225,0.89,-1.051,41.0
16.084,0.709,-0.93,0.0
14.745,0.652,-0.939,0.0
20.238,0.898,-1.406,0.0
20.229,0.898,-0.852,75.0
19.765,0.879,-0.947,3.0
20.212,0.902,-1.086,20.0
15.603,0.698,-0.93,0.0
14.455,0.648,-0.946,0.0
13.27,0.597,-0.945,0.0
20.222,0.909,-0.888,65.0
0.0,0.0,0.0,0.0
16.633,0.752,-0.923,0.0
15.196,0.688,-0.933,0.0
20.236,0.919,-1.36,0.0
12.95,0.59,-0.946,0.0
20.191,0.919,-0.923,24.0
20.206,0.922,-1.04,8.0
16.187,0.74,-0.927,0.0
14.841,0.68,-0.937,0.0
20.19,0.928,-1.393,0.0
12.647,0.582,-0.946,0.0
20.129,0.927,-0.955,12.0
20.213,0.933,-1.076,6.0
15.759,0.728,-0.93,0.0
14.47,0.67,-0.94,0.0
13.336,0.619,-0.944,0.0
12.379,0.576,-0.948,0.0
20.214,0.94,-0.995,5.0
16.746,0.78,-0.921,0.0
15.284,0.714,-0.93,0.0
14.216,0.665,-0.948,0.0
13.028,0.611,-0.945,0.0
12.046,0.566,-0.944,0.0
20.219,0.949,-1.031,1.0
16.273,0.765,-0.924,0.0
14.917,0.703,-0.934,0.0
13.778,0.65,-0.944,0.0
12.709,0.601,-0.944,0.0
11.778,0.558,-0.944,0.0
20.21,0.956,-1.066,0.0
15.894,0.753,-0.93,0.0
14.549,0.691,-0.936,0.0
13.427,0.639,-0.943,0.0
12.415,0.592,-0.944,0.0
11.547,0.551,-0.946,0.0
16.903,0.806,-0.921,0.0
15.398,0.735,-0.928,0.0
14.306,0.684,-0.945,0.0
13.058,0.626,-0.94,0.0
12.173,0.584,-0.947,0.0
11.278,0.542,-0.943,0.0
16.409,0.787,-0.923,0.0
15.005,0.721,-0.931,0.0
0.0,0.0,0.0,0.0
12.748,0.614,-0.94,0.0
11.824,0.571,-0.941,0.0
11.047,0.534,-0.943,0.0
15.988,0.771,-0.927,0.0
14.633,0.707,-0.933,0.0
13.455,0.651,-0.936,0.0
12.503,0.606,-0.944,0.0
11.645,0.565,-0.947,0.0
10.85,0.527,-0.946,0.0
15.497,0.751,-0.925,0.0
14.363,0.697,-0.941,0.0
13.18,0.64,-0.94,0.0
12.225,0.595,-0.944,0.0
11.36,0.553,-0.943,0.0
10.658,0.52,-0.947,0.0
15.137,0.737,-0.93,0.0
0.0,0.0,0.0,0.0
12.886,0.628,-0.941,0.0
11.905,0.581,-0.94,0.0
11.174,0.546,-0.947,0.0
10.436,0.511,-0.945,0.0
14.748,0.72,-0.931,0.0
13.611,0.665,-0.938,0.0
12.616,0.617,-0.943,0.0
11.653,0.57,-0.94,0.0
10.974,0.538,-0.949,0.0
10.287,0.505,-0.95,0.0
14.4,0.704,-0.933,0.0
13.277,0.65,-0.938,0.0
12.315,0.603,-0.941,0.0
11.426,0.56,-0.941,0.0
10.741,0.527,-0.947,0.0
10.068,0.495,-0.946,0.0
14.197,0.695,-0.944,0.0
13.004,0.637,-0.94,0.0
12.028,0.59,-0.939,0.0
11.213,0.55,-0.942,0.0
10.496,0.516,-0.943,0.0
9.911,0.487,-0.948,0.0
0.0,0.0,0.0,0.0
12.712,0.623,-0.94,0.0
11.786,0.578,-0.94,0.0
10.984,0.539,-0.941,0.0
10.347,0.508,-0.947,0.0
9.729,0.478,-0.947,0.0
13.326,0.653,-0.93,0.0
12.444,0.61,-0.941,0.0
11.6,0.569,-0.944,0.0
10.864,0.533,-0.948,0.0
10.162,0.499,-0.946,0.0
9.541,0.469,-0.944,0.0
13.156,0.644,-0.939,0.0
12.169,0.596,-0.939,0.0
11.371,0.557,-0.944,0.0
10.571,0.518,-0.94,0.0
9.992,0.49,-0.947,0.0
9.383,0.46,-0.944,0.0
12.84,0.627,-0.937,0.0
11.919,0.582,-0.939,0.0
11.135,0.544,-0.942,0.0
10.4,0.508,-0.941,0.0
9.826,0.481,-0.947,0.0
9.24,0.452,-0.944,0.0
12.604,0.614,-0.94,0.0
11.68,0.569,-0.939,0.0
10.916,0.532,-0.941,0.0
10.235,0.499,-0.943,0.0
9.667,0.471,-0.947,0.0
9.052,0.442,-0.939,0.0
12.376,0.601,-0.942,0.0
11.491,0.558,-0.942,0.0
10.696,0.519,-0.939,0.0
10.059,0.488,-0.942,0.0
9.507,0.462,-0.946,0.0
8.949,0.435,-0.943,0.0
12.082,0.584,-0.939,0.0
11.29,0.546,-0.943,0.0
10.59,0.512,-0.946,0.0
9.94,0.48,-0.947,0.0
9.382,0.454,-0.948,0.0
8.783,0.425,-0.939,0.0
11.853,0.57,-0.939,0.0
11.114,0.534,-0.945,0.0
10.397,0.5,-0.944,0.0
9.755,0.469,-0.943,0.0
9.213,0.443,-0.945,0.0
8.69,0.418,-0.942,0.0
11.62,0.556,-0.938,0.0
0.0,0.0,0.0,0.0
10.217,0.488,-0.943,0.0
9.621,0.46,-0.945,0.0
9.041,0.432,-0.941,0.0
8.585,0.41,-0.943,0.0
11.461,0.544,-0.942,0.0
10.638,0.505,-0.936,0.0
10.081,0.478,-0.945,0.0
9.489,0.45,-0.946,0.0
8.911,0.423,-0.94,0.0
8.469,0.402,-0.943,0.0
11.272,0.531,-0.943,0.0
10.526,0.496,-0.941,0.0
9.912,0.467,-0.944,0.0
9.345,0.44,-0.945,0.0
8.779,0.413,-0.939,0.0
8.374,0.394,-0.944,0.0
10.997,0.514,-0.935,0.0
10.383,0.485,-0.943,0.0
9.781,0.457,-0.945,0.0
9.197,0.429,-0.943,0.0
8.71,0.406,-0.944,0.0
8.226,0.384,-0.939,0.0
10.873,0.504,-0.94,0.0
10.24,0.474,-0.944,0.0
9.636,0.446,-0.944,0.0
9.046,0.418,-0.94,0.0
8.604,0.398,-0.944,0.0
8.14,0.376,-0.941,0.0
10.71,0.491,-0.94,0.0
10.063,0.461,-0.941,0.0
9.492,0.435,-0.943,0.0
8.943,0.409,-0.941,0.0
8.47,0.387,-0.941,0.0
8.106,0.37,-0.948,0.0
10.587,0.481,-0.943,0.0
9.914,0.45,-0.941,0.0
9.374,0.425,-0.944,0.0
8.806,0.399,-0.939,0.0
8.394,0.38,-0.944,0.0
7.982,0.361,-0.944,0.0
10.411,0.467,-0.941,0.0
9.807,0.44,-0.943,0.0
9.226,0.413,-0.941,0.0
8.706,0.389,-0.939,0.0
8.319,0.372,-0.946,0.0
7.89,0.352,-0.943,0.0
10.287,0.456,-0.943,0.0
9.682,0.429,-0.944,0.0
9.156,0.405,-0.945,0.0
8.593,0.38,-0.938,0.0
8.178,0.361,-0.94,0.0
7.818,0.344,-0.945,0.0
10.13,0.443,-0.941,0.0
9.526,0.416,-0.94,0.0
8.986,0.392,-0.939,0.0
8.511,0.371,-0.94,0.0
8.099,0.352,-0.941,0.0
7.704,0.335,-0.94,0.0
9.991,0.431,-0.94,0.0
9.428,0.406,-0.942,0.0
8.884,0.382,-0.939,0.0
8.42,0.361,-0.94,0.0
8.033,0.344,-0.943,0.0
7.695,0.329,-0.948,0.0
9.87,0.419,-0.941,0.0
9.299,0.394,-0.94,0.0
8.761,0.371,-0.936,0.0
8.327,0.352,-0.939,0.0
7.941,0.335,-0.942,0.0
7.564,0.319,-0.941,0.0
9.79,0.409,-0.944,0.0
9.198,0.384,-0.94,0.0
8.687,0.362,-0.938,0.0
8.274,0.344,-0.942,0.0
7.898,0.328,-0.945,0.0
7.56,0.313,-0.949,0.0
9.667,0.397,-0.943,0.0
9.105,0.373,-0.941,0.0
8.59,0.352,-0.937,0.0
8.155,0.333,-0.938,0.0
7.783,0.317,-0.94,0.0
7.479,0.304,-0.947,0.0
9.549,0.385,-0.942,0.0
9.0,0.362,-0.94,0.0
8.531,0.343,-0.94,0.0
8.109,0.325,-0.941,0.0
7.753,0.31,-0.945,0.0
7.438,0.297,-0.95,0.0
9.428,0.373,-0.94,0.0
8.918,0.352,-0.94,0.0
8.427,0.332,-0.937,0.0
8.022,0.315,-0.939,0.0
7.709,0.302,-0.947,0.0
7.352,0.288,-0.946,0.0
9.344,0.362,-0.941,0.0
8.849,0.342,-0.942,0.0
8.357,0.323,-0.938,0.0
7.98,0.307,-0.942,0.0
7.655,0.294,-0.948,0.0
7.286,0.279,-0.945,0.0
9.259,0.352,-0.941,0.0
8.761,0.332,-0.941,0.0
8.298,0.313,-0.939,0.0
7.9,0.298,-0.94,0.0
7.594,0.285,-0.948,0.0
7.26,0.272,-0.948,0.0
9.169,0.341,-0.94,0.0
8.631,0.32,-0.935,0.0
8.247,0.305,-0.941,0.0
7.862,0.289,-0.943,0.0
7.497,0.275,-0.943,0.0
7.231,0.265,-0.951,0.0
9.076,0.329,-0.939,0.0
8.595,0.311,-0.938,0.0
8.155,0.294,-0.937,0.0
7.789,0.28,-0.941,0.0
7.458,0.267,-0.944,0.0
7.183,0.257,-0.951,0.0
9.007,0.319,-0.939,0.0
8.502,0.3,-0.935,0.0
8.13,0.286,-0.941,0.0
7.739,0.271,-0.941,0.0
7.438,0.26,-0.948,0.0
7.134,0.249,-0.95,0.0
8.933,0.308,-0.939,0.0
8.484,0.292,-0.94,0.0
8.08,0.277,-0.942,0.0
7.685,0.262,-0.941,0.0
7.412,0.252,-0.95,0.0
7.079,0.24,-0.949,0.0
8.903,0.299,-0.942,0.0
8.405,0.281,-0.938,0.0
8.007,0.267,-0.939,0.0
7.64,0.254,-0.941,0.0
7.328,0.242,-0.945,0.0
7.098,0.234,-0.957,0.0
8.796,0.287,-0.937,0.0
8.426,0.274,-0.946,0.0
7.97,0.258,-0.941,0.0
7.616,0.245,-0.944,0.0
7.293,0.234,-0.946,0.0
6.993,0.224,-0.947,0.0
8.732,0.276,-0.936,0.0
8.269,0.26,-0.934,0.0
7.901,0.248,-0.938,0.0
7.603,0.238,-0.947,0.0
7.242,0.225,-0.944,0.0
6.994,0.217,-0.952,0.0
8.692,0.266,-0.938,0.0
8.265,0.252,-0.939,0.0
7.881,0.239,-0.941,0.0
7.53,0.228,-0.943,0.0
7.268,0.219,-0.952,0.0
6.983,0.209,-0.955,0.0
8.651,0.256,-0.938,0.0
8.218,0.242,-0.939,0.0
7.838,0.23,-0.94,0.0
7.463,0.218,-0.939,0.0
7.197,0.209,-0.947,0.0
6.904,0.2,-0.948,0.0
8.593,0.246,-0.937,0.0
8.181,0.233,-0.939,0.0
7.812,0.221,-0.941,0.0
7.469,0.21,-0.943,0.0
7.167,0.201,-0.946,0.0
6.84,0.191,-0.943,0.0
8.57,0.236,-0.939,0.0
8.14,0.223,-0.938,0.0
7.778,0.212,-0.941,0.0
7.452,0.202,-0.945,0.0
7.114,0.192,-0.943,0.0
0.0,0.0,0.0,0.0
8.556,0.227,-0.941,0.0
8.125,0.214,-0.94,0.0
7.768,0.204,-0.943,0.0
7.388,0.193,-0.94,0.0
7.145,0.185,-0.95,0.0
6.858,0.177,-0.952,0.0
8.467,0.216,-0.935,0.0
8.09,0.205,-0.939,0.0
7.724,0.194,-0.941,0.0
7.371,0.184,-0.941,0.0
7.092,0.176,-0.946,0.0
0.0,0.0,0.0,0.0
8.47,0.206,-0.939,0.0
8.087,0.196,-0.942,0.0
7.746,0.186,-0.947,0.0
7.375,0.176,-0.944,0.0
7.118,0.169,-0.952,0.0
6.831,0.161,-0.953,0.0
8.418,0.196,-0.936,0.0
8.033,0.186,-0.938,0.0
7.686,0.176,-0.942,0.0
7.351,0.168,-0.943,0.0
7.04,0.159,-0.944,0.0
6.796,0.153,-0.95,0.0
8.427,0.187,-0.939,0.0
8.038,0.177,-0.941,0.0
7.662,0.167,-0.941,0.0
7.326,0.159,-0.942,0.0
7.054,0.152,-0.947,0.0
6.77,0.145,-0.948,0.0
8.392,0.177,-0.937,0.0
7.973,0.167,-0.935,0.0
7.661,0.159,-0.942,0.0
0.0,0.0,0.0,0.0
7.091,0.145,-0.954,0.0
6.798,0.137,-0.953,0.0
8.361,0.167,-0.935,0.0
8.002,0.158,-0.94,0.0
7.666,0.15,-0.944,0.0
7.324,0.142,-0.945,0.0
7.062,0.136,-0.951,0.0
6.79,0.13,-0.953,0.0
8.395,0.158,-0.94,0.0
7.976,0.149,-0.938,0.0
7.662,0.142,-0.945,0.0
7.263,0.133,-0.938,0.0
0.0,0.0,0.0,0.0
6.771,0.122,-0.951,0.0
8.364,0.148,-0.938,0.0
7.989,0.14,-0.941,0.0
7.644,0.133,-0.943,0.0
0.0,0.0,0.0,0.0
0.0,0.0,0.0,0.0
6.762,0.114,-0.95,0.0
8.382,0.139,-0.94,0.0
7.976,0.131,-0.939,0.0
7.624,0.124,-0.941,0.0
7.329,0.117,-0.947,0.0
0.0,0.0,0.0,0.0
6.756,0.106,-0.95,0.0
8.392,0.129,-0.941,0.0
7.965,0.121,-0.938,0.0
7.671,0.115,-0.947,0.0
0.0,0.0,0.0,0.0
7.032,0.103,-0.948,0.0
6.786,0.098,-0.954,0.0
8.388,0.12,-0.94,0.0
7.988,0.113,-0.941,0.0
7.637,0.106,-0.942,0.0
0.0,0.0,0.0,0.0
7.008,0.095,-0.945,0.0
6.77,0.09,-0.951,0.0
8.392,0.11,-0.94,0.0
7.993,0.103,-0.94,0.0
7.631,0.097,-0.941,0.0
7.328,0.092,-0.945,0.0
0.0,0.0,0.0,0.0
6.807,0.083,-0.955,0.0
8.383,0.101,-0.938,0.0
8.0,0.095,-0.94,0.0
7.659,0.089,-0.943,0.0
7.325,0.084,-0.944,0.0
0.0,0.0,0.0,0.0
6.8,0.075,-0.953,0.0
8.385,0.091,-0.937,0.0
8.018,0.086,-0.941,0.0
7.683,0.081,-0.945,0.0
7.311,0.075,-0.941,0.0
7.058,0.071,-0.948,0.0
6.808,0.067,-0.953,0.0
8.405,0.082,-0.937,0.0
8.031,0.077,-0.94,0.0
7.674,0.072,-0.942,0.0
7.318,0.067,-0.94,0.0
7.028,0.063,-0.942,0.0
6.791,0.059,-0.949,0.0
8.422,0.072,-0.937,0.0
8.067,0.068,-0.942,0.0
7.718,0.063,-0.945,0.0
0.0,0.0,0.0,0.0
7.038,0.055,-0.941,0.0
6.845,0.052,-0.954,0.0
8.471,0.063,-0.94,0.0
8.056,0.058,-0.939,0.0
7.723,0.055,-0.943,0.0
7.381,0.051,-0.943,0.0
0.0,0.0,0.0,0.0
6.844,0.044,-0.952,0.0
8.47,0.054,-0.936,0.0
8.084,0.05,-0.939,0.0
7.73,0.046,-0.941,0.0
0.0,0.0,0.0,0.0
7.146,0.04,-0.951,0.0
6.868,0.037,-0.952,0.0
8.523,0.044,-0.939,0.0
8.126,0.041,-0.94,0.0
7.763,0.037,-0.942,0.0
7.419,0.034,-0.942,0.0
7.172,0.032,-0.951,0.0
6.897,0.029,-0.953,0.0
8.533,0.035,-0.936,0.0
8.139,0.032,-0.938,0.0
7.788,0.029,-0.941,0.0
7.486,0.026,-0.947,0.0
7.167,0.024,-0.947,0.0
6.925,0.021,-0.953,0.0
8.562,0.026,-0.935,0.0
8.187,0.023,-0.939,0.0
7.845,0.02,-0.944,0.0
7.475,0.018,-0.942,0.0
7.204,0.016,-0.948,0.0
6.918,0.014,-0.949,0.0
8.662,0.016,-0.941,0.0
8.237,0.014,-0.941,0.0
7.841,0.012,-0.939,0.0
7.532,0.01,-0.945,0.0
7.223,0.008,-0.946,0.0
7.013,0.006,-0.958,0.0
8.68,0.007,-0.938,0.0
8.325,0.005,-0.946,0.0
7.905,0.003,-0.942,0.0
7.533,0.001,-0.94,0.0
7.24,0.0,-0.944,0.0
6.979,-0.001,-0.949,0.0
8.749,-0.002,-0.94,0.0
8.306,-0.003,-0.938,0.0
7.959,-0.005,-0.943,0.0
7.591,-0.006,-0.942,0.0
7.296,-0.007,-0.946,0.0
7.013,-0.008,-0.949,0.0
8.778,-0.011,-0.937,0.0
8.353,-0.012,-0.938,0.0
7.97,-0.013,-0.939,0.0
7.629,-0.014,-0.942,0.0
7.35,-0.015,-0.948,0.0
7.052,-0.016,-0.949,0.0
8.859,-0.02,-0.94,0.0
8.434,-0.021,-0.941,0.0
8.008,-0.022,-0.937,0.0
7.678,-0.022,-0.942,0.0
7.396,-0.023,-0.948,0.0
7.123,-0.023,-0.953,0.0
8.933,-0.03,-0.941,0.0
8.497,-0.03,-0.941,0.0
8.081,-0.03,-0.94,0.0
7.707,-0.03,-0.939,0.0
7.441,-0.031,-0.948,0.0
7.149,-0.031,-0.95,0.0
8.97,-0.039,-0.937,0.0
8.521,-0.039,-0.937,0.0
8.131,-0.039,-0.939,0.0
7.791,-0.039,-0.943,0.0
7.466,-0.038,-0.945,0.0
7.189,-0.038,-0.95,0.0
9.093,-0.049,-0.943,0.0
8.619,-0.048,-0.94,0.0
8.2,-0.047,-0.94,0.0
7.822,-0.047,-0.94,0.0
7.527,-0.046,-0.946,0.0
7.23,-0.046,-0.949,0.0
9.16,-0.059,-0.941,0.0
8.685,-0.057,-0.94,0.0
8.267,-0.056,-0.94,0.0
7.876,-0.055,-0.939,0.0
7.574,-0.054,-0.945,0.0
7.28,-0.053,-0.948,0.0
9.233,-0.068,-0.94,0.0
8.767,-0.066,-0.94,0.0
8.307,-0.064,-0.936,0.0
7.974,-0.063,-0.943,0.0
7.641,-0.062,-0.946,0.0
7.338,-0.061,-0.949,0.0
9.342,-0.078,-0.942,0.0
8.844,-0.075,-0.94,0.0
8.396,-0.073,-0.938,0.0
8.037,-0.072,-0.943,0.0
7.672,-0.07,-0.942,0.0
7.401,-0.069,-0.949,0.0
9.456,-0.088,-0.944,0.0
8.965,-0.085,-0.944,0.0
8.469,-0.082,-0.938,0.0
8.091,-0.08,-0.941,0.0
7.754,-0.078,-0.944,0.0
7.452,-0.076,-0.948,0.0
9.558,-0.097,-0.944,0.0
9.042,-0.094,-0.942,0.0
8.59,-0.091,-0.942,0.0
8.179,-0.088,-0.942,0.0
7.816,-0.085,-0.943,0.0
7.49,-0.083,-0.944,0.0
9.712,-0.108,-0.949,0.0
9.109,-0.103,-0.939,0.0
8.668,-0.099,-0.941,0.0
8.257,-0.096,-0.942,0.0
7.927,-0.094,-0.947,0.0
7.576,-0.091,-0.946,0.0
9.799,-0.117,-0.946,0.0
9.246,-0.112,-0.943,0.0
8.749,-0.108,-0.939,0.0
8.326,-0.104,-0.94,0.0
7.979,-0.101,-0.944,0.0
7.63,-0.098,-0.944,0.0
9.932,-0.128,-0.947,0.0
9.349,-0.122,-0.942,0.0
8.849,-0.117,-0.94,0.0
8.458,-0.113,-0.945,0.0
8.048,-0.109,-0.942,0.0
7.733,-0.106,-0.948,0.0
10.073,-0.138,-0.949,0.0
9.521,-0.132,-0.948,0.0
8.996,-0.126,-0.944,0.0
8.527,-0.121,-0.942,0.0
8.171,-0.117,-0.947,0.0
7.79,-0.113,-0.945,0.0
10.218,-0.148,-0.95,0.0
9.629,-0.141,-0.947,0.0
9.13,-0.135,-0.947,0.0
8.603,-0.129,-0.939,0.0
8.232,-0.125,-0.943,0.0
7.858,-0.12,-0.943,0.0
10.337,-0.158,-0.947,0.0
9.76,-0.15,-0.947,0.0
9.215,-0.143,-0.944,0.0
8.718,-0.137,-0.94,0.0
8.313,-0.132,-0.942,0.0
7.953,-0.128,-0.944,0.0
10.492,-0.168,-0.948,0.0
9.956,-0.161,-0.953,0.0
9.357,-0.153,-0.946,0.0
8.85,-0.146,-0.943,0.0
8.473,-0.141,-0.948,0.0
8.02,-0.135,-0.941,0.0
10.689,-0.179,-0.951,0.0
10.057,-0.17,-0.949,0.0
9.484,-0.162,-0.945,0.0
8.995,-0.155,-0.946,0.0
8.562,-0.148,-0.946,0.0
8.155,-0.143,-0.945,0.0
10.854,-0.189,-0.951,0.0
10.216,-0.179,-0.95,0.0
9.625,-0.171,-0.946,0.0
9.156,-0.164,-0.95,0.0
8.647,-0.156,-0.944,0.0
8.259,-0.15,-0.946,0.0
11.015,-0.199,-0.95,0.0
10.374,-0.189,-0.95,0.0
9.812,-0.18,-0.951,0.0
9.273,-0.172,-0.949,0.0
8.777,-0.164,-0.945,0.0
8.348,-0.157,-0.944,0.0
11.174,-0.209,-0.947,0.0
10.539,-0.199,-0.949,0.0
9.953,-0.189,-0.95,0.0
9.398,-0.18,-0.948,0.0
8.919,-0.172,-0.947,0.0
8.489,-0.165,-0.947,0.0
11.389,-0.22,-0.949,0.0
10.782,-0.21,-0.955,0.0
10.11,-0.198,-0.95,0.0
