X,Y,Z,Reflectivity
102.046,1.3,5.34,13.0
110.294,1.401,5.116,10.0
103.972,1.317,4.214,29.0
140.059,1.77,4.861,17.0
67.507,0.86,4.186,8.0
66.331,0.842,3.723,41.0
69.292,0.877,3.484,4.0
110.282,1.392,4.889,15.0
133.273,1.677,5.13,16.0
118.123,1.482,3.857,21.0
67.425,0.851,4.042,33.0
66.08,0.831,3.574,10.0
124.87,1.567,6.025,20.0
126.95,1.587,5.369,6.0
117.849,1.468,4.295,23.0
125.099,1.552,3.828,9.0
67.173,0.838,3.888,33.0
102.057,1.269,5.311,12.0
124.914,1.547,5.769,14.0
103.922,1.282,4.18,30.0
140.17,1.722,4.819,7.0
20.274,0.248,0.578,14.0
66.16,0.814,3.693,31.0
111.627,1.367,5.576,10.0
110.265,1.344,4.864,16.0
103.953,1.262,3.968,17.0
118.11,1.427,3.818,10.0
20.286,0.244,0.537,25.0
66.032,0.797,3.55,7.0
132.807,1.597,6.363,7.0
124.929,1.494,5.253,17.0
117.877,1.403,4.258,17.0
20.282,0.24,0.614,2.0
20.279,0.239,0.495,25.0
102.058,1.207,5.279,13.0
126.507,1.488,5.803,14.0
124.841,1.46,4.996,18.0
133.338,1.551,4.544,30.0
20.269,0.234,0.572,19.0
20.277,0.233,0.454,26.0
109.157,1.258,5.42,3.0
126.511,1.449,5.541,17.0
103.968,1.183,3.944,44.0
133.298,1.508,4.265,14.0
20.264,0.227,0.53,25.0
20.269,0.226,0.411,30.0
111.553,1.247,5.306,20.0
126.566,1.406,5.28,27.0
103.632,1.143,3.716,22.0
20.262,0.222,0.606,11.0
20.263,0.22,0.488,26.0
20.275,0.219,0.369,34.0
111.607,1.206,5.078,10.0
132.526,1.421,5.254,18.0
117.971,1.256,3.988,22.0
20.238,0.213,0.563,20.0
20.269,0.212,0.446,31.0
20.28,0.21,0.328,32.0
110.35,1.146,4.792,18.0
103.992,1.072,3.908,18.0
20.278,0.207,0.643,2.0
20.261,0.205,0.522,29.0
20.271,0.203,0.404,36.0
20.283,0.202,0.286,25.0
111.767,1.111,4.624,6.0
103.861,1.023,3.69,22.0
20.267,0.197,0.601,15.0
20.263,0.195,0.481,29.0
20.28,0.194,0.363,31.0
20.291,0.192,0.245,27.0
126.598,1.196,4.978,30.0
103.448,0.968,3.464,32.0
20.264,0.187,0.56,25.0
20.267,0.185,0.439,29.0
20.278,0.184,0.322,28.0
20.303,0.182,0.203,28.0
150.325,1.342,5.603,16.0
20.273,0.178,0.637,9.0
20.264,0.176,0.518,28.0
20.252,0.174,0.397,26.0
20.261,0.172,0.279,26.0
20.27,0.17,0.161,24.0
126.21,1.054,4.442,22.0
20.235,0.167,0.594,14.0
20.213,0.164,0.475,19.0
20.197,0.162,0.355,23.0
20.183,0.159,0.236,18.0
20.221,0.158,0.119,24.0
117.711,0.912,3.901,6.0
20.184,0.154,0.551,17.0
20.172,0.151,0.433,23.0
20.177,0.149,0.313,23.0
20.177,0.147,0.195,22.0
20.218,0.145,0.078,29.0
20.221,0.143,0.629,9.0
20.159,0.141,0.509,19.0
20.163,0.138,0.391,23.0
20.165,0.136,0.272,24.0
20.173,0.134,0.154,24.0
20.198,0.131,0.037,28.0
20.195,0.13,0.587,16.0
20.159,0.127,0.468,23.0
20.169,0.124,0.351,27.0
20.158,0.122,0.232,24.0
20.197,0.12,0.114,28.0
20.174,0.117,-0.003,26.0
20.184,0.115,0.546,24.0
20.166,0.112,0.428,27.0
20.155,0.11,0.31,27.0
20.154,0.107,0.191,26.0
20.195,0.105,0.074,36.0
20.185,0.102,-0.043,36.0
20.172,0.1,0.505,25.0
20.156,0.097,0.387,27.0
20.16,0.095,0.27,26.0
20.142,0.092,0.15,25.0
20.196,0.089,0.033,31.0
20.196,0.086,-0.084,28.0
20.158,0.084,0.465,31.0
20.141,0.081,0.347,27.0
20.165,0.078,0.23,26.0
20.153,0.076,0.11,26.0
20.203,0.073,-0.006,32.0
20.203,0.07,-0.124,25.0
20.161,0.068,0.425,32.0
20.147,0.065,0.307,26.0
20.142,0.062,0.19,28.0
20.195,0.059,0.071,25.0
20.213,0.056,-0.046,26.0
20.232,0.053,-0.164,21.0
20.142,0.05,0.385,28.0
20.141,0.047,0.268,27.0
20.148,0.044,0.15,26.0
20.265,0.041,0.031,8.0
20.246,0.039,-0.086,48.0
20.236,0.035,-0.204,150.0
20.148,0.032,0.346,29.0
20.136,0.029,0.228,26.0
20.143,0.026,0.111,28.0
20.235,0.023,-0.007,151.0
20.257,0.02,-0.125,151.0
20.269,0.017,-0.243,150.0
20.137,0.014,0.307,29.0
20.124,0.011,0.189,26.0
20.217,0.008,0.073,84.0
20.259,0.004,-0.046,150.0
20.249,0.001,-0.164,44.0
20.232,-0.001,-0.281,9.0
20.127,-0.004,0.268,27.0
20.12,-0.008,0.151,28.0
20.149,-0.011,0.034,14.0
20.142,-0.014,-0.084,17.0
20.173,-0.017,-0.202,3.0
20.178,-0.021,-0.319,1.0
20.118,-0.024,0.23,34.0
20.13,-0.028,0.113,39.0
20.12,-0.031,-0.003,33.0
20.152,-0.034,-0.122,29.0
20.154,-0.038,-0.24,21.0
20.164,-0.041,-0.357,9.0
20.128,-0.045,0.192,36.0
20.132,-0.048,0.075,42.0
20.137,-0.052,-0.041,29.0
20.143,-0.055,-0.16,32.0
20.157,-0.059,-0.277,27.0
20.176,-0.062,-0.395,23.0
20.123,-0.066,0.155,32.0
20.126,-0.069,0.038,35.0
20.146,-0.073,-0.078,29.0
20.14,-0.076,-0.197,20.0
20.154,-0.08,-0.315,30.0
20.164,-0.084,-0.432,28.0
20.131,-0.087,0.118,36.0
20.129,-0.091,0.001,34.0
20.131,-0.095,-0.115,29.0
20.136,-0.099,-0.234,33.0
20.145,-0.102,-0.351,32.0
20.178,-0.106,-0.469,31.0
20.147,-0.11,0.081,35.0
20.162,-0.114,-0.035,27.0
20.161,-0.118,-0.152,26.0
20.136,-0.121,-0.271,34.0
20.148,-0.125,-0.388,37.0
20.182,-0.129,-0.506,32.0
20.157,-0.133,0.045,25.0
20.169,-0.137,-0.072,19.0
20.14,-0.141,-0.188,9.0
20.156,-0.145,-0.308,28.0
20.163,-0.149,-0.425,34.0
20.18,-0.153,-0.543,38.0
20.202,-0.158,0.009,8.0
20.173,-0.161,-0.108,11.0
20.144,-0.165,-0.224,19.0
20.163,-0.169,-0.343,25.0
20.177,-0.173,-0.461,25.0
20.19,-0.178,-0.578,40.0
53.361,-0.481,-0.069,4.0
56.529,-0.521,-0.401,2.0
44.901,-0.423,-0.579,25.0
20.174,-0.194,-0.379,15.0
20.183,-0.198,-0.496,27.0
20.195,-0.203,-0.614,39.0
56.218,-0.577,-0.171,10.0
52.798,-0.553,-0.467,6.0
38.684,-0.413,-0.566,13.0
20.221,-0.22,-0.415,0.0
20.2,-0.224,-0.532,21.0
20.205,-0.228,-0.649,33.0
56.409,-0.65,-0.267,1.0
45.866,-0.538,-0.483,7.0
38.002,-0.454,-0.62,24.0
31.557,-0.384,-0.701,9.0
20.205,-0.25,-0.566,7.0
20.219,-0.254,-0.684,27.0
56.636,-0.726,-0.364,11.0
44.957,-0.586,-0.549,33.0
0.0,0.0,0.0,0.0
30.498,-0.411,-0.729,16.0
27.747,-0.38,-0.824,2.0
20.222,-0.281,-0.718,15.0
53.007,-0.75,-0.429,10.0
44.683,-0.642,-0.62,5.0
31.908,-0.465,-0.627,9.0
30.022,-0.444,-0.767,8.0
26.52,-0.398,-0.831,1.0
26.332,-0.402,-0.978,0.0
52.76,-0.817,-0.513,8.0
38.206,-0.6,-0.592,14.0
30.966,-0.493,-0.659,28.0
28.113,-0.454,-0.764,1.0
25.435,-0.417,-0.838,4.0
25.215,-0.419,-0.977,0.0
45.052,-0.759,-0.51,31.0
37.879,-0.647,-0.648,13.0
30.517,-0.528,-0.698,26.0
26.72,-0.469,-0.768,2.0
24.267,-0.431,-0.838,2.0
23.905,-0.43,-0.964,0.0
44.878,-0.818,-0.578,14.0
31.556,-0.583,-0.588,3.0
29.594,-0.553,-0.723,9.0
25.74,-0.487,-0.78,1.0
23.32,-0.447,-0.842,1.0
23.064,-0.448,-0.966,0.0
38.336,-0.753,-0.552,14.0
31.1,-0.618,-0.627,29.0
28.745,-0.578,-0.746,7.0
25.338,-0.515,-0.806,4.0
22.191,-0.457,-0.835,1.0
21.944,-0.457,-0.952,0.0
38.056,-0.802,-0.605,25.0
30.636,-0.653,-0.664,33.0
25.343,-0.546,-0.696,0.0
23.719,-0.517,-0.791,5.0
21.325,-0.47,-0.834,2.0
21.093,-0.47,-0.947,0.0
0.0,0.0,0.0,0.0
30.455,-0.694,-0.705,25.0
25.258,-0.582,-0.73,6.0
22.481,-0.523,-0.782,1.0
20.579,-0.484,-0.835,1.0
20.456,-0.487,-0.948,0.0
31.268,-0.751,-0.589,24.0
0.0,0.0,0.0,0.0
24.359,-0.597,-0.739,22.0
21.695,-0.537,-0.786,0.0
19.968,-0.5,-0.839,2.0
19.853,-0.502,-0.948,0.0
30.803,-0.786,-0.623,36.0
28.334,-0.73,-0.737,1.0
23.793,-0.619,-0.756,17.0
20.944,-0.55,-0.788,0.0
19.331,-0.513,-0.839,1.0
19.114,-0.512,-0.94,0.0
30.527,-0.825,-0.66,38.0
27.269,-0.744,-0.746,0.0
23.481,-0.647,-0.778,5.0
20.438,-0.569,-0.797,0.0
18.705,-0.525,-0.837,1.0
18.557,-0.526,-0.938,0.0
30.408,-0.869,-0.699,17.0
25.009,-0.722,-0.718,9.0
22.375,-0.652,-0.771,1.0
19.87,-0.584,-0.802,0.0
18.11,-0.537,-0.835,1.0
17.932,-0.537,-0.93,0.0
30.08,-0.907,-0.731,8.0
24.297,-0.739,-0.73,23.0
21.83,-0.67,-0.781,0.0
19.46,-0.602,-0.81,0.0
17.546,-0.548,-0.832,0.0
17.394,-0.548,-0.925,0.0
28.235,-0.896,-0.722,1.0
23.812,-0.762,-0.745,18.0
21.21,-0.684,-0.786,0.0
18.725,-0.609,-0.803,0.0
17.084,-0.561,-0.831,0.0
16.917,-0.56,-0.921,0.0
27.536,-0.917,-0.738,1.0
23.351,-0.784,-0.76,7.0
20.487,-0.694,-0.784,0.0
18.34,-0.626,-0.809,0.0
16.656,-0.573,-0.831,0.0
16.364,-0.568,-0.91,0.0
25.342,-0.885,-0.71,7.0
22.696,-0.799,-0.766,3.0
19.953,-0.708,-0.788,0.0
17.814,-0.637,-0.807,0.0
16.231,-0.585,-0.829,1.0
16.103,-0.585,-0.915,1.0
24.45,-0.893,-0.713,16.0
22.072,-0.812,-0.77,1.0
19.417,-0.72,-0.789,0.0
17.405,-0.65,-0.809,0.0
16.064,-0.605,-0.839,1.0
15.986,-0.607,-0.927,0.0
23.894,-0.912,-0.724,19.0
21.652,-0.832,-0.78,3.0
18.93,-0.733,-0.79,0.0
17.112,-0.668,-0.814,2.0
15.91,-0.625,-0.848,1.0
15.884,-0.629,-0.938,0.0
23.798,-0.947,-0.747,14.0
20.924,-0.839,-0.776,1.0
18.501,-0.747,-0.792,0.0
16.791,-0.683,-0.817,2.0
15.802,-0.647,-0.859,1.0
15.771,-0.65,-0.948,0.0
23.648,-0.98,-0.767,5.0
20.538,-0.857,-0.783,2.0
18.208,-0.765,-0.799,0.0
16.42,-0.695,-0.816,2.0
15.695,-0.669,-0.87,1.0
15.686,-0.673,-0.96,0.0
22.572,-0.973,-0.755,2.0
19.977,-0.867,-0.782,1.0
17.806,-0.778,-0.799,0.0
16.226,-0.714,-0.822,2.0
15.605,-0.691,-0.88,1.0
15.539,-0.693,-0.966,0.0
22.168,-0.993,-0.763,2.0
19.556,-0.882,-0.785,0.0
17.512,-0.795,-0.803,1.0
16.088,-0.735,-0.831,1.0
15.509,-0.713,-0.89,1.0
15.435,-0.714,-0.974,0.0
21.688,-1.008,-0.766,2.0
19.222,-0.899,-0.789,0.0
17.136,-0.806,-0.801,0.0
15.873,-0.752,-0.834,0.0
15.404,-0.734,-0.898,1.0
15.262,-0.732,-0.977,0.0
21.271,-1.024,-0.771,1.0
18.719,-0.907,-0.785,0.0
16.773,-0.818,-0.799,1.0
15.653,-0.768,-0.837,0.0
15.325,-0.756,-0.907,1.0
14.941,-0.742,-0.969,0.0
20.849,-1.039,-0.773,1.0
18.412,-0.923,-0.788,0.0
16.562,-0.835,-0.803,1.0
15.428,-0.783,-0.837,0.0
15.241,-0.778,-0.914,1.0
14.615,-0.751,-0.96,0.0
20.364,-1.049,-0.772,0.0
18.158,-0.941,-0.792,0.0
16.416,-0.856,-0.809,1.0
15.313,-0.803,-0.843,0.0
15.163,-0.8,-0.922,0.0
14.584,-0.774,-0.97,0.0
20.125,-1.071,-0.778,0.0
17.821,-0.954,-0.79,0.0
16.198,-0.872,-0.81,1.0
15.229,-0.824,-0.85,0.0
15.073,-0.821,-0.928,1.0
14.631,-0.801,-0.984,0.0
19.773,-1.086,-0.779,0.0
17.519,-0.967,-0.79,0.0
16.025,-0.89,-0.814,0.0
15.092,-0.843,-0.853,0.0
15.006,-0.843,-0.934,1.0
14.555,-0.822,-0.989,0.0
19.447,-1.101,-0.78,1.0
17.355,-0.988,-0.794,0.0
15.908,-0.91,-0.818,0.0
14.992,-0.863,-0.858,1.0
14.948,-0.865,-0.941,1.0
14.09,-0.82,-0.967,0.0
19.183,-1.119,-0.782,1.0
17.127,-1.004,-0.795,0.0
15.771,-0.929,-0.821,0.0
14.912,-0.883,-0.863,1.0
14.875,-0.886,-0.945,1.0
13.891,-0.832,-0.962,0.0
18.916,-1.135,-0.782,1.0
17.0,-1.025,-0.799,0.0
15.686,-0.951,-0.826,1.0
14.804,-0.902,-0.865,1.0
14.823,-0.908,-0.951,1.0
13.83,-0.852,-0.966,0.0
18.558,-1.145,-0.778,1.0
16.785,-1.041,-0.798,0.0
15.542,-0.969,-0.827,1.0
14.769,-0.925,-0.871,1.0
14.758,-0.929,-0.955,1.0
13.751,-0.87,-0.967,0.0
18.391,-1.166,-0.781,2.0
16.596,-1.058,-0.798,0.0
15.445,-0.989,-0.83,0.0
14.695,-0.946,-0.874,1.0
14.689,-0.95,-0.957,1.0
13.758,-0.894,-0.975,0.0
18.305,-1.191,-0.786,2.0
16.439,-1.075,-0.798,1.0
15.364,-1.01,-0.833,1.0
14.626,-0.966,-0.877,1.0
14.62,-0.97,-0.96,1.0
14.24,-0.95,-1.015,0.0
18.182,-1.215,-0.789,1.0
16.291,-1.093,-0.799,1.0
15.327,-1.033,-0.838,1.0
14.593,-0.989,-0.882,1.0
14.564,-0.991,-0.962,1.0
14.388,-0.984,-1.032,0.0
17.978,-1.231,-0.787,1.0
16.233,-1.117,-0.802,1.0
15.222,-1.052,-0.838,0.0
14.517,-1.008,-0.882,1.0
14.506,-1.012,-0.964,1.0
14.379,-1.008,-1.037,0.0
17.886,-1.255,-0.789,1.0
16.165,-1.139,-0.804,1.0
15.155,-1.073,-0.84,1.0
14.445,-1.027,-0.883,1.0
14.453,-1.033,-0.965,1.0
14.306,-1.027,-1.036,0.0
17.604,-1.265,-0.783,1.0
16.109,-1.162,-0.807,1.0
15.054,-1.091,-0.838,1.0
14.41,-1.049,-0.885,1.0
14.387,-1.052,-0.965,1.0
13.437,-0.987,-0.977,0.0
17.212,-1.265,-0.77,10.0
15.997,-1.181,-0.805,1.0
15.006,-1.112,-0.84,0.0
14.34,-1.067,-0.885,1.0
14.334,-1.072,-0.965,1.0
13.452,-1.01,-0.981,0.0
17.307,-1.301,-0.778,2.0
15.884,-1.199,-0.803,1.0
14.914,-1.13,-0.838,1.0
14.294,-1.088,-0.885,1.0
14.278,-1.091,-0.964,1.0
13.429,-1.031,-0.983,0.0
17.254,-1.325,-0.779,1.0
15.854,-1.222,-0.805,1.0
14.902,-1.154,-0.84,0.0
14.244,-1.107,-0.884,1.0
14.214,-1.11,-0.962,1.0
13.171,-1.032,-0.966,0.0
17.293,-1.356,-0.784,1.0
15.79,-1.243,-0.804,1.0
14.856,-1.174,-0.84,1.0
14.185,-1.126,-0.883,1.0
14.169,-1.129,-0.961,1.0
13.325,-1.066,-0.979,0.0
17.181,-1.375,-0.78,1.0
15.826,-1.271,-0.807,1.0
14.802,-1.194,-0.838,0.0
14.152,-1.146,-0.882,1.0
14.124,-1.148,-0.959,1.0
13.25,-1.081,-0.974,0.0
17.183,-1.402,-0.782,0.0
15.801,-1.294,-0.807,1.0
14.751,-1.213,-0.836,0.0
14.099,-1.164,-0.879,1.0
14.077,-1.167,-0.957,1.0
13.217,-1.1,-0.972,0.0
17.214,-1.432,-0.784,0.0
15.771,-1.317,-0.806,1.0
14.732,-1.235,-0.835,0.0
14.065,-1.183,-0.877,1.0
14.058,-1.187,-0.955,1.0
13.169,-1.116,-0.969,0.0
17.231,-1.46,-0.784,1.0
15.766,-1.341,-0.805,1.0
14.728,-1.257,-0.835,0.0
14.016,-1.201,-0.874,1.0
13.999,-1.204,-0.951,1.0
13.211,-1.14,-0.971,0.0
17.214,-1.486,-0.783,0.0
15.77,-1.366,-0.805,1.0
14.788,-1.285,-0.837,1.0
13.966,-1.218,-0.87,1.0
13.978,-1.224,-0.949,1.0
13.233,-1.163,-0.972,0.0
17.247,-1.515,-0.783,1.0
15.831,-1.395,-0.806,1.0
14.704,-1.3,-0.831,1.0
13.948,-1.238,-0.867,1.0
13.928,-1.24,-0.943,1.0
13.249,-1.184,-0.971,0.0
17.23,-1.539,-0.78,1.0
15.832,-1.419,-0.804,1.0
14.676,-1.32,-0.827,1.0
13.906,-1.255,-0.862,1.0
13.897,-1.259,-0.939,1.0
13.4,-1.218,-0.98,0.0
17.223,-1.564,-0.777,0.0
15.824,-1.442,-0.801,1.0
14.761,-1.35,-0.829,0.0
13.882,-1.273,-0.858,1.0
13.849,-1.275,-0.933,1.0
13.359,-1.234,-0.975,0.0
17.351,-1.602,-0.779,0.0
15.849,-1.468,-0.799,1.0
14.823,-1.377,-0.83,0.0
13.848,-1.291,-0.853,0.0
13.821,-1.292,-0.928,1.0
13.459,-1.263,-0.979,0.0
17.367,-1.628,-0.775,0.0
15.957,-1.5,-0.8,1.0
14.92,-1.407,-0.831,1.0
13.89,-1.314,-0.852,0.0
13.796,-1.31,-0.923,1.0
13.716,-1.306,-0.994,0.0
17.48,-1.663,-0.775,0.0
16.009,-1.528,-0.798,1.0
14.976,-1.434,-0.83,1.0
13.932,-1.338,-0.851,0.0
13.751,-1.324,-0.916,1.0
13.523,-1.307,-0.975,1.0
17.57,-1.697,-0.774,0.0
16.057,-1.555,-0.796,1.0
15.029,-1.46,-0.828,1.0
13.969,-1.361,-0.848,0.0
13.714,-1.34,-0.908,1.0
13.56,-1.329,-0.973,2.0
17.647,-1.728,-0.771,1.0
16.142,-1.585,-0.794,1.0
15.059,-1.483,-0.824,1.0
14.011,-1.384,-0.845,0.0
13.681,-1.355,-0.901,1.0
13.571,-1.349,-0.969,2.0
17.869,-1.774,-0.774,0.0
16.227,-1.615,-0.792,1.0
15.132,-1.511,-0.822,1.0
14.113,-1.413,-0.846,1.0
13.65,-1.37,-0.893,1.0
13.569,-1.366,-0.963,2.0
18.068,-1.818,-0.774,1.0
16.27,-1.641,-0.787,1.0
15.166,-1.534,-0.817,1.0
14.161,-1.436,-0.842,1.0
13.624,-1.386,-0.885,1.0
13.589,-1.386,-0.958,1.0
18.116,-1.846,-0.768,1.0
16.394,-1.675,-0.785,1.0
15.222,-1.559,-0.813,1.0
14.219,-1.46,-0.839,1.0
13.609,-1.401,-0.878,1.0
13.596,-1.404,-0.952,1.0
18.27,-1.884,-0.766,1.0
16.48,-1.704,-0.781,1.0
15.313,-1.587,-0.81,1.0
14.299,-1.486,-0.836,1.0
13.585,-1.415,-0.869,1.0
13.576,-1.418,-0.943,1.0
18.429,-1.923,-0.762,1.0
16.632,-1.74,-0.779,1.0
15.388,-1.614,-0.805,1.0
14.408,-1.515,-0.834,0.0
13.583,-1.432,-0.861,1.0
13.533,-1.43,-0.933,2.0
18.686,-1.973,-0.762,1.0
16.84,-1.782,-0.779,0.0
15.509,-1.645,-0.803,1.0
14.517,-1.543,-0.832,1.0
13.629,-1.453,-0.856,0.0
13.513,-1.444,-0.923,2.0
18.931,-2.02,-0.761,1.0
17.017,-1.82,-0.777,1.0
15.636,-1.676,-0.8,1.0
14.608,-1.57,-0.829,0.0
13.714,-1.477,-0.853,0.0
13.475,-1.455,-0.912,2.0
19.159,-2.067,-0.758,1.0
17.202,-1.859,-0.775,1.0
15.813,-1.713,-0.799,1.0
14.741,-1.601,-0.827,1.0
13.805,-1.502,-0.849,0.0
13.438,-1.466,-0.901,3.0
19.43,-2.117,-0.756,2.0
17.332,-1.893,-0.769,1.0
15.989,-1.75,-0.797,1.0
14.917,-1.636,-0.826,1.0
13.921,-1.53,-0.847,0.0
13.45,-1.481,-0.892,2.0
19.584,-2.155,-0.749,1.0
17.558,-1.936,-0.767,0.0
16.092,-1.778,-0.791,1.0
14.978,-1.658,-0.819,1.0
14.028,-1.556,-0.844,1.0
13.429,-1.493,-0.881,2.0
20.023,-2.223,-0.751,1.0
17.868,-1.988,-0.768,2.0
16.216,-1.808,-0.785,1.0
15.109,-1.688,-0.815,1.0
14.153,-1.584,-0.841,1.0
13.416,-1.505,-0.87,1.0
20.277,-2.272,-0.746,2.0
18.0,-2.02,-0.76,2.0
16.416,-1.846,-0.782,1.0
15.238,-1.717,-0.811,1.0
14.259,-1.61,-0.836,0.0
13.422,-1.518,-0.86,1.0
20.548,-2.321,-0.74,2.0
18.454,-2.089,-0.765,0.0
16.645,-1.887,-0.78,1.0
15.385,-1.748,-0.806,0.0
14.415,-1.64,-0.834,0.0
13.534,-1.543,-0.857,0.0
20.902,-2.381,-0.736,3.0
18.783,-2.143,-0.763,1.0
16.857,-1.926,-0.777,1.0
15.538,-1.779,-0.802,0.0
14.546,-1.668,-0.83,0.0
13.703,-1.575,-0.856,0.0
21.255,-2.44,-0.731,3.0
19.026,-2.187,-0.757,1.0
17.112,-1.97,-0.774,1.0
15.725,-1.814,-0.798,0.0
14.682,-1.696,-0.825,1.0
13.788,-1.596,-0.849,0.0
21.683,-2.507,-0.727,4.0
19.334,-2.239,-0.753,1.0
17.366,-2.014,-0.77,1.0
15.925,-1.85,-0.794,1.0
14.909,-1.735,-0.825,1.0
13.911,-1.621,-0.845,1.0
21.902,-2.55,-0.715,7.0
19.629,-2.289,-0.747,1.0
17.616,-2.057,-0.766,1.0
16.079,-1.88,-0.788,1.0
15.029,-1.76,-0.818,1.0
14.075,-1.651,-0.842,1.0
22.353,-2.619,-0.71,5.0
20.051,-2.353,-0.745,2.0
17.882,-2.101,-0.761,0.0
16.319,-1.92,-0.784,1.0
15.185,-1.79,-0.812,1.0
14.177,-1.673,-0.835,1.0
22.966,-2.708,-0.708,5.0
20.405,-2.409,-0.739,2.0
18.36,-2.171,-0.764,1.0
16.56,-1.96,-0.78,1.0
15.383,-1.824,-0.808,1.0
14.336,-1.702,-0.831,0.0
23.471,-2.784,-0.701,3.0
20.816,-2.472,-0.734,2.0
18.753,-2.23,-0.762,1.0
16.841,-2.005,-0.778,1.0
15.524,-1.85,-0.801,1.0
14.576,-1.74,-0.83,1.0
23.962,-2.857,-0.693,3.0
21.297,-2.542,-0.73,4.0
19.061,-2.278,-0.756,2.0
17.166,-2.054,-0.776,1.0
15.748,-1.887,-0.797,1.0
14.736,-1.768,-0.825,1.0
24.726,-2.963,-0.69,2.0
21.782,-2.613,-0.725,4.0
19.433,-2.334,-0.752,2.0
17.411,-2.093,-0.769,1.0
15.986,-1.924,-0.793,1.0
14.921,-1.798,-0.82,1.0
25.246,-3.039,-0.679,3.0
22.233,-2.679,-0.718,4.0
19.813,-2.39,-0.747,2.0
17.722,-2.14,-0.765,0.0
16.23,-1.962,-0.788,1.0
15.094,-1.827,-0.814,1.0
25.824,-3.122,-0.669,3.0
22.702,-2.747,-0.71,2.0
20.202,-2.447,-0.74,1.0
18.135,-2.199,-0.764,0.0
16.417,-1.992,-0.78,1.0
15.338,-1.863,-0.811,1.0
26.53,-3.22,-0.66,2.0
23.297,-2.83,-0.704,3.0
20.675,-2.514,-0.736,2.0
18.618,-2.265,-0.765,1.0
16.76,-2.041,-0.779,1.0
15.477,-1.887,-0.802,1.0
27.237,-3.317,-0.648,2.0
23.892,-2.912,-0.697,3.0
21.223,-2.589,-0.733,4.0
18.961,-2.315,-0.759,2.0
17.109,-2.09,-0.777,1.0
15.66,-1.915,-0.795,1.0
27.946,-3.414,-0.635,4.0
24.547,-3.001,-0.689,5.0
21.719,-2.657,-0.727,4.0
19.323,-2.366,-0.752,1.0
17.386,-2.13,-0.77,1.0
15.967,-1.958,-0.793,1.0
28.733,-3.52,-0.621,8.0
25.089,-3.076,-0.677,4.0
22.203,-2.723,-0.719,4.0
19.748,-2.424,-0.747,1.0
17.765,-2.182,-0.768,0.0
16.214,-1.993,-0.788,1.0
28.993,-3.56,-0.596,21.0
25.982,-3.192,-0.673,5.0
22.794,-2.802,-0.713,4.0
20.254,-2.491,-0.744,2.0
18.239,-2.245,-0.768,0.0
16.449,-2.026,-0.781,1.0
29.467,-3.626,-0.573,23.0
26.501,-3.262,-0.657,3.0
23.298,-2.869,-0.703,4.0
20.65,-2.544,-0.736,2.0
18.605,-2.293,-0.763,1.0
16.85,-2.078,-0.781,1.0
30.166,-3.718,-0.553,22.0
27.311,-3.367,-0.647,3.0
23.858,-2.943,-0.693,3.0
21.2,-2.616,-0.731,3.0
19.041,-2.35,-0.759,1.0
17.17,-2.12,-0.776,1.0
31.06,-3.833,-0.534,28.0
28.109,-3.47,-0.634,7.0
24.588,-3.036,-0.686,2.0
21.788,-2.691,-0.727,4.0
19.433,-2.401,-0.753,2.0
17.464,-2.158,-0.77,1.0
31.956,-3.947,-0.513,28.0
28.617,-3.535,-0.613,14.0
25.429,-3.142,-0.681,3.0
22.351,-2.762,-0.72,4.0
19.833,-2.452,-0.745,1.0
17.829,-2.205,-0.766,0.0
32.925,-4.069,-0.491,27.0
28.998,-3.584,-0.588,20.0
26.135,-3.23,-0.669,4.0
22.862,-2.826,-0.71,4.0
20.385,-2.521,-0.742,2.0
18.423,-2.278,-0.77,1.0
33.75,-4.172,-0.464,30.0
29.669,-3.667,-0.567,21.0
27.043,-3.343,-0.661,4.0
23.393,-2.892,-0.699,3.0
20.884,-2.582,-0.736,3.0
18.753,-2.319,-0.762,1.0
34.409,-4.252,-0.434,24.0
30.466,-3.764,-0.547,19.0
27.627,-3.414,-0.644,7.0
24.184,-2.988,-0.695,3.0
21.502,-2.657,-0.733,4.0
19.204,-2.373,-0.758,1.0
39.705,-4.904,-0.454,5.0
31.415,-3.879,-0.527,18.0
28.39,-3.505,-0.628,8.0
24.867,-3.07,-0.686,2.0
22.066,-2.724,-0.727,4.0
19.613,-2.421,-0.751,2.0
39.85,-4.917,-0.41,20.0
32.54,-4.014,-0.508,26.0
28.772,-3.548,-0.603,18.0
25.715,-3.171,-0.679,3.0
22.666,-2.794,-0.72,4.0
20.165,-2.486,-0.748,2.0
40.121,-4.943,-0.365,17.0
33.407,-4.115,-0.483,28.0
29.389,-3.619,-0.581,21.0
26.369,-3.246,-0.665,4.0
23.277,-2.865,-0.712,5.0
20.646,-2.54,-0.742,3.0
40.399,-4.969,-0.32,10.0
34.165,-4.2,-0.453,31.0
30.19,-3.71,-0.561,21.0
27.219,-3.344,-0.654,2.0
23.784,-2.921,-0.699,3.0
21.233,-2.607,-0.737,4.0
45.994,-5.645,-0.31,21.0
34.82,-4.271,-0.421,21.0
31.224,-3.828,-0.544,11.0
28.027,-3.435,-0.641,4.0
24.63,-3.017,-0.695,4.0
21.786,-2.668,-0.731,4.0
47.031,-5.758,-0.263,22.0
39.754,-4.864,-0.435,17.0
32.153,-3.932,-0.523,23.0
28.807,-3.521,-0.626,8.0
25.209,-3.08,-0.682,3.0
22.35,-2.729,-0.724,4.0
48.03,-5.863,-0.212,22.0
40.019,-4.882,-0.391,20.0
33.124,-4.038,-0.5,24.0
29.282,-3.568,-0.601,21.0
26.114,-3.18,-0.676,2.0
22.96,-2.794,-0.717,3.0
0.0,0.0,0.0,0.0
40.26,-4.895,-0.346,15.0
33.924,-4.122,-0.473,27.0
29.953,-3.637,-0.581,24.0
26.905,-3.264,-0.665,2.0
23.537,-2.854,-0.708,3.0
55.625,-6.743,-0.117,16.0
45.735,-5.54,-0.34,20.0
34.617,-4.19,-0.442,19.0
30.773,-3.721,-0.561,15.0
27.797,-3.359,-0.655,4.0
24.298,-2.934,-0.702,1.0
56.265,-6.793,-0.052,5.0
46.542,-5.614,-0.292,21.0
39.756,-4.791,-0.462,5.0
31.838,-3.834,-0.543,23.0
28.571,-3.437,-0.64,7.0
25.114,-3.019,-0.697,4.0
80.798,-9.712,0.016,20.0
47.822,-5.742,-0.244,22.0
39.941,-4.791,-0.418,15.0
32.785,-3.929,-0.522,31.0
29.177,-3.493,-0.62,13.0
25.676,-3.072,-0.683,5.0
80.482,-9.628,0.108,19.0
0.0,0.0,0.0,0.0
40.234,-4.802,-0.376,15.0
33.543,-4.0,-0.496,27.0
29.819,-3.552,-0.6,22.0
26.374,-3.139,-0.672,2.0
80.312,-9.557,0.199,22.0
55.435,-6.589,-0.159,8.0
45.495,-5.401,-0.374,5.0
34.286,-4.066,-0.468,28.0
30.561,-3.62,-0.581,20.0
27.257,-3.225,-0.664,1.0
80.174,-9.486,0.288,31.0
55.941,-6.611,-0.097,12.0
46.204,-5.453,-0.328,21.0
35.006,-4.126,-0.439,12.0
31.457,-3.704,-0.562,23.0
28.428,-3.343,-0.66,6.0
80.043,-9.414,0.376,31.0
80.57,-9.463,-0.051,10.0
47.55,-5.577,-0.284,22.0
39.833,-4.666,-0.456,10.0
32.466,-3.798,-0.545,30.0
29.175,-3.409,-0.646,8.0
80.034,-9.353,0.464,24.0
65.637,-7.659,0.029,2.0
0.0,0.0,0.0,0.0
40.048,-4.66,-0.414,17.0
33.17,-3.854,-0.52,30.0
29.778,-3.456,-0.627,11.0
79.946,-9.278,0.55,3.0
0.0,0.0,0.0,0.0
50.264,-5.815,-0.191,13.0
40.299,-4.655,-0.373,12.0
33.976,-3.919,-0.496,29.0
30.151,-3.473,-0.602,20.0
65.267,-7.519,0.52,1.0
65.2,-7.499,0.17,19.0
55.454,-6.368,-0.152,15.0
45.309,-5.195,-0.371,19.0
34.704,-3.973,-0.47,24.0
0.0,0.0,0.0,0.0
65.289,-7.463,0.59,1.0
65.183,-7.438,0.24,188.0
56.082,-6.389,-0.094,5.0
46.834,-5.326,-0.334,21.0
39.787,-4.518,-0.497,6.0
31.891,-3.615,-0.569,25.0
0.0,0.0,0.0,0.0
65.117,-7.369,0.307,225.0
65.123,-7.356,-0.041,1.0
48.335,-5.45,-0.294,23.0
39.976,-4.5,-0.458,15.0
32.971,-3.705,-0.554,27.0
0.0,0.0,0.0,0.0
65.12,-7.305,0.374,150.0
65.108,-7.29,0.024,1.0
50.25,-5.616,-0.254,24.0
40.274,-4.493,-0.42,13.0
33.666,-3.749,-0.532,31.0
0.0,0.0,0.0,0.0
65.131,-7.239,0.441,4.0
64.946,-7.204,0.09,1.0
54.635,-6.049,-0.222,6.0
42.108,-4.653,-0.397,9.0
34.269,-3.78,-0.507,30.0
0.0,0.0,0.0,0.0
65.041,-7.16,0.504,14.0
65.057,-7.147,0.155,1.0
55.587,-6.094,-0.172,30.0
0.0,0.0,0.0,0.0
34.887,-3.81,-0.482,18.0
0.0,0.0,0.0,0.0
65.01,-7.085,0.567,0.0
65.005,-7.069,0.217,2.0
56.237,-6.103,-0.119,14.0
47.125,-5.103,-0.353,21.0
39.93,-4.315,-0.513,6.0
82.203,-8.885,1.236,3.0
0.0,0.0,0.0,0.0
65.086,-7.003,0.279,151.0
65.201,-6.999,-0.076,3.0
47.89,-5.129,-0.313,13.0
40.069,-4.283,-0.478,15.0
82.274,-8.796,1.314,10.0
0.0,0.0,0.0,0.0
65.093,-6.925,0.339,180.0
64.941,-6.894,-0.016,2.0
0.0,0.0,0.0,0.0
40.307,-4.259,-0.444,14.0
82.097,-8.676,1.386,29.0
0.0,0.0,0.0,0.0
65.094,-6.845,0.399,186.0
64.989,-6.817,0.042,3.0
0.0,0.0,0.0,0.0
44.234,-4.618,-0.447,6.0
81.986,-8.561,1.459,44.0
0.0,0.0,0.0,0.0
65.106,-6.763,0.456,174.0
64.94,-6.729,0.099,2.0
55.398,-5.726,-0.213,29.0
44.627,-4.602,-0.413,19.0
81.951,-8.451,1.529,40.0
0.0,0.0,0.0,0.0
65.086,-6.677,0.511,150.0
64.954,-6.645,0.154,5.0
56.007,-5.715,-0.168,14.0
45.239,-4.605,-0.38,16.0
81.747,-8.322,1.594,32.0
0.0,0.0,0.0,0.0
65.025,-6.583,0.565,23.0
65.033,-6.566,0.207,112.0
65.384,-6.584,-0.143,10.0
46.852,-4.705,-0.355,6.0
81.674,-8.204,1.658,35.0
81.933,-8.206,1.221,1.0
0.0,0.0,0.0,0.0
65.085,-6.481,0.26,150.0
65.336,-6.488,-0.091,12.0
0.0,0.0,0.0,0.0
81.885,-8.11,1.727,31.0
81.763,-8.073,1.282,8.0
0.0,0.0,0.0,0.0
65.025,-6.383,0.31,5.0
65.05,-6.367,-0.041,3.0
0.0,0.0,0.0,0.0
82.473,-8.05,1.802,19.0
81.876,-7.966,1.347,26.0
0.0,0.0,0.0,0.0
65.077,-6.293,0.359,3.0
65.093,-6.276,0.007,14.0
54.669,-5.255,-0.289,28.0
82.574,-7.938,1.865,13.0
82.019,-7.859,1.409,42.0
0.0,0.0,0.0,0.0
65.112,-6.2,0.406,4.0
55.059,-5.227,0.045,0.0
55.433,-5.246,-0.254,29.0
82.573,-7.815,1.924,67.0
82.347,-7.768,1.472,37.0
54.934,-5.164,0.684,97.0
54.952,-5.149,0.381,150.0
54.973,-5.135,0.083,161.0
55.707,-5.187,-0.217,26.0
82.157,-7.649,1.97,38.0
54.963,-5.099,1.019,150.0
54.954,-5.081,0.721,152.0
54.969,-5.065,0.418,161.0
54.968,-5.048,0.12,163.0
55.651,-5.094,-0.18,12.0
82.147,-7.518,2.023,41.0
54.955,-5.012,1.055,150.0
54.93,-4.992,0.756,26.0
54.829,-4.965,0.452,1.0
0.0,0.0,0.0,0.0
55.829,-5.021,-0.145,8.0
82.464,-7.415,2.082,39.0
0.0,0.0,0.0,0.0
0.0,0.0,0.0,0.0
0.0,0.0,0.0,0.0
0.0,0.0,0.0,0.0
56.639,-5.002,-0.114,5.0
82.934,-7.323,2.142,51.0
83.24,-7.322,1.697,3.0
0.0,0.0,0.0,0.0
0.0,0.0,0.0,0.0
0.0,0.0,0.0,0.0
68.586,-5.944,-0.1,0.0
83.234,-7.212,2.196,20.0
84.811,-7.32,1.776,10.0
0.0,0.0,0.0,0.0
0.0,0.0,0.0,0.0
0.0,0.0,0.0,0.0
79.559,-6.761,-0.073,7.0
82.852,-7.039,2.229,47.0
82.996,-7.023,1.78,20.0
0.0,0.0,0.0,0.0
81.538,-6.845,0.852,8.0
79.419,-6.641,0.397,18.0
79.862,-6.652,-0.035,27.0
82.575,-6.875,2.262,50.0
82.661,-6.853,1.813,55.0
85.074,-7.025,1.402,10.0
81.887,-6.734,0.894,63.0
79.395,-6.503,0.434,31.0
79.953,-6.522,0.001,33.0
82.541,-6.73,2.298,45.0
82.503,-6.698,1.847,44.0
0.0,0.0,0.0,0.0
81.899,-6.593,0.93,44.0
79.421,-6.366,0.469,27.0
79.734,-6.365,0.035,10.0
82.383,-6.573,2.329,44.0
82.474,-6.551,1.88,41.0
132.547,-10.481,2.297,21.0
82.019,-6.458,0.965,43.0
61.768,-4.842,0.389,2.0
61.512,-4.801,0.051,17.0
82.325,-6.42,2.359,42.0
82.505,-6.406,1.913,39.0
82.625,-6.386,1.463,10.0
82.042,-6.311,0.996,12.0
65.76,-5.036,0.438,0.0
65.54,-4.998,0.078,233.0
82.741,-6.304,2.4,56.0
82.614,-6.266,1.944,46.0
83.029,-6.267,1.499,31.0
65.778,-4.941,0.82,0.0
65.618,-4.906,0.459,3.0
65.534,-4.877,0.099,211.0
83.196,-6.185,2.44,43.0
82.416,-6.098,1.965,41.0
83.03,-6.114,1.524,16.0
0.0,0.0,0.0,0.0
65.563,-4.78,0.478,2.0
65.52,-4.755,0.119,1.0
82.835,-6.006,2.453,67.0
82.521,-5.952,1.99,38.0
82.904,-5.951,1.545,15.0
0.0,0.0,0.0,0.0
65.563,-4.659,0.495,2.0
65.465,-4.63,0.135,1.0
82.848,-5.854,2.473,53.0
82.754,-5.816,2.015,37.0
82.905,-5.797,1.564,8.0
0.0,0.0,0.0,0.0
65.582,-4.539,0.51,170.0
65.49,-4.51,0.149,2.0
83.688,-5.756,2.516,15.0
82.686,-5.656,2.03,34.0
129.045,-8.782,2.46,9.0
24.597,-1.664,0.331,0.0
65.583,-4.415,0.521,166.0
24.607,-1.648,0.06,10.0
24.543,-1.641,0.742,42.0
24.544,-1.632,0.607,26.0
24.583,-1.626,0.472,30.0
24.532,-1.614,0.333,28.0
24.533,-1.605,0.198,28.0
24.554,-1.598,0.063,39.0
24.521,-1.593,0.744,67.0
24.541,-1.585,0.61,55.0
24.544,-1.577,0.474,56.0
24.527,-1.566,0.336,49.0
24.521,-1.557,0.201,38.0
24.533,-1.549,0.066,69.0
24.517,-1.546,0.747,66.0
24.535,-1.538,0.612,89.0
24.538,-1.529,0.476,83.0
24.528,-1.519,0.338,75.0
24.513,-1.51,0.203,56.0
24.517,-1.501,0.068,64.0
24.527,-1.499,0.748,63.0
24.549,-1.491,0.613,73.0
24.546,-1.482,0.478,60.0
24.535,-1.472,0.339,67.0
24.523,-1.462,0.204,49.0
24.519,-1.453,0.068,56.0
24.564,-1.453,0.75,77.0
24.565,-1.443,0.614,74.0
24.568,-1.434,0.478,54.0
24.56,-1.425,0.34,44.0
24.554,-1.416,0.204,44.0
24.561,-1.407,0.068,44.0
24.599,-1.406,0.751,24.0
24.623,-1.398,0.615,4.0
24.603,-1.388,0.478,23.0
24.601,-1.379,0.34,7.0
24.606,-1.37,0.204,5.0
65.558,-3.628,0.18,31.0
84.124,-4.643,2.564,42.0
83.881,-4.599,2.092,41.0
84.621,-4.609,1.641,14.0
0.0,0.0,0.0,0.0
0.0,0.0,0.0,0.0
0.0,0.0,0.0,0.0
84.201,-4.481,2.559,39.0
84.633,-4.472,2.102,42.0
85.209,-4.471,1.643,33.0
82.769,-4.314,1.129,8.0
0.0,0.0,0.0,0.0
66.622,-3.423,0.17,0.0
84.393,-4.322,2.553,34.0
84.674,-4.306,2.092,43.0
0.0,0.0,0.0,0.0
82.814,-4.15,1.117,45.0
67.812,-3.373,0.539,1.0
0.0,0.0,0.0,0.0
85.402,-4.204,2.569,32.0
84.616,-4.134,2.076,41.0
84.832,-4.112,1.609,13.0
82.936,-3.99,1.103,39.0
79.889,-3.815,0.619,23.0
31.294,-1.482,0.068,18.0
85.483,-4.035,2.554,18.0
84.846,-3.974,2.063,39.0
85.029,-3.952,1.594,9.0
31.31,-1.443,0.409,25.0
31.258,-1.43,0.235,35.0
31.229,-1.417,0.061,48.0
85.677,-3.872,2.539,9.0
31.341,-1.405,0.754,6.0
31.267,-1.39,0.578,31.0
28.461,-1.254,0.365,47.0
28.46,-1.244,0.206,63.0
28.448,-1.233,0.048,65.0
28.454,-1.228,0.835,67.0
28.429,-1.216,0.675,67.0
28.428,-1.206,0.517,99.0
28.438,-1.196,0.356,108.0
28.436,-1.185,0.197,106.0
28.45,-1.175,0.039,136.0
28.441,-1.169,0.825,117.0
28.444,-1.159,0.666,151.0
28.44,-1.148,0.508,130.0
28.446,-1.138,0.346,73.0
28.456,-1.128,0.187,69.0
28.47,-1.118,0.029,63.0
28.448,-1.111,0.815,40.0
31.26,-1.209,0.721,30.0
31.25,-1.198,0.546,41.0
31.25,-1.186,0.368,39.0
31.291,-1.176,0.194,42.0
31.326,-1.167,0.019,23.0
31.285,-1.159,0.884,54.0
31.306,-1.148,0.709,47.0
31.338,-1.138,0.535,40.0
84.289,-3.031,0.959,36.0
80.615,-2.87,0.466,27.0
80.698,-2.845,0.016,25.0
31.363,-1.098,0.872,35.0
147.131,-5.099,3.269,3.0
38.767,-1.33,0.644,0.0
84.852,-2.88,0.927,21.0
38.763,-1.302,0.206,11.0
38.718,-1.286,-0.01,38.0
38.632,-1.274,1.056,52.0
38.637,-1.26,0.84,58.0
38.651,-1.247,0.623,59.0
38.635,-1.233,0.403,65.0
38.659,-1.22,0.186,64.0
38.651,-1.206,-0.029,62.0
38.602,-1.195,1.035,72.0
38.63,-1.182,0.819,87.0
38.63,-1.168,0.603,73.0
38.603,-1.153,0.382,72.0
38.651,-1.142,0.166,105.0
38.653,-1.128,-0.05,79.0
38.615,-1.117,1.014,73.0
38.668,-1.104,0.798,80.0
38.623,-1.089,0.581,65.0
38.628,-1.075,0.36,67.0
38.658,-1.063,0.143,65.0
38.666,-1.05,-0.073,58.0
38.636,-1.039,0.992,74.0
38.681,-1.026,0.775,46.0
38.688,-1.013,0.558,31.0
38.708,-1.0,0.337,33.0
38.772,-0.988,0.12,9.0
38.8,-0.975,-0.097,12.0
38.708,-0.963,0.969,42.0
40.428,-0.991,0.785,28.0
40.407,-0.976,0.557,37.0
40.414,-0.962,0.326,40.0
40.409,-0.949,0.098,42.0
40.421,-0.935,-0.128,56.0
40.399,-0.924,0.985,38.0
40.405,-0.91,0.757,26.0
38.4,-0.852,0.503,10.0
38.377,-0.837,0.283,36.0
38.372,-0.824,0.067,49.0
38.371,-0.811,-0.148,28.0
38.404,-0.801,0.909,4.0
53.005,-1.088,0.956,5.0
52.962,-1.068,0.656,45.0
52.936,-1.049,0.352,63.0
52.976,-1.032,0.054,48.0
52.956,-1.013,-0.243,60.0
193.318,-3.646,4.432,14.0
203.674,-3.771,3.52,6.0
0.0,0.0,0.0,0.0
20.13,-0.359,0.118,3.0
20.135,-0.352,0.005,47.0
53.07,-0.91,-0.285,3.0
176.631,-2.979,3.911,58.0
59.61,-0.985,0.983,4.0
20.138,-0.325,0.218,8.0
20.107,-0.318,0.102,18.0
20.12,-0.311,-0.01,11.0
59.523,-0.903,-0.367,5.0
53.495,-0.796,1.14,8.0
20.136,-0.292,0.315,10.0
20.109,-0.285,0.201,12.0
59.516,-0.826,0.254,13.0
59.534,-0.806,-0.081,65.0
56.608,-0.748,-0.397,12.0
20.136,-0.26,0.412,13.0
20.132,-0.253,0.298,10.0
20.16,-0.247,0.184,6.0
56.187,-0.669,0.191,1.0
56.331,-0.653,-0.126,1.0
59.011,-0.664,-0.466,12.0
20.156,-0.22,0.394,15.0
64.338,-0.682,0.895,16.0
64.296,-0.662,0.531,43.0
56.18,-0.559,0.14,7.0
56.264,-0.541,-0.177,6.0
53.154,-0.495,-0.468,2.0
53.457,-0.481,0.997,8.0
66.518,-0.577,0.863,20.0
58.322,-0.487,0.427,20.0
20.168,-0.162,0.031,9.0
20.172,-0.155,-0.082,18.0
20.146,-0.148,-0.196,11.0
20.164,-0.142,0.356,17.0
20.128,-0.136,0.242,17.0
20.119,-0.129,0.127,16.0
20.138,-0.122,0.011,26.0
20.149,-0.116,-0.102,27.0
20.149,-0.11,-0.216,22.0
20.129,-0.104,0.336,31.0
20.13,-0.097,0.222,25.0
20.112,-0.091,0.107,34.0
20.118,-0.084,-0.008,33.0
20.138,-0.078,-0.122,33.0
20.15,-0.072,-0.237,22.0
20.122,-0.066,0.315,32.0
20.115,-0.059,0.201,30.0
20.125,-0.053,0.086,39.0
20.116,-0.047,-0.029,35.0
20.153,-0.04,-0.143,28.0
20.183,-0.034,-0.258,19.0
20.129,-0.028,0.294,28.0
20.119,-0.022,0.179,28.0
20.137,-0.016,0.065,28.0
20.238,-0.009,-0.051,27.0
20.269,-0.003,-0.166,150.0
20.269,0.002,-0.281,150.0
20.131,0.008,0.272,29.0
20.133,0.015,0.157,27.0
20.239,0.021,0.043,20.0
20.259,0.027,-0.073,89.0
20.245,0.033,-0.188,30.0
20.232,0.039,-0.303,1.0
20.152,0.045,0.249,30.0
20.149,0.051,0.135,27.0
20.211,0.058,0.02,31.0
20.19,0.064,-0.096,25.0
20.19,0.07,-0.211,15.0
20.173,0.076,-0.325,0.0
20.151,0.082,0.226,28.0
20.176,0.088,0.112,26.0
20.19,0.094,-0.002,27.0
20.172,0.1,-0.119,34.0
20.181,0.106,-0.234,28.0
20.201,0.112,-0.349,25.0
20.18,0.118,0.202,26.0
20.194,0.125,0.087,32.0
20.204,0.13,-0.026,26.0
20.179,0.136,-0.144,32.0
20.166,0.142,-0.259,35.0
20.191,0.148,-0.374,29.0
20.231,0.155,0.178,23.0
20.282,0.161,0.063,27.0
20.24,0.167,-0.051,18.0
20.179,0.172,-0.168,18.0
20.178,0.178,-0.283,29.0
20.173,0.183,-0.399,35.0
20.309,0.191,0.153,30.0
20.334,0.197,0.038,28.0
0.0,0.0,0.0,0.0
20.172,0.207,-0.194,14.0
20.186,0.213,-0.309,27.0
20.19,0.219,-0.425,27.0
20.311,0.226,0.127,9.0
99.621,1.14,0.058,4.0
0.0,0.0,0.0,0.0
20.207,0.242,-0.221,1.0
20.203,0.248,-0.336,14.0
20.222,0.254,-0.452,16.0
99.6,1.282,0.496,6.0
99.533,1.309,-0.072,1.0
0.0,0.0,0.0,0.0
0.0,0.0,0.0,0.0
42.729,0.597,-0.767,0.0
0.0,0.0,0.0,0.0
99.717,1.451,0.364,5.0
101.481,1.504,-0.209,2.0
0.0,0.0,0.0,0.0
0.0,0.0,0.0,0.0
0.0,0.0,0.0,0.0
33.801,0.538,-0.846,0.0
99.819,1.618,0.227,5.0
0.0,0.0,0.0,0.0
0.0,0.0,0.0,0.0
0.0,0.0,0.0,0.0
37.354,0.645,-0.773,0.0
32.357,0.567,-0.854,1.0
99.912,1.781,0.089,6.0
0.0,0.0,0.0,0.0
0.0,0.0,0.0,0.0
0.0,0.0,0.0,0.0
37.051,0.699,-0.818,0.0
31.378,0.6,-0.873,1.0
99.922,1.941,-0.051,4.0
0.0,0.0,0.0,0.0
0.0,0.0,0.0,0.0
0.0,0.0,0.0,0.0
35.449,0.724,-0.834,0.0
29.951,0.62,-0.876,0.0
100.111,2.102,-0.196,1.0
0.0,0.0,0.0,0.0
0.0,0.0,0.0,0.0
40.343,0.877,-0.776,0.0
33.311,0.732,-0.832,0.0
28.56,0.635,-0.877,1.0
0.0,0.0,0.0,0.0
0.0,0.0,0.0,0.0
0.0,0.0,0.0,0.0
0.0,0.0,0.0,0.0
32.244,0.758,-0.853,1.0
27.378,0.65,-0.881,0.0
0.0,0.0,0.0,0.0
0.0,0.0,0.0,0.0
0.0,0.0,0.0,0.0
36.869,0.912,-0.818,0.0
31.027,0.775,-0.867,1.0
26.245,0.662,-0.884,0.0
73.282,1.868,-0.469,0.0
0.0,0.0,0.0,0.0
0.0,0.0,0.0,0.0
0.0,0.0,0.0,0.0
29.548,0.781,-0.87,0.0
25.31,0.675,-0.891,0.0
0.0,0.0,0.0,0.0
0.0,0.0,0.0,0.0
0.0,0.0,0.0,0.0
32.691,0.903,-0.825,1.0
28.418,0.792,-0.881,0.0
24.315,0.683,-0.893,0.0
0.0,0.0,0.0,0.0
0.0,0.0,0.0,0.0
37.533,1.081,-0.787,0.0
31.957,0.927,-0.857,2.0
26.766,0.783,-0.871,0.0
23.475,0.692,-0.899,0.0
0.0,0.0,0.0,0.0
0.0,0.0,0.0,0.0
36.03,1.087,-0.812,0.0
30.255,0.919,-0.859,1.0
26.02,0.796,-0.888,0.0
22.607,0.696,-0.901,0.0
0.0,0.0,0.0,0.0
0.0,0.0,0.0,0.0
0.0,0.0,0.0,0.0
28.909,0.916,-0.866,0.0
24.874,0.793,-0.888,0.0
22.069,0.709,-0.915,0.0
0.0,0.0,0.0,0.0
0.0,0.0,0.0,0.0
32.437,1.063,-0.834,1.0
28.023,0.924,-0.885,0.0
23.968,0.796,-0.895,0.0
21.009,0.702,-0.905,0.0
0.0,0.0,0.0,0.0
36.368,1.23,-0.785,0.0
30.251,1.029,-0.827,0.0
26.298,0.9,-0.873,0.0
22.91,0.789,-0.892,0.0
20.462,0.709,-0.915,0.0
0.0,0.0,0.0,0.0
35.355,1.239,-0.821,0.0
29.888,1.054,-0.866,1.0
25.386,0.9,-0.884,0.0
22.354,0.797,-0.907,0.0
19.872,0.712,-0.921,0.0
39.171,1.412,-0.748,0.0
32.792,1.188,-0.815,0.0
28.396,1.034,-0.869,0.0
24.462,0.896,-0.892,0.0
21.366,0.786,-0.902,0.0
19.054,0.705,-0.915,0.0
0.0,0.0,0.0,0.0
31.963,1.195,-0.847,0.0
0.0,0.0,0.0,0.0
23.309,0.88,-0.889,0.0
20.631,0.783,-0.906,0.0
18.534,0.707,-0.921,0.0
0.0,0.0,0.0,0.0
30.113,1.159,-0.848,1.0
25.795,0.998,-0.876,0.0
22.644,0.88,-0.901,0.0
20.205,0.789,-0.921,5.0
18.054,0.708,-0.927,0.0
33.238,1.309,-0.801,0.0
28.711,1.136,-0.857,0.0
24.599,0.978,-0.876,0.0
22.109,0.883,-0.917,0.0
19.468,0.781,-0.92,0.0
17.424,0.702,-0.924,0.0
32.216,1.303,-0.831,0.0
0.0,0.0,0.0,0.0
20.225,0.825,-0.755,0.0
20.249,0.829,-0.875,3.0
18.693,0.769,-0.916,0.0
16.94,0.7,-0.928,0.0
30.222,1.253,-0.831,1.0
20.209,0.841,-0.672,0.0
20.247,0.846,-0.791,27.0
20.174,0.846,-0.906,9.0
18.13,0.764,-0.919,0.0
16.463,0.696,-0.93,0.0
29.582,1.256,-0.865,0.0
20.245,0.862,-0.708,152.0
20.237,0.865,-0.825,25.0
20.064,0.861,-0.936,2.0
20.218,0.871,-1.06,23.0
16.055,0.694,-0.935,0.0
20.262,0.879,-0.627,25.0
20.187,0.878,-0.741,165.0
20.235,0.884,-0.86,65.0
20.049,0.879,-0.97,3.0
20.224,0.89,-1.095,13.0
15.572,0.687,-0.934,0.0
20.258,0.896,-0.662,136.0
20.18,0.896,-0.776,164.0
20.207,0.901,-0.894,51.0
0.0,0.0,0.0,0.0
16.59,0.744,-0.927,0.0
15.205,0.685,-0.938,0.0
20.216,0.912,-0.696,156.0
20.24,0.916,-0.813,150.0
20.196,0.917,-0.928,26.0
20.216,0.921,-1.048,9.0
16.161,0.738,-0.932,0.0
14.794,0.678,-0.939,0.0
20.211,0.928,-0.731,155.0
20.229,0.932,-0.848,55.0
20.187,0.933,-0.963,10.0
20.216,0.937,-1.084,2.0
15.728,0.731,-0.934,0.0
14.479,0.675,-0.944,0.0
20.245,0.945,-0.767,151.0
20.187,0.945,-0.881,15.0
20.217,0.949,-1.0,2.0
16.702,0.787,-0.924,0.0
15.258,0.721,-0.933,0.0
14.132,0.669,-0.946,0.0
20.243,0.96,-0.802,2.0
20.193,0.96,-0.917,6.0
20.243,0.965,-1.036,0.0
16.271,0.778,-0.929,0.0
14.891,0.714,-0.937,0.0
13.91,0.669,-0.956,0.0
20.276,0.976,-0.839,0.0
19.917,0.961,-0.939,0.0
17.253,0.834,-0.914,0.0
15.887,0.77,-0.935,0.0
14.567,0.708,-0.942,0.0
13.393,0.653,-0.944,0.0
20.257,0.988,-0.874,5.0
18.596,0.909,-0.91,0.0
16.781,0.822,-0.918,1.0
15.351,0.754,-0.93,0.0
14.322,0.705,-0.951,0.0
13.087,0.646,-0.945,0.0
20.262,1.001,-0.91,10.0
18.012,0.892,-0.913,0.0
16.329,0.81,-0.922,2.0
15.002,0.746,-0.936,0.0
0.0,0.0,0.0,0.0
12.774,0.638,-0.945,0.0
19.758,0.987,-0.922,0.0
17.489,0.875,-0.917,0.0
15.931,0.799,-0.927,1.0
14.632,0.735,-0.938,0.0
13.465,0.678,-0.941,0.0
12.467,0.63,-0.944,0.0
18.778,0.948,-0.908,0.0
16.935,0.856,-0.917,0.0
15.537,0.787,-0.931,1.0
14.342,0.728,-0.944,0.0
13.161,0.67,-0.943,0.0
12.176,0.621,-0.943,0.0
18.22,0.928,-0.913,0.0
16.401,0.837,-0.917,0.0
15.152,0.775,-0.934,1.0
14.039,0.719,-0.949,0.0
12.867,0.661,-0.944,0.0
11.902,0.612,-0.943,0.0
17.604,0.905,-0.912,0.0
15.973,0.822,-0.92,0.0
14.737,0.76,-0.934,0.0
13.554,0.7,-0.939,0.0
12.615,0.653,-0.948,0.0
11.678,0.606,-0.945,0.0
17.092,0.885,-0.915,0.0
15.526,0.806,-0.921,0.0
14.422,0.75,-0.94,0.0
13.269,0.691,-0.943,0.0
12.289,0.641,-0.944,0.0
11.395,0.595,-0.942,0.0
16.572,0.865,-0.916,0.0
15.173,0.793,-0.926,2.0
14.162,0.741,-0.947,0.0
12.971,0.68,-0.944,0.0
11.989,0.629,-0.942,0.0
11.263,0.592,-0.951,0.0
16.145,0.847,-0.92,0.0
14.908,0.783,-0.936,2.0
0.0,0.0,0.0,0.0
12.596,0.664,-0.938,0.0
11.717,0.618,-0.941,0.0
10.954,0.579,-0.943,0.0
15.725,0.83,-0.923,0.0
14.543,0.768,-0.938,0.0
13.351,0.706,-0.938,0.0
12.365,0.655,-0.942,0.0
11.483,0.609,-0.942,0.0
10.733,0.57,-0.942,0.0
15.174,0.804,-0.916,1.0
14.281,0.758,-0.945,0.0
13.102,0.696,-0.943,0.0
12.042,0.64,-0.938,0.0
11.281,0.601,-0.944,0.0
10.557,0.563,-0.945,0.0
14.992,0.798,-0.93,1.0
0.0,0.0,0.0,0.0
12.793,0.682,-0.942,0.0
11.805,0.63,-0.939,0.0
11.035,0.59,-0.942,0.0
10.373,0.555,-0.946,0.0
14.649,0.781,-0.933,1.0
13.521,0.722,-0.94,0.0
12.494,0.668,-0.941,0.0
11.603,0.621,-0.942,0.0
10.863,0.582,-0.945,0.0
10.196,0.547,-0.947,0.0
14.358,0.768,-0.939,0.0
13.217,0.707,-0.94,0.0
12.205,0.654,-0.939,0.0
11.327,0.607,-0.939,0.0
10.663,0.572,-0.946,0.0
10.042,0.539,-0.949,0.0
14.025,0.751,-0.94,0.0
12.935,0.693,-0.942,0.0
11.926,0.64,-0.938,0.0
11.199,0.601,-0.947,0.0
10.434,0.56,-0.943,0.0
9.841,0.529,-0.947,0.0
13.684,0.733,-0.939,0.0
12.582,0.675,-0.937,0.0
11.696,0.627,-0.939,0.0
10.945,0.588,-0.943,0.0
10.275,0.552,-0.945,0.0
9.677,0.52,-0.947,0.0
13.307,0.713,-0.935,0.0
12.375,0.663,-0.941,0.0
11.483,0.616,-0.94,0.0
10.604,0.569,-0.931,0.0
10.137,0.544,-0.949,0.0
9.526,0.512,-0.947,0.0
13.073,0.7,-0.939,0.0
12.078,0.647,-0.938,0.0
11.279,0.604,-0.941,0.0
10.538,0.565,-0.942,0.0
9.908,0.531,-0.943,0.0
9.356,0.502,-0.945,0.0
12.783,0.683,-0.939,0.0
11.846,0.633,-0.938,0.0
11.123,0.595,-0.946,0.0
10.36,0.554,-0.942,0.0
9.776,0.523,-0.946,0.0
9.226,0.494,-0.946,0.0
12.513,0.667,-0.938,0.0
11.629,0.62,-0.939,0.0
10.889,0.581,-0.943,0.0
10.219,0.545,-0.945,0.0
9.59,0.512,-0.943,0.0
9.041,0.483,-0.941,0.0
12.252,0.651,-0.937,0.0
11.386,0.605,-0.937,0.0
10.699,0.569,-0.942,0.0
10.087,0.536,-0.948,0.0
9.473,0.504,-0.946,0.0
8.913,0.474,-0.942,0.0
12.025,0.637,-0.938,0.0
11.29,0.598,-0.946,0.0
10.495,0.556,-0.94,0.0
9.893,0.524,-0.945,0.0
9.316,0.493,-0.944,0.0
8.795,0.466,-0.943,0.0
11.809,0.623,-0.939,0.0
11.005,0.58,-0.939,0.0
10.345,0.545,-0.942,0.0
9.728,0.513,-0.944,0.0
9.166,0.483,-0.943,0.0
8.682,0.458,-0.943,0.0
11.622,0.61,-0.941,0.0
10.805,0.567,-0.937,0.0
10.215,0.536,-0.945,0.0
9.591,0.503,-0.944,0.0
9.038,0.474,-0.943,0.0
8.559,0.449,-0.942,0.0
11.389,0.594,-0.938,0.0
10.628,0.554,-0.937,0.0
10.061,0.524,-0.946,0.0
9.48,0.494,-0.947,0.0
8.922,0.465,-0.943,0.0
8.45,0.44,-0.943,0.0
11.237,0.582,-0.942,0.0
10.484,0.543,-0.939,0.0
9.9,0.512,-0.944,0.0
9.329,0.483,-0.945,0.0
8.772,0.454,-0.94,0.0
8.381,0.433,-0.947,0.0
11.061,0.569,-0.942,0.0
10.352,0.532,-0.942,0.0
9.77,0.502,-0.946,0.0
9.224,0.474,-0.947,0.0
8.688,0.446,-0.943,0.0
8.237,0.423,-0.942,0.0
10.839,0.553,-0.938,0.0
10.22,0.521,-0.944,0.0
9.605,0.489,-0.943,0.0
9.045,0.46,-0.941,0.0
8.586,0.437,-0.943,0.0
8.154,0.415,-0.943,0.0
10.716,0.542,-0.942,0.0
10.056,0.508,-0.942,0.0
9.472,0.478,-0.942,0.0
8.927,0.45,-0.941,0.0
8.459,0.426,-0.941,0.0
8.071,0.407,-0.944,0.0
10.546,0.528,-0.941,0.0
9.955,0.498,-0.945,0.0
9.346,0.467,-0.942,0.0
8.799,0.439,-0.939,0.0
8.391,0.419,-0.944,0.0
7.97,0.397,-0.943,0.0
10.375,0.514,-0.939,0.0
9.811,0.485,-0.944,0.0
9.264,0.458,-0.945,0.0
8.742,0.432,-0.944,0.0
8.298,0.409,-0.944,0.0
7.914,0.39,-0.946,0.0
10.271,0.503,-0.942,0.0
9.69,0.474,-0.945,0.0
9.121,0.446,-0.942,0.0
8.61,0.42,-0.94,0.0
8.211,0.401,-0.944,0.0
7.843,0.382,-0.947,0.0
10.141,0.491,-0.942,0.0
9.55,0.462,-0.942,0.0
8.96,0.433,-0.936,0.0
8.544,0.412,-0.943,0.0
8.139,0.392,-0.946,0.0
7.798,0.375,-0.951,0.0
10.014,0.478,-0.942,0.0
9.409,0.449,-0.939,0.0
8.911,0.425,-0.941,0.0
8.424,0.401,-0.939,0.0
8.031,0.382,-0.942,0.0
7.652,0.363,-0.942,0.0
9.895,0.466,-0.942,0.0
9.301,0.438,-0.939,0.0
8.766,0.412,-0.936,0.0
8.335,0.391,-0.939,0.0
7.964,0.373,-0.943,0.0
7.587,0.355,-0.943,0.0
9.782,0.454,-0.942,0.0
9.247,0.429,-0.944,0.0
8.709,0.403,-0.939,0.0
8.251,0.382,-0.939,0.0
7.888,0.364,-0.943,0.0
7.532,0.347,-0.944,0.0
9.669,0.442,-0.942,0.0
9.103,0.416,-0.939,0.0
8.677,0.396,-0.945,0.0
8.199,0.373,-0.941,0.0
7.831,0.356,-0.945,0.0
7.456,0.338,-0.943,0.0
9.57,0.431,-0.942,0.0
9.041,0.406,-0.942,0.0
8.549,0.383,-0.94,0.0
8.131,0.364,-0.942,0.0
7.798,0.349,-0.949,0.0
7.451,0.332,-0.95,0.0
9.444,0.418,-0.939,0.0
8.897,0.393,-0.936,0.0
8.484,0.374,-0.941,0.0
8.03,0.353,-0.938,0.0
7.695,0.338,-0.944,0.0
7.389,0.324,-0.949,0.0
9.361,0.407,-0.94,0.0
8.853,0.384,-0.94,0.0
8.367,0.362,-0.936,0.0
7.989,0.345,-0.941,0.0
7.636,0.329,-0.944,0.0
7.328,0.315,-0.948,0.0
9.255,0.395,-0.938,0.0
8.743,0.372,-0.936,0.0
8.295,0.352,-0.936,0.0
7.922,0.336,-0.94,0.0
7.612,0.322,-0.948,0.0
7.288,0.307,-0.95,0.0
9.212,0.385,-0.941,0.0
8.713,0.364,-0.941,0.0
8.242,0.343,-0.937,0.0
7.858,0.326,-0.94,0.0
7.539,0.312,-0.945,0.0
7.213,0.298,-0.946,0.0
9.11,0.373,-0.939,0.0
8.609,0.352,-0.937,0.0
8.24,0.336,-0.944,0.0
7.814,0.318,-0.941,0.0
7.514,0.305,-0.948,0.0
7.168,0.29,-0.946,0.0
9.027,0.362,-0.937,0.0
8.56,0.342,-0.938,0.0
8.148,0.325,-0.94,0.0
7.755,0.308,-0.94,0.0
7.451,0.295,-0.946,0.0
7.158,0.283,-0.95,0.0
8.958,0.351,-0.937,0.0
8.539,0.333,-0.942,0.0
8.112,0.316,-0.942,0.0
7.719,0.3,-0.942,0.0
7.409,0.287,-0.946,0.0
7.119,0.275,-0.951,0.0
8.91,0.341,-0.939,0.0
8.451,0.322,-0.939,0.0
8.031,0.305,-0.938,0.0
7.658,0.29,-0.94,0.0
7.343,0.277,-0.943,0.0
7.088,0.267,-0.951,0.0
8.843,0.33,-0.938,0.0
8.363,0.311,-0.935,0.0
8.009,0.297,-0.941,0.0
7.612,0.281,-0.939,0.0
7.334,0.27,-0.947,0.0
7.036,0.258,-0.949,0.0
8.777,0.319,-0.936,0.0
8.333,0.302,-0.937,0.0
7.965,0.287,-0.941,0.0
7.602,0.273,-0.943,0.0
7.275,0.26,-0.944,0.0
7.027,0.251,-0.952,0.0
8.715,0.308,-0.935,0.0
8.303,0.292,-0.938,0.0
7.962,0.279,-0.945,0.0
7.569,0.264,-0.943,0.0
7.246,0.252,-0.944,0.0
6.956,0.241,-0.947,0.0
8.692,0.298,-0.938,0.0
8.289,0.283,-0.941,0.0
7.88,0.268,-0.94,0.0
7.546,0.256,-0.944,0.0
7.22,0.244,-0.945,0.0
7.01,0.236,-0.958,0.0
8.648,0.288,-0.937,0.0
8.219,0.272,-0.938,0.0
7.853,0.259,-0.941,0.0
7.517,0.247,-0.944,0.0
7.248,0.237,-0.952,0.0
6.898,0.225,-0.946,0.0
8.618,0.278,-0.938,0.0
8.19,0.263,-0.938,0.0
7.85,0.251,-0.944,0.0
7.462,0.237,-0.941,0.0
7.208,0.228,-0.95,0.0
6.939,0.219,-0.955,0.0
8.583,0.268,-0.938,0.0
8.207,0.255,-0.944,0.0
7.782,0.24,-0.939,0.0
7.443,0.229,-0.942,0.0
7.2,0.22,-0.952,0.0
6.911,0.21,-0.954,0.0
8.557,0.258,-0.938,0.0
8.144,0.244,-0.939,0.0
7.753,0.231,-0.939,0.0
7.425,0.22,-0.942,0.0
7.131,0.21,-0.946,0.0
0.0,0.0,0.0,0.0
8.538,0.248,-0.939,0.0
8.089,0.234,-0.936,0.0
7.728,0.222,-0.938,0.0
7.404,0.211,-0.942,0.0
7.134,0.203,-0.948,0.0
6.813,0.193,-0.945,0.0
8.499,0.238,-0.938,0.0
8.127,0.226,-0.943,0.0
7.768,0.215,-0.945,0.0
7.451,0.205,-0.95,0.0
7.138,0.195,-0.951,0.0
0.0,0.0,0.0,0.0
8.492,0.228,-0.939,0.0
8.063,0.215,-0.937,0.0
7.739,0.205,-0.943,0.0
0.0,0.0,0.0,0.0
7.134,0.187,-0.952,0.0
0.0,0.0,0.0,0.0
8.472,0.218,-0.938,0.0
8.095,0.207,-0.942,0.0
7.725,0.196,-0.943,0.0
7.351,0.186,-0.94,0.0
7.137,0.179,-0.953,0.0
6.832,0.17,-0.952,0.0
8.462,0.208,-0.939,0.0
8.091,0.198,-0.943,0.0
7.692,0.187,-0.94,0.0
7.361,0.177,-0.942,0.0
7.096,0.17,-0.949,0.0
6.766,0.161,-0.943,0.0
8.435,0.198,-0.937,0.0
8.04,0.187,-0.938,0.0
7.721,0.179,-0.945,0.0
7.384,0.17,-0.946,0.0
7.112,0.162,-0.952,0.0
6.859,0.155,-0.957,0.0
8.456,0.189,-0.94,0.0
8.045,0.178,-0.939,0.0
7.717,0.17,-0.945,0.0
7.353,0.16,-0.943,0.0
7.082,0.153,-0.948,0.0
0.0,0.0,0.0,0.0
8.42,0.179,-0.936,0.0
8.089,0.17,-0.945,0.0
7.696,0.16,-0.942,0.0
0.0,0.0,0.0,0.0
7.094,0.145,-0.949,0.0
6.86,0.139,-0.957,0.0
8.469,0.17,-0.941,0.0
8.017,0.159,-0.936,0.0
7.695,0.151,-0.942,0.0
0.0,0.0,0.0,0.0
0.0,0.0,0.0,0.0
6.839,0.131,-0.954,0.0
8.461,0.16,-0.94,0.0
8.071,0.151,-0.942,0.0
7.724,0.143,-0.945,0.0
0.0,0.0,0.0,0.0
7.07,0.128,-0.945,0.0
0.0,0.0,0.0,0.0
8.476,0.15,-0.94,0.0
8.05,0.141,-0.938,0.0
7.695,0.134,-0.94,0.0
0.0,0.0,0.0,0.0
7.097,0.121,-0.948,0.0
6.849,0.115,-0.953,0.0
8.453,0.14,-0.936,0.0
8.006,0.131,-0.932,0.0
7.749,0.126,-0.945,0.0
0.0,0.0,0.0,0.0
7.051,0.112,-0.94,0.0
0.0,0.0,0.0,0.0
8.503,0.131,-0.94,0.0
8.047,0.123,-0.935,0.0
7.734,0.116,-0.942,0.0
0.0,0.0,0.0,0.0
7.117,0.104,-0.947,0.0
6.836,0.099,-0.949,0.0
8.516,0.122,-0.939,0.0
8.042,0.113,-0.932,0.0
7.726,0.107,-0.939,0.0
7.418,0.102,-0.944,0.0
7.126,0.096,-0.947,0.0
6.826,0.091,-0.945,0.0
8.558,0.112,-0.941,0.0
8.132,0.105,-0.94,0.0
7.788,0.099,-0.944,0.0
7.416,0.093,-0.941,0.0
7.166,0.089,-0.949,0.0
6.904,0.084,-0.954,0.0
8.562,0.103,-0.939,0.0
8.184,0.097,-0.943,0.0
7.806,0.091,-0.943,0.0
7.459,0.085,-0.944,0.0
7.151,0.08,-0.945,0.0
0.0,0.0,0.0,0.0
8.607,0.094,-0.941,0.0
8.198,0.087,-0.941,0.0
7.837,0.082,-0.944,0.0
7.469,0.077,-0.942,0.0
7.207,0.073,-0.949,0.0
6.908,0.068,-0.948,0.0
8.65,0.084,-0.941,0.0
8.227,0.078,-0.941,0.0
7.868,0.074,-0.944,0.0
7.497,0.069,-0.942,0.0
7.262,0.065,-0.953,0.0
6.96,0.061,-0.952,0.0
8.667,0.075,-0.939,0.0
8.276,0.07,-0.943,0.0
7.895,0.065,-0.943,0.0
7.515,0.06,-0.94,0.0
7.279,0.057,-0.951,0.0
6.951,0.053,-0.947,0.0
8.723,0.065,-0.941,0.0
8.301,0.061,-0.941,0.0
7.883,0.056,-0.937,0.0
7.565,0.052,-0.942,0.0
7.257,0.049,-0.944,0.0
6.993,0.045,-0.949,0.0
8.749,0.056,-0.939,0.0
8.305,0.051,-0.937,0.0
7.986,0.048,-0.945,0.0
7.628,0.044,-0.946,0.0
7.3,0.041,-0.946,0.0
6.998,0.038,-0.945,0.0
8.772,0.046,-0.936,0.0
8.367,0.042,-0.938,0.0
7.994,0.039,-0.941,0.0
7.651,0.036,-0.944,0.0
7.362,0.033,-0.949,0.0
7.069,0.03,-0.95,0.0
8.844,0.037,-0.937,0.0
8.384,0.033,-0.935,0.0
8.053,0.03,-0.942,0.0
7.704,0.028,-0.945,0.0
7.429,0.025,-0.952,0.0
7.122,0.023,-0.953,0.0
8.922,0.028,-0.939,0.0
8.49,0.025,-0.941,0.0
8.095,0.022,-0.941,0.0
7.696,0.019,-0.938,0.0
7.429,0.017,-0.947,0.0
7.13,0.015,-0.948,0.0
8.979,0.018,-0.939,0.0
8.514,0.016,-0.937,0.0
8.152,0.013,-0.942,0.0
7.78,0.011,-0.943,0.0
7.487,0.009,-0.948,0.0
7.18,0.007,-0.949,0.0
9.066,0.009,-0.941,0.0
8.614,0.007,-0.941,0.0
8.182,0.005,-0.939,0.0
7.804,0.003,-0.939,0.0
7.484,0.001,-0.942,0.0
7.222,0.0,-0.949,0.0
9.152,0.0,-0.942,0.0
8.67,-0.001,-0.94,0.0
8.256,-0.003,-0.94,0.0
7.866,-0.004,-0.94,0.0
7.579,-0.006,-0.947,0.0
7.3,-0.007,-0.953,0.0
9.221,-0.009,-0.941,0.0
8.744,-0.01,-0.94,0.0
8.313,-0.011,-0.939,0.0
7.944,-0.012,-0.942,0.0
7.58,-0.013,-0.94,0.0
7.318,-0.014,-0.948,0.0
9.33,-0.019,-0.944,0.0
8.824,-0.019,-0.941,0.0
8.381,-0.02,-0.939,0.0
8.034,-0.021,-0.945,0.0
7.636,-0.021,-0.94,0.0
7.38,-0.022,-0.949,0.0
9.408,-0.028,-0.943,0.0
8.901,-0.028,-0.94,0.0
8.461,-0.028,-0.94,0.0
8.074,-0.029,-0.942,0.0
7.756,-0.029,-0.947,0.0
7.426,-0.029,-0.948,0.0
9.534,-0.038,-0.946,0.0
8.983,-0.037,-0.94,0.0
8.544,-0.037,-0.94,0.0
8.154,-0.037,-0.943,0.0
7.784,-0.036,-0.942,0.0
7.502,-0.037,-0.949,0.0
9.608,-0.047,-0.943,0.0
9.125,-0.046,-0.945,0.0
8.67,-0.046,-0.945,0.0
8.229,-0.045,-0.943,0.0
7.845,-0.044,-0.941,0.0
7.535,-0.044,-0.945,0.0
9.736,-0.057,-0.945,0.0
9.185,-0.055,-0.941,0.0
8.722,-0.054,-0.941,0.0
8.279,-0.053,-0.939,0.0
7.937,-0.052,-0.944,0.0
7.617,-0.051,-0.947,0.0
9.864,-0.067,-0.947,0.0
9.301,-0.065,-0.943,0.0
8.79,-0.063,-0.938,0.0
8.389,-0.061,-0.942,0.0
7.998,-0.06,-0.942,0.0
7.66,-0.059,-0.943,0.0
9.996,-0.077,-0.948,0.0
9.45,-0.074,-0.947,0.0
8.922,-0.071,-0.942,0.0
8.479,-0.069,-0.942,0.0
8.111,-0.068,-0.945,0.0
7.763,-0.066,-0.947,0.0
10.105,-0.086,-0.946,0.0
9.559,-0.083,-0.946,0.0
9.038,-0.08,-0.943,0.0
