X,Y,Z,Reflectivity
21.626,1.581,-0.909,0.0
19.34,1.417,-0.924,0.0
17.195,1.263,-0.92,0.0
31.581,2.326,-0.826,0.0
27.117,2.002,-0.865,0.0
23.507,1.739,-0.884,0.0
21.115,1.566,-0.918,0.0
0.0,0.0,0.0,0.0
16.899,1.259,-0.929,0.0
30.093,2.249,-0.83,0.0
26.006,1.947,-0.866,0.0
21.911,1.644,-0.856,0.0
19.8,1.489,-0.889,0.0
18.078,1.362,-0.915,0.0
16.421,1.24,-0.926,0.0
28.966,2.194,-0.84,0.0
24.863,1.886,-0.864,0.0
21.809,1.658,-0.883,1.0
19.535,1.488,-0.905,0.0
17.504,1.336,-0.911,0.0
16.054,1.228,-0.928,0.0
27.946,2.143,-0.851,0.0
24.228,1.862,-0.877,0.0
21.728,1.673,-0.911,0.0
18.997,1.466,-0.907,0.0
17.118,1.323,-0.916,0.0
15.733,1.219,-0.932,0.0
26.892,2.087,-0.858,0.0
23.362,1.817,-0.879,0.0
20.666,1.61,-0.896,0.0
18.572,1.45,-0.914,2.0
16.794,1.313,-0.923,0.0
15.282,1.197,-0.928,0.0
25.842,2.029,-0.862,0.0
21.896,1.722,-0.856,3.0
19.996,1.575,-0.897,0.0
18.447,1.456,-0.935,0.0
16.391,1.296,-0.925,0.0
15.016,1.189,-0.934,0.0
24.663,1.957,-0.858,1.0
21.812,1.733,-0.885,8.0
19.449,1.548,-0.9,0.0
17.632,1.406,-0.919,0.0
16.046,1.282,-0.929,0.0
14.69,1.176,-0.935,0.0
24.133,1.934,-0.875,1.0
21.753,1.746,-0.914,1.0
19.245,1.547,-0.919,0.0
17.127,1.379,-0.918,0.0
15.646,1.262,-0.929,0.0
14.452,1.168,-0.942,0.0
21.937,1.775,-0.828,1.0
20.747,1.681,-0.902,0.0
0.0,0.0,0.0,0.0
16.725,1.359,-0.922,0.0
15.253,1.242,-0.928,0.0
14.201,1.158,-0.946,0.0
21.873,1.785,-0.858,7.0
19.64,1.605,-0.883,0.0
0.0,0.0,0.0,0.0
16.287,1.335,-0.921,0.0
14.934,1.226,-0.931,0.0
13.704,1.127,-0.933,0.0
21.823,1.796,-0.888,7.0
19.454,1.603,-0.903,0.0
17.277,1.426,-0.902,0.0
15.929,1.316,-0.925,0.0
14.606,1.209,-0.932,0.0
13.476,1.117,-0.938,0.0
21.693,1.799,-0.915,1.0
19.258,1.599,-0.923,0.0
17.09,1.421,-0.917,0.0
15.58,1.297,-0.928,0.0
14.417,1.202,-0.942,0.0
13.31,1.111,-0.946,0.0
20.727,1.731,-0.905,0.0
18.257,1.526,-0.902,0.0
16.674,1.396,-0.92,0.0
15.138,1.269,-0.924,0.0
14.221,1.194,-0.95,0.0
13.028,1.095,-0.946,0.0
19.631,1.65,-0.886,0.0
17.79,1.497,-0.905,0.0
16.243,1.368,-0.92,0.0
14.889,1.256,-0.931,0.0
13.724,1.159,-0.937,0.0
12.76,1.079,-0.945,0.0
19.423,1.642,-0.905,0.0
17.328,1.467,-0.907,0.0
15.901,1.347,-0.924,0.0
14.588,1.237,-0.933,0.0
13.46,1.143,-0.939,0.0
12.475,1.061,-0.942,0.0
19.08,1.622,-0.917,0.0
17.052,1.451,-0.918,0.0
15.574,1.327,-0.928,0.0
14.338,1.223,-0.938,0.0
13.241,1.13,-0.943,0.0
12.228,1.045,-0.942,0.0
18.313,1.564,-0.907,0.0
16.568,1.416,-0.916,0.0
15.168,1.298,-0.926,0.0
14.227,1.219,-0.952,0.0
12.992,1.114,-0.944,0.0
11.98,1.028,-0.94,0.0
17.879,1.534,-0.911,0.0
16.25,1.395,-0.922,0.0
14.863,1.277,-0.929,0.0
13.604,1.17,-0.93,0.0
12.718,1.095,-0.943,0.0
11.767,1.014,-0.941,0.0
17.285,1.488,-0.906,0.0
15.866,1.367,-0.923,0.0
14.599,1.259,-0.934,0.0
13.385,1.155,-0.935,0.0
12.494,1.079,-0.945,0.0
11.578,1.001,-0.942,0.0
16.978,1.467,-0.915,0.0
15.496,1.34,-0.924,0.0
14.328,1.24,-0.937,0.0
13.205,1.143,-0.941,0.0
12.24,1.061,-0.943,0.0
11.402,0.989,-0.945,0.0
16.581,1.436,-0.917,0.0
15.142,1.313,-0.925,0.0
14.171,1.229,-0.947,0.0
12.948,1.124,-0.942,0.0
11.96,1.039,-0.939,0.0
11.253,0.978,-0.949,0.0
16.198,1.406,-0.919,0.0
14.833,1.289,-0.927,0.0
13.789,1.199,-0.941,0.0
12.637,1.099,-0.937,0.0
11.793,1.027,-0.943,0.0
11.073,0.965,-0.949,0.0
15.866,1.38,-0.922,0.0
14.6,1.271,-0.933,0.0
13.373,1.164,-0.932,0.0
12.412,1.081,-0.938,0.0
11.57,1.009,-0.941,0.0
10.905,0.951,-0.95,0.0
15.512,1.351,-0.924,0.0
14.342,1.249,-0.937,0.0
13.2,1.151,-0.938,0.0
12.216,1.065,-0.94,0.0
11.391,0.994,-0.943,0.0
10.739,0.938,-0.951,0.0
15.147,1.32,-0.923,0.0
14.084,1.228,-0.939,0.0
12.947,1.129,-0.938,0.0
12.002,1.047,-0.941,0.0
11.274,0.984,-0.949,0.0
10.619,0.928,-0.955,0.0
14.857,1.295,-0.926,0.0
0.0,0.0,0.0,0.0
12.703,1.108,-0.938,0.0
11.786,1.029,-0.94,0.0
11.071,0.966,-0.947,0.0
10.365,0.905,-0.946,0.0
14.627,1.275,-0.931,0.0
13.422,1.17,-0.932,0.0
12.471,1.087,-0.938,0.0
11.595,1.011,-0.94,0.0
10.817,0.944,-0.94,0.0
10.159,0.887,-0.941,0.0
14.363,1.251,-0.934,0.0
13.231,1.152,-0.936,0.0
12.27,1.069,-0.939,0.0
11.419,0.995,-0.941,0.0
10.742,0.936,-0.948,0.0
10.06,0.877,-0.946,0.0
14.209,1.236,-0.943,0.0
13.034,1.134,-0.94,0.0
12.028,1.047,-0.937,0.0
11.25,0.979,-0.942,0.0
10.562,0.919,-0.946,0.0
9.938,0.865,-0.948,0.0
13.993,1.215,-0.947,0.0
12.787,1.11,-0.939,0.0
11.862,1.03,-0.939,0.0
11.102,0.964,-0.944,0.0
10.391,0.903,-0.944,0.0
9.757,0.848,-0.943,0.0
13.594,1.178,-0.937,0.0
12.582,1.09,-0.94,0.0
11.65,1.009,-0.937,0.0
10.88,0.943,-0.94,0.0
10.231,0.887,-0.943,0.0
9.629,0.835,-0.943,0.0
13.394,1.157,-0.94,0.0
12.352,1.067,-0.938,0.0
11.473,0.991,-0.938,0.0
10.733,0.927,-0.94,0.0
10.119,0.874,-0.945,0.0
9.489,0.82,-0.941,0.0
13.104,1.129,-0.936,0.0
12.133,1.045,-0.937,0.0
11.357,0.978,-0.942,0.0
0.0,0.0,0.0,0.0
10.0,0.861,-0.946,0.0
9.399,0.809,-0.944,0.0
12.908,1.108,-0.938,0.0
11.95,1.025,-0.937,0.0
11.155,0.957,-0.939,0.0
10.407,0.893,-0.937,0.0
9.857,0.846,-0.945,0.0
9.286,0.797,-0.944,0.0
12.695,1.085,-0.938,0.0
11.797,1.008,-0.939,0.0
10.999,0.94,-0.939,0.0
10.325,0.882,-0.942,0.0
9.718,0.83,-0.943,0.0
9.199,0.786,-0.946,0.0
12.5,1.064,-0.938,0.0
11.604,0.987,-0.938,0.0
10.805,0.919,-0.935,0.0
10.195,0.867,-0.943,0.0
9.596,0.816,-0.943,0.0
9.039,0.768,-0.94,0.0
12.31,1.042,-0.938,0.0
11.458,0.97,-0.939,0.0
10.775,0.911,-0.945,0.0
10.108,0.855,-0.946,0.0
9.463,0.8,-0.94,0.0
8.968,0.758,-0.943,0.0
12.107,1.019,-0.936,0.0
11.364,0.956,-0.944,0.0
10.51,0.884,-0.933,0.0
9.94,0.836,-0.941,0.0
9.384,0.789,-0.943,0.0
8.842,0.743,-0.94,0.0
11.931,0.999,-0.935,0.0
11.185,0.936,-0.941,0.0
10.462,0.875,-0.941,0.0
9.85,0.823,-0.943,0.0
9.277,0.775,-0.942,0.0
8.729,0.729,-0.937,0.0
11.798,0.981,-0.938,0.0
11.061,0.919,-0.942,0.0
10.353,0.86,-0.942,0.0
9.749,0.809,-0.944,0.0
9.196,0.763,-0.943,0.0
8.702,0.722,-0.943,0.0
11.63,0.96,-0.936,0.0
10.941,0.903,-0.943,0.0
10.225,0.843,-0.941,0.0
9.612,0.792,-0.941,0.0
9.113,0.751,-0.944,0.0
8.633,0.711,-0.945,0.0
11.521,0.944,-0.939,0.0
10.761,0.881,-0.939,0.0
10.123,0.829,-0.941,0.0
9.545,0.781,-0.944,0.0
8.995,0.735,-0.941,0.0
8.539,0.698,-0.943,0.0
11.379,0.925,-0.939,0.0
10.661,0.866,-0.94,0.0
10.022,0.814,-0.942,0.0
9.429,0.765,-0.941,0.0
8.884,0.72,-0.938,0.0
8.474,0.687,-0.944,0.0
11.308,0.912,-0.943,0.0
10.488,0.845,-0.935,0.0
9.949,0.801,-0.944,0.0
9.333,0.751,-0.94,0.0
8.836,0.71,-0.941,0.0
8.387,0.674,-0.942,0.0
11.208,0.896,-0.945,0.0
10.427,0.833,-0.939,0.0
9.808,0.783,-0.94,0.0
9.252,0.737,-0.941,0.0
8.792,0.7,-0.944,0.0
8.331,0.663,-0.943,0.0
11.07,0.876,-0.943,0.0
10.329,0.817,-0.939,0.0
9.711,0.767,-0.939,0.0
9.17,0.724,-0.94,0.0
8.72,0.688,-0.944,0.0
8.271,0.652,-0.944,0.0
10.95,0.858,-0.942,0.0
10.269,0.804,-0.942,0.0
9.601,0.751,-0.936,0.0
9.133,0.714,-0.944,0.0
8.61,0.672,-0.94,0.0
8.197,0.639,-0.942,0.0
10.821,0.84,-0.94,0.0
10.174,0.788,-0.942,0.0
9.569,0.741,-0.941,0.0
9.062,0.701,-0.944,0.0
8.587,0.663,-0.944,0.0
8.151,0.629,-0.943,0.0
10.712,0.822,-0.939,0.0
10.091,0.774,-0.942,0.0
9.497,0.727,-0.941,0.0
8.98,0.687,-0.942,0.0
8.524,0.651,-0.943,0.0
8.117,0.619,-0.945,0.0
10.562,0.802,-0.933,0.0
9.99,0.757,-0.94,0.0
9.421,0.713,-0.94,0.0
8.912,0.674,-0.941,0.0
8.467,0.639,-0.943,0.0
8.06,0.608,-0.944,0.0
10.496,0.787,-0.935,0.0
9.909,0.742,-0.939,0.0
9.42,0.704,-0.947,0.0
8.863,0.662,-0.942,0.0
8.4,0.627,-0.941,0.0
8.011,0.597,-0.944,0.0
10.447,0.774,-0.937,0.0
9.88,0.731,-0.943,0.0
9.312,0.688,-0.942,0.0
8.805,0.649,-0.942,0.0
8.363,0.616,-0.943,0.0
7.974,0.587,-0.945,0.0
10.435,0.763,-0.943,0.0
9.824,0.717,-0.943,0.0
9.266,0.675,-0.943,0.0
8.766,0.638,-0.943,0.0
8.311,0.604,-0.942,0.0
7.926,0.575,-0.944,0.0
10.331,0.745,-0.939,0.0
9.765,0.703,-0.943,0.0
9.205,0.662,-0.942,0.0
8.69,0.624,-0.94,0.0
8.255,0.592,-0.94,0.0
7.89,0.565,-0.944,0.0
10.262,0.73,-0.938,0.0
9.678,0.687,-0.94,0.0
9.17,0.65,-0.943,0.0
8.656,0.613,-0.941,0.0
8.238,0.582,-0.942,0.0
7.882,0.556,-0.947,0.0
10.263,0.72,-0.944,0.0
9.666,0.677,-0.944,0.0
9.084,0.635,-0.939,0.0
8.635,0.602,-0.943,0.0
8.208,0.571,-0.943,0.0
7.848,0.545,-0.947,0.0
10.211,0.705,-0.944,0.0
9.597,0.662,-0.942,0.0
9.039,0.622,-0.938,0.0
8.57,0.589,-0.939,0.0
8.216,0.563,-0.947,0.0
7.817,0.535,-0.946,0.0
10.174,0.692,-0.945,0.0
9.564,0.649,-0.942,0.0
9.071,0.614,-0.945,0.0
8.55,0.578,-0.941,0.0
8.142,0.549,-0.942,0.0
7.785,0.524,-0.945,0.0
10.128,0.678,-0.944,0.0
9.509,0.635,-0.94,0.0
9.023,0.601,-0.944,0.0
8.514,0.566,-0.94,0.0
8.102,0.538,-0.941,0.0
7.764,0.514,-0.946,0.0
10.097,0.664,-0.945,0.0
9.515,0.625,-0.944,0.0
8.979,0.588,-0.942,0.0
8.509,0.556,-0.942,0.0
8.098,0.528,-0.943,0.0
7.738,0.504,-0.945,0.0
10.064,0.651,-0.945,0.0
9.462,0.611,-0.942,0.0
8.934,0.575,-0.94,0.0
8.474,0.544,-0.94,0.0
8.084,0.518,-0.943,0.0
7.722,0.494,-0.945,0.0
10.028,0.637,-0.944,0.0
9.445,0.599,-0.942,0.0
8.911,0.564,-0.94,0.0
8.46,0.534,-0.941,0.0
8.093,0.509,-0.946,0.0
7.722,0.485,-0.947,0.0
10.013,0.625,-0.945,0.0
9.426,0.587,-0.942,0.0
8.924,0.554,-0.943,0.0
8.469,0.524,-0.943,0.0
8.07,0.498,-0.945,0.0
7.7,0.474,-0.945,0.0
9.987,0.611,-0.944,0.0
9.406,0.574,-0.942,0.0
8.884,0.541,-0.94,0.0
8.436,0.512,-0.941,0.0
8.028,0.486,-0.941,0.0
7.701,0.465,-0.947,0.0
9.981,0.599,-0.944,0.0
9.402,0.563,-0.943,0.0
8.838,0.527,-0.936,0.0
8.394,0.5,-0.937,0.0
8.049,0.478,-0.944,0.0
7.689,0.455,-0.946,0.0
9.956,0.585,-0.943,0.0
9.409,0.552,-0.944,0.0
8.878,0.519,-0.941,0.0
8.433,0.492,-0.942,0.0
8.056,0.468,-0.946,0.0
7.718,0.447,-0.95,0.0
9.946,0.573,-0.942,0.0
9.394,0.539,-0.943,0.0
8.878,0.508,-0.941,0.0
8.438,0.481,-0.943,0.0
8.063,0.459,-0.947,0.0
7.679,0.436,-0.945,0.0
9.949,0.561,-0.943,0.0
9.388,0.527,-0.942,0.0
8.866,0.496,-0.94,0.0
8.462,0.472,-0.945,0.0
8.052,0.448,-0.945,0.0
7.713,0.428,-0.949,0.0
9.941,0.548,-0.941,0.0
9.416,0.517,-0.944,0.0
8.893,0.487,-0.942,0.0
8.434,0.46,-0.942,0.0
8.057,0.438,-0.945,0.0
7.713,0.418,-0.948,0.0
9.956,0.536,-0.942,0.0
9.436,0.506,-0.945,0.0
8.894,0.476,-0.941,0.0
8.431,0.449,-0.94,0.0
8.085,0.429,-0.947,0.0
7.718,0.409,-0.948,0.0
10.015,0.526,-0.946,0.0
9.446,0.495,-0.945,0.0
8.912,0.465,-0.941,0.0
8.471,0.441,-0.943,0.0
8.091,0.419,-0.947,0.0
7.733,0.399,-0.948,0.0
9.994,0.513,-0.942,0.0
9.462,0.484,-0.945,0.0
8.911,0.454,-0.94,0.0
8.515,0.432,-0.946,0.0
8.092,0.409,-0.945,0.0
7.738,0.39,-0.947,0.0
10.03,0.502,-0.943,0.0
9.461,0.471,-0.942,0.0
8.954,0.444,-0.942,0.0
8.496,0.42,-0.942,0.0
8.105,0.399,-0.944,0.0
7.739,0.38,-0.945,0.0
10.086,0.492,-0.946,0.0
9.502,0.461,-0.944,0.0
9.003,0.435,-0.944,0.0
8.512,0.41,-0.941,0.0
8.176,0.392,-0.95,0.0
7.808,0.373,-0.951,0.0
10.115,0.48,-0.945,0.0
9.549,0.451,-0.945,0.0
8.985,0.423,-0.94,0.0
8.583,0.402,-0.946,0.0
8.142,0.38,-0.943,0.0
7.817,0.363,-0.949,0.0
10.143,0.468,-0.944,0.0
9.587,0.441,-0.945,0.0
9.041,0.414,-0.942,0.0
8.581,0.391,-0.943,0.0
8.226,0.373,-0.95,0.0
7.785,0.352,-0.942,0.0
10.205,0.458,-0.946,0.0
9.643,0.431,-0.947,0.0
9.09,0.404,-0.943,0.0
8.611,0.381,-0.942,0.0
8.204,0.361,-0.943,0.0
7.815,0.343,-0.942,0.0
10.234,0.446,-0.944,0.0
9.662,0.419,-0.944,0.0
9.138,0.394,-0.944,0.0
8.657,0.372,-0.943,0.0
8.253,0.353,-0.945,0.0
7.855,0.334,-0.943,0.0
10.298,0.435,-0.944,0.0
9.728,0.409,-0.946,0.0
9.191,0.385,-0.945,0.0
8.715,0.363,-0.945,0.0
8.288,0.344,-0.945,0.0
7.906,0.326,-0.945,0.0
10.376,0.425,-0.946,0.0
9.761,0.398,-0.944,0.0
9.244,0.375,-0.945,0.0
8.737,0.353,-0.942,0.0
8.3,0.333,-0.941,0.0
7.933,0.317,-0.944,0.0
10.433,0.414,-0.945,0.0
9.831,0.388,-0.945,0.0
9.282,0.364,-0.943,0.0
8.8,0.344,-0.944,0.0
8.375,0.325,-0.944,0.0
8.011,0.31,-0.948,0.0
10.479,0.402,-0.943,0.0
9.923,0.379,-0.947,0.0
9.355,0.355,-0.944,0.0
8.837,0.334,-0.942,0.0
8.404,0.316,-0.942,0.0
8.012,0.299,-0.942,0.0
10.571,0.392,-0.944,0.0
9.974,0.368,-0.945,0.0
9.436,0.346,-0.946,0.0
8.892,0.324,-0.941,0.0
8.469,0.307,-0.943,0.0
8.099,0.292,-0.947,0.0
10.629,0.381,-0.941,0.0
10.072,0.358,-0.947,0.0
9.493,0.336,-0.945,0.0
9.01,0.317,-0.947,0.0
8.545,0.299,-0.945,0.0
8.15,0.283,-0.946,0.0
10.779,0.372,-0.946,0.0
10.181,0.349,-0.949,0.0
9.568,0.326,-0.945,0.0
9.057,0.307,-0.945,0.0
8.609,0.29,-0.945,0.0
8.161,0.273,-0.941,0.0
11.001,0.366,-0.957,0.0
10.224,0.338,-0.945,0.0
9.656,0.317,-0.945,0.0
9.142,0.298,-0.946,0.0
8.652,0.28,-0.943,0.0
8.222,0.265,-0.941,0.0
11.06,0.354,-0.952,0.0
10.32,0.328,-0.945,0.0
9.72,0.307,-0.943,0.0
9.221,0.289,-0.946,0.0
8.737,0.272,-0.944,0.0
8.327,0.258,-0.946,0.0
11.124,0.342,-0.948,0.0
10.447,0.319,-0.947,0.0
9.843,0.298,-0.946,0.0
9.308,0.28,-0.946,0.0
8.815,0.264,-0.944,0.0
8.39,0.249,-0.945,0.0
11.231,0.331,-0.946,0.0
10.528,0.308,-0.944,0.0
9.944,0.289,-0.946,0.0
9.405,0.272,-0.947,0.0
8.9,0.255,-0.945,0.0
8.472,0.241,-0.946,0.0
11.36,0.321,-0.946,0.0
10.671,0.299,-0.947,0.0
10.062,0.28,-0.947,0.0
9.496,0.262,-0.946,0.0
8.987,0.246,-0.945,0.0
8.536,0.232,-0.944,0.0
11.458,0.31,-0.942,0.0
10.782,0.289,-0.945,0.0
10.181,0.271,-0.948,0.0
9.624,0.254,-0.949,0.0
9.087,0.238,-0.946,0.0
8.648,0.225,-0.947,0.0
11.589,0.3,-0.941,0.0
10.858,0.278,-0.94,0.0
10.285,0.262,-0.946,0.0
9.732,0.245,-0.949,0.0
9.218,0.231,-0.949,0.0
8.705,0.216,-0.944,0.0
11.83,0.292,-0.947,0.0
11.12,0.272,-0.951,0.0
10.405,0.252,-0.946,0.0
9.843,0.237,-0.949,0.0
9.298,0.222,-0.947,0.0
8.81,0.208,-0.945,0.0
12.019,0.282,-0.949,0.0
11.221,0.261,-0.946,0.0
10.551,0.243,-0.947,0.0
9.944,0.227,-0.947,0.0
9.407,0.213,-0.947,0.0
8.906,0.2,-0.945,0.0
12.152,0.271,-0.945,0.0
11.345,0.251,-0.943,0.0
10.688,0.234,-0.946,0.0
10.061,0.218,-0.946,0.0
9.556,0.205,-0.95,0.0
9.035,0.192,-0.947,0.0
12.38,0.262,-0.947,0.0
11.488,0.241,-0.941,0.0
10.871,0.226,-0.949,0.0
10.243,0.211,-0.95,0.0
9.669,0.197,-0.949,0.0
9.144,0.184,-0.947,0.0
12.565,0.252,-0.946,0.0
11.73,0.233,-0.946,0.0
11.035,0.217,-0.949,0.0
10.372,0.202,-0.949,0.0
9.818,0.189,-0.951,0.0
9.263,0.177,-0.947,0.0
12.816,0.243,-0.948,0.0
11.934,0.224,-0.947,0.0
11.2,0.208,-0.949,0.0
10.471,0.192,-0.944,0.0
9.936,0.181,-0.949,0.0
9.382,0.169,-0.947,0.0
13.086,0.234,-0.95,0.0
12.125,0.214,-0.945,0.0
11.393,0.199,-0.949,0.0
10.685,0.185,-0.949,0.0
10.083,0.172,-0.949,0.0
9.549,0.161,-0.95,0.0
13.306,0.224,-0.948,0.0
12.364,0.205,-0.947,0.0
11.565,0.19,-0.947,0.0
10.887,0.177,-0.951,0.0
10.272,0.165,-0.952,0.0
9.687,0.153,-0.95,0.0
13.523,0.213,-0.944,0.0
12.606,0.196,-0.947,0.0
11.748,0.181,-0.945,0.0
11.108,0.169,-0.954,0.0
10.406,0.156,-0.95,0.0
9.857,0.146,-0.952,0.0
13.769,0.203,-0.941,0.0
12.895,0.187,-0.95,0.0
11.986,0.172,-0.947,0.0
11.239,0.159,-0.949,0.0
10.549,0.147,-0.947,0.0
9.991,0.138,-0.95,0.0
20.179,0.277,-1.35,0.0
13.2,0.179,-0.953,0.0
12.273,0.164,-0.951,0.0
11.449,0.151,-0.95,0.0
10.706,0.139,-0.945,0.0
10.197,0.131,-0.954,0.0
14.52,0.185,-0.949,0.0
13.407,0.169,-0.948,0.0
12.517,0.155,-0.951,0.0
11.7,0.143,-0.952,0.0
11.039,0.133,-0.957,0.0
10.347,0.123,-0.952,0.0
14.797,0.175,-0.944,0.0
20.171,0.235,-1.394,0.0
12.803,0.147,-0.953,0.0
11.859,0.134,-0.946,0.0
11.186,0.124,-0.952,0.0
10.515,0.115,-0.951,0.0
15.122,0.165,-0.941,0.0
20.143,0.216,-1.36,0.0
13.06,0.138,-0.951,0.0
12.184,0.126,-0.953,0.0
11.369,0.116,-0.949,0.0
10.718,0.107,-0.952,0.0
15.541,0.155,-0.942,0.0
14.44,0.142,-0.952,0.0
13.362,0.129,-0.951,0.0
12.473,0.118,-0.955,0.0
11.529,0.107,-0.944,0.0
20.276,0.186,-1.768,0.0
16.013,0.146,-0.945,0.0
14.717,0.132,-0.946,0.0
18.581,0.164,-1.292,0.0
12.693,0.11,-0.951,0.0
11.882,0.101,-0.953,0.0
11.169,0.093,-0.955,0.0
16.378,0.136,-0.939,0.0
15.065,0.122,-0.943,0.0
18.566,0.148,-1.26,0.0
13.054,0.102,-0.956,0.0
12.178,0.093,-0.956,0.0
11.422,0.085,-0.957,0.0
16.822,0.125,-0.936,0.0
15.507,0.113,-0.944,0.0
14.444,0.103,-0.955,0.0
13.342,0.093,-0.954,0.0
12.443,0.085,-0.955,0.0
11.484,0.077,-0.942,0.0
18.475,0.123,-0.995,1.0
16.016,0.104,-0.947,0.0
14.73,0.094,-0.948,0.0
13.577,0.084,-0.947,0.0
12.723,0.077,-0.954,0.0
11.872,0.07,-0.953,0.0
18.39,0.109,-0.958,0.0
16.373,0.094,-0.939,0.0
15.149,0.085,-0.948,0.0
14.043,0.077,-0.954,0.0
13.133,0.07,-0.961,0.0
12.21,0.063,-0.958,0.0
18.488,0.096,-0.931,9.0
16.837,0.085,-0.936,0.0
15.543,0.076,-0.945,0.0
14.447,0.069,-0.956,0.0
13.345,0.062,-0.953,0.0
12.456,0.056,-0.955,0.0
18.555,0.083,-0.901,1.0
17.374,0.076,-0.934,0.0
16.016,0.068,-0.944,0.0
14.776,0.06,-0.95,0.0
13.818,0.055,-0.961,0.0
12.777,0.049,-0.956,0.0
20.227,0.077,-0.944,3.0
18.069,0.067,-0.938,0.0
16.528,0.059,-0.944,0.0
15.207,0.052,-0.95,0.0
14.21,0.047,-0.962,0.0
13.166,0.042,-0.96,0.0
20.246,0.065,-0.907,14.0
18.604,0.057,-0.931,0.0
16.957,0.05,-0.937,0.0
15.632,0.044,-0.947,0.0
14.531,0.039,-0.956,0.0
13.425,0.034,-0.954,0.0
20.249,0.052,-0.869,26.0
20.114,0.05,-0.968,3.0
20.299,0.048,-1.083,0.0
16.215,0.036,-0.952,0.0
14.911,0.031,-0.953,0.0
20.254,0.041,-1.4,0.0
20.273,0.041,-0.832,150.0
20.189,0.039,-0.934,1.0
18.263,0.033,-0.94,0.0
16.603,0.028,-0.942,0.0
15.351,0.024,-0.951,0.0
20.256,0.03,-1.361,0.0
20.281,0.03,-0.793,143.0
20.237,0.028,-0.897,19.0
19.27,0.025,-0.954,0.0
17.068,0.02,-0.936,0.0
15.828,0.017,-0.95,0.0
14.652,0.014,-0.956,0.0
20.274,0.02,-0.754,61.0
20.252,0.018,-0.858,34.0
19.659,0.016,-0.935,3.0
16.384,0.01,-0.951,0.0
15.071,0.007,-0.953,0.0
20.236,0.011,-0.712,7.0
20.227,0.009,-0.817,2.0
20.117,0.007,-0.917,10.0
18.458,0.004,-0.939,0.0
16.831,0.002,-0.944,0.0
15.543,0.001,-0.952,0.0
20.22,0.002,-0.672,0.0
20.22,0.0,-0.777,0.0
16.14,-0.005,-0.956,0.0
28.538,-0.008,-0.891,0.0
24.787,-0.009,-0.902,0.0
20.008,-0.01,-0.938,8.0
16.596,-0.011,-0.95,0.0
29.909,-0.019,-0.874,0.0
20.246,-0.017,-0.908,50.0
32.142,-0.031,-0.873,9.0
28.053,-0.029,-0.907,0.0
24.4,-0.027,-0.915,0.0
34.617,-0.043,-0.87,1.0
28.488,-0.037,-0.863,0.0
20.273,-0.03,-0.931,61.0
37.613,-0.057,-0.868,2.0
32.232,-0.05,-0.91,1.0
27.127,-0.044,-0.906,0.0
20.199,-0.035,-0.424,0.0
32.366,-0.057,-0.846,2.0
28.473,-0.052,-0.892,0.0
24.853,-0.046,-0.909,0.0
20.18,-0.038,-0.382,9.0
34.654,-0.068,-0.834,0.0
30.308,-0.06,-0.886,1.0
26.471,-0.054,-0.913,0.0
20.182,-0.041,-0.34,21.0
20.181,-0.042,-0.444,1.0
32.189,-0.068,-0.874,1.0
27.166,-0.058,-0.88,0.0
24.568,-0.053,-0.923,0.0
20.162,-0.043,-0.297,28.0
20.169,-0.044,-0.401,10.0
58.469,-0.13,-1.464,0.0
30.238,-0.068,-0.916,2.0
20.164,-0.045,-0.255,27.0
20.162,-0.045,-0.358,17.0
20.18,-0.046,-0.463,0.0
30.279,-0.069,-0.854,0.0
26.986,-0.062,-0.9,0.0
20.152,-0.045,-0.212,16.0
20.164,-0.046,-0.316,27.0
20.173,-0.046,-0.419,9.0
32.943,-0.076,-0.858,0.0
30.253,-0.07,-0.944,0.0
25.04,-0.058,-0.91,0.0
20.154,-0.045,-0.169,37.0
20.147,-0.045,-0.272,27.0
20.159,-0.046,-0.376,15.0
20.148,-0.046,-0.482,0.0
30.288,-0.069,-0.88,3.0
26.726,-0.061,-0.915,1.0
20.146,-0.045,-0.126,33.0
20.134,-0.044,-0.229,13.0
20.167,-0.044,-0.333,22.0
20.174,-0.044,-0.439,3.0
32.513,-0.072,-0.876,1.0
27.928,-0.061,-0.896,0.0
20.153,-0.043,-0.083,37.0
20.152,-0.043,-0.187,29.0
20.157,-0.043,-0.291,26.0
20.16,-0.042,-0.397,10.0
34.586,-0.073,-0.859,1.0
30.275,-0.063,-0.907,1.0
20.131,-0.041,-0.04,36.0
20.144,-0.04,-0.143,31.0
20.135,-0.04,-0.247,19.0
20.154,-0.04,-0.353,18.0
20.164,-0.039,-0.457,0.0
32.009,-0.062,-0.891,1.0
20.129,-0.037,0.002,39.0
20.149,-0.037,-0.101,34.0
20.145,-0.037,-0.205,19.0
20.173,-0.036,-0.311,25.0
20.176,-0.035,-0.414,2.0
34.62,-0.06,-0.889,1.0
20.134,-0.034,0.045,44.0
20.129,-0.033,-0.058,30.0
20.15,-0.032,-0.162,29.0
20.162,-0.032,-0.267,24.0
20.168,-0.031,-0.371,6.0
37.643,-0.057,-0.888,2.0
20.125,-0.029,0.087,44.0
20.13,-0.028,-0.015,33.0
20.154,-0.027,-0.119,29.0
20.142,-0.027,-0.225,6.0
20.16,-0.026,-0.329,13.0
37.639,-0.047,-0.808,4.0
20.132,-0.024,0.13,33.0
20.14,-0.023,0.026,34.0
20.142,-0.022,-0.077,28.0
20.16,-0.021,-0.183,22.0
20.167,-0.02,-0.286,17.0
41.876,-0.04,-0.811,3.0
20.125,-0.018,0.172,34.0
20.123,-0.017,0.068,37.0
20.143,-0.016,-0.034,21.0
20.165,-0.014,-0.14,25.0
20.168,-0.013,-0.244,7.0
43.271,-0.027,-0.746,3.0
20.123,-0.011,0.214,29.0
20.129,-0.01,0.111,31.0
20.131,-0.008,0.008,16.0
20.156,-0.007,-0.097,16.0
20.188,-0.006,-0.201,7.0
20.22,-0.005,-0.306,1.0
20.127,-0.003,0.257,26.0
20.124,-0.002,0.154,28.0
20.151,0.0,0.05,26.0
20.205,0.0,-0.055,19.0
20.212,0.001,-0.159,14.0
20.232,0.003,-0.263,9.0
20.13,0.004,0.3,29.0
20.128,0.006,0.196,27.0
20.131,0.007,0.092,30.0
20.261,0.009,-0.012,151.0
20.268,0.01,-0.117,150.0
20.262,0.012,-0.221,150.0
20.134,0.013,0.342,27.0
20.128,0.015,0.239,27.0
20.133,0.017,0.135,27.0
20.249,0.018,0.029,150.0
20.257,0.02,-0.074,151.0
20.25,0.022,-0.179,151.0
20.14,0.023,0.384,28.0
20.139,0.025,0.28,27.0
20.125,0.027,0.176,27.0
20.145,0.028,0.071,26.0
20.251,0.03,-0.032,151.0
20.261,0.032,-0.136,150.0
20.139,0.034,0.427,29.0
20.142,0.036,0.323,28.0
20.137,0.038,0.219,26.0
20.136,0.04,0.113,28.0
20.264,0.042,0.009,16.0
20.256,0.044,-0.095,32.0
20.152,0.045,0.468,29.0
20.136,0.047,0.364,27.0
20.129,0.049,0.26,27.0
20.141,0.051,0.155,26.0
20.166,0.053,0.051,18.0
20.206,0.056,-0.052,17.0
20.164,0.057,0.511,27.0
20.146,0.059,0.406,29.0
20.143,0.062,0.302,27.0
20.136,0.064,0.196,28.0
20.162,0.066,0.092,27.0
20.201,0.068,-0.011,34.0
20.183,0.07,0.553,29.0
20.153,0.072,0.448,28.0
20.144,0.075,0.344,27.0
20.136,0.077,0.237,26.0
20.151,0.079,0.133,27.0
20.207,0.082,0.03,36.0
20.203,0.084,0.594,26.0
20.166,0.086,0.489,23.0
20.149,0.088,0.385,26.0
20.145,0.091,0.278,26.0
20.151,0.093,0.174,27.0
20.191,0.096,0.07,36.0
20.222,0.098,0.636,9.0
20.187,0.1,0.53,26.0
20.151,0.103,0.425,28.0
20.148,0.105,0.319,27.0
20.15,0.108,0.214,27.0
20.159,0.111,0.11,23.0
102.578,0.574,3.433,51.0
20.183,0.115,0.57,18.0
20.167,0.118,0.465,24.0
20.165,0.12,0.359,28.0
20.17,0.123,0.254,27.0
20.163,0.126,0.15,26.0
102.472,0.652,3.633,40.0
20.216,0.131,0.611,10.0
20.17,0.134,0.505,20.0
20.171,0.136,0.399,25.0
20.173,0.139,0.295,25.0
20.175,0.142,0.19,23.0
102.279,0.734,3.828,22.0
117.63,0.86,3.791,41.0
20.185,0.15,0.546,16.0
20.169,0.153,0.438,22.0
20.169,0.156,0.334,25.0
20.182,0.159,0.23,23.0
110.318,0.884,4.346,19.0
126.214,1.031,4.315,33.0
20.249,0.168,0.587,14.0
20.234,0.171,0.479,22.0
20.236,0.174,0.374,26.0
20.276,0.178,0.27,26.0
0.0,0.0,0.0,0.0
150.352,1.36,5.432,16.0
20.273,0.186,0.626,3.0
20.257,0.189,0.519,28.0
20.27,0.193,0.414,31.0
20.276,0.196,0.309,28.0
111.644,1.094,4.83,23.0
126.687,1.261,4.819,28.0
103.059,1.043,3.384,17.0
20.238,0.208,0.557,18.0
20.268,0.211,0.452,31.0
20.273,0.215,0.347,35.0
111.594,1.197,5.038,24.0
126.638,1.379,5.055,24.0
103.707,1.146,3.598,19.0
20.271,0.227,0.595,9.0
20.275,0.231,0.49,26.0
20.272,0.234,0.384,29.0
111.566,1.304,5.244,14.0
124.96,1.482,5.221,21.0
103.981,1.251,3.801,18.0
140.181,1.712,4.38,14.0
20.29,0.251,0.528,24.0
20.293,0.254,0.422,25.0
111.457,1.413,5.444,7.0
110.294,1.419,4.812,17.0
103.965,1.356,3.992,15.0
118.266,1.564,3.912,21.0
20.292,0.271,0.565,1.0
20.296,0.275,0.459,9.0
69.327,0.95,3.512,4.0
69.302,0.962,3.148,11.0
103.926,1.462,4.177,16.0
118.423,1.688,4.129,31.0
125.083,1.806,3.706,10.0
196.296,2.871,4.792,18.0
110.372,1.629,5.79,6.0
110.392,1.65,5.213,10.0
103.575,1.568,4.348,20.0
118.509,1.816,4.342,24.0
124.923,1.937,3.922,10.0
0.0,0.0,0.0,0.0
101.783,1.612,5.518,3.0
110.535,1.771,5.411,7.0
103.304,1.675,4.516,23.0
118.495,1.945,4.547,14.0
124.868,2.073,4.137,27.0
0.0,0.0,0.0,0.0
104.862,1.777,5.867,2.0
69.813,1.196,3.538,5.0
103.803,1.798,4.715,18.0
118.526,2.077,4.75,25.0
124.791,2.212,4.347,17.0
0.0,0.0,0.0,0.0
66.24,1.197,3.819,7.0
103.852,1.898,5.441,16.0
103.742,1.917,4.89,9.0
118.376,2.21,4.944,39.0
124.75,2.354,4.554,13.0
148.197,2.826,4.632,3.0
66.242,1.274,3.93,14.0
104.225,2.026,5.635,8.0
103.741,2.037,5.061,9.0
118.508,2.351,5.145,21.0
124.747,2.501,4.76,16.0
0.0,0.0,0.0,0.0
66.244,1.353,4.04,29.0
101.55,2.094,5.656,3.0
103.719,2.161,5.23,9.0
102.894,2.164,4.635,3.0
102.742,2.182,4.086,5.0
140.561,3.015,4.85,4.0
66.182,1.431,4.143,22.0
99.755,2.178,5.717,2.0
103.774,2.288,5.399,6.0
110.448,2.458,5.151,2.0
124.884,2.806,5.165,6.0
140.185,3.179,5.058,2.0
66.086,1.511,4.242,8.0
69.256,1.598,4.079,5.0
103.31,2.406,5.537,5.0
110.492,2.596,5.326,5.0
124.882,2.961,5.36,2.0
126.24,3.02,4.75,3.0
101.422,2.445,6.667,15.0
101.173,2.461,6.115,3.0
110.137,2.703,6.071,3.0
124.625,3.085,6.197,4.0
103.354,2.581,4.592,1.0
102.659,2.586,4.019,5.0
103.143,2.621,6.939,10.0
67.688,1.734,4.193,7.0
69.227,1.788,3.921,17.0
118.602,3.09,6.076,3.0
125.026,3.285,5.743,4.0
102.497,2.716,4.165,5.0
67.954,1.815,4.673,5.0
102.544,2.761,6.505,2.0
69.262,1.88,4.025,4.0
118.296,3.236,6.234,6.0
103.134,2.845,4.887,4.0
102.39,2.847,4.308,5.0
67.943,1.903,4.77,15.0
69.172,1.954,4.488,5.0
69.706,1.985,4.151,2.0
103.676,2.975,5.612,4.0
103.134,2.982,5.034,6.0
194.96,5.682,8.479,8.0
68.299,2.005,4.892,6.0
69.219,2.048,4.589,18.0
67.453,2.01,4.111,4.0
103.729,3.116,5.759,6.0
104.038,3.149,5.223,3.0
124.719,3.804,5.598,2.0
68.386,2.101,4.994,2.0
67.876,2.101,4.593,6.0
68.399,2.132,4.263,5.0
103.673,3.256,5.898,7.0
111.026,3.512,5.723,5.0
104.275,3.323,4.82,2.0
236.65,7.598,17.602,8.0
68.183,2.204,4.705,13.0
68.991,2.246,4.392,5.0
103.81,3.404,6.043,8.0
103.718,3.424,5.482,3.0
196.366,6.53,9.332,16.0
51.929,1.74,3.93,5.0
68.108,2.297,4.789,8.0
68.48,2.325,4.448,7.0
67.443,2.305,4.012,4.0
103.727,3.57,5.616,3.0
104.295,3.615,5.088,4.0
52.362,1.828,4.03,26.0
68.544,2.409,4.907,7.0
68.82,2.435,4.557,7.0
69.474,2.474,4.22,10.0
103.629,3.714,5.739,1.0
195.643,7.058,9.788,11.0
52.154,1.895,4.078,40.0
68.769,2.516,5.007,5.0
53.335,1.963,3.596,2.0
68.325,2.531,4.233,11.0
202.412,7.545,11.453,12.0
195.641,7.337,10.02,17.0
68.113,2.574,5.408,6.0
51.724,1.966,3.827,8.0
67.132,2.567,4.606,7.0
68.309,2.628,4.312,2.0
103.589,4.009,5.981,3.0
195.106,7.596,10.216,14.0
47.138,1.848,3.796,7.0
51.656,2.038,3.881,3.0
67.795,2.69,4.728,9.0
68.943,2.752,4.429,7.0
67.35,2.704,3.964,3.0
194.922,7.872,10.423,21.0
52.756,2.146,4.309,7.0
47.291,1.935,3.606,2.0
47.815,1.967,3.387,3.0
69.308,2.868,4.528,7.0
67.343,2.802,4.037,3.0
195.251,8.174,10.651,17.0
0.0,0.0,0.0,0.0
47.265,2.003,3.654,7.0
68.524,2.921,4.927,3.0
69.45,2.976,4.61,2.0
0.0,0.0,0.0,0.0
195.506,8.471,10.865,19.0
43.59,1.903,3.652,4.0
66.588,2.922,5.217,6.0
47.322,2.087,3.451,5.0
68.609,3.043,4.625,4.0
67.338,3.002,4.174,6.0
195.777,8.777,11.078,20.0
47.021,2.123,3.987,5.0
52.729,2.392,4.183,3.0
47.453,2.164,3.507,2.0
69.697,3.195,4.765,0.0
68.908,3.175,4.337,1.0
196.317,9.092,11.294,14.0
47.097,2.197,4.038,14.0
52.771,2.474,4.237,2.0
52.394,2.468,3.921,4.0
47.307,2.24,3.278,1.0
204.567,9.733,13.065,6.0
196.336,9.387,11.474,6.0
47.144,2.27,4.085,9.0
52.714,2.551,4.28,3.0
65.322,3.176,4.947,3.0
47.504,2.321,3.334,1.0
0.0,0.0,0.0,0.0
0.0,0.0,0.0,0.0
47.083,2.35,3.864,2.0
241.119,12.093,18.472,25.0
47.675,2.401,3.386,2.0
0.0,0.0,0.0,0.0
0.0,0.0,0.0,0.0
47.115,2.423,3.905,8.0
241.498,12.478,18.697,22.0
65.488,3.398,4.705,1.0
67.128,3.499,4.456,2.0
205.561,10.766,12.526,7.0
45.96,2.424,4.098,3.0
47.262,2.514,3.696,3.0
242.023,12.933,17.574,16.0
0.0,0.0,0.0,0.0
0.0,0.0,0.0,0.0
45.941,2.494,4.13,7.0
47.277,2.577,3.991,6.0
47.141,2.58,3.72,4.0
242.467,13.325,17.78,26.0
205.754,11.356,13.962,5.0
0.0,0.0,0.0,0.0
45.337,2.53,4.108,1.0
46.082,2.582,3.922,5.0
47.206,2.656,3.758,4.0
47.531,2.685,3.518,10.0
205.997,11.685,14.118,7.0
206.835,11.781,13.042,7.0
46.251,2.663,3.966,5.0
47.203,2.728,3.788,4.0
47.041,2.73,3.512,2.0
206.277,12.017,14.265,13.0
0.0,0.0,0.0,0.0
45.935,2.705,4.221,2.0
45.89,2.713,3.963,5.0
47.167,2.798,3.813,3.0
0.0,0.0,0.0,0.0
206.544,12.349,14.403,7.0
0.0,0.0,0.0,0.0
0.0,0.0,0.0,0.0
47.395,2.874,4.12,1.0
46.499,2.83,3.785,4.0
244.012,14.903,18.494,18.0
206.917,12.685,14.542,7.0
207.704,12.78,13.455,21.0
45.403,2.813,4.222,1.0
47.464,2.951,4.151,4.0
47.255,2.949,3.871,3.0
244.499,15.309,18.656,22.0
0.0,0.0,0.0,0.0
0.0,0.0,0.0,0.0
45.584,2.894,4.261,3.0
0.0,0.0,0.0,0.0
45.839,2.93,3.777,1.0
47.41,3.04,3.639,1.0
244.97,15.766,17.45,8.0
110.399,7.129,7.255,3.0
45.762,2.995,3.79,2.0
0.0,0.0,0.0,0.0
111.474,7.342,7.986,6.0
208.872,13.802,13.809,10.0
46.731,3.138,3.623,2.0
245.665,16.547,17.689,17.0
111.39,7.526,7.404,4.0
47.776,3.25,4.523,2.0
246.131,16.893,19.167,24.0
246.132,16.942,17.801,13.0
108.292,7.477,7.232,7.0
45.712,3.177,4.342,2.0
47.698,3.335,3.998,1.0
246.688,17.299,19.283,11.0
246.499,17.336,17.896,18.0
109.991,7.758,7.375,2.0
45.601,3.246,4.089,3.0
47.454,3.387,3.99,3.0
45.797,3.278,3.59,0.0
246.939,17.731,17.985,14.0
115.544,8.32,7.773,1.0
107.755,7.852,9.082,7.0
107.879,7.881,8.48,7.0
247.325,18.118,18.061,9.0
107.174,7.873,7.23,4.0
0.0,0.0,0.0,0.0
45.698,3.405,3.599,0.0
118.458,8.849,8.668,2.0
91.192,6.83,6.165,1.0
45.918,3.461,4.399,1.0
45.419,3.44,3.841,0.0
114.564,8.699,9.036,4.0
107.735,8.202,7.895,4.0
91.328,6.971,6.183,4.0
45.961,3.531,4.407,2.0
107.149,8.27,9.071,2.0
110.134,8.52,8.695,11.0
107.701,8.353,7.9,6.0
107.79,8.38,7.304,1.0
46.02,3.601,4.415,1.0
114.545,9.004,9.701,4.0
248.944,19.616,19.661,14.0
91.79,7.249,6.735,6.0
97.162,7.692,6.585,2.0
45.999,3.664,4.414,3.0
115.916,9.253,10.47,2.0
112.214,8.978,9.503,5.0
108.05,8.665,8.532,3.0
114.677,9.216,8.412,4.0
91.646,7.382,6.209,7.0
46.035,3.732,4.415,1.0
116.146,9.434,10.485,6.0
116.187,9.458,9.835,12.0
116.097,9.471,9.162,7.0
116.156,9.496,8.513,13.0
109.292,8.954,7.398,2.0
46.038,3.795,4.412,1.0
117.79,9.749,9.96,4.0
117.305,9.73,9.246,2.0
112.28,9.333,8.219,6.0
85.438,7.116,5.773,3.0
46.116,3.865,4.414,0.0
115.104,9.666,10.367,10.0
115.605,9.726,9.76,12.0
112.598,9.492,8.86,3.0
108.142,9.136,7.899,4.0
105.308,8.914,7.101,1.0
0.0,0.0,0.0,0.0
115.06,9.815,10.345,4.0
97.878,8.367,8.246,1.0
96.449,8.259,7.571,5.0
115.266,9.89,8.399,6.0
107.518,9.243,7.23,4.0
114.917,9.938,10.96,3.0
99.283,8.601,8.906,3.0
115.033,9.982,9.668,19.0
96.403,8.381,7.547,4.0
114.919,10.01,8.348,7.0
107.456,9.377,7.201,6.0
114.656,10.064,10.908,4.0
114.765,10.091,10.266,3.0
86.415,7.61,7.241,2.0
112.857,9.957,8.806,2.0
99.133,8.762,7.176,2.0
107.339,9.504,7.164,5.0
0.0,0.0,0.0,0.0
114.647,10.226,10.224,2.0
85.667,7.653,7.153,1.0
99.866,8.937,7.762,7.0
109.695,9.834,7.906,6.0
85.424,7.671,5.675,5.0
0.0,0.0,0.0,0.0
85.104,7.697,7.561,3.0
107.903,9.773,8.975,3.0
97.908,8.883,7.577,7.0
96.834,8.799,6.947,8.0
91.811,8.356,6.068,7.0
91.824,8.404,8.647,3.0
114.55,10.499,10.136,3.0
99.243,9.109,8.218,3.0
99.066,9.107,7.63,6.0
96.296,8.865,6.872,5.0
84.985,7.836,5.584,7.0
114.631,10.629,10.75,7.0
107.071,9.942,9.43,5.0
85.549,7.955,7.048,7.0
107.029,9.966,8.2,6.0
96.409,8.99,6.84,9.0
90.413,8.444,5.902,3.0
85.103,7.991,7.944,4.0
92.036,8.653,8.066,2.0
85.156,8.016,6.978,5.0
95.992,9.049,7.311,4.0
84.272,7.955,5.94,2.0
87.658,8.287,5.682,5.0
99.017,9.41,9.196,3.0
111.293,10.591,9.7,6.0
92.281,8.792,7.518,3.0
86.007,8.204,6.509,2.0
80.043,7.645,5.603,1.0
87.619,8.381,5.636,4.0
110.925,10.666,10.246,3.0
91.561,8.814,7.934,6.0
85.285,8.219,6.904,7.0
84.331,8.137,6.338,8.0
84.466,8.161,5.868,2.0
85.031,8.226,5.424,11.0
92.219,8.967,8.468,3.0
98.979,9.634,8.523,6.0
85.197,8.302,6.85,7.0
84.126,8.206,6.276,7.0
85.091,8.311,5.863,6.0
90.13,8.815,5.699,7.0
99.459,9.776,9.075,5.0
91.715,9.024,7.843,5.0
92.088,9.07,7.35,6.0
84.166,8.299,6.228,10.0
73.083,7.215,4.992,2.0
90.272,8.922,5.654,7.0
99.24,9.857,8.994,1.0
84.936,8.444,7.211,4.0
68.808,6.847,5.448,4.0
84.213,8.389,6.179,4.0
85.155,8.492,5.763,5.0
90.194,9.004,5.591,6.0
97.898,9.821,8.809,3.0
84.891,8.523,7.152,4.0
77.013,7.74,6.048,1.0
72.97,7.34,5.306,4.0
72.987,7.349,4.892,1.0
90.119,9.085,5.526,6.0
85.426,8.651,7.628,4.0
85.005,8.615,7.104,2.0
85.193,8.643,6.631,5.0
72.81,7.393,5.244,4.0
78.022,7.93,5.175,1.0
89.843,9.141,5.446,4.0
85.327,8.721,7.557,8.0
78.795,8.059,6.528,3.0
85.054,8.707,6.559,3.0
72.921,7.471,5.199,6.0
77.972,7.996,5.114,2.0
84.309,8.653,5.049,0.0
85.341,8.799,7.495,3.0
78.813,8.131,6.47,10.0
85.014,8.777,6.493,2.0
72.849,7.528,5.139,6.0
77.851,8.051,5.047,3.0
99.047,10.253,5.856,6.0
77.248,8.03,6.725,1.0
74.702,7.771,6.074,4.0
68.695,7.151,5.192,3.0
68.439,7.129,4.774,8.0
78.423,8.176,5.022,4.0
89.961,9.386,5.248,3.0
68.676,7.195,5.923,2.0
78.744,8.255,6.339,3.0
74.661,7.833,5.581,5.0
72.882,7.651,5.024,6.0
78.421,8.239,4.957,4.0
88.723,9.328,5.102,5.0
68.656,7.247,5.864,2.0
79.163,8.361,6.306,6.0
77.303,8.17,5.714,2.0
72.954,7.714,4.968,3.0
69.149,7.317,4.313,8.0
81.039,8.582,4.591,5.0
68.746,7.308,5.812,1.0
72.898,7.753,5.744,10.0
74.909,7.972,5.472,7.0
84.256,8.972,5.663,7.0
76.774,8.18,4.721,3.0
81.093,8.646,4.523,6.0
68.749,7.358,5.751,1.0
78.383,8.393,6.105,1.0
74.822,8.015,5.398,7.0
84.254,9.03,5.587,5.0
88.843,9.527,5.383,3.0
81.001,8.692,4.445,5.0
72.35,7.792,5.984,3.0
73.823,7.954,5.681,1.0
77.423,8.345,5.514,3.0
87.281,9.412,5.707,3.0
76.723,8.278,4.577,2.0
76.824,8.293,4.143,3.0
68.849,7.458,5.63,7.0
68.822,7.458,5.232,1.0
68.503,7.426,4.814,2.0
73.248,7.943,4.72,4.0
84.546,9.173,4.964,2.0
79.716,8.654,4.223,1.0
68.796,7.493,5.56,5.0
74.649,8.133,5.603,5.0
68.328,7.447,4.735,5.0
73.111,7.971,4.639,3.0
76.374,8.33,4.409,2.0
84.396,9.209,4.389,3.0
68.793,7.531,5.49,6.0
76.522,8.38,5.666,2.0
68.23,7.473,4.66,4.0
73.159,8.016,4.569,2.0
76.202,8.352,4.323,3.0
87.733,9.62,4.474,2.0
66.355,7.298,5.228,4.0
76.524,8.418,5.588,3.0
68.026,7.485,4.576,4.0
77.272,8.504,4.747,1.0
91.962,10.125,5.121,6.0
87.835,9.674,4.389,2.0
66.34,7.328,5.157,2.0
79.297,8.761,5.707,3.0
73.317,8.101,4.856,3.0
76.814,8.489,4.639,2.0
80.697,8.921,4.409,6.0
91.872,10.16,4.493,28.0
68.786,7.628,5.275,6.0
73.952,8.201,5.245,2.0
74.107,8.22,4.829,3.0
84.477,9.371,5.011,2.0
76.778,8.519,4.114,3.0
0.0,0.0,0.0,0.0
68.742,7.649,5.197,6.0
79.309,8.825,5.539,4.0
85.694,9.537,5.491,8.0
74.685,8.313,4.349,1.0
76.946,8.566,4.038,4.0
0.0,0.0,0.0,0.0
68.735,7.673,5.12,6.0
75.817,8.463,5.21,3.0
85.701,9.567,5.396,12.0
89.868,10.033,5.133,4.0
87.564,9.777,4.498,3.0
91.792,10.251,4.189,17.0
68.695,7.689,5.039,6.0
68.383,7.653,4.623,5.0
85.71,9.593,5.3,14.0
76.216,8.53,4.267,5.0
87.714,9.818,4.408,4.0
85.849,9.611,3.821,17.0
74.167,8.321,5.357,4.0
77.92,8.741,5.179,3.0
77.13,8.652,4.682,2.0
76.554,8.587,4.199,7.0
105.697,11.856,5.191,6.0
91.821,10.3,3.983,9.0
76.617,8.612,5.445,4.0
78.039,8.77,5.097,3.0
74.738,8.398,4.451,3.0
76.635,8.611,4.115,6.0
105.603,11.866,5.065,10.0
107.812,12.114,4.553,11.0
76.858,8.652,5.374,6.0
78.226,8.804,5.018,8.0
74.666,8.402,4.36,1.0
136.693,15.38,7.183,12.0
90.397,10.171,4.229,10.0
105.257,11.842,4.322,14.0
72.769,8.201,5.001,2.0
78.255,8.817,4.927,9.0
90.489,10.193,5.177,1.0
87.766,9.885,4.507,3.0
85.869,9.67,3.917,10.0
105.225,11.849,4.196,26.0
68.444,7.719,4.623,5.0
85.704,9.663,5.294,6.0
79.88,9.004,4.475,3.0
87.69,9.882,4.399,4.0
85.826,9.671,3.811,22.0
105.221,11.855,4.07,22.0
68.067,7.679,4.514,4.0
74.766,8.432,4.528,2.0
76.724,8.65,4.204,4.0
107.125,12.075,5.243,9.0
91.783,10.343,3.966,25.0
105.179,11.851,3.94,19.0
78.143,8.815,5.088,1.0
74.772,8.432,4.437,4.0
76.907,8.67,4.121,2.0
107.176,12.078,5.116,13.0
91.761,10.338,3.853,15.0
105.12,11.84,3.81,13.0
78.194,8.817,4.995,9.0
72.479,8.169,4.211,1.0
136.692,15.4,7.156,11.0
90.415,10.183,4.204,9.0
105.255,11.851,4.289,18.0
97.065,10.925,3.399,13.0
78.223,8.813,4.9,8.0
76.468,8.611,4.349,2.0
87.66,9.866,4.481,3.0
85.838,9.657,3.886,14.0
105.212,11.833,4.159,27.0
97.055,10.912,3.279,18.0
68.949,7.758,4.233,2.0
76.582,8.612,4.26,6.0
105.657,11.875,5.269,5.0
91.785,10.312,4.038,13.0
105.198,11.814,4.025,16.0
104.673,11.751,3.404,26.0
77.004,8.65,4.629,2.0
76.812,8.623,4.175,5.0
113.706,12.758,5.527,7.0
107.689,12.076,4.604,18.0
102.768,11.519,3.803,8.0
104.647,11.725,3.271,34.0
72.783,8.158,4.283,1.0
136.726,15.315,7.259,8.0
90.422,10.123,4.28,6.0
107.873,12.07,4.476,21.0
97.016,10.85,3.469,16.0
97.731,10.925,2.934,29.0
74.824,8.366,4.311,1.0
87.824,9.813,4.554,2.0
91.779,10.248,4.231,21.0
102.788,11.471,4.137,12.0
96.972,10.816,3.346,27.0
97.708,10.893,2.812,36.0
89.725,10.003,5.056,2.0
87.674,9.767,4.435,2.0
85.869,9.559,3.85,14.0
97.188,10.812,3.79,14.0
97.3,10.819,3.235,8.0
115.418,12.826,3.174,21.0
76.83,8.537,4.231,4.0
91.873,10.2,4.53,36.0
85.877,9.527,3.74,3.0
96.831,10.735,3.652,32.0
97.714,10.826,3.125,23.0
103.978,11.514,2.729,13.0
76.804,8.502,4.133,3.0
0.0,0.0,0.0,0.0
96.605,10.677,4.086,17.0
96.857,10.697,3.531,39.0
97.766,10.789,3.004,33.0
103.941,11.464,2.598,38.0
91.886,10.129,4.828,21.0
91.714,10.101,4.292,8.0
96.74,10.646,3.97,19.0
108.208,11.899,3.809,11.0
116.767,12.83,3.442,15.0
103.916,11.411,2.466,47.0
84.169,9.236,4.315,3.0
96.722,10.603,4.404,15.0
109.688,12.015,4.364,6.0
108.252,11.847,3.674,27.0
116.665,12.757,3.292,18.0
103.914,11.355,2.336,35.0
96.51,10.537,4.826,7.0
137.162,14.96,6.07,15.0
96.947,10.564,3.734,12.0
97.856,10.654,3.198,43.0
104.019,11.315,2.803,25.0
115.702,12.577,2.454,10.0
0.0,0.0,0.0,0.0
102.75,11.145,4.418,7.0
0.0,0.0,0.0,0.0
103.557,11.211,3.254,15.0
104.187,11.269,2.676,13.0
109.214,11.802,2.181,9.0
85.789,9.26,4.074,7.0
114.107,12.303,4.762,14.0
98.302,10.588,3.539,34.0
108.609,11.687,3.277,25.0
149.908,16.116,3.665,12.0
109.213,11.73,2.045,44.0
85.807,9.204,3.967,12.0
98.083,10.508,3.972,14.0
98.229,10.512,3.414,13.0
103.626,11.077,2.998,18.0
109.212,11.663,2.533,30.0
109.243,11.655,1.908,56.0
87.334,9.303,3.928,8.0
98.609,10.491,3.87,14.0
97.482,10.359,3.266,13.0
108.911,11.561,3.014,9.0
109.218,11.581,2.397,62.0
109.323,11.58,1.773,23.0
98.564,10.422,4.309,18.0
103.216,10.9,3.922,9.0
97.442,10.278,3.144,21.0
116.338,12.256,3.076,30.0
109.274,11.5,2.263,55.0
115.594,12.151,1.732,54.0
103.177,10.825,4.385,19.0
103.804,10.877,3.816,9.0
121.551,12.721,3.773,20.0
109.419,11.436,2.759,26.0
115.536,12.062,2.251,29.0
115.597,12.054,1.591,41.0
107.441,11.18,4.434,4.0
97.48,10.129,3.464,18.0
121.596,12.619,3.624,14.0
109.218,11.319,2.619,48.0
115.717,11.978,2.114,20.0
115.625,11.954,1.452,7.0
103.857,10.713,4.159,10.0
121.029,12.466,4.155,18.0
109.897,11.303,3.143,48.0
115.695,11.884,2.635,36.0
150.608,15.45,2.57,20.0
150.868,15.457,1.714,3.0
97.599,9.974,3.792,22.0
110.242,11.25,3.651,15.0
116.153,11.836,3.184,23.0
115.778,11.782,2.5,19.0
150.545,15.298,2.39,21.0
0.0,0.0,0.0,0.0
111.245,11.259,4.19,22.0
109.923,11.109,3.511,23.0
115.712,11.675,3.033,23.0
121.598,12.251,2.482,19.0
150.692,15.161,2.215,14.0
0.0,0.0,0.0,0.0
115.238,11.545,4.205,11.0
115.675,11.569,3.559,49.0
121.393,12.122,3.04,22.0
121.545,12.118,2.339,54.0
121.561,12.102,1.646,56.0
0.0,0.0,0.0,0.0
110.114,10.913,3.89,18.0
108.868,10.771,3.224,62.0
121.427,11.994,2.901,44.0
121.571,11.989,2.199,51.0
121.56,11.968,1.505,30.0
0.0,0.0,0.0,0.0
108.464,10.629,3.706,22.0
109.267,10.688,3.11,17.0
121.569,11.872,2.767,37.0
150.988,14.72,2.56,19.0
151.176,14.714,1.702,3.0
0.0,0.0,0.0,0.0
137.809,13.346,4.553,9.0
121.346,11.73,3.318,14.0
151.551,14.625,3.279,14.0
151.102,14.555,2.392,29.0
0.0,0.0,0.0,0.0
92.608,8.889,0.411,14.0
109.376,10.463,3.493,22.0
121.569,11.606,3.189,31.0
151.428,14.43,3.11,24.0
151.223,14.383,2.229,34.0
0.0,0.0,0.0,0.0
92.729,8.788,0.31,30.0
121.373,11.459,3.743,35.0
137.954,12.998,3.468,21.0
151.325,14.231,2.942,30.0
151.492,14.219,2.067,27.0
0.0,0.0,0.0,0.0
92.853,8.684,0.21,34.0
151.843,14.144,4.519,11.0
151.964,14.125,3.657,26.0
151.407,14.043,2.781,23.0
151.707,14.044,1.907,18.0
0.0,0.0,0.0,0.0
0.0,0.0,0.0,0.0
144.829,13.298,4.156,9.0
151.946,13.923,3.495,32.0
151.757,13.876,2.628,24.0
152.361,13.902,1.757,6.0
0.0,0.0,0.0,0.0
0.0,0.0,0.0,0.0
143.68,13.0,3.974,28.0
152.325,13.752,3.347,31.0
152.972,13.78,2.492,22.0
129.124,11.606,1.357,3.0
0.0,0.0,0.0,0.0
0.0,0.0,0.0,0.0
152.535,13.591,4.065,15.0
152.575,13.564,3.198,23.0
153.002,13.571,2.339,23.0
108.647,9.615,1.033,2.0
107.652,9.505,0.413,21.0
107.7,9.489,-0.198,5.0
0.0,0.0,0.0,0.0
152.654,13.355,3.05,8.0
153.43,13.39,2.194,17.0
108.433,9.441,0.925,5.0
107.604,9.346,0.307,39.0
0.0,0.0,0.0,0.0
197.767,17.057,4.885,17.0
198.584,17.084,3.776,6.0
0.0,0.0,0.0,0.0
108.323,9.273,0.822,5.0
107.673,9.196,0.205,33.0
0.0,0.0,0.0,0.0
197.025,16.699,4.678,17.0
213.981,18.089,3.869,9.0
129.314,10.902,1.605,10.0
108.674,9.139,0.721,2.0
108.146,9.072,0.106,6.0
0.0,0.0,0.0,0.0
0.0,0.0,0.0,0.0
202.82,16.835,3.48,8.0
213.69,17.689,2.458,12.0
110.259,9.102,0.632,8.0
108.891,8.966,0.007,1.0
68.994,5.666,-0.385,0.0
155.989,12.742,3.421,13.0
0.0,0.0,0.0,0.0
0.0,0.0,0.0,0.0
110.551,8.953,0.537,23.0
109.785,8.868,-0.087,1.0
0.0,0.0,0.0,0.0
155.933,12.489,3.285,29.0
155.968,12.456,2.402,35.0
114.611,9.125,1.117,5.0
113.976,9.049,0.456,60.0
0.0,0.0,0.0,0.0
0.0,0.0,0.0,0.0
155.955,12.238,3.153,39.0
162.131,12.683,2.361,44.0
0.0,0.0,0.0,0.0
114.094,8.871,0.361,182.0
0.0,0.0,0.0,0.0
0.0,0.0,0.0,0.0
162.054,12.446,3.143,22.0
168.282,12.885,2.314,5.0
122.283,9.332,0.991,4.0
115.079,8.754,0.271,7.0
0.0,0.0,0.0,0.0
0.0,0.0,0.0,0.0
168.066,12.628,3.129,39.0
168.231,12.598,2.181,38.0
0.0,0.0,0.0,0.0
122.022,9.076,0.193,12.0
0.0,0.0,0.0,0.0
0.0,0.0,0.0,0.0
173.356,12.729,3.095,42.0
173.461,12.691,2.119,15.0
140.661,10.257,0.925,4.0
0.0,0.0,0.0,0.0
0.0,0.0,0.0,0.0
0.0,0.0,0.0,0.0
173.541,12.442,2.972,17.0
0.0,0.0,0.0,0.0
140.644,10.009,0.824,15.0
0.0,0.0,0.0,0.0
0.0,0.0,0.0,0.0
0.0,0.0,0.0,0.0
0.0,0.0,0.0,0.0
0.0,0.0,0.0,0.0
155.035,10.759,0.802,7.0
0.0,0.0,0.0,0.0
0.0,0.0,0.0,0.0
0.0,0.0,0.0,0.0
0.0,0.0,0.0,0.0
0.0,0.0,0.0,0.0
154.931,10.475,0.701,153.0
0.0,0.0,0.0,0.0
68.932,4.623,-0.469,4.0
0.0,0.0,0.0,0.0
209.722,13.91,3.172,10.0
0.0,0.0,0.0,0.0
154.94,10.193,0.604,151.0
0.0,0.0,0.0,0.0
68.976,4.5,-0.512,3.0
0.0,0.0,0.0,0.0
0.0,0.0,0.0,0.0
0.0,0.0,0.0,0.0
155.143,9.918,0.513,6.0
0.0,0.0,0.0,0.0
0.0,0.0,0.0,0.0
0.0,0.0,0.0,0.0
0.0,0.0,0.0,0.0
0.0,0.0,0.0,0.0
0.0,0.0,0.0,0.0
0.0,0.0,0.0,0.0
0.0,0.0,0.0,0.0
0.0,0.0,0.0,0.0
0.0,0.0,0.0,0.0
197.61,11.95,1.546,17.0
0.0,0.0,0.0,0.0
0.0,0.0,0.0,0.0
0.0,0.0,0.0,0.0
0.0,0.0,0.0,0.0
0.0,0.0,0.0,0.0
197.47,11.564,1.446,34.0
0.0,0.0,0.0,0.0
0.0,0.0,0.0,0.0
0.0,0.0,0.0,0.0
0.0,0.0,0.0,0.0
0.0,0.0,0.0,0.0
197.311,11.175,1.353,24.0
0.0,0.0,0.0,0.0
0.0,0.0,0.0,0.0
0.0,0.0,0.0,0.0
0.0,0.0,0.0,0.0
196.092,10.781,2.354,72.0
196.047,10.722,1.26,15.0
0.0,0.0,0.0,0.0
0.0,0.0,0.0,0.0
0.0,0.0,0.0,0.0
0.0,0.0,0.0,0.0
206.709,10.962,2.4,9.0
197.136,10.393,1.19,23.0
0.0,0.0,0.0,0.0
0.0,0.0,0.0,0.0
0.0,0.0,0.0,0.0
0.0,0.0,0.0,0.0
206.409,10.536,2.32,6.0
197.111,10.0,1.118,34.0
0.0,0.0,0.0,0.0
0.0,0.0,0.0,0.0
0.0,0.0,0.0,0.0
44.52,2.204,-0.742,0.0
0.0,0.0,0.0,0.0
197.183,9.606,1.055,28.0
0.0,0.0,0.0,0.0
0.0,0.0,0.0,0.0
0.0,0.0,0.0,0.0
42.493,2.019,-0.721,4.0
205.38,9.656,2.179,14.0
197.028,9.2,0.996,33.0
0.0,0.0,0.0,0.0
68.896,3.175,-0.423,1.0
0.0,0.0,0.0,0.0
43.442,1.975,-0.749,0.0
204.947,9.215,2.121,43.0
195.554,8.731,0.94,24.0
0.0,0.0,0.0,0.0
68.987,3.037,-0.44,5.0
0.0,0.0,0.0,0.0
42.938,1.864,-0.75,0.0
0.0,0.0,0.0,0.0
196.778,8.385,0.903,35.0
0.0,0.0,0.0,0.0
68.78,2.888,-0.453,1.0
0.0,0.0,0.0,0.0
0.0,0.0,0.0,0.0
203.903,8.335,2.028,9.0
196.713,7.979,0.868,35.0
0.0,0.0,0.0,0.0
68.84,2.749,-0.465,1.0
0.0,0.0,0.0,0.0
0.0,0.0,0.0,0.0
195.017,7.573,1.911,8.0
195.153,7.516,0.834,24.0
0.0,0.0,0.0,0.0
68.957,2.611,-0.474,4.0
0.0,0.0,0.0,0.0
0.0,0.0,0.0,0.0
0.0,0.0,0.0,0.0
196.479,7.158,0.818,34.0
0.0,0.0,0.0,0.0
68.944,2.466,-0.48,3.0
0.0,0.0,0.0,0.0
0.0,0.0,0.0,0.0
0.0,0.0,0.0,0.0
196.346,6.742,0.804,27.0
0.0,0.0,0.0,0.0
69.038,2.324,-0.485,0.0
0.0,0.0,0.0,0.0
0.0,0.0,0.0,0.0
0.0,0.0,0.0,0.0
196.265,6.324,0.798,26.0
0.0,0.0,0.0,0.0
68.926,2.176,-0.485,2.0
0.0,0.0,0.0,0.0
40.814,1.262,-0.737,0.0
201.796,6.146,1.933,23.0
196.179,5.912,0.799,28.0
0.0,0.0,0.0,0.0
73.128,2.156,-0.513,4.0
0.0,0.0,0.0,0.0
41.699,1.201,-0.751,0.0
0.0,0.0,0.0,0.0
0.0,0.0,0.0,0.0
0.0,0.0,0.0,0.0
0.0,0.0,0.0,0.0
0.0,0.0,0.0,0.0
0.0,0.0,0.0,0.0
103.139,2.707,0.999,9.0
100.308,2.599,0.421,2.0
0.0,0.0,0.0,0.0
0.0,0.0,0.0,0.0
0.0,0.0,0.0,0.0
0.0,0.0,0.0,0.0
0.0,0.0,0.0,0.0
100.203,2.383,0.433,3.0
100.137,2.348,-0.115,9.0
0.0,0.0,0.0,0.0
0.0,0.0,0.0,0.0
0.0,0.0,0.0,0.0
0.0,0.0,0.0,0.0
99.998,2.166,0.448,3.0
100.045,2.133,-0.098,8.0
0.0,0.0,0.0,0.0
0.0,0.0,0.0,0.0
42.9,0.871,-0.751,0.0
0.0,0.0,0.0,0.0
99.891,1.951,0.468,8.0
0.0,0.0,0.0,0.0
0.0,0.0,0.0,0.0
0.0,0.0,0.0,0.0
43.003,0.782,-0.743,0.0
0.0,0.0,0.0,0.0
99.715,1.737,0.49,5.0
99.881,1.706,-0.054,4.0
0.0,0.0,0.0,0.0
0.0,0.0,0.0,0.0
0.0,0.0,0.0,0.0
0.0,0.0,0.0,0.0
99.655,1.526,0.517,6.0
99.718,1.493,-0.026,4.0
0.0,0.0,0.0,0.0
0.0,0.0,0.0,0.0
20.203,0.281,-0.337,1.0
20.308,0.275,0.222,0.0
99.565,1.315,0.547,6.0
99.606,1.28,0.005,3.0
0.0,0.0,0.0,0.0
20.19,0.246,-0.22,13.0
20.185,0.238,-0.33,26.0
20.299,0.232,0.229,28.0
20.316,0.225,0.118,26.0
20.325,0.218,0.008,17.0
20.21,0.21,-0.103,3.0
20.157,0.202,-0.213,19.0
20.174,0.196,-0.323,34.0
20.299,0.189,0.236,29.0
20.275,0.182,0.126,25.0
20.264,0.175,0.016,27.0
20.189,0.167,-0.095,25.0
20.168,0.16,-0.205,28.0
20.186,0.153,-0.314,32.0
20.179,0.146,0.243,26.0
20.182,0.139,0.134,25.0
20.183,0.132,0.024,29.0
20.18,0.125,-0.086,34.0
20.173,0.118,-0.196,24.0
20.209,0.111,-0.306,20.0
20.162,0.103,0.252,29.0
20.158,0.096,0.143,25.0
20.197,0.09,0.034,33.0
20.204,0.083,-0.077,28.0
20.214,0.076,-0.186,21.0
20.179,0.068,-0.295,0.0
20.141,0.061,0.262,29.0
20.141,0.054,0.153,27.0
20.271,0.047,0.044,10.0
20.262,0.041,-0.067,150.0
20.254,0.034,-0.176,151.0
20.265,0.027,-0.286,150.0
20.133,0.02,0.272,29.0
20.127,0.012,0.163,28.0
20.165,0.005,0.055,23.0
20.179,-0.001,-0.056,16.0
20.161,-0.007,-0.164,19.0
20.171,-0.014,-0.274,17.0
20.118,-0.021,0.283,27.0
20.119,-0.028,0.175,39.0
20.13,-0.035,0.066,41.0
20.129,-0.042,-0.044,30.0
20.149,-0.049,-0.153,35.0
20.144,-0.056,-0.261,29.0
20.124,-0.063,0.295,29.0
20.125,-0.069,0.187,28.0
20.131,-0.077,0.078,39.0
20.132,-0.084,-0.031,28.0
20.15,-0.091,-0.14,32.0
20.14,-0.097,-0.249,34.0
20.132,-0.104,0.308,24.0
20.13,-0.111,0.2,19.0
20.121,-0.118,0.091,18.0
20.182,-0.125,-0.018,24.0
20.139,-0.132,-0.127,18.0
20.15,-0.139,-0.235,23.0
20.261,-0.146,0.324,26.0
58.315,-0.441,0.619,15.0
20.229,-0.16,0.106,0.0
53.351,-0.44,-0.012,10.0
56.53,-0.485,-0.317,0.0
46.236,-0.412,-0.508,2.0
20.182,-0.186,0.337,8.0
64.324,-0.616,0.728,61.0
56.173,-0.556,0.334,8.0
56.257,-0.576,0.026,1.0
56.212,-0.596,-0.275,2.0
52.803,-0.578,-0.541,6.0
20.149,-0.226,0.351,11.0
20.141,-0.233,0.243,10.0
20.16,-0.24,0.135,2.0
59.547,-0.729,0.073,62.0
56.257,-0.708,-0.232,1.0
52.8,-0.682,-0.501,15.0
20.136,-0.266,0.366,12.0
20.121,-0.272,0.258,14.0
20.118,-0.279,0.15,11.0
20.118,-0.286,0.04,18.0
20.155,-0.293,-0.067,0.0
52.973,-0.79,-0.46,13.0
59.537,-0.906,1.132,14.0
20.162,-0.313,0.275,3.0
20.131,-0.319,0.167,8.0
20.137,-0.326,0.057,45.0
20.112,-0.333,-0.05,16.0
52.923,-0.894,-0.415,47.0
191.624,-3.292,3.806,23.0
192.824,-3.378,2.798,28.0
53.067,-0.946,0.486,0.0
52.994,-0.963,0.196,13.0
52.961,-0.98,-0.086,19.0
45.657,-0.861,-0.318,17.0
38.272,-0.732,0.793,10.0
52.976,-1.031,0.815,23.0
52.933,-1.047,0.531,55.0
38.382,-0.772,0.176,12.0
38.367,-0.785,-0.028,44.0
38.372,-0.798,-0.232,36.0
38.407,-0.809,0.831,32.0
38.386,-0.821,0.626,8.0
40.411,-0.877,0.443,64.0
40.434,-0.891,0.223,152.0
40.415,-0.903,0.007,120.0
40.417,-0.917,-0.207,37.0
40.415,-0.927,0.912,39.0
40.411,-0.94,0.696,37.0
40.418,-0.953,0.481,30.0
40.423,-0.967,0.261,25.0
0.0,0.0,0.0,0.0
38.768,-0.952,-0.161,28.0
38.707,-0.961,0.911,50.0
38.71,-0.973,0.705,28.0
38.689,-0.985,0.498,36.0
38.661,-0.997,0.288,54.0
38.666,-1.01,0.082,61.0
38.66,-1.021,-0.123,56.0
38.628,-1.03,0.948,68.0
38.65,-1.043,0.742,72.0
38.628,-1.055,0.536,67.0
38.62,-1.067,0.327,74.0
38.671,-1.081,0.122,80.0
38.667,-1.093,-0.083,78.0
38.634,-1.101,0.988,87.0
38.639,-1.113,0.782,105.0
38.646,-1.125,0.576,78.0
38.618,-1.137,0.367,70.0
38.647,-1.15,0.162,65.0
38.649,-1.162,-0.043,63.0
38.607,-1.17,1.027,71.0
38.625,-1.183,0.823,69.0
38.632,-1.194,0.617,65.0
38.64,-1.207,0.409,63.0
38.679,-1.221,0.204,55.0
38.696,-1.234,0.0,44.0
38.638,-1.24,1.071,51.0
38.656,-1.253,0.866,51.0
38.701,-1.266,0.661,32.0
84.885,-2.804,0.993,23.0
80.454,-2.682,0.514,21.0
80.614,-2.713,0.088,22.0
31.372,-1.063,0.905,17.0
31.396,-1.073,0.739,9.0
31.395,-1.082,0.572,0.0
84.241,-2.931,1.081,34.0
80.34,-2.82,0.605,27.0
80.417,-2.849,0.181,26.0
31.29,-1.114,0.938,48.0
31.291,-1.124,0.772,41.0
31.317,-1.134,0.607,55.0
31.279,-1.142,0.438,45.0
31.297,-1.152,0.272,44.0
31.271,-1.161,0.107,40.0
31.248,-1.167,0.974,45.0
31.278,-1.177,0.809,55.0
31.271,-1.186,0.643,21.0
28.461,-1.088,0.432,49.0
28.463,-1.096,0.282,66.0
28.459,-1.104,0.131,67.0
28.447,-1.11,0.92,75.0
28.432,-1.117,0.769,81.0
28.447,-1.126,0.619,150.0
28.446,-1.134,0.466,150.0
28.44,-1.142,0.316,151.0
28.438,-1.151,0.166,114.0
28.433,-1.156,0.955,112.0
28.432,-1.164,0.804,102.0
28.423,-1.172,0.654,108.0
28.429,-1.18,0.501,96.0
28.433,-1.189,0.351,87.0
28.436,-1.197,0.201,69.0
28.445,-1.203,0.991,59.0
28.452,-1.211,0.841,60.0
28.452,-1.219,0.69,55.0
28.457,-1.227,0.537,47.0
31.225,-1.355,0.425,22.0
31.228,-1.364,0.26,41.0
165.921,-7.278,5.989,17.0
85.77,-3.786,2.643,6.0
