X,Y,Z,Reflectivity
46.692,1.322,6.159,14.0
52.204,1.485,6.585,3.0
59.287,1.696,7.132,20.0
59.275,1.704,6.791,30.0
57.686,1.666,6.279,6.0
46.738,1.366,6.409,18.0
39.345,1.155,5.168,10.0
52.102,1.536,6.543,1.0
47.436,1.405,5.68,3.0
48.466,1.442,5.525,2.0
0.0,0.0,0.0,0.0
33.677,1.018,4.598,2.0
52.18,1.585,6.823,3.0
60.239,1.837,7.529,1.0
60.182,1.843,7.169,10.0
59.444,1.828,6.741,27.0
46.599,1.44,5.017,8.0
46.49,1.453,6.318,9.0
48.08,1.508,6.256,3.0
60.581,1.908,7.533,35.0
52.75,1.668,6.25,4.0
46.399,1.473,5.23,11.0
46.363,1.478,4.961,8.0
30.358,0.978,4.105,2.0
48.093,1.556,6.224,2.0
47.594,1.545,5.885,3.0
58.961,1.921,6.945,15.0
46.536,1.522,5.214,20.0
46.263,1.519,4.918,7.0
46.528,1.544,6.258,4.0
52.514,1.749,6.759,3.0
58.912,1.969,7.242,17.0
52.639,1.766,6.161,4.0
46.342,1.56,5.158,10.0
46.237,1.562,4.881,9.0
39.349,1.343,5.262,7.0
58.933,2.018,7.54,14.0
47.599,1.635,5.814,3.0
46.701,1.61,5.43,20.0
46.551,1.61,5.145,20.0
46.147,1.601,4.835,5.0
39.314,1.378,5.226,4.0
46.789,1.645,5.948,1.0
47.625,1.68,5.779,2.0
46.746,1.654,5.397,5.0
46.524,1.651,5.103,15.0
46.179,1.644,4.8,3.0
60.15,2.164,7.944,4.0
59.969,2.163,7.572,1.0
46.82,1.693,5.641,10.0
46.741,1.696,5.356,8.0
46.633,1.697,5.075,8.0
60.267,2.198,6.212,22.0
52.835,1.947,6.931,1.0
47.723,1.763,5.983,3.0
46.815,1.734,5.598,9.0
46.619,1.731,5.3,9.0
46.837,1.744,5.055,7.0
46.048,1.719,4.704,2.0
61.38,2.314,7.995,7.0
47.643,1.8,5.929,6.0
52.687,1.996,6.251,2.0
60.108,2.283,6.778,15.0
46.725,1.779,4.999,5.0
60.147,2.296,6.088,3.0
47.737,1.839,6.172,1.0
46.784,1.806,5.777,18.0
60.375,2.336,7.104,31.0
59.106,2.293,6.607,23.0
46.819,1.82,4.963,4.0
66.61,2.596,6.677,7.0
60.544,2.381,7.767,5.0
60.455,2.382,7.404,5.0
60.136,2.375,7.016,2.0
46.199,1.828,5.117,10.0
46.816,1.857,4.915,6.0
57.207,2.273,5.676,6.0
60.531,2.428,7.702,2.0
52.693,2.117,6.398,3.0
59.843,2.409,6.919,20.0
46.205,1.863,5.069,8.0
46.032,1.86,4.784,3.0
52.383,2.121,5.142,4.0
46.89,1.916,5.916,12.0
39.389,1.612,4.74,1.0
58.985,2.418,6.755,14.0
46.199,1.897,5.018,3.0
45.981,1.892,4.729,4.0
52.492,2.163,5.095,8.0
47.755,1.985,5.972,4.0
59.313,2.469,7.072,5.0
47.014,1.96,5.332,4.0
46.066,1.924,4.952,1.0
45.91,1.92,4.67,6.0
52.45,2.198,5.032,9.0
59.744,2.525,7.402,7.0
58.826,2.489,6.946,14.0
46.724,1.98,5.245,6.0
46.303,1.965,4.924,4.0
45.952,1.953,4.62,2.0
46.04,1.96,4.363,4.0
39.377,1.69,4.832,2.0
58.877,2.53,6.882,8.0
46.678,2.009,5.184,9.0
46.713,2.013,4.912,10.0
60.042,2.59,5.966,5.0
46.006,1.988,4.305,9.0
46.87,2.041,5.695,1.0
58.819,2.564,6.803,2.0
46.458,2.028,5.103,19.0
46.918,2.05,4.876,8.0
52.26,2.286,5.129,3.0
46.056,2.017,4.254,2.0
59.967,2.647,7.212,8.0
0.0,0.0,0.0,0.0
46.351,2.05,5.034,9.0
47.028,2.082,4.829,2.0
52.523,2.327,5.089,4.0
59.46,2.638,5.417,6.0
61.182,2.735,7.28,4.0
47.033,2.104,5.321,3.0
59.941,2.685,6.432,9.0
45.841,2.055,4.648,5.0
43.472,1.951,4.155,3.0
50.556,2.27,4.54,2.0
0.0,0.0,0.0,0.0
46.741,2.117,5.226,6.0
59.766,2.709,6.334,3.0
45.823,2.078,4.585,2.0
45.965,2.086,4.333,8.0
53.202,2.417,4.707,2.0
0.0,0.0,0.0,0.0
46.272,2.118,5.111,8.0
46.732,2.141,4.89,6.0
59.132,2.71,5.838,10.0
45.517,2.088,4.229,19.0
47.049,2.16,4.099,5.0
0.0,0.0,0.0,0.0
46.233,2.138,5.043,9.0
46.518,2.152,4.803,20.0
52.555,2.432,5.116,4.0
45.372,2.101,4.153,3.0
47.094,2.182,4.037,14.0
47.12,2.198,5.349,5.0
59.658,2.784,6.424,4.0
46.398,2.166,4.725,9.0
43.467,2.029,4.17,3.0
52.317,2.444,4.715,1.0
47.11,2.202,3.973,8.0
46.895,2.206,5.257,13.0
47.103,2.216,5.005,2.0
59.227,2.788,5.947,10.0
45.914,2.162,4.338,12.0
53.268,2.508,4.724,2.0
47.054,2.217,3.9,1.0
46.34,2.197,5.126,11.0
46.86,2.221,4.91,3.0
59.201,2.807,5.858,6.0
45.983,2.181,4.278,2.0
47.088,2.234,4.107,3.0
52.742,2.502,4.295,2.0
46.191,2.205,5.041,12.0
46.437,2.216,4.797,4.0
52.731,2.517,5.139,2.0
59.584,2.844,5.455,5.0
47.094,2.248,4.038,12.0
69.016,3.295,5.517,1.0
46.238,2.22,4.976,4.0
59.169,2.841,6.022,5.0
45.948,2.206,4.408,3.0
46.016,2.209,4.143,2.0
47.132,2.262,3.969,10.0
240.514,11.547,18.864,20.0
60.966,2.943,6.468,8.0
59.123,2.853,5.927,16.0
45.976,2.218,4.341,11.0
53.199,2.566,4.708,1.0
47.098,2.271,3.894,2.0
65.715,3.17,5.053,3.0
60.961,2.956,6.373,5.0
45.69,2.214,4.509,5.0
59.582,2.887,5.533,5.0
47.092,2.281,4.094,8.0
43.792,2.12,3.553,2.0
51.433,2.49,3.875,1.0
46.666,2.271,4.805,4.0
43.47,2.114,4.222,3.0
59.737,2.904,5.454,2.0
47.105,2.289,4.021,12.0
68.791,3.342,5.474,2.0
52.686,2.559,3.887,2.0
60.916,2.973,6.175,5.0
45.981,2.243,4.393,7.0
45.787,2.232,4.108,2.0
47.12,2.295,3.948,8.0
65.386,3.184,5.098,6.0
47.615,2.318,3.437,2.0
45.717,2.235,4.561,6.0
45.954,2.245,4.316,10.0
45.635,2.228,4.019,1.0
47.121,2.299,3.871,4.0
65.221,3.181,4.979,2.0
68.278,3.328,4.816,1.0
52.793,2.584,5.18,3.0
59.657,2.918,5.504,3.0
47.107,2.303,4.071,9.0
52.743,2.576,4.247,2.0
51.592,2.518,3.854,1.0
47.342,2.309,3.263,0.0
43.452,2.128,4.191,2.0
46.047,2.253,4.172,1.0
47.124,2.304,3.996,9.0
65.406,3.195,5.158,8.0
52.667,2.57,3.847,2.0
0.0,0.0,0.0,0.0
45.943,2.249,4.354,10.0
45.629,2.231,4.058,1.0
47.1,2.301,3.914,7.0
65.34,3.189,5.044,6.0
47.643,2.323,3.401,2.0
0.0,0.0,0.0,0.0
46.02,2.25,4.284,3.0
47.133,2.302,4.112,4.0
43.762,2.135,3.563,3.0
51.42,2.506,3.882,1.0
47.386,2.307,3.302,1.0
67.183,3.268,4.292,2.0
46.204,2.255,4.222,1.0
47.122,2.296,4.031,11.0
43.843,2.134,3.495,0.0
52.634,2.559,3.885,3.0
47.432,2.303,3.225,1.0
67.253,3.262,4.182,0.0
45.767,2.227,4.104,1.0
47.142,2.29,3.952,12.0
65.675,3.187,5.122,4.0
47.598,2.307,3.43,2.0
0.0,0.0,0.0,0.0
0.0,0.0,0.0,0.0
47.139,2.285,4.145,2.0
43.788,2.12,3.594,1.0
65.319,3.157,4.981,2.0
47.428,2.289,3.336,1.0
0.0,0.0,0.0,0.0
196.251,9.447,11.53,12.0
47.124,2.274,4.061,14.0
52.841,2.545,4.246,1.0
52.436,2.522,3.908,3.0
47.322,2.273,3.247,0.0
67.231,3.224,4.223,2.0
195.862,9.38,11.168,24.0
47.117,2.261,3.979,7.0
68.933,3.302,5.419,2.0
47.583,2.276,3.464,2.0
69.731,3.33,4.663,1.0
204.39,9.746,12.484,6.0
195.903,9.325,10.831,8.0
43.799,2.089,3.622,2.0
68.981,3.284,5.302,1.0
66.648,3.167,4.735,2.0
204.543,9.703,13.323,9.0
196.372,9.298,11.65,13.0
195.691,9.251,10.477,8.0
52.749,2.498,4.269,2.0
51.674,2.442,3.881,3.0
47.345,2.232,3.28,0.0
67.282,3.167,4.263,2.0
196.251,9.221,11.295,23.0
194.707,9.131,10.079,13.0
47.375,2.225,3.75,1.0
47.529,2.227,3.485,2.0
204.093,9.545,13.779,6.0
67.235,3.138,4.141,2.0
196.142,9.137,10.945,19.0
194.49,9.041,9.727,20.0
52.548,2.446,4.066,5.0
47.327,2.197,3.386,1.0
69.536,3.222,4.571,0.0
0.0,0.0,0.0,0.0
195.397,9.015,10.555,13.0
193.1,8.889,9.311,25.0
51.538,2.374,3.895,2.0
66.644,3.063,4.649,1.0
68.995,3.164,4.412,2.0
196.004,8.967,11.375,14.0
194.562,8.882,10.164,24.0
193.287,8.803,8.979,19.0
47.43,2.161,3.5,2.0
69.608,3.164,4.733,2.0
67.255,3.049,4.181,3.0
195.751,8.853,11.016,23.0
193.54,8.733,9.769,22.0
193.498,8.71,8.647,18.0
67.141,3.023,4.836,7.0
69.539,3.123,4.605,2.0
0.0,0.0,0.0,0.0
194.637,8.694,10.606,20.0
193.595,8.624,9.426,24.0
193.46,8.597,8.299,18.0
68.299,3.034,4.795,14.0
68.713,3.044,4.425,2.0
68.767,3.038,4.03,0.0
194.238,8.559,10.238,24.0
193.568,8.507,9.082,10.0
195.131,8.552,8.027,8.0
67.669,2.964,4.632,9.0
67.279,2.938,4.213,2.0
195.714,8.524,11.12,23.0
194.048,8.426,9.882,26.0
193.385,8.372,8.728,20.0
194.32,8.39,7.648,6.0
69.52,2.999,4.634,4.0
67.321,2.895,4.096,3.0
195.132,8.366,10.739,24.0
194.274,8.303,9.547,24.0
193.58,8.247,8.392,9.0
194.062,8.244,7.292,14.0
69.167,2.935,4.487,15.0
203.453,8.604,12.015,13.0
194.267,8.19,10.347,25.0
104.793,4.402,4.963,2.0
195.255,8.176,8.117,10.0
193.428,8.073,6.921,18.0
69.109,2.88,4.359,4.0
68.881,2.861,3.945,0.0
194.285,8.041,9.999,24.0
194.92,8.04,8.884,15.0
195.44,8.034,7.777,10.0
193.533,7.927,6.581,13.0
67.405,2.756,4.131,2.0
195.012,7.945,10.821,13.0
194.323,7.887,9.655,18.0
195.154,7.891,8.548,5.0
0.0,0.0,0.0,0.0
193.261,7.759,6.23,23.0
68.728,2.754,4.091,1.0
194.935,7.78,10.471,20.0
194.637,7.737,9.326,9.0
195.322,7.733,8.207,18.0
196.723,7.76,7.13,5.0
193.196,7.591,5.884,5.0
0.0,0.0,0.0,0.0
194.743,7.599,10.111,23.0
195.629,7.602,9.025,9.0
198.94,7.701,8.008,5.0
193.88,7.473,6.68,11.0
0.0,0.0,0.0,0.0
118.684,4.542,6.64,2.0
195.071,7.435,9.787,23.0
195.938,7.435,8.695,9.0
194.326,7.343,7.481,5.0
195.081,7.338,6.379,7.0
0.0,0.0,0.0,0.0
196.544,7.337,10.653,8.0
195.464,7.264,9.462,15.0
0.0,0.0,0.0,0.0
193.496,7.123,7.106,23.0
198.585,7.276,6.146,5.0
195.651,7.137,4.925,17.0
195.851,7.118,10.271,8.0
0.0,0.0,0.0,0.0
193.6,6.968,7.912,17.0
193.55,6.932,6.771,13.0
194.777,6.942,5.69,15.0
195.515,6.936,4.584,8.0
195.577,6.909,9.917,16.0
196.463,6.904,8.826,9.0
193.539,6.767,7.575,25.0
193.443,6.728,6.435,17.0
194.876,6.742,5.356,12.0
195.19,6.717,4.237,8.0
104.354,3.576,5.111,6.0
195.93,6.677,8.464,18.0
193.713,6.566,7.248,22.0
193.539,6.524,6.105,5.0
195.668,6.56,5.044,5.0
195.249,6.509,3.906,22.0
102.27,3.393,4.835,3.0
193.679,6.387,8.035,24.0
193.448,6.342,6.909,15.0
194.831,6.351,5.813,8.0
194.399,6.3,4.68,5.0
195.755,6.309,3.586,11.0
102.39,3.281,4.666,6.0
193.788,6.171,7.71,21.0
193.196,6.114,6.572,22.0
194.399,6.115,5.473,8.0
193.839,6.06,4.341,26.0
0.0,0.0,0.0,0.0
102.338,3.161,4.493,4.0
193.738,5.944,7.386,21.0
192.986,5.883,6.243,27.0
193.838,5.869,5.132,20.0
193.616,5.823,4.011,30.0
195.406,5.84,2.924,18.0
102.331,3.037,4.32,1.0
193.623,5.707,7.058,12.0
193.395,5.661,5.934,17.0
193.883,5.635,4.812,32.0
193.462,5.582,3.686,22.0
195.514,5.6,2.598,20.0
193.662,5.507,7.854,8.0
193.144,5.45,6.717,21.0
194.254,5.439,5.635,12.0
193.619,5.38,4.48,31.0
193.462,5.335,3.363,12.0
195.074,5.34,2.27,20.0
0.0,0.0,0.0,0.0
193.207,5.204,6.402,22.0
194.485,5.197,5.324,23.0
193.676,5.133,4.167,26.0
195.473,5.137,3.08,14.0
103.156,2.688,1.031,5.0
0.0,0.0,0.0,0.0
195.421,5.006,6.157,6.0
194.128,4.928,4.997,26.0
193.741,4.878,3.855,31.0
195.114,4.869,2.76,21.0
103.097,2.549,0.865,5.0
0.0,0.0,0.0,0.0
194.963,4.732,5.831,11.0
194.222,4.669,4.69,25.0
193.798,4.617,3.547,23.0
0.0,0.0,0.0,0.0
102.928,2.405,0.7,3.0
0.0,0.0,0.0,0.0
194.594,4.454,5.51,24.0
194.108,4.397,4.379,26.0
194.36,4.357,3.248,19.0
0.0,0.0,0.0,0.0
100.021,2.195,0.521,3.0
0.0,0.0,0.0,0.0
194.932,4.185,5.215,23.0
194.065,4.121,4.076,5.0
196.023,4.116,2.971,5.0
102.949,2.137,0.968,5.0
99.957,2.05,0.365,3.0
0.0,0.0,0.0,0.0
194.649,3.897,4.906,18.0
195.421,3.864,3.801,7.0
103.084,2.013,1.402,4.0
103.025,1.988,0.81,1.0
99.88,1.902,0.212,5.0
0.0,0.0,0.0,0.0
194.639,3.607,4.608,21.0
194.488,3.555,3.486,15.0
0.0,0.0,0.0,0.0
99.84,1.776,0.633,5.0
99.845,1.752,0.061,9.0
0.0,0.0,0.0,0.0
194.731,3.317,4.319,17.0
194.74,3.27,3.203,31.0
0.0,0.0,0.0,0.0
99.707,1.623,0.486,5.0
99.863,1.602,-0.084,1.0
196.699,3.101,5.203,18.0
196.028,3.039,4.059,19.0
194.769,2.968,2.915,13.0
0.0,0.0,0.0,0.0
99.636,1.467,0.339,5.0
101.298,1.465,-0.236,1.0
20.325,0.288,0.507,0.0
20.284,0.282,0.39,1.0
20.309,0.277,0.274,0.0
99.776,1.337,0.766,1.0
99.666,1.309,0.195,4.0
0.0,0.0,0.0,0.0
20.284,0.255,0.477,26.0
20.277,0.25,0.361,20.0
20.288,0.245,0.245,19.0
20.303,0.239,0.127,8.0
20.304,0.234,0.011,0.0
0.0,0.0,0.0,0.0
20.275,0.223,0.449,34.0
20.284,0.217,0.333,30.0
20.305,0.212,0.217,27.0
20.32,0.207,0.099,30.0
20.326,0.201,-0.016,19.0
20.208,0.195,-0.132,17.0
20.281,0.189,0.421,29.0
20.281,0.184,0.305,28.0
20.295,0.178,0.189,26.0
20.28,0.173,0.071,27.0
20.221,0.167,-0.044,24.0
20.181,0.161,-0.159,22.0
20.191,0.155,0.392,27.0
20.178,0.149,0.277,23.0
20.171,0.144,0.161,23.0
20.184,0.138,0.044,26.0
20.186,0.133,-0.07,30.0
20.176,0.127,-0.186,24.0
20.165,0.121,0.365,29.0
20.159,0.115,0.25,27.0
20.164,0.11,0.135,24.0
20.187,0.104,0.018,28.0
20.182,0.099,-0.096,29.0
20.192,0.093,-0.212,18.0
20.15,0.086,0.339,28.0
20.151,0.081,0.224,27.0
20.159,0.075,0.109,24.0
20.201,0.069,-0.007,35.0
20.213,0.063,-0.122,25.0
20.214,0.058,-0.238,0.0
20.144,0.051,0.314,29.0
20.145,0.046,0.199,27.0
20.151,0.04,0.084,20.0
20.264,0.034,-0.032,150.0
20.259,0.028,-0.148,151.0
20.265,0.022,-0.263,150.0
20.125,0.016,0.289,29.0
20.127,0.01,0.174,28.0
20.186,0.004,0.059,27.0
20.225,-0.001,-0.057,22.0
20.168,-0.007,-0.172,10.0
20.175,-0.013,-0.287,5.0
20.118,-0.018,0.265,28.0
20.119,-0.024,0.15,30.0
20.134,-0.031,0.035,34.0
20.144,-0.037,-0.08,34.0
20.133,-0.043,-0.195,18.0
20.166,-0.049,-0.31,26.0
20.122,-0.055,0.241,29.0
20.125,-0.061,0.127,36.0
20.127,-0.067,0.012,34.0
20.124,-0.073,-0.104,31.0
20.139,-0.079,-0.218,26.0
20.142,-0.086,-0.333,32.0
20.128,-0.091,0.218,25.0
20.137,-0.097,0.104,37.0
20.143,-0.104,-0.01,28.0
20.143,-0.11,-0.126,26.0
20.14,-0.116,-0.241,31.0
20.147,-0.122,-0.355,37.0
20.151,-0.128,0.196,18.0
20.148,-0.134,0.082,17.0
20.176,-0.141,-0.031,18.0
20.149,-0.147,-0.148,15.0
20.16,-0.154,-0.263,27.0
20.168,-0.16,-0.377,29.0
66.522,-0.548,0.579,26.0
53.352,-0.456,0.161,9.0
56.281,-0.499,-0.149,4.0
53.169,-0.488,-0.448,3.0
44.859,-0.426,-0.632,6.0
20.195,-0.198,-0.399,11.0
64.335,-0.651,0.493,42.0
56.145,-0.585,0.112,1.0
56.214,-0.603,-0.206,4.0
52.722,-0.583,-0.497,13.0
38.536,-0.438,-0.582,13.0
32.145,-0.376,-0.668,3.0
20.174,-0.242,0.134,0.0
59.556,-0.734,0.059,54.0
56.547,-0.715,-0.264,4.0
52.565,-0.681,-0.548,3.0
38.099,-0.506,-0.613,23.0
31.373,-0.427,-0.683,27.0
20.133,-0.28,0.114,11.0
59.503,-0.846,0.002,8.0
59.428,-0.865,-0.334,7.0
45.11,-0.672,-0.514,19.0
37.942,-0.577,-0.647,19.0
30.56,-0.475,-0.694,28.0
20.138,-0.319,0.095,43.0
20.129,-0.325,-0.018,26.0
52.956,-0.873,-0.347,23.0
44.923,-0.755,-0.553,33.0
37.696,-0.646,-0.677,12.0
30.449,-0.532,-0.719,22.0
20.141,-0.357,0.077,4.0
52.992,-0.958,-0.094,7.0
52.913,-0.975,-0.394,21.0
44.873,-0.841,-0.592,16.0
31.515,-0.601,-0.594,5.0
29.685,-0.577,-0.727,10.0
52.941,-1.043,0.159,68.0
45.608,-0.913,-0.12,14.0
38.365,-0.781,-0.318,22.0
38.335,-0.794,-0.538,49.0
31.276,-0.658,-0.616,23.0
0.0,0.0,0.0,0.0
40.424,-0.875,0.088,9.0
40.422,-0.89,-0.14,31.0
40.414,-0.903,-0.368,43.0
38.252,-0.867,-0.568,22.0
30.907,-0.711,-0.633,31.0
28.4,-0.663,-0.742,1.0
40.417,-0.955,0.056,40.0
40.4,-0.968,-0.171,35.0
38.805,-0.943,-0.384,19.0
38.05,-0.938,-0.594,16.0
30.645,-0.766,-0.652,33.0
27.892,-0.707,-0.75,1.0
38.703,-0.991,0.024,40.0
38.712,-1.004,-0.193,44.0
38.689,-1.017,-0.411,36.0
37.953,-1.011,-0.621,13.0
30.513,-0.823,-0.671,35.0
27.323,-0.747,-0.755,0.0
38.672,-1.067,-0.003,83.0
38.661,-1.08,-0.22,71.0
38.63,-1.092,-0.438,42.0
37.842,-1.084,-0.646,12.0
30.468,-0.883,-0.692,31.0
25.265,-0.741,-0.716,4.0
38.668,-1.144,-0.029,91.0
38.647,-1.156,-0.246,65.0
38.594,-1.169,-0.463,41.0
31.37,-0.961,-0.556,11.0
30.415,-0.943,-0.71,21.0
24.984,-0.783,-0.724,11.0
38.694,-1.222,-0.054,64.0
38.678,-1.235,-0.271,54.0
38.56,-1.245,-0.487,18.0
31.209,-1.019,-0.573,27.0
30.419,-1.004,-0.729,12.0
24.476,-0.816,-0.724,18.0
81.021,-2.722,-0.162,9.0
38.822,-1.317,-0.295,1.0
38.489,-1.319,-0.509,13.0
30.972,-1.073,-0.586,29.0
30.221,-1.058,-0.742,7.0
24.276,-0.858,-0.732,24.0
80.64,-2.87,-0.207,10.0
53.978,-1.94,-0.441,2.0
38.425,-1.394,-0.529,6.0
30.786,-1.128,-0.6,30.0
28.679,-1.061,-0.72,1.0
23.889,-0.892,-0.733,17.0
31.309,-1.176,-0.096,80.0
31.282,-1.187,-0.271,34.0
31.263,-1.197,-0.446,27.0
28.456,-1.099,-0.569,37.0
28.432,-1.109,-0.728,30.0
23.83,-0.938,-0.743,16.0
28.465,-1.127,-0.101,77.0
28.444,-1.136,-0.26,90.0
28.443,-1.146,-0.42,117.0
28.449,-1.157,-0.582,150.0
28.35,-1.163,-0.739,34.0
23.799,-0.985,-0.753,19.0
28.461,-1.184,-0.114,144.0
28.451,-1.194,-0.273,117.0
28.441,-1.203,-0.432,98.0
28.447,-1.214,-0.594,65.0
28.289,-1.217,-0.749,7.0
23.723,-1.029,-0.761,13.0
28.473,-1.241,-0.126,59.0
31.164,-1.37,-0.312,28.0
31.174,-1.381,-0.486,59.0
30.577,-1.366,-0.651,31.0
27.452,-1.237,-0.738,1.0
23.666,-1.075,-0.768,8.0
31.219,-1.424,-0.149,54.0
31.192,-1.433,-0.323,45.0
31.172,-1.443,-0.497,46.0
30.555,-1.426,-0.661,30.0
24.611,-1.158,-0.67,4.0
23.5,-1.114,-0.771,5.0
31.279,-1.488,-0.16,25.0
31.222,-1.497,-0.334,37.0
31.199,-1.507,-0.507,39.0
30.538,-1.486,-0.67,25.0
24.582,-1.206,-0.676,10.0
23.292,-1.151,-0.771,5.0
65.64,-3.256,-0.355,5.0
47.375,-2.367,-0.52,2.0
37.973,-1.911,-0.628,2.0
30.539,-1.548,-0.679,25.0
24.385,-1.245,-0.677,14.0
22.976,-1.181,-0.766,5.0
65.579,-3.383,-0.371,3.0
47.289,-2.456,-0.531,1.0
31.376,-1.641,-0.527,10.0
24.562,-1.293,-0.551,14.0
24.322,-1.289,-0.681,18.0
22.78,-1.216,-0.765,4.0
0.0,0.0,0.0,0.0
24.577,-1.325,-0.281,16.0
24.542,-1.332,-0.417,25.0
24.505,-1.339,-0.555,37.0
24.269,-1.335,-0.684,17.0
22.507,-1.247,-0.76,2.0
24.575,-1.365,-0.148,37.0
24.543,-1.372,-0.284,45.0
24.528,-1.38,-0.42,44.0
24.474,-1.386,-0.558,34.0
24.25,-1.382,-0.688,17.0
22.433,-1.287,-0.761,1.0
24.534,-1.411,-0.151,67.0
24.518,-1.419,-0.287,75.0
24.498,-1.426,-0.423,55.0
24.454,-1.433,-0.56,37.0
24.239,-1.429,-0.69,14.0
22.303,-1.323,-0.759,1.0
24.523,-1.458,-0.154,74.0
24.503,-1.466,-0.289,60.0
24.503,-1.475,-0.425,78.0
24.453,-1.481,-0.562,38.0
24.206,-1.474,-0.691,19.0
22.272,-1.365,-0.759,1.0
24.504,-1.504,-0.155,52.0
24.494,-1.513,-0.29,65.0
24.497,-1.522,-0.426,51.0
24.461,-1.529,-0.563,36.0
24.179,-1.52,-0.691,17.0
22.315,-1.411,-0.761,1.0
24.526,-1.554,-0.156,50.0
24.509,-1.561,-0.291,55.0
24.503,-1.57,-0.427,43.0
24.464,-1.576,-0.563,37.0
24.19,-1.568,-0.691,20.0
22.316,-1.454,-0.761,0.0
24.531,-1.601,-0.155,28.0
24.518,-1.609,-0.29,27.0
24.513,-1.617,-0.426,26.0
24.44,-1.621,-0.562,28.0
24.201,-1.614,-0.69,21.0
22.296,-1.496,-0.759,1.0
0.0,0.0,0.0,0.0
44.439,-3.001,-0.524,3.0
34.687,-2.355,-0.6,1.0
24.535,-1.674,-0.563,15.0
24.21,-1.661,-0.689,16.0
22.292,-1.538,-0.757,1.0
53.72,-3.71,-0.332,5.0
0.0,0.0,0.0,0.0
34.677,-2.42,-0.596,2.0
30.13,-2.113,-0.687,8.0
24.273,-1.711,-0.688,14.0
22.366,-1.585,-0.757,1.0
53.721,-3.811,-0.325,5.0
46.297,-3.3,-0.535,2.0
34.921,-2.501,-0.596,2.0
30.201,-2.174,-0.685,8.0
24.342,-1.761,-0.686,12.0
22.492,-1.635,-0.758,1.0
53.736,-3.912,-0.316,5.0
45.928,-3.359,-0.523,8.0
35.086,-2.579,-0.592,2.0
30.08,-2.221,-0.676,8.0
24.367,-1.808,-0.682,12.0
22.342,-1.666,-0.748,1.0
53.809,-4.016,-0.305,5.0
45.886,-3.44,-0.513,18.0
35.658,-2.686,-0.594,2.0
30.078,-2.276,-0.669,3.0
24.566,-1.868,-0.682,13.0
22.649,-1.73,-0.753,2.0
54.363,-4.157,-0.296,7.0
0.0,0.0,0.0,0.0
35.944,-2.773,-0.59,1.0
30.109,-2.333,-0.662,8.0
24.853,-1.934,-0.683,14.0
22.862,-1.788,-0.754,3.0
54.855,-4.293,-0.283,7.0
46.233,-3.633,-0.492,20.0
35.971,-2.839,-0.58,1.0
30.337,-2.405,-0.658,8.0
24.951,-1.986,-0.678,12.0
22.994,-1.839,-0.751,2.0
54.535,-4.364,-0.264,4.0
46.026,-3.698,-0.475,20.0
36.378,-2.935,-0.575,1.0
30.556,-2.476,-0.653,8.0
25.226,-2.053,-0.677,10.0
23.288,-1.903,-0.753,5.0
57.388,-4.693,-0.258,4.0
46.037,-3.78,-0.459,20.0
0.0,0.0,0.0,0.0
30.638,-2.537,-0.644,5.0
25.265,-2.1,-0.669,6.0
23.419,-1.955,-0.748,5.0
60.961,-5.091,-0.251,2.0
46.11,-3.866,-0.442,21.0
37.692,-3.173,-0.567,13.0
30.873,-2.609,-0.636,3.0
27.108,-2.3,-0.707,2.0
23.571,-2.008,-0.744,9.0
60.931,-5.193,-0.225,1.0
46.243,-3.956,-0.423,20.0
38.027,-3.266,-0.555,14.0
31.075,-2.679,-0.627,2.0
27.178,-2.353,-0.697,5.0
23.67,-2.057,-0.736,8.0
55.61,-4.833,-0.18,2.0
46.581,-4.064,-0.405,21.0
38.42,-3.364,-0.544,15.0
31.405,-2.76,-0.619,1.0
27.505,-2.426,-0.692,7.0
23.754,-2.103,-0.727,12.0
56.195,-4.977,-0.155,7.0
46.991,-4.177,-0.386,21.0
38.827,-3.463,-0.53,15.0
32.292,-2.891,-0.62,8.0
27.716,-2.49,-0.683,5.0
23.811,-2.147,-0.717,13.0
55.667,-5.021,-0.125,12.0
47.462,-4.296,-0.365,21.0
39.174,-3.558,-0.514,15.0
32.855,-2.994,-0.614,1.0
27.9,-2.552,-0.673,6.0
23.828,-2.187,-0.704,12.0
55.359,-5.081,-0.094,30.0
47.823,-4.404,-0.341,12.0
39.526,-3.652,-0.497,15.0
34.557,-3.204,-0.626,3.0
28.269,-2.63,-0.666,4.0
24.964,-2.331,-0.724,6.0
54.996,-5.135,-0.061,19.0
50.415,-4.723,-0.33,4.0
39.809,-3.741,-0.477,15.0
34.446,-3.248,-0.603,11.0
28.536,-2.7,-0.655,4.0
25.284,-2.4,-0.718,6.0
65.181,-6.188,-0.032,1.0
50.414,-4.801,-0.299,5.0
40.381,-3.858,-0.458,10.0
34.454,-3.302,-0.582,11.0
29.238,-2.811,-0.652,2.0
25.681,-2.477,-0.712,6.0
65.049,-6.275,0.009,2.0
0.0,0.0,0.0,0.0
0.0,0.0,0.0,0.0
34.496,-3.358,-0.56,18.0
30.221,-2.951,-0.654,2.0
26.076,-2.554,-0.706,6.0
64.995,-6.366,0.052,4.0
0.0,0.0,0.0,0.0
44.66,-4.399,-0.447,4.0
34.602,-3.419,-0.538,23.0
30.485,-3.021,-0.639,2.0
26.376,-2.622,-0.696,6.0
64.989,-6.459,0.097,91.0
55.075,-5.488,-0.215,29.0
0.0,0.0,0.0,0.0
34.79,-3.487,-0.516,20.0
31.368,-3.153,-0.635,5.0
26.779,-2.7,-0.687,6.0
64.97,-6.549,0.145,6.0
55.61,-5.62,-0.176,29.0
44.906,-4.551,-0.385,19.0
35.13,-3.57,-0.495,12.0
32.107,-3.272,-0.626,7.0
27.079,-2.767,-0.674,3.0
64.947,-6.637,0.194,4.0
56.14,-5.752,-0.135,21.0
45.166,-4.64,-0.353,11.0
35.285,-3.634,-0.47,8.0
32.457,-3.352,-0.608,10.0
27.607,-2.859,-0.666,2.0
65.056,-6.736,0.246,150.0
56.404,-5.855,-0.091,6.0
47.603,-4.954,-0.334,21.0
40.04,-4.178,-0.501,8.0
32.674,-3.418,-0.585,16.0
28.137,-2.951,-0.656,1.0
65.092,-6.825,0.298,158.0
65.268,-6.86,-0.053,4.0
48.014,-5.059,-0.298,7.0
40.036,-4.229,-0.469,15.0
32.924,-3.486,-0.563,27.0
0.0,0.0,0.0,0.0
65.084,-6.908,0.352,171.0
65.002,-6.915,0.001,3.0
51.418,-5.482,-0.276,12.0
40.234,-4.3,-0.437,15.0
33.495,-3.588,-0.544,27.0
29.934,-3.214,-0.648,3.0
65.094,-6.989,0.408,150.0
65.02,-6.996,0.057,2.0
54.274,-5.853,-0.244,6.0
40.343,-4.36,-0.403,4.0
33.899,-3.672,-0.521,30.0
30.434,-3.305,-0.632,4.0
65.148,-7.073,0.465,0.0
64.938,-7.066,0.114,1.0
54.869,-5.983,-0.198,20.0
42.33,-4.626,-0.385,15.0
34.304,-3.757,-0.497,28.0
31.006,-3.403,-0.616,9.0
65.057,-7.14,0.524,11.0
65.01,-7.149,0.174,0.0
55.639,-6.132,-0.15,29.0
0.0,0.0,0.0,0.0
34.803,-3.851,-0.472,22.0
31.34,-3.476,-0.594,15.0
65.157,-7.225,0.585,5.0
64.998,-7.221,0.235,3.0
56.155,-6.251,-0.098,9.0
46.236,-5.157,-0.335,20.0
39.766,-4.444,-0.501,4.0
31.747,-3.555,-0.571,18.0
0.0,0.0,0.0,0.0
65.131,-7.306,0.297,181.0
65.95,-7.412,-0.053,1.0
47.677,-5.369,-0.3,22.0
39.896,-4.501,-0.465,10.0
32.484,-3.672,-0.553,29.0
84.141,-9.51,0.916,3.0
65.169,-7.378,0.36,191.0
65.006,-7.373,0.01,1.0
0.0,0.0,0.0,0.0
40.022,-4.556,-0.427,15.0
32.999,-3.764,-0.529,28.0
84.36,-9.62,1.003,11.0
65.176,-7.444,0.424,105.0
65.121,-7.45,0.074,0.0
50.149,-5.747,-0.217,24.0
40.17,-4.612,-0.389,15.0
33.638,-3.869,-0.506,31.0
84.645,-9.734,1.09,27.0
65.256,-7.516,0.49,1.0
0.0,0.0,0.0,0.0
50.315,-5.814,-0.166,6.0
40.258,-4.659,-0.349,5.0
34.142,-3.958,-0.479,26.0
84.959,-9.848,1.181,20.0
79.977,-9.285,0.683,28.0
65.541,-7.621,0.208,2.0
55.675,-6.483,-0.126,20.0
45.241,-5.276,-0.345,10.0
34.819,-4.067,-0.453,24.0
192.38,-22.473,2.875,27.0
80.017,-9.359,0.767,28.0
80.05,-9.377,0.339,34.0
56.132,-6.585,-0.069,5.0
46.829,-5.502,-0.308,21.0
39.751,-4.677,-0.475,5.0
192.34,-22.63,3.079,12.0
80.135,-9.44,0.853,18.0
80.099,-9.449,0.423,33.0
80.826,-9.548,-0.013,11.0
47.755,-5.649,-0.264,22.0
39.921,-4.729,-0.434,14.0
188.172,-22.29,3.213,18.0
80.514,-9.549,0.942,7.0
80.133,-9.515,0.509,25.0
81.205,-9.655,0.073,30.0
48.787,-5.808,-0.217,22.0
40.124,-4.783,-0.394,15.0
153.812,-18.336,2.792,17.0
153.681,-18.341,1.965,16.0
80.185,-9.58,0.596,33.0
80.299,-9.605,0.158,26.0
55.408,-6.636,-0.187,5.0
40.331,-4.836,-0.352,9.0
153.748,-18.437,2.958,18.0
153.641,-18.444,2.135,18.0
80.183,-9.636,0.684,32.0
80.466,-9.68,0.247,18.0
55.694,-6.708,-0.126,16.0
45.836,-5.527,-0.349,15.0
153.84,-18.55,3.129,16.0
153.734,-18.555,2.303,19.0
80.238,-9.694,0.772,29.0
80.415,-9.725,0.335,35.0
56.144,-6.797,-0.065,5.0
46.248,-5.605,-0.301,21.0
188.083,-22.797,4.036,15.0
153.779,-18.655,2.475,6.0
80.386,-9.76,0.863,14.0
80.287,-9.757,0.425,41.0
80.853,-9.836,-0.005,12.0
47.498,-5.784,-0.256,22.0
188.584,-22.966,4.256,9.0
188.291,-22.948,3.24,23.0
80.729,-9.846,0.957,5.0
80.278,-9.8,0.514,33.0
80.73,-9.864,0.085,20.0
48.197,-5.894,-0.206,20.0
188.9,-23.104,4.475,8.0
188.453,-23.066,3.457,12.0
192.136,-23.534,2.494,32.0
80.307,-9.844,0.606,33.0
80.629,-9.891,0.176,35.0
50.136,-6.156,-0.158,14.0
165.347,-20.305,4.107,10.0
188.773,-23.196,3.678,14.0
192.093,-23.619,2.715,24.0
80.338,-9.884,0.697,34.0
80.479,-9.909,0.268,30.0
55.666,-6.859,-0.112,13.0
165.374,-20.382,4.296,16.0
188.463,-23.239,3.887,5.0
192.123,-23.704,2.933,21.0
80.38,-9.923,0.789,29.0
80.435,-9.936,0.36,23.0
56.352,-6.966,-0.048,4.0
165.355,-20.445,4.486,22.0
139.604,-17.268,3.04,12.0
192.118,-23.775,3.154,20.0
80.456,-9.961,0.882,12.0
80.428,-9.964,0.451,19.0
69.332,-8.594,0.019,4.0
165.343,-20.501,4.674,10.0
139.63,-17.319,3.202,19.0
192.102,-23.837,3.376,18.0
192.004,-23.835,2.328,22.0
80.44,-9.99,0.545,28.0
69.263,-8.606,0.099,8.0
141.47,-17.584,4.165,7.0
139.605,-17.357,3.361,19.0
198.173,-24.647,3.714,9.0
192.092,-23.899,2.554,26.0
80.461,-10.014,0.639,31.0
69.169,-8.612,0.18,10.0
141.513,-17.627,4.332,8.0
63.071,-7.857,1.593,6.0
0.0,0.0,0.0,0.0
192.056,-23.939,2.776,35.0
80.488,-10.035,0.734,27.0
69.167,-8.626,0.26,4.0
139.101,-17.355,4.419,15.0
63.06,-7.868,1.666,19.0
139.569,-17.418,2.941,20.0
191.987,-23.965,2.997,27.0
80.507,-10.051,0.827,20.0
68.934,-8.608,0.339,3.0
139.403,-17.416,4.589,12.0
63.096,-7.883,1.74,26.0
139.513,-17.431,3.101,29.0
191.987,-23.991,3.219,30.0
80.672,-10.082,0.921,7.0
68.953,-8.619,0.419,4.0
84.818,-10.606,2.89,5.0
63.166,-7.898,1.814,25.0
139.505,-17.444,3.261,26.0
191.939,-24.001,3.44,19.0
192.012,-24.012,2.412,28.0
80.548,-10.073,0.581,11.0
84.499,-10.573,2.977,10.0
63.242,-7.912,1.889,8.0
139.605,-17.464,3.423,25.0
197.435,-24.697,3.762,5.0
192.049,-24.022,2.634,31.0
80.554,-10.076,0.674,24.0
84.51,-10.576,3.074,19.0
139.106,-17.405,4.315,14.0
63.105,-7.894,1.619,13.0
139.576,-17.459,2.821,10.0
192.069,-24.023,2.852,30.0
80.506,-10.068,0.766,25.0
84.527,-10.577,3.173,13.0
139.31,-17.427,4.483,16.0
63.104,-7.892,1.692,27.0
139.565,-17.45,2.982,31.0
192.076,-24.011,3.076,31.0
80.567,-10.07,0.858,13.0
137.474,-17.193,5.318,9.0
139.313,-17.417,4.642,12.0
63.141,-7.891,1.765,26.0
139.521,-17.432,3.138,33.0
192.07,-23.99,3.294,22.0
192.062,-23.983,2.266,20.0
137.435,-17.173,5.472,7.0
84.642,-10.571,2.916,10.0
63.208,-7.891,1.839,10.0
139.538,-17.413,3.298,25.0
192.027,-23.956,3.508,6.0
192.052,-23.951,2.48,32.0
126.678,-15.809,5.187,2.0
84.47,-10.536,3.005,18.0
141.445,-17.633,4.274,8.0
139.625,-17.398,3.456,19.0
197.974,-24.658,3.84,9.0
192.075,-23.913,2.696,29.0
139.087,-17.329,5.851,2.0
84.479,-10.518,3.1,19.0
139.113,-17.311,4.358,12.0
63.036,-7.84,1.629,13.0
139.701,-17.366,2.863,11.0
192.013,-23.857,2.906,24.0
137.066,-17.042,5.919,12.0
84.52,-10.502,3.195,14.0
85.488,-10.615,2.772,6.0
63.009,-7.819,1.699,4.0
139.591,-17.311,3.015,20.0
192.097,-23.81,3.12,24.0
137.028,-16.997,6.067,13.0
84.446,-10.467,3.285,5.0
85.224,-10.555,2.858,12.0
165.226,-20.449,4.636,10.0
139.725,-17.281,3.17,17.0
192.095,-23.743,3.328,7.0
110.654,-13.688,5.019,7.0
137.748,-17.025,5.508,7.0
84.881,-10.482,2.936,24.0
139.146,-17.17,4.052,7.0
139.626,-17.216,3.316,10.0
188.972,-23.284,3.474,13.0
110.73,-13.655,5.141,19.0
127.067,-15.655,5.217,2.0
84.689,-10.424,3.021,19.0
139.139,-17.111,4.201,14.0
165.3,-20.312,4.101,15.0
188.395,-23.131,3.663,13.0
110.758,-13.61,5.262,22.0
137.213,-16.844,5.779,13.0
84.577,-10.372,3.107,20.0
84.386,-10.338,2.637,7.0
165.31,-20.234,4.278,21.0
188.63,-23.069,3.866,20.0
110.848,-13.569,5.38,11.0
137.004,-16.752,5.913,14.0
84.676,-10.342,3.198,13.0
84.267,-10.281,2.721,14.0
165.247,-20.142,4.444,14.0
188.528,-22.957,4.059,17.0
137.156,-16.718,6.8,12.0
137.141,-16.696,6.059,16.0
84.918,-10.326,3.294,15.0
84.389,-10.25,2.81,31.0
85.815,-10.412,2.396,9.0
187.684,-22.747,4.232,4.0
118.812,-14.414,6.012,5.0
137.002,-16.6,6.193,13.0
85.524,-10.349,3.405,11.0
84.486,-10.211,2.899,29.0
84.167,-10.161,2.434,13.0
153.93,-18.562,3.623,9.0
118.813,-14.342,6.131,20.0
137.01,-16.516,6.33,10.0
84.797,-10.208,3.459,17.0
84.483,-10.157,2.982,28.0
84.175,-10.108,2.516,31.0
139.044,-16.677,3.407,22.0
118.824,-14.266,6.247,24.0
137.206,-16.449,6.472,12.0
84.134,-10.072,3.514,22.0
84.585,-10.112,3.067,28.0
84.261,-10.06,2.6,32.0
139.103,-16.587,3.541,19.0
118.777,-14.178,6.357,27.0
137.251,-16.359,6.604,18.0
83.991,-9.996,3.587,27.0
84.676,-10.063,3.149,17.0
84.322,-10.007,2.68,35.0
139.27,-16.504,3.676,17.0
118.298,-14.033,6.444,25.0
118.831,-14.074,5.829,12.0
83.806,-9.91,3.656,35.0
84.138,-9.934,3.208,30.0
84.362,-9.946,2.759,32.0
84.171,-9.909,2.298,18.0
118.782,-13.999,6.578,27.0
118.862,-13.985,5.938,24.0
83.933,-9.859,3.738,36.0
83.88,-9.837,3.272,36.0
0.0,0.0,0.0,0.0
84.159,-9.839,2.372,36.0
117.634,-13.767,6.619,25.0
118.937,-13.895,6.047,18.0
84.103,-9.809,3.819,18.0
83.754,-9.752,3.34,37.0
83.895,-9.752,2.892,28.0
84.133,-9.764,2.445,44.0
118.423,-13.759,6.766,13.0
83.928,-9.733,4.339,15.0
84.171,-9.744,3.894,13.0
83.854,-9.69,3.415,39.0
83.845,-9.672,2.96,39.0
83.051,-9.564,2.483,27.0
114.381,-13.187,6.631,20.0
84.415,-9.713,4.434,16.0
83.852,-9.631,3.949,35.0
83.888,-9.617,3.486,45.0
83.391,-9.542,3.013,38.0
83.018,-9.483,2.548,27.0
119.136,-13.624,7.003,15.0
84.551,-9.65,4.509,21.0
83.84,-9.55,4.016,39.0
84.3,-9.584,3.571,24.0
82.759,-9.391,3.055,32.0
82.779,-9.376,2.605,21.0
109.85,-12.456,6.544,20.0
84.797,-9.595,4.588,28.0
83.726,-9.455,4.074,37.0
82.482,-9.295,3.557,12.0
82.525,-9.282,3.109,40.0
82.21,-9.229,2.651,28.0
109.785,-12.338,6.622,35.0
84.565,-9.483,4.64,23.0
83.764,-9.373,4.139,34.0
83.907,-9.37,3.68,41.0
82.542,-9.198,3.172,28.0
82.203,-9.142,2.711,34.0
109.802,-12.225,6.704,42.0
83.847,-9.314,4.662,13.0
83.817,-9.29,4.202,40.0
82.455,-9.12,3.675,15.0
82.629,-9.12,3.233,37.0
82.26,-9.06,2.77,42.0
109.809,-12.108,6.781,22.0
83.661,-9.203,4.71,13.0
83.702,-9.187,4.254,38.0
83.615,-9.156,3.784,45.0
82.671,-9.033,3.29,43.0
82.26,-8.969,2.825,46.0
86.773,-9.472,5.416,6.0
0.0,0.0,0.0,0.0
83.741,-9.097,4.31,41.0
83.65,-9.066,3.84,40.0
82.666,-8.939,3.343,37.0
82.283,-8.877,2.879,38.0
113.419,-12.248,7.154,9.0
85.271,-9.185,4.911,21.0
83.899,-9.016,4.372,37.0
84.5,-9.059,3.932,23.0
83.328,-8.913,3.421,43.0
82.358,-8.788,2.931,36.0
113.466,-12.119,7.225,11.0
84.639,-9.017,4.925,22.0
84.252,-8.953,4.441,23.0
84.273,-8.934,3.972,40.0
82.842,-8.76,3.451,32.0
82.503,-8.703,2.985,37.0
113.563,-11.992,7.297,16.0
84.474,-8.897,4.964,25.0
84.077,-8.832,4.479,37.0
84.706,-8.874,4.039,25.0
82.081,-8.578,3.465,34.0
82.607,-8.611,3.034,36.0
109.468,-11.423,7.094,22.0
84.131,-8.755,4.989,32.0
84.009,-8.718,4.521,47.0
83.499,-8.643,4.026,32.0
81.974,-8.463,3.502,43.0
82.373,-8.482,3.068,32.0
109.34,-11.269,7.143,30.0
84.62,-8.697,5.061,36.0
0.0,0.0,0.0,0.0
83.23,-8.507,4.054,61.0
81.947,-8.353,3.541,38.0
82.238,-8.361,3.103,39.0
109.369,-11.13,7.196,38.0
84.805,-8.604,5.113,42.0
82.345,-8.331,4.51,21.0
82.322,-8.306,4.048,35.0
81.993,-8.248,3.581,43.0
82.195,-8.246,3.138,36.0
109.37,-10.983,7.246,40.0
84.235,-8.434,5.115,37.0
82.245,-8.21,4.54,10.0
82.227,-8.184,4.078,35.0
81.966,-8.135,3.614,44.0
82.227,-8.138,3.173,38.0
109.649,-10.861,7.309,19.0
84.453,-8.339,5.162,29.0
83.382,-8.209,4.637,36.0
81.958,-8.044,4.097,37.0
81.743,-7.999,3.635,37.0
82.116,-8.012,3.2,35.0
86.445,-8.442,5.794,25.0
83.448,-8.123,5.132,16.0
83.483,-8.101,4.672,43.0
81.815,-7.914,4.119,36.0
81.879,-7.897,3.67,45.0
82.363,-7.92,3.237,25.0
86.466,-8.321,5.825,10.0
83.429,-8.003,5.158,11.0
83.251,-7.96,4.686,40.0
81.797,-7.796,4.143,39.0
81.848,-7.776,3.694,35.0
82.205,-7.786,3.256,9.0
86.658,-8.213,5.864,6.0
83.432,-7.88,5.183,13.0
83.291,-7.841,4.712,37.0
82.106,-7.704,4.183,37.0
82.096,-7.679,3.728,27.0
81.799,-7.627,3.262,35.0
86.683,-8.087,5.889,11.0
84.547,-7.86,5.274,41.0
83.26,-7.715,4.731,42.0
82.55,-7.623,4.225,47.0
82.035,-7.55,3.745,49.0
81.677,-7.493,3.276,36.0
85.879,-7.883,5.853,20.0
84.165,-7.698,5.268,40.0
83.299,-7.593,4.752,38.0
82.524,-7.497,4.241,46.0
81.888,-7.414,3.754,43.0
81.695,-7.371,3.293,36.0
85.564,-7.724,5.848,24.0
84.366,-7.588,5.296,29.0
83.461,-7.48,4.775,39.0
83.207,-7.431,4.29,43.0
82.077,-7.305,3.776,41.0
81.657,-7.243,3.303,35.0
84.894,-7.533,5.815,25.0
84.691,-7.487,5.329,22.0
83.444,-7.35,4.785,40.0
83.026,-7.287,4.291,40.0
82.764,-7.238,3.818,46.0
81.747,-7.123,3.317,37.0
84.662,-7.379,5.808,22.0
84.714,-7.355,5.339,11.0
83.622,-7.234,4.804,27.0
83.087,-7.161,4.302,45.0
82.824,-7.111,3.827,54.0
82.116,-7.025,3.338,31.0
84.573,-7.237,5.808,8.0
84.946,-7.241,5.359,17.0
83.882,-7.123,4.823,30.0
83.089,-7.029,4.306,41.0
83.086,-7.002,3.843,35.0
82.276,-6.908,3.347,35.0
85.757,-7.202,5.892,11.0
86.499,-7.235,5.459,23.0
83.67,-6.972,4.812,36.0
83.541,-6.934,4.331,43.0
83.389,-6.895,3.857,41.0
82.841,-6.823,3.37,44.0
86.227,-7.103,5.923,15.0
85.991,-7.054,5.425,26.0
83.607,-6.831,4.807,41.0
83.121,-6.764,4.306,39.0
83.352,-6.757,3.852,39.0
82.793,-6.685,3.365,18.0
86.202,-6.96,5.916,32.0
85.682,-6.889,5.401,30.0
83.594,-6.694,4.801,41.0
83.054,-6.623,4.296,39.0
84.094,-6.679,3.881,18.0
83.017,-6.567,3.367,26.0
86.227,-6.82,5.91,24.0
85.693,-6.748,5.393,27.0
83.597,-6.556,4.792,44.0
83.139,-6.493,4.292,39.0
0.0,0.0,0.0,0.0
82.639,-6.401,3.341,32.0
86.212,-6.675,5.898,12.0
84.447,-6.511,5.302,13.0
83.645,-6.422,4.783,38.0
83.518,-6.384,4.299,50.0
86.081,-6.551,3.948,33.0
83.105,-6.299,3.346,36.0
60.403,-4.576,4.122,5.0
84.116,-6.344,5.267,37.0
84.001,-6.307,4.787,52.0
83.438,-6.237,4.279,47.0
83.312,-6.2,3.805,35.0
82.851,-6.139,3.319,35.0
84.26,-6.241,5.731,8.0
84.119,-6.201,5.248,37.0
84.34,-6.19,4.788,42.0
83.537,-6.103,4.264,44.0
83.447,-6.07,3.791,45.0
82.824,-5.997,3.298,43.0
86.107,-6.231,5.835,12.0
84.425,-6.082,5.246,23.0
84.5,-6.058,4.774,29.0
83.674,-5.972,4.248,25.0
83.605,-5.94,3.775,44.0
82.899,-5.864,3.277,21.0
24.566,-1.736,1.657,3.0
24.525,-1.725,1.516,12.0
24.487,-1.714,1.376,19.0
85.549,-5.96,4.316,28.0
24.565,-1.703,1.101,3.0
24.557,-1.694,0.962,33.0
24.49,-1.688,1.644,43.0
24.469,-1.678,1.504,58.0
24.481,-1.671,1.366,48.0
24.515,-1.665,1.228,34.0
24.485,-1.655,1.088,26.0
24.478,-1.647,0.95,35.0
24.431,-1.642,1.63,61.0
24.439,-1.634,1.493,68.0
24.449,-1.627,1.355,70.0
24.475,-1.62,1.216,59.0
24.478,-1.613,1.078,37.0
24.472,-1.604,0.94,68.0
24.43,-1.6,1.62,74.0
24.409,-1.59,1.481,44.0
24.452,-1.585,1.345,80.0
24.479,-1.578,1.205,88.0
24.462,-1.569,1.067,47.0
24.46,-1.561,0.928,76.0
24.399,-1.555,1.607,33.0
24.382,-1.546,1.468,27.0
24.437,-1.541,1.332,50.0
24.468,-1.535,1.193,77.0
24.453,-1.527,1.054,52.0
24.459,-1.519,0.916,75.0
24.404,-1.513,1.595,87.0
24.387,-1.504,1.455,37.0
24.432,-1.499,1.32,81.0
24.464,-1.492,1.18,62.0
24.5,-1.487,1.043,37.0
24.488,-1.478,0.904,46.0
24.392,-1.47,1.581,56.0
24.419,-1.463,1.444,42.0
24.443,-1.456,1.306,63.0
24.5,-1.452,1.168,58.0
24.509,-1.444,1.03,58.0
24.533,-1.438,0.892,51.0
24.404,-1.427,1.567,60.0
24.429,-1.421,1.429,68.0
24.495,-1.417,1.294,55.0
24.53,-1.411,1.155,36.0
24.559,-1.404,1.017,20.0
24.593,-1.399,0.879,12.0
24.431,-1.386,1.553,38.0
24.464,-1.38,1.416,29.0
28.418,-1.594,1.484,59.0
83.739,-4.672,3.888,43.0
83.621,-4.638,3.408,37.0
83.619,-4.611,2.935,60.0
24.482,-1.347,1.54,41.0
28.417,-1.554,1.626,60.0
28.415,-1.545,1.464,63.0
83.497,-4.513,3.82,34.0
83.672,-4.495,3.353,37.0
84.822,-4.531,2.918,45.0
28.428,-1.514,1.768,74.0
28.421,-1.504,1.606,68.0
28.411,-1.495,1.443,64.0
84.48,-4.418,3.803,41.0
83.633,-4.347,3.29,18.0
84.977,-4.391,2.86,35.0
28.423,-1.464,1.746,71.0
28.412,-1.454,1.584,69.0
28.403,-1.445,1.421,57.0
85.585,-4.327,3.787,44.0
86.232,-4.334,3.326,30.0
85.634,-4.277,2.816,38.0
28.415,-1.415,1.724,73.0
28.412,-1.406,1.561,75.0
28.396,-1.396,1.399,36.0
85.951,-4.198,3.735,10.0
86.073,-4.178,3.25,10.0
86.051,-4.15,2.759,29.0
28.411,-1.365,1.7,68.0
28.409,-1.356,1.537,72.0
28.411,-1.347,1.375,5.0
86.296,-4.066,3.676,12.0
86.102,-4.03,3.178,8.0
86.229,-4.01,2.691,20.0
161.235,-7.469,9.506,34.0
161.129,-7.415,8.58,33.0
164.224,-7.507,7.806,18.0
159.752,-7.252,6.665,15.0
165.961,-7.482,5.976,26.0
85.704,-3.837,2.598,7.0
161.31,-7.193,9.363,32.0
31.32,-1.386,1.638,10.0
28.416,-1.249,1.324,0.0
28.429,-1.241,1.159,29.0
28.446,-1.233,0.997,59.0
28.436,-1.224,0.835,64.0
28.446,-1.219,1.623,58.0
28.433,-1.21,1.46,52.0
28.416,-1.2,1.296,78.0
28.423,-1.192,1.131,105.0
28.423,-1.184,0.969,106.0
28.427,-1.175,0.807,106.0
28.419,-1.169,1.594,106.0
28.407,-1.16,1.43,64.0
28.439,-1.153,1.269,150.0
28.424,-1.144,1.103,103.0
28.436,-1.136,0.941,76.0
28.447,-1.128,0.779,66.0
28.434,-1.122,1.565,71.0
28.438,-1.113,1.402,58.0
28.433,-1.104,1.239,37.0
31.223,-1.204,1.179,46.0
31.253,-1.195,1.001,44.0
31.275,-1.187,0.823,65.0
31.209,-1.178,1.685,48.0
31.225,-1.17,1.506,45.0
31.263,-1.162,1.329,59.0
31.26,-1.153,1.147,59.0
31.262,-1.144,0.968,42.0
31.321,-1.137,0.79,54.0
31.23,-1.127,1.652,35.0
31.295,-1.12,1.475,57.0
31.283,-1.11,1.295,41.0
31.295,-1.102,1.113,37.0
31.34,-1.094,0.935,33.0
31.393,-1.088,0.757,1.0
28.374,-0.977,1.468,39.0
31.332,-1.069,1.441,32.0
38.663,-1.309,1.556,57.0
38.655,-1.297,1.33,37.0
38.657,-1.286,1.108,45.0
38.651,-1.275,0.887,57.0
38.505,-1.261,1.946,4.0
38.592,-1.253,1.729,68.0
38.658,-1.244,1.51,87.0
38.59,-1.231,1.282,66.0
38.601,-1.221,1.061,64.0
38.632,-1.211,0.84,74.0
38.474,-1.198,1.898,66.0
38.623,-1.192,1.684,83.0
38.639,-1.181,1.462,86.0
38.556,-1.168,1.233,63.0
38.621,-1.159,1.014,80.0
38.635,-1.149,0.792,107.0
38.544,-1.137,1.853,45.0
38.643,-1.129,1.636,85.0
38.616,-1.118,1.412,65.0
38.535,-1.105,1.184,73.0
38.633,-1.097,0.965,81.0
38.655,-1.087,0.743,76.0
38.637,-1.078,1.808,65.0
38.638,-1.067,1.585,66.0
38.611,-1.056,1.362,51.0
38.567,-1.044,1.135,59.0
38.643,-1.036,0.915,56.0
38.676,-1.026,0.693,48.0
45.843,-1.207,2.085,25.0
45.738,-1.191,1.816,17.0
38.706,-0.998,1.314,25.0
38.657,-0.986,1.086,46.0
38.729,-0.978,0.865,39.0
40.434,-1.01,0.671,27.0
45.782,-1.132,2.019,4.0
40.434,-0.989,1.551,24.0
40.41,-0.978,1.317,29.0
38.711,-0.926,1.034,41.0
40.407,-0.957,0.847,38.0
40.406,-0.946,0.615,36.0
40.409,-0.937,1.727,41.0
40.407,-0.926,1.493,39.0
40.405,-0.916,1.26,41.0
40.389,-0.905,1.023,26.0
38.397,-0.85,0.751,14.0
38.399,-0.841,0.53,34.0
40.432,-0.876,1.67,26.0
40.44,-0.865,1.437,13.0
45.716,-0.967,1.361,42.0
38.416,-0.802,0.918,4.0
45.685,-0.942,0.828,9.0
52.945,-1.079,0.654,52.0
45.715,-0.921,1.822,51.0
45.715,-0.909,1.558,46.0
64.325,-1.263,1.821,76.0
38.154,-0.74,0.856,1.0
0.0,0.0,0.0,0.0
203.447,-3.847,2.221,18.0
64.28,-1.2,2.467,10.0
64.297,-1.184,2.095,82.0
64.331,-1.168,1.725,33.0
191.817,-3.437,4.018,6.0
192.819,-3.409,2.926,10.0
20.144,-0.351,0.189,1.0
64.308,-1.106,2.37,18.0
64.306,-1.09,1.998,77.0
176.617,-2.951,4.468,34.0
59.55,-0.981,1.157,8.0
20.15,-0.327,0.275,5.0
20.122,-0.321,0.158,13.0
59.333,-0.935,2.095,11.0
59.439,-0.922,1.755,14.0
59.481,-0.908,1.412,6.0
20.139,-0.302,0.359,8.0
20.121,-0.297,0.243,13.0
20.123,-0.293,0.127,10.0
53.511,-0.767,1.805,115.0
59.407,-0.837,1.659,37.0
20.148,-0.279,0.446,9.0
20.125,-0.274,0.327,12.0
20.13,-0.269,0.211,10.0
20.152,-0.265,0.094,1.0
53.509,-0.692,1.719,67.0
59.393,-0.754,1.564,13.0
20.131,-0.251,0.413,12.0
20.137,-0.246,0.295,10.0
20.152,-0.242,0.178,2.0
56.141,-0.662,0.173,1.0
53.488,-0.618,1.631,34.0
20.144,-0.228,0.497,13.0
20.137,-0.223,0.38,13.0
64.333,-0.7,0.836,31.0
64.327,-0.686,0.465,65.0
56.198,-0.586,0.081,1.0
53.5,-0.546,1.541,29.0
20.148,-0.201,0.464,15.0
53.444,-0.522,0.921,8.0
53.359,-0.51,0.605,7.0
53.361,-0.498,0.296,11.0
53.329,-0.486,-0.013,9.0
20.158,-0.179,0.546,9.0
20.215,-0.175,0.431,26.0
20.264,-0.171,0.314,13.0
58.324,-0.481,0.562,17.0
58.313,-0.469,0.224,15.0
20.187,-0.158,-0.039,16.0
20.185,-0.153,0.512,9.0
20.202,-0.149,0.396,19.0
20.151,-0.144,0.278,15.0
20.141,-0.14,0.159,16.0
20.151,-0.136,0.042,27.0
20.154,-0.132,-0.073,24.0
20.123,-0.127,0.476,17.0
20.117,-0.123,0.359,20.0
20.126,-0.119,0.242,20.0
20.132,-0.115,0.124,22.0
20.132,-0.111,0.007,30.0
20.145,-0.107,-0.109,29.0
20.123,-0.102,0.44,29.0
20.12,-0.098,0.323,28.0
20.126,-0.094,0.207,25.0
20.125,-0.09,0.088,38.0
20.124,-0.086,-0.028,28.0
20.143,-0.082,-0.145,37.0
20.115,-0.078,0.404,33.0
20.116,-0.074,0.287,27.0
20.121,-0.07,0.171,28.0
20.127,-0.066,0.052,38.0
20.138,-0.062,-0.064,33.0
20.162,-0.058,-0.181,30.0
20.12,-0.055,0.368,32.0
20.117,-0.051,0.251,30.0
20.117,-0.047,0.134,31.0
20.128,-0.043,0.015,32.0
20.148,-0.039,-0.101,31.0
20.169,-0.035,-0.218,6.0
20.116,-0.031,0.331,33.0
20.112,-0.028,0.214,30.0
20.121,-0.024,0.097,32.0
20.123,-0.02,-0.021,15.0
20.171,-0.017,-0.138,16.0
20.217,-0.013,-0.256,7.0
20.122,-0.009,0.294,28.0
20.127,-0.006,0.177,28.0
20.193,-0.002,0.06,47.0
20.255,0.001,-0.058,151.0
20.265,0.004,-0.176,151.0
20.269,0.008,-0.294,150.0
20.132,0.011,0.256,28.0
20.137,0.015,0.14,27.0
20.258,0.018,0.022,151.0
20.264,0.022,-0.096,151.0
20.248,0.025,-0.214,151.0
20.27,0.029,-0.332,67.0
20.131,0.032,0.218,28.0
20.156,0.036,0.102,27.0
20.203,0.039,-0.015,13.0
20.235,0.043,-0.135,24.0
20.251,0.046,-0.252,0.0
20.268,0.05,-0.371,0.0
20.156,0.053,0.18,30.0
20.194,0.056,0.063,29.0
20.213,0.059,-0.053,31.0
20.208,0.063,-0.173,25.0
20.25,0.066,-0.291,0.0
38.851,0.134,-0.785,0.0
20.162,0.072,0.142,26.0
20.195,0.076,0.024,29.0
20.188,0.079,-0.092,26.0
20.166,0.082,-0.212,18.0
20.221,0.085,-0.33,2.0
0.0,0.0,0.0,0.0
20.191,0.091,0.103,33.0
20.181,0.094,-0.014,28.0
20.179,0.098,-0.131,33.0
20.198,0.101,-0.251,26.0
41.85,0.216,-0.764,3.0
0.0,0.0,0.0,0.0
20.193,0.11,0.063,37.0
20.187,0.113,-0.054,29.0
20.168,0.116,-0.171,26.0
20.184,0.119,-0.29,27.0
20.194,0.122,-0.408,10.0
32.896,0.203,-0.857,0.0
20.191,0.127,0.023,27.0
20.186,0.13,-0.093,30.0
20.177,0.133,-0.21,29.0
20.179,0.136,-0.33,29.0
20.183,0.139,-0.447,17.0
20.232,0.142,-0.566,1.0
20.225,0.144,-0.015,26.0
20.183,0.147,-0.132,28.0
20.177,0.149,-0.25,32.0
20.18,0.152,-0.369,27.0
20.207,0.155,-0.488,26.0
20.2,0.158,-0.605,9.0
20.226,0.16,-0.055,23.0
20.166,0.163,-0.172,17.0
20.169,0.165,-0.29,32.0
20.175,0.168,-0.409,31.0
20.189,0.171,-0.527,26.0
20.209,0.174,-0.646,18.0
20.21,0.175,-0.095,19.0
20.169,0.178,-0.212,20.0
20.174,0.18,-0.33,29.0
20.172,0.183,-0.449,25.0
20.197,0.186,-0.568,28.0
0.0,0.0,0.0,0.0
20.207,0.19,-0.135,10.0
20.181,0.192,-0.253,27.0
20.183,0.195,-0.371,30.0
20.177,0.197,-0.49,31.0
20.196,0.2,-0.609,32.0
0.0,0.0,0.0,0.0
20.184,0.204,-0.176,13.0
20.178,0.206,-0.294,28.0
20.178,0.208,-0.412,28.0
20.179,0.211,-0.531,29.0
20.202,0.213,-0.65,32.0
0.0,0.0,0.0,0.0
20.192,0.217,-0.217,19.0
20.183,0.219,-0.335,27.0
20.176,0.221,-0.452,19.0
20.199,0.224,-0.573,30.0
20.218,0.226,-0.691,31.0
0.0,0.0,0.0,0.0
20.21,0.23,-0.258,23.0
20.182,0.231,-0.376,26.0
20.189,0.234,-0.493,22.0
20.194,0.236,-0.613,28.0
20.222,0.238,-0.732,28.0
0.0,0.0,0.0,0.0
20.192,0.241,-0.299,19.0
20.239,0.243,-0.418,23.0
20.2,0.245,-0.535,27.0
20.205,0.247,-0.655,21.0
20.227,0.25,-0.774,27.0
20.254,0.252,-0.893,14.0
20.194,0.252,-0.34,17.0
20.184,0.253,-0.457,17.0
20.206,0.256,-0.576,25.0
20.216,0.258,-0.696,22.0
20.193,0.259,-0.813,18.0
20.244,0.262,-0.934,2.0
20.201,0.262,-0.381,10.0
20.208,0.264,-0.499,19.0
20.221,0.266,-0.617,20.0
20.198,0.267,-0.737,20.0
20.163,0.269,-0.853,11.0
18.538,0.249,-0.893,2.0
20.238,0.272,-0.423,2.0
20.197,0.273,-0.54,10.0
20.21,0.275,-0.658,11.0
20.208,0.276,-0.778,16.0
20.262,0.279,-0.899,12.0
18.472,0.256,-0.927,2.0
20.216,0.28,-0.464,0.0
20.218,0.281,-0.582,6.0
20.227,0.283,-0.7,3.0
20.186,0.284,-0.819,9.0
20.196,0.286,-0.937,1.0
17.788,0.253,-0.929,0.0
20.194,0.287,-0.504,0.0
20.232,0.289,-0.623,1.0
20.218,0.29,-0.74,1.0
20.132,0.291,-0.857,8.0
18.685,0.271,-0.905,0.0
17.067,0.249,-0.926,0.0
31.568,0.46,-0.852,1.0
26.61,0.389,-0.873,0.0
20.226,0.297,-0.782,0.0
20.266,0.299,-0.904,11.0
18.379,0.273,-0.927,0.0
16.569,0.247,-0.933,0.0
29.826,0.443,-0.865,0.0
25.278,0.377,-0.881,0.0
20.172,0.302,-0.821,4.0
20.11,0.303,-0.938,0.0
17.749,0.268,-0.931,0.0
16.12,0.245,-0.94,0.0
28.204,0.427,-0.875,0.0
24.15,0.367,-0.89,0.0
20.14,0.307,-0.86,9.0
18.853,0.288,-0.917,0.0
16.977,0.261,-0.925,0.0
15.538,0.24,-0.938,0.0
26.447,0.406,-0.875,0.0
22.975,0.354,-0.894,0.0
20.28,0.313,-0.907,10.0
18.222,0.283,-0.923,0.0
16.534,0.257,-0.935,0.0
15.066,0.235,-0.94,0.0
25.068,0.39,-0.879,0.0
20.145,0.314,-0.824,3.0
19.994,0.313,-0.935,0.0
17.735,0.278,-0.934,0.0
16.028,0.252,-0.938,0.0
14.648,0.231,-0.943,0.0
24.035,0.377,-0.891,0.0
20.17,0.317,-0.866,10.0
18.74,0.296,-0.914,0.0
16.84,0.266,-0.921,0.0
15.501,0.246,-0.938,0.0
14.308,0.227,-0.95,0.0
22.805,0.36,-0.891,0.0
20.294,0.321,-0.912,8.0
18.167,0.288,-0.922,0.0
16.435,0.261,-0.932,0.0
15.008,0.239,-0.939,0.0
13.854,0.221,-0.948,0.0
20.138,0.32,-0.827,6.0
19.944,0.317,-0.936,0.0
17.581,0.28,-0.928,0.0
15.968,0.255,-0.937,0.0
14.608,0.234,-0.943,0.0
13.405,0.215,-0.944,0.0
20.218,0.322,-0.871,11.0
18.685,0.298,-0.914,0.0
16.835,0.269,-0.922,0.0
15.409,0.246,-0.935,0.0
14.312,0.229,-0.952,0.0
13.085,0.21,-0.947,0.0
20.288,0.323,-0.914,6.0
18.098,0.288,-0.921,0.0
16.43,0.262,-0.932,0.0
14.931,0.238,-0.935,0.0
13.719,0.219,-0.94,0.0
12.734,0.204,-0.947,0.0
19.986,0.317,-0.939,0.0
17.484,0.278,-0.923,0.0
15.953,0.253,-0.935,0.0
14.599,0.232,-0.943,0.0
13.392,0.213,-0.943,0.0
12.436,0.198,-0.949,0.0
18.724,0.295,-0.916,0.0
16.824,0.266,-0.921,0.0
15.439,0.244,-0.935,0.0
14.318,0.226,-0.953,0.0
13.12,0.207,-0.95,0.0
12.062,0.191,-0.944,0.0
18.131,0.284,-0.922,0.0
16.429,0.257,-0.931,0.0
14.958,0.234,-0.935,0.0
13.704,0.215,-0.938,0.0
12.743,0.2,-0.947,0.0
11.837,0.186,-0.949,0.0
17.52,0.272,-0.924,0.0
15.969,0.248,-0.935,0.0
14.611,0.226,-0.941,0.0
13.413,0.208,-0.944,0.0
12.456,0.193,-0.949,0.0
11.481,0.178,-0.942,0.0
16.891,0.259,-0.923,0.0
15.437,0.236,-0.933,0.0
14.281,0.219,-0.947,0.0
13.092,0.2,-0.946,0.0
12.148,0.186,-0.949,0.0
11.265,0.172,-0.946,0.0
16.426,0.248,-0.928,0.0
15.024,0.227,-0.937,0.0
13.834,0.208,-0.943,0.0
12.751,0.192,-0.945,0.0
11.794,0.177,-0.943,0.0
11.072,0.166,-0.95,0.0
16.019,0.237,-0.935,0.0
14.634,0.217,-0.939,0.0
13.449,0.199,-0.942,0.0
12.425,0.183,-0.944,0.0
11.537,0.17,-0.944,0.0
10.738,0.158,-0.942,0.0
15.459,0.225,-0.931,0.0
14.331,0.208,-0.946,0.0
13.153,0.19,-0.945,0.0
12.155,0.176,-0.946,0.0
11.263,0.162,-0.942,0.0
10.586,0.152,-0.948,0.0
15.073,0.214,-0.935,0.0
13.809,0.196,-0.937,0.0
12.82,0.181,-0.945,0.0
11.808,0.166,-0.94,0.0
11.059,0.156,-0.945,0.0
10.354,0.145,-0.946,0.0
14.698,0.203,-0.938,0.0
13.452,0.185,-0.937,0.0
12.529,0.172,-0.946,0.0
11.56,0.159,-0.941,0.0
10.811,0.148,-0.944,0.0
10.191,0.139,-0.949,0.0
14.376,0.193,-0.943,0.0
13.235,0.177,-0.945,0.0
12.208,0.163,-0.943,0.0
11.403,0.152,-0.949,0.0
10.603,0.141,-0.944,0.0
9.963,0.132,-0.945,0.0
20.219,0.263,-1.361,0.0
12.92,0.167,-0.945,0.0
11.944,0.154,-0.943,0.0
11.183,0.144,-0.95,0.0
10.409,0.133,-0.945,0.0
9.786,0.125,-0.946,0.0
20.144,0.252,-1.391,0.0
12.649,0.158,-0.947,0.0
11.643,0.144,-0.94,0.0
0.0,0.0,0.0,0.0
10.229,0.126,-0.946,0.0
9.621,0.118,-0.946,0.0
13.285,0.159,-0.94,0.0
12.324,0.147,-0.944,0.0
11.422,0.136,-0.941,0.0
10.653,0.126,-0.941,0.0
10.036,0.118,-0.945,0.0
9.445,0.111,-0.945,0.0
13.021,0.149,-0.943,0.0
12.009,0.137,-0.94,0.0
11.229,0.127,-0.944,0.0
10.488,0.118,-0.944,0.0
9.852,0.111,-0.944,0.0
9.304,0.104,-0.946,0.0
12.743,0.139,-0.944,0.0
11.763,0.127,-0.94,0.0
11.039,0.119,-0.946,0.0
10.282,0.11,-0.942,0.0
9.693,0.103,-0.945,0.0
9.111,0.096,-0.942,0.0
12.469,0.128,-0.944,0.0
11.541,0.118,-0.941,0.0
10.893,0.11,-0.951,0.0
10.081,0.101,-0.94,0.0
9.511,0.095,-0.943,0.0
8.983,0.089,-0.943,0.0
12.208,0.118,-0.944,0.0
11.299,0.108,-0.939,0.0
10.599,0.101,-0.943,0.0
9.944,0.094,-0.943,0.0
9.375,0.087,-0.944,0.0
8.812,0.082,-0.939,0.0
11.951,0.107,-0.942,0.0
11.193,0.1,-0.947,0.0
10.45,0.092,-0.945,0.0
9.785,0.086,-0.943,0.0
9.222,0.08,-0.943,0.0
8.713,0.075,-0.942,0.0
11.57,0.096,-0.929,0.0
20.26,0.167,-1.746,0.0
10.262,0.083,-0.944,0.0
9.632,0.077,-0.943,0.0
9.083,0.072,-0.942,0.0
8.603,0.068,-0.943,0.0
11.455,0.087,-0.937,1.0
10.738,0.08,-0.941,0.0
10.087,0.075,-0.943,0.0
9.454,0.069,-0.94,0.0
8.951,0.065,-0.942,0.0
8.476,0.06,-0.942,0.0
11.403,0.078,-0.95,0.0
10.563,0.071,-0.941,0.0
9.935,0.066,-0.943,0.0
9.37,0.061,-0.945,0.0
8.789,0.057,-0.938,0.0
8.364,0.053,-0.941,0.0
11.126,0.067,-0.943,0.0
10.39,0.062,-0.941,0.0
9.755,0.057,-0.94,0.0
9.22,0.053,-0.943,0.0
8.69,0.049,-0.939,0.0
8.245,0.046,-0.94,0.0
20.174,0.106,-1.738,0.0
10.292,0.053,-0.946,0.0
9.666,0.049,-0.945,0.0
9.062,0.045,-0.939,0.0
8.606,0.042,-0.942,0.0
8.187,0.039,-0.944,0.0
10.743,0.048,-0.94,0.0
10.141,0.044,-0.946,0.0
9.515,0.04,-0.943,0.0
8.973,0.037,-0.942,0.0
8.506,0.034,-0.943,0.0
8.057,0.031,-0.94,0.0
10.629,0.038,-0.944,0.0
9.954,0.035,-0.941,0.0
9.362,0.031,-0.94,0.0
8.809,0.029,-0.936,0.0
8.349,0.026,-0.936,0.0
7.952,0.024,-0.938,0.0
10.441,0.029,-0.94,0.0
9.848,0.026,-0.944,0.0
9.285,0.023,-0.944,0.0
8.732,0.021,-0.939,0.0
8.293,0.019,-0.94,0.0
7.907,0.017,-0.943,0.0
10.355,0.019,-0.945,0.0
9.716,0.017,-0.943,0.0
9.158,0.014,-0.942,0.0
8.632,0.012,-0.939,0.0
8.207,0.011,-0.941,0.0
7.801,0.009,-0.94,0.0
10.221,0.009,-0.945,0.0
9.544,0.007,-0.938,0.0
9.008,0.006,-0.937,0.0
