X,Y,Z,Reflectivity
65.756,-5.101,0.571,6.0
65.563,-5.064,0.217,124.0
61.733,-4.748,-0.127,3.0
53.661,-4.11,-0.404,4.0
42.154,-3.216,-0.545,3.0
34.139,-2.593,-0.625,2.0
65.668,-4.983,0.621,8.0
65.54,-4.952,0.268,89.0
65.831,-4.952,-0.084,3.0
53.769,-4.027,-0.364,12.0
45.504,-3.393,-0.553,18.0
34.792,-2.583,-0.61,2.0
65.675,-4.872,0.671,4.0
65.688,-4.85,0.317,1.0
65.921,-4.846,-0.036,3.0
55.581,-4.067,-0.336,9.0
46.445,-3.384,-0.531,18.0
36.175,-2.624,-0.609,2.0
65.647,-4.757,0.717,0.0
65.458,-4.72,0.362,1.0
65.47,-4.699,0.01,2.0
57.442,-4.103,-0.306,5.0
46.824,-3.33,-0.503,19.0
36.54,-2.586,-0.589,1.0
65.491,-4.63,0.761,0.0
65.533,-4.61,0.408,9.0
65.424,-4.58,0.054,1.0
59.508,-4.146,-0.277,5.0
0.0,0.0,0.0,0.0
38.202,-2.636,-0.591,2.0
0.0,0.0,0.0,0.0
65.583,-4.496,0.451,166.0
65.467,-4.466,0.096,2.0
79.402,-5.39,-0.319,3.0
49.593,-3.35,-0.468,6.0
24.556,-1.65,-0.364,12.0
24.629,-1.653,0.318,2.0
65.56,-4.376,0.492,150.0
24.59,-1.632,0.051,16.0
24.528,-1.62,-0.083,27.0
24.514,-1.611,-0.216,28.0
24.521,-1.603,-0.349,42.0
24.556,-1.602,0.331,41.0
24.538,-1.592,0.198,43.0
24.544,-1.584,0.065,44.0
24.525,-1.574,-0.069,50.0
24.507,-1.564,-0.202,41.0
24.509,-1.556,-0.334,62.0
24.537,-1.555,0.345,69.0
24.511,-1.545,0.212,44.0
24.521,-1.537,0.079,65.0
24.533,-1.529,-0.055,86.0
24.494,-1.518,-0.188,47.0
24.513,-1.51,-0.321,55.0
24.552,-1.51,0.358,78.0
24.511,-1.498,0.225,58.0
24.501,-1.489,0.092,73.0
24.532,-1.482,-0.043,82.0
24.507,-1.472,-0.176,66.0
24.512,-1.464,-0.309,79.0
24.545,-1.462,0.37,66.0
24.535,-1.453,0.237,44.0
24.524,-1.443,0.104,48.0
24.547,-1.436,-0.031,59.0
24.53,-1.427,-0.164,64.0
24.515,-1.417,-0.298,65.0
24.572,-1.417,0.382,43.0
24.573,-1.408,0.249,44.0
24.587,-1.4,0.115,39.0
24.582,-1.391,-0.02,31.0
24.561,-1.38,-0.154,34.0
24.553,-1.372,-0.287,39.0
24.651,-1.373,0.394,0.0
24.618,-1.363,0.26,1.0
65.621,-3.609,0.335,0.0
0.0,0.0,0.0,0.0
65.653,-3.563,-0.385,6.0
24.575,-1.325,-0.278,0.0
85.957,-4.622,1.409,4.0
0.0,0.0,0.0,0.0
0.0,0.0,0.0,0.0
66.095,-3.482,-0.003,2.0
65.572,-3.43,-0.361,7.0
47.471,-2.466,-0.519,2.0
86.106,-4.459,1.442,18.0
0.0,0.0,0.0,0.0
0.0,0.0,0.0,0.0
0.0,0.0,0.0,0.0
65.617,-3.302,-0.339,4.0
31.272,-1.562,-0.332,0.0
86.147,-4.289,1.471,5.0
82.893,-4.096,0.962,6.0
68.2,-3.345,0.419,2.0
68.667,-3.343,0.04,0.0
31.295,-1.512,-0.152,22.0
31.217,-1.497,-0.322,43.0
148.71,-7.105,2.582,4.0
83.046,-3.937,0.988,45.0
79.973,-3.762,0.513,14.0
31.255,-1.458,0.027,34.0
31.212,-1.445,-0.143,45.0
31.181,-1.432,-0.314,48.0
31.315,-1.432,0.551,21.0
31.263,-1.418,0.379,27.0
31.228,-1.405,0.208,44.0
31.206,-1.392,0.034,44.0
28.48,-1.26,-0.124,54.0
28.465,-1.249,-0.28,59.0
28.459,-1.243,0.507,63.0
28.454,-1.232,0.351,64.0
28.444,-1.222,0.195,67.0
28.436,-1.211,0.036,102.0
28.462,-1.201,-0.119,132.0
28.444,-1.19,-0.275,104.0
28.449,-1.185,0.512,116.0
28.444,-1.174,0.356,142.0
28.439,-1.163,0.2,151.0
28.451,-1.153,0.041,150.0
28.459,-1.143,-0.114,71.0
28.462,-1.132,-0.27,66.0
28.455,-1.126,0.516,71.0
28.47,-1.116,0.36,62.0
31.254,-1.214,0.224,20.0
31.254,-1.202,0.049,45.0
31.319,-1.193,-0.122,77.0
31.342,-1.182,-0.294,38.0
31.285,-1.173,0.571,48.0
31.314,-1.162,0.399,49.0
31.356,-1.152,0.227,8.0
80.377,-2.924,0.133,28.0
80.444,-2.898,-0.308,9.0
53.898,-1.921,-0.503,3.0
31.38,-1.111,0.574,1.0
84.302,-2.955,1.08,35.0
80.439,-2.789,0.588,26.0
80.551,-2.763,0.137,22.0
38.781,-1.315,-0.147,1.0
38.704,-1.298,-0.359,36.0
38.688,-1.289,0.709,36.0
38.706,-1.276,0.496,26.0
38.679,-1.26,0.283,55.0
38.681,-1.246,0.066,59.0
38.671,-1.232,-0.146,55.0
38.639,-1.216,-0.359,55.0
38.642,-1.208,0.708,78.0
38.623,-1.192,0.495,68.0
38.633,-1.178,0.282,69.0
38.628,-1.163,0.065,73.0
38.653,-1.15,-0.147,85.0
38.647,-1.136,-0.36,60.0
38.65,-1.127,0.707,88.0
38.633,-1.112,0.493,71.0
38.637,-1.097,0.28,73.0
38.627,-1.082,0.062,70.0
38.648,-1.068,-0.15,65.0
38.675,-1.055,-0.363,53.0
38.659,-1.045,0.703,67.0
38.669,-1.03,0.49,52.0
38.68,-1.016,0.276,49.0
38.704,-1.003,0.059,28.0
38.752,-0.99,-0.154,31.0
38.805,-0.977,-0.369,29.0
40.448,-1.008,0.731,27.0
40.417,-0.992,0.507,28.0
40.397,-0.976,0.283,37.0
40.406,-0.962,0.056,39.0
40.408,-0.947,-0.167,37.0
40.411,-0.933,-0.39,49.0
40.421,-0.922,0.724,52.0
40.419,-0.906,0.5,25.0
38.381,-0.847,0.263,10.0
38.374,-0.833,0.046,41.0
38.363,-0.818,-0.165,48.0
38.369,-0.804,-0.378,21.0
45.667,-0.944,0.809,13.0
52.942,-1.076,0.645,54.0
52.928,-1.056,0.351,64.0
52.956,-1.037,0.052,53.0
52.94,-1.017,-0.24,56.0
45.517,-0.858,-0.459,17.0
0.0,0.0,0.0,0.0
203.387,-3.701,2.429,6.0
20.145,-0.359,0.128,2.0
20.128,-0.351,0.014,44.0
20.122,-0.344,-0.096,0.0
52.704,-0.883,-0.545,14.0
59.584,-0.981,1.026,7.0
20.136,-0.324,0.234,8.0
20.113,-0.316,0.122,15.0
20.121,-0.308,0.009,15.0
56.963,-0.853,-0.29,4.0
52.857,-0.773,-0.563,11.0
20.139,-0.288,0.34,12.0
20.132,-0.28,0.228,13.0
20.152,-0.273,0.116,9.0
59.531,-0.787,0.007,62.0
56.413,-0.726,-0.306,2.0
46.257,-0.578,-0.508,3.0
20.145,-0.246,0.333,11.0
20.162,-0.239,0.221,10.0
56.137,-0.644,0.304,6.0
56.175,-0.625,-0.013,0.0
56.309,-0.606,-0.327,1.0
46.01,-0.479,-0.523,4.0
53.408,-0.539,0.863,5.0
53.37,-0.519,0.565,14.0
53.364,-0.5,0.268,13.0
53.335,-0.482,-0.034,9.0
20.184,-0.175,-0.125,7.0
20.16,-0.168,-0.237,21.0
20.239,-0.162,0.318,25.0
20.191,-0.154,0.205,17.0
20.152,-0.146,0.092,16.0
20.174,-0.139,-0.021,24.0
20.16,-0.132,-0.134,25.0
20.137,-0.125,-0.246,32.0
20.127,-0.118,0.307,26.0
20.14,-0.111,0.195,23.0
20.136,-0.104,0.083,38.0
20.138,-0.097,-0.031,28.0
20.148,-0.09,-0.143,36.0
20.137,-0.083,-0.256,34.0
20.12,-0.076,0.297,30.0
20.116,-0.069,0.185,29.0
20.133,-0.062,0.072,40.0
20.123,-0.055,-0.041,34.0
20.156,-0.048,-0.154,33.0
20.17,-0.041,-0.267,24.0
20.118,-0.034,0.286,27.0
20.113,-0.027,0.174,30.0
20.137,-0.02,0.061,29.0
20.2,-0.014,-0.052,19.0
20.25,-0.007,-0.166,28.0
20.275,0.0,-0.279,85.0
20.129,0.006,0.275,29.0
20.127,0.013,0.162,27.0
20.201,0.02,0.05,19.0
20.273,0.027,-0.064,79.0
20.251,0.034,-0.178,21.0
20.229,0.041,-0.291,0.0
20.136,0.048,0.263,28.0
20.147,0.055,0.15,28.0
20.208,0.062,0.037,32.0
20.2,0.069,-0.077,29.0
20.19,0.076,-0.19,25.0
20.203,0.083,-0.303,11.0
20.16,0.09,0.25,29.0
20.159,0.097,0.137,25.0
20.197,0.104,0.024,32.0
20.185,0.11,-0.09,33.0
20.178,0.117,-0.203,25.0
20.191,0.124,-0.317,32.0
20.184,0.131,0.237,24.0
20.196,0.138,0.124,26.0
20.23,0.145,0.01,27.0
20.185,0.152,-0.104,24.0
20.177,0.158,-0.218,28.0
20.17,0.165,-0.331,36.0
20.295,0.173,0.224,29.0
20.324,0.18,0.11,29.0
20.341,0.187,-0.003,28.0
20.212,0.193,-0.119,3.0
20.166,0.199,-0.232,19.0
20.173,0.205,-0.346,30.0
20.29,0.214,0.209,26.0
20.316,0.221,0.094,10.0
99.671,1.118,-0.094,2.0
0.0,0.0,0.0,0.0
20.206,0.24,-0.248,6.0
20.193,0.246,-0.362,20.0
20.337,0.255,0.193,0.0
99.594,1.284,0.387,6.0
0.0,0.0,0.0,0.0
0.0,0.0,0.0,0.0
0.0,0.0,0.0,0.0
42.534,0.602,-0.796,0.0
0.0,0.0,0.0,0.0
99.692,1.481,0.306,5.0
101.534,1.54,-0.259,2.0
0.0,0.0,0.0,0.0
0.0,0.0,0.0,0.0
0.0,0.0,0.0,0.0
99.886,1.647,0.785,1.0
99.873,1.679,0.222,7.0
0.0,0.0,0.0,0.0
0.0,0.0,0.0,0.0
0.0,0.0,0.0,0.0
38.238,0.69,-0.781,0.0
99.958,1.843,0.697,2.0
99.991,1.875,0.133,1.0
0.0,0.0,0.0,0.0
0.0,0.0,0.0,0.0
0.0,0.0,0.0,0.0
37.444,0.749,-0.799,0.0
99.991,2.037,0.606,4.0
100.065,2.07,0.041,8.0
0.0,0.0,0.0,0.0
0.0,0.0,0.0,0.0
0.0,0.0,0.0,0.0
36.889,0.808,-0.822,0.0
99.987,2.227,0.511,2.0
100.171,2.261,-0.053,12.0
0.0,0.0,0.0,0.0
0.0,0.0,0.0,0.0
0.0,0.0,0.0,0.0
35.641,0.847,-0.828,0.0
100.252,2.421,0.415,1.0
0.0,0.0,0.0,0.0
0.0,0.0,0.0,0.0
0.0,0.0,0.0,0.0
0.0,0.0,0.0,0.0
34.231,0.877,-0.83,0.0
0.0,0.0,0.0,0.0
0.0,0.0,0.0,0.0
0.0,0.0,0.0,0.0
0.0,0.0,0.0,0.0
0.0,0.0,0.0,0.0
33.035,0.907,-0.835,0.0
0.0,0.0,0.0,0.0
0.0,0.0,0.0,0.0
0.0,0.0,0.0,0.0
0.0,0.0,0.0,0.0
0.0,0.0,0.0,0.0
32.186,0.943,-0.847,3.0
0.0,0.0,0.0,0.0
0.0,0.0,0.0,0.0
0.0,0.0,0.0,0.0
0.0,0.0,0.0,0.0
37.283,1.148,-0.81,0.0
31.602,0.982,-0.866,0.0
0.0,0.0,0.0,0.0
0.0,0.0,0.0,0.0
0.0,0.0,0.0,0.0
0.0,0.0,0.0,0.0
35.435,1.154,-0.81,0.0
30.181,0.991,-0.861,1.0
0.0,0.0,0.0,0.0
69.014,2.311,-0.474,1.0
0.0,0.0,0.0,0.0
41.092,1.399,-0.753,0.0
35.86,1.231,-0.861,0.0
29.738,1.029,-0.883,1.0
0.0,0.0,0.0,0.0
68.934,2.429,-0.553,2.0
0.0,0.0,0.0,0.0
39.785,1.423,-0.776,0.0
32.757,1.181,-0.825,0.0
28.502,1.035,-0.88,0.0
0.0,0.0,0.0,0.0
0.0,0.0,0.0,0.0
0.0,0.0,0.0,0.0
0.0,0.0,0.0,0.0
32.285,1.218,-0.851,0.0
27.45,1.043,-0.88,0.0
0.0,0.0,0.0,0.0
0.0,0.0,0.0,0.0
0.0,0.0,0.0,0.0
37.065,1.45,-0.812,0.0
30.268,1.192,-0.835,0.0
26.297,1.043,-0.876,0.0
0.0,0.0,0.0,0.0
0.0,0.0,0.0,0.0
0.0,0.0,0.0,0.0
0.0,0.0,0.0,0.0
30.115,1.235,-0.868,1.0
20.241,0.835,-0.699,0.0
68.991,2.872,-0.498,2.0
0.0,0.0,0.0,0.0
0.0,0.0,0.0,0.0
34.082,1.444,-0.832,0.0
29.02,1.237,-0.874,0.0
20.206,0.866,-0.724,156.0
68.995,2.982,-0.586,1.0
0.0,0.0,0.0,0.0
38.385,1.678,-0.764,0.0
32.33,1.421,-0.831,0.0
20.256,0.895,-0.636,61.0
20.196,0.897,-0.749,186.0
0.0,0.0,0.0,0.0
0.0,0.0,0.0,0.0
36.829,1.665,-0.78,0.0
31.366,1.426,-0.847,0.0
20.237,0.925,-0.662,6.0
20.205,0.929,-0.776,155.0
0.0,0.0,0.0,0.0
42.496,1.977,-0.715,4.0
0.0,0.0,0.0,0.0
0.0,0.0,0.0,0.0
26.035,1.229,-0.886,0.0
20.228,0.96,-0.804,1.0
0.0,0.0,0.0,0.0
0.0,0.0,0.0,0.0
33.952,1.638,-0.811,0.0
28.775,1.395,-0.854,0.0
24.907,1.213,-0.882,0.0
21.864,1.07,-0.899,0.0
0.0,0.0,0.0,0.0
0.0,0.0,0.0,0.0
32.547,1.617,-0.822,0.0
28.03,1.399,-0.871,0.0
24.102,1.208,-0.887,0.0
21.842,1.1,-0.929,0.0
0.0,0.0,0.0,0.0
0.0,0.0,0.0,0.0
31.598,1.615,-0.842,0.0
26.99,1.385,-0.877,0.0
23.813,1.227,-0.91,0.0
0.0,0.0,0.0,0.0
0.0,0.0,0.0,0.0
35.359,1.848,-0.79,0.0
30.259,1.588,-0.849,0.0
25.812,1.36,-0.874,0.0
21.888,1.158,-0.867,0.0
0.0,0.0,0.0,0.0
0.0,0.0,0.0,0.0
33.832,1.814,-0.804,0.0
29.09,1.565,-0.858,0.0
24.854,1.343,-0.878,0.0
21.804,1.183,-0.895,1.0
19.189,1.045,-0.898,0.0
38.231,2.092,-0.745,0.0
32.461,1.783,-0.818,0.0
28.204,1.555,-0.872,0.0
23.985,1.327,-0.882,0.0
21.746,1.208,-0.924,1.0
0.0,0.0,0.0,0.0
37.006,2.072,-0.775,0.0
31.37,1.763,-0.836,0.0
0.0,0.0,0.0,0.0
21.942,1.242,-0.839,1.0
20.634,1.172,-0.907,0.0
0.0,0.0,0.0,0.0
35.452,2.029,-0.794,0.0
30.044,1.725,-0.845,0.0
25.554,1.472,-0.865,0.0
21.853,1.264,-0.868,7.0
19.858,1.152,-0.903,0.0
0.0,0.0,0.0,0.0
33.515,1.959,-0.8,1.0
28.732,1.685,-0.851,0.0
25.105,1.477,-0.888,1.0
21.794,1.286,-0.898,9.0
19.495,1.154,-0.915,0.0
0.0,0.0,0.0,0.0
32.142,1.916,-0.816,1.0
27.796,1.662,-0.865,0.0
23.892,1.433,-0.881,0.0
21.711,1.306,-0.927,1.0
19.086,1.152,-0.925,0.0
17.219,1.042,-0.933,0.0
31.058,1.886,-0.835,1.0
26.683,1.625,-0.871,0.0
21.915,1.339,-0.841,2.0
20.536,1.258,-0.908,0.0
0.0,0.0,0.0,0.0
0.0,0.0,0.0,0.0
29.64,1.832,-0.842,0.0
25.607,1.587,-0.874,0.0
21.856,1.358,-0.872,7.0
19.637,1.224,-0.898,0.0
0.0,0.0,0.0,0.0
16.128,1.011,-0.923,0.0
28.334,1.781,-0.848,0.0
24.56,1.548,-0.876,0.0
21.81,1.378,-0.904,8.0
19.359,1.227,-0.915,0.0
0.0,0.0,0.0,0.0
15.798,1.007,-0.929,0.0
27.309,1.744,-0.86,0.0
23.555,1.508,-0.877,0.0
21.712,1.394,-0.933,0.0
0.0,0.0,0.0,0.0
16.808,1.084,-0.917,0.0
0.0,0.0,0.0,0.0
26.287,1.704,-0.868,0.0
21.892,1.423,-0.848,4.0
20.094,1.309,-0.894,0.0
18.051,1.179,-0.909,0.0
16.616,1.088,-0.933,0.0
15.01,0.985,-0.929,0.0
25.095,1.65,-0.867,0.0
21.819,1.438,-0.879,8.0
19.594,1.294,-0.902,0.0
0.0,0.0,0.0,0.0
16.055,1.065,-0.926,0.0
14.804,0.985,-0.94,0.0
24.089,1.605,-0.87,0.0
21.782,1.455,-0.912,3.0
19.275,1.29,-0.918,0.0
17.217,1.155,-0.921,0.0
0.0,0.0,0.0,0.0
14.46,0.974,-0.94,0.0
23.526,1.588,-0.886,0.0
0.0,0.0,0.0,0.0
0.0,0.0,0.0,0.0
16.816,1.142,-0.926,0.0
15.249,1.038,-0.928,0.0
14.062,0.959,-0.937,0.0
21.861,1.493,-0.858,0.0
19.717,1.349,-0.887,0.0
18.034,1.236,-0.915,0.0
16.294,1.119,-0.923,0.0
14.991,1.032,-0.935,0.0
13.805,0.952,-0.941,0.0
21.779,1.504,-0.889,1.0
19.501,1.349,-0.909,0.0
17.394,1.205,-0.91,0.0
15.964,1.108,-0.929,0.0
14.74,1.025,-0.943,0.0
13.447,0.937,-0.938,0.0
21.484,1.499,-0.911,0.0
0.0,0.0,0.0,0.0
17.062,1.194,-0.92,0.0
15.442,1.083,-0.923,0.0
14.284,1.004,-0.937,0.0
13.196,0.929,-0.942,0.0
0.0,0.0,0.0,0.0
0.0,0.0,0.0,0.0
16.548,1.17,-0.918,0.0
15.093,1.068,-0.927,0.0
0.0,0.0,0.0,0.0
12.954,0.92,-0.945,0.0
19.573,1.391,-0.892,0.0
17.628,1.255,-0.905,0.0
16.2,1.155,-0.925,0.0
14.817,1.058,-0.933,0.0
13.621,0.974,-0.936,0.0
12.65,0.906,-0.943,0.0
19.327,1.385,-0.911,0.0
17.235,1.237,-0.912,0.0
15.741,1.131,-0.923,0.0
14.588,1.05,-0.942,0.0
13.441,0.969,-0.945,0.0
12.407,0.896,-0.945,0.0
0.0,0.0,0.0,0.0
16.857,1.219,-0.918,0.0
15.402,1.115,-0.928,0.0
0.0,0.0,0.0,0.0
13.089,0.95,-0.941,0.0
12.137,0.883,-0.943,0.0
18.001,1.309,-0.905,0.0
16.395,1.194,-0.919,0.0
14.998,1.093,-0.927,0.0
13.874,1.013,-0.939,0.0
12.835,0.938,-0.943,0.0
11.887,0.87,-0.942,0.0
17.527,1.282,-0.908,0.0
16.055,1.176,-0.925,0.0
14.728,1.08,-0.933,0.0
13.621,1.0,-0.943,0.0
12.574,0.925,-0.944,0.0
11.647,0.858,-0.942,0.0
17.106,1.259,-0.913,0.0
15.627,1.151,-0.924,0.0
14.561,1.074,-0.945,0.0
13.288,0.981,-0.941,0.0
12.32,0.911,-0.944,0.0
11.479,0.85,-0.946,0.0
16.676,1.233,-0.916,0.0
15.273,1.131,-0.927,0.0
14.125,1.047,-0.939,0.0
12.93,0.959,-0.936,0.0
12.068,0.896,-0.943,0.0
11.289,0.84,-0.948,0.0
16.294,1.21,-0.92,0.0
14.913,1.109,-0.928,0.0
0.0,0.0,0.0,0.0
12.696,0.946,-0.938,0.0
11.807,0.881,-0.941,0.0
11.054,0.825,-0.945,0.0
15.954,1.19,-0.925,0.0
14.663,1.094,-0.935,0.0
13.406,1.002,-0.932,0.0
12.467,0.932,-0.941,0.0
11.598,0.868,-0.942,0.0
10.854,0.813,-0.945,0.0
15.519,1.161,-0.924,0.0
14.383,1.077,-0.939,0.0
13.175,0.987,-0.936,0.0
12.219,0.916,-0.94,0.0
11.414,0.857,-0.944,0.0
10.574,0.795,-0.936,0.0
15.12,1.134,-0.923,0.0
0.0,0.0,0.0,0.0
12.938,0.972,-0.939,0.0
11.982,0.901,-0.94,0.0
11.231,0.845,-0.946,0.0
10.456,0.788,-0.942,0.0
14.859,1.117,-0.929,0.0
13.608,1.024,-0.929,0.0
12.663,0.953,-0.938,0.0
11.749,0.885,-0.939,0.0
11.104,0.837,-0.952,0.0
10.333,0.78,-0.946,0.0
14.622,1.101,-0.936,0.0
13.38,1.008,-0.933,0.0
12.456,0.939,-0.941,0.0
11.545,0.871,-0.94,0.0
10.82,0.817,-0.944,0.0
10.146,0.766,-0.944,0.0
14.323,1.08,-0.938,0.0
13.172,0.993,-0.938,0.0
12.184,0.919,-0.938,0.0
11.353,0.857,-0.941,0.0
10.561,0.798,-0.937,0.0
10.005,0.756,-0.946,0.0
13.88,1.047,-0.929,0.0
12.92,0.975,-0.939,0.0
11.918,0.899,-0.935,0.0
11.143,0.841,-0.94,0.0
10.469,0.791,-0.944,0.0
9.838,0.744,-0.944,0.0
13.709,1.034,-0.937,0.0
12.653,0.954,-0.938,0.0
11.762,0.888,-0.94,0.0
10.926,0.825,-0.938,0.0
10.301,0.778,-0.944,0.0
9.652,0.729,-0.94,0.0
13.343,1.005,-0.931,0.0
12.465,0.94,-0.942,0.0
11.548,0.871,-0.939,0.0
10.814,0.816,-0.943,0.0
10.172,0.768,-0.946,0.0
9.567,0.722,-0.946,0.0
13.191,0.993,-0.939,0.0
12.183,0.917,-0.938,0.0
11.372,0.856,-0.941,0.0
10.543,0.794,-0.934,0.0
10.02,0.755,-0.946,0.0
9.401,0.709,-0.942,0.0
12.881,0.968,-0.935,0.0
11.962,0.899,-0.937,0.0
11.188,0.841,-0.941,0.0
10.429,0.784,-0.939,0.0
9.85,0.741,-0.944,0.0
9.333,0.702,-0.949,0.0
12.687,0.951,-0.938,0.0
11.753,0.881,-0.937,0.0
11.042,0.828,-0.944,0.0
10.349,0.776,-0.946,0.0
9.704,0.728,-0.943,0.0
9.168,0.688,-0.944,0.0
12.45,0.931,-0.937,0.0
11.62,0.869,-0.942,0.0
10.906,0.815,-0.947,0.0
10.171,0.76,-0.943,0.0
9.563,0.715,-0.942,0.0
9.047,0.677,-0.944,0.0
12.246,0.912,-0.938,0.0
11.426,0.851,-0.941,0.0
10.621,0.791,-0.936,0.0
10.005,0.745,-0.941,0.0
9.47,0.706,-0.946,0.0
8.938,0.666,-0.944,0.0
12.0,0.891,-0.935,0.0
11.267,0.836,-0.943,0.0
10.462,0.776,-0.936,0.0
9.872,0.732,-0.941,0.0
9.365,0.695,-0.947,0.0
8.821,0.654,-0.943,0.0
11.809,0.872,-0.935,0.0
11.079,0.818,-0.941,0.0
10.367,0.766,-0.941,0.0
9.775,0.722,-0.944,0.0
9.231,0.682,-0.945,0.0
8.723,0.644,-0.944,0.0
11.64,0.856,-0.936,0.0
10.991,0.808,-0.947,0.0
10.232,0.752,-0.941,0.0
9.659,0.71,-0.945,0.0
9.141,0.671,-0.947,0.0
8.626,0.634,-0.944,0.0
11.484,0.84,-0.938,0.0
10.752,0.786,-0.94,0.0
10.091,0.737,-0.94,0.0
9.508,0.695,-0.942,0.0
8.99,0.657,-0.943,0.0
8.543,0.624,-0.945,0.0
11.354,0.825,-0.941,0.0
10.563,0.767,-0.936,0.0
9.982,0.725,-0.942,0.0
9.417,0.684,-0.944,0.0
8.89,0.645,-0.943,0.0
8.422,0.611,-0.942,0.0
11.265,0.814,-0.946,0.0
10.455,0.755,-0.938,0.0
9.892,0.714,-0.945,0.0
9.299,0.671,-0.943,0.0
8.77,0.632,-0.94,0.0
8.346,0.601,-0.943,0.0
11.058,0.793,-0.941,0.0
10.348,0.742,-0.941,0.0
9.782,0.701,-0.946,0.0
9.201,0.659,-0.943,0.0
8.701,0.623,-0.943,0.0
8.271,0.592,-0.944,0.0
10.929,0.778,-0.943,0.0
10.232,0.728,-0.941,0.0
9.642,0.685,-0.943,0.0
9.075,0.645,-0.941,0.0
8.62,0.612,-0.943,0.0
8.185,0.581,-0.943,0.0
10.822,0.764,-0.945,0.0
10.18,0.718,-0.947,0.0
9.537,0.672,-0.943,0.0
8.999,0.634,-0.942,0.0
8.554,0.602,-0.945,0.0
8.11,0.57,-0.943,0.0
10.564,0.739,-0.934,0.0
10.046,0.702,-0.946,0.0
9.444,0.66,-0.943,0.0
8.861,0.619,-0.937,0.0
8.442,0.589,-0.942,0.0
8.039,0.56,-0.943,0.0
10.508,0.728,-0.939,0.0
9.919,0.687,-0.944,0.0
9.354,0.647,-0.944,0.0
8.806,0.609,-0.94,0.0
8.378,0.579,-0.943,0.0
7.996,0.552,-0.946,0.0
10.394,0.713,-0.939,0.0
9.783,0.671,-0.94,0.0
9.238,0.633,-0.941,0.0
8.724,0.597,-0.94,0.0
8.303,0.568,-0.943,0.0
7.913,0.541,-0.944,0.0
10.337,0.702,-0.944,0.0
9.717,0.659,-0.943,0.0
9.154,0.621,-0.941,0.0
8.646,0.586,-0.94,0.0
8.237,0.557,-0.943,0.0
7.87,0.532,-0.946,0.0
10.224,0.687,-0.943,0.0
9.617,0.645,-0.942,0.0
9.085,0.609,-0.942,0.0
8.565,0.574,-0.939,0.0
8.16,0.546,-0.941,0.0
7.811,0.522,-0.946,0.0
10.129,0.673,-0.943,0.0
9.519,0.632,-0.941,0.0
8.997,0.596,-0.941,0.0
8.492,0.562,-0.938,0.0
8.118,0.537,-0.943,0.0
7.723,0.51,-0.942,0.0
10.044,0.659,-0.944,0.0
9.442,0.619,-0.941,0.0
8.909,0.583,-0.939,0.0
8.456,0.553,-0.941,0.0
8.063,0.526,-0.944,0.0
7.684,0.501,-0.944,0.0
9.954,0.645,-0.943,0.0
9.358,0.605,-0.94,0.0
8.839,0.571,-0.939,0.0
8.414,0.543,-0.943,0.0
8.008,0.516,-0.944,0.0
7.654,0.493,-0.946,0.0
9.876,0.632,-0.943,0.0
9.296,0.593,-0.941,0.0
8.782,0.56,-0.94,0.0
8.333,0.53,-0.94,0.0
7.954,0.506,-0.943,0.0
7.59,0.482,-0.944,0.0
9.793,0.618,-0.943,0.0
9.21,0.58,-0.939,0.0
8.718,0.548,-0.939,0.0
8.272,0.519,-0.939,0.0
7.924,0.497,-0.945,0.0
7.542,0.472,-0.943,0.0
9.707,0.603,-0.941,0.0
9.181,0.57,-0.943,0.0
8.672,0.537,-0.94,0.0
8.24,0.51,-0.941,0.0
7.865,0.486,-0.944,0.0
7.537,0.465,-0.948,0.0
9.639,0.59,-0.941,0.0
9.127,0.558,-0.943,0.0
8.61,0.525,-0.939,0.0
8.211,0.5,-0.943,0.0
7.818,0.475,-0.943,0.0
7.517,0.456,-0.95,0.0
9.575,0.577,-0.94,0.0
9.025,0.543,-0.938,0.0
8.587,0.516,-0.942,0.0
8.157,0.489,-0.942,0.0
7.79,0.466,-0.944,0.0
7.457,0.445,-0.947,0.0
9.521,0.565,-0.941,0.0
9.01,0.533,-0.941,0.0
8.539,0.504,-0.941,0.0
8.109,0.478,-0.941,0.0
7.768,0.457,-0.946,0.0
7.441,0.437,-0.949,0.0
9.47,0.552,-0.94,0.0
8.969,0.522,-0.942,0.0
8.482,0.492,-0.939,0.0
8.086,0.468,-0.942,0.0
7.757,0.448,-0.948,0.0
7.407,0.427,-0.948,0.0
9.43,0.54,-0.941,0.0
8.897,0.508,-0.939,0.0
8.45,0.482,-0.94,0.0
8.035,0.457,-0.94,0.0
7.71,0.438,-0.946,0.0
7.38,0.418,-0.948,0.0
9.363,0.527,-0.939,0.0
8.844,0.496,-0.937,0.0
8.41,0.471,-0.939,0.0
8.019,0.448,-0.942,0.0
7.678,0.428,-0.946,0.0
7.343,0.408,-0.947,0.0
9.367,0.517,-0.943,0.0
8.813,0.485,-0.937,0.0
8.386,0.46,-0.94,0.0
8.019,0.439,-0.945,0.0
7.665,0.419,-0.947,0.0
7.328,0.399,-0.947,0.0
9.334,0.505,-0.943,0.0
8.806,0.475,-0.94,0.0
8.385,0.451,-0.942,0.0
7.952,0.427,-0.94,0.0
7.649,0.409,-0.948,0.0
7.319,0.391,-0.949,0.0
9.287,0.492,-0.941,0.0
8.762,0.463,-0.938,0.0
8.343,0.44,-0.94,0.0
7.951,0.418,-0.942,0.0
7.641,0.401,-0.949,0.0
7.316,0.382,-0.95,0.0
9.276,0.481,-0.943,0.0
8.747,0.453,-0.938,0.0
8.327,0.43,-0.941,0.0
7.931,0.408,-0.942,0.0
7.594,0.39,-0.945,0.0
7.311,0.374,-0.952,0.0
9.22,0.468,-0.939,0.0
8.716,0.441,-0.937,0.0
8.316,0.42,-0.941,0.0
7.935,0.399,-0.944,0.0
7.577,0.38,-0.945,0.0
7.275,0.364,-0.948,0.0
9.239,0.459,-0.943,0.0
8.724,0.432,-0.94,0.0
8.267,0.408,-0.937,0.0
7.875,0.387,-0.938,0.0
7.553,0.37,-0.943,0.0
7.28,0.356,-0.95,0.0
9.215,0.447,-0.942,0.0
8.728,0.422,-0.941,0.0
8.267,0.398,-0.938,0.0
7.9,0.379,-0.942,0.0
7.54,0.361,-0.942,0.0
7.249,0.346,-0.947,0.0
9.221,0.436,-0.943,0.0
8.723,0.411,-0.941,0.0
8.319,0.391,-0.945,0.0
7.875,0.369,-0.94,0.0
7.573,0.353,-0.947,0.0
7.252,0.337,-0.948,0.0
9.181,0.424,-0.94,0.0
8.711,0.4,-0.941,0.0
8.293,0.38,-0.942,0.0
7.92,0.361,-0.945,0.0
7.558,0.344,-0.945,0.0
7.256,0.329,-0.949,0.0
9.197,0.413,-0.941,0.0
8.722,0.391,-0.942,0.0
8.29,0.37,-0.942,0.0
7.886,0.35,-0.941,0.0
7.602,0.337,-0.95,0.0
7.256,0.32,-0.948,0.0
9.178,0.402,-0.939,0.0
8.69,0.379,-0.938,0.0
8.288,0.36,-0.941,0.0
7.873,0.34,-0.939,0.0
7.549,0.325,-0.943,0.0
7.227,0.31,-0.944,0.0
9.169,0.39,-0.938,0.0
8.723,0.37,-0.941,0.0
8.28,0.349,-0.94,0.0
7.891,0.331,-0.941,0.0
7.588,0.317,-0.947,0.0
7.274,0.303,-0.949,0.0
9.24,0.382,-0.944,0.0
8.7,0.358,-0.937,0.0
8.312,0.341,-0.942,0.0
7.894,0.322,-0.94,0.0
7.567,0.307,-0.944,0.0
7.286,0.295,-0.95,0.0
9.24,0.371,-0.942,0.0
8.729,0.349,-0.939,0.0
8.293,0.33,-0.938,0.0
7.913,0.313,-0.941,0.0
7.619,0.3,-0.948,0.0
7.286,0.286,-0.948,0.0
9.26,0.36,-0.942,0.0
8.769,0.339,-0.941,0.0
8.31,0.32,-0.938,0.0
7.958,0.305,-0.944,0.0
7.612,0.29,-0.946,0.0
7.295,0.277,-0.947,0.0
9.267,0.349,-0.94,0.0
8.734,0.327,-0.935,0.0
8.33,0.311,-0.938,0.0
7.943,0.295,-0.94,0.0
7.655,0.282,-0.949,0.0
7.328,0.269,-0.949,0.0
9.29,0.338,-0.94,0.0
8.822,0.32,-0.942,0.0
8.412,0.303,-0.945,0.0
7.973,0.286,-0.941,0.0
7.624,0.272,-0.942,0.0
7.339,0.26,-0.948,0.0
9.375,0.33,-0.945,0.0
8.814,0.308,-0.938,0.0
8.402,0.293,-0.94,0.0
7.984,0.276,-0.939,0.0
7.663,0.264,-0.944,0.0
7.359,0.252,-0.948,0.0
9.362,0.318,-0.94,0.0
8.892,0.3,-0.942,0.0
8.442,0.283,-0.942,0.0
8.029,0.268,-0.941,0.0
7.708,0.256,-0.947,0.0
7.393,0.244,-0.949,0.0
9.436,0.309,-0.943,0.0
8.912,0.29,-0.94,0.0
8.454,0.273,-0.939,0.0
8.067,0.259,-0.942,0.0
7.737,0.247,-0.946,0.0
7.413,0.235,-0.948,0.0
9.488,0.299,-0.944,0.0
8.981,0.281,-0.943,0.0
8.518,0.265,-0.942,0.0
8.086,0.25,-0.94,0.0
7.756,0.238,-0.945,0.0
7.443,0.227,-0.948,0.0
9.545,0.289,-0.945,0.0
9.03,0.272,-0.943,0.0
8.576,0.256,-0.943,0.0
8.159,0.242,-0.944,0.0
7.789,0.23,-0.944,0.0
7.479,0.219,-0.948,0.0
9.59,0.279,-0.943,0.0
9.062,0.261,-0.941,0.0
8.598,0.246,-0.941,0.0
8.162,0.232,-0.939,0.0
7.833,0.221,-0.945,0.0
7.513,0.211,-0.948,0.0
9.633,0.268,-0.941,0.0
9.116,0.252,-0.941,0.0
8.672,0.238,-0.943,0.0
8.208,0.223,-0.939,0.0
7.879,0.213,-0.945,0.0
7.545,0.202,-0.947,0.0
9.744,0.259,-0.946,0.0
9.198,0.243,-0.943,0.0
8.694,0.228,-0.94,0.0
8.276,0.215,-0.941,0.0
7.917,0.204,-0.944,0.0
7.59,0.194,-0.947,0.0
9.804,0.249,-0.945,0.0
9.254,0.233,-0.942,0.0
8.737,0.219,-0.938,0.0
8.344,0.207,-0.942,0.0
7.986,0.196,-0.946,0.0
7.615,0.186,-0.944,0.0
9.867,0.239,-0.943,0.0
9.323,0.224,-0.942,0.0
8.838,0.21,-0.942,0.0
8.387,0.198,-0.941,0.0
8.018,0.188,-0.943,0.0
7.694,0.178,-0.948,0.0
9.957,0.229,-0.944,0.0
9.419,0.215,-0.944,0.0
8.909,0.202,-0.942,0.0
8.473,0.19,-0.943,0.0
8.094,0.18,-0.946,0.0
7.736,0.17,-0.946,0.0
10.059,0.22,-0.945,0.0
9.508,0.206,-0.945,0.0
8.996,0.193,-0.944,0.0
8.529,0.181,-0.942,0.0
8.147,0.172,-0.945,0.0
7.779,0.162,-0.945,0.0
10.177,0.211,-0.947,0.0
9.594,0.197,-0.945,0.0
9.077,0.184,-0.944,0.0
8.536,0.172,-0.935,0.0
8.208,0.163,-0.944,0.0
7.853,0.155,-0.947,0.0
10.25,0.2,-0.944,0.0
9.713,0.188,-0.948,0.0
9.169,0.176,-0.945,0.0
8.668,0.164,-0.941,0.0
8.256,0.155,-0.942,0.0
7.876,0.146,-0.942,0.0
10.361,0.191,-0.945,0.0
9.807,0.179,-0.947,0.0
9.278,0.167,-0.947,0.0
8.754,0.156,-0.942,0.0
8.393,0.148,-0.949,0.0
7.994,0.139,-0.948,0.0
10.476,0.181,-0.944,0.0
9.889,0.169,-0.945,0.0
9.337,0.158,-0.943,0.0
8.839,0.148,-0.942,0.0
8.423,0.139,-0.944,0.0
8.005,0.13,-0.94,0.0
10.603,0.172,-0.945,0.0
9.97,0.159,-0.942,0.0
9.47,0.149,-0.946,0.0
8.949,0.139,-0.944,0.0
8.524,0.131,-0.945,0.0
8.083,0.123,-0.941,0.0
10.689,0.161,-0.941,0.0
10.158,0.151,-0.949,0.0
9.606,0.141,-0.949,0.0
9.054,0.131,-0.945,0.0
8.611,0.123,-0.945,0.0
8.169,0.115,-0.941,0.0
10.831,0.152,-0.941,0.0
10.284,0.142,-0.949,0.0
9.687,0.132,-0.946,0.0
9.187,0.123,-0.948,0.0
8.677,0.115,-0.943,0.0
8.302,0.108,-0.947,0.0
11.137,0.145,-0.955,0.0
10.408,0.133,-0.948,0.0
9.792,0.123,-0.945,0.0
9.246,0.114,-0.943,0.0
8.749,0.107,-0.94,0.0
8.367,0.1,-0.944,0.0
11.211,0.134,-0.947,0.0
10.541,0.124,-0.947,0.0
9.906,0.114,-0.944,0.0
9.376,0.106,-0.945,0.0
8.902,0.099,-0.945,0.0
8.463,0.093,-0.944,0.0
11.34,0.124,-0.944,0.0
10.691,0.114,-0.947,0.0
10.109,0.106,-0.95,0.0
9.503,0.098,-0.945,0.0
9.0,0.091,-0.944,0.0
8.629,0.086,-0.951,0.0
11.557,0.115,-0.947,0.0
20.372,0.198,-1.779,0.0
10.23,0.097,-0.948,0.0
9.657,0.09,-0.948,0.0
9.127,0.083,-0.945,0.0
8.695,0.078,-0.947,0.0
11.648,0.104,-0.939,0.0
20.208,0.177,-1.738,0.0
10.379,0.089,-0.948,0.0
9.777,0.082,-0.946,0.0
9.306,0.076,-0.951,0.0
8.759,0.07,-0.942,0.0
12.001,0.096,-0.951,0.0
11.208,0.087,-0.948,0.0
10.54,0.08,-0.948,0.0
9.918,0.074,-0.946,0.0
9.419,0.068,-0.949,0.0
8.923,0.063,-0.947,0.0
12.158,0.086,-0.947,0.0
11.441,0.078,-0.952,0.0
10.675,0.071,-0.945,0.0
10.111,0.066,-0.95,0.0
9.552,0.06,-0.949,0.0
9.01,0.055,-0.943,0.0
12.427,0.076,-0.95,0.0
11.548,0.069,-0.944,0.0
10.803,0.062,-0.941,0.0
10.26,0.058,-0.949,0.0
9.708,0.053,-0.95,0.0
9.184,0.048,-0.948,0.0
12.655,0.067,-0.949,0.0
11.793,0.06,-0.947,0.0
11.067,0.054,-0.948,0.0
10.427,0.049,-0.949,0.0
9.876,0.045,-0.952,0.0
9.316,0.041,-0.948,0.0
12.996,0.057,-0.955,0.0
12.125,0.051,-0.955,0.0
11.304,0.046,-0.951,0.0
10.57,0.041,-0.946,0.0
10.004,0.037,-0.949,0.0
9.462,0.034,-0.948,0.0
13.211,0.047,-0.951,0.0
12.288,0.042,-0.949,0.0
11.481,0.037,-0.948,0.0
10.723,0.033,-0.943,0.0
10.215,0.03,-0.953,0.0
9.631,0.026,-0.95,0.0
13.467,0.037,-0.948,0.0
12.582,0.033,-0.952,0.0
11.687,0.028,-0.946,0.0
20.284,0.047,-1.752,0.0
10.346,0.022,-0.949,0.0
9.825,0.019,-0.953,0.0
20.235,0.04,-1.392,0.0
12.865,0.023,-0.953,0.0
12.037,0.02,-0.955,0.0
11.321,0.017,-0.959,0.0
10.584,0.014,-0.953,0.0
9.946,0.012,-0.948,0.0
13.14,0.014,-0.951,0.0
12.235,0.011,-0.951,0.0
11.473,0.009,-0.953,0.0
10.739,0.007,-0.949,0.0
10.166,0.005,-0.952,0.0
12.593,0.003,-0.957,0.0
11.652,0.001,-0.948,0.0
10.361,-0.001,-0.953,0.0
14.838,-0.002,-0.947,0.0
12.784,-0.005,-0.95,0.0
11.996,-0.006,-0.956,0.0
11.151,-0.007,-0.948,0.0
10.544,-0.008,-0.952,0.0
15.221,-0.012,-0.945,0.0
13.171,-0.014,-0.956,0.0
12.244,-0.014,-0.955,0.0
11.494,-0.015,-0.957,0.0
10.723,-0.015,-0.949,0.0
15.648,-0.022,-0.944,0.0
12.561,-0.023,-0.957,0.0
11.695,-0.023,-0.953,0.0
20.113,-0.042,-1.745,0.0
16.204,-0.033,-0.949,0.0
14.858,-0.032,-0.948,0.0
12.857,-0.031,-0.956,0.0
12.022,-0.03,-0.957,0.0
11.218,-0.03,-0.952,0.0
16.634,-0.043,-0.944,0.0
15.276,-0.042,-0.947,0.0
13.209,-0.039,-0.958,0.0
12.3,-0.038,-0.957,0.0
11.488,-0.037,-0.954,0.0
15.728,-0.051,-0.946,0.0
12.633,-0.045,-0.96,0.0
11.731,-0.043,-0.953,0.0
16.33,-0.061,-0.952,0.0
14.939,-0.058,-0.949,0.0
12.939,-0.053,-0.959,0.0
12.11,-0.05,-0.96,0.0
16.71,-0.07,-0.943,0.0
15.387,-0.066,-0.949,0.0
13.303,-0.06,-0.961,0.0
12.408,-0.057,-0.961,0.0
15.902,-0.075,-0.95,0.0
14.644,-0.071,-0.953,0.0
20.182,-0.1,-1.419,0.0
12.702,-0.064,-0.959,0.0
16.477,-0.085,-0.953,0.0
15.028,-0.078,-0.949,0.0
13.935,-0.074,-0.952,0.0
13.092,-0.07,-0.963,0.0
20.286,-0.108,-0.923,65.0
18.409,-0.099,-0.933,0.0
16.834,-0.092,-0.941,0.0
15.517,-0.086,-0.95,0.0
14.452,-0.082,-0.96,0.0
13.375,-0.077,-0.958,0.0
20.279,-0.115,-0.883,10.0
16.105,-0.095,-0.954,0.0
14.815,-0.088,-0.955,0.0
20.164,-0.122,-1.404,0.0
22.57,-0.134,-0.939,10.0
20.223,-0.122,-0.946,10.0
18.178,-0.111,-0.945,0.0
16.543,-0.102,-0.947,0.0
15.252,-0.095,-0.952,0.0
14.048,-0.088,-0.95,0.0
22.607,-0.141,-0.895,22.0
20.28,-0.127,-0.908,62.0
18.601,-0.118,-0.929,0.0
17.061,-0.109,-0.942,0.0
15.76,-0.102,-0.952,0.0
14.56,-0.095,-0.955,0.0
24.473,-0.158,-0.92,0.0
0.0,0.0,0.0,0.0
16.367,-0.109,-0.956,0.0
14.999,-0.101,-0.954,0.0
25.941,-0.172,-0.923,0.0
22.609,-0.151,-0.921,40.0
20.276,-0.136,-0.931,56.0
18.357,-0.124,-0.939,0.0
16.83,-0.115,-0.949,0.0
15.502,-0.106,-0.954,0.0
20.229,-0.137,-0.678,3.0
22.632,-0.154,-0.876,4.0
20.259,-0.139,-0.889,11.0
16.06,-0.112,-0.955,0.0
20.219,-0.139,-0.637,25.0
24.777,-0.172,-0.908,0.0
22.582,-0.157,-0.944,18.0
20.212,-0.141,-0.952,9.0
18.129,-0.127,-0.947,0.0
16.58,-0.117,-0.952,0.0
20.203,-0.141,-0.595,35.0
20.208,-0.141,-0.699,1.0
22.604,-0.159,-0.899,24.0
20.284,-0.143,-0.913,69.0
18.633,-0.132,-0.935,0.0
17.037,-0.121,-0.943,0.0
20.187,-0.141,-0.553,39.0
20.21,-0.142,-0.657,18.0
24.446,-0.172,-0.922,0.0
22.456,-0.159,-0.965,1.0
20.174,-0.141,-0.51,37.0
20.209,-0.142,-0.616,30.0
26.158,-0.184,-0.932,0.0
22.608,-0.159,-0.924,36.0
20.275,-0.143,-0.934,60.0
18.409,-0.13,-0.943,1.0
20.174,-0.14,-0.469,33.0
20.192,-0.141,-0.573,35.0
20.214,-0.141,-0.678,8.0
22.601,-0.158,-0.877,3.0
20.273,-0.142,-0.891,9.0
20.164,-0.139,-0.426,36.0
20.174,-0.139,-0.53,36.0
20.221,-0.139,-0.636,24.0
24.794,-0.171,-0.91,0.0
22.57,-0.155,-0.945,20.0
20.233,-0.139,-0.952,12.0
20.157,-0.137,-0.384,35.0
20.179,-0.137,-0.489,28.0
20.2,-0.137,-0.593,30.0
20.2,-0.136,-0.699,0.0
22.595,-0.152,-0.899,19.0
20.278,-0.136,-0.911,53.0
20.156,-0.134,-0.342,34.0
20.163,-0.133,-0.446,35.0
20.182,-0.133,-0.55,32.0
20.209,-0.133,-0.657,8.0
22.515,-0.147,-0.964,4.0
20.156,-0.13,-0.3,34.0
20.147,-0.129,-0.403,35.0
20.169,-0.129,-0.508,29.0
20.17,-0.128,-0.614,19.0
22.615,-0.143,-0.921,33.0
20.154,-0.125,-0.257,33.0
20.147,-0.124,-0.361,35.0
20.169,-0.124,-0.465,30.0
20.194,-0.123,-0.572,27.0
28.084,-0.171,-0.94,2.0
20.145,-0.12,-0.215,17.0
20.141,-0.119,-0.319,35.0
20.163,-0.118,-0.423,35.0
20.183,-0.118,-0.529,29.0
28.133,-0.163,-0.882,2.0
24.789,-0.142,-0.905,0.0
20.156,-0.114,-0.172,27.0
20.14,-0.113,-0.276,34.0
20.144,-0.112,-0.38,35.0
20.169,-0.111,-0.486,29.0
20.19,-0.11,-0.59,10.0
20.15,-0.107,-0.13,29.0
20.13,-0.105,-0.233,26.0
20.137,-0.104,-0.337,37.0
20.156,-0.103,-0.443,35.0
20.2,-0.102,-0.548,21.0
28.052,-0.141,-0.906,21.0
20.154,-0.099,-0.088,29.0
20.16,-0.098,-0.191,28.0
20.147,-0.096,-0.295,35.0
20.149,-0.095,-0.401,33.0
20.196,-0.094,-0.506,26.0
29.555,-0.136,-0.892,1.0
20.149,-0.09,-0.045,29.0
20.138,-0.089,-0.149,33.0
20.132,-0.088,-0.252,33.0
20.141,-0.086,-0.358,27.0
20.165,-0.085,-0.463,28.0
20.211,-0.084,-0.568,0.0
20.137,-0.081,-0.003,37.0
20.139,-0.08,-0.107,29.0
20.163,-0.078,-0.21,23.0
20.146,-0.077,-0.316,31.0
20.168,-0.075,-0.42,27.0
33.164,-0.121,-0.863,3.0
20.13,-0.071,0.038,37.0
20.135,-0.069,-0.064,29.0
20.146,-0.068,-0.168,35.0
20.148,-0.066,-0.274,29.0
20.144,-0.065,-0.378,18.0
20.168,-0.063,-0.482,7.0
20.128,-0.061,0.08,44.0
20.124,-0.059,-0.023,35.0
20.137,-0.057,-0.127,29.0
20.124,-0.055,-0.232,15.0
20.16,-0.053,-0.336,25.0
20.18,-0.051,-0.441,8.0
20.134,-0.049,0.122,36.0
20.135,-0.047,0.018,35.0
20.142,-0.045,-0.084,34.0
20.151,-0.043,-0.19,28.0
20.163,-0.041,-0.295,25.0
20.168,-0.039,-0.398,6.0
20.116,-0.037,0.163,39.0
20.137,-0.035,0.06,41.0
20.124,-0.033,-0.043,32.0
20.152,-0.031,-0.149,29.0
20.139,-0.029,-0.253,17.0
20.181,-0.026,-0.358,4.0
20.12,-0.024,0.204,37.0
20.123,-0.022,0.1,37.0
20.139,-0.02,-0.002,28.0
20.156,-0.017,-0.108,26.0
20.16,-0.015,-0.212,7.0
20.18,-0.013,-0.317,2.0
20.125,-0.01,0.246,27.0
20.119,-0.008,0.142,26.0
20.142,-0.006,0.038,20.0
20.194,-0.003,-0.068,18.0
20.214,-0.001,-0.172,13.0
20.239,0.001,-0.276,9.0
20.134,0.003,0.287,29.0
20.122,0.005,0.182,28.0
20.141,0.008,0.079,31.0
20.213,0.011,-0.026,154.0
20.262,0.013,-0.131,151.0
20.257,0.016,-0.236,150.0
20.128,0.018,0.327,27.0
20.129,0.021,0.223,27.0
20.13,0.023,0.119,27.0
20.26,0.026,0.013,150.0
20.258,0.029,-0.09,151.0
20.255,0.032,-0.195,150.0
20.133,0.034,0.368,27.0
20.14,0.037,0.264,28.0
20.136,0.039,0.159,26.0
20.163,0.042,0.053,16.0
20.275,0.045,-0.05,8.0
20.244,0.048,-0.155,21.0
20.154,0.05,0.408,29.0
20.147,0.053,0.304,28.0
20.149,0.056,0.2,28.0
20.145,0.059,0.093,27.0
20.208,0.062,-0.01,28.0
20.208,0.065,-0.115,25.0
20.156,0.067,0.448,30.0
20.145,0.07,0.343,27.0
20.147,0.073,0.239,26.0
20.151,0.076,0.133,26.0
20.197,0.08,0.028,35.0
20.192,0.083,-0.075,31.0
20.17,0.085,0.487,25.0
20.147,0.088,0.383,27.0
20.143,0.092,0.278,27.0
20.15,0.095,0.172,28.0
20.192,0.098,0.068,35.0
20.172,0.101,-0.036,30.0
20.175,0.104,0.527,26.0
20.159,0.107,0.422,28.0
20.155,0.11,0.317,28.0
20.16,0.113,0.21,26.0
20.174,0.117,0.106,25.0
20.179,0.12,0.001,27.0
20.189,0.123,0.566,18.0
20.155,0.126,0.46,23.0
20.166,0.13,0.356,26.0
20.164,0.133,0.249,25.0
20.169,0.136,0.144,24.0
20.198,0.14,0.039,25.0
20.22,0.143,0.605,10.0
20.166,0.146,0.498,20.0
20.172,0.15,0.394,24.0
20.167,0.153,0.287,23.0
20.178,0.157,0.182,24.0
20.233,0.161,0.078,30.0
20.263,0.164,0.644,0.0
20.219,0.167,0.538,18.0
20.235,0.171,0.433,25.0
20.245,0.175,0.326,26.0
20.298,0.179,0.221,27.0
20.304,0.183,0.116,26.0
103.787,0.952,3.498,42.0
20.269,0.189,0.577,15.0
20.268,0.193,0.471,30.0
20.268,0.196,0.364,29.0
20.277,0.2,0.258,28.0
20.3,0.204,0.153,29.0
103.926,1.064,3.692,28.0
20.272,0.211,0.614,6.0
20.268,0.215,0.508,28.0
20.265,0.218,0.4,34.0
20.284,0.223,0.295,28.0
20.291,0.226,0.189,24.0
103.966,1.18,3.882,36.0
133.36,1.538,4.282,24.0
20.28,0.237,0.545,22.0
20.283,0.241,0.437,27.0
20.277,0.245,0.331,24.0
20.291,0.249,0.225,17.0
103.961,1.298,4.068,34.0
140.064,1.776,4.749,13.0
20.278,0.261,0.581,2.0
20.293,0.265,0.473,21.0
20.28,0.269,0.367,10.0
20.294,0.273,0.261,1.0
103.939,1.419,4.251,36.0
102.94,1.425,3.67,12.0
125.062,1.757,3.806,28.0
157.04,2.239,3.942,21.0
195.6,2.828,3.885,21.0
194.768,2.856,2.851,31.0
103.878,1.542,4.429,20.0
118.553,1.783,4.432,36.0
125.022,1.906,4.018,29.0
196.83,3.041,5.275,5.0
196.438,3.077,4.236,26.0
194.802,3.091,3.181,32.0
103.427,1.66,4.584,35.0
118.524,1.927,4.631,12.0
124.962,2.057,4.227,31.0
0.0,0.0,0.0,0.0
197.404,3.334,4.587,5.0
194.988,3.336,3.51,23.0
103.757,1.795,4.774,26.0
118.658,2.078,4.836,15.0
124.77,2.211,4.429,21.0
147.959,2.652,4.458,3.0
194.547,3.531,4.842,5.0
194.591,3.574,3.823,14.0
103.783,1.927,4.947,12.0
118.399,2.224,5.021,29.0
124.809,2.372,4.635,17.0
0.0,0.0,0.0,0.0
0.0,0.0,0.0,0.0
194.52,3.823,4.135,13.0
69.243,1.375,3.413,10.0
117.806,2.366,5.186,18.0
124.736,2.532,4.832,14.0
0.0,0.0,0.0,0.0
194.801,4.042,5.478,7.0
194.557,4.081,4.448,8.0
103.801,2.199,5.282,8.0
102.914,2.203,4.694,2.0
124.866,2.701,5.036,7.0
140.313,3.067,4.904,3.0
0.0,0.0,0.0,0.0
194.616,4.341,4.75,17.0
103.805,2.338,5.444,3.0
110.589,2.516,5.215,2.0
124.903,2.87,5.231,3.0
0.0,0.0,0.0,0.0
0.0,0.0,0.0,0.0
194.582,4.607,5.048,23.0
110.198,2.635,5.951,5.0
124.481,3.004,6.063,3.0
124.925,3.044,5.424,2.0
132.678,3.264,5.044,2.0
0.0,0.0,0.0,0.0
194.442,4.874,5.338,17.0
69.535,1.76,3.86,5.0
103.913,2.654,5.217,2.0
124.855,3.217,5.606,3.0
102.766,2.672,4.06,5.0
193.405,5.074,6.615,8.0
194.506,5.149,5.624,6.0
69.343,1.852,3.951,21.0
118.359,3.191,6.116,6.0
124.982,3.399,5.796,2.0
102.387,2.808,4.193,5.0
157.674,4.363,5.622,3.0
193.207,5.393,5.866,17.0
118.226,3.33,6.908,5.0
116.808,3.317,6.203,3.0
110.54,3.166,5.283,3.0
102.43,2.957,4.34,2.0
193.769,5.64,7.18,8.0
192.978,5.663,6.126,24.0
67.497,1.998,4.037,3.0
103.557,3.09,5.642,2.0
110.375,3.32,5.426,5.0
102.259,3.1,4.473,5.0
193.615,5.915,7.437,16.0
193.343,5.953,6.398,24.0
69.085,2.146,4.226,3.0
103.52,3.241,5.78,6.0
103.078,3.252,5.206,7.0
102.35,3.254,4.614,3.0
193.638,6.203,7.697,22.0
193.458,6.243,6.658,17.0
69.149,2.251,4.322,8.0
103.466,3.393,5.913,7.0
117.702,3.887,6.098,2.0
117.882,3.922,5.466,5.0
193.556,6.486,7.941,13.0
193.648,6.54,6.914,24.0
68.477,2.332,4.369,5.0
103.398,3.546,6.043,5.0
118.035,4.077,6.266,6.0
104.285,3.628,4.968,3.0
196.266,6.875,8.302,20.0
193.77,6.834,7.159,24.0
68.578,2.439,4.461,7.0
67.429,2.415,4.025,4.0
117.633,4.242,6.392,4.0
195.556,7.099,9.556,16.0
195.672,7.153,8.516,8.0
194.685,7.166,7.432,17.0
68.777,2.552,4.559,8.0
68.496,2.559,4.171,3.0
103.674,3.899,5.758,3.0
195.374,7.396,9.784,15.0
195.934,7.465,8.761,7.0
0.0,0.0,0.0,0.0
53.356,2.063,3.599,2.0
68.334,2.658,4.242,2.0
0.0,0.0,0.0,0.0
194.913,7.678,9.984,21.0
194.699,7.719,8.928,16.0
195.317,7.791,7.906,20.0
67.562,2.717,4.635,13.0
68.659,2.777,4.34,3.0
68.743,2.798,3.974,2.0
194.621,7.969,10.185,22.0
194.505,8.012,9.133,8.0
195.068,8.083,8.109,19.0
67.208,2.807,4.684,10.0
69.383,2.915,4.461,10.0
67.386,2.848,3.968,2.0
195.377,8.306,10.435,12.0
194.038,8.299,9.318,23.0
193.37,8.32,8.246,21.0
68.061,2.952,4.817,12.0
69.518,3.031,4.543,3.0
67.318,2.952,4.036,2.0
195.194,8.609,10.629,25.0
193.478,8.58,9.49,24.0
193.395,8.628,8.445,20.0
47.324,2.127,3.398,3.0
69.545,3.143,4.616,2.0
67.225,3.055,4.098,2.0
195.709,8.942,10.852,24.0
194.599,8.941,9.739,25.0
193.198,8.926,8.627,20.0
47.519,2.212,3.458,3.0
204.345,9.567,13.764,10.0
67.252,3.164,4.165,3.0
196.087,9.276,11.063,29.0
194.792,9.262,9.934,7.0
192.701,9.212,8.786,25.0
52.557,2.532,3.875,3.0
47.35,2.293,3.234,3.0
67.171,3.269,4.222,2.0
198.268,9.697,11.368,9.0
194.4,9.557,10.092,21.0
193.143,9.542,8.979,18.0
68.513,3.41,5.113,2.0
67.689,3.386,4.683,0.0
67.171,3.377,4.281,1.0
195.175,9.859,11.361,10.0
194.47,9.871,10.264,11.0
192.815,9.836,9.129,24.0
66.566,3.422,5.025,5.0
52.75,2.724,3.694,2.0
205.583,10.667,13.28,14.0
194.858,10.159,11.505,8.0
194.598,10.195,10.432,17.0
193.406,10.182,9.317,28.0
68.336,3.625,5.216,5.0
47.763,2.545,3.384,1.0
0.0,0.0,0.0,0.0
0.0,0.0,0.0,0.0
194.062,10.482,10.557,29.0
193.707,10.51,9.482,16.0
242.299,13.244,18.681,18.0
47.916,2.63,3.432,3.0
0.0,0.0,0.0,0.0
0.0,0.0,0.0,0.0
194.581,10.823,10.729,14.0
193.679,10.821,9.622,20.0
47.342,2.664,3.684,4.0
47.899,2.707,3.465,1.0
206.656,11.732,13.822,20.0
206.811,11.789,12.678,5.0
195.761,11.208,10.931,18.0
193.702,11.138,9.759,21.0
47.32,2.741,3.716,1.0
243.251,14.151,17.767,24.0
206.268,12.049,13.935,6.0
0.0,0.0,0.0,0.0
110.117,6.484,6.221,1.0
194.014,11.472,9.901,13.0
47.272,2.816,3.743,3.0
243.698,14.575,17.959,16.0
206.723,12.411,14.099,8.0
0.0,0.0,0.0,0.0
110.685,6.698,6.322,2.0
195.011,11.849,10.072,6.0
47.063,2.88,3.755,4.0
244.203,14.999,18.142,21.0
207.111,12.77,14.247,10.0
0.0,0.0,0.0,0.0
110.702,6.879,6.387,1.0
195.114,12.17,10.188,14.0
46.892,2.945,3.768,4.0
244.523,15.415,18.301,28.0
110.2,6.973,7.641,5.0
0.0,0.0,0.0,0.0
107.928,6.879,6.284,1.0
195.017,12.478,10.284,18.0
47.229,3.043,3.82,2.0
111.319,7.198,8.389,4.0
207.847,13.488,14.516,8.0
0.0,0.0,0.0,0.0
0.0,0.0,0.0,0.0
195.831,12.843,10.421,6.0
45.777,3.023,3.724,1.0
245.564,16.274,18.621,15.0
111.408,7.409,7.832,8.0
110.667,7.385,7.158,5.0
108.283,7.251,6.407,1.0
157.814,10.605,8.467,3.0
45.819,3.1,3.748,3.0
245.856,16.691,18.751,21.0
0.0,0.0,0.0,0.0
111.285,7.605,7.244,6.0
111.101,7.618,6.618,2.0
120.22,8.27,6.499,1.0
246.34,17.121,18.882,28.0
246.663,17.196,17.54,10.0
108.171,7.564,7.081,3.0
111.192,7.803,6.664,11.0
121.401,8.546,6.606,1.0
246.76,17.544,18.999,27.0
247.043,17.616,17.65,12.0
109.877,7.859,7.229,2.0
92.54,6.639,5.576,1.0
91.957,6.619,5.032,3.0
247.273,17.969,19.113,9.0
0.0,0.0,0.0,0.0
115.39,8.434,7.626,2.0
108.223,7.934,6.551,4.0
92.139,6.776,5.067,8.0
115.833,8.575,9.629,5.0
107.873,8.009,8.366,7.0
111.019,8.266,7.992,4.0
111.616,8.334,7.403,4.0
107.815,8.074,6.551,5.0
92.207,6.926,5.091,3.0
114.293,8.665,8.889,4.0
116.848,8.883,8.436,2.0
112.854,8.603,7.508,5.0
99.88,7.635,6.089,2.0
92.119,7.062,5.104,3.0
45.704,3.527,3.818,3.0
110.131,8.521,8.585,7.0
107.78,8.361,7.8,3.0
91.3,7.102,6.088,5.0
0.0,0.0,0.0,0.0
91.948,7.19,5.108,7.0
114.722,9.031,9.599,3.0
248.887,19.64,19.434,10.0
91.758,7.259,6.652,4.0
97.194,7.709,6.493,4.0
0.0,0.0,0.0,0.0
91.954,7.332,5.118,5.0
112.185,9.003,9.398,5.0
108.065,8.692,8.448,6.0
107.512,8.669,7.803,5.0
91.738,7.416,6.136,7.0
97.371,7.891,5.969,6.0
92.176,7.488,5.136,2.0
116.229,9.504,9.744,9.0
107.05,8.774,8.374,9.0
111.352,9.147,8.086,8.0
108.782,8.957,7.28,2.0
91.266,7.533,5.597,7.0
92.173,7.627,5.138,2.0
112.635,9.379,9.444,13.0
117.95,9.842,9.228,18.0
117.882,9.859,8.56,6.0
85.395,7.158,5.714,4.0
116.051,9.751,7.116,7.0
96.127,8.095,5.356,3.0
96.47,8.174,8.087,4.0
115.484,9.807,9.031,10.0
84.961,7.231,6.167,4.0
85.713,7.31,5.731,1.0
91.424,7.815,5.601,3.0
84.995,7.282,4.731,3.0
114.987,9.913,9.63,4.0
115.031,9.936,8.987,15.0
106.714,9.236,7.737,8.0
107.578,9.331,7.184,5.0
91.836,7.982,5.618,4.0
85.018,7.406,4.724,4.0
114.101,10.0,9.544,8.0
96.373,8.462,7.519,3.0
112.524,9.9,8.145,4.0
107.26,9.456,7.149,5.0
98.326,8.685,6.002,3.0
97.335,8.617,5.394,2.0
85.416,7.607,7.132,0.0
84.798,7.565,6.603,4.0
109.658,9.802,7.919,9.0
97.284,8.712,6.469,3.0
78.39,7.034,4.771,3.0
83.885,7.543,4.634,4.0
107.946,9.764,8.994,5.0
97.91,8.872,7.605,7.0
96.537,8.764,6.953,6.0
91.726,8.342,6.08,7.0
78.298,7.135,4.749,3.0
91.788,8.381,5.051,8.0
99.15,9.106,8.239,3.0
91.851,8.45,7.112,5.0
96.382,8.882,6.919,4.0
84.899,7.837,5.607,6.0
78.404,7.25,4.736,3.0
84.065,7.789,4.605,7.0
85.987,8.013,7.122,12.0
96.012,8.962,7.408,3.0
96.352,9.009,6.89,6.0
87.629,8.207,5.763,3.0
84.994,7.974,5.109,9.0
84.067,7.901,4.581,5.0
85.384,8.07,7.047,3.0
85.995,8.141,6.609,4.0
96.483,9.148,6.869,7.0
107.654,10.224,7.046,6.0
84.509,8.039,5.054,30.0
84.146,8.019,4.556,5.0
92.134,8.83,7.572,9.0
85.879,8.242,6.571,3.0
80.416,7.73,5.696,3.0
90.306,8.695,5.877,1.0
97.729,9.424,5.808,4.0
84.697,8.181,4.555,5.0
85.273,8.281,6.975,5.0
84.126,8.182,6.404,4.0
84.022,8.184,5.919,3.0
90.141,8.792,5.831,4.0
87.245,8.523,5.15,6.0
86.704,8.483,4.629,1.0
92.284,9.078,7.511,10.0
72.943,7.185,5.522,5.0
73.248,7.225,5.129,1.0
90.498,8.939,5.815,7.0
81.011,8.013,4.747,2.0
84.857,8.407,4.493,11.0
91.869,9.149,7.436,5.0
73.172,7.296,5.507,1.0
78.255,7.813,5.444,2.0
91.405,9.138,5.831,1.0
88.015,8.811,5.117,1.0
0.0,0.0,0.0,0.0
91.684,9.239,7.376,3.0
68.71,6.933,5.137,2.0
83.932,8.479,5.798,2.0
78.512,7.942,4.969,2.0
90.86,9.205,5.235,3.0
85.77,8.7,4.456,4.0
86.198,8.788,6.89,2.0
68.622,7.004,5.094,4.0
80.287,8.205,5.502,2.0
78.591,8.042,4.932,4.0
81.028,8.302,4.624,4.0
85.841,8.806,4.413,4.0
85.556,8.82,6.791,4.0
68.712,7.091,5.062,6.0
79.971,8.263,5.436,2.0
78.434,8.114,4.876,1.0
81.071,8.397,4.58,4.0
84.101,8.722,4.274,2.0
85.689,8.929,6.75,7.0
68.711,7.168,5.02,3.0
84.574,8.833,5.697,6.0
96.531,10.092,5.943,11.0
80.993,8.478,4.526,5.0
84.061,8.809,4.22,6.0
78.872,8.305,6.163,11.0
73.868,7.786,5.35,3.0
84.378,8.902,5.63,4.0
69.137,7.301,4.213,7.0
81.049,8.568,4.477,4.0
90.309,9.559,4.475,4.0
78.796,8.378,6.106,5.0
75.108,7.994,5.39,3.0
84.292,8.98,5.568,4.0
88.078,9.392,5.308,2.0
80.889,8.634,4.413,3.0
0.0,0.0,0.0,0.0
76.527,8.214,5.877,3.0
68.607,7.37,4.876,3.0
87.301,9.387,5.707,2.0
76.583,8.242,4.561,2.0
79.701,8.586,4.293,2.0
0.0,0.0,0.0,0.0
73.967,8.011,5.627,1.0
77.436,8.393,5.448,2.0
73.402,7.963,4.745,3.0
84.429,9.167,4.967,3.0
79.692,8.662,4.233,2.0
87.091,9.475,4.131,5.0
84.122,9.19,6.336,4.0
77.548,8.478,5.397,3.0
87.136,9.534,5.566,4.0
76.612,8.389,4.448,2.0
84.316,9.241,4.414,1.0
91.738,10.064,4.28,9.0
74.456,8.201,5.55,5.0
77.721,8.567,5.348,5.0
78.582,8.668,4.958,4.0
89.821,9.915,5.144,4.0
87.692,9.688,4.522,4.0
91.776,10.148,4.21,12.0
68.711,7.628,5.066,2.0
68.431,7.601,4.653,5.0
85.825,9.54,5.345,5.0
89.755,9.983,5.068,4.0
87.685,9.761,4.45,4.0
85.87,9.566,3.868,18.0
68.655,7.677,5.005,4.0
68.36,7.649,4.591,4.0
85.71,9.596,5.265,13.0
80.263,8.993,4.463,4.0
96.88,10.862,4.835,3.0
85.836,9.631,3.794,14.0
68.614,7.726,4.943,2.0
68.032,7.665,4.511,3.0
77.754,8.765,4.71,2.0
76.761,8.659,4.203,3.0
107.135,12.093,5.253,22.0
91.768,10.366,3.975,20.0
67.781,7.684,4.822,4.0
73.966,8.389,4.837,3.0
74.758,8.483,4.461,3.0
76.6,8.697,4.125,7.0
107.811,12.249,5.189,13.0
91.767,10.433,3.892,18.0
76.537,8.731,5.375,3.0
73.418,8.378,4.734,3.0
85.736,9.789,5.037,2.0
105.198,12.017,5.567,6.0
136.934,15.652,6.463,14.0
91.785,10.497,3.808,13.0
76.789,8.81,5.321,2.0
81.09,9.308,5.153,3.0
80.022,9.188,4.627,1.0
105.225,12.088,5.47,5.0
87.042,10.005,4.026,5.0
91.786,10.556,3.721,17.0
72.81,8.399,4.976,2.0
78.293,9.035,4.9,11.0
75.564,8.723,4.295,3.0
90.623,10.466,4.623,4.0
105.241,12.161,4.766,12.0
91.793,10.612,3.632,16.0
68.515,7.944,4.613,2.0
78.366,9.089,4.827,7.0
75.667,8.779,4.227,5.0
90.674,10.524,4.535,23.0
90.663,10.527,4.016,9.0
85.903,9.979,3.313,18.0
73.112,8.517,4.85,4.0
74.621,8.695,4.521,1.0
68.407,7.973,3.751,1.0
90.66,10.57,4.443,21.0
90.758,10.585,3.928,20.0
91.986,10.733,3.456,26.0
68.495,8.013,4.474,4.0
80.761,9.45,4.811,2.0
87.673,10.262,4.718,14.0
90.713,10.62,4.352,14.0
90.858,10.64,3.839,48.0
92.012,10.78,3.36,35.0
73.637,8.649,4.732,1.0
77.049,9.051,4.508,2.0
85.746,10.074,4.525,13.0
90.687,10.657,4.256,16.0
90.908,10.687,3.744,19.0
92.001,10.819,3.262,29.0
84.755,9.99,5.356,3.0
75.454,8.894,4.334,5.0
85.879,10.125,4.439,18.0
86.89,10.245,3.985,12.0
103.674,12.228,4.159,13.0
92.008,10.855,3.165,13.0
74.571,8.817,4.632,3.0
75.465,8.923,4.253,2.0
85.731,10.138,4.339,20.0
86.818,10.268,3.887,17.0
85.93,10.165,3.355,14.0
96.698,11.441,3.221,7.0
78.486,9.305,4.789,5.0
80.837,9.584,4.467,7.0
85.728,10.165,4.245,37.0
92.385,10.955,4.035,17.0
85.931,10.191,3.26,17.0
115.095,13.653,3.706,8.0
78.723,9.356,4.715,2.0
75.259,8.944,4.075,3.0
85.728,10.188,4.149,37.0
92.369,10.977,3.931,22.0
91.497,10.875,3.369,20.0
114.822,13.649,3.57,4.0
75.298,8.966,4.426,2.0
89.842,10.697,4.764,9.0
85.716,10.206,4.052,33.0
85.765,10.211,3.554,34.0
91.498,10.894,3.267,44.0
147.218,17.532,4.411,11.0
80.254,9.572,4.626,3.0
92.588,11.041,4.805,12.0
85.732,10.223,3.955,36.0
85.8,10.231,3.456,47.0
91.535,10.915,3.163,28.0
97.68,11.648,2.815,9.0
68.305,8.157,3.858,3.0
92.572,11.053,4.697,4.0
85.738,10.235,3.858,37.0
85.816,10.244,3.359,52.0
96.826,11.558,3.233,20.0
97.645,11.656,2.702,26.0
92.573,11.064,5.122,20.0
103.384,12.354,5.125,6.0
85.75,10.245,3.758,45.0
85.853,10.255,3.261,51.0
96.866,11.571,3.122,28.0
97.659,11.665,2.589,36.0
92.544,11.066,5.012,15.0
90.257,10.789,4.369,12.0
85.747,10.248,3.657,48.0
85.857,10.26,3.16,30.0
96.968,11.586,3.013,11.0
97.705,11.673,2.476,47.0
89.84,10.743,4.76,23.0
90.383,10.805,4.268,8.0
85.765,10.25,3.557,42.0
91.476,10.93,3.259,42.0
147.135,17.578,4.399,7.0
97.716,11.672,2.361,46.0
89.792,10.734,4.65,18.0
85.708,10.242,3.946,15.0
85.8,10.25,3.457,48.0
91.476,10.926,3.15,20.0
97.644,11.66,2.803,11.0
97.717,11.667,2.245,41.0
92.568,11.059,4.685,2.0
85.743,10.239,3.846,40.0
85.821,10.245,3.356,47.0
96.827,11.555,3.221,28.0
97.634,11.649,2.687,31.0
97.702,11.654,2.129,34.0
85.739,10.232,4.235,3.0
85.749,10.228,3.743,57.0
85.851,10.236,3.254,38.0
96.927,11.553,3.108,17.0
97.673,11.639,2.571,44.0
97.681,11.637,2.012,26.0
85.732,10.216,4.132,20.0
85.743,10.212,3.64,33.0
91.505,10.894,3.359,29.0
96.897,11.531,2.99,3.0
97.703,11.623,2.455,53.0
97.677,11.617,1.893,40.0
85.761,10.2,4.03,46.0
85.781,10.197,3.537,8.0
91.572,10.881,3.25,31.0
97.998,11.639,2.905,12.0
97.745,11.604,2.338,53.0
97.718,11.597,1.777,53.0
0.0,0.0,0.0,0.0
91.171,10.813,3.649,10.0
96.636,11.455,3.314,6.0
97.695,11.576,2.779,46.0
97.737,11.575,2.22,42.0
97.718,11.569,1.66,42.0
86.823,10.277,3.87,14.0
85.917,10.163,3.335,27.0
98.38,11.63,3.255,10.0
97.668,11.541,2.66,47.0
97.768,11.547,2.103,31.0
97.722,11.536,1.541,35.0
92.336,10.896,4.003,14.0
91.999,10.849,3.46,18.0
98.338,11.589,3.135,32.0
97.736,11.512,2.545,45.0
97.776,11.51,1.985,17.0
97.765,11.504,1.424,18.0
90.888,10.688,3.832,29.0
91.991,10.81,3.349,33.0
97.627,11.465,2.993,12.0
97.806,11.479,2.428,13.0
149.254,17.507,2.849,13.0
149.754,17.556,2.002,10.0
90.937,10.653,3.723,28.0
99.0,11.589,3.484,14.0
97.481,11.402,2.871,25.0
97.711,11.422,2.308,10.0
149.356,17.448,2.671,12.0
75.541,8.819,0.918,2.0
85.902,10.021,3.412,38.0
97.262,11.336,3.305,16.0
97.797,11.39,2.763,17.0
149.541,17.404,3.353,8.0
149.706,17.412,2.497,13.0
75.483,8.773,0.827,6.0
91.995,10.681,3.545,10.0
97.309,11.288,3.191,23.0
97.775,11.333,2.644,30.0
149.441,17.309,3.172,5.0
149.664,17.322,2.32,13.0
75.314,8.711,0.735,2.0
109.576,12.658,4.091,6.0
115.172,13.292,3.639,20.0
97.847,11.283,2.53,11.0
149.418,17.216,2.992,16.0
149.562,17.22,2.14,14.0
75.227,8.654,0.645,3.0
103.975,11.945,3.757,8.0
115.245,13.227,3.504,19.0
149.594,17.154,3.692,12.0
149.426,17.121,2.815,17.0
0.0,0.0,0.0,0.0
74.955,8.574,0.554,4.0
97.209,11.102,3.398,16.0
97.741,11.151,2.855,11.0
144.103,16.425,3.385,11.0
144.047,16.404,2.546,12.0
76.178,8.668,0.909,1.0
74.882,8.513,0.465,5.0
97.15,11.025,3.282,16.0
97.748,11.081,2.742,31.0
144.074,16.317,3.216,16.0
144.041,16.297,2.376,13.0
76.259,8.62,0.822,2.0
74.983,8.468,0.38,6.0
104.67,11.798,3.413,12.0
97.721,11.003,2.628,14.0
144.04,16.202,3.049,9.0
103.754,11.658,1.592,26.0
76.607,8.599,0.738,3.0
75.253,8.439,0.294,10.0
97.879,10.953,3.079,12.0
104.44,11.674,2.687,15.0
103.812,11.591,2.078,34.0
103.728,11.569,1.473,25.0
76.931,8.572,0.652,4.0
75.492,8.403,0.208,10.0
97.696,10.849,2.961,35.0
103.931,11.527,2.555,41.0
103.799,11.499,1.958,33.0
103.828,11.49,1.355,1.0
81.991,9.063,0.601,3.0
75.998,8.392,0.124,7.0
116.728,12.858,3.405,15.0
103.91,11.431,2.437,56.0
149.823,16.462,2.658,14.0
0.0,0.0,0.0,0.0
82.021,8.991,0.51,1.0
76.527,8.38,0.039,8.0
