X,Y,Z,Reflectivity
9.7,-0.155,-0.945,0.0
9.145,-0.148,-0.944,0.0
12.579,-0.207,-0.948,0.0
11.651,-0.193,-0.946,0.0
10.832,-0.182,-0.942,0.0
10.193,-0.172,-0.947,0.0
9.56,-0.163,-0.944,0.0
9.023,-0.156,-0.944,0.0
12.377,-0.217,-0.949,0.0
11.428,-0.202,-0.943,0.0
10.718,-0.191,-0.946,0.0
10.043,-0.181,-0.946,0.0
9.428,-0.171,-0.943,0.0
8.886,-0.163,-0.941,0.0
12.152,-0.226,-0.948,0.0
11.288,-0.212,-0.946,0.0
10.555,-0.2,-0.946,0.0
9.95,-0.19,-0.95,0.0
9.33,-0.18,-0.945,0.0
8.757,-0.17,-0.938,0.0
11.978,-0.236,-0.949,0.0
11.107,-0.221,-0.944,0.0
10.418,-0.209,-0.946,0.0
9.769,-0.198,-0.945,0.0
9.227,-0.188,-0.946,0.0
8.679,-0.179,-0.94,0.0
11.816,-0.246,-0.95,0.0
10.955,-0.23,-0.944,0.0
10.3,-0.218,-0.948,0.0
9.635,-0.206,-0.943,0.0
9.101,-0.196,-0.944,0.0
8.58,-0.186,-0.94,0.0
11.556,-0.254,-0.943,0.0
10.87,-0.241,-0.95,0.0
10.173,-0.227,-0.948,0.0
9.535,-0.215,-0.944,0.0
8.988,-0.204,-0.942,0.0
8.498,-0.194,-0.941,0.0
11.419,-0.264,-0.944,0.0
10.691,-0.249,-0.946,0.0
10.034,-0.236,-0.946,0.0
9.439,-0.223,-0.945,0.0
8.865,-0.211,-0.939,0.0
8.415,-0.202,-0.941,0.0
11.309,-0.275,-0.947,0.0
10.568,-0.259,-0.946,0.0
9.898,-0.244,-0.944,0.0
9.335,-0.232,-0.945,0.0
8.783,-0.22,-0.94,0.0
8.307,-0.21,-0.937,0.0
11.136,-0.284,-0.945,0.0
10.435,-0.268,-0.945,0.0
9.798,-0.253,-0.944,0.0
9.213,-0.24,-0.942,0.0
8.691,-0.228,-0.939,0.0
8.252,-0.218,-0.939,0.0
11.064,-0.295,-0.949,0.0
10.361,-0.278,-0.949,0.0
9.709,-0.263,-0.945,0.0
9.152,-0.249,-0.945,0.0
8.626,-0.237,-0.94,0.0
8.18,-0.226,-0.939,0.0
10.896,-0.304,-0.945,0.0
10.241,-0.288,-0.948,0.0
9.622,-0.272,-0.946,0.0
9.056,-0.258,-0.943,0.0
8.536,-0.245,-0.939,0.0
8.134,-0.235,-0.941,0.0
10.81,-0.315,-0.948,0.0
10.16,-0.298,-0.949,0.0
9.537,-0.281,-0.946,0.0
8.984,-0.267,-0.944,0.0
8.503,-0.254,-0.943,0.0
8.071,-0.243,-0.941,0.0
10.692,-0.324,-0.947,0.0
10.061,-0.307,-0.949,0.0
9.436,-0.29,-0.944,0.0
8.867,-0.274,-0.939,0.0
8.433,-0.263,-0.942,0.0
7.994,-0.251,-0.939,0.0
10.601,-0.335,-0.948,0.0
9.967,-0.317,-0.948,0.0
9.378,-0.3,-0.946,0.0
8.818,-0.284,-0.941,0.0
8.361,-0.271,-0.941,0.0
7.948,-0.259,-0.94,0.0
10.51,-0.345,-0.948,0.0
9.879,-0.326,-0.948,0.0
9.325,-0.31,-0.948,0.0
8.742,-0.293,-0.94,0.0
8.278,-0.279,-0.938,0.0
7.899,-0.268,-0.94,0.0
10.42,-0.355,-0.947,0.0
9.812,-0.337,-0.948,0.0
9.236,-0.319,-0.946,0.0
8.705,-0.302,-0.942,0.0
8.23,-0.288,-0.938,0.0
7.837,-0.276,-0.939,0.0
10.364,-0.367,-0.95,0.0
9.73,-0.346,-0.947,0.0
9.16,-0.328,-0.944,0.0
8.63,-0.311,-0.94,0.0
8.22,-0.298,-0.943,0.0
7.819,-0.285,-0.942,0.0
10.296,-0.377,-0.95,0.0
9.667,-0.356,-0.947,0.0
9.091,-0.337,-0.943,0.0
8.57,-0.32,-0.939,0.0
8.138,-0.305,-0.938,0.0
7.785,-0.294,-0.943,0.0
10.25,-0.389,-0.952,0.0
9.624,-0.367,-0.949,0.0
9.04,-0.347,-0.943,0.0
8.532,-0.329,-0.94,0.0
8.116,-0.315,-0.941,0.0
7.754,-0.303,-0.943,0.0
10.185,-0.399,-0.952,0.0
9.56,-0.377,-0.948,0.0
8.985,-0.356,-0.942,0.0
8.498,-0.339,-0.941,0.0
8.071,-0.324,-0.94,0.0
7.709,-0.311,-0.942,0.0
10.078,-0.408,-0.947,0.0
9.5,-0.387,-0.947,0.0
8.936,-0.366,-0.942,0.0
8.469,-0.349,-0.942,0.0
8.002,-0.331,-0.936,0.0
7.7,-0.32,-0.945,0.0
10.06,-0.42,-0.95,0.0
9.479,-0.398,-0.949,0.0
8.895,-0.375,-0.942,0.0
8.44,-0.358,-0.942,0.0
7.999,-0.341,-0.939,0.0
7.67,-0.329,-0.944,0.0
9.997,-0.43,-0.949,0.0
9.42,-0.407,-0.947,0.0
8.903,-0.387,-0.946,0.0
8.377,-0.366,-0.939,0.0
7.995,-0.351,-0.942,0.0
7.637,-0.337,-0.943,0.0
9.968,-0.442,-0.95,0.0
9.38,-0.418,-0.947,0.0
8.823,-0.395,-0.941,0.0
8.351,-0.376,-0.939,0.0
7.969,-0.36,-0.942,0.0
7.606,-0.346,-0.942,0.0
9.929,-0.452,-0.949,0.0
9.339,-0.428,-0.946,0.0
8.809,-0.405,-0.942,0.0
8.333,-0.385,-0.94,0.0
7.945,-0.369,-0.941,0.0
7.597,-0.355,-0.943,0.0
9.905,-0.464,-0.95,0.0
9.322,-0.439,-0.947,0.0
8.781,-0.415,-0.942,0.0
8.296,-0.394,-0.938,0.0
7.929,-0.379,-0.941,0.0
7.582,-0.364,-0.944,0.0
9.861,-0.474,-0.948,0.0
9.311,-0.45,-0.948,0.0
8.783,-0.427,-0.944,0.0
8.287,-0.404,-0.939,0.0
7.921,-0.388,-0.942,0.0
7.574,-0.373,-0.944,0.0
9.852,-0.486,-0.949,0.0
9.301,-0.461,-0.949,0.0
8.767,-0.437,-0.944,0.0
8.279,-0.414,-0.939,0.0
7.905,-0.398,-0.942,0.0
7.557,-0.382,-0.943,0.0
9.844,-0.498,-0.95,0.0
9.293,-0.473,-0.949,0.0
8.765,-0.448,-0.945,0.0
8.262,-0.424,-0.939,0.0
7.898,-0.407,-0.942,0.0
7.56,-0.392,-0.945,0.0
9.817,-0.509,-0.949,0.0
9.275,-0.483,-0.949,0.0
8.762,-0.459,-0.946,0.0
8.26,-0.434,-0.939,0.0
7.901,-0.417,-0.943,0.0
7.545,-0.4,-0.943,0.0
9.828,-0.522,-0.95,0.0
9.278,-0.495,-0.949,0.0
8.744,-0.468,-0.944,0.0
8.26,-0.445,-0.939,0.0
7.915,-0.428,-0.945,0.0
7.545,-0.41,-0.944,0.0
9.849,-0.535,-0.953,0.0
9.29,-0.507,-0.951,0.0
8.753,-0.48,-0.945,0.0
8.252,-0.454,-0.938,0.0
7.897,-0.437,-0.943,0.0
7.567,-0.42,-0.946,0.0
9.831,-0.546,-0.951,0.0
9.274,-0.517,-0.949,0.0
8.726,-0.489,-0.942,0.0
8.294,-0.467,-0.943,0.0
7.911,-0.447,-0.944,0.0
7.566,-0.429,-0.946,0.0
9.906,-0.562,-0.958,0.0
9.295,-0.53,-0.95,0.0
8.77,-0.502,-0.946,0.0
8.285,-0.476,-0.941,0.0
7.917,-0.457,-0.944,0.0
7.552,-0.438,-0.943,0.0
9.878,-0.572,-0.954,0.0
9.293,-0.541,-0.949,0.0
8.772,-0.512,-0.945,0.0
8.311,-0.487,-0.943,0.0
7.903,-0.465,-0.941,0.0
7.583,-0.448,-0.946,0.0
9.867,-0.583,-0.951,0.0
9.319,-0.553,-0.95,0.0
8.77,-0.523,-0.943,0.0
8.327,-0.498,-0.943,0.0
7.911,-0.475,-0.941,0.0
7.582,-0.457,-0.944,0.0
9.897,-0.597,-0.952,0.0
9.356,-0.566,-0.952,0.0
8.803,-0.535,-0.945,0.0
8.325,-0.508,-0.941,0.0
7.93,-0.485,-0.941,0.0
7.607,-0.467,-0.946,0.0
9.939,-0.61,-0.954,0.0
9.388,-0.579,-0.953,0.0
8.85,-0.548,-0.948,0.0
8.338,-0.518,-0.941,0.0
7.972,-0.497,-0.944,0.0
7.615,-0.477,-0.945,0.0
9.962,-0.623,-0.953,0.0
9.418,-0.591,-0.954,0.0
8.85,-0.558,-0.945,0.0
8.4,-0.531,-0.945,0.0
7.984,-0.507,-0.943,0.0
7.632,-0.486,-0.944,0.0
10.018,-0.638,-0.955,0.0
9.476,-0.605,-0.956,0.0
8.897,-0.57,-0.947,0.0
8.423,-0.542,-0.945,0.0
7.996,-0.516,-0.942,0.0
7.647,-0.496,-0.943,0.0
10.04,-0.65,-0.954,0.0
9.479,-0.616,-0.953,0.0
8.933,-0.582,-0.948,0.0
8.458,-0.553,-0.945,0.0
8.015,-0.526,-0.941,0.0
7.667,-0.505,-0.943,0.0
10.107,-0.665,-0.956,0.0
9.512,-0.628,-0.952,0.0
8.994,-0.596,-0.95,0.0
8.482,-0.564,-0.944,0.0
8.061,-0.538,-0.942,0.0
7.718,-0.517,-0.945,0.0
10.124,-0.677,-0.953,0.0
9.579,-0.643,-0.955,0.0
9.052,-0.609,-0.952,0.0
8.543,-0.577,-0.947,0.0
8.079,-0.547,-0.941,0.0
7.767,-0.528,-0.948,0.0
10.2,-0.693,-0.955,0.0
9.631,-0.656,-0.955,0.0
9.088,-0.621,-0.952,0.0
8.606,-0.59,-0.95,0.0
8.148,-0.56,-0.944,0.0
7.783,-0.537,-0.945,0.0
10.251,-0.706,-0.955,0.0
9.688,-0.67,-0.956,0.0
9.15,-0.634,-0.953,0.0
8.611,-0.599,-0.945,0.0
8.189,-0.571,-0.944,0.0
7.836,-0.549,-0.947,0.0
10.3,-0.72,-0.953,0.0
9.728,-0.682,-0.954,0.0
9.208,-0.647,-0.954,0.0
8.68,-0.612,-0.948,0.0
8.236,-0.583,-0.945,0.0
7.881,-0.559,-0.948,0.0
10.436,-0.739,-0.96,0.0
9.804,-0.697,-0.955,0.0
9.244,-0.659,-0.952,0.0
8.765,-0.626,-0.951,0.0
8.285,-0.594,-0.945,0.0
7.89,-0.567,-0.944,0.0
10.471,-0.752,-0.956,0.0
9.901,-0.713,-0.958,0.0
9.324,-0.673,-0.954,0.0
8.799,-0.637,-0.949,0.0
8.35,-0.606,-0.947,0.0
7.943,-0.578,-0.945,0.0
10.52,-0.765,-0.953,0.0
9.975,-0.727,-0.958,0.0
9.407,-0.688,-0.955,0.0
8.86,-0.649,-0.95,0.0
8.389,-0.616,-0.945,0.0
7.996,-0.589,-0.945,0.0
10.662,-0.784,-0.958,0.0
10.055,-0.742,-0.959,0.0
9.443,-0.698,-0.952,0.0
8.925,-0.662,-0.95,0.0
8.476,-0.63,-0.949,0.0
8.039,-0.599,-0.944,0.0
10.751,-0.8,-0.958,0.0
10.12,-0.755,-0.957,0.0
9.557,-0.715,-0.956,0.0
9.035,-0.677,-0.954,0.0
8.537,-0.642,-0.949,0.0
8.089,-0.61,-0.943,0.0
10.775,-0.811,-0.952,0.0
10.223,-0.771,-0.959,0.0
9.607,-0.726,-0.953,0.0
9.055,-0.686,-0.949,0.0
8.62,-0.655,-0.951,0.0
8.186,-0.624,-0.948,0.0
10.969,-0.834,-0.96,0.0
10.292,-0.784,-0.957,0.0
9.737,-0.744,-0.958,0.0
9.186,-0.703,-0.955,0.0
8.684,-0.666,-0.95,0.0
8.225,-0.633,-0.945,0.0
11.061,-0.849,-0.958,0.0
10.414,-0.801,-0.959,0.0
9.833,-0.758,-0.959,0.0
9.297,-0.719,-0.958,0.0
8.774,-0.68,-0.952,0.0
8.313,-0.646,-0.948,0.0
11.144,-0.864,-0.955,0.0
10.511,-0.816,-0.958,0.0
9.896,-0.77,-0.956,0.0
9.383,-0.732,-0.958,0.0
8.865,-0.693,-0.954,0.0
8.378,-0.657,-0.947,0.0
11.279,-0.882,-0.956,0.0
10.639,-0.834,-0.96,0.0
9.995,-0.785,-0.956,0.0
9.474,-0.746,-0.959,0.0
8.923,-0.704,-0.952,0.0
8.466,-0.669,-0.949,0.0
11.46,-0.904,-0.961,0.0
10.657,-0.842,-0.951,0.0
10.181,-0.806,-0.964,0.0
9.539,-0.757,-0.956,0.0
9.049,-0.719,-0.956,0.0
8.578,-0.683,-0.953,0.0
11.584,-0.921,-0.96,0.0
10.91,-0.869,-0.963,0.0
10.239,-0.817,-0.959,0.0
9.653,-0.772,-0.958,0.0
9.153,-0.733,-0.958,0.0
8.676,-0.696,-0.955,0.0
11.771,-0.943,-0.963,0.0
11.029,-0.885,-0.962,0.0
10.345,-0.831,-0.958,0.0
9.802,-0.789,-0.962,0.0
9.246,-0.746,-0.957,0.0
8.748,-0.707,-0.954,0.0
11.947,-0.963,-0.965,0.0
11.153,-0.901,-0.961,0.0
10.512,-0.85,-0.962,0.0
9.903,-0.803,-0.961,0.0
9.365,-0.76,-0.96,0.0
8.823,-0.718,-0.952,0.0
12.097,-0.982,-0.964,0.0
11.241,-0.914,-0.956,0.0
10.604,-0.863,-0.959,0.0
9.971,-0.813,-0.957,0.0
9.473,-0.774,-0.96,0.0
8.949,-0.732,-0.955,0.0
12.288,-1.003,-0.965,0.0
11.488,-0.939,-0.964,0.0
10.751,-0.88,-0.96,0.0
10.13,-0.831,-0.961,0.0
9.612,-0.79,-0.963,0.0
9.047,-0.744,-0.956,0.0
12.554,-1.031,-0.972,0.0
11.651,-0.958,-0.965,0.0
10.899,-0.897,-0.961,0.0
10.246,-0.845,-0.96,0.0
9.689,-0.8,-0.96,0.0
9.186,-0.759,-0.96,0.0
12.676,-1.046,-0.967,0.0
11.843,-0.978,-0.967,0.0
11.037,-0.913,-0.96,0.0
10.372,-0.859,-0.959,0.0
9.801,-0.813,-0.959,0.0
9.315,-0.774,-0.962,0.0
12.831,-1.063,-0.963,0.0
11.995,-0.995,-0.965,0.0
11.19,-0.929,-0.96,0.0
10.49,-0.872,-0.957,0.0
9.948,-0.829,-0.961,0.0
9.419,-0.786,-0.961,0.0
13.153,-1.094,-0.971,0.0
12.259,-1.021,-0.971,0.0
11.393,-0.95,-0.963,0.0
10.644,-0.889,-0.958,0.0
10.147,-0.848,-0.968,0.0
9.548,-0.799,-0.962,0.0
13.454,-1.123,-0.977,0.0
12.585,-1.052,-0.981,0.0
11.618,-0.972,-0.968,0.0
10.786,-0.903,-0.957,0.0
10.281,-0.862,-0.968,0.0
9.69,-0.813,-0.964,0.0
13.955,-1.169,-0.995,0.0
12.657,-1.061,-0.97,0.0
11.784,-0.989,-0.966,0.0
11.029,-0.926,-0.965,0.0
10.367,-0.872,-0.962,0.0
9.85,-0.829,-0.967,0.0
14.05,-1.18,-0.984,0.0
12.798,-1.075,-0.965,0.0
12.019,-1.011,-0.97,0.0
11.125,-0.936,-0.958,0.0
10.532,-0.887,-0.964,0.0
9.939,-0.838,-0.963,0.0
14.07,-1.184,-0.967,1.0
13.161,-1.108,-0.975,0.0
12.159,-1.025,-0.965,0.0
11.415,-0.963,-0.968,0.0
10.681,-0.901,-0.963,0.0
10.069,-0.851,-0.962,0.0
14.059,-1.185,-0.948,1.0
13.479,-1.137,-0.98,0.0
12.391,-1.045,-0.967,0.0
11.63,-0.982,-0.971,0.0
10.827,-0.915,-0.962,0.0
10.255,-0.867,-0.966,0.0
14.076,-1.188,-0.93,1.0
13.975,-1.18,-0.998,0.0
12.634,-1.067,-0.969,0.0
11.773,-0.995,-0.967,0.0
11.047,-0.934,-0.966,0.0
10.391,-0.879,-0.964,0.0
14.06,-1.187,-0.91,1.0
14.043,-1.186,-0.983,1.0
12.877,-1.088,-0.97,0.0
12.011,-1.015,-0.97,0.0
11.174,-0.945,-0.962,0.0
10.582,-0.895,-0.967,0.0
14.064,-1.187,-0.891,1.0
14.062,-1.187,-0.965,1.0
13.141,-1.11,-0.972,0.0
12.154,-1.027,-0.964,0.0
11.377,-0.962,-0.963,0.0
10.674,-0.903,-0.961,0.0
14.065,-1.187,-0.871,1.0
14.05,-1.186,-0.944,1.0
13.634,-1.151,-0.988,0.0
12.439,-1.05,-0.969,0.0
11.688,-0.987,-0.973,0.0
10.944,-0.925,-0.969,0.0
14.118,-1.19,-0.854,0.0
14.064,-1.186,-0.925,1.0
14.005,-1.181,-0.996,0.0
12.73,-1.074,-0.974,0.0
11.852,-1.0,-0.969,0.0
11.104,-0.937,-0.967,0.0
14.361,-1.209,-0.848,0.0
14.051,-1.183,-0.904,1.0
14.065,-1.184,-0.98,1.0
12.934,-1.089,-0.971,0.0
12.103,-1.019,-0.973,0.0
11.303,-0.952,-0.968,0.0
14.606,-1.227,-0.842,0.0
14.07,-1.182,-0.885,1.0
14.057,-1.181,-0.959,1.0
13.286,-1.116,-0.978,0.0
12.326,-1.035,-0.973,0.0
11.483,-0.965,-0.967,0.0
14.906,-1.249,-0.838,0.0
14.097,-1.181,-0.866,1.0
14.088,-1.18,-0.94,1.0
13.871,-1.162,-1.001,0.0
12.671,-1.061,-0.981,0.0
11.745,-0.984,-0.972,0.0
15.239,-1.273,-0.834,1.0
14.226,-1.188,-0.854,0.0
14.066,-1.175,-0.918,1.0
14.036,-1.172,-0.992,0.0
12.767,-1.066,-0.97,0.0
11.961,-0.998,-0.972,0.0
15.489,-1.29,-0.825,1.0
14.517,-1.208,-0.85,0.0
14.093,-1.172,-0.899,1.0
14.082,-1.171,-0.974,1.0
13.108,-1.09,-0.976,0.0
12.201,-1.014,-0.973,0.0
15.723,-1.304,-0.815,1.0
14.748,-1.222,-0.842,0.0
14.105,-1.168,-0.879,1.0
14.092,-1.167,-0.954,1.0
13.456,-1.114,-0.982,0.0
12.482,-1.033,-0.977,0.0
16.041,-1.324,-0.807,1.0
15.064,-1.243,-0.837,0.0
14.163,-1.168,-0.862,1.0
14.102,-1.162,-0.934,1.0
14.007,-1.154,-1.002,0.0
12.67,-1.043,-0.973,0.0
16.385,-1.346,-0.8,1.0
15.335,-1.259,-0.83,1.0
14.357,-1.177,-0.852,0.0
14.115,-1.157,-0.914,1.0
14.093,-1.154,-0.987,0.0
12.888,-1.055,-0.971,0.0
16.742,-1.367,-0.793,1.0
15.617,-1.274,-0.822,1.0
14.624,-1.192,-0.846,0.0
14.125,-1.15,-0.894,1.0
14.142,-1.151,-0.969,1.0
13.411,-1.091,-0.99,0.0
17.233,-1.398,-0.791,0.0
15.904,-1.289,-0.813,1.0
14.925,-1.209,-0.842,0.0
14.147,-1.145,-0.874,1.0
14.158,-1.145,-0.949,1.0
13.858,-1.119,-1.002,0.0
17.745,-1.43,-0.787,0.0
16.281,-1.311,-0.808,1.0
15.225,-1.224,-0.836,1.0
14.272,-1.147,-0.86,0.0
14.166,-1.137,-0.928,1.0
14.078,-1.129,-0.997,0.0
18.353,-1.468,-0.787,1.0
16.601,-1.326,-0.799,1.0
15.532,-1.24,-0.829,1.0
14.525,-1.158,-0.853,0.0
14.181,-1.129,-0.908,1.0
14.178,-1.127,-0.982,0.0
18.87,-1.497,-0.781,0.0
17.041,-1.35,-0.794,1.0
15.738,-1.245,-0.816,1.0
14.798,-1.169,-0.847,1.0
14.216,-1.122,-0.889,1.0
14.2,-1.119,-0.962,1.0
19.541,-1.537,-0.779,0.0
17.553,-1.379,-0.792,0.0
16.188,-1.27,-0.815,1.0
15.122,-1.184,-0.843,1.0
14.245,-1.114,-0.869,1.0
14.242,-1.112,-0.943,1.0
20.173,-1.572,-0.774,2.0
18.194,-1.416,-0.793,1.0
16.485,-1.281,-0.806,2.0
15.353,-1.191,-0.832,1.0
14.473,-1.121,-0.861,0.0
14.255,-1.102,-0.923,1.0
20.744,-1.601,-0.765,1.0
18.554,-1.429,-0.781,1.0
16.935,-1.302,-0.802,1.0
15.664,-1.203,-0.826,1.0
14.698,-1.126,-0.852,1.0
14.284,-1.093,-0.904,1.0
21.5,-1.642,-0.761,1.0
19.328,-1.473,-0.785,0.0
17.266,-1.313,-0.792,2.0
15.912,-1.208,-0.815,0.0
15.045,-1.14,-0.85,1.0
14.323,-1.084,-0.885,1.0
22.214,-1.677,-0.753,1.0
19.912,-1.501,-0.779,2.0
17.869,-1.344,-0.793,1.0
16.321,-1.225,-0.812,1.0
15.269,-1.144,-0.84,1.0
14.386,-1.076,-0.867,1.0
23.47,-1.751,-0.761,5.0
20.538,-1.529,-0.773,2.0
18.387,-1.366,-0.789,1.0
16.905,-1.253,-0.816,2.0
15.551,-1.15,-0.832,0.0
14.592,-1.077,-0.858,0.0
23.794,-1.753,-0.736,19.0
21.197,-1.558,-0.767,2.0
19.03,-1.395,-0.788,1.0
17.15,-1.254,-0.802,8.0
15.815,-1.154,-0.823,0.0
14.879,-1.084,-0.853,0.0
23.996,-1.744,-0.707,14.0
21.848,-1.584,-0.758,1.0
19.716,-1.426,-0.788,1.0
17.556,-1.267,-0.796,1.0
16.215,-1.167,-0.82,1.0
15.193,-1.091,-0.849,1.0
24.437,-1.752,-0.685,15.0
22.81,-1.631,-0.759,1.0
20.198,-1.44,-0.778,1.0
18.12,-1.288,-0.795,2.0
16.513,-1.171,-0.811,1.0
15.398,-1.089,-0.838,0.0
24.654,-1.741,-0.655,6.0
23.655,-1.666,-0.753,8.0
20.792,-1.46,-0.771,0.0
18.684,-1.308,-0.793,0.0
16.931,-1.182,-0.807,1.0
15.695,-1.093,-0.831,1.0
24.581,-1.709,-0.618,7.0
23.877,-1.655,-0.726,13.0
21.567,-1.49,-0.769,0.0
19.28,-1.329,-0.791,0.0
17.348,-1.192,-0.803,1.0
15.973,-1.094,-0.823,1.0
24.519,-1.676,-0.582,20.0
24.195,-1.649,-0.701,16.0
22.336,-1.518,-0.764,1.0
19.906,-1.348,-0.788,0.0
17.945,-1.212,-0.805,0.0
16.257,-1.095,-0.815,1.0
24.472,-1.644,-0.546,28.0
24.399,-1.634,-0.673,21.0
23.455,-1.566,-0.77,5.0
20.452,-1.361,-0.781,1.0
18.361,-1.218,-0.798,1.0
16.666,-1.102,-0.812,1.0
24.491,-1.616,-0.512,37.0
24.419,-1.605,-0.639,27.0
23.788,-1.559,-0.747,12.0
20.995,-1.371,-0.772,0.0
18.904,-1.23,-0.795,1.0
17.113,-1.11,-0.81,1.0
24.498,-1.585,-0.478,43.0
24.425,-1.575,-0.605,29.0
23.981,-1.541,-0.72,15.0
21.867,-1.4,-0.774,0.0
19.498,-1.244,-0.793,0.0
17.594,-1.118,-0.808,0.0
24.501,-1.553,-0.444,52.0
24.456,-1.545,-0.572,35.0
24.284,-1.528,-0.696,18.0
22.625,-1.418,-0.77,1.0
20.081,-1.255,-0.789,0.0
18.24,-1.135,-0.813,2.0
24.499,-1.521,-0.411,64.0
24.47,-1.513,-0.54,43.0
24.362,-1.5,-0.665,27.0
23.589,-1.447,-0.771,5.0
20.806,-1.271,-0.79,2.0
18.59,-1.131,-0.804,1.0
24.503,-1.487,-0.379,63.0
24.475,-1.479,-0.507,67.0
24.41,-1.469,-0.634,29.0
23.804,-1.427,-0.746,13.0
21.31,-1.272,-0.78,1.0
19.11,-1.136,-0.8,1.0
24.523,-1.454,-0.346,88.0
24.496,-1.446,-0.475,45.0
24.449,-1.436,-0.603,36.0
23.98,-1.403,-0.72,14.0
21.945,-1.278,-0.775,0.0
19.568,-1.135,-0.794,1.0
24.527,-1.419,-0.315,72.0
24.514,-1.411,-0.443,52.0
24.488,-1.403,-0.572,33.0
24.269,-1.384,-0.698,17.0
22.671,-1.287,-0.772,1.0
20.294,-1.147,-0.798,2.0
24.545,-1.383,-0.283,46.0
24.541,-1.376,-0.413,42.0
24.527,-1.369,-0.542,41.0
24.393,-1.355,-0.67,16.0
23.606,-1.304,-0.773,5.0
20.856,-1.147,-0.793,2.0
24.579,-1.348,-0.252,24.0
24.566,-1.34,-0.382,28.0
24.534,-1.331,-0.511,26.0
24.461,-1.321,-0.641,26.0
23.826,-1.28,-0.751,14.0
21.296,-1.138,-0.784,1.0
54.086,-2.882,-0.489,2.0
38.003,-2.015,-0.545,2.0
30.969,-1.633,-0.607,27.0
24.547,-1.287,-0.614,8.0
23.991,-1.251,-0.727,17.0
22.042,-1.144,-0.784,1.0
56.843,-2.939,-0.446,8.0
42.599,-2.191,-0.559,3.0
31.171,-1.594,-0.574,26.0
30.401,-1.546,-0.724,9.0
24.308,-1.229,-0.707,15.0
22.544,-1.134,-0.776,2.0
65.617,-3.288,-0.437,2.0
31.325,-1.561,-0.374,0.0
31.213,-1.546,-0.538,25.0
30.539,-1.503,-0.691,25.0
24.628,-1.205,-0.688,5.0
23.547,-1.145,-0.782,5.0
31.305,-1.517,-0.172,16.0
31.228,-1.504,-0.337,38.0
31.2,-1.493,-0.502,43.0
30.601,-1.455,-0.657,30.0
27.998,-1.324,-0.75,2.0
23.79,-1.117,-0.763,14.0
31.226,-1.461,-0.136,40.0
31.189,-1.45,-0.301,46.0
31.198,-1.441,-0.466,57.0
30.753,-1.411,-0.626,32.0
28.571,-1.302,-0.733,4.0
23.911,-1.082,-0.74,16.0
31.231,-1.408,-0.101,68.0
31.182,-1.396,-0.266,49.0
31.179,-1.387,-0.432,28.0
28.475,-1.257,-0.548,54.0
28.464,-1.248,-0.699,55.0
24.309,-1.059,-0.726,17.0
28.456,-1.234,-0.061,66.0
28.455,-1.225,-0.212,61.0
28.425,-1.215,-0.363,91.0
28.451,-1.207,-0.517,121.0
28.463,-1.198,-0.669,137.0
25.017,-1.045,-0.721,8.0
28.445,-1.183,-0.031,110.0
28.447,-1.174,-0.182,113.0
28.451,-1.165,-0.333,150.0
28.438,-1.156,-0.487,85.0
28.449,-1.147,-0.639,63.0
28.169,-1.127,-0.782,2.0
28.461,-1.132,-0.001,70.0
28.472,-1.124,-0.153,62.0
28.475,-1.114,-0.304,54.0
31.25,-1.213,-0.504,23.0
30.588,-1.178,-0.656,33.0
28.416,-1.085,-0.76,2.0
31.291,-1.188,0.029,63.0
31.34,-1.18,-0.137,64.0
31.375,-1.171,-0.304,25.0
31.36,-1.161,-0.474,19.0
30.75,-1.128,-0.629,30.0
29.037,-1.056,-0.749,1.0
80.416,-2.908,0.153,27.0
80.6,-2.888,-0.276,11.0
54.05,-1.918,-0.472,3.0
38.434,-1.352,-0.545,13.0
31.054,-1.082,-0.606,30.0
30.324,-1.047,-0.754,8.0
80.468,-2.759,0.229,30.0
81.129,-2.756,-0.201,10.0
38.74,-1.303,-0.303,23.0
38.573,-1.284,-0.511,20.0
31.357,-1.034,-0.583,22.0
30.441,-0.994,-0.729,32.0
38.705,-1.255,0.145,53.0
38.69,-1.241,-0.061,59.0
38.664,-1.227,-0.267,54.0
38.602,-1.212,-0.477,32.0
37.876,-1.177,-0.671,9.0
30.52,-0.938,-0.704,32.0
38.652,-1.179,0.179,70.0
38.683,-1.167,-0.027,80.0
38.664,-1.153,-0.234,102.0
38.62,-1.139,-0.444,44.0
37.961,-1.106,-0.639,22.0
30.589,-0.881,-0.679,32.0
38.659,-1.105,0.212,91.0
38.657,-1.091,0.005,75.0
38.647,-1.078,-0.201,67.0
38.657,-1.064,-0.412,41.0
38.097,-1.037,-0.61,15.0
30.739,-0.826,-0.657,32.0
38.678,-1.03,0.243,61.0
38.687,-1.017,0.036,44.0
38.722,-1.005,-0.17,36.0
38.749,-0.992,-0.382,32.0
38.341,-0.969,-0.584,17.0
31.052,-0.774,-0.639,28.0
40.43,-0.997,0.286,25.0
40.417,-0.983,0.069,34.0
40.417,-0.969,-0.147,38.0
40.413,-0.955,-0.368,50.0
38.485,-0.896,-0.557,22.0
31.366,-0.72,-0.622,17.0
40.439,-0.917,0.317,152.0
40.418,-0.903,0.099,30.0
38.371,-0.844,-0.111,7.0
38.366,-0.83,-0.321,25.0
38.345,-0.816,-0.527,60.0
31.56,-0.661,-0.603,3.0
52.932,-1.094,0.453,20.0
52.942,-1.075,0.168,63.0
52.929,-1.057,-0.116,63.0
45.62,-0.895,-0.349,18.0
44.92,-0.865,-0.586,37.0
0.0,0.0,0.0,0.0
53.115,-0.989,0.491,0.0
20.164,-0.368,0.078,1.0
20.133,-0.361,-0.03,26.0
52.953,-0.93,-0.37,34.0
45.047,-0.776,-0.558,29.0
37.937,-0.64,-0.674,20.0
20.144,-0.334,0.199,6.0
20.135,-0.327,0.09,28.0
20.125,-0.319,-0.017,20.0
59.431,-0.923,-0.378,11.0
45.235,-0.687,-0.532,18.0
38.048,-0.564,-0.653,25.0
20.125,-0.292,0.211,15.0
20.143,-0.285,0.103,9.0
59.514,-0.823,-0.016,80.0
56.509,-0.762,-0.326,5.0
52.717,-0.692,-0.589,3.0
38.212,-0.488,-0.633,13.0
20.156,-0.251,0.223,11.0
56.184,-0.681,0.319,2.0
56.265,-0.662,0.016,2.0
56.239,-0.642,-0.293,1.0
52.617,-0.582,-0.559,6.0
38.503,-0.412,-0.617,14.0
64.329,-0.669,0.748,70.0
53.376,-0.535,0.332,1.0
56.213,-0.545,0.045,3.0
56.343,-0.526,-0.264,1.0
20.182,-0.181,-0.204,2.0
20.164,-0.174,-0.313,24.0
58.324,-0.484,0.708,9.0
58.311,-0.464,0.392,12.0
20.155,-0.153,0.026,14.0
20.148,-0.145,-0.084,19.0
20.14,-0.138,-0.193,15.0
20.136,-0.131,-0.303,35.0
20.125,-0.125,0.253,19.0
20.123,-0.118,0.144,19.0
20.137,-0.11,0.035,30.0
20.143,-0.103,-0.075,29.0
20.145,-0.096,-0.184,37.0
20.138,-0.089,-0.294,36.0
20.12,-0.082,0.262,28.0
20.117,-0.075,0.153,29.0
20.138,-0.068,0.044,38.0
20.135,-0.061,-0.067,33.0
20.145,-0.054,-0.176,33.0
20.161,-0.047,-0.286,25.0
20.113,-0.04,0.27,27.0
20.118,-0.033,0.161,32.0
20.13,-0.026,0.051,32.0
20.164,-0.018,-0.059,19.0
20.206,-0.011,-0.169,14.0
20.232,-0.004,-0.28,14.0
20.125,0.002,0.277,29.0
20.129,0.009,0.168,27.0
20.183,0.016,0.058,28.0
20.26,0.023,-0.053,150.0
20.262,0.03,-0.163,80.0
55.066,0.103,-0.744,5.0
20.148,0.045,0.284,29.0
20.138,0.052,0.174,28.0
20.184,0.059,0.065,28.0
20.211,0.066,-0.046,34.0
20.188,0.073,-0.156,28.0
20.2,0.08,-0.267,15.0
20.155,0.088,0.29,30.0
20.157,0.095,0.18,28.0
20.189,0.102,0.07,34.0
20.178,0.109,-0.041,29.0
20.176,0.116,-0.151,44.0
20.188,0.123,-0.261,34.0
20.177,0.131,0.296,26.0
20.183,0.138,0.185,23.0
20.231,0.146,0.075,29.0
20.217,0.152,-0.036,22.0
20.187,0.159,-0.147,25.0
20.176,0.166,-0.257,32.0
20.279,0.175,0.301,31.0
20.31,0.183,0.191,29.0
20.322,0.19,0.08,33.0
20.306,0.197,-0.033,12.0
20.242,0.203,-0.143,1.0
20.183,0.21,-0.253,23.0
20.292,0.219,0.305,29.0
20.315,0.226,0.194,22.0
20.301,0.233,0.083,1.0
99.627,1.183,-0.146,1.0
0.0,0.0,0.0,0.0
20.187,0.253,-0.251,0.0
20.32,0.263,0.308,3.0
0.0,0.0,0.0,0.0
99.593,1.361,0.42,6.0
99.538,1.395,-0.135,1.0
0.0,0.0,0.0,0.0
0.0,0.0,0.0,0.0
194.763,2.948,2.978,25.0
0.0,0.0,0.0,0.0
99.755,1.578,0.43,5.0
99.893,1.615,-0.127,2.0
0.0,0.0,0.0,0.0
0.0,0.0,0.0,0.0
194.803,3.364,2.991,24.0
0.0,0.0,0.0,0.0
99.831,1.793,0.435,6.0
0.0,0.0,0.0,0.0
0.0,0.0,0.0,0.0
0.0,0.0,0.0,0.0
199.763,3.88,3.071,5.0
0.0,0.0,0.0,0.0
99.968,2.009,0.436,6.0
99.979,2.043,-0.123,10.0
0.0,0.0,0.0,0.0
0.0,0.0,0.0,0.0
195.391,4.209,3.001,18.0
0.0,0.0,0.0,0.0
100.094,2.224,0.434,2.0
100.122,2.26,-0.127,11.0
0.0,0.0,0.0,0.0
0.0,0.0,0.0,0.0
195.08,4.616,2.986,24.0
0.0,0.0,0.0,0.0
100.281,2.442,0.428,1.0
0.0,0.0,0.0,0.0
0.0,0.0,0.0,0.0
0.0,0.0,0.0,0.0
195.418,5.044,2.973,19.0
0.0,0.0,0.0,0.0
103.127,2.732,0.43,1.0
0.0,0.0,0.0,0.0
69.127,1.877,-0.482,1.0
0.0,0.0,0.0,0.0
195.449,5.459,2.948,16.0
0.0,0.0,0.0,0.0
196.149,5.607,0.79,20.0
0.0,0.0,0.0,0.0
68.981,2.018,-0.492,5.0
0.0,0.0,0.0,0.0
0.0,0.0,0.0,0.0
0.0,0.0,0.0,0.0
196.308,6.027,0.755,27.0
0.0,0.0,0.0,0.0
68.721,2.155,-0.503,0.0
0.0,0.0,0.0,0.0
195.229,6.276,2.873,8.0
0.0,0.0,0.0,0.0
196.353,6.442,0.713,20.0
0.0,0.0,0.0,0.0
69.077,2.311,-0.521,1.0
0.0,0.0,0.0,0.0
196.035,6.71,2.838,22.0
202.863,7.01,1.812,15.0
196.493,6.854,0.664,22.0
0.0,0.0,0.0,0.0
68.988,2.452,-0.539,5.0
0.0,0.0,0.0,0.0
195.931,7.118,2.782,8.0
196.358,7.197,1.698,13.0
196.605,7.266,0.608,6.0
0.0,0.0,0.0,0.0
68.991,2.594,-0.56,4.0
0.0,0.0,0.0,0.0
0.0,0.0,0.0,0.0
196.697,7.613,1.638,13.0
196.722,7.678,0.544,9.0
0.0,0.0,0.0,0.0
0.0,0.0,0.0,0.0
0.0,0.0,0.0,0.0
0.0,0.0,0.0,0.0
196.656,8.015,1.567,22.0
196.803,8.081,0.474,11.0
0.0,0.0,0.0,0.0
69.13,2.883,-0.61,0.0
0.0,0.0,0.0,0.0
0.0,0.0,0.0,0.0
196.619,8.413,1.491,16.0
195.516,8.426,0.392,5.0
0.0,0.0,0.0,0.0
68.853,3.01,-0.636,0.0
0.0,0.0,0.0,0.0
204.998,9.122,2.61,63.0
196.771,8.817,1.408,38.0
0.0,0.0,0.0,0.0
0.0,0.0,0.0,0.0
0.0,0.0,0.0,0.0
0.0,0.0,0.0,0.0
205.199,9.543,2.519,9.0
197.049,9.222,1.319,30.0
0.0,0.0,0.0,0.0
0.0,0.0,0.0,0.0
0.0,0.0,0.0,0.0
0.0,0.0,0.0,0.0
197.925,9.598,2.333,8.0
197.13,9.615,1.222,28.0
0.0,0.0,0.0,0.0
0.0,0.0,0.0,0.0
0.0,0.0,0.0,0.0
0.0,0.0,0.0,0.0
206.238,10.403,2.324,6.0
197.154,10.001,1.118,31.0
0.0,0.0,0.0,0.0
0.0,0.0,0.0,0.0
0.0,0.0,0.0,0.0
42.549,2.208,-0.715,0.0
206.766,10.83,2.215,19.0
197.248,10.387,1.008,24.0
0.0,0.0,0.0,0.0
0.0,0.0,0.0,0.0
0.0,0.0,0.0,0.0
42.279,2.275,-0.735,0.0
196.073,10.646,1.985,150.0
196.066,10.702,0.886,59.0
0.0,0.0,0.0,0.0
0.0,0.0,0.0,0.0
0.0,0.0,0.0,0.0
0.0,0.0,0.0,0.0
207.59,11.665,1.973,19.0
197.512,11.155,0.768,25.0
0.0,0.0,0.0,0.0
68.96,3.932,-0.512,4.0
0.0,0.0,0.0,0.0
40.461,2.33,-0.755,0.0
197.8,11.486,1.75,5.0
197.492,11.523,0.638,24.0
0.0,0.0,0.0,0.0
68.905,4.057,-0.558,2.0
0.0,0.0,0.0,0.0
0.0,0.0,0.0,0.0
197.454,11.831,1.611,8.0
197.597,11.891,0.503,6.0
0.0,0.0,0.0,0.0
0.0,0.0,0.0,0.0
0.0,0.0,0.0,0.0
0.0,0.0,0.0,0.0
155.445,9.6,1.157,139.0
155.217,9.628,0.281,6.0
0.0,0.0,0.0,0.0
0.0,0.0,0.0,0.0
0.0,0.0,0.0,0.0
38.034,2.4,-0.791,0.0
0.0,0.0,0.0,0.0
0.0,0.0,0.0,0.0
0.0,0.0,0.0,0.0
0.0,0.0,0.0,0.0
0.0,0.0,0.0,0.0
36.909,2.394,-0.796,0.0
155.07,10.136,0.915,5.0
0.0,0.0,0.0,0.0
0.0,0.0,0.0,0.0
0.0,0.0,0.0,0.0
42.668,2.832,-0.714,0.0
35.279,2.351,-0.79,0.0
154.947,10.399,0.789,150.0
0.0,0.0,0.0,0.0
0.0,0.0,0.0,0.0
0.0,0.0,0.0,0.0
0.0,0.0,0.0,0.0
0.0,0.0,0.0,0.0
154.998,10.668,0.659,14.0
0.0,0.0,0.0,0.0
68.745,4.764,-0.483,0.0
0.0,0.0,0.0,0.0
0.0,0.0,0.0,0.0
33.25,2.329,-0.8,1.0
140.669,9.919,0.476,26.0
0.0,0.0,0.0,0.0
0.0,0.0,0.0,0.0
0.0,0.0,0.0,0.0
39.355,2.813,-0.76,0.0
32.782,2.351,-0.818,1.0
140.699,10.157,0.35,7.0
0.0,0.0,0.0,0.0
0.0,0.0,0.0,0.0
46.826,3.413,-0.682,0.0
38.022,2.78,-0.769,0.0
32.37,2.375,-0.838,1.0
122.026,9.007,0.192,6.0
0.0,0.0,0.0,0.0
0.0,0.0,0.0,0.0
0.0,0.0,0.0,0.0
37.425,2.797,-0.792,0.0
30.543,2.289,-0.819,0.0
115.097,8.679,0.072,6.0
0.0,0.0,0.0,0.0
0.0,0.0,0.0,0.0
0.0,0.0,0.0,0.0
35.461,2.706,-0.785,0.0
30.097,2.304,-0.837,0.0
0.0,0.0,0.0,0.0
0.0,0.0,0.0,0.0
0.0,0.0,0.0,0.0
0.0,0.0,0.0,0.0
35.135,2.736,-0.812,0.0
29.502,2.304,-0.849,0.0
0.0,0.0,0.0,0.0
0.0,0.0,0.0,0.0
0.0,0.0,0.0,0.0
40.81,3.23,-0.753,0.0
33.002,2.619,-0.796,0.0
28.751,2.288,-0.857,0.0
0.0,0.0,0.0,0.0
0.0,0.0,0.0,0.0
0.0,0.0,0.0,0.0
0.0,0.0,0.0,0.0
32.588,2.635,-0.82,1.0
27.864,2.259,-0.86,1.0
0.0,0.0,0.0,0.0
0.0,0.0,0.0,0.0
0.0,0.0,0.0,0.0
37.976,3.117,-0.779,0.0
31.596,2.6,-0.828,0.0
27.177,2.242,-0.867,0.0
0.0,0.0,0.0,0.0
0.0,0.0,0.0,0.0
0.0,0.0,0.0,0.0
0.0,0.0,0.0,0.0
30.704,2.57,-0.838,0.0
26.293,2.206,-0.868,0.0
0.0,0.0,0.0,0.0
0.0,0.0,0.0,0.0
0.0,0.0,0.0,0.0
0.0,0.0,0.0,0.0
29.708,2.527,-0.844,0.0
25.616,2.184,-0.873,0.0
0.0,0.0,0.0,0.0
0.0,0.0,0.0,0.0
0.0,0.0,0.0,0.0
33.085,2.852,-0.789,0.0
28.809,2.489,-0.851,0.0
24.706,2.14,-0.87,0.0
0.0,0.0,0.0,0.0
0.0,0.0,0.0,0.0
39.194,3.423,-0.751,0.0
32.547,2.848,-0.813,0.0
28.039,2.459,-0.86,0.0
24.25,2.131,-0.882,1.0
0.0,0.0,0.0,0.0
0.0,0.0,0.0,0.0
37.438,3.317,-0.76,0.0
31.633,2.808,-0.826,0.0
27.244,2.423,-0.867,0.0
23.625,2.106,-0.886,0.0
0.0,0.0,0.0,0.0
0.0,0.0,0.0,0.0
36.924,3.316,-0.793,0.0
30.643,2.757,-0.836,0.0
26.241,2.366,-0.866,0.0
21.918,1.98,-0.848,0.0
0.0,0.0,0.0,0.0
0.0,0.0,0.0,0.0
34.8,3.167,-0.789,0.0
29.537,2.693,-0.841,0.0
25.441,2.324,-0.87,0.0
21.843,1.999,-0.871,0.0
0.0,0.0,0.0,0.0
0.0,0.0,0.0,0.0
33.383,3.076,-0.797,0.0
28.504,2.631,-0.846,0.0
24.658,2.28,-0.872,0.0
21.778,2.018,-0.895,1.0
0.0,0.0,0.0,0.0
38.589,3.592,-0.747,0.0
0.0,0.0,0.0,0.0
27.617,2.58,-0.853,0.0
23.965,2.243,-0.877,0.0
21.556,2.021,-0.912,0.0
0.0,0.0,0.0,0.0
0.0,0.0,0.0,0.0
30.962,2.921,-0.814,0.0
26.833,2.535,-0.862,0.0
23.443,2.219,-0.887,0.0
20.756,1.968,-0.904,0.0
0.0,0.0,0.0,0.0
35.486,3.378,-0.774,0.0
30.447,2.903,-0.839,0.0
25.829,2.467,-0.862,0.0
21.866,2.091,-0.855,0.0
20.216,1.937,-0.906,0.0
0.0,0.0,0.0,0.0
33.335,3.207,-0.77,0.0
29.18,2.811,-0.841,0.0
24.999,2.412,-0.866,0.0
21.773,2.104,-0.879,0.0
19.593,1.896,-0.903,0.0
39.039,3.787,-0.728,0.0
32.726,3.179,-0.797,0.0
28.157,2.739,-0.847,0.0
24.271,2.365,-0.871,0.0
21.717,2.119,-0.904,0.0
19.335,1.889,-0.916,0.0
37.267,3.649,-0.742,0.0
31.596,3.098,-0.809,0.0
26.921,2.643,-0.844,1.0
23.646,2.325,-0.879,0.0
20.993,2.067,-0.901,0.0
18.586,1.833,-0.904,0.0
36.456,3.602,-0.773,0.0
30.416,3.009,-0.819,0.0
26.526,2.627,-0.866,1.0
21.911,2.173,-0.843,0.0
20.533,2.039,-0.908,0.0
18.132,1.803,-0.906,0.0
34.91,3.478,-0.785,0.0
29.762,2.969,-0.84,0.0
25.162,2.513,-0.854,0.0
21.836,2.183,-0.868,0.0
19.665,1.969,-0.895,0.0
17.825,1.787,-0.914,2.0
32.968,3.31,-0.784,1.0
28.32,2.847,-0.836,0.0
24.578,2.474,-0.866,0.0
21.734,2.19,-0.893,1.0
19.346,1.952,-0.906,0.0
17.664,1.784,-0.928,1.0
32.292,3.266,-0.81,0.0
27.512,2.786,-0.848,0.0
23.84,2.417,-0.871,0.0
21.225,2.154,-0.9,0.0
18.87,1.917,-0.908,0.0
17.145,1.744,-0.924,0.0
30.299,3.086,-0.799,0.0
26.37,2.688,-0.847,0.0
21.96,2.241,-0.831,0.0
20.581,2.102,-0.899,0.0
18.413,1.883,-0.91,0.0
16.76,1.716,-0.925,0.0
30.017,3.076,-0.831,1.0
25.73,2.639,-0.86,0.0
21.874,2.246,-0.856,3.0
19.783,2.033,-0.89,0.0
17.892,1.841,-0.908,1.0
16.349,1.684,-0.924,0.0
28.829,2.972,-0.836,0.0
24.816,2.56,-0.862,0.0
21.819,2.253,-0.883,5.0
19.394,2.005,-0.898,0.0
17.736,1.835,-0.923,2.0
16.059,1.663,-0.929,0.0
27.84,2.886,-0.844,0.0
24.049,2.495,-0.867,0.0
21.709,2.254,-0.907,1.0
19.092,1.984,-0.91,0.0
17.33,1.803,-0.925,0.0
15.695,1.634,-0.928,0.0
26.897,2.802,-0.851,0.0
22.007,2.294,-0.823,0.0
20.749,2.165,-0.895,0.0
18.657,1.948,-0.914,0.0
16.875,1.763,-0.923,0.0
15.401,1.611,-0.931,0.0
25.768,2.696,-0.849,0.0
21.905,2.294,-0.848,3.0
20.033,2.099,-0.89,0.0
17.894,1.876,-0.9,0.0
16.476,1.729,-0.923,0.0
14.987,1.574,-0.926,0.0
24.916,2.618,-0.854,0.0
21.842,2.296,-0.874,4.0
19.565,2.058,-0.895,1.0
17.732,1.867,-0.915,2.0
16.14,1.7,-0.926,0.0
14.755,1.556,-0.931,0.0
24.248,2.556,-0.863,0.0
21.777,2.297,-0.899,2.0
19.37,2.045,-0.911,0.0
17.519,1.851,-0.927,0.0
15.788,1.669,-0.926,0.0
14.525,1.537,-0.936,0.0
23.677,2.504,-0.873,0.0
20.963,2.218,-0.893,0.0
18.747,1.985,-0.906,0.0
16.97,1.798,-0.92,0.0
15.492,1.642,-0.929,0.0
14.274,1.514,-0.938,0.0
21.937,2.326,-0.837,2.0
20.172,2.14,-0.886,0.0
18.281,1.941,-0.908,0.0
16.547,1.757,-0.918,0.0
15.119,1.607,-0.926,0.0
14.133,1.503,-0.947,0.0
21.87,2.325,-0.863,7.0
19.725,2.097,-0.892,1.0
17.741,1.887,-0.904,1.0
16.235,1.728,-0.922,0.0
14.875,1.584,-0.93,0.0
13.716,1.462,-0.937,0.0
21.82,2.323,-0.889,3.0
19.491,2.076,-0.906,1.0
17.698,1.886,-0.924,1.0
15.908,1.696,-0.924,0.0
14.608,1.558,-0.932,0.0
13.518,1.443,-0.941,0.0
21.622,2.306,-0.908,0.0
18.837,2.009,-0.9,0.0
17.161,1.831,-0.918,0.0
15.595,1.665,-0.926,0.0
14.404,1.538,-0.938,0.0
13.322,1.424,-0.944,0.0
20.449,2.183,-0.885,0.0
18.641,1.99,-0.914,0.0
16.724,1.786,-0.916,0.0
15.253,1.63,-0.925,0.0
14.154,1.513,-0.94,0.0
13.05,1.396,-0.942,0.0
19.869,2.122,-0.885,0.0
17.849,1.907,-0.897,0.0
16.444,1.757,-0.921,0.0
14.975,1.601,-0.927,0.0
0.0,0.0,0.0,0.0
12.716,1.36,-0.934,0.0
19.581,2.092,-0.897,1.0
17.723,1.893,-0.913,2.0
16.145,1.725,-0.925,0.0
14.728,1.574,-0.93,0.0
13.712,1.466,-0.945,0.0
12.57,1.345,-0.938,0.0
19.216,2.052,-0.904,0.0
17.502,1.869,-0.923,0.0
15.768,1.684,-0.923,0.0
14.464,1.545,-0.931,0.0
13.375,1.43,-0.938,0.0
12.373,1.323,-0.939,0.0
18.718,1.998,-0.903,0.0
16.973,1.812,-0.916,0.0
15.494,1.654,-0.926,0.0
14.329,1.53,-0.94,0.0
13.164,1.406,-0.939,0.0
12.189,1.302,-0.94,0.0
18.309,1.952,-0.905,0.0
16.588,1.769,-0.915,0.0
15.107,1.611,-0.92,0.0
14.08,1.502,-0.94,0.0
12.964,1.383,-0.941,0.0
12.025,1.283,-0.942,0.0
17.78,1.893,-0.901,1.0
16.306,1.736,-0.919,0.0
14.881,1.584,-0.925,0.0
0.0,0.0,0.0,0.0
12.669,1.349,-0.934,0.0
11.818,1.259,-0.94,0.0
17.723,1.883,-0.918,2.0
15.975,1.697,-0.92,0.0
14.664,1.558,-0.928,0.0
13.556,1.44,-0.938,0.0
12.514,1.33,-0.938,0.0
11.668,1.24,-0.942,0.0
17.371,1.841,-0.92,0.0
15.72,1.666,-0.923,0.0
14.486,1.535,-0.934,0.0
13.281,1.408,-0.934,0.0
12.36,1.31,-0.94,0.0
11.489,1.218,-0.94,0.0
16.888,1.786,-0.914,0.0
15.42,1.63,-0.923,0.0
14.337,1.515,-0.941,0.0
0.0,0.0,0.0,0.0
12.209,1.29,-0.943,0.0
11.339,1.198,-0.941,0.0
16.588,1.748,-0.916,0.0
15.095,1.591,-0.92,0.0
0.0,0.0,0.0,0.0
12.927,1.362,-0.938,0.0
11.973,1.261,-0.938,0.0
11.214,1.181,-0.943,0.0
16.272,1.709,-0.917,0.0
14.873,1.562,-0.923,0.0
0.0,0.0,0.0,0.0
12.717,1.335,-0.937,0.0
11.841,1.243,-0.941,0.0
11.108,1.166,-0.946,0.0
15.963,1.67,-0.917,0.0
14.716,1.539,-0.929,0.0
13.565,1.418,-0.935,0.0
12.54,1.311,-0.937,0.0
11.647,1.217,-0.938,0.0
10.934,1.143,-0.943,0.0
15.749,1.641,-0.921,0.0
14.493,1.509,-0.931,0.0
13.364,1.391,-0.935,0.0
12.412,1.292,-0.941,0.0
11.524,1.199,-0.94,0.0
10.811,1.125,-0.944,0.0
15.498,1.607,-0.922,0.0
14.339,1.486,-0.935,0.0
13.245,1.372,-0.94,0.0
12.188,1.262,-0.936,0.0
11.417,1.182,-0.943,0.0
10.745,1.112,-0.949,0.0
15.209,1.569,-0.92,0.0
14.177,1.462,-0.939,0.0
12.968,1.336,-0.933,0.0
12.049,1.241,-0.938,0.0
11.294,1.163,-0.944,0.0
10.593,1.09,-0.946,0.0
14.958,1.534,-0.92,0.0
0.0,0.0,0.0,0.0
12.83,1.315,-0.936,0.0
11.902,1.219,-0.938,0.0
11.126,1.139,-0.941,0.0
10.513,1.076,-0.95,0.0
14.819,1.511,-0.926,0.0
0.0,0.0,0.0,0.0
12.683,1.292,-0.938,0.0
11.739,1.195,-0.936,0.0
11.058,1.125,-0.946,0.0
10.381,1.056,-0.948,0.0
14.634,1.483,-0.928,0.0
13.445,1.361,-0.929,0.0
12.51,1.266,-0.936,0.0
11.6,1.173,-0.936,0.0
10.907,1.102,-0.943,0.0
10.253,1.036,-0.945,0.0
14.449,1.454,-0.929,0.0
13.36,1.343,-0.936,0.0
12.397,1.246,-0.939,0.0
11.527,1.158,-0.941,0.0
10.856,1.09,-0.948,0.0
10.148,1.018,-0.945,0.0
14.371,1.436,-0.937,0.0
13.254,1.323,-0.94,0.0
12.256,1.223,-0.939,0.0
11.411,1.138,-0.941,0.0
10.72,1.068,-0.946,0.0
10.119,1.008,-0.951,0.0
14.21,1.409,-0.938,0.0
13.073,1.295,-0.938,0.0
12.099,1.198,-0.937,0.0
11.272,1.115,-0.939,0.0
10.606,1.048,-0.944,0.0
9.971,0.985,-0.945,0.0
14.125,1.389,-0.944,0.0
12.896,1.267,-0.936,0.0
11.943,1.173,-0.935,0.0
11.224,1.101,-0.944,0.0
10.504,1.03,-0.944,0.0
9.914,0.971,-0.948,0.0
13.808,1.347,-0.934,0.0
12.759,1.243,-0.936,0.0
11.849,1.154,-0.937,0.0
11.11,1.081,-0.943,0.0
10.498,1.02,-0.951,0.0
9.807,0.952,-0.945,0.0
13.511,1.306,-0.924,0.0
12.672,1.224,-0.939,0.0
11.798,1.138,-0.941,0.0
11.027,1.063,-0.944,0.0
10.345,0.996,-0.945,0.0
9.739,0.937,-0.945,0.0
13.491,1.292,-0.932,0.0
12.531,1.199,-0.937,0.0
11.651,1.114,-0.938,0.0
10.901,1.041,-0.941,0.0
10.231,0.976,-0.942,0.0
9.692,0.924,-0.948,0.0
13.393,1.27,-0.935,0.0
12.412,1.176,-0.937,0.0
11.572,1.095,-0.939,0.0
10.846,1.025,-0.944,0.0
10.198,0.963,-0.945,0.0
9.595,0.906,-0.945,0.0
13.302,1.249,-0.937,0.0
12.343,1.158,-0.94,0.0
11.478,1.075,-0.939,0.0
10.734,1.004,-0.941,0.0
10.147,0.949,-0.947,0.0
9.532,0.89,-0.944,0.0
13.209,1.227,-0.938,0.0
12.203,1.132,-0.936,0.0
11.394,1.056,-0.939,0.0
10.781,0.998,-0.951,0.0
10.074,0.932,-0.946,0.0
9.48,0.876,-0.945,0.0
13.115,1.205,-0.939,0.0
12.106,1.111,-0.936,0.0
11.343,1.04,-0.941,0.0
10.662,0.976,-0.947,0.0
10.014,0.916,-0.946,0.0
9.435,0.862,-0.946,0.0
12.947,1.176,-0.934,0.0
12.032,1.092,-0.937,0.0
11.302,1.024,-0.944,0.0
10.648,0.964,-0.951,0.0
9.941,0.898,-0.945,0.0
9.375,0.846,-0.945,0.0
12.892,1.158,-0.937,0.0
11.957,1.072,-0.937,0.0
11.225,1.005,-0.943,0.0
0.0,0.0,0.0,0.0
9.882,0.882,-0.944,0.0
9.331,0.832,-0.945,0.0
12.816,1.136,-0.938,0.0
11.864,1.05,-0.935,0.0
11.203,0.99,-0.947,0.0
0.0,0.0,0.0,0.0
9.86,0.869,-0.946,0.0
9.275,0.816,-0.943,0.0
12.714,1.113,-0.936,0.0
11.835,1.034,-0.938,0.0
11.082,0.967,-0.941,0.0
10.413,0.907,-0.945,0.0
9.785,0.851,-0.943,0.0
9.22,0.801,-0.941,0.0
12.673,1.095,-0.938,0.0
11.789,1.017,-0.939,0.0
11.03,0.95,-0.941,0.0
10.324,0.887,-0.94,0.0
9.75,0.837,-0.944,0.0
9.203,0.789,-0.943,0.0
12.594,1.073,-0.936,0.0
11.758,1.0,-0.941,0.0
10.994,0.934,-0.942,0.0
10.335,0.876,-0.945,0.0
9.713,0.822,-0.943,0.0
9.165,0.774,-0.942,0.0
12.59,1.058,-0.94,0.0
11.69,0.98,-0.939,0.0
10.993,0.92,-0.945,0.0
10.287,0.86,-0.944,0.0
9.673,0.807,-0.942,0.0
9.156,0.762,-0.944,0.0
12.555,1.039,-0.941,0.0
11.638,0.962,-0.938,0.0
10.976,0.905,-0.947,0.0
10.234,0.842,-0.942,0.0
9.627,0.791,-0.94,0.0
9.119,0.748,-0.942,0.0
12.517,1.021,-0.941,0.0
11.639,0.947,-0.941,0.0
10.927,0.887,-0.945,0.0
10.277,0.833,-0.948,0.0
9.619,0.778,-0.942,0.0
9.108,0.735,-0.943,0.0
12.46,1.0,-0.939,0.0
11.604,0.93,-0.94,0.0
10.952,0.876,-0.949,0.0
10.197,0.814,-0.942,0.0
9.601,0.764,-0.941,0.0
9.083,0.722,-0.942,0.0
12.455,0.984,-0.941,0.0
11.572,0.912,-0.939,0.0
10.906,0.858,-0.947,0.0
10.181,0.799,-0.942,0.0
9.581,0.751,-0.941,0.0
9.111,0.712,-0.946,0.0
12.429,0.966,-0.94,0.0
11.541,0.895,-0.938,0.0
10.932,0.846,-0.95,0.0
10.196,0.787,-0.945,0.0
9.58,0.738,-0.942,0.0
9.125,0.701,-0.948,0.0
12.433,0.95,-0.942,0.0
11.549,0.88,-0.939,0.0
10.901,0.829,-0.948,0.0
10.164,0.771,-0.942,0.0
9.619,0.728,-0.946,0.0
9.085,0.686,-0.945,0.0
12.389,0.93,-0.939,0.0
11.558,0.865,-0.94,0.0
10.825,0.808,-0.942,0.0
10.128,0.754,-0.939,0.0
9.609,0.714,-0.945,0.0
9.099,0.675,-0.946,0.0
12.407,0.914,-0.94,0.0
11.565,0.85,-0.941,0.0
10.912,0.8,-0.949,0.0
10.153,0.742,-0.941,0.0
9.651,0.704,-0.949,0.0
9.123,0.664,-0.948,0.0
12.444,0.9,-0.942,0.0
11.577,0.835,-0.941,0.0
10.849,0.78,-0.943,0.0
10.203,0.732,-0.945,0.0
9.662,0.691,-0.949,0.0
9.103,0.65,-0.945,0.0
12.447,0.883,-0.941,0.0
11.546,0.817,-0.937,0.0
10.839,0.764,-0.94,0.0
10.25,0.721,-0.948,0.0
9.665,0.678,-0.948,0.0
9.12,0.638,-0.946,0.0
12.471,0.867,-0.941,0.0
11.605,0.804,-0.94,0.0
10.915,0.755,-0.945,0.0
10.266,0.708,-0.948,0.0
9.671,0.665,-0.947,0.0
9.144,0.627,-0.947,0.0
12.499,0.851,-0.941,0.0
11.623,0.789,-0.94,0.0
10.827,0.733,-0.936,0.0
10.26,0.693,-0.945,0.0
9.707,0.654,-0.948,0.0
9.18,0.616,-0.948,0.0
12.521,0.835,-0.94,0.0
11.704,0.778,-0.943,0.0
10.936,0.725,-0.942,0.0
10.3,0.681,-0.946,0.0
9.708,0.64,-0.946,0.0
9.189,0.604,-0.947,0.0
12.611,0.823,-0.943,0.0
11.717,0.762,-0.941,0.0
11.011,0.714,-0.946,0.0
10.341,0.669,-0.947,0.0
9.765,0.629,-0.948,0.0
9.248,0.594,-0.95,0.0
12.64,0.807,-0.941,0.0
11.761,0.748,-0.941,0.0
11.031,0.699,-0.944,0.0
10.364,0.655,-0.945,0.0
9.804,0.618,-0.949,0.0
9.248,0.581,-0.947,0.0
12.71,0.793,-0.942,0.0
11.819,0.735,-0.941,0.0
11.075,0.686,-0.943,0.0
10.405,0.643,-0.945,0.0
9.85,0.606,-0.949,0.0
9.28,0.569,-0.946,0.0
12.825,0.782,-0.945,0.0
11.86,0.72,-0.94,0.0
11.082,0.671,-0.939,0.0
10.462,0.631,-0.946,0.0
9.89,0.594,-0.949,0.0
9.329,0.559,-0.947,0.0
12.842,0.764,-0.941,0.0
11.955,0.709,-0.942,0.0
11.206,0.662,-0.945,0.0
10.488,0.617,-0.943,0.0
9.918,0.582,-0.947,0.0
9.384,0.548,-0.948,0.0
12.951,0.752,-0.942,0.0
12.051,0.697,-0.943,0.0
11.304,0.651,-0.947,0.0
10.532,0.605,-0.942,0.0
9.965,0.57,-0.946,0.0
9.435,0.538,-0.948,0.0
13.058,0.739,-0.943,0.0
12.115,0.683,-0.942,0.0
11.328,0.636,-0.943,0.0
10.576,0.592,-0.94,0.0
10.063,0.561,-0.95,0.0
9.485,0.527,-0.948,0.0
13.158,0.726,-0.943,0.0
12.195,0.67,-0.941,0.0
11.378,0.623,-0.941,0.0
10.686,0.582,-0.943,0.0
10.154,0.551,-0.952,0.0
9.543,0.516,-0.948,0.0
13.235,0.711,-0.94,0.0
12.326,0.659,-0.943,0.0
11.499,0.612,-0.943,0.0
10.701,0.568,-0.938,0.0
10.2,0.539,-0.95,0.0
9.618,0.506,-0.949,0.0
13.338,0.697,-0.939,0.0
12.432,0.647,-0.943,0.0
11.581,0.6,-0.942,0.0
10.895,0.562,-0.947,0.0
10.28,0.528,-0.95,0.0
9.694,0.496,-0.95,0.0
13.477,0.685,-0.939,0.0
12.575,0.636,-0.945,0.0
11.681,0.588,-0.942,0.0
11.029,0.553,-0.951,0.0
10.314,0.515,-0.946,0.0
9.772,0.486,-0.95,0.0
13.756,0.679,-0.948,0.0
12.68,0.623,-0.943,0.0
11.795,0.577,-0.942,0.0
11.056,0.538,-0.945,0.0
10.414,0.505,-0.947,0.0
9.866,0.476,-0.951,0.0
13.743,0.659,-0.937,0.0
12.841,0.612,-0.945,0.0
11.933,0.566,-0.943,0.0
11.221,0.53,-0.95,0.0
10.535,0.495,-0.949,0.0
9.953,0.466,-0.951,0.0
20.246,0.941,-1.363,0.0
13.024,0.602,-0.948,0.0
12.064,0.555,-0.943,0.0
11.286,0.517,-0.945,0.0
10.625,0.484,-0.948,0.0
10.045,0.455,-0.951,0.0
20.225,0.911,-1.344,0.0
13.134,0.588,-0.944,0.0
12.24,0.545,-0.946,0.0
11.449,0.508,-0.949,0.0
10.733,0.474,-0.948,0.0
10.146,0.445,-0.951,0.0
14.392,0.628,-0.943,0.0
13.328,0.578,-0.946,0.0
12.366,0.534,-0.944,0.0
11.552,0.496,-0.946,0.0
10.853,0.464,-0.948,0.0
10.261,0.436,-0.952,0.0
14.548,0.614,-0.939,0.0
13.538,0.568,-0.947,0.0
12.546,0.524,-0.946,0.0
11.682,0.485,-0.945,0.0
10.988,0.454,-0.949,0.0
10.351,0.425,-0.95,0.0
14.744,0.601,-0.937,0.0
13.681,0.555,-0.944,0.0
12.724,0.513,-0.947,0.0
11.817,0.474,-0.944,0.0
11.155,0.445,-0.952,0.0
10.463,0.415,-0.95,0.0
14.994,0.591,-0.938,0.0
13.774,0.539,-0.936,0.0
12.87,0.501,-0.944,0.0
11.999,0.464,-0.946,0.0
11.281,0.434,-0.951,0.0
10.571,0.404,-0.948,0.0
15.233,0.579,-0.936,0.0
14.234,0.538,-0.951,0.0
13.116,0.492,-0.947,0.0
12.232,0.456,-0.951,0.0
11.419,0.423,-0.949,0.0
10.685,0.394,-0.946,0.0
15.453,0.566,-0.932,0.0
14.422,0.525,-0.948,0.0
13.294,0.481,-0.945,0.0
12.363,0.444,-0.947,0.0
11.551,0.413,-0.947,0.0
10.848,0.385,-0.948,0.0
15.88,0.56,-0.94,0.0
14.606,0.512,-0.943,0.0
13.406,0.466,-0.938,0.0
12.571,0.435,-0.948,0.0
11.708,0.402,-0.946,0.0
11.088,0.378,-0.956,0.0
16.134,0.547,-0.936,0.0
14.842,0.5,-0.94,0.0
13.853,0.463,-0.952,0.0
12.855,0.427,-0.954,0.0
11.935,0.394,-0.95,0.0
11.184,0.367,-0.95,0.0
16.417,0.534,-0.932,0.0
15.106,0.488,-0.938,0.0
14.065,0.452,-0.949,0.0
12.97,0.414,-0.946,0.0
12.141,0.384,-0.951,0.0
11.338,0.356,-0.949,0.0
16.739,0.523,-0.928,0.0
15.386,0.477,-0.936,0.0
14.385,0.443,-0.952,0.0
13.178,0.403,-0.944,0.0
12.339,0.374,-0.95,0.0
11.512,0.347,-0.948,0.0
16.996,0.509,-0.92,0.0
15.741,0.468,-0.937,0.0
14.592,0.43,-0.946,0.0
13.524,0.396,-0.95,0.0
12.579,0.365,-0.951,0.0
11.726,0.338,-0.95,0.0
17.389,0.498,-0.918,0.0
16.15,0.459,-0.939,0.0
14.856,0.419,-0.943,0.0
0.0,0.0,0.0,0.0
12.811,0.356,-0.951,0.0
11.949,0.329,-0.951,0.0
18.086,0.495,-0.93,0.0
16.462,0.447,-0.934,0.0
15.184,0.409,-0.942,0.0
14.141,0.378,-0.954,0.0
13.064,0.346,-0.951,0.0
12.187,0.32,-0.953,0.0
18.421,0.481,-0.921,0.0
16.775,0.434,-0.928,0.0
15.461,0.397,-0.937,0.0
14.435,0.368,-0.953,0.0
13.327,0.337,-0.951,0.0
12.413,0.311,-0.952,0.0
18.909,0.47,-0.918,0.0
17.202,0.424,-0.926,0.0
15.935,0.39,-0.943,0.0
14.65,0.355,-0.946,0.0
13.449,0.323,-0.94,0.0
12.678,0.302,-0.953,0.0
19.598,0.464,-0.922,0.0
17.789,0.417,-0.931,0.0
16.292,0.379,-0.939,0.0
14.954,0.344,-0.942,0.0
13.869,0.316,-0.948,0.0
12.911,0.292,-0.951,0.0
20.154,0.453,-0.917,0.0
18.208,0.405,-0.925,0.0
16.7,0.368,-0.936,0.0
15.345,0.335,-0.943,0.0
14.316,0.31,-0.956,0.0
13.219,0.283,-0.953,0.0
20.755,0.442,-0.912,0.0
18.695,0.394,-0.92,0.0
17.033,0.356,-0.929,0.0
15.725,0.325,-0.942,0.0
14.616,0.299,-0.953,0.0
13.448,0.273,-0.948,0.0
21.486,0.433,-0.91,0.0
19.476,0.388,-0.928,0.0
17.635,0.348,-0.933,0.0
16.212,0.317,-0.945,0.0
14.863,0.287,-0.945,0.0
13.986,0.268,-0.963,0.0
22.428,0.427,-0.913,0.0
20.023,0.377,-0.921,0.0
18.192,0.339,-0.933,0.0
16.537,0.305,-0.936,0.0
15.282,0.279,-0.946,0.0
14.203,0.256,-0.954,0.0
23.045,0.413,-0.901,0.0
20.272,0.36,-0.899,3.0
18.677,0.328,-0.926,0.0
16.951,0.294,-0.932,0.0
15.67,0.269,-0.944,0.0
14.555,0.247,-0.953,0.0
24.002,0.405,-0.898,0.0
20.119,0.335,-0.858,10.0
19.98,0.329,-0.957,0.0
17.675,0.288,-0.941,0.0
16.194,0.261,-0.948,0.0
14.867,0.237,-0.948,0.0
25.108,0.397,-0.896,0.0
20.177,0.315,-0.826,3.0
20.266,0.313,-0.936,3.0
18.125,0.277,-0.934,0.0
16.594,0.25,-0.942,0.0
15.28,0.228,-0.948,0.0
20.231,0.299,-0.687,3.0
20.227,0.296,-0.792,10.0
20.25,0.292,-0.899,12.0
18.495,0.264,-0.92,9.0
17.021,0.24,-0.936,0.0
15.692,0.218,-0.945,0.0
20.24,0.28,-0.651,25.0
20.233,0.276,-0.757,26.0
20.168,0.272,-0.86,14.0
18.57,0.247,-0.891,2.0
17.694,0.232,-0.941,2.0
16.227,0.21,-0.948,0.0
20.207,0.26,-0.614,29.0
20.217,0.256,-0.719,28.0
20.226,0.253,-0.826,23.0
0.0,0.0,0.0,0.0
18.366,0.224,-0.944,3.0
16.635,0.2,-0.942,0.0
20.194,0.241,-0.577,34.0
20.205,0.237,-0.682,32.0
0.0,0.0,0.0,0.0
18.56,0.212,-0.822,51.0
18.509,0.208,-0.917,30.0
18.3,0.203,-1.002,1.0
20.192,0.222,-0.539,35.0
20.206,0.219,-0.645,32.0
19.45,0.208,-0.722,15.0
18.507,0.195,-0.786,155.0
18.541,0.193,-0.884,49.0
18.06,0.185,-0.955,3.0
20.186,0.205,-0.502,34.0
20.192,0.202,-0.607,29.0
0.0,0.0,0.0,0.0
18.506,0.179,-0.751,161.0
18.551,0.177,-0.849,61.0
18.479,0.173,-0.942,7.0
20.18,0.188,-0.463,27.0
20.194,0.185,-0.568,24.0
0.0,0.0,0.0,0.0
18.568,0.165,-0.718,153.0
18.503,0.161,-0.812,156.0
18.537,0.159,-0.91,51.0
20.185,0.172,-0.424,28.0
20.187,0.169,-0.529,19.0
0.0,0.0,0.0,0.0
21.642,0.175,-0.795,151.0
18.513,0.147,-0.776,160.0
18.539,0.144,-0.874,47.0
20.193,0.156,-0.386,29.0
20.181,0.153,-0.49,13.0
21.64,0.161,-0.638,13.0
21.592,0.158,-0.75,169.0
21.613,0.155,-0.864,24.0
18.559,0.131,-0.838,49.0
20.188,0.141,-0.346,31.0
20.22,0.138,-0.451,2.0
30.941,0.208,-0.851,0.0
21.653,0.142,-0.71,155.0
21.659,0.14,-0.822,152.0
21.561,0.136,-0.931,32.0
20.203,0.126,-0.306,28.0
20.203,0.124,-0.41,1.0
32.986,0.198,-0.842,0.0
21.661,0.128,-0.667,23.0
21.603,0.125,-0.777,162.0
21.642,0.122,-0.891,117.0
20.202,0.113,-0.266,27.0
20.214,0.11,-0.371,1.0
35.132,0.188,-0.826,0.0
21.629,0.113,-0.623,0.0
21.669,0.111,-0.736,153.0
21.657,0.108,-0.848,48.0
20.208,0.1,-0.225,22.0
20.223,0.098,-0.33,1.0
38.473,0.182,-0.827,0.0
32.529,0.15,-0.871,1.0
21.635,0.097,-0.691,0.0
21.673,0.095,-0.804,54.0
20.214,0.087,-0.184,27.0
20.222,0.085,-0.289,0.0
40.914,0.169,-0.796,0.0
33.227,0.133,-0.821,0.0
31.219,0.122,-0.933,1.0
21.659,0.082,-0.759,2.0
20.217,0.076,-0.143,28.0
20.219,0.074,-0.247,0.0
43.24,0.154,-0.752,0.0
37.309,0.129,-0.846,0.0
31.357,0.105,-0.872,1.0
20.236,0.066,-0.667,0.0
20.223,0.065,-0.101,27.0
20.218,0.063,-0.206,10.0
20.224,0.061,-0.31,0.0
20.232,0.059,-0.417,0.0
33.228,0.095,-0.856,7.0
20.237,0.056,-0.626,2.0
20.248,0.055,-0.059,9.0
20.229,0.053,-0.164,19.0
20.237,0.051,-0.268,10.0
20.248,0.05,-0.375,30.0
20.246,0.048,-0.479,31.0
20.254,0.046,-0.584,34.0
20.249,0.045,-0.018,33.0
20.274,0.044,-0.122,150.0
20.242,0.042,-0.226,151.0
20.271,0.04,-0.333,150.0
20.271,0.039,-0.437,150.0
20.266,0.037,-0.542,90.0
20.28,0.036,0.024,63.0
20.254,0.035,-0.079,152.0
20.256,0.033,-0.183,151.0
20.26,0.032,-0.29,150.0
20.261,0.031,-0.394,151.0
20.264,0.029,-0.499,150.0
20.171,0.028,0.067,28.0
20.24,0.027,-0.036,152.0
20.257,0.026,-0.14,152.0
20.262,0.024,-0.246,151.0
20.275,0.023,-0.351,150.0
20.263,0.022,-0.456,150.0
20.137,0.021,0.109,33.0
20.257,0.02,0.006,152.0
20.265,0.019,-0.098,151.0
20.256,0.018,-0.204,151.0
20.266,0.016,-0.309,150.0
20.273,0.015,-0.413,66.0
20.127,0.014,0.152,28.0
20.222,0.013,0.048,151.0
20.254,0.012,-0.055,151.0
20.261,0.011,-0.161,107.0
20.257,0.01,-0.266,49.0
20.24,0.009,-0.369,12.0
20.134,0.009,0.194,28.0
20.132,0.008,0.091,31.0
20.273,0.007,-0.012,150.0
20.241,0.006,-0.118,22.0
20.227,0.005,-0.222,9.0
20.231,0.004,-0.326,5.0
20.13,0.004,0.237,28.0
20.129,0.003,0.134,28.0
20.181,0.002,0.031,18.0
20.217,0.001,-0.074,23.0
20.205,0.001,-0.178,12.0
20.217,0.0,-0.283,5.0
20.127,0.0,0.28,27.0
20.122,0.0,0.177,28.0
20.129,-0.001,0.073,30.0
20.171,-0.001,-0.031,13.0
20.17,-0.002,-0.135,16.0
20.197,-0.003,-0.239,2.0
20.125,-0.003,0.324,29.0
20.124,-0.004,0.22,26.0
20.119,-0.004,0.117,29.0
20.136,-0.005,0.011,15.0
20.174,-0.005,-0.092,16.0
20.185,-0.005,-0.196,9.0
20.123,-0.006,0.367,27.0
20.119,-0.006,0.263,25.0
20.119,-0.007,0.16,26.0
20.132,-0.007,0.054,29.0
20.142,-0.007,-0.048,16.0
20.182,-0.007,-0.152,22.0
20.13,-0.008,0.41,28.0
20.128,-0.008,0.307,29.0
20.115,-0.008,0.203,28.0
20.125,-0.008,0.097,34.0
20.125,-0.009,-0.005,16.0
20.173,-0.009,-0.109,25.0
20.14,-0.009,0.454,29.0
20.128,-0.009,0.35,28.0
20.119,-0.009,0.246,24.0
20.119,-0.009,0.141,26.0
20.14,-0.009,0.037,27.0
20.174,-0.009,-0.065,21.0
20.148,-0.01,0.497,25.0
20.133,-0.01,0.393,26.0
20.121,-0.009,0.289,27.0
20.113,-0.009,0.184,29.0
20.129,-0.009,0.08,34.0
20.131,-0.009,-0.022,16.0
20.162,-0.009,0.541,23.0
20.128,-0.009,0.437,28.0
20.112,-0.009,0.333,28.0
20.118,-0.009,0.227,26.0
20.12,-0.008,0.124,27.0
20.151,-0.008,0.021,21.0
20.177,-0.008,0.585,25.0
20.138,-0.008,0.48,26.0
20.124,-0.008,0.376,25.0
20.112,-0.007,0.27,25.0
20.111,-0.007,0.167,27.0
20.139,-0.006,0.063,32.0
20.184,-0.007,0.628,32.0
20.143,-0.006,0.523,20.0
20.132,-0.006,0.419,27.0
20.123,-0.005,0.313,28.0
20.115,-0.004,0.21,26.0
20.115,-0.004,0.106,32.0
20.178,-0.004,0.671,36.0
20.167,-0.003,0.567,25.0
20.133,-0.003,0.462,27.0
20.127,-0.002,0.356,25.0
20.133,-0.001,0.253,25.0
20.127,0.0,0.149,27.0
20.134,-0.001,0.712,28.0
20.185,0.0,0.61,27.0
20.136,0.0,0.505,20.0
20.127,0.001,0.399,26.0
20.118,0.002,0.295,26.0
20.119,0.002,0.192,26.0
20.123,0.002,0.755,29.0
20.181,0.003,0.653,44.0
20.168,0.004,0.549,25.0
20.123,0.005,0.442,27.0
20.13,0.006,0.338,26.0
20.122,0.007,0.234,25.0
20.115,0.007,0.797,28.0
20.151,0.008,0.694,28.0
20.171,0.009,0.591,28.0
20.136,0.01,0.484,24.0
20.132,0.012,0.38,25.0
20.128,0.013,0.277,28.0
20.12,0.012,0.84,28.0
20.118,0.014,0.736,31.0
20.179,0.015,0.634,42.0
20.154,0.016,0.527,23.0
20.138,0.018,0.423,27.0
20.124,0.019,0.318,25.0
20.129,0.019,0.882,23.0
20.112,0.02,0.777,28.0
20.159,0.022,0.675,33.0
20.172,0.023,0.569,27.0
20.135,0.024,0.464,26.0
20.129,0.026,0.36,25.0
58.254,0.075,2.674,6.0
20.108,0.027,0.819,27.0
