X,Y,Z,Reflectivity
20.214,0.254,-0.71,24.0
0.0,0.0,0.0,0.0
20.21,0.259,-0.277,0.0
20.196,0.262,-0.394,9.0
20.192,0.265,-0.513,18.0
20.236,0.268,-0.632,20.0
20.231,0.271,-0.75,18.0
0.0,0.0,0.0,0.0
0.0,0.0,0.0,0.0
20.183,0.279,-0.433,0.0
20.212,0.282,-0.553,2.0
20.231,0.285,-0.671,2.0
20.227,0.288,-0.789,2.0
0.0,0.0,0.0,0.0
42.769,0.619,-0.752,0.0
34.637,0.506,-0.81,0.0
29.754,0.439,-0.872,0.0
25.301,0.377,-0.889,0.0
20.165,0.303,-0.825,4.0
0.0,0.0,0.0,0.0
38.864,0.593,-0.758,0.0
32.832,0.505,-0.831,0.0
28.179,0.437,-0.88,0.0
24.125,0.377,-0.894,0.0
20.131,0.318,-0.863,9.0
0.0,0.0,0.0,0.0
37.292,0.596,-0.801,0.0
31.487,0.508,-0.859,1.0
26.528,0.431,-0.881,0.0
22.932,0.375,-0.895,0.0
20.293,0.335,-0.91,10.0
0.0,0.0,0.0,0.0
34.231,0.571,-0.802,1.0
29.598,0.498,-0.866,0.0
25.202,0.427,-0.887,0.0
20.127,0.343,-0.825,1.0
19.855,0.341,-0.93,0.0
0.0,0.0,0.0,0.0
33.774,0.586,-0.858,2.0
28.316,0.495,-0.884,0.0
24.11,0.424,-0.895,0.0
20.144,0.356,-0.865,1.0
18.764,0.334,-0.915,0.0
37.088,0.662,-0.799,0.0
31.459,0.566,-0.861,1.0
26.377,0.477,-0.875,0.0
22.918,0.417,-0.897,0.0
20.353,0.373,-0.915,0.0
18.241,0.336,-0.926,0.0
0.0,0.0,0.0,0.0
29.216,0.542,-0.857,0.0
25.384,0.474,-0.893,0.0
22.257,0.418,-0.915,0.0
19.67,0.371,-0.923,0.0
17.542,0.333,-0.925,0.0
32.612,0.62,-0.832,1.0
28.027,0.535,-0.878,0.0
24.014,0.461,-0.892,0.0
21.095,0.407,-0.909,0.0
18.748,0.364,-0.917,0.0
16.937,0.33,-0.927,0.0
31.217,0.61,-0.858,1.0
26.349,0.517,-0.877,0.0
22.836,0.45,-0.893,0.0
20.191,0.4,-0.91,0.0
18.184,0.362,-0.925,0.0
16.482,0.33,-0.935,0.0
29.079,0.582,-0.857,0.0
24.984,0.502,-0.881,0.0
22.21,0.448,-0.913,0.0
19.571,0.397,-0.92,0.0
17.545,0.357,-0.927,0.0
16.01,0.327,-0.94,0.0
27.616,0.564,-0.868,0.0
23.961,0.492,-0.892,0.0
21.014,0.433,-0.905,0.0
18.704,0.387,-0.916,0.0
16.876,0.351,-0.925,0.0
15.399,0.321,-0.934,0.0
26.208,0.546,-0.875,0.0
22.712,0.475,-0.891,0.0
20.165,0.423,-0.908,0.0
18.081,0.381,-0.922,0.0
16.426,0.347,-0.933,0.0
14.984,0.318,-0.939,0.0
24.826,0.526,-0.878,0.0
21.957,0.467,-0.905,0.0
19.539,0.417,-0.919,0.0
17.405,0.373,-0.922,0.0
15.929,0.342,-0.937,0.0
14.609,0.315,-0.945,0.0
23.729,0.511,-0.887,0.0
20.838,0.45,-0.9,0.0
18.671,0.404,-0.915,0.0
16.836,0.366,-0.925,0.0
15.36,0.335,-0.934,0.0
14.275,0.312,-0.951,0.0
22.67,0.494,-0.892,0.0
20.129,0.44,-0.909,0.0
18.042,0.396,-0.92,0.0
16.394,0.36,-0.933,0.0
14.963,0.33,-0.939,0.0
0.0,0.0,0.0,0.0
21.906,0.483,-0.905,0.0
19.222,0.425,-0.906,0.0
17.311,0.383,-0.917,0.0
15.901,0.353,-0.936,0.0
14.57,0.324,-0.943,0.0
13.396,0.299,-0.945,0.0
20.873,0.464,-0.903,0.0
18.632,0.415,-0.914,0.0
16.822,0.376,-0.923,0.0
15.354,0.344,-0.934,0.0
14.251,0.32,-0.95,0.0
13.097,0.295,-0.95,0.0
20.158,0.452,-0.911,0.0
18.074,0.406,-0.922,0.0
16.348,0.368,-0.929,0.0
14.931,0.337,-0.938,0.0
0.0,0.0,0.0,0.0
12.703,0.288,-0.946,0.0
19.572,0.441,-0.923,0.0
17.188,0.388,-0.91,0.0
15.86,0.359,-0.932,0.0
14.525,0.329,-0.94,0.0
13.321,0.302,-0.94,0.0
12.431,0.283,-0.95,0.0
18.612,0.421,-0.913,0.0
16.788,0.38,-0.921,0.0
15.373,0.349,-0.933,0.0
14.279,0.324,-0.951,0.0
13.094,0.298,-0.949,0.0
12.064,0.275,-0.945,0.0
17.994,0.408,-0.917,0.0
16.384,0.372,-0.93,0.0
14.927,0.339,-0.934,0.0
13.83,0.315,-0.948,0.0
12.654,0.288,-0.941,0.0
11.796,0.269,-0.946,0.0
17.41,0.395,-0.92,0.0
15.962,0.362,-0.936,0.0
14.575,0.331,-0.94,0.0
13.318,0.303,-0.938,0.0
12.419,0.283,-0.947,0.0
11.482,0.262,-0.943,0.0
16.828,0.381,-0.921,0.0
15.398,0.349,-0.932,0.0
14.351,0.326,-0.952,0.0
13.096,0.297,-0.947,0.0
12.111,0.275,-0.946,0.0
11.252,0.256,-0.945,0.0
16.394,0.37,-0.927,0.0
14.965,0.338,-0.933,0.0
13.671,0.309,-0.932,0.0
12.718,0.288,-0.943,0.0
11.782,0.267,-0.942,0.0
11.049,0.25,-0.949,0.0
15.949,0.359,-0.932,0.0
14.623,0.329,-0.939,0.0
13.341,0.3,-0.935,0.0
12.421,0.28,-0.944,0.0
11.522,0.259,-0.943,0.0
10.786,0.243,-0.946,0.0
15.432,0.345,-0.93,0.0
14.277,0.319,-0.943,0.0
13.144,0.294,-0.945,0.0
12.106,0.27,-0.942,0.0
11.287,0.252,-0.945,0.0
10.561,0.236,-0.946,0.0
15.017,0.333,-0.932,0.0
0.0,0.0,0.0,0.0
12.77,0.283,-0.941,0.0
11.825,0.262,-0.942,0.0
11.074,0.245,-0.947,0.0
10.346,0.229,-0.945,0.0
14.686,0.322,-0.938,0.0
13.467,0.296,-0.938,0.0
12.499,0.274,-0.944,0.0
11.53,0.253,-0.939,0.0
10.79,0.237,-0.942,0.0
10.168,0.223,-0.947,0.0
14.4,0.313,-0.945,0.0
13.196,0.286,-0.943,0.0
12.169,0.264,-0.94,0.0
11.334,0.246,-0.943,0.0
10.623,0.23,-0.946,0.0
9.968,0.216,-0.946,0.0
13.974,0.299,-0.941,0.0
12.847,0.275,-0.94,0.0
11.893,0.254,-0.94,0.0
11.161,0.238,-0.949,0.0
10.397,0.222,-0.944,0.0
9.795,0.209,-0.947,0.0
13.553,0.286,-0.937,0.0
12.579,0.265,-0.943,0.0
11.593,0.244,-0.937,0.0
10.946,0.23,-0.949,0.0
10.229,0.215,-0.947,0.0
9.626,0.202,-0.948,0.0
13.321,0.276,-0.944,0.0
12.315,0.255,-0.944,0.0
11.405,0.236,-0.941,0.0
10.658,0.22,-0.943,0.0
10.01,0.206,-0.944,0.0
9.418,0.194,-0.943,0.0
13.022,0.265,-0.945,0.0
12.069,0.245,-0.946,0.0
11.211,0.227,-0.944,0.0
10.446,0.212,-0.941,0.0
9.846,0.199,-0.945,0.0
9.263,0.187,-0.943,0.0
12.682,0.253,-0.941,0.0
11.761,0.234,-0.941,0.0
11.005,0.218,-0.945,0.0
10.282,0.204,-0.944,0.0
9.698,0.192,-0.947,0.0
9.079,0.179,-0.94,0.0
12.415,0.242,-0.942,0.0
11.482,0.223,-0.938,0.0
10.772,0.209,-0.942,0.0
10.111,0.195,-0.945,0.0
9.54,0.184,-0.947,0.0
8.969,0.173,-0.943,0.0
12.137,0.23,-0.94,0.0
11.331,0.214,-0.943,0.0
10.564,0.199,-0.941,0.0
9.928,0.187,-0.943,0.0
9.342,0.175,-0.942,0.0
8.821,0.165,-0.942,0.0
11.913,0.22,-0.942,0.0
11.143,0.205,-0.946,0.0
10.363,0.19,-0.94,0.0
9.774,0.179,-0.944,0.0
9.203,0.168,-0.943,0.0
8.673,0.158,-0.939,0.0
11.701,0.209,-0.943,0.0
0.0,0.0,0.0,0.0
10.227,0.182,-0.943,0.0
9.592,0.17,-0.942,0.0
9.073,0.16,-0.944,0.0
8.566,0.151,-0.941,0.0
11.441,0.198,-0.94,0.0
10.711,0.185,-0.942,0.0
10.079,0.173,-0.945,0.0
9.491,0.162,-0.946,0.0
8.936,0.152,-0.943,0.0
8.452,0.143,-0.941,0.0
11.253,0.188,-0.941,0.0
10.528,0.175,-0.941,0.0
9.883,0.163,-0.941,0.0
9.316,0.154,-0.942,0.0
8.761,0.144,-0.938,0.0
8.334,0.136,-0.941,0.0
11.073,0.178,-0.942,0.0
10.34,0.165,-0.94,0.0
9.771,0.155,-0.945,0.0
9.174,0.145,-0.941,0.0
8.678,0.137,-0.941,0.0
8.228,0.129,-0.941,0.0
10.777,0.166,-0.932,0.0
10.209,0.156,-0.942,0.0
9.641,0.147,-0.946,0.0
9.038,0.137,-0.94,0.0
8.583,0.129,-0.943,0.0
8.134,0.122,-0.941,0.0
10.697,0.157,-0.94,0.0
10.059,0.147,-0.943,0.0
9.45,0.137,-0.941,0.0
8.923,0.128,-0.941,0.0
8.44,0.121,-0.939,0.0
8.017,0.114,-0.939,0.0
10.536,0.147,-0.941,0.0
9.891,0.137,-0.94,0.0
9.326,0.128,-0.941,0.0
8.76,0.12,-0.936,0.0
8.339,0.113,-0.939,0.0
7.961,0.107,-0.943,0.0
10.4,0.137,-0.942,0.0
9.779,0.128,-0.943,0.0
9.218,0.12,-0.942,0.0
8.681,0.112,-0.939,0.0
8.258,0.106,-0.941,0.0
7.857,0.1,-0.941,0.0
10.265,0.127,-0.943,0.0
9.678,0.119,-0.945,0.0
9.078,0.111,-0.94,0.0
8.637,0.104,-0.945,0.0
8.18,0.098,-0.943,0.0
7.781,0.092,-0.942,0.0
10.105,0.117,-0.941,0.0
9.525,0.109,-0.942,0.0
8.953,0.102,-0.938,0.0
8.498,0.096,-0.94,0.0
8.089,0.09,-0.942,0.0
7.71,0.085,-0.943,0.0
9.966,0.107,-0.941,0.0
9.382,0.1,-0.94,0.0
8.85,0.093,-0.938,0.0
8.381,0.087,-0.938,0.0
7.98,0.082,-0.939,0.0
7.622,0.078,-0.942,0.0
9.841,0.097,-0.94,0.0
9.247,0.09,-0.937,0.0
8.732,0.084,-0.936,0.0
8.29,0.079,-0.937,0.0
7.93,0.075,-0.943,0.0
7.551,0.07,-0.942,0.0
9.74,0.088,-0.942,0.0
9.214,0.082,-0.944,0.0
8.655,0.076,-0.937,0.0
8.234,0.071,-0.94,0.0
7.881,0.067,-0.946,0.0
7.511,0.063,-0.945,0.0
9.631,0.078,-0.942,0.0
9.072,0.072,-0.94,0.0
8.565,0.067,-0.937,0.0
8.142,0.063,-0.939,0.0
7.775,0.059,-0.942,0.0
7.441,0.056,-0.945,0.0
9.51,0.068,-0.94,0.0
8.979,0.063,-0.94,0.0
8.498,0.059,-0.939,0.0
8.076,0.055,-0.94,0.0
7.724,0.051,-0.944,0.0
7.4,0.048,-0.947,0.0
9.397,0.059,-0.939,0.0
8.871,0.054,-0.937,0.0
8.413,0.05,-0.938,0.0
7.987,0.047,-0.937,0.0
7.652,0.044,-0.943,0.0
7.345,0.041,-0.948,0.0
9.284,0.049,-0.937,0.0
8.745,0.045,-0.933,0.0
8.337,0.042,-0.938,0.0
7.921,0.038,-0.937,0.0
7.581,0.036,-0.941,0.0
7.278,0.033,-0.946,0.0
9.227,0.04,-0.94,0.0
8.726,0.036,-0.939,0.0
8.256,0.033,-0.936,0.0
7.88,0.03,-0.94,0.0
7.518,0.028,-0.94,0.0
7.216,0.026,-0.945,0.0
9.14,0.03,-0.939,0.0
8.644,0.027,-0.938,0.0
8.194,0.024,-0.937,0.0
7.81,0.022,-0.939,0.0
7.475,0.02,-0.942,0.0
7.184,0.018,-0.947,0.0
9.038,0.02,-0.937,0.0
8.568,0.018,-0.937,0.0
8.168,0.016,-0.941,0.0
7.777,0.014,-0.941,0.0
7.458,0.012,-0.946,0.0
7.147,0.011,-0.948,0.0
8.973,0.011,-0.937,0.0
8.487,0.009,-0.935,0.0
8.088,0.007,-0.938,0.0
7.681,0.006,-0.936,0.0
7.398,0.004,-0.944,0.0
7.101,0.003,-0.948,0.0
8.892,0.002,-0.936,0.0
8.442,0.0,-0.937,0.0
8.069,0.0,-0.942,0.0
7.671,-0.001,-0.94,0.0
7.364,-0.002,-0.945,0.0
7.046,-0.003,-0.945,0.0
8.84,-0.007,-0.937,0.0
8.358,-0.008,-0.934,0.0
8.03,-0.009,-0.943,0.0
7.601,-0.009,-0.937,0.0
7.323,-0.01,-0.945,0.0
7.03,-0.011,-0.948,0.0
8.786,-0.016,-0.937,0.0
8.359,-0.017,-0.94,0.0
7.942,-0.017,-0.938,0.0
7.558,-0.018,-0.937,0.0
7.29,-0.018,-0.946,0.0
6.989,-0.019,-0.948,0.0
8.731,-0.026,-0.937,0.0
8.286,-0.026,-0.937,0.0
7.888,-0.026,-0.937,0.0
7.522,-0.026,-0.938,0.0
7.251,-0.026,-0.946,0.0
6.937,-0.026,-0.945,0.0
8.679,-0.035,-0.937,0.0
8.239,-0.035,-0.936,0.0
7.891,-0.034,-0.942,0.0
7.524,-0.034,-0.942,0.0
7.186,-0.034,-0.941,0.0
6.916,-0.034,-0.946,0.0
8.632,-0.044,-0.936,0.0
8.234,-0.044,-0.94,0.0
7.822,-0.043,-0.938,0.0
7.485,-0.042,-0.941,0.0
7.162,-0.042,-0.942,0.0
6.839,-0.041,-0.939,0.0
8.578,-0.054,-0.935,0.0
8.148,-0.052,-0.935,0.0
7.795,-0.051,-0.939,0.0
7.45,-0.05,-0.941,0.0
7.146,-0.05,-0.943,0.0
6.882,-0.049,-0.948,0.0
8.551,-0.063,-0.936,0.0
8.103,-0.061,-0.933,0.0
7.792,-0.06,-0.942,0.0
7.422,-0.059,-0.941,0.0
7.158,-0.058,-0.948,0.0
6.867,-0.057,-0.949,0.0
8.533,-0.073,-0.938,0.0
8.12,-0.071,-0.939,0.0
7.72,-0.068,-0.937,0.0
7.424,-0.067,-0.944,0.0
7.159,-0.066,-0.951,0.0
6.882,-0.065,-0.954,0.0
8.476,-0.082,-0.935,0.0
8.083,-0.079,-0.937,0.0
7.717,-0.077,-0.939,0.0
7.347,-0.075,-0.937,0.0
7.119,-0.074,-0.948,0.0
6.833,-0.072,-0.95,0.0
8.442,-0.091,-0.934,0.0
8.062,-0.089,-0.938,0.0
7.682,-0.086,-0.937,0.0
7.351,-0.083,-0.94,0.0
7.13,-0.082,-0.952,0.0
6.824,-0.08,-0.95,0.0
8.429,-0.1,-0.935,0.0
8.046,-0.098,-0.938,0.0
7.688,-0.095,-0.94,0.0
7.345,-0.092,-0.941,0.0
7.08,-0.09,-0.947,0.0
6.808,-0.088,-0.95,0.0
8.448,-0.11,-0.939,0.0
8.026,-0.107,-0.938,0.0
7.661,-0.103,-0.939,0.0
7.351,-0.1,-0.943,0.0
7.042,-0.097,-0.944,0.0
6.823,-0.096,-0.953,0.0
8.409,-0.12,-0.936,0.0
8.02,-0.116,-0.938,0.0
7.653,-0.112,-0.939,0.0
7.296,-0.108,-0.937,0.0
0.0,0.0,0.0,0.0
6.787,-0.103,-0.95,0.0
8.39,-0.129,-0.936,0.0
7.99,-0.124,-0.936,0.0
7.685,-0.121,-0.944,0.0
7.309,-0.117,-0.94,0.0
7.076,-0.114,-0.95,0.0
6.771,-0.111,-0.948,0.0
8.378,-0.138,-0.935,0.0
8.001,-0.134,-0.938,0.0
7.639,-0.129,-0.939,0.0
7.294,-0.125,-0.939,0.0
7.003,-0.121,-0.941,0.0
6.763,-0.119,-0.947,0.0
8.379,-0.148,-0.936,0.0
8.022,-0.143,-0.941,0.0
7.652,-0.138,-0.941,0.0
7.279,-0.133,-0.937,0.0
7.074,-0.131,-0.951,0.0
6.745,-0.126,-0.945,0.0
8.391,-0.158,-0.937,0.0
8.016,-0.152,-0.94,0.0
7.632,-0.147,-0.938,0.0
7.295,-0.142,-0.939,0.0
7.067,-0.139,-0.95,0.0
6.792,-0.135,-0.951,0.0
8.38,-0.167,-0.936,0.0
8.009,-0.161,-0.939,0.0
7.628,-0.155,-0.938,0.0
7.321,-0.151,-0.942,0.0
7.075,-0.147,-0.95,0.0
6.774,-0.142,-0.948,0.0
8.403,-0.177,-0.938,0.0
8.022,-0.171,-0.94,0.0
7.683,-0.165,-0.943,0.0
7.315,-0.159,-0.94,0.0
7.114,-0.156,-0.955,0.0
6.811,-0.151,-0.953,0.0
8.4,-0.187,-0.936,0.0
8.031,-0.18,-0.94,0.0
7.664,-0.173,-0.94,0.0
7.3,-0.167,-0.937,0.0
7.063,-0.163,-0.947,0.0
6.828,-0.159,-0.954,0.0
8.405,-0.196,-0.935,0.0
8.029,-0.189,-0.938,0.0
7.658,-0.182,-0.938,0.0
7.366,-0.176,-0.944,0.0
7.07,-0.171,-0.946,0.0
6.801,-0.166,-0.949,0.0
8.427,-0.206,-0.936,0.0
8.013,-0.198,-0.935,0.0
7.695,-0.191,-0.941,0.0
7.35,-0.184,-0.94,0.0
7.087,-0.179,-0.947,0.0
6.806,-0.173,-0.948,0.0
8.471,-0.217,-0.938,0.0
8.05,-0.207,-0.937,0.0
7.699,-0.2,-0.939,0.0
7.388,-0.193,-0.943,0.0
7.119,-0.188,-0.949,0.0
6.833,-0.182,-0.949,0.0
8.482,-0.226,-0.937,0.0
8.074,-0.217,-0.937,0.0
7.709,-0.209,-0.938,0.0
7.376,-0.201,-0.939,0.0
7.09,-0.195,-0.943,0.0
6.873,-0.19,-0.952,0.0
8.502,-0.236,-0.936,0.0
8.12,-0.227,-0.939,0.0
7.72,-0.217,-0.936,0.0
7.408,-0.21,-0.94,0.0
7.103,-0.203,-0.942,0.0
6.881,-0.198,-0.951,0.0
8.544,-0.246,-0.937,0.0
8.141,-0.236,-0.938,0.0
7.791,-0.228,-0.941,0.0
7.427,-0.219,-0.94,0.0
7.134,-0.211,-0.942,0.0
6.871,-0.205,-0.946,0.0
8.589,-0.257,-0.939,0.0
8.196,-0.246,-0.941,0.0
7.844,-0.237,-0.944,0.0
7.504,-0.229,-0.946,0.0
7.204,-0.221,-0.948,0.0
6.925,-0.214,-0.95,0.0
8.645,-0.267,-0.94,0.0
8.223,-0.256,-0.94,0.0
7.834,-0.245,-0.939,0.0
7.499,-0.236,-0.941,0.0
7.227,-0.229,-0.947,0.0
6.944,-0.222,-0.949,0.0
8.681,-0.277,-0.94,0.0
8.234,-0.265,-0.937,0.0
7.844,-0.254,-0.936,0.0
7.552,-0.246,-0.944,0.0
7.247,-0.237,-0.946,0.0
6.966,-0.23,-0.948,0.0
8.723,-0.287,-0.939,0.0
8.282,-0.275,-0.937,0.0
7.923,-0.264,-0.941,0.0
7.593,-0.255,-0.944,0.0
7.259,-0.245,-0.943,0.0
7.013,-0.238,-0.95,0.0
8.78,-0.298,-0.94,0.0
8.352,-0.285,-0.94,0.0
7.964,-0.274,-0.94,0.0
7.624,-0.263,-0.943,0.0
7.328,-0.255,-0.947,0.0
7.036,-0.246,-0.949,0.0
8.831,-0.308,-0.94,0.0
8.393,-0.295,-0.939,0.0
8.038,-0.284,-0.944,0.0
7.663,-0.272,-0.943,0.0
7.329,-0.262,-0.942,0.0
7.077,-0.254,-0.949,0.0
8.911,-0.32,-0.942,0.0
8.444,-0.304,-0.939,0.0
8.066,-0.292,-0.941,0.0
7.676,-0.28,-0.939,0.0
7.385,-0.271,-0.944,0.0
7.113,-0.262,-0.949,0.0
8.976,-0.33,-0.942,0.0
8.515,-0.315,-0.94,0.0
8.106,-0.301,-0.94,0.0
7.737,-0.289,-0.94,0.0
7.43,-0.279,-0.944,0.0
7.131,-0.269,-0.945,0.0
9.068,-0.342,-0.945,0.0
8.583,-0.325,-0.941,0.0
8.199,-0.312,-0.944,0.0
7.778,-0.298,-0.939,0.0
7.496,-0.288,-0.946,0.0
7.173,-0.277,-0.945,0.0
9.171,-0.354,-0.948,0.0
8.663,-0.336,-0.943,0.0
8.24,-0.321,-0.942,0.0
7.852,-0.307,-0.941,0.0
7.547,-0.297,-0.946,0.0
7.218,-0.285,-0.945,0.0
9.269,-0.366,-0.95,0.0
8.735,-0.346,-0.943,0.0
8.284,-0.33,-0.939,0.0
7.889,-0.316,-0.939,0.0
7.558,-0.304,-0.941,0.0
7.284,-0.294,-0.947,0.0
9.329,-0.376,-0.948,0.0
8.821,-0.357,-0.944,0.0
8.354,-0.34,-0.94,0.0
7.96,-0.325,-0.94,0.0
7.649,-0.314,-0.945,0.0
7.357,-0.303,-0.949,0.0
9.432,-0.388,-0.949,0.0
8.904,-0.368,-0.944,0.0
8.452,-0.35,-0.942,0.0
8.027,-0.334,-0.94,0.0
7.732,-0.323,-0.947,0.0
7.373,-0.31,-0.944,0.0
9.532,-0.399,-0.95,0.0
8.996,-0.378,-0.945,0.0
8.521,-0.36,-0.942,0.0
8.098,-0.343,-0.94,0.0
7.758,-0.33,-0.943,0.0
7.446,-0.318,-0.946,0.0
9.652,-0.412,-0.952,0.0
9.112,-0.39,-0.948,0.0
8.622,-0.371,-0.944,0.0
8.186,-0.353,-0.942,0.0
7.832,-0.339,-0.944,0.0
7.508,-0.327,-0.945,0.0
9.754,-0.423,-0.952,0.0
9.222,-0.402,-0.95,0.0
8.706,-0.381,-0.944,0.0
8.271,-0.363,-0.942,0.0
7.912,-0.349,-0.945,0.0
7.577,-0.335,-0.946,0.0
9.893,-0.436,-0.955,0.0
9.335,-0.413,-0.951,0.0
8.778,-0.39,-0.942,0.0
8.347,-0.372,-0.942,0.0
7.963,-0.356,-0.942,0.0
7.653,-0.344,-0.947,0.0
10.02,-0.449,-0.956,0.0
9.443,-0.424,-0.952,0.0
8.898,-0.401,-0.945,0.0
8.442,-0.382,-0.943,0.0
8.054,-0.366,-0.943,0.0
7.725,-0.352,-0.947,0.0
10.108,-0.459,-0.952,0.0
9.584,-0.437,-0.955,0.0
9.012,-0.412,-0.946,0.0
8.551,-0.392,-0.945,0.0
8.144,-0.375,-0.944,0.0
7.783,-0.359,-0.944,0.0
10.269,-0.473,-0.955,0.0
9.701,-0.448,-0.955,0.0
9.108,-0.422,-0.945,0.0
8.667,-0.403,-0.947,0.0
8.216,-0.383,-0.942,0.0
7.862,-0.368,-0.944,0.0
10.402,-0.485,-0.955,0.0
9.811,-0.459,-0.953,0.0
9.278,-0.435,-0.952,0.0
8.748,-0.412,-0.945,0.0
8.328,-0.393,-0.945,0.0
7.967,-0.377,-0.947,0.0
10.538,-0.497,-0.954,0.0
9.933,-0.47,-0.953,0.0
9.4,-0.446,-0.952,0.0
8.897,-0.423,-0.95,0.0
8.431,-0.402,-0.946,0.0
8.029,-0.384,-0.944,0.0
10.694,-0.51,-0.955,0.0
10.026,-0.48,-0.949,0.0
9.565,-0.459,-0.956,0.0
9.008,-0.433,-0.95,0.0
8.558,-0.413,-0.949,0.0
8.115,-0.392,-0.943,0.0
10.794,-0.52,-0.95,0.0
10.252,-0.495,-0.957,0.0
9.669,-0.468,-0.954,0.0
9.12,-0.443,-0.95,0.0
8.667,-0.422,-0.949,0.0
8.229,-0.402,-0.945,0.0
11.091,-0.54,-0.961,0.0
10.429,-0.509,-0.959,0.0
9.821,-0.48,-0.956,0.0
9.212,-0.451,-0.946,0.0
8.782,-0.431,-0.949,0.0
8.342,-0.411,-0.947,0.0
11.208,-0.55,-0.955,0.0
10.506,-0.517,-0.951,0.0
9.948,-0.49,-0.954,0.0
9.417,-0.465,-0.954,0.0
8.88,-0.44,-0.947,0.0
8.451,-0.42,-0.947,0.0
11.421,-0.565,-0.958,0.0
10.701,-0.53,-0.954,0.0
10.108,-0.502,-0.955,0.0
9.559,-0.476,-0.955,0.0
9.023,-0.45,-0.95,0.0
8.572,-0.429,-0.948,0.0
11.584,-0.577,-0.955,0.0
10.882,-0.543,-0.955,0.0
10.306,-0.515,-0.959,0.0
9.737,-0.488,-0.959,0.0
9.191,-0.461,-0.954,0.0
8.721,-0.439,-0.952,0.0
11.889,-0.596,-0.963,0.0
11.099,-0.557,-0.958,0.0
10.465,-0.527,-0.958,0.0
9.857,-0.497,-0.956,0.0
9.33,-0.471,-0.955,0.0
8.842,-0.447,-0.952,0.0
12.141,-0.612,-0.965,0.0
11.313,-0.571,-0.959,0.0
10.626,-0.537,-0.957,0.0
10.029,-0.508,-0.958,0.0
9.509,-0.483,-0.959,0.0
8.955,-0.455,-0.951,0.0
12.307,-0.623,-0.96,0.0
11.515,-0.584,-0.959,0.0
10.805,-0.549,-0.957,0.0
10.214,-0.52,-0.96,0.0
9.663,-0.493,-0.959,0.0
9.112,-0.465,-0.953,0.0
12.632,-0.643,-0.966,0.0
11.744,-0.598,-0.96,0.0
11.122,-0.567,-0.968,0.0
10.368,-0.53,-0.958,0.0
9.83,-0.503,-0.961,0.0
9.292,-0.476,-0.957,0.0
12.916,-0.659,-0.967,0.0
12.098,-0.618,-0.97,0.0
11.191,-0.572,-0.956,0.0
10.541,-0.54,-0.958,0.0
9.974,-0.512,-0.959,0.0
9.442,-0.485,-0.958,0.0
13.041,-0.667,-0.956,0.0
12.244,-0.627,-0.963,0.0
11.438,-0.586,-0.959,0.0
10.671,-0.548,-0.953,0.0
10.189,-0.524,-0.964,0.0
9.596,-0.494,-0.958,0.0
13.483,-0.691,-0.967,0.0
12.549,-0.644,-0.966,0.0
11.699,-0.601,-0.963,0.0
10.902,-0.56,-0.956,0.0
10.332,-0.532,-0.96,0.0
9.775,-0.503,-0.96,0.0
13.569,-0.696,-0.952,0.0
12.771,-0.656,-0.963,0.0
12.0,-0.617,-0.968,0.0
11.128,-0.572,-0.957,0.0
10.488,-0.54,-0.958,0.0
9.948,-0.512,-0.961,0.0
13.953,-0.716,-0.956,0.0
13.052,-0.67,-0.963,0.0
12.173,-0.625,-0.962,0.0
11.432,-0.588,-0.965,0.0
10.703,-0.551,-0.96,0.0
10.162,-0.523,-0.965,0.0
14.482,-0.743,-0.969,0.0
13.4,-0.687,-0.967,0.0
12.502,-0.642,-0.968,0.0
11.63,-0.597,-0.962,0.0
10.936,-0.562,-0.963,0.0
10.323,-0.531,-0.963,0.0
14.917,-0.764,-0.973,0.0
13.648,-0.699,-0.962,0.0
12.787,-0.655,-0.968,0.0
11.954,-0.613,-0.969,0.0
11.127,-0.571,-0.961,0.0
10.479,-0.538,-0.96,0.0
15.222,-0.778,-0.968,0.0
14.349,-0.733,-0.987,0.0
13.021,-0.666,-0.964,0.0
12.161,-0.622,-0.966,0.0
11.351,-0.58,-0.961,0.0
10.683,-0.546,-0.961,0.0
15.226,-0.776,-0.942,0.0
14.484,-0.738,-0.972,0.0
13.442,-0.685,-0.972,0.0
12.47,-0.635,-0.969,0.0
11.612,-0.592,-0.963,0.0
10.963,-0.559,-0.967,0.0
15.266,-0.775,-0.919,0.0
14.842,-0.753,-0.971,0.0
13.635,-0.692,-0.963,0.0
12.711,-0.645,-0.966,0.0
11.944,-0.606,-0.97,0.0
11.127,-0.565,-0.962,0.0
15.269,-0.772,-0.893,1.0
15.253,-0.771,-0.972,0.0
13.852,-0.7,-0.955,0.0
12.984,-0.656,-0.964,0.0
12.167,-0.614,-0.967,0.0
11.397,-0.575,-0.966,0.0
15.311,-0.77,-0.869,1.0
15.267,-0.767,-0.946,1.0
14.398,-0.723,-0.967,0.0
13.334,-0.669,-0.967,0.0
12.449,-0.625,-0.968,0.0
11.624,-0.583,-0.965,0.0
15.404,-0.769,-0.847,0.0
15.29,-0.763,-0.921,1.0
14.856,-0.741,-0.972,0.0
13.632,-0.68,-0.965,0.0
12.77,-0.636,-0.971,0.0
11.935,-0.594,-0.97,0.0
15.782,-0.783,-0.841,0.0
15.298,-0.758,-0.895,1.0
15.295,-0.757,-0.974,0.0
13.883,-0.687,-0.958,0.0
13.029,-0.644,-0.968,0.0
12.189,-0.602,-0.969,0.0
16.061,-0.79,-0.828,1.0
15.353,-0.755,-0.871,1.0
15.34,-0.753,-0.951,0.0
14.41,-0.707,-0.97,0.0
13.386,-0.656,-0.971,0.0
12.505,-0.612,-0.972,0.0
16.371,-0.798,-0.815,1.0
15.455,-0.753,-0.85,0.0
15.346,-0.747,-0.924,1.0
14.793,-0.719,-0.97,0.0
13.557,-0.658,-0.959,0.0
12.745,-0.618,-0.969,0.0
16.835,-0.813,-0.809,0.0
15.799,-0.762,-0.841,0.0
15.379,-0.741,-0.899,1.0
15.345,-0.738,-0.979,0.0
14.041,-0.674,-0.969,0.0
13.089,-0.628,-0.971,0.0
17.388,-0.831,-0.805,0.0
16.143,-0.77,-0.831,1.0
15.418,-0.734,-0.874,1.0
15.405,-0.733,-0.955,0.0
14.47,-0.687,-0.973,0.0
13.405,-0.636,-0.971,0.0
18.095,-0.854,-0.805,0.0
16.355,-0.771,-0.813,1.0
15.5,-0.729,-0.851,0.0
15.434,-0.725,-0.93,0.0
14.817,-0.695,-0.97,0.0
13.631,-0.638,-0.963,0.0
18.737,-0.873,-0.801,0.0
16.909,-0.787,-0.811,0.0
15.924,-0.739,-0.847,0.0
15.475,-0.717,-0.905,1.0
15.472,-0.716,-0.986,0.0
14.051,-0.649,-0.968,0.0
19.487,-0.896,-0.799,0.0
17.562,-0.806,-0.812,1.0
16.191,-0.741,-0.832,1.0
15.525,-0.709,-0.881,1.0
15.519,-0.708,-0.961,0.0
14.402,-0.655,-0.967,0.0
20.181,-0.914,-0.792,0.0
18.14,-0.82,-0.806,0.0
16.438,-0.741,-0.816,1.0
15.606,-0.702,-0.858,1.0
15.566,-0.699,-0.936,0.0
14.687,-0.658,-0.96,0.0
20.993,-0.936,-0.787,0.0
18.764,-0.835,-0.801,0.0
16.952,-0.752,-0.812,0.0
15.921,-0.704,-0.847,0.0
15.625,-0.69,-0.912,1.0
15.551,-0.684,-0.989,0.0
21.932,-0.961,-0.783,3.0
19.678,-0.86,-0.805,0.0
17.66,-0.77,-0.814,0.0
16.243,-0.706,-0.835,2.0
15.665,-0.679,-0.887,1.0
15.674,-0.677,-0.969,0.0
22.955,-0.988,-0.78,2.0
20.248,-0.868,-0.793,0.0
18.254,-0.781,-0.81,0.0
16.591,-0.707,-0.824,1.0
15.729,-0.668,-0.863,1.0
15.73,-0.667,-0.945,0.0
23.796,-1.004,-0.767,15.0
21.033,-0.884,-0.787,0.0
18.841,-0.79,-0.803,0.0
16.924,-0.707,-0.811,1.0
15.913,-0.662,-0.845,0.0
15.773,-0.655,-0.92,1.0
24.064,-0.994,-0.734,20.0
22.007,-0.906,-0.785,1.0
19.613,-0.804,-0.802,0.0
17.704,-0.723,-0.817,0.0
16.236,-0.661,-0.834,0.0
15.815,-0.642,-0.895,1.0
24.949,-1.008,-0.718,6.0
23.28,-0.937,-0.79,3.0
20.453,-0.82,-0.801,1.0
18.264,-0.729,-0.812,0.0
16.868,-0.671,-0.837,1.0
15.884,-0.629,-0.871,1.0
28.331,-1.117,-0.766,7.0
23.803,-0.935,-0.767,14.0
21.049,-0.823,-0.788,0.0
18.884,-0.736,-0.807,0.0
17.222,-0.668,-0.825,2.0
16.018,-0.619,-0.851,1.0
28.53,-1.097,-0.722,14.0
24.207,-0.926,-0.738,20.0
22.014,-0.839,-0.786,2.0
19.774,-0.75,-0.811,0.0
17.749,-0.67,-0.82,0.0
16.204,-0.609,-0.833,0.0
30.489,-1.141,-0.72,21.0
25.037,-0.932,-0.721,11.0
23.42,-0.868,-0.796,4.0
20.475,-0.755,-0.805,1.0
18.392,-0.675,-0.819,1.0
16.764,-0.612,-0.834,0.0
30.561,-1.11,-0.669,36.0
27.624,-0.999,-0.749,1.0
23.792,-0.856,-0.768,18.0
21.145,-0.756,-0.795,0.0
18.758,-0.668,-0.803,2.0
17.209,-0.609,-0.827,0.0
30.813,-1.085,-0.623,32.0
0.0,0.0,0.0,0.0
24.429,-0.851,-0.748,23.0
22.378,-0.775,-0.803,4.0
19.574,-0.674,-0.805,0.0
17.807,-0.61,-0.825,0.0
31.263,-1.065,-0.579,27.0
30.451,-1.031,-0.722,21.0
25.152,-0.847,-0.727,6.0
22.987,-0.77,-0.787,5.0
20.395,-0.679,-0.805,0.0
18.334,-0.606,-0.819,0.0
37.986,-1.249,-0.64,9.0
30.549,-0.998,-0.674,34.0
27.773,-0.902,-0.757,1.0
23.774,-0.767,-0.775,15.0
21.305,-0.683,-0.805,0.0
19.271,-0.614,-0.829,0.0
38.197,-1.209,-0.581,14.0
30.853,-0.97,-0.629,29.0
29.694,-0.928,-0.761,2.0
24.289,-0.754,-0.751,23.0
22.046,-0.68,-0.797,0.0
19.791,-0.606,-0.819,2.0
38.534,-1.172,-0.523,29.0
31.28,-0.944,-0.587,17.0
30.423,-0.912,-0.73,23.0
25.22,-0.75,-0.739,6.0
23.327,-0.689,-0.805,5.0
20.557,-0.603,-0.817,2.0
38.634,-1.125,-0.462,47.0
37.925,-1.095,-0.65,13.0
30.558,-0.876,-0.684,31.0
27.541,-0.783,-0.763,1.0
23.768,-0.671,-0.782,17.0
21.021,-0.588,-0.802,0.0
38.672,-1.075,-0.4,41.0
38.188,-1.053,-0.594,15.0
30.877,-0.844,-0.642,29.0
28.781,-0.78,-0.751,1.0
24.303,-0.653,-0.761,23.0
22.123,-0.589,-0.809,0.0
38.714,-1.023,-0.339,54.0
38.5,-1.008,-0.538,19.0
31.397,-0.815,-0.603,17.0
30.387,-0.781,-0.745,19.0
24.98,-0.637,-0.743,6.0
23.3,-0.588,-0.815,3.0
38.8,-0.971,-0.279,32.0
38.707,-0.959,-0.481,26.0
37.905,-0.931,-0.669,13.0
30.506,-0.742,-0.701,34.0
27.663,-0.666,-0.781,1.0
23.781,-0.567,-0.795,15.0
40.424,-0.955,-0.229,39.0
40.411,-0.944,-0.44,63.0
38.149,-0.882,-0.615,22.0
30.859,-0.706,-0.662,29.0
28.382,-0.642,-0.757,3.0
23.858,-0.533,-0.761,4.0
40.434,-0.896,-0.167,27.0
40.426,-0.885,-0.379,10.0
38.359,-0.83,-0.56,11.0
31.411,-0.672,-0.626,16.0
30.182,-0.638,-0.76,13.0
26.63,-0.556,-0.81,1.0
38.386,-0.793,-0.101,19.0
45.575,-0.93,-0.359,6.0
44.924,-0.905,-0.589,19.0
0.0,0.0,0.0,0.0
30.509,-0.599,-0.723,30.0
27.429,-0.532,-0.794,4.0
52.98,-1.015,-0.061,28.0
52.924,-1.0,-0.339,52.0
45.176,-0.841,-0.526,19.0
38.034,-0.698,-0.646,21.0
30.87,-0.559,-0.687,29.0
28.644,-0.511,-0.787,7.0
20.139,-0.354,0.005,37.0
53.037,-0.919,-0.262,5.0
52.888,-0.903,-0.539,12.0
38.553,-0.648,-0.599,14.0
31.568,-0.522,-0.657,9.0
29.728,-0.484,-0.775,12.0
20.149,-0.323,0.034,49.0
59.555,-0.938,-0.21,8.0
52.954,-0.819,-0.465,9.0
44.83,-0.682,-0.633,19.0
36.015,-0.537,-0.698,2.0
30.429,-0.446,-0.75,26.0
20.138,-0.29,0.063,16.0
59.526,-0.842,-0.126,21.0
56.608,-0.784,-0.417,10.0
44.997,-0.611,-0.573,22.0
37.95,-0.505,-0.683,25.0
31.365,-0.409,-0.73,24.0
20.16,-0.258,0.09,1.0
59.567,-0.745,-0.045,19.0
56.5,-0.691,-0.34,2.0
46.183,-0.552,-0.526,5.0
38.154,-0.445,-0.635,13.0
32.135,-0.366,-0.705,1.0
56.167,-0.625,0.328,7.0
56.212,-0.61,0.032,1.0
56.224,-0.594,-0.263,5.0
52.644,-0.541,-0.529,6.0
38.853,-0.388,-0.596,3.0
20.194,-0.196,-0.416,22.0
53.375,-0.504,0.383,12.0
53.37,-0.489,0.101,6.0
53.316,-0.473,-0.18,9.0
20.162,-0.172,-0.176,5.0
20.172,-0.167,-0.283,25.0
20.163,-0.161,-0.389,30.0
58.352,-0.452,0.494,7.0
20.164,-0.15,0.064,11.0
20.186,-0.144,-0.042,19.0
20.125,-0.138,-0.15,19.0
20.142,-0.132,-0.257,30.0
20.154,-0.127,-0.364,38.0
20.134,-0.121,0.196,19.0
20.139,-0.115,0.089,29.0
20.135,-0.109,-0.017,29.0
20.143,-0.103,-0.125,28.0
20.144,-0.097,-0.232,24.0
20.145,-0.091,-0.338,34.0
20.124,-0.085,0.22,28.0
20.127,-0.079,0.114,32.0
20.128,-0.073,0.007,35.0
20.144,-0.068,-0.101,32.0
20.148,-0.061,-0.207,24.0
20.156,-0.055,-0.314,27.0
20.119,-0.05,0.244,33.0
20.118,-0.044,0.138,32.0
20.134,-0.038,0.031,37.0
20.141,-0.032,-0.077,29.0
20.163,-0.025,-0.184,23.0
20.169,-0.019,-0.291,8.0
20.13,-0.013,0.268,27.0
20.127,-0.007,0.161,29.0
20.162,-0.001,0.055,29.0
20.252,0.004,-0.054,151.0
20.267,0.01,-0.161,151.0
20.261,0.016,-0.269,151.0
20.14,0.022,0.291,31.0
20.141,0.028,0.185,28.0
20.149,0.035,0.077,25.0
20.233,0.041,-0.031,6.0
20.224,0.047,-0.138,25.0
20.212,0.053,-0.246,1.0
20.141,0.059,0.314,27.0
20.151,0.066,0.207,28.0
20.152,0.072,0.1,27.0
20.204,0.078,-0.009,28.0
20.187,0.084,-0.116,28.0
20.192,0.09,-0.224,21.0
20.161,0.097,0.336,29.0
20.159,0.103,0.229,27.0
20.165,0.109,0.121,24.0
20.178,0.116,0.012,29.0
20.184,0.122,-0.095,32.0
20.182,0.128,-0.202,24.0
20.173,0.135,0.357,26.0
20.185,0.141,0.25,24.0
20.19,0.148,0.142,24.0
20.223,0.154,0.033,24.0
20.209,0.161,-0.074,23.0
20.181,0.167,-0.182,19.0
20.266,0.174,0.38,29.0
20.295,0.181,0.272,29.0
20.298,0.187,0.164,29.0
20.327,0.194,0.053,34.0
20.331,0.2,-0.054,4.0
20.217,0.205,-0.162,1.0
20.271,0.213,0.4,39.0
20.29,0.22,0.292,27.0
20.322,0.227,0.184,21.0
20.306,0.233,0.073,3.0
99.755,1.177,-0.174,1.0
0.0,0.0,0.0,0.0
20.288,0.252,0.419,26.0
20.302,0.259,0.311,10.0
20.42,0.267,0.203,0.0
99.634,1.337,0.451,6.0
99.82,1.37,-0.082,2.0
0.0,0.0,0.0,0.0
196.17,2.827,4.238,21.0
194.775,2.868,3.163,35.0
0.0,0.0,0.0,0.0
99.595,1.53,0.539,4.0
99.79,1.563,0.004,4.0
0.0,0.0,0.0,0.0
194.851,3.188,4.38,8.0
194.873,3.247,3.333,24.0
0.0,0.0,0.0,0.0
99.762,1.727,0.625,2.0
99.855,1.76,0.089,15.0
0.0,0.0,0.0,0.0
194.576,3.566,4.537,19.0
194.633,3.63,3.493,15.0
103.176,1.958,1.297,12.0
102.881,1.984,0.729,6.0
100.028,1.961,0.171,2.0
0.0,0.0,0.0,0.0
194.584,3.954,4.695,19.0
195.877,4.043,3.672,9.0
195.676,4.099,2.613,9.0
0.0,0.0,0.0,0.0
100.098,2.16,0.249,3.0
100.015,2.191,-0.289,4.0
194.606,4.339,4.844,23.0
193.986,4.384,3.781,19.0
195.304,4.477,2.754,26.0
0.0,0.0,0.0,0.0
100.209,2.361,0.323,4.0
0.0,0.0,0.0,0.0
194.167,4.715,4.974,27.0
193.842,4.766,3.918,33.0
195.184,4.863,2.892,23.0
0.0,0.0,0.0,0.0
100.337,2.564,0.393,1.0
0.0,0.0,0.0,0.0
194.442,5.11,5.115,24.0
193.769,5.155,4.05,27.0
195.993,5.28,3.038,7.0
201.19,5.483,2.011,5.0
0.0,0.0,0.0,0.0
0.0,0.0,0.0,0.0
194.351,5.503,5.242,22.0
193.717,5.547,4.176,33.0
0.0,0.0,0.0,0.0
0.0,0.0,0.0,0.0
196.089,5.802,1.022,32.0
0.0,0.0,0.0,0.0
194.153,5.889,5.356,18.0
193.844,5.94,4.296,29.0
0.0,0.0,0.0,0.0
195.672,6.116,2.194,7.0
196.144,6.194,1.137,28.0
0.0,0.0,0.0,0.0
194.639,6.293,5.481,12.0
0.0,0.0,0.0,0.0
195.137,6.43,3.375,23.0
195.283,6.496,2.298,5.0
196.265,6.592,1.244,25.0
0.0,0.0,0.0,0.0
198.018,6.801,5.683,8.0
195.516,6.777,4.548,14.0
195.547,6.841,3.486,20.0
195.938,6.914,2.407,25.0
196.349,6.989,1.345,28.0
0.0,0.0,0.0,0.0
194.613,7.081,5.684,4.0
195.755,7.18,4.65,9.0
200.282,7.408,3.667,8.0
0.0,0.0,0.0,0.0
195.145,7.339,1.428,34.0
194.967,7.395,0.366,4.0
198.607,7.623,5.89,5.0
0.0,0.0,0.0,0.0
200.478,7.817,3.76,10.0
0.0,0.0,0.0,0.0
196.532,7.787,1.523,18.0
196.815,7.863,0.453,11.0
193.184,7.81,5.812,35.0
193.792,7.893,4.773,6.0
0.0,0.0,0.0,0.0
199.483,8.247,2.714,5.0
196.708,8.193,1.603,17.0
196.932,8.265,0.53,15.0
193.733,8.223,5.903,18.0
192.664,8.238,4.817,18.0
195.661,8.425,3.823,5.0
195.489,8.479,2.732,43.0
195.547,8.543,1.664,55.0
195.495,8.599,0.594,13.0
193.376,8.601,5.96,21.0
194.176,8.695,4.922,8.0
0.0,0.0,0.0,0.0
206.373,9.368,2.95,8.0
197.149,9.009,1.74,5.0
196.937,9.06,0.659,28.0
193.348,8.991,6.018,29.0
0.0,0.0,0.0,0.0
0.0,0.0,0.0,0.0
199.881,9.477,2.915,9.0
197.1,9.405,1.793,5.0
197.109,9.465,0.714,28.0
0.0,0.0,0.0,0.0
194.101,9.474,5.028,8.0
0.0,0.0,0.0,0.0
197.687,9.768,2.932,14.0
197.873,9.835,1.847,24.0
197.227,9.864,0.759,34.0
194.318,9.816,6.146,8.0
0.0,0.0,0.0,0.0
0.0,0.0,0.0,0.0
0.0,0.0,0.0,0.0
206.515,10.68,1.97,15.0
197.152,10.255,0.797,5.0
193.724,10.177,6.163,8.0
201.587,10.648,5.304,6.0
196.477,10.437,4.088,9.0
199.883,10.678,3.04,7.0
196.164,10.538,1.902,8.0
196.025,10.588,0.823,6.0
195.917,10.685,6.263,30.0
196.069,10.747,5.186,43.0
196.064,10.805,4.106,33.0
196.037,10.86,3.006,5.0
203.087,11.308,1.994,5.0
197.464,11.055,0.852,24.0
193.407,10.928,6.205,5.0
0.0,0.0,0.0,0.0
198.215,11.312,4.171,8.0
0.0,0.0,0.0,0.0
0.0,0.0,0.0,0.0
197.531,11.444,0.867,38.0
0.0,0.0,0.0,0.0
0.0,0.0,0.0,0.0
198.381,11.711,4.186,8.0
0.0,0.0,0.0,0.0
0.0,0.0,0.0,0.0
197.597,11.836,0.874,25.0
0.0,0.0,0.0,0.0
0.0,0.0,0.0,0.0
0.0,0.0,0.0,0.0
0.0,0.0,0.0,0.0
207.391,12.768,2.065,40.0
155.443,9.614,0.689,150.0
0.0,0.0,0.0,0.0
179.263,11.233,4.776,5.0
198.124,12.469,4.182,8.0
0.0,0.0,0.0,0.0
0.0,0.0,0.0,0.0
155.063,9.889,0.681,11.0
162.77,10.468,5.231,11.0
174.105,11.243,4.63,16.0
0.0,0.0,0.0,0.0
0.0,0.0,0.0,0.0
0.0,0.0,0.0,0.0
154.935,10.177,0.669,151.0
167.826,11.116,5.382,14.0
162.725,10.82,4.314,15.0
173.778,11.603,3.642,7.0
0.0,0.0,0.0,0.0
0.0,0.0,0.0,0.0
154.931,10.471,0.651,151.0
161.884,11.028,5.173,16.0
162.732,11.129,4.294,6.0
173.64,11.924,3.616,9.0
0.0,0.0,0.0,0.0
0.0,0.0,0.0,0.0
154.925,10.764,0.628,14.0
155.803,10.909,4.954,16.0
161.834,11.375,4.245,18.0
174.099,12.282,3.596,9.0
173.648,12.296,2.604,4.0
0.0,0.0,0.0,0.0
140.647,10.037,0.544,152.0
160.884,11.567,5.084,16.0
162.26,11.709,4.223,11.0
178.648,12.937,3.655,11.0
173.308,12.596,2.563,29.0
0.0,0.0,0.0,0.0
140.512,10.287,0.512,150.0
0.0,0.0,0.0,0.0
155.558,11.512,4.012,18.0
167.791,12.461,3.392,16.0
168.222,12.537,2.445,39.0
0.0,0.0,0.0,0.0
0.0,0.0,0.0,0.0
156.93,11.863,4.882,18.0
156.937,11.903,4.006,14.0
162.02,12.328,3.23,19.0
0.0,0.0,0.0,0.0
122.414,9.377,1.062,2.0
114.083,8.768,0.352,150.0
181.088,14.017,5.579,14.0
155.466,12.069,3.92,29.0
155.948,12.146,3.06,35.0
155.977,12.187,2.174,29.0
114.543,8.977,0.956,4.0
113.983,8.963,0.314,54.0
154.951,12.269,4.723,9.0
194.785,15.471,4.847,9.0
156.004,12.429,3.008,29.0
181.613,14.514,2.466,32.0
114.116,9.147,0.912,1.0
110.394,8.876,0.265,6.0
160.848,13.021,4.842,20.0
194.851,15.819,4.775,14.0
196.457,15.995,3.715,34.0
213.615,17.443,2.819,26.0
110.481,9.048,0.84,10.0
108.559,8.916,0.217,5.0
196.638,16.259,5.841,5.0
195.147,16.18,4.703,9.0
202.686,16.85,3.747,21.0
129.446,10.792,1.654,2.0
109.164,9.128,0.783,2.0
107.862,9.045,0.17,6.0
144.405,12.188,4.226,4.0
197.416,16.706,4.67,21.0
0.0,0.0,0.0,0.0
177.808,15.13,2.192,4.0
108.033,9.218,0.724,5.0
107.658,9.212,0.118,23.0
143.937,12.396,4.144,31.0
0.0,0.0,0.0,0.0
158.826,13.746,2.788,6.0
128.919,11.187,1.525,7.0
107.84,9.383,0.671,9.0
107.613,9.388,0.064,41.0
143.829,12.624,4.069,35.0
152.654,13.433,3.46,24.0
153.868,13.572,2.621,15.0
129.201,11.425,1.461,8.0
107.745,9.552,0.613,5.0
99.806,8.872,0.007,1.0
143.678,12.848,3.986,29.0
152.35,13.656,3.369,27.0
152.695,13.719,2.518,19.0
129.365,11.65,1.392,6.0
0.0,0.0,0.0,0.0
0.0,0.0,0.0,0.0
152.02,13.839,4.133,12.0
152.109,13.878,3.276,26.0
151.855,13.888,2.415,31.0
129.51,11.871,1.318,2.0
92.892,8.535,0.421,26.0
0.0,0.0,0.0,0.0
138.038,12.786,3.669,21.0
151.736,14.086,3.177,28.0
151.626,14.105,2.319,23.0
0.0,0.0,0.0,0.0
92.758,8.668,0.363,23.0
92.748,8.686,-0.159,1.0
137.886,12.984,3.578,22.0
151.492,14.296,3.076,29.0
151.248,14.303,2.216,31.0
0.0,0.0,0.0,0.0
92.621,8.796,0.303,137.0
0.0,0.0,0.0,0.0
121.643,11.638,3.077,32.0
151.25,14.502,2.971,26.0
151.161,14.521,2.114,23.0
0.0,0.0,0.0,0.0
92.523,8.925,0.24,4.0
0.0,0.0,0.0,0.0
121.496,11.806,2.989,47.0
121.621,11.84,2.305,30.0
121.591,11.859,1.616,38.0
0.0,0.0,0.0,0.0
0.0,0.0,0.0,0.0
85.399,8.38,-0.321,3.0
121.453,11.977,2.901,48.0
121.541,12.008,2.216,49.0
121.549,12.031,1.527,49.0
0.0,0.0,0.0,0.0
0.0,0.0,0.0,0.0
85.432,8.505,-0.385,1.0
121.506,12.155,2.812,32.0
150.746,15.108,2.635,16.0
150.675,15.127,1.781,11.0
0.0,0.0,0.0,0.0
0.0,0.0,0.0,0.0
0.0,0.0,0.0,0.0
115.747,11.741,2.588,44.0
150.719,15.313,2.517,19.0
150.949,15.364,1.665,3.0
0.0,0.0,0.0,0.0
0.0,0.0,0.0,0.0
0.0,0.0,0.0,0.0
115.677,11.889,2.495,41.0
115.685,11.91,1.839,21.0
0.0,0.0,0.0,0.0
0.0,0.0,0.0,0.0
0.0,0.0,0.0,0.0
68.933,7.144,-0.474,2.0
109.359,11.384,2.27,22.0
115.6,12.052,1.742,64.0
0.0,0.0,0.0,0.0
0.0,0.0,0.0,0.0
0.0,0.0,0.0,0.0
68.949,7.236,-0.533,3.0
109.249,11.514,2.173,61.0
115.698,12.212,1.644,11.0
0.0,0.0,0.0,0.0
82.036,8.685,0.225,1.0
0.0,0.0,0.0,0.0
82.039,8.712,-0.705,2.0
109.227,11.647,2.077,48.0
109.263,11.666,1.457,20.0
82.041,8.773,0.627,1.0
77.724,8.323,0.145,3.0
77.831,8.348,-0.296,3.0
0.0,0.0,0.0,0.0
109.262,11.783,1.98,11.0
109.297,11.802,1.36,3.0
82.079,8.875,0.554,1.0
77.075,8.346,0.073,8.0
77.208,8.373,-0.365,1.0
0.0,0.0,0.0,0.0
149.745,16.325,2.576,20.0
0.0,0.0,0.0,0.0
76.959,8.411,0.448,1.0
76.292,8.35,0.002,10.0
77.429,8.486,-0.438,1.0
0.0,0.0,0.0,0.0
103.854,11.439,1.689,18.0
0.0,0.0,0.0,0.0
75.886,8.379,0.369,3.0
75.595,8.357,-0.068,21.0
68.98,7.636,-0.456,2.0
0.0,0.0,0.0,0.0
103.741,11.54,1.586,36.0
76.797,8.552,0.737,3.0
75.345,8.4,0.294,13.0
75.24,8.399,-0.141,10.0
68.898,7.7,-0.522,3.0
0.0,0.0,0.0,0.0
103.803,11.654,1.488,20.0
76.186,8.562,0.657,2.0
74.888,8.426,0.219,9.0
74.811,8.428,-0.214,14.0
68.858,7.766,-0.59,1.0
0.0,0.0,0.0,0.0
0.0,0.0,0.0,0.0
75.273,8.535,0.574,3.0
74.611,8.47,0.143,32.0
74.695,8.489,-0.289,7.0
0.0,0.0,0.0,0.0
0.0,0.0,0.0,0.0
0.0,0.0,0.0,0.0
74.707,8.543,0.494,14.0
72.101,8.254,0.065,0.0
71.643,8.21,-0.351,0.0
0.0,0.0,0.0,0.0
42.55,4.887,-0.694,0.0
75.387,8.683,0.85,3.0
74.594,8.6,0.415,7.0
0.0,0.0,0.0,0.0
0.0,0.0,0.0,0.0
0.0,0.0,0.0,0.0
41.313,4.782,-0.716,1.0
75.738,8.789,0.776,7.0
0.0,0.0,0.0,0.0
0.0,0.0,0.0,0.0
0.0,0.0,0.0,0.0
0.0,0.0,0.0,0.0
0.0,0.0,0.0,0.0
75.883,8.871,0.696,7.0
0.0,0.0,0.0,0.0
0.0,0.0,0.0,0.0
68.878,8.073,-0.556,2.0
0.0,0.0,0.0,0.0
38.473,4.518,-0.75,0.0
0.0,0.0,0.0,0.0
69.649,8.204,0.164,1.0
69.416,8.183,-0.231,0.0
69.013,8.143,-0.632,0.0
0.0,0.0,0.0,0.0
37.136,4.39,-0.765,0.0
0.0,0.0,0.0,0.0
0.0,0.0,0.0,0.0
69.006,8.186,-0.306,1.0
0.0,0.0,0.0,0.0
42.763,5.082,-0.683,0.0
35.949,4.276,-0.78,0.0
0.0,0.0,0.0,0.0
68.774,8.201,0.011,2.0
69.236,8.262,-0.384,0.0
0.0,0.0,0.0,0.0
40.738,4.869,-0.696,0.0
35.397,4.234,-0.808,0.0
0.0,0.0,0.0,0.0
68.787,8.248,-0.065,16.0
68.894,8.266,-0.459,3.0
0.0,0.0,0.0,0.0
0.0,0.0,0.0,0.0
32.93,3.96,-0.788,0.0
0.0,0.0,0.0,0.0
68.77,8.288,-0.141,1.0
68.967,8.317,-0.537,2.0
68.747,8.296,-0.936,4.0
38.079,4.598,-0.736,0.0
32.365,3.911,-0.811,0.0
68.793,8.326,0.173,1.0
68.867,8.339,-0.219,0.0
68.891,8.346,-0.615,0.0
68.657,8.324,-1.013,2.0
37.225,4.516,-0.762,0.0
30.978,3.761,-0.812,0.0
68.748,8.357,0.094,151.0
69.289,8.426,-0.301,4.0
68.779,8.369,-0.693,0.0
0.0,0.0,0.0,0.0
0.0,0.0,0.0,0.0
30.134,3.673,-0.824,0.0
68.714,8.386,0.016,156.0
69.283,8.459,-0.38,2.0
68.631,8.383,-0.769,0.0
40.998,5.01,-0.698,0.0
34.493,4.218,-0.785,0.0
29.355,3.592,-0.837,0.0
68.719,8.416,-0.063,155.0
0.0,0.0,0.0,0.0
68.665,8.417,-0.849,2.0
39.182,4.805,-0.713,0.0
32.626,4.003,-0.781,0.0
28.216,3.464,-0.837,0.0
68.81,8.455,-0.143,2.0
0.0,0.0,0.0,0.0
68.659,8.443,-0.929,5.0
38.931,4.789,-0.754,0.0
32.031,3.942,-0.804,0.0
27.531,3.39,-0.849,0.0
69.213,8.528,-0.224,4.0
68.671,8.464,-0.616,0.0
68.693,8.47,-1.009,4.0
37.148,4.582,-0.762,0.0
31.07,3.834,-0.816,0.0
26.699,3.296,-0.854,0.0
65.583,8.101,-0.288,1.0
55.763,6.889,-0.565,1.0
0.0,0.0,0.0,0.0
35.539,4.394,-0.771,0.0
30.352,3.754,-0.832,0.0
25.906,3.205,-0.859,0.0
65.668,8.128,-0.366,1.0
55.733,6.9,-0.629,1.0
0.0,0.0,0.0,0.0
34.558,4.28,-0.79,0.0
29.232,3.622,-0.836,0.0
25.075,3.108,-0.861,0.0
0.0,0.0,0.0,0.0
0.0,0.0,0.0,0.0
39.069,4.845,-0.71,0.0
32.781,4.067,-0.787,0.0
28.274,3.509,-0.841,0.0
24.444,3.034,-0.868,0.0
0.0,0.0,0.0,0.0
0.0,0.0,0.0,0.0
38.33,4.76,-0.741,1.0
31.679,3.934,-0.797,1.0
27.39,3.403,-0.847,0.0
23.779,2.955,-0.872,0.0
0.0,0.0,0.0,0.0
46.233,5.745,-0.682,0.0
37.55,4.667,-0.77,0.0
31.099,3.865,-0.819,0.0
26.511,3.296,-0.851,0.0
21.981,2.733,-0.831,0.0
0.0,0.0,0.0,0.0
0.0,0.0,0.0,0.0
35.661,4.434,-0.772,0.0
30.016,3.732,-0.825,0.0
25.995,3.233,-0.864,0.0
21.928,2.728,-0.855,1.0
0.0,0.0,0.0,0.0
0.0,0.0,0.0,0.0
34.72,4.317,-0.792,0.0
29.014,3.608,-0.831,0.0
24.893,3.096,-0.856,0.0
21.855,2.719,-0.877,1.0
0.0,0.0,0.0,0.0
38.905,4.836,-0.709,0.0
32.879,4.087,-0.787,0.0
28.085,3.491,-0.837,0.0
24.318,3.023,-0.864,0.0
21.784,2.709,-0.899,1.0
0.0,0.0,0.0,0.0
38.269,4.754,-0.741,0.0
31.746,3.944,-0.797,0.0
27.29,3.39,-0.844,0.0
23.804,2.957,-0.873,0.0
21.243,2.639,-0.901,0.0
0.0,0.0,0.0,0.0
37.155,4.611,-0.761,0.0
31.038,3.852,-0.814,1.0
26.503,3.289,-0.85,0.0
22.309,2.768,-0.843,0.0
20.487,2.542,-0.892,0.0
0.0,0.0,0.0,0.0
0.0,0.0,0.0,0.0
30.262,3.75,-0.828,0.0
25.735,3.189,-0.854,0.0
21.927,2.717,-0.854,0.0
20.247,2.509,-0.904,0.0
0.0,0.0,0.0,0.0
34.547,4.274,-0.785,0.0
29.142,3.605,-0.83,0.0
25.076,3.102,-0.86,0.0
21.787,2.695,-0.872,0.0
20.107,2.487,-0.92,0.0
39.537,4.883,-0.716,0.0
32.845,4.055,-0.783,0.0
28.083,3.467,-0.83,0.0
24.474,3.021,-0.867,0.0
21.809,2.691,-0.897,0.0
0.0,0.0,0.0,0.0
38.927,4.796,-0.748,0.0
32.04,3.946,-0.798,0.0
27.62,3.401,-0.847,0.0
23.788,2.928,-0.868,0.0
21.485,2.644,-0.907,0.0
18.772,2.31,-0.9,0.0
37.103,4.558,-0.753,0.0
31.019,3.81,-0.807,0.0
26.743,3.283,-0.849,0.0
23.419,2.874,-0.88,0.0
20.478,2.513,-0.887,0.0
18.325,2.248,-0.899,0.0
35.485,4.346,-0.758,0.0
30.345,3.715,-0.822,0.0
25.851,3.164,-0.848,0.0
21.877,2.676,-0.845,0.0
20.333,2.487,-0.903,0.0
18.135,2.218,-0.909,1.0
34.331,4.189,-0.77,0.0
29.478,3.596,-0.83,0.0
25.324,3.088,-0.858,0.0
21.807,2.658,-0.866,0.0
20.087,2.448,-0.912,0.0
17.963,2.188,-0.919,0.0
32.772,3.983,-0.769,0.0
28.55,3.469,-0.833,0.0
24.549,2.981,-0.857,0.0
21.769,2.643,-0.887,1.0
0.0,0.0,0.0,0.0
17.458,2.118,-0.911,0.0
32.488,3.932,-0.796,0.0
27.717,3.353,-0.837,0.0
24.122,2.917,-0.867,0.0
21.625,2.614,-0.903,0.0
18.995,2.295,-0.902,0.0
17.205,2.078,-0.916,1.0
31.465,3.791,-0.802,0.0
27.067,3.259,-0.845,0.0
23.647,2.846,-0.873,0.0
20.699,2.49,-0.885,0.0
18.693,2.247,-0.906,0.0
16.921,2.034,-0.917,0.0
30.766,3.688,-0.814,0.0
26.24,3.143,-0.845,0.0
23.242,2.782,-0.881,0.0
20.292,2.428,-0.887,0.0
18.293,2.188,-0.905,0.0
16.629,1.988,-0.918,0.0
30.059,3.583,-0.825,0.0
25.63,3.053,-0.85,0.0
21.872,2.604,-0.85,0.0
20.146,2.397,-0.901,0.0
18.086,2.151,-0.912,0.0
16.463,1.957,-0.925,1.0
29.025,3.44,-0.824,0.0
25.056,2.967,-0.855,0.0
21.812,2.581,-0.869,0.0
19.315,2.284,-0.882,0.0
17.669,2.089,-0.908,0.0
16.167,1.91,-0.923,0.0
28.293,3.332,-0.83,0.0
24.547,2.889,-0.86,0.0
21.771,2.56,-0.887,1.0
19.263,2.264,-0.897,1.0
17.422,2.046,-0.911,0.0
15.963,1.874,-0.926,0.0
27.616,3.231,-0.835,0.0
24.123,2.82,-0.867,0.0
21.72,2.537,-0.905,0.0
19.174,2.238,-0.91,0.0
17.177,2.004,-0.913,0.0
15.694,1.83,-0.924,0.0
27.16,3.156,-0.845,0.0
23.683,2.75,-0.872,0.0
0.0,0.0,0.0,0.0
18.794,2.179,-0.908,0.0
17.016,1.971,-0.919,0.0
15.528,1.797,-0.928,0.0
26.442,3.05,-0.845,0.0
23.39,2.695,-0.881,0.0
20.529,2.364,-0.89,0.0
18.605,2.14,-0.915,0.0
16.865,1.939,-0.926,0.0
15.271,1.754,-0.925,0.0
25.895,2.964,-0.849,0.0
21.908,2.505,-0.843,0.0
20.224,2.311,-0.893,0.0
18.229,2.081,-0.911,0.0
16.535,1.886,-0.921,0.0
15.069,1.717,-0.925,0.0
25.421,2.886,-0.854,0.0
21.865,2.48,-0.859,1.0
19.597,2.22,-0.881,0.0
17.98,2.035,-0.913,0.0
16.285,1.842,-0.92,0.0
14.925,1.686,-0.928,0.0
24.937,2.807,-0.857,0.0
21.828,2.454,-0.874,6.0
19.552,2.196,-0.894,1.0
17.746,1.991,-0.915,1.0
16.066,1.801,-0.92,0.0
14.802,1.658,-0.932,0.0
24.461,2.729,-0.859,0.0
21.801,2.429,-0.89,3.0
19.464,2.167,-0.905,2.0
17.644,1.962,-0.922,1.0
15.931,1.77,-0.924,0.0
14.634,1.624,-0.932,0.0
24.119,2.666,-0.864,0.0
21.774,2.404,-0.904,2.0
19.257,2.123,-0.909,1.0
17.436,1.921,-0.924,0.0
15.76,1.734,-0.925,0.0
14.533,1.597,-0.936,0.0
23.712,2.595,-0.866,0.0
21.548,2.355,-0.91,0.0
18.893,2.063,-0.905,0.0
17.108,1.866,-0.918,0.0
15.63,1.703,-0.928,0.0
14.427,1.57,-0.939,0.0
21.988,2.382,-0.818,0.0
20.728,2.243,-0.888,0.0
18.649,2.015,-0.905,0.0
16.85,1.819,-0.915,0.0
15.449,1.666,-0.927,0.0
14.303,1.54,-0.94,0.0
21.948,2.353,-0.83,2.0
20.402,2.184,-0.887,0.0
18.594,1.988,-0.914,0.0
16.672,1.78,-0.916,0.0
15.272,1.629,-0.926,0.0
14.228,1.516,-0.943,0.0
21.909,2.323,-0.842,2.0
20.091,2.127,-0.886,0.0
18.162,1.92,-0.903,0.0
16.582,1.751,-0.921,0.0
15.161,1.599,-0.928,0.0
14.011,1.476,-0.937,0.0
21.898,2.295,-0.854,4.0
19.856,2.078,-0.887,0.0
17.846,1.865,-0.898,0.0
16.386,1.71,-0.919,0.0
14.992,1.562,-0.926,0.0
14.054,1.463,-0.948,0.0
21.862,2.264,-0.864,6.0
19.608,2.027,-0.886,0.0
17.782,1.836,-0.904,1.0
16.301,1.68,-0.923,0.0
14.917,1.535,-0.929,0.0
13.784,1.417,-0.937,0.0
21.838,2.234,-0.874,3.0
19.571,1.999,-0.894,0.0
17.783,1.813,-0.913,2.0
16.11,1.64,-0.92,0.0
14.821,1.507,-0.93,0.0
13.641,1.385,-0.933,0.0
21.774,2.199,-0.882,1.0
19.492,1.965,-0.899,0.0
17.719,1.783,-0.918,1.0
16.056,1.613,-0.924,0.0
14.794,1.484,-0.935,0.0
13.744,1.377,-0.947,0.0
21.77,2.169,-0.891,1.0
19.41,1.931,-0.904,0.0
17.686,1.756,-0.924,1.0
15.938,1.58,-0.924,0.0
14.671,1.452,-0.933,0.0
13.509,1.335,-0.936,0.0
21.675,2.131,-0.896,1.0
19.321,1.896,-0.907,0.0
17.601,1.724,-0.926,0.0
15.84,1.549,-0.924,0.0
14.625,1.428,-0.936,0.0
13.439,1.31,-0.936,0.0
21.546,2.089,-0.898,0.0
19.283,1.865,-0.912,0.0
17.502,1.69,-0.927,0.0
15.753,1.518,-0.925,0.0
14.54,1.399,-0.935,0.0
13.486,1.295,-0.944,0.0
21.449,2.049,-0.901,0.0
19.211,1.832,-0.915,0.0
17.209,1.637,-0.917,0.0
15.69,1.49,-0.926,0.0
14.508,1.375,-0.938,0.0
13.37,1.265,-0.94,0.0
21.177,1.993,-0.896,0.0
19.044,1.788,-0.913,0.0
17.201,1.612,-0.921,0.0
15.671,1.466,-0.929,0.0
14.408,1.345,-0.935,0.0
13.42,1.25,-0.947,0.0
21.067,1.951,-0.897,0.0
18.876,1.744,-0.909,0.0
17.048,1.572,-0.917,0.0
15.568,1.433,-0.926,0.0
14.383,1.321,-0.937,0.0
13.313,1.22,-0.942,0.0
20.91,1.905,-0.894,0.0
18.746,1.704,-0.907,0.0
17.032,1.545,-0.919,0.0
15.54,1.407,-0.928,0.0
14.397,1.301,-0.94,0.0
13.311,1.2,-0.944,0.0
20.962,1.879,-0.9,0.0
18.802,1.681,-0.913,0.0
16.882,1.506,-0.914,0.0
15.497,1.379,-0.928,0.0
14.344,1.274,-0.939,0.0
13.232,1.173,-0.941,0.0
20.748,1.828,-0.894,0.0
18.677,1.641,-0.909,0.0
16.914,1.483,-0.918,0.0
15.508,1.356,-0.93,0.0
14.373,1.254,-0.942,0.0
13.261,1.155,-0.944,0.0
20.914,1.81,-0.903,0.0
18.6,1.606,-0.907,0.0
16.981,1.462,-0.923,0.0
15.495,1.331,-0.931,0.0
14.37,1.232,-0.943,0.0
13.277,1.135,-0.946,0.0
20.899,1.776,-0.904,0.0
0.0,0.0,0.0,0.0
16.94,1.432,-0.921,0.0
15.394,1.298,-0.925,0.0
14.368,1.209,-0.944,0.0
13.29,1.116,-0.947,0.0
20.74,1.73,-0.897,0.0
0.0,0.0,0.0,0.0
16.917,1.403,-0.92,0.0
15.406,1.275,-0.926,0.0
14.352,1.185,-0.942,0.0
13.232,1.089,-0.943,0.0
20.981,1.717,-0.907,0.0
0.0,0.0,0.0,0.0
16.881,1.373,-0.918,0.0
15.475,1.256,-0.929,0.0
14.375,1.163,-0.943,0.0
13.3,1.074,-0.947,0.0
20.979,1.682,-0.906,0.0
18.565,1.485,-0.904,0.0
16.93,1.35,-0.919,0.0
15.456,1.229,-0.927,0.0
14.371,1.14,-0.942,0.0
13.351,1.056,-0.949,0.0
20.733,1.629,-0.893,0.0
18.63,1.46,-0.906,0.0
17.017,1.329,-0.922,0.0
15.467,1.205,-0.925,0.0
14.433,1.121,-0.944,0.0
13.354,1.034,-0.948,0.0
20.839,1.603,-0.894,0.0
0.0,0.0,0.0,0.0
17.036,1.303,-0.92,0.0
15.569,1.187,-0.929,0.0
14.511,1.103,-0.946,0.0
13.381,1.014,-0.947,0.0
21.369,1.609,-0.913,0.0
0.0,0.0,0.0,0.0
17.115,1.28,-0.921,0.0
15.649,1.167,-0.93,0.0
14.522,1.079,-0.944,0.0
13.447,0.997,-0.949,0.0
21.476,1.581,-0.913,0.0
0.0,0.0,0.0,0.0
17.13,1.253,-0.917,0.0
15.616,1.138,-0.925,0.0
14.592,1.06,-0.945,0.0
13.472,0.976,-0.947,0.0
21.629,1.556,-0.914,0.0
19.299,1.383,-0.922,0.0
17.192,1.228,-0.916,0.0
15.819,1.127,-0.932,0.0
14.621,1.038,-0.942,0.0
13.513,0.956,-0.946,0.0
21.694,1.524,-0.91,0.0
19.299,1.351,-0.916,0.0
17.252,1.204,-0.914,0.0
15.908,1.106,-0.932,0.0
14.682,1.017,-0.941,0.0
13.517,0.933,-0.941,0.0
21.767,1.492,-0.905,1.0
19.416,1.326,-0.914,0.0
17.41,1.185,-0.916,0.0
15.932,1.081,-0.927,0.0
14.754,0.997,-0.94,0.0
13.592,0.915,-0.941,0.0
21.808,1.458,-0.898,6.0
19.456,1.296,-0.908,0.0
17.723,1.176,-0.925,0.0
0.0,0.0,0.0,0.0
14.846,0.978,-0.94,0.0
13.724,0.9,-0.944,0.0
21.815,1.421,-0.889,11.0
19.589,1.271,-0.906,0.0
17.816,1.151,-0.922,0.0
0.0,0.0,0.0,0.0
14.834,0.951,-0.932,0.0
13.914,0.889,-0.951,0.0
21.837,1.385,-0.88,10.0
19.717,1.245,-0.902,0.0
0.0,0.0,0.0,0.0
0.0,0.0,0.0,0.0
15.05,0.94,-0.938,0.0
13.954,0.868,-0.946,0.0
21.864,1.35,-0.869,10.0
19.752,1.214,-0.893,0.0
0.0,0.0,0.0,0.0
0.0,0.0,0.0,0.0
15.125,0.918,-0.934,0.0
14.008,0.847,-0.942,0.0
21.875,1.313,-0.858,5.0
20.056,1.198,-0.896,0.0
0.0,0.0,0.0,0.0
16.549,0.98,-0.922,0.0
15.146,0.893,-0.927,0.0
14.123,0.83,-0.942,0.0
21.916,1.278,-0.846,3.0
20.448,1.187,-0.901,0.0
0.0,0.0,0.0,0.0
16.772,0.965,-0.924,0.0
15.248,0.873,-0.923,0.0
14.219,0.81,-0.939,0.0
21.937,1.241,-0.833,1.0
21.413,1.206,-0.93,0.0
0.0,0.0,0.0,0.0
16.834,0.939,-0.916,0.0
15.482,0.86,-0.927,0.0
14.448,0.799,-0.944,1.0
23.765,1.303,-0.886,0.0
21.568,1.177,-0.921,0.0
19.183,1.042,-0.924,0.0
17.206,0.93,-0.924,0.0
15.818,0.851,-0.936,0.0
14.631,0.783,-0.945,0.0
24.073,1.279,-0.88,0.0
21.822,1.153,-0.916,0.0
19.108,1.005,-0.906,0.0
17.494,0.915,-0.927,0.0
15.897,0.828,-0.929,0.0
14.734,0.764,-0.941,0.0
24.526,1.261,-0.878,0.0
21.847,1.117,-0.901,0.0
20.072,1.021,-0.936,0.0
17.705,0.896,-0.924,0.0
16.182,0.815,-0.932,2.0
14.913,0.747,-0.94,0.0
24.961,1.24,-0.874,0.0
21.982,1.087,-0.888,0.0
20.197,0.993,-0.926,5.0
17.859,0.873,-0.917,0.0
16.409,0.798,-0.932,0.0
15.097,0.73,-0.939,0.0
20.215,0.97,-0.69,0.0
20.217,0.965,-0.8,18.0
20.179,0.958,-0.908,13.0
20.222,0.954,-1.021,2.0
16.675,0.782,-0.932,0.0
15.304,0.714,-0.938,0.0
20.253,0.937,-0.674,62.0
20.176,0.928,-0.78,159.0
20.219,0.925,-0.891,72.0
0.0,0.0,0.0,0.0
20.223,0.915,-1.112,2.0
15.494,0.696,-0.936,0.0
20.269,0.904,-0.656,103.0
20.185,0.894,-0.762,165.0
20.219,0.891,-0.872,64.0
0.0,0.0,0.0,0.0
20.231,0.88,-1.093,2.0
15.849,0.686,-0.942,0.0
20.345,0.872,-0.638,0.0
20.27,0.864,-0.745,73.0
20.247,0.857,-0.853,9.0
19.489,0.82,-0.928,0.0
17.613,0.736,-0.934,0.0
16.056,0.667,-0.938,0.0
28.792,1.186,-0.875,0.0
24.88,1.018,-0.889,0.0
22.304,0.907,-0.917,1.0
20.057,0.81,-0.935,1.0
17.833,0.716,-0.927,0.0
16.309,0.651,-0.936,0.0
29.912,1.182,-0.878,1.0
24.964,0.98,-0.866,0.0
22.488,0.877,-0.901,0.0
20.137,0.78,-0.917,0.0
18.214,0.701,-0.927,0.0
16.561,0.633,-0.932,0.0
30.175,1.143,-0.853,1.0
25.992,0.977,-0.874,1.0
22.94,0.856,-0.894,0.0
20.541,0.761,-0.913,0.0
18.581,0.684,-0.925,0.0
16.891,0.617,-0.932,0.0
30.409,1.101,-0.825,0.0
26.93,0.968,-0.875,0.0
23.733,0.847,-0.898,0.0
20.927,0.741,-0.906,0.0
18.772,0.66,-0.913,0.0
17.137,0.598,-0.926,0.0
32.277,1.116,-0.839,1.0
28.018,0.961,-0.878,0.0
24.363,0.829,-0.893,0.0
21.75,0.735,-0.916,0.0
19.518,0.654,-0.926,0.0
17.721,0.59,-0.936,0.0
32.8,1.081,-0.814,0.0
28.906,0.945,-0.871,0.0
25.01,0.811,-0.887,0.0
22.295,0.717,-0.912,0.0
19.987,0.638,-0.924,0.0
18.049,0.571,-0.931,0.0
34.659,1.086,-0.817,0.0
30.188,0.938,-0.872,1.0
25.92,0.799,-0.887,0.0
22.735,0.695,-0.901,0.0
20.399,0.618,-0.917,0.0
18.494,0.556,-0.931,0.0
0.0,0.0,0.0,0.0
31.27,0.922,-0.864,1.0
26.54,0.776,-0.875,0.0
23.569,0.683,-0.904,0.0
20.891,0.6,-0.913,0.0
18.849,0.537,-0.924,0.0
37.517,1.057,-0.789,0.0
32.173,0.898,-0.847,1.0
28.211,0.78,-0.892,0.0
24.314,0.666,-0.901,0.0
21.706,0.589,-0.92,0.0
19.553,0.526,-0.932,0.0
0.0,0.0,0.0,0.0
33.285,0.877,-0.832,0.0
28.683,0.749,-0.869,0.0
25.08,0.648,-0.895,0.0
22.299,0.571,-0.914,0.0
20.04,0.508,-0.928,0.0
0.0,0.0,0.0,0.0
35.543,0.882,-0.839,0.0
30.224,0.742,-0.873,0.0
26.047,0.633,-0.893,0.0
22.842,0.549,-0.904,0.0
20.578,0.49,-0.924,0.0
0.0,0.0,0.0,0.0
36.924,0.86,-0.819,0.0
31.484,0.725,-0.865,1.0
26.79,0.61,-0.88,0.0
23.669,0.533,-0.903,0.0
21.044,0.469,-0.914,0.0
0.0,0.0,0.0,0.0
0.0,0.0,0.0,0.0
32.454,0.698,-0.844,1.0
28.33,0.603,-0.889,0.0
