X,Y,Z,Reflectivity
16.576,0.171,-0.94,0.0
15.313,0.155,-0.948,0.0
18.542,0.185,-1.246,0.0
18.558,0.184,-0.725,153.0
18.552,0.181,-0.822,152.0
18.514,0.178,-0.917,25.0
18.337,0.174,-1.006,6.0
15.78,0.147,-0.948,0.0
14.611,0.134,-0.954,0.0
18.586,0.17,-0.692,64.0
18.502,0.166,-0.785,169.0
18.533,0.163,-0.883,150.0
18.508,0.161,-0.981,5.0
16.247,0.139,-0.946,0.0
15.001,0.126,-0.952,0.0
21.647,0.181,-0.766,152.0
18.506,0.152,-0.751,166.0
18.549,0.15,-0.85,64.0
18.466,0.146,-0.944,6.0
16.711,0.13,-0.942,0.0
15.448,0.118,-0.951,0.0
21.623,0.164,-0.724,160.0
21.622,0.161,-0.837,0.0
18.543,0.136,-0.814,152.0
18.517,0.133,-0.912,38.0
18.452,0.13,-1.005,2.0
15.969,0.111,-0.953,0.0
21.691,0.15,-0.685,151.0
21.609,0.146,-0.795,159.0
21.649,0.144,-0.909,28.0
18.531,0.12,-0.877,13.0
18.456,0.117,-0.969,0.0
16.397,0.102,-0.946,0.0
21.693,0.135,-0.644,40.0
21.607,0.132,-0.753,167.0
21.645,0.129,-0.867,151.0
0.0,0.0,0.0,0.0
18.511,0.106,-0.936,20.0
16.916,0.095,-0.943,0.0
21.789,0.121,-0.604,0.0
21.67,0.118,-0.713,154.0
21.665,0.115,-0.826,150.0
0.0,0.0,0.0,0.0
21.704,0.111,-1.055,0.0
21.633,0.108,-1.164,0.0
33.118,0.164,-0.854,0.0
21.682,0.105,-0.671,0.0
21.675,0.102,-0.783,152.0
21.645,0.1,-0.897,77.0
20.231,0.091,-0.943,7.0
18.393,0.081,-0.953,0.0
0.0,0.0,0.0,0.0
31.216,0.133,-0.904,1.0
21.64,0.09,-0.739,10.0
21.656,0.088,-0.854,10.0
20.313,0.08,-0.906,18.0
18.561,0.071,-0.925,2.0
37.832,0.145,-0.825,0.0
0.0,0.0,0.0,0.0
27.789,0.101,-0.894,0.0
21.599,0.076,-0.808,0.0
21.604,0.074,-0.921,32.0
20.193,0.067,-0.965,1.0
40.208,0.134,-0.796,0.0
33.238,0.107,-0.83,2.0
20.256,0.063,-0.61,0.0
20.249,0.061,-0.717,0.0
20.289,0.06,-0.824,8.0
20.239,0.058,-0.926,5.0
20.238,0.057,-0.359,1.0
20.231,0.055,-0.464,2.0
20.23,0.054,-0.568,7.0
20.223,0.052,-0.674,11.0
20.232,0.05,-0.78,16.0
20.25,0.049,-0.885,25.0
20.271,0.048,-0.318,23.0
20.25,0.047,-0.422,30.0
20.246,0.045,-0.527,51.0
20.265,0.043,-0.634,64.0
20.251,0.042,-0.739,57.0
20.268,0.04,-0.844,150.0
20.274,0.04,-0.277,150.0
20.265,0.039,-0.381,151.0
20.26,0.037,-0.486,150.0
20.264,0.036,-0.592,150.0
20.264,0.034,-0.697,150.0
20.272,0.033,-0.802,112.0
20.261,0.033,-0.234,150.0
20.263,0.031,-0.339,151.0
20.266,0.03,-0.444,151.0
20.259,0.028,-0.55,150.0
20.261,0.027,-0.655,150.0
20.258,0.026,-0.759,80.0
20.259,0.026,-0.192,151.0
20.268,0.025,-0.297,151.0
20.267,0.023,-0.401,151.0
20.257,0.022,-0.507,150.0
20.259,0.021,-0.612,150.0
20.263,0.02,-0.716,61.0
20.261,0.02,-0.15,151.0
20.266,0.019,-0.254,151.0
20.263,0.017,-0.358,150.0
20.262,0.016,-0.465,64.0
20.253,0.015,-0.569,43.0
20.245,0.014,-0.673,24.0
20.266,0.014,-0.107,151.0
20.257,0.013,-0.211,150.0
20.273,0.012,-0.316,77.0
20.231,0.011,-0.422,19.0
20.242,0.01,-0.526,8.0
20.228,0.01,-0.63,8.0
20.271,0.01,-0.064,150.0
20.271,0.009,-0.168,65.0
20.244,0.008,-0.272,17.0
20.232,0.007,-0.378,8.0
20.227,0.006,-0.482,6.0
20.248,0.006,-0.587,2.0
20.267,0.006,-0.02,60.0
20.236,0.005,-0.125,20.0
20.233,0.004,-0.229,9.0
20.237,0.004,-0.335,5.0
20.241,0.003,-0.439,3.0
20.244,0.002,-0.543,1.0
20.224,0.003,0.022,19.0
20.232,0.002,-0.082,49.0
20.213,0.002,-0.185,11.0
20.223,0.001,-0.292,5.0
20.237,0.001,-0.396,2.0
20.247,0.0,-0.501,1.0
20.144,0.0,0.064,31.0
20.212,0.0,-0.039,17.0
20.204,0.0,-0.142,18.0
20.2,0.0,-0.248,6.0
20.249,0.0,-0.353,1.0
20.2,-0.001,-0.456,0.0
20.13,0.0,0.108,34.0
20.208,-0.001,0.004,14.0
20.201,-0.001,-0.099,17.0
20.214,-0.001,-0.205,5.0
20.22,-0.001,-0.309,2.0
20.256,-0.001,-0.414,0.0
20.128,-0.001,0.151,29.0
20.16,-0.001,0.048,25.0
20.2,-0.001,-0.055,17.0
20.184,-0.001,-0.16,14.0
20.2,-0.002,-0.265,7.0
20.237,-0.002,-0.369,0.0
20.116,-0.001,0.194,29.0
20.131,-0.001,0.091,32.0
20.199,-0.001,-0.012,16.0
20.169,-0.001,-0.118,18.0
20.222,-0.001,-0.222,3.0
20.251,-0.001,-0.327,1.0
20.12,-0.001,0.237,27.0
20.116,0.0,0.134,28.0
20.156,0.0,0.03,17.0
20.204,0.0,-0.075,19.0
20.204,0.0,-0.178,12.0
20.228,0.0,-0.283,5.0
20.133,0.0,0.28,27.0
20.116,0.0,0.177,29.0
20.138,0.0,0.074,31.0
20.191,0.001,-0.031,17.0
20.206,0.001,-0.135,17.0
20.237,0.002,-0.239,7.0
20.129,0.002,0.324,28.0
20.127,0.002,0.22,26.0
20.124,0.003,0.117,29.0
20.256,0.003,0.011,23.0
20.233,0.004,-0.092,24.0
20.231,0.005,-0.196,12.0
20.135,0.005,0.367,26.0
20.127,0.006,0.263,26.0
20.124,0.006,0.16,27.0
20.147,0.007,0.054,28.0
20.27,0.007,-0.049,150.0
20.262,0.008,-0.153,63.0
20.131,0.009,0.409,28.0
20.124,0.009,0.306,26.0
20.114,0.01,0.202,26.0
20.122,0.011,0.096,29.0
20.257,0.012,-0.006,151.0
20.263,0.013,-0.11,150.0
20.147,0.013,0.453,28.0
20.128,0.014,0.349,25.0
20.129,0.015,0.245,27.0
20.128,0.016,0.14,26.0
20.239,0.017,0.037,78.0
20.256,0.018,-0.067,150.0
20.151,0.018,0.496,25.0
20.135,0.019,0.392,27.0
20.14,0.02,0.289,27.0
20.121,0.021,0.183,28.0
20.138,0.022,0.079,29.0
20.232,0.024,-0.024,151.0
20.17,0.024,0.539,26.0
20.14,0.025,0.435,28.0
20.137,0.026,0.331,25.0
20.131,0.028,0.226,26.0
20.133,0.029,0.122,28.0
20.261,0.03,0.018,80.0
20.183,0.031,0.583,31.0
20.148,0.032,0.478,24.0
20.135,0.033,0.374,26.0
20.123,0.035,0.268,28.0
20.139,0.036,0.164,27.0
20.158,0.038,0.06,22.0
20.197,0.038,0.626,40.0
20.158,0.04,0.52,26.0
20.141,0.041,0.416,27.0
20.129,0.043,0.31,28.0
20.128,0.044,0.206,26.0
20.134,0.046,0.102,30.0
20.184,0.046,0.667,35.0
20.185,0.048,0.563,27.0
20.148,0.049,0.458,28.0
20.138,0.051,0.352,27.0
20.139,0.053,0.248,27.0
20.137,0.054,0.144,26.0
20.13,0.055,0.707,33.0
20.178,0.057,0.605,28.0
20.159,0.059,0.5,25.0
20.141,0.06,0.393,28.0
20.142,0.062,0.289,26.0
20.149,0.064,0.186,30.0
20.122,0.065,0.749,27.0
20.212,0.067,0.647,29.0
20.176,0.069,0.542,25.0
20.146,0.07,0.435,29.0
20.128,0.072,0.331,26.0
20.142,0.074,0.227,26.0
20.131,0.075,0.791,24.0
20.188,0.077,0.689,23.0
20.198,0.079,0.584,25.0
20.154,0.081,0.477,24.0
20.139,0.083,0.372,26.0
20.147,0.085,0.269,26.0
20.147,0.086,0.833,22.0
20.154,0.088,0.729,28.0
20.203,0.091,0.626,13.0
20.168,0.092,0.518,23.0
20.165,0.095,0.414,30.0
20.151,0.097,0.309,27.0
20.132,0.098,0.873,14.0
20.135,0.1,0.769,19.0
107.172,0.546,3.538,22.0
20.163,0.105,0.559,19.0
20.169,0.107,0.454,27.0
20.164,0.109,0.35,28.0
65.983,0.362,2.995,18.0
20.147,0.112,0.81,14.0
102.514,0.586,3.589,48.0
20.203,0.118,0.6,12.0
20.17,0.12,0.495,20.0
20.154,0.122,0.39,27.0
65.908,0.404,3.124,26.0
20.157,0.126,0.85,1.0
102.365,0.654,3.789,35.0
20.254,0.131,0.642,2.0
20.176,0.134,0.535,18.0
20.169,0.136,0.43,24.0
65.901,0.449,3.254,5.0
101.799,0.707,4.497,21.0
102.11,0.723,3.98,46.0
117.594,0.848,3.962,30.0
20.208,0.148,0.575,14.0
20.182,0.151,0.47,21.0
65.887,0.496,3.383,10.0
65.874,0.505,3.039,14.0
102.03,0.796,4.176,34.0
126.414,1.005,4.504,33.0
20.257,0.163,0.616,5.0
20.19,0.166,0.509,17.0
66.918,0.555,3.566,35.0
65.872,0.555,3.167,21.0
102.016,0.875,4.374,41.0
117.212,1.022,4.402,14.0
103.759,0.92,3.358,40.0
20.245,0.182,0.549,16.0
67.042,0.608,3.701,30.0
65.888,0.607,3.294,26.0
126.396,1.183,5.659,7.0
117.141,1.114,4.621,16.0
103.826,1.003,3.556,34.0
20.275,0.199,0.588,15.0
100.792,0.996,5.755,47.0
65.953,0.662,3.421,38.0
132.572,1.351,6.186,20.0
110.331,1.141,4.56,13.0
103.942,1.091,3.754,24.0
20.283,0.216,0.627,1.0
101.613,1.09,5.993,8.0
66.43,0.723,3.571,41.0
102.082,1.128,4.954,9.0
110.317,1.237,4.766,18.0
124.939,1.421,4.747,23.0
133.36,1.539,4.372,27.0
110.005,1.278,6.695,20.0
66.967,0.789,3.724,20.0
102.059,1.219,5.142,11.0
126.536,1.532,5.702,17.0
124.77,1.532,4.971,11.0
117.874,1.467,4.078,15.0
109.986,1.379,6.897,6.0
67.195,0.854,3.861,40.0
102.064,1.313,5.33,15.0
124.808,1.628,5.852,10.0
126.805,1.675,5.28,3.0
117.798,1.576,4.288,25.0
101.704,1.369,6.559,6.0
67.44,0.92,3.995,48.0
66.122,0.913,3.57,18.0
69.315,0.969,3.37,7.0
103.882,1.47,4.508,1.0
117.821,1.688,4.495,19.0
59.83,0.863,3.964,7.0
67.509,0.985,4.117,39.0
66.167,0.977,3.688,30.0
110.734,1.656,5.58,8.0
69.367,1.049,3.13,7.0
117.745,1.802,4.696,18.0
59.894,0.923,4.073,10.0
67.534,1.053,4.236,40.0
66.206,1.045,3.805,33.0
103.862,1.658,5.413,12.0
110.419,1.783,5.174,7.0
117.706,1.922,4.898,7.0
67.696,1.113,4.72,23.0
67.588,1.123,4.356,35.0
66.224,1.113,3.919,24.0
101.642,1.727,5.469,2.0
103.791,1.783,5.038,21.0
103.038,1.79,4.459,3.0
59.81,1.046,4.271,30.0
67.649,1.195,4.473,32.0
69.044,1.233,4.201,2.0
99.925,1.804,5.542,4.0
103.663,1.89,5.202,16.0
123.667,2.279,5.556,7.0
59.749,1.109,4.366,25.0
68.191,1.278,4.621,10.0
69.063,1.308,4.315,3.0
103.75,1.985,5.923,6.0
103.526,2.001,5.364,9.0
110.341,2.155,5.136,5.0
59.65,1.172,4.455,35.0
68.747,1.365,4.77,6.0
66.254,1.328,4.246,42.0
69.133,1.399,4.058,3.0
103.332,2.112,5.519,9.0
69.279,1.43,3.334,8.0
59.431,1.235,4.534,31.0
53.533,1.123,3.799,4.0
110.159,2.333,7.234,2.0
69.043,1.476,4.161,3.0
103.264,2.229,5.677,6.0
103.816,2.262,5.159,10.0
0.0,0.0,0.0,0.0
66.345,1.469,4.812,31.0
102.596,2.292,6.897,6.0
102.357,2.307,6.327,4.0
68.767,1.564,3.886,1.0
103.833,2.384,5.317,10.0
0.0,0.0,0.0,0.0
66.318,1.546,4.912,12.0
66.019,1.553,4.539,21.0
67.486,1.601,4.273,3.0
69.238,1.657,4.016,5.0
103.749,2.504,5.468,4.0
52.251,1.27,4.226,4.0
101.791,2.495,7.69,3.0
65.997,1.631,4.634,12.0
53.504,1.333,3.466,4.0
69.589,1.749,4.138,2.0
124.408,3.153,6.737,4.0
52.259,1.333,4.303,17.0
57.764,1.486,4.447,5.0
52.961,1.373,3.795,4.0
103.033,2.693,6.823,4.0
67.46,1.777,4.107,3.0
69.256,1.839,3.847,8.0
52.086,1.392,4.362,26.0
42.964,1.157,3.368,1.0
52.781,1.432,3.854,5.0
68.137,1.864,4.605,5.0
67.55,1.862,4.205,1.0
69.108,1.92,3.933,3.0
51.158,1.431,4.354,9.0
43.092,1.214,3.437,4.0
52.542,1.492,3.909,31.0
67.768,1.938,4.671,8.0
102.782,2.963,6.536,5.0
69.607,2.022,4.055,2.0
43.722,1.278,3.78,5.0
43.458,1.28,3.524,2.0
52.176,1.548,3.951,4.0
53.161,1.588,3.735,10.0
69.418,2.09,4.505,12.0
67.47,2.045,4.018,6.0
52.727,1.609,4.629,8.0
57.8,1.777,4.762,9.0
51.993,1.61,4.004,2.0
68.365,2.131,4.891,7.0
68.149,2.139,4.509,7.0
68.936,2.179,4.192,10.0
43.122,1.372,3.84,6.0
50.616,1.622,4.235,8.0
51.917,1.675,4.063,3.0
68.417,2.222,4.98,1.0
68.429,2.238,4.613,8.0
69.148,2.276,4.29,6.0
46.88,1.554,4.233,7.0
0.0,0.0,0.0,0.0
43.664,1.466,3.47,3.0
51.749,1.749,3.829,4.0
68.309,2.324,4.687,15.0
68.522,2.347,4.333,3.0
43.544,1.501,3.983,18.0
46.895,1.627,4.036,9.0
58.458,2.041,4.716,12.0
52.644,1.85,3.957,30.0
68.296,2.415,4.765,18.0
68.554,2.439,4.414,6.0
46.165,1.654,4.277,6.0
46.853,1.689,4.086,8.0
47.042,1.706,3.848,4.0
52.131,1.902,3.977,16.0
68.685,2.522,4.869,10.0
68.83,2.542,4.508,5.0
43.465,1.616,4.074,5.0
53.128,1.987,4.692,7.0
52.765,1.984,4.373,5.0
51.768,1.959,4.005,5.0
69.376,2.641,4.992,30.0
69.039,2.644,4.595,2.0
42.867,1.652,4.065,4.0
46.884,1.817,4.19,5.0
52.911,2.063,4.441,19.0
47.171,1.849,3.699,2.0
68.919,2.718,5.03,6.0
67.649,2.683,4.572,11.0
52.464,2.095,5.029,3.0
53.438,2.146,4.831,1.0
46.954,1.895,3.989,5.0
47.181,1.915,3.747,4.0
51.67,2.109,3.822,2.0
67.216,2.759,4.609,8.0
52.51,2.17,5.085,8.0
53.462,2.22,4.885,4.0
47.011,1.963,4.039,14.0
68.113,2.86,5.475,7.0
51.797,2.186,3.882,4.0
67.54,2.866,4.694,14.0
52.323,2.235,5.117,4.0
46.035,1.976,4.25,3.0
47.042,2.03,4.085,9.0
52.556,2.279,4.273,10.0
47.313,2.063,3.589,5.0
67.616,2.964,4.761,7.0
59.213,2.613,5.844,4.0
46.016,2.041,4.29,8.0
53.21,2.371,4.669,1.0
43.756,1.96,3.596,3.0
65.836,2.963,5.051,2.0
47.298,2.139,3.371,2.0
51.817,2.359,5.159,1.0
45.997,2.104,4.327,8.0
53.221,2.446,4.714,2.0
66.433,3.069,5.514,4.0
52.651,2.443,4.083,2.0
47.522,2.216,3.426,2.0
45.826,2.152,4.6,5.0
45.918,2.166,4.357,8.0
47.122,2.244,3.949,8.0
68.98,3.3,5.403,3.0
52.681,2.532,3.839,1.0
59.198,2.865,5.989,15.0
43.432,2.111,4.154,4.0
59.761,2.918,5.388,2.0
47.126,2.311,3.985,10.0
52.755,2.599,4.172,0.0
66.589,3.295,4.901,2.0
46.703,2.327,4.759,4.0
43.463,2.175,4.189,3.0
59.775,3.004,5.432,2.0
47.118,2.379,4.018,8.0
43.832,2.222,3.497,2.0
51.413,2.618,3.82,1.0
46.733,2.397,4.795,4.0
45.547,2.346,4.422,6.0
45.947,2.376,4.207,11.0
47.2,2.451,4.056,8.0
47.188,2.461,3.796,7.0
67.334,3.526,5.047,4.0
46.828,2.469,4.835,2.0
43.428,2.299,4.243,2.0
45.772,2.433,4.22,2.0
47.122,2.514,4.079,16.0
47.17,2.527,3.823,9.0
66.728,3.589,5.042,3.0
59.385,3.216,6.168,2.0
43.478,2.363,4.274,2.0
45.402,2.477,4.212,3.0
45.878,2.513,3.998,3.0
47.156,2.593,3.849,5.0
242.482,13.388,18.457,23.0
47.388,2.634,4.947,20.0
43.479,2.425,4.298,3.0
45.892,2.569,4.282,1.0
0.0,0.0,0.0,0.0
242.834,13.7,19.948,18.0
47.348,2.681,3.628,35.0
46.38,2.644,4.866,4.0
45.517,2.604,4.522,3.0
45.826,2.631,4.299,2.0
45.882,2.644,4.045,4.0
0.0,0.0,0.0,0.0
243.3,14.124,18.759,27.0
46.536,2.72,4.905,3.0
47.296,2.774,4.721,2.0
45.674,2.688,4.305,5.0
47.366,2.797,4.197,7.0
46.059,2.729,3.826,3.0
243.631,14.491,18.888,24.0
45.806,2.743,4.847,4.0
45.465,2.74,4.304,2.0
47.433,2.868,4.222,6.0
47.271,2.868,3.945,3.0
47.314,2.88,3.686,3.0
46.094,2.826,4.895,2.0
45.624,2.814,4.336,4.0
0.0,0.0,0.0,0.0
45.761,2.841,3.835,3.0
47.22,2.941,3.695,2.0
46.126,2.893,4.914,3.0
45.468,2.868,4.335,2.0
47.458,3.003,4.256,4.0
45.702,2.901,3.843,3.0
46.658,2.971,3.665,4.0
46.059,2.952,4.92,4.0
45.572,2.938,4.358,3.0
47.521,3.073,4.274,4.0
46.867,3.049,3.693,3.0
46.078,3.018,4.933,2.0
45.642,3.006,4.375,2.0
47.61,3.154,4.026,1.0
47.108,3.131,3.722,3.0
0.0,0.0,0.0,0.0
45.483,3.059,4.368,2.0
47.484,3.211,4.024,1.0
47.116,3.195,3.73,2.0
0.0,0.0,0.0,0.0
45.714,3.137,4.397,3.0
47.394,3.271,4.023,3.0
46.745,3.234,3.706,2.0
0.0,0.0,0.0,0.0
47.797,3.345,4.602,4.0
47.511,3.343,4.037,2.0
45.895,3.238,3.642,3.0
0.0,0.0,0.0,0.0
45.734,3.262,4.406,1.0
45.625,3.263,4.135,2.0
47.26,3.388,4.017,1.0
45.793,3.291,3.636,2.0
46.309,3.35,4.985,1.0
45.78,3.327,4.411,1.0
47.216,3.448,4.014,1.0
45.74,3.348,3.631,1.0
0.0,0.0,0.0,0.0
45.897,3.396,4.421,2.0
45.553,3.387,3.87,0.0
45.796,3.412,3.634,2.0
0.0,0.0,0.0,0.0
45.51,3.42,4.638,1.0
45.903,3.457,4.418,1.0
45.396,3.434,3.853,1.0
45.694,3.464,3.621,1.0
0.0,0.0,0.0,0.0
45.465,3.475,4.628,4.0
45.927,3.518,4.415,3.0
107.375,8.278,8.496,7.0
0.0,0.0,0.0,0.0
45.927,3.577,4.408,2.0
110.639,8.65,9.358,2.0
248.954,19.503,19.655,10.0
0.0,0.0,0.0,0.0
46.042,3.643,4.41,1.0
112.146,8.891,10.095,6.0
114.645,9.107,9.672,2.0
111.024,8.837,8.74,1.0
45.316,3.629,4.844,4.0
0.0,0.0,0.0,0.0
46.025,3.698,4.397,1.0
116.198,9.354,10.431,5.0
116.246,9.376,9.778,3.0
108.131,8.738,8.484,6.0
0.0,0.0,0.0,0.0
0.0,0.0,0.0,0.0
116.192,9.477,11.069,11.0
116.126,9.488,10.392,12.0
116.162,9.509,9.736,7.0
112.162,9.197,8.767,6.0
0.0,0.0,0.0,0.0
0.0,0.0,0.0,0.0
115.409,9.549,10.957,10.0
117.729,9.758,10.496,3.0
117.799,9.78,9.835,5.0
117.904,9.806,9.176,16.0
0.0,0.0,0.0,0.0
0.0,0.0,0.0,0.0
0.0,0.0,0.0,0.0
115.193,9.681,10.228,7.0
115.565,9.728,9.605,16.0
112.614,9.495,8.721,5.0
0.0,0.0,0.0,0.0
114.785,9.746,11.465,6.0
115.18,9.796,10.846,5.0
114.951,9.79,10.159,6.0
96.356,8.219,7.968,1.0
115.477,9.866,8.895,3.0
0.0,0.0,0.0,0.0
115.066,9.9,11.441,4.0
114.999,9.909,10.778,2.0
114.872,9.911,10.101,8.0
115.0,9.937,9.457,15.0
96.515,8.353,7.389,7.0
115.214,10.027,12.06,9.0
114.884,10.011,11.368,11.0
114.978,10.033,10.72,9.0
114.964,10.044,10.053,8.0
109.477,9.578,8.95,5.0
96.497,8.454,7.34,6.0
0.0,0.0,0.0,0.0
115.062,10.149,11.326,3.0
109.631,9.682,10.165,3.0
109.64,9.695,9.529,4.0
99.391,8.8,8.073,6.0
96.588,8.562,7.296,6.0
114.797,10.233,11.895,3.0
115.009,10.262,11.258,6.0
114.71,10.248,10.573,8.0
86.199,7.71,7.444,3.0
99.302,8.893,8.009,5.0
84.742,7.599,6.353,5.0
0.0,0.0,0.0,0.0
0.0,0.0,0.0,0.0
0.0,0.0,0.0,0.0
107.716,9.742,9.238,2.0
98.079,8.881,7.852,5.0
98.184,8.901,7.301,2.0
114.657,10.448,11.743,3.0
0.0,0.0,0.0,0.0
114.966,10.497,10.456,2.0
99.136,9.062,8.439,4.0
91.678,8.389,7.281,3.0
97.904,8.97,7.217,6.0
0.0,0.0,0.0,0.0
0.0,0.0,0.0,0.0
86.169,7.949,7.78,3.0
106.68,9.851,9.01,3.0
91.8,8.485,7.23,3.0
96.528,8.932,7.051,3.0
0.0,0.0,0.0,0.0
111.048,10.336,10.585,4.0
114.495,10.666,10.258,3.0
86.029,8.021,7.206,9.0
96.008,8.961,7.493,2.0
80.449,7.516,5.82,3.0
0.0,0.0,0.0,0.0
0.0,0.0,0.0,0.0
111.178,10.455,9.879,3.0
85.833,8.079,7.126,3.0
84.724,7.981,6.55,1.0
80.229,7.565,5.743,3.0
114.059,10.806,11.359,4.0
92.167,8.738,8.648,5.0
111.313,10.562,9.805,10.0
84.55,8.029,6.954,7.0
86.086,8.182,6.588,3.0
96.485,9.179,6.832,3.0
0.0,0.0,0.0,0.0
114.281,10.929,10.631,7.0
84.735,8.109,7.396,4.0
92.035,8.815,7.496,7.0
84.397,8.089,6.391,4.0
84.436,8.1,5.91,3.0
0.0,0.0,0.0,0.0
99.456,9.589,9.17,3.0
91.956,8.872,7.95,3.0
85.247,8.23,6.872,6.0
84.323,8.147,6.314,11.0
90.452,8.746,6.255,3.0
114.695,11.139,11.136,1.0
111.607,10.845,10.195,3.0
92.116,8.956,7.884,3.0
85.26,8.294,6.799,8.0
84.215,8.198,6.233,6.0
84.786,8.26,5.79,4.0
0.0,0.0,0.0,0.0
99.346,9.725,8.985,6.0
99.406,9.736,8.419,8.0
85.25,8.353,6.722,10.0
84.156,8.251,6.153,5.0
96.521,9.47,6.504,3.0
91.534,9.018,8.722,3.0
91.586,9.027,8.199,6.0
99.449,9.806,8.331,3.0
79.901,7.882,6.227,1.0
84.199,8.311,6.078,4.0
96.496,9.531,6.413,2.0
114.181,11.323,10.772,8.0
84.802,8.413,7.511,4.0
91.797,9.11,7.602,7.0
85.246,8.463,6.561,7.0
84.064,8.35,5.988,4.0
80.428,7.993,5.268,5.0
98.875,9.865,9.231,6.0
85.364,8.52,7.477,1.0
91.809,9.166,7.513,9.0
80.019,7.992,6.08,1.0
84.041,8.398,5.903,2.0
80.363,8.034,5.184,3.0
99.096,9.943,9.153,11.0
99.187,9.956,8.588,11.0
91.742,9.21,7.415,11.0
72.627,7.294,5.445,2.0
78.165,7.854,5.411,1.0
78.419,7.882,4.979,1.0
78.585,7.927,7.178,5.0
75.119,7.579,6.427,1.0
99.072,9.998,7.905,3.0
72.711,7.339,5.376,3.0
78.02,7.878,5.321,1.0
78.555,7.935,4.906,3.0
75.09,7.611,6.779,4.0
74.956,7.599,6.334,2.0
85.29,8.648,6.716,5.0
72.765,7.379,5.304,5.0
77.938,7.906,5.233,2.0
90.009,9.133,5.527,3.0
85.356,8.69,7.615,5.0
84.86,8.64,7.08,3.0
85.194,8.676,6.616,4.0
72.897,7.424,5.235,6.0
78.016,7.947,5.154,2.0
84.405,8.6,5.092,0.0
92.296,9.433,8.134,6.0
84.868,8.675,6.988,4.0
92.213,9.427,7.061,4.0
72.886,7.452,5.153,5.0
73.176,7.483,4.753,4.0
89.977,9.202,5.329,4.0
85.326,8.753,7.422,6.0
92.311,9.469,7.497,9.0
74.737,7.666,5.638,3.0
80.303,8.238,5.588,2.0
78.575,8.061,5.016,3.0
81.294,8.342,4.723,1.0
75.04,7.722,6.442,3.0
85.804,8.829,6.871,2.0
68.662,7.065,5.102,3.0
84.083,8.652,5.756,3.0
88.743,9.132,5.564,2.0
81.1,8.346,4.619,5.0
78.661,8.117,6.662,4.0
79.18,8.169,6.248,3.0
68.642,7.081,5.021,4.0
86.419,8.915,5.815,1.0
99.027,10.216,6.093,5.0
81.051,8.362,4.522,5.0
78.835,8.154,6.583,8.0
79.14,8.184,6.151,5.0
68.638,7.097,4.94,3.0
84.822,8.769,5.608,7.0
99.05,10.24,5.978,6.0
83.885,8.672,4.58,4.0
72.238,7.486,5.947,5.0
85.14,8.821,6.517,2.0
72.858,7.547,5.156,6.0
73.113,7.572,4.746,3.0
99.064,10.259,5.86,8.0
84.154,8.714,4.495,8.0
78.838,8.182,6.394,5.0
74.726,7.753,5.628,2.0
72.931,7.565,5.072,4.0
78.495,8.141,4.999,3.0
95.405,9.892,5.528,3.0
84.12,8.722,4.391,3.0
85.203,8.852,6.805,6.0
68.68,7.133,5.089,4.0
80.18,8.325,5.479,2.0
78.59,8.158,4.91,1.0
99.088,10.284,5.621,7.0
84.138,8.731,4.289,1.0
0.0,0.0,0.0,0.0
68.701,7.14,5.005,4.0
84.73,8.802,5.685,13.0
88.685,9.21,5.43,4.0
81.107,8.421,4.499,3.0
90.349,9.379,4.493,6.0
79.387,8.255,6.142,6.0
72.923,7.58,5.221,7.0
84.699,8.8,5.576,6.0
89.963,9.344,5.396,3.0
84.186,8.742,4.564,12.0
85.63,8.889,4.151,15.0
68.664,7.139,5.226,2.0
68.488,7.117,4.817,7.0
78.297,8.133,5.055,4.0
89.964,9.341,5.281,1.0
84.195,8.739,4.457,7.0
85.646,8.887,4.042,11.0
72.698,7.554,5.439,2.0
80.037,8.312,5.526,3.0
78.58,8.157,4.972,3.0
81.161,8.42,4.661,3.0
87.858,9.112,4.539,2.0
85.886,8.904,3.944,1.0
68.661,7.127,5.049,5.0
84.689,8.785,5.739,7.0
88.782,9.205,5.504,3.0
99.081,10.268,5.561,6.0
76.797,7.955,3.869,1.0
87.545,9.065,3.908,5.0
68.675,7.118,4.961,3.0
84.734,8.777,5.632,5.0
98.989,10.247,6.009,4.0
83.696,8.659,4.59,5.0
85.734,8.865,4.208,14.0
87.498,9.044,3.792,5.0
72.932,7.545,5.173,7.0
73.17,7.565,4.767,3.0
99.06,10.235,5.882,19.0
83.45,8.616,4.466,1.0
85.647,8.838,4.09,12.0
107.456,11.083,4.514,16.0
72.976,7.532,5.078,3.0
78.517,8.098,5.01,3.0
99.044,10.207,5.75,6.0
79.65,8.203,4.157,3.0
85.832,8.835,3.986,1.0
107.409,11.049,4.371,15.0
92.298,9.499,6.3,2.0
99.058,10.188,6.19,11.0
81.019,8.326,4.596,5.0
85.802,8.811,4.364,13.0
87.506,8.98,3.948,3.0
117.262,12.026,4.618,10.0
89.399,9.171,5.983,2.0
99.037,10.151,6.057,3.0
81.066,8.302,4.49,2.0
85.722,8.773,4.245,12.0
107.456,10.989,4.704,25.0
97.608,9.975,3.712,27.0
73.099,7.472,4.793,4.0
89.998,9.191,5.383,7.0
84.149,8.586,4.548,7.0
95.992,9.787,4.626,4.0
103.997,10.594,4.414,7.0
111.219,11.321,4.082,13.0
78.55,7.996,5.045,2.0
90.833,9.237,5.311,3.0
79.695,8.097,4.201,4.0
96.211,9.767,4.507,5.0
97.716,9.911,4.017,3.0
111.164,11.266,3.931,20.0
78.478,7.952,4.936,3.0
81.035,8.203,4.629,6.0
85.596,8.656,4.396,10.0
111.501,11.265,5.075,6.0
97.684,9.861,3.884,24.0
110.015,11.096,3.744,19.0
90.072,9.08,5.543,11.0
81.018,8.159,4.518,3.0
91.81,9.236,4.591,2.0
87.537,8.798,3.866,5.0
111.281,11.173,4.275,18.0
110.049,11.039,3.597,18.0
90.54,9.077,5.449,8.0
85.382,8.55,4.647,5.0
107.329,10.736,5.224,6.0
97.693,9.763,4.183,13.0
115.223,11.502,4.271,15.0
115.639,11.533,3.624,23.0
88.3,8.799,5.195,4.0
89.284,8.886,4.738,4.0
97.613,9.703,4.618,36.0
97.713,9.703,4.051,32.0
122.615,12.163,4.381,28.0
108.882,10.789,3.265,44.0
81.138,8.033,4.663,3.0
84.785,8.383,4.385,4.0
97.695,9.648,4.492,14.0
87.085,8.59,3.494,1.0
110.085,10.847,3.785,18.0
109.188,10.747,3.129,46.0
85.252,8.381,4.786,12.0
91.878,9.021,4.629,1.0
111.53,10.936,4.978,11.0
110.179,10.79,4.275,9.0
108.541,10.618,3.587,20.0
137.584,13.443,3.76,20.0
84.65,8.26,4.639,5.0
97.472,9.498,4.781,8.0
115.116,11.203,4.986,9.0
108.168,10.512,4.053,22.0
109.34,10.614,3.47,14.0
121.411,11.771,3.158,34.0
84.689,8.199,4.529,3.0
115.092,11.126,5.494,8.0
104.034,10.043,4.369,2.0
110.128,10.616,3.982,23.0
109.351,10.528,3.327,14.0
121.698,11.702,3.005,24.0
91.785,8.81,4.788,12.0
107.865,10.339,5.006,6.0
107.97,10.333,4.392,25.0
116.023,11.088,4.042,24.0
121.21,11.568,3.527,52.0
151.485,14.438,3.541,16.0
97.448,9.27,4.954,8.0
87.591,8.319,3.951,8.0
108.224,10.263,4.261,10.0
109.419,10.361,3.669,10.0
151.696,14.343,4.219,11.0
151.669,14.321,3.349,20.0
87.307,8.226,4.324,7.0
86.782,8.163,3.801,10.0
110.411,10.37,4.202,19.0
121.577,11.4,3.918,27.0
137.906,12.911,3.655,21.0
151.641,14.176,3.151,26.0
96.377,8.989,4.648,2.0
108.233,10.077,4.599,12.0
116.181,10.799,4.271,23.0
121.386,11.264,3.754,19.0
152.025,14.085,3.831,15.0
151.553,14.019,2.953,23.0
98.366,9.076,4.616,1.0
108.166,9.963,4.456,6.0
109.667,10.084,3.891,27.0
143.075,13.133,4.244,10.0
151.956,13.926,3.636,29.0
151.699,13.88,2.764,29.0
87.599,7.993,4.001,9.0
110.499,10.065,4.414,14.0
121.768,11.071,4.166,24.0
143.655,13.036,4.079,29.0
152.201,13.787,3.451,23.0
152.316,13.776,2.583,22.0
108.162,9.753,4.802,16.0
120.744,10.868,4.67,21.0
121.16,10.884,3.993,18.0
143.648,12.88,3.898,24.0
152.45,13.643,3.265,23.0
152.953,13.665,2.403,20.0
104.51,9.308,4.509,3.0
122.151,10.857,4.572,22.0
143.572,12.736,4.552,27.0
152.668,13.517,3.955,13.0
152.511,13.477,3.079,18.0
153.056,13.501,2.216,25.0
120.654,10.607,5.056,6.0
143.271,12.568,5.185,13.0
143.768,12.585,4.382,31.0
152.635,13.335,3.764,5.0
158.796,13.845,3.009,5.0
153.686,13.372,2.035,11.0
109.857,9.525,4.469,8.0
121.089,10.477,4.234,25.0
143.875,12.421,4.209,28.0
197.676,17.029,4.634,15.0
199.311,17.133,3.535,6.0
128.966,11.064,1.552,7.0
121.059,10.347,4.778,11.0
144.239,12.3,4.87,8.0
144.133,12.264,4.042,14.0
0.0,0.0,0.0,0.0
213.942,18.123,3.54,6.0
129.183,10.921,1.401,7.0
143.801,12.108,5.505,16.0
144.494,12.137,4.706,17.0
196.925,16.502,5.292,21.0
202.052,16.894,4.256,7.0
0.0,0.0,0.0,0.0
0.0,0.0,0.0,0.0
156.815,12.997,5.819,4.0
162.731,13.454,5.109,15.0
155.901,12.857,4.005,8.0
196.351,16.155,3.907,26.0
213.499,17.526,3.033,20.0
110.434,9.043,0.94,1.0
154.795,12.621,5.564,12.0
160.856,13.08,4.865,18.0
156.07,12.66,3.831,38.0
181.768,14.708,3.41,7.0
181.664,14.662,2.374,14.0
114.075,9.184,0.841,6.0
193.371,15.499,6.732,4.0
154.935,12.384,4.511,24.0
194.836,15.532,4.565,14.0
155.939,12.399,2.749,37.0
155.96,12.368,1.862,27.0
114.15,9.029,0.715,16.0
167.127,13.159,5.633,8.0
155.154,12.181,4.346,20.0
155.701,12.19,3.476,39.0
162.026,12.652,2.68,36.0
162.189,12.63,1.761,6.0
114.081,8.86,0.591,29.0
172.491,13.332,5.627,11.0
178.234,13.734,4.8,5.0
161.93,12.442,3.442,16.0
168.12,12.88,2.601,16.0
141.033,10.775,1.38,4.0
0.0,0.0,0.0,0.0
174.869,13.253,5.518,5.0
155.626,11.759,4.025,14.0
167.723,12.634,3.385,24.0
168.21,12.633,2.424,43.0
0.0,0.0,0.0,0.0
121.977,9.109,0.374,5.0
166.603,12.374,5.084,16.0
178.593,13.223,4.435,11.0
168.076,12.405,3.219,11.0
173.394,12.758,2.321,38.0
124.188,9.11,0.957,2.0
141.192,10.326,0.289,4.0
155.124,11.279,4.574,6.0
178.491,12.936,4.252,13.0
173.695,12.548,3.151,21.0
0.0,0.0,0.0,0.0
140.783,10.104,0.945,6.0
0.0,0.0,0.0,0.0
171.967,12.231,4.9,11.0
172.399,12.22,3.936,18.0
173.647,12.264,2.979,9.0
0.0,0.0,0.0,0.0
0.0,0.0,0.0,0.0
0.0,0.0,0.0,0.0
161.65,11.236,4.449,17.0
173.657,12.028,3.797,8.0
210.356,14.516,3.408,38.0
0.0,0.0,0.0,0.0
154.911,10.616,0.741,150.0
0.0,0.0,0.0,0.0
162.731,11.043,4.325,14.0
173.601,11.736,3.631,5.0
0.0,0.0,0.0,0.0
0.0,0.0,0.0,0.0
154.951,10.359,0.596,155.0
0.0,0.0,0.0,0.0
179.092,11.85,4.596,14.0
0.0,0.0,0.0,0.0
0.0,0.0,0.0,0.0
0.0,0.0,0.0,0.0
154.953,10.095,0.458,30.0
0.0,0.0,0.0,0.0
202.526,13.054,5.017,5.0
198.626,12.749,3.798,6.0
0.0,0.0,0.0,0.0
0.0,0.0,0.0,0.0
155.451,9.856,0.322,4.0
0.0,0.0,0.0,0.0
195.42,12.252,4.671,8.0
0.0,0.0,0.0,0.0
0.0,0.0,0.0,0.0
155.432,9.624,1.068,17.0
0.0,0.0,0.0,0.0
0.0,0.0,0.0,0.0
195.777,11.933,4.517,5.0
0.0,0.0,0.0,0.0
0.0,0.0,0.0,0.0
197.539,11.884,1.199,38.0
0.0,0.0,0.0,0.0
0.0,0.0,0.0,0.0
0.0,0.0,0.0,0.0
0.0,0.0,0.0,0.0
0.0,0.0,0.0,0.0
197.536,11.527,1.043,30.0
0.0,0.0,0.0,0.0
69.026,3.992,-0.412,2.0
198.221,11.371,4.264,5.0
0.0,0.0,0.0,0.0
207.466,11.788,2.128,18.0
197.472,11.164,0.895,25.0
0.0,0.0,0.0,0.0
0.0,0.0,0.0,0.0
196.076,10.885,4.071,50.0
196.064,10.829,2.969,12.0
196.015,10.771,1.867,77.0
196.072,10.722,0.746,17.0
0.0,0.0,0.0,0.0
0.0,0.0,0.0,0.0
197.954,10.622,3.97,5.0
0.0,0.0,0.0,0.0
197.059,10.46,1.739,18.0
0.0,0.0,0.0,0.0
0.0,0.0,0.0,0.0
68.995,3.603,-0.56,1.0
0.0,0.0,0.0,0.0
0.0,0.0,0.0,0.0
197.061,10.085,1.606,32.0
0.0,0.0,0.0,0.0
0.0,0.0,0.0,0.0
0.0,0.0,0.0,0.0
197.416,9.842,3.698,7.0
197.843,9.803,2.597,19.0
197.003,9.706,1.481,32.0
0.0,0.0,0.0,0.0
0.0,0.0,0.0,0.0
0.0,0.0,0.0,0.0
0.0,0.0,0.0,0.0
0.0,0.0,0.0,0.0
196.962,9.322,1.362,33.0
0.0,0.0,0.0,0.0
0.0,0.0,0.0,0.0
0.0,0.0,0.0,0.0
0.0,0.0,0.0,0.0
204.955,9.359,2.447,36.0
196.845,8.93,1.248,29.0
0.0,0.0,0.0,0.0
0.0,0.0,0.0,0.0
0.0,0.0,0.0,0.0
195.51,8.602,3.321,40.0
195.55,8.544,2.229,9.0
196.783,8.536,1.143,36.0
0.0,0.0,0.0,0.0
0.0,0.0,0.0,0.0
0.0,0.0,0.0,0.0
196.845,8.269,3.243,8.0
0.0,0.0,0.0,0.0
196.712,8.14,1.044,35.0
0.0,0.0,0.0,0.0
0.0,0.0,0.0,0.0
0.0,0.0,0.0,0.0
203.967,8.158,3.263,6.0
199.394,7.913,2.077,15.0
196.657,7.741,0.951,32.0
0.0,0.0,0.0,0.0
69.014,2.672,-0.442,2.0
0.0,0.0,0.0,0.0
0.0,0.0,0.0,0.0
203.224,7.647,2.027,18.0
196.508,7.33,0.865,26.0
0.0,0.0,0.0,0.0
69.016,2.53,-0.472,5.0
0.0,0.0,0.0,0.0
195.986,7.033,2.966,20.0
202.757,7.212,1.94,33.0
196.474,6.924,0.787,27.0
0.0,0.0,0.0,0.0
68.959,2.386,-0.498,1.0
0.0,0.0,0.0,0.0
195.53,6.616,2.887,14.0
196.322,6.578,1.806,12.0
196.306,6.516,0.715,21.0
0.0,0.0,0.0,0.0
0.0,0.0,0.0,0.0
0.0,0.0,0.0,0.0
195.731,6.22,2.824,5.0
196.12,6.168,1.74,18.0
196.216,6.105,0.651,16.0
0.0,0.0,0.0,0.0
68.954,2.101,-0.543,3.0
0.0,0.0,0.0,0.0
195.468,5.806,2.761,23.0
195.904,5.754,1.681,20.0
0.0,0.0,0.0,0.0
0.0,0.0,0.0,0.0
68.987,1.957,-0.563,3.0
0.0,0.0,0.0,0.0
195.407,5.394,2.709,25.0
103.16,2.813,0.858,7.0
0.0,0.0,0.0,0.0
0.0,0.0,0.0,0.0
0.0,0.0,0.0,0.0
0.0,0.0,0.0,0.0
195.345,4.981,2.664,13.0
103.106,2.594,0.835,9.0
100.191,2.488,0.257,3.0
0.0,0.0,0.0,0.0
0.0,0.0,0.0,0.0
0.0,0.0,0.0,0.0
195.276,4.569,2.625,10.0
102.968,2.373,0.815,1.0
100.148,2.276,0.239,5.0
0.0,0.0,0.0,0.0
0.0,0.0,0.0,0.0
49.524,1.075,-0.707,0.0
103.19,2.197,1.371,6.0
102.951,2.156,0.8,5.0
99.97,2.061,0.224,3.0
0.0,0.0,0.0,0.0
0.0,0.0,0.0,0.0
0.0,0.0,0.0,0.0
103.175,1.98,1.359,39.0
99.935,1.882,0.765,2.0
99.829,1.846,0.214,14.0
0.0,0.0,0.0,0.0
0.0,0.0,0.0,0.0
0.0,0.0,0.0,0.0
0.0,0.0,0.0,0.0
99.693,1.666,0.756,4.0
99.665,1.63,0.207,5.0
0.0,0.0,0.0,0.0
0.0,0.0,0.0,0.0
0.0,0.0,0.0,0.0
0.0,0.0,0.0,0.0
99.754,1.453,0.753,2.0
99.687,1.417,0.204,6.0
0.0,0.0,0.0,0.0
0.0,0.0,0.0,0.0
20.203,0.266,-0.294,6.0
20.289,0.259,0.264,19.0
20.312,0.252,0.153,5.0
20.343,0.245,0.041,0.0
0.0,0.0,0.0,0.0
20.192,0.229,-0.182,11.0
20.184,0.222,-0.293,28.0
20.292,0.215,0.265,28.0
20.322,0.209,0.154,30.0
20.332,0.202,0.042,33.0
20.213,0.193,-0.07,11.0
20.175,0.186,-0.181,17.0
20.173,0.179,-0.291,35.0
20.218,0.171,0.265,25.0
20.198,0.164,0.154,24.0
20.201,0.157,0.044,24.0
20.181,0.15,-0.068,26.0
20.181,0.143,-0.179,25.0
20.19,0.136,-0.289,29.0
20.163,0.128,0.267,29.0
20.168,0.121,0.157,28.0
20.192,0.114,0.046,37.0
20.186,0.107,-0.066,35.0
20.187,0.1,-0.176,27.0
20.218,0.093,-0.287,4.0
20.157,0.085,0.27,28.0
20.149,0.078,0.159,28.0
20.208,0.071,0.049,30.0
20.203,0.064,-0.062,23.0
20.219,0.057,-0.173,15.0
20.255,0.05,-0.284,21.0
20.134,0.042,0.273,31.0
20.127,0.035,0.163,27.0
20.246,0.028,0.053,108.0
20.262,0.021,-0.058,151.0
20.269,0.014,-0.169,150.0
20.234,0.007,-0.279,8.0
20.125,0.0,0.277,27.0
20.12,-0.007,0.168,28.0
20.14,-0.014,0.058,35.0
20.13,-0.021,-0.053,29.0
20.156,-0.028,-0.163,30.0
20.15,-0.035,-0.273,25.0
20.115,-0.042,0.282,32.0
20.12,-0.05,0.173,30.0
20.128,-0.056,0.063,39.0
20.138,-0.064,-0.048,28.0
20.145,-0.071,-0.157,37.0
20.138,-0.078,-0.267,36.0
20.124,-0.085,0.288,28.0
20.134,-0.092,0.179,25.0
20.134,-0.1,0.069,33.0
20.155,-0.107,-0.041,26.0
20.158,-0.114,-0.151,26.0
20.138,-0.122,-0.261,32.0
20.175,-0.129,0.296,17.0
20.185,-0.136,0.186,19.0
58.328,-0.415,0.222,13.0
20.196,-0.15,-0.034,3.0
20.173,-0.157,-0.144,9.0
20.162,-0.165,-0.253,16.0
64.347,-0.548,0.969,26.0
53.381,-0.473,0.514,15.0
56.191,-0.518,0.235,10.0
56.209,-0.539,-0.075,12.0
58.858,-0.585,-0.398,8.0
45.021,-0.463,-0.549,27.0
20.169,-0.214,0.312,16.0
20.164,-0.221,0.202,3.0
56.235,-0.636,0.259,2.0
59.564,-0.696,-0.054,2.0
56.592,-0.681,-0.358,6.0
45.151,-0.56,-0.53,19.0
20.131,-0.256,0.32,13.0
20.118,-0.263,0.211,11.0
20.145,-0.27,0.102,10.0
59.528,-0.82,-0.026,26.0
59.468,-0.841,-0.348,5.0
45.26,-0.657,-0.51,17.0
20.165,-0.298,0.33,7.0
20.125,-0.305,0.22,9.0
20.112,-0.312,0.111,18.0
20.123,-0.319,0.0,35.0
53.077,-0.861,-0.284,4.0
45.411,-0.752,-0.489,18.0
193.536,-3.264,3.271,5.0
203.507,-3.506,2.339,6.0
67.607,-1.189,0.411,7.0
20.114,-0.361,0.011,6.0
52.939,-0.968,-0.255,59.0
45.432,-0.847,-0.464,24.0
53.024,-1.004,0.925,14.0
52.958,-1.022,0.638,48.0
52.919,-1.04,0.352,64.0
38.372,-0.767,0.044,8.0
38.364,-0.781,-0.162,37.0
38.368,-0.795,-0.369,56.0
38.398,-0.806,0.692,39.0
38.396,-0.819,0.485,9.0
40.411,-0.877,0.293,60.0
40.445,-0.892,0.071,150.0
40.408,-0.906,-0.146,44.0
40.411,-0.92,-0.364,53.0
40.409,-0.931,0.754,39.0
40.419,-0.946,0.536,36.0
40.411,-0.959,0.318,27.0
40.432,-0.974,0.097,23.0
38.788,-0.948,-0.115,25.0
38.768,-0.961,-0.324,26.0
38.71,-0.97,0.747,25.0
38.697,-0.983,0.539,36.0
38.669,-0.996,0.33,50.0
38.653,-1.008,0.118,62.0
38.655,-1.022,-0.089,60.0
38.672,-1.036,-0.297,60.0
38.669,-1.046,0.773,82.0
38.628,-1.058,0.565,67.0
38.66,-1.072,0.357,80.0
38.66,-1.086,0.146,87.0
38.664,-1.099,-0.061,80.0
38.663,-1.113,-0.269,85.0
38.639,-1.122,0.8,114.0
38.631,-1.134,0.593,73.0
38.64,-1.148,0.385,69.0
38.636,-1.161,0.174,66.0
38.658,-1.175,-0.033,61.0
38.664,-1.189,-0.24,56.0
38.633,-1.196,0.829,69.0
38.642,-1.21,0.622,61.0
38.665,-1.224,0.415,55.0
38.701,-1.239,0.204,48.0
38.704,-1.252,-0.002,38.0
38.738,-1.266,-0.21,25.0
38.704,-1.274,0.861,24.0
38.708,-1.287,0.654,1.0
84.984,-2.855,0.98,32.0
80.615,-2.735,0.49,23.0
80.66,-2.763,0.058,21.0
80.318,-2.78,-0.371,2.0
31.359,-1.092,0.723,35.0
31.368,-1.103,0.556,19.0
31.356,-1.113,0.387,8.0
31.35,-1.124,0.217,6.0
31.342,-1.134,0.049,6.0
31.34,-1.145,-0.118,44.0
31.297,-1.15,0.749,53.0
31.275,-1.159,0.581,45.0
31.233,-1.168,0.413,40.0
31.231,-1.178,0.243,40.0
31.267,-1.191,0.076,18.0
28.477,-1.094,-0.082,55.0
28.459,-1.099,0.706,71.0
28.445,-1.108,0.553,69.0
28.434,-1.117,0.401,72.0
28.446,-1.127,0.247,111.0
28.458,-1.136,0.095,150.0
28.45,-1.145,-0.056,150.0
28.441,-1.151,0.731,117.0
28.444,-1.16,0.579,115.0
28.433,-1.169,0.427,104.0
28.437,-1.179,0.273,114.0
28.444,-1.188,0.121,109.0
28.442,-1.197,-0.029,83.0
28.443,-1.203,0.758,65.0
28.458,-1.212,0.607,66.0
28.463,-1.222,0.455,58.0
28.461,-1.231,0.3,50.0
31.227,-1.36,0.163,33.0
31.214,-1.37,-0.002,51.0
85.075,-3.753,2.352,13.0
31.346,-1.393,0.699,6.0
31.301,-1.4,0.531,32.0
31.291,-1.41,0.361,26.0
31.264,-1.419,0.195,32.0
31.254,-1.429,0.028,37.0
85.145,-3.909,2.44,27.0
84.629,-3.911,1.974,42.0
86.326,-4.017,1.554,4.0
83.027,-3.889,1.044,43.0
79.874,-3.766,0.58,17.0
0.0,0.0,0.0,0.0
85.158,-4.059,2.528,26.0
84.637,-4.061,2.062,42.0
85.162,-4.112,1.622,14.0
82.868,-4.026,1.13,44.0
67.98,-3.324,0.565,2.0
0.0,0.0,0.0,0.0
85.368,-4.216,2.624,41.0
84.667,-4.207,2.152,45.0
85.177,-4.257,1.712,31.0
82.868,-4.167,1.217,36.0
66.714,-3.375,0.626,0.0
0.0,0.0,0.0,0.0
84.836,-4.332,2.699,39.0
84.695,-4.351,2.245,37.0
84.832,-4.383,1.798,44.0
86.093,-4.475,1.36,10.0
0.0,0.0,0.0,0.0
0.0,0.0,0.0,0.0
84.673,-4.467,2.789,54.0
84.406,-4.476,2.332,41.0
83.895,-4.474,1.873,47.0
85.899,-4.607,1.453,3.0
0.0,0.0,0.0,0.0
65.668,-3.56,0.415,0.0
83.19,-4.525,2.835,41.0
84.062,-4.597,2.419,50.0
83.492,-4.59,1.96,36.0
24.616,-1.36,0.445,4.0
24.606,-1.366,0.314,23.0
24.568,-1.372,0.184,28.0
24.602,-1.378,0.867,13.0
24.608,-1.385,0.737,21.0
24.582,-1.39,0.605,21.0
24.578,-1.397,0.472,39.0
24.575,-1.403,0.342,43.0
24.553,-1.409,0.212,37.0
24.553,-1.413,0.894,49.0
24.561,-1.421,0.764,62.0
24.563,-1.427,0.634,72.0
24.562,-1.434,0.502,61.0
24.549,-1.44,0.372,53.0
24.529,-1.446,0.242,52.0
24.502,-1.448,0.922,58.0
24.515,-1.456,0.793,59.0
24.537,-1.464,0.663,69.0
24.543,-1.471,0.531,71.0
24.548,-1.477,0.401,79.0
24.531,-1.483,0.272,68.0
24.473,-1.484,0.951,70.0
24.49,-1.491,0.822,70.0
24.529,-1.5,0.694,55.0
24.539,-1.507,0.562,71.0
24.537,-1.513,0.432,67.0
24.521,-1.519,0.302,63.0
24.454,-1.518,0.981,64.0
24.474,-1.526,0.852,58.0
24.507,-1.534,0.724,65.0
24.536,-1.542,0.593,66.0
24.532,-1.548,0.463,59.0
24.53,-1.555,0.334,46.0
24.469,-1.554,1.012,39.0
24.446,-1.559,0.882,66.0
24.506,-1.569,0.755,64.0
24.543,-1.577,0.624,55.0
24.556,-1.584,0.495,39.0
24.567,-1.591,0.366,36.0
24.468,-1.589,1.044,44.0
24.464,-1.594,0.915,52.0
24.496,-1.602,0.786,61.0
24.55,-1.612,0.656,35.0
24.592,-1.62,0.527,31.0
24.592,-1.626,0.398,18.0
24.475,-1.622,1.076,29.0
24.493,-1.629,0.947,34.0
24.486,-1.635,0.818,27.0
24.604,-1.648,0.69,25.0
82.946,-5.577,1.889,12.0
65.856,-4.444,1.152,3.0
24.558,-1.66,1.112,20.0
24.526,-1.664,0.981,25.0
24.56,-1.672,0.853,12.0
83.304,-5.689,2.446,23.0
82.967,-5.685,1.998,36.0
82.888,-5.698,1.561,12.0
83.683,-5.766,3.902,27.0
24.566,-1.698,1.015,24.0
83.159,-5.765,2.999,36.0
82.973,-5.77,2.546,46.0
82.54,-5.758,2.099,36.0
82.948,-5.805,1.672,38.0
83.548,-5.86,4.008,33.0
83.657,-5.886,3.572,51.0
82.972,-5.855,3.106,42.0
82.64,-5.849,2.649,38.0
82.505,-5.857,2.21,39.0
82.735,-5.891,1.781,42.0
83.512,-5.959,4.121,28.0
83.533,-5.978,3.682,53.0
82.963,-5.954,3.219,43.0
82.72,-5.953,2.766,47.0
82.654,-5.966,2.329,55.0
82.45,-5.969,1.889,37.0
83.522,-6.058,4.238,38.0
83.359,-6.062,3.79,38.0
82.773,-6.036,3.327,41.0
82.872,-6.059,2.886,48.0
83.117,-6.094,2.457,44.0
82.406,-6.059,2.003,35.0
83.593,-6.159,4.358,42.0
83.361,-6.156,3.906,35.0
82.997,-6.146,3.452,32.0
82.596,-6.132,2.992,36.0
82.932,-6.172,2.568,46.0
82.411,-6.149,2.118,36.0
83.784,-6.265,4.487,39.0
83.368,-6.248,4.024,31.0
83.684,-6.287,3.599,29.0
82.639,-6.224,3.111,33.0
82.814,-6.252,2.682,50.0
82.673,-6.257,2.243,45.0
83.689,-6.346,4.601,43.0
83.521,-6.348,4.152,32.0
86.292,-6.573,3.834,14.0
82.335,-6.286,3.217,31.0
82.543,-6.316,2.791,46.0
82.33,-6.315,2.351,34.0
83.558,-6.421,4.715,41.0
83.159,-6.404,4.254,41.0
84.907,-6.553,3.895,16.0
82.626,-6.391,3.348,33.0
82.495,-6.395,2.909,42.0
82.382,-6.399,2.472,43.0
83.591,-6.506,4.838,39.0
83.14,-6.484,4.372,42.0
83.444,-6.521,3.949,17.0
83.587,-6.544,3.508,33.0
82.366,-6.462,3.023,36.0
82.544,-6.488,2.595,42.0
83.652,-6.589,4.962,31.0
83.247,-6.569,4.499,33.0
83.209,-6.577,4.059,28.0
83.814,-6.638,3.639,33.0
82.432,-6.541,3.145,37.0
82.513,-6.56,2.714,40.0
84.129,-6.701,5.112,16.0
83.374,-6.652,4.627,39.0
83.049,-6.638,4.171,41.0
83.675,-6.699,3.754,37.0
82.768,-6.638,3.278,40.0
82.5,-6.629,2.833,42.0
85.605,-6.891,5.328,14.0
83.547,-6.736,4.759,41.0
83.114,-6.712,4.296,37.0
83.456,-6.75,3.867,37.0
83.133,-6.735,3.414,41.0
82.183,-6.669,2.942,45.0
85.766,-6.973,5.463,29.0
83.645,-6.811,4.887,42.0
83.348,-6.796,4.429,42.0
83.333,-6.806,3.982,41.0
82.954,-6.784,3.528,40.0
82.059,-6.722,3.059,38.0
85.832,-7.045,5.595,32.0
83.633,-6.874,5.01,35.0
83.648,-6.883,4.57,43.0
83.45,-6.877,4.111,41.0
83.081,-6.856,3.655,37.0
81.909,-6.768,3.174,34.0
85.857,-7.109,5.723,23.0
86.526,-7.173,5.311,13.0
83.762,-6.952,4.699,42.0
83.328,-6.924,4.227,42.0
83.175,-6.921,3.782,32.0
82.164,-6.846,3.304,34.0
85.783,-7.161,5.845,13.0
86.676,-7.243,5.447,20.0
83.767,-7.007,4.822,37.0
83.162,-6.964,4.341,39.0
83.087,-6.966,3.899,40.0
82.209,-6.9,3.425,30.0
60.268,-5.069,4.195,3.0
86.335,-7.268,5.553,20.0
84.208,-7.096,4.971,12.0
83.345,-7.03,4.472,46.0
83.287,-7.033,4.03,43.0
81.909,-6.923,3.532,32.0
115.403,-9.774,8.202,9.0
85.812,-7.274,5.645,21.0
0.0,0.0,0.0,0.0
83.753,-7.112,4.616,32.0
83.257,-7.075,4.15,36.0
81.774,-6.956,3.646,26.0
116.237,-9.908,8.431,14.0
84.896,-7.241,5.709,18.0
84.614,-7.223,5.242,17.0
83.807,-7.16,4.742,25.0
83.111,-7.105,4.264,41.0
0.0,0.0,0.0,0.0
121.317,-10.403,8.978,6.0
84.532,-7.252,5.808,10.0
84.997,-7.297,5.391,14.0
83.667,-7.187,4.856,24.0
83.096,-7.143,4.384,36.0
82.934,-7.134,3.939,35.0
121.239,-10.452,9.149,27.0
84.723,-7.307,5.945,11.0
84.639,-7.303,5.491,26.0
83.976,-7.25,4.996,19.0
83.195,-7.187,4.511,36.0
82.973,-7.172,4.062,31.0
121.0,-10.481,9.31,25.0
60.195,-5.216,4.312,2.0
84.497,-7.325,5.606,25.0
86.359,-7.49,5.265,14.0
83.311,-7.229,4.638,33.0
83.049,-7.209,4.186,34.0
120.756,-10.505,9.467,22.0
121.423,-10.566,8.876,7.0
84.701,-7.373,5.744,25.0
84.601,-7.367,5.28,17.0
83.494,-7.273,4.77,24.0
83.063,-7.238,4.307,34.0
60.61,-5.292,4.84,3.0
121.29,-10.594,9.042,23.0
84.816,-7.409,5.872,16.0
84.55,-7.387,5.398,28.0
83.485,-7.296,4.889,27.0
83.2,-7.274,4.433,36.0
60.631,-5.312,4.93,5.0
121.243,-10.624,9.215,27.0
60.15,-5.27,4.252,4.0
84.53,-7.408,5.52,31.0
84.134,-7.374,5.048,13.0
83.275,-7.301,4.557,34.0
60.667,-5.33,5.021,8.0
120.753,-10.608,9.352,26.0
60.183,-5.287,4.341,2.0
84.593,-7.431,5.644,28.0
84.732,-7.444,5.205,14.0
83.389,-7.327,4.681,33.0
24.599,-2.166,2.071,19.0
120.693,-10.626,9.518,18.0
112.547,-9.908,8.277,22.0
84.751,-7.46,5.775,23.0
84.664,-7.452,5.321,25.0
83.611,-7.359,4.811,38.0
24.599,-2.17,2.105,44.0
114.353,-10.085,9.18,10.0
121.303,-10.695,9.093,17.0
84.74,-7.47,5.894,14.0
84.678,-7.463,5.44,28.0
83.881,-7.392,4.945,29.0
24.586,-2.171,2.139,60.0
60.696,-5.359,4.958,4.0
120.932,-10.674,9.234,18.0
60.108,-5.303,4.264,2.0
84.567,-7.46,5.549,28.0
84.465,-7.449,5.095,22.0
24.576,-2.172,2.172,68.0
24.604,-2.173,2.043,1.0
120.577,-10.648,9.373,19.0
112.539,-9.935,8.137,16.0
84.69,-7.474,5.673,28.0
84.602,-7.463,5.218,28.0
24.577,-2.173,2.206,69.0
24.59,-2.173,2.076,21.0
120.577,-10.65,9.537,9.0
112.519,-9.932,8.289,27.0
84.83,-7.485,5.797,22.0
84.615,-7.463,5.332,26.0
24.575,-2.172,2.239,51.0
24.594,-2.172,2.11,44.0
114.203,-10.082,9.188,13.0
121.249,-10.698,9.096,15.0
84.742,-7.473,5.905,13.0
84.639,-7.46,5.448,27.0
24.568,-2.17,2.272,30.0
24.584,-2.17,2.142,59.0
113.394,-10.002,9.273,17.0
120.95,-10.661,9.234,22.0
60.193,-5.302,4.274,4.0
84.542,-7.442,5.552,29.0
24.589,-2.169,2.306,9.0
24.564,-2.165,2.172,62.0
24.61,-2.168,2.045,4.0
120.631,-10.617,9.368,26.0
112.611,-9.904,8.144,11.0
84.644,-7.439,5.67,25.0
46.483,-4.095,4.422,4.0
24.571,-2.162,2.205,52.0
24.585,-2.161,2.075,28.0
120.668,-10.601,9.526,20.0
112.516,-9.876,8.281,14.0
84.811,-7.439,5.789,22.0
46.477,-4.085,4.481,1.0
24.58,-2.158,2.237,36.0
24.591,-2.157,2.106,49.0
60.634,-5.314,4.863,3.0
121.294,-10.62,9.08,26.0
84.796,-7.418,5.895,13.0
120.574,-10.573,11.777,14.0
24.58,-2.152,2.268,12.0
24.585,-2.151,2.136,58.0
113.331,-9.905,9.231,20.0
121.245,-10.585,9.226,27.0
60.192,-5.249,4.259,5.0
46.336,-4.051,4.583,1.0
46.521,-4.061,4.351,4.0
24.582,-2.143,2.166,56.0
24.604,-2.143,2.034,8.0
120.9,-10.519,9.347,23.0
116.031,-10.085,8.348,8.0
114.043,-9.935,11.419,15.0
46.511,-4.046,4.406,4.0
24.6,-2.137,2.198,43.0
24.608,-2.135,2.064,37.0
120.655,-10.456,9.472,16.0
116.305,-10.068,8.506,13.0
113.931,-9.886,11.544,18.0
46.417,-4.021,4.452,2.0
24.582,-2.127,2.225,24.0
24.597,-2.125,2.091,54.0
60.614,-5.23,4.829,7.0
121.257,-10.451,9.008,21.0
39.214,-3.387,4.019,2.0
120.563,-10.398,11.706,18.0
24.591,-2.117,2.255,2.0
24.59,-2.114,2.12,64.0
120.546,-10.352,9.743,12.0
121.18,-10.392,9.143,24.0
112.401,-9.661,11.652,18.0
120.423,-10.334,11.832,15.0
46.51,-3.985,4.318,3.0
24.598,-2.104,2.148,51.0
24.605,-2.101,2.016,7.0
121.202,-10.337,9.281,16.0
23.823,-2.036,2.496,2.0
120.159,-10.254,11.941,10.0
46.482,-3.96,4.367,5.0
24.611,-2.093,2.176,43.0
24.615,-2.09,2.044,37.0
60.607,-5.139,4.706,6.0
23.828,-2.025,2.523,34.0
23.914,-2.028,2.402,4.0
58.108,-4.921,5.521,5.0
24.607,-2.08,2.202,20.0
24.61,-2.077,2.069,49.0
121.006,-10.197,9.523,8.0
23.824,-2.012,2.548,72.0
23.846,-2.01,2.42,17.0
60.895,-5.124,5.85,3.0
24.64,-2.069,2.231,2.0
24.604,-2.062,2.095,49.0
120.94,-10.121,9.645,24.0
23.825,-1.998,2.573,88.0
23.83,-1.995,2.443,41.0
23.863,-1.993,2.317,13.0
46.472,-3.875,4.256,4.0
24.576,-2.045,2.117,31.0
120.814,-10.038,9.755,22.0
23.822,-1.983,2.597,45.0
23.826,-1.98,2.467,48.0
23.863,-1.979,2.341,38.0
23.9,-1.978,2.212,20.0
24.025,-1.984,2.093,16.0
24.603,-2.028,2.01,11.0
23.826,-1.968,2.62,11.0
23.816,-1.963,2.489,32.0
23.846,-1.962,2.362,59.0
23.896,-1.962,2.234,50.0
23.949,-1.962,2.109,35.0
24.18,-1.977,1.998,17.0
45.8,-3.753,5.08,2.0
23.827,-1.948,2.512,41.0
23.839,-1.945,2.383,61.0
23.89,-1.944,2.256,66.0
23.925,-1.943,2.128,58.0
24.01,-1.946,2.006,33.0
30.852,-2.506,3.45,3.0
23.823,-1.93,2.533,19.0
23.834,-1.927,2.404,53.0
23.872,-1.926,2.275,57.0
23.919,-1.925,2.149,56.0
23.968,-1.925,2.023,43.0
30.85,-2.483,3.477,20.0
47.821,-3.84,5.128,3.0
23.853,-1.91,2.427,40.0
23.878,-1.908,2.296,37.0
23.915,-1.906,2.169,47.0
23.959,-1.906,2.042,48.0
30.876,-2.461,3.506,15.0
112.634,-8.957,12.171,22.0
23.845,-1.891,2.445,2.0
23.895,-1.89,2.317,9.0
23.915,-1.888,2.188,23.0
23.969,-1.887,2.062,33.0
45.854,-3.618,5.244,10.0
30.894,-2.432,3.363,0.0
38.978,-3.06,4.029,5.0
58.077,-4.548,5.678,5.0
23.936,-1.869,2.209,2.0
23.987,-1.869,2.082,22.0
36.864,-2.878,4.244,9.0
30.907,-2.406,3.388,34.0
39.026,-3.031,4.063,8.0
112.07,-8.681,11.041,19.0
47.109,-3.64,4.382,5.0
24.039,-1.853,2.104,30.0
36.877,-2.847,4.273,8.0
30.924,-2.381,3.412,19.0
47.366,-3.638,4.965,9.0
54.024,-4.137,5.36,8.0
47.149,-3.601,4.419,7.0
24.033,-1.831,2.12,2.0
36.904,-2.816,4.302,6.0
51.812,-3.943,5.753,6.0
39.012,-2.961,4.116,7.0
59.501,-4.503,5.944,5.0
58.218,-4.393,5.496,5.0
46.531,-3.502,4.137,5.0
112.603,-8.49,13.202,24.0
30.39,-2.284,3.394,3.0
30.954,-2.32,3.286,37.0
47.446,-3.546,4.77,2.0
59.066,-4.402,5.613,4.0
46.492,-3.454,4.163,5.0
31.96,-2.378,3.767,0.0
36.895,-2.738,4.144,2.0
30.979,-2.292,3.308,6.0
47.607,-3.511,4.815,6.0
59.308,-4.362,5.672,11.0
46.568,-3.414,4.197,3.0
30.399,-2.232,3.601,41.0
30.418,-2.226,3.434,42.0
36.217,-2.643,3.888,2.0
30.994,-2.255,3.153,12.0
111.369,-8.079,10.713,19.0
24.913,-1.802,2.259,9.0
30.419,-2.203,3.62,67.0
30.418,-2.196,3.451,71.0
30.42,-2.189,3.282,8.0
30.984,-2.223,3.168,42.0
52.494,-3.754,5.077,3.0
24.879,-1.774,2.268,24.0
0.0,0.0,0.0,0.0
30.421,-2.165,3.466,16.0
30.395,-2.156,3.294,35.0
38.946,-2.754,4.001,6.0
24.984,-1.761,2.428,15.0
24.884,-1.748,2.28,35.0
32.084,-2.257,3.85,7.0
32.037,-2.246,3.665,1.0
30.421,-2.126,3.311,58.0
25.004,-1.741,2.579,16.0
24.982,-1.734,2.438,54.0
24.895,-1.722,2.292,26.0
32.082,-2.222,3.863,12.0
32.074,-2.213,3.683,5.0
30.417,-2.092,3.323,20.0
25.019,-1.715,2.591,55.0
24.992,-1.707,2.449,53.0
24.964,-1.7,2.308,15.0
32.084,-2.187,3.876,60.0
32.02,-2.175,3.689,33.0
36.969,-2.502,4.052,3.0
25.02,-1.687,2.6,56.0
24.998,-1.68,2.459,18.0
31.056,-2.08,2.882,34.0
31.959,-2.143,3.872,38.0
31.945,-2.134,3.691,34.0
25.047,-1.667,2.753,26.0
30.448,-2.019,3.174,3.0
54.241,-3.584,5.352,4.0
45.115,-2.971,4.2,3.0
31.929,-2.104,3.878,28.0
31.925,-2.096,3.698,52.0
25.106,-1.642,2.767,36.0
30.436,-1.984,3.181,68.0
30.464,-1.978,3.014,15.0
45.1,-2.918,4.21,9.0
30.099,-1.949,3.663,16.0
0.0,0.0,0.0,0.0
25.134,-1.615,2.776,38.0
30.433,-1.949,3.188,71.0
30.484,-1.944,3.023,42.0
45.342,-2.882,4.243,2.0
30.115,-1.915,3.671,20.0
30.197,-1.913,3.511,29.0
25.155,-1.587,2.783,38.0
30.435,-1.913,3.194,53.0
30.482,-1.909,3.028,49.0
45.797,-2.857,4.293,4.0
30.071,-1.877,3.671,39.0
30.186,-1.876,3.515,30.0
25.17,-1.558,2.789,31.0
30.452,-1.878,3.2,19.0
30.478,-1.872,3.032,66.0
47.576,-2.91,4.467,1.0
30.08,-1.84,3.676,49.0
30.214,-1.841,3.522,2.0
25.202,-1.529,2.795,30.0
31.732,-1.918,3.338,25.0
30.487,-1.835,3.036,60.0
47.588,-2.853,4.472,3.0
30.073,-1.803,3.678,5.0
25.299,-1.51,2.951,7.0
31.822,-1.892,3.532,2.0
31.703,-1.877,3.336,48.0
30.506,-1.799,3.039,66.0
51.48,-3.023,4.84,4.0
33.227,-1.951,4.065,8.0
25.346,-1.482,2.957,1.0
25.285,-1.472,2.807,26.0
31.709,-1.838,3.338,39.0
30.499,-1.761,3.038,61.0
45.816,-2.634,4.307,3.0
33.235,-1.91,4.065,5.0
25.41,-1.454,2.964,18.0
46.195,-2.632,5.127,13.0
31.724,-1.8,3.338,2.0
30.53,-1.725,3.041,43.0
30.545,-1.718,2.87,5.0
36.972,-2.08,4.521,7.0
25.425,-1.423,2.964,38.0
52.6,-2.932,5.835,7.0
43.776,-2.429,4.603,3.0
30.981,-1.711,3.083,40.0
24.133,-1.327,2.265,22.0
0.0,0.0,0.0,0.0
25.448,-1.392,2.964,30.0
58.761,-3.2,6.512,18.0
51.489,-2.792,5.409,10.0
31.574,-1.704,3.138,8.0
24.122,-1.296,2.261,60.0
25.495,-1.368,3.111,16.0
25.463,-1.36,2.962,22.0
39.733,-2.113,4.397,5.0
23.984,-1.269,2.515,14.0
24.056,-1.267,2.386,48.0
24.12,-1.265,2.256,47.0
25.494,-1.336,3.106,45.0
0.0,0.0,0.0,0.0
39.716,-2.06,4.387,6.0
23.948,-1.237,2.506,28.0
24.055,-1.236,2.381,60.0
30.59,-1.565,2.855,43.0
25.521,-1.304,3.103,3.0
23.814,-1.211,2.76,4.0
23.874,-1.208,2.631,34.0
23.976,-1.207,2.503,31.0
38.762,-1.943,3.827,2.0
30.609,-1.527,2.848,62.0
23.737,-1.182,2.88,15.0
23.806,-1.179,2.752,49.0
23.877,-1.177,2.624,45.0
23.991,-1.177,2.497,57.0
38.725,-1.89,3.811,41.0
30.626,-1.488,2.84,47.0
23.704,-1.149,2.868,19.0
23.801,-1.148,2.744,54.0
23.867,-1.145,2.615,21.0
37.114,-1.772,3.851,6.0
38.76,-1.842,3.801,26.0
31.241,-1.477,2.886,35.0
23.688,-1.118,2.857,38.0
23.811,-1.117,2.736,22.0
42.859,-2.002,4.679,4.0
37.122,-1.725,3.837,6.0
47.093,-2.177,4.6,10.0
31.469,-1.447,2.895,42.0
23.723,-1.088,2.852,35.0
39.386,-1.798,4.509,2.0
42.891,-1.948,4.665,4.0
37.118,-1.677,3.821,6.0
47.144,-2.119,4.584,3.0
24.659,-1.102,2.257,37.0
23.755,-1.059,2.845,4.0
47.292,-2.097,5.392,7.0
37.104,-1.636,4.018,6.0
37.141,-1.629,3.805,5.0
24.659,-1.076,2.386,48.0
24.639,-1.069,2.243,62.0
37.933,-1.642,4.524,1.0
39.349,-1.693,4.466,1.0
31.79,-1.361,3.426,25.0
24.673,-1.05,2.515,41.0
24.652,-1.043,2.372,82.0
24.639,-1.037,2.23,57.0
28.435,-1.193,3.375,1.0
28.408,-1.185,3.208,34.0
28.408,-1.178,3.045,19.0
24.661,-1.017,2.499,59.0
24.661,-1.011,2.358,53.0
28.406,-1.159,2.554,67.0
28.401,-1.154,3.354,83.0
28.4,-1.148,3.19,117.0
24.726,-0.993,2.635,43.0
24.667,-0.985,2.485,48.0
28.401,-1.128,2.698,98.0
28.413,-1.122,2.537,95.0
28.405,-1.117,3.336,109.0
28.391,-1.11,3.171,32.0
24.719,-0.961,2.618,42.0
24.648,-0.953,2.467,28.0
28.424,-1.092,2.682,65.0
28.414,-1.086,2.518,29.0
28.396,-1.08,3.316,39.0
24.803,-0.938,2.753,38.0
24.727,-0.929,2.602,36.0
37.166,-1.388,3.693,66.0
37.275,-1.384,3.49,19.0
38.809,-1.432,3.411,4.0
39.051,-1.435,4.531,3.0
24.823,-0.906,2.737,35.0
24.749,-0.898,2.586,4.0
37.21,-1.342,3.67,26.0
37.298,-1.337,3.464,28.0
28.377,-1.011,2.473,64.0
24.915,-0.883,2.872,19.0
24.829,-0.875,2.718,37.0
43.745,-1.531,4.537,8.0
48.949,-1.703,4.79,3.0
28.378,-0.981,2.613,54.0
28.373,-0.975,2.45,77.0
24.874,-0.85,2.847,29.0
24.851,-0.844,2.7,3.0
47.928,-1.617,4.931,4.0
42.756,-1.433,4.147,5.0
28.368,-0.944,2.588,65.0
28.372,-0.939,2.426,75.0
24.865,-0.818,2.824,53.0
36.828,-1.203,3.97,1.0
47.75,-1.55,4.871,3.0
54.824,-1.768,5.27,8.0
28.361,-0.908,2.563,71.0
28.372,-0.903,2.4,74.0
24.857,-0.786,2.8,64.0
42.566,-1.337,4.549,2.0
54.973,-1.715,5.556,13.0
44.349,-1.374,4.222,9.0
28.363,-0.873,2.536,72.0
28.375,-0.867,2.374,80.0
24.854,-0.754,2.776,14.0
44.453,-1.341,4.708,65.0
