X,Y,Z,Reflectivity
28.359,-0.671,1.763,68.0
28.371,-0.666,1.596,71.0
40.406,-0.94,2.039,31.0
40.402,-0.933,1.805,37.0
28.362,-0.648,2.05,75.0
28.359,-0.642,1.885,75.0
28.356,-0.637,1.72,72.0
28.367,-0.631,1.552,71.0
40.398,-0.892,1.976,32.0
40.414,-0.884,1.742,27.0
28.35,-0.614,2.005,75.0
28.358,-0.608,1.84,72.0
28.366,-0.603,1.675,68.0
28.368,-0.598,1.507,62.0
45.683,-0.955,2.162,18.0
45.717,-0.947,1.898,52.0
28.346,-0.58,1.959,82.0
28.353,-0.575,1.794,72.0
28.359,-0.57,1.629,72.0
59.345,-1.183,3.058,20.0
45.694,-0.903,2.089,32.0
45.74,-0.895,1.825,45.0
28.351,-0.548,1.913,80.0
28.35,-0.543,1.747,72.0
28.357,-0.538,1.582,71.0
45.678,-0.859,2.278,44.0
45.754,-0.852,2.016,42.0
64.289,-1.187,2.459,25.0
28.352,-0.517,1.865,76.0
28.352,-0.512,1.7,79.0
28.366,-0.507,1.535,59.0
45.688,-0.809,2.202,68.0
45.931,-0.805,1.946,12.0
64.296,-1.117,2.351,26.0
51.846,-0.889,3.324,4.0
66.245,-1.124,3.859,11.0
45.635,-0.766,2.393,9.0
45.974,-0.765,2.138,42.0
59.184,-0.974,2.407,73.0
59.4,-0.969,2.071,19.0
52.248,-0.84,3.259,5.0
66.302,-1.055,3.748,7.0
45.608,-0.718,2.312,45.0
59.087,-0.921,2.646,12.0
59.083,-0.911,2.301,86.0
53.493,-0.816,1.772,68.0
52.205,-0.785,3.165,5.0
46.26,-0.689,2.535,25.0
45.877,-0.675,2.245,20.0
58.605,-0.854,2.522,150.0
58.594,-0.845,2.18,150.0
53.497,-0.763,1.679,69.0
46.262,-0.65,2.723,71.0
45.771,-0.636,2.427,28.0
46.088,-0.633,2.174,52.0
58.272,-0.792,2.404,206.0
58.329,-0.784,2.066,4.0
53.492,-0.711,1.583,111.0
45.833,-0.599,2.615,21.0
45.541,-0.588,2.332,58.0
58.244,-0.744,2.642,255.0
58.303,-0.736,2.299,255.0
53.51,-0.668,1.798,109.0
53.484,-0.659,1.485,60.0
52.878,-0.641,2.92,39.0
45.979,-0.55,2.27,49.0
58.293,-0.69,2.538,255.0
58.316,-0.682,2.193,158.0
53.489,-0.618,1.699,19.0
20.153,-0.23,0.523,10.0
45.507,-0.51,2.429,23.0
58.25,-0.645,2.768,255.0
58.294,-0.637,2.431,255.0
53.53,-0.578,1.914,150.0
53.449,-0.57,1.599,9.0
20.138,-0.212,0.485,14.0
45.69,-0.471,2.353,26.0
58.3,-0.594,2.661,255.0
58.298,-0.586,2.32,255.0
53.498,-0.531,1.812,110.0
53.517,-0.524,1.5,9.0
20.16,-0.195,0.448,22.0
58.344,-0.553,2.895,19.0
58.304,-0.544,2.551,255.0
58.226,-0.536,2.207,255.0
53.499,-0.486,1.709,93.0
20.143,-0.18,0.526,8.0
20.212,-0.178,0.41,16.0
58.296,-0.504,2.779,255.0
58.309,-0.496,2.439,255.0
58.313,-0.489,2.098,150.0
53.48,-0.442,1.606,59.0
20.172,-0.164,0.488,14.0
20.25,-0.162,0.372,24.0
58.292,-0.458,2.667,255.0
58.305,-0.451,2.326,255.0
53.514,-0.407,1.822,110.0
20.168,-0.151,0.566,9.0
20.215,-0.149,0.45,22.0
20.181,-0.146,0.331,17.0
58.298,-0.413,2.552,255.0
58.252,-0.406,2.209,255.0
53.515,-0.367,1.716,27.0
20.139,-0.136,0.526,15.0
20.136,-0.133,0.408,16.0
20.124,-0.131,0.29,17.0
58.296,-0.371,2.436,255.0
58.24,-0.364,2.093,255.0
20.149,-0.123,0.606,11.0
20.1,-0.121,0.485,18.0
20.128,-0.119,0.368,21.0
20.134,-0.117,0.25,23.0
58.296,-0.331,2.32,255.0
58.241,-0.324,1.977,255.0
20.12,-0.11,0.565,15.0
20.118,-0.108,0.445,25.0
20.12,-0.106,0.328,27.0
20.122,-0.104,0.21,23.0
58.298,-0.292,2.201,255.0
58.271,-0.286,1.86,53.0
20.117,-0.097,0.524,19.0
20.105,-0.095,0.404,32.0
20.118,-0.093,0.286,26.0
20.126,-0.091,0.169,27.0
58.226,-0.255,2.08,255.0
20.147,-0.086,0.601,14.0
20.124,-0.084,0.483,24.0
20.109,-0.082,0.363,30.0
20.117,-0.081,0.246,26.0
20.114,-0.079,0.128,32.0
58.239,-0.221,1.961,255.0
20.126,-0.074,0.559,17.0
20.112,-0.072,0.441,28.0
20.114,-0.071,0.322,27.0
20.117,-0.069,0.204,27.0
20.127,-0.067,0.087,40.0
20.179,-0.065,0.638,15.0
20.129,-0.063,0.518,22.0
20.125,-0.061,0.4,28.0
20.109,-0.06,0.28,29.0
20.114,-0.058,0.162,30.0
20.139,-0.057,0.045,38.0
20.149,-0.054,0.594,17.0
20.131,-0.053,0.476,27.0
20.107,-0.051,0.358,28.0
20.1,-0.05,0.238,31.0
20.115,-0.048,0.121,33.0
20.126,-0.047,0.003,36.0
20.158,-0.045,0.553,21.0
20.12,-0.043,0.434,28.0
20.118,-0.042,0.316,27.0
20.111,-0.04,0.196,38.0
20.125,-0.039,0.079,40.0
20.132,-0.038,-0.038,32.0
20.138,-0.036,0.51,25.0
20.122,-0.034,0.392,26.0
20.106,-0.033,0.274,25.0
20.11,-0.032,0.154,28.0
20.129,-0.03,0.037,32.0
20.15,-0.029,-0.08,27.0
20.131,-0.027,0.468,28.0
20.115,-0.026,0.35,29.0
20.12,-0.025,0.232,27.0
20.108,-0.024,0.112,35.0
20.117,-0.023,-0.004,17.0
20.18,-0.021,-0.123,24.0
20.131,-0.02,0.425,28.0
20.125,-0.019,0.307,28.0
20.121,-0.018,0.189,28.0
20.14,-0.017,0.069,29.0
20.183,-0.016,-0.047,14.0
20.185,-0.015,-0.165,11.0
20.13,-0.013,0.383,26.0
20.125,-0.012,0.265,25.0
20.125,-0.011,0.147,27.0
20.206,-0.01,0.027,16.0
20.216,-0.009,-0.09,17.0
20.237,-0.008,-0.209,7.0
20.123,-0.007,0.34,28.0
20.122,-0.006,0.222,26.0
20.116,-0.005,0.104,30.0
20.262,-0.004,-0.015,103.0
20.247,-0.004,-0.133,41.0
20.249,-0.003,-0.252,21.0
20.128,-0.002,0.297,29.0
20.132,-0.001,0.179,27.0
20.202,0.0,0.061,37.0
20.254,0.0,-0.058,150.0
20.263,0.0,-0.177,150.0
20.265,0.001,-0.295,74.0
20.124,0.002,0.254,28.0
20.131,0.002,0.136,28.0
20.249,0.003,0.018,152.0
20.258,0.004,-0.101,151.0
20.264,0.004,-0.22,150.0
20.275,0.005,-0.339,86.0
20.126,0.006,0.21,28.0
20.14,0.006,0.093,30.0
20.248,0.007,-0.024,152.0
20.259,0.007,-0.145,151.0
20.267,0.008,-0.263,150.0
20.261,0.008,-0.382,150.0
20.121,0.009,0.168,27.0
20.251,0.009,0.05,150.0
20.255,0.01,-0.067,152.0
20.256,0.01,-0.188,151.0
20.274,0.01,-0.307,150.0
20.267,0.011,-0.426,149.0
20.144,0.011,0.125,31.0
20.239,0.011,0.007,153.0
20.258,0.012,-0.111,152.0
20.259,0.012,-0.232,151.0
20.263,0.012,-0.351,150.0
20.258,0.013,-0.469,150.0
20.172,0.012,0.081,33.0
20.253,0.013,-0.036,152.0
20.254,0.013,-0.155,152.0
20.26,0.013,-0.275,151.0
20.269,0.013,-0.394,150.0
20.262,0.014,-0.513,150.0
20.256,0.013,0.038,151.0
20.258,0.013,-0.08,152.0
20.255,0.014,-0.198,152.0
20.262,0.014,-0.319,151.0
20.268,0.014,-0.438,150.0
20.261,0.014,-0.557,150.0
20.237,0.013,-0.005,153.0
20.259,0.013,-0.123,152.0
20.266,0.013,-0.242,151.0
20.263,0.013,-0.362,151.0
20.267,0.013,-0.481,150.0
20.253,0.013,-0.6,150.0
20.25,0.012,-0.048,152.0
20.252,0.012,-0.166,152.0
20.267,0.012,-0.285,151.0
20.272,0.012,-0.406,150.0
20.254,0.012,-0.524,150.0
20.259,0.012,-0.643,150.0
20.26,0.011,-0.09,152.0
20.266,0.011,-0.209,151.0
20.269,0.011,-0.328,151.0
20.252,0.01,-0.448,150.0
20.269,0.01,-0.567,150.0
20.264,0.01,-0.686,68.0
20.273,0.009,-0.134,151.0
20.264,0.008,-0.252,151.0
20.256,0.008,-0.371,151.0
20.259,0.008,-0.492,84.0
20.262,0.008,-0.61,76.0
20.248,0.007,-0.729,43.0
20.256,0.006,-0.176,151.0
20.265,0.005,-0.295,150.0
20.265,0.005,-0.414,76.0
20.261,0.005,-0.535,53.0
20.243,0.004,-0.653,35.0
20.231,0.004,-0.771,15.0
20.278,0.002,-0.22,88.0
20.278,0.001,-0.338,61.0
20.241,0.001,-0.456,20.0
20.237,0.0,-0.577,8.0
20.231,0.0,-0.695,7.0
20.241,0.0,-0.814,2.0
20.244,-0.002,-0.262,16.0
20.238,-0.002,-0.38,8.0
20.25,-0.003,-0.499,4.0
20.22,-0.003,-0.619,3.0
20.249,-0.004,-0.738,2.0
20.246,-0.007,-0.304,4.0
20.239,-0.008,-0.423,2.0
20.252,-0.008,-0.542,1.0
20.214,-0.009,-0.661,0.0
23.318,-0.011,-0.899,0.0
20.218,-0.01,-0.898,25.0
20.246,-0.013,-0.347,0.0
20.249,-0.014,-0.465,0.0
29.753,-0.022,-0.858,0.0
41.586,-0.041,-0.799,2.0
32.329,-0.033,-0.81,2.0
28.489,-0.03,-0.88,0.0
24.323,-0.027,-0.896,0.0
37.468,-0.05,-0.797,2.0
32.0,-0.045,-0.867,4.0
58.368,-0.085,-1.923,2.0
20.248,-0.031,-0.906,53.0
34.628,-0.06,-0.807,2.0
58.476,-0.105,-1.704,0.0
32.347,-0.071,-0.819,2.0
27.963,-0.063,-0.871,0.0
30.31,-0.081,-0.829,1.0
26.729,-0.073,-0.887,1.0
20.274,-0.058,-0.912,65.0
16.55,-0.049,-0.938,0.0
30.284,-0.096,-0.888,0.0
25.108,-0.081,-0.883,0.0
16.047,-0.056,-0.942,0.0
28.048,-0.104,-0.878,5.0
24.376,-0.092,-0.906,0.0
15.504,-0.063,-0.941,0.0
26.195,-0.112,-0.871,0.0
22.955,-0.1,-0.898,0.0
20.281,-0.09,-0.912,67.0
16.534,-0.076,-0.938,0.0
15.028,-0.07,-0.941,0.0
25.09,-0.123,-0.884,0.0
14.642,-0.078,-0.945,0.0
24.056,-0.133,-0.893,0.0
20.273,-0.114,-0.871,10.0
15.498,-0.091,-0.939,0.0
14.252,-0.085,-0.947,0.0
22.618,-0.141,-0.883,14.0
20.291,-0.128,-0.91,71.0
18.286,-0.117,-0.927,0.0
16.529,-0.107,-0.937,0.0
15.067,-0.099,-0.942,0.0
13.929,-0.093,-0.952,0.0
22.569,-0.156,-0.923,17.0
16.099,-0.116,-0.942,0.0
14.648,-0.107,-0.943,0.0
13.48,-0.1,-0.947,0.0
20.282,-0.155,-0.867,9.0
18.765,-0.146,-0.912,0.0
17.054,-0.134,-0.928,0.0
15.551,-0.124,-0.939,0.0
14.223,-0.115,-0.942,0.0
13.187,-0.108,-0.95,0.0
20.29,-0.171,-0.904,71.0
18.351,-0.156,-0.925,0.0
16.642,-0.144,-0.936,0.0
15.136,-0.133,-0.941,0.0
13.932,-0.124,-0.948,0.0
12.883,-0.116,-0.952,0.0
20.197,-0.186,-0.936,6.0
17.712,-0.165,-0.924,0.0
16.216,-0.153,-0.941,0.0
14.724,-0.141,-0.942,0.0
12.552,-0.123,-0.95,0.0
19.038,-0.192,-0.917,0.0
17.215,-0.175,-0.929,0.0
15.719,-0.162,-0.94,0.0
14.356,-0.15,-0.944,0.0
13.259,-0.14,-0.949,0.0
12.287,-0.131,-0.952,0.0
18.505,-0.202,-0.923,0.0
16.761,-0.185,-0.934,0.0
15.293,-0.171,-0.941,0.0
12.974,-0.148,-0.951,0.0
12.016,-0.139,-0.951,0.0
18.033,-0.213,-0.93,0.0
16.353,-0.195,-0.939,0.0
14.89,-0.179,-0.942,0.0
12.664,-0.156,-0.95,0.0
11.736,-0.146,-0.949,0.0
17.421,-0.221,-0.928,0.0
15.893,-0.204,-0.939,0.0
14.554,-0.189,-0.945,0.0
13.334,-0.175,-0.945,0.0
12.361,-0.164,-0.948,0.0
11.467,-0.154,-0.947,0.0
16.981,-0.232,-0.933,0.0
15.514,-0.214,-0.942,0.0
14.173,-0.197,-0.943,0.0
13.098,-0.184,-0.949,0.0
12.178,-0.173,-0.954,0.0
11.267,-0.162,-0.948,0.0
16.629,-0.243,-0.94,0.0
15.078,-0.222,-0.94,0.0
13.959,-0.208,-0.952,0.0
12.839,-0.193,-0.951,0.0
11.835,-0.18,-0.946,0.0
11.073,-0.17,-0.95,0.0
16.153,-0.252,-0.939,0.0
14.78,-0.233,-0.945,0.0
13.42,-0.213,-0.936,0.0
12.572,-0.202,-0.951,0.0
11.598,-0.188,-0.946,0.0
10.866,-0.178,-0.949,0.0
15.753,-0.262,-0.94,0.0
14.471,-0.243,-0.948,0.0
13.366,-0.226,-0.953,0.0
12.318,-0.21,-0.951,0.0
11.385,-0.196,-0.946,0.0
10.672,-0.186,-0.949,0.0
15.376,-0.271,-0.941,0.0
14.07,-0.251,-0.943,0.0
13.032,-0.234,-0.949,0.0
12.048,-0.218,-0.949,0.0
11.195,-0.205,-0.947,0.0
10.465,-0.193,-0.946,0.0
14.981,-0.28,-0.939,0.0
13.897,-0.262,-0.952,0.0
12.753,-0.243,-0.948,0.0
11.841,-0.228,-0.95,0.0
11.012,-0.213,-0.948,0.0
10.327,-0.202,-0.949,0.0
14.699,-0.291,-0.943,0.0
13.491,-0.269,-0.944,0.0
12.513,-0.252,-0.948,0.0
11.532,-0.234,-0.942,0.0
10.83,-0.222,-0.948,0.0
10.172,-0.21,-0.949,0.0
14.363,-0.3,-0.942,0.0
13.31,-0.28,-0.95,0.0
12.319,-0.262,-0.951,0.0
11.35,-0.243,-0.943,0.0
10.699,-0.231,-0.951,0.0
9.984,-0.217,-0.946,0.0
14.147,-0.312,-0.947,0.0
13.006,-0.289,-0.946,0.0
12.164,-0.272,-0.956,0.0
11.193,-0.253,-0.945,0.0
10.496,-0.239,-0.948,0.0
9.864,-0.226,-0.948,0.0
13.84,-0.321,-0.946,0.0
12.804,-0.299,-0.949,0.0
11.893,-0.28,-0.95,0.0
11.004,-0.261,-0.944,0.0
10.349,-0.248,-0.948,0.0
9.727,-0.235,-0.948,0.0
13.477,-0.328,-0.938,0.0
12.584,-0.309,-0.949,0.0
11.691,-0.289,-0.949,0.0
10.896,-0.271,-0.949,0.0
10.225,-0.257,-0.95,0.0
9.58,-0.242,-0.946,0.0
13.353,-0.341,-0.947,0.0
12.386,-0.319,-0.95,0.0
11.468,-0.297,-0.946,0.0
10.741,-0.28,-0.949,0.0
10.092,-0.265,-0.951,0.0
9.451,-0.25,-0.945,0.0
13.106,-0.351,-0.945,0.0
12.207,-0.329,-0.951,0.0
11.279,-0.306,-0.944,0.0
10.606,-0.29,-0.95,0.0
9.96,-0.274,-0.95,0.0
9.35,-0.259,-0.947,0.0
12.925,-0.361,-0.948,0.0
12.055,-0.339,-0.954,0.0
11.174,-0.317,-0.949,0.0
10.445,-0.298,-0.948,0.0
9.838,-0.283,-0.95,0.0
9.254,-0.268,-0.948,0.0
12.741,-0.372,-0.949,0.0
11.877,-0.349,-0.953,0.0
11.026,-0.326,-0.949,0.0
10.317,-0.307,-0.948,0.0
9.706,-0.291,-0.949,0.0
9.149,-0.276,-0.947,0.0
12.596,-0.384,-0.952,0.0
11.615,-0.356,-0.945,0.0
10.879,-0.336,-0.948,0.0
10.205,-0.317,-0.95,0.0
9.582,-0.3,-0.947,0.0
9.022,-0.284,-0.944,0.0
12.431,-0.394,-0.953,0.0
11.496,-0.367,-0.948,0.0
10.777,-0.346,-0.951,0.0
10.094,-0.326,-0.95,0.0
9.492,-0.309,-0.948,0.0
8.914,-0.292,-0.942,0.0
12.261,-0.404,-0.953,0.0
11.301,-0.375,-0.943,0.0
10.629,-0.355,-0.948,0.0
9.996,-0.336,-0.951,0.0
9.409,-0.318,-0.949,0.0
8.828,-0.301,-0.942,0.0
12.157,-0.417,-0.957,0.0
11.247,-0.388,-0.95,0.0
10.521,-0.365,-0.949,0.0
9.893,-0.345,-0.951,0.0
9.317,-0.327,-0.949,0.0
8.76,-0.31,-0.943,0.0
11.978,-0.426,-0.954,0.0
11.101,-0.397,-0.948,0.0
10.436,-0.376,-0.951,0.0
9.758,-0.353,-0.947,0.0
9.234,-0.337,-0.949,0.0
8.689,-0.319,-0.944,0.0
11.778,-0.434,-0.949,0.0
11.06,-0.41,-0.954,0.0
10.324,-0.385,-0.95,0.0
9.693,-0.364,-0.949,0.0
9.133,-0.345,-0.947,0.0
8.624,-0.328,-0.944,0.0
11.652,-0.445,-0.949,0.0
10.923,-0.419,-0.952,0.0
10.243,-0.396,-0.952,0.0
9.618,-0.374,-0.95,0.0
9.035,-0.353,-0.945,0.0
8.528,-0.335,-0.941,0.0
11.558,-0.457,-0.951,0.0
10.772,-0.428,-0.948,0.0
10.139,-0.405,-0.95,0.0
9.534,-0.383,-0.949,0.0
8.963,-0.362,-0.944,0.0
8.494,-0.345,-0.944,0.0
11.431,-0.467,-0.949,0.0
10.679,-0.439,-0.948,0.0
10.076,-0.416,-0.952,0.0
9.469,-0.393,-0.95,0.0
8.902,-0.372,-0.944,0.0
8.429,-0.354,-0.943,0.0
11.345,-0.478,-0.95,0.0
10.664,-0.452,-0.954,0.0
9.963,-0.424,-0.949,0.0
9.404,-0.403,-0.95,0.0
8.827,-0.38,-0.943,0.0
8.369,-0.363,-0.942,0.0
11.25,-0.489,-0.95,0.0
10.558,-0.462,-0.952,0.0
9.934,-0.437,-0.952,0.0
9.327,-0.412,-0.949,0.0
8.775,-0.39,-0.943,0.0
8.306,-0.371,-0.94,0.0
11.194,-0.502,-0.952,0.0
10.493,-0.473,-0.953,0.0
9.846,-0.446,-0.95,0.0
9.269,-0.422,-0.949,0.0
8.734,-0.4,-0.944,0.0
8.269,-0.381,-0.941,0.0
11.099,-0.512,-0.951,0.0
10.423,-0.483,-0.953,0.0
9.776,-0.456,-0.949,0.0
9.212,-0.432,-0.948,0.0
8.695,-0.41,-0.945,0.0
8.232,-0.39,-0.942,0.0
11.052,-0.525,-0.953,0.0
10.378,-0.495,-0.954,0.0
9.744,-0.467,-0.951,0.0
9.142,-0.441,-0.946,0.0
8.665,-0.42,-0.946,0.0
8.167,-0.398,-0.939,0.0
11.005,-0.537,-0.955,0.0
10.309,-0.506,-0.953,0.0
9.68,-0.477,-0.95,0.0
9.109,-0.451,-0.947,0.0
8.605,-0.429,-0.944,0.0
8.134,-0.407,-0.939,0.0
10.89,-0.546,-0.95,0.0
10.264,-0.517,-0.954,0.0
9.672,-0.49,-0.954,0.0
9.069,-0.462,-0.947,0.0
8.56,-0.438,-0.943,0.0
8.131,-0.418,-0.942,0.0
10.821,-0.557,-0.949,0.0
10.22,-0.529,-0.954,0.0
9.612,-0.5,-0.952,0.0
9.037,-0.472,-0.947,0.0
8.535,-0.448,-0.943,0.0
8.1,-0.427,-0.942,0.0
10.852,-0.573,-0.955,0.0
10.157,-0.539,-0.952,0.0
9.556,-0.51,-0.95,0.0
9.025,-0.484,-0.949,0.0
8.514,-0.458,-0.944,0.0
8.062,-0.436,-0.94,0.0
10.8,-0.585,-0.954,0.0
10.15,-0.552,-0.954,0.0
9.539,-0.521,-0.951,0.0
9.015,-0.495,-0.951,0.0
8.496,-0.469,-0.945,0.0
8.034,-0.445,-0.939,0.0
10.702,-0.594,-0.949,0.0
10.049,-0.56,-0.948,0.0
9.525,-0.533,-0.952,0.0
8.942,-0.503,-0.946,0.0
8.469,-0.478,-0.944,0.0
8.043,-0.456,-0.942,0.0
10.679,-0.606,-0.949,0.0
10.069,-0.574,-0.952,0.0
9.493,-0.544,-0.951,0.0
8.948,-0.515,-0.948,0.0
8.443,-0.488,-0.943,0.0
8.036,-0.466,-0.943,0.0
10.66,-0.619,-0.95,0.0
10.075,-0.588,-0.954,0.0
9.512,-0.557,-0.955,0.0
8.932,-0.525,-0.948,0.0
8.439,-0.499,-0.944,0.0
8.017,-0.476,-0.942,0.0
10.666,-0.633,-0.952,0.0
10.036,-0.598,-0.952,0.0
9.463,-0.567,-0.951,0.0
8.886,-0.534,-0.945,0.0
8.429,-0.509,-0.944,0.0
8.044,-0.488,-0.946,0.0
10.624,-0.645,-0.949,0.0
10.018,-0.61,-0.952,0.0
9.516,-0.582,-0.958,0.0
8.89,-0.546,-0.946,0.0
8.437,-0.52,-0.945,0.0
7.999,-0.495,-0.942,0.0
10.605,-0.657,-0.948,0.0
9.995,-0.622,-0.95,0.0
9.483,-0.592,-0.955,0.0
8.881,-0.557,-0.945,0.0
8.421,-0.53,-0.944,0.0
8.01,-0.506,-0.943,0.0
10.599,-0.67,-0.948,0.0
10.033,-0.637,-0.954,0.0
9.482,-0.604,-0.955,0.0
8.9,-0.569,-0.947,0.0
8.425,-0.541,-0.944,0.0
7.988,-0.515,-0.94,0.0
10.639,-0.686,-0.952,0.0
10.029,-0.649,-0.953,0.0
9.479,-0.616,-0.954,0.0
8.902,-0.581,-0.947,0.0
8.449,-0.553,-0.947,0.0
8.001,-0.526,-0.942,0.0
10.665,-0.701,-0.953,0.0
10.029,-0.662,-0.953,0.0
9.482,-0.628,-0.954,0.0
8.923,-0.593,-0.949,0.0
8.418,-0.562,-0.942,0.0
8.019,-0.537,-0.943,0.0
10.678,-0.715,-0.953,0.0
10.044,-0.675,-0.953,0.0
9.481,-0.639,-0.953,0.0
8.943,-0.605,-0.95,0.0
8.46,-0.575,-0.946,0.0
8.038,-0.548,-0.944,0.0
10.68,-0.728,-0.952,0.0
10.086,-0.69,-0.955,0.0
9.507,-0.653,-0.954,0.0
8.952,-0.617,-0.949,0.0
8.451,-0.584,-0.943,0.0
8.048,-0.558,-0.944,0.0
10.719,-0.743,-0.953,0.0
10.096,-0.703,-0.954,0.0
9.51,-0.664,-0.952,0.0
8.982,-0.629,-0.95,0.0
8.484,-0.597,-0.945,0.0
8.049,-0.568,-0.942,0.0
10.726,-0.756,-0.952,0.0
10.158,-0.719,-0.958,0.0
9.616,-0.683,-0.96,0.0
8.961,-0.638,-0.946,0.0
8.536,-0.61,-0.949,0.0
8.095,-0.581,-0.945,0.0
10.808,-0.775,-0.956,0.0
10.132,-0.729,-0.952,0.0
9.591,-0.692,-0.955,0.0
9.037,-0.654,-0.951,0.0
8.555,-0.621,-0.948,0.0
8.099,-0.59,-0.943,0.0
10.845,-0.79,-0.956,0.0
10.189,-0.744,-0.954,0.0
9.626,-0.706,-0.955,0.0
9.068,-0.667,-0.951,0.0
8.594,-0.634,-0.95,0.0
8.128,-0.602,-0.944,0.0
10.916,-0.807,-0.958,0.0
10.24,-0.759,-0.956,0.0
9.694,-0.721,-0.958,0.0
9.121,-0.681,-0.954,0.0
8.628,-0.646,-0.95,0.0
8.168,-0.614,-0.945,0.0
10.981,-0.824,-0.959,0.0
10.304,-0.775,-0.957,0.0
9.722,-0.734,-0.957,0.0
9.156,-0.693,-0.953,0.0
8.694,-0.66,-0.954,0.0
8.203,-0.625,-0.946,0.0
11.029,-0.839,-0.959,0.0
10.327,-0.788,-0.955,0.0
9.78,-0.749,-0.958,0.0
9.227,-0.709,-0.956,0.0
8.692,-0.67,-0.949,0.0
8.247,-0.637,-0.947,0.0
11.104,-0.857,-0.96,0.0
10.372,-0.803,-0.954,0.0
9.828,-0.763,-0.958,0.0
9.252,-0.72,-0.954,0.0
8.755,-0.683,-0.952,0.0
8.282,-0.648,-0.946,0.0
11.14,-0.871,-0.958,0.0
10.486,-0.822,-0.959,0.0
9.865,-0.776,-0.957,0.0
9.308,-0.734,-0.955,0.0
8.794,-0.695,-0.951,0.0
8.352,-0.662,-0.95,0.0
11.199,-0.887,-0.956,0.0
10.563,-0.839,-0.96,0.0
9.899,-0.788,-0.954,0.0
9.371,-0.748,-0.956,0.0
8.842,-0.708,-0.951,0.0
8.35,-0.67,-0.944,0.0
11.311,-0.907,-0.959,0.0
10.59,-0.851,-0.956,0.0
10.048,-0.81,-0.963,0.0
9.433,-0.762,-0.957,0.0
8.906,-0.722,-0.952,0.0
8.439,-0.686,-0.949,0.0
11.415,-0.926,-0.961,0.0
10.648,-0.866,-0.955,0.0
10.082,-0.822,-0.959,0.0
9.479,-0.775,-0.955,0.0
8.974,-0.736,-0.954,0.0
8.507,-0.699,-0.951,0.0
11.546,-0.947,-0.964,0.0
10.753,-0.884,-0.957,0.0
10.125,-0.835,-0.957,0.0
9.591,-0.793,-0.96,0.0
9.046,-0.749,-0.955,0.0
8.556,-0.711,-0.951,0.0
11.629,-0.964,-0.963,0.0
10.839,-0.901,-0.957,0.0
10.231,-0.852,-0.959,0.0
9.662,-0.807,-0.96,0.0
9.122,-0.764,-0.956,0.0
8.64,-0.725,-0.953,0.0
11.716,-0.982,-0.961,0.0
10.986,-0.922,-0.961,0.0
10.318,-0.868,-0.96,0.0
9.743,-0.822,-0.96,0.0
9.193,-0.777,-0.957,0.0
8.692,-0.737,-0.952,0.0
11.83,-1.001,-0.962,0.0
11.048,-0.937,-0.958,0.0
10.384,-0.882,-0.957,0.0
9.799,-0.835,-0.958,0.0
9.282,-0.792,-0.958,0.0
8.761,-0.75,-0.953,0.0
11.976,-1.023,-0.964,0.0
11.157,-0.955,-0.959,0.0
10.519,-0.902,-0.961,0.0
9.9,-0.851,-0.96,0.0
9.377,-0.808,-0.96,0.0
8.848,-0.764,-0.955,0.0
12.152,-1.047,-0.968,0.0
11.274,-0.974,-0.959,0.0
10.565,-0.914,-0.956,0.0
9.981,-0.865,-0.959,0.0
9.43,-0.819,-0.958,0.0
8.935,-0.778,-0.956,0.0
12.312,-1.07,-0.97,0.0
11.407,-0.993,-0.96,0.0
10.764,-0.939,-0.965,0.0
10.123,-0.885,-0.963,0.0
9.542,-0.836,-0.96,0.0
9.001,-0.79,-0.955,0.0
12.458,-1.091,-0.97,0.0
11.608,-1.019,-0.967,0.0
10.835,-0.953,-0.961,0.0
10.174,-0.896,-0.959,0.0
9.629,-0.85,-0.96,0.0
9.097,-0.805,-0.957,0.0
12.599,-1.112,-0.969,0.0
11.757,-1.04,-0.968,0.0
11.025,-0.977,-0.967,0.0
10.288,-0.913,-0.96,0.0
9.734,-0.865,-0.961,0.0
9.219,-0.821,-0.96,0.0
12.766,-1.135,-0.97,0.0
11.883,-1.058,-0.967,0.0
11.058,-0.986,-0.959,0.0
10.391,-0.929,-0.959,0.0
9.86,-0.883,-0.964,0.0
9.305,-0.834,-0.96,0.0
12.95,-1.159,-0.97,0.0
12.047,-1.08,-0.968,0.0
11.206,-1.006,-0.961,0.0
10.522,-0.946,-0.96,0.0
9.937,-0.895,-0.961,0.0
9.404,-0.849,-0.96,0.0
13.127,-1.182,-0.97,0.0
12.163,-1.097,-0.964,0.0
11.394,-1.029,-0.965,0.0
0.0,0.0,0.0,0.0
10.04,-0.91,-0.96,0.0
9.507,-0.863,-0.961,0.0
13.405,-1.214,-0.977,0.0
12.399,-1.125,-0.97,0.0
11.611,-1.055,-0.971,0.0
10.808,-0.983,-0.963,0.0
10.207,-0.93,-0.965,0.0
9.63,-0.879,-0.963,0.0
13.764,-1.253,-0.988,0.0
12.604,-1.149,-0.972,0.0
11.756,-1.073,-0.97,0.0
10.983,-1.004,-0.967,0.0
10.303,-0.943,-0.963,0.0
9.749,-0.894,-0.964,0.0
13.862,-1.268,-0.98,0.0
12.748,-1.168,-0.969,0.0
11.895,-1.091,-0.969,0.0
11.118,-1.021,-0.966,0.0
10.418,-0.958,-0.962,0.0
9.842,-0.906,-0.962,0.0
13.872,-1.275,-0.965,1.0
12.991,-1.195,-0.973,0.0
12.077,-1.112,-0.97,0.0
11.191,-1.032,-0.96,0.0
10.532,-0.973,-0.96,0.0
9.95,-0.92,-0.961,0.0
13.863,-1.279,-0.948,1.0
13.185,-1.218,-0.973,0.0
12.229,-1.131,-0.967,0.0
11.402,-1.055,-0.965,0.0
10.723,-0.994,-0.965,0.0
10.12,-0.939,-0.965,0.0
13.848,-1.282,-0.931,1.0
13.468,-1.248,-0.977,0.0
12.437,-1.154,-0.969,0.0
11.622,-1.079,-0.969,0.0
10.892,-1.013,-0.967,0.0
10.243,-0.953,-0.964,0.0
13.853,-1.287,-0.914,1.0
13.8,-1.283,-0.985,0.0
12.707,-1.182,-0.975,0.0
11.828,-1.101,-0.972,0.0
11.107,-1.035,-0.972,0.0
10.351,-0.966,-0.962,0.0
13.833,-1.288,-0.896,1.0
13.823,-1.288,-0.969,1.0
12.904,-1.204,-0.974,0.0
11.968,-1.117,-0.969,0.0
11.201,-1.046,-0.967,0.0
10.47,-0.979,-0.96,0.0
13.838,-1.291,-0.879,1.0
13.838,-1.292,-0.953,1.0
13.172,-1.231,-0.978,0.0
12.155,-1.137,-0.968,0.0
11.405,-1.067,-0.97,0.0
10.707,-1.003,-0.968,0.0
13.84,-1.294,-0.862,1.0
13.824,-1.293,-0.935,1.0
13.421,-1.256,-0.979,0.0
12.433,-1.164,-0.975,0.0
11.636,-1.09,-0.974,0.0
10.854,-1.018,-0.967,0.0
13.922,-1.303,-0.849,0.0
13.825,-1.295,-0.917,1.0
13.778,-1.291,-0.987,0.0
12.62,-1.183,-0.973,0.0
11.821,-1.109,-0.975,0.0
11.039,-1.036,-0.969,0.0
14.19,-1.329,-0.847,0.0
13.82,-1.295,-0.899,1.0
13.818,-1.295,-0.972,1.0
12.835,-1.204,-0.973,0.0
11.954,-1.122,-0.97,0.0
11.209,-1.052,-0.969,0.0
14.421,-1.351,-0.842,0.0
13.828,-1.296,-0.881,1.0
13.817,-1.295,-0.954,1.0
13.145,-1.233,-0.979,0.0
12.176,-1.143,-0.972,0.0
11.38,-1.068,-0.969,0.0
14.615,-1.369,-0.834,0.0
13.846,-1.297,-0.864,1.0
13.831,-1.296,-0.936,1.0
13.419,-1.258,-0.981,0.0
12.378,-1.161,-0.971,0.0
11.651,-1.093,-0.976,0.0
14.961,-1.401,-0.834,0.0
13.965,-1.308,-0.852,0.0
13.84,-1.296,-0.918,1.0
13.759,-1.289,-0.988,0.0
12.69,-1.189,-0.979,0.0
11.825,-1.108,-0.975,0.0
15.207,-1.422,-0.827,1.0
14.203,-1.329,-0.848,0.0
13.836,-1.294,-0.899,1.0
13.816,-1.292,-0.973,1.0
12.941,-1.211,-0.98,0.0
12.022,-1.125,-0.975,0.0
15.419,-1.44,-0.818,1.0
14.421,-1.347,-0.841,0.0
13.824,-1.291,-0.88,1.0
13.819,-1.29,-0.954,1.0
13.207,-1.233,-0.982,0.0
12.229,-1.142,-0.975,0.0
15.64,-1.458,-0.808,1.0
14.634,-1.364,-0.834,0.0
13.852,-1.291,-0.862,1.0
13.831,-1.289,-0.936,1.0
13.403,-1.249,-0.978,0.0
12.487,-1.163,-0.978,0.0
15.986,-1.486,-0.804,1.0
15.066,-1.401,-0.837,0.0
13.994,-1.301,-0.852,0.0
13.826,-1.285,-0.916,1.0
13.805,-1.282,-0.988,0.0
12.752,-1.184,-0.981,0.0
16.28,-1.509,-0.796,1.0
15.249,-1.413,-0.826,1.0
14.294,-1.324,-0.85,0.0
13.844,-1.282,-0.898,1.0
13.84,-1.281,-0.971,1.0
12.954,-1.199,-0.978,0.0
16.575,-1.531,-0.787,0.0
15.483,-1.43,-0.817,1.0
14.488,-1.337,-0.841,0.0
13.857,-1.279,-0.879,1.0
13.855,-1.278,-0.953,1.0
13.215,-1.218,-0.979,0.0
17.028,-1.567,-0.785,0.0
15.768,-1.45,-0.81,1.0
14.727,-1.354,-0.834,0.0
13.891,-1.276,-0.862,1.0
13.868,-1.274,-0.934,1.0
13.675,-1.255,-0.994,0.0
17.545,-1.608,-0.784,0.0
16.09,-1.473,-0.804,1.0
15.101,-1.382,-0.834,0.0
14.092,-1.289,-0.854,0.0
13.876,-1.268,-0.915,2.0
13.865,-1.266,-0.987,0.0
18.102,-1.65,-0.783,1.0
16.394,-1.493,-0.796,1.0
15.396,-1.401,-0.828,1.0
14.391,-1.309,-0.852,0.0
13.887,-1.262,-0.895,1.0
13.885,-1.261,-0.969,1.0
18.615,-1.688,-0.779,1.0
16.818,-1.524,-0.792,0.0
15.578,-1.41,-0.816,1.0
14.594,-1.32,-0.843,1.0
13.908,-1.257,-0.877,1.0
13.906,-1.256,-0.951,1.0
19.085,-1.72,-0.771,1.0
17.198,-1.549,-0.785,0.0
15.887,-1.429,-0.809,1.0
14.808,-1.331,-0.834,0.0
13.979,-1.255,-0.861,0.0
13.92,-1.249,-0.931,1.0
19.677,-1.762,-0.767,0.0
17.749,-1.588,-0.785,1.0
16.24,-1.451,-0.804,2.0
15.207,-1.357,-0.835,1.0
14.243,-1.27,-0.857,0.0
13.939,-1.242,-0.913,1.0
20.253,-1.801,-0.761,1.0
18.285,-1.624,-0.783,1.0
16.464,-1.46,-0.792,1.0
15.411,-1.366,-0.824,1.0
14.481,-1.282,-0.851,0.0
13.956,-1.234,-0.894,1.0
20.91,-1.846,-0.756,1.0
18.77,-1.654,-0.777,1.0
17.058,-1.502,-0.796,0.0
15.66,-1.377,-0.815,0.0
14.732,-1.294,-0.845,1.0
13.974,-1.226,-0.875,1.0
21.635,-1.894,-0.751,1.0
19.392,-1.695,-0.775,1.0
17.442,-1.523,-0.79,0.0
16.022,-1.397,-0.811,1.0
15.001,-1.306,-0.839,1.0
14.068,-1.223,-0.861,0.0
22.392,-1.943,-0.746,3.0
19.926,-1.727,-0.769,1.0
17.986,-1.556,-0.788,0.0
16.297,-1.408,-0.802,2.0
15.309,-1.321,-0.834,1.0
14.34,-1.235,-0.857,0.0
23.486,-2.02,-0.749,5.0
20.532,-1.763,-0.763,0.0
18.516,-1.587,-0.785,1.0
16.678,-1.427,-0.797,1.0
15.54,-1.327,-0.825,1.0
14.572,-1.243,-0.85,1.0
23.808,-2.027,-0.726,20.0
21.221,-1.804,-0.759,1.0
19.053,-1.617,-0.781,0.0
17.201,-1.457,-0.798,1.0
15.815,-1.337,-0.817,1.0
14.82,-1.251,-0.844,0.0
24.122,-2.033,-0.701,19.0
21.941,-1.845,-0.754,0.0
19.629,-1.648,-0.778,0.0
17.568,-1.472,-0.79,0.0
16.126,-1.348,-0.811,1.0
15.166,-1.266,-0.842,1.0
24.827,-2.069,-0.688,16.0
22.913,-1.906,-0.755,2.0
20.2,-1.677,-0.772,1.0
18.206,-1.508,-0.794,1.0
16.434,-1.358,-0.803,1.0
15.411,-1.271,-0.835,1.0
25.447,-2.096,-0.67,4.0
23.643,-1.943,-0.747,6.0
20.666,-1.695,-0.762,1.0
18.603,-1.523,-0.785,1.0
16.867,-1.377,-0.801,0.0
15.669,-1.277,-0.827,1.0
27.828,-2.264,-0.694,3.0
23.876,-1.938,-0.721,15.0
21.4,-1.733,-0.759,0.0
19.21,-1.552,-0.784,0.0
17.243,-1.39,-0.795,0.0
15.905,-1.279,-0.818,1.0
29.179,-2.343,-0.688,7.0
24.279,-1.945,-0.7,17.0
22.109,-1.767,-0.754,1.0
19.749,-1.574,-0.78,1.0
17.784,-1.414,-0.796,0.0
16.278,-1.291,-0.815,1.0
30.335,-2.403,-0.674,8.0
24.927,-1.97,-0.685,11.0
23.151,-1.825,-0.758,5.0
20.294,-1.595,-0.774,1.0
18.308,-1.435,-0.795,1.0
16.554,-1.295,-0.806,1.0
30.923,-2.415,-0.645,2.0
25.274,-1.968,-0.661,1.0
23.787,-1.847,-0.747,10.0
20.933,-1.621,-0.77,1.0
18.666,-1.442,-0.785,1.0
16.997,-1.309,-0.805,1.0
32.56,-2.504,-0.636,2.0
28.062,-2.152,-0.696,1.0
23.923,-1.829,-0.72,15.0
21.523,-1.641,-0.763,1.0
19.332,-1.47,-0.788,0.0
17.303,-1.312,-0.797,2.0
34.025,-2.575,-0.62,2.0
29.672,-2.239,-0.697,2.0
24.272,-1.826,-0.698,12.0
22.191,-1.664,-0.758,1.0
19.943,-1.491,-0.786,2.0
17.576,-1.31,-0.786,2.0
35.57,-2.648,-0.602,2.0
30.454,-2.26,-0.676,8.0
24.714,-1.828,-0.679,6.0
23.298,-1.718,-0.766,5.0
20.358,-1.496,-0.777,1.0
18.276,-1.339,-0.794,1.0
36.657,-2.681,-0.573,1.0
31.202,-2.275,-0.653,3.0
24.879,-1.808,-0.652,2.0
23.754,-1.72,-0.75,12.0
20.941,-1.511,-0.772,0.0
18.856,-1.356,-0.795,1.0
0.0,0.0,0.0,0.0
32.689,-2.339,-0.642,2.0
28.16,-2.008,-0.702,2.0
23.901,-1.698,-0.725,13.0
21.697,-1.537,-0.773,0.0
19.356,-1.366,-0.792,0.0
40.467,-2.851,-0.531,1.0
34.147,-2.397,-0.629,2.0
29.762,-2.082,-0.705,8.0
24.167,-1.684,-0.703,12.0
22.341,-1.551,-0.768,1.0
19.926,-1.379,-0.791,1.0
45.037,-3.11,-0.537,3.0
35.32,-2.43,-0.608,1.0
30.579,-2.096,-0.688,3.0
24.411,-1.667,-0.681,17.0
23.282,-1.584,-0.772,5.0
20.338,-1.378,-0.783,1.0
49.471,-3.346,-0.53,2.0
24.57,-1.655,-0.393,12.0
24.482,-1.642,-0.521,23.0
24.415,-1.631,-0.651,21.0
23.735,-1.579,-0.759,10.0
20.805,-1.379,-0.776,0.0
24.529,-1.622,-0.233,21.0
24.533,-1.616,-0.363,40.0
24.509,-1.608,-0.493,36.0
24.403,-1.594,-0.622,29.0
23.874,-1.553,-0.735,13.0
21.48,-1.391,-0.776,0.0
24.521,-1.585,-0.204,44.0
24.502,-1.577,-0.334,47.0
24.496,-1.569,-0.464,46.0
24.413,-1.557,-0.594,27.0
24.071,-1.529,-0.714,14.0
22.108,-1.398,-0.773,1.0
24.522,-1.547,-0.176,53.0
24.504,-1.539,-0.306,62.0
24.496,-1.531,-0.436,47.0
24.444,-1.521,-0.567,38.0
24.304,-1.505,-0.693,22.0
23.003,-1.418,-0.778,1.0
24.509,-1.508,-0.149,57.0
24.489,-1.499,-0.279,54.0
24.493,-1.492,-0.409,68.0
24.472,-1.484,-0.541,43.0
24.39,-1.472,-0.669,33.0
23.617,-1.418,-0.773,5.0
24.527,-1.469,-0.122,74.0
24.509,-1.461,-0.252,72.0
24.499,-1.453,-0.382,56.0
24.479,-1.444,-0.514,42.0
24.399,-1.432,-0.642,27.0
23.805,-1.39,-0.753,13.0
24.54,-1.43,-0.096,71.0
24.517,-1.421,-0.226,56.0
24.522,-1.413,-0.356,62.0
24.509,-1.405,-0.489,49.0
24.466,-1.395,-0.618,30.0
23.925,-1.357,-0.732,15.0
24.584,-1.391,-0.07,38.0
24.559,-1.382,-0.2,41.0
24.554,-1.374,-0.331,41.0
24.539,-1.366,-0.464,38.0
24.509,-1.356,-0.594,33.0
24.133,-1.328,-0.713,15.0
24.625,-1.351,-0.045,0.0
24.584,-1.341,-0.175,2.0
24.564,-1.332,-0.306,12.0
31.481,-1.698,-0.563,2.0
24.521,-1.315,-0.569,23.0
24.339,-1.297,-0.695,17.0
0.0,0.0,0.0,0.0
65.599,-3.466,-0.404,5.0
47.224,-2.48,-0.542,3.0
37.944,-1.98,-0.642,6.0
30.569,-1.586,-0.68,29.0
24.495,-1.263,-0.676,20.0
66.498,-3.418,0.008,1.0
65.645,-3.352,-0.341,5.0
47.408,-2.406,-0.499,1.0
38.044,-1.918,-0.607,8.0
30.654,-1.536,-0.653,26.0
28.154,-1.401,-0.75,1.0
0.0,0.0,0.0,0.0
69.055,-3.402,-0.294,0.0
31.246,-1.529,-0.3,23.0
31.22,-1.517,-0.469,34.0
30.782,-1.486,-0.627,29.0
28.32,-1.358,-0.729,2.0
79.882,-3.817,0.158,2.0
31.252,-1.483,-0.104,28.0
31.201,-1.47,-0.271,46.0
31.179,-1.459,-0.441,47.0
30.92,-1.437,-0.603,31.0
0.0,0.0,0.0,0.0
31.232,-1.435,0.089,47.0
31.225,-1.424,-0.077,58.0
31.193,-1.412,-0.244,54.0
31.193,-1.402,-0.414,48.0
31.068,-1.386,-0.579,24.0
28.48,-1.26,-0.683,52.0
28.476,-1.255,0.105,51.0
28.459,-1.245,-0.046,61.0
28.455,-1.235,-0.199,58.0
28.448,-1.225,-0.354,64.0
28.45,-1.216,-0.507,104.0
28.454,-1.206,-0.659,119.0
28.447,-1.2,0.128,137.0
28.442,-1.19,-0.023,116.0
28.433,-1.18,-0.176,107.0
28.452,-1.171,-0.331,144.0
28.456,-1.162,-0.484,109.0
28.446,-1.152,-0.636,65.0
28.455,-1.146,0.151,112.0
28.443,-1.136,-0.001,69.0
28.461,-1.127,-0.154,61.0
28.479,-1.118,-0.31,59.0
31.262,-1.216,-0.508,21.0
30.574,-1.179,-0.661,34.0
31.253,-1.198,0.189,45.0
31.281,-1.188,0.022,62.0
31.328,-1.179,-0.146,64.0
31.37,-1.17,-0.318,20.0
31.361,-1.159,-0.486,18.0
30.684,-1.124,-0.641,33.0
80.304,-2.924,0.545,21.0
80.502,-2.902,0.114,36.0
80.419,-2.872,-0.318,7.0
53.864,-1.905,-0.508,4.0
38.343,-1.342,-0.568,13.0
30.903,-1.071,-0.624,30.0
80.44,-2.771,0.602,27.0
80.464,-2.743,0.169,21.0
38.766,-1.308,-0.127,5.0
38.695,-1.291,-0.339,38.0
38.472,-1.271,-0.544,14.0
31.093,-1.016,-0.607,27.0
38.691,-1.256,0.315,58.0
38.683,-1.241,0.106,61.0
38.679,-1.227,-0.102,56.0
38.637,-1.212,-0.313,58.0
38.537,-1.196,-0.521,28.0
31.273,-0.959,-0.591,20.0
38.637,-1.176,0.338,71.0
38.638,-1.162,0.13,67.0
38.664,-1.149,-0.078,88.0
38.67,-1.136,-0.29,80.0
38.603,-1.12,-0.499,35.0
37.865,-1.085,-0.693,3.0
38.648,-1.098,0.361,86.0
38.646,-1.084,0.152,68.0
38.651,-1.07,-0.055,66.0
38.664,-1.057,-0.268,61.0
38.649,-1.043,-0.477,27.0
37.858,-1.007,-0.672,13.0
38.688,-1.02,0.383,52.0
38.686,-1.006,0.174,32.0
38.728,-0.993,-0.034,30.0
38.779,-0.981,-0.248,31.0
38.756,-0.966,-0.458,27.0
37.971,-0.933,-0.654,18.0
40.42,-0.982,0.421,33.0
40.408,-0.968,0.202,37.0
40.411,-0.953,-0.016,38.0
40.402,-0.939,-0.239,41.0
40.416,-0.925,-0.458,39.0
38.054,-0.857,-0.637,23.0
40.427,-0.899,0.441,6.0
38.388,-0.84,0.21,19.0
38.364,-0.825,0.002,54.0
38.356,-0.811,-0.209,40.0
38.371,-0.798,-0.417,11.0
38.145,-0.78,-0.621,20.0
52.951,-1.067,0.601,54.0
52.929,-1.048,0.314,63.0
52.967,-1.029,0.026,50.0
52.935,-1.01,-0.265,58.0
45.478,-0.852,-0.475,18.0
38.362,-0.704,-0.609,13.0
0.0,0.0,0.0,0.0
20.148,-0.356,0.127,2.0
20.134,-0.349,0.018,45.0
20.105,-0.341,-0.093,0.0
52.783,-0.877,-0.531,21.0
38.594,-0.627,-0.598,13.0
20.157,-0.321,0.244,8.0
20.121,-0.313,0.135,14.0
20.129,-0.306,0.025,19.0
57.035,-0.847,-0.243,6.0
52.929,-0.767,-0.514,16.0
39.205,-0.554,-0.594,5.0
20.141,-0.278,0.251,14.0
20.15,-0.271,0.142,10.0
59.55,-0.78,0.095,63.0
56.277,-0.717,-0.222,1.0
52.973,-0.655,-0.497,7.0
44.675,-0.537,-0.663,13.0
20.158,-0.236,0.257,13.0
56.19,-0.637,0.412,2.0
56.126,-0.617,0.106,1.0
56.221,-0.597,-0.206,12.0
58.717,-0.602,-0.535,2.0
44.844,-0.444,-0.653,13.0
53.373,-0.512,0.696,7.0
53.38,-0.493,0.405,7.0
53.363,-0.473,0.114,4.0
20.175,-0.171,-0.069,1.0
20.163,-0.164,-0.179,10.0
20.161,-0.157,-0.289,29.0
20.198,-0.15,0.268,17.0
20.16,-0.143,0.157,18.0
20.156,-0.136,0.047,28.0
20.147,-0.128,-0.064,25.0
20.15,-0.121,-0.174,28.0
20.133,-0.113,-0.284,39.0
20.134,-0.107,0.271,27.0
20.121,-0.099,0.161,26.0
20.135,-0.092,0.051,36.0
20.133,-0.084,-0.061,28.0
20.147,-0.077,-0.171,38.0
20.148,-0.07,-0.281,29.0
20.121,-0.063,0.274,32.0
20.124,-0.056,0.164,36.0
20.14,-0.048,0.053,41.0
20.127,-0.041,-0.058,30.0
20.157,-0.034,-0.169,25.0
20.165,-0.027,-0.279,13.0
20.119,-0.02,0.276,27.0
20.119,-0.012,0.166,28.0
20.163,-0.005,0.056,28.0
20.245,0.001,-0.056,152.0
20.265,0.008,-0.168,151.0
20.261,0.016,-0.279,151.0
20.138,0.023,0.278,29.0
20.141,0.03,0.167,27.0
20.175,0.037,0.057,16.0
20.198,0.045,-0.055,18.0
20.224,0.052,-0.166,25.0
52.615,0.155,-0.722,0.0
20.148,0.067,0.279,27.0
20.144,0.074,0.168,29.0
20.183,0.081,0.058,35.0
20.182,0.088,-0.054,35.0
20.179,0.095,-0.165,33.0
20.192,0.102,-0.277,28.0
20.165,0.11,0.279,29.0
20.16,0.117,0.168,26.0
20.202,0.124,0.057,28.0
20.185,0.131,-0.055,25.0
20.185,0.138,-0.166,28.0
20.172,0.146,-0.277,36.0
20.193,0.153,0.279,23.0
20.265,0.161,0.168,26.0
20.302,0.168,0.057,28.0
20.257,0.175,-0.056,13.0
20.189,0.182,-0.167,16.0
20.171,0.189,-0.278,28.0
20.288,0.198,0.279,28.0
20.299,0.205,0.167,27.0
20.316,0.212,0.055,17.0
0.0,0.0,0.0,0.0
20.199,0.225,-0.169,0.0
20.202,0.232,-0.281,21.0
20.301,0.241,0.277,22.0
20.305,0.248,0.165,0.0
99.57,1.254,0.26,6.0
0.0,0.0,0.0,0.0
0.0,0.0,0.0,0.0
0.0,0.0,0.0,0.0
195.305,2.745,2.638,8.0
0.0,0.0,0.0,0.0
99.674,1.471,0.244,5.0
101.629,1.535,-0.322,1.0
0.0,0.0,0.0,0.0
0.0,0.0,0.0,0.0
0.0,0.0,0.0,0.0
99.7,1.649,0.776,1.0
99.808,1.685,0.225,6.0
0.0,0.0,0.0,0.0
0.0,0.0,0.0,0.0
0.0,0.0,0.0,0.0
103.195,1.892,1.352,18.0
102.997,1.922,0.779,2.0
99.847,1.897,0.202,3.0
0.0,0.0,0.0,0.0
0.0,0.0,0.0,0.0
0.0,0.0,0.0,0.0
103.232,2.111,1.326,8.0
102.961,2.141,0.751,2.0
100.035,2.115,0.175,9.0
0.0,0.0,0.0,0.0
0.0,0.0,0.0,0.0
0.0,0.0,0.0,0.0
195.039,4.4,2.447,6.0
102.953,2.357,0.72,4.0
100.211,2.328,0.144,4.0
0.0,0.0,0.0,0.0
0.0,0.0,0.0,0.0
0.0,0.0,0.0,0.0
0.0,0.0,0.0,0.0
103.089,2.576,0.686,6.0
100.307,2.54,0.11,2.0
0.0,0.0,0.0,0.0
0.0,0.0,0.0,0.0
0.0,0.0,0.0,0.0
195.099,5.223,2.311,23.0
103.239,2.798,0.648,2.0
103.294,2.833,0.074,2.0
0.0,0.0,0.0,0.0
0.0,0.0,0.0,0.0
0.0,0.0,0.0,0.0
195.762,5.644,2.241,8.0
196.009,5.716,1.151,36.0
0.0,0.0,0.0,0.0
0.0,0.0,0.0,0.0
0.0,0.0,0.0,0.0
0.0,0.0,0.0,0.0
0.0,0.0,0.0,0.0
196.147,6.125,1.064,25.0
0.0,0.0,0.0,0.0
0.0,0.0,0.0,0.0
0.0,0.0,0.0,0.0
0.0,0.0,0.0,0.0
0.0,0.0,0.0,0.0
196.319,6.535,0.97,32.0
0.0,0.0,0.0,0.0
0.0,0.0,0.0,0.0
0.0,0.0,0.0,0.0
0.0,0.0,0.0,0.0
202.809,7.096,2.031,17.0
196.447,6.936,0.87,31.0
0.0,0.0,0.0,0.0
68.999,2.479,-0.472,5.0
0.0,0.0,0.0,0.0
0.0,0.0,0.0,0.0
203.296,7.524,1.925,6.0
195.106,7.281,0.757,19.0
0.0,0.0,0.0,0.0
68.978,2.616,-0.511,4.0
0.0,0.0,0.0,0.0
0.0,0.0,0.0,0.0
199.43,7.781,1.773,12.0
196.648,7.732,0.647,22.0
0.0,0.0,0.0,0.0
68.871,2.75,-0.551,0.0
0.0,0.0,0.0,0.0
0.0,0.0,0.0,0.0
196.616,8.058,1.629,21.0
196.602,8.115,0.526,9.0
0.0,0.0,0.0,0.0
68.985,2.889,-0.595,1.0
0.0,0.0,0.0,0.0
38.649,1.642,-0.767,0.0
195.515,8.397,1.492,24.0
0.0,0.0,0.0,0.0
0.0,0.0,0.0,0.0
0.0,0.0,0.0,0.0
0.0,0.0,0.0,0.0
37.765,1.678,-0.775,0.0
196.801,8.833,1.369,35.0
0.0,0.0,0.0,0.0
0.0,0.0,0.0,0.0
0.0,0.0,0.0,0.0
0.0,0.0,0.0,0.0
37.423,1.734,-0.794,0.0
197.143,9.226,1.231,31.0
0.0,0.0,0.0,0.0
0.0,0.0,0.0,0.0
0.0,0.0,0.0,0.0
0.0,0.0,0.0,0.0
36.749,1.773,-0.807,0.0
197.277,9.605,1.085,28.0
0.0,0.0,0.0,0.0
0.0,0.0,0.0,0.0
0.0,0.0,0.0,0.0
0.0,0.0,0.0,0.0
35.907,1.799,-0.816,0.0
197.178,9.969,0.932,28.0
0.0,0.0,0.0,0.0
68.99,3.526,-0.449,3.0
0.0,0.0,0.0,0.0
0.0,0.0,0.0,0.0
34.293,1.781,-0.806,0.0
197.368,10.344,0.775,15.0
0.0,0.0,0.0,0.0
0.0,0.0,0.0,0.0
0.0,0.0,0.0,0.0
40.327,2.158,-0.755,0.0
33.615,1.808,-0.819,1.0
196.027,10.632,0.605,33.0
0.0,0.0,0.0,0.0
0.0,0.0,0.0,0.0
0.0,0.0,0.0,0.0
0.0,0.0,0.0,0.0
32.915,1.83,-0.83,1.0
0.0,0.0,0.0,0.0
0.0,0.0,0.0,0.0
0.0,0.0,0.0,0.0
0.0,0.0,0.0,0.0
38.084,2.175,-0.779,0.0
32.012,1.837,-0.836,0.0
0.0,0.0,0.0,0.0
0.0,0.0,0.0,0.0
0.0,0.0,0.0,0.0
0.0,0.0,0.0,0.0
37.555,2.21,-0.802,0.0
31.215,1.845,-0.843,0.0
0.0,0.0,0.0,0.0
0.0,0.0,0.0,0.0
0.0,0.0,0.0,0.0
0.0,0.0,0.0,0.0
35.577,2.155,-0.793,0.0
30.577,1.86,-0.855,0.0
0.0,0.0,0.0,0.0
0.0,0.0,0.0,0.0
0.0,0.0,0.0,0.0
41.38,2.566,-0.729,0.0
34.964,2.177,-0.814,0.0
29.514,1.845,-0.854,0.0
0.0,0.0,0.0,0.0
68.86,4.351,-0.495,0.0
0.0,0.0,0.0,0.0
40.291,2.566,-0.75,0.0
33.15,2.119,-0.805,1.0
28.858,1.852,-0.864,0.0
0.0,0.0,0.0,0.0
69.025,4.475,-0.565,1.0
0.0,0.0,0.0,0.0
39.025,2.549,-0.765,0.0
32.589,2.136,-0.824,1.0
28.143,1.852,-0.871,0.0
0.0,0.0,0.0,0.0
0.0,0.0,0.0,0.0
0.0,0.0,0.0,0.0
37.855,2.533,-0.782,0.0
31.872,2.141,-0.839,0.0
27.265,1.838,-0.873,0.0
0.0,0.0,0.0,0.0
0.0,0.0,0.0,0.0
0.0,0.0,0.0,0.0
37.087,2.54,-0.806,0.0
30.38,2.088,-0.832,0.0
26.54,1.83,-0.878,0.0
0.0,0.0,0.0,0.0
0.0,0.0,0.0,0.0
0.0,0.0,0.0,0.0
35.03,2.453,-0.799,0.0
30.044,2.111,-0.856,1.0
25.583,1.804,-0.875,0.0
0.0,0.0,0.0,0.0
0.0,0.0,0.0,0.0
0.0,0.0,0.0,0.0
33.014,2.361,-0.79,0.0
28.949,2.077,-0.857,0.0
24.878,1.791,-0.878,0.0
0.0,0.0,0.0,0.0
0.0,0.0,0.0,0.0
0.0,0.0,0.0,0.0
32.462,2.37,-0.814,1.0
28.058,2.055,-0.863,0.0
24.29,1.784,-0.886,0.0
0.0,0.0,0.0,0.0
0.0,0.0,0.0,0.0
37.567,2.789,-0.767,0.0
32.785,2.441,-0.86,0.0
27.269,2.036,-0.87,0.0
23.589,1.766,-0.887,0.0
0.0,0.0,0.0,0.0
0.0,0.0,0.0,0.0
0.0,0.0,0.0,0.0
30.109,2.284,-0.825,0.0
26.385,2.007,-0.873,0.0
21.968,1.676,-0.852,0.0
0.0,0.0,0.0,0.0
0.0,0.0,0.0,0.0
34.939,2.691,-0.796,0.0
29.465,2.276,-0.843,0.0
25.522,1.976,-0.876,0.0
21.84,1.696,-0.874,1.0
0.0,0.0,0.0,0.0
0.0,0.0,0.0,0.0
33.009,2.586,-0.793,1.0
28.486,2.238,-0.849,0.0
24.586,1.936,-0.874,0.0
21.82,1.723,-0.9,6.0
0.0,0.0,0.0,0.0
37.95,3.016,-0.742,0.0
32.511,2.59,-0.821,1.0
27.694,2.211,-0.86,0.0
24.109,1.93,-0.886,0.0
21.768,1.747,-0.925,1.0
0.0,0.0,0.0,0.0
37.452,3.023,-0.778,0.0
31.231,2.527,-0.827,0.0
26.827,2.176,-0.866,0.0
21.936,1.783,-0.834,0.0
20.777,1.693,-0.909,0.0
0.0,0.0,0.0,0.0
35.388,2.9,-0.78,0.0
30.224,2.482,-0.839,0.0
25.885,2.131,-0.869,0.0
21.879,1.805,-0.859,4.0
19.908,1.646,-0.896,0.0
0.0,0.0,0.0,0.0
33.38,2.775,-0.778,0.0
28.959,2.412,-0.84,0.0
24.832,2.073,-0.865,0.0
21.834,1.827,-0.886,8.0
19.522,1.637,-0.904,0.0
39.892,3.356,-0.753,0.0
32.69,2.755,-0.804,0.0
28.235,2.385,-0.856,0.0
24.301,2.056,-0.878,1.0
21.798,1.848,-0.913,3.0
19.258,1.636,-0.917,0.0
37.307,3.179,-0.753,0.0
31.503,2.69,-0.816,0.0
27.131,2.321,-0.858,0.0
23.697,2.031,-0.887,0.0
21.068,1.81,-0.91,0.0
0.0,0.0,0.0,0.0
0.0,0.0,0.0,0.0
30.668,2.651,-0.835,6.0
26.253,2.274,-0.865,0.0
21.906,1.901,-0.849,3.0
0.0,0.0,0.0,0.0
18.106,1.577,-0.91,0.0
33.715,2.944,-0.769,0.0
29.525,2.583,-0.843,0.0
25.229,2.21,-0.864,0.0
21.824,1.915,-0.875,8.0
19.631,1.726,-0.9,0.0
17.702,1.559,-0.913,0.0
32.852,2.901,-0.793,1.0
28.214,2.496,-0.843,0.0
24.408,2.162,-0.869,0.0
21.786,1.933,-0.903,3.0
19.38,1.723,-0.914,0.0
17.3,1.541,-0.915,0.0
31.942,2.851,-0.814,0.0
27.426,2.451,-0.856,0.0
23.817,2.132,-0.88,0.0
21.177,1.899,-0.906,0.0
18.847,1.693,-0.915,0.0
16.998,1.529,-0.923,0.0
30.672,2.765,-0.824,0.0
26.404,2.384,-0.86,0.0
23.254,2.103,-0.891,0.0
20.414,1.849,-0.901,0.0
18.233,1.654,-0.91,0.0
16.557,1.504,-0.921,0.0
29.449,2.68,-0.831,0.0
25.379,2.313,-0.861,0.0
21.823,1.992,-0.866,0.0
19.604,1.792,-0.892,0.0
17.996,1.647,-0.922,0.0
16.238,1.489,-0.926,0.0
28.414,2.609,-0.84,0.0
24.547,2.257,-0.867,0.0
21.776,2.005,-0.894,1.0
19.373,1.786,-0.908,0.0
17.418,1.608,-0.917,0.0
15.874,1.468,-0.927,0.0
27.249,2.523,-0.843,0.0
23.788,2.205,-0.872,0.0
21.171,1.965,-0.898,0.0
18.936,1.76,-0.914,0.0
17.143,1.596,-0.926,0.0
15.567,1.451,-0.93,0.0
26.485,2.472,-0.856,0.0
23.129,2.161,-0.88,0.0
20.665,1.933,-0.905,0.0
18.292,1.713,-0.908,0.0
16.651,1.562,-0.922,0.0
15.178,1.425,-0.928,0.0
25.339,2.382,-0.854,0.0
21.844,2.056,-0.861,0.0
19.555,1.842,-0.883,0.0
17.836,1.682,-0.91,0.0
16.288,1.538,-0.925,0.0
14.92,1.411,-0.933,0.0
24.668,2.335,-0.866,0.0
21.784,2.064,-0.889,1.0
19.458,1.846,-0.906,0.0
17.579,1.669,-0.921,0.0
15.944,1.516,-0.928,0.0
14.662,1.396,-0.938,0.0
23.948,2.281,-0.873,0.0
21.212,2.022,-0.895,0.0
18.934,1.807,-0.908,0.0
17.063,1.63,-0.918,0.0
15.711,1.503,-0.936,0.0
14.366,1.376,-0.938,0.0
22.659,2.171,-0.857,0.0
20.647,1.98,-0.9,0.0
18.167,1.743,-0.896,0.0
16.697,1.604,-0.921,0.0
15.233,1.465,-0.928,0.0
14.159,1.363,-0.944,0.0
21.85,2.104,-0.857,0.0
19.825,1.911,-0.891,0.0
17.866,1.723,-0.906,1.0
16.271,1.571,-0.92,0.0
14.945,1.444,-0.931,0.0
13.749,1.33,-0.936,0.0
21.787,2.108,-0.884,1.0
19.404,1.879,-0.899,0.0
17.713,1.717,-0.922,1.0
15.924,1.545,-0.922,0.0
14.684,1.426,-0.935,0.0
13.504,1.312,-0.938,0.0
21.414,2.081,-0.898,0.0
19.024,1.85,-0.907,0.0
17.203,1.674,-0.919,0.0
15.634,1.523,-0.927,0.0
14.415,1.405,-0.938,0.0
13.314,1.299,-0.943,0.0
20.677,2.017,-0.895,0.0
18.324,1.789,-0.899,0.0
16.786,1.64,-0.92,0.0
15.25,1.491,-0.925,0.0
14.234,1.393,-0.946,0.0
13.057,1.279,-0.943,0.0
20.056,1.963,-0.896,0.0
17.948,1.758,-0.905,1.0
16.381,1.605,-0.92,0.0
14.987,1.47,-0.93,0.0
0.0,0.0,0.0,0.0
12.776,1.255,-0.94,0.0
19.42,1.906,-0.894,0.0
17.715,1.74,-0.917,1.0
16.028,1.575,-0.922,0.0
14.721,1.448,-0.933,0.0
13.497,1.328,-0.934,0.0
12.575,1.238,-0.942,0.0
19.178,1.887,-0.909,0.0
17.29,1.702,-0.919,0.0
15.678,1.544,-0.923,0.0
14.415,1.421,-0.933,0.0
13.349,1.317,-0.941,0.0
12.367,1.22,-0.944,0.0
18.359,1.81,-0.894,0.0
16.849,1.662,-0.918,0.0
15.331,1.513,-0.923,0.0
14.21,1.403,-0.939,0.0
13.08,1.292,-0.94,0.0
12.133,1.199,-0.942,0.0
17.981,1.775,-0.9,1.0
16.47,1.627,-0.919,0.0
15.01,1.483,-0.924,0.0
0.0,0.0,0.0,0.0
12.792,1.265,-0.936,0.0
11.88,1.176,-0.938,0.0
17.758,1.755,-0.912,2.0
16.109,1.593,-0.92,0.0
14.769,1.461,-0.929,0.0
0.0,0.0,0.0,0.0
12.575,1.245,-0.937,0.0
11.686,1.157,-0.938,0.0
17.516,1.732,-0.923,0.0
15.76,1.559,-0.921,0.0
14.528,1.438,-0.933,0.0
13.399,1.326,-0.939,0.0
12.407,1.229,-0.941,0.0
11.522,1.142,-0.94,0.0
16.955,1.677,-0.915,0.0
15.472,1.531,-0.924,0.0
14.286,1.414,-0.935,0.0
13.146,1.301,-0.938,0.0
12.198,1.208,-0.941,0.0
11.361,1.126,-0.942,0.0
16.584,1.64,-0.917,0.0
15.147,1.498,-0.924,0.0
14.273,1.412,-0.953,0.0
12.866,1.273,-0.935,0.0
11.978,1.186,-0.939,0.0
11.193,1.108,-0.943,0.0
16.249,1.606,-0.919,0.0
14.893,1.472,-0.928,0.0
0.0,0.0,0.0,0.0
12.653,1.251,-0.935,0.0
11.775,1.164,-0.938,0.0
11.097,1.098,-0.948,0.0
15.904,1.57,-0.919,0.0
14.638,1.445,-0.93,0.0
13.402,1.323,-0.929,0.0
12.508,1.235,-0.94,0.0
11.626,1.148,-0.941,0.0
10.878,1.075,-0.943,0.0
15.611,1.538,-0.921,0.0
14.397,1.419,-0.932,0.0
13.299,1.311,-0.938,0.0
12.32,1.214,-0.941,0.0
11.454,1.129,-0.941,0.0
10.731,1.058,-0.944,0.0
15.307,1.506,-0.922,0.0
14.157,1.392,-0.934,0.0
13.116,1.29,-0.941,0.0
12.102,1.19,-0.939,0.0
11.327,1.114,-0.944,0.0
10.628,1.046,-0.948,0.0
15.025,1.474,-0.923,0.0
0.0,0.0,0.0,0.0
12.856,1.261,-0.938,0.0
11.889,1.166,-0.937,0.0
11.148,1.094,-0.943,0.0
10.455,1.026,-0.945,0.0
14.808,1.449,-0.927,0.0
0.0,0.0,0.0,0.0
12.639,1.236,-0.937,0.0
11.756,1.15,-0.94,0.0
10.987,1.075,-0.942,0.0
10.292,1.007,-0.942,0.0
14.561,1.42,-0.929,0.0
13.396,1.306,-0.931,0.0
12.477,1.216,-0.939,0.0
11.553,1.126,-0.937,0.0
10.855,1.058,-0.943,0.0
10.204,0.994,-0.946,0.0
14.37,1.396,-0.933,0.0
13.324,1.294,-0.941,0.0
12.299,1.194,-0.94,0.0
11.429,1.11,-0.94,0.0
10.789,1.047,-0.95,0.0
10.081,0.979,-0.946,0.0
14.222,1.376,-0.939,0.0
13.137,1.271,-0.943,0.0
12.065,1.167,-0.935,0.0
11.288,1.091,-0.941,0.0
10.601,1.025,-0.945,0.0
9.999,0.966,-0.949,0.0
13.99,1.347,-0.939,0.0
12.895,1.241,-0.939,0.0
11.896,1.145,-0.935,0.0
11.135,1.071,-0.94,0.0
10.478,1.008,-0.945,0.0
9.866,0.949,-0.947,0.0
13.598,1.303,-0.927,0.0
12.674,1.214,-0.937,0.0
11.812,1.131,-0.941,0.0
10.992,1.052,-0.94,0.0
10.323,0.988,-0.942,0.0
9.739,0.932,-0.945,0.0
13.508,1.287,-0.935,0.0
12.502,1.191,-0.937,0.0
11.634,1.108,-0.939,0.0
10.9,1.038,-0.943,0.0
10.209,0.971,-0.942,0.0
9.648,0.918,-0.946,0.0
13.355,1.265,-0.937,0.0
12.375,1.172,-0.94,0.0
11.506,1.089,-0.94,0.0
10.752,1.017,-0.941,0.0
10.158,0.961,-0.948,0.0
9.555,0.903,-0.947,0.0
13.153,1.238,-0.936,0.0
12.148,1.143,-0.934,0.0
11.354,1.068,-0.938,0.0
10.679,1.004,-0.945,0.0
10.035,0.943,-0.946,0.0
9.411,0.884,-0.941,0.0
13.02,1.218,-0.939,0.0
11.965,1.118,-0.931,0.0
11.259,1.052,-0.941,0.0
10.614,0.991,-0.949,0.0
9.933,0.927,-0.946,0.0
9.356,0.873,-0.945,0.0
12.858,1.194,-0.939,0.0
11.87,1.101,-0.935,0.0
11.154,1.034,-0.943,0.0
0.0,0.0,0.0,0.0
9.826,0.91,-0.944,0.0
9.271,0.858,-0.944,0.0
12.67,1.168,-0.937,0.0
11.798,1.086,-0.94,0.0
11.031,1.015,-0.942,0.0
0.0,0.0,0.0,0.0
9.727,0.894,-0.943,0.0
9.209,0.846,-0.946,0.0
12.532,1.146,-0.937,0.0
11.636,1.063,-0.937,0.0
10.992,1.003,-0.948,0.0
10.226,0.933,-0.942,0.0
9.663,0.881,-0.945,0.0
9.107,0.829,-0.943,0.0
12.359,1.12,-0.935,0.0
11.536,1.045,-0.938,0.0
10.787,0.976,-0.939,0.0
10.146,0.917,-0.943,0.0
9.556,0.863,-0.943,0.0
9.031,0.815,-0.943,0.0
12.231,1.099,-0.935,0.0
11.437,1.027,-0.939,0.0
10.877,0.975,-0.956,0.0
10.072,0.902,-0.944,0.0
9.488,0.849,-0.943,0.0
8.973,0.803,-0.944,0.0
12.151,1.082,-0.938,0.0
11.337,1.008,-0.94,0.0
10.634,0.945,-0.942,0.0
9.983,0.886,-0.943,0.0
9.41,0.834,-0.943,0.0
8.884,0.787,-0.941,0.0
12.008,1.058,-0.936,0.0
11.257,0.991,-0.941,0.0
10.551,0.928,-0.943,0.0
9.903,0.87,-0.943,0.0
9.359,0.821,-0.945,0.0
8.79,0.771,-0.938,0.0
11.892,1.037,-0.935,0.0
11.168,0.973,-0.942,0.0
10.541,0.917,-0.949,0.0
9.835,0.855,-0.943,0.0
9.259,0.804,-0.941,0.0
8.729,0.757,-0.937,0.0
11.801,1.018,-0.936,0.0
11.066,0.954,-0.941,0.0
10.363,0.892,-0.94,0.0
9.766,0.84,-0.943,0.0
9.225,0.792,-0.943,0.0
8.702,0.747,-0.94,0.0
11.739,1.002,-0.938,0.0
11.048,0.942,-0.946,0.0
10.309,0.877,-0.941,0.0
9.713,0.826,-0.943,0.0
9.161,0.778,-0.942,0.0
8.696,0.738,-0.944,0.0
11.634,0.981,-0.937,0.0
10.989,0.926,-0.947,0.0
10.24,0.861,-0.941,0.0
9.621,0.808,-0.94,0.0
9.126,0.766,-0.944,0.0
8.651,0.725,-0.944,0.0
11.554,0.963,-0.936,0.0
10.926,0.909,-0.948,0.0
10.168,0.845,-0.94,0.0
9.569,0.794,-0.94,0.0
9.065,0.751,-0.942,0.0
8.61,0.712,-0.944,0.0
11.52,0.948,-0.94,0.0
10.931,0.898,-0.954,0.0
10.166,0.834,-0.945,0.0
9.507,0.779,-0.939,0.0
9.009,0.737,-0.941,0.0
8.572,0.7,-0.944,0.0
11.425,0.928,-0.937,0.0
10.758,0.872,-0.944,0.0
10.123,0.82,-0.946,0.0
9.471,0.766,-0.94,0.0
8.976,0.724,-0.942,0.0
8.523,0.687,-0.943,0.0
11.393,0.913,-0.94,0.0
10.73,0.858,-0.946,0.0
10.011,0.799,-0.939,0.0
9.476,0.756,-0.944,0.0
8.954,0.713,-0.943,0.0
8.496,0.675,-0.943,0.0
11.369,0.898,-0.942,0.0
10.554,0.832,-0.934,0.0
10.002,0.787,-0.942,0.0
9.425,0.741,-0.943,0.0
8.948,0.702,-0.946,0.0
8.465,0.663,-0.943,0.0
11.301,0.88,-0.941,0.0
10.56,0.821,-0.939,0.0
9.947,0.772,-0.941,0.0
9.39,0.727,-0.942,0.0
8.906,0.688,-0.944,0.0
8.45,0.652,-0.944,0.0
11.294,0.866,-0.944,0.0
10.486,0.803,-0.935,0.0
9.948,0.76,-0.944,0.0
9.351,0.713,-0.941,0.0
8.89,0.677,-0.945,0.0
8.429,0.64,-0.944,0.0
11.248,0.849,-0.943,0.0
10.474,0.789,-0.937,0.0
9.879,0.743,-0.94,0.0
9.385,0.704,-0.947,0.0
8.871,0.665,-0.945,0.0
8.399,0.628,-0.943,0.0
11.185,0.831,-0.94,0.0
10.488,0.778,-0.941,0.0
9.898,0.732,-0.944,0.0
9.363,0.691,-0.947,0.0
8.825,0.65,-0.942,0.0
8.399,0.618,-0.945,0.0
11.204,0.819,-0.944,0.0
10.445,0.762,-0.939,0.0
9.883,0.719,-0.944,0.0
9.315,0.676,-0.943,0.0
8.811,0.638,-0.942,0.0
8.394,0.607,-0.945,0.0
11.147,0.801,-0.941,0.0
10.459,0.75,-0.942,0.0
9.896,0.708,-0.947,0.0
9.315,0.665,-0.945,0.0
8.827,0.628,-0.945,0.0
8.367,0.594,-0.943,0.0
11.199,0.79,-0.946,0.0
10.43,0.734,-0.94,0.0
9.867,0.693,-0.945,0.0
9.338,0.654,-0.948,0.0
8.824,0.617,-0.946,0.0
8.362,0.583,-0.943,0.0
11.129,0.771,-0.941,0.0
10.476,0.724,-0.945,0.0
9.845,0.679,-0.943,0.0
9.32,0.641,-0.946,0.0
8.798,0.604,-0.943,0.0
8.36,0.572,-0.943,0.0
11.127,0.757,-0.941,0.0
10.457,0.71,-0.943,0.0
9.867,0.668,-0.945,0.0
9.315,0.629,-0.946,0.0
8.817,0.594,-0.945,0.0
8.369,0.562,-0.944,0.0
11.14,0.743,-0.942,0.0
10.415,0.693,-0.939,0.0
9.854,0.654,-0.944,0.0
9.33,0.618,-0.947,0.0
8.802,0.581,-0.943,0.0
8.379,0.552,-0.945,0.0
11.122,0.728,-0.94,0.0
10.444,0.681,-0.941,0.0
9.88,0.643,-0.945,0.0
9.345,0.606,-0.948,0.0
8.805,0.57,-0.942,0.0
8.384,0.541,-0.945,0.0
11.219,0.719,-0.947,0.0
10.433,0.667,-0.939,0.0
9.891,0.63,-0.945,0.0
9.311,0.592,-0.943,0.0
8.86,0.561,-0.947,0.0
8.393,0.53,-0.944,0.0
11.22,0.704,-0.945,0.0
10.471,0.655,-0.94,0.0
9.898,0.617,-0.944,0.0
9.345,0.581,-0.945,0.0
8.846,0.549,-0.944,0.0
8.399,0.519,-0.943,0.0
11.2,0.688,-0.941,0.0
10.522,0.644,-0.943,0.0
9.956,0.608,-0.948,0.0
9.361,0.569,-0.944,0.0
8.883,0.539,-0.946,0.0
8.432,0.51,-0.945,0.0
11.289,0.678,-0.946,0.0
10.548,0.632,-0.942,0.0
9.944,0.593,-0.944,0.0
9.38,0.558,-0.944,0.0
8.872,0.526,-0.942,0.0
8.445,0.499,-0.944,0.0
11.305,0.664,-0.944,0.0
10.569,0.618,-0.941,0.0
10.027,0.585,-0.949,0.0
9.408,0.547,-0.944,0.0
8.902,0.516,-0.943,0.0
8.466,0.489,-0.944,0.0
11.352,0.651,-0.944,0.0
10.64,0.608,-0.944,0.0
10.033,0.571,-0.946,0.0
9.46,0.537,-0.945,0.0
8.941,0.506,-0.944,0.0
8.49,0.478,-0.943,0.0
11.348,0.635,-0.939,0.0
10.656,0.594,-0.941,0.0
10.094,0.561,-0.948,0.0
9.502,0.526,-0.946,0.0
8.991,0.496,-0.945,0.0
8.523,0.469,-0.943,0.0
11.404,0.623,-0.939,0.0
10.714,0.583,-0.942,0.0
10.155,0.55,-0.949,0.0
9.532,0.515,-0.945,0.0
9.011,0.485,-0.943,0.0
8.537,0.457,-0.941,0.0
11.473,0.611,-0.94,0.0
10.786,0.572,-0.943,0.0
10.192,0.538,-0.948,0.0
9.596,0.505,-0.946,0.0
9.101,0.477,-0.948,0.0
8.607,0.449,-0.944,0.0
11.609,0.602,-0.945,0.0
10.824,0.559,-0.941,0.0
