X,Y,Z,Reflectivity
37.916,2.405,-0.799,0.0
0.0,0.0,0.0,0.0
0.0,0.0,0.0,0.0
0.0,0.0,0.0,0.0
0.0,0.0,0.0,0.0
0.0,0.0,0.0,0.0
35.747,2.331,-0.781,0.0
154.982,10.179,0.872,10.0
0.0,0.0,0.0,0.0
68.926,4.561,-0.388,0.0
0.0,0.0,0.0,0.0
0.0,0.0,0.0,0.0
35.333,2.365,-0.801,0.0
154.938,10.444,0.746,151.0
0.0,0.0,0.0,0.0
0.0,0.0,0.0,0.0
52.167,3.555,-0.637,0.0
0.0,0.0,0.0,0.0
34.137,2.344,-0.802,1.0
154.992,10.714,0.615,18.0
0.0,0.0,0.0,0.0
69.091,4.81,-0.506,0.0
0.0,0.0,0.0,0.0
40.481,2.838,-0.758,0.0
33.041,2.325,-0.805,1.0
140.66,9.961,0.434,95.0
0.0,0.0,0.0,0.0
0.0,0.0,0.0,0.0
0.0,0.0,0.0,0.0
0.0,0.0,0.0,0.0
32.51,2.341,-0.821,1.0
141.287,10.237,0.309,4.0
0.0,0.0,0.0,0.0
0.0,0.0,0.0,0.0
0.0,0.0,0.0,0.0
37.466,2.749,-0.769,0.0
32.078,2.362,-0.84,0.0
122.143,9.048,0.155,1.0
0.0,0.0,0.0,0.0
0.0,0.0,0.0,0.0
0.0,0.0,0.0,0.0
0.0,0.0,0.0,0.0
30.207,2.273,-0.82,0.0
0.0,0.0,0.0,0.0
0.0,0.0,0.0,0.0
0.0,0.0,0.0,0.0
0.0,0.0,0.0,0.0
0.0,0.0,0.0,0.0
29.986,2.303,-0.843,0.0
0.0,0.0,0.0,0.0
0.0,0.0,0.0,0.0
0.0,0.0,0.0,0.0
0.0,0.0,0.0,0.0
33.325,2.603,-0.781,0.0
29.166,2.285,-0.849,0.0
0.0,0.0,0.0,0.0
0.0,0.0,0.0,0.0
0.0,0.0,0.0,0.0
39.879,3.166,-0.749,0.0
32.93,2.621,-0.805,1.0
28.398,2.267,-0.856,1.0
0.0,0.0,0.0,0.0
0.0,0.0,0.0,0.0
0.0,0.0,0.0,0.0
38.267,3.094,-0.758,0.0
32.49,2.634,-0.828,1.0
27.683,2.25,-0.863,1.0
0.0,0.0,0.0,0.0
0.0,0.0,0.0,0.0
0.0,0.0,0.0,0.0
37.78,3.109,-0.788,0.0
31.308,2.583,-0.831,0.0
26.953,2.229,-0.869,0.0
0.0,0.0,0.0,0.0
0.0,0.0,0.0,0.0
0.0,0.0,0.0,0.0
36.827,3.082,-0.808,0.0
30.441,2.553,-0.841,0.0
26.054,2.191,-0.868,0.0
0.0,0.0,0.0,0.0
0.0,0.0,0.0,0.0
0.0,0.0,0.0,0.0
0.0,0.0,0.0,0.0
29.463,2.511,-0.846,0.0
25.465,2.175,-0.876,0.0
68.926,5.914,-0.481,0.0
0.0,0.0,0.0,0.0
40.572,3.497,-0.745,0.0
33.13,2.861,-0.8,0.0
28.374,2.456,-0.847,0.0
24.503,2.126,-0.871,0.0
0.0,0.0,0.0,0.0
0.0,0.0,0.0,0.0
38.744,3.389,-0.756,0.0
32.215,2.824,-0.815,0.0
27.653,2.429,-0.858,0.0
24.011,2.114,-0.881,0.0
0.0,0.0,0.0,0.0
0.0,0.0,0.0,0.0
37.338,3.313,-0.771,0.0
31.168,2.771,-0.824,0.0
27.043,2.41,-0.87,0.0
21.931,1.958,-0.83,0.0
0.0,0.0,0.0,0.0
42.735,3.837,-0.689,0.0
0.0,0.0,0.0,0.0
30.433,2.743,-0.841,0.0
26.064,2.354,-0.869,0.0
21.861,1.978,-0.854,0.0
0.0,0.0,0.0,0.0
0.0,0.0,0.0,0.0
34.966,3.187,-0.805,0.0
29.167,2.663,-0.841,0.0
25.113,2.297,-0.867,0.0
21.827,2.001,-0.879,1.0
0.0,0.0,0.0,0.0
0.0,0.0,0.0,0.0
33.09,3.054,-0.802,1.0
28.424,2.628,-0.854,0.0
24.423,2.262,-0.874,0.0
21.757,2.019,-0.903,1.0
0.0,0.0,0.0,0.0
38.442,3.584,-0.759,0.0
31.388,2.932,-0.799,0.0
27.356,2.559,-0.856,0.0
23.805,2.231,-0.881,0.0
21.176,1.988,-0.905,0.0
0.0,0.0,0.0,0.0
36.793,3.469,-0.772,0.0
30.835,2.912,-0.823,0.0
26.499,2.507,-0.862,0.0
23.099,2.189,-0.883,0.0
20.62,1.957,-0.906,0.0
0.0,0.0,0.0,0.0
35.157,3.351,-0.781,0.0
30.203,2.883,-0.844,0.0
25.484,2.437,-0.86,0.0
21.914,2.098,-0.865,0.0
19.898,1.909,-0.9,0.0
0.0,0.0,0.0,0.0
33.2,3.197,-0.78,0.0
28.857,2.783,-0.843,0.0
24.821,2.398,-0.87,0.0
21.796,2.109,-0.888,1.0
19.491,1.889,-0.906,0.0
39.234,3.81,-0.747,0.0
32.243,3.136,-0.798,0.0
27.832,2.71,-0.848,0.0
23.875,2.328,-0.867,0.0
21.577,2.107,-0.907,0.0
19.286,1.886,-0.921,0.0
37.295,3.655,-0.757,0.0
0.0,0.0,0.0,0.0
26.745,2.628,-0.849,1.0
23.528,2.315,-0.884,0.0
20.856,2.055,-0.903,0.0
18.394,1.815,-0.902,0.0
0.0,0.0,0.0,0.0
30.191,2.989,-0.825,0.0
26.283,2.605,-0.868,0.0
21.894,2.173,-0.851,0.0
20.447,2.032,-0.912,0.0
18.044,1.796,-0.909,1.0
33.351,3.325,-0.763,0.0
29.259,2.92,-0.837,0.0
25.113,2.509,-0.862,0.0
21.785,2.179,-0.875,0.0
19.557,1.959,-0.898,0.0
17.792,1.785,-0.919,2.0
32.841,3.299,-0.794,1.0
28.239,2.84,-0.844,0.0
24.376,2.454,-0.868,0.0
21.689,2.186,-0.899,1.0
19.291,1.947,-0.911,0.0
17.519,1.77,-0.928,0.0
32.063,3.244,-0.817,0.0
27.328,2.768,-0.853,0.0
23.663,2.399,-0.874,0.0
20.969,2.129,-0.897,0.0
18.742,1.905,-0.909,0.0
17.017,1.731,-0.924,0.0
30.227,3.079,-0.81,0.0
26.192,2.671,-0.852,0.0
21.933,2.239,-0.839,2.0
20.524,2.097,-0.905,0.0
18.199,1.862,-0.907,0.0
16.634,1.703,-0.925,0.0
29.848,3.06,-0.839,0.0
25.394,2.606,-0.859,0.0
21.849,2.244,-0.864,4.0
19.613,2.016,-0.891,0.0
17.795,1.831,-0.91,1.0
16.229,1.672,-0.924,0.0
28.446,2.933,-0.837,0.0
24.628,2.541,-0.865,0.0
21.79,2.251,-0.891,4.0
19.327,1.998,-0.903,0.0
17.664,1.828,-0.927,1.0
15.888,1.646,-0.925,0.0
27.519,2.852,-0.846,0.0
23.867,2.476,-0.871,0.0
21.485,2.231,-0.907,0.0
18.88,1.962,-0.907,0.0
17.185,1.787,-0.925,0.0
15.58,1.622,-0.928,0.0
26.543,2.765,-0.851,0.0
21.951,2.288,-0.83,1.0
20.642,2.153,-0.898,0.0
18.45,1.926,-0.911,0.0
16.768,1.752,-0.924,0.0
15.271,1.597,-0.93,0.0
25.563,2.674,-0.853,0.0
21.879,2.29,-0.856,4.0
19.668,2.06,-0.882,0.0
17.792,1.865,-0.902,1.0
16.338,1.714,-0.923,0.0
14.924,1.567,-0.929,0.0
24.758,2.6,-0.859,0.0
21.825,2.294,-0.882,4.0
19.502,2.051,-0.9,1.0
17.727,1.866,-0.922,2.0
16.004,1.686,-0.925,0.0
14.685,1.548,-0.933,0.0
24.086,2.539,-0.867,0.0
21.646,2.283,-0.903,1.0
19.139,2.02,-0.909,0.0
17.309,1.828,-0.923,0.0
15.684,1.657,-0.927,0.0
14.472,1.53,-0.939,0.0
21.984,2.324,-0.82,0.0
20.692,2.189,-0.891,0.0
18.657,1.975,-0.91,0.0
16.851,1.785,-0.921,0.0
15.355,1.627,-0.927,0.0
14.222,1.508,-0.941,0.0
21.909,2.322,-0.846,4.0
19.941,2.115,-0.884,0.0
17.86,1.895,-0.895,0.0
16.423,1.743,-0.919,0.0
15.015,1.595,-0.926,0.0
13.955,1.483,-0.941,0.0
21.849,2.321,-0.872,7.0
19.641,2.087,-0.896,1.0
17.745,1.887,-0.912,2.0
16.166,1.72,-0.925,0.0
14.741,1.569,-0.929,0.0
13.693,1.458,-0.942,0.0
21.774,2.317,-0.897,2.0
19.344,2.059,-0.908,0.0
17.626,1.877,-0.929,0.0
15.755,1.679,-0.922,0.0
14.502,1.546,-0.932,0.0
13.394,1.429,-0.938,0.0
20.955,2.233,-0.89,0.0
18.73,1.996,-0.903,0.0
16.99,1.812,-0.917,0.0
15.443,1.647,-0.924,0.0
14.318,1.528,-0.939,0.0
13.243,1.414,-0.945,0.0
20.201,2.155,-0.883,0.0
18.448,1.968,-0.913,0.0
16.545,1.766,-0.914,0.0
15.148,1.617,-0.925,0.0
14.139,1.51,-0.945,0.0
13.065,1.396,-0.949,0.0
19.739,2.106,-0.888,1.0
17.773,1.897,-0.902,1.0
16.346,1.745,-0.923,0.0
14.873,1.588,-0.927,0.0
13.704,1.464,-0.933,0.0
12.729,1.36,-0.94,0.0
19.522,2.083,-0.903,1.0
17.691,1.888,-0.92,1.0
15.944,1.702,-0.92,0.0
14.634,1.562,-0.931,0.0
13.476,1.439,-0.935,0.0
12.537,1.339,-0.942,0.0
18.948,2.021,-0.899,0.0
17.297,1.845,-0.92,0.0
15.68,1.673,-0.925,0.0
14.413,1.538,-0.934,0.0
13.298,1.42,-0.939,0.0
12.326,1.316,-0.941,0.0
18.639,1.987,-0.908,0.0
16.834,1.794,-0.916,0.0
15.289,1.63,-0.92,0.0
14.209,1.515,-0.939,0.0
13.142,1.401,-0.944,0.0
12.161,1.297,-0.944,0.0
17.844,1.9,-0.891,0.0
16.44,1.75,-0.915,0.0
15.046,1.602,-0.924,0.0
14.062,1.497,-0.946,0.0
12.812,1.364,-0.935,0.0
11.933,1.271,-0.94,0.0
17.752,1.887,-0.907,2.0
16.219,1.724,-0.922,0.0
14.814,1.575,-0.927,0.0
0.0,0.0,0.0,0.0
12.639,1.344,-0.938,0.0
11.755,1.25,-0.94,0.0
17.633,1.871,-0.922,1.0
15.875,1.684,-0.921,0.0
14.583,1.547,-0.93,0.0
13.31,1.412,-0.927,0.0
12.468,1.323,-0.94,0.0
11.577,1.228,-0.939,0.0
17.109,1.811,-0.914,0.0
15.601,1.651,-0.923,0.0
14.418,1.525,-0.936,0.0
13.296,1.407,-0.941,0.0
12.336,1.305,-0.944,0.0
11.416,1.208,-0.939,0.0
16.742,1.767,-0.913,0.0
15.239,1.608,-0.919,0.0
14.237,1.502,-0.94,0.0
13.068,1.378,-0.94,0.0
12.072,1.273,-0.938,0.0
11.317,1.194,-0.944,0.0
16.485,1.734,-0.918,0.0
14.996,1.577,-0.921,0.0
0.0,0.0,0.0,0.0
12.828,1.349,-0.937,0.0
11.933,1.254,-0.94,0.0
11.175,1.175,-0.945,0.0
16.134,1.691,-0.916,0.0
14.833,1.554,-0.927,0.0
0.0,0.0,0.0,0.0
12.645,1.324,-0.937,0.0
11.75,1.23,-0.938,0.0
11.033,1.155,-0.945,0.0
15.874,1.657,-0.918,0.0
14.619,1.526,-0.93,0.0
13.5,1.408,-0.936,0.0
12.466,1.3,-0.937,0.0
11.593,1.209,-0.938,0.0
10.823,1.128,-0.939,0.0
15.644,1.626,-0.922,0.0
14.423,1.498,-0.933,0.0
13.383,1.39,-0.942,0.0
12.337,1.281,-0.941,0.0
11.484,1.192,-0.942,0.0
10.793,1.12,-0.947,0.0
15.366,1.589,-0.921,0.0
14.242,1.472,-0.936,0.0
13.154,1.359,-0.94,0.0
12.156,1.255,-0.939,0.0
11.345,1.171,-0.942,0.0
10.634,1.098,-0.944,0.0
15.108,1.554,-0.921,0.0
0.0,0.0,0.0,0.0
12.919,1.327,-0.936,0.0
12.003,1.233,-0.939,0.0
11.197,1.15,-0.941,0.0
10.552,1.083,-0.947,0.0
14.882,1.522,-0.922,0.0
0.0,0.0,0.0,0.0
12.791,1.307,-0.939,0.0
11.836,1.209,-0.938,0.0
11.115,1.135,-0.945,0.0
10.476,1.069,-0.951,0.0
14.722,1.497,-0.926,0.0
0.0,0.0,0.0,0.0
12.596,1.279,-0.936,0.0
11.684,1.186,-0.937,0.0
10.978,1.114,-0.943,0.0
10.339,1.048,-0.948,0.0
14.567,1.471,-0.93,0.0
13.494,1.362,-0.938,0.0
12.467,1.258,-0.938,0.0
11.539,1.163,-0.936,0.0
10.86,1.094,-0.943,0.0
10.223,1.03,-0.947,0.0
14.372,1.442,-0.93,0.0
13.387,1.342,-0.943,0.0
12.381,1.24,-0.943,0.0
11.458,1.147,-0.939,0.0
10.78,1.079,-0.946,0.0
10.113,1.011,-0.945,0.0
14.274,1.421,-0.936,0.0
13.168,1.31,-0.939,0.0
12.214,1.214,-0.941,0.0
11.362,1.129,-0.941,0.0
10.724,1.065,-0.95,0.0
10.051,0.997,-0.948,0.0
14.101,1.393,-0.936,0.0
12.985,1.282,-0.936,0.0
12.034,1.187,-0.937,0.0
11.265,1.111,-0.943,0.0
10.571,1.041,-0.945,0.0
9.966,0.981,-0.948,0.0
0.0,0.0,0.0,0.0
12.833,1.257,-0.936,0.0
11.866,1.161,-0.933,0.0
11.153,1.09,-0.942,0.0
10.507,1.026,-0.948,0.0
9.839,0.96,-0.944,0.0
13.66,1.328,-0.929,0.0
12.719,1.235,-0.937,0.0
11.804,1.145,-0.937,0.0
11.085,1.074,-0.945,0.0
10.424,1.009,-0.948,0.0
9.789,0.947,-0.947,0.0
13.557,1.306,-0.932,0.0
12.586,1.211,-0.937,0.0
11.726,1.127,-0.94,0.0
11.003,1.056,-0.946,0.0
10.297,0.988,-0.944,0.0
9.729,0.932,-0.948,0.0
13.391,1.277,-0.93,0.0
12.474,1.189,-0.937,0.0
11.615,1.106,-0.939,0.0
10.921,1.039,-0.947,0.0
10.206,0.97,-0.943,0.0
9.66,0.917,-0.948,0.0
13.368,1.263,-0.937,0.0
12.352,1.165,-0.937,0.0
11.56,1.089,-0.942,0.0
10.818,1.019,-0.945,0.0
10.14,0.954,-0.944,0.0
9.561,0.898,-0.944,0.0
13.223,1.236,-0.936,0.0
12.256,1.145,-0.937,0.0
11.441,1.067,-0.94,0.0
10.74,1.001,-0.945,0.0
10.117,0.942,-0.948,0.0
9.466,0.88,-0.941,0.0
13.11,1.213,-0.936,0.0
12.123,1.12,-0.934,0.0
11.342,1.047,-0.939,0.0
10.749,0.991,-0.952,0.0
10.063,0.926,-0.949,0.0
9.437,0.868,-0.944,0.0
12.962,1.186,-0.933,0.0
12.035,1.099,-0.934,0.0
11.29,1.03,-0.941,0.0
10.708,0.976,-0.954,0.0
10.004,0.91,-0.949,0.0
9.404,0.855,-0.946,0.0
12.919,1.168,-0.936,0.0
12.0,1.083,-0.938,0.0
11.222,1.012,-0.941,0.0
10.629,0.957,-0.953,0.0
9.893,0.89,-0.943,0.0
9.337,0.839,-0.944,0.0
12.849,1.148,-0.938,0.0
11.879,1.06,-0.934,0.0
11.244,1.001,-0.948,0.0
0.0,0.0,0.0,0.0
9.866,0.876,-0.945,0.0
9.271,0.822,-0.941,0.0
12.77,1.127,-0.938,0.0
11.841,1.043,-0.937,0.0
11.078,0.974,-0.939,0.0
0.0,0.0,0.0,0.0
9.833,0.862,-0.947,0.0
9.259,0.811,-0.944,0.0
12.65,1.102,-0.934,0.0
11.805,1.026,-0.939,0.0
11.107,0.964,-0.946,0.0
10.338,0.896,-0.941,0.0
9.777,0.846,-0.945,0.0
9.213,0.796,-0.943,0.0
12.65,1.087,-0.939,0.0
11.764,1.009,-0.94,0.0
11.033,0.945,-0.944,0.0
10.3,0.88,-0.941,0.0
9.707,0.828,-0.942,0.0
9.173,0.782,-0.942,0.0
12.594,1.067,-0.939,0.0
11.687,0.988,-0.938,0.0
10.983,0.927,-0.944,0.0
10.312,0.869,-0.945,0.0
9.672,0.814,-0.942,0.0
9.153,0.769,-0.943,0.0
12.543,1.047,-0.94,0.0
11.666,0.972,-0.94,0.0
10.997,0.915,-0.948,0.0
10.256,0.852,-0.943,0.0
9.68,0.803,-0.945,0.0
9.118,0.755,-0.942,0.0
12.483,1.027,-0.938,0.0
11.62,0.954,-0.939,0.0
11.004,0.902,-0.951,0.0
10.231,0.837,-0.944,0.0
9.629,0.786,-0.943,0.0
9.121,0.743,-0.945,0.0
12.476,1.011,-0.941,0.0
11.587,0.937,-0.939,0.0
10.949,0.884,-0.949,0.0
10.231,0.824,-0.946,0.0
9.614,0.773,-0.943,0.0
9.073,0.728,-0.941,0.0
12.433,0.991,-0.94,0.0
11.55,0.919,-0.938,0.0
10.863,0.863,-0.943,0.0
10.166,0.806,-0.941,0.0
9.603,0.759,-0.944,0.0
9.102,0.718,-0.946,0.0
12.436,0.976,-0.942,0.0
11.579,0.906,-0.942,0.0
10.948,0.855,-0.952,0.0
10.176,0.793,-0.943,0.0
9.628,0.749,-0.947,0.0
9.105,0.707,-0.947,0.0
12.392,0.956,-0.94,0.0
11.529,0.887,-0.939,0.0
10.885,0.836,-0.948,0.0
10.137,0.777,-0.941,0.0
9.565,0.731,-0.942,0.0
9.087,0.693,-0.946,0.0
12.391,0.939,-0.94,0.0
11.525,0.872,-0.939,0.0
10.867,0.82,-0.947,0.0
10.146,0.764,-0.942,0.0
9.602,0.721,-0.946,0.0
9.091,0.681,-0.946,0.0
12.398,0.923,-0.941,0.0
11.576,0.86,-0.944,0.0
10.842,0.803,-0.944,0.0
10.115,0.748,-0.939,0.0
9.63,0.71,-0.948,0.0
9.053,0.666,-0.942,0.0
12.391,0.906,-0.94,0.0
11.53,0.841,-0.939,0.0
10.891,0.792,-0.948,0.0
10.166,0.738,-0.943,0.0
9.627,0.697,-0.947,0.0
9.076,0.655,-0.944,0.0
12.424,0.891,-0.942,0.0
11.563,0.827,-0.941,0.0
10.895,0.777,-0.948,0.0
10.185,0.725,-0.944,0.0
9.635,0.684,-0.947,0.0
9.086,0.643,-0.944,0.0
12.433,0.875,-0.941,0.0
11.58,0.812,-0.941,0.0
10.947,0.766,-0.951,0.0
10.216,0.713,-0.946,0.0
9.667,0.673,-0.949,0.0
9.122,0.633,-0.947,0.0
12.447,0.858,-0.94,0.0
11.613,0.798,-0.942,0.0
10.866,0.745,-0.942,0.0
10.26,0.701,-0.948,0.0
9.685,0.66,-0.949,0.0
9.135,0.621,-0.946,0.0
12.488,0.844,-0.941,0.0
11.637,0.784,-0.941,0.0
10.946,0.735,-0.947,0.0
10.259,0.687,-0.946,0.0
9.711,0.648,-0.949,0.0
9.169,0.61,-0.948,0.0
12.577,0.832,-0.945,0.0
11.697,0.771,-0.943,0.0
10.926,0.718,-0.942,0.0
10.306,0.675,-0.947,0.0
9.709,0.634,-0.946,0.0
9.194,0.599,-0.948,0.0
12.581,0.814,-0.941,0.0
11.701,0.755,-0.94,0.0
11.007,0.708,-0.946,0.0
10.326,0.662,-0.946,0.0
9.744,0.623,-0.947,0.0
9.231,0.588,-0.948,0.0
12.641,0.8,-0.942,0.0
11.772,0.742,-0.942,0.0
11.13,0.7,-0.952,0.0
10.38,0.65,-0.947,0.0
9.793,0.612,-0.948,0.0
9.243,0.575,-0.946,0.0
12.734,0.788,-0.944,0.0
11.815,0.728,-0.941,0.0
11.062,0.679,-0.942,0.0
10.426,0.638,-0.947,0.0
9.836,0.6,-0.948,0.0
9.307,0.566,-0.949,0.0
12.785,0.772,-0.942,0.0
11.879,0.715,-0.941,0.0
11.115,0.666,-0.942,0.0
10.454,0.625,-0.945,0.0
9.887,0.589,-0.949,0.0
9.342,0.554,-0.948,0.0
12.883,0.759,-0.944,0.0
11.95,0.702,-0.941,0.0
11.24,0.658,-0.947,0.0
10.511,0.613,-0.945,0.0
9.912,0.576,-0.946,0.0
9.372,0.542,-0.947,0.0
12.974,0.746,-0.944,0.0
12.044,0.69,-0.942,0.0
11.303,0.645,-0.947,0.0
10.519,0.598,-0.94,0.0
9.991,0.566,-0.948,0.0
9.443,0.533,-0.949,0.0
13.067,0.732,-0.943,0.0
12.096,0.675,-0.94,0.0
11.312,0.629,-0.941,0.0
10.64,0.589,-0.945,0.0
10.053,0.555,-0.948,0.0
9.486,0.521,-0.947,0.0
13.173,0.719,-0.943,0.0
12.227,0.665,-0.943,0.0
11.392,0.617,-0.941,0.0
10.676,0.576,-0.942,0.0
10.14,0.545,-0.95,0.0
9.571,0.512,-0.95,0.0
13.264,0.705,-0.941,0.0
12.35,0.653,-0.944,0.0
11.53,0.607,-0.945,0.0
10.777,0.565,-0.943,0.0
10.194,0.532,-0.948,0.0
9.616,0.5,-0.948,0.0
13.411,0.693,-0.943,0.0
12.43,0.639,-0.942,0.0
11.642,0.596,-0.946,0.0
10.88,0.555,-0.945,0.0
10.261,0.521,-0.947,0.0
9.708,0.491,-0.95,0.0
13.503,0.678,-0.939,0.0
12.606,0.63,-0.946,0.0
11.701,0.582,-0.942,0.0
10.964,0.543,-0.944,0.0
10.368,0.512,-0.949,0.0
9.793,0.481,-0.951,0.0
13.596,0.663,-0.936,0.0
12.727,0.618,-0.945,0.0
11.824,0.571,-0.943,0.0
11.076,0.533,-0.945,0.0
10.447,0.5,-0.948,0.0
9.851,0.469,-0.948,0.0
13.913,0.659,-0.946,0.0
12.846,0.605,-0.944,0.0
11.976,0.561,-0.945,0.0
11.187,0.522,-0.945,0.0
10.536,0.489,-0.948,0.0
9.949,0.46,-0.949,0.0
20.228,0.929,-1.359,0.0
13.018,0.595,-0.945,0.0
12.14,0.552,-0.947,0.0
11.315,0.512,-0.946,0.0
10.64,0.479,-0.947,0.0
10.072,0.451,-0.952,0.0
14.285,0.635,-0.946,0.0
13.122,0.58,-0.941,0.0
12.231,0.538,-0.943,0.0
11.453,0.501,-0.947,0.0
10.718,0.467,-0.944,0.0
10.166,0.44,-0.951,0.0
14.429,0.621,-0.942,0.0
13.34,0.571,-0.944,0.0
12.418,0.529,-0.946,0.0
11.539,0.489,-0.943,0.0
10.866,0.458,-0.947,0.0
10.265,0.43,-0.951,0.0
14.596,0.607,-0.939,0.0
13.433,0.556,-0.937,0.0
12.601,0.518,-0.947,0.0
11.704,0.479,-0.945,0.0
10.986,0.447,-0.946,0.0
10.349,0.419,-0.948,0.0
14.807,0.596,-0.938,0.0
0.0,0.0,0.0,0.0
12.816,0.509,-0.95,0.0
11.868,0.469,-0.945,0.0
11.163,0.439,-0.95,0.0
10.456,0.408,-0.946,0.0
15.055,0.584,-0.938,0.0
0.0,0.0,0.0,0.0
12.977,0.498,-0.948,0.0
12.044,0.459,-0.946,0.0
11.287,0.428,-0.948,0.0
10.594,0.399,-0.947,0.0
15.293,0.572,-0.936,0.0
14.301,0.532,-0.952,0.0
13.121,0.485,-0.944,0.0
12.201,0.448,-0.945,0.0
11.446,0.418,-0.948,0.0
10.698,0.388,-0.944,0.0
15.536,0.56,-0.933,0.0
14.508,0.52,-0.949,0.0
13.329,0.474,-0.944,0.0
12.46,0.441,-0.951,0.0
11.592,0.407,-0.947,0.0
10.875,0.38,-0.947,0.0
15.977,0.554,-0.941,0.0
14.672,0.505,-0.942,0.0
13.545,0.464,-0.943,0.0
12.613,0.429,-0.947,0.0
11.779,0.398,-0.948,0.0
11.088,0.372,-0.952,0.0
16.19,0.54,-0.933,0.0
14.92,0.494,-0.94,0.0
0.0,0.0,0.0,0.0
12.833,0.419,-0.947,0.0
11.977,0.388,-0.949,0.0
11.214,0.361,-0.949,0.0
16.518,0.528,-0.931,0.0
15.162,0.481,-0.936,0.0
14.204,0.448,-0.953,0.0
13.069,0.409,-0.948,0.0
12.212,0.38,-0.952,0.0
11.378,0.351,-0.948,0.0
16.813,0.516,-0.927,0.0
15.475,0.471,-0.936,0.0
14.435,0.436,-0.95,0.0
13.316,0.4,-0.949,0.0
12.39,0.369,-0.949,0.0
11.549,0.342,-0.947,0.0
17.188,0.505,-0.925,0.0
15.87,0.463,-0.938,0.0
14.605,0.423,-0.941,0.0
13.571,0.39,-0.949,0.0
12.662,0.361,-0.953,0.0
11.762,0.333,-0.948,0.0
17.811,0.501,-0.934,0.0
16.232,0.453,-0.938,0.0
14.928,0.413,-0.942,0.0
0.0,0.0,0.0,0.0
12.874,0.351,-0.951,0.0
12.011,0.325,-0.951,0.0
18.128,0.487,-0.925,0.0
16.566,0.441,-0.934,0.0
15.252,0.403,-0.941,0.0
14.218,0.373,-0.954,0.0
13.155,0.342,-0.953,0.0
12.258,0.316,-0.953,0.0
18.662,0.478,-0.926,0.0
16.912,0.429,-0.928,0.0
15.593,0.393,-0.939,0.0
14.509,0.362,-0.952,0.0
13.385,0.331,-0.95,0.0
12.473,0.306,-0.951,0.0
18.973,0.462,-0.913,0.0
17.371,0.42,-0.928,0.0
16.029,0.384,-0.941,0.0
14.734,0.35,-0.945,0.0
13.604,0.32,-0.945,0.0
12.778,0.298,-0.955,0.0
19.772,0.458,-0.922,0.0
17.994,0.413,-0.934,0.0
16.394,0.373,-0.938,0.0
15.049,0.339,-0.942,0.0
14.121,0.315,-0.959,0.0
13.023,0.288,-0.954,0.0
20.406,0.449,-0.92,0.0
18.482,0.403,-0.931,0.0
16.75,0.362,-0.932,0.0
15.4,0.329,-0.94,0.0
14.404,0.305,-0.956,0.0
13.324,0.28,-0.955,0.0
20.96,0.437,-0.912,0.0
18.812,0.388,-0.918,0.0
17.182,0.351,-0.929,0.0
15.859,0.321,-0.943,0.0
14.647,0.293,-0.948,0.0
13.557,0.269,-0.95,0.0
21.931,0.432,-0.919,0.0
19.561,0.382,-0.923,0.0
17.845,0.344,-0.936,0.0
16.262,0.311,-0.94,0.0
15.013,0.284,-0.947,0.0
13.903,0.26,-0.951,0.0
22.579,0.42,-0.91,0.0
20.198,0.372,-0.92,0.0
18.357,0.334,-0.933,0.0
16.665,0.3,-0.936,0.0
15.405,0.274,-0.947,0.0
14.38,0.254,-0.959,0.0
23.353,0.409,-0.902,0.0
20.236,0.35,-0.888,9.0
18.814,0.322,-0.924,0.0
17.076,0.289,-0.93,0.0
15.806,0.265,-0.944,0.0
14.644,0.243,-0.952,0.0
24.446,0.402,-0.903,0.0
20.12,0.327,-0.848,7.0
19.983,0.321,-0.947,0.0
17.747,0.282,-0.936,0.0
16.294,0.256,-0.946,0.0
14.985,0.233,-0.948,0.0
25.356,0.391,-0.892,0.0
20.195,0.308,-0.817,3.0
20.269,0.305,-0.926,8.0
18.388,0.274,-0.938,0.0
16.671,0.245,-0.938,0.0
15.377,0.223,-0.946,0.0
20.221,0.292,-0.676,11.0
20.23,0.288,-0.783,20.0
20.221,0.284,-0.888,11.0
18.497,0.257,-0.911,12.0
17.272,0.237,-0.941,0.0
15.867,0.215,-0.948,0.0
20.23,0.272,-0.641,27.0
20.221,0.268,-0.746,27.0
20.174,0.264,-0.85,15.0
18.565,0.24,-0.881,1.0
17.69,0.225,-0.932,2.0
16.323,0.205,-0.945,0.0
20.204,0.252,-0.603,31.0
20.212,0.249,-0.709,30.0
0.0,0.0,0.0,0.0
20.237,0.242,-0.923,5.0
18.471,0.218,-0.939,7.0
16.82,0.196,-0.943,0.0
20.19,0.234,-0.566,35.0
20.206,0.23,-0.672,32.0
20.205,0.227,-0.777,33.0
18.559,0.206,-0.812,151.0
18.529,0.202,-0.908,35.0
18.196,0.196,-0.987,3.0
20.179,0.215,-0.528,35.0
20.199,0.213,-0.634,30.0
0.0,0.0,0.0,0.0
18.508,0.189,-0.776,158.0
18.544,0.187,-0.874,58.0
18.202,0.18,-0.953,3.0
20.18,0.198,-0.491,31.0
20.201,0.195,-0.596,26.0
19.295,0.184,-0.67,25.0
18.516,0.173,-0.741,161.0
18.549,0.171,-0.839,150.0
18.51,0.168,-0.934,19.0
20.184,0.182,-0.452,29.0
20.211,0.179,-0.558,22.0
21.674,0.189,-0.711,150.0
18.572,0.159,-0.707,150.0
18.499,0.155,-0.801,160.0
18.537,0.153,-0.899,61.0
20.186,0.165,-0.413,28.0
20.192,0.162,-0.518,19.0
21.627,0.171,-0.667,12.0
21.615,0.168,-0.781,156.0
18.511,0.141,-0.765,158.0
18.544,0.139,-0.863,32.0
20.186,0.15,-0.374,30.0
20.196,0.147,-0.479,10.0
21.66,0.155,-0.626,10.0
21.619,0.152,-0.739,176.0
21.598,0.149,-0.85,48.0
18.568,0.126,-0.828,150.0
20.196,0.135,-0.334,29.0
20.209,0.133,-0.439,1.0
32.778,0.211,-0.883,0.0
21.679,0.137,-0.698,151.0
21.641,0.134,-0.81,156.0
21.604,0.131,-0.92,150.0
20.207,0.121,-0.294,28.0
20.194,0.119,-0.399,1.0
0.0,0.0,0.0,0.0
21.666,0.122,-0.655,11.0
21.616,0.119,-0.765,160.0
21.648,0.117,-0.878,76.0
20.204,0.108,-0.254,26.0
20.196,0.105,-0.358,1.0
0.0,0.0,0.0,0.0
31.376,0.157,-0.886,0.0
21.689,0.106,-0.724,150.0
21.657,0.103,-0.836,35.0
20.178,0.095,-0.214,18.0
20.206,0.093,-0.318,0.0
38.479,0.173,-0.806,0.0
32.659,0.144,-0.856,1.0
28.329,0.121,-0.889,0.0
21.659,0.09,-0.792,21.0
20.218,0.083,-0.173,28.0
20.2,0.081,-0.278,0.0
42.145,0.165,-0.797,0.0
0.0,0.0,0.0,0.0
31.212,0.116,-0.916,3.0
21.659,0.078,-0.748,0.0
20.211,0.072,-0.132,27.0
20.229,0.07,-0.237,1.0
20.192,0.068,-0.34,0.0
37.601,0.124,-0.832,0.0
33.079,0.105,-0.903,1.0
20.253,0.063,-0.658,0.0
20.221,0.061,-0.091,25.0
20.221,0.06,-0.195,13.0
20.225,0.058,-0.299,0.0
20.235,0.056,-0.406,1.0
33.248,0.089,-0.839,6.0
20.237,0.052,-0.615,10.0
20.283,0.052,-0.049,6.0
20.255,0.05,-0.153,27.0
20.248,0.048,-0.258,35.0
20.269,0.047,-0.364,71.0
20.249,0.045,-0.468,50.0
20.262,0.043,-0.573,63.0
20.277,0.042,-0.006,80.0
20.266,0.041,-0.111,151.0
20.26,0.039,-0.215,151.0
20.262,0.038,-0.321,150.0
20.264,0.036,-0.426,150.0
20.263,0.035,-0.53,150.0
20.253,0.034,0.035,60.0
20.258,0.032,-0.068,152.0
20.257,0.031,-0.172,151.0
20.259,0.03,-0.279,151.0
20.258,0.028,-0.383,151.0
20.265,0.027,-0.488,150.0
20.151,0.026,0.078,29.0
20.233,0.025,-0.025,153.0
20.263,0.023,-0.13,151.0
20.267,0.022,-0.236,151.0
20.264,0.021,-0.34,150.0
20.269,0.02,-0.445,118.0
20.132,0.019,0.12,29.0
20.272,0.018,0.017,151.0
20.255,0.017,-0.087,152.0
20.247,0.016,-0.193,151.0
20.274,0.015,-0.298,150.0
20.26,0.013,-0.401,54.0
20.128,0.013,0.163,28.0
20.17,0.012,0.059,31.0
20.252,0.011,-0.044,151.0
20.273,0.01,-0.15,72.0
20.255,0.009,-0.254,23.0
20.233,0.008,-0.358,8.0
20.121,0.007,0.205,27.0
20.133,0.006,0.102,31.0
20.261,0.006,-0.001,37.0
20.209,0.005,-0.107,20.0
20.227,0.004,-0.211,9.0
20.233,0.003,-0.315,5.0
20.121,0.002,0.248,27.0
20.124,0.002,0.145,27.0
20.163,0.001,0.041,20.0
20.208,0.0,-0.064,19.0
20.193,0.0,-0.168,14.0
20.211,0.0,-0.271,6.0
20.13,-0.001,0.291,28.0
20.122,-0.001,0.188,28.0
20.136,-0.002,0.084,31.0
20.16,-0.002,-0.021,11.0
20.166,-0.003,-0.124,16.0
20.216,-0.003,-0.228,2.0
20.12,-0.004,0.334,29.0
20.119,-0.004,0.231,26.0
20.131,-0.005,0.127,27.0
20.127,-0.005,0.022,17.0
20.178,-0.005,-0.081,16.0
20.171,-0.006,-0.184,12.0
20.122,-0.006,0.378,27.0
20.132,-0.007,0.274,26.0
20.109,-0.007,0.171,28.0
20.13,-0.007,0.065,29.0
20.123,-0.007,-0.037,15.0
20.183,-0.008,-0.141,23.0
20.127,-0.008,0.421,29.0
20.118,-0.008,0.317,29.0
20.123,-0.008,0.214,27.0
20.112,-0.008,0.109,32.0
20.126,-0.008,0.005,17.0
20.195,-0.009,-0.098,19.0
20.13,-0.009,0.465,28.0
20.126,-0.009,0.361,27.0
20.121,-0.009,0.257,24.0
20.113,-0.009,0.152,27.0
20.128,-0.009,0.048,29.0
20.15,-0.009,-0.054,18.0
20.15,-0.009,0.508,23.0
20.139,-0.009,0.404,28.0
20.117,-0.009,0.3,28.0
20.112,-0.009,0.195,29.0
20.124,-0.009,0.091,34.0
20.132,-0.008,-0.011,15.0
20.161,-0.009,0.552,24.0
20.13,-0.008,0.447,28.0
20.115,-0.008,0.343,28.0
20.123,-0.008,0.238,25.0
20.126,-0.007,0.134,26.0
20.145,-0.007,0.03,23.0
20.177,-0.007,0.595,26.0
20.144,-0.007,0.49,24.0
20.127,-0.007,0.386,26.0
20.121,-0.006,0.28,26.0
20.119,-0.006,0.177,28.0
20.132,-0.005,0.073,33.0
20.198,-0.005,0.638,38.0
20.153,-0.005,0.533,20.0
20.127,-0.004,0.429,28.0
20.12,-0.004,0.323,28.0
20.116,-0.003,0.22,26.0
20.121,-0.002,0.116,30.0
20.165,-0.003,0.68,30.0
20.182,-0.002,0.577,26.0
20.137,-0.001,0.472,25.0
20.122,0.0,0.366,25.0
20.12,0.0,0.262,25.0
20.12,0.0,0.159,29.0
20.139,0.0,0.722,29.0
20.183,0.001,0.62,29.0
20.142,0.002,0.515,20.0
20.125,0.003,0.409,27.0
20.122,0.003,0.305,26.0
20.116,0.004,0.201,25.0
20.116,0.004,0.764,29.0
20.179,0.005,0.662,43.0
20.165,0.006,0.558,26.0
20.129,0.007,0.451,27.0
20.129,0.008,0.348,25.0
20.116,0.009,0.244,26.0
20.117,0.009,0.807,27.0
20.132,0.01,0.704,28.0
20.183,0.012,0.601,29.0
20.134,0.013,0.494,22.0
20.132,0.014,0.39,26.0
20.128,0.015,0.286,27.0
20.114,0.015,0.849,28.0
20.108,0.016,0.745,29.0
20.183,0.018,0.643,49.0
20.169,0.019,0.537,25.0
20.139,0.02,0.432,28.0
20.122,0.022,0.327,25.0
20.098,0.021,0.89,18.0
20.116,0.023,0.787,28.0
20.14,0.024,0.683,29.0
20.184,0.026,0.579,28.0
20.142,0.027,0.474,25.0
20.129,0.029,0.369,25.0
66.753,0.096,3.095,15.0
20.105,0.03,0.828,27.0
20.111,0.032,0.724,29.0
20.183,0.034,0.62,37.0
20.158,0.035,0.515,24.0
20.139,0.037,0.411,29.0
66.763,0.123,3.233,64.0
20.107,0.038,0.869,20.0
20.102,0.04,0.765,23.0
20.174,0.042,0.661,34.0
20.175,0.044,0.557,26.0
20.15,0.045,0.452,29.0
66.727,0.151,3.369,57.0
20.116,0.047,0.911,9.0
20.102,0.049,0.806,24.0
20.113,0.051,0.701,29.0
20.193,0.053,0.599,31.0
20.158,0.055,0.494,25.0
66.694,0.183,3.505,22.0
66.948,0.19,3.17,42.0
20.108,0.059,0.848,23.0
20.111,0.061,0.742,25.0
20.211,0.063,0.641,30.0
20.177,0.065,0.535,24.0
59.415,0.192,3.242,44.0
66.965,0.224,3.305,27.0
20.103,0.069,0.888,12.0
20.125,0.071,0.782,22.0
20.189,0.073,0.68,25.0
20.192,0.076,0.575,26.0
59.461,0.224,3.362,21.0
66.798,0.259,3.43,39.0
66.054,0.264,3.048,12.0
20.102,0.082,0.821,19.0
20.143,0.085,0.718,28.0
20.203,0.087,0.615,18.0
59.481,0.258,3.481,18.0
66.976,0.298,3.571,42.0
103.592,0.474,4.983,18.0
20.119,0.094,0.861,16.0
20.155,0.096,0.758,23.0
107.19,0.529,3.476,29.0
67.187,0.333,4.065,25.0
67.133,0.34,3.711,14.0
100.5,0.522,5.033,11.0
66.0,0.351,2.954,13.0
20.18,0.109,0.798,20.0
102.516,0.571,3.524,39.0
46.223,0.258,2.887,48.0
59.494,0.34,3.406,18.0
66.879,0.391,3.479,25.0
65.922,0.394,3.08,34.0
20.174,0.123,0.837,3.0
102.439,0.639,3.718,39.0
46.248,0.289,2.977,49.0
59.469,0.38,3.518,43.0
66.914,0.437,3.609,25.0
65.855,0.439,3.202,10.0
101.856,0.693,4.421,50.0
102.195,0.709,3.903,38.0
46.254,0.322,3.065,4.0
59.419,0.422,3.627,24.0
101.352,0.734,5.657,19.0
101.444,0.749,5.123,14.0
65.878,0.495,2.982,5.0
102.054,0.783,4.088,30.0
67.204,0.517,4.58,16.0
46.262,0.362,2.911,9.0
101.279,0.809,5.842,10.0
66.397,0.54,3.476,43.0
65.849,0.545,3.103,13.0
102.033,0.86,4.276,39.0
67.228,0.569,4.707,20.0
46.274,0.398,2.997,39.0
59.653,0.523,3.55,6.0
67.022,0.597,3.631,41.0
65.883,0.597,3.225,17.0
111.722,1.03,4.883,7.0
67.308,0.623,4.835,8.0
46.279,0.436,3.081,52.0
59.611,0.57,3.656,28.0
67.08,0.652,3.755,25.0
65.955,0.651,3.346,30.0
111.671,1.121,5.082,13.0
67.359,0.679,4.959,7.0
46.299,0.474,3.165,12.0
59.572,0.619,3.76,62.0
101.552,1.073,5.866,12.0
66.018,0.708,3.466,32.0
111.592,1.215,5.275,17.0
67.315,0.737,5.077,9.0
46.362,0.515,3.252,2.0
59.527,0.671,3.862,48.0
109.897,1.257,6.541,9.0
66.242,0.768,3.594,40.0
101.981,1.201,4.998,5.0
67.165,0.794,5.182,13.0
46.4,0.556,3.335,14.0
59.615,0.725,3.97,25.0
109.953,1.356,6.733,12.0
66.957,0.837,3.748,33.0
102.049,1.293,5.176,11.0
67.145,0.856,5.296,16.0
46.414,0.599,3.415,3.0
59.648,0.78,4.074,26.0
101.528,1.347,6.39,9.0
67.406,0.906,3.887,42.0
102.12,1.39,5.351,12.0
43.226,0.591,3.483,6.0
46.432,0.643,3.494,10.0
59.391,0.833,4.156,33.0
101.929,1.449,6.585,9.0
67.494,0.972,4.003,28.0
66.172,0.964,3.576,12.0
51.423,0.753,4.228,1.0
46.435,0.688,3.571,58.0
59.297,0.89,4.246,7.0
101.554,1.543,6.726,9.0
67.526,1.038,4.114,55.0
66.209,1.03,3.685,29.0
44.159,0.691,3.703,6.0
46.425,0.734,3.646,89.0
67.825,1.085,4.966,21.0
67.656,1.095,4.589,40.0
67.552,1.106,4.224,33.0
66.229,1.097,3.79,25.0
43.33,0.721,3.702,5.0
46.441,0.782,3.72,44.0
67.765,1.154,5.068,6.0
67.958,1.17,4.715,7.0
67.618,1.177,4.334,29.0
66.216,1.165,3.893,29.0
46.469,0.823,4.043,7.0
46.697,0.835,3.814,6.0
42.587,0.77,3.251,2.0
102.103,1.866,7.243,8.0
67.677,1.25,4.44,13.0
66.21,1.235,3.993,25.0
40.414,0.759,3.578,16.0
43.363,0.822,3.607,18.0
52.685,1.009,4.102,5.0
53.39,1.033,3.867,7.0
67.861,1.327,4.554,11.0
66.216,1.308,4.092,24.0
46.532,0.924,4.189,5.0
46.502,0.932,3.937,9.0
57.945,1.173,4.597,6.0
65.441,1.338,4.836,2.0
66.292,1.368,4.545,21.0
66.22,1.38,4.187,17.0
40.237,0.844,3.681,19.0
46.485,0.984,4.003,28.0
52.25,1.116,4.22,9.0
59.907,1.292,4.512,13.0
66.334,1.444,4.642,18.0
66.12,1.452,4.274,4.0
52.603,1.163,4.887,6.0
40.405,0.901,3.536,14.0
52.224,1.175,4.291,7.0
57.66,1.309,4.423,13.0
67.999,1.558,4.853,15.0
66.053,1.527,4.362,24.0
46.564,1.083,4.39,4.0
40.379,0.947,3.59,2.0
43.092,1.02,3.6,14.0
57.76,1.379,4.51,20.0
68.028,1.638,4.947,6.0
53.533,1.299,3.606,7.0
46.567,1.138,4.454,7.0
46.408,1.143,4.189,1.0
43.18,1.073,3.665,16.0
52.155,1.307,4.141,19.0
65.977,1.666,4.885,23.0
53.713,1.368,3.688,3.0
53.122,1.362,5.15,14.0
40.434,1.044,3.702,66.0
40.434,1.053,3.484,6.0
52.116,1.368,4.205,10.0
65.921,1.744,4.964,6.0
68.041,1.815,4.759,15.0
53.768,1.443,5.282,6.0
40.368,1.092,3.747,64.0
40.4,1.101,3.532,19.0
43.598,1.197,3.572,4.0
52.512,1.453,4.019,5.0
53.003,1.477,3.772,5.0
60.466,1.697,6.014,6.0
52.943,1.497,4.979,5.0
52.46,1.494,4.65,8.0
42.903,1.231,3.567,2.0
52.108,1.506,4.051,2.0
68.326,1.99,4.944,4.0
59.299,1.739,5.969,5.0
53.141,1.569,5.061,8.0
40.425,1.202,3.631,38.0
43.685,1.308,3.683,12.0
52.012,1.568,4.104,4.0
51.905,1.576,3.815,1.0
52.449,1.603,5.34,6.0
53.67,1.652,5.172,7.0
40.421,1.252,3.676,44.0
52.574,1.64,4.491,6.0
58.072,1.824,4.646,6.0
68.039,2.152,5.077,1.0
59.747,1.902,6.149,4.0
53.198,1.704,5.185,1.0
46.283,1.493,4.26,7.0
46.777,1.518,4.046,13.0
50.092,1.636,4.061,4.0
43.098,1.418,3.261,2.0
58.759,1.946,6.11,5.0
43.364,1.445,4.273,3.0
43.664,1.464,4.064,8.0
46.832,1.58,4.1,3.0
51.034,1.733,4.19,2.0
52.079,1.78,3.994,10.0
46.181,1.589,4.849,5.0
52.412,1.814,5.217,5.0
43.678,1.521,4.109,5.0
46.894,1.643,4.152,8.0
42.596,1.501,3.54,1.0
52.069,1.847,4.044,21.0
46.685,1.667,4.948,7.0
54.373,1.953,5.466,1.0
53.145,1.92,5.052,7.0
53.137,1.931,4.756,17.0
50.717,1.854,4.263,4.0
51.985,1.912,4.087,25.0
46.836,1.734,5.009,3.0
46.022,1.714,4.669,3.0
43.703,1.637,4.195,2.0
57.365,2.16,5.187,5.0
50.669,1.919,4.305,4.0
68.153,2.595,5.419,4.0
60.063,2.303,6.477,7.0
60.363,2.328,6.178,5.0
52.613,2.039,5.097,6.0
53.555,2.087,4.889,4.0
46.945,1.84,4.029,8.0
0.0,0.0,0.0,0.0
46.214,1.833,5.024,8.0
46.102,1.839,4.758,8.0
52.567,2.108,5.136,3.0
46.065,1.857,4.244,3.0
46.992,1.904,4.071,10.0
52.505,2.139,4.262,5.0
46.191,1.895,5.059,7.0
46.902,1.934,4.879,5.0
60.251,2.497,5.935,3.0
46.054,1.918,4.279,10.0
47.066,1.97,4.115,7.0
0.0,0.0,0.0,0.0
46.384,1.965,5.116,13.0
46.681,1.987,4.891,9.0
43.961,1.88,4.363,2.0
46.019,1.978,4.31,6.0
50.68,2.188,4.468,1.0
43.653,1.894,3.609,3.0
46.671,2.039,5.181,10.0
59.97,2.633,6.326,5.0
45.904,2.025,4.589,2.0
46.034,2.04,4.343,5.0
50.498,2.249,4.486,1.0
52.69,2.357,4.392,1.0
46.887,2.112,5.237,10.0
59.764,2.704,6.345,7.0
59.18,2.69,5.955,3.0
43.455,1.984,4.128,3.0
50.445,2.314,4.515,0.0
47.079,2.17,3.954,8.0
47.058,2.184,5.287,5.0
59.697,2.783,6.376,3.0
46.434,2.174,4.702,6.0
43.485,2.045,4.158,3.0
45.88,2.167,4.134,2.0
47.113,2.235,3.985,12.0
47.199,2.255,5.331,6.0
46.236,2.218,4.965,7.0
59.139,2.85,6.023,5.0
43.48,2.103,4.183,3.0
59.717,2.901,5.414,4.0
47.097,2.298,4.01,10.0
59.773,2.937,6.784,13.0
46.184,2.279,4.985,5.0
46.739,2.316,4.785,4.0
43.491,2.163,4.207,2.0
59.827,2.988,5.455,3.0
47.139,2.364,4.038,8.0
60.352,3.048,6.88,2.0
46.235,2.343,5.013,20.0
46.731,2.378,4.807,4.0
45.479,2.324,4.421,3.0
45.942,2.356,4.211,5.0
47.214,2.431,4.066,7.0
47.392,2.457,5.425,1.0
46.312,2.41,5.042,17.0
46.874,2.448,4.842,3.0
45.686,2.395,4.46,5.0
45.923,2.417,4.229,3.0
47.17,2.492,4.082,12.0
47.557,2.53,5.463,2.0
45.985,2.456,5.026,20.0
46.911,2.514,4.865,2.0
45.64,2.455,4.474,1.0
45.629,2.463,4.219,3.0
46.984,2.546,4.083,17.0
47.617,2.598,5.488,1.0
46.25,2.532,5.071,3.0
52.453,2.882,5.458,4.0
43.445,2.395,4.274,1.0
0.0,0.0,0.0,0.0
45.987,2.571,5.315,4.0
46.212,2.592,5.082,1.0
46.324,2.607,4.835,2.0
45.657,2.578,4.505,5.0
45.932,2.602,4.276,3.0
45.872,2.608,4.015,4.0
46.589,2.667,5.398,0.0
46.292,2.659,5.103,3.0
46.478,2.678,4.863,3.0
43.476,2.513,4.301,2.0
45.9,2.662,4.285,3.0
0.0,0.0,0.0,0.0
0.0,0.0,0.0,0.0
46.236,2.717,5.108,1.0
46.307,2.729,4.856,3.0
47.25,2.793,4.685,1.0
45.822,2.718,4.287,4.0
47.374,2.819,4.167,4.0
0.0,0.0,0.0,0.0
46.226,2.777,5.115,2.0
45.541,2.744,4.783,3.0
45.486,2.758,4.263,2.0
47.45,2.886,4.181,8.0
0.0,0.0,0.0,0.0
46.197,2.837,5.118,3.0
45.695,2.83,4.287,4.0
0.0,0.0,0.0,0.0
0.0,0.0,0.0,0.0
46.204,2.898,5.123,2.0
45.602,2.884,4.282,3.0
0.0,0.0,0.0,0.0
47.143,3.01,5.496,1.0
46.296,2.963,5.136,1.0
46.068,2.957,4.85,2.0
45.563,2.94,4.279,1.0
47.151,3.071,5.498,2.0
0.0,0.0,0.0,0.0
46.168,3.022,4.861,1.0
47.147,3.131,5.496,0.0
0.0,0.0,0.0,0.0
46.185,3.082,4.86,1.0
45.373,3.035,4.514,2.0
45.851,3.075,4.303,1.0
0.0,0.0,0.0,0.0
0.0,0.0,0.0,0.0
46.209,3.142,4.858,1.0
45.666,3.112,4.538,2.0
47.815,3.266,4.482,3.0
46.231,3.186,5.38,2.0
0.0,0.0,0.0,0.0
46.209,3.199,4.852,1.0
45.544,3.16,4.52,4.0
45.64,3.174,4.271,5.0
46.202,3.241,5.369,2.0
0.0,0.0,0.0,0.0
46.24,3.257,4.847,0.0
45.481,3.21,4.505,7.0
47.388,3.352,4.426,1.0
0.0,0.0,0.0,0.0
0.0,0.0,0.0,0.0
46.182,3.308,4.831,1.0
45.572,3.271,4.504,5.0
47.366,3.406,4.413,1.0
45.629,3.289,3.993,1.0
0.0,0.0,0.0,0.0
0.0,0.0,0.0,0.0
45.585,3.325,4.493,1.0
45.544,3.335,3.973,2.0
0.0,0.0,0.0,0.0
0.0,0.0,0.0,0.0
45.438,3.379,3.949,1.0
0.0,0.0,0.0,0.0
0.0,0.0,0.0,0.0
45.389,3.427,3.928,0.0
0.0,0.0,0.0,0.0
0.0,0.0,0.0,0.0
45.375,3.476,3.908,1.0
0.0,0.0,0.0,0.0
0.0,0.0,0.0,0.0
45.449,3.513,4.675,3.0
110.21,8.561,9.445,2.0
0.0,0.0,0.0,0.0
0.0,0.0,0.0,0.0
45.91,3.603,4.434,1.0
114.302,8.985,10.39,7.0
114.68,9.029,9.772,7.0
0.0,0.0,0.0,0.0
0.0,0.0,0.0,0.0
45.918,3.652,4.411,2.0
112.288,8.943,10.148,1.0
116.121,9.263,9.833,2.0
0.0,0.0,0.0,0.0
45.262,3.636,4.846,4.0
0.0,0.0,0.0,0.0
46.05,3.708,4.399,1.0
115.95,9.351,10.414,3.0
116.231,9.388,9.777,4.0
45.154,3.668,5.068,1.0
0.0,0.0,0.0,0.0
0.0,0.0,0.0,0.0
116.156,9.47,11.026,10.0
116.161,9.483,10.363,7.0
116.206,9.499,9.705,7.0
0.0,0.0,0.0,0.0
0.0,0.0,0.0,0.0
0.0,0.0,0.0,0.0
114.817,9.47,10.827,7.0
117.765,9.724,10.433,8.0
117.884,9.747,9.771,8.0
0.0,0.0,0.0,0.0
0.0,0.0,0.0,0.0
115.769,9.644,11.516,2.0
115.803,9.659,10.843,3.0
112.782,9.418,9.915,6.0
112.679,9.419,9.264,10.0
0.0,0.0,0.0,0.0
0.0,0.0,0.0,0.0
0.0,0.0,0.0,0.0
0.0,0.0,0.0,0.0
115.592,9.754,10.082,2.0
115.464,9.754,9.411,7.0
0.0,0.0,0.0,0.0
114.801,9.758,11.916,7.0
114.952,9.779,11.272,2.0
115.335,9.821,10.635,2.0
115.096,9.81,9.954,2.0
96.401,8.225,7.787,5.0
0.0,0.0,0.0,0.0
0.0,0.0,0.0,0.0
114.949,9.875,11.183,6.0
115.045,9.892,10.52,1.0
115.009,9.899,9.857,2.0
114.992,9.907,9.197,5.0
0.0,0.0,0.0,0.0
115.078,9.971,11.766,15.0
114.856,9.96,11.082,18.0
114.986,9.979,10.422,22.0
115.005,9.989,9.764,15.0
111.978,9.736,8.865,4.0
0.0,0.0,0.0,0.0
114.978,10.053,11.659,5.0
114.735,10.039,10.973,5.0
113.951,9.978,10.232,9.0
99.531,8.722,8.366,5.0
96.23,8.439,7.538,4.0
0.0,0.0,0.0,0.0
114.792,10.122,11.541,6.0
115.467,10.188,10.943,2.0
109.585,9.676,9.744,7.0
99.423,8.785,8.27,3.0
112.904,9.984,8.744,4.0
0.0,0.0,0.0,0.0
115.127,10.234,11.471,2.0
0.0,0.0,0.0,0.0
86.172,7.669,7.585,1.0
86.459,7.7,7.113,1.0
84.833,7.561,6.493,5.0
114.911,10.288,12.006,2.0
114.731,10.277,11.324,9.0
114.803,10.289,10.669,3.0
0.0,0.0,0.0,0.0
91.514,8.211,7.443,1.0
84.74,7.608,6.406,2.0
115.262,10.394,11.932,2.0
0.0,0.0,0.0,0.0
0.0,0.0,0.0,0.0
107.937,9.747,9.295,6.0
99.085,8.953,7.963,1.0
96.498,8.724,7.201,4.0
0.0,0.0,0.0,0.0
0.0,0.0,0.0,0.0
114.941,10.444,10.458,3.0
107.087,9.734,9.115,2.0
98.283,8.938,7.8,7.0
96.673,8.796,7.117,4.0
0.0,0.0,0.0,0.0
0.0,0.0,0.0,0.0
114.968,10.511,10.343,2.0
84.986,7.772,7.147,1.0
99.065,9.063,7.762,5.0
96.872,8.868,7.033,11.0
0.0,0.0,0.0,0.0
0.0,0.0,0.0,0.0
86.164,7.923,7.66,2.0
99.046,9.11,8.224,2.0
99.05,9.114,7.655,6.0
96.537,8.886,6.907,7.0
0.0,0.0,0.0,0.0
114.768,10.608,10.742,6.0
86.05,7.955,7.557,6.0
85.133,7.872,6.977,3.0
91.841,8.494,6.999,10.0
93.449,8.646,6.584,5.0
0.0,0.0,0.0,0.0
111.553,10.361,10.319,2.0
86.088,7.997,7.466,4.0
106.95,9.937,8.648,3.0
83.791,7.786,6.294,1.0
93.479,8.689,6.484,7.0
0.0,0.0,0.0,0.0
111.57,10.409,10.195,2.0
96.058,8.962,8.223,4.0
91.801,8.566,7.32,3.0
107.027,9.989,7.917,5.0
97.828,9.132,6.674,2.0
111.005,10.397,10.659,4.0
111.01,10.399,10.016,4.0
96.59,9.048,8.156,2.0
91.809,8.6,7.214,3.0
80.383,7.531,5.853,2.0
97.768,9.161,6.557,3.0
111.064,10.441,10.535,3.0
111.053,10.439,9.891,2.0
85.508,8.038,7.12,4.0
95.98,9.022,7.43,5.0
96.504,9.073,6.913,5.0
97.894,9.204,6.451,2.0
91.724,8.651,8.59,3.0
92.086,8.683,8.091,8.0
85.326,8.046,7.003,5.0
96.001,9.052,7.317,5.0
84.352,7.953,5.943,1.0
87.715,8.271,5.675,3.0
91.986,8.699,8.504,9.0
92.111,8.71,7.982,10.0
96.715,9.144,7.822,5.0
92.092,8.705,6.908,4.0
93.276,8.816,6.459,2.0
92.417,8.736,5.867,1.0
91.894,8.711,8.381,5.0
92.035,8.722,7.862,13.0
86.011,8.149,6.85,5.0
91.906,8.707,6.779,4.0
93.337,8.841,6.348,2.0
78.381,7.423,4.88,4.0
99.46,9.445,8.948,1.0
91.859,8.721,7.732,15.0
86.031,8.165,6.743,8.0
90.347,8.573,6.551,1.0
87.315,8.284,5.828,2.0
84.521,8.018,5.156,14.0
99.472,9.459,8.822,1.0
91.852,8.731,7.614,4.0
86.067,8.18,6.636,5.0
96.504,9.169,6.874,8.0
87.603,8.321,5.736,4.0
84.457,8.021,5.043,18.0
92.06,8.763,8.046,5.0
0.0,0.0,0.0,0.0
96.425,9.172,7.31,2.0
96.528,9.178,6.751,6.0
87.629,8.33,5.624,4.0
84.666,8.046,4.946,7.0
107.882,10.274,9.286,9.0
92.424,8.798,7.42,4.0
92.005,8.754,6.855,7.0
93.253,8.869,6.401,2.0
78.349,7.45,4.926,3.0
98.978,9.408,5.653,3.0
92.023,8.764,7.799,13.0
85.976,8.184,6.789,4.0
96.459,9.178,7.06,7.0
85.246,8.107,5.739,1.0
84.485,8.032,5.2,8.0
84.306,8.012,4.704,1.0
92.047,8.763,7.679,6.0
86.081,8.19,6.683,7.0
96.519,9.179,6.935,6.0
107.629,10.23,7.101,5.0
84.49,8.027,5.087,21.0
84.172,7.993,4.584,6.0
84.59,8.046,6.943,7.0
92.197,8.764,7.033,5.0
84.369,8.015,5.948,1.0
87.611,8.319,5.662,4.0
84.468,8.016,4.973,8.0
84.323,7.998,4.479,4.0
92.575,8.794,7.472,3.0
92.006,8.734,6.893,7.0
84.336,8.0,5.831,2.0
97.674,9.26,6.18,3.0
84.283,7.986,4.847,5.0
97.427,9.227,5.043,7.0
86.059,8.161,6.827,10.0
83.773,7.938,6.162,1.0
87.56,8.291,5.934,3.0
78.366,7.415,4.851,5.0
87.012,8.228,4.885,2.0
97.413,9.206,4.908,8.0
85.947,8.131,6.7,5.0
80.176,7.58,5.787,3.0
87.675,8.282,5.821,6.0
84.98,8.021,5.143,10.0
84.214,7.943,4.612,6.0
138.276,13.035,6.778,4.0
95.954,9.054,7.347,5.0
96.476,9.095,6.829,5.0
87.685,8.259,5.7,1.0
89.269,8.402,5.278,1.0
86.324,8.118,4.607,2.0
87.876,8.258,4.185,3.0
83.891,7.89,6.305,2.0
93.381,8.774,6.479,5.0
97.635,9.166,6.211,3.0
87.386,8.197,5.046,1.0
86.555,8.112,4.499,5.0
87.932,8.235,4.065,5.0
80.433,7.536,5.933,3.0
97.811,9.156,6.649,4.0
78.324,7.325,4.872,5.0
84.823,7.925,4.778,2.0
87.716,8.188,4.436,5.0
87.375,8.15,3.916,10.0
96.497,9.004,6.98,12.0
107.396,10.01,7.149,2.0
78.375,7.297,4.764,3.0
84.082,7.822,4.617,6.0
105.816,9.834,5.202,2.0
86.997,8.078,3.777,9.0
96.568,8.968,6.848,3.0
85.005,7.885,5.537,12.0
87.53,8.111,5.196,3.0
89.612,8.295,4.794,2.0
96.293,8.904,4.597,2.0
108.182,9.994,4.542,17.0
93.458,8.634,6.494,3.0
84.263,7.775,5.368,3.0
98.568,9.085,5.712,5.0
86.373,7.952,4.498,4.0
87.996,8.093,4.076,4.0
108.17,9.938,4.39,4.0
84.964,7.805,5.783,6.0
91.724,8.415,5.714,9.0
86.744,7.948,4.904,2.0
97.345,8.909,4.932,2.0
87.327,7.984,3.922,8.0
110.53,10.094,4.33,19.0
91.8,8.38,6.118,8.0
78.27,7.136,4.764,5.0
84.023,7.651,4.63,5.0
98.47,8.955,4.85,1.0
108.197,9.829,4.707,15.0
109.712,9.955,4.143,8.0
109.836,9.961,7.164,4.0
78.274,7.088,4.655,4.0
91.816,8.303,4.931,3.0
98.247,8.873,4.7,4.0
87.73,7.914,3.693,2.0
120.886,10.891,4.394,27.0
90.136,8.114,5.751,2.0
86.777,7.8,5.037,2.0
97.235,8.729,5.084,6.0
108.147,9.695,5.022,6.0
86.278,7.725,3.51,3.0
122.01,10.91,4.263,12.0
98.315,8.782,6.134,5.0
84.352,7.524,4.777,7.0
89.549,7.975,4.556,4.0
87.439,7.776,3.936,7.0
109.824,9.753,4.314,7.0
121.11,10.741,4.062,19.0
98.303,8.708,5.994,4.0
85.434,7.555,4.717,3.0
88.818,7.842,4.393,3.0
99.673,8.787,4.346,5.0
143.295,12.616,5.426,18.0
143.613,12.626,4.616,26.0
86.77,7.617,5.168,4.0
86.179,7.553,4.636,7.0
97.881,8.565,4.704,1.0
99.669,8.707,4.207,4.0
143.239,12.494,5.223,25.0
143.766,12.522,4.418,31.0
84.884,7.381,4.937,6.0
96.755,8.399,5.07,6.0
87.409,7.575,4.077,10.0
109.802,9.5,4.481,5.0
121.075,10.458,4.246,27.0
143.809,12.403,4.218,29.0
85.082,7.324,4.828,3.0
89.757,7.712,4.576,4.0
98.928,8.484,4.475,6.0
143.596,12.295,5.657,7.0
143.889,12.3,4.845,7.0
144.083,12.296,4.027,14.0
97.076,8.268,5.373,3.0
97.691,8.304,4.846,2.0
99.037,8.403,4.344,7.0
143.846,12.182,5.469,13.0
144.47,12.214,4.665,22.0
197.1,16.635,5.237,18.0
110.428,9.298,5.96,7.0
87.538,7.357,4.221,7.0
109.824,9.212,4.666,4.0
157.125,13.154,5.758,3.0
156.958,13.116,4.851,13.0
197.065,16.438,4.964,5.0
108.255,9.008,5.694,2.0
87.503,7.266,4.099,4.0
143.372,11.882,5.895,9.0
156.956,12.981,5.538,13.0
162.545,13.416,4.804,22.0
195.065,16.072,4.649,10.0
92.104,7.568,4.718,4.0
99.039,8.12,4.505,2.0
144.013,11.782,5.726,13.0
154.709,12.632,5.248,13.0
161.555,13.163,4.554,22.0
155.995,12.685,3.506,32.0
96.768,7.847,4.826,6.0
110.092,8.907,4.859,4.0
166.988,13.479,6.413,6.0
154.82,12.469,5.043,13.0
156.698,12.595,4.208,13.0
155.968,12.51,3.297,26.0
96.763,7.737,4.696,4.0
109.954,8.772,4.706,7.0
169.726,13.509,6.292,5.0
154.76,12.29,4.837,11.0
167.963,13.309,4.288,15.0
155.905,12.327,3.09,47.0
96.836,7.631,4.572,5.0
110.009,8.648,4.563,3.0
107.272,8.412,3.835,1.0
167.302,13.089,5.009,24.0
155.629,12.149,3.768,40.0
162.102,12.624,2.999,16.0
96.748,7.508,4.44,2.0
161.501,12.5,6.487,5.0
154.561,11.932,5.323,4.0
178.232,13.727,5.102,8.0
155.784,11.968,3.569,18.0
168.163,12.888,2.892,23.0
99.288,7.581,4.427,3.0
156.7,11.933,6.09,10.0
174.827,13.279,5.796,6.0
156.996,11.893,4.292,19.0
162.111,12.25,3.505,13.0
168.175,12.676,2.677,46.0
110.153,8.27,4.771,7.0
163.734,12.259,6.155,9.0
163.625,12.218,5.216,14.0
155.469,11.577,4.054,19.0
168.145,12.489,3.424,19.0
173.291,12.837,2.54,38.0
107.93,7.961,4.538,5.0
108.683,7.994,3.948,2.0
166.548,12.216,5.101,6.0
162.285,11.869,4.027,37.0
173.175,12.629,3.309,36.0
179.224,13.034,2.403,9.0
161.153,11.669,6.575,5.0
160.893,11.614,5.645,14.0
156.15,11.238,4.588,19.0
201.772,14.48,4.756,5.0
173.695,12.428,3.104,14.0
200.029,14.27,2.434,4.0
161.017,11.432,6.369,3.0
156.488,11.076,5.298,11.0
161.718,11.411,4.552,9.0
172.698,12.148,3.859,12.0
0.0,0.0,0.0,0.0
0.0,0.0,0.0,0.0
166.27,11.57,6.378,5.0
156.447,10.851,5.108,6.0
162.641,11.244,4.383,11.0
210.436,14.502,4.453,11.0
210.297,14.449,3.253,19.0
0.0,0.0,0.0,0.0
156.966,10.695,5.836,15.0
173.297,11.768,5.455,5.0
162.831,11.019,4.198,6.0
0.0,0.0,0.0,0.0
0.0,0.0,0.0,0.0
0.0,0.0,0.0,0.0
167.854,11.185,6.044,11.0
167.713,11.135,5.084,9.0
179.149,11.855,4.412,11.0
0.0,0.0,0.0,0.0
0.0,0.0,0.0,0.0
0.0,0.0,0.0,0.0
162.612,10.587,5.669,3.0
174.104,11.293,5.08,20.0
0.0,0.0,0.0,0.0
209.203,13.468,3.703,6.0
200.142,12.84,2.406,9.0
0.0,0.0,0.0,0.0
0.0,0.0,0.0,0.0
0.0,0.0,0.0,0.0
0.0,0.0,0.0,0.0
0.0,0.0,0.0,0.0
207.413,12.976,2.264,31.0
155.415,9.687,0.813,150.0
166.119,10.289,5.422,3.0
0.0,0.0,0.0,0.0
0.0,0.0,0.0,0.0
0.0,0.0,0.0,0.0
0.0,0.0,0.0,0.0
197.593,11.995,0.823,24.0
0.0,0.0,0.0,0.0
0.0,0.0,0.0,0.0
0.0,0.0,0.0,0.0
208.188,12.397,3.008,13.0
197.313,11.701,1.732,11.0
197.515,11.663,0.614,15.0
0.0,0.0,0.0,0.0
0.0,0.0,0.0,0.0
0.0,0.0,0.0,0.0
0.0,0.0,0.0,0.0
197.521,11.378,1.528,23.0
0.0,0.0,0.0,0.0
0.0,0.0,0.0,0.0
0.0,0.0,0.0,0.0
0.0,0.0,0.0,0.0
207.144,11.635,2.568,5.0
196.159,10.966,1.322,26.0
0.0,0.0,0.0,0.0
196.021,10.829,5.587,33.0
196.038,10.776,4.477,55.0
196.11,10.728,3.37,45.0
196.129,10.679,2.242,28.0
197.17,10.683,1.138,15.0
0.0,0.0,0.0,0.0
0.0,0.0,0.0,0.0
196.557,10.462,4.301,6.0
0.0,0.0,0.0,0.0
206.648,10.89,2.166,16.0
197.135,10.336,0.953,5.0
0.0,0.0,0.0,0.0
197.384,10.212,5.251,7.0
0.0,0.0,0.0,0.0
0.0,0.0,0.0,0.0
197.84,10.074,1.891,6.0
197.217,9.988,0.772,23.0
0.0,0.0,0.0,0.0
0.0,0.0,0.0,0.0
0.0,0.0,0.0,0.0
197.954,9.774,2.852,8.0
196.998,9.671,1.706,22.0
197.138,9.626,0.596,11.0
0.0,0.0,0.0,0.0
196.487,9.454,4.877,5.0
0.0,0.0,0.0,0.0
205.281,9.759,2.778,7.0
196.962,9.308,1.536,34.0
0.0,0.0,0.0,0.0
0.0,0.0,0.0,0.0
0.0,0.0,0.0,0.0
207.201,9.526,3.799,9.0
204.946,9.363,2.602,25.0
196.777,8.934,1.371,33.0
0.0,0.0,0.0,0.0
0.0,0.0,0.0,0.0
195.471,8.678,4.525,55.0
195.509,8.622,3.426,60.0
195.485,8.562,2.324,25.0
196.716,8.56,1.211,22.0
0.0,0.0,0.0,0.0
0.0,0.0,0.0,0.0
0.0,0.0,0.0,0.0
196.717,8.303,3.293,16.0
0.0,0.0,0.0,0.0
196.683,8.186,1.061,35.0
0.0,0.0,0.0,0.0
0.0,0.0,0.0,0.0
196.907,7.995,4.256,8.0
203.841,8.213,3.26,17.0
199.215,7.965,2.066,16.0
196.64,7.806,0.915,29.0
0.0,0.0,0.0,0.0
68.961,2.696,-0.453,0.0
195.137,7.544,4.076,18.0
195.178,7.486,2.982,25.0
195.103,7.424,1.886,16.0
196.624,7.422,0.776,5.0
0.0,0.0,0.0,0.0
69.035,2.564,-0.501,5.0
0.0,0.0,0.0,0.0
195.878,7.125,2.858,21.0
196.272,7.079,1.762,14.0
196.288,7.018,0.641,12.0
0.0,0.0,0.0,0.0
68.95,2.422,-0.547,1.0
195.303,6.779,3.816,24.0
195.921,6.737,2.73,14.0
196.433,6.694,1.637,15.0
0.0,0.0,0.0,0.0
0.0,0.0,0.0,0.0
68.888,2.283,-0.59,0.0
195.532,6.396,3.698,14.0
195.646,6.338,2.605,8.0
196.155,6.291,1.514,28.0
0.0,0.0,0.0,0.0
0.0,0.0,0.0,0.0
0.0,0.0,0.0,0.0
194.118,5.96,3.558,6.0
201.696,6.128,2.568,19.0
195.97,5.892,1.4,37.0
0.0,0.0,0.0,0.0
0.0,0.0,0.0,0.0
0.0,0.0,0.0,0.0
196.837,5.643,3.498,5.0
195.238,5.532,2.379,9.0
103.122,2.89,0.68,2.0
103.351,2.862,0.094,3.0
0.0,0.0,0.0,0.0
0.0,0.0,0.0,0.0
193.553,5.154,3.339,19.0
0.0,0.0,0.0,0.0
102.98,2.674,0.627,3.0
100.294,2.572,0.041,1.0
0.0,0.0,0.0,0.0
0.0,0.0,0.0,0.0
193.834,4.761,3.25,8.0
0.0,0.0,0.0,0.0
100.152,2.394,0.562,2.0
100.146,2.361,-0.005,19.0
0.0,0.0,0.0,0.0
0.0,0.0,0.0,0.0
195.296,4.389,3.186,15.0
0.0,0.0,0.0,0.0
100.023,2.18,0.517,3.0
99.978,2.145,-0.049,8.0
0.0,0.0,0.0,0.0
0.0,0.0,0.0,0.0
199.532,4.068,3.173,9.0
0.0,0.0,0.0,0.0
99.889,1.968,0.477,6.0
0.0,0.0,0.0,0.0
0.0,0.0,0.0,0.0
0.0,0.0,0.0,0.0
194.928,3.562,3.026,19.0
0.0,0.0,0.0,0.0
99.846,1.758,0.44,6.0
100.082,1.727,-0.124,1.0
0.0,0.0,0.0,0.0
0.0,0.0,0.0,0.0
194.862,3.15,2.958,23.0
0.0,0.0,0.0,0.0
99.66,1.543,0.406,5.0
101.447,1.536,-0.159,1.0
0.0,0.0,0.0,0.0
0.0,0.0,0.0,0.0
20.297,0.285,0.302,0.0
0.0,0.0,0.0,0.0
99.57,1.33,0.377,6.0
0.0,0.0,0.0,0.0
0.0,0.0,0.0,0.0
20.192,0.249,-0.261,17.0
20.287,0.242,0.296,25.0
20.303,0.235,0.184,23.0
20.325,0.228,0.071,18.0
20.318,0.221,-0.042,0.0
20.21,0.213,-0.154,4.0
20.176,0.205,-0.265,27.0
20.293,0.199,0.291,32.0
20.306,0.191,0.179,28.0
20.313,0.184,0.067,28.0
20.223,0.177,-0.046,23.0
20.195,0.169,-0.158,21.0
20.174,0.162,-0.269,35.0
20.187,0.154,0.286,26.0
20.175,0.147,0.174,26.0
20.199,0.14,0.063,27.0
20.185,0.133,-0.05,28.0
20.18,0.126,-0.161,31.0
20.199,0.119,-0.273,26.0
20.157,0.111,0.282,29.0
20.166,0.104,0.171,28.0
20.194,0.097,0.06,36.0
20.198,0.089,-0.053,30.0
20.2,0.083,-0.164,27.0
20.404,0.076,-0.278,0.0
20.142,0.068,0.28,28.0
20.155,0.061,0.169,28.0
20.196,0.054,0.058,15.0
20.26,0.046,-0.055,43.0
20.262,0.039,-0.166,150.0
20.26,0.032,-0.278,150.0
20.133,0.024,0.278,29.0
20.127,0.017,0.167,28.0
20.199,0.01,0.056,30.0
20.227,0.003,-0.056,24.0
20.166,-0.004,-0.167,12.0
20.167,-0.011,-0.278,9.0
20.124,-0.018,0.277,27.0
20.112,-0.025,0.166,34.0
20.132,-0.032,0.056,41.0
20.133,-0.04,-0.056,32.0
20.138,-0.047,-0.167,33.0
20.14,-0.054,-0.278,27.0
20.127,-0.061,0.277,28.0
20.118,-0.068,0.166,29.0
20.13,-0.076,0.056,35.0
20.139,-0.083,-0.056,29.0
20.149,-0.09,-0.167,34.0
20.138,-0.097,-0.277,37.0
20.144,-0.104,0.278,26.0
20.127,-0.111,0.167,20.0
20.157,-0.119,0.057,28.0
20.154,-0.126,-0.055,20.0
20.154,-0.133,-0.165,17.0
20.145,-0.141,-0.276,28.0
20.23,-0.148,0.281,15.0
66.533,-0.512,0.559,12.0
53.369,-0.431,0.156,3.0
53.321,-0.449,-0.141,6.0
56.492,-0.496,-0.459,1.0
44.884,-0.41,-0.611,23.0
53.38,-0.506,0.747,6.0
64.322,-0.633,0.548,89.0
56.196,-0.573,0.17,2.0
56.232,-0.594,-0.142,2.0
53.57,-0.585,-0.429,1.0
44.739,-0.505,-0.603,27.0
20.14,-0.233,0.284,10.0
20.154,-0.241,0.174,9.0
59.538,-0.733,0.19,30.0
59.543,-0.755,-0.141,20.0
56.631,-0.739,-0.444,10.0
44.886,-0.601,-0.597,25.0
20.129,-0.276,0.288,13.0
20.12,-0.283,0.178,14.0
20.133,-0.29,0.068,27.0
20.13,-0.298,-0.043,4.0
59.273,-0.898,-0.452,6.0
44.9,-0.697,-0.588,28.0
20.156,-0.318,0.293,1.0
20.143,-0.326,0.182,6.0
20.136,-0.333,0.072,34.0
20.134,-0.34,-0.039,21.0
52.916,-0.914,-0.391,53.0
44.895,-0.792,-0.576,32.0
193.125,-3.466,2.857,27.0
53.021,-0.97,0.495,15.0
52.988,-0.989,0.206,42.0
52.937,-1.007,-0.088,55.0
45.59,-0.884,-0.324,25.0
44.93,-0.887,-0.564,14.0
45.684,-0.915,0.689,9.0
38.391,-0.783,0.37,29.0
38.371,-0.796,0.16,53.0
38.377,-0.811,-0.051,12.0
40.416,-0.869,-0.274,19.0
40.424,-0.884,-0.494,29.0
40.453,-0.895,0.623,150.0
40.411,-0.909,0.402,55.0
40.413,-0.923,0.183,40.0
40.413,-0.939,-0.04,37.0
40.408,-0.953,-0.26,38.0
38.747,-0.928,-0.46,22.0
40.449,-0.98,0.638,26.0
38.775,-0.954,0.401,11.0
38.714,-0.967,0.19,18.0
38.704,-0.981,-0.024,35.0
38.701,-0.995,-0.234,40.0
38.684,-1.008,-0.444,33.0
38.662,-1.018,0.625,69.0
38.649,-1.031,0.415,68.0
38.649,-1.045,0.205,72.0
38.635,-1.059,-0.007,73.0
38.646,-1.073,-0.217,69.0
38.644,-1.087,-0.427,49.0
38.648,-1.097,0.642,86.0
