X,Y,Z,Reflectivity
30.966,0.339,3.433,31.0
22.706,0.254,3.159,2.0
33.011,0.375,4.403,10.0
39.881,0.46,5.09,2.0
52.557,0.614,6.401,6.0
31.038,0.368,3.602,57.0
30.969,0.371,3.417,19.0
48.267,0.593,6.691,2.0
33.215,0.413,4.413,4.0
53.972,0.679,6.86,30.0
47.175,0.601,5.72,3.0
31.03,0.4,3.584,42.0
30.981,0.404,3.401,2.0
0.0,0.0,0.0,0.0
30.449,0.411,4.028,23.0
51.612,0.704,6.53,6.0
31.029,0.428,3.744,43.0
46.922,0.654,5.392,20.0
46.862,0.66,5.117,2.0
30.99,0.446,4.259,4.0
30.487,0.443,4.014,6.0
47.959,0.704,6.037,2.0
31.061,0.46,3.728,52.0
46.906,0.703,5.36,5.0
46.192,0.698,5.014,9.0
31.002,0.478,4.24,26.0
39.32,0.612,5.151,4.0
31.062,0.488,3.889,27.0
46.452,0.736,5.544,9.0
52.183,0.835,5.928,8.0
37.051,0.598,3.996,3.0
30.981,0.509,4.216,1.0
39.434,0.654,5.137,5.0
31.077,0.52,3.869,57.0
47.105,0.794,5.588,12.0
48.41,0.823,5.464,7.0
42.478,0.728,4.551,1.0
30.479,0.531,4.125,21.0
39.339,0.691,5.096,4.0
31.083,0.55,3.846,8.0
47.194,0.842,5.563,5.0
52.189,0.938,5.851,3.0
37.095,0.671,3.945,3.0
30.697,0.566,4.13,35.0
31.078,0.577,4.001,46.0
46.42,0.867,5.707,8.0
52.179,0.982,6.108,6.0
36.942,0.7,4.112,3.0
52.593,1.004,5.551,18.0
30.883,0.599,4.129,39.0
31.065,0.606,3.973,22.0
0.0,0.0,0.0,0.0
47.047,0.93,5.468,3.0
52.526,1.045,5.802,10.0
52.46,1.05,5.493,6.0
31.056,0.631,4.125,25.0
31.102,0.636,3.951,6.0
47.535,0.978,5.763,4.0
52.552,1.088,6.061,21.0
46.739,0.973,5.121,9.0
37.045,0.775,3.846,3.0
31.087,0.661,4.101,38.0
31.138,0.665,3.927,2.0
52.428,1.127,6.308,26.0
59.102,1.277,6.763,6.0
55.221,1.199,6.0,4.0
46.539,1.016,4.788,39.0
39.295,0.871,5.147,8.0
33.578,0.748,4.202,2.0
47.142,1.056,5.626,8.0
36.854,0.829,4.181,4.0
46.567,1.053,5.014,33.0
52.592,1.195,5.359,14.0
39.293,0.905,5.107,3.0
47.69,1.104,5.921,4.0
47.082,1.095,5.572,7.0
46.581,1.088,5.238,20.0
53.19,1.248,5.673,4.0
61.372,1.447,6.192,2.0
52.57,1.257,6.778,13.0
52.201,1.253,6.427,8.0
46.681,1.126,5.476,11.0
46.45,1.124,5.174,16.0
46.484,1.129,4.909,5.0
57.639,1.406,5.755,6.0
54.336,1.344,6.948,4.0
60.765,1.509,7.416,10.0
46.577,1.161,5.413,31.0
48.127,1.204,5.309,5.0
36.974,0.928,3.865,7.0
46.58,1.175,4.6,28.0
47.809,1.222,6.06,13.0
47.064,1.207,5.691,17.0
58.604,1.507,6.746,9.0
59.414,1.534,6.488,4.0
52.513,1.361,5.43,8.0
53.203,1.383,5.194,13.0
0.0,0.0,0.0,0.0
46.715,1.234,5.595,10.0
47.051,1.247,5.362,2.0
58.202,1.548,6.288,8.0
46.608,1.243,4.765,20.0
52.996,1.418,5.112,14.0
52.179,1.414,6.492,7.0
52.619,1.43,6.24,5.0
46.198,1.259,5.209,8.0
46.364,1.267,4.954,6.0
46.586,1.277,4.707,1.0
52.858,1.453,5.035,9.0
52.361,1.456,6.451,2.0
52.635,1.469,6.177,6.0
46.198,1.292,5.152,4.0
46.559,1.306,4.917,15.0
59.402,1.67,5.929,16.0
40.387,1.139,3.797,11.0
59.288,1.691,7.23,12.0
59.228,1.694,6.876,33.0
59.106,1.695,6.518,25.0
46.606,1.339,4.863,6.0
59.285,1.708,5.842,3.0
40.389,1.166,3.746,41.0
47.38,1.384,5.716,5.0
58.399,1.709,6.704,1.0
58.666,1.72,6.393,33.0
0.0,0.0,0.0,0.0
53.67,1.582,5.218,5.0
40.417,1.193,3.695,59.0
57.963,1.73,6.916,2.0
58.503,1.75,6.639,4.0
46.593,1.396,5.015,30.0
52.446,1.575,5.334,8.0
53.299,1.604,5.111,7.0
40.431,1.219,3.642,36.0
60.495,1.843,7.135,10.0
58.891,1.797,6.601,26.0
46.327,1.417,4.923,6.0
52.429,1.606,5.261,2.0
53.104,1.629,5.019,8.0
52.776,1.622,4.683,11.0
59.194,1.839,6.899,5.0
46.607,1.449,5.159,35.0
57.611,1.794,6.041,3.0
43.752,1.365,4.328,18.0
43.695,1.365,4.068,6.0
46.738,1.463,4.081,9.0
58.819,1.859,6.771,33.0
46.723,1.479,5.105,5.0
52.542,1.665,5.434,0.0
54.057,1.716,5.27,4.0
46.591,1.481,4.271,5.0
52.518,1.672,4.51,5.0
46.576,1.496,5.294,15.0
46.542,1.497,5.018,4.0
52.434,1.689,5.347,2.0
43.534,1.404,4.181,7.0
46.87,1.513,4.229,3.0
51.118,1.652,4.316,11.0
46.504,1.516,5.217,21.0
46.217,1.508,4.914,7.0
52.388,1.712,5.265,6.0
53.309,1.744,5.041,3.0
43.165,1.413,3.831,3.0
50.876,1.667,4.22,3.0
46.433,1.536,5.139,8.0
46.209,1.529,4.844,2.0
43.387,1.437,4.294,3.0
43.691,1.448,4.065,13.0
52.472,1.741,4.577,5.0
50.293,1.67,4.095,3.0
46.776,1.566,5.105,3.0
58.428,1.958,6.035,10.0
54.59,1.83,5.319,3.0
43.462,1.458,3.977,10.0
52.702,1.769,4.516,6.0
43.622,1.465,3.485,3.0
46.741,1.583,5.028,4.0
60.497,2.05,6.154,5.0
53.302,1.807,5.11,5.0
46.889,1.59,4.217,3.0
0.0,0.0,0.0,0.0
43.741,1.485,3.425,3.0
46.241,1.582,4.9,7.0
52.396,1.793,5.246,8.0
46.2,1.582,4.355,6.0
52.282,1.791,4.618,9.0
0.0,0.0,0.0,0.0
52.291,1.792,4.01,26.0
58.407,2.017,6.094,4.0
52.479,1.813,5.168,4.0
46.193,1.596,4.279,4.0
46.856,1.619,4.063,9.0
58.431,2.019,4.726,7.0
52.686,1.821,3.955,15.0
60.701,2.114,6.233,4.0
46.207,1.609,4.474,4.0
43.218,1.504,3.932,7.0
46.956,1.635,3.994,4.0
52.306,1.821,4.144,2.0
68.634,2.39,5.039,2.0
43.241,1.516,4.368,1.0
53.418,1.873,5.083,5.0
46.88,1.643,4.187,7.0
52.443,1.837,4.373,3.0
52.141,1.826,4.044,25.0
68.521,2.4,4.917,8.0
60.134,2.12,5.974,10.0
46.197,1.628,4.318,5.0
46.833,1.65,4.104,7.0
58.279,2.053,4.762,3.0
52.539,1.85,3.986,25.0
68.145,2.399,4.775,15.0
52.523,1.861,5.128,9.0
43.219,1.53,3.966,14.0
46.914,1.66,4.032,5.0
52.067,1.842,4.165,10.0
52.723,1.864,3.91,2.0
53.257,1.882,3.64,3.0
48.918,1.739,4.691,3.0
46.934,1.668,4.226,5.0
46.997,1.669,3.957,3.0
52.076,1.848,4.076,30.0
68.566,2.431,4.967,8.0
68.748,2.437,4.581,8.0
46.187,1.646,4.348,4.0
46.832,1.668,4.135,5.0
58.261,2.074,4.803,2.0
52.053,1.851,3.983,13.0
68.324,2.428,4.83,14.0
68.512,2.432,4.444,6.0
42.891,1.531,3.962,4.0
46.871,1.671,4.055,3.0
52.011,1.853,4.196,10.0
237.254,8.447,17.736,10.0
0.0,0.0,0.0,0.0
68.372,2.429,4.315,5.0
46.903,1.674,4.249,4.0
46.985,1.676,3.982,6.0
52.106,1.856,4.112,25.0
68.595,2.441,5.007,6.0
68.725,2.443,4.616,7.0
69.531,2.469,4.266,8.0
46.909,1.674,4.166,3.0
52.44,1.869,4.35,2.0
52.056,1.853,4.015,19.0
68.391,2.431,4.87,13.0
68.614,2.436,4.486,6.0
67.459,2.392,4.018,4.0
46.851,1.668,4.076,4.0
0.0,0.0,0.0,0.0
52.516,1.865,3.956,2.0
67.713,2.401,4.698,11.0
68.375,2.422,4.347,7.0
118.67,4.198,6.854,2.0
46.965,1.668,4.0,6.0
52.095,1.847,4.133,19.0
68.689,2.432,5.048,3.0
68.816,2.432,4.65,6.0
68.559,2.419,4.233,6.0
118.036,4.159,6.601,1.0
58.274,2.061,4.857,5.0
52.105,1.839,4.039,25.0
68.501,2.414,4.909,12.0
68.617,2.414,4.511,3.0
67.435,2.369,4.04,4.0
117.873,4.133,6.376,2.0
58.377,2.054,4.757,2.0
52.687,1.85,3.985,26.0
67.771,2.375,4.732,8.0
68.204,2.386,4.357,3.0
103.305,3.607,5.998,2.0
196.854,6.862,10.285,8.0
52.173,1.824,4.155,4.0
52.338,1.825,3.862,2.0
53.234,1.853,3.618,4.0
69.556,2.416,4.315,9.0
118.643,4.113,6.669,2.0
104.572,3.618,5.27,2.0
52.343,1.815,4.07,17.0
68.646,2.376,4.937,10.0
68.343,2.36,4.516,2.0
67.397,2.322,4.054,3.0
118.067,4.059,6.415,3.0
117.895,4.045,5.72,4.0
52.532,1.806,3.985,13.0
68.075,2.335,4.767,13.0
68.609,2.347,4.404,3.0
103.342,3.527,6.021,6.0
196.973,6.708,10.333,11.0
104.508,3.55,4.874,2.0
51.843,1.764,3.835,1.0
68.883,2.338,4.694,9.0
68.132,2.307,4.246,3.0
118.275,3.994,6.67,2.0
103.207,3.476,5.22,2.0
195.932,6.583,8.771,8.0
68.367,2.3,4.929,5.0
68.687,2.304,4.552,7.0
67.382,2.255,4.073,3.0
103.641,3.458,5.651,2.0
104.047,3.463,5.069,2.0
194.259,6.447,8.334,6.0
68.381,2.272,4.801,10.0
68.948,2.284,4.439,6.0
104.012,3.435,6.091,7.0
117.478,3.868,6.184,5.0
102.262,3.357,4.788,3.0
193.604,6.336,7.94,24.0
68.354,2.239,4.67,6.0
69.234,2.261,4.326,8.0
103.225,3.359,5.849,4.0
103.644,3.362,5.258,12.0
102.313,3.309,4.596,5.0
193.64,6.242,7.573,18.0
68.701,2.215,4.563,7.0
67.494,2.169,4.088,4.0
118.435,3.792,6.484,6.0
118.017,3.767,5.764,4.0
193.592,6.158,8.329,14.0
193.723,6.142,7.212,17.0
68.617,2.175,4.427,9.0
103.589,3.272,6.079,6.0
103.012,3.241,5.446,4.0
110.519,3.466,5.19,1.0
193.682,6.051,7.97,19.0
193.35,6.018,6.833,17.0
68.723,2.139,4.304,4.0
103.59,3.211,5.885,4.0
103.264,3.188,5.265,9.0
102.403,3.15,4.615,2.0
193.76,5.937,7.608,8.0
193.225,5.897,6.464,19.0
67.443,2.057,4.096,5.0
103.445,3.141,5.68,1.0
110.566,3.343,5.427,5.0
102.269,3.079,4.416,6.0
193.616,5.807,7.236,17.0
192.997,5.764,6.094,27.0
69.181,2.063,4.071,7.0
110.025,3.268,5.835,4.0
0.0,0.0,0.0,0.0
193.605,5.699,7.995,7.0
193.909,5.684,6.884,8.0
193.47,5.645,5.745,6.0
110.198,3.21,6.277,4.0
103.425,2.999,5.289,9.0
124.724,3.599,5.654,3.0
193.549,5.558,7.632,5.0
193.041,5.519,6.491,20.0
194.312,5.529,5.408,19.0
103.659,2.943,5.711,4.0
110.617,3.124,5.449,3.0
102.506,2.881,4.454,1.0
0.0,0.0,0.0,0.0
193.275,5.379,6.139,20.0
194.379,5.382,5.048,31.0
118.396,3.269,6.301,6.0
103.363,2.839,4.9,1.0
102.554,2.802,4.266,5.0
0.0,0.0,0.0,0.0
194.552,5.259,5.816,5.0
193.86,5.212,4.673,31.0
118.046,3.163,6.062,2.0
102.786,2.739,4.682,1.0
102.772,2.723,4.084,2.0
193.258,5.093,6.542,8.0
194.371,5.092,5.451,22.0
193.75,5.046,4.312,27.0
103.173,2.678,5.109,5.0
120.052,3.097,5.247,5.0
0.0,0.0,0.0,0.0
0.0,0.0,0.0,0.0
194.148,4.917,5.089,26.0
193.782,4.879,3.957,25.0
102.925,2.58,4.907,4.0
102.56,2.553,4.293,5.0
0.0,0.0,0.0,0.0
194.808,4.789,5.877,10.0
194.151,4.74,4.729,32.0
193.736,4.698,3.598,24.0
125.028,3.018,5.73,3.0
126.087,3.022,5.047,4.0
0.0,0.0,0.0,0.0
194.582,4.599,5.513,21.0
193.997,4.552,4.371,32.0
193.893,4.517,3.245,10.0
124.901,2.892,5.493,3.0
0.0,0.0,0.0,0.0
0.0,0.0,0.0,0.0
194.669,4.408,5.157,24.0
193.85,4.357,4.012,17.0
195.171,4.353,2.911,24.0
124.994,2.769,5.269,6.0
0.0,0.0,0.0,0.0
0.0,0.0,0.0,0.0
194.511,4.205,4.795,23.0
197.032,4.223,3.716,7.0
103.286,2.195,1.349,3.0
102.732,2.167,4.142,6.0
0.0,0.0,0.0,0.0
194.957,4.044,5.603,6.0
194.382,3.998,4.444,13.0
195.451,3.982,3.334,5.0
103.185,2.084,1.164,5.0
124.763,2.5,4.808,8.0
147.754,2.932,4.837,4.0
194.495,3.822,5.24,5.0
194.408,3.783,4.091,22.0
0.0,0.0,0.0,0.0
103.009,1.966,0.976,2.0
124.573,2.356,4.576,4.0
0.0,0.0,0.0,0.0
194.656,3.607,4.898,14.0
194.615,3.568,3.75,7.0
0.0,0.0,0.0,0.0
99.943,1.794,0.77,1.0
148.88,2.645,5.205,4.0
0.0,0.0,0.0,0.0
194.762,3.382,4.554,9.0
194.861,3.344,3.409,31.0
0.0,0.0,0.0,0.0
99.78,1.673,0.592,5.0
124.765,2.067,4.141,7.0
0.0,0.0,0.0,0.0
196.247,3.173,4.245,22.0
194.735,3.109,3.067,25.0
0.0,0.0,0.0,0.0
99.798,1.552,0.418,5.0
157.17,2.413,4.943,22.0
196.448,2.974,5.041,25.0
195.181,2.914,3.881,28.0
195.253,2.875,2.735,5.0
46.384,0.673,0.382,4.0
99.663,1.425,0.244,5.0
157.874,2.227,4.694,19.0
20.295,0.281,0.486,2.0
20.294,0.277,0.368,2.0
20.285,0.272,0.249,0.0
99.62,1.319,0.649,5.0
99.634,1.298,0.075,4.0
20.282,0.259,0.568,16.0
20.29,0.255,0.451,25.0
20.289,0.251,0.334,20.0
20.284,0.246,0.215,14.0
20.318,0.242,0.097,1.0
99.504,1.166,-0.093,1.0
20.28,0.233,0.534,27.0
20.272,0.228,0.416,30.0
20.282,0.224,0.3,25.0
20.303,0.219,0.181,24.0
20.334,0.215,0.064,26.0
20.321,0.21,-0.053,0.0
20.276,0.205,0.5,33.0
20.276,0.2,0.383,32.0
20.281,0.196,0.266,27.0
20.309,0.191,0.147,29.0
20.327,0.187,0.03,32.0
20.227,0.182,-0.086,20.0
20.253,0.177,0.466,28.0
20.241,0.172,0.349,26.0
20.245,0.168,0.233,20.0
20.225,0.163,0.114,26.0
20.22,0.158,-0.002,24.0
20.181,0.153,-0.118,31.0
20.175,0.148,0.432,26.0
20.171,0.143,0.315,24.0
20.176,0.139,0.199,23.0
20.2,0.134,0.081,29.0
20.175,0.129,-0.034,27.0
20.17,0.124,-0.151,40.0
20.16,0.119,0.399,29.0
20.165,0.114,0.283,28.0
20.163,0.109,0.167,26.0
20.18,0.104,0.049,36.0
20.185,0.1,-0.066,33.0
20.183,0.095,-0.182,24.0
20.158,0.09,0.368,28.0
20.156,0.085,0.252,27.0
20.151,0.08,0.136,26.0
20.194,0.075,0.018,29.0
20.204,0.07,-0.097,25.0
20.203,0.065,-0.214,2.0
20.143,0.06,0.337,29.0
20.14,0.054,0.221,28.0
20.147,0.049,0.105,27.0
20.242,0.045,-0.012,8.0
20.265,0.039,-0.129,72.0
20.266,0.034,-0.245,150.0
20.145,0.029,0.306,30.0
20.125,0.024,0.19,28.0
20.184,0.019,0.075,42.0
20.257,0.014,-0.042,151.0
20.266,0.008,-0.159,150.0
20.248,0.003,-0.275,11.0
20.126,-0.001,0.276,28.0
20.122,-0.006,0.16,27.0
20.146,-0.011,0.045,19.0
20.174,-0.017,-0.072,23.0
20.16,-0.022,-0.188,14.0
20.176,-0.028,-0.304,14.0
20.118,-0.033,0.246,35.0
20.119,-0.038,0.131,34.0
20.131,-0.044,0.015,35.0
20.134,-0.049,-0.101,31.0
20.12,-0.054,-0.217,16.0
20.156,-0.059,-0.333,23.0
20.126,-0.065,0.218,29.0
20.13,-0.07,0.102,40.0
20.134,-0.076,-0.012,29.0
20.134,-0.081,-0.13,35.0
20.13,-0.087,-0.246,36.0
20.141,-0.092,-0.361,28.0
20.139,-0.097,0.19,27.0
20.142,-0.103,0.074,34.0
20.148,-0.109,-0.041,27.0
20.156,-0.114,-0.158,26.0
20.146,-0.12,-0.274,35.0
20.152,-0.126,-0.39,37.0
20.164,-0.131,0.162,17.0
20.135,-0.137,0.046,18.0
20.175,-0.143,-0.069,17.0
20.149,-0.148,-0.186,9.0
20.156,-0.154,-0.302,27.0
20.172,-0.16,-0.418,31.0
20.233,-0.166,0.135,0.0
53.348,-0.452,0.051,9.0
53.289,-0.467,-0.254,1.0
20.172,-0.182,-0.213,2.0
38.029,-0.355,-0.62,5.0
20.2,-0.194,-0.445,27.0
56.188,-0.556,0.301,11.0
56.254,-0.573,-0.02,2.0
59.299,-0.622,-0.361,11.0
44.983,-0.484,-0.535,29.0
37.815,-0.418,-0.666,23.0
31.059,-0.352,-0.725,5.0
56.283,-0.654,0.229,1.0
56.376,-0.671,-0.092,1.0
58.762,-0.717,-0.432,8.0
44.875,-0.56,-0.591,19.0
35.972,-0.46,-0.679,4.0
30.364,-0.397,-0.747,8.0
59.535,-0.795,0.168,61.0
56.735,-0.774,-0.163,1.0
52.943,-0.737,-0.455,15.0
39.025,-0.555,-0.562,12.0
31.828,-0.462,-0.64,9.0
0.0,0.0,0.0,0.0
20.141,-0.304,0.032,26.0
59.508,-0.916,-0.243,3.0
52.742,-0.827,-0.517,14.0
38.242,-0.611,-0.597,14.0
30.979,-0.505,-0.661,28.0
28.28,-0.469,-0.764,3.0
20.137,-0.339,0.008,45.0
52.995,-0.909,-0.279,22.0
45.155,-0.788,-0.496,19.0
37.944,-0.674,-0.637,17.0
30.566,-0.552,-0.687,30.0
27.368,-0.503,-0.772,3.0
52.986,-0.988,-0.038,15.0
52.926,-1.003,-0.34,5.0
44.928,-0.865,-0.545,29.0
0.0,0.0,0.0,0.0
30.409,-0.604,-0.718,23.0
26.778,-0.54,-0.785,2.0
38.379,-0.784,-0.07,22.0
38.364,-0.796,-0.289,50.0
38.357,-0.807,-0.507,24.0
31.426,-0.671,-0.597,15.0
30.233,-0.655,-0.747,8.0
24.288,-0.534,-0.739,1.0
40.42,-0.899,-0.117,39.0
40.412,-0.911,-0.347,57.0
38.385,-0.877,-0.548,25.0
30.989,-0.717,-0.622,29.0
28.51,-0.669,-0.735,1.0
23.82,-0.567,-0.75,14.0
40.416,-0.973,-0.16,32.0
38.827,-0.946,-0.374,19.0
38.121,-0.941,-0.584,16.0
30.646,-0.766,-0.647,33.0
27.899,-0.706,-0.748,1.0
23.775,-0.61,-0.773,14.0
38.712,-1.003,-0.192,44.0
38.69,-1.015,-0.412,38.0
37.93,-1.007,-0.619,13.0
30.488,-0.819,-0.674,35.0
25.364,-0.69,-0.705,0.0
23.473,-0.646,-0.786,5.0
38.659,-1.073,-0.229,70.0
38.622,-1.084,-0.449,35.0
37.834,-1.074,-0.654,6.0
30.398,-0.873,-0.701,23.0
25.203,-0.732,-0.725,7.0
22.546,-0.662,-0.776,2.0
38.649,-1.145,-0.266,71.0
38.557,-1.155,-0.484,31.0
31.239,-0.945,-0.569,23.0
30.248,-0.926,-0.726,8.0
24.496,-0.757,-0.727,15.0
22.029,-0.688,-0.779,1.0
38.665,-1.217,-0.3,60.0
38.379,-1.221,-0.516,14.0
30.974,-0.995,-0.592,29.0
29.927,-0.971,-0.744,2.0
24.081,-0.789,-0.736,21.0
21.846,-0.724,-0.791,1.0
38.738,-1.292,-0.334,31.0
38.252,-1.288,-0.547,13.0
30.787,-1.047,-0.614,31.0
28.249,-0.97,-0.727,1.0
23.81,-0.826,-0.747,19.0
21.221,-0.743,-0.786,0.0
45.424,-1.601,-0.43,9.0
38.08,-1.355,-0.575,13.0
30.606,-1.099,-0.636,34.0
27.667,-1.003,-0.734,0.0
23.765,-0.869,-0.765,13.0
20.672,-0.763,-0.783,1.0
31.355,-1.164,-0.321,29.0
31.267,-1.171,-0.497,45.0
30.531,-1.154,-0.658,35.0
25.141,-0.959,-0.687,1.0
23.586,-0.908,-0.778,5.0
20.478,-0.795,-0.791,2.0
28.478,-1.112,-0.313,70.0
28.474,-1.121,-0.474,63.0
28.461,-1.131,-0.635,60.0
25.037,-1.003,-0.702,6.0
22.813,-0.922,-0.769,1.0
20.193,-0.823,-0.795,1.0
28.463,-1.165,-0.333,134.0
28.458,-1.175,-0.494,119.0
28.463,-1.185,-0.654,150.0
24.584,-1.032,-0.706,16.0
22.213,-0.94,-0.764,1.0
19.694,-0.84,-0.788,0.0
28.458,-1.219,-0.352,64.0
28.461,-1.229,-0.513,58.0
28.47,-1.239,-0.673,56.0
24.108,-1.058,-0.708,17.0
22.037,-0.975,-0.772,2.0
19.496,-0.869,-0.793,0.0
31.203,-1.397,-0.406,64.0
30.92,-1.395,-0.576,33.0
28.642,-1.302,-0.695,2.0
23.946,-1.097,-0.719,16.0
21.695,-1.001,-0.773,1.0
19.24,-0.895,-0.794,0.0
31.218,-1.457,-0.425,53.0
30.834,-1.45,-0.593,31.0
28.335,-1.343,-0.704,2.0
23.847,-1.138,-0.729,15.0
21.447,-1.031,-0.777,1.0
18.857,-0.914,-0.789,0.0
31.263,-1.52,-0.443,29.0
30.741,-1.505,-0.608,30.0
28.313,-1.396,-0.719,3.0
23.788,-1.181,-0.74,14.0
21.063,-1.053,-0.774,1.0
18.709,-0.942,-0.793,1.0
38.017,-1.921,-0.558,10.0
30.679,-1.561,-0.622,32.0
24.534,-1.257,-0.636,21.0
23.711,-1.223,-0.75,11.0
20.932,-1.087,-0.78,1.0
18.498,-0.967,-0.793,0.0
37.979,-1.992,-0.576,9.0
30.673,-1.619,-0.637,12.0
24.467,-1.3,-0.645,23.0
23.576,-1.261,-0.757,6.0
20.614,-1.11,-0.777,2.0
18.412,-0.998,-0.798,0.0
24.579,-1.336,-0.383,33.0
24.532,-1.342,-0.52,39.0
24.385,-1.343,-0.654,16.0
23.49,-1.301,-0.764,5.0
20.49,-1.143,-0.781,2.0
18.222,-1.023,-0.797,0.0
24.536,-1.38,-0.392,49.0
24.503,-1.387,-0.529,40.0
24.352,-1.387,-0.662,21.0
23.231,-1.332,-0.764,3.0
20.328,-1.172,-0.783,2.0
18.077,-1.049,-0.797,0.0
24.513,-1.426,-0.4,62.0
24.476,-1.432,-0.537,39.0
24.337,-1.433,-0.67,19.0
22.885,-1.355,-0.761,1.0
20.2,-1.204,-0.784,1.0
17.794,-1.067,-0.791,0.0
24.52,-1.473,-0.408,86.0
24.451,-1.477,-0.544,39.0
24.314,-1.477,-0.677,23.0
22.563,-1.379,-0.757,1.0
19.848,-1.22,-0.776,1.0
17.94,-1.109,-0.802,1.0
24.498,-1.518,-0.415,56.0
24.465,-1.524,-0.551,40.0
24.275,-1.521,-0.682,20.0
22.397,-1.411,-0.757,1.0
19.732,-1.25,-0.777,0.0
17.709,-1.128,-0.796,1.0
24.509,-1.565,-0.421,49.0
24.47,-1.571,-0.557,37.0
24.241,-1.564,-0.687,18.0
22.42,-1.455,-0.762,1.0
19.608,-1.279,-0.776,0.0
17.57,-1.153,-0.794,0.0
24.528,-1.612,-0.426,38.0
24.45,-1.615,-0.561,28.0
24.189,-1.606,-0.69,19.0
22.11,-1.476,-0.756,0.0
19.595,-1.315,-0.779,1.0
17.458,-1.178,-0.792,0.0
24.634,-1.665,-0.432,3.0
24.509,-1.665,-0.566,20.0
24.15,-1.649,-0.692,15.0
22.081,-1.515,-0.758,0.0
19.489,-1.344,-0.778,0.0
17.483,-1.212,-0.795,1.0
34.204,-2.374,-0.604,2.0
0.0,0.0,0.0,0.0
24.103,-1.69,-0.693,14.0
21.998,-1.55,-0.757,0.0
19.506,-1.381,-0.78,0.0
17.436,-1.241,-0.794,1.0
34.035,-2.426,-0.604,2.0
29.644,-2.123,-0.69,4.0
24.07,-1.732,-0.694,14.0
21.672,-1.567,-0.748,0.0
19.375,-1.408,-0.776,1.0
17.193,-1.256,-0.784,10.0
33.982,-2.484,-0.604,2.0
29.269,-2.15,-0.683,1.0
24.017,-1.772,-0.693,15.0
21.739,-1.612,-0.751,1.0
19.428,-1.447,-0.779,1.0
17.21,-1.288,-0.785,3.0
34.034,-2.55,-0.605,2.0
29.215,-2.199,-0.681,2.0
24.087,-1.821,-0.695,15.0
21.723,-1.65,-0.75,1.0
19.379,-1.479,-0.776,0.0
17.218,-1.32,-0.785,2.0
33.993,-2.607,-0.603,3.0
29.237,-2.253,-0.681,3.0
24.108,-1.866,-0.695,15.0
21.769,-1.692,-0.75,1.0
19.377,-1.513,-0.775,0.0
17.349,-1.361,-0.79,0.0
33.878,-2.659,-0.599,1.0
29.106,-2.295,-0.675,4.0
24.16,-1.913,-0.694,16.0
21.87,-1.739,-0.751,1.0
19.424,-1.551,-0.775,1.0
17.271,-1.386,-0.785,0.0
33.956,-2.725,-0.596,1.0
29.263,-2.358,-0.675,3.0
24.229,-1.961,-0.693,18.0
21.785,-1.771,-0.746,0.0
19.345,-1.579,-0.769,0.0
17.366,-1.424,-0.787,0.0
34.25,-2.809,-0.596,2.0
29.316,-2.414,-0.672,6.0
24.299,-2.009,-0.691,18.0
21.806,-1.81,-0.743,0.0
19.445,-1.621,-0.77,1.0
17.37,-1.454,-0.784,1.0
34.636,-2.9,-0.597,2.0
29.393,-2.471,-0.668,5.0
24.293,-2.051,-0.686,16.0
22.098,-1.873,-0.748,1.0
19.601,-1.668,-0.772,1.0
17.497,-1.495,-0.786,0.0
34.954,-2.987,-0.594,2.0
29.603,-2.539,-0.666,7.0
24.237,-2.087,-0.679,14.0
22.131,-1.913,-0.744,2.0
19.651,-1.705,-0.769,1.0
17.555,-1.529,-0.784,1.0
34.774,-3.029,-0.582,2.0
29.761,-2.602,-0.662,4.0
23.967,-2.104,-0.665,5.0
22.212,-1.957,-0.741,1.0
19.751,-1.747,-0.767,1.0
17.616,-1.564,-0.781,1.0
35.449,-3.147,-0.583,2.0
29.805,-2.656,-0.654,4.0
23.942,-2.141,-0.657,2.0
22.391,-2.01,-0.74,1.0
19.907,-1.793,-0.767,1.0
17.835,-1.613,-0.785,1.0
35.509,-3.21,-0.573,12.0
30.232,-2.743,-0.653,5.0
0.0,0.0,0.0,0.0
22.51,-2.057,-0.736,4.0
19.951,-1.829,-0.762,1.0
17.918,-1.649,-0.783,1.0
35.338,-3.252,-0.557,12.0
30.424,-2.809,-0.646,5.0
26.19,-2.426,-0.7,6.0
22.624,-2.103,-0.731,2.0
20.123,-1.877,-0.761,1.0
18.036,-1.688,-0.781,1.0
35.234,-3.298,-0.541,20.0
30.41,-2.856,-0.633,2.0
26.526,-2.499,-0.698,6.0
23.005,-2.175,-0.734,2.0
20.227,-1.919,-0.756,2.0
18.169,-1.729,-0.779,0.0
35.168,-3.347,-0.525,19.0
30.763,-2.937,-0.627,2.0
26.666,-2.554,-0.689,6.0
23.24,-2.233,-0.73,2.0
20.379,-1.965,-0.752,2.0
18.29,-1.769,-0.775,0.0
35.162,-3.401,-0.508,12.0
31.144,-3.021,-0.62,5.0
26.921,-2.62,-0.683,6.0
23.317,-2.276,-0.722,5.0
20.605,-2.018,-0.75,1.0
18.453,-1.813,-0.773,1.0
35.253,-3.462,-0.492,8.0
31.684,-3.121,-0.615,1.0
27.216,-2.689,-0.677,4.0
23.73,-2.352,-0.722,5.0
20.847,-2.072,-0.748,1.0
18.614,-1.856,-0.77,1.0
0.0,0.0,0.0,0.0
32.249,-3.224,-0.609,9.0
27.446,-2.752,-0.667,6.0
24.145,-2.428,-0.721,5.0
21.081,-2.126,-0.745,1.0
18.909,-1.913,-0.772,1.0
0.0,0.0,0.0,0.0
32.832,-3.33,-0.601,10.0
27.814,-2.829,-0.661,1.0
24.507,-2.5,-0.718,5.0
21.304,-2.179,-0.74,1.0
19.081,-1.957,-0.767,1.0
0.0,0.0,0.0,0.0
33.001,-3.393,-0.584,10.0
28.086,-2.896,-0.65,1.0
24.828,-2.567,-0.712,5.0
21.635,-2.243,-0.739,1.0
19.347,-2.012,-0.766,2.0
40.03,-4.161,-0.465,15.0
32.973,-3.436,-0.563,25.0
28.311,-2.958,-0.637,0.0
25.065,-2.626,-0.703,5.0
21.999,-2.311,-0.737,2.0
19.535,-2.058,-0.761,2.0
40.158,-4.228,-0.441,16.0
33.305,-3.515,-0.547,27.0
29.569,-3.129,-0.646,2.0
25.452,-2.7,-0.697,6.0
22.308,-2.373,-0.732,4.0
19.818,-2.113,-0.758,2.0
40.326,-4.298,-0.415,15.0
33.704,-3.601,-0.53,31.0
30.144,-3.229,-0.637,3.0
25.845,-2.775,-0.689,6.0
22.645,-2.437,-0.727,4.0
20.176,-2.177,-0.758,2.0
0.0,0.0,0.0,0.0
34.002,-3.676,-0.51,28.0
30.535,-3.309,-0.624,4.0
26.209,-2.847,-0.681,3.0
22.925,-2.496,-0.719,4.0
20.473,-2.235,-0.754,2.0
42.435,-4.63,-0.376,17.0
34.355,-3.757,-0.49,29.0
31.021,-3.4,-0.61,9.0
26.785,-2.943,-0.675,2.0
23.321,-2.568,-0.714,4.0
20.757,-2.291,-0.748,3.0
38.376,-4.234,-0.31,6.0
34.73,-3.84,-0.468,24.0
31.244,-3.462,-0.591,10.0
27.241,-3.025,-0.665,2.0
23.72,-2.64,-0.708,5.0
21.034,-2.347,-0.741,3.0
45.683,-5.094,-0.333,20.0
35.083,-3.92,-0.445,12.0
31.502,-3.527,-0.57,17.0
27.781,-3.118,-0.656,2.0
24.465,-2.751,-0.71,5.0
21.418,-2.414,-0.738,3.0
47.282,-5.326,-0.306,22.0
39.84,-4.497,-0.473,6.0
31.982,-3.617,-0.552,25.0
28.186,-3.194,-0.642,1.0
24.815,-2.818,-0.699,4.0
21.83,-2.485,-0.733,4.0
47.999,-5.46,-0.269,23.0
39.931,-4.551,-0.439,15.0
32.624,-3.726,-0.535,29.0
29.249,-3.347,-0.641,4.0
25.232,-2.893,-0.689,4.0
22.254,-2.557,-0.728,4.0
0.0,0.0,0.0,0.0
40.061,-4.609,-0.406,15.0
33.13,-3.818,-0.515,30.0
29.669,-3.426,-0.624,8.0
25.871,-2.993,-0.684,3.0
22.541,-2.613,-0.718,4.0
49.981,-5.79,-0.193,24.0
40.145,-4.659,-0.371,15.0
33.667,-3.914,-0.493,31.0
29.857,-3.477,-0.601,21.0
26.328,-3.072,-0.672,2.0
23.054,-2.695,-0.713,5.0
50.355,-5.883,-0.148,8.0
40.257,-4.711,-0.335,4.0
34.154,-4.004,-0.469,27.0
30.152,-3.541,-0.579,20.0
27.005,-3.176,-0.664,2.0
23.5,-2.769,-0.705,4.0
55.65,-6.555,-0.112,22.0
0.0,0.0,0.0,0.0
34.733,-4.104,-0.444,25.0
30.909,-3.658,-0.565,18.0
27.725,-3.287,-0.656,3.0
24.041,-2.855,-0.698,3.0
56.092,-6.658,-0.059,8.0
46.404,-5.516,-0.299,21.0
39.78,-4.736,-0.47,3.0
31.672,-3.776,-0.548,22.0
28.309,-3.38,-0.642,7.0
24.913,-2.98,-0.699,4.0
80.666,-9.644,-0.006,9.0
47.343,-5.668,-0.259,22.0
39.809,-4.773,-0.432,12.0
32.391,-3.889,-0.529,28.0
28.907,-3.476,-0.627,8.0
25.325,-3.05,-0.686,3.0
80.922,-9.741,0.073,19.0
48.27,-5.818,-0.215,23.0
39.997,-4.827,-0.393,17.0
32.933,-3.98,-0.504,27.0
29.273,-3.543,-0.605,19.0
25.912,-3.14,-0.676,2.0
80.938,-9.806,0.155,23.0
0.0,0.0,0.0,0.0
40.176,-4.879,-0.355,15.0
33.603,-4.086,-0.48,28.0
29.682,-3.614,-0.584,24.0
26.581,-3.241,-0.666,3.0
80.471,-9.808,0.236,33.0
55.451,-6.766,-0.134,8.0
40.485,-4.946,-0.315,7.0
34.233,-4.187,-0.454,29.0
30.177,-3.695,-0.562,23.0
27.248,-3.341,-0.654,2.0
80.437,-9.86,0.318,34.0
55.786,-6.845,-0.077,10.0
46.14,-5.668,-0.311,20.0
34.681,-4.265,-0.424,23.0
30.977,-3.814,-0.545,26.0
27.921,-3.442,-0.641,7.0
80.433,-9.911,0.404,30.0
80.776,-9.963,-0.027,6.0
46.623,-5.756,-0.265,21.0
39.717,-4.909,-0.444,10.0
31.67,-3.918,-0.524,23.0
28.456,-3.524,-0.623,16.0
80.427,-9.959,0.488,23.0
69.315,-8.59,0.049,4.0
47.541,-5.897,-0.22,22.0
39.875,-4.951,-0.403,22.0
32.667,-4.06,-0.505,25.0
28.797,-3.582,-0.6,22.0
80.448,-10.006,0.575,19.0
69.182,-8.612,0.124,15.0
48.826,-6.083,-0.174,22.0
40.106,-5.001,-0.361,15.0
33.367,-4.164,-0.48,27.0
29.298,-3.66,-0.578,23.0
80.498,-10.053,0.664,22.0
69.025,-8.627,0.198,5.0
55.56,-6.949,-0.137,6.0
40.383,-5.055,-0.32,14.0
34.084,-4.27,-0.453,29.0
29.965,-3.757,-0.559,23.0
80.513,-10.093,0.751,26.0
68.749,-8.624,0.274,7.0
55.748,-6.997,-0.076,10.0
45.8,-5.753,-0.313,20.0
34.683,-4.36,-0.422,19.0
30.717,-3.864,-0.539,25.0
80.538,-10.13,0.841,10.0
68.608,-8.634,0.349,2.0
68.628,-8.642,-0.018,5.0
46.186,-5.819,-0.265,21.0
39.792,-5.017,-0.441,7.0
31.623,-3.99,-0.52,21.0
68.323,-8.619,0.789,3.0
68.455,-8.64,0.424,2.0
68.656,-8.669,0.057,4.0
47.482,-5.999,-0.219,22.0
39.866,-5.039,-0.397,21.0
32.572,-4.12,-0.499,24.0
191.992,-24.284,2.433,22.0
68.331,-8.646,0.5,4.0
68.303,-8.646,0.133,2.0
48.341,-6.122,-0.169,6.0
40.0,-5.068,-0.354,14.0
33.466,-4.242,-0.475,26.0
192.002,-24.339,2.649,32.0
68.283,-8.658,0.576,2.0
68.109,-8.639,0.209,2.0
55.565,-7.051,-0.131,6.0
0.0,0.0,0.0,0.0
34.188,-4.342,-0.447,26.0
191.979,-24.382,2.866,30.0
68.249,-8.669,0.652,4.0
68.045,-8.646,0.287,2.0
55.955,-7.112,-0.069,10.0
45.815,-5.825,-0.302,19.0
39.721,-5.052,-0.474,4.0
191.947,-24.414,3.083,32.0
68.282,-8.686,0.731,7.0
67.992,-8.651,0.364,2.0
60.979,-7.76,-0.006,5.0
46.441,-5.911,-0.252,20.0
39.757,-5.062,-0.429,10.0
191.982,-24.447,3.302,26.0
68.273,-8.694,0.808,3.0
67.93,-8.651,0.441,3.0
68.044,-8.667,0.07,2.0
47.646,-6.07,-0.205,21.0
39.869,-5.08,-0.386,9.0
191.967,-24.463,3.52,11.0
191.907,-24.455,2.49,32.0
67.908,-8.654,0.516,3.0
67.952,-8.66,0.147,2.0
49.427,-6.299,-0.157,22.0
40.008,-5.099,-0.341,3.0
197.877,-25.227,3.852,9.0
191.975,-24.472,2.709,24.0
68.096,-8.68,0.596,2.0
67.982,-8.665,0.224,2.0
55.778,-7.109,-0.114,8.0
45.503,-5.8,-0.337,4.0
198.068,-25.252,4.081,5.0
191.934,-24.465,2.927,24.0
68.178,-8.689,0.674,2.0
67.928,-8.656,0.301,2.0
60.999,-7.773,-0.055,5.0
45.928,-5.852,-0.287,20.0
139.535,-17.783,3.035,11.0
191.905,-24.452,3.146,29.0
68.252,-8.694,0.753,5.0
67.912,-8.649,0.379,3.0
61.015,-7.769,0.014,5.0
47.039,-5.989,-0.24,21.0
139.508,-17.767,3.194,18.0
191.922,-24.434,3.366,26.0
191.936,-24.429,2.338,20.0
67.988,-8.651,0.457,3.0
68.13,-8.667,0.093,2.0
48.033,-6.109,-0.191,22.0
63.085,-8.025,1.516,6.0
197.906,-25.167,3.694,6.0
191.93,-24.398,2.552,31.0
68.164,-8.662,0.535,2.0
68.139,-8.656,0.17,2.0
50.15,-6.369,-0.143,15.0
63.122,-8.019,1.587,21.0
197.193,-25.039,3.9,10.0
191.927,-24.359,2.768,30.0
68.336,-8.669,0.613,4.0
68.226,-8.652,0.246,2.0
55.745,-7.066,-0.098,10.0
63.098,-8.001,1.657,33.0
139.739,-17.71,2.921,5.0
191.982,-24.318,2.985,31.0
68.257,-8.641,0.688,7.0
68.311,-8.644,0.323,1.0
61.016,-7.717,-0.038,3.0
63.071,-7.98,1.727,28.0
139.608,-17.653,3.074,20.0
191.996,-24.262,3.2,27.0
68.287,-8.624,0.765,3.0
68.444,-8.639,0.399,2.0
68.656,-8.661,0.033,8.0
63.11,-7.965,1.798,29.0
139.546,-17.599,3.227,26.0
192.047,-24.203,3.411,22.0
191.959,-24.176,2.359,23.0
68.603,-8.634,0.475,2.0
68.713,-8.643,0.107,8.0
63.139,-7.945,1.868,28.0
63.061,-7.929,1.527,6.0
197.297,-24.788,3.72,6.0
191.96,-24.1,2.567,29.0
80.562,-10.107,0.646,17.0
68.749,-8.618,0.182,5.0
63.188,-7.925,1.938,8.0
63.09,-7.906,1.596,15.0
139.605,-17.479,2.782,7.0
192.007,-24.02,2.777,29.0
80.489,-10.061,0.731,29.0
69.042,-8.623,0.257,3.0
139.1,-17.383,4.417,15.0
63.074,-7.874,1.664,18.0
139.614,-17.414,2.931,16.0
192.001,-23.925,2.983,31.0
80.49,-10.021,0.817,21.0
69.258,-8.615,0.331,3.0
85.448,-10.635,2.804,11.0
63.059,-7.84,1.729,12.0
139.636,-17.344,3.079,17.0
192.083,-23.835,3.182,16.0
80.486,-9.977,0.901,9.0
80.434,-9.962,0.468,27.0
85.179,-10.556,2.883,14.0
165.335,-20.466,4.705,7.0
139.675,-17.27,3.224,11.0
188.763,-23.314,3.325,21.0
192.063,-23.696,2.351,21.0
80.334,-9.901,0.551,29.0
84.81,-10.459,2.959,28.0
139.127,-17.137,4.105,9.0
139.633,-17.179,3.367,6.0
188.429,-23.155,3.511,14.0
192.109,-23.58,2.547,31.0
80.317,-9.847,0.633,27.0
84.681,-10.389,3.041,28.0
85.71,-10.501,2.617,4.0
165.356,-20.234,4.156,13.0
188.425,-23.028,3.703,20.0
192.091,-23.448,2.741,19.0
80.279,-9.787,0.713,30.0
84.594,-10.321,3.122,22.0
84.282,-10.268,2.657,12.0
165.352,-20.118,4.322,9.0
188.189,-22.865,3.886,19.0
153.697,-18.65,2.346,13.0
80.256,-9.726,0.793,23.0
84.719,-10.274,3.212,19.0
84.293,-10.207,2.741,25.0
139.098,-16.819,3.773,15.0
153.818,-18.572,3.327,16.0
153.702,-18.532,2.496,20.0
80.376,-9.678,0.873,11.0
0.0,0.0,0.0,0.0
84.448,-10.16,2.827,32.0
0.0,0.0,0.0,0.0
153.779,-18.445,3.474,17.0
153.784,-18.419,2.643,19.0
153.605,-18.371,1.812,11.0
84.232,-10.082,3.355,14.0
84.613,-10.11,2.912,33.0
84.227,-10.048,2.444,20.0
138.807,-16.533,3.263,21.0
153.815,-18.293,2.788,12.0
192.194,-22.822,2.447,18.0
84.121,-9.996,3.429,32.0
84.628,-10.039,2.992,30.0
84.202,-9.972,2.521,35.0
138.93,-16.425,3.396,16.0
85.393,-10.079,1.626,7.0
192.281,-22.66,2.623,26.0
83.896,-9.894,3.496,31.0
84.367,-9.932,3.058,30.0
84.169,-9.891,2.595,40.0
84.225,-9.88,2.134,13.0
85.347,-9.994,1.701,13.0
85.14,-9.954,1.236,5.0
83.882,-9.814,3.569,33.0
83.883,-9.796,3.115,40.0
83.409,-9.722,2.645,27.0
84.275,-9.805,2.207,30.0
85.22,-9.898,1.771,16.0
84.935,-9.847,1.306,8.0
83.887,-9.733,3.641,34.0
83.748,-9.698,3.181,43.0
82.992,-9.592,2.702,9.0
84.144,-9.706,2.276,28.0
85.31,-9.822,1.845,10.0
84.751,-9.739,1.374,7.0
84.11,-9.673,3.721,37.0
83.605,-9.595,3.245,38.0
82.404,-9.438,2.752,12.0
82.684,-9.451,2.304,17.0
82.861,-9.453,1.859,10.0
84.667,-9.641,1.441,10.0
83.91,-9.561,3.781,40.0
83.699,-9.517,3.316,47.0
82.282,-9.337,2.813,30.0
82.592,-9.352,2.367,23.0
82.517,-9.324,1.917,25.0
84.504,-9.53,1.506,29.0
83.825,-9.461,3.843,38.0
82.73,-9.316,3.343,24.0
82.345,-9.253,2.879,35.0
82.246,-9.221,2.42,40.0
82.414,-9.219,1.978,34.0
0.0,0.0,0.0,0.0
83.812,-9.364,3.905,43.0
82.6,-9.207,3.399,34.0
82.458,-9.171,2.945,38.0
82.078,-9.108,2.477,37.0
81.865,-9.064,2.025,39.0
82.825,-9.15,1.599,31.0
83.829,-9.269,3.967,38.0
82.579,-9.109,3.458,30.0
82.386,-9.066,3.001,40.0
81.986,-9.001,2.532,40.0
81.875,-8.968,2.083,34.0
81.898,-8.951,1.638,40.0
83.834,-9.17,4.025,32.0
82.593,-9.012,3.515,39.0
82.331,-8.961,3.056,40.0
81.691,-8.869,2.579,41.0
82.008,-8.882,2.142,42.0
81.914,-8.851,1.694,40.0
83.905,-9.073,4.086,34.0
83.363,-8.991,3.605,43.0
82.262,-8.85,3.108,40.0
81.603,-8.758,2.63,35.0
81.775,-8.754,2.189,46.0
81.865,-8.743,1.745,39.0
83.971,-8.974,4.144,34.0
82.893,-8.836,3.637,22.0
82.378,-8.758,3.163,39.0
81.811,-8.675,2.687,37.0
81.704,-8.642,2.237,40.0
81.896,-8.641,1.795,42.0
83.888,-8.857,4.19,24.0
0.0,0.0,0.0,0.0
82.478,-8.661,3.217,36.0
82.402,-8.63,2.755,55.0
81.694,-8.533,2.285,39.0
81.993,-8.542,1.846,44.0
83.614,-8.717,4.225,32.0
81.979,-8.523,3.693,19.0
82.086,-8.51,3.248,41.0
82.413,-8.52,2.802,43.0
81.699,-8.422,2.331,39.0
82.1,-8.441,1.893,42.0
83.264,-8.567,4.253,35.0
82.006,-8.412,3.739,16.0
82.027,-8.39,3.29,42.0
82.066,-8.37,2.834,56.0
81.907,-8.33,2.38,51.0
82.464,-8.364,1.944,51.0
82.283,-8.351,4.245,38.0
82.163,-8.314,3.788,30.0
82.018,-8.275,3.33,37.0
81.86,-8.234,2.868,44.0
82.341,-8.259,2.433,38.0
82.501,-8.251,1.985,27.0
82.346,-8.241,4.287,30.0
82.077,-8.189,3.822,41.0
83.249,-8.281,3.42,36.0
81.927,-8.124,2.908,44.0
82.181,-8.125,2.465,39.0
82.342,-8.117,2.019,43.0
82.498,-8.137,4.332,35.0
81.866,-8.048,3.849,44.0
82.008,-8.036,3.404,28.0
82.085,-8.019,2.949,47.0
82.158,-8.001,2.5,42.0
82.222,-7.983,2.05,47.0
81.859,-7.952,4.333,34.0
81.861,-7.927,3.882,37.0
82.736,-7.985,3.468,12.0
82.16,-7.902,2.984,42.0
82.093,-7.871,2.53,51.0
82.039,-7.842,2.077,40.0
82.004,-7.842,4.372,26.0
82.008,-7.816,3.919,29.0
81.851,-7.775,3.461,19.0
81.968,-7.76,3.007,45.0
82.025,-7.74,2.557,49.0
81.962,-7.708,2.104,38.0
82.193,-7.734,4.41,35.0
82.16,-7.704,3.955,34.0
81.754,-7.639,3.484,28.0
81.959,-7.631,3.033,48.0
82.062,-7.616,2.585,44.0
82.116,-7.596,2.134,38.0
83.582,-7.734,4.51,40.0
81.948,-7.555,3.97,33.0
81.664,-7.502,3.505,40.0
81.909,-7.498,3.054,49.0
82.146,-7.493,2.61,48.0
82.322,-7.483,2.163,43.0
83.757,-7.616,4.543,38.0
82.045,-7.432,3.996,41.0
81.85,-7.388,3.534,29.0
81.968,-7.371,3.077,51.0
82.21,-7.367,2.633,35.0
82.355,-7.355,2.183,33.0
83.541,-7.462,4.551,42.0
82.842,-7.371,4.054,49.0
81.753,-7.248,3.548,38.0
82.083,-7.249,3.1,58.0
82.209,-7.233,2.65,40.0
83.771,-7.344,2.238,14.0
83.269,-7.301,4.552,36.0
82.968,-7.246,4.076,39.0
81.733,-7.11,3.562,34.0
82.284,-7.132,3.122,50.0
82.402,-7.114,2.671,46.0
83.113,-7.149,2.234,27.0
83.35,-7.169,4.57,37.0
83.3,-7.137,4.105,43.0
81.816,-6.982,3.578,32.0
81.956,-6.968,3.121,47.0
82.175,-6.959,2.674,46.0
82.616,-6.969,2.231,63.0
83.819,-7.07,4.606,32.0
83.31,-6.997,4.115,41.0
82.87,-6.933,3.633,22.0
81.944,-6.828,3.129,41.0
82.206,-6.822,2.684,45.0
82.43,-6.814,2.233,39.0
83.618,-6.911,4.602,40.0
83.317,-6.857,4.121,39.0
83.662,-6.857,3.673,23.0
82.546,-6.738,3.157,38.0
82.34,-6.694,2.692,42.0
82.354,-6.667,2.236,36.0
83.384,-6.75,4.593,42.0
83.095,-6.698,4.113,41.0
83.911,-6.735,3.687,39.0
82.411,-6.586,3.154,41.0
82.474,-6.563,2.698,49.0
82.184,-6.512,2.232,39.0
83.44,-6.61,4.595,41.0
83.198,-6.561,4.119,40.0
84.094,-6.603,3.694,22.0
82.387,-6.44,3.152,40.0
82.645,-6.432,2.702,42.0
82.36,-6.382,2.235,43.0
83.448,-6.463,4.594,37.0
83.428,-6.433,4.126,36.0
83.692,-6.425,3.673,10.0
82.455,-6.301,3.15,35.0
82.768,-6.297,2.701,50.0
82.56,-6.253,2.234,35.0
83.926,-6.353,4.614,52.0
83.327,-6.278,4.115,35.0
83.425,-6.257,3.653,14.0
82.662,-6.17,3.15,39.0
82.898,-6.159,2.696,45.0
82.538,-6.105,2.225,35.0
84.235,-6.226,4.62,26.0
83.396,-6.134,4.108,37.0
83.244,-6.094,3.634,38.0
82.955,-6.044,3.151,43.0
82.71,-5.998,2.679,46.0
82.509,-5.956,2.213,37.0
84.442,-6.09,4.619,34.0
83.484,-5.992,4.099,30.0
83.555,-5.968,3.634,57.0
82.936,-5.894,3.136,45.0
82.822,-5.858,2.668,51.0
82.538,-5.81,2.198,40.0
84.224,-5.924,4.591,38.0
83.61,-5.851,4.088,21.0
24.586,-1.712,1.064,4.0
24.558,-1.701,0.923,24.0
24.569,-1.694,0.786,4.0
82.51,-5.66,2.178,31.0
24.516,-1.68,1.33,42.0
24.509,-1.67,1.192,26.0
24.485,-1.66,1.054,22.0
24.458,-1.65,0.913,27.0
24.515,-1.646,0.778,35.0
24.556,-1.64,0.641,26.0
24.479,-1.633,1.321,77.0
24.482,-1.624,1.184,54.0
24.473,-1.615,1.046,38.0
24.457,-1.605,0.906,60.0
24.501,-1.6,0.77,60.0
24.546,-1.594,0.634,59.0
24.474,-1.588,1.313,90.0
24.475,-1.579,1.175,81.0
24.464,-1.57,1.038,43.0
24.46,-1.561,0.898,81.0
24.499,-1.555,0.761,59.0
24.548,-1.55,0.625,91.0
24.464,-1.542,1.304,87.0
24.441,-1.532,1.165,60.0
24.459,-1.525,1.028,41.0
24.463,-1.517,0.888,67.0
24.518,-1.512,0.753,59.0
24.547,-1.505,0.616,68.0
24.446,-1.496,1.293,76.0
24.46,-1.488,1.156,40.0
24.482,-1.481,1.019,30.0
24.493,-1.473,0.879,52.0
24.55,-1.468,0.743,76.0
24.571,-1.461,0.606,78.0
24.483,-1.453,1.284,75.0
24.502,-1.445,1.147,70.0
24.506,-1.437,1.009,43.0
24.543,-1.431,0.87,45.0
24.59,-1.425,0.733,42.0
24.59,-1.417,0.595,30.0
24.539,-1.411,1.276,43.0
24.539,-1.402,1.137,28.0
24.597,-1.397,1.001,5.0
24.598,-1.389,0.86,4.0
84.099,-4.723,2.466,20.0
83.523,-4.662,1.979,32.0
28.423,-1.582,1.463,69.0
83.591,-4.624,3.83,30.0
83.515,-4.592,3.355,32.0
83.754,-4.575,2.883,44.0
84.126,-4.568,2.422,41.0
83.883,-4.526,1.941,42.0
28.428,-1.529,1.447,71.0
83.49,-4.465,3.778,28.0
83.686,-4.446,3.314,35.0
84.672,-4.469,2.866,55.0
84.34,-4.424,2.379,37.0
84.702,-4.414,1.911,42.0
28.409,-1.476,1.429,66.0
84.933,-4.383,3.791,43.0
83.624,-4.286,3.259,13.0
85.054,-4.33,2.825,39.0
84.76,-4.287,2.337,33.0
84.698,-4.255,1.857,37.0
28.416,-1.423,1.411,43.0
85.706,-4.263,3.771,42.0
85.871,-4.242,3.291,22.0
85.856,-4.212,2.796,39.0
84.756,-4.13,2.28,33.0
84.57,-4.093,1.797,38.0
28.374,-1.368,1.389,24.0
85.583,-4.099,3.706,15.0
86.093,-4.093,3.239,4.0
85.991,-4.059,2.74,21.0
85.015,-3.985,2.227,36.0
85.053,-3.959,1.747,29.0
28.387,-1.316,1.369,0.0
159.622,-7.349,6.796,36.0
165.816,-7.578,6.118,26.0
86.179,-3.909,2.682,10.0
85.269,-3.839,2.171,12.0
31.293,-1.398,0.619,31.0
31.323,-1.394,1.487,2.0
28.414,-1.255,1.187,0.0
31.329,-1.373,1.131,1.0
28.45,-1.238,0.863,56.0
28.444,-1.228,0.701,64.0
28.435,-1.218,0.54,70.0
28.441,-1.213,1.327,61.0
28.43,-1.203,1.165,78.0
28.423,-1.194,1.003,108.0
28.417,-1.184,0.839,100.0
28.433,-1.175,0.678,112.0
28.448,-1.167,0.517,150.0
28.433,-1.161,1.303,122.0
28.436,-1.152,1.141,137.0
28.421,-1.142,0.979,87.0
28.438,-1.133,0.815,66.0
28.452,-1.124,0.654,70.0
28.468,-1.116,0.492,66.0
28.451,-1.11,1.279,63.0
31.243,-1.208,1.227,23.0
31.264,-1.199,1.049,51.0
31.266,-1.189,0.868,59.0
31.292,-1.18,0.691,53.0
31.291,-1.17,0.513,44.0
31.255,-1.162,1.376,48.0
31.243,-1.151,1.197,40.0
31.262,-1.142,1.02,43.0
31.285,-1.133,0.84,47.0
31.351,-1.126,0.663,30.0
84.29,-3.001,1.304,8.0
31.288,-1.107,1.348,41.0
31.298,-1.097,1.17,34.0
31.352,-1.089,0.993,25.0
31.422,-1.081,0.813,2.0
38.747,-1.321,0.782,4.0
38.741,-1.309,0.561,5.0
38.652,-1.297,1.627,68.0
38.656,-1.285,1.406,60.0
38.636,-1.272,1.185,56.0
38.62,-1.26,0.96,67.0
38.64,-1.248,0.741,63.0
38.646,-1.237,0.52,59.0
38.657,-1.228,1.587,91.0
38.614,-1.214,1.364,67.0
38.58,-1.201,1.143,58.0
38.62,-1.19,0.92,82.0
38.633,-1.179,0.699,87.0
38.639,-1.168,0.48,80.0
38.649,-1.159,1.545,106.0
38.579,-1.145,1.322,64.0
38.568,-1.133,1.101,68.0
38.646,-1.123,0.879,78.0
38.623,-1.111,0.658,70.0
38.643,-1.1,0.438,78.0
38.657,-1.091,1.503,66.0
38.578,-1.077,1.279,62.0
38.625,-1.067,1.06,84.0
38.626,-1.055,0.835,61.0
38.666,-1.044,0.615,65.0
38.672,-1.033,0.394,53.0
38.735,-1.026,1.462,15.0
38.675,-1.013,1.239,43.0
38.634,-1.0,1.016,51.0
38.731,-0.991,0.793,33.0
40.406,-1.022,0.597,25.0
40.428,-1.011,0.366,25.0
40.439,-1.001,1.479,27.0
38.729,-0.947,1.195,24.0
38.731,-0.936,0.973,29.0
40.406,-0.964,0.78,39.0
40.411,-0.952,0.548,41.0
40.421,-0.941,0.317,83.0
40.406,-0.931,1.429,39.0
40.408,-0.918,1.197,42.0
40.411,-0.907,0.966,7.0
38.388,-0.85,0.694,13.0
38.381,-0.839,0.474,38.0
38.386,-0.828,0.254,56.0
45.719,-0.975,1.56,9.0
45.718,-0.961,1.298,38.0
38.401,-0.796,0.87,7.0
52.983,-1.083,0.891,11.0
52.948,-1.068,0.587,50.0
52.924,-1.052,0.283,58.0
45.776,-0.898,1.503,30.0
64.324,-1.244,1.743,39.0
193.216,-3.682,4.128,14.0
192.76,-3.618,2.992,22.0
203.576,-3.763,1.993,6.0
20.127,-0.366,0.081,8.0
64.298,-1.155,2.027,79.0
64.31,-1.137,1.658,8.0
176.652,-3.073,3.54,30.0
176.606,-3.023,2.508,146.0
20.135,-0.338,0.17,8.0
20.147,-0.333,0.055,50.0
59.513,-0.971,1.796,17.0
59.507,-0.954,1.454,14.0
20.148,-0.317,0.376,2.0
20.125,-0.311,0.258,9.0
20.111,-0.306,0.143,14.0
59.536,-0.89,0.082,9.0
59.412,-0.873,1.712,11.0
53.525,-0.773,1.235,13.0
20.131,-0.285,0.348,11.0
20.12,-0.279,0.231,12.0
20.142,-0.274,0.115,9.0
59.546,-0.795,0.0,63.0
59.399,-0.778,1.628,36.0
20.133,-0.258,0.436,11.0
20.129,-0.253,0.32,11.0
20.15,-0.247,0.202,10.0
56.186,-0.675,0.242,2.0
56.33,-0.663,-0.08,1.0
20.15,-0.232,0.523,12.0
20.141,-0.226,0.407,16.0
64.349,-0.706,0.931,11.0
64.31,-0.689,0.553,75.0
56.179,-0.587,0.16,5.0
56.23,-0.573,-0.162,12.0
20.147,-0.2,0.494,14.0
20.177,-0.195,0.378,19.0
64.335,-0.607,0.836,23.0
53.372,-0.489,0.381,4.0
53.344,-0.475,0.073,4.0
20.196,-0.174,-0.088,4.0
20.184,-0.169,0.464,20.0
20.262,-0.165,0.349,24.0
20.201,-0.159,0.232,15.0
20.17,-0.154,0.113,14.0
20.185,-0.149,-0.002,25.0
20.158,-0.144,-0.118,21.0
20.153,-0.139,0.433,17.0
20.122,-0.134,0.316,17.0
20.125,-0.129,0.2,19.0
20.137,-0.124,0.082,28.0
20.146,-0.119,-0.033,27.0
20.143,-0.114,-0.149,32.0
20.127,-0.109,0.401,28.0
20.126,-0.104,0.285,25.0
20.129,-0.099,0.169,26.0
20.132,-0.094,0.051,34.0
20.136,-0.089,-0.064,31.0
20.151,-0.084,-0.181,35.0
20.114,-0.079,0.369,34.0
20.115,-0.074,0.253,27.0
20.108,-0.069,0.137,29.0
20.123,-0.065,0.019,34.0
20.145,-0.06,-0.096,34.0
20.133,-0.055,-0.213,12.0
20.123,-0.05,0.337,32.0
20.116,-0.046,0.221,34.0
20.122,-0.041,0.104,37.0
20.129,-0.036,-0.013,32.0
20.167,-0.032,-0.129,27.0
20.171,-0.027,-0.246,12.0
20.126,-0.022,0.304,29.0
20.12,-0.017,0.187,29.0
20.144,-0.013,0.072,28.0
20.252,-0.008,-0.046,48.0
20.271,-0.003,-0.163,150.0
20.27,0.0,-0.28,85.0
20.127,0.005,0.271,28.0
20.131,0.009,0.154,26.0
20.254,0.014,0.039,150.0
20.26,0.018,-0.08,151.0
20.259,0.023,-0.197,150.0
20.259,0.028,-0.314,57.0
20.137,0.032,0.237,28.0
20.146,0.036,0.121,28.0
20.201,0.041,0.004,17.0
20.215,0.045,-0.113,25.0
20.237,0.05,-0.231,1.0
43.452,0.116,-0.746,0.0
20.153,0.058,0.203,30.0
20.19,0.063,0.087,27.0
20.206,0.067,-0.029,29.0
20.19,0.071,-0.148,27.0
20.21,0.076,-0.265,9.0
41.49,0.165,-0.784,0.0
20.151,0.084,0.169,28.0
20.192,0.088,0.052,34.0
20.189,0.093,-0.063,33.0
20.179,0.097,-0.182,26.0
20.196,0.101,-0.299,26.0
20.181,0.106,-0.416,0.0
20.175,0.109,0.134,25.0
20.189,0.114,0.017,27.0
20.177,0.118,-0.099,35.0
20.167,0.122,-0.218,28.0
20.195,0.126,-0.335,28.0
20.208,0.13,-0.452,11.0
20.211,0.135,0.098,35.0
20.21,0.139,-0.018,25.0
20.181,0.142,-0.135,29.0
20.177,0.147,-0.254,33.0
20.17,0.15,-0.37,27.0
20.21,0.155,-0.488,26.0
20.272,0.159,0.062,27.0
20.219,0.163,-0.054,20.0
20.182,0.166,-0.171,18.0
20.174,0.17,-0.289,32.0
20.179,0.174,-0.406,35.0
20.191,0.178,-0.524,29.0
20.343,0.183,0.026,34.0
20.213,0.186,-0.09,6.0
20.163,0.189,-0.207,18.0
20.167,0.193,-0.326,28.0
20.177,0.197,-0.443,25.0
20.189,0.201,-0.56,33.0
20.324,0.206,-0.01,4.0
20.225,0.208,-0.127,0.0
20.194,0.212,-0.244,22.0
20.179,0.216,-0.363,28.0
20.177,0.219,-0.48,25.0
20.194,0.223,-0.597,32.0
0.0,0.0,0.0,0.0
20.214,0.23,-0.164,1.0
20.184,0.234,-0.281,19.0
20.18,0.237,-0.4,22.0
20.195,0.241,-0.517,26.0
20.214,0.245,-0.635,25.0
0.0,0.0,0.0,0.0
0.0,0.0,0.0,0.0
20.191,0.255,-0.318,5.0
20.222,0.259,-0.438,11.0
20.216,0.262,-0.555,22.0
20.227,0.266,-0.673,22.0
0.0,0.0,0.0,0.0
0.0,0.0,0.0,0.0
20.247,0.276,-0.357,0.0
20.2,0.279,-0.475,1.0
20.21,0.282,-0.593,3.0
20.243,0.286,-0.712,1.0
0.0,0.0,0.0,0.0
0.0,0.0,0.0,0.0
0.0,0.0,0.0,0.0
32.885,0.486,-0.836,0.0
28.218,0.422,-0.882,0.0
24.255,0.366,-0.899,0.0
0.0,0.0,0.0,0.0
0.0,0.0,0.0,0.0
37.328,0.581,-0.799,0.0
31.515,0.495,-0.861,1.0
26.56,0.422,-0.88,0.0
23.0,0.369,-0.896,0.0
0.0,0.0,0.0,0.0
0.0,0.0,0.0,0.0
34.343,0.565,-0.801,0.0
29.641,0.493,-0.867,0.0
25.3,0.424,-0.887,0.0
20.125,0.341,-0.823,1.0
0.0,0.0,0.0,0.0
0.0,0.0,0.0,0.0
33.9,0.588,-0.856,2.0
28.319,0.495,-0.882,0.0
24.314,0.428,-0.899,0.0
20.152,0.358,-0.862,1.0
0.0,0.0,0.0,0.0
37.215,0.671,-0.795,0.0
31.597,0.574,-0.859,1.0
26.455,0.484,-0.876,0.0
23.061,0.425,-0.897,0.0
20.437,0.38,-0.914,0.0
0.0,0.0,0.0,0.0
34.838,0.655,-0.811,0.0
29.596,0.561,-0.861,0.0
25.379,0.484,-0.888,0.0
22.349,0.429,-0.912,0.0
19.704,0.381,-0.919,0.0
0.0,0.0,0.0,0.0
32.892,0.644,-0.829,1.0
28.283,0.557,-0.878,0.0
24.139,0.479,-0.892,0.0
21.127,0.422,-0.904,0.0
18.898,0.38,-0.918,0.0
36.938,0.745,-0.789,0.0
31.472,0.639,-0.855,1.0
26.477,0.541,-0.874,0.0
22.965,0.472,-0.893,0.0
20.507,0.424,-0.917,0.0
18.322,0.381,-0.926,0.0
35.229,0.735,-0.822,0.0
29.563,0.62,-0.861,0.0
25.362,0.535,-0.887,0.0
22.223,0.472,-0.908,0.0
19.796,0.423,-0.924,0.0
17.774,0.381,-0.933,0.0
32.598,0.701,-0.824,1.0
28.539,0.617,-0.887,0.0
24.162,0.525,-0.891,0.0
21.103,0.461,-0.904,0.0
18.799,0.413,-0.915,0.0
17.022,0.376,-0.927,0.0
31.379,0.694,-0.854,1.0
26.414,0.587,-0.873,0.0
22.842,0.51,-0.888,0.0
20.416,0.458,-0.914,0.0
18.263,0.412,-0.924,0.0
16.553,0.375,-0.934,0.0
28.915,0.656,-0.844,0.0
25.16,0.573,-0.88,0.0
22.166,0.507,-0.905,0.0
19.66,0.452,-0.919,0.0
17.728,0.41,-0.932,0.0
16.066,0.373,-0.938,0.0
28.251,0.656,-0.879,0.0
24.05,0.561,-0.889,0.0
21.063,0.493,-0.901,0.0
18.782,0.442,-0.915,0.0
16.947,0.4,-0.924,0.0
15.476,0.367,-0.934,0.0
26.351,0.625,-0.872,0.0
22.82,0.543,-0.888,0.0
20.277,0.484,-0.907,0.0
18.194,0.436,-0.922,0.0
16.491,0.397,-0.931,0.0
15.105,0.365,-0.941,0.0
24.993,0.604,-0.876,0.0
22.21,0.539,-0.908,0.0
19.712,0.48,-0.92,0.0
17.554,0.429,-0.923,0.0
16.075,0.394,-0.939,0.0
14.661,0.361,-0.942,0.0
23.987,0.589,-0.887,0.0
21.056,0.519,-0.901,0.0
18.761,0.464,-0.912,0.0
16.924,0.42,-0.923,0.0
15.481,0.386,-0.935,0.0
14.321,0.358,-0.949,0.0
22.804,0.569,-0.888,0.0
20.271,0.507,-0.907,0.0
18.166,0.456,-0.919,0.0
16.417,0.413,-0.928,0.0
15.079,0.381,-0.94,0.0
0.0,0.0,0.0,0.0
22.194,0.561,-0.907,0.0
19.759,0.501,-0.922,0.0
17.51,0.445,-0.919,0.0
16.034,0.409,-0.937,0.0
14.632,0.374,-0.94,0.0
13.404,0.344,-0.94,0.0
20.993,0.537,-0.899,0.0
18.658,0.478,-0.907,0.0
16.955,0.436,-0.923,0.0
15.457,0.398,-0.933,0.0
14.326,0.37,-0.949,0.0
13.132,0.34,-0.946,0.0
20.226,0.522,-0.905,0.0
18.217,0.472,-0.921,0.0
16.488,0.428,-0.93,0.0
15.02,0.391,-0.936,0.0
13.806,0.36,-0.941,0.0
12.794,0.334,-0.947,0.0
19.598,0.511,-0.915,0.0
17.638,0.46,-0.926,0.0
16.026,0.419,-0.934,0.0
14.624,0.383,-0.94,0.0
13.378,0.351,-0.938,0.0
12.433,0.327,-0.944,0.0
18.736,0.491,-0.91,0.0
16.886,0.444,-0.919,0.0
15.44,0.406,-0.93,0.0
14.331,0.378,-0.948,0.0
13.102,0.346,-0.944,0.0
12.164,0.322,-0.947,0.0
18.133,0.478,-0.915,0.0
16.464,0.435,-0.927,0.0
15.023,0.397,-0.933,0.0
13.778,0.365,-0.938,0.0
12.818,0.34,-0.947,0.0
11.829,0.314,-0.943,0.0
17.604,0.466,-0.922,0.0
16.027,0.425,-0.932,0.0
14.662,0.389,-0.938,0.0
13.418,0.357,-0.938,0.0
12.477,0.332,-0.946,0.0
11.539,0.308,-0.942,0.0
16.899,0.448,-0.917,0.0
15.489,0.411,-0.93,0.0
14.282,0.38,-0.941,0.0
13.156,0.35,-0.945,0.0
12.204,0.325,-0.948,0.0
11.321,0.302,-0.946,0.0
16.499,0.438,-0.926,0.0
15.089,0.401,-0.935,0.0
0.0,0.0,0.0,0.0
12.81,0.341,-0.944,0.0
11.863,0.316,-0.944,0.0
11.154,0.298,-0.953,0.0
16.067,0.426,-0.932,0.0
14.691,0.39,-0.937,0.0
13.418,0.357,-0.934,0.0
12.532,0.333,-0.947,0.0
11.557,0.308,-0.941,0.0
10.85,0.289,-0.947,0.0
15.536,0.411,-0.929,0.0
14.37,0.381,-0.943,0.0
13.133,0.348,-0.939,0.0
12.189,0.323,-0.944,0.0
11.356,0.301,-0.945,0.0
10.624,0.282,-0.947,0.0
15.14,0.399,-0.933,0.0
0.0,0.0,0.0,0.0
12.919,0.341,-0.947,0.0
11.879,0.314,-0.941,0.0
11.157,0.295,-0.949,0.0
10.394,0.275,-0.945,0.0
14.727,0.386,-0.934,0.0
13.455,0.353,-0.932,0.0
12.558,0.33,-0.943,0.0
11.589,0.304,-0.939,0.0
10.945,0.288,-0.951,0.0
10.194,0.268,-0.945,0.0
14.416,0.376,-0.94,0.0
13.259,0.346,-0.942,0.0
12.28,0.32,-0.944,0.0
11.356,0.296,-0.94,0.0
10.639,0.277,-0.943,0.0
10.013,0.261,-0.946,0.0
14.304,0.37,-0.958,0.0
12.957,0.335,-0.943,0.0
12.011,0.311,-0.944,0.0
11.177,0.289,-0.945,0.0
10.444,0.27,-0.944,0.0
9.847,0.255,-0.948,0.0
13.716,0.352,-0.943,0.0
12.654,0.324,-0.943,0.0
11.666,0.299,-0.938,0.0
10.91,0.279,-0.942,0.0
10.272,0.263,-0.947,0.0
9.656,0.247,-0.946,0.0
13.311,0.337,-0.938,0.0
12.358,0.313,-0.942,0.0
11.431,0.29,-0.938,0.0
10.657,0.27,-0.938,0.0
10.055,0.254,-0.944,0.0
9.496,0.24,-0.947,0.0
13.042,0.327,-0.941,0.0
12.061,0.302,-0.94,0.0
11.272,0.282,-0.944,0.0
10.514,0.263,-0.943,0.0
9.896,0.247,-0.946,0.0
9.292,0.232,-0.942,0.0
12.758,0.315,-0.942,0.0
11.843,0.292,-0.943,0.0
10.993,0.271,-0.939,0.0
10.326,0.254,-0.944,0.0
9.739,0.24,-0.947,0.0
9.17,0.225,-0.945,0.0
12.496,0.304,-0.943,0.0
11.564,0.281,-0.94,0.0
10.8,0.262,-0.941,0.0
10.146,0.246,-0.944,0.0
9.546,0.231,-0.944,0.0
8.999,0.217,-0.943,0.0
12.229,0.292,-0.943,0.0
11.371,0.271,-0.943,0.0
10.621,0.253,-0.942,0.0
9.929,0.236,-0.94,0.0
9.356,0.222,-0.94,0.0
8.842,0.21,-0.94,0.0
11.971,0.281,-0.942,0.0
11.155,0.261,-0.942,0.0
10.42,0.243,-0.941,0.0
9.819,0.229,-0.945,0.0
9.245,0.215,-0.944,0.0
8.719,0.203,-0.941,0.0
11.675,0.268,-0.937,0.0
10.979,0.252,-0.945,0.0
10.276,0.235,-0.944,0.0
9.645,0.22,-0.943,0.0
9.084,0.207,-0.942,0.0
8.596,0.195,-0.941,0.0
11.498,0.258,-0.94,0.0
10.719,0.24,-0.939,0.0
10.065,0.225,-0.94,0.0
9.511,0.212,-0.945,0.0
8.954,0.199,-0.942,0.0
8.491,0.188,-0.943,0.0
11.292,0.247,-0.941,0.0
10.535,0.23,-0.939,0.0
9.92,0.216,-0.942,0.0
9.331,0.203,-0.941,0.0
8.812,0.191,-0.94,0.0
8.388,0.181,-0.944,0.0
11.133,0.237,-0.944,0.0
10.399,0.221,-0.942,0.0
9.779,0.207,-0.943,0.0
9.201,0.194,-0.942,0.0
8.703,0.183,-0.941,0.0
8.234,0.173,-0.939,0.0
10.884,0.225,-0.939,0.0
10.223,0.211,-0.941,0.0
9.629,0.198,-0.942,0.0
9.063,0.186,-0.941,0.0
8.561,0.175,-0.938,0.0
8.146,0.166,-0.941,0.0
10.738,0.215,-0.941,0.0
10.078,0.202,-0.942,0.0
9.51,0.189,-0.944,0.0
8.941,0.177,-0.941,0.0
8.473,0.168,-0.941,0.0
8.065,0.159,-0.943,0.0
10.573,0.205,-0.942,0.0
9.921,0.192,-0.941,0.0
9.317,0.179,-0.938,0.0
8.805,0.169,-0.938,0.0
8.352,0.159,-0.939,0.0
7.965,0.151,-0.942,0.0
10.426,0.195,-0.943,0.0
9.802,0.183,-0.943,0.0
9.252,0.171,-0.944,0.0
8.678,0.16,-0.937,0.0
8.274,0.152,-0.941,0.0
7.857,0.144,-0.94,0.0
10.268,0.185,-0.942,0.0
9.663,0.173,-0.942,0.0
9.089,0.162,-0.939,0.0
8.537,0.151,-0.933,0.0
8.171,0.144,-0.94,0.0
7.831,0.137,-0.947,0.0
10.098,0.174,-0.939,0.0
9.578,0.164,-0.946,0.0
8.98,0.153,-0.939,0.0
8.527,0.145,-0.942,0.0
8.021,0.135,-0.933,0.0
7.737,0.13,-0.945,0.0
9.973,0.164,-0.94,0.0
9.38,0.153,-0.938,0.0
8.867,0.144,-0.938,0.0
8.407,0.136,-0.939,0.0
7.996,0.128,-0.94,0.0
7.648,0.122,-0.944,0.0
9.868,0.154,-0.942,0.0
9.301,0.145,-0.942,0.0
8.744,0.135,-0.936,0.0
8.275,0.127,-0.935,0.0
7.958,0.121,-0.945,0.0
7.565,0.114,-0.943,0.0
9.758,0.144,-0.943,0.0
9.207,0.135,-0.943,0.0
8.682,0.127,-0.94,0.0
8.186,0.119,-0.934,0.0
7.859,0.113,-0.943,0.0
7.503,0.107,-0.944,0.0
9.625,0.134,-0.941,0.0
9.065,0.125,-0.939,0.0
