X,Y,Z,Reflectivity
24.154,-1.276,2.217,40.0
28.402,-1.493,2.445,49.0
24.516,-1.283,1.971,69.0
23.942,-1.25,2.598,17.0
24.009,-1.247,2.468,46.0
24.072,-1.245,2.336,52.0
28.388,-1.461,2.59,52.0
28.409,-1.455,2.43,75.0
24.526,-1.25,1.958,62.0
23.922,-1.216,2.583,39.0
24.014,-1.214,2.455,37.0
30.621,-1.541,2.954,28.0
28.394,-1.422,2.574,66.0
28.409,-1.415,2.413,69.0
24.548,-1.216,1.945,54.0
23.923,-1.183,2.568,36.0
38.702,-1.904,3.932,12.0
30.554,-1.495,2.929,30.0
30.642,-1.491,2.758,54.0
30.673,-1.485,2.585,30.0
30.738,-1.481,2.415,17.0
23.95,-1.15,2.555,10.0
38.712,-1.849,3.907,26.0
31.078,-1.477,2.958,39.0
46.244,-2.186,4.131,9.0
24.576,-1.156,2.055,38.0
30.765,-1.439,2.396,34.0
37.095,-1.73,3.931,2.0
53.709,-2.491,5.382,27.0
46.205,-2.132,4.364,4.0
31.462,-1.444,2.788,19.0
24.575,-1.122,2.037,52.0
46.332,-2.103,3.575,8.0
37.133,-1.68,3.907,7.0
54.172,-2.438,5.388,6.0
24.638,-1.102,2.308,25.0
24.629,-1.096,2.163,53.0
24.588,-1.088,2.019,49.0
31.293,-1.378,2.39,33.0
37.135,-1.629,3.878,10.0
24.665,-1.076,2.433,43.0
24.633,-1.068,2.288,71.0
24.623,-1.061,2.143,53.0
24.596,-1.054,1.999,37.0
31.432,-1.34,2.375,19.0
24.692,-1.049,2.558,33.0
24.652,-1.041,2.411,80.0
24.64,-1.035,2.268,52.0
24.634,-1.028,2.123,26.0
24.618,-1.022,1.98,38.0
28.42,-1.173,2.123,101.0
24.67,-1.014,2.533,56.0
24.666,-1.008,2.391,56.0
28.404,-1.154,2.589,62.0
28.402,-1.147,2.422,96.0
28.404,-1.14,2.259,15.0
28.422,-1.134,2.097,110.0
24.678,-0.98,2.512,52.0
28.402,-1.122,2.726,81.0
28.408,-1.115,2.562,72.0
28.41,-1.108,2.396,64.0
28.421,-1.102,2.233,55.0
28.444,-1.096,2.071,51.0
24.69,-0.947,2.489,28.0
31.672,-1.207,3.009,1.0
31.639,-1.199,2.823,26.0
31.608,-1.19,2.634,31.0
31.605,-1.183,2.452,27.0
31.066,-1.156,2.232,15.0
37.183,-1.376,3.71,69.0
37.262,-1.371,3.503,51.0
28.379,-1.037,2.503,54.0
37.832,-1.374,3.115,5.0
28.369,-1.024,2.172,42.0
31.031,-1.114,2.197,31.0
37.249,-1.329,3.678,2.0
37.302,-1.323,3.467,8.0
28.37,-0.999,2.473,66.0
28.373,-0.993,2.306,72.0
28.391,-0.987,2.144,74.0
28.39,-0.981,1.98,76.0
48.866,-1.679,4.772,3.0
28.36,-0.968,2.605,68.0
28.367,-0.962,2.441,76.0
28.374,-0.956,2.275,73.0
28.39,-0.95,2.112,74.0
28.391,-0.944,1.948,75.0
48.992,-1.619,4.729,4.0
28.373,-0.931,2.574,65.0
28.37,-0.925,2.409,73.0
28.372,-0.919,2.242,71.0
28.379,-0.913,2.078,72.0
28.386,-0.907,1.915,78.0
44.276,-1.405,4.221,5.0
28.372,-0.894,2.54,71.0
28.368,-0.888,2.375,80.0
28.379,-0.882,2.209,74.0
28.377,-0.876,2.045,79.0
28.381,-0.87,1.881,78.0
44.524,-1.356,4.191,5.0
28.363,-0.858,2.505,71.0
28.376,-0.852,2.341,70.0
28.365,-0.846,2.173,77.0
28.38,-0.84,2.01,76.0
28.375,-0.834,1.845,75.0
28.36,-0.827,2.634,57.0
28.366,-0.822,2.469,92.0
28.373,-0.816,2.305,71.0
28.373,-0.81,2.137,71.0
28.372,-0.804,1.973,73.0
28.376,-0.799,1.809,74.0
28.358,-0.792,2.597,70.0
28.366,-0.786,2.433,70.0
28.365,-0.781,2.268,71.0
28.367,-0.775,2.101,71.0
28.377,-0.77,1.937,74.0
28.375,-0.764,1.772,71.0
28.359,-0.757,2.559,76.0
28.365,-0.751,2.395,77.0
28.364,-0.746,2.23,68.0
28.359,-0.74,2.062,68.0
28.366,-0.734,1.897,71.0
28.376,-0.729,1.734,69.0
28.367,-0.722,2.521,86.0
28.366,-0.717,2.356,72.0
28.368,-0.711,2.191,68.0
28.355,-0.706,2.022,68.0
28.361,-0.701,1.858,70.0
28.366,-0.695,1.694,69.0
28.365,-0.688,2.482,81.0
28.354,-0.683,2.315,71.0
28.348,-0.677,2.15,68.0
28.353,-0.672,1.982,72.0
28.367,-0.667,1.819,70.0
28.369,-0.662,1.654,72.0
28.36,-0.655,2.44,80.0
28.349,-0.649,2.273,70.0
28.346,-0.644,2.108,70.0
28.348,-0.639,1.941,74.0
28.359,-0.634,1.777,70.0
28.374,-0.629,1.613,75.0
28.356,-0.622,2.398,76.0
28.355,-0.617,2.232,70.0
28.345,-0.611,2.066,69.0
28.342,-0.606,1.898,73.0
28.35,-0.602,1.734,73.0
28.373,-0.597,1.571,72.0
28.357,-0.59,2.355,75.0
28.344,-0.584,2.188,70.0
28.335,-0.579,2.023,72.0
28.343,-0.575,1.856,73.0
28.353,-0.57,1.691,75.0
28.383,-0.566,1.528,67.0
28.356,-0.558,2.312,73.0
28.352,-0.553,2.145,77.0
28.344,-0.548,1.98,74.0
28.343,-0.544,1.812,75.0
28.353,-0.539,1.648,73.0
28.357,-0.535,1.483,49.0
28.322,-0.527,2.264,19.0
28.348,-0.523,2.101,46.0
28.341,-0.518,1.935,73.0
28.344,-0.513,1.767,76.0
28.351,-0.509,1.603,76.0
45.675,-0.813,2.317,41.0
103.142,-1.812,8.083,7.0
53.952,-0.939,3.912,25.0
51.865,-0.894,3.458,10.0
58.796,-1.004,3.572,20.0
58.991,-0.998,3.24,11.0
45.668,-0.765,2.242,64.0
54.117,-0.894,4.151,34.0
38.655,-0.632,2.739,12.0
46.437,-0.752,3.02,42.0
52.243,-0.838,3.087,24.0
59.054,-0.939,3.146,16.0
52.877,-0.832,2.509,7.0
38.65,-0.599,2.9,26.0
38.635,-0.593,2.673,64.0
46.384,-0.705,2.939,40.0
46.271,-0.696,2.657,17.0
45.592,-0.679,2.352,18.0
46.048,-0.679,2.108,47.0
38.635,-0.561,2.834,65.0
46.499,-0.668,3.138,3.0
46.113,-0.656,2.842,57.0
46.225,-0.651,2.575,76.0
45.684,-0.636,2.278,35.0
64.315,-0.887,2.833,8.0
38.654,-0.524,2.768,60.0
44.818,-0.601,2.947,58.0
45.009,-0.597,2.696,51.0
45.92,-0.603,2.478,40.0
46.099,-0.599,2.219,51.0
58.311,-0.749,2.466,255.0
44.748,-0.564,3.124,42.0
60.421,-0.754,3.865,7.0
45.036,-0.556,2.618,48.0
45.51,-0.556,2.376,44.0
58.239,-0.704,2.7,255.0
58.228,-0.696,2.361,255.0
52.306,-0.614,3.56,42.0
60.372,-0.7,3.756,29.0
52.87,-0.606,2.98,10.0
45.682,-0.518,2.303,45.0
58.3,-0.654,2.6,255.0
58.236,-0.645,2.257,255.0
52.304,-0.568,3.465,8.0
52.823,-0.567,3.19,60.0
45.392,-0.481,2.475,32.0
58.343,-0.611,2.836,163.0
58.302,-0.604,2.493,255.0
58.278,-0.596,2.152,250.0
52.828,-0.529,3.403,18.0
64.31,-0.637,3.766,32.0
45.298,-0.443,2.387,32.0
58.294,-0.563,2.727,255.0
58.3,-0.556,2.386,255.0
53.505,-0.504,1.878,150.0
52.798,-0.486,3.304,43.0
64.3,-0.585,3.647,29.0
45.894,-0.412,2.335,58.0
58.306,-0.517,2.619,255.0
58.302,-0.51,2.278,255.0
53.513,-0.462,1.779,89.0
64.331,-0.543,3.904,17.0
45.429,-0.378,2.491,43.0
58.272,-0.478,2.853,150.0
58.298,-0.472,2.508,255.0
58.213,-0.465,2.165,255.0
53.503,-0.422,1.677,48.0
45.604,-0.35,2.68,15.0
45.551,-0.345,2.411,22.0
58.29,-0.435,2.743,255.0
58.295,-0.429,2.396,255.0
58.323,-0.424,2.057,164.0
20.169,-0.144,0.593,14.0
45.58,-0.317,2.59,73.0
58.399,-0.4,2.976,32.0
58.287,-0.393,2.628,255.0
58.287,-0.388,2.282,255.0
58.306,-0.382,1.942,150.0
20.135,-0.13,0.553,17.0
46.072,-0.289,2.527,45.0
58.343,-0.36,2.859,150.0
58.29,-0.355,2.516,255.0
58.295,-0.349,2.169,255.0
53.501,-0.315,1.677,8.0
20.129,-0.116,0.513,20.0
58.352,-0.328,3.087,49.0
58.286,-0.322,2.741,255.0
58.297,-0.317,2.401,255.0
58.215,-0.312,2.051,255.0
20.137,-0.106,0.591,12.0
20.121,-0.104,0.473,24.0
59.016,-0.296,3.005,61.0
58.289,-0.287,2.626,255.0
58.222,-0.282,2.283,255.0
58.237,-0.277,1.937,255.0
20.126,-0.094,0.551,17.0
20.101,-0.092,0.433,30.0
58.398,-0.259,2.857,152.0
58.235,-0.253,2.507,255.0
58.224,-0.249,2.167,255.0
20.169,-0.084,0.63,9.0
20.132,-0.083,0.511,21.0
20.108,-0.081,0.393,32.0
58.284,-0.226,2.734,255.0
58.305,-0.222,2.393,177.0
58.228,-0.218,2.05,255.0
20.131,-0.073,0.589,14.0
20.117,-0.072,0.47,25.0
20.113,-0.07,0.353,31.0
58.263,-0.197,2.615,232.0
58.302,-0.192,2.274,165.0
58.301,-0.189,1.934,193.0
20.111,-0.063,0.547,19.0
20.115,-0.062,0.429,28.0
20.116,-0.061,0.312,31.0
58.28,-0.169,2.496,91.0
58.309,-0.165,2.156,155.0
20.169,-0.055,0.627,15.0
20.13,-0.054,0.506,23.0
20.116,-0.053,0.388,28.0
20.111,-0.052,0.271,29.0
20.119,-0.049,0.82,19.0
58.305,-0.139,2.035,150.0
20.141,-0.047,0.584,18.0
20.133,-0.045,0.464,27.0
20.115,-0.044,0.346,30.0
20.114,-0.043,0.228,35.0
20.136,-0.041,0.778,24.0
20.198,-0.04,0.662,24.0
20.124,-0.039,0.542,19.0
20.125,-0.037,0.422,27.0
20.118,-0.036,0.304,26.0
20.115,-0.035,0.186,34.0
20.144,-0.033,0.736,25.0
20.169,-0.032,0.619,19.0
20.132,-0.031,0.5,24.0
20.11,-0.03,0.379,26.0
20.115,-0.029,0.262,25.0
20.113,-0.028,0.144,29.0
20.181,-0.027,0.695,27.0
20.154,-0.026,0.576,20.0
20.131,-0.025,0.457,27.0
20.112,-0.024,0.337,29.0
20.113,-0.023,0.219,29.0
20.126,-0.022,0.102,36.0
20.196,-0.02,0.653,35.0
20.141,-0.02,0.533,20.0
20.136,-0.019,0.414,26.0
20.124,-0.018,0.294,26.0
20.12,-0.017,0.177,27.0
20.141,-0.017,0.059,26.0
20.18,-0.015,0.609,27.0
20.139,-0.014,0.49,27.0
20.122,-0.014,0.372,25.0
20.117,-0.013,0.252,25.0
20.122,-0.013,0.134,29.0
20.196,-0.012,0.017,13.0
20.165,-0.011,0.566,25.0
20.137,-0.01,0.447,27.0
20.122,-0.01,0.329,26.0
20.111,-0.009,0.209,27.0
20.131,-0.008,0.091,31.0
20.219,-0.008,-0.026,18.0
20.151,-0.007,0.523,24.0
20.133,-0.006,0.404,25.0
20.135,-0.006,0.286,26.0
20.123,-0.006,0.166,26.0
20.199,-0.005,0.049,24.0
20.242,-0.005,-0.069,31.0
20.139,-0.004,0.479,28.0
20.131,-0.004,0.361,26.0
20.121,-0.003,0.243,24.0
20.124,-0.003,0.124,29.0
20.27,-0.003,0.006,150.0
20.27,-0.002,-0.112,67.0
20.134,-0.002,0.436,28.0
20.131,-0.001,0.318,27.0
20.132,-0.001,0.2,27.0
20.14,-0.001,0.08,29.0
20.269,-0.001,-0.037,150.0
20.271,-0.001,-0.156,68.0
20.134,0.0,0.393,27.0
20.127,0.0,0.275,26.0
20.133,0.0,0.157,26.0
20.276,0.0,0.037,150.0
20.264,0.0,-0.081,150.0
20.272,0.0,-0.2,73.0
20.129,0.0,0.35,27.0
20.13,0.0,0.231,26.0
20.122,0.0,0.113,29.0
20.253,0.0,-0.006,151.0
20.271,0.0,-0.124,150.0
20.268,0.0,-0.243,69.0
20.123,0.0,0.306,28.0
20.126,0.0,0.188,28.0
20.174,0.0,0.07,31.0
20.26,0.0,-0.049,150.0
20.269,0.0,-0.168,106.0
20.255,0.0,-0.286,42.0
20.122,0.0,0.263,27.0
20.128,0.0,0.145,28.0
20.274,0.0,0.027,151.0
20.261,-0.001,-0.092,150.0
20.257,-0.001,-0.211,45.0
20.237,-0.001,-0.329,12.0
20.126,-0.001,0.22,27.0
20.139,-0.002,0.102,30.0
20.26,-0.002,-0.015,150.0
20.255,-0.002,-0.136,32.0
20.24,-0.003,-0.254,13.0
20.233,-0.003,-0.373,8.0
20.129,-0.004,0.176,28.0
20.192,-0.004,0.058,26.0
20.241,-0.005,-0.059,29.0
20.218,-0.005,-0.179,11.0
20.229,-0.005,-0.298,6.0
20.246,-0.006,-0.417,2.0
20.129,-0.007,0.133,32.0
20.221,-0.007,0.015,18.0
20.203,-0.008,-0.102,17.0
20.23,-0.008,-0.223,7.0
20.248,-0.009,-0.342,2.0
20.228,-0.009,-0.46,1.0
20.142,-0.011,0.09,33.0
20.201,-0.011,-0.027,17.0
20.19,-0.012,-0.145,14.0
20.189,-0.012,-0.266,3.0
20.232,-0.013,-0.385,0.0
20.231,-0.014,-0.503,0.0
20.147,-0.015,0.047,18.0
20.183,-0.016,-0.07,15.0
20.202,-0.017,-0.188,4.0
20.178,-0.017,-0.308,0.0
37.377,-0.034,-0.79,0.0
32.199,-0.03,-0.869,7.0
20.129,-0.02,0.004,18.0
20.172,-0.021,-0.113,25.0
20.159,-0.022,-0.231,10.0
0.0,0.0,0.0,0.0
34.605,-0.041,-0.805,0.0
29.702,-0.036,-0.865,0.0
20.14,-0.026,-0.037,27.0
20.184,-0.027,-0.155,23.0
20.172,-0.028,-0.273,15.0
39.349,-0.057,-0.768,0.0
32.417,-0.049,-0.822,1.0
28.345,-0.044,-0.884,0.0
20.159,-0.033,-0.079,34.0
20.149,-0.034,-0.197,9.0
20.168,-0.035,-0.316,11.0
37.611,-0.068,-0.813,8.0
32.186,-0.06,-0.884,1.0
26.657,-0.051,-0.888,0.0
20.157,-0.04,-0.121,32.0
20.158,-0.042,-0.24,23.0
20.168,-0.043,-0.358,7.0
34.599,-0.076,-0.82,2.0
30.376,-0.068,-0.898,0.0
20.162,-0.049,-0.164,32.0
20.163,-0.05,-0.282,25.0
20.179,-0.051,-0.4,6.0
32.594,-0.085,-0.841,0.0
27.334,-0.073,-0.865,0.0
20.138,-0.057,-0.205,14.0
20.165,-0.059,-0.324,22.0
20.175,-0.06,-0.442,3.0
30.313,-0.093,-0.845,1.0
26.548,-0.083,-0.895,1.0
22.72,-0.073,-0.899,0.0
20.15,-0.067,-0.247,29.0
20.155,-0.069,-0.365,19.0
20.184,-0.07,-0.484,1.0
28.108,-0.1,-0.841,1.0
24.971,-0.091,-0.893,0.0
20.152,-0.077,-0.288,31.0
20.174,-0.079,-0.406,27.0
33.14,-0.133,-0.861,4.0
28.02,-0.114,-0.895,6.0
23.941,-0.1,-0.905,0.0
20.156,-0.089,-0.329,29.0
20.175,-0.09,-0.448,27.0
58.407,-0.267,-1.638,0.0
26.105,-0.121,-0.887,0.0
22.722,-0.107,-0.905,0.0
20.276,-0.098,-0.926,35.0
20.157,-0.1,-0.37,35.0
20.186,-0.102,-0.489,26.0
28.091,-0.145,-0.844,3.0
24.771,-0.13,-0.892,0.0
20.162,-0.113,-0.41,39.0
20.198,-0.115,-0.529,24.0
28.07,-0.162,-0.9,4.0
23.135,-0.136,-0.88,0.0
20.273,-0.121,-0.889,39.0
18.496,-0.112,-0.919,0.0
20.174,-0.126,-0.451,35.0
20.195,-0.128,-0.569,20.0
58.34,-0.377,-1.986,1.0
22.607,-0.148,-0.904,34.0
20.256,-0.135,-0.929,24.0
18.131,-0.122,-0.937,0.0
20.18,-0.14,-0.49,35.0
20.219,-0.142,-0.609,22.0
24.807,-0.177,-0.893,0.0
22.51,-0.163,-0.944,4.0
17.309,-0.129,-0.928,0.0
20.188,-0.154,-0.53,40.0
20.221,-0.157,-0.649,24.0
22.636,-0.178,-0.858,2.0
20.27,-0.162,-0.889,46.0
18.596,-0.15,-0.925,1.0
16.803,-0.138,-0.934,0.0
20.2,-0.17,-0.569,40.0
20.212,-0.172,-0.687,19.0
22.652,-0.195,-0.902,9.0
20.266,-0.177,-0.928,23.0
18.085,-0.16,-0.934,0.0
16.393,-0.147,-0.942,0.0
20.211,-0.185,-0.608,40.0
24.622,-0.229,-0.884,1.0
22.68,-0.214,-0.947,2.0
19.382,-0.185,-0.924,0.0
17.4,-0.168,-0.931,0.0
15.831,-0.155,-0.94,0.0
20.215,-0.202,-0.646,41.0
20.224,-0.204,-0.764,8.0
20.289,-0.208,-0.885,27.0
18.606,-0.193,-0.922,0.0
16.909,-0.177,-0.936,0.0
15.419,-0.164,-0.944,0.0
20.217,-0.219,-0.683,38.0
22.71,-0.249,-0.899,14.0
20.294,-0.225,-0.922,73.0
18.103,-0.203,-0.93,0.0
16.434,-0.186,-0.941,0.0
14.988,-0.172,-0.946,0.0
20.224,-0.237,-0.721,36.0
20.226,-0.239,-0.838,9.0
20.107,-0.241,-0.951,3.0
17.517,-0.212,-0.932,0.0
15.953,-0.195,-0.942,0.0
14.609,-0.181,-0.948,0.0
20.232,-0.255,-0.757,36.0
20.167,-0.257,-0.872,17.0
19.306,-0.249,-0.947,0.0
17.073,-0.222,-0.939,0.0
15.494,-0.204,-0.943,0.0
20.233,-0.274,-0.793,32.0
20.287,-0.277,-0.913,40.0
18.279,-0.252,-0.929,0.0
16.597,-0.232,-0.942,0.0
15.061,-0.212,-0.943,0.0
20.192,-0.293,-0.827,13.0
19.714,-0.289,-0.922,2.0
17.757,-0.263,-0.934,0.0
16.076,-0.24,-0.941,0.0
14.752,-0.222,-0.949,0.0
13.482,-0.205,-0.946,0.0
20.174,-0.312,-0.86,9.0
19.576,-0.306,-0.949,1.0
17.144,-0.271,-0.931,0.0
15.681,-0.25,-0.945,0.0
14.302,-0.23,-0.945,0.0
13.276,-0.216,-0.955,0.0
21.188,-0.35,-0.94,0.0
18.411,-0.307,-0.923,0.0
16.79,-0.282,-0.94,0.0
15.308,-0.26,-0.948,0.0
14.014,-0.24,-0.949,0.0
12.874,-0.223,-0.947,0.0
19.613,-0.344,-0.902,0.0
18.263,-0.323,-0.946,0.0
16.37,-0.292,-0.944,0.0
14.845,-0.267,-0.944,0.0
13.575,-0.247,-0.942,0.0
12.649,-0.232,-0.952,0.0
19.585,-0.364,-0.933,1.0
17.417,-0.327,-0.931,0.0
15.923,-0.301,-0.944,0.0
14.516,-0.277,-0.946,0.0
13.328,-0.257,-0.946,0.0
12.398,-0.241,-0.953,0.0
0.0,0.0,0.0,0.0
17.034,-0.338,-0.937,0.0
15.549,-0.312,-0.946,0.0
14.185,-0.287,-0.947,0.0
13.071,-0.266,-0.949,0.0
12.21,-0.251,-0.958,0.0
38.335,-0.798,-1.948,0.0
16.738,-0.351,-0.947,0.0
15.1,-0.32,-0.943,0.0
13.848,-0.296,-0.946,0.0
12.842,-0.276,-0.952,0.0
11.909,-0.258,-0.953,0.0
16.31,-0.361,-0.948,0.0
14.682,-0.327,-0.939,0.0
13.544,-0.305,-0.946,0.0
12.549,-0.285,-0.95,0.0
11.644,-0.266,-0.949,0.0
17.26,-0.399,-0.929,0.0
15.828,-0.369,-0.944,0.0
14.339,-0.337,-0.938,0.0
13.312,-0.315,-0.95,0.0
12.367,-0.295,-0.954,0.0
11.408,-0.274,-0.947,0.0
17.078,-0.415,-0.944,4.0
15.514,-0.38,-0.948,0.0
14.191,-0.35,-0.949,0.0
13.027,-0.324,-0.948,0.0
12.162,-0.305,-0.956,0.0
11.229,-0.283,-0.948,0.0
16.904,-0.431,-0.959,1.0
15.043,-0.386,-0.941,0.0
13.927,-0.36,-0.951,0.0
12.817,-0.334,-0.951,0.0
11.909,-0.313,-0.953,0.0
11.047,-0.292,-0.948,0.0
14.73,-0.396,-0.941,0.0
13.632,-0.369,-0.95,0.0
12.582,-0.343,-0.951,0.0
11.685,-0.321,-0.951,0.0
10.865,-0.301,-0.948,0.0
15.913,-0.444,-0.946,0.0
14.442,-0.406,-0.942,0.0
13.373,-0.379,-0.95,0.0
12.412,-0.354,-0.955,0.0
11.454,-0.329,-0.948,0.0
10.729,-0.31,-0.95,0.0
15.551,-0.454,-0.945,0.0
14.273,-0.419,-0.95,0.0
13.222,-0.391,-0.956,0.0
12.225,-0.364,-0.956,0.0
11.276,-0.338,-0.947,0.0
10.578,-0.32,-0.95,0.0
15.199,-0.463,-0.943,0.0
14.013,-0.429,-0.95,0.0
12.933,-0.399,-0.952,0.0
12.001,-0.373,-0.954,0.0
11.134,-0.348,-0.95,0.0
10.451,-0.329,-0.952,0.0
14.893,-0.473,-0.942,0.0
13.663,-0.436,-0.943,0.0
12.746,-0.41,-0.954,0.0
11.806,-0.382,-0.953,0.0
10.999,-0.358,-0.952,0.0
10.33,-0.339,-0.954,0.0
14.558,-0.481,-0.938,0.0
13.519,-0.45,-0.949,0.0
12.567,-0.421,-0.955,0.0
11.566,-0.39,-0.947,0.0
10.824,-0.367,-0.949,0.0
10.192,-0.348,-0.953,0.0
14.438,-0.496,-0.947,0.0
13.336,-0.461,-0.952,0.0
12.386,-0.431,-0.956,0.0
11.438,-0.401,-0.95,0.0
10.719,-0.378,-0.952,0.0
10.076,-0.357,-0.953,0.0
14.163,-0.505,-0.945,0.0
13.174,-0.473,-0.955,0.0
12.272,-0.443,-0.961,0.0
11.273,-0.41,-0.949,0.0
10.561,-0.386,-0.95,0.0
9.952,-0.366,-0.953,0.0
13.967,-0.517,-0.947,0.0
12.986,-0.484,-0.956,0.0
12.063,-0.452,-0.957,0.0
11.151,-0.421,-0.95,0.0
10.506,-0.399,-0.956,0.0
9.829,-0.375,-0.951,0.0
13.698,-0.526,-0.943,0.0
12.789,-0.494,-0.954,0.0
11.851,-0.46,-0.953,0.0
11.074,-0.433,-0.955,0.0
10.379,-0.408,-0.955,0.0
9.724,-0.385,-0.951,0.0
13.595,-0.541,-0.95,0.0
12.655,-0.506,-0.957,0.0
11.712,-0.471,-0.953,0.0
10.967,-0.444,-0.957,0.0
10.229,-0.416,-0.951,0.0
9.659,-0.395,-0.954,0.0
13.471,-0.554,-0.954,0.0
12.512,-0.518,-0.958,0.0
11.549,-0.481,-0.951,0.0
10.776,-0.451,-0.95,0.0
10.185,-0.429,-0.957,0.0
9.553,-0.404,-0.953,0.0
13.292,-0.565,-0.954,0.0
12.323,-0.527,-0.955,0.0
11.456,-0.493,-0.954,0.0
10.701,-0.463,-0.953,0.0
10.039,-0.437,-0.952,0.0
9.451,-0.413,-0.951,0.0
13.184,-0.579,-0.957,0.0
12.238,-0.54,-0.959,0.0
11.332,-0.503,-0.953,0.0
10.584,-0.472,-0.952,0.0
9.943,-0.446,-0.952,0.0
9.371,-0.423,-0.951,0.0
13.067,-0.592,-0.96,0.0
12.091,-0.551,-0.957,0.0
11.249,-0.515,-0.955,0.0
10.485,-0.483,-0.952,0.0
9.841,-0.456,-0.95,0.0
9.3,-0.433,-0.951,0.0
12.886,-0.602,-0.957,0.0
11.944,-0.561,-0.955,0.0
11.127,-0.525,-0.954,0.0
10.43,-0.495,-0.955,0.0
9.81,-0.468,-0.954,0.0
9.218,-0.442,-0.95,0.0
12.755,-0.613,-0.956,0.0
11.837,-0.572,-0.955,0.0
11.059,-0.537,-0.956,0.0
10.343,-0.505,-0.954,0.0
9.753,-0.479,-0.956,0.0
9.172,-0.453,-0.952,0.0
12.651,-0.626,-0.958,0.0
11.755,-0.585,-0.957,0.0
10.904,-0.545,-0.95,0.0
10.296,-0.518,-0.957,0.0
9.672,-0.489,-0.954,0.0
9.077,-0.461,-0.948,0.0
12.567,-0.64,-0.96,0.0
11.609,-0.594,-0.953,0.0
10.843,-0.558,-0.952,0.0
10.18,-0.526,-0.953,0.0
9.625,-0.5,-0.956,0.0
9.038,-0.472,-0.95,0.0
12.447,-0.652,-0.958,0.0
11.555,-0.608,-0.955,0.0
10.771,-0.569,-0.952,0.0
10.09,-0.536,-0.95,0.0
9.555,-0.51,-0.955,0.0
8.988,-0.482,-0.95,0.0
12.355,-0.664,-0.958,0.0
11.45,-0.618,-0.953,0.0
10.763,-0.584,-0.957,0.0
10.083,-0.55,-0.955,0.0
9.509,-0.521,-0.955,0.0
8.927,-0.491,-0.948,0.0
12.31,-0.679,-0.961,0.0
11.429,-0.633,-0.957,0.0
10.641,-0.592,-0.952,0.0
9.989,-0.559,-0.951,0.0
9.466,-0.532,-0.956,0.0
8.89,-0.502,-0.948,0.0
12.275,-0.694,-0.964,0.0
11.313,-0.643,-0.953,0.0
10.583,-0.604,-0.952,0.0
9.926,-0.569,-0.95,0.0
9.407,-0.542,-0.954,0.0
8.85,-0.512,-0.948,0.0
12.188,-0.707,-0.963,0.0
11.234,-0.654,-0.951,0.0
10.54,-0.617,-0.952,0.0
9.911,-0.582,-0.953,0.0
9.386,-0.554,-0.956,0.0
8.82,-0.523,-0.949,0.0
12.105,-0.719,-0.961,0.0
11.252,-0.671,-0.957,0.0
10.509,-0.629,-0.953,0.0
9.911,-0.596,-0.957,0.0
9.321,-0.563,-0.953,0.0
8.776,-0.533,-0.947,0.0
12.01,-0.73,-0.958,0.0
11.192,-0.683,-0.956,0.0
10.468,-0.641,-0.953,0.0
9.876,-0.608,-0.956,0.0
9.303,-0.575,-0.954,0.0
8.775,-0.545,-0.95,0.0
12.019,-0.747,-0.962,0.0
11.1,-0.693,-0.951,0.0
10.467,-0.656,-0.956,0.0
9.846,-0.62,-0.956,0.0
9.26,-0.585,-0.952,0.0
8.726,-0.554,-0.947,0.0
11.936,-0.758,-0.959,0.0
11.122,-0.709,-0.956,0.0
10.428,-0.668,-0.955,0.0
9.81,-0.631,-0.955,0.0
9.247,-0.597,-0.953,0.0
8.733,-0.567,-0.95,0.0
11.881,-0.771,-0.957,0.0
11.117,-0.724,-0.958,0.0
10.38,-0.679,-0.953,0.0
9.826,-0.646,-0.959,0.0
9.227,-0.609,-0.953,0.0
8.698,-0.576,-0.947,0.0
11.885,-0.788,-0.959,0.0
11.061,-0.736,-0.955,0.0
10.389,-0.694,-0.956,0.0
9.789,-0.656,-0.957,0.0
9.219,-0.621,-0.953,0.0
8.721,-0.59,-0.951,0.0
11.901,-0.805,-0.962,0.0
11.091,-0.753,-0.959,0.0
10.382,-0.708,-0.956,0.0
9.767,-0.668,-0.956,0.0
9.214,-0.633,-0.954,0.0
8.707,-0.6,-0.95,0.0
11.863,-0.818,-0.96,0.0
11.03,-0.763,-0.955,0.0
10.342,-0.719,-0.953,0.0
9.768,-0.681,-0.956,0.0
9.208,-0.645,-0.954,0.0
8.69,-0.611,-0.949,0.0
11.838,-0.832,-0.959,0.0
11.048,-0.779,-0.957,0.0
10.356,-0.733,-0.955,0.0
9.779,-0.695,-0.958,0.0
9.203,-0.657,-0.953,0.0
8.704,-0.623,-0.951,0.0
11.83,-0.847,-0.958,0.0
11.057,-0.795,-0.957,0.0
10.379,-0.749,-0.957,0.0
9.792,-0.709,-0.959,0.0
9.221,-0.67,-0.955,0.0
8.704,-0.635,-0.95,0.0
11.848,-0.864,-0.959,0.0
11.071,-0.81,-0.958,0.0
10.385,-0.763,-0.957,0.0
9.788,-0.721,-0.958,0.0
9.218,-0.682,-0.954,0.0
8.727,-0.648,-0.952,0.0
11.863,-0.88,-0.959,0.0
11.088,-0.826,-0.958,0.0
10.417,-0.778,-0.959,0.0
9.793,-0.734,-0.957,0.0
9.234,-0.695,-0.955,0.0
8.712,-0.658,-0.95,0.0
11.869,-0.896,-0.958,0.0
11.071,-0.838,-0.955,0.0
10.41,-0.791,-0.957,0.0
9.81,-0.748,-0.958,0.0
9.269,-0.709,-0.957,0.0
8.749,-0.671,-0.952,0.0
11.93,-0.915,-0.961,0.0
11.114,-0.855,-0.957,0.0
10.417,-0.804,-0.955,0.0
9.862,-0.764,-0.961,0.0
9.298,-0.723,-0.958,0.0
8.77,-0.684,-0.953,0.0
11.943,-0.931,-0.96,0.0
11.149,-0.872,-0.958,0.0
10.48,-0.822,-0.959,0.0
9.89,-0.778,-0.961,0.0
9.295,-0.734,-0.955,0.0
8.774,-0.695,-0.951,0.0
11.96,-0.947,-0.958,0.0
11.154,-0.886,-0.956,0.0
10.53,-0.839,-0.961,0.0
9.897,-0.791,-0.959,0.0
9.333,-0.748,-0.957,0.0
8.803,-0.708,-0.951,0.0
12.026,-0.966,-0.96,0.0
11.194,-0.902,-0.956,0.0
10.533,-0.851,-0.958,0.0
9.916,-0.804,-0.958,0.0
9.367,-0.762,-0.957,0.0
8.812,-0.719,-0.95,0.0
12.067,-0.984,-0.959,0.0
11.251,-0.92,-0.957,0.0
10.571,-0.867,-0.957,0.0
9.918,-0.816,-0.955,0.0
9.418,-0.777,-0.959,0.0
8.864,-0.733,-0.952,0.0
12.18,-1.007,-0.964,0.0
11.375,-0.943,-0.963,0.0
10.662,-0.886,-0.962,0.0
10.042,-0.837,-0.963,0.0
9.456,-0.791,-0.959,0.0
8.913,-0.748,-0.954,0.0
12.227,-1.024,-0.962,0.0
11.379,-0.956,-0.959,0.0
10.64,-0.896,-0.955,0.0
10.05,-0.849,-0.959,0.0
9.495,-0.805,-0.959,0.0
8.972,-0.763,-0.956,0.0
12.353,-1.049,-0.967,0.0
11.474,-0.976,-0.961,0.0
10.758,-0.918,-0.961,0.0
10.128,-0.867,-0.962,0.0
9.541,-0.819,-0.959,0.0
8.993,-0.774,-0.954,0.0
12.482,-1.073,-0.971,0.0
11.602,-1.0,-0.966,0.0
10.744,-0.928,-0.954,0.0
10.141,-0.879,-0.958,0.0
9.614,-0.835,-0.961,0.0
9.05,-0.788,-0.955,0.0
12.571,-1.094,-0.971,0.0
11.656,-1.017,-0.965,0.0
10.84,-0.948,-0.957,0.0
10.24,-0.898,-0.962,0.0
9.66,-0.849,-0.96,0.0
9.078,-0.8,-0.953,0.0
12.625,-1.111,-0.968,0.0
11.73,-1.035,-0.964,0.0
10.955,-0.969,-0.961,0.0
10.276,-0.911,-0.959,0.0
9.73,-0.865,-0.962,0.0
9.187,-0.819,-0.959,0.0
12.729,-1.133,-0.969,0.0
11.838,-1.056,-0.966,0.0
11.047,-0.988,-0.962,0.0
10.323,-0.925,-0.957,0.0
9.805,-0.881,-0.963,0.0
9.245,-0.833,-0.959,0.0
12.828,-1.154,-0.968,0.0
11.94,-1.077,-0.966,0.0
11.096,-1.003,-0.959,0.0
10.432,-0.945,-0.96,0.0
9.815,-0.891,-0.957,0.0
9.329,-0.849,-0.961,0.0
13.023,-1.184,-0.974,0.0
12.056,-1.098,-0.968,0.0
11.191,-1.022,-0.96,0.0
10.466,-0.958,-0.956,0.0
9.919,-0.91,-0.961,0.0
9.389,-0.863,-0.961,0.0
13.089,-1.201,-0.97,0.0
12.133,-1.116,-0.965,0.0
11.3,-1.042,-0.961,0.0
10.585,-0.978,-0.959,0.0
9.99,-0.925,-0.96,0.0
9.469,-0.879,-0.962,0.0
13.247,-1.228,-0.972,0.0
12.276,-1.14,-0.967,0.0
11.465,-1.067,-0.966,0.0
0.0,0.0,0.0,0.0
10.142,-0.948,-0.967,0.0
9.522,-0.892,-0.96,0.0
13.395,-1.252,-0.972,0.0
12.425,-1.164,-0.97,0.0
11.631,-1.092,-0.971,0.0
10.821,-1.018,-0.964,0.0
10.184,-0.96,-0.963,0.0
9.605,-0.907,-0.961,0.0
13.697,-1.292,-0.983,0.0
12.592,-1.19,-0.972,0.0
11.754,-1.113,-0.972,0.0
10.986,-1.042,-0.969,0.0
10.294,-0.978,-0.965,0.0
9.703,-0.924,-0.962,0.0
13.779,-1.31,-0.978,1.0
12.685,-1.208,-0.969,0.0
11.861,-1.132,-0.971,0.0
11.043,-1.056,-0.965,0.0
10.393,-0.995,-0.965,0.0
9.799,-0.94,-0.963,0.0
13.765,-1.319,-0.965,1.0
12.915,-1.239,-0.975,0.0
11.95,-1.149,-0.967,0.0
11.155,-1.074,-0.965,0.0
10.468,-1.01,-0.962,0.0
9.9,-0.957,-0.964,0.0
13.753,-1.327,-0.951,1.0
13.135,-1.27,-0.98,0.0
12.095,-1.171,-0.968,0.0
11.301,-1.096,-0.967,0.0
10.559,-1.026,-0.961,0.0
9.965,-0.97,-0.961,0.0
13.736,-1.335,-0.938,1.0
13.315,-1.296,-0.981,1.0
12.238,-1.193,-0.968,0.0
11.407,-1.114,-0.965,0.0
10.671,-1.044,-0.961,0.0
10.115,-0.991,-0.966,0.0
13.732,-1.343,-0.924,1.0
13.451,-1.317,-0.978,1.0
12.525,-1.229,-0.978,0.0
11.616,-1.141,-0.972,0.0
10.873,-1.07,-0.969,0.0
10.197,-1.005,-0.964,0.0
13.716,-1.349,-0.91,1.0
13.548,-1.335,-0.972,2.0
12.773,-1.26,-0.985,0.0
11.705,-1.156,-0.967,0.0
11.01,-1.089,-0.97,0.0
10.296,-1.02,-0.963,0.0
13.698,-1.355,-0.895,2.0
13.636,-1.351,-0.964,2.0
12.851,-1.275,-0.978,0.0
11.883,-1.18,-0.97,0.0
11.137,-1.108,-0.969,0.0
10.414,-1.037,-0.963,0.0
13.692,-1.361,-0.88,2.0
13.666,-1.361,-0.952,1.0
13.062,-1.302,-0.981,0.0
12.0,-1.198,-0.967,0.0
11.241,-1.124,-0.966,0.0
10.577,-1.058,-0.967,0.0
13.684,-1.367,-0.865,1.0
13.665,-1.367,-0.938,1.0
13.211,-1.323,-0.978,0.0
12.217,-1.225,-0.971,0.0
11.465,-1.151,-0.973,0.0
10.731,-1.079,-0.969,0.0
13.709,-1.375,-0.852,0.0
13.666,-1.373,-0.923,1.0
13.543,-1.362,-0.987,0.0
13.622,-1.371,-1.068,0.0
11.632,-1.172,-0.975,0.0
10.842,-1.094,-0.967,0.0
13.913,-1.401,-0.849,0.0
13.648,-1.376,-0.906,1.0
13.558,-1.368,-0.973,1.0
12.811,-1.294,-0.99,0.0
11.752,-1.189,-0.971,0.0
10.986,-1.112,-0.967,0.0
14.136,-1.429,-0.847,1.0
13.639,-1.38,-0.89,1.0
13.589,-1.376,-0.96,1.0
12.958,-1.313,-0.986,0.0
11.949,-1.212,-0.974,0.0
11.181,-1.136,-0.972,0.0
14.267,-1.446,-0.838,1.0
13.645,-1.385,-0.875,1.0
13.634,-1.385,-0.947,1.0
13.095,-1.331,-0.982,0.0
12.124,-1.233,-0.974,0.0
11.281,-1.149,-0.967,0.0
14.457,-1.47,-0.833,0.0
13.644,-1.388,-0.859,1.0
13.621,-1.387,-0.93,1.0
13.447,-1.37,-0.992,0.0
12.181,-1.242,-0.964,0.0
11.481,-1.172,-0.97,0.0
14.723,-1.5,-0.83,0.0
13.797,-1.406,-0.852,0.0
13.621,-1.39,-0.914,1.0
13.523,-1.38,-0.981,1.0
13.315,-1.36,-1.037,0.0
11.692,-1.195,-0.974,0.0
14.996,-1.531,-0.827,1.0
14.02,-1.432,-0.849,0.0
13.617,-1.391,-0.897,1.0
13.549,-1.385,-0.966,1.0
12.857,-1.315,-0.986,0.0
11.894,-1.218,-0.976,0.0
15.161,-1.549,-0.818,1.0
14.218,-1.454,-0.843,1.0
13.598,-1.391,-0.879,1.0
13.6,-1.392,-0.953,1.0
13.03,-1.334,-0.983,0.0
12.069,-1.237,-0.975,0.0
15.397,-1.575,-0.812,1.0
14.383,-1.472,-0.835,0.0
13.632,-1.396,-0.864,1.0
13.624,-1.395,-0.938,1.0
13.335,-1.366,-0.989,1.0
12.18,-1.249,-0.969,0.0
15.622,-1.599,-0.804,1.0
14.627,-1.498,-0.831,0.0
13.752,-1.408,-0.854,0.0
13.607,-1.394,-0.919,1.0
13.522,-1.386,-0.986,1.0
13.295,-1.363,-1.041,0.0
15.934,-1.631,-0.8,1.0
14.972,-1.533,-0.831,1.0
13.976,-1.431,-0.85,0.0
13.62,-1.395,-0.903,1.0
13.548,-1.388,-0.97,2.0
12.86,-1.318,-0.99,0.0
16.211,-1.659,-0.793,1.0
15.118,-1.547,-0.82,1.0
14.182,-1.452,-0.845,1.0
13.617,-1.394,-0.885,1.0
13.591,-1.391,-0.956,1.0
13.03,-1.334,-0.986,0.0
16.467,-1.684,-0.784,1.0
15.364,-1.571,-0.814,1.0
14.352,-1.467,-0.836,0.0
13.632,-1.394,-0.868,1.0
13.619,-1.393,-0.94,1.0
13.339,-1.364,-0.992,0.0
16.848,-1.721,-0.781,0.0
15.628,-1.596,-0.807,1.0
14.604,-1.491,-0.832,0.0
13.724,-1.401,-0.856,0.0
13.619,-1.391,-0.922,1.0
13.52,-1.381,-0.988,1.0
17.232,-1.757,-0.776,0.0
15.909,-1.622,-0.801,1.0
14.963,-1.525,-0.833,1.0
13.942,-1.421,-0.851,0.0
13.622,-1.388,-0.904,1.0
13.546,-1.38,-0.972,2.0
17.844,-1.816,-0.78,0.0
16.234,-1.651,-0.796,1.0
15.128,-1.538,-0.822,1.0
14.183,-1.442,-0.847,1.0
13.633,-1.386,-0.887,1.0
13.602,-1.382,-0.957,1.0
18.239,-1.851,-0.773,1.0
16.469,-1.671,-0.785,1.0
15.379,-1.56,-0.815,1.0
14.376,-1.457,-0.84,0.0
13.65,-1.383,-0.87,1.0
13.627,-1.381,-0.941,1.0
18.742,-1.896,-0.769,1.0
16.918,-1.711,-0.784,0.0
15.632,-1.58,-0.807,1.0
14.635,-1.479,-0.835,0.0
13.735,-1.387,-0.857,0.0
13.654,-1.379,-0.924,1.0
19.312,-1.947,-0.767,2.0
17.26,-1.739,-0.777,0.0
15.944,-1.606,-0.802,1.0
14.966,-1.507,-0.834,1.0
13.975,-1.406,-0.853,0.0
13.653,-1.373,-0.906,1.0
19.808,-1.989,-0.76,2.0
17.976,-1.804,-0.785,0.0
16.255,-1.631,-0.796,1.0
15.172,-1.521,-0.825,1.0
14.232,-1.426,-0.849,0.0
13.668,-1.369,-0.888,1.0
20.358,-2.036,-0.754,1.0
18.342,-1.833,-0.776,1.0
16.566,-1.654,-0.789,1.0
15.408,-1.537,-0.817,1.0
14.44,-1.44,-0.842,0.0
13.691,-1.364,-0.871,1.0
20.961,-2.086,-0.748,1.0
18.859,-1.875,-0.772,1.0
16.954,-1.684,-0.784,0.0
15.651,-1.554,-0.808,1.0
14.696,-1.458,-0.837,0.0
13.806,-1.369,-0.86,0.0
21.539,-2.132,-0.739,1.0
19.419,-1.921,-0.769,1.0
17.442,-1.724,-0.783,0.0
16.009,-1.58,-0.805,1.0
15.015,-1.481,-0.835,1.0
13.999,-1.38,-0.853,1.0
22.424,-2.207,-0.74,1.0
19.944,-1.961,-0.763,1.0
17.945,-1.763,-0.782,0.0
16.263,-1.596,-0.796,1.0
15.235,-1.493,-0.827,1.0
14.276,-1.398,-0.85,0.0
23.146,-2.264,-0.732,4.0
20.424,-1.995,-0.754,1.0
18.404,-1.796,-0.777,0.0
16.652,-1.623,-0.792,1.0
15.497,-1.509,-0.82,1.0
14.517,-1.412,-0.845,0.0
24.094,-2.341,-0.73,5.0
21.043,-2.042,-0.748,1.0
18.953,-1.837,-0.774,1.0
16.999,-1.645,-0.786,0.0
15.76,-1.524,-0.812,1.0
14.776,-1.427,-0.84,0.0
24.905,-2.402,-0.721,6.0
21.719,-2.092,-0.743,1.0
19.461,-1.872,-0.769,1.0
17.494,-1.68,-0.785,0.0
16.061,-1.541,-0.806,1.0
15.059,-1.443,-0.836,1.0
25.874,-2.476,-0.714,6.0
22.385,-2.139,-0.736,1.0
20.044,-1.913,-0.765,1.0
18.038,-1.719,-0.786,0.0
16.333,-1.554,-0.798,1.0
15.28,-1.452,-0.828,1.0
26.669,-2.532,-0.701,7.0
23.343,-2.212,-0.737,3.0
20.432,-1.933,-0.753,1.0
18.46,-1.744,-0.78,0.0
16.649,-1.571,-0.791,0.0
15.517,-1.462,-0.82,1.0
27.45,-2.583,-0.685,5.0
24.26,-2.279,-0.734,4.0
21.391,-2.006,-0.76,2.0
18.997,-1.778,-0.777,1.0
17.127,-1.601,-0.791,0.0
15.786,-1.473,-0.813,1.0
28.274,-2.636,-0.668,4.0
24.75,-2.303,-0.716,6.0
21.869,-2.031,-0.748,4.0
19.513,-1.809,-0.773,1.0
17.604,-1.63,-0.79,0.0
16.125,-1.49,-0.809,1.0
29.617,-2.734,-0.661,3.0
0.0,0.0,0.0,0.0
22.519,-2.071,-0.741,3.0
20.045,-1.84,-0.767,1.0
18.084,-1.657,-0.788,1.0
16.371,-1.497,-0.8,1.0
30.613,-2.796,-0.643,5.0
26.783,-2.441,-0.705,5.0
23.638,-2.15,-0.747,5.0
20.564,-1.867,-0.761,1.0
18.569,-1.682,-0.785,1.0
16.74,-1.514,-0.797,0.0
32.187,-2.908,-0.636,8.0
27.589,-2.487,-0.691,4.0
23.821,-2.143,-0.723,13.0
21.181,-1.902,-0.757,1.0
19.054,-1.707,-0.782,1.0
17.159,-1.534,-0.795,1.0
33.474,-2.989,-0.619,3.0
28.614,-2.55,-0.68,3.0
23.865,-2.122,-0.693,11.0
21.89,-1.942,-0.754,1.0
19.522,-1.728,-0.776,1.0
17.586,-1.553,-0.792,1.0
34.818,-3.072,-0.599,2.0
29.892,-2.631,-0.673,4.0
24.06,-2.113,-0.669,2.0
22.628,-1.982,-0.751,2.0
20.066,-1.754,-0.772,1.0
18.145,-1.582,-0.794,1.0
37.012,-3.224,-0.59,6.0
30.682,-2.665,-0.651,2.0
27.013,-2.341,-0.717,3.0
23.546,-2.035,-0.752,5.0
20.62,-1.778,-0.768,0.0
18.533,-1.594,-0.788,1.0
37.981,-3.263,-0.558,14.0
31.686,-2.715,-0.633,1.0
27.633,-2.362,-0.699,2.0
23.807,-2.029,-0.73,19.0
21.219,-1.804,-0.763,1.0
18.992,-1.611,-0.784,0.0
39.742,-3.366,-0.535,15.0
33.079,-2.794,-0.62,1.0
28.469,-2.398,-0.685,3.0
24.056,-2.021,-0.709,17.0
21.719,-1.82,-0.755,0.0
19.463,-1.626,-0.78,0.0
40.921,-3.416,-0.502,16.0
34.694,-2.887,-0.609,1.0
29.9,-2.481,-0.683,8.0
24.718,-2.045,-0.698,18.0
22.677,-1.871,-0.761,1.0
20.133,-1.656,-0.782,1.0
45.558,-3.744,-0.504,15.0
36.096,-2.957,-0.59,2.0
30.598,-2.499,-0.663,8.0
25.287,-2.059,-0.684,7.0
23.444,-1.903,-0.759,5.0
20.403,-1.652,-0.769,1.0
46.483,-3.759,-0.459,22.0
0.0,0.0,0.0,0.0
31.401,-2.523,-0.644,2.0
27.458,-2.199,-0.711,1.0
23.789,-1.899,-0.743,11.0
21.008,-1.672,-0.767,1.0
0.0,0.0,0.0,0.0
40.225,-3.187,-0.565,15.0
32.935,-2.601,-0.637,1.0
28.443,-2.239,-0.704,3.0
23.928,-1.877,-0.72,14.0
21.544,-1.685,-0.762,1.0
50.281,-3.927,-0.382,20.0
41.915,-3.262,-0.541,6.0
34.058,-2.641,-0.62,2.0
29.495,-2.28,-0.697,5.0
24.28,-1.87,-0.703,14.0
22.244,-1.708,-0.762,1.0
53.876,-4.131,-0.349,12.0
0.0,0.0,0.0,0.0
35.592,-2.709,-0.609,2.0
30.233,-2.293,-0.681,3.0
24.683,-1.865,-0.687,9.0
23.007,-1.733,-0.763,1.0
0.0,0.0,0.0,0.0
46.594,-3.49,-0.499,20.0
36.703,-2.739,-0.588,1.0
30.912,-2.298,-0.663,4.0
24.869,-1.842,-0.666,4.0
23.637,-1.744,-0.759,10.0
59.668,-4.398,-0.258,5.0
0.0,0.0,0.0,0.0
39.004,-2.852,-0.583,1.0
32.053,-2.334,-0.653,3.0
27.882,-2.023,-0.717,1.0
23.829,-1.722,-0.74,14.0
66.271,-4.783,-0.217,1.0
49.597,-3.564,-0.426,11.0
41.241,-2.952,-0.574,2.0
33.292,-2.373,-0.644,2.0
28.379,-2.015,-0.7,4.0
23.977,-1.695,-0.72,14.0
65.959,-4.656,-0.149,3.0
53.431,-3.756,-0.405,16.0
44.202,-3.094,-0.571,1.0
34.327,-2.392,-0.63,2.0
30.236,-2.098,-0.716,5.0
24.219,-1.673,-0.703,17.0
65.789,-4.539,-0.082,3.0
0.0,0.0,0.0,0.0
44.654,-3.053,-0.532,3.0
24.542,-1.67,-0.426,0.0
24.477,-1.658,-0.555,23.0
24.399,-1.646,-0.684,21.0
24.606,-1.657,-0.006,0.0
24.601,-1.649,-0.137,9.0
24.544,-1.637,-0.268,12.0
24.545,-1.629,-0.402,34.0
24.486,-1.618,-0.532,36.0
24.422,-1.606,-0.661,28.0
24.555,-1.612,0.016,28.0
24.547,-1.604,-0.114,40.0
24.516,-1.594,-0.245,36.0
24.509,-1.586,-0.378,50.0
24.477,-1.576,-0.509,50.0
24.414,-1.564,-0.638,31.0
24.541,-1.569,0.039,47.0
24.523,-1.56,-0.091,61.0
24.489,-1.55,-0.222,39.0
24.506,-1.544,-0.356,72.0
24.481,-1.534,-0.487,48.0
24.408,-1.522,-0.616,27.0
24.528,-1.526,0.061,73.0
24.528,-1.518,-0.07,93.0
24.49,-1.508,-0.201,53.0
24.5,-1.501,-0.334,52.0
24.495,-1.492,-0.465,72.0
24.439,-1.481,-0.595,37.0
24.53,-1.483,0.082,78.0
24.527,-1.475,-0.048,77.0
24.508,-1.466,-0.18,63.0
24.511,-1.458,-0.314,87.0
24.501,-1.449,-0.445,55.0
24.47,-1.44,-0.576,35.0
24.527,-1.439,0.103,49.0
24.54,-1.432,-0.028,58.0
24.523,-1.423,-0.16,60.0
24.517,-1.414,-0.294,62.0
24.514,-1.406,-0.425,47.0
24.499,-1.397,-0.557,36.0
24.571,-1.398,0.122,41.0
24.56,-1.389,-0.009,30.0
24.555,-1.38,-0.14,30.0
24.546,-1.372,-0.275,41.0
24.559,-1.364,-0.407,46.0
24.528,-1.355,-0.538,37.0
24.698,-1.36,0.142,0.0
0.0,0.0,0.0,0.0
65.646,-3.571,-0.326,6.0
24.582,-1.328,-0.256,0.0
38.037,-2.042,-0.601,6.0
30.712,-1.639,-0.651,5.0
0.0,0.0,0.0,0.0
0.0,0.0,0.0,0.0
65.807,-3.456,-0.278,3.0
53.68,-2.8,-0.521,1.0
38.019,-1.97,-0.573,9.0
30.78,-1.584,-0.63,31.0
0.0,0.0,0.0,0.0
0.0,0.0,0.0,0.0
68.874,-3.486,-0.243,0.0
53.815,-2.705,-0.485,1.0
31.349,-1.565,-0.451,8.0
30.905,-1.532,-0.611,30.0
68.044,-3.362,0.538,2.0
0.0,0.0,0.0,0.0
31.172,-1.518,-0.088,0.0
31.228,-1.51,-0.26,32.0
31.217,-1.498,-0.428,36.0
31.01,-1.478,-0.593,31.0
79.884,-3.793,0.685,20.0
31.284,-1.474,0.099,19.0
31.229,-1.46,-0.069,33.0
31.166,-1.446,-0.24,47.0
31.199,-1.437,-0.408,58.0
31.067,-1.42,-0.575,38.0
31.278,-1.423,0.287,33.0
31.23,-1.409,0.118,47.0
31.23,-1.398,-0.049,61.0
31.177,-1.385,-0.221,26.0
28.465,-1.254,-0.356,60.0
28.464,-1.245,-0.51,56.0
28.454,-1.239,0.278,66.0
28.45,-1.228,0.124,60.0
28.432,-1.217,-0.029,81.0
28.447,-1.208,-0.186,108.0
28.445,-1.197,-0.34,108.0
28.447,-1.187,-0.493,112.0
28.439,-1.181,0.293,112.0
28.456,-1.172,0.139,148.0
28.445,-1.161,-0.014,152.0
28.432,-1.15,-0.17,82.0
28.459,-1.141,-0.325,65.0
28.466,-1.131,-0.479,62.0
28.459,-1.124,0.308,69.0
28.457,-1.114,0.154,59.0
31.257,-1.212,0.0,27.0
31.297,-1.202,-0.172,57.0
31.307,-1.192,-0.342,41.0
31.292,-1.18,-0.511,38.0
31.295,-1.174,0.354,48.0
31.31,-1.163,0.184,39.0
31.342,-1.153,0.014,2.0
80.319,-2.926,-0.405,2.0
45.357,-1.635,-0.475,6.0
38.078,-1.359,-0.605,12.0
84.354,-2.992,0.993,33.0
80.53,-2.826,0.511,27.0
80.547,-2.797,0.073,24.0
56.92,-1.956,-0.262,2.0
38.728,-1.316,-0.389,28.0
38.206,-1.284,-0.591,13.0
38.755,-1.294,0.472,11.0
38.704,-1.278,0.261,38.0
38.691,-1.263,0.05,43.0
38.682,-1.249,-0.163,58.0
38.647,-1.233,-0.373,52.0
38.271,-1.208,-0.578,13.0
38.645,-1.21,0.485,67.0
38.647,-1.196,0.275,69.0
38.642,-1.181,0.064,67.0
38.637,-1.167,-0.149,71.0
38.634,-1.153,-0.359,64.0
38.302,-1.129,-0.565,17.0
38.641,-1.13,0.498,97.0
38.647,-1.115,0.287,90.0
38.642,-1.101,0.077,71.0
38.63,-1.086,-0.137,69.0
38.667,-1.073,-0.348,56.0
38.418,-1.052,-0.555,16.0
38.656,-1.048,0.51,70.0
38.66,-1.034,0.299,56.0
38.684,-1.021,0.088,46.0
38.707,-1.007,-0.126,33.0
38.75,-0.994,-0.338,29.0
38.508,-0.974,-0.546,25.0
40.439,-1.012,0.544,27.0
40.424,-0.997,0.323,25.0
40.417,-0.982,0.102,36.0
40.4,-0.966,-0.121,37.0
40.415,-0.952,-0.342,48.0
40.406,-0.936,-0.563,33.0
40.443,-0.927,0.553,151.0
40.425,-0.911,0.332,110.0
40.449,-0.896,0.111,4.0
38.378,-0.836,-0.107,23.0
38.365,-0.822,-0.317,54.0
38.354,-0.808,-0.527,30.0
52.956,-1.101,0.735,12.0
52.927,-1.081,0.445,68.0
52.937,-1.061,0.155,62.0
52.94,-1.041,-0.139,50.0
52.904,-1.021,-0.429,13.0
44.896,-0.85,-0.61,30.0
192.913,-3.6,2.708,36.0
62.179,-1.138,0.532,1.0
20.123,-0.36,0.061,17.0
20.098,-0.353,-0.05,19.0
52.927,-0.909,-0.422,41.0
44.897,-0.755,-0.604,27.0
20.174,-0.333,0.285,1.0
20.128,-0.324,0.174,10.0
20.14,-0.317,0.064,37.0
20.13,-0.31,-0.048,3.0
59.198,-0.891,-0.467,3.0
44.864,-0.659,-0.6,35.0
20.132,-0.289,0.286,12.0
20.125,-0.282,0.175,10.0
59.531,-0.812,0.193,22.0
59.539,-0.791,-0.139,18.0
58.803,-0.76,-0.46,7.0
44.948,-0.565,-0.599,35.0
20.147,-0.247,0.287,10.0
20.155,-0.239,0.176,1.0
56.163,-0.648,0.184,2.0
56.179,-0.627,-0.13,2.0
58.855,-0.635,-0.46,16.0
44.922,-0.468,-0.598,39.0
53.4,-0.54,0.762,12.0
53.374,-0.52,0.468,15.0
53.372,-0.5,0.174,10.0
53.32,-0.48,-0.124,12.0
20.178,-0.174,-0.158,9.0
20.158,-0.167,-0.269,26.0
20.228,-0.161,0.288,19.0
20.188,-0.153,0.176,19.0
20.152,-0.145,0.064,18.0
20.171,-0.138,-0.048,24.0
20.149,-0.13,-0.159,26.0
20.137,-0.123,-0.27,36.0
20.125,-0.116,0.285,26.0
20.133,-0.109,0.174,25.0
20.132,-0.101,0.063,37.0
20.13,-0.094,-0.049,28.0
20.142,-0.087,-0.161,38.0
20.135,-0.08,-0.272,33.0
20.116,-0.073,0.282,30.0
20.116,-0.066,0.171,30.0
20.133,-0.058,0.06,41.0
20.124,-0.051,-0.052,31.0
20.164,-0.043,-0.164,31.0
20.174,-0.037,-0.275,23.0
20.118,-0.029,0.279,27.0
20.121,-0.022,0.168,28.0
20.141,-0.015,0.057,28.0
20.249,-0.008,-0.056,29.0
20.265,0.0,-0.168,150.0
20.266,0.006,-0.28,150.0
20.127,0.013,0.276,28.0
20.13,0.02,0.164,28.0
20.2,0.027,0.053,13.0
20.249,0.035,-0.06,9.0
20.215,0.042,-0.172,18.0
20.25,0.049,-0.284,0.0
20.139,0.056,0.272,28.0
20.143,0.064,0.16,28.0
20.192,0.071,0.048,36.0
20.19,0.078,-0.064,31.0
20.188,0.085,-0.176,28.0
20.212,0.092,-0.289,24.0
20.159,0.1,0.267,29.0
20.168,0.107,0.155,27.0
20.188,0.114,0.043,32.0
20.191,0.121,-0.07,28.0
20.178,0.128,-0.182,27.0
20.183,0.135,-0.294,35.0
20.19,0.143,0.261,25.0
20.208,0.15,0.149,22.0
20.265,0.158,0.037,25.0
20.197,0.164,-0.076,19.0
20.175,0.171,-0.188,17.0
20.183,0.178,-0.301,32.0
20.292,0.187,0.256,29.0
20.309,0.194,0.143,30.0
20.335,0.201,0.03,25.0
0.0,0.0,0.0,0.0
20.194,0.214,-0.196,14.0
20.184,0.22,-0.308,26.0
20.305,0.23,0.248,25.0
20.305,0.237,0.135,2.0
99.59,1.197,0.111,5.0
0.0,0.0,0.0,0.0
0.0,0.0,0.0,0.0
20.236,0.264,-0.317,0.0
0.0,0.0,0.0,0.0
99.68,1.375,0.624,4.0
99.649,1.408,0.069,5.0
0.0,0.0,0.0,0.0
0.0,0.0,0.0,0.0
0.0,0.0,0.0,0.0
0.0,0.0,0.0,0.0
99.776,1.585,0.58,5.0
99.85,1.619,0.024,5.0
0.0,0.0,0.0,0.0
0.0,0.0,0.0,0.0
0.0,0.0,0.0,0.0
0.0,0.0,0.0,0.0
99.869,1.796,0.532,5.0
0.0,0.0,0.0,0.0
0.0,0.0,0.0,0.0
0.0,0.0,0.0,0.0
42.984,0.83,-0.735,0.0
103.137,2.035,1.071,2.0
99.957,2.004,0.48,5.0
99.986,2.038,-0.078,9.0
0.0,0.0,0.0,0.0
0.0,0.0,0.0,0.0
0.0,0.0,0.0,0.0
0.0,0.0,0.0,0.0
100.118,2.211,0.426,2.0
100.149,2.245,-0.133,7.0
0.0,0.0,0.0,0.0
0.0,0.0,0.0,0.0
41.199,0.964,-0.75,0.0
0.0,0.0,0.0,0.0
100.152,2.417,0.366,2.0
0.0,0.0,0.0,0.0
0.0,0.0,0.0,0.0
0.0,0.0,0.0,0.0
0.0,0.0,0.0,0.0
103.177,2.664,0.891,5.0
0.0,0.0,0.0,0.0
0.0,0.0,0.0,0.0
0.0,0.0,0.0,0.0
0.0,0.0,0.0,0.0
0.0,0.0,0.0,0.0
195.983,5.453,1.566,7.0
0.0,0.0,0.0,0.0
0.0,0.0,0.0,0.0
68.957,1.984,-0.616,2.0
0.0,0.0,0.0,0.0
39.342,1.157,-0.793,0.0
196.031,5.849,1.431,43.0
0.0,0.0,0.0,0.0
0.0,0.0,0.0,0.0
0.0,0.0,0.0,0.0
0.0,0.0,0.0,0.0
0.0,0.0,0.0,0.0
196.172,6.239,1.291,24.0
0.0,0.0,0.0,0.0
0.0,0.0,0.0,0.0
0.0,0.0,0.0,0.0
0.0,0.0,0.0,0.0
37.297,1.244,-0.806,0.0
196.315,6.633,1.142,30.0
0.0,0.0,0.0,0.0
0.0,0.0,0.0,0.0
0.0,0.0,0.0,0.0
0.0,0.0,0.0,0.0
36.584,1.291,-0.819,0.0
196.489,7.019,0.989,33.0
0.0,0.0,0.0,0.0
69.026,2.507,-0.429,2.0
0.0,0.0,0.0,0.0
0.0,0.0,0.0,0.0
0.0,0.0,0.0,0.0
195.156,7.345,0.821,22.0
0.0,0.0,0.0,0.0
69.045,2.639,-0.486,1.0
0.0,0.0,0.0,0.0
40.901,1.587,-0.753,0.0
33.84,1.323,-0.814,0.0
196.722,7.776,0.661,18.0
0.0,0.0,0.0,0.0
0.0,0.0,0.0,0.0
0.0,0.0,0.0,0.0
0.0,0.0,0.0,0.0
32.699,1.34,-0.815,0.0
0.0,0.0,0.0,0.0
0.0,0.0,0.0,0.0
68.963,2.894,-0.607,1.0
0.0,0.0,0.0,0.0
0.0,0.0,0.0,0.0
32.852,1.407,-0.849,0.0
0.0,0.0,0.0,0.0
0.0,0.0,0.0,0.0
0.0,0.0,0.0,0.0
0.0,0.0,0.0,0.0
37.422,1.66,-0.79,0.0
31.847,1.421,-0.852,0.0
0.0,0.0,0.0,0.0
0.0,0.0,0.0,0.0
0.0,0.0,0.0,0.0
42.555,1.952,-0.699,2.0
36.106,1.666,-0.797,0.0
31.122,1.445,-0.863,0.0
0.0,0.0,0.0,0.0
0.0,0.0,0.0,0.0
0.0,0.0,0.0,0.0
0.0,0.0,0.0,0.0
0.0,0.0,0.0,0.0
0.0,0.0,0.0,0.0
0.0,0.0,0.0,0.0
69.021,3.375,-0.483,1.0
51.841,2.548,-0.656,0.0
40.856,2.02,-0.753,0.0
33.861,1.683,-0.816,0.0
28.851,1.442,-0.859,0.0
0.0,0.0,0.0,0.0
69.038,3.496,-0.555,2.0
0.0,0.0,0.0,0.0
38.18,1.953,-0.743,0.0
32.799,1.686,-0.824,1.0
28.236,1.459,-0.87,0.0
0.0,0.0,0.0,0.0
0.0,0.0,0.0,0.0
0.0,0.0,0.0,0.0
0.0,0.0,0.0,0.0
31.952,1.697,-0.837,0.0
27.593,1.473,-0.88,0.0
0.0,0.0,0.0,0.0
0.0,0.0,0.0,0.0
0.0,0.0,0.0,0.0
36.914,2.012,-0.798,0.0
31.073,1.702,-0.848,0.0
26.573,1.463,-0.877,0.0
0.0,0.0,0.0,0.0
0.0,0.0,0.0,0.0
0.0,0.0,0.0,0.0
0.0,0.0,0.0,0.0
30.274,1.708,-0.861,0.0
25.529,1.447,-0.871,0.0
69.025,3.938,-0.466,4.0
0.0,0.0,0.0,0.0
0.0,0.0,0.0,0.0
33.898,1.958,-0.81,0.0
28.94,1.679,-0.856,0.0
25.334,1.476,-0.893,1.0
68.951,4.043,-0.545,2.0
0.0,0.0,0.0,0.0
38.726,2.289,-0.747,0.0
32.667,1.939,-0.819,1.0
28.137,1.677,-0.865,0.0
24.396,1.46,-0.889,0.0
0.0,0.0,0.0,0.0
0.0,0.0,0.0,0.0
38.138,2.313,-0.78,0.0
31.942,1.945,-0.839,1.0
27.379,1.674,-0.875,0.0
23.729,1.456,-0.893,0.0
0.0,0.0,0.0,0.0
0.0,0.0,0.0,0.0
35.658,2.216,-0.773,0.0
30.851,1.925,-0.847,0.0
26.279,1.646,-0.871,0.0
21.924,1.378,-0.852,2.0
0.0,0.0,0.0,0.0
0.0,0.0,0.0,0.0
35.182,2.239,-0.805,0.0
29.805,1.903,-0.855,0.0
25.433,1.63,-0.875,0.0
21.84,1.404,-0.876,8.0
0.0,0.0,0.0,0.0
40.446,2.624,-0.746,0.0
32.98,2.146,-0.796,0.0
28.619,1.868,-0.857,0.0
24.69,1.617,-0.88,0.0
21.811,1.434,-0.902,8.0
0.0,0.0,0.0,0.0
0.0,0.0,0.0,0.0
32.313,2.148,-0.821,1.0
27.747,1.851,-0.866,0.0
23.79,1.592,-0.879,0.0
21.776,1.462,-0.929,0.0
0.0,0.0,0.0,0.0
0.0,0.0,0.0,0.0
31.823,2.159,-0.85,0.0
26.715,1.818,-0.869,0.0
23.442,1.601,-0.896,0.0
20.518,1.405,-0.902,0.0
0.0,0.0,0.0,0.0
35.414,2.443,-0.79,0.0
30.101,2.083,-0.843,0.0
25.804,1.79,-0.873,0.0
21.893,1.523,-0.865,0.0
19.79,1.381,-0.896,0.0
0.0,0.0,0.0,0.0
33.186,2.332,-0.784,0.0
28.985,2.043,-0.85,0.0
24.912,1.761,-0.875,0.0
21.812,1.546,-0.891,2.0
19.475,1.384,-0.907,0.0
0.0,0.0,0.0,0.0
32.488,2.324,-0.81,1.0
27.86,1.998,-0.854,0.0
23.779,1.71,-0.867,0.0
21.715,1.566,-0.916,1.0
19.357,1.4,-0.928,0.0
37.209,2.701,-0.765,0.0
31.774,2.312,-0.835,0.0
26.993,1.969,-0.864,0.0
23.429,1.713,-0.886,0.0
20.725,1.519,-0.903,0.0
0.0,0.0,0.0,0.0
35.627,2.628,-0.781,0.0
30.091,2.225,-0.832,0.0
25.896,1.919,-0.864,0.0
21.878,1.625,-0.858,0.0
19.984,1.488,-0.898,0.0
18.123,1.353,-0.918,0.0
33.131,2.482,-0.772,0.0
29.096,2.185,-0.844,0.0
24.994,1.881,-0.868,0.0
21.792,1.644,-0.884,1.0
19.562,1.479,-0.906,0.0
17.379,1.317,-0.905,0.0
32.776,2.492,-0.809,1.0
28.133,2.143,-0.856,0.0
24.301,1.855,-0.878,0.0
21.675,1.658,-0.909,0.0
19.218,1.474,-0.917,0.0
17.16,1.319,-0.917,0.0
31.8,2.451,-0.829,0.0
27.072,2.091,-0.861,0.0
23.499,1.819,-0.882,0.0
20.813,1.614,-0.903,0.0
18.591,1.445,-0.913,1.0
16.853,1.313,-0.924,0.0
29.714,2.321,-0.816,0.0
26.068,2.04,-0.865,0.0
21.906,1.718,-0.853,2.0
20.342,1.598,-0.911,0.0
18.559,1.461,-0.938,0.0
16.476,1.3,-0.927,0.0
29.037,2.297,-0.839,0.0
24.838,1.968,-0.86,0.0
21.809,1.731,-0.88,8.0
19.495,1.551,-0.901,0.0
0.0,0.0,0.0,0.0
16.139,1.289,-0.931,0.0
27.944,2.236,-0.847,0.0
24.314,1.949,-0.876,1.0
21.795,1.751,-0.911,3.0
19.185,1.544,-0.914,0.0
17.235,1.389,-0.92,0.0
15.766,1.274,-0.932,0.0
26.993,2.185,-0.857,0.0
22.012,1.785,-0.825,0.0
21.044,1.709,-0.91,0.0
0.0,0.0,0.0,0.0
16.839,1.373,-0.923,0.0
15.324,1.251,-0.928,0.0
25.952,2.123,-0.861,0.0
21.885,1.793,-0.852,4.0
19.953,1.638,-0.891,0.0
18.198,1.496,-0.919,0.0
16.361,1.347,-0.921,0.0
14.996,1.237,-0.93,0.0
24.743,2.044,-0.857,0.0
21.822,1.806,-0.881,9.0
19.526,1.618,-0.901,0.0
17.573,1.459,-0.913,0.0
16.057,1.335,-0.927,0.0
14.726,1.226,-0.935,0.0
24.176,2.016,-0.872,1.0
21.758,1.817,-0.91,2.0
19.207,1.606,-0.914,0.0
17.199,1.441,-0.919,0.0
15.72,1.319,-0.93,0.0
14.468,1.216,-0.94,0.0
21.913,1.843,-0.823,1.0
20.763,1.749,-0.899,0.0
0.0,0.0,0.0,0.0
16.809,1.42,-0.923,0.0
15.315,1.296,-0.929,0.0
14.226,1.206,-0.945,0.0
21.907,1.858,-0.854,7.0
19.779,1.68,-0.885,0.0
17.973,1.529,-0.908,0.0
16.327,1.39,-0.92,0.0
14.989,1.278,-0.931,0.0
13.804,1.179,-0.937,0.0
21.825,1.865,-0.883,9.0
19.492,1.668,-0.901,0.0
17.549,1.504,-0.912,0.0
15.999,1.373,-0.925,0.0
14.676,1.261,-0.933,0.0
13.542,1.165,-0.939,0.0
21.745,1.871,-0.911,1.0
19.224,1.656,-0.916,0.0
17.14,1.479,-0.916,0.0
15.688,1.355,-0.93,0.0
14.428,1.248,-0.938,0.0
13.282,1.15,-0.941,0.0
20.735,1.796,-0.899,0.0
18.65,1.617,-0.916,0.0
16.719,1.451,-0.917,0.0
15.281,1.328,-0.928,0.0
14.159,1.232,-0.942,0.0
13.061,1.138,-0.944,0.0
19.787,1.724,-0.887,0.0
18.062,1.575,-0.913,0.0
16.352,1.428,-0.921,0.0
14.932,1.305,-0.929,0.0
13.905,1.217,-0.945,0.0
12.749,1.117,-0.94,0.0
19.454,1.704,-0.9,0.0
17.398,1.526,-0.905,0.0
15.958,1.401,-0.922,0.0
14.679,1.29,-0.934,0.0
13.553,1.192,-0.941,0.0
12.541,1.104,-0.943,0.0
19.262,1.696,-0.919,0.0
17.104,1.507,-0.914,0.0
15.656,1.381,-0.927,0.0
14.403,1.271,-0.938,0.0
13.312,1.176,-0.943,0.0
12.262,1.085,-0.94,0.0
18.499,1.635,-0.909,0.0
16.723,1.48,-0.918,0.0
15.227,1.349,-0.924,0.0
14.187,1.258,-0.944,0.0
13.055,1.158,-0.944,0.0
12.075,1.072,-0.943,0.0
18.032,1.6,-0.912,0.0
16.313,1.449,-0.919,0.0
14.966,1.33,-0.929,0.0
13.846,1.232,-0.941,0.0
12.738,1.134,-0.94,0.0
11.811,1.053,-0.94,0.0
17.547,1.562,-0.913,0.0
16.022,1.428,-0.926,0.0
14.613,1.303,-0.928,0.0
13.421,1.198,-0.932,0.0
12.527,1.119,-0.942,0.0
11.626,1.039,-0.941,0.0
17.14,1.53,-0.916,0.0
15.629,1.396,-0.925,0.0
14.421,1.289,-0.937,0.0
13.264,1.187,-0.939,0.0
12.268,1.099,-0.94,0.0
11.427,1.024,-0.941,0.0
16.687,1.493,-0.915,0.0
15.24,1.365,-0.923,0.0
14.187,1.271,-0.941,0.0
13.025,1.168,-0.941,0.0
12.037,1.08,-0.939,0.0
11.243,1.01,-0.942,0.0
16.295,1.461,-0.916,0.0
14.907,1.337,-0.924,0.0
13.868,1.245,-0.94,0.0
12.743,1.144,-0.938,0.0
11.825,1.063,-0.939,0.0
11.078,0.996,-0.944,0.0
15.988,1.435,-0.921,0.0
14.623,1.313,-0.927,0.0
13.549,1.218,-0.937,0.0
12.523,1.126,-0.94,0.0
11.637,1.047,-0.941,0.0
10.92,0.983,-0.946,0.0
15.67,1.408,-0.925,0.0
14.39,1.293,-0.932,0.0
13.287,1.195,-0.937,0.0
12.272,1.104,-0.938,0.0
11.446,1.03,-0.941,0.0
10.739,0.967,-0.945,0.0
15.272,1.373,-0.922,0.0
14.209,1.278,-0.94,0.0
13.091,1.178,-0.941,0.0
12.073,1.086,-0.939,0.0
11.262,1.014,-0.941,0.0
10.65,0.959,-0.952,0.0
14.96,1.345,-0.923,0.0
13.864,1.246,-0.936,0.0
12.788,1.15,-0.937,0.0
11.846,1.066,-0.937,0.0
11.133,1.002,-0.945,0.0
10.506,0.946,-0.953,0.0
14.709,1.321,-0.927,0.0
13.587,1.221,-0.935,0.0
12.591,1.131,-0.939,0.0
11.666,1.049,-0.938,0.0
10.989,0.988,-0.948,0.0
10.315,0.928,-0.949,0.0
14.483,1.3,-0.932,0.0
13.354,1.198,-0.936,0.0
12.366,1.11,-0.938,0.0
11.449,1.028,-0.936,0.0
10.764,0.967,-0.942,0.0
10.089,0.906,-0.942,0.0
14.277,1.279,-0.937,0.0
13.16,1.179,-0.94,0.0
12.141,1.088,-0.937,0.0
11.259,1.009,-0.935,0.0
10.677,0.957,-0.948,0.0
10.015,0.898,-0.948,0.0
14.077,1.259,-0.942,0.0
12.962,1.159,-0.942,0.0
11.973,1.071,-0.939,0.0
11.211,1.002,-0.945,0.0
0.0,0.0,0.0,0.0
9.844,0.881,-0.944,0.0
13.778,1.229,-0.939,0.0
12.69,1.132,-0.938,0.0
11.747,1.048,-0.936,0.0
11.083,0.988,-0.948,0.0
0.0,0.0,0.0,0.0
9.723,0.867,-0.945,0.0
13.406,1.192,-0.93,0.0
12.476,1.109,-0.938,0.0
11.606,1.032,-0.939,0.0
10.828,0.963,-0.94,0.0
10.131,0.901,-0.938,0.0
9.606,0.854,-0.945,0.0
13.293,1.178,-0.939,0.0
12.284,1.089,-0.938,0.0
11.426,1.012,-0.938,0.0
10.737,0.951,-0.945,0.0
10.046,0.89,-0.942,0.0
9.482,0.84,-0.944,0.0
13.029,1.15,-0.935,0.0
12.115,1.069,-0.939,0.0
11.295,0.997,-0.941,0.0
10.681,0.942,-0.953,0.0
9.951,0.878,-0.945,0.0
9.353,0.825,-0.942,0.0
12.867,1.131,-0.939,0.0
11.876,1.044,-0.935,0.0
11.169,0.981,-0.943,0.0
0.0,0.0,0.0,0.0
9.843,0.865,-0.946,0.0
9.25,0.812,-0.943,0.0
12.661,1.108,-0.938,0.0
11.737,1.026,-0.937,0.0
11.001,0.962,-0.942,0.0
10.279,0.898,-0.94,0.0
9.697,0.847,-0.943,0.0
9.155,0.8,-0.943,0.0
12.485,1.086,-0.939,0.0
11.58,1.007,-0.937,0.0
10.824,0.941,-0.938,0.0
10.165,0.884,-0.941,0.0
9.563,0.831,-0.941,0.0
9.055,0.787,-0.943,0.0
12.297,1.064,-0.938,0.0
11.432,0.989,-0.938,0.0
10.751,0.929,-0.944,0.0
10.054,0.869,-0.942,0.0
9.474,0.819,-0.942,0.0
8.924,0.771,-0.939,0.0
12.099,1.041,-0.936,0.0
11.347,0.975,-0.943,0.0
10.581,0.909,-0.94,0.0
9.964,0.856,-0.944,0.0
9.406,0.807,-0.945,0.0
8.834,0.758,-0.939,0.0
11.956,1.021,-0.937,0.0
11.236,0.959,-0.945,0.0
10.468,0.893,-0.941,0.0
9.874,0.842,-0.945,0.0
9.312,0.794,-0.945,0.0
8.732,0.744,-0.937,0.0
11.782,0.999,-0.935,0.0
11.06,0.937,-0.941,0.0
10.318,0.874,-0.938,0.0
9.73,0.824,-0.941,0.0
9.186,0.777,-0.941,0.0
8.71,0.737,-0.943,0.0
11.66,0.982,-0.937,0.0
10.976,0.923,-0.945,0.0
10.306,0.866,-0.946,0.0
9.644,0.81,-0.942,0.0
9.133,0.767,-0.945,0.0
8.636,0.725,-0.943,0.0
11.544,0.964,-0.938,0.0
10.925,0.912,-0.95,0.0
10.175,0.848,-0.944,0.0
9.545,0.795,-0.941,0.0
9.038,0.753,-0.943,0.0
8.565,0.713,-0.943,0.0
11.402,0.944,-0.937,0.0
10.765,0.891,-0.946,0.0
10.075,0.833,-0.943,0.0
9.47,0.782,-0.942,0.0
8.938,0.738,-0.941,0.0
8.503,0.701,-0.944,0.0
11.354,0.932,-0.943,0.0
10.548,0.865,-0.936,0.0
9.958,0.816,-0.941,0.0
9.429,0.772,-0.946,0.0
8.837,0.723,-0.938,0.0
8.428,0.689,-0.943,0.0
11.232,0.913,-0.942,0.0
10.466,0.85,-0.938,0.0
9.912,0.804,-0.945,0.0
