X,Y,Z,Reflectivity
20.239,0.246,-0.416,21.0
20.197,0.249,-0.535,26.0
20.206,0.251,-0.653,22.0
20.23,0.255,-0.771,26.0
0.0,0.0,0.0,0.0
20.201,0.258,-0.338,7.0
20.194,0.261,-0.455,11.0
20.219,0.264,-0.576,22.0
20.225,0.267,-0.693,20.0
20.205,0.269,-0.811,17.0
0.0,0.0,0.0,0.0
20.224,0.273,-0.378,1.0
20.207,0.276,-0.495,3.0
20.21,0.278,-0.615,9.0
20.211,0.281,-0.733,6.0
20.143,0.282,-0.848,9.0
0.0,0.0,0.0,0.0
0.0,0.0,0.0,0.0
31.928,0.457,-0.847,1.0
20.216,0.292,-0.656,0.0
20.235,0.295,-0.774,0.0
20.255,0.297,-0.894,11.0
0.0,0.0,0.0,0.0
35.353,0.525,-0.802,0.0
30.272,0.453,-0.863,1.0
25.677,0.387,-0.884,0.0
20.15,0.306,-0.811,1.0
20.241,0.31,-0.933,2.0
0.0,0.0,0.0,0.0
33.521,0.518,-0.828,0.0
28.603,0.445,-0.873,0.0
24.515,0.384,-0.893,0.0
20.118,0.317,-0.85,9.0
19.924,0.316,-0.958,0.0
37.592,0.599,-0.784,0.0
31.736,0.508,-0.847,1.0
26.749,0.431,-0.87,0.0
23.179,0.376,-0.891,0.0
20.284,0.331,-0.898,11.0
18.486,0.304,-0.926,0.0
0.0,0.0,0.0,0.0
29.951,0.496,-0.859,0.0
25.776,0.429,-0.889,0.0
20.145,0.337,-0.814,0.0
20.09,0.338,-0.93,1.0
17.881,0.303,-0.932,0.0
33.843,0.574,-0.841,2.0
28.462,0.485,-0.873,0.0
24.443,0.419,-0.893,0.0
20.117,0.346,-0.854,3.0
19.062,0.33,-0.92,0.0
17.018,0.296,-0.921,0.0
31.617,0.55,-0.85,1.0
26.609,0.465,-0.87,0.0
23.079,0.406,-0.889,0.0
20.35,0.359,-0.905,0.0
18.365,0.326,-0.924,0.0
16.608,0.296,-0.933,0.0
29.553,0.527,-0.854,0.0
25.463,0.456,-0.884,0.0
22.427,0.403,-0.909,0.0
19.716,0.356,-0.916,0.0
17.708,0.321,-0.926,0.0
16.154,0.294,-0.939,0.0
28.495,0.519,-0.88,0.0
24.221,0.443,-0.889,0.0
20.343,0.373,-0.865,0.0
18.845,0.347,-0.913,0.0
16.993,0.314,-0.923,0.0
15.547,0.289,-0.935,0.0
26.39,0.489,-0.868,0.0
23.022,0.428,-0.891,0.0
20.453,0.382,-0.911,0.0
18.278,0.343,-0.922,0.0
16.572,0.312,-0.933,0.0
15.099,0.285,-0.939,0.0
25.355,0.478,-0.884,0.0
22.409,0.424,-0.912,0.0
19.762,0.375,-0.92,0.0
17.532,0.334,-0.92,0.0
16.088,0.307,-0.938,0.0
14.688,0.281,-0.942,0.0
24.031,0.459,-0.886,0.0
21.039,0.403,-0.898,0.0
18.824,0.362,-0.913,0.0
16.957,0.327,-0.924,0.0
15.499,0.3,-0.935,0.0
14.366,0.279,-0.95,0.0
22.768,0.44,-0.885,0.0
20.234,0.392,-0.904,0.0
18.193,0.354,-0.919,0.0
16.49,0.321,-0.931,0.0
15.051,0.294,-0.938,0.0
13.994,0.274,-0.954,0.0
22.195,0.433,-0.906,0.0
19.639,0.384,-0.916,0.0
17.594,0.345,-0.924,0.0
16.03,0.315,-0.937,0.0
14.649,0.288,-0.942,0.0
13.482,0.266,-0.946,0.0
20.986,0.412,-0.898,0.0
18.698,0.368,-0.909,0.0
16.933,0.334,-0.922,0.0
15.441,0.305,-0.933,0.0
14.29,0.283,-0.947,0.0
13.138,0.261,-0.947,0.0
20.202,0.399,-0.904,0.0
18.229,0.361,-0.922,0.0
16.469,0.327,-0.929,0.0
14.997,0.298,-0.935,0.0
0.0,0.0,0.0,0.0
12.778,0.255,-0.947,0.0
19.628,0.389,-0.917,0.0
17.501,0.347,-0.919,0.0
16.042,0.319,-0.937,0.0
14.641,0.292,-0.942,0.0
13.428,0.268,-0.942,0.0
12.47,0.249,-0.948,0.0
18.741,0.372,-0.912,0.0
16.895,0.336,-0.921,0.0
15.449,0.307,-0.932,0.0
14.27,0.284,-0.946,0.0
13.14,0.262,-0.948,0.0
12.104,0.242,-0.944,0.0
18.182,0.361,-0.92,0.0
16.487,0.327,-0.93,0.0
15.009,0.298,-0.935,0.0
13.887,0.276,-0.947,0.0
12.777,0.255,-0.946,0.0
11.843,0.236,-0.946,0.0
17.477,0.346,-0.918,0.0
16.018,0.317,-0.935,0.0
14.632,0.29,-0.939,0.0
13.418,0.266,-0.941,0.0
12.454,0.247,-0.946,0.0
11.524,0.229,-0.943,0.0
16.882,0.333,-0.919,0.0
15.46,0.305,-0.931,0.0
14.28,0.282,-0.944,0.0
13.13,0.259,-0.946,0.0
12.137,0.24,-0.945,0.0
11.312,0.224,-0.947,0.0
16.483,0.323,-0.928,0.0
15.038,0.295,-0.934,0.0
13.955,0.273,-0.948,0.0
12.798,0.251,-0.946,0.0
11.804,0.231,-0.941,0.0
11.025,0.216,-0.944,0.0
16.063,0.312,-0.934,0.0
14.68,0.285,-0.939,0.0
13.46,0.261,-0.94,0.0
12.467,0.242,-0.944,0.0
11.518,0.224,-0.94,0.0
10.799,0.21,-0.945,0.0
15.497,0.298,-0.93,0.0
14.372,0.276,-0.946,0.0
13.186,0.253,-0.945,0.0
12.17,0.234,-0.944,0.0
11.34,0.218,-0.946,0.0
10.596,0.203,-0.946,0.0
15.091,0.287,-0.933,0.0
13.823,0.262,-0.935,0.0
12.849,0.244,-0.944,0.0
11.884,0.225,-0.944,0.0
11.074,0.21,-0.944,0.0
10.384,0.197,-0.946,0.0
14.726,0.276,-0.937,0.0
13.531,0.253,-0.94,0.0
12.537,0.234,-0.944,0.0
11.668,0.218,-0.948,0.0
10.816,0.202,-0.942,0.0
10.202,0.19,-0.948,0.0
14.408,0.265,-0.942,0.0
13.232,0.243,-0.942,0.0
12.246,0.225,-0.944,0.0
11.341,0.208,-0.941,0.0
10.67,0.196,-0.948,0.0
9.987,0.183,-0.946,0.0
14.111,0.255,-0.948,0.0
12.904,0.233,-0.942,0.0
11.916,0.215,-0.939,0.0
11.151,0.201,-0.945,0.0
10.417,0.187,-0.944,0.0
9.8,0.176,-0.946,0.0
13.614,0.241,-0.938,0.0
12.609,0.223,-0.942,0.0
11.678,0.206,-0.941,0.0
10.846,0.191,-0.938,0.0
10.256,0.18,-0.947,0.0
9.613,0.168,-0.944,0.0
13.337,0.231,-0.942,0.0
12.343,0.213,-0.943,0.0
11.379,0.196,-0.936,0.0
10.69,0.184,-0.943,0.0
10.009,0.172,-0.942,0.0
9.446,0.161,-0.944,0.0
13.062,0.22,-0.944,0.0
12.068,0.203,-0.943,0.0
11.264,0.189,-0.946,0.0
10.487,0.175,-0.943,0.0
9.878,0.165,-0.946,0.0
9.291,0.154,-0.944,0.0
12.71,0.208,-0.94,0.0
11.787,0.192,-0.94,0.0
11.053,0.18,-0.946,0.0
10.31,0.167,-0.944,0.0
9.702,0.157,-0.945,0.0
9.123,0.147,-0.942,0.0
12.493,0.198,-0.945,0.0
11.571,0.183,-0.942,0.0
10.879,0.171,-0.949,0.0
10.17,0.16,-0.948,0.0
9.534,0.149,-0.944,0.0
9.01,0.14,-0.945,0.0
12.204,0.187,-0.942,0.0
11.37,0.173,-0.944,0.0
10.57,0.161,-0.939,0.0
9.918,0.15,-0.94,0.0
9.387,0.142,-0.944,0.0
8.835,0.133,-0.941,0.0
11.945,0.176,-0.941,0.0
11.155,0.164,-0.944,0.0
10.458,0.153,-0.945,0.0
9.786,0.142,-0.943,0.0
9.244,0.134,-0.945,0.0
8.695,0.125,-0.939,0.0
11.681,0.165,-0.938,0.0
10.804,0.152,-0.931,0.0
10.255,0.144,-0.943,0.0
9.628,0.134,-0.942,0.0
9.062,0.126,-0.94,0.0
8.594,0.119,-0.942,0.0
11.47,0.155,-0.939,0.0
10.734,0.144,-0.941,0.0
10.106,0.135,-0.945,0.0
9.532,0.127,-0.948,0.0
8.947,0.118,-0.942,0.0
8.478,0.111,-0.942,0.0
11.287,0.145,-0.941,0.0
10.588,0.135,-0.944,0.0
9.921,0.126,-0.942,0.0
9.337,0.118,-0.942,0.0
8.804,0.11,-0.94,0.0
8.359,0.104,-0.941,0.0
11.118,0.135,-0.943,0.0
10.393,0.125,-0.942,0.0
9.792,0.117,-0.944,0.0
9.229,0.11,-0.945,0.0
8.69,0.103,-0.94,0.0
8.244,0.097,-0.94,0.0
10.853,0.124,-0.936,0.0
10.249,0.116,-0.943,0.0
9.638,0.108,-0.943,0.0
9.061,0.101,-0.94,0.0
8.585,0.095,-0.941,0.0
8.134,0.089,-0.939,0.0
10.673,0.114,-0.935,0.0
10.115,0.107,-0.945,0.0
9.517,0.1,-0.944,0.0
8.944,0.093,-0.94,0.0
8.483,0.087,-0.941,0.0
8.053,0.082,-0.941,0.0
10.552,0.105,-0.939,0.0
9.944,0.098,-0.942,0.0
9.346,0.091,-0.94,0.0
8.774,0.084,-0.934,0.0
8.348,0.079,-0.938,0.0
7.97,0.075,-0.942,0.0
10.426,0.095,-0.941,0.0
9.805,0.088,-0.942,0.0
9.235,0.082,-0.941,0.0
8.692,0.076,-0.937,0.0
8.296,0.072,-0.943,0.0
7.875,0.068,-0.941,0.0
10.282,0.085,-0.941,0.0
9.695,0.079,-0.944,0.0
9.107,0.073,-0.939,0.0
8.615,0.068,-0.94,0.0
8.214,0.064,-0.944,0.0
7.811,0.06,-0.943,0.0
10.181,0.076,-0.945,0.0
9.564,0.07,-0.943,0.0
8.985,0.065,-0.938,0.0
8.517,0.06,-0.94,0.0
8.128,0.057,-0.944,0.0
7.75,0.053,-0.945,0.0
9.999,0.066,-0.94,0.0
9.451,0.061,-0.943,0.0
8.884,0.056,-0.938,0.0
8.402,0.052,-0.937,0.0
8.012,0.049,-0.94,0.0
7.688,0.046,-0.947,0.0
9.889,0.056,-0.941,0.0
9.324,0.052,-0.941,0.0
8.746,0.047,-0.934,0.0
8.359,0.044,-0.942,0.0
7.959,0.041,-0.943,0.0
7.585,0.038,-0.943,0.0
9.771,0.046,-0.941,0.0
9.214,0.043,-0.941,0.0
8.687,0.039,-0.937,0.0
8.253,0.036,-0.939,0.0
7.875,0.033,-0.942,0.0
7.507,0.031,-0.942,0.0
9.656,0.037,-0.941,0.0
9.119,0.034,-0.941,0.0
8.6,0.03,-0.937,0.0
8.192,0.028,-0.941,0.0
7.82,0.025,-0.944,0.0
7.474,0.023,-0.946,0.0
9.579,0.027,-0.943,0.0
9.003,0.024,-0.939,0.0
8.527,0.022,-0.938,0.0
8.087,0.02,-0.938,0.0
7.741,0.018,-0.942,0.0
7.381,0.016,-0.942,0.0
9.438,0.018,-0.939,0.0
8.894,0.015,-0.936,0.0
8.471,0.013,-0.941,0.0
8.001,0.011,-0.936,0.0
7.673,0.01,-0.942,0.0
7.35,0.008,-0.945,0.0
9.336,0.008,-0.938,0.0
8.809,0.006,-0.936,0.0
8.343,0.005,-0.935,0.0
7.971,0.003,-0.94,0.0
7.634,0.002,-0.944,0.0
7.304,0.001,-0.946,0.0
9.226,-0.001,-0.936,0.0
8.748,-0.002,-0.938,0.0
8.276,-0.003,-0.935,0.0
7.893,-0.004,-0.938,0.0
7.565,-0.005,-0.943,0.0
7.256,-0.006,-0.946,0.0
9.177,-0.01,-0.939,0.0
8.687,-0.011,-0.939,0.0
8.255,-0.011,-0.94,0.0
7.843,-0.012,-0.939,0.0
7.495,-0.013,-0.941,0.0
7.202,-0.013,-0.946,0.0
9.087,-0.019,-0.937,0.0
8.597,-0.02,-0.936,0.0
8.176,-0.02,-0.937,0.0
7.82,-0.02,-0.943,0.0
7.472,-0.021,-0.944,0.0
7.187,-0.021,-0.95,0.0
9.016,-0.029,-0.937,0.0
8.547,-0.029,-0.938,0.0
8.13,-0.029,-0.939,0.0
7.738,-0.028,-0.939,0.0
7.428,-0.029,-0.944,0.0
7.129,-0.028,-0.947,0.0
8.933,-0.038,-0.935,0.0
8.464,-0.038,-0.935,0.0
8.089,-0.037,-0.94,0.0
7.677,-0.036,-0.937,0.0
7.379,-0.036,-0.943,0.0
7.096,-0.036,-0.948,0.0
8.867,-0.047,-0.935,0.0
8.44,-0.047,-0.938,0.0
8.052,-0.046,-0.941,0.0
7.655,-0.045,-0.94,0.0
7.336,-0.044,-0.943,0.0
7.08,-0.044,-0.951,0.0
8.835,-0.057,-0.937,0.0
8.375,-0.055,-0.937,0.0
7.979,-0.054,-0.938,0.0
7.618,-0.053,-0.94,0.0
7.26,-0.052,-0.938,0.0
7.04,-0.051,-0.95,0.0
8.767,-0.066,-0.936,0.0
8.315,-0.064,-0.935,0.0
7.963,-0.063,-0.941,0.0
7.533,-0.061,-0.934,0.0
7.256,-0.06,-0.942,0.0
7.002,-0.059,-0.949,0.0
8.714,-0.076,-0.935,0.0
8.286,-0.073,-0.937,0.0
7.922,-0.072,-0.941,0.0
7.577,-0.07,-0.944,0.0
7.236,-0.068,-0.943,0.0
6.974,-0.067,-0.949,0.0
8.681,-0.085,-0.936,0.0
8.256,-0.083,-0.938,0.0
7.906,-0.08,-0.943,0.0
7.535,-0.078,-0.943,0.0
7.243,-0.076,-0.948,0.0
6.939,-0.074,-0.948,0.0
8.658,-0.095,-0.938,0.0
8.224,-0.092,-0.938,0.0
7.836,-0.089,-0.939,0.0
7.499,-0.086,-0.942,0.0
7.218,-0.084,-0.948,0.0
6.945,-0.082,-0.952,0.0
8.625,-0.104,-0.938,0.0
8.196,-0.101,-0.938,0.0
7.801,-0.097,-0.938,0.0
7.46,-0.094,-0.94,0.0
7.198,-0.092,-0.949,0.0
6.92,-0.09,-0.952,0.0
8.56,-0.113,-0.935,0.0
8.173,-0.11,-0.939,0.0
7.805,-0.106,-0.941,0.0
7.45,-0.103,-0.942,0.0
7.145,-0.1,-0.944,0.0
6.883,-0.098,-0.949,0.0
8.55,-0.123,-0.937,0.0
8.153,-0.119,-0.94,0.0
7.736,-0.114,-0.936,0.0
7.434,-0.111,-0.942,0.0
7.148,-0.108,-0.947,0.0
6.844,-0.105,-0.946,0.0
8.527,-0.133,-0.937,0.0
8.146,-0.128,-0.941,0.0
7.722,-0.123,-0.936,0.0
7.351,-0.119,-0.934,0.0
7.139,-0.117,-0.948,0.0
6.841,-0.113,-0.948,0.0
8.506,-0.142,-0.937,0.0
8.113,-0.137,-0.94,0.0
7.717,-0.132,-0.938,0.0
7.404,-0.128,-0.943,0.0
7.124,-0.125,-0.948,0.0
6.864,-0.122,-0.952,0.0
8.472,-0.151,-0.935,0.0
8.071,-0.146,-0.936,0.0
7.708,-0.141,-0.938,0.0
7.409,-0.137,-0.945,0.0
7.122,-0.133,-0.949,0.0
6.802,-0.128,-0.945,0.0
8.466,-0.161,-0.936,0.0
8.08,-0.156,-0.939,0.0
7.721,-0.15,-0.941,0.0
7.4,-0.145,-0.945,0.0
7.105,-0.141,-0.947,0.0
6.817,-0.137,-0.948,0.0
8.467,-0.171,-0.937,0.0
8.072,-0.165,-0.939,0.0
7.746,-0.16,-0.945,0.0
7.373,-0.153,-0.942,0.0
7.123,-0.15,-0.95,0.0
6.82,-0.145,-0.949,0.0
8.463,-0.181,-0.937,0.0
8.071,-0.174,-0.939,0.0
7.666,-0.167,-0.936,0.0
7.383,-0.162,-0.944,0.0
7.122,-0.158,-0.951,0.0
6.847,-0.153,-0.953,0.0
8.459,-0.19,-0.937,0.0
8.019,-0.182,-0.934,0.0
7.68,-0.176,-0.937,0.0
7.354,-0.17,-0.94,0.0
7.082,-0.165,-0.945,0.0
6.797,-0.16,-0.946,0.0
8.455,-0.2,-0.937,0.0
8.045,-0.192,-0.936,0.0
7.72,-0.186,-0.942,0.0
7.364,-0.179,-0.941,0.0
7.119,-0.174,-0.95,0.0
6.837,-0.169,-0.951,0.0
8.464,-0.21,-0.937,0.0
8.05,-0.201,-0.936,0.0
7.706,-0.194,-0.94,0.0
7.37,-0.187,-0.941,0.0
7.096,-0.182,-0.946,0.0
6.847,-0.177,-0.952,0.0
8.46,-0.219,-0.936,0.0
8.071,-0.211,-0.938,0.0
7.709,-0.203,-0.939,0.0
7.397,-0.196,-0.944,0.0
7.096,-0.19,-0.945,0.0
6.836,-0.184,-0.949,0.0
8.479,-0.229,-0.936,0.0
8.068,-0.22,-0.936,0.0
7.716,-0.212,-0.939,0.0
7.391,-0.205,-0.942,0.0
7.123,-0.199,-0.948,0.0
6.854,-0.193,-0.951,0.0
8.516,-0.24,-0.939,0.0
8.074,-0.229,-0.935,0.0
7.72,-0.221,-0.938,0.0
7.424,-0.214,-0.944,0.0
7.119,-0.206,-0.945,0.0
6.858,-0.2,-0.949,0.0
8.543,-0.25,-0.94,0.0
8.08,-0.238,-0.934,0.0
7.739,-0.23,-0.938,0.0
7.409,-0.222,-0.94,0.0
7.117,-0.214,-0.943,0.0
6.89,-0.209,-0.952,0.0
8.561,-0.26,-0.939,0.0
8.12,-0.248,-0.936,0.0
7.785,-0.24,-0.941,0.0
7.431,-0.23,-0.941,0.0
7.171,-0.224,-0.948,0.0
6.882,-0.216,-0.949,0.0
8.578,-0.27,-0.938,0.0
8.123,-0.257,-0.934,0.0
7.78,-0.248,-0.938,0.0
7.445,-0.239,-0.94,0.0
7.159,-0.231,-0.944,0.0
6.886,-0.224,-0.947,0.0
8.608,-0.28,-0.938,0.0
8.203,-0.268,-0.94,0.0
7.815,-0.257,-0.939,0.0
7.469,-0.248,-0.94,0.0
7.207,-0.24,-0.947,0.0
6.939,-0.233,-0.951,0.0
8.657,-0.291,-0.94,0.0
8.225,-0.278,-0.939,0.0
7.869,-0.267,-0.942,0.0
7.491,-0.256,-0.939,0.0
7.225,-0.249,-0.946,0.0
6.975,-0.241,-0.953,0.0
8.692,-0.301,-0.94,0.0
8.256,-0.288,-0.939,0.0
7.869,-0.276,-0.938,0.0
7.521,-0.265,-0.939,0.0
7.277,-0.258,-0.949,0.0
7.056,-0.252,-0.96,0.0
8.732,-0.311,-0.94,0.0
8.295,-0.297,-0.939,0.0
7.896,-0.285,-0.937,0.0
7.574,-0.275,-0.942,0.0
7.265,-0.265,-0.944,0.0
7.023,-0.258,-0.952,0.0
8.774,-0.322,-0.939,0.0
8.348,-0.308,-0.94,0.0
7.94,-0.294,-0.938,0.0
7.595,-0.283,-0.94,0.0
7.298,-0.274,-0.944,0.0
7.042,-0.265,-0.95,0.0
8.84,-0.333,-0.941,0.0
8.391,-0.318,-0.94,0.0
7.995,-0.304,-0.939,0.0
7.661,-0.293,-0.943,0.0
7.336,-0.282,-0.944,0.0
7.054,-0.273,-0.947,0.0
8.913,-0.344,-0.943,0.0
8.433,-0.327,-0.939,0.0
8.023,-0.313,-0.938,0.0
7.698,-0.302,-0.943,0.0
7.413,-0.292,-0.949,0.0
7.096,-0.281,-0.948,0.0
8.944,-0.354,-0.941,0.0
8.523,-0.339,-0.943,0.0
8.088,-0.323,-0.94,0.0
7.739,-0.311,-0.942,0.0
7.417,-0.299,-0.944,0.0
7.139,-0.29,-0.948,0.0
9.044,-0.367,-0.945,0.0
8.567,-0.349,-0.942,0.0
8.141,-0.333,-0.94,0.0
7.766,-0.319,-0.94,0.0
7.431,-0.307,-0.94,0.0
7.184,-0.298,-0.949,0.0
9.112,-0.378,-0.945,0.0
8.645,-0.36,-0.944,0.0
8.195,-0.343,-0.94,0.0
7.839,-0.329,-0.943,0.0
7.519,-0.317,-0.946,0.0
7.197,-0.305,-0.945,0.0
9.212,-0.39,-0.948,0.0
8.707,-0.37,-0.943,0.0
8.254,-0.352,-0.939,0.0
7.906,-0.339,-0.944,0.0
7.538,-0.325,-0.942,0.0
7.274,-0.315,-0.949,0.0
9.302,-0.402,-0.949,0.0
8.759,-0.38,-0.941,0.0
8.332,-0.363,-0.941,0.0
7.944,-0.348,-0.942,0.0
7.609,-0.334,-0.944,0.0
7.295,-0.322,-0.945,0.0
9.384,-0.413,-0.949,0.0
8.849,-0.391,-0.943,0.0
8.407,-0.373,-0.942,0.0
8.018,-0.358,-0.943,0.0
7.681,-0.344,-0.946,0.0
7.356,-0.331,-0.946,0.0
9.489,-0.426,-0.951,0.0
8.953,-0.403,-0.946,0.0
8.49,-0.384,-0.943,0.0
8.047,-0.365,-0.939,0.0
7.726,-0.352,-0.944,0.0
7.396,-0.338,-0.944,0.0
9.612,-0.439,-0.954,0.0
9.047,-0.415,-0.947,0.0
8.599,-0.396,-0.947,0.0
8.124,-0.375,-0.94,0.0
7.803,-0.362,-0.945,0.0
7.457,-0.347,-0.944,0.0
9.698,-0.45,-0.953,0.0
9.157,-0.427,-0.95,0.0
8.654,-0.404,-0.944,0.0
8.21,-0.385,-0.942,0.0
7.867,-0.37,-0.945,0.0
7.516,-0.355,-0.944,0.0
9.801,-0.462,-0.953,0.0
9.239,-0.437,-0.949,0.0
8.73,-0.414,-0.944,0.0
8.269,-0.394,-0.939,0.0
7.928,-0.379,-0.944,0.0
7.61,-0.365,-0.948,0.0
9.911,-0.474,-0.953,0.0
9.317,-0.447,-0.946,0.0
8.877,-0.428,-0.95,0.0
8.365,-0.404,-0.941,0.0
8.001,-0.388,-0.944,0.0
7.682,-0.374,-0.948,0.0
10.016,-0.486,-0.952,0.0
9.473,-0.461,-0.952,0.0
8.957,-0.437,-0.948,0.0
8.46,-0.414,-0.943,0.0
8.063,-0.396,-0.942,0.0
7.749,-0.382,-0.947,0.0
10.139,-0.499,-0.953,0.0
9.637,-0.475,-0.957,0.0
9.07,-0.449,-0.95,0.0
8.578,-0.426,-0.946,0.0
8.157,-0.406,-0.943,0.0
7.812,-0.39,-0.946,0.0
10.325,-0.514,-0.958,0.0
9.731,-0.486,-0.955,0.0
9.185,-0.46,-0.951,0.0
8.697,-0.437,-0.948,0.0
8.224,-0.414,-0.941,0.0
7.876,-0.398,-0.944,0.0
10.42,-0.525,-0.954,0.0
9.853,-0.498,-0.955,0.0
9.276,-0.47,-0.949,0.0
8.806,-0.447,-0.949,0.0
8.352,-0.425,-0.946,0.0
7.961,-0.407,-0.944,0.0
10.524,-0.536,-0.951,0.0
9.955,-0.508,-0.953,0.0
9.445,-0.484,-0.955,0.0
8.914,-0.458,-0.95,0.0
8.429,-0.434,-0.944,0.0
8.048,-0.415,-0.945,0.0
10.73,-0.552,-0.956,0.0
10.106,-0.521,-0.954,0.0
9.559,-0.494,-0.954,0.0
9.03,-0.468,-0.951,0.0
8.562,-0.445,-0.947,0.0
8.134,-0.424,-0.944,0.0
10.873,-0.565,-0.955,0.0
10.282,-0.535,-0.958,0.0
9.724,-0.507,-0.958,0.0
9.151,-0.479,-0.951,0.0
8.678,-0.455,-0.949,0.0
8.266,-0.434,-0.948,0.0
11.083,-0.581,-0.958,0.0
10.448,-0.549,-0.959,0.0
9.849,-0.518,-0.957,0.0
9.305,-0.491,-0.955,0.0
8.812,-0.466,-0.951,0.0
8.352,-0.442,-0.947,0.0
11.226,-0.593,-0.956,0.0
10.565,-0.559,-0.956,0.0
9.962,-0.528,-0.954,0.0
9.439,-0.501,-0.955,0.0
8.926,-0.475,-0.951,0.0
8.46,-0.451,-0.947,0.0
11.48,-0.611,-0.961,0.0
10.772,-0.574,-0.959,0.0
10.121,-0.54,-0.955,0.0
9.583,-0.513,-0.957,0.0
9.055,-0.485,-0.952,0.0
8.571,-0.46,-0.947,0.0
11.649,-0.624,-0.959,0.0
10.937,-0.586,-0.959,0.0
10.331,-0.555,-0.961,0.0
9.722,-0.523,-0.957,0.0
9.202,-0.496,-0.955,0.0
8.72,-0.471,-0.951,0.0
11.865,-0.639,-0.96,0.0
11.081,-0.598,-0.955,0.0
10.444,-0.564,-0.956,0.0
9.885,-0.535,-0.958,0.0
9.362,-0.507,-0.958,0.0
8.849,-0.48,-0.953,0.0
12.141,-0.657,-0.965,0.0
11.309,-0.613,-0.959,0.0
10.642,-0.578,-0.959,0.0
9.998,-0.543,-0.955,0.0
9.5,-0.517,-0.958,0.0
8.971,-0.489,-0.952,0.0
12.381,-0.673,-0.966,0.0
11.546,-0.628,-0.962,0.0
10.801,-0.589,-0.957,0.0
10.206,-0.557,-0.959,0.0
9.649,-0.527,-0.958,0.0
9.138,-0.5,-0.956,0.0
12.598,-0.687,-0.964,0.0
11.765,-0.642,-0.962,0.0
11.021,-0.603,-0.96,0.0
10.369,-0.568,-0.959,0.0
9.839,-0.539,-0.962,0.0
9.277,-0.509,-0.957,0.0
12.885,-0.705,-0.966,0.0
12.042,-0.659,-0.966,0.0
11.232,-0.616,-0.961,0.0
10.542,-0.579,-0.959,0.0
9.979,-0.548,-0.96,0.0
9.442,-0.519,-0.959,0.0
13.094,-0.718,-0.962,0.0
12.307,-0.675,-0.969,0.0
11.5,-0.632,-0.966,0.0
10.738,-0.59,-0.96,0.0
10.155,-0.559,-0.962,0.0
9.626,-0.53,-0.962,0.0
13.428,-0.737,-0.965,0.0
12.554,-0.69,-0.969,0.0
11.646,-0.64,-0.96,0.0
10.931,-0.602,-0.96,0.0
10.348,-0.57,-0.963,0.0
9.754,-0.538,-0.96,0.0
13.752,-0.756,-0.967,0.0
12.748,-0.701,-0.963,0.0
11.972,-0.659,-0.968,0.0
11.093,-0.611,-0.956,0.0
10.466,-0.577,-0.957,0.0
9.928,-0.547,-0.961,0.0
14.418,-0.792,-0.99,0.0
13.092,-0.72,-0.968,0.0
12.264,-0.675,-0.971,0.0
11.379,-0.626,-0.962,0.0
10.686,-0.588,-0.96,0.0
10.086,-0.556,-0.959,0.0
14.727,-0.809,-0.987,0.0
13.308,-0.731,-0.962,0.0
12.481,-0.686,-0.968,0.0
11.592,-0.637,-0.961,0.0
10.913,-0.6,-0.962,0.0
10.315,-0.567,-0.964,0.0
14.873,-0.815,-0.973,2.0
13.667,-0.749,-0.966,0.0
12.727,-0.698,-0.966,0.0
11.866,-0.651,-0.964,0.0
11.062,-0.607,-0.957,0.0
10.483,-0.576,-0.962,0.0
14.976,-0.819,-0.955,1.0
14.461,-0.791,-0.998,0.0
13.031,-0.713,-0.967,0.0
12.148,-0.665,-0.967,0.0
11.378,-0.623,-0.966,0.0
10.654,-0.583,-0.96,0.0
15.07,-0.822,-0.936,1.0
14.57,-0.795,-0.981,0.0
13.334,-0.727,-0.968,0.0
12.476,-0.68,-0.972,0.0
11.6,-0.633,-0.965,0.0
10.977,-0.599,-0.971,0.0
15.095,-0.82,-0.912,1.0
14.875,-0.808,-0.977,1.0
13.632,-0.74,-0.967,0.0
12.723,-0.691,-0.97,0.0
11.904,-0.646,-0.97,0.0
11.094,-0.602,-0.962,0.0
15.09,-0.816,-0.886,1.0
14.979,-0.81,-0.958,1.0
13.941,-0.754,-0.965,0.0
12.989,-0.702,-0.968,0.0
12.184,-0.658,-0.972,0.0
11.342,-0.613,-0.965,0.0
15.16,-0.816,-0.865,0.0
15.093,-0.812,-0.94,0.0
14.499,-0.779,-0.979,0.0
13.243,-0.712,-0.965,0.0
12.44,-0.668,-0.971,0.0
11.585,-0.622,-0.965,0.0
15.354,-0.821,-0.85,0.0
15.134,-0.809,-0.917,1.0
14.879,-0.795,-0.979,1.0
13.589,-0.725,-0.967,0.0
12.665,-0.676,-0.967,0.0
11.855,-0.632,-0.967,0.0
15.684,-0.833,-0.841,0.0
15.145,-0.804,-0.891,1.0
15.011,-0.796,-0.962,1.0
13.725,-0.727,-0.953,0.0
13.021,-0.689,-0.972,0.0
12.168,-0.644,-0.972,0.0
15.939,-0.84,-0.828,1.0
15.206,-0.801,-0.869,0.0
15.158,-0.797,-0.945,0.0
14.476,-0.761,-0.98,0.0
13.267,-0.697,-0.967,0.0
12.449,-0.653,-0.973,0.0
16.333,-0.854,-0.82,1.0
15.326,-0.8,-0.849,0.0
15.19,-0.792,-0.921,0.0
14.722,-0.767,-0.971,0.0
13.573,-0.706,-0.966,0.0
12.743,-0.662,-0.974,0.0
16.685,-0.864,-0.809,1.0
15.729,-0.813,-0.844,0.0
15.208,-0.785,-0.895,0.0
15.184,-0.783,-0.975,0.0
13.911,-0.716,-0.966,0.0
12.977,-0.667,-0.969,0.0
17.244,-0.884,-0.806,0.0
15.974,-0.817,-0.83,0.0
15.263,-0.78,-0.872,1.0
15.24,-0.777,-0.952,1.0
14.409,-0.734,-0.975,0.0
13.292,-0.676,-0.969,0.0
17.867,-0.905,-0.804,0.0
16.392,-0.829,-0.822,1.0
15.352,-0.775,-0.85,0.0
15.275,-0.77,-0.927,1.0
14.75,-0.742,-0.972,0.0
13.6,-0.683,-0.968,0.0
18.452,-0.923,-0.798,1.0
16.688,-0.833,-0.808,1.0
15.757,-0.785,-0.845,0.0
15.286,-0.761,-0.901,1.0
15.272,-0.758,-0.98,0.0
13.919,-0.69,-0.966,0.0
19.17,-0.947,-0.796,0.0
17.267,-0.851,-0.807,0.0
16.03,-0.788,-0.832,1.0
15.358,-0.754,-0.879,1.0
15.339,-0.751,-0.958,1.0
14.391,-0.704,-0.974,0.0
19.916,-0.97,-0.793,0.0
17.991,-0.874,-0.81,0.0
16.312,-0.791,-0.819,1.0
15.422,-0.746,-0.856,1.0
15.387,-0.742,-0.934,1.0
14.714,-0.708,-0.97,0.0
20.789,-0.997,-0.791,0.0
18.519,-0.886,-0.801,1.0
16.819,-0.803,-0.815,0.0
15.724,-0.748,-0.845,0.0
15.409,-0.732,-0.909,1.0
15.403,-0.73,-0.989,0.0
21.538,-1.016,-0.783,1.0
19.274,-0.907,-0.8,0.0
17.324,-0.813,-0.809,0.0
16.091,-0.753,-0.837,1.0
15.458,-0.721,-0.885,1.0
15.486,-0.721,-0.967,0.0
22.317,-1.035,-0.772,2.0
19.947,-0.922,-0.794,0.0
17.984,-0.829,-0.809,0.0
16.304,-0.749,-0.82,1.0
15.545,-0.712,-0.863,1.0
15.522,-0.709,-0.943,0.0
23.67,-1.077,-0.778,7.0
20.717,-0.94,-0.789,0.0
18.552,-0.839,-0.803,0.0
16.817,-0.758,-0.817,1.0
15.722,-0.706,-0.846,0.0
15.56,-0.697,-0.918,0.0
23.863,-1.064,-0.744,16.0
21.786,-0.969,-0.792,1.0
19.331,-0.857,-0.804,0.0
17.428,-0.77,-0.817,0.0
16.175,-0.712,-0.842,1.0
15.637,-0.686,-0.896,1.0
24.312,-1.062,-0.716,17.0
22.402,-0.975,-0.776,3.0
20.079,-0.871,-0.8,1.0
18.028,-0.779,-0.814,0.0
16.389,-0.705,-0.826,2.0
15.702,-0.673,-0.873,1.0
25.029,-1.068,-0.694,2.0
23.736,-1.009,-0.782,6.0
20.749,-0.879,-0.791,0.0
18.543,-0.782,-0.806,0.0
16.826,-0.707,-0.819,3.0
15.788,-0.661,-0.851,1.0
28.443,-1.185,-0.741,56.0
23.877,-0.991,-0.746,20.0
21.688,-0.896,-0.79,1.0
19.318,-0.795,-0.807,0.0
17.417,-0.714,-0.818,0.0
16.126,-0.658,-0.842,0.0
28.457,-1.156,-0.693,102.0
24.54,-0.992,-0.726,12.0
22.475,-0.904,-0.781,1.0
20.122,-0.806,-0.807,1.0
18.042,-0.72,-0.817,1.0
16.578,-0.658,-0.837,0.0
28.476,-1.125,-0.646,63.0
25.132,-0.988,-0.701,1.0
23.752,-0.93,-0.786,7.0
20.636,-0.804,-0.793,2.0
18.539,-0.719,-0.809,0.0
17.085,-0.659,-0.834,0.0
30.617,-1.175,-0.644,32.0
28.465,-1.087,-0.747,6.0
23.874,-0.907,-0.75,17.0
21.664,-0.819,-0.796,1.0
19.297,-0.726,-0.81,0.0
17.496,-0.654,-0.825,0.0
30.953,-1.152,-0.6,27.0
30.339,-1.123,-0.746,8.0
24.606,-0.906,-0.733,15.0
22.297,-0.816,-0.783,1.0
19.984,-0.728,-0.806,0.0
18.271,-0.662,-0.832,0.0
31.334,-1.128,-0.556,25.0
30.497,-1.092,-0.7,31.0
25.316,-0.901,-0.713,1.0
23.615,-0.836,-0.791,7.0
20.717,-0.729,-0.802,0.0
18.651,-0.652,-0.819,3.0
38.026,-1.323,-0.614,16.0
30.659,-1.06,-0.655,30.0
28.223,-0.97,-0.75,1.0
23.838,-0.814,-0.76,16.0
21.64,-0.734,-0.803,0.0
19.121,-0.645,-0.81,2.0
38.371,-1.286,-0.558,13.0
30.997,-1.032,-0.612,29.0
30.324,-1.003,-0.757,7.0
24.46,-0.803,-0.741,17.0
22.28,-0.727,-0.791,3.0
19.712,-0.639,-0.803,7.0
38.581,-1.243,-0.5,21.0
31.441,-1.005,-0.571,12.0
30.461,-0.967,-0.713,33.0
25.248,-0.796,-0.725,2.0
23.606,-0.739,-0.801,5.0
20.427,-0.634,-0.8,2.0
38.63,-1.192,-0.44,35.0
37.951,-1.162,-0.63,19.0
30.638,-0.931,-0.669,35.0
27.933,-0.842,-0.758,1.0
23.808,-0.712,-0.771,17.0
21.127,-0.627,-0.795,1.0
38.652,-1.139,-0.379,59.0
38.222,-1.117,-0.575,16.0
30.986,-0.898,-0.628,29.0
29.84,-0.858,-0.764,3.0
0.0,0.0,0.0,0.0
22.249,-0.629,-0.802,0.0
38.666,-1.085,-0.32,62.0
38.514,-1.071,-0.52,23.0
31.377,-0.864,-0.588,9.0
30.384,-0.83,-0.732,22.0
25.286,-0.684,-0.741,4.0
23.442,-0.629,-0.81,5.0
38.704,-1.029,-0.262,52.0
38.686,-1.019,-0.464,36.0
37.935,-0.99,-0.654,13.0
30.546,-0.79,-0.69,34.0
27.741,-0.71,-0.772,1.0
23.774,-0.603,-0.786,19.0
38.782,-0.975,-0.205,30.0
38.791,-0.965,-0.408,32.0
38.195,-0.941,-0.602,19.0
30.879,-0.752,-0.652,29.0
28.553,-0.688,-0.753,1.0
23.949,-0.571,-0.757,10.0
40.427,-0.955,-0.155,38.0
40.415,-0.945,-0.366,48.0
40.418,-0.934,-0.578,2.0
31.382,-0.717,-0.617,14.0
30.388,-0.686,-0.757,15.0
25.44,-0.568,-0.767,3.0
40.435,-0.893,-0.096,25.0
40.469,-0.884,-0.309,3.0
38.367,-0.827,-0.494,10.0
37.671,-0.803,-0.687,13.0
30.513,-0.642,-0.717,32.0
27.244,-0.566,-0.783,2.0
38.382,-0.789,-0.037,8.0
45.591,-0.924,-0.284,17.0
45.218,-0.904,-0.519,19.0
38.046,-0.751,-0.641,23.0
30.827,-0.6,-0.681,30.0
28.27,-0.542,-0.773,7.0
52.988,-1.004,0.022,36.0
52.955,-0.988,-0.255,61.0
45.538,-0.837,-0.459,17.0
38.489,-0.697,-0.595,14.0
31.446,-0.561,-0.651,9.0
29.579,-0.52,-0.768,8.0
20.136,-0.348,0.036,40.0
20.119,-0.342,-0.069,8.0
52.932,-0.887,-0.462,34.0
44.862,-0.739,-0.632,14.0
36.037,-0.584,-0.698,2.0
30.187,-0.481,-0.744,25.0
20.149,-0.316,0.062,44.0
20.124,-0.31,-0.043,8.0
59.37,-0.898,-0.44,7.0
44.966,-0.667,-0.575,30.0
37.898,-0.552,-0.684,22.0
30.98,-0.442,-0.723,28.0
20.137,-0.282,0.089,11.0
59.515,-0.817,-0.049,82.0
56.563,-0.76,-0.345,7.0
45.441,-0.597,-0.522,3.0
38.141,-0.491,-0.639,16.0
31.927,-0.401,-0.704,15.0
20.162,-0.248,0.115,0.0
59.6,-0.716,0.026,5.0
56.205,-0.659,-0.271,1.0
52.696,-0.603,-0.538,11.0
38.722,-0.432,-0.6,7.0
35.911,-0.39,-0.746,3.0
64.344,-0.681,0.449,32.0
56.131,-0.577,0.095,2.0
56.23,-0.561,-0.201,12.0
53.255,-0.516,-0.477,2.0
44.872,-0.421,-0.639,12.0
20.179,-0.183,-0.394,25.0
64.329,-0.568,0.528,8.0
53.323,-0.454,0.156,1.0
20.172,-0.166,-0.047,0.0
20.165,-0.16,-0.156,15.0
20.156,-0.153,-0.263,27.0
20.153,-0.147,-0.369,32.0
20.165,-0.142,0.19,18.0
20.135,-0.135,0.083,17.0
20.151,-0.13,-0.023,23.0
20.148,-0.123,-0.132,25.0
20.145,-0.117,-0.238,26.0
20.142,-0.111,-0.345,40.0
20.135,-0.105,0.213,24.0
20.133,-0.099,0.106,29.0
20.131,-0.093,0.0,33.0
20.142,-0.087,-0.108,28.0
20.164,-0.081,-0.215,24.0
20.154,-0.075,-0.322,29.0
20.12,-0.068,0.236,28.0
20.118,-0.062,0.129,31.0
20.135,-0.056,0.022,35.0
20.137,-0.05,-0.086,35.0
20.163,-0.044,-0.193,27.0
20.172,-0.038,-0.3,24.0
20.119,-0.032,0.258,27.0
20.118,-0.025,0.151,29.0
20.144,-0.019,0.044,28.0
20.187,-0.013,-0.064,16.0
20.219,-0.007,-0.172,13.0
20.255,0.0,-0.28,20.0
20.134,0.005,0.28,29.0
20.121,0.011,0.173,28.0
20.16,0.018,0.066,27.0
20.256,0.024,-0.042,151.0
20.271,0.03,-0.151,150.0
20.242,0.037,-0.258,38.0
20.139,0.043,0.302,31.0
20.137,0.049,0.194,28.0
20.165,0.056,0.087,26.0
20.206,0.062,-0.022,34.0
20.196,0.068,-0.13,26.0
20.2,0.075,-0.237,13.0
20.153,0.081,0.322,28.0
20.16,0.088,0.215,28.0
20.174,0.094,0.107,24.0
20.185,0.1,-0.002,27.0
20.172,0.107,-0.109,37.0
20.168,0.113,-0.217,25.0
20.166,0.12,0.342,29.0
20.164,0.126,0.234,25.0
20.174,0.133,0.127,25.0
20.181,0.139,0.017,26.0
20.193,0.146,-0.09,25.0
20.185,0.152,-0.198,22.0
20.199,0.159,0.362,26.0
20.265,0.166,0.255,25.0
20.288,0.173,0.146,27.0
20.317,0.18,0.036,32.0
20.283,0.186,-0.072,6.0
20.186,0.191,-0.18,10.0
20.274,0.199,0.382,36.0
20.29,0.206,0.273,27.0
20.303,0.213,0.165,26.0
20.305,0.219,0.054,14.0
0.0,0.0,0.0,0.0
20.273,0.232,-0.163,0.0
20.277,0.239,0.4,28.0
20.294,0.246,0.291,20.0
20.306,0.252,0.182,1.0
99.535,1.271,0.351,5.0
0.0,0.0,0.0,0.0
0.0,0.0,0.0,0.0
20.309,0.279,0.417,0.0
194.849,2.748,2.962,35.0
0.0,0.0,0.0,0.0
99.7,1.47,0.434,6.0
99.814,1.503,-0.101,3.0
0.0,0.0,0.0,0.0
196.346,3.097,4.199,25.0
194.709,3.134,3.116,32.0
0.0,0.0,0.0,0.0
99.818,1.671,0.513,5.0
99.861,1.703,-0.024,8.0
0.0,0.0,0.0,0.0
194.648,3.458,4.312,12.0
194.596,3.517,3.261,19.0
103.154,1.898,1.173,20.0
99.874,1.871,0.588,4.0
100.028,1.906,0.05,1.0
0.0,0.0,0.0,0.0
194.458,3.845,4.45,16.0
195.44,3.927,3.419,17.0
103.195,2.107,1.248,7.0
102.982,2.136,0.68,2.0
100.032,2.106,0.12,18.0
0.0,0.0,0.0,0.0
194.362,4.231,4.583,23.0
194.222,4.292,3.531,14.0
195.148,4.373,2.492,14.0
102.866,2.339,0.748,2.0
100.128,2.308,0.187,2.0
0.0,0.0,0.0,0.0
194.227,4.62,4.707,26.0
193.837,4.674,3.65,30.0
195.065,4.767,2.618,21.0
103.07,2.553,0.815,9.0
100.332,2.517,0.251,2.0
0.0,0.0,0.0,0.0
194.071,5.014,4.826,26.0
193.599,5.061,3.764,28.0
195.518,5.176,2.743,25.0
103.177,2.764,0.878,6.0
0.0,0.0,0.0,0.0
0.0,0.0,0.0,0.0
194.229,5.412,4.943,27.0
193.456,5.451,3.874,40.0
195.447,5.567,2.852,19.0
0.0,0.0,0.0,0.0
196.124,5.709,0.714,33.0
0.0,0.0,0.0,0.0
193.868,5.789,5.037,21.0
193.73,5.846,3.981,30.0
195.565,5.965,2.957,6.0
0.0,0.0,0.0,0.0
196.259,6.109,0.815,31.0
0.0,0.0,0.0,0.0
194.554,6.209,5.155,8.0
194.766,6.279,4.101,11.0
195.101,6.349,3.046,21.0
0.0,0.0,0.0,0.0
196.278,6.516,0.911,27.0
0.0,0.0,0.0,0.0
194.901,6.619,5.255,6.0
195.43,6.698,4.205,9.0
195.052,6.748,3.135,17.0
202.804,7.082,2.135,51.0
196.378,6.92,0.997,29.0
0.0,0.0,0.0,0.0
194.808,7.017,5.338,8.0
194.876,7.081,4.277,9.0
0.0,0.0,0.0,0.0
203.189,7.508,2.222,11.0
195.159,7.271,1.069,16.0
0.0,0.0,0.0,0.0
0.0,0.0,0.0,0.0
195.216,7.491,4.36,9.0
0.0,0.0,0.0,0.0
199.425,7.776,2.255,6.0
196.59,7.727,1.149,38.0
0.0,0.0,0.0,0.0
193.756,7.768,5.453,15.0
196.755,7.948,4.462,12.0
196.999,8.019,3.389,7.0
0.0,0.0,0.0,0.0
196.708,8.13,1.214,26.0
0.0,0.0,0.0,0.0
193.962,8.17,5.52,8.0
0.0,0.0,0.0,0.0
196.836,8.415,3.446,16.0
195.536,8.419,2.334,13.0
195.54,8.48,1.262,49.0
0.0,0.0,0.0,0.0
195.467,8.63,5.616,15.0
195.455,8.69,4.544,9.0
196.992,8.818,3.5,13.0
204.95,9.237,2.496,24.0
196.925,8.934,1.32,33.0
0.0,0.0,0.0,0.0
193.922,8.956,5.619,22.0
0.0,0.0,0.0,0.0
0.0,0.0,0.0,0.0
0.0,0.0,0.0,0.0
197.023,9.337,1.361,31.0
0.0,0.0,0.0,0.0
194.311,9.366,5.669,10.0
0.0,0.0,0.0,0.0
0.0,0.0,0.0,0.0
197.864,9.719,2.489,20.0
197.04,9.74,1.395,32.0
0.0,0.0,0.0,0.0
194.141,9.753,5.694,21.0
196.084,9.908,4.672,6.0
0.0,0.0,0.0,0.0
199.836,10.216,2.541,6.0
197.12,10.136,1.422,31.0
0.0,0.0,0.0,0.0
193.597,10.112,5.702,20.0
0.0,0.0,0.0,0.0
198.09,10.464,3.651,6.0
202.043,10.734,2.59,5.0
197.165,10.533,1.44,21.0
195.91,10.527,0.352,5.0
196.074,10.636,5.792,20.0
196.095,10.692,4.709,56.0
196.063,10.749,3.627,55.0
195.995,10.804,2.525,14.0
196.14,10.871,1.444,19.0
0.0,0.0,0.0,0.0
0.0,0.0,0.0,0.0
0.0,0.0,0.0,0.0
0.0,0.0,0.0,0.0
0.0,0.0,0.0,0.0
197.479,11.337,1.457,23.0
197.207,11.379,0.366,5.0
0.0,0.0,0.0,0.0
0.0,0.0,0.0,0.0
0.0,0.0,0.0,0.0
208.17,12.299,2.684,14.0
197.501,11.726,1.453,25.0
197.633,11.791,0.361,4.0
0.0,0.0,0.0,0.0
195.787,11.842,4.703,11.0
0.0,0.0,0.0,0.0
202.668,12.372,2.602,6.0
0.0,0.0,0.0,0.0
0.0,0.0,0.0,0.0
0.0,0.0,0.0,0.0
196.041,12.241,4.693,8.0
0.0,0.0,0.0,0.0
0.0,0.0,0.0,0.0
0.0,0.0,0.0,0.0
154.973,9.853,0.256,8.0
0.0,0.0,0.0,0.0
195.6,12.591,4.66,8.0
0.0,0.0,0.0,0.0
0.0,0.0,0.0,0.0
0.0,0.0,0.0,0.0
154.926,10.146,0.234,150.0
162.774,10.749,4.758,23.0
202.292,13.413,4.79,8.0
0.0,0.0,0.0,0.0
0.0,0.0,0.0,0.0
0.0,0.0,0.0,0.0
154.923,10.443,0.207,150.0
177.805,12.08,5.165,4.0
179.003,12.21,4.204,5.0
210.381,14.404,3.769,47.0
199.89,13.739,2.449,6.0
0.0,0.0,0.0,0.0
155.099,10.745,0.174,4.0
167.069,11.664,4.817,4.0
172.381,12.081,4.01,11.0
173.64,12.216,3.072,24.0
0.0,0.0,0.0,0.0
0.0,0.0,0.0,0.0
0.0,0.0,0.0,0.0
156.261,11.205,4.466,13.0
178.519,12.845,4.105,19.0
173.279,12.514,3.018,35.0
173.451,12.573,2.036,14.0
140.661,10.234,0.867,2.0
123.67,9.03,0.072,3.0
166.663,12.259,4.715,14.0
178.473,13.174,4.052,10.0
168.121,12.454,2.878,17.0
168.255,12.505,1.923,21.0
121.953,9.096,0.713,3.0
0.0,0.0,0.0,0.0
157.004,11.837,4.389,35.0
156.118,11.808,3.492,27.0
168.136,12.76,2.821,37.0
140.939,10.73,1.562,9.0
114.616,8.756,0.63,2.0
114.053,8.742,-0.009,1.0
167.287,12.915,4.617,34.0
155.694,12.058,3.425,38.0
162.068,12.591,2.659,17.0
0.0,0.0,0.0,0.0
114.097,8.92,0.583,34.0
0.0,0.0,0.0,0.0
161.188,12.731,4.385,22.0
155.925,12.354,3.368,10.0
156.049,12.401,2.495,32.0
0.0,0.0,0.0,0.0
110.58,8.842,0.519,25.0
109.565,8.789,-0.1,1.0
156.668,12.651,4.194,13.0
155.991,12.634,3.301,14.0
0.0,0.0,0.0,0.0
0.0,0.0,0.0,0.0
109.841,8.974,0.465,5.0
108.866,8.922,-0.148,1.0
155.941,12.863,4.102,12.0
202.04,16.711,4.181,10.0
0.0,0.0,0.0,0.0
115.28,9.588,1.079,6.0
108.342,9.038,0.406,2.0
108.185,9.052,-0.201,2.0
197.163,16.6,5.088,21.0
199.625,16.853,4.03,8.0
199.629,16.9,2.908,9.0
108.758,9.232,0.962,2.0
107.65,9.163,0.347,28.0
107.786,9.2,-0.257,3.0
197.982,17.007,5.003,5.0
152.83,13.161,3.003,3.0
153.469,13.249,2.152,18.0
108.437,9.385,0.9,5.0
107.595,9.337,0.287,37.0
0.0,0.0,0.0,0.0
153.142,13.405,3.786,9.0
157.217,13.794,3.001,11.0
152.902,13.45,2.058,30.0
108.401,9.558,0.837,2.0
0.0,0.0,0.0,0.0
0.0,0.0,0.0,0.0
152.436,13.591,3.678,22.0
152.411,13.62,2.818,13.0
152.674,13.677,1.962,25.0
0.0,0.0,0.0,0.0
0.0,0.0,0.0,0.0
0.0,0.0,0.0,0.0
152.013,13.796,3.573,27.0
151.69,13.799,2.709,23.0
151.872,13.846,1.856,18.0
0.0,0.0,0.0,0.0
0.0,0.0,0.0,0.0
0.0,0.0,0.0,0.0
151.957,14.028,3.473,28.0
151.454,14.013,2.606,25.0
151.529,14.05,1.751,11.0
0.0,0.0,0.0,0.0
0.0,0.0,0.0,0.0
0.0,0.0,0.0,0.0
151.775,14.246,3.364,22.0
151.207,14.223,2.497,33.0
151.572,14.287,1.647,4.0
0.0,0.0,0.0,0.0
92.464,8.753,-0.049,1.0
0.0,0.0,0.0,0.0
151.413,14.439,3.248,19.0
151.145,14.443,2.387,29.0
0.0,0.0,0.0,0.0
92.451,8.87,0.405,2.0
92.37,8.881,-0.116,1.0
68.932,6.641,-0.476,2.0
151.169,14.639,3.13,14.0
150.933,14.643,2.272,17.0
0.0,0.0,0.0,0.0
0.0,0.0,0.0,0.0
0.0,0.0,0.0,0.0
68.908,6.738,-0.528,2.0
121.522,11.941,2.424,68.0
121.591,11.971,1.737,68.0
0.0,0.0,0.0,0.0
0.0,0.0,0.0,0.0
85.443,8.459,-0.239,1.0
0.0,0.0,0.0,0.0
121.572,12.119,2.328,48.0
121.664,12.148,1.64,8.0
0.0,0.0,0.0,0.0
0.0,0.0,0.0,0.0
0.0,0.0,0.0,0.0
0.0,0.0,0.0,0.0
150.723,15.231,2.763,14.0
150.694,15.254,1.908,12.0
0.0,0.0,0.0,0.0
0.0,0.0,0.0,0.0
82.64,8.409,-0.368,1.0
0.0,0.0,0.0,0.0
150.642,15.427,2.633,17.0
0.0,0.0,0.0,0.0
0.0,0.0,0.0,0.0
0.0,0.0,0.0,0.0
0.0,0.0,0.0,0.0
0.0,0.0,0.0,0.0
115.623,11.991,1.919,46.0
0.0,0.0,0.0,0.0
82.16,8.547,0.43,3.0
0.0,0.0,0.0,0.0
69.013,7.203,-0.429,0.0
0.0,0.0,0.0,0.0
115.596,12.134,1.815,48.0
0.0,0.0,0.0,0.0
82.087,8.642,0.355,2.0
82.006,8.646,-0.118,3.0
68.92,7.278,-0.491,3.0
0.0,0.0,0.0,0.0
109.308,11.607,1.616,36.0
0.0,0.0,0.0,0.0
82.041,8.737,0.28,3.0
82.033,8.749,-0.195,2.0
0.0,0.0,0.0,0.0
0.0,0.0,0.0,0.0
109.286,11.736,1.513,33.0
0.0,0.0,0.0,0.0
77.443,8.338,0.19,4.0
77.515,8.358,-0.257,3.0
0.0,0.0,0.0,0.0
0.0,0.0,0.0,0.0
109.278,11.859,1.409,2.0
0.0,0.0,0.0,0.0
76.705,8.346,0.114,7.0
77.02,8.392,-0.331,5.0
0.0,0.0,0.0,0.0
0.0,0.0,0.0,0.0
0.0,0.0,0.0,0.0
81.987,9.0,0.509,2.0
76.092,8.363,0.039,6.0
0.0,0.0,0.0,0.0
0.0,0.0,0.0,0.0
42.88,4.731,-0.715,0.0
0.0,0.0,0.0,0.0
75.645,8.383,0.394,9.0
75.566,8.385,-0.036,24.0
68.918,7.656,-0.433,2.0
0.0,0.0,0.0,0.0
40.682,4.531,-0.719,0.0
76.764,8.576,0.759,3.0
75.212,8.412,0.315,8.0
74.967,8.393,-0.112,10.0
68.96,7.73,-0.504,3.0
0.0,0.0,0.0,0.0
41.023,4.61,-0.768,0.0
76.07,8.573,0.674,2.0
74.768,8.435,0.236,10.0
74.759,8.443,-0.19,16.0
68.963,7.797,-0.576,1.0
0.0,0.0,0.0,0.0
38.351,4.346,-0.758,0.0
75.101,8.534,0.586,4.0
74.618,8.488,0.157,150.0
74.595,8.494,-0.267,1.0
0.0,0.0,0.0,0.0
0.0,0.0,0.0,0.0
37.109,4.24,-0.773,0.0
74.641,8.55,0.504,15.0
0.0,0.0,0.0,0.0
71.702,8.228,-0.335,0.0
0.0,0.0,0.0,0.0
42.299,4.864,-0.685,0.0
35.642,4.103,-0.781,0.0
74.6,8.609,0.422,4.0
0.0,0.0,0.0,0.0
71.754,8.295,-0.413,1.0
0.0,0.0,0.0,0.0
41.488,4.806,-0.718,1.0
34.253,3.972,-0.788,0.0
0.0,0.0,0.0,0.0
0.0,0.0,0.0,0.0
0.0,0.0,0.0,0.0
0.0,0.0,0.0,0.0
39.045,4.554,-0.718,0.0
33.227,3.879,-0.801,1.0
0.0,0.0,0.0,0.0
0.0,0.0,0.0,0.0
68.93,8.077,-0.549,2.0
0.0,0.0,0.0,0.0
38.592,4.529,-0.753,0.0
32.205,3.783,-0.812,0.0
69.71,8.206,0.163,2.0
0.0,0.0,0.0,0.0
69.039,8.138,-0.627,0.0
0.0,0.0,0.0,0.0
37.148,4.386,-0.766,0.0
31.137,3.68,-0.821,0.0
0.0,0.0,0.0,0.0
69.044,8.18,-0.31,0.0
0.0,0.0,0.0,0.0
42.423,5.033,-0.681,0.0
0.0,0.0,0.0,0.0
30.168,3.585,-0.829,0.0
68.893,8.2,0.005,0.0
0.0,0.0,0.0,0.0
0.0,0.0,0.0,0.0
40.64,4.847,-0.699,0.0
34.841,4.158,-0.799,0.0
29.234,3.492,-0.838,0.0
68.811,8.231,-0.073,3.0
68.965,8.254,-0.469,3.0
0.0,0.0,0.0,0.0
40.245,4.823,-0.738,0.0
32.78,3.931,-0.789,0.0
28.333,3.4,-0.844,0.0
68.814,8.269,-0.152,1.0
68.931,8.287,-0.547,4.0
68.781,8.274,-0.94,2.0
38.085,4.584,-0.742,0.0
32.24,3.883,-0.813,0.0
27.442,3.307,-0.849,0.0
68.922,8.316,-0.232,2.0
68.819,8.308,-0.626,1.0
68.736,8.302,-1.019,2.0
37.368,4.516,-0.772,0.0
30.899,3.736,-0.816,0.0
26.665,3.226,-0.856,0.0
69.087,8.368,-0.313,1.0
0.0,0.0,0.0,0.0
0.0,0.0,0.0,0.0
35.559,4.313,-0.776,0.0
30.106,3.654,-0.83,0.0
25.738,3.125,-0.857,0.0
69.221,8.412,-0.396,1.0
0.0,0.0,0.0,0.0
40.364,4.909,-0.692,0.0
0.0,0.0,0.0,0.0
29.175,3.552,-0.838,0.0
25.031,3.049,-0.863,0.0
0.0,0.0,0.0,0.0
68.664,8.372,-0.866,3.0
39.469,4.814,-0.723,0.0
32.516,3.968,-0.786,0.0
28.182,3.441,-0.843,0.0
24.367,2.976,-0.868,0.0
0.0,0.0,0.0,0.0
68.697,8.398,-0.947,8.0
38.818,4.747,-0.757,1.0
31.956,3.909,-0.81,0.0
27.371,3.35,-0.851,0.0
23.795,2.913,-0.876,0.0
68.778,8.424,-0.634,1.0
68.71,8.417,-1.028,3.0
36.992,4.533,-0.765,0.0
30.878,3.785,-0.819,0.0
26.393,3.237,-0.851,0.0
23.342,2.864,-0.887,0.0
0.0,0.0,0.0,0.0
42.456,5.21,-0.684,0.0
35.419,4.348,-0.774,0.0
29.907,3.672,-0.828,0.0
25.678,3.154,-0.858,0.0
21.887,2.689,-0.857,0.0
68.623,8.432,-0.793,1.0
40.148,4.934,-0.694,0.0
34.072,4.188,-0.784,0.0
28.792,3.54,-0.831,0.0
24.859,3.057,-0.86,0.0
21.844,2.687,-0.881,0.0
68.645,8.444,-0.874,5.0
0.0,0.0,0.0,0.0
32.545,4.004,-0.787,0.0
28.002,3.446,-0.841,0.0
24.264,2.987,-0.868,0.0
21.753,2.678,-0.903,0.0
68.7,8.456,-0.954,6.0
0.0,0.0,0.0,0.0
31.79,3.914,-0.806,0.0
27.214,3.351,-0.849,0.0
23.686,2.917,-0.875,0.0
20.852,2.569,-0.89,0.0
68.653,8.453,-1.034,2.0
37.156,4.575,-0.773,0.0
30.737,3.785,-0.815,0.0
26.239,3.231,-0.849,0.0
23.26,2.865,-0.886,0.0
20.444,2.519,-0.896,0.0
0.0,0.0,0.0,0.0
35.276,4.343,-0.774,0.0
30.089,3.705,-0.833,0.0
25.472,3.136,-0.854,0.0
21.881,2.695,-0.859,0.0
20.182,2.486,-0.908,0.0
40.037,4.927,-0.695,0.0
34.002,4.184,-0.785,0.0
28.729,3.535,-0.828,0.0
24.708,3.041,-0.856,0.0
21.828,2.686,-0.882,0.0
0.0,0.0,0.0,0.0
39.16,4.815,-0.725,0.0
32.399,3.984,-0.785,0.0
27.981,3.44,-0.838,0.0
24.099,2.963,-0.863,0.0
21.737,2.673,-0.903,0.0
18.932,2.328,-0.895,0.0
38.961,4.785,-0.765,0.0
31.671,3.889,-0.803,0.0
27.177,3.337,-0.845,0.0
23.615,2.9,-0.872,0.0
20.813,2.556,-0.888,0.0
18.698,2.296,-0.905,0.0
0.0,0.0,0.0,0.0
30.776,3.773,-0.815,0.0
26.339,3.229,-0.849,0.0
23.183,2.842,-0.882,0.0
20.387,2.499,-0.893,0.0
18.235,2.235,-0.903,0.0
0.0,0.0,0.0,0.0
29.963,3.666,-0.827,0.0
25.74,3.149,-0.858,0.0
21.857,2.674,-0.856,0.0
20.216,2.473,-0.908,0.0
18.052,2.208,-0.914,0.0
0.0,0.0,0.0,0.0
28.983,3.538,-0.832,0.0
24.834,3.031,-0.855,0.0
21.79,2.659,-0.877,1.0
0.0,0.0,0.0,0.0
17.709,2.161,-0.916,0.0
32.498,3.958,-0.781,0.0
28.174,3.43,-0.839,0.0
24.344,2.963,-0.864,0.0
21.735,2.645,-0.898,0.0
0.0,0.0,0.0,0.0
17.259,2.1,-0.911,0.0
31.99,3.884,-0.803,0.0
27.339,3.318,-0.843,0.0
23.682,2.873,-0.866,0.0
21.314,2.585,-0.904,0.0
18.703,2.268,-0.9,0.0
17.0,2.061,-0.916,0.0
30.772,3.724,-0.805,0.0
26.636,3.222,-0.85,0.0
23.358,2.824,-0.879,0.0
20.455,2.472,-0.889,0.0
18.27,2.208,-0.899,0.0
16.729,2.021,-0.919,0.0
30.151,3.634,-0.821,0.0
25.851,3.115,-0.851,0.0
21.893,2.637,-0.846,0.0
20.196,2.432,-0.899,0.0
18.148,2.184,-0.912,0.0
16.412,1.975,-0.919,1.0
29.273,3.514,-0.827,0.0
25.25,3.03,-0.858,0.0
21.798,2.614,-0.865,0.0
0.0,0.0,0.0,0.0
17.805,2.134,-0.913,0.0
16.273,1.949,-0.928,0.0
28.451,3.4,-0.833,0.0
24.537,2.93,-0.858,0.0
21.749,2.596,-0.885,1.0
19.243,2.296,-0.895,0.0
17.367,2.071,-0.907,0.0
15.975,1.905,-0.926,0.0
27.697,3.294,-0.838,0.0
24.069,2.86,-0.866,0.0
21.672,2.574,-0.903,0.0
19.233,2.283,-0.914,0.0
17.176,2.038,-0.914,0.0
15.682,1.86,-0.925,0.0
27.102,3.206,-0.846,0.0
23.625,2.793,-0.872,0.0
20.804,2.458,-0.887,0.0
18.782,2.218,-0.91,0.0
16.876,1.992,-0.915,0.0
15.514,1.83,-0.93,0.0
26.292,3.092,-0.846,0.0
23.117,2.717,-0.875,0.0
20.413,2.398,-0.89,0.0
18.343,2.153,-0.906,0.0
16.709,1.96,-0.921,0.0
15.244,1.787,-0.928,0.0
25.631,2.996,-0.848,0.0
21.858,2.553,-0.848,0.0
20.224,2.361,-0.9,0.0
18.041,2.105,-0.908,0.0
16.465,1.92,-0.923,0.0
14.985,1.746,-0.926,0.0
25.079,2.913,-0.853,0.0
21.828,2.533,-0.867,0.0
19.437,2.254,-0.883,0.0
17.59,2.038,-0.901,0.0
16.235,1.88,-0.925,0.0
14.841,1.718,-0.93,0.0
24.564,2.833,-0.857,0.0
21.785,2.511,-0.884,1.0
19.354,2.229,-0.896,1.0
17.391,2.001,-0.906,0.0
15.982,1.838,-0.924,0.0
14.666,1.685,-0.932,0.0
24.168,2.767,-0.864,0.0
21.762,2.49,-0.902,0.0
19.231,2.198,-0.907,1.0
17.281,1.974,-0.915,1.0
15.774,1.8,-0.926,0.0
14.516,1.656,-0.935,0.0
23.735,2.697,-0.868,0.0
21.317,2.42,-0.901,0.0
18.786,2.131,-0.901,0.0
17.142,1.943,-0.922,0.0
15.545,1.76,-0.925,0.0
14.351,1.624,-0.936,0.0
21.99,2.479,-0.822,0.0
20.57,2.316,-0.886,0.0
18.588,2.091,-0.907,0.0
16.816,1.89,-0.918,0.0
15.388,1.728,-0.928,0.0
14.267,1.601,-0.942,0.0
21.942,2.452,-0.837,2.0
20.127,2.247,-0.882,0.0
18.197,2.03,-0.902,0.0
16.609,1.851,-0.919,0.0
15.18,1.69,-0.927,0.0
14.087,1.567,-0.94,0.0
21.893,2.425,-0.852,6.0
19.726,2.183,-0.88,0.0
17.976,1.987,-0.904,1.0
16.345,1.805,-0.917,0.0
14.985,1.653,-0.926,0.0
14.009,1.544,-0.945,0.0
21.85,2.398,-0.866,7.0
19.638,2.153,-0.89,2.0
17.783,1.948,-0.907,2.0
16.171,1.769,-0.918,0.0
14.858,1.624,-0.928,0.0
0.0,0.0,0.0,0.0
21.827,2.373,-0.88,6.0
19.55,2.123,-0.899,2.0
17.708,1.921,-0.915,1.0
16.051,1.739,-0.922,0.0
14.742,1.595,-0.931,0.0
13.658,1.477,-0.94,0.0
21.795,2.346,-0.893,3.0
19.415,2.087,-0.905,1.0
17.685,1.899,-0.925,1.0
15.883,1.703,-0.923,0.0
14.636,1.568,-0.934,0.0
13.493,1.444,-0.938,0.0
21.724,2.314,-0.904,1.0
19.192,2.041,-0.907,0.0
17.405,1.849,-0.921,0.0
15.777,1.674,-0.926,0.0
14.534,1.54,-0.936,0.0
13.419,1.421,-0.941,0.0
21.271,2.241,-0.897,0.0
18.845,1.983,-0.902,0.0
17.141,1.801,-0.917,0.0
15.597,1.637,-0.925,0.0
14.448,1.514,-0.939,0.0
13.356,1.398,-0.944,0.0
20.848,2.172,-0.891,0.0
18.714,1.947,-0.906,0.0
17.004,1.766,-0.919,0.0
15.478,1.606,-0.926,0.0
14.377,1.489,-0.942,0.0
13.268,1.373,-0.945,0.0
20.673,2.129,-0.895,0.0
18.531,1.905,-0.907,0.0
16.886,1.733,-0.922,0.0
15.367,1.575,-0.928,0.0
14.328,1.467,-0.946,0.0
13.112,1.34,-0.94,0.0
20.572,2.092,-0.901,0.0
18.209,1.849,-0.9,0.0
16.698,1.693,-0.92,0.0
15.204,1.539,-0.925,0.0
14.234,1.439,-0.947,0.0
13.001,1.313,-0.938,0.0
20.338,2.043,-0.9,0.0
18.031,1.808,-0.899,1.0
16.526,1.654,-0.918,0.0
15.044,1.504,-0.922,0.0
14.044,1.402,-0.94,0.0
12.975,1.293,-0.942,0.0
19.884,1.971,-0.888,0.0
17.981,1.78,-0.904,1.0
16.488,1.629,-0.923,0.0
15.012,1.481,-0.926,0.0
13.988,1.378,-0.942,0.0
12.858,1.264,-0.939,0.0
19.706,1.928,-0.888,0.0
17.9,1.748,-0.907,1.0
16.349,1.594,-0.921,0.0
14.958,1.456,-0.928,0.0
0.0,0.0,0.0,0.0
12.836,1.245,-0.942,0.0
19.566,1.888,-0.888,0.0
17.81,1.715,-0.909,1.0
16.207,1.558,-0.919,0.0
14.89,1.429,-0.929,0.0
0.0,0.0,0.0,0.0
12.765,1.22,-0.941,0.0
19.538,1.858,-0.894,0.0
17.805,1.69,-0.914,0.0
16.185,1.533,-0.922,0.0
14.836,1.403,-0.93,0.0
13.66,1.289,-0.934,0.0
12.79,1.205,-0.946,0.0
19.468,1.823,-0.896,0.0
17.629,1.648,-0.91,0.0
16.096,1.502,-0.922,0.0
14.806,1.379,-0.932,0.0
13.622,1.266,-0.935,0.0
12.698,1.178,-0.943,0.0
19.481,1.797,-0.901,0.0
17.478,1.609,-0.906,0.0
16.031,1.473,-0.922,0.0
14.729,1.35,-0.931,0.0
13.565,1.241,-0.934,0.0
12.687,1.158,-0.945,0.0
19.434,1.764,-0.903,0.0
17.503,1.585,-0.911,0.0
16.019,1.448,-0.924,0.0
14.688,1.325,-0.931,0.0
13.531,1.218,-0.934,0.0
12.629,1.135,-0.943,0.0
19.409,1.734,-0.905,0.0
17.458,1.556,-0.912,0.0
15.988,1.422,-0.925,0.0
14.665,1.301,-0.932,0.0
13.515,1.197,-0.935,0.0
12.612,1.114,-0.943,0.0
19.375,1.701,-0.906,0.0
17.291,1.515,-0.905,0.0
15.985,1.397,-0.926,0.0
14.648,1.277,-0.932,0.0
13.482,1.173,-0.934,0.0
12.619,1.096,-0.945,0.0
19.395,1.674,-0.909,0.0
17.421,1.5,-0.913,0.0
15.933,1.368,-0.924,0.0
14.656,1.256,-0.934,0.0
13.466,1.151,-0.933,0.0
12.584,1.073,-0.943,0.0
19.378,1.643,-0.909,0.0
17.391,1.47,-0.913,0.0
15.879,1.339,-0.922,0.0
14.64,1.232,-0.933,0.0
13.51,1.134,-0.937,0.0
12.586,1.054,-0.943,0.0
19.339,1.609,-0.907,0.0
17.313,1.437,-0.909,0.0
15.872,1.314,-0.921,0.0
14.616,1.207,-0.931,0.0
13.6,1.12,-0.943,0.0
12.615,1.036,-0.945,0.0
19.373,1.581,-0.908,0.0
17.447,1.42,-0.915,0.0
15.969,1.296,-0.926,0.0
14.66,1.187,-0.934,0.0
13.567,1.096,-0.94,0.0
12.608,1.016,-0.944,0.0
19.409,1.554,-0.908,0.0
17.358,1.386,-0.909,0.0
16.031,1.276,-0.928,0.0
14.687,1.166,-0.934,0.0
13.625,1.079,-0.942,0.0
12.613,0.996,-0.943,0.0
19.412,1.523,-0.906,0.0
17.324,1.355,-0.905,0.0
16.05,1.252,-0.928,0.0
14.733,1.146,-0.935,0.0
13.569,1.052,-0.937,0.0
12.649,0.978,-0.944,0.0
19.437,1.494,-0.904,0.0
17.447,1.337,-0.909,0.0
16.086,1.229,-0.927,0.0
14.767,1.125,-0.935,0.0
13.741,1.043,-0.946,0.0
12.704,0.962,-0.945,0.0
19.5,1.467,-0.904,0.0
17.597,1.32,-0.913,0.0
16.139,1.207,-0.927,0.0
14.818,1.105,-0.934,0.0
13.914,1.034,-0.955,0.0
12.773,0.946,-0.947,0.0
19.541,1.438,-0.901,0.0
0.0,0.0,0.0,0.0
16.208,1.185,-0.926,0.0
14.876,1.084,-0.934,0.0
13.711,0.996,-0.937,0.0
12.803,0.927,-0.946,0.0
19.527,1.405,-0.895,0.0
17.761,1.274,-0.912,0.0
16.282,1.164,-0.926,0.0
14.895,1.061,-0.931,0.0
0.0,0.0,0.0,0.0
12.846,0.909,-0.945,0.0
19.569,1.376,-0.89,0.0
0.0,0.0,0.0,0.0
16.325,1.14,-0.923,0.0
15.008,1.044,-0.933,0.0
13.96,0.968,-0.945,0.0
12.949,0.895,-0.948,0.0
19.88,1.364,-0.898,0.0
18.109,1.238,-0.917,0.0
16.507,1.125,-0.927,0.0
15.013,1.019,-0.928,0.0
14.07,0.952,-0.947,0.0
12.987,0.876,-0.946,0.0
19.934,1.335,-0.892,0.0
18.09,1.207,-0.909,0.0
16.574,1.102,-0.924,0.0
15.051,0.997,-0.924,0.0
14.013,0.925,-0.937,0.0
12.997,0.855,-0.941,0.0
20.241,1.321,-0.897,0.0
18.358,1.194,-0.914,0.0
0.0,0.0,0.0,0.0
15.24,0.983,-0.928,0.0
14.11,0.907,-0.937,0.0
13.131,0.841,-0.944,0.0
20.575,1.308,-0.902,0.0
0.0,0.0,0.0,0.0
0.0,0.0,0.0,0.0
15.265,0.959,-0.922,0.0
14.247,0.892,-0.938,0.0
13.239,0.825,-0.945,0.0
21.612,1.338,-0.936,0.0
0.0,0.0,0.0,0.0
0.0,0.0,0.0,0.0
15.506,0.948,-0.928,0.0
14.367,0.875,-0.938,0.0
13.35,0.81,-0.945,0.0
21.727,1.308,-0.928,0.0
0.0,0.0,0.0,0.0
0.0,0.0,0.0,0.0
15.712,0.934,-0.931,0.0
14.476,0.857,-0.937,0.0
13.404,0.79,-0.941,0.0
21.785,1.275,-0.917,3.0
19.34,1.127,-0.92,0.0
17.326,1.005,-0.919,0.0
15.886,0.917,-0.931,0.0
14.647,0.842,-0.938,0.0
13.637,0.781,-0.948,0.0
21.801,1.239,-0.904,6.0
0.0,0.0,0.0,0.0
17.491,0.985,-0.916,0.0
16.082,0.901,-0.931,0.0
14.815,0.827,-0.939,0.0
13.6,0.756,-0.936,0.0
21.813,1.203,-0.889,1.0
19.264,1.057,-0.89,0.0
17.754,0.97,-0.917,0.0
16.245,0.883,-0.929,0.0
14.996,0.811,-0.94,2.0
13.897,0.748,-0.947,0.0
21.846,1.168,-0.875,0.0
0.0,0.0,0.0,0.0
17.937,0.949,-0.913,0.0
16.315,0.859,-0.921,0.0
15.162,0.795,-0.938,2.0
14.178,0.739,-0.955,0.0
21.914,1.134,-0.86,0.0
20.282,1.044,-0.906,1.0
18.454,0.945,-0.925,0.0
16.549,0.844,-0.921,0.0
15.355,0.779,-0.938,0.0
14.282,0.721,-0.95,0.0
0.0,0.0,0.0,0.0
20.255,1.009,-0.888,8.0
18.537,0.918,-0.913,0.0
16.871,0.831,-0.925,1.0
15.553,0.763,-0.937,0.0
14.435,0.704,-0.948,0.0
20.22,0.978,-0.76,2.0
20.226,0.973,-0.87,11.0
20.16,0.965,-0.976,3.0
20.208,0.962,-1.09,0.0
15.839,0.75,-0.94,0.0
14.544,0.685,-0.942,0.0
20.21,0.944,-0.742,155.0
20.229,0.939,-0.851,150.0
20.215,0.934,-0.96,25.0
20.234,0.929,-1.072,30.0
16.068,0.734,-0.939,0.0
14.769,0.671,-0.943,0.0
20.191,0.909,-0.722,179.0
20.241,0.906,-0.833,83.0
20.043,0.892,-0.933,6.0
20.212,0.895,-1.052,20.0
16.252,0.715,-0.934,0.0
15.025,0.658,-0.944,0.0
20.261,0.879,-0.705,151.0
20.234,0.873,-0.813,34.0
20.182,0.865,-0.919,5.0
18.074,0.77,-0.922,0.0
16.493,0.698,-0.931,0.0
15.215,0.64,-0.941,0.0
25.832,1.078,-0.872,0.0
22.527,0.935,-0.882,1.0
20.209,0.833,-0.9,10.0
18.482,0.757,-0.924,0.0
16.774,0.683,-0.929,0.0
15.422,0.624,-0.937,0.0
26.458,1.061,-0.866,0.0
23.311,0.929,-0.888,1.0
20.291,0.803,-0.882,2.0
18.723,0.736,-0.916,0.0
17.099,0.668,-0.928,0.0
15.737,0.611,-0.939,0.0
0.0,0.0,0.0,0.0
24.296,0.928,-0.899,0.0
21.367,0.811,-0.905,0.0
19.281,0.727,-0.922,0.0
17.504,0.655,-0.931,0.0
16.061,0.597,-0.941,0.0
28.475,1.05,-0.869,0.0
24.717,0.905,-0.886,0.0
22.132,0.804,-0.912,0.0
19.81,0.715,-0.924,0.0
17.864,0.64,-0.929,0.0
16.31,0.58,-0.936,0.0
29.856,1.053,-0.876,1.0
25.559,0.895,-0.886,0.0
22.563,0.784,-0.903,0.0
20.187,0.696,-0.918,0.0
18.218,0.623,-0.926,0.0
16.622,0.565,-0.934,0.0
30.165,1.016,-0.849,1.0
26.251,0.877,-0.879,0.0
23.053,0.764,-0.895,0.0
20.662,0.68,-0.914,0.0
18.623,0.608,-0.923,0.0
16.889,0.547,-0.928,0.0
32.256,1.035,-0.867,0.0
27.329,0.87,-0.88,0.0
23.952,0.756,-0.899,0.0
21.199,0.664,-0.911,0.0
19.041,0.591,-0.92,0.0
17.331,0.534,-0.929,0.0
32.486,0.991,-0.832,1.0
28.433,0.86,-0.879,0.0
24.641,0.739,-0.893,0.0
21.911,0.651,-0.913,0.0
19.741,0.582,-0.927,0.0
17.9,0.523,-0.936,0.0
33.925,0.982,-0.823,0.0
29.554,0.848,-0.874,0.0
25.513,0.726,-0.89,0.0
22.47,0.633,-0.906,0.0
20.183,0.564,-0.921,0.0
18.31,0.507,-0.933,0.0
35.723,0.98,-0.819,0.0
30.732,0.835,-0.868,1.0
26.395,0.71,-0.885,0.0
23.05,0.614,-0.897,0.0
20.699,0.547,-0.916,0.0
18.63,0.487,-0.923,0.0
0.0,0.0,0.0,0.0
31.9,0.818,-0.856,1.0
27.332,0.695,-0.879,0.0
24.104,0.606,-0.905,0.0
21.311,0.531,-0.913,0.0
19.105,0.471,-0.92,0.0
38.574,0.942,-0.777,0.0
32.781,0.793,-0.833,1.0
28.619,0.685,-0.879,1.0
24.761,0.587,-0.894,0.0
22.218,0.521,-0.92,0.0
19.834,0.46,-0.926,0.0
40.465,0.929,-0.757,0.0
34.669,0.788,-0.832,0.0
29.983,0.674,-0.877,0.0
25.888,0.576,-0.897,0.0
22.695,0.499,-0.906,0.0
20.503,0.446,-0.927,0.0
42.876,0.922,-0.738,0.0
36.588,0.778,-0.822,0.0
31.394,0.66,-0.871,1.0
26.808,0.557,-0.888,0.0
23.511,0.483,-0.903,0.0
21.103,0.428,-0.922,0.0
0.0,0.0,0.0,0.0
37.607,0.745,-0.788,0.0
32.499,0.636,-0.852,1.0
28.027,0.542,-0.885,0.0
24.526,0.468,-0.904,0.0
20.143,0.38,-0.848,0.0
0.0,0.0,0.0,0.0
0.0,0.0,0.0,0.0
34.113,0.62,-0.841,5.0
29.364,0.527,-0.882,0.0
