X,Y,Z,Reflectivity
16.082,-0.306,-0.959,0.0
14.772,-0.281,-0.957,0.0
23.44,-0.443,-0.864,1.0
23.442,-0.442,-0.985,0.0
19.641,-0.37,-0.926,0.0
18.175,-0.342,-0.953,0.0
16.738,-0.315,-0.965,0.0
15.28,-0.287,-0.96,0.0
23.677,-0.441,-0.825,2.0
23.583,-0.439,-0.944,0.0
0.0,0.0,0.0,0.0
18.969,-0.352,-0.957,0.0
17.141,-0.317,-0.953,0.0
15.813,-0.292,-0.961,0.0
24.641,-0.452,-0.809,1.0
23.866,-0.437,-0.907,0.0
21.44,-0.392,-0.925,0.0
19.584,-0.357,-0.949,1.0
18.017,-0.328,-0.966,0.0
16.35,-0.297,-0.961,0.0
25.987,-0.468,-0.801,1.0
24.09,-0.433,-0.867,2.0
23.991,-0.43,-0.987,0.0
19.604,-0.35,-0.91,0.0
18.463,-0.329,-0.952,0.0
16.867,-0.3,-0.957,0.0
26.895,-0.474,-0.775,2.0
24.483,-0.43,-0.832,1.0
23.806,-0.417,-0.932,0.0
21.472,-0.375,-0.954,2.0
19.53,-0.34,-0.968,0.0
17.438,-0.303,-0.954,0.0
28.609,-0.493,-0.767,7.0
25.412,-0.436,-0.812,4.0
24.72,-0.423,-0.918,0.0
21.472,-0.366,-0.91,1.0
19.631,-0.333,-0.934,1.0
18.27,-0.309,-0.963,0.0
30.246,-0.507,-0.75,16.0
26.508,-0.443,-0.794,1.0
25.101,-0.418,-0.881,1.0
0.0,0.0,0.0,0.0
21.253,-0.351,-0.968,0.0
18.749,-0.308,-0.951,0.0
30.645,-0.499,-0.699,30.0
28.066,-0.455,-0.785,1.0
25.559,-0.412,-0.847,5.0
25.644,-0.412,-0.984,0.0
20.663,-0.33,-0.9,4.0
19.62,-0.312,-0.956,5.0
31.454,-0.495,-0.655,9.0
29.688,-0.465,-0.771,8.0
26.201,-0.408,-0.815,2.0
26.011,-0.403,-0.946,0.0
20.218,-0.312,-0.84,3.0
19.696,-0.302,-0.92,1.0
37.896,-0.576,-0.713,2.0
30.42,-0.46,-0.729,27.0
27.055,-0.406,-0.788,1.0
26.542,-0.396,-0.913,0.0
20.236,-0.3,-0.801,7.0
20.121,-0.297,-0.9,6.0
38.091,-0.556,-0.641,25.0
31.369,-0.455,-0.69,27.0
28.411,-0.409,-0.772,1.0
27.034,-0.387,-0.877,1.0
20.222,-0.287,-0.76,11.0
20.143,-0.284,-0.861,9.0
39.304,-0.549,-0.584,6.0
35.935,-0.498,-0.719,2.0
30.407,-0.418,-0.765,9.0
27.691,-0.378,-0.843,1.0
20.217,-0.274,-0.72,16.0
20.234,-0.272,-0.825,28.0
44.961,-0.597,-0.579,33.0
37.893,-0.499,-0.683,21.0
31.269,-0.408,-0.725,23.0
28.41,-0.368,-0.808,1.0
20.208,-0.259,-0.679,19.0
20.223,-0.257,-0.784,34.0
52.735,-0.662,-0.573,3.0
38.437,-0.478,-0.616,14.0
32.104,-0.395,-0.68,8.0
29.47,-0.36,-0.78,4.0
20.211,-0.244,-0.639,24.0
20.219,-0.242,-0.744,35.0
53.025,-0.626,-0.473,5.0
44.737,-0.522,-0.629,22.0
36.011,-0.416,-0.693,3.0
30.814,-0.352,-0.755,4.0
20.21,-0.228,-0.599,25.0
20.207,-0.226,-0.704,36.0
59.433,-0.655,-0.413,9.0
45.157,-0.492,-0.547,19.0
38.032,-0.409,-0.658,28.0
20.206,-0.214,-0.455,8.0
20.187,-0.211,-0.559,27.0
20.209,-0.209,-0.664,38.0
56.233,-0.572,-0.28,4.0
52.585,-0.528,-0.533,6.0
38.874,-0.384,-0.594,5.0
20.178,-0.197,-0.415,14.0
20.177,-0.194,-0.519,27.0
20.191,-0.191,-0.624,38.0
56.264,-0.524,-0.17,11.0
56.557,-0.519,-0.464,1.0
44.923,-0.405,-0.601,13.0
20.153,-0.179,-0.375,19.0
20.181,-0.176,-0.48,25.0
20.179,-0.173,-0.584,38.0
53.342,-0.449,-0.059,8.0
20.189,-0.167,-0.126,5.0
20.14,-0.163,-0.23,15.0
20.165,-0.16,-0.337,26.0
20.174,-0.157,-0.442,30.0
20.179,-0.154,-0.546,37.0
20.187,-0.151,0.015,11.0
20.171,-0.148,-0.088,16.0
20.154,-0.144,-0.192,10.0
20.149,-0.141,-0.298,29.0
20.153,-0.138,-0.403,35.0
20.181,-0.135,-0.508,29.0
20.15,-0.131,0.054,25.0
20.173,-0.128,-0.049,23.0
20.159,-0.124,-0.154,24.0
20.128,-0.121,-0.26,31.0
20.142,-0.118,-0.364,35.0
20.153,-0.114,-0.469,36.0
20.142,-0.111,0.092,31.0
20.136,-0.107,-0.011,28.0
20.155,-0.104,-0.116,26.0
20.118,-0.1,-0.221,19.0
20.14,-0.097,-0.326,37.0
20.159,-0.093,-0.431,34.0
20.133,-0.089,0.13,26.0
20.132,-0.086,0.026,33.0
20.137,-0.082,-0.077,29.0
20.143,-0.079,-0.184,35.0
20.138,-0.075,-0.288,32.0
20.153,-0.071,-0.393,22.0
20.122,-0.068,0.168,29.0
20.135,-0.064,0.064,41.0
20.127,-0.06,-0.04,30.0
20.142,-0.057,-0.146,33.0
20.147,-0.053,-0.251,22.0
20.167,-0.049,-0.356,20.0
20.118,-0.045,0.205,33.0
20.118,-0.042,0.1,37.0
20.125,-0.038,-0.003,34.0
20.141,-0.034,-0.11,31.0
20.139,-0.03,-0.215,11.0
20.157,-0.026,-0.319,12.0
20.121,-0.023,0.241,28.0
20.117,-0.019,0.137,28.0
20.146,-0.015,0.032,26.0
20.172,-0.011,-0.074,18.0
20.185,-0.007,-0.179,11.0
20.231,-0.003,-0.284,7.0
20.121,0.0,0.278,28.0
20.129,0.004,0.173,28.0
20.162,0.008,0.068,46.0
20.24,0.012,-0.038,151.0
20.265,0.016,-0.143,151.0
20.262,0.02,-0.249,151.0
20.136,0.024,0.314,29.0
20.134,0.028,0.209,27.0
20.133,0.033,0.104,28.0
20.252,0.037,-0.002,49.0
20.256,0.041,-0.107,43.0
20.236,0.045,-0.213,57.0
20.14,0.049,0.349,29.0
20.15,0.053,0.244,28.0
20.145,0.057,0.139,26.0
20.196,0.062,0.032,29.0
20.215,0.066,-0.072,35.0
20.205,0.07,-0.177,27.0
20.146,0.074,0.384,28.0
20.149,0.079,0.279,26.0
20.157,0.083,0.174,28.0
20.187,0.087,0.067,35.0
20.182,0.092,-0.037,28.0
20.178,0.096,-0.143,33.0
20.154,0.1,0.419,29.0
20.15,0.105,0.313,28.0
20.159,0.109,0.208,26.0
20.191,0.114,0.101,27.0
20.184,0.118,-0.003,26.0
20.179,0.123,-0.109,37.0
20.171,0.127,0.454,25.0
20.159,0.132,0.348,26.0
20.164,0.136,0.242,25.0
20.168,0.141,0.135,23.0
20.195,0.146,0.03,24.0
20.193,0.15,-0.075,23.0
20.166,0.155,0.487,18.0
20.184,0.159,0.382,26.0
20.207,0.164,0.276,23.0
20.265,0.169,0.169,25.0
20.293,0.174,0.063,29.0
20.297,0.179,-0.042,22.0
20.269,0.183,0.523,29.0
20.279,0.188,0.417,30.0
20.28,0.193,0.311,27.0
20.288,0.198,0.202,28.0
20.314,0.203,0.096,29.0
20.338,0.208,-0.009,20.0
20.274,0.212,0.556,24.0
20.27,0.217,0.449,29.0
20.268,0.221,0.343,34.0
20.269,0.226,0.235,26.0
20.295,0.231,0.128,16.0
20.372,0.237,0.022,0.0
20.269,0.241,0.588,9.0
20.283,0.246,0.482,27.0
20.285,0.251,0.375,24.0
20.272,0.255,0.266,16.0
20.291,0.26,0.16,0.0
99.603,1.305,0.264,5.0
125.051,1.67,3.824,32.0
20.288,0.275,0.513,3.0
20.289,0.28,0.406,2.0
194.977,2.743,2.861,25.0
0.0,0.0,0.0,0.0
99.686,1.451,0.414,5.0
125.049,1.854,4.014,32.0
196.876,2.966,5.281,8.0
196.373,3.007,4.234,27.0
194.688,3.029,3.152,34.0
0.0,0.0,0.0,0.0
99.745,1.602,0.564,4.0
124.883,2.041,4.198,29.0
0.0,0.0,0.0,0.0
197.263,3.323,4.55,6.0
194.942,3.331,3.447,24.0
0.0,0.0,0.0,0.0
99.944,1.758,0.713,1.0
124.682,2.226,4.373,9.0
0.0,0.0,0.0,0.0
194.568,3.573,4.77,15.0
194.563,3.621,3.72,13.0
0.0,0.0,0.0,0.0
103.127,1.971,0.882,1.0
124.74,2.419,4.553,6.0
0.0,0.0,0.0,0.0
194.959,3.881,5.055,7.0
194.319,3.918,3.99,18.0
196.584,4.014,2.997,7.0
103.201,2.133,1.026,1.0
157.563,3.303,5.973,3.0
0.0,0.0,0.0,0.0
194.856,4.185,5.323,22.0
194.253,4.221,4.256,24.0
194.206,4.271,3.228,20.0
0.0,0.0,0.0,0.0
102.645,2.315,4.033,4.0
140.2,3.199,4.765,3.0
194.909,4.498,5.59,16.0
194.192,4.531,4.52,26.0
193.994,4.576,3.485,23.0
195.143,4.656,2.472,20.0
102.671,2.481,4.172,7.0
0.0,0.0,0.0,0.0
194.937,4.812,5.849,9.0
194.216,4.847,4.777,28.0
193.798,4.887,3.738,31.0
195.313,4.975,2.728,24.0
120.269,3.102,5.044,2.0
156.883,4.088,5.746,4.0
193.295,5.089,6.052,7.0
194.495,5.171,5.033,25.0
193.73,5.203,3.984,24.0
195.893,5.313,2.987,8.0
120.201,3.298,5.195,2.0
193.575,5.364,7.335,6.0
193.091,5.401,6.288,23.0
194.423,5.489,5.274,21.0
193.741,5.522,4.225,32.0
0.0,0.0,0.0,0.0
124.794,3.631,5.547,4.0
102.954,3.024,4.027,4.0
192.948,5.718,6.518,6.0
194.352,5.812,5.51,11.0
193.942,5.853,4.463,21.0
194.142,5.913,3.434,4.0
124.741,3.841,5.697,2.0
193.847,6.021,7.817,19.0
193.312,6.054,6.761,21.0
196.15,6.195,5.792,7.0
193.93,6.179,4.692,8.0
195.271,6.276,3.683,14.0
117.938,3.83,5.523,3.0
193.688,6.341,8.034,20.0
193.738,6.396,7.0,23.0
0.0,0.0,0.0,0.0
195.072,6.545,4.94,8.0
195.054,6.596,3.895,17.0
104.353,3.566,5.005,4.0
196.131,6.757,8.356,18.0
193.583,6.72,7.21,24.0
193.322,6.762,6.142,7.0
194.844,6.867,5.147,8.0
195.125,6.931,4.109,8.0
195.505,7.015,9.589,17.0
196.193,7.093,8.57,9.0
194.662,7.089,7.456,19.0
193.968,7.117,6.37,8.0
194.745,7.198,5.351,12.0
0.0,0.0,0.0,0.0
195.418,7.349,9.791,18.0
195.854,7.417,8.759,9.0
199.157,7.597,7.837,6.0
193.692,7.439,6.559,26.0
198.61,7.686,5.66,7.0
196.753,7.667,4.551,6.0
194.812,7.664,9.959,24.0
194.707,7.712,8.904,22.0
195.52,7.8,7.89,21.0
193.671,7.778,6.753,13.0
193.231,7.811,5.696,24.0
195.315,7.951,4.708,4.0
194.355,7.986,10.128,22.0
194.779,8.056,9.097,9.0
195.218,8.126,8.065,19.0
193.895,8.125,6.946,14.0
193.325,8.155,5.882,26.0
192.789,8.184,4.828,7.0
194.282,8.324,10.306,27.0
194.008,8.363,9.241,21.0
193.429,8.391,8.169,25.0
193.758,8.459,7.118,27.0
193.222,8.488,6.056,27.0
194.023,8.577,5.033,22.0
194.671,8.686,10.503,19.0
193.529,8.686,9.394,28.0
193.523,8.736,8.344,22.0
193.443,8.784,7.276,22.0
193.115,8.82,6.218,24.0
0.0,0.0,0.0,0.0
195.908,9.083,10.738,20.0
194.454,9.068,9.602,24.0
192.831,9.045,8.478,24.0
192.959,9.102,7.419,27.0
194.129,9.212,6.413,24.0
0.0,0.0,0.0,0.0
195.459,9.413,10.874,21.0
193.997,9.393,9.74,23.0
192.705,9.384,8.63,23.0
192.982,9.447,7.574,21.0
192.665,9.483,6.517,6.0
194.098,9.608,5.515,22.0
195.69,9.773,11.042,24.0
194.166,9.747,9.898,20.0
192.915,9.736,8.787,26.0
192.852,9.786,7.717,25.0
193.63,9.876,6.695,11.0
194.03,9.951,5.657,18.0
195.21,10.097,11.16,21.0
194.094,10.091,10.038,9.0
192.984,10.085,8.93,19.0
193.03,10.138,7.863,19.0
193.236,10.2,6.82,21.0
193.642,10.275,5.781,10.0
195.136,10.441,11.293,22.0
194.088,10.434,10.171,26.0
193.513,10.455,9.087,17.0
193.36,10.497,8.007,19.0
193.691,10.566,6.964,5.0
196.002,10.746,5.981,21.0
195.291,10.795,11.429,22.0
193.488,10.745,10.266,24.0
193.807,10.812,9.225,7.0
194.766,10.918,8.189,5.0
0.0,0.0,0.0,0.0
193.371,10.943,6.02,9.0
206.991,11.812,12.244,6.0
194.042,11.121,10.414,8.0
110.521,6.362,5.327,3.0
193.642,11.2,8.257,8.0
0.0,0.0,0.0,0.0
0.0,0.0,0.0,0.0
0.0,0.0,0.0,0.0
194.182,11.475,10.533,25.0
193.81,11.502,9.452,23.0
163.334,9.737,7.055,6.0
0.0,0.0,0.0,0.0
0.0,0.0,0.0,0.0
110.621,6.705,6.667,2.0
196.11,11.938,10.742,24.0
162.307,9.923,8.0,4.0
193.132,11.858,8.442,5.0
0.0,0.0,0.0,0.0
166.22,10.293,5.446,3.0
0.0,0.0,0.0,0.0
196.286,12.298,10.85,17.0
0.0,0.0,0.0,0.0
0.0,0.0,0.0,0.0
0.0,0.0,0.0,0.0
162.76,10.362,5.405,14.0
209.209,13.425,12.809,5.0
196.218,12.641,10.934,12.0
0.0,0.0,0.0,0.0
107.887,7.005,4.813,2.0
161.728,10.543,6.327,6.0
162.287,10.622,5.459,3.0
208.726,13.768,12.869,8.0
196.961,13.042,11.058,6.0
195.18,12.973,9.88,6.0
157.583,10.514,7.094,12.0
157.155,10.525,6.21,4.0
161.963,10.889,5.51,10.0
110.788,7.504,6.872,6.0
120.224,8.172,6.793,3.0
107.839,7.357,5.499,5.0
121.697,8.333,5.521,2.0
156.908,10.785,6.254,3.0
163.074,11.249,5.603,6.0
111.354,7.738,6.944,7.0
0.0,0.0,0.0,0.0
108.178,7.571,5.55,4.0
107.518,7.55,4.912,2.0
110.521,7.789,4.438,1.0
153.614,10.864,5.323,5.0
108.387,7.722,6.791,1.0
111.229,7.95,6.353,7.0
120.32,8.63,6.206,5.0
107.413,7.729,4.936,5.0
161.34,11.648,6.522,3.0
166.387,12.057,5.807,17.0
108.272,7.902,6.811,3.0
110.737,8.109,6.353,3.0
120.494,8.851,6.244,2.0
0.0,0.0,0.0,0.0
108.001,7.985,4.39,2.0
163.719,12.143,5.749,14.0
107.351,8.02,6.776,9.0
92.41,6.925,5.32,3.0
110.933,8.339,5.77,5.0
96.489,7.275,4.474,5.0
96.663,7.312,3.947,14.0
156.922,11.907,5.538,5.0
100.058,7.647,6.333,4.0
96.994,7.434,5.6,6.0
110.97,8.531,5.79,3.0
120.005,9.254,5.582,6.0
154.5,11.95,6.33,9.0
107.275,8.323,3.801,1.0
91.312,7.135,5.792,4.0
91.464,7.167,5.291,3.0
92.612,7.278,4.843,2.0
96.657,7.618,4.507,2.0
160.12,12.658,6.578,8.0
167.079,13.247,5.935,13.0
91.344,7.291,5.802,6.0
99.081,7.93,5.74,2.0
92.211,7.401,4.828,5.0
87.978,7.081,4.108,3.0
109.777,8.862,4.516,2.0
193.635,15.675,6.889,8.0
91.668,7.471,5.826,7.0
97.307,7.952,5.642,2.0
92.335,7.567,4.838,3.0
87.666,7.203,4.096,6.0
99.339,8.185,4.088,6.0
156.952,12.967,5.587,7.0
116.14,9.66,7.384,10.0
91.718,7.647,5.318,12.0
96.831,8.094,5.073,2.0
87.42,7.327,4.084,10.0
98.89,8.311,4.068,6.0
143.996,12.133,5.121,18.0
97.895,8.303,6.22,7.0
99.092,8.425,5.741,4.0
86.667,7.386,4.537,1.0
87.449,7.472,4.081,10.0
99.859,8.554,4.102,4.0
121.078,10.398,4.298,29.0
85.39,7.38,5.42,6.0
84.877,7.353,4.912,4.0
96.732,8.4,5.056,4.0
110.344,9.605,5.139,9.0
99.798,8.709,4.09,5.0
143.274,12.533,5.073,14.0
85.354,7.514,5.408,3.0
86.755,7.655,5.01,2.0
97.08,8.586,5.062,6.0
88.248,7.823,4.099,5.0
86.401,7.676,3.529,4.0
122.074,10.871,4.305,18.0
90.164,8.08,5.7,3.0
78.357,7.038,4.513,2.0
97.176,8.747,5.051,5.0
88.167,7.954,4.08,6.0
87.443,7.907,3.557,2.0
109.688,9.941,3.847,22.0
89.147,8.13,5.618,1.0
98.427,8.994,5.65,4.0
86.408,7.912,4.475,4.0
120.466,11.054,5.55,3.0
108.194,9.95,4.378,8.0
109.733,10.113,3.825,13.0
84.558,7.84,5.31,8.0
85.083,7.904,4.865,2.0
97.406,9.068,5.022,5.0
87.889,8.199,4.027,5.0
108.249,10.12,4.353,9.0
116.039,10.872,4.015,25.0
78.389,7.388,4.903,3.0
85.022,8.027,4.838,3.0
97.489,9.224,4.998,8.0
86.611,8.21,3.945,5.0
107.987,10.258,4.312,21.0
116.026,11.044,3.981,26.0
78.432,7.509,4.881,3.0
87.055,8.35,4.927,3.0
97.511,9.37,4.969,6.0
107.772,10.375,4.875,6.0
103.728,10.006,4.108,2.0
108.354,10.472,3.683,15.0
78.424,7.623,4.855,4.0
85.304,8.306,4.799,11.0
88.132,8.596,4.461,1.0
111.496,10.895,5.004,14.0
115.261,11.285,4.524,8.0
110.063,10.796,3.7,12.0
89.782,8.856,5.524,3.0
85.252,8.423,4.764,6.0
97.734,9.673,4.91,11.0
97.702,9.686,4.347,25.0
111.365,11.061,4.327,10.0
110.074,10.952,3.658,21.0
90.065,9.01,5.506,10.0
81.048,8.121,4.496,2.0
86.724,8.704,4.321,4.0
87.568,8.803,3.859,6.0
97.663,9.835,3.753,23.0
109.98,11.094,3.606,22.0
89.92,9.119,5.457,7.0
84.258,8.558,4.637,3.0
85.666,8.714,4.23,9.0
107.451,10.948,4.687,20.0
97.603,9.962,3.706,19.0
110.401,11.286,3.57,15.0
99.075,10.182,5.965,17.0
83.631,8.607,4.562,5.0
85.769,8.84,4.193,15.0
87.454,9.027,3.771,6.0
103.911,10.744,3.894,7.0
136.635,14.15,4.349,21.0
90.011,9.369,5.375,4.0
87.988,9.172,4.754,3.0
85.543,8.929,4.138,10.0
103.221,10.79,4.398,17.0
98.133,10.274,3.625,11.0
108.366,11.363,3.392,17.0
84.346,8.888,4.991,1.0
79.71,8.411,4.263,1.0
85.594,9.044,4.093,5.0
0.0,0.0,0.0,0.0
98.266,10.413,3.575,12.0
103.688,11.004,3.186,18.0
76.485,8.157,4.481,2.0
79.725,8.513,4.218,3.0
85.779,9.172,4.052,9.0
97.841,10.476,4.056,6.0
98.324,10.542,3.519,29.0
108.607,11.661,3.272,25.0
88.584,9.556,5.136,5.0
84.662,9.144,4.427,4.0
85.78,9.277,3.998,8.0
102.869,11.139,4.201,3.0
98.303,10.659,3.457,14.0
108.794,11.813,3.209,13.0
76.125,8.303,4.365,3.0
84.299,9.206,4.354,4.0
96.641,10.566,4.443,17.0
109.624,12.001,4.404,12.0
108.265,11.867,3.736,14.0
116.752,12.814,3.367,15.0
75.814,8.358,4.296,4.0
87.725,9.682,4.472,4.0
85.825,9.482,3.887,16.0
96.865,10.715,3.827,36.0
96.979,10.74,3.28,15.0
97.806,10.846,2.753,17.0
80.623,8.979,4.513,4.0
87.701,9.777,4.409,3.0
85.831,9.579,3.826,17.0
108.005,12.068,4.189,19.0
104.664,11.708,3.465,17.0
97.719,10.944,2.68,33.0
76.704,8.626,4.237,8.0
107.066,12.053,5.305,5.0
85.822,9.671,3.763,20.0
105.146,11.86,4.002,7.0
108.854,12.292,3.524,15.0
97.739,11.05,2.607,24.0
76.722,8.709,4.18,8.0
107.813,12.25,5.259,15.0
85.837,9.763,3.698,22.0
110.579,12.588,4.123,12.0
104.245,11.88,3.294,34.0
97.817,11.159,2.534,11.0
75.863,8.688,4.074,4.0
136.905,15.693,6.572,12.0
85.857,9.85,3.632,26.0
97.024,11.142,3.541,6.0
115.13,13.234,3.547,22.0
149.669,17.223,3.759,13.0
85.598,9.886,4.529,8.0
105.31,12.173,4.971,10.0
85.885,9.936,3.563,30.0
99.096,11.474,3.536,5.0
97.431,11.292,2.923,13.0
97.764,11.342,2.376,7.0
85.592,9.966,4.457,10.0
114.276,13.317,5.297,13.0
85.906,10.018,3.492,22.0
98.989,11.554,3.449,13.0
97.526,11.394,2.842,24.0
149.519,17.484,3.506,13.0
85.665,10.052,4.387,31.0
90.687,10.649,4.127,20.0
90.985,10.692,3.619,17.0
96.67,11.369,3.284,8.0
97.684,11.498,2.762,44.0
97.773,11.519,2.206,26.0
85.741,10.135,4.316,31.0
86.82,10.269,3.873,19.0
85.91,10.168,3.341,15.0
96.81,11.467,3.204,8.0
97.683,11.579,2.676,42.0
97.724,11.594,2.118,30.0
85.749,10.205,4.239,6.0
85.75,10.212,3.749,59.0
85.833,10.228,3.261,45.0
96.88,11.553,3.118,33.0
97.666,11.655,2.586,37.0
97.694,11.667,2.029,27.0
90.16,10.8,4.374,18.0
86.582,10.378,3.705,18.0
85.964,10.31,3.187,44.0
96.907,11.63,3.028,15.0
97.717,11.735,2.496,35.0
97.731,11.745,1.938,22.0
103.583,12.485,4.927,8.0
136.267,16.432,5.703,16.0
86.01,10.378,3.106,48.0
97.147,11.729,2.943,11.0
97.801,11.815,2.405,20.0
97.794,11.822,1.846,6.0
103.734,12.574,4.835,7.0
136.301,16.53,5.573,7.0
85.9,10.423,3.019,31.0
97.295,11.813,2.853,64.0
139.699,16.971,3.298,8.0
0.0,0.0,0.0,0.0
90.806,11.067,4.142,13.0
99.031,12.075,3.95,3.0
85.889,10.477,2.933,28.0
97.295,11.875,2.757,21.0
149.642,18.274,3.384,23.0
160.88,19.658,2.718,3.0
90.775,11.119,4.049,30.0
108.896,13.344,4.233,18.0
85.831,10.522,2.845,14.0
149.975,18.394,4.097,9.0
149.573,18.354,3.231,24.0
0.0,0.0,0.0,0.0
108.915,13.403,4.746,6.0
84.851,10.445,3.212,11.0
91.568,11.276,2.941,13.0
149.812,18.456,3.94,14.0
149.656,18.446,3.078,31.0
0.0,0.0,0.0,0.0
91.15,11.264,3.878,6.0
84.897,10.495,3.124,31.0
91.498,11.314,2.844,26.0
91.584,11.329,2.312,10.0
91.525,11.327,1.787,11.0
0.0,0.0,0.0,0.0
84.81,10.522,3.519,31.0
84.904,10.536,3.036,15.0
91.475,11.354,2.747,39.0
91.582,11.371,2.216,30.0
91.514,11.367,1.69,29.0
0.0,0.0,0.0,0.0
84.822,10.56,3.429,52.0
97.198,12.103,3.37,13.0
91.466,11.392,2.648,50.0
91.532,11.403,2.117,35.0
91.492,11.402,1.591,39.0
0.0,0.0,0.0,0.0
84.837,10.595,3.337,29.0
85.78,10.714,2.883,30.0
91.476,11.428,2.548,57.0
91.505,11.434,2.015,61.0
91.445,11.43,1.491,37.0
69.212,8.654,0.732,1.0
84.859,10.627,3.245,15.0
91.344,11.44,2.97,17.0
91.482,11.459,2.45,50.0
91.483,11.461,1.915,59.0
91.467,11.462,1.391,17.0
0.0,0.0,0.0,0.0
84.917,10.659,3.155,15.0
91.398,11.473,2.871,47.0
91.48,11.485,2.349,43.0
91.46,11.484,1.814,58.0
69.027,8.669,0.974,0.0
68.686,8.628,0.576,1.0
84.976,10.688,3.063,27.0
91.42,11.498,2.771,52.0
91.485,11.507,2.248,55.0
91.442,11.503,1.713,52.0
69.206,8.707,0.9,1.0
68.679,8.643,0.499,9.0
85.021,10.71,2.97,14.0
91.465,11.522,2.67,60.0
91.488,11.525,2.146,48.0
91.454,11.522,1.611,45.0
69.222,8.722,0.823,0.0
68.663,8.653,0.423,15.0
85.717,10.812,2.898,30.0
91.471,11.537,2.568,55.0
91.486,11.539,2.043,42.0
91.429,11.532,1.509,41.0
69.161,8.724,0.745,1.0
68.638,8.659,0.345,13.0
85.761,10.827,2.803,25.0
91.478,11.548,2.466,47.0
91.472,11.546,1.94,45.0
91.434,11.541,1.405,13.0
69.115,8.724,0.666,0.0
68.661,8.668,0.268,5.0
91.421,11.548,2.884,33.0
91.483,11.554,2.362,36.0
91.43,11.546,1.836,43.0
69.042,8.718,0.983,0.0
68.698,8.675,0.584,1.0
0.0,0.0,0.0,0.0
91.46,11.555,2.782,41.0
91.501,11.558,2.258,34.0
91.446,11.549,1.732,42.0
68.971,8.71,0.904,0.0
68.637,8.667,0.506,7.0
0.0,0.0,0.0,0.0
91.475,11.554,2.679,44.0
91.505,11.555,2.155,38.0
91.435,11.544,1.628,42.0
69.155,8.73,0.827,1.0
68.65,8.666,0.428,16.0
0.0,0.0,0.0,0.0
91.482,11.549,2.572,53.0
91.49,11.546,2.048,46.0
91.434,11.537,1.523,42.0
69.226,8.733,0.749,1.0
68.661,8.661,0.349,13.0
65.139,8.216,-0.042,0.0
91.468,11.536,2.467,44.0
91.471,11.533,1.942,46.0
91.403,11.521,1.415,16.0
68.983,8.693,0.665,0.0
68.682,8.654,0.269,4.0
65.188,8.212,-0.118,3.0
91.474,11.521,2.36,39.0
91.452,11.514,1.835,53.0
69.114,8.699,0.991,0.0
68.731,8.649,0.584,1.0
0.0,0.0,0.0,0.0
65.193,8.201,-0.192,11.0
91.485,11.503,2.256,49.0
91.466,11.496,1.731,57.0
69.21,8.696,0.914,0.0
68.707,8.63,0.506,35.0
65.462,8.221,0.106,1.0
65.268,8.195,-0.267,19.0
91.493,11.481,2.153,55.0
91.476,11.474,1.627,66.0
69.242,8.681,0.835,0.0
68.678,8.608,0.427,73.0
65.438,8.199,0.032,2.0
65.257,8.175,-0.342,22.0
91.507,11.455,2.047,54.0
91.46,11.443,1.522,42.0
69.273,8.663,0.755,0.0
68.667,8.584,0.348,26.0
65.361,8.168,-0.042,6.0
65.3,8.158,-0.416,11.0
91.5,11.421,1.942,46.0
91.494,11.415,1.418,9.0
0.0,0.0,0.0,0.0
68.648,8.557,0.271,21.0
65.395,8.148,-0.115,5.0
65.384,8.144,-0.491,4.0
91.512,11.387,1.839,38.0
0.0,0.0,0.0,0.0
68.697,8.539,0.594,0.0
68.676,8.532,0.192,8.0
65.471,8.13,-0.191,5.0
0.0,0.0,0.0,0.0
91.555,11.351,1.737,12.0
0.0,0.0,0.0,0.0
68.697,8.507,0.515,7.0
68.669,8.499,0.115,150.0
69.169,8.557,-0.279,1.0
0.0,0.0,0.0,0.0
149.72,18.489,2.67,4.0
0.0,0.0,0.0,0.0
68.726,8.476,0.439,7.0
68.69,8.467,0.038,162.0
69.338,8.543,-0.358,2.0
68.564,8.443,-0.746,0.0
0.0,0.0,0.0,0.0
0.0,0.0,0.0,0.0
68.647,8.429,0.362,3.0
68.705,8.431,-0.036,161.0
69.251,8.494,-0.434,0.0
68.798,8.434,-0.825,1.0
0.0,0.0,0.0,0.0
0.0,0.0,0.0,0.0
68.78,8.405,0.286,0.0
68.678,8.387,-0.112,6.0
0.0,0.0,0.0,0.0
68.673,8.377,-0.898,2.0
0.0,0.0,0.0,0.0
68.79,8.369,0.606,1.0
0.0,0.0,0.0,0.0
0.0,0.0,0.0,0.0
68.934,8.368,-0.583,0.0
68.753,8.341,-0.975,3.0
0.0,0.0,0.0,0.0
68.854,8.33,0.532,4.0
68.792,8.315,0.137,7.0
68.888,8.321,-0.262,2.0
0.0,0.0,0.0,0.0
0.0,0.0,0.0,0.0
0.0,0.0,0.0,0.0
68.752,8.268,0.458,1.0
68.8,8.267,0.065,26.0
68.964,8.28,-0.336,1.0
0.0,0.0,0.0,0.0
0.0,0.0,0.0,0.0
0.0,0.0,0.0,0.0
0.0,0.0,0.0,0.0
68.774,8.21,-0.007,0.0
69.005,8.231,-0.409,1.0
0.0,0.0,0.0,0.0
40.647,4.841,-0.705,0.0
0.0,0.0,0.0,0.0
0.0,0.0,0.0,0.0
0.0,0.0,0.0,0.0
68.936,8.166,-0.479,3.0
0.0,0.0,0.0,0.0
40.878,4.834,-0.752,0.0
0.0,0.0,0.0,0.0
69.421,8.18,0.246,1.0
0.0,0.0,0.0,0.0
68.881,8.101,-0.55,2.0
0.0,0.0,0.0,0.0
38.388,4.506,-0.744,0.0
75.685,8.859,0.622,5.0
0.0,0.0,0.0,0.0
70.647,8.253,-0.224,1.0
0.0,0.0,0.0,0.0
0.0,0.0,0.0,0.0
37.247,4.338,-0.759,0.0
74.7,8.675,0.539,0.0
0.0,0.0,0.0,0.0
71.427,8.276,-0.297,1.0
0.0,0.0,0.0,0.0
0.0,0.0,0.0,0.0
36.934,4.266,-0.789,0.0
74.616,8.592,0.466,21.0
0.0,0.0,0.0,0.0
71.74,8.242,-0.368,0.0
0.0,0.0,0.0,0.0
42.512,4.874,-0.707,0.0
34.78,3.983,-0.777,0.0
74.65,8.521,0.396,11.0
74.583,8.503,-0.028,29.0
0.0,0.0,0.0,0.0
0.0,0.0,0.0,0.0
40.986,4.656,-0.72,0.0
34.131,3.873,-0.794,0.0
74.855,8.466,0.327,8.0
74.836,8.452,-0.098,14.0
68.946,7.778,-0.483,3.0
0.0,0.0,0.0,0.0
0.0,0.0,0.0,0.0
32.864,3.694,-0.795,0.0
75.242,8.427,0.26,9.0
75.379,8.431,-0.168,7.0
68.928,7.699,-0.546,2.0
0.0,0.0,0.0,0.0
0.0,0.0,0.0,0.0
31.963,3.557,-0.802,0.0
75.764,8.399,0.193,7.0
75.925,8.405,-0.237,6.0
0.0,0.0,0.0,0.0
0.0,0.0,0.0,0.0
37.297,4.112,-0.756,0.0
0.0,0.0,0.0,0.0
76.427,8.383,0.129,8.0
77.051,8.439,-0.307,5.0
0.0,0.0,0.0,0.0
43.11,4.708,-0.666,0.0
36.676,4.0,-0.775,0.0
30.13,3.282,-0.808,0.0
77.274,8.383,0.066,7.0
77.635,8.409,-0.374,2.0
0.0,0.0,0.0,0.0
0.0,0.0,0.0,0.0
35.34,3.811,-0.776,0.0
29.973,3.228,-0.828,0.0
82.065,8.8,0.002,151.0
0.0,0.0,0.0,0.0
0.0,0.0,0.0,0.0
0.0,0.0,0.0,0.0
34.466,3.673,-0.784,0.0
29.658,3.156,-0.843,0.0
82.011,8.69,-0.062,3.0
68.933,7.292,-0.442,2.0
0.0,0.0,0.0,0.0
40.124,4.231,-0.716,0.0
33.939,3.573,-0.798,0.0
28.756,3.023,-0.839,0.0
0.0,0.0,0.0,0.0
68.984,7.206,-0.495,3.0
0.0,0.0,0.0,0.0
39.122,4.073,-0.728,0.0
33.293,3.46,-0.808,0.0
28.069,2.913,-0.841,0.0
82.404,8.512,-0.186,1.0
68.892,7.103,-0.545,1.0
0.0,0.0,0.0,0.0
38.451,3.95,-0.743,0.0
32.252,3.308,-0.806,0.0
27.672,2.834,-0.848,0.0
82.498,8.408,-0.245,1.0
0.0,0.0,0.0,0.0
0.0,0.0,0.0,0.0
0.0,0.0,0.0,0.0
0.0,0.0,0.0,0.0
27.3,2.757,-0.856,0.0
0.0,0.0,0.0,0.0
0.0,0.0,0.0,0.0
0.0,0.0,0.0,0.0
0.0,0.0,0.0,0.0
30.991,3.091,-0.816,0.0
26.747,2.663,-0.856,1.0
85.416,8.46,-0.367,1.0
0.0,0.0,0.0,0.0
0.0,0.0,0.0,0.0
36.775,3.621,-0.785,0.0
30.22,2.97,-0.815,0.0
26.605,2.61,-0.868,1.0
0.0,0.0,0.0,0.0
0.0,0.0,0.0,0.0
0.0,0.0,0.0,0.0
0.0,0.0,0.0,0.0
30.186,2.922,-0.832,0.0
25.962,2.508,-0.862,0.0
69.148,6.643,-0.381,0.0
0.0,0.0,0.0,0.0
0.0,0.0,0.0,0.0
0.0,0.0,0.0,0.0
29.796,2.838,-0.839,0.0
25.476,2.422,-0.861,0.0
0.0,0.0,0.0,0.0
0.0,0.0,0.0,0.0
0.0,0.0,0.0,0.0
34.883,3.276,-0.804,0.0
29.229,2.739,-0.839,0.0
25.182,2.354,-0.864,0.0
0.0,0.0,0.0,0.0
0.0,0.0,0.0,0.0
0.0,0.0,0.0,0.0
33.471,3.09,-0.789,0.0
28.898,2.662,-0.843,0.0
24.811,2.28,-0.864,0.0
68.932,6.299,-0.489,2.0
0.0,0.0,0.0,0.0
0.0,0.0,0.0,0.0
32.85,2.98,-0.79,1.0
28.518,2.581,-0.846,0.0
24.583,2.219,-0.867,0.0
69.003,6.194,-0.522,2.0
0.0,0.0,0.0,0.0
39.99,3.571,-0.751,0.0
32.858,2.926,-0.805,1.0
28.099,2.496,-0.846,0.0
24.376,2.16,-0.871,1.0
0.0,0.0,0.0,0.0
0.0,0.0,0.0,0.0
38.771,3.397,-0.744,0.0
32.549,2.844,-0.811,1.0
27.935,2.435,-0.853,0.0
24.254,2.109,-0.876,1.0
0.0,0.0,0.0,0.0
0.0,0.0,0.0,0.0
0.0,0.0,0.0,0.0
32.176,2.757,-0.814,1.0
27.628,2.361,-0.854,0.0
24.137,2.057,-0.881,1.0
0.0,0.0,0.0,0.0
0.0,0.0,0.0,0.0
0.0,0.0,0.0,0.0
32.091,2.695,-0.823,1.0
27.444,2.298,-0.857,0.0
24.006,2.005,-0.884,1.0
0.0,0.0,0.0,0.0
0.0,0.0,0.0,0.0
37.521,3.095,-0.76,0.0
31.544,2.594,-0.819,0.0
27.305,2.239,-0.861,0.0
23.927,1.956,-0.888,0.0
0.0,0.0,0.0,0.0
0.0,0.0,0.0,0.0
0.0,0.0,0.0,0.0
31.434,2.529,-0.824,0.0
27.247,2.186,-0.867,0.0
23.717,1.897,-0.887,0.0
0.0,0.0,0.0,0.0
0.0,0.0,0.0,0.0
37.208,2.937,-0.773,0.0
31.514,2.48,-0.834,0.0
26.924,2.112,-0.863,0.0
23.573,1.843,-0.887,0.0
0.0,0.0,0.0,0.0
0.0,0.0,0.0,0.0
37.3,2.877,-0.783,0.0
0.0,0.0,0.0,0.0
26.959,2.066,-0.869,0.0
23.51,1.796,-0.889,0.0
0.0,0.0,0.0,0.0
0.0,0.0,0.0,0.0
0.0,0.0,0.0,0.0
0.0,0.0,0.0,0.0
26.845,2.009,-0.869,0.0
23.529,1.755,-0.893,0.0
0.0,0.0,0.0,0.0
0.0,0.0,0.0,0.0
37.45,2.753,-0.797,0.0
30.33,2.221,-0.817,0.0
26.768,1.954,-0.87,0.0
23.453,1.706,-0.893,0.0
0.0,0.0,0.0,0.0
0.0,0.0,0.0,0.0
36.728,2.632,-0.785,0.0
30.266,2.161,-0.818,0.0
26.72,1.9,-0.871,0.0
23.51,1.666,-0.897,0.0
0.0,0.0,0.0,0.0
0.0,0.0,0.0,0.0
35.931,2.508,-0.77,0.0
30.307,2.107,-0.821,0.0
26.574,1.84,-0.867,0.0
23.483,1.62,-0.896,0.0
0.0,0.0,0.0,0.0
0.0,0.0,0.0,0.0
0.0,0.0,0.0,0.0
30.443,2.059,-0.825,0.0
26.559,1.789,-0.867,0.0
21.923,1.471,-0.837,0.0
0.0,0.0,0.0,0.0
0.0,0.0,0.0,0.0
35.94,2.372,-0.771,0.0
30.289,1.991,-0.82,0.0
26.749,1.751,-0.872,0.0
21.948,1.43,-0.837,1.0
0.0,0.0,0.0,0.0
0.0,0.0,0.0,0.0
35.83,2.296,-0.766,0.0
30.672,1.958,-0.828,0.0
26.668,1.695,-0.867,0.0
21.887,1.385,-0.833,0.0
0.0,0.0,0.0,0.0
0.0,0.0,0.0,0.0
37.244,2.316,-0.792,0.0
31.632,1.958,-0.851,1.0
26.822,1.653,-0.869,0.0
21.912,1.344,-0.831,0.0
0.0,0.0,0.0,0.0
0.0,0.0,0.0,0.0
37.062,2.233,-0.784,0.0
31.406,1.883,-0.84,0.0
27.028,1.613,-0.872,0.0
21.915,1.302,-0.828,0.0
0.0,0.0,0.0,0.0
0.0,0.0,0.0,0.0
37.079,2.163,-0.777,0.0
31.502,1.828,-0.837,0.0
27.472,1.586,-0.881,0.0
21.913,1.259,-0.823,0.0
0.0,0.0,0.0,0.0
0.0,0.0,0.0,0.0
37.469,2.112,-0.777,0.0
31.768,1.781,-0.837,0.0
27.62,1.541,-0.879,0.0
23.818,1.322,-0.889,0.0
0.0,0.0,0.0,0.0
0.0,0.0,0.0,0.0
37.711,2.053,-0.773,0.0
32.025,1.734,-0.835,0.0
27.67,1.491,-0.874,0.0
23.959,1.284,-0.888,0.0
0.0,0.0,0.0,0.0
0.0,0.0,0.0,0.0
37.872,1.988,-0.765,0.0
32.111,1.676,-0.828,0.0
27.801,1.443,-0.869,0.0
24.142,1.246,-0.887,0.0
0.0,0.0,0.0,0.0
0.0,0.0,0.0,0.0
0.0,0.0,0.0,0.0
32.275,1.621,-0.822,0.0
28.245,1.41,-0.873,0.0
24.538,1.218,-0.893,0.0
0.0,0.0,0.0,0.0
0.0,0.0,0.0,0.0
0.0,0.0,0.0,0.0
32.58,1.572,-0.817,0.0
28.233,1.354,-0.862,0.0
20.237,0.964,-0.729,35.0
0.0,0.0,0.0,0.0
0.0,0.0,0.0,0.0
0.0,0.0,0.0,0.0
33.055,1.529,-0.815,0.0
20.237,0.93,-0.609,1.0
20.189,0.922,-0.718,164.0
68.95,3.117,-0.535,2.0
0.0,0.0,0.0,0.0
0.0,0.0,0.0,0.0
0.0,0.0,0.0,0.0
20.288,0.892,-0.601,0.0
20.232,0.884,-0.71,152.0
68.929,2.981,-0.502,4.0
0.0,0.0,0.0,0.0
0.0,0.0,0.0,0.0
0.0,0.0,0.0,0.0
29.968,1.259,-0.873,1.0
20.307,0.847,-0.702,0.0
69.141,2.854,-0.468,0.0
0.0,0.0,0.0,0.0
42.958,1.747,-0.758,0.0
35.673,1.44,-0.827,0.0
30.092,1.205,-0.861,1.0
25.896,1.03,-0.882,0.0
69.117,2.717,-0.43,0.0
0.0,0.0,0.0,0.0
0.0,0.0,0.0,0.0
36.377,1.397,-0.822,0.0
30.161,1.149,-0.845,1.0
26.006,0.983,-0.87,1.0
0.0,0.0,0.0,0.0
0.0,0.0,0.0,0.0
0.0,0.0,0.0,0.0
0.0,0.0,0.0,0.0
30.344,1.096,-0.832,0.0
26.714,0.957,-0.877,0.0
0.0,0.0,0.0,0.0
0.0,0.0,0.0,0.0
0.0,0.0,0.0,0.0
36.764,1.267,-0.785,0.0
32.13,1.098,-0.86,1.0
27.262,0.923,-0.877,0.0
0.0,0.0,0.0,0.0
0.0,0.0,0.0,0.0
0.0,0.0,0.0,0.0
38.624,1.255,-0.798,0.0
32.539,1.047,-0.848,1.0
28.169,0.898,-0.886,0.0
0.0,0.0,0.0,0.0
69.007,2.15,-0.623,0.0
0.0,0.0,0.0,0.0
39.377,1.203,-0.785,0.0
32.634,0.987,-0.827,1.0
28.505,0.853,-0.876,0.0
0.0,0.0,0.0,0.0
68.984,2.017,-0.572,3.0
0.0,0.0,0.0,0.0
0.0,0.0,0.0,0.0
33.676,0.953,-0.827,0.0
29.188,0.817,-0.874,0.0
0.0,0.0,0.0,0.0
0.0,0.0,0.0,0.0
0.0,0.0,0.0,0.0
0.0,0.0,0.0,0.0
35.364,0.932,-0.84,0.0
29.832,0.777,-0.869,0.0
0.0,0.0,0.0,0.0
0.0,0.0,0.0,0.0
0.0,0.0,0.0,0.0
0.0,0.0,0.0,0.0
35.398,0.864,-0.811,0.0
31.081,0.749,-0.879,1.0
100.131,2.375,-0.045,29.0
0.0,0.0,0.0,0.0
0.0,0.0,0.0,0.0
0.0,0.0,0.0,0.0
36.971,0.831,-0.814,0.0
31.624,0.701,-0.866,1.0
100.028,2.181,0.043,16.0
0.0,0.0,0.0,0.0
0.0,0.0,0.0,0.0
0.0,0.0,0.0,0.0
0.0,0.0,0.0,0.0
32.296,0.655,-0.855,1.0
99.956,1.991,0.135,1.0
0.0,0.0,0.0,0.0
0.0,0.0,0.0,0.0
0.0,0.0,0.0,0.0
0.0,0.0,0.0,0.0
33.963,0.625,-0.866,3.0
99.89,1.802,0.23,11.0
0.0,0.0,0.0,0.0
0.0,0.0,0.0,0.0
0.0,0.0,0.0,0.0
0.0,0.0,0.0,0.0
34.069,0.563,-0.835,0.0
99.761,1.613,0.329,5.0
101.293,1.608,-0.206,2.0
0.0,0.0,0.0,0.0
0.0,0.0,0.0,0.0
42.65,0.638,-0.774,0.0
20.209,0.296,-0.474,0.0
99.649,1.426,0.431,6.0
99.801,1.399,-0.1,1.0
0.0,0.0,0.0,0.0
20.175,0.27,-0.237,0.0
20.187,0.264,-0.345,18.0
20.214,0.258,-0.453,19.0
20.308,0.253,0.109,2.0
99.615,1.21,0.007,4.0
0.0,0.0,0.0,0.0
20.181,0.233,-0.215,18.0
20.181,0.227,-0.322,27.0
20.187,0.221,-0.43,28.0
20.313,0.215,0.132,32.0
20.336,0.21,0.024,30.0
20.22,0.202,-0.083,6.0
20.163,0.196,-0.192,17.0
20.168,0.19,-0.299,34.0
20.175,0.184,-0.407,34.0
20.263,0.178,0.154,26.0
20.23,0.172,0.046,24.0
20.198,0.165,-0.06,24.0
20.179,0.159,-0.169,23.0
20.178,0.154,-0.276,34.0
20.2,0.148,-0.384,26.0
20.173,0.141,0.177,28.0
20.199,0.135,0.07,29.0
20.178,0.129,-0.036,29.0
20.165,0.123,-0.145,36.0
20.189,0.118,-0.253,26.0
20.215,0.112,-0.36,2.0
20.163,0.105,0.201,29.0
20.19,0.1,0.094,31.0
20.186,0.094,-0.012,27.0
20.193,0.088,-0.121,27.0
20.217,0.082,-0.228,8.0
0.0,0.0,0.0,0.0
20.143,0.07,0.225,29.0
20.145,0.065,0.119,28.0
20.219,0.059,0.012,16.0
20.244,0.053,-0.096,23.0
20.254,0.047,-0.203,150.0
20.267,0.041,-0.311,150.0
20.135,0.035,0.251,29.0
20.129,0.029,0.144,27.0
20.256,0.024,0.038,150.0
20.251,0.018,-0.07,151.0
20.247,0.012,-0.177,47.0
20.236,0.007,-0.284,6.0
20.135,0.001,0.277,27.0
20.112,-0.004,0.17,28.0
20.127,-0.009,0.064,32.0
20.121,-0.015,-0.043,29.0
20.162,-0.021,-0.15,28.0
20.155,-0.026,-0.256,23.0
20.117,-0.032,0.303,29.0
20.112,-0.038,0.196,30.0
20.133,-0.043,0.091,38.0
20.127,-0.049,-0.017,35.0
20.141,-0.055,-0.123,32.0
20.147,-0.06,-0.229,22.0
20.124,-0.066,0.33,29.0
20.12,-0.071,0.224,26.0
20.124,-0.077,0.118,27.0
20.124,-0.082,0.01,31.0
20.144,-0.088,-0.095,26.0
20.156,-0.094,-0.201,23.0
20.137,-0.099,0.358,26.0
20.141,-0.104,0.252,22.0
20.123,-0.11,0.146,18.0
20.147,-0.115,0.038,27.0
20.174,-0.121,-0.067,22.0
20.155,-0.126,-0.173,20.0
20.224,-0.132,0.388,21.0
20.202,-0.137,0.281,17.0
20.207,-0.143,0.175,15.0
58.323,-0.428,0.194,18.0
20.212,-0.153,-0.038,0.0
20.189,-0.159,-0.144,8.0
20.195,-0.164,0.416,19.0
64.346,-0.54,0.989,24.0
53.38,-0.462,0.541,9.0
53.333,-0.476,0.255,4.0
56.213,-0.516,-0.026,13.0
56.401,-0.533,-0.322,1.0
20.15,-0.195,0.445,18.0
20.166,-0.201,0.34,15.0
64.296,-0.657,0.746,30.0
56.147,-0.588,0.351,8.0
56.26,-0.604,0.057,1.0
56.167,-0.617,-0.237,1.0
20.155,-0.226,0.475,14.0
20.128,-0.231,0.369,12.0
20.134,-0.236,0.263,9.0
20.146,-0.242,0.156,8.0
59.551,-0.731,0.15,43.0
59.543,-0.745,-0.161,13.0
59.422,-0.759,1.492,13.0
20.138,-0.262,0.4,10.0
20.122,-0.266,0.294,11.0
20.118,-0.272,0.187,12.0
20.128,-0.277,0.081,14.0
20.153,-0.282,-0.023,1.0
59.44,-0.847,1.583,60.0
53.52,-0.775,1.145,41.0
20.151,-0.296,0.325,6.0
20.124,-0.301,0.218,9.0
20.118,-0.306,0.112,16.0
20.134,-0.311,0.007,36.0
64.315,-1.009,1.813,62.0
176.641,-2.813,4.055,47.0
176.618,-2.855,3.13,70.0
176.627,-2.898,2.191,53.0
20.146,-0.335,0.144,3.0
20.148,-0.34,0.039,31.0
64.313,-1.1,1.914,79.0
190.767,-3.309,4.682,28.0
191.628,-3.371,3.705,24.0
192.877,-3.436,2.7,33.0
53.029,-0.957,0.465,4.0
53.011,-0.969,0.189,16.0
64.313,-1.189,2.017,51.0
64.325,-1.205,1.682,21.0
38.27,-0.725,0.8,13.0
52.969,-1.015,0.826,22.0
52.958,-1.028,0.55,59.0
52.922,-1.038,0.273,61.0
45.717,-0.907,1.507,49.0
45.712,-0.917,1.268,41.0
38.414,-0.779,0.865,15.0
38.391,-0.787,0.66,34.0
38.388,-0.795,0.46,48.0
38.382,-0.803,0.26,35.0
40.42,-0.855,1.399,28.0
40.413,-0.863,1.187,29.0
40.405,-0.872,0.976,17.0
40.4,-0.881,0.761,38.0
40.457,-0.89,0.551,150.0
40.439,-0.899,0.341,152.0
40.407,-0.907,1.465,37.0
40.398,-0.915,1.254,37.0
38.754,-0.886,1.001,19.0
40.4,-0.932,0.829,40.0
40.411,-0.941,0.619,35.0
40.413,-0.95,0.409,32.0
40.431,-0.959,1.535,27.0
0.0,0.0,0.0,0.0
38.666,-0.933,1.065,41.0
38.725,-0.942,0.861,37.0
0.0,0.0,0.0,0.0
40.459,-1.001,0.478,3.0
45.736,-1.141,1.813,30.0
38.724,-0.973,1.333,37.0
38.642,-0.979,1.13,28.0
38.647,-0.987,0.925,51.0
38.678,-0.995,0.725,49.0
38.674,-1.003,0.524,53.0
38.649,-1.01,1.599,49.0
38.66,-1.018,1.398,36.0
38.574,-1.022,1.193,57.0
38.638,-1.032,0.991,84.0
38.629,-1.039,0.79,67.0
38.637,-1.047,0.589,61.0
38.647,-1.055,1.665,85.0
38.649,-1.062,1.464,61.0
38.558,-1.066,1.26,63.0
38.574,-1.074,1.056,64.0
38.633,-1.083,0.857,85.0
38.642,-1.09,0.656,73.0
38.613,-1.097,1.731,71.0
38.633,-1.104,1.531,76.0
38.592,-1.11,1.328,60.0
38.552,-1.115,1.123,64.0
38.628,-1.124,0.924,84.0
38.635,-1.131,0.724,110.0
38.549,-1.136,1.796,55.0
38.635,-1.146,1.598,88.0
38.617,-1.152,1.397,64.0
38.569,-1.157,1.191,56.0
38.606,-1.164,0.991,67.0
38.631,-1.172,0.792,72.0
38.487,-1.175,1.86,68.0
38.606,-1.185,1.665,75.0
38.661,-1.193,1.467,83.0
38.593,-1.197,1.26,61.0
38.608,-1.204,1.06,62.0
38.636,-1.211,0.86,61.0
38.492,-1.214,1.929,33.0
38.586,-1.223,1.733,66.0
38.648,-1.231,1.535,74.0
38.627,-1.236,1.33,53.0
38.647,-1.243,1.13,49.0
38.658,-1.249,0.93,60.0
28.39,-0.923,1.474,68.0
38.614,-1.261,1.804,8.0
38.647,-1.268,1.604,61.0
38.67,-1.274,1.4,41.0
38.702,-1.281,1.201,12.0
38.702,-1.287,1.0,8.0
28.391,-0.949,1.525,52.0
31.291,-1.051,1.518,43.0
31.318,-1.056,1.356,31.0
31.325,-1.061,1.191,21.0
31.333,-1.065,1.028,34.0
31.364,-1.071,0.867,30.0
31.248,-1.073,1.735,46.0
31.25,-1.077,1.572,26.0
31.317,-1.084,1.412,53.0
31.27,-1.086,1.245,38.0
31.286,-1.091,1.083,33.0
31.297,-1.095,0.921,42.0
31.23,-1.099,1.79,37.0
31.22,-1.102,1.627,31.0
31.258,-1.108,1.467,47.0
31.246,-1.111,1.301,48.0
31.244,-1.115,1.138,45.0
31.269,-1.12,0.977,42.0
31.208,-1.124,1.845,25.0
31.214,-1.127,1.683,46.0
31.23,-1.132,1.522,44.0
31.233,-1.136,1.357,44.0
31.235,-1.139,1.195,38.0
31.278,-1.144,1.034,59.0
31.201,-1.148,1.902,37.0
31.191,-1.151,1.739,26.0
31.224,-1.155,1.578,39.0
31.258,-1.16,1.414,66.0
31.277,-1.164,1.253,52.0
31.252,-1.166,1.09,56.0
31.197,-1.171,1.958,27.0
31.213,-1.174,1.797,23.0
31.205,-1.177,1.634,25.0
31.223,-1.181,1.47,13.0
28.441,-1.079,1.192,22.0
28.437,-1.082,1.044,31.0
28.438,-1.087,1.838,71.0
28.432,-1.089,1.689,63.0
28.444,-1.093,1.542,61.0
28.446,-1.095,1.391,57.0
28.448,-1.098,1.244,64.0
28.442,-1.1,1.096,63.0
28.426,-1.105,1.889,77.0
28.424,-1.108,1.74,75.0
28.427,-1.11,1.593,74.0
28.416,-1.112,1.442,58.0
28.421,-1.115,1.294,77.0
28.434,-1.118,1.147,80.0
28.433,-1.123,1.941,126.0
28.422,-1.125,1.793,112.0
28.421,-1.127,1.644,118.0
28.421,-1.129,1.494,103.0
28.445,-1.132,1.347,132.0
28.437,-1.134,1.199,132.0
28.424,-1.139,1.993,109.0
28.418,-1.141,1.844,104.0
28.414,-1.143,1.696,96.0
28.417,-1.145,1.545,97.0
28.421,-1.147,1.398,91.0
28.426,-1.149,1.25,104.0
28.43,-1.155,2.045,109.0
28.419,-1.156,1.896,104.0
28.411,-1.157,1.747,102.0
28.418,-1.159,1.597,95.0
28.415,-1.161,1.449,69.0
28.429,-1.163,1.302,96.0
28.428,-1.169,2.096,64.0
28.425,-1.17,1.948,63.0
28.423,-1.171,1.799,67.0
28.412,-1.172,1.648,69.0
28.423,-1.175,1.501,75.0
28.428,-1.176,1.354,81.0
28.436,-1.182,2.149,56.0
28.439,-1.184,2.001,57.0
28.429,-1.184,1.852,56.0
28.427,-1.185,1.701,55.0
28.437,-1.187,1.554,55.0
28.417,-1.188,1.405,44.0
31.428,-1.32,2.433,29.0
28.43,-1.195,2.052,39.0
28.438,-1.196,1.904,46.0
28.449,-1.198,1.754,51.0
28.451,-1.199,1.606,54.0
28.444,-1.199,1.457,52.0
31.454,-1.333,2.492,44.0
31.105,-1.319,2.301,23.0
31.089,-1.319,2.138,38.0
31.293,-1.328,1.985,11.0
28.434,-1.208,1.656,32.0
28.436,-1.209,1.508,42.0
24.6,-1.05,1.993,41.0
31.358,-1.34,2.377,38.0
31.021,-1.326,2.189,42.0
31.249,-1.336,2.039,17.0
31.31,-1.34,1.879,2.0
31.296,-1.339,1.716,21.0
24.593,-1.057,2.037,48.0
31.461,-1.353,2.441,56.0
30.962,-1.332,2.24,42.0
31.18,-1.342,2.09,24.0
31.304,-1.347,1.935,3.0
31.313,-1.348,1.772,26.0
24.61,-1.064,2.082,39.0
31.453,-1.361,2.496,35.0
30.924,-1.338,2.292,27.0
31.076,-1.344,2.138,33.0
31.307,-1.355,1.99,2.0
161.542,-6.992,9.429,16.0
24.624,-1.07,2.127,59.0
24.592,-1.069,1.995,43.0
31.219,-1.356,2.369,28.0
30.987,-1.346,2.186,43.0
46.608,-2.025,3.045,40.0
163.656,-7.112,9.841,23.0
24.634,-1.075,2.172,60.0
24.581,-1.072,2.038,45.0
31.452,-1.372,2.443,42.0
30.922,-1.348,2.237,43.0
46.633,-2.033,3.129,38.0
163.572,-7.129,10.123,25.0
24.645,-1.079,2.216,56.0
24.613,-1.077,2.084,41.0
31.47,-1.376,2.499,23.0
30.89,-1.35,2.288,33.0
31.076,-1.358,2.139,24.0
46.671,-2.038,2.969,1.0
24.657,-1.082,2.26,48.0
24.615,-1.079,2.126,53.0
24.591,-1.077,1.995,40.0
31.094,-1.361,2.356,25.0
31.002,-1.356,2.187,42.0
46.614,-2.039,3.045,42.0
24.655,-1.083,2.303,37.0
24.64,-1.081,2.171,53.0
24.592,-1.078,2.038,47.0
31.456,-1.378,2.438,38.0
30.928,-1.354,2.235,44.0
46.623,-2.039,3.125,47.0
24.649,-1.083,2.344,28.0
24.644,-1.081,2.214,50.0
24.606,-1.079,2.08,41.0
31.452,-1.378,2.491,24.0
30.903,-1.352,2.285,34.0
31.091,-1.359,2.136,21.0
24.656,-1.083,2.387,18.0
24.642,-1.081,2.255,46.0
24.624,-1.079,2.124,52.0
24.601,-1.076,1.99,39.0
31.116,-1.36,2.353,27.0
31.006,-1.353,2.182,42.0
24.67,-1.081,2.43,8.0
24.647,-1.079,2.297,41.0
24.632,-1.077,2.165,53.0
24.585,-1.073,2.029,47.0
31.451,-1.372,2.43,41.0
30.946,-1.348,2.229,41.0
24.678,-1.079,2.471,9.0
24.655,-1.077,2.338,38.0
24.631,-1.074,2.206,53.0
24.606,-1.071,2.071,38.0
31.458,-1.368,2.482,36.0
30.922,-1.342,2.277,33.0
24.708,-1.077,2.515,11.0
24.662,-1.073,2.379,37.0
24.641,-1.071,2.247,54.0
24.615,-1.068,2.112,54.0
24.594,-1.065,1.981,41.0
31.156,-1.347,2.345,25.0
37.132,-1.613,3.84,9.0
24.668,-1.069,2.42,35.0
24.642,-1.066,2.287,57.0
24.635,-1.064,2.153,60.0
24.59,-1.06,2.019,50.0
31.442,-1.353,2.416,54.0
31.822,-1.375,3.342,4.0
24.664,-1.063,2.459,31.0
24.641,-1.06,2.325,58.0
24.636,-1.058,2.192,61.0
24.6,-1.054,2.059,35.0
31.454,-1.345,2.466,56.0
31.819,-1.367,3.392,17.0
24.66,-1.057,2.497,29.0
24.649,-1.054,2.365,61.0
24.636,-1.051,2.23,63.0
24.622,-1.048,2.098,37.0
31.469,-1.337,2.516,3.0
31.821,-1.357,3.441,27.0
24.668,-1.05,2.536,25.0
24.653,-1.046,2.403,62.0
24.647,-1.044,2.269,80.0
24.634,-1.041,2.137,52.0
24.599,-1.037,2.004,38.0
46.464,-1.967,5.096,7.0
24.697,-1.043,2.577,21.0
24.645,-1.038,2.44,56.0
24.646,-1.035,2.306,68.0
24.645,-1.032,2.175,51.0
24.585,-1.027,2.039,27.0
31.866,-1.337,3.543,1.0
31.819,-1.332,3.367,2.0
24.658,-1.029,2.478,53.0
24.645,-1.026,2.342,67.0
24.648,-1.023,2.212,47.0
24.634,-1.02,2.08,25.0
28.436,-1.182,3.203,3.0
28.419,-1.178,3.049,22.0
24.668,-1.019,2.515,48.0
24.657,-1.016,2.379,76.0
24.653,-1.013,2.248,37.0
28.4,-1.163,2.438,15.0
28.418,-1.169,3.242,45.0
28.413,-1.165,3.089,40.0
24.682,-1.009,2.552,42.0
24.651,-1.004,2.414,67.0
24.648,-1.001,2.282,27.0
28.401,-1.15,2.478,82.0
28.404,-1.155,3.281,55.0
28.402,-1.151,3.129,54.0
24.709,-0.998,2.589,39.0
24.655,-0.993,2.449,64.0
24.648,-0.989,2.316,20.0
28.42,-1.137,2.519,102.0
28.409,-1.141,3.322,94.0
28.395,-1.136,3.167,106.0
24.725,-0.986,2.625,42.0
24.664,-0.98,2.483,53.0
28.378,-1.124,2.706,42.0
28.42,-1.122,2.558,103.0
28.405,-1.126,3.36,104.0
28.399,-1.121,3.206,113.0
24.735,-0.973,2.659,31.0
24.675,-0.967,2.517,54.0
28.385,-1.108,2.744,45.0
28.399,-1.105,2.593,60.0
28.406,-1.11,3.398,103.0
28.395,-1.105,3.243,113.0
24.781,-0.96,2.696,38.0
24.692,-0.953,2.551,34.0
28.411,-1.093,2.783,18.0
28.41,-1.089,2.63,51.0
28.399,-1.092,3.434,75.0
28.399,-1.088,3.28,68.0
24.794,-0.946,2.73,40.0
24.71,-0.939,2.584,40.0
28.459,-1.077,2.823,7.0
31.682,-1.194,2.973,1.0
28.418,-1.075,3.472,63.0
28.406,-1.07,3.316,38.0
24.793,-0.93,2.76,26.0
24.741,-0.924,2.618,42.0
37.169,-1.383,3.733,21.0
37.251,-1.38,3.541,24.0
32.257,-1.199,3.98,46.0
32.151,-1.19,3.793,38.0
24.832,-0.915,2.794,21.0
24.73,-0.907,2.647,28.0
37.196,-1.359,3.78,21.0
37.23,-1.354,3.583,57.0
32.273,-1.177,4.021,20.0
32.219,-1.17,3.838,23.0
24.865,-0.899,2.827,18.0
24.798,-0.893,2.682,39.0
24.717,-0.885,2.54,5.0
37.228,-1.328,3.625,24.0
38.642,-1.382,4.859,40.0
39.083,-1.392,4.701,28.0
24.91,-0.882,2.861,14.0
24.821,-0.875,2.713,34.0
43.709,-1.534,4.541,8.0
51.818,-1.81,5.103,4.0
38.669,-1.355,4.905,47.0
36.922,-1.287,4.482,5.0
24.971,-0.866,2.895,12.0
24.841,-0.857,2.742,42.0
40.264,-1.382,4.227,2.0
51.792,-1.77,5.156,4.0
39.127,-1.341,5.006,26.0
33.605,-1.145,4.116,33.0
25.045,-0.849,2.931,13.0
24.843,-0.838,2.769,43.0
43.887,-1.472,4.653,2.0
43.925,-1.466,4.419,10.0
25.244,-0.845,3.256,10.0
44.375,-1.477,5.481,19.0
25.063,-0.83,2.958,22.0
24.848,-0.818,2.795,52.0
36.824,-1.206,3.941,2.0
47.841,-1.557,4.861,3.0
25.247,-0.824,3.282,47.0
25.24,-0.819,3.142,41.0
25.092,-0.81,2.986,20.0
24.853,-0.797,2.82,44.0
36.685,-1.17,3.962,3.0
50.7,-1.608,5.2,5.0
25.245,-0.803,3.306,77.0
25.242,-0.798,3.167,70.0
25.144,-0.79,3.017,19.0
24.877,-0.777,2.846,36.0
36.753,-1.141,4.004,1.0
42.632,-1.315,4.412,2.0
25.251,-0.781,3.331,58.0
25.241,-0.775,3.19,39.0
25.157,-0.768,3.041,26.0
24.862,-0.754,2.867,29.0
24.893,-0.751,2.734,0.0
44.456,-1.333,4.64,27.0
32.865,-0.987,4.364,3.0
33.728,-1.006,4.293,3.0
25.198,-0.746,3.068,30.0
24.903,-0.733,2.893,19.0
40.073,-1.172,4.436,7.0
57.494,-1.671,6.049,11.0
36.335,-1.057,4.856,2.0
47.595,-1.376,6.098,21.0
25.219,-0.724,3.092,29.0
24.831,-0.708,2.905,15.0
24.867,-0.704,2.773,1.0
45.437,-1.278,4.817,1.0
32.394,-0.912,4.356,1.0
33.032,-0.923,4.259,2.0
25.256,-0.701,3.116,39.0
44.531,-1.227,5.245,6.0
47.55,-1.301,5.339,15.0
47.431,-1.289,5.065,39.0
32.351,-0.88,4.375,2.0
33.099,-0.893,4.292,4.0
25.272,-0.677,3.137,36.0
24.829,-0.66,2.942,26.0
24.84,-0.656,2.807,12.0
52.617,-1.379,5.657,10.0
47.196,-1.237,6.417,14.0
36.533,-0.95,4.764,1.0
25.267,-0.652,3.154,41.0
24.805,-0.635,2.957,31.0
44.64,-1.135,5.075,4.0
47.165,-1.19,5.102,7.0
47.602,-1.201,6.504,4.0
39.596,-0.991,5.19,2.0
25.249,-0.627,3.169,27.0
24.766,-0.61,2.968,28.0
43.205,-1.055,4.94,2.0
51.722,-1.253,5.628,15.0
36.955,-0.895,5.073,4.0
39.7,-0.953,5.228,3.0
25.291,-0.602,3.19,15.0
24.781,-0.584,2.985,47.0
43.319,-1.014,4.979,5.0
44.651,-1.036,4.885,33.0
39.32,-0.912,5.421,7.0
36.858,-0.846,4.876,29.0
25.307,-0.576,3.206,15.0
24.787,-0.559,3.0,63.0
44.572,-0.997,5.148,3.0
51.903,-1.15,5.707,7.0
35.919,-0.795,4.972,6.0
44.087,-0.967,5.856,27.0
33.447,-0.726,4.256,1.0
24.772,-0.533,3.011,62.0
40.248,-0.858,4.669,7.0
31.701,-0.669,3.502,0.0
36.989,-0.779,5.139,14.0
37.474,-0.782,4.996,11.0
24.754,-0.511,3.162,30.0
24.769,-0.506,3.023,54.0
40.372,-0.817,4.702,11.0
40.36,-0.809,4.477,8.0
36.629,-0.733,5.106,6.0
36.391,-0.72,4.868,12.0
24.75,-0.484,3.172,77.0
24.76,-0.48,3.032,21.0
42.811,-0.821,5.005,1.0
51.345,-0.974,5.717,6.0
39.179,-0.741,5.477,4.0
24.757,-0.463,3.322,38.0
24.751,-0.457,3.182,53.0
37.545,-0.686,4.613,31.0
44.212,-0.799,5.185,7.0
43.937,-0.786,4.908,28.0
32.763,-0.583,4.592,2.0
24.75,-0.436,3.33,69.0
24.75,-0.43,3.191,21.0
46.725,-0.803,5.757,4.0
37.54,-0.638,4.415,34.0
44.462,-0.746,4.981,7.0
24.77,-0.413,3.48,34.0
24.756,-0.408,3.338,44.0
36.55,-0.595,4.723,1.0
37.694,-0.606,4.655,5.0
37.658,-0.598,4.44,61.0
37.618,-0.589,4.225,83.0
24.745,-0.385,3.483,60.0
24.747,-0.38,3.344,17.0
37.461,-0.568,4.851,51.0
37.663,-0.564,4.661,11.0
0.0,0.0,0.0,0.0
37.61,-0.548,4.233,6.0
24.019,-0.347,3.387,29.0
37.118,-0.529,5.024,49.0
40.348,-0.567,5.233,5.0
44.516,-0.616,5.518,9.0
37.393,-0.511,4.425,0.0
54.145,-0.729,6.104,6.0
36.565,-0.487,5.162,15.0
36.574,-0.48,4.956,6.0
40.479,-0.523,5.257,2.0
34.122,-0.434,4.235,1.0
37.524,-0.47,4.446,10.0
53.28,-0.657,6.014,16.0
35.971,-0.438,5.083,4.0
36.553,-0.438,4.958,3.0
47.57,-0.561,6.183,2.0
36.169,-0.419,4.493,3.0
37.513,-0.427,4.449,31.0
31.837,-0.356,3.596,7.0
47.456,-0.524,6.711,10.0
38.5,-0.418,5.225,4.0
38.654,-0.412,5.027,1.0
44.171,-0.462,5.49,6.0
50.951,-0.523,6.045,6.0
31.801,-0.32,3.594,21.0
38.431,-0.381,5.436,2.0
32.479,-0.316,4.409,8.0
36.352,-0.346,4.728,10.0
37.507,-0.35,4.662,37.0
47.611,-0.435,5.649,4.0
31.836,-0.284,3.598,34.0
39.988,-0.35,5.656,6.0
32.612,-0.28,4.427,10.0
47.779,-0.4,6.214,7.0
50.879,-0.416,6.323,13.0
47.254,-0.378,5.605,14.0
31.843,-0.248,3.597,46.0
40.065,-0.306,5.665,11.0
32.685,-0.243,4.435,10.0
37.703,-0.273,4.901,6.0
47.279,-0.334,5.872,17.0
38.738,-0.265,4.592,3.0
31.853,-0.212,3.596,46.0
47.377,-0.307,6.694,16.0
32.757,-0.206,4.441,11.0
37.502,-0.229,4.871,31.0
38.632,-0.229,4.794,32.0
38.77,-0.221,4.591,2.0
39.109,-0.216,4.409,26.0
47.314,-0.253,6.678,3.0
36.514,-0.188,4.945,4.0
38.226,-0.19,4.958,27.0
39.005,-0.187,4.833,7.0
39.198,-0.18,4.635,4.0
39.116,-0.173,4.403,35.0
47.343,-0.199,6.673,8.0
36.597,-0.147,4.949,4.0
37.866,-0.145,4.904,2.0
39.208,-0.143,4.85,4.0
31.943,-0.11,3.77,70.0
51.227,-0.168,5.755,11.0
36.622,-0.112,5.153,11.0
37.458,-0.108,5.056,14.0
31.938,-0.086,4.128,45.0
31.955,-0.08,3.944,76.0
31.945,-0.074,3.761,25.0
52.195,-0.112,5.849,20.0
39.365,-0.076,5.528,4.0
32.176,-0.056,4.333,18.0
31.965,-0.05,4.122,70.0
39.628,-0.054,4.88,12.0
52.191,-0.063,6.129,22.0
36.928,-0.038,4.126,6.0
32.097,-0.025,4.497,23.0
31.957,-0.019,4.293,71.0
36.386,-0.016,4.679,5.0
36.197,-0.01,4.444,12.0
39.77,-0.003,4.656,19.0
36.846,0.002,4.104,13.0
37.499,0.011,5.239,5.0
31.93,0.015,4.277,37.0
36.263,0.024,4.649,23.0
35.988,0.03,4.404,2.0
47.44,0.048,5.534,3.0
42.504,0.05,4.716,3.0
31.941,0.045,4.449,58.0
52.166,0.083,6.965,9.0
32.733,0.058,4.182,9.0
33.461,0.065,4.08,10.0
39.644,0.083,4.607,2.0
30.602,0.069,3.382,41.0
52.008,0.131,7.22,30.0
32.893,0.088,4.376,10.0
32.776,0.094,4.172,5.0
53.323,0.161,6.476,9.0
30.464,0.097,3.525,29.0
30.587,0.102,3.365,36.0
30.398,0.11,4.204,1.0
32.734,0.124,4.338,5.0
51.587,0.204,6.539,7.0
30.445,0.125,3.681,39.0
30.463,0.13,3.509,29.0
30.578,0.135,3.347,19.0
30.419,0.143,4.19,49.0
30.405,0.148,4.012,8.0
51.778,0.261,6.534,6.0
30.47,0.158,3.667,72.0
30.468,0.163,3.491,25.0
37.038,0.204,4.032,8.0
23.005,0.133,3.155,4.0
30.372,0.18,3.989,42.0
30.413,0.185,3.819,57.0
42.236,0.264,5.056,2.0
30.512,0.195,3.477,8.0
37.06,0.243,4.011,8.0
30.34,0.208,4.141,54.0
30.356,0.212,3.967,34.0
30.409,0.217,3.798,32.0
51.787,0.378,6.165,4.0
36.333,0.271,4.116,6.0
37.044,0.281,3.984,8.0
30.348,0.239,4.121,1.0
30.376,0.244,3.948,45.0
42.114,0.345,5.231,0.0
40.205,0.335,4.757,3.0
36.288,0.308,4.085,3.0
37.091,0.32,3.963,7.0
33.381,0.298,4.508,6.0
39.4,0.358,5.092,4.0
42.096,0.388,5.197,2.0
51.587,0.483,6.066,3.0
40.336,0.383,4.51,4.0
30.94,0.298,3.282,38.0
48.329,0.481,6.488,5.0
30.457,0.307,3.912,2.0
47.932,0.49,5.879,7.0
53.911,0.559,6.296,4.0
30.961,0.325,3.437,33.0
30.937,0.329,3.256,35.0
32.916,0.361,4.392,10.0
39.846,0.442,5.085,3.0
52.557,0.591,6.402,5.0
31.017,0.352,3.596,31.0
30.952,0.356,3.409,22.0
30.924,0.36,3.228,17.0
30.468,0.364,4.038,8.0
54.205,0.655,6.87,14.0
50.937,0.622,6.16,4.0
31.037,0.383,3.57,63.0
30.954,0.386,3.382,12.0
30.952,0.39,3.203,6.0
30.461,0.394,4.009,19.0
48.032,0.627,6.043,6.0
31.039,0.409,3.725,29.0
46.955,0.625,5.358,20.0
46.276,0.621,5.013,7.0
53.494,0.725,5.487,5.0
35.875,0.497,4.688,2.0
47.862,0.67,5.976,6.0
31.058,0.438,3.697,49.0
52.221,0.743,5.909,5.0
46.163,0.663,4.956,10.0
58.5,0.847,5.944,6.0
39.778,0.589,5.158,4.0
31.041,0.463,3.844,18.0
46.444,0.699,5.482,6.0
47.567,0.721,5.334,9.0
37.081,0.566,3.944,8.0
53.557,0.824,5.387,3.0
52.568,0.826,6.762,9.0
31.049,0.491,3.813,41.0
47.109,0.751,5.511,14.0
47.478,0.761,5.274,5.0
37.084,0.599,3.905,5.0
36.376,0.592,3.62,2.0
31.078,0.515,3.964,7.0
31.041,0.518,3.779,3.0
46.985,0.79,5.446,5.0
46.201,0.782,5.082,6.0
37.08,0.631,3.864,3.0
52.548,0.9,5.173,49.0
31.088,0.542,3.931,62.0
46.723,0.82,5.636,10.0
48.538,0.857,5.572,5.0
46.191,0.82,5.03,6.0
52.553,0.938,5.417,19.0
40.519,0.728,3.942,10.0
31.077,0.568,3.894,17.0
47.445,0.872,5.668,4.0
40.944,0.757,4.653,2.0
52.509,0.975,5.657,12.0
48.177,0.9,4.91,1.0
40.464,0.76,3.89,23.0
46.418,0.886,5.761,9.0
47.098,0.903,5.57,5.0
52.278,1.008,5.878,9.0
52.721,1.021,5.616,11.0
36.317,0.707,3.658,2.0
40.379,0.79,3.834,22.0
52.265,1.039,6.423,4.0
47.066,0.94,5.509,4.0
52.469,1.053,5.835,6.0
37.035,0.746,3.899,6.0
46.564,0.942,4.633,38.0
40.299,0.819,3.776,25.0
47.569,0.982,5.786,5.0
52.573,1.089,6.087,22.0
46.741,0.972,5.139,14.0
37.024,0.773,3.851,3.0
46.55,0.976,4.572,3.0
40.23,0.847,3.718,17.0
52.423,1.121,6.307,27.0
59.074,1.267,6.763,5.0
55.212,1.188,5.999,4.0
46.525,1.005,4.779,38.0
52.532,1.139,5.091,13.0
40.274,0.876,3.669,28.0
52.365,1.156,6.231,6.0
36.927,0.818,4.178,2.0
46.594,1.035,5.0,10.0
46.505,1.036,4.715,1.0
40.422,0.904,3.863,32.0
40.342,0.905,3.622,5.0
47.496,1.08,5.587,3.0
46.393,1.059,5.186,16.0
46.578,1.066,4.935,4.0
52.661,1.208,5.267,14.0
46.614,1.073,4.391,4.0
40.426,0.933,3.574,10.0
47.414,1.109,5.511,3.0
46.575,1.092,5.141,35.0
46.47,1.093,4.858,4.0
52.689,1.243,5.195,19.0
40.386,0.955,3.747,8.0
40.413,0.958,3.515,9.0
46.79,1.124,5.371,9.0
48.128,1.158,5.243,2.0
59.543,1.437,6.138,6.0
46.552,1.125,4.523,22.0
43.853,1.063,4.006,4.0
43.415,1.055,3.713,11.0
46.497,1.144,5.269,21.0
57.636,1.421,6.194,5.0
