X,Y,Z,Reflectivity
46.672,1.533,5.318,29.0
57.572,1.895,6.225,5.0
58.486,1.928,5.978,7.0
53.216,1.757,5.13,7.0
46.899,1.551,4.249,6.0
52.781,1.763,6.253,4.0
46.526,1.556,5.239,10.0
46.353,1.553,4.95,8.0
52.41,1.758,5.287,3.0
60.128,2.021,5.715,9.0
42.776,1.44,3.818,2.0
46.72,1.587,5.47,8.0
46.519,1.582,5.175,20.0
46.159,1.572,4.866,5.0
52.392,1.787,5.212,8.0
46.189,1.578,4.327,8.0
52.286,1.788,4.594,7.0
46.731,1.613,5.406,11.0
46.731,1.615,5.133,19.0
58.459,2.023,6.08,4.0
52.476,1.818,5.146,3.0
46.251,1.604,4.267,4.0
46.863,1.627,4.052,7.0
46.687,1.635,5.334,8.0
57.651,2.022,6.25,4.0
43.264,1.518,4.437,2.0
53.082,1.864,5.13,5.0
43.229,1.52,3.926,17.0
46.989,1.654,3.995,4.0
46.367,1.646,5.229,4.0
58.435,2.077,6.248,7.0
43.255,1.538,4.372,1.0
53.291,1.897,5.071,4.0
46.917,1.671,4.192,3.0
46.979,1.675,3.924,3.0
46.233,1.662,5.145,11.0
46.341,1.667,4.885,9.0
52.394,1.886,5.218,4.0
46.168,1.662,4.324,6.0
46.869,1.689,4.117,7.0
47.053,1.697,3.86,4.0
46.588,1.694,5.113,15.0
60.235,2.191,6.258,26.0
52.882,1.924,5.185,7.0
53.187,1.937,4.899,14.0
46.896,1.708,4.047,5.0
65.041,2.371,5.236,6.0
46.91,1.723,5.075,4.0
60.422,2.22,6.184,8.0
53.369,1.961,5.15,6.0
53.15,1.954,4.814,21.0
42.811,1.574,3.629,3.0
52.005,1.914,4.106,18.0
60.226,2.232,6.422,19.0
54.846,2.033,5.527,3.0
53.403,1.98,5.07,5.0
53.113,1.97,4.727,8.0
47.059,1.745,3.914,4.0
0.0,0.0,0.0,0.0
46.158,1.725,4.848,10.0
52.393,1.958,5.196,4.0
42.984,1.606,4.012,6.0
46.898,1.752,4.099,7.0
52.599,1.966,4.291,2.0
51.837,1.937,3.928,8.0
46.083,1.734,4.765,2.0
53.043,1.996,5.175,7.0
57.355,2.158,5.26,5.0
43.264,1.627,3.712,3.0
68.114,2.562,5.447,6.0
51.74,1.946,3.837,3.0
66.243,2.508,6.741,2.0
59.838,2.265,5.739,8.0
46.863,1.773,4.221,5.0
42.7,1.615,3.593,2.0
51.785,1.958,4.056,4.0
69.194,2.617,5.017,21.0
66.233,2.52,6.63,7.0
42.94,1.633,4.047,5.0
46.984,1.786,4.154,4.0
47.07,1.788,3.883,8.0
51.726,1.965,3.965,2.0
0.0,0.0,0.0,0.0
52.529,2.007,5.169,9.0
46.077,1.759,4.265,4.0
46.911,1.79,4.068,7.0
47.066,1.795,3.803,1.0
51.779,1.973,3.882,4.0
67.138,2.558,4.643,6.0
43.786,1.678,4.234,2.0
50.624,1.938,4.6,2.0
52.944,2.025,4.502,16.0
51.749,1.979,4.093,4.0
69.35,2.65,5.081,10.0
53.375,2.038,3.601,1.0
43.027,1.652,4.087,10.0
47.0,1.803,4.19,7.0
52.828,2.025,4.4,11.0
65.858,2.522,5.095,3.0
69.264,2.651,4.956,14.0
68.774,2.63,4.521,5.0
46.115,1.772,4.3,5.0
50.784,1.949,4.438,4.0
47.1,1.806,3.841,6.0
51.719,1.981,3.912,3.0
67.3,2.576,4.698,6.0
68.455,2.618,4.381,2.0
50.645,1.946,4.633,4.0
50.764,1.948,4.347,3.0
51.842,1.987,4.136,3.0
69.195,2.65,5.111,7.0
53.389,2.042,3.633,2.0
68.397,2.614,4.257,2.0
50.699,1.946,4.548,4.0
52.857,2.026,4.432,22.0
51.822,1.984,4.043,2.0
69.304,2.65,4.996,26.0
68.875,2.63,4.564,6.0
0.0,0.0,0.0,0.0
46.941,1.798,4.126,6.0
47.073,1.8,3.863,7.0
51.698,1.975,3.941,3.0
67.484,2.574,4.744,8.0
68.598,2.613,4.423,3.0
67.36,2.562,3.953,1.0
50.748,1.938,4.37,4.0
68.14,2.598,5.47,4.0
51.703,1.968,3.849,5.0
66.945,2.544,4.587,3.0
68.579,2.603,4.3,5.0
103.567,3.925,5.892,3.0
42.663,1.622,3.596,1.0
51.763,1.965,4.061,3.0
69.247,2.624,5.03,20.0
68.832,2.604,4.592,9.0
67.757,2.559,4.126,6.0
202.429,7.635,11.151,4.0
47.057,1.78,3.882,4.0
51.735,1.953,3.965,6.0
68.165,2.568,4.826,8.0
68.588,2.58,4.451,5.0
67.438,2.532,3.984,2.0
196.208,7.356,10.452,13.0
68.083,2.559,5.492,4.0
51.801,1.943,3.875,2.0
67.131,2.513,4.631,6.0
68.6,2.563,4.326,7.0
202.394,7.547,11.586,11.0
195.544,7.277,10.059,16.0
50.233,1.874,3.959,14.0
68.952,2.567,5.032,13.0
68.835,2.557,4.622,7.0
68.163,2.526,4.173,6.0
202.364,7.486,11.213,9.0
195.419,7.213,9.694,19.0
0.0,0.0,0.0,0.0
0.0,0.0,0.0,0.0
53.326,1.963,3.483,1.0
67.436,2.476,4.004,5.0
196.551,7.204,10.531,12.0
195.382,7.144,9.333,12.0
51.949,1.902,3.902,1.0
67.129,2.452,4.65,5.0
68.614,2.501,4.353,7.0
117.485,4.271,6.758,4.0
195.978,7.107,10.133,8.0
195.734,7.08,8.983,4.0
68.683,2.488,5.029,9.0
68.7,2.482,4.63,6.0
103.641,3.734,6.381,2.0
117.692,4.229,6.548,3.0
195.48,7.006,9.743,20.0
196.553,7.026,8.654,13.0
68.382,2.447,4.879,12.0
68.612,2.447,4.495,8.0
67.399,2.398,4.023,4.0
196.565,6.973,10.572,9.0
117.914,4.171,5.656,2.0
196.27,6.924,8.277,8.0
67.711,2.39,4.705,9.0
68.422,2.408,4.355,4.0
118.408,4.154,6.847,5.0
196.721,6.881,10.212,9.0
201.262,7.018,9.277,6.0
193.566,6.729,7.8,22.0
53.255,1.851,3.6,3.0
69.561,2.411,4.297,8.0
103.748,3.584,5.805,1.0
104.438,3.596,5.225,2.0
196.056,6.728,8.669,15.0
193.694,6.628,7.442,18.0
68.418,2.34,4.496,5.0
67.419,2.298,4.038,3.0
118.358,4.021,6.4,5.0
117.79,3.988,5.672,4.0
196.017,6.613,8.3,5.0
193.771,6.514,7.079,24.0
68.19,2.291,4.352,8.0
103.584,3.468,6.008,4.0
103.083,3.438,5.379,3.0
102.305,3.399,4.734,3.0
193.68,6.412,7.837,21.0
193.332,6.378,6.703,17.0
69.196,2.28,4.286,2.0
102.997,3.381,5.78,7.0
103.672,3.39,5.216,8.0
117.621,3.831,5.222,5.0
193.769,6.286,7.477,16.0
193.247,6.245,6.338,10.0
67.376,2.175,4.047,2.0
118.376,3.805,6.422,6.0
102.597,3.283,4.969,4.0
193.642,6.171,8.234,18.0
193.583,6.144,7.108,16.0
195.852,6.19,6.055,8.0
103.64,3.27,6.031,5.0
103.128,3.24,5.402,5.0
102.309,3.2,4.765,1.0
193.873,6.036,7.886,17.0
193.371,5.995,6.746,23.0
194.255,5.995,5.649,5.0
103.56,3.19,5.836,2.0
103.259,3.165,5.218,9.0
102.394,3.124,4.58,2.0
193.592,5.88,7.519,16.0
193.032,5.835,6.376,24.0
193.979,5.835,5.282,11.0
118.698,3.561,6.469,4.0
110.474,3.298,5.378,3.0
194.986,5.792,8.361,10.0
193.552,5.719,7.156,13.0
193.141,5.678,6.02,21.0
193.913,5.673,4.921,24.0
104.044,3.034,5.476,6.0
0.0,0.0,0.0,0.0
102.684,2.963,4.213,2.0
193.404,5.55,6.792,8.0
0.0,0.0,0.0,0.0
193.773,5.499,4.558,27.0
103.37,2.924,5.25,9.0
0.0,0.0,0.0,0.0
193.731,5.417,7.589,7.0
193.223,5.371,6.428,22.0
194.405,5.373,5.341,21.0
193.714,5.323,4.202,24.0
110.515,3.024,5.408,4.0
120.139,3.268,5.183,6.0
194.043,5.246,7.245,6.0
193.067,5.187,6.071,13.0
194.371,5.19,4.985,25.0
193.537,5.137,3.845,32.0
124.947,3.301,5.888,4.0
102.649,2.693,4.241,7.0
193.195,5.038,6.864,5.0
194.364,5.036,5.761,11.0
193.956,4.993,4.626,34.0
193.524,4.949,3.496,27.0
120.074,3.054,5.441,3.0
0.0,0.0,0.0,0.0
0.0,0.0,0.0,0.0
194.311,4.84,5.408,20.0
193.876,4.797,4.276,29.0
195.197,4.794,3.175,8.0
0.0,0.0,0.0,0.0
0.0,0.0,0.0,0.0
0.0,0.0,0.0,0.0
194.471,4.642,5.064,26.0
193.929,4.593,3.927,32.0
195.213,4.587,2.823,24.0
102.702,2.398,4.285,7.0
0.0,0.0,0.0,0.0
194.972,4.481,5.877,16.0
194.345,4.429,4.712,26.0
194.133,4.389,3.585,20.0
0.0,0.0,0.0,0.0
102.564,2.283,4.098,3.0
147.631,3.257,5.043,3.0
194.796,4.26,5.525,23.0
194.297,4.213,4.368,19.0
0.0,0.0,0.0,0.0
0.0,0.0,0.0,0.0
132.902,2.808,5.075,3.0
0.0,0.0,0.0,0.0
194.912,4.04,5.186,14.0
194.337,3.989,4.027,12.0
199.599,4.06,2.984,11.0
102.984,2.073,0.943,8.0
0.0,0.0,0.0,0.0
0.0,0.0,0.0,0.0
194.679,3.807,4.841,17.0
0.0,0.0,0.0,0.0
103.183,1.974,1.361,18.0
99.958,1.894,0.742,1.0
0.0,0.0,0.0,0.0
0.0,0.0,0.0,0.0
194.639,3.57,4.503,19.0
194.614,3.528,3.358,23.0
0.0,0.0,0.0,0.0
99.821,1.768,0.569,5.0
0.0,0.0,0.0,0.0
0.0,0.0,0.0,0.0
194.7,3.326,4.169,19.0
194.825,3.289,3.029,24.0
0.0,0.0,0.0,0.0
99.78,1.642,0.399,5.0
0.0,0.0,0.0,0.0
196.943,3.157,5.023,13.0
194.937,3.082,3.845,26.0
195.844,3.054,2.714,7.0
0.0,0.0,0.0,0.0
99.709,1.511,0.231,5.0
157.135,2.347,4.65,34.0
196.193,2.886,4.673,27.0
194.77,2.821,3.514,30.0
0.0,0.0,0.0,0.0
99.62,1.4,0.639,5.0
99.707,1.379,0.065,4.0
20.289,0.276,0.566,2.0
20.281,0.271,0.449,12.0
20.296,0.266,0.332,9.0
20.3,0.262,0.213,1.0
99.565,1.263,0.473,5.0
0.0,0.0,0.0,0.0
20.282,0.247,0.532,29.0
20.27,0.243,0.415,27.0
20.297,0.238,0.299,23.0
20.277,0.233,0.18,19.0
20.315,0.229,0.063,7.0
0.0,0.0,0.0,0.0
20.269,0.219,0.5,29.0
20.274,0.215,0.383,34.0
20.286,0.21,0.266,26.0
20.307,0.205,0.148,29.0
20.322,0.201,0.031,30.0
20.223,0.195,-0.085,7.0
20.27,0.19,0.468,33.0
20.293,0.186,0.351,29.0
20.297,0.181,0.234,27.0
20.282,0.176,0.115,27.0
20.273,0.171,0.0,23.0
20.192,0.165,-0.116,24.0
20.188,0.16,0.434,24.0
20.181,0.155,0.318,23.0
20.173,0.15,0.201,20.0
20.211,0.145,0.083,29.0
20.197,0.14,-0.032,25.0
20.179,0.135,-0.148,36.0
20.167,0.13,0.402,27.0
20.165,0.125,0.286,28.0
20.165,0.12,0.17,27.0
20.183,0.115,0.053,37.0
20.189,0.11,-0.063,32.0
20.182,0.105,-0.179,25.0
20.158,0.1,0.372,29.0
20.154,0.094,0.256,27.0
20.152,0.089,0.14,24.0
20.194,0.084,0.022,29.0
20.196,0.079,-0.093,26.0
20.203,0.074,-0.209,9.0
20.137,0.068,0.341,28.0
20.145,0.063,0.225,28.0
20.152,0.058,0.11,26.0
20.187,0.053,-0.007,18.0
20.249,0.048,-0.124,24.0
20.253,0.042,-0.24,52.0
20.141,0.037,0.311,31.0
20.139,0.031,0.196,28.0
20.16,0.026,0.08,26.0
20.251,0.021,-0.037,151.0
20.259,0.016,-0.153,151.0
20.261,0.01,-0.269,89.0
20.13,0.005,0.282,28.0
20.126,0.0,0.167,27.0
20.147,-0.005,0.051,18.0
20.167,-0.01,-0.065,17.0
20.156,-0.016,-0.181,13.0
20.16,-0.021,-0.297,9.0
20.124,-0.027,0.254,29.0
20.123,-0.032,0.138,33.0
20.137,-0.038,0.023,35.0
20.135,-0.043,-0.093,33.0
20.124,-0.049,-0.209,13.0
20.155,-0.054,-0.325,24.0
20.125,-0.059,0.226,29.0
20.124,-0.065,0.111,40.0
20.127,-0.071,-0.004,30.0
20.135,-0.076,-0.121,35.0
20.14,-0.082,-0.236,35.0
20.147,-0.088,-0.352,26.0
20.125,-0.093,0.198,27.0
20.127,-0.099,0.083,37.0
20.153,-0.105,-0.031,27.0
20.145,-0.11,-0.148,28.0
20.134,-0.116,-0.264,34.0
20.147,-0.122,-0.379,37.0
20.146,-0.127,0.172,17.0
20.165,-0.133,0.057,24.0
20.162,-0.139,-0.058,18.0
20.148,-0.145,-0.175,11.0
20.145,-0.151,-0.29,27.0
20.17,-0.157,-0.406,32.0
66.538,-0.535,0.484,21.0
53.361,-0.444,0.083,5.0
53.328,-0.46,-0.221,4.0
20.18,-0.179,-0.201,2.0
20.172,-0.185,-0.316,8.0
20.202,-0.191,-0.432,26.0
56.196,-0.549,0.338,7.0
56.156,-0.565,0.017,1.0
59.591,-0.617,-0.322,3.0
45.326,-0.482,-0.508,19.0
37.959,-0.415,-0.642,31.0
31.334,-0.352,-0.709,5.0
56.18,-0.647,0.268,1.0
56.338,-0.665,-0.051,1.0
58.795,-0.712,-0.389,5.0
44.946,-0.558,-0.559,29.0
0.0,0.0,0.0,0.0
30.648,-0.399,-0.731,15.0
59.541,-0.791,0.213,42.0
59.53,-0.809,-0.126,15.0
53.09,-0.737,-0.415,4.0
44.726,-0.635,-0.609,19.0
32.013,-0.464,-0.619,2.0
30.184,-0.447,-0.756,13.0
20.139,-0.303,0.048,31.0
59.512,-0.916,-0.195,8.0
52.852,-0.829,-0.474,26.0
38.588,-0.617,-0.57,14.0
31.309,-0.51,-0.641,16.0
28.674,-0.476,-0.751,4.0
20.149,-0.34,0.025,51.0
53.029,-0.912,-0.233,13.0
45.43,-0.795,-0.459,19.0
38.093,-0.678,-0.606,15.0
30.792,-0.558,-0.665,28.0
27.827,-0.513,-0.759,6.0
52.983,-0.991,0.01,31.0
45.685,-0.868,-0.25,19.0
45.083,-0.871,-0.504,23.0
37.923,-0.744,-0.644,13.0
30.517,-0.609,-0.692,32.0
27.084,-0.548,-0.768,2.0
38.387,-0.787,-0.033,28.0
38.37,-0.799,-0.251,56.0
38.362,-0.811,-0.469,20.0
31.593,-0.678,-0.569,2.0
30.402,-0.662,-0.72,22.0
25.457,-0.562,-0.748,4.0
40.416,-0.903,-0.076,53.0
40.418,-0.917,-0.306,57.0
40.41,-0.929,-0.535,18.0
31.304,-0.73,-0.596,22.0
30.297,-0.716,-0.749,8.0
24.395,-0.585,-0.742,21.0
0.0,0.0,0.0,0.0
38.811,-0.953,-0.332,28.0
38.371,-0.954,-0.546,19.0
30.914,-0.779,-0.619,30.0
28.688,-0.732,-0.737,1.0
23.829,-0.616,-0.748,17.0
38.69,-1.01,-0.148,44.0
38.687,-1.022,-0.367,43.0
38.113,-1.019,-0.578,14.0
30.636,-0.83,-0.642,33.0
27.987,-0.767,-0.745,1.0
23.773,-0.659,-0.768,17.0
38.675,-1.082,-0.184,82.0
38.651,-1.095,-0.403,50.0
37.957,-1.088,-0.611,19.0
30.516,-0.885,-0.667,33.0
27.429,-0.804,-0.755,0.0
23.546,-0.698,-0.782,5.0
38.654,-1.155,-0.218,67.0
38.608,-1.166,-0.436,46.0
37.885,-1.157,-0.642,9.0
30.465,-0.94,-0.692,28.0
25.249,-0.788,-0.717,5.0
22.894,-0.722,-0.78,2.0
38.688,-1.229,-0.25,58.0
38.597,-1.239,-0.468,22.0
31.363,-1.018,-0.558,22.0
30.427,-0.998,-0.717,17.0
24.585,-0.814,-0.718,17.0
22.492,-0.752,-0.784,4.0
38.769,-1.306,-0.282,6.0
38.526,-1.311,-0.498,14.0
31.092,-1.068,-0.578,29.0
30.203,-1.048,-0.735,8.0
24.406,-0.855,-0.732,24.0
22.019,-0.779,-0.785,1.0
54.025,-1.922,-0.434,2.0
38.368,-1.378,-0.525,12.0
30.833,-1.118,-0.596,30.0
28.967,-1.06,-0.726,1.0
23.877,-0.882,-0.734,18.0
21.52,-0.802,-0.783,1.0
31.322,-1.174,-0.274,47.0
31.279,-1.183,-0.45,40.0
30.669,-1.171,-0.615,27.0
28.469,-1.097,-0.734,15.0
23.81,-0.926,-0.749,16.0
20.921,-0.82,-0.776,1.0
28.461,-1.122,-0.269,72.0
28.454,-1.132,-0.43,70.0
28.444,-1.141,-0.59,76.0
28.276,-1.144,-0.749,11.0
23.776,-0.971,-0.764,12.0
20.685,-0.851,-0.781,2.0
28.459,-1.177,-0.288,114.0
28.446,-1.186,-0.448,115.0
28.456,-1.196,-0.608,139.0
25.041,-1.061,-0.679,1.0
23.665,-1.011,-0.775,5.0
20.366,-0.877,-0.782,0.0
28.468,-1.232,-0.305,65.0
28.47,-1.242,-0.465,58.0
28.479,-1.252,-0.626,51.0
24.798,-1.099,-0.687,5.0
23.091,-1.032,-0.77,5.0
20.172,-0.908,-0.786,0.0
31.182,-1.41,-0.352,47.0
31.131,-1.419,-0.527,47.0
30.524,-1.401,-0.688,22.0
24.44,-1.131,-0.691,13.0
22.523,-1.05,-0.763,1.0
19.857,-0.933,-0.785,0.0
31.207,-1.472,-0.369,46.0
31.121,-1.479,-0.543,36.0
30.399,-1.455,-0.701,15.0
24.262,-1.17,-0.698,14.0
22.167,-1.076,-0.763,2.0
19.639,-0.961,-0.786,0.0
31.315,-1.537,-0.386,16.0
31.064,-1.536,-0.557,28.0
0.0,0.0,0.0,0.0
24.068,-1.207,-0.704,16.0
21.975,-1.11,-0.767,1.0
19.517,-0.993,-0.791,1.0
42.027,-2.146,-0.538,2.0
31.04,-1.596,-0.571,28.0
24.559,-1.271,-0.589,3.0
23.963,-1.248,-0.712,16.0
21.838,-1.146,-0.771,1.0
19.261,-1.017,-0.788,0.0
41.33,-2.189,-0.546,1.0
31.229,-1.665,-0.587,2.0
24.506,-1.315,-0.598,28.0
23.87,-1.29,-0.719,15.0
21.55,-1.172,-0.77,2.0
19.094,-1.045,-0.789,0.0
24.563,-1.348,-0.333,44.0
24.536,-1.355,-0.47,36.0
24.46,-1.36,-0.606,24.0
23.836,-1.333,-0.726,15.0
21.233,-1.195,-0.766,2.0
18.903,-1.071,-0.788,0.0
24.532,-1.393,-0.341,61.0
24.512,-1.401,-0.478,57.0
24.426,-1.405,-0.613,27.0
23.8,-1.377,-0.733,13.0
21.109,-1.229,-0.768,1.0
18.828,-1.103,-0.79,1.0
24.505,-1.439,-0.349,74.0
24.49,-1.446,-0.485,43.0
24.423,-1.451,-0.62,30.0
23.795,-1.423,-0.739,12.0
21.021,-1.264,-0.771,2.0
18.683,-1.13,-0.789,1.0
24.509,-1.486,-0.355,67.0
24.476,-1.492,-0.491,62.0
24.401,-1.497,-0.625,29.0
23.79,-1.467,-0.745,11.0
20.89,-1.296,-0.771,1.0
18.473,-1.153,-0.785,1.0
24.508,-1.532,-0.36,75.0
24.477,-1.539,-0.496,45.0
24.413,-1.543,-0.631,29.0
23.613,-1.501,-0.744,8.0
20.668,-1.321,-0.767,1.0
18.416,-1.184,-0.786,2.0
24.523,-1.579,-0.365,56.0
24.488,-1.586,-0.501,41.0
24.405,-1.589,-0.635,28.0
23.665,-1.549,-0.75,6.0
20.577,-1.355,-0.767,1.0
18.374,-1.216,-0.787,1.0
24.539,-1.627,-0.369,27.0
24.489,-1.632,-0.504,25.0
24.436,-1.637,-0.639,20.0
23.615,-1.59,-0.751,5.0
20.558,-1.392,-0.768,1.0
18.342,-1.249,-0.788,1.0
37.445,-2.553,-0.567,2.0
30.583,-2.096,-0.633,17.0
24.507,-1.688,-0.643,19.0
23.51,-1.628,-0.75,5.0
20.453,-1.423,-0.766,1.0
18.237,-1.276,-0.784,1.0
36.501,-2.556,-0.555,1.0
30.759,-2.165,-0.638,9.0
24.701,-1.747,-0.65,7.0
23.452,-1.667,-0.749,5.0
20.35,-1.454,-0.763,1.0
18.239,-1.31,-0.785,1.0
36.638,-2.633,-0.558,2.0
30.949,-2.235,-0.643,5.0
24.753,-1.797,-0.651,5.0
23.507,-1.715,-0.751,5.0
20.368,-1.493,-0.764,1.0
18.261,-1.345,-0.786,1.0
36.56,-2.696,-0.556,1.0
30.905,-2.289,-0.641,3.0
24.941,-1.856,-0.655,5.0
23.617,-1.766,-0.754,5.0
20.453,-1.537,-0.766,1.0
18.264,-1.379,-0.785,2.0
38.746,-2.927,-0.588,1.0
30.972,-2.35,-0.641,3.0
24.905,-1.898,-0.653,5.0
23.45,-1.796,-0.747,5.0
20.393,-1.569,-0.763,1.0
18.318,-1.416,-0.786,2.0
38.986,-3.015,-0.588,0.0
30.9,-2.4,-0.636,2.0
25.292,-1.973,-0.66,6.0
23.426,-1.836,-0.744,5.0
20.468,-1.611,-0.763,1.0
18.368,-1.452,-0.786,1.0
36.733,-2.906,-0.549,1.0
30.942,-2.459,-0.633,3.0
25.355,-2.023,-0.659,4.0
23.559,-1.888,-0.745,5.0
20.464,-1.647,-0.76,2.0
18.368,-1.485,-0.783,1.0
39.081,-3.16,-0.578,5.0
30.904,-2.509,-0.627,4.0
25.46,-2.076,-0.657,2.0
23.558,-1.929,-0.74,5.0
20.493,-1.685,-0.757,1.0
18.427,-1.522,-0.782,1.0
38.338,-3.167,-0.559,14.0
31.187,-2.587,-0.627,2.0
27.392,-2.281,-0.701,1.0
23.632,-1.976,-0.737,7.0
20.753,-1.742,-0.762,1.0
18.436,-1.554,-0.779,1.0
37.962,-3.201,-0.545,14.0
31.312,-2.651,-0.621,2.0
27.325,-2.322,-0.693,3.0
23.681,-2.021,-0.733,13.0
20.758,-1.778,-0.757,1.0
18.582,-1.598,-0.78,1.0
38.349,-3.299,-0.54,14.0
31.568,-2.726,-0.618,1.0
27.414,-2.377,-0.687,6.0
23.746,-2.067,-0.728,11.0
20.882,-1.824,-0.755,1.0
18.64,-1.635,-0.777,1.0
38.598,-3.386,-0.531,15.0
31.788,-2.798,-0.612,1.0
27.671,-2.445,-0.685,7.0
23.77,-2.108,-0.721,13.0
20.976,-1.867,-0.752,1.0
18.79,-1.679,-0.776,1.0
38.85,-3.472,-0.522,15.0
32.322,-2.899,-0.611,8.0
27.729,-2.495,-0.676,4.0
23.821,-2.152,-0.714,13.0
21.175,-1.92,-0.751,1.0
18.904,-1.72,-0.774,2.0
39.053,-3.554,-0.51,15.0
32.862,-3.001,-0.609,1.0
27.858,-2.553,-0.669,7.0
23.83,-2.191,-0.705,12.0
21.55,-1.989,-0.756,3.0
19.036,-1.763,-0.772,1.0
39.274,-3.637,-0.496,16.0
0.0,0.0,0.0,0.0
28.179,-2.627,-0.664,4.0
24.771,-2.317,-0.722,6.0
21.615,-2.029,-0.748,3.0
19.211,-1.809,-0.77,1.0
39.447,-3.715,-0.481,16.0
34.337,-3.245,-0.606,11.0
28.352,-2.688,-0.655,5.0
24.995,-2.377,-0.717,6.0
21.756,-2.076,-0.743,1.0
19.356,-1.854,-0.767,1.0
40.303,-3.859,-0.472,8.0
34.252,-3.29,-0.588,11.0
28.624,-2.758,-0.647,2.0
25.272,-2.443,-0.712,6.0
21.937,-2.127,-0.738,1.0
19.634,-1.91,-0.768,2.0
40.326,-3.923,-0.451,10.0
34.314,-3.348,-0.571,11.0
29.368,-2.874,-0.649,1.0
25.596,-2.513,-0.708,6.0
22.385,-2.204,-0.741,1.0
19.778,-1.954,-0.763,2.0
0.0,0.0,0.0,0.0
34.247,-3.393,-0.551,22.0
30.038,-2.984,-0.647,2.0
25.942,-2.585,-0.703,6.0
22.466,-2.246,-0.731,1.0
20.045,-2.01,-0.762,2.0
0.0,0.0,0.0,0.0
34.368,-3.454,-0.533,29.0
30.367,-3.061,-0.636,2.0
26.216,-2.65,-0.695,6.0
22.886,-2.321,-0.731,2.0
20.203,-2.055,-0.756,2.0
44.457,-4.519,-0.421,8.0
34.61,-3.528,-0.516,25.0
30.795,-3.148,-0.626,5.0
26.543,-2.721,-0.687,6.0
23.083,-2.373,-0.723,3.0
20.378,-2.101,-0.749,2.0
0.0,0.0,0.0,0.0
34.849,-3.601,-0.496,20.0
31.492,-3.263,-0.62,9.0
26.8,-2.784,-0.676,5.0
23.379,-2.436,-0.717,3.0
20.781,-2.171,-0.75,2.0
44.682,-4.666,-0.365,19.0
35.016,-3.666,-0.476,12.0
31.911,-3.349,-0.607,9.0
27.16,-2.858,-0.667,2.0
23.912,-2.523,-0.717,5.0
21.034,-2.226,-0.745,4.0
0.0,0.0,0.0,0.0
35.183,-3.73,-0.453,9.0
32.245,-3.428,-0.59,10.0
27.662,-2.948,-0.659,1.0
24.385,-2.605,-0.713,5.0
21.311,-2.283,-0.739,2.0
47.422,-5.078,-0.319,22.0
39.93,-4.286,-0.485,10.0
32.494,-3.496,-0.571,23.0
28.137,-3.035,-0.65,2.0
24.814,-2.683,-0.708,5.0
21.796,-2.363,-0.74,2.0
47.817,-5.181,-0.286,19.0
39.938,-4.337,-0.455,15.0
32.797,-3.57,-0.551,28.0
0.0,0.0,0.0,0.0
25.256,-2.762,-0.7,6.0
22.189,-2.433,-0.736,3.0
49.882,-5.467,-0.259,24.0
40.112,-4.406,-0.425,15.0
33.316,-3.667,-0.533,30.0
29.945,-3.304,-0.645,8.0
25.573,-2.828,-0.689,6.0
22.524,-2.497,-0.728,4.0
50.609,-5.607,-0.221,25.0
0.0,0.0,0.0,0.0
33.756,-3.756,-0.513,33.0
30.226,-3.37,-0.626,8.0
26.02,-2.908,-0.679,2.0
22.959,-2.571,-0.724,5.0
51.131,-5.724,-0.182,11.0
0.0,0.0,0.0,0.0
34.123,-3.835,-0.49,32.0
30.508,-3.436,-0.606,9.0
26.799,-3.025,-0.677,2.0
23.298,-2.635,-0.715,4.0
55.288,-6.251,-0.15,16.0
0.0,0.0,0.0,0.0
34.529,-3.919,-0.466,34.0
30.705,-3.492,-0.583,17.0
27.294,-3.111,-0.666,3.0
23.838,-2.722,-0.71,4.0
55.864,-6.377,-0.101,20.0
46.128,-5.275,-0.333,20.0
34.991,-4.009,-0.441,12.0
31.223,-3.584,-0.565,17.0
27.793,-3.197,-0.653,3.0
24.424,-2.815,-0.706,3.0
56.432,-6.5,-0.052,5.0
47.12,-5.437,-0.297,22.0
39.753,-4.595,-0.465,8.0
31.982,-3.704,-0.55,26.0
28.531,-3.31,-0.645,3.0
24.894,-2.893,-0.697,5.0
65.571,-7.619,0.0,2.0
47.921,-5.577,-0.258,22.0
39.921,-4.654,-0.431,15.0
32.591,-3.806,-0.53,27.0
29.229,-3.419,-0.633,8.0
25.419,-2.979,-0.687,4.0
80.556,-9.437,0.074,37.0
48.889,-5.736,-0.218,23.0
40.097,-4.712,-0.394,15.0
33.16,-3.903,-0.508,27.0
29.439,-3.471,-0.61,20.0
25.899,-3.059,-0.676,4.0
80.319,-9.483,0.15,21.0
50.129,-5.927,-0.175,19.0
40.238,-4.765,-0.357,12.0
33.734,-4.001,-0.484,28.0
29.919,-3.554,-0.591,22.0
26.584,-3.163,-0.668,1.0
80.295,-9.55,0.228,21.0
55.456,-6.605,-0.14,8.0
46.06,-5.494,-0.364,4.0
34.292,-4.096,-0.459,28.0
30.435,-3.641,-0.571,24.0
27.358,-3.278,-0.66,2.0
80.516,-9.644,0.309,33.0
55.829,-6.696,-0.085,13.0
46.065,-5.532,-0.318,21.0
34.873,-4.194,-0.431,17.0
31.183,-3.755,-0.554,18.0
27.928,-3.368,-0.646,4.0
80.546,-9.711,0.39,21.0
56.556,-6.827,-0.03,3.0
46.936,-5.673,-0.277,21.0
39.711,-4.806,-0.451,9.0
31.899,-3.866,-0.534,25.0
28.68,-3.48,-0.634,8.0
80.317,-9.743,0.471,35.0
80.945,-9.831,0.04,13.0
47.743,-5.805,-0.232,22.0
39.856,-4.852,-0.412,23.0
32.603,-3.974,-0.512,25.0
29.067,-3.548,-0.612,18.0
80.291,-9.797,0.554,27.0
80.676,-9.855,0.125,20.0
48.19,-5.893,-0.183,12.0
40.083,-4.907,-0.371,15.0
33.301,-4.082,-0.488,28.0
29.441,-3.613,-0.589,21.0
80.323,-9.855,0.641,30.0
80.503,-9.887,0.21,32.0
50.206,-6.172,-0.138,9.0
40.391,-4.971,-0.331,15.0
33.997,-4.188,-0.462,31.0
29.97,-3.696,-0.568,23.0
80.39,-9.913,0.727,31.0
80.553,-9.942,0.296,23.0
55.689,-6.879,-0.093,12.0
45.81,-5.664,-0.327,18.0
34.601,-4.283,-0.432,20.0
30.669,-3.8,-0.548,19.0
80.44,-9.965,0.814,25.0
69.347,-8.598,0.329,4.0
69.359,-8.606,-0.041,6.0
46.215,-5.74,-0.28,21.0
39.73,-4.939,-0.454,8.0
31.545,-3.925,-0.529,18.0
80.528,-10.019,0.903,13.0
69.144,-8.609,0.404,3.0
69.155,-8.616,0.033,10.0
47.322,-5.901,-0.235,23.0
39.833,-4.971,-0.411,25.0
32.437,-4.052,-0.509,27.0
191.996,-23.98,2.364,20.0
80.541,-10.066,0.559,5.0
69.001,-8.63,0.109,4.0
48.376,-6.055,-0.186,22.0
40.068,-5.018,-0.369,17.0
33.282,-4.172,-0.485,27.0
191.989,-24.064,2.577,28.0
80.544,-10.101,0.65,13.0
68.729,-8.625,0.186,8.0
50.209,-6.305,-0.137,10.0
40.347,-5.07,-0.327,9.0
33.991,-4.274,-0.457,27.0
192.025,-24.144,2.793,38.0
80.538,-10.131,0.739,12.0
68.657,-8.641,0.263,3.0
55.78,-7.024,-0.09,12.0
45.663,-5.754,-0.318,14.0
34.631,-4.366,-0.427,21.0
192.003,-24.208,3.008,37.0
68.323,-8.618,0.704,5.0
68.425,-8.635,0.339,1.0
68.606,-8.661,-0.033,3.0
46.142,-5.828,-0.269,20.0
39.781,-5.028,-0.445,8.0
191.977,-24.264,3.225,26.0
68.279,-8.632,0.781,4.0
68.334,-8.642,0.416,3.0
68.595,-8.679,0.043,1.0
47.474,-6.009,-0.224,21.0
39.851,-5.046,-0.401,20.0
191.966,-24.311,3.442,21.0
192.015,-24.323,2.417,24.0
68.311,-8.656,0.493,3.0
68.286,-8.655,0.121,2.0
48.264,-6.119,-0.172,7.0
39.978,-5.071,-0.356,10.0
197.487,-25.052,3.768,7.0
191.964,-24.356,2.633,30.0
68.251,-8.661,0.57,2.0
68.143,-8.649,0.199,2.0
55.582,-7.057,-0.135,6.0
0.0,0.0,0.0,0.0
197.404,-25.074,3.991,12.0
191.96,-24.384,2.854,31.0
68.287,-8.675,0.649,5.0
68.014,-8.642,0.276,2.0
55.923,-7.107,-0.072,10.0
45.799,-5.821,-0.305,20.0
197.579,-25.119,4.22,7.0
191.989,-24.408,3.073,25.0
68.203,-8.671,0.726,8.0
68.028,-8.649,0.353,2.0
61.035,-7.761,-0.009,4.0
46.446,-5.907,-0.255,21.0
139.496,-17.744,3.139,15.0
191.948,-24.414,3.291,25.0
68.233,-8.678,0.804,5.0
67.999,-8.648,0.43,2.0
68.101,-8.661,0.066,2.0
47.685,-6.065,-0.208,22.0
139.464,-17.743,3.296,22.0
192.036,-24.428,3.512,14.0
191.908,-24.409,2.48,29.0
68.052,-8.655,0.508,3.0
68.073,-8.657,0.144,2.0
0.0,0.0,0.0,0.0
63.097,-8.026,1.563,15.0
197.359,-25.098,3.834,10.0
191.937,-24.404,2.7,32.0
68.128,-8.66,0.586,1.0
68.011,-8.644,0.221,2.0
55.723,-7.082,-0.117,11.0
63.106,-8.023,1.635,26.0
197.574,-25.11,4.062,8.0
191.941,-24.387,2.916,31.0
68.219,-8.665,0.664,5.0
68.077,-8.645,0.299,2.0
56.183,-7.133,-0.054,6.0
63.11,-8.016,1.707,29.0
197.651,-25.095,4.287,8.0
191.982,-24.366,3.135,31.0
68.284,-8.663,0.742,8.0
68.188,-8.648,0.376,2.0
61.037,-7.739,0.01,2.0
63.073,-8.001,1.777,30.0
139.599,-17.7,3.186,14.0
191.984,-24.331,3.351,23.0
191.9,-24.309,2.304,19.0
68.36,-8.656,0.453,3.0
68.448,-8.664,0.087,2.0
63.088,-7.989,1.848,27.0
63.161,-7.994,1.512,6.0
198.051,-25.054,3.677,6.0
191.989,-24.275,2.518,31.0
68.415,-8.646,0.53,2.0
68.525,-8.656,0.163,2.0
63.124,-7.978,1.92,28.0
63.126,-7.973,1.582,21.0
197.353,-24.911,3.885,12.0
192.037,-24.225,2.731,31.0
80.54,-10.154,0.714,7.0
68.616,-8.647,0.239,3.0
63.208,-7.969,1.992,25.0
63.087,-7.948,1.65,31.0
139.506,-17.564,2.9,12.0
192.012,-24.158,2.944,42.0
80.499,-10.122,0.801,17.0
68.752,-8.639,0.316,3.0
63.285,-7.956,2.065,4.0
63.131,-7.931,1.72,24.0
139.509,-17.512,3.053,30.0
192.025,-24.087,3.153,33.0
80.625,-10.106,0.89,9.0
68.885,-8.629,0.391,4.0
139.466,-17.48,4.701,12.0
63.145,-7.907,1.788,31.0
139.5,-17.454,3.202,29.0
192.002,-24.004,3.357,20.0
192.072,-23.994,2.325,23.0
80.477,-10.046,0.542,13.0
84.563,-10.562,2.94,12.0
63.24,-7.891,1.858,8.0
139.566,-17.399,3.351,26.0
0.0,0.0,0.0,0.0
192.009,-23.894,2.528,24.0
80.454,-10.004,0.627,27.0
84.571,-10.522,3.029,20.0
139.09,-17.288,4.234,10.0
139.605,-17.334,3.499,11.0
198.214,-24.588,3.88,7.0
192.073,-23.804,2.728,33.0
80.412,-9.956,0.71,28.0
84.544,-10.474,3.116,28.0
139.349,-17.245,4.387,15.0
165.379,-20.444,4.315,23.0
139.529,-17.23,2.877,4.0
192.082,-23.694,2.93,20.0
80.406,-9.909,0.793,22.0
84.522,-10.423,3.203,14.0
85.266,-10.502,2.772,14.0
165.273,-20.332,4.485,21.0
188.43,-23.154,4.08,22.0
188.543,-23.142,3.068,24.0
80.567,-9.878,0.877,12.0
84.74,-10.397,3.299,6.0
84.634,-10.371,2.837,28.0
85.801,-10.501,2.414,5.0
188.821,-23.081,4.278,10.0
188.262,-22.985,3.252,19.0
153.604,-18.732,1.825,10.0
84.876,-10.358,3.389,14.0
84.575,-10.307,2.92,33.0
85.843,-10.448,2.501,12.0
0.0,0.0,0.0,0.0
153.842,-18.675,2.808,9.0
153.649,-18.629,1.977,14.0
85.796,-10.41,3.509,14.0
84.585,-10.248,3.003,28.0
84.191,-10.186,2.534,26.0
139.157,-16.812,3.425,19.0
153.762,-18.552,2.955,17.0
153.67,-18.516,2.125,19.0
84.77,-10.222,3.549,16.0
84.594,-10.185,3.085,27.0
84.245,-10.128,2.617,32.0
138.956,-16.68,3.553,25.0
153.78,-18.433,3.102,19.0
153.709,-18.399,2.271,17.0
84.069,-10.071,3.599,25.0
84.626,-10.121,3.165,18.0
84.366,-10.075,2.699,34.0
84.341,-10.056,2.235,7.0
85.318,-10.157,1.799,7.0
153.835,-18.288,2.414,6.0
83.97,-9.99,3.671,22.0
84.551,-10.043,3.238,17.0
84.454,-10.014,2.779,36.0
84.375,-9.988,2.311,11.0
85.329,-10.085,1.876,22.0
188.164,-22.206,3.121,20.0
83.868,-9.906,3.742,31.0
84.011,-9.905,3.294,36.0
84.446,-9.939,2.853,33.0
84.18,-9.891,2.379,40.0
85.93,-10.079,1.965,5.0
85.319,-9.992,1.489,4.0
83.999,-9.845,3.821,24.0
83.807,-9.805,3.358,34.0
84.266,-9.84,2.92,22.0
84.191,-9.814,2.452,43.0
84.281,-9.807,1.999,19.0
85.288,-9.907,1.561,16.0
84.427,-9.816,3.912,13.0
83.834,-9.727,3.43,39.0
83.881,-9.714,2.978,41.0
83.234,-9.621,2.494,34.0
84.221,-9.717,2.068,16.0
85.203,-9.813,1.631,27.0
83.929,-9.675,3.96,29.0
83.938,-9.656,3.503,45.0
83.76,-9.616,3.042,36.0
83.018,-9.512,2.556,31.0
84.206,-9.629,2.136,13.0
85.041,-9.707,1.696,24.0
83.861,-9.58,4.024,38.0
84.22,-9.601,3.584,33.0
82.669,-9.404,3.069,32.0
82.885,-9.409,2.618,26.0
81.951,-9.285,2.144,25.0
84.942,-9.604,1.762,8.0
83.741,-9.477,4.084,37.0
82.451,-9.311,3.572,12.0
82.596,-9.307,3.129,37.0
82.142,-9.235,2.658,34.0
82.056,-9.206,2.209,32.0
83.017,-9.295,1.783,28.0
83.744,-9.384,4.148,29.0
83.948,-9.386,3.7,40.0
82.536,-9.207,3.188,27.0
82.231,-9.153,2.721,37.0
82.071,-9.116,2.269,33.0
82.414,-9.134,1.83,34.0
83.834,-9.3,4.212,35.0
82.461,-9.126,3.693,14.0
82.634,-9.124,3.251,37.0
82.243,-9.06,2.779,44.0
81.641,-8.973,2.314,39.0
81.863,-8.977,1.875,38.0
83.701,-9.186,4.264,38.0
83.625,-9.156,3.804,49.0
82.641,-9.026,3.308,37.0
82.302,-8.968,2.837,45.0
81.572,-8.868,2.367,37.0
81.759,-8.867,1.928,37.0
83.748,-9.09,4.322,41.0
83.732,-9.066,3.864,36.0
82.782,-8.941,3.367,38.0
82.29,-8.866,2.89,43.0
81.654,-8.775,2.422,45.0
81.885,-8.78,1.983,39.0
83.924,-9.005,4.385,39.0
84.772,-9.072,3.965,28.0
83.264,-8.887,3.44,40.0
82.385,-8.771,2.945,42.0
81.678,-8.674,2.474,38.0
81.906,-8.676,2.034,42.0
84.412,-8.949,4.461,21.0
84.364,-8.92,3.998,30.0
82.535,-8.703,3.459,34.0
82.563,-8.682,3.0,46.0
81.793,-8.579,2.525,41.0
81.763,-8.554,2.078,43.0
84.056,-8.8,4.492,30.0
84.065,-8.777,4.031,21.0
82.036,-8.542,3.485,39.0
82.444,-8.561,3.042,43.0
81.749,-8.465,2.569,33.0
81.939,-8.462,2.127,39.0
83.825,-8.664,4.525,35.0
83.313,-8.586,4.04,36.0
81.956,-8.422,3.525,41.0
82.429,-8.446,3.085,38.0
82.35,-8.415,2.631,52.0
81.881,-8.343,2.168,40.0
82.206,-8.383,4.48,27.0
83.156,-8.454,4.075,48.0
81.972,-8.309,3.567,40.0
82.203,-8.309,3.117,51.0
82.207,-8.285,2.667,61.0
81.878,-8.229,2.207,40.0
82.35,-8.282,4.527,22.0
82.226,-8.244,4.068,26.0
82.072,-8.204,3.609,36.0
82.208,-8.193,3.155,44.0
81.933,-8.141,2.695,45.0
82.312,-8.154,2.256,47.0
83.46,-8.273,4.625,40.0
82.143,-8.117,4.101,35.0
81.756,-8.054,3.631,47.0
82.113,-8.064,3.186,41.0
82.031,-8.031,2.733,43.0
82.28,-8.031,2.289,42.0
83.457,-8.151,4.659,46.0
81.972,-7.981,4.125,41.0
81.872,-7.945,3.668,48.0
82.138,-7.945,3.22,34.0
82.011,-7.908,2.763,43.0
82.119,-7.894,2.316,44.0
83.404,-8.022,4.688,43.0
81.837,-7.845,4.147,36.0
81.821,-7.818,3.696,35.0
0.0,0.0,0.0,0.0
81.784,-7.763,2.784,42.0
82.133,-7.772,2.344,42.0
83.267,-7.883,4.708,38.0
81.852,-7.722,4.175,33.0
82.277,-7.737,3.743,21.0
81.821,-7.668,3.262,38.0
81.825,-7.643,2.811,35.0
82.07,-7.64,2.367,44.0
83.269,-7.756,4.733,38.0
82.477,-7.654,4.232,42.0
82.105,-7.593,3.759,48.0
81.638,-7.523,3.278,44.0
81.912,-7.523,2.837,42.0
82.104,-7.514,2.391,40.0
83.231,-7.621,4.753,34.0
82.106,-7.491,4.234,14.0
81.81,-7.438,3.766,37.0
81.643,-7.396,3.298,43.0
82.256,-7.424,2.868,44.0
82.128,-7.388,2.411,45.0
83.46,-7.51,4.785,38.0
83.256,-7.464,4.311,39.0
82.083,-7.332,3.796,38.0
81.656,-7.267,3.316,41.0
82.209,-7.289,2.883,39.0
82.318,-7.273,2.432,34.0
83.461,-7.376,4.801,37.0
83.033,-7.31,4.315,35.0
82.67,-7.25,3.838,54.0
81.714,-7.14,3.332,41.0
82.226,-7.158,2.898,42.0
82.312,-7.14,2.445,34.0
83.41,-7.236,4.811,28.0
83.071,-7.178,4.329,39.0
82.881,-7.134,3.859,47.0
82.07,-7.037,3.358,41.0
82.1,-7.012,2.904,46.0
82.113,-6.987,2.449,40.0
83.976,-7.146,4.853,28.0
83.156,-7.049,4.343,39.0
83.063,-7.012,3.876,39.0
82.239,-6.915,3.372,36.0
82.019,-6.869,2.908,42.0
82.289,-6.865,2.461,43.0
83.681,-6.982,4.842,35.0
83.582,-6.944,4.371,48.0
83.373,-6.899,3.896,43.0
82.882,-6.83,3.403,46.0
82.149,-6.743,2.917,47.0
82.527,-6.747,2.472,53.0
83.637,-6.836,4.843,38.0
83.142,-6.767,4.35,40.0
83.305,-6.752,3.895,40.0
82.993,-6.698,3.41,17.0
82.497,-6.631,2.93,45.0
82.701,-6.62,2.477,42.0
83.603,-6.691,4.84,38.0
83.079,-6.62,4.346,38.0
84.193,-6.679,3.935,13.0
83.165,-6.57,3.415,36.0
82.449,-6.486,2.926,46.0
82.364,-6.451,2.465,47.0
83.606,-6.547,4.836,37.0
83.159,-6.483,4.346,38.0
83.393,-6.473,3.892,10.0
82.881,-6.405,3.397,29.0
82.57,-6.353,2.925,39.0
82.563,-6.325,2.464,46.0
83.662,-6.407,4.833,36.0
83.688,-6.381,4.366,53.0
85.838,-6.515,3.998,19.0
83.11,-6.28,3.399,34.0
82.599,-6.214,2.917,37.0
83.013,-6.217,2.468,64.0
84.144,-6.297,4.85,49.0
83.565,-6.224,4.35,49.0
83.358,-6.18,3.872,38.0
82.851,-6.113,3.377,45.0
82.943,-6.092,2.916,48.0
83.01,-6.07,2.456,55.0
84.365,-6.165,4.85,39.0
83.619,-6.081,4.338,42.0
83.429,-6.038,3.861,39.0
82.749,-5.961,3.357,39.0
83.021,-5.953,2.905,43.0
82.745,-5.906,2.432,55.0
84.498,-6.026,4.84,27.0
83.789,-5.945,4.329,37.0
83.566,-5.901,3.849,47.0
24.577,-1.726,0.991,10.0
83.186,-5.817,2.891,34.0
83.148,-5.786,2.424,30.0
24.499,-1.703,1.397,40.0
24.564,-1.699,1.263,1.0
24.585,-1.692,1.126,4.0
24.516,-1.679,0.983,23.0
24.514,-1.67,0.845,19.0
24.606,-1.669,0.71,26.0
24.472,-1.658,1.389,54.0
24.499,-1.651,1.252,46.0
24.496,-1.642,1.115,38.0
24.467,-1.632,0.973,45.0
24.49,-1.625,0.837,37.0
24.538,-1.62,0.701,63.0
24.46,-1.613,1.38,85.0
24.476,-1.605,1.243,79.0
24.487,-1.597,1.106,38.0
24.454,-1.587,0.964,65.0
24.485,-1.58,0.828,68.0
24.531,-1.575,0.692,69.0
24.433,-1.566,1.369,59.0
24.475,-1.561,1.234,91.0
24.459,-1.551,1.095,39.0
24.46,-1.543,0.955,64.0
24.479,-1.536,0.818,66.0
24.535,-1.531,0.682,64.0
24.43,-1.522,1.359,71.0
24.464,-1.516,1.223,88.0
24.45,-1.507,1.085,50.0
24.46,-1.499,0.945,60.0
24.502,-1.493,0.809,79.0
24.553,-1.488,0.672,75.0
24.434,-1.478,1.349,55.0
24.476,-1.472,1.213,44.0
24.512,-1.466,1.076,46.0
24.495,-1.456,0.935,44.0
24.535,-1.451,0.798,68.0
24.582,-1.445,0.661,71.0
24.467,-1.435,1.339,75.0
24.522,-1.43,1.203,42.0
24.545,-1.423,1.066,39.0
24.537,-1.414,0.924,29.0
24.553,-1.407,0.786,27.0
24.61,-1.402,0.649,11.0
24.552,-1.396,1.33,38.0
28.389,-1.604,1.378,26.0
83.368,-4.683,3.575,18.0
83.27,-4.649,3.092,51.0
83.836,-4.653,2.64,52.0
83.898,-4.629,2.169,41.0
28.422,-1.564,1.524,75.0
83.689,-4.578,4.015,26.0
83.571,-4.542,3.536,36.0
83.66,-4.519,3.058,27.0
84.2,-4.52,2.601,42.0
84.546,-4.51,2.135,39.0
28.421,-1.512,1.507,74.0
83.837,-4.432,3.97,34.0
83.754,-4.398,3.491,12.0
84.986,-4.434,3.053,35.0
84.418,-4.377,2.555,29.0
84.694,-4.364,2.084,35.0
28.415,-1.459,1.488,74.0
0.0,0.0,0.0,0.0
86.38,-4.38,3.544,40.0
85.202,-4.291,3.005,36.0
85.175,-4.262,2.521,33.0
84.588,-4.205,2.025,39.0
28.414,-1.408,1.468,74.0
85.353,-4.201,3.927,24.0
86.456,-4.226,3.487,37.0
85.062,-4.13,2.94,29.0
85.034,-4.101,2.457,21.0
84.683,-4.056,1.967,38.0
28.413,-1.356,1.448,62.0
85.867,-4.07,3.888,23.0
159.651,-7.515,6.322,19.0
0.0,0.0,0.0,0.0
85.241,-3.956,2.399,20.0
85.032,-3.919,1.911,29.0
28.382,-1.303,1.424,5.0
159.466,-7.269,7.097,24.0
31.395,-1.421,1.218,1.0
167.631,-7.533,5.54,5.0
31.358,-1.398,0.858,6.0
31.296,-1.385,0.678,32.0
31.331,-1.382,1.547,4.0
28.434,-1.244,1.242,3.0
28.439,-1.235,1.08,51.0
28.437,-1.226,0.916,62.0
28.435,-1.217,0.754,66.0
28.434,-1.208,0.593,97.0
28.43,-1.202,1.38,71.0
28.429,-1.193,1.218,102.0
28.421,-1.184,1.056,102.0
28.425,-1.174,0.891,107.0
28.44,-1.166,0.73,148.0
28.44,-1.157,0.568,150.0
28.431,-1.151,1.354,137.0
28.424,-1.141,1.192,92.0
28.438,-1.133,1.031,71.0
28.435,-1.124,0.866,69.0
28.453,-1.116,0.705,69.0
28.449,-1.106,0.542,24.0
31.263,-1.21,1.461,13.0
31.236,-1.198,1.281,47.0
31.241,-1.189,1.103,58.0
31.236,-1.179,0.922,47.0
31.273,-1.17,0.745,46.0
31.312,-1.162,0.568,53.0
31.265,-1.154,1.431,58.0
31.259,-1.144,1.252,44.0
31.261,-1.134,1.074,43.0
31.289,-1.125,0.893,44.0
31.349,-1.118,0.716,32.0
151.639,-5.36,2.601,3.0
31.287,-1.099,1.401,42.0
31.327,-1.091,1.224,24.0
31.35,-1.082,1.045,17.0
38.679,-1.322,1.065,2.0
38.704,-1.311,0.845,18.0
38.715,-1.3,0.624,30.0
38.633,-1.288,1.689,69.0
38.657,-1.277,1.469,72.0
38.627,-1.265,1.248,58.0
38.616,-1.253,1.023,67.0
38.624,-1.241,0.803,65.0
38.645,-1.23,0.582,63.0
38.634,-1.221,1.648,87.0
38.632,-1.209,1.427,73.0
38.579,-1.196,1.204,57.0
38.591,-1.184,0.98,74.0
38.632,-1.174,0.76,109.0
38.628,-1.162,0.54,83.0
38.639,-1.154,1.605,102.0
38.601,-1.14,1.382,63.0
38.543,-1.127,1.16,69.0
38.592,-1.117,0.936,72.0
38.624,-1.107,0.717,71.0
38.633,-1.095,0.496,67.0
38.65,-1.087,1.561,69.0
38.603,-1.074,1.338,64.0
38.572,-1.062,1.116,70.0
38.62,-1.052,0.892,59.0
38.653,-1.041,0.672,62.0
38.68,-1.031,0.451,53.0
38.757,-1.024,1.52,11.0
38.694,-1.01,1.295,44.0
38.639,-0.998,1.072,45.0
38.718,-0.988,0.848,38.0
40.409,-1.019,0.654,26.0
40.44,-1.009,0.423,24.0
40.441,-0.999,1.537,26.0
0.0,0.0,0.0,0.0
38.707,-0.934,1.027,44.0
40.409,-0.963,0.836,39.0
40.405,-0.951,0.604,38.0
40.417,-0.94,0.373,79.0
40.417,-0.931,1.485,39.0
40.402,-0.918,1.252,43.0
40.404,-0.907,1.021,26.0
38.395,-0.851,0.746,13.0
38.372,-0.839,0.525,36.0
38.382,-0.828,0.305,56.0
45.686,-0.976,1.62,7.0
45.715,-0.963,1.358,44.0
38.434,-0.799,0.921,2.0
52.958,-1.085,0.959,6.0
52.942,-1.07,0.655,48.0
52.929,-1.055,0.351,63.0
45.745,-0.9,1.561,44.0
64.317,-1.248,1.824,80.0
193.178,-3.695,4.371,19.0
0.0,0.0,0.0,0.0
203.371,-3.777,2.244,12.0
20.164,-0.369,0.106,1.0
64.294,-1.16,2.106,83.0
64.309,-1.143,1.737,39.0
176.648,-3.093,3.757,21.0
176.645,-3.047,2.725,103.0
20.142,-0.341,0.194,5.0
20.144,-0.336,0.079,42.0
64.301,-1.058,2.018,24.0
64.338,-1.041,1.649,3.0
53.516,-0.851,1.063,24.0
20.131,-0.314,0.282,8.0
20.113,-0.309,0.166,14.0
20.139,-0.304,0.05,22.0
53.502,-0.795,1.603,68.0
53.514,-0.781,1.295,63.0
20.138,-0.288,0.371,10.0
20.115,-0.282,0.253,13.0
20.127,-0.277,0.137,10.0
59.539,-0.805,0.064,68.0
59.445,-0.79,1.695,7.0
20.147,-0.262,0.458,11.0
20.132,-0.257,0.342,12.0
20.142,-0.252,0.224,12.0
56.224,-0.688,0.302,1.0
56.276,-0.674,-0.021,2.0
53.501,-0.628,1.446,10.0
20.139,-0.231,0.428,17.0
20.151,-0.226,0.312,15.0
64.259,-0.706,0.62,29.0
56.184,-0.602,0.218,7.0
56.22,-0.588,-0.105,13.0
20.15,-0.205,0.514,16.0
20.183,-0.201,0.398,25.0
53.369,-0.518,0.746,6.0
53.368,-0.505,0.433,11.0
53.365,-0.491,0.125,9.0
53.33,-0.478,-0.181,11.0
20.163,-0.175,0.483,12.0
20.269,-0.171,0.369,18.0
20.214,-0.166,0.251,13.0
20.202,-0.161,0.132,14.0
20.167,-0.156,0.016,19.0
20.166,-0.151,-0.1,18.0
20.207,-0.146,0.453,22.0
20.149,-0.141,0.335,15.0
20.129,-0.136,0.218,17.0
20.122,-0.131,0.1,19.0
20.144,-0.126,-0.015,25.0
20.144,-0.121,-0.131,27.0
20.128,-0.117,0.419,23.0
20.125,-0.112,0.303,25.0
20.129,-0.107,0.186,25.0
20.126,-0.103,0.068,38.0
20.14,-0.098,-0.047,27.0
20.144,-0.093,-0.163,38.0
20.112,-0.088,0.386,36.0
20.118,-0.084,0.27,27.0
20.126,-0.079,0.154,28.0
20.129,-0.074,0.036,35.0
20.137,-0.07,-0.08,35.0
20.146,-0.065,-0.196,24.0
20.13,-0.061,0.354,33.0
20.112,-0.056,0.237,31.0
20.124,-0.051,0.121,33.0
20.127,-0.047,0.002,35.0
20.163,-0.042,-0.113,32.0
20.155,-0.038,-0.229,9.0
20.127,-0.033,0.32,30.0
20.122,-0.028,0.203,31.0
20.123,-0.024,0.087,31.0
20.148,-0.02,-0.03,14.0
20.199,-0.015,-0.147,15.0
20.231,-0.011,-0.264,8.0
20.129,-0.006,0.286,28.0
20.126,-0.002,0.169,27.0
20.254,0.001,0.053,74.0
20.261,0.006,-0.065,151.0
20.257,0.01,-0.182,151.0
20.267,0.015,-0.3,150.0
20.144,0.019,0.251,28.0
20.135,0.023,0.135,28.0
20.257,0.028,0.019,30.0
20.252,0.032,-0.1,46.0
20.247,0.036,-0.217,138.0
20.249,0.041,-0.334,1.0
20.153,0.044,0.217,29.0
20.152,0.049,0.1,26.0
20.21,0.053,-0.016,31.0
20.206,0.057,-0.135,25.0
20.222,0.061,-0.252,1.0
42.199,0.137,-0.77,1.0
20.153,0.069,0.182,30.0
20.205,0.074,0.065,35.0
20.183,0.078,-0.051,29.0
20.18,0.082,-0.17,28.0
20.199,0.086,-0.287,16.0
0.0,0.0,0.0,0.0
20.162,0.094,0.146,26.0
20.187,0.098,0.029,32.0
20.192,0.102,-0.087,32.0
20.18,0.106,-0.206,25.0
20.195,0.11,-0.323,26.0
20.246,0.114,-0.441,0.0
20.194,0.118,0.11,37.0
20.18,0.121,-0.006,27.0
20.172,0.125,-0.123,36.0
20.175,0.129,-0.242,32.0
20.197,0.133,-0.359,30.0
20.196,0.137,-0.476,15.0
20.225,0.141,0.074,28.0
20.218,0.144,-0.042,23.0
20.194,0.148,-0.159,21.0
20.176,0.151,-0.278,33.0
20.176,0.155,-0.395,27.0
20.189,0.159,-0.513,25.0
20.296,0.163,0.037,29.0
20.206,0.166,-0.079,20.0
20.159,0.17,-0.196,19.0
20.169,0.173,-0.315,34.0
20.177,0.177,-0.432,28.0
20.199,0.181,-0.55,30.0
20.346,0.186,0.0,29.0
20.206,0.188,-0.117,10.0
20.193,0.192,-0.234,22.0
20.177,0.195,-0.352,32.0
20.179,0.198,-0.47,27.0
20.198,0.202,-0.587,33.0
20.326,0.207,-0.037,0.0
20.214,0.209,-0.154,2.0
20.185,0.212,-0.271,25.0
20.169,0.215,-0.39,29.0
20.187,0.219,-0.507,29.0
20.192,0.223,-0.625,32.0
0.0,0.0,0.0,0.0
20.2,0.229,-0.192,7.0
20.193,0.232,-0.309,23.0
20.199,0.236,-0.429,22.0
20.189,0.239,-0.545,27.0
20.212,0.243,-0.663,23.0
0.0,0.0,0.0,0.0
20.238,0.249,-0.231,0.0
20.183,0.252,-0.347,14.0
20.173,0.255,-0.466,17.0
20.215,0.258,-0.584,25.0
20.222,0.262,-0.702,23.0
0.0,0.0,0.0,0.0
0.0,0.0,0.0,0.0
20.196,0.27,-0.385,2.0
20.195,0.273,-0.504,7.0
20.216,0.277,-0.622,9.0
20.211,0.28,-0.74,7.0
0.0,0.0,0.0,0.0
0.0,0.0,0.0,0.0
37.445,0.534,-0.786,0.0
31.761,0.458,-0.855,1.0
26.714,0.389,-0.874,0.0
23.274,0.343,-0.897,0.0
0.0,0.0,0.0,0.0
42.744,0.64,-0.731,0.0
34.919,0.528,-0.8,0.0
30.049,0.459,-0.866,0.0
25.701,0.396,-0.89,0.0
20.17,0.314,-0.816,1.0
0.0,0.0,0.0,0.0
0.0,0.0,0.0,0.0
33.453,0.533,-0.831,0.0
28.379,0.456,-0.873,0.0
24.532,0.398,-0.897,0.0
20.107,0.329,-0.853,9.0
0.0,0.0,0.0,0.0
37.546,0.623,-0.788,0.0
31.713,0.53,-0.85,1.0
26.732,0.45,-0.874,0.0
23.248,0.395,-0.896,0.0
20.289,0.347,-0.9,3.0
42.893,0.737,-0.734,0.0
34.202,0.592,-0.784,1.0
30.231,0.528,-0.869,0.0
25.562,0.45,-0.886,0.0
22.445,0.397,-0.908,0.0
19.866,0.354,-0.92,0.0
0.0,0.0,0.0,0.0
33.578,0.605,-0.835,1.0
28.682,0.521,-0.88,0.0
24.463,0.447,-0.895,0.0
21.384,0.393,-0.907,0.0
18.898,0.35,-0.912,0.0
37.307,0.693,-0.784,0.0
31.651,0.592,-0.85,1.0
26.643,0.501,-0.87,0.0
22.983,0.435,-0.887,0.0
20.559,0.392,-0.913,0.0
18.425,0.353,-0.926,0.0
35.047,0.674,-0.806,0.0
29.534,0.571,-0.851,0.0
25.59,0.498,-0.886,0.0
22.396,0.438,-0.908,0.0
19.726,0.388,-0.915,0.0
17.823,0.353,-0.931,0.0
32.869,0.652,-0.821,0.0
28.367,0.565,-0.873,0.0
24.398,0.489,-0.893,0.0
21.225,0.428,-0.903,0.0
18.952,0.384,-0.917,0.0
17.058,0.347,-0.924,0.0
31.552,0.643,-0.85,1.0
26.652,0.546,-0.873,0.0
23.066,0.475,-0.89,0.0
20.552,0.425,-0.915,0.0
18.269,0.38,-0.92,0.0
16.605,0.347,-0.933,0.0
29.686,0.621,-0.859,0.0
25.411,0.534,-0.883,0.0
22.313,0.471,-0.905,0.0
19.739,0.418,-0.918,0.0
17.621,0.375,-0.922,0.0
16.152,0.346,-0.94,0.0
28.525,0.61,-0.882,0.0
24.276,0.522,-0.891,0.0
21.225,0.458,-0.903,0.0
18.82,0.408,-0.912,0.0
16.997,0.37,-0.923,0.0
15.534,0.339,-0.934,0.0
26.632,0.582,-0.876,0.0
22.829,0.501,-0.884,0.0
20.494,0.451,-0.913,0.0
18.252,0.403,-0.921,0.0
16.545,0.367,-0.931,0.0
15.127,0.337,-0.94,0.0
25.167,0.56,-0.877,0.0
22.229,0.496,-0.904,0.0
19.658,0.44,-0.914,0.0
17.744,0.399,-0.931,0.0
16.105,0.364,-0.939,0.0
14.69,0.333,-0.942,0.0
24.112,0.545,-0.888,0.0
21.125,0.479,-0.901,0.0
18.765,0.427,-0.909,0.0
16.931,0.387,-0.921,0.0
15.511,0.355,-0.935,0.0
14.395,0.331,-0.951,0.0
22.829,0.524,-0.886,0.0
20.368,0.469,-0.909,0.0
18.282,0.422,-0.922,0.0
16.479,0.381,-0.929,0.0
15.089,0.35,-0.939,0.0
0.0,0.0,0.0,0.0
22.178,0.515,-0.904,0.0
19.665,0.458,-0.916,0.0
17.755,0.414,-0.93,0.0
16.016,0.375,-0.934,0.0
14.655,0.344,-0.94,0.0
13.452,0.317,-0.941,0.0
20.985,0.492,-0.895,0.0
18.76,0.441,-0.91,0.0
16.941,0.399,-0.92,0.0
15.484,0.366,-0.933,0.0
14.381,0.341,-0.95,0.0
13.18,0.313,-0.948,0.0
20.367,0.482,-0.908,0.0
18.275,0.434,-0.921,0.0
16.511,0.393,-0.929,0.0
15.071,0.359,-0.937,0.0
13.935,0.333,-0.948,0.0
12.822,0.307,-0.947,0.0
19.574,0.467,-0.911,0.0
17.647,0.422,-0.924,0.0
16.091,0.385,-0.936,0.0
14.663,0.352,-0.94,0.0
13.428,0.323,-0.939,0.0
12.5,0.301,-0.948,0.0
18.778,0.45,-0.91,0.0
16.951,0.407,-0.92,0.0
15.482,0.372,-0.931,0.0
14.36,0.346,-0.948,0.0
13.171,0.318,-0.947,0.0
12.178,0.295,-0.947,0.0
18.246,0.439,-0.919,0.0
16.538,0.399,-0.929,0.0
15.082,0.364,-0.935,0.0
0.0,0.0,0.0,0.0
12.879,0.312,-0.95,0.0
11.847,0.287,-0.943,0.0
17.603,0.424,-0.92,0.0
16.038,0.387,-0.931,0.0
14.663,0.355,-0.937,0.0
13.495,0.327,-0.942,0.0
12.53,0.304,-0.948,0.0
11.525,0.28,-0.94,0.0
16.953,0.409,-0.917,0.0
15.524,0.375,-0.93,0.0
14.326,0.347,-0.942,0.0
13.182,0.319,-0.945,0.0
12.172,0.295,-0.944,0.0
11.335,0.275,-0.945,0.0
16.536,0.399,-0.925,0.0
15.108,0.365,-0.934,0.0
0.0,0.0,0.0,0.0
12.831,0.31,-0.944,0.0
11.91,0.288,-0.946,0.0
11.137,0.27,-0.95,0.0
16.092,0.387,-0.931,0.0
14.702,0.354,-0.936,0.0
13.471,0.324,-0.936,0.0
12.492,0.301,-0.942,0.0
11.592,0.279,-0.942,0.0
10.833,0.261,-0.944,0.0
15.539,0.372,-0.927,0.0
14.435,0.346,-0.945,0.0
13.201,0.316,-0.942,0.0
12.218,0.293,-0.944,0.0
11.388,0.273,-0.947,0.0
10.619,0.255,-0.945,0.0
15.187,0.362,-0.934,0.0
0.0,0.0,0.0,0.0
12.896,0.307,-0.944,0.0
11.919,0.284,-0.943,0.0
11.116,0.265,-0.944,0.0
10.396,0.248,-0.944,0.0
14.766,0.349,-0.935,0.0
13.631,0.322,-0.942,0.0
12.614,0.298,-0.946,0.0
11.606,0.274,-0.939,0.0
10.846,0.256,-0.941,0.0
10.233,0.242,-0.948,0.0
14.479,0.339,-0.942,0.0
13.318,0.312,-0.944,0.0
12.307,0.288,-0.944,0.0
11.372,0.266,-0.94,0.0
10.668,0.25,-0.944,0.0
10.022,0.235,-0.946,0.0
14.053,0.326,-0.939,0.0
12.976,0.301,-0.943,0.0
11.976,0.277,-0.94,0.0
11.136,0.258,-0.94,0.0
10.468,0.242,-0.945,0.0
9.847,0.228,-0.947,0.0
13.669,0.313,-0.938,0.0
12.64,0.289,-0.94,0.0
11.669,0.267,-0.936,0.0
11.111,0.254,-0.957,0.0
10.313,0.236,-0.949,0.0
9.666,0.221,-0.946,0.0
13.38,0.302,-0.941,0.0
12.389,0.28,-0.943,0.0
11.488,0.259,-0.941,0.0
10.721,0.241,-0.942,0.0
10.084,0.227,-0.945,0.0
9.504,0.214,-0.947,0.0
13.085,0.291,-0.942,0.0
12.109,0.269,-0.942,0.0
11.224,0.249,-0.939,0.0
10.521,0.233,-0.943,0.0
9.904,0.219,-0.945,0.0
9.33,0.206,-0.945,0.0
12.747,0.279,-0.939,0.0
11.847,0.258,-0.942,0.0
11.126,0.242,-0.949,0.0
10.342,0.225,-0.944,0.0
9.737,0.211,-0.946,0.0
9.155,0.198,-0.943,0.0
12.482,0.267,-0.94,0.0
11.615,0.248,-0.943,0.0
10.875,0.232,-0.946,0.0
10.168,0.217,-0.945,0.0
9.584,0.204,-0.946,0.0
8.967,0.19,-0.938,0.0
12.196,0.256,-0.939,0.0
11.365,0.238,-0.941,0.0
10.6,0.221,-0.939,0.0
9.988,0.208,-0.944,0.0
9.386,0.195,-0.942,0.0
8.844,0.184,-0.939,0.0
11.989,0.246,-0.942,0.0
11.2,0.229,-0.945,0.0
10.434,0.213,-0.941,0.0
9.845,0.2,-0.946,0.0
9.272,0.188,-0.945,0.0
8.733,0.177,-0.942,0.0
11.743,0.234,-0.941,0.0
11.011,0.219,-0.946,0.0
10.315,0.205,-0.946,0.0
9.682,0.192,-0.946,0.0
9.084,0.179,-0.94,0.0
8.586,0.169,-0.939,0.0
11.496,0.223,-0.939,0.0
10.701,0.207,-0.936,0.0
10.085,0.195,-0.941,0.0
9.498,0.183,-0.942,0.0
8.948,0.172,-0.94,0.0
8.494,0.162,-0.942,0.0
11.343,0.214,-0.943,0.0
10.596,0.199,-0.943,0.0
9.953,0.186,-0.943,0.0
9.366,0.175,-0.943,0.0
8.809,0.164,-0.939,0.0
8.385,0.155,-0.943,0.0
11.12,0.203,-0.941,0.0
10.393,0.189,-0.94,0.0
9.805,0.177,-0.944,0.0
9.224,0.166,-0.942,0.0
8.7,0.156,-0.94,0.0
8.242,0.147,-0.939,0.0
10.952,0.193,-0.943,0.0
10.252,0.179,-0.942,0.0
9.652,0.168,-0.943,0.0
9.072,0.157,-0.94,0.0
8.586,0.148,-0.94,0.0
8.166,0.14,-0.942,0.0
10.775,0.182,-0.943,0.0
10.114,0.17,-0.944,0.0
9.5,0.159,-0.942,0.0
8.961,0.149,-0.941,0.0
8.478,0.141,-0.94,0.0
8.019,0.132,-0.936,0.0
10.617,0.172,-0.944,0.0
9.928,0.16,-0.94,0.0
9.366,0.15,-0.941,0.0
8.826,0.141,-0.939,0.0
8.371,0.133,-0.94,0.0
7.978,0.126,-0.942,0.0
10.428,0.161,-0.941,0.0
9.828,0.151,-0.944,0.0
9.282,0.142,-0.945,0.0
8.716,0.133,-0.939,0.0
8.287,0.125,-0.941,0.0
7.898,0.119,-0.943,0.0
10.316,0.152,-0.944,0.0
9.659,0.141,-0.94,0.0
9.085,0.132,-0.937,0.0
8.626,0.124,-0.941,0.0
8.156,0.117,-0.937,0.0
7.821,0.111,-0.944,0.0
10.164,0.142,-0.943,0.0
9.564,0.132,-0.943,0.0
9.005,0.124,-0.94,0.0
8.469,0.116,-0.934,0.0
8.066,0.109,-0.937,0.0
7.748,0.104,-0.945,0.0
9.992,0.131,-0.94,0.0
9.448,0.123,-0.943,0.0
8.896,0.115,-0.94,0.0
8.425,0.108,-0.94,0.0
8.02,0.102,-0.941,0.0
7.64,0.096,-0.941,0.0
9.896,0.122,-0.943,0.0
9.311,0.114,-0.941,0.0
8.764,0.106,-0.936,0.0
8.363,0.1,-0.943,0.0
7.931,0.094,-0.94,0.0
7.596,0.089,-0.945,0.0
9.762,0.112,-0.941,0.0
9.198,0.104,-0.94,0.0
8.689,0.098,-0.939,0.0
8.236,0.091,-0.938,0.0
7.861,0.086,-0.941,0.0
7.526,0.082,-0.945,0.0
9.649,0.102,-0.941,0.0
9.084,0.095,-0.939,0.0
8.6,0.089,-0.939,0.0
8.193,0.084,-0.943,0.0
7.808,0.079,-0.944,0.0
7.462,0.074,-0.945,0.0
9.55,0.092,-0.942,0.0
8.989,0.086,-0.939,0.0
8.511,0.08,-0.938,0.0
8.07,0.075,-0.937,0.0
7.743,0.071,-0.944,0.0
7.414,0.067,-0.947,0.0
9.441,0.083,-0.941,0.0
8.893,0.077,-0.938,0.0
8.462,0.072,-0.942,0.0
7.986,0.067,-0.936,0.0
7.663,0.063,-0.943,0.0
7.335,0.059,-0.945,0.0
9.322,0.073,-0.939,0.0
8.783,0.067,-0.936,0.0
8.331,0.063,-0.935,0.0
7.924,0.059,-0.936,0.0
7.601,0.055,-0.942,0.0
7.319,0.052,-0.95,0.0
9.251,0.063,-0.941,0.0
8.741,0.059,-0.939,0.0
8.24,0.054,-0.933,0.0
7.906,0.051,-0.942,0.0
7.561,0.048,-0.945,0.0
7.219,0.044,-0.944,0.0
9.169,0.054,-0.941,0.0
8.651,0.049,-0.938,0.0
8.231,0.046,-0.94,0.0
7.829,0.042,-0.94,0.0
7.516,0.04,-0.946,0.0
7.196,0.037,-0.948,0.0
9.048,0.044,-0.937,0.0
8.561,0.04,-0.936,0.0
8.168,0.037,-0.94,0.0
7.757,0.034,-0.938,0.0
7.452,0.032,-0.944,0.0
7.176,0.029,-0.951,0.0
8.983,0.034,-0.938,0.0
8.522,0.031,-0.939,0.0
8.083,0.029,-0.937,0.0
7.709,0.026,-0.939,0.0
7.37,0.024,-0.94,0.0
7.11,0.022,-0.948,0.0
8.925,0.025,-0.939,0.0
8.439,0.022,-0.936,0.0
8.038,0.02,-0.938,0.0
7.693,0.018,-0.943,0.0
7.36,0.016,-0.945,0.0
7.095,0.014,-0.952,0.0
8.823,0.016,-0.935,0.0
8.402,0.014,-0.938,0.0
8.008,0.012,-0.94,0.0
7.628,0.01,-0.941,0.0
7.312,0.008,-0.944,0.0
7.043,0.007,-0.95,0.0
8.769,0.006,-0.935,0.0
8.32,0.005,-0.935,0.0
7.957,0.003,-0.94,0.0
7.598,0.002,-0.942,0.0
7.262,0.0,-0.943,0.0
6.983,0.0,-0.947,0.0
8.739,-0.002,-0.938,0.0
8.308,-0.003,-0.939,0.0
7.897,-0.005,-0.938,0.0
7.55,-0.006,-0.941,0.0
7.204,-0.006,-0.94,0.0
6.978,-0.007,-0.951,0.0
8.673,-0.012,-0.936,0.0
8.231,-0.012,-0.936,0.0
7.87,-0.013,-0.94,0.0
7.568,-0.014,-0.948,0.0
7.196,-0.014,-0.943,0.0
6.94,-0.015,-0.95,0.0
8.65,-0.021,-0.939,0.0
8.186,-0.021,-0.936,0.0
7.799,-0.022,-0.936,0.0
7.504,-0.022,-0.944,0.0
0.0,0.0,0.0,0.0
6.895,-0.023,-0.947,0.0
8.571,-0.03,-0.935,0.0
8.175,-0.03,-0.939,0.0
7.785,-0.03,-0.938,0.0
7.453,-0.03,-0.942,0.0
7.157,-0.03,-0.946,0.0
0.0,0.0,0.0,0.0
8.538,-0.04,-0.936,0.0
8.152,-0.039,-0.94,0.0
7.747,-0.039,-0.938,0.0
7.41,-0.038,-0.94,0.0
7.147,-0.038,-0.948,0.0
6.847,-0.038,-0.947,0.0
8.505,-0.049,-0.936,0.0
8.146,-0.049,-0.943,0.0
7.723,-0.047,-0.938,0.0
7.374,-0.047,-0.939,0.0
7.137,-0.046,-0.95,0.0
6.846,-0.046,-0.95,0.0
8.46,-0.058,-0.934,0.0
8.061,-0.057,-0.936,0.0
7.744,-0.056,-0.944,0.0
7.386,-0.055,-0.943,0.0
7.07,-0.054,-0.943,0.0
6.832,-0.054,-0.951,0.0
8.438,-0.068,-0.935,0.0
8.036,-0.066,-0.936,0.0
7.664,-0.065,-0.937,0.0
7.344,-0.063,-0.94,0.0
7.05,-0.062,-0.943,0.0
6.799,-0.061,-0.948,0.0
8.401,-0.077,-0.934,0.0
8.029,-0.075,-0.938,0.0
7.719,-0.074,-0.946,0.0
7.323,-0.071,-0.94,0.0
7.051,-0.07,-0.945,0.0
6.814,-0.069,-0.952,0.0
8.39,-0.087,-0.935,0.0
8.047,-0.084,-0.942,0.0
7.66,-0.082,-0.94,0.0
7.372,-0.08,-0.948,0.0
7.078,-0.078,-0.95,0.0
