X,Y,Z,Reflectivity
14.374,-0.389,-0.948,0.0
13.213,-0.361,-0.949,0.0
18.923,-0.521,-0.835,1.0
18.814,-0.522,-0.94,0.0
15.458,-0.436,-0.953,0.0
14.139,-0.402,-0.954,0.0
13.022,-0.373,-0.954,0.0
18.394,-0.531,-0.838,1.0
18.227,-0.53,-0.936,0.0
18.24,-0.534,-1.042,0.0
14.981,-0.442,-0.944,0.0
13.876,-0.412,-0.955,0.0
12.762,-0.382,-0.953,0.0
17.918,-0.541,-0.841,0.0
17.732,-0.539,-0.935,0.0
17.65,-0.54,-1.033,0.0
14.603,-0.45,-0.94,0.0
13.48,-0.419,-0.946,0.0
12.628,-0.395,-0.96,0.0
17.447,-0.55,-0.842,1.0
17.352,-0.551,-0.938,0.0
17.263,-0.552,-1.033,0.0
14.433,-0.465,-0.949,0.0
13.343,-0.433,-0.954,0.0
12.379,-0.404,-0.957,0.0
17.059,-0.561,-0.846,0.0
16.916,-0.56,-0.936,0.0
15.433,-0.515,-0.943,0.0
14.23,-0.478,-0.954,0.0
13.105,-0.443,-0.954,0.0
12.201,-0.415,-0.959,0.0
16.61,-0.569,-0.845,0.0
16.43,-0.567,-0.93,0.0
16.286,-0.566,-1.016,0.0
13.908,-0.486,-0.95,0.0
12.939,-0.456,-0.958,0.0
11.943,-0.423,-0.954,0.0
16.234,-0.579,-0.845,1.0
16.223,-0.582,-0.938,2.0
14.79,-0.534,-0.941,0.0
13.622,-0.496,-0.947,0.0
12.717,-0.466,-0.957,0.0
11.76,-0.434,-0.953,0.0
16.057,-0.595,-0.855,1.0
16.011,-0.598,-0.945,0.0
14.514,-0.545,-0.941,0.0
13.481,-0.51,-0.953,0.0
12.527,-0.477,-0.958,0.0
11.58,-0.444,-0.952,0.0
15.948,-0.614,-0.868,1.0
15.922,-0.617,-0.958,0.0
14.447,-0.563,-0.953,0.0
13.363,-0.524,-0.96,0.0
12.367,-0.488,-0.96,0.0
11.403,-0.453,-0.951,0.0
15.856,-0.634,-0.881,1.0
15.806,-0.635,-0.969,0.0
14.208,-0.575,-0.953,0.0
13.201,-0.537,-0.963,0.0
12.219,-0.5,-0.962,0.0
11.295,-0.465,-0.954,0.0
15.77,-0.653,-0.893,1.0
15.726,-0.655,-0.981,0.0
13.932,-0.584,-0.949,0.0
12.985,-0.547,-0.961,0.0
12.012,-0.509,-0.958,0.0
11.134,-0.475,-0.952,0.0
15.693,-0.673,-0.905,1.0
15.355,-0.662,-0.974,0.0
13.712,-0.595,-0.948,0.0
12.767,-0.557,-0.958,0.0
11.832,-0.519,-0.956,0.0
11.038,-0.487,-0.955,0.0
15.616,-0.692,-0.916,0.0
14.688,-0.655,-0.946,0.0
13.547,-0.608,-0.95,0.0
12.628,-0.57,-0.96,0.0
11.68,-0.53,-0.955,0.0
10.924,-0.499,-0.956,0.0
15.5,-0.711,-0.924,0.0
14.511,-0.669,-0.948,0.0
13.421,-0.622,-0.954,0.0
12.473,-0.581,-0.96,0.0
11.524,-0.54,-0.953,0.0
10.849,-0.511,-0.96,0.0
15.444,-0.731,-0.935,0.0
14.437,-0.687,-0.956,0.0
13.321,-0.637,-0.959,0.0
12.323,-0.593,-0.959,0.0
11.437,-0.553,-0.956,0.0
10.712,-0.521,-0.957,0.0
15.335,-0.748,-0.942,0.0
14.325,-0.703,-0.961,0.0
13.137,-0.648,-0.957,0.0
12.175,-0.604,-0.958,0.0
11.326,-0.565,-0.956,0.0
10.588,-0.531,-0.955,0.0
15.291,-0.769,-0.951,0.0
14.19,-0.717,-0.964,0.0
13.035,-0.662,-0.96,0.0
12.112,-0.619,-0.963,0.0
11.253,-0.578,-0.959,0.0
10.493,-0.542,-0.955,0.0
15.189,-0.787,-0.957,0.0
13.811,-0.719,-0.949,0.0
12.855,-0.672,-0.957,0.0
11.964,-0.629,-0.96,0.0
11.077,-0.586,-0.953,0.0
10.431,-0.554,-0.957,0.0
14.932,-0.796,-0.952,1.0
13.704,-0.734,-0.952,0.0
12.763,-0.687,-0.959,0.0
11.837,-0.64,-0.959,0.0
11.049,-0.601,-0.958,0.0
10.346,-0.565,-0.956,0.0
14.896,-0.816,-0.96,4.0
13.725,-0.755,-0.963,0.0
12.64,-0.699,-0.959,0.0
11.699,-0.65,-0.955,0.0
10.903,-0.609,-0.953,0.0
10.267,-0.576,-0.956,0.0
14.869,-0.837,-0.968,1.0
13.531,-0.765,-0.958,0.0
12.532,-0.712,-0.959,0.0
11.622,-0.664,-0.957,0.0
10.868,-0.624,-0.957,0.0
10.198,-0.588,-0.956,0.0
14.836,-0.857,-0.975,0.0
24.516,-1.424,-1.751,0.0
12.489,-0.728,-0.963,0.0
11.58,-0.679,-0.96,0.0
10.711,-0.631,-0.949,0.0
10.141,-0.6,-0.957,0.0
14.726,-0.873,-0.976,0.0
24.572,-1.464,-1.769,0.0
12.403,-0.742,-0.963,0.0
11.468,-0.689,-0.957,0.0
10.667,-0.644,-0.951,0.0
10.103,-0.613,-0.959,0.0
14.648,-0.891,-0.979,0.0
24.522,-1.498,-1.778,0.0
12.395,-0.761,-0.969,0.0
11.41,-0.703,-0.958,0.0
10.615,-0.657,-0.952,0.0
10.032,-0.624,-0.957,0.0
14.501,-0.903,-0.976,0.0
13.115,-0.821,-0.957,0.0
12.26,-0.771,-0.964,0.0
11.316,-0.714,-0.956,0.0
10.612,-0.673,-0.956,0.0
9.981,-0.636,-0.957,0.0
14.21,-0.907,-0.963,0.0
13.061,-0.837,-0.959,0.0
12.153,-0.782,-0.961,0.0
11.256,-0.728,-0.955,0.0
10.546,-0.685,-0.955,0.0
9.959,-0.65,-0.959,0.0
14.106,-0.921,-0.961,0.0
12.973,-0.851,-0.958,0.0
12.066,-0.795,-0.959,0.0
11.22,-0.742,-0.956,0.0
10.501,-0.697,-0.955,0.0
9.933,-0.663,-0.96,0.0
14.091,-0.941,-0.965,0.0
12.968,-0.869,-0.962,0.0
12.006,-0.808,-0.958,0.0
11.131,-0.752,-0.953,0.0
10.473,-0.711,-0.956,0.0
9.903,-0.675,-0.96,0.0
14.02,-0.957,-0.965,0.0
12.906,-0.884,-0.961,0.0
11.999,-0.826,-0.961,0.0
11.128,-0.769,-0.956,0.0
10.481,-0.727,-0.96,0.0
9.879,-0.688,-0.96,0.0
13.988,-0.975,-0.967,0.0
12.919,-0.904,-0.965,0.0
11.931,-0.839,-0.959,0.0
11.113,-0.784,-0.957,0.0
10.441,-0.74,-0.958,0.0
9.849,-0.701,-0.96,0.0
13.943,-0.992,-0.967,0.0
12.849,-0.918,-0.963,0.0
11.987,-0.86,-0.966,0.0
10.994,-0.792,-0.949,0.0
10.455,-0.756,-0.962,0.0
9.83,-0.714,-0.96,0.0
13.973,-1.015,-0.971,0.0
12.843,-0.936,-0.965,0.0
11.925,-0.873,-0.963,0.0
11.039,-0.811,-0.955,0.0
10.375,-0.765,-0.956,0.0
9.812,-0.727,-0.96,0.0
13.971,-1.035,-0.973,0.0
12.785,-0.95,-0.962,0.0
11.883,-0.887,-0.961,0.0
11.061,-0.828,-0.958,0.0
10.389,-0.781,-0.958,0.0
9.786,-0.739,-0.958,0.0
13.989,-1.056,-0.976,0.0
12.781,-0.968,-0.963,0.0
11.863,-0.902,-0.961,0.0
11.017,-0.841,-0.955,0.0
10.423,-0.798,-0.962,0.0
9.805,-0.754,-0.961,0.0
13.979,-1.075,-0.976,0.0
12.768,-0.985,-0.963,0.0
11.869,-0.919,-0.962,0.0
11.024,-0.857,-0.956,0.0
10.397,-0.811,-0.96,0.0
9.831,-0.77,-0.963,0.0
14.113,-1.105,-0.985,0.0
12.835,-1.008,-0.968,0.0
11.897,-0.938,-0.964,0.0
11.066,-0.875,-0.96,0.0
10.396,-0.825,-0.96,0.0
9.797,-0.781,-0.96,0.0
14.078,-1.121,-0.982,0.0
12.816,-1.024,-0.966,0.0
11.89,-0.954,-0.963,0.0
11.037,-0.888,-0.957,0.0
10.401,-0.84,-0.96,0.0
9.814,-0.795,-0.961,0.0
14.065,-1.139,-0.981,0.0
12.84,-1.044,-0.967,0.0
11.92,-0.972,-0.964,0.0
11.052,-0.904,-0.957,0.0
10.423,-0.856,-0.961,0.0
9.831,-0.81,-0.961,0.0
14.091,-1.161,-0.981,0.0
12.838,-1.061,-0.965,0.0
11.912,-0.987,-0.962,0.0
11.1,-0.923,-0.96,0.0
10.469,-0.874,-0.964,0.0
9.833,-0.823,-0.96,0.0
14.072,-1.177,-0.977,0.0
12.815,-1.076,-0.961,0.0
11.946,-1.006,-0.963,0.0
11.095,-0.937,-0.957,0.0
10.479,-0.888,-0.963,0.0
9.859,-0.839,-0.961,0.0
14.036,-1.193,-0.972,1.0
12.883,-1.098,-0.964,0.0
11.983,-1.025,-0.963,0.0
11.129,-0.955,-0.958,0.0
10.463,-0.901,-0.959,0.0
9.9,-0.855,-0.963,0.0
14.015,-1.209,-0.967,1.0
12.936,-1.119,-0.965,0.0
12.014,-1.043,-0.963,0.0
11.193,-0.974,-0.96,0.0
10.493,-0.916,-0.959,0.0
9.897,-0.867,-0.96,0.0
13.974,-1.223,-0.961,1.0
13.026,-1.144,-0.968,0.0
12.096,-1.065,-0.966,0.0
11.214,-0.99,-0.959,0.0
10.546,-0.934,-0.96,0.0
9.939,-0.883,-0.961,0.0
13.949,-1.238,-0.955,1.0
13.151,-1.171,-0.973,0.0
12.109,-1.081,-0.963,0.0
11.278,-1.01,-0.961,0.0
10.596,-0.952,-0.961,0.0
9.975,-0.899,-0.961,0.0
13.918,-1.252,-0.948,1.0
13.163,-1.188,-0.969,0.0
12.164,-1.101,-0.963,0.0
11.32,-1.027,-0.96,0.0
10.624,-0.967,-0.96,0.0
10.014,-0.914,-0.96,0.0
13.872,-1.265,-0.939,1.0
13.256,-1.212,-0.971,0.0
12.277,-1.125,-0.967,0.0
11.422,-1.05,-0.964,0.0
0.0,0.0,0.0,0.0
10.084,-0.932,-0.963,0.0
13.857,-1.28,-0.932,1.0
13.331,-1.234,-0.97,0.0
12.395,-1.151,-0.971,0.0
11.521,-1.072,-0.967,0.0
10.832,-1.011,-0.969,0.0
10.136,-0.949,-0.963,0.0
13.822,-1.292,-0.923,1.0
13.513,-1.266,-0.977,0.0
12.481,-1.172,-0.971,0.0
11.609,-1.093,-0.969,0.0
10.798,-1.02,-0.961,0.0
10.211,-0.967,-0.965,0.0
13.811,-1.306,-0.916,1.0
13.733,-1.302,-0.986,0.0
12.534,-1.191,-0.969,0.0
11.729,-1.118,-0.973,0.0
10.876,-1.039,-0.962,0.0
10.229,-0.98,-0.961,0.0
13.787,-1.319,-0.907,1.0
13.71,-1.315,-0.977,1.0
12.702,-1.221,-0.975,0.0
11.827,-1.14,-0.974,0.0
11.09,-1.071,-0.975,0.0
10.291,-0.997,-0.961,0.0
13.741,-1.329,-0.896,1.0
13.703,-1.328,-0.969,1.0
12.782,-1.242,-0.974,0.0
11.856,-1.155,-0.97,0.0
11.094,-1.083,-0.968,0.0
10.379,-1.016,-0.963,0.0
13.726,-1.341,-0.887,1.0
13.704,-1.342,-0.96,1.0
12.988,-1.275,-0.981,0.0
11.935,-1.174,-0.968,0.0
11.118,-1.096,-0.963,0.0
10.417,-1.03,-0.96,0.0
13.717,-1.354,-0.877,1.0
13.692,-1.354,-0.95,1.0
13.061,-1.295,-0.978,0.0
12.013,-1.194,-0.967,0.0
11.229,-1.118,-0.965,0.0
10.527,-1.051,-0.963,0.0
13.686,-1.364,-0.866,2.0
13.672,-1.365,-0.94,1.0
13.159,-1.317,-0.977,0.0
12.12,-1.216,-0.967,0.0
11.335,-1.139,-0.967,0.0
10.606,-1.068,-0.963,0.0
13.694,-1.377,-0.857,1.0
13.64,-1.375,-0.928,1.0
13.413,-1.355,-0.986,0.0
12.207,-1.235,-0.965,0.0
11.472,-1.163,-0.97,0.0
10.635,-1.081,-0.957,0.0
13.749,-1.395,-0.85,0.0
13.621,-1.385,-0.916,1.0
13.545,-1.38,-0.985,1.0
12.379,-1.264,-0.969,0.0
11.599,-1.186,-0.972,0.0
10.803,-1.107,-0.964,0.0
13.891,-1.421,-0.848,0.0
13.621,-1.396,-0.906,1.0
13.533,-1.39,-0.974,1.0
12.979,-1.336,-1.006,0.0
11.721,-1.208,-0.973,0.0
10.923,-1.128,-0.966,0.0
14.023,-1.447,-0.845,0.0
13.599,-1.405,-0.893,1.0
13.545,-1.402,-0.963,2.0
12.843,-1.332,-0.985,0.0
11.831,-1.229,-0.972,0.0
11.042,-1.15,-0.967,0.0
14.141,-1.47,-0.84,1.0
13.585,-1.414,-0.881,1.0
13.557,-1.414,-0.953,1.0
12.932,-1.351,-0.981,0.0
11.969,-1.253,-0.973,0.0
11.163,-1.171,-0.968,0.0
14.283,-1.495,-0.836,1.0
13.571,-1.423,-0.868,1.0
13.555,-1.424,-0.941,1.0
13.142,-1.383,-0.985,0.0
12.116,-1.277,-0.974,0.0
11.285,-1.191,-0.969,0.0
14.437,-1.522,-0.833,0.0
13.585,-1.434,-0.857,1.0
13.533,-1.431,-0.927,1.0
13.401,-1.419,-0.992,0.0
12.242,-1.298,-0.973,0.0
11.424,-1.214,-0.97,0.0
14.589,-1.548,-0.828,1.0
13.717,-1.457,-0.853,0.0
13.515,-1.438,-0.914,1.0
13.501,-1.438,-0.987,0.0
12.779,-1.364,-1.004,0.0
11.561,-1.236,-0.971,0.0
14.77,-1.576,-0.824,1.0
13.869,-1.482,-0.849,0.0
13.512,-1.446,-0.9,1.0
13.506,-1.447,-0.975,1.0
13.311,-1.428,-1.033,0.0
11.709,-1.258,-0.972,0.0
14.975,-1.607,-0.821,1.0
14.001,-1.504,-0.844,0.0
13.491,-1.451,-0.886,1.0
13.506,-1.455,-0.961,1.0
13.087,-1.412,-1.002,0.0
11.869,-1.282,-0.973,0.0
15.181,-1.637,-0.818,1.0
14.206,-1.534,-0.842,0.0
13.487,-1.458,-0.872,1.0
13.472,-1.458,-0.945,1.0
13.104,-1.42,-0.99,0.0
12.086,-1.312,-0.979,0.0
15.308,-1.659,-0.809,1.0
14.329,-1.555,-0.834,1.0
13.514,-1.468,-0.86,1.0
13.401,-1.457,-0.926,5.0
13.327,-1.451,-0.993,0.0
12.187,-1.329,-0.974,0.0
15.481,-1.685,-0.802,1.0
14.489,-1.579,-0.829,0.0
13.628,-1.487,-0.853,0.0
13.382,-1.461,-0.911,7.0
13.404,-1.465,-0.985,1.0
0.0,0.0,0.0,0.0
15.749,-1.721,-0.799,0.0
14.727,-1.611,-0.826,0.0
13.813,-1.512,-0.849,0.0
13.432,-1.472,-0.9,3.0
13.388,-1.469,-0.969,3.0
13.342,-1.466,-1.038,0.0
16.002,-1.755,-0.795,1.0
14.961,-1.642,-0.823,1.0
13.999,-1.538,-0.846,0.0
13.446,-1.479,-0.886,1.0
13.38,-1.473,-0.954,5.0
13.334,-1.469,-1.022,1.0
16.214,-1.784,-0.788,1.0
15.12,-1.665,-0.815,1.0
14.144,-1.559,-0.839,1.0
13.447,-1.483,-0.871,1.0
13.38,-1.477,-0.939,12.0
13.313,-1.471,-1.006,1.0
16.453,-1.815,-0.781,1.0
15.306,-1.69,-0.809,1.0
14.327,-1.583,-0.834,1.0
13.477,-1.49,-0.858,1.0
13.388,-1.481,-0.924,13.0
13.343,-1.478,-0.993,4.0
16.831,-1.861,-0.78,1.0
15.521,-1.718,-0.802,0.0
14.506,-1.606,-0.828,0.0
13.643,-1.512,-0.853,0.0
13.388,-1.485,-0.909,5.0
13.359,-1.482,-0.979,13.0
17.137,-1.899,-0.774,1.0
15.838,-1.756,-0.8,0.0
14.808,-1.643,-0.828,1.0
13.857,-1.538,-0.85,0.0
13.426,-1.491,-0.896,2.0
13.365,-1.486,-0.964,13.0
17.479,-1.94,-0.77,1.0
16.071,-1.784,-0.794,1.0
15.0,-1.666,-0.821,1.0
14.04,-1.561,-0.845,1.0
13.443,-1.495,-0.881,1.0
13.361,-1.487,-0.948,12.0
17.994,-2.0,-0.771,2.0
16.312,-1.813,-0.786,1.0
15.192,-1.689,-0.813,1.0
14.216,-1.582,-0.839,1.0
13.454,-1.498,-0.866,1.0
13.372,-1.489,-0.932,12.0
18.31,-2.036,-0.763,2.0
16.678,-1.855,-0.784,1.0
15.407,-1.715,-0.806,1.0
14.406,-1.604,-0.832,1.0
13.549,-1.509,-0.855,0.0
13.374,-1.49,-0.916,5.0
18.807,-2.092,-0.761,1.0
16.99,-1.891,-0.778,1.0
15.648,-1.742,-0.8,0.0
14.671,-1.633,-0.83,0.0
13.823,-1.539,-0.856,0.0
13.428,-1.496,-0.903,2.0
19.306,-2.148,-0.757,1.0
17.337,-1.929,-0.773,1.0
15.974,-1.778,-0.797,1.0
14.927,-1.662,-0.826,1.0
13.977,-1.556,-0.848,1.0
13.427,-1.495,-0.887,2.0
19.828,-2.205,-0.753,1.0
17.829,-1.983,-0.773,2.0
16.215,-1.804,-0.789,1.0
15.138,-1.684,-0.819,1.0
14.174,-1.577,-0.843,1.0
13.436,-1.495,-0.871,1.0
20.427,-2.27,-0.751,3.0
18.242,-2.027,-0.768,2.0
16.542,-1.838,-0.784,1.0
15.318,-1.702,-0.809,1.0
14.378,-1.598,-0.837,1.0
13.507,-1.501,-0.858,0.0
20.848,-2.314,-0.741,4.0
18.722,-2.078,-0.765,1.0
16.896,-1.875,-0.78,1.0
15.57,-1.728,-0.803,0.0
14.605,-1.62,-0.831,0.0
13.737,-1.524,-0.855,0.0
21.321,-2.363,-0.731,2.0
19.189,-2.126,-0.76,1.0
17.267,-1.913,-0.775,1.0
15.927,-1.764,-0.802,1.0
14.919,-1.652,-0.83,1.0
13.945,-1.544,-0.851,0.0
22.141,-2.449,-0.731,3.0
19.629,-2.17,-0.752,1.0
17.721,-1.959,-0.774,0.0
16.168,-1.786,-0.793,1.0
15.114,-1.669,-0.822,1.0
14.13,-1.561,-0.844,1.0
22.753,-2.51,-0.722,5.0
20.365,-2.246,-0.755,1.0
18.191,-2.005,-0.771,1.0
16.43,-1.81,-0.785,1.0
15.308,-1.686,-0.813,1.0
14.336,-1.579,-0.838,1.0
23.325,-2.566,-0.711,4.0
20.835,-2.291,-0.746,3.0
18.712,-2.056,-0.769,1.0
16.871,-1.853,-0.785,1.0
15.564,-1.709,-0.807,0.0
14.575,-1.6,-0.833,0.0
24.409,-2.676,-0.712,5.0
21.308,-2.335,-0.735,2.0
19.125,-2.094,-0.761,1.0
17.223,-1.885,-0.779,1.0
15.926,-1.742,-0.805,1.0
14.865,-1.625,-0.831,1.0
25.122,-2.744,-0.701,6.0
22.127,-2.415,-0.735,3.0
19.689,-2.148,-0.759,2.0
17.745,-1.934,-0.78,1.0
16.169,-1.761,-0.796,1.0
15.111,-1.645,-0.825,1.0
25.805,-2.807,-0.687,5.0
22.69,-2.466,-0.724,4.0
20.305,-2.205,-0.756,2.0
18.082,-1.962,-0.771,1.0
16.409,-1.779,-0.787,1.0
15.316,-1.66,-0.816,1.0
26.764,-2.898,-0.679,3.0
23.328,-2.524,-0.715,2.0
20.822,-2.251,-0.749,3.0
18.609,-2.01,-0.77,0.0
16.906,-1.824,-0.789,1.0
15.545,-1.676,-0.809,1.0
27.519,-2.965,-0.662,2.0
24.388,-2.625,-0.716,5.0
21.326,-2.293,-0.74,2.0
19.171,-2.059,-0.769,1.0
17.238,-1.85,-0.783,1.0
15.87,-1.702,-0.805,1.0
28.39,-3.042,-0.647,2.0
25.105,-2.687,-0.705,6.0
22.178,-2.371,-0.741,4.0
19.645,-2.098,-0.762,1.0
17.723,-1.891,-0.782,0.0
16.166,-1.723,-0.799,1.0
30.03,-3.198,-0.646,5.0
25.884,-2.753,-0.694,6.0
22.707,-2.412,-0.729,3.0
20.233,-2.147,-0.759,2.0
18.189,-1.928,-0.779,1.0
16.451,-1.742,-0.792,1.0
31.057,-3.286,-0.628,9.0
26.721,-2.824,-0.683,5.0
23.378,-2.467,-0.721,5.0
20.812,-2.194,-0.755,4.0
18.653,-1.964,-0.775,1.0
16.821,-1.769,-0.789,1.0
32.048,-3.368,-0.608,10.0
27.408,-2.876,-0.666,2.0
24.392,-2.557,-0.722,4.0
21.309,-2.23,-0.746,2.0
19.17,-2.004,-0.773,1.0
17.138,-1.789,-0.782,0.0
32.818,-3.424,-0.582,22.0
28.216,-2.939,-0.65,1.0
25.172,-2.618,-0.714,6.0
21.952,-2.28,-0.741,1.0
19.666,-2.04,-0.768,1.0
17.741,-1.838,-0.787,1.0
33.623,-3.48,-0.554,30.0
30.095,-3.11,-0.656,1.0
25.907,-2.673,-0.702,6.0
22.724,-2.341,-0.739,2.0
20.155,-2.073,-0.762,2.0
18.137,-1.863,-0.783,1.0
34.502,-3.542,-0.526,29.0
30.818,-3.158,-0.634,5.0
26.638,-2.725,-0.689,6.0
23.229,-2.373,-0.726,3.0
20.616,-2.102,-0.755,1.0
18.518,-1.886,-0.776,1.0
35.228,-3.585,-0.494,12.0
32.427,-3.294,-0.627,10.0
27.491,-2.787,-0.678,3.0
24.228,-2.452,-0.728,3.0
21.183,-2.14,-0.749,1.0
19.111,-1.928,-0.778,1.0
37.548,-3.785,-0.481,7.0
33.262,-3.347,-0.603,10.0
28.116,-2.824,-0.659,2.0
24.999,-2.506,-0.721,5.0
21.885,-2.19,-0.748,1.0
19.545,-1.952,-0.772,1.0
0.0,0.0,0.0,0.0
34.002,-3.388,-0.575,18.0
29.832,-2.966,-0.664,1.0
25.839,-2.564,-0.715,6.0
22.648,-2.243,-0.747,3.0
20.036,-1.981,-0.767,2.0
0.0,0.0,0.0,0.0
34.674,-3.419,-0.546,17.0
30.659,-3.017,-0.646,2.0
26.445,-2.597,-0.7,6.0
23.175,-2.271,-0.737,4.0
20.48,-2.003,-0.76,2.0
44.985,-4.397,-0.417,20.0
35.297,-3.442,-0.514,11.0
31.85,-3.099,-0.633,4.0
27.336,-2.654,-0.692,4.0
24.124,-2.337,-0.739,5.0
21.084,-2.039,-0.758,1.0
46.477,-4.491,-0.376,21.0
37.91,-3.655,-0.509,9.0
33.789,-3.25,-0.633,4.0
28.086,-2.695,-0.678,7.0
24.763,-2.371,-0.73,5.0
21.716,-2.075,-0.756,2.0
50.167,-4.79,-0.349,3.0
39.911,-3.801,-0.489,15.0
34.495,-3.278,-0.607,11.0
28.7,-2.721,-0.661,3.0
25.593,-2.42,-0.725,6.0
22.058,-2.081,-0.743,1.0
0.0,0.0,0.0,0.0
0.0,0.0,0.0,0.0
35.101,-3.293,-0.578,14.0
30.179,-2.824,-0.661,3.0
26.125,-2.439,-0.711,6.0
22.87,-2.129,-0.744,2.0
55.099,-5.127,-0.259,30.0
0.0,0.0,0.0,0.0
0.0,0.0,0.0,0.0
30.873,-2.85,-0.642,3.0
27.104,-2.496,-0.708,6.0
23.626,-2.17,-0.743,6.0
55.565,-5.1,-0.2,19.0
0.0,0.0,0.0,0.0
38.478,-3.512,-0.549,15.0
32.386,-2.948,-0.638,3.0
27.756,-2.52,-0.695,4.0
23.828,-2.157,-0.723,13.0
55.676,-5.038,-0.141,12.0
47.797,-4.312,-0.376,19.0
39.614,-3.563,-0.523,15.0
33.489,-3.004,-0.624,2.0
28.712,-2.568,-0.688,3.0
23.862,-2.128,-0.699,12.0
56.101,-5.0,-0.082,6.0
50.216,-4.462,-0.342,19.0
40.35,-3.575,-0.49,15.0
35.071,-3.098,-0.617,2.0
29.852,-2.629,-0.684,5.0
23.992,-2.106,-0.678,4.0
56.815,-4.985,-0.025,1.0
54.748,-4.788,-0.316,15.0
44.737,-3.9,-0.498,4.0
36.16,-3.143,-0.599,3.0
30.473,-2.641,-0.668,7.0
26.932,-2.326,-0.734,1.0
0.0,0.0,0.0,0.0
55.128,-4.743,-0.263,4.0
45.94,-3.94,-0.465,21.0
37.793,-3.23,-0.588,13.0
31.019,-2.643,-0.649,3.0
27.218,-2.312,-0.715,3.0
0.0,0.0,0.0,0.0
60.985,-5.159,-0.232,1.0
46.82,-3.947,-0.428,21.0
39.014,-3.278,-0.569,14.0
32.09,-2.687,-0.64,2.0
27.838,-2.323,-0.704,5.0
79.433,-6.624,0.198,31.0
79.409,-6.598,-0.225,4.0
0.0,0.0,0.0,0.0
39.952,-3.296,-0.545,15.0
33.12,-2.723,-0.629,1.0
28.707,-2.352,-0.699,3.0
79.49,-6.507,0.274,30.0
79.65,-6.496,-0.151,13.0
50.361,-4.092,-0.365,12.0
41.15,-3.332,-0.523,16.0
34.75,-2.803,-0.628,1.0
29.571,-2.377,-0.693,8.0
79.385,-6.376,0.345,27.0
79.919,-6.394,-0.08,29.0
54.136,-4.315,-0.344,7.0
45.565,-3.618,-0.539,3.0
35.188,-2.784,-0.605,1.0
30.348,-2.392,-0.684,8.0
61.532,-4.845,0.322,12.0
61.522,-4.824,-0.007,2.0
57.318,-4.478,-0.314,3.0
46.082,-3.585,-0.504,21.0
36.296,-2.813,-0.592,1.0
30.831,-2.38,-0.668,3.0
0.0,0.0,0.0,0.0
65.563,-5.035,0.047,150.0
61.553,-4.707,-0.285,7.0
47.072,-3.585,-0.475,16.0
38.552,-2.924,-0.596,3.0
31.482,-2.378,-0.656,2.0
65.65,-4.954,0.455,1.0
65.556,-4.926,0.102,202.0
61.585,-4.608,-0.234,2.0
0.0,0.0,0.0,0.0
0.0,0.0,0.0,0.0
32.372,-2.391,-0.648,2.0
65.649,-4.843,0.508,3.0
65.52,-4.812,0.155,30.0
66.294,-4.847,-0.199,2.0
49.812,-3.626,-0.422,9.0
40.625,-2.944,-0.563,2.0
33.555,-2.421,-0.646,2.0
65.635,-4.73,0.559,2.0
65.538,-4.7,0.206,1.0
65.91,-4.705,-0.147,3.0
53.392,-3.794,-0.412,16.0
44.427,-3.142,-0.582,0.0
34.259,-2.412,-0.633,2.0
65.578,-4.61,0.608,21.0
65.594,-4.589,0.255,1.0
65.778,-4.58,-0.098,3.0
53.705,-3.722,-0.375,5.0
44.724,-3.084,-0.553,3.0
34.987,-2.401,-0.621,1.0
65.61,-4.496,0.656,150.0
65.508,-4.467,0.301,1.0
65.805,-4.464,-0.051,1.0
56.832,-3.836,-0.356,9.0
24.572,-1.65,-0.286,2.0
24.529,-1.639,-0.418,24.0
24.599,-1.641,0.262,15.0
24.582,-1.631,0.13,22.0
24.555,-1.621,-0.002,21.0
24.553,-1.612,-0.137,32.0
24.512,-1.602,-0.269,35.0
24.516,-1.593,-0.402,52.0
24.544,-1.592,0.278,40.0
24.543,-1.584,0.146,43.0
24.532,-1.574,0.013,44.0
24.521,-1.565,-0.121,53.0
24.497,-1.555,-0.253,42.0
24.509,-1.548,-0.386,65.0
24.518,-1.545,0.293,61.0
24.512,-1.536,0.16,41.0
24.517,-1.528,0.028,74.0
24.513,-1.519,-0.106,70.0
24.493,-1.509,-0.239,61.0
24.507,-1.502,-0.371,63.0
24.534,-1.5,0.308,74.0
24.508,-1.49,0.175,66.0
24.518,-1.482,0.042,92.0
24.518,-1.473,-0.092,71.0
24.5,-1.464,-0.225,62.0
24.518,-1.456,-0.358,79.0
24.541,-1.454,0.322,52.0
24.529,-1.445,0.189,47.0
24.522,-1.436,0.056,47.0
24.544,-1.428,-0.079,64.0
24.527,-1.418,-0.212,59.0
24.523,-1.41,-0.345,60.0
24.591,-1.41,0.335,41.0
24.575,-1.4,0.202,40.0
24.571,-1.391,0.068,30.0
24.582,-1.383,-0.066,37.0
24.568,-1.373,-0.2,34.0
24.565,-1.364,-0.333,38.0
24.515,-1.358,0.346,0.0
65.708,-3.617,0.572,9.0
0.0,0.0,0.0,0.0
0.0,0.0,0.0,0.0
55.183,-2.978,-0.424,4.0
43.228,-2.317,-0.567,2.0
67.142,-3.589,0.98,0.0
0.0,0.0,0.0,0.0
0.0,0.0,0.0,0.0
66.062,-3.458,-0.119,2.0
57.032,-2.965,-0.413,10.0
44.087,-2.277,-0.559,2.0
82.867,-4.265,1.244,32.0
0.0,0.0,0.0,0.0
0.0,0.0,0.0,0.0
67.966,-3.423,-0.095,1.0
65.543,-3.277,-0.448,2.0
31.303,-1.553,-0.384,11.0
83.178,-4.114,1.281,35.0
82.357,-4.044,0.82,5.0
68.549,-3.34,0.309,0.0
31.371,-1.517,-0.032,0.0
31.251,-1.499,-0.202,25.0
31.21,-1.486,-0.372,43.0
83.339,-3.955,1.313,15.0
82.919,-3.903,0.854,34.0
31.281,-1.461,0.151,22.0
31.242,-1.448,-0.022,35.0
31.201,-1.434,-0.192,53.0
31.178,-1.422,-0.362,43.0
31.288,-1.421,0.503,35.0
31.252,-1.407,0.331,34.0
31.241,-1.395,0.161,49.0
31.189,-1.382,-0.012,23.0
28.465,-1.251,-0.166,61.0
28.456,-1.24,-0.322,60.0
28.451,-1.234,0.465,69.0
28.44,-1.223,0.309,64.0
28.428,-1.212,0.154,90.0
28.447,-1.203,-0.004,123.0
28.437,-1.192,-0.159,106.0
28.451,-1.182,-0.315,113.0
28.441,-1.176,0.472,115.0
28.441,-1.165,0.316,151.0
28.441,-1.154,0.16,150.0
28.442,-1.144,0.002,76.0
28.463,-1.134,-0.153,70.0
28.48,-1.125,-0.309,65.0
28.459,-1.117,0.478,69.0
28.446,-1.106,0.322,26.0
31.25,-1.204,0.182,41.0
31.29,-1.194,0.008,61.0
31.337,-1.184,-0.163,65.0
31.398,-1.175,-0.335,17.0
31.294,-1.163,0.531,47.0
31.332,-1.153,0.359,39.0
80.315,-2.927,0.481,17.0
80.714,-2.911,0.034,29.0
80.344,-2.868,-0.406,4.0
45.484,-1.606,-0.479,16.0
151.881,-5.329,2.597,8.0
84.725,-2.942,0.984,23.0
80.479,-2.764,0.492,25.0
38.774,-1.317,0.02,2.0
38.742,-1.301,-0.192,22.0
38.675,-1.284,-0.404,34.0
38.691,-1.276,0.665,40.0
38.677,-1.261,0.452,44.0
38.678,-1.246,0.24,57.0
38.664,-1.232,0.023,63.0
38.663,-1.217,-0.188,57.0
38.631,-1.202,-0.401,46.0
38.629,-1.192,0.666,74.0
38.622,-1.178,0.453,70.0
38.639,-1.164,0.241,70.0
38.627,-1.149,0.024,73.0
38.658,-1.135,-0.187,134.0
38.646,-1.121,-0.4,52.0
38.638,-1.111,0.667,78.0
38.627,-1.095,0.454,72.0
38.646,-1.082,0.241,73.0
38.639,-1.067,0.025,69.0
38.663,-1.054,-0.188,51.0
38.7,-1.041,-0.401,43.0
38.675,-1.03,0.667,56.0
38.691,-1.016,0.454,37.0
38.698,-1.001,0.24,29.0
38.744,-0.988,0.023,16.0
38.795,-0.975,-0.19,17.0
0.0,0.0,0.0,0.0
40.425,-0.99,0.695,29.0
40.413,-0.975,0.471,35.0
40.407,-0.959,0.248,39.0
40.414,-0.945,0.021,42.0
40.408,-0.93,-0.201,54.0
40.425,-0.916,-0.424,28.0
40.415,-0.904,0.691,7.0
38.4,-0.845,0.444,16.0
38.374,-0.831,0.232,49.0
38.369,-0.817,0.016,40.0
38.375,-0.803,-0.195,14.0
45.395,-0.933,-0.482,13.0
52.989,-1.074,0.899,15.0
52.976,-1.055,0.605,38.0
52.954,-1.034,0.312,48.0
52.981,-1.016,0.014,28.0
52.955,-0.997,-0.278,61.0
45.43,-0.838,-0.49,19.0
0.0,0.0,0.0,0.0
0.0,0.0,0.0,0.0
20.128,-0.35,0.115,8.0
20.13,-0.343,0.001,44.0
59.527,-0.994,-0.324,5.0
45.394,-0.742,-0.498,11.0
59.513,-0.954,0.987,7.0
20.128,-0.315,0.222,10.0
20.116,-0.307,0.11,13.0
20.127,-0.3,-0.002,3.0
59.468,-0.866,-0.338,3.0
45.476,-0.646,-0.51,4.0
20.139,-0.28,0.329,13.0
20.129,-0.272,0.217,10.0
20.166,-0.265,0.105,3.0
59.558,-0.763,-0.024,26.0
56.554,-0.704,-0.336,2.0
45.974,-0.555,-0.529,10.0
20.154,-0.237,0.323,10.0
20.168,-0.23,0.211,2.0
56.172,-0.62,0.277,10.0
56.187,-0.599,-0.039,1.0
56.465,-0.583,-0.353,1.0
45.236,-0.451,-0.534,15.0
53.474,-0.515,0.841,18.0
64.369,-0.597,0.654,15.0
66.5,-0.593,0.306,12.0
53.334,-0.456,-0.055,2.0
20.161,-0.165,-0.133,15.0
20.152,-0.158,-0.245,25.0
20.198,-0.151,0.31,18.0
20.145,-0.144,0.197,17.0
20.129,-0.137,0.085,18.0
20.143,-0.13,-0.028,24.0
20.155,-0.123,-0.14,27.0
20.137,-0.116,-0.252,35.0
20.12,-0.109,0.301,27.0
20.12,-0.101,0.189,25.0
20.127,-0.094,0.077,39.0
20.132,-0.087,-0.036,29.0
20.137,-0.08,-0.149,37.0
20.145,-0.073,-0.261,29.0
20.122,-0.067,0.292,32.0
20.117,-0.059,0.18,32.0
20.131,-0.052,0.068,40.0
20.128,-0.045,-0.045,32.0
20.155,-0.038,-0.158,27.0
20.166,-0.031,-0.27,18.0
20.12,-0.024,0.283,27.0
20.122,-0.017,0.171,29.0
20.152,-0.01,0.058,28.0
20.269,-0.003,-0.055,150.0
20.259,0.003,-0.169,151.0
20.266,0.01,-0.282,150.0
20.14,0.017,0.273,29.0
20.141,0.024,0.16,27.0
20.224,0.031,0.048,10.0
20.245,0.038,-0.066,7.0
20.218,0.045,-0.179,18.0
20.306,0.052,-0.293,0.0
20.145,0.059,0.262,28.0
20.154,0.065,0.15,27.0
20.196,0.072,0.037,34.0
20.2,0.079,-0.077,33.0
20.191,0.086,-0.19,27.0
20.211,0.094,-0.303,23.0
20.16,0.1,0.251,29.0
20.165,0.107,0.138,25.0
20.192,0.114,0.025,29.0
20.188,0.121,-0.089,31.0
20.174,0.128,-0.202,26.0
20.187,0.135,-0.315,33.0
20.188,0.142,0.239,24.0
20.212,0.149,0.126,23.0
20.265,0.156,0.012,28.0
20.209,0.163,-0.102,22.0
20.17,0.169,-0.215,23.0
20.175,0.176,-0.328,36.0
20.305,0.185,0.227,31.0
20.313,0.192,0.113,29.0
20.323,0.198,0.0,18.0
20.227,0.204,-0.115,0.0
20.176,0.21,-0.228,19.0
20.187,0.217,-0.342,27.0
20.298,0.226,0.213,25.0
20.299,0.233,0.099,2.0
99.532,1.176,-0.071,2.0
0.0,0.0,0.0,0.0
20.235,0.252,-0.243,0.0
20.202,0.258,-0.356,7.0
0.0,0.0,0.0,0.0
99.623,1.344,0.415,5.0
0.0,0.0,0.0,0.0
0.0,0.0,0.0,0.0
0.0,0.0,0.0,0.0
0.0,0.0,0.0,0.0
0.0,0.0,0.0,0.0
99.738,1.544,0.341,6.0
0.0,0.0,0.0,0.0
0.0,0.0,0.0,0.0
0.0,0.0,0.0,0.0
0.0,0.0,0.0,0.0
0.0,0.0,0.0,0.0
99.888,1.744,0.262,14.0
0.0,0.0,0.0,0.0
0.0,0.0,0.0,0.0
0.0,0.0,0.0,0.0
0.0,0.0,0.0,0.0
103.032,1.971,0.765,5.0
99.917,1.941,0.179,3.0
0.0,0.0,0.0,0.0
0.0,0.0,0.0,0.0
0.0,0.0,0.0,0.0
37.659,0.779,-0.785,0.0
100.142,2.111,0.658,1.0
100.07,2.141,0.093,14.0
0.0,0.0,0.0,0.0
0.0,0.0,0.0,0.0
0.0,0.0,0.0,0.0
37.232,0.842,-0.808,0.0
0.0,0.0,0.0,0.0
100.114,2.334,0.004,16.0
0.0,0.0,0.0,0.0
0.0,0.0,0.0,0.0
0.0,0.0,0.0,0.0
36.226,0.889,-0.82,0.0
100.435,2.504,0.479,1.0
0.0,0.0,0.0,0.0
0.0,0.0,0.0,0.0
0.0,0.0,0.0,0.0
0.0,0.0,0.0,0.0
0.0,0.0,0.0,0.0
0.0,0.0,0.0,0.0
0.0,0.0,0.0,0.0
68.979,1.892,-0.516,6.0
0.0,0.0,0.0,0.0
0.0,0.0,0.0,0.0
33.936,0.96,-0.833,1.0
0.0,0.0,0.0,0.0
0.0,0.0,0.0,0.0
69.023,2.019,-0.584,3.0
0.0,0.0,0.0,0.0
39.35,1.174,-0.782,0.0
32.734,0.987,-0.836,0.0
0.0,0.0,0.0,0.0
0.0,0.0,0.0,0.0
0.0,0.0,0.0,0.0
0.0,0.0,0.0,0.0
37.819,1.198,-0.791,0.0
32.229,1.03,-0.856,1.0
0.0,0.0,0.0,0.0
0.0,0.0,0.0,0.0
0.0,0.0,0.0,0.0
0.0,0.0,0.0,0.0
36.954,1.237,-0.812,0.0
30.531,1.031,-0.844,0.0
0.0,0.0,0.0,0.0
0.0,0.0,0.0,0.0
0.0,0.0,0.0,0.0
0.0,0.0,0.0,0.0
35.57,1.254,-0.82,0.0
30.135,1.071,-0.866,1.0
0.0,0.0,0.0,0.0
69.01,2.497,-0.486,6.0
0.0,0.0,0.0,0.0
40.403,1.484,-0.747,0.0
33.526,1.241,-0.81,0.0
29.354,1.094,-0.876,0.0
0.0,0.0,0.0,0.0
68.985,2.617,-0.564,2.0
0.0,0.0,0.0,0.0
39.603,1.524,-0.778,0.0
32.784,1.27,-0.83,1.0
27.948,1.09,-0.866,0.0
0.0,0.0,0.0,0.0
0.0,0.0,0.0,0.0
0.0,0.0,0.0,0.0
37.348,1.5,-0.776,0.0
32.265,1.304,-0.854,0.0
0.0,0.0,0.0,0.0
0.0,0.0,0.0,0.0
0.0,0.0,0.0,0.0
0.0,0.0,0.0,0.0
36.611,1.531,-0.805,0.0
30.256,1.273,-0.837,0.0
20.234,0.857,-0.675,2.0
68.996,2.947,-0.416,2.0
0.0,0.0,0.0,0.0
42.17,1.822,-0.734,0.0
35.462,1.541,-0.822,0.0
29.746,1.301,-0.859,0.0
20.219,0.889,-0.699,154.0
68.954,3.057,-0.5,4.0
0.0,0.0,0.0,0.0
0.0,0.0,0.0,0.0
34.332,1.547,-0.839,0.0
20.261,0.918,-0.61,0.0
20.196,0.92,-0.724,157.0
0.0,0.0,0.0,0.0
0.0,0.0,0.0,0.0
38.199,1.773,-0.76,0.0
32.33,1.509,-0.831,0.0
28.057,1.317,-0.882,0.0
20.238,0.955,-0.751,11.0
0.0,0.0,0.0,0.0
0.0,0.0,0.0,0.0
37.134,1.782,-0.787,0.0
31.33,1.511,-0.846,0.0
26.635,1.291,-0.871,0.0
0.0,0.0,0.0,0.0
0.0,0.0,0.0,0.0
0.0,0.0,0.0,0.0
35.707,1.768,-0.803,0.0
29.841,1.484,-0.845,0.0
25.818,1.29,-0.878,0.0
21.838,1.096,-0.867,0.0
52.064,2.631,-0.646,0.0
40.75,2.068,-0.738,0.0
33.783,1.722,-0.805,0.0
28.753,1.473,-0.852,0.0
24.885,1.28,-0.88,0.0
21.867,1.13,-0.898,1.0
0.0,0.0,0.0,0.0
38.664,2.019,-0.752,0.0
32.525,1.706,-0.819,0.0
28.106,1.48,-0.871,0.0
24.167,1.278,-0.887,0.0
21.819,1.159,-0.926,0.0
0.0,0.0,0.0,0.0
37.497,2.011,-0.781,0.0
31.783,1.712,-0.843,0.0
26.848,1.452,-0.869,0.0
23.5,1.276,-0.895,0.0
20.742,1.131,-0.909,0.0
0.0,0.0,0.0,0.0
35.771,1.969,-0.795,0.0
30.359,1.677,-0.848,0.0
25.754,1.428,-0.869,0.0
21.877,1.218,-0.863,3.0
0.0,0.0,0.0,0.0
0.0,0.0,0.0,0.0
33.782,1.904,-0.797,0.0
29.079,1.645,-0.853,0.0
25.011,1.421,-0.879,0.0
21.809,1.243,-0.892,9.0
19.574,1.12,-0.913,0.0
0.0,0.0,0.0,0.0
32.351,1.867,-0.81,0.0
28.263,1.637,-0.869,0.0
24.18,1.405,-0.885,0.0
21.775,1.27,-0.921,3.0
19.321,1.131,-0.929,0.0
37.222,2.189,-0.772,0.0
31.517,1.859,-0.835,0.0
27.01,1.599,-0.87,0.0
21.885,1.3,-0.833,0.0
20.573,1.226,-0.901,0.0
0.0,0.0,0.0,0.0
35.291,2.12,-0.784,0.0
30.399,1.832,-0.849,0.0
25.761,1.557,-0.867,0.0
21.869,1.326,-0.864,8.0
19.831,1.206,-0.897,0.0
0.0,0.0,0.0,0.0
33.298,2.04,-0.788,1.0
28.965,1.78,-0.851,0.0
24.82,1.53,-0.872,0.0
21.806,1.348,-0.894,9.0
19.508,1.21,-0.911,0.0
0.0,0.0,0.0,0.0
32.186,2.009,-0.809,1.0
27.842,1.743,-0.86,0.0
23.93,1.503,-0.876,0.0
21.771,1.371,-0.924,2.0
19.171,1.211,-0.924,0.0
0.0,0.0,0.0,0.0
30.942,1.967,-0.824,0.0
26.777,1.706,-0.867,0.0
21.91,1.4,-0.835,1.0
20.716,1.328,-0.91,0.0
18.282,1.175,-0.909,0.0
16.648,1.073,-0.923,0.0
29.99,1.939,-0.844,0.0
25.641,1.662,-0.868,0.0
21.855,1.42,-0.866,7.0
19.781,1.289,-0.899,0.0
18.055,1.18,-0.925,0.0
16.329,1.07,-0.93,0.0
28.531,1.875,-0.846,0.0
24.685,1.626,-0.873,0.0
21.805,1.44,-0.897,6.0
19.474,1.289,-0.915,0.0
17.483,1.16,-0.922,0.0
15.924,1.06,-0.931,0.0
27.491,1.834,-0.857,0.0
23.629,1.58,-0.872,0.0
21.743,1.457,-0.927,0.0
0.0,0.0,0.0,0.0
16.939,1.141,-0.919,0.0
15.439,1.043,-0.927,0.0
26.382,1.786,-0.862,0.0
21.881,1.484,-0.841,0.0
0.0,0.0,0.0,0.0
0.0,0.0,0.0,0.0
16.619,1.135,-0.927,0.0
15.101,1.034,-0.93,0.0
25.233,1.731,-0.863,0.0
21.821,1.5,-0.872,1.0
19.679,1.356,-0.899,0.0
17.728,1.224,-0.914,0.0
16.225,1.123,-0.93,0.0
14.84,1.029,-0.936,0.0
0.0,0.0,0.0,0.0
21.73,1.513,-0.902,0.0
19.307,1.347,-0.912,0.0
17.26,1.207,-0.917,0.0
15.779,1.106,-0.929,0.0
14.6,1.025,-0.944,0.0
23.537,1.656,-0.878,0.0
21.09,1.486,-0.908,0.0
0.0,0.0,0.0,0.0
16.87,1.194,-0.922,0.0
15.369,1.09,-0.929,0.0
0.0,0.0,0.0,0.0
21.904,1.558,-0.851,0.0
20.113,1.433,-0.897,0.0
18.121,1.294,-0.912,0.0
16.376,1.171,-0.92,0.0
15.016,1.076,-0.931,0.0
13.944,1.001,-0.945,0.0
21.779,1.566,-0.88,2.0
19.49,1.404,-0.899,0.0
17.524,1.264,-0.909,0.0
16.08,1.162,-0.929,0.0
14.76,1.069,-0.938,0.0
13.534,0.982,-0.938,0.0
21.637,1.571,-0.908,0.0
19.299,1.404,-0.92,0.0
17.1,1.246,-0.914,0.0
15.574,1.137,-0.924,0.0
14.462,1.057,-0.941,0.0
13.354,0.978,-0.946,0.0
20.605,1.51,-0.896,0.0
0.0,0.0,0.0,0.0
16.777,1.233,-0.923,0.0
15.261,1.124,-0.929,0.0
14.122,1.042,-0.941,0.0
12.983,0.959,-0.941,0.0
19.815,1.465,-0.893,0.0
0.0,0.0,0.0,0.0
16.256,1.205,-0.92,0.0
14.927,1.108,-0.932,0.0
0.0,0.0,0.0,0.0
12.73,0.948,-0.942,0.0
19.454,1.45,-0.907,0.0
17.429,1.301,-0.913,0.0
15.94,1.191,-0.927,0.0
14.616,1.094,-0.936,0.0
13.341,1.0,-0.931,0.0
12.477,0.937,-0.943,0.0
0.0,0.0,0.0,0.0
17.009,1.278,-0.917,0.0
15.523,1.168,-0.927,0.0
14.394,1.085,-0.944,0.0
13.228,0.998,-0.944,0.0
12.238,0.925,-0.944,0.0
0.0,0.0,0.0,0.0
16.592,1.255,-0.92,0.0
15.112,1.145,-0.925,0.0
13.976,1.06,-0.938,0.0
12.902,0.98,-0.941,0.0
11.992,0.912,-0.944,0.0
0.0,0.0,0.0,0.0
16.129,1.228,-0.919,0.0
14.829,1.13,-0.931,0.0
13.765,1.05,-0.945,0.0
12.68,0.969,-0.944,0.0
11.726,0.897,-0.941,0.0
17.291,1.322,-0.912,0.0
15.816,1.21,-0.926,0.0
14.561,1.115,-0.936,0.0
13.403,1.028,-0.941,0.0
12.381,0.951,-0.941,0.0
11.538,0.887,-0.943,0.0
16.901,1.298,-0.917,0.0
15.377,1.182,-0.923,0.0
14.257,1.097,-0.938,0.0
12.985,1.0,-0.931,0.0
12.187,0.94,-0.944,0.0
11.352,0.877,-0.946,0.0
16.46,1.269,-0.918,0.0
15.031,1.16,-0.925,0.0
13.962,1.079,-0.94,0.0
12.819,0.991,-0.939,0.0
11.888,0.92,-0.939,0.0
11.175,0.866,-0.948,0.0
16.066,1.244,-0.921,0.0
14.749,1.143,-0.93,0.0
13.578,1.053,-0.935,0.0
12.589,0.977,-0.941,0.0
11.65,0.905,-0.938,0.0
10.982,0.854,-0.948,0.0
15.713,1.22,-0.924,0.0
14.498,1.127,-0.936,0.0
13.38,1.041,-0.941,0.0
12.364,0.962,-0.943,0.0
11.519,0.897,-0.945,0.0
10.791,0.842,-0.948,0.0
15.299,1.191,-0.923,0.0
14.084,1.097,-0.93,0.0
13.056,1.018,-0.938,0.0
12.092,0.944,-0.94,0.0
11.271,0.88,-0.941,0.0
10.532,0.823,-0.941,0.0
14.995,1.17,-0.926,0.0
0.0,0.0,0.0,0.0
12.837,1.003,-0.941,0.0
11.846,0.926,-0.938,0.0
11.197,0.876,-0.952,0.0
10.378,0.812,-0.942,0.0
14.677,1.147,-0.928,0.0
13.522,1.057,-0.933,0.0
12.555,0.982,-0.939,0.0
11.646,0.911,-0.94,0.0
11.013,0.862,-0.952,0.0
10.263,0.804,-0.947,0.0
14.472,1.132,-0.936,0.0
13.409,1.049,-0.945,0.0
12.333,0.965,-0.94,0.0
11.421,0.895,-0.938,0.0
10.761,0.843,-0.946,0.0
10.059,0.789,-0.943,0.0
14.222,1.113,-0.941,0.0
13.032,1.02,-0.937,0.0
12.125,0.949,-0.942,0.0
11.258,0.882,-0.941,0.0
10.562,0.828,-0.944,0.0
9.914,0.777,-0.944,0.0
0.0,0.0,0.0,0.0
12.79,1.001,-0.938,0.0
11.864,0.929,-0.938,0.0
11.125,0.871,-0.946,0.0
10.405,0.815,-0.945,0.0
9.761,0.765,-0.943,0.0
13.608,1.064,-0.938,0.0
12.557,0.982,-0.938,0.0
11.706,0.916,-0.942,0.0
10.915,0.854,-0.943,0.0
10.27,0.804,-0.947,0.0
9.609,0.752,-0.942,0.0
13.376,1.044,-0.941,0.0
12.334,0.963,-0.939,0.0
11.488,0.897,-0.941,0.0
10.625,0.83,-0.933,0.0
10.08,0.788,-0.943,0.0
9.51,0.743,-0.945,0.0
13.075,1.019,-0.937,0.0
12.137,0.946,-0.94,0.0
11.339,0.884,-0.944,0.0
10.523,0.821,-0.938,0.0
9.939,0.775,-0.943,0.0
9.342,0.729,-0.941,0.0
12.797,0.995,-0.935,0.0
11.883,0.924,-0.936,0.0
11.165,0.868,-0.944,0.0
10.418,0.81,-0.942,0.0
9.787,0.761,-0.942,0.0
9.254,0.72,-0.945,0.0
12.618,0.979,-0.938,0.0
11.714,0.908,-0.938,0.0
10.979,0.851,-0.943,0.0
10.264,0.796,-0.942,0.0
9.642,0.748,-0.941,0.0
9.133,0.709,-0.944,0.0
12.406,0.959,-0.938,0.0
11.522,0.891,-0.938,0.0
10.807,0.835,-0.942,0.0
10.158,0.785,-0.945,0.0
9.514,0.735,-0.941,0.0
9.047,0.699,-0.947,0.0
12.195,0.939,-0.938,0.0
11.382,0.876,-0.941,0.0
10.596,0.816,-0.937,0.0
9.991,0.769,-0.943,0.0
9.412,0.725,-0.942,0.0
8.921,0.687,-0.945,0.0
12.012,0.921,-0.939,0.0
11.204,0.859,-0.94,0.0
10.468,0.802,-0.939,0.0
9.873,0.757,-0.944,0.0
9.301,0.713,-0.943,0.0
8.802,0.675,-0.943,0.0
11.773,0.898,-0.935,0.0
11.036,0.842,-0.94,0.0
10.333,0.788,-0.939,0.0
9.729,0.742,-0.942,0.0
9.217,0.703,-0.946,0.0
8.708,0.664,-0.944,0.0
11.623,0.882,-0.937,0.0
10.883,0.826,-0.94,0.0
10.221,0.775,-0.941,0.0
9.602,0.728,-0.941,0.0
9.092,0.689,-0.944,0.0
8.609,0.653,-0.944,0.0
11.462,0.865,-0.937,0.0
10.802,0.815,-0.945,0.0
10.128,0.764,-0.945,0.0
9.513,0.717,-0.943,0.0
9.02,0.68,-0.947,0.0
8.515,0.641,-0.943,0.0
11.361,0.852,-0.942,0.0
10.541,0.79,-0.935,0.0
9.966,0.747,-0.941,0.0
9.409,0.705,-0.944,0.0
8.935,0.669,-0.948,0.0
8.415,0.63,-0.942,0.0
11.189,0.833,-0.94,0.0
10.425,0.776,-0.936,0.0
9.847,0.732,-0.941,0.0
9.304,0.692,-0.944,0.0
8.798,0.654,-0.943,0.0
8.359,0.621,-0.945,0.0
11.034,0.816,-0.939,0.0
10.356,0.765,-0.941,0.0
9.757,0.72,-0.943,0.0
9.188,0.678,-0.942,0.0
8.723,0.643,-0.945,0.0
8.263,0.609,-0.943,0.0
10.876,0.798,-0.937,0.0
10.206,0.748,-0.938,0.0
9.662,0.707,-0.944,0.0
9.102,0.666,-0.943,0.0
8.624,0.631,-0.943,0.0
8.21,0.6,-0.945,0.0
10.755,0.782,-0.938,0.0
10.136,0.736,-0.942,0.0
9.544,0.693,-0.942,0.0
9.011,0.654,-0.942,0.0
8.54,0.619,-0.943,0.0
8.108,0.587,-0.942,0.0
10.6,0.764,-0.935,0.0
10.014,0.721,-0.941,0.0
9.447,0.68,-0.942,0.0
8.919,0.641,-0.942,0.0
8.469,0.608,-0.943,0.0
8.042,0.577,-0.942,0.0
10.509,0.75,-0.937,0.0
9.966,0.711,-0.946,0.0
9.369,0.667,-0.943,0.0
8.839,0.629,-0.942,0.0
8.405,0.598,-0.944,0.0
8.011,0.569,-0.946,0.0
10.426,0.737,-0.939,0.0
9.843,0.695,-0.943,0.0
9.281,0.654,-0.943,0.0
8.769,0.618,-0.942,0.0
8.331,0.586,-0.943,0.0
7.946,0.559,-0.946,0.0
10.362,0.724,-0.943,0.0
9.724,0.679,-0.941,0.0
9.187,0.641,-0.941,0.0
8.687,0.605,-0.941,0.0
8.272,0.576,-0.944,0.0
7.882,0.548,-0.945,0.0
10.287,0.711,-0.945,0.0
9.662,0.667,-0.943,0.0
9.128,0.63,-0.943,0.0
8.591,0.592,-0.938,0.0
8.236,0.567,-0.947,0.0
7.843,0.539,-0.947,0.0
10.187,0.696,-0.944,0.0
9.574,0.653,-0.942,0.0
9.027,0.615,-0.94,0.0
8.551,0.582,-0.941,0.0
8.121,0.552,-0.94,0.0
7.788,0.529,-0.947,0.0
10.085,0.681,-0.943,0.0
9.499,0.64,-0.942,0.0
8.971,0.604,-0.941,0.0
8.513,0.572,-0.943,0.0
8.112,0.545,-0.945,0.0
7.719,0.517,-0.944,0.0
9.994,0.666,-0.942,0.0
9.44,0.628,-0.943,0.0
8.898,0.591,-0.94,0.0
8.458,0.561,-0.943,0.0
8.056,0.534,-0.945,0.0
7.675,0.508,-0.944,0.0
9.927,0.653,-0.942,0.0
9.363,0.614,-0.942,0.0
8.836,0.579,-0.94,0.0
8.393,0.549,-0.942,0.0
8.0,0.523,-0.944,0.0
7.648,0.499,-0.946,0.0
9.861,0.639,-0.943,0.0
9.296,0.602,-0.942,0.0
8.787,0.568,-0.94,0.0
8.335,0.538,-0.941,0.0
7.957,0.512,-0.944,0.0
7.591,0.488,-0.944,0.0
9.795,0.626,-0.942,0.0
9.219,0.588,-0.94,0.0
8.717,0.555,-0.938,0.0
8.284,0.526,-0.94,0.0
7.921,0.503,-0.944,0.0
7.559,0.479,-0.945,0.0
9.727,0.612,-0.942,0.0
9.177,0.576,-0.941,0.0
8.701,0.545,-0.942,0.0
8.251,0.516,-0.941,0.0
7.877,0.492,-0.944,0.0
7.55,0.471,-0.948,0.0
9.663,0.599,-0.941,0.0
9.133,0.565,-0.941,0.0
8.668,0.535,-0.943,0.0
8.229,0.507,-0.943,0.0
7.843,0.482,-0.944,0.0
7.491,0.459,-0.945,0.0
9.622,0.586,-0.942,0.0
9.091,0.553,-0.942,0.0
8.582,0.521,-0.938,0.0
8.162,0.494,-0.939,0.0
7.826,0.473,-0.946,0.0
7.513,0.453,-0.951,0.0
9.577,0.574,-0.942,0.0
9.022,0.539,-0.939,0.0
8.574,0.511,-0.941,0.0
8.147,0.485,-0.941,0.0
7.784,0.462,-0.944,0.0
7.47,0.443,-0.949,0.0
9.525,0.56,-0.941,0.0
9.008,0.529,-0.941,0.0
8.539,0.5,-0.941,0.0
8.164,0.477,-0.947,0.0
7.783,0.454,-0.947,0.0
7.431,0.432,-0.947,0.0
9.504,0.549,-0.943,0.0
8.978,0.518,-0.941,0.0
8.504,0.489,-0.94,0.0
8.082,0.464,-0.94,0.0
7.755,0.444,-0.947,0.0
7.414,0.423,-0.947,0.0
9.468,0.537,-0.942,0.0
8.949,0.506,-0.941,0.0
8.485,0.479,-0.941,0.0
8.075,0.454,-0.942,0.0
7.737,0.434,-0.947,0.0
7.406,0.415,-0.949,0.0
9.448,0.525,-0.943,0.0
8.892,0.493,-0.938,0.0
8.49,0.469,-0.944,0.0
8.053,0.444,-0.942,0.0
7.714,0.424,-0.946,0.0
7.402,0.406,-0.95,0.0
9.412,0.513,-0.942,0.0
8.889,0.483,-0.94,0.0
8.429,0.456,-0.939,0.0
8.022,0.433,-0.94,0.0
7.703,0.415,-0.947,0.0
7.351,0.395,-0.945,0.0
9.408,0.502,-0.944,0.0
8.855,0.471,-0.938,0.0
8.437,0.447,-0.942,0.0
8.039,0.425,-0.944,0.0
7.682,0.405,-0.946,0.0
7.352,0.386,-0.947,0.0
9.376,0.489,-0.942,0.0
8.845,0.46,-0.939,0.0
8.425,0.437,-0.942,0.0
8.027,0.415,-0.944,0.0
7.684,0.396,-0.947,0.0
7.375,0.379,-0.951,0.0
9.366,0.478,-0.942,0.0
8.817,0.448,-0.937,0.0
8.417,0.426,-0.942,0.0
8.025,0.405,-0.944,0.0
7.709,0.388,-0.951,0.0
7.352,0.369,-0.949,0.0
9.341,0.465,-0.94,0.0
8.818,0.438,-0.938,0.0
8.399,0.416,-0.94,0.0
7.971,0.393,-0.938,0.0
7.668,0.377,-0.946,0.0
7.351,0.36,-0.949,0.0
9.378,0.456,-0.945,0.0
8.789,0.426,-0.935,0.0
8.444,0.408,-0.946,0.0
7.96,0.383,-0.937,0.0
7.64,0.366,-0.943,0.0
7.391,0.353,-0.954,0.0
9.365,0.444,-0.943,0.0
8.795,0.416,-0.935,0.0
8.405,0.396,-0.941,0.0
7.988,0.375,-0.94,0.0
7.681,0.359,-0.948,0.0
7.35,0.342,-0.949,0.0
9.364,0.433,-0.943,0.0
8.844,0.407,-0.94,0.0
8.446,0.387,-0.945,0.0
8.005,0.366,-0.942,0.0
7.677,0.35,-0.947,0.0
7.353,0.333,-0.948,0.0
9.359,0.421,-0.941,0.0
8.872,0.398,-0.942,0.0
8.421,0.376,-0.942,0.0
8.003,0.356,-0.941,0.0
7.685,0.34,-0.947,0.0
7.388,0.326,-0.952,0.0
9.393,0.411,-0.943,0.0
8.85,0.386,-0.938,0.0
8.436,0.366,-0.942,0.0
8.019,0.347,-0.941,0.0
7.697,0.332,-0.947,0.0
7.384,0.317,-0.95,0.0
9.398,0.4,-0.942,0.0
8.868,0.376,-0.939,0.0
8.474,0.358,-0.944,0.0
8.03,0.337,-0.941,0.0
7.721,0.323,-0.948,0.0
7.386,0.308,-0.949,0.0
9.434,0.39,-0.944,0.0
8.897,0.366,-0.94,0.0
8.477,0.347,-0.943,0.0
8.031,0.327,-0.939,0.0
7.713,0.313,-0.945,0.0
7.393,0.299,-0.947,0.0
9.459,0.379,-0.944,0.0
8.915,0.356,-0.939,0.0
8.504,0.338,-0.943,0.0
8.048,0.318,-0.938,0.0
7.737,0.304,-0.946,0.0
7.427,0.291,-0.949,0.0
9.471,0.368,-0.942,0.0
8.955,0.346,-0.94,0.0
8.492,0.327,-0.939,0.0
8.095,0.31,-0.941,0.0
7.784,0.297,-0.949,0.0
7.436,0.282,-0.948,0.0
9.514,0.358,-0.943,0.0
8.992,0.337,-0.941,0.0
8.554,0.319,-0.943,0.0
8.112,0.301,-0.94,0.0
7.794,0.287,-0.947,0.0
7.455,0.273,-0.947,0.0
9.581,0.349,-0.945,0.0
9.019,0.326,-0.94,0.0
8.561,0.308,-0.94,0.0
8.124,0.291,-0.938,0.0
7.829,0.279,-0.947,0.0
7.466,0.264,-0.945,0.0
9.601,0.338,-0.943,0.0
9.099,0.318,-0.944,0.0
8.61,0.299,-0.941,0.0
8.172,0.282,-0.939,0.0
7.837,0.269,-0.945,0.0
7.5,0.256,-0.946,0.0
9.65,0.327,-0.943,0.0
9.128,0.308,-0.942,0.0
8.654,0.29,-0.941,0.0
8.242,0.274,-0.943,0.0
7.873,0.26,-0.945,0.0
7.553,0.248,-0.948,0.0
9.695,0.317,-0.942,0.0
9.172,0.298,-0.942,0.0
8.703,0.281,-0.942,0.0
8.254,0.264,-0.94,0.0
7.913,0.252,-0.945,0.0
7.59,0.24,-0.949,0.0
9.769,0.307,-0.943,0.0
9.242,0.288,-0.943,0.0
8.733,0.271,-0.94,0.0
8.304,0.256,-0.94,0.0
7.955,0.243,-0.945,0.0
7.605,0.231,-0.946,0.0
9.839,0.297,-0.944,0.0
9.306,0.279,-0.944,0.0
8.795,0.262,-0.941,0.0
8.355,0.247,-0.94,0.0
7.997,0.235,-0.944,0.0
7.619,0.222,-0.942,0.0
9.926,0.288,-0.945,0.0
9.402,0.27,-0.947,0.0
8.875,0.253,-0.943,0.0
8.402,0.238,-0.94,0.0
8.039,0.226,-0.944,0.0
7.734,0.216,-0.951,0.0
9.995,0.278,-0.945,0.0
9.446,0.26,-0.945,0.0
8.913,0.244,-0.94,0.0
8.492,0.231,-0.944,0.0
8.1,0.218,-0.945,0.0
7.736,0.207,-0.945,0.0
10.085,0.268,-0.945,0.0
9.546,0.252,-0.947,0.0
9.001,0.235,-0.943,0.0
8.542,0.222,-0.942,0.0
8.155,0.21,-0.944,0.0
7.782,0.199,-0.944,0.0
10.176,0.258,-0.946,0.0
9.607,0.242,-0.945,0.0
9.062,0.226,-0.941,0.0
8.615,0.213,-0.943,0.0
8.206,0.201,-0.943,0.0
7.852,0.191,-0.946,0.0
10.315,0.249,-0.95,0.0
9.696,0.232,-0.946,0.0
9.173,0.218,-0.945,0.0
8.673,0.204,-0.942,0.0
8.287,0.193,-0.945,0.0
7.909,0.183,-0.946,0.0
10.369,0.238,-0.945,0.0
9.805,0.223,-0.948,0.0
9.246,0.209,-0.944,0.0
8.756,0.196,-0.943,0.0
8.31,0.184,-0.94,0.0
7.929,0.174,-0.941,0.0
10.476,0.228,-0.945,0.0
9.883,0.214,-0.946,0.0
9.351,0.2,-0.946,0.0
8.805,0.187,-0.939,0.0
8.391,0.176,-0.941,0.0
8.033,0.167,-0.945,0.0
10.589,0.219,-0.945,0.0
10.0,0.204,-0.947,0.0
9.456,0.191,-0.947,0.0
8.938,0.179,-0.944,0.0
8.52,0.169,-0.947,0.0
8.074,0.158,-0.941,0.0
10.698,0.209,-0.944,0.0
10.082,0.195,-0.944,0.0
9.538,0.182,-0.945,0.0
9.03,0.171,-0.945,0.0
8.582,0.16,-0.945,0.0
8.146,0.151,-0.941,0.0
10.864,0.2,-0.947,0.0
10.273,0.187,-0.951,0.0
9.656,0.173,-0.946,0.0
9.124,0.162,-0.945,0.0
8.673,0.152,-0.945,0.0
8.248,0.143,-0.944,0.0
10.968,0.189,-0.944,0.0
10.38,0.177,-0.949,0.0
9.783,0.165,-0.948,0.0
9.262,0.154,-0.948,0.0
8.753,0.144,-0.944,0.0
8.372,0.136,-0.948,0.0
11.118,0.18,-0.944,0.0
10.461,0.167,-0.945,0.0
9.873,0.156,-0.945,0.0
9.363,0.146,-0.948,0.0
8.825,0.136,-0.941,0.0
8.453,0.128,-0.947,0.0
11.332,0.171,-0.949,0.0
10.633,0.158,-0.948,0.0
9.997,0.147,-0.945,0.0
9.434,0.137,-0.944,0.0
8.976,0.128,-0.946,0.0
8.527,0.12,-0.945,0.0
11.473,0.161,-0.947,0.0
10.791,0.149,-0.948,0.0
10.183,0.139,-0.95,0.0
9.573,0.129,-0.945,0.0
9.08,0.12,-0.946,0.0
8.654,0.113,-0.948,0.0
11.596,0.151,-0.942,0.0
0.0,0.0,0.0,0.0
10.309,0.13,-0.948,0.0
9.728,0.121,-0.948,0.0
9.232,0.113,-0.949,0.0
8.725,0.105,-0.944,0.0
11.868,0.142,-0.949,0.0
11.194,0.132,-0.955,0.0
10.446,0.121,-0.947,0.0
9.86,0.112,-0.948,0.0
9.355,0.105,-0.949,0.0
8.817,0.097,-0.942,0.0
12.086,0.133,-0.95,0.0
11.236,0.121,-0.943,0.0
10.595,0.112,-0.946,0.0
9.975,0.104,-0.945,0.0
9.501,0.097,-0.951,0.0
8.963,0.09,-0.946,0.0
12.297,0.123,-0.949,0.0
11.457,0.112,-0.946,0.0
10.724,0.103,-0.943,0.0
10.167,0.096,-0.949,0.0
9.628,0.089,-0.95,0.0
9.123,0.083,-0.949,0.0
12.55,0.113,-0.951,0.0
11.535,0.102,-0.936,0.0
20.165,0.175,-1.744,0.0
10.316,0.088,-0.948,0.0
9.773,0.081,-0.951,0.0
9.244,0.075,-0.949,0.0
12.788,0.104,-0.951,0.0
11.92,0.094,-0.95,0.0
11.176,0.086,-0.95,0.0
10.453,0.079,-0.945,0.0
9.929,0.073,-0.951,0.0
9.36,0.067,-0.947,0.0
13.086,0.094,-0.954,0.0
12.183,0.085,-0.952,0.0
11.429,0.078,-0.954,0.0
10.641,0.071,-0.946,0.0
10.096,0.066,-0.952,0.0
9.539,0.06,-0.95,0.0
13.309,0.084,-0.95,0.0
12.417,0.076,-0.952,0.0
11.493,0.069,-0.942,0.0
20.212,0.118,-1.766,0.0
10.315,0.058,-0.956,0.0
9.712,0.053,-0.952,0.0
13.494,0.074,-0.942,0.0
12.653,0.067,-0.95,0.0
11.798,0.06,-0.949,0.0
11.129,0.055,-0.955,0.0
10.461,0.05,-0.953,0.0
9.861,0.046,-0.951,0.0
14.033,0.065,-0.957,0.0
12.984,0.058,-0.955,0.0
12.085,0.052,-0.952,0.0
11.325,0.047,-0.954,0.0
10.627,0.042,-0.951,0.0
10.032,0.038,-0.951,0.0
14.275,0.055,-0.951,0.0
13.258,0.049,-0.953,0.0
12.335,0.043,-0.952,0.0
11.495,0.038,-0.949,0.0
10.898,0.035,-0.957,0.0
10.237,0.031,-0.954,0.0
14.618,0.045,-0.95,0.0
13.398,0.039,-0.941,0.0
12.633,0.035,-0.954,0.0
11.763,0.031,-0.952,0.0
11.094,0.027,-0.956,0.0
10.414,0.024,-0.953,0.0
14.923,0.035,-0.945,0.0
20.259,0.044,-1.389,0.0
12.93,0.026,-0.955,0.0
12.052,0.022,-0.955,0.0
11.282,0.019,-0.953,0.0
10.64,0.017,-0.955,0.0
15.348,0.025,-0.945,0.0
20.268,0.03,-1.355,0.0
13.272,0.017,-0.957,0.0
12.333,0.014,-0.956,0.0
11.523,0.012,-0.954,0.0
10.788,0.009,-0.95,0.0
15.756,0.014,-0.943,0.0
14.642,0.011,-0.953,0.0
12.636,0.006,-0.957,0.0
11.737,0.004,-0.951,0.0
16.284,0.004,-0.946,0.0
14.927,0.002,-0.946,0.0
12.906,-0.001,-0.955,0.0
12.046,-0.002,-0.954,0.0
16.651,-0.005,-0.938,0.0
15.383,-0.006,-0.947,0.0
13.21,-0.009,-0.953,0.0
12.334,-0.01,-0.955,0.0
11.54,-0.011,-0.954,0.0
15.789,-0.016,-0.944,0.0
14.644,-0.016,-0.952,0.0
12.653,-0.017,-0.957,0.0
11.792,-0.017,-0.953,0.0
16.387,-0.026,-0.95,0.0
15.025,-0.025,-0.949,0.0
12.992,-0.025,-0.958,0.0
12.121,-0.024,-0.957,0.0
16.77,-0.035,-0.94,0.0
15.455,-0.034,-0.947,0.0
12.49,-0.031,-0.963,0.0
14.683,-0.041,-0.95,0.0
12.73,-0.038,-0.957,0.0
16.503,-0.052,-0.949,0.0
15.127,-0.049,-0.95,0.0
13.144,-0.045,-0.963,0.0
20.283,-0.068,-0.916,75.0
15.609,-0.057,-0.95,0.0
16.141,-0.065,-0.951,0.0
14.874,-0.061,-0.953,0.0
16.637,-0.072,-0.947,0.0
15.305,-0.067,-0.951,0.0
23.139,-0.103,-0.909,0.0
20.278,-0.091,-0.901,47.0
15.786,-0.074,-0.949,0.0
14.64,-0.07,-0.956,0.0
24.43,-0.115,-0.911,0.0
16.428,-0.082,-0.955,0.0
15.04,-0.076,-0.952,0.0
22.657,-0.114,-0.917,2.0
20.273,-0.103,-0.925,68.0
18.424,-0.095,-0.938,0.0
16.84,-0.087,-0.945,0.0
15.539,-0.081,-0.953,0.0
28.062,-0.145,-0.934,3.0
23.727,-0.124,-0.912,0.0
20.29,-0.107,-0.885,6.0
16.142,-0.087,-0.956,0.0
28.105,-0.15,-0.878,4.0
24.755,-0.134,-0.901,0.0
22.561,-0.123,-0.938,4.0
20.223,-0.111,-0.947,13.0
16.613,-0.092,-0.95,0.0
20.197,-0.111,-0.589,10.0
22.659,-0.126,-0.895,3.0
20.277,-0.113,-0.908,52.0
20.202,-0.113,-0.548,28.0
28.082,-0.158,-0.907,5.0
24.635,-0.139,-0.923,0.0
20.183,-0.114,-0.506,30.0
20.197,-0.115,-0.61,5.0
22.59,-0.129,-0.918,15.0
20.283,-0.116,-0.929,69.0
18.428,-0.106,-0.939,0.0
20.168,-0.114,-0.464,36.0
20.208,-0.115,-0.569,23.0
28.069,-0.16,-0.935,2.0
20.271,-0.116,-0.887,5.0
20.15,-0.114,-0.422,40.0
20.184,-0.115,-0.527,29.0
28.098,-0.16,-0.878,2.0
24.817,-0.141,-0.906,0.0
22.567,-0.129,-0.94,9.0
20.264,-0.116,-0.949,22.0
20.149,-0.113,-0.38,40.0
20.173,-0.113,-0.484,30.0
20.186,-0.113,-0.589,14.0
22.645,-0.127,-0.896,2.0
20.273,-0.114,-0.907,40.0
20.141,-0.111,-0.338,42.0
20.169,-0.111,-0.442,36.0
20.186,-0.111,-0.546,26.0
28.058,-0.155,-0.907,5.0
24.69,-0.136,-0.925,0.0
20.143,-0.109,-0.295,39.0
20.155,-0.109,-0.399,37.0
20.179,-0.108,-0.504,28.0
20.196,-0.108,-0.61,2.0
22.631,-0.121,-0.917,3.0
20.148,-0.106,-0.253,37.0
20.147,-0.105,-0.357,36.0
20.165,-0.105,-0.461,34.0
20.188,-0.105,-0.567,14.0
28.059,-0.145,-0.933,5.0
23.864,-0.123,-0.916,0.0
20.153,-0.102,-0.211,22.0
20.146,-0.101,-0.314,38.0
20.158,-0.101,-0.418,37.0
20.193,-0.1,-0.525,25.0
28.188,-0.139,-0.878,5.0
20.152,-0.097,-0.168,35.0
20.148,-0.096,-0.272,36.0
20.149,-0.095,-0.376,29.0
20.168,-0.095,-0.482,29.0
20.2,-0.094,-0.587,1.0
28.036,-0.13,-0.959,1.0
20.145,-0.091,-0.126,33.0
20.146,-0.09,-0.229,25.0
20.144,-0.09,-0.333,35.0
20.158,-0.089,-0.439,30.0
20.187,-0.088,-0.544,9.0
28.041,-0.121,-0.9,13.0
20.142,-0.085,-0.083,31.0
20.143,-0.084,-0.187,33.0
20.133,-0.083,-0.291,33.0
20.152,-0.082,-0.396,27.0
20.176,-0.081,-0.501,18.0
58.377,-0.232,-1.751,1.0
20.141,-0.078,-0.041,29.0
20.136,-0.077,-0.145,36.0
20.14,-0.076,-0.248,29.0
20.142,-0.074,-0.354,24.0
20.178,-0.073,-0.458,25.0
33.126,-0.119,-0.924,1.0
20.131,-0.07,0.0,37.0
20.135,-0.069,-0.102,30.0
20.146,-0.067,-0.206,24.0
20.145,-0.066,-0.312,27.0
20.176,-0.065,-0.416,25.0
33.171,-0.105,-0.856,4.0
20.132,-0.061,0.043,41.0
20.139,-0.06,-0.06,30.0
20.15,-0.059,-0.164,34.0
20.137,-0.057,-0.269,27.0
20.156,-0.056,-0.374,18.0
20.177,-0.054,-0.478,2.0
20.129,-0.052,0.085,49.0
20.127,-0.051,-0.018,36.0
20.15,-0.049,-0.122,29.0
20.124,-0.047,-0.227,11.0
20.167,-0.046,-0.332,23.0
20.173,-0.044,-0.436,2.0
20.122,-0.042,0.126,35.0
20.13,-0.04,0.023,36.0
20.142,-0.039,-0.08,34.0
20.156,-0.037,-0.186,28.0
20.158,-0.035,-0.29,25.0
41.053,-0.068,-0.802,4.0
20.121,-0.031,0.168,41.0
20.133,-0.029,0.064,43.0
20.118,-0.028,-0.038,31.0
20.151,-0.026,-0.144,27.0
20.139,-0.024,-0.248,14.0
20.176,-0.022,-0.353,2.0
20.121,-0.02,0.209,35.0
20.121,-0.018,0.106,36.0
20.146,-0.016,0.002,22.0
20.177,-0.014,-0.103,24.0
20.173,-0.012,-0.207,7.0
20.19,-0.01,-0.311,1.0
20.128,-0.007,0.251,27.0
20.12,-0.005,0.147,27.0
20.157,-0.003,0.044,24.0
20.203,-0.001,-0.061,19.0
20.213,0.0,-0.166,13.0
20.231,0.002,-0.27,10.0
20.127,0.005,0.293,29.0
20.127,0.007,0.189,28.0
20.134,0.009,0.085,30.0
20.218,0.012,-0.02,153.0
20.262,0.014,-0.124,151.0
20.265,0.016,-0.229,150.0
20.129,0.018,0.334,28.0
20.127,0.021,0.23,27.0
20.132,0.023,0.126,26.0
20.258,0.026,0.02,150.0
20.255,0.028,-0.083,151.0
20.258,0.031,-0.188,150.0
20.136,0.033,0.375,28.0
20.14,0.035,0.271,28.0
20.127,0.038,0.167,26.0
20.13,0.04,0.061,18.0
20.244,0.043,-0.042,13.0
20.243,0.046,-0.147,24.0
20.144,0.048,0.416,28.0
20.141,0.051,0.312,29.0
20.146,0.053,0.207,28.0
20.139,0.056,0.101,28.0
20.215,0.059,-0.002,26.0
20.204,0.062,-0.106,24.0
20.15,0.064,0.456,29.0
20.145,0.067,0.352,26.0
20.148,0.07,0.248,26.0
20.142,0.072,0.141,27.0
20.196,0.075,0.037,34.0
20.201,0.078,-0.066,30.0
20.158,0.081,0.496,25.0
20.146,0.083,0.392,27.0
