X,Y,Z,Reflectivity
64.216,-5.685,-0.042,4.0
82.576,-7.309,2.246,39.0
83.166,-7.334,1.809,26.0
0.0,0.0,0.0,0.0
0.0,0.0,0.0,0.0
0.0,0.0,0.0,0.0
0.0,0.0,0.0,0.0
83.778,-7.277,2.323,18.0
0.0,0.0,0.0,0.0
0.0,0.0,0.0,0.0
0.0,0.0,0.0,0.0
0.0,0.0,0.0,0.0
64.15,-5.466,0.025,1.0
82.553,-7.033,2.331,41.0
83.097,-7.05,1.893,23.0
0.0,0.0,0.0,0.0
0.0,0.0,0.0,0.0
79.437,-6.66,0.501,17.0
79.526,-6.641,0.068,17.0
82.311,-6.87,2.362,49.0
82.495,-6.857,1.918,43.0
83.378,-6.902,1.482,12.0
82.056,-6.765,1.002,44.0
79.349,-6.516,0.536,28.0
79.651,-6.514,0.103,32.0
82.633,-6.755,2.407,46.0
82.418,-6.708,1.951,42.0
83.099,-6.735,1.512,16.0
81.99,-6.617,1.036,38.0
79.428,-6.382,0.569,28.0
79.364,-6.351,0.135,18.0
82.67,-6.612,2.442,47.0
82.383,-6.56,1.982,44.0
82.744,-6.56,1.539,35.0
81.951,-6.469,1.067,38.0
65.72,-5.165,0.496,0.0
61.526,-4.815,0.127,18.0
82.275,-6.434,2.461,39.0
82.35,-6.411,2.011,43.0
82.604,-6.403,1.565,33.0
81.98,-6.326,1.095,33.0
65.713,-5.047,0.518,2.0
65.541,-5.012,0.158,236.0
82.614,-6.313,2.498,51.0
82.591,-6.282,2.043,49.0
82.89,-6.276,1.597,51.0
0.0,0.0,0.0,0.0
65.658,-4.925,0.538,10.0
65.518,-4.892,0.178,239.0
83.046,-6.196,2.535,45.0
82.389,-6.117,2.062,39.0
83.022,-6.135,1.623,33.0
0.0,0.0,0.0,0.0
65.581,-4.799,0.555,6.0
65.42,-4.764,0.194,0.0
82.944,-6.035,2.554,47.0
82.465,-5.97,2.085,39.0
82.889,-5.972,1.641,41.0
0.0,0.0,0.0,0.0
65.496,-4.672,0.57,2.0
65.416,-4.643,0.21,1.0
82.827,-5.873,2.568,52.0
82.515,-5.82,2.105,41.0
82.963,-5.821,1.659,29.0
0.0,0.0,0.0,0.0
65.596,-4.556,0.584,162.0
65.605,-4.534,0.223,1.0
83.648,-5.775,2.61,26.0
82.469,-5.662,2.118,33.0
83.002,-5.669,1.675,8.0
0.0,0.0,0.0,0.0
65.597,-4.433,0.595,160.0
24.614,-1.654,0.087,4.0
24.528,-1.646,0.768,39.0
24.55,-1.638,0.634,25.0
24.572,-1.631,0.499,29.0
24.548,-1.62,0.361,27.0
24.542,-1.611,0.225,27.0
24.558,-1.603,0.09,36.0
24.5,-1.597,0.77,65.0
24.529,-1.59,0.636,58.0
24.545,-1.581,0.501,49.0
24.535,-1.572,0.363,53.0
24.516,-1.562,0.227,41.0
24.533,-1.554,0.092,65.0
24.495,-1.549,0.772,67.0
24.54,-1.543,0.638,107.0
24.532,-1.533,0.502,59.0
24.527,-1.524,0.364,69.0
24.524,-1.515,0.229,69.0
24.515,-1.505,0.093,61.0
24.511,-1.502,0.774,59.0
24.544,-1.495,0.639,76.0
24.535,-1.485,0.503,69.0
24.543,-1.477,0.365,70.0
24.528,-1.467,0.229,53.0
24.518,-1.458,0.093,58.0
24.553,-1.457,0.775,76.0
24.569,-1.449,0.639,74.0
24.562,-1.439,0.503,54.0
24.553,-1.43,0.364,47.0
24.558,-1.421,0.229,46.0
24.558,-1.412,0.093,42.0
24.576,-1.41,0.774,27.0
24.608,-1.403,0.639,11.0
24.592,-1.392,0.502,16.0
24.607,-1.384,0.364,10.0
24.597,-1.375,0.227,13.0
24.596,-1.366,0.091,2.0
83.981,-4.653,2.641,50.0
83.932,-4.619,2.173,38.0
84.384,-4.612,1.717,30.0
66.81,-3.627,0.982,0.0
65.731,-3.544,0.602,0.0
0.0,0.0,0.0,0.0
84.364,-4.507,2.643,43.0
84.652,-4.489,2.182,37.0
84.865,-4.469,1.716,37.0
82.818,-4.331,1.207,11.0
0.0,0.0,0.0,0.0
66.605,-3.434,0.231,0.0
84.706,-4.353,2.641,32.0
84.729,-4.324,2.17,43.0
84.84,-4.298,1.701,35.0
82.87,-4.167,1.193,41.0
82.389,-4.113,0.728,1.0
0.0,0.0,0.0,0.0
85.567,-4.226,2.651,30.0
84.663,-4.151,2.152,42.0
84.699,-4.121,1.681,32.0
82.964,-4.006,1.177,37.0
79.873,-3.829,0.689,17.0
31.33,-1.49,0.096,4.0
85.637,-4.058,2.633,21.0
84.917,-3.993,2.138,34.0
85.018,-3.966,1.667,21.0
31.314,-1.449,0.436,20.0
31.273,-1.436,0.261,32.0
31.247,-1.423,0.087,46.0
85.822,-3.894,2.616,12.0
85.16,-3.832,2.12,13.0
31.288,-1.396,0.604,29.0
31.215,-1.381,0.426,25.0
28.462,-1.249,0.229,59.0
28.45,-1.238,0.071,65.0
28.45,-1.233,0.858,65.0
28.442,-1.222,0.699,60.0
28.421,-1.211,0.54,84.0
28.436,-1.2,0.378,110.0
28.438,-1.19,0.22,110.0
28.453,-1.18,0.061,135.0
28.441,-1.174,0.848,113.0
28.445,-1.164,0.689,150.0
28.443,-1.153,0.53,150.0
28.43,-1.143,0.368,76.0
28.454,-1.134,0.209,69.0
28.468,-1.124,0.05,68.0
28.458,-1.117,0.837,59.0
28.443,-1.106,0.677,32.0
31.238,-1.204,0.569,40.0
31.237,-1.193,0.392,41.0
31.271,-1.183,0.217,36.0
31.305,-1.173,0.042,41.0
31.282,-1.165,0.907,51.0
31.287,-1.154,0.732,46.0
31.322,-1.145,0.557,39.0
84.145,-3.046,1.018,24.0
80.407,-2.881,0.523,33.0
80.496,-2.856,0.073,24.0
31.332,-1.104,0.894,44.0
31.424,-1.096,0.72,2.0
152.064,-5.252,2.635,11.0
84.961,-2.904,0.987,38.0
38.768,-1.311,0.233,3.0
38.739,-1.296,0.016,30.0
38.647,-1.285,1.083,46.0
38.649,-1.27,0.866,57.0
38.647,-1.257,0.65,50.0
38.652,-1.243,0.429,62.0
38.676,-1.23,0.212,62.0
38.668,-1.216,-0.003,62.0
38.599,-1.205,1.061,70.0
38.63,-1.192,0.845,74.0
38.63,-1.178,0.628,73.0
38.611,-1.164,0.407,73.0
38.655,-1.152,0.19,83.0
38.66,-1.138,-0.026,78.0
38.625,-1.127,1.039,81.0
38.64,-1.114,0.822,88.0
38.619,-1.099,0.605,67.0
38.613,-1.086,0.384,70.0
38.648,-1.073,0.167,69.0
38.651,-1.059,-0.049,63.0
38.648,-1.049,1.016,90.0
38.66,-1.036,0.798,53.0
38.672,-1.023,0.581,39.0
38.683,-1.009,0.36,39.0
38.732,-0.997,0.142,18.0
38.763,-0.984,-0.075,25.0
38.686,-0.972,0.991,40.0
40.423,-1.002,0.808,26.0
40.415,-0.987,0.58,32.0
40.412,-0.973,0.348,37.0
40.409,-0.959,0.121,40.0
40.414,-0.945,-0.105,38.0
40.405,-0.934,1.007,38.0
40.409,-0.92,0.779,45.0
40.393,-0.905,0.551,21.0
38.391,-0.848,0.304,14.0
38.376,-0.834,0.087,43.0
38.372,-0.821,-0.128,50.0
38.425,-0.812,0.929,9.0
45.689,-0.949,0.847,7.0
52.947,-1.082,0.683,53.0
52.916,-1.063,0.379,66.0
52.961,-1.046,0.081,57.0
52.947,-1.028,-0.217,53.0
191.157,-3.659,4.477,8.0
203.391,-3.826,3.617,6.0
193.198,-3.566,2.344,7.0
20.14,-0.364,0.128,1.0
20.14,-0.358,0.014,39.0
53.065,-0.926,-0.259,3.0
176.607,-3.032,3.994,79.0
176.651,-2.975,2.998,57.0
20.137,-0.332,0.228,6.0
20.109,-0.325,0.112,16.0
20.138,-0.318,-0.001,22.0
59.444,-0.921,-0.34,6.0
53.518,-0.814,1.165,30.0
20.138,-0.299,0.324,9.0
20.124,-0.292,0.21,14.0
20.139,-0.286,0.094,10.0
59.527,-0.825,-0.055,79.0
56.603,-0.767,-0.372,13.0
20.144,-0.267,0.421,12.0
20.132,-0.26,0.306,11.0
20.153,-0.253,0.193,11.0
56.165,-0.689,0.215,2.0
56.326,-0.673,-0.102,1.0
59.406,-0.691,-0.444,6.0
20.149,-0.228,0.402,16.0
64.356,-0.708,0.922,10.0
64.329,-0.687,0.558,83.0
56.167,-0.581,0.163,7.0
56.231,-0.563,-0.154,13.0
56.55,-0.549,-0.475,1.0
53.452,-0.503,1.018,6.0
64.351,-0.585,0.861,32.0
20.244,-0.177,0.156,0.0
56.224,-0.473,0.108,5.0
20.186,-0.163,-0.075,12.0
20.158,-0.157,-0.189,11.0
20.204,-0.151,0.364,20.0
20.148,-0.144,0.249,16.0
20.129,-0.137,0.135,16.0
20.145,-0.131,0.019,26.0
20.152,-0.124,-0.095,26.0
20.154,-0.118,-0.209,20.0
20.131,-0.112,0.343,28.0
20.123,-0.105,0.228,24.0
20.129,-0.099,0.114,29.0
20.123,-0.092,-0.001,34.0
20.143,-0.086,-0.116,32.0
20.147,-0.08,-0.23,21.0
20.123,-0.074,0.321,31.0
20.118,-0.068,0.207,29.0
20.121,-0.061,0.092,39.0
20.121,-0.055,-0.023,37.0
20.151,-0.048,-0.138,33.0
20.159,-0.042,-0.252,22.0
20.127,-0.036,0.299,28.0
20.118,-0.03,0.185,31.0
20.135,-0.024,0.071,29.0
20.17,-0.018,-0.045,14.0
20.214,-0.012,-0.16,13.0
20.252,-0.006,-0.275,22.0
20.131,0.0,0.277,28.0
20.125,0.006,0.163,26.0
20.241,0.012,0.048,70.0
20.259,0.018,-0.068,151.0
20.267,0.024,-0.183,150.0
20.256,0.03,-0.299,27.0
20.147,0.036,0.254,29.0
20.144,0.042,0.139,27.0
20.212,0.049,0.025,27.0
20.196,0.054,-0.091,26.0
20.194,0.061,-0.206,13.0
0.0,0.0,0.0,0.0
20.151,0.073,0.23,28.0
20.166,0.079,0.116,25.0
20.188,0.085,0.001,27.0
20.18,0.091,-0.115,32.0
20.188,0.097,-0.231,26.0
20.206,0.103,-0.346,20.0
20.163,0.109,0.206,27.0
20.201,0.115,0.091,34.0
20.185,0.121,-0.023,26.0
20.17,0.126,-0.14,37.0
20.168,0.132,-0.255,33.0
20.192,0.138,-0.371,31.0
20.194,0.144,0.181,27.0
20.234,0.151,0.066,26.0
20.233,0.156,-0.048,22.0
20.169,0.162,-0.165,19.0
20.166,0.168,-0.281,32.0
20.174,0.173,-0.396,36.0
20.313,0.181,0.156,31.0
20.33,0.186,0.041,32.0
20.225,0.191,-0.074,0.0
20.163,0.196,-0.191,14.0
20.18,0.202,-0.307,28.0
20.19,0.208,-0.422,29.0
20.315,0.216,0.13,24.0
20.369,0.222,0.014,0.0
0.0,0.0,0.0,0.0
20.202,0.231,-0.218,8.0
20.187,0.237,-0.333,23.0
20.219,0.243,-0.45,18.0
99.544,1.227,0.505,6.0
99.57,1.255,-0.062,2.0
0.0,0.0,0.0,0.0
0.0,0.0,0.0,0.0
20.208,0.271,-0.361,0.0
20.221,0.276,-0.477,1.0
99.655,1.393,0.371,6.0
101.393,1.445,-0.201,1.0
0.0,0.0,0.0,0.0
0.0,0.0,0.0,0.0
0.0,0.0,0.0,0.0
33.485,0.512,-0.836,0.0
99.732,1.556,0.234,5.0
0.0,0.0,0.0,0.0
0.0,0.0,0.0,0.0
0.0,0.0,0.0,0.0
38.024,0.633,-0.785,0.0
32.205,0.545,-0.849,1.0
99.882,1.721,0.092,14.0
0.0,0.0,0.0,0.0
0.0,0.0,0.0,0.0
0.0,0.0,0.0,0.0
37.211,0.679,-0.821,0.0
31.443,0.582,-0.874,1.0
0.0,0.0,0.0,0.0
0.0,0.0,0.0,0.0
0.0,0.0,0.0,0.0
42.83,0.837,-0.761,0.0
34.996,0.693,-0.823,0.0
29.614,0.594,-0.866,0.0
100.024,2.034,-0.195,5.0
0.0,0.0,0.0,0.0
0.0,0.0,0.0,0.0
0.0,0.0,0.0,0.0
33.094,0.705,-0.826,0.0
28.667,0.618,-0.88,1.0
0.0,0.0,0.0,0.0
0.0,0.0,0.0,0.0
0.0,0.0,0.0,0.0
0.0,0.0,0.0,0.0
32.148,0.733,-0.851,1.0
27.367,0.631,-0.882,0.0
0.0,0.0,0.0,0.0
0.0,0.0,0.0,0.0
0.0,0.0,0.0,0.0
0.0,0.0,0.0,0.0
31.143,0.756,-0.871,1.0
26.251,0.644,-0.885,0.0
0.0,0.0,0.0,0.0
0.0,0.0,0.0,0.0
0.0,0.0,0.0,0.0
35.116,0.895,-0.834,0.0
29.431,0.756,-0.868,0.0
25.118,0.651,-0.885,0.0
0.0,0.0,0.0,0.0
0.0,0.0,0.0,0.0
0.0,0.0,0.0,0.0
32.605,0.876,-0.825,1.0
28.25,0.766,-0.878,0.0
24.259,0.663,-0.893,0.0
0.0,0.0,0.0,0.0
0.0,0.0,0.0,0.0
37.255,1.044,-0.784,0.0
31.699,0.895,-0.852,1.0
26.654,0.759,-0.87,0.0
23.514,0.675,-0.903,0.0
0.0,0.0,0.0,0.0
0.0,0.0,0.0,0.0
35.905,1.055,-0.812,0.0
30.396,0.899,-0.865,0.0
25.934,0.773,-0.888,0.0
22.602,0.679,-0.904,0.0
0.0,0.0,0.0,0.0
0.0,0.0,0.0,0.0
34.32,1.053,-0.831,0.0
28.76,0.888,-0.865,0.0
24.842,0.772,-0.89,0.0
22.086,0.691,-0.919,0.0
0.0,0.0,0.0,0.0
38.356,1.217,-0.77,0.0
32.347,1.033,-0.836,1.0
0.0,0.0,0.0,0.0
23.867,0.772,-0.894,0.0
20.926,0.681,-0.904,0.0
0.0,0.0,0.0,0.0
36.629,1.208,-0.795,0.0
30.265,1.004,-0.831,0.0
26.295,0.878,-0.876,0.0
22.825,0.767,-0.893,0.0
20.402,0.689,-0.915,0.0
0.0,0.0,0.0,0.0
35.805,1.224,-0.837,0.0
29.995,1.031,-0.874,1.0
25.095,0.868,-0.878,0.0
22.303,0.776,-0.909,0.0
19.839,0.694,-0.923,0.0
0.0,0.0,0.0,0.0
32.611,1.153,-0.816,1.0
27.77,0.987,-0.855,0.0
24.199,0.865,-0.887,0.0
21.326,0.766,-0.905,0.0
18.936,0.684,-0.913,0.0
0.0,0.0,0.0,0.0
31.736,1.158,-0.847,0.0
26.319,0.965,-0.855,0.0
23.239,0.857,-0.891,0.0
20.641,0.765,-0.91,0.0
18.485,0.688,-0.922,0.0
35.7,1.335,-0.808,0.0
30.099,1.131,-0.854,1.0
25.151,0.95,-0.859,0.0
22.508,0.854,-0.901,0.0
20.055,0.765,-0.918,0.0
17.985,0.689,-0.928,0.0
33.053,1.271,-0.804,0.0
28.775,1.112,-0.866,0.0
24.181,0.938,-0.867,0.0
21.744,0.848,-0.907,0.0
19.382,0.759,-0.921,0.0
17.348,0.683,-0.925,0.0
32.173,1.271,-0.837,0.0
27.812,1.103,-0.884,0.0
0.0,0.0,0.0,0.0
20.262,0.811,-0.88,4.0
18.612,0.748,-0.916,0.0
16.826,0.679,-0.926,0.0
30.207,1.223,-0.838,1.0
26.049,1.059,-0.873,0.0
22.5,0.918,-0.884,1.0
20.177,0.827,-0.911,5.0
18.087,0.744,-0.921,0.0
16.383,0.677,-0.929,0.0
29.254,1.212,-0.862,0.0
20.236,0.841,-0.713,5.0
20.248,0.845,-0.83,7.0
19.888,0.833,-0.932,0.0
20.239,0.851,-1.066,0.0
15.979,0.675,-0.934,0.0
20.217,0.856,-0.63,0.0
20.231,0.86,-0.748,154.0
20.231,0.863,-0.864,28.0
0.0,0.0,0.0,0.0
20.219,0.868,-1.1,1.0
15.505,0.668,-0.933,0.0
20.252,0.875,-0.667,41.0
20.189,0.875,-0.781,156.0
20.216,0.879,-0.899,33.0
20.209,0.882,-1.018,1.0
16.548,0.725,-0.929,0.0
15.128,0.665,-0.937,0.0
20.195,0.889,-0.7,160.0
20.239,0.894,-0.819,76.0
20.109,0.891,-0.93,14.0
20.228,0.9,-1.054,36.0
16.113,0.719,-0.933,0.0
14.745,0.66,-0.939,0.0
20.193,0.905,-0.735,183.0
20.236,0.91,-0.854,150.0
19.849,0.895,-0.953,9.0
20.201,0.914,-1.088,11.0
15.622,0.709,-0.932,0.0
14.421,0.657,-0.944,0.0
20.189,0.92,-0.771,157.0
20.187,0.923,-0.888,36.0
0.0,0.0,0.0,0.0
16.631,0.765,-0.925,0.0
15.23,0.702,-0.936,0.0
14.109,0.653,-0.949,0.0
20.238,0.937,-0.808,43.0
20.177,0.937,-0.923,10.0
20.217,0.941,-1.042,2.0
16.156,0.754,-0.927,0.0
14.812,0.693,-0.936,0.0
13.641,0.64,-0.941,0.0
20.234,0.951,-0.844,17.0
20.189,0.951,-0.959,3.0
20.259,0.957,-1.079,0.0
15.785,0.747,-0.934,0.0
14.477,0.687,-0.941,0.0
13.356,0.636,-0.945,0.0
20.212,0.962,-0.878,10.0
18.504,0.883,-0.911,0.0
16.877,0.807,-0.929,1.0
15.284,0.733,-0.931,0.0
14.255,0.685,-0.951,0.0
13.037,0.628,-0.946,0.0
20.206,0.974,-0.914,7.0
17.85,0.862,-0.91,0.0
16.36,0.792,-0.929,0.0
14.869,0.722,-0.932,0.0
0.0,0.0,0.0,0.0
12.714,0.62,-0.945,0.0
19.324,0.942,-0.908,0.0
17.225,0.842,-0.909,0.0
15.872,0.777,-0.93,0.0
14.503,0.712,-0.935,0.0
13.489,0.663,-0.948,0.0
12.41,0.612,-0.944,0.0
18.549,0.914,-0.904,0.0
16.741,0.826,-0.913,0.0
15.393,0.761,-0.929,0.0
14.336,0.711,-0.95,0.0
13.053,0.648,-0.941,0.0
12.147,0.605,-0.946,0.0
17.98,0.894,-0.908,0.0
16.32,0.813,-0.919,1.0
15.016,0.75,-0.932,0.0
0.0,0.0,0.0,0.0
12.818,0.642,-0.946,0.0
11.799,0.593,-0.94,0.0
17.461,0.876,-0.912,0.0
15.945,0.801,-0.925,1.0
14.637,0.737,-0.934,0.0
13.498,0.681,-0.941,0.0
12.495,0.631,-0.944,0.0
11.61,0.588,-0.945,0.0
16.987,0.859,-0.917,0.0
15.58,0.789,-0.931,1.0
14.386,0.729,-0.943,0.0
13.204,0.671,-0.944,0.0
12.198,0.621,-0.943,0.0
11.351,0.578,-0.943,0.0
16.435,0.836,-0.915,0.0
15.176,0.773,-0.933,0.0
14.08,0.719,-0.947,0.0
12.87,0.658,-0.942,0.0
11.924,0.61,-0.942,0.0
11.13,0.571,-0.944,0.0
15.955,0.817,-0.916,0.0
14.722,0.755,-0.93,0.0
13.589,0.698,-0.938,0.0
12.595,0.647,-0.944,0.0
11.666,0.6,-0.942,0.0
10.926,0.563,-0.946,0.0
15.59,0.802,-0.922,1.0
14.471,0.745,-0.939,0.0
13.348,0.688,-0.944,0.0
12.28,0.634,-0.941,0.0
11.426,0.591,-0.942,0.0
10.709,0.555,-0.945,0.0
15.23,0.787,-0.926,2.0
14.188,0.734,-0.945,0.0
13.028,0.675,-0.944,0.0
12.007,0.623,-0.941,0.0
11.203,0.582,-0.943,0.0
10.468,0.544,-0.942,0.0
14.957,0.775,-0.935,1.0
0.0,0.0,0.0,0.0
12.712,0.66,-0.942,0.0
11.745,0.611,-0.94,0.0
11.073,0.577,-0.951,0.0
10.308,0.537,-0.945,0.0
14.547,0.756,-0.934,0.0
13.345,0.694,-0.934,0.0
12.413,0.646,-0.941,0.0
11.522,0.601,-0.942,0.0
10.779,0.563,-0.944,0.0
10.141,0.53,-0.947,0.0
14.291,0.744,-0.941,0.0
13.091,0.682,-0.938,0.0
12.142,0.633,-0.941,0.0
11.3,0.59,-0.942,0.0
10.665,0.557,-0.952,0.0
9.953,0.521,-0.946,0.0
13.888,0.724,-0.938,0.0
12.84,0.67,-0.941,0.0
11.851,0.619,-0.938,0.0
11.087,0.579,-0.943,0.0
10.366,0.542,-0.942,0.0
9.78,0.512,-0.946,0.0
13.52,0.705,-0.935,0.0
12.583,0.657,-0.943,0.0
11.635,0.608,-0.939,0.0
10.915,0.57,-0.946,0.0
10.21,0.534,-0.944,0.0
9.607,0.503,-0.944,0.0
13.283,0.692,-0.94,0.0
12.273,0.64,-0.939,0.0
11.419,0.596,-0.94,0.0
10.695,0.559,-0.944,0.0
10.072,0.526,-0.948,0.0
9.456,0.494,-0.945,0.0
13.024,0.678,-0.942,0.0
12.015,0.626,-0.939,0.0
11.275,0.588,-0.946,0.0
10.511,0.548,-0.944,0.0
9.864,0.515,-0.944,0.0
9.332,0.487,-0.947,0.0
12.726,0.661,-0.941,0.0
11.774,0.612,-0.938,0.0
11.018,0.573,-0.942,0.0
10.315,0.537,-0.943,0.0
9.725,0.506,-0.946,0.0
9.172,0.478,-0.946,0.0
12.471,0.646,-0.941,0.0
11.584,0.6,-0.941,0.0
10.828,0.561,-0.943,0.0
10.159,0.527,-0.945,0.0
9.55,0.495,-0.944,0.0
9.002,0.467,-0.942,0.0
12.18,0.629,-0.938,0.0
11.356,0.587,-0.94,0.0
10.583,0.547,-0.938,0.0
10.005,0.517,-0.946,0.0
9.437,0.488,-0.947,0.0
8.877,0.459,-0.942,0.0
11.911,0.613,-0.935,0.0
11.142,0.573,-0.939,0.0
10.443,0.537,-0.941,0.0
9.85,0.507,-0.946,0.0
9.269,0.477,-0.944,0.0
8.744,0.45,-0.942,0.0
11.732,0.601,-0.938,0.0
10.987,0.562,-0.942,0.0
10.273,0.526,-0.941,0.0
9.668,0.495,-0.943,0.0
9.104,0.466,-0.941,0.0
8.644,0.442,-0.944,0.0
11.494,0.585,-0.936,0.0
10.782,0.549,-0.941,0.0
10.163,0.517,-0.946,0.0
9.526,0.485,-0.943,0.0
8.98,0.457,-0.941,0.0
8.545,0.435,-0.945,0.0
11.3,0.571,-0.937,0.0
10.613,0.536,-0.941,0.0
9.971,0.504,-0.942,0.0
9.439,0.477,-0.948,0.0
8.871,0.448,-0.942,0.0
8.418,0.425,-0.943,0.0
11.147,0.56,-0.94,0.0
10.434,0.524,-0.94,0.0
9.847,0.494,-0.944,0.0
9.277,0.465,-0.944,0.0
8.725,0.437,-0.939,0.0
8.342,0.418,-0.947,0.0
11.038,0.55,-0.946,0.0
10.28,0.512,-0.94,0.0
9.695,0.482,-0.943,0.0
9.145,0.455,-0.944,0.0
8.655,0.43,-0.944,0.0
8.188,0.407,-0.94,0.0
10.823,0.534,-0.942,0.0
10.172,0.502,-0.944,0.0
9.561,0.471,-0.943,0.0
8.967,0.442,-0.937,0.0
8.524,0.42,-0.941,0.0
8.096,0.399,-0.941,0.0
10.634,0.52,-0.94,0.0
9.989,0.488,-0.941,0.0
9.448,0.461,-0.945,0.0
8.846,0.432,-0.937,0.0
8.406,0.41,-0.939,0.0
8.047,0.392,-0.946,0.0
10.475,0.507,-0.939,0.0
9.88,0.478,-0.943,0.0
9.289,0.449,-0.941,0.0
8.755,0.423,-0.938,0.0
8.384,0.404,-0.947,0.0
7.927,0.382,-0.942,0.0
10.354,0.496,-0.942,0.0
9.746,0.466,-0.943,0.0
9.186,0.439,-0.942,0.0
8.679,0.414,-0.941,0.0
8.259,0.394,-0.944,0.0
7.868,0.375,-0.945,0.0
10.243,0.485,-0.945,0.0
9.618,0.454,-0.942,0.0
9.073,0.428,-0.941,0.0
8.575,0.404,-0.941,0.0
8.187,0.386,-0.946,0.0
7.799,0.367,-0.946,0.0
10.101,0.472,-0.944,0.0
9.495,0.443,-0.942,0.0
8.931,0.416,-0.938,0.0
8.47,0.394,-0.939,0.0
8.105,0.377,-0.946,0.0
7.692,0.357,-0.942,0.0
9.94,0.458,-0.94,0.0
9.387,0.432,-0.942,0.0
8.858,0.407,-0.94,0.0
8.429,0.387,-0.945,0.0
7.972,0.365,-0.94,0.0
7.632,0.349,-0.944,0.0
9.849,0.447,-0.943,0.0
9.268,0.42,-0.941,0.0
8.715,0.394,-0.935,0.0
8.288,0.375,-0.938,0.0
7.931,0.358,-0.944,0.0
7.574,0.341,-0.946,0.0
9.742,0.436,-0.944,0.0
9.189,0.41,-0.943,0.0
8.679,0.387,-0.941,0.0
8.228,0.366,-0.94,0.0
7.848,0.349,-0.943,0.0
7.483,0.332,-0.942,0.0
9.606,0.423,-0.941,0.0
9.061,0.398,-0.94,0.0
8.565,0.375,-0.938,0.0
8.144,0.356,-0.939,0.0
7.784,0.34,-0.943,0.0
7.469,0.326,-0.948,0.0
9.494,0.411,-0.94,0.0
9.001,0.388,-0.943,0.0
8.519,0.367,-0.941,0.0
8.098,0.348,-0.943,0.0
7.722,0.331,-0.943,0.0
7.385,0.316,-0.945,0.0
9.402,0.399,-0.94,0.0
8.873,0.376,-0.938,0.0
8.406,0.355,-0.937,0.0
8.027,0.339,-0.942,0.0
7.659,0.323,-0.943,0.0
7.363,0.309,-0.95,0.0
9.336,0.389,-0.942,0.0
8.768,0.365,-0.935,0.0
8.344,0.346,-0.938,0.0
7.926,0.328,-0.938,0.0
7.66,0.316,-0.951,0.0
7.349,0.303,-0.955,0.0
9.251,0.378,-0.942,0.0
8.704,0.355,-0.936,0.0
8.28,0.337,-0.939,0.0
7.902,0.321,-0.942,0.0
7.542,0.305,-0.943,0.0
7.247,0.293,-0.948,0.0
9.139,0.366,-0.939,0.0
8.644,0.345,-0.937,0.0
8.251,0.329,-0.942,0.0
7.822,0.311,-0.939,0.0
7.487,0.297,-0.942,0.0
7.201,0.285,-0.948,0.0
9.066,0.355,-0.939,0.0
8.594,0.336,-0.939,0.0
8.168,0.318,-0.94,0.0
7.806,0.303,-0.944,0.0
7.479,0.289,-0.948,0.0
7.123,0.275,-0.944,0.0
8.968,0.343,-0.936,0.0
8.53,0.325,-0.939,0.0
8.106,0.308,-0.939,0.0
7.737,0.293,-0.942,0.0
7.454,0.282,-0.95,0.0
7.143,0.269,-0.952,0.0
8.908,0.332,-0.936,0.0
8.473,0.315,-0.939,0.0
8.048,0.299,-0.938,0.0
7.704,0.285,-0.943,0.0
7.37,0.272,-0.945,0.0
7.098,0.261,-0.951,0.0
8.874,0.323,-0.939,0.0
8.4,0.305,-0.937,0.0
8.009,0.289,-0.94,0.0
7.608,0.274,-0.937,0.0
7.333,0.263,-0.946,0.0
7.013,0.251,-0.945,0.0
8.801,0.312,-0.938,0.0
8.376,0.296,-0.94,0.0
7.969,0.28,-0.94,0.0
7.593,0.266,-0.94,0.0
7.312,0.255,-0.948,0.0
6.988,0.243,-0.946,0.0
8.732,0.301,-0.936,0.0
8.292,0.285,-0.936,0.0
7.94,0.271,-0.942,0.0
7.56,0.257,-0.941,0.0
7.27,0.247,-0.947,0.0
7.003,0.237,-0.952,0.0
8.71,0.291,-0.939,0.0
8.274,0.276,-0.939,0.0
7.885,0.262,-0.94,0.0
7.566,0.25,-0.946,0.0
7.264,0.239,-0.95,0.0
6.927,0.227,-0.946,0.0
8.652,0.281,-0.937,0.0
8.232,0.266,-0.939,0.0
7.86,0.253,-0.941,0.0
7.511,0.24,-0.943,0.0
7.246,0.231,-0.952,0.0
6.913,0.219,-0.948,0.0
8.61,0.271,-0.937,0.0
8.2,0.256,-0.939,0.0
7.83,0.244,-0.941,0.0
7.481,0.232,-0.943,0.0
7.218,0.223,-0.952,0.0
6.925,0.213,-0.953,0.0
8.596,0.261,-0.939,0.0
8.173,0.247,-0.94,0.0
7.829,0.235,-0.945,0.0
7.415,0.222,-0.938,0.0
7.166,0.213,-0.948,0.0
0.0,0.0,0.0,0.0
8.554,0.251,-0.938,0.0
8.167,0.238,-0.942,0.0
7.768,0.225,-0.941,0.0
7.466,0.215,-0.948,0.0
7.145,0.205,-0.948,0.0
6.84,0.195,-0.947,0.0
8.52,0.241,-0.938,0.0
8.107,0.228,-0.939,0.0
7.761,0.217,-0.943,0.0
7.415,0.206,-0.944,0.0
7.113,0.196,-0.946,0.0
0.0,0.0,0.0,0.0
8.475,0.23,-0.936,0.0
8.083,0.218,-0.938,0.0
7.689,0.206,-0.936,0.0
7.364,0.196,-0.94,0.0
7.102,0.188,-0.947,0.0
0.0,0.0,0.0,0.0
8.469,0.221,-0.938,0.0
8.096,0.209,-0.942,0.0
7.72,0.198,-0.942,0.0
7.377,0.188,-0.943,0.0
7.093,0.18,-0.948,0.0
6.82,0.172,-0.95,0.0
8.425,0.21,-0.935,0.0
8.063,0.2,-0.94,0.0
7.687,0.189,-0.94,0.0
7.419,0.181,-0.95,0.0
7.113,0.173,-0.952,0.0
6.755,0.163,-0.943,0.0
8.409,0.2,-0.935,0.0
8.032,0.19,-0.938,0.0
7.696,0.181,-0.943,0.0
7.308,0.17,-0.938,0.0
7.042,0.163,-0.943,0.0
0.0,0.0,0.0,0.0
8.419,0.191,-0.937,0.0
8.06,0.181,-0.943,0.0
7.669,0.171,-0.94,0.0
7.353,0.163,-0.944,0.0
7.114,0.156,-0.954,0.0
6.831,0.149,-0.955,0.0
8.411,0.181,-0.937,0.0
8.047,0.172,-0.942,0.0
7.701,0.163,-0.945,0.0
0.0,0.0,0.0,0.0
7.075,0.147,-0.949,0.0
6.84,0.141,-0.957,0.0
8.404,0.172,-0.937,0.0
8.036,0.163,-0.941,0.0
7.707,0.155,-0.946,0.0
7.335,0.146,-0.943,0.0
0.0,0.0,0.0,0.0
6.783,0.132,-0.949,0.0
8.439,0.163,-0.941,0.0
8.032,0.153,-0.941,0.0
7.648,0.145,-0.939,0.0
7.363,0.138,-0.946,0.0
7.072,0.131,-0.949,0.0
6.796,0.125,-0.951,0.0
8.423,0.153,-0.939,0.0
8.041,0.144,-0.941,0.0
7.671,0.136,-0.941,0.0
0.0,0.0,0.0,0.0
7.065,0.123,-0.948,0.0
0.0,0.0,0.0,0.0
8.422,0.143,-0.938,0.0
8.012,0.135,-0.937,0.0
7.708,0.128,-0.945,0.0
0.0,0.0,0.0,0.0
0.0,0.0,0.0,0.0
6.809,0.109,-0.951,0.0
8.433,0.134,-0.938,0.0
8.029,0.126,-0.938,0.0
7.712,0.119,-0.944,0.0
0.0,0.0,0.0,0.0
7.108,0.107,-0.951,0.0
6.81,0.101,-0.95,0.0
8.458,0.124,-0.94,0.0
8.021,0.116,-0.936,0.0
7.723,0.11,-0.944,0.0
0.0,0.0,0.0,0.0
7.127,0.099,-0.953,0.0
6.844,0.094,-0.953,0.0
8.459,0.114,-0.938,0.0
8.059,0.107,-0.938,0.0
7.733,0.102,-0.944,0.0
0.0,0.0,0.0,0.0
7.104,0.091,-0.948,0.0
6.83,0.086,-0.95,0.0
8.464,0.105,-0.936,0.0
8.093,0.099,-0.94,0.0
7.755,0.093,-0.944,0.0
0.0,0.0,0.0,0.0
7.145,0.083,-0.951,0.0
6.842,0.078,-0.949,0.0
8.488,0.095,-0.936,0.0
8.11,0.09,-0.94,0.0
7.782,0.084,-0.945,0.0
7.405,0.079,-0.942,0.0
7.175,0.075,-0.953,0.0
0.0,0.0,0.0,0.0
8.525,0.086,-0.937,0.0
8.152,0.081,-0.941,0.0
7.781,0.075,-0.942,0.0
7.437,0.071,-0.943,0.0
7.231,0.067,-0.957,0.0
6.925,0.063,-0.956,0.0
8.582,0.077,-0.94,0.0
8.161,0.071,-0.939,0.0
7.804,0.067,-0.942,0.0
7.445,0.062,-0.941,0.0
7.186,0.059,-0.948,0.0
6.876,0.055,-0.946,0.0
8.609,0.067,-0.939,0.0
8.225,0.063,-0.943,0.0
7.849,0.058,-0.943,0.0
7.504,0.054,-0.944,0.0
7.24,0.051,-0.952,0.0
6.929,0.047,-0.95,0.0
8.636,0.058,-0.938,0.0
8.249,0.054,-0.941,0.0
7.846,0.049,-0.939,0.0
7.491,0.046,-0.939,0.0
7.282,0.043,-0.953,0.0
6.949,0.04,-0.949,0.0
8.702,0.049,-0.94,0.0
8.241,0.044,-0.936,0.0
7.875,0.041,-0.938,0.0
7.528,0.037,-0.939,0.0
7.293,0.035,-0.95,0.0
7.012,0.032,-0.953,0.0
8.728,0.039,-0.938,0.0
8.309,0.035,-0.939,0.0
7.92,0.032,-0.939,0.0
7.569,0.029,-0.94,0.0
7.281,0.027,-0.945,0.0
7.034,0.024,-0.952,0.0
8.803,0.03,-0.94,0.0
8.35,0.026,-0.938,0.0
7.992,0.024,-0.942,0.0
7.669,0.021,-0.947,0.0
7.33,0.019,-0.946,0.0
7.044,0.017,-0.948,0.0
8.856,0.02,-0.94,0.0
8.439,0.018,-0.942,0.0
8.016,0.015,-0.939,0.0
7.663,0.013,-0.941,0.0
7.336,0.011,-0.942,0.0
7.069,0.009,-0.947,0.0
8.894,0.011,-0.938,0.0
8.511,0.009,-0.944,0.0
8.073,0.007,-0.94,0.0
7.724,0.005,-0.943,0.0
7.425,0.003,-0.947,0.0
7.109,0.002,-0.946,0.0
8.964,0.001,-0.938,0.0
8.552,0.0,-0.942,0.0
8.119,-0.001,-0.939,0.0
7.739,-0.002,-0.938,0.0
7.441,-0.004,-0.943,0.0
7.14,-0.005,-0.945,0.0
9.054,-0.007,-0.94,0.0
8.6,-0.008,-0.94,0.0
8.201,-0.01,-0.942,0.0
7.813,-0.011,-0.941,0.0
7.524,-0.012,-0.948,0.0
7.22,-0.013,-0.949,0.0
9.128,-0.017,-0.94,0.0
8.673,-0.017,-0.941,0.0
8.256,-0.018,-0.941,0.0
7.873,-0.019,-0.941,0.0
7.579,-0.02,-0.948,0.0
7.278,-0.02,-0.95,0.0
9.199,-0.026,-0.94,0.0
8.738,-0.026,-0.94,0.0
8.321,-0.027,-0.941,0.0
7.931,-0.027,-0.941,0.0
7.612,-0.027,-0.945,0.0
7.353,-0.028,-0.953,0.0
9.307,-0.036,-0.942,0.0
8.805,-0.035,-0.939,0.0
8.404,-0.035,-0.942,0.0
8.009,-0.035,-0.942,0.0
7.643,-0.035,-0.941,0.0
7.336,-0.035,-0.944,0.0
9.422,-0.045,-0.944,0.0
8.903,-0.045,-0.941,0.0
8.466,-0.044,-0.941,0.0
8.062,-0.043,-0.941,0.0
7.734,-0.043,-0.945,0.0
7.423,-0.043,-0.947,0.0
9.543,-0.055,-0.947,0.0
8.968,-0.054,-0.938,0.0
8.563,-0.053,-0.943,0.0
8.134,-0.052,-0.94,0.0
7.826,-0.051,-0.948,0.0
7.468,-0.05,-0.945,0.0
9.619,-0.065,-0.944,0.0
9.081,-0.063,-0.941,0.0
8.638,-0.061,-0.942,0.0
8.193,-0.06,-0.938,0.0
7.851,-0.059,-0.942,0.0
7.564,-0.058,-0.949,0.0
9.743,-0.075,-0.946,0.0
9.204,-0.072,-0.943,0.0
8.728,-0.07,-0.942,0.0
8.286,-0.068,-0.94,0.0
7.954,-0.067,-0.945,0.0
7.602,-0.065,-0.945,0.0
9.879,-0.085,-0.948,0.0
9.313,-0.081,-0.944,0.0
8.815,-0.079,-0.941,0.0
8.38,-0.076,-0.941,0.0
8.043,-0.075,-0.947,0.0
7.673,-0.073,-0.945,0.0
9.982,-0.094,-0.946,0.0
9.404,-0.091,-0.942,0.0
8.947,-0.088,-0.944,0.0
8.457,-0.084,-0.939,0.0
8.108,-0.082,-0.944,0.0
7.725,-0.08,-0.942,0.0
10.122,-0.104,-0.947,0.0
9.566,-0.1,-0.946,0.0
9.023,-0.096,-0.941,0.0
8.597,-0.093,-0.944,0.0
8.202,-0.09,-0.945,0.0
7.831,-0.087,-0.945,0.0
10.282,-0.114,-0.949,0.0
9.688,-0.109,-0.946,0.0
9.15,-0.105,-0.943,0.0
8.692,-0.101,-0.944,0.0
8.294,-0.098,-0.945,0.0
7.896,-0.094,-0.942,0.0
10.411,-0.124,-0.948,0.0
9.836,-0.119,-0.948,0.0
9.283,-0.114,-0.945,0.0
8.784,-0.109,-0.942,0.0
8.352,-0.105,-0.941,0.0
8.005,-0.102,-0.945,0.0
10.547,-0.134,-0.946,0.0
9.969,-0.128,-0.948,0.0
9.403,-0.122,-0.944,0.0
8.945,-0.118,-0.947,0.0
8.493,-0.113,-0.945,0.0
8.136,-0.11,-0.949,0.0
10.721,-0.144,-0.947,0.0
10.129,-0.138,-0.949,0.0
9.548,-0.131,-0.946,0.0
9.026,-0.126,-0.944,0.0
8.602,-0.121,-0.945,0.0
8.18,-0.116,-0.943,0.0
10.91,-0.155,-0.949,0.0
10.289,-0.148,-0.95,0.0
9.717,-0.141,-0.949,0.0
9.15,-0.134,-0.944,0.0
8.698,-0.129,-0.944,0.0
8.298,-0.124,-0.945,0.0
11.09,-0.165,-0.949,0.0
10.454,-0.157,-0.95,0.0
9.857,-0.149,-0.949,0.0
9.309,-0.143,-0.947,0.0
8.825,-0.136,-0.945,0.0
8.392,-0.131,-0.943,0.0
11.286,-0.175,-0.949,0.0
10.624,-0.167,-0.95,0.0
10.034,-0.159,-0.951,0.0
9.481,-0.151,-0.95,0.0
8.958,-0.144,-0.945,0.0
8.521,-0.139,-0.945,0.0
11.518,-0.186,-0.952,0.0
10.813,-0.177,-0.951,0.0
10.178,-0.167,-0.949,0.0
9.603,-0.159,-0.948,0.0
9.094,-0.152,-0.946,0.0
8.635,-0.146,-0.944,0.0
11.756,-0.197,-0.954,0.0
10.999,-0.186,-0.951,0.0
10.364,-0.177,-0.951,0.0
9.787,-0.168,-0.951,0.0
9.262,-0.16,-0.949,0.0
8.757,-0.153,-0.944,0.0
11.98,-0.208,-0.953,0.0
11.195,-0.196,-0.95,0.0
10.538,-0.186,-0.95,0.0
9.949,-0.177,-0.951,0.0
9.417,-0.168,-0.95,0.0
8.901,-0.16,-0.946,0.0
12.243,-0.219,-0.955,0.0
11.391,-0.205,-0.949,0.0
10.796,-0.196,-0.957,0.0
10.119,-0.185,-0.951,0.0
9.589,-0.176,-0.952,0.0
9.056,-0.168,-0.948,0.0
12.493,-0.23,-0.955,0.0
11.635,-0.216,-0.95,0.0
10.964,-0.205,-0.954,0.0
10.315,-0.194,-0.953,0.0
9.746,-0.184,-0.952,0.0
9.231,-0.176,-0.951,0.0
12.782,-0.242,-0.956,0.0
11.931,-0.227,-0.955,0.0
11.206,-0.214,-0.956,0.0
10.506,-0.202,-0.953,0.0
9.952,-0.193,-0.955,0.0
9.393,-0.183,-0.952,0.0
13.1,-0.254,-0.958,0.0
12.2,-0.238,-0.957,0.0
11.35,-0.222,-0.95,0.0
10.729,-0.211,-0.955,0.0
10.133,-0.2,-0.956,0.0
9.547,-0.19,-0.951,0.0
13.367,-0.264,-0.955,0.0
12.48,-0.248,-0.957,0.0
11.567,-0.231,-0.948,0.0
10.923,-0.219,-0.954,0.0
10.298,-0.208,-0.954,0.0
9.718,-0.197,-0.952,0.0
13.709,-0.276,-0.956,0.0
12.731,-0.258,-0.955,0.0
11.909,-0.242,-0.956,0.0
11.109,-0.227,-0.951,0.0
10.502,-0.216,-0.955,0.0
9.941,-0.205,-0.956,0.0
14.033,-0.288,-0.955,0.0
13.07,-0.269,-0.958,0.0
12.23,-0.253,-0.96,0.0
11.354,-0.236,-0.952,0.0
10.708,-0.223,-0.955,0.0
10.148,-0.212,-0.958,0.0
14.366,-0.299,-0.952,0.0
13.379,-0.28,-0.957,0.0
12.485,-0.262,-0.958,0.0
11.569,-0.244,-0.95,0.0
10.963,-0.232,-0.958,0.0
10.343,-0.219,-0.958,0.0
14.724,-0.311,-0.95,0.0
13.625,-0.289,-0.95,0.0
12.819,-0.272,-0.961,0.0
11.946,-0.255,-0.959,0.0
11.183,-0.239,-0.957,0.0
10.523,-0.226,-0.956,0.0
15.289,-0.326,-0.959,0.0
14.095,-0.302,-0.957,0.0
13.08,-0.281,-0.957,0.0
12.245,-0.264,-0.961,0.0
11.419,-0.247,-0.956,0.0
10.755,-0.233,-0.957,0.0
15.65,-0.337,-0.953,0.0
14.421,-0.312,-0.954,0.0
13.4,-0.29,-0.956,0.0
12.518,-0.272,-0.96,0.0
11.724,-0.255,-0.96,0.0
10.973,-0.24,-0.956,0.0
16.188,-0.351,-0.956,0.0
14.788,-0.322,-0.951,0.0
13.76,-0.3,-0.956,0.0
12.79,-0.28,-0.957,0.0
12.078,-0.265,-0.967,0.0
11.259,-0.247,-0.96,0.0
16.791,-0.367,-0.961,0.0
15.424,-0.338,-0.963,0.0
14.167,-0.311,-0.958,0.0
13.157,-0.289,-0.96,0.0
12.33,-0.272,-0.964,0.0
11.426,-0.252,-0.953,0.0
17.087,-0.375,-0.946,0.0
15.739,-0.346,-0.953,0.0
14.434,-0.318,-0.949,0.0
13.343,-0.294,-0.949,0.0
12.582,-0.278,-0.96,0.0
11.765,-0.26,-0.959,0.0
17.926,-0.394,-0.959,0.0
16.343,-0.36,-0.959,0.0
14.789,-0.326,-0.945,0.0
13.858,-0.306,-0.959,0.0
12.895,-0.285,-0.96,0.0
12.127,-0.269,-0.966,0.0
38.346,-0.844,-1.979,0.0
16.913,-0.373,-0.96,0.0
15.541,-0.343,-0.963,0.0
14.227,-0.314,-0.957,0.0
13.239,-0.293,-0.96,0.0
12.411,-0.275,-0.964,0.0
38.364,-0.844,-1.906,0.0
17.152,-0.377,-0.941,0.0
15.911,-0.35,-0.956,0.0
14.536,-0.32,-0.95,0.0
13.593,-0.3,-0.959,0.0
12.686,-0.28,-0.961,0.0
21.373,-0.469,-1.021,0.0
16.611,-0.365,-0.965,0.0
15.108,-0.332,-0.958,0.0
14.042,-0.308,-0.964,0.0
13.028,-0.286,-0.962,0.0
21.263,-0.464,-0.974,0.0
38.442,-0.84,-1.961,0.0
17.02,-0.372,-0.956,1.0
15.587,-0.34,-0.958,0.0
14.38,-0.314,-0.959,0.0
13.32,-0.291,-0.958,0.0
21.474,-0.466,-0.943,0.0
38.443,-0.834,-1.887,0.0
17.225,-0.373,-0.934,0.0
16.087,-0.349,-0.958,0.0
14.734,-0.319,-0.954,0.0
13.786,-0.299,-0.964,0.0
21.563,-0.464,-0.904,0.0
21.497,-0.462,-1.013,0.0
16.774,-0.36,-0.966,0.0
15.414,-0.331,-0.967,0.0
14.188,-0.304,-0.964,0.0
21.707,-0.462,-0.868,1.0
21.744,-0.463,-0.982,0.0
38.415,-0.818,-1.934,1.0
17.067,-0.363,-0.949,0.0
15.749,-0.334,-0.957,0.0
14.502,-0.308,-0.957,0.0
21.806,-0.459,-0.829,1.0
21.818,-0.459,-0.942,0.0
38.363,-0.806,-1.855,0.0
16.415,-0.344,-0.965,0.0
14.933,-0.312,-0.956,0.0
22.277,-0.462,-0.802,2.0
21.978,-0.456,-0.905,1.0
22.058,-0.456,-1.022,0.0
38.364,-0.793,-1.981,0.0
16.922,-0.349,-0.961,0.0
15.545,-0.32,-0.964,0.0
23.095,-0.472,-0.786,2.0
22.264,-0.454,-0.873,1.0
22.214,-0.452,-0.986,0.0
38.296,-0.778,-1.901,0.0
17.38,-0.352,-0.953,0.0
16.029,-0.324,-0.962,0.0
25.415,-0.51,-0.815,4.0
22.594,-0.452,-0.841,1.0
22.566,-0.45,-0.957,0.0
0.0,0.0,0.0,0.0
0.0,0.0,0.0,0.0
16.585,-0.328,-0.962,0.0
26.448,-0.52,-0.795,1.0
23.043,-0.451,-0.812,1.0
22.849,-0.446,-0.923,0.0
0.0,0.0,0.0,0.0
0.0,0.0,0.0,0.0
17.028,-0.33,-0.954,0.0
27.555,-0.529,-0.774,4.0
23.874,-0.457,-0.794,1.0
23.353,-0.445,-0.897,0.0
0.0,0.0,0.0,0.0
19.564,-0.371,-0.956,2.0
17.606,-0.332,-0.951,0.0
28.802,-0.539,-0.751,11.0
25.693,-0.479,-0.803,1.0
23.708,-0.44,-0.863,1.0
23.493,-0.434,-0.979,0.0
19.66,-0.362,-0.921,0.0
18.357,-0.337,-0.955,0.0
30.443,-0.554,-0.734,24.0
26.941,-0.488,-0.788,2.0
24.156,-0.435,-0.832,2.0
23.593,-0.423,-0.936,0.0
21.445,-0.383,-0.962,1.0
19.394,-0.345,-0.97,0.0
30.822,-0.543,-0.682,31.0
28.561,-0.501,-0.779,7.0
25.283,-0.441,-0.82,3.0
24.488,-0.425,-0.923,0.0
21.481,-0.371,-0.921,3.0
19.631,-0.337,-0.943,1.0
31.591,-0.538,-0.636,8.0
30.109,-0.51,-0.762,8.0
26.261,-0.442,-0.8,1.0
25.05,-0.419,-0.895,1.0
0.0,0.0,0.0,0.0
20.962,-0.347,-0.966,0.0
37.756,-0.619,-0.686,13.0
30.555,-0.497,-0.713,28.0
27.621,-0.447,-0.787,1.0
25.61,-0.412,-0.864,5.0
25.675,-0.41,-0.999,0.0
20.493,-0.325,-0.903,3.0
38.21,-0.6,-0.618,14.0
31.287,-0.488,-0.668,12.0
29.534,-0.457,-0.783,8.0
26.237,-0.403,-0.834,3.0
26.308,-0.401,-0.972,0.0
20.215,-0.306,-0.851,10.0
44.823,-0.672,-0.638,12.0
36.0,-0.535,-0.698,2.0
30.379,-0.448,-0.746,26.0
27.024,-0.395,-0.805,2.0
26.975,-0.391,-0.943,1.0
20.224,-0.291,-0.812,20.0
45.043,-0.641,-0.552,22.0
37.972,-0.535,-0.661,28.0
31.248,-0.437,-0.705,27.0
28.108,-0.389,-0.783,1.0
20.209,-0.277,-0.667,0.0
20.231,-0.275,-0.772,25.0
52.645,-0.707,-0.543,14.0
38.848,-0.517,-0.601,14.0
32.067,-0.422,-0.662,6.0
29.996,-0.391,-0.777,8.0
20.217,-0.261,-0.628,6.0
20.228,-0.258,-0.733,29.0
58.78,-0.741,-0.491,7.0
44.92,-0.56,-0.608,27.0
0.0,0.0,0.0,0.0
31.163,-0.38,-0.747,9.0
20.198,-0.243,-0.588,13.0
20.216,-0.241,-0.693,33.0
56.635,-0.665,-0.364,4.0
0.0,0.0,0.0,0.0
38.121,-0.436,-0.639,18.0
31.979,-0.361,-0.704,1.0
20.186,-0.225,-0.549,19.0
20.207,-0.222,-0.654,35.0
56.17,-0.609,-0.253,4.0
52.836,-0.564,-0.51,7.0
44.836,-0.472,-0.665,5.0
20.199,-0.209,-0.406,1.0
20.185,-0.206,-0.51,22.0
20.189,-0.203,-0.615,37.0
56.23,-0.557,-0.146,13.0
58.656,-0.571,-0.455,2.0
44.996,-0.431,-0.581,34.0
37.91,-0.357,-0.69,4.0
20.188,-0.187,-0.472,27.0
20.187,-0.183,-0.576,39.0
53.327,-0.475,-0.036,6.0
53.339,-0.467,-0.312,3.0
20.154,-0.173,-0.222,7.0
20.164,-0.17,-0.329,21.0
20.17,-0.166,-0.434,28.0
20.175,-0.163,-0.538,38.0
56.278,-0.445,0.066,6.0
20.183,-0.156,-0.08,10.0
20.152,-0.152,-0.185,10.0
20.152,-0.149,-0.291,27.0
20.154,-0.146,-0.396,32.0
20.182,-0.142,-0.501,30.0
20.151,-0.138,0.061,18.0
20.183,-0.135,-0.042,23.0
20.144,-0.131,-0.147,19.0
20.137,-0.127,-0.253,29.0
20.141,-0.124,-0.358,36.0
20.164,-0.12,-0.463,36.0
20.144,-0.116,0.099,25.0
20.138,-0.112,-0.005,28.0
20.155,-0.109,-0.109,26.0
20.127,-0.105,-0.216,19.0
20.136,-0.102,-0.321,37.0
20.156,-0.098,-0.426,37.0
20.128,-0.094,0.136,25.0
20.127,-0.09,0.031,31.0
20.146,-0.086,-0.073,28.0
20.145,-0.083,-0.18,36.0
20.134,-0.079,-0.284,33.0
20.157,-0.075,-0.389,22.0
20.124,-0.071,0.172,29.0
20.135,-0.067,0.067,42.0
20.128,-0.063,-0.037,30.0
20.135,-0.059,-0.144,32.0
20.144,-0.055,-0.248,21.0
20.17,-0.052,-0.354,22.0
20.126,-0.047,0.208,33.0
20.125,-0.043,0.103,37.0
20.128,-0.039,-0.001,34.0
20.152,-0.035,-0.108,32.0
20.151,-0.031,-0.212,14.0
20.167,-0.027,-0.318,13.0
20.119,-0.023,0.243,28.0
20.114,-0.019,0.139,28.0
20.147,-0.015,0.034,26.0
20.172,-0.011,-0.072,17.0
20.198,-0.007,-0.177,12.0
20.238,-0.002,-0.283,7.0
20.128,0.001,0.279,28.0
20.108,0.005,0.174,28.0
20.153,0.009,0.069,39.0
20.242,0.014,-0.037,152.0
20.264,0.018,-0.143,151.0
20.258,0.022,-0.248,151.0
20.14,0.026,0.314,29.0
20.133,0.031,0.209,26.0
20.141,0.035,0.104,28.0
20.24,0.04,-0.002,17.0
20.235,0.044,-0.108,19.0
20.225,0.048,-0.213,15.0
20.14,0.052,0.348,28.0
20.145,0.057,0.243,27.0
20.145,0.061,0.138,26.0
20.209,0.066,0.031,34.0
20.205,0.07,-0.074,32.0
20.203,0.075,-0.179,27.0
20.144,0.079,0.382,28.0
20.147,0.084,0.277,26.0
20.149,0.088,0.172,27.0
20.19,0.093,0.065,35.0
20.184,0.098,-0.04,30.0
20.184,0.102,-0.145,34.0
20.153,0.107,0.417,29.0
20.156,0.111,0.311,27.0
20.158,0.116,0.205,25.0
20.189,0.121,0.098,28.0
20.176,0.125,-0.006,27.0
20.178,0.13,-0.112,36.0
20.171,0.135,0.45,25.0
20.172,0.14,0.344,25.0
20.188,0.145,0.239,23.0
20.187,0.149,0.131,23.0
20.218,0.154,0.026,26.0
20.207,0.159,-0.079,23.0
20.184,0.164,0.483,18.0
20.237,0.169,0.378,27.0
20.26,0.174,0.273,27.0
20.293,0.179,0.165,27.0
20.32,0.184,0.058,36.0
20.322,0.189,-0.047,18.0
20.27,0.194,0.517,34.0
20.275,0.199,0.411,33.0
20.283,0.204,0.305,30.0
20.288,0.209,0.196,28.0
20.315,0.214,0.09,26.0
20.325,0.219,-0.016,3.0
20.276,0.224,0.55,24.0
20.271,0.229,0.443,28.0
20.282,0.234,0.337,28.0
20.297,0.239,0.228,21.0
20.312,0.244,0.121,2.0
99.529,1.223,0.073,5.0
20.274,0.254,0.58,5.0
20.305,0.259,0.474,25.0
20.269,0.264,0.367,12.0
20.285,0.269,0.259,2.0
0.0,0.0,0.0,0.0
99.691,1.375,0.223,6.0
125.104,1.759,3.773,14.0
157.057,2.246,3.907,13.0
195.546,2.847,3.835,27.0
194.77,2.882,2.77,25.0
0.0,0.0,0.0,0.0
99.665,1.526,0.368,5.0
157.085,2.447,4.966,14.0
0.0,0.0,0.0,0.0
196.337,3.161,4.136,17.0
194.709,3.184,3.054,35.0
0.0,0.0,0.0,0.0
99.755,1.683,0.512,4.0
149.127,2.558,4.931,4.0
0.0,0.0,0.0,0.0
194.545,3.436,4.375,7.0
194.518,3.486,3.327,20.0
103.242,1.877,1.221,1.0
99.975,1.844,0.654,2.0
148.829,2.789,5.132,3.0
0.0,0.0,0.0,0.0
194.63,3.747,4.65,12.0
0.0,0.0,0.0,0.0
199.692,3.949,2.637,9.0
102.908,2.061,0.813,9.0
0.0,0.0,0.0,0.0
0.0,0.0,0.0,0.0
194.835,4.062,4.918,17.0
196.493,4.148,3.899,5.0
195.633,4.181,2.845,16.0
0.0,0.0,0.0,0.0
139.963,3.07,5.205,3.0
0.0,0.0,0.0,0.0
194.707,4.375,5.174,25.0
194.049,4.412,4.107,33.0
195.551,4.498,3.101,8.0
0.0,0.0,0.0,0.0
126.164,2.974,4.857,3.0
0.0,0.0,0.0,0.0
194.546,4.692,5.423,13.0
194.046,4.731,4.356,26.0
193.579,4.772,3.318,22.0
195.199,4.865,2.309,4.0
102.673,2.591,4.084,6.0
0.0,0.0,0.0,0.0
194.325,5.009,5.662,9.0
193.946,5.053,4.6,25.0
193.493,5.095,3.561,32.0
195.392,5.198,2.555,23.0
102.479,2.76,4.206,5.0
0.0,0.0,0.0,0.0
193.209,5.306,5.867,16.0
194.315,5.39,4.846,28.0
193.43,5.418,3.794,33.0
195.452,5.526,2.79,18.0
102.349,2.929,4.323,3.0
193.551,5.59,7.142,6.0
192.953,5.624,6.088,25.0
194.037,5.707,5.067,21.0
193.657,5.75,4.025,33.0
194.947,5.842,3.011,12.0
102.355,3.103,4.443,6.0
193.751,5.926,7.375,18.0
193.302,5.966,6.325,24.0
194.338,6.052,5.3,10.0
194.132,6.098,4.257,24.0
195.535,6.195,3.243,8.0
102.323,3.278,4.558,5.0
193.813,6.261,7.596,20.0
193.269,6.296,6.54,20.0
0.0,0.0,0.0,0.0
195.675,6.481,4.506,5.0
195.169,6.52,3.451,27.0
118.004,3.983,5.386,3.0
193.533,6.585,7.795,7.0
0.0,0.0,0.0,0.0
198.256,6.854,5.838,5.0
195.745,6.823,4.716,15.0
195.325,6.864,3.66,20.0
195.686,6.95,9.142,7.0
196.514,7.031,8.123,9.0
193.637,6.982,6.965,23.0
0.0,0.0,0.0,0.0
195.418,7.154,4.91,10.0
200.296,7.388,3.958,19.0
104.219,3.884,4.976,2.0
195.996,7.362,8.304,8.0
0.0,0.0,0.0,0.0
193.2,7.36,6.086,8.0
0.0,0.0,0.0,0.0
195.18,7.544,4.05,6.0
194.67,7.601,9.487,16.0
195.554,7.688,8.476,8.0
195.656,7.747,7.427,18.0
193.299,7.705,6.275,20.0
193.792,7.78,5.249,23.0
196.809,7.957,4.272,18.0
194.132,7.927,9.648,21.0
195.072,8.017,8.639,9.0
195.5,8.089,7.604,6.0
193.277,8.05,6.456,20.0
194.105,8.139,5.438,11.0
0.0,0.0,0.0,0.0
193.966,8.266,9.816,31.0
194.468,8.341,8.79,6.0
195.441,8.435,7.776,6.0
193.562,8.408,6.637,30.0
195.476,8.545,5.647,33.0
195.489,8.6,4.592,44.0
194.293,8.627,10.002,36.0
193.347,8.639,8.907,22.0
194.858,8.758,7.92,7.0
193.635,8.755,6.803,25.0
193.532,8.805,5.753,26.0
0.0,0.0,0.0,0.0
194.698,8.995,10.184,14.0
192.931,8.964,9.046,30.0
193.066,9.024,8.006,23.0
193.216,9.082,6.944,26.0
194.408,9.191,5.934,6.0
196.29,9.333,4.927,8.0
194.2,9.319,10.312,21.0
193.239,9.326,9.212,17.0
193.013,9.368,8.152,5.0
192.704,9.404,7.074,26.0
202.256,9.925,6.327,5.0
193.987,9.577,5.018,19.0
0.0,0.0,0.0,0.0
193.005,9.662,9.344,22.0
192.983,9.715,8.294,16.0
193.215,9.78,7.235,7.0
194.148,9.881,6.214,6.0
194.116,9.932,5.16,8.0
194.666,10.047,10.624,21.0
193.317,10.029,9.496,25.0
192.992,10.063,8.429,16.0
192.988,10.116,7.359,18.0
193.469,10.195,6.324,9.0
0.0,0.0,0.0,0.0
194.06,10.368,10.722,25.0
193.701,10.402,9.645,19.0
192.797,10.406,8.549,29.0
0.0,0.0,0.0,0.0
195.997,10.684,6.534,8.0
196.057,10.74,5.469,21.0
195.595,10.806,10.93,24.0
193.711,10.754,9.767,28.0
193.728,10.806,8.71,10.0
193.551,10.846,7.624,8.0
192.82,10.858,6.543,5.0
0.0,0.0,0.0,0.0
195.757,11.172,11.057,24.0
193.536,11.094,9.871,24.0
194.044,11.175,8.835,17.0
193.825,11.213,7.746,5.0
0.0,0.0,0.0,0.0
0.0,0.0,0.0,0.0
0.0,0.0,0.0,0.0
194.102,11.474,10.005,20.0
194.15,11.529,8.944,7.0
0.0,0.0,0.0,0.0
155.837,9.336,5.456,3.0
0.0,0.0,0.0,0.0
110.756,6.719,6.373,2.0
194.174,11.828,10.106,15.0
0.0,0.0,0.0,0.0
163.341,10.035,6.693,5.0
162.771,10.044,5.778,4.0
0.0,0.0,0.0,0.0
196.982,12.305,11.427,5.0
195.059,12.236,10.244,9.0
0.0,0.0,0.0,0.0
0.0,0.0,0.0,0.0
154.91,9.838,5.567,3.0
173.106,11.041,5.272,4.0
0.0,0.0,0.0,0.0
195.39,12.609,10.343,9.0
0.0,0.0,0.0,0.0
110.804,7.206,4.634,2.0
166.273,10.857,6.041,3.0
162.744,10.668,5.019,18.0
120.311,7.948,7.077,3.0
107.761,7.145,5.745,5.0
121.656,8.096,5.816,3.0
109.878,7.339,4.636,5.0
157.104,10.535,5.764,6.0
173.465,11.679,5.41,3.0
92.154,6.251,5.453,1.0
195.957,13.342,10.514,6.0
155.874,10.651,7.503,4.0
0.0,0.0,0.0,0.0
156.002,10.74,5.774,11.0
167.041,11.543,5.261,5.0
111.226,7.745,6.616,11.0
120.045,8.389,6.477,2.0
107.292,7.523,5.196,4.0
107.81,7.587,4.614,4.0
109.608,7.74,4.087,2.0
163.282,11.573,5.188,3.0
111.429,7.956,6.658,3.0
111.081,7.958,6.022,3.0
110.866,7.97,5.397,3.0
161.097,11.622,6.935,3.0
109.668,7.939,4.115,2.0
166.392,12.088,5.324,14.0
92.392,6.761,5.541,3.0
91.984,6.753,5.007,8.0
108.216,7.97,5.29,2.0
110.289,8.149,4.77,4.0
163.638,12.131,6.172,10.0
163.668,12.175,5.267,18.0
107.668,8.066,6.477,5.0
92.112,6.923,5.03,5.0
107.675,8.118,5.283,3.0
99.392,7.517,4.314,2.0
156.821,11.899,5.939,6.0
156.911,11.945,5.073,32.0
99.401,7.621,5.995,2.0
92.174,7.088,5.046,2.0
108.31,8.354,5.327,4.0
96.708,7.481,4.21,3.0
154.584,11.997,5.873,15.0
154.537,12.029,5.013,12.0
99.923,7.833,6.036,5.0
91.942,7.227,5.042,10.0
91.967,7.251,4.531,3.0
99.274,7.849,4.33,3.0
169.56,13.446,6.454,5.0
154.58,12.295,5.024,5.0
108.27,8.67,6.547,7.0
92.123,7.398,5.057,5.0
96.734,7.791,4.772,6.0
99.388,8.027,4.338,4.0
156.904,12.708,5.977,11.0
160.521,13.04,5.223,14.0
91.459,7.479,5.532,3.0
92.342,7.572,5.07,9.0
96.98,7.973,4.785,4.0
99.334,8.189,4.336,7.0
143.726,11.881,5.474,16.0
157.042,13.019,5.108,11.0
91.419,7.63,5.529,7.0
109.749,9.182,6.024,4.0
96.439,8.089,4.755,2.0
99.195,8.343,4.327,6.0
121.148,10.216,4.608,5.0
144.443,12.213,4.69,14.0
91.518,7.79,5.529,4.0
85.677,7.309,4.698,3.0
96.867,8.285,4.769,4.0
143.517,12.307,6.249,10.0
143.334,12.323,5.441,17.0
143.761,12.393,4.655,24.0
83.731,7.264,5.051,2.0
91.639,7.969,5.014,5.0
110.217,9.609,5.414,11.0
99.79,8.721,4.334,3.0
143.244,12.549,5.421,15.0
143.471,12.602,4.626,25.0
98.297,8.689,5.916,3.0
97.266,8.616,5.309,5.0
106.621,9.467,5.221,4.0
99.578,8.863,4.309,4.0
109.808,9.796,4.137,14.0
121.183,10.836,3.888,15.0
78.286,7.043,4.699,4.0
109.877,9.908,5.978,8.0
98.362,8.889,4.799,4.0
108.192,9.798,4.661,18.0
109.693,9.957,4.112,8.0
121.424,11.049,3.872,29.0
78.364,7.174,4.687,3.0
91.808,8.421,4.975,6.0
138.194,12.704,6.713,4.0
87.229,8.036,3.738,9.0
116.215,10.731,4.328,21.0
121.637,11.257,3.848,29.0
85.472,7.957,5.091,4.0
84.017,7.838,4.531,5.0
122.591,11.461,5.922,3.0
110.89,10.388,4.723,11.0
103.66,9.731,3.833,1.0
121.391,11.42,3.807,13.0
84.512,7.998,5.009,13.0
84.224,7.985,4.518,4.0
84.056,7.985,4.035,4.0
107.893,10.27,4.562,15.0
110.278,10.517,4.043,16.0
109.376,10.453,3.395,29.0
85.202,8.191,5.023,14.0
86.753,8.355,4.625,3.0
97.85,9.441,4.666,3.0
115.25,11.141,4.834,5.0
108.184,10.479,3.929,35.0
109.303,10.609,3.355,16.0
87.217,8.514,5.11,3.0
86.62,8.47,4.586,2.0
97.51,9.552,4.613,9.0
97.748,9.594,4.063,11.0
122.68,12.063,4.408,28.0
108.841,10.723,3.298,41.0
81.056,8.03,4.717,3.0
84.901,8.426,4.461,7.0
97.598,9.703,4.577,26.0
97.709,9.73,4.021,30.0
137.854,13.754,4.896,12.0
115.66,11.56,3.457,49.0
99.586,10.008,5.752,5.0
85.493,8.605,4.455,14.0
96.71,9.751,4.493,2.0
111.35,11.245,4.533,13.0
111.144,11.244,3.897,24.0
109.866,11.135,3.233,50.0
81.064,8.259,4.645,6.0
85.808,8.756,4.431,8.0
96.008,9.813,4.414,6.0
103.895,10.636,4.18,9.0
97.565,10.004,3.375,18.0
110.11,11.31,3.186,47.0
81.143,8.378,4.609,5.0
79.686,8.24,4.075,1.0
99.731,10.329,4.535,1.0
107.475,11.148,4.268,13.0
97.501,10.129,3.322,20.0
137.399,14.298,3.905,25.0
81.043,8.476,4.56,6.0
84.038,8.802,4.252,5.0
98.496,10.331,4.426,15.0
103.181,10.838,4.041,27.0
97.453,10.252,3.266,18.0
116.398,12.265,3.242,25.0
81.034,8.581,4.515,6.0
85.177,9.032,4.261,5.0
87.348,9.274,3.875,8.0
98.569,10.481,3.804,17.0
97.521,10.384,3.212,11.0
108.844,11.608,2.968,19.0
81.025,8.682,4.466,5.0
0.0,0.0,0.0,0.0
87.301,9.379,3.82,4.0
97.835,10.525,3.716,19.0
97.885,10.545,3.164,30.0
103.784,11.197,2.766,17.0
76.938,8.339,4.192,5.0
90.58,9.83,4.421,11.0
96.857,10.525,4.177,2.0
97.012,10.555,3.623,18.0
97.885,10.663,3.101,58.0
103.95,11.34,2.704,20.0
91.906,10.072,4.947,14.0
0.0,0.0,0.0,0.0
96.653,10.617,4.104,34.0
96.818,10.65,3.551,38.0
97.7,10.761,3.028,38.0
103.946,11.464,2.631,26.0
83.769,9.28,4.45,2.0
0.0,0.0,0.0,0.0
107.43,11.927,4.486,9.0
97.031,10.785,3.491,20.0
97.731,10.876,2.96,30.0
104.29,11.622,2.567,9.0
136.746,15.303,7.169,11.0
90.429,10.13,4.225,9.0
105.205,11.798,4.317,12.0
97.099,10.901,3.422,11.0
115.249,12.954,3.406,11.0
144.074,16.213,3.441,8.0
107.139,12.106,5.538,15.0
90.425,10.227,4.158,5.0
91.799,10.394,3.698,12.0
97.149,11.011,3.351,16.0
97.76,11.093,2.816,11.0
144.12,16.373,3.331,11.0
87.761,10.009,4.468,4.0
87.036,9.936,3.935,7.0
91.8,10.49,3.627,28.0
97.196,11.118,3.276,14.0
97.784,11.196,2.74,25.0
153.27,17.57,3.424,10.0
87.631,10.085,4.391,4.0
87.006,10.021,3.863,4.0
91.749,10.577,3.551,17.0
97.228,11.219,3.199,18.0
97.806,11.298,2.66,31.0
0.0,0.0,0.0,0.0
90.669,10.523,4.469,12.0
110.845,12.876,4.83,18.0
92.022,10.698,3.485,14.0
97.356,11.329,3.122,55.0
97.802,11.391,2.579,34.0
0.0,0.0,0.0,0.0
90.686,10.61,4.393,12.0
90.851,10.637,3.883,43.0
92.016,10.783,3.406,40.0
98.299,11.529,3.069,14.0
97.797,11.48,2.495,35.0
97.782,11.49,1.938,17.0
86.804,10.234,4.129,25.0
103.791,12.246,4.344,17.0
91.987,10.862,3.324,32.0
98.249,11.61,2.98,22.0
97.742,11.56,2.408,53.0
97.71,11.567,1.85,32.0
85.755,10.185,4.002,48.0
85.773,10.193,3.513,22.0
91.529,10.885,3.226,49.0
147.252,17.525,4.334,13.0
97.737,11.641,2.319,55.0
97.697,11.646,1.762,56.0
103.614,12.39,4.741,14.0
86.218,10.317,3.451,64.0
91.466,10.952,3.139,25.0
97.585,11.692,2.783,14.0
97.75,11.721,2.228,41.0
97.718,11.727,1.67,28.0
103.526,12.461,4.64,12.0
86.662,10.437,3.389,44.0
91.543,11.031,3.056,14.0
97.514,11.759,2.688,22.0
97.798,11.801,2.138,27.0
97.877,11.819,1.58,5.0
136.167,16.489,5.975,9.0
108.873,13.191,4.153,15.0
97.2,11.784,3.151,6.0
97.691,11.85,2.598,15.0
139.791,16.968,2.922,9.0
149.646,18.177,2.272,6.0
90.77,11.055,3.893,26.0
108.878,13.267,4.047,20.0
97.237,11.855,3.057,30.0
139.903,17.066,3.584,11.0
149.708,18.274,2.979,14.0
0.0,0.0,0.0,0.0
90.842,11.123,3.806,29.0
115.282,14.122,4.169,21.0
139.932,17.15,4.26,10.0
149.776,18.366,3.687,17.0
149.653,18.361,2.828,19.0
0.0,0.0,0.0,0.0
90.975,11.195,3.72,9.0
86.061,10.594,3.025,16.0
91.631,11.285,2.696,10.0
149.803,18.458,3.536,21.0
149.683,18.453,2.678,11.0
0.0,0.0,0.0,0.0
84.795,10.483,3.379,8.0
85.895,10.622,2.931,23.0
91.593,11.331,2.601,20.0
149.783,18.538,3.381,13.0
149.761,18.544,2.523,6.0
0.0,0.0,0.0,0.0
84.813,10.529,3.291,39.0
85.813,10.656,2.839,28.0
91.566,11.374,2.505,36.0
91.516,11.373,1.97,26.0
91.532,11.38,1.445,9.0
0.0,0.0,0.0,0.0
84.866,10.576,3.204,37.0
91.399,11.393,2.926,25.0
91.531,11.413,2.405,45.0
91.509,11.414,1.872,56.0
91.547,11.423,1.348,5.0
0.0,0.0,0.0,0.0
84.926,10.62,3.114,30.0
91.397,11.432,2.827,53.0
91.497,11.448,2.306,46.0
91.47,11.447,1.772,58.0
69.36,8.683,0.946,0.0
68.697,8.604,0.543,3.0
84.974,10.659,3.023,19.0
91.446,11.473,2.729,54.0
91.491,11.481,2.206,59.0
91.442,11.478,1.672,55.0
69.269,8.697,0.869,1.0
68.687,8.627,0.469,23.0
91.396,11.496,3.153,14.0
91.465,11.506,2.63,58.0
91.479,11.51,2.106,55.0
91.445,11.508,1.573,54.0
69.16,8.705,0.793,1.0
68.659,8.645,0.393,16.0
85.764,10.813,2.864,33.0
91.469,11.533,2.53,57.0
91.482,11.536,2.006,44.0
91.436,11.532,1.472,34.0
69.185,8.728,0.717,1.0
68.662,8.664,0.318,12.0
91.422,11.549,2.951,18.0
91.479,11.556,2.429,41.0
91.429,11.551,1.902,42.0
91.436,11.553,1.369,7.0
68.838,8.699,0.636,0.0
68.63,8.675,0.242,3.0
91.427,11.568,2.849,34.0
91.483,11.575,2.326,33.0
91.456,11.572,1.8,39.0
68.959,8.726,0.955,0.0
68.694,8.694,0.557,3.0
0.0,0.0,0.0,0.0
91.485,11.59,2.748,36.0
91.495,11.59,2.223,35.0
91.474,11.588,1.698,35.0
69.12,8.756,0.878,1.0
68.637,8.696,0.479,12.0
0.0,0.0,0.0,0.0
91.516,11.604,2.644,34.0
91.517,11.603,2.12,40.0
91.462,11.595,1.594,33.0
69.097,8.76,0.801,1.0
68.638,8.702,0.402,22.0
0.0,0.0,0.0,0.0
91.504,11.608,2.541,32.0
91.495,11.605,2.015,36.0
91.454,11.599,1.49,16.0
69.173,8.773,0.724,1.0
68.629,8.704,0.324,15.0
0.0,0.0,0.0,0.0
91.49,11.608,2.435,31.0
91.467,11.603,1.91,31.0
91.43,11.596,1.386,5.0
0.0,0.0,0.0,0.0
68.701,8.713,0.246,3.0
0.0,0.0,0.0,0.0
91.491,11.605,2.332,32.0
91.455,11.598,1.805,33.0
69.089,8.76,0.967,0.0
68.582,8.695,0.56,3.0
0.0,0.0,0.0,0.0
64.939,8.232,-0.214,2.0
91.504,11.6,2.226,35.0
91.462,11.591,1.7,41.0
68.879,8.727,0.885,1.0
68.611,8.692,0.481,14.0
0.0,0.0,0.0,0.0
64.969,8.229,-0.288,2.0
91.494,11.587,2.121,41.0
91.467,11.58,1.597,38.0
69.102,8.747,0.81,1.0
68.646,8.687,0.404,20.0
0.0,0.0,0.0,0.0
65.019,8.226,-0.362,1.0
91.473,11.569,2.016,42.0
91.437,11.56,1.492,28.0
69.239,8.751,0.732,0.0
68.64,8.673,0.325,11.0
64.981,8.209,-0.064,0.0
65.079,8.221,-0.436,0.0
91.47,11.549,1.912,46.0
91.434,11.54,1.387,9.0
69.232,8.735,0.654,0.0
68.583,8.651,0.247,2.0
65.126,8.213,-0.137,5.0
65.127,8.211,-0.51,1.0
91.452,11.523,1.808,48.0
69.087,8.701,0.969,0.0
68.615,8.638,0.57,2.0
0.0,0.0,0.0,0.0
65.188,8.202,-0.212,13.0
65.008,8.177,-0.584,0.0
91.458,11.495,1.704,54.0
69.092,8.68,0.891,1.0
68.678,8.624,0.492,34.0
65.5,8.222,0.088,1.0
65.247,8.188,-0.286,23.0
65.14,8.172,-0.659,2.0
91.468,11.464,1.6,56.0
69.264,8.676,0.815,0.0
68.685,8.6,0.415,56.0
65.409,8.186,0.013,2.0
65.267,8.165,-0.36,24.0
65.285,8.165,-0.733,0.0
91.461,11.426,1.497,26.0
69.165,8.636,0.736,0.0
68.685,8.572,0.338,25.0
65.379,8.155,-0.059,3.0
65.371,8.151,-0.433,5.0
0.0,0.0,0.0,0.0
91.531,11.394,1.396,2.0
0.0,0.0,0.0,0.0
68.699,8.542,0.261,15.0
65.49,8.139,-0.132,3.0
0.0,0.0,0.0,0.0
0.0,0.0,0.0,0.0
0.0,0.0,0.0,0.0
68.765,8.521,0.579,2.0
68.632,8.499,0.185,6.0
65.613,8.121,-0.204,1.0
69.008,8.537,-0.61,0.0
68.67,8.491,-1.001,5.0
0.0,0.0,0.0,0.0
68.715,8.477,0.503,6.0
68.71,8.471,0.109,153.0
69.263,8.534,-0.292,4.0
68.66,8.455,-0.682,0.0
68.683,8.454,-1.076,1.0
0.0,0.0,0.0,0.0
68.765,8.443,0.429,5.0
68.71,8.43,0.035,176.0
69.354,8.503,-0.368,3.0
