X,Y,Z,Reflectivity
157.034,2.481,4.751,12.0
196.934,3.15,4.929,14.0
69.729,1.125,3.7,4.0
110.257,1.8,5.272,3.0
117.593,1.942,5.004,5.0
118.451,1.979,4.407,5.0
124.837,2.11,3.99,2.0
0.0,0.0,0.0,0.0
69.244,1.195,3.792,3.0
103.844,1.812,5.142,21.0
116.564,2.058,5.159,3.0
118.466,2.114,4.609,22.0
0.0,0.0,0.0,0.0
0.0,0.0,0.0,0.0
109.377,2.014,6.177,2.0
69.37,1.291,3.552,8.0
123.732,2.328,5.685,2.0
118.495,2.254,4.809,9.0
148.502,2.856,5.247,2.0
0.0,0.0,0.0,0.0
103.774,2.034,6.035,8.0
103.479,2.05,5.473,10.0
110.336,2.208,5.253,4.0
118.797,2.401,5.018,5.0
132.945,2.715,4.915,3.0
147.634,3.047,4.682,2.0
69.152,1.439,4.135,4.0
103.412,2.173,5.637,8.0
118.233,2.509,5.82,7.0
103.182,2.212,4.525,2.0
102.727,2.224,3.964,2.0
0.0,0.0,0.0,0.0
66.28,1.461,4.07,5.0
103.515,2.304,5.809,4.0
103.804,2.332,5.277,11.0
116.442,2.641,5.291,5.0
102.743,2.351,4.126,7.0
0.0,0.0,0.0,0.0
67.453,1.572,4.248,5.0
69.144,1.625,3.988,3.0
103.806,2.462,5.437,8.0
102.929,2.463,4.835,2.0
0.0,0.0,0.0,0.0
0.0,0.0,0.0,0.0
53.516,1.315,3.452,0.0
69.499,1.722,4.115,4.0
103.606,2.59,5.584,3.0
103.574,2.613,5.024,4.0
120.106,3.055,5.189,3.0
193.863,4.974,7.35,5.0
68.702,1.777,4.536,2.0
67.488,1.76,4.097,2.0
69.088,1.817,3.827,10.0
118.009,3.13,5.898,5.0
124.847,3.338,5.577,2.0
102.795,2.771,4.046,6.0
68.257,1.855,4.607,5.0
67.47,1.849,4.195,3.0
69.096,1.908,3.928,2.0
103.836,2.891,5.339,6.0
0.0,0.0,0.0,0.0
102.353,2.896,4.177,4.0
67.873,1.935,4.678,8.0
102.874,2.957,6.543,6.0
69.534,2.014,4.052,2.0
103.351,3.017,5.463,4.0
110.496,3.251,5.252,4.0
102.308,3.033,4.319,4.0
53.196,1.59,3.742,7.0
69.419,2.09,4.513,13.0
67.413,2.045,4.023,6.0
103.432,3.161,5.61,3.0
103.274,3.181,5.052,7.0
102.236,3.172,4.455,4.0
68.39,2.138,4.905,7.0
68.15,2.145,4.523,7.0
68.974,2.187,4.208,7.0
0.0,0.0,0.0,0.0
103.482,3.328,5.198,7.0
102.279,3.313,4.592,5.0
68.494,2.236,5.004,0.0
68.398,2.249,4.63,7.0
69.181,2.29,4.312,2.0
103.449,3.449,5.885,3.0
103.07,3.459,5.312,2.0
117.846,3.984,5.444,4.0
51.825,1.765,3.853,3.0
68.203,2.339,4.705,16.0
68.387,2.361,4.35,4.0
103.377,3.594,6.012,5.0
117.915,4.126,6.227,4.0
117.937,4.155,5.598,2.0
52.244,1.854,3.95,15.0
68.358,2.441,4.801,13.0
68.67,2.469,4.454,11.0
67.418,2.44,4.004,4.0
117.953,4.296,6.373,5.0
195.615,7.172,9.523,15.0
0.0,0.0,0.0,0.0
69.136,2.57,4.94,20.0
68.749,2.571,4.542,8.0
68.686,2.584,4.161,4.0
103.519,3.92,5.716,1.0
195.1,7.433,9.726,22.0
51.801,1.988,4.041,4.0
68.902,2.661,5.004,5.0
53.328,2.072,3.585,2.0
68.243,2.667,4.214,2.0
0.0,0.0,0.0,0.0
194.754,7.704,9.931,22.0
47.15,1.879,3.733,4.0
43.941,1.761,3.241,1.0
67.607,2.726,4.622,13.0
68.624,2.783,4.314,3.0
68.659,2.8,3.946,2.0
194.495,7.982,10.133,26.0
68.098,2.815,5.467,4.0
51.652,2.147,3.866,5.0
67.12,2.806,4.662,9.0
69.302,2.913,4.432,9.0
203.373,8.598,11.909,18.0
194.627,8.276,10.346,29.0
52.282,2.239,4.253,5.0
47.337,2.038,3.594,11.0
68.087,2.948,4.8,14.0
69.523,3.026,4.518,3.0
67.304,2.946,4.01,2.0
195.151,8.589,10.575,26.0
43.767,1.94,3.605,3.0
65.824,2.933,5.065,2.0
52.731,2.362,3.771,4.0
69.524,3.131,4.588,1.0
67.355,3.049,4.08,2.0
195.827,8.912,10.804,23.0
66.534,3.05,5.546,4.0
52.65,2.426,4.102,3.0
47.459,2.198,3.44,3.0
0.0,0.0,0.0,0.0
67.225,3.146,4.136,2.0
196.095,9.222,11.003,25.0
47.111,2.232,3.972,11.0
68.964,3.283,5.439,2.0
52.532,2.513,3.856,3.0
47.32,2.274,3.212,0.0
67.181,3.245,4.195,2.0
196.184,9.526,11.187,4.0
47.109,2.304,4.015,10.0
43.844,2.155,3.497,1.0
66.571,3.287,4.947,2.0
47.362,2.349,3.256,1.0
67.217,3.349,4.255,2.0
195.357,9.782,11.307,5.0
47.132,2.377,4.058,7.0
43.822,2.22,3.532,3.0
51.367,2.614,3.86,2.0
52.674,2.693,3.666,1.0
67.119,3.448,4.305,1.0
205.629,10.613,12.07,5.0
47.198,2.453,4.102,7.0
47.185,2.463,3.842,10.0
241.727,12.677,18.361,18.0
47.76,2.516,3.362,1.0
0.0,0.0,0.0,0.0
0.0,0.0,0.0,0.0
46.986,2.515,4.121,21.0
47.135,2.534,3.874,10.0
47.326,2.555,3.631,1.0
47.792,2.591,3.4,1.0
0.0,0.0,0.0,0.0
0.0,0.0,0.0,0.0
45.925,2.53,4.061,3.0
47.292,2.615,3.922,4.0
47.075,2.614,3.645,3.0
47.841,2.667,3.437,1.0
0.0,0.0,0.0,0.0
206.589,11.615,12.582,5.0
45.815,2.594,4.083,3.0
45.8,2.603,3.83,1.0
47.364,2.703,3.699,1.0
242.977,13.925,17.621,16.0
206.625,11.887,13.852,5.0
0.0,0.0,0.0,0.0
45.924,2.682,3.869,4.0
47.302,2.773,3.725,3.0
46.823,2.756,3.425,1.0
206.585,12.206,13.978,5.0
0.0,0.0,0.0,0.0
47.145,2.815,4.261,0.0
0.0,0.0,0.0,0.0
47.218,2.84,3.746,4.0
46.866,2.83,3.455,1.0
206.898,12.542,14.117,6.0
0.0,0.0,0.0,0.0
46.03,2.82,4.186,2.0
45.745,2.812,3.907,3.0
46.757,2.885,3.735,3.0
244.22,15.123,18.137,26.0
207.154,12.873,14.241,7.0
0.0,0.0,0.0,0.0
47.455,2.99,4.077,1.0
47.123,2.979,3.788,3.0
244.735,15.526,18.296,25.0
110.319,7.023,7.638,5.0
0.0,0.0,0.0,0.0
45.544,2.93,4.187,2.0
47.403,3.059,4.095,4.0
245.061,15.87,19.811,18.0
111.3,7.231,8.37,6.0
110.131,7.179,7.674,1.0
110.494,7.228,7.089,1.0
45.546,2.999,4.207,3.0
45.791,3.035,3.721,2.0
245.476,16.324,18.56,20.0
111.483,7.436,7.812,9.0
110.673,7.407,7.144,2.0
47.605,3.207,4.415,1.0
45.793,3.104,3.738,3.0
245.874,16.719,18.68,17.0
0.0,0.0,0.0,0.0
109.827,7.516,7.127,2.0
45.503,3.135,4.236,1.0
246.322,17.123,18.795,32.0
109.464,7.633,7.743,1.0
109.795,7.679,7.158,3.0
47.378,3.336,4.425,1.0
246.765,17.523,18.897,22.0
246.916,17.586,17.536,9.0
109.799,7.844,7.187,2.0
47.379,3.407,4.437,2.0
45.602,3.288,4.016,1.0
120.301,8.724,9.241,2.0
113.038,8.221,8.053,1.0
117.528,8.571,7.72,1.0
107.785,7.975,8.3,13.0
110.901,8.228,7.922,3.0
115.553,8.598,7.61,1.0
107.372,8.083,8.895,6.0
248.161,18.728,19.146,9.0
91.231,6.903,6.529,7.0
112.803,8.557,7.445,3.0
45.626,3.501,3.785,0.0
107.297,8.254,8.29,6.0
112.01,8.639,8.027,3.0
91.289,7.059,6.033,6.0
115.97,9.046,10.28,3.0
107.376,8.416,8.302,6.0
110.194,8.657,7.904,12.0
107.954,8.503,7.14,4.0
116.138,9.206,10.953,3.0
112.239,8.917,9.954,5.0
114.715,9.135,9.528,5.0
121.963,9.735,9.433,3.0
114.366,9.15,8.205,4.0
97.491,7.818,6.449,2.0
0.0,0.0,0.0,0.0
115.908,9.374,10.278,2.0
116.099,9.409,9.642,5.0
107.937,8.768,8.345,10.0
107.601,8.76,7.716,8.0
98.081,8.002,6.484,1.0
114.528,9.402,10.796,3.0
112.589,9.262,9.978,2.0
109.693,9.043,9.103,2.0
107.026,8.842,8.269,9.0
107.68,8.915,7.714,10.0
97.876,8.122,6.463,4.0
115.856,9.672,10.912,3.0
115.427,9.655,10.219,7.0
117.393,9.838,9.731,7.0
112.526,9.449,8.682,5.0
108.281,9.113,7.745,2.0
85.471,7.208,5.634,7.0
115.195,9.774,10.835,2.0
115.01,9.776,10.167,6.0
96.342,8.204,7.973,1.0
115.38,9.845,8.886,6.0
85.025,7.27,6.069,4.0
110.045,9.429,7.236,2.0
115.078,9.919,10.805,1.0
114.911,9.922,10.138,8.0
114.999,9.949,9.495,21.0
96.449,8.36,7.409,9.0
106.636,9.26,7.591,7.0
90.463,7.871,5.931,4.0
114.429,10.015,10.719,10.0
113.96,9.99,10.03,9.0
114.05,10.016,9.393,7.0
96.439,8.484,7.387,6.0
96.574,8.511,6.853,2.0
107.399,9.484,7.016,1.0
0.0,0.0,0.0,0.0
86.161,7.665,7.561,2.0
85.77,7.642,7.042,1.0
84.768,7.566,6.47,6.0
109.706,9.81,7.755,7.0
85.141,7.626,5.538,3.0
0.0,0.0,0.0,0.0
107.32,9.685,9.386,2.0
108.059,9.766,8.839,5.0
108.092,9.785,8.219,3.0
84.832,7.692,5.97,5.0
84.804,7.703,5.49,2.0
91.857,8.39,8.527,1.0
85.029,7.778,7.409,1.0
115.7,10.601,9.425,2.0
91.908,8.434,6.956,5.0
93.399,8.584,6.541,3.0
84.986,7.824,5.471,3.0
114.74,10.622,10.609,4.0
86.129,7.984,7.473,5.0
85.112,7.902,6.901,2.0
91.936,8.547,6.924,3.0
107.103,9.973,7.46,6.0
97.568,9.099,6.243,3.0
111.039,10.413,10.222,1.0
92.01,8.639,7.946,2.0
85.947,8.081,6.934,9.0
92.036,8.667,6.892,4.0
96.566,9.106,6.685,2.0
90.352,8.533,5.743,1.0
92.287,8.763,8.455,6.0
92.004,8.747,7.904,7.0
85.62,8.15,6.869,2.0
92.208,8.79,6.864,5.0
96.367,9.199,6.626,4.0
97.764,9.346,6.168,6.0
110.973,10.664,10.113,4.0
91.197,8.775,7.791,5.0
92.041,8.866,7.339,7.0
84.351,8.136,6.237,5.0
90.631,8.753,6.187,2.0
85.035,8.224,5.323,4.0
111.404,10.83,10.096,4.0
92.242,8.978,7.832,2.0
85.303,8.312,6.757,9.0
84.134,8.208,6.177,5.0
85.453,8.347,5.788,5.0
90.21,8.824,5.598,5.0
91.505,8.996,8.242,8.0
99.427,9.785,8.388,4.0
85.175,8.392,6.699,7.0
84.146,8.3,6.13,8.0
73.191,7.227,4.916,1.0
90.13,8.912,5.541,5.0
92.024,9.144,8.235,1.0
91.739,9.125,7.685,5.0
68.802,6.851,5.37,2.0
84.22,8.395,6.086,8.0
85.09,8.491,5.665,2.0
90.275,9.02,5.496,6.0
97.887,9.827,8.699,2.0
85.03,8.545,7.07,4.0
91.991,9.253,7.122,6.0
84.372,8.495,6.043,4.0
73.074,7.366,4.818,2.0
90.03,9.085,5.423,9.0
78.811,7.991,6.952,3.0
85.137,8.639,7.023,4.0
85.142,8.648,6.537,5.0
72.939,7.415,5.176,4.0
73.126,7.442,4.772,3.0
89.93,9.162,5.357,7.0
85.362,8.737,7.472,7.0
85.012,8.708,6.954,4.0
84.643,8.678,6.439,6.0
72.897,7.48,5.122,5.0
73.193,7.519,4.725,4.0
99.068,10.187,5.83,11.0
75.084,7.755,6.518,4.0
78.82,8.147,6.391,5.0
74.585,7.716,5.62,2.0
72.963,7.554,5.073,3.0
78.365,8.12,5.002,3.0
84.21,8.735,4.895,1.0
74.615,7.774,6.42,1.0
78.754,8.21,6.325,6.0
74.638,7.787,5.567,3.0
72.911,7.613,5.014,2.0
73.083,7.637,4.608,2.0
88.886,9.297,5.098,1.0
68.604,7.206,5.85,1.0
78.82,8.285,6.269,8.0
74.532,7.839,5.501,3.0
72.987,7.683,4.961,3.0
69.189,7.289,4.308,9.0
81.062,8.547,4.583,4.0
68.683,7.271,5.801,2.0
78.864,8.354,6.208,8.0
74.14,7.859,5.411,2.0
84.285,8.941,5.659,7.0
69.178,7.344,4.249,5.0
80.982,8.603,4.512,6.0
96.585,10.302,8.075,6.0
78.806,8.41,6.136,2.0
77.441,8.269,5.586,2.0
84.289,9.005,5.589,4.0
88.476,9.46,5.36,2.0
81.015,8.668,4.445,5.0
74.326,7.983,6.15,3.0
76.625,8.234,5.899,2.0
74.903,8.054,5.337,3.0
87.225,9.384,5.706,3.0
96.512,10.389,5.762,4.0
76.897,8.284,4.15,3.0
68.82,7.441,5.632,7.0
78.955,8.54,6.008,3.0
68.702,7.435,4.833,1.0
87.351,9.458,5.636,2.0
84.445,9.148,4.965,2.0
84.63,9.174,4.492,2.0
68.814,7.487,5.568,5.0
74.611,8.12,5.608,4.0
68.408,7.448,4.749,6.0
73.167,7.97,4.653,3.0
89.632,9.769,5.185,4.0
84.419,9.206,4.401,3.0
68.749,7.523,5.498,6.0
74.67,8.173,5.542,3.0
68.229,7.471,4.671,4.0
87.072,9.538,5.454,2.0
89.91,9.854,5.116,2.0
87.656,9.612,4.486,3.0
66.388,7.303,5.245,5.0
76.491,8.417,5.603,3.0
68.125,7.499,4.598,4.0
77.55,8.54,4.782,2.0
80.89,8.911,4.524,5.0
87.728,9.668,4.405,3.0
72.203,7.983,5.633,2.0
73.962,8.179,5.345,3.0
73.093,8.085,4.861,3.0
74.804,8.277,4.539,2.0
80.112,8.867,4.401,7.0
91.892,10.175,4.522,35.0
66.331,7.367,5.107,2.0
76.721,8.522,5.466,2.0
73.772,8.197,4.831,6.0
74.692,8.301,4.456,5.0
76.855,8.544,4.144,4.0
0.0,0.0,0.0,0.0
66.401,7.406,5.044,2.0
65.84,7.344,4.622,4.0
73.6,8.211,4.744,5.0
74.829,8.35,4.385,6.0
76.939,8.588,4.068,5.0
0.0,0.0,0.0,0.0
68.731,7.696,5.148,6.0
77.518,8.68,5.359,5.0
85.629,9.59,5.427,6.0
89.891,10.069,5.172,3.0
105.876,11.862,5.483,2.0
0.0,0.0,0.0,0.0
68.703,7.719,5.071,5.0
68.328,7.677,4.649,3.0
85.676,9.627,5.336,8.0
76.518,8.599,4.319,4.0
87.738,9.862,4.448,2.0
85.857,9.652,3.861,18.0
68.499,7.72,4.98,7.0
68.307,7.698,4.572,3.0
77.982,8.789,4.771,3.0
76.668,8.641,4.242,7.0
87.628,9.878,4.345,2.0
85.839,9.678,3.764,20.0
68.577,7.749,4.908,1.0
73.957,8.357,4.867,2.0
74.74,8.445,4.488,3.0
76.808,8.679,4.163,3.0
107.229,12.117,5.197,20.0
91.771,10.372,3.921,32.0
76.535,8.668,5.391,5.0
73.333,8.305,4.743,2.0
72.87,8.251,4.294,1.0
75.571,8.557,4.01,2.0
107.68,12.193,5.096,10.0
91.763,10.392,3.816,29.0
76.714,8.705,5.315,7.0
78.646,8.922,4.997,6.0
72.625,8.238,4.196,3.0
107.258,12.166,5.569,20.0
90.484,10.263,4.178,4.0
91.739,10.406,3.71,15.0
72.783,8.27,4.959,3.0
78.439,8.912,4.891,8.0
80.447,9.138,4.553,2.0
107.228,12.179,5.442,10.0
86.234,9.794,3.881,13.0
110.789,12.582,4.352,12.0
68.388,7.78,4.578,4.0
77.932,8.863,4.767,5.0
76.691,8.72,4.25,7.0
107.687,12.243,5.338,16.0
85.865,9.761,3.763,27.0
110.693,12.583,4.215,14.0
73.976,8.421,4.864,3.0
74.839,8.517,4.489,2.0
76.73,8.73,4.161,9.0
107.782,12.26,5.215,14.0
91.727,10.432,3.912,17.0
110.426,12.558,4.074,13.0
73.344,8.352,4.734,3.0
85.664,9.751,5.036,11.0
107.427,12.224,5.698,5.0
107.882,12.274,5.09,3.0
91.751,10.436,3.801,41.0
97.101,11.043,3.467,7.0
78.564,8.945,4.975,9.0
85.633,9.746,4.93,8.0
75.713,8.614,3.923,1.0
87.017,9.897,4.0,6.0
91.752,10.433,3.69,18.0
97.192,11.05,3.352,17.0
78.298,8.91,4.863,8.0
76.806,8.737,4.328,4.0
87.702,9.972,4.438,4.0
85.914,9.766,3.844,16.0
110.777,12.588,4.321,11.0
97.183,11.04,3.234,14.0
77.848,8.851,4.74,4.0
76.481,8.692,4.216,7.0
107.651,12.229,5.314,17.0
85.825,9.745,3.735,21.0
110.601,12.555,4.177,13.0
108.851,12.352,3.487,13.0
85.52,9.711,5.101,5.0
76.864,8.724,4.141,2.0
107.724,12.22,5.185,16.0
91.758,10.405,3.88,38.0
110.441,12.518,4.036,9.0
104.299,11.817,3.214,17.0
85.667,9.711,5.004,1.0
107.172,12.142,5.641,16.0
90.41,10.237,4.239,5.0
91.732,10.382,3.765,13.0
97.081,10.983,3.427,12.0
104.344,11.8,3.084,21.0
79.744,9.021,4.558,2.0
87.763,9.921,4.511,4.0
85.859,9.701,3.919,12.0
105.212,11.881,4.188,15.0
97.102,10.96,3.306,17.0
97.718,11.025,2.768,30.0
76.707,8.655,4.288,4.0
87.751,9.895,4.4,3.0
85.826,9.672,3.81,17.0
105.196,11.848,4.054,26.0
104.678,11.783,3.433,15.0
97.719,10.994,2.644,28.0
76.877,8.649,4.2,5.0
105.633,11.876,5.164,9.0
107.75,12.105,4.648,14.0
105.123,11.802,3.919,6.0
104.662,11.744,3.301,38.0
104.481,11.718,2.697,15.0
136.678,15.326,7.295,8.0
90.413,10.13,4.306,6.0
107.829,12.073,4.517,18.0
97.011,10.855,3.495,16.0
97.75,10.93,2.961,26.0
104.121,11.636,2.558,5.0
105.766,11.815,5.513,5.0
91.753,10.241,4.254,23.0
102.755,11.46,4.174,10.0
96.997,10.81,3.373,31.0
97.714,10.882,2.838,34.0
103.939,11.569,2.422,29.0
91.898,10.223,4.673,5.0
85.823,9.538,3.871,16.0
96.991,10.771,3.818,22.0
103.24,11.456,3.46,7.0
115.446,12.801,3.207,35.0
103.884,11.512,2.29,43.0
91.871,10.173,4.557,33.0
85.899,9.503,3.767,4.0
96.831,10.703,3.69,58.0
97.704,10.79,3.152,25.0
103.976,11.474,2.758,10.0
103.875,11.454,2.161,42.0
91.761,10.109,4.436,6.0
96.655,10.638,4.116,32.0
96.874,10.652,3.569,19.0
97.937,10.759,3.037,36.0
103.95,11.41,2.627,40.0
103.957,11.402,2.031,8.0
96.642,10.588,4.548,15.0
96.631,10.576,3.994,11.0
108.187,11.829,3.85,20.0
108.758,11.881,3.235,13.0
103.976,11.348,2.497,28.0
149.816,16.337,2.74,25.0
85.835,9.348,3.932,13.0
117.244,12.756,4.698,6.0
98.203,10.673,3.371,33.0
104.306,11.324,2.973,26.0
115.68,12.548,2.634,25.0
109.276,11.842,1.862,8.0
87.282,9.445,3.89,4.0
96.984,10.484,3.766,14.0
98.004,10.582,3.243,33.0
103.642,11.179,2.826,19.0
115.703,12.469,2.493,23.0
109.268,11.763,1.728,54.0
87.325,9.386,3.784,3.0
98.42,10.566,3.7,24.0
97.543,10.46,3.109,17.0
108.818,11.656,2.834,44.0
109.219,11.686,2.219,45.0
109.315,11.685,1.595,45.0
97.795,10.435,4.119,11.0
98.24,10.469,3.573,19.0
103.636,11.031,3.175,27.0
108.986,11.587,2.704,43.0
109.219,11.599,2.085,61.0
115.64,12.269,1.547,3.0
98.676,10.448,4.035,18.0
108.073,11.429,3.8,13.0
116.594,12.314,3.432,17.0
109.169,11.516,2.578,56.0
109.264,11.512,1.955,25.0
115.732,12.18,1.408,1.0
103.218,10.84,4.096,16.0
97.446,10.219,3.309,36.0
116.408,12.193,3.286,17.0
109.249,11.428,2.449,34.0
115.595,12.077,1.93,58.0
0.0,0.0,0.0,0.0
107.583,11.201,4.14,15.0
136.555,14.196,4.473,20.0
109.763,11.396,2.968,23.0
115.577,11.983,2.453,39.0
115.657,11.976,1.794,30.0
0.0,0.0,0.0,0.0
97.635,10.072,3.643,14.0
110.307,11.363,3.485,25.0
109.527,11.265,2.833,29.0
115.698,11.884,2.319,17.0
150.629,15.452,2.16,20.0
83.935,8.598,0.724,0.0
97.528,9.965,3.524,12.0
109.834,11.205,3.341,58.0
109.158,11.118,2.695,24.0
150.654,15.323,2.844,19.0
150.643,15.301,1.985,12.0
0.0,0.0,0.0,0.0
110.046,11.129,3.848,10.0
115.781,11.691,3.387,43.0
115.767,11.67,2.724,18.0
121.57,12.237,2.156,12.0
150.679,15.145,1.811,8.0
0.0,0.0,0.0,0.0
110.065,11.012,3.721,20.0
108.93,10.881,3.061,34.0
121.491,12.116,2.721,74.0
121.581,12.105,2.017,65.0
121.537,12.082,1.324,5.0
0.0,0.0,0.0,0.0
108.801,10.764,3.557,16.0
109.242,10.789,2.947,37.0
121.526,11.982,2.584,72.0
121.591,11.968,1.881,65.0
0.0,0.0,0.0,0.0
0.0,0.0,0.0,0.0
109.193,10.677,3.447,17.0
121.434,11.852,3.141,27.0
121.642,11.85,2.453,9.0
151.084,14.695,2.17,23.0
0.0,0.0,0.0,0.0
92.41,8.957,0.274,3.0
109.356,10.56,3.332,12.0
121.652,11.727,3.013,21.0
151.164,14.545,2.883,24.0
151.233,14.523,2.006,24.0
0.0,0.0,0.0,0.0
92.599,8.862,0.175,36.0
121.275,11.562,3.564,46.0
151.65,14.428,3.592,16.0
151.214,14.36,2.721,29.0
151.479,14.358,1.849,17.0
0.0,0.0,0.0,0.0
92.513,8.737,0.076,1.0
151.72,14.271,4.298,22.0
151.81,14.25,3.436,29.0
151.337,14.178,2.564,24.0
129.708,12.127,1.446,3.0
92.887,8.667,0.507,16.0
92.51,8.615,-0.02,1.0
137.98,12.797,3.764,17.0
151.93,14.06,3.28,24.0
151.901,14.027,2.415,28.0
0.0,0.0,0.0,0.0
92.863,8.541,0.412,5.0
93.67,8.598,-0.116,4.0
152.212,13.911,3.998,18.0
152.116,13.873,3.131,29.0
152.268,13.856,2.268,25.0
108.723,9.871,0.991,1.0
0.0,0.0,0.0,0.0
0.0,0.0,0.0,0.0
152.336,13.711,3.848,22.0
152.439,13.687,2.985,21.0
152.677,13.679,2.122,31.0
108.382,9.688,0.88,3.0
99.79,8.901,0.245,2.0
0.0,0.0,0.0,0.0
152.939,13.546,3.714,22.0
157.339,13.902,2.927,14.0
153.05,13.49,1.978,17.0
108.045,9.501,0.772,2.0
107.602,9.439,0.159,46.0
0.0,0.0,0.0,0.0
152.666,13.297,3.56,7.0
198.985,17.287,3.511,7.0
128.916,11.172,1.545,9.0
107.761,9.317,0.669,13.0
107.639,9.285,0.059,21.0
0.0,0.0,0.0,0.0
199.602,17.09,4.472,9.0
199.501,17.037,3.34,10.0
128.994,10.986,1.427,6.0
107.808,9.159,0.571,3.0
107.939,9.148,-0.037,12.0
68.884,5.823,-0.414,0.0
201.758,16.968,4.338,14.0
0.0,0.0,0.0,0.0
115.274,9.642,1.174,7.0
108.286,9.034,0.478,2.0
108.56,9.032,-0.134,2.0
68.955,5.722,-0.475,4.0
196.3,16.2,4.049,23.0
213.546,17.574,3.195,25.0
0.0,0.0,0.0,0.0
109.874,8.991,0.389,2.0
0.0,0.0,0.0,0.0
68.986,5.614,-0.534,2.0
156.036,12.628,3.085,19.0
181.671,14.659,2.564,27.0
114.018,9.173,0.965,2.0
113.916,9.138,0.309,13.0
0.0,0.0,0.0,0.0
0.0,0.0,0.0,0.0
155.944,12.365,2.954,47.0
155.937,12.328,2.073,37.0
114.22,9.002,0.873,7.0
114.042,8.961,0.216,121.0
0.0,0.0,0.0,0.0
0.0,0.0,0.0,0.0
162.124,12.586,2.941,38.0
162.165,12.548,2.027,21.0
0.0,0.0,0.0,0.0
114.192,8.782,0.127,6.0
0.0,0.0,0.0,0.0
0.0,0.0,0.0,0.0
168.096,12.765,2.921,46.0
168.18,12.73,1.973,18.0
121.908,9.197,0.744,2.0
0.0,0.0,0.0,0.0
0.0,0.0,0.0,0.0
0.0,0.0,0.0,0.0
173.258,12.861,2.884,42.0
173.461,12.831,1.91,10.0
140.534,10.36,0.755,150.0
0.0,0.0,0.0,0.0
0.0,0.0,0.0,0.0
0.0,0.0,0.0,0.0
173.35,12.566,2.762,10.0
0.0,0.0,0.0,0.0
140.657,10.123,0.659,152.0
0.0,0.0,0.0,0.0
0.0,0.0,0.0,0.0
0.0,0.0,0.0,0.0
0.0,0.0,0.0,0.0
0.0,0.0,0.0,0.0
154.988,10.879,0.622,14.0
0.0,0.0,0.0,0.0
0.0,0.0,0.0,0.0
0.0,0.0,0.0,0.0
0.0,0.0,0.0,0.0
0.0,0.0,0.0,0.0
154.929,10.593,0.524,153.0
0.0,0.0,0.0,0.0
68.869,4.673,-0.547,0.0
0.0,0.0,0.0,0.0
0.0,0.0,0.0,0.0
0.0,0.0,0.0,0.0
154.973,10.313,0.43,152.0
0.0,0.0,0.0,0.0
0.0,0.0,0.0,0.0
0.0,0.0,0.0,0.0
0.0,0.0,0.0,0.0
0.0,0.0,0.0,0.0
155.023,10.029,0.342,10.0
0.0,0.0,0.0,0.0
0.0,0.0,0.0,0.0
0.0,0.0,0.0,0.0
0.0,0.0,0.0,0.0
155.406,9.805,1.13,100.0
155.102,9.743,0.26,4.0
0.0,0.0,0.0,0.0
0.0,0.0,0.0,0.0
0.0,0.0,0.0,0.0
0.0,0.0,0.0,0.0
197.535,12.091,1.336,14.0
0.0,0.0,0.0,0.0
0.0,0.0,0.0,0.0
0.0,0.0,0.0,0.0
0.0,0.0,0.0,0.0
208.132,12.4,2.473,19.0
197.425,11.706,1.243,34.0
0.0,0.0,0.0,0.0
0.0,0.0,0.0,0.0
0.0,0.0,0.0,0.0
0.0,0.0,0.0,0.0
0.0,0.0,0.0,0.0
197.414,11.321,1.155,26.0
0.0,0.0,0.0,0.0
0.0,0.0,0.0,0.0
0.0,0.0,0.0,0.0
0.0,0.0,0.0,0.0
196.092,10.924,2.162,63.0
196.078,10.863,1.068,74.0
0.0,0.0,0.0,0.0
0.0,0.0,0.0,0.0
0.0,0.0,0.0,0.0
0.0,0.0,0.0,0.0
206.83,11.115,2.204,18.0
197.33,10.545,1.002,24.0
0.0,0.0,0.0,0.0
68.936,3.643,-0.423,2.0
0.0,0.0,0.0,0.0
41.741,2.181,-0.721,0.0
201.832,10.445,2.081,9.0
197.249,10.147,0.936,30.0
0.0,0.0,0.0,0.0
69.012,3.508,-0.447,4.0
52.127,2.634,-0.627,0.0
41.103,2.065,-0.723,0.0
197.877,9.844,1.979,25.0
197.245,9.753,0.878,32.0
0.0,0.0,0.0,0.0
68.733,3.357,-0.464,1.0
0.0,0.0,0.0,0.0
0.0,0.0,0.0,0.0
205.439,9.806,2.001,5.0
196.954,9.34,0.824,26.0
0.0,0.0,0.0,0.0
68.909,3.225,-0.483,0.0
0.0,0.0,0.0,0.0
42.512,1.964,-0.769,1.0
204.967,9.369,1.949,19.0
196.907,8.939,0.78,25.0
0.0,0.0,0.0,0.0
68.965,3.088,-0.497,5.0
0.0,0.0,0.0,0.0
0.0,0.0,0.0,0.0
195.569,8.54,1.821,8.0
196.97,8.537,0.743,21.0
0.0,0.0,0.0,0.0
68.932,2.945,-0.509,4.0
0.0,0.0,0.0,0.0
0.0,0.0,0.0,0.0
196.549,8.18,1.799,7.0
196.73,8.124,0.713,25.0
0.0,0.0,0.0,0.0
0.0,0.0,0.0,0.0
0.0,0.0,0.0,0.0
0.0,0.0,0.0,0.0
196.839,7.786,1.779,11.0
196.652,7.717,0.69,14.0
0.0,0.0,0.0,0.0
68.953,2.661,-0.526,4.0
0.0,0.0,0.0,0.0
0.0,0.0,0.0,0.0
196.422,7.363,1.759,11.0
196.579,7.308,0.675,17.0
0.0,0.0,0.0,0.0
68.94,2.518,-0.53,4.0
0.0,0.0,0.0,0.0
40.704,1.461,-0.762,0.0
202.671,7.177,1.805,12.0
196.414,6.89,0.667,21.0
0.0,0.0,0.0,0.0
0.0,0.0,0.0,0.0
0.0,0.0,0.0,0.0
40.67,1.374,-0.762,0.0
196.202,6.541,1.746,12.0
196.357,6.482,0.666,17.0
0.0,0.0,0.0,0.0
68.991,2.232,-0.532,0.0
0.0,0.0,0.0,0.0
0.0,0.0,0.0,0.0
196.111,6.127,1.751,16.0
196.206,6.065,0.673,21.0
0.0,0.0,0.0,0.0
68.98,2.087,-0.528,4.0
0.0,0.0,0.0,0.0
41.157,1.218,-0.768,0.0
195.924,5.71,1.762,8.0
0.0,0.0,0.0,0.0
0.0,0.0,0.0,0.0
68.999,1.942,-0.523,4.0
0.0,0.0,0.0,0.0
0.0,0.0,0.0,0.0
103.176,2.79,0.938,5.0
0.0,0.0,0.0,0.0
0.0,0.0,0.0,0.0
0.0,0.0,0.0,0.0
0.0,0.0,0.0,0.0
0.0,0.0,0.0,0.0
0.0,0.0,0.0,0.0
100.139,2.464,0.376,2.0
100.291,2.435,-0.171,1.0
0.0,0.0,0.0,0.0
0.0,0.0,0.0,0.0
0.0,0.0,0.0,0.0
0.0,0.0,0.0,0.0
99.955,2.249,0.394,2.0
100.041,2.218,-0.152,4.0
0.0,0.0,0.0,0.0
0.0,0.0,0.0,0.0
41.379,0.876,-0.746,0.0
103.006,2.138,0.992,5.0
99.878,2.038,0.416,5.0
100.009,2.008,-0.129,1.0
0.0,0.0,0.0,0.0
0.0,0.0,0.0,0.0
42.921,0.819,-0.763,0.0
0.0,0.0,0.0,0.0
99.854,1.829,0.442,10.0
99.885,1.795,-0.102,2.0
0.0,0.0,0.0,0.0
0.0,0.0,0.0,0.0
42.641,0.723,-0.746,0.0
0.0,0.0,0.0,0.0
99.735,1.615,0.471,6.0
99.77,1.582,-0.071,2.0
0.0,0.0,0.0,0.0
0.0,0.0,0.0,0.0
42.782,0.634,-0.734,0.0
0.0,0.0,0.0,0.0
99.627,1.403,0.504,6.0
99.669,1.369,-0.037,3.0
0.0,0.0,0.0,0.0
20.205,0.263,-0.229,1.0
20.19,0.256,-0.339,23.0
20.303,0.25,0.22,22.0
20.302,0.243,0.11,9.0
20.356,0.236,0.0,0.0
0.0,0.0,0.0,0.0
20.167,0.22,-0.221,19.0
20.174,0.213,-0.33,30.0
20.292,0.207,0.228,30.0
20.316,0.2,0.118,30.0
20.33,0.194,0.008,30.0
20.211,0.185,-0.103,22.0
20.173,0.178,-0.212,27.0
20.178,0.172,-0.322,36.0
20.193,0.164,0.236,23.0
20.2,0.157,0.127,27.0
20.188,0.15,0.017,27.0
20.182,0.143,-0.093,33.0
20.181,0.136,-0.203,26.0
20.201,0.129,-0.312,26.0
20.17,0.121,0.246,29.0
20.162,0.115,0.136,26.0
20.192,0.107,0.027,32.0
20.193,0.1,-0.083,29.0
20.189,0.094,-0.193,21.0
20.217,0.087,-0.302,0.0
20.154,0.08,0.256,29.0
20.156,0.072,0.147,28.0
20.214,0.066,0.038,26.0
20.213,0.059,-0.072,16.0
20.241,0.052,-0.182,27.0
20.273,0.045,-0.292,67.0
20.133,0.038,0.267,29.0
20.135,0.03,0.158,27.0
20.246,0.024,0.049,150.0
20.252,0.017,-0.061,151.0
20.23,0.01,-0.17,18.0
20.22,0.003,-0.279,3.0
20.121,-0.003,0.278,27.0
20.118,-0.01,0.17,29.0
20.135,-0.017,0.061,36.0
20.139,-0.023,-0.049,29.0
20.147,-0.031,-0.157,32.0
20.156,-0.038,-0.266,26.0
20.119,-0.044,0.291,33.0
20.116,-0.051,0.182,29.0
20.133,-0.058,0.074,41.0
20.129,-0.065,-0.036,28.0
20.138,-0.072,-0.144,35.0
20.134,-0.079,-0.253,37.0
20.123,-0.085,0.304,28.0
20.134,-0.092,0.196,24.0
20.124,-0.099,0.088,32.0
20.148,-0.106,-0.022,26.0
20.161,-0.113,-0.13,25.0
20.14,-0.12,-0.239,28.0
20.164,-0.126,0.319,17.0
20.175,-0.133,0.21,17.0
20.183,-0.14,0.102,12.0
20.188,-0.147,-0.008,9.0
20.168,-0.154,-0.116,9.0
20.159,-0.16,-0.224,14.0
53.481,-0.442,0.885,40.0
53.383,-0.46,0.597,5.0
53.358,-0.478,0.31,5.0
56.197,-0.523,0.019,6.0
56.303,-0.542,-0.282,2.0
52.494,-0.524,-0.545,4.0
20.168,-0.207,0.349,12.0
20.163,-0.214,0.241,8.0
56.183,-0.616,0.37,3.0
59.555,-0.674,0.067,2.0
56.247,-0.655,-0.237,0.0
52.878,-0.633,-0.507,13.0
20.141,-0.247,0.365,15.0
20.121,-0.253,0.256,11.0
20.137,-0.26,0.149,9.0
59.513,-0.79,0.115,51.0
56.834,-0.774,-0.193,1.0
52.995,-0.739,-0.464,10.0
20.167,-0.287,0.382,7.0
20.138,-0.293,0.273,9.0
20.119,-0.299,0.165,12.0
20.137,-0.307,0.056,42.0
20.111,-0.313,-0.051,13.0
52.96,-0.842,-0.418,20.0
176.614,-2.859,3.501,69.0
176.662,-2.92,2.557,38.0
20.181,-0.34,0.184,0.0
20.122,-0.345,0.074,12.0
20.121,-0.352,-0.033,20.0
52.917,-0.945,-0.37,57.0
193.335,-3.503,4.005,6.0
192.837,-3.558,2.965,21.0
52.974,-0.994,0.531,31.0
52.94,-1.012,0.243,62.0
52.933,-1.028,-0.039,66.0
45.571,-0.901,-0.276,12.0
38.433,-0.769,0.832,7.0
38.399,-0.781,0.626,22.0
38.379,-0.793,0.421,51.0
38.371,-0.805,0.212,28.0
40.463,-0.862,0.008,3.0
40.428,-0.875,-0.206,27.0
40.417,-0.886,0.913,39.0
40.412,-0.898,0.698,40.0
40.404,-0.911,0.482,38.0
40.401,-0.925,0.263,38.0
40.415,-0.938,0.048,38.0
40.409,-0.951,-0.166,37.0
38.756,-0.922,0.914,31.0
40.438,-0.975,0.739,25.0
40.433,-0.987,0.523,22.0
38.719,-0.958,0.291,23.0
38.718,-0.971,0.086,26.0
38.709,-0.983,-0.119,34.0
38.652,-0.992,0.952,59.0
38.663,-1.004,0.746,58.0
38.65,-1.016,0.541,66.0
38.628,-1.028,0.331,62.0
38.648,-1.041,0.126,67.0
38.651,-1.053,-0.078,67.0
38.644,-1.062,0.993,85.0
38.638,-1.074,0.787,76.0
38.629,-1.085,0.582,73.0
38.631,-1.098,0.373,97.0
38.66,-1.111,0.168,99.0
38.664,-1.123,-0.036,78.0
38.604,-1.13,1.033,73.0
38.636,-1.143,0.829,98.0
38.628,-1.155,0.624,71.0
38.628,-1.167,0.415,67.0
38.65,-1.18,0.211,64.0
38.668,-1.192,0.006,59.0
38.611,-1.199,1.076,66.0
38.635,-1.212,0.872,63.0
38.651,-1.224,0.667,49.0
38.677,-1.236,0.459,35.0
38.713,-1.249,0.254,35.0
38.741,-1.262,0.049,25.0
38.691,-1.269,1.123,27.0
38.712,-1.281,0.918,18.0
152.121,-5.083,2.804,5.0
84.446,-2.848,1.101,39.0
80.403,-2.736,0.623,23.0
80.441,-2.761,0.198,29.0
31.324,-1.082,0.946,38.0
31.329,-1.091,0.78,41.0
31.382,-1.102,0.615,26.0
31.36,-1.111,0.446,25.0
31.369,-1.12,0.28,4.0
80.322,-2.893,0.293,15.0
31.256,-1.132,0.981,48.0
31.274,-1.142,0.816,45.0
31.302,-1.152,0.651,64.0
31.253,-1.16,0.482,36.0
31.261,-1.169,0.317,45.0
31.252,-1.178,0.152,43.0
31.274,-1.186,1.02,9.0
28.463,-1.087,0.778,48.0
28.449,-1.095,0.627,66.0
28.449,-1.103,0.474,65.0
28.45,-1.111,0.324,70.0
28.445,-1.119,0.174,72.0
28.442,-1.125,0.963,117.0
28.442,-1.133,0.813,150.0
28.441,-1.141,0.663,150.0
28.454,-1.149,0.51,130.0
28.448,-1.157,0.36,129.0
28.436,-1.165,0.21,101.0
28.437,-1.17,0.999,111.0
28.429,-1.178,0.849,91.0
28.432,-1.186,0.699,78.0
28.432,-1.194,0.546,65.0
28.447,-1.202,0.397,63.0
28.451,-1.211,0.247,63.0
28.452,-1.216,1.037,49.0
28.44,-1.223,0.886,26.0
31.319,-1.356,0.811,19.0
31.283,-1.362,0.642,30.0
31.25,-1.369,0.477,42.0
31.249,-1.378,0.312,35.0
165.624,-7.338,6.257,26.0
86.658,-3.862,2.816,5.0
85.098,-3.814,2.317,26.0
85.094,-3.837,1.86,29.0
31.309,-1.42,0.519,15.0
31.351,-1.43,0.355,5.0
165.577,-7.586,6.477,15.0
0.0,0.0,0.0,0.0
85.154,-3.944,2.433,24.0
84.714,-3.946,1.967,39.0
86.42,-4.048,1.552,7.0
83.001,-3.91,1.054,41.0
86.549,-4.093,3.503,23.0
85.041,-4.043,2.994,25.0
85.339,-4.079,2.555,23.0
84.645,-4.066,2.081,38.0
84.67,-4.09,1.637,15.0
82.921,-4.027,1.168,37.0
86.348,-4.21,3.615,29.0
85.205,-4.175,3.119,21.0
85.713,-4.22,2.687,43.0
84.706,-4.191,2.201,39.0
84.729,-4.214,1.757,37.0
83.024,-4.149,1.285,15.0
24.467,-1.655,1.654,47.0
24.462,-1.657,1.525,58.0
24.468,-1.66,1.397,55.0
24.525,-1.667,1.27,19.0
24.581,-1.674,1.144,6.0
24.569,-1.676,1.015,31.0
24.489,-1.675,1.695,39.0
24.465,-1.676,1.564,27.0
24.477,-1.679,1.437,42.0
24.51,-1.684,1.308,2.0
83.646,-5.757,4.025,15.0
24.591,-1.695,1.055,6.0
24.486,-1.692,1.733,34.0
24.498,-1.695,1.605,22.0
24.465,-1.695,1.475,27.0
84.251,-5.846,4.629,25.0
85.44,-5.938,4.246,10.0
83.673,-5.823,3.72,32.0
24.494,-1.709,1.773,28.0
24.537,-1.714,1.647,6.0
24.56,-1.718,1.519,10.0
24.513,-1.716,1.385,2.0
83.794,-5.876,4.297,31.0
83.566,-5.868,3.848,38.0
24.498,-1.725,1.812,27.0
24.568,-1.731,1.688,1.0
24.596,-1.735,1.56,10.0
24.578,-1.735,1.427,2.0
83.992,-5.939,4.439,31.0
83.459,-5.908,3.973,35.0
24.476,-1.737,1.849,22.0
24.591,-1.747,1.728,3.0
24.59,-1.748,1.599,7.0
84.383,-6.006,5.035,22.0
84.545,-6.024,4.602,24.0
83.568,-5.961,4.11,26.0
24.339,-1.74,1.877,24.0
60.294,-4.315,4.333,7.0
86.129,-6.17,5.737,13.0
84.356,-6.048,5.167,33.0
84.442,-6.059,4.729,34.0
83.632,-6.007,4.246,34.0
24.245,-1.746,1.908,37.0
24.588,-1.772,1.806,15.0
86.048,-6.205,5.868,10.0
84.112,-6.07,5.285,15.0
84.367,-6.093,4.857,33.0
83.686,-6.048,4.378,32.0
24.189,-1.753,1.942,46.0
24.587,-1.783,1.844,19.0
118.317,-8.584,8.254,19.0
84.076,-6.103,5.413,18.0
84.361,-6.127,4.988,34.0
84.199,-6.119,4.537,33.0
24.168,-1.761,1.978,41.0
24.541,-1.789,1.879,13.0
60.319,-4.399,4.301,4.0
84.18,-6.143,5.55,12.0
84.247,-6.151,5.112,35.0
84.426,-6.167,4.68,39.0
24.158,-1.769,2.015,38.0
24.387,-1.786,1.905,26.0
60.395,-4.426,4.401,5.0
84.198,-6.173,5.683,10.0
84.094,-6.168,5.233,33.0
84.257,-6.182,4.8,39.0
24.18,-1.779,2.055,19.0
24.216,-1.782,1.929,36.0
115.049,-8.467,8.561,10.0
117.895,-8.678,8.139,20.0
84.147,-6.196,5.366,20.0
84.308,-6.209,4.932,37.0
24.29,-1.794,2.102,1.0
24.15,-1.783,1.962,40.0
115.073,-8.5,8.74,12.0
60.347,-4.457,4.259,5.0
84.188,-6.219,5.498,17.0
84.212,-6.222,5.056,37.0
112.928,-8.367,9.946,14.0
24.145,-1.788,1.998,35.0
24.548,-1.818,1.902,7.0
60.291,-4.466,4.347,6.0
84.16,-6.235,5.623,14.0
84.13,-6.233,5.177,38.0
46.48,-3.453,4.164,6.0
24.119,-1.791,2.033,27.0
24.318,-1.806,1.921,27.0
119.235,-8.854,8.778,8.0
60.324,-4.478,4.122,3.0
84.171,-6.249,5.307,32.0
46.549,-3.465,4.241,4.0
24.166,-1.798,2.073,10.0
24.182,-1.799,1.946,38.0
114.941,-8.55,8.632,18.0
117.803,-8.76,8.225,19.0
84.191,-6.259,5.434,20.0
47.296,-3.526,4.38,6.0
24.097,-1.795,2.103,0.0
24.139,-1.798,1.979,32.0
115.127,-8.574,8.818,9.0
60.283,-4.487,4.298,6.0
84.161,-6.263,5.555,17.0
47.106,-3.515,4.432,3.0
46.494,-3.467,4.127,4.0
24.112,-1.797,2.012,27.0
24.476,-1.824,1.91,12.0
60.314,-4.492,4.388,6.0
84.146,-6.264,5.677,9.0
58.963,-4.402,5.635,6.0
46.525,-3.471,4.198,10.0
24.112,-1.797,2.047,21.0
24.226,-1.805,1.926,30.0
114.95,-8.561,8.529,11.0
60.383,-4.494,4.161,5.0
59.063,-4.409,5.73,7.0
47.21,-3.521,4.328,4.0
24.152,-1.8,2.085,3.0
24.148,-1.798,1.954,38.0
115.023,-8.561,8.699,16.0
60.38,-4.491,4.246,5.0
47.685,-3.557,4.695,1.0
47.239,-3.52,4.399,5.0
112.932,-8.409,9.915,11.0
24.132,-1.795,1.987,31.0
24.568,-1.826,1.893,3.0
60.334,-4.482,4.329,7.0
52.506,-3.911,5.245,3.0
111.71,-8.314,10.561,13.0
46.517,-3.459,4.149,5.0
24.097,-1.79,2.018,28.0
24.343,-1.806,1.909,23.0
119.211,-8.84,8.719,7.0
47.606,-3.54,4.822,4.0
54.01,-4.012,5.181,5.0
46.685,-3.464,4.229,6.0
24.158,-1.79,2.057,14.0
24.197,-1.791,1.931,36.0
115.08,-8.514,8.574,15.0
47.543,-3.527,4.881,15.0
53.993,-4.0,5.254,4.0
47.527,-3.517,4.37,21.0
24.349,-1.8,2.106,0.0
24.153,-1.783,1.96,40.0
24.566,-1.812,1.863,1.0
30.984,-2.292,3.223,18.0
47.69,-3.523,4.705,1.0
47.683,-3.518,4.449,17.0
112.967,-8.324,9.925,16.0
24.14,-1.776,1.992,38.0
24.508,-1.801,1.891,18.0
30.98,-2.283,3.264,43.0
111.567,-8.212,11.157,24.0
59.046,-4.34,5.588,6.0
46.451,-3.41,4.142,4.0
24.146,-1.77,2.024,26.0
24.298,-1.779,1.907,31.0
30.961,-2.273,3.303,2.0
47.61,-3.49,4.824,6.0
59.541,-4.358,5.712,13.0
46.734,-3.415,4.228,5.0
24.399,-1.78,2.077,5.0
24.189,-1.763,1.929,43.0
36.226,-2.647,3.912,3.0
30.991,-2.261,3.179,16.0
59.962,-4.368,5.829,4.0
47.078,-3.424,4.319,7.0
53.781,-3.905,4.646,2.0
24.165,-1.752,1.958,42.0
30.405,-2.21,3.321,24.0
30.988,-2.249,3.218,40.0
47.626,-3.451,4.688,1.0
59.042,-4.271,5.489,4.0
24.917,-1.799,2.182,4.0
24.195,-1.744,1.989,36.0
30.427,-2.2,3.361,58.0
31.053,-2.241,3.262,2.0
47.641,-3.432,4.748,4.0
47.065,-3.385,4.432,4.0
24.88,-1.786,2.209,15.0
24.303,-1.741,2.027,21.0
30.419,-2.186,3.397,60.0
36.318,-2.605,3.858,3.0
31.001,-2.219,3.126,34.0
52.351,-3.741,4.991,2.0
24.865,-1.773,2.237,23.0
24.661,-1.755,2.086,11.0
30.442,-2.173,3.435,65.0
36.245,-2.582,3.894,2.0
31.006,-2.204,3.163,25.0
44.866,-3.183,4.33,1.0
24.867,-1.761,2.266,29.0
24.786,-1.752,2.125,25.0
36.908,-2.615,4.208,4.0
30.392,-2.149,3.3,40.0
38.944,-2.748,4.017,9.0
31.043,-2.186,3.031,3.0
24.885,-1.749,2.295,29.0
24.8,-1.739,2.154,35.0
32.063,-2.254,3.692,0.0
30.434,-2.135,3.338,56.0
38.936,-2.725,4.06,5.0
24.974,-1.744,2.466,31.0
24.94,-1.738,2.328,35.0
24.802,-1.725,2.18,38.0
32.077,-2.236,3.728,1.0
36.963,-2.571,4.094,4.0
36.343,-2.522,3.828,2.0
25.011,-1.732,2.496,53.0
24.963,-1.724,2.356,49.0
24.814,-1.71,2.208,36.0
32.028,-2.213,3.756,21.0
36.94,-2.546,4.131,8.0
25.028,-1.721,2.662,23.0
25.001,-1.715,2.521,65.0
24.976,-1.709,2.383,53.0
24.843,-1.696,2.236,26.0
32.056,-2.194,3.792,56.0
32.067,-2.189,3.618,18.0
25.05,-1.706,2.69,44.0
25.001,-1.698,2.546,64.0
24.997,-1.694,2.409,39.0
31.115,-2.103,2.83,2.0
32.047,-2.172,3.823,36.0
32.015,-2.164,3.644,28.0
25.053,-1.689,2.714,45.0
25.027,-1.683,2.572,50.0
25.002,-1.676,2.434,15.0
31.06,-2.078,2.855,39.0
31.961,-2.143,3.843,33.0
31.949,-2.136,3.666,28.0
25.08,-1.672,2.741,33.0
25.016,-1.664,2.594,24.0
54.229,-3.597,5.329,4.0
31.073,-2.056,2.884,4.0
0.0,0.0,0.0,0.0
31.937,-2.111,3.694,44.0
25.08,-1.654,2.763,26.0
30.422,-2.0,3.182,33.0
54.214,-3.555,5.375,4.0
45.151,-2.952,4.231,3.0
31.934,-2.093,3.897,23.0
31.951,-2.088,3.723,64.0
30.263,-1.972,3.361,13.0
30.419,-1.976,3.208,52.0
30.465,-1.973,3.046,41.0
45.139,-2.915,4.267,7.0
31.943,-2.067,3.926,33.0
31.942,-2.061,3.749,48.0
30.243,-1.945,3.384,20.0
30.389,-1.949,3.23,46.0
30.48,-1.949,3.073,49.0
47.515,-3.029,4.531,5.0
31.995,-2.044,3.958,3.0
30.169,-1.921,3.566,9.0
30.251,-1.92,3.409,11.0
30.402,-1.924,3.255,51.0
30.455,-1.921,3.094,58.0
47.535,-2.99,4.569,6.0
0.0,0.0,0.0,0.0
30.128,-1.892,3.584,39.0
25.212,-1.578,2.86,18.0
30.371,-1.896,3.275,26.0
30.461,-1.895,3.117,56.0
30.522,-1.893,2.956,3.0
38.654,-2.402,4.84,9.0
30.094,-1.864,3.602,51.0
25.225,-1.557,2.879,23.0
31.349,-1.928,3.403,30.0
30.447,-1.867,3.137,32.0
30.477,-1.862,2.973,27.0
30.034,-1.838,3.782,43.0
30.076,-1.835,3.62,41.0
25.253,-1.535,2.9,27.0
31.752,-1.923,3.468,35.0
30.739,-1.856,3.187,8.0
30.483,-1.834,2.993,53.0
30.041,-1.811,3.802,81.0
30.094,-1.807,3.642,7.0
25.269,-1.512,2.918,22.0
31.76,-1.894,3.488,23.0
31.726,-1.885,3.31,41.0
30.488,-1.805,3.012,61.0
30.038,-1.782,3.82,39.0
33.219,-1.963,4.04,6.0
25.274,-1.488,2.934,6.0
31.788,-1.865,3.51,4.0
31.737,-1.855,3.329,62.0
30.498,-1.776,3.031,70.0
38.406,-2.24,4.907,4.0
33.197,-1.929,4.056,6.0
25.38,-1.469,2.96,3.0
25.294,-1.459,2.807,26.0
31.729,-1.823,3.345,20.0
30.497,-1.746,3.047,45.0
38.429,-2.203,4.931,46.0
36.971,-2.111,4.537,7.0
25.427,-1.446,2.979,17.0
25.295,-1.433,2.82,17.0
36.857,-2.08,3.904,8.0
31.052,-1.746,3.118,42.0
38.422,-2.163,4.949,2.0
37.034,-2.076,4.563,10.0
25.442,-1.421,2.992,31.0
52.56,-2.923,5.884,8.0
36.967,-2.048,3.933,10.0
31.587,-1.743,3.185,33.0
44.339,-2.45,5.73,2.0
38.483,-2.117,4.758,43.0
25.466,-1.395,3.006,43.0
58.76,-3.206,6.603,18.0
46.066,-2.504,4.92,4.0
31.651,-1.713,3.205,5.0
51.913,-2.813,6.731,6.0
39.166,-2.113,4.858,7.0
25.472,-1.368,3.017,43.0
47.189,-2.525,5.32,8.0
36.997,-1.971,3.965,11.0
24.024,-1.275,2.441,19.0
25.544,-1.356,3.321,13.0
25.501,-1.348,3.172,32.0
25.474,-1.341,3.026,30.0
46.628,-2.444,5.273,3.0
23.95,-1.25,2.574,14.0
24.011,-1.248,2.447,51.0
25.541,-1.328,3.328,51.0
25.505,-1.32,3.18,50.0
25.49,-1.314,3.035,11.0
38.557,-1.978,4.372,40.0
23.932,-1.222,2.579,39.0
24.003,-1.221,2.453,39.0
25.549,-1.3,3.337,31.0
25.508,-1.292,3.187,5.0
23.781,-1.199,2.838,3.0
23.806,-1.195,2.705,28.0
23.891,-1.194,2.581,31.0
24.012,-1.194,2.46,45.0
37.185,-1.85,4.865,8.0
39.828,-1.973,4.986,3.0
23.748,-1.17,2.839,25.0
23.808,-1.168,2.71,47.0
23.891,-1.167,2.585,35.0
38.695,-1.881,3.971,16.0
45.194,-2.197,5.921,4.0
23.72,-1.147,2.973,3.0
23.684,-1.14,2.835,19.0
23.807,-1.14,2.714,52.0
46.373,-2.211,5.026,4.0
37.104,-1.761,3.813,1.0
59.78,-2.836,7.841,14.0
23.721,-1.12,2.977,62.0
23.702,-1.113,2.841,30.0
23.803,-1.113,2.716,14.0
59.962,-2.79,6.505,24.0
37.126,-1.719,3.819,4.0
23.845,-1.103,3.13,60.0
23.823,-1.097,2.992,43.0
23.718,-1.086,2.844,32.0
39.297,-1.791,4.487,1.0
42.892,-1.945,4.656,5.0
37.143,-1.676,3.823,7.0
23.832,-1.074,3.129,55.0
23.857,-1.07,2.997,41.0
47.081,-2.1,5.648,12.0
40.203,-1.784,4.592,12.0
37.065,-1.636,4.024,10.0
37.138,-1.632,3.823,8.0
23.719,-1.041,3.114,34.0
37.361,-1.631,4.693,7.0
46.627,-2.025,5.593,3.0
47.545,-2.053,5.429,25.0
31.81,-1.367,3.453,31.0
24.677,-1.055,2.539,27.0
44.09,-1.882,5.788,3.0
0.0,0.0,0.0,0.0
36.635,-1.547,4.392,2.0
46.405,-1.948,5.296,6.0
28.421,-1.187,3.082,33.0
24.679,-1.025,2.537,45.0
28.431,-1.179,3.73,4.0
28.404,-1.171,3.564,37.0
28.415,-1.165,3.404,47.0
28.398,-1.158,3.238,70.0
24.766,-1.004,2.683,22.0
24.684,-0.996,2.535,56.0
24.783,-0.515,3.04,65.0
40.368,-0.831,4.717,11.0
40.39,-0.824,4.486,6.0
44.433,-0.898,4.674,7.0
31.512,-0.631,3.133,39.0
37.763,-0.749,3.537,7.0
24.816,-0.487,3.022,6.0
40.322,-0.784,4.676,6.0
31.735,-0.611,3.496,2.0
31.631,-0.603,3.298,40.0
37.728,-0.713,3.716,3.0
28.335,-0.53,2.627,6.0
40.558,-0.749,4.9,16.0
40.349,-0.738,4.64,5.0
45.441,-0.823,4.963,7.0
31.654,-0.568,3.27,26.0
37.698,-0.669,3.677,23.0
43.162,-0.759,3.961,3.0
37.544,-0.651,4.499,42.0
44.416,-0.763,5.064,9.0
31.785,-0.54,3.439,8.0
37.623,-0.632,3.849,3.0
37.684,-0.627,3.638,29.0
47.872,-0.788,4.345,4.0
37.656,-0.61,4.473,54.0
37.591,-0.603,4.246,59.0
31.801,-0.504,3.408,39.0
37.604,-0.59,3.808,68.0
28.301,-0.439,2.702,1.0
31.218,-0.479,2.8,4.0
44.47,-0.671,5.235,3.0
37.621,-0.562,4.209,8.0
37.645,-0.555,3.993,22.0
43.722,-0.638,4.38,2.0
28.308,-0.408,2.672,2.0
31.195,-0.445,2.764,43.0
37.546,-0.526,4.378,33.0
31.878,-0.441,3.531,1.0
37.651,-0.514,3.951,9.0
43.701,-0.59,4.328,5.0
28.314,-0.378,2.64,1.0
54.274,-0.716,4.747,6.0
52.953,-0.685,6.113,6.0
31.84,-0.407,3.49,42.0
54.224,-0.684,5.628,20.0
43.655,-0.544,4.273,3.0
54.361,-0.668,5.005,5.0
38.598,-0.468,3.33,35.0
40.2,-0.477,4.593,5.0
31.841,-0.373,3.451,51.0
40.98,-0.474,4.203,2.0
54.506,-0.622,5.268,19.0
31.16,-0.35,2.831,57.0
38.559,-0.428,3.28,62.0
31.808,-0.345,3.594,21.0
31.875,-0.34,3.416,8.0
47.307,-0.498,4.793,11.0
47.156,-0.489,4.499,17.0
38.673,-0.396,3.465,24.0
51.453,-0.519,4.312,30.0
31.845,-0.313,3.558,74.0
0.0,0.0,0.0,0.0
47.059,-0.448,4.708,7.0
47.013,-0.441,4.425,6.0
38.644,-0.357,3.413,42.0
52.315,-0.476,4.317,34.0
31.853,-0.281,3.517,55.0
47.055,-0.408,4.92,15.0
47.038,-0.401,4.644,15.0
31.071,-0.261,2.883,41.0
52.309,-0.432,4.55,10.0
44.31,-0.36,3.597,18.0
47.117,-0.37,5.138,31.0
38.927,-0.3,4.017,28.0
38.852,-0.294,3.782,62.0
38.777,-0.288,3.545,8.0
44.722,-0.326,3.829,0.0
46.821,-0.336,3.737,29.0
38.922,-0.268,4.19,49.0
38.896,-0.263,3.96,60.0
38.864,-0.257,3.729,4.0
51.343,-0.334,4.623,11.0
0.0,0.0,0.0,0.0
58.069,-0.363,4.553,11.0
39.033,-0.233,4.147,25.0
38.891,-0.227,3.904,25.0
31.036,-0.177,2.934,39.0
40.369,-0.226,3.577,43.0
57.963,-0.317,4.799,37.0
38.577,-0.206,2.969,60.0
45.975,-0.233,4.817,5.0
51.246,-0.253,5.069,15.0
31.086,-0.149,2.893,10.0
40.434,-0.19,3.523,5.0
42.914,-0.196,3.489,2.0
52.708,-0.235,3.979,14.0
51.342,-0.215,5.302,30.0
30.996,-0.126,3.019,45.0
38.614,-0.152,3.535,19.0
57.91,-0.222,4.959,15.0
43.112,-0.16,3.44,5.0
53.593,-0.194,3.965,19.0
52.214,-0.174,5.312,13.0
31.023,-0.1,2.974,33.0
51.423,-0.16,4.63,7.0
42.869,-0.128,3.604,6.0
52.693,-0.152,4.123,6.0
53.602,-0.149,3.883,21.0
30.972,-0.077,3.102,33.0
42.752,-0.102,4.031,3.0
57.878,-0.132,5.119,12.0
42.893,-0.094,3.539,10.0
53.499,-0.111,4.103,56.0
102.045,-0.203,7.232,17.0
30.95,-0.053,3.051,43.0
52.352,-0.085,4.855,4.0
44.373,-0.067,3.855,7.0
42.965,-0.061,3.477,5.0
66.653,-0.088,5.006,22.0
45.501,-0.056,3.152,5.0
52.344,-0.05,5.076,6.0
51.2,-0.044,4.664,9.0
42.669,-0.032,3.637,4.0
52.947,-0.035,4.199,29.0
68.312,-0.039,5.018,3.0
45.478,-0.021,3.076,65.0
44.779,-0.009,4.267,5.0
40.43,-0.005,3.616,8.0
53.674,-0.002,4.487,8.0
43.926,0.002,3.41,4.0
68.263,0.009,4.901,15.0
66.643,0.015,4.397,19.0
43.032,0.021,4.028,3.0
40.414,0.023,3.547,13.0
53.458,0.035,4.378,49.0
66.39,0.049,5.042,16.0
45.512,0.038,3.191,51.0
58.67,0.053,3.771,73.0
53.653,0.062,4.931,8.0
51.831,0.065,4.459,2.0
52.62,0.07,4.218,14.0
45.656,0.064,3.389,5.0
45.508,0.067,3.112,46.0
66.636,0.104,4.168,8.0
40.451,0.073,3.646,2.0
53.355,0.101,4.496,39.0
43.541,0.085,3.414,8.0
45.562,0.093,3.302,43.0
58.658,0.124,3.908,52.0
46.157,0.101,2.806,48.0
53.717,0.13,4.747,6.0
67.085,0.168,5.535,17.0
0.0,0.0,0.0,0.0
45.512,0.12,3.217,58.0
60.244,0.163,3.907,47.0
46.172,0.128,2.725,12.0
44.481,0.134,3.851,3.0
52.629,0.162,4.247,10.0
45.585,0.143,3.411,74.0
58.627,0.188,4.039,26.0
60.236,0.197,3.798,14.0
59.457,0.198,3.402,21.0
45.781,0.163,3.881,25.0
45.632,0.165,3.6,32.0
45.596,0.168,3.33,55.0
0.0,0.0,0.0,0.0
46.196,0.176,2.828,47.0
67.146,0.259,3.72,13.0
45.772,0.187,3.795,67.0
0.0,0.0,0.0,0.0
45.622,0.191,3.248,36.0
60.29,0.256,3.933,10.0
67.206,0.289,3.991,12.0
66.93,0.291,3.585,38.0
45.648,0.208,3.7,49.0
45.607,0.21,3.429,43.0
58.62,0.273,4.064,39.0
46.205,0.217,2.928,57.0
59.473,0.283,3.422,57.0
66.824,0.321,3.455,7.0
45.479,0.228,3.6,62.0
60.396,0.305,4.427,27.0
60.328,0.308,4.069,10.0
67.158,0.345,4.13,37.0
101.198,0.525,5.631,7.0
103.637,0.542,5.163,10.0
60.429,0.328,4.669,28.0
58.622,0.32,4.186,31.0
46.207,0.254,3.028,14.0
59.463,0.329,3.542,54.0
66.878,0.373,3.594,26.0
65.906,0.37,3.157,26.0
60.438,0.351,4.553,45.0
103.748,0.607,7.208,26.0
67.163,0.394,4.273,12.0
59.481,0.351,3.43,3.0
103.589,0.615,5.368,20.0
101.755,0.607,4.678,32.0
101.488,0.624,7.45,4.0
103.855,0.642,7.013,8.0
67.194,0.417,4.144,25.0
66.98,0.417,3.733,5.0
118.801,0.744,5.926,10.0
101.834,0.64,4.485,53.0
58.628,0.378,4.189,44.0
46.241,0.3,3.033,47.0
59.483,0.387,3.553,33.0
66.916,0.436,3.598,32.0
65.851,0.431,3.155,40.0
101.921,0.669,4.29,39.0
101.395,0.683,7.045,8.0
67.178,0.453,4.273,10.0
101.296,0.686,5.85,9.0
101.392,0.687,5.252,8.0
65.843,0.447,3.025,7.0
102.062,0.695,4.094,37.0
46.257,0.322,3.122,3.0
59.424,0.414,3.662,31.0
66.974,0.468,3.735,16.0
65.833,0.461,3.279,24.0
142.303,0.997,6.257,7.0
111.718,0.784,4.261,12.0
46.25,0.331,3.029,56.0
59.473,0.426,3.546,10.0
66.953,0.48,3.601,32.0
65.857,0.473,3.149,37.0
101.996,0.733,4.28,18.0
111.746,0.804,4.038,17.0
46.254,0.339,2.936,4.0
101.319,0.743,5.837,18.0
65.837,0.482,3.407,21.0
133.52,0.979,6.115,8.0
102.08,0.749,4.077,18.0
117.642,0.863,4.011,27.0
59.422,0.443,3.65,48.0
66.996,0.499,3.723,22.0
65.845,0.49,3.273,36.0
110.069,0.819,4.816,30.0
111.697,0.831,4.235,26.0
20.263,0.15,0.649,1.0
59.609,0.45,3.54,2.0
66.891,0.504,3.581,24.0
65.876,0.496,3.14,20.0
102.021,0.767,4.255,40.0
126.443,0.949,4.535,29.0
20.223,0.151,0.607,10.0
101.181,0.769,5.802,15.0
65.851,0.499,3.391,37.0
102.029,0.772,4.655,14.0
110.321,0.833,4.376,17.0
125.716,0.947,4.252,23.0
20.198,0.151,0.565,15.0
66.984,0.51,3.702,28.0
65.853,0.5,3.254,36.0
110.064,0.833,4.794,23.0
111.707,0.843,4.201,29.0
20.25,0.152,0.643,2.0
20.183,0.151,0.522,18.0
0.0,0.0,0.0,0.0
65.835,0.498,3.115,9.0
102.046,0.769,4.232,34.0
126.417,0.949,4.49,24.0
20.214,0.151,0.599,11.0
20.17,0.15,0.48,18.0
65.861,0.496,3.365,33.0
102.045,0.765,4.617,11.0
110.38,0.824,4.346,12.0
117.607,0.874,3.933,24.0
20.181,0.149,0.556,16.0
20.172,0.148,0.438,23.0
65.849,0.489,3.226,33.0
110.103,0.814,4.751,37.0
111.718,0.821,4.167,23.0
20.233,0.148,0.634,5.0
20.159,0.146,0.514,18.0
20.167,0.146,0.396,24.0
65.865,0.48,3.09,12.0
102.013,0.739,4.189,29.0
117.522,0.847,4.139,30.0
20.199,0.144,0.591,12.0
20.173,0.143,0.472,22.0
20.169,0.142,0.354,24.0
142.266,1.012,6.376,7.0
102.199,0.722,3.982,18.0
117.638,0.825,3.894,40.0
20.163,0.14,0.547,18.0
20.163,0.139,0.429,26.0
20.166,0.138,0.311,24.0
101.907,0.703,4.355,24.0
111.739,0.765,4.119,36.0
20.214,0.137,0.626,9.0
20.138,0.135,0.504,19.0
20.164,0.134,0.387,23.0
20.166,0.133,0.269,25.0
102.029,0.677,4.143,43.0
111.653,0.735,3.879,18.0
20.186,0.131,0.583,15.0
20.165,0.13,0.462,23.0
20.157,0.129,0.344,25.0
20.167,0.128,0.227,23.0
102.307,0.65,3.939,39.0
20.25,0.127,0.661,2.0
20.174,0.125,0.54,20.0
20.155,0.124,0.42,25.0
20.158,0.122,0.302,27.0
20.157,0.121,0.184,25.0
102.477,0.617,3.729,45.0
20.198,0.12,0.617,12.0
20.158,0.118,0.498,19.0
20.162,0.117,0.378,27.0
20.154,0.115,0.259,27.0
20.164,0.114,0.142,24.0
102.585,0.58,3.519,55.0
20.174,0.112,0.574,19.0
20.159,0.111,0.455,25.0
20.159,0.109,0.335,27.0
20.159,0.108,0.218,25.0
20.198,0.106,0.1,34.0
20.242,0.106,0.652,7.0
20.172,0.104,0.531,22.0
20.16,0.102,0.413,27.0
20.145,0.101,0.293,27.0
20.157,0.099,0.175,27.0
20.186,0.098,0.058,37.0
20.218,0.097,0.609,23.0
20.162,0.095,0.489,26.0
20.168,0.093,0.371,27.0
20.15,0.091,0.251,27.0
20.149,0.09,0.133,24.0
20.189,0.088,0.016,29.0
20.188,0.087,0.566,27.0
20.156,0.085,0.447,29.0
20.155,0.083,0.329,26.0
20.148,0.081,0.209,27.0
20.197,0.08,0.091,31.0
20.196,0.078,-0.026,29.0
20.167,0.076,0.523,25.0
20.147,0.074,0.404,26.0
20.144,0.072,0.286,25.0
20.136,0.07,0.167,27.0
20.209,0.069,0.05,34.0
20.205,0.067,-0.068,31.0
20.16,0.065,0.481,29.0
20.14,0.063,0.363,27.0
20.142,0.061,0.245,27.0
20.143,0.059,0.125,27.0
20.216,0.057,0.008,28.0
20.217,0.055,-0.109,24.0
20.145,0.053,0.439,31.0
20.143,0.051,0.322,27.0
20.135,0.049,0.204,27.0
20.142,0.047,0.085,19.0
20.216,0.045,-0.032,9.0
20.223,0.043,-0.15,18.0
20.132,0.041,0.398,29.0
20.132,0.038,0.28,29.0
20.142,0.036,0.163,25.0
20.283,0.034,0.044,11.0
20.264,0.032,-0.074,150.0
20.253,0.03,-0.192,150.0
20.131,0.027,0.357,28.0
20.13,0.025,0.239,26.0
20.137,0.023,0.122,29.0
20.242,0.021,0.003,151.0
20.261,0.018,-0.115,151.0
20.269,0.016,-0.233,150.0
20.127,0.013,0.316,27.0
20.128,0.011,0.198,27.0
20.159,0.008,0.081,34.0
20.242,0.006,-0.038,152.0
20.263,0.004,-0.156,150.0
20.255,0.001,-0.274,25.0
20.127,0.0,0.275,27.0
20.122,-0.003,0.158,27.0
20.198,-0.005,0.041,17.0
20.197,-0.008,-0.078,17.0
20.21,-0.011,-0.196,3.0
46.682,-0.031,-0.726,2.0
20.122,-0.016,0.235,29.0
20.125,-0.018,0.118,36.0
20.122,-0.021,0.0,19.0
20.162,-0.024,-0.118,27.0
20.149,-0.026,-0.236,15.0
20.21,-0.029,-0.354,1.0
20.118,-0.032,0.195,37.0
20.132,-0.035,0.078,41.0
20.133,-0.037,-0.038,29.0
20.148,-0.04,-0.158,29.0
20.163,-0.043,-0.275,25.0
20.18,-0.046,-0.393,5.0
20.117,-0.048,0.156,33.0
20.135,-0.051,0.039,36.0
20.142,-0.054,-0.078,34.0
20.127,-0.057,-0.197,17.0
20.161,-0.06,-0.315,25.0
20.169,-0.063,-0.433,12.0
20.13,-0.066,0.117,41.0
20.125,-0.069,0.0,33.0
20.13,-0.072,-0.117,32.0
20.138,-0.075,-0.237,29.0
20.155,-0.078,-0.354,20.0
20.171,-0.081,-0.472,17.0
20.135,-0.084,0.077,41.0
20.145,-0.087,-0.039,28.0
20.148,-0.09,-0.156,35.0
20.135,-0.093,-0.276,36.0
20.151,-0.097,-0.393,35.0
20.195,-0.1,-0.512,21.0
20.143,-0.103,0.039,29.0
20.156,-0.107,-0.078,27.0
20.144,-0.11,-0.195,18.0
20.139,-0.113,-0.314,38.0
20.157,-0.116,-0.432,36.0
20.199,-0.12,-0.551,23.0
20.166,-0.123,0.0,26.0
20.155,-0.126,-0.116,23.0
20.149,-0.129,-0.234,28.0
20.148,-0.133,-0.353,33.0
20.19,-0.136,-0.472,27.0
20.207,-0.14,-0.59,28.0
20.181,-0.143,-0.037,19.0
20.145,-0.146,-0.154,16.0
20.15,-0.15,-0.271,27.0
20.162,-0.153,-0.391,32.0
20.172,-0.157,-0.509,36.0
20.212,-0.16,-0.628,31.0
20.202,-0.164,-0.075,6.0
20.154,-0.167,-0.192,5.0
20.18,-0.171,-0.309,22.0
20.175,-0.175,-0.429,27.0
20.186,-0.178,-0.547,37.0
20.209,-0.182,-0.665,31.0
56.45,-0.52,-0.314,1.0
45.082,-0.423,-0.513,19.0
37.92,-0.363,-0.652,5.0
20.172,-0.196,-0.466,28.0
20.193,-0.2,-0.584,36.0
20.21,-0.204,-0.702,31.0
58.788,-0.607,-0.435,12.0
44.866,-0.471,-0.593,19.0
36.055,-0.385,-0.686,3.0
20.167,-0.219,-0.503,18.0
20.207,-0.223,-0.621,34.0
20.215,-0.227,-0.739,32.0
52.78,-0.603,-0.485,10.0
38.5,-0.447,-0.577,14.0
32.035,-0.378,-0.666,2.0
29.344,-0.351,-0.784,1.0
20.213,-0.246,-0.657,29.0
20.227,-0.25,-0.775,33.0
45.238,-0.569,-0.495,19.0
37.964,-0.485,-0.636,22.0
31.191,-0.404,-0.704,21.0
28.25,-0.371,-0.804,1.0
20.239,-0.27,-0.694,20.0
20.231,-0.274,-0.811,27.0
44.901,-0.618,-0.57,27.0
36.072,-0.503,-0.667,2.0
30.375,-0.43,-0.738,17.0
27.128,-0.389,-0.819,1.0
20.233,-0.294,-0.728,3.0
20.164,-0.297,-0.843,11.0
38.69,-0.579,-0.557,14.0
31.558,-0.478,-0.637,9.0
28.484,-0.437,-0.741,1.0
26.034,-0.405,-0.831,3.0
25.854,-0.407,-0.975,0.0
20.571,-0.328,-0.895,4.0
38.058,-0.616,-0.612,23.0
30.68,-0.503,-0.671,29.0
27.567,-0.457,-0.763,1.0
25.1,-0.422,-0.843,2.0
0.0,0.0,0.0,0.0
0.0,0.0,0.0,0.0
30.411,-0.537,-0.716,20.0
26.523,-0.474,-0.778,4.0
24.099,-0.435,-0.849,2.0
21.582,-0.395,-0.886,0.0
19.595,-0.363,-0.918,1.0
31.445,-0.589,-0.61,18.0
28.817,-0.546,-0.726,8.0
25.446,-0.487,-0.788,1.0
23.179,-0.449,-0.855,1.0
23.018,-0.451,-0.982,0.0
0.0,0.0,0.0,0.0
30.775,-0.617,-0.647,33.0
27.994,-0.567,-0.75,1.0
23.445,-0.48,-0.764,0.0
22.089,-0.457,-0.85,1.0
21.93,-0.459,-0.971,0.0
38.398,-0.812,-1.923,1.0
30.505,-0.652,-0.689,32.0
25.454,-0.55,-0.722,1.0
22.676,-0.495,-0.775,1.0
21.298,-0.47,-0.853,1.0
21.183,-0.472,-0.971,0.0
30.289,-0.689,-0.731,9.0
24.157,-0.555,-0.722,5.0
21.996,-0.51,-0.785,0.0
20.638,-0.484,-0.858,1.0
20.504,-0.485,-0.972,0.0
28.349,-0.684,-0.727,1.0
23.809,-0.58,-0.748,16.0
21.125,-0.519,-0.786,0.0
20.017,-0.497,-0.862,1.0
19.944,-0.5,-0.975,0.0
17.24,-0.436,-0.943,3.0
27.382,-0.699,-0.743,0.0
23.73,-0.611,-0.781,7.0
20.488,-0.532,-0.792,0.0
19.424,-0.51,-0.865,1.0
19.33,-0.512,-0.973,0.0
25.041,-0.675,-0.715,8.0
22.485,-0.611,-0.772,3.0
