X,Y,Z,Reflectivity
0.0,0.0,0.0,0.0
34.254,2.981,-0.766,0.0
29.898,2.607,-0.84,0.0
25.574,2.235,-0.867,0.0
21.873,1.915,-0.867,7.0
19.68,1.727,-0.893,0.0
40.345,3.55,-0.723,0.0
33.128,2.921,-0.783,0.0
28.754,2.539,-0.844,0.0
24.649,2.181,-0.867,0.0
21.807,1.933,-0.892,7.0
19.48,1.73,-0.908,0.0
38.321,3.413,-0.736,0.0
32.771,2.924,-0.817,1.0
27.718,2.478,-0.849,0.0
24.137,2.161,-0.88,1.0
21.699,1.946,-0.916,1.0
19.129,1.719,-0.917,0.0
37.342,3.365,-0.766,0.0
31.02,2.8,-0.814,0.0
26.926,2.434,-0.86,0.0
23.455,2.124,-0.886,0.0
20.754,1.883,-0.903,0.0
18.659,1.696,-0.919,0.0
35.409,3.226,-0.773,0.0
30.285,2.764,-0.834,0.0
25.965,2.373,-0.864,0.0
21.888,2.004,-0.856,0.0
20.119,1.845,-0.902,0.0
18.128,1.665,-0.916,0.0
33.586,3.092,-0.777,1.0
29.014,2.675,-0.837,0.0
24.925,2.302,-0.862,0.0
21.769,2.013,-0.88,1.0
19.531,1.809,-0.901,0.0
17.699,1.642,-0.918,0.0
32.797,3.049,-0.802,0.0
28.116,2.617,-0.848,0.0
24.277,2.263,-0.871,0.0
21.66,2.022,-0.904,0.0
19.302,1.805,-0.916,0.0
17.263,1.617,-0.918,0.0
31.121,2.92,-0.802,0.0
27.037,2.54,-0.851,0.0
23.545,2.215,-0.876,0.0
20.929,1.972,-0.901,0.0
18.678,1.762,-0.911,0.0
16.976,1.604,-0.926,0.0
30.577,2.894,-0.829,0.0
26.2,2.483,-0.86,0.0
21.926,2.081,-0.845,0.0
20.697,1.967,-0.919,0.0
17.943,1.707,-0.9,0.0
16.55,1.577,-0.925,0.0
29.327,2.799,-0.834,0.0
25.202,2.408,-0.861,0.0
21.844,2.089,-0.872,1.0
19.577,1.875,-0.896,0.0
17.771,1.704,-0.915,1.0
16.144,1.55,-0.924,0.0
28.093,2.701,-0.837,0.0
24.474,2.356,-0.869,0.0
21.691,2.091,-0.895,1.0
19.297,1.862,-0.909,0.0
17.627,1.703,-0.932,0.0
15.822,1.531,-0.927,0.0
27.329,2.647,-0.851,0.0
23.583,2.286,-0.87,0.0
21.026,2.041,-0.896,0.0
18.673,1.814,-0.905,0.0
17.014,1.655,-0.922,0.0
15.48,1.508,-0.928,0.0
26.548,2.588,-0.862,1.0
23.281,2.272,-0.89,0.0
20.555,2.008,-0.904,0.0
18.149,1.775,-0.904,0.0
16.593,1.625,-0.922,0.0
15.128,1.483,-0.928,0.0
25.342,2.486,-0.858,0.0
21.832,2.144,-0.864,0.0
19.668,1.933,-0.891,0.0
17.797,1.751,-0.911,2.0
16.21,1.596,-0.923,0.0
14.886,1.468,-0.933,0.0
24.486,2.416,-0.862,0.0
21.77,2.149,-0.891,1.0
19.435,1.921,-0.907,0.0
17.637,1.745,-0.927,1.0
15.886,1.573,-0.926,0.0
14.611,1.448,-0.936,0.0
23.772,2.357,-0.869,0.0
21.176,2.102,-0.896,0.0
18.662,1.854,-0.896,0.0
17.068,1.697,-0.92,0.0
15.551,1.548,-0.928,0.0
14.344,1.429,-0.938,0.0
21.983,2.19,-0.833,0.0
20.634,2.057,-0.901,0.0
18.268,1.823,-0.902,0.0
16.651,1.663,-0.92,0.0
15.205,1.52,-0.928,0.0
14.116,1.412,-0.943,0.0
21.841,2.185,-0.858,0.0
19.719,1.974,-0.888,0.0
17.874,1.791,-0.907,2.0
16.251,1.63,-0.92,0.0
14.904,1.496,-0.93,0.0
13.84,1.39,-0.943,0.0
21.771,2.187,-0.884,1.0
19.474,1.957,-0.903,0.0
17.718,1.782,-0.923,1.0
15.899,1.6,-0.922,0.0
14.67,1.478,-0.935,0.0
13.527,1.364,-0.94,0.0
21.447,2.161,-0.9,0.0
18.857,1.901,-0.9,0.0
17.215,1.737,-0.92,0.0
15.614,1.576,-0.926,0.0
14.41,1.456,-0.938,0.0
13.293,1.344,-0.942,0.0
20.719,2.094,-0.897,0.0
18.394,1.86,-0.902,0.0
16.832,1.703,-0.922,0.0
15.277,1.547,-0.927,0.0
14.296,1.448,-0.949,0.0
13.0,1.318,-0.938,0.0
19.65,1.991,-0.877,0.0
17.968,1.821,-0.905,1.0
16.41,1.664,-0.921,0.0
14.957,1.518,-0.927,0.0
13.928,1.414,-0.944,0.0
12.751,1.295,-0.938,0.0
19.476,1.977,-0.895,0.0
17.737,1.801,-0.917,1.0
16.009,1.626,-0.92,0.0
14.698,1.494,-0.931,0.0
13.634,1.387,-0.942,0.0
12.575,1.28,-0.941,0.0
19.054,1.937,-0.901,0.0
17.345,1.764,-0.919,0.0
15.665,1.594,-0.921,0.0
14.471,1.473,-0.935,0.0
13.332,1.358,-0.939,0.0
12.362,1.26,-0.942,0.0
18.592,1.892,-0.903,0.0
16.88,1.718,-0.917,0.0
15.451,1.573,-0.928,0.0
14.201,1.447,-0.936,0.0
13.047,1.33,-0.936,0.0
12.165,1.241,-0.943,0.0
18.034,1.836,-0.899,1.0
16.53,1.684,-0.919,0.0
15.063,1.535,-0.924,0.0
0.0,0.0,0.0,0.0
12.847,1.31,-0.938,0.0
11.938,1.218,-0.94,0.0
17.781,1.811,-0.909,2.0
16.149,1.645,-0.919,0.0
14.814,1.51,-0.928,0.0
13.642,1.391,-0.934,0.0
12.65,1.29,-0.94,0.0
11.742,1.198,-0.94,0.0
17.565,1.789,-0.92,0.0
15.86,1.615,-0.922,0.0
14.564,1.484,-0.931,0.0
13.371,1.362,-0.933,0.0
12.483,1.272,-0.943,0.0
11.59,1.182,-0.942,0.0
17.092,1.739,-0.917,0.0
15.58,1.586,-0.925,0.0
14.4,1.466,-0.938,0.0
13.125,1.336,-0.932,0.0
12.291,1.252,-0.944,0.0
11.407,1.162,-0.942,0.0
16.755,1.703,-0.919,0.0
15.215,1.547,-0.922,0.0
14.185,1.442,-0.942,0.0
12.922,1.314,-0.934,0.0
12.048,1.225,-0.94,0.0
11.269,1.146,-0.944,0.0
16.346,1.659,-0.917,0.0
14.971,1.519,-0.926,0.0
13.78,1.399,-0.932,0.0
12.717,1.291,-0.934,0.0
11.86,1.204,-0.94,0.0
11.149,1.132,-0.948,0.0
16.039,1.625,-0.919,0.0
14.688,1.488,-0.926,0.0
13.586,1.376,-0.935,0.0
12.569,1.273,-0.939,0.0
11.671,1.182,-0.939,0.0
10.967,1.111,-0.946,0.0
15.735,1.59,-0.92,0.0
14.531,1.468,-0.933,0.0
13.332,1.347,-0.933,0.0
12.403,1.253,-0.941,0.0
11.512,1.163,-0.94,0.0
10.796,1.091,-0.944,0.0
15.493,1.561,-0.924,0.0
14.323,1.443,-0.937,0.0
13.132,1.323,-0.934,0.0
12.198,1.229,-0.939,0.0
11.357,1.144,-0.94,0.0
10.684,1.076,-0.946,0.0
15.148,1.522,-0.921,0.0
14.226,1.429,-0.947,0.0
12.96,1.301,-0.937,0.0
11.997,1.205,-0.938,0.0
11.256,1.13,-0.945,0.0
10.53,1.057,-0.945,0.0
14.935,1.495,-0.925,0.0
13.871,1.388,-0.939,0.0
12.792,1.28,-0.939,0.0
11.84,1.184,-0.939,0.0
11.116,1.112,-0.945,0.0
10.416,1.042,-0.946,0.0
14.718,1.467,-0.928,0.0
13.585,1.354,-0.934,0.0
12.581,1.253,-0.938,0.0
11.696,1.165,-0.94,0.0
10.92,1.087,-0.941,0.0
10.337,1.029,-0.95,0.0
14.502,1.439,-0.93,0.0
13.371,1.327,-0.934,0.0
12.432,1.233,-0.94,0.0
11.533,1.143,-0.939,0.0
10.819,1.072,-0.944,0.0
10.174,1.008,-0.946,0.0
14.279,1.41,-0.931,0.0
13.194,1.303,-0.935,0.0
12.257,1.21,-0.939,0.0
11.441,1.129,-0.944,0.0
10.692,1.054,-0.944,0.0
10.065,0.992,-0.946,0.0
14.144,1.389,-0.936,0.0
13.057,1.282,-0.939,0.0
12.077,1.185,-0.938,0.0
11.268,1.106,-0.941,0.0
10.64,1.044,-0.95,0.0
9.964,0.977,-0.947,0.0
13.807,1.349,-0.928,0.0
12.835,1.253,-0.936,0.0
11.891,1.16,-0.935,0.0
11.134,1.086,-0.941,0.0
10.515,1.025,-0.949,0.0
9.846,0.96,-0.946,0.0
13.573,1.318,-0.925,0.0
12.604,1.223,-0.931,0.0
11.808,1.145,-0.94,0.0
11.05,1.071,-0.944,0.0
10.379,1.005,-0.947,0.0
9.765,0.946,-0.947,0.0
13.464,1.298,-0.931,0.0
12.544,1.209,-0.939,0.0
11.652,1.122,-0.939,0.0
10.88,1.047,-0.94,0.0
10.21,0.982,-0.941,0.0
9.651,0.928,-0.945,0.0
13.393,1.283,-0.938,0.0
12.365,1.183,-0.937,0.0
11.53,1.103,-0.939,0.0
10.8,1.032,-0.943,0.0
10.138,0.969,-0.944,0.0
9.558,0.913,-0.945,0.0
13.243,1.259,-0.939,0.0
12.22,1.161,-0.936,0.0
11.399,1.082,-0.939,0.0
10.668,1.012,-0.941,0.0
10.079,0.955,-0.947,0.0
9.489,0.899,-0.946,0.0
13.085,1.234,-0.939,0.0
12.05,1.136,-0.934,0.0
11.296,1.064,-0.94,0.0
10.562,0.994,-0.941,0.0
9.991,0.939,-0.947,0.0
9.39,0.882,-0.944,0.0
12.918,1.208,-0.938,0.0
11.921,1.114,-0.934,0.0
11.228,1.048,-0.944,0.0
0.0,0.0,0.0,0.0
9.865,0.92,-0.943,0.0
9.317,0.868,-0.945,0.0
12.756,1.183,-0.936,0.0
11.869,1.1,-0.939,0.0
11.194,1.036,-0.949,0.0
0.0,0.0,0.0,0.0
9.823,0.908,-0.947,0.0
9.253,0.854,-0.945,0.0
12.628,1.16,-0.936,0.0
11.767,1.08,-0.94,0.0
11.033,1.012,-0.944,0.0
10.327,0.946,-0.944,0.0
9.683,0.886,-0.941,0.0
9.195,0.841,-0.946,0.0
12.518,1.139,-0.937,0.0
11.624,1.057,-0.937,0.0
10.978,0.997,-0.947,0.0
10.269,0.932,-0.946,0.0
9.652,0.875,-0.944,0.0
9.096,0.824,-0.942,0.0
12.412,1.118,-0.938,0.0
11.531,1.038,-0.937,0.0
10.85,0.975,-0.944,0.0
10.161,0.912,-0.943,0.0
9.576,0.859,-0.943,0.0
9.033,0.81,-0.942,0.0
12.301,1.097,-0.938,0.0
11.466,1.021,-0.939,0.0
10.815,0.962,-0.948,0.0
10.044,0.892,-0.939,0.0
9.51,0.844,-0.943,0.0
9.001,0.798,-0.944,0.0
12.215,1.077,-0.939,0.0
11.39,1.003,-0.94,0.0
10.691,0.94,-0.944,0.0
10.037,0.882,-0.944,0.0
9.443,0.829,-0.942,0.0
8.923,0.782,-0.942,0.0
12.101,1.055,-0.937,0.0
11.354,0.989,-0.944,0.0
10.664,0.927,-0.947,0.0
9.972,0.866,-0.944,0.0
9.398,0.815,-0.943,0.0
8.88,0.769,-0.942,0.0
12.011,1.035,-0.937,0.0
11.262,0.969,-0.942,0.0
10.462,0.899,-0.935,0.0
9.903,0.85,-0.943,0.0
9.348,0.801,-0.943,0.0
8.816,0.754,-0.94,0.0
11.906,1.013,-0.935,0.0
11.173,0.949,-0.941,0.0
10.444,0.886,-0.939,0.0
9.87,0.836,-0.944,0.0
9.303,0.787,-0.943,0.0
8.766,0.741,-0.939,0.0
11.847,0.995,-0.936,0.0
11.166,0.937,-0.945,0.0
10.441,0.874,-0.943,0.0
9.8,0.82,-0.942,0.0
9.248,0.772,-0.942,0.0
8.738,0.729,-0.94,0.0
11.797,0.978,-0.937,0.0
11.045,0.914,-0.94,0.0
10.395,0.859,-0.943,0.0
9.712,0.801,-0.938,0.0
9.217,0.759,-0.942,0.0
8.723,0.718,-0.942,0.0
11.722,0.959,-0.936,0.0
11.023,0.9,-0.942,0.0
10.359,0.844,-0.944,0.0
9.723,0.791,-0.942,0.0
9.191,0.747,-0.943,0.0
8.726,0.708,-0.945,0.0
11.7,0.943,-0.938,0.0
11.039,0.889,-0.947,0.0
10.324,0.83,-0.945,0.0
9.66,0.775,-0.94,0.0
9.147,0.732,-0.942,0.0
8.718,0.697,-0.947,0.0
11.506,0.914,-0.926,0.0
11.027,0.875,-0.95,0.0
10.264,0.813,-0.942,0.0
9.659,0.763,-0.942,0.0
9.142,0.721,-0.944,0.0
8.662,0.682,-0.944,0.0
11.524,0.902,-0.931,0.0
10.904,0.852,-0.942,0.0
10.257,0.8,-0.944,0.0
9.618,0.748,-0.941,0.0
9.125,0.709,-0.944,0.0
8.651,0.671,-0.945,0.0
11.563,0.891,-0.937,0.0
10.909,0.839,-0.945,0.0
10.207,0.783,-0.942,0.0
9.588,0.734,-0.94,0.0
9.159,0.7,-0.95,0.0
8.619,0.657,-0.943,0.0
11.573,0.877,-0.94,0.0
10.832,0.819,-0.94,0.0
10.203,0.77,-0.943,0.0
9.607,0.724,-0.944,0.0
9.085,0.683,-0.944,0.0
8.628,0.647,-0.945,0.0
11.567,0.863,-0.941,0.0
10.858,0.808,-0.944,0.0
10.14,0.753,-0.939,0.0
9.596,0.711,-0.944,0.0
9.064,0.67,-0.943,0.0
8.61,0.635,-0.944,0.0
11.538,0.846,-0.94,0.0
10.825,0.792,-0.943,0.0
10.172,0.742,-0.943,0.0
9.619,0.7,-0.947,0.0
9.061,0.658,-0.943,0.0
8.626,0.625,-0.947,0.0
11.529,0.83,-0.94,0.0
10.914,0.784,-0.951,0.0
10.161,0.728,-0.942,0.0
9.589,0.686,-0.944,0.0
9.075,0.647,-0.945,0.0
8.604,0.612,-0.945,0.0
11.535,0.816,-0.941,0.0
10.834,0.764,-0.944,0.0
10.201,0.718,-0.946,0.0
9.58,0.673,-0.943,0.0
9.094,0.637,-0.947,0.0
8.615,0.602,-0.946,0.0
11.556,0.802,-0.942,0.0
10.838,0.75,-0.944,0.0
10.195,0.704,-0.945,0.0
9.583,0.66,-0.943,0.0
9.089,0.624,-0.946,0.0
8.6,0.589,-0.943,0.0
11.556,0.787,-0.941,0.0
10.902,0.74,-0.949,0.0
10.219,0.692,-0.947,0.0
9.637,0.651,-0.948,0.0
9.12,0.614,-0.948,0.0
8.618,0.579,-0.945,0.0
11.556,0.771,-0.94,0.0
10.897,0.725,-0.947,0.0
10.23,0.679,-0.947,0.0
9.627,0.637,-0.946,0.0
9.119,0.602,-0.947,0.0
8.627,0.568,-0.944,0.0
11.575,0.757,-0.94,0.0
10.849,0.707,-0.941,0.0
10.244,0.666,-0.946,0.0
9.667,0.626,-0.948,0.0
9.151,0.591,-0.949,0.0
8.661,0.558,-0.947,0.0
11.63,0.745,-0.942,0.0
10.924,0.697,-0.946,0.0
10.292,0.655,-0.948,0.0
9.669,0.613,-0.946,0.0
9.163,0.58,-0.948,0.0
8.659,0.546,-0.944,0.0
11.654,0.73,-0.941,0.0
10.981,0.686,-0.948,0.0
10.277,0.64,-0.944,0.0
9.697,0.601,-0.946,0.0
9.175,0.567,-0.947,0.0
8.664,0.534,-0.942,0.0
11.683,0.716,-0.94,0.0
10.981,0.67,-0.945,0.0
10.33,0.629,-0.946,0.0
9.731,0.59,-0.947,0.0
9.194,0.556,-0.946,0.0
8.719,0.525,-0.946,0.0
11.728,0.702,-0.94,0.0
11.044,0.659,-0.947,0.0
10.336,0.614,-0.943,0.0
9.787,0.58,-0.949,0.0
9.252,0.546,-0.948,0.0
8.733,0.514,-0.944,0.0
11.8,0.69,-0.942,0.0
11.008,0.641,-0.939,0.0
10.4,0.604,-0.945,0.0
9.813,0.568,-0.947,0.0
9.234,0.532,-0.943,0.0
8.774,0.504,-0.945,0.0
11.857,0.677,-0.941,0.0
11.089,0.631,-0.942,0.0
10.446,0.592,-0.945,0.0
9.832,0.555,-0.945,0.0
9.311,0.524,-0.947,0.0
8.809,0.494,-0.945,0.0
11.89,0.662,-0.938,0.0
11.154,0.619,-0.942,0.0
10.494,0.58,-0.944,0.0
9.9,0.545,-0.947,0.0
9.374,0.514,-0.948,0.0
8.837,0.483,-0.943,0.0
12.023,0.653,-0.943,0.0
11.243,0.608,-0.944,0.0
10.559,0.568,-0.945,0.0
9.926,0.532,-0.944,0.0
9.427,0.504,-0.949,0.0
8.904,0.474,-0.945,0.0
12.053,0.637,-0.939,0.0
11.317,0.596,-0.944,0.0
10.6,0.556,-0.942,0.0
10.006,0.522,-0.946,0.0
9.46,0.492,-0.947,0.0
8.942,0.463,-0.944,0.0
12.218,0.629,-0.944,0.0
11.393,0.584,-0.943,0.0
10.767,0.549,-0.951,0.0
10.108,0.513,-0.949,0.0
9.509,0.481,-0.946,0.0
8.999,0.453,-0.945,0.0
12.298,0.615,-0.943,0.0
11.522,0.574,-0.947,0.0
10.812,0.536,-0.948,0.0
10.165,0.502,-0.948,0.0
9.596,0.472,-0.948,0.0
9.064,0.444,-0.945,0.0
12.429,0.604,-0.944,0.0
11.576,0.56,-0.943,0.0
10.867,0.524,-0.945,0.0
10.24,0.491,-0.948,0.0
9.664,0.462,-0.948,0.0
9.145,0.435,-0.947,0.0
12.541,0.592,-0.944,0.0
11.696,0.55,-0.944,0.0
11.005,0.515,-0.949,0.0
10.307,0.48,-0.946,0.0
9.748,0.452,-0.948,0.0
9.229,0.426,-0.949,0.0
12.674,0.581,-0.944,0.0
11.775,0.537,-0.942,0.0
11.103,0.504,-0.949,0.0
10.419,0.471,-0.948,0.0
9.84,0.442,-0.949,0.0
9.336,0.418,-0.952,0.0
12.818,0.57,-0.945,0.0
11.95,0.528,-0.946,0.0
11.182,0.492,-0.946,0.0
10.472,0.458,-0.944,0.0
9.949,0.433,-0.952,0.0
9.355,0.405,-0.946,0.0
12.96,0.558,-0.944,0.0
12.047,0.516,-0.943,0.0
11.309,0.482,-0.947,0.0
10.584,0.449,-0.945,0.0
9.994,0.421,-0.947,0.0
9.478,0.398,-0.95,0.0
13.153,0.548,-0.947,0.0
12.221,0.507,-0.946,0.0
11.411,0.471,-0.945,0.0
10.656,0.437,-0.942,0.0
10.119,0.413,-0.95,0.0
9.576,0.389,-0.951,0.0
13.302,0.536,-0.945,0.0
12.365,0.496,-0.945,0.0
11.578,0.461,-0.948,0.0
10.902,0.432,-0.953,0.0
10.224,0.403,-0.95,0.0
9.655,0.378,-0.949,0.0
13.447,0.524,-0.942,0.0
12.53,0.485,-0.946,0.0
11.643,0.448,-0.942,0.0
11.089,0.424,-0.959,0.0
10.357,0.394,-0.952,0.0
9.777,0.37,-0.952,0.0
13.665,0.514,-0.944,0.0
12.774,0.477,-0.951,0.0
11.797,0.438,-0.942,0.0
11.114,0.41,-0.949,0.0
10.437,0.383,-0.948,0.0
9.849,0.359,-0.948,0.0
0.0,0.0,0.0,0.0
12.889,0.464,-0.946,0.0
12.032,0.431,-0.948,0.0
11.216,0.399,-0.946,0.0
10.542,0.373,-0.946,0.0
9.979,0.351,-0.95,0.0
14.253,0.498,-0.954,0.0
13.092,0.454,-0.947,0.0
12.204,0.421,-0.948,0.0
11.361,0.389,-0.945,0.0
10.683,0.363,-0.947,0.0
10.133,0.342,-0.953,0.0
14.39,0.483,-0.946,0.0
13.337,0.445,-0.949,0.0
12.383,0.41,-0.948,0.0
11.489,0.378,-0.942,0.0
10.88,0.356,-0.951,0.0
10.212,0.332,-0.948,0.0
14.625,0.472,-0.944,0.0
13.403,0.429,-0.937,0.0
12.571,0.4,-0.947,0.0
11.708,0.37,-0.946,0.0
11.039,0.346,-0.951,0.0
10.39,0.324,-0.952,0.0
14.83,0.459,-0.94,0.0
0.0,0.0,0.0,0.0
12.824,0.392,-0.95,0.0
11.902,0.361,-0.947,0.0
11.249,0.339,-0.956,0.0
10.538,0.315,-0.952,0.0
15.147,0.45,-0.941,0.0
14.129,0.417,-0.953,0.0
13.017,0.381,-0.948,0.0
12.147,0.353,-0.951,0.0
11.313,0.326,-0.946,0.0
10.65,0.305,-0.948,0.0
15.379,0.437,-0.935,0.0
14.338,0.405,-0.949,0.0
13.232,0.371,-0.946,0.0
12.332,0.343,-0.949,0.0
11.517,0.318,-0.948,0.0
10.837,0.297,-0.95,0.0
15.763,0.429,-0.938,0.0
14.58,0.393,-0.945,0.0
13.466,0.36,-0.945,0.0
12.561,0.333,-0.95,0.0
11.697,0.308,-0.947,0.0
11.043,0.289,-0.953,0.0
16.154,0.419,-0.939,0.0
14.827,0.382,-0.941,0.0
13.806,0.353,-0.949,0.0
12.782,0.324,-0.948,0.0
11.953,0.3,-0.951,0.0
11.228,0.28,-0.953,0.0
16.48,0.408,-0.934,0.0
15.179,0.373,-0.941,0.0
14.142,0.344,-0.952,0.0
13.103,0.316,-0.954,0.0
12.201,0.292,-0.953,0.0
11.363,0.269,-0.948,0.0
16.838,0.397,-0.93,0.0
15.476,0.361,-0.937,0.0
14.43,0.334,-0.951,0.0
13.3,0.305,-0.948,0.0
12.42,0.282,-0.952,0.0
11.611,0.262,-0.952,0.0
17.14,0.384,-0.922,0.0
15.963,0.354,-0.943,0.0
14.678,0.323,-0.945,0.0
13.624,0.297,-0.951,0.0
12.656,0.273,-0.951,0.0
11.84,0.253,-0.953,0.0
17.83,0.379,-0.932,0.0
16.34,0.344,-0.941,0.0
15.002,0.313,-0.943,0.0
14.059,0.29,-0.96,0.0
12.932,0.264,-0.952,0.0
12.081,0.245,-0.953,0.0
18.287,0.368,-0.928,0.0
16.659,0.332,-0.933,0.0
15.379,0.304,-0.943,0.0
14.309,0.28,-0.955,0.0
13.271,0.257,-0.956,0.0
12.34,0.236,-0.954,0.0
18.708,0.356,-0.92,0.0
17.094,0.322,-0.93,0.0
15.7,0.293,-0.938,0.0
14.556,0.269,-0.948,0.0
13.421,0.245,-0.945,0.0
12.602,0.228,-0.954,0.0
19.78,0.356,-0.941,0.0
17.665,0.314,-0.933,0.0
16.219,0.285,-0.943,0.0
14.915,0.26,-0.947,0.0
13.908,0.239,-0.956,0.0
12.89,0.22,-0.955,0.0
20.272,0.343,-0.931,3.0
18.119,0.303,-0.927,0.0
16.594,0.275,-0.937,0.0
15.284,0.25,-0.945,0.0
14.215,0.23,-0.954,0.0
13.201,0.211,-0.956,0.0
20.271,0.323,-0.897,13.0
18.693,0.294,-0.926,0.0
16.979,0.264,-0.93,0.0
15.688,0.241,-0.943,0.0
14.602,0.222,-0.955,0.0
13.43,0.201,-0.949,0.0
20.145,0.3,-0.858,9.0
20.029,0.295,-0.958,1.0
17.73,0.258,-0.941,0.0
16.25,0.234,-0.949,0.0
14.889,0.211,-0.948,0.0
20.209,0.284,-1.393,0.0
20.199,0.282,-0.825,17.0
20.268,0.279,-0.934,3.0
18.406,0.25,-0.945,3.0
16.538,0.222,-0.937,0.0
15.34,0.203,-0.95,0.0
20.154,0.264,-1.354,0.0
20.241,0.263,-0.791,29.0
20.24,0.26,-0.897,14.0
18.509,0.235,-0.917,25.0
17.17,0.215,-0.943,0.0
15.714,0.194,-0.945,0.0
14.584,0.177,-0.954,0.0
20.217,0.244,-0.754,30.0
18.575,0.222,-0.79,39.0
18.527,0.218,-0.885,12.0
17.776,0.206,-0.944,3.0
16.241,0.186,-0.947,0.0
14.929,0.168,-0.949,0.0
20.221,0.227,-0.718,31.0
18.592,0.206,-0.757,151.0
18.554,0.202,-0.853,22.0
18.382,0.197,-0.943,6.0
16.67,0.176,-0.942,0.0
15.362,0.16,-0.949,0.0
20.214,0.21,-0.681,28.0
18.562,0.189,-0.722,152.0
18.543,0.186,-0.818,152.0
18.522,0.183,-0.915,28.0
18.367,0.179,-1.004,6.0
15.836,0.152,-0.948,0.0
20.221,0.193,-0.643,25.0
18.576,0.174,-0.688,45.0
18.512,0.171,-0.782,168.0
18.532,0.169,-0.881,68.0
18.502,0.166,-0.976,3.0
16.354,0.144,-0.948,0.0
20.2,0.177,-0.605,15.0
21.657,0.186,-0.761,152.0
18.515,0.157,-0.747,165.0
18.542,0.154,-0.846,64.0
18.474,0.151,-0.939,12.0
18.54,0.149,-1.039,0.0
20.213,0.161,-0.566,7.0
21.619,0.17,-0.718,157.0
18.579,0.143,-0.714,152.0
18.533,0.14,-0.81,153.0
18.527,0.138,-0.906,43.0
18.499,0.135,-1.001,2.0
20.221,0.147,-0.527,0.0
21.677,0.154,-0.678,95.0
21.602,0.151,-0.788,162.0
21.583,0.148,-0.902,1.0
18.539,0.125,-0.871,16.0
18.444,0.122,-0.962,1.0
20.254,0.133,-0.489,0.0
21.682,0.139,-0.636,33.0
21.618,0.136,-0.746,173.0
21.649,0.134,-0.862,150.0
20.244,0.123,-0.911,6.0
18.494,0.11,-0.928,22.0
0.0,0.0,0.0,0.0
32.348,0.187,-0.885,0.0
21.676,0.122,-0.705,152.0
21.659,0.12,-0.82,151.0
21.608,0.117,-0.93,151.0
21.682,0.115,-1.045,1.0
0.0,0.0,0.0,0.0
33.236,0.171,-0.843,0.0
21.682,0.109,-0.662,1.0
21.671,0.107,-0.776,153.0
21.657,0.104,-0.888,66.0
20.237,0.095,-0.935,10.0
0.0,0.0,0.0,0.0
0.0,0.0,0.0,0.0
31.254,0.139,-0.892,1.0
21.644,0.094,-0.732,14.0
21.658,0.092,-0.844,14.0
21.568,0.089,-0.952,49.0
0.0,0.0,0.0,0.0
0.0,0.0,0.0,0.0
32.978,0.129,-0.874,3.0
27.968,0.106,-0.889,0.0
21.647,0.08,-0.8,1.0
21.631,0.078,-0.911,34.0
20.226,0.072,-0.285,0.0
40.516,0.141,-0.782,0.0
33.256,0.113,-0.813,0.0
20.288,0.067,-0.603,0.0
20.259,0.065,-0.707,0.0
20.261,0.063,-0.811,1.0
20.21,0.062,-0.244,0.0
20.235,0.06,-0.349,0.0
20.23,0.059,-0.453,0.0
20.243,0.057,-0.56,2.0
20.231,0.055,-0.664,3.0
20.241,0.053,-0.769,7.0
20.258,0.053,-0.202,60.0
20.239,0.051,-0.306,7.0
20.247,0.05,-0.411,16.0
33.243,0.079,-0.85,4.0
20.256,0.046,-0.622,33.0
20.245,0.045,-0.726,37.0
20.27,0.044,-0.16,77.0
20.266,0.043,-0.265,150.0
20.27,0.041,-0.369,150.0
20.26,0.04,-0.475,150.0
20.274,0.038,-0.581,150.0
20.263,0.037,-0.685,79.0
20.262,0.037,-0.118,151.0
20.241,0.035,-0.222,152.0
20.262,0.034,-0.327,151.0
20.255,0.033,-0.433,150.0
20.259,0.031,-0.537,150.0
20.257,0.03,-0.642,150.0
20.257,0.03,-0.075,151.0
20.258,0.028,-0.179,152.0
20.258,0.027,-0.284,151.0
20.256,0.026,-0.39,151.0
20.265,0.025,-0.495,150.0
20.265,0.024,-0.599,150.0
20.24,0.023,-0.032,152.0
20.262,0.022,-0.137,151.0
20.27,0.021,-0.241,151.0
20.262,0.02,-0.347,150.0
20.263,0.019,-0.452,144.0
20.266,0.018,-0.556,66.0
20.258,0.018,0.01,151.0
20.26,0.017,-0.093,152.0
20.251,0.016,-0.198,151.0
20.261,0.015,-0.304,126.0
20.267,0.014,-0.408,62.0
20.24,0.013,-0.512,24.0
20.224,0.013,0.053,79.0
20.264,0.012,-0.05,151.0
20.271,0.011,-0.154,150.0
20.258,0.01,-0.261,54.0
20.244,0.01,-0.365,14.0
20.235,0.009,-0.468,7.0
20.138,0.009,0.096,34.0
20.267,0.008,-0.007,151.0
20.255,0.007,-0.111,56.0
20.233,0.007,-0.217,13.0
20.251,0.006,-0.321,8.0
20.23,0.005,-0.425,4.0
20.131,0.005,0.139,29.0
20.192,0.005,0.035,21.0
20.219,0.004,-0.067,28.0
20.207,0.004,-0.173,12.0
20.231,0.003,-0.278,8.0
20.232,0.003,-0.382,4.0
20.124,0.003,0.182,30.0
20.127,0.002,0.079,31.0
20.218,0.002,-0.024,18.0
20.189,0.002,-0.13,18.0
20.235,0.001,-0.234,7.0
20.247,0.001,-0.339,2.0
20.122,0.001,0.225,27.0
20.119,0.001,0.122,29.0
20.195,0.0,0.019,15.0
20.203,0.0,-0.086,18.0
20.212,0.0,-0.19,10.0
20.238,0.0,-0.295,3.0
20.13,0.0,0.269,26.0
20.122,0.0,0.165,28.0
20.147,0.0,0.062,28.0
20.193,0.0,-0.043,17.0
20.197,0.0,-0.147,17.0
20.221,0.0,-0.251,6.0
20.128,0.0,0.312,29.0
20.124,0.0,0.209,27.0
20.123,0.0,0.105,29.0
20.195,0.0,0.0,15.0
20.206,0.0,-0.104,16.0
20.225,0.0,-0.208,7.0
20.128,0.0,0.355,27.0
20.12,0.0,0.251,25.0
20.118,0.0,0.148,27.0
20.147,0.001,0.043,24.0
20.224,0.001,-0.06,19.0
20.215,0.001,-0.164,14.0
20.13,0.001,0.398,27.0
20.12,0.001,0.295,28.0
20.121,0.002,0.191,27.0
20.129,0.002,0.086,30.0
20.243,0.003,-0.017,20.0
20.217,0.003,-0.121,18.0
20.137,0.003,0.442,28.0
20.125,0.004,0.337,27.0
20.121,0.004,0.234,26.0
20.117,0.005,0.129,28.0
20.232,0.005,0.025,26.0
20.249,0.006,-0.077,46.0
20.145,0.006,0.485,26.0
20.132,0.006,0.381,26.0
20.127,0.007,0.278,28.0
20.119,0.008,0.172,27.0
20.133,0.008,0.068,30.0
20.258,0.009,-0.034,150.0
20.17,0.009,0.529,24.0
20.134,0.01,0.425,27.0
20.123,0.011,0.321,26.0
20.117,0.012,0.215,26.0
20.117,0.013,0.112,28.0
20.255,0.014,0.008,151.0
20.169,0.014,0.572,29.0
20.134,0.014,0.468,27.0
20.127,0.015,0.364,25.0
20.132,0.016,0.258,27.0
20.127,0.017,0.155,26.0
20.206,0.018,0.051,55.0
20.194,0.019,0.616,37.0
20.157,0.02,0.511,23.0
20.13,0.021,0.407,27.0
20.135,0.022,0.301,25.0
20.132,0.023,0.197,27.0
20.134,0.024,0.093,30.0
20.195,0.024,0.658,48.0
20.169,0.025,0.553,26.0
20.146,0.027,0.449,27.0
20.134,0.028,0.343,25.0
20.133,0.029,0.239,27.0
20.135,0.03,0.135,26.0
20.132,0.031,0.698,34.0
20.177,0.032,0.596,32.0
20.169,0.033,0.492,21.0
20.129,0.035,0.385,26.0
20.138,0.036,0.281,28.0
20.138,0.038,0.178,28.0
20.11,0.038,0.74,28.0
20.195,0.039,0.639,41.0
20.169,0.041,0.534,26.0
20.131,0.042,0.427,28.0
20.136,0.044,0.323,28.0
20.134,0.045,0.22,27.0
20.108,0.046,0.782,26.0
20.144,0.047,0.68,29.0
20.171,0.049,0.576,29.0
20.139,0.051,0.469,27.0
20.141,0.052,0.365,26.0
20.14,0.054,0.261,28.0
20.108,0.054,0.824,25.0
20.115,0.056,0.72,30.0
20.204,0.058,0.619,28.0
20.157,0.06,0.511,26.0
20.138,0.061,0.407,29.0
20.141,0.063,0.303,26.0
20.112,0.064,0.866,19.0
20.129,0.066,0.762,22.0
20.213,0.068,0.661,27.0
20.185,0.07,0.553,29.0
20.148,0.071,0.448,28.0
20.146,0.073,0.344,27.0
20.136,0.074,0.908,10.0
20.119,0.076,0.803,20.0
20.163,0.078,0.7,28.0
20.19,0.08,0.594,23.0
20.168,0.082,0.489,24.0
20.151,0.084,0.385,26.0
66.062,0.278,3.114,15.0
20.115,0.087,0.843,19.0
20.147,0.089,0.74,27.0
20.207,0.091,0.635,10.0
20.174,0.093,0.53,25.0
20.158,0.095,0.425,30.0
100.432,0.48,4.933,7.0
20.134,0.098,0.884,11.0
20.132,0.1,0.779,19.0
107.19,0.549,3.586,18.0
20.209,0.105,0.571,21.0
20.151,0.107,0.465,25.0
109.974,0.592,5.623,19.0
65.995,0.363,3.031,33.0
20.146,0.113,0.82,15.0
102.474,0.588,3.633,40.0
20.22,0.118,0.611,10.0
20.173,0.12,0.506,23.0
66.89,0.403,3.553,25.0
65.916,0.405,3.158,21.0
20.142,0.126,0.86,1.0
102.299,0.654,3.828,26.0
20.243,0.132,0.652,0.0
20.188,0.134,0.545,18.0
67.024,0.449,3.692,7.0
131.552,0.897,6.561,9.0
101.812,0.708,4.546,20.0
102.055,0.723,4.017,43.0
117.571,0.848,4.015,19.0
20.213,0.148,0.585,12.0
101.427,0.75,5.782,35.0
101.431,0.764,5.254,17.0
65.865,0.505,3.068,26.0
102.035,0.796,4.212,37.0
126.447,1.005,4.562,25.0
20.254,0.163,0.625,2.0
103.715,0.843,6.113,18.0
66.976,0.554,3.597,33.0
65.871,0.554,3.195,31.0
102.017,0.873,4.405,40.0
111.815,0.973,4.246,17.0
103.798,0.918,3.402,31.0
59.535,0.53,3.621,24.0
67.052,0.606,3.728,23.0
65.874,0.605,3.319,38.0
126.371,1.18,5.696,6.0
110.316,1.047,4.397,17.0
103.837,1.002,3.597,26.0
59.534,0.577,3.734,66.0
67.124,0.661,3.859,2.0
65.948,0.66,3.446,34.0
132.579,1.347,6.222,21.0
110.369,1.139,4.604,17.0
103.983,1.089,3.795,16.0
59.446,0.626,3.839,61.0
101.643,1.087,6.032,14.0
66.773,0.725,3.613,42.0
102.053,1.124,4.977,12.0
110.337,1.232,4.803,14.0
124.923,1.415,4.786,22.0
59.395,0.677,3.944,26.0
110.016,1.271,6.728,12.0
67.106,0.786,3.751,20.0
102.077,1.212,5.16,16.0
126.555,1.524,5.735,9.0
124.839,1.524,5.005,15.0
46.346,0.569,3.16,51.0
110.046,1.37,6.926,6.0
67.27,0.848,3.88,39.0
102.074,1.304,5.341,15.0
124.861,1.616,5.879,14.0
126.799,1.663,5.307,5.0
59.343,0.783,4.153,11.0
59.731,0.798,3.865,3.0
67.454,0.913,4.009,43.0
66.117,0.906,3.576,23.0
69.309,0.962,3.384,7.0
126.778,1.782,5.526,2.0
46.388,0.656,3.326,54.0
59.815,0.856,3.974,16.0
67.504,0.978,4.129,30.0
66.158,0.97,3.692,29.0
110.644,1.643,5.594,8.0
69.375,1.042,3.142,9.0
46.425,0.702,3.409,41.0
59.908,0.916,4.082,16.0
67.554,1.045,4.247,34.0
66.184,1.036,3.805,27.0
103.866,1.645,5.426,13.0
110.429,1.769,5.186,7.0
67.721,1.092,5.087,21.0
67.689,1.104,4.727,18.0
67.581,1.114,4.361,36.0
66.23,1.104,3.918,20.0
101.707,1.714,5.479,5.0
103.868,1.769,5.048,18.0
67.707,1.16,5.197,17.0
59.804,1.036,4.274,34.0
67.622,1.184,4.474,35.0
102.32,1.811,6.22,6.0
100.036,1.789,5.552,4.0
103.736,1.876,5.21,21.0
42.552,0.774,3.335,12.0
59.728,1.098,4.366,33.0
68.198,1.267,4.623,9.0
69.031,1.296,4.307,6.0
110.68,2.099,6.321,4.0
69.459,1.331,3.6,6.0
57.965,1.117,4.637,11.0
59.58,1.16,4.449,34.0
68.712,1.351,4.767,4.0
66.263,1.316,4.239,31.0
103.751,2.081,6.086,9.0
103.317,2.092,5.514,9.0
43.173,0.88,3.521,7.0
59.482,1.224,4.535,33.0
53.527,1.112,3.796,4.0
66.214,1.389,4.337,2.0
69.131,1.464,4.162,3.0
103.404,2.21,5.677,6.0
52.319,1.125,4.347,14.0
0.0,0.0,0.0,0.0
66.325,1.453,4.804,16.0
102.551,2.267,6.871,5.0
66.196,1.477,4.084,5.0
68.667,1.546,3.872,4.0
43.39,0.983,3.67,18.0
59.062,1.35,4.68,33.0
66.332,1.529,4.902,19.0
66.032,1.536,4.521,15.0
67.481,1.584,4.261,3.0
69.236,1.639,4.004,5.0
43.514,1.037,3.744,2.0
52.234,1.255,4.215,3.0
67.844,1.644,5.112,1.0
65.978,1.612,4.612,24.0
53.563,1.32,3.458,4.0
69.608,1.73,4.124,4.0
40.407,1.011,3.534,21.0
52.257,1.318,4.291,15.0
57.796,1.469,4.436,6.0
68.148,1.746,4.859,7.0
103.168,2.666,6.806,7.0
67.46,1.758,4.09,2.0
40.395,1.059,3.589,28.0
52.221,1.38,4.36,26.0
52.272,1.392,4.083,5.0
68.277,1.833,4.961,10.0
68.186,1.844,4.589,7.0
67.456,1.839,4.179,2.0
40.382,1.108,3.642,54.0
51.39,1.421,4.359,5.0
57.888,1.613,4.598,8.0
52.555,1.475,3.888,39.0
67.886,1.92,4.657,8.0
102.823,2.931,6.505,1.0
40.405,1.159,3.697,65.0
43.846,1.266,3.776,5.0
57.703,1.68,4.658,9.0
68.29,2.002,5.139,9.0
53.284,1.573,3.724,6.0
69.342,2.063,4.474,6.0
40.42,1.21,3.75,21.0
52.655,1.588,4.601,7.0
43.807,1.33,3.591,1.0
52.114,1.594,3.987,3.0
68.452,2.109,4.869,6.0
68.094,2.113,4.478,3.0
53.113,1.659,4.994,12.0
42.942,1.35,3.805,4.0
50.448,1.597,4.198,5.0
51.937,1.655,4.036,4.0
68.359,2.193,4.944,4.0
68.585,2.216,4.592,9.0
53.299,1.734,5.075,5.0
46.894,1.535,4.211,3.0
0.0,0.0,0.0,0.0
43.707,1.45,3.447,5.0
51.513,1.719,3.785,2.0
53.297,1.79,3.629,5.0
49.636,1.679,4.784,4.0
43.291,1.473,3.937,5.0
46.892,1.606,4.01,7.0
50.67,1.747,4.054,2.0
52.637,1.826,3.927,19.0
67.644,2.362,4.681,7.0
46.186,1.624,4.503,5.0
46.184,1.633,4.251,4.0
46.853,1.667,4.058,7.0
51.915,1.858,4.21,4.0
43.242,1.557,3.272,5.0
68.71,2.49,4.828,37.0
52.395,1.912,5.164,5.0
46.196,1.695,4.302,5.0
46.966,1.734,4.118,4.0
47.023,1.745,3.862,3.0
0.0,0.0,0.0,0.0
68.69,2.581,4.897,12.0
60.236,2.278,5.999,4.0
43.075,1.639,4.055,3.0
46.958,1.796,4.164,9.0
52.865,2.033,4.395,25.0
47.176,1.825,3.666,2.0
68.862,2.679,4.977,3.0
0.0,0.0,0.0,0.0
52.101,2.052,4.956,2.0
53.411,2.115,4.788,3.0
52.912,2.107,4.45,17.0
47.196,1.89,3.713,3.0
43.924,1.768,3.216,2.0
45.979,1.864,4.668,3.0
52.488,2.139,5.042,5.0
53.39,2.188,4.836,1.0
46.936,1.933,3.991,6.0
68.108,2.82,5.42,4.0
51.697,2.152,3.833,4.0
45.957,1.926,4.708,5.0
52.472,2.211,5.088,8.0
53.657,2.272,4.908,3.0
47.03,2.002,4.04,16.0
52.494,2.246,4.223,6.0
47.359,2.036,3.552,10.0
46.888,2.03,4.844,5.0
52.336,2.277,5.119,3.0
45.983,2.011,4.246,4.0
47.057,2.068,4.082,11.0
52.766,2.33,4.289,9.0
47.153,2.093,3.575,1.0
46.838,2.094,4.878,8.0
51.885,2.33,5.118,3.0
46.002,2.076,4.285,9.0
53.181,2.411,4.656,2.0
43.774,1.994,3.593,2.0
52.588,2.407,4.029,3.0
46.549,2.146,4.884,5.0
45.782,2.12,4.551,5.0
45.917,2.136,4.312,12.0
53.192,2.486,4.697,2.0
66.664,3.13,5.521,3.0
65.706,3.1,5.082,2.0
47.142,2.24,4.981,3.0
45.797,2.185,4.586,3.0
45.976,2.203,4.351,12.0
46.083,2.219,4.102,3.0
47.135,2.279,3.937,13.0
240.745,11.695,18.79,21.0
46.253,2.262,4.92,3.0
60.979,2.996,6.148,5.0
45.979,2.269,4.382,4.0
52.335,2.593,4.694,1.0
47.133,2.346,3.968,12.0
47.19,2.359,3.714,2.0
46.198,2.325,4.944,1.0
46.683,2.359,4.737,2.0
45.951,2.332,4.409,3.0
47.202,2.415,4.003,6.0
52.843,2.715,4.19,2.0
46.214,2.391,4.973,6.0
46.712,2.426,4.768,1.0
45.786,2.387,4.42,11.0
45.938,2.405,4.175,7.0
47.233,2.483,4.032,7.0
47.25,2.494,3.773,2.0
46.435,2.467,5.023,17.0
46.655,2.489,4.787,1.0
45.591,2.441,4.425,3.0
45.714,2.457,4.179,3.0
47.235,2.548,4.057,7.0
47.167,2.554,3.791,7.0
46.143,2.516,5.015,14.0
52.427,2.87,5.406,4.0
45.561,2.503,4.445,3.0
45.313,2.499,4.165,2.0
45.904,2.541,3.964,3.0
47.189,2.622,3.815,7.0
46.273,2.589,5.051,5.0
46.468,2.609,4.813,2.0
45.666,2.573,4.476,6.0
45.912,2.597,4.24,1.0
45.896,2.605,3.984,5.0
47.179,2.687,3.834,2.0
46.245,2.652,5.067,7.0
46.349,2.667,4.82,2.0
43.525,2.513,4.284,1.0
45.88,2.659,4.256,2.0
45.808,2.663,3.995,5.0
53.149,3.101,4.34,2.0
46.209,2.715,5.081,4.0
45.817,2.7,4.782,3.0
47.224,2.793,4.665,1.0
45.897,2.723,4.273,3.0
47.427,2.823,4.152,2.0
46.145,2.756,3.784,2.0
46.217,2.78,5.098,3.0
45.682,2.756,4.783,2.0
45.454,2.759,4.246,1.0
47.446,2.89,4.168,5.0
47.138,2.88,3.879,4.0
46.215,2.843,5.111,3.0
45.849,2.838,4.556,2.0
45.582,2.83,4.27,3.0
0.0,0.0,0.0,0.0
46.205,2.906,5.121,1.0
45.595,2.893,4.282,3.0
0.0,0.0,0.0,0.0
45.834,2.925,3.792,2.0
46.175,2.968,5.127,1.0
46.115,2.972,4.861,1.0
45.83,2.988,3.799,2.0
0.0,0.0,0.0,0.0
46.192,3.039,4.876,2.0
0.0,0.0,0.0,0.0
46.263,3.106,4.888,1.0
45.016,3.03,4.503,1.0
47.761,3.223,4.504,1.0
0.0,0.0,0.0,0.0
46.28,3.168,4.892,1.0
45.648,3.132,4.568,8.0
45.716,3.145,4.313,3.0
0.0,0.0,0.0,0.0
46.256,3.227,4.891,1.0
0.0,0.0,0.0,0.0
46.297,3.29,4.894,2.0
45.319,3.228,4.534,2.0
47.371,3.382,4.467,1.0
45.619,3.264,4.045,2.0
0.0,0.0,0.0,0.0
46.302,3.349,4.891,1.0
45.569,3.304,4.556,3.0
47.353,3.441,4.462,3.0
45.573,3.319,4.037,1.0
0.0,0.0,0.0,0.0
0.0,0.0,0.0,0.0
45.594,3.363,4.552,3.0
47.315,3.498,4.452,1.0
114.249,8.483,9.462,2.0
0.0,0.0,0.0,0.0
0.0,0.0,0.0,0.0
45.566,3.418,4.542,1.0
107.313,8.1,8.868,5.0
0.0,0.0,0.0,0.0
0.0,0.0,0.0,0.0
45.727,3.507,3.768,1.0
0.0,0.0,0.0,0.0
0.0,0.0,0.0,0.0
45.313,3.523,3.978,2.0
110.626,8.617,9.087,4.0
0.0,0.0,0.0,0.0
45.384,3.563,4.748,3.0
0.0,0.0,0.0,0.0
45.322,3.611,4.727,0.0
0.0,0.0,0.0,0.0
116.048,9.278,10.771,7.0
112.166,8.984,9.774,3.0
106.909,8.578,8.711,2.0
45.213,3.649,4.957,1.0
0.0,0.0,0.0,0.0
0.0,0.0,0.0,0.0
116.218,9.424,10.744,2.0
116.062,9.428,10.069,1.0
116.229,9.457,9.425,9.0
0.0,0.0,0.0,0.0
116.008,9.508,12.01,3.0
0.0,0.0,0.0,0.0
114.444,9.407,10.532,3.0
117.809,9.699,10.171,6.0
0.0,0.0,0.0,0.0
0.0,0.0,0.0,0.0
114.958,9.548,11.849,3.0
46.049,3.829,4.484,1.0
112.77,9.391,10.327,8.0
112.726,9.402,9.68,15.0
117.487,9.814,9.423,8.0
0.0,0.0,0.0,0.0
0.0,0.0,0.0,0.0
46.094,3.882,4.465,1.0
0.0,0.0,0.0,0.0
96.515,8.152,8.24,3.0
115.477,9.768,9.202,9.0
0.0,0.0,0.0,0.0
114.8,9.777,11.718,7.0
0.0,0.0,0.0,0.0
109.463,9.359,9.287,2.0
96.48,8.259,7.637,7.0
0.0,0.0,0.0,0.0
0.0,0.0,0.0,0.0
115.119,9.933,11.027,3.0
114.986,9.945,9.69,28.0
115.025,9.961,9.038,6.0
114.984,10.013,12.263,1.0
114.995,10.024,11.605,8.0
114.94,10.029,10.941,7.0
114.918,10.04,10.269,7.0
99.418,8.695,8.317,4.0
96.393,8.441,7.515,2.0
0.0,0.0,0.0,0.0
114.923,10.128,11.524,5.0
116.033,10.235,10.971,2.0
109.599,9.678,9.724,5.0
91.721,8.109,7.613,1.0
112.871,9.99,8.726,2.0
114.56,10.192,12.07,3.0
115.282,10.266,11.483,2.0
114.627,10.218,10.76,11.0
114.744,10.239,10.102,3.0
106.912,9.55,8.801,1.0
92.13,8.239,7.058,3.0
114.825,10.32,12.017,1.0
114.643,10.313,11.338,3.0
0.0,0.0,0.0,0.0
107.175,9.659,9.359,2.0
108.176,9.758,8.828,7.0
92.037,8.311,6.985,2.0
0.0,0.0,0.0,0.0
0.0,0.0,0.0,0.0
111.073,10.095,10.265,2.0
99.269,9.031,8.594,4.0
91.664,8.346,7.412,1.0
97.935,8.925,7.36,9.0
0.0,0.0,0.0,0.0
0.0,0.0,0.0,0.0
114.981,10.546,10.537,4.0
99.199,9.105,8.512,3.0
91.698,8.424,7.343,1.0
100.43,9.234,7.468,2.0
0.0,0.0,0.0,0.0
0.0,0.0,0.0,0.0
91.895,8.502,8.347,3.0
106.894,9.897,9.085,7.0
95.913,8.887,7.602,4.0
98.478,9.132,7.242,2.0
0.0,0.0,0.0,0.0
114.775,10.698,10.99,6.0
111.342,10.385,10.02,3.0
85.828,8.011,7.222,7.0
96.078,8.973,7.535,2.0
80.452,7.52,5.848,3.0
0.0,0.0,0.0,0.0
110.966,10.425,10.528,2.0
111.229,10.455,9.913,2.0
99.949,9.401,8.323,2.0
84.564,7.959,6.557,1.0
80.236,7.557,5.762,2.0
114.063,10.79,11.377,4.0
92.108,8.717,8.656,9.0
85.202,8.067,7.517,6.0
85.284,8.08,7.024,3.0
86.054,8.158,6.594,3.0
80.172,7.605,5.684,2.0
0.0,0.0,0.0,0.0
114.486,10.911,10.652,4.0
111.363,10.618,9.721,8.0
84.25,8.037,6.86,4.0
92.261,8.806,6.984,3.0
84.579,8.077,5.917,1.0
99.33,9.525,9.721,1.0
111.343,10.681,10.253,6.0
91.308,8.763,7.881,2.0
92.112,8.844,7.411,11.0
84.411,8.108,6.307,4.0
90.549,8.703,6.246,3.0
118.097,11.397,11.438,3.0
99.263,9.581,9.041,4.0
91.525,8.837,7.809,4.0
92.049,8.891,7.314,6.0
84.361,8.152,6.218,10.0
85.234,8.241,5.794,5.0
0.0,0.0,0.0,0.0
99.417,9.651,8.953,6.0
114.24,11.094,9.629,7.0
91.778,8.915,7.198,5.0
83.987,8.161,6.104,5.0
84.837,8.247,5.68,7.0
0.0,0.0,0.0,0.0
99.409,9.701,8.849,9.0
92.049,8.985,7.662,1.0
92.434,9.025,7.153,3.0
83.704,8.175,5.996,3.0
86.983,8.499,5.731,4.0
118.054,11.575,11.064,16.0
91.376,8.96,8.036,5.0
92.271,9.05,7.581,4.0
84.622,8.301,6.457,1.0
73.139,7.176,5.161,2.0
90.05,8.839,5.836,3.0
99.337,9.784,9.201,2.0
91.648,9.027,7.958,9.0
92.255,9.088,7.479,7.0
84.276,8.303,6.338,4.0
73.092,7.202,5.077,2.0
90.275,8.898,5.752,7.0
84.949,8.401,7.772,3.0
91.801,9.078,7.869,5.0
92.106,9.109,7.363,3.0
84.195,8.327,6.238,8.0
84.79,8.387,5.794,3.0
90.241,8.928,5.648,5.0
85.081,8.444,7.688,1.0
91.808,9.111,7.765,10.0
92.033,9.134,7.253,11.0
84.139,8.35,6.138,8.0
73.049,7.25,4.908,1.0
90.099,8.944,5.536,6.0
92.016,9.161,8.208,1.0
91.71,9.13,7.65,8.0
85.199,8.482,6.614,6.0
84.164,8.378,6.04,5.0
86.867,8.647,5.735,3.0
123.024,12.248,7.415,4.0
85.308,8.517,7.508,2.0
91.791,9.162,7.548,9.0
79.997,7.985,6.117,3.0
84.063,8.39,5.933,3.0
80.417,8.026,5.214,7.0
88.278,8.81,5.216,2.0
85.111,8.517,7.388,3.0
91.723,9.177,7.432,12.0
73.138,7.316,5.503,1.0
78.172,7.818,5.424,3.0
78.442,7.845,4.99,2.0
88.203,8.821,5.104,4.0
84.835,8.505,7.261,4.0
91.77,9.198,7.324,7.0
73.098,7.325,5.411,4.0
85.183,8.534,5.807,3.0
90.11,9.027,5.623,5.0
81.037,8.118,4.591,5.0
84.864,8.52,7.159,4.0
84.104,8.441,6.608,6.0
84.16,8.445,6.127,4.0
84.924,8.519,5.684,3.0
89.999,9.027,5.505,10.0
81.022,8.126,4.489,2.0
99.045,9.955,8.229,5.0
68.658,6.898,5.308,2.0
84.236,8.46,6.026,4.0
80.341,8.067,5.276,1.0
89.861,9.021,5.384,6.0
84.253,8.456,4.564,4.0
99.091,9.965,8.108,8.0
68.72,6.908,5.225,2.0
83.99,8.439,5.902,2.0
76.787,7.713,4.946,1.0
99.586,10.001,5.84,2.0
0.0,0.0,0.0,0.0
91.739,9.228,7.389,14.0
85.602,8.606,6.399,4.0
78.097,7.848,5.388,2.0
99.526,9.997,6.282,8.0
81.109,8.145,4.652,4.0
85.512,8.585,4.412,5.0
77.084,7.751,6.107,2.0
73.002,7.336,5.362,3.0
84.883,8.526,5.745,4.0
90.01,9.038,5.564,8.0
80.994,8.129,4.541,3.0
91.811,9.211,4.619,4.0
68.802,6.913,5.361,2.0
84.293,8.465,6.081,4.0
84.921,8.523,5.636,3.0
89.925,9.021,5.441,8.0
84.035,8.427,4.601,1.0
107.428,10.768,5.264,8.0
68.749,6.9,5.267,2.0
84.128,8.438,5.958,3.0
96.353,9.659,6.268,2.0
99.682,9.987,5.899,1.0
84.605,8.472,4.52,10.0
97.362,9.745,4.642,6.0
85.51,8.568,6.436,3.0
78.13,7.823,5.428,3.0
78.502,7.856,5.001,2.0
88.172,8.818,5.101,5.0
84.478,8.444,4.401,9.0
97.612,9.751,4.523,12.0
72.965,7.297,5.393,3.0
85.164,8.51,5.803,4.0
90.317,9.018,5.633,7.0
81.01,8.084,4.577,3.0
91.817,9.157,4.659,6.0
97.737,9.741,4.399,15.0
84.237,8.403,6.113,9.0
73.159,7.292,4.886,1.0
90.105,8.974,5.499,6.0
85.109,8.471,4.695,6.0
97.681,9.715,4.827,15.0
97.76,9.717,4.268,27.0
84.006,8.355,5.983,4.0
80.429,7.992,5.262,3.0
99.662,9.895,5.947,2.0
84.869,8.42,4.567,13.0
97.59,9.675,4.69,27.0
97.716,9.681,4.136,29.0
79.735,7.903,5.57,2.0
90.26,8.938,5.785,8.0
99.651,9.859,5.812,3.0
84.587,8.362,4.437,4.0
97.632,9.644,4.559,25.0
115.263,11.378,4.721,14.0
85.1,8.402,5.828,2.0
78.474,7.74,4.921,5.0
86.925,8.566,4.95,5.0
91.778,9.036,4.688,3.0
97.77,9.618,4.433,6.0
115.23,11.327,4.562,8.0
86.983,8.551,5.838,2.0
97.533,9.578,5.984,3.0
85.195,8.358,4.736,9.0
97.455,9.552,4.847,5.0
111.56,10.925,4.907,8.0
110.242,10.787,4.215,9.0
87.081,8.519,5.725,2.0
97.777,9.555,5.865,6.0
84.542,8.254,4.584,3.0
97.424,9.502,4.712,6.0
86.127,8.392,3.67,3.0
108.165,10.53,3.988,27.0
85.287,8.3,5.49,13.0
85.206,8.282,4.994,8.0
91.795,8.913,4.851,8.0
97.839,9.49,4.598,6.0
110.192,10.677,4.546,2.0
108.237,10.478,3.843,19.0
85.044,8.229,5.357,4.0
85.213,8.235,4.877,8.0
91.82,8.863,4.726,6.0
107.804,10.394,4.918,7.0
108.065,10.408,4.309,6.0
116.007,11.161,3.96,19.0
84.944,8.167,5.233,3.0
86.953,8.35,4.856,2.0
97.388,9.34,4.878,8.0
86.645,8.3,3.833,10.0
108.143,10.347,4.163,21.0
109.399,10.455,3.583,18.0
84.503,8.069,5.089,28.0
84.137,8.023,4.582,5.0
84.099,8.009,4.096,3.0
107.86,10.259,4.624,21.0
110.326,10.482,4.096,20.0
109.419,10.383,3.436,16.0
84.466,8.007,4.972,8.0
91.781,8.688,4.874,4.0
122.664,11.596,5.809,5.0
110.761,10.456,4.597,21.0
115.967,10.935,4.147,32.0
121.387,11.432,3.645,26.0
85.067,8.001,4.891,3.0
87.819,8.248,4.543,5.0
87.774,8.232,4.037,7.0
108.156,10.129,4.342,14.0
109.574,10.249,3.77,8.0
151.598,14.161,4.347,15.0
86.854,8.101,4.876,2.0
97.335,9.066,4.904,4.0
87.471,8.134,3.904,10.0
110.455,10.257,4.285,15.0
121.823,11.296,4.028,21.0
138.049,12.784,3.772,12.0
91.593,8.468,5.017,9.0
120.309,11.105,5.9,5.0
108.153,9.968,4.682,5.0
116.228,10.695,4.352,12.0
121.407,11.155,3.85,26.0
152.036,13.949,3.951,19.0
86.407,7.913,4.616,3.0
96.207,8.796,4.586,2.0
108.222,9.878,4.537,13.0
109.69,9.996,3.96,26.0
142.928,13.005,4.339,20.0
152.176,13.826,3.75,22.0
97.297,8.821,5.068,5.0
87.93,7.958,4.074,6.0
86.731,7.836,3.52,6.0
121.719,10.979,4.23,22.0
143.589,12.932,4.168,28.0
152.409,13.704,3.553,20.0
106.564,9.56,5.407,3.0
87.309,7.818,3.93,8.0
109.731,9.809,4.309,6.0
121.121,10.808,4.051,23.0
143.724,12.803,3.983,26.0
152.582,13.571,3.356,22.0
96.757,8.584,4.782,2.0
110.532,9.787,4.828,7.0
143.248,12.66,5.436,14.0
143.635,12.672,4.614,29.0
144.131,12.693,3.806,13.0
152.521,13.408,3.155,23.0
97.709,8.567,4.7,3.0
99.792,8.732,4.227,5.0
143.334,12.518,5.252,26.0
143.806,12.534,4.431,33.0
0.0,0.0,0.0,0.0
198.906,17.275,3.856,5.0
87.396,7.568,4.09,12.0
109.913,9.499,4.514,3.0
121.087,10.443,4.28,32.0
143.74,12.372,4.245,22.0
0.0,0.0,0.0,0.0
199.529,17.11,3.612,5.0
99.045,8.467,4.509,6.0
121.025,10.324,4.816,11.0
143.894,12.248,4.902,7.0
143.997,12.232,4.069,11.0
0.0,0.0,0.0,0.0
214.122,18.117,3.604,6.0
143.665,12.115,6.357,13.0
143.732,12.094,5.538,17.0
144.478,12.13,4.741,17.0
196.853,16.492,5.316,18.0
201.987,16.888,4.3,19.0
0.0,0.0,0.0,0.0
109.749,9.124,4.719,4.0
156.986,13.022,5.853,4.0
162.709,13.466,5.137,14.0
156.001,12.881,4.018,8.0
196.433,16.186,3.939,24.0
213.585,17.561,3.066,25.0
99.76,8.172,4.167,4.0
154.769,12.647,5.579,15.0
160.935,13.119,4.883,21.0
156.031,12.689,3.827,26.0
196.423,15.937,3.699,17.0
181.618,14.703,2.383,11.0
99.682,8.037,4.04,2.0
0.0,0.0,0.0,0.0
154.946,12.429,4.51,20.0
195.006,15.606,4.545,5.0
156.005,12.454,2.746,39.0
155.947,12.419,1.856,27.0
106.242,8.425,4.177,1.0
167.071,13.216,5.615,20.0
155.145,12.24,4.33,28.0
155.725,12.256,3.443,27.0
155.99,12.245,2.559,19.0
122.711,9.608,1.314,1.0
154.591,12.051,5.894,13.0
107.283,8.34,3.479,2.0
0.0,0.0,0.0,0.0
161.975,12.525,3.39,19.0
162.15,12.505,2.469,15.0
122.408,9.416,1.167,2.0
154.562,11.835,5.712,8.0
156.909,11.98,4.905,31.0
156.884,11.946,4.011,6.0
168.014,12.758,3.323,16.0
168.203,12.739,2.37,45.0
122.407,9.246,1.029,1.0
169.769,12.76,6.082,11.0
163.572,12.26,4.928,4.0
167.191,12.493,4.085,10.0
168.004,12.517,3.132,18.0
173.432,12.886,2.247,18.0
124.264,9.206,0.904,6.0
0.0,0.0,0.0,0.0
160.984,11.828,4.669,14.0
162.139,11.877,3.779,41.0
173.241,12.651,3.035,39.0
179.255,13.051,2.122,10.0
140.62,10.209,0.866,26.0
160.838,11.615,5.401,12.0
156.18,11.241,4.356,26.0
168.101,12.06,3.734,26.0
173.47,12.407,2.849,15.0
0.0,0.0,0.0,0.0
140.654,9.997,0.713,31.0
155.884,11.02,5.066,11.0
162.073,11.418,4.345,24.0
173.68,12.193,3.669,18.0
0.0,0.0,0.0,0.0
0.0,0.0,0.0,0.0
154.946,10.773,0.621,16.0
161.789,11.182,5.085,16.0
168.033,11.575,4.328,17.0
210.322,14.437,4.223,24.0
0.0,0.0,0.0,0.0
0.0,0.0,0.0,0.0
154.925,10.525,0.459,153.0
173.271,11.7,5.265,10.0
178.821,12.03,4.42,14.0
201.141,13.482,3.831,6.0
0.0,0.0,0.0,0.0
0.0,0.0,0.0,0.0
154.918,10.273,0.302,150.0
178.269,11.75,5.239,7.0
173.948,11.42,4.125,26.0
0.0,0.0,0.0,0.0
199.738,13.015,2.453,7.0
0.0,0.0,0.0,0.0
154.775,10.009,0.149,3.0
0.0,0.0,0.0,0.0
195.503,12.511,4.445,8.0
202.77,12.925,3.463,6.0
0.0,0.0,0.0,0.0
155.339,9.825,0.879,37.0
0.0,0.0,0.0,0.0
0.0,0.0,0.0,0.0
0.0,0.0,0.0,0.0
0.0,0.0,0.0,0.0
0.0,0.0,0.0,0.0
0.0,0.0,0.0,0.0
0.0,0.0,0.0,0.0
195.589,11.902,5.185,5.0
0.0,0.0,0.0,0.0
0.0,0.0,0.0,0.0
0.0,0.0,0.0,0.0
197.595,11.821,0.752,30.0
0.0,0.0,0.0,0.0
0.0,0.0,0.0,0.0
0.0,0.0,0.0,0.0
0.0,0.0,0.0,0.0
197.506,11.518,1.692,18.0
197.41,11.463,0.577,15.0
0.0,0.0,0.0,0.0
0.0,0.0,0.0,0.0
0.0,0.0,0.0,0.0
0.0,0.0,0.0,0.0
197.277,11.154,1.52,24.0
0.0,0.0,0.0,0.0
0.0,0.0,0.0,0.0
196.09,10.894,4.684,41.0
196.081,10.837,3.577,56.0
196.036,10.781,2.472,119.0
196.108,10.732,1.347,30.0
0.0,0.0,0.0,0.0
0.0,0.0,0.0,0.0
196.602,10.561,4.535,7.0
0.0,0.0,0.0,0.0
206.768,10.992,2.44,6.0
197.144,10.425,1.197,21.0
0.0,0.0,0.0,0.0
0.0,0.0,0.0,0.0
0.0,0.0,0.0,0.0
197.861,10.206,3.294,6.0
206.293,10.583,2.273,8.0
197.145,10.058,1.044,35.0
0.0,0.0,0.0,0.0
68.986,3.481,-0.41,2.0
198.011,9.9,4.262,5.0
197.938,9.838,3.146,10.0
197.896,9.779,2.034,18.0
197.187,9.688,0.898,29.0
0.0,0.0,0.0,0.0
0.0,0.0,0.0,0.0
0.0,0.0,0.0,0.0
200.006,9.562,3.036,7.0
205.363,9.756,1.963,17.0
196.978,9.299,0.757,23.0
0.0,0.0,0.0,0.0
68.845,3.211,-0.507,0.0
0.0,0.0,0.0,0.0
205.011,9.408,2.971,8.0
204.948,9.343,1.82,13.0
196.845,8.914,0.624,16.0
0.0,0.0,0.0,0.0
68.937,3.081,-0.554,4.0
195.478,8.649,3.802,63.0
195.494,8.591,2.706,34.0
0.0,0.0,0.0,0.0
0.0,0.0,0.0,0.0
0.0,0.0,0.0,0.0
68.958,2.946,-0.598,1.0
196.78,8.32,3.703,8.0
198.983,8.353,2.631,6.0
196.703,8.196,1.498,31.0
0.0,0.0,0.0,0.0
0.0,0.0,0.0,0.0
0.0,0.0,0.0,0.0
203.972,8.224,3.719,15.0
199.088,7.962,2.514,7.0
196.566,7.801,1.383,31.0
0.0,0.0,0.0,0.0
0.0,0.0,0.0,0.0
0.0,0.0,0.0,0.0
195.153,7.476,3.449,13.0
0.0,0.0,0.0,0.0
196.349,7.4,1.275,26.0
0.0,0.0,0.0,0.0
0.0,0.0,0.0,0.0
0.0,0.0,0.0,0.0
204.977,7.439,3.514,6.0
202.754,7.295,2.345,8.0
196.361,7.001,1.174,35.0
0.0,0.0,0.0,0.0
0.0,0.0,0.0,0.0
0.0,0.0,0.0,0.0
194.982,6.682,3.248,25.0
0.0,0.0,0.0,0.0
196.279,6.599,1.08,26.0
0.0,0.0,0.0,0.0
0.0,0.0,0.0,0.0
0.0,0.0,0.0,0.0
195.236,6.289,3.163,8.0
0.0,0.0,0.0,0.0
196.25,6.195,0.992,34.0
0.0,0.0,0.0,0.0
69.028,2.135,-0.426,2.0
0.0,0.0,0.0,0.0
195.46,5.895,3.085,22.0
0.0,0.0,0.0,0.0
196.086,5.788,0.913,25.0
0.0,0.0,0.0,0.0
68.995,1.991,-0.453,3.0
0.0,0.0,0.0,0.0
195.399,5.489,3.01,16.0
0.0,0.0,0.0,0.0
103.084,2.828,0.441,1.0
0.0,0.0,0.0,0.0
0.0,0.0,0.0,0.0
0.0,0.0,0.0,0.0
195.347,5.082,2.941,25.0
103.062,2.647,0.979,1.0
100.256,2.539,0.395,2.0
0.0,0.0,0.0,0.0
0.0,0.0,0.0,0.0
0.0,0.0,0.0,0.0
195.278,4.67,2.879,25.0
0.0,0.0,0.0,0.0
100.263,2.33,0.366,2.0
100.072,2.293,-0.199,5.0
0.0,0.0,0.0,0.0
0.0,0.0,0.0,0.0
195.525,4.268,2.83,18.0
102.996,2.212,0.92,6.0
100.127,2.116,0.339,2.0
99.989,2.078,-0.225,1.0
0.0,0.0,0.0,0.0
0.0,0.0,0.0,0.0
0.0,0.0,0.0,0.0
102.979,1.991,0.895,1.0
99.862,1.898,0.315,12.0
0.0,0.0,0.0,0.0
0.0,0.0,0.0,0.0
0.0,0.0,0.0,0.0
0.0,0.0,0.0,0.0
99.758,1.717,0.848,1.0
99.799,1.683,0.297,5.0
0.0,0.0,0.0,0.0
0.0,0.0,0.0,0.0
0.0,0.0,0.0,0.0
0.0,0.0,0.0,0.0
0.0,0.0,0.0,0.0
99.629,1.469,0.281,5.0
0.0,0.0,0.0,0.0
0.0,0.0,0.0,0.0
20.287,0.278,-0.28,0.0
20.288,0.269,0.278,9.0
20.287,0.263,0.166,0.0
99.623,1.256,0.27,5.0
0.0,0.0,0.0,0.0
20.207,0.241,-0.17,3.0
20.183,0.233,-0.281,25.0
20.287,0.226,0.277,28.0
20.301,0.219,0.165,28.0
20.337,0.213,0.053,29.0
20.276,0.205,-0.06,2.0
20.186,0.197,-0.171,14.0
20.174,0.19,-0.282,34.0
20.275,0.183,0.275,29.0
20.242,0.175,0.164,24.0
20.225,0.168,0.052,23.0
20.196,0.161,-0.06,24.0
20.182,0.154,-0.171,23.0
20.182,0.146,-0.282,33.0
20.172,0.138,0.274,28.0
20.176,0.131,0.163,27.0
20.186,0.124,0.052,36.0
20.189,0.117,-0.06,33.0
20.192,0.11,-0.171,28.0
20.205,0.103,-0.282,18.0
20.146,0.095,0.274,28.0
20.156,0.088,0.163,28.0
20.199,0.081,0.053,34.0
20.2,0.073,-0.059,33.0
20.234,0.066,-0.17,21.0
20.227,0.06,-0.281,0.0
20.135,0.052,0.275,33.0
20.131,0.045,0.165,27.0
20.218,0.038,0.054,20.0
20.259,0.03,-0.058,151.0
20.26,0.023,-0.169,151.0
20.269,0.016,-0.28,82.0
20.134,0.009,0.277,28.0
20.12,0.001,0.167,28.0
20.137,-0.005,0.056,27.0
20.143,-0.012,-0.055,21.0
20.163,-0.019,-0.165,25.0
20.171,-0.027,-0.276,25.0
20.121,-0.034,0.28,30.0
20.113,-0.041,0.169,34.0
20.128,-0.048,0.059,39.0
20.147,-0.056,-0.052,29.0
20.145,-0.063,-0.162,37.0
20.14,-0.07,-0.272,34.0
20.119,-0.077,0.283,29.0
20.123,-0.084,0.173,26.0
20.131,-0.091,0.063,34.0
20.149,-0.099,-0.048,28.0
20.152,-0.106,-0.158,27.0
20.139,-0.113,-0.268,34.0
20.139,-0.12,0.288,17.0
20.158,-0.127,0.178,18.0
20.148,-0.135,0.068,14.0
20.175,-0.142,-0.043,13.0
20.161,-0.149,-0.153,14.0
20.163,-0.156,-0.263,24.0
64.359,-0.522,0.936,19.0
53.376,-0.452,0.485,5.0
53.363,-0.471,0.194,4.0
56.226,-0.517,-0.106,14.0
58.731,-0.56,-0.431,6.0
44.945,-0.445,-0.575,32.0
20.169,-0.206,0.299,13.0
64.074,-0.679,0.602,2.0
56.179,-0.615,0.221,1.0
56.334,-0.637,-0.089,1.0
58.832,-0.687,-0.414,3.0
44.952,-0.541,-0.561,35.0
20.126,-0.248,0.305,12.0
20.128,-0.256,0.195,10.0
59.53,-0.78,0.255,16.0
59.51,-0.801,-0.074,53.0
56.576,-0.782,-0.378,7.0
45.008,-0.638,-0.545,20.0
20.149,-0.292,0.313,9.0
20.12,-0.299,0.203,11.0
20.133,-0.306,0.093,29.0
20.124,-0.313,-0.017,24.0
59.492,-0.948,-0.374,8.0
45.12,-0.736,-0.529,27.0
176.646,-2.931,2.814,34.0
0.0,0.0,0.0,0.0
20.129,-0.348,0.102,3.0
20.1,-0.355,-0.009,19.0
52.921,-0.955,-0.31,63.0
45.156,-0.831,-0.51,20.0
53.032,-0.991,0.867,3.0
52.975,-1.008,0.579,39.0
52.919,-1.027,0.292,67.0
52.926,-1.046,0.0,32.0
38.374,-0.772,-0.207,17.0
38.364,-0.786,-0.415,59.0
38.388,-0.797,0.646,55.0
38.392,-0.81,0.438,26.0
40.421,-0.868,0.242,9.0
40.408,-0.882,0.019,46.0
40.422,-0.897,-0.199,51.0
40.42,-0.911,-0.417,60.0
40.406,-0.922,0.7,38.0
40.406,-0.937,0.482,36.0
40.412,-0.951,0.263,33.0
40.418,-0.965,0.04,27.0
38.815,-0.941,-0.17,11.0
38.773,-0.954,-0.38,32.0
38.737,-0.963,0.692,22.0
38.705,-0.976,0.482,32.0
38.673,-0.989,0.273,52.0
38.671,-1.003,0.06,60.0
38.673,-1.017,-0.148,47.0
38.677,-1.031,-0.357,53.0
38.642,-1.04,0.713,72.0
38.634,-1.053,0.504,68.0
38.644,-1.067,0.296,75.0
38.669,-1.082,0.083,80.0
38.665,-1.096,-0.124,98.0
38.652,-1.108,-0.333,63.0
38.647,-1.118,0.736,113.0
38.644,-1.131,0.528,83.0
38.644,-1.145,0.32,70.0
38.632,-1.158,0.107,64.0
38.654,-1.173,-0.1,60.0
38.653,-1.186,-0.308,55.0
38.637,-1.195,0.761,69.0
38.647,-1.208,0.553,57.0
38.677,-1.223,0.345,59.0
38.691,-1.237,0.133,44.0
38.706,-1.251,-0.074,41.0
38.718,-1.265,-0.283,31.0
38.708,-1.273,0.788,16.0
84.525,-2.81,1.267,16.0
83.279,-2.797,0.8,9.0
80.482,-2.731,0.332,34.0
81.168,-2.782,-0.1,27.0
56.829,-1.968,-0.375,0.0
31.385,-1.094,0.661,16.0
31.377,-1.104,0.492,10.0
83.364,-2.963,0.861,17.0
31.348,-1.125,0.152,4.0
31.335,-1.135,-0.016,12.0
31.354,-1.147,-0.184,40.0
31.304,-1.152,0.683,65.0
31.259,-1.161,0.514,40.0
31.25,-1.171,0.346,48.0
31.236,-1.181,0.175,40.0
31.275,-1.193,0.007,13.0
28.474,-1.096,-0.145,61.0
28.45,-1.101,0.643,73.0
28.442,-1.111,0.49,68.0
28.435,-1.12,0.337,75.0
28.449,-1.13,0.182,150.0
28.445,-1.14,0.029,151.0
28.456,-1.15,-0.122,137.0
28.437,-1.155,0.665,113.0
28.437,-1.164,0.513,115.0
28.432,-1.174,0.36,107.0
28.438,-1.183,0.205,102.0
28.434,-1.193,0.053,93.0
28.44,-1.203,-0.098,71.0
28.455,-1.209,0.689,68.0
28.459,-1.219,0.537,60.0
28.462,-1.228,0.385,53.0
31.224,-1.358,0.252,27.0
31.216,-1.368,0.085,45.0
31.223,-1.379,-0.081,66.0
85.147,-3.778,2.138,23.0
31.339,-1.401,0.619,6.0
31.287,-1.409,0.451,31.0
31.293,-1.419,0.281,25.0
31.251,-1.428,0.113,35.0
31.23,-1.437,-0.053,34.0
84.953,-3.927,2.21,35.0
84.875,-3.95,1.755,32.0
83.121,-3.896,1.275,25.0
82.718,-3.904,0.819,19.0
68.824,-3.27,0.314,1.0
0.0,0.0,0.0,0.0
84.752,-4.072,2.285,38.0
84.615,-4.092,1.829,43.0
83.351,-4.056,1.356,15.0
82.248,-4.029,0.892,3.0
67.407,-3.324,0.371,0.0
0.0,0.0,0.0,0.0
84.748,-4.222,2.366,33.0
84.716,-4.247,1.912,44.0
86.056,-4.342,1.484,25.0
82.949,-4.211,0.98,0.0
0.0,0.0,0.0,0.0
0.0,0.0,0.0,0.0
84.339,-4.35,2.437,34.0
84.622,-4.39,1.994,48.0
85.836,-4.48,1.566,50.0
66.876,-3.512,0.857,0.0
0.0,0.0,0.0,0.0
0.0,0.0,0.0,0.0
84.154,-4.486,2.518,37.0
83.663,-4.486,2.058,32.0
84.728,-4.568,1.632,10.0
0.0,0.0,0.0,0.0
65.72,-3.584,0.56,7.0
65.563,-3.595,0.21,55.0
84.131,-4.627,2.604,45.0
