X,Y,Z,Reflectivity
109.805,0.624,6.241,9.0
103.604,0.588,5.28,33.0
20.166,0.114,0.909,0.0
20.176,0.114,0.79,3.0
102.595,0.582,3.416,40.0
20.188,0.114,0.554,21.0
66.904,0.386,3.662,25.0
65.86,0.38,3.22,17.0
20.165,0.116,0.867,2.0
102.443,0.589,3.798,42.0
20.224,0.116,0.631,9.0
20.164,0.115,0.511,21.0
66.879,0.389,3.523,11.0
65.916,0.383,3.085,22.0
20.164,0.117,0.825,3.0
102.532,0.593,3.588,57.0
20.183,0.116,0.588,16.0
20.155,0.116,0.469,24.0
103.603,0.606,5.241,22.0
101.817,0.593,4.553,15.0
20.189,0.117,0.784,2.0
20.239,0.117,0.666,1.0
20.199,0.116,0.546,21.0
20.157,0.115,0.427,26.0
65.893,0.383,3.194,27.0
20.168,0.117,0.859,3.0
102.477,0.592,3.768,53.0
20.21,0.116,0.622,10.0
20.153,0.115,0.503,19.0
20.15,0.114,0.385,27.0
65.92,0.38,3.058,13.0
20.16,0.115,0.817,3.0
102.558,0.585,3.556,60.0
20.174,0.114,0.579,17.0
20.168,0.113,0.46,25.0
20.166,0.113,0.343,29.0
20.15,0.114,0.892,1.0
20.183,0.113,0.775,3.0
20.227,0.113,0.658,2.0
20.174,0.112,0.537,22.0
20.153,0.111,0.418,27.0
20.156,0.11,0.3,27.0
20.166,0.111,0.85,8.0
102.515,0.563,3.721,48.0
20.197,0.11,0.615,13.0
20.156,0.109,0.493,21.0
20.152,0.108,0.376,27.0
20.156,0.107,0.258,27.0
20.159,0.108,0.808,10.0
102.567,0.545,3.51,52.0
20.177,0.106,0.572,19.0
20.156,0.105,0.451,27.0
20.151,0.104,0.333,28.0
20.161,0.103,0.215,26.0
20.152,0.103,0.765,10.0
20.236,0.103,0.649,7.0
20.179,0.101,0.529,22.0
20.152,0.1,0.409,27.0
20.151,0.099,0.291,27.0
20.153,0.098,0.173,26.0
20.153,0.098,0.722,1.0
20.198,0.097,0.605,20.0
20.163,0.096,0.486,26.0
20.144,0.095,0.366,27.0
20.161,0.094,0.248,26.0
20.15,0.093,0.13,24.0
107.18,0.494,3.614,26.0
20.183,0.091,0.562,25.0
20.159,0.09,0.443,28.0
20.148,0.089,0.323,27.0
20.147,0.088,0.206,27.0
20.193,0.086,0.088,35.0
20.201,0.086,0.638,17.0
20.157,0.085,0.519,20.0
20.153,0.083,0.401,26.0
20.158,0.082,0.282,26.0
20.149,0.081,0.164,26.0
20.205,0.079,0.046,35.0
20.186,0.079,0.596,27.0
20.157,0.077,0.477,28.0
20.138,0.076,0.358,27.0
20.144,0.074,0.239,26.0
20.158,0.073,0.121,26.0
20.194,0.072,0.003,30.0
20.185,0.071,0.553,25.0
20.146,0.069,0.434,29.0
20.148,0.068,0.317,25.0
20.142,0.066,0.196,28.0
20.206,0.065,0.079,28.0
20.212,0.063,-0.038,36.0
20.164,0.062,0.51,26.0
20.156,0.06,0.392,27.0
20.147,0.059,0.274,25.0
20.137,0.057,0.154,27.0
20.213,0.055,0.037,28.0
20.218,0.054,-0.08,24.0
20.155,0.052,0.468,29.0
20.145,0.05,0.35,28.0
20.142,0.049,0.232,27.0
20.143,0.047,0.112,28.0
20.199,0.045,-0.005,16.0
20.237,0.044,-0.123,23.0
20.14,0.042,0.425,28.0
20.142,0.04,0.307,28.0
20.135,0.038,0.19,26.0
20.155,0.036,0.07,16.0
20.247,0.035,-0.047,43.0
20.256,0.033,-0.166,83.0
20.138,0.031,0.383,27.0
20.139,0.029,0.265,27.0
20.138,0.027,0.148,26.0
20.263,0.025,0.028,150.0
20.262,0.023,-0.089,151.0
20.254,0.021,-0.208,151.0
20.132,0.019,0.341,27.0
20.124,0.017,0.223,26.0
20.14,0.015,0.106,28.0
20.235,0.013,-0.013,152.0
20.269,0.011,-0.132,151.0
20.268,0.008,-0.25,150.0
20.135,0.006,0.3,29.0
20.123,0.004,0.182,28.0
20.193,0.002,0.065,33.0
20.267,0.0,-0.054,150.0
20.22,-0.001,-0.172,15.0
20.232,-0.004,-0.291,7.0
20.123,-0.006,0.259,27.0
20.122,-0.008,0.141,29.0
20.166,-0.01,0.023,12.0
20.161,-0.013,-0.095,17.0
20.193,-0.015,-0.214,2.0
43.275,-0.038,-0.711,3.0
20.126,-0.02,0.217,33.0
20.129,-0.022,0.1,36.0
20.137,-0.025,-0.017,27.0
20.165,-0.027,-0.137,25.0
20.167,-0.029,-0.254,22.0
20.197,-0.032,-0.373,0.0
20.121,-0.034,0.177,37.0
20.147,-0.037,0.059,40.0
20.134,-0.039,-0.057,29.0
20.156,-0.042,-0.177,26.0
20.166,-0.044,-0.295,25.0
20.174,-0.047,-0.412,2.0
20.117,-0.05,0.136,37.0
20.133,-0.052,0.019,37.0
20.148,-0.055,-0.097,30.0
20.112,-0.057,-0.217,16.0
20.173,-0.06,-0.335,22.0
20.171,-0.063,-0.453,5.0
20.136,-0.066,0.097,44.0
20.137,-0.068,-0.019,30.0
20.144,-0.071,-0.137,35.0
20.128,-0.074,-0.256,29.0
20.157,-0.076,-0.374,23.0
20.19,-0.079,-0.493,8.0
20.139,-0.082,0.057,36.0
20.142,-0.085,-0.059,32.0
20.151,-0.088,-0.177,30.0
20.137,-0.091,-0.296,35.0
20.158,-0.093,-0.414,34.0
20.187,-0.097,-0.532,9.0
20.141,-0.1,0.018,34.0
20.139,-0.102,-0.099,28.0
20.125,-0.105,-0.216,26.0
20.136,-0.108,-0.335,35.0
20.163,-0.111,-0.453,34.0
20.191,-0.114,-0.572,9.0
20.17,-0.118,-0.02,27.0
20.16,-0.121,-0.138,27.0
20.133,-0.124,-0.255,31.0
20.154,-0.127,-0.374,37.0
20.177,-0.13,-0.493,28.0
20.199,-0.133,-0.611,14.0
20.177,-0.137,-0.059,23.0
20.144,-0.139,-0.176,13.0
20.142,-0.143,-0.293,29.0
20.156,-0.146,-0.413,33.0
20.179,-0.149,-0.531,36.0
20.218,-0.153,-0.65,23.0
20.165,-0.156,-0.098,14.0
20.141,-0.159,-0.215,18.0
20.157,-0.162,-0.332,26.0
20.169,-0.166,-0.452,26.0
20.187,-0.169,-0.57,38.0
20.223,-0.173,-0.689,24.0
20.193,-0.176,-0.135,2.0
20.164,-0.179,-0.253,14.0
20.175,-0.183,-0.37,24.0
20.186,-0.186,-0.49,29.0
20.198,-0.189,-0.608,40.0
20.219,-0.193,-0.727,22.0
52.899,-0.516,-0.453,5.0
38.87,-0.386,-0.559,4.0
20.183,-0.203,-0.408,14.0
20.182,-0.207,-0.527,29.0
20.192,-0.21,-0.645,38.0
20.217,-0.214,-0.764,19.0
46.193,-0.499,-0.48,7.0
38.049,-0.418,-0.617,33.0
20.219,-0.225,-0.445,1.0
20.2,-0.229,-0.564,26.0
20.207,-0.232,-0.682,35.0
20.232,-0.236,-0.801,23.0
44.892,-0.534,-0.548,36.0
0.0,0.0,0.0,0.0
30.669,-0.376,-0.731,8.0
20.198,-0.251,-0.601,16.0
20.222,-0.255,-0.719,33.0
20.205,-0.258,-0.836,16.0
39.109,-0.508,-0.547,14.0
32.09,-0.423,-0.635,8.0
29.046,-0.388,-0.744,3.0
28.041,-0.38,-0.884,1.0
20.223,-0.277,-0.755,26.0
20.131,-0.28,-0.869,11.0
38.084,-0.538,-0.599,22.0
31.257,-0.447,-0.673,29.0
27.778,-0.403,-0.76,2.0
26.893,-0.395,-0.895,1.0
20.23,-0.301,-0.791,10.0
20.156,-0.304,-0.905,1.0
0.0,0.0,0.0,0.0
30.317,-0.469,-0.705,27.0
26.581,-0.417,-0.773,2.0
25.803,-0.41,-0.903,0.0
20.217,-0.325,-0.825,0.0
19.656,-0.32,-0.917,4.0
31.692,-0.523,-0.608,6.0
29.783,-0.497,-0.745,8.0
25.59,-0.432,-0.788,2.0
24.705,-0.422,-0.907,0.0
21.456,-0.371,-0.912,5.0
19.603,-0.343,-0.948,1.0
30.951,-0.549,-0.646,31.0
28.509,-0.511,-0.761,7.0
24.555,-0.445,-0.798,1.0
23.842,-0.437,-0.915,0.0
20.981,-0.389,-0.928,0.0
18.773,-0.352,-0.939,0.0
30.515,-0.579,-0.688,33.0
27.294,-0.523,-0.773,3.0
23.335,-0.452,-0.796,1.0
22.881,-0.448,-0.916,0.0
20.16,-0.399,-0.924,0.0
18.328,-0.367,-0.946,0.0
29.632,-0.599,-0.715,11.0
25.709,-0.526,-0.77,2.0
22.279,-0.46,-0.796,2.0
21.933,-0.458,-0.913,1.0
21.875,-0.461,-1.038,0.0
28.423,-0.612,-0.731,1.0
24.324,-0.529,-0.767,5.0
21.491,-0.472,-0.802,1.0
21.279,-0.472,-0.919,0.0
21.034,-0.471,-1.031,0.0
17.132,-0.387,-0.939,1.0
25.362,-0.579,-0.692,2.0
23.706,-0.547,-0.784,6.0
20.828,-0.485,-0.81,1.0
20.708,-0.487,-0.927,0.0
16.966,-0.406,-0.956,2.0
24.889,-0.602,-0.717,11.0
22.485,-0.549,-0.778,1.0
20.173,-0.497,-0.815,1.0
20.026,-0.498,-0.927,0.0
19.924,-0.5,-1.038,0.0
16.632,-0.421,-0.963,0.0
24.163,-0.617,-0.732,22.0
21.768,-0.561,-0.786,0.0
19.581,-0.509,-0.82,1.0
19.427,-0.509,-0.928,0.0
19.284,-0.51,-1.033,0.0
16.007,-0.427,-0.95,0.0
23.783,-0.64,-0.755,17.0
20.859,-0.566,-0.783,0.0
19.023,-0.521,-0.824,1.0
18.865,-0.521,-0.928,0.0
18.838,-0.524,-1.036,0.0
15.656,-0.44,-0.952,0.0
23.634,-0.669,-0.784,5.0
20.377,-0.582,-0.794,0.0
18.465,-0.531,-0.826,0.0
18.26,-0.53,-0.924,0.0
18.263,-0.534,-1.03,0.0
15.241,-0.449,-0.948,0.0
22.36,-0.665,-0.773,1.0
19.776,-0.592,-0.798,1.0
17.946,-0.542,-0.827,0.0
17.809,-0.542,-0.926,0.0
17.729,-0.544,-1.024,0.0
14.894,-0.461,-0.947,0.0
21.691,-0.676,-0.779,0.0
19.325,-0.607,-0.806,0.0
17.422,-0.551,-0.827,0.0
17.284,-0.551,-0.922,0.0
16.746,-0.538,-0.99,0.0
14.565,-0.472,-0.945,0.0
21.042,-0.686,-0.784,0.0
18.537,-0.609,-0.797,0.0
16.99,-0.563,-0.829,0.0
16.81,-0.561,-0.919,0.0
16.188,-0.544,-0.978,0.0
14.372,-0.487,-0.952,0.0
20.337,-0.693,-0.784,0.0
18.137,-0.623,-0.803,0.0
16.592,-0.574,-0.831,0.0
16.326,-0.569,-0.913,0.0
16.16,-0.567,-0.997,0.0
14.081,-0.498,-0.95,0.0
19.764,-0.703,-0.786,0.0
17.691,-0.634,-0.805,0.0
16.202,-0.585,-0.831,1.0
16.101,-0.585,-0.92,0.0
15.738,-0.576,-0.99,0.0
13.876,-0.511,-0.953,0.0
19.251,-0.714,-0.789,0.0
17.256,-0.644,-0.807,0.0
16.05,-0.603,-0.842,1.0
15.974,-0.605,-0.932,0.0
14.733,-0.561,-0.945,0.0
13.629,-0.523,-0.952,0.0
18.663,-0.72,-0.787,0.0
17.035,-0.662,-0.816,0.0
15.925,-0.623,-0.854,1.0
15.879,-0.625,-0.945,0.0
14.536,-0.576,-0.949,0.0
13.455,-0.537,-0.956,0.0
18.32,-0.735,-0.793,1.0
16.691,-0.674,-0.818,0.0
15.822,-0.643,-0.867,1.0
15.772,-0.645,-0.956,0.0
14.409,-0.593,-0.957,0.0
13.303,-0.551,-0.96,0.0
17.96,-0.748,-0.797,1.0
16.349,-0.685,-0.819,1.0
15.713,-0.662,-0.878,1.0
15.657,-0.665,-0.966,0.0
14.197,-0.606,-0.958,0.0
13.156,-0.566,-0.963,0.0
17.522,-0.757,-0.796,0.0
16.2,-0.704,-0.829,1.0
15.652,-0.684,-0.89,1.0
15.547,-0.684,-0.975,0.0
13.929,-0.617,-0.954,0.0
12.966,-0.578,-0.963,0.0
17.275,-0.773,-0.802,1.0
15.924,-0.717,-0.831,0.0
15.54,-0.704,-0.9,1.0
15.265,-0.696,-0.973,0.0
13.622,-0.624,-0.947,0.0
12.737,-0.587,-0.958,0.0
16.833,-0.779,-0.798,1.0
15.653,-0.729,-0.832,0.0
15.447,-0.724,-0.91,0.0
14.8,-0.698,-0.958,0.0
13.518,-0.641,-0.952,0.0
12.669,-0.604,-0.965,0.0
16.519,-0.791,-0.799,1.0
15.488,-0.746,-0.838,0.0
15.383,-0.745,-0.92,1.0
14.536,-0.708,-0.954,0.0
13.469,-0.66,-0.961,0.0
12.486,-0.615,-0.963,0.0
16.404,-0.811,-0.808,1.0
15.367,-0.764,-0.845,1.0
15.293,-0.765,-0.928,1.0
14.415,-0.725,-0.959,0.0
13.28,-0.672,-0.959,0.0
12.287,-0.625,-0.958,0.0
16.236,-0.828,-0.814,0.0
15.287,-0.784,-0.853,1.0
15.201,-0.784,-0.935,0.0
14.398,-0.747,-0.97,0.0
13.132,-0.685,-0.96,0.0
12.228,-0.642,-0.964,0.0
15.991,-0.841,-0.814,1.0
15.195,-0.804,-0.86,0.0
15.113,-0.804,-0.942,0.0
14.242,-0.762,-0.971,0.0
12.992,-0.698,-0.96,0.0
12.102,-0.654,-0.963,0.0
15.828,-0.858,-0.818,1.0
15.098,-0.823,-0.867,0.0
14.993,-0.821,-0.946,1.0
13.977,-0.77,-0.963,0.0
12.852,-0.712,-0.959,0.0
11.998,-0.668,-0.964,0.0
15.717,-0.877,-0.824,1.0
15.025,-0.843,-0.873,1.0
14.91,-0.84,-0.952,2.0
13.78,-0.781,-0.959,0.0
12.748,-0.726,-0.96,0.0
11.86,-0.679,-0.961,0.0
15.581,-0.894,-0.828,1.0
14.949,-0.862,-0.879,1.0
14.898,-0.864,-0.961,1.0
13.633,-0.794,-0.958,0.0
12.667,-0.742,-0.963,0.0
11.761,-0.692,-0.961,0.0
15.456,-0.911,-0.831,1.0
14.886,-0.882,-0.885,1.0
14.868,-0.886,-0.968,1.0
13.603,-0.814,-0.965,0.0
12.563,-0.756,-0.963,0.0
11.64,-0.704,-0.958,0.0
15.326,-0.928,-0.833,0.0
14.84,-0.903,-0.891,1.0
14.792,-0.905,-0.972,0.0
24.448,-1.503,-1.749,0.0
12.51,-0.773,-0.966,0.0
11.55,-0.717,-0.958,0.0
15.263,-0.949,-0.839,0.0
14.777,-0.923,-0.896,1.0
14.695,-0.922,-0.974,0.0
24.494,-1.545,-1.766,0.0
12.513,-0.793,-0.973,0.0
11.513,-0.733,-0.961,0.0
15.176,-0.968,-0.842,0.0
14.72,-0.943,-0.9,1.0
14.646,-0.943,-0.978,0.0
13.143,-0.85,-0.954,0.0
12.399,-0.806,-0.97,0.0
11.502,-0.751,-0.966,0.0
15.081,-0.986,-0.844,0.0
14.655,-0.963,-0.903,1.0
14.51,-0.957,-0.976,0.0
13.134,-0.871,-0.959,0.0
12.296,-0.819,-0.968,0.0
11.406,-0.763,-0.963,0.0
14.976,-1.003,-0.844,0.0
14.608,-0.983,-0.906,1.0
14.383,-0.972,-0.974,0.0
13.104,-0.889,-0.963,0.0
12.203,-0.832,-0.966,0.0
11.368,-0.778,-0.964,0.0
14.871,-1.019,-0.844,0.0
14.546,-1.001,-0.908,1.0
14.295,-0.988,-0.973,0.0
13.015,-0.904,-0.961,0.0
12.158,-0.848,-0.967,0.0
11.274,-0.79,-0.96,0.0
14.755,-1.035,-0.843,1.0
14.493,-1.021,-0.91,1.0
14.193,-1.004,-0.971,0.0
13.004,-0.924,-0.965,0.0
12.076,-0.861,-0.964,0.0
11.201,-0.802,-0.958,0.0
14.735,-1.056,-0.846,1.0
14.432,-1.039,-0.91,1.0
14.182,-1.025,-0.975,0.0
12.942,-0.939,-0.964,0.0
12.035,-0.877,-0.964,0.0
11.199,-0.82,-0.961,0.0
14.649,-1.073,-0.845,0.0
14.381,-1.057,-0.911,1.0
14.2,-1.048,-0.979,0.0
12.924,-0.958,-0.966,0.0
11.986,-0.892,-0.963,0.0
11.124,-0.831,-0.957,0.0
14.578,-1.09,-0.845,0.0
14.327,-1.076,-0.911,1.0
14.12,-1.064,-0.977,0.0
12.852,-0.973,-0.963,0.0
11.964,-0.909,-0.964,0.0
11.13,-0.849,-0.959,0.0
14.615,-1.115,-0.849,1.0
14.284,-1.094,-0.91,1.0
14.105,-1.085,-0.978,0.0
12.857,-0.993,-0.965,0.0
11.955,-0.927,-0.965,0.0
11.094,-0.863,-0.958,0.0
14.528,-1.131,-0.846,0.0
14.229,-1.112,-0.909,1.0
14.126,-1.108,-0.982,0.0
12.89,-1.015,-0.969,0.0
11.932,-0.943,-0.964,0.0
11.106,-0.881,-0.96,0.0
14.485,-1.149,-0.845,0.0
14.173,-1.128,-0.907,1.0
14.107,-1.127,-0.981,0.0
12.867,-1.032,-0.969,0.0
11.939,-0.961,-0.966,0.0
11.1,-0.897,-0.96,0.0
14.455,-1.168,-0.845,0.0
14.13,-1.146,-0.904,1.0
14.102,-1.148,-0.982,0.0
12.822,-1.048,-0.966,0.0
11.885,-0.975,-0.962,0.0
11.078,-0.912,-0.959,0.0
14.429,-1.187,-0.843,0.0
14.106,-1.165,-0.903,1.0
14.072,-1.166,-0.98,0.0
12.854,-1.069,-0.968,0.0
11.921,-0.995,-0.965,0.0
11.115,-0.931,-0.962,0.0
14.431,-1.209,-0.843,0.0
14.068,-1.182,-0.9,1.0
14.052,-1.185,-0.978,0.0
12.779,-1.082,-0.962,0.0
11.933,-1.014,-0.965,0.0
11.094,-0.946,-0.959,0.0
14.436,-1.23,-0.842,0.0
14.014,-1.198,-0.896,1.0
14.014,-1.202,-0.974,1.0
12.838,-1.105,-0.965,0.0
11.996,-1.036,-0.969,0.0
11.119,-0.964,-0.96,0.0
14.434,-1.25,-0.841,1.0
13.997,-1.216,-0.893,1.0
13.971,-1.218,-0.969,1.0
12.897,-1.128,-0.968,0.0
11.993,-1.053,-0.967,0.0
11.143,-0.981,-0.961,0.0
14.459,-1.273,-0.84,0.0
13.962,-1.233,-0.889,1.0
13.953,-1.236,-0.966,1.0
12.915,-1.148,-0.967,0.0
12.012,-1.071,-0.967,0.0
11.158,-0.998,-0.96,0.0
14.57,-1.303,-0.844,1.0
13.916,-1.248,-0.883,1.0
13.906,-1.251,-0.96,1.0
12.995,-1.173,-0.971,0.0
12.074,-1.093,-0.969,0.0
11.185,-1.016,-0.96,0.0
14.51,-1.317,-0.837,1.0
13.884,-1.264,-0.878,1.0
13.865,-1.266,-0.954,1.0
13.035,-1.194,-0.97,0.0
12.085,-1.11,-0.967,0.0
11.238,-1.036,-0.962,0.0
14.498,-1.335,-0.833,0.0
13.852,-1.279,-0.872,1.0
13.852,-1.283,-0.949,1.0
13.151,-1.222,-0.975,0.0
12.098,-1.128,-0.964,0.0
11.3,-1.057,-0.964,0.0
14.547,-1.359,-0.831,0.0
13.818,-1.294,-0.866,1.0
13.809,-1.297,-0.942,1.0
13.201,-1.244,-0.975,0.0
12.126,-1.146,-0.963,0.0
11.348,-1.076,-0.964,0.0
14.612,-1.384,-0.83,0.0
13.807,-1.311,-0.86,1.0
13.784,-1.313,-0.935,1.0
13.332,-1.273,-0.98,0.0
12.14,-1.163,-0.959,0.0
11.429,-1.098,-0.966,0.0
14.691,-1.41,-0.829,0.0
13.785,-1.327,-0.854,1.0
13.735,-1.326,-0.926,1.0
13.406,-1.297,-0.98,1.0
12.273,-1.191,-0.965,0.0
11.518,-1.121,-0.969,0.0
14.772,-1.436,-0.827,0.0
13.82,-1.347,-0.85,0.0
13.717,-1.341,-0.919,1.0
13.473,-1.32,-0.979,1.0
12.361,-1.215,-0.966,0.0
11.594,-1.142,-0.97,0.0
14.885,-1.465,-0.827,0.0
13.894,-1.371,-0.848,0.0
13.691,-1.354,-0.911,1.0
13.517,-1.341,-0.975,1.0
13.055,-1.298,-1.014,0.0
11.641,-1.161,-0.969,0.0
15.002,-1.494,-0.826,1.0
13.977,-1.396,-0.846,0.0
13.671,-1.369,-0.903,1.0
13.548,-1.36,-0.971,1.0
12.99,-1.307,-1.003,0.0
11.726,-1.183,-0.97,0.0
15.068,-1.518,-0.822,1.0
14.095,-1.424,-0.846,0.0
13.639,-1.381,-0.894,1.0
13.555,-1.376,-0.964,1.0
12.727,-1.295,-0.975,0.0
11.824,-1.206,-0.971,0.0
15.133,-1.542,-0.817,1.0
14.167,-1.447,-0.842,1.0
13.619,-1.394,-0.885,1.0
13.587,-1.394,-0.958,1.0
12.946,-1.331,-0.984,0.0
11.934,-1.23,-0.973,0.0
15.194,-1.565,-0.811,1.0
14.213,-1.467,-0.837,1.0
13.602,-1.407,-0.875,1.0
13.571,-1.407,-0.949,1.0
13.039,-1.355,-0.983,0.0
12.012,-1.251,-0.972,0.0
15.278,-1.589,-0.806,1.0
14.321,-1.493,-0.834,1.0
13.583,-1.419,-0.865,1.0
13.559,-1.42,-0.94,1.0
13.242,-1.39,-0.99,0.0
12.105,-1.273,-0.972,0.0
15.422,-1.62,-0.804,1.0
14.454,-1.521,-0.832,1.0
13.594,-1.434,-0.857,1.0
13.535,-1.431,-0.929,1.0
13.428,-1.423,-0.995,0.0
12.191,-1.295,-0.97,0.0
15.557,-1.65,-0.8,1.0
14.579,-1.549,-0.829,1.0
13.676,-1.456,-0.853,0.0
13.52,-1.442,-0.918,1.0
13.495,-1.443,-0.99,0.0
12.308,-1.319,-0.971,0.0
15.728,-1.683,-0.797,1.0
14.711,-1.577,-0.826,0.0
13.782,-1.48,-0.849,0.0
13.481,-1.451,-0.906,1.0
13.487,-1.455,-0.98,1.0
13.305,-1.438,-1.039,0.0
15.902,-1.716,-0.795,1.0
14.827,-1.603,-0.821,1.0
13.887,-1.504,-0.845,0.0
13.475,-1.462,-0.895,1.0
13.472,-1.465,-0.968,1.0
13.334,-1.453,-1.031,0.0
16.088,-1.75,-0.792,1.0
15.029,-1.638,-0.821,1.0
14.027,-1.531,-0.843,0.0
13.462,-1.473,-0.883,1.0
13.402,-1.469,-0.952,3.0
13.34,-1.465,-1.021,1.0
16.226,-1.779,-0.785,1.0
15.129,-1.662,-0.814,1.0
14.162,-1.558,-0.839,1.0
13.437,-1.481,-0.871,1.0
13.367,-1.476,-0.939,11.0
13.314,-1.473,-1.008,1.0
16.411,-1.813,-0.781,1.0
15.263,-1.689,-0.809,1.0
14.291,-1.584,-0.835,1.0
13.453,-1.493,-0.86,1.0
13.373,-1.487,-0.928,12.0
13.33,-1.485,-0.998,4.0
16.664,-1.853,-0.778,1.0
15.409,-1.717,-0.803,1.0
14.419,-1.609,-0.83,0.0
13.522,-1.511,-0.853,0.0
13.36,-1.495,-0.915,4.0
13.352,-1.497,-0.987,9.0
16.907,-1.893,-0.775,1.0
15.597,-1.749,-0.799,0.0
14.602,-1.64,-0.827,1.0
13.699,-1.541,-0.852,0.0
13.381,-1.507,-0.904,2.0
13.344,-1.505,-0.975,9.0
17.208,-1.939,-0.773,1.0
15.83,-1.786,-0.796,0.0
14.746,-1.666,-0.822,1.0
13.83,-1.565,-0.847,0.0
13.386,-1.517,-0.892,2.0
13.339,-1.514,-0.962,7.0
17.41,-1.973,-0.766,1.0
16.022,-1.818,-0.791,1.0
14.973,-1.701,-0.82,1.0
13.98,-1.59,-0.843,1.0
13.379,-1.524,-0.879,2.0
13.35,-1.523,-0.95,5.0
17.813,-2.03,-0.766,0.0
16.223,-1.851,-0.785,1.0
15.117,-1.727,-0.813,1.0
14.116,-1.614,-0.837,1.0
13.384,-1.533,-0.866,1.0
13.357,-1.532,-0.937,2.0
18.104,-2.073,-0.761,0.0
16.466,-1.888,-0.781,1.0
15.29,-1.755,-0.807,0.0
14.317,-1.645,-0.835,0.0
13.44,-1.546,-0.856,0.0
13.353,-1.538,-0.923,2.0
18.606,-2.141,-0.763,0.0
16.744,-1.928,-0.777,0.0
15.482,-1.785,-0.802,0.0
14.457,-1.669,-0.828,1.0
13.643,-1.577,-0.855,0.0
13.343,-1.544,-0.909,2.0
18.94,-2.189,-0.758,1.0
17.065,-1.974,-0.774,1.0
15.718,-1.82,-0.798,0.0
14.665,-1.7,-0.825,1.0
13.757,-1.596,-0.848,0.0
13.332,-1.548,-0.894,2.0
19.318,-2.241,-0.753,1.0
17.402,-2.02,-0.772,1.0
15.964,-1.855,-0.794,1.0
14.943,-1.738,-0.825,1.0
13.925,-1.621,-0.844,1.0
13.331,-1.554,-0.88,2.0
19.682,-2.291,-0.746,2.0
17.674,-2.059,-0.765,1.0
16.145,-1.882,-0.785,1.0
15.057,-1.757,-0.815,1.0
14.101,-1.647,-0.839,1.0
13.343,-1.56,-0.866,1.0
20.197,-2.359,-0.744,2.0
18.048,-2.109,-0.762,0.0
16.4,-1.918,-0.78,0.0
15.283,-1.789,-0.81,1.0
14.265,-1.671,-0.833,1.0
13.428,-1.574,-0.857,0.0
20.593,-2.412,-0.736,2.0
18.62,-2.182,-0.765,1.0
16.747,-1.964,-0.778,1.0
15.448,-1.813,-0.802,1.0
14.484,-1.701,-0.83,0.0
13.655,-1.605,-0.856,0.0
21.25,-2.494,-0.736,4.0
18.981,-2.229,-0.759,2.0
17.096,-2.009,-0.775,1.0
15.654,-1.841,-0.795,1.0
14.742,-1.735,-0.828,1.0
13.774,-1.622,-0.848,0.0
21.718,-2.554,-0.728,4.0
19.374,-2.28,-0.753,2.0
17.437,-2.053,-0.771,1.0
15.963,-1.88,-0.793,1.0
14.937,-1.76,-0.822,1.0
14.002,-1.651,-0.846,0.0
22.105,-2.604,-0.716,4.0
19.869,-2.341,-0.749,2.0
17.696,-2.086,-0.762,0.0
16.215,-1.913,-0.787,1.0
15.113,-1.783,-0.815,1.0
14.164,-1.672,-0.839,1.0
22.832,-2.693,-0.713,5.0
20.328,-2.398,-0.743,2.0
18.277,-2.157,-0.766,0.0
16.535,-1.952,-0.783,1.0
15.364,-1.815,-0.81,1.0
14.335,-1.694,-0.833,0.0
23.356,-2.757,-0.702,4.0
20.788,-2.455,-0.736,3.0
18.74,-2.213,-0.763,1.0
16.846,-1.99,-0.778,1.0
15.513,-1.833,-0.8,1.0
14.588,-1.725,-0.83,0.0
24.061,-2.842,-0.695,3.0
21.462,-2.535,-0.734,4.0
19.174,-2.265,-0.758,2.0
17.217,-2.034,-0.775,1.0
15.843,-1.872,-0.798,1.0
14.874,-1.758,-0.829,1.0
24.939,-2.946,-0.691,3.0
21.895,-2.586,-0.723,4.0
19.607,-2.316,-0.752,2.0
17.57,-2.076,-0.77,1.0
16.101,-1.902,-0.792,1.0
15.021,-1.775,-0.819,1.0
25.674,-3.031,-0.681,5.0
22.52,-2.659,-0.717,4.0
20.118,-2.375,-0.748,2.0
17.979,-2.123,-0.767,0.0
16.359,-1.932,-0.785,1.0
15.288,-1.805,-0.815,1.0
26.198,-3.091,-0.663,3.0
23.076,-2.722,-0.707,4.0
20.577,-2.427,-0.74,2.0
18.557,-2.189,-0.769,1.0
16.745,-1.975,-0.783,1.0
15.454,-1.823,-0.805,1.0
27.208,-3.207,-0.656,2.0
23.704,-2.793,-0.698,2.0
21.25,-2.504,-0.739,4.0
18.957,-2.233,-0.762,1.0
17.088,-2.013,-0.778,1.0
15.721,-1.852,-0.8,1.0
28.4,-3.342,-0.65,6.0
24.678,-2.903,-0.696,2.0
21.786,-2.563,-0.731,4.0
19.399,-2.281,-0.757,2.0
17.481,-2.055,-0.775,1.0
16.008,-1.882,-0.795,1.0
29.088,-3.417,-0.631,8.0
25.346,-2.976,-0.685,3.0
22.219,-2.608,-0.719,4.0
19.904,-2.336,-0.752,2.0
17.805,-2.089,-0.768,0.0
16.274,-1.909,-0.789,1.0
29.701,-3.481,-0.608,20.0
26.032,-3.05,-0.672,2.0
22.954,-2.688,-0.715,5.0
20.419,-2.39,-0.747,2.0
18.427,-2.156,-0.772,0.0
16.67,-1.95,-0.788,1.0
30.241,-3.535,-0.583,20.0
27.0,-3.154,-0.664,2.0
23.632,-2.759,-0.707,5.0
20.921,-2.442,-0.74,2.0
18.867,-2.201,-0.767,1.0
17.002,-1.983,-0.783,1.0
31.217,-3.638,-0.563,17.0
27.814,-3.239,-0.65,2.0
24.386,-2.838,-0.7,5.0
21.657,-2.519,-0.739,4.0
19.28,-2.242,-0.761,2.0
17.417,-2.024,-0.78,1.0
32.289,-3.75,-0.543,32.0
28.928,-3.357,-0.641,4.0
25.163,-2.918,-0.691,2.0
22.004,-2.55,-0.724,4.0
19.79,-2.292,-0.757,1.0
17.737,-2.053,-0.773,0.0
33.049,-3.823,-0.516,31.0
29.76,-3.44,-0.623,8.0
25.956,-2.998,-0.682,3.0
22.734,-2.624,-0.72,5.0
20.327,-2.344,-0.753,2.0
18.191,-2.096,-0.77,0.0
33.945,-3.91,-0.489,33.0
30.179,-3.473,-0.595,18.0
26.932,-3.097,-0.675,3.0
23.301,-2.677,-0.71,2.0
20.827,-2.391,-0.746,3.0
18.771,-2.153,-0.772,1.0
34.718,-3.98,-0.458,24.0
31.117,-3.564,-0.576,14.0
27.538,-3.151,-0.657,3.0
24.25,-2.772,-0.71,4.0
21.421,-2.446,-0.741,4.0
19.139,-2.184,-0.764,1.0
39.786,-4.538,-0.477,5.0
31.751,-3.618,-0.55,21.0
28.208,-3.21,-0.639,1.0
24.904,-2.832,-0.699,4.0
22.032,-2.503,-0.736,4.0
19.705,-2.236,-0.763,2.0
39.975,-4.534,-0.432,15.0
33.05,-3.745,-0.533,27.0
29.895,-3.383,-0.642,4.0
25.565,-2.89,-0.687,2.0
22.613,-2.553,-0.728,4.0
20.205,-2.279,-0.759,1.0
0.0,0.0,0.0,0.0
33.889,-3.816,-0.506,33.0
30.418,-3.421,-0.616,11.0
26.53,-2.98,-0.682,2.0
23.192,-2.602,-0.72,5.0
20.665,-2.316,-0.752,2.0
0.0,0.0,0.0,0.0
34.571,-3.868,-0.476,25.0
31.131,-3.478,-0.594,9.0
27.304,-3.047,-0.669,2.0
23.923,-2.666,-0.714,5.0
21.114,-2.35,-0.743,3.0
46.459,-5.17,-0.338,21.0
39.817,-4.424,-0.502,3.0
32.039,-3.555,-0.574,21.0
28.054,-3.108,-0.655,2.0
24.784,-2.742,-0.711,5.0
21.813,-2.41,-0.742,3.0
47.427,-5.239,-0.289,10.0
39.968,-4.408,-0.457,15.0
33.034,-3.638,-0.553,28.0
29.625,-3.258,-0.657,8.0
25.484,-2.798,-0.701,6.0
22.491,-2.466,-0.739,4.0
50.57,-5.543,-0.249,25.0
0.0,0.0,0.0,0.0
33.835,-3.696,-0.528,28.0
30.267,-3.302,-0.637,8.0
26.209,-2.854,-0.691,4.0
22.95,-2.496,-0.727,4.0
54.635,-5.94,-0.207,17.0
0.0,0.0,0.0,0.0
34.551,-3.743,-0.5,22.0
31.309,-3.386,-0.623,9.0
27.012,-2.917,-0.681,4.0
23.658,-2.55,-0.723,4.0
55.86,-6.02,-0.149,30.0
0.0,0.0,0.0,0.0
35.068,-3.766,-0.467,11.0
32.026,-3.433,-0.601,10.0
27.846,-2.979,-0.671,2.0
24.511,-2.618,-0.721,5.0
56.35,-6.018,-0.087,4.0
47.671,-5.081,-0.328,22.0
40.019,-4.257,-0.489,15.0
32.74,-3.476,-0.578,26.0
28.652,-3.037,-0.659,1.0
25.164,-2.662,-0.713,4.0
65.089,-6.884,-0.028,2.0
0.0,0.0,0.0,0.0
40.255,-4.24,-0.447,15.0
33.563,-3.528,-0.555,26.0
30.189,-3.167,-0.661,3.0
25.937,-2.716,-0.706,6.0
64.971,-6.802,0.042,3.0
0.0,0.0,0.0,0.0
0.0,0.0,0.0,0.0
34.349,-3.573,-0.531,24.0
31.006,-3.219,-0.646,8.0
26.615,-2.758,-0.696,5.0
64.988,-6.732,0.111,3.0
55.495,-5.736,-0.202,29.0
44.673,-4.607,-0.4,19.0
35.003,-3.602,-0.504,12.0
32.006,-3.286,-0.632,9.0
27.188,-2.786,-0.683,3.0
65.005,-6.658,0.18,5.0
56.13,-5.736,-0.143,10.0
45.279,-4.616,-0.358,6.0
0.0,0.0,0.0,0.0
32.909,-3.34,-0.616,10.0
27.871,-2.822,-0.67,2.0
65.101,-6.591,0.247,151.0
65.352,-6.6,-0.1,7.0
0.0,0.0,0.0,0.0
40.189,-4.039,-0.496,5.0
33.695,-3.378,-0.596,14.0
29.5,-2.951,-0.68,2.0
65.06,-6.507,0.313,23.0
65.018,-6.486,-0.034,21.0
54.463,-5.419,-0.32,4.0
0.0,0.0,0.0,0.0
34.313,-3.397,-0.572,21.0
30.134,-2.976,-0.664,2.0
65.099,-6.428,0.378,2.0
64.989,-6.399,0.03,4.0
0.0,0.0,0.0,0.0
44.659,-4.375,-0.462,6.0
34.841,-3.404,-0.547,17.0
30.816,-3.003,-0.649,5.0
65.089,-6.342,0.441,13.0
65.0,-6.316,0.092,2.0
55.516,-5.38,-0.218,29.0
45.115,-4.36,-0.424,19.0
37.638,-3.628,-0.555,2.0
31.495,-3.028,-0.633,1.0
65.138,-6.26,0.503,9.0
65.124,-6.24,0.154,150.0
55.814,-5.333,-0.166,9.0
46.598,-4.44,-0.394,21.0
38.603,-3.668,-0.533,14.0
33.852,-3.207,-0.649,2.0
65.186,-6.175,0.565,2.0
65.183,-6.156,0.215,181.0
55.92,-5.265,-0.115,6.0
47.646,-4.472,-0.358,13.0
39.513,-3.698,-0.51,15.0
34.647,-3.233,-0.633,8.0
54.965,-5.128,0.526,150.0
54.965,-5.112,0.23,168.0
54.98,-5.097,-0.064,153.0
50.341,-4.653,-0.334,7.0
40.299,-3.714,-0.484,15.0
35.247,-3.238,-0.613,11.0
54.961,-5.048,0.574,158.0
54.963,-5.032,0.278,165.0
54.957,-5.015,-0.016,71.0
54.739,-4.98,-0.316,28.0
41.865,-3.796,-0.467,16.0
36.227,-3.275,-0.599,12.0
54.991,-4.969,0.621,0.0
0.0,0.0,0.0,0.0
0.0,0.0,0.0,0.0
55.267,-4.944,-0.273,29.0
45.389,-4.048,-0.468,19.0
37.396,-3.324,-0.587,13.0
0.0,0.0,0.0,0.0
0.0,0.0,0.0,0.0
62.732,-5.535,0.085,1.0
55.598,-4.888,-0.229,3.0
46.31,-4.058,-0.44,21.0
38.414,-3.355,-0.572,14.0
0.0,0.0,0.0,0.0
0.0,0.0,0.0,0.0
0.0,0.0,0.0,0.0
0.0,0.0,0.0,0.0
47.097,-4.053,-0.411,13.0
39.143,-3.357,-0.552,15.0
0.0,0.0,0.0,0.0
0.0,0.0,0.0,0.0
64.04,-5.449,0.186,3.0
79.427,-6.733,-0.204,7.0
49.62,-4.191,-0.396,23.0
40.031,-3.369,-0.535,15.0
0.0,0.0,0.0,0.0
79.301,-6.645,0.716,17.0
79.363,-6.624,0.288,28.0
79.691,-6.625,-0.148,13.0
50.234,-4.161,-0.364,12.0
40.959,-3.38,-0.518,16.0
82.069,-6.767,1.243,32.0
79.364,-6.518,0.774,11.0
79.438,-6.499,0.345,32.0
79.812,-6.504,-0.092,23.0
53.856,-4.371,-0.353,7.0
45.62,-3.688,-0.545,3.0
82.065,-6.63,1.299,15.0
81.59,-6.564,0.851,23.0
79.383,-6.36,0.398,28.0
80.06,-6.388,-0.038,14.0
54.434,-4.325,-0.32,6.0
46.268,-3.662,-0.523,20.0
82.165,-6.498,1.355,12.0
81.918,-6.45,0.908,44.0
61.674,-4.836,0.349,3.0
61.496,-4.802,0.009,17.0
61.527,-4.784,-0.324,7.0
46.491,-3.599,-0.496,21.0
132.82,-10.276,2.274,25.0
82.04,-6.319,0.959,9.0
65.694,-5.038,0.411,0.0
65.583,-5.007,0.049,197.0
61.616,-4.683,-0.287,4.0
49.219,-3.725,-0.496,4.0
83.11,-6.283,1.471,17.0
0.0,0.0,0.0,0.0
65.634,-4.917,0.45,3.0
65.509,-4.885,0.086,224.0
61.41,-4.56,-0.251,2.0
0.0,0.0,0.0,0.0
83.044,-6.131,1.516,15.0
0.0,0.0,0.0,0.0
65.61,-4.798,0.485,2.0
65.501,-4.767,0.122,1.0
66.133,-4.79,-0.235,1.0
49.529,-3.57,-0.445,14.0
82.924,-5.972,1.558,13.0
0.0,0.0,0.0,0.0
65.544,-4.673,0.519,1.0
65.382,-4.639,0.156,1.0
65.925,-4.655,-0.2,2.0
53.293,-3.745,-0.452,6.0
82.916,-5.818,1.599,13.0
0.0,0.0,0.0,0.0
65.587,-4.557,0.55,177.0
65.455,-4.524,0.187,2.0
65.96,-4.537,-0.17,4.0
53.319,-3.648,-0.427,19.0
82.993,-5.67,1.638,5.0
0.0,0.0,0.0,0.0
65.594,-4.435,0.58,169.0
24.61,-1.655,0.081,2.0
24.599,-1.645,-0.052,6.0
24.557,-1.634,-0.186,19.0
24.581,-1.633,0.495,28.0
24.565,-1.623,0.361,26.0
24.535,-1.612,0.227,26.0
24.556,-1.604,0.091,33.0
24.538,-1.595,-0.042,45.0
24.523,-1.585,-0.176,50.0
24.549,-1.584,0.504,51.0
24.531,-1.574,0.37,54.0
24.524,-1.565,0.236,41.0
24.53,-1.556,0.1,58.0
24.519,-1.547,-0.033,72.0
24.51,-1.537,-0.167,58.0
24.537,-1.536,0.513,64.0
24.531,-1.527,0.379,71.0
24.52,-1.517,0.245,76.0
24.51,-1.508,0.108,56.0
24.533,-1.5,-0.025,91.0
24.517,-1.491,-0.159,70.0
24.56,-1.49,0.521,77.0
24.543,-1.48,0.386,74.0
24.543,-1.471,0.252,61.0
24.52,-1.461,0.115,54.0
24.535,-1.453,-0.018,68.0
24.521,-1.443,-0.152,69.0
24.568,-1.443,0.528,58.0
24.565,-1.433,0.394,53.0
24.552,-1.424,0.259,44.0
24.545,-1.414,0.122,42.0
24.552,-1.406,-0.011,42.0
24.553,-1.397,-0.146,44.0
24.623,-1.397,0.536,12.0
24.604,-1.387,0.4,9.0
24.604,-1.378,0.265,20.0
24.592,-1.368,0.128,5.0
24.591,-1.359,-0.006,2.0
24.588,-1.35,-0.141,3.0
83.646,-4.582,1.838,33.0
0.0,0.0,0.0,0.0
0.0,0.0,0.0,0.0
0.0,0.0,0.0,0.0
0.0,0.0,0.0,0.0
65.586,-3.473,-0.364,6.0
84.612,-4.466,1.874,48.0
86.08,-4.512,1.433,25.0
0.0,0.0,0.0,0.0
0.0,0.0,0.0,0.0
66.77,-3.425,0.005,0.0
65.609,-3.343,-0.354,4.0
84.727,-4.303,1.888,43.0
86.081,-4.34,1.445,16.0
82.849,-4.145,0.935,8.0
67.602,-3.357,0.384,1.0
0.0,0.0,0.0,0.0
31.313,-1.532,-0.165,3.0
84.581,-4.124,1.894,44.0
83.13,-4.022,1.403,2.0
83.015,-3.986,0.945,42.0
79.873,-3.805,0.461,14.0
31.283,-1.478,0.008,22.0
31.226,-1.464,-0.163,37.0
84.621,-3.954,1.9,34.0
31.323,-1.451,0.53,3.0
31.297,-1.438,0.357,25.0
31.226,-1.423,0.181,45.0
31.205,-1.411,0.009,45.0
31.21,-1.4,-0.162,58.0
31.315,-1.399,0.704,24.0
31.259,-1.385,0.53,34.0
28.462,-1.25,0.325,55.0
28.452,-1.239,0.165,62.0
28.44,-1.227,0.008,65.0
28.442,-1.217,-0.147,93.0
28.436,-1.211,0.638,85.0
28.441,-1.2,0.481,105.0
28.431,-1.19,0.324,107.0
28.429,-1.179,0.164,110.0
28.449,-1.169,0.007,152.0
28.446,-1.158,-0.149,123.0
28.445,-1.153,0.637,150.0
28.436,-1.142,0.48,78.0
28.456,-1.132,0.323,68.0
28.465,-1.121,0.163,66.0
28.454,-1.11,0.005,30.0
31.293,-1.21,-0.166,55.0
31.256,-1.202,0.698,43.0
31.257,-1.19,0.525,41.0
31.274,-1.179,0.352,45.0
31.283,-1.168,0.176,42.0
31.338,-1.159,0.002,5.0
31.401,-1.15,-0.17,0.0
31.321,-1.14,0.695,48.0
31.366,-1.13,0.522,21.0
84.302,-3.006,0.937,33.0
80.726,-2.849,0.442,21.0
80.813,-2.822,-0.004,20.0
56.901,-1.966,-0.318,4.0
38.669,-1.327,0.852,0.0
38.725,-1.314,0.638,6.0
38.766,-1.301,0.424,11.0
38.711,-1.285,0.205,32.0
38.701,-1.271,-0.009,44.0
38.689,-1.256,-0.223,53.0
38.641,-1.245,0.843,66.0
38.629,-1.23,0.628,67.0
38.642,-1.216,0.414,65.0
38.641,-1.202,0.196,70.0
38.643,-1.188,-0.018,68.0
38.644,-1.173,-0.232,67.0
38.636,-1.163,0.834,109.0
38.634,-1.148,0.619,93.0
38.645,-1.135,0.404,98.0
38.65,-1.121,0.186,94.0
38.665,-1.107,-0.028,81.0
38.662,-1.093,-0.243,66.0
38.659,-1.083,0.823,83.0
38.643,-1.068,0.608,66.0
38.643,-1.054,0.393,64.0
38.656,-1.04,0.174,61.0
38.672,-1.026,-0.04,40.0
38.724,-1.014,-0.255,37.0
38.715,-1.004,0.812,32.0
38.758,-0.991,0.597,8.0
0.0,0.0,0.0,0.0
40.432,-1.004,0.169,24.0
40.415,-0.988,-0.055,35.0
40.407,-0.973,-0.28,39.0
40.41,-0.962,0.833,41.0
40.409,-0.948,0.608,38.0
40.438,-0.934,0.383,153.0
40.404,-0.918,0.154,150.0
40.415,-0.904,-0.071,21.0
38.374,-0.845,-0.281,8.0
38.396,-0.834,0.777,56.0
38.382,-0.82,0.562,35.0
38.393,-0.806,0.348,10.0
52.932,-1.093,0.18,45.0
52.925,-1.074,-0.115,56.0
45.596,-0.909,-0.353,23.0
38.173,-0.75,0.756,0.0
192.862,-3.717,2.742,27.0
53.01,-1.002,0.457,4.0
20.155,-0.374,0.059,1.0
20.107,-0.366,-0.052,16.0
52.912,-0.944,-0.434,48.0
176.648,-3.105,3.416,16.0
176.622,-3.04,2.428,150.0
20.137,-0.339,0.164,7.0
20.135,-0.331,0.049,49.0
59.547,-0.961,-0.185,8.0
52.977,-0.835,-0.461,10.0
20.164,-0.312,0.379,3.0
20.125,-0.304,0.266,10.0
20.118,-0.297,0.153,12.0
59.511,-0.859,0.116,28.0
59.543,-0.838,-0.217,2.0
52.803,-0.724,-0.488,8.0
20.131,-0.27,0.368,14.0
20.13,-0.263,0.255,10.0
20.155,-0.256,0.142,3.0
59.599,-0.737,0.082,11.0
56.228,-0.675,-0.236,1.0
52.732,-0.615,-0.517,9.0
20.151,-0.229,0.356,13.0
64.336,-0.709,0.778,39.0
64.329,-0.686,0.418,32.0
56.175,-0.579,0.044,1.0
56.255,-0.561,-0.27,3.0
20.177,-0.194,-0.21,0.0
53.477,-0.497,0.914,42.0
66.527,-0.596,0.763,15.0
66.52,-0.573,0.39,18.0
20.199,-0.167,0.003,7.0
20.172,-0.159,-0.11,17.0
20.139,-0.152,-0.222,15.0
20.179,-0.146,0.331,17.0
20.139,-0.139,0.217,16.0
20.122,-0.132,0.104,18.0
20.138,-0.125,-0.01,26.0
20.143,-0.118,-0.123,27.0
20.132,-0.111,-0.236,31.0
20.12,-0.105,0.316,29.0
20.125,-0.098,0.203,25.0
20.127,-0.091,0.09,39.0
20.122,-0.084,-0.024,30.0
20.144,-0.077,-0.137,36.0
20.143,-0.071,-0.251,26.0
20.119,-0.064,0.302,33.0
20.121,-0.057,0.189,32.0
20.124,-0.05,0.075,41.0
20.123,-0.044,-0.039,32.0
20.16,-0.037,-0.152,27.0
20.164,-0.03,-0.266,17.0
20.118,-0.024,0.287,27.0
20.126,-0.017,0.173,28.0
20.159,-0.01,0.06,28.0
20.26,-0.003,-0.055,150.0
20.252,0.002,-0.169,151.0
20.259,0.009,-0.283,150.0
20.133,0.015,0.271,29.0
20.134,0.022,0.157,27.0
20.256,0.029,0.044,10.0
20.247,0.036,-0.071,9.0
20.209,0.042,-0.185,14.0
20.128,0.048,-0.298,0.0
20.143,0.056,0.254,28.0
20.151,0.062,0.141,27.0
20.207,0.069,0.027,32.0
20.182,0.075,-0.088,27.0
20.203,0.082,-0.202,20.0
20.201,0.088,-0.316,14.0
20.168,0.095,0.237,29.0
20.18,0.102,0.123,23.0
20.181,0.108,0.009,27.0
20.178,0.115,-0.106,37.0
20.185,0.122,-0.22,29.0
20.187,0.128,-0.334,32.0
20.182,0.135,0.219,23.0
20.209,0.142,0.105,30.0
20.227,0.148,-0.008,23.0
20.186,0.154,-0.124,24.0
20.185,0.161,-0.238,30.0
20.184,0.167,-0.353,33.0
20.315,0.175,0.201,29.0
20.32,0.182,0.086,34.0
20.321,0.188,-0.027,17.0
20.215,0.194,-0.144,6.0
20.179,0.2,-0.258,25.0
20.182,0.206,-0.372,32.0
20.298,0.214,0.182,25.0
20.326,0.221,0.067,6.0
0.0,0.0,0.0,0.0
20.179,0.231,-0.163,0.0
20.189,0.238,-0.278,12.0
20.194,0.244,-0.392,20.0
0.0,0.0,0.0,0.0
99.64,1.274,0.229,5.0
0.0,0.0,0.0,0.0
0.0,0.0,0.0,0.0
0.0,0.0,0.0,0.0
38.673,0.542,-0.791,0.0
99.682,1.433,0.69,2.0
99.695,1.463,0.125,5.0
0.0,0.0,0.0,0.0
0.0,0.0,0.0,0.0
0.0,0.0,0.0,0.0
37.753,0.6,-0.812,0.0
99.807,1.62,0.584,5.0
99.819,1.651,0.018,6.0
0.0,0.0,0.0,0.0
0.0,0.0,0.0,0.0
43.013,0.749,-0.728,0.0
37.055,0.657,-0.837,0.0
99.916,1.806,0.475,6.0
0.0,0.0,0.0,0.0
0.0,0.0,0.0,0.0
0.0,0.0,0.0,0.0
42.736,0.823,-0.771,0.0
0.0,0.0,0.0,0.0
100.004,1.989,0.364,2.0
100.031,2.019,-0.204,5.0
0.0,0.0,0.0,0.0
0.0,0.0,0.0,0.0
0.0,0.0,0.0,0.0
33.511,0.715,-0.833,0.0
100.106,2.171,0.248,4.0
0.0,0.0,0.0,0.0
0.0,0.0,0.0,0.0
49.513,1.116,-0.726,0.0
38.796,0.885,-0.789,0.0
32.364,0.748,-0.843,1.0
100.167,2.349,0.13,5.0
0.0,0.0,0.0,0.0
0.0,0.0,0.0,0.0
0.0,0.0,0.0,0.0
37.143,0.913,-0.801,0.0
31.7,0.788,-0.864,1.0
0.0,0.0,0.0,0.0
0.0,0.0,0.0,0.0
0.0,0.0,0.0,0.0
0.0,0.0,0.0,0.0
35.527,0.934,-0.809,0.0
30.507,0.81,-0.869,1.0
0.0,0.0,0.0,0.0
68.996,1.874,-0.471,2.0
0.0,0.0,0.0,0.0
40.921,1.134,-0.75,0.0
34.171,0.955,-0.821,0.0
29.434,0.831,-0.875,0.0
0.0,0.0,0.0,0.0
69.07,1.993,-0.56,3.0
0.0,0.0,0.0,0.0
0.0,0.0,0.0,0.0
32.672,0.968,-0.827,0.0
28.456,0.851,-0.882,0.0
0.0,0.0,0.0,0.0
0.0,0.0,0.0,0.0
0.0,0.0,0.0,0.0
0.0,0.0,0.0,0.0
32.332,1.011,-0.86,1.0
27.094,0.854,-0.875,0.0
0.0,0.0,0.0,0.0
0.0,0.0,0.0,0.0
0.0,0.0,0.0,0.0
0.0,0.0,0.0,0.0
30.251,0.994,-0.845,0.0
26.234,0.869,-0.883,0.0
68.937,2.306,-0.437,0.0
0.0,0.0,0.0,0.0
0.0,0.0,0.0,0.0
35.758,1.223,-0.843,0.0
29.941,1.032,-0.877,1.0
25.244,0.876,-0.884,0.0
68.964,2.415,-0.531,3.0
0.0,0.0,0.0,0.0
39.287,1.395,-0.751,0.0
32.842,1.174,-0.819,0.0
28.584,1.029,-0.877,0.0
24.553,0.89,-0.893,0.0
0.0,0.0,0.0,0.0
0.0,0.0,0.0,0.0
37.558,1.391,-0.771,0.0
32.124,1.197,-0.846,0.0
0.0,0.0,0.0,0.0
23.83,0.9,-0.9,0.0
0.0,0.0,0.0,0.0
0.0,0.0,0.0,0.0
36.585,1.409,-0.802,0.0
30.211,1.171,-0.838,0.0
26.103,1.018,-0.874,0.0
22.854,0.897,-0.896,2.0
0.0,0.0,0.0,0.0
0.0,0.0,0.0,0.0
0.0,0.0,0.0,0.0
29.892,1.202,-0.873,1.0
25.072,1.014,-0.876,0.0
22.313,0.908,-0.907,2.0
0.0,0.0,0.0,0.0
0.0,0.0,0.0,0.0
32.412,1.342,-0.805,0.0
28.896,1.203,-0.886,0.0
20.265,0.848,-0.737,70.0
20.23,0.851,-0.852,14.0
0.0,0.0,0.0,0.0
37.928,1.615,-0.78,0.0
0.0,0.0,0.0,0.0
20.223,0.869,-0.649,18.0
20.184,0.872,-0.764,161.0
20.222,0.879,-0.882,73.0
0.0,0.0,0.0,0.0
36.447,1.601,-0.803,0.0
0.0,0.0,0.0,0.0
20.247,0.898,-0.68,151.0
20.179,0.899,-0.794,156.0
20.204,0.905,-0.911,30.0
0.0,0.0,0.0,0.0
34.182,1.547,-0.805,0.0
29.409,1.337,-0.861,0.0
20.221,0.923,-0.71,154.0
20.22,0.928,-0.827,46.0
20.178,0.93,-0.941,11.0
39.066,1.81,-0.756,0.0
32.634,1.519,-0.819,0.0
28.023,1.31,-0.864,0.0
20.238,0.95,-0.742,33.0
20.226,0.954,-0.858,11.0
20.186,0.956,-0.972,2.0
36.914,1.758,-0.771,0.0
31.463,1.505,-0.838,0.0
26.984,1.296,-0.873,0.0
20.213,0.974,-0.772,0.0
20.237,0.98,-0.89,8.0
18.454,0.897,-0.917,0.0
35.35,1.726,-0.793,0.0
30.174,1.479,-0.85,0.0
25.732,1.266,-0.873,0.0
21.911,1.082,-0.871,0.0
20.262,1.005,-0.922,8.0
17.894,0.891,-0.918,0.0
33.839,1.692,-0.812,0.0
28.542,1.433,-0.848,0.0
24.706,1.244,-0.876,0.0
21.807,1.103,-0.901,0.0
19.335,0.981,-0.91,0.0
17.454,0.889,-0.922,0.0
32.129,1.643,-0.821,0.0
27.622,1.418,-0.865,0.0
23.914,1.232,-0.886,0.0
21.782,1.126,-0.935,0.0
18.791,0.975,-0.914,0.0
17.005,0.885,-0.926,0.0
30.926,1.616,-0.84,0.0
26.381,1.383,-0.868,0.0
21.881,1.151,-0.845,0.0
0.0,0.0,0.0,0.0
18.256,0.967,-0.917,0.0
16.53,0.878,-0.926,0.0
29.557,1.576,-0.849,0.0
25.31,1.354,-0.873,0.0
21.841,1.172,-0.879,1.0
19.189,1.033,-0.885,0.0
17.682,0.955,-0.917,0.0
16.164,0.876,-0.932,0.0
28.226,1.534,-0.857,0.0
24.349,1.327,-0.879,0.0
21.764,1.19,-0.911,0.0
19.065,1.046,-0.91,0.0
17.231,0.948,-0.922,0.0
15.723,0.868,-0.932,0.0
26.972,1.493,-0.862,0.0
21.946,1.218,-0.828,0.0
20.843,1.16,-0.907,0.0
0.0,0.0,0.0,0.0
16.659,0.933,-0.918,0.0
15.158,0.851,-0.923,0.0
25.635,1.443,-0.861,0.0
21.872,1.235,-0.861,5.0
20.177,1.142,-0.911,0.0
0.0,0.0,0.0,0.0
16.326,0.929,-0.927,0.0
15.031,0.858,-0.94,0.0
24.785,1.418,-0.873,0.0
21.798,1.25,-0.894,9.0
19.297,1.11,-0.902,0.0
0.0,0.0,0.0,0.0
15.938,0.921,-0.931,0.0
14.6,0.846,-0.937,0.0
23.83,1.384,-0.879,0.0
21.693,1.263,-0.925,0.0
19.125,1.116,-0.926,0.0
0.0,0.0,0.0,0.0
15.4,0.903,-0.925,0.0
14.287,0.84,-0.941,0.0
21.907,1.29,-0.844,3.0
20.509,1.211,-0.908,0.0
0.0,0.0,0.0,0.0
16.39,0.972,-0.916,0.0
15.067,0.896,-0.93,0.0
13.976,0.833,-0.943,0.0
21.824,1.302,-0.876,9.0
19.598,1.172,-0.9,0.0
0.0,0.0,0.0,0.0
15.908,0.956,-0.916,0.0
14.766,0.889,-0.935,0.0
13.753,0.83,-0.951,0.0
21.791,1.317,-0.911,2.0
19.365,1.173,-0.921,0.0
0.0,0.0,0.0,0.0
15.511,0.943,-0.919,0.0
14.437,0.88,-0.939,0.0
13.306,0.813,-0.942,0.0
21.806,1.333,-0.947,0.0
0.0,0.0,0.0,0.0
0.0,0.0,0.0,0.0
15.176,0.933,-0.924,0.0
14.066,0.867,-0.938,0.0
13.012,0.803,-0.943,0.0
19.785,1.222,-0.892,0.0
0.0,0.0,0.0,0.0
0.0,0.0,0.0,0.0
14.948,0.929,-0.934,0.0
13.899,0.865,-0.949,0.0
12.739,0.795,-0.944,0.0
19.459,1.214,-0.909,0.0
0.0,0.0,0.0,0.0
0.0,0.0,0.0,0.0
14.52,0.911,-0.932,0.0
13.472,0.847,-0.942,0.0
12.453,0.784,-0.943,0.0
0.0,0.0,0.0,0.0
0.0,0.0,0.0,0.0
0.0,0.0,0.0,0.0
14.252,0.902,-0.938,0.0
13.134,0.833,-0.94,0.0
12.146,0.771,-0.94,0.0
18.226,1.157,-0.911,0.0
0.0,0.0,0.0,0.0
14.966,0.953,-0.921,0.0
13.924,0.888,-0.939,0.0
12.9,0.824,-0.945,0.0
11.922,0.763,-0.943,0.0
0.0,0.0,0.0,0.0
0.0,0.0,0.0,0.0
14.724,0.945,-0.93,0.0
13.67,0.879,-0.944,0.0
12.591,0.81,-0.943,0.0
11.693,0.754,-0.943,0.0
0.0,0.0,0.0,0.0
0.0,0.0,0.0,0.0
14.415,0.931,-0.935,0.0
13.24,0.857,-0.936,0.0
12.329,0.799,-0.944,0.0
11.474,0.745,-0.945,0.0
16.685,1.082,-0.916,0.0
15.292,0.993,-0.928,0.0
14.112,0.917,-0.938,0.0
13.016,0.847,-0.942,0.0
12.025,0.784,-0.94,0.0
11.287,0.737,-0.948,0.0
0.0,0.0,0.0,0.0
14.977,0.978,-0.933,0.0
13.822,0.903,-0.941,0.0
12.711,0.832,-0.941,0.0
11.792,0.773,-0.941,0.0
11.077,0.727,-0.948,0.0
0.0,0.0,0.0,0.0
14.615,0.958,-0.934,0.0
13.405,0.88,-0.934,0.0
12.449,0.818,-0.941,0.0
11.578,0.762,-0.943,0.0
10.834,0.714,-0.945,0.0
0.0,0.0,0.0,0.0
14.187,0.934,-0.93,0.0
13.139,0.866,-0.937,0.0
12.205,0.805,-0.942,0.0
11.331,0.749,-0.941,0.0
10.666,0.706,-0.948,0.0
15.046,0.994,-0.923,0.0
13.947,0.922,-0.936,0.0
12.917,0.854,-0.942,0.0
11.94,0.791,-0.941,0.0
11.245,0.745,-0.952,0.0
10.406,0.69,-0.941,0.0
14.822,0.982,-0.933,0.0
13.655,0.905,-0.938,0.0
12.648,0.839,-0.942,0.0
11.715,0.778,-0.942,0.0
10.985,0.73,-0.947,0.0
10.312,0.686,-0.949,0.0
14.401,0.956,-0.929,0.0
13.38,0.889,-0.94,0.0
12.389,0.823,-0.942,0.0
11.48,0.764,-0.941,0.0
10.814,0.72,-0.949,0.0
10.13,0.675,-0.948,0.0
14.032,0.933,-0.926,0.0
13.034,0.867,-0.936,0.0
12.129,0.807,-0.941,0.0
11.307,0.753,-0.944,0.0
10.572,0.705,-0.944,0.0
9.946,0.664,-0.946,0.0
13.937,0.928,-0.942,0.0
12.801,0.852,-0.939,0.0
11.883,0.792,-0.94,0.0
11.082,0.739,-0.942,0.0
10.393,0.693,-0.944,0.0
9.8,0.654,-0.947,0.0
13.504,0.899,-0.933,0.0
12.522,0.834,-0.937,0.0
11.679,0.778,-0.942,0.0
10.876,0.725,-0.941,0.0
10.251,0.684,-0.947,0.0
9.639,0.643,-0.946,0.0
13.332,0.887,-0.941,0.0
12.284,0.818,-0.938,0.0
11.439,0.762,-0.94,0.0
10.681,0.712,-0.941,0.0
10.101,0.674,-0.948,0.0
9.469,0.632,-0.944,0.0
13.013,0.865,-0.938,0.0
12.034,0.801,-0.937,0.0
11.276,0.75,-0.943,0.0
10.525,0.701,-0.942,0.0
9.944,0.662,-0.948,0.0
9.351,0.623,-0.946,0.0
12.765,0.848,-0.939,0.0
11.808,0.784,-0.936,0.0
11.085,0.737,-0.943,0.0
10.351,0.688,-0.942,0.0
9.771,0.65,-0.946,0.0
9.199,0.612,-0.944,0.0
12.508,0.829,-0.938,0.0
11.631,0.771,-0.939,0.0
10.988,0.729,-0.951,0.0
10.2,0.676,-0.943,0.0
9.619,0.638,-0.945,0.0
9.117,0.605,-0.949,0.0
12.27,0.811,-0.938,0.0
11.411,0.754,-0.938,0.0
10.747,0.711,-0.946,0.0
10.065,0.666,-0.945,0.0
9.461,0.626,-0.943,0.0
8.937,0.591,-0.943,0.0
12.024,0.792,-0.936,0.0
11.252,0.741,-0.941,0.0
10.521,0.693,-0.94,0.0
9.916,0.653,-0.945,0.0
9.348,0.616,-0.945,0.0
8.803,0.58,-0.941,0.0
11.827,0.776,-0.937,0.0
10.956,0.719,-0.931,0.0
10.366,0.68,-0.941,0.0
9.778,0.642,-0.945,0.0
9.222,0.605,-0.945,0.0
8.713,0.572,-0.944,0.0
11.638,0.761,-0.938,0.0
10.897,0.712,-0.941,0.0
10.275,0.671,-0.947,0.0
9.62,0.628,-0.943,0.0
9.103,0.595,-0.945,0.0
8.609,0.562,-0.944,0.0
11.46,0.745,-0.938,0.0
10.692,0.695,-0.937,0.0
10.131,0.658,-0.947,0.0
9.507,0.618,-0.944,0.0
8.992,0.584,-0.946,0.0
8.495,0.552,-0.943,0.0
11.305,0.731,-0.941,0.0
10.591,0.685,-0.942,0.0
9.955,0.643,-0.943,0.0
9.381,0.606,-0.944,0.0
8.861,0.572,-0.943,0.0
8.399,0.542,-0.943,0.0
11.122,0.715,-0.94,0.0
10.39,0.667,-0.938,0.0
9.844,0.632,-0.945,0.0
9.272,0.595,-0.945,0.0
8.714,0.559,-0.939,0.0
8.306,0.533,-0.943,0.0
10.931,0.698,-0.937,0.0
10.287,0.656,-0.941,0.0
9.707,0.619,-0.944,0.0
9.19,0.586,-0.948,0.0
8.64,0.55,-0.942,0.0
8.207,0.523,-0.942,0.0
10.814,0.685,-0.94,0.0
10.181,0.644,-0.944,0.0
9.583,0.606,-0.944,0.0
9.025,0.571,-0.942,0.0
8.563,0.541,-0.944,0.0
8.139,0.514,-0.944,0.0
10.666,0.67,-0.94,0.0
10.071,0.632,-0.946,0.0
9.469,0.594,-0.944,0.0
8.926,0.56,-0.943,0.0
8.457,0.53,-0.942,0.0
8.05,0.504,-0.944,0.0
10.53,0.656,-0.941,0.0
9.921,0.618,-0.943,0.0
9.34,0.581,-0.942,0.0
8.792,0.546,-0.939,0.0
8.362,0.519,-0.941,0.0
7.959,0.494,-0.942,0.0
10.403,0.642,-0.941,0.0
9.784,0.603,-0.941,0.0
9.243,0.569,-0.943,0.0
8.702,0.536,-0.939,0.0
8.272,0.509,-0.94,0.0
7.884,0.485,-0.942,0.0
10.291,0.629,-0.942,0.0
9.684,0.591,-0.942,0.0
9.159,0.559,-0.944,0.0
8.652,0.527,-0.943,0.0
8.226,0.501,-0.944,0.0
7.847,0.477,-0.946,0.0
10.168,0.615,-0.942,0.0
9.572,0.578,-0.942,0.0
9.059,0.547,-0.943,0.0
8.56,0.516,-0.942,0.0
8.139,0.49,-0.943,0.0
7.786,0.469,-0.947,0.0
10.078,0.603,-0.944,0.0
9.468,0.565,-0.941,0.0
8.923,0.532,-0.938,0.0
8.494,0.506,-0.943,0.0
8.106,0.483,-0.947,0.0
7.714,0.459,-0.946,0.0
9.943,0.588,-0.941,0.0
9.398,0.555,-0.943,0.0
8.805,0.519,-0.935,0.0
8.367,0.493,-0.937,0.0
8.002,0.471,-0.943,0.0
7.638,0.449,-0.944,0.0
9.85,0.575,-0.942,0.0
9.259,0.54,-0.938,0.0
8.765,0.51,-0.939,0.0
8.346,0.485,-0.943,0.0
7.964,0.462,-0.946,0.0
7.596,0.44,-0.946,0.0
9.768,0.563,-0.943,0.0
9.214,0.53,-0.942,0.0
8.695,0.499,-0.939,0.0
8.263,0.474,-0.941,0.0
7.896,0.452,-0.945,0.0
7.536,0.431,-0.946,0.0
9.684,0.55,-0.943,0.0
9.093,0.516,-0.938,0.0
8.676,0.491,-0.945,0.0
8.224,0.465,-0.944,0.0
7.834,0.442,-0.945,0.0
7.505,0.423,-0.948,0.0
9.61,0.538,-0.944,0.0
9.046,0.506,-0.941,0.0
8.555,0.477,-0.939,0.0
8.115,0.452,-0.938,0.0
7.775,0.433,-0.944,0.0
7.441,0.413,-0.946,0.0
9.498,0.524,-0.941,0.0
8.97,0.494,-0.94,0.0
8.487,0.466,-0.938,0.0
8.084,0.443,-0.941,0.0
7.712,0.422,-0.942,0.0
7.395,0.404,-0.946,0.0
9.423,0.512,-0.941,0.0
8.894,0.482,-0.939,0.0
8.428,0.456,-0.938,0.0
8.056,0.435,-0.944,0.0
7.696,0.415,-0.946,0.0
7.364,0.396,-0.948,0.0
9.355,0.499,-0.941,0.0
8.842,0.471,-0.94,0.0
8.405,0.447,-0.942,0.0
8.009,0.425,-0.944,0.0
7.649,0.405,-0.946,0.0
7.33,0.387,-0.949,0.0
9.319,0.489,-0.944,0.0
8.765,0.459,-0.938,0.0
8.376,0.438,-0.944,0.0
7.934,0.414,-0.941,0.0
7.621,0.396,-0.948,0.0
7.288,0.378,-0.949,0.0
9.249,0.477,-0.943,0.0
8.744,0.449,-0.942,0.0
8.325,0.427,-0.944,0.0
7.881,0.403,-0.94,0.0
7.591,0.388,-0.949,0.0
7.243,0.369,-0.947,0.0
9.161,0.463,-0.94,0.0
8.651,0.436,-0.937,0.0
8.269,0.416,-0.943,0.0
7.845,0.394,-0.94,0.0
7.538,0.377,-0.947,0.0
7.249,0.362,-0.952,0.0
9.131,0.453,-0.942,0.0
8.634,0.427,-0.94,0.0
8.203,0.405,-0.94,0.0
7.843,0.386,-0.944,0.0
7.497,0.368,-0.946,0.0
7.204,0.353,-0.95,0.0
9.05,0.44,-0.938,0.0
8.603,0.417,-0.941,0.0
8.182,0.395,-0.942,0.0
7.788,0.375,-0.942,0.0
7.425,0.357,-0.941,0.0
7.163,0.343,-0.949,0.0
8.992,0.428,-0.937,0.0
8.557,0.406,-0.94,0.0
8.112,0.384,-0.938,0.0
7.77,0.366,-0.943,0.0
7.479,0.352,-0.951,0.0
7.165,0.336,-0.952,0.0
8.954,0.416,-0.937,0.0
8.531,0.396,-0.941,0.0
8.118,0.375,-0.942,0.0
7.754,0.357,-0.945,0.0
7.433,0.342,-0.948,0.0
7.118,0.326,-0.949,0.0
8.935,0.406,-0.939,0.0
8.524,0.386,-0.944,0.0
8.08,0.365,-0.941,0.0
7.73,0.348,-0.945,0.0
7.419,0.333,-0.949,0.0
7.121,0.319,-0.952,0.0
8.894,0.395,-0.937,0.0
8.433,0.373,-0.937,0.0
8.083,0.356,-0.944,0.0
7.722,0.339,-0.947,0.0
7.362,0.322,-0.944,0.0
7.101,0.31,-0.952,0.0
8.884,0.385,-0.939,0.0
8.49,0.366,-0.946,0.0
7.986,0.343,-0.935,0.0
7.697,0.33,-0.946,0.0
7.38,0.315,-0.949,0.0
7.049,0.3,-0.947,0.0
8.855,0.374,-0.939,0.0
8.43,0.354,-0.941,0.0
8.0,0.335,-0.939,0.0
7.656,0.319,-0.943,0.0
7.381,0.307,-0.951,0.0
7.075,0.293,-0.952,0.0
8.84,0.363,-0.939,0.0
8.354,0.342,-0.935,0.0
7.994,0.326,-0.94,0.0
7.664,0.311,-0.945,0.0
7.354,0.297,-0.949,0.0
7.03,0.283,-0.947,0.0
8.8,0.352,-0.936,0.0
8.386,0.334,-0.94,0.0
8.002,0.317,-0.942,0.0
7.627,0.301,-0.942,0.0
7.34,0.288,-0.948,0.0
7.041,0.276,-0.95,0.0
8.826,0.343,-0.94,0.0
8.374,0.324,-0.939,0.0
7.992,0.307,-0.942,0.0
7.643,0.293,-0.945,0.0
7.302,0.279,-0.944,0.0
7.012,0.266,-0.947,0.0
8.8,0.331,-0.938,0.0
8.365,0.314,-0.939,0.0
7.971,0.298,-0.94,0.0
7.586,0.282,-0.938,0.0
7.296,0.27,-0.944,0.0
7.062,0.26,-0.954,0.0
8.785,0.321,-0.937,0.0
8.417,0.306,-0.945,0.0
7.978,0.289,-0.941,0.0
7.62,0.274,-0.943,0.0
7.296,0.261,-0.944,0.0
7.034,0.251,-0.95,0.0
8.799,0.311,-0.939,0.0
8.354,0.294,-0.938,0.0
7.988,0.28,-0.942,0.0
7.612,0.265,-0.942,0.0
7.311,0.253,-0.946,0.0
7.057,0.243,-0.953,0.0
8.799,0.301,-0.938,0.0
8.397,0.286,-0.943,0.0
7.99,0.27,-0.942,0.0
7.633,0.257,-0.944,0.0
7.352,0.246,-0.951,0.0
7.058,0.235,-0.953,0.0
8.811,0.291,-0.939,0.0
8.399,0.276,-0.942,0.0
7.993,0.261,-0.942,0.0
7.63,0.248,-0.943,0.0
7.339,0.237,-0.948,0.0
7.043,0.226,-0.95,0.0
8.844,0.282,-0.941,0.0
8.415,0.266,-0.943,0.0
8.013,0.252,-0.943,0.0
7.655,0.239,-0.944,0.0
7.31,0.227,-0.943,0.0
7.07,0.219,-0.952,0.0
8.837,0.271,-0.939,0.0
8.418,0.256,-0.942,0.0
8.018,0.243,-0.942,0.0
7.643,0.23,-0.941,0.0
7.353,0.22,-0.947,0.0
7.07,0.21,-0.951,0.0
8.832,0.26,-0.937,0.0
8.431,0.247,-0.941,0.0
8.037,0.234,-0.942,0.0
7.652,0.221,-0.941,0.0
7.345,0.211,-0.944,0.0
7.104,0.203,-0.953,0.0
8.896,0.252,-0.941,0.0
8.48,0.238,-0.944,0.0
8.087,0.225,-0.946,0.0
7.693,0.213,-0.943,0.0
7.349,0.202,-0.943,0.0
7.11,0.194,-0.952,0.0
8.92,0.242,-0.941,0.0
8.483,0.228,-0.942,0.0
8.087,0.216,-0.943,0.0
7.721,0.205,-0.944,0.0
7.38,0.194,-0.944,0.0
7.129,0.186,-0.952,0.0
8.947,0.232,-0.94,0.0
8.486,0.218,-0.939,0.0
8.062,0.206,-0.937,0.0
7.727,0.196,-0.942,0.0
7.415,0.186,-0.946,0.0
7.138,0.178,-0.95,0.0
8.946,0.221,-0.936,0.0
8.525,0.209,-0.94,0.0
8.158,0.198,-0.945,0.0
7.76,0.187,-0.943,0.0
7.455,0.178,-0.947,0.0
7.162,0.17,-0.95,0.0
8.998,0.212,-0.938,0.0
8.59,0.2,-0.943,0.0
8.184,0.189,-0.944,0.0
7.806,0.179,-0.945,0.0
7.492,0.17,-0.948,0.0
7.17,0.162,-0.948,0.0
9.054,0.202,-0.939,0.0
8.605,0.191,-0.94,0.0
8.167,0.179,-0.938,0.0
7.803,0.17,-0.94,0.0
7.512,0.162,-0.947,0.0
7.17,0.153,-0.944,0.0
9.146,0.194,-0.944,0.0
8.647,0.181,-0.94,0.0
8.229,0.171,-0.94,0.0
7.828,0.161,-0.939,0.0
7.532,0.153,-0.945,0.0
7.222,0.146,-0.946,0.0
9.161,0.183,-0.94,0.0
8.709,0.172,-0.942,0.0
8.276,0.162,-0.941,0.0
7.891,0.153,-0.941,0.0
7.556,0.145,-0.943,0.0
7.315,0.139,-0.954,0.0
9.235,0.174,-0.942,0.0
8.729,0.163,-0.938,0.0
8.3,0.153,-0.938,0.0
7.907,0.144,-0.938,0.0
7.629,0.138,-0.947,0.0
7.32,0.131,-0.95,0.0
9.306,0.165,-0.943,0.0
8.805,0.154,-0.94,0.0
8.358,0.144,-0.939,0.0
7.985,0.136,-0.942,0.0
7.675,0.129,-0.948,0.0
7.32,0.122,-0.944,0.0
9.376,0.155,-0.943,0.0
8.831,0.144,-0.937,0.0
8.427,0.136,-0.94,0.0
8.008,0.128,-0.939,0.0
7.688,0.121,-0.943,0.0
7.396,0.115,-0.949,0.0
9.449,0.145,-0.943,0.0
8.921,0.135,-0.939,0.0
8.491,0.127,-0.941,0.0
8.027,0.119,-0.934,0.0
7.758,0.113,-0.946,0.0
7.446,0.107,-0.949,0.0
9.547,0.136,-0.945,0.0
8.998,0.126,-0.94,0.0
8.577,0.119,-0.943,0.0
8.121,0.111,-0.938,0.0
7.809,0.105,-0.945,0.0
7.499,0.099,-0.949,0.0
9.625,0.126,-0.945,0.0
9.093,0.118,-0.942,0.0
8.632,0.11,-0.942,0.0
8.185,0.103,-0.939,0.0
7.833,0.097,-0.941,0.0
7.522,0.091,-0.945,0.0
9.727,0.117,-0.946,0.0
9.167,0.109,-0.942,0.0
8.699,0.101,-0.941,0.0
8.261,0.094,-0.94,0.0
7.917,0.089,-0.944,0.0
7.598,0.084,-0.948,0.0
9.804,0.107,-0.944,0.0
9.307,0.1,-0.947,0.0
8.77,0.093,-0.94,0.0
8.301,0.086,-0.936,0.0
7.96,0.081,-0.941,0.0
7.655,0.076,-0.947,0.0
9.895,0.098,-0.943,0.0
9.366,0.091,-0.944,0.0
8.86,0.084,-0.941,0.0
8.444,0.078,-0.944,0.0
8.013,0.073,-0.94,0.0
7.692,0.068,-0.944,0.0
9.988,0.088,-0.942,0.0
9.492,0.082,-0.947,0.0
8.959,0.076,-0.942,0.0
8.526,0.07,-0.944,0.0
8.164,0.066,-0.949,0.0
7.797,0.061,-0.949,0.0
10.134,0.079,-0.945,0.0
9.586,0.073,-0.946,0.0
9.028,0.067,-0.94,0.0
8.621,0.062,-0.945,0.0
8.233,0.058,-0.948,0.0
7.841,0.053,-0.945,0.0
10.248,0.069,-0.945,0.0
9.668,0.064,-0.943,0.0
9.171,0.058,-0.945,0.0
8.687,0.054,-0.943,0.0
8.27,0.05,-0.942,0.0
7.916,0.046,-0.945,0.0
10.378,0.06,-0.945,0.0
9.821,0.055,-0.947,0.0
9.254,0.05,-0.942,0.0
8.747,0.045,-0.939,0.0
8.345,0.042,-0.941,0.0
8.027,0.039,-0.949,0.0
10.491,0.05,-0.943,0.0
9.907,0.045,-0.944,0.0
9.383,0.041,-0.944,0.0
8.887,0.037,-0.943,0.0
8.491,0.034,-0.947,0.0
8.066,0.031,-0.944,0.0
10.692,0.041,-0.948,0.0
10.073,0.037,-0.947,0.0
9.529,0.033,-0.947,0.0
9.013,0.029,-0.946,0.0
8.596,0.026,-0.948,0.0
8.158,0.024,-0.944,0.0
10.853,0.031,-0.949,0.0
