X,Y,Z,Reflectivity
23.855,0.489,-0.898,0.0
0.0,0.0,0.0,0.0
0.0,0.0,0.0,0.0
36.837,0.776,-0.81,0.0
31.131,0.661,-0.868,1.0
26.443,0.567,-0.89,0.0
22.781,0.493,-0.899,0.0
0.0,0.0,0.0,0.0
0.0,0.0,0.0,0.0
0.0,0.0,0.0,0.0
28.841,0.645,-0.855,0.0
25.075,0.565,-0.889,0.0
22.185,0.504,-0.915,0.0
0.0,0.0,0.0,0.0
0.0,0.0,0.0,0.0
32.537,0.757,-0.832,1.0
27.866,0.653,-0.877,0.0
24.091,0.569,-0.897,0.0
21.098,0.502,-0.908,0.0
0.0,0.0,0.0,0.0
36.958,0.892,-0.798,0.0
31.361,0.762,-0.859,1.0
26.322,0.644,-0.876,0.0
22.876,0.564,-0.893,0.0
20.396,0.506,-0.915,0.0
0.0,0.0,0.0,0.0
35.394,0.89,-0.829,0.0
29.588,0.749,-0.864,0.0
25.152,0.641,-0.883,0.0
22.277,0.571,-0.911,0.0
19.797,0.511,-0.924,0.0
0.0,0.0,0.0,0.0
32.613,0.852,-0.823,1.0
28.167,0.74,-0.874,0.0
24.166,0.639,-0.892,0.0
21.233,0.565,-0.907,0.0
18.869,0.505,-0.915,0.0
37.063,0.997,-0.789,0.0
31.498,0.852,-0.853,1.0
26.505,0.721,-0.871,0.0
22.996,0.629,-0.891,0.0
20.384,0.561,-0.908,0.0
18.378,0.509,-0.926,0.0
34.857,0.968,-0.806,0.0
29.803,0.833,-0.861,0.0
25.45,0.715,-0.883,0.0
22.242,0.628,-0.903,0.0
19.815,0.563,-0.919,0.0
17.871,0.51,-0.933,0.0
32.927,0.944,-0.822,1.0
28.45,0.819,-0.875,0.0
24.33,0.704,-0.89,0.0
21.36,0.621,-0.907,0.0
18.955,0.554,-0.915,0.0
17.051,0.501,-0.922,0.0
31.632,0.932,-0.848,2.0
26.49,0.785,-0.864,0.0
23.118,0.688,-0.888,0.0
20.49,0.613,-0.908,0.0
18.395,0.553,-0.922,0.0
16.611,0.501,-0.929,0.0
30.125,0.912,-0.864,1.0
25.57,0.777,-0.881,0.0
22.399,0.684,-0.901,0.0
19.903,0.61,-0.919,0.0
17.966,0.553,-0.934,0.0
16.18,0.501,-0.935,0.0
28.331,0.878,-0.865,0.0
24.415,0.76,-0.887,0.0
21.617,0.676,-0.911,0.0
18.764,0.589,-0.901,0.0
17.007,0.536,-0.916,0.0
15.681,0.496,-0.936,0.0
26.555,0.842,-0.861,0.0
23.237,0.74,-0.888,0.0
20.544,0.657,-0.904,0.0
18.404,0.591,-0.919,0.0
16.631,0.536,-0.927,0.0
15.197,0.491,-0.935,0.0
25.539,0.827,-0.876,0.0
22.376,0.727,-0.897,0.0
19.972,0.652,-0.917,0.0
17.853,0.584,-0.925,0.0
16.221,0.533,-0.935,0.0
14.833,0.489,-0.941,0.0
24.345,0.804,-0.88,0.0
21.491,0.712,-0.902,0.0
18.947,0.63,-0.905,0.0
17.089,0.57,-0.917,0.0
15.704,0.526,-0.934,0.0
14.485,0.486,-0.946,0.0
23.256,0.781,-0.884,0.0
20.616,0.695,-0.904,0.0
18.548,0.627,-0.921,0.0
16.705,0.567,-0.928,0.0
15.226,0.518,-0.934,0.0
14.132,0.483,-0.95,0.0
22.467,0.767,-0.897,0.0
19.979,0.684,-0.913,0.0
17.878,0.614,-0.921,0.0
16.179,0.557,-0.929,0.0
14.839,0.513,-0.938,0.0
13.751,0.477,-0.95,0.0
21.447,0.743,-0.896,0.0
18.942,0.658,-0.901,0.0
17.114,0.596,-0.914,0.0
15.719,0.549,-0.932,0.0
14.514,0.509,-0.945,0.0
13.311,0.468,-0.944,0.0
20.644,0.725,-0.901,0.0
18.561,0.654,-0.918,0.0
16.706,0.59,-0.923,0.0
15.264,0.54,-0.933,0.0
14.214,0.504,-0.952,0.0
13.017,0.463,-0.948,0.0
20.007,0.711,-0.91,0.0
17.974,0.64,-0.922,0.0
16.268,0.581,-0.929,0.0
14.848,0.532,-0.936,0.0
13.569,0.487,-0.934,0.0
12.637,0.455,-0.944,0.0
19.139,0.688,-0.906,0.0
17.08,0.615,-0.908,0.0
15.817,0.571,-0.933,0.0
14.503,0.525,-0.941,0.0
13.334,0.484,-0.943,0.0
12.359,0.449,-0.946,0.0
18.53,0.672,-0.912,0.0
16.77,0.61,-0.923,0.0
15.329,0.558,-0.932,0.0
14.165,0.517,-0.945,0.0
12.983,0.475,-0.942,0.0
12.07,0.443,-0.947,0.0
17.964,0.657,-0.917,0.0
16.238,0.595,-0.923,0.0
14.894,0.547,-0.934,0.0
13.678,0.503,-0.938,0.0
12.692,0.468,-0.945,0.0
11.759,0.434,-0.944,0.0
17.417,0.642,-0.921,0.0
15.857,0.585,-0.931,0.0
14.522,0.537,-0.937,0.0
13.303,0.493,-0.937,0.0
12.405,0.46,-0.946,0.0
11.494,0.427,-0.944,0.0
16.838,0.624,-0.921,0.0
15.371,0.571,-0.93,0.0
14.311,0.532,-0.949,0.0
13.044,0.486,-0.942,0.0
12.105,0.452,-0.945,0.0
11.283,0.422,-0.947,0.0
16.335,0.609,-0.923,0.0
14.969,0.559,-0.933,0.0
0.0,0.0,0.0,0.0
12.744,0.477,-0.944,0.0
11.776,0.441,-0.941,0.0
10.99,0.413,-0.942,0.0
15.947,0.597,-0.93,0.0
14.575,0.546,-0.934,0.0
13.436,0.504,-0.94,0.0
12.403,0.466,-0.941,0.0
11.576,0.435,-0.946,0.0
10.687,0.402,-0.935,0.0
15.441,0.579,-0.928,0.0
14.347,0.539,-0.945,0.0
13.091,0.492,-0.939,0.0
12.128,0.457,-0.942,0.0
11.328,0.427,-0.946,0.0
10.601,0.4,-0.947,0.0
15.064,0.566,-0.932,0.0
0.0,0.0,0.0,0.0
12.836,0.483,-0.943,0.0
11.831,0.446,-0.94,0.0
11.125,0.42,-0.948,0.0
10.378,0.392,-0.946,0.0
14.675,0.552,-0.934,0.0
13.514,0.509,-0.938,0.0
12.495,0.471,-0.94,0.0
11.605,0.438,-0.942,0.0
10.859,0.41,-0.945,0.0
10.199,0.385,-0.947,0.0
14.391,0.541,-0.941,0.0
13.178,0.496,-0.938,0.0
12.258,0.462,-0.944,0.0
11.385,0.429,-0.944,0.0
10.661,0.402,-0.946,0.0
10.002,0.377,-0.946,0.0
14.141,0.531,-0.949,0.0
12.915,0.485,-0.942,0.0
11.959,0.45,-0.941,0.0
11.153,0.42,-0.944,0.0
10.447,0.393,-0.945,0.0
9.825,0.37,-0.946,0.0
13.618,0.51,-0.937,0.0
12.601,0.472,-0.94,0.0
11.658,0.437,-0.938,0.0
10.904,0.409,-0.942,0.0
10.273,0.386,-0.947,0.0
9.652,0.362,-0.946,0.0
13.369,0.499,-0.942,0.0
12.356,0.462,-0.943,0.0
11.472,0.429,-0.942,0.0
10.676,0.399,-0.94,0.0
10.03,0.375,-0.942,0.0
9.494,0.355,-0.947,0.0
13.027,0.484,-0.94,0.0
12.094,0.45,-0.943,0.0
11.269,0.419,-0.944,0.0
10.496,0.39,-0.942,0.0
9.89,0.368,-0.945,0.0
9.314,0.347,-0.945,0.0
12.775,0.472,-0.943,0.0
11.787,0.436,-0.939,0.0
11.042,0.408,-0.944,0.0
10.328,0.382,-0.944,0.0
9.713,0.359,-0.944,0.0
9.167,0.339,-0.945,0.0
12.441,0.457,-0.939,0.0
11.55,0.424,-0.939,0.0
10.827,0.398,-0.943,0.0
10.159,0.373,-0.945,0.0
9.546,0.351,-0.944,0.0
8.989,0.33,-0.941,0.0
12.244,0.446,-0.943,0.0
11.37,0.414,-0.942,0.0
10.653,0.388,-0.945,0.0
9.959,0.363,-0.942,0.0
9.414,0.343,-0.946,0.0
8.861,0.323,-0.942,0.0
11.958,0.432,-0.94,0.0
11.146,0.403,-0.941,0.0
10.439,0.377,-0.942,0.0
9.821,0.355,-0.945,0.0
9.256,0.334,-0.944,0.0
8.694,0.314,-0.938,0.0
11.673,0.418,-0.936,0.0
11.003,0.394,-0.946,0.0
10.274,0.367,-0.943,0.0
9.65,0.345,-0.943,0.0
9.087,0.325,-0.941,0.0
8.591,0.307,-0.94,0.0
11.476,0.407,-0.938,0.0
10.722,0.38,-0.938,0.0
10.14,0.359,-0.947,0.0
9.49,0.335,-0.942,0.0
8.988,0.318,-0.945,0.0
8.503,0.3,-0.944,0.0
11.295,0.395,-0.94,0.0
10.574,0.37,-0.942,0.0
9.932,0.347,-0.942,0.0
9.374,0.327,-0.945,0.0
8.809,0.307,-0.939,0.0
8.374,0.292,-0.942,0.0
11.1,0.384,-0.94,0.0
10.407,0.359,-0.942,0.0
9.789,0.338,-0.943,0.0
9.237,0.318,-0.945,0.0
8.676,0.299,-0.938,0.0
8.274,0.284,-0.943,0.0
10.933,0.373,-0.942,0.0
10.221,0.348,-0.94,0.0
9.635,0.328,-0.942,0.0
9.091,0.309,-0.943,0.0
8.606,0.292,-0.943,0.0
8.226,0.279,-0.949,0.0
10.776,0.362,-0.944,0.0
10.084,0.338,-0.942,0.0
9.486,0.318,-0.941,0.0
8.949,0.299,-0.941,0.0
8.465,0.283,-0.939,0.0
8.069,0.269,-0.942,0.0
10.601,0.35,-0.943,0.0
9.941,0.328,-0.942,0.0
9.338,0.307,-0.939,0.0
8.836,0.29,-0.941,0.0
8.367,0.274,-0.94,0.0
7.953,0.261,-0.94,0.0
10.427,0.338,-0.942,0.0
9.792,0.317,-0.941,0.0
9.221,0.298,-0.94,0.0
8.676,0.28,-0.936,0.0
8.294,0.267,-0.943,0.0
7.892,0.254,-0.943,0.0
10.291,0.328,-0.944,0.0
9.683,0.308,-0.944,0.0
9.09,0.288,-0.939,0.0
8.608,0.272,-0.94,0.0
8.173,0.258,-0.94,0.0
7.808,0.246,-0.944,0.0
10.15,0.317,-0.944,0.0
9.535,0.297,-0.942,0.0
9.008,0.28,-0.942,0.0
8.538,0.265,-0.943,0.0
8.098,0.25,-0.942,0.0
7.74,0.239,-0.945,0.0
9.978,0.305,-0.94,0.0
9.447,0.288,-0.945,0.0
8.886,0.27,-0.94,0.0
8.411,0.255,-0.94,0.0
8.017,0.242,-0.942,0.0
7.663,0.231,-0.946,0.0
9.867,0.294,-0.942,0.0
9.305,0.277,-0.942,0.0
8.736,0.259,-0.935,0.0
8.351,0.247,-0.943,0.0
7.928,0.234,-0.942,0.0
7.575,0.223,-0.944,0.0
9.698,0.282,-0.937,0.0
9.171,0.266,-0.94,0.0
8.674,0.251,-0.939,0.0
8.237,0.238,-0.94,0.0
7.856,0.226,-0.942,0.0
7.531,0.216,-0.947,0.0
9.604,0.272,-0.939,0.0
9.06,0.256,-0.939,0.0
8.603,0.242,-0.941,0.0
8.166,0.229,-0.941,0.0
7.807,0.218,-0.945,0.0
7.483,0.209,-0.95,0.0
9.505,0.262,-0.94,0.0
8.961,0.246,-0.938,0.0
8.491,0.233,-0.938,0.0
8.072,0.22,-0.939,0.0
7.73,0.21,-0.945,0.0
7.393,0.2,-0.947,0.0
9.367,0.251,-0.937,0.0
8.889,0.237,-0.94,0.0
8.434,0.224,-0.941,0.0
8.006,0.212,-0.94,0.0
7.658,0.202,-0.944,0.0
7.336,0.193,-0.947,0.0
9.308,0.241,-0.941,0.0
8.767,0.226,-0.937,0.0
8.326,0.214,-0.938,0.0
7.929,0.203,-0.94,0.0
7.599,0.194,-0.945,0.0
7.286,0.185,-0.948,0.0
9.18,0.23,-0.937,0.0
8.693,0.217,-0.937,0.0
8.269,0.206,-0.939,0.0
7.868,0.195,-0.94,0.0
7.536,0.186,-0.944,0.0
7.245,0.178,-0.95,0.0
9.11,0.221,-0.939,0.0
8.627,0.208,-0.938,0.0
8.173,0.196,-0.936,0.0
7.793,0.186,-0.939,0.0
7.513,0.178,-0.948,0.0
7.154,0.169,-0.945,0.0
9.009,0.21,-0.937,0.0
8.548,0.198,-0.938,0.0
8.151,0.188,-0.941,0.0
7.761,0.178,-0.942,0.0
7.424,0.17,-0.944,0.0
7.102,0.161,-0.944,0.0
8.932,0.2,-0.936,0.0
8.467,0.188,-0.936,0.0
8.107,0.179,-0.943,0.0
7.68,0.169,-0.939,0.0
7.355,0.161,-0.942,0.0
7.087,0.154,-0.949,0.0
8.871,0.19,-0.938,0.0
8.375,0.179,-0.933,0.0
8.039,0.17,-0.942,0.0
7.617,0.16,-0.937,0.0
7.379,0.154,-0.951,0.0
7.02,0.146,-0.945,0.0
8.818,0.181,-0.939,0.0
8.351,0.17,-0.937,0.0
7.997,0.162,-0.944,0.0
7.599,0.153,-0.941,0.0
7.264,0.145,-0.942,0.0
6.985,0.138,-0.946,0.0
8.741,0.17,-0.937,0.0
8.324,0.161,-0.941,0.0
7.918,0.152,-0.94,0.0
7.55,0.144,-0.941,0.0
7.271,0.138,-0.948,0.0
6.96,0.131,-0.948,0.0
8.684,0.161,-0.938,0.0
8.247,0.152,-0.938,0.0
7.874,0.144,-0.941,0.0
7.549,0.137,-0.946,0.0
7.248,0.13,-0.95,0.0
0.0,0.0,0.0,0.0
8.618,0.151,-0.936,0.0
8.245,0.143,-0.943,0.0
7.855,0.135,-0.943,0.0
7.436,0.127,-0.937,0.0
7.189,0.122,-0.947,0.0
6.894,0.116,-0.948,0.0
8.577,0.141,-0.937,0.0
8.143,0.133,-0.936,0.0
7.811,0.126,-0.943,0.0
7.443,0.119,-0.942,0.0
7.121,0.113,-0.943,0.0
0.0,0.0,0.0,0.0
8.515,0.131,-0.936,0.0
8.095,0.124,-0.936,0.0
7.77,0.118,-0.943,0.0
7.422,0.111,-0.944,0.0
7.146,0.106,-0.95,0.0
6.833,0.1,-0.948,0.0
8.474,0.122,-0.936,0.0
8.01,0.114,-0.93,0.0
7.721,0.109,-0.941,0.0
0.0,0.0,0.0,0.0
7.085,0.097,-0.945,0.0
6.825,0.093,-0.95,0.0
8.476,0.113,-0.94,0.0
8.043,0.106,-0.938,0.0
7.726,0.101,-0.945,0.0
0.0,0.0,0.0,0.0
7.077,0.09,-0.948,0.0
6.783,0.085,-0.947,0.0
8.396,0.103,-0.935,0.0
8.016,0.097,-0.938,0.0
7.685,0.092,-0.944,0.0
0.0,0.0,0.0,0.0
7.049,0.082,-0.947,0.0
6.809,0.078,-0.954,0.0
8.382,0.094,-0.937,0.0
7.99,0.088,-0.939,0.0
7.644,0.083,-0.942,0.0
7.323,0.078,-0.945,0.0
7.033,0.074,-0.948,0.0
6.765,0.07,-0.95,0.0
8.356,0.084,-0.937,0.0
7.962,0.079,-0.938,0.0
7.651,0.074,-0.945,0.0
7.313,0.07,-0.946,0.0
7.058,0.066,-0.953,0.0
6.736,0.062,-0.948,0.0
8.322,0.075,-0.936,0.0
7.967,0.07,-0.941,0.0
7.603,0.066,-0.941,0.0
7.3,0.062,-0.946,0.0
0.0,0.0,0.0,0.0
6.729,0.055,-0.949,0.0
8.31,0.065,-0.937,0.0
7.924,0.061,-0.938,0.0
7.587,0.057,-0.941,0.0
7.259,0.053,-0.943,0.0
7.0,0.05,-0.949,0.0
6.704,0.047,-0.947,0.0
8.292,0.056,-0.937,0.0
7.898,0.052,-0.937,0.0
7.543,0.048,-0.938,0.0
7.243,0.045,-0.942,0.0
0.0,0.0,0.0,0.0
6.717,0.039,-0.951,0.0
8.263,0.047,-0.935,0.0
7.908,0.043,-0.939,0.0
7.537,0.04,-0.938,0.0
7.264,0.037,-0.946,0.0
0.0,0.0,0.0,0.0
6.722,0.032,-0.952,0.0
8.275,0.037,-0.937,0.0
7.922,0.034,-0.942,0.0
7.555,0.031,-0.941,0.0
7.236,0.029,-0.943,0.0
0.0,0.0,0.0,0.0
6.753,0.024,-0.957,0.0
8.253,0.028,-0.936,0.0
7.895,0.025,-0.94,0.0
7.555,0.023,-0.942,0.0
7.207,0.02,-0.94,0.0
0.0,0.0,0.0,0.0
6.71,0.016,-0.952,0.0
8.251,0.018,-0.936,0.0
7.897,0.016,-0.94,0.0
7.524,0.014,-0.938,0.0
7.211,0.012,-0.941,0.0
0.0,0.0,0.0,0.0
6.713,0.009,-0.952,0.0
8.283,0.009,-0.939,0.0
7.854,0.007,-0.935,0.0
7.568,0.006,-0.944,0.0
7.194,0.004,-0.938,0.0
0.0,0.0,0.0,0.0
6.708,0.001,-0.951,0.0
8.286,0.0,-0.939,0.0
7.909,-0.001,-0.941,0.0
7.57,-0.002,-0.943,0.0
7.249,-0.003,-0.945,0.0
0.0,0.0,0.0,0.0
6.699,-0.006,-0.949,0.0
8.295,-0.009,-0.94,0.0
7.908,-0.01,-0.94,0.0
7.594,-0.011,-0.945,0.0
7.192,-0.012,-0.937,0.0
0.0,0.0,0.0,0.0
6.715,-0.013,-0.951,0.0
8.262,-0.018,-0.935,0.0
7.922,-0.019,-0.94,0.0
7.57,-0.019,-0.941,0.0
7.263,-0.02,-0.945,0.0
0.0,0.0,0.0,0.0
6.716,-0.021,-0.949,0.0
8.263,-0.027,-0.933,0.0
7.912,-0.028,-0.938,0.0
7.556,-0.028,-0.938,0.0
0.0,0.0,0.0,0.0
0.0,0.0,0.0,0.0
6.737,-0.029,-0.951,0.0
8.307,-0.037,-0.936,0.0
7.946,-0.037,-0.94,0.0
7.646,-0.037,-0.947,0.0
0.0,0.0,0.0,0.0
0.0,0.0,0.0,0.0
6.74,-0.036,-0.949,0.0
8.322,-0.046,-0.935,0.0
7.952,-0.045,-0.938,0.0
7.595,-0.045,-0.939,0.0
0.0,0.0,0.0,0.0
7.032,-0.044,-0.949,0.0
6.772,-0.044,-0.952,0.0
8.367,-0.056,-0.938,0.0
8.002,-0.055,-0.942,0.0
7.665,-0.054,-0.945,0.0
7.28,-0.053,-0.939,0.0
6.992,-0.052,-0.941,0.0
6.777,-0.052,-0.95,0.0
8.381,-0.065,-0.936,0.0
8.021,-0.064,-0.941,0.0
7.653,-0.062,-0.94,0.0
0.0,0.0,0.0,0.0
7.069,-0.06,-0.948,0.0
6.804,-0.059,-0.951,0.0
8.414,-0.074,-0.936,0.0
8.026,-0.072,-0.938,0.0
7.673,-0.071,-0.939,0.0
7.351,-0.069,-0.942,0.0
7.071,-0.068,-0.945,0.0
6.836,-0.067,-0.952,0.0
8.443,-0.084,-0.936,0.0
8.049,-0.081,-0.937,0.0
7.73,-0.08,-0.943,0.0
7.371,-0.077,-0.941,0.0
7.13,-0.076,-0.95,0.0
6.866,-0.075,-0.953,0.0
8.494,-0.093,-0.937,0.0
8.106,-0.091,-0.939,0.0
7.754,-0.088,-0.941,0.0
7.425,-0.086,-0.944,0.0
7.136,-0.084,-0.947,0.0
6.889,-0.083,-0.952,0.0
8.564,-0.103,-0.94,0.0
8.136,-0.1,-0.938,0.0
7.774,-0.097,-0.939,0.0
7.386,-0.093,-0.934,0.0
7.21,-0.093,-0.952,0.0
6.928,-0.09,-0.954,0.0
8.59,-0.113,-0.938,0.0
8.181,-0.109,-0.938,0.0
7.831,-0.106,-0.942,0.0
7.45,-0.102,-0.938,0.0
7.219,-0.1,-0.949,0.0
6.96,-0.098,-0.953,0.0
8.649,-0.122,-0.939,0.0
8.243,-0.118,-0.94,0.0
7.881,-0.114,-0.942,0.0
7.555,-0.111,-0.946,0.0
7.232,-0.108,-0.946,0.0
6.931,-0.105,-0.945,0.0
8.732,-0.132,-0.942,0.0
8.24,-0.127,-0.934,0.0
7.9,-0.123,-0.939,0.0
7.586,-0.119,-0.944,0.0
7.258,-0.116,-0.944,0.0
6.999,-0.113,-0.949,0.0
8.769,-0.142,-0.939,0.0
8.314,-0.136,-0.936,0.0
7.962,-0.132,-0.94,0.0
7.595,-0.127,-0.94,0.0
7.302,-0.124,-0.944,0.0
7.051,-0.121,-0.95,0.0
8.814,-0.151,-0.938,0.0
8.387,-0.145,-0.938,0.0
7.998,-0.14,-0.938,0.0
7.659,-0.136,-0.942,0.0
7.351,-0.132,-0.944,0.0
7.085,-0.128,-0.949,0.0
8.926,-0.162,-0.942,0.0
8.46,-0.155,-0.939,0.0
8.068,-0.149,-0.94,0.0
7.705,-0.144,-0.941,0.0
7.415,-0.14,-0.946,0.0
7.128,-0.136,-0.949,0.0
9.022,-0.172,-0.945,0.0
8.513,-0.164,-0.938,0.0
8.132,-0.158,-0.94,0.0
7.765,-0.152,-0.941,0.0
7.458,-0.148,-0.945,0.0
7.158,-0.143,-0.946,0.0
9.08,-0.181,-0.943,0.0
8.605,-0.173,-0.94,0.0
8.185,-0.167,-0.939,0.0
7.841,-0.161,-0.943,0.0
7.505,-0.155,-0.944,0.0
7.2,-0.151,-0.945,0.0
9.176,-0.192,-0.944,0.0
8.652,-0.182,-0.937,0.0
8.256,-0.176,-0.939,0.0
7.894,-0.169,-0.942,0.0
7.563,-0.164,-0.944,0.0
7.288,-0.159,-0.95,0.0
9.287,-0.202,-0.946,0.0
8.741,-0.192,-0.938,0.0
8.35,-0.185,-0.942,0.0
7.939,-0.177,-0.939,0.0
7.627,-0.172,-0.944,0.0
7.311,-0.166,-0.945,0.0
9.37,-0.212,-0.945,0.0
8.866,-0.202,-0.942,0.0
8.396,-0.193,-0.938,0.0
8.022,-0.186,-0.941,0.0
7.691,-0.18,-0.944,0.0
7.4,-0.174,-0.949,0.0
9.472,-0.223,-0.945,0.0
8.959,-0.212,-0.943,0.0
8.528,-0.203,-0.944,0.0
8.096,-0.195,-0.941,0.0
7.715,-0.187,-0.938,0.0
7.474,-0.182,-0.95,0.0
9.594,-0.233,-0.947,0.0
9.053,-0.222,-0.943,0.0
8.581,-0.212,-0.94,0.0
8.189,-0.203,-0.942,0.0
7.813,-0.195,-0.942,0.0
7.519,-0.189,-0.947,0.0
9.705,-0.244,-0.947,0.0
9.193,-0.232,-0.947,0.0
8.699,-0.221,-0.943,0.0
8.269,-0.212,-0.942,0.0
7.886,-0.203,-0.941,0.0
7.595,-0.197,-0.948,0.0
9.851,-0.255,-0.95,0.0
9.278,-0.242,-0.945,0.0
8.798,-0.231,-0.943,0.0
8.377,-0.221,-0.944,0.0
7.986,-0.212,-0.943,0.0
7.639,-0.204,-0.944,0.0
9.963,-0.265,-0.949,0.0
9.417,-0.252,-0.947,0.0
8.901,-0.24,-0.943,0.0
8.449,-0.229,-0.942,0.0
8.067,-0.22,-0.943,0.0
7.732,-0.212,-0.946,0.0
10.125,-0.277,-0.952,0.0
9.543,-0.262,-0.948,0.0
9.01,-0.249,-0.944,0.0
8.556,-0.238,-0.943,0.0
8.161,-0.228,-0.944,0.0
7.799,-0.219,-0.944,0.0
10.282,-0.288,-0.953,0.0
9.688,-0.273,-0.95,0.0
9.141,-0.259,-0.946,0.0
8.667,-0.247,-0.944,0.0
8.268,-0.237,-0.945,0.0
7.883,-0.227,-0.944,0.0
10.419,-0.299,-0.952,0.0
9.851,-0.284,-0.953,0.0
9.289,-0.269,-0.948,0.0
8.774,-0.255,-0.944,0.0
8.385,-0.245,-0.947,0.0
7.979,-0.235,-0.944,0.0
10.548,-0.309,-0.95,0.0
9.972,-0.294,-0.951,0.0
9.419,-0.279,-0.949,0.0
8.871,-0.264,-0.942,0.0
8.471,-0.253,-0.945,0.0
8.08,-0.243,-0.945,0.0
10.749,-0.321,-0.953,0.0
10.139,-0.305,-0.953,0.0
9.557,-0.288,-0.95,0.0
9.02,-0.273,-0.946,0.0
8.599,-0.262,-0.948,0.0
8.15,-0.249,-0.942,0.0
10.908,-0.332,-0.952,0.0
10.268,-0.314,-0.951,0.0
9.711,-0.298,-0.951,0.0
9.193,-0.284,-0.951,0.0
8.7,-0.27,-0.946,0.0
8.267,-0.257,-0.943,0.0
11.113,-0.345,-0.954,0.0
10.442,-0.325,-0.952,0.0
9.868,-0.308,-0.952,0.0
9.351,-0.293,-0.953,0.0
8.801,-0.277,-0.944,0.0
8.379,-0.265,-0.944,0.0
11.273,-0.355,-0.951,0.0
10.647,-0.337,-0.955,0.0
10.036,-0.319,-0.954,0.0
9.476,-0.302,-0.952,0.0
8.95,-0.286,-0.947,0.0
8.529,-0.274,-0.948,0.0
11.474,-0.367,-0.951,0.0
10.848,-0.348,-0.957,0.0
10.206,-0.329,-0.955,0.0
9.624,-0.311,-0.952,0.0
9.144,-0.296,-0.953,0.0
8.653,-0.282,-0.948,0.0
11.679,-0.378,-0.951,0.0
11.039,-0.359,-0.957,0.0
10.393,-0.339,-0.956,0.0
9.788,-0.32,-0.953,0.0
9.288,-0.305,-0.954,0.0
8.76,-0.289,-0.947,0.0
12.034,-0.395,-0.961,0.0
11.22,-0.369,-0.955,0.0
10.563,-0.349,-0.955,0.0
9.959,-0.33,-0.955,0.0
9.426,-0.313,-0.954,0.0
8.9,-0.297,-0.948,0.0
12.278,-0.407,-0.961,0.0
11.405,-0.379,-0.953,0.0
10.772,-0.359,-0.957,0.0
10.15,-0.34,-0.957,0.0
9.596,-0.322,-0.955,0.0
9.07,-0.305,-0.951,0.0
12.518,-0.419,-0.96,0.0
11.625,-0.39,-0.953,0.0
10.954,-0.369,-0.956,0.0
10.35,-0.349,-0.959,0.0
9.746,-0.33,-0.955,0.0
9.251,-0.314,-0.955,0.0
12.76,-0.431,-0.958,0.0
11.968,-0.405,-0.962,0.0
11.175,-0.379,-0.957,0.0
10.509,-0.358,-0.956,0.0
9.933,-0.339,-0.956,0.0
9.406,-0.322,-0.955,0.0
13.083,-0.446,-0.961,0.0
12.258,-0.418,-0.964,0.0
11.37,-0.389,-0.954,0.0
10.734,-0.368,-0.959,0.0
10.14,-0.348,-0.959,0.0
9.577,-0.33,-0.957,0.0
13.39,-0.459,-0.961,0.0
12.5,-0.429,-0.963,0.0
11.584,-0.399,-0.953,0.0
10.903,-0.376,-0.956,0.0
10.326,-0.357,-0.96,0.0
9.722,-0.337,-0.955,0.0
13.575,-0.468,-0.951,0.0
12.747,-0.44,-0.96,0.0
11.956,-0.413,-0.963,0.0
11.171,-0.387,-0.96,0.0
10.5,-0.364,-0.958,0.0
9.927,-0.345,-0.958,0.0
13.976,-0.484,-0.955,0.0
13.059,-0.453,-0.961,0.0
12.291,-0.427,-0.969,0.0
11.375,-0.396,-0.958,0.0
10.729,-0.374,-0.96,0.0
10.128,-0.353,-0.959,0.0
14.376,-0.499,-0.958,0.0
13.378,-0.465,-0.962,0.0
12.482,-0.435,-0.962,0.0
11.58,-0.404,-0.955,0.0
10.956,-0.382,-0.961,0.0
10.315,-0.361,-0.959,0.0
14.641,-0.509,-0.95,0.0
13.607,-0.474,-0.954,0.0
12.754,-0.445,-0.961,0.0
11.967,-0.418,-0.966,0.0
11.176,-0.391,-0.96,0.0
10.528,-0.368,-0.96,0.0
15.919,-0.554,-1.005,0.0
13.969,-0.487,-0.955,0.0
13.07,-0.456,-0.961,0.0
12.3,-0.43,-0.97,0.0
11.395,-0.398,-0.959,0.0
10.735,-0.376,-0.959,0.0
16.143,-0.562,-0.99,0.0
14.415,-0.502,-0.959,0.0
13.41,-0.468,-0.962,0.0
12.513,-0.437,-0.964,0.0
11.64,-0.407,-0.958,0.0
10.992,-0.384,-0.963,0.0
16.256,-0.565,-0.968,1.0
14.656,-0.51,-0.949,0.0
13.685,-0.476,-0.957,0.0
12.8,-0.446,-0.964,0.0
12.003,-0.418,-0.966,0.0
11.212,-0.391,-0.961,0.0
16.335,-0.567,-0.943,1.0
15.983,-0.555,-1.006,0.0
14.05,-0.488,-0.957,0.0
13.133,-0.456,-0.965,0.0
12.31,-0.428,-0.969,0.0
11.468,-0.398,-0.962,0.0
16.386,-0.566,-0.916,0.0
16.23,-0.561,-0.992,0.0
14.434,-0.499,-0.957,0.0
13.422,-0.464,-0.961,0.0
12.557,-0.434,-0.965,0.0
11.691,-0.404,-0.96,0.0
16.47,-0.567,-0.891,0.0
16.296,-0.561,-0.966,1.0
14.735,-0.507,-0.95,0.0
13.711,-0.472,-0.957,0.0
12.9,-0.444,-0.968,0.0
12.083,-0.416,-0.969,0.0
16.573,-0.567,-0.866,0.0
16.476,-0.563,-0.946,0.0
16.189,-0.553,-1.014,0.0
14.088,-0.481,-0.957,0.0
13.216,-0.451,-0.967,0.0
12.345,-0.421,-0.967,0.0
16.722,-0.568,-0.842,0.0
16.649,-0.565,-0.925,0.0
16.402,-0.556,-0.997,0.0
14.485,-0.491,-0.957,0.0
13.465,-0.456,-0.96,0.0
12.639,-0.428,-0.967,0.0
16.987,-0.572,-0.824,0.0
16.734,-0.563,-0.898,0.0
16.633,-0.559,-0.98,0.0
14.85,-0.499,-0.953,0.0
13.87,-0.466,-0.962,0.0
12.958,-0.435,-0.967,0.0
17.576,-0.586,-0.82,0.0
16.845,-0.561,-0.873,0.0
16.796,-0.559,-0.958,0.0
0.0,0.0,0.0,0.0
14.287,-0.475,-0.965,0.0
13.308,-0.442,-0.968,0.0
18.229,-0.602,-0.816,0.0
17.014,-0.561,-0.85,0.0
16.979,-0.559,-0.936,0.0
16.854,-0.554,-1.019,0.0
14.564,-0.478,-0.956,0.0
13.566,-0.445,-0.961,0.0
19.157,-0.625,-0.822,0.0
17.249,-0.561,-0.829,0.0
17.112,-0.556,-0.911,0.0
17.072,-0.554,-0.999,0.0
14.931,-0.484,-0.952,0.0
13.971,-0.452,-0.963,0.0
19.651,-0.632,-0.805,8.0
17.792,-0.571,-0.821,0.0
17.227,-0.552,-0.885,0.0
17.216,-0.551,-0.975,0.0
15.608,-0.498,-0.965,0.0
14.352,-0.457,-0.962,0.0
20.0,-0.634,-0.782,2.0
18.305,-0.579,-0.811,0.0
17.397,-0.549,-0.861,0.0
17.34,-0.546,-0.95,0.0
17.441,-0.548,-1.046,0.0
14.633,-0.459,-0.953,0.0
21.395,-0.667,-0.797,0.0
19.364,-0.602,-0.821,0.0
17.648,-0.547,-0.84,0.0
17.57,-0.543,-0.929,0.0
17.609,-0.543,-1.022,0.0
15.164,-0.467,-0.959,0.0
22.283,-0.682,-0.787,1.0
19.987,-0.61,-0.81,3.0
18.046,-0.549,-0.824,0.0
17.814,-0.541,-0.908,0.0
17.512,-0.53,-0.983,0.0
15.618,-0.471,-0.958,0.0
23.658,-0.71,-0.791,6.0
20.685,-0.619,-0.799,2.0
18.647,-0.556,-0.817,0.0
17.986,-0.535,-0.883,0.0
17.705,-0.525,-0.961,0.0
18.089,-0.534,-1.076,0.0
23.859,-0.701,-0.753,19.0
21.635,-0.633,-0.795,0.0
19.431,-0.567,-0.814,0.0
18.278,-0.531,-0.863,1.0
18.31,-0.53,-0.959,0.0
24.744,-0.71,-0.734,11.0
22.844,-0.653,-0.796,0.0
20.301,-0.578,-0.812,0.0
18.613,-0.528,-0.843,0.0
18.624,-0.526,-0.94,0.0
18.656,-0.525,-1.039,0.0
27.479,-0.768,-0.764,1.0
23.761,-0.662,-0.783,15.0
20.915,-0.58,-0.798,0.0
19.026,-0.525,-0.826,0.0
18.892,-0.52,-0.918,0.0
18.921,-0.518,-1.018,0.0
28.786,-0.783,-0.746,1.0
24.274,-0.658,-0.755,24.0
22.289,-0.601,-0.808,1.0
19.65,-0.527,-0.816,0.0
19.258,-0.515,-0.9,1.0
19.283,-0.513,-1.001,0.0
30.394,-0.803,-0.731,24.0
25.277,-0.665,-0.739,6.0
23.622,-0.618,-0.813,4.0
20.44,-0.532,-0.811,0.0
19.549,-0.506,-0.877,1.0
19.582,-0.505,-0.98,0.0
30.59,-0.783,-0.679,37.0
27.881,-0.709,-0.763,1.0
23.789,-0.602,-0.774,19.0
21.276,-0.536,-0.804,0.0
19.954,-0.5,-0.858,1.0
19.987,-0.498,-0.963,0.0
31.048,-0.767,-0.631,30.0
0.0,0.0,0.0,0.0
24.523,-0.599,-0.753,14.0
22.257,-0.541,-0.801,1.0
20.307,-0.49,-0.836,1.0
20.417,-0.49,-0.946,0.0
31.534,-0.751,-0.583,4.0
30.47,-0.721,-0.721,28.0
25.307,-0.595,-0.729,4.0
23.694,-0.553,-0.808,7.0
20.883,-0.484,-0.82,1.0
20.856,-0.481,-0.928,1.0
38.038,-0.869,-0.632,23.0
30.777,-0.698,-0.67,31.0
28.255,-0.637,-0.762,3.0
23.826,-0.533,-0.768,6.0
21.653,-0.481,-0.81,0.0
21.328,-0.47,-0.909,0.0
38.405,-0.84,-0.567,17.0
31.347,-0.68,-0.625,19.0
30.356,-0.653,-0.763,8.0
25.302,-0.54,-0.769,1.0
22.489,-0.477,-0.8,2.0
21.898,-0.46,-0.893,1.0
38.368,-0.799,-0.496,56.0
37.816,-0.782,-0.685,13.0
30.525,-0.626,-0.711,32.0
27.238,-0.553,-0.779,1.0
23.444,-0.472,-0.792,1.0
22.691,-0.453,-0.884,1.0
45.283,-0.896,-0.504,19.0
38.141,-0.747,-0.622,21.0
31.032,-0.603,-0.667,28.0
28.693,-0.552,-0.769,7.0
25.454,-0.485,-0.814,1.0
23.586,-0.445,-0.877,1.0
45.558,-0.851,-0.425,15.0
44.869,-0.83,-0.651,5.0
31.496,-0.576,-0.62,2.0
0.0,0.0,0.0,0.0
26.661,-0.478,-0.805,4.0
24.284,-0.431,-0.859,2.0
52.931,-0.929,-0.399,48.0
44.96,-0.78,-0.572,34.0
37.911,-0.651,-0.68,13.0
30.589,-0.519,-0.71,28.0
27.983,-0.47,-0.795,1.0
25.323,-0.42,-0.851,3.0
59.511,-0.975,-0.345,7.0
45.362,-0.735,-0.498,15.0
38.319,-0.613,-0.62,14.0
31.29,-0.494,-0.672,14.0
29.478,-0.46,-0.786,8.0
26.291,-0.405,-0.838,2.0
59.575,-0.906,-0.242,2.0
52.951,-0.794,-0.49,14.0
44.804,-0.663,-0.647,13.0
35.916,-0.524,-0.709,2.0
30.39,-0.437,-0.758,22.0
27.37,-0.388,-0.825,2.0
59.521,-0.832,-0.138,16.0
56.61,-0.779,-0.426,9.0
45.035,-0.611,-0.573,19.0
37.943,-0.507,-0.685,23.0
31.286,-0.411,-0.727,24.0
28.566,-0.369,-0.813,1.0
59.555,-0.758,-0.038,45.0
56.528,-0.707,-0.33,4.0
45.861,-0.564,-0.506,2.0
38.416,-0.464,-0.628,14.0
32.126,-0.381,-0.693,2.0
20.201,-0.235,-0.54,8.0
56.229,-0.642,0.06,1.0
56.176,-0.629,-0.232,2.0
52.792,-0.58,-0.493,5.0
44.823,-0.482,-0.657,13.0
36.209,-0.381,-0.719,3.0
20.193,-0.208,-0.506,23.0
56.191,-0.567,0.154,5.0
56.232,-0.554,-0.138,15.0
56.552,-0.545,-0.434,0.0
44.969,-0.423,-0.584,27.0
20.171,-0.185,-0.367,17.0
20.183,-0.18,-0.472,25.0
53.357,-0.466,0.234,6.0
53.337,-0.453,-0.043,7.0
20.174,-0.166,-0.121,6.0
20.135,-0.161,-0.228,14.0
20.16,-0.157,-0.334,27.0
20.166,-0.152,-0.439,34.0
20.194,-0.148,0.122,15.0
20.162,-0.143,0.016,18.0
20.174,-0.138,-0.088,19.0
20.144,-0.133,-0.196,15.0
20.139,-0.128,-0.301,34.0
20.148,-0.123,-0.406,37.0
20.151,-0.119,0.154,23.0
20.147,-0.114,0.048,31.0
20.149,-0.109,-0.056,27.0
20.146,-0.104,-0.164,29.0
20.131,-0.099,-0.268,36.0
20.149,-0.094,-0.374,27.0
20.128,-0.089,0.185,27.0
20.147,-0.084,0.08,40.0
20.129,-0.079,-0.024,30.0
20.142,-0.074,-0.132,33.0
20.148,-0.07,-0.237,20.0
20.155,-0.065,-0.343,24.0
20.125,-0.06,0.217,29.0
20.118,-0.055,0.111,36.0
20.125,-0.049,0.006,34.0
20.137,-0.044,-0.101,34.0
20.163,-0.039,-0.206,20.0
20.173,-0.034,-0.312,21.0
20.12,-0.029,0.248,28.0
20.116,-0.024,0.142,29.0
20.141,-0.019,0.037,28.0
20.161,-0.014,-0.07,19.0
20.185,-0.009,-0.176,12.0
20.234,-0.003,-0.283,8.0
20.129,0.001,0.278,29.0
20.129,0.006,0.173,28.0
20.152,0.011,0.067,32.0
20.234,0.017,-0.04,152.0
20.261,0.022,-0.147,151.0
20.251,0.027,-0.253,151.0
20.142,0.032,0.309,31.0
20.141,0.038,0.203,27.0
20.146,0.043,0.097,28.0
20.203,0.048,-0.01,17.0
20.222,0.054,-0.117,25.0
20.209,0.059,-0.223,7.0
20.146,0.064,0.338,28.0
20.151,0.07,0.232,27.0
20.15,0.075,0.126,26.0
20.199,0.081,0.018,34.0
20.193,0.086,-0.087,32.0
20.185,0.092,-0.194,26.0
20.156,0.097,0.367,29.0
20.162,0.103,0.261,28.0
20.162,0.108,0.155,26.0
20.185,0.114,0.047,35.0
20.185,0.119,-0.059,28.0
20.173,0.125,-0.165,41.0
20.162,0.13,0.396,27.0
20.178,0.136,0.289,25.0
20.17,0.141,0.183,22.0
20.215,0.147,0.074,29.0
20.222,0.153,-0.031,25.0
20.184,0.158,-0.138,25.0
20.232,0.164,0.424,26.0
20.243,0.17,0.318,25.0
20.282,0.176,0.211,27.0
20.309,0.181,0.102,29.0
20.321,0.187,-0.004,31.0
20.219,0.192,-0.111,7.0
20.274,0.199,0.452,34.0
20.271,0.204,0.345,34.0
20.284,0.21,0.238,26.0
20.305,0.216,0.129,24.0
20.32,0.221,0.021,7.0
0.0,0.0,0.0,0.0
20.281,0.233,0.479,26.0
20.279,0.238,0.371,25.0
20.28,0.244,0.264,19.0
20.296,0.25,0.154,1.0
99.608,1.257,0.232,6.0
0.0,0.0,0.0,0.0
20.288,0.268,0.505,11.0
20.3,0.274,0.398,3.0
195.12,2.692,2.79,21.0
0.0,0.0,0.0,0.0
99.658,1.432,0.358,5.0
99.658,1.46,-0.17,1.0
196.753,2.947,5.147,18.0
196.214,2.993,4.089,25.0
194.79,3.026,3.024,35.0
0.0,0.0,0.0,0.0
99.783,1.608,0.479,5.0
99.832,1.637,-0.05,4.0
136.33,2.281,3.73,2.0
194.695,3.315,4.293,13.0
194.755,3.373,3.259,27.0
0.0,0.0,0.0,0.0
99.902,1.787,0.598,3.0
99.879,1.817,0.067,10.0
0.0,0.0,0.0,0.0
194.581,3.658,4.517,15.0
194.736,3.719,3.484,6.0
103.13,1.999,1.285,7.0
102.985,2.026,0.734,6.0
99.946,1.995,0.18,1.0
0.0,0.0,0.0,0.0
194.607,4.007,4.737,16.0
196.331,4.101,3.733,6.0
195.651,4.143,2.656,16.0
0.0,0.0,0.0,0.0
99.975,2.175,0.29,1.0
0.0,0.0,0.0,0.0
194.784,4.364,4.956,24.0
193.916,4.401,3.898,25.0
195.302,4.491,2.864,25.0
0.0,0.0,0.0,0.0
100.142,2.361,0.398,3.0
0.0,0.0,0.0,0.0
194.4,4.708,5.151,23.0
193.893,4.753,4.101,28.0
195.005,4.839,3.063,13.0
0.0,0.0,0.0,0.0
103.097,2.62,0.517,2.0
193.321,4.983,6.359,8.0
194.399,5.069,5.354,25.0
193.674,5.106,4.296,27.0
193.536,5.161,3.238,23.0
195.14,5.261,2.218,27.0
103.086,2.811,0.62,1.0
193.153,5.339,6.548,19.0
194.205,5.426,5.543,9.0
193.784,5.469,4.489,27.0
193.515,5.518,3.425,12.0
195.562,5.635,2.414,26.0
196.006,5.705,1.366,27.0
194.117,5.726,6.767,10.0
192.959,5.747,5.69,7.0
193.929,5.833,4.676,24.0
194.044,5.895,3.617,13.0
195.442,5.995,2.594,8.0
196.117,6.072,1.548,18.0
193.642,6.071,6.928,19.0
195.451,6.183,5.94,6.0
193.864,6.191,4.849,9.0
195.201,6.293,3.814,18.0
195.213,6.353,2.764,10.0
0.0,0.0,0.0,0.0
193.744,6.44,7.104,26.0
193.482,6.489,6.053,14.0
194.968,6.596,5.049,7.0
195.165,6.66,3.982,20.0
195.037,6.713,2.929,19.0
202.854,7.04,1.952,26.0
193.682,6.801,7.266,24.0
0.0,0.0,0.0,0.0
194.825,6.958,5.207,12.0
195.06,7.022,4.14,7.0
202.754,7.358,3.209,7.0
203.258,7.437,2.12,5.0
194.671,7.204,7.46,13.0
193.939,7.235,6.385,7.0
194.792,7.325,5.361,7.0
195.129,7.397,4.297,19.0
195.102,7.452,3.241,17.0
0.0,0.0,0.0,0.0
195.473,7.608,7.644,18.0
193.381,7.581,6.514,20.0
193.41,7.64,5.469,9.0
196.712,7.83,4.479,9.0
203.908,8.178,3.54,16.0
199.224,8.05,2.38,5.0
195.352,7.98,7.784,20.0
193.425,7.957,6.658,18.0
193.344,8.011,5.608,22.0
0.0,0.0,0.0,0.0
197.018,8.278,3.559,5.0
0.0,0.0,0.0,0.0
193.609,8.278,7.848,6.0
193.741,8.341,6.802,27.0
193.807,8.4,5.753,9.0
195.416,8.528,4.721,23.0
195.486,8.588,3.661,51.0
204.97,9.065,2.727,22.0
193.309,8.636,7.965,17.0
193.561,8.703,6.921,28.0
193.518,8.759,5.868,24.0
0.0,0.0,0.0,0.0
0.0,0.0,0.0,0.0
204.905,9.455,2.853,23.0
193.077,9.0,8.074,22.0
193.288,9.064,7.031,28.0
193.57,9.134,5.988,9.0
196.236,9.315,4.981,13.0
197.016,9.411,3.929,5.0
0.0,0.0,0.0,0.0
192.967,9.365,8.183,8.0
192.773,9.411,7.122,23.0
0.0,0.0,0.0,0.0
194.116,9.588,5.036,19.0
197.947,9.833,4.056,8.0
197.652,9.877,2.974,15.0
192.965,9.734,8.286,22.0
197.179,10.001,7.389,6.0
193.901,9.891,6.207,9.0
0.0,0.0,0.0,0.0
196.811,10.152,4.132,5.0
0.0,0.0,0.0,0.0
192.953,10.103,8.381,21.0
193.112,10.167,7.332,7.0
193.692,10.25,6.294,7.0
0.0,0.0,0.0,0.0
196.484,10.513,4.218,7.0
196.099,10.547,3.137,14.0
192.79,10.463,8.462,14.0
193.757,10.571,7.444,7.0
195.989,10.745,6.455,6.0
196.039,10.802,5.364,23.0
196.026,10.855,4.29,17.0
0.0,0.0,0.0,0.0
193.762,10.883,8.586,11.0
193.676,10.933,7.52,7.0
192.835,10.939,6.429,7.0
195.053,11.119,5.414,7.0
197.571,11.316,4.4,5.0
0.0,0.0,0.0,0.0
193.934,11.264,8.667,21.0
163.925,9.567,6.425,4.0
192.533,11.291,6.49,5.0
0.0,0.0,0.0,0.0
0.0,0.0,0.0,0.0
0.0,0.0,0.0,0.0
193.329,11.601,8.706,15.0
0.0,0.0,0.0,0.0
192.883,11.676,6.564,5.0
0.0,0.0,0.0,0.0
195.989,11.975,4.496,8.0
0.0,0.0,0.0,0.0
109.979,6.807,4.985,1.0
163.084,10.137,6.495,4.0
162.859,10.168,5.588,8.0
0.0,0.0,0.0,0.0
196.063,12.35,4.55,5.0
202.41,12.806,3.585,5.0
107.804,6.877,4.914,2.0
0.0,0.0,0.0,0.0
162.651,10.463,5.621,4.0
0.0,0.0,0.0,0.0
174.025,11.288,4.078,18.0
0.0,0.0,0.0,0.0
0.0,0.0,0.0,0.0
0.0,0.0,0.0,0.0
167.917,11.113,5.838,10.0
162.696,10.812,4.742,12.0
178.754,11.927,4.223,12.0
0.0,0.0,0.0,0.0
121.751,8.221,5.6,5.0
110.573,7.495,4.473,1.0
156.879,10.674,5.48,13.0
169.138,11.554,4.956,13.0
168.007,11.522,3.995,17.0
210.311,14.478,3.839,13.0
157.279,10.915,7.255,5.0
0.0,0.0,0.0,0.0
156.495,10.941,5.486,8.0
155.674,10.924,4.579,16.0
178.171,12.549,4.256,7.0
201.448,14.241,3.699,8.0
107.431,7.653,4.966,4.0
161.748,11.565,6.58,4.0
160.786,11.536,5.65,5.0
154.996,11.159,4.572,7.0
162.047,11.709,3.882,42.0
173.16,12.559,3.19,33.0
96.514,7.053,4.468,1.0
163.683,12.002,6.668,6.0
163.72,12.046,5.761,5.0
166.612,12.3,4.922,15.0
167.236,12.39,4.013,9.0
167.946,12.488,3.099,30.0
96.409,7.222,4.465,9.0
96.65,7.263,3.939,8.0
153.19,11.551,5.392,3.0
156.963,11.874,4.636,36.0
162.49,12.333,3.898,10.0
162.087,12.345,2.988,18.0
96.975,7.438,4.489,1.0
107.956,8.306,4.397,3.0
154.557,11.928,5.434,10.0
167.28,12.95,4.935,22.0
155.577,12.082,3.726,38.0
155.973,12.151,2.868,34.0
96.906,7.603,4.481,3.0
109.939,8.652,4.471,3.0
167.047,13.186,5.862,16.0
154.948,12.27,4.559,19.0
194.8,15.474,4.648,18.0
156.013,12.431,2.855,33.0
87.738,7.04,4.048,2.0
99.662,8.02,4.043,2.0
193.387,15.608,6.767,6.0
161.131,13.044,4.724,22.0
194.808,15.819,4.626,14.0
196.435,15.999,3.568,26.0
87.766,7.197,4.038,3.0
143.574,11.805,5.804,10.0
156.998,12.946,5.47,13.0
196.31,16.234,5.724,9.0
194.892,16.164,4.596,10.0
202.888,16.875,3.652,11.0
87.5,7.326,4.011,5.0
121.132,10.17,4.876,8.0
144.071,12.129,4.994,13.0
144.329,12.183,4.181,5.0
197.019,16.677,4.607,18.0
199.516,16.935,3.553,10.0
87.537,7.479,3.994,9.0
99.933,8.56,4.001,5.0
121.074,10.397,4.171,28.0
143.894,12.39,4.136,33.0
197.805,17.078,4.58,5.0
158.777,13.745,2.79,6.0
87.392,7.614,3.966,11.0
109.88,9.596,4.372,6.0
121.12,10.605,4.141,22.0
143.746,12.618,4.095,32.0
152.717,13.44,3.495,21.0
157.361,13.884,2.721,9.0
87.582,7.776,3.951,8.0
108.09,9.619,4.27,2.0
121.349,10.826,4.113,20.0
143.634,12.844,4.049,28.0
152.295,13.651,3.439,27.0
154.108,13.848,2.618,5.0
108.071,9.77,4.842,6.0
110.548,10.016,4.332,10.0
109.712,9.964,3.684,15.0
143.912,13.101,4.008,24.0
151.962,13.866,3.381,28.0
151.739,13.88,2.525,32.0
87.454,8.047,3.887,12.0
110.44,10.185,4.288,16.0
109.639,10.134,3.641,18.0
151.754,14.058,4.172,15.0
151.937,14.106,3.324,27.0
151.45,14.093,2.464,22.0
87.153,8.158,3.841,12.0
108.152,10.146,4.157,7.0
109.542,10.297,3.595,14.0
121.579,11.454,3.294,9.0
151.662,14.321,3.256,21.0
151.169,14.305,2.396,33.0
107.845,10.265,4.707,9.0
108.178,10.318,4.112,20.0
109.385,10.455,3.542,20.0
121.299,11.617,3.232,26.0
151.565,14.547,3.186,16.0
151.083,14.533,2.326,26.0
86.229,8.342,3.724,4.0
110.231,10.685,4.139,17.0
115.963,11.261,3.7,14.0
137.573,13.387,3.601,17.0
121.537,11.852,2.496,46.0
121.618,11.883,1.813,51.0
97.735,9.603,4.173,12.0
122.669,12.075,4.545,38.0
108.846,10.734,3.419,22.0
109.187,10.788,2.803,29.0
121.535,12.031,2.435,56.0
121.584,12.059,1.751,50.0
97.729,9.746,4.122,13.0
115.232,11.512,4.209,22.0
115.612,11.571,3.57,30.0
109.053,10.934,2.741,23.0
150.732,15.142,2.938,14.0
150.622,15.16,2.087,20.0
97.734,9.887,4.068,2.0
111.18,11.267,3.999,26.0
109.872,11.154,3.331,55.0
109.156,11.1,2.681,31.0
150.62,15.345,2.85,20.0
150.675,15.378,2.002,17.0
107.429,11.02,4.409,18.0
97.573,10.026,3.452,20.0
110.18,11.34,3.276,29.0
109.243,11.263,2.619,43.0
115.658,11.944,2.119,26.0
115.586,11.958,1.464,21.0
136.576,14.201,5.522,7.0
97.482,10.152,3.389,19.0
137.408,14.332,3.999,15.0
109.237,11.412,2.55,45.0
115.596,12.095,2.044,22.0
115.597,12.117,1.391,6.0
103.199,10.87,4.106,8.0
108.114,11.405,3.688,15.0
116.527,12.31,3.315,11.0
109.176,11.552,2.476,57.0
109.254,11.578,1.86,57.0
0.0,0.0,0.0,0.0
98.433,10.497,3.85,35.0
104.665,11.177,3.5,11.0
103.616,11.082,2.877,30.0
115.676,12.389,2.545,17.0
109.261,11.72,1.785,50.0
0.0,0.0,0.0,0.0
96.97,10.466,3.724,13.0
97.833,10.574,3.202,42.0
104.035,11.26,2.814,24.0
115.716,12.542,2.462,15.0
149.881,16.269,2.339,12.0
0.0,0.0,0.0,0.0
121.363,13.252,4.572,11.0
97.776,10.69,3.127,31.0
103.934,11.378,2.734,16.0
103.888,11.389,2.132,41.0
149.815,16.447,2.226,20.0
0.0,0.0,0.0,0.0
96.829,10.69,3.574,39.0
97.674,10.797,3.05,42.0
104.043,11.516,2.657,18.0
103.8,11.504,2.051,37.0
103.737,11.512,1.461,29.0
76.824,8.537,0.646,3.0
97.046,10.828,3.506,14.0
104.675,11.694,3.186,19.0
149.714,16.746,3.705,6.0
103.844,11.629,1.969,16.0
103.774,11.636,1.379,14.0
76.195,8.555,0.579,1.0
97.067,10.941,3.428,13.0
104.333,11.773,3.092,23.0
144.132,16.282,3.451,12.0
144.111,16.299,2.616,15.0
144.185,16.328,1.797,2.0
75.058,8.511,0.508,3.0
97.215,11.065,3.352,17.0
97.763,11.139,2.815,13.0
149.424,17.044,3.452,3.0
149.513,17.074,2.588,15.0
75.661,8.65,0.878,0.0
74.672,8.548,0.441,18.0
97.23,11.171,3.269,18.0
97.782,11.245,2.731,23.0
152.899,17.602,3.398,9.0
149.532,17.233,2.457,14.0
75.415,8.701,0.81,2.0
74.564,8.613,0.376,2.0
97.349,11.284,3.187,38.0
97.807,11.348,2.645,41.0
152.723,17.738,3.259,4.0
149.803,17.417,2.328,24.0
75.777,8.819,0.745,11.0
70.724,8.241,0.292,0.0
97.44,11.392,3.102,13.0
97.773,11.441,2.554,24.0
97.785,11.452,1.997,6.0
97.789,11.464,1.429,12.0
75.718,8.886,0.675,0.0
69.58,8.174,0.224,2.0
98.248,11.579,3.036,30.0
97.756,11.53,2.463,47.0
97.704,11.534,1.904,35.0
97.681,11.541,1.337,45.0
0.0,0.0,0.0,0.0
0.0,0.0,0.0,0.0
147.309,17.493,4.414,11.0
97.729,11.615,2.37,59.0
97.699,11.62,1.812,52.0
97.679,11.628,1.243,19.0
0.0,0.0,0.0,0.0
0.0,0.0,0.0,0.0
97.62,11.676,2.831,10.0
97.742,11.7,2.276,41.0
97.721,11.706,1.717,42.0
0.0,0.0,0.0,0.0
68.871,8.264,0.417,2.0
68.799,8.263,0.024,150.0
97.518,11.744,2.733,23.0
97.767,11.782,2.18,28.0
97.783,11.793,1.622,10.0
0.0,0.0,0.0,0.0
68.714,8.3,0.347,2.0
68.786,8.316,-0.044,151.0
97.651,11.836,2.637,16.0
139.8,16.956,2.976,10.0
149.612,18.158,2.33,10.0
0.0,0.0,0.0,0.0
68.749,8.356,0.278,0.0
68.712,8.358,-0.114,99.0
139.934,17.063,3.639,11.0
149.692,18.264,3.036,17.0
0.0,0.0,0.0,0.0
68.757,8.4,0.6,1.0
68.794,8.411,0.208,1.0
69.844,8.545,-0.187,2.0
149.811,18.371,3.739,20.0
149.672,18.364,2.881,21.0
0.0,0.0,0.0,0.0
68.755,8.446,0.529,2.0
68.662,8.44,0.136,8.0
69.254,8.519,-0.258,3.0
149.833,18.471,3.583,20.0
149.701,18.463,2.725,11.0
0.0,0.0,0.0,0.0
68.704,8.483,0.458,9.0
68.687,8.486,0.064,165.0
65.584,8.108,-0.314,1.0
91.668,11.356,2.095,9.0
91.513,11.341,1.568,6.0
0.0,0.0,0.0,0.0
68.706,8.523,0.384,15.0
68.639,8.52,-0.009,128.0
65.426,8.126,-0.383,7.0
91.556,11.392,1.995,34.0
91.494,11.389,1.47,15.0
69.33,8.634,0.716,0.0
68.669,8.556,0.309,27.0
65.374,8.15,-0.079,5.0
65.294,8.145,-0.452,8.0
91.488,11.431,1.894,48.0
91.529,11.44,1.371,7.0
0.0,0.0,0.0,0.0
68.664,8.589,0.235,9.0
65.309,8.174,-0.15,29.0
65.213,8.166,-0.524,18.0
91.459,11.47,1.792,53.0
68.979,8.653,0.956,1.0
68.696,8.621,0.559,2.0
0.0,0.0,0.0,0.0
65.224,8.192,-0.222,12.0
65.068,8.177,-0.594,0.0
91.436,11.505,1.691,42.0
69.148,8.703,0.882,1.0
68.651,8.644,0.482,10.0
0.0,0.0,0.0,0.0
65.149,8.209,-0.294,10.0
0.0,0.0,0.0,0.0
91.447,11.541,1.589,39.0
69.119,8.725,0.804,1.0
68.642,8.667,0.405,19.0
0.0,0.0,0.0,0.0
65.116,8.228,-0.368,0.0
0.0,0.0,0.0,0.0
91.421,11.568,1.485,21.0
69.124,8.748,0.727,1.0
68.63,8.688,0.329,13.0
0.0,0.0,0.0,0.0
65.052,8.24,-0.439,0.0
0.0,0.0,0.0,0.0
91.502,11.604,1.385,2.0
0.0,0.0,0.0,0.0
68.63,8.706,0.251,3.0
0.0,0.0,0.0,0.0
65.02,8.252,-0.513,0.0
0.0,0.0,0.0,0.0
69.154,8.786,0.968,0.0
68.618,8.719,0.567,3.0
0.0,0.0,0.0,0.0
64.884,8.247,-0.213,0.0
64.749,8.232,-0.584,0.0
0.0,0.0,0.0,0.0
69.33,8.821,0.892,0.0
68.635,8.733,0.49,18.0
64.744,8.239,0.091,1.0
65.019,8.275,-0.287,0.0
0.0,0.0,0.0,0.0
0.0,0.0,0.0,0.0
69.069,8.798,0.811,1.0
68.642,8.743,0.413,27.0
64.842,8.26,0.019,2.0
0.0,0.0,0.0,0.0
0.0,0.0,0.0,0.0
0.0,0.0,0.0,0.0
69.099,8.808,0.733,1.0
68.65,8.751,0.335,16.0
64.812,8.262,-0.055,3.0
0.0,0.0,0.0,0.0
0.0,0.0,0.0,0.0
0.0,0.0,0.0,0.0
68.866,8.782,0.652,0.0
68.67,8.756,0.257,2.0
64.846,8.268,-0.129,2.0
64.987,8.287,-0.508,0.0
0.0,0.0,0.0,0.0
0.0,0.0,0.0,0.0
68.649,8.754,0.571,4.0
64.813,8.264,0.169,1.0
0.0,0.0,0.0,0.0
0.0,0.0,0.0,0.0
0.0,0.0,0.0,0.0
37.295,4.755,-0.761,0.0
68.635,8.749,0.494,19.0
64.815,8.261,0.095,1.0
0.0,0.0,0.0,0.0
0.0,0.0,0.0,0.0
0.0,0.0,0.0,0.0
0.0,0.0,0.0,0.0
68.642,8.744,0.416,25.0
64.806,8.254,0.022,3.0
0.0,0.0,0.0,0.0
0.0,0.0,0.0,0.0
0.0,0.0,0.0,0.0
34.072,4.338,-0.773,0.0
68.586,8.727,0.339,14.0
64.731,8.235,-0.05,1.0
64.981,8.265,-0.422,0.0
0.0,0.0,0.0,0.0
40.156,5.106,-0.725,0.0
33.261,4.229,-0.791,1.0
68.64,8.722,0.263,2.0
0.0,0.0,0.0,0.0
64.972,8.251,-0.495,0.0
0.0,0.0,0.0,0.0
0.0,0.0,0.0,0.0
32.523,4.129,-0.81,0.0
0.0,0.0,0.0,0.0
64.983,8.239,-0.195,2.0
0.0,0.0,0.0,0.0
0.0,0.0,0.0,0.0
37.425,4.742,-0.76,0.0
31.06,3.935,-0.808,0.0
0.0,0.0,0.0,0.0
65.021,8.226,-0.267,2.0
0.0,0.0,0.0,0.0
0.0,0.0,0.0,0.0
36.953,4.671,-0.791,0.0
30.608,3.869,-0.83,0.0
0.0,0.0,0.0,0.0
65.113,8.216,-0.339,5.0
0.0,0.0,0.0,0.0
0.0,0.0,0.0,0.0
34.662,4.37,-0.779,0.0
29.539,3.723,-0.833,0.0
65.141,8.199,-0.038,2.0
65.208,8.204,-0.411,22.0
0.0,0.0,0.0,0.0
40.365,5.075,-0.721,0.0
32.993,4.147,-0.778,0.0
28.684,3.604,-0.841,0.0
65.288,8.191,-0.108,14.0
65.204,8.176,-0.482,24.0
0.0,0.0,0.0,0.0
38.627,4.839,-0.732,0.0
32.309,4.047,-0.797,0.0
27.842,3.486,-0.846,0.0
65.334,8.166,-0.179,30.0
65.266,8.154,-0.552,3.0
0.0,0.0,0.0,0.0
38.001,4.743,-0.761,0.0
31.413,3.919,-0.808,0.0
27.003,3.368,-0.849,0.0
65.461,8.149,-0.249,30.0
65.249,8.118,-0.622,0.0
0.0,0.0,0.0,0.0
36.863,4.582,-0.777,0.0
30.671,3.81,-0.822,0.0
26.313,3.268,-0.856,0.0
65.521,8.12,-0.319,2.0
55.795,6.911,-0.59,1.0
0.0,0.0,0.0,0.0
35.038,4.335,-0.775,0.0
29.934,3.702,-0.834,0.0
25.667,3.173,-0.861,0.0
0.0,0.0,0.0,0.0
0.0,0.0,0.0,0.0
0.0,0.0,0.0,0.0
34.266,4.219,-0.793,0.0
29.005,3.569,-0.837,0.0
24.897,3.062,-0.861,0.0
0.0,0.0,0.0,0.0
68.711,8.426,-0.868,7.0
39.194,4.803,-0.719,1.0
32.392,3.967,-0.783,0.0
28.164,3.447,-0.841,0.0
24.324,2.976,-0.866,0.0
0.0,0.0,0.0,0.0
68.746,8.383,-0.937,3.0
37.742,4.599,-0.73,0.0
31.971,3.893,-0.804,0.0
27.337,3.327,-0.844,0.0
23.862,2.902,-0.873,0.0
68.783,8.345,-0.612,1.0
68.651,8.322,-1.003,2.0
37.246,4.512,-0.756,0.0
31.012,3.754,-0.81,0.0
26.777,3.239,-0.852,0.0
23.402,2.829,-0.879,0.0
0.0,0.0,0.0,0.0
0.0,0.0,0.0,0.0
36.883,4.439,-0.784,0.0
30.418,3.658,-0.824,0.0
26.024,3.128,-0.853,0.0
22.224,2.669,-0.856,0.0
0.0,0.0,0.0,0.0
41.07,4.914,-0.678,0.0
35.108,4.197,-0.779,0.0
29.592,3.535,-0.829,0.0
25.405,3.032,-0.857,0.0
21.891,2.611,-0.863,0.0
0.0,0.0,0.0,0.0
40.747,4.841,-0.71,0.0
33.452,3.97,-0.774,0.0
28.75,3.409,-0.832,0.0
24.887,2.949,-0.862,0.0
21.817,2.583,-0.88,1.0
0.0,0.0,0.0,0.0
40.824,4.814,-0.748,0.0
32.727,3.855,-0.786,0.0
28.03,3.299,-0.836,0.0
24.392,2.868,-0.867,0.0
21.778,2.559,-0.898,1.0
0.0,0.0,0.0,0.0
38.542,4.509,-0.74,0.0
32.133,3.755,-0.8,0.0
27.536,3.215,-0.845,0.0
23.884,2.786,-0.87,0.0
21.507,2.507,-0.906,0.0
0.0,0.0,0.0,0.0
0.0,0.0,0.0,0.0
31.154,3.61,-0.803,0.0
26.787,3.101,-0.845,0.0
23.527,2.721,-0.877,0.0
20.664,2.387,-0.888,0.0
0.0,0.0,0.0,0.0
0.0,0.0,0.0,0.0
30.686,3.525,-0.816,0.0
26.177,3.004,-0.848,0.0
23.322,2.673,-0.888,0.0
20.472,2.344,-0.896,0.0
42.615,4.861,-0.684,1.0
35.307,4.023,-0.767,0.0
29.9,3.403,-0.82,0.0
25.828,2.936,-0.858,0.0
21.867,2.483,-0.851,0.0
19.993,2.268,-0.892,0.0
41.145,4.649,-0.693,2.0
34.627,3.908,-0.78,0.0
29.296,3.302,-0.826,0.0
25.27,2.845,-0.859,0.0
21.861,2.458,-0.867,6.0
19.65,2.207,-0.891,1.0
40.548,4.536,-0.714,0.0
33.957,3.794,-0.79,0.0
28.747,3.208,-0.832,0.0
24.595,2.741,-0.854,0.0
21.834,2.431,-0.882,6.0
19.574,2.176,-0.902,2.0
39.759,4.402,-0.729,0.0
32.845,3.632,-0.789,0.0
28.248,3.119,-0.839,0.0
24.402,2.691,-0.865,0.0
21.804,2.401,-0.897,3.0
19.442,2.139,-0.91,2.0
38.506,4.218,-0.734,0.0
32.485,3.553,-0.803,0.0
27.885,3.046,-0.847,0.0
23.987,2.616,-0.867,0.0
21.761,2.371,-0.91,2.0
19.218,2.091,-0.913,0.0
37.61,4.074,-0.742,0.0
32.305,3.494,-0.82,0.0
27.213,2.939,-0.845,0.0
23.715,2.557,-0.873,0.0
21.378,2.302,-0.909,0.0
18.776,2.019,-0.905,0.0
37.119,3.973,-0.757,0.0
30.374,3.246,-0.791,0.0
26.947,2.875,-0.854,0.0
22.136,2.358,-0.83,0.0
20.743,2.207,-0.895,0.0
18.68,1.984,-0.912,0.0
36.928,3.904,-0.776,0.0
30.317,3.2,-0.809,0.0
26.325,2.775,-0.851,0.0
21.911,2.306,-0.834,1.0
20.529,2.157,-0.898,0.0
18.529,1.944,-0.916,0.0
35.412,3.697,-0.765,0.0
30.116,3.139,-0.821,0.0
25.855,2.69,-0.851,0.0
21.915,2.277,-0.847,3.0
20.435,2.12,-0.906,0.0
18.215,1.886,-0.91,0.0
0.0,0.0,0.0,0.0
30.022,3.088,-0.835,1.0
25.839,2.653,-0.865,0.0
21.879,2.243,-0.858,3.0
19.794,2.026,-0.888,0.0
17.969,1.836,-0.908,1.0
34.828,3.54,-0.791,0.0
29.556,2.999,-0.838,0.0
25.167,2.549,-0.855,0.0
21.806,2.205,-0.866,0.0
19.61,1.979,-0.89,0.0
17.861,1.8,-0.912,2.0
33.172,3.325,-0.77,0.0
28.778,2.879,-0.83,0.0
24.999,2.496,-0.862,0.0
21.803,2.173,-0.877,1.0
19.627,1.953,-0.9,0.0
17.786,1.767,-0.916,2.0
33.15,3.275,-0.785,1.0
28.517,2.811,-0.835,0.0
24.827,2.443,-0.867,0.0
21.769,2.138,-0.885,1.0
19.476,1.909,-0.902,0.0
17.755,1.737,-0.922,2.0
32.828,3.194,-0.791,0.0
28.391,2.757,-0.844,0.0
24.585,2.382,-0.869,0.0
21.784,2.107,-0.895,1.0
19.415,1.874,-0.907,0.0
17.705,1.706,-0.927,1.0
32.621,3.125,-0.799,0.0
28.012,2.678,-0.843,0.0
24.365,2.325,-0.87,0.0
21.698,2.066,-0.899,0.0
19.37,1.841,-0.912,0.0
17.354,1.646,-0.915,0.0
0.0,0.0,0.0,0.0
27.783,2.614,-0.846,0.0
24.119,2.264,-0.87,0.0
21.624,2.026,-0.904,0.0
19.287,1.803,-0.914,0.0
17.307,1.615,-0.918,0.0
31.767,2.947,-0.8,0.0
27.719,2.565,-0.853,0.0
23.985,2.215,-0.873,0.0
21.618,1.992,-0.91,0.0
19.161,1.761,-0.914,0.0
17.196,1.577,-0.917,0.0
31.763,2.896,-0.809,0.0
27.431,2.495,-0.852,0.0
23.96,2.174,-0.878,0.0
21.436,1.941,-0.908,0.0
19.18,1.732,-0.92,0.0
17.226,1.553,-0.923,0.0
31.477,2.82,-0.809,0.0
27.281,2.437,-0.854,0.0
23.877,2.128,-0.881,0.0
21.531,1.914,-0.917,0.0
19.059,1.691,-0.919,0.0
17.145,1.517,-0.922,0.0
31.173,2.742,-0.808,0.0
27.192,2.385,-0.857,0.0
23.836,2.086,-0.884,0.0
21.418,1.869,-0.917,0.0
19.045,1.658,-0.922,0.0
17.043,1.48,-0.92,0.0
31.053,2.68,-0.811,0.0
26.976,2.322,-0.855,0.0
23.77,2.041,-0.886,0.0
21.094,1.806,-0.906,0.0
18.98,1.621,-0.921,0.0
17.054,1.453,-0.923,0.0
31.22,2.643,-0.819,0.0
26.879,2.269,-0.855,0.0
21.94,1.847,-0.82,0.0
21.104,1.772,-0.909,0.0
18.851,1.578,-0.917,0.0
17.015,1.421,-0.923,0.0
31.202,2.589,-0.822,0.0
26.852,2.221,-0.857,0.0
21.945,1.81,-0.823,0.0
20.92,1.721,-0.903,0.0
18.887,1.55,-0.921,0.0
16.987,1.39,-0.923,0.0
31.025,2.522,-0.82,0.0
26.949,2.184,-0.862,0.0
21.944,1.773,-0.824,0.0
0.0,0.0,0.0,0.0
18.591,1.493,-0.907,0.0
16.882,1.352,-0.918,0.0
31.052,2.47,-0.821,0.0
26.923,2.135,-0.861,0.0
0.0,0.0,0.0,0.0
0.0,0.0,0.0,0.0
18.59,1.461,-0.907,1.0
16.971,1.33,-0.922,0.0
31.649,2.463,-0.837,0.0
26.918,2.088,-0.861,0.0
23.582,1.823,-0.885,0.0
20.96,1.616,-0.905,0.0
0.0,0.0,0.0,0.0
16.993,1.302,-0.923,0.0
0.0,0.0,0.0,0.0
27.148,2.058,-0.867,0.0
23.529,1.778,-0.881,0.0
21.236,1.6,-0.916,0.0
0.0,0.0,0.0,0.0
17.076,1.278,-0.926,0.0
0.0,0.0,0.0,0.0
27.17,2.012,-0.865,0.0
23.519,1.736,-0.878,0.0
21.247,1.563,-0.914,0.0
0.0,0.0,0.0,0.0
17.12,1.251,-0.926,0.0
31.843,2.309,-0.833,0.0
27.268,1.971,-0.864,0.0
23.647,1.703,-0.88,0.0
21.434,1.538,-0.918,0.0
19.104,1.366,-0.924,0.0
17.124,1.22,-0.923,0.0
31.705,2.243,-0.824,0.0
27.323,1.925,-0.861,0.0
23.729,1.666,-0.879,0.0
21.636,1.514,-0.923,0.0
19.326,1.347,-0.931,0.0
17.267,1.199,-0.927,0.0
32.035,2.208,-0.826,0.0
27.579,1.894,-0.863,0.0
23.742,1.624,-0.874,0.0
21.678,1.477,-0.92,0.0
19.356,1.314,-0.928,0.0
17.249,1.167,-0.922,0.0
32.198,2.161,-0.822,0.0
27.864,1.863,-0.865,0.0
23.954,1.596,-0.875,0.0
21.784,1.445,-0.918,3.0
19.385,1.281,-0.924,0.0
17.408,1.146,-0.926,0.0
32.468,2.121,-0.82,1.0
27.975,1.82,-0.86,0.0
24.149,1.564,-0.875,0.0
21.786,1.406,-0.912,4.0
19.378,1.245,-0.917,0.0
0.0,0.0,0.0,0.0
32.399,2.057,-0.807,1.0
28.252,1.786,-0.859,0.0
24.531,1.544,-0.88,0.0
21.795,1.366,-0.904,8.0
19.566,1.221,-0.919,0.0
0.0,0.0,0.0,0.0
32.56,2.008,-0.799,2.0
28.365,1.741,-0.852,0.0
24.73,1.511,-0.878,0.0
21.793,1.326,-0.895,9.0
19.591,1.186,-0.912,0.0
0.0,0.0,0.0,0.0
33.387,1.996,-0.806,1.0
28.807,1.715,-0.853,0.0
25.341,1.502,-0.889,1.0
21.816,1.287,-0.887,11.0
19.547,1.148,-0.902,0.0
0.0,0.0,0.0,0.0
33.696,1.953,-0.798,0.0
0.0,0.0,0.0,0.0
25.246,1.449,-0.874,0.0
21.832,1.247,-0.877,7.0
19.638,1.116,-0.896,0.0
0.0,0.0,0.0,0.0
33.904,1.902,-0.786,0.0
29.36,1.639,-0.841,1.0
25.672,1.426,-0.875,0.0
21.861,1.208,-0.867,0.0
0.0,0.0,0.0,0.0
18.177,0.995,-0.919,0.0
35.218,1.911,-0.798,0.0
30.228,1.631,-0.849,0.0
25.981,1.395,-0.872,0.0
21.938,1.172,-0.858,0.0
0.0,0.0,0.0,0.0
18.315,0.968,-0.916,0.0
0.0,0.0,0.0,0.0
30.963,1.614,-0.852,0.0
26.371,1.367,-0.869,0.0
0.0,0.0,0.0,0.0
20.284,1.04,-0.892,2.0
18.613,0.949,-0.92,0.0
36.455,1.843,-0.782,0.0
31.54,1.585,-0.848,0.0
27.088,1.354,-0.876,0.0
0.0,0.0,0.0,0.0
20.278,1.002,-0.878,2.0
18.741,0.921,-0.914,0.0
0.0,0.0,0.0,0.0
31.881,1.543,-0.836,0.0
27.658,1.331,-0.876,0.0
20.25,0.968,-0.753,60.0
20.215,0.961,-0.862,19.0
20.166,0.953,-0.969,9.0
37.83,1.772,-0.761,0.0
32.277,1.502,-0.824,0.0
20.245,0.936,-0.626,3.0
20.187,0.928,-0.736,167.0
20.227,0.924,-0.848,150.0
20.014,0.909,-0.947,13.0
39.072,1.758,-0.757,0.0
32.767,1.465,-0.813,0.0
20.228,0.898,-0.611,5.0
20.179,0.891,-0.721,159.0
20.228,0.887,-0.832,41.0
20.083,0.875,-0.935,3.0
0.0,0.0,0.0,0.0
34.821,1.493,-0.837,0.0
29.921,1.274,-0.881,0.0
20.211,0.855,-0.706,1.0
22.452,0.943,-0.906,1.0
20.183,0.842,-0.923,3.0
0.0,0.0,0.0,0.0
0.0,0.0,0.0,0.0
30.109,1.226,-0.861,1.0
0.0,0.0,0.0,0.0
22.776,0.915,-0.899,2.0
20.219,0.806,-0.908,13.0
0.0,0.0,0.0,0.0
0.0,0.0,0.0,0.0
30.169,1.174,-0.837,0.0
26.465,1.022,-0.879,0.0
23.21,0.89,-0.896,0.0
20.764,0.79,-0.914,0.0
0.0,0.0,0.0,0.0
37.035,1.385,-0.795,0.0
32.053,1.189,-0.86,0.0
27.002,0.994,-0.873,0.0
23.812,0.87,-0.898,0.0
21.085,0.764,-0.908,0.0
0.0,0.0,0.0,0.0
0.0,0.0,0.0,0.0
32.372,1.143,-0.838,1.0
28.037,0.981,-0.879,0.0
24.459,0.849,-0.899,0.0
21.824,0.752,-0.919,0.0
0.0,0.0,0.0,0.0
39.44,1.332,-0.771,0.0
32.814,1.099,-0.818,0.0
28.605,0.949,-0.869,0.0
25.033,0.824,-0.895,0.0
22.27,0.727,-0.916,0.0
0.0,0.0,0.0,0.0
0.0,0.0,0.0,0.0
0.0,0.0,0.0,0.0
29.822,0.936,-0.876,0.0
25.814,0.803,-0.896,0.0
22.647,0.698,-0.908,0.0
0.0,0.0,0.0,0.0
0.0,0.0,0.0,0.0
35.343,1.057,-0.808,0.0
30.795,0.912,-0.871,1.0
26.319,0.772,-0.886,0.0
23.169,0.673,-0.904,0.0
0.0,0.0,0.0,0.0
0.0,0.0,0.0,0.0
36.963,1.04,-0.804,0.0
31.719,0.883,-0.863,1.0
26.973,0.744,-0.878,0.0
23.882,0.652,-0.905,0.0
0.0,0.0,0.0,0.0
0.0,0.0,0.0,0.0
38.519,1.016,-0.795,0.0
32.306,0.843,-0.842,1.0
28.073,0.725,-0.882,0.0
24.528,0.626,-0.901,0.0
0.0,0.0,0.0,0.0
0.0,0.0,0.0,0.0
40.452,0.996,-0.788,0.0
33.227,0.809,-0.828,0.0
28.811,0.693,-0.871,0.0
25.135,0.598,-0.894,0.0
0.0,0.0,0.0,0.0
0.0,0.0,0.0,0.0
40.428,0.926,-0.739,0.0
35.499,0.803,-0.842,0.0
30.253,0.676,-0.878,1.0
26.139,0.577,-0.898,0.0
0.0,0.0,0.0,0.0
0.0,0.0,0.0,0.0
0.0,0.0,0.0,0.0
36.737,0.769,-0.826,0.0
31.482,0.65,-0.875,1.0
26.745,0.545,-0.885,0.0
0.0,0.0,0.0,0.0
0.0,0.0,0.0,0.0
0.0,0.0,0.0,0.0
37.683,0.725,-0.799,0.0
32.286,0.612,-0.856,1.0
28.553,0.533,-0.908,0.0
0.0,0.0,0.0,0.0
