X,Y,Z,Reflectivity
20.191,0.162,-0.461,27.0
20.186,0.164,-0.578,18.0
21.67,0.179,-0.748,73.0
20.203,0.168,-0.147,23.0
20.179,0.17,-0.264,31.0
20.179,0.172,-0.382,32.0
20.186,0.174,-0.502,26.0
20.203,0.177,-0.62,21.0
18.57,0.164,-0.678,33.0
20.167,0.179,-0.188,18.0
20.173,0.181,-0.306,31.0
20.185,0.184,-0.423,29.0
20.181,0.186,-0.543,29.0
20.212,0.188,-0.662,25.0
18.559,0.174,-0.716,151.0
20.188,0.19,-0.229,24.0
20.174,0.192,-0.347,30.0
20.191,0.194,-0.465,27.0
20.192,0.196,-0.585,29.0
0.0,0.0,0.0,0.0
18.545,0.184,-0.754,153.0
20.19,0.201,-0.271,28.0
20.173,0.202,-0.388,31.0
20.184,0.204,-0.506,30.0
20.194,0.206,-0.626,31.0
0.0,0.0,0.0,0.0
18.56,0.193,-0.793,151.0
20.189,0.21,-0.312,28.0
20.195,0.212,-0.43,26.0
20.183,0.213,-0.547,30.0
20.209,0.215,-0.668,29.0
0.0,0.0,0.0,0.0
18.542,0.201,-0.83,10.0
20.187,0.218,-0.354,29.0
20.18,0.22,-0.471,26.0
20.199,0.222,-0.589,29.0
20.215,0.223,-0.71,29.0
0.0,0.0,0.0,0.0
18.537,0.208,-0.868,9.0
20.18,0.226,-0.395,28.0
20.192,0.228,-0.513,28.0
20.208,0.229,-0.631,30.0
20.222,0.231,-0.752,28.0
0.0,0.0,0.0,0.0
18.536,0.214,-0.906,20.0
20.204,0.233,-0.437,21.0
20.201,0.235,-0.555,29.0
20.209,0.236,-0.673,27.0
20.225,0.238,-0.794,28.0
0.0,0.0,0.0,0.0
18.329,0.218,-0.934,3.0
20.177,0.239,-0.478,19.0
20.215,0.241,-0.596,28.0
20.223,0.242,-0.715,28.0
20.108,0.242,-0.83,14.0
18.584,0.225,-0.876,2.0
17.673,0.215,-0.936,1.0
20.198,0.245,-0.52,28.0
20.21,0.246,-0.638,25.0
20.225,0.248,-0.756,27.0
20.211,0.249,-0.876,12.0
18.524,0.229,-0.911,19.0
16.865,0.209,-0.928,0.0
20.198,0.25,-0.561,28.0
20.207,0.251,-0.679,20.0
20.22,0.252,-0.797,25.0
20.256,0.254,-0.919,6.0
18.198,0.229,-0.932,3.0
16.386,0.207,-0.936,0.0
20.224,0.254,-0.603,27.0
20.215,0.255,-0.721,25.0
20.173,0.255,-0.837,15.0
18.563,0.236,-0.881,1.0
17.636,0.225,-0.94,0.0
15.869,0.203,-0.938,0.0
20.22,0.257,-0.644,25.0
20.233,0.258,-0.762,27.0
20.226,0.259,-0.88,11.0
18.479,0.237,-0.914,16.0
16.801,0.216,-0.929,0.0
15.362,0.198,-0.94,0.0
20.227,0.259,-0.685,24.0
20.22,0.26,-0.803,20.0
20.261,0.261,-0.923,3.0
17.845,0.231,-0.919,1.0
16.34,0.212,-0.937,0.0
14.899,0.194,-0.942,0.0
20.229,0.261,-0.726,26.0
20.182,0.261,-0.842,14.0
18.548,0.241,-0.882,2.0
17.521,0.228,-0.937,0.0
15.748,0.205,-0.935,0.0
14.525,0.19,-0.947,0.0
20.235,0.262,-0.767,27.0
20.259,0.263,-0.886,12.0
18.503,0.241,-0.917,16.0
16.764,0.218,-0.931,0.0
15.283,0.199,-0.938,0.0
20.181,0.264,-1.357,0.0
20.21,0.262,-0.806,19.0
20.23,0.262,-0.925,3.0
17.773,0.231,-0.916,1.0
16.285,0.212,-0.937,0.0
14.854,0.193,-0.941,0.0
20.281,0.265,-1.405,0.0
20.184,0.261,-0.845,15.0
18.533,0.24,-0.884,4.0
17.478,0.226,-0.936,0.0
15.648,0.203,-0.931,0.0
14.494,0.188,-0.947,0.0
13.306,0.173,-0.948,0.0
20.262,0.26,-0.889,14.0
18.485,0.238,-0.919,13.0
16.705,0.215,-0.928,0.0
15.253,0.196,-0.938,0.0
20.184,0.26,-1.36,0.0
12.969,0.167,-0.95,0.0
20.215,0.257,-0.927,2.0
17.724,0.226,-0.916,2.0
16.252,0.207,-0.935,0.0
14.771,0.188,-0.938,0.0
20.158,0.257,-1.398,0.0
12.643,0.161,-0.951,0.0
18.527,0.233,-0.885,9.0
17.497,0.22,-0.938,0.0
15.727,0.198,-0.935,0.0
14.442,0.182,-0.945,0.0
13.326,0.168,-0.95,0.0
12.283,0.154,-0.947,0.0
18.489,0.229,-0.919,13.0
16.721,0.207,-0.929,0.0
15.239,0.189,-0.936,0.0
20.201,0.25,-1.36,0.0
12.964,0.16,-0.949,0.0
11.936,0.148,-0.943,0.0
17.729,0.216,-0.915,2.0
16.252,0.198,-0.934,0.0
14.804,0.18,-0.937,0.0
20.232,0.246,-1.401,0.0
12.602,0.153,-0.947,0.0
11.657,0.141,-0.944,0.0
17.554,0.209,-0.94,0.0
15.706,0.187,-0.932,0.0
14.483,0.172,-0.944,0.0
13.303,0.158,-0.947,0.0
12.281,0.145,-0.946,0.0
11.375,0.135,-0.943,0.0
16.708,0.194,-0.926,0.0
15.289,0.178,-0.936,0.0
20.185,0.234,-1.354,0.0
12.991,0.15,-0.948,0.0
12.013,0.139,-0.947,0.0
11.168,0.128,-0.946,0.0
16.278,0.184,-0.932,0.0
14.841,0.167,-0.936,0.0
20.184,0.227,-1.391,0.0
12.606,0.141,-0.944,0.0
11.696,0.131,-0.944,0.0
10.828,0.121,-0.938,0.0
15.751,0.172,-0.931,0.0
14.514,0.158,-0.942,0.0
13.364,0.145,-0.946,0.0
12.312,0.133,-0.945,0.0
11.469,0.124,-0.947,0.0
10.678,0.115,-0.944,0.0
15.355,0.162,-0.935,0.0
20.156,0.212,-1.345,0.0
13.028,0.136,-0.946,0.0
12.03,0.125,-0.945,0.0
11.182,0.116,-0.944,0.0
10.492,0.108,-0.947,0.0
14.909,0.151,-0.935,0.0
20.17,0.203,-1.383,0.0
12.696,0.127,-0.944,0.0
11.756,0.117,-0.944,0.0
10.981,0.109,-0.946,0.0
10.296,0.102,-0.948,0.0
14.568,0.14,-0.939,0.0
13.397,0.128,-0.942,0.0
12.392,0.118,-0.944,0.0
11.461,0.109,-0.941,0.0
10.705,0.101,-0.942,0.0
10.079,0.095,-0.946,0.0
18.535,0.169,-1.228,0.0
13.118,0.119,-0.945,0.0
12.121,0.109,-0.944,0.0
11.243,0.101,-0.942,0.0
10.527,0.094,-0.944,0.0
9.899,0.088,-0.946,0.0
18.505,0.16,-1.258,0.0
12.789,0.109,-0.943,0.0
11.798,0.1,-0.939,0.0
10.997,0.093,-0.941,0.0
10.346,0.086,-0.946,0.0
9.744,0.081,-0.948,0.0
13.444,0.108,-0.936,0.0
12.52,0.1,-0.945,0.0
11.466,0.091,-0.932,0.0
10.908,0.086,-0.952,0.0
10.149,0.079,-0.945,0.0
9.536,0.073,-0.944,0.0
13.248,0.099,-0.945,0.0
12.241,0.09,-0.944,0.0
11.419,0.083,-0.947,0.0
10.574,0.077,-0.94,0.0
9.973,0.072,-0.945,0.0
9.442,0.067,-0.95,0.0
12.97,0.089,-0.946,0.0
12.012,0.081,-0.946,0.0
11.175,0.075,-0.945,0.0
10.411,0.069,-0.943,0.0
9.827,0.064,-0.947,0.0
9.227,0.059,-0.943,0.0
12.607,0.078,-0.94,0.0
11.604,0.071,-0.933,0.0
10.858,0.065,-0.936,0.0
10.266,0.061,-0.946,0.0
9.66,0.056,-0.946,0.0
9.056,0.052,-0.94,0.0
12.366,0.068,-0.941,0.0
11.427,0.062,-0.936,0.0
10.699,0.057,-0.939,0.0
10.068,0.052,-0.944,0.0
9.453,0.048,-0.941,0.0
8.927,0.045,-0.941,0.0
12.143,0.058,-0.943,0.0
11.311,0.053,-0.944,0.0
10.537,0.048,-0.941,0.0
9.918,0.044,-0.945,0.0
9.326,0.041,-0.943,0.0
8.764,0.038,-0.937,0.0
11.935,0.048,-0.945,0.0
11.098,0.043,-0.943,0.0
10.403,0.04,-0.945,0.0
9.76,0.036,-0.944,0.0
9.187,0.033,-0.943,0.0
8.664,0.031,-0.94,0.0
11.628,0.038,-0.938,0.0
10.928,0.034,-0.945,0.0
10.256,0.031,-0.947,0.0
9.596,0.028,-0.943,0.0
9.044,0.026,-0.941,0.0
8.592,0.023,-0.944,0.0
11.516,0.028,-0.946,0.0
10.712,0.025,-0.942,0.0
10.047,0.022,-0.942,0.0
9.441,0.02,-0.941,0.0
8.922,0.018,-0.942,0.0
8.45,0.016,-0.941,0.0
11.259,0.018,-0.941,0.0
10.519,0.016,-0.94,0.0
9.91,0.014,-0.943,0.0
9.313,0.012,-0.942,0.0
8.788,0.01,-0.94,0.0
8.33,0.009,-0.94,0.0
10.396,0.007,-0.943,0.0
9.783,0.005,-0.945,0.0
9.177,0.004,-0.941,0.0
8.685,0.002,-0.941,0.0
8.246,0.001,-0.941,0.0
10.24,-0.001,-0.943,0.0
9.61,-0.002,-0.941,0.0
9.071,-0.003,-0.942,0.0
8.62,-0.004,-0.945,0.0
8.157,-0.005,-0.942,0.0
10.787,-0.01,-0.945,0.0
10.101,-0.011,-0.944,0.0
9.499,-0.011,-0.942,0.0
8.915,-0.012,-0.937,0.0
8.478,-0.012,-0.941,0.0
8.048,-0.012,-0.94,0.0
10.629,-0.02,-0.945,0.0
9.947,-0.02,-0.942,0.0
9.37,-0.02,-0.941,0.0
8.823,-0.02,-0.939,0.0
8.358,-0.02,-0.938,0.0
7.948,-0.02,-0.938,0.0
10.449,-0.029,-0.942,0.0
9.833,-0.029,-0.943,0.0
9.207,-0.028,-0.936,0.0
8.71,-0.028,-0.937,0.0
8.26,-0.027,-0.937,0.0
7.875,-0.027,-0.939,0.0
10.279,-0.039,-0.939,0.0
9.702,-0.038,-0.942,0.0
9.122,-0.037,-0.939,0.0
8.653,-0.036,-0.942,0.0
8.198,-0.035,-0.94,0.0
7.801,-0.035,-0.94,0.0
10.212,-0.048,-0.944,0.0
9.595,-0.047,-0.943,0.0
9.038,-0.045,-0.94,0.0
8.556,-0.044,-0.941,0.0
8.122,-0.043,-0.94,0.0
7.731,-0.042,-0.94,0.0
10.064,-0.058,-0.942,0.0
9.498,-0.056,-0.944,0.0
8.923,-0.054,-0.938,0.0
8.445,-0.052,-0.938,0.0
8.035,-0.051,-0.939,0.0
7.689,-0.05,-0.943,0.0
9.96,-0.067,-0.943,0.0
9.401,-0.065,-0.944,0.0
8.836,-0.062,-0.938,0.0
8.392,-0.06,-0.941,0.0
7.971,-0.059,-0.94,0.0
7.607,-0.057,-0.941,0.0
9.856,-0.077,-0.943,0.0
9.272,-0.074,-0.941,0.0
8.741,-0.071,-0.937,0.0
8.287,-0.068,-0.938,0.0
7.944,-0.067,-0.945,0.0
7.565,-0.065,-0.944,0.0
9.738,-0.086,-0.941,0.0
9.169,-0.082,-0.939,0.0
8.681,-0.079,-0.939,0.0
8.234,-0.077,-0.939,0.0
7.832,-0.074,-0.939,0.0
7.533,-0.073,-0.947,0.0
9.644,-0.096,-0.941,0.0
9.076,-0.091,-0.938,0.0
8.595,-0.088,-0.938,0.0
8.18,-0.085,-0.941,0.0
7.791,-0.082,-0.941,0.0
7.45,-0.08,-0.944,0.0
9.546,-0.105,-0.941,0.0
9.009,-0.101,-0.94,0.0
8.537,-0.097,-0.94,0.0
8.109,-0.093,-0.94,0.0
7.719,-0.09,-0.94,0.0
7.395,-0.087,-0.943,0.0
9.465,-0.114,-0.941,0.0
8.919,-0.109,-0.938,0.0
8.433,-0.105,-0.935,0.0
8.039,-0.101,-0.939,0.0
7.684,-0.098,-0.942,0.0
7.383,-0.096,-0.948,0.0
9.37,-0.124,-0.939,0.0
8.845,-0.118,-0.937,0.0
8.407,-0.114,-0.939,0.0
7.978,-0.109,-0.938,0.0
7.644,-0.106,-0.943,0.0
7.272,-0.102,-0.939,0.0
9.303,-0.133,-0.94,0.0
8.779,-0.127,-0.937,0.0
8.326,-0.122,-0.937,0.0
7.916,-0.118,-0.937,0.0
7.603,-0.114,-0.944,0.0
7.278,-0.111,-0.946,0.0
9.237,-0.143,-0.94,0.0
8.711,-0.136,-0.936,0.0
8.285,-0.131,-0.938,0.0
7.881,-0.126,-0.938,0.0
7.549,-0.122,-0.943,0.0
7.288,-0.119,-0.952,0.0
9.181,-0.152,-0.94,0.0
8.67,-0.145,-0.938,0.0
8.235,-0.14,-0.938,0.0
7.846,-0.135,-0.94,0.0
7.534,-0.131,-0.946,0.0
7.196,-0.126,-0.945,0.0
9.125,-0.162,-0.941,0.0
8.641,-0.155,-0.94,0.0
8.142,-0.147,-0.932,0.0
7.796,-0.143,-0.938,0.0
7.483,-0.138,-0.944,0.0
7.166,-0.134,-0.945,0.0
9.054,-0.171,-0.939,0.0
8.56,-0.163,-0.936,0.0
8.147,-0.157,-0.938,0.0
7.745,-0.151,-0.937,0.0
7.462,-0.147,-0.946,0.0
7.155,-0.142,-0.948,0.0
9.024,-0.181,-0.941,0.0
8.525,-0.173,-0.937,0.0
8.094,-0.166,-0.936,0.0
7.738,-0.16,-0.94,0.0
7.423,-0.155,-0.945,0.0
7.129,-0.15,-0.948,0.0
8.947,-0.19,-0.937,0.0
8.508,-0.182,-0.94,0.0
8.094,-0.175,-0.94,0.0
7.647,-0.167,-0.933,0.0
7.352,-0.162,-0.939,0.0
7.107,-0.158,-0.949,0.0
8.927,-0.2,-0.939,0.0
8.446,-0.191,-0.937,0.0
8.042,-0.184,-0.938,0.0
7.661,-0.176,-0.938,0.0
7.402,-0.172,-0.949,0.0
7.093,-0.166,-0.95,0.0
8.874,-0.209,-0.938,0.0
8.399,-0.2,-0.935,0.0
8.019,-0.192,-0.939,0.0
7.674,-0.186,-0.943,0.0
7.348,-0.179,-0.945,0.0
7.056,-0.174,-0.948,0.0
8.832,-0.219,-0.937,0.0
8.38,-0.209,-0.936,0.0
7.99,-0.201,-0.938,0.0
7.618,-0.194,-0.939,0.0
7.341,-0.188,-0.947,0.0
7.015,-0.181,-0.945,0.0
8.823,-0.229,-0.938,0.0
8.339,-0.218,-0.934,0.0
7.95,-0.21,-0.936,0.0
7.605,-0.202,-0.94,0.0
7.322,-0.196,-0.946,0.0
7.019,-0.19,-0.948,0.0
8.805,-0.239,-0.939,0.0
8.342,-0.228,-0.937,0.0
7.937,-0.219,-0.937,0.0
7.609,-0.211,-0.942,0.0
7.304,-0.205,-0.946,0.0
7.0,-0.198,-0.947,0.0
8.785,-0.249,-0.939,0.0
8.306,-0.237,-0.935,0.0
7.908,-0.228,-0.935,0.0
7.539,-0.219,-0.935,0.0
7.309,-0.213,-0.948,0.0
6.989,-0.206,-0.947,0.0
8.765,-0.259,-0.939,0.0
8.3,-0.247,-0.936,0.0
7.912,-0.237,-0.937,0.0
7.588,-0.229,-0.942,0.0
7.277,-0.221,-0.945,0.0
6.977,-0.214,-0.946,0.0
8.747,-0.269,-0.938,0.0
8.307,-0.257,-0.938,0.0
7.895,-0.246,-0.936,0.0
7.547,-0.237,-0.938,0.0
7.287,-0.23,-0.948,0.0
7.003,-0.223,-0.95,0.0
8.74,-0.279,-0.938,0.0
8.301,-0.267,-0.938,0.0
7.892,-0.255,-0.936,0.0
7.554,-0.246,-0.94,0.0
7.283,-0.239,-0.947,0.0
6.978,-0.23,-0.947,0.0
8.741,-0.289,-0.939,0.0
8.315,-0.277,-0.94,0.0
7.877,-0.264,-0.935,0.0
7.558,-0.255,-0.941,0.0
7.246,-0.246,-0.943,0.0
6.977,-0.238,-0.948,0.0
8.742,-0.299,-0.939,0.0
8.309,-0.286,-0.939,0.0
7.912,-0.274,-0.939,0.0
7.561,-0.264,-0.941,0.0
7.272,-0.255,-0.946,0.0
6.995,-0.247,-0.95,0.0
8.76,-0.31,-0.941,0.0
8.296,-0.295,-0.937,0.0
7.923,-0.284,-0.94,0.0
7.57,-0.273,-0.942,0.0
7.255,-0.263,-0.943,0.0
6.991,-0.255,-0.949,0.0
8.765,-0.32,-0.94,0.0
8.33,-0.306,-0.94,0.0
7.914,-0.293,-0.938,0.0
7.572,-0.282,-0.941,0.0
7.314,-0.274,-0.95,0.0
6.996,-0.263,-0.949,0.0
8.759,-0.33,-0.939,0.0
8.336,-0.316,-0.94,0.0
7.915,-0.302,-0.937,0.0
7.579,-0.29,-0.941,0.0
7.282,-0.281,-0.945,0.0
7.001,-0.271,-0.948,0.0
8.794,-0.341,-0.941,0.0
8.324,-0.325,-0.937,0.0
7.927,-0.311,-0.937,0.0
7.607,-0.3,-0.943,0.0
7.314,-0.29,-0.948,0.0
7.032,-0.281,-0.951,0.0
8.824,-0.352,-0.942,0.0
8.348,-0.335,-0.938,0.0
7.936,-0.32,-0.936,0.0
7.634,-0.31,-0.944,0.0
7.319,-0.299,-0.946,0.0
7.037,-0.289,-0.95,0.0
8.833,-0.362,-0.941,0.0
8.383,-0.346,-0.94,0.0
7.972,-0.331,-0.938,0.0
7.592,-0.316,-0.937,0.0
7.324,-0.307,-0.945,0.0
7.023,-0.296,-0.946,0.0
8.851,-0.373,-0.94,0.0
8.393,-0.355,-0.938,0.0
8.003,-0.341,-0.939,0.0
7.642,-0.327,-0.94,0.0
7.353,-0.316,-0.946,0.0
7.068,-0.305,-0.949,0.0
8.885,-0.384,-0.941,0.0
8.425,-0.366,-0.939,0.0
8.009,-0.349,-0.937,0.0
7.695,-0.337,-0.944,0.0
7.396,-0.326,-0.949,0.0
7.068,-0.313,-0.946,0.0
8.935,-0.395,-0.943,0.0
8.455,-0.376,-0.939,0.0
8.059,-0.36,-0.94,0.0
7.687,-0.345,-0.94,0.0
7.393,-0.333,-0.945,0.0
7.118,-0.323,-0.95,0.0
8.971,-0.406,-0.942,0.0
8.525,-0.388,-0.943,0.0
8.081,-0.369,-0.939,0.0
7.741,-0.356,-0.943,0.0
7.419,-0.342,-0.945,0.0
7.134,-0.331,-0.949,0.0
9.021,-0.418,-0.943,0.0
8.532,-0.397,-0.939,0.0
8.111,-0.379,-0.938,0.0
7.762,-0.364,-0.942,0.0
7.434,-0.351,-0.943,0.0
7.152,-0.339,-0.947,0.0
9.078,-0.43,-0.945,0.0
8.585,-0.408,-0.941,0.0
8.149,-0.389,-0.938,0.0
7.795,-0.374,-0.941,0.0
7.472,-0.36,-0.944,0.0
7.189,-0.348,-0.948,0.0
9.136,-0.442,-0.946,0.0
8.646,-0.42,-0.942,0.0
8.194,-0.399,-0.938,0.0
7.808,-0.382,-0.938,0.0
7.476,-0.367,-0.94,0.0
7.202,-0.355,-0.946,0.0
9.204,-0.454,-0.947,0.0
8.682,-0.43,-0.941,0.0
8.231,-0.409,-0.938,0.0
7.867,-0.393,-0.94,0.0
7.54,-0.378,-0.943,0.0
7.233,-0.364,-0.945,0.0
9.282,-0.466,-0.949,0.0
8.788,-0.443,-0.947,0.0
8.321,-0.421,-0.942,0.0
7.906,-0.402,-0.94,0.0
7.576,-0.387,-0.943,0.0
7.269,-0.373,-0.945,0.0
9.334,-0.478,-0.948,0.0
8.83,-0.454,-0.945,0.0
8.356,-0.431,-0.941,0.0
7.977,-0.413,-0.943,0.0
7.627,-0.396,-0.943,0.0
7.327,-0.382,-0.947,0.0
9.422,-0.491,-0.95,0.0
8.902,-0.465,-0.946,0.0
8.391,-0.44,-0.938,0.0
7.999,-0.421,-0.939,0.0
7.681,-0.406,-0.944,0.0
7.36,-0.391,-0.945,0.0
9.502,-0.503,-0.951,0.0
8.974,-0.477,-0.947,0.0
8.486,-0.453,-0.942,0.0
8.016,-0.429,-0.935,0.0
7.755,-0.417,-0.947,0.0
7.392,-0.399,-0.943,0.0
9.589,-0.516,-0.952,0.0
9.061,-0.489,-0.949,0.0
8.58,-0.465,-0.945,0.0
8.12,-0.442,-0.94,0.0
7.789,-0.425,-0.945,0.0
7.442,-0.408,-0.943,0.0
9.694,-0.53,-0.954,0.0
9.14,-0.501,-0.949,0.0
8.635,-0.475,-0.944,0.0
8.172,-0.451,-0.939,0.0
7.833,-0.434,-0.943,0.0
7.501,-0.417,-0.944,0.0
9.751,-0.541,-0.951,0.0
9.228,-0.513,-0.95,0.0
8.738,-0.488,-0.947,0.0
8.244,-0.462,-0.94,0.0
7.922,-0.445,-0.946,0.0
7.578,-0.427,-0.947,0.0
9.883,-0.556,-0.955,0.0
9.335,-0.527,-0.953,0.0
8.793,-0.498,-0.945,0.0
8.347,-0.474,-0.944,0.0
7.952,-0.453,-0.942,0.0
7.607,-0.434,-0.943,0.0
9.979,-0.569,-0.954,0.0
9.436,-0.539,-0.954,0.0
8.903,-0.51,-0.948,0.0
8.44,-0.485,-0.946,0.0
8.031,-0.463,-0.944,0.0
7.69,-0.445,-0.946,0.0
10.085,-0.582,-0.955,0.0
9.552,-0.553,-0.956,0.0
8.987,-0.521,-0.948,0.0
8.489,-0.494,-0.943,0.0
8.093,-0.472,-0.943,0.0
7.772,-0.455,-0.948,0.0
10.21,-0.596,-0.956,0.0
9.634,-0.564,-0.954,0.0
9.096,-0.534,-0.95,0.0
8.582,-0.505,-0.944,0.0
8.165,-0.482,-0.943,0.0
7.826,-0.463,-0.946,0.0
10.322,-0.609,-0.956,0.0
9.741,-0.577,-0.954,0.0
9.199,-0.546,-0.951,0.0
8.73,-0.519,-0.951,0.0
8.265,-0.493,-0.945,0.0
7.913,-0.473,-0.948,0.0
10.443,-0.623,-0.955,0.0
9.877,-0.591,-0.957,0.0
9.31,-0.558,-0.952,0.0
8.801,-0.529,-0.949,0.0
8.35,-0.503,-0.945,0.0
7.977,-0.482,-0.947,0.0
10.582,-0.638,-0.956,0.0
9.951,-0.601,-0.953,0.0
9.423,-0.57,-0.953,0.0
8.91,-0.541,-0.95,0.0
8.451,-0.514,-0.947,0.0
8.061,-0.492,-0.947,0.0
10.685,-0.65,-0.953,0.0
10.091,-0.615,-0.954,0.0
9.568,-0.585,-0.957,0.0
9.003,-0.551,-0.949,0.0
8.55,-0.525,-0.948,0.0
8.137,-0.501,-0.946,0.0
10.83,-0.664,-0.953,0.0
10.273,-0.632,-0.96,0.0
9.676,-0.596,-0.956,0.0
9.147,-0.565,-0.954,0.0
8.663,-0.536,-0.95,0.0
8.225,-0.51,-0.947,0.0
11.052,-0.683,-0.96,0.0
10.375,-0.643,-0.956,0.0
9.814,-0.609,-0.957,0.0
9.262,-0.576,-0.954,0.0
8.767,-0.546,-0.951,0.0
8.285,-0.517,-0.943,0.0
11.144,-0.694,-0.954,0.0
10.476,-0.654,-0.953,0.0
9.939,-0.621,-0.957,0.0
9.374,-0.587,-0.954,0.0
8.867,-0.557,-0.95,0.0
8.434,-0.53,-0.949,0.0
11.399,-0.715,-0.961,0.0
10.631,-0.668,-0.953,0.0
10.072,-0.634,-0.957,0.0
9.543,-0.602,-0.959,0.0
9.012,-0.569,-0.954,0.0
8.53,-0.54,-0.949,0.0
11.584,-0.731,-0.962,0.0
10.241,-0.648,-0.959,0.0
9.671,-0.613,-0.959,0.0
9.138,-0.581,-0.955,0.0
8.662,-0.551,-0.952,0.0
11.76,-0.746,-0.96,0.0
11.035,-0.701,-0.96,0.0
10.399,-0.662,-0.96,0.0
9.83,-0.627,-0.961,0.0
9.286,-0.593,-0.958,0.0
8.779,-0.561,-0.953,0.0
12.027,-0.767,-0.966,0.0
11.166,-0.713,-0.956,0.0
10.526,-0.673,-0.958,0.0
9.947,-0.637,-0.959,0.0
9.431,-0.605,-0.96,0.0
8.897,-0.571,-0.953,0.0
12.266,-0.785,-0.968,0.0
11.448,-0.734,-0.965,0.0
10.68,-0.686,-0.957,0.0
10.107,-0.65,-0.96,0.0
9.566,-0.616,-0.96,0.0
9.029,-0.582,-0.954,0.0
12.538,-0.806,-0.972,0.0
11.645,-0.749,-0.965,0.0
10.953,-0.706,-0.966,0.0
10.282,-0.663,-0.962,0.0
9.727,-0.628,-0.962,0.0
9.164,-0.593,-0.955,0.0
12.691,-0.818,-0.966,0.0
11.813,-0.762,-0.962,0.0
11.101,-0.717,-0.963,0.0
10.397,-0.672,-0.958,0.0
9.895,-0.641,-0.964,0.0
9.301,-0.603,-0.956,0.0
12.888,-0.833,-0.962,0.0
12.082,-0.782,-0.966,0.0
11.249,-0.728,-0.959,0.0
10.607,-0.687,-0.962,0.0
10.004,-0.649,-0.96,0.0
9.513,-0.618,-0.964,0.0
13.125,-0.85,-0.961,0.0
12.425,-0.805,-0.975,0.0
11.534,-0.748,-0.966,0.0
10.753,-0.698,-0.959,0.0
10.183,-0.662,-0.962,0.0
9.619,-0.625,-0.96,0.0
13.47,-0.873,-0.966,0.0
12.615,-0.818,-0.971,0.0
11.716,-0.761,-0.964,0.0
10.973,-0.713,-0.962,0.0
10.328,-0.671,-0.96,0.0
9.806,-0.638,-0.964,0.0
13.879,-0.9,-0.974,0.0
12.795,-0.83,-0.966,0.0
11.989,-0.779,-0.968,0.0
11.141,-0.724,-0.96,0.0
10.496,-0.682,-0.96,0.0
9.943,-0.647,-0.962,0.0
14.076,-0.913,-0.967,0.0
13.017,-0.845,-0.963,0.0
12.238,-0.794,-0.97,0.0
11.417,-0.742,-0.966,0.0
10.688,-0.695,-0.961,0.0
10.107,-0.657,-0.962,0.0
14.639,-0.949,-0.983,0.0
24.542,-1.592,-1.777,0.0
12.553,-0.814,-0.975,0.0
11.613,-0.753,-0.964,0.0
10.86,-0.705,-0.959,0.0
10.296,-0.669,-0.964,0.0
14.686,-0.951,-0.963,1.0
13.796,-0.893,-0.977,0.0
12.725,-0.824,-0.968,0.0
11.888,-0.77,-0.969,0.0
11.107,-0.72,-0.964,0.0
10.441,-0.677,-0.961,0.0
14.691,-0.949,-0.94,1.0
13.952,-0.901,-0.966,0.0
12.96,-0.838,-0.966,0.0
12.167,-0.786,-0.972,0.0
11.355,-0.734,-0.967,0.0
10.639,-0.688,-0.962,0.0
14.715,-0.948,-0.919,1.0
14.605,-0.941,-0.989,0.0
24.634,-1.588,-1.797,0.0
12.495,-0.805,-0.978,0.0
11.562,-0.745,-0.966,0.0
10.828,-0.698,-0.962,0.0
14.713,-0.945,-0.895,1.0
14.726,-0.946,-0.973,1.0
13.706,-0.88,-0.978,0.0
12.641,-0.812,-0.97,0.0
11.827,-0.759,-0.969,0.0
11.049,-0.709,-0.964,0.0
14.731,-0.943,-0.873,1.0
14.723,-0.942,-0.949,1.0
13.908,-0.889,-0.97,0.0
12.892,-0.824,-0.968,0.0
12.074,-0.772,-0.97,0.0
11.24,-0.718,-0.962,0.0
14.861,-0.947,-0.856,0.0
14.721,-0.937,-0.925,1.0
14.404,-0.917,-0.981,0.0
13.17,-0.838,-0.968,0.0
12.409,-0.789,-0.977,0.0
11.498,-0.731,-0.966,0.0
15.181,-0.962,-0.85,0.0
14.75,-0.934,-0.903,1.0
14.73,-0.932,-0.98,0.0
13.509,-0.855,-0.971,0.0
12.632,-0.799,-0.974,0.0
11.748,-0.742,-0.968,0.0
15.438,-0.973,-0.84,1.0
14.764,-0.929,-0.88,1.0
14.762,-0.929,-0.958,1.0
13.835,-0.87,-0.971,0.0
12.84,-0.807,-0.969,0.0
12.026,-0.755,-0.971,0.0
15.701,-0.983,-0.828,1.0
14.857,-0.929,-0.862,0.0
14.767,-0.922,-0.934,1.0
14.239,-0.889,-0.976,0.0
13.125,-0.819,-0.969,0.0
12.339,-0.769,-0.976,0.0
16.028,-0.996,-0.819,1.0
15.189,-0.942,-0.856,0.0
14.783,-0.916,-0.91,1.0
14.765,-0.914,-0.988,0.0
13.48,-0.834,-0.972,0.0
12.553,-0.776,-0.971,0.0
16.33,-1.006,-0.807,1.0
15.424,-0.949,-0.843,0.0
14.814,-0.911,-0.887,1.0
14.815,-0.91,-0.967,1.0
13.839,-0.849,-0.975,0.0
12.838,-0.786,-0.972,0.0
16.961,-1.036,-0.811,1.0
15.695,-0.957,-0.832,1.0
14.864,-0.905,-0.866,1.0
14.826,-0.902,-0.943,1.0
14.155,-0.86,-0.974,0.0
13.135,-0.797,-0.973,0.0
17.424,-1.054,-0.804,1.0
16.042,-0.969,-0.824,1.0
15.203,-0.917,-0.86,1.0
14.856,-0.895,-0.92,1.0
14.724,-0.885,-0.989,0.0
24.536,-1.473,-1.776,0.0
17.911,-1.072,-0.797,0.0
16.281,-0.973,-0.809,1.0
15.382,-0.918,-0.845,0.0
14.862,-0.885,-0.896,1.0
14.874,-0.884,-0.974,1.0
13.733,-0.815,-0.971,0.0
18.603,-1.101,-0.797,1.0
16.787,-0.992,-0.807,0.0
15.682,-0.925,-0.835,0.0
14.924,-0.879,-0.874,1.0
14.906,-0.876,-0.952,1.0
14.19,-0.833,-0.98,0.0
19.277,-1.127,-0.794,1.0
17.375,-1.014,-0.806,0.0
16.081,-0.937,-0.83,1.0
15.075,-0.876,-0.858,0.0
14.947,-0.867,-0.929,1.0
14.756,-0.855,-0.995,0.0
19.946,-1.152,-0.788,1.0
18.001,-1.037,-0.805,0.0
16.31,-0.937,-0.815,1.0
15.427,-0.885,-0.853,0.0
14.977,-0.857,-0.906,1.0
14.874,-0.85,-0.978,1.0
20.693,-1.178,-0.784,3.0
18.494,-1.051,-0.797,1.0
16.713,-0.947,-0.807,1.0
15.645,-0.885,-0.839,1.0
14.991,-0.846,-0.883,1.0
14.957,-0.842,-0.959,1.0
21.381,-1.199,-0.775,1.0
19.178,-1.073,-0.795,0.0
17.282,-0.965,-0.806,0.0
15.947,-0.888,-0.829,0.0
15.124,-0.84,-0.865,0.0
15.046,-0.834,-0.939,1.0
22.25,-1.229,-0.769,2.0
19.968,-1.1,-0.795,0.0
17.847,-0.98,-0.803,0.0
16.291,-0.892,-0.82,0.0
15.386,-0.84,-0.855,0.0
15.083,-0.822,-0.917,0.0
23.402,-1.271,-0.771,5.0
20.62,-1.117,-0.787,2.0
18.51,-1.0,-0.803,0.0
16.695,-0.899,-0.813,1.0
15.678,-0.842,-0.846,1.0
15.151,-0.811,-0.896,0.0
23.821,-1.271,-0.746,15.0
21.275,-1.132,-0.777,1.0
19.149,-1.015,-0.799,0.0
17.267,-0.913,-0.813,0.0
15.955,-0.841,-0.834,0.0
15.212,-0.799,-0.875,1.0
24.058,-1.259,-0.714,19.0
22.312,-1.164,-0.779,2.0
19.736,-1.026,-0.791,0.0
17.776,-0.921,-0.808,0.0
16.31,-0.843,-0.826,1.0
15.345,-0.79,-0.858,1.0
24.409,-1.253,-0.685,14.0
23.423,-1.198,-0.779,5.0
20.59,-1.049,-0.793,0.0
18.384,-0.933,-0.805,0.0
16.627,-0.841,-0.815,1.0
15.668,-0.79,-0.85,0.0
24.602,-1.236,-0.651,3.0
23.807,-1.192,-0.754,14.0
21.234,-1.059,-0.783,1.0
18.987,-0.943,-0.801,0.0
17.139,-0.848,-0.813,0.0
15.957,-0.787,-0.84,1.0
28.515,-1.4,-0.708,1.0
24.062,-1.177,-0.723,15.0
22.045,-1.074,-0.778,2.0
19.678,-0.955,-0.799,0.0
17.72,-0.856,-0.812,0.0
16.211,-0.78,-0.828,1.0
30.475,-1.462,-0.709,22.0
24.511,-1.17,-0.698,10.0
23.28,-1.107,-0.784,4.0
20.508,-0.971,-0.8,0.0
18.285,-0.862,-0.809,0.0
16.586,-0.778,-0.82,1.0
30.608,-1.431,-0.663,32.0
24.654,-1.147,-0.663,1.0
23.788,-1.102,-0.764,13.0
21.157,-0.976,-0.792,1.0
19.056,-0.875,-0.813,0.0
17.15,-0.784,-0.821,1.0
30.769,-1.401,-0.619,33.0
28.622,-1.297,-0.725,3.0
24.001,-1.082,-0.733,15.0
21.913,-0.983,-0.786,2.0
19.599,-0.875,-0.806,0.0
17.672,-0.785,-0.819,1.0
28.478,-1.26,-0.529,49.0
28.465,-1.254,-0.677,55.0
24.607,-1.078,-0.714,10.0
22.741,-0.991,-0.781,3.0
20.175,-0.875,-0.799,0.0
18.231,-0.786,-0.817,0.0
28.448,-1.222,-0.485,70.0
28.439,-1.215,-0.633,95.0
28.227,-1.2,-0.777,4.0
23.766,-1.004,-0.78,11.0
20.766,-0.873,-0.791,0.0
18.674,-0.781,-0.809,0.0
28.45,-1.184,-0.442,117.0
28.453,-1.177,-0.591,131.0
28.44,-1.17,-0.74,81.0
23.856,-0.976,-0.748,18.0
21.666,-0.881,-0.793,1.0
19.348,-0.782,-0.809,0.0
28.458,-1.145,-0.4,76.0
28.456,-1.138,-0.548,60.0
28.474,-1.132,-0.698,56.0
24.527,-0.969,-0.732,12.0
22.338,-0.877,-0.784,2.0
20.138,-0.786,-0.812,1.0
28.463,-1.105,-0.357,27.0
31.208,-1.204,-0.556,26.0
30.507,-1.17,-0.703,28.0
25.063,-0.954,-0.711,4.0
23.574,-0.892,-0.793,5.0
20.533,-0.772,-0.798,1.0
31.365,-1.173,-0.349,25.0
31.297,-1.162,-0.512,35.0
30.584,-1.128,-0.66,34.0
27.934,-1.023,-0.752,0.0
23.8,-0.865,-0.766,18.0
21.323,-0.77,-0.798,0.0
45.539,-1.636,-0.441,1.0
38.253,-1.364,-0.571,13.0
30.863,-1.093,-0.623,30.0
0.0,0.0,0.0,0.0
24.364,-0.85,-0.75,24.0
22.39,-0.775,-0.807,4.0
54.167,-1.865,-0.448,2.0
38.535,-1.316,-0.521,12.0
31.267,-1.059,-0.587,27.0
30.412,-1.022,-0.733,18.0
24.949,-0.832,-0.733,8.0
22.984,-0.76,-0.796,5.0
38.707,-1.272,-0.266,39.0
38.645,-1.26,-0.468,29.0
37.957,-1.227,-0.66,8.0
30.483,-0.977,-0.693,36.0
27.595,-0.877,-0.773,0.0
23.756,-0.749,-0.79,12.0
38.671,-1.21,-0.213,59.0
38.629,-1.198,-0.416,36.0
38.05,-1.17,-0.61,14.0
30.683,-0.935,-0.656,34.0
28.35,-0.856,-0.756,1.0
23.843,-0.713,-0.761,17.0
38.669,-1.149,-0.161,94.0
38.64,-1.137,-0.364,60.0
38.323,-1.117,-0.563,13.0
31.031,-0.895,-0.622,29.0
30.12,-0.86,-0.763,6.0
24.527,-0.694,-0.75,14.0
38.653,-1.085,-0.11,73.0
38.667,-1.074,-0.314,57.0
38.568,-1.06,-0.516,21.0
31.423,-0.855,-0.589,10.0
30.42,-0.819,-0.731,28.0
25.288,-0.674,-0.741,4.0
38.685,-1.022,-0.06,42.0
38.716,-1.012,-0.265,38.0
38.688,-1.0,-0.469,30.0
37.906,-0.969,-0.663,15.0
30.551,-0.772,-0.696,33.0
27.756,-0.693,-0.778,0.0
0.0,0.0,0.0,0.0
40.375,-0.987,-0.225,31.0
0.0,0.0,0.0,0.0
38.101,-0.909,-0.618,22.0
30.834,-0.726,-0.663,31.0
28.424,-0.661,-0.762,1.0
40.423,-0.93,0.038,72.0
40.401,-0.918,-0.175,46.0
40.429,-0.906,-0.389,26.0
38.376,-0.849,-0.576,16.0
31.306,-0.683,-0.635,22.0
30.249,-0.651,-0.774,8.0
38.375,-0.817,0.082,54.0
38.37,-0.805,-0.12,37.0
38.354,-0.793,-0.323,11.0
44.898,-0.915,-0.62,7.0
31.565,-0.633,-0.603,1.0
30.462,-0.602,-0.743,23.0
52.969,-1.034,0.176,55.0
52.971,-1.018,-0.103,21.0
52.912,-1.0,-0.383,48.0
44.952,-0.836,-0.568,34.0
37.864,-0.692,-0.679,13.0
30.592,-0.55,-0.711,30.0
20.132,-0.356,0.09,10.0
20.129,-0.35,-0.016,35.0
53.024,-0.907,-0.324,13.0
45.307,-0.761,-0.521,19.0
38.156,-0.629,-0.641,20.0
31.023,-0.502,-0.686,26.0
20.123,-0.32,0.113,16.0
20.139,-0.314,0.006,25.0
56.792,-0.867,-0.283,2.0
52.834,-0.791,-0.549,13.0
38.747,-0.568,-0.608,14.0
31.905,-0.457,-0.67,9.0
20.139,-0.283,0.135,10.0
59.534,-0.82,0.083,63.0
59.563,-0.802,-0.233,5.0
53.034,-0.697,-0.494,6.0
44.858,-0.575,-0.656,10.0
35.937,-0.449,-0.717,4.0
20.168,-0.246,0.157,3.0
56.261,-0.668,0.139,1.0
56.301,-0.651,-0.16,0.0
59.133,-0.665,-0.488,4.0
44.922,-0.491,-0.61,34.0
37.562,-0.398,-0.71,13.0
64.33,-0.664,0.568,137.0
56.169,-0.561,0.197,11.0
56.228,-0.544,-0.102,16.0
56.543,-0.529,-0.409,1.0
20.155,-0.182,-0.253,11.0
20.173,-0.175,-0.361,24.0
20.258,-0.17,0.199,2.0
58.324,-0.472,0.262,27.0
20.188,-0.157,-0.016,12.0
20.147,-0.15,-0.126,18.0
20.125,-0.143,-0.233,18.0
20.146,-0.137,-0.341,35.0
20.137,-0.131,0.217,18.0
20.123,-0.124,0.109,18.0
20.138,-0.118,0.002,27.0
20.143,-0.111,-0.107,27.0
20.158,-0.105,-0.215,21.0
20.137,-0.098,-0.322,38.0
20.121,-0.092,0.236,28.0
20.129,-0.085,0.128,28.0
20.125,-0.079,0.02,34.0
20.135,-0.072,-0.088,33.0
20.143,-0.066,-0.196,30.0
20.156,-0.059,-0.304,26.0
20.12,-0.053,0.254,32.0
20.121,-0.046,0.146,33.0
20.132,-0.04,0.038,39.0
20.143,-0.033,-0.071,30.0
20.173,-0.027,-0.179,23.0
20.173,-0.02,-0.287,8.0
20.121,-0.013,0.271,27.0
20.127,-0.007,0.163,28.0
20.172,0.0,0.056,29.0
20.248,0.005,-0.054,151.0
20.251,0.012,-0.162,151.0
20.254,0.019,-0.271,151.0
20.123,0.025,0.288,30.0
20.126,0.032,0.18,28.0
20.148,0.039,0.072,20.0
20.193,0.045,-0.037,17.0
20.22,0.052,-0.146,26.0
20.222,0.059,-0.255,0.0
20.144,0.065,0.304,27.0
20.146,0.072,0.196,28.0
20.176,0.079,0.088,28.0
20.182,0.086,-0.021,27.0
20.186,0.093,-0.13,32.0
20.184,0.099,-0.239,26.0
20.152,0.106,0.32,29.0
20.165,0.113,0.212,26.0
20.18,0.12,0.103,29.0
20.172,0.127,-0.006,27.0
20.173,0.133,-0.115,34.0
20.176,0.14,-0.224,31.0
20.19,0.147,0.335,27.0
20.182,0.154,0.226,19.0
20.215,0.161,0.118,20.0
20.297,0.168,0.007,30.0
20.229,0.175,-0.101,20.0
20.168,0.181,-0.209,18.0
20.284,0.189,0.351,34.0
20.285,0.196,0.241,27.0
20.311,0.203,0.132,29.0
20.309,0.21,0.021,17.0
0.0,0.0,0.0,0.0
20.205,0.222,-0.197,11.0
20.273,0.231,0.364,29.0
20.281,0.238,0.255,20.0
20.306,0.245,0.145,2.0
99.584,1.235,0.166,6.0
0.0,0.0,0.0,0.0
0.0,0.0,0.0,0.0
20.293,0.273,0.377,2.0
195.335,2.694,2.577,9.0
0.0,0.0,0.0,0.0
99.655,1.44,0.226,5.0
101.452,1.501,-0.317,1.0
0.0,0.0,0.0,0.0
195.035,3.026,3.741,25.0
195.074,3.093,2.686,8.0
99.56,1.611,0.832,2.0
99.826,1.649,0.283,5.0
100.227,1.689,-0.258,1.0
0.0,0.0,0.0,0.0
194.535,3.42,3.837,17.0
194.87,3.49,2.788,6.0
0.0,0.0,0.0,0.0
99.892,1.856,0.335,11.0
0.0,0.0,0.0,0.0
0.0,0.0,0.0,0.0
194.451,3.825,3.936,20.0
199.525,3.99,2.955,15.0
103.02,2.095,0.966,1.0
99.961,2.065,0.385,4.0
100.018,2.1,-0.157,6.0
0.0,0.0,0.0,0.0
194.037,4.221,4.019,15.0
195.32,4.313,2.984,24.0
0.0,0.0,0.0,0.0
100.151,2.278,0.431,4.0
100.139,2.311,-0.113,61.0
0.0,0.0,0.0,0.0
193.946,4.626,4.102,31.0
194.933,4.711,3.061,15.0
0.0,0.0,0.0,0.0
100.348,2.49,0.473,1.0
100.272,2.521,-0.072,1.0
0.0,0.0,0.0,0.0
193.694,5.02,4.173,29.0
200.581,5.264,3.228,16.0
195.026,5.184,2.076,22.0
103.153,2.776,0.525,2.0
103.313,2.814,-0.036,2.0
0.0,0.0,0.0,0.0
193.675,5.427,4.242,34.0
196.84,5.579,3.237,6.0
195.662,5.607,2.149,15.0
196.003,5.683,1.064,34.0
0.0,0.0,0.0,0.0
0.0,0.0,0.0,0.0
193.802,5.832,4.307,34.0
0.0,0.0,0.0,0.0
195.518,6.011,2.208,5.0
196.122,6.093,1.123,35.0
0.0,0.0,0.0,0.0
0.0,0.0,0.0,0.0
194.721,6.266,4.382,17.0
195.143,6.342,3.324,21.0
0.0,0.0,0.0,0.0
196.22,6.503,1.174,25.0
0.0,0.0,0.0,0.0
0.0,0.0,0.0,0.0
195.285,6.69,4.442,4.0
195.471,6.758,3.375,22.0
202.774,7.075,2.391,23.0
196.343,6.916,1.22,33.0
0.0,0.0,0.0,0.0
0.0,0.0,0.0,0.0
195.159,7.09,4.48,6.0
203.327,7.451,3.551,6.0
203.093,7.509,2.433,6.0
195.07,7.276,1.247,14.0
0.0,0.0,0.0,0.0
0.0,0.0,0.0,0.0
195.231,7.501,4.513,6.0
0.0,0.0,0.0,0.0
0.0,0.0,0.0,0.0
196.5,7.735,1.285,36.0
0.0,0.0,0.0,0.0
0.0,0.0,0.0,0.0
195.384,7.915,4.543,8.0
196.97,8.04,3.495,6.0
0.0,0.0,0.0,0.0
196.719,8.155,1.308,25.0
0.0,0.0,0.0,0.0
0.0,0.0,0.0,0.0
192.714,8.203,4.498,6.0
196.788,8.437,3.51,19.0
195.488,8.44,2.409,33.0
195.534,8.504,1.314,54.0
0.0,0.0,0.0,0.0
0.0,0.0,0.0,0.0
0.0,0.0,0.0,0.0
197.019,8.853,3.522,8.0
206.274,9.329,2.55,8.0
196.844,8.965,1.328,37.0
0.0,0.0,0.0,0.0
0.0,0.0,0.0,0.0
0.0,0.0,0.0,0.0
0.0,0.0,0.0,0.0
0.0,0.0,0.0,0.0
196.992,9.373,1.328,28.0
0.0,0.0,0.0,0.0
0.0,0.0,0.0,0.0
196.352,9.565,4.591,5.0
197.459,9.676,3.525,8.0
197.801,9.754,2.438,21.0
197.058,9.778,1.32,32.0
0.0,0.0,0.0,0.0
0.0,0.0,0.0,0.0
197.148,9.998,4.597,8.0
197.816,10.093,3.518,8.0
0.0,0.0,0.0,0.0
197.123,10.174,1.304,36.0
0.0,0.0,0.0,0.0
0.0,0.0,0.0,0.0
0.0,0.0,0.0,0.0
0.0,0.0,0.0,0.0
206.805,11.027,2.511,6.0
196.789,10.552,1.279,15.0
0.0,0.0,0.0,0.0
0.0,0.0,0.0,0.0
196.073,10.732,4.527,53.0
196.059,10.789,3.439,32.0
196.136,10.85,2.351,9.0
197.285,10.971,1.252,19.0
0.0,0.0,0.0,0.0
0.0,0.0,0.0,0.0
197.843,11.225,4.532,5.0
0.0,0.0,0.0,0.0
0.0,0.0,0.0,0.0
197.442,11.375,1.215,31.0
0.0,0.0,0.0,0.0
0.0,0.0,0.0,0.0
0.0,0.0,0.0,0.0
0.0,0.0,0.0,0.0
208.096,12.341,2.41,10.0
197.476,11.765,1.169,32.0
0.0,0.0,0.0,0.0
0.0,0.0,0.0,0.0
0.0,0.0,0.0,0.0
0.0,0.0,0.0,0.0
0.0,0.0,0.0,0.0
155.411,9.561,0.878,150.0
0.0,0.0,0.0,0.0
0.0,0.0,0.0,0.0
0.0,0.0,0.0,0.0
0.0,0.0,0.0,0.0
0.0,0.0,0.0,0.0
155.005,9.832,0.83,3.0
0.0,0.0,0.0,0.0
0.0,0.0,0.0,0.0
0.0,0.0,0.0,0.0
0.0,0.0,0.0,0.0
0.0,0.0,0.0,0.0
154.937,10.126,0.778,30.0
0.0,0.0,0.0,0.0
69.013,4.548,-0.423,1.0
173.749,11.544,3.736,6.0
0.0,0.0,0.0,0.0
0.0,0.0,0.0,0.0
154.925,10.417,0.72,150.0
0.0,0.0,0.0,0.0
0.0,0.0,0.0,0.0
173.721,11.869,3.667,11.0
210.321,14.422,3.264,20.0
0.0,0.0,0.0,0.0
154.982,10.711,0.656,13.0
0.0,0.0,0.0,0.0
68.959,4.803,-0.478,0.0
174.151,12.223,3.602,9.0
0.0,0.0,0.0,0.0
0.0,0.0,0.0,0.0
140.637,9.979,0.534,151.0
0.0,0.0,0.0,0.0
0.0,0.0,0.0,0.0
168.075,12.105,3.399,16.0
173.325,12.528,2.534,12.0
0.0,0.0,0.0,0.0
140.558,10.232,0.467,150.0
0.0,0.0,0.0,0.0
0.0,0.0,0.0,0.0
168.103,12.414,3.317,20.0
168.271,12.469,2.377,25.0
0.0,0.0,0.0,0.0
0.0,0.0,0.0,0.0
0.0,0.0,0.0,0.0
0.0,0.0,0.0,0.0
168.089,12.711,3.23,16.0
168.125,12.756,2.287,7.0
122.297,9.308,0.977,2.0
114.081,8.712,0.259,68.0
0.0,0.0,0.0,0.0
0.0,0.0,0.0,0.0
156.013,12.073,2.911,27.0
162.155,12.585,2.114,41.0
114.288,8.898,0.848,6.0
114.018,8.906,0.194,47.0
0.0,0.0,0.0,0.0
0.0,0.0,0.0,0.0
156.023,12.344,2.819,44.0
155.962,12.377,1.941,31.0
114.047,9.078,0.778,19.0
110.216,8.799,0.121,2.0
0.0,0.0,0.0,0.0
0.0,0.0,0.0,0.0
196.397,15.874,3.427,11.0
0.0,0.0,0.0,0.0
110.44,8.979,0.684,22.0
109.259,8.907,0.05,3.0
0.0,0.0,0.0,0.0
0.0,0.0,0.0,0.0
202.904,16.741,3.409,7.0
0.0,0.0,0.0,0.0
0.0,0.0,0.0,0.0
108.121,8.994,-0.021,5.0
69.033,5.758,-0.402,0.0
0.0,0.0,0.0,0.0
213.988,18.007,3.451,6.0
128.789,10.866,1.35,5.0
107.776,9.118,0.522,6.0
107.839,9.147,-0.096,11.0
0.0,0.0,0.0,0.0
0.0,0.0,0.0,0.0
153.577,13.172,2.367,19.0
128.875,11.082,1.259,4.0
107.662,9.281,0.445,22.0
107.71,9.308,-0.173,7.0
69.092,5.986,-0.5,0.0
0.0,0.0,0.0,0.0
153.161,13.38,2.248,23.0
108.569,9.508,0.98,3.0
107.645,9.45,0.364,17.0
101.229,8.909,-0.239,1.0
68.923,6.081,-0.552,2.0
0.0,0.0,0.0,0.0
152.653,13.577,2.123,29.0
108.362,9.66,0.894,4.0
0.0,0.0,0.0,0.0
0.0,0.0,0.0,0.0
68.901,6.186,-0.606,0.0
0.0,0.0,0.0,0.0
152.418,13.79,1.997,23.0
0.0,0.0,0.0,0.0
93.521,8.499,0.168,3.0
0.0,0.0,0.0,0.0
0.0,0.0,0.0,0.0
0.0,0.0,0.0,0.0
151.692,13.95,1.864,17.0
0.0,0.0,0.0,0.0
92.742,8.565,0.09,1.0
0.0,0.0,0.0,0.0
0.0,0.0,0.0,0.0
0.0,0.0,0.0,0.0
151.669,14.171,1.736,8.0
0.0,0.0,0.0,0.0
92.561,8.683,0.011,1.0
0.0,0.0,0.0,0.0
0.0,0.0,0.0,0.0
0.0,0.0,0.0,0.0
0.0,0.0,0.0,0.0
92.649,8.805,0.454,1.0
92.554,8.814,-0.071,1.0
68.887,6.573,-0.45,2.0
0.0,0.0,0.0,0.0
40.844,3.913,-0.73,0.0
0.0,0.0,0.0,0.0
92.404,8.911,0.369,1.0
0.0,0.0,0.0,0.0
68.891,6.669,-0.513,3.0
0.0,0.0,0.0,0.0
39.327,3.822,-0.739,0.0
0.0,0.0,0.0,0.0
0.0,0.0,0.0,0.0
85.377,8.364,-0.221,4.0
68.875,6.76,-0.577,1.0
0.0,0.0,0.0,0.0
38.737,3.816,-0.765,0.0
0.0,0.0,0.0,0.0
0.0,0.0,0.0,0.0
85.428,8.481,-0.304,1.0
0.0,0.0,0.0,0.0
0.0,0.0,0.0,0.0
37.44,3.737,-0.775,0.0
0.0,0.0,0.0,0.0
0.0,0.0,0.0,0.0
0.0,0.0,0.0,0.0
0.0,0.0,0.0,0.0
0.0,0.0,0.0,0.0
0.0,0.0,0.0,0.0
0.0,0.0,0.0,0.0
0.0,0.0,0.0,0.0
0.0,0.0,0.0,0.0
0.0,0.0,0.0,0.0
0.0,0.0,0.0,0.0
34.794,3.559,-0.79,0.0
0.0,0.0,0.0,0.0
0.0,0.0,0.0,0.0
68.962,7.102,-0.451,2.0
0.0,0.0,0.0,0.0
40.096,4.142,-0.723,0.0
33.773,3.495,-0.801,0.0
0.0,0.0,0.0,0.0
0.0,0.0,0.0,0.0
68.954,7.181,-0.522,2.0
0.0,0.0,0.0,0.0
0.0,0.0,0.0,0.0
33.22,3.475,-0.823,0.0
82.253,8.634,0.228,1.0
0.0,0.0,0.0,0.0
68.944,7.256,-0.594,1.0
0.0,0.0,0.0,0.0
37.592,3.968,-0.756,0.0
0.0,0.0,0.0,0.0
82.107,8.708,0.139,3.0
0.0,0.0,0.0,0.0
82.044,8.724,-0.796,8.0
0.0,0.0,0.0,0.0
36.947,3.939,-0.783,0.0
30.236,3.228,-0.813,0.0
82.043,8.787,0.05,150.0
77.701,8.332,-0.395,1.0
0.0,0.0,0.0,0.0
42.154,4.532,-0.699,0.0
35.158,3.785,-0.784,0.0
29.892,3.222,-0.837,0.0
77.242,8.351,-0.036,9.0
0.0,0.0,0.0,0.0
0.0,0.0,0.0,0.0
40.715,4.417,-0.72,0.0
33.557,3.645,-0.785,0.0
28.885,3.142,-0.841,0.0
76.59,8.354,-0.121,8.0
0.0,0.0,0.0,0.0
0.0,0.0,0.0,0.0
39.495,4.322,-0.743,0.0
32.798,3.594,-0.804,0.0
28.018,3.074,-0.847,0.0
76.072,8.366,-0.205,6.0
68.853,7.581,-0.579,1.0
0.0,0.0,0.0,0.0
37.666,4.156,-0.751,0.0
31.7,3.502,-0.813,0.0
27.34,3.024,-0.858,0.0
75.638,8.385,-0.29,9.0
0.0,0.0,0.0,0.0
0.0,0.0,0.0,0.0
36.994,4.113,-0.78,0.0
31.311,3.485,-0.839,0.0
26.42,2.944,-0.859,0.0
75.271,8.407,-0.375,4.0
0.0,0.0,0.0,0.0
0.0,0.0,0.0,0.0
35.266,3.95,-0.784,0.0
29.89,3.352,-0.836,0.0
25.695,2.885,-0.866,0.0
68.931,7.754,-0.424,2.0
0.0,0.0,0.0,0.0
41.049,4.625,-0.722,2.0
34.385,3.878,-0.805,0.0
28.704,3.241,-0.836,0.0
24.744,2.796,-0.862,0.0
68.874,7.798,-0.504,2.0
0.0,0.0,0.0,0.0
39.564,4.487,-0.742,0.0
32.366,3.674,-0.796,0.0
27.667,3.144,-0.838,0.0
24.199,2.752,-0.872,0.0
0.0,0.0,0.0,0.0
0.0,0.0,0.0,0.0
0.0,0.0,0.0,0.0
31.532,3.601,-0.813,0.0
27.108,3.099,-0.854,0.0
23.6,2.7,-0.878,0.0
0.0,0.0,0.0,0.0
0.0,0.0,0.0,0.0
36.964,4.242,-0.781,0.0
30.514,3.504,-0.823,0.0
26.114,3.002,-0.854,0.0
21.957,2.526,-0.844,0.0
0.0,0.0,0.0,0.0
42.056,4.848,-0.698,1.0
0.0,0.0,0.0,0.0
29.583,3.415,-0.833,0.0
25.379,2.932,-0.86,0.0
21.887,2.531,-0.867,0.0
0.0,0.0,0.0,0.0
40.95,4.743,-0.729,1.0
33.594,3.894,-0.79,0.0
28.497,3.305,-0.836,0.0
24.693,2.866,-0.866,0.0
21.791,2.531,-0.89,1.0
0.0,0.0,0.0,0.0
38.859,4.521,-0.738,0.0
32.317,3.762,-0.799,0.0
27.681,3.225,-0.846,0.0
24.091,2.808,-0.874,0.0
21.651,2.526,-0.91,0.0
0.0,0.0,0.0,0.0
37.289,4.356,-0.753,0.0
31.228,3.65,-0.81,0.0
26.853,3.14,-0.853,0.0
23.469,2.746,-0.88,0.0
20.609,2.413,-0.891,0.0
42.824,5.018,-0.672,0.0
36.533,4.283,-0.782,0.0
30.423,3.568,-0.826,0.0
26.019,3.054,-0.858,0.0
21.884,2.57,-0.847,0.0
20.334,2.389,-0.904,0.0
41.182,4.842,-0.696,1.0
34.598,4.069,-0.783,0.0
29.525,3.474,-0.838,0.0
25.077,2.952,-0.858,0.0
21.858,2.575,-0.873,0.0
19.363,2.282,-0.885,0.0
0.0,0.0,0.0,0.0
32.958,3.887,-0.786,0.0
28.391,3.35,-0.839,0.0
24.355,2.875,-0.863,0.0
21.755,2.569,-0.895,0.0
19.282,2.279,-0.904,1.0
38.041,4.496,-0.735,0.0
32.022,3.786,-0.802,0.0
27.32,3.231,-0.841,0.0
23.752,2.81,-0.869,0.0
21.457,2.54,-0.909,0.0
19.108,2.263,-0.919,0.0
37.039,4.387,-0.76,0.0
30.93,3.664,-0.812,0.0
26.529,3.144,-0.849,0.0
23.337,2.767,-0.883,0.0
20.41,2.421,-0.89,0.0
18.324,2.174,-0.904,0.0
35.182,4.174,-0.764,0.0
30.06,3.567,-0.825,0.0
25.776,3.059,-0.856,0.0
21.863,2.596,-0.854,0.0
20.273,2.408,-0.908,0.0
18.085,2.149,-0.914,0.0
33.543,3.984,-0.769,0.0
28.967,3.442,-0.83,0.0
24.782,2.945,-0.852,0.0
21.807,2.592,-0.878,1.0
19.288,2.294,-0.887,0.0
17.569,2.09,-0.909,0.0
32.607,3.877,-0.787,0.0
27.937,3.322,-0.834,0.0
24.292,2.889,-0.865,0.0
21.738,2.586,-0.901,0.0
19.229,2.288,-0.907,0.0
17.259,2.054,-0.914,0.0
31.604,3.759,-0.8,0.0
27.219,3.238,-0.845,0.0
23.667,2.816,-0.871,0.0
20.866,2.483,-0.889,0.0
18.694,2.225,-0.905,0.0
16.966,2.02,-0.919,1.0
30.764,3.66,-0.815,0.0
26.296,3.129,-0.847,0.0
22.624,2.692,-0.859,0.0
20.349,2.422,-0.891,0.0
18.24,2.171,-0.904,0.0
16.602,1.976,-0.918,1.0
29.66,3.527,-0.821,0.0
25.536,3.037,-0.853,0.0
21.88,2.602,-0.856,0.0
20.149,2.397,-0.906,0.0
18.02,2.144,-0.914,0.0
16.398,1.951,-0.926,1.0
28.748,3.417,-0.829,0.0
24.828,2.951,-0.858,0.0
21.811,2.592,-0.879,1.0
19.312,2.295,-0.891,0.0
17.478,2.078,-0.907,0.0
16.056,1.909,-0.925,0.0
27.766,3.297,-0.832,0.0
24.187,2.872,-0.863,0.0
21.684,2.574,-0.899,0.0
19.196,2.279,-0.908,0.0
17.223,2.045,-0.914,0.0
15.745,1.87,-0.926,0.0
27.125,3.216,-0.844,0.0
23.667,2.806,-0.872,0.0
20.792,2.465,-0.886,0.0
18.769,2.225,-0.909,0.0
16.893,2.003,-0.915,0.0
15.5,1.837,-0.929,0.0
26.189,3.099,-0.845,0.0
23.229,2.749,-0.883,0.0
20.402,2.414,-0.892,0.0
18.278,2.162,-0.906,0.0
16.611,1.965,-0.919,0.0
15.187,1.797,-0.927,0.0
25.478,3.009,-0.85,0.0
21.892,2.585,-0.856,0.0
20.067,2.369,-0.9,0.0
17.935,2.117,-0.909,0.0
16.363,1.931,-0.923,0.0
14.9,1.759,-0.927,0.0
24.764,2.917,-0.854,0.0
21.788,2.566,-0.876,1.0
19.304,2.273,-0.887,0.0
17.527,2.063,-0.908,0.0
16.045,1.889,-0.923,0.0
14.692,1.729,-0.93,0.0
24.229,2.846,-0.862,0.0
21.737,2.552,-0.898,0.0
19.267,2.261,-0.906,1.0
17.26,2.026,-0.912,0.0
15.768,1.85,-0.924,0.0
14.528,1.704,-0.935,0.0
23.667,2.77,-0.867,0.0
20.728,2.425,-0.878,0.0
18.977,2.22,-0.913,0.0
17.0,1.988,-0.917,0.0
15.513,1.814,-0.926,0.0
14.331,1.675,-0.938,0.0
23.31,2.718,-0.879,0.0
20.488,2.388,-0.89,0.0
18.57,2.164,-0.913,0.0
16.746,1.951,-0.921,0.0
15.267,1.778,-0.927,0.0
14.186,1.652,-0.943,0.0
21.9,2.544,-0.848,0.0
20.405,2.369,-0.907,0.0
18.022,2.091,-0.904,0.0
16.434,1.906,-0.921,0.0
14.971,1.736,-0.924,0.0
14.008,1.624,-0.945,0.0
21.814,2.522,-0.867,1.0
19.396,2.242,-0.882,0.0
17.594,2.032,-0.9,0.0
16.167,1.867,-0.922,0.0
14.809,1.709,-0.929,0.0
13.619,1.572,-0.933,0.0
21.762,2.504,-0.886,1.0
19.351,2.225,-0.899,2.0
17.363,1.996,-0.906,0.0
15.918,1.829,-0.923,0.0
14.595,1.676,-0.93,0.0
13.523,1.553,-0.939,0.0
21.639,2.477,-0.902,0.0
19.092,2.184,-0.905,1.0
17.235,1.971,-0.916,0.0
15.691,1.793,-0.925,0.0
14.449,1.651,-0.935,0.0
13.36,1.526,-0.941,0.0
20.699,2.356,-0.882,0.0
18.664,2.123,-0.902,0.0
16.999,1.933,-0.919,0.0
15.455,1.756,-0.926,0.0
14.289,1.623,-0.938,0.0
13.238,1.503,-0.945,0.0
20.377,2.306,-0.888,0.0
18.372,2.077,-0.905,0.0
16.677,1.884,-0.917,0.0
15.195,1.716,-0.924,0.0
14.164,1.599,-0.943,0.0
12.987,1.465,-0.939,0.0
19.749,2.22,-0.878,0.0
18.051,2.028,-0.906,0.0
16.444,1.846,-0.919,0.0
15.0,1.683,-0.926,0.0
0.0,0.0,0.0,0.0
12.824,1.437,-0.938,0.0
19.649,2.194,-0.891,2.0
17.791,1.985,-0.908,2.0
16.233,1.81,-0.921,0.0
14.833,1.653,-0.928,0.0
13.689,1.524,-0.935,0.0
12.63,1.405,-0.935,0.0
19.502,2.162,-0.901,2.0
17.69,1.959,-0.918,2.0
16.026,1.774,-0.923,0.0
14.702,1.626,-0.932,0.0
13.465,1.488,-0.931,0.0
12.557,1.387,-0.94,0.0
19.264,2.12,-0.906,1.0
17.492,1.923,-0.922,0.0
15.787,1.734,-0.922,0.0
14.511,1.593,-0.932,0.0
13.448,1.475,-0.941,0.0
12.418,1.361,-0.94,0.0
18.897,2.063,-0.903,0.0
17.136,1.869,-0.917,0.0
15.55,1.694,-0.921,0.0
14.345,1.562,-0.933,0.0
13.366,1.454,-0.945,0.0
12.302,1.337,-0.94,0.0
18.661,2.02,-0.906,0.0
16.767,1.813,-0.91,0.0
15.403,1.664,-0.924,0.0
14.247,1.538,-0.937,0.0
0.0,0.0,0.0,0.0
12.188,1.313,-0.941,0.0
18.527,1.988,-0.913,0.0
16.598,1.779,-0.913,0.0
15.192,1.627,-0.922,0.0
14.137,1.512,-0.94,0.0
13.005,1.39,-0.939,0.0
12.099,1.292,-0.943,0.0
17.851,1.898,-0.893,0.0
16.479,1.75,-0.918,0.0
15.036,1.595,-0.923,0.0
14.076,1.492,-0.946,0.0
12.919,1.368,-0.942,0.0
11.972,1.266,-0.941,0.0
17.772,1.871,-0.901,1.0
16.303,1.715,-0.919,0.0
14.901,1.565,-0.924,0.0
0.0,0.0,0.0,0.0
12.755,1.337,-0.938,0.0
11.857,1.242,-0.94,0.0
17.741,1.85,-0.91,2.0
16.127,1.679,-0.919,0.0
14.831,1.543,-0.93,0.0
13.657,1.419,-0.935,0.0
12.641,1.312,-0.938,0.0
11.765,1.22,-0.94,0.0
17.692,1.826,-0.919,1.0
15.961,1.645,-0.919,0.0
14.684,1.511,-0.929,0.0
13.522,1.39,-0.934,0.0
12.599,1.293,-0.942,0.0
11.678,1.198,-0.94,0.0
17.542,1.79,-0.921,0.0
15.857,1.616,-0.922,0.0
14.592,1.485,-0.932,0.0
13.443,1.367,-0.936,0.0
12.485,1.268,-0.94,0.0
11.622,1.179,-0.942,0.0
17.291,1.745,-0.917,0.0
15.73,1.585,-0.923,0.0
14.472,1.457,-0.932,0.0
13.407,1.348,-0.941,0.0
12.46,1.251,-0.945,0.0
11.538,1.157,-0.941,0.0
17.091,1.705,-0.915,0.0
15.611,1.555,-0.924,0.0
14.407,1.433,-0.935,0.0
13.273,1.318,-0.938,0.0
12.359,1.226,-0.943,0.0
11.5,1.139,-0.943,0.0
16.991,1.675,-0.918,0.0
15.48,1.523,-0.924,0.0
14.39,1.414,-0.94,0.0
13.271,1.302,-0.944,0.0
12.279,1.203,-0.943,0.0
11.436,1.119,-0.943,0.0
16.808,1.636,-0.915,0.0
15.366,1.493,-0.924,0.0
14.248,1.382,-0.937,0.0
13.129,1.272,-0.939,0.0
12.166,1.177,-0.939,0.0
11.384,1.099,-0.944,0.0
16.746,1.609,-0.919,0.0
15.249,1.462,-0.923,0.0
14.211,1.361,-0.94,0.0
13.05,1.247,-0.938,0.0
12.134,1.158,-0.941,0.0
11.34,1.081,-0.944,0.0
16.622,1.575,-0.918,0.0
15.188,1.437,-0.924,0.0
14.141,1.336,-0.941,0.0
12.963,1.222,-0.937,0.0
12.019,1.132,-0.936,0.0
11.29,1.061,-0.944,0.0
16.555,1.548,-0.92,0.0
15.11,1.41,-0.924,0.0
14.181,1.321,-0.948,0.0
12.961,1.205,-0.941,0.0
11.994,1.113,-0.938,0.0
11.27,1.044,-0.945,0.0
16.406,1.512,-0.916,0.0
15.038,1.383,-0.924,0.0
14.089,1.293,-0.945,0.0
12.89,1.181,-0.939,0.0
11.982,1.096,-0.94,0.0
11.237,1.026,-0.945,0.0
16.411,1.49,-0.92,0.0
14.981,1.357,-0.924,0.0
13.971,1.263,-0.941,0.0
12.873,1.162,-0.941,0.0
11.97,1.078,-0.942,0.0
11.216,1.009,-0.946,0.0
16.324,1.459,-0.919,0.0
14.967,1.335,-0.927,0.0
0.0,0.0,0.0,0.0
12.818,1.139,-0.939,0.0
11.914,1.057,-0.94,0.0
11.213,0.993,-0.948,0.0
16.273,1.432,-0.919,0.0
14.934,1.311,-0.927,0.0
13.812,1.21,-0.935,0.0
12.839,1.123,-0.943,0.0
11.907,1.039,-0.941,0.0
11.173,0.973,-0.946,0.0
16.26,1.408,-0.92,0.0
14.941,1.291,-0.929,0.0
13.912,1.199,-0.943,0.0
12.803,1.101,-0.941,0.0
11.882,1.02,-0.94,0.0
11.176,0.957,-0.947,0.0
16.192,1.379,-0.918,0.0
14.896,1.266,-0.928,0.0
13.695,1.161,-0.93,0.0
12.777,1.081,-0.94,0.0
11.87,1.002,-0.94,0.0
11.092,0.934,-0.941,0.0
16.196,1.356,-0.919,0.0
14.895,1.244,-0.928,0.0
0.0,0.0,0.0,0.0
12.798,1.064,-0.942,0.0
11.865,0.984,-0.94,0.0
11.164,0.924,-0.947,0.0
16.234,1.335,-0.921,0.0
14.922,1.224,-0.93,0.0
13.929,1.14,-0.946,0.0
12.818,1.046,-0.944,0.0
11.883,0.968,-0.941,0.0
11.174,0.908,-0.948,0.0
16.248,1.312,-0.922,0.0
14.912,1.201,-0.929,0.0
0.0,0.0,0.0,0.0
12.75,1.022,-0.938,0.0
11.885,0.95,-0.941,0.0
11.211,0.894,-0.95,0.0
16.241,1.287,-0.92,0.0
14.943,1.181,-0.93,0.0
13.812,1.089,-0.936,0.0
12.84,1.009,-0.943,0.0
11.881,0.932,-0.939,0.0
11.195,0.876,-0.948,0.0
16.263,1.264,-0.92,0.0
14.97,1.16,-0.93,0.0
0.0,0.0,0.0,0.0
12.882,0.993,-0.945,0.0
11.938,0.917,-0.942,0.0
11.205,0.859,-0.947,0.0
16.341,1.245,-0.922,0.0
15.015,1.14,-0.93,0.0
0.0,0.0,0.0,0.0
12.871,0.972,-0.942,0.0
11.956,0.901,-0.941,0.0
11.247,0.845,-0.948,0.0
16.382,1.223,-0.921,0.0
15.062,1.121,-0.93,0.0
13.99,1.038,-0.941,0.0
12.919,0.956,-0.942,0.0
12.044,0.888,-0.946,0.0
11.272,0.829,-0.948,0.0
16.447,1.202,-0.92,0.0
15.074,1.098,-0.927,0.0
0.0,0.0,0.0,0.0
12.986,0.94,-0.944,0.0
12.039,0.869,-0.942,0.0
11.324,0.815,-0.949,0.0
16.517,1.181,-0.92,0.0
15.101,1.076,-0.924,0.0
0.0,0.0,0.0,0.0
13.031,0.923,-0.943,0.0
12.111,0.855,-0.944,0.0
11.33,0.798,-0.946,0.0
16.596,1.161,-0.919,0.0
15.225,1.061,-0.927,0.0
0.0,0.0,0.0,0.0
13.061,0.904,-0.941,0.0
12.152,0.839,-0.943,0.0
11.44,0.787,-0.951,0.0
16.727,1.143,-0.92,0.0
15.2,1.035,-0.92,0.0
14.227,0.966,-0.939,0.0
13.107,0.887,-0.939,0.0
12.239,0.825,-0.945,0.0
11.419,0.767,-0.945,0.0
16.801,1.121,-0.917,0.0
0.0,0.0,0.0,0.0
14.227,0.943,-0.933,0.0
13.195,0.872,-0.94,0.0
12.312,0.811,-0.945,0.0
11.469,0.752,-0.944,0.0
0.0,0.0,0.0,0.0
0.0,0.0,0.0,0.0
14.419,0.933,-0.939,0.0
13.315,0.858,-0.942,0.0
12.393,0.796,-0.945,0.0
11.56,0.74,-0.946,0.0
17.195,1.093,-0.922,0.0
0.0,0.0,0.0,0.0
14.482,0.913,-0.936,0.0
13.424,0.844,-0.943,0.0
12.513,0.783,-0.948,0.0
11.628,0.725,-0.945,0.0
0.0,0.0,0.0,0.0
0.0,0.0,0.0,0.0
14.577,0.896,-0.934,0.0
13.508,0.827,-0.941,0.0
12.579,0.767,-0.946,0.0
11.711,0.712,-0.945,0.0
0.0,0.0,0.0,0.0
15.972,0.96,-0.927,0.0
14.794,0.885,-0.939,0.0
13.682,0.816,-0.945,0.0
12.7,0.754,-0.947,0.0
11.808,0.698,-0.946,0.0
0.0,0.0,0.0,0.0
16.145,0.944,-0.927,0.0
14.981,0.872,-0.942,0.0
13.862,0.804,-0.949,0.0
12.799,0.739,-0.946,0.0
11.926,0.686,-0.947,0.0
0.0,0.0,0.0,0.0
16.417,0.933,-0.931,0.0
15.089,0.854,-0.938,1.0
13.986,0.788,-0.948,0.0
12.963,0.728,-0.949,0.0
11.995,0.67,-0.944,0.0
17.97,0.997,-0.908,0.0
16.497,0.911,-0.924,0.0
15.143,0.833,-0.931,1.0
14.214,0.778,-0.953,0.0
13.058,0.712,-0.947,0.0
12.094,0.657,-0.943,0.0
18.373,0.99,-0.915,0.0
16.61,0.891,-0.918,0.0
15.216,0.812,-0.924,1.0
14.267,0.758,-0.945,0.0
13.195,0.698,-0.946,0.0
12.252,0.645,-0.946,0.0
18.632,0.974,-0.914,0.0
16.998,0.885,-0.926,0.0
15.564,0.806,-0.932,1.0
14.443,0.745,-0.945,0.0
13.394,0.687,-0.95,0.0
12.422,0.634,-0.949,0.0
18.871,0.957,-0.91,0.0
17.172,0.866,-0.921,0.0
15.888,0.797,-0.938,0.0
14.548,0.726,-0.94,0.0
13.437,0.668,-0.941,0.0
12.544,0.62,-0.947,0.0
19.807,0.972,-0.938,0.0
17.364,0.848,-0.916,0.0
16.078,0.781,-0.935,0.0
14.751,0.713,-0.94,0.0
13.733,0.66,-0.949,0.0
12.739,0.609,-0.95,0.0
20.194,0.959,-0.938,8.0
20.219,0.955,-1.048,2.0
16.237,0.763,-0.93,0.0
14.96,0.699,-0.939,0.0
20.176,0.938,-1.376,0.0
12.859,0.594,-0.946,0.0
20.189,0.927,-0.918,30.0
20.211,0.922,-1.028,3.0
16.528,0.75,-0.93,0.0
15.175,0.685,-0.938,0.0
20.227,0.908,-1.36,0.0
13.04,0.582,-0.947,0.0
20.208,0.895,-0.899,39.0
20.182,0.889,-1.007,0.0
16.846,0.738,-0.931,0.0
15.385,0.67,-0.935,0.0
14.355,0.622,-0.95,0.0
13.301,0.573,-0.952,0.0
20.222,0.864,-0.879,16.0
18.725,0.795,-0.915,0.0
16.976,0.717,-0.921,0.0
15.703,0.659,-0.938,0.0
14.525,0.606,-0.946,0.0
13.504,0.56,-0.952,0.0
20.556,0.846,-0.871,0.0
19.181,0.785,-0.916,0.0
17.61,0.716,-0.936,0.0
16.008,0.647,-0.938,0.0
14.733,0.592,-0.943,0.0
13.6,0.543,-0.944,0.0
22.008,0.872,-0.908,0.0
19.788,0.779,-0.923,0.0
17.852,0.698,-0.928,0.0
16.272,0.633,-0.935,0.0
14.98,0.579,-0.942,0.0
13.888,0.533,-0.948,0.0
22.446,0.855,-0.901,0.0
20.106,0.76,-0.915,0.0
18.149,0.682,-0.923,0.0
16.571,0.619,-0.933,0.0
15.26,0.566,-0.941,0.0
14.218,0.524,-0.953,0.0
22.911,0.838,-0.892,0.0
20.623,0.748,-0.913,0.0
18.594,0.67,-0.923,0.0
16.858,0.604,-0.929,0.0
15.492,0.551,-0.937,0.0
14.494,0.512,-0.954,0.0
23.721,0.831,-0.895,0.0
20.967,0.729,-0.903,0.0
18.873,0.652,-0.914,0.0
17.066,0.585,-0.919,0.0
15.922,0.542,-0.943,0.0
14.639,0.495,-0.945,0.0
24.442,0.82,-0.891,0.0
21.929,0.73,-0.917,0.0
19.602,0.648,-0.924,0.0
17.832,0.585,-0.938,0.0
16.22,0.528,-0.939,0.0
14.923,0.482,-0.944,0.0
25.067,0.804,-0.882,0.0
22.435,0.714,-0.908,0.0
20.095,0.634,-0.921,0.0
18.067,0.566,-0.926,0.0
16.535,0.514,-0.935,0.0
15.222,0.47,-0.942,0.0
26.044,0.797,-0.881,0.0
22.84,0.693,-0.894,0.0
20.511,0.618,-0.912,0.0
18.6,0.556,-0.928,0.0
16.879,0.5,-0.932,0.0
15.512,0.456,-0.939,0.0
26.745,0.78,-0.869,0.0
23.703,0.685,-0.896,0.0
21.264,0.61,-0.916,0.0
18.972,0.539,-0.92,0.0
17.121,0.483,-0.922,0.0
15.982,0.447,-0.945,0.0
28.335,0.785,-0.881,0.0
24.619,0.677,-0.896,0.0
22.062,0.601,-0.919,0.0
19.618,0.53,-0.924,0.0
17.89,0.479,-0.937,0.0
16.319,0.433,-0.942,0.0
29.221,0.769,-0.866,0.0
25.606,0.668,-0.895,0.0
22.576,0.583,-0.908,0.0
20.218,0.518,-0.923,0.0
18.276,0.464,-0.931,0.0
16.656,0.419,-0.937,0.0
30.731,0.766,-0.866,0.0
26.399,0.652,-0.884,0.0
23.193,0.567,-0.899,0.0
20.778,0.504,-0.917,0.0
18.697,0.449,-0.924,0.0
17.025,0.405,-0.932,0.0
32.028,0.755,-0.854,1.0
27.896,0.651,-0.892,0.0
24.279,0.561,-0.904,0.0
21.557,0.493,-0.919,0.0
19.455,0.441,-0.932,0.0
17.598,0.395,-0.936,0.0
33.031,0.734,-0.831,0.0
28.778,0.633,-0.875,0.0
25.179,0.548,-0.898,0.0
22.323,0.481,-0.916,0.0
19.922,0.424,-0.923,0.0
18.088,0.381,-0.933,0.0
0.0,0.0,0.0,0.0
30.117,0.622,-0.868,1.0
26.248,0.536,-0.895,0.0
22.867,0.462,-0.902,0.0
20.723,0.414,-0.927,0.0
18.606,0.368,-0.93,0.0
36.997,0.724,-0.813,0.0
31.594,0.612,-0.86,1.0
27.11,0.519,-0.881,0.0
23.817,0.451,-0.901,0.0
20.143,0.377,-0.868,0.0
19.217,0.355,-0.929,0.0
38.362,0.702,-0.78,0.0
33.952,0.614,-0.869,3.0
28.572,0.511,-0.881,0.0
24.883,0.439,-0.901,0.0
20.126,0.351,-0.834,1.0
20.18,0.348,-0.943,2.0
41.506,0.708,-0.776,0.0
34.428,0.58,-0.824,0.0
