X,Y,Z,Reflectivity
20.305,0.198,0.154,28.0
20.333,0.205,0.043,28.0
20.341,0.212,-0.065,0.0
20.216,0.217,-0.173,2.0
20.289,0.225,0.389,33.0
20.287,0.231,0.28,24.0
20.291,0.238,0.171,11.0
99.596,1.201,0.297,7.0
0.0,0.0,0.0,0.0
0.0,0.0,0.0,0.0
20.295,0.265,0.406,12.0
20.287,0.272,0.297,0.0
0.0,0.0,0.0,0.0
99.623,1.4,0.378,6.0
99.768,1.435,-0.157,1.0
0.0,0.0,0.0,0.0
196.252,2.958,4.084,27.0
194.734,2.997,3.004,34.0
0.0,0.0,0.0,0.0
99.715,1.599,0.454,5.0
99.804,1.633,-0.082,4.0
0.0,0.0,0.0,0.0
194.574,3.323,4.196,18.0
194.689,3.392,3.15,29.0
0.0,0.0,0.0,0.0
99.819,1.802,0.528,5.0
99.899,1.834,-0.01,2.0
0.0,0.0,0.0,0.0
194.539,3.713,4.334,15.0
0.0,0.0,0.0,0.0
103.159,2.035,1.184,11.0
99.978,2.005,0.598,3.0
100.022,2.038,0.058,4.0
0.0,0.0,0.0,0.0
194.56,4.105,4.466,17.0
194.193,4.162,3.408,16.0
0.0,0.0,0.0,0.0
103.093,2.275,0.684,1.0
100.135,2.242,0.123,6.0
0.0,0.0,0.0,0.0
194.292,4.493,4.584,24.0
193.885,4.545,3.525,24.0
195.019,4.634,2.489,15.0
102.969,2.481,0.747,4.0
100.219,2.448,0.185,4.0
0.0,0.0,0.0,0.0
194.069,4.887,4.697,30.0
193.589,4.937,3.636,29.0
195.261,5.044,2.609,27.0
103.113,2.696,0.809,3.0
0.0,0.0,0.0,0.0
0.0,0.0,0.0,0.0
194.333,5.291,4.813,28.0
193.432,5.33,3.742,34.0
195.392,5.446,2.72,19.0
0.0,0.0,0.0,0.0
0.0,0.0,0.0,0.0
0.0,0.0,0.0,0.0
193.952,5.676,4.906,24.0
193.603,5.727,3.845,30.0
195.292,5.841,2.818,16.0
201.602,6.094,1.792,17.0
196.236,5.996,0.679,30.0
0.0,0.0,0.0,0.0
193.89,6.074,5.0,17.0
193.999,6.136,3.947,11.0
195.161,6.237,2.909,11.0
0.0,0.0,0.0,0.0
196.284,6.395,0.769,27.0
0.0,0.0,0.0,0.0
195.045,6.506,5.118,5.0
195.094,6.573,4.056,9.0
194.883,6.625,2.989,22.0
202.768,6.957,1.985,6.0
196.392,6.803,0.853,32.0
0.0,0.0,0.0,0.0
194.84,6.902,5.193,6.0
194.95,6.966,4.132,12.0
202.757,7.308,3.192,10.0
203.273,7.391,2.069,5.0
196.473,7.208,0.929,29.0
0.0,0.0,0.0,0.0
194.929,7.305,5.269,8.0
195.065,7.374,4.207,19.0
195.036,7.432,3.14,13.0
0.0,0.0,0.0,0.0
196.596,7.616,0.998,30.0
0.0,0.0,0.0,0.0
193.701,7.659,5.3,16.0
196.869,7.844,4.31,12.0
204.073,8.196,3.352,7.0
0.0,0.0,0.0,0.0
196.69,8.024,1.058,35.0
0.0,0.0,0.0,0.0
193.835,8.063,5.362,18.0
0.0,0.0,0.0,0.0
196.811,8.305,3.288,21.0
0.0,0.0,0.0,0.0
196.724,8.423,1.111,25.0
0.0,0.0,0.0,0.0
195.439,8.523,5.456,16.0
195.499,8.585,4.385,48.0
205.058,9.067,3.475,13.0
204.92,9.124,2.327,39.0
196.8,8.825,1.156,34.0
0.0,0.0,0.0,0.0
193.752,8.847,5.452,6.0
0.0,0.0,0.0,0.0
204.938,9.483,3.516,27.0
204.954,9.546,2.369,9.0
197.048,9.238,1.196,30.0
0.0,0.0,0.0,0.0
193.963,9.249,5.493,21.0
0.0,0.0,0.0,0.0
199.36,9.63,3.453,8.0
198.069,9.625,2.321,6.0
197.056,9.637,1.225,34.0
0.0,0.0,0.0,0.0
194.044,9.648,5.523,23.0
195.802,9.794,4.494,9.0
197.774,9.951,3.45,6.0
0.0,0.0,0.0,0.0
197.009,10.032,1.249,34.0
0.0,0.0,0.0,0.0
193.802,10.026,5.536,8.0
196.435,10.217,4.527,6.0
0.0,0.0,0.0,0.0
202.131,10.637,2.41,6.0
197.112,10.431,1.264,20.0
0.0,0.0,0.0,0.0
196.078,10.538,5.613,17.0
196.099,10.598,4.531,48.0
196.083,10.653,3.449,62.0
196.062,10.708,2.346,69.0
196.098,10.769,1.264,62.0
0.0,0.0,0.0,0.0
0.0,0.0,0.0,0.0
0.0,0.0,0.0,0.0
0.0,0.0,0.0,0.0
0.0,0.0,0.0,0.0
197.411,11.236,1.273,25.0
0.0,0.0,0.0,0.0
195.112,11.264,5.589,6.0
0.0,0.0,0.0,0.0
0.0,0.0,0.0,0.0
208.296,12.202,2.487,6.0
197.501,11.629,1.266,31.0
0.0,0.0,0.0,0.0
0.0,0.0,0.0,0.0
195.862,11.749,4.515,8.0
0.0,0.0,0.0,0.0
0.0,0.0,0.0,0.0
155.815,9.48,0.986,3.0
0.0,0.0,0.0,0.0
154.199,9.509,4.396,3.0
195.817,12.13,4.495,6.0
0.0,0.0,0.0,0.0
203.077,12.692,2.39,7.0
155.295,9.75,0.965,10.0
0.0,0.0,0.0,0.0
0.0,0.0,0.0,0.0
195.321,12.477,4.458,6.0
0.0,0.0,0.0,0.0
199.78,12.873,2.321,9.0
0.0,0.0,0.0,0.0
154.977,10.071,0.079,5.0
168.492,11.041,4.755,8.0
173.879,11.444,3.94,13.0
201.054,13.285,3.437,6.0
0.0,0.0,0.0,0.0
154.988,10.327,0.911,9.0
154.927,10.364,0.048,7.0
173.171,11.679,4.852,16.0
0.0,0.0,0.0,0.0
210.416,14.303,3.552,24.0
199.539,13.617,2.238,5.0
0.0,0.0,0.0,0.0
0.0,0.0,0.0,0.0
161.674,11.208,4.492,18.0
172.774,12.023,3.838,7.0
0.0,0.0,0.0,0.0
0.0,0.0,0.0,0.0
0.0,0.0,0.0,0.0
0.0,0.0,0.0,0.0
156.007,11.106,4.292,23.0
168.117,12.013,3.687,15.0
173.485,12.441,2.838,18.0
0.0,0.0,0.0,0.0
140.572,10.156,0.716,151.0
0.0,0.0,0.0,0.0
161.048,11.765,4.381,13.0
162.107,11.882,3.505,25.0
173.214,12.742,2.777,37.0
0.0,0.0,0.0,0.0
122.058,9.044,0.581,9.0
0.0,0.0,0.0,0.0
166.86,12.497,4.482,10.0
162.12,12.182,3.449,11.0
168.172,12.682,2.636,48.0
140.887,10.658,1.406,3.0
114.707,8.707,0.504,2.0
0.0,0.0,0.0,0.0
178.233,13.671,4.72,14.0
156.03,12.007,3.259,23.0
162.126,12.517,2.478,39.0
122.517,9.488,1.174,2.0
114.051,8.861,0.455,150.0
0.0,0.0,0.0,0.0
161.361,12.668,4.207,16.0
155.94,12.278,3.192,37.0
155.978,12.318,2.319,44.0
114.789,9.094,1.052,4.0
113.961,9.055,0.405,44.0
0.0,0.0,0.0,0.0
156.568,12.567,4.012,28.0
156.071,12.565,3.124,21.0
181.969,14.693,2.62,5.0
0.0,0.0,0.0,0.0
109.832,8.921,0.339,2.0
0.0,0.0,0.0,0.0
195.023,15.99,4.905,11.0
196.317,16.141,3.834,25.0
213.496,17.605,2.971,9.0
110.439,9.132,0.906,3.0
108.287,8.981,0.28,4.0
0.0,0.0,0.0,0.0
197.049,16.495,4.854,7.0
202.637,17.01,3.853,10.0
199.703,16.807,2.674,8.0
108.602,9.166,0.833,2.0
107.734,9.118,0.22,38.0
0.0,0.0,0.0,0.0
197.321,16.85,4.753,25.0
0.0,0.0,0.0,0.0
153.735,13.197,1.974,4.0
108.127,9.308,0.768,8.0
107.606,9.287,0.159,50.0
0.0,0.0,0.0,0.0
152.667,13.292,3.59,14.0
157.482,13.744,2.816,7.0
153.214,13.406,1.876,16.0
107.801,9.456,0.703,5.0
107.588,9.461,0.095,8.0
0.0,0.0,0.0,0.0
152.641,13.538,3.496,25.0
153.872,13.68,2.657,16.0
152.807,13.617,1.777,11.0
107.809,9.631,0.635,1.0
0.0,0.0,0.0,0.0
0.0,0.0,0.0,0.0
152.203,13.744,3.388,29.0
151.846,13.742,2.524,19.0
129.46,11.744,1.421,4.0
0.0,0.0,0.0,0.0
93.659,8.537,-0.038,6.0
0.0,0.0,0.0,0.0
151.997,13.966,3.282,30.0
151.754,13.973,2.418,24.0
129.696,11.969,1.335,2.0
92.905,8.593,0.422,151.0
92.653,8.589,-0.101,1.0
0.0,0.0,0.0,0.0
151.583,14.162,3.166,25.0
151.39,14.173,2.307,27.0
0.0,0.0,0.0,0.0
92.782,8.723,0.356,50.0
0.0,0.0,0.0,0.0
0.0,0.0,0.0,0.0
151.391,14.371,3.051,29.0
151.253,14.387,2.194,30.0
0.0,0.0,0.0,0.0
92.599,8.845,0.286,35.0
0.0,0.0,0.0,0.0
68.877,6.607,-0.565,1.0
151.16,14.574,2.933,22.0
151.05,14.592,2.075,22.0
0.0,0.0,0.0,0.0
92.221,8.944,0.213,4.0
0.0,0.0,0.0,0.0
0.0,0.0,0.0,0.0
121.532,11.893,2.262,48.0
121.586,11.92,1.575,53.0
0.0,0.0,0.0,0.0
0.0,0.0,0.0,0.0
85.416,8.422,-0.353,3.0
0.0,0.0,0.0,0.0
121.579,12.067,2.165,60.0
121.604,12.091,1.477,22.0
0.0,0.0,0.0,0.0
0.0,0.0,0.0,0.0
85.563,8.554,-0.424,1.0
0.0,0.0,0.0,0.0
150.746,15.168,2.559,21.0
150.462,15.165,1.702,3.0
0.0,0.0,0.0,0.0
0.0,0.0,0.0,0.0
0.0,0.0,0.0,0.0
0.0,0.0,0.0,0.0
150.58,15.352,2.427,23.0
0.0,0.0,0.0,0.0
0.0,0.0,0.0,0.0
0.0,0.0,0.0,0.0
68.949,7.077,-0.461,2.0
0.0,0.0,0.0,0.0
115.629,11.939,1.761,38.0
0.0,0.0,0.0,0.0
0.0,0.0,0.0,0.0
0.0,0.0,0.0,0.0
68.959,7.165,-0.522,3.0
0.0,0.0,0.0,0.0
115.598,12.079,1.658,54.0
0.0,0.0,0.0,0.0
82.104,8.606,0.244,1.0
0.0,0.0,0.0,0.0
68.974,7.252,-0.586,2.0
0.0,0.0,0.0,0.0
150.476,15.91,2.019,2.0
82.207,8.703,0.635,1.0
81.938,8.688,0.167,2.0
0.0,0.0,0.0,0.0
82.055,8.726,-0.774,9.0
0.0,0.0,0.0,0.0
109.344,11.69,1.363,2.0
82.148,8.795,0.556,1.0
82.038,8.794,0.088,49.0
77.688,8.34,-0.365,6.0
0.0,0.0,0.0,0.0
0.0,0.0,0.0,0.0
0.0,0.0,0.0,0.0
82.079,8.881,0.475,4.0
77.028,8.346,0.007,7.0
0.0,0.0,0.0,0.0
0.0,0.0,0.0,0.0
41.467,4.512,-0.708,0.0
0.0,0.0,0.0,0.0
76.512,8.363,0.367,10.0
76.322,8.353,-0.068,9.0
68.896,7.55,-0.461,1.0
0.0,0.0,0.0,0.0
39.988,4.393,-0.723,0.0
0.0,0.0,0.0,0.0
75.881,8.374,0.288,5.0
75.713,8.365,-0.143,11.0
68.914,7.623,-0.531,3.0
0.0,0.0,0.0,0.0
39.229,4.351,-0.749,0.0
76.757,8.539,0.65,3.0
75.275,8.383,0.208,8.0
75.319,8.398,-0.22,8.0
68.85,7.686,-0.601,1.0
0.0,0.0,0.0,0.0
0.0,0.0,0.0,0.0
76.062,8.536,0.564,0.0
74.877,8.412,0.128,9.0
74.884,8.422,-0.297,6.0
0.0,0.0,0.0,0.0
43.201,4.869,-0.669,0.0
36.973,4.173,-0.783,0.0
74.916,8.477,0.477,5.0
74.628,8.453,0.049,22.0
74.946,8.498,-0.377,1.0
0.0,0.0,0.0,0.0
42.508,4.83,-0.704,0.0
35.289,4.015,-0.786,0.0
74.678,8.518,0.395,13.0
74.455,8.501,-0.031,2.0
0.0,0.0,0.0,0.0
0.0,0.0,0.0,0.0
0.0,0.0,0.0,0.0
34.171,3.918,-0.799,0.0
74.619,8.576,0.312,1.0
0.0,0.0,0.0,0.0
0.0,0.0,0.0,0.0
0.0,0.0,0.0,0.0
39.338,4.538,-0.738,0.0
32.618,3.767,-0.798,0.0
0.0,0.0,0.0,0.0
0.0,0.0,0.0,0.0
0.0,0.0,0.0,0.0
0.0,0.0,0.0,0.0
38.504,4.472,-0.765,0.0
31.685,3.684,-0.81,0.0
0.0,0.0,0.0,0.0
71.47,8.333,-0.267,0.0
0.0,0.0,0.0,0.0
0.0,0.0,0.0,0.0
0.0,0.0,0.0,0.0
30.858,3.611,-0.824,0.0
0.0,0.0,0.0,0.0
0.0,0.0,0.0,0.0
0.0,0.0,0.0,0.0
41.755,4.906,-0.684,0.0
35.53,4.178,-0.786,0.0
29.999,3.531,-0.835,0.0
69.487,8.193,-0.019,0.0
69.029,8.145,-0.414,1.0
0.0,0.0,0.0,0.0
41.011,4.846,-0.719,0.0
34.651,4.098,-0.806,0.0
28.947,3.426,-0.839,0.0
68.884,8.165,-0.096,0.0
68.894,8.172,-0.491,4.0
0.0,0.0,0.0,0.0
0.0,0.0,0.0,0.0
32.821,3.901,-0.801,1.0
27.955,3.326,-0.842,0.0
68.931,8.212,-0.177,4.0
68.903,8.213,-0.571,2.0
0.0,0.0,0.0,0.0
0.0,0.0,0.0,0.0
31.617,3.776,-0.808,0.0
27.345,3.268,-0.856,0.0
68.967,8.253,-0.257,4.0
0.0,0.0,0.0,0.0
0.0,0.0,0.0,0.0
36.746,4.405,-0.772,0.0
30.738,3.687,-0.822,0.0
26.259,3.152,-0.853,0.0
68.996,8.292,-0.337,1.0
0.0,0.0,0.0,0.0
0.0,0.0,0.0,0.0
35.105,4.225,-0.779,0.0
29.942,3.606,-0.836,0.0
25.549,3.079,-0.859,0.0
69.108,8.336,-0.419,0.0
0.0,0.0,0.0,0.0
40.408,4.879,-0.708,0.0
33.936,4.099,-0.792,0.0
28.823,3.484,-0.838,0.0
24.641,2.98,-0.858,0.0
68.956,8.346,-0.499,1.0
68.739,8.323,-0.891,2.0
0.0,0.0,0.0,0.0
32.487,3.937,-0.797,1.0
27.836,3.375,-0.843,0.0
24.101,2.924,-0.868,0.0
68.846,8.358,-0.58,0.0
68.725,8.346,-0.972,2.0
37.46,4.551,-0.744,0.0
31.718,3.855,-0.815,1.0
27.164,3.303,-0.854,0.0
23.622,2.874,-0.878,0.0
68.752,8.368,-0.659,0.0
0.0,0.0,0.0,0.0
37.118,4.521,-0.781,0.0
30.497,3.716,-0.82,0.0
26.119,3.184,-0.852,0.0
23.26,2.836,-0.892,0.0
68.824,8.395,-0.741,0.0
41.571,5.072,-0.686,0.0
35.234,4.3,-0.783,0.0
29.65,3.62,-0.831,0.0
25.491,3.113,-0.861,0.0
21.857,2.671,-0.864,0.0
68.607,8.384,-0.819,2.0
39.618,4.842,-0.7,0.0
33.003,4.035,-0.772,0.0
28.68,3.507,-0.838,0.0
24.61,3.011,-0.861,0.0
21.786,2.666,-0.887,1.0
68.663,8.403,-0.901,10.0
39.038,4.778,-0.736,1.0
32.299,3.954,-0.794,0.0
27.756,3.399,-0.844,0.0
23.984,2.938,-0.867,0.0
21.641,2.652,-0.907,0.0
68.72,8.419,-0.982,5.0
38.881,4.764,-0.778,0.0
31.506,3.861,-0.812,0.0
26.822,3.288,-0.848,0.0
23.549,2.887,-0.88,0.0
20.625,2.529,-0.889,0.0
0.0,0.0,0.0,0.0
36.281,4.448,-0.77,0.0
30.485,3.738,-0.821,0.0
26.007,3.19,-0.852,0.0
22.051,2.705,-0.849,0.0
20.375,2.5,-0.902,0.0
41.408,5.078,-0.689,0.0
0.0,0.0,0.0,0.0
29.47,3.614,-0.828,0.0
25.254,3.098,-0.857,0.0
21.864,2.682,-0.868,0.0
20.032,2.458,-0.91,0.0
39.103,4.795,-0.696,0.0
0.0,0.0,0.0,0.0
28.593,3.506,-0.837,0.0
24.545,3.01,-0.861,0.0
21.787,2.672,-0.89,1.0
19.499,2.392,-0.908,0.0
38.967,4.776,-0.738,1.0
32.115,3.936,-0.792,0.0
27.682,3.393,-0.842,0.0
23.84,2.922,-0.864,0.0
21.613,2.649,-0.907,0.0
18.983,2.327,-0.906,0.0
37.347,4.574,-0.75,0.0
31.302,3.833,-0.808,0.0
26.879,3.291,-0.848,0.0
23.401,2.865,-0.875,0.0
20.537,2.515,-0.886,0.0
18.422,2.256,-0.9,0.0
35.787,4.377,-0.76,0.0
30.468,3.726,-0.821,0.0
25.953,3.174,-0.848,0.0
21.936,2.682,-0.845,0.0
20.362,2.49,-0.901,0.0
18.178,2.223,-0.909,0.0
34.654,4.232,-0.775,0.0
29.424,3.593,-0.826,0.0
25.232,3.08,-0.853,0.0
21.8,2.661,-0.864,0.0
19.923,2.432,-0.904,0.0
17.961,2.192,-0.918,0.0
32.6,3.973,-0.765,0.0
28.601,3.485,-0.835,0.0
24.632,3.001,-0.86,0.0
21.768,2.652,-0.887,1.0
0.0,0.0,0.0,0.0
17.426,2.123,-0.91,0.0
32.358,3.935,-0.794,1.0
27.711,3.369,-0.839,0.0
23.989,2.916,-0.864,0.0
21.552,2.619,-0.902,0.0
18.936,2.301,-0.901,0.0
17.137,2.082,-0.914,0.0
31.169,3.78,-0.799,0.0
26.894,3.261,-0.843,0.0
23.544,2.854,-0.873,0.0
20.692,2.507,-0.888,0.0
18.484,2.24,-0.899,0.0
16.864,2.043,-0.918,0.0
30.589,3.698,-0.817,0.0
26.268,3.175,-0.852,1.0
23.103,2.791,-0.882,0.0
20.36,2.459,-0.896,0.0
18.198,2.198,-0.905,0.0
16.503,1.993,-0.915,0.0
29.739,3.583,-0.826,0.0
25.476,3.068,-0.853,0.0
21.847,2.63,-0.857,0.0
20.018,2.41,-0.902,0.0
18.075,2.175,-0.918,0.0
16.329,1.964,-0.923,1.0
28.614,3.435,-0.824,0.0
24.853,2.982,-0.858,0.0
21.785,2.613,-0.877,0.0
19.246,2.307,-0.887,0.0
17.518,2.1,-0.908,0.0
16.129,1.933,-0.928,0.0
27.972,3.344,-0.834,0.0
24.293,2.902,-0.863,0.0
21.735,2.596,-0.897,0.0
19.209,2.293,-0.905,0.0
17.261,2.06,-0.912,1.0
15.809,1.886,-0.926,0.0
27.246,3.242,-0.84,0.0
23.74,2.823,-0.867,0.0
21.298,2.532,-0.9,0.0
18.92,2.248,-0.91,0.0
17.014,2.021,-0.916,0.0
15.563,1.848,-0.927,0.0
26.544,3.143,-0.844,0.0
23.352,2.763,-0.876,0.0
20.537,2.429,-0.888,0.0
18.312,2.165,-0.898,0.0
16.714,1.975,-0.916,0.0
15.342,1.812,-0.929,0.0
26.009,3.063,-0.853,0.0
21.92,2.58,-0.844,0.0
20.391,2.398,-0.902,0.0
18.085,2.126,-0.905,0.0
16.532,1.943,-0.922,0.0
15.058,1.769,-0.926,0.0
25.318,2.965,-0.854,0.0
21.833,2.555,-0.861,0.0
19.43,2.272,-0.877,0.0
17.738,2.073,-0.904,0.0
16.277,1.901,-0.923,0.0
14.858,1.735,-0.928,0.0
24.708,2.876,-0.856,0.0
21.8,2.535,-0.88,0.0
19.33,2.247,-0.891,1.0
17.44,2.026,-0.905,0.0
15.98,1.855,-0.921,0.0
14.718,1.708,-0.932,0.0
24.253,2.805,-0.862,0.0
21.771,2.515,-0.898,0.0
19.259,2.224,-0.905,1.0
17.277,1.993,-0.912,1.0
15.816,1.824,-0.925,0.0
14.549,1.677,-0.934,0.0
23.722,2.724,-0.864,0.0
21.269,2.441,-0.896,0.0
18.875,2.164,-0.903,0.0
17.152,1.965,-0.92,0.0
15.62,1.788,-0.927,0.0
14.4,1.648,-0.937,0.0
23.418,2.67,-0.873,0.0
20.527,2.338,-0.882,0.0
18.638,2.121,-0.907,0.0
16.877,1.919,-0.92,0.0
15.349,1.744,-0.924,0.0
14.265,1.62,-0.941,0.0
21.91,2.479,-0.835,0.0
20.291,2.294,-0.889,0.0
18.298,2.067,-0.906,0.0
16.635,1.877,-0.92,0.0
15.194,1.713,-0.927,0.0
14.116,1.591,-0.942,0.0
21.882,2.456,-0.851,5.0
19.73,2.212,-0.88,0.0
18.035,2.02,-0.907,1.0
16.397,1.835,-0.92,0.0
14.985,1.676,-0.926,0.0
13.967,1.561,-0.943,0.0
21.847,2.432,-0.867,7.0
19.643,2.184,-0.891,2.0
17.801,1.977,-0.909,2.0
16.126,1.79,-0.917,0.0
14.852,1.647,-0.929,0.0
0.0,0.0,0.0,0.0
21.827,2.408,-0.882,6.0
19.502,2.149,-0.899,2.0
17.699,1.949,-0.916,2.0
16.001,1.76,-0.921,0.0
14.699,1.615,-0.93,0.0
13.468,1.479,-0.929,0.0
21.803,2.383,-0.896,2.0
19.422,2.121,-0.909,1.0
17.632,1.923,-0.925,1.0
15.826,1.724,-0.922,0.0
14.58,1.587,-0.933,0.0
13.523,1.47,-0.942,0.0
21.693,2.349,-0.907,1.0
19.041,2.059,-0.904,0.0
17.281,1.867,-0.919,0.0
15.63,1.686,-0.921,0.0
14.402,1.552,-0.931,0.0
13.343,1.437,-0.939,0.0
20.948,2.245,-0.889,0.0
18.75,2.007,-0.902,0.0
17.01,1.819,-0.915,0.0
15.533,1.659,-0.926,0.0
14.382,1.534,-0.939,0.0
13.274,1.414,-0.942,0.0
20.65,2.19,-0.89,0.0
18.681,1.979,-0.911,0.0
16.836,1.781,-0.916,0.0
15.379,1.625,-0.926,0.0
14.2,1.499,-0.936,0.0
13.156,1.387,-0.942,0.0
20.483,2.149,-0.894,0.0
18.415,1.93,-0.908,0.0
16.679,1.745,-0.917,0.0
15.248,1.594,-0.927,0.0
14.132,1.475,-0.939,0.0
13.085,1.364,-0.944,0.0
20.293,2.105,-0.897,0.0
18.028,1.868,-0.899,0.0
16.593,1.717,-0.922,0.0
15.061,1.556,-0.923,0.0
13.993,1.444,-0.937,0.0
12.953,1.335,-0.941,0.0
19.805,2.031,-0.886,0.0
17.941,1.837,-0.904,1.0
16.428,1.68,-0.921,0.0
15.017,1.533,-0.928,0.0
13.963,1.423,-0.942,0.0
12.807,1.304,-0.937,0.0
19.635,1.989,-0.888,0.0
17.838,1.804,-0.908,2.0
16.31,1.647,-0.922,0.0
14.897,1.502,-0.928,0.0
0.0,0.0,0.0,0.0
12.778,1.285,-0.941,0.0
19.549,1.956,-0.893,0.0
17.78,1.776,-0.913,3.0
16.17,1.612,-0.921,0.0
14.866,1.48,-0.933,0.0
0.0,0.0,0.0,0.0
12.75,1.266,-0.944,0.0
19.485,1.924,-0.898,0.0
17.745,1.749,-0.918,2.0
16.062,1.581,-0.922,0.0
14.787,1.453,-0.934,0.0
13.488,1.323,-0.928,0.0
12.631,1.237,-0.94,0.0
19.376,1.888,-0.901,0.0
17.718,1.723,-0.923,1.0
15.982,1.551,-0.923,0.0
14.653,1.42,-0.931,0.0
13.502,1.306,-0.934,0.0
12.581,1.215,-0.941,0.0
19.348,1.859,-0.906,0.0
17.584,1.686,-0.923,0.0
15.933,1.525,-0.926,0.0
14.606,1.396,-0.932,0.0
13.497,1.287,-0.938,0.0
12.545,1.194,-0.943,0.0
19.22,1.82,-0.906,0.0
17.28,1.633,-0.912,0.0
15.777,1.488,-0.921,0.0
14.589,1.373,-0.936,0.0
13.477,1.266,-0.94,0.0
12.484,1.171,-0.942,0.0
19.202,1.791,-0.911,0.0
17.219,1.603,-0.913,0.0
15.799,1.468,-0.927,0.0
14.522,1.346,-0.935,0.0
13.394,1.24,-0.938,0.0
12.472,1.152,-0.944,0.0
19.121,1.756,-0.911,0.0
17.218,1.578,-0.917,0.0
15.753,1.441,-0.928,0.0
14.467,1.321,-0.935,0.0
13.39,1.22,-0.941,0.0
12.406,1.128,-0.941,0.0
18.987,1.716,-0.909,0.0
17.137,1.546,-0.916,0.0
15.615,1.406,-0.923,0.0
14.443,1.297,-0.936,0.0
13.404,1.202,-0.944,0.0
12.427,1.112,-0.945,0.0
19.016,1.691,-0.913,0.0
17.051,1.513,-0.914,0.0
15.612,1.382,-0.925,0.0
14.459,1.277,-0.939,0.0
13.323,1.175,-0.94,0.0
12.37,1.088,-0.942,0.0
18.966,1.658,-0.913,0.0
17.102,1.492,-0.919,0.0
15.611,1.359,-0.926,0.0
14.413,1.252,-0.937,0.0
13.345,1.156,-0.943,0.0
12.378,1.07,-0.944,0.0
18.997,1.633,-0.916,0.0
17.099,1.466,-0.92,0.0
15.625,1.336,-0.928,0.0
14.427,1.231,-0.939,0.0
13.358,1.137,-0.944,0.0
12.375,1.051,-0.944,0.0
18.921,1.597,-0.913,0.0
17.084,1.439,-0.92,0.0
15.585,1.309,-0.926,0.0
14.367,1.204,-0.935,0.0
13.338,1.115,-0.943,0.0
12.432,1.037,-0.949,0.0
18.813,1.559,-0.908,0.0
17.086,1.412,-0.92,0.0
15.607,1.287,-0.927,0.0
14.425,1.186,-0.939,0.0
13.339,1.094,-0.943,0.0
12.385,1.013,-0.945,0.0
0.0,0.0,0.0,0.0
17.07,1.384,-0.918,0.0
15.629,1.264,-0.928,0.0
14.445,1.165,-0.94,0.0
13.337,1.073,-0.942,0.0
12.397,0.995,-0.945,0.0
18.611,1.483,-0.896,0.0
17.122,1.361,-0.919,0.0
15.634,1.239,-0.927,0.0
14.487,1.145,-0.941,0.0
13.367,1.054,-0.942,0.0
12.449,0.979,-0.947,0.0
18.718,1.462,-0.899,0.0
17.087,1.331,-0.915,0.0
15.693,1.219,-0.928,0.0
14.493,1.122,-0.939,0.0
13.383,1.034,-0.942,0.0
12.421,0.957,-0.943,0.0
19.143,1.465,-0.916,0.0
17.242,1.315,-0.921,0.0
15.755,1.198,-0.929,0.0
14.556,1.104,-0.94,0.0
13.427,1.015,-0.942,0.0
12.48,0.941,-0.945,0.0
19.006,1.424,-0.906,0.0
17.176,1.283,-0.914,0.0
15.808,1.177,-0.929,0.0
14.559,1.081,-0.937,0.0
13.435,0.994,-0.94,0.0
12.521,0.924,-0.945,0.0
19.383,1.42,-0.919,0.0
17.281,1.262,-0.915,0.0
15.906,1.158,-0.93,0.0
14.66,1.064,-0.94,0.0
13.56,0.981,-0.944,0.0
12.545,0.905,-0.944,0.0
19.34,1.385,-0.911,0.0
17.352,1.239,-0.913,0.0
16.046,1.142,-0.933,0.0
14.696,1.042,-0.938,0.0
13.59,0.961,-0.942,0.0
12.642,0.891,-0.947,0.0
19.423,1.36,-0.909,0.0
17.503,1.221,-0.916,0.0
16.079,1.118,-0.93,0.0
14.773,1.023,-0.937,0.0
13.585,0.938,-0.937,0.0
12.684,0.873,-0.945,0.0
19.502,1.333,-0.905,0.0
17.6,1.198,-0.914,0.0
16.145,1.095,-0.927,0.0
14.878,1.006,-0.938,0.0
13.876,0.935,-0.952,0.0
12.742,0.856,-0.944,0.0
19.584,1.306,-0.901,0.0
17.654,1.173,-0.909,0.0
0.0,0.0,0.0,0.0
14.904,0.983,-0.933,0.0
13.908,0.914,-0.948,0.0
12.862,0.842,-0.947,0.0
19.671,1.279,-0.896,0.0
18.069,1.17,-0.923,0.0
0.0,0.0,0.0,0.0
14.941,0.96,-0.928,0.0
13.922,0.891,-0.942,0.0
12.96,0.827,-0.948,0.0
19.871,1.258,-0.896,0.0
0.0,0.0,0.0,0.0
0.0,0.0,0.0,0.0
15.085,0.944,-0.93,0.0
14.016,0.874,-0.941,0.0
12.994,0.807,-0.944,0.0
20.339,1.254,-0.906,0.0
0.0,0.0,0.0,0.0
0.0,0.0,0.0,0.0
15.22,0.927,-0.929,0.0
14.131,0.857,-0.94,0.0
13.145,0.794,-0.947,0.0
20.47,1.227,-0.9,0.0
0.0,0.0,0.0,0.0
0.0,0.0,0.0,0.0
15.254,0.903,-0.922,0.0
14.26,0.841,-0.94,0.0
13.27,0.779,-0.948,0.0
20.976,1.223,-0.909,0.0
0.0,0.0,0.0,0.0
16.999,0.982,-0.922,0.0
15.531,0.894,-0.929,0.0
14.376,0.823,-0.938,0.0
13.349,0.761,-0.945,0.0
21.731,1.23,-0.927,0.0
0.0,0.0,0.0,0.0
17.125,0.961,-0.917,0.0
15.714,0.877,-0.929,0.0
14.519,0.807,-0.938,0.0
13.427,0.743,-0.941,0.0
21.769,1.196,-0.914,0.0
19.204,1.05,-0.91,0.0
17.443,0.949,-0.922,0.0
15.956,0.864,-0.932,0.0
14.701,0.792,-0.939,1.0
13.746,0.738,-0.953,0.0
21.802,1.161,-0.899,0.0
19.427,1.029,-0.906,0.0
17.643,0.93,-0.919,0.0
16.097,0.845,-0.928,0.0
14.978,0.782,-0.945,1.0
13.797,0.717,-0.946,0.0
21.846,1.127,-0.884,0.0
20.185,1.036,-0.926,0.0
17.893,0.914,-0.918,0.0
16.295,0.828,-0.926,1.0
15.094,0.763,-0.94,0.0
13.943,0.701,-0.944,0.0
21.897,1.093,-0.868,0.0
20.233,1.005,-0.911,11.0
18.265,0.902,-0.922,0.0
16.677,0.82,-0.934,1.0
15.263,0.746,-0.937,0.0
14.227,0.692,-0.951,0.0
20.241,0.977,-0.785,3.0
20.188,0.969,-0.892,13.0
0.0,0.0,0.0,0.0
16.808,0.798,-0.926,0.0
15.468,0.73,-0.936,0.0
14.406,0.677,-0.95,0.0
20.19,0.941,-0.764,158.0
20.231,0.937,-0.875,82.0
0.0,0.0,0.0,0.0
20.214,0.926,-1.095,12.0
15.724,0.716,-0.936,0.0
14.551,0.659,-0.945,0.0
20.191,0.907,-0.745,185.0
20.233,0.904,-0.856,62.0
20.032,0.889,-0.955,3.0
20.226,0.893,-1.075,26.0
16.0,0.702,-0.937,0.0
14.736,0.643,-0.943,0.0
20.245,0.876,-0.727,152.0
20.222,0.87,-0.835,11.0
19.975,0.854,-0.932,0.0
17.874,0.759,-0.932,0.0
16.252,0.686,-0.935,0.0
14.978,0.629,-0.943,0.0
20.15,0.839,-0.703,0.0
22.374,0.925,-0.9,3.0
20.197,0.83,-0.921,5.0
18.114,0.74,-0.926,0.0
16.502,0.67,-0.932,0.0
15.21,0.613,-0.941,0.0
26.065,1.042,-0.881,0.0
22.992,0.913,-0.9,1.0
20.24,0.799,-0.901,6.0
18.458,0.724,-0.923,0.0
16.835,0.656,-0.932,0.0
15.445,0.597,-0.938,0.0
26.63,1.022,-0.871,0.0
23.48,0.895,-0.893,0.0
20.946,0.792,-0.909,0.0
18.731,0.704,-0.916,0.0
17.03,0.636,-0.924,0.0
15.839,0.587,-0.944,0.0
27.299,1.003,-0.861,0.0
24.173,0.882,-0.892,0.0
21.537,0.781,-0.91,0.0
19.225,0.692,-0.917,0.0
17.584,0.628,-0.933,0.0
16.13,0.572,-0.942,0.0
28.476,1.002,-0.865,0.0
24.833,0.867,-0.887,0.0
22.213,0.77,-0.912,0.0
19.85,0.683,-0.923,0.0
17.967,0.613,-0.932,0.0
16.351,0.554,-0.935,0.0
29.903,1.004,-0.872,0.0
25.736,0.858,-0.888,0.0
22.572,0.746,-0.899,0.0
20.316,0.667,-0.92,0.0
18.4,0.599,-0.931,0.0
16.71,0.54,-0.935,0.0
30.183,0.966,-0.842,0.0
26.369,0.837,-0.876,0.0
23.362,0.736,-0.901,0.0
20.772,0.649,-0.914,0.0
18.747,0.581,-0.925,0.0
16.975,0.522,-0.928,0.0
31.716,0.967,-0.844,1.0
28.129,0.85,-0.898,0.0
24.104,0.722,-0.898,0.0
21.307,0.633,-0.909,0.0
19.362,0.57,-0.929,0.0
17.376,0.507,-0.927,0.0
32.748,0.947,-0.828,1.0
28.836,0.827,-0.882,0.0
24.824,0.706,-0.892,0.0
22.138,0.624,-0.915,0.0
19.812,0.554,-0.924,0.0
17.974,0.498,-0.934,0.0
34.555,0.948,-0.827,0.0
29.773,0.809,-0.871,0.0
25.775,0.694,-0.891,0.0
22.667,0.605,-0.906,0.0
20.285,0.537,-0.918,0.0
18.377,0.482,-0.93,0.0
0.0,0.0,0.0,0.0
31.39,0.807,-0.875,1.0
26.54,0.676,-0.88,0.0
23.476,0.592,-0.905,0.0
20.886,0.522,-0.916,0.0
18.78,0.464,-0.923,0.0
0.0,0.0,0.0,0.0
32.127,0.778,-0.849,1.0
28.299,0.679,-0.898,0.0
24.347,0.578,-0.903,0.0
21.606,0.508,-0.916,0.0
19.476,0.453,-0.929,0.0
38.844,0.895,-0.765,0.0
33.35,0.76,-0.833,0.0
28.71,0.647,-0.869,0.0
25.066,0.559,-0.893,0.0
22.422,0.495,-0.918,0.0
20.006,0.437,-0.925,0.0
0.0,0.0,0.0,0.0
35.408,0.757,-0.832,0.0
30.677,0.648,-0.882,1.0
26.268,0.549,-0.897,1.0
22.997,0.475,-0.907,0.0
20.583,0.42,-0.92,0.0
42.994,0.869,-0.718,0.0
37.057,0.74,-0.814,0.0
31.729,0.626,-0.864,1.0
27.009,0.526,-0.88,0.0
23.861,0.459,-0.903,0.0
20.463,0.389,-0.883,0.0
0.0,0.0,0.0,0.0
0.0,0.0,0.0,0.0
33.879,0.622,-0.869,2.0
28.514,0.517,-0.885,0.0
24.854,0.445,-0.902,0.0
20.114,0.355,-0.836,2.0
0.0,0.0,0.0,0.0
0.0,0.0,0.0,0.0
34.291,0.583,-0.826,0.0
29.952,0.502,-0.881,0.0
25.966,0.429,-0.9,0.0
22.886,0.373,-0.914,0.0
0.0,0.0,0.0,0.0
42.88,0.681,-0.737,0.0
37.058,0.58,-0.832,0.0
31.568,0.487,-0.877,1.0
20.22,0.307,-0.668,0.0
20.221,0.303,-0.774,3.0
0.0,0.0,0.0,0.0
46.331,0.676,-0.721,0.0
20.212,0.29,-0.42,2.0
20.202,0.285,-0.528,13.0
20.222,0.281,-0.635,23.0
20.223,0.277,-0.741,23.0
0.0,0.0,0.0,0.0
20.203,0.268,-0.28,2.0
20.187,0.264,-0.386,18.0
20.164,0.259,-0.493,19.0
20.199,0.255,-0.6,28.0
20.208,0.251,-0.706,30.0
0.0,0.0,0.0,0.0
20.202,0.243,-0.246,19.0
20.186,0.238,-0.351,27.0
20.182,0.234,-0.459,23.0
20.191,0.23,-0.565,32.0
20.208,0.226,-0.671,33.0
20.219,0.222,-0.106,0.0
20.166,0.218,-0.211,18.0
20.176,0.214,-0.316,28.0
20.183,0.21,-0.424,32.0
20.185,0.205,-0.53,30.0
20.211,0.202,-0.636,27.0
20.25,0.198,-0.071,8.0
20.188,0.194,-0.176,16.0
20.187,0.19,-0.281,31.0
20.171,0.185,-0.388,32.0
20.177,0.181,-0.494,27.0
20.189,0.178,-0.599,16.0
20.231,0.174,-0.035,23.0
20.19,0.17,-0.14,26.0
20.177,0.166,-0.245,33.0
20.181,0.162,-0.352,32.0
20.192,0.158,-0.458,19.0
20.236,0.155,-0.565,0.0
20.199,0.151,0.0,29.0
20.173,0.147,-0.104,33.0
20.177,0.143,-0.209,27.0
20.191,0.139,-0.317,28.0
20.197,0.136,-0.422,6.0
32.987,0.216,-0.861,0.0
20.193,0.128,0.036,38.0
20.182,0.124,-0.067,31.0
20.183,0.121,-0.172,28.0
20.209,0.117,-0.28,27.0
41.881,0.236,-0.798,3.0
0.0,0.0,0.0,0.0
20.197,0.106,0.074,39.0
20.187,0.103,-0.03,29.0
20.182,0.099,-0.135,29.0
20.19,0.095,-0.242,15.0
0.0,0.0,0.0,0.0
36.632,0.16,-0.82,0.0
20.168,0.085,0.111,28.0
20.203,0.081,0.007,29.0
20.193,0.078,-0.097,25.0
20.191,0.074,-0.204,14.0
20.287,0.071,-0.31,0.0
20.205,0.067,-0.414,0.0
20.139,0.064,0.149,27.0
20.21,0.061,0.045,20.0
20.215,0.057,-0.059,11.0
20.218,0.054,-0.166,19.0
20.252,0.051,-0.271,23.0
20.266,0.047,-0.377,60.0
20.138,0.044,0.187,29.0
20.151,0.041,0.083,26.0
20.252,0.037,-0.021,151.0
20.261,0.034,-0.128,151.0
20.265,0.031,-0.233,151.0
20.274,0.028,-0.338,150.0
20.131,0.025,0.225,28.0
20.133,0.021,0.121,28.0
20.259,0.018,0.017,151.0
20.257,0.015,-0.089,150.0
20.273,0.012,-0.194,70.0
20.229,0.009,-0.299,10.0
20.127,0.006,0.264,27.0
20.127,0.003,0.16,28.0
20.138,0.0,0.056,27.0
20.16,-0.002,-0.05,16.0
20.167,-0.005,-0.154,19.0
20.167,-0.008,-0.258,12.0
20.128,-0.011,0.303,31.0
20.118,-0.014,0.199,33.0
20.122,-0.017,0.095,37.0
20.119,-0.02,-0.01,33.0
20.15,-0.023,-0.114,30.0
20.14,-0.026,-0.218,11.0
20.13,-0.028,0.343,33.0
20.117,-0.031,0.239,30.0
20.119,-0.034,0.135,29.0
20.128,-0.037,0.029,37.0
20.151,-0.04,-0.074,33.0
20.147,-0.042,-0.178,34.0
20.12,-0.045,0.383,32.0
20.106,-0.048,0.278,29.0
20.114,-0.051,0.175,28.0
20.128,-0.053,0.069,39.0
20.13,-0.056,-0.034,32.0
20.142,-0.058,-0.139,34.0
20.123,-0.061,0.423,31.0
20.125,-0.064,0.319,29.0
20.119,-0.066,0.215,26.0
20.119,-0.069,0.109,32.0
20.126,-0.071,0.005,35.0
20.147,-0.074,-0.098,29.0
20.127,-0.076,0.463,28.0
20.117,-0.079,0.359,33.0
20.121,-0.081,0.255,27.0
20.114,-0.083,0.149,24.0
20.131,-0.086,0.045,35.0
20.151,-0.088,-0.058,29.0
20.145,-0.091,0.504,24.0
20.118,-0.093,0.399,26.0
20.123,-0.095,0.296,24.0
20.101,-0.097,0.19,19.0
20.13,-0.1,0.086,33.0
20.132,-0.102,-0.017,29.0
20.133,-0.105,0.544,18.0
20.109,-0.107,0.44,19.0
20.113,-0.109,0.336,18.0
20.107,-0.111,0.231,18.0
20.123,-0.113,0.127,16.0
20.143,-0.115,0.023,27.0
20.146,-0.118,0.586,15.0
20.145,-0.12,0.482,16.0
20.141,-0.122,0.378,15.0
20.137,-0.124,0.272,15.0
20.153,-0.126,0.168,17.0
20.165,-0.127,0.064,19.0
53.519,-0.346,1.665,16.0
20.174,-0.132,0.523,9.0
20.222,-0.134,0.42,23.0
20.182,-0.136,0.313,18.0
20.186,-0.138,0.21,17.0
20.181,-0.139,0.105,14.0
53.51,-0.377,1.775,100.0
20.188,-0.144,0.565,6.0
20.195,-0.145,0.461,19.0
20.253,-0.147,0.356,23.0
20.224,-0.149,0.251,12.0
58.316,-0.435,0.424,17.0
58.29,-0.442,2.052,95.0
53.493,-0.41,1.608,105.0
20.163,-0.156,0.502,6.0
20.224,-0.158,0.397,17.0
20.268,-0.159,0.293,7.0
66.528,-0.53,0.622,24.0
58.239,-0.471,2.171,255.0
53.503,-0.436,1.718,92.0
20.151,-0.165,0.543,8.0
20.18,-0.167,0.438,22.0
53.477,-0.447,0.886,33.0
64.358,-0.542,0.735,29.0
58.309,-0.498,2.294,255.0
53.523,-0.461,1.83,150.0
53.51,-0.464,1.554,55.0
20.143,-0.176,0.479,10.0
20.195,-0.177,0.376,20.0
53.39,-0.473,0.721,5.0
58.308,-0.524,2.416,255.0
58.319,-0.527,2.116,181.0
53.491,-0.486,1.664,81.0
20.138,-0.184,0.521,10.0
20.163,-0.185,0.417,23.0
53.408,-0.493,0.831,5.0
58.302,-0.546,2.536,255.0
58.244,-0.548,2.233,255.0
53.516,-0.506,1.775,105.0
53.501,-0.508,1.494,21.0
20.136,-0.192,0.458,13.0
20.187,-0.193,0.356,19.0
58.304,-0.566,2.657,255.0
58.301,-0.569,2.356,255.0
53.516,-0.524,1.887,150.0
53.482,-0.526,1.604,22.0
20.138,-0.198,0.5,14.0
20.153,-0.199,0.397,16.0
58.262,-0.584,2.775,255.0
58.305,-0.587,2.477,255.0
58.236,-0.588,2.173,255.0
53.431,-0.541,1.713,12.0
20.158,-0.204,0.542,7.0
20.144,-0.205,0.438,17.0
45.837,-0.472,2.278,54.0
58.31,-0.602,2.597,255.0
58.234,-0.603,2.293,255.0
53.469,-0.554,1.824,17.0
53.436,-0.555,1.548,16.0
20.139,-0.209,0.479,13.0
45.476,-0.479,2.354,33.0
58.25,-0.615,2.714,255.0
58.294,-0.616,2.416,255.0
58.309,-0.617,2.11,150.0
53.441,-0.567,1.659,12.0
20.155,-0.214,0.521,9.0
60.004,-0.644,3.23,8.0
46.023,-0.494,2.24,60.0
58.299,-0.627,2.536,255.0
58.291,-0.627,2.229,200.0
53.444,-0.576,1.768,13.0
53.486,-0.576,1.493,38.0
52.881,-0.576,2.957,13.0
45.484,-0.496,2.308,40.0
58.242,-0.635,2.654,255.0
58.236,-0.635,2.347,255.0
53.482,-0.583,1.879,16.0
53.49,-0.583,1.604,32.0
52.858,-0.582,3.064,6.0
45.512,-0.501,2.402,17.0
58.314,-0.642,2.777,150.0
58.308,-0.641,2.469,255.0
58.32,-0.641,2.168,159.0
53.492,-0.587,1.713,19.0
60.222,-0.668,3.615,11.0
52.876,-0.586,2.9,23.0
45.717,-0.506,2.27,36.0
58.229,-0.644,2.585,255.0
58.236,-0.643,2.285,255.0
53.507,-0.59,1.822,21.0
60.391,-0.673,3.748,28.0
45.069,-0.501,2.563,32.0
45.5,-0.505,2.351,34.0
58.279,-0.646,2.705,250.0
58.302,-0.644,2.404,255.0
58.324,-0.644,2.103,150.0
60.471,-0.674,3.875,20.0
52.838,-0.588,3.112,14.0
60.014,-0.666,3.223,10.0
46.016,-0.509,2.228,60.0
58.305,-0.643,2.522,255.0
58.292,-0.642,2.221,198.0
52.297,-0.581,3.458,63.0
60.299,-0.668,3.673,22.0
52.863,-0.584,2.946,16.0
45.488,-0.501,2.294,38.0
58.218,-0.639,2.635,255.0
58.224,-0.637,2.334,255.0
60.713,-0.671,4.136,7.0
60.44,-0.665,3.802,32.0
52.859,-0.58,3.051,6.0
45.504,-0.497,2.386,20.0
58.342,-0.634,2.756,162.0
58.304,-0.632,2.453,255.0
38.682,-0.423,2.712,6.0
60.566,-0.66,3.932,7.0
52.876,-0.573,3.158,26.0
60.019,-0.648,3.267,9.0
45.802,-0.492,2.255,52.0
58.317,-0.623,2.57,255.0
38.685,-0.417,2.79,38.0
52.294,-0.562,3.5,63.0
60.418,-0.645,3.728,20.0
45.074,-0.479,2.543,41.0
45.467,-0.48,2.329,34.0
58.234,-0.612,2.681,255.0
44.589,-0.473,3.304,54.0
52.315,-0.552,3.603,20.0
60.485,-0.634,3.85,13.0
52.828,-0.551,3.082,32.0
45.511,-0.471,2.418,18.0
58.305,-0.6,2.796,150.0
44.6,-0.464,3.391,35.0
38.699,-0.399,2.74,13.0
52.313,-0.537,3.431,12.0
52.855,-0.539,3.186,51.0
45.177,-0.457,2.488,43.0
45.755,-0.459,2.282,47.0
51.589,-0.523,4.021,5.0
44.633,-0.449,3.246,4.0
52.309,-0.522,3.531,55.0
53.02,-0.526,3.297,26.0
45.123,-0.444,2.571,27.0
45.408,-0.443,2.351,19.0
51.554,-0.508,4.118,35.0
44.572,-0.435,3.327,44.0
52.323,-0.507,3.632,47.0
52.874,-0.508,3.389,5.0
64.35,-0.613,3.789,15.0
45.226,-0.426,2.427,42.0
51.509,-0.49,4.212,17.0
44.554,-0.42,3.41,50.0
52.331,-0.489,3.732,14.0
64.32,-0.596,4.245,39.0
52.817,-0.484,3.209,55.0
45.171,-0.41,2.509,36.0
51.463,-0.471,4.306,19.0
52.325,-0.474,4.103,18.0
52.344,-0.469,3.831,9.0
64.293,-0.571,4.362,65.0
52.777,-0.463,3.304,41.0
64.309,-0.558,3.691,90.0
64.29,-0.564,5.499,10.0
52.334,-0.453,4.201,13.0
52.331,-0.448,3.926,22.0
64.28,-0.544,4.479,10.0
52.739,-0.441,3.399,62.0
64.319,-0.531,3.81,67.0
38.575,-0.321,3.37,58.0
52.306,-0.43,4.295,58.0
44.539,-0.361,3.424,16.0
52.364,-0.419,3.745,38.0
52.72,-0.416,3.494,80.0
52.805,-0.412,3.223,14.0
38.66,-0.304,3.447,19.0
52.312,-0.406,4.389,56.0
46.826,-0.358,3.682,4.0
52.46,-0.395,3.844,7.0
52.71,-0.391,3.586,68.0
52.896,-0.386,3.322,23.0
38.768,-0.286,3.526,9.0
52.312,-0.379,4.483,23.0
0.0,0.0,0.0,0.0
38.617,-0.271,2.899,11.0
52.736,-0.363,3.681,15.0
53.228,-0.36,3.436,40.0
31.083,-0.212,2.882,46.0
38.54,-0.259,3.371,35.0
44.538,-0.293,3.66,13.0
58.115,-0.376,4.464,10.0
58.38,-0.37,4.177,17.0
53.235,-0.331,3.53,39.0
31.052,-0.194,2.934,45.0
51.311,-0.315,4.577,8.0
44.512,-0.267,3.735,5.0
46.816,-0.275,3.676,5.0
58.271,-0.335,4.269,13.0
58.384,-0.328,3.97,42.0
38.909,-0.221,3.743,2.0
42.808,-0.237,3.892,10.0
57.853,-0.312,4.953,4.0
46.838,-0.247,3.758,15.0
52.712,-0.27,3.951,14.0
58.368,-0.291,4.067,52.0
31.026,-0.156,3.037,6.0
31.076,-0.152,2.877,19.0
40.411,-0.192,3.527,3.0
57.919,-0.268,4.743,18.0
38.559,-0.173,2.954,53.0
53.522,-0.232,3.818,17.0
51.267,-0.225,5.104,45.0
31.05,-0.132,2.926,38.0
38.575,-0.158,3.431,33.0
57.773,-0.228,4.826,10.0
38.55,-0.146,3.016,50.0
53.549,-0.196,3.906,10.0
51.835,-0.191,5.244,33.0
31.008,-0.11,2.972,43.0
38.611,-0.131,3.496,31.0
57.883,-0.188,4.927,16.0
43.114,-0.133,3.441,9.0
53.617,-0.158,3.996,16.0
52.249,-0.155,5.37,30.0
31.002,-0.087,3.02,55.0
0.0,0.0,0.0,0.0
57.915,-0.146,5.021,20.0
42.966,-0.102,3.496,12.0
53.292,-0.118,4.054,27.0
42.896,-0.096,4.475,3.0
30.963,-0.064,3.065,40.0
42.767,-0.082,4.005,3.0
57.87,-0.102,5.106,17.0
42.851,-0.069,3.552,8.0
53.157,-0.077,4.124,27.0
42.655,-0.062,4.516,3.0
30.943,-0.04,3.11,18.0
52.363,-0.059,4.983,8.0
51.16,-0.05,4.59,8.0
42.76,-0.035,3.609,4.0
52.899,-0.034,4.183,26.0
36.381,-0.024,3.906,13.0
30.873,-0.015,3.149,7.0
52.356,-0.017,5.061,8.0
51.283,-0.008,4.678,2.0
42.704,0.0,3.667,5.0
53.514,0.008,4.31,43.0
42.6,0.006,4.636,3.0
30.79,0.01,3.186,34.0
30.944,0.015,3.036,22.0
42.997,0.028,3.983,3.0
40.423,0.034,3.529,12.0
53.65,0.054,4.397,56.0
42.571,0.043,4.694,5.0
30.726,0.036,3.223,35.0
30.902,0.042,3.075,29.0
52.338,0.08,4.923,7.0
53.695,0.091,4.762,9.0
53.321,0.1,4.445,46.0
30.597,0.057,3.417,13.0
30.702,0.063,3.263,56.0
30.869,0.069,3.114,31.0
53.32,0.129,5.088,27.0
53.854,0.14,4.851,8.0
53.289,0.148,4.514,28.0
30.48,0.085,3.445,29.0
30.67,0.091,3.301,51.0
30.845,0.097,3.154,17.0
42.183,0.14,4.081,1.0
45.555,0.159,4.163,4.0
53.716,0.198,4.62,6.0
30.455,0.113,3.483,40.0
30.62,0.119,3.336,26.0
30.779,0.125,3.187,6.0
58.692,0.25,5.755,10.0
42.951,0.191,3.98,2.0
45.807,0.212,3.999,6.0
30.463,0.142,3.523,24.0
30.565,0.148,3.369,28.0
36.197,0.182,3.794,2.0
30.945,0.162,3.074,32.0
53.73,0.291,5.047,20.0
53.754,0.301,4.76,8.0
30.473,0.172,3.562,36.0
30.551,0.178,3.406,8.0
47.604,0.287,5.049,3.0
30.921,0.192,3.109,47.0
53.684,0.344,5.108,41.0
50.999,0.336,4.578,3.0
40.192,0.267,4.748,3.0
30.576,0.209,3.445,2.0
37.047,0.26,3.973,9.0
30.959,0.223,3.149,53.0
50.765,0.375,4.889,25.0
45.648,0.346,4.149,45.0
40.198,0.307,4.795,2.0
36.322,0.285,4.135,3.0
37.128,0.298,4.025,5.0
30.962,0.255,3.185,53.0
45.855,0.386,4.468,15.0
44.809,0.386,4.124,3.0
59.451,0.516,7.16,7.0
51.113,0.454,5.876,4.0
53.443,0.485,5.853,8.0
30.921,0.286,3.215,46.0
45.906,0.434,4.523,13.0
53.921,0.521,5.021,7.0
47.875,0.466,5.818,4.0
51.025,0.506,5.921,11.0
30.985,0.313,3.426,15.0
30.919,0.319,3.247,47.0
36.329,0.382,3.618,4.0
40.327,0.432,3.797,56.0
57.992,0.626,7.108,9.0
51.207,0.563,5.995,12.0
30.968,0.346,3.456,37.0
30.905,0.352,3.277,44.0
52.635,0.609,5.295,15.0
40.313,0.475,3.836,65.0
54.177,0.644,6.695,6.0
31.038,0.375,3.665,7.0
31.027,0.381,3.494,45.0
30.936,0.386,3.311,11.0
53.238,0.674,5.407,6.0
40.326,0.519,3.876,13.0
50.982,0.662,6.349,6.0
31.032,0.409,3.694,31.0
46.816,0.626,5.316,12.0
46.184,0.627,4.986,4.0
53.398,0.736,5.473,5.0
0.0,0.0,0.0,0.0
52.353,0.739,6.569,10.0
31.066,0.444,3.726,64.0
46.681,0.677,5.343,21.0
46.608,0.685,5.074,2.0
37.152,0.554,3.841,1.0
36.383,0.549,3.562,3.0
52.098,0.794,6.583,4.0
31.047,0.479,3.751,46.0
46.946,0.734,5.414,8.0
40.727,0.645,4.469,1.0
37.154,0.596,3.873,3.0
36.359,0.59,3.591,2.0
31.072,0.509,3.952,2.0
31.063,0.515,3.779,17.0
47.024,0.789,5.462,7.0
47.645,0.809,5.266,3.0
37.089,0.637,3.896,7.0
52.6,0.914,5.236,22.0
31.087,0.545,3.979,18.0
40.415,0.717,4.948,2.0
47.064,0.843,5.502,8.0
47.82,0.866,5.322,4.0
37.048,0.679,3.919,3.0
53.255,0.986,5.341,6.0
31.076,0.58,4.0,46.0
46.405,0.876,5.716,8.0
47.058,0.898,5.536,4.0
52.328,1.008,5.861,12.0
52.624,1.025,5.605,25.0
36.382,0.716,3.674,2.0
31.07,0.617,4.021,35.0
46.427,0.931,5.752,7.0
52.138,1.056,6.17,10.0
52.501,1.074,5.917,23.0
52.507,1.084,5.627,12.0
46.602,0.972,4.738,4.0
31.07,0.654,4.042,26.0
31.107,0.661,3.874,1.0
52.434,1.124,6.238,26.0
52.08,1.126,5.902,1.0
55.199,1.205,5.95,3.0
46.535,1.024,4.759,40.0
39.311,0.874,5.138,8.0
33.572,0.752,4.201,3.0
52.227,1.181,6.245,6.0
36.864,0.841,4.199,1.0
46.587,1.072,5.048,34.0
46.506,1.079,4.782,4.0
39.311,0.92,5.161,9.0
52.501,1.24,6.599,10.0
47.126,1.122,5.661,9.0
36.792,0.883,4.211,2.0
0.0,0.0,0.0,0.0
37.005,0.903,3.825,2.0
39.333,0.969,5.184,9.0
52.363,1.299,6.609,4.0
47.209,1.18,5.694,5.0
46.591,1.174,5.355,26.0
48.098,1.222,5.261,3.0
52.513,1.344,5.453,6.0
39.356,1.016,5.206,8.0
47.833,1.244,6.059,8.0
46.67,1.222,5.651,20.0
46.819,1.236,5.403,2.0
59.001,1.568,6.48,5.0
36.977,0.99,3.856,3.0
39.373,1.064,5.225,6.0
0.0,0.0,0.0,0.0
52.459,1.437,6.374,6.0
46.862,1.293,5.426,3.0
48.268,1.341,5.32,3.0
46.569,1.303,4.874,14.0
46.505,1.313,6.19,7.0
52.324,1.487,6.67,4.0
59.308,1.697,7.227,6.0
59.233,1.705,6.881,34.0
46.188,1.339,5.107,3.0
59.268,1.729,6.223,24.0
46.57,1.371,6.214,9.0
46.851,1.388,5.988,3.0
47.481,1.415,5.801,9.0
61.803,1.854,7.198,1.0
58.84,1.776,6.524,18.0
46.309,1.406,4.876,5.0
46.57,1.427,6.228,5.0
39.39,1.215,5.045,5.0
47.545,1.474,5.822,5.0
52.675,1.643,6.149,5.0
46.472,1.458,5.165,20.0
46.31,1.461,4.888,5.0
39.4,1.255,5.278,6.0
52.624,1.685,6.753,3.0
47.576,1.532,5.837,5.0
58.993,1.911,6.9,23.0
46.514,1.515,5.179,20.0
46.264,1.515,4.892,7.0
46.544,1.538,6.245,4.0
52.584,1.747,6.758,3.0
59.002,1.97,7.249,19.0
52.687,1.77,6.171,5.0
46.323,1.564,5.165,10.0
46.307,1.572,4.904,9.0
39.366,1.348,5.288,5.0
58.868,2.026,7.574,12.0
47.604,1.647,5.855,5.0
46.73,1.625,5.48,17.0
46.278,1.617,5.166,6.0
46.586,1.636,4.939,6.0
39.389,1.396,5.295,4.0
52.757,1.879,6.793,1.0
39.404,1.41,4.85,3.0
46.731,1.68,5.483,8.0
46.307,1.673,5.173,3.0
46.949,1.705,4.981,2.0
39.447,1.445,5.305,5.0
60.402,2.223,7.78,2.0
61.327,2.269,7.551,7.0
52.671,1.957,6.182,1.0
47.06,1.756,5.258,4.0
60.191,2.257,6.387,18.0
39.392,1.49,5.298,4.0
60.559,2.3,7.8,2.0
46.817,1.786,5.765,14.0
60.115,2.303,7.055,2.0
46.554,1.791,5.201,4.0
46.728,1.806,4.957,5.0
39.441,1.537,5.303,2.0
47.79,1.87,6.154,1.0
60.459,2.376,7.442,12.0
59.783,2.359,7.013,2.0
59.138,2.343,6.603,8.0
46.78,1.862,4.959,5.0
46.96,1.885,6.311,3.0
60.486,2.437,7.783,2.0
46.862,1.896,5.764,3.0
59.791,2.429,7.008,17.0
46.709,1.905,5.21,5.0
46.56,1.906,4.93,8.0
60.615,2.503,8.138,6.0
46.802,1.94,6.016,14.0
52.643,2.191,6.467,2.0
59.588,2.488,6.976,27.0
46.633,1.955,5.194,9.0
46.457,1.955,4.912,8.0
30.302,1.286,4.063,2.0
46.821,1.994,6.01,11.0
52.639,2.25,6.457,2.0
58.951,2.529,6.89,8.0
46.771,2.014,5.201,11.0
46.527,2.01,4.91,6.0
46.511,2.026,6.226,8.0
46.818,2.046,6.0,1.0
46.742,2.05,5.723,3.0
59.435,2.616,6.932,13.0
46.63,2.059,5.174,6.0
59.836,2.651,6.3,5.0
46.862,2.094,6.261,14.0
46.918,2.103,6.0,2.0
60.057,2.701,7.337,7.0
0.0,0.0,0.0,0.0
46.614,2.11,5.159,5.0
46.761,2.123,4.909,2.0
47.171,2.16,6.288,1.0
46.951,2.156,5.989,3.0
46.671,2.15,5.687,1.0
47.761,2.207,5.542,1.0
46.366,2.148,5.116,8.0
46.497,2.161,4.866,12.0
46.729,2.19,6.213,1.0
46.939,2.207,5.971,2.0
46.716,2.202,5.675,2.0
47.552,2.248,5.5,1.0
46.329,2.197,5.094,12.0
46.893,2.23,4.89,2.0
46.69,2.238,6.189,1.0
47.224,2.27,5.988,3.0
46.732,2.253,5.658,1.0
0.0,0.0,0.0,0.0
46.338,2.246,5.076,13.0
60.923,2.962,6.327,2.0
46.696,2.288,6.169,2.0
47.208,2.319,5.965,3.0
46.727,2.301,5.636,1.0
59.824,2.955,6.867,5.0
46.317,2.293,5.052,13.0
46.776,2.322,4.836,4.0
46.671,2.335,6.143,2.0
47.162,2.366,5.936,2.0
46.704,2.348,5.61,1.0
60.357,3.042,6.899,4.0
46.261,2.337,5.023,15.0
46.731,2.368,4.807,6.0
46.613,2.38,6.111,1.0
47.087,2.409,5.902,2.0
60.349,3.095,7.217,5.0
47.275,2.43,5.378,3.0
46.217,2.382,4.993,9.0
46.748,2.414,4.783,3.0
46.591,2.425,6.082,1.0
47.094,2.456,5.876,1.0
46.643,2.438,5.551,1.0
47.167,2.471,5.338,4.0
46.251,2.428,4.97,8.0
59.357,3.123,6.039,2.0
46.62,2.472,6.057,0.0
47.104,2.502,5.848,1.0
60.407,3.216,7.152,2.0
46.997,2.507,5.29,3.0
46.42,2.481,4.959,5.0
52.359,2.805,5.293,4.0
46.553,2.513,6.018,0.0
47.19,2.551,5.828,0.0
46.667,2.528,5.495,1.0
46.149,2.505,5.164,7.0
46.414,2.524,4.927,5.0
45.726,2.492,4.592,1.0
30.594,1.679,3.934,0.0
47.23,2.598,5.8,0.0
47.3,2.607,5.535,4.0
0.0,0.0,0.0,0.0
47.349,2.619,4.992,21.0
0.0,0.0,0.0,0.0
0.0,0.0,0.0,0.0
45.948,2.573,5.343,4.0
0.0,0.0,0.0,0.0
46.265,2.6,4.843,2.0
45.737,2.575,4.525,3.0
0.0,0.0,0.0,0.0
45.699,2.595,5.542,3.0
0.0,0.0,0.0,0.0
46.205,2.633,5.065,5.0
46.358,2.645,4.816,2.0
43.499,2.486,4.269,1.0
0.0,0.0,0.0,0.0
47.804,2.755,5.759,2.0
47.205,2.725,5.414,2.0
46.167,2.669,5.023,6.0
45.502,2.634,4.689,2.0
45.566,2.642,4.435,3.0
47.183,2.754,5.917,1.0
47.751,2.791,5.712,1.0
47.008,2.752,5.351,4.0
46.186,2.707,4.986,5.0
45.386,2.664,4.638,1.0
45.663,2.684,4.404,9.0
47.251,2.796,5.884,1.0
0.0,0.0,0.0,0.0
46.827,2.777,5.289,1.0
46.319,2.751,4.959,3.0
45.608,2.716,4.358,7.0
0.0,0.0,0.0,0.0
0.0,0.0,0.0,0.0
0.0,0.0,0.0,0.0
45.773,2.754,4.857,4.0
45.493,2.743,4.304,2.0
0.0,0.0,0.0,0.0
0.0,0.0,0.0,0.0
46.255,2.813,5.136,3.0
45.509,2.777,4.261,2.0
0.0,0.0,0.0,0.0
47.242,2.904,5.471,1.0
46.212,2.843,5.084,2.0
45.809,2.823,4.506,4.0
45.473,2.806,4.211,1.0
0.0,0.0,0.0,0.0
47.197,2.933,5.417,2.0
0.0,0.0,0.0,0.0
45.653,2.844,4.443,12.0
0.0,0.0,0.0,0.0
47.165,2.961,5.363,0.0
46.136,2.898,4.979,2.0
45.527,2.864,4.382,5.0
47.499,2.991,4.298,4.0
0.0,0.0,0.0,0.0
46.223,2.93,5.205,3.0
46.107,2.924,4.925,3.0
47.484,3.018,4.244,1.0
0.0,0.0,0.0,0.0
46.189,2.954,5.149,1.0
46.082,2.949,4.87,1.0
45.627,2.924,4.289,3.0
46.096,2.955,4.067,2.0
47.145,3.04,5.475,2.0
0.0,0.0,0.0,0.0
45.547,2.941,4.492,5.0
45.507,2.939,4.225,3.0
0.0,0.0,0.0,0.0
0.0,0.0,0.0,0.0
0.0,0.0,0.0,0.0
45.485,2.959,4.431,14.0
47.533,3.094,4.355,3.0
47.473,3.092,4.076,2.0
46.264,3.028,5.261,3.0
45.917,3.007,4.954,1.0
45.62,2.989,4.388,3.0
47.459,3.111,4.291,1.0
47.688,3.127,4.036,1.0
46.273,3.049,5.205,1.0
46.22,3.047,4.929,2.0
45.822,3.024,3.821,2.0
0.0,0.0,0.0,0.0
46.272,3.069,4.876,1.0
45.514,3.019,4.531,3.0
45.482,3.017,4.26,1.0
45.795,3.039,3.76,3.0
0.0,0.0,0.0,0.0
45.544,3.037,4.475,11.0
45.517,3.035,4.203,2.0
46.145,3.078,3.994,2.0
245.564,16.382,19.838,19.0
0.0,0.0,0.0,0.0
45.528,3.051,4.412,3.0
47.319,3.17,4.307,0.0
47.559,3.187,4.053,2.0
47.03,3.151,3.736,1.0
46.258,3.113,4.959,1.0
45.54,3.064,4.351,1.0
47.808,3.216,4.009,1.0
0.0,0.0,0.0,0.0
46.211,3.122,4.889,1.0
45.116,3.047,4.511,4.0
47.749,3.225,4.497,2.0
45.791,3.091,3.777,2.0
46.159,3.115,3.541,0.0
45.644,3.092,4.5,12.0
47.527,3.219,4.409,2.0
46.242,3.131,4.017,2.0
45.76,3.098,3.71,2.0
245.816,16.641,18.511,23.0
45.666,3.102,4.437,8.0
47.453,3.222,4.335,1.0
47.537,3.226,4.062,1.0
47.029,3.191,3.746,2.0
245.817,16.678,18.161,12.0
44.953,3.061,4.564,1.0
45.69,3.11,4.373,1.0
47.783,3.249,4.014,0.0
47.407,3.222,3.708,3.0
110.211,7.489,7.984,2.0
45.848,3.126,4.589,2.0
47.75,3.254,4.501,3.0
45.775,3.116,3.779,1.0
47.457,3.229,3.642,0.0
0.0,0.0,0.0,0.0
45.583,3.111,4.494,5.0
45.452,3.099,4.216,2.0
46.397,3.162,4.034,2.0
45.799,3.12,3.712,1.0
245.915,16.742,18.512,13.0
109.539,7.453,7.612,2.0
45.675,3.118,4.434,5.0
47.458,3.234,4.055,1.0
47.107,3.209,3.748,2.0
246.064,16.752,18.151,15.0
109.706,7.464,7.458,2.0
47.799,3.261,4.568,2.0
47.45,3.23,3.702,2.0
110.2,7.497,7.961,2.0
111.4,7.574,7.404,6.0
47.787,3.257,4.494,1.0
45.791,3.116,3.773,2.0
245.802,16.713,18.805,22.0
0.0,0.0,0.0,0.0
111.331,7.559,7.229,5.0
47.398,3.225,4.384,2.0
46.906,3.189,4.065,2.0
45.834,3.113,3.706,2.0
245.773,16.68,18.423,14.0
109.506,7.425,7.575,2.0
110.674,7.499,7.016,5.0
47.621,3.23,4.053,1.0
47.081,3.191,3.733,2.0
245.907,16.649,18.05,19.0
111.275,7.526,7.523,6.0
110.857,7.491,6.853,2.0
46.176,3.119,3.588,1.0
0.0,0.0,0.0,0.0
109.91,7.411,7.257,2.0
108.225,7.29,6.521,1.0
46.532,3.14,4.082,2.0
45.83,3.088,3.754,3.0
245.648,16.538,18.699,17.0
111.417,7.492,7.824,6.0
110.575,7.426,7.126,6.0
120.487,8.085,7.068,3.0
47.496,3.192,4.092,1.0
47.081,3.159,3.782,1.0
245.64,16.467,18.307,21.0
111.398,7.458,7.646,5.0
0.0,0.0,0.0,0.0
111.012,7.414,6.334,1.0
46.958,3.136,3.697,2.0
245.556,16.378,17.907,16.0
109.948,7.324,7.37,1.0
208.861,13.896,12.792,6.0
196.726,13.071,10.911,5.0
45.82,3.048,3.799,3.0
245.534,16.311,18.933,22.0
111.481,7.394,7.95,7.0
110.611,7.326,7.236,6.0
120.287,7.957,7.173,3.0
107.696,7.114,5.801,3.0
245.305,16.222,19.947,24.0
245.358,16.199,18.525,15.0
110.025,7.252,7.669,2.0
208.924,13.752,13.334,6.0
0.0,0.0,0.0,0.0
161.945,10.628,8.464,12.0
47.117,3.095,3.754,2.0
111.376,7.303,8.229,6.0
110.345,7.223,7.513,1.0
0.0,0.0,0.0,0.0
195.818,12.779,11.047,15.0
0.0,0.0,0.0,0.0
46.14,3.007,3.601,1.0
245.13,15.953,17.71,10.0
110.64,7.188,7.353,2.0
0.0,0.0,0.0,0.0
195.831,12.681,10.732,14.0
121.966,7.884,5.979,2.0
245.013,15.843,18.724,23.0
0.0,0.0,0.0,0.0
209.037,13.468,13.551,8.0
0.0,0.0,0.0,0.0
194.95,12.514,10.364,14.0
160.699,10.299,7.615,4.0
244.746,15.686,18.303,23.0
110.344,7.057,7.611,7.0
0.0,0.0,0.0,0.0
0.0,0.0,0.0,0.0
194.788,12.389,10.036,5.0
0.0,0.0,0.0,0.0
244.687,15.532,17.897,23.0
0.0,0.0,0.0,0.0
0.0,0.0,0.0,0.0
196.215,12.38,10.921,18.0
194.52,12.248,9.702,5.0
110.992,6.975,4.895,1.0
110.366,6.932,7.889,1.0
0.0,0.0,0.0,0.0
0.0,0.0,0.0,0.0
195.828,12.222,10.579,7.0
107.895,6.719,5.205,2.0
160.964,10.006,6.838,3.0
207.213,12.871,14.472,6.0
207.711,12.872,13.302,7.0
207.755,12.845,12.104,8.0
0.0,0.0,0.0,0.0
0.0,0.0,0.0,0.0
163.255,10.03,6.668,4.0
0.0,0.0,0.0,0.0
207.557,12.707,12.951,7.0
196.926,12.027,11.147,6.0
107.796,6.568,5.469,2.0
193.401,11.759,8.696,8.0
193.017,11.708,7.565,4.0
0.0,0.0,0.0,0.0
0.0,0.0,0.0,0.0
194.204,11.705,10.674,17.0
193.675,11.646,9.507,20.0
163.3,9.796,7.075,4.0
156.184,9.346,5.866,3.0
0.0,0.0,0.0,0.0
0.0,0.0,0.0,0.0
194.134,11.539,10.355,24.0
194.246,11.516,9.219,11.0
0.0,0.0,0.0,0.0
0.0,0.0,0.0,0.0
0.0,0.0,0.0,0.0
110.322,6.479,6.343,1.0
193.81,11.351,10.023,21.0
193.84,11.321,8.886,20.0
0.0,0.0,0.0,0.0
192.765,11.2,6.616,4.0
0.0,0.0,0.0,0.0
195.755,11.319,10.936,18.0
193.667,11.166,9.703,12.0
194.029,11.155,8.584,10.0
156.263,8.96,6.012,3.0
193.268,11.05,6.322,7.0
206.768,11.794,12.414,6.0
193.457,11.003,10.498,12.0
193.889,10.994,9.402,9.0
0.0,0.0,0.0,0.0
0.0,0.0,0.0,0.0
193.453,10.874,6.021,5.0
195.252,10.945,11.408,27.0
193.473,10.81,10.186,24.0
194.055,10.808,9.097,5.0
193.476,10.744,7.937,7.0
192.862,10.676,6.801,12.0
196.061,10.822,5.787,31.0
195.565,10.763,11.114,11.0
193.637,10.621,9.888,23.0
192.839,10.541,8.733,16.0
193.624,10.551,7.635,5.0
195.862,10.638,6.596,7.0
196.02,10.611,5.473,21.0
194.005,10.47,10.715,30.0
193.463,10.404,9.569,21.0
192.942,10.339,8.43,24.0
193.581,10.337,7.326,14.0
196.311,10.447,6.299,12.0
0.0,0.0,0.0,0.0
194.066,10.257,10.41,17.0
192.79,10.152,9.232,26.0
193.047,10.13,8.132,21.0
193.34,10.108,7.011,19.0
193.646,10.088,5.91,21.0
197.364,10.246,4.889,12.0
194.044,10.035,10.105,23.0
192.873,9.936,8.934,19.0
192.928,9.903,7.828,22.0
193.739,9.907,6.728,8.0
193.985,9.881,5.619,11.0
0.0,0.0,0.0,0.0
193.105,9.76,9.759,12.0
192.852,9.707,8.635,24.0
193.245,9.689,7.54,21.0
0.0,0.0,0.0,0.0
193.995,9.649,5.321,15.0
0.0,0.0,0.0,0.0
193.026,9.521,9.456,18.0
193.071,9.482,8.346,9.0
192.804,9.429,7.227,24.0
0.0,0.0,0.0,0.0
0.0,0.0,0.0,0.0
197.195,9.525,3.977,6.0
192.876,9.272,9.154,32.0
193.18,9.246,8.059,9.0
193.638,9.226,6.964,23.0
193.981,9.204,5.845,24.0
0.0,0.0,0.0,0.0
204.982,9.638,3.823,4.0
192.991,9.026,8.866,25.0
193.713,9.02,7.788,19.0
193.771,8.98,6.676,28.0
193.743,8.937,5.545,5.0
0.0,0.0,0.0,0.0
205.007,9.367,3.515,5.0
193.36,8.784,8.591,21.0
193.878,8.766,7.502,18.0
193.066,8.685,6.361,25.0
193.975,8.683,5.258,8.0
195.487,8.706,4.178,32.0
195.522,8.668,3.06,31.0
193.393,8.522,8.307,23.0
193.852,8.497,7.213,27.0
193.27,8.429,6.083,25.0
192.746,8.363,4.943,14.0
0.0,0.0,0.0,0.0
0.0,0.0,0.0,0.0
195.424,8.34,8.11,11.0
193.6,8.216,6.923,25.0
193.682,8.177,5.817,6.0
0.0,0.0,0.0,0.0
196.629,8.21,3.634,7.0
0.0,0.0,0.0,0.0
195.462,8.063,7.831,21.0
193.626,7.938,6.645,23.0
193.57,7.89,5.535,23.0
196.716,7.975,4.48,22.0
203.869,8.216,3.476,23.0
199.29,7.984,2.257,13.0
195.663,7.782,7.56,17.0
193.272,7.642,6.361,18.0
0.0,0.0,0.0,0.0
195.293,7.629,4.173,5.0
0.0,0.0,0.0,0.0
195.068,7.526,1.938,11.0
193.671,7.417,7.215,4.0
193.408,7.358,6.097,6.0
195.517,7.389,5.044,7.0
200.27,7.522,4.003,17.0
0.0,0.0,0.0,0.0
196.438,7.281,1.681,21.0
193.407,7.112,6.939,20.0
194.709,7.111,5.873,8.0
195.646,7.095,4.782,22.0
195.447,7.041,3.642,8.0
195.998,7.011,2.532,24.0
196.318,6.974,1.416,31.0
193.6,6.814,6.683,8.0
194.704,6.806,5.609,9.0
195.41,6.781,4.514,5.0
194.91,6.714,3.37,24.0
0.0,0.0,0.0,0.0
196.297,6.662,1.153,30.0
193.532,6.505,6.424,18.0
194.463,6.484,5.343,8.0
194.774,6.444,4.24,28.0
195.003,6.402,3.112,13.0
0.0,0.0,0.0,0.0
196.36,6.344,0.894,31.0
193.216,6.182,6.161,5.0
193.793,6.148,5.073,24.0
193.927,6.1,3.969,20.0
195.531,6.097,2.866,5.0
196.137,6.067,1.758,13.0
196.189,6.016,0.64,11.0
193.043,5.854,5.906,8.0
193.961,5.83,4.828,29.0
193.759,5.772,3.718,22.0
195.554,5.774,2.619,20.0
195.939,5.731,1.507,31.0
0.0,0.0,0.0,0.0
194.24,5.566,5.699,17.0
193.655,5.494,4.577,29.0
193.467,5.435,3.47,20.0
195.141,5.431,2.37,20.0
102.981,2.837,0.664,1.0
0.0,0.0,0.0,0.0
194.608,5.242,5.47,24.0
193.644,5.162,4.339,28.0
193.804,5.113,3.24,9.0
0.0,0.0,0.0,0.0
100.53,2.594,0.525,1.0
0.0,0.0,0.0,0.0
194.238,4.895,5.225,26.0
193.864,4.829,4.111,31.0
195.105,4.807,3.029,26.0
0.0,0.0,0.0,0.0
100.149,2.409,0.405,3.0
100.175,2.381,-0.164,5.0
194.624,4.562,5.006,23.0
193.912,4.489,3.886,23.0
195.047,4.458,2.799,26.0
