X,Y,Z,Reflectivity
18.824,-0.563,-0.804,0.0
38.044,-1.147,-0.576,24.0
30.63,-0.932,-0.638,37.0
27.814,-0.855,-0.739,1.0
23.7,-0.736,-0.768,12.0
20.487,-0.642,-0.781,0.0
18.337,-0.58,-0.804,0.0
37.936,-1.209,-0.617,10.0
30.489,-0.981,-0.669,39.0
25.077,-0.814,-0.694,2.0
23.185,-0.76,-0.776,5.0
19.865,-0.657,-0.779,1.0
18.024,-0.601,-0.81,0.0
31.358,-1.053,-0.543,25.0
30.449,-1.032,-0.701,20.0
24.887,-0.851,-0.715,10.0
22.551,-0.778,-0.779,4.0
19.61,-0.683,-0.79,0.0
17.64,-0.62,-0.811,0.0
31.033,-1.097,-0.57,28.0
30.268,-1.079,-0.729,7.0
24.311,-0.874,-0.724,23.0
21.928,-0.795,-0.781,1.0
19.269,-0.705,-0.796,0.0
17.23,-0.636,-0.81,0.0
30.77,-1.142,-0.597,32.0
28.595,-1.07,-0.717,1.0
23.845,-0.899,-0.734,19.0
21.369,-0.813,-0.782,1.0
18.773,-0.72,-0.794,0.0
17.08,-0.66,-0.82,1.0
28.488,-1.107,-0.58,59.0
28.405,-1.113,-0.74,10.0
23.79,-0.939,-0.755,12.0
20.725,-0.825,-0.778,2.0
18.407,-0.738,-0.796,1.0
16.8,-0.679,-0.822,1.0
28.466,-1.157,-0.606,129.0
25.098,-1.028,-0.677,1.0
23.671,-0.977,-0.773,5.0
20.504,-0.853,-0.789,2.0
18.162,-0.761,-0.802,0.0
16.439,-0.694,-0.82,2.0
28.459,-1.207,-0.631,114.0
24.821,-1.06,-0.692,7.0
22.641,-0.975,-0.76,2.0
19.974,-0.866,-0.786,1.0
17.804,-0.778,-0.802,1.0
16.239,-0.715,-0.824,3.0
28.486,-1.26,-0.657,35.0
24.31,-1.083,-0.698,13.0
22.188,-0.995,-0.764,2.0
19.541,-0.883,-0.785,0.0
17.547,-0.799,-0.805,1.0
16.119,-0.739,-0.831,1.0
0.0,0.0,0.0,0.0
24.026,-1.113,-0.71,16.0
21.726,-1.013,-0.765,1.0
19.246,-0.904,-0.789,0.0
17.206,-0.814,-0.803,0.0
15.959,-0.76,-0.836,0.0
28.389,-1.357,-0.7,3.0
23.877,-1.149,-0.724,16.0
21.543,-1.043,-0.775,1.0
18.846,-0.919,-0.787,0.0
16.862,-0.828,-0.8,1.0
15.783,-0.78,-0.838,0.0
28.307,-1.404,-0.718,4.0
23.791,-1.187,-0.738,14.0
21.052,-1.057,-0.773,1.0
18.592,-0.94,-0.79,0.0
16.652,-0.847,-0.802,1.0
15.566,-0.797,-0.838,0.0
24.521,-1.26,-0.639,25.0
23.621,-1.221,-0.749,9.0
20.811,-1.083,-0.778,1.0
18.366,-0.962,-0.793,0.0
16.545,-0.872,-0.808,1.0
15.468,-0.82,-0.843,0.0
24.428,-1.3,-0.653,22.0
23.409,-1.253,-0.758,5.0
20.434,-1.101,-0.777,1.0
18.136,-0.983,-0.794,0.0
16.369,-0.892,-0.81,1.0
15.353,-0.842,-0.846,0.0
24.36,-1.34,-0.666,19.0
22.938,-1.269,-0.757,2.0
20.162,-1.123,-0.779,1.0
17.937,-1.005,-0.797,0.0
16.265,-0.917,-0.814,1.0
15.275,-0.866,-0.851,0.0
24.259,-1.379,-0.678,19.0
22.465,-1.284,-0.754,1.0
19.822,-1.139,-0.777,1.0
17.655,-1.021,-0.794,0.0
16.18,-0.941,-0.819,1.0
15.097,-0.883,-0.85,0.0
24.14,-1.415,-0.687,15.0
22.12,-1.304,-0.755,0.0
19.551,-1.16,-0.777,1.0
17.49,-1.043,-0.796,1.0
15.997,-0.959,-0.818,1.0
15.068,-0.909,-0.856,0.0
24.038,-1.453,-0.696,17.0
21.737,-1.321,-0.752,0.0
19.385,-1.184,-0.78,0.0
17.256,-1.06,-0.793,0.0
15.873,-0.981,-0.819,1.0
14.918,-0.927,-0.854,0.0
23.922,-1.489,-0.704,15.0
21.457,-1.343,-0.752,1.0
19.204,-1.208,-0.781,0.0
17.141,-1.084,-0.795,0.0
15.759,-1.002,-0.82,1.0
14.803,-0.946,-0.854,0.0
23.882,-1.53,-0.713,15.0
21.286,-1.37,-0.755,0.0
18.981,-1.229,-0.78,0.0
17.029,-1.108,-0.797,1.0
15.673,-1.025,-0.822,0.0
14.706,-0.967,-0.854,0.0
23.834,-1.569,-0.72,14.0
21.068,-1.394,-0.755,0.0
18.799,-1.25,-0.779,0.0
16.865,-1.127,-0.796,1.0
15.642,-1.051,-0.826,0.0
14.634,-0.988,-0.855,0.0
23.8,-1.609,-0.728,14.0
20.991,-1.427,-0.759,1.0
18.653,-1.274,-0.779,0.0
16.831,-1.155,-0.799,1.0
15.555,-1.073,-0.826,1.0
14.56,-1.009,-0.855,1.0
23.723,-1.646,-0.732,10.0
20.772,-1.448,-0.757,0.0
18.462,-1.293,-0.777,1.0
16.654,-1.172,-0.796,1.0
15.471,-1.094,-0.826,0.0
14.513,-1.032,-0.856,1.0
23.659,-1.683,-0.736,6.0
20.642,-1.475,-0.758,0.0
18.374,-1.32,-0.777,1.0
16.611,-1.199,-0.797,1.0
15.394,-1.116,-0.825,1.0
14.455,-1.053,-0.856,1.0
23.625,-1.722,-0.74,9.0
20.635,-1.511,-0.762,1.0
18.363,-1.351,-0.781,1.0
16.617,-1.228,-0.801,1.0
15.358,-1.14,-0.826,1.0
14.406,-1.075,-0.856,1.0
23.666,-1.767,-0.746,5.0
20.498,-1.537,-0.76,1.0
18.287,-1.377,-0.78,2.0
16.539,-1.251,-0.8,1.0
15.377,-1.169,-0.83,1.0
14.373,-1.097,-0.856,1.0
23.427,-1.79,-0.741,5.0
20.399,-1.565,-0.759,1.0
18.314,-1.411,-0.784,2.0
16.464,-1.274,-0.798,2.0
15.319,-1.191,-0.828,1.0
14.325,-1.119,-0.855,0.0
23.364,-1.825,-0.741,5.0
20.334,-1.595,-0.758,1.0
18.254,-1.438,-0.783,1.0
16.437,-1.301,-0.798,1.0
15.291,-1.215,-0.828,1.0
14.3,-1.141,-0.854,0.0
23.406,-1.869,-0.744,5.0
20.23,-1.622,-0.756,2.0
18.232,-1.468,-0.783,0.0
16.387,-1.325,-0.796,1.0
15.279,-1.24,-0.828,1.0
14.277,-1.164,-0.853,0.0
23.354,-1.905,-0.743,5.0
20.306,-1.663,-0.759,2.0
18.219,-1.498,-0.782,1.0
16.401,-1.354,-0.797,2.0
15.288,-1.267,-0.828,1.0
14.268,-1.187,-0.852,0.0
23.321,-1.941,-0.741,5.0
20.227,-1.69,-0.755,1.0
18.253,-1.531,-0.783,1.0
16.385,-1.38,-0.795,1.0
15.335,-1.297,-0.83,1.0
14.269,-1.211,-0.852,0.0
23.306,-1.978,-0.739,5.0
20.24,-1.724,-0.754,1.0
18.204,-1.557,-0.779,0.0
16.349,-1.404,-0.792,1.0
15.284,-1.317,-0.826,1.0
14.302,-1.238,-0.852,0.0
23.276,-2.014,-0.736,5.0
20.3,-1.763,-0.754,0.0
18.28,-1.593,-0.78,1.0
16.336,-1.429,-0.79,1.0
15.322,-1.346,-0.826,1.0
14.31,-1.262,-0.851,0.0
23.432,-2.065,-0.737,5.0
20.305,-1.796,-0.751,1.0
18.244,-1.62,-0.776,1.0
16.354,-1.457,-0.788,1.0
15.352,-1.373,-0.825,1.0
14.388,-1.291,-0.853,1.0
23.46,-2.105,-0.734,5.0
20.402,-1.837,-0.751,1.0
18.335,-1.657,-0.776,1.0
16.413,-1.488,-0.788,1.0
15.403,-1.402,-0.824,1.0
14.372,-1.313,-0.849,0.0
23.485,-2.144,-0.73,5.0
20.475,-1.876,-0.749,0.0
18.408,-1.692,-0.775,1.0
16.477,-1.52,-0.787,1.0
15.385,-1.424,-0.82,1.0
14.363,-1.334,-0.845,0.0
23.639,-2.195,-0.729,5.0
20.62,-1.921,-0.749,1.0
18.474,-1.727,-0.773,1.0
16.537,-1.551,-0.785,1.0
15.418,-1.451,-0.817,1.0
14.397,-1.359,-0.843,0.0
23.641,-2.231,-0.722,4.0
20.637,-1.954,-0.744,1.0
18.536,-1.761,-0.77,0.0
16.665,-1.588,-0.786,1.0
15.429,-1.475,-0.813,1.0
14.436,-1.385,-0.84,1.0
23.959,-2.297,-0.724,5.0
20.832,-2.003,-0.744,0.0
18.695,-1.804,-0.77,0.0
16.743,-1.62,-0.784,1.0
15.539,-1.508,-0.813,1.0
14.487,-1.411,-0.838,0.0
23.947,-2.331,-0.715,5.0
20.934,-2.044,-0.74,1.0
18.778,-1.839,-0.767,0.0
16.831,-1.653,-0.782,1.0
15.566,-1.534,-0.809,1.0
14.53,-1.436,-0.835,0.0
24.257,-2.396,-0.715,5.0
21.173,-2.098,-0.74,1.0
19.008,-1.889,-0.769,1.0
16.941,-1.689,-0.78,0.0
15.634,-1.563,-0.805,1.0
14.582,-1.462,-0.832,0.0
24.475,-2.453,-0.71,5.0
21.288,-2.139,-0.735,1.0
19.173,-1.932,-0.767,1.0
17.066,-1.725,-0.778,0.0
15.704,-1.592,-0.802,1.0
14.7,-1.495,-0.832,0.0
24.821,-2.522,-0.709,6.0
21.644,-2.205,-0.737,1.0
19.295,-1.971,-0.762,1.0
17.158,-1.758,-0.774,0.0
15.849,-1.628,-0.802,1.0
14.843,-1.529,-0.832,1.0
25.08,-2.582,-0.704,6.0
21.856,-2.256,-0.733,1.0
19.476,-2.016,-0.76,1.0
17.437,-1.81,-0.778,0.0
15.929,-1.658,-0.798,1.0
14.908,-1.556,-0.828,1.0
25.275,-2.636,-0.696,6.0
22.182,-2.319,-0.732,3.0
19.634,-2.058,-0.755,2.0
17.613,-1.851,-0.776,0.0
16.083,-1.695,-0.797,1.0
15.034,-1.589,-0.827,1.0
25.646,-2.708,-0.692,6.0
22.385,-2.37,-0.726,3.0
19.944,-2.117,-0.756,2.0
17.775,-1.891,-0.772,1.0
16.178,-1.726,-0.792,1.0
15.129,-1.618,-0.823,1.0
25.927,-2.771,-0.684,6.0
22.678,-2.429,-0.722,4.0
20.132,-2.162,-0.751,2.0
18.024,-1.94,-0.772,1.0
16.295,-1.758,-0.787,1.0
15.207,-1.645,-0.818,1.0
26.257,-2.839,-0.676,4.0
22.88,-2.479,-0.714,4.0
20.426,-2.219,-0.749,2.0
18.173,-1.979,-0.767,1.0
16.441,-1.794,-0.784,1.0
15.285,-1.672,-0.812,1.0
26.665,-2.915,-0.669,3.0
23.182,-2.54,-0.708,5.0
20.722,-2.276,-0.746,3.0
18.461,-2.032,-0.767,1.0
16.698,-1.842,-0.785,1.0
15.39,-1.702,-0.807,1.0
27.052,-2.989,-0.66,3.0
23.63,-2.617,-0.705,5.0
20.903,-2.32,-0.738,4.0
18.659,-2.075,-0.762,1.0
16.866,-1.88,-0.78,1.0
15.565,-1.739,-0.805,1.0
27.481,-3.068,-0.651,2.0
23.944,-2.679,-0.697,5.0
21.243,-2.382,-0.734,2.0
18.999,-2.135,-0.762,1.0
17.083,-1.923,-0.778,1.0
15.695,-1.771,-0.8,1.0
27.795,-3.134,-0.638,1.0
24.615,-2.781,-0.698,5.0
21.665,-2.453,-0.732,4.0
19.224,-2.181,-0.756,2.0
17.251,-1.961,-0.772,1.0
15.902,-1.812,-0.798,1.0
28.313,-3.223,-0.628,1.0
24.959,-2.846,-0.689,4.0
22.021,-2.516,-0.727,4.0
19.548,-2.238,-0.753,1.0
17.511,-2.009,-0.77,0.0
16.097,-1.85,-0.795,1.0
29.408,-3.378,-0.629,8.0
25.44,-2.927,-0.682,4.0
22.356,-2.577,-0.72,4.0
19.871,-2.295,-0.75,1.0
17.794,-2.059,-0.768,0.0
16.215,-1.88,-0.788,1.0
29.77,-3.449,-0.612,9.0
25.978,-3.015,-0.675,4.0
22.735,-2.643,-0.713,4.0
20.193,-2.352,-0.745,1.0
18.055,-2.106,-0.764,0.0
16.417,-1.919,-0.784,1.0
29.923,-3.495,-0.59,23.0
26.422,-3.091,-0.664,1.0
23.04,-2.7,-0.704,5.0
20.508,-2.407,-0.739,3.0
18.535,-2.179,-0.769,1.0
16.697,-1.967,-0.783,1.0
30.286,-3.565,-0.571,20.0
27.069,-3.191,-0.656,2.0
23.561,-2.782,-0.699,3.0
20.91,-2.473,-0.735,3.0
18.798,-2.227,-0.763,1.0
16.912,-2.007,-0.778,1.0
30.982,-3.674,-0.557,23.0
27.853,-3.307,-0.65,3.0
24.072,-2.863,-0.692,2.0
21.347,-2.543,-0.731,3.0
19.097,-2.278,-0.758,2.0
17.212,-2.057,-0.776,1.0
31.646,-3.778,-0.54,27.0
28.295,-3.383,-0.635,7.0
24.908,-2.983,-0.693,2.0
21.797,-2.614,-0.727,4.0
19.459,-2.337,-0.754,2.0
17.453,-2.099,-0.77,1.0
32.37,-3.891,-0.521,30.0
28.924,-3.481,-0.622,8.0
25.342,-3.054,-0.682,3.0
22.26,-2.686,-0.721,4.0
19.796,-2.392,-0.748,1.0
17.752,-2.148,-0.767,1.0
32.907,-3.98,-0.499,31.0
29.246,-3.541,-0.601,19.0
25.805,-3.129,-0.669,2.0
22.708,-2.757,-0.714,3.0
20.212,-2.457,-0.744,2.0
18.181,-2.213,-0.768,0.0
33.558,-4.082,-0.476,29.0
29.629,-3.608,-0.58,25.0
26.425,-3.222,-0.66,3.0
23.146,-2.826,-0.705,3.0
20.609,-2.519,-0.738,2.0
18.597,-2.276,-0.767,1.0
34.132,-4.175,-0.45,33.0
30.133,-3.69,-0.56,23.0
27.129,-3.326,-0.65,2.0
23.6,-2.896,-0.695,3.0
21.086,-2.591,-0.734,3.0
18.897,-2.325,-0.76,1.0
34.606,-4.254,-0.422,25.0
30.792,-3.789,-0.541,22.0
27.88,-3.434,-0.64,6.0
24.3,-2.997,-0.691,3.0
21.589,-2.665,-0.73,4.0
19.291,-2.384,-0.756,2.0
39.706,-4.904,-0.443,7.0
31.571,-3.903,-0.522,20.0
28.432,-3.518,-0.623,10.0
24.982,-3.094,-0.684,3.0
22.089,-2.739,-0.724,4.0
19.593,-2.432,-0.747,2.0
39.856,-4.944,-0.404,24.0
32.488,-4.033,-0.503,26.0
28.691,-3.565,-0.599,23.0
25.494,-3.171,-0.671,4.0
22.561,-2.808,-0.716,3.0
20.12,-2.507,-0.746,2.0
40.069,-4.99,-0.363,21.0
33.208,-4.139,-0.479,27.0
29.264,-3.65,-0.58,21.0
26.19,-3.269,-0.662,2.0
23.063,-2.881,-0.707,5.0
20.533,-2.568,-0.74,2.0
40.345,-5.042,-0.323,15.0
33.904,-4.24,-0.453,27.0
29.859,-3.737,-0.559,23.0
27.025,-3.385,-0.654,3.0
23.559,-2.953,-0.697,3.0
20.982,-2.632,-0.733,3.0
45.734,-5.735,-0.316,7.0
34.555,-4.335,-0.425,22.0
30.531,-3.833,-0.539,23.0
27.722,-3.483,-0.641,7.0
24.29,-3.053,-0.692,2.0
21.555,-2.712,-0.73,3.0
46.025,-5.787,-0.268,21.0
39.761,-5.002,-0.445,5.0
31.429,-3.956,-0.52,18.0
28.153,-3.546,-0.62,18.0
24.963,-3.146,-0.684,3.0
22.172,-2.796,-0.726,4.0
47.104,-5.938,-0.223,22.0
39.85,-5.025,-0.402,14.0
32.398,-4.088,-0.5,25.0
28.58,-3.608,-0.597,22.0
25.631,-3.237,-0.673,2.0
22.62,-2.858,-0.715,3.0
48.355,-6.108,-0.175,23.0
39.941,-5.047,-0.359,14.0
33.242,-4.202,-0.476,26.0
29.016,-3.669,-0.574,19.0
26.404,-3.341,-0.664,2.0
23.174,-2.933,-0.707,3.0
50.156,-6.347,-0.125,14.0
40.18,-5.085,-0.316,4.0
34.025,-4.308,-0.449,25.0
29.856,-3.781,-0.557,21.0
27.156,-3.441,-0.652,6.0
23.726,-3.007,-0.697,3.0
55.825,-7.074,-0.076,12.0
45.596,-5.778,-0.307,14.0
34.65,-4.392,-0.419,17.0
30.539,-3.872,-0.536,15.0
27.678,-3.51,-0.633,7.0
24.513,-3.11,-0.693,4.0
61.03,-7.741,-0.015,4.0
46.204,-5.861,-0.258,21.0
39.759,-5.044,-0.435,10.0
31.481,-3.995,-0.516,17.0
28.177,-3.576,-0.613,17.0
24.923,-3.164,-0.676,3.0
68.304,-8.669,0.06,1.0
47.43,-6.02,-0.212,22.0
39.837,-5.056,-0.391,15.0
32.574,-4.135,-0.498,22.0
28.935,-3.673,-0.597,18.0
25.873,-3.285,-0.672,2.0
68.282,-8.668,0.137,1.0
48.325,-6.134,-0.161,7.0
39.989,-5.076,-0.347,8.0
33.406,-4.24,-0.473,25.0
29.488,-3.743,-0.575,22.0
26.7,-3.39,-0.663,3.0
68.177,-8.654,0.214,2.0
55.653,-7.063,-0.122,6.0
0.0,0.0,0.0,0.0
34.19,-4.338,-0.445,26.0
30.08,-3.817,-0.552,22.0
27.366,-3.472,-0.649,7.0
68.136,-8.644,0.292,2.0
55.945,-7.096,-0.059,9.0
45.865,-5.817,-0.294,20.0
39.704,-5.034,-0.471,2.0
30.96,-3.925,-0.533,19.0
27.89,-3.536,-0.629,13.0
68.144,-8.638,0.37,2.0
61.041,-7.735,0.004,3.0
46.699,-5.916,-0.245,21.0
39.789,-5.04,-0.426,13.0
31.954,-4.046,-0.513,24.0
28.443,-3.601,-0.609,23.0
68.364,-8.655,0.45,3.0
68.522,-8.672,0.084,2.0
47.938,-6.065,-0.197,22.0
39.897,-5.046,-0.382,16.0
32.954,-4.167,-0.492,27.0
28.871,-3.649,-0.585,19.0
68.45,-8.652,0.528,4.0
68.487,-8.653,0.162,2.0
49.849,-6.295,-0.148,13.0
40.133,-5.066,-0.338,8.0
33.773,-4.262,-0.465,27.0
29.758,-3.754,-0.569,25.0
80.617,-10.17,0.715,4.0
68.583,-8.648,0.24,2.0
55.751,-7.026,-0.102,10.0
45.432,-5.723,-0.331,7.0
34.498,-4.344,-0.436,25.0
30.419,-3.828,-0.547,22.0
80.51,-10.133,0.804,13.0
68.642,-8.634,0.319,4.0
56.525,-7.106,-0.04,4.0
46.102,-5.792,-0.284,21.0
39.734,-4.99,-0.457,5.0
31.374,-3.938,-0.529,18.0
80.613,-10.118,0.897,12.0
68.827,-8.633,0.397,3.0
69.001,-8.649,0.029,2.0
47.274,-5.922,-0.237,22.0
39.844,-4.988,-0.413,22.0
32.448,-4.06,-0.511,26.0
192.009,-24.027,2.352,23.0
80.532,-10.069,0.555,8.0
69.102,-8.634,0.106,14.0
48.512,-6.057,-0.19,22.0
40.098,-5.003,-0.372,17.0
33.307,-4.153,-0.487,27.0
192.076,-23.953,2.565,34.0
80.435,-10.022,0.643,29.0
69.203,-8.615,0.183,8.0
55.397,-6.891,-0.155,5.0
40.377,-5.018,-0.329,13.0
34.066,-4.231,-0.461,24.0
192.036,-23.857,2.777,27.0
80.427,-9.982,0.732,27.0
69.378,-8.603,0.26,6.0
55.762,-6.908,-0.095,11.0
45.856,-5.676,-0.324,20.0
34.738,-4.296,-0.432,18.0
192.111,-23.765,2.989,28.0
80.375,-9.932,0.82,23.0
80.393,-9.924,0.39,29.0
80.56,-9.935,-0.049,6.0
46.706,-5.755,-0.278,21.0
39.743,-4.892,-0.45,17.0
192.16,-23.661,3.201,14.0
80.549,-9.907,0.909,11.0
80.348,-9.871,0.476,33.0
80.873,-9.925,0.038,28.0
47.802,-5.86,-0.233,22.0
39.963,-4.895,-0.41,22.0
188.6,-23.106,3.344,23.0
192.135,-23.511,2.378,13.0
80.273,-9.811,0.562,29.0
80.643,-9.845,0.124,30.0
0.0,0.0,0.0,0.0
40.171,-4.894,-0.369,15.0
188.28,-22.942,3.541,17.0
153.717,-18.707,2.066,15.0
80.246,-9.753,0.648,29.0
80.649,-9.79,0.209,29.0
55.549,-6.736,-0.153,9.0
45.4,-5.498,-0.369,6.0
153.889,-18.644,3.055,12.0
153.723,-18.598,2.227,15.0
80.19,-9.689,0.731,30.0
80.695,-9.737,0.294,18.0
55.932,-6.74,-0.096,11.0
46.151,-5.555,-0.327,21.0
153.793,-18.517,3.213,25.0
153.707,-18.48,2.385,20.0
80.16,-9.624,0.813,23.0
80.406,-9.64,0.375,27.0
80.637,-9.655,-0.057,7.0
47.249,-5.65,-0.287,22.0
153.778,-18.395,3.368,18.0
153.816,-18.372,2.54,19.0
80.348,-9.582,0.895,9.0
80.14,-9.543,0.454,26.0
81.075,-9.64,0.023,22.0
48.406,-5.748,-0.245,22.0
138.968,-16.507,3.184,10.0
188.171,-22.316,3.298,20.0
192.223,-22.761,2.333,17.0
80.059,-9.465,0.534,35.0
80.378,-9.488,0.104,28.0
50.146,-5.91,-0.205,20.0
138.818,-16.368,3.316,9.0
85.348,-10.046,1.58,7.0
192.262,-22.593,2.524,25.0
80.004,-9.385,0.612,32.0
80.15,-9.388,0.181,19.0
55.502,-6.491,-0.173,11.0
84.228,-9.854,2.094,15.0
85.329,-9.965,1.662,13.0
85.082,-9.919,1.199,11.0
79.975,-9.307,0.687,27.0
65.251,-7.581,0.21,8.0
55.863,-6.479,-0.12,12.0
84.236,-9.774,2.174,26.0
85.218,-9.87,1.741,24.0
84.729,-9.795,1.273,16.0
79.938,-9.225,0.762,11.0
65.243,-7.515,0.27,170.0
56.505,-6.497,-0.069,2.0
83.643,-9.622,2.236,19.0
85.197,-9.781,1.818,17.0
84.654,-9.701,1.35,12.0
80.243,-9.177,0.839,7.0
65.194,-7.442,0.33,193.0
65.123,-7.42,-0.02,1.0
82.173,-9.367,2.272,20.0
82.799,-9.419,1.842,13.0
84.648,-9.61,1.426,18.0
84.116,-9.531,0.955,11.0
65.134,-7.365,0.388,150.0
65.075,-7.345,0.036,0.0
82.337,-9.297,2.35,26.0
82.702,-9.318,1.913,36.0
84.309,-9.479,1.495,23.0
83.721,-9.393,1.024,3.0
65.145,-7.294,0.445,5.0
65.04,-7.268,0.093,0.0
82.156,-9.184,2.415,33.0
82.092,-9.157,1.97,35.0
82.321,-9.163,1.53,18.0
0.0,0.0,0.0,0.0
65.106,-7.215,0.5,5.0
65.03,-7.192,0.147,0.0
81.915,-9.064,2.476,47.0
81.905,-9.042,2.033,44.0
82.356,-9.07,1.599,31.0
0.0,0.0,0.0,0.0
64.996,-7.126,0.552,3.0
64.968,-7.108,0.2,1.0
81.756,-8.948,2.538,38.0
81.819,-8.934,2.097,35.0
81.864,-8.918,1.655,44.0
82.109,-8.923,1.207,1.0
65.075,-7.055,0.604,0.0
65.043,-7.036,0.252,15.0
81.622,-8.834,2.598,34.0
82.01,-8.854,2.166,43.0
81.894,-8.82,1.719,45.0
82.153,-8.825,1.271,9.0
0.0,0.0,0.0,0.0
65.089,-6.959,0.302,162.0
81.676,-8.737,2.662,35.0
81.637,-8.709,2.218,47.0
81.843,-8.709,1.78,40.0
82.2,-8.724,1.334,15.0
0.0,0.0,0.0,0.0
65.086,-6.873,0.351,173.0
81.95,-8.658,2.732,43.0
81.69,-8.607,2.281,41.0
81.911,-8.608,1.841,48.0
81.992,-8.593,1.39,34.0
0.0,0.0,0.0,0.0
65.086,-6.786,0.397,171.0
82.522,-8.608,2.81,38.0
81.778,-8.507,2.341,40.0
82.087,-8.515,1.903,45.0
81.99,-8.481,1.447,45.0
0.0,0.0,0.0,0.0
65.1,-6.699,0.442,166.0
82.426,-8.485,2.863,40.0
81.74,-8.39,2.394,42.0
82.187,-8.412,1.96,42.0
81.755,-8.344,1.497,45.0
0.0,0.0,0.0,0.0
65.123,-6.61,0.485,151.0
81.913,-8.318,2.898,36.0
82.543,-8.356,2.471,44.0
82.563,-8.334,2.022,30.0
81.758,-8.229,1.549,43.0
0.0,0.0,0.0,0.0
65.074,-6.511,0.525,2.0
81.907,-8.199,2.949,39.0
82.377,-8.221,2.517,39.0
82.161,-8.174,2.062,39.0
81.697,-8.103,1.597,36.0
66.209,-6.548,0.934,2.0
65.086,-6.417,0.564,21.0
82.008,-8.089,3.001,45.0
82.155,-8.078,2.558,42.0
82.349,-8.071,2.115,46.0
81.984,-8.01,1.65,47.0
81.702,-7.957,1.199,1.0
65.038,-6.315,0.6,0.0
82.039,-7.969,3.048,42.0
82.055,-7.945,2.6,44.0
82.02,-7.916,2.151,44.0
82.375,-7.925,1.702,42.0
81.969,-7.861,1.247,10.0
0.0,0.0,0.0,0.0
82.233,-7.863,3.099,40.0
81.886,-7.804,2.637,44.0
82.005,-7.789,2.193,43.0
82.896,-7.847,1.755,40.0
82.246,-7.76,1.293,19.0
54.925,-5.165,0.563,46.0
81.929,-7.707,3.127,37.0
81.86,-7.673,2.677,46.0
82.094,-7.668,2.236,47.0
82.761,-7.705,1.792,30.0
54.959,-5.099,0.89,150.0
54.957,-5.082,0.589,153.0
81.851,-7.57,3.162,45.0
81.917,-7.548,2.716,43.0
82.023,-7.532,2.27,40.0
82.778,-7.574,1.829,25.0
54.921,-5.008,0.913,133.0
54.922,-4.99,0.613,19.0
81.7,-7.424,3.191,38.0
82.256,-7.447,2.762,38.0
82.223,-7.416,2.31,41.0
83.016,-7.46,1.869,66.0
0.0,0.0,0.0,0.0
0.0,0.0,0.0,0.0
81.802,-7.299,3.228,39.0
82.215,-7.307,2.793,49.0
82.332,-7.29,2.345,46.0
83.115,-7.331,1.903,36.0
0.0,0.0,0.0,0.0
0.0,0.0,0.0,0.0
81.876,-7.169,3.26,47.0
82.273,-7.175,2.824,42.0
82.232,-7.144,2.371,13.0
82.996,-7.182,1.928,27.0
0.0,0.0,0.0,0.0
0.0,0.0,0.0,0.0
81.987,-7.04,3.291,37.0
82.185,-7.028,2.847,49.0
82.196,-7.001,2.396,42.0
82.988,-7.04,1.954,32.0
0.0,0.0,0.0,0.0
0.0,0.0,0.0,0.0
82.083,-6.906,3.319,35.0
82.06,-6.875,2.867,46.0
82.258,-6.864,2.42,41.0
82.519,-6.858,1.965,51.0
83.206,-6.886,1.523,29.0
82.021,-6.761,1.051,36.0
82.66,-6.812,3.363,41.0
82.192,-6.744,2.891,44.0
82.59,-6.748,2.45,52.0
82.342,-6.699,1.98,42.0
82.991,-6.723,1.539,29.0
81.97,-6.613,1.069,32.0
82.801,-6.678,3.387,23.0
82.478,-6.624,2.919,44.0
82.702,-6.612,2.47,50.0
82.335,-6.554,1.996,51.0
82.748,-6.558,1.55,41.0
81.956,-6.468,1.084,35.0
82.988,-6.546,3.409,34.0
82.461,-6.474,2.932,43.0
82.337,-6.435,2.472,38.0
82.33,-6.405,2.009,46.0
82.598,-6.398,1.56,33.0
81.972,-6.322,1.096,32.0
83.006,-6.397,3.422,26.0
82.576,-6.334,2.947,45.0
82.656,-6.31,2.493,47.0
82.577,-6.276,2.026,47.0
82.927,-6.274,1.576,48.0
0.0,0.0,0.0,0.0
83.087,-6.253,3.434,42.0
82.624,-6.188,2.957,36.0
83.046,-6.189,2.512,51.0
82.396,-6.111,2.029,39.0
83.043,-6.131,1.585,28.0
0.0,0.0,0.0,0.0
82.774,-6.077,3.427,33.0
83.027,-6.066,2.976,43.0
82.991,-6.034,2.515,53.0
82.435,-5.965,2.033,40.0
82.941,-5.973,1.586,27.0
0.0,0.0,0.0,0.0
82.795,-5.928,3.429,34.0
82.997,-5.912,2.977,45.0
82.853,-5.871,2.512,55.0
82.594,-5.823,2.038,40.0
82.932,-5.818,1.586,12.0
0.0,0.0,0.0,0.0
24.573,-1.713,1.017,27.0
83.206,-5.771,2.983,17.0
83.664,-5.772,2.535,25.0
82.576,-5.667,2.035,41.0
128.976,-8.805,2.463,9.0
0.0,0.0,0.0,0.0
24.504,-1.662,1.013,26.0
24.488,-1.652,0.876,26.0
24.538,-1.646,0.741,35.0
24.542,-1.638,0.603,23.0
24.575,-1.631,0.467,28.0
24.559,-1.622,0.33,27.0
24.473,-1.614,1.01,55.0
24.464,-1.604,0.873,51.0
24.508,-1.598,0.738,64.0
24.541,-1.592,0.6,51.0
24.548,-1.583,0.464,53.0
24.532,-1.573,0.327,47.0
24.456,-1.566,1.006,36.0
24.454,-1.557,0.869,67.0
24.514,-1.552,0.735,59.0
24.547,-1.546,0.597,92.0
24.543,-1.536,0.46,97.0
24.533,-1.527,0.323,78.0
24.463,-1.52,1.002,46.0
24.472,-1.512,0.866,58.0
24.521,-1.506,0.731,63.0
24.54,-1.498,0.592,70.0
24.541,-1.489,0.455,55.0
24.54,-1.48,0.318,73.0
24.475,-1.473,0.997,28.0
24.507,-1.466,0.862,61.0
24.547,-1.459,0.726,75.0
24.57,-1.452,0.587,74.0
24.557,-1.442,0.45,58.0
24.553,-1.433,0.313,46.0
24.514,-1.428,0.993,41.0
24.567,-1.422,0.858,41.0
24.578,-1.414,0.721,26.0
24.592,-1.406,0.581,16.0
24.596,-1.397,0.444,21.0
24.599,-1.388,0.307,26.0
83.306,-4.693,3.351,19.0
83.332,-4.663,2.886,22.0
84.17,-4.679,2.444,46.0
83.544,-4.615,1.95,39.0
86.161,-4.728,1.53,7.0
0.0,0.0,0.0,0.0
83.571,-4.544,3.334,34.0
84.044,-4.539,2.883,31.0
84.184,-4.516,2.416,41.0
84.287,-4.491,1.938,33.0
85.997,-4.551,1.496,45.0
0.0,0.0,0.0,0.0
83.642,-4.385,3.307,25.0
84.978,-4.423,2.883,43.0
84.38,-4.361,2.389,40.0
84.706,-4.349,1.916,47.0
86.051,-4.388,1.464,32.0
82.868,-4.195,0.945,27.0
86.35,-4.359,3.379,31.0
85.391,-4.279,2.862,44.0
84.882,-4.222,2.368,34.0
84.638,-4.181,1.878,42.0
83.267,-4.083,1.381,7.0
82.899,-4.036,0.91,8.0
86.33,-4.19,3.34,12.0
85.887,-4.137,2.84,21.0
84.87,-4.057,2.329,35.0
84.679,-4.017,1.84,43.0
83.385,-3.925,1.343,8.0
83.088,-3.883,0.873,22.0
165.538,-7.709,6.323,18.0
86.563,-3.999,2.819,14.0
85.021,-3.898,2.291,29.0
31.362,-1.426,0.665,3.0
31.268,-1.411,0.488,37.0
31.236,-1.399,0.312,38.0
165.585,-7.386,6.238,19.0
31.378,-1.388,1.005,4.0
28.458,-1.249,0.751,40.0
28.452,-1.239,0.588,66.0
28.433,-1.228,0.428,66.0
28.437,-1.218,0.268,82.0
28.434,-1.212,1.055,65.0
28.427,-1.202,0.894,91.0
28.433,-1.192,0.734,110.0
28.433,-1.182,0.571,114.0
28.439,-1.173,0.411,115.0
28.453,-1.163,0.251,150.0
28.433,-1.157,1.037,150.0
28.438,-1.147,0.877,132.0
28.433,-1.137,0.717,72.0
28.437,-1.127,0.554,68.0
28.468,-1.119,0.394,68.0
31.271,-1.218,0.257,9.0
31.239,-1.21,1.12,14.0
31.249,-1.2,0.944,47.0
31.278,-1.19,0.768,59.0
31.294,-1.179,0.589,52.0
31.304,-1.169,0.412,51.0
31.337,-1.159,0.236,29.0
31.277,-1.151,1.1,57.0
31.281,-1.14,0.923,47.0
31.312,-1.13,0.747,44.0
31.389,-1.122,0.569,7.0
84.29,-2.984,1.052,32.0
80.48,-2.822,0.55,28.0
31.333,-1.092,1.08,42.0
31.397,-1.083,0.904,4.0
38.722,-1.322,0.896,8.0
38.72,-1.309,0.673,19.0
38.749,-1.296,0.455,12.0
38.71,-1.282,0.236,37.0
38.642,-1.271,1.302,53.0
38.617,-1.257,1.082,57.0
38.63,-1.244,0.864,64.0
38.626,-1.231,0.642,67.0
38.635,-1.218,0.423,65.0
38.659,-1.206,0.205,66.0
38.598,-1.195,1.27,63.0
38.604,-1.182,1.051,72.0
38.634,-1.17,0.833,108.0
38.641,-1.157,0.611,84.0
38.643,-1.144,0.392,90.0
38.646,-1.131,0.173,116.0
38.565,-1.12,1.237,72.0
38.613,-1.108,1.019,73.0
38.661,-1.096,0.801,81.0
38.623,-1.082,0.577,64.0
38.631,-1.07,0.359,65.0
38.655,-1.058,0.14,63.0
38.595,-1.047,1.204,48.0
38.641,-1.035,0.986,69.0
38.678,-1.023,0.767,43.0
38.69,-1.011,0.544,31.0
38.715,-0.998,0.325,32.0
38.758,-0.986,0.105,8.0
38.708,-0.976,1.172,57.0
38.704,-0.963,0.952,40.0
40.412,-0.992,0.764,27.0
40.411,-0.979,0.531,37.0
40.411,-0.965,0.302,38.0
40.41,-0.952,0.072,40.0
0.0,0.0,0.0,0.0
40.409,-0.928,0.955,38.0
40.401,-0.915,0.726,37.0
40.4,-0.902,0.492,5.0
38.385,-0.845,0.25,20.0
38.375,-0.833,0.032,49.0
40.447,-0.867,1.146,11.0
38.408,-0.811,0.871,11.0
45.664,-0.95,0.775,18.0
52.934,-1.084,0.593,61.0
52.924,-1.067,0.291,65.0
52.953,-1.05,-0.008,55.0
64.314,-1.259,1.758,62.0
193.279,-3.725,4.186,20.0
193.169,-3.66,3.084,7.0
203.517,-3.792,2.071,11.0
20.149,-0.369,0.09,3.0
20.125,-0.362,-0.024,29.0
64.315,-1.14,1.69,18.0
176.644,-3.076,3.638,40.0
176.638,-3.019,2.631,91.0
20.139,-0.338,0.183,7.0
20.134,-0.331,0.068,45.0
20.117,-0.325,-0.045,14.0
59.497,-0.945,1.499,19.0
53.517,-0.834,1.044,13.0
20.124,-0.307,0.277,10.0
20.117,-0.3,0.161,13.0
59.535,-0.872,0.137,17.0
56.854,-0.815,-0.192,1.0
53.508,-0.752,1.288,13.0
20.132,-0.277,0.37,12.0
20.13,-0.27,0.255,11.0
20.158,-0.265,0.138,7.0
59.571,-0.764,0.069,56.0
56.212,-0.704,-0.254,0.0
20.149,-0.247,0.461,14.0
20.138,-0.24,0.346,10.0
20.156,-0.234,0.231,8.0
56.131,-0.637,0.32,9.0
56.375,-0.622,0.0,0.0
56.418,-0.606,-0.321,0.0
20.176,-0.21,0.438,22.0
53.379,-0.543,0.855,6.0
53.372,-0.526,0.55,14.0
53.347,-0.51,0.239,11.0
53.323,-0.493,-0.064,9.0
20.182,-0.181,-0.139,5.0
20.228,-0.176,0.414,20.0
20.242,-0.17,0.299,12.0
58.328,-0.473,0.53,9.0
20.166,-0.157,0.066,11.0
20.178,-0.152,-0.049,19.0
20.159,-0.145,-0.164,21.0
20.158,-0.14,0.388,17.0
20.128,-0.134,0.272,18.0
20.14,-0.128,0.157,19.0
20.143,-0.122,0.04,29.0
20.153,-0.116,-0.074,27.0
20.152,-0.111,-0.189,29.0
20.119,-0.105,0.361,33.0
20.123,-0.099,0.246,26.0
20.125,-0.093,0.131,26.0
20.134,-0.088,0.014,35.0
20.141,-0.082,-0.1,31.0
20.141,-0.076,-0.215,17.0
20.12,-0.071,0.335,32.0
20.125,-0.065,0.22,28.0
20.123,-0.059,0.105,39.0
20.118,-0.054,-0.011,37.0
20.149,-0.048,-0.127,33.0
20.142,-0.042,-0.242,17.0
20.132,-0.037,0.308,30.0
20.108,-0.031,0.193,32.0
20.126,-0.026,0.077,31.0
20.158,-0.02,-0.039,16.0
20.197,-0.015,-0.155,15.0
20.23,-0.009,-0.271,10.0
20.127,-0.003,0.28,28.0
20.127,0.001,0.165,26.0
20.235,0.007,0.05,150.0
20.259,0.012,-0.067,151.0
20.258,0.018,-0.183,151.0
20.271,0.023,-0.3,94.0
20.136,0.029,0.252,28.0
20.139,0.034,0.137,27.0
20.211,0.04,0.021,16.0
20.217,0.045,-0.096,22.0
20.21,0.05,-0.212,6.0
0.0,0.0,0.0,0.0
20.155,0.061,0.223,28.0
20.167,0.066,0.108,28.0
20.193,0.072,-0.007,28.0
20.181,0.077,-0.125,29.0
20.185,0.083,-0.241,19.0
20.201,0.088,-0.357,0.0
20.154,0.093,0.194,29.0
20.194,0.099,0.078,35.0
20.176,0.104,-0.037,29.0
20.169,0.109,-0.154,34.0
20.173,0.114,-0.27,28.0
20.208,0.119,-0.387,19.0
20.18,0.125,0.164,27.0
20.196,0.13,0.048,24.0
20.195,0.135,-0.067,24.0
20.153,0.14,-0.184,19.0
20.177,0.145,-0.3,34.0
20.181,0.15,-0.417,26.0
20.216,0.156,0.134,21.0
20.297,0.162,0.018,28.0
20.206,0.166,-0.097,20.0
20.17,0.17,-0.215,23.0
20.174,0.175,-0.331,33.0
20.181,0.181,-0.447,26.0
20.326,0.187,0.104,33.0
20.321,0.192,-0.012,19.0
20.221,0.196,-0.128,3.0
20.178,0.201,-0.246,23.0
20.18,0.206,-0.363,30.0
20.181,0.21,-0.479,27.0
20.32,0.217,0.072,11.0
0.0,0.0,0.0,0.0
20.187,0.225,-0.16,0.0
20.177,0.23,-0.278,19.0
20.179,0.235,-0.394,23.0
20.203,0.24,-0.511,24.0
99.628,1.211,0.196,5.0
0.0,0.0,0.0,0.0
0.0,0.0,0.0,0.0
20.217,0.26,-0.311,1.0
20.224,0.264,-0.428,6.0
20.209,0.269,-0.544,13.0
99.717,1.353,0.035,4.0
0.0,0.0,0.0,0.0
0.0,0.0,0.0,0.0
42.824,0.61,-0.728,0.0
35.784,0.518,-0.815,0.0
30.689,0.451,-0.875,1.0
101.49,1.516,-0.127,1.0
0.0,0.0,0.0,0.0
0.0,0.0,0.0,0.0
0.0,0.0,0.0,0.0
34.041,0.539,-0.831,0.0
28.973,0.465,-0.874,0.0
0.0,0.0,0.0,0.0
0.0,0.0,0.0,0.0
0.0,0.0,0.0,0.0
0.0,0.0,0.0,0.0
32.424,0.556,-0.845,1.0
28.031,0.487,-0.892,0.0
0.0,0.0,0.0,0.0
0.0,0.0,0.0,0.0
0.0,0.0,0.0,0.0
37.125,0.678,-0.816,0.0
31.329,0.578,-0.869,1.0
26.238,0.49,-0.88,0.0
0.0,0.0,0.0,0.0
0.0,0.0,0.0,0.0
0.0,0.0,0.0,0.0
34.449,0.672,-0.815,0.0
29.476,0.581,-0.868,0.0
25.305,0.504,-0.891,0.0
0.0,0.0,0.0,0.0
0.0,0.0,0.0,0.0
39.004,0.801,-0.761,0.0
32.818,0.681,-0.833,1.0
28.399,0.595,-0.885,0.0
24.289,0.514,-0.897,0.0
0.0,0.0,0.0,0.0
0.0,0.0,0.0,0.0
37.12,0.807,-0.788,0.0
31.575,0.693,-0.856,1.0
26.732,0.592,-0.879,0.0
23.088,0.516,-0.893,0.0
0.0,0.0,0.0,0.0
0.0,0.0,0.0,0.0
35.27,0.809,-0.811,0.0
29.767,0.688,-0.859,0.0
25.714,0.599,-0.891,0.0
22.471,0.528,-0.908,0.0
0.0,0.0,0.0,0.0
0.0,0.0,0.0,0.0
33.136,0.797,-0.819,0.0
28.409,0.689,-0.87,0.0
24.577,0.6,-0.894,0.0
21.666,0.533,-0.914,0.0
0.0,0.0,0.0,0.0
37.339,0.932,-0.774,0.0
31.89,0.802,-0.846,1.0
27.064,0.686,-0.877,0.0
23.529,0.6,-0.898,0.0
20.712,0.532,-0.911,0.0
43.035,1.113,-0.72,0.0
35.822,0.933,-0.806,0.0
30.306,0.794,-0.857,0.0
25.916,0.684,-0.885,0.0
22.511,0.598,-0.899,0.0
20.021,0.535,-0.916,0.0
0.0,0.0,0.0,0.0
33.887,0.917,-0.823,0.0
28.714,0.782,-0.863,0.0
24.647,0.675,-0.886,0.0
21.859,0.603,-0.913,0.0
19.349,0.537,-0.92,0.0
0.0,0.0,0.0,0.0
32.124,0.901,-0.838,1.0
27.083,0.764,-0.864,0.0
23.629,0.671,-0.893,0.0
20.764,0.593,-0.905,0.0
18.617,0.535,-0.919,0.0
35.603,1.027,-0.788,0.0
30.861,0.896,-0.862,1.0
25.982,0.758,-0.876,0.0
22.639,0.664,-0.896,0.0
20.128,0.594,-0.914,0.0
18.121,0.538,-0.928,0.0
0.0,0.0,0.0,0.0
28.908,0.865,-0.86,0.0
24.817,0.747,-0.882,0.0
21.894,0.662,-0.907,0.0
19.598,0.596,-0.926,0.0
17.511,0.535,-0.929,0.0
32.187,0.987,-0.83,0.0
0.0,0.0,0.0,0.0
23.81,0.737,-0.889,0.0
20.858,0.649,-0.902,0.0
18.649,0.583,-0.915,0.0
16.865,0.53,-0.925,0.0
30.196,0.951,-0.834,0.0
26.098,0.826,-0.871,0.0
22.736,0.723,-0.891,0.0
20.219,0.646,-0.912,0.0
18.096,0.581,-0.921,0.0
16.407,0.529,-0.931,0.0
29.442,0.951,-0.867,0.0
24.946,0.81,-0.88,0.0
22.063,0.719,-0.905,0.0
19.424,0.636,-0.912,0.0
17.585,0.578,-0.928,0.0
16.038,0.529,-0.939,0.0
27.701,0.916,-0.867,0.0
23.925,0.795,-0.888,0.0
20.943,0.698,-0.898,0.0
18.757,0.628,-0.915,0.0
16.888,0.568,-0.922,0.0
15.457,0.522,-0.934,0.0
26.199,0.886,-0.869,0.0
22.758,0.772,-0.886,0.0
20.36,0.694,-0.911,0.0
18.193,0.622,-0.921,0.0
16.45,0.565,-0.929,0.0
15.074,0.519,-0.939,0.0
24.952,0.861,-0.873,0.0
22.16,0.767,-0.904,0.0
19.67,0.683,-0.917,0.0
17.55,0.612,-0.921,0.0
16.052,0.561,-0.936,0.0
14.666,0.515,-0.94,0.0
23.962,0.842,-0.883,0.0
21.143,0.745,-0.902,0.0
18.802,0.665,-0.911,0.0
16.907,0.6,-0.919,0.0
15.505,0.552,-0.933,0.0
14.374,0.514,-0.949,0.0
22.845,0.817,-0.884,0.0
20.424,0.732,-0.909,0.0
18.251,0.657,-0.918,0.0
16.525,0.596,-0.929,0.0
15.091,0.546,-0.936,0.0
13.956,0.507,-0.947,0.0
22.225,0.807,-0.901,0.0
19.694,0.717,-0.913,0.0
17.793,0.65,-0.928,0.0
16.058,0.588,-0.933,0.0
14.667,0.539,-0.937,0.0
13.496,0.497,-0.941,0.0
21.129,0.778,-0.896,0.0
18.813,0.695,-0.907,0.0
17.034,0.631,-0.92,0.0
15.547,0.578,-0.932,0.0
14.383,0.536,-0.946,0.0
13.252,0.495,-0.948,0.0
20.328,0.759,-0.899,0.0
18.284,0.684,-0.915,0.0
16.558,0.621,-0.925,0.0
15.163,0.57,-0.937,0.0
14.013,0.528,-0.947,0.0
12.866,0.486,-0.945,0.0
19.718,0.745,-0.909,0.0
17.768,0.673,-0.922,0.0
16.127,0.612,-0.931,0.0
14.732,0.56,-0.937,0.0
13.557,0.517,-0.941,0.0
12.546,0.48,-0.944,0.0
18.883,0.721,-0.905,0.0
16.988,0.65,-0.913,0.0
15.582,0.598,-0.928,0.0
14.423,0.554,-0.944,0.0
13.267,0.511,-0.946,0.0
12.282,0.474,-0.947,0.0
18.425,0.71,-0.917,0.0
16.62,0.642,-0.923,0.0
15.207,0.589,-0.933,0.0
14.084,0.546,-0.947,0.0
12.965,0.504,-0.948,0.0
11.955,0.466,-0.944,0.0
17.878,0.695,-0.922,0.0
16.19,0.63,-0.929,0.0
14.792,0.577,-0.935,0.0
13.658,0.534,-0.944,0.0
12.56,0.492,-0.941,0.0
11.701,0.459,-0.945,0.0
17.084,0.669,-0.912,0.0
15.664,0.614,-0.927,0.0
14.462,0.568,-0.94,0.0
13.26,0.522,-0.94,0.0
12.316,0.486,-0.945,0.0
11.446,0.452,-0.945,0.0
16.683,0.657,-0.921,0.0
15.247,0.602,-0.93,0.0
14.208,0.562,-0.949,0.0
12.987,0.514,-0.944,0.0
12.033,0.477,-0.945,0.0
11.194,0.445,-0.945,0.0
16.252,0.644,-0.926,0.0
14.882,0.59,-0.934,0.0
13.784,0.547,-0.945,0.0
12.674,0.504,-0.944,0.0
11.734,0.467,-0.943,0.0
11.023,0.44,-0.95,0.0
15.817,0.629,-0.929,0.0
14.517,0.578,-0.937,0.0
13.365,0.533,-0.941,0.0
12.345,0.493,-0.942,0.0
11.521,0.461,-0.946,0.0
10.76,0.431,-0.947,0.0
15.322,0.611,-0.928,0.0
14.208,0.567,-0.943,0.0
13.11,0.524,-0.946,0.0
12.043,0.482,-0.94,0.0
11.208,0.449,-0.941,0.0
10.508,0.422,-0.943,0.0
14.963,0.598,-0.932,0.0
0.0,0.0,0.0,0.0
12.743,0.511,-0.942,0.0
11.781,0.472,-0.941,0.0
11.041,0.443,-0.946,0.0
10.36,0.416,-0.948,0.0
14.553,0.582,-0.932,0.0
13.449,0.539,-0.94,0.0
12.449,0.499,-0.942,0.0
11.569,0.464,-0.944,0.0
10.746,0.432,-0.94,0.0
10.177,0.409,-0.949,0.0
14.331,0.574,-0.943,0.0
13.154,0.527,-0.942,0.0
12.179,0.488,-0.943,0.0
11.312,0.454,-0.943,0.0
10.611,0.426,-0.946,0.0
9.967,0.401,-0.947,0.0
0.0,0.0,0.0,0.0
12.912,0.517,-0.947,0.0
11.901,0.477,-0.942,0.0
11.103,0.445,-0.945,0.0
10.383,0.416,-0.944,0.0
9.773,0.392,-0.945,0.0
13.514,0.54,-0.935,0.0
12.548,0.501,-0.941,0.0
11.653,0.466,-0.942,0.0
0.0,0.0,0.0,0.0
10.217,0.409,-0.946,0.0
9.616,0.385,-0.947,0.0
13.273,0.528,-0.941,0.0
12.271,0.489,-0.941,0.0
11.389,0.454,-0.94,0.0
10.562,0.421,-0.934,0.0
10.034,0.4,-0.946,0.0
9.41,0.375,-0.942,0.0
12.992,0.515,-0.943,0.0
12.011,0.477,-0.941,0.0
11.216,0.445,-0.944,0.0
10.426,0.414,-0.939,0.0
9.845,0.391,-0.945,0.0
9.269,0.368,-0.944,0.0
12.687,0.501,-0.941,0.0
11.749,0.464,-0.94,0.0
11.043,0.436,-0.948,0.0
10.315,0.407,-0.946,0.0
9.695,0.383,-0.946,0.0
9.132,0.361,-0.944,0.0
12.408,0.487,-0.941,0.0
11.532,0.453,-0.941,0.0
10.768,0.423,-0.941,0.0
10.111,0.397,-0.944,0.0
9.528,0.374,-0.945,0.0
8.946,0.351,-0.94,0.0
12.144,0.474,-0.94,0.0
11.295,0.44,-0.94,0.0
10.549,0.411,-0.939,0.0
9.931,0.387,-0.943,0.0
9.384,0.366,-0.946,0.0
8.825,0.344,-0.941,0.0
11.884,0.46,-0.938,0.0
11.123,0.43,-0.943,0.0
10.418,0.403,-0.944,0.0
9.776,0.378,-0.944,0.0
9.235,0.357,-0.945,0.0
8.715,0.337,-0.943,0.0
11.662,0.448,-0.939,0.0
10.912,0.419,-0.942,0.0
10.222,0.392,-0.942,0.0
9.614,0.368,-0.943,0.0
9.06,0.347,-0.941,0.0
8.584,0.329,-0.942,0.0
11.489,0.437,-0.943,0.0
10.725,0.407,-0.942,0.0
10.062,0.382,-0.942,0.0
9.465,0.359,-0.942,0.0
8.912,0.338,-0.939,0.0
8.445,0.32,-0.94,0.0
11.252,0.423,-0.94,0.0
10.523,0.396,-0.94,0.0
9.918,0.372,-0.943,0.0
9.342,0.351,-0.944,0.0
8.815,0.331,-0.942,0.0
8.371,0.314,-0.944,0.0
11.066,0.411,-0.94,0.0
10.386,0.386,-0.943,0.0
9.755,0.362,-0.942,0.0
9.199,0.341,-0.943,0.0
8.696,0.322,-0.942,0.0
8.243,0.305,-0.941,0.0
10.832,0.398,-0.936,0.0
10.234,0.375,-0.944,0.0
9.609,0.352,-0.942,0.0
9.049,0.331,-0.941,0.0
8.602,0.314,-0.944,0.0
8.157,0.298,-0.943,0.0
10.688,0.387,-0.939,0.0
10.051,0.363,-0.941,0.0
9.482,0.343,-0.943,0.0
8.92,0.322,-0.94,0.0
8.447,0.304,-0.939,0.0
8.07,0.29,-0.944,0.0
10.537,0.376,-0.94,0.0
9.904,0.353,-0.941,0.0
9.379,0.334,-0.945,0.0
8.804,0.313,-0.939,0.0
8.386,0.298,-0.944,0.0
7.967,0.282,-0.943,0.0
10.383,0.365,-0.94,0.0
9.798,0.344,-0.944,0.0
9.209,0.322,-0.941,0.0
8.685,0.304,-0.939,0.0
8.256,0.288,-0.94,0.0
7.868,0.274,-0.942,0.0
10.274,0.355,-0.944,0.0
9.638,0.332,-0.941,0.0
9.068,0.312,-0.938,0.0
8.581,0.295,-0.939,0.0
8.166,0.28,-0.941,0.0
7.816,0.267,-0.946,0.0
10.112,0.343,-0.942,0.0
9.509,0.322,-0.941,0.0
8.98,0.303,-0.941,0.0
8.459,0.285,-0.936,0.0
8.062,0.271,-0.939,0.0
7.723,0.259,-0.945,0.0
9.954,0.331,-0.94,0.0
9.414,0.312,-0.943,0.0
8.899,0.294,-0.943,0.0
8.397,0.277,-0.94,0.0
7.977,0.263,-0.939,0.0
7.637,0.251,-0.944,0.0
9.841,0.32,-0.941,0.0
9.275,0.301,-0.941,0.0
8.722,0.282,-0.935,0.0
8.316,0.269,-0.941,0.0
7.928,0.256,-0.943,0.0
7.596,0.244,-0.948,0.0
9.715,0.309,-0.94,0.0
9.167,0.291,-0.94,0.0
8.636,0.273,-0.936,0.0
8.244,0.26,-0.942,0.0
7.86,0.248,-0.944,0.0
7.503,0.236,-0.945,0.0
9.621,0.299,-0.942,0.0
9.083,0.282,-0.942,0.0
8.573,0.265,-0.939,0.0
8.127,0.25,-0.938,0.0
7.777,0.239,-0.943,0.0
7.471,0.229,-0.949,0.0
9.535,0.289,-0.945,0.0
8.989,0.272,-0.942,0.0
8.521,0.257,-0.943,0.0
8.048,0.242,-0.938,0.0
7.693,0.23,-0.941,0.0
7.37,0.22,-0.945,0.0
9.422,0.278,-0.943,0.0
8.858,0.261,-0.938,0.0
8.397,0.246,-0.938,0.0
8.011,0.234,-0.942,0.0
7.633,0.222,-0.942,0.0
7.307,0.212,-0.944,0.0
9.272,0.266,-0.938,0.0
8.746,0.25,-0.935,0.0
8.333,0.237,-0.939,0.0
7.916,0.225,-0.939,0.0
7.595,0.215,-0.945,0.0
7.293,0.206,-0.95,0.0
9.18,0.256,-0.938,0.0
8.688,0.241,-0.937,0.0
8.261,0.228,-0.939,0.0
7.842,0.216,-0.938,0.0
7.544,0.207,-0.946,0.0
7.228,0.197,-0.948,0.0
9.122,0.246,-0.941,0.0
8.634,0.232,-0.94,0.0
8.199,0.219,-0.94,0.0
7.798,0.208,-0.94,0.0
7.473,0.198,-0.944,0.0
7.212,0.191,-0.953,0.0
9.024,0.236,-0.939,0.0
8.553,0.222,-0.939,0.0
8.128,0.21,-0.939,0.0
7.766,0.2,-0.943,0.0
7.445,0.191,-0.947,0.0
7.155,0.183,-0.952,0.0
8.935,0.225,-0.937,0.0
8.482,0.213,-0.939,0.0
8.085,0.202,-0.941,0.0
7.698,0.191,-0.941,0.0
7.394,0.183,-0.947,0.0
7.081,0.174,-0.948,0.0
8.871,0.215,-0.938,0.0
8.417,0.203,-0.938,0.0
8.019,0.192,-0.94,0.0
7.659,0.183,-0.943,0.0
7.324,0.174,-0.944,0.0
7.068,0.167,-0.952,0.0
8.796,0.205,-0.937,0.0
8.324,0.193,-0.935,0.0
7.956,0.183,-0.939,0.0
7.557,0.173,-0.936,0.0
7.3,0.166,-0.947,0.0
7.006,0.159,-0.949,0.0
8.716,0.195,-0.935,0.0
8.296,0.184,-0.938,0.0
7.906,0.174,-0.939,0.0
7.536,0.165,-0.939,0.0
7.302,0.159,-0.952,0.0
6.986,0.151,-0.952,0.0
8.651,0.185,-0.934,0.0
8.27,0.175,-0.941,0.0
7.85,0.165,-0.938,0.0
7.529,0.157,-0.944,0.0
7.217,0.15,-0.946,0.0
0.0,0.0,0.0,0.0
8.625,0.175,-0.937,0.0
8.2,0.165,-0.938,0.0
7.862,0.158,-0.945,0.0
7.492,0.149,-0.944,0.0
7.22,0.143,-0.951,0.0
0.0,0.0,0.0,0.0
8.557,0.165,-0.935,0.0
8.18,0.157,-0.941,0.0
7.811,0.149,-0.943,0.0
7.42,0.14,-0.939,0.0
7.117,0.133,-0.942,0.0
0.0,0.0,0.0,0.0
8.548,0.156,-0.939,0.0
8.108,0.147,-0.937,0.0
7.741,0.139,-0.939,0.0
0.0,0.0,0.0,0.0
7.127,0.126,-0.947,0.0
0.0,0.0,0.0,0.0
8.505,0.146,-0.939,0.0
8.037,0.137,-0.933,0.0
7.752,0.131,-0.945,0.0
0.0,0.0,0.0,0.0
7.112,0.118,-0.949,0.0
6.814,0.112,-0.948,0.0
8.433,0.136,-0.935,0.0
7.986,0.128,-0.931,0.0
7.696,0.122,-0.941,0.0
0.0,0.0,0.0,0.0
0.0,0.0,0.0,0.0
6.799,0.104,-0.95,0.0
8.417,0.127,-0.937,0.0
8.004,0.119,-0.937,0.0
7.648,0.113,-0.939,0.0
0.0,0.0,0.0,0.0
7.034,0.102,-0.945,0.0
6.748,0.096,-0.945,0.0
8.403,0.118,-0.939,0.0
7.987,0.111,-0.938,0.0
7.675,0.105,-0.945,0.0
0.0,0.0,0.0,0.0
7.061,0.094,-0.951,0.0
6.76,0.089,-0.949,0.0
8.367,0.108,-0.938,0.0
7.982,0.102,-0.94,0.0
7.63,0.096,-0.942,0.0
7.295,0.09,-0.943,0.0
0.0,0.0,0.0,0.0
6.749,0.081,-0.95,0.0
8.36,0.099,-0.94,0.0
7.928,0.092,-0.936,0.0
7.605,0.087,-0.941,0.0
7.267,0.082,-0.942,0.0
0.0,0.0,0.0,0.0
6.761,0.074,-0.954,0.0
8.303,0.089,-0.936,0.0
7.938,0.083,-0.94,0.0
7.621,0.079,-0.945,0.0
7.265,0.074,-0.943,0.0
6.981,0.07,-0.946,0.0
6.791,0.067,-0.959,0.0
8.305,0.079,-0.938,0.0
7.933,0.074,-0.941,0.0
7.578,0.07,-0.941,0.0
7.239,0.065,-0.941,0.0
0.0,0.0,0.0,0.0
6.706,0.058,-0.949,0.0
8.292,0.07,-0.938,0.0
7.9,0.065,-0.938,0.0
7.576,0.061,-0.942,0.0
0.0,0.0,0.0,0.0
0.0,0.0,0.0,0.0
6.713,0.051,-0.951,0.0
8.287,0.061,-0.938,0.0
7.916,0.056,-0.941,0.0
7.595,0.053,-0.946,0.0
7.236,0.049,-0.943,0.0
0.0,0.0,0.0,0.0
6.73,0.043,-0.954,0.0
8.256,0.051,-0.935,0.0
7.924,0.047,-0.942,0.0
7.591,0.044,-0.946,0.0
0.0,0.0,0.0,0.0
0.0,0.0,0.0,0.0
6.717,0.035,-0.952,0.0
8.285,0.042,-0.939,0.0
7.874,0.038,-0.937,0.0
7.576,0.035,-0.944,0.0
7.238,0.032,-0.944,0.0
0.0,0.0,0.0,0.0
6.704,0.027,-0.95,0.0
8.276,0.032,-0.938,0.0
7.896,0.029,-0.939,0.0
7.553,0.027,-0.941,0.0
7.243,0.024,-0.944,0.0
0.0,0.0,0.0,0.0
6.708,0.02,-0.95,0.0
8.284,0.023,-0.938,0.0
7.865,0.02,-0.935,0.0
7.592,0.018,-0.945,0.0
7.246,0.016,-0.944,0.0
0.0,0.0,0.0,0.0
6.722,0.012,-0.952,0.0
8.279,0.014,-0.937,0.0
7.926,0.012,-0.941,0.0
7.583,0.01,-0.943,0.0
7.237,0.008,-0.942,0.0
0.0,0.0,0.0,0.0
6.709,0.005,-0.949,0.0
8.283,0.004,-0.936,0.0
7.882,0.003,-0.935,0.0
7.554,0.001,-0.938,0.0
7.258,0.0,-0.943,0.0
0.0,0.0,0.0,0.0
6.746,-0.002,-0.953,0.0
8.307,-0.004,-0.937,0.0
7.943,-0.005,-0.94,0.0
7.594,-0.007,-0.942,0.0
7.219,-0.008,-0.936,0.0
0.0,0.0,0.0,0.0
6.753,-0.01,-0.952,0.0
8.346,-0.013,-0.939,0.0
7.957,-0.014,-0.94,0.0
7.646,-0.015,-0.946,0.0
0.0,0.0,0.0,0.0
0.0,0.0,0.0,0.0
6.742,-0.017,-0.949,0.0
8.321,-0.023,-0.934,0.0
7.961,-0.023,-0.938,0.0
7.614,-0.024,-0.94,0.0
7.341,-0.024,-0.948,0.0
7.032,-0.025,-0.947,0.0
6.783,-0.025,-0.952,0.0
8.373,-0.032,-0.937,0.0
8.015,-0.032,-0.942,0.0
7.65,-0.032,-0.941,0.0
7.299,-0.032,-0.94,0.0
7.094,-0.033,-0.953,0.0
6.813,-0.033,-0.954,0.0
8.415,-0.042,-0.938,0.0
8.026,-0.041,-0.94,0.0
7.687,-0.041,-0.943,0.0
0.0,0.0,0.0,0.0
7.04,-0.04,-0.943,0.0
6.798,-0.04,-0.949,0.0
8.416,-0.051,-0.935,0.0
8.06,-0.05,-0.94,0.0
7.726,-0.05,-0.944,0.0
7.393,-0.049,-0.946,0.0
7.055,-0.048,-0.942,0.0
6.811,-0.048,-0.947,0.0
8.461,-0.06,-0.936,0.0
8.083,-0.059,-0.939,0.0
7.735,-0.058,-0.942,0.0
7.42,-0.057,-0.945,0.0
7.108,-0.056,-0.945,0.0
6.865,-0.056,-0.951,0.0
8.506,-0.07,-0.936,0.0
8.122,-0.068,-0.939,0.0
7.745,-0.067,-0.939,0.0
7.418,-0.065,-0.941,0.0
7.175,-0.065,-0.95,0.0
6.905,-0.063,-0.953,0.0
8.555,-0.079,-0.937,0.0
8.164,-0.077,-0.939,0.0
7.805,-0.075,-0.941,0.0
7.46,-0.073,-0.942,0.0
7.198,-0.072,-0.949,0.0
6.957,-0.071,-0.956,0.0
8.612,-0.089,-0.938,0.0
8.202,-0.086,-0.939,0.0
7.83,-0.084,-0.939,0.0
7.505,-0.082,-0.943,0.0
7.203,-0.08,-0.945,0.0
6.937,-0.078,-0.949,0.0
8.671,-0.098,-0.939,0.0
8.256,-0.095,-0.94,0.0
7.865,-0.092,-0.938,0.0
7.562,-0.09,-0.945,0.0
7.227,-0.087,-0.943,0.0
6.977,-0.086,-0.949,0.0
8.71,-0.108,-0.937,0.0
8.306,-0.104,-0.939,0.0
7.954,-0.101,-0.944,0.0
7.579,-0.098,-0.942,0.0
7.298,-0.096,-0.947,0.0
7.027,-0.094,-0.951,0.0
8.778,-0.117,-0.938,0.0
8.367,-0.113,-0.94,0.0
7.973,-0.11,-0.94,0.0
7.645,-0.107,-0.944,0.0
7.319,-0.104,-0.944,0.0
7.031,-0.101,-0.946,0.0
8.86,-0.127,-0.94,0.0
8.392,-0.122,-0.936,0.0
8.02,-0.118,-0.939,0.0
7.697,-0.115,-0.944,0.0
7.39,-0.112,-0.947,0.0
7.096,-0.109,-0.949,0.0
8.933,-0.137,-0.94,0.0
8.493,-0.132,-0.941,0.0
8.107,-0.127,-0.942,0.0
7.72,-0.123,-0.941,0.0
7.428,-0.12,-0.946,0.0
7.14,-0.116,-0.948,0.0
9.005,-0.147,-0.94,0.0
8.543,-0.141,-0.939,0.0
8.172,-0.136,-0.943,0.0
7.776,-0.131,-0.94,0.0
7.433,-0.127,-0.94,0.0
7.216,-0.124,-0.952,0.0
9.103,-0.157,-0.942,0.0
8.619,-0.15,-0.939,0.0
8.237,-0.145,-0.943,0.0
7.834,-0.139,-0.94,0.0
7.561,-0.136,-0.949,0.0
7.241,-0.131,-0.949,0.0
9.188,-0.167,-0.942,0.0
8.704,-0.159,-0.94,0.0
8.294,-0.153,-0.941,0.0
7.895,-0.148,-0.94,0.0
7.567,-0.143,-0.942,0.0
7.288,-0.139,-0.947,0.0
9.299,-0.177,-0.945,0.0
8.772,-0.169,-0.939,0.0
8.346,-0.162,-0.939,0.0
7.954,-0.156,-0.939,0.0
7.676,-0.152,-0.948,0.0
7.343,-0.146,-0.947,0.0
9.388,-0.187,-0.944,0.0
8.886,-0.179,-0.942,0.0
8.449,-0.171,-0.942,0.0
8.048,-0.165,-0.941,0.0
7.692,-0.159,-0.942,0.0
7.417,-0.154,-0.949,0.0
9.497,-0.197,-0.945,0.0
8.961,-0.188,-0.94,0.0
8.518,-0.18,-0.94,0.0
8.118,-0.173,-0.941,0.0
7.768,-0.167,-0.942,0.0
7.46,-0.161,-0.946,0.0
9.611,-0.208,-0.946,0.0
9.072,-0.197,-0.942,0.0
8.636,-0.189,-0.943,0.0
8.186,-0.181,-0.939,0.0
7.875,-0.175,-0.947,0.0
7.538,-0.169,-0.947,0.0
9.729,-0.218,-0.946,0.0
9.217,-0.208,-0.946,0.0
8.702,-0.198,-0.94,0.0
8.282,-0.19,-0.941,0.0
7.924,-0.183,-0.943,0.0
7.593,-0.176,-0.945,0.0
9.871,-0.229,-0.949,0.0
9.337,-0.218,-0.948,0.0
8.792,-0.207,-0.94,0.0
8.355,-0.198,-0.939,0.0
8.023,-0.191,-0.945,0.0
7.688,-0.185,-0.947,0.0
10.014,-0.24,-0.95,0.0
9.462,-0.228,-0.949,0.0
8.906,-0.216,-0.941,0.0
8.48,-0.207,-0.943,0.0
8.092,-0.199,-0.943,0.0
7.739,-0.191,-0.944,0.0
10.159,-0.251,-0.951,0.0
9.553,-0.237,-0.946,0.0
9.067,-0.226,-0.946,0.0
8.578,-0.216,-0.942,0.0
8.185,-0.207,-0.943,0.0
7.825,-0.199,-0.944,0.0
10.312,-0.262,-0.952,0.0
9.704,-0.248,-0.948,0.0
9.181,-0.236,-0.946,0.0
8.684,-0.224,-0.943,0.0
8.28,-0.215,-0.943,0.0
7.909,-0.207,-0.944,0.0
10.432,-0.272,-0.95,0.0
9.888,-0.259,-0.953,0.0
9.318,-0.245,-0.948,0.0
8.791,-0.233,-0.943,0.0
8.406,-0.224,-0.947,0.0
8.013,-0.215,-0.945,0.0
10.581,-0.282,-0.949,0.0
10.009,-0.268,-0.951,0.0
9.437,-0.254,-0.947,0.0
8.923,-0.242,-0.944,0.0
8.503,-0.232,-0.946,0.0
8.096,-0.222,-0.944,0.0
10.764,-0.294,-0.951,0.0
10.142,-0.278,-0.95,0.0
9.587,-0.264,-0.949,0.0
9.065,-0.251,-0.947,0.0
8.598,-0.239,-0.944,0.0
8.173,-0.229,-0.941,0.0
10.94,-0.305,-0.951,0.0
10.339,-0.289,-0.954,0.0
9.733,-0.274,-0.95,0.0
9.215,-0.26,-0.949,0.0
8.714,-0.247,-0.944,0.0
8.279,-0.236,-0.942,0.0
11.201,-0.318,-0.957,0.0
10.494,-0.299,-0.953,0.0
9.913,-0.284,-0.953,0.0
9.377,-0.27,-0.952,0.0
8.855,-0.256,-0.947,0.0
8.406,-0.244,-0.944,0.0
11.313,-0.327,-0.95,0.0
10.689,-0.31,-0.955,0.0
10.079,-0.294,-0.954,0.0
9.479,-0.278,-0.948,0.0
8.995,-0.265,-0.948,0.0
8.554,-0.253,-0.947,0.0
11.556,-0.34,-0.953,0.0
10.866,-0.321,-0.954,0.0
10.242,-0.304,-0.954,0.0
9.644,-0.287,-0.95,0.0
9.159,-0.274,-0.951,0.0
8.673,-0.26,-0.947,0.0
11.795,-0.352,-0.955,0.0
11.081,-0.332,-0.956,0.0
10.429,-0.314,-0.955,0.0
9.85,-0.297,-0.955,0.0
9.314,-0.282,-0.953,0.0
8.801,-0.268,-0.947,0.0
12.087,-0.366,-0.96,0.0
11.268,-0.342,-0.954,0.0
10.606,-0.323,-0.954,0.0
10.012,-0.306,-0.955,0.0
9.47,-0.291,-0.953,0.0
8.933,-0.275,-0.947,0.0
12.321,-0.378,-0.959,0.0
11.487,-0.353,-0.955,0.0
10.814,-0.334,-0.956,0.0
10.209,-0.316,-0.957,0.0
9.638,-0.299,-0.955,0.0
9.121,-0.284,-0.952,0.0
12.607,-0.391,-0.961,0.0
11.715,-0.364,-0.954,0.0
10.993,-0.343,-0.954,0.0
10.38,-0.325,-0.956,0.0
9.811,-0.308,-0.956,0.0
9.295,-0.293,-0.955,0.0
12.871,-0.403,-0.96,0.0
12.03,-0.378,-0.96,0.0
11.228,-0.354,-0.955,0.0
10.582,-0.334,-0.958,0.0
9.99,-0.316,-0.957,0.0
9.432,-0.299,-0.953,0.0
13.185,-0.417,-0.961,0.0
12.267,-0.389,-0.959,0.0
11.429,-0.363,-0.954,0.0
10.758,-0.342,-0.955,0.0
10.177,-0.325,-0.958,0.0
9.62,-0.308,-0.956,0.0
13.442,-0.428,-0.958,0.0
12.571,-0.401,-0.962,0.0
11.696,-0.374,-0.956,0.0
10.979,-0.352,-0.956,0.0
10.392,-0.334,-0.96,0.0
9.807,-0.316,-0.958,0.0
13.761,-0.441,-0.957,0.0
12.809,-0.411,-0.958,0.0
12.036,-0.387,-0.963,0.0
11.194,-0.361,-0.956,0.0
10.566,-0.341,-0.958,0.0
9.98,-0.323,-0.957,0.0
14.107,-0.454,-0.956,0.0
13.177,-0.425,-0.962,0.0
12.327,-0.398,-0.965,0.0
11.442,-0.371,-0.957,0.0
10.81,-0.351,-0.961,0.0
10.171,-0.331,-0.958,0.0
14.43,-0.467,-0.953,0.0
13.448,-0.436,-0.959,0.0
12.575,-0.408,-0.962,0.0
11.683,-0.38,-0.957,0.0
11.016,-0.358,-0.96,0.0
10.383,-0.338,-0.959,0.0
14.75,-0.478,-0.948,0.0
13.842,-0.449,-0.962,0.0
12.852,-0.418,-0.961,0.0
12.074,-0.393,-0.967,0.0
11.245,-0.367,-0.96,0.0
10.573,-0.345,-0.958,0.0
15.157,-0.492,-0.948,0.0
14.134,-0.46,-0.957,0.0
13.253,-0.431,-0.967,0.0
12.295,-0.401,-0.962,0.0
11.452,-0.374,-0.957,0.0
10.805,-0.353,-0.959,0.0
16.93,-0.55,-1.028,0.0
14.453,-0.47,-0.953,0.0
13.465,-0.438,-0.958,0.0
12.603,-0.411,-0.964,0.0
11.74,-0.383,-0.959,0.0
11.061,-0.361,-0.962,0.0
16.966,-0.551,-1.0,0.0
14.799,-0.481,-0.949,0.0
13.792,-0.448,-0.956,0.0
12.899,-0.42,-0.963,0.0
12.117,-0.395,-0.968,0.0
11.265,-0.367,-0.959,0.0
17.129,-0.555,-0.978,0.0
15.539,-0.504,-0.968,0.0
14.173,-0.46,-0.957,0.0
13.246,-0.43,-0.965,0.0
12.398,-0.403,-0.968,0.0
11.524,-0.374,-0.96,0.0
17.183,-0.555,-0.95,0.0
16.889,-0.546,-1.021,0.0
14.497,-0.469,-0.952,0.0
13.456,-0.435,-0.955,0.0
12.664,-0.409,-0.965,0.0
11.83,-0.383,-0.963,0.0
17.189,-0.553,-0.918,0.0
17.073,-0.549,-1.001,0.0
14.924,-0.48,-0.952,0.0
13.924,-0.448,-0.963,0.0
13.001,-0.418,-0.967,0.0
12.153,-0.391,-0.967,0.0
17.241,-0.552,-0.889,0.0
17.158,-0.549,-0.974,0.0
15.569,-0.498,-0.965,0.0
14.307,-0.457,-0.962,0.0
13.305,-0.425,-0.964,0.0
12.437,-0.397,-0.966,0.0
17.345,-0.551,-0.862,1.0
17.305,-0.549,-0.95,0.0
17.279,-0.548,-1.038,0.0
14.551,-0.462,-0.951,0.0
13.604,-0.431,-0.96,0.0
12.765,-0.404,-0.967,0.0
17.47,-0.55,-0.835,0.0
17.402,-0.548,-0.922,0.0
17.341,-0.546,-1.009,0.0
15.093,-0.474,-0.958,0.0
13.976,-0.439,-0.96,0.0
13.069,-0.41,-0.965,0.0
17.879,-0.558,-0.821,0.0
17.473,-0.545,-0.893,0.0
17.37,-0.541,-0.978,0.0
15.542,-0.483,-0.957,0.0
14.39,-0.447,-0.961,0.0
13.373,-0.415,-0.963,0.0
18.458,-0.57,-0.812,0.0
17.619,-0.543,-0.867,0.0
17.542,-0.54,-0.954,0.0
17.581,-0.541,-1.049,0.0
14.704,-0.451,-0.954,0.0
13.819,-0.424,-0.968,0.0
19.411,-0.592,-0.818,0.0
17.841,-0.543,-0.844,0.0
17.822,-0.542,-0.935,0.0
17.73,-0.538,-1.024,0.0
15.268,-0.462,-0.961,0.0
14.136,-0.428,-0.964,0.0
20.148,-0.606,-0.811,2.0
18.141,-0.544,-0.824,0.0
17.942,-0.538,-0.908,0.0
17.557,-0.525,-0.981,0.0
15.739,-0.47,-0.961,0.0
14.434,-0.43,-0.956,0.0
20.782,-0.615,-0.797,3.0
18.705,-0.553,-0.814,0.0
18.143,-0.535,-0.883,1.0
17.81,-0.524,-0.961,0.0
18.134,-0.532,-1.073,0.0
14.918,-0.437,-0.96,0.0
21.749,-0.633,-0.792,0.0
19.477,-0.566,-0.81,0.0
18.299,-0.53,-0.856,1.0
18.222,-0.526,-0.948,0.0
18.342,-0.529,-1.05,0.0
15.458,-0.444,-0.965,0.0
23.347,-0.667,-0.806,1.0
20.439,-0.582,-0.811,0.0
18.615,-0.529,-0.835,0.0
18.538,-0.525,-0.929,0.0
18.586,-0.525,-1.028,0.0
15.92,-0.449,-0.963,0.0
23.782,-0.666,-0.775,19.0
20.974,-0.585,-0.792,0.0
19.099,-0.531,-0.82,0.0
18.775,-0.521,-0.905,0.0
18.788,-0.519,-1.003,0.0
24.383,-0.668,-0.748,25.0
22.399,-0.611,-0.803,2.0
19.818,-0.539,-0.813,0.0
19.07,-0.517,-0.883,1.0
19.021,-0.514,-0.98,0.0
25.325,-0.677,-0.729,3.0
23.61,-0.629,-0.802,5.0
20.636,-0.547,-0.807,0.0
19.336,-0.511,-0.858,1.0
19.388,-0.51,-0.961,0.0
19.465,-0.51,-1.066,0.0
28.34,-0.738,-0.762,1.0
23.825,-0.617,-0.763,17.0
21.631,-0.558,-0.805,0.0
19.688,-0.506,-0.836,1.0
19.701,-0.504,-0.939,0.0
19.853,-0.505,-1.049,0.0
30.239,-0.765,-0.755,8.0
24.624,-0.62,-0.742,13.0
22.575,-0.565,-0.797,1.0
20.19,-0.503,-0.819,1.0
20.053,-0.498,-0.918,0.0
20.072,-0.496,-1.022,0.0
30.496,-0.747,-0.703,35.0
25.193,-0.614,-0.711,1.0
23.76,-0.576,-0.794,14.0
20.957,-0.506,-0.81,1.0
20.331,-0.488,-0.892,1.0
20.243,-0.483,-0.993,0.0
30.841,-0.731,-0.653,30.0
28.518,-0.672,-0.751,1.0
23.874,-0.559,-0.752,9.0
21.877,-0.51,-0.805,0.0
20.776,-0.481,-0.872,1.0
20.822,-0.48,-0.982,0.0
31.405,-0.718,-0.606,13.0
30.412,-0.69,-0.744,18.0
25.613,-0.578,-0.759,6.0
23.086,-0.517,-0.806,1.0
21.219,-0.473,-0.85,2.0
21.259,-0.47,-0.962,0.0
37.931,-0.833,-0.66,14.0
30.623,-0.668,-0.691,31.0
27.896,-0.604,-0.774,0.0
24.353,-0.524,-0.804,5.0
21.754,-0.464,-0.831,1.0
