X,Y,Z,Reflectivity
0.0,0.0,0.0,0.0
17.337,-0.147,-0.932,0.0
20.187,-0.175,-0.532,40.0
20.218,-0.177,-0.651,31.0
0.0,0.0,0.0,0.0
20.286,-0.183,-0.893,48.0
18.576,-0.17,-0.926,1.0
16.787,-0.155,-0.935,0.0
20.193,-0.191,-0.571,39.0
20.224,-0.194,-0.69,29.0
22.717,-0.221,-0.908,37.0
20.216,-0.199,-0.928,19.0
17.962,-0.179,-0.93,0.0
16.386,-0.165,-0.944,0.0
20.202,-0.208,-0.609,42.0
20.225,-0.211,-0.728,28.0
22.73,-0.24,-0.951,0.0
19.95,-0.213,-0.953,0.0
17.368,-0.188,-0.931,0.0
15.857,-0.173,-0.943,0.0
20.224,-0.226,-0.647,38.0
20.225,-0.228,-0.766,25.0
20.286,-0.232,-0.886,30.0
18.606,-0.215,-0.923,0.0
16.867,-0.197,-0.936,0.0
15.413,-0.182,-0.945,0.0
20.215,-0.243,-0.684,36.0
20.237,-0.246,-0.803,26.0
20.284,-0.25,-0.923,58.0
18.117,-0.226,-0.932,0.0
16.457,-0.207,-0.943,0.0
14.949,-0.19,-0.944,0.0
20.222,-0.262,-0.721,32.0
20.176,-0.264,-0.837,11.0
19.87,-0.263,-0.94,3.0
17.453,-0.233,-0.929,0.0
15.958,-0.216,-0.943,0.0
14.612,-0.2,-0.949,0.0
20.238,-0.281,-0.757,27.0
20.151,-0.283,-0.872,11.0
19.417,-0.276,-0.953,0.0
16.977,-0.243,-0.934,0.0
15.525,-0.225,-0.945,0.0
14.119,-0.207,-0.942,0.0
20.23,-0.301,-0.792,14.0
20.097,-0.302,-0.904,0.0
18.296,-0.278,-0.93,0.0
16.583,-0.254,-0.941,0.0
15.076,-0.234,-0.944,0.0
13.885,-0.217,-0.95,0.0
20.239,-0.322,-0.828,3.0
19.64,-0.315,-0.918,5.0
17.767,-0.288,-0.934,0.0
16.16,-0.264,-0.945,0.0
14.761,-0.244,-0.949,0.0
13.488,-0.225,-0.946,0.0
21.447,-0.363,-0.914,5.0
19.542,-0.334,-0.946,0.0
17.244,-0.297,-0.935,0.0
15.701,-0.273,-0.945,0.0
14.393,-0.253,-0.95,0.0
13.267,-0.235,-0.953,0.0
21.427,-0.385,-0.948,0.0
18.676,-0.339,-0.935,0.0
16.867,-0.309,-0.943,0.0
15.291,-0.282,-0.945,0.0
14.02,-0.261,-0.948,0.0
12.949,-0.244,-0.952,0.0
19.679,-0.375,-0.903,0.0
0.0,0.0,0.0,0.0
16.412,-0.318,-0.944,0.0
14.872,-0.291,-0.943,0.0
13.76,-0.272,-0.953,0.0
12.657,-0.252,-0.95,0.0
0.0,0.0,0.0,0.0
17.515,-0.356,-0.934,0.0
15.914,-0.327,-0.941,0.0
14.497,-0.3,-0.943,0.0
13.353,-0.279,-0.946,0.0
12.433,-0.262,-0.954,0.0
38.387,-0.818,-1.883,0.0
17.057,-0.366,-0.936,0.0
15.584,-0.337,-0.945,0.0
14.257,-0.311,-0.949,0.0
13.202,-0.291,-0.956,0.0
12.223,-0.271,-0.956,0.0
16.876,-0.382,-0.951,0.0
15.376,-0.351,-0.956,0.0
14.025,-0.323,-0.955,0.0
12.891,-0.299,-0.953,0.0
11.97,-0.28,-0.955,0.0
16.379,-0.39,-0.948,1.0
14.862,-0.357,-0.946,0.0
13.539,-0.327,-0.942,0.0
12.63,-0.308,-0.953,0.0
11.722,-0.288,-0.952,0.0
17.28,-0.429,-0.925,1.0
16.231,-0.406,-0.963,0.0
14.504,-0.365,-0.945,0.0
13.348,-0.339,-0.948,0.0
12.386,-0.317,-0.952,0.0
11.407,-0.294,-0.943,0.0
17.002,-0.443,-0.935,0.0
15.569,-0.408,-0.946,0.0
14.285,-0.377,-0.951,0.0
13.094,-0.349,-0.949,0.0
12.2,-0.327,-0.955,0.0
11.288,-0.305,-0.949,0.0
15.247,-0.419,-0.948,0.0
13.985,-0.387,-0.95,0.0
12.871,-0.359,-0.951,0.0
11.997,-0.337,-0.956,0.0
11.134,-0.315,-0.952,0.0
14.807,-0.425,-0.94,0.0
13.725,-0.397,-0.951,0.0
12.646,-0.368,-0.951,0.0
11.77,-0.345,-0.953,0.0
10.984,-0.325,-0.954,0.0
17.933,-0.534,-1.059,0.0
14.496,-0.435,-0.94,0.0
13.373,-0.404,-0.944,0.0
12.482,-0.38,-0.955,0.0
11.572,-0.355,-0.952,0.0
10.816,-0.334,-0.953,0.0
15.621,-0.486,-0.943,0.0
14.341,-0.449,-0.948,0.0
13.239,-0.417,-0.952,0.0
12.287,-0.39,-0.956,0.0
11.355,-0.363,-0.949,0.0
10.63,-0.342,-0.95,0.0
15.512,-0.503,-0.955,0.0
14.062,-0.459,-0.947,0.0
13.071,-0.429,-0.956,0.0
12.113,-0.4,-0.957,0.0
11.217,-0.373,-0.951,0.0
10.503,-0.352,-0.952,0.0
14.921,-0.503,-0.937,0.0
13.79,-0.468,-0.945,0.0
12.825,-0.438,-0.953,0.0
11.886,-0.409,-0.953,0.0
11.095,-0.384,-0.954,0.0
10.404,-0.362,-0.955,0.0
14.66,-0.514,-0.937,0.0
13.581,-0.479,-0.947,0.0
12.626,-0.448,-0.953,0.0
11.676,-0.417,-0.95,0.0
10.925,-0.393,-0.952,0.0
10.252,-0.371,-0.953,0.0
14.49,-0.527,-0.943,0.0
13.435,-0.492,-0.951,0.0
12.502,-0.461,-0.958,0.0
11.519,-0.427,-0.95,0.0
10.768,-0.402,-0.95,0.0
10.2,-0.383,-0.959,0.0
14.381,-0.543,-0.951,0.0
13.285,-0.505,-0.955,0.0
12.313,-0.47,-0.956,0.0
11.397,-0.438,-0.952,0.0
10.702,-0.414,-0.956,0.0
10.03,-0.39,-0.954,0.0
14.143,-0.553,-0.95,0.0
13.15,-0.517,-0.959,0.0
12.177,-0.482,-0.958,0.0
11.281,-0.449,-0.954,0.0
10.536,-0.422,-0.952,0.0
9.899,-0.399,-0.952,0.0
13.899,-0.563,-0.948,0.0
13.007,-0.53,-0.962,0.0
12.009,-0.492,-0.957,0.0
11.145,-0.459,-0.953,0.0
10.461,-0.434,-0.955,0.0
9.797,-0.408,-0.951,0.0
13.686,-0.573,-0.946,0.0
12.759,-0.537,-0.956,0.0
11.832,-0.501,-0.954,0.0
11.035,-0.47,-0.955,0.0
10.335,-0.443,-0.953,0.0
9.743,-0.42,-0.955,0.0
13.514,-0.585,-0.947,0.0
12.638,-0.55,-0.958,0.0
11.73,-0.513,-0.957,0.0
10.783,-0.474,-0.942,0.0
10.253,-0.454,-0.955,0.0
9.635,-0.429,-0.953,0.0
13.455,-0.601,-0.955,0.0
12.497,-0.562,-0.958,0.0
11.521,-0.52,-0.949,0.0
10.772,-0.489,-0.951,0.0
10.128,-0.463,-0.952,0.0
9.553,-0.439,-0.953,0.0
13.349,-0.615,-0.958,0.0
12.402,-0.575,-0.961,0.0
11.438,-0.533,-0.952,0.0
10.694,-0.501,-0.953,0.0
10.029,-0.472,-0.951,0.0
9.462,-0.448,-0.952,0.0
13.175,-0.626,-0.956,0.0
12.245,-0.585,-0.959,0.0
11.331,-0.544,-0.952,0.0
10.578,-0.511,-0.951,0.0
9.943,-0.483,-0.951,0.0
9.4,-0.459,-0.953,0.0
13.028,-0.638,-0.955,0.0
12.154,-0.598,-0.961,0.0
11.272,-0.557,-0.955,0.0
10.489,-0.521,-0.95,0.0
9.897,-0.494,-0.953,0.0
9.293,-0.467,-0.949,0.0
12.971,-0.653,-0.96,0.0
12.064,-0.611,-0.962,0.0
11.125,-0.566,-0.951,0.0
10.437,-0.534,-0.953,0.0
9.839,-0.506,-0.955,0.0
9.277,-0.479,-0.953,0.0
12.816,-0.664,-0.957,0.0
11.918,-0.62,-0.958,0.0
11.12,-0.581,-0.958,0.0
10.386,-0.546,-0.955,0.0
9.758,-0.515,-0.953,0.0
9.187,-0.488,-0.95,0.0
12.71,-0.676,-0.957,0.0
11.788,-0.63,-0.955,0.0
11.051,-0.594,-0.958,0.0
10.31,-0.557,-0.954,0.0
9.731,-0.528,-0.956,0.0
9.157,-0.499,-0.952,0.0
12.605,-0.689,-0.957,0.0
11.675,-0.641,-0.953,0.0
10.884,-0.6,-0.95,0.0
10.273,-0.57,-0.956,0.0
9.645,-0.537,-0.953,0.0
9.103,-0.509,-0.952,0.0
12.534,-0.703,-0.958,0.0
11.672,-0.657,-0.958,0.0
10.859,-0.614,-0.953,0.0
10.182,-0.579,-0.953,0.0
9.596,-0.548,-0.953,0.0
9.056,-0.52,-0.951,0.0
12.485,-0.718,-0.96,0.0
11.574,-0.668,-0.956,0.0
10.777,-0.625,-0.951,0.0
10.146,-0.591,-0.955,0.0
9.572,-0.561,-0.955,0.0
8.994,-0.529,-0.949,0.0
12.432,-0.732,-0.962,0.0
11.536,-0.683,-0.958,0.0
10.76,-0.64,-0.954,0.0
10.094,-0.603,-0.954,0.0
9.528,-0.571,-0.955,0.0
8.956,-0.54,-0.949,0.0
12.375,-0.747,-0.962,0.0
11.433,-0.693,-0.954,0.0
10.656,-0.649,-0.949,0.0
10.083,-0.616,-0.957,0.0
9.486,-0.582,-0.954,0.0
8.909,-0.549,-0.947,0.0
12.372,-0.764,-0.966,0.0
11.436,-0.709,-0.958,0.0
10.612,-0.661,-0.949,0.0
10.023,-0.627,-0.954,0.0
9.482,-0.595,-0.957,0.0
8.894,-0.561,-0.948,0.0
12.241,-0.773,-0.96,0.0
11.378,-0.721,-0.957,0.0
10.596,-0.675,-0.951,0.0
10.004,-0.64,-0.955,0.0
9.451,-0.607,-0.956,0.0
8.871,-0.572,-0.948,0.0
12.215,-0.788,-0.961,0.0
11.288,-0.731,-0.952,0.0
10.577,-0.688,-0.952,0.0
9.971,-0.651,-0.955,0.0
9.421,-0.618,-0.956,0.0
8.871,-0.584,-0.95,0.0
12.198,-0.804,-0.963,0.0
11.282,-0.747,-0.954,0.0
10.564,-0.702,-0.953,0.0
9.969,-0.665,-0.957,0.0
9.409,-0.63,-0.956,0.0
8.841,-0.595,-0.949,0.0
12.157,-0.818,-0.961,0.0
11.299,-0.763,-0.957,0.0
10.56,-0.716,-0.954,0.0
9.942,-0.677,-0.955,0.0
9.412,-0.643,-0.958,0.0
8.834,-0.606,-0.949,0.0
12.121,-0.832,-0.96,0.0
11.241,-0.775,-0.954,0.0
10.538,-0.729,-0.954,0.0
9.995,-0.694,-0.962,0.0
9.371,-0.653,-0.955,0.0
8.818,-0.617,-0.948,0.0
12.14,-0.85,-0.963,0.0
11.25,-0.791,-0.956,0.0
10.583,-0.746,-0.958,0.0
9.926,-0.703,-0.956,0.0
9.386,-0.667,-0.957,0.0
8.83,-0.63,-0.95,0.0
12.112,-0.864,-0.961,0.0
11.24,-0.805,-0.955,0.0
10.54,-0.758,-0.955,0.0
9.939,-0.717,-0.957,0.0
9.397,-0.68,-0.958,0.0
8.826,-0.642,-0.95,0.0
12.117,-0.881,-0.962,0.0
11.271,-0.822,-0.958,0.0
10.554,-0.773,-0.956,0.0
9.974,-0.733,-0.961,0.0
9.396,-0.693,-0.958,0.0
8.826,-0.653,-0.95,0.0
12.11,-0.896,-0.961,0.0
11.242,-0.835,-0.955,0.0
10.556,-0.787,-0.956,0.0
9.952,-0.744,-0.958,0.0
9.354,-0.702,-0.953,0.0
8.838,-0.666,-0.95,0.0
12.169,-0.916,-0.965,0.0
11.257,-0.85,-0.955,0.0
10.557,-0.8,-0.955,0.0
9.961,-0.758,-0.958,0.0
9.393,-0.717,-0.956,0.0
8.864,-0.679,-0.952,0.0
12.201,-0.934,-0.966,0.0
11.315,-0.869,-0.959,0.0
10.576,-0.815,-0.955,0.0
9.923,-0.768,-0.953,0.0
9.415,-0.731,-0.957,0.0
8.855,-0.69,-0.95,0.0
12.167,-0.947,-0.961,0.0
11.369,-0.888,-0.961,0.0
10.611,-0.832,-0.956,0.0
9.99,-0.785,-0.957,0.0
9.434,-0.744,-0.957,0.0
8.881,-0.703,-0.951,0.0
12.231,-0.968,-0.964,0.0
11.367,-0.902,-0.959,0.0
10.706,-0.852,-0.963,0.0
10.044,-0.802,-0.96,0.0
9.48,-0.76,-0.959,0.0
8.927,-0.718,-0.953,0.0
12.285,-0.987,-0.965,0.0
11.41,-0.919,-0.959,0.0
10.652,-0.861,-0.955,0.0
10.069,-0.816,-0.96,0.0
9.49,-0.772,-0.958,0.0
8.956,-0.731,-0.954,0.0
12.303,-1.003,-0.963,0.0
11.495,-0.94,-0.963,0.0
10.708,-0.878,-0.957,0.0
10.061,-0.828,-0.956,0.0
9.556,-0.789,-0.961,0.0
8.968,-0.742,-0.952,0.0
12.37,-1.023,-0.964,0.0
11.537,-0.957,-0.963,0.0
10.729,-0.892,-0.955,0.0
10.142,-0.846,-0.96,0.0
9.559,-0.8,-0.958,0.0
9.015,-0.757,-0.954,0.0
12.479,-1.047,-0.968,0.0
11.619,-0.977,-0.965,0.0
10.701,-0.902,-0.949,0.0
10.196,-0.862,-0.961,0.0
9.609,-0.815,-0.959,0.0
9.068,-0.772,-0.956,0.0
12.519,-1.064,-0.966,0.0
11.68,-0.995,-0.966,0.0
10.827,-0.925,-0.955,0.0
10.225,-0.876,-0.96,0.0
9.647,-0.829,-0.959,0.0
9.113,-0.786,-0.957,0.0
12.615,-1.086,-0.968,0.0
11.71,-1.011,-0.963,0.0
10.98,-0.95,-0.964,0.0
10.289,-0.893,-0.961,0.0
9.718,-0.846,-0.961,0.0
9.144,-0.798,-0.955,0.0
12.72,-1.109,-0.97,0.0
11.826,-1.034,-0.967,0.0
11.025,-0.966,-0.962,0.0
10.333,-0.908,-0.96,0.0
9.752,-0.859,-0.96,0.0
9.208,-0.814,-0.957,0.0
12.752,-1.125,-0.965,0.0
11.906,-1.053,-0.967,0.0
11.077,-0.982,-0.961,0.0
10.385,-0.923,-0.959,0.0
9.817,-0.875,-0.961,0.0
9.279,-0.829,-0.96,0.0
12.863,-1.148,-0.967,0.0
11.954,-1.07,-0.964,0.0
11.109,-0.997,-0.957,0.0
10.424,-0.937,-0.957,0.0
9.884,-0.891,-0.961,0.0
9.346,-0.845,-0.961,0.0
12.981,-1.172,-0.968,0.0
12.051,-1.09,-0.965,0.0
11.193,-1.015,-0.958,0.0
10.487,-0.953,-0.956,0.0
9.942,-0.906,-0.961,0.0
9.408,-0.86,-0.961,0.0
13.161,-1.201,-0.973,0.0
12.135,-1.11,-0.964,0.0
11.304,-1.036,-0.96,0.0
10.589,-0.973,-0.958,0.0
10.041,-0.925,-0.964,0.0
9.469,-0.874,-0.961,0.0
13.264,-1.223,-0.972,0.0
12.172,-1.124,-0.958,0.0
11.465,-1.061,-0.966,0.0
0.0,0.0,0.0,0.0
10.116,-0.941,-0.964,0.0
9.527,-0.888,-0.96,0.0
13.358,-1.243,-0.969,0.0
12.408,-1.157,-0.968,0.0
11.603,-1.085,-0.969,0.0
0.0,0.0,0.0,0.0
10.183,-0.956,-0.963,0.0
9.597,-0.903,-0.96,0.0
13.691,-1.286,-0.984,0.0
12.519,-1.179,-0.968,0.0
11.717,-1.105,-0.97,0.0
0.0,0.0,0.0,0.0
10.271,-0.973,-0.964,0.0
9.664,-0.918,-0.96,0.0
13.792,-1.307,-0.98,1.0
12.651,-1.202,-0.968,0.0
11.831,-1.126,-0.97,0.0
11.02,-1.051,-0.965,0.0
10.349,-0.989,-0.963,0.0
9.775,-0.936,-0.963,0.0
13.77,-1.317,-0.968,1.0
12.837,-1.23,-0.972,0.0
11.941,-1.146,-0.969,0.0
11.134,-1.071,-0.966,0.0
10.488,-1.01,-0.967,0.0
9.882,-0.954,-0.965,0.0
13.756,-1.326,-0.955,1.0
13.045,-1.26,-0.977,0.0
12.017,-1.162,-0.965,0.0
11.235,-1.089,-0.965,0.0
10.548,-1.024,-0.964,0.0
9.938,-0.967,-0.962,0.0
13.746,-1.335,-0.943,1.0
13.252,-1.289,-0.981,0.0
12.137,-1.183,-0.964,0.0
11.337,-1.107,-0.964,0.0
10.587,-1.036,-0.958,0.0
10.026,-0.982,-0.962,0.0
13.719,-1.342,-0.929,1.0
13.422,-1.315,-0.982,1.0
12.276,-1.205,-0.964,0.0
11.519,-1.132,-0.969,0.0
10.897,-1.073,-0.976,0.0
10.17,-1.003,-0.966,0.0
13.706,-1.35,-0.915,1.0
13.528,-1.335,-0.977,2.0
12.59,-1.244,-0.977,0.0
11.622,-1.15,-0.966,0.0
10.902,-1.081,-0.966,0.0
10.281,-1.021,-0.967,0.0
13.688,-1.357,-0.901,1.0
13.582,-1.348,-0.968,2.0
12.835,-1.276,-0.984,0.0
11.767,-1.172,-0.967,0.0
11.107,-1.108,-0.973,0.0
10.321,-1.031,-0.96,0.0
13.684,-1.365,-0.888,1.0
13.621,-1.36,-0.957,1.0
13.017,-1.302,-0.985,0.0
11.954,-1.197,-0.97,0.0
11.169,-1.12,-0.967,0.0
10.472,-1.052,-0.964,0.0
13.68,-1.372,-0.874,2.0
13.659,-1.371,-0.946,1.0
13.104,-1.318,-0.978,0.0
12.089,-1.217,-0.969,0.0
11.3,-1.139,-0.967,0.0
10.556,-1.066,-0.961,0.0
13.682,-1.379,-0.86,1.0
13.656,-1.378,-0.932,1.0
13.356,-1.35,-0.983,0.0
12.233,-1.238,-0.968,0.0
11.502,-1.165,-0.972,0.0
10.674,-1.083,-0.96,0.0
13.783,-1.396,-0.852,0.0
13.644,-1.383,-0.916,1.0
13.544,-1.375,-0.983,1.0
13.396,-1.361,-1.046,0.0
11.652,-1.186,-0.972,0.0
10.864,-1.107,-0.966,0.0
13.95,-1.419,-0.847,0.0
13.626,-1.387,-0.901,1.0
13.548,-1.381,-0.968,1.0
12.74,-1.3,-0.98,0.0
11.813,-1.207,-0.973,0.0
11.109,-1.136,-0.975,0.0
14.142,-1.444,-0.843,1.0
13.626,-1.393,-0.886,1.0
13.589,-1.39,-0.956,1.0
12.967,-1.328,-0.984,0.0
11.979,-1.228,-0.973,0.0
11.197,-1.149,-0.97,0.0
14.293,-1.464,-0.836,1.0
13.622,-1.397,-0.87,1.0
13.618,-1.398,-0.943,1.0
13.195,-1.356,-0.986,0.0
12.128,-1.247,-0.971,0.0
11.332,-1.167,-0.969,0.0
14.489,-1.489,-0.831,1.0
13.672,-1.406,-0.857,1.0
13.601,-1.4,-0.926,1.0
13.48,-1.389,-0.991,1.0
12.282,-1.267,-0.969,0.0
11.558,-1.193,-0.975,0.0
14.752,-1.52,-0.829,0.0
13.826,-1.426,-0.851,0.0
13.604,-1.404,-0.91,1.0
13.514,-1.396,-0.978,2.0
13.087,-1.353,-1.018,0.0
11.712,-1.212,-0.974,0.0
14.993,-1.549,-0.825,1.0
14.029,-1.45,-0.847,1.0
13.587,-1.405,-0.893,1.0
13.545,-1.402,-0.964,1.0
12.895,-1.335,-0.987,0.0
11.913,-1.235,-0.976,0.0
15.175,-1.57,-0.817,1.0
14.211,-1.471,-0.841,1.0
13.602,-1.409,-0.877,1.0
13.574,-1.407,-0.95,1.0
13.035,-1.352,-0.982,0.0
12.102,-1.256,-0.977,0.0
15.37,-1.592,-0.809,1.0
14.402,-1.493,-0.835,0.0
13.605,-1.411,-0.861,1.0
13.588,-1.41,-0.934,1.0
13.453,-1.397,-0.997,0.0
12.162,-1.263,-0.966,0.0
15.658,-1.624,-0.804,0.0
14.674,-1.523,-0.832,0.0
13.745,-1.427,-0.852,0.0
13.582,-1.41,-0.916,1.0
13.517,-1.404,-0.984,2.0
13.059,-1.357,-1.021,0.0
15.931,-1.653,-0.798,1.0
14.943,-1.551,-0.829,1.0
13.989,-1.453,-0.85,0.0
13.582,-1.411,-0.899,1.0
13.543,-1.407,-0.969,2.0
12.883,-1.339,-0.991,0.0
16.217,-1.683,-0.792,1.0
15.132,-1.571,-0.82,1.0
14.174,-1.472,-0.844,1.0
13.577,-1.41,-0.882,1.0
13.572,-1.41,-0.954,1.0
13.026,-1.354,-0.985,0.0
16.478,-1.71,-0.784,1.0
15.353,-1.593,-0.812,1.0
14.368,-1.491,-0.837,0.0
13.582,-1.41,-0.865,1.0
13.585,-1.41,-0.937,1.0
13.416,-1.393,-0.997,0.0
16.83,-1.745,-0.779,1.0
15.613,-1.619,-0.806,0.0
14.629,-1.517,-0.833,0.0
13.715,-1.422,-0.855,0.0
13.596,-1.41,-0.921,1.0
13.52,-1.402,-0.988,2.0
17.243,-1.786,-0.776,0.0
15.91,-1.648,-0.801,1.0
14.921,-1.545,-0.83,1.0
13.952,-1.445,-0.852,0.0
13.598,-1.408,-0.903,1.0
13.545,-1.403,-0.972,2.0
17.798,-1.84,-0.778,1.0
16.222,-1.677,-0.795,1.0
15.12,-1.563,-0.821,1.0
14.174,-1.465,-0.847,1.0
13.607,-1.406,-0.885,1.0
13.595,-1.405,-0.957,1.0
18.207,-1.879,-0.772,1.0
16.504,-1.703,-0.787,1.0
15.343,-1.582,-0.813,1.0
14.362,-1.481,-0.839,0.0
13.615,-1.404,-0.868,1.0
13.597,-1.402,-0.939,1.0
18.712,-1.926,-0.769,1.0
16.836,-1.732,-0.781,1.0
15.631,-1.608,-0.808,0.0
14.607,-1.502,-0.834,0.0
13.739,-1.413,-0.858,0.0
13.596,-1.397,-0.921,1.0
19.231,-1.974,-0.765,1.0
17.241,-1.769,-0.777,0.0
15.912,-1.632,-0.801,1.0
14.963,-1.534,-0.835,1.0
13.987,-1.433,-0.855,0.0
13.618,-1.395,-0.904,1.0
19.83,-2.029,-0.762,2.0
17.917,-1.832,-0.784,0.0
16.228,-1.658,-0.796,1.0
15.139,-1.546,-0.824,1.0
14.2,-1.45,-0.848,1.0
13.615,-1.389,-0.886,2.0
20.273,-2.066,-0.752,2.0
18.258,-1.859,-0.774,1.0
16.49,-1.678,-0.787,1.0
15.393,-1.566,-0.817,1.0
14.385,-1.462,-0.84,0.0
13.652,-1.387,-0.87,1.0
20.828,-2.113,-0.745,1.0
18.793,-1.905,-0.771,0.0
16.941,-1.717,-0.785,0.0
15.635,-1.583,-0.809,1.0
14.66,-1.483,-0.837,0.0
13.77,-1.392,-0.859,0.0
21.476,-2.169,-0.739,1.0
19.331,-1.951,-0.768,1.0
17.28,-1.742,-0.778,0.0
15.925,-1.604,-0.803,1.0
14.998,-1.51,-0.836,1.0
13.989,-1.407,-0.854,0.0
22.218,-2.232,-0.735,1.0
19.852,-1.993,-0.762,2.0
18.049,-1.81,-0.788,0.0
16.269,-1.63,-0.798,1.0
15.192,-1.521,-0.826,1.0
14.231,-1.424,-0.849,0.0
23.037,-2.302,-0.731,2.0
20.356,-2.032,-0.754,1.0
18.378,-1.832,-0.778,1.0
16.583,-1.652,-0.792,1.0
15.432,-1.536,-0.819,1.0
14.448,-1.436,-0.843,0.0
23.809,-2.364,-0.724,5.0
20.999,-2.083,-0.75,1.0
18.863,-1.869,-0.773,1.0
16.955,-1.678,-0.787,0.0
15.669,-1.549,-0.81,1.0
14.713,-1.453,-0.839,0.0
24.749,-2.441,-0.72,4.0
21.623,-2.13,-0.744,0.0
19.437,-1.913,-0.771,1.0
17.423,-1.712,-0.785,0.0
16.027,-1.573,-0.807,1.0
15.03,-1.474,-0.837,1.0
25.659,-2.513,-0.712,6.0
22.522,-2.203,-0.744,1.0
19.921,-1.946,-0.764,2.0
17.853,-1.742,-0.781,0.0
16.298,-1.588,-0.799,1.0
15.237,-1.483,-0.828,1.0
26.466,-2.573,-0.7,5.0
23.092,-2.241,-0.733,3.0
20.44,-1.981,-0.757,2.0
18.375,-1.778,-0.78,0.0
16.629,-1.607,-0.794,1.0
15.457,-1.492,-0.82,1.0
27.337,-2.636,-0.687,5.0
24.137,-2.324,-0.734,5.0
21.161,-2.034,-0.755,0.0
18.949,-1.819,-0.779,1.0
17.035,-1.632,-0.791,1.0
15.755,-1.508,-0.815,1.0
28.12,-2.688,-0.67,7.0
24.904,-2.377,-0.725,5.0
21.77,-2.074,-0.749,2.0
19.447,-1.85,-0.774,2.0
17.49,-1.661,-0.789,0.0
16.044,-1.521,-0.809,1.0
29.089,-2.755,-0.655,3.0
25.75,-2.435,-0.716,6.0
22.295,-2.104,-0.738,1.0
20.015,-1.886,-0.77,2.0
17.997,-1.693,-0.788,1.0
16.315,-1.532,-0.801,1.0
30.433,-2.854,-0.646,2.0
26.464,-2.478,-0.701,6.0
23.392,-2.186,-0.744,2.0
20.482,-1.91,-0.762,1.0
18.464,-1.719,-0.784,1.0
16.62,-1.545,-0.794,0.0
31.051,-2.883,-0.619,1.0
27.36,-2.535,-0.69,6.0
23.824,-2.203,-0.727,10.0
21.19,-1.956,-0.761,1.0
18.903,-1.741,-0.779,1.0
17.063,-1.569,-0.794,0.0
33.179,-3.048,-0.619,1.0
28.212,-2.586,-0.676,4.0
23.837,-2.18,-0.697,10.0
21.865,-1.996,-0.758,1.0
19.371,-1.764,-0.774,1.0
17.532,-1.594,-0.793,0.0
35.176,-3.195,-0.612,9.0
29.542,-2.677,-0.67,4.0
24.684,-2.232,-0.691,5.0
22.44,-2.024,-0.749,1.0
20.023,-1.802,-0.775,1.0
17.943,-1.612,-0.789,1.0
36.61,-3.285,-0.591,13.0
30.509,-2.731,-0.654,4.0
26.748,-2.389,-0.715,4.0
23.389,-2.084,-0.751,5.0
20.41,-1.814,-0.764,1.0
18.391,-1.631,-0.786,2.0
37.837,-3.352,-0.564,14.0
31.314,-2.767,-0.632,1.0
27.437,-2.419,-0.699,6.0
23.778,-2.091,-0.735,13.0
21.108,-1.852,-0.764,1.0
18.879,-1.652,-0.784,1.0
39.252,-3.432,-0.537,15.0
33.101,-2.887,-0.628,1.0
28.268,-2.459,-0.686,3.0
23.873,-2.071,-0.708,16.0
21.804,-1.887,-0.763,1.0
19.396,-1.674,-0.781,1.0
40.268,-3.473,-0.502,16.0
34.864,-2.998,-0.619,2.0
29.566,-2.535,-0.682,5.0
24.316,-2.079,-0.692,13.0
22.362,-1.907,-0.755,2.0
19.904,-1.693,-0.778,1.0
41.75,-3.549,-0.471,10.0
0.0,0.0,0.0,0.0
30.451,-2.573,-0.666,4.0
25.037,-2.11,-0.683,6.0
23.296,-1.957,-0.759,5.0
20.32,-1.703,-0.77,1.0
46.052,-3.855,-0.465,21.0
38.343,-3.199,-0.59,13.0
31.077,-2.586,-0.643,2.0
25.424,-2.109,-0.664,1.0
23.698,-1.96,-0.745,9.0
20.933,-1.726,-0.769,1.0
47.162,-3.885,-0.421,18.0
39.429,-3.237,-0.561,14.0
32.521,-2.662,-0.635,2.0
27.957,-2.281,-0.697,2.0
23.891,-1.943,-0.723,15.0
21.455,-1.74,-0.763,0.0
49.618,-4.019,-0.386,24.0
40.834,-3.297,-0.534,13.0
33.817,-2.722,-0.622,1.0
29.179,-2.341,-0.695,6.0
24.206,-1.936,-0.705,16.0
22.027,-1.756,-0.759,1.0
53.97,-4.297,-0.36,5.0
42.073,-3.338,-0.504,7.0
34.937,-2.762,-0.604,1.0
30.18,-2.378,-0.685,8.0
24.801,-1.948,-0.695,14.0
22.933,-1.795,-0.765,3.0
57.314,-4.481,-0.319,4.0
0.0,0.0,0.0,0.0
36.447,-2.83,-0.591,1.0
30.761,-2.38,-0.665,3.0
24.941,-1.922,-0.672,5.0
23.534,-1.808,-0.759,5.0
61.583,-4.724,-0.276,7.0
0.0,0.0,0.0,0.0
39.184,-2.984,-0.593,2.0
31.697,-2.405,-0.651,4.0
27.587,-2.085,-0.714,1.0
23.811,-1.794,-0.743,13.0
66.358,-4.992,-0.229,1.0
49.531,-3.712,-0.434,23.0
40.19,-3.0,-0.566,2.0
33.034,-2.456,-0.645,1.0
28.4,-2.104,-0.706,1.0
23.891,-1.763,-0.721,15.0
66.285,-4.885,-0.159,3.0
53.416,-3.921,-0.413,7.0
43.64,-3.19,-0.57,1.0
34.091,-2.482,-0.631,2.0
29.607,-2.147,-0.706,3.0
24.186,-1.747,-0.706,14.0
65.713,-4.74,-0.092,0.0
53.69,-3.857,-0.362,6.0
46.602,-3.334,-0.563,2.0
35.195,-2.507,-0.616,2.0
30.368,-2.155,-0.694,8.0
24.479,-1.73,-0.69,13.0
65.741,-4.638,-0.028,2.0
57.031,-4.006,-0.329,10.0
46.798,-3.273,-0.52,15.0
36.286,-2.526,-0.6,2.0
30.588,-2.12,-0.67,16.0
24.488,-1.69,-0.667,19.0
65.381,-4.506,0.033,1.0
59.328,-4.07,-0.286,6.0
49.423,-3.376,-0.502,5.0
39.085,-2.657,-0.61,0.0
24.52,-1.659,-0.514,18.0
24.443,-1.647,-0.643,21.0
65.518,-4.406,0.094,2.0
24.603,-1.647,-0.096,4.0
24.563,-1.636,-0.227,13.0
24.546,-1.627,-0.36,34.0
24.504,-1.617,-0.491,36.0
24.435,-1.605,-0.62,32.0
24.564,-1.61,0.057,29.0
24.545,-1.601,-0.073,42.0
24.523,-1.592,-0.204,40.0
24.505,-1.583,-0.338,44.0
24.486,-1.574,-0.469,46.0
24.445,-1.563,-0.599,30.0
24.539,-1.567,0.079,59.0
24.53,-1.558,-0.052,68.0
24.514,-1.549,-0.183,46.0
24.498,-1.54,-0.317,62.0
24.495,-1.532,-0.448,49.0
24.448,-1.521,-0.578,36.0
24.521,-1.523,0.099,58.0
24.531,-1.515,-0.031,107.0
24.496,-1.504,-0.162,56.0
24.501,-1.496,-0.296,54.0
24.504,-1.489,-0.428,74.0
24.459,-1.478,-0.558,36.0
24.516,-1.478,0.12,64.0
24.526,-1.47,-0.011,73.0
24.51,-1.461,-0.143,68.0
24.512,-1.453,-0.277,72.0
24.504,-1.445,-0.408,49.0
24.48,-1.435,-0.539,44.0
24.536,-1.435,0.139,57.0
24.537,-1.427,0.007,54.0
24.536,-1.418,-0.124,60.0
24.53,-1.41,-0.258,54.0
24.529,-1.401,-0.39,49.0
24.506,-1.392,-0.521,45.0
24.581,-1.392,0.158,33.0
24.571,-1.383,0.026,28.0
24.565,-1.375,-0.105,29.0
24.529,-1.364,-0.24,29.0
24.563,-1.357,-0.372,41.0
24.55,-1.349,-0.504,36.0
65.708,-3.599,0.472,3.0
0.0,0.0,0.0,0.0
66.039,-3.571,-0.236,1.0
54.286,-2.917,-0.491,5.0
38.009,-2.029,-0.549,2.0
30.953,-1.642,-0.614,25.0
0.0,0.0,0.0,0.0
0.0,0.0,0.0,0.0
66.041,-3.447,-0.191,1.0
56.423,-2.925,-0.473,9.0
42.101,-2.168,-0.58,2.0
31.03,-1.587,-0.594,29.0
66.785,-3.405,0.57,0.0
0.0,0.0,0.0,0.0
67.857,-3.411,-0.151,0.0
61.414,-3.066,-0.474,0.0
31.296,-1.551,-0.41,14.0
31.104,-1.531,-0.576,33.0
80.012,-3.925,0.734,8.0
68.734,-3.348,0.259,0.0
31.297,-1.513,-0.05,0.0
31.236,-1.499,-0.222,26.0
31.199,-1.486,-0.39,43.0
31.141,-1.473,-0.558,40.0
82.701,-3.897,0.808,16.0
31.276,-1.462,0.136,25.0
31.232,-1.448,-0.032,34.0
31.18,-1.435,-0.203,48.0
31.176,-1.424,-0.372,43.0
31.166,-1.412,-0.54,54.0
31.257,-1.41,0.323,34.0
31.238,-1.398,0.154,49.0
31.199,-1.385,-0.014,32.0
28.466,-1.253,-0.17,57.0
28.463,-1.243,-0.324,61.0
28.452,-1.233,-0.478,60.0
28.441,-1.227,0.309,67.0
28.428,-1.216,0.155,77.0
28.442,-1.206,0.001,131.0
28.44,-1.196,-0.155,114.0
28.441,-1.185,-0.309,109.0
28.445,-1.175,-0.463,110.0
28.448,-1.17,0.323,140.0
28.442,-1.159,0.169,151.0
28.445,-1.148,0.015,122.0
28.449,-1.138,-0.141,67.0
28.477,-1.129,-0.296,63.0
28.476,-1.118,-0.451,53.0
28.463,-1.112,0.337,59.0
31.242,-1.209,0.2,27.0
31.286,-1.199,0.03,55.0
31.323,-1.189,-0.142,69.0
31.348,-1.179,-0.312,28.0
31.342,-1.167,-0.482,23.0
31.32,-1.159,0.384,48.0
31.343,-1.149,0.214,6.0
80.416,-2.919,0.112,33.0
80.317,-2.885,-0.331,8.0
53.829,-1.914,-0.515,4.0
38.291,-1.347,-0.574,13.0
84.328,-2.949,1.068,30.0
80.444,-2.784,0.581,28.0
80.536,-2.757,0.143,23.0
38.766,-1.313,-0.145,1.0
38.704,-1.296,-0.356,37.0
38.374,-1.272,-0.562,13.0
38.721,-1.274,0.504,27.0
38.699,-1.259,0.292,57.0
38.683,-1.245,0.082,60.0
38.673,-1.23,-0.132,58.0
38.642,-1.215,-0.343,57.0
38.431,-1.195,-0.55,18.0
38.628,-1.191,0.515,71.0
38.64,-1.177,0.304,69.0
38.64,-1.163,0.093,70.0
38.669,-1.15,-0.12,84.0
38.642,-1.134,-0.331,68.0
38.489,-1.115,-0.54,19.0
38.634,-1.11,0.526,73.0
38.63,-1.096,0.315,74.0
38.646,-1.082,0.104,70.0
38.636,-1.068,-0.11,68.0
38.678,-1.055,-0.321,58.0
38.526,-1.036,-0.531,20.0
38.674,-1.031,0.536,55.0
38.688,-1.017,0.324,47.0
38.708,-1.002,0.113,26.0
38.745,-0.989,-0.102,30.0
38.805,-0.976,-0.314,26.0
38.599,-0.957,-0.523,26.0
40.423,-0.992,0.568,27.0
40.408,-0.976,0.347,36.0
40.408,-0.961,0.126,38.0
40.405,-0.946,-0.098,37.0
40.411,-0.932,-0.32,46.0
0.0,0.0,0.0,0.0
40.414,-0.906,0.575,34.0
38.397,-0.846,0.336,11.0
38.374,-0.832,0.126,40.0
38.362,-0.817,-0.087,50.0
38.366,-0.803,-0.298,21.0
44.914,-0.925,-0.595,10.0
52.961,-1.076,0.761,39.0
52.951,-1.055,0.47,60.0
52.973,-1.036,0.18,47.0
52.95,-1.016,-0.115,18.0
52.908,-0.995,-0.405,53.0
44.917,-0.829,-0.59,31.0
192.979,-3.505,2.793,22.0
20.167,-0.358,0.181,0.0
20.13,-0.35,0.07,29.0
20.121,-0.342,-0.042,23.0
52.984,-0.884,-0.402,17.0
44.941,-0.733,-0.587,33.0
20.156,-0.322,0.292,5.0
20.119,-0.314,0.181,12.0
20.143,-0.307,0.071,27.0
20.112,-0.299,-0.041,0.0
56.616,-0.824,-0.427,9.0
44.957,-0.638,-0.586,35.0
20.13,-0.279,0.293,12.0
20.132,-0.271,0.182,9.0
59.54,-0.782,0.211,14.0
59.536,-0.76,-0.122,2.0
56.724,-0.703,-0.428,3.0
44.909,-0.541,-0.586,37.0
20.155,-0.236,0.293,11.0
64.222,-0.729,0.58,3.0
56.186,-0.617,0.198,4.0
56.21,-0.597,-0.117,10.0
58.738,-0.603,-0.446,4.0
44.958,-0.445,-0.589,37.0
53.434,-0.511,0.774,8.0
64.377,-0.593,0.577,7.0
66.483,-0.588,0.23,7.0
20.187,-0.171,-0.043,0.0
20.167,-0.163,-0.154,16.0
20.153,-0.156,-0.265,28.0
20.195,-0.15,0.29,19.0
20.155,-0.142,0.178,17.0
20.153,-0.134,0.067,25.0
20.156,-0.127,-0.045,26.0
20.148,-0.12,-0.156,29.0
20.137,-0.113,-0.268,38.0
20.123,-0.106,0.287,27.0
20.135,-0.099,0.176,27.0
20.131,-0.091,0.064,39.0
20.136,-0.084,-0.048,29.0
20.144,-0.077,-0.159,38.0
20.149,-0.07,-0.271,29.0
20.113,-0.062,0.283,33.0
20.109,-0.055,0.172,36.0
20.129,-0.048,0.061,41.0
20.124,-0.041,-0.052,30.0
20.161,-0.034,-0.163,25.0
20.164,-0.026,-0.275,12.0
20.127,-0.019,0.279,27.0
20.118,-0.012,0.168,29.0
20.169,-0.005,0.056,29.0
20.243,0.001,-0.057,152.0
20.252,0.009,-0.169,151.0
20.262,0.016,-0.281,150.0
20.148,0.024,0.275,29.0
20.134,0.031,0.163,26.0
20.192,0.038,0.051,15.0
20.19,0.045,-0.062,19.0
20.222,0.052,-0.174,25.0
20.226,0.059,-0.286,0.0
20.151,0.067,0.269,27.0
20.15,0.074,0.157,27.0
20.2,0.081,0.045,34.0
20.185,0.088,-0.068,38.0
20.186,0.095,-0.18,31.0
20.208,0.103,-0.292,28.0
20.157,0.11,0.263,29.0
20.168,0.117,0.151,26.0
20.183,0.124,0.039,28.0
20.187,0.131,-0.074,26.0
20.181,0.138,-0.187,22.0
20.169,0.145,-0.299,35.0
20.201,0.153,0.256,22.0
20.25,0.16,0.144,23.0
20.305,0.168,0.032,29.0
20.217,0.174,-0.082,15.0
20.172,0.18,-0.194,15.0
20.174,0.187,-0.306,30.0
20.289,0.196,0.249,28.0
20.324,0.204,0.137,29.0
20.322,0.211,0.023,10.0
0.0,0.0,0.0,0.0
20.194,0.223,-0.203,11.0
20.183,0.23,-0.315,24.0
20.288,0.239,0.241,18.0
99.626,1.208,0.629,3.0
99.581,1.241,0.074,5.0
0.0,0.0,0.0,0.0
0.0,0.0,0.0,0.0
0.0,0.0,0.0,0.0
0.0,0.0,0.0,0.0
99.701,1.418,0.583,5.0
99.747,1.451,0.027,4.0
0.0,0.0,0.0,0.0
0.0,0.0,0.0,0.0
0.0,0.0,0.0,0.0
0.0,0.0,0.0,0.0
99.768,1.626,0.533,5.0
99.869,1.663,-0.024,5.0
0.0,0.0,0.0,0.0
0.0,0.0,0.0,0.0
0.0,0.0,0.0,0.0
103.156,1.862,1.071,5.0
99.851,1.836,0.479,6.0
99.836,1.869,-0.079,1.0
0.0,0.0,0.0,0.0
0.0,0.0,0.0,0.0
42.85,0.844,-0.757,0.0
0.0,0.0,0.0,0.0
99.953,2.043,0.422,4.0
100.015,2.075,-0.136,5.0
0.0,0.0,0.0,0.0
0.0,0.0,0.0,0.0
40.551,0.881,-0.74,0.0
0.0,0.0,0.0,0.0
100.125,2.248,0.362,1.0
100.183,2.281,-0.198,6.0
0.0,0.0,0.0,0.0
0.0,0.0,0.0,0.0
0.0,0.0,0.0,0.0
103.146,2.491,0.885,2.0
100.296,2.455,0.298,1.0
0.0,0.0,0.0,0.0
0.0,0.0,0.0,0.0
0.0,0.0,0.0,0.0
0.0,0.0,0.0,0.0
103.16,2.7,0.815,5.0
0.0,0.0,0.0,0.0
0.0,0.0,0.0,0.0
0.0,0.0,0.0,0.0
0.0,0.0,0.0,0.0
0.0,0.0,0.0,0.0
195.945,5.522,1.41,21.0
0.0,0.0,0.0,0.0
0.0,0.0,0.0,0.0
0.0,0.0,0.0,0.0
0.0,0.0,0.0,0.0
37.613,1.118,-0.789,0.0
196.072,5.913,1.265,40.0
0.0,0.0,0.0,0.0
0.0,0.0,0.0,0.0
0.0,0.0,0.0,0.0
0.0,0.0,0.0,0.0
0.0,0.0,0.0,0.0
196.236,6.301,1.114,24.0
0.0,0.0,0.0,0.0
0.0,0.0,0.0,0.0
0.0,0.0,0.0,0.0
0.0,0.0,0.0,0.0
0.0,0.0,0.0,0.0
196.361,6.688,0.956,40.0
0.0,0.0,0.0,0.0
68.945,2.389,-0.44,2.0
0.0,0.0,0.0,0.0
0.0,0.0,0.0,0.0
35.622,1.266,-0.833,0.0
196.47,7.068,0.791,29.0
0.0,0.0,0.0,0.0
68.947,2.521,-0.499,5.0
0.0,0.0,0.0,0.0
0.0,0.0,0.0,0.0
34.101,1.277,-0.827,0.0
195.071,7.386,0.616,6.0
0.0,0.0,0.0,0.0
68.877,2.648,-0.559,0.0
0.0,0.0,0.0,0.0
0.0,0.0,0.0,0.0
32.894,1.293,-0.827,0.0
0.0,0.0,0.0,0.0
0.0,0.0,0.0,0.0
0.0,0.0,0.0,0.0
0.0,0.0,0.0,0.0
38.656,1.579,-0.789,0.0
32.409,1.334,-0.845,0.0
0.0,0.0,0.0,0.0
0.0,0.0,0.0,0.0
0.0,0.0,0.0,0.0
0.0,0.0,0.0,0.0
37.89,1.617,-0.809,0.0
0.0,0.0,0.0,0.0
0.0,0.0,0.0,0.0
0.0,0.0,0.0,0.0
0.0,0.0,0.0,0.0
0.0,0.0,0.0,0.0
36.24,1.612,-0.81,0.0
30.611,1.37,-0.857,0.0
0.0,0.0,0.0,0.0
68.858,3.13,-0.432,0.0
0.0,0.0,0.0,0.0
42.422,1.951,-0.75,3.0
0.0,0.0,0.0,0.0
29.632,1.378,-0.859,0.0
0.0,0.0,0.0,0.0
68.89,3.252,-0.502,0.0
0.0,0.0,0.0,0.0
0.0,0.0,0.0,0.0
33.816,1.623,-0.824,0.0
28.564,1.379,-0.858,0.0
0.0,0.0,0.0,0.0
0.0,0.0,0.0,0.0
0.0,0.0,0.0,0.0
38.548,1.907,-0.762,0.0
32.648,1.623,-0.83,0.0
28.127,1.406,-0.875,0.0
0.0,0.0,0.0,0.0
0.0,0.0,0.0,0.0
0.0,0.0,0.0,0.0
37.588,1.922,-0.783,0.0
31.818,1.635,-0.844,0.0
27.302,1.41,-0.879,0.0
0.0,0.0,0.0,0.0
0.0,0.0,0.0,0.0
0.0,0.0,0.0,0.0
35.727,1.887,-0.784,0.0
30.864,1.638,-0.853,0.0
26.13,1.393,-0.871,0.0
0.0,0.0,0.0,0.0
0.0,0.0,0.0,0.0
0.0,0.0,0.0,0.0
0.0,0.0,0.0,0.0
29.42,1.609,-0.846,1.0
25.54,1.403,-0.88,0.0
69.018,3.817,-0.489,0.0
0.0,0.0,0.0,0.0
40.002,2.231,-0.738,0.0
33.46,1.875,-0.811,1.0
28.704,1.615,-0.859,0.0
24.865,1.406,-0.886,0.0
68.936,3.922,-0.57,1.0
0.0,0.0,0.0,0.0
0.0,0.0,0.0,0.0
32.359,1.864,-0.823,1.0
28.211,1.632,-0.878,0.0
24.175,1.404,-0.89,0.0
0.0,0.0,0.0,0.0
0.0,0.0,0.0,0.0
37.922,2.234,-0.79,0.0
31.454,1.86,-0.838,0.0
27.008,1.603,-0.873,0.0
21.968,1.309,-0.835,0.0
0.0,0.0,0.0,0.0
0.0,0.0,0.0,0.0
35.45,2.142,-0.782,0.0
30.409,1.844,-0.847,0.0
26.02,1.584,-0.873,0.0
21.913,1.339,-0.86,7.0
0.0,0.0,0.0,0.0
40.863,2.52,-0.72,0.0
35.056,2.17,-0.817,0.0
29.214,1.814,-0.85,0.0
25.147,1.568,-0.875,0.0
21.827,1.366,-0.884,9.0
0.0,0.0,0.0,0.0
0.0,0.0,0.0,0.0
32.829,2.079,-0.806,1.0
28.455,1.808,-0.864,0.0
24.505,1.563,-0.884,0.0
21.793,1.394,-0.911,9.0
0.0,0.0,0.0,0.0
38.315,2.472,-0.772,0.0
32.163,2.082,-0.831,0.0
27.267,1.771,-0.863,0.0
23.715,1.545,-0.886,0.0
21.758,1.422,-0.937,0.0
0.0,0.0,0.0,0.0
36.915,2.432,-0.791,0.0
30.304,2.003,-0.823,0.0
26.439,1.753,-0.871,0.0
21.905,1.457,-0.847,1.0
20.622,1.376,-0.915,0.0
0.0,0.0,0.0,0.0
34.773,2.337,-0.791,0.0
29.922,2.017,-0.852,1.0
25.323,1.712,-0.868,0.0
21.832,1.481,-0.873,0.0
19.692,1.34,-0.9,0.0
0.0,0.0,0.0,0.0
33.229,2.277,-0.8,1.0
28.604,1.965,-0.852,0.0
24.724,1.704,-0.88,0.0
21.775,1.505,-0.9,1.0
19.43,1.347,-0.914,0.0
0.0,0.0,0.0,0.0
32.271,2.251,-0.82,1.0
27.735,1.94,-0.864,0.0
23.729,1.665,-0.877,0.0
21.564,1.517,-0.92,0.0
18.937,1.336,-0.917,0.0
37.003,2.62,-0.779,0.0
30.458,2.162,-0.816,0.0
26.646,1.896,-0.866,0.0
23.39,1.669,-0.896,0.0
20.423,1.461,-0.9,0.0
0.0,0.0,0.0,0.0
0.0,0.0,0.0,0.0
29.958,2.162,-0.843,0.0
25.789,1.866,-0.873,0.0
21.856,1.585,-0.868,1.0
19.768,1.437,-0.898,0.0
18.085,1.318,-0.925,0.0
32.991,2.413,-0.786,0.0
28.545,2.093,-0.843,0.0
24.683,1.814,-0.87,0.0
21.77,1.604,-0.895,1.0
19.441,1.436,-0.91,0.0
17.376,1.286,-0.914,0.0
32.623,2.422,-0.823,0.0
27.697,2.061,-0.857,0.0
23.76,1.772,-0.871,0.0
21.521,1.609,-0.915,0.0
19.31,1.447,-0.931,0.0
17.145,1.288,-0.925,0.0
30.29,2.281,-0.806,0.0
26.775,2.021,-0.866,0.0
23.347,1.766,-0.889,0.0
20.452,1.55,-0.898,0.0
0.0,0.0,0.0,0.0
16.776,1.277,-0.929,0.0
29.804,2.275,-0.835,0.0
25.688,1.965,-0.867,0.0
21.846,1.674,-0.863,0.0
19.683,1.512,-0.892,0.0
0.0,0.0,0.0,0.0
16.334,1.26,-0.928,0.0
28.611,2.212,-0.843,1.0
24.678,1.912,-0.868,0.0
21.784,1.691,-0.892,2.0
19.415,1.51,-0.908,0.0
17.411,1.357,-0.914,0.0
15.966,1.247,-0.93,0.0
27.691,2.167,-0.856,1.0
23.978,1.88,-0.878,0.0
21.68,1.703,-0.918,0.0
18.591,1.463,-0.896,0.0
17.096,1.348,-0.922,0.0
15.621,1.234,-0.933,0.0
26.678,2.112,-0.863,0.0
21.912,1.738,-0.834,1.0
20.644,1.64,-0.904,0.0
18.529,1.475,-0.92,0.0
16.637,1.327,-0.922,0.0
15.222,1.216,-0.931,0.0
25.608,2.049,-0.865,0.0
21.851,1.752,-0.864,6.0
19.714,1.583,-0.892,0.0
17.924,1.442,-0.916,0.0
16.27,1.311,-0.925,0.0
14.906,1.203,-0.934,0.0
24.527,1.983,-0.864,1.0
21.803,1.766,-0.894,7.0
19.423,1.575,-0.908,0.0
17.316,1.407,-0.911,0.0
15.964,1.299,-0.932,0.0
14.614,1.191,-0.937,0.0
23.99,1.958,-0.881,0.0
21.645,1.77,-0.919,0.0
18.977,1.554,-0.915,0.0
17.097,1.402,-0.924,0.0
15.575,1.279,-0.932,0.0
14.372,1.183,-0.943,0.0
21.925,1.806,-0.837,2.0
20.661,1.704,-0.908,0.0
18.346,1.516,-0.912,0.0
16.562,1.37,-0.92,0.0
15.135,1.254,-0.928,0.0
14.146,1.174,-0.949,0.0
21.855,1.815,-0.867,9.0
19.627,1.632,-0.891,0.0
17.941,1.494,-0.918,0.0
16.147,1.347,-0.92,0.0
14.861,1.241,-0.933,0.0
13.748,1.15,-0.943,0.0
21.802,1.825,-0.897,4.0
19.376,1.624,-0.908,0.0
17.26,1.449,-0.908,0.0
15.843,1.331,-0.927,0.0
14.558,1.225,-0.935,0.0
13.448,1.133,-0.942,0.0
21.196,1.787,-0.903,0.0
18.974,1.602,-0.917,0.0
16.976,1.435,-0.918,0.0
15.493,1.311,-0.929,0.0
14.334,1.215,-0.942,0.0
13.235,1.123,-0.946,0.0
20.325,1.725,-0.895,0.0
18.256,1.551,-0.909,0.0
16.583,1.411,-0.921,0.0
15.071,1.284,-0.926,0.0
14.183,1.209,-0.953,0.0
12.917,1.103,-0.943,0.0
19.611,1.675,-0.893,0.0
17.951,1.534,-0.92,0.0
16.156,1.383,-0.921,0.0
14.799,1.268,-0.931,0.0
13.644,1.17,-0.937,0.0
12.654,1.087,-0.942,0.0
19.396,1.665,-0.911,0.0
17.283,1.485,-0.911,0.0
15.826,1.362,-0.926,0.0
14.527,1.251,-0.935,0.0
13.373,1.153,-0.938,0.0
12.413,1.072,-0.943,0.0
0.0,0.0,0.0,0.0
16.917,1.461,-0.917,0.0
15.461,1.337,-0.927,0.0
14.282,1.236,-0.94,0.0
13.11,1.136,-0.939,0.0
12.164,1.055,-0.941,0.0
18.069,1.566,-0.902,0.0
16.503,1.432,-0.919,0.0
15.088,1.31,-0.927,0.0
13.994,1.216,-0.942,0.0
12.884,1.121,-0.942,0.0
11.925,1.039,-0.94,0.0
0.0,0.0,0.0,0.0
16.081,1.401,-0.918,0.0
14.829,1.293,-0.932,0.0
13.658,1.192,-0.939,0.0
12.653,1.105,-0.943,0.0
11.745,1.027,-0.943,0.0
17.277,1.509,-0.912,0.0
15.801,1.381,-0.925,0.0
14.495,1.268,-0.932,0.0
13.385,1.172,-0.94,0.0
12.4,1.086,-0.942,0.0
11.513,1.009,-0.941,0.0
16.893,1.48,-0.916,0.0
15.411,1.351,-0.924,0.0
14.334,1.257,-0.943,0.0
13.156,1.155,-0.942,0.0
12.159,1.068,-0.941,0.0
11.323,0.995,-0.942,0.0
16.444,1.444,-0.915,0.0
15.034,1.321,-0.923,0.0
14.159,1.244,-0.951,0.0
12.847,1.13,-0.939,0.0
11.909,1.048,-0.939,0.0
11.2,0.987,-0.948,0.0
16.12,1.418,-0.92,0.0
14.794,1.302,-0.929,0.0
13.721,1.208,-0.941,0.0
12.585,1.109,-0.937,0.0
11.707,1.032,-0.94,0.0
10.944,0.966,-0.942,0.0
15.768,1.389,-0.922,0.0
14.523,1.28,-0.933,0.0
13.444,1.185,-0.941,0.0
12.339,1.088,-0.936,0.0
11.502,1.015,-0.939,0.0
10.813,0.955,-0.946,0.0
15.436,1.361,-0.924,0.0
14.339,1.265,-0.941,0.0
13.171,1.162,-0.94,0.0
12.164,1.074,-0.94,0.0
11.344,1.002,-0.942,0.0
10.615,0.938,-0.943,0.0
15.069,1.329,-0.923,0.0
14.098,1.244,-0.944,0.0
12.899,1.139,-0.938,0.0
11.92,1.053,-0.937,0.0
11.184,0.988,-0.944,0.0
10.506,0.929,-0.948,0.0
14.795,1.305,-0.926,0.0
13.54,1.195,-0.925,0.0
12.66,1.117,-0.938,0.0
11.746,1.037,-0.939,0.0
11.05,0.976,-0.948,0.0
10.37,0.916,-0.949,0.0
14.58,1.285,-0.931,0.0
13.371,1.179,-0.931,0.0
12.413,1.095,-0.936,0.0
11.568,1.021,-0.94,0.0
10.818,0.955,-0.942,0.0
10.167,0.898,-0.944,0.0
14.326,1.262,-0.934,0.0
13.232,1.165,-0.939,0.0
12.225,1.077,-0.938,0.0
11.369,1.002,-0.939,0.0
10.714,0.944,-0.947,0.0
10.02,0.883,-0.944,0.0
14.213,1.25,-0.945,0.0
13.004,1.144,-0.94,0.0
12.03,1.058,-0.939,0.0
11.222,0.987,-0.942,0.0
10.52,0.926,-0.944,0.0
9.918,0.873,-0.947,0.0
13.733,1.205,-0.931,0.0
12.71,1.115,-0.935,0.0
11.802,1.036,-0.936,0.0
11.106,0.975,-0.946,0.0
10.464,0.919,-0.952,0.0
9.783,0.859,-0.947,0.0
13.475,1.18,-0.93,0.0
12.589,1.102,-0.942,0.0
11.644,1.019,-0.938,0.0
10.832,0.948,-0.936,0.0
10.195,0.893,-0.94,0.0
9.632,0.844,-0.944,0.0
13.338,1.164,-0.938,0.0
12.324,1.076,-0.937,0.0
11.492,1.003,-0.94,0.0
10.772,0.94,-0.945,0.0
10.12,0.883,-0.946,0.0
9.486,0.828,-0.942,0.0
13.116,1.141,-0.938,0.0
12.126,1.055,-0.937,0.0
11.331,0.985,-0.941,0.0
10.665,0.928,-0.948,0.0
9.974,0.867,-0.944,0.0
9.404,0.818,-0.945,0.0
12.91,1.119,-0.939,0.0
11.931,1.034,-0.936,0.0
11.189,0.969,-0.942,0.0
10.436,0.904,-0.94,0.0
9.869,0.855,-0.946,0.0
9.266,0.803,-0.942,0.0
12.678,1.094,-0.937,0.0
11.82,1.02,-0.941,0.0
11.043,0.952,-0.943,0.0
10.325,0.89,-0.942,0.0
9.72,0.838,-0.943,0.0
9.157,0.789,-0.942,0.0
12.49,1.073,-0.937,0.0
11.597,0.996,-0.937,0.0
10.819,0.929,-0.936,0.0
10.199,0.875,-0.943,0.0
9.584,0.822,-0.941,0.0
9.044,0.776,-0.941,0.0
12.297,1.051,-0.936,0.0
11.445,0.977,-0.937,0.0
10.775,0.92,-0.945,0.0
10.102,0.862,-0.945,0.0
9.473,0.808,-0.941,0.0
8.953,0.764,-0.941,0.0
12.15,1.032,-0.939,0.0
11.325,0.961,-0.94,0.0
10.581,0.898,-0.939,0.0
9.92,0.842,-0.939,0.0
9.407,0.798,-0.945,0.0
8.859,0.751,-0.941,0.0
11.946,1.009,-0.936,0.0
11.224,0.947,-0.943,0.0
10.446,0.881,-0.938,0.0
9.853,0.831,-0.943,0.0
9.293,0.783,-0.943,0.0
8.735,0.736,-0.937,0.0
11.806,0.99,-0.937,0.0
11.083,0.929,-0.943,0.0
10.36,0.868,-0.941,0.0
9.756,0.817,-0.943,0.0
9.199,0.77,-0.943,0.0
8.7,0.728,-0.942,0.0
11.658,0.971,-0.937,0.0
11.064,0.921,-0.953,0.0
10.279,0.855,-0.944,0.0
9.599,0.798,-0.938,0.0
9.098,0.756,-0.941,0.0
8.645,0.718,-0.945,0.0
11.524,0.952,-0.937,0.0
10.886,0.899,-0.948,0.0
10.152,0.838,-0.942,0.0
9.525,0.786,-0.94,0.0
9.013,0.743,-0.941,0.0
8.569,0.706,-0.945,0.0
11.384,0.933,-0.937,0.0
10.727,0.879,-0.944,0.0
10.042,0.822,-0.942,0.0
9.422,0.771,-0.939,0.0
8.91,0.728,-0.939,0.0
8.487,0.693,-0.943,0.0
11.323,0.92,-0.942,0.0
10.51,0.854,-0.935,0.0
9.93,0.806,-0.94,0.0
9.4,0.762,-0.945,0.0
8.85,0.717,-0.941,0.0
8.427,0.682,-0.944,0.0
11.239,0.905,-0.945,0.0
10.449,0.841,-0.938,0.0
9.87,0.794,-0.943,0.0
9.303,0.747,-0.943,0.0
8.79,0.706,-0.942,0.0
8.352,0.67,-0.943,0.0
11.102,0.886,-0.943,0.0
10.412,0.83,-0.944,0.0
9.776,0.779,-0.942,0.0
9.19,0.731,-0.94,0.0
8.755,0.696,-0.946,0.0
8.27,0.657,-0.941,0.0
10.96,0.866,-0.94,0.0
10.303,0.813,-0.942,0.0
9.667,0.762,-0.94,0.0
9.148,0.72,-0.943,0.0
8.65,0.681,-0.941,0.0
8.237,0.647,-0.944,0.0
10.843,0.848,-0.938,0.0
10.168,0.794,-0.938,0.0
9.56,0.746,-0.937,0.0
9.066,0.706,-0.941,0.0
8.6,0.669,-0.942,0.0
8.176,0.636,-0.943,0.0
10.755,0.832,-0.939,0.0
10.139,0.783,-0.943,0.0
9.5,0.733,-0.938,0.0
9.03,0.696,-0.944,0.0
8.569,0.66,-0.945,0.0
8.127,0.625,-0.943,0.0
10.628,0.813,-0.935,0.0
10.056,0.768,-0.942,0.0
9.474,0.723,-0.942,0.0
8.941,0.681,-0.941,0.0
8.498,0.646,-0.943,0.0
8.077,0.614,-0.943,0.0
10.543,0.797,-0.934,0.0
9.984,0.753,-0.942,0.0
9.388,0.707,-0.939,0.0
8.896,0.669,-0.942,0.0
8.445,0.635,-0.943,0.0
8.033,0.603,-0.943,0.0
10.469,0.781,-0.935,0.0
9.906,0.738,-0.941,0.0
9.383,0.698,-0.945,0.0
8.832,0.656,-0.941,0.0
8.418,0.625,-0.945,0.0
7.997,0.593,-0.944,0.0
10.432,0.768,-0.938,0.0
9.874,0.726,-0.944,0.0
9.298,0.683,-0.942,0.0
8.801,0.645,-0.943,0.0
8.356,0.612,-0.943,0.0
7.959,0.582,-0.944,0.0
10.389,0.755,-0.939,0.0
9.829,0.713,-0.945,0.0
9.247,0.67,-0.942,0.0
8.727,0.631,-0.939,0.0
8.313,0.6,-0.942,0.0
7.941,0.572,-0.946,0.0
10.335,0.741,-0.94,0.0
9.747,0.697,-0.942,0.0
9.216,0.658,-0.943,0.0
8.713,0.621,-0.942,0.0
8.275,0.589,-0.942,0.0
7.89,0.561,-0.944,0.0
10.288,0.727,-0.941,0.0
9.708,0.684,-0.943,0.0
9.175,0.646,-0.943,0.0
8.669,0.609,-0.942,0.0
8.256,0.579,-0.944,0.0
7.873,0.551,-0.945,0.0
10.275,0.715,-0.944,0.0
9.673,0.672,-0.944,0.0
9.128,0.632,-0.942,0.0
8.637,0.597,-0.942,0.0
8.214,0.567,-0.943,0.0
7.864,0.542,-0.947,0.0
10.236,0.701,-0.944,0.0
9.617,0.657,-0.942,0.0
9.089,0.62,-0.942,0.0
8.588,0.585,-0.94,0.0
8.199,0.557,-0.944,0.0
7.821,0.53,-0.945,0.0
10.192,0.687,-0.944,0.0
9.602,0.645,-0.944,0.0
9.067,0.608,-0.943,0.0
8.536,0.571,-0.937,0.0
8.155,0.545,-0.942,0.0
7.795,0.52,-0.945,0.0
10.152,0.672,-0.944,0.0
9.574,0.633,-0.944,0.0
9.066,0.598,-0.945,0.0
8.528,0.561,-0.939,0.0
8.142,0.535,-0.943,0.0
7.788,0.51,-0.946,0.0
10.135,0.66,-0.945,0.0
9.54,0.619,-0.943,0.0
9.014,0.584,-0.942,0.0
8.554,0.553,-0.944,0.0
8.14,0.525,-0.944,0.0
7.783,0.501,-0.947,0.0
10.113,0.646,-0.945,0.0
9.526,0.608,-0.944,0.0
8.991,0.572,-0.942,0.0
8.529,0.541,-0.943,0.0
8.142,0.516,-0.946,0.0
7.767,0.491,-0.947,0.0
10.112,0.635,-0.947,0.0
9.493,0.594,-0.943,0.0
8.954,0.559,-0.94,0.0
8.508,0.53,-0.942,0.0
8.083,0.502,-0.941,0.0
7.755,0.481,-0.947,0.0
10.08,0.621,-0.945,0.0
9.466,0.581,-0.941,0.0
8.942,0.548,-0.94,0.0
8.491,0.519,-0.941,0.0
8.09,0.493,-0.943,0.0
7.75,0.471,-0.947,0.0
10.049,0.607,-0.944,0.0
9.459,0.569,-0.941,0.0
8.971,0.538,-0.943,0.0
8.462,0.507,-0.939,0.0
8.108,0.484,-0.945,0.0
7.74,0.461,-0.946,0.0
10.043,0.594,-0.944,0.0
9.487,0.559,-0.945,0.0
8.948,0.526,-0.941,0.0
8.473,0.497,-0.94,0.0
8.112,0.474,-0.946,0.0
7.754,0.452,-0.948,0.0
10.046,0.582,-0.944,0.0
9.478,0.547,-0.944,0.0
8.928,0.514,-0.939,0.0
8.488,0.487,-0.942,0.0
8.078,0.462,-0.942,0.0
7.74,0.441,-0.946,0.0
10.052,0.569,-0.944,0.0
9.497,0.536,-0.945,0.0
8.944,0.503,-0.941,0.0
8.475,0.476,-0.94,0.0
8.104,0.453,-0.944,0.0
7.73,0.431,-0.945,0.0
10.047,0.556,-0.943,0.0
9.487,0.524,-0.944,0.0
8.969,0.493,-0.942,0.0
8.504,0.466,-0.942,0.0
8.101,0.443,-0.943,0.0
7.731,0.421,-0.944,0.0
10.1,0.547,-0.947,0.0
9.526,0.514,-0.946,0.0
8.966,0.482,-0.941,0.0
8.502,0.455,-0.941,0.0
8.092,0.432,-0.941,0.0
7.792,0.415,-0.95,0.0
10.14,0.536,-0.949,0.0
9.492,0.5,-0.941,0.0
9.006,0.472,-0.943,0.0
8.548,0.447,-0.944,0.0
8.146,0.424,-0.946,0.0
7.78,0.404,-0.947,0.0
10.132,0.522,-0.946,0.0
9.531,0.49,-0.943,0.0
9.003,0.461,-0.941,0.0
8.564,0.437,-0.944,0.0
8.174,0.415,-0.947,0.0
7.813,0.396,-0.949,0.0
10.149,0.51,-0.945,0.0
9.559,0.479,-0.943,0.0
9.056,0.452,-0.944,0.0
8.589,0.427,-0.944,0.0
8.184,0.405,-0.946,0.0
7.828,0.386,-0.948,0.0
10.168,0.498,-0.944,0.0
9.599,0.468,-0.944,0.0
9.086,0.441,-0.944,0.0
8.62,0.417,-0.945,0.0
8.202,0.395,-0.945,0.0
7.857,0.377,-0.949,0.0
10.217,0.487,-0.945,0.0
9.645,0.458,-0.945,0.0
9.095,0.43,-0.942,0.0
8.623,0.406,-0.942,0.0
8.211,0.385,-0.943,0.0
7.853,0.367,-0.946,0.0
10.278,0.477,-0.946,0.0
9.661,0.446,-0.943,0.0
9.168,0.421,-0.946,0.0
8.683,0.397,-0.945,0.0
8.265,0.377,-0.946,0.0
7.866,0.357,-0.944,0.0
10.309,0.465,-0.945,0.0
9.716,0.436,-0.944,0.0
9.208,0.411,-0.946,0.0
8.678,0.386,-0.941,0.0
8.292,0.367,-0.945,0.0
7.906,0.348,-0.945,0.0
10.354,0.453,-0.944,0.0
9.784,0.426,-0.946,0.0
9.223,0.4,-0.943,0.0
8.702,0.376,-0.939,0.0
8.323,0.358,-0.944,0.0
7.932,0.339,-0.944,0.0
10.408,0.442,-0.943,0.0
9.835,0.416,-0.946,0.0
9.244,0.389,-0.94,0.0
8.738,0.366,-0.938,0.0
8.365,0.348,-0.944,0.0
7.988,0.331,-0.946,0.0
10.496,0.432,-0.945,0.0
9.861,0.404,-0.942,0.0
9.335,0.38,-0.944,0.0
8.827,0.358,-0.942,0.0
8.411,0.339,-0.944,0.0
8.016,0.322,-0.945,0.0
10.559,0.421,-0.945,0.0
9.959,0.395,-0.946,0.0
9.384,0.37,-0.943,0.0
8.898,0.349,-0.944,0.0
8.478,0.331,-0.946,0.0
8.05,0.313,-0.943,0.0
10.628,0.41,-0.944,0.0
9.987,0.383,-0.942,0.0
9.456,0.361,-0.944,0.0
8.963,0.34,-0.945,0.0
8.507,0.321,-0.944,0.0
8.118,0.305,-0.945,0.0
10.72,0.4,-0.944,0.0
10.112,0.375,-0.946,0.0
9.556,0.352,-0.947,0.0
9.039,0.331,-0.946,0.0
8.562,0.312,-0.944,0.0
8.191,0.297,-0.948,0.0
10.797,0.389,-0.943,0.0
10.202,0.365,-0.947,0.0
9.61,0.342,-0.945,0.0
9.057,0.32,-0.941,0.0
8.636,0.304,-0.945,0.0
8.23,0.288,-0.946,0.0
10.91,0.379,-0.944,0.0
10.278,0.355,-0.946,0.0
9.714,0.333,-0.947,0.0
9.166,0.313,-0.945,0.0
8.678,0.294,-0.942,0.0
8.254,0.278,-0.942,0.0
11.018,0.369,-0.945,0.0
10.377,0.345,-0.946,0.0
9.794,0.324,-0.947,0.0
9.246,0.304,-0.945,0.0
8.78,0.286,-0.946,0.0
8.361,0.271,-0.947,0.0
11.133,0.359,-0.945,0.0
10.459,0.335,-0.945,0.0
9.868,0.314,-0.945,0.0
9.343,0.295,-0.947,0.0
8.845,0.277,-0.945,0.0
8.42,0.262,-0.946,0.0
11.255,0.348,-0.945,0.0
10.568,0.325,-0.945,0.0
10.001,0.305,-0.948,0.0
9.412,0.285,-0.945,0.0
8.929,0.269,-0.945,0.0
8.506,0.254,-0.947,0.0
11.366,0.338,-0.943,0.0
10.67,0.315,-0.943,0.0
10.091,0.295,-0.947,0.0
9.52,0.277,-0.946,0.0
9.041,0.261,-0.948,0.0
8.566,0.245,-0.945,0.0
11.502,0.328,-0.943,0.0
10.744,0.304,-0.939,0.0
10.218,0.287,-0.949,0.0
9.588,0.267,-0.943,0.0
9.135,0.252,-0.948,0.0
8.645,0.237,-0.945,0.0
11.666,0.318,-0.944,0.0
11.069,0.299,-0.956,0.0
10.346,0.278,-0.95,0.0
9.722,0.259,-0.946,0.0
9.216,0.244,-0.947,0.0
8.753,0.23,-0.947,0.0
11.845,0.309,-0.946,0.0
11.185,0.289,-0.954,0.0
10.418,0.267,-0.945,0.0
9.878,0.251,-0.95,0.0
9.304,0.235,-0.946,0.0
8.818,0.221,-0.944,0.0
12.005,0.299,-0.945,0.0
11.241,0.277,-0.946,0.0
10.561,0.258,-0.946,0.0
9.969,0.242,-0.948,0.0
9.443,0.227,-0.949,0.0
8.949,0.213,-0.948,0.0
12.214,0.289,-0.947,0.0
11.367,0.267,-0.943,0.0
10.723,0.249,-0.947,0.0
10.092,0.233,-0.947,0.0
9.542,0.218,-0.947,0.0
9.054,0.205,-0.948,0.0
12.408,0.279,-0.948,0.0
11.519,0.257,-0.941,0.0
10.905,0.241,-0.95,0.0
10.249,0.224,-0.949,0.0
9.699,0.211,-0.951,0.0
9.131,0.196,-0.944,0.0
12.608,0.27,-0.947,0.0
11.768,0.249,-0.947,0.0
11.036,0.232,-0.948,0.0
10.357,0.215,-0.946,0.0
9.826,0.202,-0.95,0.0
9.277,0.189,-0.947,0.0
12.817,0.26,-0.946,0.0
11.926,0.239,-0.944,0.0
11.254,0.224,-0.952,0.0
10.506,0.206,-0.946,0.0
9.957,0.194,-0.95,0.0
9.445,0.182,-0.952,0.0
13.097,0.251,-0.95,0.0
12.169,0.231,-0.948,0.0
11.398,0.214,-0.949,0.0
10.706,0.199,-0.95,0.0
10.081,0.185,-0.948,0.0
9.555,0.174,-0.95,0.0
13.293,0.24,-0.946,0.0
12.382,0.221,-0.947,0.0
11.509,0.204,-0.942,0.0
10.849,0.19,-0.947,0.0
10.275,0.178,-0.952,0.0
9.683,0.166,-0.949,0.0
13.464,0.229,-0.94,0.0
12.615,0.212,-0.947,0.0
11.755,0.195,-0.946,0.0
11.086,0.182,-0.952,0.0
10.403,0.169,-0.949,0.0
9.862,0.158,-0.953,0.0
14.03,0.224,-0.959,0.0
12.899,0.204,-0.95,0.0
11.997,0.187,-0.948,0.0
11.255,0.173,-0.95,0.0
10.545,0.16,-0.947,0.0
9.987,0.15,-0.95,0.0
14.204,0.212,-0.95,0.0
13.149,0.194,-0.949,0.0
12.308,0.179,-0.954,0.0
11.387,0.164,-0.945,0.0
10.613,0.151,-0.937,0.0
10.185,0.143,-0.954,0.0
14.49,0.202,-0.948,0.0
13.438,0.185,-0.95,0.0
12.51,0.17,-0.951,0.0
11.642,0.156,-0.948,0.0
11.103,0.147,-0.963,0.0
10.34,0.135,-0.952,0.0
14.773,0.192,-0.944,0.0
20.124,0.258,-1.392,0.0
12.781,0.161,-0.952,0.0
11.897,0.148,-0.951,0.0
11.188,0.137,-0.953,0.0
10.486,0.127,-0.949,0.0
15.102,0.182,-0.941,0.0
20.198,0.24,-1.366,0.0
13.051,0.153,-0.952,0.0
12.201,0.141,-0.956,0.0
11.366,0.129,-0.95,0.0
10.652,0.119,-0.947,0.0
15.473,0.172,-0.94,0.0
14.407,0.158,-0.951,0.0
13.318,0.143,-0.949,0.0
12.426,0.132,-0.953,0.0
11.61,0.121,-0.952,0.0
20.314,0.209,-1.774,0.0
15.951,0.163,-0.943,0.0
14.724,0.148,-0.948,0.0
18.576,0.184,-1.294,0.0
12.728,0.124,-0.955,0.0
11.852,0.113,-0.952,0.0
11.187,0.105,-0.958,0.0
16.366,0.153,-0.94,0.0
15.083,0.139,-0.946,0.0
18.523,0.167,-1.259,1.0
13.029,0.115,-0.956,0.0
12.147,0.106,-0.955,0.0
11.419,0.097,-0.958,0.0
18.522,0.158,-1.032,0.0
15.48,0.129,-0.944,0.0
18.562,0.152,-1.23,0.0
13.337,0.107,-0.955,0.0
12.423,0.098,-0.955,0.0
11.486,0.088,-0.944,0.0
18.453,0.142,-0.997,4.0
15.991,0.12,-0.948,0.0
14.695,0.108,-0.948,0.0
13.616,0.098,-0.951,0.0
12.701,0.09,-0.954,0.0
11.828,0.082,-0.951,0.0
18.446,0.127,-0.964,1.0
16.366,0.111,-0.941,0.0
15.082,0.1,-0.947,0.0
14.088,0.091,-0.96,0.0
13.089,0.082,-0.96,0.0
12.141,0.075,-0.955,0.0
18.477,0.114,-0.933,13.0
16.773,0.101,-0.935,0.0
15.488,0.091,-0.944,0.0
14.38,0.082,-0.954,0.0
13.331,0.074,-0.954,0.0
12.409,0.067,-0.953,0.0
18.519,0.101,-0.902,8.0
17.222,0.091,-0.929,0.0
16.007,0.082,-0.947,1.0
14.72,0.074,-0.95,0.0
13.705,0.067,-0.956,0.0
12.745,0.06,-0.956,0.0
20.25,0.096,-0.95,2.0
18.084,0.083,-0.942,0.0
16.433,0.073,-0.942,0.0
15.142,0.066,-0.949,0.0
13.987,0.059,-0.95,0.0
13.114,0.053,-0.959,0.0
20.245,0.083,-0.912,16.0
18.539,0.073,-0.932,2.0
16.899,0.064,-0.938,0.0
15.588,0.057,-0.948,0.0
14.488,0.052,-0.957,0.0
13.429,0.046,-0.957,0.0
20.863,0.072,-0.901,27.0
0.0,0.0,0.0,0.0
17.455,0.056,-0.936,0.0
16.083,0.049,-0.948,0.0
14.845,0.044,-0.952,0.0
20.268,0.058,-1.406,0.0
20.776,0.059,-0.858,22.0
20.205,0.055,-0.94,2.0
18.218,0.048,-0.942,0.0
16.53,0.041,-0.942,0.0
15.283,0.036,-0.951,0.0
20.274,0.046,-1.367,0.0
20.278,0.046,-0.798,64.0
20.215,0.044,-0.901,10.0
18.765,0.038,-0.934,0.0
16.999,0.033,-0.936,0.0
15.805,0.029,-0.952,0.0
14.596,0.025,-0.956,0.0
20.267,0.035,-0.758,86.0
20.273,0.033,-0.864,65.0
19.911,0.031,-0.952,3.0
20.323,0.029,-1.08,1.0
16.316,0.022,-0.951,0.0
14.993,0.018,-0.952,0.0
20.258,0.025,-0.719,150.0
20.275,0.023,-0.824,150.0
20.104,0.021,-0.922,3.0
18.376,0.017,-0.94,0.0
16.734,0.014,-0.943,0.0
15.474,0.012,-0.952,0.0
20.258,0.016,-0.679,47.0
20.233,0.014,-0.783,15.0
20.252,0.012,-0.888,23.0
16.015,0.005,-0.953,0.0
20.244,0.007,-0.638,5.0
20.245,0.005,-0.743,2.0
19.901,0.002,-0.939,5.0
16.522,0.0,-0.951,0.0
20.233,0.0,-0.597,0.0
20.234,-0.005,-0.914,30.0
32.201,-0.011,-0.886,6.0
58.407,-0.025,-1.909,2.0
24.234,-0.012,-0.918,0.0
32.43,-0.022,-0.826,1.0
29.096,-0.022,-0.892,0.0
20.206,-0.019,-0.934,32.0
34.623,-0.034,-0.81,0.0
31.747,-0.033,-0.907,1.0
58.398,-0.064,-1.971,2.0
37.638,-0.046,-0.803,7.0
32.31,-0.041,-0.856,3.0
28.257,-0.037,-0.895,0.0
24.707,-0.034,-0.912,0.0
41.036,-0.059,-0.791,4.0
34.617,-0.051,-0.845,2.0
58.435,-0.09,-1.728,1.0
20.273,-0.034,-0.915,63.0
20.172,-0.032,-0.346,14.0
37.597,-0.062,-0.838,3.0
32.233,-0.055,-0.885,4.0
27.693,-0.048,-0.906,0.0
24.376,-0.043,-0.923,0.0
20.177,-0.035,-0.303,27.0
20.178,-0.036,-0.407,3.0
34.629,-0.063,-0.877,1.0
30.15,-0.056,-0.922,0.0
20.157,-0.037,-0.26,27.0
20.173,-0.038,-0.365,13.0
58.45,-0.112,-1.358,0.0
58.473,-0.114,-1.665,3.0
26.904,-0.053,-0.904,0.0
20.146,-0.039,-0.218,13.0
20.165,-0.039,-0.321,24.0
20.174,-0.04,-0.425,2.0
32.575,-0.065,-0.858,0.0
58.443,-0.117,-1.841,0.0
24.82,-0.05,-0.91,0.0
20.16,-0.039,-0.175,35.0
20.16,-0.04,-0.279,26.0
20.167,-0.04,-0.382,10.0
34.629,-0.069,-0.839,1.0
