X,Y,Z,Reflectivity
18.017,-1.96,-0.771,2.0
16.239,-1.771,-0.786,1.0
15.18,-1.659,-0.817,1.0
14.183,-1.554,-0.841,1.0
22.805,-2.496,-0.712,5.0
20.418,-2.24,-0.749,3.0
18.205,-2.001,-0.767,1.0
16.401,-1.807,-0.782,1.0
15.265,-1.686,-0.812,1.0
14.291,-1.582,-0.838,1.0
23.194,-2.565,-0.709,5.0
20.635,-2.286,-0.743,4.0
18.348,-2.037,-0.761,2.0
16.632,-1.851,-0.782,1.0
15.388,-1.716,-0.807,1.0
14.389,-1.608,-0.833,1.0
23.456,-2.619,-0.7,5.0
20.858,-2.334,-0.736,3.0
18.721,-2.099,-0.763,1.0
16.819,-1.89,-0.778,1.0
15.532,-1.749,-0.804,1.0
14.576,-1.645,-0.834,1.0
24.186,-2.726,-0.704,5.0
21.188,-2.393,-0.732,3.0
18.97,-2.147,-0.759,1.0
17.044,-1.933,-0.776,1.0
15.691,-1.783,-0.8,0.0
14.654,-1.668,-0.827,1.0
24.584,-2.796,-0.697,5.0
21.616,-2.463,-0.73,4.0
19.245,-2.197,-0.755,1.0
17.234,-1.971,-0.771,1.0
15.862,-1.818,-0.796,1.0
14.819,-1.702,-0.824,1.0
24.946,-2.862,-0.687,5.0
21.985,-2.527,-0.725,4.0
19.572,-2.253,-0.752,1.0
17.518,-2.021,-0.77,0.0
16.042,-1.854,-0.792,1.0
14.984,-1.735,-0.821,1.0
25.482,-2.948,-0.681,3.0
22.188,-2.571,-0.713,4.0
19.865,-2.306,-0.746,1.0
17.716,-2.06,-0.763,1.0
16.206,-1.888,-0.786,1.0
15.109,-1.763,-0.815,1.0
25.991,-3.03,-0.673,4.0
22.733,-2.655,-0.711,5.0
20.271,-2.371,-0.744,1.0
18.083,-2.119,-0.764,0.0
16.43,-1.928,-0.783,1.0
15.298,-1.798,-0.812,1.0
26.322,-3.092,-0.659,1.0
23.08,-2.715,-0.702,5.0
20.575,-2.424,-0.737,2.0
18.491,-2.182,-0.765,1.0
16.683,-1.972,-0.78,1.0
15.412,-1.825,-0.804,1.0
27.06,-3.201,-0.653,1.0
23.572,-2.792,-0.696,3.0
21.025,-2.494,-0.734,3.0
18.875,-2.242,-0.763,2.0
16.934,-2.015,-0.776,1.0
15.581,-1.857,-0.799,1.0
27.941,-3.327,-0.649,6.0
24.155,-2.88,-0.691,2.0
21.493,-2.566,-0.731,4.0
19.14,-2.288,-0.756,2.0
17.226,-2.063,-0.774,1.0
15.807,-1.896,-0.796,1.0
28.354,-3.397,-0.632,7.0
24.942,-2.992,-0.69,3.0
21.88,-2.628,-0.723,4.0
19.513,-2.347,-0.752,2.0
17.511,-2.109,-0.77,1.0
16.012,-1.931,-0.79,1.0
28.933,-3.487,-0.617,8.0
25.411,-3.066,-0.679,3.0
22.311,-2.695,-0.716,3.0
19.831,-2.399,-0.745,1.0
17.841,-2.161,-0.767,0.0
16.271,-1.973,-0.787,1.0
29.321,-3.553,-0.596,21.0
25.961,-3.15,-0.668,2.0
22.829,-2.773,-0.71,3.0
20.263,-2.464,-0.742,2.0
18.224,-2.219,-0.766,0.0
16.46,-2.006,-0.78,1.0
29.731,-3.621,-0.575,26.0
26.573,-3.24,-0.657,3.0
23.258,-2.839,-0.7,2.0
20.701,-2.529,-0.737,3.0
18.685,-2.286,-0.766,1.0
16.837,-2.062,-0.781,1.0
30.211,-3.697,-0.554,23.0
27.231,-3.336,-0.646,2.0
23.902,-2.931,-0.695,2.0
21.177,-2.599,-0.732,3.0
18.927,-2.325,-0.756,1.0
17.127,-2.107,-0.777,1.0
30.955,-3.805,-0.536,18.0
27.993,-3.444,-0.635,5.0
24.504,-3.017,-0.687,2.0
21.675,-2.671,-0.727,4.0
19.359,-2.388,-0.753,2.0
17.425,-2.152,-0.772,1.0
31.692,-3.911,-0.515,23.0
28.54,-3.525,-0.617,10.0
25.242,-3.12,-0.681,3.0
22.198,-2.746,-0.721,4.0
19.686,-2.437,-0.745,2.0
17.684,-2.192,-0.764,1.0
32.691,-4.049,-0.497,26.0
28.792,-3.568,-0.592,22.0
25.75,-3.194,-0.668,3.0
22.639,-2.81,-0.711,4.0
20.213,-2.511,-0.744,1.0
18.257,-2.27,-0.77,1.0
33.424,-4.153,-0.472,28.0
29.207,-3.631,-0.569,19.0
26.458,-3.292,-0.658,2.0
23.237,-2.893,-0.705,3.0
20.635,-2.571,-0.737,3.0
18.554,-2.313,-0.762,2.0
34.065,-4.244,-0.444,23.0
30.087,-3.751,-0.554,20.0
27.222,-3.396,-0.647,3.0
23.713,-2.96,-0.693,3.0
21.119,-2.638,-0.731,3.0
18.981,-2.372,-0.759,1.0
34.652,-4.328,-0.414,19.0
30.853,-3.856,-0.534,22.0
28.032,-3.505,-0.635,7.0
24.489,-3.063,-0.689,2.0
21.729,-2.72,-0.728,3.0
19.346,-2.423,-0.752,1.0
39.735,-4.974,-0.431,8.0
31.71,-3.971,-0.513,22.0
28.469,-3.566,-0.613,19.0
25.199,-3.158,-0.681,2.0
22.325,-2.799,-0.723,4.0
19.79,-2.483,-0.747,2.0
39.914,-5.005,-0.388,19.0
32.721,-4.104,-0.493,24.0
28.872,-3.623,-0.59,18.0
25.865,-3.247,-0.669,3.0
22.788,-2.861,-0.712,4.0
20.279,-2.548,-0.742,2.0
40.11,-5.036,-0.344,15.0
33.554,-4.214,-0.467,29.0
29.572,-3.715,-0.57,25.0
26.681,-3.353,-0.66,3.0
23.35,-2.935,-0.703,4.0
20.785,-2.614,-0.737,2.0
40.427,-5.081,-0.301,3.0
34.29,-4.31,-0.439,28.0
30.176,-3.794,-0.548,22.0
27.417,-3.448,-0.647,7.0
23.91,-3.007,-0.692,3.0
21.314,-2.682,-0.732,3.0
45.884,-5.771,-0.289,21.0
34.897,-4.389,-0.407,15.0
31.091,-3.911,-0.529,23.0
28.017,-3.525,-0.629,9.0
24.721,-3.11,-0.688,2.0
21.969,-2.765,-0.729,4.0
46.547,-5.856,-0.241,21.0
39.82,-5.009,-0.419,13.0
32.126,-4.041,-0.51,24.0
28.505,-3.586,-0.608,21.0
25.467,-3.204,-0.679,3.0
22.506,-2.832,-0.721,4.0
47.909,-6.026,-0.193,22.0
39.983,-5.029,-0.375,15.0
33.005,-4.151,-0.486,25.0
29.061,-3.655,-0.586,21.0
26.146,-3.288,-0.667,3.0
23.04,-2.897,-0.711,5.0
49.884,-6.271,-0.143,20.0
40.268,-5.062,-0.33,12.0
33.864,-4.256,-0.459,27.0
29.782,-3.743,-0.566,23.0
26.958,-3.387,-0.657,4.0
23.565,-2.961,-0.7,3.0
55.686,-6.995,-0.094,11.0
45.719,-5.741,-0.322,7.0
34.578,-4.341,-0.429,21.0
30.447,-3.822,-0.543,21.0
27.751,-3.483,-0.643,7.0
24.31,-3.05,-0.694,2.0
56.491,-7.087,-0.031,4.0
46.228,-5.798,-0.272,21.0
39.731,-4.981,-0.446,7.0
31.418,-3.938,-0.524,20.0
28.322,-3.549,-0.624,18.0
25.104,-3.145,-0.688,2.0
68.979,-8.64,0.041,4.0
47.45,-5.941,-0.225,22.0
39.888,-4.992,-0.402,21.0
32.52,-4.068,-0.505,25.0
28.813,-3.603,-0.601,22.0
25.677,-3.21,-0.674,3.0
69.045,-8.631,0.12,10.0
48.694,-6.084,-0.175,22.0
40.157,-5.015,-0.359,15.0
33.385,-4.167,-0.481,26.0
29.405,-3.669,-0.58,22.0
26.526,-3.309,-0.665,2.0
69.144,-8.623,0.2,15.0
55.551,-6.924,-0.136,6.0
40.49,-5.044,-0.316,10.0
34.11,-4.247,-0.452,20.0
30.164,-3.754,-0.561,20.0
27.37,-3.404,-0.655,3.0
69.377,-8.629,0.279,4.0
55.76,-6.93,-0.074,7.0
46.038,-5.718,-0.306,20.0
39.734,-4.932,-0.481,2.0
31.12,-3.861,-0.543,13.0
28.112,-3.486,-0.641,7.0
80.4,-9.969,0.416,11.0
80.82,-10.013,-0.013,5.0
46.943,-5.811,-0.259,21.0
39.755,-4.918,-0.436,15.0
32.068,-3.964,-0.523,25.0
28.643,-3.539,-0.62,15.0
80.393,-9.933,0.507,31.0
80.87,-9.983,0.077,14.0
48.256,-5.952,-0.211,22.0
39.972,-4.926,-0.393,20.0
33.015,-4.066,-0.501,25.0
29.084,-3.579,-0.597,20.0
80.337,-9.887,0.597,28.0
80.628,-9.914,0.168,28.0
50.019,-6.145,-0.162,19.0
40.28,-4.944,-0.35,15.0
33.848,-4.151,-0.476,29.0
29.93,-3.668,-0.581,25.0
80.337,-9.845,0.687,29.0
80.46,-9.85,0.257,33.0
55.699,-6.812,-0.119,13.0
45.612,-5.573,-0.347,11.0
34.524,-4.214,-0.447,25.0
30.655,-3.739,-0.561,23.0
80.303,-9.795,0.776,29.0
80.341,-9.789,0.346,35.0
56.188,-6.839,-0.058,5.0
46.291,-5.628,-0.3,21.0
39.662,-4.818,-0.47,7.0
31.674,-3.843,-0.545,23.0
80.336,-9.749,0.866,15.0
80.375,-9.742,0.435,32.0
81.069,-9.816,0.004,11.0
47.534,-5.749,-0.256,23.0
39.858,-4.815,-0.428,17.0
32.694,-3.946,-0.527,30.0
80.609,-9.729,0.955,4.0
80.258,-9.675,0.521,26.0
80.799,-9.728,0.092,32.0
48.739,-5.861,-0.21,23.0
40.155,-4.823,-0.388,15.0
33.412,-4.009,-0.502,28.0
153.575,-18.43,1.986,21.0
80.176,-9.608,0.607,29.0
80.315,-9.612,0.177,27.0
50.429,-6.027,-0.164,12.0
40.4,-4.823,-0.348,7.0
34.152,-4.072,-0.477,27.0
153.81,-18.343,2.151,15.0
80.079,-9.535,0.691,29.0
80.188,-9.535,0.262,28.0
55.782,-6.624,-0.122,23.0
45.987,-5.454,-0.347,20.0
34.873,-4.13,-0.45,23.0
192.331,-22.784,2.894,19.0
80.07,-9.471,0.774,29.0
80.128,-9.464,0.346,34.0
56.544,-6.668,-0.064,4.0
47.199,-5.558,-0.307,21.0
39.776,-4.678,-0.472,9.0
192.31,-22.622,3.091,17.0
80.151,-9.413,0.858,14.0
80.03,-9.385,0.426,37.0
80.714,-9.45,-0.011,16.0
48.223,-5.637,-0.265,22.0
39.979,-4.667,-0.434,17.0
192.39,-22.464,3.286,23.0
80.761,-9.413,0.946,6.0
79.929,-9.301,0.507,7.0
65.306,-7.587,0.057,2.0
49.893,-5.787,-0.224,23.0
40.191,-4.655,-0.396,15.0
85.365,-9.889,1.544,12.0
84.707,-9.796,1.077,26.0
65.429,-7.553,0.479,1.0
65.171,-7.51,0.12,0.0
50.74,-5.838,-0.178,7.0
44.945,-5.162,-0.399,3.0
85.236,-9.794,1.624,30.0
84.288,-9.666,1.153,38.0
65.298,-7.474,0.542,2.0
65.21,-7.45,0.184,159.0
55.716,-6.355,-0.141,20.0
45.952,-5.232,-0.363,20.0
85.127,-9.695,1.705,20.0
84.045,-9.553,1.231,29.0
65.204,-7.397,0.604,0.0
65.145,-7.377,0.246,197.0
56.544,-6.39,-0.09,4.0
47.474,-5.356,-0.33,22.0
84.922,-9.583,1.781,9.0
84.088,-9.47,1.311,21.0
0.0,0.0,0.0,0.0
65.12,-7.304,0.307,150.0
65.272,-7.308,-0.043,1.0
48.304,-5.397,-0.292,6.0
82.981,-9.275,1.817,29.0
84.437,-9.417,1.393,11.0
0.0,0.0,0.0,0.0
65.128,-7.233,0.367,1.0
65.074,-7.212,0.016,7.0
50.606,-5.597,-0.259,24.0
82.291,-9.104,1.876,43.0
82.183,-9.072,1.432,27.0
0.0,0.0,0.0,0.0
65.06,-7.15,0.425,3.0
64.916,-7.12,0.074,2.0
54.57,-5.972,-0.231,10.0
81.848,-8.961,1.938,36.0
82.152,-8.974,1.502,28.0
0.0,0.0,0.0,0.0
65.098,-7.078,0.481,1.0
64.959,-7.047,0.13,1.0
55.507,-6.009,-0.188,29.0
81.776,-8.856,2.007,40.0
82.03,-8.862,1.57,43.0
0.0,0.0,0.0,0.0
65.078,-6.997,0.536,22.0
65.009,-6.973,0.184,4.0
56.068,-6.001,-0.143,17.0
81.894,-8.767,2.078,38.0
81.995,-8.756,1.637,43.0
0.0,0.0,0.0,0.0
65.076,-6.915,0.589,0.0
65.068,-6.898,0.238,150.0
65.339,-6.909,-0.113,5.0
81.728,-8.645,2.14,36.0
81.871,-8.638,1.701,40.0
81.941,-8.623,1.259,6.0
0.0,0.0,0.0,0.0
65.089,-6.815,0.289,165.0
65.198,-6.81,-0.062,4.0
81.642,-8.53,2.202,37.0
81.881,-8.532,1.764,42.0
81.95,-8.516,1.323,14.0
0.0,0.0,0.0,0.0
65.09,-6.728,0.339,177.0
64.955,-6.697,-0.012,2.0
81.754,-8.431,2.267,37.0
81.967,-8.43,1.828,45.0
81.933,-8.403,1.384,30.0
0.0,0.0,0.0,0.0
65.089,-6.639,0.387,180.0
64.991,-6.611,0.035,4.0
81.777,-8.322,2.327,39.0
82.355,-8.356,1.897,55.0
81.844,-8.28,1.441,47.0
0.0,0.0,0.0,0.0
65.108,-6.549,0.434,150.0
64.964,-6.517,0.08,18.0
82.214,-8.249,2.397,47.0
82.588,-8.262,1.96,22.0
81.765,-8.155,1.496,44.0
0.0,0.0,0.0,0.0
65.074,-6.452,0.478,3.0
64.993,-6.426,0.125,6.0
82.275,-8.136,2.455,38.0
82.419,-8.125,2.012,35.0
81.794,-8.039,1.551,41.0
0.0,0.0,0.0,0.0
65.102,-6.36,0.52,20.0
65.019,-6.333,0.167,3.0
82.182,-8.005,2.505,45.0
82.222,-7.984,2.059,40.0
81.929,-7.931,1.606,38.0
0.0,0.0,0.0,0.0
65.079,-6.26,0.561,1.0
65.147,-6.248,0.207,161.0
82.069,-7.872,2.551,45.0
82.035,-7.843,2.104,46.0
82.427,-7.855,1.665,40.0
82.07,-7.795,1.203,3.0
54.973,-5.205,0.506,1.0
65.184,-6.152,0.245,178.0
81.995,-7.739,2.597,41.0
81.957,-7.71,2.149,42.0
82.882,-7.77,1.721,30.0
54.965,-5.135,0.836,156.0
54.965,-5.118,0.537,153.0
54.964,-5.101,0.238,158.0
82.015,-7.612,2.643,44.0
82.114,-7.595,2.198,39.0
82.971,-7.647,1.768,15.0
54.955,-5.048,0.866,150.0
54.961,-5.03,0.566,157.0
54.938,-5.012,0.266,147.0
82.107,-7.49,2.688,42.0
82.202,-7.471,2.243,43.0
83.149,-7.53,1.814,31.0
0.0,0.0,0.0,0.0
0.0,0.0,0.0,0.0
0.0,0.0,0.0,0.0
82.269,-7.371,2.734,41.0
82.295,-7.345,2.285,44.0
83.105,-7.39,1.853,41.0
0.0,0.0,0.0,0.0
0.0,0.0,0.0,0.0
0.0,0.0,0.0,0.0
82.25,-7.232,2.771,46.0
82.285,-7.206,2.322,10.0
83.178,-7.256,1.892,27.0
0.0,0.0,0.0,0.0
0.0,0.0,0.0,0.0
0.0,0.0,0.0,0.0
82.251,-7.094,2.806,55.0
82.484,-7.085,2.362,28.0
83.041,-7.106,1.923,14.0
0.0,0.0,0.0,0.0
0.0,0.0,0.0,0.0
0.0,0.0,0.0,0.0
82.158,-6.946,2.834,44.0
82.144,-6.916,2.383,43.0
82.565,-6.923,1.943,48.0
84.847,-7.085,1.522,11.0
82.014,-6.821,1.023,38.0
79.399,-6.578,0.555,26.0
82.073,-6.798,2.86,40.0
82.404,-6.796,2.419,47.0
82.446,-6.771,1.968,42.0
83.193,-6.804,1.521,59.0
81.952,-6.674,1.049,37.0
79.491,-6.448,0.581,29.0
82.527,-6.691,2.902,46.0
82.701,-6.675,2.454,45.0
82.359,-6.618,1.991,45.0
82.82,-6.626,1.539,41.0
82.032,-6.535,1.073,40.0
79.346,-6.294,0.602,9.0
82.43,-6.535,2.922,41.0
82.669,-6.525,2.475,43.0
82.361,-6.471,2.013,53.0
82.624,-6.462,1.557,34.0
81.944,-6.381,1.094,36.0
65.739,-5.097,0.516,4.0
82.517,-6.394,2.945,40.0
82.435,-6.358,2.488,36.0
82.44,-6.329,2.034,41.0
82.743,-6.324,1.578,56.0
82.002,-6.239,1.112,8.0
65.632,-4.971,0.529,7.0
82.571,-6.25,2.964,33.0
82.708,-6.229,2.513,57.0
82.432,-6.179,2.05,39.0
83.07,-6.197,1.6,42.0
0.0,0.0,0.0,0.0
65.621,-4.85,0.541,6.0
82.895,-6.123,2.99,47.0
82.961,-6.097,2.534,55.0
82.432,-6.028,2.063,37.0
82.938,-6.035,1.61,37.0
0.0,0.0,0.0,0.0
65.577,-4.726,0.55,1.0
83.043,-5.978,3.007,42.0
82.756,-5.927,2.538,48.0
82.456,-5.877,2.074,46.0
82.961,-5.883,1.62,38.0
0.0,0.0,0.0,0.0
65.561,-4.603,0.557,80.0
83.13,-5.83,3.017,37.0
83.586,-5.832,2.571,38.0
82.665,-5.738,2.086,36.0
82.899,-5.724,1.625,16.0
0.0,0.0,0.0,0.0
65.585,-4.482,0.561,162.0
24.525,-1.674,0.891,18.0
24.55,-1.667,0.756,24.0
24.6,-1.661,0.622,16.0
24.594,-1.652,0.483,16.0
24.587,-1.642,0.347,17.0
65.571,-4.358,0.563,11.0
24.481,-1.624,0.89,46.0
24.505,-1.617,0.755,54.0
24.551,-1.611,0.621,49.0
24.56,-1.603,0.482,37.0
24.54,-1.593,0.346,42.0
24.527,-1.583,0.21,45.0
24.467,-1.577,0.889,72.0
24.498,-1.57,0.754,65.0
24.531,-1.563,0.62,71.0
24.538,-1.554,0.481,73.0
24.546,-1.546,0.345,76.0
24.514,-1.535,0.209,55.0
24.47,-1.53,0.888,70.0
24.5,-1.522,0.753,63.0
24.531,-1.515,0.618,55.0
24.544,-1.507,0.479,68.0
24.537,-1.497,0.343,76.0
24.517,-1.488,0.207,62.0
24.488,-1.483,0.886,51.0
24.536,-1.477,0.752,64.0
24.548,-1.468,0.615,73.0
24.558,-1.46,0.477,64.0
24.54,-1.45,0.34,46.0
24.533,-1.441,0.204,42.0
24.543,-1.439,0.885,50.0
24.571,-1.431,0.749,51.0
24.581,-1.422,0.613,40.0
24.582,-1.413,0.473,38.0
24.596,-1.405,0.337,36.0
24.58,-1.395,0.2,33.0
24.607,-1.394,0.883,4.0
24.643,-1.387,0.747,3.0
83.594,-4.675,2.07,39.0
24.61,-1.367,0.469,1.0
0.0,0.0,0.0,0.0
65.688,-3.603,0.523,6.0
83.808,-4.585,2.991,37.0
84.12,-4.571,2.533,40.0
83.922,-4.529,2.059,37.0
85.803,-4.599,1.618,42.0
66.974,-3.564,0.89,0.0
0.0,0.0,0.0,0.0
84.924,-4.478,3.009,41.0
84.262,-4.412,2.515,34.0
84.672,-4.403,2.055,44.0
86.071,-4.444,1.6,40.0
82.809,-4.246,1.077,30.0
66.896,-3.406,0.497,0.0
85.114,-4.319,2.992,35.0
84.986,-4.281,2.512,31.0
84.605,-4.232,2.028,44.0
0.0,0.0,0.0,0.0
82.858,-4.084,1.052,27.0
79.769,-3.903,0.568,3.0
85.048,-4.147,2.961,31.0
85.117,-4.12,2.487,22.0
84.72,-4.069,2.002,44.0
86.378,-4.117,1.549,6.0
83.056,-3.928,1.025,40.0
31.317,-1.47,0.211,4.0
0.0,0.0,0.0,0.0
85.387,-3.962,2.463,17.0
85.008,-3.913,1.976,35.0
31.306,-1.429,0.549,24.0
31.254,-1.416,0.373,30.0
31.255,-1.405,0.198,48.0
165.913,-7.43,5.648,5.0
31.346,-1.392,0.891,10.0
31.312,-1.379,0.714,19.0
28.451,-1.243,0.487,62.0
28.449,-1.233,0.328,66.0
28.435,-1.222,0.168,72.0
28.445,-1.217,0.955,63.0
28.426,-1.206,0.795,86.0
28.422,-1.195,0.635,110.0
28.43,-1.185,0.473,109.0
28.447,-1.176,0.314,129.0
28.443,-1.166,0.155,151.0
28.443,-1.16,0.941,138.0
28.447,-1.15,0.782,150.0
28.437,-1.14,0.622,77.0
28.446,-1.13,0.459,66.0
28.457,-1.12,0.3,67.0
28.469,-1.111,0.14,29.0
28.442,-1.104,0.926,27.0
31.283,-1.203,0.843,54.0
31.291,-1.192,0.667,53.0
31.258,-1.179,0.488,42.0
31.322,-1.171,0.313,48.0
31.323,-1.16,0.137,21.0
31.291,-1.152,1.001,51.0
31.301,-1.141,0.826,44.0
31.333,-1.131,0.65,37.0
31.381,-1.122,0.472,1.0
83.156,-2.945,0.783,12.0
80.443,-2.82,0.305,28.0
31.352,-1.092,0.985,32.0
31.439,-1.083,0.81,2.0
38.749,-1.322,0.78,2.0
38.728,-1.307,0.558,5.0
38.73,-1.294,0.34,15.0
38.715,-1.28,0.122,36.0
38.658,-1.27,1.189,60.0
38.638,-1.255,0.971,68.0
38.633,-1.241,0.753,66.0
38.627,-1.228,0.531,62.0
38.643,-1.215,0.314,68.0
38.654,-1.202,0.096,59.0
38.585,-1.19,1.161,64.0
38.647,-1.178,0.944,82.0
38.635,-1.165,0.726,113.0
38.633,-1.151,0.504,103.0
38.643,-1.138,0.287,87.0
38.658,-1.125,0.069,83.0
38.567,-1.114,1.132,68.0
38.622,-1.102,0.916,75.0
38.632,-1.089,0.698,68.0
38.618,-1.075,0.476,66.0
38.645,-1.062,0.258,67.0
38.676,-1.05,0.04,63.0
38.593,-1.039,1.104,64.0
38.657,-1.027,0.887,41.0
38.692,-1.014,0.669,35.0
38.711,-1.002,0.447,21.0
38.75,-0.99,0.229,12.0
38.799,-0.979,0.01,9.0
38.678,-0.966,1.076,46.0
0.0,0.0,0.0,0.0
40.41,-0.982,0.667,34.0
40.415,-0.968,0.435,37.0
40.404,-0.954,0.206,43.0
40.407,-0.941,-0.021,39.0
40.408,-0.93,1.091,37.0
40.401,-0.916,0.862,38.0
40.424,-0.903,0.633,4.0
38.379,-0.845,0.381,21.0
38.374,-0.832,0.163,52.0
38.371,-0.819,-0.053,47.0
45.692,-0.964,1.194,11.0
38.428,-0.798,0.786,5.0
52.952,-1.082,0.784,21.0
52.946,-1.065,0.479,64.0
52.964,-1.047,0.179,56.0
52.951,-1.029,-0.12,19.0
156.43,-3.002,3.949,5.0
191.64,-3.614,3.751,20.0
193.005,-3.577,2.684,37.0
62.216,-1.132,0.506,2.0
20.14,-0.36,0.049,27.0
20.116,-0.353,-0.064,10.0
176.607,-3.053,4.294,45.0
176.612,-2.994,3.291,70.0
20.163,-0.335,0.261,2.0
20.122,-0.327,0.144,11.0
20.131,-0.321,0.03,34.0
59.594,-0.932,-0.247,1.0
53.503,-0.822,1.248,101.0
20.145,-0.303,0.355,8.0
20.118,-0.296,0.241,13.0
20.129,-0.29,0.124,9.0
59.529,-0.839,0.031,76.0
56.28,-0.775,-0.289,0.0
20.158,-0.271,0.45,10.0
20.128,-0.265,0.335,13.0
20.147,-0.259,0.22,10.0
56.242,-0.704,0.291,1.0
56.286,-0.687,-0.028,1.0
59.548,-0.708,-0.367,4.0
20.15,-0.234,0.429,17.0
20.157,-0.228,0.314,15.0
64.258,-0.706,0.637,34.0
56.166,-0.6,0.232,10.0
56.201,-0.582,-0.087,14.0
58.581,-0.588,-0.424,0.0
20.195,-0.197,0.408,27.0
64.339,-0.608,0.934,28.0
64.35,-0.587,0.568,14.0
53.353,-0.47,0.161,1.0
20.197,-0.172,-0.053,1.0
20.165,-0.165,-0.168,14.0
20.251,-0.16,0.387,28.0
20.193,-0.153,0.27,17.0
20.161,-0.147,0.155,16.0
20.144,-0.141,0.038,25.0
20.168,-0.135,-0.076,24.0
20.157,-0.128,-0.19,19.0
20.138,-0.122,0.361,23.0
20.134,-0.116,0.246,24.0
20.113,-0.11,0.131,20.0
20.124,-0.104,0.015,30.0
20.138,-0.098,-0.099,27.0
20.156,-0.092,-0.214,23.0
20.125,-0.086,0.337,31.0
20.119,-0.08,0.222,26.0
20.121,-0.074,0.108,37.0
20.118,-0.068,-0.008,37.0
20.148,-0.062,-0.123,31.0
20.135,-0.056,-0.238,18.0
20.116,-0.05,0.313,29.0
20.117,-0.044,0.198,39.0
20.129,-0.038,0.083,39.0
20.131,-0.033,-0.032,29.0
20.172,-0.027,-0.148,24.0
20.187,-0.021,-0.263,7.0
20.131,-0.014,0.288,27.0
20.109,-0.009,0.173,27.0
20.195,-0.003,0.058,47.0
20.256,0.002,-0.058,151.0
20.252,0.008,-0.174,151.0
20.26,0.014,-0.29,150.0
20.131,0.019,0.262,28.0
20.146,0.025,0.148,27.0
20.285,0.031,0.033,9.0
20.223,0.037,-0.084,14.0
20.209,0.042,-0.199,10.0
20.146,0.048,-0.314,0.0
20.135,0.054,0.236,28.0
20.155,0.06,0.121,27.0
20.2,0.066,0.006,29.0
20.183,0.071,-0.11,26.0
20.197,0.077,-0.226,17.0
20.248,0.083,-0.342,0.0
20.153,0.088,0.21,29.0
20.195,0.094,0.095,34.0
20.189,0.1,-0.02,29.0
20.175,0.105,-0.137,37.0
20.178,0.111,-0.253,28.0
20.2,0.116,-0.369,24.0
20.179,0.122,0.183,27.0
20.213,0.128,0.067,27.0
20.195,0.133,-0.048,23.0
20.175,0.139,-0.165,24.0
20.178,0.144,-0.281,34.0
20.173,0.15,-0.396,26.0
20.215,0.156,0.155,23.0
20.292,0.162,0.039,27.0
20.213,0.167,-0.076,18.0
20.159,0.171,-0.193,18.0
20.172,0.177,-0.309,33.0
20.177,0.182,-0.425,33.0
20.319,0.189,0.127,29.0
20.324,0.195,0.011,25.0
20.205,0.199,-0.104,0.0
20.164,0.204,-0.222,18.0
20.173,0.209,-0.337,28.0
20.185,0.214,-0.453,24.0
20.319,0.222,0.098,10.0
99.8,1.116,-0.09,1.0
0.0,0.0,0.0,0.0
20.189,0.236,-0.251,10.0
20.179,0.241,-0.367,22.0
20.198,0.246,-0.483,19.0
99.583,1.244,0.334,5.0
0.0,0.0,0.0,0.0
0.0,0.0,0.0,0.0
0.0,0.0,0.0,0.0
20.203,0.272,-0.397,2.0
20.216,0.277,-0.513,2.0
99.737,1.398,0.187,5.0
0.0,0.0,0.0,0.0
0.0,0.0,0.0,0.0
0.0,0.0,0.0,0.0
37.565,0.563,-0.795,0.0
31.885,0.486,-0.858,1.0
99.792,1.549,0.036,4.0
0.0,0.0,0.0,0.0
0.0,0.0,0.0,0.0
42.886,0.697,-0.727,0.0
0.0,0.0,0.0,0.0
30.994,0.518,-0.882,1.0
100.001,1.699,-0.116,1.0
0.0,0.0,0.0,0.0
0.0,0.0,0.0,0.0
0.0,0.0,0.0,0.0
34.166,0.613,-0.828,1.0
28.836,0.524,-0.865,0.0
0.0,0.0,0.0,0.0
0.0,0.0,0.0,0.0
0.0,0.0,0.0,0.0
39.066,0.748,-0.784,0.0
32.586,0.631,-0.841,1.0
27.947,0.548,-0.883,0.0
0.0,0.0,0.0,0.0
0.0,0.0,0.0,0.0
0.0,0.0,0.0,0.0
36.918,0.758,-0.8,0.0
31.521,0.655,-0.864,1.0
26.615,0.559,-0.883,0.0
0.0,0.0,0.0,0.0
0.0,0.0,0.0,0.0
0.0,0.0,0.0,0.0
35.452,0.777,-0.825,0.0
30.141,0.667,-0.875,0.0
25.676,0.574,-0.893,0.0
0.0,0.0,0.0,0.0
0.0,0.0,0.0,0.0
0.0,0.0,0.0,0.0
33.022,0.767,-0.822,0.0
28.6,0.67,-0.876,0.0
24.577,0.581,-0.895,0.0
0.0,0.0,0.0,0.0
0.0,0.0,0.0,0.0
37.658,0.915,-0.778,0.0
32.007,0.785,-0.849,1.0
26.889,0.665,-0.868,0.0
23.708,0.591,-0.902,0.0
0.0,0.0,0.0,0.0
0.0,0.0,0.0,0.0
36.067,0.922,-0.805,0.0
30.653,0.79,-0.864,0.0
26.107,0.678,-0.886,0.0
22.734,0.595,-0.903,0.0
0.0,0.0,0.0,0.0
0.0,0.0,0.0,0.0
34.02,0.912,-0.816,0.0
28.935,0.781,-0.864,0.0
24.896,0.677,-0.887,0.0
21.98,0.602,-0.91,0.0
0.0,0.0,0.0,0.0
38.759,1.077,-0.771,0.0
32.412,0.907,-0.832,1.0
0.0,0.0,0.0,0.0
23.925,0.679,-0.892,0.0
21.072,0.602,-0.908,0.0
0.0,0.0,0.0,0.0
36.662,1.062,-0.792,0.0
31.522,0.919,-0.863,1.0
26.309,0.772,-0.875,0.0
22.899,0.676,-0.893,0.0
20.363,0.605,-0.912,0.0
0.0,0.0,0.0,0.0
0.0,0.0,0.0,0.0
30.019,0.909,-0.873,0.0
25.239,0.769,-0.882,0.0
22.363,0.686,-0.911,0.0
19.812,0.611,-0.922,0.0
0.0,0.0,0.0,0.0
32.769,1.022,-0.821,1.0
28.196,0.885,-0.869,0.0
24.254,0.765,-0.89,0.0
21.301,0.676,-0.905,0.0
18.959,0.605,-0.915,0.0
37.221,1.194,-0.782,0.0
31.924,1.03,-0.856,0.0
26.517,0.86,-0.864,0.0
23.167,0.756,-0.891,0.0
20.537,0.674,-0.909,0.0
18.473,0.609,-0.925,0.0
35.702,1.183,-0.814,0.0
30.003,0.999,-0.857,0.0
25.666,0.859,-0.881,0.0
22.439,0.755,-0.903,0.0
19.93,0.674,-0.917,0.0
17.828,0.605,-0.923,0.0
32.737,1.117,-0.804,0.0
28.437,0.975,-0.863,0.0
24.512,0.844,-0.885,0.0
21.558,0.746,-0.905,0.0
19.172,0.667,-0.916,0.0
17.182,0.6,-0.921,0.0
32.254,1.131,-0.85,0.0
27.095,0.954,-0.87,0.0
23.517,0.832,-0.891,0.0
20.685,0.735,-0.906,0.0
18.538,0.662,-0.919,0.0
16.779,0.602,-0.929,0.0
30.145,1.084,-0.847,1.0
25.955,0.938,-0.879,0.0
22.568,0.819,-0.895,0.0
20.049,0.73,-0.913,0.0
17.992,0.658,-0.924,0.0
16.3,0.599,-0.932,0.0
28.563,1.052,-0.854,0.0
24.765,0.916,-0.883,1.0
21.876,0.812,-0.907,0.0
19.335,0.721,-0.916,0.0
17.541,0.657,-0.932,0.0
15.935,0.599,-0.939,0.0
0.0,0.0,0.0,0.0
23.828,0.901,-0.893,0.0
20.866,0.792,-0.903,0.0
18.604,0.709,-0.915,0.0
16.808,0.643,-0.924,0.0
15.37,0.59,-0.934,0.0
26.029,1.002,-0.872,0.0
22.737,0.878,-0.893,0.0
20.229,0.784,-0.912,5.0
18.085,0.703,-0.922,0.0
16.361,0.639,-0.929,0.0
15.005,0.588,-0.939,0.0
24.678,0.968,-0.871,0.0
22.003,0.866,-0.904,0.0
19.606,0.774,-0.919,0.0
17.617,0.698,-0.93,0.0
15.971,0.635,-0.936,0.0
14.612,0.583,-0.941,0.0
24.203,0.967,-0.898,0.0
20.297,0.814,-0.871,3.0
18.734,0.753,-0.912,0.0
16.89,0.681,-0.922,0.0
15.417,0.624,-0.931,0.0
14.313,0.581,-0.948,0.0
22.507,0.915,-0.876,1.0
20.2,0.823,-0.903,8.0
18.137,0.741,-0.916,0.0
16.417,0.673,-0.926,0.0
15.061,0.619,-0.937,0.0
13.874,0.572,-0.944,0.0
20.28,0.837,-0.826,2.0
19.771,0.818,-0.92,0.0
17.685,0.734,-0.925,0.0
16.022,0.667,-0.933,0.0
14.632,0.611,-0.937,0.0
13.492,0.565,-0.942,0.0
20.229,0.847,-0.86,14.0
18.805,0.789,-0.909,0.0
16.976,0.714,-0.919,0.0
15.53,0.655,-0.932,0.0
14.369,0.608,-0.946,0.0
13.226,0.561,-0.948,0.0
20.185,0.856,-0.895,17.0
20.216,0.86,-1.014,0.0
16.54,0.705,-0.925,0.0
15.145,0.647,-0.937,0.0
14.02,0.601,-0.949,0.0
12.85,0.552,-0.944,0.0
20.068,0.862,-0.926,2.0
20.218,0.87,-1.05,12.0
16.111,0.695,-0.93,0.0
14.709,0.636,-0.936,0.0
13.468,0.584,-0.935,0.0
12.561,0.546,-0.945,0.0
20.064,0.871,-0.962,3.0
20.21,0.879,-1.086,11.0
15.606,0.68,-0.929,0.0
14.416,0.63,-0.943,0.0
13.295,0.582,-0.947,0.0
12.299,0.54,-0.948,0.0
20.215,0.886,-1.005,1.0
16.611,0.73,-0.922,0.0
15.204,0.669,-0.932,0.0
20.178,0.89,-1.357,0.0
12.958,0.573,-0.947,0.0
11.954,0.529,-0.943,0.0
20.231,0.895,-1.042,35.0
16.152,0.716,-0.926,0.0
14.801,0.657,-0.934,0.0
20.221,0.9,-1.396,0.0
12.616,0.562,-0.944,0.0
11.659,0.521,-0.941,0.0
20.238,0.902,-1.079,32.0
15.709,0.701,-0.928,0.0
14.5,0.649,-0.941,0.0
13.288,0.595,-0.941,0.0
12.328,0.553,-0.945,0.0
11.455,0.515,-0.945,0.0
16.723,0.751,-0.921,0.0
15.307,0.688,-0.932,0.0
20.197,0.91,-1.346,0.0
13.002,0.586,-0.944,0.0
12.017,0.543,-0.942,0.0
11.264,0.51,-0.949,0.0
16.24,0.733,-0.923,0.0
14.904,0.674,-0.933,0.0
20.16,0.913,-1.38,0.0
12.668,0.575,-0.942,0.0
11.78,0.535,-0.944,0.0
11.004,0.501,-0.946,0.0
15.894,0.721,-0.931,0.0
14.574,0.662,-0.938,0.0
13.45,0.612,-0.944,0.0
12.425,0.566,-0.945,0.0
11.508,0.525,-0.943,0.0
10.748,0.491,-0.943,0.0
15.363,0.7,-0.927,0.0
14.276,0.651,-0.944,0.0
13.119,0.599,-0.943,0.0
12.109,0.554,-0.943,0.0
11.274,0.516,-0.943,0.0
10.595,0.486,-0.948,0.0
14.997,0.686,-0.931,0.0
20.134,0.922,-1.366,0.0
12.738,0.584,-0.938,0.0
11.822,0.542,-0.941,0.0
11.073,0.509,-0.946,0.0
10.355,0.476,-0.945,0.0
14.652,0.672,-0.935,0.0
13.55,0.622,-0.943,0.0
12.536,0.576,-0.945,0.0
11.529,0.53,-0.937,0.0
10.833,0.498,-0.944,0.0
10.191,0.469,-0.947,0.0
14.358,0.659,-0.94,0.0
13.179,0.605,-0.939,0.0
12.209,0.561,-0.941,0.0
11.385,0.524,-0.945,0.0
10.658,0.491,-0.947,0.0
10.006,0.461,-0.947,0.0
20.269,0.931,-1.362,0.0
12.89,0.592,-0.94,0.0
11.956,0.55,-0.942,0.0
11.146,0.513,-0.944,0.0
10.447,0.481,-0.946,0.0
9.807,0.452,-0.945,0.0
13.522,0.621,-0.931,0.0
12.593,0.579,-0.94,0.0
11.681,0.537,-0.94,0.0
10.959,0.504,-0.946,0.0
10.259,0.472,-0.946,0.0
9.672,0.446,-0.948,0.0
13.369,0.613,-0.942,0.0
12.317,0.565,-0.939,0.0
11.487,0.527,-0.943,0.0
10.72,0.492,-0.943,0.0
10.078,0.463,-0.946,0.0
9.488,0.436,-0.946,0.0
13.055,0.597,-0.941,0.0
12.108,0.554,-0.943,0.0
11.247,0.515,-0.942,0.0
10.462,0.479,-0.938,0.0
9.905,0.454,-0.946,0.0
9.325,0.428,-0.945,0.0
12.725,0.581,-0.938,0.0
11.868,0.542,-0.944,0.0
11.073,0.506,-0.945,0.0
10.328,0.472,-0.942,0.0
9.746,0.445,-0.946,0.0
9.185,0.42,-0.945,0.0
12.516,0.569,-0.943,0.0
11.585,0.527,-0.94,0.0
10.87,0.495,-0.945,0.0
10.181,0.463,-0.945,0.0
9.595,0.437,-0.947,0.0
9.029,0.411,-0.944,0.0
12.264,0.555,-0.943,0.0
11.365,0.515,-0.94,0.0
10.638,0.482,-0.941,0.0
9.995,0.453,-0.944,0.0
9.421,0.427,-0.945,0.0
8.9,0.403,-0.944,0.0
11.987,0.54,-0.94,0.0
11.185,0.504,-0.942,0.0
10.458,0.471,-0.942,0.0
9.846,0.443,-0.945,0.0
9.25,0.416,-0.942,0.0
8.733,0.393,-0.94,0.0
11.724,0.525,-0.938,0.0
11.055,0.495,-0.948,0.0
10.297,0.461,-0.943,0.0
9.702,0.434,-0.946,0.0
9.114,0.408,-0.942,0.0
8.646,0.387,-0.944,0.0
11.546,0.513,-0.941,0.0
10.755,0.478,-0.939,0.0
10.133,0.45,-0.943,0.0
9.484,0.421,-0.939,0.0
8.987,0.399,-0.942,0.0
8.494,0.377,-0.94,0.0
11.31,0.499,-0.938,0.0
10.601,0.467,-0.941,0.0
9.959,0.439,-0.942,0.0
9.377,0.413,-0.942,0.0
8.862,0.39,-0.942,0.0
8.41,0.37,-0.943,0.0
11.162,0.488,-0.942,0.0
10.43,0.456,-0.941,0.0
9.823,0.429,-0.943,0.0
9.235,0.403,-0.941,0.0
8.711,0.38,-0.939,0.0
8.289,0.361,-0.942,0.0
10.958,0.474,-0.941,0.0
10.282,0.445,-0.942,0.0
9.678,0.418,-0.943,0.0
9.104,0.393,-0.941,0.0
8.675,0.374,-0.947,0.0
8.185,0.353,-0.941,0.0
10.717,0.459,-0.935,0.0
10.128,0.433,-0.942,0.0
9.52,0.407,-0.941,0.0
8.971,0.383,-0.94,0.0
8.504,0.363,-0.94,0.0
8.106,0.346,-0.944,0.0
10.595,0.449,-0.939,0.0
9.977,0.422,-0.942,0.0
9.384,0.397,-0.94,0.0
8.831,0.373,-0.937,0.0
8.39,0.354,-0.939,0.0
8.022,0.338,-0.945,0.0
10.451,0.437,-0.94,0.0
9.85,0.412,-0.943,0.0
9.28,0.387,-0.942,0.0
8.721,0.364,-0.937,0.0
8.327,0.347,-0.943,0.0
7.931,0.33,-0.945,0.0
10.323,0.426,-0.942,0.0
9.715,0.401,-0.943,0.0
9.183,0.378,-0.944,0.0
8.649,0.356,-0.94,0.0
8.235,0.338,-0.943,0.0
7.824,0.321,-0.942,0.0
10.205,0.415,-0.944,0.0
9.576,0.389,-0.941,0.0
9.04,0.367,-0.941,0.0
8.554,0.347,-0.941,0.0
8.154,0.33,-0.944,0.0
7.767,0.314,-0.945,0.0
10.073,0.404,-0.944,0.0
9.466,0.379,-0.942,0.0
8.91,0.356,-0.938,0.0
8.45,0.337,-0.94,0.0
8.056,0.321,-0.943,0.0
7.686,0.306,-0.945,0.0
9.901,0.39,-0.94,0.0
9.34,0.368,-0.941,0.0
8.819,0.346,-0.939,0.0
8.339,0.327,-0.938,0.0
7.998,0.313,-0.946,0.0
7.639,0.299,-0.948,0.0
9.786,0.379,-0.941,0.0
9.226,0.357,-0.94,0.0
8.702,0.336,-0.937,0.0
8.319,0.321,-0.945,0.0
7.884,0.303,-0.942,0.0
7.542,0.29,-0.945,0.0
9.687,0.369,-0.942,0.0
9.133,0.347,-0.941,0.0
8.591,0.326,-0.935,0.0
8.133,0.308,-0.933,0.0
7.819,0.295,-0.943,0.0
7.473,0.281,-0.944,0.0
9.559,0.357,-0.94,0.0
9.054,0.337,-0.943,0.0
8.553,0.318,-0.94,0.0
8.122,0.301,-0.941,0.0
7.753,0.287,-0.943,0.0
7.412,0.274,-0.945,0.0
9.466,0.346,-0.941,0.0
8.937,0.326,-0.94,0.0
8.497,0.309,-0.943,0.0
8.069,0.293,-0.943,0.0
7.676,0.278,-0.942,0.0
7.37,0.266,-0.947,0.0
9.341,0.334,-0.938,0.0
8.812,0.314,-0.936,0.0
8.396,0.299,-0.94,0.0
7.943,0.282,-0.937,0.0
7.654,0.271,-0.947,0.0
7.305,0.258,-0.946,0.0
9.252,0.323,-0.939,0.0
8.771,0.306,-0.94,0.0
8.304,0.289,-0.938,0.0
7.935,0.275,-0.943,0.0
7.564,0.262,-0.943,0.0
7.26,0.25,-0.947,0.0
9.196,0.314,-0.942,0.0
8.663,0.295,-0.937,0.0
8.226,0.279,-0.937,0.0
7.834,0.265,-0.939,0.0
7.558,0.255,-0.949,0.0
7.201,0.242,-0.946,0.0
9.083,0.302,-0.939,0.0
8.633,0.286,-0.942,0.0
8.19,0.271,-0.941,0.0
7.81,0.257,-0.943,0.0
7.441,0.244,-0.941,0.0
7.171,0.235,-0.949,0.0
9.006,0.292,-0.938,0.0
8.53,0.275,-0.938,0.0
8.114,0.261,-0.939,0.0
7.716,0.247,-0.938,0.0
7.398,0.236,-0.942,0.0
7.148,0.227,-0.952,0.0
8.929,0.281,-0.938,0.0
8.471,0.266,-0.938,0.0
8.044,0.251,-0.937,0.0
7.674,0.239,-0.939,0.0
7.343,0.228,-0.941,0.0
7.092,0.219,-0.95,0.0
8.839,0.27,-0.935,0.0
8.432,0.257,-0.941,0.0
8.019,0.243,-0.941,0.0
7.603,0.23,-0.937,0.0
7.324,0.22,-0.945,0.0
7.055,0.211,-0.951,0.0
8.781,0.26,-0.936,0.0
8.368,0.247,-0.94,0.0
7.946,0.233,-0.938,0.0
7.578,0.222,-0.939,0.0
7.294,0.212,-0.946,0.0
7.018,0.203,-0.951,0.0
8.727,0.25,-0.936,0.0
8.346,0.238,-0.943,0.0
7.907,0.224,-0.939,0.0
7.543,0.213,-0.94,0.0
7.282,0.205,-0.95,0.0
6.955,0.195,-0.947,0.0
8.657,0.239,-0.935,0.0
8.273,0.228,-0.941,0.0
7.868,0.215,-0.94,0.0
7.497,0.204,-0.939,0.0
7.248,0.197,-0.95,0.0
0.0,0.0,0.0,0.0
8.647,0.231,-0.939,0.0
8.22,0.218,-0.94,0.0
7.848,0.207,-0.942,0.0
7.451,0.196,-0.938,0.0
7.198,0.188,-0.948,0.0
6.893,0.179,-0.947,0.0
8.592,0.22,-0.938,0.0
8.195,0.209,-0.942,0.0
7.823,0.198,-0.944,0.0
7.455,0.188,-0.943,0.0
7.16,0.179,-0.947,0.0
6.855,0.171,-0.946,0.0
8.536,0.21,-0.937,0.0
8.124,0.199,-0.938,0.0
7.76,0.189,-0.94,0.0
7.377,0.178,-0.937,0.0
7.131,0.171,-0.947,0.0
6.879,0.164,-0.953,0.0
8.523,0.201,-0.939,0.0
8.14,0.19,-0.944,0.0
7.756,0.18,-0.943,0.0
7.342,0.17,-0.936,0.0
7.117,0.163,-0.948,0.0
6.848,0.156,-0.952,0.0
8.513,0.191,-0.942,0.0
8.053,0.18,-0.937,0.0
7.698,0.171,-0.94,0.0
7.388,0.163,-0.945,0.0
7.068,0.155,-0.945,0.0
0.0,0.0,0.0,0.0
8.459,0.181,-0.94,0.0
8.016,0.17,-0.936,0.0
7.705,0.163,-0.944,0.0
0.0,0.0,0.0,0.0
7.085,0.147,-0.95,0.0
6.819,0.141,-0.953,0.0
8.43,0.171,-0.939,0.0
8.041,0.162,-0.942,0.0
7.668,0.154,-0.942,0.0
7.307,0.145,-0.94,0.0
7.04,0.139,-0.946,0.0
6.762,0.132,-0.947,0.0
8.408,0.162,-0.94,0.0
8.02,0.153,-0.942,0.0
7.616,0.144,-0.938,0.0
7.336,0.137,-0.946,0.0
0.0,0.0,0.0,0.0
6.798,0.125,-0.954,0.0
8.386,0.152,-0.939,0.0
8.002,0.144,-0.942,0.0
7.607,0.135,-0.939,0.0
0.0,0.0,0.0,0.0
7.018,0.123,-0.947,0.0
6.723,0.116,-0.945,0.0
8.378,0.143,-0.94,0.0
7.997,0.135,-0.943,0.0
7.612,0.127,-0.941,0.0
0.0,0.0,0.0,0.0
0.0,0.0,0.0,0.0
6.718,0.109,-0.946,0.0
8.311,0.132,-0.934,0.0
7.981,0.126,-0.942,0.0
7.612,0.118,-0.942,0.0
0.0,0.0,0.0,0.0
0.0,0.0,0.0,0.0
6.73,0.101,-0.949,0.0
8.335,0.123,-0.938,0.0
7.969,0.116,-0.942,0.0
7.592,0.11,-0.94,0.0
0.0,0.0,0.0,0.0
0.0,0.0,0.0,0.0
6.73,0.093,-0.949,0.0
8.32,0.114,-0.937,0.0
7.958,0.107,-0.941,0.0
7.627,0.101,-0.945,0.0
0.0,0.0,0.0,0.0
0.0,0.0,0.0,0.0
6.729,0.086,-0.949,0.0
8.3,0.104,-0.935,0.0
7.934,0.098,-0.939,0.0
7.61,0.092,-0.943,0.0
7.291,0.087,-0.946,0.0
0.0,0.0,0.0,0.0
6.735,0.078,-0.95,0.0
8.31,0.095,-0.936,0.0
7.919,0.089,-0.937,0.0
7.598,0.084,-0.942,0.0
7.3,0.079,-0.947,0.0
7.0,0.074,-0.948,0.0
6.739,0.07,-0.951,0.0
8.317,0.085,-0.937,0.0
7.94,0.08,-0.939,0.0
7.601,0.075,-0.942,0.0
7.291,0.071,-0.945,0.0
7.05,0.067,-0.954,0.0
6.764,0.063,-0.954,0.0
8.337,0.076,-0.938,0.0
7.95,0.071,-0.939,0.0
7.635,0.067,-0.945,0.0
7.317,0.062,-0.948,0.0
7.02,0.059,-0.949,0.0
6.746,0.055,-0.95,0.0
8.351,0.067,-0.939,0.0
7.982,0.062,-0.942,0.0
7.589,0.058,-0.938,0.0
7.278,0.054,-0.941,0.0
6.996,0.05,-0.944,0.0
6.779,0.048,-0.953,0.0
8.342,0.057,-0.936,0.0
7.951,0.053,-0.937,0.0
7.627,0.049,-0.941,0.0
0.0,0.0,0.0,0.0
0.0,0.0,0.0,0.0
6.805,0.04,-0.956,0.0
8.375,0.048,-0.938,0.0
8.004,0.044,-0.941,0.0
7.637,0.041,-0.94,0.0
0.0,0.0,0.0,0.0
0.0,0.0,0.0,0.0
6.774,0.032,-0.949,0.0
8.395,0.038,-0.938,0.0
8.005,0.035,-0.939,0.0
7.608,0.032,-0.935,0.0
7.323,0.029,-0.941,0.0
0.0,0.0,0.0,0.0
6.82,0.025,-0.953,0.0
8.432,0.029,-0.939,0.0
8.043,0.026,-0.94,0.0
7.696,0.023,-0.943,0.0
0.0,0.0,0.0,0.0
7.111,0.019,-0.952,0.0
6.807,0.017,-0.949,0.0
8.462,0.02,-0.939,0.0
8.09,0.017,-0.943,0.0
7.721,0.015,-0.943,0.0
0.0,0.0,0.0,0.0
7.071,0.011,-0.943,0.0
6.867,0.009,-0.955,0.0
8.469,0.01,-0.936,0.0
8.034,0.008,-0.933,0.0
7.736,0.006,-0.941,0.0
7.433,0.004,-0.947,0.0
7.123,0.003,-0.947,0.0
6.876,0.001,-0.953,0.0
8.516,0.001,-0.937,0.0
8.082,0.0,-0.935,0.0
7.789,-0.001,-0.944,0.0
7.46,-0.003,-0.946,0.0
7.157,-0.004,-0.948,0.0
6.899,-0.005,-0.952,0.0
8.578,-0.008,-0.94,0.0
8.155,-0.009,-0.939,0.0
7.805,-0.01,-0.942,0.0
7.446,-0.011,-0.941,0.0
7.2,-0.012,-0.95,0.0
6.916,-0.013,-0.951,0.0
8.601,-0.017,-0.938,0.0
8.197,-0.018,-0.939,0.0
7.833,-0.018,-0.941,0.0
7.515,-0.019,-0.945,0.0
7.263,-0.02,-0.954,0.0
6.956,-0.02,-0.952,0.0
8.675,-0.026,-0.941,0.0
8.236,-0.027,-0.938,0.0
7.891,-0.027,-0.943,0.0
7.537,-0.027,-0.943,0.0
7.24,-0.028,-0.946,0.0
7.003,-0.028,-0.954,0.0
8.719,-0.036,-0.94,0.0
8.287,-0.036,-0.939,0.0
7.932,-0.035,-0.942,0.0
7.576,-0.035,-0.943,0.0
7.272,-0.035,-0.945,0.0
7.029,-0.036,-0.953,0.0
8.75,-0.045,-0.937,0.0
8.303,-0.044,-0.935,0.0
7.96,-0.044,-0.94,0.0
7.593,-0.044,-0.94,0.0
7.273,-0.043,-0.94,0.0
7.064,-0.043,-0.952,0.0
8.814,-0.054,-0.938,0.0
8.378,-0.053,-0.937,0.0
8.029,-0.053,-0.942,0.0
7.663,-0.052,-0.942,0.0
7.377,-0.051,-0.948,0.0
7.064,-0.05,-0.947,0.0
8.887,-0.064,-0.938,0.0
8.459,-0.063,-0.94,0.0
8.064,-0.061,-0.94,0.0
7.683,-0.06,-0.939,0.0
7.441,-0.059,-0.95,0.0
7.111,-0.058,-0.947,0.0
8.988,-0.074,-0.942,0.0
8.507,-0.072,-0.938,0.0
8.124,-0.07,-0.94,0.0
7.767,-0.068,-0.942,0.0
7.453,-0.067,-0.945,0.0
7.169,-0.066,-0.949,0.0
9.057,-0.083,-0.941,0.0
8.591,-0.081,-0.94,0.0
8.183,-0.079,-0.94,0.0
7.818,-0.076,-0.942,0.0
7.531,-0.075,-0.948,0.0
7.245,-0.074,-0.952,0.0
9.107,-0.093,-0.938,0.0
8.658,-0.09,-0.939,0.0
8.233,-0.087,-0.938,0.0
7.835,-0.084,-0.936,0.0
7.574,-0.083,-0.947,0.0
7.296,-0.081,-0.952,0.0
9.223,-0.103,-0.941,0.0
8.718,-0.099,-0.937,0.0
8.334,-0.096,-0.941,0.0
7.927,-0.093,-0.94,0.0
7.619,-0.091,-0.945,0.0
7.314,-0.088,-0.947,0.0
9.337,-0.113,-0.944,0.0
8.824,-0.108,-0.94,0.0
8.408,-0.105,-0.941,0.0
8.014,-0.101,-0.942,0.0
7.648,-0.098,-0.941,0.0
7.377,-0.096,-0.948,0.0
9.417,-0.122,-0.942,0.0
8.928,-0.118,-0.942,0.0
8.496,-0.114,-0.942,0.0
8.087,-0.11,-0.942,0.0
7.695,-0.106,-0.938,0.0
7.441,-0.103,-0.948,0.0
9.534,-0.132,-0.944,0.0
9.023,-0.127,-0.942,0.0
8.551,-0.122,-0.939,0.0
8.16,-0.118,-0.941,0.0
7.81,-0.114,-0.943,0.0
7.498,-0.111,-0.947,0.0
9.648,-0.142,-0.944,0.0
9.133,-0.136,-0.943,0.0
8.655,-0.131,-0.941,0.0
8.225,-0.126,-0.94,0.0
7.891,-0.122,-0.944,0.0
7.57,-0.118,-0.947,0.0
9.789,-0.153,-0.947,0.0
9.249,-0.146,-0.945,0.0
8.75,-0.14,-0.941,0.0
8.32,-0.134,-0.941,0.0
7.944,-0.13,-0.941,0.0
7.622,-0.126,-0.944,0.0
9.902,-0.163,-0.946,0.0
9.364,-0.156,-0.945,0.0
8.845,-0.148,-0.941,0.0
8.427,-0.143,-0.942,0.0
8.029,-0.137,-0.942,0.0
7.693,-0.133,-0.944,0.0
10.057,-0.173,-0.949,0.0
9.498,-0.165,-0.947,0.0
8.976,-0.158,-0.943,0.0
8.554,-0.152,-0.946,0.0
8.147,-0.146,-0.945,0.0
7.763,-0.14,-0.943,0.0
10.177,-0.184,-0.947,0.0
9.627,-0.175,-0.948,0.0
9.073,-0.167,-0.942,0.0
8.605,-0.159,-0.941,0.0
8.221,-0.153,-0.943,0.0
7.825,-0.147,-0.94,0.0
10.332,-0.194,-0.948,0.0
9.748,-0.184,-0.947,0.0
9.222,-0.176,-0.945,0.0
8.723,-0.168,-0.942,0.0
8.307,-0.161,-0.942,0.0
7.951,-0.156,-0.944,0.0
10.485,-0.204,-0.949,0.0
9.92,-0.195,-0.951,0.0
9.366,-0.185,-0.948,0.0
8.851,-0.177,-0.944,0.0
8.418,-0.169,-0.943,0.0
8.063,-0.163,-0.947,0.0
10.673,-0.215,-0.951,0.0
10.053,-0.204,-0.95,0.0
9.467,-0.194,-0.945,0.0
8.975,-0.185,-0.945,0.0
8.508,-0.177,-0.941,0.0
8.152,-0.171,-0.946,0.0
10.827,-0.226,-0.95,0.0
10.229,-0.215,-0.952,0.0
9.651,-0.204,-0.95,0.0
9.122,-0.194,-0.947,0.0
8.639,-0.185,-0.944,0.0
8.234,-0.178,-0.943,0.0
11.024,-0.237,-0.951,0.0
10.393,-0.225,-0.952,0.0
9.785,-0.213,-0.949,0.0
9.273,-0.203,-0.95,0.0
8.774,-0.193,-0.946,0.0
8.359,-0.185,-0.946,0.0
11.233,-0.248,-0.953,0.0
10.526,-0.234,-0.949,0.0
9.955,-0.222,-0.951,0.0
9.398,-0.211,-0.949,0.0
8.899,-0.201,-0.946,0.0
8.501,-0.193,-0.949,0.0
11.369,-0.258,-0.948,0.0
10.716,-0.244,-0.95,0.0
10.129,-0.232,-0.952,0.0
9.538,-0.22,-0.948,0.0
9.043,-0.21,-0.947,0.0
8.607,-0.201,-0.948,0.0
11.604,-0.269,-0.95,0.0
10.921,-0.255,-0.952,0.0
10.285,-0.241,-0.951,0.0
9.704,-0.229,-0.95,0.0
9.173,-0.217,-0.947,0.0
8.709,-0.207,-0.945,0.0
11.913,-0.282,-0.957,0.0
11.154,-0.266,-0.955,0.0
10.435,-0.25,-0.949,0.0
9.87,-0.237,-0.951,0.0
9.363,-0.226,-0.952,0.0
8.855,-0.215,-0.947,0.0
12.174,-0.294,-0.959,0.0
11.351,-0.276,-0.954,0.0
10.677,-0.261,-0.954,0.0
10.103,-0.248,-0.957,0.0
9.52,-0.234,-0.952,0.0
8.992,-0.222,-0.947,0.0
12.426,-0.306,-0.959,0.0
11.529,-0.285,-0.95,0.0
10.846,-0.269,-0.951,0.0
10.274,-0.256,-0.956,0.0
9.666,-0.242,-0.951,0.0
9.157,-0.23,-0.95,0.0
12.643,-0.316,-0.955,0.0
11.85,-0.298,-0.957,0.0
11.112,-0.28,-0.956,0.0
10.438,-0.264,-0.954,0.0
9.846,-0.25,-0.952,0.0
9.348,-0.239,-0.954,0.0
12.972,-0.33,-0.958,0.0
12.159,-0.31,-0.962,0.0
11.281,-0.289,-0.952,0.0
10.604,-0.272,-0.952,0.0
10.052,-0.259,-0.956,0.0
9.505,-0.246,-0.954,0.0
13.239,-0.341,-0.956,0.0
12.381,-0.32,-0.959,0.0
11.494,-0.298,-0.951,0.0
10.813,-0.281,-0.953,0.0
10.255,-0.268,-0.958,0.0
9.67,-0.253,-0.954,0.0
13.506,-0.352,-0.952,0.0
12.62,-0.33,-0.956,0.0
11.899,-0.312,-0.964,0.0
11.082,-0.291,-0.957,0.0
10.442,-0.275,-0.957,0.0
9.873,-0.261,-0.957,0.0
13.867,-0.365,-0.954,0.0
12.928,-0.341,-0.957,0.0
12.138,-0.321,-0.962,0.0
11.3,-0.3,-0.957,0.0
10.632,-0.283,-0.956,0.0
10.062,-0.269,-0.958,0.0
14.276,-0.379,-0.957,0.0
13.228,-0.352,-0.956,0.0
12.373,-0.33,-0.959,0.0
11.491,-0.307,-0.952,0.0
10.827,-0.29,-0.954,0.0
10.267,-0.276,-0.959,0.0
14.51,-0.388,-0.948,0.0
13.509,-0.362,-0.953,0.0
12.653,-0.34,-0.959,0.0
11.89,-0.32,-0.964,0.0
11.104,-0.3,-0.959,0.0
10.443,-0.282,-0.957,0.0
14.954,-0.402,-0.95,0.0
13.988,-0.377,-0.962,0.0
12.956,-0.35,-0.958,0.0
12.141,-0.329,-0.963,0.0
11.312,-0.307,-0.956,0.0
10.618,-0.288,-0.953,0.0
15.527,-0.42,-0.958,0.0
14.283,-0.387,-0.956,0.0
13.28,-0.36,-0.958,0.0
12.385,-0.337,-0.96,0.0
11.568,-0.315,-0.957,0.0
10.895,-0.297,-0.959,0.0
15.911,-0.431,-0.953,0.0
14.592,-0.396,-0.95,0.0
13.619,-0.37,-0.958,0.0
12.701,-0.346,-0.961,0.0
11.943,-0.326,-0.966,0.0
11.154,-0.305,-0.961,0.0
15.084,-0.41,-0.955,0.0
14.028,-0.382,-0.961,0.0
12.951,-0.353,-0.956,0.0
12.181,-0.332,-0.963,0.0
11.382,-0.311,-0.959,0.0
15.623,-0.425,-0.96,0.0
14.339,-0.39,-0.956,0.0
13.326,-0.363,-0.959,0.0
12.443,-0.339,-0.96,0.0
11.661,-0.318,-0.961,0.0
19.054,-0.517,-1.036,0.0
16.068,-0.436,-0.957,0.0
14.693,-0.399,-0.952,0.0
13.6,-0.37,-0.953,0.0
12.766,-0.347,-0.961,0.0
12.01,-0.327,-0.967,0.0
18.977,-0.514,-0.996,0.0
15.261,-0.413,-0.96,0.0
14.115,-0.383,-0.962,0.0
13.096,-0.355,-0.961,0.0
12.256,-0.332,-0.963,0.0
19.087,-0.515,-0.966,0.0
15.751,-0.425,-0.961,0.0
14.419,-0.389,-0.956,0.0
13.389,-0.361,-0.957,0.0
12.556,-0.339,-0.963,0.0
19.163,-0.514,-0.933,0.0
19.066,-0.511,-1.028,0.0
14.783,-0.396,-0.952,0.0
13.753,-0.368,-0.957,0.0
12.884,-0.345,-0.963,0.0
19.24,-0.512,-0.9,0.0
19.199,-0.511,-0.998,0.0
15.407,-0.41,-0.962,0.0
14.282,-0.379,-0.966,0.0
13.201,-0.351,-0.962,0.0
19.345,-0.511,-0.868,1.0
19.345,-0.51,-0.968,0.0
17.414,-0.459,-0.962,0.0
15.97,-0.421,-0.967,0.0
14.576,-0.384,-0.958,0.0
13.593,-0.357,-0.964,0.0
19.489,-0.509,-0.837,1.0
19.512,-0.509,-0.939,0.0
19.449,-0.507,-1.037,0.0
16.801,-0.438,-0.984,0.0
14.989,-0.39,-0.956,0.0
13.899,-0.361,-0.959,0.0
19.872,-0.513,-0.815,0.0
19.597,-0.505,-0.905,0.0
19.676,-0.507,-1.011,0.0
16.96,-0.436,-0.961,1.0
15.552,-0.399,-0.962,0.0
14.342,-0.368,-0.962,0.0
20.589,-0.525,-0.805,0.0
19.736,-0.502,-0.874,1.0
19.69,-0.5,-0.974,0.0
17.294,-0.438,-0.946,0.0
16.256,-0.412,-0.974,0.0
14.757,-0.373,-0.961,0.0
21.485,-0.539,-0.798,0.0
19.928,-0.499,-0.844,1.0
19.968,-0.499,-0.948,0.0
19.944,-0.498,-1.053,0.0
16.673,-0.415,-0.966,2.0
15.335,-0.381,-0.968,0.0
22.49,-0.555,-0.792,1.0
20.273,-0.499,-0.818,1.0
20.128,-0.494,-0.916,0.0
20.051,-0.491,-1.019,0.0
17.164,-0.42,-0.961,3.0
15.761,-0.384,-0.964,0.0
23.761,-0.575,-0.79,14.0
20.973,-0.506,-0.805,1.0
20.281,-0.488,-0.884,1.0
20.256,-0.486,-0.989,0.0
17.349,-0.415,-0.937,0.0
16.35,-0.39,-0.968,1.0
23.969,-0.568,-0.75,12.0
21.953,-0.519,-0.8,0.0
20.5,-0.483,-0.853,1.0
20.662,-0.485,-0.969,0.0
16.971,-0.396,-0.971,1.0
25.328,-0.587,-0.742,6.0
23.546,-0.544,-0.812,5.0
20.878,-0.48,-0.828,1.0
20.854,-0.478,-0.937,1.0
20.918,-0.478,-1.048,0.0
17.21,-0.392,-0.951,0.0
27.941,-0.631,-0.765,1.0
23.808,-0.535,-0.775,13.0
21.443,-0.48,-0.809,0.0
21.21,-0.473,-0.912,1.0
21.21,-0.471,-1.021,0.0
18.303,-0.405,-0.976,0.0
0.0,0.0,0.0,0.0
24.862,-0.544,-0.761,1.0
22.302,-0.485,-0.797,1.0
21.491,-0.466,-0.882,1.0
21.513,-0.464,-0.994,0.0
38.428,-0.825,-1.974,1.0
30.503,-0.65,-0.716,31.0
27.246,-0.578,-0.78,0.0
23.378,-0.493,-0.79,1.0
21.849,-0.458,-0.853,1.0
21.924,-0.458,-0.97,0.0
38.415,-0.798,-1.898,0.0
30.878,-0.636,-0.664,30.0
28.685,-0.588,-0.765,6.0
25.477,-0.519,-0.811,4.0
22.395,-0.454,-0.831,2.0
22.493,-0.453,-0.951,0.0
20.229,-0.405,-0.96,0.0
31.504,-0.626,-0.617,9.0
0.0,0.0,0.0,0.0
26.758,-0.525,-0.8,1.0
23.157,-0.452,-0.815,1.0
23.012,-0.446,-0.929,0.0
0.0,0.0,0.0,0.0
37.867,-0.723,-0.669,17.0
30.588,-0.58,-0.698,32.0
27.559,-0.519,-0.772,6.0
24.315,-0.455,-0.809,1.0
23.684,-0.44,-0.911,0.0
21.436,-0.396,-0.935,0.0
38.324,-0.701,-0.604,14.0
31.266,-0.568,-0.654,18.0
28.893,-0.521,-0.754,12.0
25.754,-0.461,-0.808,3.0
24.197,-0.43,-0.884,1.0
22.147,-0.39,-0.924,0.0
44.881,-0.783,-0.622,14.0
36.117,-0.625,-0.687,1.0
30.456,-0.523,-0.736,23.0
26.916,-0.458,-0.793,1.0
25.019,-0.422,-0.866,2.0
25.139,-0.421,-1.0,0.0
45.146,-0.747,-0.539,26.0
38.047,-0.624,-0.651,20.0
30.884,-0.502,-0.688,29.0
28.427,-0.458,-0.783,2.0
25.78,-0.411,-0.844,4.0
25.9,-0.409,-0.982,0.0
52.829,-0.826,-0.53,20.0
38.673,-0.598,-0.588,13.0
31.82,-0.487,-0.648,2.0
30.067,-0.455,-0.771,14.0
26.668,-0.4,-0.822,2.0
26.69,-0.396,-0.961,0.0
53.066,-0.778,-0.432,2.0
44.893,-0.651,-0.598,30.0
37.732,-0.541,-0.698,13.0
30.725,-0.436,-0.73,28.0
27.684,-0.388,-0.802,1.0
20.223,-0.28,-0.69,2.0
56.58,-0.773,-0.355,8.0
45.421,-0.613,-0.52,5.0
38.177,-0.509,-0.635,19.0
31.795,-0.418,-0.696,22.0
28.854,-0.375,-0.782,2.0
20.204,-0.259,-0.652,15.0
56.342,-0.712,-0.25,0.0
52.974,-0.66,-0.509,11.0
44.867,-0.552,-0.664,6.0
35.925,-0.435,-0.721,5.0
30.295,-0.362,-0.765,5.0
20.205,-0.237,-0.615,24.0
56.313,-0.652,-0.145,1.0
59.489,-0.678,-0.462,2.0
44.99,-0.505,-0.583,27.0
37.845,-0.418,-0.69,24.0
20.206,-0.219,-0.473,8.0
20.2,-0.215,-0.578,27.0
56.207,-0.589,-0.043,0.0
56.262,-0.579,-0.335,1.0
46.28,-0.468,-0.515,2.0
38.319,-0.38,-0.629,14.0
20.202,-0.196,-0.436,24.0
20.179,-0.192,-0.54,35.0
56.217,-0.525,0.059,2.0
56.327,-0.515,-0.232,4.0
53.035,-0.475,-0.494,3.0
20.154,-0.176,-0.294,15.0
20.18,-0.172,-0.399,27.0
20.182,-0.168,-0.504,33.0
58.318,-0.476,0.166,5.0
20.232,-0.161,-0.047,2.0
20.161,-0.156,-0.151,14.0
20.153,-0.152,-0.258,26.0
20.155,-0.148,-0.363,28.0
20.164,-0.144,-0.468,33.0
20.175,-0.14,0.093,16.0
20.193,-0.136,-0.011,24.0
20.144,-0.132,-0.116,19.0
20.114,-0.127,-0.222,13.0
20.139,-0.123,-0.327,36.0
20.16,-0.119,-0.433,37.0
20.127,-0.115,0.128,19.0
20.146,-0.111,0.024,28.0
20.155,-0.107,-0.08,27.0
20.151,-0.102,-0.187,29.0
20.131,-0.098,-0.292,36.0
20.157,-0.094,-0.397,31.0
20.13,-0.089,0.163,28.0
20.133,-0.085,0.059,38.0
20.134,-0.081,-0.045,28.0
20.145,-0.077,-0.153,36.0
20.134,-0.072,-0.257,31.0
20.15,-0.068,-0.363,21.0
20.127,-0.063,0.198,31.0
20.129,-0.059,0.093,40.0
20.125,-0.054,-0.011,35.0
20.146,-0.05,-0.118,31.0
20.119,-0.045,-0.223,12.0
20.166,-0.041,-0.329,23.0
20.125,-0.036,0.232,33.0
20.119,-0.032,0.127,30.0
20.138,-0.028,0.022,32.0
20.143,-0.023,-0.084,27.0
20.162,-0.019,-0.19,17.0
20.185,-0.014,-0.296,5.0
20.132,-0.009,0.265,27.0
20.121,-0.005,0.16,28.0
20.155,0.0,0.055,29.0
20.258,0.004,-0.052,150.0
20.264,0.008,-0.157,150.0
20.266,0.013,-0.263,150.0
20.128,0.018,0.299,27.0
20.126,0.023,0.194,28.0
20.138,0.027,0.088,28.0
20.262,0.032,-0.018,150.0
20.268,0.037,-0.124,93.0
20.241,0.042,-0.23,82.0
20.138,0.047,0.332,30.0
20.133,0.051,0.226,28.0
20.15,0.056,0.121,27.0
20.197,0.061,0.013,29.0
20.204,0.066,-0.091,29.0
20.211,0.071,-0.197,24.0
20.153,0.076,0.364,28.0
20.152,0.08,0.258,26.0
20.15,0.085,0.153,27.0
20.182,0.09,0.045,35.0
20.182,0.095,-0.06,37.0
20.183,0.1,-0.166,33.0
20.158,0.105,0.396,28.0
20.16,0.11,0.29,28.0
20.164,0.115,0.184,25.0
20.19,0.12,0.076,32.0
20.174,0.125,-0.029,27.0
20.173,0.13,-0.135,41.0
20.167,0.135,0.427,26.0
20.172,0.14,0.321,25.0
20.166,0.146,0.215,20.0
20.202,0.151,0.107,27.0
20.228,0.156,0.001,26.0
20.192,0.161,-0.104,23.0
20.239,0.166,0.459,25.0
20.257,0.172,0.353,26.0
20.29,0.177,0.246,27.0
20.301,0.182,0.138,28.0
20.332,0.188,0.031,34.0
20.273,0.192,-0.075,3.0
20.272,0.198,0.49,33.0
20.274,0.203,0.383,34.0
20.283,0.208,0.276,26.0
20.3,0.214,0.167,26.0
20.315,0.219,0.061,19.0
20.345,0.225,-0.046,0.0
20.278,0.23,0.519,27.0
20.273,0.235,0.412,28.0
20.283,0.24,0.306,24.0
20.283,0.246,0.197,11.0
99.544,1.235,0.442,5.0
99.637,1.262,-0.082,3.0
20.286,0.262,0.548,10.0
20.28,0.267,0.441,13.0
20.284,0.273,0.335,3.0
0.0,0.0,0.0,0.0
99.698,1.397,0.583,4.0
99.638,1.423,0.056,4.0
157.2,2.29,4.475,37.0
196.242,2.912,4.55,27.0
194.981,2.944,3.487,27.0
195.79,3.009,2.448,5.0
0.0,0.0,0.0,0.0
99.732,1.585,0.191,5.0
0.0,0.0,0.0,0.0
197.222,3.247,4.838,12.0
194.958,3.262,3.75,20.0
194.851,3.315,2.697,15.0
0.0,0.0,0.0,0.0
99.79,1.752,0.325,6.0
148.887,2.658,4.639,3.0
198.045,3.591,5.122,7.0
194.521,3.578,3.997,16.0
0.0,0.0,0.0,0.0
103.232,1.955,1.017,9.0
99.982,1.922,0.455,5.0
0.0,0.0,0.0,0.0
0.0,0.0,0.0,0.0
194.416,3.903,4.246,17.0
195.519,3.979,3.212,5.0
103.176,2.127,1.147,7.0
99.972,2.09,0.581,2.0
0.0,0.0,0.0,0.0
194.876,4.191,5.537,19.0
194.375,4.235,4.49,24.0
194.203,4.284,3.434,17.0
195.134,4.358,2.413,13.0
102.972,2.327,0.725,1.0
0.0,0.0,0.0,0.0
194.974,4.528,5.78,13.0
194.456,4.57,4.729,24.0
193.963,4.613,3.665,33.0
195.12,4.695,2.649,23.0
0.0,0.0,0.0,0.0
0.0,0.0,0.0,0.0
0.0,0.0,0.0,0.0
194.239,4.903,4.956,25.0
193.741,4.946,3.891,23.0
195.553,5.045,2.883,14.0
0.0,0.0,0.0,0.0
156.725,4.142,5.853,5.0
193.216,5.159,6.182,21.0
194.516,5.251,5.186,24.0
193.673,5.28,4.109,34.0
196.35,5.409,3.117,5.0
0.0,0.0,0.0,0.0
193.799,5.463,7.456,6.0
193.059,5.497,6.395,22.0
194.241,5.586,5.397,17.0
193.848,5.628,4.328,32.0
194.126,5.692,3.297,8.0
201.814,5.977,2.35,16.0
193.529,5.8,7.657,13.0
193.649,5.857,6.625,14.0
194.094,5.924,5.6,7.0
193.973,5.973,4.537,21.0
0.0,0.0,0.0,0.0
195.582,6.134,2.479,6.0
193.541,6.141,7.86,24.0
193.594,6.198,6.824,18.0
195.137,6.303,5.831,7.0
194.162,6.325,4.741,7.0
195.196,6.416,3.721,24.0
195.401,6.48,2.678,17.0
193.538,6.495,8.061,8.0
193.822,6.557,7.029,23.0
193.277,6.595,5.972,9.0
195.043,6.709,4.96,8.0
195.321,6.776,3.919,21.0
202.81,7.094,2.979,11.0
196.228,6.942,8.366,21.0
193.767,6.906,7.218,25.0
0.0,0.0,0.0,0.0
194.76,7.051,5.138,8.0
195.029,7.118,4.098,8.0
0.0,0.0,0.0,0.0
195.937,7.283,8.537,8.0
194.654,7.291,7.432,6.0
193.934,7.317,6.358,7.0
195.154,7.419,5.328,7.0
195.08,7.472,4.276,18.0
195.187,7.53,3.226,5.0
195.323,7.616,8.687,18.0
195.554,7.681,7.642,20.0
193.413,7.65,6.513,14.0
193.409,7.706,5.451,8.0
196.658,7.89,4.482,8.0
0.0,0.0,0.0,0.0
194.972,7.959,8.84,16.0
195.304,8.026,7.799,21.0
193.488,8.007,6.68,15.0
193.375,8.056,5.612,19.0
192.772,8.085,4.553,5.0
0.0,0.0,0.0,0.0
194.646,8.303,8.986,5.0
195.346,8.389,7.961,8.0
193.814,8.377,6.85,24.0
193.316,8.408,5.765,9.0
195.463,8.558,4.773,19.0
195.497,8.615,3.717,38.0
193.367,8.605,9.08,21.0
193.403,8.662,8.033,9.0
193.562,8.724,6.991,30.0
193.395,8.771,5.918,19.0
0.0,0.0,0.0,0.0
0.0,0.0,0.0,0.0
193.001,8.949,9.209,26.0
192.992,9.003,8.161,22.0
193.162,9.066,7.12,29.0
193.386,9.129,6.058,17.0
196.119,9.315,5.08,11.0
196.938,9.409,4.034,5.0
193.241,9.319,9.358,24.0
193.151,9.367,8.304,7.0
192.904,9.41,7.245,28.0
202.293,9.923,6.476,5.0
193.906,9.567,5.154,14.0
197.91,9.823,4.187,6.0
193.14,9.675,9.485,17.0
192.909,9.715,8.421,24.0
193.02,9.773,7.375,19.0
193.619,9.859,6.325,5.0
193.934,9.927,5.279,16.0
196.659,10.121,4.284,5.0
193.817,10.067,9.64,19.0
192.842,10.069,8.538,18.0
193.011,10.13,7.493,19.0
0.0,0.0,0.0,0.0
193.824,10.283,5.394,5.0
196.464,10.474,4.395,8.0
193.76,10.423,9.752,22.0
192.828,10.426,8.651,25.0
193.397,10.51,7.619,12.0
193.474,10.569,6.547,5.0
196.027,10.764,5.564,22.0
196.126,10.823,4.498,28.0
193.78,10.788,9.861,21.0
193.944,10.85,8.807,6.0
193.634,10.886,7.734,7.0
192.719,10.887,6.625,7.0
194.854,11.064,5.634,5.0
0.0,0.0,0.0,0.0
193.649,11.144,9.953,20.0
193.948,11.212,8.906,12.0
193.951,11.263,7.842,5.0
0.0,0.0,0.0,0.0
0.0,0.0,0.0,0.0
195.647,11.523,4.68,6.0
194.097,11.529,10.067,23.0
193.211,11.526,8.961,9.0
193.033,11.565,7.892,6.0
0.0,0.0,0.0,0.0
0.0,0.0,0.0,0.0
195.717,11.887,4.766,18.0
195.064,11.947,10.203,7.0
0.0,0.0,0.0,0.0
0.0,0.0,0.0,0.0
0.0,0.0,0.0,0.0
0.0,0.0,0.0,0.0
194.522,12.168,4.813,8.0
194.954,12.295,10.271,8.0
0.0,0.0,0.0,0.0
