X,Y,Z,Reflectivity
99.648,1.239,0.393,5.0
0.0,0.0,0.0,0.0
0.0,0.0,0.0,0.0
0.0,0.0,0.0,0.0
194.896,2.708,2.923,24.0
0.0,0.0,0.0,0.0
99.693,1.455,0.4,5.0
101.498,1.515,-0.16,1.0
0.0,0.0,0.0,0.0
0.0,0.0,0.0,0.0
194.83,3.126,2.932,26.0
0.0,0.0,0.0,0.0
99.835,1.67,0.404,5.0
99.867,1.705,-0.154,3.0
0.0,0.0,0.0,0.0
0.0,0.0,0.0,0.0
0.0,0.0,0.0,0.0
0.0,0.0,0.0,0.0
99.956,1.883,0.404,7.0
0.0,0.0,0.0,0.0
0.0,0.0,0.0,0.0
0.0,0.0,0.0,0.0
0.0,0.0,0.0,0.0
102.902,2.124,0.979,1.0
100.004,2.097,0.4,2.0
100.06,2.133,-0.161,5.0
0.0,0.0,0.0,0.0
0.0,0.0,0.0,0.0
195.236,4.382,2.92,26.0
0.0,0.0,0.0,0.0
100.134,2.315,0.392,4.0
100.118,2.348,-0.17,6.0
0.0,0.0,0.0,0.0
0.0,0.0,0.0,0.0
195.172,4.794,2.899,24.0
103.095,2.567,0.961,2.0
100.339,2.532,0.381,2.0
0.0,0.0,0.0,0.0
0.0,0.0,0.0,0.0
0.0,0.0,0.0,0.0
195.633,5.22,2.878,20.0
0.0,0.0,0.0,0.0
0.0,0.0,0.0,0.0
0.0,0.0,0.0,0.0
68.998,1.933,-0.518,5.0
0.0,0.0,0.0,0.0
195.361,5.624,2.839,24.0
0.0,0.0,0.0,0.0
196.165,5.777,0.678,25.0
0.0,0.0,0.0,0.0
68.98,2.077,-0.532,7.0
0.0,0.0,0.0,0.0
195.523,6.038,2.799,5.0
196.308,6.128,1.722,6.0
196.311,6.189,0.634,21.0
0.0,0.0,0.0,0.0
68.92,2.218,-0.548,1.0
0.0,0.0,0.0,0.0
195.636,6.455,2.751,13.0
196.609,6.548,1.674,9.0
196.416,6.604,0.582,14.0
0.0,0.0,0.0,0.0
68.934,2.362,-0.567,1.0
0.0,0.0,0.0,0.0
195.932,6.867,2.699,25.0
196.323,6.945,1.613,21.0
196.532,7.014,0.524,12.0
0.0,0.0,0.0,0.0
69.011,2.507,-0.59,2.0
0.0,0.0,0.0,0.0
0.0,0.0,0.0,0.0
195.111,7.307,1.539,26.0
195.084,7.365,0.453,5.0
0.0,0.0,0.0,0.0
0.0,0.0,0.0,0.0
0.0,0.0,0.0,0.0
0.0,0.0,0.0,0.0
196.519,7.763,1.477,24.0
0.0,0.0,0.0,0.0
0.0,0.0,0.0,0.0
0.0,0.0,0.0,0.0
0.0,0.0,0.0,0.0
0.0,0.0,0.0,0.0
196.653,8.169,1.399,26.0
0.0,0.0,0.0,0.0
0.0,0.0,0.0,0.0
0.0,0.0,0.0,0.0
0.0,0.0,0.0,0.0
195.55,8.458,2.396,44.0
195.545,8.516,1.306,58.0
0.0,0.0,0.0,0.0
0.0,0.0,0.0,0.0
0.0,0.0,0.0,0.0
0.0,0.0,0.0,0.0
206.434,9.341,2.433,9.0
196.946,8.972,1.221,36.0
0.0,0.0,0.0,0.0
0.0,0.0,0.0,0.0
0.0,0.0,0.0,0.0
42.543,1.989,-0.691,1.0
0.0,0.0,0.0,0.0
197.07,9.367,1.122,25.0
0.0,0.0,0.0,0.0
0.0,0.0,0.0,0.0
0.0,0.0,0.0,0.0
44.517,2.168,-0.746,0.0
197.89,9.732,2.128,22.0
197.262,9.76,1.017,30.0
0.0,0.0,0.0,0.0
69.018,3.455,-0.423,0.0
0.0,0.0,0.0,0.0
42.47,2.151,-0.736,0.0
201.869,10.324,2.056,16.0
197.083,10.135,0.902,13.0
0.0,0.0,0.0,0.0
68.967,3.586,-0.463,3.0
52.134,2.726,-0.642,0.0
0.0,0.0,0.0,0.0
206.798,10.973,1.981,16.0
197.187,10.52,0.783,9.0
0.0,0.0,0.0,0.0
0.0,0.0,0.0,0.0
0.0,0.0,0.0,0.0
40.078,2.184,-0.744,0.0
196.116,10.782,1.752,52.0
196.147,10.84,0.651,25.0
0.0,0.0,0.0,0.0
68.8,3.841,-0.55,0.0
0.0,0.0,0.0,0.0
0.0,0.0,0.0,0.0
197.44,11.228,1.633,22.0
197.353,11.274,0.524,15.0
0.0,0.0,0.0,0.0
68.944,3.977,-0.598,0.0
0.0,0.0,0.0,0.0
38.614,2.249,-0.769,0.0
197.555,11.602,1.495,28.0
0.0,0.0,0.0,0.0
0.0,0.0,0.0,0.0
0.0,0.0,0.0,0.0
0.0,0.0,0.0,0.0
37.691,2.264,-0.778,0.0
197.632,11.966,1.352,5.0
0.0,0.0,0.0,0.0
0.0,0.0,0.0,0.0
0.0,0.0,0.0,0.0
0.0,0.0,0.0,0.0
37.263,2.305,-0.797,0.0
155.423,9.689,0.946,150.0
0.0,0.0,0.0,0.0
0.0,0.0,0.0,0.0
0.0,0.0,0.0,0.0
0.0,0.0,0.0,0.0
35.403,2.253,-0.785,0.0
154.956,9.935,0.821,5.0
0.0,0.0,0.0,0.0
69.053,4.462,-0.412,2.0
0.0,0.0,0.0,0.0
0.0,0.0,0.0,0.0
35.03,2.291,-0.806,0.0
154.966,10.207,0.692,152.0
0.0,0.0,0.0,0.0
68.986,4.579,-0.469,4.0
0.0,0.0,0.0,0.0
0.0,0.0,0.0,0.0
33.491,2.248,-0.798,1.0
154.959,10.476,0.56,154.0
0.0,0.0,0.0,0.0
0.0,0.0,0.0,0.0
0.0,0.0,0.0,0.0
0.0,0.0,0.0,0.0
32.988,2.271,-0.816,1.0
154.967,10.74,0.423,15.0
0.0,0.0,0.0,0.0
0.0,0.0,0.0,0.0
0.0,0.0,0.0,0.0
37.898,2.663,-0.757,0.0
32.279,2.277,-0.827,1.0
0.0,0.0,0.0,0.0
0.0,0.0,0.0,0.0
0.0,0.0,0.0,0.0
0.0,0.0,0.0,0.0
37.315,2.684,-0.78,0.0
31.729,2.29,-0.843,0.0
0.0,0.0,0.0,0.0
0.0,0.0,0.0,0.0
0.0,0.0,0.0,0.0
0.0,0.0,0.0,0.0
36.36,2.674,-0.794,0.0
30.214,2.229,-0.831,0.0
0.0,0.0,0.0,0.0
0.0,0.0,0.0,0.0
0.0,0.0,0.0,0.0
0.0,0.0,0.0,0.0
35.301,2.652,-0.806,0.0
29.954,2.257,-0.853,0.0
0.0,0.0,0.0,0.0
0.0,0.0,0.0,0.0
0.0,0.0,0.0,0.0
0.0,0.0,0.0,0.0
33.076,2.537,-0.789,0.0
28.948,2.227,-0.854,0.0
0.0,0.0,0.0,0.0
0.0,0.0,0.0,0.0
0.0,0.0,0.0,0.0
0.0,0.0,0.0,0.0
32.858,2.57,-0.817,1.0
28.258,2.216,-0.863,1.0
0.0,0.0,0.0,0.0
0.0,0.0,0.0,0.0
0.0,0.0,0.0,0.0
37.527,2.982,-0.759,0.0
31.813,2.535,-0.824,0.0
27.504,2.198,-0.869,1.0
0.0,0.0,0.0,0.0
0.0,0.0,0.0,0.0
0.0,0.0,0.0,0.0
0.0,0.0,0.0,0.0
30.906,2.508,-0.834,0.0
26.565,2.161,-0.868,0.0
0.0,0.0,0.0,0.0
0.0,0.0,0.0,0.0
0.0,0.0,0.0,0.0
35.549,2.927,-0.796,0.0
30.095,2.484,-0.845,0.0
25.848,2.139,-0.873,0.0
68.959,5.732,-0.436,2.0
0.0,0.0,0.0,0.0
40.83,3.41,-0.722,0.0
33.493,2.803,-0.786,0.0
28.825,2.419,-0.841,0.0
24.946,2.098,-0.87,0.0
0.0,0.0,0.0,0.0
0.0,0.0,0.0,0.0
40.005,3.395,-0.753,0.0
32.805,2.79,-0.807,1.0
28.312,2.413,-0.858,0.0
24.345,2.08,-0.876,1.0
0.0,0.0,0.0,0.0
0.0,0.0,0.0,0.0
0.0,0.0,0.0,0.0
30.907,2.668,-0.796,1.0
27.528,2.382,-0.866,0.0
23.917,2.074,-0.889,0.0
0.0,0.0,0.0,0.0
0.0,0.0,0.0,0.0
0.0,0.0,0.0,0.0
30.697,2.69,-0.827,0.0
26.703,2.345,-0.871,0.0
21.933,1.93,-0.841,1.0
0.0,0.0,0.0,0.0
0.0,0.0,0.0,0.0
35.23,3.124,-0.786,0.0
29.927,2.659,-0.841,0.0
25.639,2.283,-0.867,0.0
21.886,1.953,-0.865,6.0
0.0,0.0,0.0,0.0
0.0,0.0,0.0,0.0
32.907,2.957,-0.773,0.0
28.863,2.599,-0.846,0.0
24.852,2.242,-0.87,0.0
21.795,1.97,-0.888,1.0
49.792,4.515,-0.662,0.0
0.0,0.0,0.0,0.0
32.263,2.936,-0.797,0.0
28.025,2.555,-0.855,0.0
24.19,2.21,-0.876,0.0
21.716,1.987,-0.911,1.0
0.0,0.0,0.0,0.0
0.0,0.0,0.0,0.0
31.537,2.905,-0.818,0.0
27.095,2.5,-0.86,0.0
23.505,2.173,-0.881,0.0
20.891,1.935,-0.902,0.0
0.0,0.0,0.0,0.0
36.843,3.428,-0.79,0.0
30.674,2.858,-0.833,0.0
26.131,2.439,-0.862,0.0
21.929,2.05,-0.849,0.0
20.439,1.914,-0.908,0.0
0.0,0.0,0.0,0.0
34.711,3.265,-0.787,0.0
29.504,2.78,-0.838,0.0
25.174,2.375,-0.862,0.0
21.846,2.065,-0.873,0.0
19.635,1.859,-0.897,0.0
0.0,0.0,0.0,0.0
32.767,3.114,-0.784,0.0
28.402,2.704,-0.842,0.0
24.562,2.342,-0.871,0.0
21.799,2.082,-0.898,1.0
19.449,1.86,-0.913,0.0
0.0,0.0,0.0,0.0
32.292,3.1,-0.814,0.0
27.482,2.642,-0.85,0.0
23.685,2.28,-0.871,0.0
21.297,2.054,-0.905,0.0
19.016,1.837,-0.917,0.0
36.847,3.567,-0.766,0.0
30.962,3.001,-0.82,0.0
26.625,2.584,-0.858,0.0
23.302,2.265,-0.887,0.0
20.661,2.011,-0.905,0.0
18.268,1.781,-0.905,0.0
35.337,3.451,-0.78,0.0
29.964,2.93,-0.832,0.0
25.85,2.531,-0.866,0.0
21.817,2.139,-0.858,0.0
19.888,1.953,-0.896,0.0
17.912,1.761,-0.91,2.0
33.346,3.284,-0.779,1.0
28.677,2.828,-0.834,0.0
24.822,2.451,-0.864,0.0
21.77,2.152,-0.885,1.0
19.519,1.932,-0.905,0.0
17.738,1.758,-0.925,2.0
32.295,3.206,-0.797,0.0
27.686,2.751,-0.841,0.0
24.011,2.389,-0.867,0.0
21.553,2.147,-0.904,0.0
19.023,1.897,-0.907,0.0
17.358,1.734,-0.928,0.0
30.948,3.095,-0.804,0.0
26.908,2.694,-0.853,0.0
23.643,2.37,-0.885,0.0
20.784,2.086,-0.899,0.0
18.524,1.861,-0.908,0.0
16.866,1.696,-0.924,0.0
30.16,3.038,-0.823,0.0
25.935,2.614,-0.856,0.0
21.953,2.215,-0.85,0.0
0.0,0.0,0.0,0.0
18.016,1.822,-0.907,1.0
16.505,1.671,-0.926,0.0
29.225,2.962,-0.835,0.0
25.013,2.538,-0.859,0.0
21.847,2.219,-0.875,3.0
19.51,1.983,-0.896,0.0
17.764,1.808,-0.918,2.0
16.082,1.638,-0.923,0.0
28.032,2.858,-0.839,0.0
24.375,2.488,-0.869,0.0
21.791,2.226,-0.902,2.0
19.142,1.957,-0.904,0.0
17.504,1.792,-0.927,0.0
15.802,1.619,-0.928,0.0
27.187,2.788,-0.849,0.0
23.649,2.427,-0.874,0.0
20.986,2.155,-0.896,0.0
18.752,1.928,-0.911,0.0
16.966,1.746,-0.921,0.0
15.505,1.597,-0.931,0.0
26.103,2.69,-0.85,0.0
21.92,2.261,-0.84,2.0
20.5,2.116,-0.903,0.0
18.18,1.878,-0.907,0.0
16.599,1.716,-0.923,0.0
15.124,1.565,-0.929,0.0
25.315,2.621,-0.858,0.0
21.858,2.264,-0.866,4.0
19.603,2.032,-0.889,0.0
17.767,1.844,-0.91,2.0
16.169,1.679,-0.921,0.0
14.851,1.544,-0.932,0.0
24.549,2.552,-0.864,0.0
21.786,2.266,-0.892,3.0
19.364,2.016,-0.904,1.0
17.636,1.837,-0.927,1.0
15.881,1.656,-0.926,0.0
14.561,1.519,-0.933,0.0
23.764,2.48,-0.868,0.0
21.322,2.226,-0.901,0.0
18.908,1.975,-0.908,0.0
17.098,1.787,-0.921,0.0
15.604,1.633,-0.93,0.0
14.383,1.506,-0.94,0.0
21.95,2.298,-0.831,1.0
20.533,2.151,-0.895,0.0
18.522,1.941,-0.914,0.0
16.628,1.744,-0.918,0.0
15.23,1.598,-0.928,0.0
14.165,1.488,-0.945,0.0
21.875,2.296,-0.856,3.0
19.727,2.072,-0.886,0.0
17.795,1.87,-0.901,1.0
16.358,1.72,-0.924,0.0
14.885,1.566,-0.927,0.0
0.0,0.0,0.0,0.0
21.827,2.297,-0.883,3.0
19.495,2.052,-0.901,1.0
17.699,1.864,-0.92,2.0
15.967,1.683,-0.923,0.0
14.673,1.547,-0.933,0.0
13.462,1.42,-0.933,0.0
21.643,2.282,-0.904,1.0
19.103,2.015,-0.907,0.0
17.288,1.824,-0.92,0.0
15.654,1.653,-0.925,0.0
14.476,1.529,-0.939,0.0
13.391,1.415,-0.946,0.0
20.677,2.183,-0.89,0.0
18.669,1.972,-0.911,0.0
16.761,1.771,-0.914,0.0
15.37,1.625,-0.928,0.0
14.231,1.505,-0.941,0.0
13.188,1.395,-0.949,0.0
19.92,2.105,-0.883,0.0
17.913,1.894,-0.897,0.0
16.458,1.741,-0.918,0.0
14.971,1.584,-0.923,0.0
0.0,0.0,0.0,0.0
12.781,1.354,-0.935,0.0
19.617,2.075,-0.894,1.0
17.731,1.876,-0.91,2.0
16.181,1.712,-0.923,0.0
14.761,1.563,-0.929,0.0
13.517,1.431,-0.928,0.0
12.601,1.335,-0.938,0.0
19.351,2.047,-0.906,0.0
17.552,1.857,-0.923,0.0
15.78,1.67,-0.92,0.0
14.548,1.54,-0.934,0.0
13.392,1.418,-0.937,0.0
12.431,1.317,-0.941,0.0
18.77,1.985,-0.902,0.0
17.054,1.804,-0.918,0.0
15.534,1.644,-0.925,0.0
14.351,1.519,-0.939,0.0
13.314,1.409,-0.948,0.0
12.221,1.294,-0.941,0.0
18.364,1.941,-0.905,0.0
16.648,1.76,-0.916,0.0
15.139,1.601,-0.92,0.0
14.153,1.497,-0.943,0.0
13.065,1.382,-0.946,0.0
12.048,1.275,-0.942,0.0
17.787,1.878,-0.898,1.0
16.355,1.727,-0.92,0.0
14.904,1.574,-0.924,0.0
13.848,1.463,-0.94,0.0
12.716,1.343,-0.936,0.0
11.848,1.252,-0.941,0.0
17.729,1.87,-0.917,2.0
15.957,1.683,-0.917,0.0
14.688,1.549,-0.928,0.0
13.595,1.434,-0.939,0.0
12.534,1.322,-0.938,0.0
11.643,1.228,-0.938,0.0
17.382,1.829,-0.92,0.0
15.729,1.655,-0.922,0.0
14.498,1.526,-0.934,0.0
13.359,1.406,-0.938,0.0
12.384,1.303,-0.941,0.0
11.502,1.211,-0.941,0.0
16.931,1.778,-0.915,0.0
15.443,1.622,-0.924,0.0
14.27,1.498,-0.935,0.0
13.262,1.392,-0.947,0.0
12.161,1.277,-0.939,0.0
11.349,1.192,-0.941,0.0
16.586,1.737,-0.916,0.0
15.099,1.581,-0.92,0.0
14.256,1.493,-0.951,0.0
12.966,1.358,-0.941,0.0
11.994,1.256,-0.939,0.0
11.219,1.175,-0.943,0.0
16.337,1.706,-0.92,0.0
14.928,1.558,-0.927,0.0
13.664,1.426,-0.927,0.0
12.703,1.326,-0.936,0.0
11.824,1.234,-0.939,0.0
11.109,1.159,-0.947,0.0
16.0,1.665,-0.919,0.0
14.712,1.53,-0.93,0.0
13.469,1.401,-0.928,0.0
12.574,1.308,-0.94,0.0
11.649,1.211,-0.938,0.0
10.951,1.138,-0.945,0.0
15.803,1.638,-0.925,0.0
14.483,1.501,-0.931,0.0
13.35,1.383,-0.935,0.0
12.385,1.283,-0.939,0.0
11.494,1.19,-0.938,0.0
10.785,1.117,-0.942,0.0
15.498,1.6,-0.924,0.0
14.339,1.479,-0.937,0.0
13.186,1.36,-0.937,0.0
12.197,1.257,-0.938,0.0
11.381,1.173,-0.941,0.0
10.687,1.101,-0.945,0.0
15.135,1.555,-0.918,0.0
14.116,1.449,-0.937,0.0
13.008,1.335,-0.938,0.0
12.065,1.238,-0.941,0.0
11.285,1.158,-0.945,0.0
10.591,1.086,-0.948,0.0
14.948,1.528,-0.921,0.0
0.0,0.0,0.0,0.0
12.848,1.312,-0.939,0.0
11.892,1.214,-0.939,0.0
11.135,1.136,-0.943,0.0
10.475,1.068,-0.948,0.0
14.789,1.503,-0.927,0.0
0.0,0.0,0.0,0.0
12.618,1.281,-0.935,0.0
11.718,1.189,-0.937,0.0
11.072,1.123,-0.949,0.0
10.375,1.052,-0.949,0.0
14.625,1.478,-0.93,0.0
13.39,1.352,-0.928,0.0
12.508,1.262,-0.939,0.0
11.589,1.169,-0.938,0.0
10.882,1.097,-0.943,0.0
10.216,1.03,-0.944,0.0
14.439,1.449,-0.932,0.0
13.344,1.339,-0.938,0.0
12.39,1.242,-0.942,0.0
11.461,1.148,-0.938,0.0
10.788,1.081,-0.945,0.0
10.139,1.015,-0.947,0.0
14.313,1.427,-0.937,0.0
13.176,1.313,-0.938,0.0
12.237,1.218,-0.941,0.0
11.32,1.126,-0.937,0.0
10.719,1.066,-0.949,0.0
10.046,0.999,-0.947,0.0
14.122,1.398,-0.937,0.0
12.924,1.278,-0.931,0.0
12.055,1.192,-0.938,0.0
11.261,1.112,-0.942,0.0
10.561,1.043,-0.944,0.0
9.968,0.984,-0.948,0.0
0.0,0.0,0.0,0.0
12.857,1.262,-0.937,0.0
11.874,1.165,-0.934,0.0
11.145,1.093,-0.941,0.0
10.485,1.027,-0.946,0.0
9.856,0.965,-0.946,0.0
13.61,1.327,-0.926,0.0
12.717,1.238,-0.938,0.0
11.822,1.15,-0.939,0.0
11.054,1.075,-0.943,0.0
10.378,1.008,-0.944,0.0
9.786,0.95,-0.947,0.0
13.539,1.309,-0.931,0.0
12.583,1.215,-0.937,0.0
11.726,1.131,-0.941,0.0
10.936,1.054,-0.941,0.0
10.315,0.994,-0.947,0.0
9.691,0.933,-0.945,0.0
13.439,1.288,-0.935,0.0
12.481,1.195,-0.939,0.0
11.596,1.109,-0.939,0.0
10.86,1.037,-0.943,0.0
10.212,0.975,-0.945,0.0
9.61,0.916,-0.944,0.0
13.302,1.262,-0.935,0.0
12.372,1.173,-0.94,0.0
11.522,1.091,-0.941,0.0
10.837,1.025,-0.948,0.0
10.136,0.958,-0.945,0.0
9.564,0.903,-0.947,0.0
13.222,1.243,-0.938,0.0
12.238,1.149,-0.938,0.0
11.42,1.071,-0.941,0.0
10.685,1.001,-0.942,0.0
10.076,0.943,-0.946,0.0
9.471,0.886,-0.944,0.0
13.075,1.217,-0.937,0.0
12.064,1.121,-0.933,0.0
11.31,1.05,-0.939,0.0
10.795,1.001,-0.959,0.0
9.963,0.923,-0.942,0.0
9.423,0.872,-0.945,0.0
12.972,1.194,-0.937,0.0
11.991,1.103,-0.935,0.0
11.281,1.036,-0.943,0.0
0.0,0.0,0.0,0.0
9.969,0.913,-0.949,0.0
9.366,0.857,-0.945,0.0
12.87,1.172,-0.937,0.0
11.927,1.085,-0.937,0.0
11.206,1.018,-0.944,0.0
0.0,0.0,0.0,0.0
9.853,0.893,-0.943,0.0
9.309,0.842,-0.944,0.0
12.795,1.152,-0.939,0.0
11.831,1.064,-0.935,0.0
11.119,0.998,-0.942,0.0
0.0,0.0,0.0,0.0
9.807,0.878,-0.944,0.0
9.252,0.827,-0.944,0.0
12.674,1.127,-0.937,0.0
11.773,1.046,-0.937,0.0
11.086,0.983,-0.945,0.0
0.0,0.0,0.0,0.0
9.75,0.863,-0.943,0.0
9.21,0.814,-0.944,0.0
12.623,1.109,-0.939,0.0
11.75,1.031,-0.941,0.0
10.982,0.962,-0.941,0.0
10.198,0.892,-0.933,0.0
9.714,0.849,-0.944,0.0
9.154,0.799,-0.942,0.0
12.554,1.089,-0.939,0.0
11.646,1.009,-0.937,0.0
10.92,0.944,-0.941,0.0
10.253,0.885,-0.943,0.0
9.636,0.831,-0.941,0.0
9.134,0.786,-0.944,0.0
12.479,1.068,-0.939,0.0
11.581,0.99,-0.937,0.0
10.931,0.933,-0.946,0.0
10.214,0.87,-0.943,0.0
9.602,0.817,-0.941,0.0
9.084,0.771,-0.942,0.0
12.405,1.047,-0.938,0.0
11.551,0.974,-0.938,0.0
10.934,0.92,-0.95,0.0
10.189,0.856,-0.944,0.0
9.554,0.801,-0.94,0.0
9.073,0.76,-0.944,0.0
12.388,1.031,-0.94,0.0
11.511,0.957,-0.939,0.0
10.812,0.897,-0.943,0.0
10.139,0.839,-0.943,0.0
9.571,0.791,-0.944,0.0
9.027,0.745,-0.942,0.0
12.316,1.01,-0.938,0.0
11.452,0.938,-0.937,0.0
10.757,0.879,-0.941,0.0
10.081,0.822,-0.94,0.0
9.535,0.776,-0.943,0.0
9.006,0.732,-0.942,0.0
12.234,0.989,-0.935,0.0
11.46,0.924,-0.941,0.0
0.0,0.0,0.0,0.0
10.067,0.809,-0.941,0.0
9.519,0.763,-0.944,0.0
9.0,0.72,-0.943,0.0
12.254,0.975,-0.939,0.0
11.395,0.904,-0.937,0.0
10.681,0.846,-0.939,0.0
10.088,0.797,-0.945,0.0
9.507,0.75,-0.944,0.0
9.004,0.709,-0.945,0.0
12.2,0.955,-0.937,0.0
11.44,0.893,-0.943,0.0
10.751,0.838,-0.947,0.0
10.035,0.78,-0.941,0.0
9.479,0.736,-0.943,0.0
9.012,0.698,-0.947,0.0
12.21,0.94,-0.939,0.0
11.419,0.877,-0.942,0.0
10.633,0.815,-0.937,0.0
10.052,0.768,-0.944,0.0
9.499,0.725,-0.946,0.0
8.988,0.684,-0.946,0.0
12.197,0.923,-0.939,0.0
11.397,0.86,-0.941,0.0
10.591,0.797,-0.934,0.0
10.045,0.755,-0.944,0.0
9.469,0.71,-0.943,0.0
8.975,0.671,-0.945,0.0
12.194,0.906,-0.939,0.0
11.383,0.844,-0.941,0.0
10.637,0.787,-0.939,0.0
10.028,0.74,-0.942,0.0
9.522,0.701,-0.948,0.0
8.995,0.661,-0.947,0.0
12.202,0.89,-0.94,0.0
11.427,0.832,-0.944,0.0
10.704,0.777,-0.944,0.0
10.066,0.729,-0.946,0.0
9.493,0.686,-0.945,0.0
8.967,0.646,-0.943,0.0
12.191,0.873,-0.938,0.0
11.405,0.815,-0.942,0.0
10.672,0.76,-0.941,0.0
10.105,0.718,-0.949,0.0
9.486,0.673,-0.944,0.0
8.986,0.635,-0.945,0.0
12.252,0.861,-0.942,0.0
11.418,0.8,-0.942,0.0
10.661,0.745,-0.939,0.0
10.1,0.704,-0.947,0.0
9.529,0.662,-0.947,0.0
9.006,0.624,-0.946,0.0
12.272,0.845,-0.942,0.0
11.473,0.788,-0.944,0.0
10.789,0.739,-0.948,0.0
10.133,0.692,-0.949,0.0
9.558,0.651,-0.948,0.0
9.042,0.614,-0.948,0.0
12.32,0.831,-0.943,0.0
11.487,0.773,-0.943,0.0
10.834,0.727,-0.95,0.0
10.144,0.678,-0.947,0.0
9.552,0.637,-0.946,0.0
9.053,0.602,-0.947,0.0
12.336,0.815,-0.942,0.0
11.483,0.757,-0.94,0.0
10.845,0.712,-0.949,0.0
10.175,0.666,-0.948,0.0
9.59,0.626,-0.947,0.0
9.062,0.59,-0.945,0.0
12.347,0.798,-0.939,0.0
11.562,0.745,-0.944,0.0
10.916,0.702,-0.952,0.0
10.195,0.653,-0.947,0.0
9.625,0.615,-0.948,0.0
9.094,0.579,-0.946,0.0
12.428,0.786,-0.942,0.0
11.589,0.731,-0.942,0.0
10.918,0.686,-0.948,0.0
10.238,0.641,-0.947,0.0
9.655,0.603,-0.947,0.0
9.122,0.568,-0.946,0.0
12.481,0.772,-0.941,0.0
11.644,0.718,-0.943,0.0
10.945,0.672,-0.947,0.0
10.268,0.629,-0.946,0.0
9.697,0.592,-0.948,0.0
9.172,0.558,-0.947,0.0
12.545,0.758,-0.941,0.0
11.691,0.704,-0.942,0.0
11.02,0.661,-0.949,0.0
10.294,0.615,-0.944,0.0
9.771,0.582,-0.951,0.0
9.207,0.547,-0.947,0.0
12.599,0.743,-0.94,0.0
11.758,0.691,-0.942,0.0
11.035,0.646,-0.945,0.0
10.356,0.604,-0.945,0.0
9.796,0.569,-0.948,0.0
9.256,0.536,-0.948,0.0
12.719,0.732,-0.942,0.0
11.819,0.677,-0.941,0.0
11.084,0.633,-0.944,0.0
10.416,0.593,-0.945,0.0
9.839,0.558,-0.947,0.0
9.294,0.525,-0.947,0.0
12.803,0.718,-0.942,0.0
11.901,0.665,-0.941,0.0
11.226,0.625,-0.949,0.0
10.469,0.58,-0.944,0.0
9.899,0.547,-0.948,0.0
9.327,0.513,-0.944,0.0
12.948,0.707,-0.945,0.0
11.989,0.652,-0.941,0.0
11.28,0.611,-0.947,0.0
10.534,0.569,-0.944,0.0
9.989,0.537,-0.95,0.0
9.436,0.505,-0.95,0.0
13.124,0.698,-0.95,0.0
12.11,0.641,-0.943,0.0
11.316,0.597,-0.943,0.0
10.623,0.558,-0.945,0.0
10.058,0.526,-0.95,0.0
9.519,0.496,-0.952,0.0
13.126,0.679,-0.941,0.0
12.252,0.631,-0.946,0.0
11.409,0.585,-0.943,0.0
10.669,0.545,-0.942,0.0
10.162,0.517,-0.953,0.0
9.562,0.484,-0.949,0.0
13.335,0.671,-0.947,0.0
12.357,0.619,-0.945,0.0
11.532,0.575,-0.945,0.0
10.79,0.535,-0.945,0.0
10.22,0.505,-0.951,0.0
9.652,0.475,-0.951,0.0
13.393,0.654,-0.941,0.0
12.495,0.608,-0.946,0.0
11.659,0.565,-0.947,0.0
10.939,0.527,-0.949,0.0
10.285,0.493,-0.949,0.0
9.713,0.464,-0.95,0.0
13.527,0.642,-0.94,0.0
12.583,0.594,-0.943,0.0
11.742,0.552,-0.944,0.0
11.008,0.515,-0.946,0.0
10.339,0.481,-0.945,0.0
9.782,0.453,-0.948,0.0
20.197,0.929,-1.387,0.0
12.767,0.584,-0.946,0.0
11.897,0.542,-0.946,0.0
11.136,0.505,-0.948,0.0
10.466,0.472,-0.948,0.0
9.892,0.444,-0.95,0.0
20.2,0.901,-1.369,0.0
12.908,0.572,-0.945,0.0
12.02,0.53,-0.945,0.0
11.217,0.492,-0.945,0.0
10.559,0.461,-0.947,0.0
9.972,0.433,-0.949,0.0
14.167,0.612,-0.947,0.0
13.074,0.561,-0.945,0.0
12.179,0.52,-0.947,0.0
11.397,0.484,-0.949,0.0
10.738,0.454,-0.953,0.0
10.091,0.424,-0.95,0.0
14.374,0.6,-0.947,0.0
13.271,0.551,-0.947,0.0
12.327,0.509,-0.946,0.0
11.526,0.473,-0.948,0.0
10.772,0.44,-0.945,0.0
10.201,0.414,-0.95,0.0
14.511,0.585,-0.942,0.0
13.438,0.539,-0.945,0.0
12.477,0.498,-0.945,0.0
11.596,0.46,-0.942,0.0
10.934,0.431,-0.948,0.0
10.324,0.405,-0.951,0.0
14.704,0.573,-0.939,0.0
13.615,0.527,-0.943,0.0
12.661,0.487,-0.945,0.0
11.787,0.451,-0.945,0.0
11.04,0.42,-0.945,0.0
10.425,0.394,-0.949,0.0
14.919,0.561,-0.937,0.0
13.947,0.521,-0.951,0.0
12.906,0.479,-0.95,0.0
11.963,0.441,-0.946,0.0
11.201,0.411,-0.946,0.0
10.568,0.385,-0.95,0.0
15.185,0.55,-0.937,0.0
14.147,0.509,-0.949,0.0
13.074,0.467,-0.947,0.0
12.157,0.432,-0.947,0.0
11.411,0.403,-0.951,0.0
10.714,0.376,-0.951,0.0
15.39,0.536,-0.931,0.0
14.42,0.499,-0.95,0.0
13.243,0.455,-0.944,0.0
12.349,0.422,-0.948,0.0
11.562,0.392,-0.95,0.0
10.819,0.365,-0.947,0.0
15.787,0.529,-0.937,0.0
14.608,0.486,-0.945,0.0
13.507,0.447,-0.946,0.0
12.548,0.412,-0.948,0.0
11.729,0.382,-0.949,0.0
11.069,0.358,-0.955,0.0
16.13,0.519,-0.937,0.0
14.854,0.474,-0.942,0.0
13.75,0.436,-0.946,0.0
12.811,0.404,-0.951,0.0
11.939,0.373,-0.951,0.0
11.184,0.347,-0.951,0.0
16.409,0.507,-0.933,0.0
15.106,0.463,-0.939,0.0
0.0,0.0,0.0,0.0
13.018,0.393,-0.95,0.0
12.135,0.364,-0.951,0.0
11.319,0.337,-0.948,0.0
16.73,0.495,-0.929,0.0
15.397,0.452,-0.937,0.0
14.36,0.419,-0.951,0.0
13.242,0.383,-0.949,0.0
12.381,0.356,-0.954,0.0
11.489,0.328,-0.946,0.0
17.073,0.484,-0.925,0.0
15.807,0.444,-0.941,0.0
14.542,0.405,-0.943,0.0
13.503,0.374,-0.949,0.0
12.55,0.344,-0.949,0.0
11.738,0.32,-0.951,0.0
17.719,0.479,-0.936,0.0
16.168,0.434,-0.94,0.0
14.842,0.395,-0.942,0.0
13.661,0.361,-0.941,0.0
12.816,0.336,-0.951,0.0
11.922,0.31,-0.949,0.0
18.02,0.465,-0.926,0.0
16.481,0.422,-0.935,0.0
15.208,0.386,-0.943,0.0
14.01,0.353,-0.945,0.0
13.096,0.327,-0.953,0.0
12.167,0.301,-0.95,0.0
18.545,0.456,-0.926,0.0
16.836,0.41,-0.93,0.0
15.516,0.375,-0.939,0.0
14.457,0.346,-0.953,0.0
13.354,0.317,-0.952,0.0
12.419,0.292,-0.951,0.0
18.832,0.44,-0.912,0.0
17.208,0.399,-0.924,0.0
15.951,0.366,-0.941,0.0
14.673,0.334,-0.945,0.0
13.497,0.304,-0.941,0.0
12.734,0.285,-0.956,0.0
19.731,0.438,-0.926,0.0
17.847,0.393,-0.931,0.0
16.387,0.357,-0.942,0.0
15.021,0.324,-0.945,0.0
14.023,0.3,-0.956,0.0
12.996,0.276,-0.955,0.0
20.267,0.427,-0.919,0.0
18.277,0.381,-0.926,0.0
16.708,0.345,-0.934,0.0
15.355,0.314,-0.942,0.0
14.407,0.292,-0.96,0.0
13.259,0.266,-0.953,0.0
20.885,0.416,-0.914,0.0
18.768,0.37,-0.921,0.0
17.075,0.333,-0.927,0.0
15.769,0.305,-0.942,0.0
14.623,0.28,-0.95,0.0
13.482,0.255,-0.947,0.0
20.165,0.38,-0.85,0.0
19.634,0.366,-0.931,0.0
17.758,0.327,-0.936,0.0
16.248,0.296,-0.943,0.0
14.934,0.269,-0.946,0.0
13.867,0.248,-0.952,0.0
22.526,0.4,-0.912,0.0
20.28,0.356,-0.928,3.0
18.203,0.316,-0.929,0.0
16.66,0.286,-0.939,0.0
15.329,0.26,-0.945,0.0
14.298,0.24,-0.957,0.0
23.132,0.386,-0.899,0.0
20.241,0.334,-0.892,11.0
18.805,0.307,-0.928,0.0
17.042,0.275,-0.932,0.0
15.733,0.251,-0.943,0.0
14.624,0.231,-0.954,0.0
24.31,0.381,-0.903,0.0
20.138,0.312,-0.854,7.0
20.086,0.307,-0.957,0.0
17.721,0.268,-0.939,0.0
16.278,0.243,-0.948,0.0
14.934,0.22,-0.948,0.0
20.229,0.296,-0.716,5.0
20.202,0.293,-0.821,11.0
20.27,0.29,-0.93,7.0
18.423,0.26,-0.944,2.0
16.63,0.232,-0.939,0.0
15.386,0.212,-0.95,0.0
20.235,0.277,-0.681,25.0
20.239,0.273,-0.786,27.0
20.226,0.27,-0.892,12.0
18.514,0.244,-0.915,23.0
17.381,0.226,-0.95,0.0
15.796,0.202,-0.946,0.0
20.221,0.257,-0.644,28.0
20.216,0.254,-0.749,29.0
19.485,0.242,-0.824,14.0
18.549,0.227,-0.883,7.0
17.694,0.213,-0.935,2.0
16.326,0.194,-0.949,0.0
20.203,0.239,-0.607,34.0
20.227,0.236,-0.713,32.0
18.821,0.216,-0.762,150.0
18.535,0.21,-0.849,13.0
18.461,0.206,-0.942,7.0
16.744,0.184,-0.942,0.0
20.184,0.22,-0.569,36.0
20.208,0.218,-0.675,30.0
18.644,0.198,-0.72,151.0
18.547,0.194,-0.815,152.0
18.519,0.191,-0.91,37.0
18.331,0.186,-0.997,4.0
20.188,0.203,-0.532,33.0
20.21,0.2,-0.637,27.0
18.572,0.181,-0.682,23.0
18.512,0.178,-0.778,163.0
18.535,0.175,-0.876,63.0
18.462,0.172,-0.969,3.0
20.192,0.187,-0.494,28.0
20.187,0.184,-0.599,19.0
21.673,0.194,-0.755,150.0
18.518,0.163,-0.744,168.0
18.55,0.161,-0.841,150.0
18.503,0.158,-0.936,20.0
20.2,0.171,-0.455,28.0
20.19,0.168,-0.56,15.0
21.669,0.177,-0.713,153.0
18.577,0.149,-0.71,151.0
18.502,0.146,-0.804,157.0
18.531,0.144,-0.901,51.0
20.211,0.155,-0.417,25.0
20.198,0.152,-0.521,7.0
21.674,0.161,-0.672,41.0
21.598,0.157,-0.783,161.0
18.533,0.132,-0.769,155.0
18.534,0.13,-0.865,23.0
20.2,0.14,-0.377,27.0
20.181,0.137,-0.481,0.0
21.653,0.145,-0.628,21.0
21.624,0.142,-0.742,175.0
21.646,0.139,-0.855,150.0
18.564,0.117,-0.83,20.0
20.211,0.126,-0.337,27.0
0.0,0.0,0.0,0.0
32.492,0.195,-0.879,0.0
21.683,0.127,-0.701,151.0
21.655,0.124,-0.812,154.0
21.614,0.122,-0.922,150.0
20.213,0.113,-0.297,26.0
41.867,0.229,-0.831,1.0
0.0,0.0,0.0,0.0
21.685,0.113,-0.657,2.0
21.661,0.111,-0.769,154.0
21.65,0.108,-0.88,55.0
20.203,0.1,-0.256,18.0
41.847,0.203,-0.747,0.0
0.0,0.0,0.0,0.0
31.103,0.144,-0.88,0.0
21.649,0.098,-0.725,21.0
21.652,0.095,-0.837,16.0
20.2,0.088,-0.216,16.0
20.212,0.086,-0.32,0.0
38.489,0.16,-0.809,0.0
32.86,0.133,-0.864,2.0
28.018,0.11,-0.881,0.0
21.65,0.083,-0.793,2.0
20.216,0.077,-0.175,28.0
52.592,0.194,-0.726,0.0
40.568,0.146,-0.77,0.0
0.0,0.0,0.0,0.0
31.072,0.106,-0.913,0.0
26.264,0.087,-0.908,0.0
20.227,0.066,-0.133,28.0
20.238,0.064,-0.238,1.0
20.266,0.062,-0.342,0.0
20.201,0.06,-0.447,0.0
33.239,0.096,-0.908,2.0
20.238,0.057,-0.657,2.0
20.224,0.056,-0.091,18.0
20.256,0.054,-0.195,25.0
20.231,0.052,-0.299,5.0
20.246,0.05,-0.406,13.0
33.201,0.08,-0.837,3.0
20.263,0.047,-0.615,28.0
20.288,0.046,-0.049,24.0
20.27,0.045,-0.153,84.0
20.258,0.043,-0.258,150.0
20.268,0.042,-0.364,150.0
20.268,0.04,-0.469,150.0
20.266,0.039,-0.573,83.0
20.27,0.038,-0.007,150.0
20.261,0.036,-0.111,151.0
20.244,0.035,-0.215,152.0
20.263,0.034,-0.322,150.0
20.261,0.032,-0.426,150.0
20.266,0.031,-0.531,150.0
20.254,0.03,0.035,85.0
20.261,0.029,-0.068,152.0
20.25,0.027,-0.173,152.0
20.261,0.026,-0.279,151.0
20.265,0.025,-0.383,150.0
20.262,0.024,-0.488,150.0
20.154,0.023,0.078,29.0
20.237,0.022,-0.025,153.0
20.267,0.021,-0.13,151.0
20.264,0.019,-0.236,151.0
20.27,0.018,-0.34,150.0
20.268,0.017,-0.445,67.0
20.128,0.016,0.12,30.0
20.252,0.015,0.017,152.0
20.259,0.014,-0.087,151.0
20.262,0.013,-0.193,150.0
20.274,0.012,-0.297,73.0
20.251,0.012,-0.401,23.0
20.126,0.011,0.163,28.0
20.162,0.01,0.06,30.0
20.262,0.009,-0.043,150.0
20.25,0.008,-0.149,39.0
20.237,0.007,-0.253,14.0
20.243,0.007,-0.358,6.0
20.124,0.006,0.206,28.0
20.129,0.005,0.103,30.0
20.25,0.005,0.0,26.0
20.205,0.004,-0.106,20.0
20.228,0.003,-0.21,8.0
20.231,0.002,-0.314,4.0
20.128,0.002,0.249,27.0
20.116,0.001,0.145,28.0
20.166,0.001,0.042,20.0
20.203,0.0,-0.063,19.0
20.198,0.0,-0.167,14.0
20.21,0.0,-0.271,6.0
20.136,0.0,0.292,28.0
20.124,-0.001,0.188,29.0
20.131,-0.001,0.085,31.0
20.159,-0.002,-0.019,13.0
20.179,-0.002,-0.123,16.0
20.221,-0.002,-0.228,2.0
20.129,-0.003,0.335,29.0
20.127,-0.003,0.232,26.0
20.127,-0.004,0.128,28.0
20.129,-0.004,0.023,16.0
20.195,-0.004,-0.08,16.0
20.168,-0.004,-0.183,11.0
20.134,-0.005,0.379,27.0
20.129,-0.005,0.275,26.0
20.13,-0.005,0.172,28.0
20.122,-0.005,0.066,29.0
20.14,-0.005,-0.037,14.0
20.178,-0.005,-0.14,19.0
20.135,-0.006,0.422,29.0
20.13,-0.006,0.318,28.0
20.119,-0.006,0.215,26.0
20.114,-0.006,0.109,31.0
20.14,-0.006,0.006,15.0
20.167,-0.006,-0.097,15.0
20.136,-0.006,0.466,29.0
20.129,-0.006,0.362,26.0
20.118,-0.006,0.258,25.0
20.118,-0.006,0.153,26.0
20.139,-0.006,0.049,27.0
20.173,-0.005,-0.053,16.0
20.149,-0.006,0.509,24.0
20.128,-0.006,0.405,27.0
20.127,-0.005,0.302,27.0
20.124,-0.005,0.196,28.0
20.129,-0.005,0.093,33.0
20.153,-0.004,-0.01,11.0
20.166,-0.005,0.553,25.0
20.135,-0.004,0.449,28.0
20.124,-0.004,0.345,27.0
20.114,-0.003,0.239,25.0
20.12,-0.003,0.135,27.0
20.153,-0.002,0.032,20.0
20.183,-0.003,0.597,27.0
20.137,-0.002,0.491,24.0
20.129,-0.001,0.388,25.0
20.127,-0.001,0.282,26.0
20.119,0.0,0.178,28.0
20.131,0.0,0.075,33.0
20.189,0.0,0.64,45.0
20.146,0.0,0.535,20.0
20.141,0.001,0.431,27.0
20.117,0.001,0.325,27.0
20.118,0.002,0.221,26.0
20.127,0.003,0.118,30.0
20.164,0.003,0.682,29.0
20.174,0.003,0.578,27.0
20.133,0.004,0.474,26.0
20.127,0.005,0.368,25.0
20.123,0.006,0.264,26.0
20.114,0.007,0.161,28.0
20.124,0.007,0.724,33.0
20.181,0.008,0.622,34.0
20.174,0.009,0.518,21.0
20.129,0.01,0.411,26.0
20.132,0.011,0.307,26.0
20.122,0.012,0.203,26.0
20.118,0.012,0.766,29.0
20.178,0.013,0.664,44.0
20.172,0.014,0.56,27.0
20.127,0.015,0.453,27.0
20.123,0.016,0.349,25.0
20.127,0.018,0.245,26.0
20.115,0.017,0.808,27.0
20.122,0.019,0.704,30.0
20.195,0.02,0.603,31.0
20.149,0.021,0.495,22.0
20.131,0.023,0.391,26.0
20.126,0.024,0.287,26.0
20.121,0.024,0.85,28.0
20.112,0.025,0.746,27.0
20.175,0.027,0.644,45.0
20.162,0.028,0.537,25.0
20.129,0.029,0.433,28.0
20.133,0.031,0.329,27.0
20.101,0.031,0.891,17.0
20.098,0.032,0.787,27.0
20.135,0.034,0.685,28.0
20.182,0.036,0.58,29.0
20.14,0.037,0.474,25.0
20.13,0.039,0.37,26.0
66.779,0.13,3.1,12.0
20.102,0.04,0.829,26.0
20.113,0.042,0.725,29.0
20.186,0.044,0.621,36.0
20.158,0.046,0.516,27.0
20.146,0.047,0.412,29.0
66.908,0.159,3.244,37.0
20.102,0.049,0.87,20.0
20.091,0.051,0.765,20.0
20.177,0.053,0.662,29.0
20.172,0.055,0.558,27.0
20.146,0.057,0.453,29.0
66.824,0.189,3.375,35.0
20.125,0.059,0.912,9.0
20.098,0.06,0.806,20.0
20.127,0.062,0.701,28.0
20.187,0.065,0.599,25.0
20.155,0.067,0.494,24.0
66.809,0.223,3.51,31.0
66.419,0.228,3.145,34.0
20.107,0.071,0.847,19.0
20.126,0.073,0.742,27.0
20.222,0.075,0.641,25.0
20.179,0.077,0.534,24.0
59.446,0.23,3.242,37.0
103.703,0.412,5.118,31.0
20.12,0.082,0.888,11.0
20.1,0.084,0.781,20.0
20.171,0.086,0.679,10.0
20.186,0.089,0.575,23.0
59.462,0.264,3.362,65.0
66.799,0.303,3.429,22.0
66.024,0.307,3.045,25.0
20.115,0.096,0.821,19.0
20.135,0.098,0.717,16.0
20.216,0.101,0.615,13.0
59.48,0.299,3.48,55.0
66.877,0.344,3.564,32.0
65.914,0.347,3.169,4.0
20.124,0.108,0.86,11.0
20.153,0.111,0.757,13.0
102.613,0.578,3.323,39.0
67.163,0.38,4.059,27.0
104.731,0.606,5.784,15.0
103.595,0.612,5.18,22.0
65.935,0.398,2.947,7.0
20.189,0.124,0.797,3.0
102.512,0.646,3.516,42.0
67.187,0.425,4.19,30.0
59.492,0.384,3.4,4.0
66.922,0.441,3.476,14.0
65.865,0.443,3.071,35.0
101.91,0.7,4.22,52.0
102.354,0.716,3.706,20.0
46.247,0.325,2.973,55.0
59.458,0.426,3.511,25.0
66.956,0.488,3.604,33.0
65.838,0.49,3.194,34.0
110.118,0.835,4.768,13.0
110.318,0.852,4.201,9.0
67.183,0.521,4.446,20.0
59.423,0.469,3.622,50.0
101.146,0.814,5.634,8.0
65.839,0.539,3.317,43.0
102.079,0.851,4.611,32.0
0.0,0.0,0.0,0.0
67.2,0.573,4.574,23.0
59.357,0.515,3.728,61.0
119.306,1.053,6.869,12.0
66.077,0.593,3.452,41.0
102.093,0.932,4.799,21.0
111.626,1.035,4.664,23.0
67.212,0.626,4.697,19.0
59.381,0.562,3.838,19.0
101.26,0.975,6.014,17.0
66.548,0.651,3.597,45.0
102.065,1.014,4.981,28.0
111.645,1.127,4.865,22.0
67.229,0.682,4.821,17.0
59.386,0.612,3.946,8.0
59.639,0.623,3.649,12.0
67.105,0.712,3.747,40.0
66.018,0.711,3.341,7.0
111.608,1.22,5.063,30.0
67.213,0.739,4.94,17.0
46.317,0.517,3.16,46.0
59.674,0.675,3.757,40.0
67.25,0.772,3.873,9.0
66.059,0.769,3.458,16.0
111.543,1.317,5.255,13.0
67.299,0.799,5.064,17.0
46.36,0.558,3.244,58.0
59.707,0.729,3.863,46.0
67.441,0.834,4.001,4.0
66.081,0.829,3.573,27.0
111.486,1.417,5.443,7.0
67.198,0.859,5.172,6.0
46.364,0.601,3.324,59.0
59.751,0.784,3.968,49.0
67.539,0.898,4.123,18.0
66.837,0.9,3.728,44.0
69.317,0.947,3.502,8.0
43.257,0.594,3.404,4.0
46.411,0.645,3.406,48.0
59.768,0.841,4.071,52.0
101.848,1.451,6.389,8.0
69.366,1.001,3.984,3.0
101.947,1.489,5.319,5.0
52.635,0.773,4.229,7.0
46.428,0.69,3.485,77.0
59.793,0.9,4.172,34.0
67.577,1.029,4.35,13.0
67.518,1.04,3.99,7.0
66.17,1.032,3.561,2.0
46.454,0.728,3.809,9.0
46.435,0.737,3.561,39.0
59.579,0.956,4.253,56.0
67.671,1.098,4.465,18.0
67.556,1.109,4.1,16.0
110.442,1.833,6.12,2.0
46.444,0.775,3.883,37.0
67.736,1.143,5.303,42.0
59.494,1.015,4.341,35.0
67.614,1.167,4.568,36.0
69.152,1.206,4.306,6.0
66.236,1.168,3.774,7.0
46.432,0.823,3.954,43.0
42.656,0.764,3.406,2.0
59.347,1.075,4.423,16.0
67.575,1.237,4.67,23.0
102.433,1.895,6.536,10.0
66.218,1.237,3.874,15.0
46.458,0.873,4.028,56.0
43.279,0.822,3.522,12.0
59.283,1.137,4.509,24.0
67.559,1.309,4.772,25.0
102.411,2.005,6.689,7.0
66.225,1.309,3.974,21.0
46.532,0.925,4.105,4.0
43.225,0.868,3.582,12.0
59.059,1.197,4.579,33.0
67.399,1.379,4.859,12.0
66.276,1.37,4.426,35.0
66.223,1.382,4.07,21.0
40.298,0.846,3.614,11.0
43.889,0.93,3.701,5.0
58.568,1.252,4.626,34.0
67.449,1.455,4.961,10.0
67.726,1.475,4.62,13.0
66.197,1.456,4.163,28.0
40.269,0.891,3.67,31.0
43.983,0.981,3.772,4.0
43.053,0.969,3.462,5.0
52.78,1.199,3.957,6.0
67.716,1.553,4.715,8.0
66.043,1.528,4.246,3.0
46.632,1.086,4.315,4.0
40.393,0.948,3.521,5.0
42.823,1.014,3.503,4.0
66.432,1.587,5.072,29.0
65.996,1.589,4.685,20.0
53.495,1.3,3.511,11.0
40.351,0.986,3.789,60.0
46.405,1.144,4.108,7.0
52.318,1.3,4.35,10.0
57.869,1.45,4.495,14.0
65.985,1.667,4.772,11.0
101.345,2.582,6.787,2.0
40.359,1.035,3.843,19.0
40.456,1.046,3.635,42.0
0.0,0.0,0.0,0.0
52.096,1.368,4.115,16.0
52.848,1.399,3.891,4.0
67.959,1.814,4.639,4.0
53.017,1.424,5.118,18.0
40.385,1.093,3.681,69.0
52.06,1.42,4.464,25.0
52.018,1.43,4.175,7.0
52.518,1.454,3.933,37.0
67.886,1.895,4.719,10.0
59.336,1.667,5.803,18.0
40.383,1.143,3.731,60.0
40.412,1.152,3.515,12.0
43.653,1.254,3.557,3.0
68.425,1.981,5.208,5.0
53.059,1.547,3.753,5.0
52.533,1.542,5.202,1.0
53.0,1.566,4.96,6.0
42.972,1.279,3.789,2.0
43.632,1.308,3.608,4.0
52.016,1.571,4.02,4.0
68.317,2.077,4.912,4.0
52.47,1.606,5.257,3.0
53.175,1.639,5.039,6.0
52.776,1.637,4.715,9.0
50.776,1.586,4.256,6.0
51.828,1.63,4.064,4.0
200.36,6.348,14.634,4.0
52.442,1.672,5.314,5.0
53.186,1.707,5.1,6.0
46.649,1.507,4.22,11.0
51.174,1.664,4.347,17.0
43.742,1.432,3.478,7.0
236.668,7.8,17.543,11.0
58.503,1.941,5.993,6.0
43.385,1.448,4.207,1.0
43.659,1.467,3.996,13.0
46.894,1.586,4.033,7.0
50.555,1.72,4.074,4.0
52.266,1.79,3.929,10.0
58.422,2.015,6.046,5.0
52.461,1.82,5.143,5.0
46.217,1.613,4.279,6.0
46.823,1.645,4.076,9.0
58.297,2.061,4.757,5.0
52.063,1.851,3.966,20.0
46.298,1.658,4.838,8.0
52.391,1.887,5.188,5.0
43.658,1.581,4.085,5.0
43.714,1.593,3.848,2.0
47.025,1.724,3.883,5.0
0.0,0.0,0.0,0.0
60.234,2.236,6.353,18.0
60.218,2.248,6.021,3.0
53.427,2.005,5.05,5.0
46.955,1.773,4.177,5.0
52.899,2.009,4.418,24.0
51.767,1.977,4.041,4.0
46.72,1.796,4.971,6.0
60.071,2.322,6.061,2.0
42.925,1.668,4.096,3.0
46.599,1.821,4.187,3.0
42.809,1.682,3.612,3.0
47.158,1.863,3.722,3.0
46.63,1.855,5.002,4.0
46.047,1.841,4.686,3.0
52.559,2.113,5.061,5.0
53.331,2.155,4.837,1.0
46.96,1.907,4.002,7.0
51.36,2.097,4.097,3.0
46.198,1.9,4.994,3.0
46.038,1.903,4.723,5.0
52.433,2.178,5.091,8.0
46.038,1.922,4.213,4.0
47.03,1.973,4.046,15.0
52.484,2.214,4.228,6.0
46.206,1.962,5.032,8.0
46.854,2.0,4.844,3.0
52.294,2.243,5.118,5.0
46.026,1.983,4.247,3.0
47.061,2.038,4.084,10.0
52.582,2.289,4.275,9.0
46.449,2.036,5.093,19.0
46.821,2.062,4.876,9.0
59.233,2.621,5.842,4.0
45.992,2.045,4.278,9.0
53.21,2.377,4.656,2.0
43.774,1.965,3.59,2.0
46.404,2.097,5.122,5.0
46.76,2.123,4.902,3.0
45.846,2.091,4.553,1.0
45.978,2.107,4.307,8.0
53.206,2.449,4.692,2.0
43.793,2.025,3.621,0.0
46.612,2.17,5.175,6.0
46.676,2.183,4.923,1.0
45.821,2.152,4.58,5.0
45.951,2.167,4.334,12.0
53.072,2.515,4.713,1.0
47.136,2.243,3.926,6.0
46.954,2.25,5.242,17.0
46.556,2.24,4.939,3.0
59.145,2.858,5.947,17.0
45.955,2.23,4.361,4.0
45.881,2.236,4.101,1.0
47.127,2.306,3.953,8.0
46.976,2.315,5.271,12.0
46.234,2.288,4.931,1.0
46.675,2.319,4.719,1.0
45.965,2.292,4.388,5.0
47.152,2.372,3.98,9.0
47.192,2.39,5.321,6.0
46.219,2.35,4.953,2.0
46.676,2.383,4.743,3.0
45.851,2.35,4.4,5.0
45.947,2.364,4.155,2.0
47.237,2.44,4.01,4.0
47.177,2.454,5.342,4.0
46.257,2.415,4.98,12.0
59.369,3.112,6.061,3.0
45.782,2.409,4.414,3.0
45.927,2.425,4.174,8.0
47.237,2.504,4.031,6.0
47.299,2.525,5.377,4.0
45.779,2.452,4.948,12.0
46.663,2.509,4.784,1.0
45.611,2.461,4.417,4.0
45.68,2.474,4.17,2.0
47.265,2.569,4.052,12.0
60.78,3.327,6.933,4.0
46.243,2.54,5.016,9.0
46.897,2.585,4.825,2.0
45.623,2.524,4.435,3.0
0.0,0.0,0.0,0.0
47.258,2.65,5.407,1.0
46.258,2.603,5.033,8.0
46.406,2.62,4.79,2.0
45.518,2.579,4.439,7.0
46.024,2.626,3.976,8.0
47.187,2.71,5.414,1.0
46.249,2.665,5.047,7.0
46.437,2.684,4.807,1.0
45.844,2.668,4.228,2.0
0.0,0.0,0.0,0.0
47.187,2.775,5.426,1.0
46.239,2.727,5.057,7.0
45.513,2.693,4.722,2.0
45.706,2.712,4.481,1.0
45.922,2.734,4.246,4.0
45.839,2.737,3.983,2.0
46.894,2.82,5.403,4.0
46.185,2.786,5.061,2.0
45.866,2.783,4.506,3.0
46.975,2.859,4.352,1.0
47.444,2.896,4.13,3.0
47.255,2.905,5.452,1.0
46.206,2.848,5.071,1.0
45.75,2.836,4.501,9.0
45.507,2.829,4.222,1.0
47.469,2.96,4.139,5.0
47.206,2.963,5.452,2.0
46.244,2.911,5.08,0.0
45.756,2.896,4.507,3.0
45.569,2.892,4.233,3.0
0.0,0.0,0.0,0.0
47.159,3.022,5.45,2.0
0.0,0.0,0.0,0.0
45.703,2.951,4.504,3.0
45.555,2.95,4.234,3.0
47.376,3.076,4.137,1.0
47.117,3.08,5.447,1.0
0.0,0.0,0.0,0.0
45.432,2.992,4.478,5.0
45.542,3.008,4.233,2.0
0.0,0.0,0.0,0.0
0.0,0.0,0.0,0.0
45.493,3.054,4.483,17.0
47.728,3.212,4.434,1.0
46.216,3.139,5.34,2.0
0.0,0.0,0.0,0.0
45.551,3.115,4.485,4.0
47.551,3.259,4.414,2.0
46.167,3.193,5.33,2.0
0.0,0.0,0.0,0.0
46.159,3.206,4.806,0.0
45.571,3.173,4.482,7.0
45.592,3.181,4.227,7.0
0.0,0.0,0.0,0.0
0.0,0.0,0.0,0.0
45.608,3.231,4.478,8.0
47.369,3.363,4.383,1.0
0.0,0.0,0.0,0.0
0.0,0.0,0.0,0.0
45.697,3.292,4.478,3.0
0.0,0.0,0.0,0.0
0.0,0.0,0.0,0.0
45.751,3.35,4.472,1.0
45.503,3.345,3.933,2.0
0.0,0.0,0.0,0.0
0.0,0.0,0.0,0.0
45.421,3.393,3.912,1.0
0.0,0.0,0.0,0.0
0.0,0.0,0.0,0.0
45.878,3.466,4.457,1.0
45.424,3.444,3.897,1.0
0.0,0.0,0.0,0.0
0.0,0.0,0.0,0.0
45.497,3.483,4.666,3.0
45.917,3.521,4.443,1.0
45.451,3.497,3.882,0.0
0.0,0.0,0.0,0.0
0.0,0.0,0.0,0.0
45.49,3.533,4.647,1.0
45.966,3.575,4.429,1.0
0.0,0.0,0.0,0.0
0.0,0.0,0.0,0.0
45.96,3.624,4.408,1.0
115.887,9.154,10.456,7.0
114.636,9.07,9.691,4.0
0.0,0.0,0.0,0.0
45.283,3.608,4.843,2.0
0.0,0.0,0.0,0.0
45.985,3.675,4.388,1.0
112.195,8.994,9.429,3.0
45.173,3.642,5.067,1.0
45.093,3.64,4.8,0.0
0.0,0.0,0.0,0.0
46.005,3.724,4.366,0.0
115.83,9.389,10.332,5.0
116.269,9.439,9.709,5.0
0.0,0.0,0.0,0.0
0.0,0.0,0.0,0.0
115.833,9.481,11.601,3.0
114.363,9.373,10.788,2.0
116.115,9.529,10.291,2.0
117.366,9.645,9.733,2.0
0.0,0.0,0.0,0.0
114.912,9.508,12.098,2.0
115.731,9.587,11.521,7.0
115.406,9.572,10.816,9.0
112.815,9.368,9.93,3.0
117.549,9.774,9.676,7.0
0.0,0.0,0.0,0.0
0.0,0.0,0.0,0.0
0.0,0.0,0.0,0.0
115.961,9.726,10.795,3.0
115.428,9.695,10.084,7.0
112.695,9.476,9.203,2.0
0.0,0.0,0.0,0.0
114.949,9.727,11.953,3.0
0.0,0.0,0.0,0.0
115.222,9.771,10.647,3.0
109.613,9.305,9.502,2.0
96.45,8.198,7.81,8.0
0.0,0.0,0.0,0.0
0.0,0.0,0.0,0.0
114.848,9.832,11.201,3.0
115.359,9.885,10.578,1.0
114.968,9.861,9.884,2.0
96.492,8.286,7.744,3.0
0.0,0.0,0.0,0.0
0.0,0.0,0.0,0.0
114.999,9.943,11.131,6.0
115.042,9.956,10.463,3.0
114.97,9.958,9.799,25.0
114.918,9.964,9.137,4.0
0.0,0.0,0.0,0.0
114.935,10.025,11.695,8.0
114.935,10.032,11.036,6.0
113.982,9.958,10.277,13.0
99.536,8.704,8.404,4.0
96.244,8.424,7.576,1.0
0.0,0.0,0.0,0.0
114.91,10.114,11.601,3.0
115.148,10.142,10.963,3.0
109.535,9.656,9.787,4.0
99.51,8.779,8.321,2.0
109.579,9.676,8.536,1.0
0.0,0.0,0.0,0.0
115.073,10.218,11.519,2.0
116.064,10.312,10.951,2.0
86.111,7.656,7.622,2.0
86.002,7.653,7.118,1.0
84.818,7.553,6.534,5.0
0.0,0.0,0.0,0.0
114.616,10.261,11.374,9.0
114.768,10.281,10.728,4.0
114.873,10.297,10.065,3.0
86.073,7.72,7.048,1.0
98.249,8.82,7.482,2.0
115.171,10.386,11.99,2.0
0.0,0.0,0.0,0.0
0.0,0.0,0.0,0.0
0.0,0.0,0.0,0.0
107.965,9.758,8.742,2.0
98.216,8.883,7.389,2.0
0.0,0.0,0.0,0.0
0.0,0.0,0.0,0.0
114.948,10.453,10.532,2.0
97.979,8.914,8.404,5.0
91.783,8.355,7.345,1.0
97.873,8.915,7.271,6.0
0.0,0.0,0.0,0.0
0.0,0.0,0.0,0.0
115.039,10.532,10.43,3.0
99.233,9.089,8.416,6.0
91.766,8.41,7.255,3.0
96.91,8.886,7.105,12.0
0.0,0.0,0.0,0.0
0.0,0.0,0.0,0.0
86.153,7.938,7.725,7.0
99.17,9.142,8.31,5.0
99.139,9.143,7.738,2.0
96.571,8.91,6.983,4.0
0.0,0.0,0.0,0.0
0.0,0.0,0.0,0.0
107.028,9.92,9.487,3.0
85.321,7.911,7.063,5.0
91.815,8.517,7.072,5.0
96.566,8.961,6.883,10.0
0.0,0.0,0.0,0.0
99.499,9.271,9.289,1.0
91.694,8.546,8.031,2.0
85.901,8.008,7.02,9.0
99.227,9.254,7.538,2.0
96.455,8.999,6.774,5.0
114.774,10.747,11.257,6.0
0.0,0.0,0.0,0.0
114.64,10.739,9.918,3.0
86.041,8.061,6.939,7.0
91.96,8.619,6.887,2.0
93.44,8.76,6.461,4.0
0.0,0.0,0.0,0.0
85.101,8.008,7.76,5.0
114.739,10.798,9.799,5.0
86.091,8.104,6.846,10.0
101.043,9.513,7.455,2.0
93.293,8.786,6.347,4.0
99.231,9.378,9.51,1.0
85.118,8.044,7.665,5.0
86.49,8.174,7.289,2.0
85.969,8.126,6.74,11.0
80.241,7.585,5.829,2.0
87.563,8.279,5.858,4.0
92.071,8.734,8.718,4.0
85.118,8.074,7.567,3.0
91.77,8.706,7.627,6.0
86.02,8.16,6.645,4.0
96.524,9.158,6.9,7.0
87.578,8.311,5.756,4.0
114.754,10.924,10.73,6.0
107.956,10.276,9.469,5.0
92.377,8.793,7.569,3.0
92.383,8.793,7.027,4.0
96.478,9.183,6.784,5.0
87.649,8.343,5.658,4.0
98.954,9.448,9.134,3.0
107.814,10.293,9.328,3.0
84.442,8.06,6.818,8.0
92.178,8.799,6.901,5.0
96.511,9.212,6.67,4.0
97.765,9.332,6.194,6.0
99.026,9.479,9.021,5.0
84.878,8.123,7.241,5.0
99.659,9.536,7.926,3.0
92.079,8.81,6.782,2.0
85.125,8.144,5.78,2.0
78.443,7.504,4.875,3.0
99.07,9.504,8.902,5.0
85.13,8.165,7.156,6.0
91.942,8.816,7.198,3.0
92.844,8.9,6.723,7.0
85.321,8.179,5.687,1.0
84.752,8.123,5.161,6.0
92.08,8.848,8.157,5.0
85.237,8.187,7.058,7.0
85.992,8.258,6.624,3.0
92.898,8.919,6.61,7.0
78.395,7.525,5.126,0.0
84.987,8.157,5.068,12.0
91.17,8.771,7.961,4.0
92.098,8.857,7.508,8.0
85.961,8.264,6.512,4.0
93.006,8.939,6.499,2.0
100.399,9.647,6.436,3.0
85.169,8.182,4.97,15.0
91.185,8.779,7.845,5.0
92.079,8.862,7.388,9.0
92.354,8.885,6.876,2.0
85.45,8.218,5.86,7.0
87.528,8.415,5.498,3.0
85.248,8.194,4.865,3.0
91.238,8.787,7.731,5.0
92.14,8.87,7.273,5.0
92.468,8.898,6.764,3.0
85.438,8.218,5.749,4.0
84.973,8.17,5.228,3.0
87.033,8.366,4.854,3.0
85.308,8.215,7.115,5.0
84.163,8.1,6.532,4.0
92.848,8.932,6.669,7.0
100.386,9.653,6.621,4.0
85.064,8.176,5.121,7.0
84.581,8.126,4.605,5.0
85.297,8.209,7.0,10.0
85.912,8.264,6.553,5.0
90.475,8.697,6.378,2.0
100.363,9.643,6.486,3.0
85.129,8.176,5.01,13.0
86.503,8.304,4.594,1.0
92.128,8.857,7.435,13.0
84.556,8.124,6.335,4.0
85.418,8.202,5.906,4.0
87.466,8.394,5.534,5.0
85.187,8.171,4.899,4.0
91.735,8.795,4.748,9.0
92.093,8.841,7.308,5.0
92.405,8.864,6.798,4.0
85.407,8.188,5.789,5.0
78.293,7.501,4.848,3.0
86.979,8.328,4.885,4.0
97.386,9.32,4.909,7.0
85.979,8.238,6.705,3.0
98.782,9.457,7.132,3.0
100.442,9.609,6.671,4.0
84.593,8.087,5.122,22.0
84.192,8.044,4.612,4.0
97.256,9.287,4.768,4.0
85.967,8.216,6.584,3.0
90.493,8.641,6.408,2.0
87.575,8.357,5.696,4.0
84.504,8.058,5.0,14.0
89.781,8.555,4.795,3.0
83.971,7.996,4.002,3.0
92.094,8.777,6.927,5.0
96.489,9.187,6.699,3.0
97.727,9.297,6.221,2.0
99.095,9.42,5.726,3.0
91.766,8.717,4.773,6.0
86.452,8.206,3.999,2.0
91.986,8.736,6.789,4.0
85.375,8.101,5.808,3.0
78.364,7.429,4.878,5.0
87.123,8.253,4.913,2.0
97.421,9.221,4.934,8.0
87.56,8.281,3.93,9.0
80.22,7.589,5.81,4.0
87.64,8.284,5.84,8.0
84.943,8.021,5.17,11.0
84.143,7.938,4.627,4.0
87.448,8.242,4.305,2.0
86.57,8.152,3.764,6.0
96.505,9.091,6.852,4.0
87.607,8.244,5.713,3.0
85.277,8.016,5.07,5.0
86.383,8.112,4.629,2.0
87.854,8.243,4.203,3.0
110.949,10.4,4.671,6.0
93.523,8.767,6.509,4.0
85.063,7.965,5.428,4.0
87.506,8.185,5.08,2.0
86.681,8.099,4.524,10.0
96.502,9.008,4.48,2.0
108.179,10.088,4.4,20.0
85.928,8.012,5.858,4.0
84.372,7.857,5.265,5.0
84.989,7.906,4.813,3.0
97.356,9.046,4.943,6.0
87.59,8.13,3.944,10.0
105.394,9.773,4.139,2.0
84.968,7.876,5.672,4.0
78.432,7.261,4.784,4.0
84.061,7.773,4.642,6.0
120.266,11.108,5.938,7.0
87.361,8.06,3.81,9.0
116.243,10.713,4.403,22.0
85.049,7.834,5.558,3.0
87.498,8.049,5.214,3.0
91.853,8.438,4.944,6.0
138.187,12.681,6.63,5.0
108.172,9.914,4.567,7.0
109.677,10.04,4.002,29.0
89.208,8.161,5.704,1.0
86.958,7.944,5.059,1.0
97.081,8.857,5.089,3.0
88.142,8.031,4.105,5.0
108.126,9.84,4.414,5.0
109.708,9.971,3.848,15.0
109.822,9.973,6.868,4.0
83.898,7.607,4.763,3.0
97.653,8.842,4.981,5.0
108.11,9.775,4.881,10.0
120.765,10.904,4.759,28.0
121.385,10.947,4.087,23.0
78.339,7.057,4.787,4.0
84.015,7.556,4.65,4.0
111.26,9.991,5.517,5.0
108.17,9.701,4.732,5.0
109.795,9.833,4.173,13.0
121.199,10.84,3.911,13.0
78.246,6.989,4.672,2.0
85.998,7.669,4.64,7.0
115.287,10.266,5.558,6.0
86.211,7.665,3.652,1.0
122.168,10.845,4.472,25.0
143.78,12.745,4.439,26.0
91.711,8.117,5.347,4.0
111.562,9.858,5.863,4.0
108.29,9.553,5.069,3.0
99.981,8.806,4.095,2.0
121.158,10.656,4.268,14.0
143.75,12.623,4.239,33.0
85.006,7.452,4.839,2.0
86.158,7.54,4.408,5.0
87.409,7.636,3.97,8.0
103.7,9.046,4.105,2.0
143.592,12.504,4.86,18.0
144.104,12.529,4.053,30.0
91.564,7.945,5.085,5.0
108.168,9.37,5.386,6.0
143.498,12.408,6.322,11.0
143.278,12.367,5.475,21.0
143.748,12.387,4.668,23.0
144.082,12.395,3.854,13.0
85.624,7.35,4.637,2.0
88.276,7.563,4.274,1.0
143.545,12.277,6.126,12.0
121.128,10.34,4.462,12.0
143.916,12.263,4.476,25.0
197.183,16.773,5.005,16.0
92.44,7.845,4.879,3.0
87.401,7.402,4.112,7.0
98.951,8.365,4.088,4.0
144.052,12.155,5.11,10.0
144.479,12.168,4.299,7.0
196.939,16.558,4.733,4.0
96.858,8.122,4.983,5.0
99.298,8.309,4.538,5.0
143.641,11.997,5.741,22.0
157.02,13.088,5.36,13.0
156.913,13.053,4.457,15.0
0.0,0.0,0.0,0.0
97.05,8.036,4.861,2.0
99.391,8.211,4.408,5.0
143.997,11.871,5.56,12.0
167.864,13.812,5.504,13.0
156.533,12.852,4.236,7.0
196.321,16.086,4.189,19.0
92.268,7.537,4.498,4.0
109.883,8.957,4.727,5.0
157.025,12.772,5.856,4.0
160.606,13.034,5.054,16.0
156.245,12.655,4.023,32.0
156.009,12.609,3.125,23.0
87.841,7.076,4.166,3.0
109.87,8.832,4.582,3.0
167.114,13.401,6.012,5.0
154.93,12.398,4.673,15.0
194.929,15.563,4.764,16.0
155.974,12.425,2.92,45.0
121.468,9.643,5.603,2.0
166.79,13.208,6.738,4.0
166.996,13.193,5.789,18.0
169.225,13.338,4.883,9.0
155.683,12.243,3.603,13.0
155.965,12.237,2.718,27.0
99.521,7.779,4.46,3.0
154.611,12.054,6.044,15.0
107.291,8.345,3.581,1.0
178.185,13.824,4.911,8.0
155.944,12.068,3.407,22.0
162.163,12.52,2.618,27.0
96.57,7.426,4.204,7.0
154.651,11.862,5.847,9.0
156.933,12.006,5.038,31.0
156.877,11.97,4.124,20.0
162.029,12.33,3.334,13.0
168.244,12.773,2.503,44.0
96.662,7.308,4.086,13.0
108.68,8.194,3.973,2.0
163.484,12.293,5.041,15.0
155.88,11.69,3.903,29.0
167.923,12.559,3.246,25.0
168.223,12.547,2.292,23.0
108.111,8.028,4.434,1.0
163.814,12.131,5.782,4.0
166.601,12.302,4.931,15.0
168.479,12.405,4.008,17.0
173.352,12.73,3.136,29.0
173.482,12.704,2.15,18.0
0.0,0.0,0.0,0.0
166.308,12.086,5.668,15.0
156.246,11.322,4.433,14.0
178.543,12.898,4.029,19.0
173.601,12.505,2.929,22.0
0.0,0.0,0.0,0.0
161.005,11.507,6.21,10.0
171.812,12.243,5.647,5.0
161.795,11.493,4.395,12.0
172.41,12.211,3.685,6.0
0.0,0.0,0.0,0.0
0.0,0.0,0.0,0.0
156.499,10.962,5.85,5.0
0.0,0.0,0.0,0.0
173.026,12.041,4.498,13.0
210.347,14.593,4.249,10.0
0.0,0.0,0.0,0.0
0.0,0.0,0.0,0.0
156.85,10.754,5.681,13.0
0.0,0.0,0.0,0.0
178.455,12.152,4.43,7.0
0.0,0.0,0.0,0.0
0.0,0.0,0.0,0.0
0.0,0.0,0.0,0.0
162.02,10.863,5.682,6.0
162.72,10.87,4.78,23.0
202.312,13.468,4.793,6.0
209.739,13.915,3.755,6.0
199.49,13.187,2.437,5.0
0.0,0.0,0.0,0.0
162.656,10.655,5.522,11.0
174.186,11.367,4.922,6.0
0.0,0.0,0.0,0.0
0.0,0.0,0.0,0.0
0.0,0.0,0.0,0.0
154.952,9.966,0.844,5.0
162.959,10.416,5.353,3.0
0.0,0.0,0.0,0.0
198.076,12.564,4.256,9.0
0.0,0.0,0.0,0.0
207.469,13.061,2.082,6.0
155.384,9.744,0.678,40.0
0.0,0.0,0.0,0.0
195.95,12.16,5.113,6.0
198.156,12.248,4.045,8.0
202.595,12.471,2.966,5.0
0.0,0.0,0.0,0.0
0.0,0.0,0.0,0.0
160.69,9.746,4.935,3.0
195.709,11.819,4.9,8.0
0.0,0.0,0.0,0.0
208.088,12.46,2.829,11.0
197.515,11.778,1.567,25.0
0.0,0.0,0.0,0.0
194.848,11.493,5.786,4.0
0.0,0.0,0.0,0.0
0.0,0.0,0.0,0.0
0.0,0.0,0.0,0.0
197.397,11.438,1.368,32.0
0.0,0.0,0.0,0.0
194.905,11.165,5.592,8.0
0.0,0.0,0.0,0.0
0.0,0.0,0.0,0.0
0.0,0.0,0.0,0.0
196.469,11.046,1.168,8.0
0.0,0.0,0.0,0.0
196.042,10.892,5.435,31.0
196.068,10.839,4.326,56.0
196.063,10.784,3.216,30.0
196.084,10.732,2.088,46.0
0.0,0.0,0.0,0.0
0.0,0.0,0.0,0.0
0.0,0.0,0.0,0.0
196.452,10.511,4.15,6.0
0.0,0.0,0.0,0.0
206.682,10.947,2.01,15.0
0.0,0.0,0.0,0.0
0.0,0.0,0.0,0.0
197.472,10.27,5.109,23.0
0.0,0.0,0.0,0.0
199.636,10.272,2.91,6.0
197.077,10.087,1.741,20.0
197.103,10.033,0.629,16.0
0.0,0.0,0.0,0.0
0.0,0.0,0.0,0.0
197.738,9.869,3.825,11.0
197.823,9.816,2.71,16.0
196.99,9.721,1.567,27.0
0.0,0.0,0.0,0.0
0.0,0.0,0.0,0.0
196.523,9.502,4.743,11.0
0.0,0.0,0.0,0.0
0.0,0.0,0.0,0.0
197.001,9.356,1.403,32.0
0.0,0.0,0.0,0.0
0.0,0.0,0.0,0.0
0.0,0.0,0.0,0.0
0.0,0.0,0.0,0.0
205.02,9.416,2.471,8.0
196.85,8.983,1.244,35.0
0.0,0.0,0.0,0.0
0.0,0.0,0.0,0.0
195.492,8.72,4.402,40.0
195.5,8.663,3.302,52.0
195.506,8.606,2.202,52.0
195.573,8.551,1.082,27.0
0.0,0.0,0.0,0.0
0.0,0.0,0.0,0.0
0.0,0.0,0.0,0.0
196.635,8.343,3.174,8.0
0.0,0.0,0.0,0.0
196.673,8.226,0.945,45.0
0.0,0.0,0.0,0.0
0.0,0.0,0.0,0.0
196.888,8.032,4.142,8.0
203.897,8.254,3.143,23.0
203.898,8.195,1.999,19.0
196.63,7.842,0.804,27.0
0.0,0.0,0.0,0.0
69.079,2.713,-0.492,1.0
195.119,7.578,3.968,9.0
195.112,7.518,2.873,22.0
195.102,7.457,1.778,44.0
195.13,7.397,0.664,7.0
0.0,0.0,0.0,0.0
68.978,2.572,-0.538,3.0
0.0,0.0,0.0,0.0
195.918,7.16,2.756,23.0
196.357,7.116,1.661,21.0
0.0,0.0,0.0,0.0
0.0,0.0,0.0,0.0
68.95,2.436,-0.581,2.0
195.372,6.815,3.722,31.0
195.763,6.77,2.633,12.0
196.32,6.726,1.541,23.0
0.0,0.0,0.0,0.0
0.0,0.0,0.0,0.0
0.0,0.0,0.0,0.0
195.145,6.417,3.601,23.0
0.0,0.0,0.0,0.0
196.2,6.326,1.425,30.0
0.0,0.0,0.0,0.0
0.0,0.0,0.0,0.0
0.0,0.0,0.0,0.0
0.0,0.0,0.0,0.0
201.71,6.158,2.481,25.0
195.989,5.921,1.316,38.0
0.0,0.0,0.0,0.0
0.0,0.0,0.0,0.0
0.0,0.0,0.0,0.0
0.0,0.0,0.0,0.0
195.657,5.571,2.304,9.0
103.191,2.905,0.639,1.0
103.249,2.873,0.053,3.0
0.0,0.0,0.0,0.0
0.0,0.0,0.0,0.0
193.524,5.175,3.264,11.0
0.0,0.0,0.0,0.0
103.029,2.686,0.588,1.0
100.366,2.586,0.004,1.0
0.0,0.0,0.0,0.0
0.0,0.0,0.0,0.0
194.93,4.809,3.199,15.0
0.0,0.0,0.0,0.0
100.088,2.403,0.527,1.0
100.145,2.37,-0.039,42.0
0.0,0.0,0.0,0.0
0.0,0.0,0.0,0.0
195.248,4.408,3.122,24.0
0.0,0.0,0.0,0.0
100.053,2.191,0.486,3.0
100.026,2.157,-0.08,8.0
0.0,0.0,0.0,0.0
0.0,0.0,0.0,0.0
199.568,4.087,3.115,14.0
0.0,0.0,0.0,0.0
99.958,1.979,0.448,6.0
0.0,0.0,0.0,0.0
0.0,0.0,0.0,0.0
0.0,0.0,0.0,0.0
194.876,3.581,2.974,17.0
0.0,0.0,0.0,0.0
99.789,1.766,0.414,5.0
99.981,1.735,-0.149,1.0
0.0,0.0,0.0,0.0
0.0,0.0,0.0,0.0
194.708,3.17,2.911,19.0
0.0,0.0,0.0,0.0
99.652,1.553,0.384,5.0
101.321,1.545,-0.181,2.0
0.0,0.0,0.0,0.0
0.0,0.0,0.0,0.0
20.303,0.287,0.298,0.0
0.0,0.0,0.0,0.0
