X,Y,Z,Reflectivity
38.607,-1.224,1.206,63.0
38.619,-1.211,0.989,70.0
38.625,-1.198,0.771,73.0
38.603,-1.184,0.548,71.0
38.625,-1.172,0.331,71.0
38.652,-1.159,0.113,75.0
38.553,-1.147,1.176,70.0
38.606,-1.135,0.959,76.0
38.651,-1.122,0.742,80.0
38.605,-1.108,0.519,70.0
38.649,-1.096,0.301,80.0
38.671,-1.084,0.083,71.0
38.566,-1.072,1.146,73.0
38.632,-1.06,0.93,63.0
38.648,-1.047,0.711,63.0
38.654,-1.035,0.489,55.0
38.676,-1.022,0.271,52.0
38.699,-1.01,0.052,33.0
38.662,-0.999,1.118,42.0
38.702,-0.987,0.9,44.0
0.0,0.0,0.0,0.0
40.418,-1.003,0.478,25.0
40.413,-0.989,0.249,33.0
40.413,-0.975,0.02,39.0
38.728,-0.925,1.086,47.0
40.399,-0.951,0.904,38.0
40.407,-0.938,0.676,38.0
40.446,-0.926,0.443,150.0
40.411,-0.911,0.214,45.0
40.438,-0.899,-0.014,3.0
40.422,-0.887,1.098,28.0
38.393,-0.83,0.825,49.0
38.385,-0.817,0.607,26.0
52.933,-1.109,0.532,7.0
52.93,-1.092,0.232,56.0
52.938,-1.075,-0.067,65.0
64.325,-1.289,1.688,12.0
38.228,-0.753,0.786,3.0
52.999,-1.028,0.789,1.0
52.99,-1.01,0.483,9.0
61.31,-1.148,0.211,4.0
20.116,-0.37,-0.044,18.0
190.792,-3.462,4.824,25.0
191.6,-3.415,3.756,24.0
176.644,-3.091,2.461,29.0
20.13,-0.345,0.164,5.0
20.139,-0.339,0.049,50.0
59.56,-0.984,-0.19,6.0
59.511,-0.966,1.445,3.0
53.527,-0.852,0.995,6.0
20.126,-0.313,0.259,9.0
20.116,-0.307,0.143,14.0
59.518,-0.89,0.086,9.0
56.789,-0.831,-0.24,2.0
53.501,-0.768,1.243,13.0
20.127,-0.282,0.353,12.0
20.118,-0.276,0.238,11.0
20.142,-0.27,0.122,8.0
59.548,-0.779,0.023,55.0
56.435,-0.721,-0.298,1.0
20.15,-0.251,0.446,13.0
20.132,-0.245,0.331,10.0
20.162,-0.239,0.217,9.0
56.131,-0.648,0.28,4.0
56.218,-0.631,-0.039,1.0
59.313,-0.648,-0.378,4.0
20.151,-0.214,0.424,19.0
20.173,-0.208,0.31,3.0
53.374,-0.535,0.516,8.0
53.362,-0.519,0.207,5.0
53.348,-0.503,-0.095,4.0
20.196,-0.184,-0.151,3.0
20.244,-0.178,0.403,17.0
20.261,-0.172,0.288,9.0
58.312,-0.478,0.497,15.0
20.167,-0.159,0.055,9.0
20.176,-0.153,-0.059,18.0
20.148,-0.147,-0.174,18.0
20.154,-0.141,0.378,17.0
20.13,-0.135,0.263,17.0
20.128,-0.129,0.148,18.0
20.138,-0.123,0.031,28.0
20.141,-0.116,-0.083,26.0
20.155,-0.111,-0.198,24.0
20.122,-0.105,0.353,31.0
20.125,-0.099,0.238,26.0
20.127,-0.093,0.124,28.0
20.122,-0.087,0.007,36.0
20.133,-0.081,-0.107,30.0
20.134,-0.075,-0.222,17.0
20.119,-0.069,0.328,32.0
20.119,-0.063,0.213,28.0
20.124,-0.057,0.098,39.0
20.12,-0.051,-0.018,36.0
20.152,-0.046,-0.133,31.0
20.146,-0.04,-0.248,18.0
20.122,-0.034,0.303,28.0
20.113,-0.028,0.188,30.0
20.127,-0.022,0.073,29.0
20.185,-0.017,-0.043,15.0
20.215,-0.011,-0.159,13.0
20.243,-0.005,-0.275,23.0
20.124,0.0,0.277,29.0
20.131,0.005,0.162,26.0
20.239,0.011,0.047,117.0
20.256,0.017,-0.07,151.0
20.262,0.022,-0.186,150.0
20.248,0.028,-0.301,48.0
20.142,0.034,0.251,30.0
20.149,0.039,0.135,27.0
20.215,0.045,0.02,23.0
20.203,0.051,-0.096,25.0
20.202,0.056,-0.212,8.0
0.0,0.0,0.0,0.0
20.149,0.068,0.223,28.0
20.176,0.073,0.108,27.0
20.189,0.079,-0.006,26.0
20.184,0.084,-0.124,30.0
20.197,0.09,-0.24,25.0
20.204,0.095,-0.355,7.0
20.159,0.101,0.196,28.0
20.192,0.107,0.08,33.0
20.184,0.112,-0.034,29.0
20.165,0.118,-0.152,35.0
20.186,0.123,-0.268,30.0
20.193,0.129,-0.384,25.0
20.184,0.134,0.167,26.0
20.216,0.14,0.052,23.0
20.208,0.145,-0.063,22.0
20.157,0.15,-0.181,18.0
20.17,0.156,-0.296,34.0
20.187,0.161,-0.413,33.0
20.287,0.168,0.139,26.0
20.332,0.173,0.023,30.0
20.205,0.177,-0.092,13.0
20.151,0.182,-0.21,18.0
20.176,0.188,-0.326,30.0
20.193,0.193,-0.442,25.0
20.321,0.199,0.11,30.0
20.325,0.205,-0.006,7.0
20.288,0.209,-0.122,0.0
20.168,0.213,-0.239,19.0
20.181,0.219,-0.355,27.0
20.182,0.224,-0.471,21.0
20.325,0.231,0.08,1.0
0.0,0.0,0.0,0.0
0.0,0.0,0.0,0.0
20.198,0.245,-0.27,4.0
20.182,0.25,-0.386,17.0
20.21,0.255,-0.502,23.0
99.608,1.285,0.241,6.0
0.0,0.0,0.0,0.0
0.0,0.0,0.0,0.0
0.0,0.0,0.0,0.0
20.273,0.281,-0.418,0.0
32.276,0.456,-0.852,1.0
99.797,1.436,0.088,5.0
0.0,0.0,0.0,0.0
0.0,0.0,0.0,0.0
0.0,0.0,0.0,0.0
0.0,0.0,0.0,0.0
31.343,0.489,-0.876,1.0
99.735,1.581,-0.067,1.0
0.0,0.0,0.0,0.0
0.0,0.0,0.0,0.0
0.0,0.0,0.0,0.0
34.179,0.574,-0.813,1.0
29.7,0.505,-0.877,0.0
0.0,0.0,0.0,0.0
0.0,0.0,0.0,0.0
0.0,0.0,0.0,0.0
0.0,0.0,0.0,0.0
32.89,0.598,-0.834,1.0
28.403,0.523,-0.884,0.0
0.0,0.0,0.0,0.0
0.0,0.0,0.0,0.0
0.0,0.0,0.0,0.0
37.524,0.726,-0.796,0.0
31.765,0.621,-0.857,1.0
26.764,0.53,-0.876,0.0
0.0,0.0,0.0,0.0
0.0,0.0,0.0,0.0
42.942,0.879,-0.729,0.0
35.869,0.742,-0.819,0.0
30.551,0.639,-0.874,1.0
25.968,0.549,-0.893,0.0
0.0,0.0,0.0,0.0
0.0,0.0,0.0,0.0
40.461,0.882,-0.754,0.0
33.614,0.74,-0.823,0.0
28.678,0.637,-0.868,0.0
24.79,0.556,-0.894,0.0
0.0,0.0,0.0,0.0
0.0,0.0,0.0,0.0
0.0,0.0,0.0,0.0
32.21,0.751,-0.843,1.0
27.301,0.642,-0.872,0.0
23.868,0.566,-0.9,0.0
0.0,0.0,0.0,0.0
0.0,0.0,0.0,0.0
36.513,0.889,-0.803,0.0
31.081,0.763,-0.866,1.0
26.293,0.651,-0.884,0.0
22.786,0.568,-0.898,0.0
0.0,0.0,0.0,0.0
0.0,0.0,0.0,0.0
34.878,0.891,-0.826,0.0
29.254,0.753,-0.865,0.0
25.121,0.652,-0.887,0.0
22.292,0.583,-0.916,0.0
0.0,0.0,0.0,0.0
39.17,1.039,-0.768,0.0
32.662,0.873,-0.829,0.0
28.113,0.757,-0.879,0.0
24.149,0.655,-0.895,0.0
21.25,0.58,-0.91,0.0
0.0,0.0,0.0,0.0
0.0,0.0,0.0,0.0
31.547,0.879,-0.855,1.0
26.397,0.741,-0.871,0.0
23.095,0.652,-0.896,0.0
20.513,0.583,-0.914,0.0
42.358,1.212,-0.734,0.0
35.397,1.019,-0.817,0.0
29.88,0.866,-0.863,0.0
25.492,0.744,-0.886,0.0
22.371,0.657,-0.907,0.0
19.942,0.589,-0.924,0.0
0.0,0.0,0.0,0.0
32.721,0.978,-0.813,0.0
28.407,0.854,-0.87,0.0
24.373,0.737,-0.89,0.0
21.45,0.652,-0.907,0.0
18.89,0.578,-0.909,0.0
37.799,1.163,-0.788,0.0
31.9,0.986,-0.849,0.0
26.92,0.837,-0.872,0.0
23.316,0.729,-0.893,0.0
20.689,0.65,-0.912,0.0
18.508,0.585,-0.923,0.0
35.673,1.133,-0.807,0.0
30.046,0.959,-0.853,1.0
25.703,0.825,-0.878,0.0
22.412,0.723,-0.898,0.0
20.034,0.65,-0.919,0.0
17.974,0.586,-0.928,0.0
32.826,1.074,-0.801,0.0
28.528,0.938,-0.861,0.0
24.53,0.811,-0.882,0.0
21.675,0.72,-0.908,0.0
19.187,0.641,-0.914,0.0
17.269,0.579,-0.923,0.0
32.077,1.08,-0.841,1.0
27.024,0.914,-0.864,0.0
23.644,0.803,-0.893,0.0
20.683,0.706,-0.903,0.0
18.57,0.637,-0.918,0.0
16.789,0.578,-0.928,0.0
30.166,1.043,-0.844,1.0
25.977,0.902,-0.878,0.0
22.577,0.787,-0.893,0.0
20.095,0.704,-0.914,0.0
17.987,0.633,-0.922,0.0
16.322,0.577,-0.932,0.0
29.115,1.031,-0.868,0.0
24.667,0.877,-0.878,0.0
21.811,0.779,-0.902,0.0
19.367,0.694,-0.916,0.0
17.441,0.628,-0.926,0.0
15.949,0.577,-0.939,0.0
26.789,0.971,-0.847,0.0
23.64,0.86,-0.884,0.0
20.804,0.76,-0.899,0.0
18.606,0.682,-0.913,0.0
16.843,0.62,-0.924,0.0
15.432,0.57,-0.937,0.0
25.81,0.955,-0.863,1.0
22.621,0.84,-0.887,0.0
20.177,0.752,-0.908,0.0
18.066,0.676,-0.92,0.0
16.369,0.615,-0.928,0.0
15.023,0.566,-0.939,0.0
24.756,0.934,-0.873,2.0
21.979,0.832,-0.902,0.0
19.585,0.744,-0.917,0.0
17.726,0.676,-0.935,0.0
16.041,0.614,-0.939,0.0
14.612,0.561,-0.94,0.0
23.857,0.917,-0.884,1.0
20.477,0.79,-0.877,0.0
18.723,0.724,-0.911,0.0
16.88,0.655,-0.921,0.0
15.471,0.602,-0.934,0.0
14.342,0.56,-0.949,0.0
22.884,0.894,-0.89,1.0
20.225,0.793,-0.904,11.0
18.212,0.716,-0.919,0.0
16.43,0.648,-0.927,0.0
15.081,0.597,-0.938,0.0
13.91,0.552,-0.946,0.0
22.295,0.885,-0.908,1.0
19.842,0.79,-0.923,0.0
17.744,0.708,-0.928,0.0
16.034,0.642,-0.933,0.0
14.661,0.589,-0.939,0.0
13.465,0.542,-0.94,0.0
20.286,0.817,-0.863,1.0
18.736,0.757,-0.905,0.0
16.958,0.687,-0.918,0.0
15.525,0.63,-0.932,0.0
14.321,0.583,-0.943,0.0
13.215,0.539,-0.947,0.0
20.201,0.824,-0.896,8.0
18.262,0.747,-0.916,0.0
16.555,0.679,-0.926,0.0
15.115,0.621,-0.935,0.0
13.947,0.575,-0.944,0.0
12.877,0.532,-0.946,0.0
19.912,0.822,-0.919,0.0
17.825,0.738,-0.926,0.0
16.108,0.668,-0.93,0.0
14.714,0.612,-0.937,0.0
13.522,0.564,-0.94,0.0
12.53,0.524,-0.944,0.0
18.86,0.787,-0.905,0.0
17.002,0.711,-0.914,0.0
15.585,0.654,-0.929,0.0
14.404,0.605,-0.943,0.0
13.259,0.559,-0.946,0.0
12.285,0.519,-0.948,0.0
18.354,0.774,-0.914,0.0
16.603,0.701,-0.923,0.0
15.17,0.642,-0.931,0.0
14.109,0.599,-0.949,0.0
12.876,0.547,-0.942,0.0
11.983,0.51,-0.946,0.0
20.238,0.861,-1.044,1.0
16.168,0.689,-0.928,0.0
14.773,0.631,-0.934,0.0
13.402,0.573,-0.926,0.0
12.608,0.54,-0.945,0.0
11.679,0.502,-0.943,0.0
20.235,0.868,-1.08,4.0
15.716,0.675,-0.93,0.0
14.439,0.621,-0.938,0.0
13.276,0.572,-0.941,0.0
12.317,0.532,-0.945,0.0
11.448,0.495,-0.945,0.0
16.705,0.721,-0.921,0.0
15.252,0.659,-0.93,0.0
14.177,0.614,-0.947,0.0
12.947,0.562,-0.941,0.0
12.042,0.523,-0.945,0.0
11.181,0.487,-0.943,0.0
16.222,0.704,-0.924,0.0
14.879,0.647,-0.934,0.0
20.244,0.882,-1.388,0.0
12.709,0.554,-0.946,0.0
11.773,0.514,-0.946,0.0
11.06,0.484,-0.953,0.0
15.842,0.691,-0.93,0.0
14.487,0.633,-0.935,0.0
13.381,0.585,-0.941,0.0
12.388,0.543,-0.945,0.0
11.502,0.504,-0.944,0.0
10.731,0.471,-0.943,0.0
15.366,0.673,-0.929,0.0
14.284,0.626,-0.946,0.0
13.045,0.573,-0.94,0.0
12.048,0.529,-0.94,0.0
11.266,0.496,-0.944,0.0
10.58,0.466,-0.948,0.0
14.986,0.658,-0.932,0.0
20.167,0.887,-1.372,0.0
12.822,0.564,-0.947,0.0
11.81,0.52,-0.942,0.0
11.045,0.487,-0.945,0.0
10.34,0.457,-0.945,0.0
14.589,0.642,-0.933,0.0
13.462,0.593,-0.939,0.0
12.431,0.548,-0.939,0.0
11.571,0.511,-0.943,0.0
10.856,0.48,-0.948,0.0
10.156,0.449,-0.946,0.0
14.328,0.631,-0.941,0.0
13.142,0.579,-0.939,0.0
12.198,0.538,-0.943,0.0
11.359,0.502,-0.945,0.0
10.63,0.47,-0.946,0.0
9.965,0.441,-0.945,0.0
20.214,0.891,-1.362,0.0
12.853,0.567,-0.941,0.0
11.898,0.525,-0.94,0.0
11.148,0.492,-0.947,0.0
10.417,0.46,-0.945,0.0
9.787,0.433,-0.945,0.0
20.243,0.892,-1.398,0.0
12.591,0.555,-0.942,0.0
11.602,0.511,-0.936,0.0
10.894,0.481,-0.943,0.0
10.241,0.452,-0.946,0.0
9.624,0.425,-0.946,0.0
13.319,0.586,-0.942,0.0
12.292,0.541,-0.94,0.0
11.474,0.505,-0.945,0.0
10.654,0.469,-0.94,0.0
10.032,0.442,-0.944,0.0
9.491,0.418,-0.948,0.0
13.009,0.57,-0.941,0.0
12.04,0.528,-0.941,0.0
11.19,0.491,-0.94,0.0
10.446,0.459,-0.939,0.0
9.885,0.434,-0.946,0.0
9.299,0.409,-0.945,0.0
12.759,0.558,-0.944,0.0
11.77,0.514,-0.939,0.0
11.067,0.484,-0.947,0.0
10.335,0.452,-0.946,0.0
9.712,0.425,-0.945,0.0
9.152,0.401,-0.944,0.0
12.442,0.542,-0.94,0.0
11.521,0.501,-0.938,0.0
10.822,0.471,-0.944,0.0
10.13,0.441,-0.943,0.0
9.573,0.417,-0.947,0.0
8.982,0.391,-0.941,0.0
12.194,0.528,-0.941,0.0
11.355,0.492,-0.942,0.0
10.654,0.461,-0.946,0.0
9.974,0.432,-0.945,0.0
9.407,0.407,-0.946,0.0
8.859,0.384,-0.942,0.0
11.953,0.515,-0.941,0.0
11.089,0.477,-0.937,0.0
10.434,0.449,-0.942,0.0
9.817,0.422,-0.945,0.0
9.232,0.397,-0.942,0.0
8.734,0.376,-0.943,0.0
11.709,0.501,-0.94,0.0
10.963,0.468,-0.943,0.0
10.258,0.438,-0.942,0.0
9.671,0.413,-0.946,0.0
9.084,0.388,-0.941,0.0
8.608,0.367,-0.942,0.0
11.479,0.487,-0.939,0.0
10.714,0.454,-0.938,0.0
10.08,0.427,-0.941,0.0
9.499,0.402,-0.943,0.0
8.979,0.38,-0.944,0.0
8.478,0.359,-0.941,0.0
11.308,0.476,-0.941,0.0
10.564,0.444,-0.941,0.0
9.914,0.416,-0.94,0.0
9.32,0.391,-0.939,0.0
8.814,0.37,-0.94,0.0
8.39,0.352,-0.943,0.0
11.128,0.464,-0.943,0.0
10.419,0.434,-0.943,0.0
9.8,0.408,-0.944,0.0
9.222,0.383,-0.943,0.0
8.711,0.362,-0.941,0.0
8.264,0.343,-0.941,0.0
10.889,0.449,-0.938,0.0
10.234,0.421,-0.941,0.0
9.629,0.396,-0.941,0.0
9.099,0.374,-0.943,0.0
8.621,0.354,-0.944,0.0
8.183,0.336,-0.944,0.0
10.737,0.438,-0.94,0.0
10.103,0.411,-0.943,0.0
9.512,0.387,-0.943,0.0
8.963,0.364,-0.941,0.0
8.502,0.345,-0.943,0.0
8.068,0.327,-0.942,0.0
10.618,0.427,-0.944,0.0
9.955,0.4,-0.943,0.0
9.374,0.376,-0.942,0.0
8.836,0.354,-0.94,0.0
8.382,0.336,-0.941,0.0
8.018,0.321,-0.947,0.0
10.417,0.414,-0.94,0.0
9.838,0.39,-0.945,0.0
9.256,0.367,-0.942,0.0
8.711,0.345,-0.939,0.0
8.313,0.328,-0.944,0.0
7.912,0.312,-0.945,0.0
10.315,0.404,-0.944,0.0
9.695,0.379,-0.944,0.0
9.106,0.355,-0.939,0.0
8.64,0.337,-0.942,0.0
8.226,0.32,-0.945,0.0
7.811,0.304,-0.943,0.0
10.131,0.39,-0.941,0.0
9.545,0.367,-0.941,0.0
8.975,0.345,-0.937,0.0
8.571,0.329,-0.946,0.0
8.132,0.311,-0.945,0.0
7.758,0.297,-0.946,0.0
10.002,0.379,-0.941,0.0
9.414,0.356,-0.94,0.0
8.886,0.336,-0.939,0.0
8.433,0.318,-0.941,0.0
8.056,0.303,-0.946,0.0
7.672,0.288,-0.945,0.0
9.888,0.368,-0.942,0.0
9.309,0.346,-0.941,0.0
8.776,0.326,-0.938,0.0
8.308,0.308,-0.937,0.0
7.962,0.294,-0.944,0.0
7.614,0.281,-0.947,0.0
9.737,0.356,-0.939,0.0
9.196,0.335,-0.94,0.0
8.691,0.316,-0.939,0.0
8.244,0.299,-0.939,0.0
7.877,0.286,-0.943,0.0
7.514,0.272,-0.944,0.0
9.642,0.346,-0.941,0.0
9.077,0.325,-0.938,0.0
8.603,0.307,-0.939,0.0
8.125,0.289,-0.935,0.0
7.81,0.277,-0.944,0.0
7.456,0.264,-0.945,0.0
9.542,0.335,-0.942,0.0
9.007,0.315,-0.941,0.0
8.487,0.296,-0.936,0.0
8.09,0.282,-0.94,0.0
7.728,0.269,-0.943,0.0
7.435,0.258,-0.95,0.0
9.433,0.324,-0.941,0.0
8.911,0.305,-0.94,0.0
8.45,0.288,-0.941,0.0
7.986,0.272,-0.936,0.0
7.656,0.26,-0.942,0.0
7.344,0.249,-0.946,0.0
9.33,0.313,-0.94,0.0
8.788,0.294,-0.936,0.0
8.398,0.28,-0.943,0.0
7.945,0.264,-0.939,0.0
7.601,0.252,-0.943,0.0
7.288,0.241,-0.946,0.0
9.224,0.302,-0.939,0.0
8.733,0.285,-0.939,0.0
8.25,0.268,-0.935,0.0
7.886,0.256,-0.94,0.0
7.573,0.245,-0.947,0.0
7.264,0.234,-0.95,0.0
9.16,0.292,-0.941,0.0
8.653,0.275,-0.939,0.0
8.198,0.259,-0.937,0.0
7.828,0.247,-0.941,0.0
7.495,0.236,-0.944,0.0
7.179,0.225,-0.946,0.0
9.036,0.28,-0.937,0.0
8.585,0.265,-0.939,0.0
8.188,0.252,-0.943,0.0
7.769,0.238,-0.94,0.0
7.45,0.227,-0.945,0.0
7.128,0.217,-0.946,0.0
8.961,0.27,-0.937,0.0
8.512,0.255,-0.939,0.0
8.111,0.242,-0.941,0.0
7.738,0.23,-0.943,0.0
7.413,0.22,-0.947,0.0
7.122,0.21,-0.951,0.0
8.899,0.26,-0.938,0.0
8.463,0.246,-0.94,0.0
8.03,0.232,-0.938,0.0
7.672,0.221,-0.942,0.0
7.327,0.21,-0.942,0.0
7.065,0.202,-0.949,0.0
8.825,0.249,-0.937,0.0
8.421,0.237,-0.942,0.0
8.018,0.224,-0.943,0.0
7.642,0.213,-0.944,0.0
7.299,0.203,-0.944,0.0
7.039,0.194,-0.951,0.0
8.738,0.238,-0.934,0.0
8.319,0.226,-0.937,0.0
7.93,0.214,-0.939,0.0
7.559,0.203,-0.939,0.0
7.293,0.195,-0.948,0.0
0.0,0.0,0.0,0.0
8.691,0.229,-0.935,0.0
8.269,0.216,-0.937,0.0
7.891,0.205,-0.94,0.0
7.551,0.196,-0.943,0.0
7.253,0.187,-0.948,0.0
7.012,0.18,-0.957,0.0
8.674,0.22,-0.939,0.0
8.209,0.207,-0.936,0.0
7.839,0.196,-0.939,0.0
7.495,0.187,-0.941,0.0
7.21,0.179,-0.947,0.0
0.0,0.0,0.0,0.0
8.629,0.21,-0.94,0.0
8.16,0.197,-0.935,0.0
7.802,0.188,-0.939,0.0
7.478,0.179,-0.944,0.0
7.169,0.17,-0.946,0.0
0.0,0.0,0.0,0.0
8.599,0.2,-0.941,0.0
8.175,0.189,-0.942,0.0
7.77,0.179,-0.939,0.0
0.0,0.0,0.0,0.0
7.163,0.163,-0.949,0.0
6.87,0.155,-0.95,0.0
8.504,0.189,-0.935,0.0
8.101,0.179,-0.937,0.0
7.73,0.17,-0.939,0.0
0.0,0.0,0.0,0.0
7.119,0.154,-0.947,0.0
0.0,0.0,0.0,0.0
8.493,0.18,-0.938,0.0
8.046,0.17,-0.935,0.0
7.731,0.162,-0.943,0.0
7.36,0.153,-0.94,0.0
7.083,0.146,-0.946,0.0
0.0,0.0,0.0,0.0
8.46,0.171,-0.939,0.0
8.047,0.161,-0.939,0.0
7.686,0.153,-0.94,0.0
0.0,0.0,0.0,0.0
0.0,0.0,0.0,0.0
0.0,0.0,0.0,0.0
8.438,0.161,-0.94,0.0
8.033,0.152,-0.94,0.0
7.644,0.143,-0.938,0.0
0.0,0.0,0.0,0.0
0.0,0.0,0.0,0.0
6.775,0.124,-0.949,0.0
8.385,0.151,-0.937,0.0
8.008,0.143,-0.94,0.0
7.661,0.135,-0.943,0.0
0.0,0.0,0.0,0.0
7.052,0.122,-0.949,0.0
6.745,0.116,-0.947,0.0
8.36,0.141,-0.936,0.0
7.991,0.134,-0.941,0.0
7.643,0.127,-0.943,0.0
0.0,0.0,0.0,0.0
0.0,0.0,0.0,0.0
6.751,0.108,-0.95,0.0
8.374,0.132,-0.94,0.0
7.964,0.124,-0.939,0.0
7.641,0.118,-0.945,0.0
0.0,0.0,0.0,0.0
0.0,0.0,0.0,0.0
6.734,0.101,-0.949,0.0
8.378,0.123,-0.943,0.0
7.974,0.116,-0.942,0.0
7.638,0.109,-0.946,0.0
0.0,0.0,0.0,0.0
0.0,0.0,0.0,0.0
6.734,0.093,-0.95,0.0
8.313,0.113,-0.937,0.0
7.932,0.106,-0.939,0.0
7.582,0.1,-0.94,0.0
0.0,0.0,0.0,0.0
0.0,0.0,0.0,0.0
6.751,0.086,-0.953,0.0
8.349,0.104,-0.942,0.0
7.928,0.097,-0.939,0.0
7.609,0.092,-0.945,0.0
7.283,0.087,-0.946,0.0
6.996,0.082,-0.949,0.0
6.708,0.077,-0.948,0.0
8.315,0.094,-0.939,0.0
7.937,0.088,-0.941,0.0
7.573,0.083,-0.941,0.0
7.246,0.078,-0.942,0.0
0.0,0.0,0.0,0.0
6.699,0.07,-0.947,0.0
8.31,0.085,-0.939,0.0
7.897,0.079,-0.936,0.0
7.553,0.074,-0.938,0.0
7.226,0.069,-0.939,0.0
6.969,0.066,-0.945,0.0
6.722,0.062,-0.95,0.0
8.301,0.075,-0.937,0.0
7.912,0.07,-0.938,0.0
7.603,0.066,-0.944,0.0
0.0,0.0,0.0,0.0
0.0,0.0,0.0,0.0
6.75,0.055,-0.954,0.0
8.291,0.065,-0.936,0.0
7.926,0.061,-0.939,0.0
7.567,0.057,-0.939,0.0
7.259,0.053,-0.943,0.0
0.0,0.0,0.0,0.0
6.719,0.047,-0.949,0.0
8.301,0.056,-0.936,0.0
7.889,0.052,-0.934,0.0
7.597,0.048,-0.942,0.0
0.0,0.0,0.0,0.0
0.0,0.0,0.0,0.0
6.747,0.039,-0.952,0.0
8.335,0.047,-0.939,0.0
7.946,0.043,-0.939,0.0
7.645,0.04,-0.947,0.0
0.0,0.0,0.0,0.0
0.0,0.0,0.0,0.0
6.739,0.031,-0.949,0.0
8.356,0.037,-0.939,0.0
7.943,0.034,-0.937,0.0
7.645,0.031,-0.945,0.0
7.279,0.028,-0.942,0.0
0.0,0.0,0.0,0.0
6.753,0.024,-0.95,0.0
8.353,0.028,-0.937,0.0
7.988,0.025,-0.941,0.0
7.626,0.023,-0.941,0.0
0.0,0.0,0.0,0.0
0.0,0.0,0.0,0.0
6.753,0.016,-0.948,0.0
8.34,0.019,-0.933,0.0
7.999,0.016,-0.94,0.0
7.643,0.014,-0.941,0.0
7.306,0.012,-0.941,0.0
7.079,0.01,-0.951,0.0
0.0,0.0,0.0,0.0
8.385,0.009,-0.936,0.0
8.005,0.007,-0.938,0.0
7.646,0.005,-0.938,0.0
0.0,0.0,0.0,0.0
7.075,0.002,-0.948,0.0
6.835,0.001,-0.954,0.0
8.404,0.0,-0.934,0.0
8.064,-0.001,-0.941,0.0
7.679,-0.002,-0.939,0.0
0.0,0.0,0.0,0.0
7.088,-0.005,-0.947,0.0
0.0,0.0,0.0,0.0
8.488,-0.008,-0.94,0.0
8.073,-0.01,-0.939,0.0
7.683,-0.011,-0.936,0.0
7.403,-0.012,-0.944,0.0
7.093,-0.013,-0.944,0.0
6.859,-0.014,-0.952,0.0
8.492,-0.018,-0.937,0.0
8.137,-0.019,-0.943,0.0
7.757,-0.019,-0.942,0.0
7.419,-0.02,-0.943,0.0
7.152,-0.021,-0.949,0.0
6.882,-0.021,-0.951,0.0
8.528,-0.027,-0.936,0.0
8.144,-0.028,-0.939,0.0
7.783,-0.028,-0.941,0.0
7.448,-0.028,-0.942,0.0
7.179,-0.029,-0.948,0.0
0.0,0.0,0.0,0.0
8.605,-0.037,-0.94,0.0
8.169,-0.037,-0.937,0.0
7.846,-0.037,-0.944,0.0
7.479,-0.036,-0.942,0.0
7.209,-0.036,-0.948,0.0
6.916,-0.036,-0.948,0.0
8.627,-0.046,-0.937,0.0
8.21,-0.045,-0.937,0.0
7.846,-0.045,-0.939,0.0
7.503,-0.044,-0.94,0.0
7.235,-0.044,-0.947,0.0
6.934,-0.044,-0.946,0.0
8.691,-0.056,-0.938,0.0
8.242,-0.054,-0.935,0.0
7.911,-0.054,-0.941,0.0
7.565,-0.053,-0.943,0.0
7.244,-0.052,-0.943,0.0
7.014,-0.052,-0.952,0.0
8.742,-0.065,-0.938,0.0
8.313,-0.063,-0.938,0.0
7.941,-0.062,-0.939,0.0
7.616,-0.061,-0.944,0.0
7.332,-0.06,-0.949,0.0
7.008,-0.059,-0.946,0.0
8.816,-0.075,-0.939,0.0
8.393,-0.073,-0.94,0.0
8.023,-0.071,-0.943,0.0
7.639,-0.069,-0.941,0.0
7.337,-0.068,-0.944,0.0
7.052,-0.067,-0.946,0.0
8.884,-0.084,-0.94,0.0
8.416,-0.081,-0.936,0.0
8.05,-0.079,-0.94,0.0
7.697,-0.077,-0.942,0.0
7.429,-0.076,-0.95,0.0
7.137,-0.074,-0.952,0.0
8.981,-0.094,-0.943,0.0
8.501,-0.091,-0.939,0.0
8.1,-0.088,-0.939,0.0
7.748,-0.085,-0.941,0.0
7.445,-0.084,-0.946,0.0
7.188,-0.082,-0.953,0.0
9.042,-0.104,-0.941,0.0
8.58,-0.1,-0.94,0.0
8.183,-0.097,-0.941,0.0
7.816,-0.094,-0.943,0.0
7.49,-0.091,-0.945,0.0
7.203,-0.089,-0.948,0.0
9.09,-0.113,-0.938,0.0
8.63,-0.109,-0.938,0.0
8.216,-0.105,-0.938,0.0
7.866,-0.102,-0.941,0.0
7.561,-0.099,-0.946,0.0
7.249,-0.097,-0.947,0.0
9.213,-0.123,-0.942,0.0
8.741,-0.118,-0.941,0.0
8.316,-0.114,-0.941,0.0
7.917,-0.11,-0.94,0.0
7.64,-0.108,-0.949,0.0
7.292,-0.104,-0.946,0.0
9.302,-0.133,-0.942,0.0
8.807,-0.127,-0.94,0.0
8.369,-0.122,-0.939,0.0
7.977,-0.118,-0.939,0.0
7.642,-0.115,-0.941,0.0
7.388,-0.112,-0.95,0.0
9.42,-0.143,-0.944,0.0
8.913,-0.137,-0.942,0.0
8.435,-0.131,-0.937,0.0
8.075,-0.127,-0.942,0.0
7.699,-0.122,-0.94,0.0
7.436,-0.119,-0.949,0.0
9.513,-0.153,-0.944,0.0
8.983,-0.146,-0.94,0.0
8.539,-0.14,-0.94,0.0
8.111,-0.134,-0.937,0.0
7.795,-0.131,-0.943,0.0
7.481,-0.127,-0.946,0.0
9.645,-0.163,-0.946,0.0
9.104,-0.155,-0.942,0.0
8.633,-0.149,-0.94,0.0
8.213,-0.143,-0.94,0.0
7.877,-0.139,-0.944,0.0
7.55,-0.134,-0.946,0.0
9.757,-0.173,-0.946,0.0
9.255,-0.166,-0.947,0.0
8.737,-0.158,-0.942,0.0
8.287,-0.151,-0.939,0.0
7.932,-0.146,-0.942,0.0
7.611,-0.141,-0.945,0.0
9.906,-0.184,-0.949,0.0
9.353,-0.175,-0.946,0.0
8.819,-0.166,-0.94,0.0
8.391,-0.16,-0.941,0.0
8.042,-0.154,-0.945,0.0
7.693,-0.149,-0.946,0.0
10.043,-0.194,-0.95,0.0
9.462,-0.184,-0.946,0.0
8.995,-0.177,-0.948,0.0
8.483,-0.168,-0.94,0.0
8.105,-0.162,-0.942,0.0
7.739,-0.156,-0.942,0.0
10.182,-0.204,-0.95,0.0
9.596,-0.194,-0.947,0.0
9.092,-0.185,-0.946,0.0
8.617,-0.177,-0.944,0.0
8.179,-0.169,-0.94,0.0
7.844,-0.164,-0.944,0.0
10.331,-0.215,-0.951,0.0
9.717,-0.204,-0.946,0.0
9.2,-0.194,-0.945,0.0
8.707,-0.185,-0.943,0.0
8.305,-0.178,-0.944,0.0
7.939,-0.171,-0.945,0.0
10.482,-0.226,-0.951,0.0
9.891,-0.214,-0.95,0.0
9.357,-0.204,-0.949,0.0
8.83,-0.194,-0.944,0.0
8.402,-0.186,-0.943,0.0
8.003,-0.178,-0.942,0.0
10.61,-0.235,-0.948,0.0
10.018,-0.224,-0.949,0.0
9.445,-0.212,-0.945,0.0
8.96,-0.203,-0.946,0.0
8.495,-0.193,-0.942,0.0
8.134,-0.186,-0.946,0.0
10.802,-0.247,-0.95,0.0
10.225,-0.235,-0.954,0.0
9.607,-0.222,-0.948,0.0
9.082,-0.211,-0.946,0.0
8.625,-0.202,-0.944,0.0
8.229,-0.194,-0.945,0.0
10.984,-0.257,-0.951,0.0
10.354,-0.244,-0.951,0.0
9.783,-0.232,-0.951,0.0
9.241,-0.22,-0.949,0.0
8.734,-0.209,-0.944,0.0
8.341,-0.201,-0.946,0.0
11.174,-0.269,-0.951,0.0
10.515,-0.254,-0.951,0.0
9.937,-0.241,-0.952,0.0
9.4,-0.23,-0.951,0.0
8.885,-0.218,-0.947,0.0
8.439,-0.208,-0.944,0.0
11.363,-0.279,-0.951,0.0
10.705,-0.265,-0.952,0.0
10.125,-0.252,-0.954,0.0
9.535,-0.238,-0.951,0.0
9.024,-0.226,-0.948,0.0
8.584,-0.217,-0.947,0.0
11.643,-0.292,-0.956,0.0
10.874,-0.274,-0.951,0.0
10.261,-0.26,-0.952,0.0
9.684,-0.247,-0.951,0.0
9.19,-0.235,-0.951,0.0
8.707,-0.224,-0.948,0.0
11.888,-0.304,-0.958,0.0
11.101,-0.285,-0.953,0.0
10.443,-0.27,-0.952,0.0
9.865,-0.256,-0.953,0.0
9.345,-0.244,-0.952,0.0
8.816,-0.231,-0.945,0.0
12.156,-0.317,-0.961,0.0
11.334,-0.297,-0.956,0.0
10.631,-0.279,-0.953,0.0
10.047,-0.265,-0.955,0.0
9.481,-0.251,-0.951,0.0
8.967,-0.239,-0.947,0.0
12.347,-0.327,-0.956,0.0
11.525,-0.306,-0.953,0.0
10.832,-0.289,-0.953,0.0
10.224,-0.274,-0.955,0.0
9.658,-0.26,-0.953,0.0
9.17,-0.248,-0.954,0.0
12.621,-0.339,-0.957,0.0
11.889,-0.321,-0.964,0.0
11.065,-0.299,-0.956,0.0
10.404,-0.283,-0.955,0.0
9.791,-0.267,-0.951,0.0
9.304,-0.255,-0.952,0.0
12.894,-0.351,-0.957,0.0
12.115,-0.331,-0.963,0.0
11.251,-0.308,-0.953,0.0
10.594,-0.291,-0.955,0.0
10.035,-0.277,-0.957,0.0
9.456,-0.262,-0.952,0.0
13.23,-0.365,-0.96,0.0
12.313,-0.34,-0.958,0.0
11.506,-0.319,-0.956,0.0
10.823,-0.301,-0.957,0.0
10.203,-0.284,-0.956,0.0
9.644,-0.27,-0.955,0.0
13.468,-0.375,-0.954,0.0
12.603,-0.352,-0.959,0.0
11.801,-0.33,-0.96,0.0
11.058,-0.31,-0.959,0.0
10.412,-0.293,-0.958,0.0
9.827,-0.277,-0.956,0.0
13.893,-0.39,-0.96,0.0
12.863,-0.362,-0.957,0.0
12.081,-0.341,-0.962,0.0
11.216,-0.317,-0.953,0.0
10.572,-0.3,-0.954,0.0
10.013,-0.285,-0.956,0.0
14.166,-0.401,-0.955,0.0
13.247,-0.376,-0.962,0.0
12.348,-0.351,-0.962,0.0
11.477,-0.327,-0.955,0.0
10.806,-0.309,-0.956,0.0
10.211,-0.292,-0.957,0.0
14.445,-0.411,-0.948,0.0
13.461,-0.384,-0.954,0.0
12.623,-0.361,-0.961,0.0
11.82,-0.339,-0.963,0.0
11.038,-0.317,-0.957,0.0
10.426,-0.3,-0.959,0.0
14.908,-0.427,-0.952,0.0
13.863,-0.397,-0.958,0.0
12.887,-0.37,-0.958,0.0
12.098,-0.348,-0.964,0.0
11.24,-0.324,-0.954,0.0
10.635,-0.307,-0.959,0.0
15.475,-0.444,-0.96,0.0
14.219,-0.409,-0.957,0.0
13.294,-0.383,-0.964,0.0
12.359,-0.356,-0.962,0.0
11.513,-0.332,-0.957,0.0
10.826,-0.313,-0.956,0.0
15.902,-0.458,-0.958,0.0
14.485,-0.417,-0.948,0.0
13.41,-0.387,-0.948,0.0
12.646,-0.365,-0.961,0.0
11.854,-0.343,-0.963,0.0
11.075,-0.321,-0.958,0.0
14.993,-0.432,-0.954,0.0
14.016,-0.404,-0.965,0.0
12.971,-0.375,-0.962,0.0
12.158,-0.352,-0.965,0.0
11.317,-0.328,-0.958,0.0
18.358,-0.528,-1.039,0.0
15.491,-0.446,-0.957,0.0
14.252,-0.411,-0.955,0.0
13.276,-0.383,-0.96,0.0
12.436,-0.359,-0.964,0.0
11.615,-0.336,-0.961,0.0
18.212,-0.523,-0.997,0.0
16.136,-0.464,-0.967,0.0
14.564,-0.419,-0.949,0.0
13.573,-0.391,-0.956,0.0
12.707,-0.366,-0.961,0.0
11.918,-0.343,-0.964,0.0
18.392,-0.527,-0.972,0.0
15.068,-0.432,-0.953,0.0
14.046,-0.403,-0.963,0.0
13.114,-0.376,-0.967,0.0
12.234,-0.351,-0.966,0.0
18.487,-0.527,-0.942,0.0
18.449,-0.526,-1.036,0.0
15.608,-0.445,-0.958,0.0
14.337,-0.409,-0.956,0.0
13.398,-0.382,-0.963,0.0
12.51,-0.357,-0.964,0.0
18.56,-0.526,-0.911,0.0
18.358,-0.52,-0.997,0.0
14.734,-0.417,-0.954,0.0
13.811,-0.391,-0.966,0.0
12.81,-0.362,-0.963,0.0
18.624,-0.524,-0.879,1.0
18.461,-0.519,-0.967,0.0
15.209,-0.427,-0.956,0.0
14.117,-0.396,-0.961,0.0
13.184,-0.37,-0.966,0.0
18.762,-0.523,-0.849,1.0
18.751,-0.522,-0.946,0.0
18.82,-0.524,-1.047,0.0
15.803,-0.439,-0.963,0.0
14.477,-0.402,-0.957,0.0
13.447,-0.373,-0.959,0.0
19.011,-0.525,-0.824,0.0
18.882,-0.52,-0.916,0.0
18.503,-0.509,-0.994,0.0
14.84,-0.408,-0.953,0.0
13.917,-0.382,-0.966,0.0
19.466,-0.531,-0.807,0.0
18.982,-0.517,-0.885,1.0
18.909,-0.514,-0.98,0.0
15.513,-0.421,-0.966,0.0
14.275,-0.386,-0.963,0.0
20.399,-0.549,-0.806,0.0
19.126,-0.514,-0.855,1.0
19.044,-0.511,-0.95,0.0
19.215,-0.514,-1.06,0.0
15.962,-0.426,-0.963,0.0
14.572,-0.388,-0.955,0.0
21.102,-0.559,-0.793,0.0
19.39,-0.513,-0.829,1.0
19.339,-0.51,-0.927,0.0
19.351,-0.509,-1.03,0.0
15.077,-0.395,-0.959,0.0
22.191,-0.578,-0.791,0.0
19.886,-0.517,-0.812,0.0
19.542,-0.507,-0.899,0.0
19.424,-0.502,-0.996,0.0
16.985,-0.438,-0.959,1.0
15.619,-0.402,-0.963,0.0
23.694,-0.606,-0.799,7.0
20.693,-0.528,-0.805,0.0
19.756,-0.502,-0.871,1.0
19.684,-0.499,-0.971,0.0
17.293,-0.437,-0.943,0.0
16.229,-0.409,-0.969,0.0
23.849,-0.597,-0.758,19.0
21.75,-0.543,-0.804,0.0
20.002,-0.498,-0.843,1.0
20.007,-0.496,-0.949,0.0
20.006,-0.495,-1.052,0.0
16.803,-0.414,-0.971,2.0
24.766,-0.606,-0.74,14.0
22.789,-0.556,-0.799,1.0
20.416,-0.496,-0.821,1.0
20.249,-0.49,-0.921,0.0
20.267,-0.489,-1.027,0.0
17.166,-0.413,-0.959,3.0
27.574,-0.659,-0.771,0.0
23.788,-0.566,-0.788,15.0
21.063,-0.499,-0.806,1.0
20.535,-0.485,-0.895,0.0
20.52,-0.482,-1.0,0.0
17.375,-0.407,-0.937,0.0
28.68,-0.667,-0.747,1.0
23.885,-0.553,-0.745,9.0
22.073,-0.509,-0.803,0.0
20.834,-0.478,-0.868,1.0
20.824,-0.476,-0.975,0.0
30.444,-0.687,-0.734,23.0
25.655,-0.576,-0.751,6.0
23.589,-0.527,-0.813,4.0
21.213,-0.472,-0.843,2.0
21.239,-0.47,-0.954,0.0
38.327,-0.845,-1.92,0.0
30.676,-0.671,-0.681,32.0
28.19,-0.613,-0.771,1.0
24.322,-0.526,-0.791,5.0
21.722,-0.467,-0.821,1.0
21.76,-0.465,-0.935,0.0
21.816,-0.464,-1.051,0.0
31.257,-0.659,-0.634,26.0
0.0,0.0,0.0,0.0
25.649,-0.535,-0.785,1.0
22.405,-0.464,-0.804,2.0
22.128,-0.456,-0.909,1.0
22.217,-0.455,-1.027,0.0
0.0,0.0,0.0,0.0
30.497,-0.615,-0.718,31.0
27.204,-0.545,-0.781,1.0
23.363,-0.465,-0.794,1.0
22.77,-0.45,-0.891,1.0
22.803,-0.448,-1.011,0.0
38.099,-0.742,-0.627,26.0
30.941,-0.598,-0.669,30.0
28.718,-0.551,-0.769,7.0
25.393,-0.484,-0.814,1.0
23.492,-0.444,-0.875,1.0
23.639,-0.444,-1.003,0.0
44.898,-0.835,-0.654,4.0
31.541,-0.582,-0.622,5.0
29.887,-0.547,-0.744,16.0
26.655,-0.484,-0.804,2.0
24.137,-0.435,-0.853,3.0
23.652,-0.423,-0.958,0.0
44.951,-0.795,-0.569,35.0
37.9,-0.664,-0.675,13.0
30.649,-0.533,-0.705,29.0
28.091,-0.484,-0.794,2.0
25.059,-0.428,-0.838,2.0
24.994,-0.423,-0.966,0.0
45.438,-0.761,-0.489,15.0
38.374,-0.636,-0.612,14.0
31.361,-0.515,-0.662,11.0
29.521,-0.48,-0.779,8.0
25.97,-0.418,-0.82,4.0
25.787,-0.411,-0.948,0.0
52.955,-0.834,-0.47,19.0
44.852,-0.699,-0.631,13.0
35.97,-0.555,-0.692,2.0
30.279,-0.462,-0.742,25.0
26.943,-0.406,-0.8,2.0
26.7,-0.398,-0.931,1.0
59.406,-0.875,-0.417,5.0
45.074,-0.656,-0.55,19.0
37.985,-0.547,-0.661,23.0
31.19,-0.444,-0.707,27.0
28.109,-0.395,-0.783,1.0
27.631,-0.383,-0.913,1.0
56.191,-0.769,-0.292,1.0
52.559,-0.71,-0.545,14.0
38.882,-0.518,-0.605,14.0
32.11,-0.422,-0.669,8.0
29.914,-0.388,-0.779,4.0
20.221,-0.258,-0.631,10.0
56.293,-0.709,-0.189,1.0
58.765,-0.73,-0.503,6.0
44.91,-0.549,-0.617,30.0
0.0,0.0,0.0,0.0
31.084,-0.369,-0.753,8.0
20.206,-0.236,-0.594,23.0
56.31,-0.647,-0.088,2.0
59.516,-0.672,-0.402,6.0
45.375,-0.504,-0.542,17.0
38.016,-0.414,-0.655,30.0
20.228,-0.216,-0.453,7.0
20.198,-0.212,-0.558,28.0
56.161,-0.579,0.013,0.0
56.255,-0.569,-0.278,4.0
52.57,-0.521,-0.532,5.0
38.862,-0.378,-0.6,3.0
20.195,-0.192,-0.416,23.0
20.177,-0.188,-0.521,31.0
53.349,-0.487,0.107,5.0
53.378,-0.476,-0.17,5.0
20.198,-0.176,-0.169,2.0
20.149,-0.171,-0.275,18.0
20.158,-0.167,-0.38,26.0
20.178,-0.163,-0.485,27.0
58.326,-0.461,0.22,23.0
20.202,-0.155,-0.029,9.0
20.158,-0.151,-0.133,16.0
20.12,-0.146,-0.24,20.0
20.154,-0.142,-0.345,30.0
20.16,-0.138,-0.45,36.0
20.147,-0.134,0.111,16.0
20.153,-0.129,0.006,25.0
20.162,-0.125,-0.098,23.0
20.131,-0.121,-0.205,16.0
20.135,-0.116,-0.31,36.0
20.143,-0.112,-0.415,39.0
20.15,-0.108,0.145,23.0
20.141,-0.103,0.04,32.0
20.149,-0.099,-0.064,28.0
20.144,-0.094,-0.171,33.0
20.129,-0.09,-0.276,36.0
20.155,-0.086,-0.381,24.0
20.119,-0.081,0.179,28.0
20.133,-0.077,0.074,40.0
20.133,-0.072,-0.03,29.0
20.13,-0.068,-0.137,33.0
20.122,-0.063,-0.242,18.0
20.157,-0.058,-0.347,23.0
20.128,-0.054,0.213,30.0
20.123,-0.049,0.108,37.0
20.135,-0.045,0.003,34.0
20.144,-0.04,-0.104,33.0
20.13,-0.036,-0.209,18.0
20.165,-0.031,-0.314,17.0
20.122,-0.026,0.246,28.0
20.112,-0.022,0.14,28.0
20.142,-0.017,0.036,27.0
20.168,-0.012,-0.071,19.0
20.198,-0.008,-0.177,12.0
20.237,-0.003,-0.283,7.0
20.133,0.001,0.279,29.0
20.125,0.006,0.173,28.0
20.147,0.01,0.068,30.0
20.233,0.015,-0.039,152.0
20.262,0.02,-0.145,151.0
20.262,0.025,-0.251,150.0
20.142,0.03,0.311,29.0
20.126,0.034,0.205,27.0
20.15,0.039,0.1,29.0
20.218,0.044,-0.007,10.0
20.234,0.049,-0.113,22.0
20.207,0.054,-0.218,7.0
20.149,0.059,0.343,28.0
20.154,0.064,0.237,27.0
20.154,0.069,0.132,26.0
20.2,0.074,0.024,34.0
20.2,0.079,-0.081,30.0
20.188,0.084,-0.187,27.0
20.148,0.089,0.374,28.0
20.151,0.094,0.268,28.0
20.152,0.099,0.163,27.0
20.183,0.104,0.055,36.0
20.179,0.11,-0.05,32.0
20.171,0.115,-0.156,41.0
20.158,0.12,0.405,28.0
20.165,0.125,0.299,27.0
20.165,0.13,0.193,23.0
20.191,0.135,0.085,37.0
20.202,0.14,-0.02,26.0
20.185,0.146,-0.126,32.0
20.192,0.151,0.436,25.0
20.182,0.156,0.33,23.0
20.195,0.162,0.224,19.0
20.203,0.167,0.115,19.0
20.296,0.173,0.009,28.0
20.218,0.177,-0.097,21.0
20.27,0.183,0.467,31.0
20.284,0.189,0.361,30.0
20.289,0.194,0.254,28.0
20.308,0.199,0.145,29.0
20.33,0.205,0.038,30.0
20.325,0.21,-0.068,0.0
20.265,0.215,0.496,29.0
20.269,0.221,0.389,34.0
20.286,0.226,0.283,26.0
20.279,0.232,0.174,20.0
20.336,0.238,0.067,1.0
99.596,1.193,-0.195,1.0
20.285,0.248,0.526,28.0
20.28,0.253,0.418,24.0
20.295,0.259,0.311,14.0
20.257,0.264,0.202,0.0
99.626,1.328,0.468,6.0
99.759,1.357,-0.058,5.0
157.709,2.192,4.307,14.0
196.198,2.781,4.321,24.0
194.84,2.814,3.261,33.0
0.0,0.0,0.0,0.0
99.686,1.493,0.603,3.0
99.697,1.521,0.076,5.0
0.0,0.0,0.0,0.0
196.868,3.118,4.601,17.0
194.981,3.141,3.523,26.0
0.0,0.0,0.0,0.0
99.635,1.659,0.734,2.0
99.822,1.689,0.207,5.0
0.0,0.0,0.0,0.0
0.0,0.0,0.0,0.0
194.53,3.46,3.768,20.0
0.0,0.0,0.0,0.0
0.0,0.0,0.0,0.0
99.849,1.859,0.335,8.0
148.826,2.819,4.653,4.0
0.0,0.0,0.0,0.0
194.421,3.79,4.014,17.0
0.0,0.0,0.0,0.0
103.199,2.07,1.024,4.0
100.037,2.034,0.461,4.0
147.702,3.05,4.802,2.0
194.787,4.077,5.298,18.0
194.219,4.119,4.249,10.0
194.202,4.171,3.194,8.0
0.0,0.0,0.0,0.0
100.217,2.209,0.583,2.0
0.0,0.0,0.0,0.0
194.836,4.415,5.534,14.0
194.224,4.455,4.482,25.0
193.882,4.503,3.423,22.0
195.251,4.59,2.406,15.0
103.087,2.453,0.722,4.0
0.0,0.0,0.0,0.0
194.919,4.76,5.767,12.0
194.226,4.798,4.709,27.0
193.726,4.839,3.644,27.0
195.31,4.934,2.633,25.0
103.128,2.634,0.84,14.0
206.895,5.359,7.461,5.0
0.0,0.0,0.0,0.0
194.352,5.141,4.93,25.0
193.597,5.177,3.859,33.0
195.913,5.294,2.859,8.0
0.0,0.0,0.0,0.0
194.12,5.37,7.215,5.0
193.27,5.4,6.149,20.0
194.374,5.488,5.145,22.0
193.573,5.518,4.067,32.0
195.868,5.641,3.069,14.0
195.808,5.697,2.022,5.0
193.649,5.703,7.405,8.0
192.967,5.737,6.345,19.0
194.396,5.836,5.351,9.0
193.787,5.871,4.275,29.0
0.0,0.0,0.0,0.0
195.389,6.032,2.218,8.0
193.698,6.053,7.607,20.0
193.303,6.096,6.555,21.0
194.754,6.197,5.559,9.0
194.733,6.253,4.495,11.0
195.143,6.321,3.456,22.0
195.508,6.39,2.415,8.0
193.775,6.407,7.805,27.0
193.749,6.462,6.764,17.0
0.0,0.0,0.0,0.0
0.0,0.0,0.0,0.0
195.361,6.685,3.651,22.0
195.946,6.76,2.609,24.0
193.616,6.754,7.985,15.0
193.431,6.803,6.935,21.0
0.0,0.0,0.0,0.0
195.621,6.992,4.89,7.0
195.207,7.032,3.827,7.0
195.925,7.116,2.789,14.0
196.664,7.221,8.292,5.0
193.878,7.175,7.13,23.0
0.0,0.0,0.0,0.0
195.739,7.355,5.069,5.0
195.11,7.388,4.002,19.0
195.07,7.443,2.951,18.0
195.452,7.538,8.415,7.0
0.0,0.0,0.0,0.0
193.42,7.572,6.241,16.0
193.769,7.639,5.185,5.0
196.743,7.812,4.203,13.0
203.874,8.155,3.257,22.0
194.871,7.875,8.555,10.0
195.438,7.954,7.524,9.0
193.376,7.924,6.399,15.0
193.591,7.99,5.341,22.0
0.0,0.0,0.0,0.0
196.757,8.233,3.302,22.0
0.0,0.0,0.0,0.0
194.724,8.286,7.652,8.0
193.455,8.286,6.555,31.0
193.927,8.359,5.5,16.0
195.485,8.484,4.488,9.0
195.496,8.542,3.431,59.0
193.56,8.541,8.805,19.0
194.717,8.645,7.8,9.0
193.485,8.646,6.702,35.0
193.755,8.714,5.642,20.0
0.0,0.0,0.0,0.0
207.025,9.43,3.785,7.0
192.981,8.877,8.92,25.0
193.22,8.943,7.882,22.0
193.57,9.013,6.845,26.0
193.532,9.066,5.773,27.0
195.899,9.232,4.781,7.0
197.298,9.356,3.745,4.0
192.728,9.225,9.042,25.0
193.197,9.3,8.013,6.0
192.909,9.341,6.952,19.0
194.248,9.461,5.924,5.0
196.998,9.65,4.937,5.0
198.05,9.76,3.888,4.0
193.106,9.604,9.187,25.0
192.908,9.648,8.125,20.0
0.0,0.0,0.0,0.0
194.259,9.825,6.048,7.0
197.234,10.031,5.065,7.0
0.0,0.0,0.0,0.0
192.757,9.949,9.288,20.0
192.94,10.011,8.245,19.0
193.136,10.075,7.198,10.0
193.681,10.158,6.144,14.0
0.0,0.0,0.0,0.0
196.617,10.424,4.095,4.0
193.407,10.346,9.43,26.0
192.798,10.367,8.348,24.0
193.913,10.48,7.337,7.0
195.946,10.645,6.325,27.0
196.05,10.706,5.257,40.0
196.112,10.764,4.189,57.0
193.633,10.721,9.546,22.0
193.625,10.771,8.485,19.0
193.705,10.829,7.429,9.0
0.0,0.0,0.0,0.0
194.995,11.012,5.328,5.0
197.94,11.232,4.325,6.0
193.636,11.084,9.641,20.0
193.991,11.158,8.596,9.0
0.0,0.0,0.0,0.0
0.0,0.0,0.0,0.0
194.862,11.366,5.413,7.0
0.0,0.0,0.0,0.0
109.833,6.492,5.518,2.0
163.499,9.708,7.317,5.0
0.0,0.0,0.0,0.0
192.772,11.551,6.492,5.0
0.0,0.0,0.0,0.0
196.004,11.855,4.454,5.0
195.107,11.901,9.884,8.0
193.107,11.829,8.722,6.0
0.0,0.0,0.0,0.0
162.731,10.055,5.545,4.0
154.21,9.571,4.408,3.0
196.061,12.223,4.53,6.0
195.328,12.276,9.968,5.0
161.395,10.185,7.348,4.0
0.0,0.0,0.0,0.0
166.039,10.565,5.715,3.0
0.0,0.0,0.0,0.0
195.787,12.566,4.588,5.0
108.271,7.004,5.561,1.0
107.297,6.968,4.919,1.0
161.912,10.559,6.532,6.0
162.0,10.605,5.626,9.0
162.697,10.693,4.755,13.0
179.129,11.823,4.25,8.0
108.326,7.205,5.595,1.0
157.573,10.522,7.269,9.0
157.462,10.557,6.395,5.0
161.883,10.896,5.666,4.0
173.182,11.701,5.106,4.0
178.47,12.104,4.279,5.0
106.628,7.289,5.534,4.0
121.236,8.319,5.623,2.0
157.127,10.822,6.418,7.0
155.936,10.779,5.493,13.0
161.525,11.209,4.799,16.0
168.049,11.707,4.066,7.0
107.501,7.545,5.602,2.0
107.427,7.567,5.004,6.0
110.241,7.792,4.524,3.0
153.57,10.893,5.438,9.0
155.202,11.05,4.639,6.0
166.916,11.926,4.066,9.0
120.334,8.663,6.291,6.0
107.494,7.765,5.024,2.0
107.962,7.826,4.448,2.0
166.112,12.083,5.906,9.0
166.546,12.156,5.001,12.0
0.0,0.0,0.0,0.0
111.151,8.202,5.825,3.0
96.369,7.135,4.516,4.0
163.621,12.153,6.76,14.0
169.809,12.656,6.058,9.0
163.515,12.228,4.926,19.0
155.711,11.685,3.828,16.0
110.812,8.376,5.818,8.0
119.892,9.09,5.629,8.0
96.587,7.347,3.997,5.0
154.603,11.799,5.525,5.0
172.601,13.215,5.211,12.0
156.686,12.037,3.862,14.0
100.087,7.743,5.26,2.0
96.874,7.518,4.552,4.0
167.091,13.007,6.922,6.0
106.922,8.348,3.824,2.0
154.781,12.122,4.676,24.0
168.018,13.199,4.144,15.0
92.464,7.316,4.86,8.0
120.894,9.593,5.681,3.0
109.954,8.75,4.555,6.0
166.876,13.32,5.968,4.0
154.972,12.406,4.679,27.0
156.497,12.565,3.856,25.0
107.893,8.722,5.668,5.0
87.719,7.11,4.119,3.0
100.08,8.137,4.141,2.0
154.795,12.62,5.527,11.0
161.242,13.185,4.859,15.0
194.986,15.99,4.792,11.0
88.853,7.336,4.662,1.0
87.499,7.243,4.102,6.0
121.342,10.073,5.011,8.0
157.009,13.071,5.593,7.0
144.474,12.06,4.342,11.0
197.088,16.497,4.824,13.0
92.395,7.785,4.839,4.0
87.376,7.381,4.086,8.0
109.801,9.299,4.522,5.0
143.85,12.214,5.106,23.0
143.56,12.223,4.294,20.0
197.529,16.864,4.808,16.0
97.011,8.337,5.066,5.0
87.544,7.541,4.081,11.0
99.763,8.616,4.093,5.0
121.043,10.48,4.278,17.0
143.828,12.485,4.278,33.0
0.0,0.0,0.0,0.0
96.967,8.494,5.046,4.0
108.161,9.497,5.023,3.0
86.418,7.606,3.529,4.0
122.132,10.777,4.291,17.0
143.776,12.717,4.248,28.0
152.687,13.539,3.657,22.0
97.171,8.671,5.036,5.0
108.177,9.675,5.0,4.0
108.175,9.697,4.392,4.0
121.215,10.891,4.231,27.0
143.442,12.919,4.204,24.0
152.172,13.739,3.606,24.0
97.211,8.831,5.013,5.0
87.971,8.008,4.043,6.0
108.182,9.871,4.364,5.0
109.691,10.032,3.798,31.0
144.858,13.278,4.205,10.0
151.899,13.955,3.557,25.0
97.391,9.001,4.995,6.0
87.512,8.105,3.995,4.0
108.164,10.039,4.331,21.0
120.827,11.238,4.148,6.0
151.647,14.135,4.354,17.0
151.717,14.175,3.505,19.0
97.354,9.15,4.961,8.0
87.706,8.259,3.975,5.0
108.186,10.209,4.296,8.0
116.396,11.007,3.956,30.0
121.354,11.5,3.442,51.0
151.443,14.383,3.445,15.0
97.488,9.312,4.933,8.0
87.578,8.382,3.937,6.0
108.067,10.364,4.25,11.0
115.983,11.146,3.897,19.0
137.796,13.271,3.855,28.0
138.236,13.342,3.09,16.0
97.516,9.464,4.894,5.0
86.361,8.397,3.848,5.0
110.239,10.74,4.291,17.0
108.491,10.59,3.601,23.0
109.273,10.687,3.011,31.0
121.508,11.907,2.665,53.0
84.34,8.311,4.197,1.0
97.766,9.652,4.313,16.0
122.671,12.132,4.72,18.0
110.097,10.909,3.604,14.0
108.929,10.814,2.952,53.0
121.529,12.087,2.61,59.0
107.4,10.739,5.295,9.0
87.545,8.769,3.821,5.0
111.265,11.165,4.229,16.0
109.948,11.052,3.546,26.0
115.763,11.659,3.081,44.0
137.731,13.898,2.889,11.0
85.721,8.695,4.183,3.0
87.544,8.895,3.777,6.0
97.616,9.935,3.659,32.0
110.224,11.238,3.498,22.0
109.751,11.209,2.864,26.0
115.723,11.841,2.367,39.0
85.707,8.814,4.136,19.0
107.4,11.063,4.576,5.0
117.173,12.089,4.33,15.0
136.693,14.127,4.265,10.0
109.538,11.34,2.797,30.0
115.564,11.984,2.299,40.0
85.709,8.934,4.088,15.0
103.187,10.771,4.338,19.0
103.841,10.856,3.777,10.0
121.582,12.73,3.723,15.0
109.192,11.451,2.725,19.0
109.265,11.478,2.109,52.0
85.736,9.051,4.038,11.0
98.578,10.422,4.085,29.0
98.209,10.397,3.513,10.0
103.655,10.991,3.11,34.0
108.986,11.574,2.653,32.0
109.207,11.616,2.041,58.0
85.786,9.168,3.987,14.0
114.188,12.22,4.659,12.0
98.291,10.534,3.453,29.0
103.598,11.119,3.041,25.0
149.967,16.119,3.554,18.0
109.263,11.762,1.971,25.0
85.794,9.278,3.931,13.0
117.331,12.706,4.709,9.0
98.267,10.656,3.386,19.0
104.473,11.345,2.997,10.0
103.977,11.308,2.393,23.0
149.79,16.315,2.599,18.0
96.713,10.581,4.364,18.0
109.636,12.009,4.325,11.0
0.0,0.0,0.0,0.0
116.732,12.819,3.267,12.0
103.89,11.425,2.318,56.0
103.872,11.439,1.729,19.0
85.844,9.495,3.812,11.0
96.991,10.741,3.755,22.0
97.58,10.819,3.224,9.0
115.402,12.811,3.146,18.0
103.898,11.549,2.242,29.0
103.774,11.551,1.651,33.0
85.839,9.594,3.749,8.0
105.184,11.77,3.994,3.0
104.677,11.726,3.381,31.0
97.731,10.962,2.591,15.0
144.096,16.182,3.001,9.0
103.752,11.666,1.572,11.0
91.77,10.36,3.937,33.0
110.482,12.485,4.112,9.0
108.854,12.315,3.432,12.0
144.184,16.331,3.71,10.0
144.138,16.345,2.89,17.0
144.079,16.358,2.071,9.0
91.748,10.458,3.864,17.0
117.247,13.377,4.27,4.0
115.132,13.149,3.537,15.0
149.518,17.094,3.729,14.0
149.397,17.1,2.877,16.0
149.563,17.139,2.03,10.0
85.847,9.875,3.545,15.0
103.904,11.963,3.7,8.0
115.298,13.289,3.449,42.0
149.779,17.28,3.611,12.0
149.324,17.247,2.75,18.0
149.758,17.317,1.906,3.0
85.901,9.968,3.475,42.0
99.084,11.509,3.443,11.0
97.518,11.337,2.834,13.0
149.532,17.402,3.478,14.0
149.332,17.396,2.622,12.0
75.458,8.799,0.896,3.0
85.925,10.055,3.403,20.0
98.608,11.549,3.342,11.0
97.63,11.444,2.753,38.0
97.812,11.476,2.189,16.0
97.813,11.487,1.633,13.0
75.492,8.875,0.829,5.0
85.928,10.136,3.326,23.0
98.392,11.615,3.248,9.0
97.674,11.539,2.667,45.0
97.714,11.554,2.1,36.0
97.686,11.561,1.543,57.0
0.0,0.0,0.0,0.0
85.873,10.206,3.246,24.0
96.901,11.525,3.11,15.0
97.67,11.625,2.578,42.0
97.685,11.636,2.01,26.0
97.691,11.648,1.453,60.0
0.0,0.0,0.0,0.0
85.989,10.293,3.17,39.0
96.931,11.611,3.02,11.0
97.734,11.716,2.488,39.0
97.701,11.721,1.918,22.0
97.69,11.729,1.361,9.0
68.837,8.272,0.566,1.0
86.134,10.38,3.094,40.0
97.059,11.704,2.932,7.0
97.789,11.801,2.396,26.0
97.756,11.806,1.826,8.0
0.0,0.0,0.0,0.0
68.801,8.322,0.499,3.0
85.913,10.42,3.004,23.0
97.286,11.806,2.845,53.0
139.761,16.972,3.289,10.0
160.875,19.55,2.85,4.0
0.0,0.0,0.0,0.0
68.776,8.37,0.432,6.0
85.877,10.478,2.918,20.0
97.309,11.88,2.749,16.0
149.668,18.283,3.372,22.0
0.0,0.0,0.0,0.0
0.0,0.0,0.0,0.0
68.704,8.41,0.362,2.0
91.525,11.231,3.016,14.0
149.999,18.416,4.085,17.0
149.605,18.378,3.22,29.0
0.0,0.0,0.0,0.0
0.0,0.0,0.0,0.0
68.733,8.46,0.292,3.0
91.519,11.29,2.922,16.0
149.784,18.487,3.924,14.0
149.672,18.482,3.064,21.0
0.0,0.0,0.0,0.0
0.0,0.0,0.0,0.0
68.688,8.497,0.221,12.0
91.457,11.337,2.824,34.0
91.593,11.359,2.303,28.0
91.507,11.354,1.778,30.0
0.0,0.0,0.0,0.0
68.698,8.533,0.541,2.0
68.684,8.536,0.148,4.0
91.461,11.389,2.728,51.0
91.529,11.402,2.205,35.0
91.472,11.399,1.68,41.0
0.0,0.0,0.0,0.0
68.686,8.568,0.469,14.0
65.515,8.177,0.071,3.0
91.487,11.439,2.63,59.0
91.502,11.445,2.106,62.0
91.474,11.445,1.583,60.0
69.104,8.65,0.792,1.0
68.68,8.601,0.394,44.0
65.441,8.199,0.001,2.0
91.488,11.482,2.533,52.0
91.49,11.485,2.008,61.0
91.455,11.485,1.484,47.0
69.152,8.687,0.719,1.0
68.669,8.63,0.32,12.0
65.17,8.194,-0.069,2.0
91.467,11.518,2.433,46.0
91.483,11.522,1.909,55.0
91.454,11.522,1.384,13.0
0.0,0.0,0.0,0.0
68.642,8.654,0.245,3.0
65.074,8.208,-0.14,2.0
91.471,11.552,2.333,31.0
91.451,11.552,1.808,42.0
69.175,8.74,0.971,1.0
68.611,8.671,0.563,2.0
0.0,0.0,0.0,0.0
65.014,8.223,-0.211,1.0
91.483,11.584,2.232,34.0
91.485,11.586,1.707,37.0
69.097,8.752,0.893,1.0
68.624,8.694,0.487,13.0
0.0,0.0,0.0,0.0
64.951,8.234,-0.282,5.0
91.526,11.615,2.131,32.0
91.49,11.612,1.606,19.0
69.043,8.764,0.815,1.0
68.629,8.713,0.41,24.0
0.0,0.0,0.0,0.0
65.005,8.258,-0.355,1.0
91.531,11.637,2.029,21.0
91.486,11.633,1.502,4.0
69.27,8.809,0.74,1.0
68.636,8.729,0.332,17.0
64.822,8.246,-0.056,5.0
64.875,8.255,-0.428,0.0
91.522,11.654,1.925,15.0
68.992,8.785,1.055,0.0
68.998,8.786,0.659,0.0
68.611,8.738,0.256,3.0
64.786,8.252,-0.129,3.0
65.022,8.284,-0.502,0.0
149.278,19.03,2.971,14.0
69.034,8.8,0.978,1.0
68.638,8.75,0.578,3.0
64.746,8.254,0.168,1.0
64.812,8.264,-0.202,0.0
64.795,8.263,-0.574,0.0
149.314,19.048,2.804,12.0
69.208,8.828,0.903,0.0
68.628,8.754,0.501,16.0
64.932,8.283,0.095,1.0
0.0,0.0,0.0,0.0
0.0,0.0,0.0,0.0
149.919,19.133,2.643,15.0
69.017,8.807,0.821,1.0
68.637,8.758,0.423,27.0
64.892,8.28,0.021,0.0
0.0,0.0,0.0,0.0
0.0,0.0,0.0,0.0
150.11,19.158,2.478,13.0
69.105,8.818,0.744,1.0
68.63,8.757,0.346,19.0
64.796,8.267,-0.051,2.0
0.0,0.0,0.0,0.0
0.0,0.0,0.0,0.0
150.177,19.16,2.308,3.0
69.015,8.803,0.664,0.0
68.61,8.751,0.267,4.0
64.787,8.262,-0.124,2.0
64.999,8.289,-0.498,0.0
0.0,0.0,0.0,0.0
69.009,8.798,0.983,1.0
68.586,8.742,0.583,3.0
64.741,8.251,0.18,1.0
64.822,8.26,-0.197,1.0
64.934,8.274,-0.571,0.0
45.724,5.826,-0.663,0.0
69.224,8.816,0.907,0.0
68.638,8.739,0.507,16.0
64.8,8.249,0.106,1.0
64.77,8.244,-0.27,0.0
0.0,0.0,0.0,0.0
0.0,0.0,0.0,0.0
69.043,8.78,0.827,1.0
68.632,8.726,0.428,23.0
0.0,0.0,0.0,0.0
64.962,8.255,-0.345,2.0
0.0,0.0,0.0,0.0
0.0,0.0,0.0,0.0
69.095,8.771,0.749,1.0
68.638,8.71,0.351,19.0
0.0,0.0,0.0,0.0
65.121,8.259,-0.419,0.0
0.0,0.0,0.0,0.0
0.0,0.0,0.0,0.0
68.974,8.737,0.671,0.0
68.693,8.698,0.274,4.0
64.899,8.215,-0.112,0.0
65.192,8.249,-0.493,0.0
0.0,0.0,0.0,0.0
38.664,4.89,-0.735,0.0
68.653,8.674,0.59,2.0
0.0,0.0,0.0,0.0
65.145,8.224,-0.185,8.0
0.0,0.0,0.0,0.0
0.0,0.0,0.0,0.0
37.953,4.787,-0.764,0.0
68.656,8.649,0.515,10.0
65.391,8.234,0.116,0.0
65.216,8.209,-0.257,15.0
64.971,8.175,-0.635,0.0
0.0,0.0,0.0,0.0
37.101,4.665,-0.787,0.0
68.69,8.625,0.44,38.0
65.579,8.23,0.043,2.0
65.211,8.18,-0.329,30.0
65.246,8.181,-0.709,1.0
0.0,0.0,0.0,0.0
34.657,4.343,-0.773,0.0
68.687,8.594,0.365,30.0
65.356,8.172,-0.026,6.0
65.265,8.157,-0.4,13.0
0.0,0.0,0.0,0.0
39.835,4.974,-0.704,0.0
32.941,4.112,-0.771,0.0
68.657,8.555,0.29,19.0
65.436,8.149,-0.097,4.0
65.391,8.139,-0.471,2.0
0.0,0.0,0.0,0.0
38.504,4.788,-0.722,0.0
32.047,3.983,-0.784,0.0
68.663,8.518,0.217,8.0
65.46,8.116,-0.167,1.0
68.97,8.546,-0.57,0.0
68.604,8.496,-0.966,2.0
38.401,4.753,-0.76,0.0
31.741,3.927,-0.81,1.0
68.684,8.48,0.144,67.0
69.265,8.546,-0.25,4.0
68.622,8.461,-0.639,0.0
68.638,8.459,-1.039,3.0
37.003,4.557,-0.772,0.0
30.713,3.781,-0.816,0.0
68.714,8.44,0.074,164.0
69.565,8.539,-0.323,5.0
68.704,8.427,-0.711,1.0
0.0,0.0,0.0,0.0
0.0,0.0,0.0,0.0
30.142,3.69,-0.833,0.0
68.74,8.397,0.002,151.0
69.292,8.458,-0.393,1.0
0.0,0.0,0.0,0.0
0.0,0.0,0.0,0.0
34.255,4.172,-0.785,0.0
29.136,3.547,-0.834,0.0
68.756,8.349,-0.066,150.0
69.132,8.388,-0.461,1.0
68.794,8.34,-0.852,1.0
39.889,4.832,-0.726,0.0
32.85,3.977,-0.785,0.0
28.468,3.444,-0.843,0.0
68.924,8.317,-0.135,2.0
68.915,8.308,-0.528,4.0
68.744,8.281,-0.919,1.0
38.205,4.598,-0.733,0.0
32.536,3.913,-0.81,1.0
27.449,3.299,-0.84,0.0
68.951,8.264,-0.203,4.0
68.933,8.254,-0.596,1.0
0.0,0.0,0.0,0.0
37.275,4.456,-0.751,0.0
31.352,3.745,-0.811,0.0
27.074,3.231,-0.855,0.0
68.902,8.2,-0.269,1.0
0.0,0.0,0.0,0.0
0.0,0.0,0.0,0.0
36.815,4.369,-0.777,0.0
30.58,3.626,-0.82,0.0
26.231,3.108,-0.853,0.0
0.0,0.0,0.0,0.0
0.0,0.0,0.0,0.0
41.877,4.937,-0.679,0.0
35.055,4.128,-0.772,0.0
29.94,3.523,-0.831,0.0
25.71,3.023,-0.859,0.0
71.722,8.405,-0.413,0.0
0.0,0.0,0.0,0.0
41.254,4.824,-0.707,0.0
34.114,3.985,-0.783,1.0
29.131,3.4,-0.834,0.0
25.09,2.925,-0.862,0.0
0.0,0.0,0.0,0.0
0.0,0.0,0.0,0.0
0.0,0.0,0.0,0.0
32.612,3.777,-0.777,0.0
28.417,3.288,-0.839,0.0
24.547,2.838,-0.865,0.0
0.0,0.0,0.0,0.0
0.0,0.0,0.0,0.0
38.68,4.445,-0.731,0.0
32.265,3.704,-0.797,0.0
27.738,3.181,-0.843,0.0
24.112,2.763,-0.87,0.0
0.0,0.0,0.0,0.0
0.0,0.0,0.0,0.0
37.651,4.287,-0.744,0.0
31.612,3.595,-0.808,0.0
27.156,3.085,-0.848,0.0
23.772,2.698,-0.878,0.0
0.0,0.0,0.0,0.0
0.0,0.0,0.0,0.0
37.059,4.179,-0.762,0.0
31.054,3.498,-0.819,0.0
26.725,3.007,-0.856,0.0
21.954,2.467,-0.828,0.0
0.0,0.0,0.0,0.0
43.138,4.822,-0.677,0.0
0.0,0.0,0.0,0.0
30.209,3.368,-0.821,0.0
26.13,2.91,-0.858,0.0
21.922,2.438,-0.845,3.0
0.0,0.0,0.0,0.0
43.007,4.757,-0.709,0.0
0.0,0.0,0.0,0.0
29.617,3.267,-0.827,0.0
25.504,2.81,-0.857,0.0
21.867,2.406,-0.859,5.0
0.0,0.0,0.0,0.0
40.83,4.467,-0.703,0.0
34.262,3.743,-0.785,0.0
28.994,3.163,-0.831,0.0
25.023,2.726,-0.859,0.0
21.843,2.377,-0.874,6.0
0.0,0.0,0.0,0.0
40.538,4.385,-0.727,0.0
33.321,3.599,-0.787,0.0
28.545,3.078,-0.839,0.0
24.611,2.65,-0.863,0.0
21.82,2.347,-0.889,6.0
0.0,0.0,0.0,0.0
39.401,4.212,-0.734,0.0
33.208,3.544,-0.807,0.0
27.952,2.979,-0.84,0.0
24.373,2.593,-0.871,0.0
21.795,2.316,-0.902,3.0
0.0,0.0,0.0,0.0
0.0,0.0,0.0,0.0
33.19,3.499,-0.829,0.0
27.639,2.909,-0.849,0.0
23.932,2.515,-0.871,0.0
21.658,2.272,-0.911,1.0
0.0,0.0,0.0,0.0
0.0,0.0,0.0,0.0
31.677,3.297,-0.811,0.0
27.113,2.817,-0.85,0.0
23.744,2.463,-0.879,0.0
21.223,2.198,-0.906,0.0
0.0,0.0,0.0,0.0
37.095,3.816,-0.763,0.0
30.453,3.127,-0.798,0.0
26.549,2.722,-0.848,0.0
22.153,2.267,-0.833,0.0
20.827,2.128,-0.901,0.0
0.0,0.0,0.0,0.0
36.503,3.703,-0.771,0.0
30.39,3.077,-0.814,0.0
26.267,2.655,-0.854,0.0
21.962,2.216,-0.838,0.0
20.636,2.078,-0.904,0.0
0.0,0.0,0.0,0.0
35.757,3.576,-0.775,0.0
30.198,3.014,-0.825,0.0
26.303,2.621,-0.869,0.0
21.903,2.178,-0.848,0.0
20.535,2.039,-0.911,0.0
0.0,0.0,0.0,0.0
35.098,3.459,-0.779,0.0
29.884,2.939,-0.831,0.0
26.057,2.558,-0.874,0.0
21.817,2.138,-0.855,0.0
19.833,1.939,-0.889,0.0
41.23,4.01,-0.703,0.0
33.38,3.239,-0.757,0.0
29.619,2.869,-0.838,0.0
25.241,2.44,-0.859,0.0
21.852,2.108,-0.867,0.0
19.773,1.904,-0.896,0.0
0.0,0.0,0.0,0.0
33.382,3.189,-0.772,0.0
29.093,2.773,-0.836,0.0
24.986,2.377,-0.861,0.0
21.824,2.072,-0.875,1.0
19.57,1.854,-0.895,0.0
40.083,3.776,-0.718,0.0
33.127,3.113,-0.78,0.0
28.749,2.696,-0.838,0.0
24.788,2.319,-0.864,0.0
21.803,2.036,-0.883,0.0
19.524,1.819,-0.9,0.0
0.0,0.0,0.0,0.0
32.746,3.026,-0.783,0.0
28.525,2.629,-0.842,0.0
24.598,2.262,-0.867,0.0
21.793,2.0,-0.89,2.0
19.476,1.783,-0.905,0.0
39.126,3.561,-0.729,0.0
32.701,2.969,-0.793,1.0
28.287,2.563,-0.844,0.0
24.404,2.205,-0.868,0.0
21.795,1.965,-0.897,4.0
19.449,1.749,-0.91,0.0
39.019,3.488,-0.74,0.0
32.78,2.923,-0.805,0.0
28.112,2.501,-0.848,0.0
24.335,2.159,-0.873,1.0
21.784,1.928,-0.903,4.0
19.372,1.711,-0.912,0.0
38.499,3.379,-0.741,0.0
32.491,2.844,-0.807,1.0
27.856,2.432,-0.847,0.0
24.24,2.111,-0.876,1.0
21.8,1.893,-0.909,3.0
19.363,1.677,-0.916,0.0
0.0,0.0,0.0,0.0
32.171,2.761,-0.806,1.0
27.679,2.369,-0.849,0.0
24.175,2.064,-0.879,1.0
21.772,1.854,-0.913,2.0
19.239,1.634,-0.915,0.0
37.827,3.192,-0.745,0.0
32.252,2.714,-0.815,1.0
27.63,2.318,-0.852,0.0
24.09,2.015,-0.88,1.0
21.756,1.815,-0.916,2.0
19.257,1.602,-0.919,0.0
37.388,3.091,-0.743,0.0
32.174,2.652,-0.818,1.0
27.582,2.267,-0.855,0.0
23.991,1.966,-0.88,0.0
21.746,1.777,-0.919,2.0
19.253,1.569,-0.921,0.0
0.0,0.0,0.0,0.0
32.025,2.584,-0.818,1.0
27.668,2.226,-0.861,1.0
24.024,1.927,-0.884,0.0
21.749,1.74,-0.921,1.0
18.856,1.504,-0.904,0.0
