X,Y,Z,Reflectivity
24.578,-1.618,0.409,26.0
24.601,-1.626,0.28,14.0
24.482,-1.622,0.958,44.0
24.482,-1.628,0.829,25.0
24.582,-1.641,0.702,24.0
24.604,-1.649,0.57,4.0
24.505,-1.649,0.438,0.0
0.0,0.0,0.0,0.0
24.531,-1.66,0.99,23.0
24.54,-1.667,0.86,16.0
83.608,-5.7,2.491,17.0
82.768,-5.664,2.02,36.0
82.882,-5.693,1.584,14.0
0.0,0.0,0.0,0.0
24.578,-1.698,1.023,25.0
83.173,-5.766,3.022,36.0
82.966,-5.771,2.576,50.0
82.514,-5.76,2.117,42.0
82.927,-5.809,1.689,44.0
0.0,0.0,0.0,0.0
83.618,-5.89,3.587,56.0
82.986,-5.865,3.12,45.0
82.644,-5.859,2.67,36.0
82.506,-5.869,2.222,41.0
82.7,-5.903,1.79,52.0
0.0,0.0,0.0,0.0
83.486,-5.991,3.689,52.0
82.961,-5.972,3.226,45.0
82.76,-5.977,2.781,40.0
82.632,-5.986,2.332,57.0
82.438,-5.991,1.892,37.0
83.043,-6.055,1.467,7.0
83.359,-6.089,3.792,38.0
82.78,-6.065,3.328,39.0
82.845,-6.088,2.894,43.0
83.153,-6.13,2.456,47.0
82.482,-6.098,2.002,37.0
83.09,-6.163,1.579,34.0
83.423,-6.199,3.906,29.0
83.091,-6.192,3.451,37.0
82.551,-6.169,2.993,33.0
82.874,-6.211,2.56,57.0
82.53,-6.204,2.114,40.0
82.68,-6.233,1.682,37.0
83.516,-6.308,4.023,23.0
83.502,-6.323,3.581,39.0
82.464,-6.261,3.1,34.0
82.749,-6.3,2.667,46.0
82.418,-6.292,2.222,38.0
82.67,-6.329,1.793,41.0
83.365,-6.395,4.129,37.0
84.163,-6.472,3.724,16.0
82.37,-6.35,3.21,29.0
82.593,-6.384,2.774,45.0
82.302,-6.378,2.331,41.0
82.463,-6.407,1.901,42.0
83.127,-6.47,4.23,34.0
84.307,-6.578,3.845,22.0
82.6,-6.459,3.331,38.0
82.459,-6.464,2.881,48.0
82.68,-6.496,2.453,47.0
82.266,-6.48,2.008,42.0
83.077,-6.556,4.342,31.0
83.36,-6.593,3.916,22.0
83.352,-6.607,3.475,18.0
82.42,-6.549,2.994,43.0
82.609,-6.578,2.565,50.0
82.265,-6.566,2.121,38.0
83.18,-6.651,4.462,40.0
83.159,-6.663,4.022,42.0
83.561,-6.71,3.6,43.0
82.559,-6.644,3.114,38.0
82.342,-6.642,2.672,38.0
82.449,-6.664,2.241,41.0
83.428,-6.755,4.591,38.0
83.22,-6.752,4.141,42.0
83.856,-6.817,3.73,23.0
82.396,-6.712,3.222,63.0
82.282,-6.716,2.784,37.0
82.447,-6.743,2.355,40.0
83.629,-6.852,4.72,39.0
83.388,-6.844,4.266,37.0
83.419,-6.86,3.828,41.0
82.084,-6.764,3.326,29.0
82.057,-6.775,2.892,41.0
82.277,-6.807,2.468,37.0
83.705,-6.936,4.844,33.0
83.483,-6.93,4.389,45.0
83.253,-6.923,3.937,41.0
82.538,-6.875,3.461,31.0
81.939,-6.838,3.003,38.0
82.177,-6.87,2.58,40.0
83.883,-7.025,4.972,20.0
83.553,-7.008,4.511,42.0
83.279,-6.996,4.056,43.0
82.072,-6.906,3.556,25.0
81.94,-6.907,3.119,41.0
82.3,-6.95,2.7,37.0
84.594,-7.155,5.135,10.0
83.824,-7.101,4.646,32.0
83.271,-7.065,4.175,42.0
81.825,-6.953,3.664,28.0
82.014,-6.98,3.24,41.0
82.234,-7.01,2.817,45.0
84.577,-7.223,5.257,18.0
83.673,-7.155,4.758,21.0
83.07,-7.113,4.286,42.0
0.0,0.0,0.0,0.0
81.866,-7.03,3.352,36.0
82.251,-7.074,2.935,33.0
84.802,-7.307,5.394,13.0
83.502,-7.203,4.87,25.0
83.098,-7.178,4.408,37.0
82.818,-7.163,3.948,38.0
81.717,-7.076,3.464,36.0
82.298,-7.137,3.056,38.0
84.545,-7.345,5.5,25.0
84.03,-7.309,5.023,18.0
83.249,-7.248,4.536,34.0
82.93,-7.229,4.072,36.0
81.834,-7.143,3.586,34.0
82.026,-7.168,3.163,52.0
84.567,-7.403,5.623,32.0
84.937,-7.443,5.198,16.0
83.367,-7.313,4.662,35.0
82.917,-7.281,4.19,37.0
82.015,-7.209,3.712,36.0
81.649,-7.185,3.265,35.0
84.823,-7.479,5.762,26.0
84.555,-7.462,5.297,37.0
83.524,-7.377,4.791,35.0
83.176,-7.354,4.322,37.0
82.185,-7.273,3.838,45.0
81.684,-7.236,3.384,36.0
85.105,-7.553,5.903,17.0
84.432,-7.499,5.41,14.0
83.872,-7.455,4.93,37.0
83.41,-7.42,4.455,41.0
82.647,-7.359,3.978,36.0
81.801,-7.291,3.506,31.0
85.311,-7.618,6.042,2.0
85.667,-7.655,5.614,23.0
84.185,-7.527,5.071,35.0
83.737,-7.493,4.594,46.0
82.722,-7.407,4.102,48.0
81.961,-7.345,3.631,33.0
112.672,-10.117,8.144,21.0
85.604,-7.691,5.734,28.0
84.23,-7.571,5.196,35.0
83.517,-7.512,4.701,45.0
82.85,-7.457,4.226,43.0
81.89,-7.375,3.745,39.0
112.719,-10.172,8.309,25.0
85.741,-7.741,5.865,15.0
84.282,-7.613,5.319,37.0
83.353,-7.533,4.811,36.0
83.205,-7.523,4.363,36.0
81.851,-7.405,3.861,36.0
113.052,-10.249,8.497,14.0
112.784,-10.227,7.878,18.0
84.189,-7.637,5.433,16.0
83.522,-7.58,4.94,33.0
83.761,-7.604,4.512,45.0
81.941,-7.443,3.981,34.0
113.051,-10.289,8.658,11.0
112.594,-10.251,8.026,27.0
85.866,-7.819,5.665,20.0
83.787,-7.632,5.075,37.0
83.442,-7.603,4.613,54.0
82.111,-7.484,4.105,29.0
112.588,-10.283,8.784,29.0
112.835,-10.307,8.203,24.0
85.888,-7.847,5.788,27.0
84.133,-7.688,5.216,39.0
83.227,-7.607,4.719,37.0
82.436,-7.537,4.238,36.0
112.482,-10.304,8.934,25.0
112.871,-10.34,8.364,22.0
113.421,-10.392,7.803,19.0
84.531,-7.745,5.359,35.0
83.27,-7.63,4.837,36.0
0.0,0.0,0.0,0.0
112.417,-10.324,9.088,14.0
112.887,-10.367,8.526,20.0
113.144,-10.389,7.944,26.0
84.864,-7.793,5.5,24.0
83.469,-7.665,4.966,36.0
83.538,-7.672,4.528,55.0
120.74,-11.111,9.931,13.0
112.698,-10.369,8.669,22.0
112.973,-10.393,8.09,27.0
85.715,-7.884,5.673,21.0
83.872,-7.714,5.106,39.0
83.274,-7.659,4.628,39.0
114.834,-10.584,9.604,10.0
112.494,-10.365,8.81,27.0
112.868,-10.397,8.238,24.0
85.903,-7.912,5.804,22.0
84.427,-7.774,5.255,36.0
83.268,-7.666,4.742,39.0
120.835,-11.149,10.273,3.0
112.427,-10.37,8.957,26.0
112.863,-10.405,8.392,23.0
113.502,-10.461,7.824,21.0
84.773,-7.812,5.392,48.0
83.279,-7.672,4.855,32.0
114.385,-10.56,9.88,3.0
112.363,-10.369,9.104,14.0
112.822,-10.407,8.54,23.0
113.286,-10.444,7.961,24.0
84.984,-7.832,5.519,23.0
83.507,-7.694,4.98,36.0
120.753,-11.15,10.593,3.0
120.718,-11.139,9.946,14.0
112.637,-10.388,8.677,27.0
112.907,-10.409,8.084,27.0
85.78,-7.904,5.685,26.0
83.922,-7.729,5.116,37.0
112.372,-10.372,10.009,7.0
114.745,-10.584,9.605,8.0
112.504,-10.371,8.815,28.0
112.85,-10.396,8.229,28.0
85.908,-7.91,5.806,22.0
84.434,-7.77,5.257,40.0
24.579,-2.266,2.221,8.0
114.615,-10.563,9.744,4.0
112.474,-10.357,8.959,23.0
112.833,-10.384,8.373,24.0
113.417,-10.431,7.811,20.0
84.727,-7.786,5.384,39.0
24.563,-2.262,2.251,29.0
114.368,-10.525,9.87,9.0
112.412,-10.337,9.099,9.0
112.885,-10.372,8.522,22.0
113.163,-10.39,7.938,24.0
84.57,-7.759,5.482,16.0
24.56,-2.258,2.282,45.0
114.353,-10.505,10.014,11.0
120.769,-11.084,9.928,8.0
112.693,-10.334,8.65,20.0
112.843,-10.339,8.058,23.0
85.83,-7.857,5.67,21.0
24.55,-2.252,2.313,62.0
24.578,-2.252,2.183,7.0
114.513,-10.485,9.557,9.0
112.532,-10.294,8.777,34.0
112.868,-10.314,8.198,24.0
85.862,-7.839,5.778,26.0
24.564,-2.247,2.344,91.0
24.57,-2.245,2.212,30.0
114.498,-10.454,9.696,12.0
112.493,-10.26,8.91,24.0
112.966,-10.292,8.342,22.0
85.874,-7.816,5.882,11.0
24.554,-2.24,2.373,72.0
24.56,-2.237,2.241,46.0
24.584,-2.237,2.111,0.0
114.519,-10.409,9.208,6.0
113.055,-10.265,8.484,15.0
112.551,-10.209,7.842,12.0
24.553,-2.231,2.402,48.0
24.565,-2.23,2.271,88.0
24.575,-2.228,2.139,14.0
114.41,-10.36,9.334,18.0
116.037,-10.495,8.842,5.0
112.609,-10.173,7.976,21.0
24.544,-2.222,2.43,23.0
24.561,-2.22,2.299,95.0
24.586,-2.22,2.168,39.0
113.704,-10.252,9.407,19.0
114.666,-10.325,8.869,7.0
112.595,-10.126,8.103,19.0
24.554,-2.213,2.459,3.0
24.555,-2.21,2.326,44.0
24.564,-2.207,2.194,52.0
60.766,-5.453,5.095,4.0
114.615,-10.271,8.992,10.0
112.497,-10.069,8.22,24.0
114.137,-10.237,11.561,14.0
24.544,-2.197,2.353,15.0
24.555,-2.195,2.221,66.0
24.582,-2.194,2.088,15.0
114.566,-10.213,9.114,10.0
112.463,-10.011,8.341,25.0
39.187,-3.496,4.012,1.0
46.562,-4.147,4.514,0.0
24.556,-2.183,2.247,51.0
24.589,-2.182,2.115,44.0
114.468,-10.146,9.228,14.0
121.232,-10.728,9.12,12.0
39.303,-3.486,4.066,1.0
112.664,-9.976,11.042,5.0
24.553,-2.17,2.273,24.0
24.574,-2.168,2.139,62.0
60.652,-5.343,4.952,7.0
121.146,-10.654,9.238,25.0
112.281,-9.897,11.731,23.0
113.319,-9.969,11.224,15.0
24.564,-2.157,2.299,1.0
24.575,-2.154,2.164,58.0
24.61,-2.153,2.034,6.0
120.89,-10.561,9.339,23.0
112.227,-9.825,11.84,33.0
114.058,-9.966,11.411,11.0
46.503,-4.055,4.399,5.0
24.589,-2.14,2.19,47.0
24.626,-2.14,2.059,39.0
120.778,-10.475,9.448,18.0
23.795,-2.068,2.533,0.0
113.907,-9.882,11.506,16.0
46.447,-4.021,4.438,4.0
24.577,-2.123,2.212,29.0
24.595,-2.121,2.08,50.0
60.665,-5.222,4.802,6.0
23.813,-2.054,2.558,24.0
47.364,-4.077,4.829,3.0
53.853,-4.626,5.196,3.0
24.618,-2.11,2.238,9.0
24.602,-2.104,2.103,62.0
120.855,-10.319,9.677,12.0
23.809,-2.037,2.579,53.0
23.9,-2.04,2.458,3.0
117.365,-9.999,11.431,11.0
59.171,-5.03,5.434,2.0
24.602,-2.087,2.125,53.0
24.64,-2.085,1.994,1.0
23.814,-2.02,2.601,73.0
23.822,-2.016,2.471,15.0
60.962,-5.148,5.991,6.0
46.481,-3.916,4.309,4.0
24.586,-2.067,2.145,29.0
24.633,-2.066,2.014,10.0
23.804,-2.001,2.62,41.0
23.81,-1.997,2.49,42.0
23.827,-1.993,2.361,27.0
46.476,-3.879,4.347,3.0
24.541,-2.044,2.161,25.0
24.603,-2.044,2.032,26.0
23.804,-1.982,2.64,14.0
23.814,-1.978,2.51,46.0
23.83,-1.974,2.38,61.0
23.898,-1.975,2.254,40.0
23.938,-1.974,2.127,18.0
24.311,-2.0,2.027,22.0
30.886,-2.546,3.449,3.0
23.815,-1.958,2.528,48.0
23.83,-1.954,2.399,63.0
23.88,-1.954,2.27,63.0
23.925,-1.952,2.144,51.0
23.999,-1.954,2.019,28.0
30.866,-2.518,3.47,6.0
23.816,-1.938,2.546,19.0
23.84,-1.934,2.417,55.0
23.869,-1.932,2.286,61.0
23.915,-1.931,2.16,58.0
23.965,-1.93,2.033,48.0
30.841,-2.488,3.489,20.0
47.804,-3.846,5.145,3.0
23.854,-1.914,2.435,38.0
23.889,-1.912,2.305,37.0
23.921,-1.909,2.176,47.0
23.968,-1.908,2.049,51.0
30.875,-2.463,3.514,6.0
112.593,-8.957,12.192,21.0
38.992,-3.093,4.007,3.0
23.891,-1.89,2.321,6.0
23.919,-1.887,2.192,21.0
23.972,-1.886,2.065,33.0
36.84,-2.904,4.216,3.0
30.9,-2.429,3.365,1.0
38.995,-3.056,4.031,4.0
58.048,-4.537,5.674,5.0
23.957,-1.867,2.209,0.0
24.008,-1.866,2.082,28.0
36.841,-2.868,4.239,7.0
30.911,-2.399,3.385,40.0
39.026,-3.02,4.057,5.0
111.972,-8.642,11.01,18.0
47.326,-3.642,4.392,5.0
24.04,-1.844,2.098,16.0
36.852,-2.832,4.261,8.0
39.025,-2.99,4.295,3.0
47.216,-3.607,4.934,8.0
59.055,-4.497,5.839,6.0
47.166,-3.581,4.402,9.0
24.038,-1.819,2.111,0.0
36.892,-2.797,4.285,7.0
46.027,-3.479,5.089,10.0
39.001,-2.939,4.096,8.0
52.404,-3.936,5.207,1.0
47.132,-3.529,4.422,3.0
46.522,-3.473,4.108,3.0
112.672,-8.425,13.141,25.0
30.403,-2.266,3.376,7.0
30.967,-2.3,3.266,42.0
111.353,-8.246,11.116,23.0
59.0,-4.356,5.562,4.0
46.499,-3.422,4.126,3.0
30.404,-2.241,3.559,14.0
30.405,-2.233,3.39,40.0
31.0,-2.269,3.283,4.0
47.649,-3.477,4.776,5.0
59.451,-4.324,5.629,12.0
24.917,-1.806,2.221,9.0
30.407,-2.207,3.572,83.0
30.419,-2.201,3.403,63.0
36.347,-2.62,3.863,4.0
30.999,-2.227,3.119,24.0
47.038,-3.369,4.471,0.0
24.857,-1.774,2.224,22.0
30.414,-2.173,3.584,11.0
30.406,-2.165,3.412,41.0
36.25,-2.572,3.866,3.0
30.997,-2.192,3.129,26.0
24.961,-1.759,2.381,21.0
24.853,-1.746,2.232,35.0
47.253,-3.323,5.583,11.0
36.933,-2.588,4.156,9.0
30.414,-2.123,3.252,19.0
25.008,-1.74,2.532,39.0
24.971,-1.731,2.389,59.0
24.857,-1.718,2.239,33.0
32.028,-2.215,3.793,28.0
32.074,-2.21,3.618,8.0
25.038,-1.719,2.684,31.0
25.001,-1.71,2.537,66.0
25.0,-1.704,2.397,43.0
24.852,-1.688,2.245,15.0
32.038,-2.178,3.801,38.0
32.009,-2.168,3.618,22.0
25.048,-1.69,2.69,52.0
25.035,-1.683,2.546,35.0
24.993,-1.674,2.402,3.0
31.053,-2.073,2.811,24.0
31.942,-2.134,3.796,51.0
0.0,0.0,0.0,0.0
25.066,-1.661,2.697,39.0
38.933,-2.571,3.966,4.0
47.546,-3.129,4.577,5.0
28.435,-1.864,2.578,24.0
0.0,0.0,0.0,0.0
30.23,-1.975,3.426,47.0
30.442,-1.981,3.279,1.0
30.425,-1.972,3.103,40.0
47.538,-3.07,4.581,5.0
28.434,-1.829,2.581,29.0
31.941,-2.055,3.804,27.0
30.216,-1.936,3.428,38.0
30.355,-1.938,3.272,32.0
30.446,-1.936,3.107,62.0
47.523,-3.01,4.584,4.0
28.422,-1.793,2.582,28.0
30.136,-1.902,3.591,42.0
25.201,-1.584,2.86,18.0
30.366,-1.9,3.275,26.0
30.454,-1.899,3.109,60.0
47.529,-2.951,4.586,5.0
46.612,-2.883,4.235,5.0
30.099,-1.862,3.587,44.0
25.193,-1.552,2.859,24.0
31.523,-1.934,3.399,39.0
30.444,-1.86,3.108,44.0
30.514,-1.856,2.943,5.0
28.415,-1.721,2.581,31.0
30.14,-1.826,3.591,13.0
25.209,-1.52,2.86,27.0
31.752,-1.907,3.423,61.0
30.483,-1.823,3.11,46.0
30.528,-1.818,2.943,9.0
28.415,-1.685,2.579,36.0
46.765,-2.773,5.568,2.0
25.245,-1.49,2.862,46.0
31.747,-1.866,3.419,43.0
30.972,-1.813,3.157,42.0
52.419,-3.055,5.048,9.0
28.423,-1.649,2.577,43.0
33.489,-1.942,3.983,2.0
25.254,-1.458,2.86,26.0
36.967,-2.125,3.977,11.0
31.176,-1.784,3.174,42.0
30.508,-1.738,2.933,28.0
28.423,-1.613,2.572,49.0
33.484,-1.898,3.977,2.0
25.318,-1.429,2.863,17.0
36.931,-2.075,3.966,12.0
31.629,-1.769,3.214,37.0
30.534,-1.7,2.93,39.0
24.194,-1.341,2.185,36.0
25.467,-1.41,3.019,41.0
47.264,-2.606,5.335,12.0
36.973,-2.029,3.962,13.0
31.65,-1.729,3.209,13.0
24.107,-1.311,2.307,34.0
24.177,-1.309,2.177,58.0
25.478,-1.378,3.014,47.0
47.294,-2.545,5.326,10.0
58.781,-3.149,6.284,9.0
24.022,-1.281,2.429,20.0
24.099,-1.279,2.3,64.0
24.171,-1.276,2.17,26.0
25.479,-1.344,3.007,33.0
53.629,-2.816,6.022,5.0
23.948,-1.251,2.552,21.0
24.019,-1.249,2.421,63.0
24.109,-1.247,2.293,38.0
28.398,-1.463,2.539,56.0
25.493,-1.311,2.999,1.0
23.865,-1.221,2.671,17.0
23.95,-1.219,2.544,36.0
24.031,-1.218,2.413,42.0
30.594,-1.543,2.898,49.0
28.409,-1.425,2.53,71.0
23.801,-1.192,2.791,36.0
23.839,-1.188,2.659,28.0
23.959,-1.188,2.535,39.0
38.709,-1.909,3.871,27.0
30.588,-1.502,2.884,42.0
30.66,-1.497,2.717,66.0
23.797,-1.16,2.78,61.0
23.851,-1.157,2.65,39.0
37.121,-1.791,3.911,4.0
38.716,-1.858,3.854,50.0
31.031,-1.482,2.912,35.0
30.699,-1.459,2.706,20.0
23.798,-1.128,2.769,47.0
59.982,-2.83,6.635,13.0
46.359,-2.175,4.862,6.0
46.29,-2.16,4.585,15.0
31.497,-1.462,2.94,65.0
31.487,-1.454,2.76,24.0
23.799,-1.096,2.756,1.0
47.827,-2.192,5.265,7.0
59.926,-2.732,6.253,9.0
46.204,-2.095,4.551,32.0
31.505,-1.421,2.923,4.0
24.64,-1.105,2.145,49.0
40.196,-1.798,4.632,4.0
37.089,-1.65,4.061,19.0
37.127,-1.643,3.852,12.0
24.632,-1.084,2.411,29.0
24.64,-1.078,2.271,61.0
24.631,-1.072,2.13,56.0
47.532,-2.063,5.449,27.0
31.818,-1.373,3.464,32.0
24.671,-1.059,2.544,26.0
24.648,-1.052,2.398,75.0
24.649,-1.046,2.257,77.0
24.645,-1.04,2.115,37.0
39.603,-1.666,4.514,4.0
28.407,-1.188,3.074,34.0
24.665,-1.025,2.527,48.0
24.656,-1.019,2.382,73.0
28.403,-1.168,2.581,10.0
28.411,-1.161,2.419,77.0
28.413,-1.157,3.218,104.0
24.734,-1.002,2.659,36.0
24.671,-0.993,2.509,57.0
28.431,-1.138,2.726,43.0
28.406,-1.13,2.56,112.0
28.398,-1.123,2.397,78.0
28.394,-1.119,3.195,94.0
24.731,-0.968,2.639,39.0
24.673,-0.96,2.491,30.0
28.405,-1.099,2.701,67.0
28.418,-1.093,2.539,60.0
28.415,-1.087,2.376,27.0
24.797,-0.944,2.77,28.0
24.732,-0.936,2.62,44.0
37.179,-1.399,3.724,33.0
37.265,-1.393,3.514,7.0
38.798,-1.442,3.435,6.0
37.834,-1.398,3.133,49.0
24.819,-0.912,2.752,35.0
24.767,-0.905,2.602,11.0
37.189,-1.35,3.693,27.0
37.276,-1.345,3.483,47.0
28.373,-1.017,2.488,62.0
28.379,-1.012,2.325,72.0
24.82,-0.88,2.73,41.0
43.737,-1.541,4.557,9.0
48.969,-1.714,4.819,3.0
28.35,-0.986,2.623,49.0
28.374,-0.981,2.462,76.0
28.385,-0.975,2.3,74.0
24.839,-0.848,2.709,10.0
47.973,-1.629,4.954,4.0
42.756,-1.442,4.168,2.0
28.359,-0.95,2.597,64.0
28.382,-0.945,2.436,82.0
28.378,-0.939,2.272,75.0
36.777,-1.209,3.975,2.0
47.831,-1.562,4.892,3.0
43.234,-1.403,4.172,17.0
28.365,-0.914,2.57,66.0
28.377,-0.908,2.407,74.0
28.377,-0.902,2.244,70.0
42.588,-1.346,4.56,3.0
54.97,-1.725,5.567,11.0
0.0,0.0,0.0,0.0
28.355,-0.878,2.54,73.0
28.369,-0.872,2.377,82.0
28.375,-0.866,2.214,77.0
44.458,-1.349,4.713,51.0
42.617,-1.284,4.271,10.0
44.506,-1.331,4.202,17.0
28.367,-0.843,2.511,77.0
28.381,-0.837,2.348,76.0
28.379,-0.831,2.184,75.0
0.0,0.0,0.0,0.0
44.483,-1.285,4.409,66.0
28.361,-0.813,2.646,49.0
28.357,-0.807,2.479,88.0
28.364,-0.802,2.315,71.0
28.367,-0.796,2.152,72.0
52.455,-1.462,5.445,6.0
50.77,-1.404,4.974,7.0
28.341,-0.778,2.612,60.0
28.358,-0.773,2.446,71.0
28.368,-0.767,2.283,72.0
28.373,-0.762,2.119,71.0
47.288,-1.259,4.853,12.0
47.149,-1.246,4.564,10.0
28.356,-0.744,2.58,71.0
28.351,-0.738,2.412,81.0
28.368,-0.733,2.249,71.0
28.368,-0.728,2.085,70.0
51.849,-1.318,5.258,3.0
44.458,-1.122,4.249,17.0
28.356,-0.71,2.545,76.0
28.361,-0.704,2.378,75.0
28.362,-0.699,2.213,69.0
28.36,-0.693,2.049,69.0
51.957,-1.258,5.203,3.0
28.332,-0.681,2.672,28.0
28.352,-0.676,2.509,74.0
28.355,-0.671,2.341,73.0
28.352,-0.666,2.177,72.0
28.362,-0.661,2.013,71.0
44.239,-1.02,4.373,3.0
28.345,-0.648,2.636,61.0
28.351,-0.643,2.472,75.0
28.356,-0.638,2.304,72.0
28.348,-0.632,2.139,71.0
28.35,-0.628,1.975,74.0
31.474,-0.689,3.069,69.0
28.346,-0.616,2.599,71.0
28.348,-0.611,2.434,71.0
28.351,-0.606,2.266,71.0
28.346,-0.6,2.101,72.0
28.35,-0.596,1.937,77.0
37.79,-0.785,3.633,2.0
28.343,-0.584,2.559,79.0
28.346,-0.578,2.394,70.0
28.342,-0.573,2.226,71.0
28.345,-0.569,2.062,78.0
28.349,-0.564,1.898,75.0
37.744,-0.742,3.575,35.0
28.345,-0.552,2.519,57.0
28.346,-0.547,2.354,67.0
28.337,-0.542,2.185,73.0
28.343,-0.538,2.021,77.0
28.342,-0.533,1.857,78.0
28.323,-0.525,2.642,8.0
40.423,-0.743,3.534,9.0
31.349,-0.571,2.558,16.0
54.074,-0.976,4.092,22.0
53.81,-0.963,3.759,14.0
51.889,-0.92,3.323,6.0
43.184,-0.755,3.964,3.0
31.291,-0.542,2.689,60.0
102.078,-1.753,8.179,12.0
54.018,-0.919,4.008,47.0
38.614,-0.651,2.64,67.0
58.781,-0.982,3.678,19.0
47.769,-0.786,4.313,1.0
38.572,-0.629,3.257,2.0
38.604,-0.623,3.035,33.0
68.33,-1.092,4.966,15.0
46.476,-0.736,3.107,39.0
52.228,-0.819,3.188,29.0
31.218,-0.482,2.771,38.0
38.554,-0.589,3.196,67.0
38.633,-0.584,2.977,75.0
38.632,-0.578,2.748,55.0
46.432,-0.689,3.032,40.0
46.276,-0.68,2.753,45.0
31.229,-0.451,2.722,46.0
38.568,-0.551,3.136,63.0
38.653,-0.547,2.917,88.0
38.641,-0.541,2.687,44.0
44.884,-0.622,2.86,45.0
46.224,-0.634,2.677,58.0
54.257,-0.731,4.643,6.0
38.602,-0.514,3.077,2.0
38.648,-0.51,2.855,58.0
44.767,-0.584,3.041,67.0
44.926,-0.58,2.79,52.0
52.843,-0.675,2.974,43.0
38.566,-0.483,3.236,62.0
46.886,-0.58,3.66,28.0
38.65,-0.473,2.791,51.0
52.292,-0.633,3.466,63.0
60.232,-0.722,3.641,22.0
52.878,-0.626,2.888,19.0
47.068,-0.546,3.871,10.0
46.827,-0.537,3.577,6.0
38.715,-0.439,2.731,7.0
60.484,-0.678,3.908,15.0
52.837,-0.585,3.105,26.0
45.493,-0.498,2.408,21.0
51.538,-0.552,4.15,35.0
44.58,-0.471,3.329,39.0
52.31,-0.547,3.6,63.0
52.956,-0.547,3.33,26.0
45.129,-0.46,2.574,42.0
45.696,-0.46,2.34,33.0
52.33,-0.515,4.123,15.0
38.661,-0.376,2.82,44.0
64.301,-0.618,4.315,73.0
64.295,-0.61,3.932,18.0
45.202,-0.423,2.501,47.0
0.0,0.0,0.0,0.0
44.57,-0.402,3.434,24.0
52.352,-0.466,3.727,60.0
52.735,-0.463,3.446,71.0
64.312,-0.558,3.82,62.0
45.266,-0.387,2.424,36.0
58.284,-0.492,2.782,255.0
52.34,-0.43,3.939,18.0
52.723,-0.427,3.659,86.0
52.796,-0.422,3.355,25.0
45.575,-0.359,2.625,38.0
45.739,-0.355,2.368,33.0
58.285,-0.447,2.677,255.0
52.739,-0.392,3.874,30.0
53.189,-0.39,3.595,12.0
104.087,-0.752,6.425,4.0
45.59,-0.324,2.543,60.0
59.049,-0.415,2.949,35.0
58.288,-0.403,2.571,255.0
58.388,-0.391,4.181,29.0
53.226,-0.351,3.499,30.0
45.561,-0.296,2.728,33.0
58.323,-0.373,3.145,9.0
58.274,-0.367,2.802,217.0
58.293,-0.361,2.463,255.0
58.38,-0.349,4.071,65.0
58.508,-0.344,3.737,49.0
45.571,-0.263,2.644,72.0
58.347,-0.332,3.037,63.0
58.291,-0.326,2.694,255.0
58.209,-0.32,2.35,255.0
53.289,-0.282,3.615,50.0
58.583,-0.304,3.63,9.0
46.139,-0.236,2.588,38.0
58.989,-0.296,2.958,64.0
58.288,-0.288,2.583,255.0
58.208,-0.282,2.24,255.0
53.317,-0.247,3.514,5.0
45.561,-0.207,2.736,64.0
58.903,-0.264,3.193,43.0
58.269,-0.256,2.811,217.0
58.215,-0.251,2.468,255.0
58.212,-0.246,2.127,255.0
45.531,-0.183,2.913,31.0
46.099,-0.182,2.679,51.0
58.851,-0.227,3.075,54.0
58.276,-0.221,2.699,255.0
58.304,-0.217,2.359,161.0
58.216,-0.212,2.015,255.0
45.538,-0.157,2.825,73.0
58.86,-0.198,3.306,51.0
59.157,-0.195,2.976,26.0
58.263,-0.188,2.585,203.0
58.317,-0.184,2.246,152.0
58.31,-0.18,1.905,158.0
58.738,-0.17,3.527,6.0
58.574,-0.166,3.175,47.0
58.269,-0.161,2.816,216.0
58.288,-0.157,2.47,27.0
58.304,-0.153,2.129,150.0
20.179,-0.051,0.619,16.0
46.136,-0.11,2.679,14.0
58.524,-0.136,3.055,14.0
58.217,-0.131,2.698,255.0
20.118,-0.044,0.812,20.0
58.27,-0.124,2.011,90.0
20.163,-0.041,0.578,20.0
59.917,-0.114,3.357,61.0
59.279,-0.109,2.975,59.0
58.273,-0.104,2.583,13.0
20.119,-0.034,0.772,25.0
20.191,-0.033,0.656,26.0
20.142,-0.032,0.537,21.0
58.517,-0.085,3.161,24.0
58.248,-0.082,2.805,224.0
20.124,-0.027,0.851,27.0
20.132,-0.026,0.732,26.0
20.172,-0.025,0.615,22.0
20.136,-0.024,0.496,24.0
59.3,-0.062,3.083,44.0
58.247,-0.059,2.687,213.0
20.113,-0.019,0.81,26.0
20.171,-0.018,0.692,27.0
20.174,-0.017,0.574,25.0
20.129,-0.016,0.455,28.0
59.264,-0.04,2.961,17.0
20.115,-0.012,0.886,20.0
20.117,-0.012,0.769,27.0
20.182,-0.011,0.651,42.0
20.162,-0.01,0.532,21.0
20.13,-0.009,0.414,26.0
58.291,-0.02,2.793,179.0
20.12,-0.006,0.845,28.0
20.126,-0.005,0.728,28.0
20.171,-0.004,0.609,27.0
20.137,-0.004,0.49,26.0
20.122,-0.003,0.372,25.0
58.28,-0.003,2.669,150.0
20.122,0.0,0.803,28.0
20.171,0.0,0.687,33.0
20.157,0.0,0.566,26.0
20.127,0.001,0.448,27.0
20.13,0.002,0.33,26.0
20.123,0.004,0.88,28.0
20.115,0.004,0.761,29.0
20.185,0.005,0.646,43.0
20.117,0.005,0.524,20.0
20.126,0.006,0.406,27.0
20.126,0.006,0.289,27.0
20.106,0.008,0.837,27.0
20.126,0.009,0.72,30.0
20.178,0.009,0.603,28.0
20.135,0.01,0.482,27.0
20.125,0.01,0.364,26.0
20.127,0.01,0.247,27.0
20.099,0.012,0.794,29.0
20.175,0.013,0.679,42.0
20.171,0.013,0.561,25.0
20.132,0.013,0.44,28.0
20.128,0.013,0.322,25.0
20.127,0.014,0.204,27.0
20.121,0.015,0.752,32.0
20.192,0.016,0.637,38.0
20.144,0.016,0.517,20.0
20.13,0.016,0.397,25.0
20.13,0.016,0.279,26.0
20.13,0.016,0.161,25.0
20.135,0.018,0.71,32.0
20.171,0.018,0.593,28.0
20.137,0.018,0.474,27.0
20.129,0.018,0.354,25.0
20.128,0.018,0.236,26.0
20.134,0.018,0.118,30.0
20.196,0.019,0.669,48.0
20.166,0.019,0.55,25.0
20.145,0.019,0.431,28.0
20.131,0.019,0.311,27.0
20.127,0.019,0.193,28.0
20.152,0.019,0.076,24.0
20.184,0.02,0.626,37.0
20.144,0.02,0.507,23.0
20.12,0.02,0.388,25.0
20.126,0.02,0.268,27.0
20.133,0.02,0.15,27.0
20.261,0.02,0.033,150.0
20.179,0.02,0.582,28.0
20.137,0.02,0.463,28.0
20.135,0.02,0.346,27.0
20.123,0.019,0.226,26.0
20.13,0.019,0.108,29.0
20.244,0.019,-0.009,151.0
20.164,0.02,0.539,26.0
20.139,0.019,0.42,28.0
20.132,0.019,0.302,27.0
20.12,0.018,0.182,26.0
20.201,0.018,0.064,33.0
20.256,0.018,-0.053,151.0
20.146,0.018,0.495,27.0
20.131,0.018,0.376,25.0
20.126,0.017,0.259,26.0
20.134,0.017,0.139,26.0
20.259,0.016,0.021,151.0
20.252,0.016,-0.096,151.0
20.138,0.016,0.452,29.0
20.131,0.015,0.334,26.0
20.125,0.015,0.216,26.0
20.132,0.014,0.096,28.0
20.237,0.014,-0.021,152.0
20.254,0.013,-0.14,151.0
20.129,0.013,0.409,28.0
20.126,0.012,0.291,27.0
20.129,0.012,0.173,25.0
20.234,0.011,0.053,150.0
20.254,0.011,-0.064,151.0
20.257,0.01,-0.183,150.0
20.131,0.009,0.366,27.0
20.131,0.009,0.248,27.0
20.127,0.008,0.13,28.0
20.254,0.007,0.011,151.0
20.262,0.006,-0.107,151.0
20.261,0.006,-0.226,150.0
20.128,0.005,0.323,27.0
20.129,0.004,0.205,28.0
20.152,0.003,0.088,44.0
20.248,0.002,-0.031,151.0
20.274,0.002,-0.15,150.0
20.266,0.001,-0.269,57.0
20.123,0.0,0.28,28.0
20.126,0.0,0.163,26.0
20.241,-0.001,0.045,52.0
20.266,-0.002,-0.075,62.0
20.235,-0.003,-0.193,13.0
20.247,-0.004,-0.312,6.0
20.122,-0.005,0.238,28.0
20.127,-0.006,0.12,30.0
20.215,-0.007,0.002,18.0
20.191,-0.008,-0.117,19.0
20.223,-0.009,-0.236,6.0
20.223,-0.011,-0.354,1.0
20.126,-0.012,0.195,29.0
20.137,-0.013,0.077,29.0
20.18,-0.014,-0.04,15.0
20.171,-0.015,-0.16,12.0
20.196,-0.017,-0.279,3.0
41.593,-0.037,-0.818,1.0
20.119,-0.019,0.152,29.0
20.135,-0.021,0.034,20.0
20.185,-0.022,-0.083,26.0
20.155,-0.023,-0.203,3.0
20.183,-0.025,-0.322,2.0
37.447,-0.048,-0.816,1.0
20.126,-0.028,0.109,42.0
20.124,-0.029,-0.008,30.0
20.169,-0.03,-0.126,26.0
20.141,-0.032,-0.245,19.0
20.184,-0.033,-0.364,1.0
34.591,-0.059,-0.826,2.0
20.134,-0.036,0.067,43.0
20.138,-0.038,-0.05,28.0
20.162,-0.039,-0.168,26.0
20.164,-0.041,-0.288,24.0
20.196,-0.043,-0.406,0.0
32.3,-0.071,-0.84,3.0
20.133,-0.046,0.025,37.0
20.149,-0.048,-0.092,34.0
20.138,-0.049,-0.21,10.0
20.136,-0.051,-0.329,18.0
20.194,-0.053,-0.448,0.0
30.31,-0.082,-0.851,2.0
20.134,-0.056,-0.016,36.0
20.149,-0.058,-0.133,33.0
20.149,-0.06,-0.251,26.0
20.151,-0.061,-0.371,18.0
20.2,-0.063,-0.49,0.0
28.122,-0.091,-0.847,0.0
20.143,-0.067,-0.057,41.0
20.146,-0.069,-0.175,29.0
20.147,-0.071,-0.293,27.0
20.176,-0.073,-0.413,26.0
33.153,-0.123,-0.873,5.0
28.034,-0.107,-0.902,4.0
20.143,-0.079,-0.098,33.0
20.159,-0.081,-0.216,25.0
20.146,-0.083,-0.334,25.0
20.177,-0.085,-0.454,23.0
58.439,-0.253,-1.659,2.0
25.958,-0.115,-0.889,0.0
20.148,-0.092,-0.139,39.0
20.137,-0.094,-0.257,35.0
20.149,-0.096,-0.375,29.0
20.193,-0.098,-0.496,23.0
28.085,-0.139,-0.854,5.0
24.72,-0.125,-0.897,0.0
20.163,-0.105,-0.18,27.0
20.143,-0.107,-0.298,37.0
20.154,-0.109,-0.416,35.0
20.178,-0.111,-0.536,19.0
28.048,-0.158,-0.91,3.0
23.141,-0.133,-0.886,0.0
20.151,-0.119,-0.221,29.0
20.148,-0.121,-0.338,36.0
20.155,-0.123,-0.456,30.0
20.182,-0.125,-0.576,17.0
22.607,-0.146,-0.91,28.0
20.149,-0.133,-0.261,33.0
20.161,-0.136,-0.378,35.0
20.181,-0.138,-0.497,30.0
20.178,-0.14,-0.616,18.0
24.825,-0.176,-0.904,0.0
22.511,-0.162,-0.951,1.0
20.159,-0.148,-0.3,30.0
20.158,-0.151,-0.418,32.0
20.177,-0.153,-0.536,36.0
20.223,-0.156,-0.658,23.0
22.627,-0.178,-0.868,6.0
20.271,-0.162,-0.896,56.0
20.17,-0.164,-0.34,28.0
20.179,-0.167,-0.458,27.0
20.183,-0.169,-0.575,36.0
20.208,-0.172,-0.696,16.0
22.657,-0.196,-0.913,8.0
20.233,-0.178,-0.934,15.0
20.188,-0.181,-0.379,28.0
20.168,-0.183,-0.496,32.0
20.197,-0.186,-0.614,36.0
24.584,-0.23,-0.894,1.0
22.705,-0.215,-0.958,0.0
20.202,-0.198,-0.417,26.0
20.194,-0.201,-0.534,38.0
20.202,-0.203,-0.652,37.0
20.215,-0.206,-0.773,7.0
20.27,-0.21,-0.894,44.0
18.567,-0.195,-0.927,0.0
20.203,-0.216,-0.455,15.0
20.195,-0.219,-0.573,29.0
20.215,-0.222,-0.691,33.0
22.718,-0.252,-0.911,7.0
20.274,-0.228,-0.932,43.0
18.081,-0.206,-0.937,0.0
20.204,-0.234,-0.493,3.0
20.215,-0.237,-0.611,28.0
20.219,-0.24,-0.729,33.0
20.201,-0.243,-0.848,9.0
19.961,-0.243,-0.954,3.0
17.451,-0.215,-0.936,0.0
29.109,-0.365,-0.763,4.0
20.23,-0.257,-0.648,24.0
20.224,-0.259,-0.766,32.0
20.173,-0.262,-0.883,18.0
18.986,-0.249,-0.942,0.0
16.958,-0.225,-0.941,0.0
28.018,-0.379,-0.785,2.0
20.215,-0.276,-0.684,14.0
20.235,-0.279,-0.803,27.0
20.257,-0.283,-0.924,24.0
18.194,-0.257,-0.936,0.0
16.465,-0.235,-0.943,0.0
27.032,-0.392,-0.806,1.0
20.237,-0.297,-0.721,2.0
20.169,-0.299,-0.836,11.0
19.665,-0.295,-0.932,3.0
17.574,-0.266,-0.935,0.0
16.017,-0.245,-0.946,0.0
26.151,-0.406,-0.825,3.0
25.99,-0.408,-0.972,0.0
20.335,-0.322,-0.878,3.0
19.481,-0.312,-0.957,0.0
17.041,-0.276,-0.937,0.0
15.585,-0.255,-0.948,0.0
25.315,-0.42,-0.843,3.0
23.579,-0.395,-0.922,0.0
0.0,0.0,0.0,0.0
18.326,-0.313,-0.932,0.0
16.67,-0.288,-0.945,0.0
15.188,-0.265,-0.95,0.0
24.284,-0.429,-0.85,1.0
21.483,-0.383,-0.877,0.0
19.647,-0.354,-0.916,1.0
17.975,-0.327,-0.945,0.0
16.198,-0.297,-0.946,0.0
14.747,-0.273,-0.947,0.0
23.666,-0.444,-0.868,1.0
23.515,-0.446,-0.999,0.0
19.565,-0.374,-0.945,1.0
17.221,-0.333,-0.934,0.0
15.736,-0.307,-0.945,0.0
14.387,-0.283,-0.948,0.0
22.747,-0.453,-0.871,1.0
22.737,-0.457,-1.003,0.0
0.0,0.0,0.0,0.0
16.919,-0.346,-0.945,0.0
15.461,-0.319,-0.953,0.0
14.078,-0.293,-0.95,0.0
21.89,-0.461,-0.874,1.0
21.854,-0.464,-0.999,0.0
38.441,-0.825,-1.981,2.0
16.588,-0.359,-0.953,0.0
14.856,-0.324,-0.94,0.0
13.811,-0.304,-0.954,0.0
21.26,-0.473,-0.882,0.0
21.153,-0.475,-1.001,0.0
17.558,-0.397,-0.932,0.0
16.032,-0.366,-0.946,0.0
14.485,-0.333,-0.939,0.0
13.38,-0.311,-0.946,0.0
20.751,-0.487,-0.894,1.0
20.556,-0.486,-1.004,0.0
17.178,-0.409,-0.939,2.0
15.648,-0.376,-0.947,0.0
14.26,-0.346,-0.946,0.0
13.199,-0.322,-0.953,0.0
20.148,-0.497,-0.897,1.0
20.048,-0.499,-1.009,0.0
16.961,-0.425,-0.952,2.0
15.287,-0.386,-0.949,0.0
14.035,-0.358,-0.953,0.0
12.941,-0.332,-0.954,0.0
19.61,-0.508,-0.903,0.0
19.493,-0.509,-1.01,0.0
14.81,-0.393,-0.941,0.0
13.673,-0.366,-0.948,0.0
12.679,-0.342,-0.953,0.0
19.106,-0.519,-0.907,0.0
19.028,-0.521,-1.014,0.0
14.504,-0.403,-0.942,0.0
13.393,-0.375,-0.948,0.0
12.477,-0.352,-0.955,0.0
18.533,-0.528,-0.906,0.0
18.447,-0.529,-1.008,0.0
15.691,-0.453,-0.948,0.0
14.288,-0.416,-0.948,0.0
13.246,-0.388,-0.956,0.0
12.283,-0.363,-0.958,0.0
18.016,-0.536,-0.905,0.0
17.975,-0.539,-1.007,0.0
15.281,-0.461,-0.945,0.0
14.042,-0.427,-0.951,0.0
12.981,-0.398,-0.954,0.0
12.072,-0.373,-0.958,0.0
17.573,-0.547,-0.907,0.0
17.399,-0.545,-0.998,0.0
14.97,-0.472,-0.946,0.0
13.699,-0.435,-0.946,0.0
12.776,-0.409,-0.956,0.0
11.804,-0.38,-0.952,0.0
17.17,-0.557,-0.909,0.0
16.865,-0.551,-0.99,0.0
14.604,-0.48,-0.942,0.0
13.419,-0.444,-0.944,0.0
12.542,-0.418,-0.955,0.0
11.587,-0.389,-0.95,0.0
16.743,-0.566,-0.907,0.0
16.434,-0.559,-0.985,0.0
14.443,-0.495,-0.949,0.0
13.341,-0.46,-0.955,0.0
12.411,-0.431,-0.961,0.0
11.444,-0.4,-0.952,0.0
16.276,-0.573,-0.902,1.0
16.145,-0.572,-0.987,0.0
14.221,-0.507,-0.952,0.0
13.138,-0.471,-0.957,0.0
12.213,-0.441,-0.96,0.0
11.271,-0.41,-0.951,0.0
16.112,-0.589,-0.912,1.0
15.909,-0.585,-0.992,0.0
13.92,-0.515,-0.948,0.0
12.938,-0.482,-0.957,0.0
11.966,-0.449,-0.954,0.0
11.136,-0.42,-0.953,0.0
15.996,-0.607,-0.924,0.0
14.845,-0.567,-0.942,0.0
13.603,-0.523,-0.942,0.0
12.7,-0.491,-0.954,0.0
11.818,-0.46,-0.956,0.0
11.036,-0.432,-0.957,0.0
15.908,-0.626,-0.936,0.0
14.575,-0.577,-0.941,0.0
13.526,-0.539,-0.951,0.0
12.572,-0.504,-0.958,0.0
11.65,-0.47,-0.955,0.0
10.864,-0.441,-0.954,0.0
15.796,-0.644,-0.946,0.0
14.457,-0.593,-0.949,0.0
13.396,-0.553,-0.956,0.0
12.397,-0.515,-0.958,0.0
11.473,-0.479,-0.953,0.0
10.743,-0.451,-0.954,0.0
15.713,-0.663,-0.957,0.0
14.277,-0.606,-0.952,0.0
13.217,-0.565,-0.957,0.0
12.301,-0.528,-0.963,0.0
11.32,-0.489,-0.951,0.0
10.64,-0.463,-0.956,0.0
15.571,-0.68,-0.964,0.0
14.167,-0.622,-0.958,0.0
13.082,-0.578,-0.96,0.0
12.048,-0.535,-0.955,0.0
11.189,-0.5,-0.951,0.0
10.535,-0.473,-0.956,0.0
15.491,-0.699,-0.974,0.0
13.857,-0.628,-0.95,0.0
12.897,-0.588,-0.959,0.0
11.929,-0.547,-0.956,0.0
11.079,-0.511,-0.952,0.0
10.422,-0.484,-0.956,0.0
15.306,-0.713,-0.976,0.0
13.69,-0.641,-0.951,0.0
12.726,-0.599,-0.957,0.0
11.78,-0.558,-0.955,0.0
11.075,-0.527,-0.962,0.0
10.33,-0.494,-0.956,0.0
14.763,-0.709,-0.954,0.0
13.573,-0.655,-0.955,0.0
12.639,-0.614,-0.962,0.0
11.634,-0.568,-0.953,0.0
10.899,-0.535,-0.956,0.0
10.237,-0.505,-0.956,0.0
14.59,-0.722,-0.955,0.0
13.51,-0.672,-0.962,0.0
12.478,-0.624,-0.96,0.0
11.533,-0.58,-0.954,0.0
10.74,-0.543,-0.95,0.0
10.136,-0.515,-0.955,0.0
14.465,-0.737,-0.958,0.0
13.39,-0.686,-0.963,0.0
12.325,-0.635,-0.957,0.0
11.442,-0.592,-0.955,0.0
10.693,-0.557,-0.954,0.0
10.056,-0.526,-0.955,0.0
14.544,-0.763,-0.974,0.0
13.049,-0.688,-0.948,0.0
12.228,-0.648,-0.958,0.0
11.317,-0.603,-0.953,0.0
10.57,-0.566,-0.951,0.0
9.958,-0.536,-0.953,0.0
14.308,-0.772,-0.968,0.0
13.068,-0.708,-0.959,0.0
12.129,-0.661,-0.959,0.0
11.271,-0.617,-0.957,0.0
10.525,-0.579,-0.954,0.0
9.892,-0.547,-0.953,0.0
14.043,-0.778,-0.959,0.0
12.943,-0.721,-0.958,0.0
12.072,-0.675,-0.962,0.0
11.117,-0.625,-0.951,0.0
10.498,-0.593,-0.958,0.0
9.881,-0.561,-0.958,0.0
14.034,-0.799,-0.967,0.0
12.884,-0.736,-0.961,0.0
11.938,-0.686,-0.959,0.0
11.077,-0.639,-0.954,0.0
10.438,-0.605,-0.958,0.0
9.794,-0.571,-0.955,0.0
13.79,-0.805,-0.958,0.0
12.736,-0.747,-0.957,0.0
11.878,-0.7,-0.96,0.0
11.035,-0.653,-0.956,0.0
10.391,-0.618,-0.96,0.0
9.762,-0.583,-0.958,0.0
13.685,-0.819,-0.958,0.0
12.682,-0.762,-0.96,0.0
11.776,-0.711,-0.958,0.0
10.935,-0.664,-0.953,0.0
10.299,-0.628,-0.956,0.0
9.727,-0.596,-0.959,0.0
13.582,-0.833,-0.957,0.0
12.595,-0.776,-0.959,0.0
11.673,-0.722,-0.955,0.0
10.25,-0.64,-0.956,0.0
9.661,-0.606,-0.957,0.0
13.662,-0.858,-0.969,0.0
12.575,-0.793,-0.963,0.0
11.632,-0.737,-0.957,0.0
10.195,-0.651,-0.956,0.0
9.627,-0.618,-0.957,0.0
13.526,-0.869,-0.965,0.0
12.587,-0.812,-0.969,0.0
11.606,-0.752,-0.959,0.0
10.763,-0.701,-0.952,0.0
10.173,-0.665,-0.957,0.0
9.598,-0.63,-0.958,0.0
14.618,-0.961,-1.048,0.0
12.488,-0.824,-0.965,0.0
11.589,-0.768,-0.961,0.0
10.727,-0.714,-0.952,0.0
10.155,-0.679,-0.959,0.0
9.561,-0.642,-0.957,0.0
14.576,-0.979,-1.049,0.0
12.474,-0.841,-0.968,0.0
11.532,-0.781,-0.96,0.0
10.658,-0.725,-0.949,0.0
10.109,-0.69,-0.957,0.0
9.526,-0.653,-0.956,0.0
14.519,-0.996,-1.049,0.0
12.422,-0.856,-0.967,0.0
11.513,-0.796,-0.961,0.0
10.659,-0.74,-0.951,0.0
10.107,-0.705,-0.959,0.0
9.517,-0.666,-0.957,0.0
13.288,-0.931,-0.962,0.0
12.347,-0.868,-0.964,0.0
11.466,-0.809,-0.96,0.0
10.669,-0.756,-0.954,0.0
10.08,-0.717,-0.959,0.0
9.493,-0.678,-0.957,0.0
13.209,-0.944,-0.959,0.0
12.358,-0.887,-0.967,0.0
11.418,-0.822,-0.958,0.0
10.631,-0.769,-0.953,0.0
10.078,-0.732,-0.96,0.0
9.468,-0.69,-0.955,0.0
13.213,-0.963,-0.961,0.0
12.329,-0.902,-0.966,0.0
11.411,-0.838,-0.958,0.0
10.668,-0.786,-0.957,0.0
10.062,-0.745,-0.96,0.0
9.465,-0.703,-0.956,0.0
13.246,-0.984,-0.965,0.0
12.312,-0.918,-0.966,0.0
11.446,-0.857,-0.962,0.0
10.608,-0.797,-0.952,0.0
10.073,-0.759,-0.961,0.0
9.469,-0.717,-0.957,0.0
13.225,-1.001,-0.964,0.0
12.294,-0.934,-0.965,0.0
11.393,-0.868,-0.958,0.0
10.602,-0.811,-0.952,0.0
10.071,-0.773,-0.961,0.0
9.452,-0.728,-0.955,0.0
13.227,-1.019,-0.964,0.0
12.239,-0.946,-0.96,0.0
11.412,-0.885,-0.959,0.0
10.634,-0.828,-0.955,0.0
10.086,-0.788,-0.962,0.0
9.454,-0.741,-0.955,0.0
13.346,-1.046,-0.972,0.0
12.258,-0.964,-0.961,0.0
11.472,-0.906,-0.964,0.0
10.624,-0.842,-0.953,0.0
10.098,-0.803,-0.963,0.0
9.471,-0.755,-0.956,0.0
13.479,-1.075,-0.981,0.0
12.27,-0.981,-0.961,0.0
11.464,-0.92,-0.962,0.0
10.66,-0.858,-0.955,0.0
10.095,-0.816,-0.961,0.0
9.498,-0.77,-0.958,0.0
13.742,-1.114,-0.998,0.0
12.319,-1.002,-0.963,0.0
11.48,-0.936,-0.962,0.0
10.702,-0.876,-0.958,0.0
10.131,-0.832,-0.963,0.0
9.503,-0.783,-0.957,0.0
13.527,-1.114,-0.98,0.0
12.337,-1.019,-0.963,0.0
11.509,-0.954,-0.962,0.0
10.659,-0.886,-0.952,0.0
10.128,-0.845,-0.961,0.0
9.554,-0.8,-0.96,0.0
13.569,-1.135,-0.98,0.0
12.448,-1.044,-0.969,0.0
11.561,-0.973,-0.964,0.0
10.752,-0.908,-0.958,0.0
10.134,-0.858,-0.959,0.0
9.587,-0.814,-0.961,0.0
13.753,-1.167,-0.99,0.0
12.475,-1.062,-0.968,0.0
11.598,-0.99,-0.964,0.0
10.841,-0.928,-0.963,0.0
10.21,-0.877,-0.964,0.0
9.573,-0.825,-0.957,0.0
13.738,-1.183,-0.985,0.0
12.577,-1.086,-0.972,0.0
11.649,-1.009,-0.965,0.0
10.868,-0.944,-0.962,0.0
10.239,-0.892,-0.963,0.0
9.669,-0.845,-0.963,0.0
13.822,-1.207,-0.987,0.0
12.652,-1.108,-0.973,0.0
11.724,-1.03,-0.967,0.0
10.878,-0.958,-0.959,0.0
10.249,-0.905,-0.96,0.0
9.687,-0.858,-0.962,0.0
13.864,-1.227,-0.985,0.0
12.633,-1.121,-0.967,0.0
11.773,-1.048,-0.967,0.0
10.981,-0.98,-0.964,0.0
10.308,-0.923,-0.962,0.0
9.745,-0.875,-0.963,0.0
13.893,-1.246,-0.981,0.0
12.718,-1.144,-0.969,0.0
11.842,-1.068,-0.967,0.0
11.04,-0.998,-0.964,0.0
10.31,-0.935,-0.957,0.0
9.774,-0.889,-0.962,0.0
13.878,-1.26,-0.974,0.0
12.778,-1.164,-0.967,0.0
11.901,-1.086,-0.967,0.0
11.067,-1.013,-0.961,0.0
10.391,-0.954,-0.96,0.0
9.8,-0.902,-0.96,0.0
13.855,-1.274,-0.966,1.0
12.886,-1.188,-0.969,0.0
11.98,-1.107,-0.967,0.0
11.094,-1.028,-0.958,0.0
10.399,-0.966,-0.956,0.0
9.888,-0.921,-0.963,0.0
13.837,-1.287,-0.958,1.0
13.04,-1.216,-0.974,0.0
12.049,-1.126,-0.966,0.0
11.21,-1.051,-0.962,0.0
10.433,-0.98,-0.953,0.0
9.924,-0.935,-0.961,0.0
13.823,-1.3,-0.949,1.0
13.147,-1.24,-0.975,0.0
12.054,-1.139,-0.96,0.0
11.285,-1.069,-0.962,0.0
10.65,-1.012,-0.967,0.0
9.998,-0.952,-0.963,0.0
13.796,-1.312,-0.939,1.0
13.286,-1.266,-0.977,0.0
12.173,-1.163,-0.962,0.0
11.388,-1.09,-0.964,0.0
10.638,-1.021,-0.959,0.0
10.061,-0.968,-0.962,0.0
13.758,-1.322,-0.928,1.0
13.414,-1.292,-0.978,1.0
12.272,-1.185,-0.962,0.0
11.514,-1.114,-0.967,0.0
10.768,-1.044,-0.964,0.0
10.151,-0.987,-0.964,0.0
13.741,-1.334,-0.918,1.0
13.462,-1.309,-0.973,1.0
12.597,-1.228,-0.979,0.0
11.644,-1.137,-0.97,0.0
10.859,-1.063,-0.964,0.0
10.222,-1.003,-0.964,0.0
13.725,-1.345,-0.907,1.0
13.57,-1.332,-0.971,2.0
12.743,-1.254,-0.982,0.0
11.767,-1.16,-0.972,0.0
11.002,-1.087,-0.969,0.0
10.289,-1.019,-0.963,0.0
13.712,-1.356,-0.897,1.0
13.611,-1.348,-0.964,2.0
12.827,-1.273,-0.979,0.0
11.826,-1.177,-0.968,0.0
11.058,-1.102,-0.966,0.0
10.318,-1.031,-0.958,0.0
13.678,-1.364,-0.884,2.0
13.628,-1.362,-0.955,1.0
13.04,-1.306,-0.985,0.0
11.954,-1.199,-0.969,0.0
11.186,-1.125,-0.968,0.0
10.51,-1.059,-0.967,0.0
13.669,-1.375,-0.873,2.0
13.653,-1.376,-0.946,1.0
13.115,-1.324,-0.98,0.0
12.031,-1.217,-0.966,0.0
11.276,-1.143,-0.967,0.0
10.547,-1.071,-0.962,0.0
13.662,-1.385,-0.861,1.0
13.638,-1.385,-0.934,1.0
13.318,-1.355,-0.984,0.0
12.198,-1.243,-0.969,0.0
11.431,-1.167,-0.971,0.0
10.588,-1.083,-0.957,0.0
13.697,-1.399,-0.852,0.0
13.625,-1.394,-0.921,1.0
13.473,-1.381,-0.984,1.0
12.293,-1.262,-0.966,0.0
11.543,-1.187,-0.97,0.0
0.0,0.0,0.0,0.0
13.848,-1.424,-0.849,0.0
13.61,-1.402,-0.908,1.0
13.517,-1.395,-0.975,2.0
13.155,-1.36,-1.022,0.0
11.684,-1.21,-0.971,0.0
10.918,-1.132,-0.967,0.0
14.006,-1.45,-0.846,0.0
13.588,-1.409,-0.894,1.0
13.539,-1.406,-0.964,2.0
12.878,-1.34,-0.988,0.0
11.812,-1.231,-0.971,0.0
11.059,-1.154,-0.969,0.0
14.125,-1.472,-0.84,1.0
13.568,-1.416,-0.88,1.0
13.558,-1.417,-0.953,1.0
12.99,-1.36,-0.985,0.0
11.968,-1.255,-0.972,0.0
11.181,-1.174,-0.969,0.0
14.268,-1.496,-0.835,1.0
13.563,-1.424,-0.867,1.0
13.55,-1.424,-0.939,1.0
13.213,-1.391,-0.989,0.0
12.117,-1.277,-0.972,0.0
11.296,-1.193,-0.968,0.0
14.474,-1.526,-0.832,1.0
13.612,-1.436,-0.856,0.0
13.553,-1.432,-0.926,1.0
13.429,-1.421,-0.991,0.0
12.263,-1.299,-0.972,0.0
11.474,-1.217,-0.971,0.0
14.627,-1.549,-0.827,0.0
13.749,-1.458,-0.851,0.0
13.531,-1.437,-0.911,1.0
13.513,-1.437,-0.984,1.0
13.251,-1.411,-1.036,0.0
11.662,-1.243,-0.975,0.0
14.864,-1.582,-0.825,1.0
13.911,-1.482,-0.847,0.0
13.518,-1.442,-0.896,1.0
13.517,-1.443,-0.97,1.0
13.27,-1.419,-1.024,0.0
11.785,-1.261,-0.973,0.0
15.09,-1.613,-0.821,1.0
14.1,-1.508,-0.843,1.0
13.523,-1.448,-0.882,1.0
13.49,-1.446,-0.954,1.0
13.045,-1.4,-0.992,0.0
11.985,-1.288,-0.977,0.0
15.247,-1.636,-0.814,1.0
14.289,-1.534,-0.839,1.0
13.515,-1.453,-0.866,1.0
13.497,-1.452,-0.939,2.0
13.12,-1.413,-0.984,0.0
12.121,-1.307,-0.974,0.0
15.403,-1.658,-0.805,1.0
14.456,-1.557,-0.833,0.0
13.578,-1.464,-0.855,0.0
13.484,-1.455,-0.923,2.0
13.433,-1.451,-0.992,0.0
12.251,-1.325,-0.971,0.0
15.629,-1.688,-0.799,1.0
14.669,-1.585,-0.829,1.0
13.771,-1.489,-0.852,0.0
13.461,-1.457,-0.907,2.0
13.484,-1.461,-0.981,1.0
13.371,-1.45,-1.045,0.0
15.948,-1.727,-0.798,1.0
14.885,-1.613,-0.824,1.0
13.926,-1.51,-0.846,0.0
13.489,-1.463,-0.893,1.0
13.472,-1.463,-0.964,1.0
13.261,-1.441,-1.021,0.0
16.165,-1.754,-0.79,1.0
15.116,-1.641,-0.82,1.0
14.13,-1.535,-0.842,0.0
13.479,-1.465,-0.877,1.0
13.41,-1.459,-0.944,3.0
13.083,-1.424,-0.992,0.0
16.39,-1.782,-0.782,1.0
15.281,-1.662,-0.811,1.0
14.305,-1.557,-0.836,1.0
13.497,-1.469,-0.862,1.0
13.397,-1.46,-0.927,6.0
13.35,-1.455,-0.996,0.0
16.812,-1.83,-0.782,1.0
15.488,-1.687,-0.803,1.0
14.532,-1.583,-0.831,0.0
13.643,-1.487,-0.855,0.0
13.397,-1.461,-0.911,6.0
13.451,-1.468,-0.987,0.0
17.126,-1.866,-0.776,1.0
15.812,-1.724,-0.801,1.0
14.776,-1.611,-0.828,0.0
13.836,-1.509,-0.85,0.0
13.455,-1.468,-0.899,2.0
13.468,-1.471,-0.972,2.0
17.507,-1.909,-0.772,1.0
16.085,-1.754,-0.795,1.0
15.034,-1.64,-0.823,1.0
14.052,-1.534,-0.846,0.0
13.474,-1.471,-0.884,1.0
13.422,-1.466,-0.952,3.0
18.01,-1.964,-0.772,1.0
16.297,-1.778,-0.786,1.0
15.226,-1.661,-0.815,1.0
14.265,-1.557,-0.842,1.0
13.489,-1.472,-0.868,1.0
13.389,-1.462,-0.933,7.0
18.371,-2.003,-0.765,1.0
16.694,-1.82,-0.784,1.0
15.409,-1.68,-0.806,1.0
14.422,-1.573,-0.833,1.0
13.595,-1.483,-0.858,0.0
13.407,-1.463,-0.917,7.0
18.879,-2.057,-0.763,1.0
17.031,-1.856,-0.779,1.0
15.71,-1.712,-0.802,0.0
14.71,-1.603,-0.831,0.0
13.787,-1.503,-0.852,0.0
13.444,-1.466,-0.903,2.0
19.412,-2.113,-0.76,1.0
17.404,-1.894,-0.774,1.0
16.06,-1.748,-0.8,1.0
14.971,-1.629,-0.827,1.0
13.996,-1.523,-0.847,0.0
13.477,-1.467,-0.888,1.0
19.914,-2.165,-0.754,1.0
17.971,-1.953,-0.776,1.0
16.267,-1.768,-0.789,1.0
15.183,-1.65,-0.819,1.0
14.252,-1.548,-0.845,0.0
13.487,-1.465,-0.871,1.0
20.497,-2.224,-0.75,3.0
18.242,-1.979,-0.765,1.0
16.577,-1.798,-0.783,0.0
15.365,-1.666,-0.809,1.0
14.413,-1.562,-0.836,1.0
13.576,-1.471,-0.859,0.0
20.947,-2.268,-0.74,3.0
18.9,-2.045,-0.768,0.0
17.033,-1.843,-0.783,1.0
15.697,-1.698,-0.806,1.0
14.693,-1.589,-0.833,1.0
13.785,-1.49,-0.855,0.0
21.592,-2.331,-0.735,3.0
19.389,-2.092,-0.763,1.0
17.396,-1.876,-0.777,1.0
15.976,-1.723,-0.8,1.0
14.965,-1.613,-0.829,1.0
13.997,-1.508,-0.85,0.0
22.347,-2.405,-0.732,4.0
19.924,-2.143,-0.758,1.0
17.957,-1.931,-0.778,1.0
16.258,-1.747,-0.793,1.0
15.192,-1.632,-0.822,1.0
14.246,-1.529,-0.847,1.0
22.911,-2.457,-0.721,5.0
20.401,-2.186,-0.75,2.0
18.287,-1.959,-0.769,1.0
16.588,-1.776,-0.787,0.0
15.385,-1.646,-0.812,1.0
14.441,-1.544,-0.839,0.0
23.68,-2.529,-0.714,5.0
20.999,-2.241,-0.745,3.0
18.872,-2.013,-0.77,1.0
16.972,-1.809,-0.784,0.0
15.68,-1.67,-0.808,1.0
14.668,-1.561,-0.834,1.0
24.671,-2.624,-0.712,6.0
21.533,-2.288,-0.736,3.0
19.376,-2.057,-0.765,1.0
17.391,-1.845,-0.781,1.0
15.946,-1.69,-0.801,1.0
14.977,-1.587,-0.832,1.0
25.417,-2.69,-0.702,6.0
22.34,-2.362,-0.735,3.0
19.883,-2.1,-0.76,1.0
17.858,-1.885,-0.779,1.0
16.284,-1.717,-0.797,1.0
15.192,-1.601,-0.824,1.0
26.231,-2.761,-0.69,6.0
22.913,-2.409,-0.724,3.0
20.507,-2.154,-0.757,2.0
18.242,-1.914,-0.772,1.0
16.562,-1.736,-0.789,1.0
15.376,-1.611,-0.814,1.0
26.93,-2.818,-0.673,3.0
23.797,-2.488,-0.721,2.0
20.976,-2.19,-0.747,2.0
18.84,-1.965,-0.773,1.0
16.921,-1.763,-0.784,0.0
15.738,-1.638,-0.813,0.0
27.872,-2.899,-0.661,1.0
24.682,-2.564,-0.716,5.0
21.635,-2.245,-0.743,1.0
19.356,-2.006,-0.769,1.0
17.433,-1.805,-0.785,0.0
15.971,-1.651,-0.804,1.0
28.614,-2.956,-0.642,1.0
25.53,-2.634,-0.708,6.0
22.306,-2.298,-0.737,1.0
19.888,-2.047,-0.765,2.0
17.932,-1.843,-0.784,0.0
16.265,-1.67,-0.798,1.0
30.514,-3.13,-0.646,4.0
26.312,-2.695,-0.696,6.0
23.0,-2.352,-0.73,2.0
20.314,-2.075,-0.755,1.0
18.323,-1.869,-0.779,1.0
16.525,-1.683,-0.79,1.0
30.869,-3.142,-0.614,2.0
27.029,-2.747,-0.681,3.0
23.829,-2.418,-0.727,3.0
20.915,-2.119,-0.751,1.0
18.852,-1.907,-0.777,0.0
16.974,-1.715,-0.79,0.0
32.806,-3.312,-0.611,10.0
27.694,-2.791,-0.663,2.0
24.657,-2.481,-0.721,5.0
21.541,-2.164,-0.746,1.0
19.35,-1.941,-0.773,2.0
17.348,-1.737,-0.785,0.0
33.748,-3.377,-0.586,11.0
29.557,-2.953,-0.67,2.0
25.637,-2.557,-0.717,6.0
22.301,-2.22,-0.744,1.0
19.81,-1.969,-0.767,2.0
17.888,-1.775,-0.787,0.0
34.36,-3.407,-0.555,25.0
30.333,-3.002,-0.65,2.0
26.351,-2.604,-0.704,6.0
22.876,-2.256,-0.735,3.0
20.313,-2.0,-0.761,1.0
18.324,-1.801,-0.784,1.0
35.077,-3.445,-0.523,12.0
31.223,-3.061,-0.631,5.0
27.06,-2.647,-0.69,4.0
23.56,-2.301,-0.729,5.0
20.801,-2.027,-0.754,1.0
18.793,-1.828,-0.781,1.0
37.55,-3.65,-0.514,11.0
32.493,-3.152,-0.617,5.0
27.964,-2.707,-0.679,6.0
24.587,-2.375,-0.73,5.0
21.517,-2.075,-0.753,1.0
19.25,-1.852,-0.776,1.0
0.0,0.0,0.0,0.0
34.31,-3.292,-0.61,11.0
28.32,-2.712,-0.654,2.0
25.429,-2.429,-0.724,6.0
21.989,-2.097,-0.743,2.0
19.739,-1.878,-0.772,2.0
0.0,0.0,0.0,0.0
34.853,-3.306,-0.578,14.0
30.266,-2.865,-0.663,3.0
26.084,-2.464,-0.712,6.0
22.795,-2.148,-0.744,1.0
20.232,-1.902,-0.768,1.0
44.787,-4.208,-0.452,11.0
35.409,-3.319,-0.545,12.0
30.879,-2.887,-0.639,1.0
26.975,-2.516,-0.705,7.0
23.688,-2.205,-0.745,5.0
20.698,-1.922,-0.761,1.0
45.968,-4.265,-0.41,22.0
38.374,-3.552,-0.546,15.0
0.0,0.0,0.0,0.0
27.641,-2.546,-0.69,7.0
23.83,-2.189,-0.722,13.0
21.425,-1.963,-0.763,1.0
47.647,-4.364,-0.37,18.0
39.486,-3.607,-0.517,15.0
33.453,-3.048,-0.616,2.0
28.538,-2.593,-0.68,5.0
23.893,-2.166,-0.696,8.0
21.847,-1.975,-0.753,1.0
50.228,-4.537,-0.334,17.0
40.673,-3.664,-0.486,15.0
34.925,-3.138,-0.603,3.0
29.597,-2.652,-0.672,3.0
23.922,-2.138,-0.671,2.0
22.637,-2.018,-0.755,2.0
54.708,-4.873,-0.303,27.0
42.111,-3.74,-0.457,9.0
37.061,-3.282,-0.6,13.0
30.478,-2.691,-0.658,3.0
26.827,-2.362,-0.722,4.0
23.445,-2.059,-0.756,5.0
55.429,-4.864,-0.246,8.0
45.913,-4.017,-0.448,21.0
38.037,-3.318,-0.574,14.0
31.42,-2.732,-0.645,2.0
27.318,-2.369,-0.706,5.0
23.774,-2.056,-0.741,13.0
0.0,0.0,0.0,0.0
47.023,-4.049,-0.409,21.0
39.049,-3.353,-0.548,15.0
32.35,-2.769,-0.629,1.0
27.98,-2.387,-0.693,2.0
23.882,-2.032,-0.719,18.0
79.488,-6.756,-0.184,8.0
49.856,-4.224,-0.381,24.0
40.219,-3.396,-0.522,15.0
34.155,-2.875,-0.629,1.0
28.962,-2.43,-0.688,7.0
24.269,-2.03,-0.706,18.0
79.779,-6.667,-0.103,14.0
50.635,-4.217,-0.336,6.0
41.468,-3.442,-0.496,15.0
35.394,-2.928,-0.616,3.0
30.07,-2.479,-0.684,8.0
24.912,-2.047,-0.699,16.0
79.716,-6.545,-0.022,27.0
54.215,-4.435,-0.304,5.0
45.921,-3.743,-0.503,20.0
36.045,-2.928,-0.591,1.0
30.639,-2.48,-0.666,4.0
25.27,-2.038,-0.684,6.0
79.934,-6.442,0.056,29.0
61.199,-4.914,-0.283,5.0
46.729,-3.739,-0.466,21.0
0.0,0.0,0.0,0.0
31.24,-2.481,-0.648,2.0
27.428,-2.171,-0.716,1.0
0.0,0.0,0.0,0.0
61.464,-4.841,-0.226,2.0
0.0,0.0,0.0,0.0
39.903,-3.118,-0.577,6.0
32.892,-2.561,-0.652,1.0
27.918,-2.165,-0.703,2.0
65.565,-5.08,0.171,95.0
61.717,-4.763,-0.169,12.0
49.9,-3.836,-0.404,23.0
41.225,-3.157,-0.558,3.0
33.673,-2.568,-0.636,2.0
28.782,-2.186,-0.698,2.0
65.59,-4.977,0.231,195.0
65.843,-4.976,-0.12,4.0
53.633,-4.036,-0.385,9.0
42.849,-3.211,-0.542,3.0
34.517,-2.576,-0.621,2.0
29.944,-2.226,-0.7,8.0
65.555,-4.867,0.288,7.0
66.01,-4.88,-0.062,2.0
54.011,-3.976,-0.341,4.0
0.0,0.0,0.0,0.0
35.731,-2.607,-0.612,2.0
30.527,-2.219,-0.687,8.0
65.651,-4.765,0.345,1.0
65.65,-4.744,-0.007,0.0
57.157,-4.112,-0.312,6.0
46.9,-3.359,-0.513,20.0
36.524,-2.604,-0.595,1.0
30.749,-2.183,-0.666,9.0
65.543,-4.647,0.399,2.0
65.314,-4.609,0.046,1.0
59.68,-4.192,-0.277,5.0
49.321,-3.449,-0.499,7.0
38.735,-2.696,-0.6,2.0
30.638,-2.123,-0.639,8.0
65.576,-4.537,0.451,158.0
65.508,-4.51,0.098,2.0
79.364,-5.439,-0.306,2.0
49.566,-3.38,-0.463,7.0
40.204,-2.728,-0.591,2.0
24.552,-1.658,-0.493,18.0
65.586,-4.423,0.502,167.0
24.623,-1.652,0.056,1.0
24.581,-1.641,-0.076,7.0
24.537,-1.63,-0.21,16.0
24.543,-1.622,-0.342,34.0
24.511,-1.612,-0.474,38.0
24.546,-1.611,0.206,29.0
24.567,-1.604,0.074,34.0
24.542,-1.594,-0.058,44.0
24.52,-1.584,-0.192,44.0
24.507,-1.576,-0.324,55.0
24.495,-1.567,-0.456,49.0
24.531,-1.566,0.223,40.0
24.531,-1.558,0.091,60.0
24.521,-1.549,-0.041,69.0
24.498,-1.539,-0.175,52.0
24.501,-1.531,-0.307,63.0
24.496,-1.522,-0.439,50.0
24.54,-1.522,0.24,79.0
24.519,-1.512,0.107,52.0
24.531,-1.504,-0.024,97.0
24.508,-1.494,-0.159,66.0
24.499,-1.485,-0.291,60.0
24.515,-1.478,-0.424,79.0
24.541,-1.476,0.256,77.0
24.518,-1.466,0.123,53.0
24.527,-1.458,-0.008,66.0
24.519,-1.449,-0.143,68.0
24.511,-1.44,-0.276,67.0
24.517,-1.432,-0.408,55.0
24.558,-1.431,0.271,51.0
24.541,-1.422,0.138,44.0
24.551,-1.413,0.005,48.0
24.543,-1.404,-0.129,52.0
24.53,-1.395,-0.261,49.0
24.536,-1.387,-0.394,46.0
24.589,-1.386,0.286,29.0
24.584,-1.377,0.153,21.0
65.525,-3.648,0.053,99.0
24.573,-1.359,-0.115,16.0
24.56,-1.35,-0.248,19.0
24.568,-1.342,-0.381,27.0
0.0,0.0,0.0,0.0
65.648,-3.553,0.444,0.0
69.397,-3.731,0.093,0.0
65.814,-3.516,-0.274,2.0
53.698,-2.849,-0.514,1.0
37.99,-2.002,-0.57,6.0
0.0,0.0,0.0,0.0
0.0,0.0,0.0,0.0
0.0,0.0,0.0,0.0
66.437,-3.419,-0.243,1.0
54.098,-2.765,-0.491,1.0
38.14,-1.936,-0.553,5.0
82.798,-4.19,1.091,40.0
67.348,-3.383,0.522,1.0
0.0,0.0,0.0,0.0
68.995,-3.415,-0.221,0.0
31.27,-1.537,-0.27,20.0
31.248,-1.524,-0.439,34.0
82.917,-4.03,1.13,34.0
79.892,-3.855,0.655,15.0
31.155,-1.492,0.086,0.0
31.269,-1.485,-0.086,25.0
31.197,-1.471,-0.256,46.0
31.204,-1.46,-0.425,55.0
83.086,-3.874,1.167,19.0
31.311,-1.448,0.269,24.0
31.236,-1.433,0.098,45.0
31.219,-1.421,-0.074,59.0
31.182,-1.408,-0.243,55.0
31.179,-1.396,-0.413,50.0
31.245,-1.394,0.45,40.0
31.222,-1.381,0.28,26.0
28.463,-1.249,0.1,58.0
28.457,-1.238,-0.057,62.0
28.439,-1.227,-0.212,66.0
28.438,-1.216,-0.367,98.0
28.437,-1.211,0.419,92.0
28.439,-1.2,0.264,120.0
28.446,-1.19,0.11,126.0
28.437,-1.179,-0.047,108.0
28.453,-1.169,-0.203,150.0
28.439,-1.158,-0.358,99.0
20.132,-0.136,0.301,18.0
20.126,-0.129,0.189,19.0
20.136,-0.121,0.077,29.0
20.147,-0.114,-0.036,28.0
20.138,-0.107,-0.148,33.0
20.14,-0.1,-0.26,39.0
20.127,-0.093,0.294,28.0
20.126,-0.086,0.182,28.0
20.132,-0.079,0.07,41.0
20.118,-0.071,-0.043,32.0
20.149,-0.064,-0.155,36.0
20.149,-0.057,-0.267,26.0
20.117,-0.05,0.287,30.0
20.119,-0.043,0.175,39.0
20.134,-0.036,0.063,38.0
20.137,-0.029,-0.05,22.0
20.165,-0.022,-0.163,16.0
20.223,-0.014,-0.276,5.0
20.131,-0.007,0.279,28.0
20.135,0.0,0.167,28.0
20.219,0.006,0.055,72.0
20.256,0.013,-0.059,151.0
20.256,0.02,-0.172,151.0
20.264,0.027,-0.285,69.0
20.138,0.034,0.27,32.0
20.147,0.041,0.158,27.0
20.211,0.048,0.046,27.0
20.211,0.055,-0.068,32.0
20.209,0.062,-0.181,26.0
20.227,0.069,-0.294,0.0
20.146,0.077,0.261,28.0
20.155,0.084,0.148,26.0
20.196,0.091,0.036,34.0
20.189,0.097,-0.078,33.0
20.184,0.105,-0.191,25.0
20.199,0.112,-0.304,26.0
20.163,0.119,0.25,27.0
20.18,0.126,0.138,24.0
20.194,0.133,0.025,26.0
20.186,0.139,-0.089,26.0
20.19,0.146,-0.202,26.0
20.174,0.153,-0.314,37.0
20.273,0.161,0.241,26.0
20.297,0.169,0.128,26.0
20.334,0.176,0.014,31.0
