X,Y,Z,Reflectivity
40.435,-0.997,1.79,25.0
40.425,-0.986,1.556,26.0
40.406,-0.975,1.322,29.0
38.715,-0.924,1.04,38.0
40.404,-0.953,0.853,38.0
40.406,-0.943,0.62,38.0
40.407,-0.934,1.732,40.0
40.404,-0.923,1.499,38.0
40.399,-0.912,1.265,40.0
40.386,-0.901,1.028,24.0
38.398,-0.847,0.756,21.0
38.388,-0.837,0.535,41.0
40.438,-0.873,1.675,26.0
45.694,-0.975,1.63,8.0
45.714,-0.963,1.367,44.0
38.389,-0.799,0.922,3.0
45.686,-0.939,0.834,6.0
52.943,-1.076,0.662,52.0
45.727,-0.918,1.828,49.0
45.736,-0.907,1.564,47.0
64.323,-1.259,1.829,79.0
38.064,-0.735,0.858,0.0
203.477,-3.881,3.415,5.0
203.34,-3.827,2.239,18.0
64.296,-1.194,2.473,18.0
64.291,-1.179,2.102,80.0
64.328,-1.163,1.731,38.0
191.954,-3.424,4.038,5.0
176.682,-3.107,2.696,21.0
20.144,-0.349,0.191,2.0
64.317,-1.1,2.376,12.0
64.292,-1.084,2.003,80.0
176.595,-2.936,4.481,23.0
59.541,-0.976,1.161,15.0
20.148,-0.325,0.276,6.0
20.123,-0.32,0.159,13.0
59.345,-0.93,2.1,11.0
59.437,-0.917,1.759,11.0
59.492,-0.904,1.417,6.0
20.141,-0.301,0.361,8.0
20.119,-0.296,0.244,13.0
20.131,-0.291,0.128,9.0
53.504,-0.762,1.808,122.0
59.397,-0.832,1.663,21.0
20.146,-0.277,0.447,9.0
20.119,-0.272,0.328,12.0
20.134,-0.268,0.212,9.0
20.138,-0.263,0.095,1.0
53.51,-0.688,1.722,68.0
59.417,-0.75,1.567,10.0
20.134,-0.249,0.414,12.0
20.134,-0.244,0.295,10.0
20.163,-0.24,0.179,1.0
56.18,-0.658,0.176,1.0
53.491,-0.614,1.633,17.0
20.135,-0.226,0.498,13.0
20.143,-0.222,0.381,13.0
64.329,-0.695,0.839,33.0
64.322,-0.681,0.467,85.0
56.21,-0.583,0.083,2.0
53.485,-0.542,1.543,39.0
20.142,-0.2,0.464,15.0
53.469,-0.519,0.924,15.0
53.379,-0.507,0.607,5.0
53.363,-0.495,0.298,10.0
53.35,-0.483,-0.011,10.0
20.169,-0.178,0.548,8.0
20.22,-0.174,0.432,27.0
20.26,-0.17,0.315,14.0
58.319,-0.478,0.565,14.0
58.308,-0.466,0.226,12.0
20.188,-0.157,-0.038,16.0
20.19,-0.152,0.513,11.0
20.19,-0.148,0.396,19.0
20.146,-0.143,0.278,16.0
20.138,-0.139,0.16,16.0
20.151,-0.135,0.043,28.0
20.151,-0.131,-0.073,24.0
20.125,-0.126,0.476,18.0
20.126,-0.122,0.36,20.0
20.119,-0.118,0.243,20.0
20.138,-0.114,0.124,22.0
20.134,-0.11,0.007,29.0
20.142,-0.106,-0.108,28.0
20.114,-0.102,0.441,30.0
20.124,-0.098,0.324,28.0
20.127,-0.094,0.207,25.0
20.126,-0.09,0.088,39.0
20.127,-0.086,-0.027,29.0
20.14,-0.082,-0.144,39.0
20.118,-0.078,0.405,33.0
20.126,-0.074,0.288,28.0
20.114,-0.07,0.171,28.0
20.13,-0.066,0.052,39.0
20.149,-0.062,-0.064,33.0
20.157,-0.058,-0.181,30.0
20.128,-0.054,0.368,32.0
20.113,-0.05,0.251,30.0
20.116,-0.046,0.134,31.0
20.129,-0.043,0.016,32.0
20.164,-0.039,-0.1,32.0
20.155,-0.036,-0.217,6.0
20.124,-0.032,0.332,33.0
20.116,-0.028,0.215,30.0
20.127,-0.024,0.098,33.0
20.13,-0.021,-0.02,14.0
20.178,-0.017,-0.137,15.0
20.217,-0.013,-0.255,7.0
20.13,-0.01,0.294,28.0
20.123,-0.006,0.177,28.0
20.185,-0.002,0.061,37.0
20.248,0.0,-0.058,151.0
20.255,0.004,-0.176,151.0
20.266,0.007,-0.294,150.0
20.132,0.011,0.257,28.0
20.132,0.014,0.14,28.0
20.264,0.018,0.023,151.0
20.26,0.021,-0.096,151.0
20.251,0.025,-0.214,151.0
20.269,0.029,-0.332,71.0
20.139,0.032,0.219,28.0
20.162,0.035,0.102,28.0
20.203,0.039,-0.015,12.0
20.221,0.042,-0.134,23.0
20.237,0.046,-0.252,0.0
20.212,0.049,-0.369,0.0
20.152,0.052,0.18,29.0
20.208,0.055,0.063,30.0
20.208,0.059,-0.053,31.0
20.208,0.062,-0.173,25.0
20.193,0.065,-0.29,0.0
38.801,0.132,-0.783,0.0
20.153,0.072,0.141,27.0
20.196,0.075,0.025,30.0
20.187,0.078,-0.092,27.0
20.177,0.081,-0.211,18.0
20.213,0.084,-0.329,1.0
0.0,0.0,0.0,0.0
20.196,0.09,0.103,34.0
20.185,0.093,-0.013,29.0
20.179,0.096,-0.131,32.0
20.188,0.1,-0.25,26.0
20.201,0.103,-0.368,7.0
0.0,0.0,0.0,0.0
20.188,0.108,0.063,37.0
20.185,0.111,-0.053,29.0
20.175,0.114,-0.17,27.0
20.196,0.117,-0.29,27.0
20.191,0.12,-0.408,9.0
32.854,0.201,-0.855,0.0
20.187,0.126,0.024,28.0
20.179,0.129,-0.093,31.0
20.175,0.131,-0.21,28.0
20.185,0.134,-0.33,29.0
20.202,0.137,-0.448,16.0
20.24,0.141,-0.567,0.0
20.217,0.143,-0.015,27.0
20.193,0.145,-0.133,29.0
20.181,0.148,-0.25,33.0
20.172,0.151,-0.369,27.0
20.197,0.154,-0.488,27.0
20.204,0.156,-0.606,8.0
20.229,0.159,-0.055,24.0
20.165,0.161,-0.172,17.0
20.17,0.164,-0.29,34.0
20.177,0.166,-0.41,32.0
20.191,0.169,-0.528,26.0
20.216,0.172,-0.647,17.0
20.223,0.174,-0.096,23.0
20.186,0.176,-0.213,22.0
20.178,0.179,-0.331,30.0
20.181,0.181,-0.451,25.0
20.208,0.184,-0.569,28.0
20.213,0.187,-0.687,20.0
20.206,0.188,-0.136,14.0
20.185,0.19,-0.254,27.0
20.184,0.193,-0.371,30.0
20.183,0.195,-0.491,29.0
20.204,0.198,-0.609,31.0
0.0,0.0,0.0,0.0
20.185,0.202,-0.177,14.0
20.19,0.204,-0.295,28.0
20.186,0.206,-0.412,28.0
20.176,0.209,-0.532,31.0
20.206,0.211,-0.65,32.0
20.218,0.214,-0.769,23.0
20.19,0.215,-0.218,19.0
20.182,0.217,-0.335,28.0
20.177,0.219,-0.453,20.0
20.189,0.221,-0.573,30.0
20.215,0.224,-0.691,32.0
20.227,0.226,-0.81,25.0
20.218,0.227,-0.259,24.0
20.188,0.229,-0.376,27.0
20.177,0.231,-0.494,24.0
20.194,0.233,-0.614,28.0
20.221,0.236,-0.732,29.0
0.0,0.0,0.0,0.0
20.207,0.238,-0.299,23.0
20.227,0.241,-0.418,24.0
20.201,0.242,-0.535,27.0
20.21,0.245,-0.655,22.0
20.224,0.247,-0.774,27.0
20.247,0.249,-0.893,14.0
20.197,0.249,-0.341,19.0
20.189,0.251,-0.458,17.0
20.204,0.253,-0.576,26.0
20.215,0.255,-0.696,22.0
20.205,0.257,-0.814,19.0
20.239,0.259,-0.934,2.0
20.193,0.259,-0.381,14.0
20.218,0.261,-0.499,22.0
20.216,0.263,-0.617,23.0
20.237,0.265,-0.738,22.0
20.159,0.266,-0.853,12.0
18.53,0.246,-0.893,3.0
20.234,0.268,-0.423,4.0
20.191,0.27,-0.54,14.0
20.214,0.272,-0.659,17.0
20.212,0.273,-0.779,19.0
20.271,0.276,-0.9,13.0
18.483,0.253,-0.929,2.0
20.21,0.276,-0.464,2.0
20.219,0.278,-0.583,9.0
20.226,0.28,-0.701,8.0
20.184,0.281,-0.819,10.0
20.193,0.283,-0.938,1.0
17.816,0.251,-0.932,0.0
20.199,0.284,-0.505,1.0
20.225,0.286,-0.624,3.0
20.236,0.287,-0.742,3.0
20.143,0.287,-0.859,9.0
18.647,0.268,-0.904,0.0
17.004,0.245,-0.924,0.0
31.644,0.455,-0.856,1.0
20.194,0.292,-0.664,0.0
20.223,0.294,-0.783,1.0
20.266,0.296,-0.905,11.0
18.308,0.268,-0.925,0.0
16.544,0.244,-0.932,0.0
29.637,0.435,-0.862,0.0
25.276,0.373,-0.882,0.0
20.17,0.299,-0.822,5.0
20.086,0.299,-0.938,0.0
17.735,0.265,-0.932,0.0
16.128,0.242,-0.941,0.0
28.11,0.42,-0.874,0.0
24.182,0.363,-0.893,0.0
20.147,0.303,-0.862,8.0
18.742,0.283,-0.913,0.0
16.943,0.257,-0.924,0.0
15.515,0.236,-0.937,0.0
26.379,0.4,-0.874,0.0
23.008,0.35,-0.896,0.0
20.285,0.31,-0.909,9.0
18.207,0.279,-0.924,0.0
16.49,0.253,-0.933,0.0
15.052,0.232,-0.94,0.0
25.154,0.386,-0.884,0.0
20.143,0.31,-0.825,5.0
20.023,0.309,-0.937,0.0
17.743,0.275,-0.936,0.0
16.033,0.249,-0.94,0.0
14.625,0.228,-0.943,0.0
23.932,0.371,-0.889,0.0
20.18,0.313,-0.867,10.0
18.796,0.292,-0.918,0.0
16.861,0.263,-0.923,0.0
15.457,0.242,-0.937,0.0
14.308,0.224,-0.951,0.0
22.86,0.356,-0.895,0.0
20.293,0.317,-0.913,7.0
18.177,0.284,-0.924,0.0
16.433,0.258,-0.933,0.0
15.007,0.236,-0.939,0.0
13.856,0.218,-0.949,0.0
20.137,0.315,-0.828,6.0
19.98,0.313,-0.938,0.0
17.441,0.274,-0.921,0.0
15.93,0.251,-0.936,0.0
14.614,0.23,-0.944,0.0
13.387,0.211,-0.943,0.0
20.213,0.317,-0.871,11.0
18.689,0.293,-0.914,0.0
16.813,0.264,-0.921,0.0
15.401,0.242,-0.935,0.0
14.234,0.224,-0.948,0.0
13.078,0.206,-0.947,0.0
20.286,0.318,-0.914,6.0
18.069,0.283,-0.92,0.0
16.424,0.258,-0.932,0.0
14.963,0.235,-0.938,0.0
13.748,0.216,-0.942,0.0
12.744,0.201,-0.948,0.0
20.005,0.312,-0.941,0.0
17.399,0.272,-0.92,0.0
15.9,0.248,-0.933,0.0
14.569,0.228,-0.942,0.0
13.411,0.21,-0.946,0.0
12.433,0.195,-0.949,0.0
18.622,0.289,-0.912,0.0
16.851,0.262,-0.924,0.0
15.397,0.239,-0.934,0.0
14.178,0.22,-0.944,0.0
13.093,0.204,-0.948,0.0
12.085,0.188,-0.946,0.0
18.05,0.278,-0.919,0.0
16.409,0.253,-0.931,0.0
14.97,0.23,-0.937,0.0
13.936,0.215,-0.955,0.0
12.733,0.196,-0.947,0.0
11.776,0.181,-0.945,0.0
17.468,0.266,-0.922,0.0
15.932,0.243,-0.934,0.0
14.586,0.222,-0.94,0.0
13.346,0.203,-0.94,0.0
12.435,0.189,-0.948,0.0
11.47,0.174,-0.942,0.0
16.872,0.254,-0.923,0.0
15.406,0.231,-0.932,0.0
14.237,0.214,-0.945,0.0
13.104,0.197,-0.948,0.0
12.094,0.181,-0.945,0.0
11.249,0.169,-0.945,0.0
16.421,0.243,-0.929,0.0
14.972,0.221,-0.934,0.0
0.0,0.0,0.0,0.0
12.72,0.188,-0.944,0.0
11.795,0.174,-0.944,0.0
11.024,0.162,-0.947,0.0
15.994,0.232,-0.934,0.0
14.602,0.212,-0.938,0.0
13.415,0.194,-0.94,0.0
12.453,0.18,-0.947,0.0
11.511,0.166,-0.943,0.0
10.778,0.155,-0.946,0.0
15.456,0.22,-0.931,0.0
14.356,0.204,-0.949,0.0
13.11,0.186,-0.943,0.0
12.145,0.172,-0.946,0.0
11.286,0.159,-0.945,0.0
10.565,0.149,-0.946,0.0
15.078,0.209,-0.936,0.0
14.007,0.194,-0.951,0.0
12.827,0.177,-0.946,0.0
11.835,0.163,-0.943,0.0
11.082,0.152,-0.948,0.0
10.371,0.142,-0.948,0.0
14.694,0.198,-0.938,0.0
13.476,0.181,-0.939,0.0
12.535,0.168,-0.946,0.0
11.537,0.154,-0.94,0.0
10.912,0.146,-0.953,0.0
10.178,0.136,-0.948,0.0
14.349,0.188,-0.941,0.0
13.265,0.173,-0.947,0.0
12.212,0.159,-0.944,0.0
11.328,0.147,-0.943,0.0
10.608,0.137,-0.945,0.0
9.972,0.128,-0.947,0.0
20.202,0.256,-1.361,0.0
12.919,0.163,-0.945,0.0
11.934,0.15,-0.943,0.0
11.115,0.139,-0.944,0.0
10.388,0.129,-0.943,0.0
9.803,0.122,-0.948,0.0
20.231,0.246,-1.398,0.0
12.586,0.152,-0.943,0.0
11.612,0.14,-0.937,0.0
0.0,0.0,0.0,0.0
10.227,0.122,-0.946,0.0
9.578,0.114,-0.942,0.0
13.357,0.156,-0.945,0.0
12.289,0.142,-0.941,0.0
11.425,0.132,-0.942,0.0
10.677,0.123,-0.943,0.0
10.019,0.114,-0.944,0.0
9.467,0.108,-0.947,0.0
13.0,0.144,-0.942,0.0
12.092,0.134,-0.946,0.0
11.226,0.123,-0.944,0.0
10.509,0.115,-0.946,0.0
9.86,0.107,-0.945,0.0
9.261,0.1,-0.942,0.0
12.735,0.134,-0.943,0.0
11.797,0.124,-0.942,0.0
11.007,0.115,-0.943,0.0
10.307,0.107,-0.945,0.0
9.697,0.1,-0.945,0.0
9.119,0.093,-0.942,0.0
12.495,0.124,-0.945,0.0
11.52,0.114,-0.938,0.0
10.709,0.105,-0.935,0.0
10.102,0.098,-0.942,0.0
9.532,0.092,-0.944,0.0
8.957,0.086,-0.94,0.0
12.206,0.114,-0.942,0.0
11.331,0.105,-0.941,0.0
10.599,0.097,-0.942,0.0
9.957,0.09,-0.944,0.0
9.329,0.084,-0.939,0.0
8.815,0.079,-0.939,0.0
11.983,0.104,-0.944,0.0
11.162,0.096,-0.944,0.0
10.429,0.088,-0.943,0.0
9.803,0.082,-0.944,0.0
9.239,0.077,-0.944,0.0
8.716,0.072,-0.942,0.0
11.544,0.092,-0.927,0.0
20.205,0.159,-1.74,0.0
10.273,0.08,-0.944,0.0
9.651,0.074,-0.945,0.0
9.091,0.069,-0.943,0.0
8.595,0.064,-0.942,0.0
11.465,0.083,-0.938,0.0
10.737,0.076,-0.941,0.0
10.074,0.071,-0.941,0.0
9.497,0.066,-0.944,0.0
8.954,0.061,-0.942,0.0
8.457,0.057,-0.939,0.0
11.376,0.074,-0.947,0.0
10.507,0.067,-0.936,0.0
9.919,0.062,-0.941,0.0
9.354,0.058,-0.943,0.0
8.805,0.053,-0.939,0.0
8.375,0.05,-0.942,0.0
11.181,0.063,-0.947,0.0
10.419,0.058,-0.943,0.0
9.784,0.054,-0.942,0.0
9.235,0.05,-0.944,0.0
8.69,0.046,-0.939,0.0
8.261,0.043,-0.941,0.0
20.293,0.099,-1.747,0.0
10.299,0.049,-0.946,0.0
9.654,0.045,-0.943,0.0
9.12,0.042,-0.945,0.0
8.615,0.038,-0.943,0.0
8.151,0.035,-0.94,0.0
10.754,0.044,-0.94,0.0
10.102,0.04,-0.942,0.0
9.522,0.036,-0.943,0.0
8.952,0.033,-0.939,0.0
8.486,0.031,-0.94,0.0
8.077,0.028,-0.942,0.0
10.607,0.034,-0.941,0.0
9.966,0.031,-0.942,0.0
9.364,0.028,-0.939,0.0
8.848,0.025,-0.94,0.0
8.366,0.023,-0.938,0.0
7.977,0.021,-0.941,0.0
10.496,0.024,-0.944,0.0
9.844,0.022,-0.943,0.0
9.285,0.019,-0.943,0.0
8.737,0.017,-0.939,0.0
8.305,0.015,-0.941,0.0
7.896,0.014,-0.941,0.0
10.34,0.015,-0.943,0.0
9.687,0.013,-0.94,0.0
9.167,0.011,-0.943,0.0
8.617,0.009,-0.937,0.0
8.221,0.008,-0.942,0.0
7.836,0.006,-0.943,0.0
10.21,0.005,-0.944,0.0
9.583,0.004,-0.941,0.0
9.02,0.002,-0.938,0.0
8.507,0.001,-0.935,0.0
8.163,0.0,-0.945,0.0
7.742,0.0,-0.941,0.0
10.087,-0.003,-0.944,0.0
9.457,-0.004,-0.94,0.0
8.893,-0.005,-0.935,0.0
8.469,-0.006,-0.941,0.0
8.036,-0.007,-0.939,0.0
7.667,-0.008,-0.941,0.0
9.932,-0.013,-0.941,0.0
9.366,-0.013,-0.941,0.0
8.808,-0.014,-0.936,0.0
8.347,-0.014,-0.937,0.0
7.986,-0.015,-0.943,0.0
7.606,-0.015,-0.942,0.0
9.853,-0.023,-0.944,0.0
9.242,-0.022,-0.939,0.0
8.729,-0.022,-0.937,0.0
8.264,-0.022,-0.936,0.0
7.903,-0.023,-0.941,0.0
7.557,-0.023,-0.944,0.0
9.72,-0.032,-0.942,0.0
9.133,-0.031,-0.938,0.0
8.649,-0.031,-0.938,0.0
8.202,-0.031,-0.938,0.0
7.826,-0.03,-0.94,0.0
7.483,-0.03,-0.943,0.0
9.615,-0.042,-0.941,0.0
9.073,-0.041,-0.94,0.0
8.56,-0.04,-0.937,0.0
8.143,-0.039,-0.939,0.0
7.782,-0.038,-0.943,0.0
7.43,-0.038,-0.943,0.0
9.534,-0.051,-0.942,0.0
8.996,-0.05,-0.941,0.0
8.498,-0.048,-0.938,0.0
8.117,-0.047,-0.944,0.0
7.733,-0.046,-0.944,0.0
7.401,-0.045,-0.947,0.0
9.417,-0.06,-0.94,0.0
8.877,-0.058,-0.937,0.0
8.428,-0.057,-0.938,0.0
8.001,-0.055,-0.938,0.0
7.65,-0.054,-0.941,0.0
7.34,-0.053,-0.945,0.0
9.347,-0.07,-0.941,0.0
8.797,-0.067,-0.936,0.0
8.369,-0.065,-0.939,0.0
7.945,-0.063,-0.938,0.0
7.595,-0.062,-0.941,0.0
7.292,-0.06,-0.945,0.0
9.26,-0.079,-0.94,0.0
8.738,-0.076,-0.937,0.0
8.276,-0.074,-0.935,0.0
7.892,-0.071,-0.938,0.0
7.551,-0.07,-0.941,0.0
7.245,-0.068,-0.945,0.0
9.197,-0.089,-0.941,0.0
8.673,-0.085,-0.937,0.0
8.225,-0.082,-0.936,0.0
7.834,-0.08,-0.938,0.0
7.537,-0.078,-0.946,0.0
7.185,-0.076,-0.943,0.0
9.068,-0.098,-0.935,0.0
8.612,-0.094,-0.937,0.0
8.202,-0.091,-0.94,0.0
7.818,-0.088,-0.941,0.0
7.428,-0.085,-0.937,0.0
7.174,-0.084,-0.947,0.0
9.045,-0.107,-0.939,0.0
8.538,-0.103,-0.935,0.0
8.136,-0.099,-0.938,0.0
7.746,-0.096,-0.938,0.0
7.444,-0.094,-0.944,0.0
7.127,-0.091,-0.945,0.0
8.976,-0.117,-0.937,0.0
8.513,-0.112,-0.938,0.0
8.127,-0.109,-0.942,0.0
7.676,-0.104,-0.934,0.0
7.431,-0.102,-0.948,0.0
7.126,-0.099,-0.95,0.0
8.913,-0.126,-0.936,0.0
8.454,-0.121,-0.936,0.0
8.039,-0.117,-0.937,0.0
7.685,-0.113,-0.94,0.0
7.31,-0.109,-0.936,0.0
7.081,-0.107,-0.948,0.0
8.882,-0.136,-0.938,0.0
8.399,-0.13,-0.935,0.0
7.994,-0.125,-0.936,0.0
7.663,-0.121,-0.942,0.0
7.371,-0.118,-0.948,0.0
7.055,-0.114,-0.948,0.0
8.833,-0.145,-0.938,0.0
8.379,-0.139,-0.937,0.0
7.961,-0.134,-0.936,0.0
7.585,-0.129,-0.936,0.0
7.332,-0.126,-0.947,0.0
7.001,-0.122,-0.945,0.0
8.779,-0.154,-0.936,0.0
8.324,-0.148,-0.935,0.0
7.974,-0.143,-0.941,0.0
7.586,-0.138,-0.94,0.0
7.293,-0.134,-0.945,0.0
7.011,-0.13,-0.949,0.0
8.752,-0.164,-0.937,0.0
8.331,-0.158,-0.939,0.0
7.937,-0.152,-0.94,0.0
7.556,-0.146,-0.939,0.0
7.274,-0.142,-0.946,0.0
6.974,-0.138,-0.947,0.0
8.712,-0.174,-0.936,0.0
8.279,-0.167,-0.937,0.0
7.873,-0.16,-0.936,0.0
7.53,-0.155,-0.939,0.0
7.288,-0.151,-0.95,0.0
6.994,-0.146,-0.952,0.0
8.694,-0.183,-0.937,0.0
8.253,-0.176,-0.937,0.0
7.843,-0.169,-0.935,0.0
7.544,-0.164,-0.943,0.0
7.213,-0.158,-0.943,0.0
7.0,-0.155,-0.955,0.0
8.677,-0.193,-0.938,0.0
8.212,-0.184,-0.935,0.0
7.857,-0.178,-0.939,0.0
7.517,-0.172,-0.942,0.0
7.247,-0.167,-0.949,0.0
6.93,-0.161,-0.948,0.0
8.657,-0.203,-0.938,0.0
8.199,-0.194,-0.935,0.0
7.863,-0.187,-0.941,0.0
7.505,-0.18,-0.942,0.0
7.181,-0.174,-0.942,0.0
6.904,-0.169,-0.945,0.0
8.636,-0.213,-0.938,0.0
8.229,-0.204,-0.94,0.0
7.821,-0.196,-0.938,0.0
7.479,-0.189,-0.94,0.0
7.193,-0.183,-0.945,0.0
6.899,-0.177,-0.946,0.0
8.625,-0.222,-0.938,0.0
8.196,-0.213,-0.938,0.0
7.826,-0.205,-0.94,0.0
7.465,-0.197,-0.939,0.0
7.162,-0.191,-0.942,0.0
6.91,-0.185,-0.948,0.0
8.609,-0.232,-0.937,0.0
8.181,-0.222,-0.937,0.0
7.799,-0.213,-0.937,0.0
7.451,-0.205,-0.938,0.0
7.183,-0.199,-0.945,0.0
6.907,-0.193,-0.949,0.0
8.611,-0.242,-0.938,0.0
8.178,-0.232,-0.937,0.0
7.813,-0.223,-0.939,0.0
7.468,-0.215,-0.941,0.0
7.198,-0.208,-0.948,0.0
6.893,-0.201,-0.947,0.0
8.576,-0.251,-0.935,0.0
8.177,-0.241,-0.937,0.0
7.805,-0.232,-0.938,0.0
7.459,-0.223,-0.94,0.0
7.231,-0.218,-0.952,0.0
6.888,-0.209,-0.946,0.0
8.609,-0.262,-0.938,0.0
8.194,-0.251,-0.939,0.0
7.802,-0.241,-0.938,0.0
7.487,-0.232,-0.943,0.0
7.212,-0.226,-0.949,0.0
6.953,-0.219,-0.955,0.0
8.634,-0.273,-0.94,0.0
8.173,-0.26,-0.936,0.0
7.814,-0.25,-0.939,0.0
7.459,-0.24,-0.939,0.0
7.203,-0.234,-0.947,0.0
6.919,-0.226,-0.949,0.0
8.619,-0.282,-0.938,0.0
8.21,-0.27,-0.939,0.0
7.818,-0.259,-0.938,0.0
7.487,-0.25,-0.941,0.0
7.238,-0.243,-0.951,0.0
6.956,-0.235,-0.953,0.0
8.637,-0.292,-0.938,0.0
8.22,-0.28,-0.939,0.0
7.819,-0.268,-0.937,0.0
7.496,-0.259,-0.941,0.0
7.221,-0.251,-0.947,0.0
6.929,-0.242,-0.948,0.0
8.662,-0.303,-0.939,0.0
8.222,-0.289,-0.937,0.0
7.858,-0.278,-0.94,0.0
7.517,-0.268,-0.942,0.0
7.235,-0.259,-0.947,0.0
6.949,-0.25,-0.949,0.0
8.69,-0.314,-0.94,0.0
8.245,-0.299,-0.938,0.0
7.873,-0.287,-0.94,0.0
7.522,-0.276,-0.941,0.0
7.23,-0.267,-0.945,0.0
6.954,-0.258,-0.948,0.0
8.723,-0.324,-0.941,0.0
8.259,-0.309,-0.937,0.0
7.912,-0.297,-0.942,0.0
7.558,-0.286,-0.943,0.0
7.238,-0.275,-0.943,0.0
6.982,-0.267,-0.949,0.0
8.738,-0.334,-0.94,0.0
8.304,-0.319,-0.939,0.0
7.931,-0.307,-0.941,0.0
7.569,-0.294,-0.941,0.0
7.246,-0.283,-0.942,0.0
6.994,-0.275,-0.948,0.0
8.766,-0.345,-0.939,0.0
8.3,-0.328,-0.936,0.0
7.941,-0.315,-0.939,0.0
7.565,-0.302,-0.938,0.0
7.295,-0.293,-0.945,0.0
7.012,-0.283,-0.948,0.0
8.814,-0.356,-0.941,0.0
8.376,-0.34,-0.941,0.0
7.943,-0.324,-0.936,0.0
7.651,-0.314,-0.945,0.0
7.336,-0.302,-0.947,0.0
7.034,-0.291,-0.947,0.0
8.876,-0.367,-0.943,0.0
8.418,-0.35,-0.941,0.0
7.994,-0.334,-0.938,0.0
7.67,-0.322,-0.944,0.0
7.324,-0.309,-0.942,0.0
7.079,-0.3,-0.95,0.0
8.915,-0.378,-0.943,0.0
8.444,-0.36,-0.94,0.0
8.022,-0.343,-0.937,0.0
7.691,-0.331,-0.942,0.0
7.364,-0.318,-0.943,0.0
7.107,-0.309,-0.95,0.0
8.96,-0.389,-0.943,0.0
8.491,-0.37,-0.94,0.0
8.07,-0.354,-0.938,0.0
7.718,-0.34,-0.941,0.0
7.421,-0.328,-0.946,0.0
7.104,-0.316,-0.945,0.0
9.036,-0.401,-0.945,0.0
8.55,-0.381,-0.942,0.0
8.114,-0.363,-0.938,0.0
7.756,-0.349,-0.941,0.0
7.446,-0.337,-0.944,0.0
7.169,-0.326,-0.949,0.0
9.103,-0.413,-0.947,0.0
8.631,-0.393,-0.945,0.0
8.16,-0.373,-0.938,0.0
7.813,-0.359,-0.943,0.0
7.487,-0.346,-0.945,0.0
7.186,-0.333,-0.946,0.0
9.169,-0.424,-0.947,0.0
8.661,-0.403,-0.942,0.0
8.226,-0.384,-0.94,0.0
7.85,-0.368,-0.942,0.0
7.531,-0.355,-0.945,0.0
7.232,-0.342,-0.947,0.0
9.255,-0.437,-0.95,0.0
8.731,-0.414,-0.944,0.0
8.277,-0.394,-0.94,0.0
7.892,-0.377,-0.941,0.0
7.572,-0.363,-0.944,0.0
7.266,-0.35,-0.946,0.0
9.297,-0.447,-0.947,0.0
8.805,-0.425,-0.945,0.0
8.312,-0.403,-0.938,0.0
7.967,-0.388,-0.943,0.0
7.601,-0.371,-0.942,0.0
7.31,-0.359,-0.946,0.0
9.407,-0.461,-0.95,0.0
8.883,-0.437,-0.946,0.0
8.397,-0.415,-0.94,0.0
8.0,-0.396,-0.941,0.0
7.686,-0.382,-0.946,0.0
7.363,-0.368,-0.947,0.0
9.485,-0.473,-0.95,0.0
8.961,-0.448,-0.947,0.0
8.502,-0.427,-0.945,0.0
8.054,-0.406,-0.94,0.0
7.747,-0.392,-0.947,0.0
7.405,-0.376,-0.946,0.0
9.6,-0.486,-0.953,0.0
9.039,-0.46,-0.947,0.0
8.532,-0.435,-0.94,0.0
8.12,-0.416,-0.94,0.0
7.792,-0.4,-0.945,0.0
7.454,-0.384,-0.945,0.0
9.674,-0.498,-0.952,0.0
9.152,-0.472,-0.95,0.0
8.642,-0.448,-0.945,0.0
8.212,-0.427,-0.943,0.0
7.829,-0.408,-0.942,0.0
7.506,-0.393,-0.944,0.0
9.758,-0.509,-0.951,0.0
9.259,-0.485,-0.953,0.0
8.745,-0.46,-0.947,0.0
8.297,-0.438,-0.945,0.0
7.899,-0.418,-0.943,0.0
7.564,-0.401,-0.944,0.0
9.894,-0.524,-0.955,0.0
9.341,-0.496,-0.952,0.0
8.808,-0.469,-0.946,0.0
8.341,-0.446,-0.942,0.0
7.968,-0.427,-0.943,0.0
7.66,-0.412,-0.948,0.0
9.966,-0.535,-0.952,0.0
9.428,-0.507,-0.951,0.0
8.924,-0.482,-0.949,0.0
8.44,-0.457,-0.944,0.0
8.037,-0.436,-0.943,0.0
7.737,-0.421,-0.95,0.0
10.134,-0.551,-0.957,0.0
9.56,-0.521,-0.954,0.0
9.016,-0.493,-0.949,0.0
8.537,-0.468,-0.946,0.0
8.1,-0.445,-0.941,0.0
7.785,-0.429,-0.947,0.0
10.229,-0.562,-0.955,0.0
9.669,-0.533,-0.955,0.0
9.123,-0.504,-0.95,0.0
8.635,-0.479,-0.947,0.0
8.209,-0.456,-0.945,0.0
7.86,-0.438,-0.947,0.0
10.38,-0.577,-0.957,0.0
9.79,-0.546,-0.955,0.0
9.229,-0.516,-0.951,0.0
8.734,-0.489,-0.948,0.0
8.285,-0.465,-0.944,0.0
7.913,-0.446,-0.944,0.0
10.487,-0.589,-0.955,0.0
9.921,-0.559,-0.957,0.0
9.373,-0.529,-0.954,0.0
8.835,-0.5,-0.948,0.0
8.377,-0.475,-0.944,0.0
7.992,-0.455,-0.944,0.0
10.609,-0.602,-0.953,0.0
10.046,-0.571,-0.957,0.0
9.502,-0.542,-0.956,0.0
8.945,-0.511,-0.949,0.0
8.466,-0.485,-0.944,0.0
8.072,-0.464,-0.944,0.0
10.78,-0.617,-0.956,0.0
10.142,-0.582,-0.954,0.0
9.592,-0.552,-0.954,0.0
9.085,-0.524,-0.953,0.0
8.572,-0.495,-0.945,0.0
8.175,-0.473,-0.946,0.0
10.996,-0.635,-0.961,0.0
10.34,-0.598,-0.959,0.0
9.763,-0.566,-0.958,0.0
9.192,-0.534,-0.952,0.0
8.724,-0.508,-0.951,0.0
8.263,-0.482,-0.945,0.0
11.127,-0.647,-0.959,0.0
10.467,-0.61,-0.958,0.0
9.904,-0.579,-0.959,0.0
9.32,-0.546,-0.954,0.0
8.815,-0.517,-0.949,0.0
8.355,-0.491,-0.945,0.0
11.259,-0.66,-0.955,0.0
10.598,-0.622,-0.956,0.0
10.026,-0.59,-0.958,0.0
9.486,-0.559,-0.958,0.0
8.944,-0.528,-0.951,0.0
8.497,-0.503,-0.949,0.0
11.487,-0.678,-0.959,0.0
10.827,-0.64,-0.962,0.0
10.146,-0.601,-0.956,0.0
9.617,-0.57,-0.958,0.0
9.106,-0.541,-0.956,0.0
8.603,-0.512,-0.95,0.0
11.717,-0.695,-0.963,0.0
10.99,-0.653,-0.961,0.0
10.317,-0.614,-0.958,0.0
9.749,-0.581,-0.958,0.0
9.222,-0.551,-0.956,0.0
8.719,-0.522,-0.95,0.0
11.92,-0.711,-0.963,0.0
11.122,-0.665,-0.957,0.0
10.482,-0.627,-0.958,0.0
9.905,-0.593,-0.959,0.0
9.357,-0.562,-0.956,0.0
8.87,-0.533,-0.954,0.0
12.214,-0.732,-0.969,0.0
11.346,-0.681,-0.961,0.0
10.626,-0.639,-0.956,0.0
10.045,-0.604,-0.958,0.0
9.534,-0.574,-0.961,0.0
8.996,-0.543,-0.954,0.0
12.432,-0.748,-0.969,0.0
11.578,-0.697,-0.964,0.0
10.795,-0.651,-0.956,0.0
10.216,-0.617,-0.96,0.0
9.667,-0.585,-0.96,0.0
9.151,-0.554,-0.957,0.0
12.62,-0.762,-0.965,0.0
11.769,-0.711,-0.962,0.0
11.044,-0.668,-0.962,0.0
10.376,-0.628,-0.96,0.0
9.846,-0.597,-0.963,0.0
9.282,-0.563,-0.957,0.0
12.904,-0.781,-0.968,0.0
12.02,-0.728,-0.965,0.0
11.185,-0.678,-0.957,0.0
10.5,-0.637,-0.955,0.0
9.942,-0.604,-0.957,0.0
9.449,-0.575,-0.96,0.0
13.136,-0.796,-0.965,0.0
12.329,-0.748,-0.971,0.0
11.464,-0.696,-0.964,0.0
10.677,-0.649,-0.955,0.0
10.153,-0.618,-0.962,0.0
9.602,-0.585,-0.961,0.0
24.539,-1.49,-1.766,0.0
12.52,-0.761,-0.967,0.0
11.709,-0.712,-0.966,0.0
10.918,-0.664,-0.96,0.0
10.3,-0.627,-0.96,0.0
9.727,-0.593,-0.959,0.0
13.747,-0.835,-0.969,0.0
12.76,-0.776,-0.966,0.0
11.928,-0.725,-0.966,0.0
11.083,-0.675,-0.958,0.0
10.511,-0.64,-0.964,0.0
9.891,-0.603,-0.959,0.0
14.015,-0.851,-0.966,0.0
13.034,-0.792,-0.967,0.0
12.249,-0.745,-0.973,0.0
11.384,-0.693,-0.966,0.0
10.642,-0.648,-0.959,0.0
10.092,-0.615,-0.963,0.0
14.67,-0.891,-0.988,0.0
24.471,-1.486,-1.777,0.0
12.514,-0.76,-0.974,0.0
11.564,-0.703,-0.962,0.0
10.912,-0.663,-0.966,0.0
10.258,-0.624,-0.962,0.0
14.822,-0.899,-0.975,1.0
13.633,-0.827,-0.968,0.0
12.668,-0.768,-0.966,0.0
11.79,-0.715,-0.963,0.0
11.078,-0.672,-0.963,0.0
10.46,-0.635,-0.964,0.0
14.846,-0.898,-0.952,1.0
13.97,-0.845,-0.97,0.0
12.951,-0.784,-0.967,0.0
12.071,-0.73,-0.966,0.0
11.322,-0.685,-0.966,0.0
10.578,-0.64,-0.958,0.0
14.847,-0.896,-0.929,1.0
14.598,-0.881,-0.99,0.0
24.489,-1.478,-1.789,0.0
12.415,-0.749,-0.974,0.0
11.523,-0.695,-0.964,0.0
10.807,-0.652,-0.961,0.0
14.877,-0.895,-0.906,1.0
14.817,-0.891,-0.98,1.0
13.631,-0.819,-0.973,0.0
12.614,-0.758,-0.968,0.0
11.759,-0.707,-0.965,0.0
11.021,-0.662,-0.962,0.0
14.857,-0.89,-0.881,1.0
14.879,-0.891,-0.96,1.0
13.885,-0.831,-0.969,0.0
12.905,-0.772,-0.969,0.0
12.151,-0.727,-0.977,0.0
11.235,-0.672,-0.962,0.0
14.933,-0.89,-0.861,1.0
14.891,-0.887,-0.936,1.0
14.449,-0.86,-0.984,0.0
24.501,-1.458,-1.8,0.0
12.393,-0.737,-0.975,0.0
11.507,-0.684,-0.966,0.0
15.267,-0.905,-0.855,0.0
14.891,-0.882,-0.912,1.0
14.835,-0.878,-0.986,0.0
13.576,-0.803,-0.975,0.0
12.623,-0.746,-0.973,0.0
11.74,-0.694,-0.966,0.0
15.481,-0.912,-0.841,1.0
14.909,-0.877,-0.888,1.0
14.888,-0.876,-0.964,1.0
13.805,-0.811,-0.968,0.0
12.935,-0.76,-0.975,0.0
12.056,-0.707,-0.972,0.0
15.759,-0.922,-0.83,0.0
14.966,-0.874,-0.866,1.0
14.929,-0.871,-0.942,1.0
14.141,-0.825,-0.968,0.0
13.135,-0.765,-0.968,0.0
12.355,-0.719,-0.975,0.0
16.194,-0.94,-0.825,1.0
15.219,-0.882,-0.855,0.0
14.94,-0.865,-0.917,1.0
14.828,-0.858,-0.99,0.0
24.536,-1.418,-1.767,0.0
12.589,-0.727,-0.972,0.0
16.373,-0.942,-0.807,1.0
15.488,-0.89,-0.844,1.0
14.961,-0.858,-0.893,1.0
14.898,-0.854,-0.969,2.0
13.788,-0.789,-0.969,0.0
12.85,-0.735,-0.97,0.0
16.916,-0.964,-0.805,0.0
15.739,-0.896,-0.831,1.0
15.0,-0.852,-0.87,1.0
14.974,-0.85,-0.948,1.0
14.492,-0.821,-0.994,0.0
13.109,-0.742,-0.968,0.0
17.493,-0.987,-0.803,0.0
16.106,-0.907,-0.823,0.0
15.205,-0.855,-0.856,0.0
15.0,-0.842,-0.925,1.0
14.832,-0.831,-0.992,0.0
24.642,-1.38,-1.777,0.0
18.209,-1.016,-0.805,0.0
16.521,-0.92,-0.816,1.0
15.52,-0.863,-0.848,0.0
15.029,-0.834,-0.901,1.0
14.892,-0.825,-0.971,4.0
13.761,-0.761,-0.969,0.0
18.701,-1.031,-0.795,0.0
16.932,-0.931,-0.808,0.0
15.771,-0.866,-0.835,1.0
15.076,-0.826,-0.878,1.0
15.049,-0.823,-0.955,1.0
14.332,-0.782,-0.985,0.0
19.39,-1.055,-0.792,0.0
17.439,-0.947,-0.803,0.0
16.099,-0.872,-0.825,0.0
15.238,-0.824,-0.862,0.0
15.109,-0.815,-0.934,1.0
14.718,-0.792,-0.986,0.0
20.274,-1.088,-0.793,1.0
18.119,-0.97,-0.803,0.0
16.49,-0.881,-0.817,1.0
15.502,-0.826,-0.851,0.0
15.152,-0.806,-0.911,1.0
14.911,-0.791,-0.974,1.0
20.893,-1.105,-0.782,2.0
18.778,-0.99,-0.801,0.0
16.871,-0.888,-0.808,1.0
15.806,-0.83,-0.841,0.0
15.183,-0.795,-0.887,1.0
15.169,-0.792,-0.965,0.0
21.718,-1.13,-0.777,1.0
19.435,-1.009,-0.797,1.0
17.494,-0.906,-0.808,0.0
16.097,-0.831,-0.829,0.0
15.272,-0.787,-0.866,1.0
15.231,-0.782,-0.944,1.0
22.735,-1.164,-0.775,2.0
20.007,-1.021,-0.786,0.0
18.145,-0.923,-0.808,0.0
16.48,-0.836,-0.821,1.0
15.459,-0.782,-0.851,0.0
15.28,-0.771,-0.921,1.0
23.692,-1.191,-0.768,9.0
20.935,-1.049,-0.788,0.0
18.639,-0.931,-0.799,0.0
16.822,-0.838,-0.81,1.0
15.856,-0.787,-0.846,0.0
15.311,-0.758,-0.897,1.0
23.897,-1.179,-0.735,15.0
21.807,-1.072,-0.785,2.0
19.418,-0.952,-0.8,0.0
17.437,-0.852,-0.811,0.0
16.12,-0.785,-0.834,1.0
15.391,-0.747,-0.876,1.0
24.315,-1.175,-0.708,14.0
22.543,-1.086,-0.774,1.0
20.045,-0.962,-0.792,0.0
18.124,-0.867,-0.813,0.0
16.343,-0.779,-0.818,1.0
15.499,-0.736,-0.857,1.0
24.623,-1.165,-0.676,3.0
23.69,-1.117,-0.774,8.0
20.897,-0.981,-0.792,1.0
18.631,-0.872,-0.805,0.0
16.849,-0.785,-0.816,0.0
15.836,-0.735,-0.85,0.0
28.381,-1.313,-0.734,4.0
23.886,-1.1,-0.742,16.0
21.73,-0.997,-0.788,1.0
19.392,-0.886,-0.806,0.0
17.501,-0.796,-0.819,1.0
16.16,-0.732,-0.841,1.0
30.014,-1.355,-0.727,8.0
24.312,-1.093,-0.715,12.0
22.471,-1.006,-0.778,3.0
19.988,-0.891,-0.798,0.0
17.986,-0.798,-0.813,1.0
16.32,-0.721,-0.823,2.0
28.475,-1.253,-0.644,57.0
24.944,-1.093,-0.694,3.0
23.609,-1.03,-0.78,8.0
20.656,-0.897,-0.792,0.0
18.532,-0.801,-0.807,0.0
16.821,-0.724,-0.821,1.0
28.446,-1.218,-0.597,85.0
28.406,-1.21,-0.744,36.0
23.873,-1.013,-0.75,18.0
21.561,-0.91,-0.792,1.0
19.289,-0.81,-0.809,0.0
17.308,-0.723,-0.817,0.0
28.459,-1.184,-0.552,123.0
28.463,-1.178,-0.701,138.0
24.393,-1.005,-0.728,15.0
22.27,-0.912,-0.783,1.0
19.989,-0.815,-0.807,0.0
17.92,-0.726,-0.818,1.0
28.452,-1.148,-0.507,79.0
28.452,-1.142,-0.656,61.0
25.04,-0.999,-0.708,3.0
23.562,-0.935,-0.791,5.0
20.582,-0.812,-0.799,2.0
18.461,-0.724,-0.813,1.0
28.486,-1.112,-0.463,58.0
30.597,-1.188,-0.657,15.0
28.466,-1.099,-0.76,8.0
23.799,-0.913,-0.762,16.0
21.485,-0.819,-0.801,1.0
19.066,-0.723,-0.81,0.0
31.313,-1.181,-0.461,42.0
30.835,-1.156,-0.615,27.0
30.228,-1.126,-0.761,3.0
24.308,-0.9,-0.742,21.0
22.102,-0.813,-0.79,2.0
19.766,-0.723,-0.81,0.0
44.922,-1.634,-0.593,5.0
31.205,-1.128,-0.575,27.0
30.462,-1.094,-0.721,22.0
25.261,-0.901,-0.732,6.0
23.231,-0.823,-0.795,5.0
20.363,-0.717,-0.804,0.0
45.132,-1.579,-0.528,19.0
37.982,-1.319,-0.643,9.0
30.566,-1.054,-0.677,29.0
27.714,-0.949,-0.762,1.0
23.751,-0.808,-0.778,13.0
21.027,-0.71,-0.799,0.0
38.719,-1.3,-0.396,29.0
38.162,-1.271,-0.59,13.0
30.786,-1.018,-0.637,28.0
28.593,-0.938,-0.744,1.0
24.116,-0.785,-0.754,21.0
21.951,-0.709,-0.801,2.0
38.662,-1.241,-0.338,51.0
38.45,-1.224,-0.538,14.0
31.163,-0.984,-0.599,27.0
30.328,-0.95,-0.745,10.0
24.824,-0.771,-0.74,12.0
22.772,-0.702,-0.799,1.0
38.657,-1.183,-0.282,64.0
38.599,-1.171,-0.484,39.0
37.91,-1.14,-0.674,11.0
30.483,-0.909,-0.705,33.0
27.367,-0.809,-0.777,0.0
23.715,-0.694,-0.798,9.0
38.673,-1.124,-0.227,94.0
38.639,-1.113,-0.429,46.0
38.032,-1.085,-0.622,13.0
30.62,-0.866,-0.665,34.0
28.222,-0.79,-0.761,1.0
23.808,-0.66,-0.768,19.0
38.662,-1.064,-0.173,68.0
38.668,-1.053,-0.376,53.0
38.334,-1.034,-0.574,12.0
31.013,-0.828,-0.631,28.0
0.0,0.0,0.0,0.0
24.508,-0.641,-0.756,13.0
38.715,-1.004,-0.12,35.0
38.741,-0.994,-0.324,35.0
38.58,-0.979,-0.525,24.0
31.509,-0.791,-0.598,9.0
30.432,-0.755,-0.738,25.0
25.218,-0.619,-0.744,7.0
40.425,-0.983,-0.07,35.0
40.416,-0.971,-0.283,40.0
0.0,0.0,0.0,0.0
37.915,-0.89,-0.668,14.0
30.562,-0.708,-0.7,32.0
25.343,-0.581,-0.714,1.0
40.435,-0.917,-0.017,114.0
40.422,-0.905,-0.229,29.0
40.436,-0.894,-0.443,21.0
38.134,-0.832,-0.622,20.0
30.902,-0.665,-0.667,29.0
28.513,-0.605,-0.766,2.0
38.383,-0.805,0.034,36.0
38.375,-0.794,-0.168,14.0
45.493,-0.929,-0.439,11.0
38.412,-0.773,-0.577,14.0
31.393,-0.622,-0.637,17.0
0.0,0.0,0.0,0.0
52.981,-1.022,0.114,48.0
52.965,-1.007,-0.165,33.0
52.926,-0.99,-0.444,22.0
44.89,-0.826,-0.618,19.0
36.144,-0.655,-0.689,2.0
30.452,-0.543,-0.741,23.0
20.158,-0.354,0.068,21.0
20.134,-0.347,-0.037,26.0
52.962,-0.898,-0.378,21.0
45.024,-0.75,-0.564,31.0
37.95,-0.621,-0.677,18.0
30.651,-0.493,-0.709,28.0
20.143,-0.318,0.093,27.0
20.119,-0.312,-0.013,18.0
59.412,-0.904,-0.353,8.0
45.394,-0.677,-0.515,6.0
38.168,-0.558,-0.635,13.0
31.602,-0.452,-0.693,22.0
20.144,-0.283,0.117,9.0
59.519,-0.818,0.031,73.0
56.213,-0.755,-0.268,0.0
52.797,-0.693,-0.537,10.0
39.098,-0.501,-0.605,14.0
35.83,-0.448,-0.744,3.0
20.15,-0.246,0.14,1.0
59.612,-0.712,0.099,1.0
56.305,-0.654,-0.204,0.0
52.928,-0.599,-0.478,4.0
44.853,-0.494,-0.643,18.0
36.157,-0.387,-0.71,2.0
64.327,-0.67,0.521,90.0
56.175,-0.568,0.157,7.0
56.233,-0.551,-0.14,14.0
56.476,-0.535,-0.447,1.0
44.951,-0.412,-0.594,7.0
20.169,-0.178,-0.373,24.0
64.383,-0.552,0.593,4.0
58.312,-0.482,0.227,26.0
20.194,-0.16,-0.028,8.0
20.145,-0.153,-0.137,17.0
20.148,-0.147,-0.244,25.0
20.147,-0.141,-0.351,32.0
20.152,-0.135,0.207,17.0
20.121,-0.128,0.099,17.0
20.14,-0.122,-0.007,25.0
20.149,-0.116,-0.116,26.0
20.153,-0.109,-0.223,21.0
20.144,-0.103,-0.331,39.0
20.125,-0.097,0.227,26.0
20.132,-0.091,0.12,26.0
20.128,-0.084,0.013,33.0
20.136,-0.077,-0.095,31.0
20.151,-0.071,-0.203,27.0
20.152,-0.065,-0.31,27.0
20.124,-0.058,0.248,31.0
20.123,-0.052,0.14,31.0
20.14,-0.046,0.033,38.0
20.141,-0.039,-0.076,29.0
20.167,-0.033,-0.184,25.0
20.163,-0.027,-0.291,14.0
20.132,-0.02,0.267,27.0
20.121,-0.013,0.16,27.0
20.154,-0.007,0.052,27.0
20.257,0.0,-0.057,150.0
20.258,0.005,-0.165,151.0
20.267,0.012,-0.274,150.0
20.133,0.018,0.286,28.0
20.13,0.025,0.178,28.0
20.161,0.031,0.071,22.0
20.241,0.038,-0.038,8.0
20.236,0.044,-0.146,24.0
20.208,0.051,-0.254,0.0
20.143,0.058,0.305,27.0
20.146,0.064,0.197,28.0
20.168,0.071,0.089,27.0
20.19,0.078,-0.02,28.0
20.186,0.084,-0.128,30.0
20.197,0.091,-0.237,23.0
20.161,0.097,0.322,29.0
20.159,0.104,0.214,27.0
20.191,0.111,0.106,27.0
20.172,0.117,-0.003,27.0
20.177,0.124,-0.111,38.0
20.175,0.13,-0.22,28.0
20.172,0.137,0.339,27.0
20.189,0.144,0.231,23.0
20.192,0.15,0.123,20.0
20.243,0.158,0.012,28.0
20.209,0.164,-0.095,22.0
20.179,0.17,-0.204,21.0
20.292,0.178,0.357,32.0
20.287,0.185,0.248,28.0
20.306,0.192,0.139,29.0
20.329,0.199,0.028,30.0
20.326,0.205,-0.08,0.0
20.18,0.21,-0.188,9.0
20.276,0.219,0.373,38.0
20.286,0.225,0.263,25.0
20.296,0.232,0.154,14.0
99.535,1.173,0.213,5.0
0.0,0.0,0.0,0.0
0.0,0.0,0.0,0.0
20.277,0.26,0.387,16.0
20.283,0.266,0.278,2.0
0.0,0.0,0.0,0.0
99.615,1.375,0.284,5.0
101.463,1.434,-0.257,1.0
0.0,0.0,0.0,0.0
0.0,0.0,0.0,0.0
194.998,2.962,2.812,26.0
0.0,0.0,0.0,0.0
99.727,1.58,0.351,6.0
99.815,1.615,-0.187,1.0
0.0,0.0,0.0,0.0
194.524,3.291,3.983,16.0
194.866,3.362,2.938,24.0
0.0,0.0,0.0,0.0
99.841,1.788,0.415,6.0
99.882,1.821,-0.124,1.0
0.0,0.0,0.0,0.0
194.483,3.689,4.103,18.0
0.0,0.0,0.0,0.0
103.178,2.026,1.06,4.0
99.96,1.995,0.475,5.0
99.995,2.029,-0.065,6.0
0.0,0.0,0.0,0.0
194.303,4.09,4.213,8.0
194.461,4.156,3.163,8.0
0.0,0.0,0.0,0.0
100.111,2.203,0.532,3.0
100.132,2.235,-0.01,10.0
0.0,0.0,0.0,0.0
194.094,4.479,4.313,31.0
193.828,4.536,3.254,20.0
0.0,0.0,0.0,0.0
103.003,2.478,0.601,4.0
100.123,2.441,0.041,1.0
0.0,0.0,0.0,0.0
193.929,4.876,4.407,28.0
193.524,4.928,3.346,26.0
195.004,5.029,2.312,21.0
103.114,2.694,0.652,2.0
0.0,0.0,0.0,0.0
0.0,0.0,0.0,0.0
193.691,5.275,4.493,26.0
193.493,5.33,3.435,24.0
195.498,5.448,2.407,20.0
195.891,5.522,1.326,13.0
0.0,0.0,0.0,0.0
0.0,0.0,0.0,0.0
193.918,5.681,4.581,27.0
193.936,5.746,3.525,14.0
201.743,6.04,2.567,17.0
196.021,5.933,1.407,35.0
0.0,0.0,0.0,0.0
0.0,0.0,0.0,0.0
194.07,6.086,4.66,15.0
195.473,6.197,3.628,8.0
195.625,6.264,2.564,7.0
196.216,6.343,1.48,24.0
196.271,6.41,0.41,5.0
0.0,0.0,0.0,0.0
195.087,6.527,4.754,4.0
195.195,6.59,3.69,25.0
196.045,6.683,2.635,19.0
196.218,6.751,1.546,20.0
196.454,6.824,0.475,11.0
0.0,0.0,0.0,0.0
195.597,6.949,4.828,18.0
195.379,7.005,3.754,6.0
195.851,7.084,2.692,16.0
196.323,7.161,1.604,18.0
196.586,7.233,0.531,9.0
0.0,0.0,0.0,0.0
195.427,7.346,4.877,8.0
195.167,7.397,3.802,22.0
195.113,7.458,2.732,7.0
196.697,7.578,1.657,5.0
196.685,7.642,0.58,22.0
0.0,0.0,0.0,0.0
193.714,7.682,4.881,6.0
200.834,8.028,3.959,7.0
0.0,0.0,0.0,0.0
196.589,7.981,1.699,7.0
196.739,8.047,0.62,34.0
0.0,0.0,0.0,0.0
0.0,0.0,0.0,0.0
0.0,0.0,0.0,0.0
0.0,0.0,0.0,0.0
0.0,0.0,0.0,0.0
195.549,8.4,0.651,13.0
0.0,0.0,0.0,0.0
195.462,8.555,4.994,17.0
195.481,8.615,3.92,34.0
204.963,9.096,2.982,37.0
204.954,9.158,1.835,51.0
196.992,8.863,0.681,30.0
0.0,0.0,0.0,0.0
0.0,0.0,0.0,0.0
0.0,0.0,0.0,0.0
204.917,9.513,3.005,21.0
205.417,9.596,1.86,21.0
196.984,9.262,0.699,22.0
0.0,0.0,0.0,0.0
0.0,0.0,0.0,0.0
0.0,0.0,0.0,0.0
0.0,0.0,0.0,0.0
197.813,9.645,1.804,22.0
197.207,9.676,0.71,21.0
0.0,0.0,0.0,0.0
0.0,0.0,0.0,0.0
197.818,9.926,4.013,10.0
0.0,0.0,0.0,0.0
206.257,10.475,1.885,9.0
197.326,10.081,0.715,12.0
0.0,0.0,0.0,0.0
197.577,10.254,5.099,10.0
0.0,0.0,0.0,0.0
199.825,10.492,2.948,6.0
206.64,10.909,1.886,15.0
197.356,10.479,0.71,19.0
0.0,0.0,0.0,0.0
196.083,10.571,5.053,34.0
196.097,10.629,3.969,54.0
195.969,10.681,2.883,18.0
196.051,10.741,1.779,88.0
196.099,10.803,0.694,43.0
0.0,0.0,0.0,0.0
0.0,0.0,0.0,0.0
0.0,0.0,0.0,0.0
0.0,0.0,0.0,0.0
197.452,11.212,1.774,5.0
197.626,11.282,0.681,26.0
0.0,0.0,0.0,0.0
0.0,0.0,0.0,0.0
0.0,0.0,0.0,0.0
0.0,0.0,0.0,0.0
208.207,12.233,1.845,18.0
197.629,11.67,0.655,24.0
0.0,0.0,0.0,0.0
195.801,11.722,4.984,5.0
0.0,0.0,0.0,0.0
0.0,0.0,0.0,0.0
0.0,0.0,0.0,0.0
0.0,0.0,0.0,0.0
0.0,0.0,0.0,0.0
0.0,0.0,0.0,0.0
198.489,12.326,3.913,7.0
0.0,0.0,0.0,0.0
0.0,0.0,0.0,0.0
0.0,0.0,0.0,0.0
0.0,0.0,0.0,0.0
195.796,12.478,4.907,5.0
198.079,12.679,3.862,8.0
0.0,0.0,0.0,0.0
0.0,0.0,0.0,0.0
154.946,10.045,0.418,93.0
0.0,0.0,0.0,0.0
179.06,11.754,4.442,17.0
0.0,0.0,0.0,0.0
0.0,0.0,0.0,0.0
0.0,0.0,0.0,0.0
154.917,10.338,0.375,153.0
0.0,0.0,0.0,0.0
178.361,12.047,4.373,7.0
210.436,14.268,3.986,7.0
0.0,0.0,0.0,0.0
0.0,0.0,0.0,0.0
154.921,10.63,0.326,20.0
0.0,0.0,0.0,0.0
168.072,11.667,4.066,14.0
173.659,12.102,3.231,18.0
0.0,0.0,0.0,0.0
0.0,0.0,0.0,0.0
0.0,0.0,0.0,0.0
0.0,0.0,0.0,0.0
0.0,0.0,0.0,0.0
173.851,12.437,3.171,21.0
179.204,12.868,2.267,12.0
140.822,10.149,0.98,3.0
141.327,10.223,0.194,3.0
0.0,0.0,0.0,0.0
168.612,12.331,3.952,15.0
177.813,13.05,3.172,11.0
173.421,12.77,2.123,24.0
122.393,9.044,0.801,2.0
117.795,8.735,0.112,2.0
0.0,0.0,0.0,0.0
156.202,11.705,3.595,33.0
168.118,12.638,2.927,48.0
168.225,12.689,1.986,18.0
0.0,0.0,0.0,0.0
114.768,8.713,0.058,2.0
0.0,0.0,0.0,0.0
155.857,11.958,3.514,13.0
162.059,12.472,2.745,40.0
162.184,12.521,1.839,20.0
114.154,8.842,0.643,18.0
0.0,0.0,0.0,0.0
0.0,0.0,0.0,0.0
155.971,12.243,3.44,11.0
155.967,12.279,2.565,39.0
155.936,12.313,1.689,14.0
114.014,9.03,0.584,25.0
0.0,0.0,0.0,0.0
0.0,0.0,0.0,0.0
156.047,12.519,3.36,31.0
181.65,14.617,2.89,8.0
0.0,0.0,0.0,0.0
110.468,8.941,0.505,13.0
109.247,8.869,-0.114,2.0
68.981,5.616,-0.459,2.0
196.371,16.091,4.118,17.0
213.541,17.548,3.277,29.0
0.0,0.0,0.0,0.0
108.486,8.965,0.433,2.0
108.403,8.985,-0.176,1.0
68.96,5.732,-0.499,3.0
202.005,16.894,4.116,16.0
213.92,17.939,3.155,11.0
0.0,0.0,0.0,0.0
107.748,9.084,0.365,5.0
107.923,9.125,-0.241,2.0
0.0,0.0,0.0,0.0
199.845,17.047,3.946,5.0
153.618,13.137,2.169,9.0
108.554,9.307,0.921,4.0
107.627,9.25,0.296,32.0
0.0,0.0,0.0,0.0
0.0,0.0,0.0,0.0
159.012,13.822,3.037,4.0
153.27,13.356,2.063,20.0
108.447,9.473,0.848,3.0
107.605,9.424,0.224,32.0
0.0,0.0,0.0,0.0
0.0,0.0,0.0,0.0
157.388,13.935,2.898,7.0
152.764,13.556,1.95,24.0
108.001,9.606,0.77,4.0
0.0,0.0,0.0,0.0
0.0,0.0,0.0,0.0
0.0,0.0,0.0,0.0
151.99,13.695,2.691,15.0
152.647,13.786,1.841,13.0
0.0,0.0,0.0,0.0
93.647,8.496,0.061,14.0
0.0,0.0,0.0,0.0
0.0,0.0,0.0,0.0
151.732,13.905,2.574,31.0
151.812,13.943,1.717,5.0
0.0,0.0,0.0,0.0
92.48,8.531,-0.008,1.0
0.0,0.0,0.0,0.0
0.0,0.0,0.0,0.0
151.471,14.109,2.453,23.0
0.0,0.0,0.0,0.0
92.762,8.676,0.452,4.0
92.4,8.662,-0.081,1.0
0.0,0.0,0.0,0.0
0.0,0.0,0.0,0.0
151.236,14.312,2.328,34.0
0.0,0.0,0.0,0.0
92.605,8.799,0.377,72.0
0.0,0.0,0.0,0.0
68.94,6.577,-0.506,2.0
0.0,0.0,0.0,0.0
151.129,14.519,2.201,25.0
0.0,0.0,0.0,0.0
92.398,8.91,0.3,1.0
0.0,0.0,0.0,0.0
68.947,6.676,-0.565,2.0
0.0,0.0,0.0,0.0
121.647,11.859,1.67,37.0
0.0,0.0,0.0,0.0
0.0,0.0,0.0,0.0
85.365,8.369,-0.289,3.0
0.0,0.0,0.0,0.0
0.0,0.0,0.0,0.0
121.571,12.019,1.56,50.0
0.0,0.0,0.0,0.0
0.0,0.0,0.0,0.0
85.429,8.492,-0.365,3.0
0.0,0.0,0.0,0.0
0.0,0.0,0.0,0.0
150.676,15.099,1.8,11.0
0.0,0.0,0.0,0.0
0.0,0.0,0.0,0.0
0.0,0.0,0.0,0.0
0.0,0.0,0.0,0.0
0.0,0.0,0.0,0.0
0.0,0.0,0.0,0.0
0.0,0.0,0.0,0.0
0.0,0.0,0.0,0.0
0.0,0.0,0.0,0.0
0.0,0.0,0.0,0.0
41.055,4.202,-0.718,0.0
0.0,0.0,0.0,0.0
0.0,0.0,0.0,0.0
0.0,0.0,0.0,0.0
68.896,7.114,-0.488,3.0
0.0,0.0,0.0,0.0
40.069,4.151,-0.739,0.0
0.0,0.0,0.0,0.0
0.0,0.0,0.0,0.0
0.0,0.0,0.0,0.0
68.856,7.192,-0.553,2.0
0.0,0.0,0.0,0.0
38.604,4.045,-0.75,0.0
0.0,0.0,0.0,0.0
82.043,8.641,0.2,1.0
0.0,0.0,0.0,0.0
68.827,7.27,-0.622,0.0
0.0,0.0,0.0,0.0
37.514,3.975,-0.767,0.0
82.13,8.732,0.585,3.0
82.083,8.739,0.117,150.0
0.0,0.0,0.0,0.0
82.054,8.76,-0.825,9.0
0.0,0.0,0.0,0.0
37.085,3.971,-0.796,0.0
82.117,8.822,0.5,3.0
82.053,8.826,0.032,4.0
77.605,8.359,-0.411,2.0
0.0,0.0,0.0,0.0
0.0,0.0,0.0,0.0
34.947,3.78,-0.786,0.0
82.045,8.901,0.414,5.0
76.881,8.351,-0.049,6.0
0.0,0.0,0.0,0.0
0.0,0.0,0.0,0.0
40.707,4.439,-0.727,0.0
33.732,3.683,-0.795,0.0
76.381,8.365,0.305,17.0
76.203,8.355,-0.13,9.0
68.909,7.564,-0.511,2.0
0.0,0.0,0.0,0.0
0.0,0.0,0.0,0.0
32.519,3.583,-0.801,0.0
75.769,8.373,0.22,7.0
75.647,8.369,-0.211,14.0
68.972,7.639,-0.587,2.0
0.0,0.0,0.0,0.0
37.342,4.145,-0.747,0.0
31.774,3.532,-0.817,0.0
75.23,8.384,0.136,9.0
75.29,8.399,-0.292,5.0
0.0,0.0,0.0,0.0
0.0,0.0,0.0,0.0
36.989,4.14,-0.781,0.0
30.953,3.469,-0.831,0.0
74.836,8.408,0.053,11.0
0.0,0.0,0.0,0.0
0.0,0.0,0.0,0.0
41.101,4.631,-0.679,1.0
0.0,0.0,0.0,0.0
29.787,3.364,-0.833,0.0
74.652,8.45,-0.029,18.0
0.0,0.0,0.0,0.0
0.0,0.0,0.0,0.0
0.0,0.0,0.0,0.0
34.181,3.884,-0.798,0.0
28.777,3.274,-0.837,0.0
74.586,8.503,-0.114,3.0
68.809,7.851,-0.498,0.0
0.0,0.0,0.0,0.0
39.353,4.498,-0.739,0.0
32.619,3.732,-0.799,0.0
27.956,3.202,-0.845,0.0
0.0,0.0,0.0,0.0
0.0,0.0,0.0,0.0
0.0,0.0,0.0,0.0
38.008,4.373,-0.757,0.0
31.667,3.647,-0.812,0.0
27.168,3.132,-0.852,0.0
71.555,8.263,-0.272,1.0
0.0,0.0,0.0,0.0
0.0,0.0,0.0,0.0
36.809,4.261,-0.775,0.0
30.653,3.551,-0.821,0.0
26.365,3.057,-0.857,0.0
71.392,8.293,-0.354,1.0
0.0,0.0,0.0,0.0
41.931,4.878,-0.688,0.0
34.896,4.062,-0.775,0.0
29.736,3.465,-0.831,0.0
25.73,3.0,-0.867,0.0
0.0,0.0,0.0,0.0
0.0,0.0,0.0,0.0
41.323,4.833,-0.726,0.0
33.851,3.962,-0.792,1.0
28.718,3.364,-0.837,0.0
24.827,2.91,-0.866,0.0
68.981,8.097,-0.505,3.0
0.0,0.0,0.0,0.0
39.096,4.595,-0.734,0.0
32.404,3.811,-0.797,0.0
27.974,3.293,-0.848,0.0
24.167,2.847,-0.871,0.0
68.929,8.129,-0.586,1.0
0.0,0.0,0.0,0.0
37.477,4.425,-0.747,0.0
31.498,3.721,-0.812,0.0
26.961,3.187,-0.85,0.0
23.596,2.792,-0.879,0.0
0.0,0.0,0.0,0.0
0.0,0.0,0.0,0.0
36.573,4.336,-0.773,0.0
30.543,3.623,-0.824,0.0
26.113,3.099,-0.854,0.0
21.94,2.606,-0.843,0.0
0.0,0.0,0.0,0.0
40.926,4.867,-0.679,0.0
34.999,4.164,-0.782,0.0
29.424,3.503,-0.829,0.0
25.411,3.027,-0.861,0.0
21.884,2.609,-0.868,0.0
0.0,0.0,0.0,0.0
40.398,4.821,-0.719,0.0
33.041,3.944,-0.777,0.0
28.499,3.404,-0.837,0.0
24.612,2.941,-0.864,0.0
21.813,2.608,-0.891,1.0
0.0,0.0,0.0,0.0
38.058,4.555,-0.722,0.0
32.546,3.897,-0.804,0.0
27.737,3.322,-0.848,0.0
23.986,2.875,-0.871,0.0
21.607,2.591,-0.908,0.0
0.0,0.0,0.0,0.0
37.401,4.488,-0.755,0.0
31.324,3.76,-0.812,0.0
26.801,3.218,-0.851,0.0
23.438,2.816,-0.879,0.0
20.541,2.469,-0.888,0.0
0.0,0.0,0.0,0.0
0.0,0.0,0.0,0.0
30.43,3.66,-0.825,0.0
25.87,3.113,-0.852,0.0
21.941,2.641,-0.849,0.0
20.317,2.447,-0.903,0.0
0.0,0.0,0.0,0.0
34.388,4.142,-0.776,0.0
29.476,3.552,-0.834,0.0
25.255,3.044,-0.862,0.0
21.867,2.637,-0.872,0.0
20.06,2.42,-0.915,0.0
39.961,4.819,-0.72,0.0
32.773,3.953,-0.778,0.0
28.418,3.429,-0.838,0.0
24.42,2.947,-0.863,0.0
21.801,2.632,-0.895,0.0
19.115,2.309,-0.895,0.0
38.164,4.607,-0.733,0.0
32.184,3.886,-0.802,0.0
27.447,3.315,-0.842,0.0
23.781,2.873,-0.868,0.0
21.438,2.59,-0.906,0.0
18.88,2.282,-0.906,0.0
37.213,4.496,-0.758,0.0
30.92,3.736,-0.808,0.0
26.618,3.217,-0.848,0.0
23.241,2.809,-0.876,0.0
20.513,2.48,-0.891,0.0
18.312,2.214,-0.901,0.0
35.892,4.337,-0.774,0.0
30.229,3.653,-0.825,0.0
25.771,3.115,-0.851,0.0
21.845,2.641,-0.849,0.0
20.28,2.452,-0.905,0.0
18.151,2.195,-0.914,1.0
34.284,4.143,-0.779,0.0
29.038,3.509,-0.826,0.0
25.146,3.039,-0.859,0.0
21.801,2.635,-0.873,0.0
19.682,2.379,-0.901,0.0
17.753,2.146,-0.915,0.0
32.685,3.948,-0.78,0.0
28.451,3.436,-0.842,0.0
24.469,2.955,-0.865,0.0
21.711,2.622,-0.894,0.0
19.137,2.312,-0.898,0.0
17.3,2.09,-0.911,0.0
32.045,3.867,-0.802,0.0
27.343,3.299,-0.841,0.0
23.77,2.868,-0.868,0.0
21.183,2.556,-0.897,0.0
18.746,2.262,-0.901,0.0
17.044,2.057,-0.918,1.0
30.803,3.713,-0.806,0.0
26.498,3.193,-0.846,0.0
23.258,2.803,-0.875,0.0
20.424,2.461,-0.888,0.0
18.282,2.203,-0.9,0.0
16.698,2.012,-0.918,0.0
30.058,3.617,-0.821,0.0
25.81,3.105,-0.853,0.0
21.879,2.632,-0.848,0.0
20.155,2.424,-0.899,0.0
18.155,2.184,-0.914,0.0
16.41,1.974,-0.921,1.0
29.032,3.487,-0.825,0.0
25.188,3.024,-0.86,0.0
21.798,2.617,-0.869,0.0
0.0,0.0,0.0,0.0
17.674,2.121,-0.909,0.0
16.209,1.946,-0.927,0.0
28.15,3.373,-0.831,0.0
24.411,2.924,-0.86,0.0
21.753,2.605,-0.891,0.0
19.174,2.296,-0.898,0.0
17.331,2.075,-0.911,0.0
15.878,1.901,-0.926,0.0
27.431,3.278,-0.839,0.0
23.81,2.844,-0.865,0.0
21.537,2.572,-0.906,0.0
18.854,2.251,-0.903,0.0
17.077,2.039,-0.916,0.0
15.602,1.862,-0.926,0.0
26.68,3.178,-0.845,0.0
23.367,2.782,-0.874,0.0
20.503,2.441,-0.884,0.0
18.401,2.19,-0.901,0.0
16.739,1.992,-0.916,0.0
15.377,1.829,-0.929,0.0
26.077,3.095,-0.853,0.0
21.957,2.605,-0.844,0.0
20.338,2.412,-0.899,0.0
18.163,2.154,-0.908,0.0
16.518,1.958,-0.921,0.0
15.072,1.787,-0.927,0.0
25.12,2.97,-0.848,0.0
21.82,2.579,-0.862,0.0
19.334,2.284,-0.874,0.0
17.766,2.098,-0.907,0.0
16.322,1.927,-0.927,0.0
14.851,1.753,-0.929,0.0
24.63,2.9,-0.857,0.0
21.776,2.563,-0.882,1.0
19.317,2.272,-0.893,1.0
17.429,2.049,-0.908,0.0
15.963,1.876,-0.923,0.0
14.64,1.72,-0.931,0.0
24.118,2.826,-0.863,0.0
21.656,2.537,-0.899,0.0
19.214,2.249,-0.908,1.0
17.204,2.013,-0.913,0.0
15.719,1.839,-0.924,0.0
14.488,1.694,-0.935,0.0
23.684,2.762,-0.871,0.0
20.818,2.426,-0.885,0.0
18.85,2.196,-0.909,0.0
16.956,1.974,-0.917,0.0
15.489,1.802,-0.926,0.0
14.295,1.663,-0.937,0.0
23.361,2.709,-0.882,0.0
20.425,2.367,-0.888,0.0
18.602,2.155,-0.915,0.0
16.775,1.942,-0.923,0.0
15.209,1.76,-0.924,0.0
14.138,1.635,-0.94,0.0
21.925,2.528,-0.848,0.0
19.941,2.298,-0.885,0.0
18.19,2.095,-0.912,0.0
16.474,1.896,-0.921,0.0
14.995,1.725,-0.925,0.0
13.98,1.607,-0.942,0.0
21.818,2.501,-0.864,0.0
19.505,2.234,-0.884,0.0
17.727,2.029,-0.905,0.0
16.204,1.853,-0.921,0.0
14.847,1.697,-0.929,0.0
13.794,1.576,-0.942,0.0
21.799,2.482,-0.883,1.0
19.41,2.208,-0.897,1.0
17.486,1.988,-0.908,0.0
15.965,1.814,-0.922,0.0
14.679,1.667,-0.931,0.0
13.535,1.536,-0.936,0.0
21.791,2.464,-0.901,2.0
19.171,2.166,-0.902,0.0
17.352,1.959,-0.916,0.0
15.769,1.779,-0.924,0.0
14.515,1.636,-0.933,0.0
13.349,1.504,-0.935,0.0
21.659,2.431,-0.914,0.0
18.847,2.114,-0.903,0.0
17.015,1.907,-0.912,0.0
15.511,1.737,-0.922,0.0
14.408,1.612,-0.938,0.0
13.283,1.485,-0.941,0.0
20.665,2.302,-0.889,0.0
18.52,2.061,-0.902,0.0
16.888,1.878,-0.919,0.0
15.323,1.702,-0.923,0.0
14.231,1.58,-0.938,0.0
13.283,1.473,-0.952,0.0
20.065,2.217,-0.879,0.0
18.21,2.01,-0.901,0.0
16.613,1.832,-0.917,0.0
15.162,1.67,-0.925,0.0
14.1,1.552,-0.941,0.0
12.912,1.42,-0.935,0.0
19.721,2.16,-0.879,1.0
17.956,1.965,-0.902,0.0
16.4,1.793,-0.917,0.0
14.951,1.633,-0.923,0.0
14.215,1.551,-0.959,0.0
12.848,1.401,-0.94,0.0
19.669,2.136,-0.89,2.0
17.743,1.924,-0.904,2.0
16.292,1.765,-0.923,0.0
14.875,1.61,-0.929,0.0
0.0,0.0,0.0,0.0
12.693,1.371,-0.938,0.0
19.518,2.1,-0.897,1.0
17.736,1.906,-0.916,2.0
16.062,1.724,-0.921,0.0
14.731,1.579,-0.93,0.0
13.465,1.442,-0.927,0.0
12.63,1.352,-0.942,0.0
19.441,2.071,-0.907,0.0
17.648,1.878,-0.923,1.0
15.881,1.688,-0.921,0.0
14.607,1.551,-0.932,0.0
13.536,1.435,-0.941,0.0
12.491,1.323,-0.939,0.0
19.174,2.022,-0.907,0.0
17.385,1.831,-0.921,0.0
15.708,1.652,-0.921,0.0
14.489,1.522,-0.933,0.0
13.417,1.408,-0.941,0.0
12.398,1.3,-0.94,0.0
18.891,1.971,-0.905,0.0
17.102,1.782,-0.916,0.0
15.602,1.624,-0.924,0.0
14.353,1.492,-0.933,0.0
13.365,1.387,-0.945,0.0
12.346,1.28,-0.943,0.0
18.67,1.927,-0.905,0.0
16.975,1.749,-0.919,0.0
15.485,1.594,-0.926,0.0
14.29,1.469,-0.937,0.0
13.151,1.35,-0.937,0.0
12.244,1.255,-0.942,0.0
18.421,1.879,-0.903,0.0
16.811,1.713,-0.919,0.0
15.364,1.563,-0.927,0.0
14.243,1.447,-0.941,0.0
13.036,1.323,-0.936,0.0
12.164,1.233,-0.942,0.0
18.136,1.829,-0.898,0.0
16.644,1.676,-0.918,0.0
15.202,1.528,-0.924,0.0
14.102,1.416,-0.939,0.0
13.048,1.308,-0.943,0.0
12.058,1.207,-0.94,0.0
18.021,1.795,-0.9,1.0
16.538,1.645,-0.92,0.0
15.078,1.497,-0.924,0.0
14.054,1.394,-0.942,0.0
12.935,1.281,-0.94,0.0
11.98,1.185,-0.939,0.0
17.948,1.765,-0.904,1.0
16.411,1.612,-0.92,0.0
14.988,1.469,-0.925,0.0
14.059,1.376,-0.948,0.0
12.889,1.26,-0.942,0.0
11.883,1.16,-0.936,0.0
17.839,1.732,-0.906,2.0
16.273,1.577,-0.918,0.0
14.946,1.446,-0.928,0.0
0.0,0.0,0.0,0.0
12.796,1.234,-0.94,0.0
11.861,1.142,-0.939,0.0
17.769,1.702,-0.909,1.0
16.17,1.546,-0.918,0.0
14.89,1.421,-0.929,0.0
13.828,1.317,-0.943,0.0
12.719,1.21,-0.939,0.0
11.851,1.125,-0.942,0.0
17.645,1.667,-0.908,0.0
16.153,1.523,-0.922,0.0
14.812,1.394,-0.929,0.0
13.685,1.286,-0.937,0.0
12.71,1.192,-0.942,0.0
11.805,1.105,-0.942,0.0
17.613,1.64,-0.912,0.0
16.035,1.49,-0.92,0.0
14.767,1.369,-0.93,0.0
13.621,1.261,-0.936,0.0
12.638,1.168,-0.94,0.0
11.789,1.087,-0.944,0.0
17.39,1.595,-0.904,0.0
15.969,1.462,-0.92,0.0
14.722,1.345,-0.931,0.0
13.596,1.239,-0.938,0.0
12.639,1.15,-0.943,0.0
11.743,1.066,-0.943,0.0
17.41,1.572,-0.909,0.0
15.965,1.439,-0.923,0.0
14.692,1.321,-0.932,0.0
13.569,1.218,-0.939,0.0
12.576,1.126,-0.941,0.0
11.714,1.047,-0.942,0.0
17.308,1.538,-0.907,0.0
15.913,1.411,-0.923,0.0
14.655,1.297,-0.932,0.0
13.47,1.189,-0.934,0.0
12.591,1.109,-0.944,0.0
11.715,1.03,-0.944,0.0
17.335,1.515,-0.911,0.0
15.893,1.386,-0.924,0.0
14.645,1.274,-0.933,0.0
13.407,1.164,-0.931,0.0
12.561,1.088,-0.943,0.0
11.685,1.01,-0.943,0.0
17.367,1.492,-0.914,0.0
15.883,1.362,-0.924,0.0
14.621,1.251,-0.933,0.0
13.443,1.147,-0.934,0.0
12.539,1.068,-0.942,0.0
11.669,0.991,-0.942,0.0
17.298,1.461,-0.911,0.0
15.903,1.34,-0.926,0.0
14.644,1.231,-0.935,0.0
13.527,1.134,-0.941,0.0
12.553,1.05,-0.943,0.0
11.684,0.975,-0.944,0.0
17.265,1.432,-0.91,0.0
15.881,1.314,-0.925,0.0
14.633,1.208,-0.934,0.0
13.468,1.109,-0.936,0.0
12.552,1.031,-0.943,0.0
11.702,0.959,-0.945,0.0
17.3,1.409,-0.911,0.0
15.96,1.296,-0.929,0.0
14.611,1.183,-0.932,0.0
13.532,1.093,-0.94,0.0
12.595,1.015,-0.946,0.0
11.679,0.939,-0.942,0.0
17.308,1.382,-0.91,0.0
15.939,1.27,-0.927,0.0
14.656,1.164,-0.934,0.0
13.564,1.075,-0.941,0.0
12.587,0.995,-0.944,0.0
11.701,0.922,-0.943,0.0
17.369,1.361,-0.911,0.0
15.953,1.246,-0.926,0.0
14.656,1.142,-0.932,0.0
13.581,1.055,-0.941,0.0
12.61,0.977,-0.944,0.0
11.714,0.905,-0.942,0.0
17.356,1.332,-0.908,0.0
16.016,1.226,-0.927,0.0
14.705,1.122,-0.933,0.0
13.738,1.046,-0.949,0.0
12.65,0.96,-0.944,0.0
11.734,0.888,-0.942,0.0
17.507,1.316,-0.913,0.0
16.068,1.205,-0.927,0.0
14.766,1.104,-0.934,0.0
13.638,1.016,-0.939,0.0
12.655,0.94,-0.942,0.0
11.787,0.873,-0.943,0.0
17.485,1.287,-0.908,0.0
16.11,1.182,-0.925,0.0
14.832,1.085,-0.934,0.0
13.689,0.998,-0.939,0.0
12.686,0.922,-0.941,0.0
11.81,0.856,-0.942,0.0
17.634,1.27,-0.91,0.0
16.174,1.161,-0.924,0.0
14.86,1.063,-0.932,0.0
13.98,0.997,-0.955,0.0
12.741,0.906,-0.941,0.0
11.891,0.843,-0.944,0.0
17.758,1.25,-0.911,0.0
16.277,1.142,-0.925,0.0
14.953,1.046,-0.932,0.0
0.0,0.0,0.0,0.0
12.835,0.892,-0.944,0.0
11.924,0.826,-0.943,0.0
17.844,1.227,-0.909,0.0
16.383,1.123,-0.925,0.0
14.995,1.024,-0.929,0.0
13.965,0.951,-0.944,0.0
12.961,0.88,-0.948,0.0
11.965,0.809,-0.941,0.0
18.17,1.22,-0.918,0.0
16.574,1.109,-0.929,0.0
