X,Y,Z,Reflectivity
46.881,-3.351,-0.501,20.0
36.559,-2.603,-0.584,1.0
30.834,-2.187,-0.656,9.0
24.645,-1.741,-0.657,5.0
23.648,-1.665,-0.756,9.0
20.798,-1.459,-0.775,0.0
49.402,-3.459,-0.469,13.0
39.913,-2.784,-0.59,2.0
30.723,-2.135,-0.617,2.0
24.53,-1.697,-0.625,15.0
23.86,-1.645,-0.735,14.0
21.303,-1.463,-0.769,0.0
53.15,-3.644,-0.444,10.0
40.61,-2.773,-0.555,1.0
24.614,-1.674,-0.466,5.0
24.461,-1.656,-0.596,24.0
24.055,-1.622,-0.714,17.0
22.041,-1.48,-0.771,0.0
24.62,-1.65,-0.177,4.0
24.538,-1.638,-0.307,14.0
24.518,-1.63,-0.437,26.0
24.47,-1.62,-0.569,32.0
24.304,-1.602,-0.694,24.0
22.865,-1.501,-0.774,1.0
24.549,-1.608,-0.15,34.0
24.518,-1.599,-0.28,35.0
24.513,-1.592,-0.41,46.0
24.468,-1.581,-0.542,40.0
24.37,-1.568,-0.669,27.0
23.365,-1.496,-0.766,5.0
24.531,-1.568,-0.123,54.0
24.499,-1.558,-0.253,44.0
24.503,-1.551,-0.383,58.0
24.469,-1.542,-0.515,43.0
24.412,-1.532,-0.644,32.0
23.806,-1.486,-0.755,13.0
24.52,-1.528,-0.096,76.0
24.499,-1.519,-0.227,48.0
24.5,-1.511,-0.357,58.0
24.487,-1.503,-0.49,58.0
24.435,-1.493,-0.619,37.0
23.926,-1.455,-0.733,15.0
24.542,-1.489,-0.071,82.0
24.502,-1.479,-0.201,59.0
24.501,-1.471,-0.332,57.0
24.482,-1.462,-0.464,55.0
24.46,-1.454,-0.594,42.0
24.096,-1.425,-0.714,13.0
24.536,-1.447,-0.046,71.0
24.518,-1.438,-0.177,62.0
24.512,-1.43,-0.307,69.0
24.504,-1.422,-0.44,54.0
24.474,-1.413,-0.57,35.0
24.304,-1.396,-0.696,20.0
24.563,-1.407,-0.022,50.0
24.549,-1.398,-0.152,48.0
24.535,-1.389,-0.283,44.0
24.54,-1.382,-0.417,42.0
24.515,-1.373,-0.547,41.0
24.391,-1.358,-0.675,17.0
24.593,-1.366,0.001,13.0
24.585,-1.357,-0.129,15.0
24.554,-1.348,-0.26,23.0
24.557,-1.34,-0.394,25.0
24.522,-1.33,-0.524,24.0
24.476,-1.32,-0.654,25.0
69.361,-3.73,0.069,1.0
65.741,-3.513,-0.285,4.0
53.044,-2.817,-0.513,0.0
37.979,-2.005,-0.574,7.0
30.785,-1.615,-0.63,29.0
24.55,-1.28,-0.634,13.0
0.0,0.0,0.0,0.0
66.078,-3.413,-0.227,0.0
57.238,-2.937,-0.502,2.0
38.072,-1.941,-0.542,2.0
30.927,-1.567,-0.605,29.0
28.607,-1.44,-0.713,2.0
0.0,0.0,0.0,0.0
0.0,0.0,0.0,0.0
31.311,-1.55,-0.248,5.0
31.258,-1.537,-0.418,23.0
31.048,-1.516,-0.581,32.0
30.362,-1.473,-0.731,9.0
68.806,-3.326,0.249,3.0
31.334,-1.504,-0.054,3.0
31.219,-1.488,-0.221,32.0
31.184,-1.475,-0.391,43.0
31.128,-1.462,-0.557,40.0
30.534,-1.424,-0.71,23.0
31.27,-1.453,0.139,32.0
31.225,-1.44,-0.028,38.0
31.21,-1.428,-0.196,55.0
31.164,-1.416,-0.365,45.0
31.18,-1.406,-0.533,54.0
30.561,-1.368,-0.687,21.0
31.248,-1.393,0.163,55.0
31.19,-1.379,-0.004,22.0
28.471,-1.249,-0.156,59.0
28.456,-1.238,-0.312,58.0
28.442,-1.228,-0.464,62.0
28.448,-1.219,-0.618,100.0
28.445,-1.213,0.17,89.0
28.446,-1.203,0.017,146.0
28.446,-1.193,-0.135,123.0
28.44,-1.183,-0.291,105.0
28.452,-1.174,-0.444,124.0
28.455,-1.164,-0.597,120.0
28.451,-1.159,0.19,150.0
28.46,-1.149,0.037,150.0
28.446,-1.139,-0.115,64.0
28.464,-1.129,-0.271,64.0
28.475,-1.12,-0.424,59.0
30.786,-1.2,-0.625,15.0
31.25,-1.211,0.231,17.0
31.246,-1.2,0.062,42.0
31.3,-1.191,-0.105,71.0
31.325,-1.181,-0.277,45.0
31.345,-1.171,-0.446,22.0
30.938,-1.145,-0.607,28.0
31.349,-1.153,0.252,24.0
80.345,-2.928,0.213,28.0
80.993,-2.922,-0.221,13.0
54.476,-1.945,-0.447,1.0
44.926,-1.589,-0.611,4.0
31.171,-1.091,-0.592,30.0
80.457,-2.799,0.697,16.0
80.489,-2.772,0.264,32.0
81.139,-2.765,-0.172,14.0
38.752,-1.306,-0.295,22.0
38.611,-1.288,-0.502,24.0
31.41,-1.037,-0.578,20.0
38.699,-1.269,0.358,41.0
38.697,-1.255,0.149,51.0
38.669,-1.24,-0.059,58.0
38.652,-1.225,-0.272,55.0
38.608,-1.21,-0.48,32.0
37.894,-1.174,-0.676,8.0
38.638,-1.188,0.379,71.0
38.643,-1.174,0.17,69.0
38.678,-1.161,-0.038,81.0
38.666,-1.147,-0.251,97.0
38.632,-1.132,-0.46,40.0
37.881,-1.096,-0.656,13.0
38.654,-1.109,0.399,89.0
38.643,-1.095,0.19,72.0
38.64,-1.08,-0.018,66.0
38.657,-1.067,-0.232,57.0
38.672,-1.053,-0.441,37.0
38.003,-1.021,-0.64,17.0
38.678,-1.03,0.418,56.0
38.677,-1.015,0.209,43.0
38.707,-1.002,0.0,33.0
38.757,-0.989,-0.214,32.0
38.773,-0.976,-0.425,33.0
38.077,-0.945,-0.624,20.0
40.425,-0.993,0.455,27.0
40.415,-0.977,0.236,35.0
40.408,-0.962,0.016,38.0
40.419,-0.948,-0.206,39.0
40.41,-0.933,-0.426,54.0
38.202,-0.868,-0.61,23.0
40.412,-0.907,0.472,40.0
38.392,-0.848,0.24,8.0
38.38,-0.834,0.031,32.0
38.354,-0.819,-0.181,53.0
38.357,-0.806,-0.389,32.0
38.265,-0.79,-0.596,13.0
52.939,-1.078,0.638,55.0
52.926,-1.059,0.35,65.0
52.963,-1.04,0.062,53.0
52.94,-1.019,-0.23,51.0
45.54,-0.86,-0.446,18.0
38.531,-0.714,-0.587,13.0
192.915,-3.522,2.392,8.0
20.153,-0.36,0.14,1.0
20.127,-0.352,0.03,37.0
20.123,-0.345,-0.081,2.0
52.861,-0.888,-0.501,25.0
38.736,-0.636,-0.578,7.0
20.157,-0.325,0.256,6.0
20.118,-0.317,0.145,13.0
20.143,-0.31,0.036,27.0
57.059,-0.857,-0.214,6.0
52.988,-0.776,-0.487,13.0
44.832,-0.64,-0.657,7.0
20.137,-0.281,0.261,14.0
20.142,-0.274,0.151,9.0
59.541,-0.789,0.122,56.0
56.315,-0.726,-0.197,1.0
53.137,-0.666,-0.476,5.0
44.687,-0.543,-0.644,19.0
20.156,-0.238,0.266,10.0
56.178,-0.645,0.434,1.0
56.194,-0.624,0.127,2.0
56.188,-0.604,-0.185,13.0
58.745,-0.61,-0.514,6.0
44.876,-0.45,-0.638,18.0
53.4,-0.517,0.715,9.0
53.37,-0.497,0.422,8.0
53.365,-0.478,0.13,5.0
53.33,-0.458,-0.166,7.0
20.151,-0.166,-0.173,12.0
20.144,-0.159,-0.283,28.0
20.2,-0.152,0.273,17.0
20.164,-0.144,0.162,17.0
20.157,-0.137,0.052,27.0
20.154,-0.13,-0.06,24.0
20.141,-0.123,-0.17,27.0
20.136,-0.115,-0.28,37.0
20.13,-0.109,0.275,27.0
20.134,-0.101,0.164,26.0
20.135,-0.094,0.054,37.0
20.136,-0.087,-0.058,28.0
20.145,-0.08,-0.168,37.0
20.153,-0.072,-0.279,29.0
20.126,-0.066,0.276,31.0
20.117,-0.058,0.166,33.0
20.131,-0.051,0.055,40.0
20.119,-0.044,-0.056,31.0
20.157,-0.037,-0.167,27.0
20.173,-0.029,-0.278,17.0
20.129,-0.022,0.277,27.0
20.12,-0.015,0.166,28.0
20.156,-0.008,0.056,28.0
20.255,0.0,-0.056,150.0
20.255,0.006,-0.168,151.0
20.262,0.013,-0.279,151.0
20.133,0.021,0.277,29.0
20.135,0.028,0.166,27.0
20.176,0.035,0.056,15.0
20.211,0.042,-0.057,15.0
20.226,0.049,-0.168,23.0
20.161,0.056,-0.278,0.0
20.146,0.064,0.277,27.0
20.15,0.071,0.166,29.0
20.2,0.078,0.055,35.0
20.188,0.086,-0.058,36.0
20.179,0.093,-0.169,33.0
20.21,0.1,-0.28,28.0
20.17,0.108,0.276,29.0
20.165,0.115,0.164,27.0
20.2,0.122,0.053,28.0
20.181,0.129,-0.059,26.0
20.173,0.136,-0.171,28.0
20.17,0.143,-0.282,35.0
20.196,0.151,0.274,25.0
20.235,0.159,0.162,25.0
20.304,0.166,0.051,27.0
20.224,0.173,-0.062,14.0
20.187,0.179,-0.173,15.0
20.171,0.186,-0.285,28.0
20.291,0.195,0.272,28.0
20.305,0.203,0.16,28.0
20.317,0.21,0.048,18.0
0.0,0.0,0.0,0.0
20.215,0.223,-0.177,2.0
20.193,0.23,-0.289,23.0
20.3,0.239,0.268,22.0
20.344,0.247,0.156,0.0
99.622,1.245,0.216,6.0
0.0,0.0,0.0,0.0
0.0,0.0,0.0,0.0
0.0,0.0,0.0,0.0
0.0,0.0,0.0,0.0
0.0,0.0,0.0,0.0
99.701,1.457,0.193,5.0
0.0,0.0,0.0,0.0
0.0,0.0,0.0,0.0
0.0,0.0,0.0,0.0
0.0,0.0,0.0,0.0
99.812,1.637,0.72,2.0
99.837,1.672,0.166,8.0
0.0,0.0,0.0,0.0
0.0,0.0,0.0,0.0
0.0,0.0,0.0,0.0
103.213,1.874,1.287,20.0
100.046,1.851,0.692,2.0
100.079,1.887,0.136,1.0
0.0,0.0,0.0,0.0
0.0,0.0,0.0,0.0
0.0,0.0,0.0,0.0
103.18,2.091,1.252,10.0
100.157,2.064,0.659,2.0
100.038,2.093,0.102,19.0
0.0,0.0,0.0,0.0
0.0,0.0,0.0,0.0
0.0,0.0,0.0,0.0
0.0,0.0,0.0,0.0
103.021,2.338,0.639,1.0
100.137,2.305,0.064,47.0
0.0,0.0,0.0,0.0
0.0,0.0,0.0,0.0
0.0,0.0,0.0,0.0
0.0,0.0,0.0,0.0
102.972,2.55,0.597,2.0
100.235,2.516,0.023,1.0
0.0,0.0,0.0,0.0
0.0,0.0,0.0,0.0
0.0,0.0,0.0,0.0
194.941,5.168,2.131,19.0
103.103,2.766,0.552,2.0
103.396,2.807,-0.022,2.0
0.0,0.0,0.0,0.0
0.0,0.0,0.0,0.0
0.0,0.0,0.0,0.0
0.0,0.0,0.0,0.0
196.159,5.668,0.956,31.0
0.0,0.0,0.0,0.0
69.045,2.04,-0.441,1.0
0.0,0.0,0.0,0.0
0.0,0.0,0.0,0.0
0.0,0.0,0.0,0.0
196.334,6.078,0.855,36.0
0.0,0.0,0.0,0.0
68.957,2.178,-0.477,0.0
0.0,0.0,0.0,0.0
0.0,0.0,0.0,0.0
0.0,0.0,0.0,0.0
196.402,6.475,0.748,27.0
0.0,0.0,0.0,0.0
68.848,2.312,-0.514,2.0
0.0,0.0,0.0,0.0
0.0,0.0,0.0,0.0
202.757,7.025,1.79,20.0
196.493,6.87,0.635,14.0
0.0,0.0,0.0,0.0
68.972,2.453,-0.555,3.0
0.0,0.0,0.0,0.0
0.0,0.0,0.0,0.0
196.408,7.198,1.613,21.0
0.0,0.0,0.0,0.0
0.0,0.0,0.0,0.0
68.93,2.589,-0.599,2.0
0.0,0.0,0.0,0.0
39.345,1.501,-0.783,0.0
196.621,7.594,1.488,24.0
0.0,0.0,0.0,0.0
0.0,0.0,0.0,0.0
0.0,0.0,0.0,0.0
0.0,0.0,0.0,0.0
0.0,0.0,0.0,0.0
196.686,7.981,1.355,35.0
0.0,0.0,0.0,0.0
0.0,0.0,0.0,0.0
0.0,0.0,0.0,0.0
0.0,0.0,0.0,0.0
0.0,0.0,0.0,0.0
196.692,8.363,1.215,33.0
0.0,0.0,0.0,0.0
0.0,0.0,0.0,0.0
0.0,0.0,0.0,0.0
0.0,0.0,0.0,0.0
36.758,1.617,-0.809,0.0
196.958,8.753,1.069,27.0
0.0,0.0,0.0,0.0
0.0,0.0,0.0,0.0
0.0,0.0,0.0,0.0
42.537,1.939,-0.73,3.0
35.531,1.63,-0.81,0.0
197.058,9.13,0.917,32.0
0.0,0.0,0.0,0.0
0.0,0.0,0.0,0.0
51.937,2.45,-0.64,0.0
0.0,0.0,0.0,0.0
34.648,1.655,-0.818,0.0
197.139,9.505,0.757,24.0
0.0,0.0,0.0,0.0
0.0,0.0,0.0,0.0
0.0,0.0,0.0,0.0
40.409,1.994,-0.759,0.0
33.526,1.663,-0.819,0.0
197.16,9.869,0.592,8.0
0.0,0.0,0.0,0.0
68.974,3.49,-0.57,2.0
0.0,0.0,0.0,0.0
38.584,1.973,-0.758,0.0
32.511,1.672,-0.822,0.0
0.0,0.0,0.0,0.0
0.0,0.0,0.0,0.0
0.0,0.0,0.0,0.0
0.0,0.0,0.0,0.0
0.0,0.0,0.0,0.0
32.148,1.712,-0.842,0.0
0.0,0.0,0.0,0.0
0.0,0.0,0.0,0.0
0.0,0.0,0.0,0.0
0.0,0.0,0.0,0.0
36.978,2.024,-0.793,0.0
31.252,1.719,-0.847,0.0
0.0,0.0,0.0,0.0
0.0,0.0,0.0,0.0
0.0,0.0,0.0,0.0
0.0,0.0,0.0,0.0
35.699,2.016,-0.799,0.0
30.477,1.729,-0.855,0.0
0.0,0.0,0.0,0.0
68.943,3.96,-0.434,3.0
0.0,0.0,0.0,0.0
40.964,2.373,-0.725,0.0
34.175,1.989,-0.799,0.0
29.537,1.727,-0.857,0.0
0.0,0.0,0.0,0.0
68.905,4.075,-0.501,3.0
0.0,0.0,0.0,0.0
40.371,2.408,-0.755,0.0
33.1,1.982,-0.806,0.0
28.648,1.723,-0.86,0.0
0.0,0.0,0.0,0.0
0.0,0.0,0.0,0.0
0.0,0.0,0.0,0.0
0.0,0.0,0.0,0.0
32.112,1.977,-0.816,2.0
28.107,1.737,-0.873,0.0
0.0,0.0,0.0,0.0
0.0,0.0,0.0,0.0
0.0,0.0,0.0,0.0
37.592,2.366,-0.781,0.0
32.115,2.029,-0.849,0.0
27.052,1.716,-0.869,0.0
0.0,0.0,0.0,0.0
0.0,0.0,0.0,0.0
0.0,0.0,0.0,0.0
35.853,2.314,-0.784,0.0
30.23,1.959,-0.832,0.0
26.491,1.723,-0.88,0.0
68.962,4.512,-0.401,3.0
0.0,0.0,0.0,0.0
0.0,0.0,0.0,0.0
34.96,2.312,-0.802,0.0
29.972,1.989,-0.858,0.0
25.699,1.712,-0.882,0.0
68.942,4.619,-0.478,3.0
0.0,0.0,0.0,0.0
0.0,0.0,0.0,0.0
33.259,2.251,-0.801,1.0
28.985,1.968,-0.862,1.0
24.85,1.693,-0.881,0.0
0.0,0.0,0.0,0.0
0.0,0.0,0.0,0.0
0.0,0.0,0.0,0.0
32.503,2.248,-0.819,1.0
28.0,1.943,-0.865,0.0
23.924,1.666,-0.876,0.0
0.0,0.0,0.0,0.0
0.0,0.0,0.0,0.0
37.559,2.645,-0.773,0.0
31.773,2.244,-0.838,0.0
27.172,1.925,-0.872,0.0
23.597,1.677,-0.891,0.0
0.0,0.0,0.0,0.0
0.0,0.0,0.0,0.0
0.0,0.0,0.0,0.0
30.131,2.172,-0.83,0.0
26.145,1.89,-0.87,0.0
21.915,1.589,-0.854,0.0
0.0,0.0,0.0,0.0
0.0,0.0,0.0,0.0
34.987,2.563,-0.803,0.0
29.822,2.191,-0.858,0.0
25.292,1.864,-0.872,0.0
21.809,1.612,-0.876,0.0
0.0,0.0,0.0,0.0
0.0,0.0,0.0,0.0
33.041,2.466,-0.799,0.0
28.468,2.13,-0.854,0.0
24.61,1.847,-0.879,0.0
21.774,1.638,-0.902,2.0
0.0,0.0,0.0,0.0
0.0,0.0,0.0,0.0
32.731,2.486,-0.832,0.0
27.579,2.1,-0.862,0.0
23.947,1.829,-0.885,0.0
21.524,1.648,-0.918,0.0
0.0,0.0,0.0,0.0
0.0,0.0,0.0,0.0
31.73,2.451,-0.847,0.0
26.631,2.062,-0.865,0.0
23.146,1.797,-0.884,0.0
20.584,1.602,-0.904,0.0
0.0,0.0,0.0,0.0
35.57,2.786,-0.791,0.0
29.672,2.329,-0.829,0.0
25.779,2.029,-0.87,0.0
21.867,1.725,-0.863,3.0
19.857,1.57,-0.898,0.0
0.0,0.0,0.0,0.0
33.084,2.632,-0.778,0.0
29.063,2.317,-0.85,0.0
24.645,1.969,-0.864,0.0
21.819,1.748,-0.89,8.0
19.532,1.568,-0.908,0.0
0.0,0.0,0.0,0.0
32.746,2.644,-0.813,1.0
27.853,2.253,-0.851,0.0
24.249,1.966,-0.882,1.0
21.772,1.769,-0.917,2.0
19.269,1.569,-0.922,0.0
37.569,3.07,-0.768,0.0
31.507,2.579,-0.824,0.0
26.951,2.211,-0.859,0.0
21.945,1.804,-0.827,0.0
21.213,1.748,-0.921,0.0
0.0,0.0,0.0,0.0
35.843,2.968,-0.78,0.0
30.313,2.515,-0.833,0.0
26.03,2.164,-0.864,0.0
21.9,1.824,-0.855,6.0
19.952,1.665,-0.893,0.0
18.121,1.516,-0.915,0.0
33.158,2.781,-0.766,0.0
29.244,2.457,-0.843,0.0
25.112,2.114,-0.868,0.0
21.829,1.841,-0.881,7.0
19.625,1.659,-0.905,0.0
17.737,1.502,-0.92,0.0
32.751,2.78,-0.801,1.0
28.058,2.386,-0.846,0.0
24.276,2.068,-0.871,1.0
21.788,1.86,-0.909,3.0
19.33,1.653,-0.918,0.0
17.241,1.477,-0.917,0.0
31.3,2.688,-0.808,0.0
27.156,2.336,-0.856,0.0
23.736,2.045,-0.884,0.0
20.98,1.811,-0.904,0.0
18.799,1.626,-0.918,0.0
17.015,1.474,-0.929,0.0
30.627,2.659,-0.832,1.0
26.158,2.275,-0.861,0.0
21.911,1.908,-0.846,3.0
20.457,1.785,-0.91,0.0
18.12,1.584,-0.91,0.0
16.47,1.442,-0.922,0.0
29.291,2.569,-0.836,0.0
25.176,2.212,-0.863,0.0
21.842,1.922,-0.874,8.0
19.529,1.721,-0.896,0.0
17.751,1.567,-0.916,0.0
16.172,1.43,-0.928,0.0
28.105,2.49,-0.841,0.0
24.357,2.161,-0.869,1.0
21.802,1.937,-0.903,3.0
19.323,1.719,-0.913,0.0
17.301,1.542,-0.917,0.0
15.843,1.414,-0.931,0.0
27.24,2.435,-0.854,0.0
23.798,2.13,-0.882,0.0
21.152,1.896,-0.906,0.0
18.739,1.682,-0.912,0.0
16.965,1.525,-0.923,0.0
15.461,1.392,-0.93,0.0
26.178,2.361,-0.857,0.0
21.987,1.985,-0.846,0.0
0.0,0.0,0.0,0.0
18.193,1.647,-0.911,0.0
16.477,1.494,-0.92,0.0
15.093,1.37,-0.929,0.0
25.143,2.285,-0.858,0.0
21.834,1.987,-0.87,0.0
19.561,1.782,-0.892,0.0
17.672,1.612,-0.909,0.0
16.116,1.472,-0.922,0.0
14.838,1.357,-0.934,0.0
24.329,2.228,-0.864,0.0
21.767,1.996,-0.898,1.0
19.372,1.778,-0.911,0.0
17.271,1.587,-0.913,0.0
15.853,1.459,-0.929,0.0
14.552,1.341,-0.937,0.0
23.661,2.182,-0.873,0.0
20.948,1.934,-0.893,0.0
18.735,1.731,-0.907,0.0
16.961,1.569,-0.92,0.0
15.469,1.433,-0.928,0.0
14.276,1.324,-0.939,0.0
22.17,2.057,-0.849,0.0
20.558,1.91,-0.906,0.0
18.266,1.699,-0.91,0.0
16.552,1.541,-0.921,0.0
15.073,1.405,-0.926,0.0
14.024,1.309,-0.942,0.0
21.807,2.035,-0.866,0.0
19.718,1.842,-0.896,0.0
17.794,1.664,-0.911,0.0
16.137,1.511,-0.921,0.0
14.825,1.389,-0.931,0.0
13.673,1.283,-0.938,0.0
21.746,2.041,-0.894,1.0
19.366,1.819,-0.907,0.0
17.315,1.628,-0.911,0.0
15.83,1.49,-0.925,0.0
14.585,1.374,-0.937,0.0
13.401,1.264,-0.938,0.0
21.062,1.986,-0.895,0.0
18.947,1.788,-0.914,0.0
17.04,1.61,-0.92,0.0
15.493,1.465,-0.927,0.0
14.289,1.352,-0.938,0.0
13.216,1.252,-0.943,0.0
20.396,1.932,-0.895,0.0
18.04,1.71,-0.895,0.0
16.592,1.574,-0.919,0.0
15.124,1.436,-0.926,0.0
14.014,1.332,-0.939,0.0
12.925,1.229,-0.941,0.0
19.675,1.871,-0.891,0.0
17.787,1.693,-0.908,1.0
16.201,1.543,-0.92,0.0
14.878,1.418,-0.932,0.0
0.0,0.0,0.0,0.0
12.672,1.21,-0.94,0.0
19.371,1.848,-0.904,0.0
17.588,1.679,-0.922,0.0
15.867,1.516,-0.923,0.0
14.611,1.397,-0.935,0.0
13.458,1.288,-0.939,0.0
12.437,1.191,-0.94,0.0
18.882,1.807,-0.907,0.0
17.063,1.634,-0.918,0.0
15.549,1.49,-0.926,0.0
14.341,1.375,-0.938,0.0
13.231,1.269,-0.942,0.0
12.223,1.174,-0.941,0.0
18.089,1.735,-0.893,0.0
16.654,1.598,-0.919,0.0
15.149,1.455,-0.923,0.0
14.228,1.367,-0.95,0.0
13.004,1.25,-0.943,0.0
11.954,1.15,-0.936,0.0
17.824,1.713,-0.905,1.0
16.272,1.565,-0.919,0.0
14.916,1.435,-0.929,0.0
13.855,1.334,-0.944,0.0
12.731,1.226,-0.941,0.0
11.829,1.14,-0.943,0.0
17.68,1.702,-0.921,1.0
15.926,1.534,-0.921,0.0
14.641,1.411,-0.931,0.0
13.456,1.297,-0.935,0.0
12.503,1.206,-0.941,0.0
11.632,1.123,-0.943,0.0
17.166,1.654,-0.917,0.0
15.645,1.508,-0.926,0.0
14.357,1.385,-0.932,0.0
13.251,1.279,-0.938,0.0
12.279,1.186,-0.94,0.0
11.444,1.106,-0.943,0.0
16.736,1.614,-0.916,0.0
15.217,1.468,-0.921,0.0
14.3,1.38,-0.948,0.0
12.988,1.254,-0.937,0.0
12.002,1.159,-0.935,0.0
11.287,1.091,-0.945,0.0
16.328,1.575,-0.916,0.0
14.944,1.442,-0.924,0.0
0.0,0.0,0.0,0.0
12.796,1.235,-0.94,0.0
11.844,1.144,-0.938,0.0
11.118,1.074,-0.945,0.0
16.012,1.544,-0.918,0.0
14.708,1.419,-0.928,0.0
13.611,1.313,-0.937,0.0
12.568,1.213,-0.939,0.0
11.666,1.126,-0.939,0.0
10.917,1.054,-0.942,0.0
15.772,1.52,-0.925,0.0
14.479,1.396,-0.932,0.0
13.367,1.289,-0.938,0.0
12.364,1.192,-0.94,0.0
11.508,1.11,-0.941,0.0
10.796,1.042,-0.945,0.0
15.384,1.481,-0.922,0.0
14.321,1.379,-0.94,0.0
13.134,1.265,-0.938,0.0
12.127,1.168,-0.937,0.0
11.33,1.091,-0.941,0.0
10.64,1.025,-0.945,0.0
15.058,1.447,-0.921,0.0
14.09,1.354,-0.942,0.0
12.964,1.246,-0.942,0.0
11.898,1.144,-0.934,0.0
11.207,1.077,-0.945,0.0
10.502,1.01,-0.946,0.0
14.858,1.425,-0.927,0.0
13.612,1.306,-0.927,0.0
12.709,1.219,-0.939,0.0
11.827,1.134,-0.943,0.0
11.04,1.059,-0.944,0.0
10.378,0.996,-0.947,0.0
14.638,1.401,-0.93,0.0
13.5,1.292,-0.936,0.0
12.485,1.194,-0.937,0.0
11.598,1.11,-0.939,0.0
10.869,1.04,-0.942,0.0
10.208,0.977,-0.944,0.0
14.404,1.374,-0.933,0.0
13.331,1.272,-0.94,0.0
12.335,1.176,-0.941,0.0
11.45,1.092,-0.94,0.0
10.768,1.027,-0.947,0.0
10.087,0.962,-0.945,0.0
14.231,1.353,-0.938,0.0
13.04,1.24,-0.935,0.0
12.088,1.149,-0.936,0.0
11.299,1.074,-0.941,0.0
10.616,1.009,-0.945,0.0
9.964,0.947,-0.945,0.0
0.0,0.0,0.0,0.0
12.89,1.221,-0.939,0.0
11.913,1.128,-0.936,0.0
11.139,1.054,-0.941,0.0
10.516,0.995,-0.949,0.0
9.839,0.931,-0.945,0.0
13.652,1.288,-0.931,0.0
12.636,1.191,-0.934,0.0
11.794,1.112,-0.94,0.0
11.033,1.04,-0.944,0.0
10.317,0.972,-0.942,0.0
9.739,0.917,-0.946,0.0
13.462,1.264,-0.933,0.0
12.497,1.173,-0.938,0.0
11.631,1.091,-0.94,0.0
10.931,1.025,-0.947,0.0
10.19,0.955,-0.942,0.0
9.65,0.905,-0.948,0.0
13.334,1.245,-0.938,0.0
12.327,1.151,-0.938,0.0
11.471,1.071,-0.939,0.0
10.744,1.002,-0.943,0.0
10.12,0.944,-0.946,0.0
9.525,0.888,-0.946,0.0
13.108,1.217,-0.936,0.0
12.112,1.124,-0.935,0.0
11.362,1.054,-0.942,0.0
10.66,0.989,-0.946,0.0
10.025,0.929,-0.948,0.0
9.423,0.873,-0.945,0.0
12.909,1.192,-0.935,0.0
11.934,1.101,-0.933,0.0
11.235,1.036,-0.943,0.0
0.0,0.0,0.0,0.0
9.88,0.91,-0.944,0.0
9.314,0.858,-0.944,0.0
12.7,1.165,-0.933,0.0
11.862,1.087,-0.939,0.0
11.16,1.023,-0.948,0.0
0.0,0.0,0.0,0.0
9.779,0.895,-0.944,0.0
9.224,0.844,-0.944,0.0
12.607,1.149,-0.938,0.0
11.717,1.067,-0.939,0.0
10.986,1.0,-0.943,0.0
0.0,0.0,0.0,0.0
9.685,0.88,-0.944,0.0
9.134,0.83,-0.943,0.0
12.426,1.124,-0.936,0.0
11.568,1.046,-0.938,0.0
10.813,0.977,-0.938,0.0
10.229,0.923,-0.948,0.0
9.578,0.864,-0.943,0.0
9.046,0.816,-0.942,0.0
12.272,1.101,-0.936,0.0
11.459,1.028,-0.939,0.0
10.715,0.96,-0.94,0.0
10.039,0.899,-0.939,0.0
9.502,0.85,-0.943,0.0
8.956,0.801,-0.941,0.0
12.172,1.083,-0.939,0.0
11.349,1.009,-0.94,0.0
10.639,0.945,-0.942,0.0
9.973,0.886,-0.941,0.0
9.401,0.834,-0.942,0.0
8.876,0.787,-0.94,0.0
12.003,1.059,-0.935,0.0
11.251,0.992,-0.941,0.0
10.581,0.932,-0.946,0.0
9.9,0.871,-0.943,0.0
9.361,0.823,-0.945,0.0
8.804,0.774,-0.94,0.0
11.87,1.038,-0.935,0.0
11.136,0.973,-0.941,0.0
0.0,0.0,0.0,0.0
9.865,0.86,-0.947,0.0
9.273,0.808,-0.944,0.0
8.731,0.76,-0.939,0.0
11.79,1.021,-0.937,0.0
11.04,0.955,-0.941,0.0
10.345,0.894,-0.941,0.0
9.743,0.841,-0.943,0.0
9.179,0.792,-0.941,0.0
8.713,0.751,-0.943,0.0
11.655,1.0,-0.935,0.0
10.923,0.936,-0.939,0.0
10.289,0.881,-0.943,0.0
9.664,0.826,-0.942,0.0
9.128,0.78,-0.942,0.0
8.674,0.74,-0.945,0.0
11.574,0.982,-0.937,0.0
10.873,0.922,-0.942,0.0
10.226,0.866,-0.944,0.0
9.6,0.812,-0.943,0.0
9.092,0.768,-0.945,0.0
8.615,0.727,-0.945,0.0
11.487,0.964,-0.937,0.0
0.0,0.0,0.0,0.0
10.144,0.85,-0.944,0.0
9.51,0.796,-0.94,0.0
9.012,0.753,-0.942,0.0
8.563,0.715,-0.945,0.0
11.395,0.946,-0.937,0.0
10.714,0.888,-0.942,0.0
10.052,0.832,-0.941,0.0
9.465,0.783,-0.941,0.0
8.938,0.738,-0.94,0.0
8.516,0.702,-0.945,0.0
11.371,0.933,-0.942,0.0
10.604,0.869,-0.939,0.0
9.986,0.817,-0.941,0.0
9.44,0.771,-0.944,0.0
8.862,0.723,-0.937,0.0
8.464,0.69,-0.944,0.0
11.306,0.916,-0.943,0.0
10.517,0.851,-0.937,0.0
9.958,0.804,-0.944,0.0
9.384,0.757,-0.944,0.0
8.871,0.715,-0.943,0.0
8.426,0.678,-0.944,0.0
11.23,0.898,-0.942,0.0
10.492,0.838,-0.94,0.0
9.898,0.789,-0.943,0.0
9.317,0.742,-0.942,0.0
8.833,0.702,-0.943,0.0
8.376,0.665,-0.943,0.0
11.148,0.88,-0.941,0.0
10.432,0.822,-0.94,0.0
9.818,0.772,-0.94,0.0
9.256,0.727,-0.94,0.0
8.806,0.691,-0.945,0.0
8.34,0.653,-0.942,0.0
11.156,0.868,-0.946,0.0
10.409,0.809,-0.942,0.0
9.815,0.761,-0.944,0.0
9.257,0.717,-0.944,0.0
8.771,0.678,-0.944,0.0
8.298,0.641,-0.941,0.0
11.037,0.847,-0.941,0.0
10.375,0.795,-0.943,0.0
9.754,0.746,-0.942,0.0
9.216,0.704,-0.943,0.0
8.752,0.667,-0.946,0.0
8.283,0.63,-0.942,0.0
11.03,0.834,-0.944,0.0
10.336,0.78,-0.943,0.0
9.698,0.731,-0.94,0.0
9.197,0.691,-0.945,0.0
8.709,0.654,-0.944,0.0
8.26,0.619,-0.942,0.0
10.941,0.815,-0.94,0.0
10.279,0.764,-0.941,0.0
9.687,0.718,-0.942,0.0
9.186,0.68,-0.946,0.0
8.676,0.641,-0.943,0.0
8.25,0.608,-0.944,0.0
10.914,0.8,-0.941,0.0
10.226,0.748,-0.939,0.0
9.705,0.708,-0.946,0.0
9.135,0.666,-0.943,0.0
8.658,0.63,-0.943,0.0
8.244,0.598,-0.945,0.0
10.933,0.788,-0.945,0.0
10.219,0.735,-0.941,0.0
9.666,0.694,-0.945,0.0
9.123,0.654,-0.944,0.0
8.655,0.619,-0.945,0.0
8.219,0.587,-0.944,0.0
10.902,0.773,-0.944,0.0
10.226,0.724,-0.943,0.0
9.644,0.681,-0.944,0.0
9.117,0.642,-0.945,0.0
8.638,0.607,-0.944,0.0
8.204,0.575,-0.944,0.0
10.838,0.755,-0.94,0.0
10.234,0.711,-0.946,0.0
9.621,0.667,-0.943,0.0
9.089,0.629,-0.943,0.0
8.628,0.596,-0.944,0.0
8.203,0.565,-0.944,0.0
10.855,0.743,-0.943,0.0
10.197,0.696,-0.943,0.0
9.615,0.655,-0.944,0.0
9.073,0.616,-0.942,0.0
8.627,0.585,-0.945,0.0
8.187,0.554,-0.943,0.0
10.852,0.729,-0.943,0.0
10.209,0.684,-0.945,0.0
9.605,0.642,-0.943,0.0
9.063,0.604,-0.942,0.0
8.61,0.573,-0.943,0.0
8.2,0.544,-0.945,0.0
10.885,0.717,-0.947,0.0
10.201,0.67,-0.944,0.0
9.611,0.63,-0.944,0.0
9.062,0.592,-0.942,0.0
8.588,0.56,-0.941,0.0
8.185,0.532,-0.943,0.0
10.787,0.697,-0.938,0.0
10.205,0.658,-0.944,0.0
9.624,0.618,-0.945,0.0
9.117,0.584,-0.947,0.0
8.641,0.552,-0.946,0.0
8.206,0.523,-0.945,0.0
10.866,0.688,-0.944,0.0
10.229,0.646,-0.946,0.0
9.623,0.606,-0.944,0.0
9.103,0.571,-0.945,0.0
8.61,0.539,-0.942,0.0
8.215,0.513,-0.945,0.0
10.858,0.673,-0.942,0.0
10.217,0.632,-0.944,0.0
9.623,0.593,-0.943,0.0
9.11,0.56,-0.944,0.0
8.611,0.528,-0.941,0.0
8.203,0.501,-0.943,0.0
10.838,0.658,-0.939,0.0
10.244,0.62,-0.944,0.0
9.655,0.582,-0.944,0.0
9.131,0.549,-0.945,0.0
8.637,0.518,-0.942,0.0
8.228,0.492,-0.944,0.0
10.952,0.65,-0.946,0.0
10.279,0.608,-0.946,0.0
9.688,0.571,-0.945,0.0
9.13,0.537,-0.943,0.0
8.675,0.508,-0.945,0.0
8.241,0.481,-0.944,0.0
11.015,0.639,-0.949,0.0
10.32,0.597,-0.947,0.0
9.706,0.559,-0.945,0.0
9.175,0.527,-0.945,0.0
8.698,0.498,-0.945,0.0
8.287,0.473,-0.946,0.0
11.041,0.626,-0.948,0.0
10.328,0.583,-0.944,0.0
9.756,0.549,-0.947,0.0
9.173,0.514,-0.942,0.0
8.723,0.488,-0.944,0.0
8.293,0.462,-0.944,0.0
11.059,0.612,-0.946,0.0
10.338,0.57,-0.942,0.0
9.786,0.538,-0.946,0.0
9.261,0.507,-0.948,0.0
8.744,0.477,-0.944,0.0
8.347,0.454,-0.948,0.0
11.038,0.596,-0.94,0.0
10.418,0.56,-0.945,0.0
9.802,0.525,-0.944,0.0
9.285,0.496,-0.947,0.0
8.765,0.466,-0.942,0.0
8.362,0.443,-0.946,0.0
11.13,0.586,-0.943,0.0
10.479,0.55,-0.946,0.0
9.858,0.515,-0.945,0.0
9.31,0.484,-0.945,0.0
8.823,0.457,-0.945,0.0
8.384,0.433,-0.944,0.0
11.199,0.574,-0.944,0.0
10.491,0.536,-0.943,0.0
9.923,0.505,-0.946,0.0
9.344,0.473,-0.944,0.0
8.851,0.447,-0.943,0.0
8.426,0.423,-0.945,0.0
11.22,0.56,-0.94,0.0
10.611,0.527,-0.948,0.0
9.976,0.494,-0.946,0.0
9.405,0.464,-0.945,0.0
8.928,0.438,-0.947,0.0
8.452,0.413,-0.943,0.0
11.345,0.551,-0.944,0.0
10.588,0.512,-0.94,0.0
10.021,0.482,-0.945,0.0
9.478,0.454,-0.947,0.0
8.961,0.428,-0.945,0.0
8.524,0.405,-0.946,0.0
11.407,0.538,-0.943,0.0
10.736,0.504,-0.946,0.0
10.114,0.473,-0.947,0.0
9.525,0.444,-0.946,0.0
9.009,0.418,-0.944,0.0
8.545,0.394,-0.943,0.0
11.466,0.526,-0.94,0.0
10.797,0.493,-0.945,0.0
10.164,0.462,-0.945,0.0
9.593,0.434,-0.946,0.0
9.079,0.409,-0.946,0.0
8.624,0.386,-0.946,0.0
11.565,0.515,-0.941,0.0
10.933,0.484,-0.949,0.0
10.269,0.453,-0.948,0.0
9.681,0.425,-0.948,0.0
9.154,0.399,-0.947,0.0
8.678,0.377,-0.945,0.0
11.675,0.504,-0.941,0.0
11.088,0.476,-0.955,0.0
10.344,0.442,-0.947,0.0
9.747,0.414,-0.947,0.0
9.209,0.389,-0.945,0.0
8.704,0.366,-0.942,0.0
11.772,0.492,-0.94,0.0
11.167,0.464,-0.953,0.0
10.394,0.43,-0.944,0.0
9.845,0.405,-0.949,0.0
9.294,0.381,-0.947,0.0
8.784,0.358,-0.943,0.0
11.93,0.483,-0.943,0.0
11.154,0.449,-0.942,0.0
10.495,0.42,-0.944,0.0
9.916,0.395,-0.947,0.0
9.378,0.371,-0.947,0.0
8.88,0.35,-0.946,0.0
12.101,0.473,-0.946,0.0
11.322,0.44,-0.947,0.0
10.613,0.411,-0.945,0.0
10.0,0.385,-0.946,0.0
9.448,0.361,-0.946,0.0
8.964,0.341,-0.946,0.0
12.212,0.462,-0.944,0.0
11.426,0.429,-0.945,0.0
10.735,0.401,-0.946,0.0
10.117,0.376,-0.948,0.0
9.554,0.353,-0.948,0.0
9.037,0.332,-0.946,0.0
12.379,0.451,-0.945,0.0
11.54,0.418,-0.944,0.0
10.731,0.387,-0.936,0.0
10.221,0.366,-0.948,0.0
9.662,0.344,-0.949,0.0
9.141,0.324,-0.948,0.0
12.563,0.442,-0.947,0.0
11.632,0.407,-0.94,0.0
11.007,0.382,-0.949,0.0
10.332,0.357,-0.948,0.0
9.756,0.335,-0.948,0.0
9.231,0.315,-0.947,0.0
12.747,0.432,-0.947,0.0
11.858,0.399,-0.946,0.0
11.124,0.372,-0.947,0.0
10.431,0.346,-0.946,0.0
9.886,0.326,-0.95,0.0
9.32,0.306,-0.947,0.0
12.916,0.421,-0.946,0.0
12.02,0.389,-0.946,0.0
11.251,0.362,-0.946,0.0
10.594,0.338,-0.949,0.0
10.001,0.317,-0.95,0.0
9.441,0.297,-0.948,0.0
13.065,0.409,-0.943,0.0
12.223,0.38,-0.948,0.0
11.389,0.351,-0.945,0.0
10.646,0.326,-0.942,0.0
10.122,0.308,-0.95,0.0
9.575,0.289,-0.951,0.0
13.348,0.401,-0.948,0.0
12.414,0.37,-0.948,0.0
11.546,0.342,-0.944,0.0
10.81,0.318,-0.943,0.0
10.282,0.3,-0.953,0.0
9.675,0.28,-0.949,0.0
13.508,0.389,-0.943,0.0
12.595,0.36,-0.947,0.0
11.718,0.333,-0.944,0.0
11.04,0.311,-0.95,0.0
10.408,0.291,-0.952,0.0
9.827,0.273,-0.952,0.0
13.846,0.382,-0.95,0.0
12.822,0.351,-0.949,0.0
11.927,0.324,-0.946,0.0
11.219,0.302,-0.952,0.0
10.574,0.283,-0.954,0.0
9.965,0.264,-0.953,0.0
14.107,0.372,-0.95,0.0
13.068,0.342,-0.95,0.0
12.14,0.315,-0.948,0.0
11.312,0.291,-0.945,0.0
10.662,0.272,-0.948,0.0
10.073,0.255,-0.95,0.0
14.369,0.362,-0.949,0.0
13.274,0.331,-0.948,0.0
12.353,0.306,-0.948,0.0
11.465,0.281,-0.943,0.0
10.877,0.265,-0.953,0.0
10.226,0.247,-0.951,0.0
14.574,0.35,-0.943,0.0
13.469,0.32,-0.944,0.0
12.545,0.296,-0.946,0.0
11.69,0.273,-0.945,0.0
11.048,0.256,-0.953,0.0
10.362,0.238,-0.949,0.0
14.859,0.339,-0.941,0.0
0.0,0.0,0.0,0.0
12.862,0.288,-0.952,0.0
11.965,0.266,-0.951,0.0
11.211,0.247,-0.951,0.0
10.528,0.23,-0.949,0.0
15.194,0.329,-0.941,0.0
14.21,0.305,-0.956,0.0
13.11,0.279,-0.952,0.0
12.196,0.257,-0.951,0.0
11.392,0.238,-0.95,0.0
10.723,0.222,-0.951,0.0
15.473,0.318,-0.936,0.0
14.431,0.294,-0.95,0.0
13.352,0.269,-0.95,0.0
12.436,0.248,-0.952,0.0
11.605,0.229,-0.95,0.0
10.927,0.214,-0.953,0.0
15.942,0.31,-0.941,0.0
14.695,0.283,-0.945,0.0
13.638,0.26,-0.949,0.0
12.698,0.24,-0.953,0.0
11.858,0.221,-0.953,0.0
11.159,0.206,-0.956,0.0
16.323,0.3,-0.938,0.0
15.004,0.273,-0.942,0.0
13.901,0.25,-0.946,0.0
12.946,0.231,-0.951,0.0
12.142,0.214,-0.957,0.0
11.279,0.197,-0.949,0.0
16.684,0.289,-0.933,0.0
15.395,0.264,-0.942,0.0
14.349,0.243,-0.954,0.0
13.256,0.222,-0.953,0.0
12.322,0.204,-0.951,0.0
11.539,0.189,-0.952,0.0
17.035,0.278,-0.926,0.0
15.75,0.254,-0.939,0.0
14.635,0.233,-0.95,0.0
13.455,0.212,-0.946,0.0
12.638,0.197,-0.955,0.0
11.734,0.18,-0.949,0.0
17.731,0.271,-0.935,0.0
16.269,0.246,-0.944,0.0
14.907,0.223,-0.943,0.0
0.0,0.0,0.0,0.0
12.877,0.188,-0.952,0.0
12.048,0.173,-0.954,0.0
18.401,0.263,-0.94,1.0
16.587,0.235,-0.934,0.0
15.323,0.214,-0.944,0.0
14.276,0.197,-0.956,0.0
13.234,0.18,-0.956,0.0
12.323,0.166,-0.956,0.0
18.517,0.248,-0.915,21.0
17.165,0.227,-0.938,0.0
15.703,0.204,-0.941,0.0
14.564,0.187,-0.951,0.0
13.487,0.171,-0.951,0.0
12.561,0.157,-0.953,0.0
18.557,0.231,-0.885,6.0
17.692,0.217,-0.937,2.0
16.281,0.197,-0.948,0.0
14.892,0.178,-0.947,0.0
20.207,0.238,-1.391,0.0
12.884,0.15,-0.955,0.0
18.549,0.214,-0.853,13.0
18.349,0.209,-0.94,3.0
16.624,0.187,-0.939,0.0
15.308,0.169,-0.946,0.0
20.181,0.22,-1.354,0.0
13.232,0.142,-0.957,0.0
18.564,0.199,-0.821,150.0
18.508,0.195,-0.916,35.0
18.374,0.191,-1.005,3.0
15.733,0.161,-0.945,0.0
14.598,0.147,-0.953,0.0
13.5,0.134,-0.952,0.0
18.508,0.183,-0.786,160.0
18.548,0.18,-0.885,88.0
18.283,0.175,-0.967,3.0
16.251,0.153,-0.947,0.0
14.944,0.138,-0.949,0.0
18.573,0.169,-1.277,1.0
18.513,0.168,-0.752,177.0
18.547,0.165,-0.85,75.0
18.483,0.162,-0.944,5.0
18.546,0.16,-1.046,0.0
15.388,0.13,-0.948,0.0
18.547,0.154,-1.24,1.0
18.549,0.153,-0.719,154.0
18.541,0.151,-0.816,153.0
18.513,0.148,-0.911,50.0
18.444,0.145,-1.006,4.0
15.859,0.122,-0.948,0.0
14.653,0.111,-0.952,0.0
21.642,0.163,-0.799,152.0
18.508,0.137,-0.78,156.0
18.539,0.134,-0.878,29.0
18.46,0.131,-0.972,1.0
16.394,0.114,-0.949,0.0
15.04,0.103,-0.949,0.0
21.583,0.147,-0.756,185.0
21.588,0.144,-0.869,57.0
18.544,0.121,-0.843,11.0
18.471,0.118,-0.938,12.0
16.841,0.106,-0.943,0.0
15.526,0.095,-0.95,0.0
21.633,0.133,-0.717,159.0
21.666,0.13,-0.831,150.0
21.59,0.127,-0.94,78.0
18.5,0.106,-0.904,11.0
17.803,0.1,-0.962,0.0
16.027,0.088,-0.95,1.0
21.672,0.119,-0.676,20.0
21.649,0.116,-0.788,155.0
21.628,0.113,-0.9,150.0
0.0,0.0,0.0,0.0
18.384,0.092,-0.957,0.0
16.54,0.08,-0.947,0.0
30.326,0.147,-0.887,0.0
21.682,0.103,-0.746,152.0
21.649,0.1,-0.858,41.0
20.267,0.091,-0.91,14.0
18.528,0.081,-0.928,3.0
17.009,0.073,-0.94,0.0
31.812,0.136,-0.867,2.0
21.645,0.09,-0.702,1.0
21.673,0.088,-0.816,4.0
21.614,0.085,-0.928,72.0
0.0,0.0,0.0,0.0
17.673,0.066,-0.942,0.0
33.282,0.124,-0.841,4.0
0.0,0.0,0.0,0.0
21.644,0.076,-0.771,1.0
21.477,0.073,-0.879,6.0
20.24,0.067,-0.933,8.0
18.416,0.059,-0.944,0.0
20.199,0.064,-0.47,0.0
20.203,0.062,-0.574,0.0
20.238,0.061,-0.68,0.0
20.235,0.059,-0.787,2.0
20.236,0.057,-0.892,19.0
19.938,0.054,-0.982,1.0
20.25,0.055,-0.43,2.0
33.206,0.087,-0.877,4.0
20.239,0.051,-0.639,14.0
20.226,0.049,-0.745,15.0
20.273,0.048,-0.852,63.0
20.172,0.046,-0.952,2.0
20.258,0.046,-0.389,41.0
20.264,0.044,-0.494,56.0
20.266,0.042,-0.599,74.0
20.26,0.041,-0.705,73.0
20.273,0.039,-0.811,150.0
20.212,0.037,-0.913,9.0
20.27,0.037,-0.347,150.0
20.266,0.036,-0.452,150.0
20.265,0.034,-0.556,150.0
20.253,0.033,-0.663,150.0
20.257,0.031,-0.767,131.0
20.253,0.03,-0.872,45.0
20.26,0.03,-0.305,151.0
20.265,0.028,-0.41,151.0
20.262,0.027,-0.515,150.0
20.258,0.025,-0.621,150.0
20.262,0.024,-0.726,150.0
20.267,0.023,-0.831,70.0
20.269,0.023,-0.263,151.0
20.264,0.022,-0.368,151.0
20.261,0.02,-0.472,150.0
20.27,0.019,-0.579,75.0
20.247,0.018,-0.683,49.0
20.254,0.016,-0.787,28.0
20.257,0.017,-0.22,151.0
20.272,0.015,-0.325,150.0
20.253,0.014,-0.429,54.0
20.257,0.013,-0.536,26.0
20.233,0.012,-0.639,11.0
20.234,0.011,-0.744,6.0
20.274,0.011,-0.178,86.0
20.253,0.01,-0.282,45.0
20.237,0.009,-0.386,12.0
20.226,0.008,-0.492,6.0
20.232,0.007,-0.596,4.0
20.248,0.006,-0.702,2.0
20.264,0.006,-0.135,26.0
20.241,0.006,-0.239,11.0
20.24,0.005,-0.344,5.0
20.228,0.004,-0.449,3.0
20.247,0.003,-0.554,2.0
20.228,0.002,-0.658,1.0
20.236,0.002,-0.092,25.0
20.219,0.002,-0.196,10.0
20.26,0.001,-0.301,3.0
20.221,0.0,-0.406,2.0
20.224,0.0,-0.51,1.0
20.242,0.0,-0.615,0.0
20.219,0.0,-0.049,19.0
20.199,0.0,-0.153,16.0
20.209,-0.001,-0.257,7.0
20.225,-0.001,-0.363,0.0
20.252,-0.002,-0.468,0.0
32.217,-0.004,-0.91,2.0
20.179,-0.002,-0.006,14.0
20.179,-0.003,-0.11,17.0
20.228,-0.003,-0.214,3.0
20.23,-0.003,-0.32,0.0
20.235,-0.004,-0.424,0.0
32.37,-0.007,-0.846,1.0
20.137,-0.004,0.036,19.0
20.196,-0.004,-0.066,16.0
20.183,-0.004,-0.17,12.0
20.19,-0.005,-0.276,6.0
41.572,-0.011,-0.783,2.0
20.239,-0.005,-0.485,0.0
20.137,-0.005,0.08,35.0
20.162,-0.005,-0.023,13.0
20.17,-0.005,-0.127,17.0
20.194,-0.005,-0.232,2.0
46.666,-0.013,-0.778,2.0
20.201,-0.005,-0.441,0.0
20.131,-0.005,0.123,32.0
20.15,-0.005,0.019,16.0
20.183,-0.005,-0.084,16.0
20.175,-0.005,-0.19,9.0
20.189,-0.005,-0.293,3.0
41.639,-0.01,-0.82,2.0
20.121,-0.004,0.165,29.0
20.13,-0.004,0.062,30.0
20.161,-0.004,-0.04,13.0
20.159,-0.004,-0.146,15.0
20.19,-0.004,-0.25,5.0
20.26,-0.003,-0.355,0.0
20.123,-0.003,0.209,28.0
20.128,-0.003,0.106,32.0
20.18,-0.002,0.002,13.0
20.181,-0.002,-0.103,16.0
20.22,-0.002,-0.207,5.0
20.234,-0.001,-0.311,1.0
20.128,-0.001,0.252,26.0
20.128,0.0,0.149,27.0
20.157,0.0,0.045,24.0
20.199,0.0,-0.059,18.0
20.201,0.0,-0.163,15.0
20.222,0.0,-0.267,8.0
20.122,0.001,0.296,28.0
20.116,0.002,0.192,28.0
20.128,0.002,0.089,30.0
20.262,0.003,-0.016,21.0
20.221,0.003,-0.12,19.0
20.229,0.004,-0.224,10.0
20.13,0.005,0.339,27.0
20.118,0.005,0.235,26.0
20.119,0.006,0.131,28.0
20.242,0.007,0.026,43.0
20.271,0.008,-0.077,150.0
20.262,0.008,-0.181,60.0
20.13,0.009,0.382,27.0
20.125,0.01,0.278,28.0
20.128,0.011,0.174,27.0
20.15,0.012,0.069,33.0
20.219,0.013,-0.034,153.0
20.264,0.014,-0.138,150.0
20.142,0.014,0.425,28.0
20.13,0.015,0.321,25.0
20.122,0.016,0.217,26.0
20.13,0.017,0.112,28.0
20.26,0.018,0.008,151.0
20.264,0.019,-0.095,151.0
20.14,0.02,0.468,29.0
20.132,0.021,0.364,26.0
20.133,0.022,0.26,27.0
20.119,0.023,0.154,25.0
20.179,0.025,0.051,36.0
20.25,0.026,-0.053,151.0
20.157,0.026,0.51,25.0
20.145,0.028,0.406,28.0
20.128,0.029,0.302,27.0
20.125,0.03,0.197,27.0
20.136,0.032,0.093,28.0
20.259,0.033,-0.009,150.0
20.17,0.034,0.553,27.0
20.143,0.035,0.449,28.0
20.134,0.037,0.345,26.0
20.128,0.038,0.239,27.0
20.135,0.04,0.136,26.0
20.261,0.041,0.032,10.0
20.192,0.042,0.597,34.0
20.148,0.043,0.491,23.0
20.145,0.045,0.388,27.0
20.137,0.047,0.281,28.0
20.135,0.048,0.178,27.0
20.151,0.05,0.074,24.0
20.208,0.051,0.64,38.0
20.168,0.052,0.534,26.0
20.144,0.054,0.429,28.0
20.135,0.056,0.323,28.0
20.137,0.058,0.22,28.0
20.146,0.059,0.116,26.0
20.177,0.06,0.68,27.0
20.182,0.062,0.576,30.0
20.151,0.064,0.471,25.0
20.143,0.066,0.365,26.0
20.137,0.068,0.261,25.0
20.145,0.07,0.157,29.0
20.135,0.07,0.721,32.0
20.212,0.073,0.619,24.0
20.161,0.074,0.513,22.0
20.139,0.076,0.407,29.0
20.151,0.078,0.303,25.0
20.152,0.081,0.199,27.0
20.141,0.081,0.762,26.0
20.213,0.084,0.66,13.0
20.175,0.086,0.555,27.0
20.145,0.088,0.448,28.0
20.149,0.09,0.344,27.0
20.153,0.092,0.24,26.0
20.134,0.093,0.804,22.0
20.148,0.095,0.7,8.0
20.197,0.098,0.597,20.0
20.158,0.1,0.489,22.0
20.151,0.102,0.385,27.0
20.155,0.105,0.281,29.0
20.145,0.106,0.845,17.0
20.144,0.108,0.74,12.0
20.239,0.111,0.639,4.0
20.184,0.113,0.531,24.0
20.156,0.115,0.425,27.0
20.151,0.117,0.321,27.0
20.138,0.119,0.885,1.0
20.176,0.121,0.782,3.0
102.561,0.631,3.445,50.0
20.184,0.126,0.571,16.0
20.166,0.129,0.466,22.0
20.164,0.131,0.361,25.0
101.752,0.67,4.674,25.0
101.943,0.684,4.154,36.0
111.721,0.764,3.972,24.0
20.214,0.141,0.611,8.0
20.187,0.143,0.506,20.0
20.169,0.146,0.401,25.0
65.839,0.48,3.155,46.0
110.091,0.818,4.702,8.0
111.728,0.845,4.191,20.0
117.653,0.906,3.79,22.0
20.191,0.158,0.545,15.0
20.178,0.16,0.44,22.0
65.859,0.529,3.284,36.0
102.038,0.835,4.556,32.0
0.0,0.0,0.0,0.0
126.241,1.069,4.312,30.0
20.266,0.174,0.587,16.0
20.253,0.177,0.481,26.0
65.894,0.582,3.414,36.0
102.101,0.916,4.758,20.0
0.0,0.0,0.0,0.0
150.326,1.393,5.421,16.0
20.285,0.191,0.626,3.0
20.266,0.193,0.52,30.0
66.369,0.64,3.564,45.0
102.065,0.999,4.949,25.0
111.632,1.11,4.83,21.0
126.658,1.278,4.807,27.0
103.05,1.055,3.374,15.0
20.261,0.21,0.558,18.0
67.095,0.703,3.73,34.0
102.077,1.086,5.142,16.0
111.587,1.204,5.038,28.0
126.678,1.388,5.045,25.0
103.576,1.151,3.586,21.0
20.279,0.228,0.596,9.0
67.233,0.764,3.864,12.0
66.046,0.761,3.45,13.0
111.519,1.303,5.242,15.0
124.901,1.48,5.207,15.0
103.999,1.249,3.793,19.0
118.066,1.438,3.688,11.0
67.41,0.827,3.999,3.0
66.078,0.821,3.573,27.0
111.588,1.406,5.45,8.0
110.286,1.409,4.799,17.0
103.955,1.345,3.98,17.0
118.267,1.55,3.908,15.0
67.544,0.892,4.129,17.0
66.8,0.893,3.733,44.0
69.315,0.939,3.511,9.0
69.316,0.951,3.14,7.0
103.892,1.443,4.162,22.0
118.442,1.666,4.127,21.0
101.91,1.444,6.414,9.0
67.489,0.968,3.892,3.0
101.86,1.479,5.34,5.0
69.336,1.019,3.265,7.0
103.923,1.546,4.347,15.0
118.522,1.784,4.337,30.0
67.61,1.026,4.375,12.0
67.558,1.036,4.016,13.0
66.227,1.028,3.587,5.0
110.396,1.734,5.39,9.0
103.571,1.645,4.513,38.0
118.521,1.905,4.542,10.0
67.691,1.096,4.497,16.0
67.562,1.106,4.133,22.0
66.205,1.096,3.701,3.0
69.872,1.17,3.531,3.0
103.598,1.754,4.692,27.0
118.574,2.03,4.747,15.0
67.638,1.166,4.61,27.0
0.0,0.0,0.0,0.0
66.229,1.167,3.815,19.0
103.69,1.847,5.417,7.0
103.775,1.869,4.876,17.0
118.262,2.153,4.935,8.0
67.589,1.239,4.721,22.0
67.583,1.252,4.363,6.0
66.213,1.239,3.925,28.0
104.003,1.966,5.607,12.0
69.204,1.322,3.366,11.0
118.291,2.283,5.13,12.0
67.626,1.314,4.835,29.0
67.736,1.329,4.485,5.0
66.231,1.312,4.034,32.0
104.14,2.084,5.782,6.0
103.652,2.095,5.207,9.0
118.221,2.414,5.316,11.0
67.496,1.387,4.935,20.0
66.281,1.376,4.495,36.0
66.243,1.388,4.142,25.0
110.028,2.329,6.285,7.0
103.61,2.213,5.371,5.0
118.379,2.552,5.51,9.0
52.912,1.149,3.953,2.0
0.0,0.0,0.0,0.0
66.129,1.462,4.238,24.0
68.942,1.538,4.046,9.0
68.639,1.546,3.664,7.0
69.268,1.575,3.332,1.0
67.237,1.539,5.128,16.0
67.949,1.569,4.82,12.0
66.052,1.539,4.334,7.0
117.64,2.764,7.083,6.0
110.198,2.612,6.051,6.0
103.8,2.482,5.148,5.0
66.429,1.6,5.166,15.0
65.949,1.601,4.777,9.0
53.517,1.31,3.591,16.0
67.487,1.666,4.163,3.0
69.244,1.724,3.902,2.0
103.873,2.608,5.303,9.0
52.143,1.318,4.132,12.0
65.966,1.682,4.876,22.0
53.775,1.382,3.687,3.0
68.751,1.781,4.341,3.0
69.327,1.811,4.008,4.0
103.827,2.734,5.45,9.0
52.102,1.382,4.204,14.0
52.526,1.404,3.957,11.0
67.929,1.83,4.754,10.0
104.651,2.842,6.756,3.0
101.239,2.772,5.997,5.0
69.115,1.907,3.726,2.0
43.674,1.214,3.586,3.0
52.52,1.471,4.032,14.0
53.0,1.495,3.784,5.0
68.937,1.96,4.547,8.0
67.49,1.934,4.092,6.0
103.782,2.996,5.737,6.0
51.191,1.488,4.274,4.0
52.079,1.525,4.069,5.0
68.351,2.016,4.974,2.0
69.122,2.054,4.653,11.0
103.112,3.087,6.389,4.0
69.212,2.087,3.919,6.0
50.641,1.538,4.296,8.0
58.061,1.775,4.613,5.0
68.154,2.098,5.049,2.0
67.493,2.093,4.631,7.0
68.18,2.129,4.312,6.0
103.689,3.26,6.003,6.0
52.55,1.663,4.525,9.0
43.712,1.393,3.529,4.0
68.102,2.185,5.131,2.0
68.377,2.209,4.778,26.0
68.725,2.236,4.433,7.0
67.432,2.209,3.988,3.0
52.361,1.727,4.575,10.0
50.788,1.686,4.163,4.0
51.939,1.735,3.977,7.0
68.504,2.303,4.87,5.0
68.794,2.329,4.52,7.0
67.646,2.305,4.082,2.0
52.253,1.792,4.628,10.0
0.0,0.0,0.0,0.0
43.695,1.518,3.398,3.0
68.522,2.397,4.953,4.0
68.823,2.422,4.605,6.0
68.398,2.423,4.208,7.0
46.933,1.674,4.213,5.0
46.999,1.687,3.965,6.0
52.161,1.884,4.118,24.0
237.298,8.625,17.43,8.0
67.202,2.458,4.574,5.0
68.589,2.523,4.299,8.0
53.154,1.969,4.833,21.0
46.913,1.748,4.011,4.0
65.671,2.461,5.259,1.0
51.752,1.951,3.858,8.0
67.352,2.555,4.658,8.0
68.64,2.619,4.377,2.0
46.086,1.771,4.241,5.0
46.937,1.814,4.064,7.0
47.108,1.831,3.823,8.0
51.669,2.019,3.908,5.0
67.974,2.672,4.773,5.0
68.825,2.722,4.461,4.0
46.1,1.835,4.291,7.0
47.009,1.882,4.12,7.0
52.851,2.127,4.344,20.0
47.255,1.913,3.623,1.0
68.434,2.785,4.876,3.0
69.244,2.835,4.559,2.0
46.068,1.899,4.335,5.0
53.248,2.206,4.721,2.0
43.564,1.815,3.625,3.0
47.211,1.977,3.667,5.0
47.566,2.003,3.436,2.0
203.453,8.615,13.593,18.0
43.506,1.854,4.136,3.0
53.645,2.298,4.808,5.0
47.06,2.026,3.96,4.0
68.157,2.95,5.358,8.0
47.327,2.059,3.463,2.0
67.674,2.96,4.584,9.0
52.462,2.31,5.037,4.0
59.506,2.634,5.388,6.0
47.048,2.093,4.003,11.0
52.686,2.356,4.19,7.0
47.396,2.129,3.511,3.0
66.789,3.016,4.585,3.0
52.534,2.389,5.091,4.0
45.218,2.066,4.134,9.0
47.057,2.16,4.045,13.0
52.788,2.435,4.244,4.0
51.581,2.392,3.865,2.0
47.311,2.204,3.288,3.0
52.46,2.461,5.129,4.0
50.387,2.375,4.65,3.0
47.086,2.23,4.087,3.0
52.702,2.507,4.281,2.0
69.048,3.301,5.231,2.0
66.57,3.197,4.68,1.0
45.689,2.21,4.504,5.0
45.992,2.234,4.281,7.0
45.722,2.231,4.005,1.0
47.118,2.309,3.864,4.0
240.923,11.861,18.44,23.0
66.634,3.296,4.736,3.0
45.678,2.275,4.538,4.0
45.983,2.3,4.315,9.0
53.03,2.665,4.685,2.0
47.125,2.378,3.9,9.0
47.177,2.391,3.645,1.0
66.703,3.395,4.789,1.0
52.839,2.709,5.288,5.0
45.924,2.364,4.342,10.0
53.219,2.751,4.739,2.0
47.136,2.447,3.934,5.0
241.631,12.596,18.84,20.0
66.313,3.472,4.806,1.0
52.37,2.76,5.277,3.0
45.887,2.428,4.37,10.0
45.958,2.442,4.123,8.0
47.151,2.515,3.965,1.0
241.99,12.962,19.02,21.0
242.099,13.022,17.7,24.0
52.437,2.84,5.317,1.0
45.851,2.493,4.395,11.0
45.863,2.503,4.143,5.0
47.323,2.593,4.009,6.0
47.142,2.594,3.734,4.0
47.365,2.616,3.491,1.0
45.773,2.556,4.415,15.0
46.043,2.59,3.927,4.0
47.221,2.667,3.766,4.0
47.392,2.686,3.519,11.0
45.622,2.613,4.425,8.0
46.185,2.665,3.963,6.0
47.22,2.734,3.791,4.0
46.999,2.732,3.513,1.0
45.465,2.661,4.685,3.0
45.688,2.683,4.454,4.0
45.89,2.704,4.219,2.0
45.818,2.71,3.953,5.0
47.159,2.799,3.808,3.0
243.67,14.514,18.332,23.0
45.805,2.756,4.486,5.0
0.0,0.0,0.0,0.0
47.4,2.872,4.111,1.0
46.331,2.817,3.761,3.0
244.018,14.889,18.459,24.0
45.788,2.821,4.503,4.0
45.534,2.815,4.224,1.0
47.453,2.943,4.134,3.0
47.245,2.94,3.853,4.0
244.339,15.257,18.574,12.0
45.728,2.883,4.514,1.0
45.562,2.882,4.243,3.0
47.303,3.001,4.137,6.0
45.758,2.913,3.747,0.0
244.732,15.63,18.686,24.0
45.78,2.953,4.533,1.0
45.58,2.948,4.259,3.0
46.096,2.99,4.045,1.0
45.876,2.985,3.771,3.0
245.188,16.008,18.791,16.0
45.767,3.042,3.773,2.0
46.227,3.082,3.554,1.0
45.141,3.038,4.493,3.0
47.781,3.225,4.488,2.0
47.513,3.234,3.662,1.0
46.242,3.169,4.871,1.0
45.662,3.137,4.553,8.0
45.707,3.148,4.301,3.0
246.323,17.11,19.025,28.0
46.191,3.229,4.873,1.0
45.411,3.183,4.534,2.0
246.788,17.483,19.088,14.0
46.223,3.295,4.881,1.0
45.399,3.245,4.538,4.0
47.357,3.393,4.467,1.0
45.599,3.275,4.041,2.0
116.762,8.408,9.693,3.0
247.022,17.836,19.123,10.0
46.315,3.366,4.893,0.0
45.573,3.32,4.558,2.0
47.371,3.458,4.471,2.0
107.842,7.93,8.351,7.0
0.0,0.0,0.0,0.0
45.549,3.379,4.556,4.0
247.764,18.55,19.184,8.0
0.0,0.0,0.0,0.0
45.549,3.439,4.554,1.0
110.104,8.368,9.137,2.0
107.314,8.174,8.303,4.0
0.0,0.0,0.0,0.0
45.677,3.531,3.786,5.0
110.191,8.538,8.514,7.0
0.0,0.0,0.0,0.0
114.494,8.98,10.121,5.0
107.445,8.463,8.286,2.0
45.348,3.594,4.776,4.0
116.039,9.23,10.905,5.0
112.233,8.945,9.901,4.0
108.225,8.643,8.937,4.0
121.95,9.758,9.382,4.0
0.0,0.0,0.0,0.0
0.0,0.0,0.0,0.0
0.0,0.0,0.0,0.0
116.055,9.394,10.214,1.0
112.191,9.098,9.24,5.0
107.881,8.766,8.276,10.0
0.0,0.0,0.0,0.0
116.137,9.51,11.521,8.0
116.039,9.518,10.852,3.0
112.539,9.248,9.876,3.0
116.304,9.574,9.549,1.0
107.052,8.83,8.183,12.0
115.116,9.552,12.042,2.0
115.565,9.604,11.432,2.0
115.639,9.626,10.782,7.0
112.735,9.4,9.86,6.0
112.671,9.41,9.216,9.0
117.915,9.866,8.979,7.0
0.0,0.0,0.0,0.0
46.123,3.888,4.547,0.0
0.0,0.0,0.0,0.0
109.58,9.266,9.547,4.0
115.48,9.781,9.407,6.0
92.107,7.815,6.982,1.0
114.738,9.792,11.925,6.0
114.787,9.81,11.276,3.0
114.907,9.836,10.633,2.0
115.067,9.865,9.982,3.0
91.861,7.888,7.448,1.0
115.574,9.941,8.716,4.0
0.0,0.0,0.0,0.0
115.001,9.962,11.25,7.0
114.921,9.968,10.588,2.0
114.978,9.988,9.927,23.0
109.766,9.55,8.854,1.0
97.511,8.497,7.312,2.0
114.957,10.073,11.852,6.0
115.011,10.091,11.201,3.0
113.839,10.002,10.437,8.0
113.987,10.029,9.79,9.0
109.588,9.656,8.789,3.0
96.514,8.516,7.193,6.0
114.816,10.187,11.783,2.0
114.922,10.208,11.137,6.0
114.946,10.224,10.483,2.0
99.177,8.833,8.47,1.0
99.393,8.864,7.922,7.0
109.772,9.804,8.126,8.0
115.066,10.333,11.75,2.0
114.607,10.304,11.047,2.0
85.04,7.655,7.711,4.0
86.143,7.764,7.31,3.0
99.384,8.969,7.868,3.0
96.678,8.737,7.104,3.0
114.683,10.42,11.647,1.0
0.0,0.0,0.0,0.0
114.946,10.467,10.357,3.0
97.897,8.924,8.253,3.0
99.223,9.056,7.799,3.0
96.946,8.859,7.069,12.0
0.0,0.0,0.0,0.0
0.0,0.0,0.0,0.0
86.171,7.933,7.713,7.0
99.213,9.143,8.304,4.0
91.772,8.468,7.157,3.0
96.474,8.913,6.975,5.0
0.0,0.0,0.0,0.0
114.441,10.637,10.827,4.0
91.827,8.544,8.161,2.0
85.961,8.006,7.14,11.0
96.03,8.954,7.428,2.0
96.438,9.002,6.911,6.0
0.0,0.0,0.0,0.0
111.117,10.434,10.438,6.0
92.114,8.658,8.125,2.0
85.278,8.023,7.026,5.0
92.62,8.723,7.101,1.0
80.099,7.552,5.684,2.0
0.0,0.0,0.0,0.0
92.079,8.731,8.585,5.0
85.22,8.088,7.457,4.0
84.759,8.051,6.923,8.0
92.331,8.778,7.014,3.0
80.13,7.626,5.63,2.0
99.284,9.494,9.755,1.0
114.271,10.936,10.571,6.0
111.417,10.672,9.667,4.0
85.28,8.175,6.903,3.0
84.511,8.108,6.357,4.0
90.489,8.69,6.29,3.0
111.278,10.737,10.849,3.0
99.509,9.607,9.13,3.0
91.997,8.889,7.912,4.0
85.238,8.242,6.834,6.0
84.295,8.158,6.276,8.0
84.705,8.205,5.822,12.0
114.817,11.172,11.104,1.0
111.665,10.872,10.156,6.0
92.335,8.996,7.868,1.0
85.298,8.317,6.77,11.0
84.124,8.209,6.195,5.0
85.327,8.333,5.796,6.0
0.0,0.0,0.0,0.0
91.301,8.962,8.228,5.0
99.455,9.768,8.391,6.0
85.285,8.382,6.697,11.0
84.216,8.283,6.132,6.0
92.027,9.059,6.173,2.0
85.744,8.476,8.146,2.0
84.855,8.392,7.574,6.0
91.783,9.083,7.665,4.0
85.169,8.434,6.615,7.0
68.88,6.826,4.954,1.0
96.413,9.56,6.384,4.0
98.841,9.842,9.303,10.0
92.05,9.17,8.134,2.0
91.753,9.145,7.58,8.0
78.103,7.789,5.996,2.0
84.221,8.404,5.983,4.0
80.409,8.028,5.252,4.0
99.111,9.936,9.238,5.0
99.0,9.929,8.657,3.0
91.726,9.203,7.494,6.0
68.763,6.903,5.215,2.0
84.0,8.437,5.889,1.0
76.708,7.709,4.939,1.0
99.003,9.989,9.134,4.0
78.805,7.954,6.816,5.0
98.982,9.994,7.993,5.0
68.665,6.935,5.143,3.0
84.034,8.493,5.812,2.0
78.52,7.94,4.98,3.0
75.139,7.627,6.859,3.0
78.785,7.999,6.738,4.0
85.452,8.679,6.816,3.0
77.811,7.906,5.752,3.0
84.194,8.558,5.74,1.0
78.543,7.987,4.905,4.0
92.769,9.469,8.376,7.0
78.79,8.044,6.66,3.0
92.16,9.411,7.259,3.0
72.756,7.432,5.304,3.0
80.32,8.208,5.395,2.0
78.637,8.039,4.831,1.0
85.403,8.761,7.625,4.0
78.788,8.084,6.579,9.0
92.153,9.458,7.164,3.0
72.82,7.475,5.235,5.0
77.902,8.0,5.152,3.0
99.051,10.176,5.983,15.0
91.535,9.435,8.076,5.0
78.791,8.123,6.496,10.0
85.195,8.784,6.534,4.0
72.831,7.511,5.159,6.0
84.553,8.722,5.504,2.0
89.784,9.265,5.329,2.0
75.176,7.782,6.552,4.0
72.231,7.478,5.878,2.0
72.694,7.527,5.497,2.0
72.882,7.547,5.085,4.0
78.372,8.118,5.017,5.0
95.493,9.894,5.566,2.0
85.328,8.867,7.345,4.0
78.781,8.188,6.325,5.0
68.73,7.143,5.123,2.0
68.543,7.125,4.707,3.0
73.072,7.597,4.597,2.0
81.106,8.434,4.638,3.0
74.937,7.815,6.366,6.0
85.498,8.916,6.769,7.0
72.85,7.598,5.348,2.0
84.62,8.825,5.717,9.0
76.674,7.997,4.739,2.0
81.066,8.457,4.545,5.0
74.987,7.844,6.285,4.0
68.759,7.192,5.366,3.0
68.675,7.183,4.963,6.0
84.563,8.846,5.616,4.0
76.492,8.002,4.639,1.0
81.063,8.481,4.452,3.0
78.635,8.248,6.5,2.0
79.422,8.33,6.106,4.0
68.688,7.203,4.884,6.0
77.84,8.162,5.08,4.0
89.608,9.397,5.331,6.0
77.132,8.089,4.146,2.0
93.025,9.779,7.58,2.0
85.07,8.941,6.44,7.0
72.795,7.65,5.091,5.0
78.226,8.22,5.012,7.0
88.947,9.347,5.187,6.0
99.047,10.409,5.207,10.0
78.808,8.3,6.326,4.0
74.573,7.852,5.556,3.0
72.925,7.678,5.012,4.0
69.144,7.279,4.347,4.0
88.661,9.332,5.064,4.0
87.978,9.26,4.52,2.0
78.952,8.328,6.242,13.0
80.292,8.466,5.884,2.0
84.438,8.901,5.702,4.0
69.165,7.29,4.264,8.0
80.927,8.529,4.525,5.0
76.731,8.086,3.849,2.0
78.975,8.339,6.147,8.0
68.676,7.248,4.95,3.0
92.2,9.729,6.113,5.0
89.12,9.402,5.387,2.0
98.982,10.44,5.413,5.0
83.891,8.847,4.106,4.0
79.122,8.359,6.061,2.0
68.673,7.252,4.864,4.0
73.144,7.722,4.76,1.0
74.793,7.894,4.428,1.0
79.677,8.407,4.259,2.0
85.758,9.047,4.092,4.0
74.539,7.876,5.617,3.0
72.831,7.692,5.068,5.0
78.404,8.278,5.003,5.0
88.641,9.355,5.136,12.0
99.047,10.451,5.17,9.0
85.753,9.046,3.984,7.0
77.159,8.151,5.717,1.0
72.96,7.704,4.984,3.0
69.129,7.296,4.324,9.0
80.93,8.538,4.588,4.0
88.078,9.289,4.487,2.0
87.351,9.21,3.947,6.0
80.248,8.472,5.843,3.0
84.381,8.903,5.657,3.0
69.206,7.299,4.24,7.0
81.045,8.544,4.491,4.0
83.934,8.844,4.168,3.0
98.642,10.391,4.331,20.0
68.656,7.24,4.91,5.0
87.413,9.213,5.747,2.0
88.872,9.362,5.331,6.0
98.995,10.423,5.357,5.0
83.832,8.823,4.055,7.0
98.775,10.391,4.211,29.0
72.837,7.669,5.115,6.0
78.224,8.232,5.041,6.0
89.114,9.372,5.23,8.0
87.926,9.242,4.645,3.0
85.773,9.011,4.037,12.0
103.173,10.834,4.263,18.0
73.003,7.672,5.03,3.0
73.1,7.677,4.615,2.0
81.208,8.523,4.659,2.0
84.093,8.821,4.332,3.0
98.675,10.344,4.515,23.0
103.148,10.808,4.127,11.0
84.664,8.876,5.722,6.0
96.518,10.112,5.966,10.0
81.038,8.484,4.543,5.0
90.322,9.45,4.534,8.0
98.822,10.333,4.393,20.0
136.563,14.271,5.287,10.0
84.749,8.86,5.617,5.0
89.712,9.371,5.428,2.0
84.306,8.801,4.613,4.0
85.464,8.915,4.177,11.0
114.589,11.945,4.943,15.0
107.635,11.214,4.025,10.0
73.107,7.618,4.748,3.0
89.913,9.362,5.32,3.0
84.185,8.758,4.496,8.0
85.589,8.898,4.07,15.0
117.337,12.189,4.905,3.0
117.093,12.156,4.224,15.0
78.498,8.15,4.993,3.0
95.381,9.894,5.518,3.0
79.703,8.26,4.152,3.0
85.65,8.869,3.96,3.0
107.421,11.116,4.35,20.0
97.528,10.085,3.389,19.0
76.42,7.901,4.759,3.0
81.066,8.374,4.582,6.0
85.822,8.857,4.356,6.0
87.488,9.022,3.929,5.0
103.941,10.709,4.072,7.0
121.045,12.462,4.047,22.0
99.081,10.197,6.04,16.0
83.715,8.607,4.62,3.0
85.731,8.806,4.239,20.0
107.45,11.027,4.684,24.0
97.612,10.009,3.694,24.0
110.306,11.301,3.543,20.0
89.999,9.216,5.367,3.0
84.113,8.604,4.53,6.0
95.923,9.802,4.614,7.0
103.899,10.607,4.39,7.0
97.605,9.954,3.563,13.0
109.884,11.197,3.382,46.0
81.155,8.264,4.73,3.0
85.712,8.718,4.502,5.0
96.137,9.768,4.497,2.0
97.675,9.915,3.999,4.0
111.136,11.27,3.911,19.0
116.126,11.764,3.421,18.0
81.072,8.207,4.617,5.0
85.55,8.649,4.379,8.0
111.478,11.258,5.066,4.0
97.665,9.852,3.869,26.0
109.996,11.085,3.725,22.0
115.724,11.65,3.256,60.0
77.331,7.778,4.302,1.0
86.784,8.717,4.327,3.0
87.527,8.781,3.862,4.0
111.297,11.153,4.262,10.0
115.539,11.565,3.76,15.0
108.959,10.895,2.921,37.0
85.077,8.496,4.619,11.0
97.599,9.734,4.737,15.0
97.698,9.731,4.181,39.0
122.605,12.198,4.531,17.0
108.867,10.819,3.398,13.0
109.147,10.834,2.782,19.0
84.783,8.403,4.491,5.0
97.646,9.666,4.611,32.0
97.712,9.659,4.053,10.0
