X,Y,Z,Reflectivity
20.122,-0.095,0.035,32.0
20.135,-0.088,-0.075,30.0
20.149,-0.08,-0.184,37.0
20.139,-0.074,-0.293,29.0
20.115,-0.066,0.263,29.0
20.123,-0.059,0.154,30.0
20.135,-0.052,0.045,40.0
20.13,-0.045,-0.065,31.0
20.171,-0.039,-0.175,29.0
20.173,-0.031,-0.284,18.0
20.126,-0.024,0.272,27.0
20.124,-0.017,0.163,28.0
20.151,-0.01,0.054,27.0
20.265,-0.003,-0.057,150.0
20.26,0.003,-0.167,151.0
20.265,0.01,-0.277,150.0
20.139,0.018,0.281,29.0
20.122,0.024,0.171,28.0
20.162,0.031,0.062,18.0
20.254,0.039,-0.049,5.0
20.221,0.046,-0.159,23.0
20.244,0.053,-0.269,0.0
20.14,0.06,0.288,28.0
20.15,0.067,0.179,29.0
20.189,0.075,0.069,34.0
20.191,0.082,-0.042,28.0
20.187,0.089,-0.151,31.0
20.195,0.096,-0.262,24.0
20.165,0.103,0.296,31.0
20.154,0.11,0.186,26.0
20.194,0.117,0.076,33.0
20.173,0.124,-0.035,26.0
20.175,0.132,-0.145,38.0
20.17,0.139,-0.255,35.0
20.187,0.146,0.302,26.0
20.189,0.153,0.192,20.0
20.263,0.161,0.082,28.0
20.282,0.168,-0.029,22.0
20.208,0.175,-0.14,24.0
20.176,0.182,-0.25,25.0
20.283,0.191,0.309,29.0
20.29,0.198,0.198,28.0
20.327,0.206,0.088,28.0
20.328,0.213,-0.024,2.0
0.0,0.0,0.0,0.0
20.204,0.226,-0.245,21.0
20.297,0.235,0.314,27.0
20.287,0.242,0.203,10.0
99.604,1.223,0.453,6.0
99.578,1.256,-0.101,3.0
0.0,0.0,0.0,0.0
0.0,0.0,0.0,0.0
194.871,2.674,3.055,33.0
0.0,0.0,0.0,0.0
99.694,1.437,0.471,5.0
99.848,1.476,-0.084,3.0
0.0,0.0,0.0,0.0
0.0,0.0,0.0,0.0
194.734,3.093,3.084,26.0
0.0,0.0,0.0,0.0
99.781,1.653,0.486,5.0
99.828,1.688,-0.07,5.0
0.0,0.0,0.0,0.0
0.0,0.0,0.0,0.0
194.592,3.508,3.104,10.0
103.201,1.895,1.08,13.0
99.91,1.87,0.497,5.0
99.89,1.902,-0.061,1.0
0.0,0.0,0.0,0.0
0.0,0.0,0.0,0.0
0.0,0.0,0.0,0.0
103.174,2.115,1.086,5.0
100.027,2.085,0.504,4.0
100.047,2.12,-0.055,9.0
0.0,0.0,0.0,0.0
0.0,0.0,0.0,0.0
195.422,4.359,3.14,20.0
0.0,0.0,0.0,0.0
100.216,2.302,0.507,1.0
100.142,2.335,-0.053,31.0
0.0,0.0,0.0,0.0
0.0,0.0,0.0,0.0
195.152,4.771,3.136,12.0
0.0,0.0,0.0,0.0
0.0,0.0,0.0,0.0
0.0,0.0,0.0,0.0
0.0,0.0,0.0,0.0
0.0,0.0,0.0,0.0
196.16,5.213,3.145,5.0
195.081,5.246,2.052,9.0
102.98,2.804,0.515,1.0
0.0,0.0,0.0,0.0
0.0,0.0,0.0,0.0
0.0,0.0,0.0,0.0
195.579,5.608,3.122,13.0
0.0,0.0,0.0,0.0
196.125,5.749,0.965,43.0
0.0,0.0,0.0,0.0
0.0,0.0,0.0,0.0
0.0,0.0,0.0,0.0
195.291,6.01,3.096,5.0
0.0,0.0,0.0,0.0
196.28,6.168,0.941,32.0
0.0,0.0,0.0,0.0
0.0,0.0,0.0,0.0
0.0,0.0,0.0,0.0
194.956,6.41,3.061,22.0
0.0,0.0,0.0,0.0
196.329,6.585,0.91,36.0
0.0,0.0,0.0,0.0
0.0,0.0,0.0,0.0
0.0,0.0,0.0,0.0
202.805,7.095,3.147,11.0
0.0,0.0,0.0,0.0
196.467,6.998,0.871,36.0
0.0,0.0,0.0,0.0
69.001,2.502,-0.465,3.0
0.0,0.0,0.0,0.0
0.0,0.0,0.0,0.0
195.18,7.296,1.903,16.0
195.1,7.353,0.819,22.0
0.0,0.0,0.0,0.0
68.914,2.642,-0.482,1.0
0.0,0.0,0.0,0.0
0.0,0.0,0.0,0.0
203.888,8.041,1.934,16.0
196.657,7.82,0.773,32.0
0.0,0.0,0.0,0.0
68.941,2.784,-0.501,0.0
0.0,0.0,0.0,0.0
0.0,0.0,0.0,0.0
0.0,0.0,0.0,0.0
196.871,8.23,0.713,24.0
0.0,0.0,0.0,0.0
68.958,2.925,-0.523,4.0
0.0,0.0,0.0,0.0
195.499,8.45,2.817,43.0
195.518,8.51,1.729,55.0
195.495,8.569,0.641,17.0
0.0,0.0,0.0,0.0
68.99,3.067,-0.548,4.0
0.0,0.0,0.0,0.0
206.35,9.34,2.897,6.0
197.015,8.979,1.668,18.0
196.898,9.032,0.571,15.0
0.0,0.0,0.0,0.0
0.0,0.0,0.0,0.0
0.0,0.0,0.0,0.0
0.0,0.0,0.0,0.0
196.996,9.372,1.587,23.0
197.029,9.432,0.489,9.0
0.0,0.0,0.0,0.0
0.0,0.0,0.0,0.0
0.0,0.0,0.0,0.0
197.843,9.75,2.61,20.0
197.032,9.768,1.5,33.0
0.0,0.0,0.0,0.0
0.0,0.0,0.0,0.0
0.0,0.0,0.0,0.0
0.0,0.0,0.0,0.0
0.0,0.0,0.0,0.0
197.07,10.155,1.407,35.0
0.0,0.0,0.0,0.0
0.0,0.0,0.0,0.0
0.0,0.0,0.0,0.0
0.0,0.0,0.0,0.0
206.98,11.007,2.53,6.0
197.078,10.538,1.307,17.0
0.0,0.0,0.0,0.0
0.0,0.0,0.0,0.0
0.0,0.0,0.0,0.0
0.0,0.0,0.0,0.0
196.076,10.805,2.291,27.0
196.201,10.867,1.195,9.0
0.0,0.0,0.0,0.0
0.0,0.0,0.0,0.0
0.0,0.0,0.0,0.0
0.0,0.0,0.0,0.0
0.0,0.0,0.0,0.0
197.546,11.319,1.088,28.0
0.0,0.0,0.0,0.0
69.083,3.997,-0.4,0.0
0.0,0.0,0.0,0.0
0.0,0.0,0.0,0.0
208.169,12.263,2.188,21.0
197.64,11.696,0.967,29.0
0.0,0.0,0.0,0.0
68.889,4.115,-0.442,2.0
0.0,0.0,0.0,0.0
0.0,0.0,0.0,0.0
0.0,0.0,0.0,0.0
0.0,0.0,0.0,0.0
0.0,0.0,0.0,0.0
0.0,0.0,0.0,0.0
0.0,0.0,0.0,0.0
0.0,0.0,0.0,0.0
0.0,0.0,0.0,0.0
0.0,0.0,0.0,0.0
0.0,0.0,0.0,0.0
0.0,0.0,0.0,0.0
0.0,0.0,0.0,0.0
0.0,0.0,0.0,0.0
0.0,0.0,0.0,0.0
154.943,10.026,0.443,62.0
0.0,0.0,0.0,0.0
68.81,4.487,-0.583,2.0
0.0,0.0,0.0,0.0
0.0,0.0,0.0,0.0
0.0,0.0,0.0,0.0
154.931,10.298,0.331,151.0
0.0,0.0,0.0,0.0
0.0,0.0,0.0,0.0
0.0,0.0,0.0,0.0
37.984,2.564,-0.778,0.0
0.0,0.0,0.0,0.0
154.885,10.569,0.211,13.0
0.0,0.0,0.0,0.0
0.0,0.0,0.0,0.0
0.0,0.0,0.0,0.0
37.315,2.584,-0.794,0.0
0.0,0.0,0.0,0.0
0.0,0.0,0.0,0.0
0.0,0.0,0.0,0.0
0.0,0.0,0.0,0.0
0.0,0.0,0.0,0.0
35.301,2.505,-0.78,0.0
140.679,10.049,0.758,151.0
0.0,0.0,0.0,0.0
0.0,0.0,0.0,0.0
0.0,0.0,0.0,0.0
0.0,0.0,0.0,0.0
35.204,2.558,-0.807,0.0
140.543,10.277,0.637,150.0
0.0,0.0,0.0,0.0
0.0,0.0,0.0,0.0
0.0,0.0,0.0,0.0
0.0,0.0,0.0,0.0
33.21,2.468,-0.791,0.0
0.0,0.0,0.0,0.0
0.0,0.0,0.0,0.0
0.0,0.0,0.0,0.0
0.0,0.0,0.0,0.0
0.0,0.0,0.0,0.0
32.922,2.501,-0.814,1.0
114.102,8.718,0.313,85.0
0.0,0.0,0.0,0.0
0.0,0.0,0.0,0.0
0.0,0.0,0.0,0.0
37.494,2.899,-0.75,0.0
32.515,2.521,-0.834,1.0
114.033,8.894,0.206,45.0
0.0,0.0,0.0,0.0
0.0,0.0,0.0,0.0
0.0,0.0,0.0,0.0
0.0,0.0,0.0,0.0
31.568,2.498,-0.84,0.0
110.351,8.778,0.093,2.0
0.0,0.0,0.0,0.0
0.0,0.0,0.0,0.0
0.0,0.0,0.0,0.0
0.0,0.0,0.0,0.0
30.562,2.465,-0.843,0.0
109.365,8.867,-0.014,2.0
68.897,5.6,-0.399,1.0
0.0,0.0,0.0,0.0
0.0,0.0,0.0,0.0
0.0,0.0,0.0,0.0
29.733,2.442,-0.85,0.0
108.471,8.954,-0.122,2.0
68.968,5.707,-0.469,4.0
0.0,0.0,0.0,0.0
40.699,3.385,-0.743,0.0
33.048,2.756,-0.791,0.0
28.724,2.401,-0.851,0.0
0.0,0.0,0.0,0.0
0.0,0.0,0.0,0.0
0.0,0.0,0.0,0.0
0.0,0.0,0.0,0.0
32.701,2.773,-0.817,1.0
28.013,2.382,-0.859,0.0
0.0,0.0,0.0,0.0
0.0,0.0,0.0,0.0
0.0,0.0,0.0,0.0
37.586,3.233,-0.765,0.0
30.841,2.658,-0.803,1.0
27.205,2.351,-0.863,0.0
0.0,0.0,0.0,0.0
0.0,0.0,0.0,0.0
0.0,0.0,0.0,0.0
36.766,3.212,-0.788,0.0
30.908,2.706,-0.838,0.0
26.39,2.316,-0.866,0.0
0.0,0.0,0.0,0.0
0.0,0.0,0.0,0.0
0.0,0.0,0.0,0.0
35.504,3.149,-0.8,0.0
29.96,2.663,-0.846,0.0
25.693,2.288,-0.872,0.0
68.997,6.17,-0.447,4.0
0.0,0.0,0.0,0.0
40.952,3.677,-0.731,0.0
32.937,2.963,-0.779,0.0
28.84,2.6,-0.846,0.0
24.844,2.245,-0.871,0.0
68.899,6.249,-0.524,2.0
0.0,0.0,0.0,0.0
0.0,0.0,0.0,0.0
32.191,2.936,-0.798,0.0
28.138,2.571,-0.858,0.0
24.251,2.221,-0.878,0.0
0.0,0.0,0.0,0.0
0.0,0.0,0.0,0.0
37.678,3.476,-0.759,0.0
31.471,2.908,-0.817,0.0
27.136,2.512,-0.859,0.0
23.61,2.19,-0.882,0.0
0.0,0.0,0.0,0.0
0.0,0.0,0.0,0.0
37.159,3.471,-0.792,0.0
30.71,2.874,-0.833,0.0
26.458,2.481,-0.869,0.0
23.013,2.162,-0.887,0.0
0.0,0.0,0.0,0.0
0.0,0.0,0.0,0.0
35.315,3.34,-0.795,0.0
29.559,2.8,-0.837,0.0
25.429,2.413,-0.865,0.0
21.825,2.075,-0.868,0.0
0.0,0.0,0.0,0.0
40.075,3.827,-0.721,0.0
33.161,3.172,-0.786,0.0
28.577,2.738,-0.844,0.0
24.778,2.378,-0.873,0.0
21.8,2.096,-0.893,1.0
0.0,0.0,0.0,0.0
38.595,3.726,-0.742,0.0
32.173,3.111,-0.802,0.0
27.732,2.686,-0.852,0.0
23.845,2.313,-0.869,0.0
21.535,2.092,-0.908,0.0
0.0,0.0,0.0,0.0
0.0,0.0,0.0,0.0
0.0,0.0,0.0,0.0
26.733,2.616,-0.855,1.0
23.533,2.306,-0.887,0.0
20.804,2.042,-0.903,0.0
0.0,0.0,0.0,0.0
0.0,0.0,0.0,0.0
30.354,2.995,-0.831,0.0
26.204,2.59,-0.871,0.0
21.863,2.164,-0.851,0.0
20.409,2.023,-0.912,0.0
40.876,4.061,-0.704,0.0
33.672,3.349,-0.772,0.0
29.207,2.909,-0.837,0.0
25.038,2.497,-0.863,0.0
21.807,2.178,-0.877,1.0
19.622,1.963,-0.901,0.0
39.056,3.915,-0.721,0.0
32.899,3.302,-0.795,0.0
28.233,2.837,-0.844,0.0
24.261,2.441,-0.867,0.0
21.724,2.189,-0.901,1.0
19.361,1.953,-0.914,0.0
37.943,3.836,-0.748,0.0
32.124,3.251,-0.817,0.0
27.373,2.774,-0.853,0.0
23.684,2.403,-0.876,0.0
21.143,2.148,-0.904,0.0
18.787,1.911,-0.911,0.0
0.0,0.0,0.0,0.0
30.21,3.082,-0.807,0.0
26.276,2.683,-0.853,0.0
21.932,2.242,-0.84,2.0
20.622,2.111,-0.908,0.0
18.343,1.88,-0.913,0.0
35.073,3.601,-0.781,0.0
29.991,3.082,-0.84,0.0
25.422,2.615,-0.858,0.0
21.862,2.252,-0.865,4.0
19.732,2.035,-0.894,0.0
17.806,1.838,-0.909,1.0
33.491,3.462,-0.789,0.0
28.601,2.96,-0.838,0.0
24.665,2.555,-0.864,0.0
21.8,2.26,-0.891,4.0
19.412,2.015,-0.905,0.0
17.69,1.838,-0.926,1.0
31.875,3.316,-0.792,0.0
27.664,2.881,-0.846,0.0
23.964,2.498,-0.871,0.0
21.6,2.254,-0.911,0.0
19.063,1.991,-0.913,0.0
17.188,1.797,-0.922,0.0
0.0,0.0,0.0,0.0
26.92,2.821,-0.858,0.0
21.958,2.303,-0.826,0.0
20.601,2.162,-0.895,0.0
18.574,1.951,-0.914,0.0
16.773,1.764,-0.922,0.0
30.038,3.162,-0.824,0.0
25.823,2.72,-0.857,0.0
21.9,2.309,-0.852,3.0
19.877,2.098,-0.889,0.0
17.861,1.887,-0.902,0.0
16.423,1.736,-0.924,0.0
28.925,3.06,-0.831,0.0
24.899,2.636,-0.858,0.0
21.838,2.314,-0.878,6.0
19.606,2.079,-0.903,1.0
17.719,1.881,-0.918,1.0
16.067,1.707,-0.925,0.0
27.871,2.963,-0.837,0.0
24.189,2.573,-0.865,0.0
21.771,2.317,-0.904,2.0
19.232,2.049,-0.911,0.0
17.52,1.868,-0.93,0.0
15.786,1.685,-0.929,0.0
27.088,2.891,-0.848,0.0
23.633,2.524,-0.876,0.0
20.866,2.23,-0.893,0.0
18.651,1.995,-0.907,0.0
16.899,1.809,-0.919,0.0
15.408,1.651,-0.927,0.0
25.989,2.785,-0.848,0.0
21.931,2.351,-0.841,3.0
20.197,2.166,-0.891,0.0
18.193,1.953,-0.909,0.0
16.494,1.772,-0.919,0.0
15.074,1.621,-0.927,0.0
25.166,2.705,-0.854,0.0
21.858,2.351,-0.867,6.0
19.627,2.112,-0.891,1.0
17.746,1.911,-0.91,1.0
16.231,1.749,-0.925,0.0
14.825,1.599,-0.931,0.0
24.471,2.638,-0.862,0.0
21.807,2.352,-0.893,3.0
19.399,2.094,-0.906,1.0
17.609,1.901,-0.925,0.0
15.865,1.714,-0.925,0.0
14.589,1.577,-0.935,0.0
23.775,2.569,-0.868,0.0
21.547,2.33,-0.91,0.0
18.811,2.035,-0.903,0.0
17.047,1.845,-0.918,0.0
15.563,1.685,-0.928,0.0
14.332,1.553,-0.937,0.0
21.942,2.376,-0.829,1.0
20.374,2.207,-0.887,0.0
18.472,2.002,-0.91,0.0
16.654,1.806,-0.918,0.0
15.254,1.655,-0.929,0.0
14.169,1.538,-0.944,0.0
21.886,2.374,-0.855,3.0
19.803,2.149,-0.887,1.0
17.846,1.937,-0.902,0.0
16.323,1.773,-0.92,0.0
14.936,1.623,-0.928,0.0
0.0,0.0,0.0,0.0
21.825,2.37,-0.88,6.0
19.568,2.126,-0.901,3.0
17.698,1.923,-0.917,1.0
15.941,1.733,-0.919,0.0
14.698,1.599,-0.932,0.0
13.511,1.47,-0.935,0.0
21.759,2.365,-0.905,2.0
19.166,2.084,-0.907,0.0
17.369,1.889,-0.922,0.0
15.643,1.702,-0.922,0.0
14.475,1.575,-0.936,0.0
13.275,1.445,-0.935,0.0
20.673,2.248,-0.885,0.0
18.618,2.025,-0.904,0.0
16.903,1.839,-0.918,0.0
15.381,1.673,-0.926,0.0
14.28,1.554,-0.942,0.0
13.118,1.428,-0.941,0.0
19.884,2.162,-0.876,0.0
18.149,1.973,-0.904,0.0
16.49,1.793,-0.916,0.0
15.056,1.638,-0.925,0.0
14.068,1.531,-0.945,0.0
12.868,1.401,-0.939,0.0
19.668,2.137,-0.891,2.0
17.734,1.927,-0.905,1.0
16.246,1.766,-0.922,0.0
14.841,1.613,-0.93,0.0
0.0,0.0,0.0,0.0
12.64,1.375,-0.938,0.0
19.454,2.112,-0.905,2.0
17.67,1.919,-0.923,0.0
15.879,1.724,-0.921,0.0
14.567,1.582,-0.93,0.0
13.415,1.457,-0.934,0.0
12.494,1.357,-0.942,0.0
18.858,2.045,-0.899,0.0
17.183,1.863,-0.918,0.0
15.637,1.696,-0.925,0.0
14.364,1.558,-0.934,0.0
13.376,1.451,-0.947,0.0
12.263,1.33,-0.939,0.0
18.605,2.014,-0.909,0.0
16.687,1.806,-0.911,0.0
15.339,1.66,-0.926,0.0
14.187,1.536,-0.939,0.0
13.141,1.423,-0.946,0.0
12.104,1.311,-0.941,0.0
17.908,1.934,-0.896,0.0
16.479,1.78,-0.919,0.0
15.006,1.621,-0.923,0.0
13.88,1.499,-0.935,0.0
12.905,1.394,-0.944,0.0
11.897,1.285,-0.939,0.0
17.748,1.912,-0.908,2.0
16.172,1.742,-0.92,0.0
14.865,1.601,-0.931,0.0
13.373,1.441,-0.916,0.0
12.644,1.362,-0.939,0.0
11.756,1.266,-0.941,0.0
17.633,1.895,-0.922,0.0
15.862,1.704,-0.92,0.0
14.592,1.567,-0.931,0.0
13.545,1.455,-0.943,0.0
12.445,1.336,-0.938,0.0
11.596,1.245,-0.941,0.0
17.085,1.83,-0.912,0.0
15.607,1.671,-0.923,0.0
14.477,1.55,-0.939,0.0
13.264,1.42,-0.938,0.0
12.298,1.316,-0.941,0.0
11.43,1.223,-0.94,0.0
16.732,1.785,-0.912,0.0
15.283,1.63,-0.92,0.0
14.237,1.518,-0.939,0.0
13.065,1.393,-0.938,0.0
12.093,1.289,-0.938,0.0
11.31,1.206,-0.942,0.0
16.469,1.75,-0.915,0.0
15.052,1.599,-0.922,0.0
14.044,1.491,-0.941,0.0
12.811,1.36,-0.933,0.0
11.981,1.272,-0.942,0.0
11.19,1.188,-0.944,0.0
16.259,1.72,-0.92,0.0
14.871,1.573,-0.926,0.0
13.751,1.454,-0.936,0.0
12.649,1.337,-0.935,0.0
11.806,1.247,-0.94,0.0
11.021,1.164,-0.941,0.0
15.975,1.682,-0.92,0.0
14.656,1.542,-0.928,0.0
13.605,1.431,-0.939,0.0
12.521,1.317,-0.938,0.0
11.622,1.222,-0.937,0.0
10.968,1.152,-0.948,0.0
15.726,1.647,-0.921,0.0
14.514,1.519,-0.933,0.0
13.393,1.401,-0.938,0.0
12.396,1.296,-0.941,0.0
11.529,1.205,-0.941,0.0
10.811,1.13,-0.945,0.0
15.491,1.613,-0.922,0.0
14.332,1.492,-0.935,0.0
13.279,1.381,-0.943,0.0
12.247,1.273,-0.941,0.0
11.374,1.182,-0.939,0.0
10.726,1.114,-0.948,0.0
15.23,1.576,-0.921,0.0
14.314,1.48,-0.948,0.0
13.02,1.346,-0.937,0.0
12.051,1.245,-0.937,0.0
11.27,1.164,-0.941,0.0
10.618,1.096,-0.948,0.0
14.985,1.541,-0.92,0.0
0.0,0.0,0.0,0.0
12.829,1.317,-0.935,0.0
11.937,1.225,-0.939,0.0
11.18,1.147,-0.944,0.0
10.502,1.077,-0.947,0.0
14.833,1.515,-0.924,0.0
0.0,0.0,0.0,0.0
12.677,1.293,-0.935,0.0
11.768,1.199,-0.936,0.0
11.049,1.125,-0.943,0.0
10.408,1.059,-0.948,0.0
14.689,1.489,-0.928,0.0
13.516,1.369,-0.931,0.0
12.576,1.273,-0.938,0.0
11.664,1.18,-0.938,0.0
10.901,1.102,-0.939,0.0
10.309,1.041,-0.947,0.0
14.539,1.462,-0.93,0.0
13.457,1.352,-0.938,0.0
12.457,1.251,-0.939,0.0
11.552,1.159,-0.938,0.0
10.868,1.09,-0.945,0.0
10.202,1.022,-0.946,0.0
14.398,1.437,-0.932,0.0
13.344,1.33,-0.94,0.0
12.351,1.23,-0.941,0.0
11.459,1.14,-0.94,0.0
10.744,1.068,-0.943,0.0
10.116,1.005,-0.946,0.0
14.371,1.422,-0.942,0.0
13.17,1.302,-0.938,0.0
12.192,1.204,-0.938,0.0
11.368,1.121,-0.941,0.0
10.695,1.054,-0.946,0.0
10.051,0.99,-0.947,0.0
14.161,1.388,-0.938,0.0
13.035,1.277,-0.938,0.0
12.076,1.182,-0.938,0.0
11.277,1.102,-0.942,0.0
10.576,1.033,-0.943,0.0
9.972,0.973,-0.947,0.0
14.068,1.366,-0.942,0.0
12.928,1.254,-0.939,0.0
11.917,1.155,-0.934,0.0
11.177,1.082,-0.941,0.0
10.532,1.019,-0.947,0.0
9.927,0.959,-0.949,0.0
0.0,0.0,0.0,0.0
12.753,1.225,-0.935,0.0
11.852,1.137,-0.937,0.0
11.11,1.065,-0.943,0.0
10.423,0.998,-0.944,0.0
9.818,0.939,-0.945,0.0
13.648,1.299,-0.932,0.0
12.724,1.21,-0.941,0.0
11.824,1.123,-0.942,0.0
11.039,1.047,-0.943,0.0
10.391,0.985,-0.947,0.0
9.76,0.924,-0.946,0.0
13.558,1.277,-0.934,0.0
12.595,1.185,-0.939,0.0
11.721,1.101,-0.941,0.0
10.985,1.031,-0.945,0.0
10.286,0.964,-0.944,0.0
9.708,0.909,-0.946,0.0
13.454,1.253,-0.934,0.0
12.464,1.159,-0.936,0.0
11.621,1.08,-0.939,0.0
10.876,1.009,-0.942,0.0
10.227,0.948,-0.944,0.0
9.62,0.89,-0.943,0.0
13.381,1.232,-0.936,0.0
12.412,1.141,-0.939,0.0
11.552,1.061,-0.939,0.0
10.881,0.998,-0.948,0.0
10.162,0.931,-0.943,0.0
9.59,0.877,-0.945,0.0
13.284,1.209,-0.936,0.0
12.348,1.122,-0.94,0.0
11.49,1.042,-0.94,0.0
10.752,0.974,-0.942,0.0
10.092,0.913,-0.941,0.0
9.557,0.863,-0.946,0.0
13.258,1.191,-0.94,0.0
12.238,1.098,-0.937,0.0
11.441,1.025,-0.941,0.0
10.803,0.966,-0.951,0.0
10.049,0.897,-0.942,0.0
9.514,0.848,-0.946,0.0
13.136,1.165,-0.937,0.0
12.176,1.078,-0.937,0.0
11.384,1.007,-0.941,0.0
10.686,0.943,-0.945,0.0
10.028,0.884,-0.944,0.0
9.455,0.832,-0.944,0.0
13.136,1.15,-0.942,0.0
12.142,1.061,-0.939,0.0
11.332,0.989,-0.941,0.0
10.731,0.934,-0.953,0.0
9.997,0.869,-0.945,0.0
9.428,0.818,-0.944,0.0
13.068,1.128,-0.942,0.0
12.064,1.039,-0.937,0.0
11.311,0.973,-0.943,0.0
10.557,0.906,-0.941,0.0
9.947,0.853,-0.943,0.0
9.417,0.806,-0.946,0.0
12.997,1.106,-0.94,0.0
12.032,1.022,-0.938,0.0
11.318,0.96,-0.947,0.0
10.439,0.883,-0.933,0.0
9.981,0.843,-0.949,0.0
9.351,0.789,-0.942,0.0
12.951,1.086,-0.94,0.0
11.995,1.004,-0.938,0.0
11.284,0.943,-0.947,0.0
10.499,0.875,-0.941,0.0
9.921,0.826,-0.946,0.0
9.338,0.776,-0.943,0.0
12.895,1.065,-0.939,0.0
11.918,0.982,-0.935,0.0
11.263,0.926,-0.947,0.0
10.462,0.859,-0.94,0.0
9.892,0.811,-0.945,0.0
9.353,0.765,-0.946,0.0
12.844,1.044,-0.938,0.0
11.908,0.966,-0.936,0.0
11.241,0.91,-0.947,0.0
10.437,0.843,-0.939,0.0
9.865,0.795,-0.944,0.0
9.323,0.75,-0.945,0.0
12.85,1.028,-0.94,0.0
11.904,0.95,-0.938,0.0
11.199,0.892,-0.945,0.0
10.432,0.829,-0.94,0.0
9.869,0.783,-0.945,0.0
9.307,0.736,-0.944,0.0
12.822,1.008,-0.939,0.0
11.892,0.933,-0.938,0.0
11.171,0.875,-0.944,0.0
10.426,0.815,-0.94,0.0
9.862,0.769,-0.945,0.0
9.305,0.724,-0.944,0.0
12.774,0.987,-0.936,0.0
11.873,0.916,-0.937,0.0
11.153,0.858,-0.943,0.0
10.446,0.802,-0.943,0.0
9.852,0.754,-0.945,0.0
9.294,0.71,-0.943,0.0
12.794,0.972,-0.938,0.0
11.883,0.9,-0.938,0.0
11.199,0.846,-0.947,0.0
10.44,0.787,-0.942,0.0
9.838,0.74,-0.943,0.0
9.369,0.703,-0.951,0.0
12.841,0.957,-0.941,0.0
11.939,0.888,-0.942,0.0
11.165,0.828,-0.943,0.0
10.421,0.771,-0.94,0.0
9.885,0.73,-0.947,0.0
9.334,0.687,-0.947,0.0
12.845,0.94,-0.94,0.0
11.92,0.87,-0.939,0.0
11.164,0.813,-0.942,0.0
10.402,0.755,-0.937,0.0
9.905,0.717,-0.948,1.0
9.343,0.675,-0.947,0.0
12.875,0.924,-0.941,0.0
11.925,0.854,-0.938,0.0
11.162,0.797,-0.941,0.0
10.475,0.746,-0.942,0.0
9.917,0.704,-0.948,0.0
9.375,0.664,-0.949,0.0
12.903,0.908,-0.941,0.0
11.979,0.84,-0.94,0.0
11.189,0.783,-0.941,0.0
10.515,0.733,-0.944,0.0
9.952,0.692,-0.949,0.0
9.404,0.652,-0.95,0.0
12.933,0.891,-0.941,0.0
12.01,0.825,-0.94,0.0
11.263,0.772,-0.945,0.0
10.505,0.718,-0.941,0.0
9.982,0.68,-0.95,0.0
9.425,0.64,-0.949,0.0
12.965,0.875,-0.94,0.0
12.071,0.812,-0.942,0.0
11.334,0.76,-0.948,0.0
10.583,0.708,-0.945,0.0
10.01,0.667,-0.95,0.0
9.425,0.627,-0.947,0.0
12.974,0.857,-0.937,0.0
12.087,0.796,-0.94,0.0
11.355,0.745,-0.946,0.0
10.572,0.692,-0.941,0.0
10.028,0.654,-0.948,0.0
9.459,0.615,-0.947,0.0
13.061,0.844,-0.939,0.0
12.14,0.782,-0.94,0.0
11.371,0.73,-0.943,0.0
10.657,0.682,-0.944,0.0
10.085,0.643,-0.95,0.0
9.513,0.605,-0.949,0.0
13.136,0.829,-0.939,0.0
12.191,0.767,-0.939,0.0
11.435,0.717,-0.944,0.0
10.661,0.666,-0.94,0.0
10.114,0.63,-0.949,0.0
9.542,0.592,-0.948,0.0
13.189,0.813,-0.938,0.0
12.296,0.755,-0.942,0.0
11.52,0.705,-0.946,0.0
10.757,0.656,-0.944,0.0
10.18,0.619,-0.95,0.0
9.577,0.58,-0.947,0.0
13.32,0.802,-0.941,0.0
12.382,0.743,-0.943,0.0
11.594,0.693,-0.947,0.0
10.871,0.647,-0.949,0.0
10.242,0.608,-0.951,0.0
9.646,0.57,-0.949,0.0
13.395,0.787,-0.939,0.0
12.477,0.73,-0.944,0.0
11.634,0.678,-0.944,0.0
10.847,0.63,-0.941,0.0
10.302,0.596,-0.951,0.0
9.713,0.56,-0.95,0.0
13.488,0.772,-0.938,0.0
12.573,0.717,-0.944,0.0
11.728,0.666,-0.945,0.0
10.994,0.622,-0.947,0.0
10.337,0.583,-0.948,0.0
9.772,0.549,-0.95,0.0
13.574,0.757,-0.936,0.0
12.696,0.705,-0.945,0.0
11.761,0.651,-0.94,0.0
11.06,0.609,-0.946,0.0
10.413,0.571,-0.948,0.0
9.818,0.537,-0.948,0.0
13.872,0.753,-0.948,0.0
12.813,0.693,-0.946,0.0
11.887,0.64,-0.943,0.0
11.168,0.599,-0.948,0.0
10.48,0.559,-0.947,0.0
9.906,0.527,-0.95,0.0
13.948,0.736,-0.944,0.0
12.913,0.679,-0.944,0.0
12.004,0.628,-0.944,0.0
11.228,0.585,-0.945,0.0
10.532,0.547,-0.945,0.0
9.995,0.516,-0.951,0.0
14.113,0.724,-0.945,0.0
13.009,0.665,-0.942,0.0
12.126,0.617,-0.944,0.0
11.323,0.573,-0.945,0.0
10.644,0.537,-0.947,0.0
10.04,0.504,-0.948,0.0
14.301,0.713,-0.946,0.0
13.215,0.656,-0.947,0.0
12.284,0.607,-0.947,0.0
11.44,0.563,-0.946,0.0
10.739,0.526,-0.946,0.0
10.135,0.494,-0.949,0.0
14.415,0.698,-0.942,0.0
13.382,0.645,-0.948,0.0
12.416,0.595,-0.947,0.0
11.511,0.549,-0.942,0.0
10.891,0.517,-0.951,0.0
10.236,0.484,-0.95,0.0
14.562,0.683,-0.94,0.0
13.444,0.628,-0.941,0.0
12.579,0.584,-0.948,0.0
11.628,0.538,-0.941,0.0
11.028,0.507,-0.953,0.0
10.324,0.473,-0.949,0.0
14.74,0.67,-0.938,0.0
13.57,0.614,-0.937,0.0
12.736,0.573,-0.949,0.0
11.821,0.529,-0.946,0.0
11.096,0.494,-0.948,0.0
10.419,0.462,-0.948,0.0
14.93,0.657,-0.936,0.0
13.986,0.613,-0.953,0.0
12.846,0.56,-0.945,0.0
11.954,0.518,-0.945,0.0
11.163,0.481,-0.943,0.0
10.541,0.452,-0.948,0.0
15.144,0.645,-0.935,0.0
14.143,0.599,-0.95,0.0
13.056,0.55,-0.947,0.0
12.13,0.508,-0.947,0.0
11.365,0.473,-0.949,0.0
10.667,0.442,-0.949,0.0
15.355,0.632,-0.932,0.0
14.325,0.586,-0.947,0.0
13.244,0.539,-0.947,0.0
12.296,0.497,-0.947,0.0
11.49,0.462,-0.947,0.0
10.789,0.432,-0.948,0.0
15.669,0.622,-0.935,0.0
14.501,0.573,-0.943,0.0
13.408,0.527,-0.945,0.0
12.446,0.486,-0.945,0.0
11.62,0.451,-0.946,0.0
10.979,0.424,-0.953,0.0
16.003,0.613,-0.937,0.0
14.708,0.56,-0.941,0.0
13.589,0.514,-0.942,0.0
12.647,0.476,-0.946,0.0
11.81,0.442,-0.948,0.0
11.128,0.414,-0.953,0.0
16.205,0.599,-0.931,0.0
14.951,0.549,-0.939,0.0
13.904,0.507,-0.948,0.0
12.911,0.468,-0.951,0.0
12.033,0.433,-0.951,0.0
11.24,0.402,-0.949,0.0
16.51,0.587,-0.929,0.0
15.223,0.537,-0.938,0.0
14.175,0.497,-0.95,0.0
13.075,0.455,-0.948,0.0
12.216,0.423,-0.951,0.0
11.458,0.394,-0.954,0.0
16.86,0.576,-0.928,0.0
15.443,0.524,-0.933,0.0
14.399,0.485,-0.947,0.0
13.258,0.444,-0.944,0.0
12.398,0.412,-0.95,0.0
11.571,0.382,-0.949,0.0
17.167,0.563,-0.923,0.0
15.885,0.517,-0.939,0.0
14.64,0.473,-0.944,0.0
13.517,0.434,-0.945,0.0
12.624,0.402,-0.951,0.0
11.767,0.373,-0.949,0.0
17.777,0.559,-0.933,0.0
16.19,0.505,-0.936,0.0
14.904,0.462,-0.942,0.0
13.728,0.422,-0.942,0.0
12.897,0.394,-0.954,0.0
12.0,0.364,-0.952,0.0
18.136,0.546,-0.928,0.0
16.512,0.494,-0.933,0.0
15.192,0.451,-0.939,0.0
14.0,0.412,-0.942,0.0
13.099,0.383,-0.951,0.0
12.211,0.354,-0.952,0.0
18.588,0.536,-0.926,0.0
16.839,0.482,-0.928,0.0
15.519,0.44,-0.938,0.0
14.418,0.406,-0.95,0.0
13.308,0.372,-0.948,0.0
12.411,0.344,-0.95,0.0
18.906,0.52,-0.915,0.0
17.189,0.469,-0.923,0.0
15.964,0.432,-0.942,0.0
14.666,0.394,-0.945,0.0
13.486,0.359,-0.941,0.0
12.679,0.335,-0.953,0.0
19.721,0.518,-0.926,0.0
17.815,0.464,-0.931,0.0
16.264,0.42,-0.936,0.0
14.955,0.383,-0.942,0.0
0.0,0.0,0.0,0.0
12.934,0.326,-0.952,0.0
20.233,0.506,-0.92,0.0
18.316,0.454,-0.93,0.0
16.662,0.409,-0.935,0.0
15.313,0.373,-0.942,0.0
14.317,0.345,-0.956,0.0
13.232,0.317,-0.954,0.0
20.762,0.493,-0.913,0.0
18.704,0.44,-0.921,0.0
17.018,0.397,-0.928,0.0
15.672,0.362,-0.94,0.0
14.548,0.333,-0.949,0.0
13.434,0.305,-0.948,0.0
21.49,0.485,-0.912,0.0
19.408,0.433,-0.926,0.0
17.467,0.387,-0.926,0.0
16.17,0.355,-0.944,0.0
14.85,0.322,-0.946,0.0
13.72,0.295,-0.947,0.0
22.368,0.478,-0.914,0.0
19.945,0.422,-0.92,0.0
18.068,0.379,-0.929,0.0
16.507,0.343,-0.938,0.0
15.219,0.313,-0.945,0.0
14.178,0.289,-0.955,0.0
22.896,0.463,-0.899,0.0
20.62,0.413,-0.919,0.0
18.588,0.368,-0.926,0.0
16.898,0.331,-0.933,0.0
15.638,0.303,-0.946,0.0
14.508,0.279,-0.954,0.0
23.872,0.455,-0.899,0.0
20.359,0.384,-0.873,0.0
19.278,0.36,-0.929,0.0
17.337,0.32,-0.928,0.0
16.163,0.296,-0.95,0.0
14.791,0.268,-0.948,0.0
24.888,0.447,-0.895,0.0
20.119,0.357,-0.829,1.0
20.127,0.354,-0.936,1.0
18.016,0.313,-0.934,0.0
16.507,0.284,-0.943,0.0
15.18,0.258,-0.947,0.0
26.041,0.439,-0.893,0.0
22.902,0.382,-0.905,0.0
20.281,0.335,-0.908,11.0
18.513,0.302,-0.928,0.0
16.89,0.272,-0.936,0.0
15.589,0.249,-0.946,0.0
27.022,0.428,-0.881,0.0
23.837,0.373,-0.902,0.0
20.127,0.311,-0.867,8.0
19.926,0.304,-0.965,0.0
17.491,0.264,-0.938,0.0
16.123,0.24,-0.95,0.0
20.231,0.299,-0.624,3.0
20.223,0.296,-0.73,6.0
20.181,0.291,-0.834,11.0
20.208,0.288,-0.943,2.0
18.123,0.255,-0.94,0.0
16.483,0.229,-0.941,0.0
20.216,0.279,-0.587,25.0
20.235,0.275,-0.694,22.0
20.231,0.272,-0.799,26.0
20.254,0.269,-0.908,14.0
18.508,0.242,-0.926,18.0
16.945,0.219,-0.937,0.0
20.2,0.259,-0.55,29.0
20.205,0.255,-0.656,27.0
20.224,0.252,-0.762,29.0
0.0,0.0,0.0,0.0
18.53,0.225,-0.894,12.0
17.711,0.212,-0.947,2.0
20.186,0.239,-0.513,31.0
20.205,0.236,-0.619,33.0
20.225,0.233,-0.725,29.0
18.658,0.212,-0.768,151.0
18.532,0.207,-0.859,15.0
18.341,0.202,-0.946,3.0
20.179,0.221,-0.476,29.0
20.191,0.218,-0.581,34.0
20.218,0.215,-0.687,27.0
18.57,0.194,-0.729,152.0
18.559,0.191,-0.826,151.0
18.49,0.188,-0.919,31.0
20.189,0.203,-0.438,29.0
20.173,0.2,-0.542,30.0
20.212,0.197,-0.648,25.0
18.563,0.178,-0.694,40.0
18.506,0.174,-0.788,164.0
18.534,0.172,-0.886,59.0
20.176,0.185,-0.399,38.0
20.196,0.183,-0.504,27.0
20.193,0.18,-0.609,16.0
21.667,0.189,-0.768,150.0
18.517,0.159,-0.753,171.0
18.546,0.157,-0.851,63.0
20.187,0.169,-0.36,33.0
20.204,0.166,-0.465,26.0
20.195,0.163,-0.57,7.0
21.631,0.172,-0.725,157.0
18.574,0.145,-0.719,151.0
18.529,0.142,-0.814,153.0
20.186,0.153,-0.321,34.0
20.176,0.15,-0.426,18.0
20.219,0.148,-0.531,2.0
21.685,0.155,-0.685,97.0
21.597,0.152,-0.794,160.0
18.548,0.128,-0.778,151.0
20.18,0.138,-0.282,32.0
20.195,0.135,-0.387,18.0
20.168,0.132,-0.49,0.0
21.689,0.139,-0.642,58.0
21.619,0.136,-0.752,171.0
21.645,0.134,-0.865,96.0
20.187,0.123,-0.242,29.0
20.203,0.121,-0.347,19.0
0.0,0.0,0.0,0.0
31.94,0.183,-0.883,0.0
21.675,0.122,-0.711,152.0
21.669,0.119,-0.823,151.0
20.185,0.109,-0.202,25.0
20.202,0.107,-0.307,18.0
0.0,0.0,0.0,0.0
33.278,0.168,-0.853,0.0
21.713,0.107,-0.669,0.0
21.675,0.105,-0.78,151.0
20.191,0.096,-0.162,33.0
20.203,0.094,-0.266,12.0
0.0,0.0,0.0,0.0
0.0,0.0,0.0,0.0
31.228,0.135,-0.899,2.0
21.655,0.091,-0.735,7.0
20.197,0.083,-0.12,29.0
20.208,0.081,-0.225,9.0
0.0,0.0,0.0,0.0
38.036,0.145,-0.821,1.0
33.137,0.123,-0.886,5.0
27.968,0.101,-0.892,0.0
20.212,0.072,-0.079,33.0
20.225,0.07,-0.184,22.0
20.203,0.068,-0.288,0.0
40.306,0.131,-0.787,0.0
33.259,0.105,-0.822,1.0
20.238,0.062,-0.604,0.0
20.224,0.061,-0.038,22.0
20.231,0.059,-0.143,24.0
20.226,0.057,-0.247,4.0
20.231,0.055,-0.354,3.0
20.243,0.053,-0.458,8.0
20.242,0.051,-0.562,15.0
20.261,0.05,0.003,8.0
20.26,0.048,-0.1,40.0
20.249,0.047,-0.205,150.0
20.253,0.045,-0.311,52.0
20.268,0.043,-0.416,64.0
20.269,0.041,-0.521,80.0
20.241,0.04,0.045,14.0
20.273,0.039,-0.058,150.0
20.262,0.037,-0.163,151.0
20.261,0.035,-0.269,150.0
20.263,0.034,-0.373,150.0
20.26,0.032,-0.478,150.0
20.15,0.031,0.087,30.0
20.248,0.03,-0.016,152.0
20.26,0.028,-0.12,152.0
20.259,0.027,-0.227,151.0
20.266,0.025,-0.331,150.0
20.266,0.024,-0.436,150.0
20.134,0.023,0.129,28.0
20.253,0.021,0.026,151.0
20.261,0.02,-0.078,151.0
20.258,0.019,-0.184,151.0
20.267,0.018,-0.289,150.0
20.267,0.016,-0.393,81.0
20.135,0.015,0.171,29.0
20.184,0.014,0.068,63.0
20.256,0.013,-0.035,151.0
20.26,0.012,-0.142,150.0
20.264,0.011,-0.246,56.0
20.237,0.009,-0.35,10.0
20.125,0.008,0.214,27.0
20.13,0.007,0.11,30.0
20.257,0.006,0.007,55.0
20.224,0.005,-0.098,23.0
20.228,0.004,-0.202,9.0
20.249,0.003,-0.307,5.0
20.124,0.002,0.256,27.0
20.116,0.001,0.153,27.0
20.156,0.001,0.049,25.0
20.193,0.0,-0.055,17.0
20.194,0.0,-0.159,14.0
20.195,-0.001,-0.263,6.0
20.128,-0.002,0.3,29.0
20.12,-0.003,0.196,28.0
20.123,-0.004,0.092,32.0
20.14,-0.004,-0.012,14.0
20.157,-0.005,-0.116,18.0
20.202,-0.006,-0.22,2.0
20.132,-0.007,0.342,29.0
20.124,-0.007,0.239,27.0
20.127,-0.008,0.135,27.0
20.142,-0.008,0.029,24.0
20.173,-0.009,-0.073,22.0
20.172,-0.01,-0.177,18.0
20.127,-0.01,0.385,28.0
20.113,-0.011,0.281,26.0
20.115,-0.011,0.178,29.0
20.127,-0.012,0.073,33.0
20.113,-0.012,-0.03,19.0
20.167,-0.013,-0.134,24.0
20.139,-0.014,0.429,29.0
20.12,-0.014,0.324,29.0
20.124,-0.014,0.221,28.0
20.116,-0.015,0.116,32.0
20.138,-0.015,0.012,28.0
20.152,-0.015,-0.091,24.0
20.132,-0.016,0.471,28.0
20.126,-0.016,0.368,27.0
20.122,-0.016,0.264,24.0
20.112,-0.016,0.159,29.0
20.13,-0.017,0.055,35.0
20.12,-0.017,-0.047,29.0
20.155,-0.017,0.515,23.0
20.131,-0.017,0.411,27.0
20.113,-0.018,0.307,29.0
20.104,-0.018,0.201,32.0
20.125,-0.018,0.099,38.0
20.134,-0.018,-0.004,31.0
20.166,-0.018,0.559,22.0
20.134,-0.018,0.454,27.0
20.124,-0.018,0.35,28.0
20.114,-0.018,0.245,26.0
20.112,-0.018,0.141,28.0
20.132,-0.018,0.038,36.0
20.189,-0.018,0.603,22.0
20.162,-0.018,0.498,22.0
20.126,-0.018,0.394,25.0
20.112,-0.018,0.287,27.0
20.119,-0.017,0.184,33.0
20.129,-0.017,0.081,39.0
20.192,-0.018,0.646,29.0
20.141,-0.017,0.54,20.0
20.123,-0.017,0.436,27.0
20.112,-0.016,0.33,29.0
20.106,-0.016,0.227,27.0
20.122,-0.016,0.123,30.0
20.169,-0.016,0.688,23.0
20.155,-0.016,0.583,20.0
20.133,-0.015,0.479,25.0
20.122,-0.015,0.373,26.0
20.127,-0.014,0.269,25.0
20.117,-0.013,0.166,31.0
20.126,-0.014,0.729,28.0
20.188,-0.013,0.627,28.0
20.13,-0.013,0.521,19.0
20.124,-0.012,0.415,27.0
20.113,-0.011,0.312,30.0
20.119,-0.011,0.208,29.0
20.119,-0.011,0.771,28.0
20.177,-0.01,0.669,28.0
20.169,-0.009,0.565,23.0
20.125,-0.009,0.458,27.0
20.121,-0.008,0.355,26.0
20.113,-0.007,0.251,25.0
20.123,-0.007,0.814,29.0
20.136,-0.006,0.71,26.0
20.181,-0.006,0.608,26.0
20.151,-0.005,0.501,21.0
20.13,-0.003,0.397,26.0
20.132,-0.002,0.293,28.0
20.124,-0.003,0.857,28.0
20.118,-0.002,0.752,28.0
20.179,-0.001,0.651,41.0
20.159,0.0,0.544,23.0
20.13,0.001,0.439,27.0
20.121,0.002,0.335,26.0
58.296,0.005,2.604,150.0
20.113,0.002,0.794,26.0
20.132,0.004,0.691,26.0
20.178,0.005,0.586,27.0
20.144,0.006,0.481,26.0
20.127,0.007,0.377,25.0
58.297,0.021,2.725,165.0
20.125,0.008,0.836,28.0
20.111,0.01,0.732,30.0
20.182,0.011,0.628,42.0
20.154,0.013,0.523,22.0
20.131,0.014,0.418,26.0
66.834,0.047,3.262,34.0
20.108,0.015,0.877,20.0
20.106,0.017,0.773,27.0
20.173,0.018,0.669,36.0
20.169,0.02,0.564,27.0
20.137,0.021,0.459,28.0
66.865,0.071,3.4,18.0
58.263,0.066,2.661,15.0
20.104,0.024,0.814,25.0
20.118,0.026,0.708,33.0
20.191,0.028,0.606,36.0
20.152,0.029,0.501,24.0
59.403,0.087,3.143,54.0
66.753,0.103,3.185,60.0
20.105,0.033,0.855,25.0
20.1,0.034,0.748,25.0
20.193,0.036,0.648,45.0
20.169,0.038,0.543,26.0
59.743,0.114,3.283,45.0
66.736,0.133,3.32,58.0
20.095,0.042,0.895,12.0
20.098,0.044,0.789,26.0
20.135,0.046,0.686,31.0
20.195,0.048,0.583,34.0
60.001,0.142,3.417,48.0
66.688,0.165,3.452,37.0
66.924,0.172,3.115,32.0
20.103,0.053,0.829,24.0
20.108,0.055,0.725,28.0
20.207,0.058,0.624,32.0
60.044,0.172,3.538,8.0
59.396,0.177,3.191,29.0
67.011,0.207,3.252,44.0
20.096,0.064,0.869,17.0
20.117,0.066,0.765,22.0
20.201,0.069,0.664,26.0
46.188,0.158,2.813,49.0
59.433,0.209,3.31,28.0
66.813,0.243,3.374,36.0
20.128,0.075,0.909,8.0
20.128,0.077,0.805,22.0
20.159,0.08,0.701,28.0
46.218,0.184,2.905,15.0
59.474,0.244,3.429,20.0
66.86,0.282,3.506,42.0
66.053,0.287,3.113,14.0
20.124,0.089,0.843,18.0
20.144,0.092,0.74,25.0
60.302,0.277,3.908,13.0
67.194,0.317,4.004,21.0
67.105,0.325,3.649,33.0
100.492,0.499,4.931,16.0
20.142,0.102,0.883,9.0
20.152,0.105,0.779,21.0
60.349,0.316,4.028,20.0
67.17,0.36,4.131,24.0
59.506,0.327,3.348,12.0
109.895,0.618,5.6,22.0
65.96,0.38,3.018,27.0
20.159,0.118,0.817,9.0
58.618,0.346,4.022,21.0
46.223,0.279,2.929,55.0
59.477,0.367,3.458,27.0
66.898,0.422,3.533,28.0
65.874,0.424,3.135,24.0
101.855,0.671,4.316,46.0
58.629,0.387,4.132,44.0
46.259,0.312,3.017,27.0
59.447,0.409,3.567,30.0
66.96,0.471,3.661,17.0
65.874,0.472,3.257,7.0
142.316,1.042,6.292,9.0
58.574,0.43,4.237,25.0
67.193,0.503,4.507,9.0
59.395,0.453,3.672,18.0
101.269,0.789,5.722,18.0
65.871,0.523,3.377,25.0
100.005,0.808,4.604,10.0
58.504,0.475,4.339,50.0
67.214,0.555,4.631,39.0
59.348,0.499,3.778,20.0
103.747,0.889,6.05,8.0
66.633,0.582,3.536,41.0
65.88,0.585,3.152,6.0
58.428,0.521,4.439,36.0
67.276,0.61,4.757,19.0
46.269,0.427,3.028,44.0
101.194,0.949,6.081,39.0
67.049,0.639,3.676,40.0
65.985,0.639,3.271,15.0
58.425,0.568,4.541,33.0
67.27,0.666,4.874,25.0
46.286,0.465,3.11,45.0
59.619,0.609,3.686,30.0
67.141,0.697,3.798,19.0
65.999,0.696,3.387,24.0
58.333,0.618,4.636,16.0
67.2,0.722,4.986,21.0
46.303,0.505,3.19,15.0
59.638,0.661,3.789,58.0
103.819,1.168,6.049,8.0
66.039,0.754,3.501,28.0
52.598,0.603,4.27,31.0
67.227,0.783,5.103,24.0
46.383,0.548,3.275,27.0
59.675,0.715,3.892,47.0
109.958,1.336,6.593,7.0
66.147,0.815,3.617,27.0
52.461,0.649,4.347,34.0
67.141,0.843,5.207,20.0
46.376,0.59,3.351,24.0
59.73,0.77,3.994,39.0
67.567,0.883,4.161,4.0
67.234,0.89,3.785,40.0
52.481,0.698,4.435,29.0
43.29,0.583,3.428,6.0
46.396,0.633,3.428,20.0
59.684,0.826,4.088,40.0
101.941,1.429,6.443,4.0
67.46,0.958,3.907,10.0
52.392,0.748,4.512,22.0
43.208,0.624,3.492,5.0
46.419,0.679,3.505,74.0
59.584,0.883,4.177,34.0
67.52,1.013,4.375,3.0
67.523,1.025,4.018,20.0
40.407,0.617,3.544,38.0
46.563,0.719,3.836,2.0
46.434,0.726,3.578,78.0
59.419,0.94,4.258,34.0
67.727,1.084,4.494,9.0
67.557,1.094,4.125,26.0
40.396,0.658,3.606,4.0
43.921,0.723,3.687,18.0
67.748,1.128,5.326,17.0
59.294,0.999,4.339,29.0
67.678,1.152,4.593,32.0
67.665,1.165,4.234,11.0
43.906,0.76,3.986,10.0
46.446,0.813,3.969,25.0
47.98,0.849,3.844,4.0
59.313,1.061,4.43,8.0
67.543,1.221,4.685,15.0
67.572,1.235,4.328,6.0
40.377,0.742,3.726,32.0
46.455,0.863,4.039,42.0
43.263,0.812,3.53,12.0
59.253,1.124,4.512,17.0
67.649,1.297,4.792,36.0
67.775,1.312,4.44,7.0
40.34,0.786,3.782,40.0
40.401,0.795,3.571,15.0
43.387,0.862,3.603,10.0
52.721,1.058,4.09,4.0
67.512,1.369,4.878,13.0
66.291,1.357,4.437,32.0
52.5,1.082,4.998,5.0
40.286,0.838,3.619,13.0
44.021,0.924,3.718,4.0
58.604,1.242,4.63,35.0
67.428,1.442,4.967,11.0
0.0,0.0,0.0,0.0
52.593,1.143,5.08,15.0
40.261,0.883,3.672,23.0
46.56,1.03,3.996,4.0
43.073,0.962,3.462,4.0
52.796,1.19,3.96,5.0
67.777,1.541,4.721,10.0
52.6,1.203,5.152,17.0
46.612,1.076,4.314,6.0
40.406,0.941,3.522,13.0
42.72,1.003,3.49,6.0
66.478,1.575,5.073,31.0
65.996,1.577,4.682,5.0
57.708,1.388,5.727,6.0
40.338,0.978,3.786,53.0
46.384,1.134,4.102,7.0
48.838,1.204,4.052,14.0
57.857,1.439,4.489,11.0
65.988,1.655,4.766,18.0
57.661,1.455,5.796,6.0
40.342,1.027,3.837,23.0
40.459,1.038,3.63,41.0
0.0,0.0,0.0,0.0
52.116,1.358,4.109,16.0
52.928,1.391,3.888,5.0
46.601,1.232,4.742,12.0
53.01,1.413,5.107,20.0
40.375,1.084,3.671,71.0
51.859,1.403,4.43,26.0
65.971,1.799,5.279,9.0
52.525,1.443,3.92,32.0
46.624,1.289,4.799,24.0
60.147,1.675,5.865,14.0
40.386,1.133,3.719,66.0
40.405,1.142,3.498,9.0
58.169,1.657,4.721,5.0
68.685,1.971,5.205,5.0
46.651,1.348,4.856,8.0
54.448,1.584,5.372,2.0
48.674,1.426,4.537,5.0
46.733,1.379,4.098,4.0
51.295,1.524,4.22,3.0
52.012,1.557,3.998,5.0
46.351,1.396,4.876,3.0
52.506,1.593,5.238,1.0
53.138,1.624,5.011,6.0
40.449,1.244,3.591,9.0
43.322,1.342,3.611,5.0
51.903,1.619,4.046,5.0
46.275,1.453,4.918,8.0
52.421,1.657,5.285,7.0
53.305,1.696,5.084,5.0
40.456,1.296,3.634,2.0
51.068,1.646,4.309,8.0
43.655,1.417,3.447,3.0
53.304,1.742,5.719,3.0
65.769,2.163,6.697,11.0
53.129,1.758,5.12,5.0
46.751,1.556,4.246,5.0
46.877,1.571,4.002,8.0
52.81,1.781,4.222,2.0
46.868,1.592,5.075,2.0
61.89,2.115,6.363,3.0
60.021,2.063,5.842,13.0
46.184,1.597,4.239,4.0
46.842,1.63,4.044,9.0
58.358,2.043,4.721,10.0
46.677,1.646,5.099,18.0
46.195,1.638,4.793,2.0
52.414,1.869,5.15,5.0
46.143,1.655,4.277,6.0
46.87,1.692,4.089,7.0
47.028,1.707,3.846,4.0
46.283,1.692,5.098,10.0
60.215,2.215,6.301,13.0
52.337,1.935,5.189,3.0
53.41,1.987,4.998,5.0
53.128,1.987,4.68,6.0
52.78,1.985,4.362,5.0
46.407,1.758,5.151,8.0
46.991,1.79,4.957,3.0
60.197,2.305,6.019,2.0
42.877,1.65,4.048,6.0
46.921,1.816,4.172,9.0
52.884,2.058,4.413,21.0
59.44,2.33,6.646,35.0
46.74,1.842,4.968,5.0
65.514,2.595,6.603,2.0
57.286,2.281,5.453,2.0
53.515,2.142,4.8,2.0
43.414,1.747,3.656,3.0
46.809,1.897,5.27,9.0
46.569,1.897,4.986,4.0
45.963,1.881,4.667,4.0
52.586,2.164,5.044,6.0
59.475,2.46,5.379,4.0
46.942,1.951,3.988,7.0
47.037,1.969,5.33,4.0
61.922,2.605,6.674,2.0
45.941,1.942,4.697,3.0
52.482,2.229,5.071,6.0
53.662,2.291,4.89,2.0
47.025,2.017,4.027,13.0
59.144,2.554,6.742,8.0
46.216,2.006,5.012,5.0
46.969,2.048,4.834,5.0
65.689,2.878,6.391,6.0
59.208,2.607,5.434,3.0
47.057,2.081,4.059,12.0
0.0,0.0,0.0,0.0
46.467,2.078,5.068,17.0
46.911,2.108,4.857,8.0
52.235,2.358,5.113,3.0
46.022,2.087,4.251,7.0
59.743,2.722,5.189,3.0
0.0,0.0,0.0,0.0
46.265,2.132,5.073,12.0
46.501,2.152,4.841,15.0
45.781,2.128,4.508,2.0
45.739,2.136,4.25,6.0
59.769,2.803,5.224,3.0
47.715,2.253,5.524,1.0
46.339,2.198,5.106,9.0
47.054,2.24,4.923,1.0
45.769,2.189,4.53,6.0
45.988,2.208,4.297,10.0
46.946,2.264,4.127,3.0
0.0,0.0,0.0,0.0
46.721,2.278,5.171,9.0
46.296,2.266,4.866,1.0
45.702,2.246,4.545,3.0
45.964,2.268,4.316,11.0
53.095,2.63,4.692,2.0
0.0,0.0,0.0,0.0
46.967,2.352,5.219,6.0
60.611,3.047,6.398,4.0
60.861,3.071,6.079,2.0
45.938,2.328,4.333,9.0
53.157,2.704,4.719,2.0
60.382,3.094,7.073,7.0
47.047,2.419,5.248,2.0
60.653,3.131,6.426,4.0
46.331,2.4,4.646,3.0
45.868,2.385,4.344,11.0
45.882,2.395,4.09,2.0
46.68,2.454,5.485,1.0
47.153,2.488,5.276,2.0
46.506,2.462,4.944,4.0
52.32,2.78,5.264,2.0
45.907,2.448,4.363,7.0
45.95,2.46,4.111,7.0
60.363,3.254,7.112,2.0
46.45,2.512,5.212,3.0
46.045,2.499,4.909,13.0
45.66,2.487,4.607,1.0
45.636,2.495,4.35,18.0
45.841,2.515,4.115,4.0
46.612,2.575,5.505,1.0
46.962,2.603,5.282,2.0
46.673,2.596,4.988,6.0
45.795,2.564,4.376,14.0
45.163,2.537,4.064,1.0
45.803,2.591,5.42,4.0
47.274,2.682,5.328,1.0
46.395,2.641,4.968,4.0
45.706,2.609,4.633,2.0
45.687,2.617,4.375,14.0
47.154,2.728,5.588,2.0
46.97,2.726,5.301,2.0
46.312,2.696,4.967,3.0
45.467,2.655,4.616,1.0
45.562,2.669,4.37,7.0
0.0,0.0,0.0,0.0
46.867,2.781,5.296,1.0
46.28,2.754,4.969,3.0
45.651,2.733,4.384,10.0
45.987,2.761,4.158,1.0
0.0,0.0,0.0,0.0
47.239,2.863,5.342,1.0
46.064,2.8,4.95,4.0
45.669,2.792,4.388,9.0
45.965,2.818,4.159,2.0
0.0,0.0,0.0,0.0
47.196,2.921,5.339,0.0
46.115,2.862,4.956,2.0
45.58,2.845,4.381,7.0
47.479,2.971,4.297,4.0
0.0,0.0,0.0,0.0
46.153,2.915,5.221,0.0
46.053,2.916,4.949,2.0
45.606,2.903,4.382,5.0
47.518,3.032,4.299,4.0
0.0,0.0,0.0,0.0
46.243,2.978,5.229,2.0
46.021,2.971,4.943,2.0
45.533,2.954,4.372,4.0
47.465,3.088,4.29,3.0
0.0,0.0,0.0,0.0
46.224,3.034,5.223,3.0
45.973,3.025,4.934,1.0
45.645,3.017,4.378,2.0
47.48,3.146,4.286,1.0
47.073,3.14,5.58,2.0
46.209,3.089,5.215,1.0
0.0,0.0,0.0,0.0
45.535,3.065,4.36,1.0
47.439,3.2,4.275,1.0
0.0,0.0,0.0,0.0
0.0,0.0,0.0,0.0
0.0,0.0,0.0,0.0
45.695,3.13,4.366,4.0
0.0,0.0,0.0,0.0
0.0,0.0,0.0,0.0
46.483,3.226,4.963,0.0
47.823,3.333,4.558,3.0
46.215,3.248,5.449,3.0
0.0,0.0,0.0,0.0
46.233,3.262,4.924,1.0
45.659,3.241,4.08,1.0
0.0,0.0,0.0,0.0
0.0,0.0,0.0,0.0
46.254,3.316,4.911,2.0
45.269,3.251,4.545,2.0
47.396,3.411,4.489,1.0
45.58,3.286,4.059,2.0
0.0,0.0,0.0,0.0
0.0,0.0,0.0,0.0
46.301,3.371,4.9,0.0
45.541,3.322,4.556,2.0
47.323,3.458,4.465,1.0
0.0,0.0,0.0,0.0
0.0,0.0,0.0,0.0
0.0,0.0,0.0,0.0
45.579,3.374,4.541,3.0
0.0,0.0,0.0,0.0
0.0,0.0,0.0,0.0
0.0,0.0,0.0,0.0
0.0,0.0,0.0,0.0
0.0,0.0,0.0,0.0
0.0,0.0,0.0,0.0
45.345,3.464,3.96,0.0
0.0,0.0,0.0,0.0
0.0,0.0,0.0,0.0
45.378,3.497,4.72,1.0
45.339,3.509,3.935,1.0
0.0,0.0,0.0,0.0
0.0,0.0,0.0,0.0
45.382,3.543,4.695,4.0
114.592,8.985,9.881,10.0
0.0,0.0,0.0,0.0
0.0,0.0,0.0,0.0
46.008,3.641,4.464,1.0
116.017,9.207,9.935,2.0
0.0,0.0,0.0,0.0
45.272,3.618,4.888,0.0
0.0,0.0,0.0,0.0
45.994,3.684,4.434,1.0
116.09,9.31,10.528,2.0
116.198,9.33,9.875,4.0
45.141,3.645,5.104,3.0
45.282,3.66,4.859,2.0
0.0,0.0,0.0,0.0
46.053,3.73,4.409,1.0
116.075,9.415,10.448,4.0
116.188,9.434,9.795,7.0
0.0,0.0,0.0,0.0
0.0,0.0,0.0,0.0
116.099,9.497,11.711,4.0
46.147,3.779,4.385,0.0
116.124,9.519,10.371,2.0
117.39,9.634,9.813,2.0
0.0,0.0,0.0,0.0
0.0,0.0,0.0,0.0
115.613,9.557,11.577,4.0
115.08,9.522,10.852,9.0
117.816,9.759,10.434,7.0
117.663,9.757,9.747,8.0
0.0,0.0,0.0,0.0
0.0,0.0,0.0,0.0
0.0,0.0,0.0,0.0
115.987,9.694,10.846,2.0
115.584,9.669,10.145,11.0
112.659,9.434,9.244,7.0
0.0,0.0,0.0,0.0
0.0,0.0,0.0,0.0
46.139,3.889,4.547,0.0
115.499,9.746,10.705,2.0
115.354,9.741,10.031,2.0
115.529,9.765,9.385,7.0
0.0,0.0,0.0,0.0
115.01,9.777,11.898,2.0
0.0,0.0,0.0,0.0
0.0,0.0,0.0,0.0
109.546,9.334,9.432,2.0
96.434,8.224,7.75,7.0
0.0,0.0,0.0,0.0
0.0,0.0,0.0,0.0
115.141,9.88,11.147,3.0
110.021,9.456,9.375,2.0
96.473,8.297,7.668,6.0
0.0,0.0,0.0,0.0
0.0,0.0,0.0,0.0
115.202,9.966,11.049,3.0
114.919,9.948,10.348,3.0
114.987,9.961,9.694,25.0
96.487,8.364,7.581,7.0
115.102,10.024,12.26,7.0
114.903,10.012,11.575,12.0
114.963,10.022,10.917,9.0
114.951,10.027,10.242,10.0
99.448,8.681,8.289,3.0
96.423,8.422,7.484,5.0
114.833,10.074,12.12,8.0
114.868,10.083,11.459,3.0
114.786,10.079,10.789,2.0
114.051,10.02,10.051,3.0
114.122,10.032,9.401,4.0
96.411,8.48,7.389,6.0
0.0,0.0,0.0,0.0
114.994,10.163,11.356,3.0
116.012,10.257,10.787,2.0
109.649,9.698,9.552,9.0
99.456,8.801,8.092,5.0
96.64,8.557,7.308,7.0
114.699,10.199,11.872,3.0
115.083,10.236,11.246,3.0
114.88,10.221,10.563,2.0
99.378,8.844,8.555,1.0
99.375,8.848,7.983,6.0
96.549,8.6,7.202,8.0
115.102,10.295,11.793,3.0
114.64,10.258,11.081,7.0
92.388,8.268,8.397,1.0
92.564,8.286,7.87,2.0
99.256,8.888,7.868,5.0
97.263,8.713,7.151,3.0
114.631,10.31,11.621,4.0
0.0,0.0,0.0,0.0
99.307,8.936,8.917,3.0
109.657,9.869,9.204,2.0
97.955,8.818,7.658,4.0
84.828,7.64,6.144,3.0
114.774,10.376,11.507,2.0
0.0,0.0,0.0,0.0
85.039,7.69,7.542,2.0
108.096,9.776,8.953,6.0
97.925,8.858,7.547,4.0
84.846,7.678,6.05,5.0
0.0,0.0,0.0,0.0
110.931,10.076,10.353,2.0
99.317,9.021,8.695,4.0
98.021,8.904,8.006,5.0
98.026,8.906,7.442,6.0
84.833,7.71,5.952,5.0
0.0,0.0,0.0,0.0
0.0,0.0,0.0,0.0
97.84,8.923,8.451,4.0
91.745,8.368,7.385,2.0
97.931,8.933,7.32,9.0
84.97,7.752,5.862,6.0
0.0,0.0,0.0,0.0
115.019,10.528,10.465,3.0
99.236,9.083,8.454,6.0
91.683,8.392,7.272,2.0
0.0,0.0,0.0,0.0
84.897,7.771,5.757,5.0
0.0,0.0,0.0,0.0
99.968,9.179,8.975,1.0
99.289,9.116,8.34,6.0
98.802,9.071,7.718,7.0
96.617,8.871,6.99,8.0
84.96,7.8,5.657,4.0
114.761,10.569,10.827,1.0
98.905,9.107,8.758,5.0
99.237,9.136,8.213,2.0
91.791,8.449,7.057,5.0
96.024,8.839,6.829,4.0
97.33,8.959,6.361,3.0
114.915,10.608,10.698,3.0
85.851,7.923,7.494,4.0
0.0,0.0,0.0,0.0
91.812,8.47,6.944,5.0
93.47,8.621,6.53,6.0
84.71,7.813,5.431,3.0
106.828,9.88,9.808,5.0
85.567,7.911,7.361,5.0
95.86,8.861,7.692,5.0
98.18,9.073,7.301,2.0
93.471,8.636,6.412,2.0
84.268,7.784,5.295,5.0
106.792,9.891,9.667,4.0
92.415,8.556,7.831,2.0
86.059,7.965,6.794,2.0
96.617,8.94,7.061,5.0
85.209,7.882,5.735,3.0
78.382,7.249,4.825,3.0
106.914,9.912,9.539,2.0
99.292,9.201,8.283,5.0
91.69,8.493,7.119,6.0
96.286,8.916,6.909,6.0
85.008,7.869,5.61,6.0
78.446,7.26,4.725,3.0
86.122,7.988,7.57,4.0
85.286,7.907,7.002,4.0
91.857,8.512,7.01,7.0
93.448,8.656,6.582,6.0
85.014,7.872,5.499,12.0
87.473,8.097,5.154,3.0
85.903,7.968,7.435,9.0
95.835,8.885,7.739,4.0
98.376,9.115,7.376,4.0
93.432,8.654,6.455,5.0
84.783,7.849,5.37,8.0
87.488,8.096,5.038,1.0
106.825,9.904,9.102,7.0
96.053,8.901,7.627,3.0
96.564,8.943,7.11,3.0
85.756,7.937,5.81,4.0
86.031,7.959,5.332,2.0
91.711,8.482,5.155,2.0
99.213,9.191,8.317,5.0
91.733,8.492,7.158,6.0
96.426,8.92,6.968,5.0
84.981,7.858,5.641,7.0
78.363,7.241,4.75,3.0
91.556,8.457,5.022,7.0
85.223,7.884,7.027,3.0
91.817,8.488,7.039,10.0
93.447,8.633,6.624,5.0
85.031,7.85,5.528,4.0
87.463,8.069,5.183,3.0
86.044,7.934,4.603,2.0
95.766,8.843,7.763,3.0
91.976,8.486,6.924,2.0
93.526,8.623,6.5,3.0
84.274,7.765,5.362,3.0
98.414,9.061,5.695,8.0
86.434,7.953,4.503,4.0
91.761,8.454,7.31,3.0
96.56,8.888,7.135,3.0
84.979,7.816,5.787,7.0
91.701,8.427,5.706,4.0
86.738,7.965,4.897,3.0
92.25,8.466,4.677,4.0
98.886,9.084,7.738,7.0
96.761,8.881,7.012,10.0
97.46,8.937,6.499,3.0
78.352,7.179,4.765,4.0
91.726,8.398,5.049,6.0
92.159,8.431,4.543,2.0
98.181,8.99,7.543,6.0
96.905,8.864,6.885,7.0
91.731,8.383,5.987,5.0
91.593,8.363,5.441,4.0
91.836,8.378,4.926,4.0
138.528,12.628,6.634,3.0
97.944,8.934,7.385,7.0
84.938,7.74,5.914,6.0
110.048,10.018,7.027,4.0
89.05,8.099,5.164,4.0
97.088,8.822,5.071,5.0
88.17,8.004,4.098,4.0
96.966,8.807,7.174,5.0
91.776,8.327,6.26,3.0
109.824,9.954,6.857,7.0
91.65,8.299,5.185,4.0
97.691,8.837,4.965,5.0
87.277,7.887,3.933,7.0
84.832,7.669,6.155,4.0
107.529,9.709,7.18,4.0
78.388,7.07,4.781,3.0
83.932,7.561,4.628,4.0
106.749,9.608,5.271,3.0
108.264,9.734,4.724,7.0
109.748,9.868,7.806,14.0
85.069,7.64,5.558,1.0
99.402,8.916,5.921,5.0
85.801,7.687,4.608,5.0
111.251,9.958,5.335,5.0
104.454,9.339,4.409,3.0
97.428,8.709,6.79,4.0
95.984,8.57,6.136,3.0
83.789,7.471,4.872,3.0
97.202,8.657,5.082,4.0
88.159,7.843,4.102,5.0
86.378,7.676,3.524,4.0
97.427,8.654,6.65,2.0
85.363,7.573,5.333,4.0
84.366,7.474,4.785,5.0
96.938,8.577,4.931,5.0
110.423,9.759,4.98,18.0
108.055,9.538,4.253,1.0
107.531,9.486,7.185,4.0
98.26,8.657,5.999,2.0
117.542,10.341,6.498,5.0
110.146,9.677,5.444,8.0
99.767,8.754,4.357,6.0
143.345,12.562,5.436,22.0
90.152,7.895,5.894,2.0
91.567,8.007,5.458,6.0
91.751,8.011,4.941,4.0
108.107,9.426,5.189,4.0
99.79,8.69,4.215,4.0
143.308,12.462,5.231,20.0
85.435,7.422,5.462,6.0
91.641,7.95,5.331,2.0
96.942,8.396,5.081,6.0
87.451,7.563,4.072,11.0
109.901,9.492,4.486,4.0
121.108,10.445,4.249,28.0
91.32,7.866,5.709,6.0
84.94,7.305,4.82,3.0
89.631,7.696,4.57,3.0
99.066,8.493,4.471,6.0
99.726,8.536,3.928,2.0
143.858,12.297,4.841,12.0
91.564,7.815,5.592,5.0
97.027,8.267,5.367,2.0
108.215,9.205,5.363,2.0
98.932,8.402,4.323,7.0
121.19,10.276,4.601,3.0
144.429,12.227,4.654,22.0
91.716,7.752,5.47,15.0
92.225,7.782,4.969,2.0
91.861,7.737,4.422,6.0
109.74,9.228,4.641,4.0
143.906,12.081,5.259,8.0
144.552,12.115,4.453,12.0
91.756,7.676,5.341,8.0
108.069,9.023,5.669,5.0
87.472,7.291,4.086,5.0
108.131,8.996,4.419,2.0
156.96,13.037,5.515,14.0
162.542,13.477,4.779,5.0
109.416,9.054,6.215,3.0
96.895,8.002,4.947,4.0
96.271,7.936,4.361,4.0
143.895,11.839,5.679,18.0
160.293,13.165,5.407,15.0
156.78,12.853,4.39,10.0
92.11,7.534,5.102,5.0
92.284,7.533,4.582,5.0
109.935,8.957,4.827,4.0
156.896,12.757,5.973,8.0
160.542,13.028,5.192,8.0
156.573,12.683,4.166,16.0
107.719,8.705,5.818,6.0
87.83,7.082,4.239,2.0
109.837,8.839,4.67,5.0
166.804,13.395,6.118,6.0
154.986,12.42,4.796,22.0
194.829,15.582,4.915,8.0
92.12,7.349,4.847,9.0
120.909,9.624,5.667,2.0
109.83,8.722,4.517,3.0
167.012,13.234,5.895,22.0
154.85,12.246,4.577,15.0
161.465,12.742,3.85,9.0
91.967,7.236,4.711,2.0
96.948,7.61,4.409,3.0
109.945,8.611,4.369,1.0
154.565,12.079,5.243,7.0
167.334,13.047,4.717,20.0
155.7,12.114,3.499,35.0
108.278,8.399,5.398,3.0
96.607,7.475,4.261,3.0
0.0,0.0,0.0,0.0
172.528,13.288,5.618,15.0
169.371,13.015,4.547,6.0
156.101,11.969,3.297,16.0
107.443,8.211,5.212,2.0
96.57,7.361,4.132,8.0
156.837,11.927,5.812,4.0
156.912,11.903,4.901,11.0
161.326,12.207,4.115,7.0
167.878,12.675,3.324,19.0
96.472,7.257,4.551,5.0
163.506,12.267,6.776,6.0
169.664,12.695,6.059,11.0
166.876,12.454,4.988,4.0
167.219,12.45,4.043,10.0
168.134,12.487,3.105,15.0
96.38,7.132,4.419,2.0
154.426,11.396,6.197,6.0
0.0,0.0,0.0,0.0
155.193,11.389,4.436,18.0
162.137,11.868,3.707,41.0
173.226,12.647,2.973,41.0
121.749,8.852,5.422,2.0
0.0,0.0,0.0,0.0
160.753,11.623,5.321,16.0
156.211,11.263,4.263,20.0
168.123,12.088,3.628,22.0
173.549,12.445,2.753,6.0
121.269,8.658,5.243,4.0
153.733,10.943,5.767,6.0
156.002,11.071,4.961,19.0
162.292,11.484,4.219,23.0
173.804,12.264,3.525,19.0
0.0,0.0,0.0,0.0
110.259,7.722,4.626,2.0
156.006,10.894,5.655,7.0
161.588,11.248,4.934,16.0
167.998,11.659,4.155,16.0
210.346,14.555,4.002,26.0
199.386,13.755,2.656,4.0
155.854,10.701,6.344,13.0
156.847,10.733,5.488,6.0
173.175,11.811,5.071,12.0
202.202,13.746,4.747,6.0
0.0,0.0,0.0,0.0
0.0,0.0,0.0,0.0
157.054,10.557,6.197,5.0
155.763,10.436,5.257,5.0
162.709,10.864,4.563,16.0
173.702,11.559,3.864,7.0
209.776,13.914,3.473,5.0
0.0,0.0,0.0,0.0
161.674,10.632,6.181,4.0
162.694,10.661,5.293,23.0
174.038,11.364,4.67,9.0
0.0,0.0,0.0,0.0
0.0,0.0,0.0,0.0
0.0,0.0,0.0,0.0
154.582,9.936,5.726,4.0
0.0,0.0,0.0,0.0
194.224,12.391,4.982,9.0
198.18,12.6,3.936,13.0
0.0,0.0,0.0,0.0
0.0,0.0,0.0,0.0
163.074,10.232,5.85,3.0
0.0,0.0,0.0,0.0
195.794,12.192,4.795,10.0
0.0,0.0,0.0,0.0
202.656,12.526,2.64,6.0
0.0,0.0,0.0,0.0
0.0,0.0,0.0,0.0
0.0,0.0,0.0,0.0
0.0,0.0,0.0,0.0
0.0,0.0,0.0,0.0
0.0,0.0,0.0,0.0
197.571,11.858,1.23,32.0
0.0,0.0,0.0,0.0
0.0,0.0,0.0,0.0
0.0,0.0,0.0,0.0
0.0,0.0,0.0,0.0
0.0,0.0,0.0,0.0
197.544,11.535,1.011,33.0
193.247,11.21,6.282,5.0
0.0,0.0,0.0,0.0
198.149,11.392,4.191,6.0
0.0,0.0,0.0,0.0
207.47,11.825,2.013,9.0
197.503,11.209,0.798,22.0
0.0,0.0,0.0,0.0
196.022,10.996,5.048,8.0
196.107,10.95,3.938,17.0
195.871,10.885,2.803,7.0
196.078,10.849,1.695,67.0
196.039,10.796,0.584,43.0
196.036,10.716,5.955,22.0
196.041,10.665,4.844,25.0
196.244,10.627,3.737,6.0
207.031,11.155,2.748,6.0
197.21,10.578,1.501,23.0
0.0,0.0,0.0,0.0
193.653,10.257,5.686,5.0
0.0,0.0,0.0,0.0
198.02,10.385,3.572,9.0
206.521,10.774,2.535,6.0
197.138,10.235,1.304,33.0
0.0,0.0,0.0,0.0
193.978,9.938,5.502,10.0
196.598,10.019,4.464,8.0
197.567,10.015,3.367,9.0
197.803,9.972,2.232,23.0
197.226,9.89,1.111,27.0
0.0,0.0,0.0,0.0
193.97,9.594,5.313,20.0
0.0,0.0,0.0,0.0
0.0,0.0,0.0,0.0
0.0,0.0,0.0,0.0
197.138,9.533,0.922,24.0
0.0,0.0,0.0,0.0
196.115,9.351,5.189,5.0
0.0,0.0,0.0,0.0
204.936,9.653,3.105,21.0
205.398,9.618,1.932,14.0
196.948,9.168,0.74,22.0
0.0,0.0,0.0,0.0
0.0,0.0,0.0,0.0
197.447,8.994,3.928,6.0
204.935,9.28,2.92,58.0
196.636,8.847,1.672,21.0
195.48,8.74,0.561,5.0
0.0,0.0,0.0,0.0
195.414,8.598,4.818,18.0
195.419,8.542,3.716,13.0
0.0,0.0,0.0,0.0
196.68,8.484,1.502,25.0
0.0,0.0,0.0,0.0
0.0,0.0,0.0,0.0
0.0,0.0,0.0,0.0
196.762,8.233,3.576,8.0
0.0,0.0,0.0,0.0
196.621,8.115,1.339,32.0
0.0,0.0,0.0,0.0
0.0,0.0,0.0,0.0
196.806,7.923,4.525,16.0
0.0,0.0,0.0,0.0
199.299,7.908,2.339,6.0
196.565,7.739,1.181,34.0
0.0,0.0,0.0,0.0
0.0,0.0,0.0,0.0
195.155,7.486,4.334,15.0
195.084,7.423,3.235,6.0
203.326,7.678,2.228,8.0
196.462,7.36,1.029,25.0
0.0,0.0,0.0,0.0
69.058,2.545,-0.414,2.0
195.108,7.108,4.186,11.0
196.024,7.08,3.103,6.0
202.78,7.264,2.071,21.0
196.475,6.977,0.883,27.0
0.0,0.0,0.0,0.0
68.851,2.403,-0.463,1.0
195.102,6.728,4.045,22.0
195.135,6.669,2.95,18.0
0.0,0.0,0.0,0.0
