X,Y,Z,Reflectivity
121.793,1.645,5.826,18.0
84.856,1.143,3.563,1.0
19.642,0.264,0.71,13.0
84.841,1.148,5.387,3.0
121.882,1.645,7.024,16.0
122.208,1.645,6.326,20.0
121.78,1.635,5.581,9.0
19.726,0.264,0.788,0.0
19.64,0.262,0.67,15.0
121.372,1.63,7.457,14.0
122.104,1.635,6.788,15.0
122.026,1.629,6.069,13.0
84.795,1.128,3.713,8.0
19.642,0.26,0.745,9.0
19.652,0.259,0.63,15.0
84.808,1.127,5.038,12.0
84.802,1.123,4.54,12.0
84.828,1.119,4.045,13.0
84.801,1.115,3.54,16.0
19.636,0.257,0.705,14.0
19.648,0.256,0.59,13.0
84.806,1.111,4.864,28.0
84.815,1.107,4.369,29.0
84.813,1.102,3.872,30.0
84.82,1.098,3.367,18.0
19.644,0.253,0.665,15.0
19.658,0.252,0.551,14.0
84.815,1.093,4.69,40.0
84.805,1.088,4.193,46.0
84.811,1.083,3.698,44.0
19.648,0.249,0.739,10.0
19.647,0.248,0.624,15.0
19.659,0.247,0.51,14.0
84.799,1.071,4.516,42.0
84.801,1.065,4.02,48.0
84.815,1.061,3.525,54.0
19.639,0.244,0.699,15.0
19.649,0.243,0.585,12.0
19.687,0.242,0.471,11.0
84.804,1.046,4.343,43.0
84.813,1.04,3.847,48.0
19.661,0.239,0.776,3.0
19.634,0.238,0.659,14.0
19.659,0.237,0.545,12.0
19.691,0.236,0.431,11.0
84.815,1.018,4.17,26.0
84.83,1.012,3.676,32.0
19.648,0.233,0.736,11.0
19.644,0.231,0.619,12.0
19.668,0.23,0.506,11.0
19.7,0.229,0.391,11.0
84.87,0.987,4.0,3.0
84.787,0.98,3.501,3.0
19.64,0.225,0.696,14.0
19.657,0.224,0.579,10.0
19.698,0.222,0.466,10.0
19.723,0.221,0.351,11.0
186.354,2.092,8.399,21.0
19.67,0.219,0.771,3.0
19.659,0.217,0.656,12.0
19.684,0.215,0.54,10.0
19.716,0.214,0.426,10.0
19.742,0.213,0.311,11.0
185.92,2.004,8.0,19.0
19.671,0.21,0.731,9.0
19.675,0.208,0.616,9.0
19.705,0.207,0.5,10.0
19.728,0.205,0.386,12.0
19.742,0.203,0.271,8.0
19.632,0.202,0.804,0.0
19.66,0.2,0.69,9.0
19.695,0.198,0.576,10.0
19.698,0.197,0.459,9.0
19.694,0.195,0.344,9.0
19.689,0.193,0.229,9.0
19.692,0.192,0.766,9.0
19.66,0.189,0.649,10.0
19.677,0.188,0.535,9.0
19.665,0.186,0.418,9.0
19.677,0.184,0.304,9.0
19.664,0.182,0.189,13.0
19.64,0.18,0.724,9.0
19.647,0.178,0.609,10.0
19.634,0.176,0.494,9.0
19.636,0.174,0.378,9.0
19.644,0.172,0.263,9.0
19.656,0.17,0.149,13.0
19.62,0.168,0.683,10.0
19.603,0.166,0.568,10.0
19.619,0.164,0.454,10.0
19.629,0.162,0.338,9.0
19.653,0.16,0.224,14.0
19.655,0.158,0.109,12.0
19.606,0.156,0.643,12.0
19.605,0.154,0.528,12.0
19.61,0.151,0.414,10.0
19.624,0.149,0.298,11.0
19.656,0.147,0.184,14.0
19.644,0.144,0.069,14.0
19.59,0.142,0.603,14.0
19.605,0.14,0.489,13.0
19.613,0.138,0.375,10.0
19.63,0.136,0.259,10.0
19.643,0.133,0.144,14.0
19.642,0.131,0.03,15.0
19.594,0.129,0.564,18.0
19.603,0.126,0.45,14.0
19.603,0.124,0.335,11.0
19.643,0.121,0.219,16.0
19.643,0.119,0.105,14.0
19.649,0.116,-0.009,13.0
19.602,0.114,0.525,18.0
19.615,0.112,0.411,19.0
19.597,0.109,0.296,12.0
19.644,0.107,0.18,14.0
19.658,0.104,0.066,12.0
19.682,0.101,-0.048,5.0
19.615,0.099,0.486,24.0
19.609,0.096,0.371,24.0
19.611,0.093,0.257,15.0
19.664,0.091,0.141,11.0
19.707,0.088,0.027,9.0
19.768,0.086,-0.088,4.0
19.615,0.083,0.447,27.0
19.611,0.08,0.333,18.0
19.631,0.077,0.218,14.0
19.686,0.075,0.103,17.0
19.756,0.072,-0.011,39.0
19.761,0.069,-0.126,37.0
19.626,0.066,0.409,24.0
19.615,0.063,0.294,12.0
19.651,0.06,0.18,10.0
19.744,0.058,0.064,29.0
19.747,0.055,-0.05,29.0
19.772,0.052,-0.165,68.0
19.621,0.049,0.37,14.0
19.622,0.046,0.256,14.0
19.738,0.043,0.142,13.0
19.738,0.04,0.025,16.0
19.759,0.037,-0.089,9.0
19.752,0.034,-0.203,17.0
19.622,0.03,0.332,15.0
19.644,0.027,0.218,15.0
19.749,0.024,0.104,10.0
19.72,0.021,-0.012,29.0
19.774,0.018,-0.127,1.0
19.769,0.015,-0.242,1.0
19.627,0.012,0.294,14.0
19.723,0.009,0.181,3.0
19.784,0.005,0.066,5.0
19.742,0.002,-0.049,4.0
19.559,0.0,-0.163,0.0
35.975,-0.007,-0.509,0.0
19.636,-0.007,0.257,15.0
19.698,-0.01,0.143,2.0
19.712,-0.013,0.029,12.0
19.745,-0.017,-0.087,7.0
19.768,-0.02,-0.202,1.0
0.0,0.0,0.0,0.0
19.65,-0.027,0.22,16.0
19.693,-0.03,0.106,15.0
19.711,-0.034,-0.008,15.0
19.729,-0.037,-0.124,13.0
19.756,-0.041,-0.239,8.0
19.773,-0.045,-0.355,0.0
19.695,-0.048,0.183,13.0
19.697,-0.051,0.069,15.0
19.719,-0.055,-0.045,15.0
19.722,-0.059,-0.161,14.0
19.764,-0.062,-0.276,13.0
19.767,-0.066,-0.391,6.0
19.697,-0.069,0.147,16.0
19.707,-0.073,0.033,15.0
19.712,-0.077,-0.081,13.0
19.715,-0.08,-0.198,15.0
19.749,-0.084,-0.312,15.0
19.758,-0.088,-0.428,14.0
19.717,-0.091,0.111,14.0
19.721,-0.095,-0.003,13.0
19.712,-0.099,-0.117,16.0
19.715,-0.103,-0.233,16.0
19.752,-0.107,-0.349,14.0
19.736,-0.111,-0.463,16.0
19.738,-0.114,0.075,10.0
19.746,-0.118,-0.038,8.0
19.718,-0.122,-0.153,16.0
19.724,-0.126,-0.269,16.0
19.736,-0.13,-0.384,17.0
19.735,-0.134,-0.499,16.0
19.765,-0.138,0.04,6.0
19.741,-0.142,-0.073,12.0
19.739,-0.146,-0.188,15.0
19.728,-0.149,-0.304,16.0
19.732,-0.153,-0.419,17.0
19.749,-0.158,-0.534,17.0
19.866,-0.163,0.005,0.0
19.752,-0.166,-0.108,11.0
19.755,-0.17,-0.223,12.0
19.751,-0.174,-0.34,14.0
19.755,-0.178,-0.454,10.0
19.781,-0.182,-0.57,4.0
0.0,0.0,0.0,0.0
19.794,-0.191,-0.143,1.0
19.777,-0.195,-0.258,4.0
19.779,-0.199,-0.374,3.0
26.369,-0.271,-0.652,0.0
23.157,-0.243,-0.707,0.0
0.0,0.0,0.0,0.0
41.986,-0.458,-0.375,2.0
34.516,-0.384,-0.508,0.0
29.225,-0.331,-0.602,0.0
25.542,-0.295,-0.675,0.0
22.454,-0.264,-0.723,1.0
0.0,0.0,0.0,0.0
0.0,0.0,0.0,0.0
32.447,-0.403,-0.532,0.0
28.044,-0.355,-0.625,0.0
24.749,-0.318,-0.695,0.0
21.739,-0.284,-0.736,0.0
0.0,0.0,0.0,0.0
0.0,0.0,0.0,0.0
30.657,-0.422,-0.553,0.0
26.628,-0.372,-0.638,0.0
23.527,-0.334,-0.7,0.0
0.0,0.0,0.0,0.0
0.0,0.0,0.0,0.0
35.213,-0.524,-0.489,0.0
29.893,-0.452,-0.588,0.0
25.927,-0.398,-0.663,0.0
22.737,-0.354,-0.713,0.0
20.355,-0.321,-0.756,0.0
42.618,-0.683,-0.414,0.0
33.607,-0.546,-0.52,0.0
28.828,-0.475,-0.613,0.0
25.085,-0.419,-0.681,0.0
21.842,-0.37,-0.72,2.0
19.985,-0.343,-0.774,1.0
0.0,0.0,0.0,0.0
31.839,-0.562,-0.543,0.0
0.0,0.0,0.0,0.0
21.733,-0.394,-0.624,0.0
21.585,-0.396,-0.745,4.0
19.446,-0.362,-0.783,0.0
35.534,-0.67,-0.456,0.0
30.664,-0.585,-0.57,0.0
21.726,-0.42,-0.529,39.0
21.701,-0.425,-0.657,8.0
20.849,-0.413,-0.752,0.0
18.904,-0.379,-0.791,0.0
33.208,-0.674,-0.477,0.0
21.694,-0.446,-0.436,0.0
21.664,-0.45,-0.561,161.0
21.707,-0.457,-0.69,11.0
20.307,-0.432,-0.762,1.0
18.485,-0.398,-0.801,0.0
33.382,-0.727,-0.529,0.0
21.737,-0.479,-0.47,2.0
21.711,-0.483,-0.594,155.0
21.668,-0.488,-0.721,5.0
19.841,-0.452,-0.774,1.0
17.853,-0.411,-0.8,1.0
31.82,-0.74,-0.55,0.0
27.445,-0.645,-0.632,0.0
21.735,-0.516,-0.626,4.0
21.566,-0.518,-0.748,2.0
19.409,-0.471,-0.785,0.0
17.658,-0.433,-0.816,0.0
31.452,-0.779,-0.588,0.0
26.405,-0.66,-0.646,0.0
23.118,-0.584,-0.699,0.0
17.796,-0.454,-0.642,7.0
17.794,-0.459,-0.745,5.0
17.442,-0.454,-0.831,0.0
0.0,0.0,0.0,0.0
25.531,-0.677,-0.66,0.0
17.822,-0.477,-0.563,0.0
17.794,-0.481,-0.666,152.0
17.776,-0.486,-0.768,7.0
17.71,-0.488,-0.867,2.0
29.211,-0.812,-0.626,0.0
25.366,-0.712,-0.689,0.0
17.801,-0.504,-0.586,55.0
17.783,-0.508,-0.69,152.0
17.773,-0.513,-0.792,4.0
17.685,-0.515,-0.89,6.0
27.937,-0.821,-0.635,0.0
24.706,-0.732,-0.704,0.0
17.769,-0.531,-0.608,155.0
17.791,-0.537,-0.713,54.0
17.701,-0.539,-0.811,1.0
0.0,0.0,0.0,0.0
26.729,-0.827,-0.642,0.0
23.571,-0.736,-0.701,0.0
17.817,-0.561,-0.633,151.0
17.815,-0.566,-0.737,2.0
17.506,-0.561,-0.825,0.0
15.71,-0.508,-0.831,0.0
26.361,-0.858,-0.666,0.0
22.935,-0.753,-0.711,0.0
17.811,-0.589,-0.654,0.0
18.745,-0.625,-0.798,0.0
16.934,-0.569,-0.818,0.0
15.469,-0.525,-0.837,0.0
25.233,-0.861,-0.668,0.0
22.439,-0.772,-0.722,0.0
20.106,-0.698,-0.763,0.0
18.099,-0.633,-0.792,0.0
16.569,-0.584,-0.82,0.0
15.16,-0.539,-0.838,0.0
24.755,-0.885,-0.684,0.0
21.881,-0.789,-0.73,0.0
19.737,-0.717,-0.772,0.0
17.903,-0.656,-0.805,0.0
16.315,-0.602,-0.827,0.0
14.937,-0.556,-0.843,0.0
24.33,-0.91,-0.7,0.0
21.416,-0.807,-0.739,0.0
19.471,-0.74,-0.783,0.0
17.617,-0.674,-0.812,0.0
16.049,-0.619,-0.831,0.0
14.726,-0.572,-0.847,0.0
23.707,-0.926,-0.708,0.0
20.908,-0.823,-0.744,0.0
19.076,-0.756,-0.788,0.0
17.226,-0.688,-0.812,0.0
15.626,-0.629,-0.826,0.0
14.51,-0.588,-0.851,0.0
23.125,-0.942,-0.715,0.0
20.497,-0.841,-0.751,0.0
18.807,-0.777,-0.797,0.0
17.011,-0.707,-0.82,0.0
15.494,-0.649,-0.836,0.0
14.322,-0.604,-0.855,0.0
22.563,-0.956,-0.721,0.0
20.247,-0.864,-0.763,0.0
18.36,-0.789,-0.797,0.0
16.85,-0.729,-0.829,0.0
15.274,-0.665,-0.839,0.0
14.107,-0.619,-0.856,0.0
22.072,-0.973,-0.727,0.0
19.921,-0.884,-0.77,0.0
18.067,-0.807,-0.801,0.0
16.48,-0.741,-0.827,0.0
15.102,-0.683,-0.844,0.0
13.824,-0.63,-0.852,0.0
21.663,-0.991,-0.734,0.0
19.678,-0.906,-0.779,0.0
17.785,-0.824,-0.805,0.0
16.142,-0.753,-0.825,0.0
14.926,-0.701,-0.848,0.0
13.705,-0.648,-0.857,0.0
21.233,-1.007,-0.738,0.0
19.415,-0.927,-0.786,0.0
17.576,-0.844,-0.811,0.0
15.924,-0.77,-0.828,0.0
14.763,-0.718,-0.852,0.0
13.556,-0.664,-0.86,0.0
20.945,-1.029,-0.746,0.0
19.12,-0.945,-0.79,0.0
17.314,-0.861,-0.814,0.0
15.758,-0.789,-0.832,0.0
14.561,-0.733,-0.852,0.0
13.361,-0.677,-0.858,0.0
20.71,-1.053,-0.755,0.0
18.825,-0.963,-0.793,0.0
17.122,-0.881,-0.819,0.0
15.612,-0.808,-0.837,0.0
14.39,-0.749,-0.854,0.0
13.266,-0.695,-0.863,0.0
20.525,-1.079,-0.765,0.0
18.487,-0.977,-0.794,0.0
16.931,-0.9,-0.823,0.0
15.339,-0.82,-0.835,0.0
14.135,-0.761,-0.85,0.0
13.116,-0.71,-0.863,0.0
20.221,-1.098,-0.768,0.0
18.31,-0.999,-0.8,0.0
16.744,-0.919,-0.826,0.0
15.172,-0.837,-0.836,0.0
14.11,-0.783,-0.858,0.0
13.027,-0.727,-0.867,0.0
19.908,-1.114,-0.77,0.0
18.108,-1.019,-0.803,0.0
16.51,-0.934,-0.826,0.0
14.944,-0.851,-0.834,0.0
13.975,-0.8,-0.86,0.0
12.921,-0.744,-0.868,0.0
19.734,-1.139,-0.777,0.0
17.899,-1.038,-0.806,0.0
16.396,-0.956,-0.831,0.0
14.883,-0.873,-0.84,0.0
13.744,-0.81,-0.854,0.0
12.866,-0.763,-0.873,0.0
19.533,-1.161,-0.781,0.0
17.83,-1.065,-0.814,0.0
16.265,-0.977,-0.834,0.0
14.75,-0.89,-0.842,0.0
13.785,-0.837,-0.865,0.0
12.771,-0.779,-0.874,0.0
19.354,-1.183,-0.785,0.0
17.538,-1.078,-0.81,0.0
16.108,-0.995,-0.835,0.0
14.711,-0.913,-0.848,0.0
13.685,-0.854,-0.866,0.0
12.695,-0.796,-0.876,0.0
19.218,-1.207,-0.789,0.0
17.365,-1.097,-0.811,0.0
15.971,-1.014,-0.837,0.0
14.605,-0.932,-0.849,0.0
13.637,-0.874,-0.87,0.0
12.608,-0.813,-0.876,0.0
19.033,-1.229,-0.791,0.0
17.101,-1.109,-0.808,0.0
15.916,-1.037,-0.841,0.0
14.519,-0.951,-0.851,0.0
13.564,-0.893,-0.872,0.0
12.527,-0.829,-0.876,0.0
18.928,-1.254,-0.796,0.0
17.225,-1.147,-0.821,0.0
15.733,-1.052,-0.839,0.0
14.412,-0.969,-0.851,0.0
13.36,-0.902,-0.865,0.0
12.445,-0.845,-0.876,0.0
18.784,-1.277,-0.797,0.0
17.044,-1.164,-0.82,0.0
15.58,-1.069,-0.837,0.0
14.414,-0.993,-0.857,0.0
13.248,-0.917,-0.863,0.0
12.384,-0.862,-0.876,0.0
18.642,-1.298,-0.798,0.0
16.988,-1.188,-0.823,0.0
15.6,-1.096,-0.843,0.0
14.343,-1.013,-0.858,0.0
13.275,-0.942,-0.869,0.0
12.4,-0.884,-0.882,0.0
18.569,-1.325,-0.801,0.0
16.889,-1.21,-0.823,0.0
15.538,-1.118,-0.845,0.0
14.324,-1.036,-0.861,0.0
13.137,-0.954,-0.864,0.0
12.364,-0.902,-0.883,0.0
18.484,-1.349,-0.803,0.0
16.76,-1.229,-0.822,0.0
15.36,-1.131,-0.84,0.0
14.252,-1.054,-0.861,0.0
13.189,-0.98,-0.871,0.0
12.31,-0.918,-0.882,0.0
18.388,-1.373,-0.803,0.0
16.712,-1.253,-0.823,0.0
15.351,-1.156,-0.843,0.0
14.173,-1.072,-0.859,0.0
13.168,-1.0,-0.872,0.0
12.331,-0.94,-0.886,0.0
18.481,-1.41,-0.811,0.0
16.671,-1.277,-0.825,0.0
15.377,-1.183,-0.847,0.0
14.187,-1.096,-0.862,0.0
13.089,-1.015,-0.869,0.0
12.27,-0.956,-0.884,0.0
18.376,-1.432,-0.809,0.0
16.692,-1.306,-0.828,0.0
15.317,-1.203,-0.846,0.0
14.121,-1.114,-0.861,0.0
13.116,-1.039,-0.873,0.0
12.297,-0.978,-0.887,0.0
18.272,-1.453,-0.807,0.0
16.709,-1.334,-0.831,0.0
15.417,-1.236,-0.853,0.0
14.081,-1.133,-0.859,0.0
13.091,-1.058,-0.872,0.0
12.284,-0.997,-0.888,0.0
18.249,-1.481,-0.807,0.0
16.738,-1.363,-0.834,0.0
15.371,-1.257,-0.852,0.0
14.046,-1.153,-0.858,0.0
13.029,-1.074,-0.869,0.0
12.269,-1.015,-0.887,0.0
18.141,-1.501,-0.803,0.0
16.611,-1.379,-0.828,0.0
15.273,-1.273,-0.847,0.0
14.07,-1.177,-0.86,0.0
13.107,-1.101,-0.874,0.0
12.293,-1.036,-0.889,0.0
18.177,-1.532,-0.805,0.0
16.691,-1.412,-0.832,0.0
15.213,-1.292,-0.843,0.0
14.056,-1.198,-0.859,0.0
13.147,-1.125,-0.877,0.0
12.269,-1.053,-0.887,0.0
18.2,-1.562,-0.805,0.0
16.67,-1.436,-0.83,0.0
15.186,-1.313,-0.841,0.0
14.099,-1.224,-0.861,0.0
13.113,-1.142,-0.874,0.0
12.296,-1.075,-0.888,0.0
18.28,-1.598,-0.807,0.0
16.634,-1.459,-0.827,0.0
15.321,-1.348,-0.847,0.0
14.2,-1.254,-0.865,0.0
13.116,-1.163,-0.873,0.0
12.319,-1.096,-0.888,0.0
18.34,-1.631,-0.808,0.0
16.667,-1.487,-0.827,0.0
15.356,-1.375,-0.847,0.0
14.184,-1.274,-0.863,0.0
13.272,-1.196,-0.881,0.0
12.349,-1.117,-0.889,0.0
18.38,-1.662,-0.807,0.0
16.8,-1.524,-0.83,0.0
15.406,-1.402,-0.847,0.0
14.219,-1.299,-0.862,0.0
13.185,-1.208,-0.873,0.0
12.352,-1.136,-0.886,0.0
18.381,-1.689,-0.803,0.0
16.965,-1.564,-0.835,0.0
15.529,-1.436,-0.851,0.0
14.286,-1.326,-0.863,0.0
13.302,-1.238,-0.878,0.0
12.322,-1.151,-0.881,0.0
18.598,-1.736,-0.808,0.0
16.915,-1.584,-0.829,0.0
15.511,-1.457,-0.846,0.0
14.345,-1.352,-0.863,0.0
13.372,-1.264,-0.879,0.0
12.427,-1.179,-0.886,0.0
18.56,-1.76,-0.802,0.0
17.057,-1.622,-0.831,0.0
15.601,-1.488,-0.846,0.0
14.411,-1.379,-0.863,0.0
13.435,-1.289,-0.879,0.0
12.517,-1.205,-0.888,0.0
18.596,-1.789,-0.798,0.0
17.192,-1.659,-0.832,0.0
15.648,-1.515,-0.844,0.0
14.491,-1.407,-0.863,0.0
13.494,-1.314,-0.878,0.0
12.427,-1.214,-0.878,0.0
18.877,-1.842,-0.803,0.0
17.123,-1.676,-0.823,0.0
15.816,-1.553,-0.847,0.0
14.531,-1.43,-0.86,0.0
13.547,-1.338,-0.877,0.0
12.552,-1.243,-0.882,0.0
18.634,-1.844,-0.786,0.0
17.207,-1.707,-0.82,0.0
15.934,-1.585,-0.847,0.0
14.589,-1.456,-0.858,0.0
13.575,-1.359,-0.873,0.0
12.637,-1.268,-0.882,0.0
19.424,-1.948,-0.811,0.0
17.391,-1.749,-0.822,0.0
16.0,-1.613,-0.844,0.0
14.832,-1.5,-0.865,0.0
13.687,-1.388,-0.874,0.0
12.742,-1.296,-0.884,0.0
19.369,-1.968,-0.8,0.0
17.507,-1.783,-0.819,0.0
16.09,-1.643,-0.841,0.0
14.898,-1.525,-0.862,0.0
13.755,-1.412,-0.872,0.0
12.79,-1.317,-0.881,0.0
19.699,-2.026,-0.804,0.0
17.649,-1.82,-0.817,0.0
16.171,-1.672,-0.837,0.0
14.946,-1.549,-0.858,0.0
13.838,-1.438,-0.87,0.0
12.905,-1.345,-0.882,0.0
19.69,-2.05,-0.793,0.0
17.758,-1.853,-0.813,0.0
16.362,-1.712,-0.839,0.0
15.143,-1.588,-0.861,0.0
13.975,-1.47,-0.871,0.0
12.973,-1.368,-0.88,0.0
19.92,-2.098,-0.792,0.0
17.905,-1.89,-0.81,0.0
16.46,-1.742,-0.834,0.0
15.236,-1.616,-0.857,0.0
14.137,-1.503,-0.873,0.0
13.105,-1.397,-0.881,0.0
20.231,-2.155,-0.792,0.0
18.231,-1.946,-0.814,0.0
16.673,-1.784,-0.835,0.0
15.372,-1.648,-0.856,0.0
14.247,-1.531,-0.871,0.0
13.21,-1.423,-0.88,0.0
20.318,-2.187,-0.783,0.0
18.326,-1.977,-0.807,0.0
16.753,-1.811,-0.829,0.0
15.496,-1.679,-0.853,0.0
14.395,-1.564,-0.871,0.0
13.318,-1.45,-0.879,0.0
20.496,-2.229,-0.777,0.0
18.453,-2.011,-0.8,0.0
16.872,-1.843,-0.824,0.0
15.739,-1.723,-0.856,0.0
14.535,-1.595,-0.87,0.0
13.406,-1.474,-0.876,0.0
20.791,-2.284,-0.774,0.0
18.382,-2.023,-0.784,0.0
17.19,-1.896,-0.827,0.0
15.895,-1.757,-0.853,0.0
14.706,-1.629,-0.87,0.0
13.658,-1.516,-0.883,0.0
21.037,-2.333,-0.768,0.0
19.151,-2.128,-0.804,0.0
17.396,-1.937,-0.825,0.0
16.017,-1.787,-0.848,0.0
14.788,-1.653,-0.864,0.0
13.743,-1.539,-0.878,0.0
21.284,-2.382,-0.762,0.0
0.0,0.0,0.0,0.0
17.622,-1.979,-0.822,0.0
16.278,-1.832,-0.85,0.0
14.939,-1.685,-0.861,0.0
13.91,-1.572,-0.878,0.0
21.462,-2.422,-0.752,0.0
19.727,-2.231,-0.798,0.0
17.737,-2.009,-0.814,0.0
16.319,-1.852,-0.84,0.0
15.168,-1.725,-0.863,0.0
14.056,-1.601,-0.876,0.0
21.915,-2.494,-0.75,0.0
19.928,-2.272,-0.791,0.0
17.952,-2.05,-0.81,0.0
16.61,-1.9,-0.841,0.0
15.449,-1.771,-0.866,0.0
14.204,-1.631,-0.874,0.0
22.571,-2.589,-0.755,0.0
20.033,-2.302,-0.778,0.0
18.414,-2.119,-0.815,0.0
16.589,-1.912,-0.826,0.0
15.578,-1.799,-0.86,0.0
14.438,-1.67,-0.876,0.0
23.022,-2.661,-0.75,0.0
20.434,-2.365,-0.776,0.0
18.467,-2.141,-0.802,0.0
16.73,-1.943,-0.819,0.0
15.692,-1.825,-0.853,0.0
14.646,-1.706,-0.876,0.0
23.182,-2.698,-0.736,0.0
20.888,-2.435,-0.776,0.0
18.679,-2.181,-0.795,0.0
17.16,-2.006,-0.825,0.0
16.0,-1.874,-0.856,0.0
14.796,-1.735,-0.872,0.0
23.662,-2.772,-0.73,0.0
21.412,-2.512,-0.776,0.0
19.21,-2.257,-0.8,0.0
17.668,-2.079,-0.833,0.0
16.089,-1.896,-0.846,0.0
14.969,-1.767,-0.868,0.0
24.243,-2.859,-0.725,0.0
21.566,-2.547,-0.762,0.0
19.837,-2.345,-0.808,0.0
17.81,-2.109,-0.823,0.0
16.393,-1.944,-0.847,0.0
15.143,-1.798,-0.864,0.0
0.0,0.0,0.0,0.0
22.076,-2.622,-0.759,0.0
19.949,-2.372,-0.794,0.0
17.973,-2.14,-0.814,0.0
16.585,-1.978,-0.841,0.0
15.36,-1.834,-0.862,0.0
25.309,-3.019,-0.71,0.0
22.625,-2.702,-0.756,0.0
20.279,-2.425,-0.787,0.0
18.29,-2.19,-0.811,0.0
16.826,-2.017,-0.837,0.0
15.584,-1.87,-0.859,0.0
25.61,-3.071,-0.693,0.0
22.74,-2.73,-0.738,0.0
20.85,-2.506,-0.789,0.0
18.834,-2.266,-0.816,0.0
17.095,-2.059,-0.833,0.0
15.834,-1.91,-0.857,0.0
0.0,0.0,0.0,0.0
0.0,0.0,0.0,0.0
21.131,-2.551,-0.778,0.0
19.065,-2.304,-0.807,0.0
17.365,-2.101,-0.828,0.0
15.945,-1.932,-0.847,0.0
27.133,-3.284,-0.679,0.0
0.0,0.0,0.0,0.0
21.494,-2.606,-0.77,0.0
19.572,-2.376,-0.808,0.0
17.755,-2.157,-0.829,0.0
16.473,-2.004,-0.858,0.0
0.0,0.0,0.0,0.0
24.374,-2.965,-0.716,0.0
22.071,-2.687,-0.767,0.0
20.028,-2.44,-0.806,0.0
17.838,-2.175,-0.814,0.0
16.776,-2.048,-0.856,0.0
27.699,-3.379,-0.636,0.0
25.854,-3.156,-0.732,0.0
22.514,-2.75,-0.759,0.0
20.162,-2.465,-0.79,0.0
18.406,-2.252,-0.82,0.0
16.847,-2.064,-0.841,0.0
29.359,-3.593,-0.643,0.0
26.051,-3.19,-0.71,0.0
22.862,-2.802,-0.746,0.0
20.627,-2.53,-0.786,0.0
18.675,-2.292,-0.812,0.0
17.076,-2.098,-0.834,0.0
30.334,-3.723,-0.631,0.0
26.625,-3.27,-0.697,0.0
23.347,-2.869,-0.737,0.0
21.188,-2.606,-0.784,0.0
19.306,-2.376,-0.818,0.0
17.611,-2.169,-0.841,0.0
30.709,-3.779,-0.606,0.0
27.066,-3.333,-0.679,0.0
24.416,-3.008,-0.743,0.0
21.33,-2.629,-0.766,0.0
19.647,-2.423,-0.811,0.0
17.688,-2.183,-0.825,0.0
32.022,-3.949,-0.596,0.0
27.62,-3.408,-0.662,0.0
0.0,0.0,0.0,0.0
22.124,-2.732,-0.77,0.0
19.828,-2.45,-0.796,0.0
17.874,-2.21,-0.814,0.0
32.251,-3.985,-0.564,0.0
28.382,-3.508,-0.649,0.0
0.0,0.0,0.0,0.0
0.0,0.0,0.0,0.0
20.3,-2.512,-0.793,0.0
18.366,-2.274,-0.816,0.0
33.662,-4.165,-0.551,0.0
0.0,0.0,0.0,0.0
26.213,-3.246,-0.71,0.0
23.028,-2.852,-0.749,0.0
21.02,-2.604,-0.797,0.0
18.444,-2.286,-0.798,0.0
0.0,0.0,0.0,0.0
30.523,-3.782,-0.628,0.0
0.0,0.0,0.0,0.0
0.0,0.0,0.0,0.0
21.07,-2.613,-0.775,0.0
19.266,-2.39,-0.811,0.0
0.0,0.0,0.0,0.0
31.945,-3.961,-0.621,0.0
27.489,-3.409,-0.682,0.0
24.312,-3.015,-0.736,0.0
21.854,-2.711,-0.778,0.0
19.517,-2.422,-0.8,0.0
37.907,-4.701,-0.491,0.0
32.191,-3.992,-0.589,0.0
27.778,-3.445,-0.657,0.0
24.561,-3.046,-0.715,0.0
22.235,-2.758,-0.766,0.0
20.008,-2.482,-0.797,0.0
0.0,0.0,0.0,0.0
0.0,0.0,0.0,0.0
29.262,-3.628,-0.658,0.0
25.619,-3.177,-0.715,0.0
22.758,-2.822,-0.757,0.0
20.194,-2.504,-0.78,0.0
0.0,0.0,0.0,0.0
0.0,0.0,0.0,0.0
29.951,-3.712,-0.638,0.0
26.368,-3.267,-0.706,0.0
23.158,-2.869,-0.744,0.0
20.937,-2.594,-0.784,0.0
0.0,0.0,0.0,0.0
0.0,0.0,0.0,0.0
0.0,0.0,0.0,0.0
26.877,-3.327,-0.688,0.0
23.989,-2.969,-0.742,0.0
21.26,-2.631,-0.772,0.0
0.0,0.0,0.0,0.0
0.0,0.0,0.0,0.0
32.071,-3.965,-0.609,0.0
27.797,-3.436,-0.679,0.0
24.363,-3.011,-0.725,0.0
22.159,-2.738,-0.779,0.0
46.687,-5.767,-0.333,2.0
0.0,0.0,0.0,0.0
32.537,-4.016,-0.58,0.0
28.917,-3.568,-0.673,0.0
25.308,-3.122,-0.724,0.0
22.442,-2.768,-0.762,0.0
47.982,-5.915,-0.287,2.0
40.349,-4.972,-0.456,0.0
0.0,0.0,0.0,0.0
29.228,-3.599,-0.646,0.0
25.719,-3.166,-0.706,0.0
23.122,-2.845,-0.758,0.0
0.0,0.0,0.0,0.0
0.0,0.0,0.0,0.0
35.372,-4.346,-0.548,0.0
30.172,-3.705,-0.631,0.0
26.452,-3.247,-0.695,0.0
23.018,-2.824,-0.728,0.0
0.0,0.0,0.0,0.0
0.0,0.0,0.0,0.0
0.0,0.0,0.0,0.0
31.509,-3.858,-0.623,0.0
27.308,-3.342,-0.685,0.0
24.35,-2.979,-0.741,0.0
0.0,0.0,0.0,0.0
0.0,0.0,0.0,0.0
37.559,-4.587,-0.493,0.0
0.0,0.0,0.0,0.0
27.847,-3.396,-0.666,0.0
0.0,0.0,0.0,0.0
0.0,0.0,0.0,0.0
47.799,-5.821,-0.318,1.0
0.0,0.0,0.0,0.0
0.0,0.0,0.0,0.0
0.0,0.0,0.0,0.0
25.725,-3.124,-0.723,0.0
0.0,0.0,0.0,0.0
48.329,-5.862,-0.265,0.0
40.614,-4.922,-0.44,0.0
34.652,-4.196,-0.564,0.0
0.0,0.0,0.0,0.0
0.0,0.0,0.0,0.0
74.374,-8.991,0.074,1.0
0.0,0.0,0.0,0.0
0.0,0.0,0.0,0.0
0.0,0.0,0.0,0.0
30.307,-3.65,-0.621,0.0
27.193,-3.272,-0.702,0.0
0.0,0.0,0.0,0.0
0.0,0.0,0.0,0.0
0.0,0.0,0.0,0.0
0.0,0.0,0.0,0.0
31.396,-3.763,-0.607,0.0
27.655,-3.311,-0.683,0.0
74.968,-8.976,0.245,3.0
0.0,0.0,0.0,0.0
0.0,0.0,0.0,0.0
0.0,0.0,0.0,0.0
32.231,-3.842,-0.587,0.0
28.092,-3.345,-0.662,0.0
83.407,-9.931,0.366,6.0
0.0,0.0,0.0,0.0
0.0,0.0,0.0,0.0
40.88,-4.85,-0.479,0.0
34.131,-4.044,-0.583,0.0
29.338,-3.473,-0.658,0.0
83.362,-9.867,0.46,24.0
75.543,-8.93,0.013,2.0
0.0,0.0,0.0,0.0
41.392,-4.88,-0.439,0.0
0.0,0.0,0.0,0.0
29.689,-3.492,-0.633,0.0
83.347,-9.803,0.553,21.0
77.703,-9.127,0.099,4.0
0.0,0.0,0.0,0.0
0.0,0.0,0.0,0.0
0.0,0.0,0.0,0.0
30.587,-3.573,-0.619,0.0
83.371,-9.741,0.643,54.0
77.648,-9.059,0.183,5.0
0.0,0.0,0.0,0.0
0.0,0.0,0.0,0.0
37.289,-4.332,-0.515,0.0
31.901,-3.701,-0.611,0.0
83.382,-9.674,0.732,38.0
77.694,-9.0,0.265,22.0
0.0,0.0,0.0,0.0
45.691,-5.276,-0.337,0.0
0.0,0.0,0.0,0.0
32.171,-3.704,-0.582,0.0
83.387,-9.603,0.82,33.0
83.379,-9.585,0.373,10.0
0.0,0.0,0.0,0.0
48.58,-5.567,-0.307,0.0
40.333,-4.614,-0.471,0.0
33.869,-3.868,-0.577,0.0
83.386,-9.526,0.907,21.0
83.38,-9.508,0.461,121.0
0.0,0.0,0.0,0.0
0.0,0.0,0.0,0.0
41.746,-4.736,-0.445,0.0
34.818,-3.943,-0.557,0.0
83.379,-9.445,0.994,14.0
83.385,-9.428,0.546,20.0
83.574,-9.433,0.099,1.0
0.0,0.0,0.0,0.0
0.0,0.0,0.0,0.0
0.0,0.0,0.0,0.0
83.374,-9.362,1.078,24.0
83.386,-9.344,0.631,16.0
83.83,-9.376,0.184,13.0
51.559,-5.756,-0.168,0.0
0.0,0.0,0.0,0.0
36.8,-4.093,-0.515,0.0
83.377,-9.275,1.161,16.0
83.379,-9.256,0.714,11.0
83.795,-9.284,0.267,9.0
0.0,0.0,0.0,0.0
0.0,0.0,0.0,0.0
0.0,0.0,0.0,0.0
83.36,-9.183,1.242,14.0
83.363,-9.163,0.794,57.0
83.428,-9.152,0.346,13.0
0.0,0.0,0.0,0.0
0.0,0.0,0.0,0.0
39.997,-4.36,-0.482,0.0
83.368,-9.09,1.322,11.0
83.038,-9.034,0.87,23.0
83.322,-9.045,0.425,29.0
0.0,0.0,0.0,0.0
0.0,0.0,0.0,0.0
39.572,-4.268,-0.439,0.0
83.329,-8.989,1.399,49.0
83.351,-8.971,0.951,111.0
83.371,-8.952,0.503,35.0
0.0,0.0,0.0,0.0
0.0,0.0,0.0,0.0
42.455,-4.528,-0.433,2.0
84.48,-9.012,1.496,3.0
84.575,-9.0,1.042,2.0
84.668,-8.989,0.588,3.0
0.0,0.0,0.0,0.0
0.0,0.0,0.0,0.0
0.0,0.0,0.0,0.0
83.387,-8.792,1.551,9.0
85.671,-9.01,1.131,3.0
85.784,-8.999,0.671,3.0
85.623,-8.961,0.2,12.0
0.0,0.0,0.0,0.0
0.0,0.0,0.0,0.0
86.229,-8.982,1.679,92.0
86.207,-8.957,1.213,21.0
86.241,-8.937,0.748,21.0
87.291,-9.022,0.279,1.0
56.099,-5.784,-0.123,0.0
0.0,0.0,0.0,0.0
86.38,-8.884,1.754,1.0
87.646,-8.989,1.308,3.0
83.362,-8.527,0.794,4.0
100.413,-10.243,0.405,7.0
0.0,0.0,0.0,0.0
0.0,0.0,0.0,0.0
88.466,-8.979,1.87,2.0
88.906,-8.999,1.398,1.0
89.027,-8.985,0.919,11.0
89.119,-8.97,0.431,12.0
0.0,0.0,0.0,0.0
48.719,-4.877,-0.29,0.0
89.078,-8.919,1.953,16.0
90.197,-9.004,1.489,47.0
90.29,-8.987,1.003,123.0
90.347,-8.968,0.506,76.0
0.0,0.0,0.0,0.0
50.351,-4.969,-0.262,0.0
90.346,-8.918,2.049,39.0
90.319,-8.888,1.56,19.0
90.355,-8.865,1.071,34.0
90.343,-8.838,0.574,16.0
0.0,0.0,0.0,0.0
0.0,0.0,0.0,0.0
90.365,-8.79,2.116,39.0
90.383,-8.763,1.627,62.0
90.317,-8.729,1.137,35.0
90.353,-8.705,0.639,35.0
90.386,-8.683,0.15,14.0
0.0,0.0,0.0,0.0
90.366,-8.654,2.181,38.0
90.378,-8.627,1.69,51.0
90.307,-8.593,1.2,14.0
90.378,-8.572,0.702,42.0
90.396,-8.546,0.212,13.0
0.0,0.0,0.0,0.0
127.512,-12.018,3.165,24.0
90.374,-8.488,1.752,42.0
90.373,-8.46,1.261,32.0
90.36,-8.431,0.761,16.0
90.355,-8.403,0.272,20.0
0.0,0.0,0.0,0.0
127.533,-11.821,3.248,27.0
90.389,-8.349,1.81,38.0
90.388,-8.32,1.319,42.0
90.406,-8.292,0.821,38.0
90.363,-8.26,0.33,13.0
0.0,0.0,0.0,0.0
127.514,-11.616,3.327,30.0
90.394,-8.204,1.867,33.0
90.387,-8.174,1.376,32.0
90.388,-8.146,0.875,43.0
90.392,-8.117,0.384,30.0
0.0,0.0,0.0,0.0
127.506,-11.409,3.402,22.0
90.38,-8.057,1.92,57.0
90.389,-8.027,1.428,34.0
90.396,-7.999,0.927,40.0
90.416,-7.973,0.435,31.0
0.0,0.0,0.0,0.0
114.607,-10.068,3.122,11.0
90.376,-7.909,1.969,38.0
90.382,-7.879,1.477,35.0
90.391,-7.851,0.976,33.0
90.399,-7.823,0.483,36.0
0.0,0.0,0.0,0.0
114.473,-9.867,3.177,9.0
90.381,-7.759,2.016,39.0
90.39,-7.73,1.523,42.0
90.403,-7.702,1.021,36.0
90.407,-7.672,0.528,37.0
0.0,0.0,0.0,0.0
114.386,-9.667,3.231,12.0
90.39,-7.607,2.06,34.0
90.401,-7.577,1.567,56.0
90.412,-7.548,1.065,37.0
90.406,-7.517,0.571,61.0
90.436,-7.49,0.078,1.0
114.428,-9.473,3.285,9.0
90.404,-7.452,2.101,41.0
90.396,-7.421,1.607,34.0
100.015,-8.177,1.221,13.0
100.023,-8.143,0.675,12.0
0.0,0.0,0.0,0.0
115.847,-9.389,3.374,7.0
127.492,-10.287,3.016,36.0
100.118,-8.044,1.821,8.0
100.064,-8.006,1.263,12.0
100.058,-7.971,0.715,12.0
48.192,-3.823,0.081,0.0
115.543,-9.162,3.41,12.0
127.525,-10.068,3.066,31.0
119.214,-9.369,2.213,7.0
100.069,-7.83,1.299,14.0
100.092,-7.798,0.753,14.0
0.0,0.0,0.0,0.0
148.185,-11.486,4.426,13.0
127.485,-9.837,3.11,47.0
0.0,0.0,0.0,0.0
100.045,-7.649,1.333,10.0
100.054,-7.616,0.785,11.0
98.948,-7.497,0.235,3.0
148.291,-11.228,4.476,20.0
0.0,0.0,0.0,0.0
124.13,-9.31,2.385,10.0
100.097,-7.471,1.364,9.0
100.095,-7.436,0.815,12.0
98.866,-7.31,0.264,8.0
109.071,-8.057,3.324,10.0
133.293,-9.798,3.33,10.0
109.418,-8.003,2.133,15.0
100.101,-7.285,1.391,8.0
100.117,-7.252,0.842,12.0
98.94,-7.133,0.289,10.0
108.949,-7.846,3.347,40.0
109.161,-7.822,2.754,40.0
109.339,-7.795,2.157,43.0
100.071,-7.099,1.414,8.0
100.118,-7.066,0.864,9.0
98.968,-6.95,0.311,11.0
109.146,-7.656,3.376,25.0
109.149,-7.618,2.776,40.0
109.435,-7.597,2.181,21.0
100.061,-6.911,1.433,5.0
100.008,-6.872,0.882,6.0
99.22,-6.783,0.33,7.0
109.119,-7.449,3.395,27.0
117.114,-7.952,2.998,14.0
117.414,-7.93,2.359,27.0
0.0,0.0,0.0,0.0
0.0,0.0,0.0,0.0
99.677,-6.625,0.346,17.0
109.108,-7.241,3.409,28.0
116.998,-7.722,3.01,20.0
117.362,-7.704,2.373,47.0
117.477,-7.668,1.715,16.0
125.194,-8.124,1.138,29.0
0.0,0.0,0.0,0.0
120.86,-7.789,3.789,4.0
117.051,-7.501,3.023,24.0
125.29,-7.983,2.545,19.0
147.888,-9.369,2.172,19.0
147.963,-9.319,1.357,10.0
108.646,-6.803,0.396,2.0
120.391,-7.524,3.782,16.0
117.217,-7.282,3.035,38.0
148.351,-9.163,3.02,17.0
148.576,-9.123,2.188,22.0
149.891,-9.149,1.381,19.0
109.085,-6.619,0.402,1.0
117.504,-7.115,3.694,20.0
117.394,-7.066,3.041,9.0
148.795,-8.901,3.032,20.0
149.143,-8.867,2.198,18.0
149.978,-8.862,1.382,17.0
0.0,0.0,0.0,0.0
117.116,-6.863,3.68,49.0
148.354,-8.637,3.84,15.0
149.236,-8.632,3.036,15.0
140.721,-8.089,2.07,28.0
140.671,-8.034,1.291,11.0
0.0,0.0,0.0,0.0
117.116,-6.631,3.675,33.0
163.367,-9.188,4.22,15.0
140.714,-7.86,2.854,24.0
101.518,-5.633,1.486,1.0
101.429,-5.59,0.923,14.0
0.0,0.0,0.0,0.0
117.187,-6.401,3.666,20.0
140.674,-7.633,3.621,28.0
0.0,0.0,0.0,0.0
101.495,-5.43,1.475,16.0
0.0,0.0,0.0,0.0
0.0,0.0,0.0,0.0
117.868,-6.204,3.672,11.0
140.648,-7.349,3.6,20.0
0.0,0.0,0.0,0.0
0.0,0.0,0.0,0.0
101.513,-5.191,0.897,55.0
0.0,0.0,0.0,0.0
139.298,-7.048,4.316,5.0
139.346,-6.999,3.542,11.0
0.0,0.0,0.0,0.0
0.0,0.0,0.0,0.0
101.54,-4.986,0.877,151.0
0.0,0.0,0.0,0.0
118.098,-5.739,3.635,10.0
139.376,-6.72,3.514,5.0
0.0,0.0,0.0,0.0
0.0,0.0,0.0,0.0
101.514,-4.782,0.854,150.0
0.0,0.0,0.0,0.0
140.882,-6.56,4.301,17.0
163.385,-7.549,4.078,8.0
0.0,0.0,0.0,0.0
101.449,-4.614,1.392,1.0
0.0,0.0,0.0,0.0
0.0,0.0,0.0,0.0
118.875,-5.299,3.596,23.0
142.51,-6.301,3.516,24.0
0.0,0.0,0.0,0.0
101.545,-4.415,1.363,27.0
101.488,-4.376,0.796,3.0
0.0,0.0,0.0,0.0
118.875,-5.059,3.558,13.0
163.35,-6.893,3.977,5.0
0.0,0.0,0.0,0.0
101.594,-4.213,1.329,8.0
101.482,-4.171,0.761,150.0
0.0,0.0,0.0,0.0
118.689,-4.811,3.509,11.0
141.737,-5.694,3.399,11.0
162.273,-6.459,2.984,23.0
0.0,0.0,0.0,0.0
0.0,0.0,0.0,0.0
0.0,0.0,0.0,0.0
141.851,-5.463,4.138,13.0
141.725,-5.407,3.342,3.0
162.235,-6.13,2.917,20.0
162.004,-6.061,1.99,19.0
160.707,-5.957,1.076,15.0
0.0,0.0,0.0,0.0
140.133,-5.113,4.026,11.0
0.0,0.0,0.0,0.0
162.221,-5.798,2.843,16.0
162.001,-5.732,1.917,21.0
160.734,-5.63,1.001,15.0
0.0,0.0,0.0,0.0
163.179,-5.624,4.611,13.0
163.277,-5.567,3.698,4.0
162.222,-5.469,2.764,21.0
161.921,-5.403,1.836,23.0
160.754,-5.307,0.922,10.0
0.0,0.0,0.0,0.0
163.216,-5.29,4.526,18.0
0.0,0.0,0.0,0.0
162.334,-5.147,2.681,6.0
161.918,-5.076,1.75,14.0
160.706,-4.98,0.835,3.0
0.0,0.0,0.0,0.0
163.259,-4.962,4.437,17.0
167.827,-5.039,3.618,17.0
163.896,-4.865,2.614,21.0
162.017,-4.752,1.658,13.0
0.0,0.0,0.0,0.0
0.0,0.0,0.0,0.0
163.311,-4.635,4.342,14.0
167.935,-4.707,3.521,15.0
161.997,-4.485,2.487,5.0
162.014,-4.427,1.56,22.0
0.0,0.0,0.0,0.0
0.0,0.0,0.0,0.0
163.395,-4.309,4.242,9.0
168.195,-4.376,3.42,5.0
161.825,-4.152,2.38,10.0
162.112,-4.105,1.457,14.0
0.0,0.0,0.0,0.0
0.0,0.0,0.0,0.0
163.403,-3.98,4.132,6.0
170.419,-4.091,3.351,7.0
162.094,-3.832,2.273,14.0
160.974,-3.75,1.335,4.0
0.0,0.0,0.0,0.0
0.0,0.0,0.0,0.0
0.0,0.0,0.0,0.0
170.399,-3.751,3.23,9.0
0.0,0.0,0.0,0.0
0.0,0.0,0.0,0.0
0.0,0.0,0.0,0.0
0.0,0.0,0.0,0.0
171.453,-3.487,4.087,3.0
170.311,-3.404,3.098,7.0
104.53,-2.052,1.311,23.0
104.529,-2.017,0.711,3.0
0.0,0.0,0.0,0.0
0.0,0.0,0.0,0.0
171.45,-3.143,3.951,4.0
0.0,0.0,0.0,0.0
104.435,-1.844,1.227,23.0
19.592,-0.339,0.117,0.0
0.0,0.0,0.0,0.0
0.0,0.0,0.0,0.0
0.0,0.0,0.0,0.0
0.0,0.0,0.0,0.0
104.419,-1.636,1.14,150.0
19.743,-0.302,0.102,25.0
0.0,0.0,0.0,0.0
0.0,0.0,0.0,0.0
19.885,-0.286,0.425,0.0
19.767,-0.277,0.31,7.0
19.741,-0.27,0.198,28.0
19.737,-0.264,0.085,8.0
0.0,0.0,0.0,0.0
0.0,0.0,0.0,0.0
19.752,-0.245,0.404,9.0
19.738,-0.238,0.292,9.0
104.409,-1.228,0.956,125.0
0.0,0.0,0.0,0.0
0.0,0.0,0.0,0.0
0.0,0.0,0.0,0.0
19.762,-0.207,0.386,8.0
104.503,-1.062,1.452,10.0
104.453,-1.028,0.859,150.0
0.0,0.0,0.0,0.0
19.786,-0.182,-0.063,3.0
19.752,-0.175,-0.175,14.0
177.212,-1.519,3.296,18.0
104.56,-0.861,1.351,77.0
104.515,-0.828,0.758,2.0
19.767,-0.15,0.029,3.0
19.729,-0.143,-0.082,13.0
19.733,-0.137,-0.194,17.0
19.697,-0.131,0.346,2.0
19.72,-0.125,0.235,8.0
19.722,-0.119,0.123,10.0
19.712,-0.112,0.009,13.0
19.718,-0.106,-0.102,16.0
19.732,-0.1,-0.214,16.0
19.671,-0.094,0.326,9.0
19.694,-0.088,0.214,13.0
19.703,-0.081,0.103,15.0
19.697,-0.075,-0.01,16.0
19.722,-0.069,-0.122,15.0
19.748,-0.063,-0.234,15.0
19.648,-0.057,0.305,11.0
19.663,-0.051,0.193,12.0
19.695,-0.045,0.082,15.0
19.707,-0.039,-0.031,15.0
19.745,-0.033,-0.144,10.0
36.972,-0.051,-0.479,0.0
19.638,-0.021,0.283,13.0
19.707,-0.014,0.172,6.0
19.762,-0.008,0.06,4.0
19.749,-0.003,-0.053,6.0
19.769,0.002,-0.166,0.0
19.781,0.009,-0.278,1.0
19.633,0.014,0.261,15.0
19.749,0.02,0.15,18.0
19.744,0.026,0.038,13.0
19.735,0.032,-0.075,18.0
19.765,0.038,-0.188,14.0
19.771,0.044,-0.301,25.0
19.625,0.05,0.238,16.0
19.696,0.056,0.127,16.0
19.752,0.062,0.015,44.0
19.768,0.068,-0.098,22.0
19.759,0.074,-0.211,10.0
19.782,0.08,-0.324,1.0
19.642,0.085,0.215,13.0
19.658,0.091,0.104,12.0
19.652,0.097,-0.008,9.0
19.7,0.102,-0.122,2.0
0.0,0.0,0.0,0.0
31.012,0.18,-0.546,0.0
19.666,0.12,0.192,17.0
19.647,0.125,0.08,13.0
19.642,0.131,-0.032,15.0
19.652,0.137,-0.146,11.0
19.69,0.143,-0.258,2.0
19.69,0.149,-0.371,2.0
19.66,0.154,0.167,14.0
19.648,0.16,0.055,13.0
19.654,0.165,-0.056,11.0
19.632,0.171,-0.17,15.0
19.655,0.176,-0.282,16.0
19.669,0.182,-0.395,18.0
19.7,0.189,0.142,11.0
19.663,0.194,0.03,13.0
19.632,0.199,-0.081,15.0
19.623,0.204,-0.195,17.0
19.644,0.21,-0.308,15.0
19.653,0.216,-0.42,22.0
19.768,0.223,0.117,18.0
19.698,0.228,0.004,7.0
19.643,0.232,-0.107,14.0
19.63,0.238,-0.221,17.0
19.665,0.243,-0.334,13.0
19.668,0.249,-0.447,17.0
19.797,0.256,0.091,0.0
19.712,0.261,-0.021,0.0
19.674,0.265,-0.134,10.0
19.653,0.271,-0.248,14.0
19.684,0.276,-0.361,11.0
19.705,0.282,-0.474,2.0
0.0,0.0,0.0,0.0
52.355,0.779,-0.128,2.0
19.694,0.298,-0.161,0.0
19.675,0.303,-0.275,1.0
29.719,0.466,-0.586,0.0
26.171,0.417,-0.666,1.0
55.198,0.896,0.102,42.0
45.217,0.746,-0.174,1.0
35.908,0.602,-0.344,0.0
32.487,0.553,-0.5,0.0
28.767,0.497,-0.608,0.0
25.217,0.443,-0.677,0.0
55.157,0.984,0.024,46.0
42.338,0.766,-0.223,0.0
55.166,1.012,-0.607,0.0
29.569,0.55,-0.497,0.0
27.541,0.519,-0.621,0.0
24.589,0.47,-0.695,0.0
55.118,1.07,-0.054,8.0
40.846,0.802,-0.274,2.0
33.477,0.666,-0.416,1.0
27.68,0.557,-0.505,0.0
26.826,0.547,-0.644,6.0
22.837,0.471,-0.679,0.0
0.0,0.0,0.0,0.0
38.437,0.814,-0.314,2.0
31.484,0.674,-0.437,0.0
26.653,0.577,-0.526,0.0
25.072,0.549,-0.638,0.0
22.685,0.502,-0.708,2.0
44.024,0.987,-0.172,7.0
36.579,0.829,-0.353,3.0
29.831,0.683,-0.459,2.0
25.342,0.587,-0.538,1.0
22.868,0.535,-0.616,0.0
21.973,0.519,-0.719,4.0
43.618,1.043,-0.236,8.0
34.546,0.834,-0.385,1.0
28.779,0.701,-0.486,2.0
24.092,0.593,-0.548,0.0
21.828,0.543,-0.622,0.0
21.326,0.535,-0.73,2.0
39.92,1.012,-0.277,13.0
31.651,0.81,-0.401,0.0
27.178,0.702,-0.501,1.0
22.72,0.592,-0.551,0.0
20.622,0.542,-0.619,0.0
20.603,0.546,-0.737,4.0
37.02,0.99,-0.314,3.0
30.261,0.817,-0.431,0.0
26.011,0.708,-0.52,3.0
22.019,0.604,-0.569,0.0
19.887,0.55,-0.628,0.0
19.531,0.545,-0.729,3.0
35.26,0.992,-0.355,2.0
0.0,0.0,0.0,0.0
25.04,0.715,-0.539,1.0
21.454,0.617,-0.587,1.0
19.266,0.559,-0.638,1.0
18.647,0.545,-0.725,0.0
40.14,1.183,-0.467,2.0
27.48,0.816,-0.478,15.0
23.629,0.707,-0.546,0.0
20.51,0.618,-0.594,2.0
18.357,0.557,-0.638,0.0
18.168,0.555,-0.736,1.0
40.137,1.236,-0.532,1.0
26.095,0.809,-0.495,1.0
22.479,0.701,-0.556,0.0
19.884,0.625,-0.608,0.0
18.042,0.571,-0.656,0.0
17.282,0.55,-0.728,1.0
29.75,0.954,-0.442,2.0
25.655,0.828,-0.529,5.0
21.594,0.701,-0.569,2.0
19.244,0.629,-0.62,2.0
17.33,0.57,-0.658,0.0
16.882,0.559,-0.739,0.0
28.578,0.952,-0.471,2.0
24.328,0.815,-0.541,1.0
21.034,0.709,-0.589,1.0
18.65,0.632,-0.632,1.0
17.15,0.585,-0.68,0.0
16.503,0.566,-0.749,0.0
27.349,0.944,-0.496,4.0
22.629,0.785,-0.541,0.0
20.034,0.699,-0.594,3.0
18.223,0.639,-0.647,1.0
16.923,0.597,-0.699,0.0
16.28,0.578,-0.766,1.0
25.977,0.927,-0.514,2.0
21.808,0.782,-0.557,1.0
19.644,0.708,-0.615,3.0
17.447,0.632,-0.649,0.0
16.707,0.608,-0.718,0.0
16.16,0.592,-0.787,1.0
24.635,0.907,-0.529,1.0
21.234,0.785,-0.578,1.0
18.846,0.7,-0.622,3.0
17.2,0.642,-0.668,1.0
16.517,0.62,-0.737,0.0
15.979,0.603,-0.806,1.0
23.529,0.891,-0.545,5.0
20.154,0.767,-0.583,1.0
18.331,0.701,-0.636,3.0
16.989,0.653,-0.689,0.0
16.314,0.63,-0.756,1.0
15.735,0.61,-0.82,0.0
22.312,0.869,-0.555,1.0
19.669,0.769,-0.602,3.0
17.817,0.7,-0.648,3.0
16.772,0.662,-0.709,0.0
16.21,0.643,-0.779,1.0
15.115,0.602,-0.814,0.0
21.302,0.851,-0.566,2.0
18.984,0.762,-0.614,3.0
17.323,0.698,-0.66,2.0
16.586,0.671,-0.729,1.0
15.988,0.65,-0.796,1.0
14.689,0.599,-0.816,0.0
20.579,0.842,-0.582,1.0
18.434,0.758,-0.628,3.0
17.034,0.703,-0.679,2.0
16.38,0.679,-0.749,2.0
15.891,0.661,-0.818,0.0
14.443,0.603,-0.827,0.0
19.818,0.83,-0.595,2.0
17.899,0.752,-0.64,3.0
16.859,0.711,-0.701,2.0
16.221,0.687,-0.77,2.0
15.132,0.643,-0.805,0.0
14.096,0.601,-0.832,0.0
19.174,0.82,-0.609,3.0
17.53,0.752,-0.657,2.0
16.649,0.717,-0.72,1.0
16.052,0.694,-0.789,3.0
14.797,0.642,-0.813,0.0
13.575,0.591,-0.825,0.0
18.511,0.808,-0.62,3.0
17.082,0.748,-0.67,2.0
16.43,0.722,-0.74,1.0
15.927,0.702,-0.811,2.0
14.436,0.638,-0.818,0.0
13.298,0.59,-0.831,0.0
18.043,0.802,-0.635,2.0
16.897,0.753,-0.692,2.0
16.244,0.726,-0.759,2.0
23.674,1.063,-1.246,0.0
13.986,0.63,-0.817,0.0
12.971,0.586,-0.833,0.0
17.443,0.789,-0.644,3.0
16.683,0.757,-0.713,2.0
16.064,0.731,-0.779,2.0
23.622,1.078,-1.285,1.0
23.654,1.083,-1.424,0.0
23.656,1.086,-1.561,1.0
17.188,0.79,-0.665,4.0
16.511,0.761,-0.734,1.0
15.92,0.736,-0.8,2.0
23.637,1.096,-1.327,0.0
23.638,1.099,-1.464,0.0
23.633,1.102,-1.601,0.0
16.928,0.79,-0.684,2.0
16.28,0.762,-0.752,2.0
23.649,1.11,-1.23,1.0
23.634,1.112,-1.368,1.0
23.636,1.115,-1.505,0.0
12.316,0.582,-0.856,0.0
16.734,0.792,-0.705,1.0
16.079,0.763,-0.771,2.0
23.624,1.124,-1.27,1.0
23.612,1.126,-1.408,2.0
23.626,1.13,-1.546,1.0
12.024,0.576,-0.857,0.0
16.519,0.792,-0.726,1.0
15.959,0.767,-0.793,3.0
23.627,1.138,-1.311,1.0
23.606,1.14,-1.449,1.0
23.609,1.143,-1.587,1.0
11.806,0.573,-0.862,0.0
16.306,0.791,-0.745,1.0
23.651,1.15,-1.218,1.0
23.632,1.152,-1.354,1.0
23.629,1.155,-1.493,0.0
12.366,0.605,-0.853,0.0
11.462,0.563,-0.857,0.0
16.111,0.791,-0.764,2.0
23.621,1.162,-1.258,1.0
23.621,1.164,-1.395,2.0
23.626,1.167,-1.534,1.0
12.088,0.598,-0.855,0.0
11.296,0.56,-0.865,0.0
15.972,0.792,-0.786,3.0
14.59,0.724,-0.802,0.0
23.634,1.176,-1.437,1.0
23.609,1.178,-1.574,0.0
11.79,0.589,-0.854,0.0
11.076,0.554,-0.867,0.0
23.631,1.182,-1.204,0.0
23.625,1.184,-1.34,1.0
23.655,1.188,-1.479,0.0
12.344,0.621,-0.845,0.0
11.596,0.584,-0.861,0.0
10.944,0.553,-0.876,0.0
23.638,1.192,-1.246,0.0
23.618,1.194,-1.381,2.0
23.614,1.196,-1.518,0.0
12.142,0.616,-0.852,0.0
11.405,0.579,-0.866,0.0
23.632,1.203,-1.933,0.0
23.658,1.202,-1.287,0.0
23.619,1.202,-1.422,1.0
23.629,1.205,-1.56,0.0
11.853,0.605,-0.852,0.0
11.151,0.57,-0.867,0.0
23.615,1.21,-1.974,0.0
23.664,1.211,-1.329,0.0
23.631,1.211,-1.464,0.0
12.471,0.64,-0.845,0.0
11.615,0.597,-0.855,0.0
10.969,0.564,-0.872,0.0
10.383,0.535,-0.885,0.0
23.64,1.216,-1.368,1.0
23.627,1.217,-1.504,0.0
12.255,0.632,-0.851,0.0
11.342,0.586,-0.855,0.0
23.632,1.223,-1.919,0.0
10.234,0.53,-0.89,0.0
23.64,1.222,-1.408,1.0
23.62,1.223,-1.544,0.0
11.937,0.619,-0.849,0.0
11.164,0.579,-0.86,0.0
23.632,1.228,-1.959,0.0
10.055,0.523,-0.892,0.0
23.634,1.227,-1.448,0.0
12.577,0.653,-0.843,0.0
11.756,0.612,-0.856,0.0
11.028,0.574,-0.868,0.0
23.639,1.233,-2.0,0.0
9.935,0.519,-0.898,0.0
23.665,1.233,-1.489,0.0
12.312,0.642,-0.846,0.0
11.508,0.6,-0.857,0.0
10.813,0.565,-0.87,0.0
10.257,0.536,-0.885,0.0
9.776,0.512,-0.9,0.0
23.664,1.236,-1.529,0.0
12.079,0.631,-0.85,0.0
11.265,0.589,-0.858,0.0
23.569,1.234,-1.936,0.0
10.118,0.53,-0.89,0.0
9.622,0.505,-0.902,0.0
12.692,0.664,-0.841,0.0
11.843,0.62,-0.853,0.0
11.101,0.581,-0.864,0.0
23.619,1.239,-1.978,0.0
10.006,0.525,-0.896,0.0
9.453,0.496,-0.902,0.0
12.37,0.647,-0.84,0.0
11.64,0.61,-0.857,0.0
10.948,0.574,-0.87,0.0
9.825,0.516,-0.896,0.0
9.28,0.488,-0.901,0.0
12.21,0.639,-0.849,0.0
11.438,0.599,-0.861,0.0
23.624,1.239,-1.916,0.0
10.16,0.533,-0.884,0.0
9.664,0.507,-0.897,0.0
9.237,0.485,-0.911,0.0
11.877,0.621,-0.844,0.0
11.162,0.584,-0.858,0.0
23.598,1.237,-1.952,0.0
10.048,0.526,-0.89,0.0
9.5,0.498,-0.897,0.0
11.78,0.615,-0.856,0.0
11.04,0.577,-0.867,0.0
23.661,1.238,-1.995,0.0
9.873,0.516,-0.891,0.0
9.358,0.49,-0.899,0.0
11.543,0.602,-0.857,0.0
10.876,0.567,-0.871,0.0
10.258,0.535,-0.881,0.0
9.767,0.51,-0.896,0.0
9.251,0.483,-0.903,0.0
11.323,0.589,-0.859,0.0
23.6,1.228,-1.927,0.0
10.155,0.528,-0.888,0.0
9.649,0.502,-0.901,0.0
8.666,0.451,-0.91,0.0
11.149,0.578,-0.862,0.0
23.622,1.224,-1.964,0.0
10.04,0.52,-0.893,0.0
9.461,0.49,-0.897,0.0
8.556,0.444,-0.911,0.0
10.985,0.567,-0.866,0.0
10.396,0.536,-0.88,0.0
9.886,0.51,-0.894,0.0
9.354,0.482,-0.901,0.0
8.432,0.435,-0.911,0.0
23.61,1.212,-1.897,0.0
10.277,0.527,-0.885,0.0
9.757,0.501,-0.897,0.0
8.805,0.452,-0.913,0.0
8.337,0.428,-0.913,0.0
23.62,1.206,-1.932,0.0
10.152,0.518,-0.889,0.0
9.61,0.49,-0.897,0.0
8.659,0.442,-0.91,0.0
8.226,0.419,-0.913,0.0
23.637,1.199,-1.967,0.0
10.038,0.509,-0.893,0.0
9.474,0.48,-0.898,0.0
8.586,0.435,-0.915,0.0
8.144,0.412,-0.915,0.0
10.391,0.523,-0.879,0.0
9.886,0.497,-0.894,0.0
9.402,0.473,-0.904,0.0
8.889,0.447,-0.908,0.0
8.451,0.425,-0.912,0.0
8.072,0.405,-0.918,0.0
10.277,0.513,-0.884,0.0
9.724,0.485,-0.893,0.0
8.773,0.437,-0.908,0.0
8.366,0.417,-0.915,0.0
7.993,0.398,-0.92,0.0
10.178,0.504,-0.889,0.0
9.633,0.476,-0.897,0.0
8.724,0.431,-0.915,0.0
8.273,0.408,-0.915,0.0
7.911,0.39,-0.922,0.0
10.039,0.492,-0.89,0.0
9.503,0.465,-0.898,0.0
8.556,0.418,-0.908,0.0
8.165,0.399,-0.914,0.0
7.835,0.382,-0.923,0.0
9.898,0.48,-0.89,0.0
9.432,0.457,-0.903,0.0
8.978,0.435,-0.912,0.0
8.53,0.413,-0.917,0.0
8.099,0.391,-0.917,0.0
7.775,0.375,-0.926,0.0
9.833,0.472,-0.897,0.0
9.3,0.445,-0.902,0.0
8.833,0.423,-0.908,0.0
8.365,0.4,-0.909,0.0
8.036,0.384,-0.92,0.0
7.691,0.367,-0.926,0.0
9.677,0.458,-0.895,0.0
8.758,0.414,-0.911,0.0
8.319,0.393,-0.915,0.0
7.957,0.375,-0.921,0.0
7.642,0.36,-0.929,0.0
9.594,0.449,-0.899,0.0
9.053,0.423,-0.9,0.0
8.612,0.402,-0.906,0.0
8.235,0.384,-0.915,0.0
7.89,0.367,-0.923,0.0
7.557,0.351,-0.928,0.0
9.503,0.438,-0.901,0.0
9.0,0.415,-0.905,0.0
8.555,0.394,-0.91,0.0
8.134,0.374,-0.913,0.0
7.812,0.358,-0.923,0.0
7.545,0.346,-0.935,0.0
9.424,0.429,-0.904,0.0
8.886,0.403,-0.904,0.0
8.485,0.385,-0.912,0.0
8.075,0.366,-0.916,0.0
7.771,0.351,-0.926,0.0
7.476,0.337,-0.935,0.0
9.284,0.416,-0.901,0.0
8.842,0.395,-0.909,0.0
8.414,0.376,-0.914,0.0
8.018,0.357,-0.918,0.0
7.712,0.343,-0.928,0.0
7.424,0.33,-0.936,0.0
9.229,0.407,-0.905,0.0
8.763,0.385,-0.91,0.0
8.369,0.367,-0.918,0.0
7.916,0.347,-0.915,0.0
7.653,0.335,-0.929,0.0
7.374,0.322,-0.938,0.0
9.135,0.396,-0.906,0.0
8.704,0.376,-0.913,0.0
8.28,0.357,-0.916,0.0
7.9,0.34,-0.921,0.0
7.631,0.328,-0.934,0.0
7.315,0.314,-0.938,0.0
9.07,0.386,-0.908,0.0
8.651,0.367,-0.916,0.0
8.192,0.347,-0.915,0.0
7.854,0.332,-0.923,0.0
7.569,0.319,-0.934,0.0
7.266,0.306,-0.938,0.0
8.944,0.373,-0.904,0.0
8.545,0.356,-0.913,0.0
8.167,0.339,-0.919,0.0
7.772,0.322,-0.921,0.0
7.508,0.31,-0.933,0.0
7.267,0.3,-0.945,0.0
8.88,0.363,-0.906,0.0
8.496,0.347,-0.915,0.0
8.1,0.33,-0.919,0.0
7.737,0.314,-0.924,0.0
7.467,0.302,-0.935,0.0
7.231,0.292,-0.947,0.0
8.867,0.355,-0.912,0.0
8.452,0.338,-0.918,0.0
8.035,0.32,-0.919,0.0
7.754,0.308,-0.932,0.0
7.447,0.295,-0.938,0.0
7.202,0.285,-0.95,0.0
8.795,0.344,-0.912,0.0
8.368,0.327,-0.916,0.0
7.999,0.311,-0.922,0.0
7.683,0.298,-0.93,0.0
7.399,0.286,-0.939,0.0
7.106,0.274,-0.943,0.0
8.731,0.334,-0.912,0.0
8.361,0.319,-0.922,0.0
7.96,0.303,-0.923,0.0
7.611,0.289,-0.927,0.0
7.359,0.278,-0.939,0.0
7.088,0.267,-0.946,0.0
8.705,0.325,-0.916,0.0
8.255,0.307,-0.916,0.0
7.928,0.294,-0.925,0.0
7.561,0.279,-0.927,0.0
7.307,0.269,-0.938,0.0
7.06,0.259,-0.947,0.0
8.642,0.314,-0.916,0.0
8.197,0.297,-0.916,0.0
7.899,0.285,-0.928,0.0
7.558,0.272,-0.932,0.0
7.285,0.261,-0.94,0.0
7.04,0.252,-0.949,0.0
8.563,0.303,-0.913,0.0
8.175,0.288,-0.919,0.0
7.862,0.276,-0.929,0.0
7.538,0.264,-0.934,0.0
7.257,0.253,-0.941,0.0
7.022,0.244,-0.951,0.0
8.545,0.294,-0.917,0.0
8.112,0.278,-0.917,0.0
7.816,0.267,-0.928,0.0
7.519,0.256,-0.937,0.0
7.257,0.246,-0.946,0.0
6.965,0.235,-0.948,0.0
8.513,0.285,-0.918,0.0
8.091,0.269,-0.919,0.0
7.809,0.259,-0.932,0.0
7.475,0.247,-0.935,0.0
7.216,0.237,-0.945,0.0
6.93,0.227,-0.947,0.0
8.447,0.274,-0.916,0.0
8.086,0.261,-0.923,0.0
7.77,0.25,-0.931,0.0
7.446,0.238,-0.936,0.0
7.22,0.23,-0.949,0.0
6.931,0.22,-0.951,0.0
8.423,0.264,-0.917,0.0
8.059,0.252,-0.924,0.0
7.732,0.24,-0.93,0.0
7.411,0.229,-0.935,0.0
7.175,0.221,-0.946,0.0
6.895,0.211,-0.949,0.0
8.39,0.254,-0.918,0.0
8.042,0.243,-0.925,0.0
7.719,0.232,-0.932,0.0
7.364,0.22,-0.932,0.0
7.127,0.212,-0.943,0.0
6.876,0.203,-0.949,0.0
8.339,0.244,-0.915,0.0
8.038,0.234,-0.928,0.0
7.666,0.222,-0.929,0.0
7.357,0.212,-0.934,0.0
7.132,0.205,-0.946,0.0
6.869,0.196,-0.951,0.0
8.318,0.235,-0.916,0.0
7.997,0.224,-0.926,0.0
7.7,0.215,-0.936,0.0
7.363,0.204,-0.938,0.0
7.144,0.197,-0.95,0.0
6.855,0.188,-0.951,0.0
8.338,0.226,-0.921,0.0
7.963,0.215,-0.925,0.0
7.683,0.206,-0.936,0.0
7.355,0.196,-0.939,0.0
7.131,0.189,-0.951,0.0
6.836,0.18,-0.951,0.0
8.32,0.216,-0.921,0.0
7.952,0.206,-0.926,0.0
7.656,0.197,-0.935,0.0
7.368,0.188,-0.942,0.0
7.125,0.181,-0.952,0.0
6.806,0.171,-0.948,0.0
8.336,0.208,-0.925,0.0
7.944,0.197,-0.926,0.0
7.633,0.188,-0.934,0.0
7.353,0.179,-0.942,0.0
7.113,0.172,-0.952,0.0
6.813,0.164,-0.951,0.0
8.326,0.198,-0.925,0.0
7.948,0.188,-0.928,0.0
7.628,0.179,-0.934,0.0
7.335,0.171,-0.941,0.0
7.111,0.164,-0.953,0.0
6.803,0.156,-0.95,0.0
8.32,0.188,-0.926,0.0
7.953,0.179,-0.93,0.0
7.607,0.17,-0.933,0.0
7.338,0.162,-0.942,0.0
7.152,0.157,-0.959,0.0
6.81,0.148,-0.952,0.0
8.314,0.179,-0.926,0.0
7.956,0.17,-0.931,0.0
7.638,0.162,-0.937,0.0
7.325,0.154,-0.941,0.0
7.093,0.148,-0.952,0.0
6.798,0.14,-0.951,0.0
8.292,0.169,-0.924,0.0
7.906,0.16,-0.926,0.0
7.626,0.153,-0.936,0.0
7.331,0.145,-0.942,0.0
7.109,0.14,-0.954,0.0
6.81,0.133,-0.952,0.0
8.316,0.16,-0.927,0.0
7.934,0.151,-0.929,0.0
7.632,0.144,-0.936,0.0
7.324,0.137,-0.941,0.0
7.102,0.132,-0.953,0.0
6.823,0.125,-0.954,0.0
8.301,0.15,-0.925,0.0
7.955,0.143,-0.931,0.0
7.6,0.135,-0.932,0.0
7.324,0.129,-0.94,0.0
7.081,0.123,-0.949,0.0
6.807,0.117,-0.951,0.0
8.304,0.141,-0.924,0.0
7.952,0.133,-0.93,0.0
7.653,0.127,-0.938,0.0
7.328,0.12,-0.94,0.0
7.083,0.115,-0.949,0.0
6.813,0.109,-0.951,0.0
8.34,0.132,-0.927,0.0
7.959,0.124,-0.929,0.0
7.656,0.118,-0.937,0.0
7.354,0.112,-0.942,0.0
7.084,0.107,-0.948,0.0
6.806,0.101,-0.949,0.0
8.307,0.122,-0.922,0.0
7.983,0.116,-0.931,0.0
7.666,0.11,-0.937,0.0
7.34,0.104,-0.939,0.0
7.115,0.099,-0.95,0.0
6.834,0.094,-0.951,0.0
8.352,0.113,-0.925,0.0
7.983,0.106,-0.929,0.0
7.699,0.101,-0.939,0.0
7.365,0.095,-0.94,0.0
7.144,0.091,-0.952,0.0
6.842,0.086,-0.951,0.0
8.335,0.103,-0.921,0.0
8.006,0.098,-0.929,0.0
7.729,0.093,-0.94,0.0
7.382,0.087,-0.94,0.0
7.134,0.083,-0.949,0.0
6.864,0.078,-0.952,0.0
8.384,0.094,-0.924,0.0
8.049,0.089,-0.932,0.0
7.715,0.084,-0.936,0.0
7.395,0.079,-0.939,0.0
7.164,0.075,-0.95,0.0
6.904,0.071,-0.955,0.0
8.4,0.085,-0.922,0.0
8.074,0.08,-0.932,0.0
7.754,0.075,-0.938,0.0
7.44,0.071,-0.942,0.0
7.165,0.067,-0.947,0.0
6.904,0.063,-0.952,0.0
8.436,0.076,-0.923,0.0
8.099,0.071,-0.931,0.0
7.772,0.067,-0.937,0.0
7.454,0.062,-0.941,0.0
7.197,0.059,-0.948,0.0
6.915,0.055,-0.95,0.0
8.478,0.066,-0.924,0.0
8.15,0.062,-0.933,0.0
7.795,0.058,-0.936,0.0
7.492,0.054,-0.942,0.0
7.188,0.051,-0.944,0.0
6.93,0.047,-0.949,0.0
8.503,0.057,-0.922,0.0
8.19,0.053,-0.933,0.0
7.822,0.049,-0.935,0.0
7.549,0.046,-0.945,0.0
7.241,0.043,-0.947,0.0
6.942,0.04,-0.946,0.0
8.54,0.048,-0.921,0.0
8.198,0.044,-0.93,0.0
7.857,0.041,-0.935,0.0
7.554,0.038,-0.941,0.0
7.267,0.035,-0.946,0.0
7.017,0.032,-0.953,0.0
8.596,0.039,-0.922,0.0
8.242,0.035,-0.93,0.0
7.876,0.032,-0.932,0.0
7.582,0.03,-0.94,0.0
7.306,0.027,-0.947,0.0
7.033,0.025,-0.95,0.0
8.632,0.029,-0.921,0.0
8.293,0.027,-0.93,0.0
7.942,0.024,-0.935,0.0
7.608,0.021,-0.938,0.0
7.327,0.019,-0.944,0.0
7.091,0.017,-0.953,0.0
8.703,0.02,-0.922,0.0
8.33,0.018,-0.929,0.0
7.981,0.015,-0.934,0.0
7.655,0.013,-0.939,0.0
7.383,0.011,-0.946,0.0
7.12,0.009,-0.952,0.0
8.743,0.011,-0.92,0.0
8.39,0.009,-0.929,0.0
8.024,0.007,-0.933,0.0
7.713,0.005,-0.94,0.0
7.384,0.003,-0.941,0.0
7.165,0.002,-0.952,0.0
8.849,0.001,-0.925,0.0
8.445,0.0,-0.929,0.0
8.063,-0.001,-0.931,0.0
7.726,-0.002,-0.935,0.0
7.458,-0.004,-0.944,0.0
7.195,-0.005,-0.95,0.0
8.907,-0.007,-0.923,0.0
8.48,-0.008,-0.926,0.0
8.113,-0.009,-0.93,0.0
7.786,-0.01,-0.936,0.0
7.551,-0.012,-0.949,0.0
7.219,-0.012,-0.948,0.0
8.951,-0.016,-0.92,0.0
8.558,-0.017,-0.927,0.0
8.177,-0.018,-0.93,0.0
7.822,-0.018,-0.933,0.0
7.563,-0.019,-0.944,0.0
7.298,-0.02,-0.951,0.0
9.041,-0.025,-0.922,0.0
8.629,-0.026,-0.927,0.0
8.264,-0.026,-0.932,0.0
7.888,-0.027,-0.934,0.0
7.62,-0.027,-0.944,0.0
7.327,-0.027,-0.948,0.0
9.111,-0.035,-0.92,0.0
8.704,-0.035,-0.926,0.0
8.33,-0.035,-0.932,0.0
7.993,-0.035,-0.939,0.0
7.678,-0.035,-0.944,0.0
7.369,-0.035,-0.946,0.0
9.166,-0.044,-0.917,0.0
8.802,-0.044,-0.928,0.0
8.387,-0.043,-0.93,0.0
8.042,-0.043,-0.936,0.0
7.72,-0.043,-0.941,0.0
7.42,-0.042,-0.945,0.0
9.256,-0.053,-0.916,0.0
8.849,-0.052,-0.924,0.0
8.439,-0.052,-0.927,0.0
8.114,-0.051,-0.936,0.0
7.772,-0.05,-0.939,0.0
7.492,-0.05,-0.946,0.0
9.349,-0.063,-0.915,0.0
8.935,-0.061,-0.923,0.0
8.529,-0.06,-0.927,0.0
8.153,-0.059,-0.932,0.0
7.826,-0.058,-0.937,0.0
7.537,-0.057,-0.944,0.0
9.436,-0.072,-0.913,0.0
9.021,-0.07,-0.922,0.0
8.61,-0.069,-0.927,0.0
8.273,-0.067,-0.936,0.0
7.906,-0.066,-0.937,0.0
7.606,-0.065,-0.943,0.0
9.584,-0.082,-0.917,0.0
9.139,-0.08,-0.924,0.0
8.666,-0.077,-0.923,0.0
8.32,-0.075,-0.932,0.0
8.008,-0.074,-0.94,0.0
7.67,-0.072,-0.942,0.0
9.681,-0.091,-0.915,0.0
9.223,-0.088,-0.921,0.0
8.817,-0.086,-0.928,0.0
8.403,-0.083,-0.931,0.0
8.081,-0.081,-0.939,0.0
7.733,-0.079,-0.94,0.0
9.786,-0.1,-0.913,0.0
9.316,-0.097,-0.919,0.0
8.864,-0.094,-0.922,0.0
8.455,-0.091,-0.926,0.0
8.129,-0.089,-0.934,0.0
7.839,-0.087,-0.943,0.0
9.9,-0.11,-0.911,0.0
9.429,-0.106,-0.918,0.0
8.935,-0.102,-0.918,0.0
8.553,-0.099,-0.926,0.0
8.247,-0.097,-0.937,0.0
7.88,-0.094,-0.938,0.0
10.015,-0.119,-0.909,0.0
9.535,-0.115,-0.916,0.0
9.129,-0.111,-0.926,0.0
8.668,-0.107,-0.927,0.0
8.325,-0.104,-0.935,0.0
7.986,-0.101,-0.94,0.0
10.165,-0.129,-0.909,0.0
9.668,-0.124,-0.916,0.0
9.211,-0.12,-0.922,0.0
8.786,-0.115,-0.927,0.0
8.401,-0.112,-0.932,0.0
8.078,-0.109,-0.94,0.0
10.311,-0.138,-0.908,0.0
9.804,-0.133,-0.915,0.0
9.31,-0.128,-0.919,0.0
8.879,-0.123,-0.925,0.0
8.492,-0.119,-0.93,0.0
8.157,-0.116,-0.937,0.0
10.465,-0.148,-0.906,0.0
9.946,-0.142,-0.915,0.0
9.427,-0.136,-0.917,0.0
8.982,-0.131,-0.923,0.0
8.613,-0.127,-0.931,0.0
8.246,-0.123,-0.936,0.0
10.612,-0.157,-0.904,0.0
10.087,-0.151,-0.913,0.0
9.577,-0.145,-0.918,0.0
9.16,-0.14,-0.928,0.0
8.716,-0.134,-0.929,0.0
8.351,-0.13,-0.935,0.0
10.753,-0.167,-0.9,0.0
