X,Y,Z,Reflectivity
116.286,-13.378,3.38,31.0
83.324,-9.597,1.977,35.0
83.388,-9.615,1.533,29.0
83.377,-9.626,1.079,150.0
83.381,-9.639,0.634,33.0
77.703,-8.994,0.176,28.0
116.3,-13.466,3.514,16.0
83.329,-9.658,2.073,30.0
83.375,-9.674,1.628,48.0
83.361,-9.684,1.175,18.0
83.385,-9.698,0.73,54.0
83.406,-9.712,0.284,8.0
147.985,-17.236,4.642,22.0
83.322,-9.714,2.168,11.0
83.338,-9.726,1.724,27.0
83.366,-9.739,1.271,35.0
83.382,-9.752,0.826,61.0
83.37,-9.762,0.382,27.0
147.937,-17.328,4.813,21.0
116.303,-13.634,3.162,33.0
83.302,-9.774,1.819,43.0
83.372,-9.792,1.367,66.0
83.372,-9.802,0.923,18.0
83.367,-9.811,0.478,16.0
148.485,-17.481,5.003,18.0
116.27,-13.699,3.297,35.0
83.284,-9.821,1.917,45.0
83.375,-9.84,1.465,19.0
83.379,-9.849,1.02,113.0
83.372,-9.858,0.575,25.0
148.45,-17.56,5.176,19.0
116.261,-13.762,3.433,22.0
83.292,-9.867,2.014,39.0
83.352,-9.881,1.562,23.0
83.383,-9.893,1.117,117.0
83.353,-9.897,0.672,15.0
148.627,-17.656,5.357,22.0
148.371,-17.637,4.553,15.0
83.279,-9.906,2.111,13.0
83.353,-9.921,1.659,27.0
83.374,-9.931,1.215,18.0
83.39,-9.941,0.771,18.0
148.438,-17.703,5.524,22.0
148.346,-17.702,4.728,16.0
116.312,-13.887,3.086,27.0
83.379,-9.961,1.759,86.0
83.363,-9.966,1.314,23.0
83.362,-9.973,0.868,25.0
148.277,-17.747,5.696,24.0
148.332,-17.762,4.906,20.0
116.29,-13.932,3.224,38.0
83.359,-9.992,1.857,150.0
83.401,-10.002,1.413,26.0
83.373,-10.005,0.968,52.0
148.227,-17.798,5.87,20.0
148.423,-17.828,5.086,21.0
116.25,-13.969,3.363,28.0
83.279,-10.011,1.955,42.0
83.388,-10.029,1.512,29.0
83.367,-10.032,1.067,52.0
148.225,-17.847,6.047,12.0
148.426,-17.876,5.261,22.0
116.287,-14.01,3.501,11.0
83.279,-10.037,2.054,27.0
83.387,-10.053,1.612,23.0
83.374,-10.056,1.167,19.0
151.153,-18.243,6.347,5.0
148.405,-17.915,5.438,23.0
147.982,-17.867,4.633,22.0
116.275,-14.043,3.006,24.0
83.363,-10.071,1.71,23.0
83.366,-10.075,1.266,12.0
94.485,-11.426,4.08,13.0
148.422,-17.951,5.615,23.0
147.973,-17.899,4.807,22.0
116.285,-14.069,3.145,38.0
83.299,-10.08,1.808,34.0
83.396,-10.094,1.365,15.0
94.435,-11.438,4.19,16.0
148.336,-17.968,5.788,18.0
148.237,-17.957,4.992,22.0
116.273,-14.086,3.282,33.0
83.272,-10.09,1.905,44.0
83.381,-10.105,1.462,16.0
94.048,-11.405,4.285,14.0
148.139,-17.964,5.956,7.0
148.25,-17.978,5.168,23.0
116.277,-14.1,3.42,22.0
83.257,-10.097,2.004,35.0
83.386,-10.113,1.562,21.0
94.064,-11.417,4.398,21.0
94.596,-11.48,3.915,5.0
148.351,-18.002,5.348,19.0
147.968,-17.954,4.527,17.0
83.279,-10.105,2.102,9.0
83.379,-10.116,1.659,21.0
94.155,-11.433,4.513,20.0
94.527,-11.476,4.025,16.0
148.357,-18.008,5.523,22.0
147.938,-17.954,4.701,23.0
116.298,-14.113,3.073,30.0
83.343,-10.113,1.757,25.0
94.136,-11.432,4.623,17.0
94.424,-11.463,4.131,17.0
148.383,-18.01,5.697,18.0
148.03,-17.963,4.876,22.0
116.291,-14.108,3.208,35.0
83.284,-10.102,1.852,39.0
94.242,-11.441,4.739,15.0
94.132,-11.423,4.228,14.0
148.296,-17.99,5.865,13.0
148.267,-17.981,5.055,21.0
116.25,-14.094,3.341,26.0
83.276,-10.094,1.948,36.0
94.454,-11.459,4.858,18.0
94.026,-11.402,4.331,18.0
148.189,-17.962,6.033,4.0
148.337,-17.973,5.229,22.0
116.301,-14.086,3.476,11.0
83.292,-10.085,2.043,23.0
94.497,-11.452,4.968,12.0
94.041,-11.391,4.438,21.0
94.533,-11.444,3.955,5.0
148.498,-17.97,5.4,22.0
147.901,-17.889,4.586,20.0
116.296,-14.06,2.983,22.0
94.5,-11.437,5.074,2.0
94.083,-11.379,4.547,20.0
94.496,-11.422,4.059,12.0
148.359,-17.923,5.561,21.0
148.075,-17.879,4.758,21.0
116.313,-14.037,3.113,35.0
0.0,0.0,0.0,0.0
94.222,-11.374,4.659,22.0
94.455,-11.395,4.162,17.0
148.306,-17.88,5.724,25.0
148.264,-17.864,4.927,19.0
116.302,-14.005,3.241,35.0
0.0,0.0,0.0,0.0
94.53,-11.386,4.778,17.0
94.262,-11.345,4.257,20.0
148.228,-17.828,5.882,22.0
148.35,-17.83,5.091,21.0
116.279,-13.966,3.366,26.0
0.0,0.0,0.0,0.0
94.554,-11.359,4.882,16.0
94.248,-11.313,4.36,13.0
148.231,-17.778,6.043,15.0
148.346,-17.778,5.251,23.0
148.198,-17.747,4.452,13.0
0.0,0.0,0.0,0.0
94.482,-11.316,4.981,13.0
94.11,-11.261,4.454,6.0
151.478,-18.11,6.34,13.0
148.429,-17.73,5.412,25.0
148.35,-17.706,4.613,19.0
49.702,-5.938,2.941,1.0
94.452,-11.274,5.08,2.0
94.236,-11.237,4.56,17.0
0.0,0.0,0.0,0.0
148.641,-17.691,5.576,21.0
148.507,-17.66,4.773,19.0
49.579,-5.902,2.986,3.0
0.0,0.0,0.0,0.0
94.301,-11.202,4.661,13.0
0.0,0.0,0.0,0.0
148.612,-17.617,5.73,20.0
148.547,-17.592,4.927,20.0
49.613,-5.882,3.038,13.0
0.0,0.0,0.0,0.0
94.448,-11.172,4.764,3.0
0.0,0.0,0.0,0.0
148.401,-17.515,5.871,21.0
148.325,-17.487,5.071,19.0
49.596,-5.854,3.088,18.0
0.0,0.0,0.0,0.0
0.0,0.0,0.0,0.0
94.457,-11.108,4.34,2.0
148.566,-17.451,6.025,17.0
148.431,-17.416,5.22,22.0
49.786,-5.848,3.149,27.0
108.006,-12.671,6.248,13.0
0.0,0.0,0.0,0.0
94.388,-11.044,4.429,5.0
148.831,-17.393,6.181,3.0
148.386,-17.32,5.362,20.0
49.923,-5.834,3.207,24.0
107.99,-12.602,6.352,22.0
0.0,0.0,0.0,0.0
111.021,-12.919,5.317,4.0
0.0,0.0,0.0,0.0
148.282,-17.211,5.499,21.0
50.055,-5.817,3.263,21.0
107.979,-12.53,6.452,23.0
0.0,0.0,0.0,0.0
111.062,-12.85,5.422,14.0
0.0,0.0,0.0,0.0
148.214,-17.099,5.634,24.0
50.038,-5.78,3.308,32.0
107.941,-12.449,6.55,23.0
0.0,0.0,0.0,0.0
108.126,-12.432,5.378,10.0
0.0,0.0,0.0,0.0
148.333,-17.004,5.772,25.0
49.185,-5.645,3.297,24.0
107.98,-12.373,6.651,17.0
108.303,-12.389,6.083,2.0
108.093,-12.346,5.474,16.0
111.116,-12.671,5.024,7.0
148.234,-16.877,5.9,17.0
48.939,-5.579,3.323,38.0
49.171,-5.595,3.072,17.0
49.279,-5.598,2.811,13.0
108.084,-12.257,5.567,16.0
111.068,-12.575,5.118,7.0
148.863,-16.828,6.052,7.0
48.828,-5.526,3.358,32.0
49.155,-5.553,3.113,7.0
49.245,-5.554,2.85,35.0
107.99,-12.157,5.652,5.0
108.464,-12.189,5.087,22.0
0.0,0.0,0.0,0.0
48.816,-5.484,3.397,41.0
49.158,-5.512,3.153,5.0
49.229,-5.509,2.889,38.0
0.0,0.0,0.0,0.0
108.475,-12.095,5.175,19.0
0.0,0.0,0.0,0.0
48.9,-5.45,3.442,22.0
107.592,-11.968,6.986,15.0
49.24,-5.466,2.928,21.0
109.701,-12.154,5.917,2.0
108.515,-12.0,5.262,16.0
110.492,-12.195,4.757,6.0
49.206,-5.438,3.502,24.0
48.665,-5.367,3.197,21.0
107.529,-11.835,6.478,14.0
49.613,-5.449,2.713,5.0
108.106,-11.852,5.322,20.0
110.542,-12.095,4.841,21.0
49.292,-5.4,3.545,19.0
48.61,-5.313,3.23,41.0
107.479,-11.724,6.554,20.0
49.595,-5.399,2.748,11.0
108.018,-11.735,5.395,21.0
110.542,-11.985,4.92,25.0
49.323,-5.354,3.583,38.0
48.637,-5.268,3.266,23.0
48.67,-5.26,3.002,7.0
108.837,-11.737,6.106,18.0
107.876,-11.608,5.464,22.0
110.71,-11.888,5.004,20.0
49.43,-5.314,3.624,20.0
48.72,-5.226,3.305,6.0
48.619,-5.203,3.031,14.0
108.337,-11.568,6.151,18.0
107.991,-11.505,5.541,20.0
110.687,-11.767,5.075,24.0
49.401,-5.258,3.654,22.0
49.247,-5.229,3.372,15.0
48.68,-5.157,3.066,22.0
107.738,-11.388,6.185,16.0
107.927,-11.382,5.604,21.0
110.71,-11.649,5.143,6.0
49.288,-5.192,3.676,24.0
49.735,-5.226,3.436,4.0
48.764,-5.112,3.101,17.0
107.67,-11.258,6.246,20.0
107.977,-11.264,5.673,20.0
113.602,-11.823,5.346,4.0
49.211,-5.128,3.7,24.0
49.641,-5.159,3.459,29.0
109.972,-11.402,7.057,9.0
107.339,-11.102,6.288,22.0
108.195,-11.163,5.744,20.0
108.906,-11.209,5.184,21.0
48.206,-4.968,3.651,9.0
49.73,-5.111,3.492,18.0
107.353,-11.005,6.947,17.0
107.646,-11.006,6.363,21.0
108.427,-11.058,5.814,23.0
108.823,-11.071,5.237,24.0
48.149,-4.903,3.672,34.0
49.716,-5.049,3.517,11.0
108.603,-11.001,7.084,20.0
107.94,-10.904,6.435,23.0
108.366,-10.92,5.863,23.0
108.071,-10.862,5.253,23.0
48.157,-4.845,3.695,11.0
107.648,-10.801,7.666,17.0
108.362,-10.842,7.119,17.0
108.312,-10.808,6.507,18.0
108.136,-10.761,5.901,20.0
108.112,-10.73,5.305,21.0
107.013,-10.631,8.261,20.0
107.831,-10.682,7.728,13.0
108.085,-10.677,7.148,19.0
108.16,-10.655,6.544,19.0
108.779,-10.687,5.982,18.0
108.169,-10.598,5.352,20.0
106.916,-10.486,8.297,19.0
107.391,-10.501,7.739,9.0
107.883,-10.517,7.178,19.0
110.601,-10.752,6.735,14.0
108.673,-10.534,6.018,21.0
108.015,-10.441,5.386,26.0
106.433,-10.298,8.3,17.0
106.67,-10.29,7.726,20.0
106.931,-10.285,7.153,13.0
110.431,-10.59,6.764,19.0
108.705,-10.394,6.057,29.0
108.059,-10.301,5.425,26.0
106.532,-10.165,8.344,17.0
106.788,-10.157,7.771,16.0
106.826,-10.129,7.181,19.0
110.149,-10.413,6.783,18.0
108.65,-10.24,6.089,24.0
108.169,-10.165,5.463,15.0
107.989,-10.157,8.49,16.0
106.198,-9.955,7.76,21.0
106.955,-9.995,7.221,20.0
109.707,-10.221,6.786,17.0
108.594,-10.086,6.115,23.0
108.477,-10.044,5.508,21.0
108.103,-10.018,8.528,20.0
106.04,-9.794,7.775,23.0
106.922,-9.843,7.245,13.0
107.67,-9.88,6.686,14.0
108.944,-9.966,6.16,20.0
108.741,-9.915,5.546,27.0
108.412,-9.892,8.578,15.0
106.106,-9.649,7.803,16.0
106.867,-9.686,7.263,20.0
109.729,-9.912,6.836,24.0
108.846,-9.8,6.177,18.0
109.012,-9.784,5.581,17.0
108.261,-9.723,8.585,13.0
108.637,-9.723,8.009,18.0
106.818,-9.527,7.279,22.0
109.916,-9.771,6.866,14.0
109.112,-9.666,6.21,19.0
0.0,0.0,0.0,0.0
111.506,-9.852,8.859,17.0
109.413,-9.633,8.08,15.0
107.024,-9.389,7.307,21.0
107.917,-9.434,6.755,20.0
105.323,-9.175,6.006,15.0
107.037,-9.293,5.508,20.0
109.964,-9.552,8.749,12.0
109.679,-9.492,8.112,9.0
107.048,-9.232,7.318,16.0
109.499,-9.409,6.863,18.0
105.323,-9.019,6.014,11.0
107.081,-9.137,5.518,20.0
106.816,-9.118,8.505,13.0
112.016,-9.526,8.291,8.0
104.757,-8.875,7.168,15.0
105.508,-8.906,6.619,16.0
109.341,-9.197,6.248,15.0
107.035,-8.97,5.519,35.0
106.9,-8.963,8.514,18.0
108.305,-9.044,8.019,10.0
104.64,-8.706,7.16,14.0
105.287,-8.727,6.604,22.0
109.237,-9.02,6.241,23.0
107.125,-8.814,5.523,30.0
108.464,-8.926,8.637,10.0
107.963,-8.849,7.99,17.0
104.667,-8.547,7.158,19.0
105.216,-8.558,6.597,22.0
109.061,-8.838,6.227,13.0
107.254,-8.659,5.523,22.0
107.029,-8.641,8.517,8.0
106.783,-8.587,7.896,20.0
104.766,-8.391,7.158,22.0
105.451,-8.413,6.602,16.0
107.129,-8.514,6.108,18.0
107.781,-8.533,5.541,20.0
109.324,-8.656,8.688,3.0
106.253,-8.379,7.846,28.0
107.263,-8.425,7.317,10.0
106.288,-8.316,6.643,13.0
108.459,-8.451,6.17,20.0
108.475,-8.419,5.562,25.0
109.795,-8.521,8.709,3.0
106.344,-8.218,7.837,20.0
111.243,-8.561,7.571,10.0
106.369,-8.153,6.63,16.0
108.389,-8.275,6.148,21.0
108.042,-8.216,5.522,15.0
104.743,-7.963,8.29,26.0
0.0,0.0,0.0,0.0
105.621,-7.962,7.168,22.0
107.802,-8.092,6.698,20.0
108.027,-8.074,6.104,23.0
107.92,-8.033,5.491,27.0
109.79,-8.168,8.665,13.0
104.973,-7.777,7.691,18.0
105.551,-7.786,7.139,19.0
109.132,-8.017,6.754,13.0
107.581,-7.869,6.052,21.0
107.803,-7.851,5.458,29.0
107.596,-7.832,8.462,15.0
105.126,-7.618,7.674,17.0
110.637,-7.981,7.451,20.0
112.015,-8.046,6.9,9.0
107.306,-7.673,6.006,23.0
107.682,-7.668,5.42,32.0
107.136,-7.624,8.393,12.0
105.003,-7.438,7.631,8.0
107.645,-7.591,7.215,16.0
106.874,-7.503,6.548,17.0
107.211,-7.493,5.964,23.0
107.632,-7.49,5.381,21.0
105.003,-7.301,8.189,18.0
0.0,0.0,0.0,0.0
107.528,-7.406,7.167,18.0
106.9,-7.33,6.511,26.0
107.118,-7.311,5.918,27.0
107.492,-7.303,5.332,12.0
105.149,-7.138,8.158,14.0
107.334,-7.251,7.72,18.0
108.5,-7.294,7.188,24.0
107.079,-7.164,6.476,22.0
106.774,-7.11,5.854,21.0
107.436,-7.122,5.284,32.0
107.699,-7.132,8.309,21.0
107.273,-7.07,7.668,20.0
107.579,-7.057,7.079,25.0
107.992,-7.05,6.483,16.0
107.528,-6.987,5.846,22.0
107.532,-6.953,5.239,26.0
107.92,-6.97,8.275,14.0
107.226,-6.891,7.611,20.0
107.628,-6.883,7.03,25.0
107.978,-6.871,6.428,20.0
107.222,-6.789,5.775,26.0
107.391,-6.768,5.176,25.0
108.904,-6.853,8.294,21.0
107.525,-6.731,7.576,23.0
107.923,-6.721,6.99,26.0
108.114,-6.7,6.377,32.0
107.152,-6.607,5.713,30.0
107.194,-6.576,5.108,27.0
108.997,-6.677,8.238,22.0
107.493,-6.55,7.512,23.0
108.146,-6.555,6.943,24.0
107.536,-6.484,6.281,24.0
107.433,-6.444,5.664,27.0
107.252,-6.4,5.046,32.0
109.05,-6.497,8.175,23.0
108.072,-6.405,7.486,23.0
108.304,-6.384,6.885,20.0
107.366,-6.295,6.203,26.0
107.282,-6.257,5.589,25.0
107.799,-6.254,5.003,25.0
108.884,-6.305,8.092,24.0
112.294,-6.466,7.704,11.0
108.018,-6.186,6.795,26.0
107.89,-6.146,6.161,21.0
107.913,-6.115,5.549,25.0
108.008,-6.086,4.939,25.0
109.58,-6.162,8.068,13.0
112.855,-6.31,7.664,7.0
108.12,-6.013,6.725,23.0
108.043,-5.976,6.094,29.0
108.187,-5.951,5.486,22.0
108.04,-5.91,4.863,26.0
109.468,-5.972,7.978,20.0
108.172,-5.868,7.265,20.0
108.466,-5.851,6.666,16.0
108.065,-5.798,6.013,24.0
108.349,-5.78,5.411,28.0
108.023,-5.731,4.781,28.0
109.513,-5.794,7.897,11.0
108.275,-5.693,7.187,21.0
108.721,-5.684,6.595,21.0
108.101,-5.619,5.93,15.0
108.5,-5.608,5.332,19.0
108.366,-5.57,4.708,23.0
111.287,-5.704,7.934,9.0
111.641,-5.689,7.32,9.0
108.454,-5.493,6.491,20.0
112.304,-5.655,6.068,6.0
109.398,-5.477,5.286,14.0
116.429,-5.796,4.962,9.0
115.289,-5.719,8.121,9.0
116.222,-5.731,7.52,8.0
108.556,-5.321,6.403,23.0
109.201,-5.321,5.805,13.0
114.566,-5.548,5.435,24.0
116.724,-5.618,4.871,21.0
115.113,-5.521,8.006,19.0
112.994,-5.385,7.209,22.0
115.701,-5.479,6.718,15.0
109.252,-5.142,5.707,15.0
114.304,-5.346,5.318,24.0
117.191,-5.448,4.782,25.0
115.247,-5.339,7.906,15.0
117.285,-5.398,7.373,12.0
112.882,-5.163,6.448,18.0
118.483,-5.384,6.077,20.0
117.082,-5.286,5.334,15.0
115.84,-5.197,4.616,21.0
115.503,-5.162,7.81,21.0
115.431,-5.126,7.143,21.0
113.074,-4.988,6.348,18.0
116.94,-5.124,5.882,16.0
116.98,-5.092,5.213,18.0
117.212,-5.068,4.552,21.0
115.923,-4.991,7.72,22.0
114.783,-4.908,6.984,32.0
114.926,-4.881,6.332,24.0
115.244,-4.861,5.676,19.0
116.73,-4.891,5.079,23.0
116.917,-4.867,4.419,23.0
114.814,-4.758,7.524,23.0
114.228,-4.7,6.828,21.0
114.806,-4.691,6.203,23.0
115.345,-4.681,5.558,26.0
116.823,-4.708,4.958,26.0
117.237,-4.692,4.304,24.0
115.199,-4.588,7.423,12.0
114.133,-4.514,6.697,27.0
114.689,-4.505,6.07,27.0
115.022,-4.485,5.415,21.0
117.306,-4.542,4.848,25.0
125.869,-4.839,4.481,10.0
114.748,-4.388,7.264,17.0
114.293,-4.339,6.576,22.0
114.884,-4.329,5.949,23.0
0.0,0.0,0.0,0.0
117.74,-4.373,4.731,19.0
138.326,-5.099,4.763,22.0
114.729,-4.205,7.126,19.0
114.755,-4.175,6.467,22.0
116.566,-4.208,5.897,14.0
117.123,-4.196,5.239,21.0
123.811,-4.402,4.825,14.0
138.41,-4.885,4.6,19.0
114.706,-4.024,6.986,23.0
114.507,-3.986,6.313,22.0
119.678,-4.133,5.909,17.0
117.784,-4.037,5.125,17.0
118.593,-4.033,4.477,15.0
138.39,-4.671,4.43,11.0
114.683,-3.845,6.841,27.0
114.48,-3.808,6.168,27.0
117.242,-3.869,5.64,12.0
116.934,-3.827,4.94,23.0
117.803,-3.825,4.298,25.0
140.278,-4.52,4.311,14.0
115.533,-3.698,6.745,26.0
114.609,-3.638,6.028,24.0
117.307,-3.693,5.494,22.0
117.176,-3.658,4.799,10.0
118.48,-3.668,4.169,16.0
140.229,-4.305,4.127,21.0
19.689,0.092,0.004,8.0
19.688,0.094,-0.11,0.0
0.0,0.0,0.0,0.0
0.0,0.0,0.0,0.0
27.584,0.14,-0.64,0.0
23.575,0.122,-0.684,0.0
19.689,0.103,-0.035,8.0
19.615,0.105,-0.15,0.0
0.0,0.0,0.0,0.0
29.908,0.165,-0.581,0.0
26.146,0.147,-0.661,0.0
22.938,0.131,-0.714,0.0
19.694,0.114,-0.076,8.0
41.036,0.241,-0.399,0.0
0.0,0.0,0.0,0.0
28.317,0.171,-0.608,0.0
25.052,0.154,-0.685,0.0
21.898,0.136,-0.726,0.0
19.68,0.123,-0.117,9.0
36.863,0.234,-0.434,0.0
0.0,0.0,0.0,0.0
26.854,0.175,-0.632,0.0
23.65,0.156,-0.695,0.0
20.877,0.139,-0.736,0.0
19.684,0.132,-0.157,7.0
0.0,0.0,0.0,0.0
29.792,0.205,-0.587,0.0
25.771,0.179,-0.66,0.0
22.728,0.16,-0.715,0.0
19.779,0.14,-0.738,0.0
19.687,0.14,-0.198,4.0
19.772,0.142,-0.315,0.0
28.239,0.205,-0.615,0.0
24.698,0.181,-0.684,0.0
21.609,0.16,-0.725,0.0
19.597,0.147,-0.772,1.0
19.695,0.148,-0.239,2.0
19.703,0.149,-0.355,0.0
26.87,0.205,-0.641,0.0
23.302,0.18,-0.694,0.0
20.777,0.161,-0.741,0.0
18.924,0.148,-0.786,0.0
19.703,0.154,-0.281,2.0
19.7,0.156,-0.396,3.0
19.687,0.157,-0.511,0.0
19.702,0.158,-0.628,0.0
19.707,0.159,-0.744,1.0
18.198,0.148,-0.793,0.0
19.692,0.16,-0.321,5.0
19.69,0.161,-0.437,5.0
19.703,0.163,-0.552,2.0
19.725,0.164,-0.67,0.0
19.504,0.163,-0.776,1.0
17.51,0.147,-0.8,0.0
19.675,0.165,-0.362,10.0
19.683,0.166,-0.478,6.0
19.721,0.168,-0.594,3.0
19.724,0.169,-0.711,1.0
18.698,0.161,-0.784,0.0
16.931,0.147,-0.809,0.0
19.685,0.17,-0.403,14.0
19.696,0.171,-0.519,8.0
19.699,0.172,-0.634,4.0
19.666,0.172,-0.75,2.0
18.068,0.159,-0.795,0.0
16.326,0.144,-0.814,0.0
19.682,0.173,-0.444,12.0
19.681,0.174,-0.559,8.0
19.698,0.175,-0.675,5.0
19.336,0.173,-0.777,0.0
17.413,0.156,-0.802,0.0
15.705,0.141,-0.815,0.0
19.687,0.176,-0.485,11.0
19.701,0.177,-0.6,8.0
19.698,0.178,-0.715,3.0
18.497,0.168,-0.782,0.0
16.816,0.153,-0.809,0.0
15.349,0.14,-0.829,1.0
19.689,0.178,-0.525,11.0
19.696,0.179,-0.641,8.0
19.608,0.179,-0.752,2.0
17.96,0.164,-0.796,0.0
16.205,0.149,-0.813,0.0
14.925,0.137,-0.836,0.0
19.694,0.18,-0.566,11.0
19.708,0.18,-0.681,7.0
19.251,0.177,-0.778,1.0
17.288,0.159,-0.801,0.0
15.639,0.144,-0.816,0.0
14.538,0.134,-0.844,0.0
19.7,0.181,-0.606,10.0
19.69,0.181,-0.721,4.0
18.503,0.17,-0.785,0.0
16.732,0.154,-0.81,0.0
15.307,0.141,-0.83,1.0
14.062,0.13,-0.845,0.0
19.701,0.18,-0.646,9.0
19.576,0.18,-0.756,2.0
17.907,0.165,-0.796,0.0
16.114,0.148,-0.812,0.0
14.835,0.137,-0.835,0.0
13.64,0.126,-0.848,0.0
19.719,0.18,-0.687,6.0
19.21,0.175,-0.781,0.0
17.306,0.158,-0.804,0.0
15.607,0.143,-0.818,0.0
14.433,0.132,-0.842,0.0
13.337,0.122,-0.856,1.0
19.705,0.178,-0.725,2.0
18.398,0.166,-0.785,0.0
16.586,0.15,-0.805,0.0
15.265,0.138,-0.831,1.0
13.974,0.126,-0.843,0.0
13.01,0.118,-0.861,1.0
19.574,0.175,-0.76,1.0
17.807,0.159,-0.796,0.0
15.911,0.142,-0.804,0.0
14.754,0.132,-0.833,0.0
13.629,0.121,-0.849,0.0
12.709,0.113,-0.867,0.0
19.012,0.167,-0.776,0.0
17.108,0.15,-0.798,0.0
15.5,0.136,-0.814,0.0
14.36,0.126,-0.839,0.0
13.292,0.116,-0.855,0.0
12.411,0.108,-0.871,0.0
18.348,0.158,-0.785,0.0
16.543,0.142,-0.805,0.0
15.249,0.13,-0.831,1.0
13.928,0.119,-0.842,0.0
12.994,0.111,-0.862,0.0
12.127,0.103,-0.875,0.0
17.688,0.148,-0.792,0.0
15.86,0.132,-0.803,0.0
14.735,0.123,-0.832,0.0
13.578,0.113,-0.847,0.0
12.687,0.105,-0.866,0.0
11.891,0.098,-0.882,0.0
17.041,0.138,-0.796,0.0
15.524,0.125,-0.816,0.0
14.417,0.116,-0.842,0.0
13.277,0.106,-0.855,1.0
12.404,0.099,-0.871,0.0
11.621,0.093,-0.884,0.0
16.592,0.129,-0.807,0.0
15.239,0.118,-0.83,0.0
13.967,0.108,-0.843,0.0
12.988,0.1,-0.861,0.0
12.116,0.093,-0.874,0.0
11.356,0.087,-0.886,0.0
15.831,0.118,-0.8,0.0
14.801,0.11,-0.835,0.0
13.603,0.101,-0.846,0.0
12.672,0.093,-0.864,0.0
11.909,0.087,-0.882,0.0
11.154,0.081,-0.891,0.0
15.561,0.11,-0.816,1.0
14.396,0.102,-0.839,0.0
13.315,0.093,-0.854,0.0
12.416,0.087,-0.87,0.0
11.649,0.081,-0.885,0.0
10.941,0.075,-0.895,0.0
15.325,0.102,-0.833,1.0
13.986,0.093,-0.841,0.0
12.995,0.086,-0.858,0.0
12.146,0.08,-0.874,0.0
11.387,0.074,-0.886,0.0
10.728,0.069,-0.898,0.0
14.806,0.092,-0.832,0.0
13.685,0.085,-0.849,0.0
12.729,0.078,-0.864,0.0
11.934,0.073,-0.881,0.0
11.182,0.068,-0.891,0.0
10.537,0.063,-0.901,0.0
14.437,0.083,-0.837,0.0
13.367,0.076,-0.853,0.0
12.449,0.071,-0.867,0.0
11.68,0.065,-0.883,0.0
10.978,0.061,-0.894,0.0
10.35,0.057,-0.904,0.0
14.014,0.074,-0.838,0.0
13.066,0.068,-0.858,0.0
12.214,0.063,-0.873,0.0
11.456,0.058,-0.887,0.0
10.763,0.054,-0.896,0.0
10.189,0.051,-0.908,0.0
13.703,0.065,-0.844,0.0
12.792,0.06,-0.862,0.0
11.965,0.055,-0.876,0.0
11.206,0.051,-0.887,0.0
10.584,0.047,-0.9,0.0
10.001,0.044,-0.909,0.0
13.439,0.056,-0.851,0.0
12.539,0.051,-0.867,0.0
11.732,0.047,-0.88,0.0
11.02,0.044,-0.892,0.0
10.407,0.04,-0.903,0.0
9.801,0.037,-0.908,0.0
13.136,0.047,-0.855,0.0
12.299,0.043,-0.872,0.0
11.533,0.039,-0.885,0.0
10.839,0.036,-0.896,0.0
10.246,0.033,-0.907,0.0
9.637,0.031,-0.91,0.0
12.882,0.038,-0.86,0.0
12.035,0.034,-0.874,0.0
11.298,0.031,-0.886,0.0
10.637,0.028,-0.897,0.0
10.052,0.026,-0.907,0.0
9.512,0.024,-0.914,0.0
12.637,0.029,-0.865,0.0
11.83,0.026,-0.878,0.0
11.1,0.023,-0.889,0.0
10.48,0.021,-0.902,0.0
9.904,0.019,-0.91,0.0
9.373,0.017,-0.916,0.0
12.381,0.019,-0.868,0.0
11.66,0.017,-0.885,0.0
10.937,0.015,-0.894,0.0
10.301,0.013,-0.903,0.0
9.732,0.012,-0.91,0.0
9.282,0.01,-0.923,0.0
12.167,0.01,-0.873,0.0
11.401,0.008,-0.884,0.0
10.747,0.007,-0.896,0.0
10.162,0.005,-0.907,0.0
9.609,0.004,-0.914,0.0
9.094,0.003,-0.919,0.0
11.949,0.001,-0.876,0.0
11.208,0.0,-0.887,0.0
10.595,0.0,-0.9,0.0
9.98,-0.001,-0.907,0.0
9.461,-0.002,-0.915,0.0
8.99,-0.003,-0.922,0.0
11.743,-0.007,-0.879,0.0
11.054,-0.008,-0.892,0.0
10.412,-0.009,-0.901,0.0
9.834,-0.009,-0.909,0.0
9.333,-0.01,-0.917,0.0
8.86,-0.01,-0.923,0.0
11.557,-0.016,-0.883,0.0
10.872,-0.017,-0.893,0.0
10.265,-0.017,-0.903,0.0
9.69,-0.017,-0.91,0.0
9.209,-0.017,-0.919,0.0
8.743,-0.017,-0.923,0.0
11.367,-0.026,-0.885,0.0
10.717,-0.025,-0.896,0.0
10.104,-0.025,-0.904,0.0
9.579,-0.025,-0.914,0.0
9.062,-0.024,-0.918,0.0
8.61,-0.024,-0.922,0.0
11.2,-0.035,-0.888,0.0
10.561,-0.034,-0.899,0.0
9.974,-0.033,-0.907,0.0
9.465,-0.033,-0.917,0.0
8.982,-0.032,-0.922,0.0
8.514,-0.031,-0.924,0.0
11.054,-0.044,-0.892,0.0
10.409,-0.043,-0.901,0.0
9.862,-0.042,-0.911,0.0
9.336,-0.041,-0.917,0.0
8.881,-0.04,-0.925,0.0
8.44,-0.039,-0.928,0.0
10.891,-0.053,-0.894,0.0
10.276,-0.052,-0.903,0.0
9.706,-0.05,-0.91,0.0
9.23,-0.049,-0.92,0.0
8.777,-0.047,-0.926,0.0
8.349,-0.046,-0.929,0.0
10.74,-0.063,-0.896,0.0
10.133,-0.06,-0.904,0.0
9.589,-0.058,-0.911,0.0
9.089,-0.057,-0.918,0.0
8.631,-0.055,-0.922,0.0
8.265,-0.054,-0.931,0.0
10.575,-0.072,-0.896,0.0
10.003,-0.069,-0.906,0.0
9.496,-0.067,-0.915,0.0
9.031,-0.065,-0.924,0.0
8.552,-0.063,-0.924,0.0
8.165,-0.061,-0.93,0.0
10.448,-0.081,-0.899,0.0
9.893,-0.078,-0.908,0.0
9.376,-0.075,-0.915,0.0
8.924,-0.073,-0.924,0.0
8.483,-0.07,-0.928,0.0
8.096,-0.068,-0.933,0.0
10.311,-0.09,-0.9,0.0
9.765,-0.087,-0.908,0.0
9.29,-0.084,-0.918,0.0
8.778,-0.081,-0.919,0.0
8.403,-0.078,-0.929,0.0
8.035,-0.076,-0.935,0.0
10.209,-0.1,-0.903,0.0
9.655,-0.096,-0.91,0.0
9.182,-0.092,-0.918,0.0
8.726,-0.089,-0.924,0.0
8.32,-0.086,-0.93,0.0
7.925,-0.083,-0.932,0.0
10.092,-0.109,-0.904,0.0
9.566,-0.105,-0.912,0.0
9.049,-0.1,-0.915,0.0
8.614,-0.097,-0.922,0.0
8.244,-0.094,-0.931,0.0
7.889,-0.091,-0.937,0.0
9.953,-0.118,-0.903,0.0
9.457,-0.113,-0.912,0.0
8.987,-0.109,-0.919,0.0
8.554,-0.105,-0.925,0.0
8.156,-0.102,-0.93,0.0
7.825,-0.099,-0.937,0.0
9.883,-0.127,-0.907,0.0
9.383,-0.123,-0.915,0.0
8.918,-0.118,-0.922,0.0
8.47,-0.113,-0.925,0.0
8.126,-0.11,-0.935,0.0
7.771,-0.107,-0.939,0.0
9.811,-0.137,-0.911,0.0
9.32,-0.132,-0.919,0.0
8.802,-0.126,-0.919,0.0
8.402,-0.122,-0.926,0.0
8.042,-0.118,-0.933,0.0
7.718,-0.114,-0.941,0.0
9.716,-0.147,-0.911,0.0
9.265,-0.141,-0.923,0.0
8.741,-0.135,-0.921,0.0
8.325,-0.13,-0.926,0.0
7.989,-0.126,-0.935,0.0
7.657,-0.122,-0.941,0.0
9.628,-0.156,-0.912,0.0
9.087,-0.149,-0.913,0.0
8.653,-0.143,-0.92,0.0
8.286,-0.139,-0.929,0.0
7.909,-0.134,-0.933,0.0
7.604,-0.13,-0.941,0.0
9.55,-0.165,-0.914,0.0
9.039,-0.158,-0.917,0.0
8.614,-0.152,-0.923,0.0
8.217,-0.147,-0.929,0.0
7.877,-0.142,-0.936,0.0
7.551,-0.138,-0.941,0.0
9.491,-0.175,-0.916,0.0
8.961,-0.167,-0.917,0.0
8.57,-0.161,-0.926,0.0
8.17,-0.155,-0.931,0.0
7.837,-0.15,-0.938,0.0
7.513,-0.146,-0.943,0.0
9.421,-0.185,-0.917,0.0
8.922,-0.177,-0.92,0.0
8.468,-0.169,-0.922,0.0
8.13,-0.164,-0.933,0.0
7.789,-0.159,-0.939,0.0
7.465,-0.153,-0.943,0.0
9.34,-0.194,-0.917,0.0
8.909,-0.187,-0.925,0.0
8.435,-0.178,-0.925,0.0
8.092,-0.173,-0.934,0.0
7.746,-0.167,-0.939,0.0
7.434,-0.162,-0.944,0.0
9.263,-0.203,-0.916,0.0
8.842,-0.196,-0.925,0.0
8.402,-0.188,-0.927,0.0
8.026,-0.181,-0.933,0.0
7.69,-0.175,-0.938,0.0
7.396,-0.17,-0.945,0.0
9.236,-0.214,-0.92,0.0
8.753,-0.204,-0.922,0.0
8.389,-0.197,-0.931,0.0
7.994,-0.19,-0.934,0.0
7.675,-0.184,-0.941,0.0
7.347,-0.177,-0.944,0.0
9.193,-0.224,-0.921,0.0
8.725,-0.214,-0.924,0.0
8.333,-0.206,-0.93,0.0
7.943,-0.198,-0.933,0.0
7.631,-0.192,-0.941,0.0
7.334,-0.186,-0.946,0.0
9.124,-0.233,-0.92,0.0
8.688,-0.223,-0.926,0.0
8.295,-0.215,-0.931,0.0
7.929,-0.207,-0.936,0.0
7.61,-0.2,-0.942,0.0
7.28,-0.193,-0.944,0.0
9.075,-0.243,-0.92,0.0
8.614,-0.232,-0.922,0.0
8.249,-0.224,-0.931,0.0
7.911,-0.216,-0.939,0.0
7.566,-0.208,-0.941,0.0
7.264,-0.202,-0.945,0.0
9.019,-0.252,-0.919,0.0
8.596,-0.242,-0.925,0.0
8.19,-0.232,-0.928,0.0
7.849,-0.224,-0.935,0.0
7.582,-0.218,-0.947,0.0
7.266,-0.211,-0.949,0.0
9.001,-0.262,-0.921,0.0
8.559,-0.251,-0.925,0.0
8.181,-0.242,-0.931,0.0
7.835,-0.233,-0.937,0.0
7.504,-0.225,-0.94,0.0
7.222,-0.218,-0.947,0.0
8.987,-0.273,-0.924,0.0
8.554,-0.261,-0.928,0.0
8.145,-0.251,-0.93,0.0
7.801,-0.242,-0.936,0.0
7.497,-0.234,-0.942,0.0
7.198,-0.226,-0.946,0.0
8.923,-0.282,-0.92,0.0
8.514,-0.271,-0.927,0.0
8.139,-0.26,-0.932,0.0
7.785,-0.251,-0.937,0.0
7.504,-0.243,-0.946,0.0
7.22,-0.236,-0.952,0.0
8.914,-0.292,-0.923,0.0
8.524,-0.281,-0.931,0.0
8.126,-0.27,-0.933,0.0
7.79,-0.26,-0.94,0.0
7.463,-0.251,-0.943,0.0
7.163,-0.243,-0.946,0.0
8.862,-0.301,-0.92,0.0
8.52,-0.292,-0.933,0.0
8.101,-0.279,-0.933,0.0
7.747,-0.268,-0.937,0.0
7.441,-0.259,-0.942,0.0
7.14,-0.251,-0.945,0.0
8.85,-0.312,-0.921,0.0
8.471,-0.3,-0.929,0.0
8.099,-0.289,-0.934,0.0
7.758,-0.278,-0.94,0.0
7.469,-0.269,-0.947,0.0
7.176,-0.261,-0.951,0.0
8.869,-0.323,-0.924,0.0
8.433,-0.309,-0.927,0.0
8.074,-0.298,-0.933,0.0
7.729,-0.287,-0.938,0.0
7.417,-0.277,-0.942,0.0
7.115,-0.267,-0.944,0.0
8.83,-0.332,-0.921,0.0
8.418,-0.318,-0.926,0.0
8.096,-0.308,-0.936,0.0
7.758,-0.297,-0.942,0.0
7.412,-0.285,-0.942,0.0
7.131,-0.276,-0.947,0.0
8.847,-0.343,-0.924,0.0
8.416,-0.328,-0.927,0.0
8.057,-0.316,-0.933,0.0
7.755,-0.306,-0.942,0.0
7.409,-0.294,-0.942,0.0
7.133,-0.285,-0.948,0.0
8.821,-0.353,-0.922,0.0
8.439,-0.339,-0.93,0.0
8.079,-0.327,-0.935,0.0
7.737,-0.314,-0.94,0.0
7.423,-0.303,-0.944,0.0
7.122,-0.293,-0.947,0.0
8.814,-0.363,-0.921,0.0
8.447,-0.35,-0.93,0.0
8.062,-0.335,-0.933,0.0
7.722,-0.323,-0.938,0.0
7.413,-0.312,-0.943,0.0
7.156,-0.302,-0.951,0.0
8.841,-0.374,-0.924,0.0
8.447,-0.359,-0.93,0.0
8.081,-0.346,-0.935,0.0
7.722,-0.332,-0.938,0.0
7.419,-0.321,-0.943,0.0
7.159,-0.311,-0.951,0.0
8.844,-0.385,-0.923,0.0
8.45,-0.369,-0.93,0.0
8.11,-0.356,-0.938,0.0
7.713,-0.34,-0.936,0.0
7.401,-0.328,-0.94,0.0
7.189,-0.321,-0.954,0.0
8.829,-0.394,-0.921,0.0
8.475,-0.38,-0.931,0.0
8.103,-0.365,-0.936,0.0
7.733,-0.35,-0.937,0.0
7.39,-0.336,-0.938,0.0
7.195,-0.329,-0.953,0.0
8.855,-0.405,-0.922,0.0
8.475,-0.39,-0.93,0.0
8.096,-0.374,-0.934,0.0
7.792,-0.362,-0.943,0.0
7.435,-0.347,-0.942,0.0
7.177,-0.337,-0.95,0.0
8.887,-0.417,-0.923,0.0
8.491,-0.4,-0.93,0.0
8.118,-0.384,-0.934,0.0
7.772,-0.37,-0.939,0.0
7.475,-0.357,-0.945,0.0
7.191,-0.345,-0.95,0.0
8.906,-0.428,-0.923,0.0
8.523,-0.411,-0.931,0.0
8.152,-0.395,-0.936,0.0
7.821,-0.381,-0.942,0.0
7.511,-0.367,-0.947,0.0
7.172,-0.352,-0.945,0.0
8.942,-0.439,-0.924,0.0
8.553,-0.422,-0.932,0.0
8.193,-0.406,-0.938,0.0
7.808,-0.389,-0.938,0.0
7.524,-0.376,-0.946,0.0
7.196,-0.362,-0.946,0.0
8.981,-0.451,-0.925,0.0
8.571,-0.432,-0.931,0.0
8.202,-0.415,-0.936,0.0
7.844,-0.399,-0.94,0.0
7.543,-0.385,-0.946,0.0
7.215,-0.37,-0.945,0.0
8.999,-0.461,-0.923,0.0
8.584,-0.442,-0.928,0.0
8.233,-0.426,-0.936,0.0
7.854,-0.408,-0.938,0.0
7.551,-0.394,-0.944,0.0
7.244,-0.379,-0.946,0.0
9.054,-0.474,-0.925,0.0
8.635,-0.454,-0.93,0.0
8.246,-0.435,-0.934,0.0
7.879,-0.417,-0.937,0.0
7.617,-0.405,-0.948,0.0
7.287,-0.389,-0.948,0.0
9.078,-0.484,-0.923,0.0
8.666,-0.464,-0.929,0.0
8.261,-0.444,-0.932,0.0
7.939,-0.429,-0.94,0.0
7.626,-0.413,-0.946,0.0
7.321,-0.399,-0.949,0.0
9.118,-0.496,-0.923,0.0
8.692,-0.474,-0.928,0.0
8.3,-0.455,-0.932,0.0
7.976,-0.439,-0.94,0.0
7.693,-0.425,-0.95,0.0
7.362,-0.408,-0.95,0.0
9.199,-0.509,-0.926,0.0
8.773,-0.487,-0.931,0.0
8.317,-0.464,-0.929,0.0
8.008,-0.448,-0.939,0.0
7.705,-0.433,-0.947,0.0
7.386,-0.417,-0.949,0.0
9.225,-0.52,-0.923,0.0
8.814,-0.498,-0.93,0.0
8.38,-0.476,-0.931,0.0
7.995,-0.455,-0.933,0.0
7.734,-0.442,-0.945,0.0
7.443,-0.427,-0.951,0.0
9.286,-0.532,-0.923,0.0
8.839,-0.508,-0.927,0.0
8.45,-0.487,-0.933,0.0
8.04,-0.465,-0.933,0.0
7.775,-0.452,-0.945,0.0
7.476,-0.436,-0.95,0.0
9.33,-0.543,-0.921,0.0
8.879,-0.518,-0.925,0.0
8.533,-0.5,-0.936,0.0
8.139,-0.479,-0.939,0.0
7.768,-0.458,-0.939,0.0
7.506,-0.444,-0.949,0.0
9.394,-0.555,-0.921,0.0
8.955,-0.531,-0.927,0.0
8.553,-0.509,-0.932,0.0
8.166,-0.487,-0.936,0.0
7.833,-0.469,-0.941,0.0
7.546,-0.453,-0.948,0.0
9.467,-0.568,-0.921,0.0
9.032,-0.543,-0.928,0.0
8.594,-0.519,-0.93,0.0
8.253,-0.5,-0.939,0.0
7.889,-0.479,-0.941,0.0
7.574,-0.461,-0.945,0.0
9.526,-0.579,-0.919,0.0
9.083,-0.554,-0.926,0.0
8.661,-0.53,-0.93,0.0
8.267,-0.507,-0.934,0.0
7.957,-0.49,-0.942,0.0
7.609,-0.47,-0.943,0.0
9.617,-0.593,-0.92,0.0
9.141,-0.565,-0.924,0.0
8.756,-0.543,-0.933,0.0
8.347,-0.519,-0.936,0.0
7.979,-0.498,-0.938,0.0
7.687,-0.481,-0.946,0.0
9.698,-0.605,-0.919,0.0
9.254,-0.579,-0.927,0.0
8.802,-0.553,-0.93,0.0
8.381,-0.528,-0.932,0.0
8.034,-0.507,-0.937,0.0
7.714,-0.488,-0.942,0.0
9.771,-0.617,-0.917,0.0
9.323,-0.591,-0.925,0.0
8.866,-0.563,-0.928,0.0
8.473,-0.54,-0.934,0.0
8.097,-0.517,-0.937,0.0
7.783,-0.499,-0.944,0.0
9.872,-0.631,-0.917,0.0
9.413,-0.603,-0.925,0.0
8.944,-0.575,-0.928,0.0
8.537,-0.55,-0.933,0.0
8.177,-0.528,-0.938,0.0
7.822,-0.507,-0.94,0.0
9.936,-0.642,-0.913,0.0
9.489,-0.615,-0.924,0.0
9.05,-0.588,-0.93,0.0
8.61,-0.561,-0.932,0.0
8.25,-0.539,-0.938,0.0
7.896,-0.517,-0.941,0.0
10.056,-0.657,-0.914,0.0
9.55,-0.625,-0.92,0.0
9.113,-0.598,-0.927,0.0
8.686,-0.571,-0.932,0.0
8.328,-0.549,-0.938,0.0
8.007,-0.529,-0.946,0.0
10.153,-0.669,-0.912,0.0
9.644,-0.637,-0.919,0.0
9.226,-0.611,-0.929,0.0
8.778,-0.583,-0.932,0.0
8.357,-0.556,-0.933,0.0
8.023,-0.535,-0.939,0.0
10.281,-0.684,-0.913,0.0
9.733,-0.649,-0.916,0.0
9.316,-0.622,-0.928,0.0
8.892,-0.596,-0.934,0.0
8.493,-0.57,-0.938,0.0
8.084,-0.544,-0.937,0.0
10.376,-0.696,-0.91,0.0
9.886,-0.665,-0.92,0.0
9.381,-0.632,-0.924,0.0
8.956,-0.605,-0.931,0.0
8.545,-0.578,-0.934,0.0
8.188,-0.555,-0.94,0.0
10.521,-0.712,-0.91,0.0
9.977,-0.676,-0.917,0.0
9.472,-0.643,-0.921,0.0
9.037,-0.615,-0.929,0.0
8.619,-0.588,-0.932,0.0
8.247,-0.564,-0.937,0.0
10.646,-0.726,-0.909,0.0
10.093,-0.689,-0.916,0.0
9.611,-0.657,-0.924,0.0
9.167,-0.628,-0.931,0.0
8.733,-0.6,-0.934,0.0
8.336,-0.574,-0.937,0.0
10.721,-0.736,-0.902,0.0
10.182,-0.7,-0.911,0.0
9.673,-0.666,-0.918,0.0
9.237,-0.637,-0.927,0.0
8.843,-0.611,-0.935,0.0
8.408,-0.582,-0.935,0.0
10.928,-0.755,-0.906,0.0
10.319,-0.714,-0.911,0.0
9.836,-0.681,-0.921,0.0
9.352,-0.649,-0.927,0.0
8.919,-0.62,-0.932,0.0
8.497,-0.592,-0.934,0.0
11.074,-0.769,-0.904,0.0
10.386,-0.722,-0.904,0.0
9.932,-0.692,-0.917,0.0
9.444,-0.659,-0.924,0.0
9.028,-0.631,-0.932,0.0
8.599,-0.602,-0.934,0.0
11.202,-0.782,-0.901,0.0
10.58,-0.739,-0.907,0.0
10.051,-0.703,-0.916,0.0
9.535,-0.668,-0.921,0.0
9.148,-0.642,-0.932,0.0
8.664,-0.609,-0.93,0.0
11.299,-0.792,-0.894,0.0
10.77,-0.756,-0.909,0.0
10.187,-0.716,-0.915,0.0
9.658,-0.68,-0.92,0.0
9.262,-0.653,-0.932,0.0
8.822,-0.623,-0.935,0.0
19.754,-0.135,0.222,1.0
19.768,-0.128,0.116,4.0
19.73,-0.121,0.01,10.0
19.703,-0.114,-0.097,14.0
19.725,-0.108,-0.203,17.0
19.742,-0.101,-0.309,15.0
19.687,-0.095,0.237,12.0
19.705,-0.088,0.131,14.0
19.702,-0.081,0.025,15.0
19.716,-0.074,-0.081,11.0
19.733,-0.068,-0.187,15.0
19.758,-0.061,-0.294,15.0
19.648,-0.054,0.251,11.0
19.684,-0.048,0.146,13.0
19.703,-0.041,0.04,15.0
19.718,-0.034,-0.067,13.0
19.752,-0.028,-0.173,8.0
0.0,0.0,0.0,0.0
19.633,-0.014,0.265,14.0
19.745,-0.008,0.16,5.0
19.798,-0.001,0.054,3.0
19.744,0.005,-0.053,13.0
19.786,0.011,-0.16,1.0
19.773,0.018,-0.266,5.0
19.626,0.025,0.278,14.0
19.716,0.031,0.173,15.0
19.752,0.038,0.067,17.0
19.751,0.045,-0.04,73.0
19.751,0.052,-0.147,27.0
19.771,0.059,-0.254,49.0
19.616,0.065,0.291,14.0
19.644,0.072,0.185,13.0
19.683,0.079,0.08,15.0
19.723,0.086,-0.028,8.0
19.741,0.092,-0.135,0.0
38.374,0.193,-0.469,0.0
19.614,0.106,0.303,15.0
19.667,0.113,0.198,17.0
19.643,0.119,0.091,13.0
19.631,0.126,-0.016,14.0
19.657,0.132,-0.122,12.0
19.697,0.139,-0.229,2.0
19.631,0.146,0.314,12.0
19.655,0.153,0.208,14.0
19.657,0.16,0.102,11.0
19.623,0.166,-0.005,17.0
19.634,0.173,-0.112,16.0
19.653,0.18,-0.218,16.0
19.7,0.188,0.326,10.0
19.727,0.195,0.22,12.0
19.71,0.201,0.113,10.0
19.665,0.207,0.004,13.0
19.636,0.214,-0.102,16.0
19.656,0.221,-0.208,17.0
19.719,0.229,0.336,11.0
19.748,0.236,0.23,19.0
19.779,0.243,0.123,21.0
19.652,0.249,0.013,0.0
19.67,0.255,-0.093,13.0
19.654,0.262,-0.199,15.0
19.711,0.27,0.345,13.0
19.738,0.277,0.238,9.0
19.703,0.283,0.131,0.0
61.299,0.904,0.069,0.0
46.642,0.703,-0.2,1.0
19.662,0.303,-0.191,0.0
19.751,0.312,0.354,0.0
55.204,0.893,0.691,23.0
55.18,0.911,0.39,53.0
55.163,0.929,0.085,55.0
52.435,0.901,-0.204,0.0
39.553,0.693,-0.369,0.0
55.176,0.99,1.012,64.0
55.189,1.008,0.712,47.0
55.187,1.028,0.411,33.0
55.207,1.046,0.105,11.0
0.0,0.0,0.0,0.0
38.442,0.754,-0.345,2.0
179.355,3.595,3.353,26.0
128.811,2.624,1.706,12.0
113.857,2.359,0.887,13.0
65.275,1.373,0.145,1.0
50.909,1.088,-0.163,0.0
38.468,0.835,-0.333,2.0
179.266,3.97,3.407,26.0
128.65,2.893,1.743,27.0
70.877,1.618,0.573,9.0
74.385,1.723,0.188,3.0
0.0,0.0,0.0,0.0
38.925,0.928,-0.326,3.0
99.652,2.418,1.921,13.0
70.771,1.741,0.978,7.0
70.739,1.764,0.59,32.0
0.0,0.0,0.0,0.0
0.0,0.0,0.0,0.0
39.794,1.032,-0.324,9.0
0.0,0.0,0.0,0.0
0.0,0.0,0.0,0.0
41.922,1.134,0.359,150.0
0.0,0.0,0.0,0.0
40.138,1.111,-0.099,154.0
39.892,1.117,-0.317,12.0
40.112,1.142,0.79,150.0
40.116,1.155,0.571,150.0
40.118,1.168,0.351,134.0
40.124,1.181,0.127,148.0
40.127,1.195,-0.092,150.0
39.939,1.202,-0.311,9.0
40.125,1.226,0.797,150.0
40.122,1.239,0.577,150.0
40.12,1.252,0.356,116.0
40.119,1.265,0.132,150.0
40.122,1.278,-0.087,150.0
39.957,1.287,-0.306,13.0
40.126,1.311,0.802,115.0
40.113,1.323,0.581,10.0
71.033,2.367,0.639,9.0
63.9,2.15,0.218,21.0
40.127,1.363,-0.083,150.0
39.981,1.372,-0.303,10.0
162.253,5.643,3.258,24.0
162.056,5.689,2.363,35.0
71.216,2.523,0.646,19.0
45.021,1.609,0.156,19.0
40.119,1.447,-0.081,2.0
39.832,1.45,-0.299,2.0
0.0,0.0,0.0,0.0
43.302,1.61,0.633,121.0
43.078,1.616,0.392,150.0
41.269,1.561,0.144,66.0
40.347,1.539,-0.081,151.0
40.202,1.547,-0.302,14.0
40.393,1.574,0.813,112.0
40.384,1.586,0.59,138.0
40.387,1.599,0.367,118.0
40.373,1.611,0.14,97.0
40.338,1.622,-0.081,150.0
40.086,1.625,-0.302,10.0
100.503,4.123,2.02,8.0
162.169,6.702,2.364,10.0
23.647,0.984,0.214,1.0
45.187,1.895,0.155,5.0
23.647,0.999,-0.049,38.0
23.641,1.007,-0.179,48.0
23.615,1.017,0.473,47.0
23.609,1.024,0.342,41.0
23.605,1.031,0.211,49.0
23.601,1.039,0.079,61.0
23.605,1.047,-0.051,71.0
23.603,1.054,-0.181,70.0
23.596,1.065,0.47,77.0
23.593,1.072,0.339,74.0
23.589,1.079,0.209,65.0
23.602,1.087,0.076,62.0
23.598,1.094,-0.054,63.0
23.607,1.102,-0.185,52.0
23.615,1.114,0.467,44.0
23.62,1.121,0.336,40.0
23.644,1.13,0.205,37.0
23.61,1.135,0.072,25.0
40.31,1.951,-0.1,13.0
23.665,1.153,-0.189,1.0
0.0,0.0,0.0,0.0
45.189,2.238,0.635,1.0
45.248,2.254,0.385,1.0
45.169,2.264,0.129,58.0
40.326,2.033,-0.108,55.0
37.713,1.913,-0.31,10.0
178.676,9.157,3.464,5.0
99.811,5.145,1.381,10.0
99.841,5.176,0.827,10.0
45.178,2.355,0.118,41.0
40.325,2.114,-0.118,41.0
37.034,1.953,-0.314,4.0
45.217,2.407,0.865,48.0
45.215,2.421,0.613,4.0
67.043,3.61,0.537,5.0
45.166,2.444,0.106,46.0
40.313,2.194,-0.129,48.0
36.342,1.988,-0.318,5.0
45.274,2.501,0.853,1.0
45.221,2.51,0.6,7.0
45.213,2.523,0.349,50.0
45.171,2.534,0.092,47.0
40.322,2.273,-0.141,42.0
35.536,2.014,-0.322,4.0
167.926,9.606,3.111,4.0
113.582,6.531,1.471,12.0
56.966,3.291,0.42,3.0
45.169,2.623,0.076,45.0
40.324,2.353,-0.156,44.0
35.304,2.071,-0.333,11.0
112.026,6.629,2.035,72.0
111.988,6.658,1.409,27.0
45.258,2.703,0.317,1.0
45.164,2.71,0.059,47.0
40.335,2.432,-0.171,46.0
35.02,2.121,-0.344,8.0
45.17,2.76,0.802,1.0
45.198,2.773,0.55,3.0
45.209,2.787,0.298,15.0
45.161,2.796,0.041,51.0
40.327,2.508,-0.188,50.0
34.397,2.149,-0.352,9.0
112.427,7.084,1.949,28.0
100.501,6.36,1.18,21.0
62.247,3.956,0.382,8.0
45.161,2.882,0.021,102.0
40.328,2.585,-0.206,43.0
33.433,2.152,-0.358,10.0
45.212,2.934,0.763,102.0
45.212,2.945,0.509,102.0
45.202,2.957,0.257,94.0
44.408,2.917,0.0,4.0
40.303,2.659,-0.226,42.0
0.0,0.0,0.0,0.0
44.207,2.951,0.724,87.0
43.982,2.947,0.474,85.0
41.986,2.825,0.217,3.0
40.325,2.724,-0.021,11.0
40.202,2.726,-0.246,35.0
31.943,2.174,-0.374,9.0
41.386,2.839,0.655,4.0
42.474,2.924,0.435,63.0
42.661,2.948,0.197,62.0
40.349,2.799,-0.043,26.0
39.859,2.776,-0.266,25.0
31.356,2.192,-0.385,9.0
41.685,2.935,0.637,88.0
41.625,2.941,0.402,150.0
41.421,2.938,0.168,63.0
40.323,2.871,-0.066,41.0
0.0,0.0,0.0,0.0
30.964,2.22,-0.398,9.0
40.388,2.916,0.593,79.0
40.384,2.926,0.366,83.0
40.35,2.934,0.139,60.0
40.319,2.942,-0.091,42.0
36.942,2.705,-0.291,5.0
30.109,2.212,-0.406,8.0
43.695,3.233,0.614,12.0
43.701,3.244,0.368,80.0
43.638,3.25,0.122,60.0
0.0,0.0,0.0,0.0
35.992,2.699,-0.307,4.0
29.492,2.219,-0.417,8.0
43.707,3.31,0.585,135.0
43.711,3.321,0.34,150.0
41.917,3.194,0.089,144.0
41.853,3.2,-0.15,88.0
35.251,2.704,-0.324,8.0
28.56,2.197,-0.424,7.0
41.898,3.245,0.532,150.0
41.908,3.256,0.296,148.0
0.0,0.0,0.0,0.0
40.102,3.134,-0.171,54.0
0.0,0.0,0.0,0.0
27.884,2.193,-0.433,7.0
41.91,3.316,0.502,123.0
41.902,3.326,0.266,134.0
40.121,3.193,0.028,88.0
40.048,3.197,-0.201,40.0
32.662,2.615,-0.348,9.0
27.419,2.202,-0.447,7.0
40.108,3.24,0.45,150.0
40.113,3.249,0.224,135.0
40.061,3.255,-0.001,66.0
39.927,3.253,-0.23,15.0
31.941,2.61,-0.365,9.0
26.564,2.176,-0.453,6.0
40.118,3.307,0.42,121.0
40.101,3.314,0.193,150.0
40.109,3.323,-0.033,118.0
0.0,0.0,0.0,0.0
31.125,2.593,-0.38,9.0
25.786,2.154,-0.461,6.0
40.113,3.37,0.387,112.0
40.105,3.378,0.161,150.0
40.112,3.388,-0.065,117.0
37.4,3.167,-0.276,5.0
29.938,2.542,-0.39,8.0
25.215,2.146,-0.471,6.0
40.11,3.433,0.354,7.0
40.1,3.441,0.127,31.0
40.093,3.448,-0.099,78.0
35.613,3.07,-0.293,12.0
29.345,2.536,-0.407,8.0
24.797,2.149,-0.485,9.0
74.346,6.478,0.592,3.0
40.097,3.502,0.092,69.0
40.042,3.506,-0.134,26.0
34.626,3.039,-0.315,9.0
28.435,2.501,-0.42,7.0
24.202,2.134,-0.495,5.0
73.24,6.492,0.518,2.0
46.719,4.15,0.065,20.0
42.723,3.803,-0.181,8.0
33.64,3.002,-0.337,10.0
27.552,2.464,-0.432,7.0
23.559,2.112,-0.503,5.0
71.988,6.486,0.443,1.0
46.502,4.199,0.023,20.0
40.131,3.632,-0.207,15.0
32.074,2.909,-0.351,10.0
26.589,2.417,-0.442,6.0
23.053,2.1,-0.514,6.0
52.911,4.844,0.276,2.0
46.235,4.241,-0.02,20.0
0.0,0.0,0.0,0.0
31.083,2.863,-0.37,9.0
25.817,2.383,-0.453,6.0
22.358,2.068,-0.52,8.0
53.014,4.927,0.225,2.0
45.687,4.255,-0.064,20.0
37.214,3.473,-0.264,3.0
30.004,2.805,-0.386,8.0
25.125,2.354,-0.466,6.0
21.899,2.056,-0.53,7.0
47.252,4.456,0.155,18.0
44.365,4.191,-0.106,19.0
35.67,3.377,-0.288,4.0
29.064,2.756,-0.402,8.0
24.589,2.336,-0.48,5.0
21.421,2.04,-0.54,8.0
47.173,4.511,0.108,22.0
40.478,3.877,-0.137,5.0
34.31,3.292,-0.311,4.0
28.053,2.697,-0.417,7.0
23.966,2.309,-0.492,5.0
21.086,2.035,-0.553,4.0
46.44,4.5,0.058,21.0
40.364,3.918,-0.178,15.0
0.0,0.0,0.0,0.0
27.045,2.635,-0.43,7.0
23.268,2.271,-0.502,5.0
18.492,1.808,-0.505,13.0
45.632,4.479,0.009,21.0
39.626,3.896,-0.217,15.0
31.535,3.106,-0.352,9.0
26.112,2.576,-0.443,6.0
22.628,2.236,-0.513,5.0
18.225,1.804,-0.517,18.0
44.692,4.441,-0.038,19.0
38.445,3.826,-0.252,11.0
30.546,3.045,-0.374,9.0
25.186,2.515,-0.454,6.0
22.118,2.212,-0.525,4.0
17.92,1.795,-0.527,18.0
44.197,4.444,-0.086,19.0
0.0,0.0,0.0,0.0
29.458,2.971,-0.393,8.0
24.621,2.487,-0.471,5.0
18.391,1.86,-0.457,7.0
17.703,1.794,-0.541,18.0
39.985,4.065,-0.121,15.0
0.0,0.0,0.0,0.0
28.527,2.908,-0.411,7.0
24.078,2.458,-0.487,5.0
18.136,1.854,-0.47,15.0
17.559,1.798,-0.555,18.0
39.892,4.098,-0.165,15.0
0.0,0.0,0.0,0.0
27.069,2.789,-0.421,7.0
23.335,2.407,-0.498,5.0
17.798,1.839,-0.481,15.0
17.376,1.798,-0.569,19.0
39.079,4.056,-0.206,15.0
31.526,3.276,-0.346,9.0
26.008,2.706,-0.434,6.0
22.856,2.381,-0.514,4.0
17.677,1.844,-0.498,19.0
17.232,1.801,-0.585,18.0
38.145,3.997,-0.244,14.0
30.633,3.213,-0.371,9.0
25.176,2.644,-0.449,6.0
18.076,1.901,-0.427,13.0
17.584,1.852,-0.516,18.0
17.026,1.796,-0.597,16.0
35.856,3.791,-0.271,7.0
29.449,3.117,-0.391,8.0
24.478,2.594,-0.465,5.0
17.742,1.883,-0.44,16.0
17.368,1.846,-0.53,14.0
16.813,1.789,-0.609,14.0
34.193,3.647,-0.299,9.0
28.237,3.015,-0.408,7.0
24.027,2.568,-0.484,5.0
17.661,1.89,-0.459,18.0
17.176,1.84,-0.545,14.0
16.673,1.789,-0.624,17.0
32.325,3.476,-0.32,6.0
26.892,2.895,-0.42,6.0
18.215,1.963,-0.389,9.0
17.558,1.894,-0.477,17.0
17.106,1.848,-0.563,17.0
16.626,1.798,-0.642,17.0
31.246,3.386,-0.347,9.0
25.577,2.774,-0.43,6.0
17.85,1.938,-0.402,15.0
17.364,1.887,-0.492,15.0
16.875,1.836,-0.575,13.0
16.464,1.793,-0.656,16.0
29.843,3.257,-0.367,8.0
25.0,2.731,-0.451,6.0
17.65,1.93,-0.419,19.0
17.231,1.886,-0.51,17.0
16.71,1.831,-0.59,13.0
16.31,1.789,-0.669,16.0
28.734,3.157,-0.388,8.0
24.439,2.688,-0.47,5.0
17.55,1.932,-0.438,19.0
17.116,1.886,-0.527,16.0
16.631,1.834,-0.607,15.0
16.216,1.79,-0.685,16.0
27.674,3.06,-0.408,7.0
17.846,1.975,-0.365,12.0
17.406,1.928,-0.456,14.0
16.962,1.88,-0.543,16.0
16.501,1.831,-0.623,15.0
16.122,1.791,-0.701,15.0
26.342,2.93,-0.42,6.0
17.687,1.969,-0.383,18.0
17.271,1.924,-0.473,15.0
16.743,1.867,-0.557,14.0
16.383,1.828,-0.639,17.0
15.999,1.787,-0.715,15.0
25.571,2.86,-0.44,6.0
17.573,1.967,-0.402,18.0
17.138,1.919,-0.491,15.0
16.648,1.866,-0.574,16.0
16.301,1.829,-0.655,17.0
15.913,1.787,-0.731,10.0
18.106,2.035,-0.333,11.0
17.38,1.955,-0.419,15.0
16.985,1.912,-0.507,14.0
16.528,1.862,-0.59,16.0
16.235,1.83,-0.673,15.0
16.031,1.809,-0.757,4.0
17.86,2.017,-0.351,16.0
17.238,1.948,-0.438,14.0
16.842,1.904,-0.524,13.0
16.403,1.856,-0.606,16.0
16.116,1.825,-0.688,14.0
16.109,1.825,-0.781,2.0
17.625,1.998,-0.368,16.0
17.113,1.942,-0.456,15.0
16.717,1.898,-0.541,14.0
16.33,1.855,-0.624,17.0
16.027,1.822,-0.704,14.0
16.269,1.851,-0.809,2.0
17.48,1.989,-0.387,17.0
17.03,1.939,-0.475,16.0
16.605,1.892,-0.558,16.0
16.298,1.858,-0.643,17.0
15.953,1.82,-0.721,14.0
0.0,0.0,0.0,0.0
17.319,1.978,-0.405,18.0
16.9,1.931,-0.492,13.0
16.481,1.884,-0.574,16.0
16.224,1.856,-0.66,13.0
15.932,1.823,-0.74,6.0
16.553,1.896,-0.864,1.0
17.197,1.969,-0.423,17.0
16.772,1.922,-0.509,14.0
16.387,1.879,-0.591,17.0
16.122,1.849,-0.676,12.0
16.09,1.846,-0.767,2.0
16.518,1.897,-0.883,1.0
17.077,1.961,-0.441,17.0
16.677,1.915,-0.527,15.0
16.33,1.876,-0.61,18.0
16.032,1.843,-0.692,12.0
16.17,1.86,-0.791,2.0
16.55,1.905,-0.905,1.0
16.994,1.955,-0.46,17.0
16.585,1.909,-0.544,16.0
16.303,1.877,-0.629,17.0
15.937,1.836,-0.708,12.0
0.0,0.0,0.0,0.0
16.651,1.92,-0.931,0.0
16.866,1.944,-0.477,15.0
16.489,1.901,-0.561,18.0
16.267,1.876,-0.647,13.0
15.893,1.834,-0.725,10.0
0.0,0.0,0.0,0.0
13.709,1.583,-0.783,0.0
16.768,1.935,-0.495,16.0
16.409,1.894,-0.579,17.0
16.182,1.868,-0.664,13.0
16.004,1.849,-0.75,4.0
16.445,1.9,-0.865,1.0
17.26,1.995,-1.008,0.0
16.688,1.928,-0.513,17.0
16.343,1.888,-0.596,18.0
16.112,1.862,-0.68,12.0
16.097,1.861,-0.774,2.0
16.466,1.904,-0.887,1.0
17.197,1.989,-1.025,0.0
16.619,1.921,-0.531,17.0
16.316,1.886,-0.615,18.0
16.029,1.853,-0.696,12.0
16.149,1.867,-0.796,2.0
16.549,1.914,-0.911,1.0
12.982,1.502,-0.789,0.0
16.52,1.909,-0.548,18.0
16.278,1.882,-0.633,16.0
15.973,1.847,-0.713,14.0
0.0,0.0,0.0,0.0
13.846,1.601,-0.779,0.0
12.82,1.483,-0.795,0.0
16.451,1.901,-0.565,19.0
16.237,1.876,-0.651,13.0
15.925,1.84,-0.73,8.0
0.0,0.0,0.0,0.0
13.606,1.573,-0.781,0.0
12.645,1.462,-0.799,0.0
16.38,1.891,-0.582,18.0
16.155,1.865,-0.667,13.0
16.059,1.854,-0.755,3.0
16.453,1.9,-0.87,1.0
13.343,1.541,-0.782,0.0
12.536,1.448,-0.807,0.0
16.336,1.884,-0.6,19.0
16.089,1.856,-0.683,12.0
16.162,1.864,-0.779,2.0
16.506,1.904,-0.892,1.0
13.138,1.516,-0.785,0.0
12.386,1.429,-0.812,0.0
16.312,1.879,-0.618,19.0
16.007,1.843,-0.698,13.0
16.251,1.872,-0.802,3.0
16.591,1.911,-0.916,0.0
12.974,1.494,-0.791,0.0
12.268,1.413,-0.818,0.0
16.301,1.874,-0.636,18.0
15.933,1.832,-0.713,13.0
0.0,0.0,0.0,0.0
13.85,1.592,-0.78,0.0
12.815,1.473,-0.796,0.0
12.094,1.39,-0.82,0.0
16.252,1.864,-0.652,16.0
15.927,1.827,-0.73,7.0
16.528,1.895,-0.853,1.0
13.554,1.554,-0.779,0.0
12.716,1.458,-0.804,0.0
11.992,1.375,-0.827,0.0
16.202,1.854,-0.668,14.0
16.038,1.835,-0.753,2.0
16.553,1.893,-0.872,1.0
13.402,1.532,-0.785,0.0
12.546,1.434,-0.807,0.0
11.765,1.345,-0.824,0.0
16.114,1.838,-0.682,15.0
16.116,1.838,-0.775,2.0
16.618,1.895,-0.894,1.0
13.205,1.505,-0.788,0.0
12.412,1.415,-0.811,0.0
11.648,1.327,-0.829,0.0
16.031,1.822,-0.696,16.0
16.324,1.855,-0.802,2.0
16.772,1.906,-0.92,1.0
13.054,1.483,-0.792,0.0
12.318,1.399,-0.819,0.0
11.458,1.301,-0.827,0.0
15.972,1.809,-0.71,16.0
0.0,0.0,0.0,0.0
17.085,1.934,-0.956,0.0
12.816,1.45,-0.792,0.0
12.158,1.375,-0.821,0.0
11.323,1.281,-0.83,0.0
15.912,1.795,-0.724,11.0
16.86,1.901,-0.864,2.0
17.373,1.958,-0.989,0.0
12.715,1.432,-0.798,0.0
11.967,1.348,-0.82,0.0
11.176,1.258,-0.83,0.0
16.02,1.799,-0.745,4.0
16.961,1.903,-0.886,2.0
13.413,1.504,-0.777,0.0
12.598,1.413,-0.804,0.0
11.852,1.328,-0.824,0.0
11.038,1.237,-0.831,0.0
16.173,1.807,-0.768,2.0
16.988,1.897,-0.904,2.0
13.354,1.49,-0.787,0.0
12.514,1.396,-0.811,0.0
11.743,1.31,-0.828,0.0
10.861,1.211,-0.828,0.0
16.501,1.834,-0.8,2.0
17.024,1.891,-0.923,1.0
13.171,1.462,-0.789,0.0
12.369,1.372,-0.813,0.0
11.633,1.29,-0.832,0.0
10.855,1.203,-0.838,0.0
17.128,1.893,-0.846,2.0
17.198,1.899,-0.948,0.0
12.949,1.429,-0.788,0.0
12.291,1.356,-0.82,0.0
11.423,1.259,-0.827,0.0
10.716,1.181,-0.838,0.0
17.42,1.913,-0.877,1.0
17.528,1.924,-0.983,0.0
12.872,1.412,-0.795,0.0
12.134,1.33,-0.82,0.0
11.307,1.239,-0.829,0.0
10.643,1.165,-0.842,0.0
17.54,1.914,-0.899,1.0
13.615,1.484,-0.775,0.0
12.772,1.391,-0.8,0.0
12.012,1.308,-0.823,0.0
11.233,1.222,-0.834,0.0
10.529,1.145,-0.842,0.0
17.538,1.9,-0.914,0.0
13.513,1.463,-0.781,0.0
12.706,1.374,-0.807,0.0
11.962,1.293,-0.83,0.0
11.096,1.199,-0.833,0.0
10.511,1.135,-0.849,0.0
17.457,1.878,-0.924,0.0
13.362,1.436,-0.784,0.0
12.6,1.353,-0.811,0.0
11.861,1.273,-0.832,0.0
10.971,1.176,-0.833,0.0
10.397,1.114,-0.849,0.0
17.49,1.867,-0.94,0.0
13.316,1.42,-0.792,0.0
12.431,1.325,-0.81,0.0
11.667,1.242,-0.828,0.0
10.935,1.163,-0.839,0.0
10.342,1.099,-0.853,0.0
17.591,1.862,-0.959,0.0
13.111,1.387,-0.79,0.0
12.376,1.308,-0.816,0.0
11.624,1.227,-0.834,0.0
10.885,1.148,-0.843,0.0
10.287,1.084,-0.856,0.0
17.651,1.853,-0.976,0.0
13.034,1.367,-0.795,0.0
12.326,1.291,-0.822,0.0
11.508,1.205,-0.834,0.0
10.785,1.128,-0.844,0.0
10.212,1.067,-0.857,0.0
13.769,1.433,-0.771,0.0
12.897,1.34,-0.796,0.0
12.187,1.265,-0.821,0.0
11.317,1.174,-0.828,0.0
10.732,1.112,-0.847,0.0
10.155,1.051,-0.86,0.0
13.813,1.424,-0.783,0.0
12.817,1.32,-0.8,0.0
12.1,1.244,-0.824,0.0
11.269,1.158,-0.833,0.0
10.584,1.086,-0.842,0.0
10.087,1.034,-0.861,0.0
13.606,1.389,-0.781,0.0
12.755,1.3,-0.804,0.0
12.088,1.231,-0.831,0.0
11.197,1.139,-0.835,0.0
10.555,1.073,-0.847,0.0
10.043,1.02,-0.863,0.0
13.538,1.368,-0.785,0.0
12.747,1.286,-0.812,0.0
11.986,1.208,-0.831,0.0
11.159,1.123,-0.839,0.0
10.532,1.059,-0.851,0.0
10.006,1.005,-0.866,0.0
13.491,1.349,-0.79,0.0
12.656,1.264,-0.813,0.0
11.888,1.186,-0.831,0.0
11.063,1.102,-0.838,0.0
10.443,1.039,-0.85,0.0
9.953,0.989,-0.867,0.0
13.47,1.332,-0.797,0.0
12.614,1.245,-0.818,0.0
11.804,1.164,-0.832,0.0
11.047,1.088,-0.843,0.0
10.475,1.03,-0.859,0.0
9.934,0.976,-0.871,0.0
13.371,1.307,-0.798,0.0
12.48,1.218,-0.815,0.0
11.67,1.138,-0.829,0.0
10.984,1.069,-0.843,0.0
10.393,1.01,-0.857,0.0
9.916,0.963,-0.874,0.0
13.293,1.284,-0.8,0.0
12.445,1.2,-0.819,0.0
11.701,1.127,-0.836,0.0
10.836,1.042,-0.837,0.0
10.354,0.994,-0.859,0.0
9.856,0.945,-0.874,0.0
13.168,1.256,-0.798,0.0
12.435,1.184,-0.824,0.0
11.568,1.1,-0.832,0.0
10.841,1.03,-0.842,0.0
10.295,0.976,-0.858,0.0
9.814,0.929,-0.874,0.0
13.173,1.241,-0.804,0.0
12.355,1.162,-0.824,0.0
11.587,1.088,-0.838,0.0
10.863,1.018,-0.848,0.0
10.287,0.963,-0.862,0.0
9.842,0.92,-0.88,0.0
13.066,1.215,-0.802,0.0
12.299,1.141,-0.825,0.0
11.483,1.064,-0.835,0.0
10.844,1.003,-0.851,0.0
10.241,0.946,-0.862,0.0
9.806,0.904,-0.881,0.0
12.95,1.188,-0.8,0.0
12.272,1.123,-0.827,0.0
11.447,1.046,-0.836,0.0
10.787,0.984,-0.85,0.0
10.219,0.931,-0.863,0.0
9.785,0.89,-0.882,0.0
12.967,1.172,-0.804,0.0
12.226,1.103,-0.827,0.0
11.457,1.032,-0.84,0.0
10.78,0.969,-0.852,0.0
10.223,0.918,-0.866,0.0
9.779,0.876,-0.884,0.0
12.975,1.156,-0.808,0.0
12.227,1.087,-0.831,0.0
11.434,1.015,-0.841,0.0
10.754,0.953,-0.853,0.0
10.192,0.901,-0.866,0.0
9.637,0.851,-0.873,0.0
12.904,1.133,-0.807,0.0
12.154,1.065,-0.828,0.0
11.451,1.001,-0.845,0.0
10.172,0.886,-0.866,0.0
9.683,0.842,-0.879,0.0
12.969,1.121,-0.813,0.0
12.154,1.048,-0.83,0.0
11.414,0.982,-0.844,0.0
10.74,0.922,-0.856,0.0
10.155,0.871,-0.866,0.0
9.712,0.831,-0.884,0.0
12.949,1.101,-0.814,0.0
12.18,1.034,-0.834,0.0
11.395,0.965,-0.844,0.0
10.696,0.904,-0.854,0.0
10.162,0.857,-0.868,0.0
9.752,0.821,-0.888,0.0
12.912,1.08,-0.813,0.0
12.213,1.019,-0.837,0.0
11.424,0.952,-0.847,0.0
10.722,0.891,-0.857,0.0
10.174,0.844,-0.87,0.0
9.757,0.807,-0.889,0.0
12.875,1.059,-0.811,0.0
12.186,1.0,-0.836,0.0
11.394,0.933,-0.846,0.0
10.781,0.881,-0.862,0.0
10.186,0.83,-0.871,0.0
9.72,0.791,-0.886,0.0
12.97,1.048,-0.818,0.0
12.163,0.981,-0.835,0.0
11.414,0.918,-0.847,0.0
