X,Y,Z,Reflectivity
83.39,-9.266,1.486,19.0
83.377,-9.279,1.031,24.0
83.368,-9.293,0.586,48.0
83.76,-9.352,0.143,6.0
116.295,-12.988,3.447,24.0
83.344,-9.321,2.024,29.0
83.396,-9.34,1.579,31.0
83.373,-9.351,1.126,35.0
83.378,-9.365,0.682,12.0
86.506,-9.731,0.245,3.0
148.052,-16.66,4.557,19.0
83.343,-9.39,2.119,14.0
83.365,-9.405,1.675,41.0
83.373,-9.419,1.222,16.0
83.402,-9.436,0.777,58.0
86.522,-9.802,0.345,8.0
148.06,-16.78,4.726,21.0
116.316,-13.197,3.093,40.0
83.344,-9.468,1.771,39.0
83.389,-9.485,1.318,75.0
83.394,-9.497,0.873,24.0
83.376,-9.508,0.428,84.0
148.112,-16.897,4.898,22.0
116.287,-13.28,3.225,41.0
83.321,-9.526,1.866,41.0
83.37,-9.543,1.414,21.0
83.384,-9.556,0.97,31.0
83.382,-9.568,0.525,21.0
148.484,-17.045,5.086,22.0
116.286,-13.362,3.362,34.0
83.306,-9.582,1.963,34.0
83.367,-9.599,1.51,27.0
83.388,-9.612,1.067,134.0
83.363,-9.62,0.622,39.0
148.421,-17.135,5.257,21.0
116.312,-13.441,3.498,14.0
83.344,-9.64,2.062,31.0
83.37,-9.653,1.609,44.0
83.396,-9.665,1.166,20.0
83.374,-9.673,0.721,34.0
148.35,-17.22,5.43,23.0
147.955,-17.189,4.626,20.0
83.334,-9.689,2.161,12.0
83.36,-9.701,1.709,33.0
83.385,-9.713,1.264,22.0
83.388,-9.723,0.82,109.0
148.487,-17.323,5.614,21.0
147.933,-17.271,4.805,21.0
116.318,-13.591,3.157,32.0
83.303,-9.741,1.808,44.0
83.376,-9.758,1.365,49.0
83.381,-9.767,0.921,40.0
148.561,-17.411,5.798,25.0
148.214,-17.382,4.991,18.0
116.297,-13.648,3.296,33.0
83.283,-9.78,1.908,48.0
83.367,-9.798,1.466,26.0
83.396,-9.809,1.021,24.0
148.474,-17.474,5.971,19.0
148.415,-17.476,5.178,21.0
116.249,-13.697,3.434,21.0
83.295,-9.82,2.009,40.0
83.341,-9.832,1.565,17.0
83.389,-9.845,1.121,49.0
148.326,-17.522,6.146,11.0
148.533,-17.554,5.361,22.0
148.145,-17.517,4.556,16.0
83.29,-9.854,2.108,17.0
83.375,-9.87,1.665,19.0
83.358,-9.873,1.222,29.0
151.381,-17.942,6.455,3.0
148.82,-17.646,5.552,20.0
148.458,-17.611,4.745,22.0
116.289,-13.8,3.084,30.0
83.321,-9.893,1.766,28.0
83.362,-9.903,1.322,24.0
0.0,0.0,0.0,0.0
148.43,-17.65,5.717,21.0
148.437,-17.657,4.924,16.0
116.312,-13.841,3.226,37.0
83.291,-9.915,1.865,42.0
83.373,-9.929,1.423,31.0
94.532,-11.266,4.26,5.0
148.22,-17.669,5.886,20.0
148.3,-17.682,5.098,18.0
116.284,-13.869,3.365,26.0
83.285,-9.936,1.966,42.0
83.362,-9.949,1.522,25.0
94.461,-11.282,4.372,10.0
148.249,-17.708,6.069,12.0
148.298,-17.717,5.278,22.0
116.227,-13.889,3.503,12.0
83.257,-9.951,2.066,23.0
83.391,-9.969,1.624,40.0
94.318,-11.285,4.478,10.0
151.53,-18.13,6.387,11.0
148.337,-17.75,5.456,19.0
148.206,-17.737,4.645,21.0
116.303,-13.921,3.024,24.0
83.389,-9.982,1.724,127.0
94.093,-11.273,4.582,13.0
94.444,-11.315,4.093,5.0
148.281,-17.764,5.633,21.0
148.33,-17.771,4.827,21.0
116.282,-13.932,3.162,35.0
83.372,-9.99,1.822,150.0
94.047,-11.279,4.691,18.0
94.433,-11.324,4.205,15.0
148.167,-17.766,5.805,20.0
148.261,-17.775,5.001,21.0
116.281,-13.941,3.3,30.0
83.279,-9.984,1.918,39.0
94.417,-11.33,4.822,15.0
94.356,-11.32,4.313,18.0
148.274,-17.786,5.983,19.0
148.349,-17.792,5.179,21.0
116.295,-13.946,3.437,18.0
83.302,-9.989,2.017,30.0
94.459,-11.337,4.935,15.0
94.166,-11.299,4.414,16.0
151.318,-18.152,6.284,6.0
148.359,-17.793,5.352,20.0
148.174,-17.767,4.553,19.0
83.295,-9.986,2.113,10.0
94.454,-11.334,5.046,11.0
94.12,-11.29,4.523,12.0
151.563,-18.175,6.471,5.0
148.309,-17.779,5.521,26.0
148.31,-17.775,4.728,21.0
116.318,-13.937,3.086,32.0
0.0,0.0,0.0,0.0
94.049,-11.275,4.627,14.0
94.42,-11.314,4.139,7.0
148.338,-17.769,5.692,21.0
148.302,-17.758,4.897,22.0
116.294,-13.921,3.219,38.0
0.0,0.0,0.0,0.0
94.205,-11.282,4.744,16.0
94.47,-11.308,4.249,11.0
148.261,-17.739,5.859,20.0
148.219,-17.726,5.065,25.0
116.259,-13.898,3.349,24.0
0.0,0.0,0.0,0.0
94.442,-11.295,4.863,15.0
94.437,-11.288,4.356,11.0
148.142,-17.697,6.024,13.0
148.342,-17.711,5.239,21.0
116.238,-13.871,3.482,11.0
0.0,0.0,0.0,0.0
94.413,-11.271,4.971,17.0
94.343,-11.255,4.459,2.0
151.392,-18.05,6.328,5.0
148.52,-17.697,5.411,21.0
148.448,-17.679,4.611,20.0
107.869,-12.86,6.38,8.0
94.429,-11.249,5.076,8.0
94.263,-11.221,4.56,13.0
0.0,0.0,0.0,0.0
148.683,-17.674,5.58,18.0
148.507,-17.642,4.777,18.0
107.89,-12.831,6.499,13.0
0.0,0.0,0.0,0.0
94.294,-11.195,4.664,19.0
0.0,0.0,0.0,0.0
148.54,-17.608,5.738,19.0
148.583,-17.601,4.94,18.0
107.99,-12.807,6.623,15.0
0.0,0.0,0.0,0.0
94.273,-11.159,4.767,9.0
0.0,0.0,0.0,0.0
148.387,-17.534,5.891,20.0
148.392,-17.521,5.094,23.0
49.45,-5.845,3.087,17.0
0.0,0.0,0.0,0.0
0.0,0.0,0.0,0.0
0.0,0.0,0.0,0.0
148.465,-17.481,6.052,11.0
148.421,-17.461,5.251,24.0
49.405,-5.819,3.136,32.0
108.058,-12.713,6.276,6.0
0.0,0.0,0.0,0.0
94.259,-11.066,4.448,5.0
148.563,-17.425,6.209,3.0
148.485,-17.399,5.407,22.0
49.415,-5.797,3.188,26.0
108.021,-12.658,6.385,19.0
0.0,0.0,0.0,0.0
94.285,-11.023,4.545,9.0
0.0,0.0,0.0,0.0
148.397,-17.313,5.554,25.0
49.439,-5.775,3.239,20.0
107.945,-12.593,6.49,23.0
0.0,0.0,0.0,0.0
94.249,-10.968,4.639,6.0
0.0,0.0,0.0,0.0
148.219,-17.209,5.697,27.0
49.289,-5.73,3.279,22.0
107.861,-12.522,6.593,25.0
107.822,-12.501,6.007,2.0
108.124,-12.52,5.429,17.0
0.0,0.0,0.0,0.0
148.177,-17.116,5.839,26.0
49.497,-5.725,3.342,24.0
107.855,-12.457,6.698,17.0
107.539,-12.403,6.096,7.0
108.14,-12.455,5.533,17.0
111.079,-12.777,5.083,7.0
148.353,-17.042,5.987,17.0
49.292,-5.67,3.374,14.0
108.085,-12.414,6.815,17.0
107.527,-12.331,6.196,14.0
108.129,-12.383,5.634,4.0
110.914,-12.683,5.18,16.0
148.292,-16.935,6.122,4.0
48.556,-5.552,3.37,23.0
49.202,-5.617,3.147,10.0
107.707,-12.278,6.305,17.0
0.0,0.0,0.0,0.0
109.012,-12.389,5.189,9.0
0.0,0.0,0.0,0.0
48.584,-5.521,3.416,31.0
49.166,-5.578,3.189,21.0
107.94,-12.225,6.417,18.0
0.0,0.0,0.0,0.0
108.826,-12.287,5.276,19.0
0.0,0.0,0.0,0.0
48.374,-5.46,3.444,28.0
49.09,-5.531,3.228,23.0
108.118,-12.161,6.522,15.0
0.0,0.0,0.0,0.0
108.353,-12.147,5.348,21.0
110.861,-12.408,4.87,15.0
48.746,-5.463,3.513,34.0
49.113,-5.494,3.271,10.0
49.245,-5.499,3.012,12.0
49.433,-5.51,2.75,0.0
108.116,-12.03,5.428,16.0
110.708,-12.297,4.957,13.0
49.088,-5.46,3.578,23.0
48.925,-5.431,3.3,7.0
49.212,-5.453,3.051,20.0
49.351,-5.459,2.785,6.0
108.048,-11.93,5.51,16.0
110.73,-12.204,5.047,9.0
49.154,-5.425,3.623,32.0
48.652,-5.358,3.32,9.0
107.171,-11.781,6.729,17.0
49.311,-5.41,2.822,17.0
107.738,-11.798,5.579,7.0
107.826,-11.786,4.996,18.0
49.192,-5.384,3.664,36.0
48.657,-5.314,3.358,20.0
107.198,-11.685,6.812,17.0
49.386,-5.372,2.864,12.0
109.012,-11.836,5.726,8.0
107.759,-11.678,5.074,20.0
49.272,-5.346,3.706,28.0
49.051,-5.311,3.421,23.0
48.611,-5.252,3.125,17.0
49.466,-5.333,2.904,9.0
109.159,-11.745,5.813,16.0
107.845,-11.581,5.155,20.0
48.89,-5.256,3.713,20.0
49.343,-5.293,3.477,17.0
48.638,-5.206,3.161,25.0
49.529,-5.29,2.942,21.0
109.108,-11.63,5.886,18.0
107.837,-11.47,5.229,21.0
48.79,-5.196,3.739,9.0
49.373,-5.246,3.512,17.0
48.625,-5.155,3.192,22.0
49.505,-5.236,2.974,18.0
108.944,-11.498,5.949,22.0
110.512,-11.638,5.431,8.0
48.636,-5.128,3.759,20.0
49.516,-5.208,3.555,22.0
48.631,-5.103,3.224,31.0
107.475,-11.253,6.525,15.0
108.513,-11.336,5.994,16.0
110.487,-11.517,5.498,8.0
48.66,-5.078,3.79,16.0
49.467,-5.15,3.582,23.0
48.653,-5.053,3.255,16.0
107.545,-11.143,6.594,21.0
108.743,-11.241,6.071,18.0
109.295,-11.271,5.503,18.0
48.333,-4.99,3.794,23.0
49.575,-5.105,3.618,23.0
107.673,-11.061,7.266,19.0
48.715,-4.992,3.014,3.0
107.943,-11.035,6.086,19.0
108.839,-11.099,5.54,22.0
48.008,-4.902,3.795,16.0
49.529,-5.044,3.642,27.0
107.706,-10.94,7.327,16.0
0.0,0.0,0.0,0.0
107.949,-10.908,6.144,23.0
108.854,-10.973,5.597,22.0
48.053,-4.849,3.823,13.0
49.735,-5.006,3.682,23.0
107.876,-10.829,7.392,16.0
109.851,-10.998,6.911,19.0
107.936,-10.778,6.196,26.0
108.917,-10.848,5.654,21.0
45.746,-4.561,3.662,13.0
49.814,-4.953,3.712,6.0
107.538,-10.664,7.42,16.0
110.277,-10.906,6.989,14.0
108.208,-10.672,6.261,17.0
108.134,-10.637,5.662,21.0
45.729,-4.503,3.681,1.0
107.423,-10.549,8.052,9.0
107.463,-10.522,7.462,21.0
110.431,-10.783,7.046,8.0
108.562,-10.572,6.326,16.0
108.176,-10.505,5.709,22.0
108.091,-10.509,8.746,20.0
107.462,-10.416,8.099,19.0
107.66,-10.406,7.518,13.0
110.274,-10.627,7.079,8.0
110.303,-10.599,6.471,17.0
108.289,-10.377,5.754,24.0
107.912,-10.351,8.771,17.0
106.352,-10.17,8.055,11.0
107.678,-10.267,7.557,15.0
107.276,-10.199,6.924,20.0
108.981,-10.33,6.431,19.0
108.538,-10.259,5.804,21.0
48.271,-4.567,3.94,4.0
106.095,-10.007,8.07,17.0
107.323,-10.091,7.567,14.0
107.412,-10.069,6.967,15.0
108.912,-10.179,6.461,20.0
108.829,-10.142,5.853,17.0
48.213,-4.496,3.949,12.0
105.974,-9.853,8.092,10.0
106.654,-9.884,7.55,15.0
107.552,-9.936,7.006,16.0
109.299,-10.067,6.514,17.0
108.668,-9.979,5.873,24.0
48.3,-4.439,3.969,3.0
108.151,-9.906,8.285,18.0
106.636,-9.736,7.576,17.0
107.431,-9.777,7.024,13.0
109.189,-9.905,6.532,17.0
108.753,-9.834,5.903,23.0
48.387,-4.379,3.987,11.0
108.875,-9.82,8.364,16.0
106.514,-9.576,7.588,21.0
107.221,-9.608,7.031,20.0
111.52,-9.961,6.693,6.0
108.871,-9.692,5.929,20.0
48.314,-4.304,3.99,12.0
111.58,-9.906,8.592,12.0
106.639,-9.436,7.615,10.0
106.775,-9.415,7.019,21.0
105.326,-9.257,6.338,15.0
107.6,-9.425,5.876,17.0
112.844,-9.891,9.335,5.0
111.576,-9.746,8.607,8.0
109.068,-9.493,7.804,16.0
106.982,-9.28,7.046,11.0
105.326,-9.105,6.35,19.0
107.53,-9.264,5.884,20.0
106.896,-9.213,8.855,15.0
109.447,-9.4,8.452,14.0
109.831,-9.4,7.868,19.0
106.96,-9.121,7.053,21.0
105.311,-8.95,6.356,17.0
108.116,-9.156,5.924,28.0
106.575,-9.029,8.835,28.0
108.363,-9.147,8.375,14.0
111.236,-9.355,7.973,13.0
104.63,-8.768,6.904,14.0
105.368,-8.798,6.364,15.0
108.753,-9.049,5.961,12.0
106.843,-8.893,8.858,19.0
108.262,-8.976,8.369,18.0
104.369,-8.621,7.482,10.0
104.755,-8.621,6.912,17.0
105.614,-8.66,6.378,19.0
107.065,-8.748,5.867,25.0
106.762,-8.726,8.849,21.0
107.301,-8.736,8.291,12.0
106.81,-8.663,7.653,11.0
104.876,-8.474,6.915,16.0
105.783,-8.515,6.383,10.0
107.072,-8.588,5.861,19.0
106.791,-8.566,8.845,21.0
107.807,-8.614,8.323,17.0
106.385,-8.467,7.615,24.0
104.853,-8.312,6.905,24.0
107.019,-8.45,6.447,20.0
108.306,-8.52,5.919,20.0
107.952,-8.493,8.93,12.0
107.45,-8.419,8.283,23.0
106.319,-8.296,7.598,27.0
106.106,-8.248,6.975,15.0
106.614,-8.254,6.409,10.0
108.624,-8.376,5.922,19.0
107.078,-8.257,8.843,10.0
108.573,-8.339,8.353,6.0
106.643,-8.156,7.603,18.0
105.776,-8.056,6.936,14.0
108.105,-8.2,6.481,23.0
108.005,-8.161,5.868,20.0
104.55,-7.898,8.615,16.0
104.761,-7.879,8.04,19.0
110.437,-8.272,7.852,7.0
105.601,-7.877,6.902,14.0
108.006,-8.022,6.451,25.0
107.797,-7.975,5.833,24.0
104.523,-7.73,8.588,17.0
104.721,-7.712,8.011,22.0
105.056,-7.702,7.444,18.0
110.66,-8.08,7.205,17.0
107.871,-7.842,6.415,22.0
108.07,-7.824,5.819,19.0
107.991,-7.814,8.843,10.0
107.17,-7.721,8.169,18.0
104.912,-7.526,7.403,18.0
107.663,-7.689,6.979,17.0
107.336,-7.632,6.352,14.0
107.498,-7.611,5.755,23.0
106.859,-7.561,8.716,23.0
105.102,-7.404,7.978,25.0
108.927,-7.639,7.651,12.0
107.715,-7.519,6.946,22.0
106.928,-7.431,6.291,21.0
107.262,-7.421,5.706,23.0
106.754,-7.38,8.67,26.0
105.003,-7.226,7.931,25.0
107.055,-7.334,7.479,12.0
0.0,0.0,0.0,0.0
107.024,-7.265,6.256,33.0
106.89,-7.223,5.644,26.0
107.158,-7.234,8.659,21.0
108.815,-7.311,8.174,9.0
106.989,-7.154,7.431,24.0
107.224,-7.136,6.828,20.0
108.301,-7.175,6.283,21.0
106.992,-7.057,5.602,22.0
107.387,-7.076,8.63,21.0
111.79,-7.33,8.347,12.0
106.994,-6.981,7.381,26.0
107.71,-6.994,6.809,33.0
108.279,-6.999,6.231,23.0
107.321,-6.905,5.569,22.0
107.703,-6.922,8.603,25.0
108.921,-6.965,8.08,16.0
106.85,-6.799,7.318,27.0
107.993,-6.839,6.773,17.0
107.692,-6.787,6.143,25.0
107.375,-6.735,5.516,34.0
107.751,-6.749,8.55,26.0
109.371,-6.817,8.055,15.0
107.212,-6.649,7.285,22.0
108.318,-6.683,6.733,20.0
107.284,-6.588,6.061,19.0
107.452,-6.566,5.46,23.0
108.42,-6.616,8.541,23.0
109.142,-6.625,7.975,7.0
107.619,-6.499,7.25,22.0
108.117,-6.496,6.659,22.0
107.336,-6.417,6.0,35.0
108.039,-6.427,5.426,24.0
108.887,-6.467,8.511,19.0
107.599,-6.357,7.796,14.0
108.198,-6.358,7.222,16.0
108.047,-6.316,6.586,24.0
107.844,-6.271,5.96,22.0
107.988,-6.249,5.354,29.0
108.924,-6.29,8.443,24.0
108.391,-6.226,7.782,17.0
107.965,-6.169,7.135,15.0
107.541,-6.111,6.482,21.0
108.026,-6.106,5.896,21.0
108.131,-6.079,5.287,26.0
111.273,-6.243,8.546,22.0
111.022,-6.194,7.892,20.0
107.919,-5.988,7.055,28.0
107.246,-5.919,6.388,20.0
107.992,-5.929,5.817,22.0
108.213,-5.908,5.213,29.0
112.881,-6.148,8.586,16.0
112.805,-6.109,7.934,7.0
108.308,-5.833,6.998,25.0
108.039,-5.787,6.354,23.0
107.905,-5.749,5.73,16.0
108.189,-5.732,5.128,29.0
109.477,-5.784,8.242,22.0
108.338,-5.69,7.535,21.0
108.86,-5.685,6.948,18.0
108.21,-5.619,6.276,26.0
108.48,-5.6,5.672,16.0
108.21,-5.555,5.042,19.0
109.531,-5.606,8.154,23.0
112.874,-5.744,7.756,7.0
108.882,-5.508,6.857,19.0
108.511,-5.457,6.203,14.0
108.542,-5.427,5.584,26.0
116.362,-5.786,5.322,9.0
112.41,-5.573,8.272,16.0
114.883,-5.66,7.794,20.0
112.56,-5.513,6.991,24.0
112.371,-5.471,6.325,16.0
108.957,-5.274,5.509,20.0
116.223,-5.592,5.212,14.0
115.078,-5.519,8.364,7.0
114.844,-5.473,7.687,16.0
112.952,-5.349,6.912,13.0
112.391,-5.29,6.221,22.0
114.173,-5.342,5.667,12.0
116.251,-5.406,5.105,11.0
115.107,-5.332,8.256,22.0
116.119,-5.346,7.662,20.0
115.97,-5.306,6.986,7.0
112.627,-5.121,6.127,10.0
114.226,-5.16,5.558,15.0
115.804,-5.199,4.973,17.0
114.676,-5.129,8.112,26.0
116.615,-5.182,7.578,22.0
114.934,-5.074,6.809,23.0
115.527,-5.067,6.169,16.0
114.154,-4.974,5.44,11.0
116.086,-5.026,4.867,24.0
114.757,-4.948,7.999,22.0
114.683,-4.913,7.334,25.0
114.643,-4.878,6.672,19.0
114.454,-4.839,5.991,26.0
117.43,-4.932,5.474,6.0
116.195,-4.847,4.75,22.0
115.604,-4.802,7.934,15.0
114.777,-4.734,7.217,22.0
114.301,-4.682,6.529,26.0
114.375,-4.654,5.864,24.0
115.417,-4.664,5.253,22.0
0.0,0.0,0.0,0.0
115.826,-4.626,7.821,24.0
115.05,-4.564,7.105,19.0
114.451,-4.509,6.409,26.0
115.074,-4.503,5.771,20.0
115.311,-4.48,5.119,15.0
117.213,-4.524,4.532,23.0
115.77,-4.444,7.685,24.0
114.68,-4.372,6.951,22.0
114.346,-4.327,6.271,21.0
115.459,-4.338,5.656,27.0
117.226,-4.373,5.069,18.0
118.188,-4.378,4.431,10.0
116.528,-4.293,7.598,26.0
114.658,-4.192,6.813,21.0
114.321,-4.149,6.133,25.0
115.879,-4.175,5.538,24.0
117.406,-4.2,4.936,18.0
117.628,-4.177,4.268,9.0
114.422,-4.039,7.319,11.0
114.382,-4.007,6.656,25.0
114.312,-3.974,5.993,26.0
115.853,-3.997,5.393,25.0
116.804,-3.999,4.764,23.0
117.524,-3.994,4.117,13.0
115.973,-3.916,7.272,24.0
115.503,-3.87,6.575,19.0
116.17,-3.862,5.942,11.0
117.118,-3.864,5.304,23.0
116.646,-3.818,4.61,11.0
139.516,-4.53,4.709,20.0
114.769,-3.701,7.047,26.0
115.602,-3.699,6.431,24.0
117.093,-3.717,5.837,7.0
117.125,-3.689,5.152,13.0
118.856,-3.714,4.542,17.0
139.787,-4.333,4.536,23.0
115.608,-3.558,6.945,26.0
114.449,-3.492,6.214,19.0
117.223,-3.547,5.686,26.0
117.224,-3.517,4.997,17.0
118.601,-3.528,4.37,24.0
140.17,-4.135,4.356,8.0
115.86,-3.393,6.801,25.0
141.012,-4.093,7.46,13.0
117.254,-3.375,5.525,25.0
117.5,-3.353,4.845,11.0
140.211,-3.967,4.974,9.0
140.618,-3.946,4.177,16.0
115.825,-3.225,6.638,23.0
124.129,-3.425,6.394,13.0
117.507,-3.214,5.374,6.0
139.721,-3.788,5.568,13.0
143.516,-3.856,4.889,12.0
163.244,-4.348,4.619,30.0
124.553,-3.289,6.96,23.0
117.426,-3.072,5.88,13.0
139.202,-3.609,6.165,7.0
139.658,-3.587,5.363,14.0
162.55,-4.136,5.302,21.0
163.256,-4.117,4.382,14.0
124.399,-3.108,6.766,22.0
191.948,-4.752,9.33,13.0
143.55,-3.519,6.145,5.0
140.551,-3.412,5.188,19.0
162.681,-3.912,5.064,22.0
163.393,-3.892,4.142,10.0
124.37,-2.933,6.578,12.0
140.799,-3.289,6.63,12.0
143.471,-3.317,5.925,17.0
140.455,-3.216,4.973,16.0
163.399,-3.704,4.838,15.0
0.0,0.0,0.0,0.0
0.0,0.0,0.0,0.0
191.817,-4.217,8.737,11.0
190.307,-4.141,7.565,17.0
190.136,-4.096,6.439,9.0
163.312,-3.481,4.584,32.0
0.0,0.0,0.0,0.0
193.178,-4.031,9.617,6.0
190.813,-3.938,8.391,14.0
190.254,-3.886,7.264,21.0
162.59,-3.284,5.248,87.0
163.427,-3.266,4.328,20.0
170.344,-3.369,3.527,6.0
192.808,-3.768,9.292,6.0
190.77,-3.686,8.084,14.0
190.433,-3.638,6.966,25.0
162.918,-3.076,4.997,22.0
163.42,-3.052,4.065,11.0
170.215,-3.143,3.25,10.0
192.491,-3.511,8.963,21.0
191.641,-3.455,7.81,19.0
190.126,-3.386,6.643,24.0
163.306,-2.875,4.743,23.0
171.488,-2.984,3.987,5.0
170.262,-2.927,2.972,6.0
193.13,-3.278,8.675,8.0
191.103,-3.203,7.472,19.0
162.555,-2.691,5.413,46.0
163.281,-2.669,4.472,23.0
0.0,0.0,0.0,0.0
169.786,-2.706,2.679,3.0
192.988,-3.033,8.341,24.0
191.756,-2.974,7.173,23.0
162.649,-2.489,5.138,47.0
163.501,-2.469,4.199,14.0
0.0,0.0,0.0,0.0
19.763,-0.29,0.278,4.0
192.961,-2.795,8.008,15.0
191.767,-2.739,6.842,21.0
163.437,-2.303,4.883,20.0
19.799,-0.275,0.474,0.0
19.759,-0.27,0.358,6.0
19.745,-0.266,0.243,16.0
185.995,-2.472,7.397,20.0
162.646,-2.129,5.521,26.0
19.767,-0.254,0.555,1.0
19.753,-0.251,0.438,7.0
19.741,-0.247,0.323,12.0
19.758,-0.243,0.209,17.0
185.876,-2.253,7.063,22.0
19.795,-0.236,0.636,1.0
19.758,-0.232,0.52,8.0
19.732,-0.228,0.403,10.0
19.755,-0.224,0.289,7.0
19.765,-0.221,0.174,0.0
185.359,-2.034,6.709,10.0
19.75,-0.213,0.599,8.0
19.732,-0.209,0.484,10.0
19.742,-0.205,0.367,6.0
19.691,-0.201,0.252,0.0
160.728,-1.616,1.124,13.0
19.775,-0.194,0.679,2.0
19.752,-0.191,0.563,8.0
19.75,-0.187,0.448,7.0
19.751,-0.184,0.331,0.0
0.0,0.0,0.0,0.0
160.607,-1.441,0.831,3.0
19.741,-0.173,0.642,14.0
19.753,-0.169,0.527,6.0
19.785,-0.166,0.413,0.0
169.23,-1.397,2.532,12.0
165.336,-1.336,1.51,9.0
19.682,-0.155,0.065,0.0
19.769,-0.152,0.606,4.0
19.787,-0.149,0.491,3.0
177.181,-1.31,3.372,18.0
169.309,-1.223,2.218,5.0
19.753,-0.139,0.143,0.0
19.76,-0.136,0.029,9.0
19.708,-0.132,0.567,7.0
19.694,-0.128,0.452,6.0
19.703,-0.125,0.338,4.0
19.721,-0.122,0.221,10.0
19.73,-0.119,0.106,9.0
19.724,-0.116,-0.008,13.0
19.651,-0.112,0.528,12.0
19.661,-0.109,0.414,9.0
19.68,-0.106,0.3,9.0
19.713,-0.103,0.183,14.0
19.71,-0.1,0.068,13.0
19.718,-0.097,-0.045,13.0
19.646,-0.093,0.491,10.0
19.662,-0.09,0.376,9.0
19.658,-0.087,0.262,10.0
19.688,-0.085,0.145,15.0
19.704,-0.082,0.031,15.0
19.721,-0.079,-0.083,13.0
19.648,-0.075,0.453,13.0
19.648,-0.072,0.338,10.0
19.661,-0.069,0.223,14.0
19.698,-0.067,0.107,15.0
19.699,-0.064,-0.007,16.0
19.725,-0.061,-0.122,15.0
19.625,-0.058,0.414,12.0
19.632,-0.055,0.299,10.0
19.663,-0.052,0.185,11.0
19.698,-0.05,0.069,15.0
19.709,-0.047,-0.045,15.0
19.743,-0.044,-0.161,14.0
19.63,-0.041,0.375,12.0
19.629,-0.038,0.261,11.0
19.682,-0.036,0.146,9.0
19.695,-0.033,0.03,14.0
19.745,-0.03,-0.085,8.0
19.775,-0.028,-0.2,1.0
19.625,-0.025,0.336,13.0
19.639,-0.023,0.222,14.0
19.689,-0.02,0.108,5.0
19.722,-0.018,-0.008,12.0
19.751,-0.015,-0.123,2.0
0.0,0.0,0.0,0.0
19.624,-0.01,0.297,13.0
19.688,-0.007,0.183,9.0
19.788,-0.005,0.069,3.0
19.745,-0.002,-0.048,6.0
19.792,0.0,-0.163,0.0
19.769,0.002,-0.279,0.0
19.631,0.004,0.257,15.0
19.772,0.006,0.144,2.0
19.755,0.009,0.029,5.0
19.768,0.011,-0.088,1.0
19.769,0.014,-0.203,2.0
19.779,0.016,-0.319,8.0
19.641,0.018,0.218,16.0
19.755,0.02,0.104,16.0
19.77,0.023,-0.011,20.0
19.745,0.025,-0.128,8.0
19.76,0.027,-0.243,11.0
19.768,0.03,-0.359,9.0
19.732,0.032,0.178,17.0
19.752,0.034,0.063,19.0
19.719,0.036,-0.051,54.0
19.747,0.038,-0.169,14.0
19.765,0.04,-0.284,12.0
19.778,0.043,-0.4,30.0
19.75,0.044,0.138,22.0
19.762,0.046,0.023,40.0
19.769,0.049,-0.091,37.0
19.762,0.051,-0.209,27.0
19.777,0.053,-0.325,30.0
19.778,0.055,-0.44,50.0
19.739,0.056,0.097,25.0
19.771,0.058,-0.017,72.0
19.767,0.06,-0.132,54.0
19.766,0.062,-0.25,38.0
19.777,0.064,-0.365,31.0
19.789,0.066,-0.481,25.0
19.754,0.068,0.057,39.0
19.77,0.07,-0.058,24.0
19.777,0.071,-0.173,23.0
19.76,0.073,-0.291,14.0
19.777,0.075,-0.406,9.0
19.789,0.077,-0.522,4.0
19.748,0.078,0.016,18.0
19.771,0.08,-0.099,5.0
19.757,0.082,-0.214,2.0
19.76,0.083,-0.331,1.0
19.755,0.085,-0.447,0.0
19.777,0.087,-0.563,0.0
19.722,0.088,-0.024,6.0
19.752,0.09,-0.14,0.0
19.759,0.091,-0.255,0.0
0.0,0.0,0.0,0.0
26.035,0.125,-0.643,0.0
23.216,0.113,-0.71,0.0
19.718,0.097,-0.065,2.0
0.0,0.0,0.0,0.0
0.0,0.0,0.0,0.0
28.577,0.147,-0.599,0.0
25.109,0.131,-0.673,0.0
22.131,0.117,-0.722,0.0
19.708,0.105,-0.106,2.0
0.0,0.0,0.0,0.0
32.061,0.176,-0.548,0.0
27.458,0.153,-0.633,1.0
24.151,0.136,-0.697,0.0
21.05,0.12,-0.731,0.0
19.689,0.113,-0.147,1.0
0.0,0.0,0.0,0.0
30.063,0.176,-0.576,0.0
25.925,0.154,-0.651,0.0
22.398,0.134,-0.693,0.0
19.986,0.121,-0.736,0.0
19.738,0.12,-0.189,0.0
33.514,0.206,-0.518,0.0
28.45,0.176,-0.605,0.0
25.019,0.156,-0.681,0.0
21.86,0.138,-0.723,0.0
19.634,0.125,-0.764,1.0
0.0,0.0,0.0,0.0
30.975,0.199,-0.542,0.0
27.118,0.176,-0.633,0.0
23.673,0.155,-0.694,0.0
20.867,0.138,-0.734,0.0
19.06,0.127,-0.782,0.0
33.241,0.221,-0.457,0.0
29.807,0.2,-0.584,0.0
25.802,0.174,-0.657,1.0
22.422,0.152,-0.704,0.0
19.807,0.136,-0.738,0.0
18.385,0.127,-0.793,0.0
32.74,0.225,-0.519,0.0
28.304,0.196,-0.614,0.0
24.945,0.174,-0.687,0.0
21.552,0.151,-0.722,0.0
19.58,0.138,-0.77,1.0
17.662,0.125,-0.798,0.0
30.848,0.218,-0.554,0.0
26.696,0.19,-0.636,1.0
23.278,0.166,-0.69,0.0
20.714,0.149,-0.737,0.0
18.823,0.136,-0.78,0.0
17.099,0.124,-0.809,0.0
29.065,0.21,-0.583,0.0
25.528,0.185,-0.661,0.0
22.404,0.164,-0.711,0.0
19.738,0.145,-0.744,1.0
18.261,0.134,-0.795,0.0
16.486,0.122,-0.815,0.0
27.87,0.205,-0.618,0.0
24.375,0.18,-0.683,0.0
21.498,0.159,-0.728,1.0
19.459,0.145,-0.775,1.0
17.444,0.13,-0.796,0.0
15.794,0.118,-0.813,0.0
26.542,0.197,-0.643,0.0
23.125,0.172,-0.695,0.0
20.396,0.152,-0.732,0.0
18.599,0.139,-0.779,0.0
17.009,0.128,-0.812,0.0
15.509,0.117,-0.831,1.0
25.279,0.189,-0.664,0.0
21.804,0.163,-0.701,0.0
19.681,0.148,-0.747,1.0
18.048,0.136,-0.793,0.0
16.386,0.124,-0.816,0.0
15.052,0.114,-0.838,0.0
24.22,0.181,-0.687,0.0
21.348,0.16,-0.73,0.0
19.366,0.145,-0.775,0.0
17.339,0.13,-0.797,0.0
15.7,0.118,-0.814,0.0
14.562,0.11,-0.84,0.0
23.002,0.171,-0.7,0.0
20.149,0.15,-0.73,0.0
18.596,0.139,-0.783,0.0
16.842,0.126,-0.809,0.0
15.457,0.115,-0.833,1.0
14.13,0.106,-0.844,0.0
21.612,0.159,-0.701,1.0
19.648,0.145,-0.753,2.0
17.96,0.132,-0.793,0.0
16.168,0.119,-0.81,0.0
14.972,0.11,-0.838,0.0
13.701,0.101,-0.847,0.0
21.263,0.154,-0.733,0.0
19.141,0.139,-0.772,0.0
17.289,0.125,-0.798,0.0
15.642,0.113,-0.815,1.0
14.486,0.105,-0.84,0.0
13.391,0.097,-0.855,1.0
19.911,0.142,-0.726,0.0
18.542,0.132,-0.785,0.0
16.833,0.119,-0.811,0.0
15.398,0.109,-0.834,1.0
14.064,0.099,-0.844,0.0
13.071,0.092,-0.861,0.0
19.625,0.136,-0.756,1.0
17.701,0.122,-0.785,0.0
16.086,0.111,-0.807,0.0
14.887,0.102,-0.836,0.0
13.6,0.093,-0.843,0.0
12.743,0.087,-0.865,0.0
19.028,0.128,-0.771,0.0
17.235,0.115,-0.799,0.0
15.616,0.104,-0.815,2.0
14.456,0.096,-0.84,0.0
13.361,0.089,-0.855,0.0
12.467,0.082,-0.871,0.0
18.489,0.119,-0.785,0.0
16.836,0.108,-0.813,0.0
15.355,0.098,-0.831,0.0
14.076,0.09,-0.846,0.0
13.034,0.083,-0.86,0.0
12.195,0.077,-0.876,0.0
17.82,0.11,-0.792,0.0
16.075,0.099,-0.808,0.0
14.877,0.091,-0.835,0.0
13.665,0.083,-0.848,0.0
12.742,0.077,-0.865,1.0
11.929,0.072,-0.88,0.0
17.257,0.101,-0.8,0.0
15.681,0.091,-0.819,0.0
14.451,0.083,-0.839,0.0
13.35,0.076,-0.854,0.0
12.466,0.071,-0.871,0.0
11.698,0.066,-0.886,0.0
16.704,0.091,-0.807,0.0
15.297,0.083,-0.828,0.0
14.056,0.076,-0.843,0.0
13.028,0.07,-0.859,0.0
12.177,0.065,-0.874,0.0
11.437,0.06,-0.888,0.0
16.286,0.083,-0.817,0.0
14.913,0.075,-0.835,0.0
13.694,0.068,-0.847,0.0
12.736,0.063,-0.864,1.0
11.924,0.058,-0.878,0.0
11.206,0.054,-0.891,0.0
15.682,0.073,-0.816,0.0
14.48,0.066,-0.838,0.0
13.394,0.061,-0.854,0.0
12.476,0.056,-0.87,0.0
11.701,0.052,-0.884,0.0
10.999,0.048,-0.896,0.0
15.303,0.064,-0.825,0.0
14.055,0.058,-0.84,0.0
13.052,0.053,-0.856,0.0
12.232,0.049,-0.875,0.0
11.456,0.045,-0.887,0.0
10.788,0.042,-0.898,0.0
14.957,0.055,-0.834,0.0
13.752,0.05,-0.847,0.0
12.777,0.045,-0.862,1.0
11.939,0.042,-0.876,0.0
11.225,0.038,-0.89,0.0
10.551,0.035,-0.898,0.0
14.494,0.045,-0.835,0.0
13.41,0.041,-0.851,0.0
12.539,0.038,-0.869,0.0
11.74,0.034,-0.883,0.0
11.014,0.032,-0.893,0.0
10.405,0.029,-0.905,0.0
14.133,0.036,-0.839,0.0
13.112,0.033,-0.855,0.0
12.297,0.03,-0.874,0.0
11.502,0.027,-0.886,0.0
10.803,0.025,-0.895,0.0
10.206,0.023,-0.905,0.0
13.804,0.027,-0.844,0.0
12.843,0.024,-0.86,0.0
12.017,0.022,-0.875,0.0
11.293,0.02,-0.889,0.0
10.621,0.018,-0.899,0.0
10.017,0.016,-0.906,0.0
13.509,0.018,-0.849,0.0
12.583,0.016,-0.865,0.0
11.808,0.014,-0.88,0.0
11.093,0.012,-0.893,0.0
10.46,0.011,-0.903,0.0
9.898,0.009,-0.913,0.0
13.2,0.009,-0.853,0.0
12.359,0.007,-0.87,0.0
11.572,0.006,-0.882,0.0
10.882,0.005,-0.894,0.0
10.263,0.003,-0.904,0.0
9.673,0.002,-0.908,0.0
12.944,0.0,-0.858,0.0
12.117,0.0,-0.874,0.0
11.37,-0.001,-0.886,0.0
10.704,-0.002,-0.898,0.0
10.106,-0.003,-0.907,0.0
9.549,-0.004,-0.913,0.0
12.677,-0.008,-0.861,0.0
11.884,-0.009,-0.877,0.0
11.181,-0.009,-0.89,0.0
10.528,-0.01,-0.901,0.0
9.951,-0.01,-0.91,0.0
9.411,-0.011,-0.915,0.0
12.464,-0.018,-0.867,0.0
11.685,-0.018,-0.881,0.0
10.999,-0.018,-0.894,0.0
10.36,-0.018,-0.903,0.0
9.815,-0.018,-0.913,0.0
9.262,-0.018,-0.916,0.0
12.253,-0.027,-0.872,0.0
11.482,-0.026,-0.884,0.0
10.793,-0.026,-0.894,0.0
10.19,-0.025,-0.905,0.0
9.635,-0.025,-0.912,0.0
9.125,-0.025,-0.917,0.0
12.029,-0.036,-0.875,0.0
11.297,-0.035,-0.887,0.0
10.655,-0.034,-0.899,0.0
10.047,-0.033,-0.908,0.0
9.488,-0.032,-0.912,0.0
9.006,-0.032,-0.919,0.0
11.834,-0.045,-0.879,0.0
11.122,-0.044,-0.891,0.0
10.469,-0.042,-0.899,0.0
9.909,-0.041,-0.91,0.0
9.396,-0.04,-0.918,0.0
8.927,-0.039,-0.924,0.0
11.654,-0.054,-0.883,0.0
10.952,-0.052,-0.893,0.0
10.338,-0.051,-0.903,0.0
9.748,-0.049,-0.91,0.0
9.252,-0.048,-0.917,0.0
8.814,-0.046,-0.926,0.0
11.453,-0.063,-0.884,0.0
10.766,-0.061,-0.894,0.0
10.182,-0.059,-0.905,0.0
9.636,-0.057,-0.913,0.0
9.136,-0.055,-0.919,0.0
8.697,-0.053,-0.926,0.0
11.299,-0.073,-0.888,0.0
10.628,-0.07,-0.897,0.0
10.054,-0.067,-0.907,0.0
9.499,-0.065,-0.914,0.0
8.988,-0.063,-0.917,0.0
8.59,-0.061,-0.927,0.0
11.125,-0.082,-0.89,0.0
10.478,-0.079,-0.899,0.0
9.894,-0.076,-0.907,0.0
9.389,-0.073,-0.916,0.0
8.897,-0.07,-0.92,0.0
8.489,-0.068,-0.927,0.0
10.975,-0.091,-0.893,0.0
10.324,-0.087,-0.9,0.0
9.778,-0.084,-0.909,0.0
9.295,-0.081,-0.919,0.0
8.821,-0.078,-0.924,0.0
8.392,-0.076,-0.928,0.0
10.807,-0.101,-0.894,0.0
10.196,-0.096,-0.902,0.0
9.675,-0.093,-0.912,0.0
9.151,-0.089,-0.917,0.0
8.709,-0.086,-0.924,0.0
8.329,-0.083,-0.932,0.0
10.672,-0.11,-0.896,0.0
10.075,-0.105,-0.905,0.0
9.537,-0.101,-0.912,0.0
9.064,-0.097,-0.92,0.0
8.645,-0.094,-0.928,0.0
8.222,-0.091,-0.93,0.0
10.529,-0.119,-0.897,0.0
9.964,-0.114,-0.907,0.0
9.451,-0.11,-0.915,0.0
8.975,-0.106,-0.922,0.0
8.522,-0.101,-0.925,0.0
8.159,-0.098,-0.933,0.0
10.429,-0.129,-0.901,0.0
9.836,-0.123,-0.907,0.0
9.365,-0.118,-0.918,0.0
8.857,-0.113,-0.92,0.0
8.456,-0.11,-0.928,0.0
8.093,-0.106,-0.935,0.0
10.287,-0.138,-0.901,0.0
9.739,-0.132,-0.909,0.0
9.239,-0.127,-0.916,0.0
8.796,-0.122,-0.924,0.0
8.382,-0.118,-0.929,0.0
8.006,-0.114,-0.934,0.0
10.181,-0.147,-0.903,0.0
9.653,-0.141,-0.912,0.0
9.168,-0.135,-0.919,0.0
8.714,-0.13,-0.925,0.0
8.301,-0.125,-0.93,0.0
7.967,-0.122,-0.939,0.0
10.085,-0.157,-0.905,0.0
9.556,-0.15,-0.913,0.0
9.09,-0.144,-0.921,0.0
8.664,-0.139,-0.929,0.0
8.238,-0.134,-0.931,0.0
7.895,-0.129,-0.938,0.0
9.979,-0.166,-0.906,0.0
9.472,-0.159,-0.915,0.0
8.979,-0.152,-0.919,0.0
8.555,-0.147,-0.926,0.0
8.183,-0.142,-0.933,0.0
7.821,-0.137,-0.938,0.0
9.879,-0.175,-0.907,0.0
9.412,-0.169,-0.919,0.0
8.912,-0.161,-0.921,0.0
8.447,-0.154,-0.923,0.0
8.109,-0.15,-0.933,0.0
7.764,-0.145,-0.939,0.0
9.787,-0.185,-0.908,0.0
9.285,-0.177,-0.915,0.0
8.842,-0.17,-0.922,0.0
8.397,-0.163,-0.925,0.0
8.057,-0.158,-0.935,0.0
7.724,-0.153,-0.941,0.0
9.691,-0.194,-0.908,0.0
9.2,-0.186,-0.915,0.0
8.775,-0.179,-0.923,0.0
8.349,-0.172,-0.928,0.0
7.987,-0.166,-0.934,0.0
7.675,-0.161,-0.942,0.0
9.606,-0.204,-0.909,0.0
9.184,-0.196,-0.922,0.0
8.676,-0.187,-0.921,0.0
8.317,-0.181,-0.931,0.0
7.936,-0.174,-0.935,0.0
7.631,-0.169,-0.943,0.0
9.469,-0.212,-0.904,1.0
9.178,-0.207,-0.929,0.0
8.642,-0.196,-0.924,0.0
8.244,-0.189,-0.93,0.0
7.888,-0.182,-0.935,0.0
7.589,-0.177,-0.944,0.0
9.441,-0.222,-0.909,1.0
9.118,-0.216,-0.93,0.0
8.585,-0.205,-0.925,0.0
8.195,-0.198,-0.931,0.0
7.841,-0.191,-0.936,0.0
7.539,-0.185,-0.944,0.0
9.455,-0.234,-0.917,0.0
8.946,-0.223,-0.919,0.0
8.544,-0.215,-0.927,0.0
8.149,-0.206,-0.932,0.0
7.811,-0.199,-0.938,0.0
7.482,-0.192,-0.942,0.0
9.394,-0.244,-0.918,0.0
8.895,-0.233,-0.92,0.0
8.474,-0.223,-0.925,0.0
8.123,-0.216,-0.934,0.0
7.774,-0.208,-0.939,0.0
7.438,-0.2,-0.941,0.0
9.339,-0.253,-0.919,0.0
8.876,-0.243,-0.924,0.0
8.449,-0.233,-0.928,0.0
8.066,-0.224,-0.933,0.0
7.717,-0.216,-0.937,0.0
7.409,-0.209,-0.942,0.0
9.234,-0.262,-0.914,0.0
8.84,-0.253,-0.925,0.0
8.413,-0.242,-0.929,0.0
8.03,-0.233,-0.934,0.0
7.698,-0.225,-0.939,0.0
7.381,-0.217,-0.943,0.0
9.207,-0.272,-0.916,0.0
8.808,-0.262,-0.927,0.0
8.398,-0.252,-0.932,0.0
8.011,-0.242,-0.936,0.0
7.68,-0.234,-0.941,0.0
7.359,-0.225,-0.944,0.0
9.18,-0.283,-0.919,0.0
8.73,-0.271,-0.923,0.0
8.362,-0.261,-0.932,0.0
7.974,-0.251,-0.935,0.0
7.666,-0.243,-0.943,0.0
7.365,-0.235,-0.949,0.0
9.134,-0.292,-0.918,0.0
8.671,-0.28,-0.921,0.0
8.31,-0.27,-0.93,0.0
7.937,-0.259,-0.935,0.0
7.642,-0.251,-0.944,0.0
7.328,-0.243,-0.947,0.0
9.073,-0.302,-0.916,0.0
8.692,-0.291,-0.927,0.0
8.281,-0.279,-0.931,0.0
7.907,-0.268,-0.935,0.0
7.608,-0.26,-0.943,0.0
7.301,-0.251,-0.947,0.0
9.049,-0.312,-0.917,0.0
8.67,-0.301,-0.928,0.0
8.275,-0.289,-0.933,0.0
7.871,-0.276,-0.933,0.0
7.602,-0.269,-0.945,0.0
7.271,-0.259,-0.945,0.0
9.037,-0.323,-0.919,0.0
8.639,-0.31,-0.928,0.0
8.248,-0.298,-0.933,0.0
7.875,-0.286,-0.936,0.0
7.554,-0.276,-0.941,0.0
7.269,-0.268,-0.947,0.0
9.007,-0.333,-0.919,0.0
8.604,-0.32,-0.927,0.0
8.227,-0.307,-0.933,0.0
7.864,-0.295,-0.937,0.0
7.548,-0.285,-0.943,0.0
7.276,-0.277,-0.95,0.0
9.001,-0.343,-0.921,0.0
8.581,-0.329,-0.926,0.0
8.22,-0.317,-0.934,0.0
7.856,-0.305,-0.938,0.0
7.503,-0.293,-0.939,0.0
7.245,-0.284,-0.948,0.0
8.992,-0.354,-0.922,0.0
8.589,-0.34,-0.929,0.0
8.197,-0.326,-0.933,0.0
7.829,-0.313,-0.936,0.0
7.507,-0.302,-0.94,0.0
7.273,-0.294,-0.953,0.0
8.997,-0.365,-0.923,0.0
8.569,-0.35,-0.928,0.0
8.207,-0.337,-0.935,0.0
7.862,-0.324,-0.941,0.0
7.535,-0.312,-0.945,0.0
7.245,-0.302,-0.95,0.0
8.986,-0.375,-0.923,0.0
8.552,-0.359,-0.927,0.0
8.184,-0.345,-0.933,0.0
7.803,-0.331,-0.935,0.0
7.516,-0.321,-0.943,0.0
7.24,-0.311,-0.95,0.0
8.981,-0.386,-0.924,0.0
8.565,-0.37,-0.929,0.0
8.185,-0.355,-0.934,0.0
7.813,-0.341,-0.937,0.0
7.492,-0.329,-0.941,0.0
7.225,-0.319,-0.948,0.0
8.973,-0.396,-0.923,0.0
8.55,-0.379,-0.928,0.0
8.177,-0.365,-0.933,0.0
7.819,-0.351,-0.937,0.0
7.532,-0.339,-0.946,0.0
7.223,-0.327,-0.948,0.0
9.009,-0.409,-0.926,0.0
8.578,-0.391,-0.93,0.0
8.164,-0.374,-0.931,0.0
7.832,-0.361,-0.939,0.0
7.546,-0.349,-0.947,0.0
7.22,-0.336,-0.947,0.0
9.005,-0.419,-0.926,0.0
8.556,-0.4,-0.927,0.0
8.194,-0.385,-0.934,0.0
7.854,-0.371,-0.941,0.0
7.539,-0.357,-0.945,0.0
7.21,-0.344,-0.945,0.0
8.99,-0.429,-0.923,0.0
8.578,-0.411,-0.929,0.0
8.178,-0.394,-0.931,0.0
7.796,-0.377,-0.933,0.0
7.539,-0.366,-0.944,0.0
7.262,-0.354,-0.951,0.0
9.011,-0.44,-0.924,0.0
8.579,-0.421,-0.928,0.0
8.214,-0.405,-0.934,0.0
7.825,-0.387,-0.935,0.0
7.575,-0.377,-0.947,0.0
7.271,-0.363,-0.95,0.0
9.022,-0.451,-0.923,0.0
8.61,-0.432,-0.929,0.0
8.21,-0.414,-0.932,0.0
7.871,-0.398,-0.938,0.0
7.589,-0.386,-0.947,0.0
7.246,-0.37,-0.945,0.0
9.899,-0.657,-0.917,0.0
9.408,-0.626,-0.922,0.0
8.966,-0.598,-0.928,0.0
8.553,-0.572,-0.933,0.0
8.171,-0.548,-0.936,0.0
7.857,-0.528,-0.943,0.0
10.004,-0.671,-0.917,0.0
9.485,-0.638,-0.921,0.0
9.06,-0.611,-0.929,0.0
8.621,-0.582,-0.932,0.0
8.222,-0.557,-0.934,0.0
7.893,-0.536,-0.94,0.0
10.06,-0.682,-0.913,0.0
9.54,-0.648,-0.917,0.0
9.124,-0.621,-0.927,0.0
8.708,-0.594,-0.933,0.0
8.323,-0.569,-0.937,0.0
7.94,-0.545,-0.937,0.0
10.155,-0.695,-0.911,0.0
9.675,-0.664,-0.921,0.0
9.202,-0.633,-0.926,0.0
8.801,-0.606,-0.934,0.0
8.437,-0.583,-0.941,0.0
8.029,-0.556,-0.94,0.0
10.242,-0.707,-0.909,0.0
9.787,-0.677,-0.921,0.0
9.302,-0.645,-0.926,0.0
8.858,-0.616,-0.931,0.0
8.478,-0.591,-0.937,0.0
8.102,-0.566,-0.939,0.0
10.379,-0.723,-0.91,0.0
9.863,-0.689,-0.918,0.0
9.355,-0.655,-0.921,0.0
8.963,-0.629,-0.932,0.0
8.557,-0.601,-0.936,0.0
8.171,-0.576,-0.939,0.0
10.51,-0.738,-0.91,0.0
9.904,-0.697,-0.911,0.0
9.464,-0.668,-0.922,0.0
9.054,-0.64,-0.931,0.0
8.646,-0.612,-0.936,0.0
8.196,-0.582,-0.932,0.0
10.621,-0.752,-0.908,0.0
10.057,-0.713,-0.914,0.0
9.566,-0.68,-0.921,0.0
9.123,-0.65,-0.928,0.0
8.739,-0.624,-0.936,0.0
8.285,-0.592,-0.933,0.0
10.737,-0.766,-0.905,0.0
10.249,-0.732,-0.919,0.0
9.664,-0.692,-0.919,0.0
9.213,-0.661,-0.927,0.0
8.81,-0.633,-0.934,0.0
8.352,-0.601,-0.93,0.0
10.818,-0.777,-0.899,0.0
10.293,-0.74,-0.911,0.0
9.818,-0.707,-0.922,0.0
9.32,-0.672,-0.926,0.0
8.895,-0.643,-0.932,0.0
8.505,-0.616,-0.937,0.0
11.028,-0.796,-0.904,0.0
10.442,-0.755,-0.912,0.0
9.876,-0.716,-0.915,0.0
9.409,-0.683,-0.923,0.0
9.039,-0.657,-0.936,0.0
8.599,-0.626,-0.937,0.0
11.144,-0.809,-0.899,0.0
10.548,-0.767,-0.908,0.0
10.041,-0.731,-0.918,0.0
9.519,-0.694,-0.922,0.0
9.108,-0.665,-0.931,0.0
8.684,-0.636,-0.935,0.0
11.25,-0.821,-0.894,0.0
10.652,-0.779,-0.903,0.0
10.118,-0.741,-0.912,0.0
9.639,-0.706,-0.921,0.0
9.202,-0.675,-0.929,0.0
8.782,-0.646,-0.934,0.0
11.455,-0.84,-0.895,0.0
10.889,-0.799,-0.909,0.0
10.216,-0.751,-0.907,0.0
9.776,-0.719,-0.922,0.0
9.313,-0.686,-0.928,0.0
8.901,-0.657,-0.935,0.0
11.631,-0.856,-0.894,0.0
11.074,-0.816,-0.91,0.0
10.414,-0.768,-0.911,0.0
9.914,-0.732,-0.921,0.0
9.384,-0.694,-0.922,0.0
9.028,-0.669,-0.936,0.0
11.776,-0.87,-0.889,0.0
11.104,-0.821,-0.897,0.0
10.544,-0.78,-0.908,0.0
10.062,-0.745,-0.922,0.0
9.535,-0.707,-0.924,0.0
9.114,-0.677,-0.932,0.0
11.918,-0.883,-0.884,0.0
11.295,-0.837,-0.897,0.0
10.747,-0.797,-0.911,0.0
10.082,-0.749,-0.91,0.0
9.681,-0.72,-0.925,0.0
9.213,-0.686,-0.93,0.0
12.157,-0.902,-0.885,0.0
11.454,-0.851,-0.894,0.0
10.956,-0.815,-0.914,0.0
10.234,-0.762,-0.909,0.0
9.79,-0.729,-0.922,0.0
9.365,-0.698,-0.932,0.0
12.399,-0.922,-0.885,0.0
11.558,-0.86,-0.886,0.0
11.038,-0.822,-0.905,0.0
10.445,-0.778,-0.913,0.0
9.96,-0.743,-0.924,0.0
9.451,-0.705,-0.927,0.0
12.544,-0.934,-0.878,0.0
11.836,-0.882,-0.891,0.0
11.124,-0.829,-0.896,0.0
10.626,-0.792,-0.914,0.0
10.05,-0.75,-0.918,0.0
9.529,-0.712,-0.921,0.0
12.751,-0.95,-0.874,0.0
11.96,-0.891,-0.883,0.0
11.347,-0.846,-0.898,0.0
10.781,-0.804,-0.911,0.0
10.12,-0.755,-0.909,0.0
9.694,-0.724,-0.922,0.0
12.86,-0.958,-0.863,0.0
12.253,-0.913,-0.887,0.0
11.545,-0.86,-0.897,0.0
11.026,-0.822,-0.916,0.0
10.387,-0.775,-0.918,0.0
9.823,-0.733,-0.92,0.0
13.083,-0.974,-0.859,0.0
12.405,-0.924,-0.88,0.0
11.721,-0.873,-0.893,0.0
11.098,-0.827,-0.905,0.0
10.541,-0.786,-0.916,0.0
9.98,-0.744,-0.92,0.0
13.587,-1.01,-0.871,0.0
12.6,-0.937,-0.875,0.0
11.91,-0.886,-0.89,0.0
11.194,-0.833,-0.896,0.0
10.725,-0.798,-0.916,0.0
10.165,-0.757,-0.922,0.0
13.836,-1.027,-0.867,0.0
12.79,-0.95,-0.869,0.0
12.098,-0.898,-0.885,0.0
11.389,-0.846,-0.895,0.0
10.854,-0.806,-0.91,0.0
10.314,-0.766,-0.92,0.0
14.187,-1.051,-0.867,0.0
13.052,-0.967,-0.867,0.0
12.339,-0.914,-0.884,0.0
11.573,-0.857,-0.892,0.0
11.051,-0.819,-0.91,0.0
10.423,-0.772,-0.913,0.0
14.483,-1.07,-0.863,0.0
13.368,-0.987,-0.867,0.0
12.542,-0.926,-0.88,0.0
11.863,-0.876,-0.896,0.0
11.128,-0.822,-0.899,0.0
10.638,-0.785,-0.916,0.0
14.769,-1.087,-0.858,0.0
13.762,-1.013,-0.872,0.0
12.765,-0.939,-0.876,0.0
12.009,-0.883,-0.888,0.0
11.377,-0.837,-0.902,0.0
10.811,-0.795,-0.914,0.0
15.059,-1.104,-0.852,0.0
14.066,-1.031,-0.869,0.0
12.896,-0.945,-0.865,0.0
12.245,-0.897,-0.887,0.0
11.54,-0.845,-0.897,0.0
11.011,-0.806,-0.914,0.0
15.44,-1.127,-0.849,0.0
14.322,-1.045,-0.863,0.0
13.189,-0.962,-0.864,0.0
12.401,-0.904,-0.879,0.0
11.721,-0.854,-0.892,0.0
11.1,-0.808,-0.904,0.0
15.841,-1.151,-0.847,0.0
14.608,-1.06,-0.857,0.0
13.623,-0.988,-0.871,0.0
12.676,-0.919,-0.879,0.0
11.99,-0.868,-0.894,0.0
11.261,-0.815,-0.899,0.0
16.258,-1.174,-0.843,0.0
14.982,-1.081,-0.856,0.0
13.891,-1.001,-0.867,0.0
12.856,-0.926,-0.871,0.0
12.18,-0.877,-0.889,0.0
11.526,-0.829,-0.902,0.0
16.651,-1.195,-0.838,0.0
15.265,-1.094,-0.848,0.0
14.265,-1.022,-0.867,0.0
13.106,-0.938,-0.867,0.0
12.385,-0.885,-0.885,0.0
11.729,-0.838,-0.899,0.0
17.059,-1.215,-0.832,0.0
15.648,-1.114,-0.845,0.0
14.507,-1.031,-0.859,0.0
13.511,-0.959,-0.872,0.0
12.603,-0.894,-0.88,0.0
11.963,-0.848,-0.898,0.0
17.382,-1.229,-0.82,0.0
16.205,-1.144,-0.849,0.0
14.849,-1.047,-0.856,0.0
13.732,-0.967,-0.865,0.0
12.777,-0.899,-0.872,0.0
12.162,-0.855,-0.894,0.0
17.964,-1.259,-0.819,0.0
16.563,-1.16,-0.842,0.0
15.208,-1.063,-0.852,0.0
14.15,-0.988,-0.869,0.0
13.059,-0.911,-0.87,0.0
12.351,-0.86,-0.888,0.0
18.514,-1.286,-0.815,0.0
16.942,-1.175,-0.834,0.0
15.622,-1.082,-0.851,0.0
14.451,-0.999,-0.864,0.0
13.293,-0.918,-0.865,0.0
12.464,-0.86,-0.876,0.0
19.066,-1.311,-0.809,0.0
17.291,-1.187,-0.824,0.0
16.005,-1.097,-0.846,0.0
14.798,-1.013,-0.861,0.0
13.751,-0.94,-0.873,0.0
12.662,-0.864,-0.87,0.0
19.386,-1.319,-0.791,0.0
17.896,-1.216,-0.824,0.0
16.395,-1.112,-0.841,0.0
15.094,-1.022,-0.855,0.0
14.082,-0.952,-0.871,0.0
13.023,-0.879,-0.874,0.0
20.02,-1.347,-0.786,0.0
18.28,-1.228,-0.813,0.0
16.861,-1.13,-0.838,0.0
15.471,-1.035,-0.851,0.0
14.382,-0.961,-0.867,0.0
13.275,-0.885,-0.87,0.0
20.559,-1.367,-0.774,0.0
18.818,-1.249,-0.807,0.0
17.314,-1.146,-0.833,0.0
15.839,-1.047,-0.846,0.0
14.716,-0.97,-0.864,0.0
13.667,-0.899,-0.874,0.0
21.132,-1.387,-0.763,0.0
19.278,-1.263,-0.796,0.0
17.689,-1.156,-0.823,0.0
16.348,-1.066,-0.848,0.0
15.055,-0.98,-0.86,0.0
13.964,-0.907,-0.871,0.0
21.967,-1.423,-0.759,0.0
19.936,-1.288,-0.793,0.0
18.249,-1.176,-0.821,0.0
16.713,-1.075,-0.841,0.0
15.382,-0.987,-0.855,0.0
14.296,-0.915,-0.869,0.0
22.506,-1.437,-0.742,0.0
20.314,-1.294,-0.776,0.0
18.738,-1.19,-0.814,0.0
17.189,-1.089,-0.838,0.0
15.741,-0.995,-0.85,0.0
14.637,-0.923,-0.867,0.0
23.008,-1.447,-0.723,0.0
20.895,-1.31,-0.766,0.0
19.161,-1.198,-0.802,0.0
17.544,-1.094,-0.828,0.0
16.254,-1.011,-0.853,0.0
14.937,-0.927,-0.862,0.0
23.938,-1.481,-0.715,0.0
21.455,-1.323,-0.753,0.0
19.726,-1.213,-0.795,0.0
18.027,-1.105,-0.823,0.0
16.605,-1.015,-0.845,0.0
15.276,-0.931,-0.858,0.0
25.06,-1.524,-0.709,0.0
22.384,-1.357,-0.751,0.0
20.166,-1.219,-0.782,0.0
18.46,-1.112,-0.814,0.0
17.038,-1.023,-0.841,0.0
15.637,-0.936,-0.854,0.0
25.757,-1.538,-0.69,0.0
23.0,-1.369,-0.736,0.0
20.609,-1.223,-0.768,0.0
19.041,-1.126,-0.811,0.0
17.41,-1.026,-0.833,0.0
16.057,-0.943,-0.852,0.0
25.849,-1.514,-0.653,0.0
23.835,-1.392,-0.727,0.0
21.342,-1.242,-0.763,0.0
19.577,-1.135,-0.804,0.0
17.808,-1.029,-0.825,0.0
16.409,-0.945,-0.846,0.0
27.173,-1.56,-0.646,0.0
24.771,-1.417,-0.718,0.0
22.178,-1.264,-0.76,0.0
19.947,-1.133,-0.79,0.0
18.265,-1.034,-0.819,0.0
16.521,-0.931,-0.827,0.0
28.953,-1.628,-0.645,0.0
24.926,-1.396,-0.686,0.0
22.685,-1.265,-0.743,0.0
20.391,-1.133,-0.777,0.0
18.772,-1.039,-0.814,0.0
17.26,-0.952,-0.839,0.0
29.757,-1.636,-0.619,0.0
26.609,-1.457,-0.693,0.0
23.076,-1.258,-0.722,0.0
20.821,-1.131,-0.763,0.0
19.224,-1.04,-0.805,0.0
17.595,-0.948,-0.829,0.0
30.952,-1.662,-0.599,0.0
0.0,0.0,0.0,0.0
24.073,-1.281,-0.718,0.0
21.555,-1.142,-0.758,0.0
19.658,-1.037,-0.795,0.0
17.922,-0.942,-0.819,0.0
32.085,-1.681,-0.575,0.0
27.757,-1.447,-0.643,0.0
24.401,-1.266,-0.693,0.0
22.367,-1.156,-0.755,0.0
20.209,-1.039,-0.788,0.0
18.413,-0.943,-0.815,0.0
0.0,0.0,0.0,0.0
29.04,-1.475,-0.631,0.0
25.775,-1.303,-0.696,0.0
22.91,-1.153,-0.741,0.0
20.654,-1.034,-0.777,0.0
18.866,-0.94,-0.808,1.0
34.066,-1.691,-0.514,0.0
30.418,-1.502,-0.618,0.0
26.768,-1.315,-0.685,0.0
23.551,-1.151,-0.728,0.0
21.002,-1.022,-0.76,0.0
19.369,-0.937,-0.803,0.0
36.877,-1.778,-0.504,0.0
31.483,-1.509,-0.596,0.0
27.054,-1.29,-0.654,0.0
24.414,-1.158,-0.721,0.0
21.729,-1.025,-0.756,0.0
19.875,-0.933,-0.797,0.0
0.0,0.0,0.0,0.0
32.346,-1.504,-0.568,0.0
29.165,-1.348,-0.665,0.0
24.924,-1.146,-0.702,0.0
22.511,-1.029,-0.753,0.0
20.349,-0.925,-0.788,0.0
0.0,0.0,0.0,0.0
0.0,0.0,0.0,0.0
29.761,-1.331,-0.639,0.0
25.789,-1.146,-0.692,0.0
22.977,-1.015,-0.738,0.0
20.724,-0.91,-0.775,0.0
0.0,0.0,0.0,0.0
0.0,0.0,0.0,0.0
30.071,-1.298,-0.606,0.0
26.703,-1.146,-0.681,0.0
23.429,-0.999,-0.722,0.0
21.077,-0.893,-0.76,0.0
44.849,-1.891,-0.373,0.0
0.0,0.0,0.0,0.0
0.0,0.0,0.0,0.0
27.594,-1.141,-0.669,0.0
24.475,-1.005,-0.723,0.0
21.781,-0.889,-0.758,0.0
0.0,0.0,0.0,0.0
39.65,-1.599,-0.489,0.0
32.05,-1.284,-0.564,0.0
28.514,-1.134,-0.655,0.0
24.917,-0.984,-0.704,0.0
22.247,-0.872,-0.746,0.0
0.0,0.0,0.0,0.0
0.0,0.0,0.0,0.0
33.287,-1.279,-0.545,0.0
29.595,-1.128,-0.643,0.0
25.85,-0.978,-0.698,0.0
22.734,-0.854,-0.735,0.0
0.0,0.0,0.0,0.0
0.0,0.0,0.0,0.0
0.0,0.0,0.0,0.0
30.189,-1.101,-0.619,0.0
26.6,-0.962,-0.686,0.0
23.646,-0.848,-0.735,0.0
0.0,0.0,0.0,0.0
0.0,0.0,0.0,0.0
0.0,0.0,0.0,0.0
31.178,-1.084,-0.602,0.0
27.616,-0.952,-0.68,1.0
24.313,-0.831,-0.727,0.0
0.0,0.0,0.0,0.0
0.0,0.0,0.0,0.0
38.322,-1.277,-0.488,0.0
31.617,-1.044,-0.573,0.0
28.238,-0.924,-0.662,0.0
24.767,-0.803,-0.712,0.0
0.0,0.0,0.0,0.0
0.0,0.0,0.0,0.0
0.0,0.0,0.0,0.0
31.678,-0.991,-0.538,0.0
28.457,-0.881,-0.634,0.0
25.463,-0.781,-0.703,0.0
0.0,0.0,0.0,0.0
0.0,0.0,0.0,0.0
0.0,0.0,0.0,0.0
0.0,0.0,0.0,0.0
29.564,-0.863,-0.626,0.0
26.129,-0.754,-0.692,0.0
0.0,0.0,0.0,0.0
0.0,0.0,0.0,0.0
0.0,0.0,0.0,0.0
35.229,-0.976,-0.521,0.0
30.239,-0.828,-0.608,0.0
26.73,-0.724,-0.68,0.0
0.0,0.0,0.0,0.0
0.0,0.0,0.0,0.0
0.0,0.0,0.0,0.0
37.654,-0.975,-0.517,0.0
31.632,-0.809,-0.603,0.0
27.741,-0.701,-0.676,0.0
0.0,0.0,0.0,0.0
0.0,0.0,0.0,0.0
0.0,0.0,0.0,0.0
0.0,0.0,0.0,0.0
31.846,-0.756,-0.575,0.0
28.083,-0.658,-0.656,0.0
0.0,0.0,0.0,0.0
0.0,0.0,0.0,0.0
0.0,0.0,0.0,0.0
0.0,0.0,0.0,0.0
33.527,-0.733,-0.572,0.0
21.746,-0.468,-0.487,5.0
0.0,0.0,0.0,0.0
0.0,0.0,0.0,0.0
0.0,0.0,0.0,0.0
0.0,0.0,0.0,0.0
0.0,0.0,0.0,0.0
0.0,0.0,0.0,0.0
0.0,0.0,0.0,0.0
0.0,0.0,0.0,0.0
0.0,0.0,0.0,0.0
0.0,0.0,0.0,0.0
35.061,-0.634,-0.532,0.0
30.038,-0.533,-0.616,0.0
130.518,-2.28,0.939,27.0
0.0,0.0,0.0,0.0
0.0,0.0,0.0,0.0
42.73,-0.704,-0.382,0.0
0.0,0.0,0.0,0.0
30.671,-0.485,-0.602,0.0
19.759,-0.306,0.159,12.0
19.741,-0.299,0.054,2.0
0.0,0.0,0.0,0.0
0.0,0.0,0.0,0.0
37.327,-0.529,-0.5,0.0
31.773,-0.439,-0.596,0.0
19.76,-0.268,0.176,31.0
19.749,-0.261,0.07,3.0
0.0,0.0,0.0,0.0
0.0,0.0,0.0,0.0
0.0,0.0,0.0,0.0
31.753,-0.377,-0.57,0.0
19.755,-0.229,0.192,7.0
0.0,0.0,0.0,0.0
0.0,0.0,0.0,0.0
0.0,0.0,0.0,0.0
19.803,-0.202,-0.233,1.0
19.777,-0.195,-0.339,5.0
164.134,-1.575,1.73,6.0
160.665,-1.486,0.832,4.0
0.0,0.0,0.0,0.0
19.754,-0.169,-0.111,10.0
19.741,-0.162,-0.217,15.0
19.739,-0.156,-0.323,17.0
169.771,-1.289,1.918,3.0
160.681,-1.165,0.951,11.0
19.758,-0.136,0.01,8.0
19.712,-0.129,-0.097,15.0
19.722,-0.122,-0.203,16.0
19.742,-0.116,-0.309,16.0
19.704,-0.109,0.236,10.0
19.711,-0.102,0.13,14.0
19.708,-0.095,0.024,12.0
19.709,-0.089,-0.083,10.0
19.725,-0.082,-0.189,16.0
19.763,-0.075,-0.296,15.0
19.65,-0.068,0.249,12.0
19.694,-0.062,0.144,18.0
19.696,-0.055,0.038,15.0
19.717,-0.048,-0.07,14.0
19.741,-0.041,-0.176,14.0
19.787,-0.035,-0.283,0.0
19.639,-0.028,0.262,13.0
19.706,-0.021,0.156,5.0
19.721,-0.014,0.05,8.0
19.743,-0.007,-0.057,9.0
19.745,-0.001,-0.164,0.0
19.794,0.005,-0.271,0.0
19.625,0.012,0.274,15.0
19.725,0.019,0.169,15.0
19.739,0.025,0.062,14.0
19.72,0.032,-0.046,66.0
19.753,0.039,-0.152,18.0
19.768,0.046,-0.26,59.0
19.623,0.052,0.285,13.0
19.648,0.059,0.179,13.0
19.718,0.066,0.073,23.0
19.751,0.073,-0.035,24.0
19.754,0.079,-0.142,7.0
19.766,0.086,-0.249,0.0
19.615,0.093,0.295,17.0
19.666,0.1,0.19,15.0
19.649,0.106,0.083,13.0
19.638,0.113,-0.024,13.0
19.678,0.12,-0.131,9.0
19.69,0.127,-0.238,0.0
19.616,0.134,0.305,12.0
19.662,0.141,0.199,16.0
19.637,0.147,0.092,12.0
19.624,0.154,-0.015,18.0
19.638,0.161,-0.122,15.0
19.653,0.168,-0.228,15.0
19.667,0.175,0.315,10.0
19.681,0.182,0.208,11.0
19.676,0.189,0.102,10.0
19.649,0.195,-0.006,14.0
19.629,0.202,-0.113,17.0
19.649,0.208,-0.22,17.0
19.729,0.217,0.325,12.0
19.768,0.224,0.218,23.0
19.765,0.231,0.11,18.0
19.685,0.237,0.001,3.0
19.656,0.243,-0.105,15.0
19.661,0.25,-0.212,16.0
19.71,0.258,0.332,15.0
19.744,0.265,0.225,16.0
19.802,0.273,0.118,2.0
0.0,0.0,0.0,0.0
19.719,0.285,-0.098,0.0
19.686,0.291,-0.205,2.0
19.733,0.3,0.339,2.0
163.229,2.544,1.921,22.0
55.208,0.879,0.349,3.0
55.203,0.897,0.042,31.0
45.147,0.749,-0.211,1.0
35.885,0.607,-0.363,0.0
55.179,0.956,0.967,78.0
55.17,0.975,0.666,71.0
55.162,0.994,0.365,66.0
55.168,1.013,0.058,38.0
47.635,0.891,-0.209,1.0
36.565,0.696,-0.36,1.0
179.453,3.496,3.198,17.0
162.857,3.226,2.012,26.0
113.5,2.287,0.782,17.0
0.0,0.0,0.0,0.0
22.461,0.467,-0.093,0.0
0.0,0.0,0.0,0.0
179.238,3.871,3.237,16.0
128.662,2.823,1.62,25.0
70.875,1.578,0.504,5.0
0.0,0.0,0.0,0.0
0.0,0.0,0.0,0.0
36.785,0.856,-0.345,2.0
98.888,2.346,1.806,47.0
70.911,1.706,0.906,13.0
70.722,1.725,0.517,28.0
0.0,0.0,0.0,0.0
0.0,0.0,0.0,0.0
36.974,0.939,-0.341,2.0
0.0,0.0,0.0,0.0
0.0,0.0,0.0,0.0
0.0,0.0,0.0,0.0
43.706,1.172,0.082,62.0
40.136,1.09,-0.144,154.0
37.367,1.027,-0.339,2.0
0.0,0.0,0.0,0.0
0.0,0.0,0.0,0.0
40.131,1.148,0.304,140.0
40.124,1.161,0.079,139.0
40.122,1.175,-0.14,150.0
37.597,1.113,-0.338,2.0
40.125,1.206,0.748,150.0
40.115,1.219,0.527,150.0
40.125,1.233,0.307,115.0
40.122,1.246,0.082,150.0
40.126,1.259,-0.138,150.0
39.991,1.268,-0.357,1.0
40.129,1.29,0.75,150.0
40.136,1.304,0.529,150.0
40.143,1.317,0.308,111.0
40.146,1.33,0.083,121.0
40.121,1.343,-0.137,150.0
40.034,1.353,-0.357,2.0
162.251,5.562,3.037,4.0
161.903,5.6,2.137,12.0
71.173,2.485,0.547,10.0
40.095,1.413,0.083,4.0
40.126,1.426,-0.137,150.0
37.634,1.35,-0.336,1.0
43.995,1.599,0.822,77.0
43.53,1.596,0.573,83.0
43.552,1.612,0.333,150.0
41.124,1.535,0.083,3.0
40.547,1.526,-0.141,12.0
37.416,1.42,-0.336,1.0
40.821,1.569,0.76,124.0
40.395,1.565,0.529,150.0
40.387,1.577,0.306,150.0
40.345,1.588,0.079,150.0
40.334,1.601,-0.143,150.0
37.31,1.493,-0.339,1.0
100.509,4.071,1.863,16.0
100.541,4.104,1.307,16.0
63.903,2.629,0.477,2.0
45.168,1.872,0.083,49.0
40.327,1.684,-0.148,9.0
23.665,0.995,-0.218,34.0
23.625,1.005,0.434,44.0
23.628,1.013,0.303,41.0
23.62,1.02,0.172,43.0
23.609,1.027,0.039,43.0
23.613,1.034,-0.09,53.0
23.607,1.041,-0.221,66.0
23.593,1.052,0.43,77.0
23.593,1.06,0.299,75.0
23.59,1.066,0.168,66.0
23.598,1.074,0.035,65.0
23.598,1.082,-0.095,62.0
23.609,1.089,-0.226,60.0
23.596,1.1,0.425,53.0
23.606,1.108,0.294,40.0
23.624,1.116,0.163,37.0
23.631,1.124,0.029,38.0
23.643,1.132,-0.101,37.0
23.638,1.139,-0.232,21.0
23.63,1.15,0.42,1.0
23.652,1.158,0.288,0.0
63.183,3.113,0.421,5.0
45.168,2.239,0.045,52.0
40.316,2.011,-0.183,45.0
0.0,0.0,0.0,0.0
45.228,2.292,0.791,7.0
99.76,5.085,1.19,14.0
62.764,3.218,0.399,6.0
45.175,2.33,0.031,44.0
40.323,2.091,-0.196,42.0
34.425,1.796,-0.358,8.0
45.208,2.381,0.776,5.0
45.218,2.395,0.524,77.0
45.219,2.408,0.272,57.0
45.17,2.419,0.016,45.0
40.322,2.172,-0.209,45.0
34.086,1.846,-0.367,9.0
0.0,0.0,0.0,0.0
120.059,6.596,1.35,11.0
57.927,3.198,0.328,0.0
45.164,2.507,0.0,38.0
40.322,2.25,-0.224,40.0
33.473,1.878,-0.373,6.0
119.825,6.784,1.969,2.0
99.763,5.677,1.082,9.0
0.0,0.0,0.0,0.0
45.17,2.597,-0.018,27.0
40.305,2.328,-0.241,35.0
32.884,1.909,-0.38,10.0
45.207,2.648,0.723,47.0
45.224,2.662,0.471,150.0
45.23,2.674,0.218,128.0
45.185,2.685,-0.038,9.0
40.188,2.4,-0.259,23.0
31.861,1.911,-0.383,5.0
99.836,6.041,1.551,6.0
99.713,6.062,0.992,9.0
45.166,2.758,0.197,16.0
40.325,2.473,-0.053,38.0
39.857,2.456,-0.276,15.0
31.243,1.934,-0.391,9.0
99.713,6.223,1.5,8.0
99.699,6.248,0.942,6.0
45.174,2.843,0.174,43.0
40.325,2.549,-0.074,39.0
0.0,0.0,0.0,0.0
30.87,1.968,-0.402,9.0
45.207,2.906,0.656,4.0
45.22,2.918,0.403,28.0
45.169,2.927,0.15,54.0
40.328,2.624,-0.095,40.0
0.0,0.0,0.0,0.0
30.317,1.989,-0.412,8.0
44.826,2.965,0.626,142.0
44.672,2.966,0.373,138.0
0.0,0.0,0.0,0.0
40.321,2.699,-0.119,44.0
36.105,2.426,-0.309,6.0
29.402,1.984,-0.416,8.0
41.524,2.822,0.555,12.0
41.975,2.864,0.325,5.0
42.238,2.893,0.09,12.0
40.324,2.773,-0.143,44.0
35.163,2.427,-0.323,7.0
28.956,2.006,-0.428,8.0
41.847,2.921,0.533,142.0
41.998,2.942,0.299,109.0
41.188,2.895,0.062,6.0
40.32,2.845,-0.169,50.0
34.602,2.45,-0.34,8.0
28.125,1.999,-0.434,7.0
40.976,2.932,0.495,126.0
40.701,2.923,0.263,150.0
40.317,2.905,0.034,46.0
40.312,2.915,-0.196,39.0
33.125,2.403,-0.348,10.0
27.601,2.01,-0.445,7.0
45.484,3.335,0.518,58.0
45.5,3.346,0.263,139.0
40.313,2.975,0.006,44.0
40.249,2.98,-0.224,32.0
32.103,2.385,-0.359,9.0
27.027,2.015,-0.455,7.0
43.704,3.279,0.467,135.0
43.719,3.29,0.221,150.0
41.91,3.164,-0.023,130.0
41.736,3.162,-0.263,2.0
31.616,2.402,-0.377,9.0
26.274,2.003,-0.461,6.0
0.0,0.0,0.0,0.0
0.0,0.0,0.0,0.0
0.0,0.0,0.0,0.0
37.715,2.919,-0.266,4.0
30.722,2.386,-0.39,9.0
25.705,2.002,-0.471,6.0
