X,Y,Z,Reflectivity
104.523,-7.801,8.663,9.0
104.711,-7.783,8.078,21.0
109.603,-8.115,7.838,5.0
113.736,-8.388,7.494,9.0
107.126,-7.901,10.072,17.0
109.99,-8.079,9.719,10.0
109.799,-8.032,9.081,17.0
107.608,-7.839,8.281,16.0
104.903,-7.612,7.483,25.0
110.52,-7.988,7.261,19.0
109.285,-7.896,10.253,22.0
106.816,-7.686,9.417,16.0
106.406,-7.625,8.778,14.0
105.199,-7.508,8.073,10.0
110.385,-7.847,7.847,14.0
107.835,-7.634,7.059,13.0
0.0,0.0,0.0,0.0
106.797,-7.526,9.387,23.0
106.487,-7.472,8.757,26.0
105.036,-7.339,8.032,30.0
108.836,-7.573,7.708,11.0
107.59,-7.455,7.012,21.0
108.035,-7.482,10.078,18.0
107.228,-7.394,9.393,22.0
106.587,-7.317,8.732,23.0
107.76,-7.366,8.207,7.0
107.024,-7.285,7.546,12.0
107.916,-7.315,6.999,24.0
107.766,-7.3,10.016,5.0
106.812,-7.205,9.321,17.0
106.847,-7.175,8.717,25.0
107.657,-7.197,8.161,18.0
107.062,-7.126,7.51,22.0
107.931,-7.153,6.96,23.0
106.288,-7.038,9.839,10.0
107.324,-7.074,9.324,12.0
107.071,-7.025,8.694,24.0
111.771,-7.3,8.429,12.0
107.04,-6.961,7.465,27.0
107.597,-6.966,6.894,32.0
106.405,-6.883,9.805,19.0
107.379,-6.913,9.283,18.0
107.386,-6.882,8.672,18.0
108.671,-6.933,8.147,16.0
106.965,-6.793,7.412,25.0
107.641,-6.806,6.848,23.0
111.196,-7.022,10.196,21.0
107.108,-6.732,9.209,19.0
107.494,-6.725,8.629,23.0
108.807,-6.775,8.104,17.0
107.288,-6.649,7.381,26.0
108.151,-6.671,6.828,27.0
108.86,-6.705,9.925,9.0
107.268,-6.576,9.167,11.0
107.632,-6.567,8.585,23.0
108.942,-6.615,8.057,14.0
107.374,-6.489,7.33,23.0
108.168,-6.507,6.77,21.0
109.137,-6.554,9.89,19.0
0.0,0.0,0.0,0.0
110.212,-6.554,8.727,9.0
108.653,-6.43,7.973,21.0
108.163,-6.371,7.322,24.0
108.258,-6.345,6.712,25.0
107.249,-6.275,9.654,21.0
0.0,0.0,0.0,0.0
108.619,-6.292,8.536,18.0
108.796,-6.271,7.917,27.0
108.473,-6.221,7.276,12.0
108.108,-6.171,6.636,31.0
108.614,-6.187,9.708,23.0
108.55,-6.151,9.08,25.0
108.682,-6.128,8.47,20.0
109.306,-6.133,7.883,22.0
111.23,-6.21,7.388,11.0
107.912,-5.995,6.552,22.0
108.847,-6.034,9.655,19.0
108.393,-5.977,8.993,24.0
109.154,-5.987,8.432,11.0
109.259,-5.962,7.804,11.0
108.192,-5.873,7.109,20.0
107.38,-5.799,6.443,19.0
108.813,-5.863,9.573,20.0
109.016,-5.841,8.965,11.0
112.878,-6.017,8.635,20.0
112.875,-5.984,7.977,13.0
108.255,-5.71,7.032,24.0
108.506,-5.694,6.429,22.0
108.941,-5.702,9.5,17.0
111.552,-5.807,9.088,11.0
113.087,-5.854,8.563,19.0
112.777,-5.808,7.882,17.0
108.79,-5.573,6.982,17.0
108.431,-5.526,6.339,28.0
111.568,-5.67,9.641,26.0
111.659,-5.644,9.006,17.0
113.156,-5.687,8.477,18.0
115.285,-5.762,7.963,8.0
112.668,-5.601,7.138,8.0
108.504,-5.364,6.253,20.0
111.483,-5.494,9.537,24.0
113.539,-5.564,9.061,20.0
112.485,-5.482,8.33,8.0
114.837,-5.563,7.833,25.0
112.797,-5.435,7.048,30.0
112.527,-5.392,6.387,17.0
116.283,-5.555,9.845,17.0
113.76,-5.402,8.977,23.0
115.894,-5.471,8.478,8.0
115.596,-5.425,7.78,21.0
113.144,-5.279,6.965,18.0
112.724,-5.23,6.294,16.0
116.66,-5.393,9.767,23.0
115.224,-5.296,8.982,23.0
115.132,-5.261,8.314,24.0
116.032,-5.27,7.699,20.0
115.359,-5.209,6.992,12.0
112.862,-5.066,6.193,10.0
116.697,-5.217,9.655,20.0
114.751,-5.1,8.833,23.0
114.919,-5.077,8.184,23.0
116.529,-5.118,7.617,17.0
114.815,-5.012,6.845,27.0
114.881,-4.985,6.189,20.0
115.602,-4.996,9.447,10.0
115.15,-4.945,8.745,24.0
114.972,-4.906,8.069,18.0
114.673,-4.864,7.376,24.0
114.479,-4.826,6.705,23.0
114.452,-4.796,6.047,24.0
114.968,-4.797,9.274,21.0
115.13,-4.773,8.622,25.0
115.662,-4.764,7.995,14.0
114.761,-4.696,7.259,25.0
114.215,-4.644,6.567,29.0
114.676,-4.635,5.934,18.0
115.011,-4.626,9.15,26.0
115.102,-4.599,8.492,21.0
115.681,-4.592,7.866,22.0
115.055,-4.538,7.148,16.0
114.29,-4.479,6.442,22.0
115.244,-4.488,5.834,21.0
115.756,-4.484,9.077,23.0
115.177,-4.433,8.366,19.0
115.83,-4.428,7.744,23.0
114.621,-4.354,6.99,26.0
114.491,-4.32,6.322,25.0
115.247,-4.319,5.701,24.0
115.3,-4.299,8.906,25.0
123.297,-4.565,8.809,19.0
116.428,-4.282,7.646,25.0
114.558,-4.186,6.85,17.0
114.346,-4.149,6.178,26.0
115.808,-4.174,5.59,23.0
114.88,-4.117,8.734,24.0
124.188,-4.42,8.722,13.0
117.703,-4.16,7.587,17.0
114.389,-4.016,6.7,23.0
114.34,-3.986,6.037,26.0
115.849,-4.011,5.449,24.0
115.888,-3.988,8.666,24.0
124.324,-4.247,8.575,10.0
116.334,-3.946,7.351,20.0
114.524,-3.857,6.563,19.0
115.212,-3.853,5.937,16.0
0.0,0.0,0.0,0.0
124.911,-4.121,9.18,14.0
117.691,-3.855,7.967,14.0
114.632,-3.728,7.095,20.0
115.779,-3.738,6.485,21.0
122.503,-3.926,6.153,10.0
117.43,-3.737,5.221,18.0
140.22,-4.431,10.117,19.0
117.756,-3.693,7.814,25.0
115.635,-3.6,7.003,27.0
114.584,-3.54,6.264,26.0
117.226,-3.596,5.732,30.0
117.321,-3.571,5.058,10.0
140.362,-4.241,9.937,12.0
125.135,-3.752,8.131,17.0
115.699,-3.442,6.848,26.0
122.361,-3.611,6.52,8.0
117.246,-3.434,5.569,29.0
117.391,-3.413,4.899,20.0
141.145,-4.071,9.794,12.0
125.081,-3.579,7.952,15.0
115.857,-3.289,6.693,23.0
141.149,-3.977,7.324,13.0
117.332,-3.279,5.408,8.0
139.564,-3.869,5.625,15.0
124.94,-3.436,8.49,23.0
115.88,-3.161,7.201,24.0
115.738,-3.132,6.522,15.0
124.254,-3.336,6.269,10.0
139.289,-3.709,6.22,9.0
139.669,-3.689,5.429,15.0
125.178,-3.278,8.324,22.0
124.533,-3.233,7.556,16.0
124.611,-3.208,6.836,23.0
141.843,-3.622,6.946,9.0
117.383,-2.972,5.067,12.0
140.172,-3.52,5.239,17.0
125.318,-3.118,8.143,14.0
124.509,-3.07,7.367,22.0
124.268,-3.038,6.63,15.0
140.813,-3.413,6.681,15.0
143.627,-3.452,5.981,13.0
140.548,-3.348,5.04,22.0
124.356,-2.934,7.89,9.0
124.03,-2.901,7.149,16.0
142.129,-3.294,7.365,8.0
140.741,-3.233,6.46,12.0
143.196,-3.26,5.742,7.0
140.498,-3.17,4.82,15.0
124.92,-2.79,7.73,14.0
141.816,-3.139,7.95,7.0
0.0,0.0,0.0,0.0
191.374,-4.158,8.484,18.0
190.063,-4.09,7.321,11.0
162.551,-3.465,5.317,20.0
124.916,-2.634,7.527,7.0
0.0,0.0,0.0,0.0
192.788,-3.989,9.373,11.0
190.321,-3.901,8.128,23.0
190.253,-3.862,7.019,22.0
162.617,-3.269,5.055,44.0
0.0,0.0,0.0,0.0
0.0,0.0,0.0,0.0
192.773,-3.755,9.056,9.0
190.525,-3.676,7.824,21.0
190.515,-3.638,6.715,20.0
163.422,-3.091,4.813,22.0
0.0,0.0,0.0,0.0
0.0,0.0,0.0,0.0
192.368,-3.523,8.719,22.0
191.568,-3.471,7.548,13.0
162.549,-2.916,5.459,15.0
163.25,-2.899,4.537,28.0
189.98,-3.331,10.502,22.0
189.971,-3.294,9.393,22.0
189.99,-3.259,8.286,17.0
191.382,-3.249,7.216,8.0
162.58,-2.73,5.183,51.0
163.357,-2.713,4.258,8.0
0.0,0.0,0.0,0.0
0.0,0.0,0.0,0.0
192.92,-3.091,8.08,22.0
191.91,-3.04,6.9,15.0
163.156,-2.556,4.917,16.0
163.331,-2.531,3.975,3.0
0.0,0.0,0.0,0.0
193.328,-2.92,8.886,15.0
191.848,-2.864,7.7,18.0
162.533,-2.397,5.559,14.0
163.307,-2.381,4.636,43.0
0.0,0.0,0.0,0.0
0.0,0.0,0.0,0.0
0.0,0.0,0.0,0.0
186.134,-2.577,7.135,8.0
162.604,-2.224,5.27,82.0
163.385,-2.207,4.343,19.0
19.761,-0.263,0.41,6.0
0.0,0.0,0.0,0.0
0.0,0.0,0.0,0.0
185.904,-2.38,6.792,20.0
162.799,-2.059,4.983,23.0
19.771,-0.246,0.49,6.0
19.745,-0.243,0.374,11.0
0.0,0.0,0.0,0.0
186.179,-2.225,7.546,21.0
185.875,-2.192,6.449,14.0
19.757,-0.229,0.568,7.0
19.742,-0.226,0.453,10.0
19.758,-0.223,0.338,9.0
0.0,0.0,0.0,0.0
185.82,-2.037,7.188,7.0
19.761,-0.213,0.649,5.0
19.744,-0.21,0.531,9.0
19.743,-0.207,0.416,8.0
19.773,-0.204,0.301,2.0
0.0,0.0,0.0,0.0
19.736,-0.197,0.726,0.0
19.747,-0.194,0.611,9.0
19.736,-0.191,0.493,10.0
19.762,-0.189,0.379,3.0
107.304,-1.01,1.435,16.0
184.041,-1.697,7.498,20.0
19.766,-0.179,0.689,3.0
19.753,-0.176,0.573,7.0
19.767,-0.173,0.457,6.0
177.239,-1.532,3.063,11.0
107.335,-0.912,1.229,72.0
183.949,-1.531,7.142,20.0
19.737,-0.161,0.651,8.0
19.765,-0.159,0.536,6.0
19.736,-0.156,0.418,0.0
0.0,0.0,0.0,0.0
107.237,-0.819,1.023,76.0
19.779,-0.147,0.729,2.0
19.75,-0.144,0.613,3.0
19.779,-0.142,0.498,2.0
19.684,-0.138,0.379,0.0
19.758,-0.136,0.265,0.0
19.779,-0.134,0.15,4.0
19.694,-0.13,0.687,5.0
19.686,-0.127,0.572,8.0
19.675,-0.125,0.457,7.0
19.678,-0.122,0.34,6.0
19.706,-0.12,0.225,10.0
19.725,-0.117,0.11,10.0
19.663,-0.114,0.647,13.0
19.649,-0.111,0.532,11.0
19.663,-0.109,0.418,9.0
19.676,-0.107,0.301,9.0
19.716,-0.105,0.186,15.0
19.716,-0.102,0.072,14.0
19.649,-0.099,0.608,14.0
19.644,-0.096,0.493,10.0
19.661,-0.094,0.378,9.0
19.66,-0.092,0.261,10.0
19.702,-0.09,0.147,14.0
19.709,-0.087,0.032,14.0
19.646,-0.084,0.568,13.0
19.644,-0.082,0.453,11.0
19.646,-0.08,0.338,9.0
19.662,-0.078,0.221,14.0
19.704,-0.075,0.107,15.0
19.717,-0.073,-0.008,16.0
19.632,-0.07,0.527,13.0
19.637,-0.068,0.413,10.0
19.635,-0.066,0.298,9.0
19.682,-0.064,0.182,15.0
19.699,-0.062,0.067,15.0
19.718,-0.06,-0.047,16.0
19.631,-0.057,0.488,12.0
19.63,-0.055,0.373,10.0
19.644,-0.053,0.258,10.0
19.685,-0.051,0.141,15.0
19.697,-0.049,0.026,16.0
19.735,-0.047,-0.088,12.0
19.63,-0.045,0.447,13.0
19.626,-0.043,0.332,10.0
19.644,-0.041,0.218,15.0
19.681,-0.039,0.101,15.0
19.708,-0.038,-0.013,15.0
19.751,-0.036,-0.128,13.0
19.63,-0.033,0.407,13.0
19.623,-0.032,0.292,11.0
19.664,-0.03,0.178,8.0
19.691,-0.028,0.061,13.0
19.732,-0.026,-0.054,10.0
19.761,-0.025,-0.169,2.0
19.629,-0.022,0.366,13.0
19.633,-0.021,0.251,14.0
19.691,-0.019,0.137,2.0
19.719,-0.017,0.02,12.0
19.76,-0.016,-0.094,3.0
0.0,0.0,0.0,0.0
19.632,-0.012,0.326,13.0
19.648,-0.011,0.211,14.0
19.757,-0.009,0.097,2.0
19.733,-0.008,-0.02,10.0
19.771,-0.006,-0.135,0.0
0.0,0.0,0.0,0.0
19.634,-0.003,0.284,15.0
19.762,-0.001,0.171,3.0
19.79,0.0,0.055,4.0
19.754,0.001,-0.061,2.0
19.76,0.002,-0.177,0.0
19.765,0.004,-0.293,1.0
19.636,0.005,0.243,16.0
19.78,0.007,0.129,2.0
19.749,0.008,0.014,7.0
19.78,0.009,-0.103,1.0
19.77,0.011,-0.219,2.0
19.788,0.012,-0.334,2.0
19.659,0.013,0.202,10.0
19.761,0.015,0.088,8.0
19.758,0.016,-0.027,150.0
19.761,0.017,-0.144,5.0
19.756,0.018,-0.26,15.0
19.767,0.02,-0.376,10.0
19.744,0.021,0.162,18.0
19.742,0.022,0.046,15.0
19.74,0.023,-0.068,10.0
19.749,0.024,-0.186,9.0
19.762,0.025,-0.302,13.0
19.774,0.026,-0.417,9.0
19.752,0.027,0.12,11.0
19.734,0.028,0.004,13.0
19.765,0.029,-0.11,8.0
19.752,0.03,-0.227,14.0
19.761,0.032,-0.343,11.0
19.777,0.033,-0.459,13.0
19.76,0.033,0.079,15.0
19.763,0.034,-0.036,55.0
19.752,0.035,-0.152,16.0
19.755,0.036,-0.269,13.0
19.768,0.037,-0.385,14.0
19.777,0.038,-0.501,13.0
19.752,0.038,0.037,17.0
19.749,0.039,-0.078,16.0
19.762,0.04,-0.194,16.0
19.761,0.041,-0.312,11.0
19.778,0.042,-0.428,14.0
19.785,0.043,-0.543,22.0
19.762,0.043,-0.005,35.0
19.768,0.044,-0.12,19.0
19.769,0.044,-0.236,46.0
19.769,0.045,-0.354,51.0
19.779,0.046,-0.469,79.0
19.773,0.047,-0.585,16.0
19.765,0.047,-0.046,128.0
19.778,0.047,-0.162,60.0
19.777,0.048,-0.278,26.0
19.75,0.049,-0.395,19.0
19.769,0.049,-0.511,17.0
19.779,0.05,-0.628,17.0
19.759,0.05,-0.089,35.0
19.77,0.05,-0.205,25.0
19.77,0.051,-0.321,19.0
19.771,0.051,-0.438,34.0
19.797,0.052,-0.555,23.0
19.789,0.052,-0.671,24.0
19.768,0.052,-0.131,29.0
19.781,0.052,-0.247,39.0
19.767,0.053,-0.363,35.0
19.763,0.053,-0.48,51.0
19.784,0.054,-0.597,25.0
19.783,0.054,-0.713,12.0
19.771,0.053,-0.173,39.0
19.766,0.054,-0.289,33.0
19.782,0.054,-0.405,28.0
19.786,0.054,-0.523,25.0
19.806,0.055,-0.64,25.0
19.776,0.055,-0.755,14.0
19.77,0.054,-0.216,34.0
19.768,0.054,-0.331,29.0
19.766,0.055,-0.447,61.0
19.788,0.055,-0.566,25.0
19.791,0.055,-0.682,24.0
19.678,0.055,-0.793,2.0
19.78,0.054,-0.258,63.0
19.777,0.054,-0.374,37.0
19.781,0.054,-0.489,28.0
19.794,0.055,-0.608,25.0
19.777,0.055,-0.723,11.0
18.817,0.052,-0.798,0.0
19.777,0.053,-0.299,28.0
19.785,0.053,-0.415,28.0
19.788,0.053,-0.531,26.0
19.791,0.053,-0.649,24.0
19.773,0.053,-0.765,12.0
17.915,0.048,-0.798,0.0
19.771,0.052,-0.341,28.0
19.789,0.052,-0.457,71.0
19.794,0.052,-0.573,19.0
19.765,0.052,-0.69,16.0
19.546,0.051,-0.797,1.0
17.255,0.045,-0.805,0.0
19.778,0.05,-0.382,23.0
19.774,0.049,-0.498,17.0
19.771,0.049,-0.614,15.0
19.762,0.049,-0.731,13.0
18.598,0.046,-0.797,0.0
16.609,0.041,-0.809,0.0
19.77,0.047,-0.424,39.0
19.788,0.046,-0.54,22.0
19.78,0.046,-0.655,17.0
19.75,0.046,-0.772,10.0
17.773,0.041,-0.799,0.0
16.027,0.037,-0.814,0.0
19.793,0.043,-0.465,22.0
19.777,0.043,-0.58,12.0
19.785,0.042,-0.696,7.0
19.217,0.041,-0.791,0.0
17.169,0.036,-0.807,0.0
15.57,0.032,-0.824,0.0
19.794,0.038,-0.506,15.0
19.781,0.038,-0.622,12.0
19.768,0.037,-0.737,12.0
18.267,0.034,-0.79,0.0
16.558,0.03,-0.813,0.0
15.178,0.027,-0.834,0.0
19.789,0.033,-0.547,14.0
19.799,0.033,-0.663,2.0
19.767,0.032,-0.778,4.0
16.476,0.026,-0.746,0.0
16.035,0.025,-0.82,0.0
14.612,0.022,-0.833,0.0
19.779,0.027,-0.587,11.0
19.817,0.027,-0.704,2.0
18.889,0.025,-0.782,0.0
16.978,0.022,-0.804,0.0
15.498,0.019,-0.825,0.0
14.326,0.017,-0.846,0.0
19.78,0.021,-0.627,10.0
19.759,0.02,-0.742,4.0
18.298,0.018,-0.794,0.0
16.452,0.015,-0.812,0.0
15.185,0.013,-0.839,0.0
13.886,0.012,-0.848,0.0
21.609,0.015,-0.729,0.0
19.663,0.012,-0.778,1.0
17.521,0.01,-0.796,0.0
15.883,0.009,-0.816,0.0
14.415,0.007,-0.825,0.0
13.527,0.006,-0.854,0.0
19.926,0.005,-0.712,0.0
18.769,0.004,-0.78,0.0
16.933,0.003,-0.803,0.0
15.466,0.002,-0.826,0.0
14.272,0.001,-0.846,0.0
13.191,0.0,-0.859,0.0
19.774,-0.002,-0.746,2.0
18.184,-0.003,-0.792,0.0
16.343,-0.004,-0.807,0.0
15.119,-0.004,-0.837,0.0
13.861,-0.005,-0.848,0.0
12.897,-0.005,-0.865,0.0
19.611,-0.012,-0.778,1.0
17.495,-0.011,-0.796,0.0
15.894,-0.011,-0.816,0.0
14.537,-0.011,-0.833,0.0
13.482,-0.011,-0.851,0.0
12.562,-0.011,-0.867,0.0
18.757,-0.021,-0.781,0.0
16.758,-0.019,-0.795,0.0
15.485,-0.019,-0.825,0.0
14.255,-0.018,-0.844,0.0
13.165,-0.018,-0.857,0.0
12.296,-0.017,-0.873,0.0
18.206,-0.03,-0.792,0.0
16.394,-0.028,-0.809,0.0
15.083,-0.027,-0.832,0.0
13.81,-0.025,-0.844,0.0
12.88,-0.025,-0.863,0.0
12.058,-0.024,-0.879,0.0
17.518,-0.039,-0.795,0.0
15.91,-0.036,-0.815,0.0
14.671,-0.035,-0.837,0.0
13.499,-0.033,-0.851,0.0
12.622,-0.032,-0.869,0.0
11.794,-0.03,-0.881,0.0
17.121,-0.048,-0.809,0.0
15.556,-0.045,-0.826,0.0
14.325,-0.043,-0.844,0.0
13.181,-0.04,-0.855,0.0
12.301,-0.039,-0.87,0.0
11.565,-0.037,-0.886,0.0
16.416,-0.057,-0.806,0.0
15.153,-0.054,-0.832,0.0
13.905,-0.05,-0.845,0.0
12.911,-0.048,-0.861,0.0
12.091,-0.046,-0.877,0.0
11.33,-0.044,-0.889,0.0
15.963,-0.066,-0.813,0.0
14.809,-0.062,-0.84,0.0
13.577,-0.058,-0.849,0.0
12.637,-0.055,-0.866,0.0
11.856,-0.053,-0.882,0.0
11.098,-0.051,-0.89,0.0
15.606,-0.075,-0.822,0.0
14.321,-0.07,-0.838,0.0
13.293,-0.066,-0.855,0.0
12.356,-0.063,-0.868,0.0
11.609,-0.06,-0.884,0.0
10.919,-0.058,-0.895,0.0
15.234,-0.084,-0.829,0.0
14.008,-0.079,-0.844,0.0
13.012,-0.075,-0.86,0.0
12.124,-0.071,-0.873,0.0
11.399,-0.068,-0.888,0.0
10.626,-0.064,-0.89,0.0
14.903,-0.094,-0.837,0.0
13.665,-0.087,-0.847,0.0
12.711,-0.083,-0.862,0.0
11.91,-0.079,-0.879,0.0
11.208,-0.075,-0.893,0.0
10.522,-0.072,-0.9,0.0
14.47,-0.103,-0.838,0.0
13.342,-0.096,-0.85,0.0
12.482,-0.091,-0.868,0.0
11.697,-0.087,-0.883,0.0
11.004,-0.083,-0.895,0.0
10.382,-0.079,-0.905,0.0
14.126,-0.112,-0.842,0.0
13.122,-0.105,-0.858,0.0
12.227,-0.099,-0.871,0.0
11.5,-0.095,-0.888,0.0
10.795,-0.09,-0.896,0.0
10.184,-0.086,-0.905,0.0
13.816,-0.121,-0.846,0.0
12.828,-0.114,-0.86,0.0
12.021,-0.108,-0.876,0.0
11.3,-0.103,-0.891,0.0
10.659,-0.098,-0.903,0.0
10.029,-0.094,-0.908,0.0
13.478,-0.13,-0.847,0.0
12.643,-0.123,-0.869,0.0
11.746,-0.116,-0.875,0.0
11.093,-0.111,-0.892,0.0
10.467,-0.106,-0.903,0.0
9.902,-0.102,-0.912,0.0
13.22,-0.139,-0.852,0.0
12.33,-0.131,-0.866,0.0
11.585,-0.125,-0.882,0.0
10.947,-0.119,-0.898,0.0
10.282,-0.114,-0.903,0.0
9.734,-0.109,-0.912,0.0
13.006,-0.149,-0.859,0.0
12.083,-0.14,-0.868,0.0
11.416,-0.134,-0.886,0.0
10.722,-0.127,-0.896,0.0
10.152,-0.122,-0.908,0.0
9.584,-0.116,-0.913,0.0
12.764,-0.158,-0.862,0.0
11.895,-0.149,-0.873,0.0
11.238,-0.143,-0.89,0.0
10.579,-0.136,-0.9,0.0
10.006,-0.13,-0.91,0.0
9.492,-0.124,-0.919,0.0
12.562,-0.168,-0.867,0.0
11.736,-0.159,-0.878,0.0
11.052,-0.151,-0.891,0.0
10.404,-0.144,-0.901,0.0
9.874,-0.138,-0.913,0.0
9.327,-0.132,-0.917,0.0
12.295,-0.177,-0.867,0.0
11.579,-0.168,-0.884,0.0
10.906,-0.16,-0.896,0.0
10.26,-0.152,-0.903,0.0
9.731,-0.146,-0.913,0.0
9.204,-0.139,-0.918,0.0
12.075,-0.186,-0.868,0.0
11.418,-0.178,-0.887,0.0
10.735,-0.168,-0.897,0.0
10.14,-0.161,-0.907,0.0
9.587,-0.153,-0.913,0.0
9.083,-0.147,-0.918,0.0
11.92,-0.196,-0.874,0.0
11.217,-0.186,-0.887,0.0
10.593,-0.177,-0.899,0.0
10.008,-0.169,-0.909,0.0
9.498,-0.162,-0.918,0.0
9.02,-0.155,-0.924,0.0
11.769,-0.206,-0.878,0.0
11.081,-0.196,-0.891,0.0
10.443,-0.186,-0.901,0.0
9.871,-0.177,-0.91,0.0
9.359,-0.17,-0.917,0.0
8.933,-0.164,-0.927,0.0
11.617,-0.216,-0.882,0.0
10.945,-0.205,-0.895,0.0
10.313,-0.195,-0.903,0.0
9.762,-0.186,-0.912,0.0
9.27,-0.178,-0.92,0.0
8.817,-0.171,-0.927,0.0
11.455,-0.225,-0.885,0.0
10.772,-0.214,-0.894,0.0
10.207,-0.204,-0.906,0.0
9.635,-0.195,-0.913,0.0
9.2,-0.187,-0.925,0.0
8.697,-0.179,-0.925,0.0
11.341,-0.236,-0.89,0.0
10.643,-0.223,-0.897,0.0
10.07,-0.213,-0.907,0.0
9.539,-0.204,-0.915,0.0
9.055,-0.195,-0.921,0.0
8.607,-0.187,-0.926,0.0
11.215,-0.246,-0.893,0.0
10.541,-0.233,-0.901,0.0
9.961,-0.222,-0.909,0.0
9.445,-0.212,-0.918,0.0
8.985,-0.204,-0.925,0.0
8.538,-0.195,-0.929,0.0
10.998,-0.254,-0.889,0.0
10.4,-0.242,-0.901,0.0
9.863,-0.232,-0.911,0.0
9.327,-0.221,-0.917,0.0
8.859,-0.211,-0.922,0.0
8.489,-0.204,-0.933,0.0
10.843,-0.263,-0.888,0.0
10.289,-0.252,-0.902,0.0
9.773,-0.241,-0.914,0.0
9.256,-0.23,-0.92,0.0
8.782,-0.22,-0.924,0.0
8.378,-0.211,-0.93,0.0
10.764,-0.274,-0.894,0.0
10.196,-0.261,-0.905,0.0
9.655,-0.249,-0.913,0.0
9.19,-0.239,-0.923,0.0
8.72,-0.229,-0.927,0.0
8.319,-0.22,-0.932,0.0
10.627,-0.283,-0.893,0.0
10.107,-0.271,-0.908,0.0
9.55,-0.258,-0.913,0.0
9.061,-0.247,-0.92,0.0
8.64,-0.237,-0.927,0.0
8.25,-0.228,-0.933,0.0
10.522,-0.293,-0.895,0.0
10.018,-0.281,-0.91,0.0
9.478,-0.268,-0.915,0.0
8.996,-0.256,-0.922,0.0
8.568,-0.246,-0.927,0.0
8.178,-0.236,-0.933,0.0
10.445,-0.304,-0.898,0.0
9.92,-0.291,-0.91,0.0
9.423,-0.278,-0.919,0.0
8.933,-0.265,-0.924,0.0
8.51,-0.254,-0.929,0.0
8.132,-0.245,-0.935,0.0
10.36,-0.314,-0.9,0.0
9.817,-0.3,-0.91,0.0
9.317,-0.286,-0.917,0.0
8.859,-0.274,-0.924,0.0
8.473,-0.264,-0.933,0.0
8.081,-0.253,-0.936,0.0
10.261,-0.324,-0.901,0.0
9.758,-0.31,-0.913,0.0
9.265,-0.296,-0.92,0.0
8.791,-0.283,-0.924,0.0
8.429,-0.273,-0.935,0.0
8.013,-0.261,-0.935,0.0
10.21,-0.335,-0.905,0.0
9.671,-0.32,-0.912,0.0
9.192,-0.306,-0.92,0.0
8.74,-0.293,-0.926,0.0
8.357,-0.282,-0.934,0.0
7.979,-0.271,-0.938,0.0
10.158,-0.346,-0.908,0.0
9.604,-0.33,-0.914,0.0
9.123,-0.315,-0.92,0.0
8.677,-0.301,-0.926,0.0
8.29,-0.29,-0.933,0.0
7.948,-0.28,-0.94,0.0
10.076,-0.356,-0.908,0.0
9.557,-0.34,-0.916,0.0
9.083,-0.325,-0.923,0.0
8.621,-0.311,-0.926,0.0
8.221,-0.298,-0.931,0.0
7.905,-0.288,-0.941,0.0
10.012,-0.367,-0.909,0.0
9.487,-0.35,-0.916,0.0
9.015,-0.334,-0.922,0.0
8.566,-0.32,-0.926,0.0
8.194,-0.308,-0.933,0.0
7.831,-0.296,-0.937,0.0
9.947,-0.377,-0.91,0.0
9.419,-0.359,-0.915,0.0
8.962,-0.344,-0.922,0.0
8.528,-0.329,-0.927,0.0
8.175,-0.317,-0.936,0.0
7.824,-0.306,-0.941,0.0
9.88,-0.387,-0.91,0.0
9.422,-0.372,-0.921,0.0
8.914,-0.353,-0.923,0.0
8.505,-0.339,-0.93,0.0
8.116,-0.326,-0.934,0.0
7.796,-0.315,-0.942,0.0
9.843,-0.399,-0.912,0.0
9.351,-0.381,-0.92,0.0
8.866,-0.363,-0.923,0.0
8.476,-0.349,-0.931,0.0
8.09,-0.335,-0.935,0.0
7.756,-0.323,-0.941,0.0
9.769,-0.408,-0.91,0.0
9.304,-0.391,-0.92,0.0
8.831,-0.373,-0.923,0.0
8.42,-0.358,-0.929,0.0
8.048,-0.344,-0.934,0.0
7.723,-0.332,-0.941,0.0
9.738,-0.419,-0.912,0.0
9.26,-0.401,-0.92,0.0
8.81,-0.383,-0.925,0.0
8.399,-0.367,-0.931,0.0
8.026,-0.353,-0.935,0.0
7.702,-0.341,-0.942,0.0
9.681,-0.429,-0.911,0.0
9.224,-0.411,-0.92,0.0
8.769,-0.393,-0.924,0.0
8.366,-0.377,-0.931,0.0
8.025,-0.364,-0.939,0.0
7.707,-0.351,-0.945,0.0
9.658,-0.441,-0.912,0.0
9.194,-0.422,-0.92,0.0
8.754,-0.404,-0.926,0.0
8.35,-0.387,-0.932,0.0
8.005,-0.373,-0.939,0.0
7.695,-0.36,-0.947,0.0
9.645,-0.452,-0.914,0.0
9.177,-0.433,-0.922,0.0
8.738,-0.414,-0.927,0.0
8.283,-0.394,-0.927,0.0
7.992,-0.382,-0.94,0.0
7.661,-0.368,-0.945,0.0
9.628,-0.464,-0.915,0.0
9.157,-0.443,-0.922,0.0
8.704,-0.423,-0.926,0.0
8.28,-0.405,-0.929,0.0
8.007,-0.393,-0.944,0.0
7.661,-0.378,-0.947,0.0
9.614,-0.475,-0.916,0.0
9.134,-0.454,-0.922,0.0
8.689,-0.434,-0.926,0.0
8.281,-0.415,-0.931,0.0
7.984,-0.402,-0.943,0.0
7.64,-0.387,-0.946,0.0
9.583,-0.486,-0.915,0.0
9.113,-0.464,-0.922,0.0
8.682,-0.444,-0.927,0.0
8.24,-0.424,-0.928,0.0
7.931,-0.41,-0.938,0.0
7.649,-0.397,-0.948,0.0
9.603,-0.499,-0.918,0.0
9.091,-0.474,-0.921,0.0
8.644,-0.453,-0.924,0.0
8.288,-0.437,-0.934,0.0
7.894,-0.418,-0.935,0.0
7.634,-0.406,-0.947,0.0
9.578,-0.51,-0.917,0.0
9.104,-0.486,-0.923,0.0
8.672,-0.466,-0.928,0.0
8.291,-0.447,-0.935,0.0
7.912,-0.429,-0.937,0.0
7.637,-0.416,-0.948,0.0
9.588,-0.522,-0.919,0.0
9.102,-0.498,-0.923,0.0
8.655,-0.475,-0.927,0.0
8.263,-0.456,-0.932,0.0
7.927,-0.439,-0.939,0.0
7.604,-0.423,-0.944,0.0
9.58,-0.533,-0.918,0.0
9.1,-0.509,-0.923,0.0
8.67,-0.487,-0.928,0.0
8.242,-0.465,-0.93,0.0
7.919,-0.448,-0.938,0.0
7.611,-0.433,-0.945,0.0
9.578,-0.545,-0.918,0.0
9.104,-0.52,-0.923,0.0
8.698,-0.499,-0.931,0.0
8.288,-0.477,-0.935,0.0
7.917,-0.458,-0.938,0.0
7.621,-0.443,-0.946,0.0
9.575,-0.556,-0.917,0.0
9.088,-0.53,-0.921,0.0
8.701,-0.51,-0.931,0.0
8.271,-0.486,-0.932,0.0
7.901,-0.467,-0.935,0.0
7.635,-0.453,-0.947,0.0
9.573,-0.568,-0.916,0.0
9.102,-0.542,-0.921,0.0
8.715,-0.521,-0.931,0.0
8.305,-0.498,-0.935,0.0
7.913,-0.477,-0.935,0.0
7.641,-0.462,-0.946,0.0
9.6,-0.58,-0.917,0.0
9.127,-0.554,-0.923,0.0
8.752,-0.533,-0.934,0.0
8.291,-0.507,-0.932,0.0
7.924,-0.487,-0.935,0.0
7.633,-0.47,-0.944,0.0
9.621,-0.593,-0.917,0.0
9.134,-0.565,-0.921,0.0
8.751,-0.543,-0.932,0.0
8.323,-0.519,-0.934,0.0
7.935,-0.496,-0.935,0.0
7.67,-0.482,-0.947,0.0
9.631,-0.604,-0.916,0.0
9.182,-0.578,-0.924,0.0
8.777,-0.555,-0.932,0.0
8.357,-0.53,-0.935,0.0
7.971,-0.508,-0.937,0.0
7.673,-0.491,-0.945,0.0
9.673,-0.618,-0.917,0.0
9.212,-0.591,-0.924,0.0
8.8,-0.566,-0.932,0.0
8.378,-0.541,-0.935,0.0
7.952,-0.515,-0.932,0.0
7.674,-0.499,-0.942,0.0
9.728,-0.632,-0.919,0.0
9.222,-0.602,-0.922,0.0
8.826,-0.578,-0.932,0.0
8.404,-0.552,-0.935,0.0
7.974,-0.526,-0.932,0.0
7.745,-0.512,-0.948,0.0
9.74,-0.644,-0.916,0.0
9.266,-0.615,-0.923,0.0
8.846,-0.589,-0.93,0.0
8.449,-0.564,-0.937,0.0
8.07,-0.541,-0.94,0.0
7.739,-0.52,-0.944,0.0
9.773,-0.657,-0.915,0.0
9.293,-0.626,-0.922,0.0
8.863,-0.599,-0.928,0.0
8.437,-0.572,-0.932,0.0
8.108,-0.552,-0.94,0.0
7.733,-0.528,-0.94,0.0
9.833,-0.671,-0.917,0.0
9.345,-0.64,-0.923,0.0
8.898,-0.611,-0.928,0.0
8.462,-0.583,-0.93,0.0
8.13,-0.562,-0.939,0.0
7.763,-0.538,-0.94,0.0
9.849,-0.682,-0.913,0.0
9.395,-0.653,-0.923,0.0
8.925,-0.622,-0.926,0.0
8.533,-0.597,-0.934,0.0
8.167,-0.573,-0.939,0.0
7.768,-0.547,-0.936,0.0
9.941,-0.699,-0.916,0.0
9.41,-0.663,-0.919,0.0
8.961,-0.633,-0.925,0.0
8.565,-0.607,-0.932,0.0
8.24,-0.586,-0.943,0.0
7.821,-0.558,-0.938,0.0
9.984,-0.711,-0.915,0.0
9.492,-0.678,-0.922,0.0
9.021,-0.647,-0.926,0.0
8.602,-0.618,-0.931,0.0
8.274,-0.597,-0.942,0.0
7.901,-0.572,-0.943,0.0
10.061,-0.727,-0.916,0.0
9.572,-0.693,-0.924,0.0
9.087,-0.66,-0.927,0.0
8.641,-0.629,-0.93,0.0
8.261,-0.603,-0.935,0.0
7.914,-0.58,-0.939,0.0
10.039,-0.734,-0.907,0.0
9.626,-0.706,-0.923,0.0
9.156,-0.673,-0.928,0.0
8.7,-0.642,-0.931,0.0
8.312,-0.615,-0.935,0.0
7.943,-0.589,-0.937,0.0
10.168,-0.753,-0.912,0.0
9.67,-0.718,-0.92,0.0
9.197,-0.685,-0.926,0.0
8.771,-0.655,-0.932,0.0
8.306,-0.622,-0.928,0.0
8.003,-0.601,-0.939,0.0
10.231,-0.767,-0.91,0.0
9.716,-0.73,-0.917,0.0
9.267,-0.698,-0.926,0.0
8.826,-0.666,-0.931,0.0
8.384,-0.635,-0.931,0.0
8.078,-0.613,-0.941,0.0
10.33,-0.783,-0.911,0.0
9.768,-0.742,-0.915,0.0
9.339,-0.711,-0.926,0.0
8.885,-0.678,-0.93,0.0
8.483,-0.649,-0.935,0.0
8.087,-0.621,-0.936,0.0
10.439,-0.8,-0.912,0.0
9.844,-0.756,-0.914,0.0
9.397,-0.723,-0.924,0.0
8.962,-0.691,-0.931,0.0
8.559,-0.662,-0.936,0.0
8.14,-0.631,-0.935,0.0
10.522,-0.814,-0.911,0.0
9.961,-0.773,-0.917,0.0
9.488,-0.738,-0.925,0.0
9.049,-0.705,-0.932,0.0
8.607,-0.672,-0.934,0.0
8.175,-0.64,-0.932,0.0
10.602,-0.828,-0.909,0.0
10.021,-0.785,-0.913,0.0
9.531,-0.748,-0.921,0.0
9.11,-0.716,-0.931,0.0
8.656,-0.682,-0.931,0.0
8.259,-0.653,-0.934,0.0
10.667,-0.841,-0.905,0.0
10.074,-0.796,-0.909,0.0
9.647,-0.764,-0.923,0.0
9.156,-0.727,-0.927,0.0
8.738,-0.695,-0.932,0.0
8.3,-0.662,-0.931,0.0
10.775,-0.857,-0.904,0.0
10.175,-0.811,-0.909,0.0
9.743,-0.778,-0.923,0.0
9.262,-0.741,-0.929,0.0
8.87,-0.711,-0.938,0.0
8.427,-0.677,-0.937,0.0
10.909,-0.875,-0.905,0.0
10.335,-0.83,-0.913,0.0
9.82,-0.79,-0.921,0.0
9.302,-0.75,-0.924,0.0
8.898,-0.719,-0.932,0.0
8.528,-0.691,-0.94,0.0
11.027,-0.891,-0.903,0.0
10.436,-0.845,-0.911,0.0
9.951,-0.807,-0.923,0.0
9.376,-0.762,-0.921,0.0
9.002,-0.733,-0.933,0.0
8.599,-0.702,-0.938,0.0
11.102,-0.904,-0.898,0.0
10.555,-0.861,-0.911,0.0
9.997,-0.817,-0.917,0.0
9.484,-0.776,-0.922,0.0
9.117,-0.748,-0.936,0.0
8.677,-0.713,-0.938,0.0
11.282,-0.925,-0.901,0.0
10.666,-0.876,-0.909,0.0
10.132,-0.833,-0.918,0.0
9.656,-0.795,-0.928,0.0
9.161,-0.756,-0.93,0.0
8.728,-0.722,-0.934,0.0
11.33,-0.935,-0.892,0.0
10.804,-0.893,-0.909,0.0
10.264,-0.849,-0.919,0.0
9.692,-0.803,-0.921,0.0
9.249,-0.768,-0.929,0.0
8.801,-0.732,-0.932,0.0
11.521,-0.956,-0.894,0.0
10.892,-0.905,-0.904,0.0
10.313,-0.858,-0.911,0.0
9.806,-0.817,-0.921,0.0
9.377,-0.783,-0.931,0.0
8.899,-0.744,-0.932,0.0
11.641,-0.971,-0.89,0.0
11.062,-0.924,-0.905,0.0
10.437,-0.873,-0.91,0.0
9.893,-0.829,-0.917,0.0
9.474,-0.795,-0.929,0.0
9.023,-0.758,-0.934,0.0
11.885,-0.996,-0.895,0.0
11.068,-0.929,-0.893,0.0
10.489,-0.881,-0.902,0.0
10.062,-0.847,-0.921,0.0
9.542,-0.804,-0.925,0.0
9.121,-0.77,-0.933,0.0
12.053,-1.015,-0.893,0.0
11.261,-0.949,-0.895,0.0
10.685,-0.902,-0.906,0.0
10.232,-0.865,-0.924,0.0
9.657,-0.817,-0.924,0.0
9.203,-0.78,-0.93,0.0
12.188,-1.03,-0.888,0.0
11.444,-0.968,-0.895,0.0
10.831,-0.917,-0.905,0.0
10.292,-0.873,-0.917,0.0
9.789,-0.831,-0.924,0.0
9.354,-0.795,-0.934,0.0
12.347,-1.047,-0.885,0.0
11.618,-0.986,-0.895,0.0
10.987,-0.933,-0.905,0.0
10.374,-0.882,-0.911,0.0
9.923,-0.845,-0.925,0.0
9.446,-0.805,-0.931,0.0
12.498,-1.063,-0.88,0.0
11.644,-0.991,-0.882,0.0
11.136,-0.949,-0.903,0.0
10.534,-0.898,-0.912,0.0
10.032,-0.856,-0.922,0.0
9.493,-0.811,-0.923,0.0
12.697,-1.082,-0.878,0.0
12.007,-1.024,-0.894,0.0
11.18,-0.955,-0.892,0.0
10.673,-0.912,-0.91,0.0
10.163,-0.869,-0.921,0.0
9.636,-0.825,-0.925,0.0
12.847,-1.097,-0.871,0.0
12.177,-1.041,-0.891,0.0
11.426,-0.977,-0.897,0.0
10.861,-0.93,-0.912,0.0
10.251,-0.878,-0.915,0.0
9.798,-0.84,-0.927,0.0
13.132,-1.123,-0.873,0.0
12.332,-1.056,-0.886,0.0
11.578,-0.992,-0.893,0.0
10.986,-0.941,-0.907,0.0
10.422,-0.894,-0.916,0.0
9.907,-0.85,-0.924,0.0
13.384,-1.146,-0.872,0.0
12.488,-1.07,-0.88,0.0
11.778,-1.01,-0.893,0.0
11.08,-0.95,-0.9,0.0
10.521,-0.903,-0.911,0.0
10.044,-0.862,-0.923,0.0
13.589,-1.164,-0.867,0.0
12.607,-1.08,-0.871,0.0
12.033,-1.032,-0.895,0.0
11.235,-0.964,-0.897,0.0
10.713,-0.919,-0.912,0.0
10.15,-0.871,-0.918,0.0
13.923,-1.193,-0.869,0.0
12.925,-1.108,-0.875,0.0
12.211,-1.047,-0.892,0.0
11.467,-0.983,-0.899,0.0
10.933,-0.938,-0.916,0.0
10.369,-0.89,-0.924,0.0
14.185,-1.214,-0.866,0.0
13.238,-1.134,-0.878,0.0
12.394,-1.062,-0.888,0.0
11.544,-0.989,-0.889,0.0
11.008,-0.943,-0.906,0.0
10.445,-0.895,-0.916,0.0
14.474,-1.238,-0.863,0.0
13.493,-1.154,-0.876,0.0
12.64,-1.081,-0.887,0.0
11.914,-1.019,-0.901,0.0
11.164,-0.955,-0.903,0.0
10.589,-0.906,-0.913,0.0
14.79,-1.263,-0.861,0.0
13.703,-1.17,-0.87,0.0
12.718,-1.086,-0.875,0.0
12.038,-1.028,-0.893,0.0
11.284,-0.964,-0.897,0.0
10.796,-0.922,-0.916,0.0
15.102,-1.287,-0.857,0.0
13.991,-1.192,-0.868,0.0
12.999,-1.108,-0.875,0.0
12.225,-1.042,-0.889,0.0
11.59,-0.988,-0.905,0.0
10.967,-0.934,-0.914,0.0
15.471,-1.315,-0.856,0.0
14.25,-1.211,-0.864,0.0
13.308,-1.131,-0.877,0.0
12.41,-1.054,-0.885,0.0
11.646,-0.989,-0.892,0.0
11.054,-0.939,-0.905,0.0
15.687,-1.33,-0.845,0.0
14.666,-1.243,-0.867,0.0
13.568,-1.149,-0.874,0.0
12.64,-1.07,-0.883,0.0
11.929,-1.01,-0.896,0.0
11.202,-0.948,-0.901,0.0
16.137,-1.363,-0.846,0.0
14.869,-1.255,-0.858,0.0
13.875,-1.171,-0.874,0.0
12.858,-1.085,-0.879,0.0
12.185,-1.027,-0.897,0.0
11.439,-0.964,-0.903,0.0
16.517,-1.389,-0.842,0.0
15.223,-1.28,-0.856,0.0
14.115,-1.186,-0.868,0.0
13.098,-1.1,-0.876,0.0
12.318,-1.034,-0.889,0.0
11.569,-0.97,-0.896,0.0
16.877,-1.413,-0.835,0.0
15.575,-1.303,-0.852,0.0
14.453,-1.208,-0.867,0.0
13.434,-1.122,-0.878,0.0
12.519,-1.045,-0.884,0.0
11.689,-0.975,-0.888,0.0
17.248,-1.436,-0.828,0.0
15.923,-1.325,-0.848,0.0
14.709,-1.223,-0.861,0.0
13.682,-1.137,-0.874,0.0
12.755,-1.059,-0.882,0.0
12.065,-1.001,-0.899,0.0
17.642,-1.461,-0.821,0.0
16.286,-1.347,-0.843,0.0
15.053,-1.244,-0.859,0.0
14.033,-1.159,-0.876,0.0
12.971,-1.07,-0.878,0.0
12.244,-1.01,-0.893,0.0
18.168,-1.495,-0.818,0.0
16.65,-1.368,-0.837,0.0
15.361,-1.261,-0.853,0.0
14.211,-1.166,-0.866,0.0
13.28,-1.088,-0.879,0.0
12.418,-1.017,-0.887,0.0
18.579,-1.518,-0.809,0.0
17.055,-1.392,-0.832,0.0
15.654,-1.276,-0.846,0.0
14.539,-1.184,-0.864,0.0
13.575,-1.104,-0.878,0.0
12.618,-1.025,-0.883,0.0
19.109,-1.55,-0.803,0.0
17.466,-1.415,-0.826,0.0
16.13,-1.305,-0.848,0.0
14.771,-1.194,-0.856,0.0
13.854,-1.118,-0.875,0.0
12.818,-1.033,-0.877,0.0
19.833,-1.596,-0.804,0.0
17.972,-1.444,-0.823,0.0
16.496,-1.324,-0.842,0.0
15.201,-1.218,-0.858,0.0
14.116,-1.129,-0.871,0.0
12.906,-1.031,-0.864,0.0
20.046,-1.599,-0.783,0.0
18.501,-1.473,-0.82,0.0
16.868,-1.341,-0.836,0.0
15.495,-1.23,-0.851,0.0
14.422,-1.143,-0.868,0.0
13.415,-1.062,-0.878,0.0
20.661,-1.633,-0.776,0.0
18.858,-1.488,-0.808,0.0
17.202,-1.355,-0.827,0.0
16.014,-1.259,-0.856,0.0
14.742,-1.157,-0.865,0.0
13.746,-1.078,-0.879,0.0
21.166,-1.656,-0.764,0.0
19.275,-1.505,-0.797,0.0
17.778,-1.386,-0.828,0.0
16.252,-1.265,-0.844,0.0
15.049,-1.169,-0.861,0.0
13.962,-1.083,-0.872,0.0
21.664,-1.677,-0.75,0.0
19.887,-1.537,-0.793,0.0
18.202,-1.404,-0.821,0.0
16.586,-1.277,-0.837,0.0
15.384,-1.182,-0.857,0.0
14.237,-1.092,-0.869,0.0
22.238,-1.703,-0.737,0.0
20.48,-1.565,-0.786,0.0
18.63,-1.42,-0.813,0.0
16.837,-1.281,-0.825,0.0
15.734,-1.195,-0.854,0.0
14.544,-1.102,-0.866,0.0
23.521,-1.779,-0.745,0.0
20.933,-1.58,-0.773,0.0
19.045,-1.434,-0.803,0.0
17.409,-1.308,-0.827,0.0
16.104,-1.208,-0.85,0.0
14.902,-1.115,-0.865,0.0
24.012,-1.794,-0.725,0.0
21.494,-1.602,-0.762,0.0
19.576,-1.455,-0.797,0.0
17.832,-1.323,-0.821,0.0
16.472,-1.219,-0.845,0.0
15.149,-1.119,-0.857,0.0
24.85,-1.831,-0.714,0.0
22.22,-1.634,-0.755,0.0
20.054,-1.471,-0.787,0.0
18.432,-1.348,-0.822,0.0
16.863,-1.231,-0.841,0.0
15.535,-1.131,-0.856,0.0
25.347,-1.842,-0.692,0.0
22.544,-1.634,-0.734,0.0
20.602,-1.489,-0.779,0.0
18.833,-1.358,-0.813,0.0
17.197,-1.237,-0.832,0.0
15.838,-1.136,-0.85,0.0
26.65,-1.908,-0.689,0.0
0.0,0.0,0.0,0.0
21.135,-1.505,-0.768,0.0
19.382,-1.376,-0.809,0.0
17.594,-1.246,-0.827,0.0
16.329,-1.153,-0.853,0.0
27.608,-1.945,-0.675,0.0
24.523,-1.723,-0.728,0.0
21.844,-1.53,-0.763,0.0
19.903,-1.391,-0.802,0.0
18.067,-1.259,-0.823,0.0
16.65,-1.157,-0.846,0.0
28.228,-1.957,-0.65,0.0
25.075,-1.733,-0.709,0.0
22.385,-1.542,-0.751,0.0
20.188,-1.387,-0.785,0.0
18.595,-1.273,-0.821,0.0
16.959,-1.158,-0.838,0.0
28.591,-1.948,-0.619,0.0
25.888,-1.758,-0.696,0.0
23.045,-1.56,-0.741,0.0
20.722,-1.398,-0.777,0.0
18.964,-1.275,-0.811,0.0
17.204,-1.153,-0.827,0.0
30.063,-2.011,-0.609,0.0
26.485,-1.766,-0.675,0.0
23.735,-1.577,-0.73,0.0
21.25,-1.407,-0.768,0.0
19.318,-1.275,-0.8,0.0
17.852,-1.174,-0.833,0.0
32.504,-2.133,-0.614,0.0
27.543,-1.801,-0.665,0.0
24.444,-1.593,-0.719,0.0
21.872,-1.42,-0.76,0.0
19.76,-1.278,-0.791,0.0
18.207,-1.174,-0.825,0.0
32.843,-2.112,-0.576,0.0
28.556,-1.83,-0.651,0.0
25.259,-1.613,-0.709,0.0
22.436,-1.427,-0.75,0.0
20.387,-1.292,-0.789,0.0
18.64,-1.177,-0.82,0.0
33.587,-2.115,-0.544,0.0
29.281,-1.837,-0.628,0.0
25.813,-1.613,-0.69,0.0
23.088,-1.437,-0.741,0.0
20.759,-1.287,-0.776,0.0
19.119,-1.181,-0.816,0.0
36.11,-2.225,-0.538,0.0
30.418,-1.866,-0.613,0.0
26.354,-1.61,-0.67,0.0
23.748,-1.445,-0.731,0.0
21.208,-1.285,-0.765,0.0
19.382,-1.169,-0.801,0.0
37.185,-2.238,-0.505,0.0
0.0,0.0,0.0,0.0
27.751,-1.656,-0.669,0.0
24.17,-1.436,-0.713,0.0
21.863,-1.293,-0.76,0.0
19.883,-1.171,-0.797,0.0
38.472,-2.26,-0.473,0.0
0.0,0.0,0.0,0.0
0.0,0.0,0.0,0.0
25.026,-1.45,-0.707,0.0
22.488,-1.297,-0.754,0.0
20.323,-1.167,-0.789,0.0
0.0,0.0,0.0,0.0
0.0,0.0,0.0,0.0
29.346,-1.664,-0.634,0.0
26.062,-1.47,-0.703,0.0
23.177,-1.302,-0.748,0.0
20.761,-1.16,-0.78,0.0
0.0,0.0,0.0,0.0
0.0,0.0,0.0,0.0
30.148,-1.663,-0.614,0.0
26.157,-1.436,-0.674,0.0
23.742,-1.297,-0.737,0.0
21.059,-1.144,-0.765,0.0
0.0,0.0,0.0,0.0
37.29,-2.01,-0.517,0.0
29.266,-1.569,-0.561,0.0
27.109,-1.446,-0.666,0.0
24.366,-1.292,-0.727,0.0
21.667,-1.143,-0.762,0.0
0.0,0.0,0.0,0.0
38.066,-1.992,-0.483,0.0
32.258,-1.678,-0.58,0.0
0.0,0.0,0.0,0.0
24.782,-1.275,-0.711,0.0
22.228,-1.137,-0.755,0.0
0.0,0.0,0.0,0.0
0.0,0.0,0.0,0.0
33.122,-1.67,-0.558,0.0
29.268,-1.467,-0.651,0.0
25.577,-1.274,-0.704,0.0
22.703,-1.124,-0.746,0.0
0.0,0.0,0.0,0.0
41.48,-2.034,-0.431,0.0
0.0,0.0,0.0,0.0
0.0,0.0,0.0,0.0
25.959,-1.25,-0.686,0.0
23.236,-1.112,-0.737,0.0
0.0,0.0,0.0,0.0
0.0,0.0,0.0,0.0
0.0,0.0,0.0,0.0
30.578,-1.43,-0.611,0.0
26.599,-1.235,-0.673,0.0
24.105,-1.112,-0.738,0.0
0.0,0.0,0.0,0.0
0.0,0.0,0.0,0.0
37.594,-1.704,-0.507,0.0
31.814,-1.432,-0.601,0.0
27.325,-1.222,-0.662,0.0
24.456,-1.086,-0.723,0.0
0.0,0.0,0.0,0.0
47.362,-2.08,-0.338,0.0
38.43,-1.675,-0.478,0.0
0.0,0.0,0.0,0.0
28.468,-1.223,-0.66,0.0
25.162,-1.073,-0.717,0.0
0.0,0.0,0.0,0.0
0.0,0.0,0.0,0.0
0.0,0.0,0.0,0.0
33.239,-1.379,-0.56,0.0
29.355,-1.209,-0.651,0.0
25.349,-1.036,-0.697,0.0
0.0,0.0,0.0,0.0
0.0,0.0,0.0,0.0
0.0,0.0,0.0,0.0
34.911,-1.386,-0.553,0.0
29.445,-1.159,-0.623,0.0
25.828,-1.008,-0.684,0.0
0.0,0.0,0.0,0.0
0.0,0.0,0.0,0.0
0.0,0.0,0.0,0.0
35.74,-1.353,-0.531,0.0
0.0,0.0,0.0,0.0
0.0,0.0,0.0,0.0
0.0,0.0,0.0,0.0
0.0,0.0,0.0,0.0
0.0,0.0,0.0,0.0
0.0,0.0,0.0,0.0
31.048,-1.107,-0.598,0.0
27.473,-0.971,-0.676,0.0
0.0,0.0,0.0,0.0
0.0,0.0,0.0,0.0
0.0,0.0,0.0,0.0
0.0,0.0,0.0,0.0
0.0,0.0,0.0,0.0
0.0,0.0,0.0,0.0
0.0,0.0,0.0,0.0
0.0,0.0,0.0,0.0
0.0,0.0,0.0,0.0
40.017,-1.29,-0.486,0.0
0.0,0.0,0.0,0.0
28.68,-0.905,-0.655,0.0
0.0,0.0,0.0,0.0
0.0,0.0,0.0,0.0
0.0,0.0,0.0,0.0
0.0,0.0,0.0,0.0
0.0,0.0,0.0,0.0
29.41,-0.871,-0.647,0.0
160.694,-4.724,0.911,12.0
0.0,0.0,0.0,0.0
0.0,0.0,0.0,0.0
0.0,0.0,0.0,0.0
0.0,0.0,0.0,0.0
29.668,-0.821,-0.629,0.0
160.655,-4.408,1.039,13.0
0.0,0.0,0.0,0.0
0.0,0.0,0.0,0.0
0.0,0.0,0.0,0.0
35.376,-0.922,-0.533,0.0
29.916,-0.769,-0.612,0.0
160.724,-4.09,1.163,11.0
0.0,0.0,0.0,0.0
0.0,0.0,0.0,0.0
0.0,0.0,0.0,0.0
35.467,-0.853,-0.508,0.0
31.735,-0.752,-0.625,0.0
160.748,-3.771,1.281,10.0
0.0,0.0,0.0,0.0
0.0,0.0,0.0,0.0
0.0,0.0,0.0,0.0
0.0,0.0,0.0,0.0
31.796,-0.69,-0.604,0.0
107.343,-2.303,0.93,1.0
0.0,0.0,0.0,0.0
0.0,0.0,0.0,0.0
0.0,0.0,0.0,0.0
0.0,0.0,0.0,0.0
31.513,-0.621,-0.578,0.0
107.288,-2.085,1.0,151.0
0.0,0.0,0.0,0.0
0.0,0.0,0.0,0.0
0.0,0.0,0.0,0.0
38.916,-0.702,-0.48,0.0
33.085,-0.585,-0.586,0.0
107.193,-1.865,1.067,150.0
19.685,-0.335,0.089,0.0
0.0,0.0,0.0,0.0
0.0,0.0,0.0,0.0
39.519,-0.632,-0.463,0.0
33.58,-0.525,-0.575,0.0
107.209,-1.646,1.13,150.0
19.752,-0.296,0.101,26.0
0.0,0.0,0.0,0.0
0.0,0.0,0.0,0.0
0.0,0.0,0.0,0.0
33.331,-0.452,-0.552,0.0
19.772,-0.262,0.219,26.0
19.739,-0.254,0.112,13.0
0.0,0.0,0.0,0.0
0.0,0.0,0.0,0.0
41.473,-0.491,-0.44,0.0
34.487,-0.396,-0.553,0.0
19.767,-0.221,0.229,2.0
107.228,-1.161,0.666,2.0
0.0,0.0,0.0,0.0
0.0,0.0,0.0,0.0
19.776,-0.193,-0.2,7.0
19.757,-0.186,-0.307,9.0
107.341,-0.977,1.3,20.0
107.24,-0.937,0.718,2.0
107.185,-0.898,0.136,1.0
19.741,-0.158,-0.083,10.0
19.743,-0.151,-0.19,16.0
19.746,-0.144,-0.298,17.0
19.72,-0.138,0.247,0.0
19.769,-0.131,0.141,4.0
19.738,-0.124,0.033,10.0
19.727,-0.117,-0.075,9.0
19.72,-0.11,-0.182,17.0
19.757,-0.103,-0.29,15.0
19.682,-0.096,0.255,10.0
19.695,-0.089,0.148,14.0
19.702,-0.082,0.041,14.0
19.707,-0.075,-0.067,14.0
19.731,-0.068,-0.174,16.0
19.765,-0.061,-0.282,14.0
19.644,-0.054,0.262,10.0
19.677,-0.047,0.155,11.0
19.694,-0.041,0.048,15.0
19.713,-0.034,-0.06,13.0
19.753,-0.027,-0.168,7.0
0.0,0.0,0.0,0.0
19.627,-0.013,0.268,13.0
19.743,-0.006,0.162,5.0
19.784,0.0,0.055,6.0
19.753,0.007,-0.054,150.0
19.76,0.014,-0.162,5.0
19.756,0.021,-0.269,15.0
19.626,0.028,0.274,13.0
19.728,0.035,0.168,15.0
19.742,0.041,0.06,14.0
19.744,0.049,-0.048,40.0
19.764,0.056,-0.156,50.0
19.757,0.063,-0.264,41.0
19.62,0.069,0.279,15.0
19.656,0.077,0.172,11.0
19.679,0.084,0.065,13.0
19.695,0.09,-0.043,5.0
19.793,0.098,-0.152,0.0
0.0,0.0,0.0,0.0
19.619,0.111,0.284,13.0
19.656,0.118,0.177,15.0
19.641,0.125,0.069,13.0
19.633,0.132,-0.039,14.0
19.65,0.139,-0.147,11.0
19.689,0.146,-0.255,2.0
19.64,0.154,0.288,11.0
19.665,0.16,0.181,13.0
19.654,0.167,0.073,12.0
19.637,0.174,-0.036,14.0
19.629,0.181,-0.143,16.0
19.654,0.188,-0.251,17.0
19.739,0.197,0.292,9.0
19.756,0.204,0.184,18.0
19.702,0.21,0.076,7.0
19.664,0.217,-0.033,8.0
19.638,0.223,-0.141,17.0
19.662,0.231,-0.249,19.0
19.724,0.239,0.294,12.0
19.758,0.246,0.186,28.0
84.901,1.09,0.337,18.0
19.644,0.258,-0.031,0.0
19.675,0.266,-0.139,12.0
19.662,0.272,-0.247,15.0
19.728,0.281,0.296,10.0
19.805,0.289,0.188,0.0
0.0,0.0,0.0,0.0
55.103,0.845,-0.085,5.0
40.821,0.64,-0.287,0.0
35.631,0.57,-0.447,1.0
55.205,0.907,0.831,50.0
55.181,0.926,0.528,57.0
55.158,0.943,0.224,109.0
55.09,0.961,-0.084,12.0
40.717,0.725,-0.286,2.0
55.258,1.002,-0.692,0.0
55.207,1.024,0.832,34.0
55.202,1.044,0.528,5.0
88.53,1.704,0.359,1.0
55.097,1.079,-0.085,9.0
41.039,0.818,-0.289,1.0
33.295,0.674,-0.418,3.0
163.34,3.38,2.456,19.0
122.322,2.573,1.165,7.0
79.606,1.702,0.319,3.0
52.275,1.135,-0.083,0.0
40.954,0.903,-0.291,2.0
34.178,0.765,-0.431,1.0
128.688,2.939,1.926,27.0
70.931,1.643,0.67,9.0
70.944,1.668,0.278,7.0
0.0,0.0,0.0,0.0
40.303,0.975,-0.29,2.0
32.142,0.788,-0.409,0.0
45.52,1.137,0.676,2.0
70.78,1.791,0.66,11.0
0.0,0.0,0.0,0.0
40.161,1.042,-0.073,159.0
39.982,1.051,-0.293,21.0
40.154,1.069,-0.517,0.0
41.937,1.135,0.616,150.0
0.0,0.0,0.0,0.0
0.0,0.0,0.0,0.0
40.122,1.126,-0.079,111.0
39.974,1.135,-0.3,14.0
27.43,0.788,-0.358,2.0
40.127,1.17,0.582,150.0
40.13,1.184,0.36,112.0
40.122,1.197,0.138,131.0
40.125,1.21,-0.087,150.0
39.922,1.217,-0.308,7.0
40.197,1.239,-0.533,2.0
40.125,1.255,0.574,150.0
40.122,1.268,0.351,126.0
40.119,1.281,0.129,150.0
40.111,1.294,-0.097,150.0
39.896,1.3,-0.318,9.0
40.187,1.323,-0.543,1.0
70.998,2.37,0.997,7.0
71.122,2.397,0.604,20.0
63.748,2.169,0.187,11.0
40.141,1.379,-0.108,150.0
39.919,1.384,-0.329,2.0
30.72,1.075,-0.424,1.0
45.039,1.596,0.619,3.0
45.167,1.615,0.37,121.0
0.0,0.0,0.0,0.0
42.768,1.557,-0.129,3.0
37.524,1.378,-0.321,1.0
30.17,1.118,-0.426,1.0
42.013,1.576,0.563,143.0
41.648,1.575,0.327,85.0
40.362,1.539,0.092,94.0
40.339,1.551,-0.135,152.0
37.208,1.443,-0.332,1.0
30.08,1.176,-0.436,1.0
40.39,1.598,0.527,149.0
40.395,1.61,0.302,156.0
40.338,1.621,0.077,138.0
40.334,1.634,-0.151,140.0
35.725,1.458,-0.333,0.0
29.898,1.229,-0.445,1.0
23.651,0.984,0.299,1.0
23.629,0.99,0.167,22.0
23.648,0.998,0.035,37.0
23.633,1.004,-0.098,43.0
23.626,1.012,-0.23,45.0
23.623,1.019,-0.362,45.0
23.597,1.029,0.288,50.0
23.601,1.036,0.156,60.0
23.598,1.043,0.025,66.0
23.604,1.05,-0.109,68.0
23.609,1.058,-0.24,71.0
23.604,1.065,-0.372,72.0
23.602,1.077,0.277,72.0
23.601,1.083,0.145,66.0
23.592,1.09,0.013,61.0
23.607,1.098,-0.12,53.0
23.621,1.106,-0.252,43.0
23.635,1.113,-0.385,37.0
23.631,1.124,0.265,39.0
23.644,1.132,0.133,37.0
45.186,2.178,0.002,6.0
40.328,1.956,-0.227,19.0
33.955,1.657,-0.381,7.0
28.328,1.391,-0.476,1.0
45.2,2.242,0.483,1.0
45.196,2.254,0.23,8.0
45.19,2.267,-0.022,27.0
40.243,2.031,-0.249,32.0
31.827,1.615,-0.375,2.0
27.637,1.411,-0.481,2.0
99.784,5.142,1.009,30.0
45.189,2.341,0.203,14.0
45.18,2.354,-0.049,6.0
40.011,2.096,-0.271,15.0
32.06,1.688,-0.397,9.0
26.999,1.43,-0.486,1.0
45.219,2.417,0.43,15.0
45.175,2.427,0.176,28.0
40.331,2.178,-0.069,36.0
39.688,2.155,-0.294,7.0
31.338,1.711,-0.408,7.0
26.682,1.464,-0.497,2.0
45.227,2.503,0.401,1.0
45.172,2.512,0.147,41.0
40.322,2.253,-0.095,44.0
37.394,2.101,-0.301,5.0
30.604,1.728,-0.418,8.0
26.21,1.487,-0.506,1.0
99.478,5.692,0.815,2.0
45.17,2.597,0.116,45.0
40.322,2.329,-0.122,46.0
35.687,2.071,-0.312,5.0
29.655,1.729,-0.426,8.0
25.461,1.492,-0.509,1.0
45.232,2.671,0.339,150.0
45.184,2.681,0.084,46.0
40.327,2.404,-0.151,49.0
35.241,2.11,-0.333,11.0
28.95,1.741,-0.437,7.0
24.769,1.496,-0.513,1.0
62.68,3.817,0.424,2.0
45.183,2.763,0.051,49.0
40.322,2.476,-0.181,46.0
33.807,2.085,-0.345,10.0
28.259,1.75,-0.448,7.0
24.465,1.522,-0.525,2.0
54.251,3.401,0.325,5.0
45.169,2.843,0.016,50.0
40.318,2.548,-0.212,41.0
32.266,2.048,-0.355,5.0
27.595,1.758,-0.459,7.0
24.263,1.552,-0.54,1.0
45.184,2.913,0.235,32.0
45.169,2.924,-0.019,10.0
40.209,2.612,-0.244,21.0
31.63,2.063,-0.373,9.0
26.764,1.753,-0.467,6.0
19.968,1.313,-0.461,1.0
44.81,2.967,0.196,50.0
40.32,2.68,-0.05,35.0
0.0,0.0,0.0,0.0
30.754,2.059,-0.389,9.0
26.092,1.754,-0.477,6.0
19.784,1.335,-0.473,5.0
42.15,2.863,0.148,4.0
40.33,2.75,-0.085,45.0
37.088,2.538,-0.288,4.0
30.034,2.062,-0.406,8.0
25.484,1.756,-0.488,6.0
19.73,1.364,-0.489,9.0
41.796,2.909,0.11,5.0
40.33,2.817,-0.121,43.0
35.873,2.514,-0.31,7.0
29.009,2.04,-0.418,8.0
24.788,1.749,-0.497,5.0
19.941,1.412,-0.513,10.0
40.457,2.883,0.07,3.0
40.32,2.883,-0.157,51.0
34.463,2.472,-0.329,10.0
28.384,2.042,-0.435,8.0
24.338,1.757,-0.51,5.0
19.712,1.428,-0.525,8.0
40.326,2.939,0.032,46.0
40.313,2.948,-0.195,40.0
33.015,2.422,-0.347,10.0
27.269,2.007,-0.444,7.0
23.943,1.767,-0.525,5.0
19.708,1.459,-0.544,9.0
0.0,0.0,0.0,0.0
39.907,2.981,-0.232,5.0
31.796,2.383,-0.365,9.0
26.496,1.991,-0.457,6.0
19.872,1.498,-0.455,2.0
19.712,1.491,-0.563,10.0
41.915,3.188,-0.047,130.0
37.951,2.894,-0.258,6.0
30.807,2.356,-0.384,9.0
25.63,1.966,-0.467,6.0
19.722,1.517,-0.472,7.0
19.679,1.519,-0.582,9.0
0.0,0.0,0.0,0.0
36.378,2.83,-0.284,6.0
29.733,2.32,-0.401,8.0
24.921,1.95,-0.48,6.0
19.702,1.546,-0.491,9.0
19.477,1.532,-0.596,3.0
40.072,3.17,-0.127,33.0
35.161,2.789,-0.311,9.0
28.674,2.28,-0.417,7.0
24.253,1.933,-0.492,5.0
19.709,1.575,-0.512,9.0
19.003,1.523,-0.602,3.0
40.065,3.227,-0.17,29.0
32.773,2.646,-0.325,6.0
27.771,2.248,-0.433,7.0
23.937,1.943,-0.512,5.0
19.715,1.604,-0.533,8.0
18.755,1.53,-0.614,3.0
39.937,3.274,-0.212,28.0
32.152,2.642,-0.353,10.0
26.651,2.195,-0.444,6.0
19.863,1.64,-0.446,2.0
19.481,1.613,-0.549,10.0
18.367,1.524,-0.622,2.0
39.877,3.325,-0.256,4.0
30.709,2.566,-0.372,9.0
25.595,2.144,-0.455,8.0
19.722,1.656,-0.465,6.0
18.952,1.595,-0.555,13.0
18.13,1.529,-0.634,2.0
36.02,3.052,-0.272,5.0
29.552,2.51,-0.391,8.0
24.947,2.123,-0.472,6.0
19.701,1.68,-0.487,9.0
18.921,1.618,-0.576,11.0
17.721,1.519,-0.64,2.0
34.804,2.994,-0.302,11.0
28.612,2.467,-0.411,7.0
24.3,2.1,-0.488,5.0
19.701,1.706,-0.51,6.0
18.94,1.644,-0.598,15.0
17.457,1.518,-0.651,2.0
33.053,2.886,-0.325,10.0
27.461,2.403,-0.427,7.0
23.564,2.066,-0.501,5.0
20.408,1.793,-0.552,4.0
18.922,1.666,-0.62,14.0
17.292,1.526,-0.665,2.0
31.689,2.807,-0.349,9.0
26.276,2.332,-0.439,6.0
22.954,2.041,-0.515,5.0
20.019,1.783,-0.565,4.0
18.774,1.676,-0.637,7.0
17.017,1.522,-0.675,1.0
0.0,0.0,0.0,0.0
25.342,2.279,-0.454,6.0
22.19,1.999,-0.524,4.0
19.272,1.739,-0.567,6.0
18.143,1.641,-0.637,5.0
16.807,1.523,-0.687,1.0
29.138,2.649,-0.391,8.0
24.694,2.249,-0.472,5.0
21.529,1.964,-0.534,5.0
18.954,1.732,-0.581,13.0
17.782,1.628,-0.646,6.0
16.644,1.527,-0.7,1.0
27.352,2.517,-0.4,19.0
23.871,2.2,-0.485,5.0
20.921,1.932,-0.545,5.0
18.51,1.712,-0.59,11.0
17.692,1.639,-0.665,2.0
16.459,1.528,-0.713,1.0
26.834,2.498,-0.425,7.0
23.289,2.171,-0.502,5.0
18.924,1.767,-0.516,6.0
18.125,1.696,-0.6,13.0
17.483,1.639,-0.679,2.0
16.283,1.529,-0.725,1.0
25.718,2.421,-0.44,6.0
22.381,2.11,-0.511,5.0
18.761,1.771,-0.535,17.0
17.858,1.689,-0.614,16.0
16.937,1.604,-0.679,1.0
15.972,1.515,-0.732,4.0
25.001,2.378,-0.459,6.0
21.755,2.072,-0.524,7.0
18.356,1.751,-0.547,16.0
17.758,1.697,-0.633,23.0
16.634,1.592,-0.688,1.0
15.924,1.526,-0.75,6.0
24.238,2.329,-0.476,5.0
21.321,2.051,-0.54,4.0
18.155,1.749,-0.564,16.0
17.603,1.698,-0.65,17.0
16.472,1.592,-0.702,2.0
15.73,1.522,-0.761,1.0
23.512,2.28,-0.492,5.0
18.579,1.804,-0.494,8.0
17.942,1.745,-0.58,15.0
17.44,1.698,-0.666,17.0
16.267,1.586,-0.714,2.0
15.318,1.496,-0.761,0.0
22.693,2.221,-0.504,5.0
18.299,1.793,-0.511,17.0
17.682,1.735,-0.595,16.0
17.144,1.684,-0.677,13.0
16.033,1.577,-0.725,6.0
14.997,1.477,-0.764,0.0
21.973,2.168,-0.516,7.0
17.89,1.767,-0.523,17.0
17.538,1.735,-0.613,15.0
16.975,1.681,-0.692,12.0
15.941,1.581,-0.742,6.0
14.708,1.46,-0.769,0.0
21.553,2.143,-0.535,5.0
17.74,1.766,-0.541,16.0
17.398,1.734,-0.631,14.0
16.631,1.66,-0.7,11.0
15.912,1.59,-0.761,1.0
14.459,1.447,-0.775,0.0
18.313,1.835,-0.478,16.0
17.637,1.769,-0.562,17.0
17.267,1.734,-0.649,12.0
16.356,1.644,-0.71,7.0
15.398,1.55,-0.757,0.0
14.315,1.442,-0.786,0.0
18.039,1.82,-0.495,17.0
17.432,1.76,-0.578,15.0
17.01,1.719,-0.662,12.0
16.042,1.623,-0.718,6.0
14.97,1.517,-0.756,0.0
13.901,1.41,-0.782,0.0
17.798,1.807,-0.512,19.0
17.321,1.76,-0.597,17.0
16.911,1.72,-0.68,13.0
15.929,1.622,-0.734,7.0
14.696,1.498,-0.761,0.0
13.687,1.397,-0.788,0.0
17.661,1.804,-0.531,20.0
17.148,1.753,-0.614,14.0
16.794,1.718,-0.698,12.0
15.893,1.628,-0.753,1.0
14.529,1.489,-0.772,0.0
13.492,1.385,-0.795,0.0
17.532,1.8,-0.55,19.0
16.987,1.746,-0.631,14.0
16.576,1.705,-0.71,7.0
15.301,1.575,-0.745,0.0
17.685,1.822,-0.963,0.0
13.262,1.368,-0.799,0.0
17.357,1.791,-0.568,19.0
16.85,1.74,-0.648,13.0
16.157,1.67,-0.714,9.0
14.965,1.548,-0.749,0.0
17.726,1.835,-0.989,0.0
13.045,1.352,-0.803,0.0
17.241,1.787,-0.587,17.0
16.743,1.737,-0.666,13.0
16.001,1.661,-0.728,10.0
14.775,1.535,-0.759,0.0
13.676,1.422,-0.781,0.0
12.896,1.342,-0.811,0.0
17.041,1.774,-0.603,16.0
16.675,1.737,-0.685,11.0
15.969,1.664,-0.748,2.0
14.49,1.511,-0.764,0.0
13.453,1.404,-0.786,0.0
12.683,1.325,-0.815,0.0
16.859,1.761,-0.618,16.0
16.531,1.728,-0.701,10.0
17.664,1.848,-0.851,0.0
17.558,1.838,-0.948,0.0
13.335,1.397,-0.797,0.0
12.525,1.313,-0.821,0.0
16.766,1.757,-0.637,15.0
16.26,1.705,-0.711,11.0
17.783,1.866,-0.88,0.0
17.621,1.85,-0.975,0.0
13.053,1.371,-0.798,0.0
12.263,1.289,-0.82,0.0
16.695,1.754,-0.656,16.0
16.029,1.685,-0.722,12.0
17.744,1.867,-0.901,0.0
13.831,1.456,-0.784,0.0
12.915,1.36,-0.806,0.0
12.099,1.275,-0.825,0.0
16.61,1.749,-0.675,13.0
16.0,1.686,-0.742,4.0
17.695,1.866,-0.922,0.0
13.511,1.425,-0.783,0.0
12.71,1.341,-0.81,0.0
11.849,1.251,-0.823,0.0
16.458,1.737,-0.69,12.0
16.701,1.763,-0.796,1.0
17.575,1.856,-0.939,0.0
13.359,1.411,-0.792,0.0
12.558,1.328,-0.817,0.0
11.671,1.234,-0.826,0.0
16.302,1.723,-0.704,12.0
17.677,1.869,-0.865,0.0
17.59,1.86,-0.962,0.0
13.128,1.389,-0.795,0.0
12.313,1.303,-0.817,0.0
11.505,1.218,-0.829,0.0
16.086,1.701,-0.716,12.0
17.718,1.875,-0.89,0.0
17.704,1.874,-0.991,0.0
12.997,1.376,-0.804,0.0
12.166,1.289,-0.822,0.0
11.241,1.191,-0.825,0.0
15.978,1.691,-0.731,9.0
17.74,1.878,-0.914,0.0
13.663,1.447,-0.782,0.0
12.79,1.355,-0.807,0.0
11.954,1.267,-0.823,0.0
11.166,1.184,-0.833,0.0
16.207,1.715,-0.762,2.0
17.671,1.871,-0.932,0.0
13.517,1.431,-0.791,0.0
12.659,1.341,-0.815,0.0
11.758,1.246,-0.825,0.0
11.028,1.169,-0.837,0.0
0.0,0.0,0.0,0.0
17.557,1.858,-0.948,0.0
13.226,1.4,-0.79,0.0
12.366,1.309,-0.811,0.0
11.582,1.227,-0.827,0.0
10.85,1.149,-0.837,0.0
17.738,1.876,-0.878,0.0
17.616,1.863,-0.973,0.0
13.083,1.384,-0.798,0.0
12.258,1.297,-0.819,0.0
11.38,1.204,-0.826,0.0
10.779,1.141,-0.845,0.0
17.759,1.876,-0.9,0.0
13.755,1.453,-0.776,0.0
12.92,1.365,-0.803,0.0
12.119,1.28,-0.825,0.0
11.201,1.184,-0.827,0.0
10.628,1.123,-0.846,0.0
17.714,1.868,-0.919,0.0
13.568,1.431,-0.782,0.0
12.768,1.347,-0.809,0.0
11.862,1.251,-0.821,0.0
11.083,1.169,-0.831,0.0
10.513,1.109,-0.849,0.0
17.619,1.855,-0.935,0.0
13.41,1.412,-0.789,0.0
12.639,1.33,-0.816,0.0
11.75,1.237,-0.828,0.0
11.004,1.158,-0.838,0.0
10.388,1.094,-0.852,0.0
17.589,1.847,-0.954,0.0
13.2,1.386,-0.792,0.0
12.426,1.305,-0.817,0.0
11.59,1.217,-0.83,0.0
10.854,1.14,-0.84,0.0
10.255,1.077,-0.853,0.0
17.657,1.849,-0.978,0.0
13.028,1.364,-0.796,0.0
12.232,1.281,-0.818,0.0
11.322,1.185,-0.824,0.0
10.727,1.123,-0.842,0.0
10.153,1.063,-0.856,0.0
13.729,1.433,-0.776,0.0
12.965,1.353,-0.807,0.0
12.014,1.254,-0.817,0.0
11.21,1.17,-0.828,0.0
10.627,1.109,-0.846,0.0
10.091,1.053,-0.862,0.0
13.617,1.416,-0.785,0.0
12.772,1.328,-0.809,0.0
11.939,1.241,-0.825,0.0
11.085,1.152,-0.831,0.0
10.5,1.091,-0.848,0.0
10.045,1.044,-0.869,0.0
13.378,1.386,-0.785,0.0
12.659,1.311,-0.816,0.0
11.784,1.22,-0.827,0.0
11.034,1.142,-0.839,0.0
10.423,1.079,-0.853,0.0
9.934,1.028,-0.87,0.0
13.271,1.369,-0.793,0.0
12.468,1.285,-0.817,0.0
11.624,1.198,-0.828,0.0
10.842,1.117,-0.836,0.0
10.31,1.062,-0.854,0.0
9.828,1.012,-0.871,0.0
13.055,1.34,-0.794,0.0
12.316,1.264,-0.82,0.0
