X,Y,Z,Reflectivity
19.757,-0.295,0.199,20.0
192.022,-2.833,7.203,21.0
162.603,-2.362,5.155,41.0
163.439,-2.338,4.234,20.0
19.758,-0.278,0.395,2.0
19.75,-0.274,0.28,9.0
19.741,-0.269,0.166,30.0
191.602,-2.576,6.867,16.0
163.439,-2.161,4.907,16.0
19.772,-0.257,0.478,3.0
19.735,-0.252,0.361,9.0
19.741,-0.248,0.247,10.0
19.757,-0.244,0.132,4.0
162.584,-1.975,5.547,17.0
19.773,-0.236,0.559,6.0
19.739,-0.231,0.444,9.0
19.737,-0.227,0.327,8.0
19.766,-0.223,0.213,2.0
0.0,0.0,0.0,0.0
19.773,-0.215,0.64,7.0
19.754,-0.211,0.525,10.0
19.747,-0.207,0.41,8.0
19.747,-0.203,0.293,1.0
111.089,-1.121,1.008,150.0
0.0,0.0,0.0,0.0
19.747,-0.191,0.605,10.0
19.749,-0.187,0.49,8.0
19.767,-0.183,0.376,1.0
111.287,-1.012,1.461,27.0
111.294,-0.99,0.815,1.0
0.0,0.0,0.0,0.0
19.764,-0.167,0.57,7.0
19.766,-0.164,0.455,2.0
177.146,-1.435,3.057,12.0
111.182,-0.879,1.261,2.0
0.0,0.0,0.0,0.0
19.76,-0.148,-0.005,6.0
19.775,-0.144,0.535,2.0
19.697,-0.14,0.419,0.0
19.747,-0.137,0.305,0.0
19.738,-0.133,0.188,7.0
19.742,-0.129,0.073,8.0
19.746,-0.126,-0.041,9.0
19.668,-0.121,0.496,9.0
19.689,-0.118,0.382,8.0
19.693,-0.114,0.268,7.0
19.711,-0.111,0.152,13.0
19.716,-0.107,0.037,13.0
19.716,-0.104,-0.077,12.0
19.654,-0.1,0.46,10.0
19.666,-0.096,0.345,9.0
19.687,-0.093,0.231,12.0
19.694,-0.089,0.115,14.0
19.702,-0.086,0.0,16.0
19.724,-0.082,-0.113,17.0
19.648,-0.078,0.423,10.0
19.657,-0.075,0.309,9.0
19.691,-0.072,0.195,14.0
19.694,-0.068,0.078,15.0
19.706,-0.065,-0.035,17.0
19.722,-0.062,-0.15,15.0
19.638,-0.058,0.386,10.0
19.643,-0.055,0.272,10.0
19.681,-0.051,0.157,13.0
19.68,-0.048,0.041,16.0
19.728,-0.045,-0.073,10.0
19.75,-0.042,-0.188,12.0
19.628,-0.038,0.348,11.0
19.648,-0.035,0.235,15.0
19.686,-0.032,0.12,10.0
19.713,-0.029,0.004,14.0
19.751,-0.026,-0.11,9.0
19.728,-0.023,-0.225,0.0
19.631,-0.019,0.311,14.0
19.642,-0.016,0.196,13.0
19.732,-0.013,0.083,4.0
19.741,-0.01,-0.033,9.0
19.685,-0.007,-0.148,0.0
36.652,-0.008,-0.489,0.0
19.63,-0.001,0.273,14.0
19.785,0.001,0.159,2.0
19.78,0.004,0.044,3.0
19.755,0.007,-0.072,15.0
19.767,0.01,-0.187,1.0
19.776,0.013,-0.302,4.0
19.636,0.016,0.235,17.0
19.747,0.019,0.121,15.0
19.737,0.022,0.006,16.0
19.751,0.025,-0.11,6.0
19.762,0.028,-0.225,16.0
19.772,0.031,-0.341,13.0
19.693,0.033,0.196,13.0
19.756,0.036,0.082,17.0
19.749,0.039,-0.032,52.0
19.752,0.042,-0.149,18.0
19.755,0.044,-0.264,67.0
19.777,0.047,-0.38,24.0
19.717,0.05,0.158,14.0
19.762,0.053,0.043,39.0
19.762,0.055,-0.071,62.0
19.775,0.058,-0.188,55.0
19.771,0.061,-0.304,33.0
19.782,0.063,-0.419,32.0
19.696,0.065,0.119,17.0
19.77,0.068,0.004,35.0
19.758,0.071,-0.11,17.0
19.753,0.073,-0.228,12.0
19.764,0.076,-0.343,9.0
19.775,0.079,-0.458,4.0
19.696,0.08,0.079,14.0
19.742,0.083,-0.035,5.0
19.772,0.086,-0.15,0.0
19.782,0.088,-0.268,0.0
30.353,0.14,-0.588,0.0
26.281,0.124,-0.663,0.0
19.673,0.095,0.039,10.0
19.711,0.097,-0.074,2.0
41.678,0.211,-0.401,0.0
0.0,0.0,0.0,0.0
28.773,0.152,-0.615,0.0
25.178,0.136,-0.685,0.0
19.66,0.108,0.0,13.0
19.693,0.111,-0.114,5.0
0.0,0.0,0.0,0.0
32.195,0.189,-0.566,0.0
27.223,0.163,-0.637,0.0
23.68,0.144,-0.693,0.0
19.661,0.121,-0.039,10.0
19.688,0.123,-0.154,4.0
0.0,0.0,0.0,0.0
29.515,0.192,-0.579,0.0
25.966,0.171,-0.661,0.0
22.5,0.151,-0.704,0.0
19.67,0.133,-0.08,12.0
19.683,0.135,-0.194,3.0
0.0,0.0,0.0,0.0
28.367,0.201,-0.614,0.0
25.055,0.18,-0.688,0.0
21.476,0.157,-0.716,0.0
19.662,0.145,-0.119,13.0
19.682,0.147,-0.234,3.0
19.68,0.149,-0.349,0.0
19.686,0.151,-0.466,0.0
19.767,0.153,-0.583,0.0
20.947,0.165,-0.741,0.0
19.659,0.155,-0.16,14.0
19.683,0.157,-0.275,5.0
19.684,0.159,-0.39,8.0
19.686,0.161,-0.507,3.0
19.71,0.163,-0.623,2.0
19.727,0.165,-0.738,1.0
19.658,0.165,-0.2,15.0
19.667,0.167,-0.315,9.0
19.678,0.169,-0.43,11.0
19.67,0.171,-0.547,8.0
19.705,0.173,-0.663,7.0
19.56,0.173,-0.772,2.0
19.659,0.174,-0.241,16.0
19.66,0.176,-0.355,15.0
19.669,0.178,-0.471,12.0
19.683,0.18,-0.588,10.0
19.691,0.181,-0.703,6.0
18.895,0.176,-0.785,0.0
19.665,0.183,-0.281,16.0
19.671,0.185,-0.396,18.0
19.669,0.186,-0.511,14.0
19.677,0.188,-0.628,13.0
19.643,0.189,-0.742,6.0
18.222,0.177,-0.795,0.0
19.664,0.191,-0.322,15.0
19.672,0.192,-0.437,19.0
19.665,0.194,-0.552,15.0
19.672,0.195,-0.669,14.0
19.483,0.195,-0.776,1.0
17.585,0.177,-0.803,0.0
19.661,0.198,-0.363,16.0
19.671,0.199,-0.478,17.0
19.675,0.201,-0.593,17.0
19.664,0.202,-0.709,8.0
18.713,0.193,-0.785,0.0
16.928,0.176,-0.809,0.0
19.678,0.204,-0.403,22.0
19.669,0.205,-0.518,17.0
19.67,0.207,-0.633,17.0
19.606,0.207,-0.748,4.0
18.107,0.192,-0.796,0.0
16.259,0.174,-0.81,0.0
19.663,0.209,-0.444,25.0
19.674,0.211,-0.559,18.0
19.67,0.212,-0.674,17.0
19.4,0.21,-0.78,1.0
17.506,0.19,-0.806,0.0
15.746,0.172,-0.817,0.0
19.669,0.214,-0.484,18.0
19.685,0.215,-0.6,18.0
19.642,0.216,-0.713,8.0
18.531,0.205,-0.783,0.0
16.766,0.186,-0.806,0.0
15.379,0.171,-0.83,0.0
19.671,0.218,-0.525,18.0
19.684,0.219,-0.64,17.0
19.584,0.219,-0.751,3.0
17.953,0.202,-0.795,0.0
16.136,0.182,-0.809,0.0
14.901,0.169,-0.835,0.0
19.672,0.222,-0.565,18.0
19.681,0.223,-0.68,15.0
19.324,0.219,-0.781,0.0
17.315,0.197,-0.803,0.0
15.709,0.179,-0.82,0.0
14.508,0.166,-0.842,0.0
19.677,0.224,-0.605,17.0
19.635,0.224,-0.719,7.0
18.476,0.212,-0.784,0.0
16.661,0.191,-0.806,0.0
15.273,0.176,-0.829,0.0
14.05,0.162,-0.845,0.0
19.676,0.226,-0.645,16.0
19.538,0.225,-0.755,3.0
17.877,0.206,-0.795,0.0
15.992,0.185,-0.806,0.0
14.837,0.172,-0.835,0.0
13.65,0.159,-0.848,0.0
19.677,0.227,-0.686,14.0
19.143,0.221,-0.779,0.0
17.206,0.199,-0.8,0.0
15.645,0.181,-0.821,0.0
14.474,0.168,-0.844,0.0
13.308,0.155,-0.854,1.0
19.635,0.226,-0.723,7.0
18.4,0.213,-0.785,0.0
16.602,0.192,-0.805,0.0
15.167,0.176,-0.826,0.0
13.977,0.162,-0.843,0.0
12.975,0.151,-0.859,2.0
19.528,0.225,-0.759,3.0
17.809,0.205,-0.796,0.0
15.91,0.184,-0.804,0.0
14.763,0.17,-0.834,0.0
13.598,0.157,-0.848,0.0
12.702,0.147,-0.866,1.0
19.021,0.218,-0.777,0.0
17.167,0.197,-0.801,0.0
15.628,0.179,-0.821,0.0
14.416,0.165,-0.843,0.0
13.226,0.152,-0.851,1.0
12.413,0.143,-0.871,0.0
18.303,0.208,-0.784,0.0
16.546,0.188,-0.805,0.0
15.18,0.172,-0.827,0.0
13.942,0.158,-0.843,0.0
12.969,0.147,-0.86,1.0
12.121,0.138,-0.875,0.0
17.76,0.199,-0.795,0.0
15.952,0.179,-0.808,0.0
14.793,0.166,-0.835,0.0
13.585,0.152,-0.848,1.0
12.69,0.142,-0.866,0.0
11.816,0.132,-0.876,1.0
17.135,0.189,-0.801,0.0
15.626,0.172,-0.821,0.0
14.393,0.159,-0.841,0.0
13.203,0.145,-0.85,1.0
12.384,0.136,-0.87,0.0
11.644,0.128,-0.886,0.0
16.541,0.179,-0.805,0.0
15.171,0.164,-0.827,0.0
13.938,0.15,-0.841,0.0
12.972,0.14,-0.86,1.0
12.108,0.13,-0.874,0.0
11.373,0.122,-0.887,0.0
15.989,0.169,-0.809,0.0
14.782,0.156,-0.834,0.0
13.564,0.143,-0.845,0.0
12.685,0.133,-0.865,0.0
11.808,0.124,-0.875,1.0
11.142,0.117,-0.891,0.0
15.571,0.16,-0.818,0.0
14.364,0.147,-0.838,0.0
13.272,0.136,-0.852,1.0
12.394,0.127,-0.869,0.0
11.625,0.118,-0.883,0.0
10.925,0.111,-0.894,0.0
15.196,0.151,-0.827,0.0
13.948,0.139,-0.84,0.0
12.972,0.128,-0.857,1.0
12.111,0.12,-0.872,0.0
11.379,0.112,-0.886,0.0
10.733,0.105,-0.899,0.0
14.801,0.142,-0.833,0.0
13.605,0.13,-0.845,0.0
12.703,0.121,-0.863,0.0
11.902,0.113,-0.879,0.0
11.174,0.106,-0.891,0.0
10.52,0.099,-0.901,0.0
14.393,0.133,-0.837,0.0
13.325,0.122,-0.852,1.0
12.423,0.113,-0.867,0.0
11.624,0.106,-0.88,0.0
10.941,0.099,-0.893,0.0
10.315,0.093,-0.902,0.0
13.938,0.123,-0.835,0.0
13.011,0.114,-0.856,0.0
12.146,0.106,-0.87,0.0
11.427,0.099,-0.886,0.0
10.759,0.093,-0.897,0.0
10.143,0.087,-0.906,0.0
13.666,0.114,-0.844,0.0
12.752,0.106,-0.862,1.0
11.932,0.098,-0.876,0.0
11.203,0.092,-0.889,0.0
10.546,0.086,-0.898,0.0
9.974,0.081,-0.908,0.0
13.349,0.105,-0.848,0.0
12.472,0.097,-0.865,0.0
11.702,0.09,-0.88,0.0
10.997,0.084,-0.892,0.0
10.39,0.079,-0.904,0.0
9.778,0.074,-0.908,0.0
13.089,0.096,-0.854,0.0
12.241,0.089,-0.87,0.0
11.495,0.083,-0.884,0.0
10.79,0.077,-0.894,0.0
10.196,0.072,-0.905,0.0
9.666,0.068,-0.914,0.0
12.826,0.087,-0.859,0.0
11.997,0.08,-0.874,0.0
11.264,0.075,-0.886,0.0
10.594,0.069,-0.896,0.0
10.066,0.065,-0.911,0.0
9.474,0.061,-0.913,0.0
12.578,0.077,-0.864,0.0
11.775,0.072,-0.878,0.0
11.044,0.066,-0.888,0.0
10.429,0.062,-0.9,0.0
9.841,0.058,-0.907,0.0
9.338,0.054,-0.915,0.0
12.342,0.068,-0.868,0.0
11.554,0.063,-0.88,0.0
10.874,0.059,-0.892,0.0
10.27,0.054,-0.903,0.0
9.712,0.051,-0.911,0.0
9.222,0.047,-0.919,0.0
12.107,0.059,-0.871,0.0
11.397,0.055,-0.887,0.0
10.712,0.051,-0.896,0.0
10.102,0.047,-0.905,0.0
9.499,0.043,-0.907,0.0
9.042,0.04,-0.916,0.0
11.897,0.05,-0.876,0.0
11.173,0.046,-0.887,0.0
10.539,0.043,-0.898,0.0
9.962,0.039,-0.908,0.0
9.426,0.036,-0.915,0.0
8.945,0.034,-0.92,0.0
11.695,0.041,-0.879,0.0
11.002,0.038,-0.891,0.0
10.382,0.034,-0.901,0.0
9.735,0.031,-0.903,0.0
9.321,0.029,-0.919,0.0
8.813,0.027,-0.921,0.0
11.493,0.032,-0.882,0.0
10.823,0.029,-0.894,0.0
10.234,0.026,-0.905,0.0
9.645,0.024,-0.91,0.0
9.157,0.022,-0.917,0.0
8.723,0.02,-0.925,0.0
11.318,0.023,-0.886,0.0
10.662,0.02,-0.896,0.0
10.106,0.018,-0.908,0.0
9.469,0.016,-0.907,0.0
9.039,0.014,-0.919,0.0
8.62,0.013,-0.927,0.0
11.131,0.013,-0.888,0.0
10.507,0.011,-0.899,0.0
9.956,0.01,-0.91,0.0
9.403,0.008,-0.915,0.0
8.934,0.007,-0.921,0.0
8.498,0.005,-0.926,0.0
10.97,0.004,-0.891,0.0
10.379,0.003,-0.903,0.0
9.754,0.001,-0.905,0.0
9.283,0.0,-0.917,0.0
8.829,0.0,-0.923,0.0
8.41,-0.001,-0.929,0.0
10.829,-0.004,-0.894,0.0
10.221,-0.005,-0.904,0.0
9.663,-0.006,-0.91,0.0
9.175,-0.006,-0.919,0.0
8.719,-0.007,-0.924,0.0
8.338,-0.008,-0.932,0.0
10.665,-0.013,-0.896,0.0
10.084,-0.014,-0.905,0.0
9.508,-0.014,-0.909,0.0
9.049,-0.014,-0.919,0.0
8.623,-0.015,-0.926,0.0
8.235,-0.015,-0.932,0.0
10.534,-0.023,-0.899,0.0
9.966,-0.022,-0.908,0.0
9.442,-0.022,-0.915,0.0
8.956,-0.022,-0.921,0.0
8.532,-0.022,-0.927,0.0
8.115,-0.022,-0.929,0.0
10.414,-0.032,-0.902,0.0
9.815,-0.031,-0.907,0.0
9.338,-0.031,-0.917,0.0
8.854,-0.03,-0.922,0.0
8.444,-0.03,-0.929,0.0
8.045,-0.03,-0.932,0.0
10.258,-0.041,-0.902,0.0
9.689,-0.04,-0.908,0.0
9.224,-0.039,-0.918,0.0
8.75,-0.038,-0.922,0.0
8.386,-0.038,-0.933,0.0
7.966,-0.037,-0.933,0.0
10.149,-0.05,-0.905,0.0
9.565,-0.048,-0.908,0.0
9.112,-0.048,-0.918,0.0
8.676,-0.046,-0.925,0.0
8.262,-0.045,-0.929,0.0
7.925,-0.045,-0.937,0.0
10.019,-0.059,-0.905,0.0
9.492,-0.058,-0.912,0.0
8.999,-0.056,-0.917,0.0
8.557,-0.054,-0.923,0.0
8.207,-0.053,-0.933,0.0
7.869,-0.052,-0.94,0.0
9.916,-0.069,-0.907,0.0
9.371,-0.066,-0.911,0.0
8.897,-0.064,-0.917,1.0
8.51,-0.063,-0.927,0.0
8.162,-0.061,-0.937,0.0
7.807,-0.06,-0.942,0.0
9.807,-0.078,-0.908,0.0
9.305,-0.075,-0.915,0.0
8.848,-0.073,-0.922,0.0
8.411,-0.071,-0.926,0.0
8.042,-0.069,-0.932,0.0
7.72,-0.067,-0.94,0.0
9.667,-0.087,-0.906,0.0
9.199,-0.084,-0.915,0.0
8.782,-0.082,-0.924,0.0
8.347,-0.079,-0.928,0.0
8.008,-0.077,-0.937,0.0
7.674,-0.075,-0.942,0.0
9.595,-0.096,-0.909,0.0
9.11,-0.093,-0.915,0.0
8.693,-0.09,-0.924,0.0
8.295,-0.087,-0.93,0.0
7.926,-0.085,-0.935,0.0
7.607,-0.082,-0.942,0.0
9.529,-0.106,-0.912,0.0
9.049,-0.102,-0.918,0.0
8.643,-0.099,-0.927,0.0
8.232,-0.095,-0.931,0.0
7.896,-0.093,-0.939,0.0
7.528,-0.09,-0.939,0.0
9.445,-0.115,-0.913,0.0
8.98,-0.111,-0.92,0.0
8.552,-0.107,-0.925,0.0
8.172,-0.104,-0.932,0.0
7.86,-0.101,-0.942,0.0
7.497,-0.098,-0.942,0.0
9.356,-0.125,-0.913,0.0
8.895,-0.12,-0.919,0.0
8.499,-0.116,-0.927,0.0
8.105,-0.112,-0.932,0.0
7.758,-0.109,-0.937,0.0
7.479,-0.106,-0.947,0.0
9.27,-0.134,-0.912,0.0
8.834,-0.129,-0.92,0.0
8.434,-0.124,-0.927,0.0
8.04,-0.12,-0.931,0.0
7.727,-0.117,-0.94,0.0
7.381,-0.113,-0.94,0.0
9.225,-0.143,-0.916,0.0
8.755,-0.138,-0.919,0.0
8.37,-0.133,-0.927,0.0
7.992,-0.128,-0.932,0.0
7.675,-0.125,-0.94,0.0
7.373,-0.121,-0.945,0.0
9.177,-0.153,-0.918,0.0
8.734,-0.147,-0.924,0.0
8.328,-0.142,-0.929,0.0
7.943,-0.137,-0.932,0.0
7.673,-0.133,-0.945,0.0
7.321,-0.129,-0.944,0.0
9.113,-0.162,-0.918,0.0
8.67,-0.156,-0.923,0.0
8.271,-0.15,-0.928,0.0
7.912,-0.145,-0.935,0.0
7.606,-0.141,-0.942,0.0
7.301,-0.137,-0.947,0.0
9.073,-0.172,-0.921,0.0
8.636,-0.165,-0.926,0.0
8.235,-0.159,-0.93,0.0
7.896,-0.154,-0.938,0.0
7.56,-0.149,-0.942,0.0
7.256,-0.145,-0.946,0.0
8.999,-0.181,-0.919,0.0
8.583,-0.175,-0.926,0.0
8.206,-0.168,-0.932,0.0
7.847,-0.163,-0.937,0.0
7.556,-0.158,-0.946,0.0
7.214,-0.152,-0.945,0.0
8.952,-0.191,-0.92,0.0
8.554,-0.184,-0.928,0.0
8.152,-0.177,-0.931,0.0
7.81,-0.171,-0.937,0.0
7.512,-0.166,-0.945,0.0
7.195,-0.16,-0.946,0.0
8.923,-0.201,-0.922,0.0
8.515,-0.193,-0.928,0.0
8.106,-0.186,-0.93,0.0
7.798,-0.18,-0.94,0.0
7.476,-0.174,-0.944,0.0
7.148,-0.168,-0.944,0.0
8.875,-0.21,-0.921,0.0
8.467,-0.202,-0.927,0.0
8.106,-0.195,-0.934,0.0
7.734,-0.188,-0.936,0.0
7.44,-0.182,-0.943,0.0
7.196,-0.178,-0.954,0.0
8.82,-0.219,-0.92,0.0
8.429,-0.211,-0.927,0.0
8.075,-0.204,-0.934,0.0
7.712,-0.196,-0.937,0.0
7.391,-0.19,-0.94,0.0
7.151,-0.185,-0.951,0.0
8.801,-0.229,-0.921,0.0
8.385,-0.22,-0.925,0.0
8.042,-0.213,-0.933,0.0
7.7,-0.205,-0.939,0.0
7.397,-0.199,-0.944,0.0
7.108,-0.192,-0.948,0.0
8.743,-0.238,-0.919,0.0
8.369,-0.23,-0.927,0.0
8.048,-0.222,-0.937,0.0
7.681,-0.214,-0.939,0.0
7.381,-0.207,-0.945,0.0
7.099,-0.201,-0.949,0.0
8.75,-0.249,-0.922,0.0
8.349,-0.239,-0.927,0.0
8.032,-0.232,-0.938,0.0
7.653,-0.222,-0.938,0.0
7.367,-0.216,-0.945,0.0
7.081,-0.209,-0.949,0.0
8.748,-0.259,-0.924,0.0
8.342,-0.249,-0.929,0.0
7.992,-0.24,-0.935,0.0
7.663,-0.232,-0.941,0.0
7.357,-0.224,-0.946,0.0
7.062,-0.217,-0.948,0.0
8.743,-0.269,-0.926,0.0
8.323,-0.258,-0.929,0.0
8.001,-0.25,-0.938,0.0
7.645,-0.24,-0.941,0.0
7.384,-0.234,-0.951,0.0
7.046,-0.225,-0.948,0.0
8.733,-0.279,-0.927,0.0
8.32,-0.268,-0.93,0.0
7.974,-0.259,-0.937,0.0
7.632,-0.249,-0.94,0.0
7.357,-0.242,-0.949,0.0
7.058,-0.233,-0.95,0.0
8.724,-0.29,-0.927,0.0
8.332,-0.278,-0.932,0.0
7.968,-0.268,-0.937,0.0
7.632,-0.258,-0.941,0.0
7.327,-0.249,-0.946,0.0
7.085,-0.243,-0.955,0.0
8.715,-0.299,-0.927,0.0
8.309,-0.287,-0.931,0.0
7.948,-0.276,-0.935,0.0
7.615,-0.267,-0.94,0.0
7.355,-0.259,-0.95,0.0
7.013,-0.249,-0.945,0.0
8.701,-0.309,-0.926,0.0
8.314,-0.297,-0.932,0.0
7.923,-0.285,-0.933,0.0
7.618,-0.276,-0.941,0.0
7.325,-0.267,-0.946,0.0
7.036,-0.258,-0.949,0.0
8.686,-0.319,-0.925,0.0
8.309,-0.307,-0.931,0.0
7.91,-0.294,-0.931,0.0
7.624,-0.285,-0.941,0.0
7.332,-0.275,-0.947,0.0
7.031,-0.266,-0.948,0.0
8.675,-0.328,-0.923,0.0
8.312,-0.316,-0.931,0.0
7.936,-0.304,-0.934,0.0
7.599,-0.293,-0.938,0.0
7.307,-0.283,-0.943,0.0
7.052,-0.275,-0.95,0.0
8.709,-0.34,-0.926,0.0
8.293,-0.325,-0.928,0.0
7.965,-0.314,-0.936,0.0
7.609,-0.302,-0.938,0.0
7.336,-0.293,-0.946,0.0
7.09,-0.284,-0.954,0.0
8.712,-0.35,-0.925,0.0
8.347,-0.337,-0.933,0.0
7.938,-0.322,-0.932,0.0
7.639,-0.312,-0.941,0.0
7.364,-0.302,-0.949,0.0
7.08,-0.292,-0.952,0.0
8.723,-0.36,-0.925,0.0
8.35,-0.346,-0.932,0.0
7.985,-0.333,-0.936,0.0
7.682,-0.322,-0.945,0.0
7.354,-0.31,-0.946,0.0
7.082,-0.3,-0.951,0.0
8.754,-0.371,-0.926,0.0
8.373,-0.357,-0.933,0.0
7.992,-0.342,-0.935,0.0
7.677,-0.33,-0.942,0.0
7.389,-0.32,-0.948,0.0
7.139,-0.311,-0.956,0.0
8.769,-0.382,-0.926,0.0
8.402,-0.367,-0.934,0.0
8.008,-0.352,-0.935,0.0
7.686,-0.339,-0.941,0.0
7.361,-0.327,-0.943,0.0
7.134,-0.318,-0.954,0.0
8.798,-0.392,-0.926,0.0
8.421,-0.377,-0.933,0.0
8.023,-0.361,-0.934,0.0
7.692,-0.348,-0.939,0.0
7.423,-0.338,-0.948,0.0
7.109,-0.325,-0.948,0.0
8.819,-0.403,-0.925,0.0
8.427,-0.387,-0.931,0.0
8.056,-0.371,-0.935,0.0
7.726,-0.358,-0.941,0.0
7.435,-0.346,-0.947,0.0
7.163,-0.335,-0.952,0.0
8.824,-0.412,-0.922,0.0
8.46,-0.397,-0.931,0.0
8.106,-0.382,-0.938,0.0
7.71,-0.365,-0.935,0.0
7.477,-0.356,-0.949,0.0
7.153,-0.342,-0.948,0.0
8.893,-0.425,-0.926,0.0
8.499,-0.408,-0.932,0.0
8.143,-0.393,-0.938,0.0
7.767,-0.376,-0.939,0.0
7.443,-0.362,-0.941,0.0
7.232,-0.353,-0.955,0.0
8.948,-0.437,-0.927,0.0
8.545,-0.419,-0.933,0.0
8.149,-0.401,-0.935,0.0
7.8,-0.386,-0.939,0.0
7.511,-0.373,-0.946,0.0
7.218,-0.36,-0.949,0.0
8.975,-0.447,-0.926,0.0
8.589,-0.43,-0.933,0.0
8.166,-0.41,-0.932,0.0
7.844,-0.396,-0.94,0.0
7.549,-0.382,-0.947,0.0
7.242,-0.368,-0.948,0.0
9.018,-0.458,-0.925,0.0
8.621,-0.44,-0.932,0.0
8.221,-0.421,-0.934,0.0
7.848,-0.404,-0.936,0.0
7.608,-0.393,-0.949,0.0
7.286,-0.378,-0.95,0.0
9.065,-0.47,-0.924,0.0
8.649,-0.45,-0.929,0.0
8.282,-0.432,-0.936,0.0
7.908,-0.414,-0.938,0.0
7.613,-0.401,-0.945,0.0
7.321,-0.387,-0.95,0.0
9.118,-0.481,-0.924,0.0
8.697,-0.46,-0.929,0.0
8.316,-0.442,-0.934,0.0
7.951,-0.424,-0.938,0.0
7.616,-0.408,-0.94,0.0
7.326,-0.394,-0.945,0.0
9.167,-0.492,-0.923,0.0
8.748,-0.471,-0.928,0.0
8.356,-0.452,-0.933,0.0
8.015,-0.435,-0.94,0.0
7.665,-0.417,-0.941,0.0
7.365,-0.403,-0.945,0.0
9.229,-0.504,-0.922,0.0
8.806,-0.482,-0.928,0.0
8.413,-0.462,-0.933,0.0
8.061,-0.445,-0.939,0.0
7.717,-0.427,-0.942,0.0
7.421,-0.412,-0.946,0.0
9.293,-0.515,-0.922,0.0
8.891,-0.495,-0.93,0.0
8.451,-0.472,-0.931,0.0
8.053,-0.451,-0.932,0.0
7.758,-0.436,-0.94,0.0
7.505,-0.423,-0.951,0.0
9.379,-0.528,-0.923,0.0
8.946,-0.505,-0.929,0.0
8.55,-0.484,-0.934,0.0
8.115,-0.461,-0.932,0.0
7.783,-0.444,-0.937,0.0
7.548,-0.432,-0.95,0.0
9.431,-0.539,-0.92,0.0
9.004,-0.516,-0.927,0.0
8.602,-0.494,-0.933,0.0
8.196,-0.473,-0.934,0.0
7.896,-0.457,-0.944,0.0
7.562,-0.439,-0.945,0.0
9.526,-0.552,-0.921,0.0
9.08,-0.528,-0.927,0.0
8.661,-0.505,-0.931,0.0
8.265,-0.483,-0.935,0.0
7.911,-0.464,-0.938,0.0
7.603,-0.447,-0.943,0.0
9.621,-0.565,-0.921,0.0
9.141,-0.538,-0.925,0.0
8.738,-0.516,-0.932,0.0
8.316,-0.492,-0.933,0.0
8.003,-0.475,-0.942,0.0
7.692,-0.458,-0.947,0.0
9.707,-0.577,-0.92,0.0
9.221,-0.55,-0.924,0.0
8.82,-0.527,-0.932,0.0
8.393,-0.503,-0.933,0.0
8.078,-0.486,-0.942,0.0
7.723,-0.466,-0.943,0.0
9.772,-0.588,-0.917,0.0
9.302,-0.561,-0.923,0.0
8.866,-0.536,-0.928,0.0
8.471,-0.514,-0.933,0.0
8.108,-0.493,-0.938,0.0
7.776,-0.474,-0.942,0.0
9.849,-0.599,-0.914,0.0
9.379,-0.572,-0.921,0.0
8.955,-0.548,-0.928,0.0
8.554,-0.524,-0.934,0.0
8.205,-0.504,-0.94,0.0
7.82,-0.482,-0.939,0.0
9.966,-0.613,-0.914,0.0
9.487,-0.585,-0.922,0.0
9.048,-0.559,-0.928,0.0
8.661,-0.537,-0.936,0.0
8.242,-0.512,-0.935,0.0
7.938,-0.494,-0.944,0.0
10.066,-0.625,-0.912,0.0
9.583,-0.597,-0.92,0.0
9.151,-0.571,-0.928,0.0
8.715,-0.545,-0.932,0.0
8.312,-0.521,-0.934,0.0
8.025,-0.504,-0.945,0.0
10.186,-0.639,-0.912,0.0
9.695,-0.609,-0.92,0.0
9.214,-0.58,-0.924,0.0
8.82,-0.557,-0.933,0.0
8.408,-0.532,-0.935,0.0
8.087,-0.513,-0.943,0.0
10.313,-0.652,-0.911,0.0
9.794,-0.621,-0.918,0.0
9.325,-0.592,-0.924,0.0
8.902,-0.567,-0.931,0.0
8.535,-0.545,-0.939,0.0
8.125,-0.519,-0.938,0.0
10.439,-0.666,-0.91,0.0
9.869,-0.631,-0.914,0.0
9.401,-0.602,-0.921,0.0
8.997,-0.577,-0.931,0.0
8.591,-0.552,-0.935,0.0
8.245,-0.531,-0.942,0.0
10.565,-0.679,-0.909,0.0
10.019,-0.645,-0.915,0.0
9.516,-0.614,-0.92,0.0
9.101,-0.588,-0.93,0.0
8.696,-0.563,-0.936,0.0
8.333,-0.541,-0.942,0.0
10.696,-0.692,-0.907,0.0
10.175,-0.659,-0.917,0.0
9.649,-0.627,-0.921,0.0
9.19,-0.598,-0.928,0.0
8.807,-0.574,-0.936,0.0
8.389,-0.548,-0.937,0.0
10.825,-0.705,-0.904,0.0
10.214,-0.666,-0.908,0.0
9.757,-0.637,-0.919,0.0
9.307,-0.609,-0.928,0.0
8.885,-0.582,-0.933,0.0
8.478,-0.557,-0.936,0.0
11.0,-0.72,-0.904,0.0
10.388,-0.681,-0.91,0.0
9.845,-0.647,-0.915,0.0
9.403,-0.619,-0.925,0.0
8.981,-0.592,-0.932,0.0
8.567,-0.566,-0.935,0.0
11.154,-0.734,-0.902,0.0
10.542,-0.695,-0.909,0.0
10.025,-0.662,-0.918,0.0
9.5,-0.628,-0.922,0.0
9.092,-0.602,-0.931,0.0
8.697,-0.577,-0.937,0.0
11.25,-0.744,-0.895,0.0
10.692,-0.708,-0.907,0.0
10.168,-0.674,-0.917,0.0
9.62,-0.639,-0.92,0.0
9.196,-0.611,-0.929,0.0
8.807,-0.586,-0.937,0.0
11.396,-0.757,-0.891,0.0
10.802,-0.718,-0.902,0.0
10.259,-0.683,-0.911,0.0
9.756,-0.65,-0.92,0.0
9.325,-0.622,-0.929,0.0
8.902,-0.595,-0.934,0.0
11.685,-0.779,-0.897,0.0
11.044,-0.737,-0.907,0.0
10.431,-0.697,-0.912,0.0
9.903,-0.662,-0.919,0.0
9.414,-0.63,-0.924,0.0
9.012,-0.604,-0.933,0.0
11.838,-0.791,-0.892,0.0
11.2,-0.749,-0.904,0.0
10.627,-0.711,-0.914,0.0
10.061,-0.674,-0.92,0.0
9.579,-0.643,-0.927,0.0
9.157,-0.615,-0.935,0.0
12.005,-0.804,-0.888,0.0
11.276,-0.756,-0.894,0.0
10.65,-0.714,-0.9,0.0
10.151,-0.681,-0.913,0.0
9.71,-0.653,-0.925,0.0
9.246,-0.622,-0.93,0.0
12.241,-0.821,-0.887,0.0
11.501,-0.772,-0.894,0.0
10.87,-0.73,-0.903,0.0
10.256,-0.689,-0.907,0.0
9.826,-0.661,-0.922,0.0
9.357,-0.63,-0.927,0.0
12.423,-0.834,-0.882,0.0
11.749,-0.789,-0.896,0.0
11.13,-0.748,-0.908,0.0
10.418,-0.701,-0.906,0.0
9.973,-0.671,-0.921,0.0
9.491,-0.639,-0.926,0.0
12.591,-0.846,-0.875,0.0
11.905,-0.8,-0.89,0.0
11.236,-0.755,-0.9,0.0
10.638,-0.716,-0.909,0.0
10.143,-0.683,-0.921,0.0
9.626,-0.648,-0.925,0.0
12.802,-0.86,-0.871,0.0
12.125,-0.815,-0.888,0.0
11.37,-0.764,-0.893,0.0
10.77,-0.724,-0.904,0.0
10.246,-0.689,-0.914,0.0
9.788,-0.659,-0.925,0.0
13.133,-0.881,-0.873,0.0
12.338,-0.828,-0.885,0.0
11.636,-0.781,-0.896,0.0
10.973,-0.737,-0.904,0.0
10.436,-0.701,-0.915,0.0
9.887,-0.664,-0.92,0.0
13.366,-0.895,-0.868,0.0
12.524,-0.839,-0.879,0.0
11.845,-0.794,-0.894,0.0
11.182,-0.75,-0.904,0.0
10.634,-0.713,-0.916,0.0
10.07,-0.675,-0.921,0.0
13.704,-0.916,-0.868,0.0
12.7,-0.849,-0.871,0.0
12.017,-0.803,-0.888,0.0
11.324,-0.757,-0.897,0.0
10.727,-0.717,-0.907,0.0
10.203,-0.682,-0.917,0.0
13.99,-0.933,-0.864,0.0
12.98,-0.865,-0.87,0.0
12.281,-0.819,-0.888,0.0
11.543,-0.769,-0.897,0.0
10.947,-0.73,-0.908,0.0
10.37,-0.691,-0.915,0.0
14.343,-0.953,-0.864,0.0
13.337,-0.886,-0.873,0.0
12.473,-0.829,-0.882,0.0
11.797,-0.784,-0.898,0.0
11.144,-0.74,-0.906,0.0
10.622,-0.705,-0.92,0.0
14.612,-0.967,-0.856,0.0
13.598,-0.9,-0.868,0.0
12.717,-0.841,-0.879,0.0
11.989,-0.793,-0.893,0.0
11.336,-0.749,-0.904,0.0
10.7,-0.707,-0.909,0.0
14.931,-0.984,-0.851,0.0
13.849,-0.912,-0.862,0.0
12.91,-0.85,-0.871,0.0
12.212,-0.803,-0.889,0.0
11.534,-0.758,-0.901,0.0
10.961,-0.72,-0.914,0.0
15.341,-1.005,-0.85,0.0
14.263,-0.934,-0.865,0.0
13.32,-0.872,-0.877,0.0
12.429,-0.813,-0.885,0.0
11.774,-0.77,-0.9,0.0
11.139,-0.728,-0.911,0.0
15.613,-1.017,-0.839,0.0
14.605,-0.951,-0.862,0.0
13.514,-0.879,-0.868,0.0
12.652,-0.822,-0.88,0.0
11.941,-0.775,-0.894,0.0
11.277,-0.732,-0.903,0.0
16.018,-1.037,-0.835,0.0
14.878,-0.962,-0.854,0.0
13.789,-0.891,-0.863,0.0
12.884,-0.832,-0.876,0.0
12.164,-0.784,-0.89,0.0
11.485,-0.74,-0.901,0.0
16.576,-1.065,-0.837,0.0
15.217,-0.976,-0.848,0.0
14.158,-0.908,-0.863,0.0
13.204,-0.845,-0.876,0.0
12.418,-0.794,-0.889,0.0
11.731,-0.75,-0.901,0.0
17.031,-1.085,-0.832,0.0
15.57,-0.991,-0.842,0.0
14.585,-0.927,-0.865,0.0
13.406,-0.851,-0.867,0.0
12.64,-0.802,-0.884,0.0
11.883,-0.753,-0.893,0.0
17.394,-1.099,-0.821,0.0
16.041,-1.012,-0.841,0.0
14.847,-0.935,-0.856,0.0
13.731,-0.864,-0.865,0.0
12.888,-0.81,-0.88,0.0
12.065,-0.757,-0.887,0.0
17.981,-1.125,-0.82,0.0
16.515,-1.032,-0.839,0.0
15.223,-0.949,-0.853,0.0
14.081,-0.877,-0.864,0.0
13.13,-0.816,-0.875,0.0
12.367,-0.768,-0.889,0.0
18.399,-1.139,-0.809,0.0
16.989,-1.05,-0.836,0.0
15.495,-0.956,-0.843,0.0
14.42,-0.888,-0.861,0.0
13.371,-0.822,-0.869,0.0
12.574,-0.772,-0.883,0.0
19.039,-1.166,-0.806,0.0
17.342,-1.06,-0.824,0.0
15.935,-0.972,-0.841,0.0
14.793,-0.901,-0.859,0.0
13.875,-0.843,-0.879,0.0
12.8,-0.777,-0.877,0.0
19.568,-1.184,-0.796,0.0
17.9,-1.081,-0.822,0.0
16.436,-0.99,-0.84,0.0
15.13,-0.91,-0.854,0.0
13.999,-0.84,-0.864,0.0
13.092,-0.784,-0.876,0.0
19.981,-1.194,-0.78,0.0
18.427,-1.099,-0.816,0.0
16.921,-1.006,-0.838,0.0
15.488,-0.919,-0.849,0.0
14.436,-0.855,-0.867,0.0
13.319,-0.787,-0.87,0.0
20.805,-1.226,-0.779,0.0
18.9,-1.111,-0.806,0.0
17.344,-1.017,-0.83,0.0
15.831,-0.926,-0.842,0.0
14.71,-0.859,-0.859,0.0
13.669,-0.796,-0.87,0.0
21.303,-1.237,-0.762,0.0
19.451,-1.127,-0.798,0.0
17.715,-1.024,-0.819,0.0
16.326,-0.941,-0.842,0.0
15.082,-0.867,-0.856,0.0
13.959,-0.801,-0.866,0.0
21.936,-1.254,-0.75,0.0
19.937,-1.137,-0.785,0.0
18.35,-1.044,-0.819,0.0
16.774,-0.952,-0.838,0.0
15.398,-0.871,-0.85,0.0
14.363,-0.81,-0.868,0.0
22.743,-1.279,-0.74,0.0
20.516,-1.151,-0.775,0.0
18.792,-1.051,-0.808,0.0
17.312,-0.966,-0.837,0.0
15.806,-0.879,-0.846,0.0
14.649,-0.812,-0.861,0.0
23.651,-1.307,-0.732,0.0
21.109,-1.163,-0.763,0.0
19.351,-1.063,-0.801,0.0
17.734,-0.971,-0.828,0.0
16.223,-0.886,-0.842,0.0
15.023,-0.818,-0.859,0.0
24.522,-1.331,-0.719,0.0
21.864,-1.182,-0.755,0.0
19.835,-1.069,-0.789,0.0
18.229,-0.98,-0.822,0.0
16.755,-0.897,-0.843,0.0
15.326,-0.818,-0.852,0.0
0.0,0.0,0.0,0.0
22.651,-1.201,-0.746,0.0
20.462,-1.081,-0.781,0.0
18.649,-0.982,-0.811,0.0
17.156,-0.9,-0.836,0.0
15.755,-0.824,-0.85,0.0
0.0,0.0,0.0,0.0
23.412,-1.216,-0.735,0.0
20.911,-1.082,-0.766,0.0
19.042,-0.982,-0.798,0.0
17.58,-0.903,-0.829,0.0
16.094,-0.824,-0.843,0.0
26.94,-1.374,-0.663,0.0
24.245,-1.232,-0.723,0.0
21.619,-1.094,-0.758,0.0
19.698,-0.993,-0.796,0.0
18.098,-0.909,-0.826,0.0
16.562,-0.828,-0.842,0.0
28.289,-1.41,-0.652,0.0
24.694,-1.226,-0.698,0.0
22.328,-1.104,-0.748,0.0
20.2,-0.994,-0.784,0.0
18.43,-0.903,-0.812,0.0
17.042,-0.832,-0.84,0.0
29.588,-1.439,-0.636,0.0
25.922,-1.255,-0.693,0.0
22.989,-1.108,-0.735,0.0
20.701,-0.994,-0.772,0.0
19.05,-0.91,-0.81,0.0
17.399,-0.828,-0.831,0.0
30.196,-1.431,-0.603,0.0
0.0,0.0,0.0,0.0
23.819,-1.118,-0.725,0.0
21.278,-0.994,-0.761,0.0
19.553,-0.909,-0.802,0.0
17.774,-0.823,-0.822,0.0
31.416,-1.448,-0.58,0.0
27.712,-1.271,-0.656,0.0
24.617,-1.124,-0.712,0.0
21.895,-0.994,-0.75,0.0
20.046,-0.906,-0.792,0.0
18.316,-0.824,-0.819,0.0
33.265,-1.49,-0.564,1.0
29.165,-1.3,-0.647,0.0
25.403,-1.126,-0.697,0.0
22.703,-1.001,-0.744,0.0
20.457,-0.897,-0.778,0.0
18.772,-0.819,-0.812,0.0
0.0,0.0,0.0,0.0
29.786,-1.287,-0.617,0.0
26.211,-1.127,-0.681,0.0
23.588,-1.008,-0.739,0.0
21.111,-0.897,-0.772,0.0
19.314,-0.816,-0.807,0.0
0.0,0.0,0.0,0.0
0.0,0.0,0.0,0.0
26.948,-1.12,-0.66,0.0
24.26,-1.002,-0.724,0.0
21.469,-0.882,-0.753,0.0
19.782,-0.808,-0.798,0.0
38.191,-1.553,-0.48,0.0
0.0,0.0,0.0,0.0
27.851,-1.118,-0.642,0.0
24.901,-0.993,-0.707,0.0
22.41,-0.888,-0.754,0.0
20.304,-0.8,-0.79,0.0
0.0,0.0,0.0,0.0
33.071,-1.288,-0.542,0.0
28.909,-1.119,-0.626,0.0
25.741,-0.989,-0.695,0.0
22.621,-0.863,-0.73,0.0
20.662,-0.783,-0.775,0.0
0.0,0.0,0.0,0.0
0.0,0.0,0.0,0.0
29.906,-1.112,-0.605,0.0
26.958,-0.995,-0.69,0.0
23.647,-0.867,-0.73,0.0
21.096,-0.768,-0.762,0.0
0.0,0.0,0.0,0.0
37.34,-1.341,-0.508,0.0
31.361,-1.118,-0.591,0.0
28.084,-0.993,-0.68,0.0
24.184,-0.849,-0.713,0.0
22.05,-0.768,-0.766,0.0
0.0,0.0,0.0,0.0
0.0,0.0,0.0,0.0
32.834,-1.119,-0.575,0.0
28.56,-0.965,-0.653,0.0
25.227,-0.846,-0.71,0.0
22.387,-0.744,-0.748,0.0
0.0,0.0,0.0,0.0
0.0,0.0,0.0,0.0
0.0,0.0,0.0,0.0
29.422,-0.947,-0.633,0.0
25.69,-0.82,-0.689,0.0
23.02,-0.728,-0.738,0.0
0.0,0.0,0.0,0.0
0.0,0.0,0.0,0.0
35.593,-1.099,-0.529,0.0
0.0,0.0,0.0,0.0
25.926,-0.786,-0.661,0.0
17.816,-0.534,-0.548,1.0
0.0,0.0,0.0,0.0
0.0,0.0,0.0,0.0
37.443,-1.093,-0.508,0.0
31.674,-0.916,-0.6,0.0
27.873,-0.798,-0.675,0.0
24.564,-0.696,-0.725,0.0
0.0,0.0,0.0,0.0
0.0,0.0,0.0,0.0
0.0,0.0,0.0,0.0
32.526,-0.886,-0.576,0.0
28.789,-0.775,-0.662,1.0
25.023,-0.667,-0.707,0.0
0.0,0.0,0.0,0.0
0.0,0.0,0.0,0.0
0.0,0.0,0.0,0.0
33.788,-0.862,-0.557,0.0
0.0,0.0,0.0,0.0
25.67,-0.64,-0.694,0.0
0.0,0.0,0.0,0.0
0.0,0.0,0.0,0.0
0.0,0.0,0.0,0.0
34.963,-0.831,-0.534,0.0
30.171,-0.708,-0.62,0.0
21.743,-0.503,-0.562,90.0
0.0,0.0,0.0,0.0
0.0,0.0,0.0,0.0
0.0,0.0,0.0,0.0
0.0,0.0,0.0,0.0
30.376,-0.659,-0.589,0.0
21.737,-0.465,-0.537,150.0
0.0,0.0,0.0,0.0
0.0,0.0,0.0,0.0
0.0,0.0,0.0,0.0
38.504,-0.778,-0.499,0.0
32.038,-0.637,-0.585,0.0
21.785,-0.427,-0.513,0.0
0.0,0.0,0.0,0.0
0.0,0.0,0.0,0.0
0.0,0.0,0.0,0.0
0.0,0.0,0.0,0.0
33.233,-0.601,-0.57,0.0
28.672,-0.509,-0.644,0.0
0.0,0.0,0.0,0.0
0.0,0.0,0.0,0.0
0.0,0.0,0.0,0.0
42.629,-0.705,-0.458,0.0
33.786,-0.549,-0.543,0.0
29.949,-0.477,-0.641,0.0
19.751,-0.309,0.125,16.0
0.0,0.0,0.0,0.0
0.0,0.0,0.0,0.0
0.0,0.0,0.0,0.0
35.033,-0.503,-0.526,0.0
30.239,-0.425,-0.615,0.0
19.755,-0.272,0.145,33.0
19.736,-0.265,0.04,0.0
0.0,0.0,0.0,0.0
0.0,0.0,0.0,0.0
36.587,-0.457,-0.513,0.0
30.633,-0.373,-0.592,0.0
19.761,-0.234,0.165,8.0
0.0,0.0,0.0,0.0
0.0,0.0,0.0,0.0
0.0,0.0,0.0,0.0
19.705,-0.208,-0.256,0.0
19.782,-0.202,-0.363,4.0
111.2,-1.109,1.04,151.0
0.0,0.0,0.0,0.0
0.0,0.0,0.0,0.0
19.767,-0.177,-0.133,9.0
19.746,-0.17,-0.238,13.0
19.745,-0.164,-0.344,15.0
111.403,-0.895,1.148,8.0
0.0,0.0,0.0,0.0
19.767,-0.145,-0.007,5.0
19.715,-0.138,-0.114,16.0
19.732,-0.132,-0.22,17.0
19.751,-0.126,-0.326,15.0
19.725,-0.12,0.221,9.0
19.728,-0.113,0.115,10.0
19.716,-0.107,0.01,13.0
19.713,-0.1,-0.097,14.0
19.721,-0.094,-0.202,17.0
19.755,-0.087,-0.309,16.0
19.68,-0.081,0.237,13.0
19.695,-0.074,0.132,16.0
19.7,-0.068,0.026,16.0
19.721,-0.061,-0.08,13.0
19.734,-0.055,-0.186,15.0
19.759,-0.048,-0.292,6.0
19.646,-0.042,0.253,12.0
19.68,-0.035,0.148,9.0
19.705,-0.029,0.043,14.0
19.73,-0.022,-0.064,10.0
19.762,-0.016,-0.17,1.0
0.0,0.0,0.0,0.0
19.638,-0.003,0.269,14.0
19.718,0.003,0.164,5.0
19.774,0.009,0.059,5.0
19.755,0.016,-0.049,150.0
19.749,0.022,-0.155,18.0
19.758,0.029,-0.261,10.0
19.622,0.035,0.284,12.0
19.679,0.042,0.179,11.0
19.741,0.049,0.073,58.0
19.758,0.055,-0.034,66.0
19.776,0.062,-0.14,58.0
19.772,0.069,-0.247,25.0
19.613,0.075,0.298,17.0
19.64,0.082,0.193,11.0
19.663,0.088,0.087,12.0
19.671,0.095,-0.02,8.0
19.717,0.102,-0.126,1.0
0.0,0.0,0.0,0.0
19.616,0.115,0.312,13.0
19.663,0.122,0.207,17.0
19.639,0.128,0.101,14.0
19.629,0.135,-0.006,16.0
19.645,0.142,-0.112,13.0
19.671,0.148,-0.218,9.0
19.635,0.155,0.325,11.0
19.655,0.162,0.22,14.0
19.657,0.169,0.113,11.0
19.633,0.175,0.005,14.0
19.625,0.182,-0.1,16.0
19.649,0.188,-0.206,16.0
19.735,0.197,0.339,9.0
19.745,0.204,0.233,14.0
19.756,0.21,0.126,17.0
19.67,0.216,0.017,9.0
19.634,0.222,-0.088,15.0
19.642,0.229,-0.194,17.0
19.711,0.237,0.351,12.0
19.736,0.244,0.244,15.0
19.772,0.252,0.138,19.0
0.0,0.0,0.0,0.0
19.692,0.264,-0.077,9.0
19.674,0.27,-0.183,14.0
19.709,0.279,0.362,14.0
19.732,0.285,0.255,5.0
160.719,2.38,1.211,13.0
0.0,0.0,0.0,0.0
52.39,0.811,-0.178,2.0
0.0,0.0,0.0,0.0
55.214,0.896,1.043,24.0
55.191,0.914,0.743,49.0
55.17,0.933,0.443,65.0
55.152,0.951,0.138,86.0
52.371,0.92,-0.152,3.0
39.547,0.708,-0.329,1.0
55.195,1.011,1.069,43.0
55.207,1.029,0.769,28.0
55.193,1.048,0.469,5.0
55.188,1.066,0.164,0.0
55.104,1.082,-0.135,2.0
40.763,0.814,-0.321,0.0
179.275,3.657,3.552,29.0
163.332,3.386,2.347,18.0
122.345,2.578,1.093,8.0
79.741,1.707,0.27,2.0
0.0,0.0,0.0,0.0
40.437,0.892,-0.302,2.0
179.203,4.034,3.623,31.0
128.68,2.94,1.901,24.0
70.908,1.643,0.661,8.0
70.93,1.666,0.267,7.0
0.0,0.0,0.0,0.0
40.304,0.974,-0.286,2.0
129.109,3.177,2.658,3.0
45.502,1.134,0.688,1.0
70.825,1.79,0.685,19.0
45.502,1.165,0.187,54.0
40.192,1.042,-0.053,196.0
40.005,1.05,-0.271,35.0
0.0,0.0,0.0,0.0
41.918,1.133,0.648,144.0
41.927,1.147,0.418,162.0
0.0,0.0,0.0,0.0
40.132,1.123,-0.041,150.0
39.998,1.133,-0.259,47.0
40.124,1.155,0.85,150.0
40.127,1.168,0.631,150.0
40.132,1.181,0.412,116.0
40.129,1.194,0.188,115.0
40.116,1.207,-0.03,150.0
40.004,1.217,-0.249,47.0
40.125,1.24,0.861,150.0
40.12,1.252,0.641,150.0
40.118,1.265,0.421,127.0
40.122,1.278,0.197,150.0
40.129,1.292,-0.021,150.0
40.051,1.302,-0.241,62.0
40.128,1.323,0.869,7.0
71.094,2.368,1.15,7.0
70.872,2.383,0.758,12.0
71.123,2.414,0.364,3.0
40.125,1.375,-0.014,150.0
40.042,1.385,-0.233,49.0
162.314,5.693,3.546,15.0
162.25,5.744,2.654,59.0
45.12,1.611,0.49,30.0
45.004,1.621,0.237,150.0
42.874,1.559,-0.008,2.0
42.252,1.55,-0.24,3.0
42.842,1.592,0.941,84.0
42.021,1.575,0.692,130.0
41.787,1.579,0.459,88.0
41.801,1.593,0.225,128.0
40.347,1.551,-0.004,150.0
40.334,1.564,-0.225,109.0
40.386,1.585,0.891,105.0
40.382,1.598,0.669,150.0
40.387,1.611,0.447,158.0
40.383,1.623,0.221,150.0
40.338,1.635,-0.001,103.0
40.302,1.646,-0.222,41.0
23.624,0.976,0.523,0.0
23.649,0.985,0.393,1.0
23.627,0.991,0.262,17.0
23.633,0.999,0.13,37.0
23.62,1.006,0.0,46.0
23.612,1.013,-0.13,46.0
23.605,1.025,0.523,48.0
23.609,1.032,0.393,47.0
23.595,1.039,0.262,57.0
23.597,1.046,0.13,67.0
23.599,1.053,0.0,71.0
23.61,1.061,-0.13,69.0
23.599,1.072,0.522,75.0
23.593,1.079,0.392,68.0
23.588,1.086,0.261,64.0
23.598,1.094,0.129,61.0
23.602,1.102,0.0,53.0
23.619,1.11,-0.131,45.0
23.621,1.121,0.522,41.0
23.627,1.129,0.391,39.0
23.62,1.136,0.26,21.0
23.618,1.143,0.127,10.0
45.178,2.2,-0.005,34.0
40.321,1.976,-0.227,39.0
45.309,2.244,0.997,0.0
45.204,2.252,0.744,3.0
45.217,2.266,0.494,38.0
45.205,2.279,0.239,87.0
45.183,2.292,-0.01,40.0
40.316,2.057,-0.232,40.0
207.698,10.705,4.544,7.0
131.789,6.832,2.153,3.0
99.833,5.206,1.077,12.0
45.228,2.372,0.233,2.0
45.184,2.383,-0.017,35.0
40.329,2.139,-0.239,74.0
45.189,2.421,0.981,1.0
99.253,5.347,1.604,4.0
122.314,6.624,1.298,4.0
45.14,2.457,0.224,3.0
45.183,2.473,-0.026,28.0
40.308,2.218,-0.247,36.0
45.225,2.512,0.973,34.0
45.21,2.524,0.721,91.0
45.21,2.538,0.47,22.0
45.177,2.549,0.214,10.0
45.188,2.563,-0.036,19.0
40.235,2.294,-0.256,25.0
0.0,0.0,0.0,0.0
99.38,5.746,1.561,5.0
99.699,5.794,1.011,13.0
45.193,2.639,0.202,15.0
45.185,2.651,-0.048,8.0
40.22,2.371,-0.266,20.0
112.004,6.663,2.351,22.0
99.76,5.964,1.538,5.0
99.691,5.988,0.983,9.0
45.175,2.726,0.189,20.0
45.228,2.742,-0.062,4.0
40.288,2.454,-0.279,11.0
45.204,2.777,0.935,13.0
45.209,2.79,0.683,101.0
45.207,2.802,0.431,73.0
45.175,2.813,0.174,34.0
40.329,2.522,-0.068,38.0
0.0,0.0,0.0,0.0
112.518,7.129,2.289,1.0
99.83,6.351,1.474,9.0
99.771,6.375,0.916,6.0
45.178,2.899,0.158,150.0
40.313,2.598,-0.083,42.0
37.72,2.441,-0.288,4.0
45.216,2.95,0.902,131.0
45.204,2.962,0.65,132.0
45.142,2.97,0.396,128.0
44.723,2.955,0.138,19.0
40.324,2.675,-0.099,41.0
36.484,2.43,-0.294,4.0
43.66,2.931,0.853,88.0
43.629,2.94,0.609,66.0
41.788,2.827,0.349,3.0
42.201,2.867,0.112,7.0
40.318,2.75,-0.117,43.0
35.692,2.444,-0.303,2.0
41.037,2.832,0.783,29.0
41.968,2.907,0.566,114.0
42.071,2.925,0.332,150.0
41.678,2.908,0.091,5.0
40.314,2.824,-0.136,44.0
36.057,2.536,-0.324,10.0
41.301,2.926,0.769,82.0
41.289,2.936,0.537,128.0
41.061,2.93,0.304,87.0
40.329,2.888,0.068,15.0
40.314,2.897,-0.157,52.0
34.974,2.523,-0.332,11.0
40.372,2.933,0.73,79.0
40.372,2.943,0.504,73.0
40.364,2.953,0.277,68.0
40.318,2.96,0.047,44.0
40.314,2.971,-0.179,46.0
34.126,2.524,-0.343,11.0
43.698,3.254,0.766,139.0
43.696,3.265,0.521,144.0
43.702,3.276,0.276,150.0
42.011,3.16,0.025,126.0
41.79,3.154,-0.21,30.0
33.13,2.509,-0.352,10.0
43.701,3.333,0.74,127.0
43.71,3.344,0.495,128.0
43.715,3.354,0.249,125.0
41.902,3.225,0.0,150.0
41.783,3.227,-0.234,23.0
31.927,2.474,-0.359,9.0
41.906,3.268,0.684,131.0
41.908,3.278,0.449,121.0
41.91,3.289,0.213,147.0
40.115,3.158,-0.025,92.0
39.822,3.144,-0.249,14.0
31.583,2.502,-0.375,9.0
41.907,3.341,0.657,113.0
0.0,0.0,0.0,0.0
0.0,0.0,0.0,0.0
40.082,3.223,-0.051,65.0
0.0,0.0,0.0,0.0
30.901,2.5,-0.388,9.0
40.105,3.264,0.602,150.0
40.11,3.274,0.376,116.0
40.102,3.283,0.15,150.0
40.108,3.292,-0.079,116.0
36.414,2.998,-0.277,2.0
30.164,2.49,-0.4,8.0
40.112,3.331,0.574,113.0
40.119,3.341,0.348,109.0
40.091,3.347,0.121,150.0
40.107,3.358,-0.108,112.0
36.011,3.023,-0.3,8.0
29.205,2.459,-0.408,8.0
40.108,3.397,0.544,118.0
40.116,3.406,0.318,107.0
40.083,3.412,0.091,63.0
40.047,3.418,-0.138,42.0
34.969,2.992,-0.318,11.0
28.746,2.466,-0.424,8.0
74.991,6.47,0.961,8.0
74.89,6.477,0.536,3.0
40.106,3.477,0.06,107.0
40.036,3.48,-0.169,61.0
33.913,2.955,-0.335,10.0
27.877,2.435,-0.433,7.0
73.756,6.479,0.886,11.0
73.612,6.482,0.469,3.0
46.584,4.111,0.033,25.0
40.145,3.552,-0.202,15.0
31.969,2.835,-0.342,4.0
26.937,2.395,-0.44,7.0
72.521,6.482,0.811,9.0
53.175,4.763,0.294,1.0
46.418,4.168,-0.005,19.0
39.814,3.583,-0.234,15.0
31.44,2.836,-0.362,9.0
26.139,2.363,-0.449,6.0
71.346,6.484,0.738,10.0
53.028,4.83,0.248,2.0
46.147,4.212,-0.044,23.0
0.0,0.0,0.0,0.0
30.8,2.824,-0.382,9.0
25.483,2.341,-0.46,6.0
70.309,6.493,0.666,7.0
47.477,4.394,0.181,5.0
45.672,4.235,-0.084,20.0
36.619,3.403,-0.279,4.0
29.763,2.771,-0.395,8.0
24.908,2.324,-0.472,9.0
69.261,6.495,0.594,5.0
46.921,4.409,0.136,21.0
44.47,4.187,-0.122,19.0
35.339,3.334,-0.301,7.0
28.832,2.726,-0.409,8.0
24.438,2.315,-0.485,5.0
68.211,6.492,0.522,5.0
47.04,4.485,0.093,21.0
40.477,3.867,-0.149,7.0
0.0,0.0,0.0,0.0
27.801,2.666,-0.421,7.0
23.84,2.291,-0.496,5.0
49.874,4.815,0.335,2.0
46.348,4.482,0.048,21.0
40.325,3.907,-0.187,15.0
31.622,3.07,-0.33,3.0
26.91,2.617,-0.433,6.0
23.173,2.258,-0.504,5.0
49.896,4.883,0.286,17.0
45.65,4.475,0.002,21.0
39.573,3.886,-0.222,15.0
31.488,3.097,-0.359,9.0
26.06,2.568,-0.445,6.0
22.629,2.234,-0.515,5.0
49.8,4.938,0.236,4.0
44.697,4.439,-0.041,19.0
38.54,3.834,-0.254,14.0
30.494,3.039,-0.378,9.0
25.27,2.522,-0.457,6.0
22.138,2.214,-0.526,6.0
47.446,4.763,0.177,8.0
44.225,4.447,-0.085,18.0
0.0,0.0,0.0,0.0
29.43,2.969,-0.395,8.0
24.662,2.492,-0.471,5.0
18.398,1.862,-0.456,8.0
47.101,4.785,0.127,22.0
40.019,4.072,-0.119,15.0
34.911,3.558,-0.303,8.0
28.498,2.909,-0.412,8.0
24.176,2.472,-0.487,6.0
18.134,1.857,-0.469,15.0
46.576,4.787,0.076,22.0
39.92,4.109,-0.161,15.0
33.362,3.439,-0.325,10.0
27.177,2.805,-0.422,7.0
23.484,2.428,-0.499,5.0
17.826,1.846,-0.48,17.0
45.551,4.734,0.026,21.0
39.091,4.068,-0.199,14.0
31.838,3.317,-0.344,9.0
26.071,2.72,-0.433,6.0
22.995,2.403,-0.513,3.0
17.669,1.849,-0.495,19.0
42.168,4.427,-0.02,11.0
38.199,4.016,-0.236,14.0
30.727,3.234,-0.365,9.0
25.241,2.661,-0.447,6.0
18.059,1.906,-0.423,13.0
17.564,1.857,-0.511,17.0
42.128,4.467,-0.067,33.0
0.0,0.0,0.0,0.0
29.767,3.164,-0.387,8.0
24.682,2.627,-0.464,5.0
17.768,1.894,-0.435,16.0
17.404,1.858,-0.526,16.0
41.572,4.45,-0.112,7.0
34.744,3.723,-0.292,4.0
28.578,3.066,-0.403,7.0
24.239,2.604,-0.483,5.0
17.661,1.899,-0.453,18.0
17.223,1.855,-0.54,16.0
38.376,4.144,-0.147,14.0
32.409,3.504,-0.309,2.0
27.468,2.973,-0.419,7.0
23.864,2.586,-0.503,1.0
17.56,1.905,-0.47,16.0
17.113,1.859,-0.556,16.0
37.798,4.116,-0.188,24.0
31.866,3.474,-0.34,9.0
26.14,2.853,-0.428,6.0
17.781,1.943,-0.395,15.0
17.424,1.906,-0.486,18.0
16.865,1.847,-0.567,13.0
37.495,4.116,-0.229,13.0
30.719,3.375,-0.363,9.0
25.41,2.795,-0.446,6.0
17.643,1.942,-0.412,18.0
17.247,1.901,-0.501,18.0
16.721,1.845,-0.582,15.0
0.0,0.0,0.0,0.0
29.299,3.243,-0.38,8.0
24.898,2.759,-0.466,3.0
17.473,1.938,-0.428,15.0
17.108,1.9,-0.517,17.0
16.611,1.846,-0.597,15.0
34.634,3.858,-0.292,11.0
28.366,3.162,-0.402,7.0
17.927,2.0,-0.356,13.0
17.335,1.936,-0.446,14.0
16.965,1.897,-0.533,17.0
16.475,1.844,-0.612,16.0
0.0,0.0,0.0,0.0
27.279,3.061,-0.418,7.0
17.707,1.988,-0.373,15.0
17.182,1.931,-0.462,15.0
16.787,1.889,-0.547,15.0
16.369,1.844,-0.628,16.0
30.926,3.489,-0.334,7.0
26.328,2.973,-0.435,6.0
17.516,1.979,-0.39,15.0
17.06,1.929,-0.479,16.0
16.637,1.883,-0.563,16.0
16.316,1.849,-0.645,17.0
30.299,3.438,-0.364,9.0
18.164,2.062,-0.322,9.0
17.352,1.972,-0.407,15.0
16.92,1.924,-0.495,14.0
16.524,1.881,-0.578,16.0
16.26,1.852,-0.663,14.0
28.947,3.302,-0.382,8.0
17.941,2.048,-0.339,14.0
17.215,1.966,-0.424,14.0
16.787,1.919,-0.512,13.0
16.403,1.877,-0.594,17.0
16.167,1.851,-0.678,13.0
28.114,3.223,-0.405,7.0
17.694,2.029,-0.356,15.0
17.091,1.962,-0.442,14.0
16.689,1.917,-0.529,15.0
16.325,1.877,-0.611,18.0
16.083,1.85,-0.694,14.0
26.813,3.088,-0.419,7.0
17.465,2.012,-0.373,15.0
16.953,1.954,-0.459,14.0
16.552,1.91,-0.545,17.0
16.3,1.882,-0.63,17.0
15.992,1.848,-0.71,14.0
18.186,2.103,-0.306,6.0
17.298,2.001,-0.391,15.0
16.803,1.945,-0.476,13.0
16.447,1.905,-0.562,19.0
16.253,1.884,-0.648,14.0
15.896,1.844,-0.725,11.0
18.053,2.095,-0.326,15.0
17.155,1.992,-0.408,15.0
16.708,1.941,-0.493,15.0
16.38,1.904,-0.579,17.0
16.146,1.878,-0.664,12.0
15.961,1.858,-0.748,4.0
17.73,2.064,-0.342,16.0
17.039,1.985,-0.426,16.0
16.637,1.939,-0.512,17.0
16.309,1.901,-0.597,17.0
16.075,1.875,-0.681,12.0
15.988,1.866,-0.769,2.0
17.536,2.047,-0.36,17.0
16.887,1.972,-0.443,16.0
16.55,1.934,-0.529,16.0
16.287,1.904,-0.616,17.0
15.998,1.871,-0.697,12.0
16.156,1.891,-0.797,2.0
17.31,2.026,-0.376,17.0
16.755,1.962,-0.46,17.0
16.465,1.929,-0.547,18.0
16.236,1.903,-0.634,14.0
15.964,1.872,-0.715,14.0
0.0,0.0,0.0,0.0
17.204,2.018,-0.395,16.0
16.681,1.957,-0.478,16.0
16.395,1.924,-0.564,18.0
16.148,1.896,-0.65,13.0
15.927,1.871,-0.733,7.0
0.0,0.0,0.0,0.0
17.058,2.004,-0.412,17.0
16.624,1.954,-0.497,16.0
16.323,1.919,-0.582,18.0
16.09,1.892,-0.667,13.0
16.027,1.885,-0.757,3.0
16.322,1.921,-0.865,3.0
16.919,1.99,-0.429,18.0
16.568,1.949,-0.515,15.0
16.286,1.917,-0.6,17.0
16.035,1.888,-0.684,12.0
16.091,1.895,-0.779,2.0
16.376,1.929,-0.887,1.0
16.782,1.976,-0.446,18.0
16.481,1.941,-0.532,18.0
16.246,1.914,-0.618,16.0
15.978,1.882,-0.701,12.0
16.18,1.907,-0.803,2.0
16.455,1.94,-0.911,1.0
16.703,1.968,-0.464,18.0
16.426,1.935,-0.55,17.0
16.208,1.91,-0.636,13.0
15.916,1.876,-0.717,12.0
16.224,1.913,-0.825,2.0
16.578,1.955,-0.938,0.0
16.641,1.96,-0.481,17.0
16.358,1.927,-0.567,17.0
16.186,1.907,-0.654,14.0
15.95,1.88,-0.738,6.0
0.0,0.0,0.0,0.0
13.341,1.573,-0.77,0.0
16.584,1.953,-0.499,17.0
16.307,1.921,-0.584,18.0
16.11,1.898,-0.67,13.0
16.048,1.891,-0.761,3.0
16.341,1.925,-0.869,2.0
13.325,1.57,-0.785,0.0
16.549,1.948,-0.518,17.0
16.291,1.917,-0.603,17.0
16.051,1.889,-0.686,12.0
16.116,1.897,-0.783,2.0
16.404,1.931,-0.892,1.0
13.293,1.565,-0.799,0.0
16.484,1.938,-0.535,19.0
16.252,1.911,-0.62,16.0
15.99,1.88,-0.702,13.0
16.232,1.909,-0.808,2.0
16.463,1.936,-0.914,1.0
12.902,1.517,-0.79,0.0
16.435,1.93,-0.552,19.0
16.215,1.904,-0.638,13.0
15.938,1.871,-0.718,12.0
0.0,0.0,0.0,0.0
16.605,1.949,-0.941,0.0
12.815,1.505,-0.8,0.0
16.381,1.92,-0.569,19.0
16.153,1.893,-0.653,13.0
15.943,1.868,-0.736,5.0
16.328,1.913,-0.85,2.0
16.845,1.974,-0.973,0.0
12.654,1.483,-0.804,0.0
16.33,1.91,-0.585,19.0
16.101,1.882,-0.669,12.0
16.022,1.873,-0.758,2.0
16.37,1.914,-0.87,2.0
13.289,1.553,-0.782,0.0
12.492,1.46,-0.807,0.0
16.305,1.902,-0.602,19.0
16.054,1.872,-0.685,12.0
16.129,1.881,-0.78,2.0
16.435,1.916,-0.891,1.0
13.085,1.525,-0.785,0.0
12.361,1.441,-0.812,0.0
16.29,1.894,-0.619,18.0
15.99,1.859,-0.699,12.0
16.223,1.886,-0.802,2.0
16.541,1.922,-0.915,1.0
12.911,1.5,-0.788,0.0
12.167,1.414,-0.813,0.0
16.285,1.887,-0.636,17.0
15.927,1.845,-0.713,12.0
16.298,1.888,-0.824,2.0
16.811,1.947,-0.948,1.0
12.835,1.486,-0.797,0.0
12.081,1.399,-0.82,0.0
16.237,1.875,-0.652,16.0
15.941,1.84,-0.731,7.0
16.433,1.896,-0.848,2.0
16.99,1.96,-0.976,0.0
12.676,1.462,-0.801,0.0
11.925,1.375,-0.822,0.0
16.19,1.862,-0.666,14.0
16.081,1.849,-0.754,3.0
16.508,1.897,-0.869,1.0
13.361,1.535,-0.781,0.0
12.58,1.445,-0.808,0.0
11.777,1.352,-0.824,0.0
16.128,1.846,-0.68,15.0
16.195,1.853,-0.776,2.0
16.614,1.9,-0.891,1.0
13.177,1.507,-0.783,0.0
12.445,1.422,-0.812,0.0
11.671,1.334,-0.828,0.0
16.066,1.83,-0.694,15.0
16.271,1.853,-0.795,2.0
16.763,1.908,-0.916,2.0
13.015,1.481,-0.787,0.0
12.276,1.396,-0.813,0.0
11.452,1.302,-0.824,0.0
15.993,1.812,-0.706,16.0
16.479,1.866,-0.822,2.0
17.008,1.925,-0.945,1.0
12.895,1.459,-0.792,0.0
12.142,1.373,-0.815,0.0
11.347,1.283,-0.827,0.0
15.917,1.794,-0.718,12.0
16.878,1.901,-0.858,2.0
17.388,1.957,-0.983,0.0
12.802,1.44,-0.798,0.0
12.028,1.352,-0.819,0.0
11.277,1.267,-0.832,0.0
15.953,1.787,-0.734,7.0
17.061,1.91,-0.882,2.0
13.676,1.53,-0.786,0.0
12.653,1.415,-0.8,0.0
11.937,1.334,-0.824,0.0
11.11,1.241,-0.83,0.0
16.121,1.794,-0.756,3.0
17.09,1.901,-0.899,2.0
13.493,1.5,-0.787,0.0
12.591,1.398,-0.808,0.0
11.758,1.305,-0.822,0.0
11.017,1.222,-0.833,0.0
16.347,1.807,-0.781,2.0
17.185,1.898,-0.919,1.0
13.237,1.461,-0.783,0.0
12.519,1.381,-0.814,0.0
11.693,1.289,-0.827,0.0
10.941,1.205,-0.837,0.0
16.774,1.841,-0.815,2.0
17.232,1.89,-0.936,0.0
13.148,1.441,-0.789,0.0
12.422,1.36,-0.818,0.0
11.542,1.263,-0.826,0.0
10.814,1.182,-0.836,0.0
17.46,1.902,-0.863,1.0
17.319,1.885,-0.955,0.0
13.006,1.414,-0.791,0.0
12.317,1.338,-0.821,0.0
11.5,1.249,-0.832,0.0
10.732,1.164,-0.838,0.0
17.632,1.905,-0.885,1.0
17.532,1.893,-0.98,0.0
12.911,1.393,-0.795,0.0
12.224,1.317,-0.824,0.0
11.305,1.217,-0.827,0.0
10.699,1.151,-0.844,0.0
17.673,1.894,-0.901,1.0
17.603,1.884,-0.998,0.0
12.821,1.371,-0.8,0.0
12.092,1.292,-0.824,0.0
11.238,1.2,-0.83,0.0
10.595,1.13,-0.843,0.0
17.729,1.883,-0.917,0.0
13.569,1.44,-0.779,0.0
12.788,1.355,-0.807,0.0
11.884,1.258,-0.819,0.0
11.143,1.179,-0.831,0.0
10.526,1.112,-0.846,0.0
17.68,1.861,-0.927,0.0
13.493,1.418,-0.784,0.0
12.691,1.333,-0.809,0.0
11.779,1.236,-0.82,0.0
11.112,1.165,-0.837,0.0
10.45,1.094,-0.846,0.0
17.63,1.838,-0.936,0.0
13.409,1.396,-0.788,0.0
12.611,1.311,-0.813,0.0
11.723,1.218,-0.823,0.0
11.071,1.149,-0.841,0.0
10.399,1.078,-0.849,0.0
17.692,1.826,-0.95,0.0
13.353,1.376,-0.793,0.0
12.576,1.295,-0.818,0.0
11.677,1.201,-0.827,0.0
10.867,1.116,-0.832,0.0
10.389,1.066,-0.855,0.0
14.138,1.444,-0.768,0.0
13.318,1.358,-0.799,0.0
12.467,1.27,-0.819,0.0
11.689,1.189,-0.835,0.0
10.898,1.107,-0.841,0.0
10.305,1.046,-0.854,0.0
14.07,1.421,-0.772,0.0
13.232,1.335,-0.801,0.0
12.348,1.244,-0.818,0.0
11.606,1.168,-0.836,0.0
10.805,1.086,-0.84,0.0
10.288,1.033,-0.858,0.0
13.963,1.395,-0.774,0.0
13.059,1.302,-0.798,0.0
12.201,1.215,-0.814,0.0
11.522,1.146,-0.836,0.0
10.799,1.073,-0.845,0.0
10.241,1.016,-0.859,0.0
13.955,1.378,-0.78,0.0
13.023,1.284,-0.802,0.0
12.153,1.196,-0.817,0.0
11.43,1.123,-0.835,0.0
10.753,1.056,-0.846,0.0
10.196,0.999,-0.86,0.0
13.804,1.346,-0.778,0.0
12.998,1.266,-0.806,0.0
12.166,1.183,-0.824,0.0
11.369,1.104,-0.835,0.0
10.728,1.04,-0.849,0.0
10.183,0.986,-0.864,0.0
13.763,1.325,-0.782,0.0
12.895,1.24,-0.805,0.0
12.107,1.162,-0.825,0.0
11.284,1.082,-0.834,0.0
10.764,1.03,-0.856,0.0
10.185,0.973,-0.868,0.0
13.728,1.305,-0.785,0.0
12.909,1.225,-0.811,0.0
12.11,1.147,-0.829,0.0
11.241,1.063,-0.835,0.0
10.737,1.014,-0.858,0.0
10.132,0.955,-0.867,0.0
13.648,1.28,-0.786,0.0
12.861,1.204,-0.813,0.0
12.13,1.134,-0.835,0.0
11.236,1.048,-0.838,0.0
10.639,0.991,-0.854,0.0
10.124,0.942,-0.87,0.0
13.654,1.263,-0.79,0.0
12.758,1.178,-0.81,0.0
12.071,1.112,-0.835,0.0
11.181,1.029,-0.837,0.0
10.621,0.975,-0.856,0.0
10.095,0.925,-0.87,0.0
13.683,1.247,-0.796,0.0
12.724,1.158,-0.812,0.0
12.011,1.091,-0.834,0.0
11.179,1.013,-0.84,0.0
10.598,0.959,-0.856,0.0
10.092,0.912,-0.872,0.0
13.506,1.213,-0.789,0.0
12.709,1.139,-0.814,0.0
11.952,1.069,-0.832,0.0
11.206,1.001,-0.845,0.0
10.589,0.944,-0.858,0.0
10.071,0.896,-0.873,0.0
13.505,1.195,-0.791,0.0
12.727,1.124,-0.817,0.0
11.927,1.051,-0.833,0.0
11.132,0.979,-0.841,0.0
10.551,0.926,-0.857,0.0
10.059,0.881,-0.873,0.0
13.556,1.181,-0.796,0.0
12.744,1.107,-0.82,0.0
11.99,1.04,-0.839,0.0
11.138,0.964,-0.843,0.0
10.577,0.914,-0.86,0.0
10.065,0.868,-0.875,0.0
13.532,1.159,-0.797,0.0
12.735,1.089,-0.821,0.0
11.95,1.019,-0.838,0.0
11.177,0.951,-0.847,0.0
10.585,0.899,-0.862,0.0
10.074,0.854,-0.877,0.0
13.54,1.141,-0.798,0.0
12.661,1.064,-0.817,0.0
11.905,0.998,-0.835,0.0
11.169,0.935,-0.847,0.0
10.572,0.883,-0.861,0.0
10.089,0.841,-0.879,0.0
13.604,1.127,-0.803,0.0
12.649,1.045,-0.817,0.0
11.931,0.983,-0.837,0.0
11.18,0.919,-0.848,0.0
10.63,0.872,-0.866,0.0
10.054,0.823,-0.876,0.0
13.525,1.1,-0.798,0.0
12.698,1.03,-0.82,0.0
11.834,0.958,-0.83,0.0
11.174,0.902,-0.848,0.0
10.546,0.85,-0.859,0.0
10.099,0.812,-0.879,0.0
13.631,1.089,-0.804,0.0
12.723,1.014,-0.821,0.0
11.949,0.949,-0.838,0.0
11.176,0.886,-0.847,0.0
10.601,0.838,-0.863,0.0
10.094,0.796,-0.878,0.0
13.694,1.073,-0.806,0.0
12.736,0.996,-0.821,0.0
12.016,0.937,-0.841,0.0
11.232,0.873,-0.85,0.0
10.585,0.821,-0.861,0.0
10.144,0.785,-0.881,0.0
13.676,1.051,-0.804,0.0
12.745,0.977,-0.82,0.0
12.009,0.918,-0.839,0.0
11.282,0.86,-0.852,0.0
10.686,0.813,-0.867,0.0
10.158,0.77,-0.881,0.0
13.68,1.031,-0.802,0.0
12.824,0.963,-0.823,0.0
12.042,0.902,-0.839,0.0
11.324,0.846,-0.854,0.0
10.689,0.796,-0.865,0.0
10.172,0.756,-0.88,0.0
13.731,1.013,-0.802,0.0
12.906,0.95,-0.825,0.0
12.038,0.883,-0.836,0.0
11.291,0.826,-0.849,0.0
10.675,0.779,-0.862,0.0
10.185,0.741,-0.879,0.0
13.839,1.0,-0.804,0.0
12.93,0.931,-0.823,0.0
12.145,0.872,-0.841,0.0
11.362,0.814,-0.851,0.0
10.814,0.772,-0.87,0.0
10.243,0.729,-0.881,0.0
13.864,0.98,-0.802,0.0
12.933,0.912,-0.82,0.0
12.187,0.856,-0.84,0.0
11.362,0.796,-0.847,0.0
10.779,0.753,-0.864,0.0
10.263,0.714,-0.879,0.0
13.911,0.962,-0.8,0.0
13.071,0.901,-0.824,0.0
12.251,0.842,-0.84,0.0
11.461,0.785,-0.85,0.0
10.883,0.743,-0.868,0.0
10.286,0.7,-0.877,0.0
14.073,0.951,-0.804,0.0
13.141,0.885,-0.823,0.0
12.275,0.824,-0.837,0.0
11.541,0.772,-0.852,0.0
10.922,0.728,-0.866,0.0
10.363,0.689,-0.88,0.0
14.128,0.932,-0.801,0.0
13.251,0.871,-0.824,0.0
12.369,0.81,-0.838,0.0
11.619,0.759,-0.852,0.0
10.964,0.713,-0.865,0.0
10.387,0.674,-0.877,0.0
14.285,0.92,-0.804,0.0
13.305,0.854,-0.822,0.0
12.423,0.794,-0.836,0.0
11.686,0.745,-0.852,0.0
11.0,0.698,-0.862,0.0
10.389,0.657,-0.872,0.0
14.471,0.909,-0.807,0.0
13.408,0.839,-0.821,0.0
12.506,0.78,-0.835,0.0
11.802,0.733,-0.854,0.0
11.054,0.684,-0.861,0.0
10.539,0.65,-0.879,0.0
14.43,0.884,-0.797,0.0
13.439,0.82,-0.816,0.0
12.625,0.767,-0.835,0.0
11.934,0.722,-0.857,0.0
