X,Y,Z,Reflectivity
55.165,0.977,0.997,73.0
55.163,0.964,0.675,65.0
55.177,0.951,0.358,57.0
55.175,0.938,0.041,39.0
55.207,0.924,1.549,18.0
19.723,0.325,0.44,2.0
55.112,0.895,0.913,1.0
163.258,2.611,1.75,21.0
0.0,0.0,0.0,0.0
55.092,0.853,-0.041,4.0
19.687,0.299,0.522,12.0
19.695,0.294,0.409,12.0
19.725,0.29,0.296,10.0
19.764,0.286,0.182,3.0
0.0,0.0,0.0,0.0
19.7,0.275,-0.044,3.0
19.679,0.269,0.493,13.0
19.692,0.264,0.38,13.0
19.72,0.259,0.267,13.0
19.763,0.255,0.152,24.0
19.689,0.249,0.039,0.0
19.647,0.243,-0.073,15.0
19.705,0.239,0.465,10.0
19.714,0.234,0.352,10.0
19.752,0.229,0.239,19.0
19.748,0.224,0.124,16.0
19.654,0.218,0.011,12.0
19.639,0.213,-0.101,17.0
19.733,0.208,0.437,11.0
19.717,0.203,0.324,8.0
19.674,0.197,0.21,10.0
19.66,0.192,0.096,13.0
19.643,0.186,-0.016,13.0
19.643,0.181,-0.128,15.0
19.639,0.176,0.408,10.0
19.646,0.17,0.296,10.0
19.654,0.165,0.183,12.0
19.632,0.16,0.069,13.0
19.646,0.154,-0.043,13.0
19.664,0.149,-0.155,11.0
19.616,0.143,0.38,12.0
19.635,0.138,0.268,10.0
19.656,0.133,0.156,15.0
19.641,0.127,0.042,14.0
19.683,0.122,-0.07,7.0
41.472,0.246,-0.385,0.0
19.611,0.11,0.354,17.0
19.626,0.105,0.242,12.0
19.664,0.1,0.13,11.0
19.695,0.094,0.015,9.0
19.762,0.089,-0.097,7.0
19.771,0.084,-0.21,14.0
19.614,0.077,0.328,15.0
19.629,0.072,0.216,15.0
19.733,0.066,0.104,23.0
19.745,0.061,-0.01,43.0
19.76,0.055,-0.123,57.0
19.765,0.049,-0.236,13.0
19.622,0.043,0.302,12.0
19.714,0.038,0.191,15.0
19.743,0.032,0.079,16.0
19.736,0.027,-0.035,150.0
19.775,0.021,-0.148,1.0
19.771,0.015,-0.261,0.0
19.635,0.01,0.278,14.0
19.792,0.004,0.167,2.0
19.729,-0.001,0.054,7.0
19.738,-0.007,-0.06,6.0
19.761,-0.013,-0.172,2.0
0.0,0.0,0.0,0.0
19.646,-0.024,0.254,14.0
19.687,-0.03,0.142,12.0
19.7,-0.036,0.03,16.0
19.733,-0.042,-0.084,12.0
19.742,-0.047,-0.196,14.0
19.764,-0.053,-0.309,10.0
19.676,-0.059,0.231,15.0
19.705,-0.065,0.119,16.0
19.701,-0.071,0.006,14.0
19.699,-0.077,-0.107,16.0
19.732,-0.083,-0.219,15.0
19.748,-0.089,-0.332,15.0
19.723,-0.094,0.208,17.0
19.729,-0.1,0.096,11.0
19.717,-0.106,-0.015,11.0
19.71,-0.112,-0.13,16.0
19.73,-0.118,-0.242,17.0
19.742,-0.124,-0.355,17.0
19.746,-0.13,0.186,1.0
19.789,-0.137,0.074,1.0
19.783,-0.143,-0.038,7.0
19.73,-0.148,-0.152,14.0
19.739,-0.155,-0.264,14.0
19.742,-0.161,-0.377,15.0
111.914,-0.945,0.933,13.0
0.0,0.0,0.0,0.0
19.768,-0.179,-0.06,0.0
19.78,-0.185,-0.174,4.0
19.78,-0.191,-0.286,1.0
19.798,-0.198,-0.399,0.0
111.782,-1.151,0.813,2.0
0.0,0.0,0.0,0.0
0.0,0.0,0.0,0.0
0.0,0.0,0.0,0.0
33.97,-0.392,-0.528,0.0
28.965,-0.344,-0.615,0.0
19.753,-0.24,0.123,7.0
0.0,0.0,0.0,0.0
0.0,0.0,0.0,0.0
0.0,0.0,0.0,0.0
0.0,0.0,0.0,0.0
28.321,-0.389,-0.63,0.0
19.747,-0.277,0.103,23.0
0.0,0.0,0.0,0.0
0.0,0.0,0.0,0.0
0.0,0.0,0.0,0.0
0.0,0.0,0.0,0.0
28.03,-0.438,-0.651,0.0
19.735,-0.314,0.084,0.0
0.0,0.0,0.0,0.0
0.0,0.0,0.0,0.0
0.0,0.0,0.0,0.0
30.561,-0.526,-0.565,0.0
0.0,0.0,0.0,0.0
0.0,0.0,0.0,0.0
0.0,0.0,0.0,0.0
46.506,-0.86,-0.371,1.0
34.992,-0.659,-0.481,0.0
30.305,-0.58,-0.588,0.0
21.73,-0.423,-0.544,150.0
0.0,0.0,0.0,0.0
0.0,0.0,0.0,0.0
0.0,0.0,0.0,0.0
0.0,0.0,0.0,0.0
21.744,-0.458,-0.441,0.0
21.683,-0.464,-0.562,160.0
0.0,0.0,0.0,0.0
0.0,0.0,0.0,0.0
0.0,0.0,0.0,0.0
33.525,-0.762,-0.519,0.0
29.545,-0.681,-0.624,0.0
21.729,-0.508,-0.582,17.0
0.0,0.0,0.0,0.0
0.0,0.0,0.0,0.0
0.0,0.0,0.0,0.0
0.0,0.0,0.0,0.0
28.479,-0.711,-0.624,0.0
25.101,-0.635,-0.692,0.0
0.0,0.0,0.0,0.0
0.0,0.0,0.0,0.0
0.0,0.0,0.0,0.0
31.795,-0.845,-0.542,0.0
28.387,-0.764,-0.644,0.0
24.648,-0.672,-0.698,0.0
0.0,0.0,0.0,0.0
0.0,0.0,0.0,0.0
37.492,-1.057,-0.451,0.0
31.701,-0.905,-0.563,0.0
27.893,-0.806,-0.653,0.0
17.8,-0.52,-0.517,0.0
0.0,0.0,0.0,0.0
0.0,0.0,0.0,0.0
38.023,-1.147,-0.484,0.0
31.365,-0.957,-0.579,0.0
27.251,-0.841,-0.657,0.0
23.869,-0.745,-0.71,0.0
0.0,0.0,0.0,0.0
0.0,0.0,0.0,0.0
0.0,0.0,0.0,0.0
31.068,-1.009,-0.594,1.0
26.373,-0.866,-0.653,0.0
23.473,-0.779,-0.713,0.0
0.0,0.0,0.0,0.0
0.0,0.0,0.0,0.0
35.174,-1.2,-0.493,0.0
30.137,-1.039,-0.595,0.0
26.229,-0.913,-0.665,0.0
23.24,-0.818,-0.72,0.0
0.0,0.0,0.0,0.0
0.0,0.0,0.0,0.0
33.761,-1.22,-0.494,0.0
29.519,-1.077,-0.6,0.0
25.705,-0.947,-0.667,0.0
22.963,-0.854,-0.725,0.0
0.0,0.0,0.0,0.0
0.0,0.0,0.0,0.0
34.537,-1.316,-0.524,0.0
29.364,-1.13,-0.613,1.0
0.0,0.0,0.0,0.0
22.587,-0.885,-0.725,0.0
0.0,0.0,0.0,0.0
0.0,0.0,0.0,0.0
33.484,-1.344,-0.525,0.0
29.085,-1.177,-0.622,0.0
25.283,-1.032,-0.683,0.0
22.435,-0.924,-0.732,0.0
0.0,0.0,0.0,0.0
0.0,0.0,0.0,0.0
33.115,-1.394,-0.535,0.0
0.0,0.0,0.0,0.0
25.126,-1.076,-0.69,0.0
22.25,-0.961,-0.736,0.0
0.0,0.0,0.0,0.0
38.616,-1.689,-0.425,0.0
0.0,0.0,0.0,0.0
28.352,-1.26,-0.632,0.0
24.716,-1.107,-0.689,0.0
22.148,-1.001,-0.742,0.0
0.0,0.0,0.0,0.0
0.0,0.0,0.0,0.0
32.143,-1.481,-0.546,0.0
27.811,-1.292,-0.631,0.0
24.788,-1.161,-0.701,0.0
21.911,-1.034,-0.742,0.0
0.0,0.0,0.0,0.0
38.499,-1.837,-0.453,0.0
32.309,-1.553,-0.56,0.0
28.077,-1.36,-0.647,0.0
24.441,-1.193,-0.699,0.0
21.918,-1.078,-0.75,0.0
0.0,0.0,0.0,0.0
37.322,-1.855,-0.451,0.0
32.206,-1.613,-0.569,0.0
27.723,-1.398,-0.647,0.0
24.296,-1.234,-0.703,0.0
21.591,-1.105,-0.745,0.0
0.0,0.0,0.0,0.0
37.261,-1.926,-0.461,0.0
31.693,-1.649,-0.569,0.0
0.0,0.0,0.0,0.0
24.018,-1.267,-0.701,0.0
21.507,-1.143,-0.748,0.0
0.0,0.0,0.0,0.0
37.302,-2.002,-0.471,0.0
31.463,-1.699,-0.572,0.0
27.624,-1.502,-0.659,0.0
23.604,-1.292,-0.694,0.0
21.438,-1.182,-0.75,0.0
0.0,0.0,0.0,0.0
37.282,-2.074,-0.478,0.0
31.504,-1.763,-0.579,0.0
27.557,-1.553,-0.663,0.0
23.735,-1.346,-0.703,0.0
21.527,-1.229,-0.757,0.0
0.0,0.0,0.0,0.0
0.0,0.0,0.0,0.0
32.116,-1.86,-0.596,0.0
0.0,0.0,0.0,0.0
23.998,-1.408,-0.714,0.0
21.37,-1.262,-0.755,0.0
0.0,0.0,0.0,0.0
0.0,0.0,0.0,0.0
30.966,-1.855,-0.578,0.0
27.16,-1.637,-0.661,0.0
23.758,-1.44,-0.71,0.0
21.228,-1.295,-0.752,0.0
0.0,0.0,0.0,0.0
36.323,-2.233,-0.48,0.0
31.31,-1.936,-0.587,0.0
26.795,-1.667,-0.654,0.0
23.84,-1.492,-0.714,0.0
21.298,-1.341,-0.756,0.0
0.0,0.0,0.0,0.0
36.874,-2.339,-0.489,0.0
31.139,-1.987,-0.586,0.0
26.954,-1.729,-0.659,0.0
23.655,-1.526,-0.709,0.0
21.296,-1.382,-0.756,0.0
0.0,0.0,0.0,0.0
0.0,0.0,0.0,0.0
0.0,0.0,0.0,0.0
27.205,-1.797,-0.665,0.0
23.973,-1.593,-0.719,0.0
21.346,-1.426,-0.758,0.0
0.0,0.0,0.0,0.0
36.528,-2.457,-0.484,0.0
31.573,-2.135,-0.593,0.0
26.927,-1.83,-0.657,0.0
24.318,-1.662,-0.728,0.0
21.246,-1.46,-0.754,0.0
0.0,0.0,0.0,0.0
0.0,0.0,0.0,0.0
0.0,0.0,0.0,0.0
27.388,-1.913,-0.666,0.0
24.082,-1.691,-0.719,0.0
21.421,-1.512,-0.758,0.0
0.0,0.0,0.0,0.0
0.0,0.0,0.0,0.0
0.0,0.0,0.0,0.0
27.332,-1.96,-0.662,0.0
24.261,-1.749,-0.721,0.0
21.264,-1.54,-0.75,0.0
0.0,0.0,0.0,0.0
36.887,-2.688,-0.478,0.0
0.0,0.0,0.0,0.0
27.47,-2.021,-0.661,0.0
24.458,-1.808,-0.723,0.0
21.52,-1.599,-0.755,0.0
0.0,0.0,0.0,0.0
38.472,-2.874,-0.492,0.0
0.0,0.0,0.0,0.0
27.249,-2.055,-0.651,0.0
24.541,-1.86,-0.721,0.0
21.736,-1.655,-0.758,0.0
0.0,0.0,0.0,0.0
0.0,0.0,0.0,0.0
31.354,-2.41,-0.566,0.0
27.47,-2.121,-0.65,0.0
24.54,-1.904,-0.716,0.0
21.618,-1.685,-0.749,0.0
0.0,0.0,0.0,0.0
38.782,-3.038,-0.478,0.0
32.742,-2.576,-0.583,0.0
27.791,-2.196,-0.65,0.0
24.534,-1.947,-0.709,0.0
22.172,-1.767,-0.763,0.0
0.0,0.0,0.0,0.0
38.935,-3.119,-0.469,0.0
31.938,-2.569,-0.56,0.0
0.0,0.0,0.0,0.0
24.906,-2.021,-0.712,0.0
22.011,-1.794,-0.75,0.0
0.0,0.0,0.0,0.0
38.321,-3.137,-0.449,0.0
32.768,-2.694,-0.563,0.0
28.183,-2.326,-0.642,0.0
24.714,-2.049,-0.698,0.0
22.241,-1.851,-0.75,0.0
0.0,0.0,0.0,0.0
0.0,0.0,0.0,0.0
32.801,-2.754,-0.552,0.0
28.281,-2.384,-0.634,0.0
25.17,-2.13,-0.702,0.0
22.387,-1.902,-0.747,0.0
0.0,0.0,0.0,0.0
41.22,-3.517,-0.452,0.0
33.571,-2.876,-0.552,0.0
28.923,-2.487,-0.637,0.0
0.0,0.0,0.0,0.0
22.433,-1.945,-0.739,0.0
0.0,0.0,0.0,0.0
0.0,0.0,0.0,0.0
34.774,-3.037,-0.557,0.0
29.191,-2.559,-0.63,0.0
25.815,-2.272,-0.698,0.0
22.899,-2.023,-0.744,0.0
0.0,0.0,0.0,0.0
41.715,-3.699,-0.421,0.0
33.488,-2.98,-0.52,0.0
0.0,0.0,0.0,0.0
25.826,-2.315,-0.686,0.0
23.075,-2.077,-0.739,0.0
0.0,0.0,0.0,0.0
0.0,0.0,0.0,0.0
0.0,0.0,0.0,0.0
0.0,0.0,0.0,0.0
26.587,-2.426,-0.693,0.0
23.114,-2.117,-0.728,0.0
0.0,0.0,0.0,0.0
0.0,0.0,0.0,0.0
0.0,0.0,0.0,0.0
30.361,-2.809,-0.609,0.0
26.659,-2.475,-0.68,0.0
23.401,-2.181,-0.725,0.0
0.0,0.0,0.0,0.0
0.0,0.0,0.0,0.0
0.0,0.0,0.0,0.0
0.0,0.0,0.0,0.0
27.12,-2.56,-0.677,0.0
23.609,-2.237,-0.718,0.0
0.0,0.0,0.0,0.0
0.0,0.0,0.0,0.0
36.872,-3.515,-0.493,0.0
0.0,0.0,0.0,0.0
0.0,0.0,0.0,0.0
24.637,-2.371,-0.734,0.0
0.0,0.0,0.0,0.0
0.0,0.0,0.0,0.0
0.0,0.0,0.0,0.0
31.762,-3.085,-0.581,0.0
27.799,-2.709,-0.66,0.0
24.921,-2.436,-0.727,0.0
0.0,0.0,0.0,0.0
0.0,0.0,0.0,0.0
39.161,-3.85,-0.474,0.0
32.806,-3.235,-0.579,0.0
28.151,-2.784,-0.649,0.0
25.093,-2.489,-0.715,0.0
0.0,0.0,0.0,0.0
48.55,-4.83,-0.292,0.0
0.0,0.0,0.0,0.0
0.0,0.0,0.0,0.0
29.113,-2.921,-0.652,0.0
25.114,-2.527,-0.698,0.0
0.0,0.0,0.0,0.0
0.0,0.0,0.0,0.0
40.778,-4.125,-0.438,0.0
33.371,-3.385,-0.542,0.0
29.148,-2.966,-0.632,0.0
25.784,-2.631,-0.698,0.0
0.0,0.0,0.0,0.0
0.0,0.0,0.0,0.0
0.0,0.0,0.0,0.0
0.0,0.0,0.0,0.0
30.07,-3.101,-0.629,0.0
24.813,-2.566,-0.654,0.0
0.0,0.0,0.0,0.0
0.0,0.0,0.0,0.0
42.027,-4.367,-0.388,0.0
36.328,-3.785,-0.535,0.0
0.0,0.0,0.0,0.0
27.036,-2.832,-0.691,0.0
85.349,-8.938,0.2,5.0
0.0,0.0,0.0,0.0
43.186,-4.544,-0.364,0.0
36.517,-3.852,-0.509,0.0
30.359,-3.211,-0.588,0.0
27.494,-2.915,-0.681,0.0
85.961,-9.113,0.271,4.0
0.0,0.0,0.0,0.0
0.0,0.0,0.0,0.0
37.965,-4.053,-0.499,0.0
31.361,-3.356,-0.581,0.0
27.749,-2.977,-0.664,0.0
83.362,-8.943,0.333,87.0
0.0,0.0,0.0,0.0
0.0,0.0,0.0,0.0
37.33,-4.032,-0.458,0.0
0.0,0.0,0.0,0.0
28.292,-3.07,-0.653,0.0
83.199,-9.027,0.404,12.0
0.0,0.0,0.0,0.0
0.0,0.0,0.0,0.0
0.0,0.0,0.0,0.0
33.522,-3.669,-0.563,0.0
29.199,-3.203,-0.648,0.0
83.377,-9.146,0.479,78.0
0.0,0.0,0.0,0.0
50.422,-5.553,-0.253,0.0
41.702,-4.603,-0.438,0.0
0.0,0.0,0.0,0.0
29.309,-3.249,-0.624,0.0
83.379,-9.241,0.554,12.0
83.844,-9.312,0.106,10.0
0.0,0.0,0.0,0.0
0.0,0.0,0.0,0.0
0.0,0.0,0.0,0.0
30.289,-3.391,-0.617,0.0
83.396,-9.335,0.631,17.0
83.602,-9.376,0.182,4.0
0.0,0.0,0.0,0.0
0.0,0.0,0.0,0.0
36.413,-4.108,-0.511,0.0
30.489,-3.446,-0.592,0.0
83.394,-9.425,0.71,57.0
86.56,-9.8,0.271,4.0
0.0,0.0,0.0,0.0
0.0,0.0,0.0,0.0
38.202,-4.349,-0.499,0.0
31.913,-3.64,-0.589,0.0
83.396,-9.512,0.791,24.0
83.453,-9.534,0.343,10.0
0.0,0.0,0.0,0.0
0.0,0.0,0.0,0.0
40.097,-4.605,-0.485,0.0
0.0,0.0,0.0,0.0
83.396,-9.594,0.873,50.0
83.428,-9.612,0.426,9.0
0.0,0.0,0.0,0.0
0.0,0.0,0.0,0.0
0.0,0.0,0.0,0.0
34.028,-3.948,-0.56,0.0
83.381,-9.671,0.958,57.0
83.376,-9.685,0.509,27.0
77.693,-9.039,0.058,4.0
52.422,-6.109,-0.246,0.0
41.492,-4.843,-0.418,0.0
36.49,-4.266,-0.563,0.0
83.389,-9.748,1.043,60.0
83.368,-9.759,0.595,29.0
77.686,-9.107,0.137,5.0
0.0,0.0,0.0,0.0
0.0,0.0,0.0,0.0
36.666,-4.318,-0.528,0.0
83.373,-9.817,1.129,27.0
83.395,-9.833,0.681,11.0
76.813,-9.069,0.215,1.0
0.0,0.0,0.0,0.0
0.0,0.0,0.0,0.0
36.971,-4.383,-0.495,0.0
83.383,-9.885,1.214,49.0
83.379,-9.897,0.767,15.0
74.866,-8.898,0.287,5.0
0.0,0.0,0.0,0.0
0.0,0.0,0.0,0.0
39.038,-4.659,-0.481,0.0
83.365,-9.948,1.304,21.0
83.379,-9.961,0.857,21.0
83.345,-9.97,0.41,21.0
0.0,0.0,0.0,0.0
48.12,-5.77,-0.283,0.0
0.0,0.0,0.0,0.0
83.391,-10.012,1.395,24.0
83.366,-10.02,0.947,64.0
83.39,-10.034,0.5,49.0
74.642,-8.992,0.041,1.0
0.0,0.0,0.0,0.0
41.897,-5.059,-0.426,0.0
83.365,-10.066,1.484,14.0
83.371,-10.077,1.038,22.0
83.376,-10.088,0.592,48.0
74.145,-8.981,0.121,3.0
0.0,0.0,0.0,0.0
0.0,0.0,0.0,0.0
83.409,-10.125,1.577,21.0
83.334,-10.125,1.129,14.0
83.326,-10.134,0.682,17.0
74.301,-9.045,0.203,9.0
0.0,0.0,0.0,0.0
0.0,0.0,0.0,0.0
83.389,-10.173,1.668,59.0
83.35,-10.176,1.221,16.0
83.377,-10.188,0.776,12.0
74.306,-9.088,0.286,18.0
0.0,0.0,0.0,0.0
47.642,-5.838,-0.325,2.0
83.392,-10.219,1.762,66.0
83.38,-10.225,1.316,53.0
83.364,-10.231,0.869,12.0
74.313,-9.128,0.369,23.0
0.0,0.0,0.0,0.0
48.186,-5.929,-0.275,1.0
83.369,-10.258,1.855,62.0
83.362,-10.264,1.409,56.0
83.387,-10.274,0.964,24.0
74.381,-9.171,0.453,8.0
74.362,-9.176,0.056,8.0
0.0,0.0,0.0,0.0
83.265,-10.284,1.949,32.0
83.371,-10.303,1.504,38.0
83.368,-10.309,1.058,14.0
83.351,-10.314,0.605,13.0
74.323,-9.203,0.141,3.0
0.0,0.0,0.0,0.0
83.263,-10.319,2.044,21.0
83.37,-10.337,1.6,150.0
83.353,-10.341,1.153,10.0
83.366,-10.348,0.699,28.0
74.261,-9.223,0.227,2.0
0.0,0.0,0.0,0.0
86.253,-10.722,2.215,9.0
83.371,-10.367,1.695,150.0
83.345,-10.369,1.249,13.0
83.38,-10.378,0.795,22.0
0.0,0.0,0.0,0.0
0.0,0.0,0.0,0.0
116.335,-14.499,3.122,19.0
83.351,-10.391,1.791,63.0
83.366,-10.397,1.345,19.0
83.364,-10.401,0.891,21.0
83.358,-10.405,0.445,7.0
0.0,0.0,0.0,0.0
116.264,-14.522,3.256,30.0
83.288,-10.406,1.886,33.0
83.386,-10.421,1.443,150.0
83.368,-10.422,0.988,22.0
83.364,-10.425,0.543,13.0
74.958,-9.378,0.087,7.0
116.243,-14.547,3.389,26.0
83.267,-10.422,1.982,25.0
83.368,-10.437,1.539,150.0
83.362,-10.438,1.084,28.0
83.363,-10.441,0.638,24.0
74.84,-9.376,0.172,10.0
148.092,-18.56,4.49,14.0
83.317,-10.443,2.08,10.0
83.356,-10.449,1.635,54.0
83.34,-10.448,1.179,20.0
83.377,-10.455,0.734,49.0
75.627,-9.485,0.26,7.0
147.936,-18.561,4.654,22.0
86.271,-10.824,2.252,10.0
83.33,-10.455,1.728,26.0
83.348,-10.458,1.275,19.0
83.378,-10.463,0.829,98.0
79.019,-9.917,0.363,3.0
147.831,-18.562,4.821,22.0
116.3,-14.601,3.169,25.0
83.287,-10.456,1.822,21.0
83.306,-10.458,1.37,14.0
83.385,-10.468,0.924,119.0
83.268,-10.454,0.477,2.0
148.137,-18.607,5.0,16.0
116.251,-14.599,3.301,31.0
83.259,-10.455,1.918,32.0
83.335,-10.463,1.466,22.0
83.373,-10.467,1.02,53.0
83.36,-10.465,0.575,25.0
95.616,-12.01,3.338,8.0
116.259,-14.599,3.436,20.0
83.256,-10.453,2.015,16.0
83.37,-10.465,1.563,36.0
83.37,-10.464,1.116,30.0
83.366,-10.462,0.669,44.0
95.49,-11.99,3.443,18.0
147.942,-18.57,4.54,15.0
86.256,-10.824,2.186,7.0
83.353,-10.457,1.656,42.0
83.353,-10.454,1.21,20.0
83.381,-10.456,0.764,47.0
95.499,-11.982,3.553,18.0
147.856,-18.544,4.709,24.0
116.261,-14.575,3.079,14.0
83.318,-10.442,1.751,36.0
83.36,-10.444,1.306,26.0
83.38,-10.444,0.859,41.0
95.603,-11.982,3.665,15.0
147.958,-18.535,4.877,21.0
116.252,-14.556,3.209,29.0
83.284,-10.424,1.844,29.0
83.374,-10.431,1.399,97.0
83.365,-10.426,0.952,23.0
95.572,-11.96,3.771,18.0
95.681,-11.967,3.261,13.0
116.262,-14.534,3.339,26.0
83.247,-10.401,1.935,34.0
83.367,-10.411,1.491,150.0
83.366,-10.407,1.044,19.0
95.546,-11.935,3.876,18.0
95.622,-11.937,3.365,20.0
116.241,-14.501,3.468,13.0
83.254,-10.38,2.029,19.0
83.378,-10.39,1.584,150.0
83.367,-10.383,1.136,21.0
95.422,-11.893,3.977,17.0
95.508,-11.895,3.467,17.0
147.991,-18.419,4.577,18.0
86.235,-10.725,2.195,9.0
83.354,-10.361,1.674,150.0
83.354,-10.354,1.227,50.0
94.601,-11.76,4.046,15.0
95.507,-11.863,3.571,8.0
147.993,-18.369,4.738,18.0
116.279,-14.421,3.086,22.0
83.349,-10.33,1.764,55.0
83.349,-10.323,1.317,49.0
94.205,-11.677,4.131,19.0
151.179,-18.722,5.815,12.0
148.033,-18.317,4.896,20.0
116.265,-14.374,3.21,34.0
83.29,-10.289,1.852,37.0
83.369,-10.291,1.405,37.0
94.108,-11.626,4.225,18.0
95.552,-11.793,3.777,5.0
147.99,-18.248,5.053,13.0
116.27,-14.324,3.332,31.0
83.266,-10.248,1.939,34.0
83.373,-10.253,1.494,45.0
93.928,-11.561,4.317,19.0
95.758,-11.774,3.885,1.0
95.492,-11.729,3.36,14.0
116.253,-14.265,3.454,15.0
83.28,-10.209,2.026,24.0
83.396,-10.214,1.581,149.0
93.938,-11.514,4.417,19.0
94.267,-11.542,3.923,2.0
95.433,-11.672,3.457,15.0
147.915,-18.071,4.546,18.0
116.297,-14.193,2.95,11.0
83.385,-10.166,1.666,22.0
94.145,-11.489,4.522,16.0
94.402,-11.506,4.026,12.0
148.487,-18.077,5.531,16.0
147.828,-17.976,4.693,24.0
116.298,-14.126,3.067,30.0
83.349,-10.113,1.748,22.0
94.047,-11.421,4.612,19.0
94.439,-11.454,4.121,18.0
148.408,-17.978,5.674,21.0
148.117,-17.92,4.849,22.0
116.276,-14.051,3.18,36.0
83.289,-10.053,1.829,39.0
94.279,-11.39,4.716,21.0
94.387,-11.388,4.21,17.0
148.196,-17.856,5.811,21.0
148.346,-17.851,5.001,21.0
116.281,-13.974,3.292,32.0
83.263,-9.993,1.909,38.0
94.496,-11.353,4.818,15.0
94.385,-11.323,4.301,12.0
148.19,-17.753,5.952,16.0
148.343,-17.747,5.142,21.0
116.308,-13.895,3.404,22.0
83.266,-9.934,1.987,35.0
94.453,-11.28,4.906,17.0
0.0,0.0,0.0,0.0
148.233,-17.648,6.096,6.0
148.592,-17.665,5.291,20.0
148.321,-17.607,4.479,15.0
83.277,-9.872,2.065,21.0
94.496,-11.214,4.995,10.0
94.324,-11.175,4.475,13.0
0.0,0.0,0.0,0.0
148.577,-17.548,5.424,21.0
147.969,-17.449,4.603,21.0
116.321,-13.697,2.99,20.0
0.0,0.0,0.0,0.0
94.276,-11.094,4.557,17.0
0.0,0.0,0.0,0.0
148.577,-17.426,5.556,20.0
147.901,-17.32,4.73,23.0
116.311,-13.599,3.091,28.0
0.0,0.0,0.0,0.0
94.289,-11.016,4.639,6.0
0.0,0.0,0.0,0.0
148.321,-17.269,5.673,25.0
148.113,-17.216,4.864,28.0
116.295,-13.495,3.189,37.0
0.0,0.0,0.0,0.0
108.064,-12.529,5.409,14.0
0.0,0.0,0.0,0.0
148.176,-17.117,5.795,27.0
148.394,-17.113,4.997,24.0
116.325,-13.391,3.287,42.0
0.0,0.0,0.0,0.0
108.055,-12.428,5.499,21.0
111.22,-12.768,5.055,6.0
148.301,-16.992,5.921,19.0
148.569,-16.991,5.125,21.0
116.28,-13.274,3.38,24.0
108.071,-12.35,6.175,9.0
108.044,-12.322,5.585,7.0
110.91,-12.623,5.131,10.0
148.338,-16.85,6.04,5.0
148.818,-16.873,5.25,23.0
116.338,-13.165,3.474,13.0
108.094,-12.245,6.261,18.0
0.0,0.0,0.0,0.0
108.941,-12.29,5.123,18.0
0.0,0.0,0.0,0.0
148.896,-16.73,5.364,21.0
147.966,-16.593,4.528,18.0
49.297,-5.533,2.892,16.0
0.0,0.0,0.0,0.0
108.819,-12.162,5.197,24.0
110.784,-12.355,4.677,1.0
148.565,-16.534,5.463,18.0
148.046,-16.443,4.637,23.0
49.245,-5.475,2.925,40.0
109.884,-12.19,5.927,2.0
108.628,-12.024,5.265,20.0
110.449,-12.198,4.74,5.0
148.165,-16.329,5.551,30.0
147.918,-16.266,4.736,26.0
49.24,-5.42,2.958,22.0
109.872,-12.067,6.002,17.0
108.11,-11.846,5.314,21.0
110.428,-12.073,4.814,20.0
148.148,-16.16,5.65,28.0
108.76,-11.837,3.554,7.0
107.429,-11.704,6.526,17.0
109.021,-11.849,6.026,17.0
108.015,-11.712,5.38,20.0
110.495,-11.952,4.888,22.0
148.342,-16.008,5.752,24.0
108.818,-11.716,3.626,8.0
107.447,-11.581,6.596,19.0
108.903,-11.708,6.088,18.0
107.895,-11.571,5.441,23.0
110.667,-11.839,4.964,23.0
148.604,-15.86,5.852,15.0
108.776,-11.581,3.69,27.0
48.621,-5.181,3.014,11.0
49.57,-5.269,2.8,8.0
107.935,-11.443,5.506,22.0
110.626,-11.698,5.027,17.0
149.157,-15.734,5.961,15.0
108.792,-11.448,3.752,20.0
48.676,-5.127,3.045,11.0
49.606,-5.211,2.831,2.0
107.839,-11.298,5.563,20.0
110.716,-11.569,5.092,13.0
111.476,-11.618,4.515,7.0
108.824,-11.313,3.813,24.0
48.773,-5.074,3.078,14.0
107.188,-11.121,6.175,20.0
108.747,-11.252,5.667,15.0
108.999,-11.247,5.07,21.0
111.367,-11.461,4.57,1.0
108.83,-11.171,3.868,22.0
107.461,-11.04,6.836,8.0
107.694,-11.033,6.258,24.0
108.531,-11.087,5.709,24.0
108.847,-11.089,5.115,23.0
111.147,-11.292,4.614,18.0
108.64,-11.007,3.914,21.0
108.121,-10.964,6.929,14.0
107.948,-10.914,6.322,23.0
108.782,-10.966,5.773,21.0
108.05,-10.862,5.127,18.0
111.179,-11.145,4.665,11.0
108.614,-10.857,3.96,21.0
108.098,-10.814,6.975,8.0
108.099,-10.781,6.378,23.0
108.821,-10.821,5.82,17.0
108.133,-10.721,5.177,18.0
109.532,-10.829,4.64,25.0
108.452,-10.691,3.997,21.0
107.293,-10.585,6.966,11.0
108.369,-10.658,6.437,20.0
108.28,-10.617,5.833,18.0
108.011,-10.559,5.212,24.0
109.902,-10.711,4.697,19.0
108.61,-10.554,4.043,22.0
107.253,-10.431,7.002,8.0
108.781,-10.545,6.5,10.0
108.613,-10.496,5.889,18.0
107.996,-10.404,5.248,25.0
109.81,-10.547,4.729,23.0
108.653,-10.405,4.081,22.0
107.212,-10.273,7.034,20.0
110.422,-10.546,6.633,20.0
108.618,-10.341,5.924,25.0
108.444,-10.291,5.303,18.0
109.946,-10.4,4.769,17.0
108.305,-10.212,4.099,22.0
107.113,-10.106,7.06,25.0
108.857,-10.237,6.57,12.0
108.67,-10.186,5.956,23.0
109.013,-10.185,5.361,22.0
107.579,-10.017,4.695,15.0
108.665,-10.085,4.141,22.0
107.352,-9.97,7.102,18.0
109.682,-10.152,6.647,19.0
108.689,-10.025,5.985,19.0
108.76,-9.998,5.374,12.0
107.761,-9.872,4.728,23.0
108.779,-9.932,4.17,16.0
107.389,-9.811,7.128,19.0
109.69,-9.986,6.671,15.0
108.793,-9.871,6.012,21.0
108.572,-9.816,5.386,19.0
107.753,-9.708,4.748,26.0
107.982,-9.695,4.16,28.0
107.26,-9.635,7.138,21.0
109.927,-9.838,6.705,17.0
108.887,-9.71,6.035,20.0
108.68,-9.657,5.408,9.0
107.734,-9.539,4.764,23.0
108.149,-9.543,4.182,24.0
106.881,-9.434,7.128,25.0
105.339,-9.263,6.439,9.0
107.617,-9.429,5.978,8.0
107.182,-9.357,5.347,22.0
107.787,-9.374,4.778,22.0
108.189,-9.377,4.195,26.0
107.045,-9.28,7.15,15.0
105.33,-9.096,6.447,10.0
107.556,-9.253,5.985,21.0
107.101,-9.179,5.352,28.0
107.887,-9.213,4.79,36.0
108.332,-9.216,4.209,21.0
104.799,-8.918,7.006,16.0
105.41,-8.935,6.458,19.0
108.62,-9.172,6.049,18.0
106.994,-9.0,5.351,14.0
107.77,-9.03,4.789,26.0
108.784,-9.082,4.229,19.0
104.851,-8.754,7.013,18.0
105.483,-8.772,6.464,20.0
109.096,-9.035,6.076,10.0
107.17,-8.841,5.36,24.0
107.606,-8.842,4.782,24.0
108.942,-8.917,4.234,20.0
104.905,-8.587,7.015,13.0
105.697,-8.617,6.475,22.0
107.018,-8.69,5.958,19.0
107.532,-8.695,5.375,23.0
107.424,-8.651,4.769,22.0
108.964,-8.74,4.23,25.0
104.873,-8.412,7.006,21.0
108.504,-8.666,6.641,18.0
107.19,-8.526,5.959,20.0
107.789,-8.537,5.379,21.0
108.607,-8.566,4.813,24.0
108.236,-8.503,4.192,13.0
106.168,-8.338,7.082,21.0
106.503,-8.327,6.506,10.0
108.218,-8.426,6.005,22.0
108.426,-8.406,5.398,25.0
108.593,-8.384,4.798,27.0
107.454,-8.261,4.148,20.0
105.835,-8.133,7.045,15.0
108.345,-8.289,6.604,10.0
108.389,-8.255,5.998,21.0
108.223,-8.207,5.371,25.0
108.508,-8.194,4.777,20.0
107.492,-8.082,4.131,23.0
105.635,-7.939,7.013,21.0
107.947,-8.076,6.56,23.0
107.972,-8.042,5.954,22.0
107.996,-8.009,5.339,30.0
106.97,-7.897,4.688,18.0
107.643,-7.912,4.114,29.0
110.882,-8.145,7.337,8.0
107.933,-7.893,6.534,17.0
107.441,-7.821,5.9,24.0
107.9,-7.818,5.308,29.0
109.29,-7.883,4.763,6.0
107.511,-7.72,4.082,30.0
110.493,-7.927,7.282,14.0
107.671,-7.688,6.49,16.0
107.465,-7.638,5.872,22.0
107.354,-7.593,5.251,26.0
108.335,-7.628,4.69,26.0
107.803,-7.555,4.062,15.0
107.71,-7.542,7.066,21.0
107.013,-7.458,6.417,15.0
107.309,-7.442,5.83,21.0
107.49,-7.419,5.223,25.0
107.981,-7.417,4.64,20.0
108.083,-7.39,4.036,21.0
107.772,-7.36,7.033,19.0
107.067,-7.276,6.382,28.0
106.918,-7.23,5.771,28.0
107.499,-7.234,5.185,23.0
108.005,-7.232,4.6,31.0
108.971,-7.262,4.029,23.0
107.816,-7.177,6.994,21.0
107.708,-7.133,6.378,20.0
107.015,-7.05,5.732,23.0
107.642,-7.057,5.148,26.0
108.123,-7.052,4.561,27.0
108.824,-7.064,3.979,29.0
107.637,-6.977,6.937,26.0
108.201,-6.976,6.361,22.0
107.422,-6.889,5.707,22.0
107.664,-6.869,5.101,28.0
107.966,-6.853,4.506,22.0
108.841,-6.874,3.929,26.0
107.77,-6.795,6.894,18.0
107.684,-6.754,6.279,28.0
107.366,-6.699,5.653,29.0
107.178,-6.651,5.026,29.0
108.407,-6.693,4.472,27.0
109.359,-6.717,3.893,21.0
108.238,-6.638,6.87,24.0
108.08,-6.591,6.247,21.0
107.359,-6.511,5.597,23.0
107.365,-6.476,4.979,28.0
107.782,-6.466,4.389,30.0
109.595,-6.54,3.843,26.0
108.367,-6.454,6.818,24.0
107.456,-6.364,6.151,30.0
107.807,-6.349,5.56,23.0
107.46,-6.292,4.922,25.0
108.071,-6.293,4.338,24.0
117.72,-6.815,4.059,24.0
108.22,-6.252,6.744,22.0
107.592,-6.18,6.094,21.0
107.873,-6.159,5.497,30.0
107.807,-6.12,4.871,24.0
108.011,-6.096,4.268,13.0
118.197,-6.632,4.0,4.0
107.972,-6.045,6.659,24.0
108.02,-6.012,6.048,20.0
108.124,-5.981,5.439,23.0
107.991,-5.938,4.808,39.0
108.98,-5.957,4.234,22.0
116.962,-6.357,3.881,34.0
107.344,-5.82,6.547,21.0
108.038,-5.823,5.975,24.0
108.315,-5.803,5.374,24.0
108.051,-5.753,4.737,27.0
109.328,-5.787,4.172,21.0
117.333,-6.174,3.812,19.0
108.611,-5.699,6.548,22.0
107.998,-5.631,5.895,14.0
108.495,-5.622,5.305,19.0
108.357,-5.581,4.672,23.0
109.567,-5.608,4.101,19.0
117.577,-5.98,3.733,20.0
108.369,-5.496,6.451,21.0
112.311,-5.659,6.046,4.0
109.479,-5.482,5.269,13.0
110.035,-5.474,4.658,15.0
117.541,-5.809,4.307,21.0
141.031,-6.927,4.367,10.0
108.493,-5.311,6.371,22.0
109.038,-5.303,5.781,15.0
114.472,-5.53,5.416,23.0
116.954,-5.614,4.856,21.0
116.993,-5.58,4.192,22.0
140.974,-6.679,4.249,19.0
115.559,-5.456,6.69,14.0
109.357,-5.129,5.706,14.0
114.279,-5.323,5.312,16.0
117.23,-5.423,4.768,25.0
116.764,-5.366,4.084,18.0
141.507,-6.459,4.143,11.0
112.74,-5.125,6.428,7.0
118.672,-5.358,6.088,13.0
117.243,-5.256,5.344,16.0
115.767,-5.155,4.606,22.0
117.32,-5.187,3.998,14.0
140.068,-6.149,3.975,10.0
112.897,-4.935,6.332,22.0
116.842,-5.07,5.885,17.0
117.476,-5.062,5.246,21.0
116.914,-5.001,4.541,20.0
119.803,-5.088,3.969,13.0
139.906,-5.899,3.837,7.0
114.666,-4.814,6.322,24.0
115.025,-4.793,5.683,22.0
116.717,-4.826,5.098,26.0
116.926,-4.8,4.428,23.0
118.352,-4.822,3.806,17.0
141.628,-5.728,3.745,25.0
114.625,-4.612,6.204,24.0
114.505,-4.573,5.543,21.0
116.903,-4.634,4.989,22.0
117.562,-4.625,4.334,25.0
124.894,-4.877,3.891,9.0
141.96,-5.502,3.611,15.0
114.69,-4.423,6.092,23.0
115.417,-4.415,5.468,12.0
117.124,-4.444,4.878,23.0
117.581,-4.426,4.211,12.0
140.089,-5.231,4.217,7.0
141.674,-5.249,3.454,5.0
114.743,-4.227,5.97,17.0
115.962,-4.237,5.367,12.0
117.664,-4.265,4.773,21.0
138.081,-4.963,4.795,23.0
140.007,-4.992,4.061,14.0
163.321,-5.775,3.803,10.0
114.22,-4.015,5.816,16.0
0.0,0.0,0.0,0.0
116.609,-4.032,4.601,11.0
138.473,-4.746,4.655,20.0
163.213,-5.546,4.551,18.0
0.0,0.0,0.0,0.0
119.924,-4.015,5.97,7.0
117.238,-3.89,5.162,19.0
118.792,-3.907,4.548,7.0
138.36,-4.511,4.49,13.0
163.348,-5.278,4.364,20.0
162.272,-5.197,3.405,5.0
117.141,-3.727,5.693,16.0
116.824,-3.682,5.005,21.0
118.443,-3.7,4.394,22.0
139.798,-4.327,4.371,23.0
163.295,-5.009,4.168,10.0
168.246,-5.112,3.329,11.0
117.244,-3.537,5.554,30.0
116.932,-3.494,4.867,17.0
118.569,-3.508,4.253,23.0
140.508,-4.116,4.217,20.0
0.0,0.0,0.0,0.0
178.113,-5.12,3.301,9.0
117.249,-3.343,5.406,11.0
139.494,-3.938,5.628,13.0
143.229,-4.001,4.954,11.0
163.235,-4.515,4.691,47.0
0.0,0.0,0.0,0.0
170.492,-4.624,2.943,3.0
139.207,-3.743,6.237,8.0
139.715,-3.718,5.456,18.0
162.577,-4.282,5.413,13.0
163.233,-4.254,4.479,17.0
168.184,-4.336,3.647,6.0
170.509,-4.349,2.717,6.0
117.332,-2.965,5.101,10.0
140.374,-3.508,5.293,16.0
162.692,-4.023,5.198,17.0
163.289,-3.993,4.259,9.0
170.435,-4.123,3.467,4.0
163.593,-3.915,2.387,9.0
143.633,-3.403,6.048,13.0
140.534,-3.291,5.108,18.0
162.734,-3.768,4.977,17.0
163.475,-3.741,4.041,5.0
170.292,-3.854,3.231,11.0
0.0,0.0,0.0,0.0
190.182,-4.207,7.743,17.0
140.496,-3.072,4.911,8.0
163.409,-3.529,4.769,29.0
171.465,-3.657,3.998,4.0
170.286,-3.589,2.989,5.0
111.967,-2.332,1.322,20.0
190.422,-3.921,7.483,22.0
162.582,-3.303,5.449,27.0
163.317,-3.277,4.531,32.0
0.0,0.0,0.0,0.0
0.0,0.0,0.0,0.0
111.861,-2.158,1.158,150.0
190.405,-3.63,7.205,21.0
162.609,-3.058,5.213,32.0
163.449,-3.031,4.295,20.0
170.265,-3.114,3.474,8.0
0.0,0.0,0.0,0.0
111.795,-1.989,0.992,18.0
190.045,-3.337,6.906,30.0
162.689,-2.817,4.973,15.0
163.321,-2.786,4.048,5.0
173.613,-2.919,3.284,5.0
111.883,-1.853,1.47,44.0
19.761,-0.322,0.145,7.0
191.207,-3.077,6.66,8.0
163.32,-2.587,4.743,23.0
0.0,0.0,0.0,0.0
0.0,0.0,0.0,0.0
19.751,-0.298,0.229,10.0
19.746,-0.293,0.115,29.0
162.584,-2.38,5.41,56.0
163.286,-2.351,4.49,35.0
19.762,-0.279,0.429,0.0
19.747,-0.274,0.312,7.0
19.748,-0.27,0.198,32.0
19.742,-0.265,0.084,8.0
162.591,-2.146,5.152,52.0
19.782,-0.256,0.512,2.0
19.746,-0.251,0.397,8.0
19.728,-0.246,0.28,10.0
19.754,-0.242,0.166,9.0
0.0,0.0,0.0,0.0
19.781,-0.233,0.594,5.0
19.754,-0.228,0.479,9.0
19.737,-0.223,0.364,9.0
19.748,-0.218,0.248,2.0
111.858,-1.215,0.763,3.0
0.0,0.0,0.0,0.0
19.756,-0.205,0.561,9.0
19.741,-0.201,0.447,8.0
19.768,-0.196,0.333,2.0
111.898,-1.088,1.226,150.0
0.0,0.0,0.0,0.0
0.0,0.0,0.0,0.0
19.748,-0.178,0.528,7.0
19.775,-0.174,0.414,2.0
170.62,-1.467,2.588,4.0
112.038,-0.938,1.038,6.0
0.0,0.0,0.0,0.0
19.795,-0.157,-0.045,6.0
19.787,-0.153,0.496,4.0
177.263,-1.331,3.418,21.0
114.421,-0.834,1.542,2.0
19.747,-0.139,0.15,0.0
19.75,-0.135,0.035,8.0
19.727,-0.131,-0.078,12.0
19.681,-0.126,0.459,8.0
19.692,-0.122,0.345,6.0
19.708,-0.118,0.231,10.0
19.723,-0.114,0.115,10.0
19.72,-0.109,0.001,13.0
19.718,-0.105,-0.113,16.0
19.665,-0.101,0.424,9.0
19.67,-0.097,0.31,9.0
19.708,-0.093,0.197,15.0
19.707,-0.089,0.081,12.0
19.702,-0.085,-0.032,16.0
19.731,-0.081,-0.147,16.0
19.648,-0.077,0.39,9.0
19.654,-0.073,0.276,10.0
19.695,-0.069,0.162,17.0
19.689,-0.065,0.046,15.0
19.721,-0.061,-0.068,14.0
19.741,-0.057,-0.182,15.0
19.643,-0.053,0.354,10.0
19.642,-0.049,0.24,13.0
19.696,-0.045,0.127,14.0
19.693,-0.041,0.011,16.0
19.742,-0.038,-0.103,11.0
19.759,-0.034,-0.218,2.0
19.631,-0.03,0.319,13.0
19.642,-0.026,0.205,13.0
19.69,-0.022,0.091,7.0
19.731,-0.019,-0.024,12.0
19.763,-0.015,-0.139,1.0
36.621,-0.021,-0.471,0.0
19.632,-0.007,0.282,13.0
19.753,-0.003,0.17,3.0
19.785,0.0,0.055,4.0
19.751,0.003,-0.061,4.0
19.781,0.007,-0.176,1.0
19.772,0.01,-0.29,2.0
19.635,0.014,0.247,16.0
19.752,0.017,0.133,12.0
19.748,0.021,0.019,17.0
19.751,0.024,-0.097,6.0
19.743,0.028,-0.212,18.0
19.77,0.031,-0.327,15.0
19.646,0.035,0.21,13.0
19.757,0.038,0.097,15.0
19.768,0.042,-0.017,150.0
19.751,0.045,-0.134,39.0
19.775,0.049,-0.249,31.0
19.774,0.052,-0.364,38.0
19.684,0.055,0.174,12.0
19.76,0.059,0.059,53.0
19.763,0.062,-0.055,37.0
19.768,0.066,-0.172,37.0
19.769,0.069,-0.286,18.0
19.772,0.073,-0.401,12.0
19.687,0.075,0.136,14.0
19.73,0.079,0.022,13.0
19.747,0.082,-0.092,2.0
19.735,0.085,-0.209,0.0
19.652,0.088,-0.322,0.0
28.122,0.131,-0.625,0.0
19.667,0.095,0.098,12.0
19.671,0.098,-0.015,9.0
19.729,0.101,-0.13,0.0
0.0,0.0,0.0,0.0
31.046,0.17,-0.569,0.0
26.794,0.151,-0.647,0.0
19.658,0.113,0.06,14.0
19.675,0.116,-0.053,9.0
19.7,0.12,-0.168,1.0
0.0,0.0,0.0,0.0
29.411,0.188,-0.596,0.0
25.679,0.168,-0.67,0.0
19.643,0.131,0.022,16.0
19.655,0.134,-0.091,11.0
19.683,0.137,-0.206,2.0
19.783,0.141,-0.324,0.0
28.143,0.204,-0.625,0.0
24.801,0.184,-0.695,0.0
19.652,0.148,-0.015,22.0
19.655,0.151,-0.129,13.0
19.669,0.154,-0.244,7.0
19.67,0.157,-0.361,6.0
19.702,0.16,-0.476,4.0
19.702,0.162,-0.591,2.0
19.654,0.164,-0.054,12.0
19.649,0.167,-0.168,14.0
19.666,0.17,-0.282,12.0
19.654,0.173,-0.399,15.0
19.668,0.175,-0.513,11.0
19.684,0.178,-0.629,9.0
19.643,0.18,-0.092,16.0
19.651,0.182,-0.206,15.0
19.649,0.185,-0.321,14.0
19.655,0.188,-0.437,19.0
19.675,0.191,-0.553,15.0
19.674,0.193,-0.667,14.0
19.643,0.195,-0.131,17.0
19.649,0.197,-0.245,16.0
19.642,0.2,-0.36,14.0
19.65,0.202,-0.476,18.0
19.669,0.205,-0.592,17.0
19.671,0.208,-0.706,12.0
19.637,0.209,-0.17,17.0
19.651,0.212,-0.285,17.0
19.653,0.214,-0.399,18.0
19.655,0.216,-0.515,17.0
19.671,0.219,-0.631,17.0
19.613,0.221,-0.743,7.0
19.653,0.223,-0.209,17.0
19.65,0.225,-0.324,13.0
19.678,0.228,-0.439,19.0
19.657,0.23,-0.555,16.0
19.673,0.232,-0.67,15.0
19.471,0.232,-0.777,2.0
19.655,0.235,-0.249,18.0
19.65,0.238,-0.363,16.0
19.673,0.24,-0.478,17.0
19.672,0.242,-0.595,14.0
19.643,0.244,-0.709,7.0
18.685,0.234,-0.783,0.0
19.663,0.248,-0.288,15.0
19.669,0.25,-0.403,16.0
19.679,0.252,-0.518,14.0
19.683,0.254,-0.635,5.0
19.571,0.255,-0.746,6.0
18.024,0.237,-0.792,0.0
19.674,0.259,-0.328,13.0
19.677,0.261,-0.443,15.0
19.694,0.263,-0.558,8.0
19.678,0.265,-0.675,0.0
19.406,0.263,-0.778,1.0
17.509,0.239,-0.804,0.0
19.678,0.27,-0.368,14.0
19.701,0.272,-0.483,9.0
19.773,0.275,-0.6,0.0
19.634,0.275,-0.712,3.0
18.72,0.264,-0.788,0.0
16.85,0.239,-0.808,0.0
19.703,0.28,-0.408,9.0
19.709,0.282,-0.523,1.0
21.931,0.315,-0.709,0.0
19.548,0.283,-0.748,4.0
17.896,0.261,-0.79,0.0
16.305,0.239,-0.815,0.0
19.705,0.289,-0.448,1.0
24.212,0.357,-0.691,0.0
21.018,0.312,-0.723,0.0
19.298,0.288,-0.778,1.0
17.385,0.261,-0.802,0.0
15.73,0.237,-0.818,0.0
26.327,0.397,-0.652,1.0
21.975,0.333,-0.672,0.0
19.767,0.301,-0.72,3.0
18.481,0.283,-0.783,0.0
16.65,0.257,-0.803,1.0
15.299,0.237,-0.827,0.0
25.082,0.388,-0.672,0.0
21.836,0.339,-0.712,0.0
19.663,0.307,-0.756,3.0
17.887,0.281,-0.794,0.0
16.307,0.257,-0.819,0.0
14.799,0.234,-0.83,0.0
23.569,0.373,-0.679,0.0
21.024,0.334,-0.728,1.0
19.107,0.305,-0.773,1.0
17.191,0.275,-0.798,0.0
15.648,0.252,-0.817,0.0
14.492,0.234,-0.842,1.0
22.507,0.363,-0.693,1.0
19.804,0.321,-0.725,2.0
18.46,0.3,-0.784,0.0
16.625,0.271,-0.805,1.0
15.2,0.249,-0.825,0.0
14.085,0.232,-0.847,1.0
21.774,0.357,-0.714,1.0
19.746,0.325,-0.763,2.0
17.784,0.294,-0.791,0.0
16.038,0.266,-0.808,0.0
14.754,0.245,-0.83,0.0
13.674,0.228,-0.849,1.0
20.983,0.349,-0.73,1.0
19.045,0.317,-0.774,1.0
17.16,0.287,-0.797,0.0
15.622,0.262,-0.819,0.0
14.43,0.243,-0.841,1.0
13.342,0.225,-0.855,1.0
19.91,0.335,-0.733,2.0
18.286,0.308,-0.78,0.0
16.596,0.28,-0.805,0.0
15.144,0.257,-0.824,0.0
14.055,0.239,-0.847,1.0
13.046,0.222,-0.863,0.0
19.65,0.333,-0.763,2.0
17.688,0.301,-0.79,0.0
15.976,0.272,-0.806,0.0
14.678,0.251,-0.828,0.0
13.57,0.232,-0.845,1.0
12.649,0.217,-0.862,0.0
18.997,0.324,-0.775,1.0
17.105,0.293,-0.797,0.0
15.579,0.267,-0.817,0.0
14.363,0.247,-0.839,1.0
13.316,0.229,-0.856,1.0
12.418,0.214,-0.871,0.0
18.32,0.314,-0.783,0.0
16.383,0.281,-0.796,0.0
15.1,0.26,-0.822,0.0
14.013,0.242,-0.846,1.0
13.007,0.225,-0.862,0.0
12.142,0.21,-0.875,0.0
17.636,0.303,-0.789,0.0
15.972,0.275,-0.808,0.0
14.716,0.254,-0.83,0.0
13.562,0.234,-0.846,1.0
12.632,0.218,-0.862,0.0
11.87,0.205,-0.879,0.0
17.048,0.293,-0.796,0.0
15.541,0.267,-0.816,0.0
14.351,0.247,-0.838,1.0
13.297,0.229,-0.855,1.0
12.411,0.214,-0.871,0.0
11.491,0.199,-0.874,0.0
16.422,0.281,-0.799,0.0
15.084,0.259,-0.822,0.0
14.001,0.24,-0.844,1.0
12.992,0.223,-0.861,0.0
12.132,0.209,-0.875,0.0
11.376,0.196,-0.887,0.0
15.941,0.272,-0.806,0.0
14.668,0.25,-0.827,0.0
13.573,0.232,-0.845,1.0
12.604,0.215,-0.859,0.0
11.873,0.203,-0.879,0.0
11.049,0.189,-0.883,0.0
15.54,0.263,-0.815,0.0
14.374,0.244,-0.838,1.0
13.305,0.226,-0.853,1.0
12.398,0.21,-0.869,1.0
11.52,0.196,-0.875,0.0
10.895,0.185,-0.891,0.0
15.142,0.254,-0.823,0.0
13.994,0.235,-0.842,1.0
12.997,0.218,-0.858,0.0
12.131,0.204,-0.873,1.0
11.401,0.192,-0.887,0.0
10.688,0.18,-0.895,0.0
14.7,0.244,-0.827,0.0
13.61,0.226,-0.845,1.0
12.67,0.21,-0.86,0.0
11.878,0.197,-0.877,0.0
11.074,0.184,-0.882,0.0
10.514,0.174,-0.9,0.0
14.417,0.236,-0.837,1.0
13.309,0.218,-0.851,1.0
12.412,0.203,-0.866,1.0
11.614,0.19,-0.879,0.0
10.947,0.179,-0.893,0.0
10.258,0.167,-0.897,0.0
14.006,0.226,-0.839,1.0
13.049,0.21,-0.858,1.0
12.142,0.195,-0.869,1.0
11.348,0.182,-0.88,0.0
10.726,0.172,-0.894,0.0
10.093,0.162,-0.901,0.0
13.668,0.216,-0.844,1.0
12.719,0.201,-0.86,0.0
11.932,0.188,-0.876,0.0
11.11,0.175,-0.882,0.0
10.53,0.166,-0.897,0.0
9.993,0.157,-0.91,0.0
13.345,0.207,-0.848,1.0
12.458,0.193,-0.864,0.0
11.677,0.18,-0.878,0.0
10.969,0.169,-0.89,0.0
10.364,0.16,-0.902,0.0
9.765,0.15,-0.907,0.0
13.093,0.198,-0.855,1.0
12.197,0.184,-0.868,1.0
11.448,0.173,-0.881,0.0
10.765,0.162,-0.893,0.0
10.131,0.152,-0.899,0.0
9.576,0.143,-0.906,0.0
12.807,0.189,-0.859,0.0
11.993,0.176,-0.874,1.0
11.195,0.164,-0.881,0.0
10.596,0.155,-0.897,0.0
10.022,0.146,-0.907,0.0
9.452,0.137,-0.911,0.0
12.514,0.179,-0.861,0.0
11.763,0.168,-0.878,1.0
11.053,0.157,-0.889,0.0
10.387,0.147,-0.897,0.0
9.838,0.139,-0.907,0.0
9.341,0.132,-0.916,0.0
12.31,0.17,-0.868,1.0
11.553,0.159,-0.882,0.0
10.85,0.149,-0.891,0.0
10.214,0.14,-0.9,0.0
9.627,0.131,-0.904,0.0
9.236,0.125,-0.922,0.0
12.082,0.161,-0.872,2.0
11.318,0.15,-0.883,0.0
10.651,0.141,-0.893,0.0
10.058,0.132,-0.903,0.0
9.503,0.125,-0.909,0.0
9.041,0.118,-0.918,0.0
11.829,0.151,-0.874,2.0
11.112,0.141,-0.885,0.0
10.485,0.133,-0.896,0.0
9.935,0.125,-0.908,0.0
9.391,0.118,-0.914,0.0
8.898,0.111,-0.918,0.0
11.666,0.143,-0.88,1.0
10.962,0.133,-0.891,0.0
10.352,0.125,-0.902,0.0
9.758,0.117,-0.908,0.0
9.266,0.111,-0.917,0.0
8.813,0.105,-0.923,0.0
11.455,0.133,-0.883,0.0
10.76,0.124,-0.892,0.0
10.142,0.117,-0.9,0.0
9.614,0.11,-0.91,0.0
9.148,0.104,-0.919,0.0
8.684,0.098,-0.924,0.0
11.252,0.124,-0.885,0.0
10.62,0.116,-0.897,0.0
9.948,0.108,-0.898,0.0
9.443,0.102,-0.909,0.0
9.005,0.096,-0.919,0.0
8.559,0.091,-0.924,0.0
11.08,0.115,-0.888,0.0
10.414,0.107,-0.896,0.0
9.854,0.1,-0.905,0.0
9.333,0.094,-0.912,0.0
8.874,0.089,-0.919,0.0
8.446,0.084,-0.925,0.0
10.895,0.105,-0.89,0.0
10.311,0.099,-0.902,0.0
9.765,0.093,-0.911,0.0
9.239,0.087,-0.917,0.0
8.789,0.082,-0.924,0.0
8.364,0.077,-0.928,0.0
10.745,0.096,-0.893,0.0
10.111,0.089,-0.899,0.0
9.6,0.084,-0.91,0.0
9.103,0.079,-0.917,0.0
8.665,0.074,-0.923,0.0
8.264,0.07,-0.929,0.0
10.583,0.087,-0.895,0.0
10.04,0.081,-0.908,0.0
9.468,0.076,-0.911,0.0
9.012,0.071,-0.921,0.0
8.542,0.067,-0.922,0.0
8.168,0.063,-0.93,0.0
10.42,0.077,-0.896,0.0
9.867,0.072,-0.906,0.0
9.342,0.068,-0.912,0.0
8.859,0.063,-0.917,0.0
8.44,0.059,-0.923,0.0
8.074,0.056,-0.93,0.0
10.301,0.068,-0.9,0.0
9.703,0.063,-0.904,0.0
9.245,0.059,-0.915,0.0
8.78,0.055,-0.921,0.0
8.372,0.052,-0.927,0.0
8.027,0.049,-0.936,0.0
10.136,0.059,-0.899,0.0
9.615,0.055,-0.909,0.0
9.095,0.051,-0.912,0.0
8.679,0.047,-0.922,0.0
8.298,0.044,-0.93,0.0
7.924,0.042,-0.934,0.0
10.051,0.05,-0.905,0.0
9.48,0.046,-0.908,0.0
9.059,0.043,-0.92,0.0
8.625,0.04,-0.927,0.0
8.201,0.037,-0.929,0.0
7.854,0.034,-0.936,0.0
9.935,0.041,-0.907,0.0
9.418,0.037,-0.914,0.0
8.953,0.034,-0.921,0.0
8.463,0.032,-0.921,0.0
8.126,0.029,-0.931,0.0
7.778,0.027,-0.937,0.0
9.79,0.031,-0.905,0.0
9.27,0.029,-0.911,0.0
8.82,0.026,-0.918,0.0
8.421,0.024,-0.926,0.0
8.054,0.022,-0.933,0.0
7.716,0.02,-0.939,0.0
9.666,0.022,-0.905,0.0
9.191,0.02,-0.914,0.0
8.741,0.018,-0.92,0.0
8.359,0.016,-0.929,0.0
8.031,0.014,-0.939,0.0
7.678,0.013,-0.943,0.0
9.544,0.013,-0.905,0.0
9.111,0.011,-0.916,0.0
8.693,0.01,-0.925,0.0
8.277,0.008,-0.929,0.0
7.918,0.006,-0.935,0.0
7.59,0.005,-0.941,0.0
9.473,0.004,-0.909,0.0
9.03,0.002,-0.918,0.0
8.603,0.001,-0.925,0.0
8.217,0.0,-0.932,0.0
7.843,0.0,-0.935,0.0
7.528,-0.001,-0.941,0.0
9.396,-0.004,-0.911,0.0
8.949,-0.005,-0.92,0.0
8.507,-0.006,-0.923,0.0
8.121,-0.007,-0.929,0.0
7.793,-0.008,-0.937,0.0
7.483,-0.009,-0.944,0.0
9.323,-0.014,-0.914,0.0
8.855,-0.014,-0.919,0.0
8.427,-0.015,-0.923,0.0
8.039,-0.015,-0.928,0.0
7.749,-0.016,-0.94,0.0
7.411,-0.016,-0.942,0.0
9.264,-0.023,-0.917,0.0
8.801,-0.023,-0.922,0.0
8.382,-0.023,-0.927,0.0
8.017,-0.023,-0.934,0.0
7.714,-0.024,-0.943,0.0
7.371,-0.024,-0.944,0.0
9.144,-0.032,-0.914,0.0
8.739,-0.032,-0.924,0.0
8.323,-0.032,-0.928,0.0
7.973,-0.031,-0.936,0.0
7.638,-0.031,-0.941,0.0
7.291,-0.031,-0.94,0.0
9.06,-0.041,-0.914,0.0
8.667,-0.041,-0.924,0.0
8.234,-0.04,-0.925,0.0
7.931,-0.04,-0.938,0.0
7.582,-0.039,-0.941,0.0
7.277,-0.039,-0.945,0.0
9.01,-0.05,-0.917,0.0
8.571,-0.049,-0.921,0.0
8.202,-0.049,-0.929,0.0
7.853,-0.048,-0.935,0.0
7.549,-0.047,-0.943,0.0
7.25,-0.046,-0.948,0.0
8.942,-0.06,-0.917,0.0
8.503,-0.058,-0.921,0.0
8.171,-0.057,-0.932,0.0
7.815,-0.056,-0.937,0.0
7.496,-0.055,-0.942,0.0
7.196,-0.054,-0.946,0.0
8.892,-0.069,-0.919,0.0
8.454,-0.067,-0.922,0.0
8.119,-0.066,-0.932,0.0
7.73,-0.064,-0.933,0.0
7.443,-0.063,-0.941,0.0
7.154,-0.062,-0.946,0.0
8.853,-0.079,-0.921,0.0
8.427,-0.076,-0.925,0.0
8.063,-0.074,-0.932,0.0
7.703,-0.072,-0.935,0.0
7.411,-0.071,-0.943,0.0
7.113,-0.069,-0.946,0.0
8.784,-0.088,-0.92,0.0
8.379,-0.085,-0.926,0.0
8.002,-0.083,-0.93,0.0
7.662,-0.081,-0.935,0.0
7.382,-0.079,-0.944,0.0
7.131,-0.077,-0.953,0.0
8.751,-0.097,-0.922,0.0
8.326,-0.094,-0.925,0.0
7.969,-0.091,-0.931,0.0
7.628,-0.089,-0.936,0.0
7.362,-0.087,-0.946,0.0
7.072,-0.085,-0.95,0.0
8.724,-0.107,-0.925,0.0
8.306,-0.103,-0.928,0.0
7.927,-0.1,-0.931,0.0
7.65,-0.098,-0.943,0.0
7.323,-0.095,-0.945,0.0
7.04,-0.092,-0.949,0.0
8.679,-0.116,-0.925,0.0
8.29,-0.112,-0.931,0.0
7.928,-0.109,-0.935,0.0
7.596,-0.106,-0.941,0.0
7.315,-0.103,-0.948,0.0
7.0,-0.1,-0.948,0.0
8.638,-0.125,-0.925,0.0
8.249,-0.121,-0.93,0.0
7.898,-0.118,-0.936,0.0
7.576,-0.114,-0.942,0.0
7.252,-0.111,-0.943,0.0
6.99,-0.108,-0.95,0.0
8.6,-0.135,-0.925,0.0
8.184,-0.13,-0.927,0.0
7.886,-0.127,-0.938,0.0
7.549,-0.123,-0.942,0.0
7.235,-0.119,-0.944,0.0
6.967,-0.116,-0.949,0.0
8.544,-0.144,-0.923,0.0
8.184,-0.139,-0.93,0.0
7.819,-0.135,-0.933,0.0
7.532,-0.131,-0.943,0.0
7.226,-0.127,-0.946,0.0
6.961,-0.124,-0.951,0.0
8.546,-0.154,-0.926,0.0
8.163,-0.148,-0.931,0.0
7.791,-0.143,-0.933,0.0
7.482,-0.139,-0.939,0.0
7.222,-0.136,-0.948,0.0
6.965,-0.132,-0.954,0.0
8.526,-0.163,-0.927,0.0
8.114,-0.157,-0.928,0.0
7.783,-0.152,-0.934,0.0
7.415,-0.147,-0.933,0.0
7.212,-0.144,-0.949,0.0
6.94,-0.14,-0.953,0.0
8.52,-0.173,-0.928,0.0
8.118,-0.167,-0.931,0.0
7.758,-0.161,-0.933,0.0
7.441,-0.156,-0.939,0.0
7.15,-0.151,-0.943,0.0
6.926,-0.148,-0.953,0.0
8.49,-0.183,-0.927,0.0
8.129,-0.176,-0.934,0.0
7.76,-0.17,-0.935,0.0
7.423,-0.164,-0.938,0.0
7.188,-0.16,-0.949,0.0
6.891,-0.155,-0.949,0.0
8.482,-0.192,-0.928,0.0
8.092,-0.185,-0.931,0.0
7.75,-0.179,-0.936,0.0
7.426,-0.173,-0.939,0.0
7.15,-0.168,-0.945,0.0
6.912,-0.164,-0.953,0.0
8.463,-0.202,-0.927,0.0
8.061,-0.194,-0.929,0.0
7.739,-0.188,-0.935,0.0
7.393,-0.181,-0.936,0.0
7.166,-0.177,-0.948,0.0
6.891,-0.171,-0.951,0.0
8.453,-0.211,-0.927,0.0
8.103,-0.204,-0.934,0.0
7.752,-0.197,-0.938,0.0
7.405,-0.19,-0.938,0.0
7.15,-0.185,-0.947,0.0
6.874,-0.179,-0.949,0.0
8.47,-0.222,-0.929,0.0
8.107,-0.214,-0.935,0.0
7.765,-0.206,-0.939,0.0
7.399,-0.198,-0.938,0.0
7.146,-0.193,-0.946,0.0
6.879,-0.187,-0.95,0.0
8.457,-0.231,-0.928,0.0
8.109,-0.223,-0.935,0.0
7.755,-0.215,-0.938,0.0
7.404,-0.207,-0.938,0.0
7.115,-0.2,-0.942,0.0
6.851,-0.194,-0.946,0.0
8.454,-0.241,-0.927,0.0
8.1,-0.232,-0.934,0.0
7.741,-0.224,-0.936,0.0
7.415,-0.216,-0.939,0.0
7.143,-0.209,-0.945,0.0
6.88,-0.203,-0.949,0.0
8.472,-0.251,-0.928,0.0
8.092,-0.241,-0.932,0.0
7.757,-0.233,-0.937,0.0
7.422,-0.224,-0.939,0.0
7.183,-0.219,-0.95,0.0
6.916,-0.212,-0.953,0.0
8.469,-0.26,-0.927,0.0
8.112,-0.251,-0.933,0.0
7.79,-0.243,-0.94,0.0
7.467,-0.234,-0.944,0.0
7.193,-0.227,-0.95,0.0
6.902,-0.219,-0.95,0.0
8.499,-0.271,-0.929,0.0
8.103,-0.26,-0.931,0.0
7.783,-0.251,-0.938,0.0
7.462,-0.243,-0.942,0.0
0.0,0.0,0.0,0.0
6.935,-0.228,-0.953,0.0
9.271,-0.451,-0.923,0.0
8.821,-0.43,-0.927,0.0
8.442,-0.413,-0.933,0.0
8.075,-0.397,-0.937,0.0
7.634,-0.376,-0.928,0.0
7.491,-0.371,-0.952,0.0
9.351,-0.462,-0.923,0.0
8.913,-0.442,-0.928,0.0
8.536,-0.424,-0.935,0.0
8.165,-0.407,-0.94,0.0
7.804,-0.391,-0.941,0.0
7.547,-0.379,-0.951,0.0
9.447,-0.474,-0.923,0.0
8.996,-0.453,-0.928,0.0
8.582,-0.433,-0.932,0.0
8.198,-0.415,-0.935,0.0
7.898,-0.401,-0.944,0.0
7.601,-0.388,-0.95,0.0
9.515,-0.484,-0.92,0.0
9.07,-0.463,-0.926,0.0
8.672,-0.444,-0.933,0.0
8.236,-0.423,-0.931,0.0
7.952,-0.41,-0.943,0.0
7.618,-0.394,-0.945,0.0
9.585,-0.494,-0.917,0.0
9.15,-0.473,-0.925,0.0
8.75,-0.454,-0.932,0.0
8.345,-0.434,-0.935,0.0
8.024,-0.419,-0.943,0.0
7.702,-0.404,-0.947,0.0
9.7,-0.507,-0.917,0.0
9.232,-0.484,-0.923,0.0
8.804,-0.463,-0.928,0.0
8.403,-0.443,-0.932,0.0
8.059,-0.426,-0.938,0.0
7.75,-0.411,-0.944,0.0
9.823,-0.52,-0.918,0.0
9.365,-0.497,-0.926,0.0
8.924,-0.475,-0.931,0.0
8.483,-0.453,-0.931,0.0
8.157,-0.436,-0.94,0.0
7.85,-0.421,-0.947,0.0
9.888,-0.529,-0.913,0.0
9.452,-0.507,-0.924,0.0
8.993,-0.484,-0.927,0.0
8.606,-0.464,-0.935,0.0
8.241,-0.446,-0.94,0.0
7.911,-0.429,-0.945,0.0
10.046,-0.543,-0.916,0.0
9.522,-0.516,-0.919,0.0
9.094,-0.494,-0.927,0.0
8.657,-0.472,-0.93,0.0
8.281,-0.453,-0.934,0.0
7.977,-0.437,-0.943,0.0
10.154,-0.555,-0.913,0.0
9.641,-0.528,-0.919,0.0
9.179,-0.504,-0.924,0.0
8.786,-0.484,-0.933,0.0
8.409,-0.464,-0.938,0.0
8.046,-0.445,-0.941,0.0
10.258,-0.566,-0.91,0.0
9.755,-0.539,-0.918,0.0
9.285,-0.514,-0.923,0.0
8.868,-0.493,-0.93,0.0
8.502,-0.473,-0.938,0.0
8.12,-0.453,-0.939,0.0
10.387,-0.578,-0.908,0.0
9.882,-0.551,-0.917,0.0
9.424,-0.527,-0.925,0.0
8.955,-0.501,-0.928,0.0
8.57,-0.481,-0.934,0.0
8.242,-0.464,-0.943,0.0
10.569,-0.593,-0.91,0.0
10.006,-0.562,-0.915,0.0
9.511,-0.536,-0.921,0.0
9.068,-0.512,-0.928,0.0
8.671,-0.49,-0.934,0.0
8.302,-0.47,-0.939,0.0
10.646,-0.601,-0.903,0.0
10.152,-0.574,-0.915,0.0
9.634,-0.546,-0.92,0.0
9.194,-0.522,-0.928,0.0
8.801,-0.501,-0.936,0.0
8.424,-0.481,-0.941,0.0
10.803,-0.614,-0.902,0.0
10.237,-0.583,-0.909,0.0
9.784,-0.558,-0.921,0.0
9.279,-0.531,-0.924,0.0
8.868,-0.508,-0.931,0.0
8.481,-0.487,-0.935,0.0
11.048,-0.632,-0.907,0.0
10.374,-0.594,-0.907,0.0
9.887,-0.567,-0.917,0.0
9.404,-0.541,-0.923,0.0
8.972,-0.517,-0.929,0.0
8.614,-0.497,-0.938,0.0
11.141,-0.641,-0.899,0.0
10.581,-0.609,-0.91,0.0
10.053,-0.58,-0.918,0.0
9.527,-0.55,-0.922,0.0
9.12,-0.528,-0.931,0.0
8.698,-0.504,-0.935,0.0
11.282,-0.652,-0.894,0.0
10.676,-0.618,-0.903,0.0
10.179,-0.59,-0.915,0.0
9.668,-0.561,-0.922,0.0
9.211,-0.535,-0.927,0.0
8.812,-0.513,-0.934,0.0
11.481,-0.666,-0.894,0.0
10.894,-0.633,-0.906,0.0
10.265,-0.597,-0.908,0.0
9.819,-0.572,-0.922,0.0
9.352,-0.545,-0.928,0.0
8.917,-0.521,-0.932,0.0
11.657,-0.678,-0.89,0.0
11.044,-0.643,-0.902,0.0
10.476,-0.611,-0.911,0.0
9.947,-0.581,-0.919,0.0
9.463,-0.553,-0.924,0.0
9.047,-0.529,-0.932,0.0
11.85,-0.691,-0.887,0.0
11.216,-0.655,-0.899,0.0
10.646,-0.622,-0.91,0.0
10.118,-0.592,-0.919,0.0
9.628,-0.564,-0.926,0.0
9.168,-0.538,-0.93,0.0
12.055,-0.705,-0.884,0.0
11.353,-0.664,-0.893,0.0
10.836,-0.634,-0.909,0.0
10.236,-0.6,-0.914,0.0
9.753,-0.572,-0.923,0.0
9.309,-0.547,-0.93,0.0
12.266,-0.718,-0.881,0.0
11.618,-0.681,-0.896,0.0
11.002,-0.645,-0.906,0.0
10.294,-0.604,-0.904,0.0
9.902,-0.581,-0.922,0.0
9.445,-0.555,-0.929,0.0
12.49,-0.731,-0.878,0.0
11.769,-0.69,-0.889,0.0
11.19,-0.656,-0.905,0.0
10.56,-0.62,-0.91,0.0
10.073,-0.591,-0.922,0.0
9.566,-0.562,-0.926,0.0
12.68,-0.743,-0.871,0.0
11.929,-0.699,-0.882,0.0
11.334,-0.664,-0.898,0.0
10.748,-0.63,-0.91,0.0
10.218,-0.599,-0.919,0.0
9.719,-0.571,-0.925,0.0
12.97,-0.759,-0.871,0.0
12.238,-0.716,-0.886,0.0
11.504,-0.674,-0.893,0.0
10.943,-0.641,-0.908,0.0
10.276,-0.602,-0.907,0.0
9.841,-0.577,-0.921,0.0
13.208,-0.772,-0.865,0.0
12.392,-0.724,-0.877,0.0
11.717,-0.685,-0.891,0.0
11.099,-0.649,-0.903,0.0
10.546,-0.617,-0.914,0.0
10.049,-0.588,-0.924,0.0
13.472,-0.785,-0.861,0.0
12.684,-0.74,-0.877,0.0
11.956,-0.697,-0.889,0.0
11.273,-0.657,-0.899,0.0
10.669,-0.622,-0.907,0.0
10.202,-0.595,-0.921,0.0
13.872,-0.806,-0.864,0.0
12.927,-0.751,-0.873,0.0
12.166,-0.707,-0.885,0.0
11.462,-0.666,-0.895,0.0
10.899,-0.633,-0.909,0.0
10.281,-0.597,-0.911,0.0
14.178,-0.821,-0.86,0.0
13.135,-0.761,-0.865,0.0
12.366,-0.716,-0.879,0.0
11.712,-0.678,-0.896,0.0
11.123,-0.644,-0.909,0.0
10.517,-0.609,-0.915,0.0
14.555,-0.839,-0.858,0.0
13.32,-0.768,-0.855,0.0
12.558,-0.724,-0.872,0.0
11.896,-0.685,-0.89,0.0
11.281,-0.65,-0.903,0.0
10.706,-0.616,-0.913,0.0
14.851,-0.852,-0.851,0.0
13.781,-0.79,-0.862,0.0
12.891,-0.739,-0.874,0.0
12.108,-0.694,-0.886,0.0
11.462,-0.656,-0.899,0.0
10.865,-0.622,-0.909,0.0
46.239,5.253,0.113,21.0
37.205,4.231,-0.121,10.0
34.549,3.933,-0.31,11.0
27.958,3.186,-0.413,7.0
17.689,2.017,-0.362,15.0
17.131,1.956,-0.449,16.0
46.208,5.288,0.062,8.0
36.897,4.226,-0.161,40.0
32.227,3.695,-0.325,8.0
26.881,3.085,-0.427,6.0
17.519,2.012,-0.378,16.0
16.998,1.954,-0.464,16.0
44.062,5.078,0.01,19.0
35.956,4.147,-0.197,12.0
31.275,3.61,-0.35,9.0
26.079,3.013,-0.443,2.0
17.331,2.004,-0.394,16.0
16.825,1.947,-0.479,15.0
42.897,4.975,-0.038,18.0
35.619,4.134,-0.235,12.0
30.214,3.509,-0.372,8.0
18.054,2.099,-0.327,13.0
17.177,1.999,-0.41,14.0
16.694,1.944,-0.494,17.0
38.587,4.502,-0.078,13.0
0.0,0.0,0.0,0.0
29.183,3.41,-0.393,8.0
17.783,2.079,-0.343,15.0
17.019,1.992,-0.426,17.0
16.602,1.945,-0.51,16.0
38.164,4.478,-0.122,21.0
33.423,3.924,-0.298,10.0
18.146,2.132,-0.265,4.0
17.436,2.05,-0.356,15.0
16.84,1.982,-0.441,16.0
16.519,1.946,-0.527,16.0
38.064,4.49,-0.165,2.0
32.741,3.864,-0.33,10.0
18.133,2.141,-0.286,14.0
17.247,2.038,-0.373,15.0
16.717,1.977,-0.457,16.0
16.418,1.943,-0.543,17.0
35.229,4.175,-0.194,12.0
18.118,2.148,-0.203,1.0
18.127,2.151,-0.307,16.0
17.154,2.037,-0.391,15.0
16.625,1.975,-0.474,16.0
16.356,1.945,-0.56,16.0
34.612,4.12,-0.231,21.0
18.106,2.156,-0.224,8.0
17.837,2.126,-0.323,14.0
16.94,2.02,-0.406,14.0
16.529,1.972,-0.491,18.0
16.293,1.946,-0.577,16.0
34.186,4.086,-0.269,11.0
18.109,2.165,-0.246,15.0
17.503,2.094,-0.338,14.0
16.775,2.008,-0.422,14.0
16.447,1.97,-0.508,17.0
16.253,1.948,-0.595,16.0
18.103,2.171,-0.163,5.0
18.117,2.174,-0.267,13.0
17.257,2.072,-0.354,14.0
16.7,2.006,-0.44,16.0
16.37,1.967,-0.525,16.0
16.209,1.949,-0.613,15.0
18.096,2.177,-0.185,14.0
18.117,2.181,-0.289,7.0
17.112,2.061,-0.371,15.0
16.596,2.0,-0.457,16.0
16.34,1.97,-0.543,15.0
16.173,1.951,-0.631,15.0
18.099,2.184,-0.206,16.0
25.617,3.092,-0.439,1.0
16.958,2.048,-0.388,15.0
16.52,1.996,-0.474,16.0
16.316,1.972,-0.562,15.0
16.133,1.951,-0.648,14.0
18.104,2.19,-0.228,14.0
17.511,2.119,-0.321,12.0
16.827,2.037,-0.404,17.0
16.436,1.99,-0.491,17.0
16.258,1.969,-0.579,16.0
16.061,1.947,-0.664,11.0
18.108,2.195,-0.249,8.0
17.273,2.094,-0.337,14.0
16.729,2.029,-0.422,15.0
16.362,1.985,-0.508,17.0
16.222,1.969,-0.597,16.0
15.983,1.941,-0.68,11.0
27.049,3.284,-0.405,3.0
17.135,2.081,-0.354,15.0
16.637,2.021,-0.44,15.0
16.327,1.984,-0.527,17.0
16.186,1.967,-0.615,14.0
15.974,1.942,-0.699,14.0
26.117,3.175,-0.422,6.0
17.023,2.07,-0.372,15.0
