X,Y,Z,Reflectivity
0.0,0.0,0.0,0.0
0.0,0.0,0.0,0.0
0.0,0.0,0.0,0.0
0.0,0.0,0.0,0.0
0.0,0.0,0.0,0.0
0.0,0.0,0.0,0.0
0.0,0.0,0.0,0.0
0.0,0.0,0.0,0.0
0.0,0.0,0.0,0.0
0.0,0.0,0.0,0.0
0.0,0.0,0.0,0.0
0.0,0.0,0.0,0.0
0.0,0.0,0.0,0.0
0.0,0.0,0.0,0.0
0.0,0.0,0.0,0.0
0.0,0.0,0.0,0.0
0.0,0.0,0.0,0.0
0.0,0.0,0.0,0.0
0.0,0.0,0.0,0.0
0.0,0.0,0.0,0.0
0.0,0.0,0.0,0.0
0.0,0.0,0.0,0.0
0.0,0.0,0.0,0.0
0.0,0.0,0.0,0.0
0.0,0.0,0.0,0.0
0.0,0.0,0.0,0.0
0.0,0.0,0.0,0.0
0.0,0.0,0.0,0.0
0.0,0.0,0.0,0.0
0.0,0.0,0.0,0.0
0.0,0.0,0.0,0.0
0.0,0.0,0.0,0.0
0.0,0.0,0.0,0.0
0.0,0.0,0.0,0.0
0.0,0.0,0.0,0.0
0.0,0.0,0.0,0.0
0.0,0.0,0.0,0.0
0.0,0.0,0.0,0.0
0.0,0.0,0.0,0.0
0.0,0.0,0.0,0.0
0.0,0.0,0.0,0.0
0.0,0.0,0.0,0.0
0.0,0.0,0.0,0.0
0.0,0.0,0.0,0.0
0.0,0.0,0.0,0.0
0.0,0.0,0.0,0.0
0.0,0.0,0.0,0.0
0.0,0.0,0.0,0.0
0.0,0.0,0.0,0.0
0.0,0.0,0.0,0.0
0.0,0.0,0.0,0.0
0.0,0.0,0.0,0.0
0.0,0.0,0.0,0.0
0.0,0.0,0.0,0.0
0.0,0.0,0.0,0.0
0.0,0.0,0.0,0.0
0.0,0.0,0.0,0.0
0.0,0.0,0.0,0.0
0.0,0.0,0.0,0.0
0.0,0.0,0.0,0.0
0.0,0.0,0.0,0.0
0.0,0.0,0.0,0.0
0.0,0.0,0.0,0.0
0.0,0.0,0.0,0.0
0.0,0.0,0.0,0.0
0.0,0.0,0.0,0.0
0.0,0.0,0.0,0.0
0.0,0.0,0.0,0.0
0.0,0.0,0.0,0.0
0.0,0.0,0.0,0.0
0.0,0.0,0.0,0.0
0.0,0.0,0.0,0.0
0.0,0.0,0.0,0.0
0.0,0.0,0.0,0.0
0.0,0.0,0.0,0.0
0.0,0.0,0.0,0.0
0.0,0.0,0.0,0.0
0.0,0.0,0.0,0.0
0.0,0.0,0.0,0.0
0.0,0.0,0.0,0.0
0.0,0.0,0.0,0.0
0.0,0.0,0.0,0.0
0.0,0.0,0.0,0.0
0.0,0.0,0.0,0.0
0.0,0.0,0.0,0.0
0.0,0.0,0.0,0.0
0.0,0.0,0.0,0.0
0.0,0.0,0.0,0.0
0.0,0.0,0.0,0.0
0.0,0.0,0.0,0.0
0.0,0.0,0.0,0.0
0.0,0.0,0.0,0.0
0.0,0.0,0.0,0.0
0.0,0.0,0.0,0.0
0.0,0.0,0.0,0.0
0.0,0.0,0.0,0.0
0.0,0.0,0.0,0.0
0.0,0.0,0.0,0.0
0.0,0.0,0.0,0.0
0.0,0.0,0.0,0.0
0.0,0.0,0.0,0.0
0.0,0.0,0.0,0.0
0.0,0.0,0.0,0.0
0.0,0.0,0.0,0.0
0.0,0.0,0.0,0.0
0.0,0.0,0.0,0.0
0.0,0.0,0.0,0.0
0.0,0.0,0.0,0.0
0.0,0.0,0.0,0.0
0.0,0.0,0.0,0.0
0.0,0.0,0.0,0.0
0.0,0.0,0.0,0.0
0.0,0.0,0.0,0.0
0.0,0.0,0.0,0.0
0.0,0.0,0.0,0.0
0.0,0.0,0.0,0.0
0.0,0.0,0.0,0.0
0.0,0.0,0.0,0.0
0.0,0.0,0.0,0.0
0.0,0.0,0.0,0.0
0.0,0.0,0.0,0.0
0.0,0.0,0.0,0.0
0.0,0.0,0.0,0.0
0.0,0.0,0.0,0.0
0.0,0.0,0.0,0.0
0.0,0.0,0.0,0.0
23.567,0.986,2.536,0.0
23.621,0.989,2.402,0.0
23.637,0.991,2.267,0.0
23.525,0.988,2.12,0.0
23.52,0.995,2.774,0.0
23.557,0.998,2.641,0.0
23.51,0.996,2.499,0.0
23.577,1.0,2.367,0.0
23.58,1.001,2.23,0.0
23.558,1.001,2.092,2.0
23.55,1.008,2.746,18.0
23.546,1.009,2.609,20.0
23.55,1.01,2.472,22.0
23.544,1.01,2.332,25.0
23.569,1.012,2.198,28.0
23.574,1.013,2.061,32.0
23.558,1.02,2.715,37.0
23.559,1.021,2.577,36.0
23.56,1.021,2.44,38.0
23.572,1.023,2.302,40.0
23.566,1.023,2.165,40.0
23.557,1.023,2.027,42.0
23.554,1.031,2.681,39.0
23.551,1.031,2.543,39.0
23.556,1.032,2.407,39.0
23.554,1.032,2.267,39.0
23.551,1.033,2.13,42.0
23.558,1.033,1.994,42.0
23.528,1.039,2.644,50.0
23.532,1.04,2.507,51.0
23.536,1.04,2.37,49.0
23.535,1.041,2.231,55.0
23.546,1.041,2.095,57.0
23.54,1.042,1.958,59.0
23.527,1.048,2.61,73.0
23.525,1.048,2.472,68.0
23.528,1.049,2.335,69.0
23.533,1.049,2.196,72.0
23.543,1.05,2.06,68.0
23.543,1.05,1.924,67.0
23.523,1.056,2.574,78.0
23.532,1.057,2.437,73.0
23.519,1.056,2.299,73.0
23.525,1.056,2.16,72.0
23.537,1.057,2.025,71.0
23.544,1.058,1.888,71.0
23.529,1.064,2.539,76.0
23.521,1.063,2.4,71.0
23.523,1.063,2.263,74.0
23.537,1.064,2.125,71.0
23.541,1.064,1.989,69.0
23.551,1.065,1.853,69.0
23.527,1.07,2.502,77.0
23.525,1.07,2.364,72.0
23.53,1.07,2.228,71.0
23.537,1.07,2.089,70.0
23.541,1.07,1.953,65.0
23.546,1.07,1.816,68.0
23.537,1.076,2.466,73.0
23.528,1.075,2.328,70.0
23.53,1.075,2.191,71.0
23.534,1.075,2.052,66.0
23.549,1.075,1.916,66.0
23.548,1.075,1.78,69.0
23.536,1.08,2.429,76.0
23.53,1.08,2.291,76.0
23.528,1.079,2.153,69.0
23.535,1.079,2.015,68.0
23.54,1.079,1.878,69.0
23.55,1.079,1.742,68.0
23.531,1.084,2.391,76.0
23.539,1.084,2.254,78.0
23.527,1.083,2.115,71.0
23.534,1.082,1.977,64.0
23.546,1.082,1.841,69.0
23.553,1.082,1.705,69.0
23.534,1.087,2.353,74.0
23.534,1.086,2.215,76.0
23.534,1.085,2.078,69.0
23.54,1.085,1.939,68.0
23.547,1.085,1.803,70.0
23.557,1.085,1.667,68.0
41.927,1.765,2.94,4.0
0.0,0.0,0.0,0.0
120.819,5.059,7.065,19.0
120.793,5.043,6.351,5.0
180.22,7.503,8.431,13.0
178.827,7.426,7.33,14.0
41.99,1.743,2.868,114.0
45.577,1.886,2.848,16.0
120.931,4.988,6.853,17.0
121.084,4.979,6.146,12.0
179.623,7.364,8.075,18.0
178.744,7.307,7.0,18.0
0.0,0.0,0.0,0.0
120.583,4.91,7.313,21.0
120.793,4.902,6.624,21.0
121.262,4.906,5.933,3.0
179.291,7.231,7.733,15.0
178.841,7.189,6.677,11.0
0.0,0.0,0.0,0.0
120.582,4.825,7.092,24.0
120.89,4.822,6.409,19.0
0.0,0.0,0.0,0.0
178.866,7.085,7.389,19.0
178.965,7.067,6.359,13.0
45.585,1.797,2.864,55.0
120.823,4.747,6.888,17.0
120.926,4.734,6.192,20.0
179.249,6.992,8.12,7.0
178.656,6.944,7.059,18.0
162.603,6.297,5.483,12.0
121.261,4.689,7.399,13.0
120.827,4.654,6.671,22.0
134.375,5.157,6.64,12.0
120.312,4.599,5.235,14.0
178.601,6.802,6.739,16.0
162.615,6.169,5.194,5.0
121.226,4.59,7.178,21.0
121.01,4.563,6.462,23.0
134.359,5.045,6.395,23.0
120.165,4.495,5.012,14.0
120.678,4.496,4.336,10.0
43.17,1.601,1.301,2.0
121.308,4.489,6.964,16.0
121.077,4.461,6.247,25.0
120.186,4.41,5.505,18.0
120.35,4.397,4.803,20.0
120.663,4.389,4.117,7.0
44.827,1.624,1.27,19.0
135.179,4.884,7.518,25.0
121.124,4.355,6.033,14.0
120.003,4.295,5.281,14.0
120.271,4.286,4.585,18.0
120.997,4.292,3.913,20.0
163.411,5.77,4.339,12.0
135.612,4.774,7.3,12.0
120.391,4.218,5.783,15.0
120.288,4.193,5.08,9.0
120.445,4.18,4.379,19.0
121.109,4.182,3.703,17.0
121.615,4.179,3.015,3.0
121.193,4.15,6.31,21.0
120.274,4.098,5.566,17.0
120.246,4.076,4.868,19.0
120.708,4.071,4.176,20.0
121.282,4.07,3.495,16.0
40.108,1.338,0.924,6.0
121.19,4.029,6.095,17.0
40.114,1.326,1.785,6.0
40.105,1.318,1.552,68.0
40.111,1.311,1.316,150.0
40.117,1.305,1.085,150.0
40.121,1.298,0.854,150.0
40.118,1.292,1.947,113.0
40.125,1.285,1.715,90.0
40.12,1.277,1.483,135.0
40.109,1.269,1.246,150.0
40.107,1.262,1.015,150.0
40.112,1.255,0.784,150.0
40.119,1.249,1.878,91.0
40.122,1.241,1.646,115.0
40.107,1.233,1.413,134.0
40.12,1.226,1.178,150.0
40.121,1.219,0.946,150.0
40.117,1.211,0.714,150.0
40.13,1.205,1.808,104.0
40.119,1.196,1.576,144.0
40.11,1.189,1.344,132.0
40.111,1.181,1.108,150.0
40.118,1.173,0.876,150.0
40.121,1.165,0.645,150.0
40.125,1.158,1.739,118.0
40.121,1.15,1.507,120.0
40.123,1.142,1.275,99.0
0.0,0.0,0.0,0.0
0.0,0.0,0.0,0.0
41.923,1.169,0.603,159.0
0.0,0.0,0.0,0.0
41.913,1.152,1.503,150.0
43.673,1.191,1.314,34.0
0.0,0.0,0.0,0.0
0.0,0.0,0.0,0.0
0.0,0.0,0.0,0.0
43.715,1.157,1.746,136.0
0.0,0.0,0.0,0.0
0.0,0.0,0.0,0.0
45.503,1.176,1.026,39.0
45.514,1.166,0.764,5.0
70.875,1.801,0.78,26.0
113.648,2.866,4.351,16.0
121.552,3.039,3.953,7.0
99.697,2.471,2.667,29.0
99.597,2.448,2.081,32.0
98.893,2.41,1.497,22.0
70.839,1.712,0.665,23.0
113.922,2.728,4.176,16.0
98.757,2.342,3.05,18.0
98.722,2.32,2.48,91.0
179.169,4.172,3.45,26.0
128.611,2.966,1.736,16.0
70.881,1.619,0.548,7.0
114.279,2.585,4.001,21.0
134.784,3.018,3.942,17.0
179.241,3.974,4.211,7.0
179.276,3.935,3.161,4.0
128.633,2.795,1.528,23.0
113.05,2.431,0.693,9.0
135.217,2.876,4.516,16.0
163.509,3.441,4.521,4.0
179.258,3.731,3.923,32.0
163.482,3.364,2.62,20.0
162.725,3.313,1.673,19.0
86.956,1.749,0.393,3.0
135.528,2.693,4.309,16.0
163.474,3.209,4.255,4.0
179.375,3.48,3.638,25.0
55.208,1.058,0.797,24.0
55.185,1.045,0.479,38.0
55.176,1.031,0.161,43.0
55.188,1.018,1.667,55.0
55.17,1.004,1.349,72.0
55.159,0.991,1.032,74.0
55.153,0.977,0.709,71.0
55.161,0.965,0.392,109.0
55.164,0.952,0.075,49.0
55.194,0.938,1.582,39.0
55.2,0.925,1.265,19.0
55.194,0.911,0.947,13.0
163.161,2.655,1.847,16.0
113.911,1.826,0.635,5.0
55.114,0.87,-0.009,11.0
19.685,0.305,0.534,10.0
19.693,0.3,0.421,10.0
19.716,0.296,0.308,7.0
19.758,0.292,0.193,2.0
0.0,0.0,0.0,0.0
19.701,0.281,-0.033,0.0
19.678,0.275,0.504,14.0
19.687,0.27,0.391,13.0
19.718,0.266,0.278,12.0
19.774,0.261,0.164,21.0
0.0,0.0,0.0,0.0
19.653,0.25,-0.062,13.0
19.688,0.245,0.475,11.0
19.712,0.24,0.362,10.0
19.738,0.236,0.25,16.0
19.772,0.231,0.135,22.0
19.667,0.225,0.021,10.0
19.643,0.219,-0.09,16.0
19.732,0.215,0.447,11.0
19.738,0.21,0.334,10.0
19.729,0.204,0.221,14.0
19.667,0.199,0.105,12.0
19.64,0.193,-0.006,13.0
19.642,0.188,-0.119,16.0
19.653,0.183,0.417,11.0
19.646,0.177,0.305,8.0
19.659,0.172,0.192,12.0
19.639,0.167,0.078,12.0
19.637,0.162,-0.034,15.0
19.653,0.157,-0.146,13.0
19.614,0.151,0.389,11.0
19.627,0.145,0.277,10.0
19.65,0.14,0.165,14.0
19.63,0.135,0.05,14.0
19.666,0.13,-0.061,8.0
19.671,0.125,-0.174,0.0
19.613,0.118,0.362,15.0
19.63,0.113,0.25,11.0
19.644,0.108,0.138,12.0
19.662,0.102,0.023,9.0
19.76,0.097,-0.089,0.0
19.761,0.092,-0.202,2.0
19.625,0.086,0.336,22.0
19.632,0.08,0.224,15.0
19.713,0.075,0.112,18.0
19.769,0.07,-0.002,63.0
19.765,0.064,-0.115,50.0
19.767,0.059,-0.228,21.0
19.625,0.052,0.31,13.0
19.683,0.047,0.198,12.0
19.747,0.042,0.086,13.0
19.744,0.036,-0.028,66.0
19.74,0.03,-0.141,16.0
19.767,0.024,-0.254,2.0
19.63,0.019,0.285,14.0
19.761,0.013,0.174,2.0
19.783,0.008,0.061,4.0
19.752,0.002,-0.053,5.0
19.798,-0.003,-0.166,0.0
33.829,-0.015,-0.477,0.0
19.641,-0.014,0.26,14.0
19.688,-0.02,0.148,8.0
19.701,-0.026,0.036,15.0
19.734,-0.032,-0.077,10.0
19.747,-0.038,-0.19,14.0
19.759,-0.043,-0.303,4.0
19.668,-0.049,0.236,16.0
19.697,-0.055,0.124,16.0
19.697,-0.061,0.012,16.0
19.702,-0.067,-0.102,16.0
19.736,-0.073,-0.214,15.0
19.756,-0.079,-0.327,14.0
19.717,-0.085,0.213,17.0
19.71,-0.09,0.101,12.0
19.714,-0.096,-0.011,13.0
19.704,-0.102,-0.125,16.0
19.732,-0.108,-0.238,16.0
19.741,-0.114,-0.35,17.0
19.745,-0.12,0.19,8.0
19.768,-0.126,0.078,4.0
19.779,-0.132,-0.033,8.0
19.725,-0.138,-0.148,15.0
19.732,-0.144,-0.26,16.0
19.739,-0.15,-0.373,17.0
160.737,-1.273,1.372,14.0
0.0,0.0,0.0,0.0
19.783,-0.169,-0.056,3.0
19.762,-0.174,-0.17,9.0
19.767,-0.181,-0.283,8.0
19.756,-0.187,-0.395,8.0
160.731,-1.57,1.194,14.0
0.0,0.0,0.0,0.0
0.0,0.0,0.0,0.0
42.13,-0.45,-0.409,0.0
34.019,-0.375,-0.524,1.0
28.898,-0.327,-0.609,0.0
19.746,-0.229,0.125,1.0
0.0,0.0,0.0,0.0
0.0,0.0,0.0,0.0
0.0,0.0,0.0,0.0
31.942,-0.411,-0.525,0.0
28.006,-0.369,-0.619,0.0
19.754,-0.266,0.105,21.0
0.0,0.0,0.0,0.0
0.0,0.0,0.0,0.0
0.0,0.0,0.0,0.0
31.791,-0.468,-0.554,0.0
27.79,-0.418,-0.642,0.0
19.754,-0.303,0.085,2.0
0.0,0.0,0.0,0.0
0.0,0.0,0.0,0.0
0.0,0.0,0.0,0.0
31.03,-0.516,-0.571,0.0
27.043,-0.459,-0.652,0.0
0.0,0.0,0.0,0.0
0.0,0.0,0.0,0.0
0.0,0.0,0.0,0.0
37.7,-0.687,-0.517,0.0
30.244,-0.561,-0.586,0.0
21.73,-0.41,-0.544,15.0
0.0,0.0,0.0,0.0
0.0,0.0,0.0,0.0
0.0,0.0,0.0,0.0
34.912,-0.704,-0.51,0.0
21.752,-0.445,-0.441,0.0
21.685,-0.451,-0.562,161.0
0.0,0.0,0.0,0.0
0.0,0.0,0.0,0.0
0.0,0.0,0.0,0.0
33.576,-0.741,-0.52,0.0
29.514,-0.661,-0.624,0.0
21.726,-0.494,-0.582,151.0
0.0,0.0,0.0,0.0
0.0,0.0,0.0,0.0
40.188,-0.952,-0.425,0.0
32.694,-0.785,-0.534,0.0
28.231,-0.688,-0.621,0.0
24.952,-0.616,-0.689,0.0
0.0,0.0,0.0,0.0
0.0,0.0,0.0,0.0
0.0,0.0,0.0,0.0
31.965,-0.83,-0.548,0.0
28.181,-0.741,-0.642,0.0
24.459,-0.652,-0.695,0.0
0.0,0.0,0.0,0.0
0.0,0.0,0.0,0.0
0.0,0.0,0.0,0.0
31.176,-0.871,-0.558,1.0
0.0,0.0,0.0,0.0
17.827,-0.51,-0.52,0.0
0.0,0.0,0.0,0.0
47.052,-1.375,-0.342,1.0
37.088,-1.097,-0.478,0.0
31.249,-0.935,-0.582,0.0
26.713,-0.808,-0.648,0.0
24.058,-0.736,-0.719,0.0
0.0,0.0,0.0,0.0
0.0,0.0,0.0,0.0
0.0,0.0,0.0,0.0
30.243,-0.965,-0.584,0.0
26.396,-0.851,-0.659,0.0
23.187,-0.756,-0.709,0.0
0.0,0.0,0.0,0.0
0.0,0.0,0.0,0.0
35.25,-1.182,-0.502,0.0
29.912,-1.014,-0.598,0.0
26.208,-0.897,-0.671,0.0
22.948,-0.794,-0.717,0.0
0.0,0.0,0.0,0.0
0.0,0.0,0.0,0.0
0.0,0.0,0.0,0.0
29.609,-1.062,-0.61,0.0
25.683,-0.931,-0.673,0.0
22.738,-0.832,-0.724,0.0
0.0,0.0,0.0,0.0
0.0,0.0,0.0,0.0
0.0,0.0,0.0,0.0
29.264,-1.108,-0.62,0.0
25.435,-0.972,-0.681,0.0
22.534,-0.87,-0.73,0.0
0.0,0.0,0.0,0.0
0.0,0.0,0.0,0.0
32.807,-1.296,-0.525,0.0
28.883,-1.151,-0.627,0.0
24.984,-1.004,-0.682,0.0
22.349,-0.907,-0.736,0.0
0.0,0.0,0.0,0.0
0.0,0.0,0.0,0.0
33.28,-1.381,-0.549,0.0
29.038,-1.215,-0.645,0.0
24.841,-1.048,-0.691,0.0
22.243,-0.946,-0.743,0.0
0.0,0.0,0.0,0.0
0.0,0.0,0.0,0.0
31.924,-1.388,-0.541,0.0
27.824,-1.219,-0.631,0.0
24.651,-1.089,-0.697,0.0
22.008,-0.981,-0.745,0.0
0.0,0.0,0.0,0.0
0.0,0.0,0.0,0.0
32.267,-1.467,-0.561,0.0
27.789,-1.273,-0.641,0.0
24.517,-1.133,-0.703,0.0
21.684,-1.009,-0.743,0.0
0.0,0.0,0.0,0.0
0.0,0.0,0.0,0.0
31.721,-1.505,-0.564,0.0
27.339,-1.307,-0.642,0.0
24.395,-1.176,-0.709,0.0
21.661,-1.052,-0.75,0.0
0.0,0.0,0.0,0.0
37.44,-1.838,-0.47,0.0
31.11,-1.538,-0.564,0.0
27.592,-1.374,-0.657,0.0
24.021,-1.205,-0.706,0.0
21.367,-1.08,-0.747,0.0
0.0,0.0,0.0,0.0
36.612,-1.87,-0.471,0.0
31.458,-1.618,-0.58,0.0
27.346,-1.417,-0.659,0.0
24.043,-1.254,-0.714,0.0
21.159,-1.111,-0.746,0.0
0.0,0.0,0.0,0.0
36.685,-1.946,-0.482,0.0
0.0,0.0,0.0,0.0
26.854,-1.444,-0.655,0.0
23.928,-1.295,-0.717,0.0
21.172,-1.154,-0.752,0.0
0.0,0.0,0.0,0.0
36.39,-2.001,-0.486,0.0
0.0,0.0,0.0,0.0
0.0,0.0,0.0,0.0
23.866,-1.338,-0.72,0.0
20.962,-1.183,-0.749,0.0
44.55,-2.521,-0.357,0.0
37.016,-2.108,-0.502,0.0
30.372,-1.74,-0.581,0.0
26.777,-1.544,-0.664,0.0
23.609,-1.37,-0.716,0.0
20.936,-1.222,-0.752,0.0
0.0,0.0,0.0,0.0
0.0,0.0,0.0,0.0
30.641,-1.815,-0.591,0.0
26.684,-1.59,-0.665,0.0
23.521,-1.41,-0.717,0.0
20.962,-1.265,-0.756,0.0
0.0,0.0,0.0,0.0
0.0,0.0,0.0,0.0
30.41,-1.86,-0.59,0.0
26.665,-1.64,-0.668,0.0
23.274,-1.44,-0.712,0.0
20.885,-1.3,-0.755,0.0
0.0,0.0,0.0,0.0
36.275,-2.276,-0.505,0.0
30.452,-1.921,-0.593,0.0
26.562,-1.686,-0.667,0.0
23.067,-1.472,-0.707,0.0
21.15,-1.357,-0.766,1.0
0.0,0.0,0.0,0.0
35.595,-2.301,-0.497,0.0
30.632,-1.991,-0.597,0.0
26.552,-1.735,-0.667,0.0
23.172,-1.523,-0.711,0.0
21.036,-1.39,-0.762,0.0
0.0,0.0,0.0,0.0
0.0,0.0,0.0,0.0
0.0,0.0,0.0,0.0
0.0,0.0,0.0,0.0
23.561,-1.593,-0.722,0.0
21.079,-1.433,-0.763,0.0
44.273,-3.014,-0.372,0.0
35.942,-2.46,-0.501,0.0
0.0,0.0,0.0,0.0
27.028,-1.869,-0.678,0.0
23.403,-1.627,-0.716,0.0
21.011,-1.469,-0.759,0.0
42.846,-2.998,-0.357,0.0
35.317,-2.484,-0.489,0.0
30.998,-2.191,-0.601,0.0
27.158,-1.93,-0.679,0.0
0.0,0.0,0.0,0.0
21.066,-1.512,-0.759,0.0
0.0,0.0,0.0,0.0
0.0,0.0,0.0,0.0
0.0,0.0,0.0,0.0
0.0,0.0,0.0,0.0
24.002,-1.759,-0.73,0.0
21.145,-1.557,-0.759,0.0
0.0,0.0,0.0,0.0
36.802,-2.725,-0.501,0.0
30.725,-2.286,-0.587,0.0
27.247,-2.037,-0.673,0.0
23.907,-1.796,-0.723,0.0
21.47,-1.62,-0.767,0.0
0.0,0.0,0.0,0.0
36.597,-2.777,-0.491,0.0
0.0,0.0,0.0,0.0
27.119,-2.076,-0.665,0.0
24.028,-1.848,-0.722,0.0
21.327,-1.648,-0.758,0.0
0.0,0.0,0.0,0.0
37.049,-2.878,-0.489,0.0
30.952,-2.415,-0.579,0.0
0.0,0.0,0.0,0.0
24.185,-1.904,-0.72,0.0
21.761,-1.721,-0.768,0.0
0.0,0.0,0.0,0.0
36.437,-2.896,-0.472,0.0
0.0,0.0,0.0,0.0
27.567,-2.21,-0.662,0.0
24.099,-1.94,-0.711,0.0
21.835,-1.766,-0.764,0.0
0.0,0.0,0.0,0.0
0.0,0.0,0.0,0.0
32.404,-2.643,-0.587,0.0
27.46,-2.249,-0.651,0.0
24.491,-2.015,-0.715,0.0
21.875,-1.807,-0.759,0.0
0.0,0.0,0.0,0.0
38.887,-3.226,-0.479,0.0
32.323,-2.693,-0.575,0.0
0.0,0.0,0.0,0.0
24.446,-2.053,-0.706,0.0
22.07,-1.861,-0.758,0.0
0.0,0.0,0.0,0.0
38.628,-3.271,-0.462,0.0
32.398,-2.754,-0.565,0.0
0.0,0.0,0.0,0.0
24.663,-2.113,-0.703,0.0
22.139,-1.905,-0.752,0.0
0.0,0.0,0.0,0.0
39.442,-3.407,-0.456,0.0
33.021,-2.864,-0.562,0.0
0.0,0.0,0.0,0.0
24.818,-2.169,-0.697,0.0
22.125,-1.941,-0.742,0.0
0.0,0.0,0.0,0.0
40.939,-3.605,-0.456,0.0
0.0,0.0,0.0,0.0
0.0,0.0,0.0,0.0
24.803,-2.209,-0.685,0.0
22.489,-2.01,-0.744,0.0
0.0,0.0,0.0,0.0
41.565,-3.729,-0.443,0.0
0.0,0.0,0.0,0.0
29.077,-2.628,-0.63,0.0
25.699,-2.331,-0.697,0.0
22.858,-2.081,-0.745,3.0
0.0,0.0,0.0,0.0
41.936,-3.831,-0.426,0.0
34.165,-3.132,-0.534,0.0
28.355,-2.608,-0.6,0.0
25.545,-2.358,-0.68,0.0
23.01,-2.131,-0.738,0.0
0.0,0.0,0.0,0.0
0.0,0.0,0.0,0.0
34.838,-3.248,-0.525,0.0
0.0,0.0,0.0,0.0
26.772,-2.513,-0.698,0.0
23.678,-2.23,-0.746,0.0
0.0,0.0,0.0,0.0
0.0,0.0,0.0,0.0
0.0,0.0,0.0,0.0
0.0,0.0,0.0,0.0
0.0,0.0,0.0,0.0
23.782,-2.277,-0.736,0.0
0.0,0.0,0.0,0.0
0.0,0.0,0.0,0.0
0.0,0.0,0.0,0.0
31.373,-3.032,-0.61,0.0
27.242,-2.641,-0.678,0.0
23.796,-2.315,-0.721,0.0
0.0,0.0,0.0,0.0
0.0,0.0,0.0,0.0
0.0,0.0,0.0,0.0
31.588,-3.1,-0.594,0.0
27.564,-2.713,-0.668,0.0
24.194,-2.389,-0.718,0.0
0.0,0.0,0.0,0.0
0.0,0.0,0.0,0.0
37.821,-3.756,-0.477,0.0
31.655,-3.153,-0.574,0.0
27.99,-2.796,-0.66,0.0
24.655,-2.47,-0.715,0.0
0.0,0.0,0.0,0.0
0.0,0.0,0.0,0.0
0.0,0.0,0.0,0.0
0.0,0.0,0.0,0.0
28.461,-2.883,-0.651,0.0
25.311,-2.571,-0.717,0.0
0.0,0.0,0.0,0.0
0.0,0.0,0.0,0.0
0.0,0.0,0.0,0.0
0.0,0.0,0.0,0.0
28.074,-2.882,-0.622,0.0
25.362,-2.611,-0.7,0.0
0.0,0.0,0.0,0.0
0.0,0.0,0.0,0.0
0.0,0.0,0.0,0.0
34.923,-3.623,-0.559,0.0
29.913,-3.112,-0.64,0.0
25.798,-2.691,-0.692,0.0
0.0,0.0,0.0,0.0
0.0,0.0,0.0,0.0
0.0,0.0,0.0,0.0
0.0,0.0,0.0,0.0
30.136,-3.175,-0.622,0.0
26.787,-2.83,-0.698,0.0
0.0,0.0,0.0,0.0
0.0,0.0,0.0,0.0
42.47,-4.507,-0.379,1.0
36.881,-3.923,-0.532,0.0
30.716,-3.276,-0.609,0.0
0.0,0.0,0.0,0.0
83.4,-8.915,0.225,7.0
0.0,0.0,0.0,0.0
0.0,0.0,0.0,0.0
37.437,-4.029,-0.509,0.0
0.0,0.0,0.0,0.0
27.758,-3.002,-0.677,0.0
83.37,-9.014,0.294,37.0
0.0,0.0,0.0,0.0
0.0,0.0,0.0,0.0
37.892,-4.124,-0.483,0.0
32.797,-3.578,-0.595,0.0
28.129,-3.076,-0.662,0.0
83.448,-9.122,0.366,11.0
0.0,0.0,0.0,0.0
0.0,0.0,0.0,0.0
38.496,-4.236,-0.457,0.0
33.219,-3.663,-0.574,0.0
29.038,-3.209,-0.658,0.0
83.378,-9.213,0.439,10.0
0.0,0.0,0.0,0.0
0.0,0.0,0.0,0.0
0.0,0.0,0.0,0.0
34.397,-3.832,-0.563,0.0
29.046,-3.243,-0.632,0.0
83.368,-9.305,0.516,23.0
0.0,0.0,0.0,0.0
0.0,0.0,0.0,0.0
0.0,0.0,0.0,0.0
35.319,-3.974,-0.545,0.0
0.0,0.0,0.0,0.0
83.384,-9.399,0.594,19.0
0.0,0.0,0.0,0.0
0.0,0.0,0.0,0.0
42.737,-4.844,-0.389,0.0
0.0,0.0,0.0,0.0
30.621,-3.484,-0.608,0.0
83.39,-9.487,0.673,150.0
77.675,-8.852,0.209,3.0
0.0,0.0,0.0,0.0
0.0,0.0,0.0,0.0
0.0,0.0,0.0,0.0
32.208,-3.697,-0.609,0.0
83.397,-9.571,0.754,29.0
83.76,-9.628,0.306,3.0
0.0,0.0,0.0,0.0
46.709,-5.388,-0.335,0.0
37.635,-4.349,-0.472,0.0
0.0,0.0,0.0,0.0
83.385,-9.65,0.836,39.0
83.384,-9.665,0.388,15.0
0.0,0.0,0.0,0.0
0.0,0.0,0.0,0.0
37.691,-4.39,-0.434,0.0
33.934,-3.959,-0.574,0.0
83.396,-9.729,0.92,150.0
83.378,-9.741,0.473,61.0
77.687,-9.09,0.023,2.0
0.0,0.0,0.0,0.0
0.0,0.0,0.0,0.0
0.0,0.0,0.0,0.0
83.388,-9.801,1.006,21.0
83.346,-9.81,0.557,13.0
75.593,-8.91,0.101,4.0
0.0,0.0,0.0,0.0
41.785,-4.94,-0.396,0.0
36.079,-4.271,-0.535,0.0
83.385,-9.871,1.092,145.0
83.371,-9.882,0.645,14.0
74.904,-8.89,0.177,20.0
0.0,0.0,0.0,0.0
45.338,-5.396,-0.383,0.0
36.641,-4.367,-0.506,0.0
83.352,-9.933,1.18,18.0
83.336,-9.943,0.732,16.0
83.402,-9.963,0.286,4.0
0.0,0.0,0.0,0.0
46.565,-5.577,-0.344,0.0
38.983,-4.675,-0.496,0.0
83.374,-9.998,1.269,22.0
83.388,-10.011,0.823,40.0
83.404,-10.025,0.376,30.0
0.0,0.0,0.0,0.0
47.734,-5.751,-0.301,0.0
0.0,0.0,0.0,0.0
83.364,-10.056,1.359,19.0
83.38,-10.068,0.912,53.0
83.385,-10.08,0.465,41.0
74.193,-8.979,0.009,1.0
0.0,0.0,0.0,0.0
41.551,-5.04,-0.44,0.0
83.379,-10.113,1.45,16.0
83.374,-10.122,1.002,11.0
83.368,-10.132,0.556,26.0
74.231,-9.03,0.091,3.0
53.136,-6.471,-0.219,0.0
0.0,0.0,0.0,0.0
83.392,-10.167,1.542,37.0
83.374,-10.173,1.095,13.0
83.34,-10.178,0.648,15.0
74.273,-9.079,0.172,8.0
0.0,0.0,0.0,0.0
0.0,0.0,0.0,0.0
83.396,-10.215,1.634,150.0
83.361,-10.218,1.188,30.0
83.357,-10.227,0.742,13.0
74.302,-9.124,0.256,18.0
0.0,0.0,0.0,0.0
47.278,-5.816,-0.343,3.0
83.386,-10.258,1.728,89.0
83.368,-10.263,1.281,53.0
83.368,-10.27,0.835,11.0
74.298,-9.16,0.339,20.0
0.0,0.0,0.0,0.0
48.012,-5.929,-0.293,1.0
83.34,-10.293,1.821,39.0
83.373,-10.303,1.375,40.0
83.4,-10.313,0.929,11.0
83.354,-10.315,0.475,6.0
74.338,-9.206,0.026,1.0
0.0,0.0,0.0,0.0
83.268,-10.32,1.915,34.0
83.379,-10.34,1.471,45.0
83.387,-10.347,1.025,13.0
83.377,-10.352,0.57,27.0
74.325,-9.234,0.11,2.0
0.0,0.0,0.0,0.0
83.269,-10.353,2.009,26.0
83.374,-10.371,1.566,150.0
83.361,-10.375,1.119,26.0
83.339,-10.377,0.664,27.0
74.482,-9.279,0.195,1.0
0.0,0.0,0.0,0.0
83.325,-10.389,2.106,10.0
83.396,-10.402,1.662,150.0
83.362,-10.402,1.215,25.0
83.374,-10.408,0.761,22.0
76.447,-9.548,0.288,1.0
0.0,0.0,0.0,0.0
86.282,-10.784,2.28,11.0
83.37,-10.423,1.757,150.0
83.355,-10.424,1.31,36.0
83.364,-10.429,0.855,37.0
79.394,-9.936,0.391,2.0
0.0,0.0,0.0,0.0
116.282,-14.563,3.206,25.0
83.299,-10.434,1.851,31.0
83.367,-10.445,1.405,34.0
83.383,-10.45,0.951,63.0
83.296,-10.442,0.506,5.0
74.957,-9.4,0.054,10.0
116.255,-14.584,3.34,28.0
83.263,-10.446,1.946,30.0
83.366,-10.461,1.502,32.0
83.377,-10.464,1.048,62.0
83.352,-10.464,0.601,34.0
74.978,-9.415,0.141,12.0
116.233,-14.6,3.474,18.0
83.27,-10.46,2.042,14.0
83.345,-10.47,1.598,27.0
83.365,-10.474,1.144,39.0
83.38,-10.477,0.697,70.0
75.044,-9.431,0.227,7.0
147.956,-18.602,4.592,22.0
86.248,-10.843,2.215,10.0
83.34,-10.478,1.694,27.0
83.355,-10.48,1.24,22.0
83.367,-10.482,0.795,150.0
78.831,-9.912,0.329,1.0
147.862,-18.601,4.761,24.0
116.265,-14.624,3.121,17.0
83.339,-10.481,1.79,35.0
83.337,-10.481,1.335,18.0
83.371,-10.484,0.891,150.0
78.687,-9.896,0.419,3.0
148.039,-18.626,4.937,18.0
116.276,-14.627,3.255,27.0
83.277,-10.474,1.885,32.0
83.35,-10.482,1.432,23.0
83.379,-10.484,0.986,122.0
83.363,-10.481,0.539,13.0
148.174,-18.639,5.113,12.0
116.254,-14.62,3.387,23.0
83.244,-10.466,1.979,25.0
83.349,-10.477,1.527,27.0
83.372,-10.478,1.081,51.0
83.381,-10.477,0.635,46.0
95.51,-12.008,3.403,15.0
147.973,-18.597,4.481,14.0
83.33,-10.469,2.076,11.0
83.352,-10.469,1.621,30.0
83.368,-10.468,1.175,19.0
83.372,-10.466,0.729,55.0
95.459,-11.99,3.51,18.0
147.92,-18.572,4.645,21.0
86.239,-10.823,2.246,11.0
83.338,-10.455,1.714,35.0
83.358,-10.454,1.268,24.0
83.374,-10.452,0.823,50.0
95.567,-11.988,3.622,13.0
147.877,-18.541,4.81,22.0
116.285,-14.572,3.159,25.0
83.295,-10.433,1.808,31.0
83.361,-10.437,1.362,31.0
83.375,-10.435,0.916,33.0
107.665,-7.628,6.989,21.0
107.144,-7.554,6.351,9.0
107.457,-7.54,5.765,22.0
107.324,-7.494,5.143,25.0
107.888,-7.498,4.563,24.0
107.89,-7.462,3.957,28.0
108.04,-7.466,6.98,18.0
106.94,-7.353,6.305,26.0
107.203,-7.335,5.715,24.0
107.499,-7.319,5.114,28.0
107.661,-7.295,4.517,33.0
108.726,-7.333,3.95,24.0
107.846,-7.266,6.928,19.0
107.075,-7.178,6.273,15.0
106.869,-7.128,5.659,23.0
107.67,-7.146,5.083,29.0
108.149,-7.143,4.496,28.0
108.739,-7.146,3.909,25.0
107.952,-7.086,6.892,19.0
108.201,-7.065,6.295,22.0
107.361,-6.975,5.641,23.0
107.533,-6.951,5.032,28.0
108.751,-6.993,4.475,23.0
108.932,-6.97,3.869,20.0
107.894,-6.893,6.84,24.0
107.808,-6.85,6.224,21.0
107.368,-6.787,5.591,29.0
107.362,-6.75,4.974,25.0
108.423,-6.782,4.411,36.0
109.024,-6.783,3.82,22.0
108.319,-6.729,6.815,20.0
107.638,-6.651,6.162,23.0
107.396,-6.6,5.54,25.0
107.506,-6.571,4.926,27.0
108.569,-6.6,4.362,22.0
109.79,-6.639,3.791,28.0
108.245,-6.535,6.754,21.0
107.432,-6.45,6.093,29.0
107.973,-6.447,5.512,29.0
107.379,-6.377,4.864,36.0
107.824,-6.368,4.274,16.0
117.143,-6.881,3.982,28.0
108.158,-6.34,6.687,25.0
107.744,-6.279,6.05,21.0
107.976,-6.256,5.45,22.0
107.514,-6.194,4.806,27.0
108.755,-6.23,4.247,21.0
117.837,-6.713,3.934,11.0
107.805,-6.129,6.6,21.0
108.005,-6.103,5.998,25.0
107.974,-6.067,5.383,24.0
107.867,-6.025,4.756,28.0
109.019,-6.055,4.189,22.0
116.996,-6.46,3.832,25.0
107.561,-5.925,6.514,20.0
108.01,-5.913,5.928,20.0
108.274,-5.891,5.327,24.0
108.144,-5.848,4.695,25.0
109.271,-5.875,4.124,24.0
117.289,-6.27,3.763,23.0
108.334,-5.776,6.487,18.0
107.962,-5.72,5.851,13.0
108.34,-5.705,5.255,24.0
108.256,-5.666,4.624,21.0
109.524,-5.699,4.058,28.0
117.854,-6.094,3.697,18.0
108.384,-5.587,6.411,23.0
110.174,-5.643,5.889,6.0
108.592,-5.528,5.187,20.0
109.992,-5.563,4.617,12.0
109.986,-5.527,3.991,12.0
125.589,-6.273,3.845,2.0
108.575,-5.406,6.339,22.0
108.779,-5.38,5.73,18.0
114.622,-5.633,5.386,9.0
116.296,-5.678,4.79,25.0
117.408,-5.695,4.168,18.0
140.999,-6.797,4.205,16.0
112.533,-5.407,6.479,10.0
109.108,-5.206,5.659,18.0
114.361,-5.42,5.28,25.0
117.467,-5.529,4.742,22.0
116.755,-5.46,4.048,24.0
142.038,-6.597,4.116,13.0
112.659,-5.214,6.391,11.0
118.576,-5.449,6.049,16.0
114.351,-5.218,5.18,12.0
0.0,0.0,0.0,0.0
119.29,-5.369,4.032,10.0
163.26,-7.299,4.589,7.0
112.776,-5.021,6.296,11.0
117.09,-5.176,5.868,15.0
116.585,-5.116,5.176,10.0
117.379,-5.115,4.529,19.0
119.583,-5.173,3.932,24.0
140.0,-6.015,3.807,13.0
191.128,-3.179,6.688,10.0
163.313,-2.674,4.77,20.0
171.693,-2.769,4.023,5.0
169.637,-2.693,2.978,6.0
19.782,-0.309,0.233,2.0
19.748,-0.304,0.119,24.0
162.585,-2.465,5.441,50.0
163.365,-2.436,4.522,32.0
0.0,0.0,0.0,0.0
19.76,-0.284,0.316,3.0
19.748,-0.28,0.202,27.0
19.737,-0.275,0.088,16.0
162.608,-2.23,5.19,62.0
19.754,-0.266,0.516,0.0
19.748,-0.261,0.401,6.0
19.743,-0.256,0.285,12.0
19.763,-0.252,0.171,21.0
0.0,0.0,0.0,0.0
19.777,-0.243,0.599,1.0
19.752,-0.238,0.484,8.0
19.734,-0.233,0.37,10.0
19.759,-0.229,0.254,5.0
160.907,-1.827,1.143,3.0
0.0,0.0,0.0,0.0
19.772,-0.215,0.567,9.0
19.755,-0.21,0.453,9.0
19.764,-0.206,0.339,5.0
163.981,-1.674,1.847,16.0
160.709,-1.604,0.881,4.0
0.0,0.0,0.0,0.0
19.752,-0.187,0.534,9.0
19.777,-0.183,0.42,5.0
0.0,0.0,0.0,0.0
165.294,-1.462,1.589,4.0
0.0,0.0,0.0,0.0
19.815,-0.166,-0.038,2.0
19.778,-0.161,0.502,5.0
177.237,-1.409,3.477,24.0
169.508,-1.31,2.343,13.0
160.657,-1.207,1.276,15.0
19.77,-0.144,0.042,6.0
19.746,-0.139,-0.071,12.0
19.693,-0.135,0.467,4.0
19.704,-0.13,0.353,3.0
19.721,-0.126,0.239,7.0
19.738,-0.122,0.123,9.0
19.713,-0.118,0.009,12.0
19.721,-0.114,-0.104,16.0
19.672,-0.109,0.433,9.0
19.666,-0.105,0.319,9.0
19.714,-0.101,0.205,15.0
19.704,-0.097,0.089,13.0
19.706,-0.093,-0.024,15.0
19.718,-0.089,-0.138,17.0
19.651,-0.085,0.398,9.0
19.658,-0.08,0.284,9.0
19.693,-0.077,0.171,16.0
19.693,-0.073,0.055,15.0
19.719,-0.068,-0.059,16.0
19.733,-0.064,-0.173,15.0
19.642,-0.06,0.363,10.0
19.64,-0.056,0.249,12.0
19.684,-0.052,0.136,16.0
19.689,-0.048,0.02,17.0
19.738,-0.044,-0.094,11.0
19.762,-0.041,-0.209,7.0
19.627,-0.037,0.328,12.0
19.648,-0.033,0.214,15.0
19.685,-0.029,0.1,12.0
19.709,-0.025,-0.015,13.0
19.763,-0.021,-0.13,4.0
0.0,0.0,0.0,0.0
19.624,-0.013,0.292,13.0
19.706,-0.01,0.179,8.0
19.783,-0.006,0.065,4.0
19.747,-0.002,-0.051,6.0
19.822,0.001,-0.166,0.0
19.775,0.004,-0.28,1.0
19.63,0.008,0.256,16.0
19.737,0.012,0.143,18.0
19.763,0.015,0.029,8.0
19.748,0.019,-0.087,12.0
19.757,0.023,-0.202,13.0
19.773,0.026,-0.317,15.0
19.634,0.03,0.22,15.0
19.758,0.033,0.107,18.0
19.741,0.037,-0.007,31.0
19.761,0.041,-0.124,13.0
19.766,0.044,-0.238,34.0
19.769,0.048,-0.353,25.0
19.655,0.051,0.184,11.0
19.752,0.054,0.07,31.0
19.765,0.058,-0.044,67.0
19.759,0.061,-0.16,49.0
19.776,0.065,-0.275,34.0
19.784,0.068,-0.391,20.0
19.686,0.071,0.147,14.0
19.743,0.075,0.033,19.0
19.762,0.078,-0.081,7.0
19.762,0.082,-0.198,2.0
19.772,0.085,-0.313,0.0
28.596,0.128,-0.619,0.0
19.669,0.091,0.11,13.0
19.673,0.094,-0.003,9.0
19.732,0.098,-0.118,0.0
0.0,0.0,0.0,0.0
31.654,0.168,-0.561,0.0
27.019,0.147,-0.636,0.0
19.658,0.11,0.072,13.0
19.665,0.113,-0.041,9.0
19.715,0.117,-0.156,1.0
34.132,0.207,-0.471,0.0
29.864,0.186,-0.586,0.0
25.831,0.165,-0.658,0.0
19.642,0.128,0.034,16.0
19.663,0.131,-0.079,11.0
19.684,0.135,-0.194,3.0
0.0,0.0,0.0,0.0
28.085,0.201,-0.606,0.0
24.909,0.182,-0.682,0.0
19.653,0.146,-0.003,21.0
19.65,0.149,-0.117,12.0
19.661,0.152,-0.231,7.0
19.67,0.155,-0.348,6.0
19.686,0.158,-0.463,4.0
19.711,0.161,-0.578,2.0
19.657,0.163,-0.041,13.0
19.647,0.166,-0.155,15.0
19.652,0.169,-0.27,13.0
19.658,0.172,-0.386,15.0
19.675,0.175,-0.501,12.0
19.689,0.178,-0.616,10.0
19.645,0.179,-0.08,16.0
19.648,0.182,-0.194,15.0
19.654,0.185,-0.308,15.0
19.652,0.187,-0.425,19.0
19.672,0.19,-0.54,14.0
19.669,0.193,-0.654,15.0
19.643,0.195,-0.118,17.0
19.649,0.197,-0.233,16.0
19.648,0.2,-0.347,14.0
19.67,0.203,-0.464,20.0
19.676,0.206,-0.579,17.0
19.656,0.208,-0.693,15.0
19.65,0.21,-0.158,17.0
19.651,0.212,-0.272,17.0
19.645,0.215,-0.386,16.0
19.65,0.217,-0.503,17.0
19.675,0.22,-0.618,16.0
19.623,0.222,-0.731,8.0
19.647,0.224,-0.197,17.0
19.658,0.226,-0.311,13.0
19.667,0.229,-0.426,18.0
19.666,0.231,-0.542,16.0
19.671,0.234,-0.657,15.0
19.513,0.234,-0.765,2.0
19.655,0.237,-0.236,17.0
19.653,0.239,-0.35,16.0
19.67,0.242,-0.465,17.0
19.671,0.244,-0.581,13.0
19.683,0.247,-0.696,6.0
18.998,0.24,-0.783,0.0
19.661,0.25,-0.275,16.0
19.664,0.252,-0.389,15.0
19.676,0.255,-0.504,14.0
19.69,0.257,-0.621,4.0
19.577,0.258,-0.732,6.0
18.197,0.241,-0.787,0.0
19.683,0.262,-0.315,13.0
19.677,0.264,-0.429,14.0
19.699,0.267,-0.545,5.0
21.061,0.287,-0.707,0.0
19.493,0.268,-0.768,3.0
17.701,0.245,-0.801,0.0
19.684,0.273,-0.354,13.0
19.695,0.276,-0.469,6.0
19.694,0.278,-0.584,0.0
20.022,0.284,-0.713,1.0
18.826,0.269,-0.78,0.0
17.091,0.246,-0.808,0.0
19.705,0.284,-0.395,5.0
25.498,0.37,-0.66,1.0
22.227,0.325,-0.704,0.0
19.571,0.288,-0.736,6.0
18.185,0.269,-0.79,1.0
16.602,0.247,-0.818,1.0
19.729,0.294,-0.435,0.0
24.563,0.369,-0.685,0.0
21.215,0.32,-0.715,1.0
19.391,0.295,-0.769,2.0
17.633,0.269,-0.802,0.0
15.875,0.244,-0.815,0.0
26.516,0.408,-0.639,1.0
22.802,0.353,-0.682,1.0
20.5,0.319,-0.733,2.0
18.738,0.293,-0.781,0.0
16.703,0.262,-0.794,2.0
15.366,0.243,-0.82,0.0
25.331,0.4,-0.662,1.0
22.091,0.351,-0.706,1.0
19.754,0.315,-0.746,3.0
18.053,0.289,-0.789,0.0
16.583,0.267,-0.822,0.0
15.084,0.244,-0.836,0.0
24.328,0.393,-0.684,0.0
21.171,0.344,-0.719,1.0
19.366,0.316,-0.77,1.0
17.444,0.286,-0.798,0.0
15.793,0.26,-0.814,0.0
14.543,0.241,-0.835,1.0
22.688,0.374,-0.684,0.0
20.585,0.341,-0.741,1.0
18.654,0.31,-0.78,0.0
16.72,0.279,-0.798,1.0
15.331,0.257,-0.822,0.0
14.25,0.24,-0.847,1.0
21.783,0.366,-0.701,0.0
19.837,0.335,-0.754,3.0
17.873,0.303,-0.784,0.0
16.352,0.278,-0.814,0.0
14.926,0.255,-0.83,0.0
13.783,0.236,-0.847,1.0
21.159,0.361,-0.723,2.0
19.145,0.328,-0.766,1.0
17.376,0.299,-0.797,0.0
15.729,0.271,-0.815,0.0
14.487,0.251,-0.835,1.0
13.477,0.234,-0.855,2.0
20.173,0.349,-0.73,1.0
18.571,0.322,-0.78,0.0
16.838,0.293,-0.806,0.0
15.354,0.268,-0.826,0.0
14.178,0.248,-0.845,1.0
13.083,0.23,-0.857,0.0
19.844,0.347,-0.757,3.0
17.832,0.312,-0.785,0.0
16.005,0.281,-0.798,0.0
14.815,0.261,-0.826,0.0
13.754,0.243,-0.848,1.0
12.822,0.227,-0.865,0.0
19.075,0.336,-0.766,1.0
17.361,0.306,-0.798,0.0
15.681,0.277,-0.813,0.0
14.451,0.256,-0.835,1.0
13.451,0.239,-0.855,1.0
12.46,0.222,-0.866,0.0
18.406,0.326,-0.776,0.0
16.843,0.299,-0.808,0.0
15.284,0.272,-0.822,0.0
14.121,0.252,-0.843,1.0
13.051,0.233,-0.856,0.0
12.199,0.218,-0.871,1.0
17.779,0.316,-0.784,0.0
16.09,0.286,-0.803,0.0
14.808,0.264,-0.825,0.0
13.734,0.245,-0.847,1.0
12.836,0.23,-0.867,0.0
11.96,0.214,-0.878,1.0
17.306,0.308,-0.797,0.0
15.726,0.28,-0.816,0.0
14.444,0.258,-0.834,1.0
13.436,0.24,-0.855,1.0
12.446,0.223,-0.865,0.0
11.692,0.21,-0.881,0.0
16.786,0.299,-0.805,0.0
15.3,0.273,-0.823,0.0
14.129,0.252,-0.843,1.0
13.033,0.233,-0.855,0.0
12.218,0.218,-0.873,1.0
11.43,0.205,-0.884,1.0
16.034,0.285,-0.8,0.0
14.777,0.262,-0.824,0.0
13.713,0.244,-0.844,1.0
12.789,0.228,-0.864,0.0
11.96,0.213,-0.878,1.0
11.21,0.2,-0.888,0.0
15.709,0.277,-0.814,0.0
14.439,0.255,-0.833,1.0
13.442,0.238,-0.854,1.0
12.423,0.22,-0.863,0.0
11.675,0.207,-0.879,0.0
10.973,0.194,-0.891,0.0
15.321,0.269,-0.824,0.0
14.129,0.248,-0.842,1.0
13.065,0.229,-0.855,0.0
12.193,0.214,-0.87,1.0
11.452,0.201,-0.884,0.0
10.749,0.189,-0.893,0.0
14.855,0.258,-0.826,0.0
13.724,0.238,-0.844,1.0
12.804,0.222,-0.862,0.0
11.995,0.208,-0.879,1.0
11.202,0.195,-0.886,0.0
10.546,0.183,-0.896,0.0
14.468,0.249,-0.832,1.0
13.442,0.231,-0.851,1.0
12.449,0.214,-0.861,0.0
11.676,0.2,-0.877,0.0
10.989,0.188,-0.89,0.0
10.295,0.176,-0.894,0.0
14.168,0.24,-0.841,1.0
13.079,0.221,-0.853,0.0
12.213,0.207,-0.867,1.0
11.442,0.193,-0.881,1.0
10.767,0.182,-0.892,0.0
10.153,0.171,-0.9,0.0
13.78,0.23,-0.843,1.0
12.826,0.214,-0.86,0.0
12.022,0.2,-0.876,1.0
11.266,0.187,-0.888,0.0
10.583,0.176,-0.896,0.0
9.968,0.165,-0.902,0.0
13.463,0.22,-0.848,2.0
12.537,0.205,-0.863,0.0
11.735,0.191,-0.876,0.0
11.006,0.179,-0.887,0.0
10.354,0.168,-0.895,0.0
9.846,0.16,-0.909,0.0
13.174,0.211,-0.854,1.0
12.252,0.196,-0.865,1.0
11.576,0.185,-0.885,0.0
10.815,0.172,-0.891,0.0
10.198,0.162,-0.9,0.0
9.688,0.154,-0.912,0.0
12.869,0.201,-0.857,1.0
12.077,0.189,-0.874,1.0
11.244,0.175,-0.88,0.0
10.621,0.165,-0.894,0.0
10.021,0.155,-0.902,0.0
9.473,0.147,-0.908,0.0
12.602,0.192,-0.861,0.0
11.802,0.179,-0.875,1.0
11.11,0.168,-0.888,0.0
10.478,0.158,-0.9,0.0
9.88,0.149,-0.907,0.0
9.373,0.141,-0.915,0.0
12.366,0.183,-0.866,0.0
11.647,0.172,-0.883,0.0
10.885,0.16,-0.889,0.0
10.235,0.15,-0.897,0.0
9.758,0.143,-0.912,0.0
9.247,0.135,-0.919,0.0
12.138,0.174,-0.87,1.0
11.36,0.162,-0.881,0.0
10.695,0.152,-0.892,0.0
10.101,0.143,-0.902,0.0
9.508,0.134,-0.905,0.0
9.087,0.128,-0.918,0.0
11.923,0.165,-0.875,1.0
11.187,0.154,-0.886,0.0
10.55,0.144,-0.897,0.0
9.928,0.135,-0.903,0.0
9.426,0.128,-0.913,0.0
8.935,0.121,-0.918,0.0
11.709,0.155,-0.878,1.0
11.001,0.145,-0.889,0.0
10.383,0.136,-0.9,0.0
9.806,0.128,-0.908,0.0
9.314,0.121,-0.917,0.0
8.843,0.115,-0.922,0.0
11.506,0.146,-0.882,0.0
10.787,0.136,-0.889,0.0
10.187,0.128,-0.899,0.0
9.66,0.121,-0.91,0.0
9.169,0.114,-0.917,0.0
8.687,0.107,-0.92,0.0
11.291,0.136,-0.883,0.0
10.621,0.128,-0.892,0.0
10.031,0.12,-0.901,0.0
9.463,0.112,-0.906,0.0
9.049,0.107,-0.919,0.0
8.587,0.101,-0.923,0.0
11.129,0.127,-0.887,0.0
10.495,0.119,-0.898,0.0
9.88,0.112,-0.903,0.0
9.398,0.105,-0.915,0.0
8.903,0.099,-0.918,0.0
8.499,0.094,-0.927,0.0
10.94,0.118,-0.889,0.0
10.31,0.11,-0.898,0.0
9.756,0.104,-0.906,0.0
9.258,0.098,-0.915,0.0
8.814,0.092,-0.923,0.0
8.403,0.087,-0.929,0.0
10.79,0.109,-0.893,0.0
10.164,0.102,-0.9,0.0
9.621,0.095,-0.908,0.0
9.132,0.09,-0.916,0.0
8.698,0.085,-0.923,0.0
8.302,0.08,-0.93,0.0
10.629,0.1,-0.895,0.0
9.935,0.092,-0.894,0.0
9.488,0.087,-0.909,0.0
8.958,0.081,-0.911,0.0
8.585,0.077,-0.924,0.0
8.214,0.073,-0.932,0.0
10.493,0.09,-0.898,0.0
9.879,0.084,-0.903,0.0
9.376,0.079,-0.912,0.0
8.933,0.074,-0.921,0.0
8.506,0.07,-0.927,0.0
8.117,0.066,-0.932,0.0
10.339,0.081,-0.899,0.0
9.753,0.075,-0.905,0.0
9.273,0.071,-0.915,0.0
8.808,0.066,-0.921,0.0
8.421,0.063,-0.929,0.0
8.018,0.059,-0.932,0.0
10.192,0.072,-0.9,0.0
9.627,0.067,-0.906,0.0
9.145,0.062,-0.914,0.0
8.716,0.059,-0.923,0.0
8.324,0.055,-0.93,0.0
7.936,0.052,-0.933,0.0
10.075,0.063,-0.903,0.0
9.543,0.058,-0.911,0.0
9.037,0.054,-0.915,0.0
8.598,0.051,-0.922,0.0
8.225,0.047,-0.93,0.0
7.875,0.044,-0.936,0.0
9.947,0.053,-0.905,0.0
9.435,0.049,-0.913,0.0
8.91,0.046,-0.914,0.0
8.525,0.043,-0.925,0.0
8.162,0.04,-0.933,0.0
7.785,0.037,-0.935,0.0
9.781,0.044,-0.902,0.0
9.322,0.041,-0.913,0.0
8.839,0.037,-0.917,0.0
8.43,0.035,-0.925,0.0
8.08,0.032,-0.934,0.0
7.735,0.03,-0.939,0.0
9.745,0.035,-0.91,0.0
9.248,0.032,-0.917,0.0
8.766,0.029,-0.92,0.0
8.382,0.027,-0.929,0.0
8.007,0.025,-0.935,0.0
7.634,0.023,-0.936,0.0
9.617,0.026,-0.909,0.0
9.106,0.023,-0.914,0.0
8.656,0.021,-0.919,0.0
8.303,0.019,-0.93,0.0
7.934,0.017,-0.935,0.0
7.598,0.015,-0.94,0.0
9.488,0.016,-0.908,0.0
9.032,0.014,-0.916,0.0
8.588,0.013,-0.921,0.0
8.2,0.011,-0.928,0.0
7.89,0.009,-0.939,0.0
7.566,0.008,-0.944,0.0
9.417,0.007,-0.911,0.0
8.96,0.006,-0.919,0.0
8.521,0.004,-0.923,0.0
8.144,0.003,-0.93,0.0
7.817,0.002,-0.938,0.0
7.475,0.0,-0.941,0.0
9.352,-0.001,-0.915,0.0
8.866,-0.002,-0.918,0.0
8.471,-0.003,-0.926,0.0
8.082,-0.004,-0.932,0.0
7.739,-0.005,-0.937,0.0
7.414,-0.006,-0.941,0.0
9.236,-0.01,-0.913,0.0
8.789,-0.011,-0.919,0.0
8.379,-0.012,-0.925,0.0
8.026,-0.012,-0.933,0.0
7.694,-0.013,-0.939,0.0
7.379,-0.013,-0.944,0.0
9.174,-0.019,-0.915,0.0
8.729,-0.02,-0.921,0.0
8.356,-0.02,-0.93,0.0
7.981,-0.02,-0.935,0.0
7.633,-0.021,-0.939,0.0
7.326,-0.021,-0.944,0.0
9.109,-0.029,-0.917,0.0
8.677,-0.029,-0.924,0.0
8.271,-0.029,-0.928,0.0
7.921,-0.029,-0.936,0.0
7.615,-0.029,-0.944,0.0
7.288,-0.028,-0.946,0.0
9.033,-0.038,-0.918,0.0
8.611,-0.038,-0.924,0.0
8.221,-0.037,-0.93,0.0
7.855,-0.037,-0.935,0.0
7.56,-0.037,-0.943,0.0
7.253,-0.036,-0.947,0.0
8.952,-0.047,-0.917,0.0
8.527,-0.046,-0.923,0.0
8.169,-0.046,-0.931,0.0
7.816,-0.045,-0.937,0.0
7.474,-0.044,-0.939,0.0
7.21,-0.044,-0.948,0.0
8.887,-0.056,-0.918,0.0
8.488,-0.055,-0.925,0.0
8.109,-0.054,-0.931,0.0
7.786,-0.053,-0.939,0.0
7.451,-0.052,-0.942,0.0
7.184,-0.052,-0.95,0.0
8.834,-0.066,-0.919,0.0
8.415,-0.064,-0.923,0.0
8.057,-0.063,-0.931,0.0
7.72,-0.061,-0.937,0.0
7.42,-0.06,-0.943,0.0
7.151,-0.059,-0.951,0.0
8.784,-0.075,-0.92,0.0
8.381,-0.073,-0.926,0.0
8.022,-0.071,-0.932,0.0
7.651,-0.069,-0.934,0.0
7.394,-0.068,-0.945,0.0
7.112,-0.067,-0.95,0.0
8.736,-0.084,-0.921,0.0
8.347,-0.082,-0.927,0.0
7.976,-0.08,-0.932,0.0
7.635,-0.078,-0.937,0.0
7.339,-0.076,-0.943,0.0
7.086,-0.075,-0.951,0.0
8.683,-0.094,-0.921,0.0
8.314,-0.091,-0.929,0.0
7.961,-0.089,-0.935,0.0
7.618,-0.086,-0.94,0.0
7.331,-0.084,-0.946,0.0
7.068,-0.083,-0.953,0.0
8.68,-0.103,-0.925,0.0
8.246,-0.1,-0.926,0.0
7.903,-0.097,-0.933,0.0
7.598,-0.095,-0.941,0.0
7.301,-0.092,-0.946,0.0
7.017,-0.09,-0.95,0.0
8.659,-0.113,-0.928,0.0
8.218,-0.109,-0.927,0.0
7.878,-0.106,-0.934,0.0
7.542,-0.103,-0.938,0.0
7.276,-0.1,-0.947,0.0
6.969,-0.097,-0.947,0.0
8.584,-0.122,-0.924,0.0
8.183,-0.118,-0.927,0.0
7.831,-0.114,-0.932,0.0
7.521,-0.111,-0.939,0.0
7.27,-0.109,-0.95,0.0
7.001,-0.106,-0.955,0.0
8.485,-0.13,-0.917,0.0
8.165,-0.127,-0.929,0.0
7.824,-0.123,-0.935,0.0
7.511,-0.12,-0.941,0.0
7.245,-0.117,-0.949,0.0
6.952,-0.113,-0.951,0.0
8.488,-0.14,-0.921,0.0
8.168,-0.136,-0.932,0.0
7.823,-0.132,-0.938,0.0
7.488,-0.128,-0.941,0.0
7.224,-0.125,-0.949,0.0
6.966,-0.122,-0.955,0.0
8.493,-0.15,-0.924,0.0
8.139,-0.145,-0.932,0.0
7.797,-0.141,-0.937,0.0
7.476,-0.136,-0.942,0.0
7.178,-0.132,-0.946,0.0
6.911,-0.129,-0.95,0.0
8.461,-0.159,-0.923,0.0
8.123,-0.154,-0.932,0.0
7.789,-0.15,-0.938,0.0
7.467,-0.145,-0.943,0.0
7.197,-0.141,-0.95,0.0
6.912,-0.137,-0.952,0.0
8.436,-0.169,-0.923,0.0
8.126,-0.164,-0.935,0.0
7.764,-0.158,-0.937,0.0
7.448,-0.153,-0.942,0.0
7.178,-0.149,-0.949,0.0
6.922,-0.145,-0.955,0.0
8.448,-0.179,-0.926,0.0
8.083,-0.173,-0.932,0.0
7.75,-0.167,-0.937,0.0
7.429,-0.162,-0.941,0.0
7.128,-0.157,-0.944,0.0
6.911,-0.153,-0.955,0.0
8.416,-0.188,-0.924,0.0
8.095,-0.182,-0.934,0.0
7.748,-0.176,-0.938,0.0
7.434,-0.17,-0.943,0.0
7.139,-0.165,-0.946,0.0
6.931,-0.162,-0.958,0.0
8.429,-0.198,-0.926,0.0
8.074,-0.191,-0.933,0.0
7.734,-0.185,-0.937,0.0
7.429,-0.179,-0.943,0.0
7.157,-0.174,-0.949,0.0
6.894,-0.169,-0.954,0.0
8.425,-0.208,-0.926,0.0
8.075,-0.201,-0.933,0.0
7.732,-0.194,-0.937,0.0
7.429,-0.188,-0.944,0.0
7.126,-0.182,-0.945,0.0
6.897,-0.177,-0.954,0.0
8.427,-0.217,-0.927,0.0
8.067,-0.21,-0.933,0.0
7.723,-0.202,-0.936,0.0
7.414,-0.196,-0.942,0.0
7.151,-0.19,-0.949,0.0
6.866,-0.184,-0.95,0.0
8.42,-0.227,-0.926,0.0
8.072,-0.219,-0.933,0.0
7.737,-0.212,-0.938,0.0
7.419,-0.204,-0.942,0.0
7.176,-0.199,-0.952,0.0
6.889,-0.193,-0.953,0.0
8.436,-0.237,-0.927,0.0
8.078,-0.229,-0.933,0.0
7.743,-0.221,-0.938,0.0
7.427,-0.213,-0.942,0.0
7.157,-0.207,-0.949,0.0
6.924,-0.202,-0.957,0.0
8.438,-0.247,-0.926,0.0
8.077,-0.238,-0.932,0.0
7.738,-0.229,-0.936,0.0
7.436,-0.222,-0.942,0.0
7.153,-0.215,-0.947,0.0
6.929,-0.21,-0.957,0.0
8.455,-0.257,-0.927,0.0
8.081,-0.247,-0.931,0.0
7.758,-0.239,-0.938,0.0
7.424,-0.23,-0.94,0.0
7.186,-0.224,-0.95,0.0
6.884,-0.216,-0.949,0.0
8.458,-0.266,-0.926,0.0
8.123,-0.257,-0.934,0.0
7.766,-0.248,-0.937,0.0
7.469,-0.24,-0.944,0.0
7.193,-0.232,-0.949,0.0
6.915,-0.225,-0.952,0.0
8.482,-0.276,-0.926,0.0
8.147,-0.267,-0.935,0.0
7.791,-0.257,-0.938,0.0
7.45,-0.247,-0.939,0.0
7.209,-0.241,-0.949,0.0
6.939,-0.233,-0.953,0.0
8.51,-0.286,-0.927,0.0
8.156,-0.276,-0.934,0.0
7.795,-0.266,-0.936,0.0
7.468,-0.256,-0.939,0.0
7.195,-0.248,-0.945,0.0
6.936,-0.241,-0.95,0.0
8.52,-0.296,-0.925,0.0
8.172,-0.286,-0.933,0.0
7.857,-0.276,-0.941,0.0
7.503,-0.265,-0.941,0.0
7.217,-0.257,-0.945,0.0
6.994,-0.25,-0.955,0.0
8.566,-0.307,-0.927,0.0
8.176,-0.295,-0.93,0.0
7.866,-0.285,-0.938,0.0
7.541,-0.275,-0.942,0.0
7.248,-0.266,-0.946,0.0
7.025,-0.259,-0.957,0.0
8.616,-0.318,-0.928,0.0
8.203,-0.304,-0.929,0.0
7.897,-0.294,-0.939,0.0
7.549,-0.283,-0.94,0.0
7.273,-0.274,-0.946,0.0
6.991,-0.265,-0.949,0.0
8.661,-0.328,-0.929,0.0
8.232,-0.314,-0.929,0.0
7.915,-0.303,-0.937,0.0
7.619,-0.294,-0.945,0.0
7.335,-0.284,-0.951,0.0
7.056,-0.275,-0.954,0.0
8.678,-0.338,-0.927,0.0
8.287,-0.324,-0.931,0.0
7.953,-0.313,-0.937,0.0
7.641,-0.302,-0.944,0.0
7.379,-0.293,-0.952,0.0
7.101,-0.284,-0.956,0.0
8.715,-0.348,-0.926,0.0
8.362,-0.336,-0.934,0.0
7.998,-0.323,-0.938,0.0
7.681,-0.312,-0.944,0.0
7.401,-0.302,-0.951,0.0
7.101,-0.291,-0.952,0.0
8.763,-0.359,-0.926,0.0
8.39,-0.345,-0.932,0.0
8.04,-0.332,-0.938,0.0
7.704,-0.32,-0.942,0.0
7.405,-0.309,-0.947,0.0
7.118,-0.299,-0.95,0.0
8.82,-0.37,-0.926,0.0
8.44,-0.355,-0.932,0.0
8.066,-0.341,-0.936,0.0
7.73,-0.329,-0.94,0.0
7.433,-0.317,-0.945,0.0
7.149,-0.307,-0.949,0.0
8.874,-0.38,-0.926,0.0
8.488,-0.365,-0.932,0.0
8.098,-0.35,-0.934,0.0
7.739,-0.336,-0.936,0.0
7.456,-0.325,-0.943,0.0
7.198,-0.316,-0.95,0.0
8.909,-0.39,-0.923,0.0
8.522,-0.375,-0.929,0.0
8.162,-0.36,-0.935,0.0
7.818,-0.347,-0.94,0.0
7.504,-0.334,-0.943,0.0
7.258,-0.325,-0.952,0.0
8.977,-0.401,-0.923,0.0
8.599,-0.386,-0.931,0.0
8.218,-0.37,-0.935,0.0
7.846,-0.355,-0.937,0.0
7.564,-0.344,-0.945,0.0
7.269,-0.332,-0.948,0.0
9.038,-0.412,-0.922,0.0
8.635,-0.395,-0.928,0.0
8.232,-0.378,-0.93,0.0
7.907,-0.365,-0.937,0.0
7.614,-0.353,-0.945,0.0
7.323,-0.341,-0.949,0.0
9.142,-0.424,-0.925,0.0
8.709,-0.406,-0.929,0.0
8.315,-0.389,-0.932,0.0
8.007,-0.376,-0.942,0.0
7.658,-0.361,-0.943,0.0
7.353,-0.348,-0.946,0.0
9.208,-0.435,-0.924,0.0
8.782,-0.416,-0.929,0.0
8.405,-0.4,-0.935,0.0
8.014,-0.383,-0.936,0.0
7.717,-0.37,-0.944,0.0
7.425,-0.357,-0.949,0.0
9.288,-0.446,-0.923,0.0
8.861,-0.427,-0.929,0.0
8.477,-0.41,-0.935,0.0
8.107,-0.394,-0.939,0.0
7.785,-0.379,-0.945,0.0
7.468,-0.365,-0.947,0.0
9.353,-0.456,-0.921,0.0
8.913,-0.436,-0.926,0.0
8.52,-0.419,-0.931,0.0
8.164,-0.403,-0.938,0.0
7.809,-0.386,-0.94,0.0
7.504,-0.373,-0.944,0.0
9.451,-0.468,-0.921,0.0
8.991,-0.447,-0.925,0.0
8.6,-0.429,-0.932,0.0
8.197,-0.41,-0.933,0.0
7.888,-0.396,-0.941,0.0
7.589,-0.382,-0.947,0.0
9.525,-0.479,-0.919,0.0
9.091,-0.458,-0.926,0.0
8.674,-0.439,-0.931,0.0
8.264,-0.419,-0.932,0.0
7.964,-0.405,-0.942,0.0
7.64,-0.39,-0.945,0.0
9.634,-0.491,-0.919,0.0
9.183,-0.469,-0.925,0.0
8.756,-0.449,-0.93,0.0
8.375,-0.431,-0.936,0.0
8.02,-0.414,-0.94,0.0
7.722,-0.4,-0.947,0.0
9.753,-0.503,-0.92,0.0
9.27,-0.48,-0.924,0.0
8.831,-0.459,-0.928,0.0
8.451,-0.44,-0.935,0.0
8.089,-0.423,-0.939,0.0
7.76,-0.407,-0.942,0.0
9.851,-0.515,-0.918,0.0
9.37,-0.491,-0.923,0.0
8.933,-0.469,-0.928,0.0
8.521,-0.449,-0.932,0.0
8.172,-0.432,-0.939,0.0
7.829,-0.415,-0.942,0.0
9.912,-0.524,-0.912,0.0
9.455,-0.501,-0.921,0.0
8.99,-0.478,-0.924,0.0
8.624,-0.46,-0.933,0.0
8.258,-0.441,-0.939,0.0
7.91,-0.424,-0.942,0.0
9.947,-0.532,-0.903,0.0
9.569,-0.513,-0.92,0.0
9.123,-0.49,-0.926,0.0
8.72,-0.47,-0.933,0.0
8.318,-0.449,-0.935,0.0
8.018,-0.434,-0.945,0.0
10.074,-0.544,-0.902,0.0
9.691,-0.524,-0.92,0.0
9.25,-0.502,-0.928,0.0
8.785,-0.478,-0.929,0.0
8.43,-0.459,-0.937,0.0
8.08,-0.441,-0.942,0.0
10.313,-0.562,-0.91,0.0
9.833,-0.537,-0.921,0.0
9.329,-0.511,-0.924,0.0
8.915,-0.489,-0.931,0.0
8.52,-0.468,-0.936,0.0
8.144,-0.449,-0.939,0.0
10.443,-0.574,-0.909,0.0
9.912,-0.546,-0.915,0.0
9.435,-0.521,-0.922,0.0
9.0,-0.498,-0.928,0.0
8.601,-0.477,-0.933,0.0
8.249,-0.458,-0.94,0.0
10.589,-0.586,-0.907,0.0
10.016,-0.556,-0.912,0.0
9.54,-0.53,-0.919,0.0
9.106,-0.507,-0.927,0.0
8.725,-0.487,-0.935,0.0
8.33,-0.466,-0.938,0.0
10.723,-0.598,-0.904,0.0
10.172,-0.568,-0.912,0.0
9.694,-0.543,-0.921,0.0
9.223,-0.517,-0.927,0.0
8.818,-0.496,-0.933,0.0
8.431,-0.475,-0.937,0.0
10.794,-0.606,-0.896,0.0
10.322,-0.58,-0.911,0.0
9.821,-0.553,-0.92,0.0
9.354,-0.528,-0.927,0.0
8.923,-0.505,-0.932,0.0
8.522,-0.483,-0.936,0.0
11.048,-0.624,-0.901,0.0
10.496,-0.594,-0.912,0.0
9.959,-0.564,-0.918,0.0
9.469,-0.537,-0.925,0.0
9.034,-0.514,-0.93,0.0
8.638,-0.492,-0.936,0.0
11.205,-0.636,-0.898,0.0
10.624,-0.604,-0.908,0.0
10.072,-0.573,-0.914,0.0
9.591,-0.547,-0.923,0.0
9.17,-0.524,-0.931,0.0
8.754,-0.501,-0.936,0.0
11.322,-0.645,-0.891,0.0
10.775,-0.615,-0.905,0.0
10.239,-0.585,-0.915,0.0
9.735,-0.557,-0.923,0.0
9.288,-0.532,-0.93,0.0
8.837,-0.507,-0.932,0.0
11.584,-0.663,-0.895,0.0
10.895,-0.624,-0.899,0.0
10.399,-0.596,-0.914,0.0
9.881,-0.567,-0.922,0.0
9.387,-0.54,-0.926,0.0
8.976,-0.517,-0.933,0.0
11.739,-0.674,-0.889,0.0
11.066,-0.636,-0.897,0.0
10.54,-0.606,-0.91,0.0
10.001,-0.576,-0.918,0.0
9.488,-0.547,-0.921,0.0
9.087,-0.524,-0.93,0.0
11.882,-0.684,-0.883,0.0
11.276,-0.649,-0.897,0.0
10.722,-0.618,-0.91,0.0
10.12,-0.584,-0.913,0.0
9.639,-0.557,-0.921,0.0
9.234,-0.534,-0.931,0.0
12.097,-0.697,-0.88,0.0
11.479,-0.662,-0.896,0.0
10.775,-0.622,-0.898,0.0
10.33,-0.597,-0.916,0.0
9.813,-0.567,-0.922,0.0
9.364,-0.542,-0.93,0.0
12.32,-0.711,-0.877,0.0
11.671,-0.674,-0.892,0.0
10.998,-0.635,-0.899,0.0
10.491,-0.607,-0.914,0.0
9.948,-0.576,-0.919,0.0
9.484,-0.549,-0.927,0.0
12.521,-0.723,-0.872,0.0
11.836,-0.683,-0.886,0.0
11.245,-0.65,-0.901,0.0
10.617,-0.614,-0.908,0.0
10.079,-0.583,-0.915,0.0
9.616,-0.557,-0.924,0.0
12.784,-0.737,-0.869,0.0
12.046,-0.695,-0.882,0.0
11.378,-0.657,-0.893,0.0
10.797,-0.624,-0.906,0.0
10.32,-0.596,-0.92,0.0
9.78,-0.565,-0.924,0.0
13.081,-0.754,-0.869,0.0
12.286,-0.708,-0.88,0.0
11.639,-0.671,-0.895,0.0
10.962,-0.632,-0.902,0.0
10.485,-0.605,-0.918,0.0
9.93,-0.573,-0.922,0.0
13.268,-0.763,-0.86,0.0
12.487,-0.718,-0.875,0.0
11.823,-0.68,-0.89,0.0
11.177,-0.643,-0.902,0.0
10.596,-0.61,-0.911,0.0
10.078,-0.58,-0.919,0.0
13.551,-0.778,-0.856,0.0
12.766,-0.733,-0.873,0.0
11.998,-0.688,-0.884,0.0
11.388,-0.653,-0.9,0.0
10.754,-0.617,-0.906,0.0
10.26,-0.589,-0.919,0.0
13.946,-0.798,-0.858,0.0
13.022,-0.745,-0.869,0.0
12.215,-0.698,-0.88,0.0
11.601,-0.663,-0.897,0.0
10.926,-0.625,-0.903,0.0
10.421,-0.596,-0.916,0.0
14.402,-0.82,-0.862,0.0
13.23,-0.753,-0.861,0.0
12.424,-0.707,-0.874,0.0
11.771,-0.67,-0.891,0.0
11.108,-0.632,-0.899,0.0
10.602,-0.603,-0.914,0.0
14.766,-0.837,-0.859,0.0
13.479,-0.764,-0.855,0.0
12.691,-0.719,-0.871,0.0
11.964,-0.678,-0.886,0.0
11.349,-0.642,-0.9,0.0
10.771,-0.609,-0.91,0.0
15.139,-0.854,-0.856,0.0
13.892,-0.783,-0.858,0.0
13.006,-0.732,-0.871,0.0
12.199,-0.687,-0.882,0.0
11.558,-0.65,-0.897,0.0
10.954,-0.616,-0.907,0.0
15.263,-0.855,-0.837,0.0
14.424,-0.808,-0.866,0.0
13.196,-0.738,-0.862,0.0
12.42,-0.694,-0.877,0.0
11.774,-0.658,-0.893,0.0
11.134,-0.622,-0.903,0.0
15.643,-0.87,-0.832,0.0
14.72,-0.819,-0.859,0.0
13.413,-0.745,-0.853,0.0
12.684,-0.704,-0.874,0.0
11.966,-0.664,-0.888,0.0
11.293,-0.626,-0.897,0.0
16.368,-0.904,-0.842,0.0
15.061,-0.831,-0.854,0.0
13.945,-0.768,-0.863,0.0
12.967,-0.714,-0.872,0.0
12.204,-0.671,-0.884,0.0
11.551,-0.634,-0.897,0.0
16.845,-0.922,-0.838,0.0
15.371,-0.84,-0.845,0.0
14.311,-0.781,-0.861,0.0
13.178,-0.719,-0.863,0.0
12.414,-0.676,-0.878,0.0
11.745,-0.639,-0.892,0.0
17.226,-0.934,-0.828,0.0
15.732,-0.852,-0.838,0.0
14.717,-0.796,-0.861,0.0
13.549,-0.732,-0.864,0.0
12.639,-0.682,-0.872,0.0
11.94,-0.643,-0.887,0.0
17.619,-0.946,-0.816,0.0
16.254,-0.871,-0.838,0.0
15.089,-0.807,-0.857,0.0
13.992,-0.748,-0.869,0.0
13.002,-0.694,-0.875,0.0
12.208,-0.65,-0.886,0.0
18.243,-0.968,-0.814,0.0
16.796,-0.89,-0.837,0.0
15.41,-0.815,-0.848,0.0
14.258,-0.753,-0.861,0.0
13.293,-0.701,-0.872,0.0
12.432,-0.654,-0.88,0.0
18.803,-0.986,-0.807,0.0
17.253,-0.903,-0.83,0.0
15.867,-0.829,-0.846,0.0
14.644,-0.763,-0.859,1.0
13.502,-0.703,-0.863,0.0
12.673,-0.658,-0.876,0.0
19.243,-0.996,-0.793,0.0
17.744,-0.917,-0.824,0.0
16.269,-0.839,-0.84,0.0
15.033,-0.773,-0.856,0.0
13.864,-0.712,-0.862,0.0
12.973,-0.664,-0.874,0.0
19.87,-1.014,-0.785,0.0
18.125,-0.923,-0.81,0.0
16.779,-0.852,-0.837,0.0
15.396,-0.78,-0.85,0.0
14.339,-0.725,-0.867,0.0
13.183,-0.665,-0.866,0.0
20.492,-1.03,-0.774,0.0
18.722,-0.939,-0.805,0.0
17.214,-0.861,-0.829,0.0
15.82,-0.789,-0.846,0.0
14.701,-0.732,-0.863,0.0
13.578,-0.674,-0.868,0.0
21.004,-1.039,-0.757,0.0
19.277,-0.951,-0.796,0.0
17.712,-0.871,-0.823,0.0
16.222,-0.796,-0.84,0.0
15.079,-0.738,-0.86,0.0
13.909,-0.679,-0.865,0.0
21.88,-1.064,-0.752,0.0
19.902,-0.965,-0.787,0.0
18.159,-0.878,-0.813,0.0
16.715,-0.806,-0.837,0.0
15.408,-0.74,-0.852,0.0
14.35,-0.688,-0.868,0.0
22.613,-1.079,-0.738,0.0
20.51,-0.976,-0.776,0.0
18.775,-0.89,-0.808,0.0
17.19,-0.813,-0.832,0.0
15.864,-0.748,-0.85,0.0
14.668,-0.689,-0.862,0.0
23.384,-1.095,-0.724,0.0
21.021,-0.981,-0.76,0.0
19.331,-0.899,-0.8,0.0
17.667,-0.819,-0.825,0.0
16.269,-0.751,-0.844,0.0
15.083,-0.694,-0.862,0.0
24.428,-1.12,-0.715,0.0
21.856,-0.998,-0.754,0.0
19.883,-0.905,-0.789,0.0
18.061,-0.819,-0.813,0.0
16.66,-0.753,-0.836,0.0
15.374,-0.692,-0.852,0.0
25.668,-1.151,-0.708,0.0
22.668,-1.012,-0.744,0.0
20.456,-0.91,-0.777,0.0
18.499,-0.82,-0.801,0.0
17.0,-0.75,-0.825,0.0
15.797,-0.695,-0.849,0.0
