X,Y,Z,Reflectivity
10.844,0.528,-0.873,0.0
23.629,1.149,-1.256,1.0
23.64,1.152,-1.393,1.0
23.63,1.153,-1.53,2.0
12.112,0.592,-0.856,0.0
11.364,0.557,-0.869,0.0
23.66,1.161,-1.947,0.0
23.608,1.157,-1.296,1.0
23.612,1.159,-1.433,1.0
23.625,1.161,-1.571,1.0
11.781,0.58,-0.853,0.0
11.099,0.547,-0.868,0.0
10.453,0.516,-0.878,0.0
23.625,1.165,-1.338,1.0
23.611,1.166,-1.474,0.0
12.41,0.614,-0.847,0.0
11.554,0.572,-0.856,0.0
23.632,1.172,-1.89,0.0
10.334,0.513,-0.886,0.0
23.61,1.17,-1.377,1.0
23.625,1.173,-1.515,1.0
12.163,0.604,-0.85,0.0
11.366,0.566,-0.862,0.0
23.599,1.177,-1.928,0.0
10.176,0.508,-0.89,0.0
23.619,1.176,-1.418,1.0
23.612,1.177,-1.555,2.0
11.958,0.597,-0.857,0.0
11.204,0.56,-0.869,0.0
23.634,1.183,-1.971,0.0
10.02,0.502,-0.894,0.0
23.623,1.181,-1.459,0.0
23.613,1.182,-1.595,0.0
11.688,0.585,-0.857,0.0
23.568,1.182,-1.868,0.0
10.363,0.52,-0.882,0.0
9.906,0.498,-0.901,0.0
23.62,1.184,-1.499,1.0
12.289,0.616,-0.851,0.0
11.44,0.574,-0.858,0.0
23.63,1.189,-1.913,0.0
10.223,0.515,-0.887,0.0
9.703,0.489,-0.899,0.0
23.619,1.187,-1.539,2.0
12.052,0.606,-0.855,0.0
11.286,0.568,-0.866,0.0
23.601,1.189,-1.951,0.0
10.09,0.509,-0.893,0.0
9.564,0.483,-0.902,0.0
23.62,1.188,-1.578,0.0
11.83,0.595,-0.859,0.0
11.107,0.559,-0.871,0.0
10.427,0.526,-0.879,0.0
9.929,0.501,-0.895,0.0
9.385,0.474,-0.901,0.0
12.354,0.622,-0.845,0.0
11.561,0.582,-0.858,0.0
23.623,1.191,-1.891,0.0
10.284,0.519,-0.884,0.0
9.79,0.494,-0.899,0.0
9.293,0.469,-0.907,0.0
12.121,0.61,-0.849,0.0
23.673,1.192,-1.797,0.0
23.631,1.19,-1.931,0.0
10.154,0.512,-0.889,0.0
9.657,0.487,-0.902,0.0
11.901,0.598,-0.853,0.0
11.154,0.561,-0.864,0.0
10.483,0.527,-0.873,0.0
9.994,0.503,-0.892,0.0
9.489,0.478,-0.902,0.0
11.644,0.584,-0.853,0.0
23.612,1.185,-1.868,0.0
10.374,0.521,-0.881,0.0
9.816,0.493,-0.891,0.0
9.36,0.47,-0.905,0.0
8.845,0.444,-0.906,0.0
23.658,1.184,-1.772,0.0
23.626,1.183,-1.906,0.0
10.229,0.512,-0.885,0.0
9.713,0.486,-0.897,0.0
9.225,0.462,-0.906,0.0
8.74,0.438,-0.91,0.0
23.689,1.181,-1.811,0.0
23.667,1.181,-1.946,0.0
10.085,0.503,-0.888,0.0
9.536,0.476,-0.896,0.0
8.66,0.432,-0.915,0.0
11.138,0.553,-0.868,0.0
10.48,0.52,-0.878,0.0
9.968,0.495,-0.893,0.0
9.446,0.469,-0.902,0.0
8.536,0.424,-0.914,0.0
10.887,0.538,-0.865,0.0
10.329,0.51,-0.88,0.0
9.836,0.486,-0.895,0.0
9.337,0.461,-0.905,0.0
8.878,0.439,-0.912,0.0
8.401,0.415,-0.912,0.0
10.713,0.526,-0.867,0.0
10.235,0.503,-0.887,0.0
9.69,0.476,-0.896,0.0
8.716,0.428,-0.909,0.0
8.258,0.405,-0.909,0.0
10.55,0.515,-0.869,0.0
10.079,0.492,-0.889,0.0
9.581,0.467,-0.9,0.0
8.664,0.422,-0.916,0.0
8.216,0.401,-0.916,0.0
10.482,0.508,-0.878,0.0
9.986,0.484,-0.895,0.0
9.458,0.458,-0.902,0.0
8.513,0.412,-0.912,0.0
8.082,0.391,-0.913,0.0
10.349,0.497,-0.882,0.0
9.845,0.473,-0.896,0.0
9.397,0.451,-0.91,0.0
8.849,0.425,-0.909,0.0
8.424,0.404,-0.914,0.0
8.036,0.385,-0.919,0.0
10.272,0.489,-0.89,0.0
9.708,0.462,-0.897,0.0
9.241,0.44,-0.907,0.0
8.776,0.417,-0.914,0.0
8.306,0.395,-0.913,0.0
7.953,0.378,-0.921,0.0
10.112,0.477,-0.889,0.0
9.609,0.453,-0.901,0.0
9.071,0.427,-0.903,0.0
8.684,0.409,-0.916,0.0
8.241,0.388,-0.917,0.0
7.872,0.37,-0.922,0.0
10.018,0.468,-0.894,0.0
9.483,0.442,-0.902,0.0
8.983,0.419,-0.906,0.0
8.56,0.399,-0.914,0.0
8.159,0.38,-0.919,0.0
7.829,0.364,-0.927,0.0
9.867,0.456,-0.894,0.0
9.434,0.435,-0.909,0.0
8.871,0.409,-0.906,0.0
8.471,0.39,-0.915,0.0
8.068,0.371,-0.919,0.0
7.751,0.356,-0.928,0.0
9.745,0.444,-0.895,0.0
9.31,0.424,-0.909,0.0
8.77,0.399,-0.907,0.0
8.31,0.378,-0.908,0.0
7.996,0.363,-0.921,0.0
7.7,0.349,-0.931,0.0
9.669,0.435,-0.9,0.0
9.158,0.412,-0.905,0.0
8.682,0.39,-0.908,0.0
8.299,0.372,-0.917,0.0
7.977,0.357,-0.928,0.0
7.623,0.341,-0.931,0.0
9.547,0.424,-0.9,0.0
9.023,0.4,-0.903,0.0
8.584,0.38,-0.908,0.0
8.205,0.363,-0.917,0.0
7.86,0.347,-0.924,0.0
7.549,0.333,-0.931,0.0
9.473,0.414,-0.904,0.0
9.023,0.394,-0.913,0.0
8.566,0.374,-0.916,0.0
8.126,0.354,-0.917,0.0
7.804,0.339,-0.926,0.0
7.512,0.326,-0.935,0.0
9.349,0.403,-0.903,0.0
8.832,0.38,-0.904,0.0
8.44,0.362,-0.913,0.0
8.052,0.345,-0.918,0.0
7.748,0.331,-0.928,0.0
7.451,0.318,-0.936,0.0
9.24,0.391,-0.902,0.0
8.824,0.373,-0.913,0.0
8.368,0.353,-0.914,0.0
8.005,0.337,-0.921,0.0
7.693,0.323,-0.93,0.0
7.389,0.31,-0.936,0.0
9.148,0.381,-0.903,0.0
8.761,0.364,-0.915,0.0
8.288,0.344,-0.914,0.0
7.947,0.329,-0.923,0.0
7.64,0.315,-0.932,0.0
7.356,0.303,-0.94,0.0
9.063,0.37,-0.904,0.0
8.634,0.352,-0.911,0.0
8.211,0.334,-0.913,0.0
7.889,0.32,-0.924,0.0
7.586,0.307,-0.933,0.0
7.293,0.295,-0.939,0.0
9.041,0.362,-0.911,0.0
8.611,0.344,-0.917,0.0
8.174,0.326,-0.917,0.0
7.83,0.312,-0.925,0.0
7.539,0.299,-0.934,0.0
7.276,0.288,-0.944,0.0
8.935,0.351,-0.908,0.0
8.523,0.334,-0.915,0.0
8.094,0.316,-0.916,0.0
7.778,0.303,-0.926,0.0
7.52,0.292,-0.939,0.0
7.217,0.28,-0.943,0.0
8.9,0.342,-0.913,0.0
8.457,0.324,-0.916,0.0
8.078,0.309,-0.922,0.0
7.727,0.294,-0.927,0.0
7.463,0.284,-0.938,0.0
7.205,0.273,-0.948,0.0
8.839,0.332,-0.914,0.0
8.396,0.314,-0.917,0.0
8.004,0.299,-0.92,0.0
7.711,0.287,-0.932,0.0
7.438,0.276,-0.942,0.0
7.17,0.265,-0.949,0.0
8.763,0.321,-0.914,0.0
8.307,0.304,-0.914,0.0
7.996,0.291,-0.926,0.0
7.64,0.277,-0.929,0.0
7.393,0.268,-0.942,0.0
7.13,0.257,-0.95,0.0
8.724,0.312,-0.917,0.0
8.28,0.295,-0.917,0.0
7.934,0.282,-0.925,0.0
7.612,0.269,-0.932,0.0
7.345,0.259,-0.942,0.0
7.077,0.249,-0.948,0.0
8.665,0.302,-0.917,0.0
8.224,0.285,-0.917,0.0
7.903,0.273,-0.927,0.0
7.622,0.262,-0.939,0.0
7.307,0.251,-0.942,0.0
7.037,0.241,-0.948,0.0
8.582,0.29,-0.914,0.0
8.209,0.277,-0.922,0.0
7.858,0.264,-0.927,0.0
7.53,0.252,-0.933,0.0
7.272,0.242,-0.943,0.0
7.017,0.233,-0.95,0.0
8.557,0.281,-0.917,0.0
8.18,0.268,-0.924,0.0
7.832,0.255,-0.929,0.0
7.491,0.243,-0.933,0.0
7.244,0.234,-0.944,0.0
6.971,0.225,-0.948,0.0
8.49,0.271,-0.915,0.0
8.089,0.257,-0.918,0.0
7.816,0.247,-0.932,0.0
7.45,0.234,-0.932,0.0
7.219,0.226,-0.945,0.0
6.972,0.218,-0.953,0.0
8.475,0.262,-0.919,0.0
8.074,0.248,-0.921,0.0
7.773,0.238,-0.932,0.0
7.435,0.226,-0.935,0.0
7.221,0.219,-0.949,0.0
6.954,0.21,-0.954,0.0
8.433,0.252,-0.919,0.0
8.046,0.239,-0.922,0.0
7.743,0.229,-0.932,0.0
7.425,0.219,-0.937,0.0
7.188,0.211,-0.948,0.0
6.934,0.202,-0.955,0.0
8.397,0.242,-0.919,0.0
8.038,0.23,-0.925,0.0
7.725,0.22,-0.934,0.0
7.371,0.209,-0.934,0.0
7.146,0.202,-0.946,0.0
6.889,0.193,-0.952,0.0
8.363,0.232,-0.919,0.0
8.042,0.222,-0.929,0.0
7.715,0.212,-0.936,0.0
7.36,0.201,-0.936,0.0
7.137,0.194,-0.948,0.0
6.835,0.185,-0.947,0.0
8.332,0.222,-0.919,0.0
7.995,0.212,-0.927,0.0
7.707,0.203,-0.938,0.0
7.362,0.193,-0.939,0.0
7.137,0.186,-0.951,0.0
6.852,0.178,-0.952,0.0
8.32,0.213,-0.921,0.0
7.948,0.202,-0.925,0.0
7.661,0.194,-0.935,0.0
7.354,0.185,-0.94,0.0
7.12,0.178,-0.951,0.0
6.813,0.169,-0.949,0.0
8.314,0.204,-0.922,0.0
7.93,0.193,-0.925,0.0
7.626,0.184,-0.933,0.0
7.305,0.176,-0.936,0.0
7.089,0.169,-0.949,0.0
6.78,0.161,-0.946,0.0
8.264,0.194,-0.919,0.0
7.818,0.182,-0.914,0.0
7.642,0.176,-0.937,0.0
7.348,0.168,-0.943,0.0
7.091,0.161,-0.951,0.0
6.787,0.153,-0.949,0.0
8.252,0.184,-0.92,0.0
7.856,0.174,-0.92,0.0
7.608,0.167,-0.934,0.0
7.311,0.159,-0.94,0.0
7.096,0.154,-0.953,0.0
6.786,0.146,-0.95,0.0
8.261,0.175,-0.922,0.0
7.807,0.164,-0.916,0.0
7.591,0.158,-0.933,0.0
7.316,0.151,-0.942,0.0
7.078,0.145,-0.952,0.0
6.789,0.138,-0.951,0.0
8.243,0.166,-0.921,0.0
7.921,0.158,-0.93,0.0
7.608,0.15,-0.936,0.0
7.321,0.143,-0.943,0.0
7.036,0.136,-0.947,0.0
6.776,0.13,-0.95,0.0
8.246,0.156,-0.922,0.0
7.939,0.149,-0.933,0.0
7.59,0.141,-0.935,0.0
7.308,0.135,-0.942,0.0
7.064,0.129,-0.951,0.0
6.79,0.123,-0.953,0.0
8.256,0.147,-0.924,0.0
7.914,0.14,-0.93,0.0
7.613,0.133,-0.938,0.0
7.319,0.126,-0.944,0.0
7.079,0.121,-0.953,0.0
6.786,0.115,-0.952,0.0
8.249,0.138,-0.923,0.0
7.873,0.13,-0.925,0.0
7.61,0.124,-0.937,0.0
7.327,0.118,-0.945,0.0
7.071,0.113,-0.952,0.0
6.772,0.107,-0.95,0.0
8.281,0.129,-0.926,0.0
7.912,0.122,-0.929,0.0
7.624,0.116,-0.938,0.0
7.332,0.11,-0.945,0.0
7.066,0.105,-0.95,0.0
6.773,0.099,-0.949,0.0
8.296,0.119,-0.927,0.0
7.942,0.113,-0.932,0.0
7.621,0.107,-0.937,0.0
7.338,0.101,-0.945,0.0
7.076,0.097,-0.951,0.0
6.79,0.091,-0.951,0.0
8.301,0.11,-0.926,0.0
7.95,0.104,-0.932,0.0
7.638,0.098,-0.938,0.0
7.337,0.093,-0.943,0.0
7.061,0.088,-0.948,0.0
6.783,0.083,-0.949,0.0
8.313,0.101,-0.926,0.0
7.966,0.095,-0.932,0.0
7.652,0.09,-0.938,0.0
7.361,0.085,-0.945,0.0
7.106,0.081,-0.952,0.0
6.823,0.076,-0.953,0.0
8.341,0.091,-0.927,0.0
7.999,0.086,-0.934,0.0
7.666,0.081,-0.938,0.0
7.353,0.076,-0.942,0.0
7.091,0.072,-0.948,0.0
6.83,0.068,-0.952,0.0
8.354,0.082,-0.926,0.0
8.013,0.077,-0.933,0.0
7.68,0.072,-0.937,0.0
7.351,0.068,-0.939,0.0
7.105,0.064,-0.948,0.0
6.866,0.061,-0.955,0.0
8.372,0.073,-0.926,0.0
8.018,0.068,-0.931,0.0
7.702,0.064,-0.938,0.0
7.396,0.06,-0.942,0.0
7.105,0.056,-0.945,0.0
6.873,0.053,-0.953,0.0
8.404,0.063,-0.926,0.0
8.039,0.059,-0.931,0.0
7.733,0.055,-0.938,0.0
7.405,0.051,-0.941,0.0
7.141,0.048,-0.947,0.0
6.915,0.045,-0.956,0.0
8.432,0.054,-0.926,0.0
8.073,0.05,-0.931,0.0
7.754,0.047,-0.937,0.0
7.4,0.043,-0.937,0.0
7.175,0.04,-0.948,0.0
6.915,0.038,-0.953,0.0
8.463,0.045,-0.925,0.0
8.106,0.041,-0.931,0.0
7.765,0.038,-0.935,0.0
7.451,0.035,-0.94,0.0
7.192,0.032,-0.947,0.0
6.952,0.03,-0.954,0.0
8.5,0.036,-0.925,0.0
8.125,0.033,-0.929,0.0
7.811,0.03,-0.937,0.0
7.497,0.027,-0.941,0.0
7.217,0.025,-0.946,0.0
6.956,0.022,-0.951,0.0
8.535,0.026,-0.924,0.0
8.185,0.024,-0.931,0.0
7.846,0.021,-0.936,0.0
7.521,0.019,-0.94,0.0
7.238,0.017,-0.945,0.0
7.009,0.015,-0.954,0.0
8.59,0.017,-0.925,0.0
8.21,0.015,-0.929,0.0
7.852,0.013,-0.932,0.0
7.571,0.011,-0.941,0.0
7.335,0.009,-0.953,0.0
7.031,0.007,-0.953,0.0
8.621,0.008,-0.923,0.0
8.245,0.006,-0.928,0.0
7.894,0.004,-0.932,0.0
7.611,0.002,-0.941,0.0
7.319,0.001,-0.946,0.0
7.072,0.0,-0.953,0.0
8.708,0.0,-0.926,0.0
8.314,-0.002,-0.93,0.0
7.968,-0.003,-0.935,0.0
7.646,-0.005,-0.94,0.0
7.35,-0.006,-0.945,0.0
7.087,-0.007,-0.95,0.0
8.775,-0.009,-0.927,0.0
8.37,-0.011,-0.93,0.0
8.008,-0.012,-0.934,0.0
7.657,-0.013,-0.936,0.0
7.393,-0.014,-0.944,0.0
7.135,-0.015,-0.951,0.0
8.816,-0.019,-0.924,0.0
8.414,-0.019,-0.928,0.0
8.071,-0.02,-0.935,0.0
7.727,-0.021,-0.938,0.0
7.451,-0.022,-0.946,0.0
7.182,-0.022,-0.951,0.0
8.88,-0.028,-0.924,0.0
8.458,-0.028,-0.926,0.0
8.105,-0.029,-0.932,0.0
7.788,-0.029,-0.939,0.0
7.489,-0.029,-0.944,0.0
7.234,-0.03,-0.952,0.0
8.914,-0.037,-0.92,0.0
8.511,-0.037,-0.924,0.0
8.179,-0.037,-0.933,0.0
7.831,-0.037,-0.937,0.0
7.55,-0.037,-0.945,0.0
7.254,-0.037,-0.948,0.0
8.999,-0.047,-0.92,0.0
8.595,-0.046,-0.926,0.0
8.241,-0.046,-0.933,0.0
7.859,-0.045,-0.933,0.0
7.583,-0.045,-0.942,0.0
7.29,-0.045,-0.946,0.0
9.076,-0.056,-0.919,0.0
8.658,-0.055,-0.924,0.0
8.289,-0.054,-0.93,0.0
7.94,-0.053,-0.935,0.0
7.651,-0.053,-0.943,0.0
7.36,-0.052,-0.948,0.0
9.155,-0.065,-0.918,0.0
8.756,-0.064,-0.926,0.0
8.36,-0.063,-0.93,0.0
8.017,-0.062,-0.936,0.0
7.693,-0.061,-0.94,0.0
7.378,-0.06,-0.942,0.0
9.196,-0.074,-0.913,0.0
8.858,-0.073,-0.928,0.0
8.439,-0.071,-0.93,0.0
8.064,-0.07,-0.933,0.0
7.779,-0.069,-0.943,0.0
7.471,-0.067,-0.946,0.0
9.353,-0.084,-0.919,0.0
8.908,-0.082,-0.923,0.0
8.5,-0.08,-0.927,0.0
8.159,-0.078,-0.935,0.0
7.828,-0.076,-0.94,0.0
7.546,-0.075,-0.947,0.0
9.458,-0.094,-0.919,0.0
8.993,-0.091,-0.922,0.0
8.606,-0.088,-0.929,0.0
8.261,-0.086,-0.938,0.0
7.892,-0.084,-0.939,0.0
7.59,-0.082,-0.944,0.0
9.551,-0.103,-0.917,0.0
9.085,-0.1,-0.921,0.0
8.664,-0.096,-0.925,0.0
8.299,-0.094,-0.932,0.0
7.977,-0.092,-0.939,0.0
7.645,-0.089,-0.942,0.0
9.648,-0.112,-0.915,0.0
9.157,-0.108,-0.918,0.0
8.749,-0.105,-0.924,0.0
8.349,-0.101,-0.928,0.0
8.056,-0.099,-0.939,0.0
7.718,-0.096,-0.941,0.0
9.757,-0.122,-0.913,0.0
9.311,-0.118,-0.922,0.0
8.864,-0.114,-0.925,0.0
8.475,-0.11,-0.931,0.0
8.116,-0.107,-0.936,0.0
7.818,-0.104,-0.944,0.0
9.872,-0.131,-0.912,0.0
9.42,-0.127,-0.92,0.0
8.959,-0.122,-0.924,0.0
8.537,-0.118,-0.927,0.0
8.207,-0.114,-0.935,0.0
7.88,-0.111,-0.941,0.0
10.003,-0.141,-0.911,0.0
9.538,-0.136,-0.92,0.0
9.081,-0.131,-0.924,0.0
8.665,-0.126,-0.93,0.0
8.315,-0.122,-0.937,0.0
7.965,-0.118,-0.94,0.0
10.139,-0.15,-0.91,0.0
9.635,-0.144,-0.916,0.0
9.151,-0.138,-0.919,0.0
8.758,-0.134,-0.928,0.0
8.382,-0.129,-0.933,0.0
8.054,-0.126,-0.94,0.0
10.25,-0.159,-0.906,0.0
9.746,-0.153,-0.913,0.0
9.32,-0.148,-0.923,0.0
8.879,-0.142,-0.928,0.0
8.479,-0.137,-0.932,0.0
8.125,-0.132,-0.937,0.0
10.415,-0.169,-0.906,0.0
9.868,-0.162,-0.911,0.0
9.437,-0.156,-0.922,0.0
8.97,-0.15,-0.925,0.0
8.583,-0.144,-0.931,0.0
8.221,-0.14,-0.936,0.0
10.567,-0.179,-0.904,0.0
10.021,-0.171,-0.911,0.0
9.534,-0.164,-0.917,0.0
9.049,-0.157,-0.92,0.0
8.708,-0.152,-0.932,0.0
8.317,-0.147,-0.935,0.0
10.72,-0.188,-0.902,0.0
10.183,-0.18,-0.911,0.0
9.674,-0.172,-0.917,0.0
9.138,-0.164,-0.916,0.0
8.771,-0.159,-0.926,0.0
8.436,-0.154,-0.935,0.0
10.892,-0.198,-0.9,0.0
10.349,-0.19,-0.91,0.0
9.78,-0.18,-0.912,0.0
9.363,-0.174,-0.924,0.0
8.912,-0.167,-0.927,0.0
8.531,-0.161,-0.933,0.0
11.057,-0.207,-0.897,0.0
10.499,-0.198,-0.907,0.0
9.97,-0.19,-0.914,0.0
9.479,-0.182,-0.921,0.0
9.051,-0.174,-0.927,0.0
8.649,-0.168,-0.932,0.0
11.252,-0.217,-0.895,0.0
10.645,-0.207,-0.903,0.0
10.126,-0.198,-0.913,0.0
9.606,-0.189,-0.918,0.0
9.172,-0.182,-0.925,0.0
8.751,-0.174,-0.929,0.0
11.417,-0.226,-0.89,0.0
10.816,-0.216,-0.9,0.0
10.275,-0.206,-0.91,0.0
9.778,-0.197,-0.918,0.0
9.333,-0.19,-0.926,0.0
8.875,-0.181,-0.928,0.0
11.633,-0.236,-0.888,0.0
11.002,-0.225,-0.898,0.0
10.442,-0.215,-0.908,0.0
9.918,-0.205,-0.916,0.0
9.481,-0.197,-0.925,0.0
8.985,-0.188,-0.925,0.0
11.848,-0.246,-0.885,0.0
11.207,-0.234,-0.896,0.0
10.589,-0.222,-0.903,0.0
10.091,-0.213,-0.915,0.0
9.588,-0.203,-0.92,0.0
9.159,-0.195,-0.927,0.0
11.969,-0.254,-0.875,0.0
11.417,-0.243,-0.894,0.0
10.789,-0.231,-0.902,0.0
10.253,-0.22,-0.912,0.0
9.755,-0.211,-0.919,0.0
9.31,-0.202,-0.927,0.0
12.22,-0.264,-0.872,0.0
11.597,-0.251,-0.889,0.0
10.974,-0.239,-0.899,0.0
10.43,-0.228,-0.91,0.0
9.914,-0.218,-0.917,0.0
9.467,-0.209,-0.926,0.0
12.518,-0.275,-0.872,0.0
11.865,-0.261,-0.889,0.0
11.211,-0.248,-0.899,0.0
10.572,-0.235,-0.904,0.0
10.091,-0.225,-0.916,0.0
9.573,-0.214,-0.92,0.0
12.843,-0.286,-0.873,0.0
11.994,-0.268,-0.878,0.0
11.412,-0.256,-0.895,0.0
10.792,-0.243,-0.904,0.0
10.265,-0.232,-0.914,0.0
9.762,-0.221,-0.921,0.0
13.084,-0.295,-0.866,0.0
12.218,-0.276,-0.873,0.0
11.634,-0.264,-0.892,0.0
11.001,-0.25,-0.902,0.0
10.455,-0.239,-0.912,0.0
9.919,-0.227,-0.918,0.0
13.426,-0.306,-0.865,0.0
12.511,-0.286,-0.871,0.0
11.833,-0.271,-0.886,0.0
11.21,-0.258,-0.899,0.0
10.644,-0.245,-0.91,0.0
10.093,-0.233,-0.916,0.0
13.779,-0.317,-0.863,0.0
12.802,-0.295,-0.869,0.0
12.05,-0.278,-0.881,0.0
11.4,-0.264,-0.894,0.0
10.83,-0.252,-0.906,0.0
10.276,-0.239,-0.914,0.0
14.051,-0.325,-0.854,0.0
13.088,-0.304,-0.864,0.0
12.295,-0.286,-0.876,0.0
11.625,-0.271,-0.89,0.0
11.043,-0.258,-0.903,0.0
10.482,-0.246,-0.913,0.0
14.409,-0.336,-0.85,0.0
13.404,-0.313,-0.86,0.0
12.557,-0.294,-0.872,0.0
11.891,-0.279,-0.889,0.0
11.243,-0.264,-0.899,0.0
10.673,-0.251,-0.909,0.0
14.864,-0.348,-0.849,0.0
13.831,-0.324,-0.862,0.0
12.928,-0.303,-0.873,0.0
12.067,-0.284,-0.879,0.0
11.467,-0.27,-0.896,0.0
10.871,-0.256,-0.906,0.0
15.246,-0.358,-0.843,0.0
14.167,-0.333,-0.857,0.0
13.249,-0.312,-0.87,0.0
12.349,-0.291,-0.877,0.0
11.689,-0.276,-0.891,0.0
11.098,-0.262,-0.904,0.0
15.615,-0.367,-0.834,0.0
14.478,-0.34,-0.849,0.0
13.507,-0.318,-0.862,0.0
12.676,-0.299,-0.876,0.0
11.911,-0.281,-0.886,0.0
11.292,-0.267,-0.899,0.0
16.159,-0.379,-0.833,0.0
14.954,-0.351,-0.848,0.0
13.888,-0.326,-0.86,0.0
12.894,-0.303,-0.867,0.0
12.125,-0.285,-0.878,0.0
11.558,-0.272,-0.897,0.0
16.617,-0.389,-0.825,0.0
15.346,-0.359,-0.841,0.0
14.269,-0.334,-0.856,0.0
13.291,-0.311,-0.868,0.0
12.451,-0.292,-0.878,0.0
11.796,-0.277,-0.893,0.0
17.259,-0.402,-0.823,0.0
15.746,-0.367,-0.833,0.0
14.687,-0.343,-0.853,0.0
13.67,-0.319,-0.866,0.0
12.768,-0.298,-0.875,0.0
11.955,-0.279,-0.882,0.0
17.778,-0.412,-0.814,1.0
16.376,-0.379,-0.834,0.0
15.072,-0.349,-0.846,0.0
13.977,-0.324,-0.859,0.0
13.118,-0.304,-0.874,0.0
12.277,-0.284,-0.882,0.0
18.169,-0.418,-0.797,0.0
16.866,-0.388,-0.827,0.0
15.458,-0.355,-0.838,0.0
14.376,-0.33,-0.855,0.0
13.396,-0.308,-0.867,0.0
12.537,-0.288,-0.876,0.0
19.175,-0.437,-0.804,0.0
17.571,-0.4,-0.828,0.0
15.946,-0.363,-0.834,0.0
14.784,-0.336,-0.851,0.0
13.839,-0.315,-0.868,0.0
12.863,-0.292,-0.874,0.0
19.772,-0.446,-0.79,1.0
17.846,-0.402,-0.806,1.0
16.486,-0.371,-0.83,0.0
15.251,-0.343,-0.848,0.0
14.173,-0.318,-0.861,0.0
13.165,-0.295,-0.868,0.0
20.234,-0.451,-0.769,1.0
21.741,-0.484,-0.938,0.0
17.132,-0.38,-0.828,0.0
15.638,-0.347,-0.838,0.0
14.525,-0.321,-0.854,0.0
13.591,-0.3,-0.87,0.0
21.345,-0.468,-0.769,1.0
19.401,-0.425,-0.799,0.0
17.735,-0.388,-0.822,0.0
16.154,-0.352,-0.834,0.0
15.015,-0.327,-0.853,0.0
13.944,-0.303,-0.865,0.0
21.685,-0.468,-0.739,7.0
19.905,-0.428,-0.781,0.0
18.119,-0.389,-0.804,0.0
16.733,-0.359,-0.831,0.0
15.427,-0.33,-0.846,0.0
14.263,-0.304,-0.856,0.0
21.713,-0.46,-0.696,11.0
20.808,-0.439,-0.775,0.0
21.723,-0.457,-0.921,0.0
17.255,-0.362,-0.823,0.0
15.896,-0.333,-0.84,0.0
14.755,-0.308,-0.856,0.0
21.72,-0.45,-0.654,151.0
21.61,-0.447,-0.762,4.0
19.654,-0.405,-0.795,0.0
17.904,-0.368,-0.818,0.0
16.473,-0.337,-0.838,0.0
15.135,-0.309,-0.848,0.0
21.699,-0.439,-0.61,156.0
21.697,-0.438,-0.722,6.0
20.267,-0.407,-0.779,0.0
18.464,-0.37,-0.807,0.0
16.923,-0.338,-0.827,0.0
15.597,-0.31,-0.843,0.0
21.73,-0.428,-0.568,152.0
21.726,-0.427,-0.68,6.0
21.077,-0.412,-0.769,0.0
19.144,-0.373,-0.799,0.0
17.498,-0.339,-0.82,0.0
16.108,-0.311,-0.839,0.0
21.747,-0.417,-0.525,1.0
21.732,-0.414,-0.637,150.0
21.665,-0.411,-0.747,6.0
19.814,-0.374,-0.788,0.0
18.065,-0.34,-0.811,0.0
16.717,-0.313,-0.837,0.0
28.896,-0.536,-0.642,1.0
21.722,-0.401,-0.594,7.0
21.735,-0.399,-0.707,3.0
20.45,-0.374,-0.773,0.0
18.803,-0.342,-0.808,0.0
17.116,-0.309,-0.824,0.0
30.31,-0.543,-0.613,0.0
26.167,-0.466,-0.665,0.0
23.33,-0.413,-0.713,0.0
21.404,-0.377,-0.767,1.0
19.505,-0.342,-0.8,0.0
17.593,-0.306,-0.812,0.0
31.266,-0.539,-0.571,0.0
27.617,-0.473,-0.647,0.0
24.685,-0.42,-0.706,0.0
21.829,-0.369,-0.739,2.0
20.079,-0.337,-0.783,0.0
18.381,-0.307,-0.812,0.0
33.598,-0.556,-0.548,0.0
29.514,-0.484,-0.633,0.0
25.711,-0.419,-0.685,0.0
22.876,-0.37,-0.729,0.0
20.745,-0.333,-0.769,0.0
19.112,-0.305,-0.807,0.0
35.319,-0.558,-0.507,0.0
30.32,-0.475,-0.592,0.0
0.0,0.0,0.0,0.0
24.197,-0.373,-0.725,0.0
21.57,-0.33,-0.757,0.0
19.645,-0.298,-0.792,1.0
38.689,-0.58,-0.48,0.0
32.264,-0.48,-0.567,0.0
0.0,0.0,0.0,0.0
25.085,-0.366,-0.702,0.0
22.473,-0.325,-0.745,1.0
19.837,-0.284,-0.76,3.0
0.0,0.0,0.0,0.0
0.0,0.0,0.0,0.0
29.668,-0.412,-0.617,0.0
26.069,-0.358,-0.679,0.0
23.243,-0.316,-0.726,0.0
20.119,-0.271,-0.732,0.0
0.0,0.0,0.0,0.0
37.509,-0.493,-0.513,0.0
0.0,0.0,0.0,0.0
27.555,-0.355,-0.665,0.0
24.546,-0.312,-0.719,0.0
21.9,-0.275,-0.755,0.0
0.0,0.0,0.0,0.0
39.827,-0.488,-0.469,0.0
0.0,0.0,0.0,0.0
28.872,-0.345,-0.642,0.0
25.439,-0.3,-0.697,0.0
22.622,-0.263,-0.737,1.0
0.0,0.0,0.0,0.0
0.0,0.0,0.0,0.0
34.941,-0.39,-0.526,0.0
0.0,0.0,0.0,0.0
26.387,-0.286,-0.673,0.0
23.655,-0.252,-0.726,0.0
0.0,0.0,0.0,0.0
0.0,0.0,0.0,0.0
19.806,-0.201,-0.261,0.0
19.77,-0.198,-0.365,3.0
19.777,-0.194,-0.467,1.0
24.623,-0.238,-0.71,0.0
0.0,0.0,0.0,0.0
19.798,-0.184,-0.121,2.0
19.766,-0.181,-0.223,9.0
19.754,-0.177,-0.328,8.0
19.757,-0.174,-0.43,13.0
19.754,-0.17,-0.532,12.0
102.344,-0.865,0.093,1.0
19.763,-0.163,-0.084,9.0
19.743,-0.16,-0.186,13.0
19.729,-0.156,-0.29,15.0
19.731,-0.153,-0.393,16.0
19.748,-0.149,-0.496,20.0
19.75,-0.145,0.054,0.0
19.783,-0.142,-0.048,7.0
19.732,-0.138,-0.15,15.0
19.722,-0.135,-0.254,17.0
19.738,-0.131,-0.357,17.0
19.734,-0.127,-0.46,17.0
19.767,-0.124,0.09,6.0
19.72,-0.12,-0.012,10.0
19.711,-0.116,-0.114,16.0
19.714,-0.112,-0.218,16.0
19.743,-0.109,-0.321,15.0
19.74,-0.105,-0.424,17.0
19.721,-0.101,0.126,13.0
19.713,-0.097,0.023,12.0
19.71,-0.093,-0.078,10.0
19.707,-0.089,-0.183,16.0
19.739,-0.086,-0.285,15.0
19.761,-0.082,-0.388,14.0
19.7,-0.077,0.161,15.0
19.697,-0.074,0.059,13.0
19.712,-0.07,-0.043,16.0
19.715,-0.066,-0.147,16.0
19.745,-0.062,-0.25,15.0
19.772,-0.058,-0.353,6.0
19.667,-0.053,0.196,15.0
19.704,-0.049,0.094,16.0
19.698,-0.045,-0.008,16.0
19.726,-0.041,-0.113,13.0
19.751,-0.037,-0.215,13.0
19.761,-0.033,-0.319,0.0
19.643,-0.029,0.23,15.0
19.679,-0.025,0.128,9.0
19.703,-0.021,0.026,14.0
19.736,-0.017,-0.078,8.0
19.76,-0.012,-0.181,1.0
0.0,0.0,0.0,0.0
19.633,-0.004,0.264,14.0
19.729,0.0,0.162,6.0
19.793,0.003,0.06,3.0
19.741,0.008,-0.044,9.0
19.764,0.012,-0.148,0.0
19.789,0.016,-0.251,1.0
19.624,0.02,0.297,16.0
19.644,0.025,0.195,15.0
19.735,0.029,0.093,15.0
19.734,0.034,-0.011,14.0
19.752,0.038,-0.114,11.0
19.768,0.043,-0.217,21.0
19.615,0.047,0.331,14.0
19.624,0.051,0.229,15.0
19.715,0.056,0.126,14.0
19.755,0.06,0.022,39.0
19.767,0.065,-0.081,57.0
19.769,0.069,-0.184,56.0
19.61,0.073,0.363,18.0
19.608,0.078,0.261,15.0
19.653,0.082,0.158,12.0
19.676,0.087,0.054,13.0
19.74,0.092,-0.049,6.0
19.746,0.096,-0.152,0.0
19.613,0.1,0.395,27.0
19.615,0.105,0.292,14.0
19.656,0.11,0.19,15.0
19.639,0.114,0.085,13.0
19.639,0.119,-0.017,13.0
19.671,0.124,-0.12,10.0
19.601,0.128,0.427,15.0
19.608,0.132,0.324,10.0
19.645,0.137,0.221,15.0
19.646,0.142,0.117,14.0
19.647,0.147,0.014,19.0
19.647,0.152,-0.088,12.0
19.611,0.156,0.458,11.0
19.637,0.161,0.356,9.0
19.643,0.166,0.252,10.0
19.655,0.171,0.147,12.0
19.649,0.175,0.044,13.0
19.647,0.18,-0.058,12.0
19.661,0.185,0.49,10.0
19.678,0.19,0.386,9.0
19.697,0.195,0.283,8.0
19.707,0.2,0.178,11.0
19.683,0.205,0.074,12.0
19.662,0.209,-0.028,13.0
19.703,0.215,0.521,10.0
19.715,0.22,0.417,11.0
19.721,0.225,0.314,10.0
19.753,0.23,0.208,24.0
19.771,0.236,0.105,20.0
19.692,0.239,0.0,4.0
19.656,0.244,0.549,14.0
19.682,0.249,0.446,10.0
19.69,0.254,0.342,12.0
19.723,0.26,0.237,14.0
19.761,0.265,0.134,13.0
0.0,0.0,0.0,0.0
19.661,0.274,0.578,14.0
19.675,0.28,0.475,12.0
19.693,0.285,0.371,13.0
19.726,0.291,0.266,6.0
160.724,2.413,1.324,8.0
0.0,0.0,0.0,0.0
19.681,0.306,0.607,11.0
19.701,0.311,0.504,7.0
19.718,0.316,0.4,3.0
55.191,0.9,0.823,14.0
55.198,0.915,0.532,44.0
55.175,0.929,0.24,50.0
55.19,0.945,1.782,63.0
55.18,0.959,1.49,76.0
55.169,0.973,1.197,74.0
55.164,0.988,0.9,73.0
55.163,1.002,0.608,70.0
55.16,1.017,0.317,53.0
55.217,1.034,1.859,20.0
55.179,1.048,1.566,5.0
55.225,1.064,1.275,0.0
179.379,3.505,3.175,22.0
162.865,3.227,2.021,27.0
113.824,2.286,0.81,13.0
135.204,2.755,4.738,12.0
135.011,2.788,4.016,22.0
0.0,0.0,0.0,0.0
179.291,3.799,3.414,34.0
128.822,2.765,1.77,13.0
115.802,2.515,0.976,1.0
121.071,2.668,4.404,19.0
135.301,3.019,4.203,8.0
138.784,3.134,3.574,58.0
179.128,4.092,3.643,37.0
128.715,2.976,1.935,25.0
70.987,1.66,0.689,10.0
121.115,2.871,4.561,21.0
115.135,2.761,3.724,6.0
99.684,2.418,2.694,39.0
99.673,2.444,2.153,23.0
121.283,3.007,1.975,4.0
70.89,1.777,0.778,28.0
45.502,1.155,1.77,25.0
0.0,0.0,0.0,0.0
0.0,0.0,0.0,0.0
45.502,1.192,1.039,4.0
0.0,0.0,0.0,0.0
0.0,0.0,0.0,0.0
41.914,1.135,1.682,134.0
41.924,1.147,1.458,150.0
0.0,0.0,0.0,0.0
0.0,0.0,0.0,0.0
41.876,1.18,0.782,40.0
41.916,1.193,0.56,61.0
40.119,1.155,1.657,144.0
40.12,1.166,1.442,138.0
40.113,1.177,1.228,150.0
40.119,1.188,1.01,150.0
40.122,1.2,0.796,150.0
40.119,1.21,0.581,150.0
40.125,1.224,1.703,108.0
40.12,1.236,1.488,149.0
40.113,1.246,1.273,142.0
40.11,1.257,1.054,150.0
40.127,1.268,0.84,150.0
40.115,1.279,0.625,150.0
40.133,1.294,1.747,110.0
40.118,1.304,1.532,135.0
40.108,1.315,1.316,63.0
40.113,1.326,1.097,10.0
40.107,1.337,0.882,2.0
71.307,2.398,1.188,3.0
120.074,4.083,5.358,20.0
120.256,4.123,4.721,20.0
120.745,4.172,4.091,20.0
121.215,4.223,3.445,4.0
163.091,5.728,3.761,3.0
162.252,5.745,2.871,47.0
120.173,4.3,5.487,16.0
120.254,4.335,4.844,20.0
120.619,4.38,4.209,15.0
43.318,1.585,1.274,1.0
43.632,1.609,1.05,113.0
43.353,1.611,0.81,80.0
134.352,5.045,6.268,24.0
120.267,4.55,4.964,6.0
178.593,6.807,6.411,9.0
40.548,1.556,1.233,2.0
40.431,1.563,1.011,148.0
40.391,1.572,0.793,143.0
134.28,5.282,6.394,9.0
179.166,7.096,7.565,21.0
178.823,7.13,6.584,14.0
162.78,6.537,5.1,11.0
40.339,1.631,1.046,1.0
100.504,4.094,2.067,38.0
0.0,0.0,0.0,0.0
179.203,7.421,7.73,15.0
178.799,7.452,6.747,14.0
23.605,0.99,0.761,0.0
45.209,1.909,1.213,11.0
23.621,1.004,0.506,33.0
23.61,1.013,1.166,44.0
23.603,1.02,1.039,44.0
23.603,1.026,0.911,40.0
23.586,1.032,0.78,43.0
23.579,1.038,0.653,64.0
23.594,1.046,0.525,151.0
23.579,1.055,1.185,75.0
23.577,1.061,1.057,73.0
23.56,1.067,0.928,66.0
23.577,1.074,0.799,70.0
23.58,1.081,0.672,71.0
23.581,1.087,0.544,72.0
23.576,1.097,1.204,68.0
23.572,1.104,1.076,51.0
23.595,1.111,0.949,40.0
23.597,1.117,0.818,40.0
23.615,1.125,0.691,40.0
23.614,1.132,0.563,41.0
23.592,1.141,1.222,11.0
23.602,1.148,1.095,3.0
23.609,1.155,0.967,0.0
178.889,8.799,6.338,15.0
163.466,8.086,4.905,18.0
45.184,2.248,1.11,1.0
0.0,0.0,0.0,0.0
0.0,0.0,0.0,0.0
179.773,9.121,7.492,18.0
180.443,9.205,6.521,19.0
163.447,8.384,5.019,11.0
163.358,8.424,4.127,3.0
0.0,0.0,0.0,0.0
0.0,0.0,0.0,0.0
180.231,9.472,7.631,10.0
180.628,9.543,6.646,20.0
162.91,8.65,5.106,9.0
45.211,2.413,1.171,42.0
0.0,0.0,0.0,0.0
0.0,0.0,0.0,0.0
0.0,0.0,0.0,0.0
180.661,9.871,6.759,20.0
162.713,8.933,5.199,10.0
45.196,2.493,1.198,3.0
0.0,0.0,0.0,0.0
0.0,0.0,0.0,0.0
204.152,11.469,8.891,8.0
198.731,11.219,7.55,18.0
162.627,9.223,5.289,14.0
45.178,2.575,1.223,7.0
0.0,0.0,0.0,0.0
203.132,11.729,10.071,6.0
203.52,11.806,8.975,10.0
199.702,11.639,7.694,6.0
162.517,9.516,5.373,6.0
45.206,2.659,1.247,54.0
0.0,0.0,0.0,0.0
0.0,0.0,0.0,0.0
0.0,0.0,0.0,0.0
197.566,11.87,7.71,14.0
162.692,9.819,5.459,6.0
45.174,2.738,1.268,8.0
112.212,6.857,6.29,5.0
204.189,12.529,10.325,10.0
198.741,12.246,8.957,16.0
197.757,12.237,7.808,9.0
0.0,0.0,0.0,0.0
45.19,2.82,1.288,7.0
112.405,7.072,6.351,1.0
0.0,0.0,0.0,0.0
199.971,12.683,9.097,6.0
100.711,6.414,4.018,6.0
100.282,6.413,3.451,9.0
45.203,2.903,1.307,6.0
99.957,6.471,5.688,32.0
99.949,6.496,5.136,31.0
99.956,6.521,4.586,36.0
99.959,6.547,4.027,39.0
99.978,6.575,3.477,40.0
99.962,6.601,2.927,29.0
99.954,6.651,5.724,32.0
99.953,6.676,5.172,35.0
99.957,6.701,4.621,37.0
99.953,6.726,4.06,38.0
99.973,6.754,3.51,36.0
99.96,6.778,2.959,27.0
45.545,3.112,2.622,95.0
99.959,6.856,5.204,34.0
99.951,6.88,4.651,34.0
99.968,6.905,4.09,35.0
99.971,6.932,3.539,35.0
41.99,2.922,1.255,24.0
45.551,3.194,2.636,132.0
99.971,7.035,5.231,34.0
99.954,7.059,4.678,29.0
99.976,7.086,4.116,28.0
45.458,3.233,1.62,4.0
45.476,3.246,1.37,5.0
45.458,3.269,2.641,150.0
45.468,3.281,2.39,150.0
45.459,3.291,2.137,150.0
45.464,3.302,1.881,150.0
45.479,3.314,1.631,150.0
45.482,3.326,1.379,108.0
43.678,3.217,2.546,11.0
43.66,3.227,2.303,55.0
43.681,3.238,2.061,96.0
43.678,3.249,1.815,137.0
43.677,3.259,1.573,150.0
43.683,3.271,1.332,150.0
43.675,3.294,2.553,150.0
43.672,3.304,2.31,137.0
43.677,3.315,2.068,138.0
43.678,3.325,1.821,150.0
43.681,3.336,1.579,150.0
43.69,3.347,1.337,124.0
41.89,3.232,2.453,107.0
41.881,3.241,2.22,112.0
41.899,3.252,1.988,89.0
41.887,3.261,1.75,150.0
41.885,3.271,1.517,134.0
41.89,3.281,1.285,110.0
41.883,3.304,2.456,118.0
41.888,3.314,2.223,116.0
41.884,3.323,1.99,74.0
41.885,3.333,1.752,150.0
0.0,0.0,0.0,0.0
0.0,0.0,0.0,0.0
40.09,3.231,2.352,120.0
40.091,3.24,2.129,115.0
40.095,3.25,1.905,116.0
40.086,3.258,1.678,150.0
40.081,3.267,1.454,150.0
40.096,3.278,1.232,134.0
40.094,3.3,2.352,133.0
40.088,3.308,2.128,117.0
40.086,3.317,1.904,135.0
40.084,3.326,1.677,150.0
40.092,3.335,1.454,146.0
40.092,3.344,1.23,128.0
40.086,3.366,2.35,133.0
40.096,3.376,2.126,113.0
40.086,3.384,1.902,109.0
40.09,3.393,1.674,135.0
40.102,3.403,1.451,117.0
40.089,3.411,1.227,97.0
87.075,7.457,5.099,31.0
87.078,7.476,4.612,62.0
87.076,7.494,4.124,141.0
87.094,7.515,3.629,121.0
87.083,7.532,3.143,106.0
74.488,6.46,2.272,9.0
87.113,7.604,5.09,8.0
87.065,7.617,4.6,6.0
87.094,7.638,4.113,49.0
87.068,7.655,3.616,4.0
0.0,0.0,0.0,0.0
73.155,6.462,2.221,9.0
82.979,7.377,4.835,5.0
82.943,7.391,4.368,6.0
82.929,7.406,3.903,8.0
82.963,7.426,3.431,10.0
82.957,7.443,2.966,10.0
71.944,6.471,2.17,9.0
82.916,7.504,4.816,86.0
82.908,7.52,4.349,52.0
82.917,7.537,3.884,57.0
82.905,7.553,3.41,41.0
82.917,7.572,2.946,16.0
70.708,6.472,2.116,11.0
82.938,7.639,4.797,5.0
82.919,7.652,4.33,15.0
83.015,7.678,3.868,7.0
82.944,7.687,3.39,3.0
69.424,6.448,2.448,1.0
69.569,6.476,2.064,8.0
86.078,8.061,4.956,11.0
82.895,7.778,4.305,3.0
82.933,7.797,3.841,4.0
85.791,8.082,3.482,11.0
68.424,6.46,2.393,3.0
68.457,6.477,2.01,6.0
84.551,8.047,4.842,11.0
84.611,8.068,4.368,4.0
82.945,7.924,3.815,12.0
84.426,8.082,3.399,10.0
67.444,6.469,2.337,7.0
67.356,6.474,1.955,8.0
83.043,8.029,4.726,8.0
83.022,8.042,4.257,7.0
82.867,8.041,3.782,8.0
83.138,8.082,3.317,4.0
66.385,6.467,2.275,6.0
66.326,6.474,1.9,8.0
75.105,7.373,4.246,3.0
75.146,7.39,3.823,5.0
75.129,7.402,3.399,6.0
75.091,7.411,2.966,2.0
65.509,6.477,2.218,5.0
65.396,6.478,1.847,9.0
75.056,7.476,4.212,29.0
75.062,7.49,3.788,41.0
75.045,7.501,3.363,47.0
75.034,7.513,2.932,18.0
64.618,6.482,2.16,9.0
64.505,6.482,1.793,7.0
75.05,7.582,4.177,36.0
75.049,7.595,3.753,13.0
75.058,7.608,3.329,12.0
74.923,7.606,2.892,1.0
63.712,6.48,2.1,7.0
63.661,6.486,1.739,10.0
75.063,7.688,4.142,43.0
75.08,7.702,3.718,2.0
75.125,7.719,3.295,2.0
62.934,6.476,2.398,3.0
62.914,6.485,2.042,11.0
62.87,6.491,1.685,12.0
70.93,7.361,3.878,3.0
70.935,7.372,3.476,7.0
70.932,7.383,3.073,4.0
62.067,6.47,2.332,7.0
62.076,6.481,1.981,10.0
62.106,6.495,1.632,12.0
70.883,7.45,3.836,19.0
70.902,7.463,3.435,21.0
70.893,7.473,3.032,28.0
61.301,6.471,2.269,7.0
61.335,6.484,1.923,9.0
61.315,6.493,1.576,9.0
70.886,7.543,3.794,56.0
70.886,7.553,3.392,46.0
70.883,7.563,2.99,33.0
60.627,6.478,2.207,2.0
60.638,6.488,1.865,5.0
60.613,6.495,1.521,5.0
70.92,7.636,3.753,8.0
70.951,7.649,3.351,6.0
70.959,7.66,2.949,6.0
59.93,6.478,2.144,5.0
59.924,6.486,1.804,7.0
59.912,6.494,1.465,9.0
71.018,7.734,3.712,1.0
0.0,0.0,0.0,0.0
71.142,7.766,2.91,0.0
59.309,6.483,2.083,4.0
59.283,6.489,1.747,6.0
59.268,6.496,1.409,5.0
73.44,8.085,3.79,10.0
73.4,8.091,3.369,11.0
73.024,8.059,2.937,3.0
58.726,6.489,2.023,10.0
58.724,6.496,1.69,10.0
58.695,6.502,1.355,7.0
72.531,8.069,3.692,8.0
72.678,8.095,3.285,10.0
58.175,6.486,2.299,2.0
58.135,6.49,1.961,10.0
58.118,6.495,1.631,11.0
58.143,6.506,1.301,11.0
71.688,8.056,3.596,2.0
71.92,8.091,3.198,5.0
57.566,6.483,2.232,3.0
57.583,6.492,1.899,8.0
57.593,6.5,1.573,8.0
57.578,6.507,1.245,10.0
70.969,8.053,3.507,7.0
70.919,8.055,3.1,4.0
57.103,6.492,2.17,2.0
57.063,6.495,1.838,8.0
57.047,6.5,1.513,9.0
57.063,6.509,1.189,10.0
70.572,8.082,3.432,10.0
70.341,8.063,3.018,6.0
56.511,6.484,2.103,7.0
56.531,6.493,1.776,15.0
56.569,6.504,1.455,11.0
56.578,6.512,1.134,12.0
70.139,8.103,3.353,8.0
69.894,8.082,2.943,3.0
56.072,6.49,2.041,8.0
56.08,6.497,1.716,11.0
56.089,6.504,1.397,14.0
56.097,6.512,1.077,13.0
63.239,7.368,2.97,2.0
55.603,6.483,2.295,4.0
55.59,6.487,1.977,11.0
55.65,6.5,1.656,11.0
55.642,6.505,1.338,13.0
55.646,6.512,1.022,13.0
63.161,7.418,2.912,6.0
55.192,6.487,2.229,7.0
55.178,6.49,1.914,9.0
55.194,6.498,1.594,10.0
55.189,6.503,1.279,11.0
55.216,6.512,0.966,12.0
63.133,7.47,2.856,16.0
54.745,6.482,2.163,9.0
54.809,6.495,1.853,11.0
54.791,6.498,1.534,11.0
54.789,6.503,1.222,12.0
54.783,6.508,0.91,12.0
63.116,7.522,2.798,87.0
54.433,6.492,2.102,10.0
54.424,6.495,1.791,13.0
54.432,6.501,1.475,11.0
54.436,6.506,1.164,13.0
54.441,6.512,0.854,12.0
63.099,7.571,2.739,18.0
54.047,6.489,2.038,10.0
54.036,6.491,1.728,12.0
54.072,6.5,1.415,12.0
54.097,6.508,1.107,15.0
54.084,6.512,0.798,11.0
53.664,6.48,2.279,1.0
53.708,6.49,1.973,11.0
53.751,6.499,1.667,13.0
53.763,6.504,1.355,12.0
53.765,6.509,1.048,12.0
53.796,6.518,0.741,14.0
53.394,6.487,2.215,5.0
53.403,6.491,1.91,7.0
53.434,6.499,1.605,12.0
53.428,6.502,1.294,12.0
53.458,6.51,0.99,12.0
53.469,6.516,0.685,12.0
53.103,6.488,2.151,4.0
53.147,6.496,1.849,11.0
53.172,6.503,1.545,13.0
53.161,6.505,1.236,13.0
53.175,6.511,0.932,12.0
53.203,6.519,0.629,13.0
52.86,6.492,2.089,10.0
52.869,6.496,1.786,12.0
52.906,6.504,1.485,12.0
52.922,6.509,1.177,13.0
52.936,6.515,0.874,13.0
52.949,6.52,0.572,11.0
52.616,6.494,2.025,9.0
52.657,6.501,1.725,13.0
52.649,6.503,1.424,12.0
52.675,6.509,1.117,14.0
52.711,6.517,0.816,13.0
52.715,6.522,0.515,10.0
52.381,6.494,1.962,7.0
52.412,6.5,1.663,11.0
52.444,6.507,1.363,12.0
52.471,6.513,1.058,14.0
52.506,6.52,0.759,12.0
52.521,6.525,0.458,11.0
52.205,6.499,1.901,5.0
52.196,6.5,1.601,9.0
52.255,6.509,1.304,11.0
52.291,6.516,1.0,12.0
52.302,6.52,0.701,12.0
52.312,6.525,0.402,12.0
52.014,6.499,1.839,8.0
52.039,6.504,1.542,12.0
52.055,6.508,1.244,13.0
52.12,6.518,0.941,9.0
52.124,6.522,0.643,14.0
52.156,6.529,0.345,11.0
51.872,6.504,1.778,12.0
51.907,6.509,1.482,14.0
51.939,6.515,1.185,12.0
51.951,6.519,0.882,10.0
51.98,6.524,0.585,10.0
17.991,2.259,0.099,2.0
51.705,6.502,1.716,12.0
51.758,6.51,1.421,12.0
51.795,6.516,1.125,15.0
51.81,6.52,0.823,11.0
51.823,6.523,0.526,9.0
17.985,2.264,0.079,11.0
51.596,6.506,1.655,12.0
51.644,6.513,1.36,11.0
51.674,6.518,1.065,13.0
51.698,6.522,0.764,12.0
51.731,6.528,0.468,8.0
17.993,2.271,0.059,17.0
51.518,6.511,1.596,13.0
51.537,6.514,1.301,11.0
51.558,6.517,1.006,13.0
51.6,6.523,0.706,13.0
17.977,2.273,0.143,3.0
18.009,2.278,0.039,16.0
51.412,6.51,1.536,11.0
51.422,6.511,1.241,13.0
51.481,6.519,0.947,11.0
51.526,6.526,0.648,13.0
17.971,2.276,0.123,9.0
18.0,2.28,0.02,14.0
51.347,6.511,1.477,10.0
51.392,6.517,1.183,10.0
51.425,6.521,0.888,12.0
51.471,6.528,0.589,11.0
17.976,2.28,0.102,15.0
18.01,2.285,0.0,7.0
51.289,6.512,1.417,9.0
51.313,6.514,1.123,10.0
51.385,6.523,0.83,13.0
17.962,2.28,0.185,1.0
17.983,2.283,0.082,17.0
18.016,2.288,-0.02,2.0
51.261,6.513,1.358,9.0
51.321,6.52,1.065,13.0
51.345,6.523,0.771,13.0
17.958,2.281,0.165,5.0
17.991,2.286,0.062,15.0
0.0,0.0,0.0,0.0
51.235,6.513,1.3,10.0
51.319,6.523,1.007,13.0
51.345,6.525,0.713,12.0
17.959,2.282,0.144,8.0
17.985,2.285,0.041,13.0
35.727,4.541,-0.121,12.0
51.247,6.515,1.241,10.0
51.297,6.52,0.948,11.0
51.375,6.529,0.655,12.0
17.954,2.281,0.124,13.0
17.996,2.287,0.021,10.0
35.262,4.481,-0.16,16.0
51.29,6.518,1.183,10.0
51.355,6.525,0.89,12.0
51.401,6.53,0.597,8.0
17.961,2.281,0.103,15.0
18.009,2.287,0.0,6.0
34.991,4.444,-0.199,11.0
51.351,6.521,1.126,11.0
51.381,6.524,0.831,12.0
17.973,2.281,0.187,1.0
17.962,2.279,0.083,16.0
18.022,2.287,-0.019,2.0
16.559,2.101,-0.113,17.0
51.402,6.521,1.068,11.0
51.463,6.527,0.775,13.0
17.977,2.279,0.167,2.0
17.967,2.277,0.062,16.0
18.046,2.287,-0.04,1.0
32.542,4.124,-0.259,6.0
51.488,6.523,1.011,12.0
51.546,6.528,0.716,12.0
17.971,2.275,0.147,3.0
17.985,2.276,0.042,15.0
35.788,4.529,-0.121,12.0
32.539,4.117,-0.296,4.0
51.58,6.523,0.954,10.0
51.63,6.527,0.659,13.0
17.976,2.271,0.126,5.0
17.991,2.273,0.022,15.0
35.519,4.486,-0.16,11.0
16.536,2.088,-0.169,11.0
51.715,6.526,0.899,11.0
51.783,6.532,0.603,10.0
17.979,2.267,0.106,6.0
17.998,2.268,0.001,14.0
16.578,2.089,-0.093,11.0
30.635,3.86,-0.348,5.0
51.85,6.527,0.843,10.0
51.906,6.531,0.546,6.0
17.984,2.262,0.086,7.0
18.01,2.264,-0.018,14.0
33.157,4.167,-0.223,10.0
30.049,3.776,-0.375,8.0
52.009,6.528,0.788,9.0
52.069,6.532,0.49,8.0
17.998,2.257,0.066,7.0
18.009,2.257,-0.038,14.0
33.006,4.135,-0.259,16.0
29.037,3.637,-0.395,8.0
52.184,6.528,0.732,11.0
52.256,6.534,0.433,12.0
18.012,2.251,0.046,7.0
18.012,2.25,-0.059,14.0
32.935,4.112,-0.296,7.0
27.864,3.478,-0.41,7.0
52.394,6.53,0.675,11.0
52.469,6.536,0.376,13.0
18.017,2.243,0.026,6.0
18.022,2.242,-0.078,14.0
16.526,2.055,-0.167,7.0
26.717,3.322,-0.422,6.0
52.616,6.532,0.62,12.0
52.68,6.536,0.32,6.0
18.014,2.233,0.006,5.0
18.032,2.234,-0.098,14.0
30.906,3.828,-0.346,8.0
26.01,3.22,-0.439,3.0
52.861,6.534,0.566,11.0
52.903,6.534,0.263,2.0
18.035,2.226,-0.013,3.0
18.042,2.226,-0.118,14.0
30.003,3.699,-0.368,8.0
17.416,2.146,-0.313,11.0
53.109,6.533,0.512,11.0
46.622,5.731,0.182,5.0
36.231,4.451,-0.064,4.0
18.048,2.215,-0.137,15.0
28.903,3.546,-0.385,7.0
17.26,2.116,-0.328,16.0
53.367,6.531,0.457,10.0
46.388,5.673,0.132,12.0
36.291,4.435,-0.103,8.0
18.061,2.205,-0.156,15.0
27.862,3.4,-0.401,4.0
17.197,2.097,-0.345,16.0
53.681,6.533,0.403,11.0
45.863,5.577,0.083,20.0
0.0,0.0,0.0,0.0
18.074,2.194,-0.175,15.0
18.128,2.2,-0.279,2.0
17.141,2.079,-0.362,16.0
53.967,6.529,0.35,4.0
44.817,5.418,0.034,11.0
35.622,4.302,-0.175,12.0
18.08,2.182,-0.194,14.0
18.112,2.184,-0.298,7.0
17.096,2.06,-0.379,16.0
54.37,6.537,0.297,2.0
42.689,5.128,-0.009,16.0
34.945,4.194,-0.207,11.0
18.093,2.17,-0.212,11.0
17.948,2.15,-0.313,13.0
17.065,2.043,-0.395,16.0
51.334,6.13,0.228,4.0
38.868,4.637,-0.049,5.0
34.6,4.124,-0.241,17.0
18.102,2.155,-0.231,7.0
17.837,2.122,-0.329,15.0
17.02,2.023,-0.411,16.0
51.337,6.087,0.177,6.0
38.496,4.559,-0.086,14.0
0.0,0.0,0.0,0.0
18.124,2.142,-0.249,2.0
17.674,2.087,-0.344,16.0
16.96,2.001,-0.427,17.0
46.164,5.432,0.114,21.0
38.146,4.484,-0.122,18.0
33.351,3.916,-0.297,10.0
18.151,2.129,-0.267,1.0
17.518,2.053,-0.358,15.0
16.91,1.98,-0.442,16.0
45.38,5.297,0.069,21.0
0.0,0.0,0.0,0.0
32.799,3.82,-0.324,10.0
26.906,3.131,-0.422,7.0
17.433,2.026,-0.372,15.0
16.927,1.966,-0.458,16.0
44.202,5.117,0.025,19.0
36.037,4.167,-0.184,12.0
31.531,3.641,-0.341,9.0
26.138,3.015,-0.434,3.0
17.413,2.006,-0.388,15.0
16.945,1.951,-0.474,15.0
37.19,4.267,-0.013,16.0
36.336,4.164,-0.219,12.0
30.713,3.515,-0.36,9.0
18.174,2.078,-0.318,9.0
17.376,1.984,-0.403,17.0
16.977,1.937,-0.49,16.0
37.184,4.227,-0.045,2.0
36.242,4.115,-0.251,8.0
29.948,3.396,-0.378,8.0
18.09,2.049,-0.333,10.0
17.399,1.968,-0.419,16.0
17.019,1.923,-0.507,15.0
39.488,4.445,-0.083,13.0
35.098,3.946,-0.273,8.0
28.846,3.239,-0.389,8.0
18.001,2.018,-0.347,11.0
17.402,1.949,-0.434,14.0
17.043,1.906,-0.522,16.0
39.073,4.354,-0.116,15.0
34.304,3.817,-0.297,11.0
28.268,3.142,-0.405,7.0
17.934,1.99,-0.36,9.0
17.471,1.936,-0.451,17.0
17.065,1.889,-0.537,14.0
38.282,4.221,-0.145,15.0
33.071,3.641,-0.313,10.0
27.365,3.009,-0.414,7.0
17.894,1.965,-0.374,9.0
17.504,1.919,-0.465,18.0
17.08,1.871,-0.551,15.0
37.891,4.132,-0.174,21.0
31.996,3.484,-0.328,9.0
26.329,2.863,-0.419,6.0
18.05,1.96,-0.392,13.0
17.537,1.901,-0.48,17.0
17.074,1.849,-0.564,17.0
38.265,4.126,-0.206,14.0
31.133,3.351,-0.343,9.0
25.708,2.763,-0.429,6.0
18.044,1.936,-0.405,12.0
17.575,1.883,-0.495,17.0
17.088,1.829,-0.578,16.0
38.212,4.071,-0.234,14.0
30.659,3.261,-0.361,9.0
25.28,2.684,-0.441,6.0
18.084,1.917,-0.419,12.0
17.587,1.862,-0.508,18.0
17.096,1.807,-0.59,16.0
37.292,3.924,-0.255,7.0
29.982,3.15,-0.374,8.0
24.943,2.616,-0.453,8.0
18.102,1.895,-0.433,12.0
17.628,1.843,-0.521,18.0
17.108,1.785,-0.603,16.0
0.0,0.0,0.0,0.0
29.36,3.044,-0.387,8.0
24.66,2.553,-0.464,9.0
18.261,1.887,-0.449,11.0
17.635,1.819,-0.533,19.0
17.157,1.767,-0.616,15.0
34.879,3.575,-0.286,11.0
28.775,2.944,-0.398,8.0
24.324,2.484,-0.474,11.0
18.326,1.868,-0.462,15.0
17.663,1.797,-0.546,18.0
17.302,1.757,-0.632,17.0
34.238,3.46,-0.302,6.0
28.15,2.84,-0.407,7.0
23.928,2.409,-0.481,5.0
18.366,1.846,-0.475,9.0
17.696,1.775,-0.558,19.0
17.342,1.737,-0.645,13.0
33.346,3.322,-0.314,10.0
27.482,2.733,-0.414,7.0
23.623,2.344,-0.489,5.0
18.472,1.83,-0.488,10.0
17.817,1.761,-0.572,17.0
17.4,1.717,-0.657,13.0
32.504,3.19,-0.325,10.0
26.944,2.639,-0.421,7.0
23.3,2.278,-0.496,5.0
18.532,1.808,-0.501,10.0
17.941,1.747,-0.586,15.0
17.48,1.699,-0.669,16.0
31.535,3.048,-0.332,9.0
26.47,2.553,-0.428,6.0
22.987,2.212,-0.501,5.0
18.779,1.803,-0.517,18.0
18.023,1.727,-0.598,14.0
17.488,1.673,-0.679,5.0
31.15,2.963,-0.344,9.0
26.066,2.474,-0.435,6.0
22.672,2.147,-0.505,5.0
18.875,1.784,-0.529,17.0
18.021,1.699,-0.606,13.0
17.036,1.603,-0.669,0.0
31.043,2.905,-0.358,9.0
25.75,2.404,-0.441,6.0
22.414,2.088,-0.51,4.0
19.391,1.802,-0.552,6.0
18.139,1.682,-0.619,16.0
16.944,1.568,-0.673,1.0
30.581,2.813,-0.366,9.0
25.476,2.338,-0.448,6.0
22.276,2.039,-0.516,5.0
19.452,1.777,-0.562,3.0
18.299,1.667,-0.632,8.0
16.893,1.536,-0.678,1.0
29.948,2.706,-0.371,8.0
25.237,2.275,-0.454,6.0
22.202,1.996,-0.524,4.0
19.327,1.733,-0.566,5.0
17.927,1.604,-0.626,2.0
16.852,1.504,-0.683,1.0
29.776,2.642,-0.38,8.0
25.082,2.219,-0.46,6.0
21.954,1.938,-0.526,7.0
19.224,1.692,-0.57,7.0
17.861,1.568,-0.63,2.0
16.829,1.474,-0.688,1.0
29.446,2.563,-0.386,8.0
24.986,2.169,-0.467,6.0
19.7,1.706,-0.478,9.0
18.968,1.638,-0.569,10.0
17.823,1.535,-0.634,2.0
16.776,1.441,-0.691,1.0
29.236,2.495,-0.392,8.0
24.761,2.107,-0.47,5.0
19.705,1.672,-0.484,9.0
18.841,1.595,-0.57,11.0
17.728,1.496,-0.636,2.0
16.745,1.41,-0.694,1.0
28.659,2.397,-0.392,8.0
24.702,2.06,-0.476,5.0
19.696,1.638,-0.489,9.0
18.992,1.575,-0.58,12.0
17.716,1.465,-0.64,2.0
16.732,1.38,-0.698,1.0
28.958,2.372,-0.403,8.0
24.606,2.009,-0.479,5.0
19.71,1.605,-0.494,9.0
19.135,1.553,-0.588,5.0
17.594,1.424,-0.639,1.0
16.708,1.348,-0.7,1.0
28.677,2.298,-0.404,8.0
24.458,1.954,-0.481,5.0
19.71,1.57,-0.497,9.0
19.139,1.52,-0.592,3.0
17.578,1.392,-0.641,2.0
16.699,1.318,-0.702,1.0
28.571,2.24,-0.407,8.0
24.516,1.915,-0.486,5.0
19.705,1.535,-0.5,9.0
19.1,1.483,-0.593,3.0
17.597,1.362,-0.645,2.0
16.703,1.288,-0.705,1.0
28.553,2.187,-0.411,8.0
24.565,1.875,-0.49,8.0
19.707,1.499,-0.502,8.0
19.093,1.448,-0.595,3.0
17.543,1.326,-0.644,2.0
16.695,1.258,-0.706,1.0
28.486,2.13,-0.412,7.0
24.553,1.829,-0.492,5.0
19.705,1.463,-0.504,8.0
19.141,1.416,-0.598,3.0
17.538,1.293,-0.645,2.0
16.686,1.226,-0.706,1.0
28.594,2.086,-0.415,8.0
24.551,1.784,-0.492,5.0
19.755,1.43,-0.506,6.0
19.177,1.384,-0.599,3.0
17.566,1.263,-0.646,2.0
16.705,1.197,-0.707,1.0
28.463,2.024,-0.413,7.0
24.605,1.743,-0.494,5.0
19.849,1.401,-0.508,10.0
19.137,1.346,-0.598,3.0
17.563,1.23,-0.646,1.0
16.714,1.167,-0.707,1.0
28.681,1.987,-0.416,8.0
24.732,1.706,-0.495,5.0
19.722,1.355,-0.504,10.0
19.204,1.315,-0.599,3.0
17.564,1.198,-0.645,1.0
16.737,1.137,-0.707,1.0
28.784,1.94,-0.415,8.0
24.823,1.666,-0.495,5.0
19.714,1.318,-0.502,10.0
19.291,1.284,-0.6,3.0
17.665,1.171,-0.647,2.0
16.756,1.106,-0.706,1.0
29.106,1.907,-0.417,8.0
25.077,1.636,-0.497,6.0
19.727,1.281,-0.5,11.0
19.379,1.253,-0.6,3.0
17.644,1.136,-0.644,1.0
16.757,1.074,-0.704,2.0
29.263,1.861,-0.415,8.0
25.459,1.612,-0.501,6.0
19.736,1.244,-0.497,11.0
19.462,1.222,-0.599,4.0
17.757,1.11,-0.645,1.0
16.782,1.044,-0.702,1.0
29.424,1.815,-0.411,8.0
25.63,1.574,-0.499,1.0
19.728,1.206,-0.493,13.0
19.547,1.19,-0.598,6.0
17.921,1.086,-0.647,1.0
16.827,1.015,-0.7,2.0
29.669,1.774,-0.408,8.0
25.638,1.525,-0.493,1.0
19.743,1.169,-0.488,10.0
19.633,1.157,-0.596,8.0
18.005,1.056,-0.645,2.0
16.868,0.985,-0.697,2.0
30.121,1.743,-0.406,8.0
25.957,1.494,-0.493,1.0
19.743,1.131,-0.483,9.0
19.802,1.129,-0.595,5.0
18.036,1.023,-0.641,2.0
16.897,0.954,-0.693,2.0
30.678,1.716,-0.405,9.0
26.195,1.458,-0.489,1.0
19.92,1.103,-0.481,1.0
19.851,1.093,-0.59,2.0
18.132,0.993,-0.638,2.0
16.943,0.923,-0.689,2.0
30.965,1.672,-0.398,6.0
26.511,1.424,-0.486,1.0
22.834,1.22,-0.543,0.0
20.222,1.074,-0.594,3.0
18.239,0.964,-0.635,3.0
16.968,0.892,-0.684,2.0
31.583,1.645,-0.393,9.0
26.981,1.397,-0.483,1.0
23.49,1.209,-0.549,25.0
20.189,1.033,-0.584,1.0
18.333,0.933,-0.631,3.0
17.029,0.862,-0.679,2.0
32.207,1.614,-0.388,3.0
27.351,1.363,-0.478,1.0
23.641,1.171,-0.542,25.0
23.668,1.165,-0.675,0.0
18.452,0.903,-0.627,3.0
17.101,0.832,-0.674,2.0
23.646,1.139,-0.273,39.0
23.639,1.132,-0.402,38.0
23.629,1.125,-0.531,32.0
23.667,1.12,-0.663,0.0
18.622,0.876,-0.623,3.0
17.26,0.806,-0.672,5.0
23.617,1.093,-0.261,74.0
23.625,1.086,-0.39,75.0
23.606,1.078,-0.518,67.0
23.644,1.073,-0.65,1.0
18.793,0.847,-0.619,3.0
17.33,0.776,-0.665,2.0
23.624,1.047,-0.249,51.0
23.632,1.04,-0.377,42.0
23.648,1.034,-0.506,35.0
21.297,0.925,-0.574,3.0
19.041,0.821,-0.616,3.0
17.537,0.751,-0.663,2.0
23.663,1.003,-0.236,2.0
29.075,1.224,-0.447,2.0
23.685,0.99,-0.493,39.0
21.62,0.897,-0.569,1.0
19.439,0.801,-0.618,2.0
17.73,0.725,-0.659,3.0
35.787,1.449,-0.335,1.0
29.691,1.193,-0.438,2.0
23.766,0.947,-0.48,1.0
21.876,0.866,-0.562,1.0
19.698,0.774,-0.613,2.0
17.901,0.698,-0.654,3.0
36.769,1.417,-0.32,1.0
29.984,1.147,-0.423,1.0
26.351,1.0,-0.514,3.0
22.37,0.842,-0.56,0.0
19.866,0.742,-0.605,3.0
18.207,0.674,-0.653,1.0
39.921,1.462,-0.319,1.0
30.562,1.11,-0.41,0.0
26.837,0.966,-0.505,2.0
22.91,0.818,-0.557,1.0
20.116,0.712,-0.598,3.0
18.28,0.642,-0.642,1.0
190.727,-3.514,6.444,6.0
163.398,-3.042,4.667,31.0
171.494,-3.228,4.005,4.0
170.393,-3.243,3.077,5.0
102.35,-1.969,1.316,19.0
102.275,-1.988,0.783,150.0
190.392,-3.742,6.758,20.0
162.91,-3.235,4.935,27.0
163.52,-3.28,4.104,8.0
170.327,-3.45,3.372,8.0
0.0,0.0,0.0,0.0
102.403,-2.115,0.963,8.0
140.457,-2.931,5.232,15.0
162.594,-3.423,5.208,13.0
163.269,-3.469,4.382,17.0
0.0,0.0,0.0,0.0
170.364,-3.684,2.782,4.0
0.0,0.0,0.0,0.0
139.85,-3.08,5.452,18.0
140.365,-3.117,4.741,12.0
163.319,-3.657,4.667,27.0
171.504,-3.871,3.991,4.0
170.321,-3.876,3.078,11.0
162.0,-3.718,2.09,17.0
143.535,-3.323,5.848,19.0
140.498,-3.277,4.992,20.0
162.802,-3.827,4.941,13.0
163.374,-3.87,4.093,6.0
170.426,-4.066,3.383,6.0
170.491,-4.099,2.501,3.0
117.408,-2.847,4.992,8.0
140.254,-3.425,5.234,16.0
162.593,-3.997,5.222,28.0
163.177,-4.04,4.378,16.0
168.248,-4.195,3.642,4.0
170.515,-4.28,2.806,6.0
139.181,-3.521,6.166,7.0
139.719,-3.559,5.466,18.0
143.63,-3.682,4.872,5.0
163.232,-4.21,4.672,15.0
0.0,0.0,0.0,0.0
0.0,0.0,0.0,0.0
117.58,-3.095,5.421,12.0
139.46,-3.693,5.706,13.0
139.88,-3.726,4.997,18.0
140.721,-3.77,4.283,7.0
163.45,-4.405,4.126,4.0
168.041,-4.556,3.373,12.0
117.366,-3.204,5.624,23.0
117.477,-3.225,5.02,21.0
118.715,-3.277,4.456,18.0
142.932,-3.966,4.607,20.0
163.216,-4.554,4.416,18.0
167.81,-4.709,3.673,14.0
117.371,-3.315,5.838,11.0
125.14,-3.553,5.575,9.0
119.154,-3.4,4.689,17.0
143.008,-4.102,4.873,12.0
140.502,-4.049,4.058,14.0
163.08,-4.724,3.867,3.0
116.576,-3.4,6.013,8.0
117.282,-3.437,5.441,26.0
116.835,-3.439,4.813,17.0
118.447,-3.503,4.254,22.0
139.832,-4.155,4.298,16.0
163.353,-4.876,4.175,9.0
114.41,-3.436,6.112,20.0
117.306,-3.539,5.658,24.0
116.799,-3.539,5.028,16.0
118.789,-3.615,4.486,20.0
139.677,-4.267,4.55,19.0
140.197,-4.301,3.842,10.0
115.389,-3.563,6.38,24.0
115.697,-3.587,5.795,12.0
117.196,-3.646,5.262,13.0
119.027,-3.718,4.715,10.0
139.564,-4.375,4.805,15.0
140.228,-4.413,4.102,22.0
115.49,-3.658,6.599,24.0
115.161,-3.66,5.983,19.0
117.172,-3.737,5.478,17.0
116.735,-3.736,4.84,22.0
117.645,-3.779,4.269,20.0
140.136,-4.516,4.358,8.0
114.451,-3.711,6.751,21.0
114.43,-3.721,6.155,27.0
119.875,-3.911,5.827,11.0
117.08,-3.832,5.071,18.0
118.951,-3.907,4.537,14.0
138.596,-4.565,4.567,18.0
114.584,-3.797,6.973,24.0
115.089,-3.825,6.406,17.0
114.268,-3.808,5.766,14.0
115.916,-3.874,5.237,26.0
116.726,-3.913,4.67,21.0
117.596,-3.954,4.095,13.0
0.0,0.0,0.0,0.0
0.0,0.0,0.0,0.0
0.0,0.0,0.0,0.0
0.0,0.0,0.0,0.0
0.0,0.0,0.0,0.0
113.801,-3.858,10.321,17.0
0.0,0.0,0.0,0.0
0.0,0.0,0.0,0.0
0.0,0.0,0.0,0.0
0.0,0.0,0.0,0.0
0.0,0.0,0.0,0.0
113.736,-3.788,10.464,21.0
0.0,0.0,0.0,0.0
0.0,0.0,0.0,0.0
0.0,0.0,0.0,0.0
0.0,0.0,0.0,0.0
0.0,0.0,0.0,0.0
0.0,0.0,0.0,0.0
0.0,0.0,0.0,0.0
0.0,0.0,0.0,0.0
0.0,0.0,0.0,0.0
0.0,0.0,0.0,0.0
0.0,0.0,0.0,0.0
0.0,0.0,0.0,0.0
0.0,0.0,0.0,0.0
0.0,0.0,0.0,0.0
0.0,0.0,0.0,0.0
0.0,0.0,0.0,0.0
0.0,0.0,0.0,0.0
0.0,0.0,0.0,0.0
0.0,0.0,0.0,0.0
0.0,0.0,0.0,0.0
0.0,0.0,0.0,0.0
0.0,0.0,0.0,0.0
0.0,0.0,0.0,0.0
0.0,0.0,0.0,0.0
0.0,0.0,0.0,0.0
0.0,0.0,0.0,0.0
0.0,0.0,0.0,0.0
0.0,0.0,0.0,0.0
0.0,0.0,0.0,0.0
0.0,0.0,0.0,0.0
0.0,0.0,0.0,0.0
0.0,0.0,0.0,0.0
0.0,0.0,0.0,0.0
0.0,0.0,0.0,0.0
0.0,0.0,0.0,0.0
0.0,0.0,0.0,0.0
0.0,0.0,0.0,0.0
0.0,0.0,0.0,0.0
0.0,0.0,0.0,0.0
0.0,0.0,0.0,0.0
0.0,0.0,0.0,0.0
0.0,0.0,0.0,0.0
0.0,0.0,0.0,0.0
0.0,0.0,0.0,0.0
0.0,0.0,0.0,0.0
0.0,0.0,0.0,0.0
0.0,0.0,0.0,0.0
0.0,0.0,0.0,0.0
0.0,0.0,0.0,0.0
0.0,0.0,0.0,0.0
0.0,0.0,0.0,0.0
0.0,0.0,0.0,0.0
0.0,0.0,0.0,0.0
0.0,0.0,0.0,0.0
0.0,0.0,0.0,0.0
0.0,0.0,0.0,0.0
0.0,0.0,0.0,0.0
0.0,0.0,0.0,0.0
0.0,0.0,0.0,0.0
0.0,0.0,0.0,0.0
0.0,0.0,0.0,0.0
0.0,0.0,0.0,0.0
0.0,0.0,0.0,0.0
0.0,0.0,0.0,0.0
0.0,0.0,0.0,0.0
0.0,0.0,0.0,0.0
0.0,0.0,0.0,0.0
0.0,0.0,0.0,0.0
0.0,0.0,0.0,0.0
0.0,0.0,0.0,0.0
0.0,0.0,0.0,0.0
0.0,0.0,0.0,0.0
0.0,0.0,0.0,0.0
0.0,0.0,0.0,0.0
0.0,0.0,0.0,0.0
0.0,0.0,0.0,0.0
0.0,0.0,0.0,0.0
0.0,0.0,0.0,0.0
0.0,0.0,0.0,0.0
0.0,0.0,0.0,0.0
0.0,0.0,0.0,0.0
0.0,0.0,0.0,0.0
0.0,0.0,0.0,0.0
0.0,0.0,0.0,0.0
0.0,0.0,0.0,0.0
0.0,0.0,0.0,0.0
0.0,0.0,0.0,0.0
0.0,0.0,0.0,0.0
0.0,0.0,0.0,0.0
0.0,0.0,0.0,0.0
0.0,0.0,0.0,0.0
0.0,0.0,0.0,0.0
0.0,0.0,0.0,0.0
0.0,0.0,0.0,0.0
0.0,0.0,0.0,0.0
0.0,0.0,0.0,0.0
0.0,0.0,0.0,0.0
0.0,0.0,0.0,0.0
0.0,0.0,0.0,0.0
0.0,0.0,0.0,0.0
0.0,0.0,0.0,0.0
0.0,0.0,0.0,0.0
0.0,0.0,0.0,0.0
0.0,0.0,0.0,0.0
