X,Y,Z,Reflectivity
0.0,0.0,0.0,0.0
31.145,-3.732,-0.619,0.0
27.169,-3.253,-0.685,0.0
74.938,-8.972,0.203,6.0
0.0,0.0,0.0,0.0
0.0,0.0,0.0,0.0
37.725,-4.501,-0.506,0.0
0.0,0.0,0.0,0.0
0.0,0.0,0.0,0.0
83.338,-9.923,0.322,3.0
0.0,0.0,0.0,0.0
0.0,0.0,0.0,0.0
39.675,-4.708,-0.487,0.0
33.145,-3.928,-0.584,0.0
0.0,0.0,0.0,0.0
83.379,-9.871,0.414,20.0
0.0,0.0,0.0,0.0
0.0,0.0,0.0,0.0
41.762,-4.925,-0.466,0.0
34.64,-4.08,-0.572,0.0
0.0,0.0,0.0,0.0
83.361,-9.807,0.507,20.0
77.669,-9.126,0.057,2.0
0.0,0.0,0.0,0.0
0.0,0.0,0.0,0.0
0.0,0.0,0.0,0.0
0.0,0.0,0.0,0.0
83.382,-9.746,0.597,44.0
77.688,-9.067,0.141,8.0
0.0,0.0,0.0,0.0
0.0,0.0,0.0,0.0
0.0,0.0,0.0,0.0
0.0,0.0,0.0,0.0
83.379,-9.677,0.687,38.0
77.686,-9.003,0.224,26.0
0.0,0.0,0.0,0.0
0.0,0.0,0.0,0.0
38.294,-4.417,-0.508,0.0
32.371,-3.729,-0.603,0.0
83.381,-9.605,0.777,42.0
83.445,-9.597,0.33,6.0
0.0,0.0,0.0,0.0
46.723,-5.356,-0.32,0.0
0.0,0.0,0.0,0.0
32.634,-3.729,-0.573,0.0
83.39,-9.531,0.864,21.0
83.386,-9.514,0.417,62.0
0.0,0.0,0.0,0.0
0.0,0.0,0.0,0.0
39.661,-4.502,-0.443,0.0
34.291,-3.886,-0.567,0.0
83.355,-9.448,0.95,14.0
83.373,-9.433,0.503,14.0
0.0,0.0,0.0,0.0
50.48,-5.691,-0.242,0.0
0.0,0.0,0.0,0.0
35.113,-3.945,-0.545,0.0
83.387,-9.369,1.035,22.0
83.387,-9.351,0.588,17.0
83.829,-9.383,0.141,6.0
0.0,0.0,0.0,0.0
0.0,0.0,0.0,0.0
36.649,-4.079,-0.531,0.0
83.387,-9.283,1.119,14.0
83.395,-9.265,0.67,11.0
83.837,-9.295,0.224,13.0
0.0,0.0,0.0,0.0
0.0,0.0,0.0,0.0
37.957,-4.184,-0.513,0.0
83.352,-9.188,1.201,13.0
83.378,-9.172,0.753,46.0
83.548,-9.172,0.305,9.0
0.0,0.0,0.0,0.0
0.0,0.0,0.0,0.0
0.0,0.0,0.0,0.0
83.379,-9.099,1.28,11.0
83.028,-9.041,0.83,34.0
83.322,-9.054,0.384,16.0
0.0,0.0,0.0,0.0
0.0,0.0,0.0,0.0
40.508,-4.374,-0.47,0.0
83.337,-8.999,1.358,44.0
83.342,-8.979,0.911,88.0
83.368,-8.962,0.462,57.0
0.0,0.0,0.0,0.0
0.0,0.0,0.0,0.0
42.349,-4.522,-0.452,1.0
84.256,-8.998,1.451,3.0
84.503,-9.003,1.0,3.0
84.577,-8.989,0.545,2.0
0.0,0.0,0.0,0.0
37.666,-3.984,-0.166,0.0
0.0,0.0,0.0,0.0
83.386,-8.803,1.511,11.0
85.372,-8.989,1.087,3.0
85.599,-8.991,0.629,1.0
85.314,-8.939,0.159,6.0
0.0,0.0,0.0,0.0
44.13,-4.602,-0.393,0.0
86.207,-8.991,1.637,53.0
86.219,-8.97,1.172,48.0
86.259,-8.95,0.707,40.0
87.371,-9.043,0.238,1.0
0.0,0.0,0.0,0.0
46.273,-4.765,-0.373,0.0
86.47,-8.906,1.715,1.0
87.494,-8.988,1.263,1.0
83.363,-8.54,0.754,3.0
100.321,-10.25,0.356,8.0
0.0,0.0,0.0,0.0
45.89,-4.664,-0.332,0.0
88.387,-8.985,1.826,3.0
88.621,-8.983,1.353,1.0
88.989,-8.996,0.878,6.0
89.077,-8.98,0.388,16.0
0.0,0.0,0.0,0.0
0.0,0.0,0.0,0.0
89.057,-8.93,1.912,29.0
89.455,-8.944,1.436,17.0
90.252,-8.997,0.961,107.0
90.296,-8.977,0.465,54.0
0.0,0.0,0.0,0.0
0.0,0.0,0.0,0.0
90.322,-8.93,2.008,49.0
90.36,-8.908,1.519,17.0
90.357,-8.881,1.031,14.0
90.225,-8.842,0.532,7.0
0.0,0.0,0.0,0.0
0.0,0.0,0.0,0.0
90.352,-8.804,2.075,40.0
90.365,-8.777,1.586,46.0
90.381,-8.751,1.097,41.0
90.299,-8.716,0.598,14.0
90.361,-8.697,0.11,4.0
0.0,0.0,0.0,0.0
90.364,-8.671,2.14,51.0
90.378,-8.644,1.652,53.0
0.0,0.0,0.0,0.0
90.384,-8.59,0.662,52.0
90.39,-8.563,0.173,7.0
0.0,0.0,0.0,0.0
90.368,-8.533,2.204,15.0
90.382,-8.507,1.713,42.0
90.382,-8.477,1.224,35.0
90.305,-8.442,0.724,21.0
90.393,-8.423,0.235,15.0
0.0,0.0,0.0,0.0
127.532,-11.844,3.195,27.0
90.385,-8.366,1.774,42.0
90.378,-8.337,1.282,46.0
90.395,-8.31,0.783,45.0
90.373,-8.281,0.292,17.0
0.0,0.0,0.0,0.0
127.531,-11.645,3.274,30.0
90.4,-8.224,1.829,34.0
90.393,-8.196,1.338,31.0
90.381,-8.165,0.838,40.0
90.387,-8.137,0.347,19.0
0.0,0.0,0.0,0.0
127.538,-11.441,3.351,22.0
90.374,-8.076,1.883,51.0
90.391,-8.049,1.391,38.0
90.402,-8.021,0.891,43.0
90.389,-7.991,0.399,29.0
0.0,0.0,0.0,0.0
114.594,-10.091,3.076,16.0
90.401,-7.931,1.935,40.0
90.39,-7.9,1.442,38.0
90.39,-7.87,0.941,34.0
90.423,-7.844,0.449,35.0
0.0,0.0,0.0,0.0
127.531,-11.02,3.491,12.0
90.395,-7.781,1.982,39.0
90.402,-7.751,1.489,44.0
90.403,-7.721,0.987,36.0
90.43,-7.694,0.495,37.0
0.0,0.0,0.0,0.0
114.332,-9.687,3.187,20.0
90.402,-7.628,2.026,37.0
90.387,-7.595,1.533,55.0
90.394,-7.566,1.031,44.0
90.411,-7.537,0.538,43.0
90.415,-7.508,0.045,1.0
114.405,-9.496,3.243,11.0
90.401,-7.472,2.069,50.0
90.411,-7.442,1.575,150.0
100.026,-8.2,1.186,12.0
100.02,-8.167,0.64,10.0
0.0,0.0,0.0,0.0
118.213,-9.609,3.402,6.0
127.512,-10.319,2.972,33.0
100.066,-8.063,1.785,11.0
100.054,-8.028,1.228,12.0
100.07,-7.996,0.681,14.0
0.0,0.0,0.0,0.0
115.566,-9.189,3.372,12.0
127.503,-10.092,3.022,33.0
100.067,-7.885,1.825,7.0
100.101,-7.853,1.267,13.0
100.081,-7.819,0.72,13.0
0.0,0.0,0.0,0.0
148.317,-11.529,4.381,13.0
127.51,-9.867,3.068,66.0
100.028,-7.704,1.859,2.0
100.061,-7.671,1.301,11.0
100.078,-7.638,0.753,13.0
98.862,-7.512,0.203,3.0
148.32,-11.26,4.431,20.0
0.0,0.0,0.0,0.0
123.963,-9.322,2.343,14.0
100.078,-7.491,1.333,10.0
100.085,-7.456,0.784,13.0
98.892,-7.333,0.233,5.0
109.098,-8.083,3.292,7.0
0.0,0.0,0.0,0.0
109.457,-8.033,2.1,10.0
100.071,-7.307,1.361,9.0
100.094,-7.274,0.811,12.0
98.87,-7.151,0.258,8.0
108.943,-7.872,3.315,37.0
109.158,-7.848,2.721,33.0
109.348,-7.824,2.125,43.0
100.023,-7.12,1.384,8.0
100.089,-7.089,0.835,11.0
98.929,-6.972,0.281,9.0
109.169,-7.686,3.346,23.0
109.136,-7.643,2.744,43.0
109.404,-7.623,2.149,29.0
100.034,-6.934,1.405,6.0
100.072,-6.9,0.855,6.0
99.179,-6.804,0.302,7.0
109.099,-7.476,3.364,29.0
117.093,-7.981,2.965,14.0
117.447,-7.964,2.327,22.0
0.0,0.0,0.0,0.0
0.0,0.0,0.0,0.0
99.704,-6.654,0.319,12.0
109.083,-7.27,3.379,28.0
116.929,-7.751,2.978,20.0
117.368,-7.737,2.342,52.0
117.509,-7.703,1.685,12.0
125.23,-8.165,1.106,22.0
99.717,-6.465,0.331,2.0
120.87,-7.825,3.758,4.0
116.958,-7.527,2.991,23.0
125.235,-8.013,2.511,23.0
125.329,-7.974,1.809,19.0
125.341,-7.929,1.118,8.0
108.493,-6.826,0.37,1.0
120.452,-7.564,3.754,13.0
117.228,-7.318,3.006,36.0
148.216,-9.2,2.982,16.0
148.514,-9.163,2.153,22.0
149.931,-9.195,1.345,17.0
108.606,-6.622,0.374,1.0
117.537,-7.152,3.668,12.0
117.395,-7.099,3.014,12.0
148.748,-8.939,2.996,19.0
149.233,-8.913,2.166,20.0
149.953,-8.902,1.347,17.0
0.0,0.0,0.0,0.0
117.138,-6.897,3.655,49.0
148.395,-8.681,3.808,15.0
149.242,-8.677,3.005,18.0
140.746,-8.13,2.04,10.0
140.75,-8.078,1.261,15.0
0.0,0.0,0.0,0.0
117.145,-6.666,3.651,34.0
163.41,-9.238,4.187,12.0
140.702,-7.901,2.825,18.0
101.558,-5.666,1.466,5.0
101.473,-5.625,0.903,67.0
0.0,0.0,0.0,0.0
117.21,-6.439,3.644,20.0
140.708,-7.678,3.593,25.0
0.0,0.0,0.0,0.0
101.542,-5.466,1.456,10.0
0.0,0.0,0.0,0.0
0.0,0.0,0.0,0.0
117.923,-6.244,3.652,18.0
140.506,-7.386,3.571,29.0
0.0,0.0,0.0,0.0
0.0,0.0,0.0,0.0
101.5,-5.223,0.879,12.0
0.0,0.0,0.0,0.0
118.043,-6.011,3.637,9.0
139.313,-7.042,3.518,8.0
0.0,0.0,0.0,0.0
0.0,0.0,0.0,0.0
101.537,-5.019,0.861,151.0
0.0,0.0,0.0,0.0
140.951,-6.893,4.316,14.0
163.43,-7.932,4.095,10.0
0.0,0.0,0.0,0.0
0.0,0.0,0.0,0.0
101.525,-4.815,0.839,150.0
0.0,0.0,0.0,0.0
140.858,-6.605,4.28,17.0
163.364,-7.599,4.055,9.0
0.0,0.0,0.0,0.0
101.567,-4.65,1.378,1.0
101.464,-4.609,0.813,2.0
0.0,0.0,0.0,0.0
118.903,-5.335,3.581,22.0
142.525,-6.344,3.498,21.0
104.06,-4.594,1.973,1.0
101.52,-4.444,1.349,41.0
101.536,-4.408,0.783,1.0
0.0,0.0,0.0,0.0
118.915,-5.097,3.544,13.0
142.489,-6.054,3.451,9.0
0.0,0.0,0.0,0.0
101.557,-4.241,1.316,13.0
101.507,-4.201,0.749,150.0
0.0,0.0,0.0,0.0
118.846,-4.853,3.501,15.0
141.723,-5.733,3.383,8.0
162.251,-6.506,2.967,16.0
0.0,0.0,0.0,0.0
0.0,0.0,0.0,0.0
0.0,0.0,0.0,0.0
141.781,-5.502,4.122,11.0
141.663,-5.445,3.326,4.0
162.176,-6.173,2.9,19.0
162.032,-6.11,1.976,12.0
160.651,-6.001,1.061,13.0
0.0,0.0,0.0,0.0
141.682,-5.211,4.059,6.0
141.529,-5.153,3.262,3.0
162.178,-5.847,2.829,14.0
162.009,-5.782,1.904,25.0
160.711,-5.679,0.989,15.0
0.0,0.0,0.0,0.0
163.278,-5.675,4.602,14.0
0.0,0.0,0.0,0.0
162.192,-5.519,2.753,22.0
161.968,-5.452,1.825,23.0
160.766,-5.356,0.912,4.0
0.0,0.0,0.0,0.0
163.376,-5.345,4.521,15.0
0.0,0.0,0.0,0.0
162.19,-5.19,2.67,9.0
161.964,-5.124,1.741,15.0
160.691,-5.025,0.826,4.0
0.0,0.0,0.0,0.0
163.237,-5.006,4.428,15.0
167.883,-5.086,3.611,16.0
163.933,-4.908,2.606,39.0
162.199,-4.799,1.652,9.0
0.0,0.0,0.0,0.0
0.0,0.0,0.0,0.0
163.342,-4.679,4.336,13.0
167.876,-4.748,3.512,16.0
162.343,-4.536,2.485,5.0
161.925,-4.466,1.553,17.0
0.0,0.0,0.0,0.0
0.0,0.0,0.0,0.0
163.375,-4.35,4.236,9.0
168.225,-4.418,3.415,7.0
0.0,0.0,0.0,0.0
96.365,-2.462,0.862,2.0
0.0,0.0,0.0,0.0
0.0,0.0,0.0,0.0
163.433,-4.02,4.129,6.0
170.457,-4.132,3.346,7.0
96.295,-2.301,1.349,5.0
96.185,-2.264,0.796,150.0
0.0,0.0,0.0,0.0
0.0,0.0,0.0,0.0
163.406,-3.689,4.014,3.0
170.438,-3.789,3.227,6.0
96.165,-2.103,1.278,14.0
96.082,-2.069,0.726,8.0
0.0,0.0,0.0,0.0
0.0,0.0,0.0,0.0
171.452,-3.526,4.085,4.0
0.0,0.0,0.0,0.0
96.156,-1.912,1.207,35.0
96.072,-1.877,0.654,10.0
96.204,-1.846,0.112,2.0
0.0,0.0,0.0,0.0
171.366,-3.186,3.953,4.0
96.539,-1.761,1.681,4.0
96.128,-1.722,1.132,150.0
96.007,-1.686,0.579,3.0
96.259,-1.657,0.037,1.0
0.0,0.0,0.0,0.0
0.0,0.0,0.0,0.0
96.559,-1.569,1.603,2.0
96.135,-1.53,1.053,150.0
19.745,-0.307,0.102,22.0
0.0,0.0,0.0,0.0
49.98,-0.745,-0.304,0.0
0.0,0.0,0.0,0.0
19.766,-0.282,0.311,5.0
19.744,-0.275,0.199,28.0
19.736,-0.269,0.085,11.0
0.0,0.0,0.0,0.0
0.0,0.0,0.0,0.0
19.756,-0.25,0.405,9.0
19.741,-0.243,0.293,10.0
96.127,-1.153,0.885,150.0
0.0,0.0,0.0,0.0
0.0,0.0,0.0,0.0
0.0,0.0,0.0,0.0
19.761,-0.212,0.387,8.0
19.737,-0.205,0.275,0.0
96.249,-0.97,0.798,8.0
0.0,0.0,0.0,0.0
19.785,-0.186,-0.061,2.0
19.761,-0.179,-0.173,13.0
19.761,-0.174,0.369,0.0
0.0,0.0,0.0,0.0
0.0,0.0,0.0,0.0
19.747,-0.154,0.03,2.0
19.73,-0.147,-0.08,11.0
19.73,-0.141,-0.192,16.0
19.712,-0.135,0.348,2.0
19.728,-0.129,0.237,6.0
19.74,-0.123,0.125,9.0
19.717,-0.116,0.011,12.0
19.713,-0.11,-0.1,16.0
19.735,-0.104,-0.212,17.0
19.676,-0.098,0.328,10.0
19.697,-0.091,0.216,14.0
19.687,-0.085,0.104,14.0
19.697,-0.079,-0.008,16.0
19.717,-0.073,-0.12,16.0
19.753,-0.067,-0.233,15.0
19.649,-0.06,0.306,11.0
19.661,-0.054,0.195,12.0
19.692,-0.048,0.083,15.0
19.703,-0.042,-0.03,15.0
19.744,-0.036,-0.142,12.0
19.638,-0.029,-0.253,0.0
19.627,-0.024,0.285,13.0
19.69,-0.018,0.174,7.0
19.755,-0.012,0.062,4.0
19.748,-0.006,-0.051,6.0
19.774,0.0,-0.164,0.0
19.781,0.006,-0.277,1.0
19.628,0.012,0.263,15.0
19.755,0.018,0.152,18.0
19.734,0.024,0.04,14.0
19.749,0.03,-0.074,15.0
19.758,0.036,-0.186,15.0
19.764,0.042,-0.299,50.0
19.628,0.048,0.24,15.0
19.714,0.053,0.129,17.0
19.759,0.06,0.017,62.0
19.765,0.066,-0.097,27.0
19.76,0.072,-0.209,15.0
19.778,0.077,-0.322,2.0
19.639,0.083,0.217,13.0
19.665,0.089,0.105,12.0
19.664,0.094,-0.006,9.0
19.712,0.1,-0.12,2.0
0.0,0.0,0.0,0.0
31.781,0.181,-0.555,0.0
19.669,0.118,0.194,17.0
19.633,0.123,0.082,13.0
19.64,0.129,-0.029,14.0
19.658,0.135,-0.144,10.0
19.711,0.141,-0.256,1.0
19.702,0.147,-0.369,0.0
19.667,0.152,0.169,14.0
19.651,0.158,0.057,13.0
19.646,0.164,-0.054,10.0
19.636,0.169,-0.168,15.0
19.651,0.175,-0.28,16.0
19.673,0.181,-0.393,19.0
19.695,0.187,0.145,11.0
19.664,0.192,0.032,12.0
19.641,0.197,-0.079,15.0
19.628,0.203,-0.193,16.0
19.65,0.209,-0.305,16.0
19.662,0.214,-0.418,21.0
19.767,0.221,0.12,18.0
19.686,0.226,0.006,8.0
19.643,0.231,-0.105,15.0
19.635,0.236,-0.219,16.0
19.668,0.242,-0.332,13.0
19.664,0.247,-0.444,17.0
19.771,0.254,0.093,1.0
19.621,0.258,-0.019,0.0
19.675,0.264,-0.131,11.0
19.654,0.269,-0.245,14.0
19.668,0.275,-0.358,11.0
19.704,0.281,-0.471,2.0
0.0,0.0,0.0,0.0
52.413,0.776,-0.121,2.0
19.686,0.297,-0.158,0.0
19.684,0.302,-0.273,1.0
29.535,0.462,-0.578,0.0
26.281,0.417,-0.665,1.0
55.205,0.893,0.111,38.0
45.281,0.745,-0.168,0.0
35.928,0.6,-0.339,0.0
32.655,0.554,-0.498,0.0
28.808,0.496,-0.604,0.0
25.217,0.441,-0.673,0.0
55.156,0.981,0.033,52.0
42.516,0.767,-0.217,0.0
55.106,1.009,-0.597,0.0
29.666,0.55,-0.494,0.0
27.651,0.52,-0.619,0.0
24.507,0.467,-0.689,0.0
55.162,1.068,-0.045,12.0
41.105,0.806,-0.269,1.0
33.627,0.668,-0.412,2.0
27.739,0.558,-0.502,0.0
26.902,0.548,-0.641,6.0
23.063,0.475,-0.682,0.0
48.602,1.016,-0.11,0.0
38.509,0.814,-0.308,2.0
31.822,0.681,-0.437,1.0
0.0,0.0,0.0,0.0
25.021,0.548,-0.633,0.0
22.864,0.506,-0.71,2.0
44.06,0.988,-0.165,6.0
36.71,0.832,-0.348,2.0
29.844,0.683,-0.454,2.0
25.239,0.584,-0.531,1.0
22.983,0.537,-0.616,0.0
22.087,0.522,-0.719,4.0
43.604,1.042,-0.229,9.0
34.696,0.838,-0.381,1.0
28.815,0.703,-0.482,2.0
24.459,0.602,-0.552,0.0
21.872,0.543,-0.619,0.0
21.392,0.537,-0.728,3.0
39.947,1.013,-0.27,9.0
32.14,0.822,-0.402,0.0
27.216,0.703,-0.497,1.0
22.859,0.596,-0.551,0.0
20.716,0.545,-0.618,1.0
20.645,0.548,-0.735,2.0
37.2,0.996,-0.309,2.0
27.49,0.742,-0.386,0.0
26.082,0.71,-0.516,3.0
22.135,0.608,-0.567,0.0
19.955,0.552,-0.626,0.0
19.53,0.545,-0.726,3.0
0.0,0.0,0.0,0.0
27.468,0.78,-0.429,4.0
25.056,0.717,-0.535,1.0
21.54,0.621,-0.586,0.0
19.252,0.559,-0.635,1.0
18.609,0.545,-0.721,0.0
40.159,1.186,-0.46,2.0
27.502,0.818,-0.473,15.0
23.634,0.708,-0.542,0.0
20.632,0.622,-0.594,3.0
18.411,0.559,-0.636,0.0
18.137,0.555,-0.731,1.0
40.143,1.238,-0.524,1.0
26.247,0.815,-0.493,1.0
22.639,0.707,-0.556,0.0
19.986,0.629,-0.608,0.0
18.033,0.571,-0.652,0.0
17.23,0.549,-0.722,0.0
29.875,0.96,-0.438,2.0
25.679,0.83,-0.524,4.0
21.641,0.704,-0.567,1.0
19.247,0.63,-0.617,1.0
17.318,0.571,-0.655,0.0
16.843,0.559,-0.734,0.0
28.766,0.96,-0.469,2.0
24.561,0.824,-0.542,0.0
21.072,0.712,-0.586,2.0
18.826,0.639,-0.634,1.0
17.168,0.587,-0.677,1.0
16.501,0.567,-0.746,0.0
27.407,0.948,-0.492,3.0
22.992,0.799,-0.545,0.0
20.077,0.702,-0.591,2.0
18.215,0.64,-0.643,2.0
16.946,0.599,-0.696,0.0
16.289,0.579,-0.763,0.0
26.139,0.935,-0.513,2.0
21.941,0.788,-0.556,0.0
19.68,0.711,-0.613,3.0
17.46,0.634,-0.646,0.0
16.728,0.611,-0.715,0.0
16.166,0.593,-0.785,1.0
24.731,0.912,-0.526,1.0
21.308,0.79,-0.576,1.0
18.908,0.704,-0.62,3.0
17.212,0.644,-0.665,1.0
16.522,0.622,-0.734,0.0
15.962,0.604,-0.802,1.0
23.608,0.897,-0.542,5.0
20.321,0.776,-0.584,0.0
18.384,0.705,-0.634,3.0
16.993,0.655,-0.686,0.0
16.321,0.632,-0.753,0.0
15.73,0.612,-0.817,0.0
22.614,0.883,-0.558,1.0
19.735,0.774,-0.6,3.0
17.871,0.704,-0.647,3.0
16.75,0.663,-0.705,0.0
16.208,0.644,-0.776,1.0
15.009,0.599,-0.805,0.0
21.536,0.863,-0.568,1.0
19.103,0.769,-0.614,3.0
17.369,0.702,-0.658,2.0
16.613,0.674,-0.727,2.0
16.009,0.653,-0.793,1.0
14.593,0.597,-0.808,0.0
20.76,0.853,-0.583,2.0
18.477,0.762,-0.625,4.0
17.055,0.706,-0.676,2.0
16.386,0.681,-0.746,2.0
15.843,0.661,-0.812,1.0
14.376,0.602,-0.82,0.0
19.853,0.834,-0.592,2.0
17.932,0.756,-0.638,3.0
16.868,0.714,-0.697,2.0
16.217,0.689,-0.766,2.0
15.003,0.64,-0.795,0.0
14.099,0.604,-0.829,0.0
19.25,0.826,-0.607,2.0
17.585,0.758,-0.656,2.0
16.663,0.72,-0.718,2.0
16.058,0.697,-0.786,3.0
14.666,0.639,-0.803,0.0
13.755,0.601,-0.833,0.0
18.575,0.813,-0.618,3.0
17.108,0.752,-0.668,2.0
16.456,0.726,-0.738,1.0
15.93,0.705,-0.808,2.0
14.51,0.644,-0.82,0.0
13.318,0.593,-0.83,0.0
18.123,0.809,-0.635,3.0
16.906,0.757,-0.69,2.0
16.24,0.729,-0.756,2.0
23.685,1.067,-1.243,0.0
14.179,0.641,-0.826,0.0
13.029,0.591,-0.835,0.0
17.52,0.796,-0.644,2.0
16.711,0.761,-0.711,2.0
16.071,0.734,-0.777,2.0
14.975,0.686,-0.812,0.0
23.654,1.088,-1.42,1.0
23.664,1.091,-1.558,0.0
17.215,0.795,-0.663,4.0
16.52,0.765,-0.732,2.0
15.937,0.74,-0.798,2.0
23.638,1.101,-1.324,0.0
23.663,1.105,-1.462,0.0
23.651,1.108,-1.599,0.0
16.95,0.795,-0.683,2.0
16.287,0.766,-0.75,2.0
23.637,1.114,-1.226,0.0
23.622,1.117,-1.364,0.0
23.631,1.12,-1.502,0.0
12.2,0.58,-0.846,0.0
16.747,0.796,-0.704,1.0
16.088,0.767,-0.769,2.0
23.644,1.13,-1.267,0.0
23.581,1.13,-1.403,1.0
23.618,1.135,-1.542,1.0
11.966,0.576,-0.851,0.0
16.549,0.797,-0.724,1.0
15.945,0.77,-0.79,3.0
23.619,1.144,-1.308,1.0
13.601,0.66,-0.833,0.0
23.638,1.15,-1.585,1.0
11.815,0.576,-0.861,0.0
16.336,0.797,-0.744,2.0
23.618,1.154,-1.212,1.0
23.611,1.157,-1.349,1.0
23.586,1.158,-1.487,0.0
12.267,0.604,-0.844,0.0
11.513,0.568,-0.859,0.0
16.132,0.795,-0.763,1.0
23.633,1.168,-1.255,0.0
23.62,1.17,-1.391,1.0
23.639,1.173,-1.531,1.0
12.07,0.6,-0.852,0.0
11.374,0.567,-0.869,0.0
15.972,0.796,-0.783,4.0
23.631,1.179,-1.295,0.0
23.624,1.182,-1.432,0.0
23.597,1.183,-1.569,1.0
11.849,0.595,-0.857,0.0
11.09,0.558,-0.866,0.0
15.717,0.79,-0.798,0.0
23.642,1.191,-1.337,0.0
13.271,0.67,-0.827,0.0
12.36,0.625,-0.843,0.0
11.572,0.586,-0.857,0.0
10.872,0.552,-0.868,0.0
23.653,1.199,-1.242,0.0
23.614,1.199,-1.376,1.0
23.609,1.201,-1.513,1.0
12.066,0.615,-0.844,0.0
11.397,0.582,-0.864,0.0
23.628,1.209,-1.929,0.0
23.667,1.209,-1.283,0.0
13.752,0.703,-0.825,0.0
23.619,1.21,-1.554,1.0
11.868,0.609,-0.851,0.0
11.16,0.574,-0.865,0.0
23.62,1.217,-1.969,0.0
23.634,1.215,-1.322,0.0
13.275,0.683,-0.819,0.0
12.351,0.637,-0.834,0.0
11.689,0.604,-0.858,0.0
10.948,0.566,-0.868,0.0
10.391,0.538,-0.884,0.0
23.633,1.222,-1.362,1.0
23.65,1.225,-1.501,0.0
12.174,0.631,-0.843,0.0
11.453,0.595,-0.861,0.0
23.601,1.228,-1.911,0.0
10.247,0.534,-0.889,0.0
13.715,0.713,-0.814,0.0
23.652,1.231,-1.541,0.0
11.921,0.621,-0.846,0.0
11.222,0.585,-0.862,0.0
10.605,0.554,-0.877,0.0
10.114,0.529,-0.895,0.0
13.423,0.701,-0.819,0.0
12.478,0.652,-0.834,0.0
11.786,0.616,-0.856,0.0
11.005,0.576,-0.864,0.0
10.461,0.548,-0.883,0.0
9.935,0.522,-0.896,0.0
23.653,1.239,-1.484,0.0
12.142,0.636,-0.832,0.0
11.571,0.607,-0.86,0.0
23.602,1.24,-1.894,0.0
10.298,0.542,-0.886,0.0
9.74,0.513,-0.895,0.0
23.648,1.242,-1.522,0.0
12.097,0.636,-0.849,0.0
11.343,0.597,-0.862,0.0
10.652,0.561,-0.872,0.0
10.136,0.534,-0.889,0.0
9.644,0.509,-0.902,0.0
12.548,0.66,-0.828,0.0
11.865,0.625,-0.852,0.0
11.135,0.587,-0.864,0.0
10.488,0.553,-0.876,0.0
10.007,0.528,-0.894,0.0
9.464,0.5,-0.901,0.0
12.338,0.649,-0.835,0.0
11.676,0.615,-0.857,0.0
10.943,0.577,-0.867,0.0
10.328,0.545,-0.879,0.0
9.831,0.519,-0.894,0.0
9.293,0.491,-0.9,0.0
12.164,0.641,-0.843,0.0
11.378,0.599,-0.854,0.0
10.69,0.564,-0.864,0.0
10.21,0.539,-0.886,0.0
9.702,0.512,-0.898,0.0
9.215,0.487,-0.907,0.0
11.93,0.628,-0.845,0.0
11.247,0.592,-0.862,0.0
10.576,0.557,-0.872,0.0
10.102,0.533,-0.893,0.0
9.599,0.506,-0.904,0.0
9.1,0.48,-0.91,0.0
11.811,0.621,-0.856,0.0
11.025,0.58,-0.863,0.0
10.434,0.549,-0.877,0.0
9.942,0.523,-0.894,0.0
9.458,0.498,-0.906,0.0
8.926,0.47,-0.907,0.0
11.562,0.607,-0.856,0.0
10.884,0.571,-0.869,0.0
10.336,0.543,-0.885,0.0
9.782,0.514,-0.895,0.0
9.318,0.49,-0.907,0.0
8.832,0.464,-0.912,0.0
11.368,0.595,-0.859,0.0
23.576,1.235,-1.919,0.0
10.179,0.533,-0.887,0.0
9.666,0.506,-0.9,0.0
9.163,0.48,-0.906,0.0
8.702,0.456,-0.911,0.0
11.159,0.582,-0.86,0.0
23.652,1.234,-1.961,0.0
10.047,0.524,-0.891,0.0
9.533,0.497,-0.902,0.0
8.55,0.446,-0.909,0.0
10.997,0.571,-0.864,0.0
10.429,0.542,-0.88,0.0
9.883,0.513,-0.892,0.0
9.414,0.489,-0.905,0.0
8.926,0.464,-0.91,0.0
8.497,0.441,-0.916,0.0
23.595,1.22,-1.89,0.0
10.286,0.532,-0.883,0.0
9.754,0.504,-0.894,0.0
9.242,0.478,-0.902,0.0
8.815,0.455,-0.912,0.0
8.38,0.433,-0.916,0.0
23.635,1.215,-1.929,0.0
10.161,0.522,-0.888,0.0
9.634,0.495,-0.898,0.0
8.653,0.444,-0.908,0.0
8.234,0.423,-0.912,0.0
23.624,1.207,-1.962,0.0
10.009,0.511,-0.889,0.0
9.492,0.484,-0.898,0.0
8.595,0.438,-0.914,0.0
8.152,0.416,-0.914,0.0
10.395,0.527,-0.878,0.0
9.9,0.502,-0.893,0.0
9.34,0.473,-0.897,0.0
8.5,0.43,-0.916,0.0
8.061,0.408,-0.916,0.0
10.32,0.519,-0.886,0.0
9.795,0.492,-0.897,0.0
9.243,0.464,-0.9,0.0
8.799,0.442,-0.909,0.0
8.346,0.419,-0.911,0.0
7.986,0.401,-0.918,0.0
10.148,0.506,-0.885,0.0
9.646,0.481,-0.897,0.0
8.679,0.432,-0.909,0.0
8.242,0.41,-0.911,0.0
7.942,0.395,-0.924,0.0
10.053,0.496,-0.89,0.0
9.505,0.469,-0.896,0.0
8.598,0.424,-0.911,0.0
8.154,0.401,-0.912,0.0
7.87,0.387,-0.926,0.0
9.933,0.486,-0.892,0.0
9.431,0.461,-0.901,0.0
8.905,0.435,-0.903,0.0
8.488,0.414,-0.911,0.0
8.081,0.394,-0.914,0.0
7.798,0.38,-0.927,0.0
9.811,0.474,-0.893,0.0
9.309,0.45,-0.901,0.0
8.857,0.427,-0.909,0.0
8.429,0.406,-0.915,0.0
8.045,0.387,-0.92,0.0
7.748,0.373,-0.931,0.0
9.707,0.464,-0.896,0.0
9.23,0.44,-0.905,0.0
8.778,0.418,-0.912,0.0
8.312,0.396,-0.912,0.0
7.982,0.38,-0.923,0.0
7.656,0.364,-0.929,0.0
9.634,0.454,-0.901,0.0
9.066,0.427,-0.9,0.0
8.675,0.408,-0.911,0.0
8.242,0.387,-0.915,0.0
7.941,0.373,-0.927,0.0
7.618,0.357,-0.934,0.0
9.512,0.443,-0.9,0.0
9.011,0.419,-0.905,0.0
8.63,0.401,-0.917,0.0
8.169,0.379,-0.916,0.0
7.831,0.362,-0.924,0.0
7.544,0.349,-0.934,0.0
9.406,0.432,-0.901,0.0
8.92,0.409,-0.906,0.0
8.516,0.389,-0.914,0.0
8.061,0.368,-0.913,0.0
7.762,0.354,-0.924,0.0
7.482,0.341,-0.934,0.0
9.306,0.421,-0.902,0.0
8.852,0.399,-0.909,0.0
8.441,0.38,-0.915,0.0
8.062,0.362,-0.922,0.0
7.723,0.347,-0.928,0.0
7.425,0.333,-0.935,0.0
9.247,0.411,-0.906,0.0
8.734,0.388,-0.906,0.0
8.371,0.371,-0.917,0.0
7.958,0.352,-0.918,0.0
7.697,0.34,-0.933,0.0
7.384,0.325,-0.938,0.0
9.099,0.398,-0.901,0.0
8.719,0.38,-0.913,0.0
8.302,0.362,-0.918,0.0
7.893,0.343,-0.919,0.0
7.606,0.33,-0.93,0.0
7.33,0.317,-0.938,0.0
9.051,0.389,-0.905,0.0
8.618,0.369,-0.911,0.0
8.187,0.35,-0.913,0.0
7.885,0.336,-0.926,0.0
7.569,0.322,-0.933,0.0
7.274,0.309,-0.938,0.0
8.986,0.379,-0.907,0.0
8.538,0.359,-0.911,0.0
8.173,0.343,-0.919,0.0
7.813,0.327,-0.925,0.0
7.531,0.315,-0.935,0.0
7.253,0.302,-0.943,0.0
8.923,0.369,-0.909,0.0
8.536,0.352,-0.919,0.0
8.081,0.332,-0.916,0.0
7.762,0.318,-0.926,0.0
7.518,0.308,-0.94,0.0
7.228,0.295,-0.946,0.0
8.852,0.358,-0.91,0.0
8.447,0.341,-0.916,0.0
8.06,0.324,-0.921,0.0
7.727,0.31,-0.928,0.0
7.465,0.299,-0.94,0.0
7.186,0.287,-0.946,0.0
8.818,0.349,-0.913,0.0
8.4,0.331,-0.918,0.0
8.001,0.315,-0.921,0.0
7.713,0.303,-0.933,0.0
7.391,0.289,-0.937,0.0
7.146,0.279,-0.947,0.0
8.774,0.339,-0.916,0.0
8.292,0.32,-0.913,0.0
7.982,0.307,-0.925,0.0
7.639,0.293,-0.93,0.0
7.365,0.282,-0.939,0.0
7.122,0.271,-0.949,0.0
8.681,0.328,-0.913,0.0
8.293,0.312,-0.919,0.0
7.936,0.298,-0.925,0.0
7.607,0.285,-0.932,0.0
7.353,0.274,-0.943,0.0
7.092,0.264,-0.951,0.0
8.644,0.318,-0.915,0.0
8.228,0.302,-0.918,0.0
7.902,0.289,-0.927,0.0
7.55,0.275,-0.93,0.0
7.285,0.265,-0.939,0.0
7.035,0.255,-0.948,0.0
8.614,0.309,-0.918,0.0
8.206,0.293,-0.921,0.0
7.836,0.279,-0.924,0.0
7.539,0.267,-0.934,0.0
7.277,0.257,-0.943,0.0
7.027,0.248,-0.951,0.0
8.552,0.298,-0.916,0.0
8.167,0.284,-0.922,0.0
7.848,0.272,-0.931,0.0
7.514,0.259,-0.935,0.0
7.26,0.249,-0.945,0.0
6.997,0.239,-0.951,0.0
8.502,0.288,-0.916,0.0
8.103,0.273,-0.919,0.0
7.79,0.262,-0.928,0.0
7.486,0.251,-0.936,0.0
7.239,0.241,-0.947,0.0
6.98,0.232,-0.953,0.0
8.472,0.278,-0.917,0.0
8.086,0.265,-0.922,0.0
7.755,0.253,-0.928,0.0
7.456,0.242,-0.936,0.0
7.209,0.233,-0.947,0.0
6.917,0.222,-0.948,0.0
8.418,0.268,-0.916,0.0
8.067,0.255,-0.924,0.0
7.72,0.243,-0.928,0.0
7.454,0.234,-0.939,0.0
7.201,0.225,-0.949,0.0
6.929,0.215,-0.953,0.0
8.423,0.259,-0.92,0.0
8.09,0.248,-0.93,0.0
7.733,0.236,-0.933,0.0
7.439,0.226,-0.941,0.0
7.176,0.217,-0.949,0.0
6.893,0.207,-0.951,0.0
8.352,0.248,-0.916,0.0
8.035,0.238,-0.927,0.0
7.697,0.226,-0.932,0.0
7.391,0.216,-0.938,0.0
7.153,0.208,-0.949,0.0
6.91,0.2,-0.956,0.0
8.371,0.24,-0.921,0.0
7.991,0.228,-0.925,0.0
7.697,0.218,-0.935,0.0
7.399,0.208,-0.941,0.0
7.163,0.201,-0.952,0.0
6.854,0.191,-0.951,0.0
8.348,0.23,-0.921,0.0
7.991,0.219,-0.927,0.0
7.669,0.209,-0.934,0.0
7.397,0.2,-0.943,0.0
7.123,0.192,-0.949,0.0
6.822,0.183,-0.948,0.0
8.323,0.22,-0.921,0.0
7.986,0.21,-0.929,0.0
7.684,0.201,-0.937,0.0
7.351,0.191,-0.939,0.0
7.125,0.184,-0.951,0.0
6.828,0.175,-0.951,0.0
8.29,0.21,-0.919,0.0
7.953,0.2,-0.927,0.0
7.643,0.191,-0.934,0.0
7.324,0.182,-0.938,0.0
7.117,0.176,-0.952,0.0
6.828,0.167,-0.952,0.0
8.314,0.201,-0.923,0.0
7.972,0.192,-0.93,0.0
7.643,0.183,-0.935,0.0
7.323,0.174,-0.939,0.0
7.095,0.167,-0.95,0.0
6.803,0.159,-0.95,0.0
8.31,0.192,-0.924,0.0
7.977,0.183,-0.932,0.0
7.626,0.174,-0.934,0.0
7.341,0.166,-0.942,0.0
7.099,0.159,-0.951,0.0
6.854,0.152,-0.958,0.0
8.326,0.183,-0.927,0.0
7.95,0.173,-0.93,0.0
7.638,0.165,-0.937,0.0
7.296,0.156,-0.937,0.0
7.088,0.151,-0.95,0.0
6.827,0.144,-0.954,0.0
8.299,0.173,-0.924,0.0
7.925,0.164,-0.927,0.0
7.653,0.157,-0.939,0.0
7.308,0.148,-0.938,0.0
7.107,0.143,-0.953,0.0
6.817,0.136,-0.953,0.0
8.284,0.163,-0.923,0.0
7.963,0.155,-0.932,0.0
7.678,0.148,-0.942,0.0
7.334,0.14,-0.942,0.0
7.125,0.135,-0.955,0.0
6.797,0.128,-0.95,0.0
8.297,0.154,-0.924,0.0
7.955,0.146,-0.93,0.0
7.676,0.14,-0.941,0.0
7.34,0.132,-0.942,0.0
7.073,0.126,-0.948,0.0
6.846,0.121,-0.956,0.0
8.296,0.144,-0.923,0.0
7.967,0.137,-0.931,0.0
7.665,0.131,-0.939,0.0
7.347,0.124,-0.942,0.0
7.106,0.118,-0.951,0.0
6.868,0.113,-0.958,0.0
8.295,0.135,-0.922,0.0
7.99,0.128,-0.933,0.0
7.665,0.122,-0.938,0.0
7.331,0.115,-0.939,0.0
7.132,0.111,-0.954,0.0
6.862,0.105,-0.956,0.0
8.344,0.126,-0.926,0.0
7.983,0.119,-0.93,0.0
7.682,0.113,-0.938,0.0
7.374,0.107,-0.943,0.0
7.118,0.102,-0.95,0.0
6.871,0.097,-0.956,0.0
8.346,0.116,-0.924,0.0
8.026,0.11,-0.933,0.0
7.691,0.104,-0.937,0.0
7.381,0.099,-0.942,0.0
7.129,0.094,-0.95,0.0
6.865,0.089,-0.953,0.0
8.38,0.107,-0.925,0.0
8.031,0.101,-0.932,0.0
7.705,0.096,-0.937,0.0
7.403,0.09,-0.943,0.0
7.155,0.086,-0.951,0.0
6.881,0.081,-0.954,0.0
8.395,0.098,-0.924,0.0
8.042,0.092,-0.93,0.0
7.721,0.087,-0.936,0.0
7.432,0.082,-0.944,0.0
7.168,0.078,-0.95,0.0
6.876,0.074,-0.95,0.0
8.431,0.089,-0.925,0.0
8.06,0.083,-0.93,0.0
7.74,0.078,-0.936,0.0
7.446,0.074,-0.943,0.0
7.197,0.07,-0.951,0.0
6.932,0.066,-0.955,0.0
8.45,0.079,-0.924,0.0
8.104,0.074,-0.931,0.0
7.747,0.07,-0.933,0.0
7.459,0.066,-0.941,0.0
7.198,0.062,-0.948,0.0
6.937,0.058,-0.953,0.0
8.481,0.07,-0.923,0.0
8.138,0.065,-0.931,0.0
7.762,0.061,-0.931,0.0
7.481,0.057,-0.94,0.0
7.204,0.054,-0.946,0.0
6.965,0.051,-0.953,0.0
8.532,0.061,-0.925,0.0
8.169,0.057,-0.931,0.0
7.81,0.053,-0.933,0.0
7.515,0.049,-0.94,0.0
7.249,0.046,-0.947,0.0
6.989,0.043,-0.953,0.0
8.536,0.051,-0.921,0.0
8.199,0.048,-0.93,0.0
7.849,0.044,-0.933,0.0
7.567,0.041,-0.943,0.0
7.288,0.038,-0.948,0.0
7.023,0.035,-0.953,0.0
8.604,0.042,-0.923,0.0
8.238,0.039,-0.929,0.0
7.907,0.036,-0.935,0.0
7.599,0.033,-0.942,0.0
7.314,0.03,-0.947,0.0
7.063,0.028,-0.954,0.0
8.666,0.033,-0.924,0.0
8.282,0.03,-0.929,0.0
7.937,0.027,-0.934,0.0
7.644,0.025,-0.943,0.0
7.339,0.022,-0.946,0.0
7.085,0.02,-0.952,0.0
8.696,0.024,-0.921,0.0
8.349,0.021,-0.93,0.0
7.979,0.019,-0.933,0.0
7.645,0.016,-0.937,0.0
7.354,0.014,-0.942,0.0
7.126,0.012,-0.953,0.0
8.759,0.015,-0.922,0.0
8.402,0.012,-0.93,0.0
8.03,0.01,-0.933,0.0
7.729,0.008,-0.942,0.0
7.419,0.006,-0.945,0.0
7.153,0.005,-0.951,0.0
8.86,0.005,-0.926,0.0
8.464,0.003,-0.931,0.0
8.096,0.002,-0.935,0.0
7.75,0.0,-0.938,0.0
7.47,0.0,-0.945,0.0
7.194,-0.002,-0.95,0.0
8.896,-0.003,-0.922,0.0
8.508,-0.004,-0.929,0.0
8.104,-0.006,-0.929,0.0
7.797,-0.007,-0.937,0.0
7.523,-0.008,-0.946,0.0
7.216,-0.009,-0.947,0.0
8.928,-0.012,-0.918,0.0
8.563,-0.013,-0.927,0.0
8.192,-0.014,-0.932,0.0
7.824,-0.015,-0.934,0.0
7.568,-0.016,-0.945,0.0
7.279,-0.017,-0.949,0.0
9.028,-0.021,-0.92,0.0
8.628,-0.022,-0.926,0.0
8.242,-0.023,-0.93,0.0
7.879,-0.023,-0.933,0.0
7.615,-0.024,-0.943,0.0
7.312,-0.024,-0.946,0.0
9.097,-0.031,-0.919,0.0
8.699,-0.031,-0.926,0.0
8.308,-0.031,-0.929,0.0
7.996,-0.032,-0.939,0.0
7.673,-0.032,-0.943,0.0
7.379,-0.032,-0.948,0.0
9.141,-0.04,-0.914,0.0
8.76,-0.04,-0.924,0.0
8.399,-0.04,-0.931,0.0
8.047,-0.04,-0.937,0.0
7.717,-0.039,-0.941,0.0
7.437,-0.039,-0.947,0.0
9.272,-0.049,-0.918,0.0
8.889,-0.049,-0.928,0.0
8.466,-0.048,-0.93,0.0
8.084,-0.048,-0.933,0.0
7.794,-0.047,-0.942,0.0
7.5,-0.047,-0.948,0.0
9.34,-0.059,-0.915,0.0
8.938,-0.058,-0.924,0.0
8.516,-0.056,-0.927,0.0
8.173,-0.056,-0.934,0.0
7.833,-0.055,-0.938,0.0
7.539,-0.054,-0.944,0.0
9.493,-0.068,-0.919,0.0
8.987,-0.066,-0.919,0.0
8.593,-0.065,-0.925,0.0
8.237,-0.064,-0.932,0.0
7.889,-0.062,-0.936,0.0
7.617,-0.062,-0.945,0.0
9.604,-0.078,-0.919,0.0
9.128,-0.075,-0.923,0.0
8.702,-0.073,-0.927,0.0
8.323,-0.072,-0.932,0.0
8.005,-0.07,-0.94,0.0
7.686,-0.069,-0.945,0.0
9.695,-0.087,-0.916,0.0
9.215,-0.084,-0.921,0.0
8.76,-0.082,-0.923,0.0
8.399,-0.08,-0.931,0.0
8.053,-0.078,-0.936,0.0
7.751,-0.076,-0.943,0.0
9.796,-0.096,-0.914,0.0
9.26,-0.093,-0.914,0.0
8.911,-0.091,-0.928,0.0
8.501,-0.088,-0.932,0.0
8.116,-0.085,-0.933,0.0
7.813,-0.083,-0.941,0.0
9.889,-0.105,-0.91,0.0
9.364,-0.101,-0.912,0.0
8.972,-0.099,-0.923,0.0
8.573,-0.096,-0.929,0.0
8.242,-0.093,-0.937,0.0
7.893,-0.091,-0.94,0.0
10.024,-0.115,-0.91,0.0
9.553,-0.111,-0.918,0.0
9.103,-0.107,-0.924,0.0
8.684,-0.104,-0.929,0.0
8.311,-0.101,-0.934,0.0
7.979,-0.098,-0.94,0.0
10.162,-0.125,-0.909,0.0
9.665,-0.12,-0.916,0.0
9.193,-0.116,-0.921,0.0
8.77,-0.112,-0.927,0.0
8.391,-0.108,-0.932,0.0
8.061,-0.105,-0.938,0.0
10.309,-0.134,-0.908,0.0
9.79,-0.129,-0.915,0.0
9.224,-0.123,-0.911,0.0
8.889,-0.12,-0.927,0.0
8.514,-0.116,-0.934,0.0
8.12,-0.112,-0.934,0.0
10.465,-0.144,-0.908,0.0
9.931,-0.138,-0.914,0.0
9.412,-0.132,-0.917,0.0
8.993,-0.128,-0.925,0.0
8.612,-0.123,-0.932,0.0
8.246,-0.119,-0.937,0.0
10.57,-0.152,-0.902,1.0
10.05,-0.146,-0.911,0.0
9.591,-0.141,-0.92,0.0
9.121,-0.136,-0.925,0.0
8.715,-0.131,-0.931,0.0
8.332,-0.126,-0.934,0.0
10.695,-0.161,-0.897,0.0
10.212,-0.156,-0.911,0.0
9.704,-0.149,-0.917,0.0
9.237,-0.143,-0.923,0.0
8.807,-0.138,-0.927,0.0
8.412,-0.133,-0.931,0.0
10.94,-0.172,-0.901,0.0
10.364,-0.164,-0.909,0.0
9.841,-0.158,-0.915,0.0
9.362,-0.151,-0.921,0.0
8.898,-0.145,-0.923,0.0
8.568,-0.141,-0.935,0.0
11.111,-0.182,-0.898,0.0
10.518,-0.173,-0.906,0.0
9.975,-0.166,-0.913,0.0
9.525,-0.159,-0.923,0.0
9.086,-0.153,-0.929,0.0
8.654,-0.147,-0.931,0.0
11.273,-0.191,-0.894,0.0
10.681,-0.182,-0.904,0.0
10.15,-0.174,-0.913,0.0
9.642,-0.167,-0.919,0.0
9.196,-0.16,-0.926,0.0
8.773,-0.154,-0.93,0.0
11.494,-0.201,-0.894,0.0
10.886,-0.191,-0.904,0.0
10.327,-0.183,-0.912,0.0
9.795,-0.175,-0.918,0.0
9.349,-0.168,-0.926,0.0
8.886,-0.161,-0.927,0.0
11.677,-0.21,-0.889,0.0
11.057,-0.2,-0.9,0.0
10.472,-0.191,-0.908,0.0
9.954,-0.183,-0.917,0.0
9.521,-0.176,-0.927,0.0
9.049,-0.168,-0.929,0.0
11.845,-0.219,-0.882,0.0
11.222,-0.209,-0.895,0.0
10.647,-0.199,-0.906,0.0
10.117,-0.19,-0.915,0.0
9.632,-0.182,-0.922,0.0
9.163,-0.174,-0.926,0.0
12.058,-0.228,-0.878,0.0
11.449,-0.218,-0.894,0.0
10.847,-0.208,-0.904,0.0
10.252,-0.197,-0.91,0.0
9.778,-0.189,-0.92,0.0
9.313,-0.181,-0.925,0.0
12.296,-0.238,-0.875,0.0
11.67,-0.227,-0.892,0.0
11.017,-0.215,-0.9,0.0
10.46,-0.205,-0.91,0.0
9.946,-0.196,-0.918,0.0
9.491,-0.188,-0.926,0.0
12.556,-0.248,-0.872,0.0
11.811,-0.234,-0.882,0.0
11.208,-0.223,-0.896,0.0
10.631,-0.213,-0.907,0.0
10.107,-0.203,-0.916,0.0
9.64,-0.195,-0.924,0.0
12.899,-0.259,-0.873,0.0
12.041,-0.243,-0.878,0.0
11.475,-0.232,-0.897,0.0
10.819,-0.22,-0.904,0.0
10.27,-0.21,-0.912,0.0
9.781,-0.201,-0.92,0.0
13.136,-0.268,-0.866,0.0
12.315,-0.252,-0.877,0.0
11.676,-0.24,-0.892,0.0
11.019,-0.227,-0.901,0.0
10.472,-0.217,-0.912,0.0
9.961,-0.207,-0.919,0.0
13.409,-0.277,-0.861,0.0
12.594,-0.261,-0.874,0.0
11.832,-0.246,-0.883,0.0
11.259,-0.235,-0.901,0.0
10.652,-0.223,-0.908,0.0
10.129,-0.213,-0.917,0.0
13.78,-0.288,-0.86,0.0
12.84,-0.269,-0.868,0.0
12.098,-0.255,-0.881,0.0
11.494,-0.243,-0.899,0.0
10.853,-0.23,-0.906,0.0
10.315,-0.219,-0.915,0.0
14.13,-0.299,-0.856,0.0
13.23,-0.28,-0.871,0.0
12.251,-0.26,-0.87,0.0
11.675,-0.249,-0.892,0.0
11.083,-0.237,-0.904,0.0
10.502,-0.225,-0.912,0.0
14.487,-0.308,-0.851,0.0
13.485,-0.288,-0.863,0.0
12.672,-0.271,-0.877,0.0
11.899,-0.255,-0.887,0.0
11.268,-0.242,-0.898,0.0
10.724,-0.231,-0.911,0.0
14.895,-0.319,-0.848,0.0
13.82,-0.297,-0.858,0.0
12.938,-0.278,-0.871,0.0
12.121,-0.261,-0.88,0.0
11.566,-0.25,-0.9,0.0
10.903,-0.236,-0.906,0.0
15.308,-0.329,-0.843,0.0
14.21,-0.306,-0.856,0.0
13.252,-0.286,-0.867,0.0
12.382,-0.268,-0.876,0.0
11.719,-0.254,-0.89,0.0
11.128,-0.242,-0.903,0.0
15.678,-0.338,-0.833,0.0
14.573,-0.315,-0.85,0.0
13.619,-0.295,-0.865,0.0
12.694,-0.275,-0.874,0.0
11.978,-0.26,-0.887,0.0
11.365,-0.247,-0.901,0.0
16.232,-0.351,-0.832,0.0
15.008,-0.325,-0.847,0.0
13.885,-0.301,-0.855,0.0
13.027,-0.282,-0.872,0.0
12.211,-0.265,-0.881,0.0
11.623,-0.252,-0.899,0.0
16.743,-0.361,-0.826,0.0
15.443,-0.334,-0.842,0.0
14.345,-0.31,-0.856,0.0
13.37,-0.289,-0.869,0.0
12.535,-0.271,-0.88,0.0
11.796,-0.256,-0.889,0.0
17.313,-0.373,-0.821,0.0
15.785,-0.34,-0.83,0.0
14.72,-0.317,-0.85,0.0
13.75,-0.296,-0.867,0.0
12.769,-0.275,-0.872,0.0
12.035,-0.26,-0.884,0.0
17.732,-0.38,-0.806,0.0
16.419,-0.352,-0.832,0.0
15.114,-0.324,-0.844,0.0
14.057,-0.301,-0.859,0.0
13.141,-0.282,-0.872,0.0
12.342,-0.265,-0.883,0.0
21.727,-0.463,-0.946,0.0
17.026,-0.363,-0.829,0.0
15.57,-0.331,-0.839,0.0
14.458,-0.308,-0.856,0.0
13.473,-0.287,-0.867,0.0
12.66,-0.269,-0.881,0.0
19.176,-0.405,-0.798,0.0
17.502,-0.37,-0.819,0.0
16.057,-0.339,-0.834,0.0
14.876,-0.314,-0.851,0.0
13.825,-0.291,-0.863,0.0
12.815,-0.27,-0.866,0.0
19.83,-0.415,-0.786,0.0
18.022,-0.377,-0.807,0.0
21.699,-0.453,-1.085,0.0
15.318,-0.319,-0.846,0.0
14.227,-0.296,-0.86,0.0
13.184,-0.274,-0.865,0.0
20.45,-0.423,-0.77,1.0
21.748,-0.449,-0.932,0.0
17.138,-0.353,-0.823,0.0
15.704,-0.323,-0.837,0.0
14.634,-0.301,-0.856,0.0
13.664,-0.28,-0.87,0.0
21.419,-0.436,-0.764,3.0
19.473,-0.396,-0.795,0.0
17.704,-0.36,-0.815,0.0
21.661,-0.439,-1.111,0.0
15.035,-0.304,-0.849,0.0
14.094,-0.285,-0.869,0.0
21.684,-0.435,-0.731,8.0
20.068,-0.402,-0.781,0.0
21.72,-0.434,-0.957,0.0
16.862,-0.336,-0.832,0.0
15.506,-0.308,-0.845,0.0
14.287,-0.283,-0.853,0.0
21.71,-0.427,-0.689,5.0
20.808,-0.409,-0.768,0.0
19.042,-0.373,-0.801,0.0
17.308,-0.338,-0.819,0.0
15.903,-0.31,-0.835,0.0
14.805,-0.288,-0.854,0.0
21.729,-0.419,-0.647,84.0
21.651,-0.416,-0.756,4.0
19.713,-0.378,-0.79,0.0
17.869,-0.341,-0.81,0.0
16.554,-0.315,-0.836,0.0
15.238,-0.289,-0.849,0.0
21.738,-0.409,-0.604,88.0
21.716,-0.408,-0.715,4.0
20.339,-0.381,-0.775,0.0
18.54,-0.346,-0.804,0.0
17.088,-0.318,-0.83,0.0
15.706,-0.291,-0.844,0.0
21.729,-0.399,-0.56,0.0
21.735,-0.397,-0.673,1.0
21.161,-0.385,-0.764,0.0
19.394,-0.352,-0.802,0.0
17.649,-0.319,-0.821,0.0
16.203,-0.291,-0.838,0.0
27.61,-0.493,-0.657,0.0
24.544,-0.436,-0.711,0.0
21.73,-0.384,-0.741,3.0
19.914,-0.35,-0.784,0.0
18.163,-0.318,-0.809,0.0
16.758,-0.292,-0.833,0.0
28.925,-0.5,-0.631,0.0
25.712,-0.442,-0.693,0.0
22.671,-0.388,-0.728,0.0
20.582,-0.35,-0.769,0.0
18.976,-0.321,-0.807,0.0
17.337,-0.292,-0.827,0.0
30.346,-0.506,-0.601,0.0
26.731,-0.443,-0.667,0.0
23.85,-0.393,-0.719,0.0
21.596,-0.354,-0.764,2.0
19.592,-0.319,-0.795,0.0
17.835,-0.289,-0.816,0.0
31.978,-0.513,-0.571,0.0
28.611,-0.456,-0.658,0.0
25.044,-0.397,-0.705,0.0
22.228,-0.35,-0.743,0.0
20.201,-0.316,-0.78,0.0
18.648,-0.289,-0.816,0.0
33.629,-0.517,-0.533,0.0
29.989,-0.457,-0.63,0.0
26.104,-0.395,-0.684,0.0
23.068,-0.347,-0.725,0.0
20.683,-0.309,-0.757,0.0
19.222,-0.285,-0.803,0.0
35.398,-0.519,-0.492,0.0
31.121,-0.452,-0.593,1.0
27.434,-0.395,-0.664,0.0
24.411,-0.349,-0.719,0.0
21.675,-0.307,-0.751,0.0
19.816,-0.279,-0.789,1.0
39.625,-0.551,-0.473,0.0
32.917,-0.453,-0.562,0.0
28.82,-0.393,-0.641,0.0
25.402,-0.343,-0.699,0.0
22.627,-0.303,-0.74,0.0
19.827,-0.263,-0.75,5.0
0.0,0.0,0.0,0.0
34.988,-0.454,-0.53,0.0
30.129,-0.387,-0.612,0.0
26.447,-0.336,-0.676,0.0
23.603,-0.297,-0.726,0.0
0.0,0.0,0.0,0.0
0.0,0.0,0.0,0.0
38.464,-0.468,-0.508,0.0
31.578,-0.379,-0.58,0.0
27.6,-0.328,-0.652,0.0
24.758,-0.291,-0.713,0.0
22.17,-0.257,-0.753,0.0
0.0,0.0,0.0,0.0
0.0,0.0,0.0,0.0
0.0,0.0,0.0,0.0
28.916,-0.318,-0.627,0.0
25.788,-0.28,-0.693,0.0
22.853,-0.245,-0.733,0.0
0.0,0.0,0.0,0.0
0.0,0.0,0.0,0.0
19.787,-0.202,-0.287,1.0
19.792,-0.199,-0.392,3.0
19.771,-0.196,-0.493,0.0
24.031,-0.235,-0.724,0.0
0.0,0.0,0.0,0.0
19.791,-0.187,-0.147,2.0
19.76,-0.183,-0.249,9.0
19.752,-0.18,-0.353,11.0
19.755,-0.177,-0.455,11.0
19.751,-0.174,-0.558,9.0
0.0,0.0,0.0,0.0
19.757,-0.167,-0.109,9.0
19.75,-0.164,-0.211,13.0
19.737,-0.161,-0.316,14.0
19.735,-0.157,-0.418,17.0
19.753,-0.154,-0.52,22.0
19.77,-0.15,0.03,0.0
19.762,-0.147,-0.072,9.0
19.734,-0.144,-0.174,14.0
19.722,-0.14,-0.278,17.0
19.733,-0.137,-0.381,17.0
19.732,-0.133,-0.483,17.0
19.768,-0.13,0.067,2.0
19.732,-0.126,-0.035,9.0
19.718,-0.123,-0.137,16.0
19.712,-0.119,-0.241,17.0
19.746,-0.116,-0.344,16.0
19.744,-0.112,-0.446,17.0
19.747,-0.109,0.103,10.0
19.725,-0.105,0.001,11.0
19.715,-0.101,-0.1,14.0
19.715,-0.098,-0.205,16.0
19.758,-0.094,-0.308,14.0
19.76,-0.09,-0.41,15.0
19.71,-0.086,0.14,14.0
19.699,-0.082,0.037,14.0
19.714,-0.079,-0.064,12.0
19.706,-0.075,-0.168,16.0
19.744,-0.072,-0.271,15.0
19.773,-0.068,-0.374,9.0
19.698,-0.064,0.175,16.0
19.694,-0.06,0.073,15.0
19.705,-0.056,-0.028,16.0
19.716,-0.052,-0.133,14.0
19.75,-0.049,-0.236,15.0
19.761,-0.045,-0.338,1.0
19.655,-0.041,0.21,15.0
19.691,-0.037,0.109,16.0
19.701,-0.033,0.006,15.0
19.731,-0.029,-0.098,9.0
19.766,-0.025,-0.2,5.0
34.807,-0.037,-0.534,0.0
19.644,-0.017,0.246,14.0
19.739,-0.013,0.144,3.0
19.721,-0.009,0.041,8.0
19.743,-0.005,-0.062,9.0
19.693,0.0,-0.164,0.0
0.0,0.0,0.0,0.0
19.626,0.007,0.28,14.0
19.638,0.011,0.178,10.0
19.777,0.015,0.076,5.0
19.741,0.019,-0.028,14.0
19.763,0.023,-0.131,2.0
19.753,0.028,-0.234,43.0
19.628,0.032,0.314,16.0
19.62,0.036,0.212,15.0
19.748,0.04,0.11,13.0
19.73,0.045,0.005,17.0
19.76,0.049,-0.097,15.0
19.756,0.053,-0.2,50.0
19.615,0.057,0.348,14.0
19.62,0.061,0.246,13.0
19.681,0.066,0.144,12.0
19.751,0.071,0.039,37.0
19.757,0.075,-0.063,30.0
19.772,0.079,-0.167,20.0
19.624,0.083,0.381,22.0
19.613,0.088,0.279,17.0
19.662,0.092,0.177,11.0
19.655,0.097,0.072,12.0
19.676,0.101,-0.03,8.0
19.7,0.106,-0.133,0.0
19.617,0.11,0.414,26.0
19.61,0.114,0.311,12.0
19.656,0.119,0.209,14.0
19.631,0.123,0.104,14.0
19.64,0.128,0.001,15.0
19.667,0.133,-0.1,10.0
19.609,0.137,0.446,13.0
19.62,0.141,0.343,11.0
19.628,0.146,0.241,10.0
19.653,0.151,0.136,14.0
19.637,0.155,0.033,15.0
19.649,0.16,-0.069,12.0
19.621,0.164,0.478,12.0
19.638,0.169,0.375,9.0
19.639,0.174,0.272,8.0
19.656,0.179,0.168,12.0
19.658,0.183,0.064,13.0
19.648,0.188,-0.038,13.0
19.689,0.193,0.511,10.0
19.707,0.198,0.408,10.0
19.724,0.203,0.305,9.0
19.728,0.208,0.199,17.0
19.73,0.213,0.095,12.0
19.666,0.217,-0.007,12.0
19.681,0.222,0.541,11.0
19.7,0.227,0.438,10.0
19.716,0.232,0.335,10.0
19.729,0.237,0.23,17.0
19.766,0.242,0.126,26.0
19.688,0.246,0.022,0.0
19.655,0.251,0.571,14.0
19.672,0.256,0.468,10.0
19.688,0.261,0.365,13.0
19.719,0.266,0.26,12.0
19.753,0.272,0.156,11.0
0.0,0.0,0.0,0.0
19.66,0.281,0.601,14.0
19.668,0.286,0.498,12.0
19.694,0.291,0.394,11.0
19.73,0.297,0.289,4.0
163.432,2.505,1.539,15.0
0.0,0.0,0.0,0.0
19.671,0.311,0.63,8.0
19.694,0.317,0.527,3.0
55.193,0.903,1.187,7.0
55.185,0.917,0.891,46.0
55.177,0.931,0.599,51.0
55.164,0.945,0.308,70.0
55.185,0.961,1.85,71.0
55.178,0.975,1.557,71.0
55.163,0.988,1.265,71.0
55.159,1.002,0.968,65.0
55.176,1.017,0.677,51.0
55.177,1.031,0.385,41.0
55.224,1.047,1.928,4.0
135.556,2.607,4.016,7.0
185.547,3.617,4.515,5.0
179.303,3.544,3.398,28.0
162.868,3.261,2.223,22.0
128.441,2.605,1.074,3.0
135.145,2.781,4.907,9.0
135.325,2.821,4.197,17.0
163.36,3.449,4.201,9.0
179.23,3.832,3.641,35.0
128.9,2.79,1.936,13.0
128.664,2.819,1.251,6.0
51.359,6.511,1.455,10.0
51.432,6.519,1.162,13.0
51.452,6.521,0.867,12.0
51.508,6.528,0.567,11.0
17.971,2.277,0.094,15.0
18.009,2.282,-0.008,7.0
51.368,6.513,1.396,11.0
51.442,6.521,1.102,14.0
51.464,6.523,0.808,13.0
51.52,6.53,0.508,5.0
17.996,2.28,0.074,18.0
18.024,2.284,-0.028,3.0
51.381,6.513,1.338,11.0
51.452,6.52,1.044,14.0
51.493,6.525,0.75,12.0
17.972,2.277,0.157,2.0
17.993,2.279,0.054,16.0
35.869,4.544,-0.098,5.0
51.444,6.517,1.281,11.0
51.492,6.521,0.986,12.0
51.552,6.528,0.692,13.0
17.972,2.275,0.136,5.0
17.993,2.277,0.033,15.0
35.666,4.514,-0.137,12.0
51.5,6.518,1.223,11.0
51.551,6.522,0.929,11.0
51.623,6.53,0.634,13.0
17.97,2.272,0.116,8.0
18.0,2.276,0.012,14.0
35.439,4.48,-0.177,12.0
51.595,6.521,1.166,11.0
51.678,6.529,0.872,13.0
51.685,6.528,0.575,11.0
17.972,2.269,0.095,10.0
18.005,2.273,-0.007,12.0
16.578,2.092,-0.102,16.0
51.697,6.522,1.109,14.0
51.736,6.525,0.813,12.0
51.809,6.532,0.517,9.0
17.98,2.266,0.074,12.0
18.026,2.271,-0.028,11.0
32.829,4.136,-0.239,8.0
51.829,6.525,1.053,13.0
51.851,6.525,0.756,11.0
51.918,6.531,0.459,4.0
17.986,2.262,0.054,13.0
18.022,2.265,-0.049,9.0
32.824,4.125,-0.277,13.0
51.931,6.522,0.995,12.0
51.996,6.527,0.699,11.0
52.085,6.535,0.401,7.0
17.984,2.255,0.033,13.0
17.72,2.222,-0.068,7.0
32.776,4.108,-0.314,4.0
52.093,6.523,0.939,9.0
52.156,6.528,0.642,14.0
52.245,6.536,0.344,12.0
17.993,2.25,0.013,13.0
17.799,2.225,-0.088,7.0
31.049,3.88,-0.332,2.0
52.295,6.528,0.885,12.0
52.362,6.532,0.586,13.0
42.854,5.344,0.234,5.0
17.995,2.242,-0.006,13.0
18.036,2.247,-0.109,7.0
30.387,3.784,-0.359,8.0
52.485,6.528,0.829,12.0
52.565,6.534,0.529,10.0
42.751,5.311,0.185,1.0
18.011,2.236,-0.026,13.0
18.06,2.241,-0.13,7.0
29.66,3.68,-0.383,8.0
52.707,6.529,0.774,13.0
52.763,6.532,0.473,10.0
42.797,5.295,0.139,4.0
18.017,2.228,-0.046,13.0
18.065,2.233,-0.149,10.0
28.36,3.503,-0.397,7.0
52.921,6.527,0.719,12.0
53.002,6.533,0.417,13.0
46.228,5.694,0.099,11.0
18.035,2.22,-0.066,12.0
17.958,2.209,-0.168,11.0
27.345,3.363,-0.413,7.0
53.172,6.527,0.664,13.0
53.251,6.532,0.361,9.0
44.505,5.455,0.047,6.0
18.042,2.21,-0.085,9.0
18.08,2.213,-0.189,13.0
25.888,3.168,-0.419,6.0
53.459,6.529,0.611,13.0
53.552,6.535,0.305,9.0
40.363,4.922,0.0,14.0
18.054,2.2,-0.105,8.0
18.088,2.203,-0.208,14.0
25.576,3.113,-0.441,3.0
39.204,4.117,-0.167,15.0
32.442,3.401,-0.322,8.0
26.779,2.803,-0.417,6.0
23.245,2.429,-0.496,5.0
17.769,1.854,-0.48,18.0
17.348,1.807,-0.567,19.0
39.105,4.055,-0.195,15.0
31.86,3.297,-0.339,9.0
26.375,2.725,-0.43,6.0
22.843,2.356,-0.504,5.0
17.815,1.834,-0.494,20.0
17.381,1.786,-0.58,18.0
39.086,3.998,-0.222,15.0
31.079,3.173,-0.352,9.0
25.658,2.615,-0.436,6.0
22.555,2.294,-0.513,4.0
17.905,1.818,-0.508,16.0
17.418,1.766,-0.593,18.0
38.286,3.862,-0.242,9.0
30.505,3.071,-0.365,9.0
25.299,2.542,-0.446,6.0
22.046,2.211,-0.515,4.0
17.956,1.797,-0.521,19.0
17.524,1.751,-0.608,17.0
36.695,3.648,-0.255,4.0
29.886,2.965,-0.376,8.0
25.022,2.478,-0.456,6.0
21.816,2.156,-0.523,6.0
18.143,1.79,-0.538,18.0
17.634,1.736,-0.622,16.0
35.162,3.444,-0.265,3.0
29.396,2.873,-0.388,8.0
24.716,2.411,-0.465,6.0
21.584,2.101,-0.53,5.0
18.202,1.768,-0.55,17.0
17.716,1.718,-0.635,23.0
34.847,3.361,-0.283,4.0
28.76,2.768,-0.395,8.0
24.487,2.351,-0.475,5.0
21.357,2.047,-0.536,6.0
18.29,1.749,-0.562,16.0
17.738,1.693,-0.645,17.0
34.468,3.272,-0.298,7.0
28.399,2.689,-0.405,8.0
24.22,2.289,-0.482,5.0
21.202,1.999,-0.543,4.0
18.496,1.74,-0.578,16.0
17.712,1.663,-0.653,11.0
34.014,3.176,-0.311,9.0
27.259,2.539,-0.402,21.0
23.786,2.21,-0.485,9.0
20.742,1.923,-0.542,5.0
18.732,1.733,-0.594,10.0
17.598,1.624,-0.658,1.0
33.192,3.046,-0.319,10.0
27.383,2.507,-0.417,7.0
23.694,2.164,-0.494,5.0
20.677,1.884,-0.549,7.0
18.924,1.72,-0.609,27.0
17.347,1.573,-0.656,1.0
31.889,2.875,-0.321,3.0
27.13,2.439,-0.425,7.0
23.505,2.108,-0.5,5.0
20.477,1.832,-0.553,5.0
18.897,1.687,-0.616,16.0
17.283,1.539,-0.66,2.0
31.997,2.832,-0.334,10.0
26.883,2.373,-0.432,7.0
23.263,2.048,-0.504,5.0
19.828,1.741,-0.543,7.0
19.037,1.668,-0.628,3.0
17.248,1.507,-0.665,3.0
31.71,2.754,-0.343,9.0
26.569,2.301,-0.436,7.0
23.365,2.018,-0.515,3.0
19.132,1.648,-0.53,13.0
18.494,1.589,-0.616,3.0
17.166,1.471,-0.668,2.0
31.61,2.691,-0.353,9.0
26.002,2.207,-0.436,6.0
19.792,1.675,-0.442,3.0
19.188,1.62,-0.538,10.0
18.387,1.548,-0.618,2.0
17.077,1.434,-0.67,1.0
31.145,2.598,-0.357,9.0
26.087,2.17,-0.445,6.0
19.789,1.641,-0.448,3.0
19.687,1.628,-0.557,9.0
18.283,1.507,-0.62,1.0
17.032,1.4,-0.673,2.0
31.056,2.537,-0.364,9.0
25.897,2.109,-0.448,6.0
19.769,1.605,-0.452,3.0
19.682,1.593,-0.562,9.0
18.279,1.475,-0.624,2.0
17.005,1.368,-0.676,1.0
30.997,2.477,-0.37,9.0
25.902,2.063,-0.454,6.0
19.762,1.569,-0.456,3.0
19.693,1.559,-0.567,9.0
18.205,1.437,-0.625,2.0
16.95,1.334,-0.677,1.0
30.689,2.398,-0.372,9.0
25.766,2.007,-0.456,6.0
19.736,1.532,-0.459,5.0
19.685,1.523,-0.569,10.0
18.178,1.402,-0.627,2.0
16.931,1.302,-0.679,1.0
30.597,2.335,-0.376,9.0
25.509,1.94,-0.455,6.0
19.733,1.496,-0.462,5.0
19.685,1.487,-0.572,9.0
18.157,1.367,-0.629,2.0
16.923,1.27,-0.68,1.0
30.526,2.275,-0.379,9.0
25.755,1.912,-0.462,6.0
19.749,1.461,-0.464,6.0
19.683,1.451,-0.574,10.0
18.106,1.33,-0.629,1.0
16.924,1.239,-0.682,1.0
30.624,2.226,-0.382,9.0
25.693,1.861,-0.463,6.0
19.849,1.432,-0.468,2.0
19.687,1.415,-0.575,10.0
18.153,1.3,-0.631,2.0
16.912,1.207,-0.682,1.0
30.473,2.159,-0.381,9.0
25.77,1.819,-0.465,6.0
19.769,1.39,-0.466,4.0
19.68,1.379,-0.575,9.0
18.162,1.267,-0.632,2.0
16.944,1.178,-0.683,1.0
30.376,2.096,-0.38,9.0
25.924,1.781,-0.468,6.0
19.766,1.353,-0.466,4.0
19.682,1.341,-0.575,10.0
18.181,1.234,-0.632,2.0
16.937,1.145,-0.682,1.0
30.363,2.037,-0.379,9.0
26.026,1.739,-0.468,6.0
19.796,1.317,-0.466,3.0
19.687,1.305,-0.574,10.0
18.193,1.201,-0.631,2.0
16.968,1.116,-0.682,1.0
30.671,2.0,-0.38,9.0
26.158,1.698,-0.469,6.0
19.8,1.28,-0.464,3.0
19.699,1.268,-0.572,11.0
18.251,1.17,-0.631,3.0
16.991,1.085,-0.682,2.0
30.837,1.953,-0.379,9.0
26.492,1.67,-0.471,6.0
19.818,1.243,-0.462,3.0
19.701,1.231,-0.57,11.0
18.287,1.138,-0.63,3.0
17.003,1.053,-0.679,1.0
31.1,1.91,-0.378,9.0
26.905,1.645,-0.475,7.0
19.865,1.209,-0.46,2.0
19.707,1.194,-0.567,10.0
18.311,1.104,-0.627,3.0
17.033,1.022,-0.677,1.0
31.458,1.872,-0.376,9.0
27.147,1.608,-0.473,4.0
19.939,1.175,-0.457,2.0
19.699,1.155,-0.562,9.0
18.38,1.073,-0.626,3.0
17.058,0.991,-0.674,2.0
31.986,1.842,-0.375,10.0
27.401,1.57,-0.471,5.0
20.001,1.14,-0.454,0.0
19.98,1.133,-0.565,7.0
18.43,1.04,-0.623,3.0
17.108,0.961,-0.672,1.0
32.121,1.788,-0.368,5.0
27.536,1.525,-0.466,2.0
23.776,1.309,-0.533,0.0
20.654,1.132,-0.578,2.0
18.541,1.01,-0.621,3.0
17.135,0.929,-0.668,1.0
32.958,1.771,-0.367,10.0
28.204,1.507,-0.468,4.0
24.127,1.282,-0.533,2.0
20.814,1.1,-0.576,4.0
18.641,0.979,-0.618,3.0
17.195,0.898,-0.664,1.0
0.0,0.0,0.0,0.0
28.377,1.46,-0.461,1.0
23.67,1.211,-0.514,16.0
20.982,1.067,-0.573,1.0
18.768,0.949,-0.615,3.0
17.32,0.871,-0.662,1.0
34.233,1.705,-0.356,11.0
23.672,1.172,-0.375,3.0
23.69,1.166,-0.505,37.0
21.172,1.036,-0.569,1.0
18.93,0.92,-0.612,3.0
17.437,0.843,-0.659,2.0
23.638,1.131,-0.235,42.0
23.624,1.123,-0.364,42.0
23.611,1.116,-0.493,46.0
23.646,1.11,-0.625,1.0
19.227,0.897,-0.613,3.0
17.507,0.812,-0.654,2.0
23.612,1.084,-0.224,74.0
23.617,1.077,-0.353,76.0
23.625,1.07,-0.482,87.0
21.734,0.978,-0.564,2.0
19.527,0.873,-0.613,2.0
17.742,0.788,-0.653,4.0
23.635,1.039,-0.212,47.0
23.645,1.032,-0.341,47.0
23.656,1.025,-0.47,38.0
22.198,0.955,-0.564,3.0
19.712,0.842,-0.608,2.0
17.893,0.759,-0.649,3.0
37.674,1.582,-0.318,0.0
30.125,1.255,-0.418,1.0
26.683,1.104,-0.515,2.0
0.0,0.0,0.0,0.0
19.847,0.809,-0.601,2.0
18.077,0.732,-0.645,3.0
39.931,1.598,-0.314,1.0
30.684,1.219,-0.408,0.0
27.053,1.066,-0.506,6.0
23.189,0.907,-0.562,5.0
20.021,0.777,-0.594,1.0
18.312,0.705,-0.642,3.0
39.763,1.514,-0.288,2.0
31.81,1.202,-0.403,0.0
27.478,1.03,-0.496,4.0
23.562,0.876,-0.556,1.0
20.341,0.75,-0.59,1.0
18.441,0.674,-0.635,2.0
39.984,1.445,-0.263,21.0
40.166,1.439,-0.481,1.0
27.83,0.989,-0.484,2.0
24.05,0.847,-0.551,0.0
20.967,0.732,-0.593,2.0
18.963,0.656,-0.639,2.0
40.035,1.369,-0.235,38.0
40.096,1.359,-0.452,1.0
28.655,0.963,-0.478,2.0
24.624,0.819,-0.546,1.0
21.371,0.705,-0.589,3.0
19.246,0.629,-0.635,1.0
40.07,1.293,-0.206,82.0
40.166,1.284,-0.423,2.0
28.945,0.916,-0.461,2.0
25.278,0.792,-0.541,6.0
21.714,0.674,-0.582,1.0
19.334,0.594,-0.623,1.0
40.113,1.217,-0.175,109.0
36.419,1.094,-0.355,2.0
27.448,0.816,-0.415,7.0
25.712,0.756,-0.53,1.0
22.041,0.641,-0.573,0.0
19.942,0.574,-0.626,0.0
40.131,1.141,-0.143,150.0
36.876,1.037,-0.33,2.0
27.457,0.763,-0.393,0.0
26.095,0.717,-0.516,3.0
22.537,0.612,-0.567,0.0
20.867,0.561,-0.637,1.0
40.135,1.063,-0.108,155.0
0.0,0.0,0.0,0.0
31.477,0.814,-0.423,1.0
26.757,0.684,-0.506,0.0
23.062,0.583,-0.56,0.0
22.672,0.566,-0.672,2.0
45.458,1.118,-0.083,46.0
39.725,0.965,-0.285,2.0
32.35,0.776,-0.406,0.0
28.578,0.676,-0.514,0.0
24.289,0.567,-0.567,0.0
23.742,0.547,-0.682,0.0
52.789,1.197,-0.047,1.0
41.075,0.919,-0.257,1.0
34.473,0.761,-0.4,1.0
29.232,0.636,-0.498,6.0
26.703,0.573,-0.598,0.0
24.731,0.523,-0.687,0.0
55.077,1.146,0.003,12.0
43.043,0.883,-0.227,0.0
34.603,0.699,-0.368,2.0
29.581,0.588,-0.475,0.0
28.432,0.557,-0.609,0.0
25.119,0.485,-0.673,0.0
55.173,1.046,0.057,52.0
44.784,0.835,-0.192,0.0
35.94,0.659,-0.346,0.0
32.453,0.585,-0.489,1.0
29.054,0.515,-0.593,0.0
26.077,0.455,-0.671,0.0
55.198,0.944,0.114,35.0
52.414,0.88,-0.17,1.0
0.0,0.0,0.0,0.0
19.677,0.318,-0.275,2.0
19.696,0.313,-0.381,1.0
19.735,0.307,-0.487,0.0
0.0,0.0,0.0,0.0
19.717,0.294,-0.042,0.0
19.676,0.288,-0.147,10.0
19.647,0.282,-0.254,16.0
19.66,0.276,-0.359,14.0
19.676,0.27,-0.464,17.0
19.766,0.265,0.083,0.0
19.704,0.258,-0.021,2.0
19.647,0.252,-0.125,15.0
19.625,0.246,-0.231,17.0
19.645,0.24,-0.336,14.0
19.661,0.234,-0.441,23.0
19.754,0.229,0.106,12.0
19.664,0.222,0.001,13.0
19.636,0.216,-0.103,16.0
