X,Y,Z,Reflectivity
21.992,-1.517,-0.759,0.0
19.87,-1.367,-0.792,0.0
18.211,-1.249,-0.822,0.0
16.702,-1.142,-0.842,0.0
28.804,-1.966,-0.651,0.0
25.216,-1.716,-0.703,0.0
22.509,-1.526,-0.745,0.0
20.429,-1.381,-0.786,0.0
18.553,-1.25,-0.812,0.0
17.016,-1.143,-0.834,0.0
29.943,-2.007,-0.635,0.0
25.821,-1.725,-0.683,0.0
23.419,-1.56,-0.743,0.0
20.961,-1.391,-0.777,0.0
19.094,-1.263,-0.809,0.0
17.575,-1.159,-0.837,0.0
30.195,-1.987,-0.599,0.0
26.989,-1.769,-0.677,0.0
23.907,-1.562,-0.725,0.0
21.23,-1.382,-0.758,0.0
19.719,-1.279,-0.808,0.0
17.926,-1.159,-0.829,0.0
0.0,0.0,0.0,0.0
27.826,-1.788,-0.66,0.0
0.0,0.0,0.0,0.0
22.065,-1.407,-0.758,0.0
20.088,-1.277,-0.796,0.0
18.177,-1.151,-0.816,0.0
33.041,-2.087,-0.565,0.0
0.0,0.0,0.0,0.0
25.555,-1.602,-0.706,0.0
22.784,-1.423,-0.752,0.0
20.509,-1.276,-0.785,0.0
18.722,-1.16,-0.815,0.0
34.018,-2.103,-0.537,0.0
29.797,-1.835,-0.627,0.0
26.397,-1.619,-0.694,0.0
23.369,-1.427,-0.74,0.0
20.84,-1.268,-0.77,0.0
19.189,-1.163,-0.81,0.0
0.0,0.0,0.0,0.0
30.39,-1.829,-0.6,0.0
27.486,-1.647,-0.687,0.0
23.924,-1.427,-0.727,0.0
21.482,-1.276,-0.766,0.0
19.648,-1.163,-0.804,0.0
37.575,-2.217,-0.495,0.0
31.33,-1.84,-0.578,0.0
0.0,0.0,0.0,0.0
24.565,-1.43,-0.715,0.0
22.054,-1.279,-0.758,0.0
20.063,-1.158,-0.796,0.0
39.292,-2.262,-0.468,0.0
32.172,-1.843,-0.553,0.0
28.916,-1.649,-0.649,0.0
25.546,-1.45,-0.711,0.0
22.65,-1.279,-0.75,0.0
20.448,-1.15,-0.785,0.0
40.806,-2.288,-0.435,0.0
34.306,-1.914,-0.547,0.0
29.755,-1.652,-0.631,0.0
26.32,-1.454,-0.7,0.0
23.14,-1.272,-0.738,0.0
20.82,-1.139,-0.774,0.0
0.0,0.0,0.0,0.0
35.136,-1.906,-0.516,0.0
30.525,-1.648,-0.61,0.0
26.886,-1.444,-0.682,0.0
23.644,-1.263,-0.725,0.0
21.346,-1.134,-0.768,0.0
0.0,0.0,0.0,0.0
37.4,-1.97,-0.504,0.0
11.233,-0.588,-0.211,0.0
27.657,-1.441,-0.668,0.0
24.331,-1.261,-0.717,0.0
21.837,-1.125,-0.759,0.0
0.0,0.0,0.0,0.0
0.0,0.0,0.0,0.0
32.306,-1.64,-0.568,0.0
0.0,0.0,0.0,0.0
25.149,-1.262,-0.711,0.0
22.359,-1.116,-0.751,0.0
0.0,0.0,0.0,0.0
0.0,0.0,0.0,0.0
0.0,0.0,0.0,0.0
0.0,0.0,0.0,0.0
25.815,-1.253,-0.7,0.0
22.944,-1.106,-0.744,0.0
0.0,0.0,0.0,0.0
0.0,0.0,0.0,0.0
0.0,0.0,0.0,0.0
30.086,-1.418,-0.623,0.0
26.406,-1.237,-0.687,0.0
23.549,-1.096,-0.737,0.0
0.0,0.0,0.0,0.0
44.419,-2.045,-0.394,0.0
36.271,-1.659,-0.514,0.0
30.52,-1.387,-0.598,0.0
27.401,-1.236,-0.682,0.0
24.302,-1.089,-0.734,0.0
55.792,-2.49,-0.138,0.0
45.447,-2.014,-0.354,0.0
0.0,0.0,0.0,0.0
31.719,-1.386,-0.587,0.0
27.781,-1.205,-0.662,0.0
24.48,-1.054,-0.713,0.0
0.0,0.0,0.0,0.0
0.0,0.0,0.0,0.0
0.0,0.0,0.0,0.0
32.58,-1.366,-0.569,0.0
28.378,-1.181,-0.647,0.0
25.393,-1.049,-0.714,0.0
0.0,0.0,0.0,0.0
0.0,0.0,0.0,0.0
41.648,-1.684,-0.459,0.0
0.0,0.0,0.0,0.0
0.0,0.0,0.0,0.0
25.575,-1.01,-0.693,0.0
0.0,0.0,0.0,0.0
0.0,0.0,0.0,0.0
0.0,0.0,0.0,0.0
0.0,0.0,0.0,0.0
29.911,-1.137,-0.622,0.0
26.646,-1.004,-0.696,0.0
0.0,0.0,0.0,0.0
53.784,-1.997,-0.2,0.0
0.0,0.0,0.0,0.0
35.337,-1.289,-0.512,0.0
30.555,-1.104,-0.606,0.0
27.042,-0.969,-0.68,0.0
0.0,0.0,0.0,0.0
0.0,0.0,0.0,0.0
0.0,0.0,0.0,0.0
37.334,-1.292,-0.506,0.0
31.678,-1.087,-0.599,0.0
28.026,-0.952,-0.68,1.0
0.0,0.0,0.0,0.0
0.0,0.0,0.0,0.0
0.0,0.0,0.0,0.0
38.273,-1.253,-0.485,0.0
32.075,-1.039,-0.578,0.0
27.936,-0.896,-0.653,0.0
0.0,0.0,0.0,0.0
0.0,0.0,0.0,0.0
0.0,0.0,0.0,0.0
0.0,0.0,0.0,0.0
32.566,-0.993,-0.559,0.0
28.946,-0.873,-0.651,0.0
0.0,0.0,0.0,0.0
0.0,0.0,0.0,0.0
0.0,0.0,0.0,0.0
0.0,0.0,0.0,0.0
0.0,0.0,0.0,0.0
28.806,-0.813,-0.624,1.0
160.688,-4.5,0.965,5.0
0.0,0.0,0.0,0.0
0.0,0.0,0.0,0.0
0.0,0.0,0.0,0.0
35.403,-0.942,-0.55,0.0
30.363,-0.798,-0.634,0.0
0.0,0.0,0.0,0.0
0.0,0.0,0.0,0.0
0.0,0.0,0.0,0.0
0.0,0.0,0.0,0.0
0.0,0.0,0.0,0.0
29.932,-0.727,-0.602,0.0
160.757,-3.864,1.216,11.0
0.0,0.0,0.0,0.0
0.0,0.0,0.0,0.0
0.0,0.0,0.0,0.0
0.0,0.0,0.0,0.0
31.447,-0.701,-0.61,0.0
0.0,0.0,0.0,0.0
0.0,0.0,0.0,0.0
0.0,0.0,0.0,0.0
45.155,-0.947,-0.358,0.0
36.682,-0.757,-0.488,0.0
31.675,-0.642,-0.592,0.0
163.374,-3.269,1.466,15.0
0.0,0.0,0.0,0.0
0.0,0.0,0.0,0.0
0.0,0.0,0.0,0.0
37.825,-0.704,-0.479,0.0
32.234,-0.589,-0.582,0.0
163.185,-2.936,1.571,29.0
0.0,0.0,0.0,0.0
0.0,0.0,0.0,0.0
0.0,0.0,0.0,0.0
0.0,0.0,0.0,0.0
0.0,0.0,0.0,0.0
19.774,-0.315,0.202,1.0
19.747,-0.307,0.095,18.0
0.0,0.0,0.0,0.0
0.0,0.0,0.0,0.0
40.838,-0.592,-0.467,0.0
32.985,-0.467,-0.555,0.0
19.761,-0.273,0.214,27.0
19.753,-0.266,0.107,19.0
0.0,0.0,0.0,0.0
0.0,0.0,0.0,0.0
0.0,0.0,0.0,0.0
34.025,-0.411,-0.554,0.0
19.756,-0.232,0.225,9.0
160.782,-1.837,0.961,6.0
0.0,0.0,0.0,0.0
0.0,0.0,0.0,0.0
19.769,-0.204,-0.204,0.0
19.78,-0.198,-0.311,2.0
169.547,-1.644,2.018,16.0
160.737,-1.502,1.042,15.0
0.0,0.0,0.0,0.0
19.761,-0.171,-0.087,9.0
19.745,-0.163,-0.194,15.0
19.735,-0.156,-0.301,16.0
169.468,-1.291,2.097,12.0
160.731,-1.166,1.118,16.0
19.755,-0.136,0.03,7.0
19.731,-0.129,-0.078,10.0
19.717,-0.122,-0.185,17.0
19.741,-0.115,-0.293,16.0
19.695,-0.108,0.252,9.0
19.706,-0.101,0.145,13.0
19.701,-0.094,0.038,13.0
19.715,-0.087,-0.07,11.0
19.721,-0.081,-0.177,16.0
19.75,-0.074,-0.285,15.0
19.658,-0.067,0.259,11.0
19.701,-0.06,0.153,17.0
19.699,-0.053,0.046,15.0
19.709,-0.046,-0.062,15.0
19.74,-0.039,-0.17,13.0
19.782,-0.032,-0.278,0.0
19.636,-0.025,0.266,13.0
19.727,-0.018,0.16,6.0
19.732,-0.011,0.053,6.0
19.739,-0.004,-0.056,8.0
19.778,0.002,-0.163,0.0
19.77,0.009,-0.271,1.0
19.641,0.016,0.273,15.0
19.742,0.023,0.167,20.0
19.748,0.03,0.059,12.0
19.754,0.037,-0.05,60.0
19.755,0.044,-0.157,34.0
19.766,0.051,-0.265,39.0
19.621,0.058,0.278,13.0
19.65,0.065,0.172,12.0
19.712,0.072,0.064,18.0
19.738,0.079,-0.044,12.0
19.749,0.086,-0.152,1.0
37.687,0.177,-0.496,0.0
19.615,0.099,0.283,15.0
19.664,0.107,0.177,15.0
19.647,0.113,0.069,12.0
19.642,0.12,-0.039,13.0
19.67,0.127,-0.147,9.0
19.746,0.135,-0.255,0.0
19.641,0.141,0.288,12.0
19.663,0.149,0.181,14.0
19.653,0.156,0.073,12.0
19.632,0.162,-0.035,16.0
19.639,0.169,-0.143,16.0
19.653,0.176,-0.25,16.0
19.691,0.184,0.292,8.0
19.693,0.191,0.184,10.0
19.689,0.198,0.077,12.0
19.648,0.205,-0.032,11.0
19.629,0.211,-0.14,16.0
19.66,0.218,-0.248,18.0
19.736,0.227,0.296,12.0
19.754,0.234,0.188,28.0
19.758,0.241,0.079,1.0
19.679,0.247,-0.03,0.0
19.656,0.254,-0.138,15.0
19.662,0.261,-0.245,16.0
19.726,0.27,0.298,14.0
19.779,0.277,0.19,5.0
0.0,0.0,0.0,0.0
55.019,0.809,-0.08,2.0
44.804,0.674,-0.311,0.0
19.736,0.304,-0.245,0.0
55.176,0.873,0.837,2.0
55.204,0.892,0.534,28.0
55.18,0.91,0.231,45.0
55.117,0.929,-0.077,15.0
41.498,0.713,-0.286,2.0
32.971,0.578,-0.408,0.0
55.177,0.991,0.839,61.0
55.18,1.01,0.535,43.0
55.19,1.029,0.232,28.0
55.157,1.047,-0.076,16.0
41.149,0.796,-0.283,1.0
34.024,0.669,-0.422,4.0
163.464,3.287,2.485,19.0
162.405,3.32,1.574,17.0
83.097,1.728,0.348,4.0
52.359,1.106,-0.074,1.0
41.082,0.881,-0.284,1.0
34.036,0.742,-0.423,1.0
128.765,2.861,1.951,27.0
70.937,1.601,0.684,15.0
74.795,1.714,0.308,3.0
0.0,0.0,0.0,0.0
0.0,0.0,0.0,0.0
32.985,0.789,-0.413,1.0
121.221,2.951,1.827,2.0
70.818,1.748,0.676,37.0
70.473,1.763,0.284,17.0
0.0,0.0,0.0,0.0
40.004,1.027,-0.284,16.0
40.168,1.045,-0.507,0.0
0.0,0.0,0.0,0.0
0.0,0.0,0.0,0.0
41.937,1.138,0.163,150.0
40.135,1.102,-0.069,157.0
40.0,1.112,-0.29,15.0
40.182,1.13,-0.513,1.0
40.125,1.146,0.593,150.0
40.133,1.159,0.371,128.0
40.124,1.173,0.149,140.0
40.127,1.186,-0.076,150.0
39.989,1.195,-0.297,14.0
40.167,1.213,-0.521,2.0
40.128,1.231,0.586,150.0
40.135,1.244,0.363,115.0
40.123,1.257,0.141,150.0
40.123,1.27,-0.084,150.0
39.966,1.278,-0.306,9.0
40.16,1.298,-0.53,3.0
40.12,1.314,0.576,65.0
40.118,1.327,0.354,6.0
63.83,2.133,0.209,21.0
40.132,1.354,-0.094,150.0
39.943,1.361,-0.316,6.0
40.173,1.381,-0.54,1.0
161.988,5.644,2.285,30.0
71.169,2.503,0.608,15.0
44.267,1.57,0.133,2.0
40.108,1.436,-0.106,35.0
39.648,1.432,-0.325,2.0
31.672,1.154,-0.435,0.0
43.587,1.609,0.601,126.0
43.346,1.613,0.357,150.0
0.0,0.0,0.0,0.0
40.372,1.528,-0.119,28.0
37.503,1.432,-0.32,1.0
30.259,1.165,-0.426,1.0
40.393,1.574,0.543,141.0
40.394,1.587,0.318,116.0
40.328,1.597,0.094,129.0
40.334,1.61,-0.134,150.0
37.252,1.499,-0.331,1.0
29.951,1.215,-0.433,1.0
100.548,4.125,1.315,8.0
23.626,0.976,0.177,0.0
45.186,1.882,0.087,14.0
23.625,0.991,-0.088,25.0
23.654,0.999,-0.22,39.0
23.638,1.006,-0.351,48.0
23.613,1.016,0.299,48.0
23.609,1.023,0.167,44.0
23.604,1.03,0.035,49.0
23.6,1.037,-0.098,60.0
23.608,1.045,-0.229,70.0
23.603,1.052,-0.361,67.0
23.596,1.063,0.288,76.0
23.603,1.071,0.156,73.0
23.592,1.077,0.025,61.0
23.602,1.084,-0.109,61.0
23.611,1.092,-0.24,61.0
23.609,1.099,-0.372,50.0
23.618,1.111,0.277,40.0
23.629,1.119,0.145,38.0
23.64,1.126,0.013,37.0
23.647,1.133,-0.121,35.0
23.629,1.14,-0.253,16.0
23.649,1.147,-0.385,4.0
132.287,6.483,1.486,4.0
62.263,3.069,0.351,6.0
45.179,2.24,0.002,40.0
40.321,2.011,-0.227,38.0
33.739,1.693,-0.379,6.0
28.346,1.431,-0.477,1.0
99.786,5.086,1.065,15.0
45.218,2.318,0.229,4.0
45.184,2.329,-0.023,24.0
40.274,2.087,-0.25,25.0
0.0,0.0,0.0,0.0
28.146,1.476,-0.49,3.0
45.222,2.393,0.456,75.0
45.207,2.405,0.202,50.0
45.203,2.417,-0.05,7.0
40.068,2.154,-0.273,15.0
31.716,1.714,-0.394,6.0
27.214,1.478,-0.49,3.0
119.936,6.575,1.137,2.0
45.175,2.488,0.174,25.0
40.324,2.233,-0.07,36.0
0.0,0.0,0.0,0.0
31.169,1.743,-0.407,9.0
26.657,1.499,-0.497,1.0
99.69,5.653,0.88,9.0
45.175,2.574,0.145,43.0
40.332,2.309,-0.096,45.0
37.362,2.149,-0.303,5.0
30.167,1.744,-0.414,8.0
26.091,1.516,-0.504,1.0
45.223,2.649,0.368,14.0
45.165,2.658,0.114,47.0
40.322,2.384,-0.124,45.0
35.727,2.122,-0.314,7.0
29.595,1.765,-0.427,8.0
25.354,1.52,-0.508,1.0
112.394,6.791,0.836,6.0
45.183,2.742,0.081,48.0
40.328,2.458,-0.153,46.0
35.057,2.146,-0.334,9.0
28.95,1.78,-0.439,7.0
25.037,1.546,-0.52,1.0
45.225,2.814,0.302,7.0
45.173,2.822,0.048,48.0
40.33,2.53,-0.184,53.0
0.0,0.0,0.0,0.0
28.151,1.781,-0.448,7.0
24.61,1.563,-0.53,4.0
53.94,3.452,0.319,3.0
45.178,2.903,0.013,95.0
40.32,2.601,-0.215,39.0
0.0,0.0,0.0,0.0
27.438,1.784,-0.458,7.0
24.144,1.576,-0.539,2.0
45.12,2.967,0.231,83.0
40.325,2.661,-0.02,15.0
40.136,2.659,-0.246,19.0
31.561,2.099,-0.375,9.0
26.663,1.78,-0.467,6.0
19.925,1.335,-0.461,2.0
42.11,2.842,0.181,5.0
40.328,2.731,-0.054,35.0
0.0,0.0,0.0,0.0
30.665,2.091,-0.39,9.0
25.998,1.78,-0.477,6.0
19.766,1.358,-0.474,6.0
42.552,2.944,0.146,17.0
40.33,2.799,-0.088,42.0
36.746,2.56,-0.288,6.0
29.948,2.093,-0.407,8.0
25.305,1.775,-0.487,6.0
19.991,1.407,-0.498,9.0
41.038,2.908,0.105,3.0
40.321,2.866,-0.124,45.0
35.679,2.545,-0.312,10.0
29.063,2.08,-0.421,8.0
24.776,1.779,-0.499,5.0
19.711,1.42,-0.509,7.0
40.326,2.924,0.066,48.0
40.324,2.933,-0.161,45.0
33.735,2.461,-0.326,7.0
28.107,2.057,-0.433,7.0
24.28,1.783,-0.512,5.0
19.703,1.451,-0.527,9.0
40.331,2.989,0.028,43.0
40.314,2.996,-0.199,33.0
32.826,2.447,-0.348,8.0
27.232,2.036,-0.446,7.0
23.798,1.785,-0.524,3.0
19.71,1.483,-0.546,9.0
41.918,3.172,-0.01,139.0
41.746,3.169,-0.247,4.0
31.806,2.421,-0.368,9.0
26.268,2.005,-0.455,6.0
19.848,1.52,-0.456,2.0
19.708,1.514,-0.565,10.0
0.0,0.0,0.0,0.0
37.409,2.897,-0.258,4.0
30.685,2.383,-0.385,9.0
25.518,1.987,-0.468,6.0
19.716,1.54,-0.473,7.0
19.681,1.541,-0.584,8.0
40.099,3.157,-0.09,58.0
0.0,0.0,0.0,0.0
29.344,2.323,-0.399,8.0
24.755,1.964,-0.479,6.0
19.703,1.568,-0.493,9.0
19.424,1.55,-0.597,4.0
40.101,3.216,-0.131,71.0
34.804,2.798,-0.311,5.0
28.567,2.302,-0.418,7.0
24.26,1.96,-0.495,5.0
19.697,1.596,-0.513,8.0
18.964,1.54,-0.602,7.0
40.075,3.271,-0.173,48.0
32.95,2.697,-0.33,10.0
27.574,2.262,-0.432,7.0
23.935,1.968,-0.514,5.0
19.705,1.625,-0.535,9.0
18.714,1.547,-0.615,5.0
39.963,3.319,-0.216,24.0
31.782,2.645,-0.352,9.0
26.434,2.205,-0.443,6.0
19.862,1.661,-0.448,2.0
19.168,1.607,-0.541,13.0
18.381,1.545,-0.624,2.0
39.796,3.359,-0.259,2.0
30.514,2.581,-0.372,8.0
25.538,2.165,-0.456,6.0
19.714,1.675,-0.466,8.0
19.054,1.623,-0.559,11.0
18.048,1.541,-0.633,2.0
36.048,3.091,-0.274,4.0
29.592,2.543,-0.394,8.0
24.964,2.15,-0.474,6.0
19.704,1.701,-0.489,9.0
19.001,1.643,-0.579,10.0
17.705,1.535,-0.641,1.0
34.743,3.024,-0.304,11.0
28.501,2.486,-0.412,7.0
24.243,2.119,-0.489,8.0
20.789,1.821,-0.539,4.0
18.962,1.664,-0.6,18.0
17.497,1.539,-0.653,2.0
32.758,2.893,-0.325,10.0
27.347,2.419,-0.427,7.0
23.581,2.09,-0.502,5.0
20.538,1.824,-0.557,6.0
18.931,1.685,-0.621,20.0
17.282,1.541,-0.666,1.0
31.58,2.827,-0.35,9.0
26.076,2.339,-0.438,6.0
22.786,2.047,-0.512,5.0
19.935,1.795,-0.564,5.0
18.586,1.677,-0.632,11.0
17.018,1.538,-0.676,1.0
30.095,2.73,-0.37,8.0
25.349,2.303,-0.456,6.0
22.098,2.012,-0.523,6.0
19.22,1.753,-0.567,8.0
17.922,1.638,-0.631,12.0
16.807,1.539,-0.688,1.0
0.0,0.0,0.0,0.0
24.615,2.264,-0.472,5.0
21.464,1.978,-0.535,4.0
18.822,1.738,-0.578,13.0
17.779,1.644,-0.648,10.0
16.629,1.541,-0.701,1.0
27.456,2.552,-0.404,9.0
23.943,2.229,-0.489,5.0
0.0,0.0,0.0,0.0
18.381,1.717,-0.587,15.0
17.665,1.653,-0.665,7.0
16.442,1.541,-0.713,1.0
26.683,2.508,-0.426,7.0
23.052,2.17,-0.499,5.0
18.897,1.782,-0.517,15.0
18.057,1.705,-0.599,13.0
17.519,1.657,-0.682,2.0
16.218,1.537,-0.724,1.0
25.727,2.445,-0.442,6.0
22.301,2.122,-0.511,4.0
18.62,1.774,-0.533,17.0
17.843,1.703,-0.615,22.0
17.223,1.647,-0.692,1.0
15.953,1.528,-0.732,5.0
24.889,2.389,-0.459,6.0
21.732,2.089,-0.525,6.0
18.231,1.755,-0.545,16.0
17.72,1.709,-0.633,22.0
16.929,1.635,-0.702,1.0
15.927,1.54,-0.752,5.0
24.214,2.347,-0.478,5.0
21.285,2.066,-0.542,3.0
18.063,1.756,-0.563,16.0
17.486,1.702,-0.647,15.0
16.413,1.6,-0.702,1.0
15.627,1.526,-0.758,0.0
23.336,2.283,-0.491,5.0
18.497,1.812,-0.495,12.0
17.763,1.742,-0.577,15.0
17.318,1.701,-0.663,12.0
16.167,1.59,-0.712,1.0
15.034,1.481,-0.749,0.0
22.608,2.231,-0.505,5.0
18.038,1.782,-0.506,17.0
17.619,1.743,-0.595,17.0
17.115,1.695,-0.678,12.0
15.984,1.585,-0.725,4.0
14.691,1.459,-0.75,0.0
21.88,2.177,-0.517,7.0
17.786,1.771,-0.522,18.0
17.444,1.739,-0.612,15.0
16.946,1.692,-0.693,14.0
15.927,1.592,-0.743,4.0
14.509,1.452,-0.76,0.0
21.536,2.159,-0.536,1.0
17.706,1.777,-0.542,18.0
17.336,1.742,-0.631,15.0
16.673,1.677,-0.704,10.0
15.832,1.594,-0.759,1.0
14.301,1.442,-0.768,0.0
18.222,1.84,-0.478,17.0
17.592,1.778,-0.562,17.0
17.144,1.734,-0.646,13.0
16.382,1.659,-0.713,6.0
15.192,1.541,-0.749,0.0
14.124,1.434,-0.777,0.0
17.909,1.82,-0.493,22.0
17.394,1.769,-0.579,15.0
16.956,1.727,-0.661,13.0
16.03,1.634,-0.719,9.0
14.787,1.509,-0.748,0.0
13.917,1.422,-0.784,0.0
17.729,1.813,-0.511,20.0
17.266,1.767,-0.597,17.0
16.818,1.723,-0.678,12.0
15.948,1.635,-0.736,8.0
14.631,1.502,-0.76,0.0
13.64,1.402,-0.787,0.0
17.628,1.813,-0.532,20.0
17.06,1.756,-0.613,14.0
16.755,1.726,-0.698,11.0
15.842,1.634,-0.752,1.0
14.298,1.476,-0.761,0.0
13.432,1.388,-0.792,0.0
17.479,1.807,-0.55,19.0
16.905,1.749,-0.629,14.0
16.486,1.707,-0.708,8.0
17.708,1.835,-0.865,0.0
17.66,1.832,-0.964,0.0
13.2,1.371,-0.796,0.0
17.331,1.8,-0.568,19.0
16.783,1.745,-0.647,13.0
16.154,1.681,-0.715,11.0
14.873,1.548,-0.746,0.0
17.718,1.846,-0.99,0.0
13.124,1.369,-0.809,0.0
17.198,1.794,-0.587,18.0
16.699,1.743,-0.666,13.0
16.011,1.673,-0.73,9.0
14.665,1.533,-0.755,0.0
13.683,1.432,-0.783,0.0
12.817,1.342,-0.807,0.0
16.971,1.777,-0.602,17.0
16.62,1.742,-0.685,12.0
16.016,1.679,-0.752,2.0
17.729,1.86,-0.936,0.0
13.489,1.416,-0.79,0.0
12.646,1.329,-0.813,0.0
16.808,1.766,-0.618,17.0
16.43,1.727,-0.699,11.0
0.0,0.0,0.0,0.0
17.633,1.856,-0.954,0.0
13.269,1.398,-0.794,0.0
12.48,1.316,-0.819,0.0
16.726,1.763,-0.637,18.0
16.239,1.712,-0.711,12.0
17.721,1.87,-0.878,0.0
17.667,1.865,-0.979,0.0
13.115,1.385,-0.802,0.0
12.294,1.3,-0.823,0.0
16.67,1.761,-0.656,17.0
16.015,1.693,-0.722,12.0
17.725,1.875,-0.901,0.0
17.696,1.873,-1.004,0.0
12.814,1.357,-0.8,0.0
12.105,1.282,-0.826,0.0
16.609,1.758,-0.675,15.0
16.024,1.697,-0.744,4.0
17.705,1.876,-0.923,0.0
13.571,1.439,-0.787,0.0
12.694,1.347,-0.81,0.0
11.851,1.258,-0.824,0.0
16.401,1.739,-0.688,13.0
16.605,1.762,-0.792,2.0
17.666,1.875,-0.944,0.0
13.311,1.413,-0.789,0.0
12.488,1.327,-0.813,0.0
11.662,1.24,-0.826,0.0
16.263,1.727,-0.703,12.0
17.595,1.869,-0.862,0.0
17.539,1.864,-0.96,0.0
13.144,1.397,-0.796,0.0
12.386,1.317,-0.822,0.0
11.521,1.226,-0.831,0.0
16.076,1.708,-0.716,11.0
17.679,1.879,-0.888,0.0
17.639,1.876,-0.988,0.0
12.864,1.368,-0.796,0.0
12.194,1.297,-0.825,0.0
11.341,1.207,-0.832,0.0
15.952,1.696,-0.73,9.0
17.715,1.884,-0.912,0.0
13.619,1.448,-0.78,0.0
12.738,1.355,-0.804,0.0
11.971,1.274,-0.825,0.0
11.143,1.186,-0.832,0.0
16.139,1.716,-0.758,2.0
17.663,1.878,-0.932,0.0
13.408,1.426,-0.784,0.0
12.606,1.341,-0.811,0.0
11.797,1.255,-0.827,0.0
10.986,1.169,-0.834,0.0
0.0,0.0,0.0,0.0
17.607,1.871,-0.951,0.0
13.212,1.404,-0.789,0.0
12.455,1.324,-0.817,0.0
11.59,1.232,-0.827,0.0
10.884,1.158,-0.839,0.0
17.671,1.876,-0.874,0.0
17.618,1.871,-0.973,0.0
13.038,1.384,-0.795,0.0
12.322,1.308,-0.823,0.0
11.42,1.213,-0.829,0.0
10.723,1.139,-0.84,0.0
17.726,1.88,-0.898,0.0
13.766,1.46,-0.776,0.0
12.87,1.365,-0.8,0.0
12.127,1.286,-0.825,0.0
11.209,1.189,-0.827,0.0
10.611,1.126,-0.844,0.0
17.746,1.878,-0.92,0.0
13.658,1.446,-0.786,0.0
12.713,1.346,-0.805,0.0
11.96,1.266,-0.828,0.0
11.075,1.172,-0.83,0.0
10.489,1.11,-0.847,0.0
17.682,1.868,-0.938,0.0
13.441,1.42,-0.79,0.0
12.593,1.33,-0.812,0.0
11.756,1.242,-0.827,0.0
10.988,1.161,-0.837,0.0
10.429,1.102,-0.854,0.0
17.611,1.855,-0.954,0.0
13.219,1.393,-0.792,0.0
12.425,1.309,-0.816,0.0
11.598,1.222,-0.83,0.0
10.869,1.145,-0.84,0.0
10.26,1.081,-0.852,0.0
17.659,1.855,-0.977,0.0
13.079,1.374,-0.799,0.0
12.211,1.282,-0.816,0.0
11.384,1.195,-0.827,0.0
10.794,1.133,-0.847,0.0
10.172,1.068,-0.856,0.0
13.716,1.436,-0.774,0.0
12.934,1.354,-0.804,0.0
12.084,1.265,-0.821,0.0
11.257,1.178,-0.83,0.0
10.648,1.114,-0.847,0.0
10.106,1.057,-0.862,0.0
13.664,1.425,-0.786,0.0
12.719,1.326,-0.805,0.0
11.85,1.235,-0.818,0.0
11.107,1.158,-0.832,0.0
10.464,1.09,-0.844,0.0
10.0,1.042,-0.864,0.0
13.434,1.395,-0.787,0.0
12.604,1.309,-0.811,0.0
11.772,1.222,-0.825,0.0
11.049,1.147,-0.839,0.0
10.437,1.083,-0.853,0.0
9.917,1.029,-0.867,0.0
13.338,1.379,-0.796,0.0
12.441,1.286,-0.813,0.0
11.727,1.212,-0.834,0.0
10.929,1.129,-0.841,0.0
10.325,1.066,-0.854,0.0
9.836,1.015,-0.87,0.0
13.097,1.348,-0.795,0.0
12.392,1.274,-0.823,0.0
11.632,1.196,-0.839,0.0
10.828,1.113,-0.845,0.0
10.227,1.051,-0.856,0.0
9.726,0.999,-0.871,0.0
12.952,1.326,-0.799,0.0
12.179,1.246,-0.821,0.0
11.362,1.162,-0.831,0.0
10.668,1.09,-0.842,0.0
10.171,1.039,-0.862,0.0
9.655,0.986,-0.874,0.0
12.823,1.305,-0.803,0.0
12.029,1.223,-0.822,0.0
11.225,1.141,-0.832,0.0
10.581,1.075,-0.846,0.0
10.092,1.025,-0.865,0.0
9.57,0.971,-0.875,0.0
12.72,1.286,-0.809,0.0
11.966,1.209,-0.829,0.0
11.144,1.125,-0.836,0.0
10.528,1.063,-0.852,0.0
9.997,1.009,-0.866,0.0
9.53,0.961,-0.881,0.0
12.646,1.27,-0.816,0.0
11.737,1.178,-0.824,0.0
10.969,1.1,-0.833,0.0
10.413,1.044,-0.852,0.0
9.953,0.997,-0.871,0.0
9.438,0.945,-0.881,0.0
12.417,1.239,-0.812,0.0
11.595,1.156,-0.825,0.0
10.974,1.093,-0.843,0.0
10.355,1.031,-0.856,0.0
9.864,0.981,-0.872,0.0
9.363,0.931,-0.882,0.0
12.364,1.224,-0.819,0.0
11.55,1.143,-0.831,0.0
10.852,1.073,-0.843,0.0
10.251,1.013,-0.856,0.0
9.797,0.967,-0.875,0.0
9.305,0.918,-0.884,0.0
12.216,1.2,-0.82,0.0
11.4,1.119,-0.83,0.0
10.74,1.053,-0.843,0.0
10.22,1.002,-0.862,0.0
9.718,0.952,-0.875,0.0
9.251,0.905,-0.887,0.0
12.174,1.186,-0.826,0.0
11.327,1.103,-0.834,0.0
10.674,1.038,-0.846,0.0
10.13,0.984,-0.862,0.0
9.677,0.94,-0.879,0.0
9.133,0.886,-0.882,0.0
12.048,1.164,-0.827,0.0
11.24,1.085,-0.836,0.0
10.569,1.019,-0.846,0.0
10.062,0.969,-0.864,0.0
9.637,0.927,-0.883,0.0
9.107,0.876,-0.887,0.0
11.919,1.141,-0.827,0.0
11.183,1.069,-0.84,0.0
10.537,1.007,-0.851,0.0
10.041,0.958,-0.87,0.0
9.545,0.91,-0.881,0.0
9.036,0.861,-0.886,0.0
11.837,1.122,-0.83,0.0
11.106,1.052,-0.842,0.0
10.457,0.989,-0.852,0.0
9.973,0.943,-0.871,0.0
9.485,0.896,-0.883,0.0
11.732,1.101,-0.83,0.0
11.049,1.036,-0.845,0.0
10.366,0.971,-0.852,0.0
9.919,0.928,-0.873,0.0
9.447,0.883,-0.885,0.0
11.698,1.087,-0.835,0.0
10.973,1.018,-0.846,0.0
10.35,0.959,-0.857,0.0
9.877,0.914,-0.875,0.0
9.42,0.871,-0.889,0.0
11.59,1.065,-0.835,0.0
10.953,1.005,-0.851,0.0
10.308,0.945,-0.86,0.0
9.836,0.9,-0.877,0.0
9.39,0.858,-0.891,0.0
11.503,1.045,-0.835,0.0
10.859,0.985,-0.85,0.0
10.255,0.929,-0.861,0.0
9.775,0.885,-0.877,0.0
9.273,0.838,-0.885,0.0
8.803,0.795,-0.891,0.0
11.466,1.029,-0.838,0.0
10.859,0.974,-0.855,0.0
10.207,0.914,-0.862,0.0
9.788,0.875,-0.883,0.0
9.249,0.826,-0.888,0.0
8.752,0.78,-0.89,0.0
11.43,1.014,-0.841,0.0
10.805,0.957,-0.856,0.0
10.179,0.9,-0.865,0.0
9.695,0.856,-0.88,0.0
9.211,0.812,-0.888,0.0
8.698,0.766,-0.888,0.0
11.339,0.993,-0.84,0.0
10.803,0.945,-0.861,0.0
10.16,0.887,-0.868,0.0
9.688,0.845,-0.883,0.0
9.236,0.804,-0.895,0.0
8.667,0.753,-0.889,0.0
11.334,0.98,-0.844,0.0
10.661,0.92,-0.854,0.0
10.168,0.876,-0.872,0.0
9.654,0.831,-0.884,0.0
9.135,0.785,-0.888,0.0
8.648,0.742,-0.89,0.0
11.31,0.965,-0.846,0.0
10.598,0.902,-0.853,0.0
10.101,0.858,-0.87,0.0
9.634,0.817,-0.886,0.0
9.146,0.775,-0.893,0.0
8.683,0.734,-0.897,0.0
11.258,0.947,-0.846,0.0
10.544,0.885,-0.852,0.0
10.088,0.845,-0.872,0.0
9.586,0.802,-0.884,0.0
9.157,0.765,-0.897,0.0
8.659,0.722,-0.897,0.0
11.286,0.935,-0.852,0.0
10.524,0.87,-0.854,0.0
10.078,0.832,-0.874,0.0
9.572,0.789,-0.886,0.0
9.114,0.75,-0.895,0.0
8.639,0.709,-0.897,0.0
11.205,0.915,-0.848,0.0
10.439,0.85,-0.849,0.0
10.082,0.82,-0.877,0.0
9.572,0.777,-0.888,0.0
9.09,0.736,-0.895,0.0
8.644,0.699,-0.9,0.0
11.196,0.9,-0.85,0.0
10.228,0.82,-0.834,0.0
10.035,0.803,-0.875,0.0
9.586,0.766,-0.891,0.0
9.096,0.725,-0.897,0.0
8.622,0.686,-0.899,0.0
11.191,0.885,-0.852,0.0
10.563,0.834,-0.863,0.0
10.031,0.79,-0.876,0.0
9.553,0.751,-0.89,0.0
9.077,0.712,-0.897,0.0
8.612,0.674,-0.899,0.0
11.19,0.87,-0.853,0.0
10.552,0.819,-0.864,0.0
10.062,0.779,-0.88,0.0
9.552,0.738,-0.891,0.0
8.6,0.662,-0.899,0.0
11.21,0.857,-0.856,0.0
10.472,0.799,-0.858,0.0
10.054,0.765,-0.88,0.0
9.547,0.725,-0.891,0.0
9.081,0.688,-0.899,0.0
8.585,0.649,-0.898,0.0
11.203,0.842,-0.856,0.0
10.542,0.79,-0.864,0.0
10.042,0.751,-0.88,0.0
9.551,0.713,-0.891,0.0
9.068,0.675,-0.897,0.0
8.622,0.64,-0.902,0.0
11.192,0.826,-0.855,0.0
10.545,0.776,-0.865,0.0
10.057,0.738,-0.881,0.0
9.512,0.697,-0.888,0.0
9.121,0.666,-0.902,0.0
8.619,0.628,-0.901,0.0
11.181,0.81,-0.854,0.0
10.523,0.76,-0.862,0.0
10.065,0.725,-0.881,0.0
9.553,0.687,-0.891,0.0
9.116,0.654,-0.901,0.0
8.67,0.62,-0.906,0.0
11.208,0.796,-0.855,0.0
10.544,0.747,-0.863,0.0
10.004,0.707,-0.875,0.0
9.593,0.676,-0.894,0.0
9.119,0.641,-0.901,0.0
8.644,0.606,-0.902,0.0
11.207,0.781,-0.853,0.0
10.584,0.735,-0.865,0.0
10.105,0.7,-0.882,0.0
9.589,0.662,-0.892,0.0
9.132,0.629,-0.901,0.0
8.673,0.596,-0.904,0.0
11.275,0.77,-0.857,0.0
10.615,0.723,-0.866,0.0
10.092,0.685,-0.879,0.0
9.641,0.653,-0.895,0.0
9.214,0.622,-0.907,0.0
8.691,0.585,-0.904,0.0
11.304,0.756,-0.857,0.0
10.64,0.709,-0.865,0.0
10.137,0.674,-0.881,0.0
9.684,0.642,-0.897,0.0
9.233,0.61,-0.906,0.0
8.702,0.573,-0.903,0.0
11.315,0.741,-0.854,0.0
10.682,0.697,-0.866,0.0
10.161,0.661,-0.88,0.0
9.718,0.63,-0.897,0.0
9.22,0.596,-0.903,0.0
8.75,0.564,-0.906,0.0
11.361,0.727,-0.855,0.0
10.72,0.684,-0.866,0.0
10.228,0.651,-0.883,0.0
9.796,0.621,-0.901,0.0
9.255,0.585,-0.903,0.0
8.804,0.555,-0.908,0.0
11.447,0.717,-0.857,0.0
10.744,0.67,-0.864,0.0
10.204,0.635,-0.877,0.0
9.743,0.604,-0.893,0.0
9.279,0.573,-0.902,0.0
8.791,0.541,-0.903,0.0
11.463,0.701,-0.854,0.0
10.767,0.656,-0.862,0.0
10.259,0.623,-0.878,0.0
9.835,0.595,-0.897,0.0
9.332,0.563,-0.903,0.0
8.867,0.533,-0.907,0.0
11.576,0.691,-0.857,0.0
10.883,0.648,-0.866,0.0
10.309,0.611,-0.877,0.0
9.882,0.584,-0.897,0.0
9.363,0.551,-0.902,0.0
8.913,0.523,-0.908,0.0
11.619,0.677,-0.855,0.0
10.938,0.635,-0.865,0.0
10.348,0.599,-0.876,0.0
9.867,0.569,-0.891,0.0
9.429,0.541,-0.903,0.0
8.971,0.513,-0.909,0.0
11.689,0.664,-0.854,0.0
11.034,0.625,-0.867,0.0
10.434,0.588,-0.878,0.0
9.972,0.56,-0.895,0.0
9.463,0.53,-0.901,0.0
9.012,0.503,-0.908,0.0
11.8,0.654,-0.856,0.0
11.114,0.613,-0.867,0.0
10.507,0.577,-0.878,0.0
9.964,0.545,-0.888,0.0
9.566,0.522,-0.906,0.0
9.074,0.493,-0.909,0.0
11.907,0.642,-0.856,0.0
11.185,0.601,-0.866,0.0
23.633,1.265,-1.96,0.0
10.078,0.537,-0.892,0.0
9.558,0.507,-0.899,0.0
9.113,0.482,-0.907,0.0
11.994,0.63,-0.855,0.0
11.273,0.589,-0.865,0.0
23.598,1.229,-1.942,0.0
10.17,0.527,-0.893,0.0
9.679,0.5,-0.904,0.0
12.072,0.617,-0.852,0.0
11.45,0.582,-0.871,0.0
23.606,1.195,-1.926,0.0
10.188,0.513,-0.888,0.0
9.716,0.488,-0.9,0.0
9.256,0.462,-0.908,0.0
12.176,0.604,-0.851,0.0
11.555,0.571,-0.87,1.0
23.641,1.163,-1.911,0.0
10.295,0.504,-0.889,0.0
9.784,0.477,-0.899,0.0
9.337,0.453,-0.909,0.0
12.36,0.595,-0.854,0.0
11.573,0.555,-0.863,0.0
10.897,0.52,-0.872,0.0
10.356,0.492,-0.886,0.0
9.916,0.469,-0.903,0.0
9.452,0.445,-0.913,0.0
12.437,0.581,-0.849,0.0
11.711,0.545,-0.863,0.0
10.984,0.508,-0.87,0.0
10.434,0.481,-0.884,0.0
10.017,0.459,-0.904,0.0
9.496,0.433,-0.909,0.0
12.511,0.567,-0.844,0.0
11.819,0.533,-0.861,0.0
11.07,0.497,-0.867,0.0
10.533,0.47,-0.883,0.0
10.09,0.448,-0.901,0.0
9.579,0.423,-0.908,0.0
12.648,0.555,-0.841,0.0
11.973,0.523,-0.861,0.0
11.245,0.488,-0.87,0.0
10.635,0.459,-0.882,0.0
10.164,0.437,-0.898,0.0
9.679,0.414,-0.908,0.0
12.859,0.546,-0.843,0.0
12.012,0.507,-0.853,0.0
11.367,0.477,-0.869,0.0
10.758,0.449,-0.882,0.0
10.259,0.426,-0.897,0.0
9.753,0.403,-0.905,0.0
12.981,0.533,-0.838,0.0
12.182,0.497,-0.853,0.0
11.564,0.469,-0.872,0.0
10.84,0.437,-0.877,0.0
10.328,0.414,-0.892,0.0
9.867,0.394,-0.906,0.0
13.154,0.521,-0.836,0.0
12.339,0.486,-0.851,0.0
11.618,0.455,-0.864,0.0
10.993,0.428,-0.878,0.0
10.486,0.406,-0.894,0.0
9.984,0.384,-0.906,0.0
13.315,0.509,-0.832,0.0
12.486,0.475,-0.847,0.0
11.79,0.445,-0.864,0.0
11.12,0.418,-0.876,0.0
10.571,0.395,-0.89,0.0
10.08,0.374,-0.903,0.0
13.418,0.495,-0.824,0.0
12.684,0.465,-0.847,0.0
12.016,0.437,-0.867,0.0
11.285,0.408,-0.876,0.0
10.714,0.385,-0.89,0.0
10.216,0.365,-0.904,0.0
13.773,0.489,-0.83,0.0
12.826,0.452,-0.842,0.0
12.166,0.426,-0.864,0.0
11.412,0.397,-0.873,0.0
10.835,0.375,-0.887,0.0
10.314,0.355,-0.9,0.0
14.068,0.48,-0.831,0.0
13.147,0.446,-0.847,0.0
12.263,0.413,-0.856,0.0
11.506,0.385,-0.866,0.0
10.957,0.364,-0.884,0.0
10.402,0.344,-0.895,0.0
14.293,0.469,-0.827,0.0
13.313,0.434,-0.841,0.0
12.5,0.405,-0.857,0.0
11.765,0.378,-0.871,0.0
11.136,0.355,-0.884,0.0
10.569,0.335,-0.896,0.0
14.598,0.46,-0.826,0.0
13.593,0.425,-0.842,0.0
12.651,0.393,-0.851,0.0
11.953,0.368,-0.869,0.0
11.242,0.344,-0.878,0.0
10.726,0.326,-0.895,0.0
14.856,0.448,-0.821,0.0
13.882,0.416,-0.841,0.0
12.848,0.382,-0.847,0.0
12.145,0.358,-0.867,0.0
11.415,0.334,-0.876,0.0
10.831,0.315,-0.889,0.0
15.166,0.438,-0.818,0.0
14.116,0.404,-0.836,0.0
13.024,0.37,-0.841,0.0
12.335,0.348,-0.864,0.0
11.637,0.326,-0.877,0.0
11.018,0.306,-0.89,0.0
15.502,0.428,-0.815,0.0
14.374,0.394,-0.832,0.0
13.335,0.362,-0.843,0.0
12.548,0.338,-0.861,0.0
11.793,0.315,-0.872,0.0
11.132,0.295,-0.883,0.0
15.934,0.42,-0.815,0.0
14.689,0.384,-0.829,0.0
13.707,0.355,-0.847,0.0
12.734,0.327,-0.856,0.0
12.043,0.307,-0.873,0.0
11.342,0.287,-0.883,0.0
16.332,0.41,-0.811,0.0
14.995,0.373,-0.825,0.0
14.04,0.346,-0.847,1.0
12.976,0.317,-0.853,0.0
12.267,0.297,-0.871,0.0
11.528,0.277,-0.88,0.0
16.936,0.404,-0.816,0.0
15.342,0.363,-0.82,0.0
14.328,0.336,-0.842,1.0
13.272,0.309,-0.852,0.0
12.44,0.287,-0.865,0.0
11.745,0.268,-0.879,0.0
17.325,0.393,-0.808,0.0
15.747,0.354,-0.818,0.0
14.608,0.325,-0.836,0.0
13.652,0.301,-0.855,1.0
12.739,0.279,-0.866,0.0
12.034,0.261,-0.882,0.0
17.5,0.377,-0.79,0.0
16.017,0.341,-0.807,0.0
14.846,0.314,-0.827,0.0
13.952,0.292,-0.852,1.0
12.952,0.268,-0.86,0.0
12.189,0.25,-0.874,0.0
18.11,0.369,-0.789,0.0
16.707,0.337,-0.816,0.0
15.243,0.305,-0.825,0.0
14.227,0.282,-0.846,1.0
13.243,0.259,-0.858,0.0
12.427,0.241,-0.871,0.0
18.802,0.362,-0.789,0.0
17.153,0.327,-0.81,0.0
15.625,0.295,-0.82,0.0
14.589,0.273,-0.844,1.0
13.558,0.251,-0.856,1.0
12.694,0.232,-0.869,0.0
19.261,0.35,-0.776,1.0
17.629,0.317,-0.803,0.0
16.195,0.288,-0.823,0.0
14.837,0.261,-0.834,0.0
13.874,0.241,-0.853,1.0
13.015,0.224,-0.869,0.0
19.829,0.339,-0.766,3.0
18.156,0.307,-0.797,0.0
16.659,0.279,-0.819,1.0
15.27,0.252,-0.832,0.0
14.25,0.233,-0.851,1.0
13.264,0.214,-0.863,1.0
19.654,0.316,-0.726,3.0
18.744,0.297,-0.791,0.0
17.145,0.269,-0.813,0.0
15.67,0.243,-0.827,0.0
14.555,0.223,-0.845,1.0
13.55,0.205,-0.857,1.0
20.777,0.313,-0.732,1.0
19.412,0.288,-0.785,1.0
17.614,0.258,-0.805,0.0
16.11,0.234,-0.822,0.0
14.923,0.214,-0.84,0.0
13.853,0.196,-0.852,0.0
19.714,0.277,-0.659,1.0
19.575,0.271,-0.757,5.0
18.21,0.249,-0.799,0.0
16.618,0.224,-0.818,0.0
15.358,0.205,-0.837,0.0
14.246,0.188,-0.851,0.0
19.693,0.257,-0.623,14.0
19.625,0.253,-0.723,7.0
18.934,0.241,-0.797,0.0
17.174,0.216,-0.814,0.0
15.74,0.195,-0.829,0.0
14.614,0.179,-0.846,0.0
19.675,0.239,-0.587,18.0
19.678,0.236,-0.69,16.0
19.471,0.23,-0.784,3.0
17.717,0.206,-0.808,0.0
16.243,0.187,-0.826,0.0
15.055,0.17,-0.844,0.0
19.672,0.221,-0.551,19.0
19.68,0.218,-0.654,18.0
19.639,0.215,-0.755,5.0
18.431,0.198,-0.807,0.0
16.782,0.178,-0.822,0.0
15.394,0.161,-0.834,0.0
19.675,0.204,-0.515,16.0
19.671,0.201,-0.617,14.0
19.697,0.198,-0.72,6.0
18.964,0.188,-0.794,0.0
17.32,0.169,-0.816,0.0
15.823,0.152,-0.828,0.0
19.686,0.188,-0.478,12.0
19.693,0.185,-0.58,8.0
19.702,0.182,-0.683,3.0
19.545,0.177,-0.782,1.0
17.913,0.16,-0.809,0.0
16.359,0.144,-0.824,0.0
19.713,0.172,-0.441,5.0
19.698,0.169,-0.543,0.0
22.296,0.188,-0.73,0.0
19.773,0.164,-0.752,1.0
18.592,0.151,-0.804,0.0
16.988,0.136,-0.823,0.0
29.453,0.234,-0.602,0.0
26.056,0.203,-0.668,0.0
23.046,0.176,-0.71,0.0
20.875,0.157,-0.754,0.0
19.239,0.142,-0.794,0.0
17.488,0.127,-0.813,0.0
30.978,0.223,-0.573,0.0
27.369,0.193,-0.648,0.0
24.488,0.169,-0.707,0.0
21.508,0.146,-0.734,0.0
19.682,0.131,-0.774,1.0
18.224,0.119,-0.812,0.0
0.0,0.0,0.0,0.0
28.475,0.181,-0.618,0.0
25.348,0.157,-0.681,0.0
22.461,0.137,-0.722,0.0
19.882,0.118,-0.742,1.0
18.858,0.11,-0.802,0.0
35.184,0.204,-0.511,0.0
29.814,0.169,-0.587,0.0
26.602,0.148,-0.662,0.0
23.357,0.127,-0.704,0.0
21.111,0.112,-0.746,0.0
19.562,0.101,-0.792,1.0
19.734,0.101,-0.247,0.0
19.774,0.099,-0.349,1.0
19.769,0.097,-0.452,2.0
19.782,0.095,-0.556,2.0
19.792,0.093,-0.659,2.0
19.753,0.09,-0.76,4.0
19.765,0.089,-0.207,15.0
19.765,0.087,-0.309,14.0
19.774,0.085,-0.412,16.0
19.767,0.083,-0.516,17.0
19.77,0.081,-0.618,18.0
19.784,0.079,-0.721,14.0
19.778,0.078,-0.167,53.0
19.786,0.076,-0.269,60.0
19.773,0.074,-0.371,60.0
19.786,0.072,-0.476,59.0
19.796,0.07,-0.578,32.0
19.797,0.068,-0.681,25.0
19.777,0.067,-0.127,45.0
19.768,0.065,-0.228,25.0
19.77,0.063,-0.33,18.0
19.778,0.061,-0.434,21.0
19.767,0.059,-0.536,17.0
19.782,0.058,-0.639,25.0
19.764,0.057,-0.085,30.0
19.758,0.055,-0.187,13.0
19.764,0.053,-0.289,12.0
19.757,0.052,-0.393,12.0
19.764,0.05,-0.495,16.0
19.783,0.048,-0.598,12.0
19.765,0.047,-0.044,51.0
19.758,0.046,-0.147,13.0
19.763,0.044,-0.248,12.0
19.759,0.043,-0.352,10.0
19.768,0.041,-0.454,8.0
19.767,0.04,-0.556,13.0
19.752,0.039,-0.003,14.0
19.751,0.037,-0.105,7.0
19.772,0.036,-0.207,26.0
19.756,0.034,-0.311,22.0
19.757,0.033,-0.412,11.0
19.77,0.032,-0.515,13.0
19.758,0.031,0.037,6.0
19.735,0.029,-0.063,52.0
19.756,0.028,-0.165,3.0
19.757,0.027,-0.269,2.0
19.786,0.026,-0.371,1.0
19.786,0.024,-0.473,2.0
19.779,0.024,0.079,6.0
19.757,0.022,-0.022,73.0
19.804,0.021,-0.124,1.0
19.801,0.02,-0.228,1.0
19.779,0.019,-0.329,1.0
19.771,0.018,-0.431,0.0
19.734,0.017,0.121,1.0
19.761,0.016,0.019,7.0
19.759,0.015,-0.082,2.0
19.717,0.014,-0.185,0.0
19.749,0.013,-0.287,0.0
30.294,0.019,-0.596,0.0
19.751,0.011,0.163,5.0
19.794,0.01,0.061,4.0
19.747,0.009,-0.04,10.0
19.758,0.009,-0.143,0.0
0.0,0.0,0.0,0.0
31.53,0.011,-0.553,0.0
19.643,0.006,0.204,16.0
19.727,0.005,0.103,1.0
19.728,0.005,0.002,10.0
19.754,0.004,-0.101,2.0
0.0,0.0,0.0,0.0
34.748,0.005,-0.535,0.0
19.641,0.002,0.246,14.0
19.791,0.001,0.146,2.0
19.725,0.001,0.044,7.0
19.725,0.0,-0.058,10.0
19.765,0.0,-0.16,1.0
37.325,-0.001,-0.495,0.0
19.635,-0.001,0.288,15.0
19.639,-0.001,0.187,13.0
19.704,-0.002,0.087,5.0
19.723,-0.002,-0.016,13.0
19.752,-0.003,-0.117,5.0
19.723,-0.003,-0.219,0.0
19.631,-0.004,0.33,14.0
19.636,-0.004,0.23,14.0
19.696,-0.004,0.129,2.0
19.71,-0.005,0.026,10.0
19.727,-0.005,-0.075,8.0
19.766,-0.005,-0.176,2.0
19.622,-0.006,0.372,15.0
19.63,-0.006,0.271,13.0
19.656,-0.006,0.171,8.0
19.685,-0.006,0.068,8.0
19.718,-0.006,-0.032,13.0
19.752,-0.007,-0.134,6.0
19.633,-0.007,0.415,13.0
19.619,-0.007,0.314,13.0
19.637,-0.007,0.213,15.0
19.675,-0.007,0.11,4.0
19.708,-0.007,0.009,13.0
19.755,-0.007,-0.091,6.0
19.621,-0.008,0.457,14.0
19.616,-0.008,0.356,13.0
19.621,-0.007,0.255,12.0
19.714,-0.007,0.153,5.0
19.702,-0.007,0.052,10.0
19.732,-0.007,-0.049,13.0
19.631,-0.007,0.499,13.0
19.627,-0.007,0.398,13.0
19.621,-0.007,0.297,14.0
19.629,-0.007,0.195,14.0
19.693,-0.007,0.094,6.0
19.719,-0.006,-0.006,13.0
19.621,-0.007,0.541,14.0
19.621,-0.006,0.44,13.0
19.617,-0.006,0.339,13.0
19.612,-0.006,0.236,14.0
19.724,-0.005,0.136,3.0
19.712,-0.005,0.035,9.0
19.631,-0.005,0.583,13.0
19.618,-0.005,0.482,12.0
19.621,-0.004,0.381,13.0
19.617,-0.003,0.278,13.0
19.646,-0.003,0.178,13.0
19.698,-0.002,0.077,5.0
19.631,-0.003,0.626,13.0
19.615,-0.002,0.524,13.0
19.616,-0.001,0.423,12.0
19.609,-0.001,0.32,13.0
19.62,0.0,0.219,15.0
19.721,0.0,0.119,1.0
19.643,0.0,0.668,13.0
19.617,0.0,0.566,13.0
19.613,0.001,0.465,11.0
19.615,0.002,0.362,13.0
19.628,0.003,0.261,13.0
19.704,0.004,0.161,8.0
19.659,0.003,0.711,13.0
19.622,0.004,0.608,12.0
19.613,0.005,0.507,12.0
19.609,0.006,0.403,12.0
19.614,0.007,0.303,14.0
19.641,0.008,0.202,16.0
19.665,0.008,0.753,13.0
19.633,0.009,0.65,12.0
19.613,0.01,0.548,13.0
19.606,0.011,0.445,12.0
19.611,0.012,0.344,14.0
19.639,0.013,0.244,15.0
19.657,0.013,0.794,19.0
19.635,0.014,0.692,12.0
19.612,0.016,0.59,13.0
19.608,0.017,0.487,13.0
19.597,0.018,0.385,13.0
19.624,0.019,0.285,15.0
19.597,0.019,0.833,24.0
19.646,0.021,0.734,12.0
19.611,0.022,0.631,10.0
19.599,0.023,0.527,13.0
19.607,0.025,0.426,13.0
19.622,0.026,0.325,19.0
19.584,0.026,0.873,25.0
19.668,0.027,0.775,21.0
19.619,0.029,0.672,11.0
19.596,0.03,0.568,13.0
19.605,0.032,0.467,14.0
19.619,0.033,0.366,16.0
19.567,0.033,0.913,23.0
19.616,0.035,0.814,17.0
19.637,0.037,0.713,11.0
19.6,0.038,0.608,12.0
19.607,0.04,0.507,14.0
19.612,0.041,0.406,13.0
19.569,0.041,0.953,24.0
19.595,0.043,0.853,25.0
19.644,0.045,0.753,17.0
19.599,0.047,0.648,12.0
19.607,0.048,0.547,14.0
19.609,0.05,0.445,14.0
19.562,0.05,0.993,18.0
19.588,0.052,0.892,25.0
19.65,0.054,0.793,21.0
19.623,0.056,0.688,11.0
19.597,0.057,0.586,14.0
19.599,0.059,0.484,14.0
19.566,0.059,1.032,9.0
19.572,0.061,0.931,22.0
19.595,0.063,0.83,15.0
19.638,0.066,0.728,12.0
19.609,0.067,0.625,13.0
19.605,0.07,0.524,14.0
19.6,0.07,1.073,1.0
19.573,0.072,0.97,21.0
19.581,0.074,0.868,23.0
19.632,0.076,0.767,18.0
19.61,0.078,0.665,12.0
19.599,0.08,0.562,14.0
0.0,0.0,0.0,0.0
19.561,0.082,1.008,11.0
19.579,0.085,0.907,23.0
19.641,0.087,0.806,12.0
19.625,0.09,0.704,11.0
19.598,0.092,0.601,14.0
0.0,0.0,0.0,0.0
19.607,0.094,1.049,2.0
19.568,0.096,0.945,15.0
19.618,0.099,0.843,9.0
19.649,0.102,0.743,10.0
19.604,0.104,0.639,13.0
0.0,0.0,0.0,0.0
0.0,0.0,0.0,0.0
19.587,0.109,0.984,9.0
19.596,0.111,0.881,10.0
19.679,0.114,0.782,9.0
19.62,0.117,0.678,12.0
113.922,0.683,7.137,32.0
0.0,0.0,0.0,0.0
19.618,0.122,1.024,3.0
19.605,0.125,0.919,12.0
19.708,0.128,0.821,0.0
19.636,0.13,0.716,10.0
0.0,0.0,0.0,0.0
113.961,0.776,6.761,48.0
113.974,0.792,6.167,41.0
19.634,0.139,0.958,2.0
113.991,0.825,4.967,36.0
19.66,0.144,0.754,7.0
0.0,0.0,0.0,0.0
0.0,0.0,0.0,0.0
113.912,0.875,6.378,2.0
0.0,0.0,0.0,0.0
0.0,0.0,0.0,0.0
19.681,0.159,0.791,0.0
0.0,0.0,0.0,0.0
0.0,0.0,0.0,0.0
121.901,1.03,7.051,9.0
0.0,0.0,0.0,0.0
0.0,0.0,0.0,0.0
186.518,1.659,7.844,15.0
0.0,0.0,0.0,0.0
0.0,0.0,0.0,0.0
122.004,1.127,7.282,22.0
0.0,0.0,0.0,0.0
0.0,0.0,0.0,0.0
186.774,1.811,8.194,9.0
0.0,0.0,0.0,0.0
0.0,0.0,0.0,0.0
122.031,1.228,7.503,10.0
121.982,1.247,6.848,2.0
0.0,0.0,0.0,0.0
0.0,0.0,0.0,0.0
0.0,0.0,0.0,0.0
0.0,0.0,0.0,0.0
0.0,0.0,0.0,0.0
121.899,1.351,7.059,18.0
122.11,1.372,6.43,8.0
0.0,0.0,0.0,0.0
0.0,0.0,0.0,0.0
0.0,0.0,0.0,0.0
0.0,0.0,0.0,0.0
121.732,1.456,7.261,25.0
121.986,1.479,6.635,15.0
84.832,1.043,4.167,30.0
84.805,1.049,6.555,30.0
84.814,1.063,6.107,10.0
84.795,1.077,5.659,38.0
84.821,1.092,5.204,51.0
84.817,1.106,4.757,49.0
84.82,1.12,4.311,39.0
0.0,0.0,0.0,0.0
84.8,1.141,6.249,41.0
84.8,1.156,5.8,14.0
135.521,1.871,8.541,11.0
121.702,1.702,7.029,23.0
122.09,1.728,6.409,22.0
0.0,0.0,0.0,0.0
0.0,0.0,0.0,0.0
129.338,1.888,9.063,18.0
0.0,0.0,0.0,0.0
121.537,1.817,7.219,23.0
121.837,1.844,6.595,26.0
0.0,0.0,0.0,0.0
0.0,0.0,0.0,0.0
129.143,2.013,9.26,14.0
129.39,2.041,8.581,14.0
121.403,1.937,7.409,19.0
121.987,1.968,6.798,24.0
0.0,0.0,0.0,0.0
55.267,0.907,4.344,1.0
55.239,0.916,4.048,8.0
55.226,0.927,3.749,25.0
55.223,0.937,3.456,43.0
55.199,0.947,3.163,56.0
55.217,0.952,4.721,71.0
55.202,0.962,4.425,73.0
55.195,0.973,4.131,76.0
55.189,0.983,3.832,74.0
55.192,0.994,3.54,71.0
55.199,1.005,3.247,60.0
55.235,1.011,4.808,38.0
55.235,1.022,4.514,19.0
55.237,1.033,4.22,5.0
129.134,2.44,9.165,18.0
129.218,2.466,8.484,20.0
133.545,2.575,8.06,3.0
0.0,0.0,0.0,0.0
0.0,0.0,0.0,0.0
129.249,2.556,10.068,13.0
129.355,2.585,9.373,21.0
129.375,2.611,8.686,25.0
129.399,2.636,8.0,14.0
0.0,0.0,0.0,0.0
0.0,0.0,0.0,0.0
0.0,0.0,0.0,0.0
129.538,2.731,9.575,12.0
127.145,2.707,8.72,14.0
129.249,2.777,8.176,11.0
0.0,0.0,0.0,0.0
0.0,0.0,0.0,0.0
0.0,0.0,0.0,0.0
0.0,0.0,0.0,0.0
127.16,2.848,8.897,24.0
134.266,3.035,8.679,11.0
0.0,0.0,0.0,0.0
0.0,0.0,0.0,0.0
0.0,0.0,0.0,0.0
0.0,0.0,0.0,0.0
127.207,2.997,9.076,23.0
121.541,2.888,8.023,25.0
0.0,0.0,0.0,0.0
0.0,0.0,0.0,0.0
0.0,0.0,0.0,0.0
0.0,0.0,0.0,0.0
127.16,3.145,9.242,25.0
121.499,3.03,8.181,18.0
0.0,0.0,0.0,0.0
0.0,0.0,0.0,0.0
0.0,0.0,0.0,0.0
0.0,0.0,0.0,0.0
127.203,3.298,9.412,18.0
43.668,1.141,2.996,41.0
0.0,0.0,0.0,0.0
0.0,0.0,0.0,0.0
0.0,0.0,0.0,0.0
0.0,0.0,0.0,0.0
127.622,3.462,9.604,5.0
0.0,0.0,0.0,0.0
0.0,0.0,0.0,0.0
0.0,0.0,0.0,0.0
0.0,0.0,0.0,0.0
0.0,0.0,0.0,0.0
0.0,0.0,0.0,0.0
40.115,1.145,2.852,87.0
0.0,0.0,0.0,0.0
0.0,0.0,0.0,0.0
0.0,0.0,0.0,0.0
0.0,0.0,0.0,0.0
0.0,0.0,0.0,0.0
40.11,1.195,2.898,114.0
0.0,0.0,0.0,0.0
0.0,0.0,0.0,0.0
0.0,0.0,0.0,0.0
0.0,0.0,0.0,0.0
0.0,0.0,0.0,0.0
0.0,0.0,0.0,0.0
0.0,0.0,0.0,0.0
0.0,0.0,0.0,0.0
0.0,0.0,0.0,0.0
0.0,0.0,0.0,0.0
0.0,0.0,0.0,0.0
0.0,0.0,0.0,0.0
0.0,0.0,0.0,0.0
0.0,0.0,0.0,0.0
0.0,0.0,0.0,0.0
0.0,0.0,0.0,0.0
0.0,0.0,0.0,0.0
0.0,0.0,0.0,0.0
0.0,0.0,0.0,0.0
0.0,0.0,0.0,0.0
0.0,0.0,0.0,0.0
0.0,0.0,0.0,0.0
0.0,0.0,0.0,0.0
0.0,0.0,0.0,0.0
0.0,0.0,0.0,0.0
0.0,0.0,0.0,0.0
0.0,0.0,0.0,0.0
0.0,0.0,0.0,0.0
0.0,0.0,0.0,0.0
0.0,0.0,0.0,0.0
0.0,0.0,0.0,0.0
0.0,0.0,0.0,0.0
0.0,0.0,0.0,0.0
0.0,0.0,0.0,0.0
0.0,0.0,0.0,0.0
0.0,0.0,0.0,0.0
0.0,0.0,0.0,0.0
0.0,0.0,0.0,0.0
0.0,0.0,0.0,0.0
0.0,0.0,0.0,0.0
0.0,0.0,0.0,0.0
0.0,0.0,0.0,0.0
0.0,0.0,0.0,0.0
0.0,0.0,0.0,0.0
0.0,0.0,0.0,0.0
0.0,0.0,0.0,0.0
0.0,0.0,0.0,0.0
0.0,0.0,0.0,0.0
0.0,0.0,0.0,0.0
0.0,0.0,0.0,0.0
0.0,0.0,0.0,0.0
0.0,0.0,0.0,0.0
0.0,0.0,0.0,0.0
100.85,6.349,8.857,1.0
99.924,6.333,11.603,22.0
99.921,6.349,11.039,26.0
99.88,6.363,10.47,30.0
99.909,6.383,9.901,34.0
99.913,6.399,9.34,34.0
99.915,6.417,8.779,34.0
99.879,6.458,11.603,31.0
99.868,6.474,11.036,33.0
99.907,6.493,10.476,36.0
99.883,6.509,9.9,37.0
99.919,6.527,9.342,36.0
99.904,6.544,8.78,34.0
99.882,6.586,11.603,34.0
99.906,6.604,11.039,33.0
99.898,6.619,10.474,36.0
99.903,6.637,9.9,40.0
99.898,6.652,9.337,36.0
99.929,6.672,8.778,36.0
99.908,6.714,11.601,33.0
99.894,6.729,11.033,37.0
99.903,6.745,10.468,35.0
99.894,6.76,9.893,36.0
99.905,6.779,9.33,36.0
99.926,6.797,8.769,36.0
99.883,6.839,11.589,40.0
99.903,6.855,11.024,34.0
99.916,6.871,10.459,36.0
99.918,6.887,9.884,37.0
99.919,6.903,9.32,37.0
99.927,6.92,8.757,35.0
99.881,6.962,11.575,32.0
99.904,6.979,11.01,34.0
99.895,6.992,10.443,34.0
99.907,7.008,9.868,37.0
99.904,7.025,9.302,37.0
99.935,7.043,8.741,36.0
99.897,7.086,11.56,32.0
99.915,7.101,10.993,33.0
99.903,7.114,10.424,34.0
99.906,7.129,9.848,35.0
99.929,7.146,9.284,39.0
99.933,7.161,8.72,36.0
99.877,7.202,11.536,31.0
99.886,7.218,10.967,34.0
99.897,7.233,10.4,33.0
99.867,7.245,9.82,31.0
99.92,7.263,9.26,26.0
99.908,7.277,8.693,18.0
99.119,7.265,11.422,5.0
99.034,7.273,10.847,4.0
99.017,7.285,10.281,5.0
99.066,7.301,9.714,5.0
99.031,7.312,9.149,5.0
99.062,7.329,8.591,6.0
98.998,7.37,11.378,30.0
98.982,7.382,10.811,39.0
99.03,7.399,10.252,41.0
98.993,7.408,9.675,64.0
99.021,7.425,9.115,63.0
99.032,7.44,8.555,54.0
99.015,7.485,11.345,13.0
99.013,7.497,10.78,71.0
99.027,7.51,10.216,8.0
98.994,7.522,9.638,8.0
99.018,7.536,9.079,10.0
98.996,7.547,8.516,5.0
94.865,7.276,10.834,4.0
94.836,7.286,10.288,4.0
94.865,7.299,9.75,6.0
94.864,7.311,9.198,5.0
94.851,7.322,8.658,5.0
94.886,7.337,8.122,5.0
94.821,7.376,10.788,20.0
94.825,7.387,10.246,20.0
94.829,7.399,9.704,33.0
94.816,7.41,9.152,35.0
94.83,7.422,8.614,42.0
94.824,7.433,8.075,50.0
94.807,7.477,10.742,23.0
94.808,7.486,10.199,22.0
94.818,7.498,9.658,17.0
94.819,7.508,9.107,15.0
94.844,7.521,8.57,14.0
94.863,7.535,8.031,13.0
94.841,7.578,10.698,3.0
94.861,7.589,10.156,3.0
94.943,7.606,9.622,4.0
94.843,7.609,9.06,3.0
94.902,7.624,8.524,2.0
94.893,7.634,7.984,1.0
98.381,7.961,11.044,6.0
98.186,7.956,10.458,7.0
98.022,7.952,9.879,7.0
98.078,7.966,9.314,9.0
98.132,7.982,8.759,9.0
98.341,8.01,8.217,9.0
96.96,7.942,10.828,10.0
97.097,7.963,10.285,11.0
97.181,7.98,9.736,11.0
97.385,8.005,9.19,11.0
97.406,8.016,8.636,12.0
97.364,8.025,8.076,9.0
96.408,7.99,10.705,6.0
96.471,8.004,10.158,8.0
96.419,8.009,9.599,7.0
96.463,8.022,9.041,5.0
96.337,8.021,8.478,4.0
96.134,8.013,7.913,1.0
87.116,7.301,9.616,4.0
87.11,7.308,9.114,3.0
87.101,7.316,8.612,3.0
87.05,7.319,8.1,4.0
87.085,7.33,7.606,3.0
87.095,7.34,7.109,3.0
87.058,7.376,9.548,13.0
87.042,7.382,9.045,12.0
87.01,7.386,8.543,12.0
87.044,7.397,8.037,11.0
87.022,7.402,7.538,12.0
87.084,7.415,7.046,13.0
87.026,7.449,9.482,52.0
87.028,7.455,8.981,50.0
87.022,7.462,8.48,56.0
87.026,7.468,7.972,61.0
87.033,7.476,7.474,66.0
87.049,7.486,6.978,63.0
87.031,7.523,9.415,15.0
87.026,7.527,8.914,40.0
87.063,7.537,8.417,13.0
87.013,7.539,7.903,15.0
87.06,7.55,7.409,14.0
87.047,7.556,6.91,14.0
87.057,7.595,9.348,5.0
87.032,7.598,8.844,42.0
87.144,7.614,8.354,4.0
87.053,7.612,7.836,5.0
87.057,7.62,7.337,4.0
87.043,7.625,6.837,3.0
82.976,7.304,8.841,3.0
82.922,7.305,8.356,2.0
82.9,7.307,7.877,2.0
82.953,7.317,7.397,2.0
82.972,7.324,6.923,2.0
83.006,7.334,6.45,2.0
82.848,7.354,8.755,5.0
82.876,7.361,8.28,6.0
82.86,7.365,7.801,5.0
82.895,7.372,7.319,6.0
82.931,7.381,6.846,6.0
82.914,7.385,6.37,6.0
82.85,7.413,8.681,15.0
82.863,7.418,8.204,17.0
82.874,7.424,7.727,16.0
82.875,7.428,7.242,16.0
82.89,7.434,6.768,18.0
82.884,7.439,6.292,23.0
82.845,7.47,8.602,47.0
82.85,7.473,8.125,52.0
82.855,7.477,7.647,58.0
82.861,7.482,7.163,57.0
82.888,7.489,6.689,55.0
82.892,7.494,6.213,49.0
82.852,7.522,8.524,25.0
82.853,7.526,8.045,28.0
82.858,7.53,7.567,27.0
82.883,7.535,7.085,31.0
82.878,7.539,6.607,30.0
82.873,7.543,6.131,25.0
82.889,7.576,8.445,8.0
82.861,7.576,7.964,9.0
82.862,7.579,7.486,9.0
82.887,7.584,7.003,10.0
82.872,7.586,6.525,10.0
82.891,7.592,6.05,13.0
82.914,7.625,8.364,4.0
82.903,7.626,7.883,4.0
82.872,7.626,7.401,4.0
82.941,7.635,6.921,4.0
82.904,7.634,6.442,5.0
82.941,7.641,5.969,9.0
83.053,7.682,8.291,2.0
82.958,7.674,7.802,2.0
83.032,7.684,7.329,2.0
82.877,7.671,6.829,3.0
82.888,7.675,6.353,7.0
82.972,7.686,5.883,9.0
86.362,8.03,8.528,5.0
86.293,8.025,8.022,3.0
86.325,8.029,7.527,1.0
82.927,7.716,6.743,4.0
82.885,7.713,6.263,21.0
83.025,7.729,5.797,4.0
85.817,8.018,8.379,9.0
85.928,8.03,7.893,9.0
85.91,8.029,7.395,8.0
83.022,7.76,6.66,6.0
82.872,7.748,6.171,150.0
86.165,8.058,5.922,4.0
85.261,8.002,8.229,12.0
85.32,8.007,7.742,10.0
85.348,8.01,7.252,9.0
85.369,8.014,6.752,9.0
82.891,7.782,6.079,150.0
85.47,8.026,5.777,9.0
85.263,8.034,8.133,11.0
85.289,8.035,7.642,10.0
85.223,8.029,7.143,11.0
85.273,8.035,6.646,11.0
82.897,7.812,5.984,150.0
85.283,8.038,5.666,11.0
85.169,8.053,8.024,10.0
85.216,8.057,7.535,10.0
85.251,8.059,7.046,11.0
85.183,8.053,6.54,6.0
82.901,7.837,5.888,106.0
85.339,8.068,5.571,11.0
84.591,8.023,7.869,8.0
84.756,8.037,7.394,8.0
85.125,8.071,6.934,5.0
85.1,8.069,6.432,1.0
82.965,7.866,5.792,8.0
85.215,8.08,5.46,10.0
84.253,8.012,7.735,10.0
84.281,8.013,7.25,9.0
0.0,0.0,0.0,0.0
82.865,7.876,6.163,7.0
84.499,8.031,5.797,5.0
84.74,8.054,5.326,9.0
84.356,8.039,7.64,11.0
84.268,8.029,7.144,11.0
84.294,8.03,6.658,9.0
82.882,7.894,6.061,77.0
84.377,8.035,5.684,9.0
84.414,8.039,5.2,10.0
84.378,8.056,7.535,10.0
84.422,8.057,7.05,10.0
84.512,8.064,6.57,11.0
82.869,7.905,5.955,101.0
84.555,8.065,5.589,10.0
84.548,8.063,5.103,10.0
84.191,8.048,7.412,8.0
84.361,8.062,6.938,8.0
84.476,8.07,6.459,9.0
82.893,7.916,5.851,33.0
84.641,8.081,5.487,10.0
84.68,8.084,5.001,10.0
83.777,8.016,7.267,8.0
83.414,7.977,6.753,10.0
82.957,7.931,6.236,2.0
83.167,7.948,5.763,5.0
84.486,8.072,5.368,9.0
84.489,8.07,4.882,10.0
83.896,8.03,7.169,10.0
83.801,8.018,6.675,10.0
82.906,7.928,6.126,10.0
84.024,8.032,5.714,8.0
84.115,8.038,5.236,8.0
84.223,8.046,4.759,9.0
84.163,8.055,7.081,11.0
84.226,8.057,6.599,10.0
82.871,7.924,6.013,53.0
84.267,8.054,5.619,11.0
84.276,8.051,5.134,9.0
84.257,8.047,4.648,10.0
84.376,8.072,6.986,11.0
84.507,8.079,6.508,10.0
82.881,7.92,5.903,48.0
84.581,8.078,5.527,10.0
84.662,8.082,5.045,10.0
84.75,8.087,4.563,10.0
83.557,7.986,6.805,10.0
84.488,8.07,6.392,3.0
82.944,7.917,5.796,6.0
84.674,8.078,5.419,10.0
84.769,8.083,4.938,9.0
84.9,8.091,4.456,7.0
83.905,8.008,6.72,10.0
82.923,7.909,6.161,7.0
84.286,8.033,5.776,6.0
84.48,8.046,5.293,8.0
84.568,8.051,4.811,9.0
82.877,7.885,4.238,3.0
84.466,8.046,6.648,10.0
82.869,7.888,6.043,138.0
84.56,8.043,5.678,9.0
84.632,8.045,5.186,10.0
84.708,8.047,4.703,10.0
82.901,7.871,4.125,28.0
84.901,8.069,6.566,10.0
82.885,7.871,5.93,125.0
85.073,8.072,5.594,10.0
85.139,8.073,5.1,10.0
85.209,8.074,4.613,10.0
82.9,7.849,4.012,45.0
82.939,7.86,6.298,3.0
82.934,7.853,5.819,6.0
85.433,8.082,5.5,10.0
85.585,8.09,5.008,11.0
85.575,8.084,4.514,4.0
82.932,7.828,3.898,10.0
82.887,7.829,6.179,150.0
85.281,8.048,5.865,7.0
85.542,8.065,5.388,10.0
85.688,8.072,4.896,10.0
82.934,7.807,4.261,7.0
85.991,8.088,3.923,2.0
82.89,7.8,6.064,150.0
85.466,8.035,5.758,10.0
85.586,8.038,5.271,9.0
85.758,8.047,4.78,8.0
82.914,7.774,4.144,59.0
85.94,8.051,3.801,3.0
82.889,7.767,5.947,12.0
85.984,8.048,5.672,6.0
85.927,8.035,5.172,4.0
83.148,7.767,4.517,1.0
82.923,7.739,4.028,27.0
82.981,7.737,3.553,2.0
83.011,7.741,5.837,4.0
83.082,7.739,5.363,1.0
82.956,7.72,4.876,1.0
82.982,7.714,4.392,5.0
82.985,7.706,3.914,7.0
83.005,7.701,3.438,3.0
82.922,7.693,5.714,3.0
83.002,7.691,5.241,4.0
82.969,7.679,4.761,4.0
82.921,7.666,4.271,59.0
82.95,7.661,3.795,6.0
82.93,7.651,3.317,7.0
82.956,7.651,5.599,5.0
82.927,7.639,5.119,8.0
82.871,7.625,4.637,8.0
82.894,7.618,4.153,31.0
82.922,7.612,3.677,17.0
82.932,7.605,3.201,20.0
82.91,7.599,5.478,11.0
82.906,7.588,4.999,16.0
82.912,7.579,4.522,27.0
82.904,7.57,4.035,48.0
82.909,7.561,3.558,83.0
82.921,7.553,3.083,129.0
82.896,7.546,5.359,41.0
82.909,7.537,4.883,65.0
82.914,7.528,4.405,68.0
82.918,7.518,3.92,66.0
82.916,7.509,3.444,40.0
82.935,7.501,2.968,16.0
82.905,7.491,5.242,40.0
82.928,7.483,4.766,32.0
82.907,7.471,4.288,18.0
82.912,7.461,3.802,11.0
82.943,7.454,3.328,9.0
72.312,6.49,2.486,3.0
82.93,7.436,5.127,10.0
82.924,7.424,4.65,6.0
82.943,7.414,4.173,6.0
82.973,7.406,3.689,5.0
82.994,7.398,3.212,3.0
72.818,6.482,2.4,6.0
83.024,7.381,5.015,3.0
82.972,7.364,4.534,3.0
87.021,7.712,4.254,4.0
83.032,7.348,3.574,2.0
87.085,7.695,3.249,1.0
73.472,6.482,2.319,7.0
87.126,7.676,5.14,2.0
87.075,7.659,4.635,5.0
87.082,7.647,4.136,17.0
87.073,7.634,3.626,13.0
87.095,7.624,3.126,12.0
74.197,6.485,2.238,6.0
87.05,7.596,5.014,15.0
87.094,7.587,4.516,29.0
87.079,7.573,4.014,43.0
87.074,7.56,3.506,89.0
87.093,7.55,3.006,60.0
74.991,6.49,2.158,8.0
87.068,7.521,4.894,131.0
87.084,7.508,4.394,67.0
87.077,7.495,3.892,34.0
87.065,7.481,3.384,16.0
40.087,3.438,1.328,6.0
40.073,3.432,1.098,48.0
40.072,3.424,2.196,6.0
40.071,3.418,1.966,48.0
40.087,3.413,1.737,114.0
40.095,3.407,1.503,118.0
40.099,3.401,1.273,150.0
40.097,3.395,1.044,133.0
40.092,3.387,2.142,109.0
40.087,3.38,1.911,112.0
40.09,3.374,1.681,147.0
40.085,3.367,1.447,132.0
40.102,3.362,1.218,140.0
40.093,3.355,0.988,121.0
40.094,3.347,2.087,115.0
40.09,3.34,1.857,135.0
40.089,3.333,1.627,150.0
40.087,3.326,1.393,140.0
40.087,3.319,1.163,148.0
40.101,3.315,0.934,150.0
40.093,3.305,2.033,127.0
40.085,3.297,1.802,150.0
40.09,3.291,1.573,150.0
