X,Y,Z,Reflectivity
90.406,-7.489,2.019,40.0
90.403,-7.511,1.539,63.0
90.409,-7.534,1.06,41.0
108.629,-9.064,4.297,17.0
110.851,-9.274,3.797,14.0
114.365,-9.594,3.31,12.0
90.4,-7.605,2.127,28.0
90.416,-7.627,1.649,36.0
90.413,-7.648,1.17,45.0
107.982,-9.146,4.403,25.0
108.333,-9.2,3.842,14.0
116.784,-9.944,3.523,11.0
127.518,-10.886,3.159,28.0
90.384,-7.736,1.759,36.0
90.39,-7.758,1.281,37.0
107.956,-9.276,4.535,25.0
108.214,-9.322,3.973,29.0
114.481,-9.886,3.594,8.0
127.539,-11.041,3.315,16.0
90.405,-7.846,1.872,36.0
90.404,-7.866,1.393,36.0
107.528,-9.367,4.651,28.0
108.201,-9.447,4.106,25.0
108.271,-9.475,3.534,11.0
114.503,-10.043,3.118,14.0
90.385,-7.947,1.983,66.0
90.386,-7.967,1.505,31.0
107.711,-9.506,4.794,25.0
108.063,-9.558,4.236,24.0
108.136,-9.584,3.665,18.0
116.86,-10.381,3.33,4.0
90.376,-8.047,2.097,32.0
90.402,-8.067,1.619,31.0
107.839,-9.635,4.937,22.0
108.282,-9.695,4.382,20.0
108.084,-9.697,3.802,33.0
147.984,-13.305,4.406,15.0
127.516,-11.49,3.12,14.0
90.381,-8.161,1.734,34.0
108.236,-9.785,5.093,19.0
108.336,-9.814,4.524,26.0
108.208,-9.822,3.944,13.0
147.982,-13.458,4.596,9.0
127.544,-11.623,3.288,27.0
90.371,-8.253,1.851,30.0
108.541,-9.923,5.248,8.0
108.207,-9.911,4.657,20.0
108.982,-10.001,4.114,24.0
108.099,-9.939,3.498,12.0
127.496,-11.744,3.452,19.0
90.378,-8.341,1.968,38.0
108.988,-10.071,5.413,21.0
107.588,-9.958,4.772,18.0
108.319,-10.044,4.231,21.0
108.196,-10.05,3.642,9.0
108.114,-10.06,3.067,14.0
90.359,-8.423,2.086,27.0
108.273,-10.106,5.519,14.0
108.049,-10.101,4.934,14.0
108.746,-10.182,4.39,22.0
148.31,-13.911,5.187,19.0
147.93,-13.899,4.392,14.0
127.524,-12.001,3.112,20.0
108.159,-10.191,5.655,22.0
108.437,-10.232,5.095,23.0
110.157,-10.41,4.592,8.0
108.347,-10.255,3.932,17.0
147.904,-14.02,4.584,14.0
127.521,-12.108,3.279,26.0
108.291,-10.295,5.805,24.0
108.305,-10.311,5.232,22.0
109.985,-10.485,4.731,21.0
108.637,-10.372,4.088,22.0
147.879,-14.138,4.782,20.0
119.212,-11.415,3.224,17.0
108.631,-10.415,5.97,19.0
108.019,-10.369,5.363,25.0
109.626,-10.537,4.861,18.0
108.767,-10.468,4.237,19.0
108.83,-10.488,3.663,15.0
118.174,-11.405,3.353,6.0
108.733,-10.507,6.12,19.0
108.017,-10.451,5.507,28.0
108.224,-10.482,4.944,17.0
109.447,-10.614,4.41,20.0
108.572,-10.543,3.799,20.0
116.382,-11.315,3.459,11.0
108.732,-10.585,6.268,17.0
108.127,-10.538,5.659,25.0
108.049,-10.542,5.082,26.0
109.855,-10.729,4.574,27.0
108.425,-10.602,3.941,23.0
148.11,-14.5,4.601,14.0
108.261,-10.612,6.387,21.0
108.599,-10.656,5.831,17.0
108.367,-10.644,5.245,16.0
109.606,-10.777,4.712,25.0
108.606,-10.689,4.095,16.0
108.241,-10.665,3.509,25.0
108.119,-10.667,6.526,20.0
108.149,-10.68,5.954,19.0
108.101,-10.684,5.378,23.0
108.764,-10.759,4.823,28.0
110.983,-10.99,4.335,9.0
108.065,-10.71,3.649,23.0
109.579,-10.876,6.764,20.0
107.855,-10.713,6.085,25.0
108.474,-10.783,5.543,18.0
108.692,-10.813,4.967,12.0
111.187,-11.07,4.493,20.0
108.459,-10.807,3.809,22.0
109.876,-10.964,6.93,19.0
107.886,-10.773,6.23,23.0
108.879,-10.879,5.71,18.0
108.077,-10.807,5.083,10.0
111.148,-11.121,4.638,17.0
108.602,-10.875,3.958,23.0
108.145,-10.845,6.965,10.0
108.011,-10.837,6.383,22.0
108.77,-10.92,5.851,18.0
108.021,-10.851,5.226,8.0
124.071,-12.472,5.345,11.0
111.719,-11.238,4.222,10.0
108.546,-10.934,7.139,18.0
107.976,-10.882,6.528,18.0
108.089,-10.898,5.96,24.0
108.915,-10.987,5.417,10.0
110.399,-11.143,4.905,16.0
111.316,-11.241,4.357,22.0
108.104,-10.934,7.256,17.0
107.805,-10.908,6.663,12.0
107.966,-10.927,6.098,22.0
108.88,-11.025,5.56,25.0
0.0,0.0,0.0,0.0
111.129,-11.263,4.496,21.0
49.551,-5.029,3.392,4.0
48.685,-4.943,3.073,4.0
107.766,-10.945,6.231,20.0
108.825,-11.055,5.704,20.0
109.0,-11.077,5.134,23.0
111.007,-11.286,4.639,19.0
49.575,-5.047,3.46,13.0
48.677,-4.957,3.138,17.0
107.599,-10.96,6.365,19.0
108.391,-11.043,5.825,22.0
108.81,-11.088,5.27,23.0
110.662,-11.28,4.773,16.0
49.581,-5.062,3.527,22.0
48.678,-4.97,3.204,3.0
107.524,-10.98,6.504,22.0
108.393,-11.069,5.969,19.0
108.912,-11.124,5.419,24.0
109.254,-11.161,4.856,21.0
49.502,-5.065,3.588,27.0
107.641,-11.015,7.227,19.0
107.506,-11.0,6.646,21.0
107.133,-10.962,6.042,15.0
108.949,-11.149,5.566,21.0
109.04,-11.16,4.99,26.0
49.433,-5.067,3.648,19.0
107.546,-11.023,7.364,14.0
48.693,-4.99,3.074,8.0
107.266,-10.993,6.19,22.0
108.535,-11.122,5.686,20.0
108.856,-11.155,5.125,25.0
49.095,-5.039,3.688,11.0
49.43,-5.073,3.449,15.0
48.681,-4.995,3.137,15.0
107.395,-11.018,6.34,24.0
108.232,-11.103,5.812,21.0
108.901,-11.17,5.269,22.0
107.379,-11.032,8.208,17.0
49.479,-5.082,3.517,21.0
48.648,-4.995,3.198,7.0
107.5,-11.036,6.483,23.0
0.0,0.0,0.0,0.0
109.058,-11.191,5.415,21.0
48.285,-4.963,3.752,17.0
49.467,-5.083,3.579,23.0
107.455,-11.037,7.202,15.0
107.548,-11.043,6.622,22.0
107.061,-10.99,6.022,16.0
109.134,-11.199,5.557,20.0
48.082,-4.942,3.798,25.0
49.348,-5.07,3.634,23.0
49.327,-5.066,3.368,4.0
48.683,-4.997,3.059,4.0
107.236,-11.004,6.168,22.0
108.588,-11.139,5.666,19.0
47.996,-4.932,3.852,27.0
49.141,-5.047,3.68,19.0
49.426,-5.073,3.437,13.0
48.657,-4.992,3.119,15.0
107.403,-11.013,6.311,22.0
108.263,-11.096,5.784,22.0
45.62,-4.684,3.718,9.0
107.278,-11.008,8.169,18.0
49.519,-5.077,3.506,21.0
48.649,-4.985,3.178,7.0
107.497,-11.011,6.448,23.0
108.369,-11.093,5.922,17.0
40.396,-4.142,3.342,35.0
48.156,-4.935,3.726,5.0
49.505,-5.069,3.565,24.0
107.607,-11.011,7.163,20.0
107.536,-10.997,6.581,23.0
107.627,-10.999,6.012,17.0
40.345,-4.13,3.387,40.0
48.012,-4.911,3.773,17.0
49.452,-5.054,3.62,20.0
107.617,-10.992,7.29,20.0
48.672,-4.967,3.036,5.0
107.63,-10.977,6.139,21.0
40.384,-4.126,3.439,37.0
48.001,-4.899,3.829,11.0
49.495,-5.048,3.682,20.0
49.57,-5.051,3.416,6.0
48.658,-4.954,3.092,12.0
107.714,-10.958,6.27,20.0
40.452,-4.123,3.492,34.0
48.057,-4.893,3.89,5.0
49.519,-5.037,3.742,10.0
49.516,-5.031,3.471,30.0
110.146,-11.183,7.129,5.0
107.861,-10.941,6.403,21.0
45.913,-4.665,4.017,4.0
45.74,-4.643,3.755,4.0
48.101,-4.877,3.69,3.0
49.499,-5.014,3.526,27.0
108.747,-11.004,7.163,17.0
107.938,-10.912,6.53,18.0
45.982,-4.657,4.076,5.0
40.49,-4.096,3.371,15.0
48.127,-4.863,3.747,19.0
49.441,-4.99,3.578,30.0
108.184,-10.907,7.248,17.0
0.0,0.0,0.0,0.0
46.007,-4.642,4.13,8.0
40.521,-4.083,3.418,33.0
48.089,-4.84,3.797,13.0
49.521,-4.978,3.638,32.0
49.542,-4.974,3.373,6.0
109.885,-11.02,6.891,20.0
0.0,0.0,0.0,0.0
45.707,-4.586,3.906,5.0
45.725,-4.582,3.66,5.0
0.0,0.0,0.0,0.0
49.664,-4.964,3.434,7.0
110.046,-10.986,7.017,9.0
0.0,0.0,0.0,0.0
45.906,-4.585,3.972,8.0
45.724,-4.56,3.708,15.0
48.046,-4.785,3.632,22.0
49.554,-4.928,3.478,13.0
107.601,-10.688,6.974,12.0
47.925,-4.769,4.456,21.0
45.932,-4.564,4.022,33.0
45.68,-4.532,3.752,11.0
48.076,-4.763,3.684,14.0
49.669,-4.914,3.537,20.0
108.091,-10.679,7.115,17.0
47.765,-4.727,4.491,4.0
45.919,-4.537,4.067,38.0
40.486,-3.994,3.366,16.0
48.065,-4.734,3.731,8.0
49.77,-4.895,3.594,11.0
108.052,-10.612,7.219,18.0
39.454,-3.882,3.748,33.0
45.984,-4.517,4.119,25.0
40.383,-3.96,3.397,30.0
106.99,-10.476,8.409,11.0
49.767,-4.865,3.642,29.0
107.276,-10.47,7.27,18.0
39.294,-3.842,3.771,40.0
46.033,-4.493,4.167,22.0
47.789,-4.656,4.066,15.0
108.274,-10.532,8.614,14.0
49.803,-4.836,3.692,9.0
107.173,-10.39,7.363,15.0
39.276,-3.815,3.806,40.0
46.009,-4.46,4.208,18.0
47.723,-4.618,4.105,16.0
108.352,-10.467,8.718,10.0
107.442,-10.361,8.061,18.0
107.685,-10.366,7.495,16.0
39.3,-3.79,3.844,39.0
0.0,0.0,0.0,0.0
47.88,-4.599,4.161,22.0
107.831,-10.339,8.773,15.0
106.325,-10.176,8.072,14.0
107.617,-10.281,7.585,16.0
39.327,-3.764,3.882,36.0
47.638,-4.55,4.442,6.0
48.064,-4.581,4.219,22.0
47.979,-4.564,3.945,3.0
106.315,-10.094,8.162,16.0
107.383,-10.176,7.66,18.0
39.331,-3.734,3.916,21.0
39.342,-3.727,3.701,24.0
48.211,-4.558,4.272,23.0
48.244,-4.552,4.006,22.0
106.131,-9.994,8.234,7.0
106.645,-10.023,7.693,13.0
39.295,-3.699,3.944,24.0
39.325,-3.694,3.731,34.0
46.017,-4.313,4.114,18.0
48.253,-4.514,4.045,35.0
108.38,-10.117,8.494,15.0
106.437,-9.916,7.76,23.0
0.0,0.0,0.0,0.0
39.233,-3.653,3.753,31.0
46.028,-4.276,4.15,19.0
48.286,-4.475,4.085,29.0
108.063,-9.995,8.55,18.0
106.243,-9.806,7.826,26.0
48.922,-4.523,4.986,7.0
39.181,-3.614,3.777,40.0
47.494,-4.37,4.318,36.0
48.291,-4.433,4.12,22.0
108.021,-9.895,8.626,10.0
106.242,-9.711,7.902,19.0
49.101,-4.496,5.039,6.0
39.257,-3.585,3.813,30.0
47.503,-4.329,4.352,17.0
48.266,-4.388,4.151,28.0
107.947,-9.79,8.693,9.0
108.852,-9.85,8.17,9.0
49.06,-4.446,5.069,17.0
39.275,-3.551,3.84,31.0
47.374,-4.272,4.372,19.0
48.329,-4.347,4.189,23.0
107.361,-9.635,8.716,12.0
108.887,-9.748,8.243,11.0
41.268,-3.7,4.29,9.0
39.29,-3.514,3.867,29.0
47.495,-4.237,4.413,17.0
47.567,-4.232,4.152,18.0
107.221,-9.517,8.771,17.0
111.603,-9.883,8.515,5.0
48.561,-4.307,5.078,25.0
39.285,-3.475,3.89,27.0
47.458,-4.186,4.438,9.0
109.805,-9.661,9.651,15.0
107.156,-9.404,8.828,10.0
111.519,-9.763,8.573,8.0
47.873,-4.197,5.034,16.0
39.254,-3.432,3.91,37.0
0.0,0.0,0.0,0.0
47.434,-4.125,4.195,34.0
106.995,-9.281,8.871,10.0
109.65,-9.487,8.487,8.0
49.37,-4.278,5.217,21.0
39.232,-3.39,3.928,35.0
0.0,0.0,0.0,0.0
47.473,-4.079,4.222,37.0
106.52,-9.127,8.885,20.0
108.584,-9.279,8.458,6.0
49.202,-4.21,5.224,17.0
48.754,-4.159,4.905,14.0
49.273,-4.191,4.684,23.0
47.535,-4.032,4.25,18.0
106.56,-9.014,8.939,26.0
106.888,-9.017,8.375,10.0
49.263,-4.161,5.253,17.0
48.774,-4.107,4.929,34.0
49.323,-4.142,4.71,21.0
47.487,-3.975,4.267,33.0
106.696,-8.908,8.996,25.0
106.909,-8.899,8.423,8.0
49.198,-4.1,5.267,18.0
48.936,-4.066,4.966,29.0
49.315,-4.085,4.73,17.0
47.532,-3.925,4.29,17.0
106.692,-8.786,9.036,23.0
108.411,-8.901,8.581,10.0
49.151,-4.04,5.28,17.0
48.989,-4.014,4.989,22.0
49.328,-4.029,4.749,11.0
106.438,-8.668,9.644,16.0
106.652,-8.659,9.07,21.0
106.941,-8.656,8.502,12.0
49.247,-3.991,5.307,27.0
49.28,-3.98,5.035,8.0
49.372,-3.975,4.769,23.0
106.472,-8.547,9.68,15.0
106.652,-8.534,9.103,21.0
107.02,-8.537,8.54,18.0
49.294,-3.936,5.327,36.0
106.352,-8.464,10.898,23.0
49.364,-3.915,4.782,18.0
107.069,-8.466,9.764,15.0
107.19,-8.448,9.178,18.0
109.169,-8.576,8.74,15.0
49.302,-3.877,5.341,20.0
106.062,-8.313,10.894,19.0
49.401,-3.859,4.798,22.0
109.796,-8.549,10.038,7.0
107.159,-8.316,9.199,24.0
110.003,-8.508,8.831,9.0
49.308,-3.816,5.352,20.0
106.012,-8.178,10.912,24.0
49.402,-3.798,4.808,16.0
107.161,-8.209,9.818,19.0
110.257,-8.419,9.485,6.0
116.755,-8.886,9.394,11.0
49.336,-3.757,5.364,21.0
107.101,-8.127,11.042,18.0
49.44,-3.738,4.819,17.0
106.952,-8.059,9.816,22.0
107.381,-8.063,9.254,16.0
104.733,-7.838,8.44,8.0
49.355,-3.695,5.373,12.0
107.468,-8.017,11.094,19.0
49.512,-3.68,4.832,14.0
107.178,-7.939,9.848,9.0
107.156,-7.909,9.246,14.0
104.707,-7.702,8.448,20.0
107.014,-7.876,11.659,24.0
106.608,-7.818,11.013,18.0
49.503,-3.616,4.835,22.0
109.407,-7.963,10.061,14.0
107.121,-7.769,9.249,20.0
104.611,-7.56,8.446,26.0
107.674,-7.785,11.735,23.0
106.414,-7.664,10.997,22.0
106.765,-7.66,10.431,13.0
108.156,-7.731,9.947,16.0
106.945,-7.615,9.236,20.0
104.578,-7.42,8.445,11.0
0.0,0.0,0.0,0.0
106.525,-7.531,11.008,18.0
106.692,-7.512,10.424,15.0
108.073,-7.581,9.938,16.0
107.09,-7.484,9.245,24.0
106.701,-7.429,8.612,28.0
106.574,-7.42,11.612,20.0
106.615,-7.392,11.013,14.0
107.815,-7.446,10.527,15.0
111.15,-7.647,10.214,6.0
107.662,-7.378,9.287,23.0
107.017,-7.305,8.63,16.0
0.0,0.0,0.0,0.0
106.812,-7.262,11.024,19.0
107.836,-7.303,10.518,17.0
106.425,-7.178,9.768,11.0
106.645,-7.165,9.188,15.0
107.071,-7.166,8.621,23.0
0.0,0.0,0.0,0.0
107.249,-7.147,11.054,15.0
107.982,-7.167,10.517,23.0
106.418,-7.034,9.753,16.0
107.36,-7.068,9.232,16.0
107.448,-7.046,8.634,21.0
0.0,0.0,0.0,0.0
107.794,-7.036,11.091,21.0
107.651,-6.997,10.465,13.0
106.453,-6.891,9.735,21.0
107.143,-6.906,9.193,17.0
107.627,-6.908,8.626,18.0
0.0,0.0,0.0,0.0
107.971,-6.896,11.085,2.0
111.257,-7.077,10.79,8.0
109.077,-6.907,9.949,17.0
107.147,-6.756,9.166,21.0
107.668,-6.762,8.602,22.0
0.0,0.0,0.0,0.0
107.983,-6.746,11.057,19.0
112.055,-6.969,10.837,9.0
109.24,-6.765,9.932,18.0
109.045,-6.724,9.296,11.0
107.933,-6.627,8.591,22.0
0.0,0.0,0.0,0.0
0.0,0.0,0.0,0.0
109.434,-6.653,10.548,12.0
109.016,-6.599,9.877,17.0
0.0,0.0,0.0,0.0
108.67,-6.521,8.613,17.0
0.0,0.0,0.0,0.0
0.0,0.0,0.0,0.0
109.071,-6.478,10.474,8.0
107.243,-6.342,9.677,19.0
0.0,0.0,0.0,0.0
108.722,-6.371,8.575,22.0
0.0,0.0,0.0,0.0
0.0,0.0,0.0,0.0
109.099,-6.328,10.432,20.0
108.787,-6.281,9.771,16.0
108.71,-6.248,9.146,24.0
108.838,-6.227,8.539,21.0
0.0,0.0,0.0,0.0
109.467,-6.224,11.044,10.0
109.396,-6.192,10.411,25.0
109.064,-6.143,9.746,21.0
108.64,-6.092,9.089,20.0
111.19,-6.205,8.671,11.0
0.0,0.0,0.0,0.0
109.541,-6.074,10.997,18.0
109.254,-6.029,10.344,18.0
108.563,-5.96,9.647,22.0
108.645,-5.937,9.035,10.0
111.441,-6.062,8.633,15.0
0.0,0.0,0.0,0.0
0.0,0.0,0.0,0.0
109.217,-5.873,10.281,7.0
112.04,-5.994,9.895,15.0
111.695,-5.946,9.227,16.0
113.165,-5.996,8.703,20.0
0.0,0.0,0.0,0.0
0.0,0.0,0.0,0.0
125.674,-6.578,11.757,24.0
111.774,-5.821,9.805,24.0
111.686,-5.788,9.16,17.0
113.496,-5.853,8.661,19.0
0.0,0.0,0.0,0.0
125.905,-6.445,12.422,2.0
112.53,-5.73,10.456,10.0
111.641,-5.657,9.723,26.0
111.816,-5.636,9.099,15.0
109.521,-5.492,8.287,10.0
0.0,0.0,0.0,0.0
0.0,0.0,0.0,0.0
112.604,-5.574,10.387,10.0
111.735,-5.501,9.655,23.0
116.144,-5.688,9.371,9.0
112.597,-5.487,8.441,11.0
0.0,0.0,0.0,0.0
0.0,0.0,0.0,0.0
126.495,-6.081,11.577,6.0
112.05,-5.359,9.601,15.0
115.994,-5.519,9.275,24.0
116.102,-5.496,8.619,17.0
0.0,0.0,0.0,0.0
0.0,0.0,0.0,0.0
116.613,-5.442,10.585,11.0
116.714,-5.416,9.911,23.0
115.811,-5.346,9.17,25.0
115.459,-5.301,8.482,9.0
0.0,0.0,0.0,0.0
0.0,0.0,0.0,0.0
116.473,-5.27,10.477,16.0
116.76,-5.255,9.821,17.0
115.072,-5.15,9.018,23.0
115.196,-5.128,8.367,26.0
0.0,0.0,0.0,0.0
0.0,0.0,0.0,0.0
116.735,-5.119,10.402,2.0
116.673,-5.087,9.715,19.0
115.047,-4.988,8.918,25.0
115.723,-4.99,8.306,20.0
0.0,0.0,0.0,0.0
0.0,0.0,0.0,0.0
124.409,-5.283,10.976,3.0
115.636,-4.883,9.525,14.0
115.191,-4.836,8.826,29.0
115.833,-4.835,8.21,19.0
0.0,0.0,0.0,0.0
0.0,0.0,0.0,0.0
124.159,-5.102,10.839,23.0
115.055,-4.699,9.37,24.0
115.352,-4.684,8.73,22.0
115.927,-4.68,8.107,17.0
0.0,0.0,0.0,0.0
0.0,0.0,0.0,0.0
124.287,-4.936,10.73,26.0
115.206,-4.547,9.27,26.0
115.207,-4.52,8.607,24.0
115.734,-4.514,7.98,24.0
0.0,0.0,0.0,0.0
113.575,-4.381,10.348,3.0
124.397,-4.77,10.614,26.0
115.632,-4.406,9.187,23.0
115.291,-4.367,8.495,24.0
115.761,-4.357,7.863,24.0
0.0,0.0,0.0,0.0
113.729,-4.232,10.242,3.0
115.232,-4.26,9.71,23.0
115.915,-4.26,9.086,28.0
115.327,-4.211,8.374,22.0
115.924,-4.206,7.75,25.0
0.0,0.0,0.0,0.0
0.0,0.0,0.0,0.0
115.481,-4.114,9.605,24.0
115.066,-4.073,8.893,22.0
123.951,-4.359,8.863,14.0
118.011,-4.124,7.759,23.0
113.741,-3.951,10.65,11.0
0.0,0.0,0.0,0.0
116.272,-3.985,9.537,28.0
115.31,-3.926,8.778,17.0
124.289,-4.205,8.745,26.0
117.581,-3.953,7.595,25.0
0.0,0.0,0.0,0.0
0.0,0.0,0.0,0.0
0.0,0.0,0.0,0.0
0.0,0.0,0.0,0.0
0.0,0.0,0.0,0.0
186.017,-2.594,7.348,11.0
0.0,0.0,0.0,0.0
0.0,0.0,0.0,0.0
0.0,0.0,0.0,0.0
0.0,0.0,0.0,0.0
0.0,0.0,0.0,0.0
185.834,-2.416,7.013,21.0
0.0,0.0,0.0,0.0
0.0,0.0,0.0,0.0
0.0,0.0,0.0,0.0
0.0,0.0,0.0,0.0
186.533,-2.281,7.792,6.0
185.945,-2.248,6.685,24.0
0.0,0.0,0.0,0.0
0.0,0.0,0.0,0.0
0.0,0.0,0.0,0.0
0.0,0.0,0.0,0.0
186.244,-2.111,7.442,11.0
19.791,-0.221,0.675,0.0
0.0,0.0,0.0,0.0
0.0,0.0,0.0,0.0
0.0,0.0,0.0,0.0
0.0,0.0,0.0,0.0
184.429,-1.932,7.031,7.0
19.764,-0.204,0.638,6.0
0.0,0.0,0.0,0.0
0.0,0.0,0.0,0.0
0.0,0.0,0.0,0.0
0.0,0.0,0.0,0.0
19.775,-0.19,0.717,1.0
19.748,-0.188,0.601,9.0
0.0,0.0,0.0,0.0
0.0,0.0,0.0,0.0
0.0,0.0,0.0,0.0
184.018,-1.65,7.401,22.0
19.759,-0.174,0.679,3.0
19.753,-0.172,0.563,7.0
0.0,0.0,0.0,0.0
0.0,0.0,0.0,0.0
184.763,-1.536,8.179,18.0
183.846,-1.508,7.045,20.0
19.737,-0.159,0.641,8.0
19.756,-0.157,0.526,6.0
0.0,0.0,0.0,0.0
0.0,0.0,0.0,0.0
184.648,-1.397,7.819,21.0
19.77,-0.147,0.719,3.0
19.755,-0.145,0.603,3.0
19.783,-0.143,0.488,2.0
0.0,0.0,0.0,0.0
184.812,-1.285,8.544,6.0
184.347,-1.263,7.444,20.0
19.684,-0.132,0.678,3.0
19.692,-0.131,0.563,7.0
19.677,-0.129,0.448,6.0
0.0,0.0,0.0,0.0
184.706,-1.16,8.18,14.0
19.699,-0.121,0.756,3.0
19.648,-0.119,0.638,10.0
19.655,-0.117,0.523,10.0
19.67,-0.115,0.408,9.0
0.0,0.0,0.0,0.0
184.681,-1.038,7.811,21.0
19.68,-0.108,0.717,9.0
19.644,-0.106,0.599,12.0
19.647,-0.105,0.484,10.0
19.658,-0.103,0.369,9.0
186.235,-0.948,8.593,18.0
19.715,-0.098,0.794,1.0
19.654,-0.096,0.676,11.0
19.628,-0.094,0.559,11.0
19.651,-0.093,0.445,9.0
19.658,-0.091,0.33,9.0
184.812,-0.833,8.156,16.0
19.694,-0.087,0.753,8.0
19.642,-0.085,0.636,12.0
19.633,-0.083,0.519,11.0
19.64,-0.082,0.404,9.0
19.665,-0.08,0.289,9.0
184.806,-0.729,7.776,18.0
19.668,-0.076,0.712,10.0
19.635,-0.074,0.596,12.0
19.621,-0.072,0.478,11.0
19.644,-0.071,0.364,9.0
19.652,-0.07,0.249,13.0
19.727,-0.067,0.789,4.0
19.649,-0.065,0.671,13.0
19.621,-0.064,0.555,12.0
19.626,-0.063,0.438,11.0
19.637,-0.061,0.323,11.0
19.676,-0.06,0.209,15.0
19.685,-0.057,0.746,9.0
19.629,-0.056,0.629,12.0
19.619,-0.055,0.514,11.0
19.62,-0.053,0.397,10.0
19.644,-0.052,0.283,10.0
19.679,-0.051,0.168,12.0
19.66,-0.049,0.705,12.0
19.635,-0.047,0.589,12.0
19.624,-0.046,0.473,12.0
19.614,-0.045,0.356,10.0
19.644,-0.044,0.242,13.0
19.706,-0.043,0.127,15.0
19.637,-0.04,0.662,13.0
19.623,-0.039,0.547,13.0
19.62,-0.038,0.432,11.0
19.627,-0.037,0.315,11.0
19.641,-0.036,0.2,14.0
19.703,-0.035,0.086,15.0
19.636,-0.033,0.621,13.0
19.625,-0.032,0.506,12.0
19.613,-0.031,0.39,12.0
19.627,-0.03,0.274,11.0
19.689,-0.029,0.159,7.0
19.707,-0.028,0.044,15.0
19.633,-0.026,0.58,14.0
19.628,-0.025,0.464,14.0
19.621,-0.024,0.349,11.0
19.63,-0.024,0.232,15.0
19.688,-0.023,0.118,7.0
19.724,-0.022,0.003,14.0
19.616,-0.02,0.537,13.0
19.618,-0.02,0.422,12.0
19.613,-0.019,0.308,13.0
19.638,-0.018,0.191,10.0
19.692,-0.017,0.076,7.0
19.74,-0.017,-0.038,12.0
19.623,-0.015,0.496,12.0
19.616,-0.014,0.381,13.0
19.626,-0.014,0.266,13.0
19.746,-0.013,0.15,2.0
19.723,-0.012,0.034,10.0
19.769,-0.012,-0.08,2.0
19.628,-0.011,0.454,13.0
19.611,-0.01,0.339,13.0
19.627,-0.009,0.224,14.0
19.686,-0.009,0.108,2.0
19.728,-0.008,-0.007,12.0
19.759,-0.008,-0.122,1.0
19.622,-0.007,0.412,13.0
19.625,-0.006,0.297,13.0
19.697,-0.006,0.183,8.0
19.752,-0.006,0.066,4.0
19.748,-0.005,-0.049,7.0
19.683,-0.005,-0.164,0.0
19.635,-0.004,0.371,16.0
19.632,-0.004,0.255,14.0
19.753,-0.003,0.141,1.0
19.726,-0.003,0.024,10.0
19.772,-0.002,-0.091,0.0
0.0,0.0,0.0,0.0
19.621,-0.002,0.328,14.0
19.647,-0.001,0.213,15.0
19.787,-0.001,0.099,2.0
19.736,-0.001,-0.018,9.0
19.761,-0.001,-0.133,0.0
0.0,0.0,0.0,0.0
19.634,0.0,0.286,14.0
19.775,0.0,0.172,3.0
19.782,0.0,0.056,4.0
19.731,0.0,-0.06,2.0
19.739,0.0,-0.176,0.0
19.772,0.0,-0.292,0.0
19.639,0.0,0.244,16.0
19.779,0.0,0.129,1.0
19.743,0.0,0.014,9.0
19.785,0.0,-0.103,0.0
19.737,0.0,-0.219,0.0
19.712,0.0,-0.334,0.0
19.658,0.0,0.202,12.0
19.805,0.0,0.087,3.0
19.74,0.0,-0.028,9.0
0.0,0.0,0.0,0.0
19.681,0.0,-0.26,0.0
30.349,0.0,-0.58,1.0
19.794,0.0,0.16,2.0
19.757,0.0,0.044,6.0
19.776,0.0,-0.071,1.0
19.604,0.0,-0.187,0.0
19.625,0.0,-0.302,0.0
28.714,-0.001,-0.611,0.0
19.805,-0.001,0.118,1.0
19.741,-0.001,0.002,10.0
19.774,-0.002,-0.113,0.0
0.0,0.0,0.0,0.0
31.179,-0.004,-0.547,0.0
27.215,-0.004,-0.637,0.0
19.753,-0.135,-0.574,17.0
19.745,-0.137,-0.689,16.0
18.99,-0.134,-0.774,2.0
17.31,-0.124,-0.808,0.0
15.677,-0.113,-0.824,0.0
14.452,-0.106,-0.844,0.0
19.749,-0.149,-0.612,17.0
19.746,-0.151,-0.727,12.0
18.548,-0.144,-0.791,0.0
16.625,-0.131,-0.808,0.0
15.304,-0.122,-0.833,0.0
14.014,-0.113,-0.845,0.0
19.766,-0.164,-0.65,11.0
19.65,-0.165,-0.761,3.0
17.797,-0.152,-0.793,0.0
16.123,-0.139,-0.815,0.0
14.9,-0.13,-0.84,0.0
13.669,-0.121,-0.851,0.0
19.791,-0.18,-0.688,3.0
19.204,-0.176,-0.78,1.0
17.292,-0.161,-0.803,0.0
15.734,-0.148,-0.824,0.0
14.45,-0.138,-0.842,0.0
13.362,-0.129,-0.856,0.0
19.772,-0.195,-0.724,9.0
18.619,-0.186,-0.791,0.0
16.701,-0.169,-0.807,0.0
15.341,-0.157,-0.832,0.0
14.13,-0.146,-0.849,0.0
13.038,-0.137,-0.86,0.0
19.683,-0.211,-0.757,4.0
18.028,-0.195,-0.798,0.0
16.301,-0.179,-0.817,0.0
14.922,-0.165,-0.836,0.0
13.78,-0.154,-0.853,0.0
12.787,-0.145,-0.866,0.0
19.403,-0.225,-0.781,2.0
17.409,-0.204,-0.802,0.0
15.8,-0.187,-0.82,0.0
14.58,-0.174,-0.843,0.0
13.372,-0.162,-0.852,0.0
12.508,-0.153,-0.87,0.0
18.738,-0.233,-0.787,0.0
16.868,-0.212,-0.807,0.0
15.442,-0.197,-0.829,0.0
14.189,-0.182,-0.846,0.0
13.131,-0.171,-0.859,0.0
12.212,-0.16,-0.871,0.0
18.152,-0.243,-0.795,0.0
16.473,-0.223,-0.817,0.0
15.057,-0.205,-0.834,0.0
13.816,-0.19,-0.847,0.0
12.911,-0.18,-0.867,0.0
11.999,-0.169,-0.876,0.0
17.54,-0.251,-0.798,0.0
15.96,-0.231,-0.819,0.0
14.748,-0.215,-0.842,0.0
13.511,-0.199,-0.852,0.0
12.615,-0.188,-0.869,0.0
11.786,-0.177,-0.881,0.0
17.128,-0.262,-0.808,0.0
15.567,-0.24,-0.825,0.0
14.28,-0.223,-0.84,0.0
13.231,-0.208,-0.857,0.0
12.403,-0.197,-0.875,0.0
11.621,-0.187,-0.888,0.0
16.625,-0.271,-0.812,0.0
15.183,-0.25,-0.83,0.0
14.004,-0.233,-0.847,0.0
12.908,-0.216,-0.857,0.0
12.176,-0.206,-0.879,0.0
11.41,-0.195,-0.891,0.0
16.16,-0.28,-0.816,0.0
14.872,-0.26,-0.837,0.0
13.703,-0.242,-0.851,0.0
12.718,-0.226,-0.865,0.0
11.901,-0.214,-0.879,0.0
11.207,-0.203,-0.893,0.0
15.845,-0.291,-0.825,0.0
14.453,-0.268,-0.837,0.0
13.356,-0.25,-0.851,0.0
12.436,-0.235,-0.866,0.0
11.711,-0.223,-0.884,0.0
11.019,-0.212,-0.896,0.0
15.418,-0.3,-0.827,0.0
14.222,-0.279,-0.845,1.0
13.212,-0.262,-0.862,0.0
12.256,-0.245,-0.872,0.0
11.517,-0.232,-0.887,0.0
10.863,-0.221,-0.9,0.0
15.06,-0.31,-0.831,0.0
13.876,-0.288,-0.846,0.0
12.913,-0.27,-0.862,0.0
12.067,-0.254,-0.877,0.0
11.353,-0.241,-0.891,0.0
10.647,-0.228,-0.898,0.0
14.819,-0.321,-0.839,0.0
13.501,-0.295,-0.843,0.0
12.626,-0.278,-0.862,0.0
11.869,-0.264,-0.88,0.0
11.146,-0.249,-0.892,0.0
10.51,-0.237,-0.902,0.0
14.449,-0.33,-0.839,0.0
13.377,-0.308,-0.855,0.0
12.405,-0.287,-0.865,0.0
11.657,-0.272,-0.881,0.0
11.013,-0.259,-0.897,0.0
10.381,-0.246,-0.906,0.0
14.229,-0.341,-0.847,0.0
13.159,-0.318,-0.86,0.0
12.232,-0.298,-0.87,0.0
11.476,-0.282,-0.884,0.0
10.843,-0.268,-0.898,0.0
10.243,-0.255,-0.908,0.0
13.93,-0.35,-0.849,0.0
12.839,-0.325,-0.856,0.0
12.072,-0.308,-0.875,0.0
11.357,-0.292,-0.891,0.0
10.711,-0.278,-0.902,0.0
10.1,-0.264,-0.91,0.0
13.669,-0.36,-0.851,0.0
12.631,-0.335,-0.86,0.0
11.864,-0.317,-0.876,0.0
11.167,-0.301,-0.891,0.0
10.567,-0.287,-0.904,0.0
9.97,-0.273,-0.911,0.0
17.776,-0.49,-1.131,0.0
12.408,-0.345,-0.861,0.0
11.71,-0.328,-0.88,0.0
11.025,-0.311,-0.894,0.0
10.422,-0.296,-0.905,0.0
9.866,-0.282,-0.914,0.0
17.795,-0.513,-1.155,0.0
12.286,-0.357,-0.868,0.0
11.577,-0.338,-0.885,0.0
10.884,-0.32,-0.896,0.0
10.284,-0.305,-0.906,0.0
9.736,-0.291,-0.915,0.0
17.806,-0.536,-1.177,0.0
12.167,-0.368,-0.875,0.0
11.453,-0.349,-0.89,0.0
10.781,-0.331,-0.901,0.0
10.193,-0.315,-0.911,0.0
9.63,-0.3,-0.917,0.0
12.734,-0.399,-0.857,0.0
12.035,-0.38,-0.88,0.0
11.355,-0.361,-0.896,0.0
10.647,-0.34,-0.902,0.0
10.06,-0.324,-0.911,0.0
9.534,-0.309,-0.919,0.0
12.55,-0.409,-0.859,0.0
11.964,-0.393,-0.888,0.0
11.152,-0.368,-0.892,0.0
10.515,-0.35,-0.903,0.0
9.944,-0.333,-0.912,0.0
9.443,-0.318,-0.921,0.0
12.413,-0.421,-0.864,0.0
11.712,-0.4,-0.883,0.0
11.008,-0.378,-0.893,0.0
10.399,-0.359,-0.905,0.0
9.839,-0.342,-0.913,0.0
9.349,-0.327,-0.922,0.0
12.278,-0.433,-0.868,0.0
11.513,-0.408,-0.88,0.0
10.9,-0.389,-0.896,0.0
10.303,-0.37,-0.908,0.0
9.732,-0.352,-0.914,0.0
9.264,-0.337,-0.923,0.0
12.181,-0.445,-0.874,0.0
11.418,-0.42,-0.885,0.0
10.802,-0.4,-0.899,0.0
10.189,-0.379,-0.908,0.0
9.682,-0.363,-0.919,0.0
9.16,-0.345,-0.922,0.0
12.062,-0.457,-0.877,0.0
11.349,-0.433,-0.891,0.0
10.69,-0.41,-0.901,0.0
10.105,-0.39,-0.911,0.0
9.57,-0.371,-0.918,0.0
9.098,-0.355,-0.925,0.0
11.964,-0.469,-0.882,0.0
11.148,-0.44,-0.886,0.0
10.591,-0.42,-0.902,0.0
10.01,-0.4,-0.911,0.0
9.5,-0.382,-0.92,0.0
9.045,-0.365,-0.928,0.0
11.775,-0.478,-0.878,0.0
11.06,-0.451,-0.889,0.0
10.514,-0.431,-0.905,0.0
9.919,-0.409,-0.912,0.0
9.428,-0.391,-0.921,0.0
8.955,-0.374,-0.927,0.0
11.632,-0.488,-0.878,0.0
10.951,-0.462,-0.889,0.0
10.387,-0.44,-0.903,0.0
9.861,-0.42,-0.915,0.0
9.341,-0.401,-0.921,0.0
8.89,-0.383,-0.928,0.0
11.535,-0.499,-0.88,0.0
10.887,-0.474,-0.893,0.0
10.314,-0.451,-0.905,0.0
9.777,-0.43,-0.915,0.0
9.269,-0.41,-0.921,0.0
8.81,-0.392,-0.926,0.0
11.436,-0.511,-0.882,0.0
10.832,-0.486,-0.897,0.0
10.243,-0.462,-0.907,0.0
9.702,-0.44,-0.916,0.0
9.218,-0.42,-0.923,0.0
8.755,-0.402,-0.927,0.0
11.245,-0.518,-0.875,0.0
10.746,-0.497,-0.898,0.0
10.182,-0.473,-0.909,0.0
9.633,-0.45,-0.916,0.0
9.178,-0.431,-0.926,0.0
8.717,-0.412,-0.93,0.0
11.214,-0.532,-0.881,0.0
10.674,-0.509,-0.899,0.0
10.101,-0.484,-0.909,0.0
9.568,-0.461,-0.917,0.0
9.119,-0.441,-0.926,0.0
8.678,-0.422,-0.931,0.0
11.198,-0.546,-0.887,0.0
10.625,-0.521,-0.902,0.0
10.055,-0.495,-0.911,0.0
9.539,-0.472,-0.92,0.0
9.056,-0.451,-0.925,0.0
8.625,-0.432,-0.931,0.0
11.147,-0.559,-0.89,0.0
10.511,-0.53,-0.899,0.0
9.995,-0.506,-0.912,0.0
9.454,-0.482,-0.918,0.0
9.025,-0.462,-0.928,0.0
8.587,-0.442,-0.932,0.0
11.103,-0.573,-0.893,0.0
10.435,-0.541,-0.898,0.0
9.934,-0.517,-0.912,0.0
9.422,-0.493,-0.92,0.0
8.972,-0.472,-0.927,0.0
8.557,-0.452,-0.933,0.0
10.984,-0.582,-0.889,0.0
10.419,-0.554,-0.903,0.0
9.882,-0.528,-0.912,0.0
9.39,-0.504,-0.922,0.0
8.931,-0.482,-0.928,0.0
8.513,-0.462,-0.933,0.0
10.993,-0.597,-0.895,0.0
10.377,-0.566,-0.904,0.0
9.824,-0.539,-0.912,0.0
9.346,-0.515,-0.922,0.0
8.908,-0.493,-0.929,0.0
8.508,-0.473,-0.936,0.0
10.958,-0.611,-0.897,0.0
10.346,-0.579,-0.906,0.0
9.78,-0.55,-0.912,0.0
9.317,-0.526,-0.923,0.0
8.864,-0.503,-0.928,0.0
8.459,-0.482,-0.934,0.0
10.883,-0.621,-0.895,0.0
10.291,-0.59,-0.905,0.0
9.755,-0.562,-0.913,0.0
9.295,-0.538,-0.924,0.0
8.831,-0.513,-0.928,0.0
8.428,-0.492,-0.934,0.0
10.864,-0.635,-0.898,0.0
10.283,-0.604,-0.908,0.0
9.729,-0.574,-0.914,0.0
9.252,-0.548,-0.923,0.0
8.81,-0.524,-0.929,0.0
8.412,-0.503,-0.935,0.0
10.822,-0.647,-0.898,0.0
10.265,-0.617,-0.909,0.0
9.712,-0.586,-0.916,0.0
9.233,-0.56,-0.924,0.0
8.797,-0.535,-0.93,0.0
8.362,-0.511,-0.932,0.0
10.815,-0.662,-0.9,0.0
10.241,-0.629,-0.91,0.0
9.69,-0.598,-0.916,0.0
9.233,-0.572,-0.926,0.0
8.777,-0.546,-0.93,0.0
8.371,-0.523,-0.935,0.0
10.746,-0.672,-0.897,0.0
10.203,-0.641,-0.909,0.0
9.683,-0.611,-0.917,0.0
9.194,-0.582,-0.924,0.0
8.781,-0.558,-0.932,0.0
8.37,-0.535,-0.936,0.0
10.745,-0.687,-0.898,0.0
10.152,-0.651,-0.906,0.0
9.647,-0.621,-0.915,0.0
9.211,-0.596,-0.927,0.0
8.755,-0.569,-0.931,0.0
8.379,-0.547,-0.938,0.0
10.726,-0.7,-0.898,0.0
10.139,-0.664,-0.906,0.0
9.653,-0.635,-0.917,0.0
9.176,-0.606,-0.925,0.0
8.789,-0.583,-0.935,0.0
8.333,-0.555,-0.934,0.0
10.685,-0.711,-0.896,0.0
10.151,-0.678,-0.908,0.0
9.652,-0.648,-0.918,0.0
9.187,-0.619,-0.926,0.0
8.736,-0.591,-0.93,0.0
8.349,-0.567,-0.936,0.0
10.69,-0.726,-0.897,0.0
10.162,-0.692,-0.91,0.0
9.64,-0.659,-0.917,0.0
9.199,-0.632,-0.928,0.0
8.738,-0.602,-0.931,0.0
8.345,-0.577,-0.936,0.0
10.743,-0.743,-0.901,0.0
10.162,-0.706,-0.91,0.0
9.642,-0.672,-0.917,0.0
9.194,-0.643,-0.927,0.0
8.757,-0.615,-0.932,0.0
8.355,-0.589,-0.937,0.0
10.77,-0.759,-0.903,0.0
10.214,-0.722,-0.914,0.0
9.641,-0.684,-0.916,0.0
9.199,-0.655,-0.927,0.0
8.759,-0.626,-0.932,0.0
8.355,-0.6,-0.936,0.0
10.732,-0.77,-0.899,0.0
10.174,-0.732,-0.909,0.0
9.649,-0.697,-0.916,0.0
9.207,-0.667,-0.927,0.0
8.788,-0.639,-0.934,0.0
8.357,-0.61,-0.935,0.0
10.785,-0.787,-0.902,0.0
10.187,-0.746,-0.909,0.0
9.708,-0.713,-0.921,0.0
9.214,-0.679,-0.926,0.0
8.792,-0.651,-0.933,0.0
8.387,-0.623,-0.937,0.0
10.773,-0.8,-0.899,0.0
10.228,-0.762,-0.911,0.0
9.708,-0.725,-0.919,0.0
9.225,-0.692,-0.926,0.0
8.79,-0.661,-0.931,0.0
8.401,-0.634,-0.937,0.0
10.8,-0.815,-0.899,0.0
10.223,-0.774,-0.908,0.0
9.781,-0.743,-0.924,0.0
9.251,-0.705,-0.926,0.0
8.813,-0.674,-0.932,0.0
8.431,-0.647,-0.938,0.0
10.841,-0.831,-0.9,0.0
10.227,-0.786,-0.906,0.0
9.772,-0.754,-0.92,0.0
9.26,-0.717,-0.924,0.0
8.833,-0.686,-0.931,0.0
8.445,-0.658,-0.938,0.0
10.901,-0.848,-0.902,0.0
10.291,-0.803,-0.909,0.0
9.787,-0.766,-0.919,0.0
9.272,-0.728,-0.923,0.0
8.898,-0.701,-0.935,0.0
8.454,-0.668,-0.936,0.0
10.975,-0.867,-0.904,0.0
10.363,-0.821,-0.911,0.0
9.806,-0.779,-0.917,0.0
9.298,-0.741,-0.922,0.0
8.918,-0.713,-0.934,0.0
8.518,-0.683,-0.94,0.0
10.994,-0.881,-0.902,0.0
10.355,-0.832,-0.907,0.0
9.897,-0.797,-0.921,0.0
9.386,-0.759,-0.927,0.0
8.923,-0.723,-0.931,0.0
8.508,-0.692,-0.935,0.0
11.01,-0.894,-0.899,0.0
10.465,-0.852,-0.912,0.0
9.905,-0.809,-0.918,0.0
9.41,-0.771,-0.925,0.0
8.96,-0.736,-0.931,0.0
8.552,-0.705,-0.936,0.0
11.062,-0.91,-0.898,0.0
10.468,-0.864,-0.907,0.0
9.928,-0.822,-0.916,0.0
9.399,-0.78,-0.92,0.0
8.981,-0.748,-0.929,0.0
8.562,-0.715,-0.933,0.0
11.096,-0.925,-0.895,0.0
10.507,-0.878,-0.906,0.0
10.003,-0.838,-0.917,0.0
9.478,-0.796,-0.923,0.0
9.045,-0.762,-0.931,0.0
8.623,-0.729,-0.935,0.0
11.122,-0.939,-0.892,0.0
10.589,-0.896,-0.907,0.0
10.067,-0.854,-0.918,0.0
9.541,-0.812,-0.924,0.0
9.065,-0.773,-0.928,0.0
8.639,-0.739,-0.932,0.0
11.303,-0.965,-0.9,0.0
10.578,-0.906,-0.9,0.0
10.129,-0.869,-0.917,0.0
9.636,-0.829,-0.927,0.0
9.136,-0.788,-0.929,0.0
8.685,-0.751,-0.932,0.0
11.346,-0.98,-0.896,0.0
10.634,-0.921,-0.898,0.0
10.179,-0.884,-0.916,0.0
9.689,-0.843,-0.926,0.0
9.224,-0.805,-0.933,0.0
8.75,-0.765,-0.933,0.0
11.437,-0.999,-0.896,0.0
10.814,-0.947,-0.906,0.0
10.247,-0.899,-0.915,0.0
9.721,-0.855,-0.923,0.0
9.283,-0.819,-0.932,0.0
8.81,-0.779,-0.933,0.0
11.486,-1.014,-0.892,0.0
10.867,-0.961,-0.904,0.0
10.335,-0.916,-0.916,0.0
9.818,-0.873,-0.925,0.0
9.33,-0.831,-0.93,0.0
8.851,-0.79,-0.931,0.0
11.605,-1.035,-0.893,0.0
10.98,-0.981,-0.905,0.0
10.38,-0.929,-0.912,0.0
9.86,-0.885,-0.922,0.0
9.387,-0.844,-0.929,0.0
8.951,-0.807,-0.935,0.0
11.701,-1.053,-0.892,0.0
11.06,-0.997,-0.903,0.0
10.418,-0.942,-0.908,0.0
9.915,-0.898,-0.919,0.0
9.427,-0.856,-0.926,0.0
9.051,-0.823,-0.938,0.0
11.827,-1.074,-0.892,0.0
11.157,-1.015,-0.902,0.0
10.505,-0.958,-0.907,0.0
10.02,-0.916,-0.921,0.0
9.566,-0.876,-0.932,0.0
9.069,-0.832,-0.933,0.0
11.857,-1.086,-0.885,0.0
11.273,-1.035,-0.903,0.0
10.598,-0.975,-0.907,0.0
10.113,-0.932,-0.921,0.0
9.605,-0.887,-0.927,0.0
9.122,-0.844,-0.931,0.0
12.029,-1.111,-0.888,0.0
11.349,-1.05,-0.899,0.0
10.691,-0.991,-0.905,0.0
10.154,-0.943,-0.916,0.0
9.679,-0.901,-0.926,0.0
9.231,-0.861,-0.934,0.0
12.078,-1.125,-0.881,0.0
11.477,-1.07,-0.899,0.0
10.828,-1.012,-0.907,0.0
10.263,-0.961,-0.917,0.0
9.785,-0.918,-0.927,0.0
9.289,-0.873,-0.931,0.0
12.191,-1.143,-0.878,0.0
11.555,-1.086,-0.895,0.0
10.932,-1.029,-0.906,0.0
10.331,-0.974,-0.913,0.0
9.874,-0.933,-0.926,0.0
9.37,-0.887,-0.93,0.0
12.33,-1.165,-0.876,0.0
11.715,-1.108,-0.896,0.0
11.053,-1.047,-0.905,0.0
10.442,-0.991,-0.913,0.0
9.953,-0.946,-0.924,0.0
9.464,-0.901,-0.931,0.0
12.504,-1.189,-0.877,0.0
11.888,-1.132,-0.898,0.0
11.161,-1.064,-0.903,0.0
10.543,-1.007,-0.912,0.0
10.027,-0.959,-0.921,0.0
9.568,-0.917,-0.931,0.0
12.572,-1.202,-0.869,0.0
11.959,-1.146,-0.891,0.0
11.23,-1.077,-0.898,0.0
10.706,-1.029,-0.915,0.0
10.139,-0.976,-0.921,0.0
9.643,-0.929,-0.929,0.0
12.71,-1.223,-0.866,0.0
12.123,-1.168,-0.891,0.0
11.439,-1.103,-0.903,0.0
10.765,-1.04,-0.909,0.0
10.192,-0.986,-0.915,0.0
9.725,-0.942,-0.926,0.0
13.025,-1.26,-0.874,0.0
12.193,-1.181,-0.883,0.0
11.538,-1.119,-0.898,0.0
10.87,-1.055,-0.906,0.0
10.336,-1.005,-0.917,0.0
9.871,-0.961,-0.929,0.0
13.223,-1.285,-0.873,0.0
12.35,-1.201,-0.881,0.0
11.755,-1.145,-0.902,0.0
10.992,-1.072,-0.904,0.0
10.471,-1.023,-0.918,0.0
9.944,-0.972,-0.925,0.0
13.351,-1.303,-0.866,0.0
12.461,-1.218,-0.876,0.0
11.821,-1.156,-0.894,0.0
11.126,-1.09,-0.903,0.0
10.611,-1.04,-0.918,0.0
10.007,-0.982,-0.92,0.0
13.728,-1.345,-0.876,0.0
12.628,-1.239,-0.873,0.0
11.96,-1.174,-0.891,0.0
11.307,-1.111,-0.905,0.0
10.725,-1.055,-0.916,0.0
10.128,-0.998,-0.919,0.0
13.894,-1.366,-0.87,0.0
12.743,-1.254,-0.866,0.0
12.158,-1.198,-0.892,0.0
11.334,-1.118,-0.893,0.0
10.863,-1.072,-0.915,0.0
10.234,-1.011,-0.917,0.0
14.154,-1.396,-0.87,0.0
13.114,-1.295,-0.876,0.0
12.311,-1.216,-0.889,0.0
11.648,-1.152,-0.905,0.0
10.935,-1.082,-0.908,0.0
10.373,-1.028,-0.917,0.0
14.374,-1.422,-0.867,0.0
13.2,-1.306,-0.867,0.0
12.437,-1.232,-0.883,0.0
11.746,-1.164,-0.898,0.0
11.082,-1.099,-0.907,0.0
10.506,-1.043,-0.916,0.0
14.653,-1.452,-0.866,0.0
13.402,-1.329,-0.864,0.0
12.549,-1.246,-0.876,0.0
11.915,-1.183,-0.897,0.0
11.149,-1.108,-0.899,0.0
10.667,-1.061,-0.917,0.0
14.878,-1.477,-0.861,0.0
13.81,-1.372,-0.873,0.0
12.848,-1.277,-0.881,0.0
12.062,-1.2,-0.893,0.0
11.335,-1.128,-0.9,0.0
10.799,-1.076,-0.915,0.0
15.08,-1.5,-0.854,0.0
14.015,-1.394,-0.869,0.0
13.049,-1.299,-0.878,0.0
12.284,-1.223,-0.894,0.0
11.495,-1.145,-0.898,0.0
10.894,-1.086,-0.909,0.0
15.36,-1.529,-0.851,0.0
14.284,-1.422,-0.867,0.0
13.188,-1.314,-0.871,0.0
12.357,-1.231,-0.884,0.0
11.678,-1.164,-0.898,0.0
11.043,-1.102,-0.908,0.0
15.721,-1.566,-0.851,0.0
14.555,-1.45,-0.865,0.0
13.476,-1.343,-0.873,0.0
12.53,-1.249,-0.88,0.0
11.906,-1.187,-0.9,0.0
11.127,-1.11,-0.9,0.0
16.105,-1.604,-0.851,0.0
14.886,-1.483,-0.866,0.0
13.779,-1.373,-0.875,0.0
12.758,-1.271,-0.879,0.0
12.061,-1.202,-0.896,0.0
11.338,-1.131,-0.902,0.0
16.381,-1.631,-0.844,0.0
15.074,-1.501,-0.857,0.0
14.017,-1.396,-0.872,0.0
13.042,-1.299,-0.882,0.0
12.272,-1.223,-0.895,0.0
11.542,-1.15,-0.904,0.0
16.659,-1.657,-0.837,0.0
15.252,-1.517,-0.847,0.0
14.305,-1.423,-0.87,0.0
13.143,-1.308,-0.871,0.0
12.39,-1.233,-0.887,0.0
11.743,-1.168,-0.903,0.0
16.981,-1.687,-0.831,0.0
15.707,-1.56,-0.851,0.0
14.583,-1.449,-0.868,0.0
13.381,-1.329,-0.869,0.0
12.582,-1.25,-0.884,0.0
11.882,-1.18,-0.898,0.0
17.248,-1.711,-0.821,0.0
16.161,-1.603,-0.855,0.0
14.871,-1.475,-0.865,0.0
13.729,-1.361,-0.873,0.0
12.68,-1.257,-0.874,0.0
12.057,-1.195,-0.895,0.0
17.746,-1.756,-0.821,0.0
16.408,-1.623,-0.846,0.0
15.073,-1.491,-0.857,0.0
14.02,-1.387,-0.873,0.0
13.02,-1.287,-0.88,0.0
12.306,-1.217,-0.897,0.0
18.049,-1.782,-0.81,0.0
16.711,-1.649,-0.839,0.0
15.432,-1.522,-0.856,0.0
14.318,-1.412,-0.872,0.0
13.23,-1.304,-0.876,0.0
12.401,-1.222,-0.887,0.0
18.435,-1.814,-0.803,0.0
17.136,-1.686,-0.837,0.0
15.743,-1.548,-0.852,0.0
14.588,-1.434,-0.869,0.0
13.548,-1.331,-0.879,0.0
12.499,-1.228,-0.877,0.0
0.0,0.0,0.0,0.0
17.429,-1.708,-0.828,0.0
16.192,-1.586,-0.855,0.0
14.866,-1.456,-0.865,0.0
13.84,-1.354,-0.879,0.0
12.661,-1.239,-0.871,0.0
19.498,-1.904,-0.796,0.0
17.613,-1.719,-0.812,0.0
16.391,-1.599,-0.843,0.0
15.106,-1.473,-0.858,0.0
14.07,-1.371,-0.874,0.0
13.031,-1.269,-0.879,0.0
19.892,-1.934,-0.785,0.0
17.716,-1.722,-0.793,0.0
16.851,-1.636,-0.843,0.0
15.437,-1.498,-0.856,0.0
14.372,-1.394,-0.873,0.0
13.293,-1.288,-0.878,0.0
20.711,-2.004,-0.789,0.0
18.699,-1.808,-0.811,0.0
17.224,-1.664,-0.838,0.0
15.963,-1.541,-0.863,0.0
14.652,-1.413,-0.87,0.0
13.504,-1.301,-0.873,0.0
21.127,-2.033,-0.776,0.0
19.302,-1.856,-0.811,0.0
17.401,-1.671,-0.823,0.0
16.235,-1.558,-0.855,0.0
14.89,-1.428,-0.863,0.0
13.893,-1.331,-0.879,0.0
21.536,-2.06,-0.761,0.0
19.557,-1.869,-0.794,0.0
17.701,-1.69,-0.813,0.0
16.441,-1.568,-0.843,0.0
15.218,-1.45,-0.861,0.0
14.189,-1.351,-0.878,0.0
21.947,-2.086,-0.745,0.0
0.0,0.0,0.0,0.0
18.355,-1.741,-0.817,0.0
16.799,-1.591,-0.839,0.0
15.494,-1.466,-0.856,0.0
14.423,-1.363,-0.873,0.0
22.814,-2.154,-0.744,0.0
20.682,-1.95,-0.783,0.0
18.821,-1.772,-0.812,0.0
17.282,-1.625,-0.839,0.0
15.842,-1.488,-0.853,0.0
14.681,-1.377,-0.868,0.0
23.608,-2.212,-0.737,0.0
21.302,-1.993,-0.778,0.0
19.232,-1.797,-0.804,0.0
17.423,-1.626,-0.822,0.0
16.256,-1.515,-0.853,0.0
14.923,-1.389,-0.862,0.0
24.386,-2.267,-0.729,0.0
21.662,-2.011,-0.761,0.0
0.0,0.0,0.0,0.0
17.841,-1.651,-0.818,0.0
16.529,-1.528,-0.845,0.0
15.309,-1.413,-0.863,0.0
24.673,-2.274,-0.703,0.0
22.265,-2.049,-0.752,0.0
20.14,-1.85,-0.787,0.0
18.431,-1.691,-0.819,0.0
16.962,-1.554,-0.844,0.0
15.529,-1.42,-0.855,0.0
25.541,-2.333,-0.693,0.0
0.0,0.0,0.0,0.0
20.829,-1.896,-0.785,0.0
18.817,-1.71,-0.811,0.0
17.398,-1.578,-0.841,0.0
15.965,-1.446,-0.857,0.0
26.817,-2.426,-0.691,0.0
23.698,-2.14,-0.736,0.0
21.324,-1.922,-0.775,0.0
19.417,-1.747,-0.81,0.0
17.513,-1.573,-0.823,0.0
16.31,-1.462,-0.853,0.0
0.0,0.0,0.0,0.0
24.488,-2.188,-0.728,0.0
21.71,-1.936,-0.76,0.0
19.74,-1.757,-0.797,0.0
18.154,-1.613,-0.829,0.0
16.676,-1.479,-0.85,0.0
28.065,-2.486,-0.649,0.0
24.763,-2.189,-0.703,0.0
22.269,-1.964,-0.75,0.0
20.219,-1.78,-0.79,0.0
18.286,-1.606,-0.811,0.0
17.123,-1.501,-0.85,0.0
29.648,-2.596,-0.646,0.0
25.566,-2.234,-0.692,0.0
23.125,-2.016,-0.748,0.0
20.598,-1.792,-0.778,0.0
18.83,-1.635,-0.811,0.0
17.32,-1.501,-0.837,0.0
30.895,-2.673,-0.633,0.0
0.0,0.0,0.0,0.0
23.378,-2.014,-0.726,0.0
0.0,0.0,0.0,0.0
19.479,-1.67,-0.813,0.0
17.72,-1.516,-0.833,0.0
0.0,0.0,0.0,0.0
27.406,-2.336,-0.671,0.0
0.0,0.0,0.0,0.0
21.757,-1.846,-0.765,0.0
19.686,-1.666,-0.796,0.0
17.853,-1.507,-0.817,0.0
32.617,-2.75,-0.584,0.0
28.505,-2.397,-0.661,0.0
25.165,-2.111,-0.717,0.0
21.939,-1.836,-0.743,0.0
20.136,-1.681,-0.789,0.0
18.315,-1.525,-0.814,0.0
0.0,0.0,0.0,0.0
29.139,-2.416,-0.639,0.0
25.954,-2.147,-0.706,0.0
23.054,-1.902,-0.752,0.0
20.861,-1.716,-0.791,0.0
18.981,-1.557,-0.82,0.0
33.266,-2.726,-0.511,0.0
30.617,-2.502,-0.632,0.0
26.832,-2.186,-0.696,0.0
23.62,-1.919,-0.74,0.0
21.228,-1.72,-0.778,0.0
19.266,-1.557,-0.808,0.0
36.458,-2.942,-0.516,0.0
30.691,-2.469,-0.596,0.0
27.759,-2.227,-0.686,0.0
23.724,-1.898,-0.715,0.0
21.761,-1.736,-0.771,0.0
19.738,-1.57,-0.804,0.0
0.0,0.0,0.0,0.0
32.361,-2.563,-0.59,0.0
0.0,0.0,0.0,0.0
24.594,-1.935,-0.711,0.0
22.046,-1.729,-0.754,0.0
20.1,-1.572,-0.794,0.0
41.694,-3.257,-0.488,0.0
33.193,-2.584,-0.564,0.0
28.99,-2.249,-0.646,0.0
24.868,-1.923,-0.689,0.0
22.812,-1.759,-0.753,0.0
20.441,-1.571,-0.783,0.0
41.581,-3.191,-0.437,1.0
33.895,-2.592,-0.536,0.0
0.0,0.0,0.0,0.0
0.0,0.0,0.0,0.0
23.069,-1.746,-0.734,0.0
20.875,-1.575,-0.775,0.0
0.0,0.0,0.0,0.0
0.0,0.0,0.0,0.0
30.838,-2.307,-0.615,0.0
0.0,0.0,0.0,0.0
24.07,-1.788,-0.738,0.0
21.511,-1.592,-0.774,0.0
0.0,0.0,0.0,0.0
37.027,-2.726,-0.5,0.0
0.0,0.0,0.0,0.0
27.658,-2.021,-0.67,0.0
24.494,-1.784,-0.723,0.0
21.929,-1.591,-0.764,0.0
0.0,0.0,0.0,0.0
39.64,-2.86,-0.491,0.0
32.974,-2.37,-0.583,0.0
29.113,-2.085,-0.672,0.0
24.629,-1.757,-0.7,0.0
22.288,-1.584,-0.752,0.0
0.0,0.0,0.0,0.0
39.62,-2.799,-0.447,0.0
31.884,-2.244,-0.529,0.0
0.0,0.0,0.0,0.0
25.688,-1.793,-0.702,0.0
22.485,-1.563,-0.734,0.0
0.0,0.0,0.0,0.0
0.0,0.0,0.0,0.0
35.467,-2.441,-0.55,0.0
30.691,-2.103,-0.643,0.0
26.363,-1.799,-0.692,0.0
0.0,0.0,0.0,0.0
0.0,0.0,0.0,0.0
0.0,0.0,0.0,0.0
36.671,-2.466,-0.53,0.0
30.942,-2.071,-0.615,0.0
27.146,-1.809,-0.684,0.0
24.111,-1.6,-0.736,0.0
0.0,0.0,0.0,0.0
0.0,0.0,0.0,0.0
0.0,0.0,0.0,0.0
31.879,-2.082,-0.601,0.0
27.634,-1.796,-0.668,0.0
24.506,-1.586,-0.723,0.0
0.0,0.0,0.0,0.0
0.0,0.0,0.0,0.0
0.0,0.0,0.0,0.0
32.901,-2.095,-0.588,0.0
0.0,0.0,0.0,0.0
25.349,-1.599,-0.723,0.0
0.0,0.0,0.0,0.0
0.0,0.0,0.0,0.0
0.0,0.0,0.0,0.0
0.0,0.0,0.0,0.0
0.0,0.0,0.0,0.0
25.418,-1.56,-0.701,0.0
0.0,0.0,0.0,0.0
0.0,0.0,0.0,0.0
0.0,0.0,0.0,0.0
33.402,-2.013,-0.532,0.0
29.634,-1.776,-0.631,0.0
25.75,-1.536,-0.686,0.0
0.0,0.0,0.0,0.0
0.0,0.0,0.0,0.0
0.0,0.0,0.0,0.0
35.804,-2.096,-0.538,0.0
30.143,-1.755,-0.614,0.0
0.0,0.0,0.0,0.0
0.0,0.0,0.0,0.0
0.0,0.0,0.0,0.0
0.0,0.0,0.0,0.0
0.0,0.0,0.0,0.0
30.411,-1.716,-0.593,0.0
0.0,0.0,0.0,0.0
0.0,0.0,0.0,0.0
0.0,0.0,0.0,0.0
0.0,0.0,0.0,0.0
37.326,-2.052,-0.496,0.0
0.0,0.0,0.0,0.0
0.0,0.0,0.0,0.0
0.0,0.0,0.0,0.0
0.0,0.0,0.0,0.0
0.0,0.0,0.0,0.0
0.0,0.0,0.0,0.0
32.621,-1.723,-0.581,0.0
28.485,-1.494,-0.66,1.0
0.0,0.0,0.0,0.0
0.0,0.0,0.0,0.0
0.0,0.0,0.0,0.0
0.0,0.0,0.0,0.0
0.0,0.0,0.0,0.0
29.433,-1.49,-0.659,0.0
103.246,-5.211,0.549,5.0
101.647,-5.095,-0.005,2.0
0.0,0.0,0.0,0.0
0.0,0.0,0.0,0.0
33.746,-1.656,-0.548,0.0
29.68,-1.447,-0.642,0.0
102.406,-4.975,0.621,1.0
101.498,-4.897,0.07,3.0
43.615,-2.089,-0.204,1.0
0.0,0.0,0.0,0.0
0.0,0.0,0.0,0.0
26.923,-1.262,-0.563,0.0
0.0,0.0,0.0,0.0
0.0,0.0,0.0,0.0
0.0,0.0,0.0,0.0
43.867,-2.002,-0.415,0.0
35.003,-1.586,-0.519,0.0
30.441,-1.368,-0.615,0.0
101.505,-4.544,0.758,1.0
0.0,0.0,0.0,0.0
0.0,0.0,0.0,0.0
45.408,-1.984,-0.399,0.0
0.0,0.0,0.0,0.0
0.0,0.0,0.0,0.0
101.454,-4.345,0.824,8.0
0.0,0.0,0.0,0.0
0.0,0.0,0.0,0.0
0.0,0.0,0.0,0.0
37.255,-1.543,-0.504,0.0
32.29,-1.326,-0.611,0.0
101.496,-4.147,0.887,59.0
0.0,0.0,0.0,0.0
0.0,0.0,0.0,0.0
45.567,-1.812,-0.343,0.0
37.953,-1.496,-0.491,0.0
31.582,-1.233,-0.579,0.0
0.0,0.0,0.0,0.0
0.0,0.0,0.0,0.0
0.0,0.0,0.0,0.0
0.0,0.0,0.0,0.0
37.114,-1.389,-0.459,0.0
31.726,-1.176,-0.564,0.0
162.284,-5.979,1.606,20.0
0.0,0.0,0.0,0.0
0.0,0.0,0.0,0.0
0.0,0.0,0.0,0.0
0.0,0.0,0.0,0.0
0.0,0.0,0.0,0.0
161.978,-5.639,1.688,24.0
160.838,-5.54,0.805,4.0
0.0,0.0,0.0,0.0
0.0,0.0,0.0,0.0
0.0,0.0,0.0,0.0
33.831,-1.117,-0.567,0.0
161.923,-5.31,1.766,29.0
160.811,-5.215,0.881,6.0
0.0,0.0,0.0,0.0
0.0,0.0,0.0,0.0
0.0,0.0,0.0,0.0
0.0,0.0,0.0,0.0
161.861,-4.978,1.837,16.0
160.696,-4.882,0.952,10.0
0.0,0.0,0.0,0.0
0.0,0.0,0.0,0.0
0.0,0.0,0.0,0.0
33.598,-0.972,-0.534,0.0
161.894,-4.643,1.905,16.0
160.686,-4.548,1.018,14.0
0.0,0.0,0.0,0.0
0.0,0.0,0.0,0.0
0.0,0.0,0.0,0.0
35.092,-0.943,-0.544,0.0
161.941,-4.308,1.967,27.0
160.644,-4.215,1.077,12.0
0.0,0.0,0.0,0.0
0.0,0.0,0.0,0.0
0.0,0.0,0.0,0.0
0.0,0.0,0.0,0.0
161.841,-3.969,2.021,7.0
0.0,0.0,0.0,0.0
0.0,0.0,0.0,0.0
0.0,0.0,0.0,0.0
0.0,0.0,0.0,0.0
0.0,0.0,0.0,0.0
134.551,-3.018,1.722,11.0
134.429,-2.966,0.987,88.0
0.0,0.0,0.0,0.0
0.0,0.0,0.0,0.0
0.0,0.0,0.0,0.0
35.698,-0.735,-0.52,0.0
134.532,-2.731,1.758,4.0
134.384,-2.68,1.023,86.0
0.0,0.0,0.0,0.0
0.0,0.0,0.0,0.0
0.0,0.0,0.0,0.0
0.0,0.0,0.0,0.0
134.46,-2.443,1.789,2.0
134.404,-2.393,1.053,151.0
0.0,0.0,0.0,0.0
0.0,0.0,0.0,0.0
0.0,0.0,0.0,0.0
35.891,-0.587,-0.507,0.0
0.0,0.0,0.0,0.0
19.74,-0.309,0.158,11.0
19.762,-0.302,0.05,1.0
0.0,0.0,0.0,0.0
0.0,0.0,0.0,0.0
36.262,-0.515,-0.506,0.0
19.751,-0.274,0.269,9.0
19.744,-0.267,0.161,28.0
19.787,-0.26,0.053,0.0
0.0,0.0,0.0,0.0
0.0,0.0,0.0,0.0
0.0,0.0,0.0,0.0
19.749,-0.232,0.272,8.0
19.787,-0.225,0.164,0.0
0.0,0.0,0.0,0.0
0.0,0.0,0.0,0.0
19.705,-0.202,-0.162,0.0
19.77,-0.196,-0.271,8.0
170.283,-1.635,2.362,15.0
168.724,-1.557,1.414,6.0
0.0,0.0,0.0,0.0
19.799,-0.168,-0.053,2.0
19.74,-0.161,-0.161,14.0
19.741,-0.154,-0.27,16.0
169.937,-1.268,2.365,8.0
19.749,-0.14,0.166,2.0
19.752,-0.132,0.057,7.0
19.735,-0.125,-0.052,9.0
19.722,-0.118,-0.161,17.0
19.747,-0.111,-0.269,16.0
19.688,-0.104,0.274,9.0
19.717,-0.097,0.166,13.0
19.707,-0.09,0.057,14.0
19.706,-0.082,-0.052,15.0
19.719,-0.075,-0.161,17.0
19.748,-0.068,-0.27,15.0
19.65,-0.061,0.273,10.0
19.685,-0.054,0.165,12.0
19.694,-0.047,0.056,15.0
19.707,-0.04,-0.053,14.0
19.745,-0.033,-0.162,11.0
0.0,0.0,0.0,0.0
19.637,-0.019,0.271,14.0
19.739,-0.012,0.164,4.0
19.777,-0.005,0.055,4.0
19.742,0.001,-0.055,9.0
19.778,0.008,-0.164,1.0
19.766,0.015,-0.273,4.0
19.626,0.022,0.269,14.0
19.746,0.029,0.162,17.0
19.753,0.036,0.053,16.0
19.754,0.043,-0.057,81.0
19.752,0.05,-0.167,43.0
19.776,0.058,-0.276,67.0
19.62,0.064,0.266,16.0
19.66,0.072,0.158,12.0
19.688,0.079,0.049,14.0
19.725,0.086,-0.061,3.0
19.734,0.093,-0.17,0.0
35.827,0.181,-0.507,0.0
19.618,0.106,0.263,13.0
19.661,0.114,0.154,15.0
19.639,0.121,0.046,13.0
19.649,0.128,-0.064,10.0
19.665,0.135,-0.173,9.0
19.732,0.142,-0.283,0.0
19.645,0.149,0.259,11.0
19.662,0.156,0.15,13.0
19.64,0.163,0.041,13.0
19.644,0.169,-0.069,12.0
19.64,0.176,-0.178,15.0
19.656,0.183,-0.287,17.0
19.731,0.191,0.255,9.0
19.736,0.198,0.146,15.0
19.674,0.205,0.036,11.0
19.632,0.211,-0.074,14.0
19.646,0.218,-0.183,17.0
19.665,0.225,-0.292,21.0
19.739,0.233,0.249,15.0
19.773,0.24,0.14,25.0
19.779,0.248,0.03,0.0
19.67,0.253,-0.08,10.0
19.654,0.259,-0.189,14.0
19.662,0.266,-0.299,14.0
19.751,0.275,0.243,9.0
19.8,0.283,0.134,0.0
0.0,0.0,0.0,0.0
46.545,0.698,-0.206,1.0
19.674,0.301,-0.196,0.0
19.696,0.308,-0.306,0.0
55.205,0.886,0.66,22.0
55.183,0.905,0.353,50.0
55.174,0.923,0.046,49.0
44.982,0.768,-0.216,0.0
35.66,0.62,-0.37,0.0
31.463,0.558,-0.501,0.0
55.169,1.002,0.638,49.0
55.191,1.02,0.331,34.0
55.216,1.039,0.023,24.0
44.565,0.853,-0.233,0.0
34.118,0.665,-0.368,3.0
29.459,0.584,-0.482,0.0
162.737,3.295,1.812,17.0
83.435,1.717,0.464,2.0
56.516,1.182,0.0,0.0
43.631,0.927,-0.248,1.0
34.865,0.752,-0.392,1.0
29.073,0.637,-0.489,1.0
70.984,1.585,0.756,4.0
77.785,1.763,0.395,1.0
45.535,1.046,-0.022,10.0
41.61,0.97,-0.257,2.0
33.54,0.793,-0.394,0.0
28.733,0.689,-0.498,2.0
70.888,1.731,0.719,30.0
70.608,1.747,0.322,22.0
41.94,1.051,-0.042,153.0
39.987,1.015,-0.268,10.0
33.031,0.849,-0.406,1.0
28.319,0.737,-0.506,1.0
0.0,0.0,0.0,0.0
0.0,0.0,0.0,0.0
40.139,1.087,-0.063,164.0
39.977,1.096,-0.29,15.0
40.212,1.116,-0.517,0.0
27.307,0.766,-0.503,1.0
40.127,1.143,0.362,145.0
40.129,1.156,0.137,127.0
40.131,1.169,-0.086,150.0
39.916,1.176,-0.313,5.0
40.206,1.198,-0.541,1.0
27.205,0.819,-0.518,7.0
40.127,1.225,0.337,113.0
40.124,1.237,0.113,150.0
40.121,1.25,-0.111,150.0
39.951,1.257,-0.339,2.0
40.181,1.277,-0.566,2.0
26.143,0.839,-0.515,4.0
40.127,1.306,0.311,150.0
40.096,1.317,0.086,66.0
40.1,1.33,-0.138,102.0
40.062,1.341,-0.366,1.0
30.095,1.016,-0.444,1.0
25.817,0.88,-0.526,2.0
71.058,2.454,0.503,6.0
40.122,1.397,0.059,150.0
40.125,1.41,-0.165,91.0
40.151,1.423,-0.395,0.0
29.521,1.055,-0.456,2.0
25.161,0.907,-0.53,1.0
43.85,1.6,0.279,178.0
42.088,1.548,0.031,0.0
41.689,1.547,-0.202,2.0
35.334,1.321,-0.374,1.0
29.027,1.094,-0.47,2.0
24.611,0.935,-0.537,2.0
40.801,1.568,0.229,124.0
40.341,1.563,0.0,158.0
40.341,1.574,-0.226,81.0
33.334,1.311,-0.378,1.0
28.313,1.122,-0.48,4.0
23.683,0.945,-0.535,28.0
62.034,2.504,0.3,15.0
40.326,1.639,-0.031,72.0
40.256,1.648,-0.257,15.0
23.663,0.976,-0.287,0.0
23.649,0.982,-0.42,6.0
23.591,0.987,-0.552,20.0
23.649,0.999,0.095,40.0
23.641,1.006,-0.037,42.0
23.624,1.012,-0.17,43.0
23.625,1.019,-0.306,46.0
23.623,1.025,-0.439,44.0
23.379,1.021,-0.566,14.0
23.601,1.041,0.075,66.0
23.608,1.048,-0.057,72.0
23.6,1.055,-0.19,69.0
23.603,1.062,-0.326,68.0
23.605,1.068,-0.459,68.0
23.146,1.054,-0.58,5.0
23.611,1.085,0.055,64.0
23.608,1.092,-0.078,61.0
23.609,1.098,-0.211,47.0
23.623,1.106,-0.347,43.0
23.635,1.113,-0.48,34.0
21.859,1.035,-0.568,1.0
23.641,1.13,0.033,38.0
40.316,1.938,-0.169,4.0
23.636,1.143,-0.233,10.0
23.649,1.15,-0.369,3.0
23.695,1.158,-0.503,50.0
21.255,1.045,-0.572,1.0
45.179,2.241,0.022,45.0
40.319,2.01,-0.207,38.0
33.924,1.701,-0.366,6.0
28.342,1.428,-0.469,1.0
23.576,1.195,-0.523,21.0
20.826,1.061,-0.58,1.0
45.196,2.322,-0.02,9.0
40.251,2.078,-0.246,18.0
32.663,1.695,-0.384,7.0
27.099,1.414,-0.474,1.0
23.666,1.241,-0.549,1.0
20.498,1.08,-0.591,5.0
40.331,2.143,-0.058,37.0
0.0,0.0,0.0,0.0
31.458,1.688,-0.401,7.0
26.362,1.421,-0.488,3.0
22.589,1.224,-0.546,0.0
19.973,1.087,-0.596,3.0
40.328,2.212,-0.099,42.0
36.556,2.014,-0.297,4.0
30.269,1.676,-0.417,6.0
25.701,1.429,-0.502,1.0
19.739,1.103,-0.498,11.0
19.647,1.103,-0.607,3.0
40.328,2.28,-0.141,41.0
35.147,1.996,-0.322,6.0
29.174,1.665,-0.433,8.0
24.867,1.425,-0.512,1.0
19.736,1.136,-0.518,12.0
19.139,1.106,-0.611,3.0
40.328,2.347,-0.184,45.0
0.0,0.0,0.0,0.0
28.199,1.655,-0.448,7.0
24.412,1.438,-0.529,0.0
19.731,1.168,-0.54,9.0
18.739,1.114,-0.619,3.0
40.309,2.411,-0.228,33.0
31.956,1.919,-0.362,2.0
27.444,1.655,-0.467,7.0
19.993,1.211,-0.455,1.0
19.708,1.198,-0.561,9.0
18.386,1.122,-0.628,3.0
0.0,0.0,0.0,0.0
30.964,1.909,-0.386,9.0
26.44,1.636,-0.479,6.0
19.792,1.23,-0.473,4.0
19.701,1.229,-0.583,11.0
18.187,1.139,-0.642,2.0
36.359,2.29,-0.288,12.0
29.909,1.891,-0.406,8.0
25.573,1.623,-0.493,6.0
19.727,1.256,-0.494,10.0
19.534,1.248,-0.601,4.0
17.723,1.137,-0.646,1.0
0.0,0.0,0.0,0.0
28.887,1.87,-0.426,8.0
24.839,1.614,-0.508,5.0
19.725,1.286,-0.517,9.0
19.032,1.245,-0.608,3.0
17.462,1.146,-0.657,2.0
33.195,2.191,-0.34,8.0
27.733,1.836,-0.442,7.0
24.192,1.607,-0.523,5.0
19.714,1.314,-0.54,10.0
18.592,1.243,-0.616,3.0
17.225,1.156,-0.669,1.0
31.752,2.142,-0.364,9.0
26.606,1.801,-0.456,6.0
19.893,1.351,-0.455,1.0
19.707,1.342,-0.564,8.0
18.286,1.25,-0.628,2.0
16.991,1.165,-0.681,1.0
30.497,2.101,-0.387,9.0
25.765,1.78,-0.474,6.0
19.747,1.368,-0.475,8.0
19.663,1.367,-0.587,8.0
18.002,1.255,-0.641,2.0
16.822,1.177,-0.695,1.0
29.216,2.053,-0.407,8.0
24.87,1.753,-0.488,6.0
19.959,1.411,-0.506,10.0
19.301,1.368,-0.601,3.0
17.583,1.25,-0.648,2.0
16.67,1.189,-0.709,1.0
28.057,2.01,-0.426,7.0
24.231,1.74,-0.506,5.0
19.72,1.42,-0.524,7.0
18.704,1.351,-0.606,3.0
17.329,1.255,-0.661,2.0
16.492,1.198,-0.723,1.0
26.96,1.966,-0.444,7.0
23.721,1.734,-0.526,1.0
19.71,1.445,-0.549,9.0
18.435,1.355,-0.621,2.0
17.091,1.26,-0.673,2.0
16.291,1.204,-0.735,1.0
25.754,1.911,-0.457,6.0
19.748,1.469,-0.463,4.0
19.701,1.469,-0.575,9.0
