X,Y,Z,Reflectivity
9.302,0.864,-0.884,0.0
11.496,1.062,-0.836,0.0
10.721,0.989,-0.841,0.0
10.194,0.939,-0.858,0.0
9.778,0.9,-0.88,0.0
9.269,0.852,-0.887,0.0
8.743,0.803,-0.887,0.0
11.426,1.044,-0.839,0.0
10.734,0.98,-0.849,0.0
10.174,0.927,-0.863,0.0
9.733,0.886,-0.882,0.0
9.228,0.839,-0.889,0.0
8.693,0.79,-0.887,0.0
11.291,1.021,-0.836,0.0
10.631,0.96,-0.847,0.0
10.13,0.913,-0.865,0.0
9.664,0.87,-0.881,0.0
9.156,0.823,-0.887,0.0
8.677,0.78,-0.891,0.0
11.192,1.0,-0.835,0.0
10.555,0.942,-0.847,0.0
10.078,0.898,-0.866,0.0
9.624,0.857,-0.883,0.0
8.6,0.764,-0.887,0.0
11.17,0.987,-0.839,0.0
10.554,0.931,-0.853,0.0
10.04,0.884,-0.868,0.0
9.571,0.842,-0.883,0.0
8.613,0.756,-0.893,0.0
11.155,0.973,-0.843,0.0
10.486,0.914,-0.852,0.0
10.015,0.871,-0.871,0.0
9.541,0.829,-0.885,0.0
9.041,0.784,-0.89,0.0
8.535,0.739,-0.889,0.0
11.128,0.959,-0.846,0.0
10.445,0.898,-0.854,0.0
9.98,0.857,-0.872,0.0
9.531,0.817,-0.888,0.0
8.545,0.731,-0.894,0.0
11.072,0.941,-0.847,0.0
10.407,0.883,-0.855,0.0
9.984,0.846,-0.877,0.0
9.464,0.801,-0.886,0.0
8.554,0.722,-0.898,0.0
11.07,0.928,-0.851,0.0
10.387,0.87,-0.857,0.0
9.936,0.831,-0.876,0.0
9.473,0.79,-0.89,0.0
8.986,0.749,-0.895,0.0
8.478,0.705,-0.893,0.0
10.966,0.907,-0.847,0.0
10.369,0.856,-0.859,0.0
9.886,0.815,-0.875,0.0
9.463,0.778,-0.892,0.0
8.462,0.694,-0.894,0.0
10.952,0.892,-0.849,0.0
10.341,0.841,-0.86,0.0
9.808,0.796,-0.871,0.0
9.461,0.767,-0.895,0.0
8.476,0.684,-0.898,0.0
10.962,0.88,-0.853,0.0
10.349,0.829,-0.863,0.0
9.816,0.785,-0.874,0.0
9.408,0.751,-0.892,0.0
8.475,0.674,-0.9,0.0
10.94,0.864,-0.853,0.0
10.325,0.814,-0.863,0.0
9.875,0.777,-0.881,0.0
9.379,0.737,-0.891,0.0
8.441,0.66,-0.898,0.0
10.9,0.848,-0.852,0.0
10.307,0.8,-0.864,0.0
9.918,0.768,-0.887,0.0
9.41,0.727,-0.896,0.0
8.409,0.647,-0.896,0.0
10.92,0.835,-0.855,0.0
10.315,0.787,-0.866,0.0
9.857,0.751,-0.883,0.0
9.37,0.712,-0.893,0.0
8.889,0.674,-0.897,0.0
8.432,0.638,-0.899,0.0
10.928,0.822,-0.857,0.0
10.347,0.776,-0.869,0.0
9.892,0.74,-0.887,0.0
9.371,0.7,-0.894,0.0
8.92,0.665,-0.901,0.0
8.431,0.627,-0.899,0.0
10.905,0.806,-0.855,0.0
10.313,0.76,-0.867,0.0
9.88,0.726,-0.886,0.0
9.377,0.688,-0.895,0.0
8.908,0.652,-0.9,0.0
8.476,0.619,-0.904,0.0
10.92,0.792,-0.857,0.0
10.321,0.747,-0.868,0.0
9.874,0.713,-0.885,0.0
9.391,0.676,-0.896,0.0
8.932,0.642,-0.902,0.0
8.458,0.606,-0.902,0.0
10.896,0.776,-0.855,0.0
10.317,0.733,-0.867,0.0
9.91,0.702,-0.888,0.0
9.364,0.662,-0.893,0.0
8.905,0.628,-0.899,0.0
8.449,0.594,-0.901,0.0
11.0,0.768,-0.862,0.0
10.341,0.72,-0.868,0.0
9.916,0.689,-0.888,0.0
9.416,0.652,-0.897,0.0
8.903,0.615,-0.898,0.0
8.495,0.585,-0.905,0.0
11.028,0.755,-0.863,0.0
10.367,0.708,-0.869,0.0
9.94,0.677,-0.889,0.0
9.472,0.643,-0.901,0.0
8.966,0.607,-0.903,0.0
8.498,0.574,-0.904,0.0
11.011,0.739,-0.86,0.0
10.387,0.695,-0.869,0.0
9.967,0.665,-0.889,0.0
9.46,0.629,-0.898,0.0
8.938,0.593,-0.898,0.0
8.519,0.563,-0.904,0.0
11.039,0.725,-0.86,0.0
10.429,0.683,-0.87,0.0
9.969,0.651,-0.887,0.0
9.484,0.617,-0.898,0.0
8.954,0.581,-0.898,0.0
8.549,0.553,-0.905,0.0
11.108,0.714,-0.862,0.0
10.473,0.671,-0.871,0.0
10.022,0.641,-0.889,0.0
9.549,0.608,-0.902,0.0
9.016,0.573,-0.902,0.0
8.583,0.544,-0.906,0.0
11.128,0.7,-0.86,0.0
10.494,0.658,-0.87,0.0
10.035,0.627,-0.887,0.0
9.523,0.593,-0.896,0.0
9.065,0.563,-0.904,0.0
8.612,0.533,-0.906,0.0
11.076,0.681,-0.853,0.0
10.544,0.646,-0.87,0.0
10.086,0.616,-0.888,0.0
9.576,0.583,-0.898,0.0
9.084,0.551,-0.902,0.0
8.678,0.525,-0.91,0.0
11.183,0.672,-0.857,0.0
10.553,0.632,-0.867,0.0
10.135,0.605,-0.889,0.0
9.636,0.573,-0.899,0.0
9.207,0.545,-0.91,0.0
8.697,0.513,-0.908,0.0
11.274,0.661,-0.859,0.0
10.616,0.62,-0.867,0.0
10.152,0.591,-0.886,0.0
9.676,0.561,-0.899,0.0
9.226,0.533,-0.908,0.0
8.724,0.503,-0.907,0.0
11.352,0.649,-0.859,0.0
10.673,0.608,-0.867,0.0
10.187,0.579,-0.884,0.0
9.753,0.552,-0.901,0.0
9.25,0.521,-0.906,0.0
8.78,0.493,-0.909,0.0
11.413,0.637,-0.858,0.0
10.729,0.596,-0.866,0.0
10.25,0.568,-0.884,0.0
9.779,0.539,-0.898,0.0
9.309,0.512,-0.907,0.0
8.804,0.482,-0.906,0.0
11.466,0.623,-0.856,0.0
10.774,0.583,-0.863,0.0
10.295,0.555,-0.882,0.0
9.82,0.528,-0.896,0.0
9.394,0.503,-0.909,0.0
8.863,0.472,-0.907,0.0
11.598,0.614,-0.859,0.0
10.862,0.573,-0.864,0.0
9.885,0.517,-0.896,0.0
9.414,0.49,-0.905,0.0
8.986,0.466,-0.914,0.0
11.706,0.603,-0.859,0.0
23.632,1.213,-1.865,0.0
23.657,1.209,-1.997,0.0
9.946,0.506,-0.895,0.0
9.494,0.481,-0.907,0.0
9.043,0.456,-0.913,0.0
11.799,0.591,-0.858,0.0
23.616,1.178,-1.847,0.0
10.508,0.522,-0.879,0.0
10.002,0.494,-0.893,0.0
9.542,0.469,-0.904,0.0
11.85,0.577,-0.853,0.0
23.683,1.148,-1.835,0.0
10.532,0.508,-0.873,0.0
10.091,0.484,-0.893,0.0
9.641,0.461,-0.906,0.0
9.155,0.435,-0.911,0.0
11.999,0.567,-0.854,0.0
11.312,0.532,-0.867,0.0
10.664,0.499,-0.876,0.0
10.181,0.474,-0.893,0.0
9.743,0.452,-0.908,0.0
9.26,0.427,-0.914,0.0
12.088,0.554,-0.851,0.0
11.369,0.518,-0.862,0.0
10.789,0.489,-0.877,0.0
10.294,0.465,-0.894,0.0
9.796,0.44,-0.905,0.0
9.293,0.415,-0.909,0.0
12.31,0.547,-0.856,0.0
11.568,0.511,-0.867,0.0
10.9,0.479,-0.877,0.0
10.324,0.451,-0.888,0.0
9.872,0.43,-0.903,0.0
9.35,0.405,-0.906,0.0
12.45,0.535,-0.855,0.0
11.668,0.499,-0.864,0.0
10.943,0.466,-0.87,0.0
10.419,0.441,-0.886,0.0
9.968,0.42,-0.902,0.0
9.453,0.396,-0.907,0.0
12.582,0.524,-0.852,0.0
11.786,0.488,-0.862,0.0
11.078,0.456,-0.87,0.0
10.53,0.431,-0.886,0.0
10.051,0.409,-0.9,0.0
9.578,0.388,-0.91,0.0
12.703,0.511,-0.848,0.0
11.951,0.478,-0.862,0.0
11.281,0.448,-0.875,0.0
10.654,0.421,-0.885,0.0
10.175,0.4,-0.901,0.0
9.637,0.377,-0.906,0.0
12.804,0.497,-0.841,0.0
12.012,0.463,-0.854,0.0
11.369,0.436,-0.87,0.0
10.761,0.41,-0.883,0.0
10.279,0.39,-0.899,0.0
9.752,0.368,-0.906,0.0
12.948,0.485,-0.837,0.0
12.159,0.453,-0.851,0.0
11.511,0.426,-0.868,0.0
10.885,0.4,-0.881,0.0
10.32,0.377,-0.891,0.0
9.836,0.357,-0.903,0.0
13.154,0.475,-0.836,0.0
12.41,0.445,-0.855,0.0
11.676,0.416,-0.868,0.0
10.986,0.389,-0.877,0.0
10.473,0.369,-0.892,0.0
9.938,0.348,-0.901,0.0
13.51,0.469,-0.843,0.0
12.604,0.435,-0.854,0.0
11.846,0.406,-0.866,0.0
11.1,0.378,-0.873,0.0
10.624,0.36,-0.893,0.0
10.073,0.339,-0.901,0.0
13.711,0.458,-0.839,0.0
12.77,0.424,-0.85,0.0
11.995,0.395,-0.863,0.0
11.277,0.369,-0.873,0.0
10.754,0.35,-0.891,0.0
10.202,0.33,-0.9,0.0
13.987,0.449,-0.839,0.0
12.903,0.411,-0.843,0.0
12.176,0.385,-0.861,0.0
11.42,0.359,-0.87,0.0
10.853,0.339,-0.885,0.0
10.351,0.321,-0.9,0.0
14.096,0.434,-0.828,0.0
13.263,0.405,-0.85,0.0
12.391,0.376,-0.86,0.0
11.699,0.352,-0.876,0.0
11.032,0.33,-0.885,0.0
10.465,0.311,-0.896,0.0
14.489,0.427,-0.832,0.0
13.373,0.391,-0.839,0.0
12.614,0.366,-0.859,0.0
11.873,0.342,-0.873,0.0
11.178,0.32,-0.882,0.0
10.609,0.301,-0.894,0.0
14.648,0.413,-0.821,0.0
13.737,0.385,-0.844,0.0
12.79,0.355,-0.854,0.0
12.05,0.332,-0.87,0.0
11.355,0.311,-0.881,0.0
10.768,0.292,-0.893,0.0
14.969,0.404,-0.819,0.0
14.007,0.375,-0.841,0.0
12.974,0.344,-0.848,0.0
12.237,0.322,-0.866,0.0
11.537,0.301,-0.878,0.0
10.894,0.282,-0.888,0.0
15.425,0.397,-0.822,0.0
14.282,0.364,-0.837,0.0
13.386,0.339,-0.856,0.0
12.446,0.312,-0.863,0.0
11.768,0.293,-0.879,0.0
11.061,0.273,-0.885,0.0
15.851,0.389,-0.822,0.0
14.565,0.354,-0.833,0.0
13.668,0.329,-0.854,0.0
12.69,0.303,-0.862,0.0
11.976,0.284,-0.877,0.0
11.29,0.265,-0.887,0.0
16.195,0.378,-0.816,0.0
14.898,0.344,-0.829,0.0
13.915,0.319,-0.848,1.0
12.869,0.292,-0.854,0.0
12.256,0.276,-0.879,0.0
11.452,0.255,-0.882,0.0
16.689,0.37,-0.815,0.0
15.202,0.334,-0.823,0.0
14.174,0.308,-0.843,1.0
13.226,0.285,-0.858,0.0
12.383,0.264,-0.868,0.0
11.688,0.247,-0.882,0.0
17.088,0.359,-0.808,0.0
15.673,0.326,-0.824,0.0
14.526,0.299,-0.84,0.0
13.57,0.277,-0.858,1.0
12.619,0.255,-0.865,0.0
11.988,0.24,-0.885,0.0
17.597,0.35,-0.805,0.0
16.027,0.315,-0.817,0.0
14.813,0.288,-0.834,0.0
13.83,0.267,-0.853,1.0
12.875,0.246,-0.862,0.0
12.134,0.229,-0.877,1.0
17.879,0.336,-0.789,0.0
16.605,0.308,-0.82,0.0
15.171,0.279,-0.829,0.0
14.145,0.257,-0.849,1.0
13.186,0.237,-0.861,1.0
12.388,0.221,-0.874,0.0
18.657,0.33,-0.792,0.0
16.795,0.294,-0.801,1.0
15.566,0.269,-0.825,0.0
14.465,0.248,-0.844,1.0
13.507,0.229,-0.859,1.0
12.639,0.212,-0.871,0.0
19.124,0.318,-0.78,1.0
17.437,0.287,-0.803,0.0
16.029,0.261,-0.822,0.0
14.754,0.237,-0.836,0.0
13.798,0.219,-0.854,1.0
12.902,0.203,-0.867,1.0
19.548,0.305,-0.764,3.0
17.991,0.278,-0.797,0.0
16.551,0.252,-0.82,0.0
15.149,0.228,-0.832,0.0
14.179,0.211,-0.853,0.0
13.168,0.194,-0.862,1.0
19.577,0.286,-0.731,6.0
18.622,0.269,-0.793,0.0
17.027,0.243,-0.815,0.0
15.639,0.22,-0.832,0.0
14.548,0.202,-0.85,0.0
13.499,0.185,-0.86,1.0
19.677,0.268,-0.7,4.0
19.252,0.259,-0.786,0.0
17.492,0.233,-0.806,0.0
15.887,0.209,-0.817,0.0
14.865,0.193,-0.842,0.0
13.805,0.177,-0.854,0.0
19.689,0.25,-0.666,16.0
19.533,0.245,-0.762,3.0
18.112,0.224,-0.802,0.0
16.556,0.202,-0.821,0.0
15.316,0.184,-0.84,0.0
14.184,0.168,-0.852,0.0
19.675,0.232,-0.629,18.0
19.643,0.228,-0.731,9.0
18.848,0.216,-0.8,0.0
17.003,0.192,-0.812,0.0
15.731,0.175,-0.834,0.0
14.595,0.16,-0.85,0.0
19.674,0.215,-0.593,18.0
19.673,0.211,-0.696,13.0
19.43,0.206,-0.789,1.0
17.585,0.184,-0.807,0.0
16.056,0.165,-0.821,0.0
15.038,0.152,-0.847,0.0
19.688,0.198,-0.557,14.0
19.689,0.195,-0.66,10.0
19.638,0.192,-0.761,3.0
18.309,0.176,-0.807,0.0
16.628,0.157,-0.819,4.0
15.385,0.143,-0.838,1.0
19.693,0.182,-0.52,8.0
19.717,0.179,-0.624,2.0
19.915,0.178,-0.734,0.0
18.797,0.165,-0.792,0.0
17.262,0.149,-0.817,0.0
15.693,0.133,-0.825,0.0
19.696,0.166,-0.483,0.0
0.0,0.0,0.0,0.0
20.972,0.171,-0.732,0.0
19.547,0.157,-0.786,1.0
17.645,0.139,-0.801,0.0
16.309,0.126,-0.826,0.0
27.99,0.215,-0.632,0.0
25.109,0.19,-0.697,0.0
21.666,0.161,-0.714,0.0
19.731,0.144,-0.755,1.0
18.562,0.133,-0.807,0.0
16.839,0.118,-0.819,0.0
29.411,0.205,-0.607,0.0
25.768,0.176,-0.665,0.0
22.725,0.152,-0.705,0.0
20.695,0.136,-0.751,0.0
19.092,0.123,-0.792,0.0
17.449,0.11,-0.815,0.0
31.057,0.195,-0.58,0.0
27.343,0.168,-0.652,0.0
24.416,0.147,-0.709,0.0
21.112,0.125,-0.724,0.0
19.674,0.114,-0.777,2.0
18.015,0.102,-0.805,0.0
32.131,0.181,-0.536,0.0
28.06,0.154,-0.614,0.0
25.343,0.136,-0.685,0.0
19.761,0.104,-0.639,0.0
19.789,0.102,-0.742,3.0
18.816,0.095,-0.803,0.0
19.777,0.099,-0.29,1.0
19.798,0.096,-0.393,2.0
19.776,0.094,-0.495,2.0
19.781,0.092,-0.599,3.0
19.798,0.09,-0.702,5.0
19.581,0.087,-0.796,1.0
19.776,0.087,-0.25,16.0
19.779,0.085,-0.353,18.0
19.796,0.083,-0.455,23.0
19.768,0.081,-0.559,18.0
19.785,0.079,-0.662,18.0
19.769,0.077,-0.764,8.0
19.783,0.076,-0.21,54.0
19.781,0.074,-0.312,37.0
19.774,0.072,-0.415,40.0
19.784,0.07,-0.519,34.0
19.788,0.068,-0.621,27.0
19.775,0.066,-0.723,14.0
19.772,0.066,-0.17,51.0
19.774,0.064,-0.272,36.0
19.767,0.062,-0.374,23.0
19.762,0.06,-0.478,42.0
19.79,0.058,-0.58,21.0
19.789,0.057,-0.682,24.0
19.766,0.056,-0.128,14.0
19.755,0.054,-0.23,16.0
19.763,0.052,-0.332,13.0
19.767,0.051,-0.436,13.0
19.769,0.049,-0.539,15.0
19.787,0.048,-0.641,10.0
19.759,0.047,-0.087,16.0
19.75,0.045,-0.189,12.0
19.761,0.044,-0.291,12.0
19.763,0.042,-0.396,8.0
19.762,0.041,-0.498,13.0
19.769,0.039,-0.6,11.0
19.76,0.039,-0.047,99.0
19.748,0.037,-0.148,11.0
19.754,0.036,-0.25,11.0
19.758,0.034,-0.354,11.0
19.769,0.033,-0.456,9.0
19.771,0.032,-0.558,17.0
19.752,0.031,-0.005,14.0
19.764,0.03,-0.107,2.0
19.759,0.029,-0.209,3.0
19.761,0.027,-0.313,3.0
19.773,0.026,-0.415,4.0
19.79,0.025,-0.517,2.0
19.773,0.024,0.035,4.0
19.756,0.023,-0.065,76.0
19.779,0.022,-0.168,1.0
19.782,0.021,-0.271,1.0
19.774,0.02,-0.373,1.0
19.784,0.019,-0.475,1.0
19.785,0.018,0.077,5.0
19.761,0.017,-0.024,11.0
19.759,0.016,-0.125,1.0
19.795,0.015,-0.23,0.0
19.79,0.014,-0.331,0.0
19.783,0.013,-0.433,0.0
19.797,0.013,0.119,1.0
19.744,0.012,0.018,8.0
19.76,0.011,-0.083,1.0
19.472,0.01,-0.184,0.0
0.0,0.0,0.0,0.0
30.323,0.014,-0.599,0.0
19.75,0.008,0.162,5.0
19.786,0.008,0.06,4.0
19.741,0.007,-0.041,10.0
19.793,0.006,-0.145,0.0
0.0,0.0,0.0,0.0
33.073,0.008,-0.582,0.0
19.643,0.004,0.203,16.0
19.716,0.004,0.102,1.0
19.731,0.003,0.001,11.0
19.77,0.003,-0.102,2.0
0.0,0.0,0.0,0.0
0.0,0.0,0.0,0.0
19.634,0.001,0.244,14.0
19.785,0.001,0.145,2.0
19.725,0.0,0.043,7.0
19.737,0.0,-0.06,10.0
19.785,0.0,-0.162,1.0
0.0,0.0,0.0,0.0
19.627,0.0,0.287,14.0
19.65,0.0,0.186,13.0
19.698,-0.001,0.085,4.0
19.727,-0.001,-0.017,13.0
19.762,-0.001,-0.119,3.0
40.364,-0.004,-0.451,0.0
19.622,-0.002,0.329,13.0
19.639,-0.002,0.228,14.0
19.707,-0.002,0.127,2.0
19.716,-0.002,0.024,10.0
19.738,-0.002,-0.076,6.0
19.753,-0.002,-0.178,0.0
19.63,-0.003,0.371,14.0
19.63,-0.003,0.27,13.0
19.663,-0.003,0.169,8.0
19.71,-0.003,0.066,7.0
19.735,-0.003,-0.034,13.0
19.761,-0.003,-0.136,2.0
19.627,-0.003,0.413,13.0
19.619,-0.003,0.312,14.0
19.639,-0.003,0.211,14.0
19.687,-0.003,0.108,3.0
19.717,-0.002,0.007,12.0
19.763,-0.002,-0.094,2.0
19.621,-0.002,0.455,13.0
19.627,-0.002,0.354,12.0
19.621,-0.002,0.253,13.0
19.73,-0.002,0.151,3.0
19.725,-0.001,0.049,8.0
19.738,-0.001,-0.051,12.0
19.615,-0.001,0.497,13.0
19.62,-0.001,0.396,12.0
19.635,0.0,0.295,13.0
19.63,0.0,0.192,14.0
19.702,0.0,0.091,2.0
19.73,0.0,-0.009,13.0
19.622,0.0,0.539,13.0
19.621,0.0,0.438,12.0
19.617,0.001,0.337,13.0
19.617,0.002,0.234,14.0
19.778,0.002,0.134,2.0
19.737,0.003,0.032,7.0
19.629,0.003,0.581,13.0
19.617,0.003,0.48,12.0
19.62,0.004,0.379,12.0
19.617,0.005,0.276,13.0
19.661,0.005,0.175,12.0
19.787,0.006,0.075,2.0
19.631,0.006,0.623,13.0
19.613,0.007,0.522,12.0
19.613,0.008,0.421,10.0
19.612,0.009,0.318,14.0
19.618,0.009,0.217,15.0
19.782,0.01,0.117,1.0
19.633,0.01,0.665,13.0
19.612,0.011,0.563,13.0
19.605,0.012,0.462,11.0
19.608,0.013,0.359,13.0
19.618,0.014,0.258,13.0
19.717,0.015,0.158,5.0
19.652,0.015,0.707,13.0
19.615,0.016,0.605,12.0
19.613,0.017,0.503,13.0
19.611,0.019,0.4,12.0
19.621,0.02,0.3,15.0
19.638,0.021,0.199,16.0
19.652,0.021,0.749,15.0
19.626,0.022,0.647,12.0
19.615,0.023,0.545,13.0
19.61,0.025,0.442,12.0
19.604,0.026,0.341,17.0
19.624,0.027,0.24,14.0
19.656,0.027,0.791,23.0
19.632,0.029,0.688,12.0
19.605,0.03,0.586,12.0
19.605,0.031,0.483,14.0
19.606,0.033,0.382,13.0
19.621,0.034,0.281,14.0
19.597,0.034,0.829,24.0
19.641,0.036,0.73,13.0
19.613,0.037,0.627,11.0
19.605,0.039,0.524,13.0
19.603,0.04,0.422,13.0
19.615,0.042,0.322,15.0
19.58,0.042,0.869,26.0
19.656,0.044,0.771,23.0
19.629,0.045,0.668,12.0
19.596,0.047,0.564,14.0
19.607,0.049,0.463,13.0
19.615,0.051,0.362,14.0
19.575,0.051,0.909,26.0
19.621,0.052,0.81,16.0
19.633,0.054,0.709,11.0
19.597,0.056,0.604,13.0
19.611,0.058,0.503,13.0
19.609,0.06,0.402,16.0
19.575,0.06,0.949,23.0
19.584,0.062,0.848,21.0
19.634,0.064,0.749,14.0
19.606,0.066,0.644,11.0
19.599,0.068,0.542,14.0
19.622,0.07,0.441,26.0
19.564,0.07,0.988,17.0
19.586,0.072,0.888,24.0
19.643,0.074,0.788,17.0
19.62,0.076,0.684,12.0
19.598,0.078,0.581,14.0
19.604,0.08,0.48,25.0
19.575,0.08,1.028,9.0
19.575,0.082,0.926,24.0
19.62,0.085,0.827,9.0
19.622,0.087,0.723,10.0
19.606,0.089,0.621,12.0
19.612,0.091,0.519,19.0
19.618,0.091,1.07,1.0
19.574,0.093,0.965,15.0
19.594,0.096,0.864,13.0
19.646,0.098,0.763,12.0
19.608,0.101,0.66,12.0
19.598,0.103,0.557,16.0
0.0,0.0,0.0,0.0
19.583,0.106,1.005,8.0
19.589,0.108,0.903,15.0
19.673,0.111,0.802,10.0
19.623,0.113,0.699,11.0
19.6,0.115,0.596,14.0
0.0,0.0,0.0,0.0
19.623,0.119,1.045,1.0
19.597,0.121,0.941,13.0
19.65,0.124,0.839,1.0
19.647,0.126,0.737,9.0
19.605,0.128,0.634,13.0
113.943,0.753,6.884,37.0
113.951,0.767,6.289,35.0
19.641,0.135,0.981,2.0
19.629,0.137,0.877,1.0
19.669,0.14,0.776,3.0
19.614,0.142,0.672,12.0
0.0,0.0,0.0,0.0
113.968,0.849,6.51,10.0
113.947,0.865,5.913,6.0
19.615,0.151,0.913,0.0
113.92,0.896,4.712,1.0
19.628,0.157,0.709,9.0
0.0,0.0,0.0,0.0
121.959,1.0,7.197,4.0
0.0,0.0,0.0,0.0
0.0,0.0,0.0,0.0
187.022,1.615,8.087,20.0
19.649,0.172,0.747,6.0
0.0,0.0,0.0,0.0
122.035,1.095,7.429,8.0
0.0,0.0,0.0,0.0
0.0,0.0,0.0,0.0
187.328,1.765,8.445,6.0
19.708,0.188,0.785,0.0
0.0,0.0,0.0,0.0
0.0,0.0,0.0,0.0
121.968,1.211,7.01,14.0
0.0,0.0,0.0,0.0
0.0,0.0,0.0,0.0
186.082,1.936,7.754,16.0
0.0,0.0,0.0,0.0
0.0,0.0,0.0,0.0
121.977,1.313,7.23,25.0
122.055,1.333,6.582,12.0
0.0,0.0,0.0,0.0
186.345,2.097,8.097,19.0
0.0,0.0,0.0,0.0
0.0,0.0,0.0,0.0
121.852,1.418,7.439,16.0
121.911,1.438,6.79,18.0
122.347,1.464,6.173,12.0
84.841,1.029,3.835,23.0
0.0,0.0,0.0,0.0
84.785,1.048,5.77,3.0
84.815,1.062,5.325,24.0
84.824,1.077,4.872,45.0
84.805,1.091,4.424,50.0
84.806,1.105,3.979,42.0
84.815,1.112,6.367,45.0
84.807,1.126,5.919,43.0
84.811,1.141,5.472,34.0
84.78,1.155,5.014,10.0
122.052,1.684,6.577,17.0
121.91,1.704,5.928,22.0
0.0,0.0,0.0,0.0
0.0,0.0,0.0,0.0
0.0,0.0,0.0,0.0
121.38,1.77,7.384,24.0
121.939,1.8,6.776,22.0
122.091,1.824,6.141,23.0
0.0,0.0,0.0,0.0
0.0,0.0,0.0,0.0
129.474,1.992,8.789,13.0
121.308,1.889,7.582,9.0
121.816,1.92,6.97,24.0
121.95,1.945,6.336,21.0
0.0,0.0,0.0,0.0
129.492,2.101,9.691,13.0
129.116,2.118,8.979,21.0
55.225,0.916,3.542,10.0
55.217,0.926,3.25,28.0
55.21,0.936,2.957,46.0
55.226,0.942,4.515,53.0
55.208,0.952,4.22,70.0
55.208,0.962,3.926,73.0
55.195,0.972,3.627,74.0
55.189,0.982,3.335,69.0
55.182,0.993,3.043,69.0
55.217,1.0,4.601,60.0
55.217,1.011,4.308,51.0
55.218,1.021,4.015,28.0
55.204,1.031,3.715,19.0
55.214,1.042,3.423,4.0
122.041,2.328,6.919,12.0
0.0,0.0,0.0,0.0
0.0,0.0,0.0,0.0
129.618,2.538,9.624,22.0
129.208,2.554,8.893,21.0
129.174,2.579,8.205,20.0
129.491,2.611,7.537,6.0
0.0,0.0,0.0,0.0
0.0,0.0,0.0,0.0
129.416,2.675,9.802,22.0
127.34,2.658,8.954,12.0
129.241,2.722,8.4,10.0
129.548,2.754,7.73,15.0
0.0,0.0,0.0,0.0
0.0,0.0,0.0,0.0
129.37,2.82,9.99,2.0
127.179,2.799,9.129,28.0
127.211,2.824,8.453,13.0
129.563,2.902,7.919,19.0
0.0,0.0,0.0,0.0
0.0,0.0,0.0,0.0
0.0,0.0,0.0,0.0
127.151,2.943,9.307,23.0
127.043,2.965,8.621,19.0
121.462,2.861,7.594,15.0
0.0,0.0,0.0,0.0
0.0,0.0,0.0,0.0
0.0,0.0,0.0,0.0
127.324,3.094,9.495,14.0
121.375,2.974,8.402,12.0
121.371,3.0,7.754,21.0
0.0,0.0,0.0,0.0
0.0,0.0,0.0,0.0
0.0,0.0,0.0,0.0
127.495,3.249,9.679,3.0
127.193,3.268,8.976,11.0
43.679,1.131,2.848,44.0
0.0,0.0,0.0,0.0
0.0,0.0,0.0,0.0
0.0,0.0,0.0,0.0
0.0,0.0,0.0,0.0
41.84,1.125,3.007,12.0
0.0,0.0,0.0,0.0
0.0,0.0,0.0,0.0
0.0,0.0,0.0,0.0
0.0,0.0,0.0,0.0
0.0,0.0,0.0,0.0
40.109,1.128,2.933,92.0
40.107,1.136,2.718,150.0
0.0,0.0,0.0,0.0
0.0,0.0,0.0,0.0
0.0,0.0,0.0,0.0
0.0,0.0,0.0,0.0
40.097,1.177,2.981,48.0
40.113,1.186,2.767,121.0
0.0,0.0,0.0,0.0
0.0,0.0,0.0,0.0
0.0,0.0,0.0,0.0
0.0,0.0,0.0,0.0
40.121,1.228,3.031,1.0
40.109,1.237,2.814,106.0
0.0,0.0,0.0,0.0
0.0,0.0,0.0,0.0
0.0,0.0,0.0,0.0
0.0,0.0,0.0,0.0
0.0,0.0,0.0,0.0
40.111,1.289,2.861,103.0
0.0,0.0,0.0,0.0
0.0,0.0,0.0,0.0
0.0,0.0,0.0,0.0
0.0,0.0,0.0,0.0
0.0,0.0,0.0,0.0
40.204,1.343,2.912,144.0
0.0,0.0,0.0,0.0
0.0,0.0,0.0,0.0
0.0,0.0,0.0,0.0
0.0,0.0,0.0,0.0
0.0,0.0,0.0,0.0
40.19,1.395,2.953,63.0
0.0,0.0,0.0,0.0
0.0,0.0,0.0,0.0
0.0,0.0,0.0,0.0
0.0,0.0,0.0,0.0
0.0,0.0,0.0,0.0
40.139,1.446,2.99,23.0
0.0,0.0,0.0,0.0
0.0,0.0,0.0,0.0
0.0,0.0,0.0,0.0
0.0,0.0,0.0,0.0
0.0,0.0,0.0,0.0
40.098,1.497,3.027,3.0
0.0,0.0,0.0,0.0
0.0,0.0,0.0,0.0
0.0,0.0,0.0,0.0
0.0,0.0,0.0,0.0
0.0,0.0,0.0,0.0
0.0,0.0,0.0,0.0
0.0,0.0,0.0,0.0
0.0,0.0,0.0,0.0
0.0,0.0,0.0,0.0
0.0,0.0,0.0,0.0
0.0,0.0,0.0,0.0
0.0,0.0,0.0,0.0
0.0,0.0,0.0,0.0
0.0,0.0,0.0,0.0
0.0,0.0,0.0,0.0
0.0,0.0,0.0,0.0
0.0,0.0,0.0,0.0
0.0,0.0,0.0,0.0
0.0,0.0,0.0,0.0
0.0,0.0,0.0,0.0
23.59,0.993,2.253,0.0
23.559,0.997,2.119,0.0
23.555,1.002,1.989,1.0
23.582,1.008,1.863,16.0
23.556,1.014,2.528,25.0
23.569,1.019,2.4,34.0
23.568,1.024,2.27,39.0
23.559,1.029,2.137,41.0
23.559,1.034,2.008,43.0
23.549,1.039,1.878,48.0
23.535,1.045,2.544,65.0
23.524,1.05,2.413,70.0
23.529,1.055,2.284,77.0
23.535,1.06,2.152,74.0
23.538,1.065,2.023,72.0
23.547,1.07,1.895,71.0
23.526,1.077,2.56,76.0
23.528,1.082,2.43,76.0
23.52,1.087,2.3,74.0
23.533,1.092,2.169,66.0
23.538,1.097,2.04,62.0
23.542,1.102,1.911,52.0
23.54,1.11,2.578,48.0
23.558,1.116,2.449,44.0
23.556,1.121,2.319,41.0
23.569,1.126,2.187,40.0
23.566,1.131,2.057,28.0
23.566,1.136,1.928,16.0
23.548,1.143,2.593,1.0
23.531,1.147,2.461,0.0
23.579,1.154,2.335,0.0
0.0,0.0,0.0,0.0
0.0,0.0,0.0,0.0
0.0,0.0,0.0,0.0
0.0,0.0,0.0,0.0
0.0,0.0,0.0,0.0
0.0,0.0,0.0,0.0
0.0,0.0,0.0,0.0
0.0,0.0,0.0,0.0
0.0,0.0,0.0,0.0
0.0,0.0,0.0,0.0
0.0,0.0,0.0,0.0
0.0,0.0,0.0,0.0
0.0,0.0,0.0,0.0
0.0,0.0,0.0,0.0
0.0,0.0,0.0,0.0
0.0,0.0,0.0,0.0
0.0,0.0,0.0,0.0
0.0,0.0,0.0,0.0
0.0,0.0,0.0,0.0
0.0,0.0,0.0,0.0
0.0,0.0,0.0,0.0
0.0,0.0,0.0,0.0
0.0,0.0,0.0,0.0
0.0,0.0,0.0,0.0
0.0,0.0,0.0,0.0
0.0,0.0,0.0,0.0
0.0,0.0,0.0,0.0
0.0,0.0,0.0,0.0
0.0,0.0,0.0,0.0
0.0,0.0,0.0,0.0
0.0,0.0,0.0,0.0
0.0,0.0,0.0,0.0
0.0,0.0,0.0,0.0
0.0,0.0,0.0,0.0
0.0,0.0,0.0,0.0
0.0,0.0,0.0,0.0
0.0,0.0,0.0,0.0
0.0,0.0,0.0,0.0
0.0,0.0,0.0,0.0
0.0,0.0,0.0,0.0
0.0,0.0,0.0,0.0
0.0,0.0,0.0,0.0
0.0,0.0,0.0,0.0
0.0,0.0,0.0,0.0
0.0,0.0,0.0,0.0
0.0,0.0,0.0,0.0
0.0,0.0,0.0,0.0
0.0,0.0,0.0,0.0
0.0,0.0,0.0,0.0
0.0,0.0,0.0,0.0
0.0,0.0,0.0,0.0
0.0,0.0,0.0,0.0
0.0,0.0,0.0,0.0
0.0,0.0,0.0,0.0
0.0,0.0,0.0,0.0
0.0,0.0,0.0,0.0
0.0,0.0,0.0,0.0
0.0,0.0,0.0,0.0
0.0,0.0,0.0,0.0
0.0,0.0,0.0,0.0
0.0,0.0,0.0,0.0
100.839,6.347,9.222,2.0
100.592,6.349,8.637,3.0
99.896,6.348,11.404,28.0
99.922,6.367,10.844,31.0
99.903,6.383,10.279,31.0
99.893,6.399,9.707,35.0
99.913,6.419,9.148,35.0
99.911,6.437,8.588,33.0
99.894,6.478,11.414,35.0
99.88,6.495,10.848,35.0
99.902,6.513,10.288,35.0
99.93,6.533,9.718,40.0
99.904,6.55,9.154,37.0
99.919,6.568,8.595,34.0
99.895,6.609,11.419,34.0
99.895,6.627,10.854,36.0
99.89,6.643,10.29,39.0
99.918,6.661,9.72,38.0
99.935,6.68,9.16,36.0
99.93,6.698,8.597,35.0
99.887,6.74,11.419,33.0
99.888,6.755,10.854,37.0
99.92,6.774,10.292,35.0
99.904,6.79,9.716,37.0
99.922,6.808,9.156,33.0
99.951,6.826,8.597,36.0
99.897,6.868,11.416,32.0
99.91,6.885,10.851,34.0
99.916,6.901,10.287,34.0
99.91,6.916,9.711,38.0
99.906,6.933,9.148,35.0
99.937,6.952,8.588,36.0
99.889,6.993,11.408,37.0
99.882,7.008,10.84,37.0
99.909,7.026,10.277,38.0
99.923,7.043,9.703,39.0
99.921,7.058,9.138,38.0
99.918,7.075,8.575,35.0
99.9,7.12,11.396,37.0
99.919,7.135,10.83,34.0
99.919,7.15,10.264,35.0
99.891,7.164,9.685,41.0
99.928,7.182,9.124,37.0
99.922,7.198,8.56,36.0
99.878,7.241,11.377,18.0
99.855,7.254,10.806,15.0
99.87,7.27,10.24,13.0
99.865,7.283,9.664,9.0
99.776,7.292,9.091,6.0
99.597,7.295,8.513,4.0
99.039,7.3,11.26,8.0
99.024,7.313,10.695,7.0
99.067,7.329,10.137,8.0
99.058,7.344,9.563,10.0
99.03,7.357,8.999,13.0
99.025,7.372,8.439,15.0
98.994,7.415,11.23,41.0
98.991,7.428,10.665,45.0
99.022,7.444,10.105,43.0
98.997,7.456,9.531,47.0
99.004,7.471,8.97,39.0
99.035,7.488,8.412,32.0
98.997,7.532,11.201,1.0
0.0,0.0,0.0,0.0
94.952,7.249,9.661,2.0
94.937,7.261,9.11,1.0
99.051,7.59,8.942,5.0
94.948,7.289,8.035,1.0
94.827,7.324,10.697,7.0
94.799,7.334,10.153,8.0
94.836,7.348,9.616,10.0
94.829,7.36,9.066,13.0
94.843,7.374,8.529,14.0
94.842,7.387,7.991,14.0
94.792,7.428,10.658,44.0
94.821,7.443,10.118,49.0
94.822,7.454,9.578,45.0
94.824,7.465,9.029,44.0
94.846,7.479,8.491,39.0
94.826,7.491,7.951,36.0
94.809,7.533,10.62,7.0
94.824,7.546,10.079,7.0
94.842,7.558,9.54,6.0
94.804,7.567,8.986,5.0
94.839,7.582,8.449,4.0
94.93,7.603,7.917,5.0
0.0,0.0,0.0,0.0
98.326,7.931,10.406,2.0
98.387,7.947,9.85,5.0
98.427,7.963,9.281,5.0
98.557,7.985,8.733,6.0
98.699,8.009,8.184,7.0
97.466,7.954,10.825,10.0
97.533,7.97,10.273,10.0
97.615,7.987,9.723,11.0
97.77,8.012,9.169,10.0
97.701,8.018,8.606,10.0
97.664,8.026,8.047,9.0
96.691,7.992,10.685,11.0
96.678,8.0,10.13,12.0
96.631,8.006,9.571,8.0
96.412,7.998,8.989,9.0
96.23,7.993,8.423,7.0
96.084,7.993,7.863,7.0
87.133,7.288,9.58,4.0
87.179,7.3,9.085,2.0
87.213,7.311,8.588,2.0
87.083,7.309,8.069,3.0
87.095,7.319,7.573,3.0
87.069,7.327,7.074,3.0
87.047,7.365,9.517,11.0
87.011,7.37,9.013,11.0
87.022,7.38,8.515,11.0
87.072,7.392,8.013,11.0
87.072,7.401,7.515,11.0
87.086,7.411,7.02,13.0
87.021,7.446,9.457,50.0
87.03,7.453,8.958,54.0
87.031,7.461,8.459,58.0
87.026,7.469,7.951,63.0
87.044,7.479,7.455,64.0
87.044,7.488,6.958,62.0
87.039,7.527,9.399,14.0
87.031,7.533,8.898,46.0
86.989,7.536,8.395,13.0
87.066,7.551,7.894,14.0
87.055,7.558,7.395,13.0
87.032,7.564,6.896,14.0
87.035,7.604,9.336,3.0
87.017,7.609,8.833,34.0
87.006,7.615,8.332,3.0
86.991,7.62,7.824,3.0
87.052,7.633,7.331,1.0
87.024,7.638,6.831,1.0
82.947,7.316,8.835,3.0
82.901,7.318,8.353,3.0
82.862,7.322,7.872,2.0
82.851,7.326,7.388,4.0
82.935,7.341,6.92,3.0
82.976,7.351,6.449,3.0
82.878,7.379,8.762,8.0
82.874,7.384,8.284,8.0
82.913,7.393,7.811,9.0
82.866,7.395,7.322,9.0
82.914,7.406,6.851,10.0
82.915,7.412,6.377,12.0
82.856,7.442,8.691,29.0
82.867,7.448,8.215,36.0
82.863,7.453,7.738,38.0
82.862,7.458,7.253,38.0
82.875,7.465,6.779,36.0
82.886,7.473,6.305,53.0
82.848,7.504,8.619,32.0
82.857,7.51,8.142,39.0
82.852,7.513,7.665,39.0
82.872,7.52,7.182,43.0
82.873,7.526,6.707,38.0
82.877,7.532,6.232,34.0
82.873,7.566,8.548,10.0
82.881,7.571,8.071,12.0
82.886,7.576,7.594,9.0
82.855,7.578,7.106,10.0
82.899,7.586,6.634,12.0
82.883,7.59,6.158,44.0
82.886,7.624,8.473,4.0
82.868,7.626,7.993,4.0
82.947,7.637,7.522,4.0
82.946,7.641,7.037,4.0
82.909,7.643,6.557,6.0
82.895,7.646,6.082,41.0
83.038,7.692,8.41,1.0
83.127,7.704,7.938,1.0
82.987,7.694,7.447,1.0
83.019,7.701,6.963,1.0
83.03,7.706,6.487,2.0
82.894,7.697,6.002,38.0
85.994,8.019,8.624,9.0
86.037,8.026,8.131,9.0
85.999,8.025,7.633,9.0
85.958,8.024,7.126,9.0
85.717,8.005,6.613,3.0
82.915,7.748,5.921,14.0
85.728,8.043,8.512,11.0
85.775,8.049,8.022,11.0
85.856,8.06,7.533,10.0
85.819,8.06,7.027,8.0
82.985,7.796,6.317,2.0
82.907,7.792,5.836,6.0
84.895,8.011,8.34,9.0
85.019,8.024,7.862,9.0
85.072,8.031,7.376,8.0
85.337,8.059,6.898,3.0
82.927,7.833,6.227,4.0
82.947,7.838,5.752,3.0
84.415,8.008,8.204,10.0
84.439,8.011,7.718,9.0
84.397,8.009,7.227,9.0
84.275,7.999,6.723,11.0
82.901,7.871,6.137,13.0
84.524,8.027,5.772,6.0
84.302,8.036,8.102,11.0
84.351,8.041,7.618,10.0
84.207,8.028,7.12,10.0
84.214,8.031,6.626,10.0
82.901,7.907,6.045,46.0
84.219,8.035,5.658,9.0
84.081,8.05,7.987,10.0
84.123,8.054,7.504,10.0
84.153,8.058,7.021,11.0
84.224,8.066,6.532,11.0
82.874,7.938,5.951,38.0
84.148,8.061,5.559,10.0
83.53,8.028,7.84,7.0
83.693,8.044,7.371,7.0
83.878,8.063,6.902,9.0
83.967,8.072,6.417,9.0
82.904,7.97,5.858,24.0
84.037,8.081,5.455,10.0
83.034,8.009,7.695,10.0
83.124,8.018,7.223,8.0
83.163,8.021,6.746,9.0
83.43,8.047,6.277,5.0
83.001,8.006,5.768,8.0
83.525,8.058,5.323,8.0
83.076,8.038,7.601,10.0
83.035,8.033,7.117,10.0
83.018,8.031,6.636,9.0
82.854,8.015,6.137,7.0
83.034,8.032,5.672,9.0
83.076,8.037,5.196,7.0
83.176,8.069,7.51,4.0
83.195,8.07,7.03,7.0
83.163,8.066,6.547,9.0
82.871,8.037,6.038,29.0
83.118,8.06,5.577,10.0
83.016,8.05,5.093,8.0
75.129,7.305,6.691,1.0
83.107,8.079,6.921,2.0
83.236,8.09,6.451,3.0
82.871,8.053,5.936,18.0
83.226,8.087,5.483,6.0
83.194,8.083,5.002,7.0
75.156,7.32,6.601,3.0
75.132,7.316,6.163,0.0
0.0,0.0,0.0,0.0
82.852,8.064,5.832,4.0
83.108,8.088,5.371,3.0
83.251,8.101,4.9,4.0
75.102,7.325,6.501,2.0
75.17,7.329,6.072,1.0
75.095,7.32,5.632,1.0
82.794,8.068,5.723,1.0
82.813,8.068,5.248,1.0
82.866,8.072,4.774,2.0
75.101,7.332,6.405,2.0
75.159,7.334,5.975,1.0
75.189,7.335,5.543,1.0
75.249,7.338,5.106,1.0
75.329,7.344,4.678,1.0
82.763,8.067,4.663,3.0
75.112,7.336,6.309,2.0
75.162,7.338,5.878,1.0
75.14,7.333,5.443,1.0
75.125,7.328,5.001,1.0
82.997,8.093,5.047,1.0
83.042,8.096,4.572,3.0
75.127,7.338,6.213,1.0
75.159,7.338,5.78,1.0
75.242,7.342,5.352,1.0
75.057,7.321,4.899,1.0
83.197,8.111,4.95,1.0
83.195,8.108,4.471,3.0
75.135,7.335,6.114,2.0
75.262,7.344,5.689,1.0
75.268,7.34,5.254,0.0
82.906,8.081,5.301,1.0
83.052,8.092,4.832,2.0
83.173,8.101,4.361,4.0
75.203,7.335,6.02,1.0
75.1,7.321,5.576,0.0
82.667,8.054,5.66,1.0
82.718,8.054,5.179,3.0
82.8,8.058,4.707,4.0
82.797,8.055,4.231,6.0
83.137,8.099,6.542,1.0
82.913,8.071,6.046,7.0
83.108,8.085,5.58,4.0
83.099,8.079,5.092,8.0
83.04,8.069,4.609,8.0
82.888,8.051,4.124,10.0
83.236,8.094,6.437,3.0
82.861,8.051,5.93,20.0
83.343,8.093,5.482,9.0
83.369,8.09,4.995,10.0
83.473,8.095,4.52,10.0
82.902,8.035,4.013,28.0
82.856,8.039,6.295,6.0
82.887,8.035,5.819,11.0
83.407,8.079,5.373,9.0
83.516,8.085,4.891,9.0
83.731,8.1,4.421,9.0
82.904,8.015,3.901,25.0
82.86,8.018,6.181,6.0
83.059,8.03,5.716,9.0
83.247,8.041,5.248,8.0
83.435,8.053,4.771,9.0
83.742,8.078,4.306,6.0
83.063,8.006,3.794,7.0
82.881,7.994,6.069,29.0
83.568,8.053,5.637,10.0
83.621,8.051,5.157,10.0
83.713,8.053,4.672,9.0
82.95,7.974,4.152,6.0
83.751,8.045,3.71,8.0
82.868,7.963,5.952,31.0
84.176,8.081,5.56,9.0
84.221,8.078,5.077,10.0
84.346,8.083,4.59,9.0
82.92,7.94,4.036,31.0
84.415,8.077,3.623,9.0
82.915,7.935,5.842,11.0
84.581,8.087,5.471,9.0
84.749,8.095,4.992,9.0
84.851,8.097,4.502,8.0
82.902,7.903,3.921,37.0
85.112,8.108,3.536,9.0
84.314,8.032,5.823,4.0
84.753,8.065,5.364,9.0
84.944,8.074,4.885,9.0
82.92,7.875,4.283,2.0
83.023,7.877,3.811,4.0
85.474,8.102,3.433,10.0
84.842,8.041,5.74,10.0
84.977,8.045,5.258,9.0
85.117,8.049,4.777,10.0
82.904,7.831,4.166,38.0
85.42,8.06,3.801,8.0
85.603,8.07,3.317,8.0
85.537,8.061,5.665,10.0
85.602,8.057,5.176,10.0
85.688,8.056,4.688,9.0
82.893,7.785,4.049,42.0
85.908,8.059,3.703,6.0
85.831,8.043,3.206,3.0
86.189,8.072,5.588,7.0
86.286,8.072,5.096,5.0
83.032,7.758,4.426,3.0
82.964,7.742,3.937,10.0
83.091,7.745,3.465,2.0
69.633,6.483,2.504,0.0
82.933,7.716,5.261,2.0
82.969,7.71,4.785,3.0
82.911,7.694,4.304,41.0
82.874,7.681,3.818,4.0
82.951,7.679,3.344,5.0
70.14,6.486,2.426,4.0
82.936,7.662,5.146,6.0
82.908,7.649,4.666,6.0
82.921,7.64,4.189,54.0
82.919,7.629,3.705,11.0
82.912,7.619,3.227,13.0
70.703,6.489,2.347,10.0
82.898,7.6,5.028,12.0
82.906,7.59,4.551,21.0
82.915,7.58,4.075,33.0
82.908,7.569,3.589,64.0
82.924,7.561,3.114,135.0
71.322,6.494,2.27,9.0
82.902,7.539,4.913,73.0
82.9,7.528,4.436,83.0
82.91,7.517,3.959,60.0
82.931,7.508,3.475,33.0
82.922,7.496,2.999,19.0
71.968,6.496,2.19,9.0
82.898,7.472,4.796,22.0
82.92,7.462,4.321,13.0
82.913,7.451,3.844,9.0
82.925,7.44,3.36,8.0
72.348,6.481,2.516,2.0
72.621,6.496,2.109,7.0
82.981,7.41,4.687,5.0
82.967,7.397,4.208,4.0
83.005,7.388,3.734,4.0
83.043,7.379,3.25,2.0
73.083,6.484,2.441,4.0
73.317,6.495,2.029,9.0
83.136,7.351,4.581,1.0
87.063,7.685,4.297,57.0
87.084,7.674,3.798,4.0
87.097,7.662,3.291,7.0
73.804,6.481,2.365,4.0
74.022,6.491,1.947,9.0
87.097,7.621,4.68,13.0
87.089,7.606,4.179,26.0
87.086,7.593,3.679,36.0
87.095,7.58,3.171,64.0
74.681,6.488,2.291,10.0
74.897,6.496,1.869,9.0
87.078,7.536,4.56,104.0
87.078,7.521,4.061,127.0
87.094,7.508,3.562,41.0
87.084,7.494,3.053,17.0
40.078,3.442,1.175,4.0
40.084,3.437,0.946,28.0
40.086,3.428,2.045,7.0
40.072,3.42,1.814,64.0
40.091,3.415,1.585,111.0
40.089,3.409,1.352,128.0
40.083,3.402,1.122,150.0
40.097,3.397,0.893,102.0
40.089,3.387,1.992,102.0
40.094,3.38,1.762,137.0
40.086,3.373,1.532,126.0
40.1,3.367,1.299,124.0
40.095,3.36,1.069,150.0
40.098,3.354,0.84,100.0
40.087,3.343,1.939,131.0
40.084,3.335,1.708,150.0
40.089,3.329,1.479,150.0
40.09,3.322,1.246,126.0
40.095,3.315,1.017,150.0
40.091,3.309,0.787,150.0
40.09,3.298,1.886,150.0
40.086,3.29,1.656,150.0
40.092,3.284,1.427,136.0
40.1,3.277,1.194,140.0
40.094,3.269,0.964,150.0
40.092,3.262,0.735,122.0
40.091,3.251,1.834,125.0
40.092,3.244,1.604,106.0
40.074,3.235,1.374,9.0
0.0,0.0,0.0,0.0
41.897,3.367,0.954,96.0
41.897,3.359,0.714,107.0
41.884,3.346,1.862,143.0
41.889,3.338,1.622,146.0
41.898,3.331,1.383,128.0
41.894,3.323,1.14,116.0
41.908,3.316,0.901,117.0
41.893,3.308,0.661,116.0
41.891,3.295,1.81,150.0
41.893,3.287,1.57,129.0
41.893,3.278,1.331,114.0
41.895,3.271,1.087,114.0
41.886,3.262,0.848,84.0
41.888,3.254,0.609,9.0
41.875,3.24,1.756,8.0
0.0,0.0,0.0,0.0
43.685,3.363,1.334,150.0
43.684,3.354,1.08,147.0
43.695,3.347,0.831,127.0
43.695,3.338,0.582,126.0
43.682,3.323,1.779,150.0
43.687,3.314,1.53,150.0
43.689,3.306,1.28,143.0
43.687,3.297,1.027,128.0
43.695,3.288,0.778,132.0
43.702,3.28,0.529,134.0
43.691,3.265,1.726,147.0
43.671,3.253,1.476,50.0
45.451,3.376,1.277,9.0
45.479,3.369,1.014,103.0
45.468,3.359,0.754,37.0
40.367,2.974,0.44,69.0
45.476,3.334,1.742,150.0
45.473,3.324,1.483,150.0
40.377,2.943,1.086,109.0
40.379,2.934,0.852,75.0
40.602,2.942,0.626,84.0
40.928,2.957,0.398,97.0
45.464,3.269,1.688,83.0
41.057,2.943,1.29,8.0
41.35,2.955,1.064,70.0
41.201,2.935,0.822,78.0
41.782,2.968,0.596,103.0
41.939,2.97,0.36,129.0
99.979,7.043,3.598,35.0
41.983,2.947,1.271,43.0
42.109,2.947,1.036,77.0
41.239,2.877,0.775,16.0
41.526,2.888,0.545,150.0
42.834,2.969,0.319,64.0
99.954,6.892,3.483,38.0
43.217,2.97,1.26,48.0
43.432,2.974,1.019,83.0
43.599,2.975,0.771,75.0
43.649,2.969,0.523,39.0
44.301,3.002,0.279,7.0
99.964,6.738,3.371,37.0
44.25,2.972,1.24,58.0
44.57,2.982,0.996,91.0
44.853,2.991,0.743,150.0
45.098,2.997,0.491,125.0
45.157,2.991,0.236,81.0
99.954,6.582,3.263,35.0
45.202,2.965,1.218,122.0
45.215,2.955,0.962,103.0
45.198,2.943,0.7,42.0
99.794,6.475,0.981,10.0
45.177,2.92,0.188,150.0
100.682,6.468,3.179,6.0
170.323,10.901,4.411,4.0
112.392,7.166,2.273,18.0
99.748,6.334,1.442,9.0
112.121,7.094,0.984,8.0
45.177,2.847,0.14,45.0
163.425,10.233,4.99,11.0
45.195,2.818,1.123,85.0
45.201,2.807,0.867,12.0
113.355,7.013,1.522,11.0
64.246,3.958,0.498,0.0
45.175,2.772,0.094,46.0
45.202,2.755,1.334,7.0
134.862,8.185,3.216,13.0
112.001,6.77,2.036,7.0
111.997,6.742,1.392,21.0
45.232,2.711,0.306,134.0
45.167,2.696,0.05,44.0
45.204,2.679,1.289,53.0
45.208,2.667,1.033,7.0
45.206,2.655,0.778,1.0
99.759,5.835,1.142,10.0
57.015,3.32,0.33,5.0
45.178,2.62,0.006,31.0
45.177,2.6,1.245,3.0
45.228,2.59,0.991,0.0
45.248,2.579,0.735,1.0
45.206,2.566,0.474,43.0
45.189,2.552,0.219,42.0
45.184,2.541,-0.036,5.0
45.254,2.525,1.205,0.0
0.0,0.0,0.0,0.0
99.74,5.511,1.528,9.0
99.264,5.458,0.95,2.0
45.18,2.472,0.177,35.0
40.32,2.195,-0.069,39.0
45.205,2.442,1.162,8.0
45.211,2.429,0.907,90.0
45.218,2.417,0.652,9.0
45.183,2.403,0.392,1.0
45.173,2.39,0.137,44.0
40.314,2.122,-0.104,41.0
204.189,10.659,5.072,7.0
178.866,9.289,3.434,5.0
45.202,2.334,0.612,1.0
45.221,2.323,0.353,33.0
45.166,2.308,0.098,50.0
40.317,2.049,-0.139,53.0
45.231,2.278,1.085,1.0
45.268,2.268,0.831,0.0
132.085,6.58,1.68,4.0
23.645,1.171,0.165,0.0
45.175,2.224,0.061,30.0
40.323,1.974,-0.172,9.0
23.62,1.146,0.547,39.0
23.62,1.139,0.414,40.0
23.626,1.132,0.281,38.0
23.61,1.125,0.146,41.0
23.599,1.118,0.013,51.0
23.598,1.111,-0.119,61.0
23.595,1.1,0.528,74.0
23.596,1.094,0.395,69.0
23.586,1.086,0.262,69.0
23.597,1.08,0.127,69.0
23.605,1.073,-0.004,72.0
23.607,1.067,-0.137,64.0
23.6,1.056,0.51,113.0
23.604,1.049,0.378,49.0
23.613,1.042,0.245,42.0
23.614,1.035,0.11,44.0
23.619,1.029,-0.022,45.0
23.63,1.022,-0.154,45.0
45.222,1.937,0.946,6.0
23.627,1.004,0.361,6.0
23.639,0.998,0.229,1.0
45.174,1.895,0.179,47.0
40.345,1.68,-0.066,112.0
39.891,1.649,-0.289,4.0
40.382,1.651,0.817,3.0
40.377,1.639,0.59,151.0
40.384,1.627,0.363,150.0
40.341,1.613,0.133,117.0
40.336,1.601,-0.093,153.0
39.927,1.572,-0.315,1.0
41.526,1.617,0.812,130.0
41.868,1.617,0.584,129.0
42.117,1.613,0.352,92.0
41.134,1.563,0.109,3.0
41.988,1.583,-0.123,1.0
37.089,1.387,-0.316,1.0
44.258,1.635,0.838,64.0
45.091,1.652,0.602,118.0
44.841,1.628,0.347,19.0
40.109,1.445,0.082,6.0
40.092,1.431,-0.142,69.0
37.076,1.312,-0.338,2.0
162.246,5.672,2.978,3.0
70.924,2.456,0.905,7.0
71.002,2.437,0.509,25.0
40.126,1.365,0.059,152.0
40.02,1.348,-0.164,144.0
40.138,1.34,-0.389,1.0
40.13,1.321,0.714,150.0
40.123,1.308,0.49,144.0
40.119,1.296,0.265,142.0
40.135,1.283,0.037,150.0
40.051,1.268,-0.185,68.0
40.217,1.26,-0.411,1.0
40.121,1.24,0.693,150.0
40.12,1.226,0.469,119.0
40.12,1.214,0.245,138.0
40.131,1.201,0.017,150.0
40.041,1.186,-0.205,47.0
34.466,1.01,-0.369,0.0
0.0,0.0,0.0,0.0
41.922,1.196,0.47,167.0
0.0,0.0,0.0,0.0
40.14,1.119,-0.001,160.0
40.029,1.103,-0.224,48.0
40.19,1.095,-0.448,0.0
0.0,0.0,0.0,0.0
0.0,0.0,0.0,0.0
45.505,1.19,0.237,8.0
41.943,1.083,-0.019,152.0
0.0,0.0,0.0,0.0
33.565,0.845,-0.389,0.0
98.911,2.446,1.576,25.0
70.952,1.731,0.735,27.0
70.922,1.706,0.34,5.0
45.519,1.08,-0.039,8.0
40.685,0.952,-0.261,1.0
34.011,0.784,-0.407,1.0
128.837,2.916,2.004,27.0
122.281,2.726,1.222,3.0
81.408,1.788,0.361,4.0
52.233,1.129,-0.063,1.0
41.386,0.88,-0.28,0.0
33.256,0.697,-0.41,2.0
162.984,3.347,2.479,20.0
162.902,3.288,1.573,10.0
55.171,1.094,0.226,2.0
52.346,1.02,-0.081,2.0
39.923,0.764,-0.283,2.0
31.893,0.6,-0.403,0.0
55.175,1.015,0.822,75.0
55.156,0.996,0.516,78.0
55.17,0.977,0.21,138.0
52.514,0.912,-0.096,4.0
39.969,0.68,-0.295,0.0
35.885,0.598,-0.463,2.0
163.542,2.661,2.393,13.0
160.72,2.562,1.461,10.0
0.0,0.0,0.0,0.0
49.428,0.754,-0.103,1.0
19.687,0.293,-0.15,6.0
19.668,0.286,-0.258,15.0
19.731,0.279,0.284,13.0
19.764,0.273,0.175,18.0
84.961,1.144,0.283,4.0
19.655,0.257,-0.045,6.0
19.645,0.251,-0.153,16.0
19.662,0.244,-0.262,19.0
19.737,0.237,0.28,13.0
19.766,0.23,0.171,25.0
19.681,0.222,0.061,10.0
19.639,0.215,-0.048,10.0
19.632,0.208,-0.157,16.0
19.654,0.201,-0.265,17.0
19.676,0.194,0.276,8.0
19.664,0.187,0.167,12.0
19.646,0.18,0.059,13.0
19.65,0.173,-0.051,11.0
19.646,0.166,-0.159,13.0
19.734,0.16,-0.269,1.0
19.631,0.151,0.273,10.0
19.649,0.144,0.165,15.0
19.644,0.137,0.056,13.0
19.666,0.131,-0.053,9.0
19.655,0.124,-0.161,0.0
0.0,0.0,0.0,0.0
19.629,0.109,0.271,15.0
19.674,0.102,0.164,13.0
19.691,0.095,0.055,14.0
19.737,0.089,-0.054,17.0
19.767,0.082,-0.163,43.0
19.778,0.075,-0.272,66.0
19.623,0.067,0.27,13.0
19.726,0.06,0.163,13.0
19.749,0.053,0.055,17.0
19.747,0.046,-0.055,28.0
19.748,0.039,-0.164,11.0
19.762,0.032,-0.272,8.0
19.632,0.025,0.27,16.0
19.795,0.018,0.164,2.0
19.774,0.01,0.055,4.0
19.748,0.003,-0.055,8.0
19.756,-0.003,-0.163,1.0
36.252,-0.019,-0.499,0.0
19.632,-0.017,0.271,12.0
19.675,-0.024,0.163,10.0
19.698,-0.031,0.056,15.0
19.702,-0.038,-0.054,16.0
19.735,-0.046,-0.162,15.0
19.75,-0.053,-0.27,15.0
19.67,-0.059,0.273,11.0
19.69,-0.067,0.165,16.0
19.702,-0.074,0.057,14.0
19.703,-0.081,-0.052,11.0
19.715,-0.088,-0.16,16.0
19.743,-0.095,-0.268,16.0
19.714,-0.102,0.276,7.0
19.734,-0.109,0.168,9.0
19.754,-0.116,0.06,8.0
19.764,-0.124,-0.05,9.0
19.73,-0.13,-0.157,17.0
19.742,-0.138,-0.266,17.0
116.608,-0.854,1.649,2.0
0.0,0.0,0.0,0.0
0.0,0.0,0.0,0.0
19.783,-0.166,-0.046,1.0
19.774,-0.173,-0.155,7.0
19.771,-0.18,-0.263,8.0
19.776,-0.187,0.283,0.0
113.87,-1.116,1.008,150.0
0.0,0.0,0.0,0.0
0.0,0.0,0.0,0.0
0.0,0.0,0.0,0.0
0.0,0.0,0.0,0.0
19.748,-0.228,0.287,10.0
19.768,-0.236,0.179,22.0
19.767,-0.243,0.071,1.0
0.0,0.0,0.0,0.0
0.0,0.0,0.0,0.0
0.0,0.0,0.0,0.0
19.768,-0.271,0.292,5.0
19.757,-0.278,0.184,23.0
19.756,-0.285,0.076,8.0
0.0,0.0,0.0,0.0
0.0,0.0,0.0,0.0
0.0,0.0,0.0,0.0
0.0,0.0,0.0,0.0
113.776,-1.842,1.097,160.0
0.0,0.0,0.0,0.0
0.0,0.0,0.0,0.0
0.0,0.0,0.0,0.0
38.302,-0.675,-0.468,0.0
0.0,0.0,0.0,0.0
113.777,-2.082,1.135,150.0
0.0,0.0,0.0,0.0
0.0,0.0,0.0,0.0
0.0,0.0,0.0,0.0
38.397,-0.759,-0.455,0.0
0.0,0.0,0.0,0.0
113.824,-2.323,1.178,150.0
0.0,0.0,0.0,0.0
0.0,0.0,0.0,0.0
0.0,0.0,0.0,0.0
0.0,0.0,0.0,0.0
170.386,-3.774,2.758,5.0
0.0,0.0,0.0,0.0
0.0,0.0,0.0,0.0
0.0,0.0,0.0,0.0
0.0,0.0,0.0,0.0
0.0,0.0,0.0,0.0
170.37,-4.128,2.833,5.0
161.986,-3.982,1.815,25.0
160.764,-4.009,0.93,6.0
0.0,0.0,0.0,0.0
0.0,0.0,0.0,0.0
0.0,0.0,0.0,0.0
0.0,0.0,0.0,0.0
161.996,-4.317,1.893,18.0
160.701,-4.341,1.008,15.0
0.0,0.0,0.0,0.0
0.0,0.0,0.0,0.0
0.0,0.0,0.0,0.0
178.156,-5.053,3.138,7.0
161.898,-4.649,1.975,17.0
160.705,-4.673,1.092,14.0
0.0,0.0,0.0,0.0
0.0,0.0,0.0,0.0
0.0,0.0,0.0,0.0
165.44,-5.029,3.005,8.0
161.849,-4.978,2.065,32.0
160.757,-5.001,1.182,13.0
0.0,0.0,0.0,0.0
0.0,0.0,0.0,0.0
0.0,0.0,0.0,0.0
162.229,-5.26,3.04,22.0
161.959,-5.307,2.161,31.0
160.656,-5.321,1.276,6.0
0.0,0.0,0.0,0.0
0.0,0.0,0.0,0.0
0.0,0.0,0.0,0.0
162.25,-5.586,3.14,20.0
162.164,-5.641,2.264,16.0
160.679,-5.645,1.377,6.0
0.0,0.0,0.0,0.0
0.0,0.0,0.0,0.0
0.0,0.0,0.0,0.0
162.201,-5.905,3.244,16.0
162.067,-5.956,2.368,16.0
0.0,0.0,0.0,0.0
0.0,0.0,0.0,0.0
0.0,0.0,0.0,0.0
0.0,0.0,0.0,0.0
162.303,-6.226,3.356,12.0
0.0,0.0,0.0,0.0
0.0,0.0,0.0,0.0
0.0,0.0,0.0,0.0
0.0,0.0,0.0,0.0
0.0,0.0,0.0,0.0
162.421,-6.549,3.475,11.0
101.55,-4.128,1.626,11.0
0.0,0.0,0.0,0.0
0.0,0.0,0.0,0.0
0.0,0.0,0.0,0.0
0.0,0.0,0.0,0.0
168.816,-7.129,3.737,4.0
0.0,0.0,0.0,0.0
101.587,-4.359,1.158,1.0
101.727,-4.401,0.603,6.0
0.0,0.0,0.0,0.0
0.0,0.0,0.0,0.0
0.0,0.0,0.0,0.0
102.108,-4.541,1.792,2.0
101.495,-4.549,1.237,6.0
0.0,0.0,0.0,0.0
0.0,0.0,0.0,0.0
0.0,0.0,0.0,0.0
0.0,0.0,0.0,0.0
0.0,0.0,0.0,0.0
101.512,-4.738,1.32,1.0
101.456,-4.77,0.765,1.0
101.596,-4.81,0.222,2.0
0.0,0.0,0.0,0.0
139.407,-6.672,3.424,12.0
0.0,0.0,0.0,0.0
0.0,0.0,0.0,0.0
101.525,-4.958,0.852,150.0
0.0,0.0,0.0,0.0
0.0,0.0,0.0,0.0
139.428,-6.927,3.546,16.0
0.0,0.0,0.0,0.0
0.0,0.0,0.0,0.0
101.499,-5.141,0.942,13.0
0.0,0.0,0.0,0.0
0.0,0.0,0.0,0.0
140.552,-7.235,3.699,22.0
0.0,0.0,0.0,0.0
0.0,0.0,0.0,0.0
0.0,0.0,0.0,0.0
102.397,-5.402,0.496,1.0
0.0,0.0,0.0,0.0
140.771,-7.498,3.836,24.0
140.692,-7.538,3.083,29.0
0.0,0.0,0.0,0.0
0.0,0.0,0.0,0.0
101.491,-5.534,0.588,34.0
101.593,-5.572,0.047,1.0
120.096,-6.607,3.387,9.0
149.987,-8.296,3.43,7.0
140.683,-7.826,2.467,28.0
140.692,-7.872,1.703,9.0
114.815,-6.461,0.778,6.0
0.0,0.0,0.0,0.0
117.226,-6.651,3.423,18.0
148.927,-8.495,3.553,20.0
149.511,-8.572,2.77,20.0
149.595,-8.626,1.961,17.0
149.694,-8.678,1.164,8.0
0.0,0.0,0.0,0.0
117.264,-6.852,3.542,34.0
149.407,-8.775,3.717,18.0
148.617,-8.774,2.905,18.0
149.053,-8.843,2.105,19.0
149.907,-8.94,1.32,13.0
0.0,0.0,0.0,0.0
117.6,-7.069,3.675,12.0
117.336,-7.086,3.041,26.0
148.227,-8.995,3.052,17.0
148.551,-9.06,2.254,23.0
149.847,-9.182,1.477,16.0
108.632,-6.69,0.494,6.0
109.9,-6.785,3.551,13.0
117.264,-7.274,3.165,37.0
148.258,-9.238,3.213,10.0
125.389,-7.85,2.038,12.0
125.32,-7.884,1.372,9.0
108.793,-6.877,0.614,2.0
109.874,-6.96,3.67,23.0
117.141,-7.454,3.29,21.0
117.13,-7.487,2.668,28.0
125.184,-8.038,2.173,10.0
125.21,-8.075,1.51,32.0
109.279,-7.08,0.738,1.0
108.859,-7.068,3.758,34.0
109.938,-7.167,3.211,10.0
116.972,-7.659,2.795,29.0
117.373,-7.718,2.169,24.0
0.0,0.0,0.0,0.0
0.0,0.0,0.0,0.0
108.808,-7.231,3.879,23.0
109.043,-7.274,3.307,34.0
117.217,-7.852,2.934,14.0
117.441,-7.9,2.305,16.0
0.0,0.0,0.0,0.0
99.952,-6.778,0.902,2.0
108.237,-7.355,3.984,26.0
109.171,-7.448,3.44,24.0
109.168,-7.476,2.86,29.0
109.407,-7.522,2.276,21.0
100.101,-6.909,1.551,6.0
100.082,-6.934,1.021,8.0
107.963,-7.495,4.101,17.0
109.129,-7.604,3.566,19.0
109.06,-7.628,2.986,48.0
109.263,-7.669,2.401,49.0
100.055,-7.049,1.669,8.0
100.13,-7.082,1.141,8.0
107.504,-7.617,4.213,24.0
107.233,-7.624,3.633,16.0
109.018,-7.777,3.116,32.0
109.258,-7.823,2.533,31.0
109.413,-7.862,1.957,11.0
100.095,-7.218,1.262,10.0
107.489,-7.765,4.342,23.0
107.299,-7.778,3.766,26.0
109.187,-7.942,3.255,18.0
132.974,-9.704,3.246,2.0
126.276,-9.246,2.414,2.0
100.123,-7.357,1.385,8.0
107.408,-7.906,4.473,22.0
108.036,-7.977,3.926,21.0
148.139,-10.974,4.599,13.0
130.425,-9.692,3.346,2.0
123.96,-9.242,2.524,13.0
100.111,-7.489,1.51,8.0
108.251,-8.11,4.643,15.0
107.631,-8.088,4.046,22.0
108.334,-8.167,3.499,16.0
127.475,-9.638,3.43,9.0
127.468,-9.668,2.757,16.0
100.091,-7.615,1.636,10.0
108.573,-8.273,4.794,29.0
107.715,-8.232,4.185,21.0
108.22,-8.294,3.633,21.0
127.49,-9.8,3.594,19.0
127.53,-9.832,2.921,32.0
100.054,-7.737,1.763,7.0
108.484,-8.402,4.93,19.0
108.055,-8.391,4.338,18.0
108.567,-8.453,3.784,18.0
115.771,-9.04,3.412,10.0
127.485,-9.983,3.084,28.0
118.423,-9.299,2.24,6.0
108.007,-8.495,5.048,17.0
108.124,-8.526,4.481,24.0
108.736,-8.596,3.931,21.0
115.665,-9.168,3.559,15.0
127.505,-10.134,3.251,30.0
117.132,-9.334,2.368,7.0
107.623,-8.59,5.172,26.0
108.745,-8.701,4.65,18.0
109.252,-8.763,4.094,22.0
116.631,-9.378,3.744,4.0
127.455,-10.275,3.419,12.0
116.532,-9.419,2.51,21.0
107.374,-8.692,5.303,25.0
107.73,-8.741,4.751,21.0
108.92,-8.859,4.228,24.0
111.016,-9.051,3.712,6.0
118.18,-9.658,3.329,6.0
90.402,-7.406,2.07,51.0
107.168,-8.794,5.439,21.0
107.767,-8.862,4.899,24.0
108.789,-8.966,4.372,20.0
110.707,-9.145,3.854,21.0
116.725,-9.664,3.446,4.0
127.539,-10.583,3.093,21.0
107.051,-8.897,5.579,32.0
107.813,-8.978,5.048,21.0
108.71,-9.072,4.516,18.0
108.579,-9.081,3.927,11.0
114.399,-9.588,3.535,14.0
114.408,-9.61,2.932,10.0
107.291,-9.026,5.739,21.0
108.257,-9.124,5.219,16.0
107.996,-9.121,4.636,19.0
108.533,-9.184,4.075,21.0
114.301,-9.692,3.689,15.0
114.407,-9.72,3.089,12.0
111.831,-9.517,6.137,5.0
107.242,-9.143,5.318,20.0
107.886,-9.215,4.78,25.0
108.254,-9.263,4.215,24.0
108.35,-9.289,3.647,5.0
114.579,-9.842,3.254,8.0
107.535,-9.252,6.052,26.0
107.135,-9.234,5.464,22.0
107.74,-9.301,4.926,22.0
108.082,-9.347,4.36,26.0
108.236,-9.377,3.795,23.0
114.561,-9.943,3.414,7.0
105.324,-9.156,6.076,13.0
107.149,-9.328,5.615,10.0
107.476,-9.372,5.063,23.0
107.8,-9.414,4.498,25.0
108.112,-9.457,3.94,28.0
113.866,-9.978,3.551,7.0
109.073,-9.572,6.445,7.0
107.766,-9.471,5.797,19.0
107.396,-9.453,5.209,21.0
107.548,-9.48,4.638,24.0
108.0,-9.534,4.087,25.0
108.096,-9.558,3.521,19.0
110.109,-9.751,6.66,8.0
108.819,-9.65,6.008,21.0
108.672,-9.65,5.426,14.0
107.74,-9.581,4.799,29.0
108.028,-9.62,4.241,25.0
108.012,-9.632,3.672,22.0
109.787,-9.806,6.796,21.0
108.823,-9.732,6.161,19.0
108.996,-9.759,5.594,19.0
108.171,-9.697,4.969,21.0
108.333,-9.725,4.405,23.0
108.053,-9.711,3.824,28.0
109.651,-9.872,6.943,21.0
108.885,-9.814,6.318,21.0
108.926,-9.828,5.744,20.0
108.305,-9.783,5.129,15.0
108.091,-9.776,4.547,22.0
108.21,-9.799,3.982,10.0
107.556,-9.755,6.963,8.0
109.292,-9.923,6.498,17.0
108.719,-9.881,5.888,23.0
108.69,-9.889,5.301,7.0
107.842,-9.821,4.69,22.0
108.838,-9.923,4.161,25.0
107.469,-9.815,7.111,17.0
109.388,-9.998,6.658,14.0
108.748,-9.949,6.045,20.0
108.64,-9.949,5.453,21.0
107.822,-9.884,4.843,23.0
108.519,-9.958,4.301,26.0
107.047,-9.839,7.236,20.0
109.925,-10.111,6.847,11.0
108.671,-10.003,6.194,25.0
108.368,-9.983,5.593,19.0
108.112,-9.969,5.009,18.0
108.542,-10.017,4.455,20.0
106.849,-9.877,7.374,20.0
109.912,-10.168,7.002,6.0
108.842,-10.076,6.358,21.0
108.276,-10.03,5.741,18.0
108.788,-10.085,5.192,22.0
109.104,-10.121,4.631,11.0
107.07,-9.95,7.54,14.0
107.529,-9.999,7.002,12.0
108.869,-10.128,6.512,19.0
108.753,-10.124,5.918,20.0
109.0,-10.154,5.355,23.0
107.656,-10.036,4.721,10.0
106.468,-9.942,7.648,17.0
106.955,-9.992,7.114,22.0
109.172,-10.204,6.683,19.0
108.572,-10.153,6.062,24.0
108.163,-10.12,5.467,15.0
108.011,-10.112,4.886,14.0
106.443,-9.982,7.796,16.0
106.696,-10.01,7.248,26.0
110.278,-10.35,6.906,7.0
108.679,-10.204,6.219,31.0
108.121,-10.155,5.615,22.0
108.328,-10.18,5.053,20.0
106.364,-10.014,7.939,16.0
107.022,-10.078,7.419,16.0
107.334,-10.11,6.871,18.0
108.737,-10.245,6.374,22.0
108.396,-10.217,5.78,21.0
108.665,-10.245,5.219,22.0
106.057,-10.018,8.065,22.0
107.392,-10.146,7.596,17.0
107.193,-10.128,7.012,23.0
109.893,-10.386,6.595,20.0
108.738,-10.279,5.95,21.0
108.184,-10.23,5.346,16.0
106.161,-10.056,8.222,25.0
106.739,-10.112,7.699,16.0
107.137,-10.15,7.158,17.0
110.302,-10.452,6.772,21.0
108.706,-10.301,6.099,29.0
108.008,-10.237,5.487,28.0
106.446,-10.108,8.39,11.0
106.794,-10.14,7.85,16.0
106.995,-10.159,7.295,15.0
110.372,-10.48,6.928,17.0
108.689,-10.32,6.245,22.0
108.107,-10.265,5.639,26.0
108.062,-10.281,8.667,16.0
106.125,-10.095,7.946,14.0
107.639,-10.237,7.487,17.0
107.172,-10.192,6.872,14.0
109.189,-10.384,6.422,19.0
108.363,-10.304,5.798,22.0
107.846,-10.275,8.797,18.0
106.08,-10.105,8.086,25.0
107.365,-10.224,7.613,13.0
107.171,-10.204,7.018,22.0
110.347,-10.505,6.64,19.0
108.704,-10.347,5.964,25.0
47.638,-4.543,3.95,2.0
106.024,-10.108,8.225,20.0
106.503,-10.151,7.694,17.0
107.093,-10.203,7.156,13.0
110.37,-10.513,6.787,22.0
108.729,-10.355,6.108,27.0
47.693,-4.551,4.018,15.0
106.116,-10.121,8.373,9.0
106.572,-10.161,7.84,17.0
107.045,-10.201,7.294,15.0
110.347,-10.512,6.931,19.0
108.773,-10.359,6.254,18.0
47.936,-4.575,4.102,22.0
108.043,-10.304,8.668,19.0
106.096,-10.114,7.945,14.0
107.607,-10.253,7.474,18.0
107.203,-10.21,6.874,17.0
110.603,-10.53,6.504,9.0
48.186,-4.596,4.187,23.0
107.865,-10.283,8.795,17.0
106.042,-10.103,8.079,25.0
107.36,-10.222,7.595,13.0
107.176,-10.2,7.011,22.0
110.403,-10.502,6.632,19.0
48.17,-4.591,4.248,23.0
47.649,-4.538,3.946,2.0
106.128,-10.101,8.222,19.0
106.623,-10.14,7.68,16.0
107.146,-10.184,7.145,15.0
110.412,-10.488,6.774,20.0
48.08,-4.576,4.302,23.0
47.651,-4.532,4.008,20.0
106.598,-10.13,8.395,9.0
106.703,-10.133,7.82,16.0
106.982,-10.152,7.269,15.0
110.332,-10.462,6.909,14.0
47.693,-4.532,4.328,7.0
47.915,-4.548,4.09,22.0
108.292,-10.272,8.663,12.0
106.221,-10.067,7.917,12.0
107.328,-10.163,7.425,15.0
107.246,-10.148,6.846,19.0
47.661,-4.519,4.384,4.0
48.166,-4.562,4.171,22.0
108.217,-10.24,8.79,15.0
106.06,-10.026,8.036,22.0
107.444,-10.148,7.565,16.0
107.241,-10.12,6.977,25.0
45.955,-4.346,4.283,8.0
