X,Y,Z,Reflectivity
24.637,2.256,-0.476,5.0
21.362,1.96,-0.537,4.0
18.921,1.74,-0.583,12.0
17.77,1.637,-0.649,7.0
34.295,3.171,-0.312,11.0
27.288,2.528,-0.404,18.0
23.918,2.219,-0.49,5.0
0.0,0.0,0.0,0.0
18.436,1.717,-0.59,15.0
17.675,1.649,-0.667,6.0
0.0,0.0,0.0,0.0
26.818,2.515,-0.428,7.0
23.167,2.177,-0.502,5.0
18.899,1.779,-0.519,12.0
18.085,1.705,-0.6,14.0
17.534,1.656,-0.682,2.0
30.821,2.921,-0.353,9.0
25.847,2.453,-0.443,6.0
22.39,2.129,-0.512,4.0
18.614,1.773,-0.533,17.0
17.872,1.705,-0.614,21.0
17.304,1.654,-0.694,1.0
29.941,2.87,-0.378,8.0
25.034,2.403,-0.459,6.0
21.857,2.101,-0.526,6.0
18.205,1.753,-0.544,16.0
17.744,1.711,-0.631,25.0
17.06,1.648,-0.705,2.0
28.956,2.806,-0.401,8.0
24.349,2.363,-0.476,5.0
21.397,2.079,-0.541,3.0
18.04,1.756,-0.561,16.0
17.516,1.707,-0.645,14.0
16.636,1.624,-0.708,1.0
27.579,2.7,-0.416,7.0
23.592,2.313,-0.491,5.0
18.516,1.818,-0.491,10.0
17.723,1.742,-0.573,15.0
17.379,1.711,-0.661,11.0
16.202,1.598,-0.709,1.0
26.42,2.612,-0.431,7.0
22.85,2.262,-0.503,5.0
18.281,1.812,-0.507,19.0
17.589,1.746,-0.59,17.0
17.17,1.707,-0.675,10.0
16.025,1.595,-0.721,1.0
25.366,2.531,-0.445,6.0
22.173,2.215,-0.516,4.0
17.875,1.788,-0.518,16.0
17.392,1.742,-0.605,15.0
16.945,1.699,-0.687,13.0
15.956,1.602,-0.738,5.0
24.649,2.481,-0.463,7.0
21.797,2.196,-0.534,1.0
17.749,1.79,-0.536,17.0
17.319,1.749,-0.624,17.0
16.823,1.701,-0.703,13.0
15.914,1.612,-0.756,1.0
23.993,2.434,-0.481,5.0
18.191,1.848,-0.469,16.0
17.591,1.789,-0.554,15.0
17.079,1.739,-0.637,13.0
16.621,1.694,-0.716,7.0
15.437,1.576,-0.753,0.0
23.215,2.374,-0.495,5.0
17.925,1.835,-0.485,19.0
17.414,1.785,-0.571,15.0
16.886,1.732,-0.652,13.0
16.147,1.659,-0.716,9.0
15.127,1.556,-0.758,0.0
22.573,2.325,-0.51,3.0
17.714,1.826,-0.502,18.0
17.298,1.785,-0.589,16.0
16.741,1.73,-0.668,13.0
15.981,1.653,-0.729,10.0
14.873,1.54,-0.764,0.0
18.214,1.889,-0.435,12.0
17.625,1.829,-0.522,18.0
17.042,1.771,-0.602,14.0
16.677,1.735,-0.687,11.0
15.94,1.66,-0.748,3.0
17.729,1.848,-0.934,0.0
17.871,1.865,-0.45,17.0
17.475,1.825,-0.54,15.0
16.871,1.764,-0.618,15.0
16.51,1.728,-0.701,10.0
17.59,1.843,-0.848,0.0
17.62,1.848,-0.951,0.0
17.72,1.86,-0.469,20.0
17.298,1.817,-0.557,15.0
16.733,1.759,-0.634,14.0
16.288,1.714,-0.713,11.0
17.71,1.866,-0.877,0.0
17.612,1.857,-0.973,1.0
17.639,1.861,-0.489,19.0
17.119,1.808,-0.573,15.0
16.671,1.762,-0.654,16.0
16.02,1.695,-0.722,11.0
17.742,1.879,-0.902,1.0
17.716,1.878,-1.002,0.0
17.549,1.861,-0.51,17.0
16.945,1.798,-0.59,14.0
16.571,1.76,-0.672,13.0
15.974,1.698,-0.741,6.0
17.729,1.886,-0.924,0.0
13.598,1.448,-0.787,0.0
17.324,1.846,-0.526,14.0
16.767,1.787,-0.605,13.0
16.406,1.75,-0.686,12.0
16.501,1.762,-0.786,2.0
17.606,1.881,-0.94,1.0
13.389,1.432,-0.792,0.0
17.174,1.837,-0.543,14.0
16.684,1.786,-0.624,17.0
16.28,1.744,-0.702,11.0
0.0,0.0,0.0,0.0
17.467,1.874,-0.956,1.0
13.216,1.419,-0.799,0.0
17.1,1.836,-0.563,18.0
16.635,1.787,-0.643,17.0
16.081,1.728,-0.714,9.0
17.649,1.898,-0.887,1.0
17.558,1.89,-0.984,0.0
12.93,1.393,-0.799,0.0
16.931,1.823,-0.58,17.0
16.518,1.78,-0.66,14.0
15.966,1.721,-0.73,10.0
17.633,1.902,-0.909,1.0
13.675,1.476,-0.784,0.0
12.674,1.369,-0.8,0.0
16.774,1.811,-0.596,15.0
16.348,1.766,-0.675,13.0
16.244,1.756,-0.764,2.0
17.47,1.89,-0.924,1.0
13.483,1.459,-0.79,0.0
12.571,1.361,-0.809,0.0
16.679,1.806,-0.614,17.0
16.255,1.76,-0.692,12.0
16.753,1.815,-0.809,2.0
17.311,1.877,-0.937,1.0
13.292,1.442,-0.796,0.0
12.464,1.353,-0.819,0.0
16.628,1.803,-0.633,17.0
16.116,1.748,-0.706,10.0
17.525,1.902,-0.869,1.0
17.4,1.89,-0.965,0.0
13.024,1.415,-0.797,0.0
12.278,1.335,-0.822,0.0
16.505,1.793,-0.65,15.0
15.978,1.736,-0.721,11.0
17.554,1.908,-0.893,1.0
17.592,1.913,-0.998,0.0
12.803,1.393,-0.8,0.0
12.094,1.316,-0.825,0.0
16.381,1.781,-0.666,15.0
16.028,1.743,-0.743,4.0
17.5,1.904,-0.912,1.0
13.559,1.476,-0.786,0.0
12.598,1.372,-0.803,0.0
11.87,1.293,-0.825,0.0
16.297,1.773,-0.682,15.0
16.458,1.791,-0.784,2.0
17.32,1.885,-0.924,1.0
13.346,1.453,-0.79,0.0
12.407,1.351,-0.806,1.0
11.704,1.275,-0.828,0.0
16.171,1.76,-0.697,12.0
0.0,0.0,0.0,0.0
17.304,1.884,-0.945,1.0
13.116,1.428,-0.793,0.0
12.401,1.351,-0.821,0.0
11.561,1.26,-0.832,0.0
16.02,1.743,-0.71,11.0
17.538,1.908,-0.879,1.0
17.542,1.909,-0.98,0.0
12.897,1.404,-0.796,0.0
12.193,1.328,-0.822,0.0
11.353,1.236,-0.831,0.0
15.952,1.734,-0.727,10.0
17.547,1.908,-0.9,1.0
13.63,1.482,-0.778,0.0
12.713,1.383,-0.8,0.0
11.978,1.303,-0.823,0.0
11.192,1.218,-0.833,0.0
16.203,1.76,-0.758,2.0
17.462,1.897,-0.917,1.0
13.45,1.461,-0.784,0.0
12.619,1.371,-0.809,0.0
11.793,1.281,-0.824,0.0
11.018,1.198,-0.833,0.0
16.62,1.803,-0.797,2.0
17.321,1.879,-0.93,1.0
13.287,1.441,-0.79,0.0
12.5,1.356,-0.816,0.0
11.679,1.267,-0.83,0.0
10.948,1.188,-0.841,0.0
17.53,1.898,-0.861,2.0
17.345,1.878,-0.951,0.0
13.128,1.421,-0.795,0.0
12.326,1.335,-0.819,0.0
11.545,1.25,-0.834,0.0
10.74,1.163,-0.837,0.0
17.611,1.903,-0.885,1.0
17.607,1.902,-0.986,0.0
12.913,1.395,-0.797,0.0
12.153,1.313,-0.821,0.0
11.345,1.225,-0.832,0.0
10.577,1.142,-0.837,0.0
17.653,1.902,-0.907,1.0
13.655,1.471,-0.78,0.0
12.749,1.373,-0.802,0.0
11.952,1.287,-0.822,0.0
11.169,1.203,-0.832,0.0
10.509,1.132,-0.844,0.0
17.633,1.894,-0.926,1.0
13.448,1.444,-0.783,0.0
12.537,1.346,-0.802,0.0
11.814,1.268,-0.825,0.0
11.059,1.187,-0.836,0.0
10.337,1.11,-0.841,0.0
17.5,1.874,-0.939,1.0
13.334,1.427,-0.791,0.0
12.454,1.333,-0.811,0.0
11.687,1.25,-0.829,0.0
10.9,1.166,-0.836,0.0
10.27,1.098,-0.847,0.0
17.561,1.873,-0.961,1.0
13.112,1.398,-0.793,0.0
12.44,1.326,-0.823,1.0
11.571,1.233,-0.834,0.0
10.734,1.144,-0.835,0.0
10.232,1.09,-0.855,0.0
17.667,1.876,-0.985,0.0
12.857,1.365,-0.791,0.0
12.173,1.292,-0.818,0.0
11.361,1.205,-0.83,0.0
10.65,1.13,-0.84,0.0
10.182,1.08,-0.862,0.0
13.72,1.45,-0.779,0.0
12.769,1.349,-0.799,0.0
12.045,1.272,-0.822,0.0
11.263,1.189,-0.835,0.0
10.52,1.11,-0.84,0.0
10.065,1.062,-0.862,0.0
13.59,1.429,-0.786,0.0
12.658,1.331,-0.804,0.0
12.006,1.262,-0.832,0.0
11.063,1.162,-0.831,0.0
10.481,1.1,-0.848,0.0
9.958,1.045,-0.863,0.0
13.4,1.402,-0.788,0.0
12.591,1.316,-0.812,0.0
11.785,1.232,-0.828,0.0
11.035,1.153,-0.84,0.0
10.36,1.082,-0.848,0.0
9.86,1.029,-0.864,0.0
13.074,1.36,-0.781,0.0
12.527,1.302,-0.82,0.0
11.601,1.205,-0.826,0.0
10.829,1.124,-0.834,0.0
10.332,1.072,-0.855,0.0
9.75,1.011,-0.863,0.0
12.977,1.341,-0.787,0.0
12.361,1.277,-0.821,0.0
11.509,1.188,-0.83,0.0
10.729,1.107,-0.836,0.0
10.195,1.051,-0.853,0.0
9.689,0.999,-0.867,0.0
12.909,1.325,-0.795,0.0
12.199,1.252,-0.821,0.0
11.438,1.173,-0.835,0.0
10.691,1.096,-0.843,0.0
10.116,1.036,-0.856,0.0
9.672,0.99,-0.874,0.0
12.786,1.304,-0.798,0.0
12.122,1.235,-0.826,0.0
11.306,1.151,-0.835,0.0
10.514,1.07,-0.838,0.0
10.083,1.025,-0.862,0.0
9.568,0.972,-0.873,0.0
12.739,1.289,-0.806,0.0
11.901,1.203,-0.821,0.0
11.153,1.127,-0.833,0.0
10.509,1.061,-0.846,0.0
10.014,1.01,-0.864,0.0
9.506,0.959,-0.875,0.0
12.664,1.271,-0.812,0.0
11.866,1.19,-0.828,0.0
11.105,1.113,-0.839,0.0
10.399,1.042,-0.846,0.0
9.988,1.0,-0.87,0.0
9.476,0.948,-0.88,0.0
12.549,1.25,-0.814,0.0
11.735,1.167,-0.829,0.0
11.023,1.096,-0.841,0.0
10.367,1.03,-0.852,0.0
9.933,0.986,-0.873,0.0
9.408,0.933,-0.881,0.0
12.464,1.23,-0.818,0.0
11.619,1.146,-0.829,0.0
10.925,1.076,-0.842,0.0
10.335,1.017,-0.857,0.0
9.804,0.964,-0.869,0.0
9.354,0.919,-0.883,0.0
12.388,1.212,-0.822,0.0
11.54,1.128,-0.832,0.0
10.904,1.065,-0.848,0.0
10.253,1.0,-0.857,0.0
9.782,0.953,-0.874,0.0
9.3,0.905,-0.884,0.0
12.266,1.189,-0.822,0.0
11.383,1.102,-0.828,0.0
10.842,1.048,-0.851,0.0
10.202,0.985,-0.86,0.0
9.741,0.94,-0.877,0.0
9.252,0.892,-0.886,0.0
12.185,1.169,-0.825,0.0
11.376,1.09,-0.835,0.0
10.679,1.022,-0.845,0.0
10.154,0.971,-0.862,0.0
9.696,0.926,-0.879,0.0
9.195,0.877,-0.886,0.0
12.044,1.144,-0.823,0.0
11.335,1.075,-0.839,0.0
10.671,1.011,-0.851,0.0
10.081,0.954,-0.862,0.0
9.626,0.91,-0.878,0.0
9.131,0.862,-0.885,0.0
11.974,1.125,-0.825,0.0
11.274,1.057,-0.841,0.0
10.611,0.994,-0.852,0.0
10.051,0.94,-0.865,0.0
9.598,0.897,-0.881,0.0
11.923,1.107,-0.828,0.0
11.218,1.04,-0.843,0.0
10.539,0.976,-0.852,0.0
10.04,0.929,-0.87,0.0
9.579,0.885,-0.885,0.0
11.874,1.09,-0.831,0.0
11.143,1.021,-0.843,0.0
10.455,0.957,-0.85,0.0
9.977,0.912,-0.869,0.0
9.518,0.869,-0.884,0.0
11.815,1.072,-0.833,0.0
11.145,1.009,-0.849,0.0
10.415,0.942,-0.852,0.0
9.983,0.902,-0.874,0.0
9.51,0.858,-0.887,0.0
8.957,0.807,-0.887,0.0
11.806,1.057,-0.837,0.0
11.088,0.991,-0.849,0.0
10.372,0.926,-0.853,0.0
9.984,0.89,-0.879,0.0
9.462,0.842,-0.887,0.0
11.72,1.036,-0.836,0.0
11.102,0.98,-0.855,0.0
10.357,0.913,-0.856,0.0
9.921,0.873,-0.877,0.0
9.42,0.827,-0.886,0.0
11.632,1.015,-0.834,0.0
11.008,0.958,-0.851,0.0
10.35,0.9,-0.859,0.0
9.868,0.856,-0.876,0.0
9.391,0.814,-0.887,0.0
8.869,0.767,-0.888,0.0
11.543,0.993,-0.831,0.0
10.987,0.943,-0.853,0.0
10.32,0.884,-0.86,0.0
9.871,0.845,-0.879,0.0
9.36,0.8,-0.887,0.0
11.576,0.981,-0.837,0.0
10.896,0.922,-0.849,0.0
10.301,0.87,-0.861,0.0
9.842,0.83,-0.879,0.0
9.384,0.79,-0.892,0.0
8.847,0.743,-0.891,0.0
11.553,0.965,-0.838,0.0
10.838,0.904,-0.847,0.0
10.282,0.856,-0.862,0.0
9.837,0.817,-0.881,0.0
9.343,0.775,-0.89,0.0
8.839,0.732,-0.892,0.0
11.497,0.946,-0.837,0.0
10.885,0.894,-0.853,0.0
10.257,0.84,-0.862,0.0
9.861,0.806,-0.885,0.0
9.349,0.763,-0.892,0.0
8.867,0.722,-0.896,0.0
11.504,0.931,-0.839,0.0
10.862,0.878,-0.853,0.0
10.24,0.826,-0.862,0.0
9.812,0.789,-0.882,0.0
9.315,0.748,-0.89,0.0
8.844,0.709,-0.895,0.0
11.551,0.92,-0.844,0.0
10.854,0.863,-0.854,0.0
10.283,0.816,-0.867,0.0
9.819,0.777,-0.884,0.0
9.341,0.738,-0.894,0.0
8.818,0.695,-0.894,0.0
11.561,0.906,-0.846,0.0
10.8,0.844,-0.85,0.0
10.255,0.8,-0.865,0.0
9.814,0.763,-0.884,0.0
9.359,0.726,-0.896,0.0
8.844,0.685,-0.897,0.0
11.499,0.885,-0.841,0.0
10.864,0.834,-0.856,0.0
10.255,0.786,-0.865,0.0
9.869,0.754,-0.889,0.0
9.37,0.715,-0.897,0.0
8.908,0.678,-0.903,0.0
11.532,0.872,-0.844,0.0
10.886,0.821,-0.858,0.0
10.255,0.771,-0.865,0.0
9.853,0.74,-0.888,0.0
9.397,0.704,-0.899,0.0
8.867,0.662,-0.899,0.0
11.563,0.858,-0.846,0.0
10.894,0.807,-0.858,0.0
10.31,0.761,-0.869,0.0
9.856,0.726,-0.887,0.0
9.383,0.689,-0.898,0.0
8.861,0.65,-0.897,0.0
11.599,0.845,-0.847,0.0
10.918,0.793,-0.859,0.0
10.288,0.745,-0.867,0.0
9.821,0.709,-0.883,0.0
9.389,0.677,-0.897,0.0
8.875,0.638,-0.898,0.0
11.62,0.83,-0.848,0.0
10.936,0.779,-0.859,0.0
10.353,0.735,-0.871,0.0
9.89,0.7,-0.888,0.0
9.427,0.666,-0.899,0.0
8.952,0.631,-0.904,0.0
11.638,0.815,-0.847,0.0
10.974,0.766,-0.86,0.0
10.359,0.721,-0.869,0.0
9.906,0.687,-0.887,0.0
9.453,0.654,-0.9,0.0
8.946,0.617,-0.902,0.0
11.647,0.799,-0.845,0.0
10.985,0.751,-0.858,0.0
10.363,0.706,-0.867,0.0
9.943,0.676,-0.888,0.0
9.455,0.641,-0.898,0.0
8.975,0.606,-0.902,0.0
11.741,0.788,-0.849,0.0
11.05,0.739,-0.86,0.0
10.401,0.694,-0.868,0.0
9.945,0.661,-0.886,0.0
9.532,0.632,-0.902,0.0
9.012,0.596,-0.903,0.0
11.752,0.772,-0.846,0.0
11.097,0.727,-0.86,0.0
10.439,0.681,-0.867,0.0
9.966,0.648,-0.884,0.0
9.576,0.621,-0.903,0.0
9.073,0.586,-0.906,0.0
11.85,0.761,-0.849,0.0
11.15,0.714,-0.861,0.0
10.514,0.671,-0.87,0.0
10.015,0.637,-0.885,0.0
9.58,0.607,-0.9,0.0
9.153,0.578,-0.911,0.0
11.928,0.748,-0.85,0.0
11.205,0.701,-0.86,0.0
10.539,0.657,-0.868,0.0
10.061,0.625,-0.885,0.0
9.622,0.596,-0.9,0.0
9.204,0.568,-0.912,0.0
11.919,0.73,-0.844,0.0
11.245,0.687,-0.859,0.0
10.564,0.643,-0.865,0.0
10.09,0.612,-0.883,0.0
9.649,0.583,-0.898,0.0
9.193,0.554,-0.906,0.0
12.108,0.724,-0.852,0.0
11.311,0.674,-0.858,0.0
10.683,0.634,-0.869,0.0
10.177,0.602,-0.885,0.0
9.704,0.572,-0.898,0.0
9.278,0.545,-0.91,0.0
12.137,0.708,-0.848,0.0
11.386,0.662,-0.858,0.0
10.767,0.623,-0.871,0.0
10.237,0.59,-0.885,0.0
9.791,0.563,-0.901,0.0
9.297,0.532,-0.907,0.0
12.227,0.695,-0.847,0.0
11.441,0.648,-0.855,0.0
10.736,0.606,-0.862,0.0
10.288,0.578,-0.884,0.0
9.852,0.552,-0.901,0.0
9.336,0.521,-0.905,0.0
12.386,0.686,-0.851,0.0
11.556,0.637,-0.857,0.0
10.88,0.598,-0.867,0.0
10.353,0.566,-0.883,0.0
9.887,0.539,-0.897,0.0
9.416,0.511,-0.907,0.0
12.408,0.669,-0.844,0.0
11.645,0.625,-0.856,0.0
10.91,0.583,-0.862,0.0
23.639,1.259,-2.0,0.0
9.964,0.528,-0.897,0.0
9.458,0.499,-0.904,0.0
23.629,1.239,-1.591,0.0
11.741,0.613,-0.855,0.0
10.968,0.57,-0.858,0.0
10.442,0.54,-0.876,0.0
10.017,0.516,-0.895,0.0
9.551,0.49,-0.906,0.0
23.622,1.204,-1.574,2.0
11.929,0.605,-0.86,0.0
11.14,0.562,-0.863,0.0
10.541,0.53,-0.876,0.0
10.098,0.505,-0.894,0.0
9.613,0.479,-0.904,0.0
23.62,1.169,-1.555,2.0
12.046,0.593,-0.859,0.0
11.247,0.551,-0.863,0.0
10.646,0.519,-0.876,0.0
10.181,0.495,-0.894,0.0
9.691,0.469,-0.904,0.0
23.629,1.135,-1.537,2.0
12.153,0.581,-0.856,0.0
11.345,0.54,-0.861,0.0
10.756,0.509,-0.876,0.0
10.311,0.486,-0.896,0.0
9.753,0.457,-0.901,0.0
23.651,1.101,-1.517,0.0
12.262,0.568,-0.853,0.0
11.436,0.527,-0.858,0.0
10.843,0.497,-0.873,0.0
10.337,0.471,-0.889,0.0
9.868,0.448,-0.903,0.0
13.27,0.598,-0.839,0.0
12.379,0.555,-0.85,0.0
11.673,0.521,-0.865,0.0
10.899,0.484,-0.868,0.0
10.435,0.461,-0.888,0.0
9.941,0.437,-0.9,0.0
13.464,0.587,-0.839,0.0
12.55,0.544,-0.849,0.0
11.839,0.511,-0.866,0.0
11.065,0.475,-0.87,0.0
10.533,0.45,-0.886,0.0
10.021,0.426,-0.897,0.0
13.625,0.575,-0.835,0.0
12.731,0.534,-0.849,0.0
11.899,0.496,-0.858,0.0
11.212,0.465,-0.87,0.0
10.628,0.438,-0.883,0.0
10.157,0.417,-0.899,0.0
13.754,0.56,-0.829,0.0
12.804,0.519,-0.841,0.0
12.067,0.486,-0.858,0.0
11.368,0.455,-0.871,0.0
10.734,0.427,-0.88,0.0
10.286,0.407,-0.899,0.0
13.987,0.55,-0.828,0.0
13.085,0.512,-0.845,0.0
12.222,0.475,-0.855,0.0
11.565,0.447,-0.873,0.0
10.86,0.417,-0.879,0.0
10.351,0.395,-0.893,0.0
14.157,0.537,-0.823,0.0
13.19,0.497,-0.837,0.0
12.345,0.463,-0.85,0.0
11.769,0.438,-0.875,0.0
10.998,0.407,-0.877,0.0
10.469,0.385,-0.892,0.0
14.427,0.527,-0.822,0.0
13.452,0.488,-0.838,0.0
12.588,0.454,-0.852,0.0
11.846,0.425,-0.867,0.0
11.139,0.397,-0.875,0.0
10.589,0.375,-0.889,0.0
14.594,0.513,-0.814,0.0
13.632,0.476,-0.833,0.0
12.828,0.445,-0.853,0.0
12.019,0.414,-0.865,0.0
11.286,0.386,-0.873,0.0
10.758,0.366,-0.89,0.0
15.002,0.507,-0.818,0.0
13.89,0.466,-0.832,0.0
13.014,0.433,-0.849,0.0
12.2,0.404,-0.863,0.0
11.467,0.377,-0.872,0.0
10.887,0.355,-0.887,0.0
15.216,0.493,-0.811,0.0
14.184,0.456,-0.831,0.0
13.239,0.423,-0.847,0.0
12.328,0.391,-0.856,0.0
11.672,0.368,-0.873,0.0
11.053,0.346,-0.886,0.0
15.726,0.489,-0.817,0.0
14.477,0.447,-0.83,0.0
13.534,0.414,-0.848,0.0
12.58,0.382,-0.857,0.0
11.848,0.357,-0.87,0.0
11.168,0.334,-0.88,0.0
16.151,0.48,-0.818,0.0
14.747,0.435,-0.825,0.0
13.838,0.405,-0.848,0.0
12.791,0.372,-0.854,0.0
12.116,0.35,-0.873,0.0
11.303,0.324,-0.875,0.0
16.531,0.47,-0.814,0.0
14.9,0.42,-0.813,0.0
14.105,0.395,-0.845,0.0
12.929,0.359,-0.845,0.0
12.257,0.338,-0.866,0.0
11.525,0.315,-0.876,0.0
16.892,0.459,-0.808,1.0
15.368,0.414,-0.817,0.0
14.324,0.383,-0.838,0.0
13.324,0.353,-0.851,0.0
12.436,0.327,-0.861,0.0
11.771,0.307,-0.878,0.0
17.321,0.449,-0.804,1.0
15.851,0.407,-0.82,0.0
14.612,0.372,-0.833,0.0
13.632,0.344,-0.851,0.0
12.672,0.317,-0.859,0.0
11.946,0.296,-0.873,0.0
17.703,0.436,-0.795,0.0
16.248,0.397,-0.816,0.0
14.894,0.361,-0.827,0.0
13.958,0.335,-0.851,0.0
12.809,0.305,-0.849,0.0
12.25,0.289,-0.877,0.0
18.067,0.424,-0.785,0.0
16.65,0.387,-0.811,0.0
15.165,0.349,-0.819,0.0
14.208,0.324,-0.844,1.0
13.256,0.3,-0.858,0.0
12.396,0.278,-0.868,0.0
18.565,0.413,-0.778,0.0
17.109,0.377,-0.807,0.0
15.624,0.341,-0.82,0.0
14.547,0.315,-0.841,0.0
13.627,0.292,-0.86,1.0
12.652,0.269,-0.866,0.0
19.001,0.401,-0.767,0.0
17.595,0.367,-0.803,0.0
16.03,0.331,-0.816,0.0
14.789,0.303,-0.832,0.0
13.875,0.281,-0.854,1.0
12.825,0.257,-0.857,0.0
19.765,0.394,-0.766,2.0
17.906,0.353,-0.788,0.0
16.432,0.321,-0.809,1.0
15.147,0.293,-0.828,0.0
14.19,0.271,-0.85,1.0
13.245,0.251,-0.863,1.0
20.002,0.376,-0.742,2.0
18.592,0.346,-0.787,0.0
17.088,0.314,-0.814,0.0
15.597,0.284,-0.826,0.0
14.533,0.262,-0.846,1.0
13.56,0.242,-0.861,1.0
20.889,0.37,-0.74,1.0
19.189,0.336,-0.78,0.0
17.47,0.302,-0.802,0.0
15.935,0.273,-0.817,0.0
14.782,0.25,-0.836,0.0
13.832,0.231,-0.855,1.0
21.368,0.355,-0.72,0.0
19.686,0.323,-0.767,3.0
17.982,0.292,-0.795,0.0
16.601,0.266,-0.822,1.0
15.213,0.241,-0.834,0.0
14.186,0.222,-0.852,1.0
22.111,0.344,-0.707,0.0
19.609,0.301,-0.73,5.0
18.591,0.282,-0.789,0.0
16.979,0.255,-0.811,0.0
15.701,0.233,-0.833,0.0
14.579,0.213,-0.85,1.0
19.723,0.286,-0.596,1.0
19.641,0.281,-0.696,0.0
19.436,0.275,-0.79,0.0
17.561,0.246,-0.808,0.0
15.845,0.219,-0.812,0.0
14.96,0.204,-0.845,0.0
19.688,0.266,-0.559,15.0
19.686,0.263,-0.662,8.0
19.557,0.257,-0.76,3.0
18.019,0.234,-0.796,0.0
16.535,0.212,-0.817,0.0
15.263,0.193,-0.834,1.0
19.684,0.247,-0.523,17.0
19.681,0.243,-0.626,16.0
19.628,0.24,-0.727,8.0
18.909,0.228,-0.801,0.0
17.178,0.204,-0.818,0.0
15.722,0.184,-0.831,0.0
19.676,0.229,-0.488,21.0
19.675,0.225,-0.59,18.0
19.672,0.222,-0.693,17.0
19.46,0.217,-0.789,1.0
17.734,0.194,-0.811,0.0
16.139,0.174,-0.823,0.0
19.668,0.211,-0.451,23.0
19.686,0.208,-0.554,16.0
19.678,0.204,-0.656,13.0
19.633,0.201,-0.759,4.0
18.204,0.183,-0.798,0.0
16.652,0.165,-0.817,0.0
19.671,0.193,-0.414,18.0
19.676,0.19,-0.517,12.0
19.683,0.187,-0.619,8.0
19.701,0.185,-0.724,2.0
19.01,0.175,-0.797,0.0
17.295,0.157,-0.816,0.0
19.69,0.177,-0.377,10.0
19.693,0.174,-0.479,3.0
19.717,0.171,-0.583,0.0
20.999,0.179,-0.732,0.0
19.568,0.164,-0.783,2.0
18.011,0.149,-0.815,0.0
19.626,0.16,-0.338,0.0
28.136,0.226,-0.631,0.0
25.098,0.198,-0.693,1.0
21.591,0.167,-0.71,0.0
19.744,0.15,-0.752,0.0
18.525,0.138,-0.802,0.0
32.056,0.237,-0.49,0.0
29.78,0.216,-0.61,0.0
26.116,0.186,-0.67,0.0
23.254,0.162,-0.72,0.0
20.849,0.143,-0.753,0.0
19.242,0.129,-0.795,0.0
36.583,0.243,-0.487,0.0
0.0,0.0,0.0,0.0
27.39,0.175,-0.649,0.0
24.328,0.152,-0.705,0.0
21.465,0.131,-0.733,0.0
19.71,0.118,-0.775,2.0
0.0,0.0,0.0,0.0
32.665,0.189,-0.54,0.0
28.442,0.161,-0.617,0.0
25.488,0.141,-0.687,0.0
22.661,0.123,-0.729,0.0
19.921,0.106,-0.744,3.0
19.742,0.103,-0.184,0.0
19.761,0.101,-0.287,0.0
19.78,0.099,-0.389,1.0
19.769,0.096,-0.493,2.0
19.786,0.094,-0.596,2.0
19.806,0.092,-0.699,2.0
19.769,0.09,-0.145,14.0
19.771,0.088,-0.247,14.0
19.77,0.086,-0.349,16.0
19.795,0.084,-0.454,20.0
19.779,0.082,-0.556,17.0
19.794,0.08,-0.658,20.0
19.768,0.078,-0.104,42.0
19.779,0.076,-0.206,55.0
19.774,0.074,-0.308,36.0
19.768,0.072,-0.412,45.0
19.783,0.07,-0.515,35.0
19.79,0.068,-0.617,25.0
19.77,0.067,-0.063,36.0
19.765,0.065,-0.165,31.0
19.756,0.063,-0.267,28.0
19.765,0.061,-0.371,27.0
19.776,0.059,-0.473,150.0
19.776,0.057,-0.575,30.0
19.761,0.056,-0.022,36.0
19.754,0.054,-0.124,13.0
19.767,0.052,-0.226,19.0
19.757,0.05,-0.33,17.0
19.774,0.049,-0.432,12.0
19.776,0.047,-0.534,13.0
19.746,0.046,0.017,18.0
19.741,0.044,-0.083,14.0
19.749,0.042,-0.185,8.0
19.749,0.041,-0.289,10.0
19.759,0.039,-0.391,8.0
19.768,0.037,-0.493,12.0
19.745,0.036,0.059,17.0
19.76,0.035,-0.042,150.0
19.744,0.033,-0.144,12.0
19.762,0.032,-0.247,8.0
19.759,0.03,-0.349,6.0
19.766,0.029,-0.451,2.0
19.753,0.028,0.101,9.0
19.755,0.026,0.0,12.0
19.775,0.025,-0.102,1.0
19.765,0.023,-0.205,1.0
19.779,0.022,-0.307,1.0
19.781,0.021,-0.409,1.0
19.798,0.02,0.143,1.0
19.783,0.018,0.041,3.0
19.753,0.017,-0.06,9.0
19.799,0.016,-0.164,0.0
19.769,0.014,-0.265,0.0
19.809,0.013,-0.367,0.0
19.659,0.012,0.184,11.0
19.803,0.011,0.083,3.0
19.74,0.01,-0.018,9.0
19.773,0.009,-0.121,0.0
0.0,0.0,0.0,0.0
0.0,0.0,0.0,0.0
19.644,0.006,0.225,16.0
19.741,0.005,0.125,1.0
19.73,0.004,0.023,8.0
19.749,0.003,-0.079,2.0
19.86,0.002,-0.182,0.0
0.0,0.0,0.0,0.0
19.63,0.0,0.267,13.0
19.702,0.0,0.167,7.0
19.714,-0.001,0.065,6.0
19.727,-0.001,-0.037,12.0
19.766,-0.002,-0.139,2.0
0.0,0.0,0.0,0.0
19.626,-0.004,0.309,15.0
19.639,-0.005,0.208,14.0
19.698,-0.005,0.107,4.0
19.701,-0.006,0.004,13.0
19.776,-0.007,-0.097,5.0
19.772,-0.007,-0.199,0.0
19.619,-0.008,0.351,13.0
19.621,-0.009,0.25,12.0
19.699,-0.009,0.15,4.0
19.694,-0.01,0.046,13.0
19.72,-0.01,-0.054,12.0
19.754,-0.011,-0.156,6.0
19.626,-0.012,0.393,13.0
19.62,-0.012,0.292,12.0
19.638,-0.013,0.191,13.0
19.685,-0.013,0.088,11.0
19.716,-0.013,-0.012,14.0
19.754,-0.014,-0.113,9.0
19.621,-0.014,0.435,15.0
19.627,-0.015,0.334,12.0
19.628,-0.015,0.233,13.0
19.677,-0.015,0.131,7.0
19.696,-0.016,0.03,14.0
19.73,-0.016,-0.071,10.0
19.625,-0.016,0.477,13.0
19.619,-0.017,0.376,12.0
19.617,-0.017,0.275,12.0
19.648,-0.017,0.173,10.0
19.696,-0.017,0.072,14.0
19.711,-0.017,-0.028,14.0
19.629,-0.018,0.52,13.0
19.627,-0.018,0.418,12.0
19.628,-0.018,0.317,12.0
19.629,-0.018,0.215,15.0
19.677,-0.018,0.114,10.0
19.711,-0.018,0.013,15.0
19.621,-0.018,0.561,14.0
19.625,-0.018,0.46,13.0
19.621,-0.018,0.359,12.0
19.623,-0.018,0.256,11.0
19.665,-0.018,0.156,8.0
19.705,-0.018,0.055,14.0
19.631,-0.018,0.604,13.0
19.615,-0.018,0.503,13.0
19.618,-0.018,0.402,12.0
19.625,-0.017,0.299,12.0
19.643,-0.017,0.198,15.0
19.685,-0.017,0.097,12.0
19.639,-0.017,0.646,13.0
19.622,-0.017,0.544,13.0
19.613,-0.016,0.443,13.0
19.613,-0.016,0.34,12.0
19.628,-0.015,0.24,13.0
19.698,-0.015,0.139,7.0
19.662,-0.016,0.689,13.0
19.623,-0.015,0.586,13.0
19.614,-0.014,0.485,12.0
19.614,-0.014,0.382,13.0
19.618,-0.013,0.281,13.0
19.642,-0.013,0.18,13.0
19.661,-0.013,0.73,10.0
19.626,-0.012,0.628,13.0
19.617,-0.012,0.526,13.0
19.614,-0.011,0.423,14.0
19.63,-0.01,0.322,13.0
19.632,-0.01,0.221,15.0
19.679,-0.01,0.772,10.0
19.64,-0.009,0.669,12.0
19.614,-0.008,0.567,13.0
19.607,-0.008,0.464,13.0
19.625,-0.007,0.363,14.0
19.626,-0.006,0.262,13.0
19.64,-0.006,0.812,10.0
19.647,-0.005,0.711,11.0
19.614,-0.004,0.609,12.0
19.607,-0.003,0.505,12.0
19.621,-0.002,0.404,13.0
19.619,-0.001,0.303,14.0
19.601,-0.002,0.852,20.0
19.658,-0.001,0.753,10.0
19.634,0.0,0.65,11.0
19.605,0.001,0.546,13.0
19.614,0.002,0.445,12.0
19.622,0.003,0.344,14.0
19.56,0.003,0.891,18.0
19.653,0.004,0.794,15.0
19.635,0.005,0.692,12.0
19.607,0.006,0.587,12.0
19.613,0.008,0.486,12.0
19.623,0.009,0.385,13.0
19.565,0.009,0.932,21.0
19.6,0.01,0.832,19.0
19.642,0.011,0.733,11.0
19.619,0.013,0.628,12.0
19.609,0.014,0.527,13.0
19.615,0.016,0.426,12.0
19.558,0.015,0.972,24.0
19.571,0.017,0.872,19.0
19.664,0.018,0.774,19.0
19.623,0.02,0.669,12.0
19.61,0.021,0.567,13.0
19.617,0.023,0.466,14.0
19.557,0.023,1.012,13.0
19.566,0.024,0.911,22.0
19.602,0.026,0.811,17.0
19.633,0.028,0.709,12.0
19.613,0.029,0.606,12.0
19.608,0.031,0.505,14.0
19.593,0.031,1.054,5.0
19.555,0.032,0.951,23.0
19.579,0.034,0.85,25.0
19.636,0.036,0.749,16.0
19.619,0.038,0.647,12.0
19.611,0.04,0.545,14.0
19.61,0.04,1.094,0.0
19.561,0.041,0.99,18.0
19.573,0.043,0.889,24.0
19.652,0.045,0.789,21.0
19.632,0.047,0.686,12.0
19.61,0.049,0.584,14.0
0.0,0.0,0.0,0.0
19.554,0.051,1.03,9.0
19.563,0.053,0.928,22.0
19.576,0.055,0.825,17.0
19.631,0.057,0.726,12.0
19.614,0.059,0.623,13.0
0.0,0.0,0.0,0.0
19.615,0.061,1.072,2.0
19.562,0.063,0.967,22.0
19.584,0.066,0.864,24.0
19.655,0.068,0.765,20.0
19.618,0.07,0.662,12.0
0.0,0.0,0.0,0.0
0.0,0.0,0.0,0.0
19.568,0.075,1.006,12.0
19.576,0.077,0.902,24.0
19.634,0.079,0.802,12.0
19.633,0.082,0.701,12.0
0.0,0.0,0.0,0.0
0.0,0.0,0.0,0.0
19.595,0.086,1.045,5.0
19.565,0.089,0.94,23.0
19.603,0.091,0.839,10.0
19.645,0.094,0.739,11.0
113.958,0.547,7.486,15.0
0.0,0.0,0.0,0.0
0.0,0.0,0.0,0.0
19.571,0.101,0.977,10.0
19.589,0.104,0.876,13.0
19.675,0.107,0.777,13.0
0.0,0.0,0.0,0.0
113.923,0.637,7.105,9.0
0.0,0.0,0.0,0.0
19.614,0.114,1.016,6.0
19.599,0.117,0.913,14.0
19.704,0.12,0.815,2.0
0.0,0.0,0.0,0.0
113.951,0.715,7.321,8.0
113.967,0.731,6.726,12.0
113.924,0.746,6.116,16.0
19.611,0.131,0.95,6.0
114.001,0.779,4.929,32.0
0.0,0.0,0.0,0.0
0.0,0.0,0.0,0.0
113.956,0.814,6.936,10.0
113.916,0.83,6.326,19.0
113.979,0.848,5.734,9.0
113.958,0.864,5.137,9.0
0.0,0.0,0.0,0.0
0.0,0.0,0.0,0.0
0.0,0.0,0.0,0.0
122.122,0.983,7.003,2.0
0.0,0.0,0.0,0.0
0.0,0.0,0.0,0.0
0.0,0.0,0.0,0.0
0.0,0.0,0.0,0.0
0.0,0.0,0.0,0.0
122.006,1.08,7.218,19.0
0.0,0.0,0.0,0.0
0.0,0.0,0.0,0.0
0.0,0.0,0.0,0.0
0.0,0.0,0.0,0.0
0.0,0.0,0.0,0.0
122.011,1.181,7.433,13.0
0.0,0.0,0.0,0.0
0.0,0.0,0.0,0.0
0.0,0.0,0.0,0.0
0.0,0.0,0.0,0.0
0.0,0.0,0.0,0.0
0.0,0.0,0.0,0.0
121.926,1.304,6.998,17.0
0.0,0.0,0.0,0.0
84.807,0.925,6.812,25.0
0.0,0.0,0.0,0.0
0.0,0.0,0.0,0.0
0.0,0.0,0.0,0.0
121.762,1.411,7.199,25.0
121.938,1.434,6.568,21.0
0.0,0.0,0.0,0.0
84.821,1.017,6.509,4.0
0.0,0.0,0.0,0.0
84.749,1.044,5.599,3.0
84.821,1.061,5.156,27.0
84.835,1.075,4.71,45.0
0.0,0.0,0.0,0.0
84.807,1.095,6.649,14.0
84.813,1.11,6.2,53.0
84.807,1.124,5.743,51.0
84.822,1.14,5.296,32.0
84.825,1.155,4.848,10.0
0.0,0.0,0.0,0.0
0.0,0.0,0.0,0.0
0.0,0.0,0.0,0.0
129.323,1.84,8.969,8.0
0.0,0.0,0.0,0.0
121.559,1.774,7.144,23.0
0.0,0.0,0.0,0.0
0.0,0.0,0.0,0.0
0.0,0.0,0.0,0.0
129.196,1.967,9.165,21.0
129.5,1.995,8.5,10.0
121.373,1.893,7.324,22.0
0.0,0.0,0.0,0.0
0.0,0.0,0.0,0.0
0.0,0.0,0.0,0.0
129.367,2.101,9.378,12.0
129.274,2.124,8.686,15.0
55.235,0.918,3.418,14.0
55.24,0.923,4.978,16.0
55.222,0.933,4.681,27.0
55.218,0.943,4.386,53.0
55.208,0.954,4.087,69.0
55.198,0.964,3.792,70.0
55.197,0.975,3.499,73.0
55.206,0.981,5.058,75.0
55.216,0.991,4.764,66.0
55.214,1.002,4.469,55.0
55.23,1.013,4.17,52.0
55.233,1.024,3.876,27.0
55.216,1.034,3.581,13.0
55.226,1.041,5.142,0.0
0.0,0.0,0.0,0.0
0.0,0.0,0.0,0.0
129.245,2.513,9.949,22.0
129.376,2.54,9.269,24.0
129.289,2.565,8.573,18.0
0.0,0.0,0.0,0.0
0.0,0.0,0.0,0.0
0.0,0.0,0.0,0.0
129.346,2.657,10.139,8.0
129.481,2.686,9.458,8.0
129.477,2.711,8.767,17.0
0.0,0.0,0.0,0.0
0.0,0.0,0.0,0.0
0.0,0.0,0.0,0.0
0.0,0.0,0.0,0.0
127.27,2.784,9.471,3.0
127.074,2.806,8.777,25.0
0.0,0.0,0.0,0.0
0.0,0.0,0.0,0.0
0.0,0.0,0.0,0.0
0.0,0.0,0.0,0.0
0.0,0.0,0.0,0.0
127.194,2.953,8.952,20.0
0.0,0.0,0.0,0.0
0.0,0.0,0.0,0.0
0.0,0.0,0.0,0.0
0.0,0.0,0.0,0.0
0.0,0.0,0.0,0.0
127.144,3.101,9.113,23.0
0.0,0.0,0.0,0.0
0.0,0.0,0.0,0.0
0.0,0.0,0.0,0.0
0.0,0.0,0.0,0.0
0.0,0.0,0.0,0.0
127.189,3.252,9.274,25.0
0.0,0.0,0.0,0.0
0.0,0.0,0.0,0.0
0.0,0.0,0.0,0.0
0.0,0.0,0.0,0.0
0.0,0.0,0.0,0.0
127.515,3.414,9.452,13.0
0.0,0.0,0.0,0.0
0.0,0.0,0.0,0.0
0.0,0.0,0.0,0.0
0.0,0.0,0.0,0.0
0.0,0.0,0.0,0.0
40.119,1.123,3.021,3.0
0.0,0.0,0.0,0.0
0.0,0.0,0.0,0.0
0.0,0.0,0.0,0.0
0.0,0.0,0.0,0.0
0.0,0.0,0.0,0.0
0.0,0.0,0.0,0.0
0.0,0.0,0.0,0.0
0.0,0.0,0.0,0.0
0.0,0.0,0.0,0.0
0.0,0.0,0.0,0.0
0.0,0.0,0.0,0.0
0.0,0.0,0.0,0.0
0.0,0.0,0.0,0.0
0.0,0.0,0.0,0.0
0.0,0.0,0.0,0.0
0.0,0.0,0.0,0.0
0.0,0.0,0.0,0.0
0.0,0.0,0.0,0.0
0.0,0.0,0.0,0.0
0.0,0.0,0.0,0.0
0.0,0.0,0.0,0.0
0.0,0.0,0.0,0.0
0.0,0.0,0.0,0.0
0.0,0.0,0.0,0.0
0.0,0.0,0.0,0.0
0.0,0.0,0.0,0.0
0.0,0.0,0.0,0.0
0.0,0.0,0.0,0.0
0.0,0.0,0.0,0.0
0.0,0.0,0.0,0.0
0.0,0.0,0.0,0.0
0.0,0.0,0.0,0.0
0.0,0.0,0.0,0.0
0.0,0.0,0.0,0.0
0.0,0.0,0.0,0.0
0.0,0.0,0.0,0.0
0.0,0.0,0.0,0.0
0.0,0.0,0.0,0.0
0.0,0.0,0.0,0.0
0.0,0.0,0.0,0.0
0.0,0.0,0.0,0.0
0.0,0.0,0.0,0.0
0.0,0.0,0.0,0.0
0.0,0.0,0.0,0.0
0.0,0.0,0.0,0.0
0.0,0.0,0.0,0.0
0.0,0.0,0.0,0.0
0.0,0.0,0.0,0.0
0.0,0.0,0.0,0.0
0.0,0.0,0.0,0.0
0.0,0.0,0.0,0.0
0.0,0.0,0.0,0.0
0.0,0.0,0.0,0.0
0.0,0.0,0.0,0.0
0.0,0.0,0.0,0.0
0.0,0.0,0.0,0.0
0.0,0.0,0.0,0.0
0.0,0.0,0.0,0.0
0.0,0.0,0.0,0.0
0.0,0.0,0.0,0.0
0.0,0.0,0.0,0.0
0.0,0.0,0.0,0.0
0.0,0.0,0.0,0.0
0.0,0.0,0.0,0.0
23.444,0.983,2.13,0.0
23.435,0.987,2.001,0.0
23.531,0.998,2.676,0.0
23.551,1.004,2.548,0.0
23.551,1.008,2.418,15.0
23.539,1.013,2.284,25.0
23.574,1.019,2.158,36.0
23.573,1.024,2.028,43.0
23.552,1.03,2.694,40.0
23.548,1.035,2.563,40.0
23.536,1.039,2.431,44.0
23.529,1.044,2.298,58.0
23.542,1.049,2.169,69.0
23.54,1.054,2.04,71.0
23.53,1.061,2.706,76.0
23.521,1.065,2.574,72.0
23.52,1.07,2.444,71.0
23.533,1.075,2.312,73.0
23.539,1.08,2.183,70.0
23.542,1.085,2.053,71.0
23.526,1.092,2.719,67.0
23.531,1.097,2.589,52.0
23.532,1.102,2.458,49.0
23.538,1.106,2.325,47.0
23.55,1.112,2.196,46.0
23.559,1.117,2.067,45.0
23.552,1.125,2.734,37.0
23.527,1.128,2.6,20.0
23.545,1.134,2.471,13.0
23.551,1.139,2.339,6.0
23.555,1.144,2.208,2.0
23.588,1.15,2.081,0.0
0.0,0.0,0.0,0.0
0.0,0.0,0.0,0.0
0.0,0.0,0.0,0.0
0.0,0.0,0.0,0.0
0.0,0.0,0.0,0.0
0.0,0.0,0.0,0.0
0.0,0.0,0.0,0.0
0.0,0.0,0.0,0.0
0.0,0.0,0.0,0.0
0.0,0.0,0.0,0.0
0.0,0.0,0.0,0.0
0.0,0.0,0.0,0.0
0.0,0.0,0.0,0.0
0.0,0.0,0.0,0.0
0.0,0.0,0.0,0.0
0.0,0.0,0.0,0.0
0.0,0.0,0.0,0.0
0.0,0.0,0.0,0.0
0.0,0.0,0.0,0.0
0.0,0.0,0.0,0.0
0.0,0.0,0.0,0.0
0.0,0.0,0.0,0.0
0.0,0.0,0.0,0.0
0.0,0.0,0.0,0.0
0.0,0.0,0.0,0.0
0.0,0.0,0.0,0.0
0.0,0.0,0.0,0.0
0.0,0.0,0.0,0.0
0.0,0.0,0.0,0.0
0.0,0.0,0.0,0.0
0.0,0.0,0.0,0.0
0.0,0.0,0.0,0.0
0.0,0.0,0.0,0.0
0.0,0.0,0.0,0.0
0.0,0.0,0.0,0.0
0.0,0.0,0.0,0.0
0.0,0.0,0.0,0.0
0.0,0.0,0.0,0.0
0.0,0.0,0.0,0.0
0.0,0.0,0.0,0.0
0.0,0.0,0.0,0.0
0.0,0.0,0.0,0.0
0.0,0.0,0.0,0.0
0.0,0.0,0.0,0.0
0.0,0.0,0.0,0.0
0.0,0.0,0.0,0.0
0.0,0.0,0.0,0.0
0.0,0.0,0.0,0.0
0.0,0.0,0.0,0.0
0.0,0.0,0.0,0.0
0.0,0.0,0.0,0.0
0.0,0.0,0.0,0.0
0.0,0.0,0.0,0.0
0.0,0.0,0.0,0.0
0.0,0.0,0.0,0.0
0.0,0.0,0.0,0.0
0.0,0.0,0.0,0.0
0.0,0.0,0.0,0.0
0.0,0.0,0.0,0.0
0.0,0.0,0.0,0.0
0.0,0.0,0.0,0.0
0.0,0.0,0.0,0.0
0.0,0.0,0.0,0.0
0.0,0.0,0.0,0.0
100.796,6.341,9.698,3.0
100.632,6.348,9.116,4.0
99.909,6.345,11.878,30.0
99.905,6.36,11.311,30.0
99.904,6.377,10.745,32.0
99.884,6.391,10.168,34.0
99.936,6.41,9.61,35.0
99.923,6.427,9.046,36.0
99.872,6.467,11.867,35.0
99.893,6.484,11.302,33.0
99.882,6.498,10.735,37.0
99.912,6.517,10.162,38.0
99.924,6.534,9.6,38.0
99.923,6.551,9.037,35.0
99.874,6.591,11.857,33.0
99.903,6.608,11.292,31.0
99.895,6.623,10.724,33.0
99.913,6.639,10.15,36.0
99.912,6.655,9.586,39.0
99.932,6.673,9.023,37.0
99.885,6.714,11.843,32.0
99.893,6.729,11.275,34.0
99.885,6.743,10.707,36.0
99.886,6.758,10.13,37.0
99.924,6.776,9.569,40.0
99.911,6.79,9.004,35.0
99.872,6.832,11.822,34.0
99.917,6.851,11.258,34.0
99.899,6.864,10.687,35.0
99.872,6.876,10.108,39.0
99.905,6.893,9.545,39.0
99.925,6.911,8.982,35.0
99.87,6.952,11.798,35.0
99.905,6.967,11.232,36.0
99.919,6.982,10.665,35.0
99.921,6.998,10.086,34.0
99.916,7.011,9.52,34.0
99.933,7.026,8.956,35.0
99.9,7.07,11.773,35.0
99.907,7.084,11.203,35.0
99.9,7.096,10.634,34.0
99.907,7.11,10.056,34.0
99.924,7.126,9.49,37.0
99.928,7.14,8.925,34.0
99.908,7.185,11.742,35.0
99.914,7.198,11.172,32.0
99.896,7.21,10.599,35.0
99.909,7.224,10.022,35.0
99.93,7.238,9.457,34.0
99.916,7.252,8.888,34.0
99.148,7.242,11.616,2.0
99.1,7.25,11.044,2.0
99.121,7.264,10.48,4.0
99.04,7.271,9.897,4.0
99.056,7.285,9.335,3.0
99.055,7.298,8.773,4.0
98.997,7.339,11.559,16.0
99.011,7.351,10.993,17.0
99.014,7.364,10.428,17.0
98.989,7.374,9.85,20.0
99.014,7.388,9.289,28.0
99.027,7.401,8.728,32.0
98.967,7.442,11.511,21.0
98.986,7.455,10.946,34.0
98.966,7.465,10.377,22.0
98.993,7.479,9.805,25.0
99.019,7.493,9.243,18.0
99.031,7.506,8.681,16.0
95.11,7.252,11.016,1.0
98.998,7.56,10.899,6.0
94.836,7.252,9.897,3.0
94.887,7.267,9.35,2.0
94.852,7.275,8.807,2.0
94.904,7.291,8.271,2.0
94.815,7.328,10.931,10.0
94.845,7.34,10.39,10.0
94.821,7.348,9.845,13.0
94.854,7.361,9.295,13.0
94.83,7.37,8.752,12.0
94.864,7.383,8.215,15.0
94.802,7.422,10.876,45.0
94.799,7.431,10.331,54.0
94.826,7.443,9.79,50.0
94.816,7.452,9.237,51.0
94.817,7.461,8.696,47.0
94.844,7.475,8.157,43.0
94.829,7.516,10.822,10.0
94.788,7.522,10.272,10.0
94.867,7.538,9.736,13.0
94.805,7.542,9.177,8.0
94.841,7.553,8.639,7.0
94.869,7.566,8.1,7.0
94.859,7.609,10.764,1.0
0.0,0.0,0.0,0.0
95.014,7.638,9.689,2.0
94.856,7.634,9.12,2.0
94.926,7.649,8.583,1.0
94.998,7.663,8.048,1.0
98.324,7.977,11.09,10.0
98.182,7.974,10.509,8.0
97.954,7.964,9.921,8.0
97.824,7.962,9.337,10.0
97.952,7.981,8.788,10.0
98.033,7.997,8.235,9.0
96.939,7.951,10.864,11.0
96.986,7.962,10.311,10.0
97.111,7.98,9.765,11.0
97.261,8.001,9.212,10.0
97.378,8.018,8.666,10.0
97.361,8.025,8.108,11.0
96.394,7.988,10.731,6.0
96.454,8.0,10.181,9.0
96.451,8.007,9.626,9.0
96.47,8.017,9.064,7.0
96.393,8.017,8.504,5.0
96.088,8.0,7.928,5.0
87.121,7.292,9.629,4.0
87.067,7.293,9.121,3.0
87.076,7.3,8.621,2.0
87.052,7.304,8.109,3.0
87.133,7.317,7.618,3.0
87.129,7.324,7.118,3.0
87.056,7.355,9.551,9.0
87.064,7.362,9.048,9.0
87.074,7.368,8.548,8.0
87.021,7.369,8.034,7.0
87.06,7.378,7.538,8.0
87.091,7.388,7.042,8.0
87.012,7.419,9.471,30.0
87.03,7.424,8.971,38.0
87.024,7.43,8.468,31.0
87.03,7.436,7.959,27.0
87.04,7.442,7.46,29.0
87.057,7.449,6.963,29.0
87.003,7.481,9.392,35.0
87.024,7.487,8.891,38.0
87.026,7.492,8.39,47.0
87.026,7.497,7.88,48.0
87.038,7.503,7.382,56.0
87.045,7.509,6.883,49.0
87.04,7.544,9.316,10.0
87.025,7.547,8.811,53.0
87.035,7.552,8.31,10.0
87.054,7.558,7.802,13.0
87.067,7.565,7.302,12.0
87.047,7.568,6.801,13.0
87.078,7.605,9.237,4.0
87.03,7.605,8.728,34.0
87.089,7.613,8.232,4.0
87.041,7.613,7.717,4.0
87.04,7.618,7.216,4.0
87.106,7.627,6.722,7.0
83.076,7.307,8.73,1.0
82.947,7.299,8.236,1.0
83.034,7.31,7.766,1.0
82.987,7.309,7.275,1.0
82.912,7.306,6.791,2.0
82.993,7.317,6.321,1.0
82.965,7.347,8.634,4.0
82.904,7.344,8.148,5.0
82.947,7.35,7.673,4.0
82.88,7.347,7.18,4.0
82.934,7.355,6.708,5.0
82.943,7.36,6.232,4.0
82.866,7.384,8.536,8.0
82.877,7.386,8.058,9.0
82.905,7.391,7.582,8.0
82.872,7.391,7.092,8.0
82.899,7.395,6.618,10.0
82.922,7.401,6.144,9.0
82.844,7.424,8.445,18.0
82.852,7.427,7.966,16.0
82.86,7.429,7.489,15.0
82.867,7.431,7.003,18.0
82.875,7.434,6.526,22.0
82.885,7.438,6.051,19.0
82.86,7.465,8.356,48.0
82.866,7.467,7.876,49.0
82.874,7.469,7.398,49.0
82.871,7.469,6.912,45.0
82.882,7.473,6.435,59.0
82.892,7.476,5.959,43.0
82.852,7.5,8.262,40.0
82.851,7.501,7.782,47.0
82.86,7.503,7.303,52.0
82.867,7.504,6.817,59.0
82.885,7.507,6.341,48.0
82.884,7.509,5.865,69.0
82.857,7.534,8.166,26.0
82.874,7.535,7.688,26.0
82.864,7.535,7.208,30.0
82.86,7.535,6.721,34.0
82.867,7.537,6.244,39.0
82.895,7.54,5.77,35.0
82.852,7.562,8.069,12.0
82.854,7.562,7.589,12.0
82.872,7.564,7.112,14.0
82.883,7.566,6.626,16.0
82.899,7.567,6.149,33.0
82.899,7.568,5.673,18.0
82.89,7.592,7.974,6.0
82.865,7.589,7.491,8.0
82.915,7.593,7.016,9.0
82.883,7.59,6.526,10.0
82.916,7.593,6.051,11.0
82.917,7.594,5.574,11.0
82.934,7.619,7.877,5.0
82.87,7.612,7.39,5.0
82.929,7.617,6.916,7.0
82.91,7.614,6.427,10.0
82.921,7.614,5.95,7.0
82.938,7.617,5.474,9.0
82.939,7.639,7.774,4.0
82.912,7.634,7.292,4.0
82.914,7.633,6.813,5.0
82.893,7.63,6.324,47.0
82.949,7.634,5.85,5.0
82.902,7.63,5.369,6.0
82.931,7.654,7.67,3.0
83.0,7.658,7.196,4.0
82.898,7.647,6.707,5.0
82.878,7.643,6.219,105.0
82.905,7.645,5.743,5.0
82.94,7.647,5.269,5.0
83.023,7.675,7.573,2.0
82.983,7.669,7.088,3.0
82.914,7.66,6.603,5.0
82.893,7.656,6.115,57.0
82.961,7.661,5.641,4.0
82.952,7.659,5.162,6.0
82.875,7.671,7.451,2.0
82.902,7.67,6.974,3.0
82.924,7.67,6.496,4.0
82.933,7.668,6.009,12.0
82.979,7.67,5.534,4.0
82.967,7.667,5.055,5.0
82.987,7.687,7.352,1.0
82.922,7.677,6.866,3.0
82.878,7.67,6.383,7.0
82.939,7.672,5.9,7.0
82.954,7.671,5.423,4.0
82.952,7.669,4.945,4.0
83.049,7.694,7.246,2.0
82.939,7.68,6.756,6.0
82.888,7.671,6.272,82.0
82.882,7.668,5.784,3.0
82.978,7.674,5.313,4.0
82.968,7.67,4.835,4.0
82.967,7.685,7.127,2.0
82.914,7.676,6.642,5.0
82.89,7.669,6.161,110.0
82.922,7.668,5.676,4.0
82.973,7.669,5.2,5.0
82.915,7.661,4.72,4.0
82.905,7.674,7.009,3.0
82.955,7.674,6.532,3.0
82.924,7.666,6.049,19.0
82.917,7.662,5.562,4.0
82.935,7.659,5.085,5.0
82.978,7.66,4.611,5.0
82.956,7.67,6.899,3.0
82.873,7.657,6.412,7.0
82.983,7.662,5.941,7.0
82.921,7.652,5.449,5.0
82.933,7.648,4.971,5.0
82.924,7.643,4.494,6.0
82.921,7.655,6.781,5.0
82.873,7.644,6.298,56.0
82.932,7.644,5.823,5.0
82.91,7.636,5.334,7.0
82.902,7.631,4.856,7.0
82.903,7.627,4.378,17.0
82.898,7.636,6.664,8.0
82.888,7.629,6.183,60.0
82.928,7.627,5.707,7.0
82.903,7.619,5.218,10.0
82.89,7.612,4.741,10.0
82.907,7.609,4.265,43.0
82.894,7.616,6.548,8.0
82.904,7.61,6.068,11.0
82.888,7.602,5.588,9.0
82.875,7.595,5.1,13.0
82.895,7.591,4.624,16.0
82.911,7.588,4.147,28.0
82.885,7.592,6.429,18.0
82.896,7.586,5.951,12.0
82.874,7.577,5.471,15.0
82.873,7.57,4.984,24.0
82.874,7.565,4.507,32.0
82.904,7.561,4.031,47.0
82.882,7.565,6.311,40.0
82.868,7.555,5.831,28.0
82.896,7.551,5.354,31.0
82.891,7.544,4.867,55.0
82.916,7.539,4.391,53.0
82.914,7.532,3.914,126.0
82.875,7.533,6.193,37.0
82.891,7.527,5.714,62.0
82.896,7.519,5.236,87.0
82.899,7.513,4.75,117.0
82.912,7.507,4.273,55.0
82.918,7.5,3.796,33.0
82.891,7.501,6.074,77.0
82.898,7.493,5.595,58.0
82.909,7.485,5.118,43.0
82.905,7.477,4.631,28.0
82.924,7.472,4.155,20.0
82.931,7.465,3.679,14.0
82.875,7.461,5.955,27.0
82.91,7.455,5.478,19.0
82.922,7.448,4.999,12.0
82.935,7.44,4.513,11.0
82.917,7.431,4.036,8.0
82.956,7.427,3.561,7.0
82.918,7.423,5.837,10.0
82.918,7.413,5.358,8.0
82.954,7.407,4.883,5.0
82.914,7.396,4.393,5.0
82.984,7.393,3.92,4.0
82.946,7.382,3.441,3.0
82.96,7.382,5.721,4.0
82.943,7.37,5.241,4.0
82.976,7.363,4.765,3.0
82.992,7.355,4.279,2.0
83.067,7.353,3.803,2.0
0.0,0.0,0.0,0.0
83.001,7.335,5.604,1.0
82.878,7.314,5.116,1.0
87.199,7.686,4.88,1.0
87.056,7.663,4.362,104.0
87.103,7.657,3.863,4.0
87.118,7.649,3.363,8.0
87.077,7.641,5.752,5.0
87.074,7.629,5.25,7.0
87.11,7.621,4.75,11.0
87.076,7.608,4.237,73.0
87.083,7.598,3.738,25.0
87.092,7.59,3.238,33.0
87.049,7.579,5.625,18.0
87.06,7.568,5.124,36.0
87.057,7.557,4.622,54.0
87.074,7.548,4.114,74.0
87.084,7.538,3.613,127.0
87.087,7.527,3.114,138.0
87.066,7.518,5.502,89.0
87.063,7.506,4.999,66.0
87.071,7.494,4.499,51.0
87.08,7.484,3.99,28.0
87.148,7.479,3.492,14.0
40.076,3.434,1.375,7.0
87.061,7.452,5.377,13.0
40.09,3.425,2.245,5.0
40.068,3.418,2.013,35.0
40.104,3.415,1.78,107.0
40.091,3.409,1.549,114.0
40.09,3.404,1.319,132.0
40.088,3.398,2.418,118.0
40.085,3.392,2.187,112.0
40.099,3.388,1.957,105.0
40.085,3.381,1.722,139.0
40.101,3.377,1.493,132.0
40.094,3.371,1.263,132.0
40.094,3.365,2.361,113.0
40.093,3.359,2.131,114.0
40.094,3.353,1.901,130.0
40.082,3.346,1.665,150.0
40.086,3.341,1.435,136.0
40.099,3.336,1.206,132.0
40.092,3.329,2.305,112.0
40.099,3.323,2.074,115.0
40.086,3.316,1.843,150.0
40.085,3.31,1.609,150.0
40.09,3.304,1.379,135.0
40.092,3.299,1.149,150.0
40.091,3.292,2.248,124.0
40.089,3.285,2.017,118.0
40.087,3.278,1.787,150.0
40.089,3.272,1.553,150.0
40.099,3.267,1.324,123.0
40.086,3.26,1.094,127.0
40.091,3.253,2.192,116.0
40.098,3.247,1.962,96.0
40.087,3.239,1.731,94.0
40.073,3.231,1.497,10.0
0.0,0.0,0.0,0.0
0.0,0.0,0.0,0.0
0.0,0.0,0.0,0.0
41.864,3.347,1.991,77.0
41.883,3.341,1.751,150.0
41.889,3.335,1.507,128.0
41.898,3.329,1.267,118.0
41.902,3.322,1.027,110.0
41.894,3.312,2.175,117.0
41.892,3.305,1.934,104.0
41.886,3.297,1.694,129.0
41.895,3.29,1.45,120.0
41.893,3.283,1.21,100.0
41.888,3.276,0.97,118.0
41.893,3.267,2.117,116.0
41.886,3.258,1.877,127.0
41.871,3.25,1.636,77.0
41.885,3.243,1.393,6.0
0.0,0.0,0.0,0.0
43.706,3.369,0.953,116.0
43.655,3.354,2.147,88.0
43.681,3.348,1.898,150.0
43.675,3.34,1.647,148.0
43.678,3.332,1.393,150.0
43.694,3.325,1.143,134.0
43.695,3.317,0.893,127.0
43.667,3.304,2.089,137.0
43.671,3.296,1.839,150.0
43.68,3.288,1.589,150.0
43.683,3.28,1.335,141.0
43.693,3.273,1.085,118.0
43.683,3.264,0.835,131.0
43.665,3.25,2.03,83.0
43.658,3.241,1.78,10.0
0.0,0.0,0.0,0.0
45.46,3.357,1.329,43.0
40.379,2.974,0.949,90.0
40.369,2.966,0.719,73.0
45.464,3.327,2.054,150.0
45.48,3.319,1.794,150.0
45.473,3.309,1.534,150.0
40.424,2.934,1.128,96.0
40.616,2.94,0.902,94.0
40.915,2.954,0.675,136.0
45.475,3.269,1.995,120.0
45.461,3.259,1.735,12.0
99.968,7.146,3.244,16.0
41.41,2.951,1.103,73.0
40.917,2.908,0.856,90.0
41.846,2.966,0.637,94.0
99.966,7.055,4.259,31.0
99.951,7.032,3.687,35.0
99.953,7.012,3.117,24.0
42.105,2.945,1.068,77.0
41.018,2.86,0.806,41.0
41.804,2.906,0.584,68.0
99.966,6.918,4.132,37.0
99.969,6.897,3.562,36.0
43.117,2.965,1.29,15.0
43.335,2.971,1.044,86.0
43.564,2.977,0.802,80.0
43.648,2.973,0.555,10.0
99.948,6.776,4.006,34.0
99.979,6.755,3.438,39.0
44.031,2.965,1.262,43.0
44.328,2.975,1.013,87.0
44.677,2.989,0.767,119.0
44.882,2.993,0.515,150.0
99.97,6.634,3.885,36.0
99.955,6.609,3.314,36.0
45.181,2.977,1.24,95.0
45.211,2.969,0.979,114.0
45.19,2.958,0.721,96.0
45.2,2.949,0.464,70.0
99.964,6.486,3.764,30.0
100.057,6.469,3.198,18.0
45.178,2.91,1.186,1.0
100.874,6.475,2.064,1.0
99.865,6.388,1.476,12.0
111.989,7.137,1.018,5.0
112.314,7.118,4.096,2.0
112.376,7.094,3.457,6.0
45.2,2.843,1.133,1.0
45.204,2.832,0.872,27.0
45.203,2.822,0.615,96.0
45.201,2.811,0.358,13.0
197.602,12.218,6.977,7.0
45.158,2.78,1.337,5.0
133.316,8.178,3.189,26.0
0.0,0.0,0.0,0.0
113.067,6.883,1.409,16.0
62.481,3.789,0.424,4.0
162.492,9.792,5.553,9.0
45.183,2.711,1.287,7.0
111.998,6.694,2.553,61.0
45.21,2.691,0.769,150.0
45.21,2.68,0.512,70.0
45.206,2.669,0.256,7.0
162.554,9.535,5.374,8.0
45.21,2.64,1.237,2.0
203.508,11.832,4.414,7.0
99.542,5.764,1.584,7.0
99.628,5.743,1.02,14.0
45.179,2.593,0.206,15.0
163.138,9.3,5.215,15.0
45.206,2.565,1.188,6.0
45.2,2.553,0.931,76.0
45.209,2.542,0.67,44.0
99.692,5.582,0.914,5.0
45.183,2.519,0.158,35.0
163.489,9.048,5.052,17.0
200.129,11.026,5.05,6.0
0.0,0.0,0.0,0.0
99.789,5.444,1.376,6.0
67.039,3.64,0.544,8.0
45.177,2.442,0.111,45.0
45.175,2.423,1.349,8.0
45.206,2.413,1.093,15.0
45.17,2.399,0.836,1.0
99.921,5.281,1.275,16.0
62.863,3.305,0.446,5.0
45.169,2.363,0.064,41.0
45.176,2.345,1.303,12.0
45.202,2.334,1.048,0.0
45.2,2.323,0.792,5.0
45.231,2.312,0.532,137.0
45.215,2.299,0.276,22.0
45.169,2.285,0.02,42.0
45.154,2.266,1.258,5.0
205.818,10.272,4.573,7.0
23.57,1.17,0.39,0.0
23.644,1.167,0.255,1.0
23.629,1.159,0.121,9.0
23.634,1.154,-0.011,22.0
23.623,1.143,0.636,38.0
23.608,1.136,0.502,40.0
23.611,1.129,0.368,39.0
23.605,1.123,0.232,39.0
23.598,1.116,0.099,49.0
23.603,1.11,-0.033,60.0
23.592,1.099,0.613,71.0
23.59,1.092,0.48,68.0
23.578,1.085,0.346,68.0
23.594,1.079,0.211,67.0
23.599,1.073,0.078,71.0
23.6,1.066,-0.054,70.0
23.603,1.056,0.592,151.0
23.595,1.049,0.459,52.0
23.605,1.043,0.326,41.0
23.619,1.037,0.19,44.0
23.627,1.03,0.057,46.0
23.634,1.024,-0.075,46.0
45.227,1.94,1.095,6.0
23.616,1.006,0.438,14.0
23.622,0.999,0.305,1.0
63.939,2.687,0.461,2.0
45.178,1.886,0.071,51.0
40.324,1.671,-0.163,65.0
40.372,1.656,0.944,1.0
40.372,1.644,0.716,27.0
40.392,1.633,0.489,152.0
40.372,1.62,0.258,143.0
40.336,1.606,0.03,155.0
40.328,1.594,-0.195,125.0
40.508,1.584,0.914,150.0
41.612,1.615,0.705,150.0
41.787,1.609,0.473,88.0
42.971,1.641,0.24,150.0
41.173,1.56,-0.001,2.0
41.976,1.578,-0.237,1.0
43.65,1.623,0.951,91.0
44.422,1.637,0.718,79.0
45.126,1.65,0.476,150.0
44.937,1.629,0.217,9.0
40.127,1.442,-0.031,150.0
39.996,1.425,-0.255,28.0
162.29,5.718,3.418,9.0
162.003,5.656,2.502,15.0
71.103,2.459,0.698,16.0
63.892,2.19,0.262,21.0
40.123,1.363,-0.06,150.0
39.977,1.346,-0.284,9.0
40.127,1.334,0.816,150.0
40.122,1.321,0.591,150.0
40.122,1.309,0.366,137.0
40.117,1.296,0.137,150.0
40.126,1.284,-0.087,150.0
39.909,1.265,-0.311,2.0
40.129,1.255,0.789,150.0
40.12,1.241,0.564,150.0
40.133,1.229,0.339,116.0
40.119,1.216,0.11,150.0
40.124,1.203,-0.114,150.0
37.305,1.107,-0.315,2.0
40.121,1.173,0.763,150.0
0.0,0.0,0.0,0.0
41.918,1.199,0.328,166.0
0.0,0.0,0.0,0.0
40.134,1.122,-0.139,152.0
36.653,1.014,-0.331,2.0
0.0,0.0,0.0,0.0
0.0,0.0,0.0,0.0
0.0,0.0,0.0,0.0
41.934,1.101,0.064,154.0
0.0,0.0,0.0,0.0
35.198,0.901,-0.339,3.0
128.747,3.243,2.298,3.0
70.957,1.764,0.87,25.0
70.889,1.74,0.473,9.0
0.0,0.0,0.0,0.0
0.0,0.0,0.0,0.0
0.0,0.0,0.0,0.0
128.912,2.984,2.232,7.0
128.637,2.935,1.509,6.0
86.744,1.951,0.533,7.0
56.141,1.244,0.026,0.0
43.36,0.947,-0.221,1.0
35.104,0.754,-0.375,1.0
163.814,3.457,2.755,13.0
162.773,3.381,1.83,24.0
112.969,2.309,0.64,6.0
55.177,1.109,0.0,26.0
43.094,0.852,-0.24,0.0
32.836,0.638,-0.366,0.0
55.188,1.05,0.902,48.0
55.165,1.03,0.594,68.0
55.162,1.011,0.287,70.0
55.145,0.993,-0.025,44.0
42.183,0.745,-0.254,1.0
32.597,0.565,-0.378,0.0
55.211,0.935,0.879,35.0
55.206,0.916,0.571,2.0
0.0,0.0,0.0,0.0
55.069,0.876,-0.047,6.0
19.734,0.307,-0.126,0.0
19.677,0.3,-0.236,11.0
19.735,0.292,0.306,13.0
19.753,0.286,0.196,9.0
19.798,0.28,0.087,0.0
19.681,0.271,-0.024,0.0
19.656,0.264,-0.133,14.0
19.651,0.258,-0.242,17.0
19.725,0.251,0.299,13.0
19.767,0.244,0.19,28.0
19.734,0.237,0.08,1.0
19.668,0.23,-0.031,7.0
19.635,0.222,-0.14,17.0
19.651,0.216,-0.249,17.0
19.734,0.209,0.293,8.0
19.681,0.202,0.183,10.0
19.665,0.194,0.073,12.0
19.638,0.188,-0.037,12.0
19.642,0.181,-0.146,15.0
19.663,0.174,-0.255,9.0
19.633,0.167,0.286,11.0
19.658,0.16,0.177,14.0
19.642,0.153,0.068,14.0
19.639,0.146,-0.042,12.0
19.682,0.139,-0.151,7.0
36.632,0.246,-0.484,0.0
19.625,0.125,0.281,13.0
19.657,0.118,0.172,15.0
19.656,0.111,0.063,11.0
19.707,0.104,-0.046,3.0
19.773,0.098,-0.156,2.0
19.767,0.091,-0.265,11.0
19.616,0.083,0.276,15.0
19.67,0.076,0.168,11.0
19.762,0.069,0.06,36.0
19.739,0.062,-0.05,47.0
19.754,0.055,-0.16,14.0
19.765,0.048,-0.269,13.0
19.628,0.04,0.273,14.0
19.749,0.033,0.166,17.0
19.765,0.026,0.057,3.0
19.745,0.02,-0.053,9.0
19.803,0.013,-0.163,0.0
0.0,0.0,0.0,0.0
19.633,0.0,0.271,14.0
19.708,-0.008,0.163,4.0
19.696,-0.015,0.054,14.0
19.725,-0.022,-0.056,12.0
19.752,-0.029,-0.165,13.0
19.763,-0.036,-0.274,6.0
19.649,-0.043,0.269,11.0
19.696,-0.05,0.161,18.0
19.702,-0.057,0.052,15.0
19.721,-0.064,-0.057,13.0
19.721,-0.072,-0.166,16.0
19.747,-0.079,-0.275,15.0
19.681,-0.085,0.268,9.0
19.713,-0.092,0.16,13.0
19.72,-0.099,0.051,11.0
19.742,-0.107,-0.058,8.0
19.726,-0.114,-0.167,16.0
19.736,-0.121,-0.275,17.0
169.432,-1.1,2.308,7.0
160.705,-1.102,1.305,15.0
19.829,-0.143,0.052,0.0
19.766,-0.149,-0.058,8.0
19.754,-0.157,-0.167,12.0
19.748,-0.164,-0.275,13.0
169.466,-1.466,2.311,13.0
160.702,-1.446,1.309,6.0
0.0,0.0,0.0,0.0
0.0,0.0,0.0,0.0
0.0,0.0,0.0,0.0
35.72,-0.374,-0.497,0.0
19.76,-0.213,0.27,7.0
19.753,-0.22,0.162,3.0
0.0,0.0,0.0,0.0
0.0,0.0,0.0,0.0
0.0,0.0,0.0,0.0
35.425,-0.446,-0.49,0.0
19.755,-0.255,0.272,10.0
19.745,-0.262,0.163,32.0
19.734,-0.269,0.055,1.0
0.0,0.0,0.0,0.0
0.0,0.0,0.0,0.0
35.093,-0.517,-0.481,0.0
121.246,-1.825,1.686,12.0
121.177,-1.868,1.022,150.0
0.0,0.0,0.0,0.0
0.0,0.0,0.0,0.0
45.752,-0.756,-0.369,0.0
36.987,-0.625,-0.501,0.0
121.164,-2.084,1.705,7.0
121.179,-2.128,1.043,151.0
0.0,0.0,0.0,0.0
0.0,0.0,0.0,0.0
0.0,0.0,0.0,0.0
0.0,0.0,0.0,0.0
121.225,-2.341,1.731,1.0
121.146,-2.385,1.068,17.0
0.0,0.0,0.0,0.0
0.0,0.0,0.0,0.0
0.0,0.0,0.0,0.0
0.0,0.0,0.0,0.0
0.0,0.0,0.0,0.0
121.212,-2.642,1.098,150.0
0.0,0.0,0.0,0.0
0.0,0.0,0.0,0.0
0.0,0.0,0.0,0.0
0.0,0.0,0.0,0.0
161.857,-3.809,2.394,5.0
0.0,0.0,0.0,0.0
0.0,0.0,0.0,0.0
0.0,0.0,0.0,0.0
0.0,0.0,0.0,0.0
37.134,-0.942,-0.465,0.0
162.024,-4.153,2.447,14.0
161.999,-4.209,1.564,15.0
0.0,0.0,0.0,0.0
0.0,0.0,0.0,0.0
0.0,0.0,0.0,0.0
0.0,0.0,0.0,0.0
161.931,-4.484,2.502,10.0
162.034,-4.546,1.622,12.0
0.0,0.0,0.0,0.0
0.0,0.0,0.0,0.0
0.0,0.0,0.0,0.0
0.0,0.0,0.0,0.0
162.344,-4.834,2.571,10.0
162.114,-4.887,1.686,4.0
0.0,0.0,0.0,0.0
0.0,0.0,0.0,0.0
0.0,0.0,0.0,0.0
37.24,-1.177,-0.425,0.0
162.269,-5.166,2.638,22.0
161.955,-5.214,1.754,23.0
160.755,-5.235,0.869,6.0
0.0,0.0,0.0,0.0
0.0,0.0,0.0,0.0
0.0,0.0,0.0,0.0
162.25,-5.5,2.712,18.0
161.993,-5.551,1.83,24.0
160.669,-5.563,0.944,13.0
0.0,0.0,0.0,0.0
0.0,0.0,0.0,0.0
40.198,-1.436,-0.42,0.0
162.263,-5.831,2.793,20.0
162.133,-5.885,1.912,17.0
160.711,-5.889,1.025,6.0
0.0,0.0,0.0,0.0
0.0,0.0,0.0,0.0
0.0,0.0,0.0,0.0
162.234,-6.155,2.877,11.0
0.0,0.0,0.0,0.0
0.0,0.0,0.0,0.0
0.0,0.0,0.0,0.0
53.134,-2.092,-0.211,0.0
0.0,0.0,0.0,0.0
0.0,0.0,0.0,0.0
101.641,-4.096,1.311,4.0
101.49,-4.127,0.761,150.0
101.414,-4.16,0.202,1.0
0.0,0.0,0.0,0.0
44.144,-1.843,-0.388,0.0
0.0,0.0,0.0,0.0
101.56,-4.296,1.371,22.0
0.0,0.0,0.0,0.0
0.0,0.0,0.0,0.0
0.0,0.0,0.0,0.0
45.17,-1.974,-0.369,0.0
104.073,-4.568,2.032,1.0
101.458,-4.49,1.434,2.0
101.577,-4.53,0.888,2.0
0.0,0.0,0.0,0.0
60.037,-2.719,-0.128,0.0
0.0,0.0,0.0,0.0
0.0,0.0,0.0,0.0
0.0,0.0,0.0,0.0
101.54,-4.724,0.956,152.0
0.0,0.0,0.0,0.0
0.0,0.0,0.0,0.0
0.0,0.0,0.0,0.0
0.0,0.0,0.0,0.0
0.0,0.0,0.0,0.0
101.543,-4.918,1.027,166.0
0.0,0.0,0.0,0.0
0.0,0.0,0.0,0.0
0.0,0.0,0.0,0.0
0.0,0.0,0.0,0.0
0.0,0.0,0.0,0.0
101.536,-5.108,1.101,97.0
103.107,-5.223,0.554,2.0
0.0,0.0,0.0,0.0
0.0,0.0,0.0,0.0
141.008,-7.262,3.152,2.0
102.308,-5.303,1.738,1.0
101.479,-5.294,1.178,5.0
0.0,0.0,0.0,0.0
0.0,0.0,0.0,0.0
0.0,0.0,0.0,0.0
140.64,-7.504,3.255,36.0
0.0,0.0,0.0,0.0
101.559,-5.485,1.261,6.0
101.472,-5.514,0.705,151.0
101.426,-5.545,0.16,4.0
0.0,0.0,0.0,0.0
163.318,-9.011,3.914,6.0
140.704,-7.81,2.618,28.0
140.7,-7.856,1.863,5.0
140.595,-7.896,1.095,4.0
0.0,0.0,0.0,0.0
0.0,0.0,0.0,0.0
148.229,-8.447,3.679,15.0
149.127,-8.544,2.902,18.0
149.338,-8.607,2.107,19.0
149.798,-8.682,1.296,16.0
0.0,0.0,0.0,0.0
0.0,0.0,0.0,0.0
149.371,-8.776,3.838,18.0
148.707,-8.782,3.025,19.0
148.867,-8.84,2.232,18.0
149.914,-8.95,1.43,17.0
109.027,-6.544,0.457,2.0
0.0,0.0,0.0,0.0
117.296,-7.095,3.12,37.0
148.467,-9.028,3.155,16.0
148.706,-9.088,2.365,21.0
149.924,-9.211,1.569,13.0
108.677,-6.711,0.556,3.0
0.0,0.0,0.0,0.0
117.325,-7.298,3.23,33.0
117.229,-7.328,2.6,12.0
125.276,-7.869,2.11,22.0
125.316,-7.911,1.43,19.0
109.095,-6.922,0.663,2.0
0.0,0.0,0.0,0.0
