X,Y,Z,Reflectivity
14.682,1.036,-0.783,0.0
13.579,0.959,-0.804,0.0
12.753,0.903,-0.829,0.0
11.986,0.85,-0.848,0.0
16.482,1.17,-0.715,1.0
15.68,1.115,-0.77,0.0
14.349,1.022,-0.788,0.0
13.343,0.952,-0.811,0.0
12.578,0.899,-0.837,0.0
11.789,0.844,-0.853,0.0
16.248,1.164,-0.73,1.0
15.275,1.096,-0.775,0.0
14.219,1.022,-0.803,0.0
13.201,0.95,-0.823,0.0
12.299,0.887,-0.838,0.0
11.508,0.831,-0.851,0.0
16.03,1.158,-0.746,1.0
14.967,1.083,-0.782,0.0
13.855,1.004,-0.804,0.0
12.861,0.933,-0.822,0.0
12.098,0.879,-0.843,0.0
11.278,0.821,-0.851,0.0
15.918,1.159,-0.765,1.0
14.57,1.062,-0.785,0.0
13.548,0.989,-0.808,0.0
12.635,0.924,-0.827,0.0
11.869,0.869,-0.846,0.0
11.137,0.816,-0.858,0.0
15.375,1.127,-0.763,0.0
14.302,1.05,-0.792,0.0
13.279,0.976,-0.812,0.0
12.443,0.916,-0.834,0.0
11.687,0.861,-0.851,0.0
10.929,0.807,-0.859,0.0
15.116,1.115,-0.774,0.0
14.142,1.045,-0.806,0.0
12.982,0.96,-0.814,0.0
12.257,0.908,-0.841,0.0
11.416,0.846,-0.849,0.0
10.72,0.796,-0.86,0.0
14.784,1.097,-0.78,0.0
13.708,1.018,-0.802,0.0
12.765,0.949,-0.82,0.0
11.995,0.893,-0.841,0.0
11.274,0.84,-0.856,0.0
10.571,0.789,-0.864,0.0
14.539,1.084,-0.789,0.0
13.431,1.003,-0.806,0.0
12.593,0.941,-0.829,0.0
11.816,0.884,-0.847,0.0
11.082,0.83,-0.859,0.0
10.387,0.779,-0.865,0.0
14.272,1.069,-0.797,0.0
13.132,0.985,-0.809,0.0
12.35,0.927,-0.832,0.0
11.509,0.865,-0.843,0.0
10.856,0.817,-0.858,0.0
10.237,0.771,-0.869,0.0
13.976,1.051,-0.802,0.0
12.934,0.974,-0.817,0.0
12.102,0.912,-0.834,0.0
11.36,0.857,-0.85,0.0
10.66,0.805,-0.859,0.0
10.102,0.764,-0.873,0.0
13.682,1.033,-0.806,0.0
12.705,0.96,-0.821,0.0
11.987,0.906,-0.844,0.0
11.179,0.846,-0.853,0.0
10.518,0.797,-0.864,0.0
10.032,0.761,-0.882,0.0
13.362,1.012,-0.807,0.0
12.537,0.95,-0.83,0.0
11.791,0.894,-0.849,0.0
10.994,0.834,-0.856,0.0
10.348,0.786,-0.866,0.0
9.874,0.751,-0.883,0.0
13.039,0.989,-0.807,0.0
12.335,0.937,-0.835,0.0
11.489,0.873,-0.844,0.0
10.795,0.821,-0.857,0.0
10.247,0.78,-0.872,0.0
9.76,0.743,-0.888,0.0
12.884,0.979,-0.817,0.0
12.071,0.918,-0.835,0.0
11.354,0.864,-0.851,0.0
10.621,0.809,-0.859,0.0
10.108,0.77,-0.876,0.0
9.627,0.734,-0.89,0.0
12.663,0.964,-0.822,0.0
11.978,0.912,-0.846,0.0
11.152,0.85,-0.852,0.0
10.484,0.799,-0.863,0.0
10.002,0.763,-0.881,0.0
9.531,0.727,-0.895,0.0
12.52,0.953,-0.831,0.0
11.697,0.891,-0.843,0.0
10.978,0.837,-0.855,0.0
10.31,0.786,-0.864,0.0
9.847,0.751,-0.882,0.0
9.414,0.719,-0.898,0.0
12.261,0.934,-0.831,0.0
11.445,0.872,-0.842,0.0
10.737,0.818,-0.852,0.0
10.195,0.777,-0.869,0.0
9.801,0.748,-0.892,0.0
9.246,0.706,-0.895,0.0
12.079,0.919,-0.836,0.0
11.29,0.859,-0.847,0.0
10.645,0.811,-0.86,0.0
10.087,0.769,-0.874,0.0
9.622,0.733,-0.89,0.0
9.142,0.697,-0.898,0.0
11.981,0.911,-0.846,0.0
11.192,0.851,-0.855,0.0
10.526,0.801,-0.865,0.0
9.946,0.757,-0.876,0.0
9.519,0.725,-0.893,0.0
11.759,0.893,-0.847,0.0
10.95,0.831,-0.851,0.0
10.332,0.785,-0.863,0.0
9.875,0.75,-0.883,0.0
9.377,0.712,-0.893,0.0
8.904,0.677,-0.9,0.0
11.523,0.873,-0.845,0.0
10.813,0.819,-0.855,0.0
10.193,0.772,-0.865,0.0
9.764,0.74,-0.886,0.0
9.264,0.702,-0.895,0.0
8.754,0.664,-0.896,0.0
11.362,0.858,-0.849,0.0
10.628,0.803,-0.855,0.0
10.119,0.765,-0.873,0.0
9.664,0.73,-0.89,0.0
8.686,0.657,-0.901,0.0
11.178,0.842,-0.85,0.0
10.511,0.792,-0.859,0.0
10.02,0.755,-0.877,0.0
9.517,0.717,-0.889,0.0
9.07,0.683,-0.9,0.0
8.556,0.644,-0.899,0.0
11.057,0.83,-0.855,0.0
10.428,0.782,-0.866,0.0
9.933,0.745,-0.882,0.0
9.44,0.708,-0.894,0.0
8.917,0.669,-0.896,0.0
8.466,0.635,-0.9,0.0
10.85,0.811,-0.852,0.0
10.264,0.767,-0.866,0.0
9.822,0.734,-0.885,0.0
9.312,0.695,-0.894,0.0
8.819,0.659,-0.898,0.0
8.388,0.626,-0.903,0.0
10.732,0.798,-0.857,0.0
10.172,0.756,-0.871,0.0
9.705,0.721,-0.887,0.0
9.175,0.682,-0.892,0.0
8.755,0.651,-0.902,0.0
8.26,0.614,-0.899,0.0
10.569,0.782,-0.857,0.0
10.091,0.746,-0.876,0.0
9.61,0.71,-0.89,0.0
9.084,0.671,-0.894,0.0
8.66,0.64,-0.903,0.0
8.195,0.605,-0.902,0.0
10.447,0.768,-0.859,0.0
9.983,0.734,-0.878,0.0
9.553,0.702,-0.896,0.0
9.009,0.662,-0.898,0.0
8.508,0.625,-0.897,0.0
8.11,0.595,-0.902,0.0
10.362,0.757,-0.864,0.0
9.894,0.723,-0.882,0.0
9.408,0.687,-0.893,0.0
8.864,0.647,-0.894,0.0
8.469,0.618,-0.903,0.0
8.06,0.588,-0.906,0.0
10.249,0.744,-0.866,0.0
9.796,0.711,-0.885,0.0
9.258,0.671,-0.89,0.0
8.802,0.638,-0.897,0.0
8.365,0.606,-0.901,0.0
8.004,0.579,-0.909,0.0
10.15,0.731,-0.869,0.0
9.706,0.699,-0.887,0.0
9.224,0.664,-0.896,0.0
8.738,0.628,-0.901,0.0
8.3,0.597,-0.903,0.0
7.953,0.571,-0.912,0.0
10.102,0.722,-0.876,0.0
9.596,0.685,-0.887,0.0
9.117,0.651,-0.896,0.0
8.648,0.617,-0.9,0.0
8.233,0.587,-0.905,0.0
7.903,0.563,-0.914,0.0
10.018,0.71,-0.879,0.0
9.511,0.674,-0.89,0.0
8.99,0.636,-0.893,0.0
8.56,0.605,-0.9,0.0
8.166,0.577,-0.906,0.0
7.836,0.553,-0.915,0.0
9.924,0.697,-0.881,0.0
9.477,0.665,-0.896,0.0
8.903,0.624,-0.893,0.0
8.426,0.59,-0.895,0.0
8.094,0.567,-0.906,0.0
7.827,0.548,-0.922,0.0
9.84,0.685,-0.883,0.0
9.414,0.654,-0.899,0.0
8.855,0.615,-0.897,0.0
8.395,0.582,-0.9,0.0
8.043,0.557,-0.908,0.0
7.806,0.541,-0.927,0.0
9.776,0.673,-0.887,0.0
9.257,0.637,-0.893,0.0
8.778,0.603,-0.897,0.0
8.337,0.572,-0.901,0.0
7.977,0.547,-0.908,0.0
7.718,0.529,-0.924,0.0
9.737,0.663,-0.892,0.0
9.249,0.629,-0.901,0.0
8.695,0.591,-0.897,0.0
8.25,0.56,-0.899,0.0
7.963,0.54,-0.914,0.0
7.702,0.522,-0.929,0.0
9.591,0.646,-0.888,0.0
9.093,0.612,-0.894,0.0
8.637,0.58,-0.899,0.0
8.219,0.552,-0.903,0.0
7.93,0.532,-0.917,0.0
7.65,0.512,-0.929,0.0
9.552,0.636,-0.892,0.0
9.029,0.6,-0.895,0.0
8.551,0.568,-0.897,0.0
8.138,0.54,-0.901,0.0
7.889,0.523,-0.919,0.0
7.597,0.503,-0.929,0.0
9.513,0.626,-0.896,0.0
8.982,0.59,-0.898,0.0
8.535,0.56,-0.902,0.0
8.105,0.531,-0.904,0.0
7.835,0.512,-0.919,0.0
7.575,0.495,-0.932,0.0
9.473,0.615,-0.9,0.0
8.946,0.58,-0.901,0.0
8.488,0.549,-0.903,0.0
8.081,0.522,-0.907,0.0
7.814,0.504,-0.922,0.0
7.518,0.484,-0.931,0.0
9.371,0.6,-0.897,0.0
8.859,0.566,-0.898,0.0
8.433,0.538,-0.904,0.0
8.023,0.511,-0.907,0.0
7.773,0.495,-0.923,0.0
7.488,0.476,-0.933,0.0
9.31,0.588,-0.897,0.0
8.827,0.556,-0.901,0.0
8.371,0.527,-0.903,0.0
7.989,0.502,-0.908,0.0
7.757,0.486,-0.927,0.0
7.45,0.466,-0.933,0.0
9.289,0.578,-0.902,0.0
8.789,0.546,-0.903,0.0
8.299,0.514,-0.9,0.0
7.99,0.494,-0.914,0.0
7.721,0.477,-0.927,0.0
7.401,0.456,-0.931,0.0
9.204,0.564,-0.899,0.0
8.736,0.534,-0.903,0.0
8.291,0.506,-0.905,0.0
7.968,0.485,-0.916,0.0
7.679,0.467,-0.927,0.0
7.401,0.449,-0.936,0.0
9.148,0.551,-0.899,0.0
8.684,0.522,-0.903,0.0
8.258,0.496,-0.906,0.0
7.899,0.473,-0.912,0.0
7.652,0.458,-0.928,0.0
7.333,0.438,-0.931,0.0
9.093,0.539,-0.898,0.0
8.631,0.511,-0.902,0.0
8.226,0.486,-0.907,0.0
7.877,0.464,-0.914,0.0
7.641,0.449,-0.93,0.0
7.317,0.429,-0.933,0.0
9.048,0.527,-0.899,0.0
8.614,0.501,-0.904,0.0
8.203,0.476,-0.908,0.0
7.879,0.456,-0.918,0.0
7.631,0.441,-0.933,0.0
7.302,0.421,-0.935,0.0
9.02,0.516,-0.9,0.0
8.612,0.492,-0.908,0.0
8.186,0.466,-0.91,0.0
7.846,0.446,-0.918,0.0
7.591,0.43,-0.931,0.0
7.287,0.412,-0.936,0.0
9.006,0.506,-0.902,0.0
8.607,0.482,-0.911,0.0
8.166,0.456,-0.911,0.0
7.819,0.436,-0.918,0.0
7.552,0.42,-0.929,0.0
7.266,0.403,-0.936,0.0
8.981,0.495,-0.903,0.0
8.537,0.469,-0.907,0.0
8.119,0.445,-0.909,0.0
7.836,0.428,-0.922,0.0
7.558,0.412,-0.933,0.0
7.253,0.394,-0.937,0.0
8.944,0.483,-0.902,0.0
8.518,0.459,-0.908,0.0
8.125,0.436,-0.912,0.0
7.804,0.418,-0.921,0.0
7.519,0.402,-0.93,0.0
7.239,0.386,-0.937,0.0
8.942,0.473,-0.905,0.0
8.514,0.449,-0.909,0.0
8.115,0.427,-0.913,0.0
7.822,0.41,-0.925,0.0
7.515,0.393,-0.932,0.0
7.246,0.378,-0.94,0.0
8.912,0.461,-0.904,0.0
8.485,0.438,-0.908,0.0
8.107,0.417,-0.914,0.0
7.784,0.399,-0.922,0.0
7.503,0.384,-0.932,0.0
7.247,0.369,-0.942,0.0
8.898,0.45,-0.904,0.0
8.478,0.428,-0.909,0.0
8.112,0.408,-0.916,0.0
7.799,0.391,-0.926,0.0
7.492,0.374,-0.932,0.0
7.244,0.361,-0.942,0.0
8.898,0.44,-0.905,0.0
8.505,0.419,-0.913,0.0
8.102,0.398,-0.916,0.0
7.764,0.38,-0.923,0.0
7.512,0.367,-0.935,0.0
7.236,0.352,-0.942,0.0
8.949,0.432,-0.912,0.0
8.47,0.407,-0.91,0.0
8.059,0.386,-0.912,0.0
7.747,0.37,-0.921,0.0
7.503,0.357,-0.935,0.0
7.232,0.343,-0.942,0.0
8.893,0.419,-0.906,0.0
8.469,0.397,-0.911,0.0
8.095,0.378,-0.916,0.0
7.772,0.362,-0.925,0.0
7.498,0.348,-0.934,0.0
7.24,0.335,-0.943,0.0
8.88,0.408,-0.905,0.0
8.496,0.388,-0.914,0.0
8.116,0.37,-0.919,0.0
7.787,0.353,-0.926,0.0
7.527,0.34,-0.938,0.0
7.251,0.327,-0.945,0.0
8.958,0.4,-0.913,0.0
8.491,0.378,-0.913,0.0
8.07,0.358,-0.913,0.0
7.784,0.344,-0.926,0.0
7.507,0.33,-0.935,0.0
7.24,0.317,-0.943,0.0
8.985,0.391,-0.915,0.0
8.527,0.369,-0.916,0.0
8.117,0.35,-0.918,0.0
7.781,0.334,-0.924,0.0
7.512,0.321,-0.935,0.0
7.253,0.309,-0.944,0.0
8.979,0.38,-0.913,0.0
8.485,0.357,-0.911,0.0
8.139,0.341,-0.919,0.0
7.813,0.326,-0.927,0.0
7.545,0.313,-0.938,0.0
7.258,0.3,-0.943,0.0
8.985,0.369,-0.912,0.0
8.524,0.348,-0.913,0.0
8.168,0.332,-0.921,0.0
7.81,0.316,-0.925,0.0
7.544,0.304,-0.936,0.0
7.267,0.292,-0.943,0.0
8.938,0.356,-0.906,0.0
8.576,0.34,-0.917,0.0
8.194,0.323,-0.922,0.0
7.842,0.308,-0.927,0.0
7.566,0.296,-0.937,0.0
7.272,0.283,-0.942,0.0
9.015,0.348,-0.911,0.0
8.563,0.329,-0.914,0.0
8.167,0.312,-0.917,0.0
7.856,0.299,-0.927,0.0
7.61,0.288,-0.94,0.0
7.273,0.274,-0.94,0.0
8.993,0.336,-0.907,0.0
8.611,0.32,-0.916,0.0
8.228,0.304,-0.921,0.0
7.874,0.29,-0.926,0.0
7.613,0.279,-0.938,0.0
7.332,0.267,-0.945,0.0
9.066,0.328,-0.911,0.0
8.634,0.311,-0.915,0.0
8.283,0.296,-0.924,0.0
7.919,0.282,-0.929,0.0
7.608,0.269,-0.935,0.0
7.317,0.257,-0.94,0.0
9.081,0.317,-0.909,0.0
8.707,0.302,-0.92,0.0
8.286,0.286,-0.921,0.0
7.936,0.272,-0.927,0.0
7.625,0.26,-0.934,0.0
7.36,0.25,-0.942,0.0
9.151,0.308,-0.912,0.0
8.671,0.29,-0.912,0.0
8.315,0.277,-0.921,0.0
7.98,0.264,-0.929,0.0
7.663,0.252,-0.935,0.0
7.377,0.241,-0.941,0.0
9.199,0.298,-0.912,0.0
8.774,0.283,-0.918,0.0
8.364,0.268,-0.922,0.0
8.033,0.256,-0.931,0.0
7.698,0.244,-0.935,0.0
7.402,0.233,-0.94,0.0
9.223,0.288,-0.91,0.0
8.815,0.273,-0.918,0.0
8.396,0.259,-0.921,0.0
8.057,0.247,-0.929,0.0
7.728,0.235,-0.934,0.0
7.446,0.225,-0.942,0.0
9.287,0.279,-0.911,0.0
8.821,0.263,-0.914,0.0
8.429,0.249,-0.919,0.0
8.103,0.238,-0.93,0.0
7.759,0.226,-0.933,0.0
7.48,0.217,-0.941,0.0
9.359,0.269,-0.912,0.0
8.888,0.254,-0.915,0.0
8.512,0.241,-0.923,0.0
8.131,0.229,-0.928,0.0
7.807,0.218,-0.934,0.0
7.498,0.208,-0.939,0.0
9.432,0.26,-0.913,0.0
8.976,0.245,-0.918,0.0
8.557,0.232,-0.922,0.0
8.171,0.22,-0.927,0.0
7.895,0.211,-0.939,0.0
7.574,0.201,-0.943,0.0
9.489,0.25,-0.911,0.0
9.01,0.235,-0.915,0.0
8.605,0.223,-0.921,0.0
8.227,0.212,-0.927,0.0
7.911,0.202,-0.935,0.0
7.555,0.191,-0.935,0.0
9.543,0.24,-0.91,0.0
9.097,0.227,-0.917,0.0
8.687,0.215,-0.923,0.0
8.329,0.204,-0.932,0.0
7.966,0.194,-0.935,0.0
7.657,0.185,-0.941,0.0
9.638,0.231,-0.911,0.0
9.124,0.217,-0.912,0.0
8.748,0.206,-0.923,0.0
8.351,0.195,-0.928,0.0
8.043,0.186,-0.938,0.0
7.666,0.176,-0.936,0.0
9.662,0.22,-0.905,0.0
9.168,0.207,-0.909,0.0
8.82,0.197,-0.923,0.0
8.422,0.187,-0.928,0.0
8.096,0.178,-0.937,0.0
7.694,0.167,-0.933,0.0
9.755,0.211,-0.905,0.0
9.277,0.199,-0.912,0.0
8.856,0.188,-0.919,0.0
8.478,0.178,-0.927,0.0
8.145,0.169,-0.935,0.0
7.827,0.161,-0.941,0.0
9.851,0.201,-0.905,0.0
9.362,0.19,-0.911,0.0
8.927,0.179,-0.918,0.0
8.558,0.17,-0.927,0.0
8.174,0.16,-0.93,0.0
7.874,0.153,-0.939,0.0
9.915,0.191,-0.901,0.0
9.429,0.18,-0.909,0.0
9.027,0.171,-0.919,0.0
8.598,0.161,-0.923,0.0
8.237,0.152,-0.929,0.0
7.923,0.145,-0.937,0.0
10.044,0.183,-0.903,0.0
9.559,0.172,-0.912,0.0
9.141,0.162,-0.921,0.0
8.708,0.153,-0.926,0.0
8.3,0.144,-0.928,0.0
7.965,0.137,-0.934,0.0
10.13,0.173,-0.9,0.0
9.659,0.163,-0.911,0.0
9.18,0.153,-0.916,0.0
8.777,0.144,-0.924,0.0
8.426,0.137,-0.933,0.0
8.05,0.129,-0.935,0.0
10.221,0.163,-0.897,0.0
9.724,0.153,-0.906,0.0
9.325,0.145,-0.92,0.0
8.85,0.136,-0.922,0.0
8.493,0.129,-0.931,0.0
8.102,0.121,-0.932,0.0
10.401,0.155,-0.902,0.0
9.885,0.145,-0.91,0.0
9.421,0.136,-0.918,0.0
8.963,0.128,-0.923,0.0
8.56,0.121,-0.928,0.0
8.197,0.114,-0.933,0.0
10.563,0.146,-0.903,0.0
9.987,0.136,-0.908,0.0
9.488,0.127,-0.914,0.0
9.035,0.119,-0.92,0.0
8.641,0.113,-0.926,0.0
8.27,0.106,-0.932,0.0
10.645,0.136,-0.897,1.0
10.098,0.127,-0.906,0.0
9.582,0.118,-0.911,0.0
9.183,0.112,-0.924,0.0
8.731,0.105,-0.925,0.0
8.385,0.099,-0.934,0.0
10.778,0.126,-0.895,0.0
10.235,0.118,-0.905,0.0
9.746,0.111,-0.914,0.0
9.28,0.104,-0.922,0.0
8.867,0.097,-0.928,0.0
8.461,0.091,-0.932,0.0
10.958,0.118,-0.896,0.0
10.359,0.109,-0.903,0.0
9.862,0.102,-0.912,0.0
9.391,0.095,-0.92,0.0
8.941,0.089,-0.924,0.0
8.559,0.084,-0.931,0.0
11.095,0.108,-0.893,0.0
10.529,0.101,-0.904,0.0
9.927,0.093,-0.905,0.0
9.442,0.087,-0.912,0.0
9.064,0.081,-0.925,0.0
8.652,0.076,-0.929,0.0
11.259,0.099,-0.891,0.0
10.654,0.091,-0.9,0.0
10.114,0.085,-0.908,0.0
9.601,0.079,-0.915,0.0
9.167,0.074,-0.923,0.0
8.769,0.069,-0.93,0.0
11.441,0.09,-0.889,0.0
10.825,0.083,-0.899,0.0
10.26,0.077,-0.907,0.0
9.728,0.071,-0.913,0.0
9.261,0.066,-0.919,0.0
8.878,0.061,-0.928,0.0
11.618,0.08,-0.886,0.0
10.99,0.074,-0.897,0.0
10.43,0.068,-0.907,0.0
9.879,0.063,-0.913,0.0
9.407,0.058,-0.919,0.0
8.972,0.054,-0.925,0.0
11.794,0.071,-0.883,0.0
11.134,0.065,-0.892,0.0
10.565,0.06,-0.903,0.0
10.026,0.055,-0.911,0.0
9.545,0.051,-0.919,0.0
9.114,0.047,-0.926,0.0
12.003,0.062,-0.88,0.0
11.333,0.056,-0.891,0.0
10.729,0.052,-0.901,0.0
10.191,0.047,-0.911,0.0
9.659,0.043,-0.915,0.0
9.203,0.04,-0.921,0.0
12.223,0.052,-0.878,0.0
11.52,0.048,-0.888,0.0
10.903,0.043,-0.899,0.0
10.344,0.039,-0.909,0.0
9.847,0.036,-0.917,0.0
9.377,0.033,-0.924,0.0
12.428,0.043,-0.873,0.0
11.731,0.039,-0.886,0.0
11.088,0.035,-0.896,0.0
10.492,0.031,-0.905,0.0
9.997,0.028,-0.915,0.0
9.494,0.025,-0.92,0.0
12.682,0.034,-0.871,1.0
11.949,0.03,-0.884,0.0
11.268,0.027,-0.893,0.0
10.677,0.024,-0.904,0.0
10.151,0.021,-0.913,0.0
9.667,0.018,-0.921,0.0
12.897,0.025,-0.865,1.0
12.178,0.021,-0.881,0.0
11.487,0.018,-0.891,0.0
10.851,0.016,-0.9,0.0
10.305,0.013,-0.91,0.0
9.787,0.011,-0.916,0.0
13.147,0.016,-0.86,0.0
12.403,0.013,-0.876,0.0
11.724,0.01,-0.89,0.0
11.047,0.008,-0.898,0.0
10.488,0.006,-0.908,0.0
9.964,0.004,-0.916,0.0
13.446,0.006,-0.857,0.0
12.638,0.004,-0.872,0.0
11.944,0.002,-0.887,0.0
11.244,0.0,-0.895,0.0
10.671,0.0,-0.906,0.0
10.126,-0.001,-0.913,0.0
13.768,-0.002,-0.853,0.0
12.899,-0.003,-0.867,0.0
12.163,-0.005,-0.882,0.0
11.45,-0.006,-0.892,0.0
10.832,-0.007,-0.901,0.0
10.306,-0.008,-0.911,0.0
14.082,-0.011,-0.849,0.0
13.146,-0.012,-0.861,0.0
12.408,-0.013,-0.878,0.0
11.711,-0.014,-0.892,0.0
11.061,-0.014,-0.9,0.0
10.481,-0.015,-0.908,0.0
14.425,-0.02,-0.844,0.0
13.444,-0.02,-0.857,0.0
12.652,-0.021,-0.873,0.0
11.935,-0.021,-0.887,0.0
11.298,-0.021,-0.899,0.0
10.686,-0.021,-0.907,0.0
14.868,-0.029,-0.844,0.0
13.732,-0.029,-0.851,0.0
12.916,-0.028,-0.868,0.0
12.159,-0.028,-0.882,0.0
11.508,-0.028,-0.895,0.0
10.87,-0.028,-0.903,0.0
15.205,-0.038,-0.835,0.0
14.145,-0.037,-0.851,0.0
13.189,-0.036,-0.862,0.0
12.423,-0.036,-0.878,0.0
11.741,-0.035,-0.892,0.0
11.087,-0.034,-0.9,0.0
15.565,-0.047,-0.826,0.0
14.431,-0.045,-0.841,0.0
13.508,-0.044,-0.858,0.0
12.684,-0.043,-0.873,0.0
11.986,-0.041,-0.888,0.0
11.304,-0.04,-0.897,0.0
15.856,-0.056,-0.812,0.0
14.951,-0.054,-0.844,0.0
13.83,-0.052,-0.853,0.0
12.944,-0.049,-0.867,0.0
12.254,-0.048,-0.885,0.0
11.582,-0.047,-0.897,0.0
16.658,-0.066,-0.822,0.0
15.324,-0.062,-0.836,0.0
14.18,-0.059,-0.848,0.0
13.286,-0.057,-0.865,0.0
12.509,-0.054,-0.88,0.0
11.785,-0.052,-0.89,0.0
17.132,-0.075,-0.813,0.0
15.647,-0.07,-0.824,0.0
14.633,-0.067,-0.847,0.0
13.547,-0.063,-0.856,0.0
12.758,-0.061,-0.873,0.0
12.05,-0.058,-0.887,0.0
17.608,-0.084,-0.802,0.0
16.138,-0.078,-0.819,0.0
15.047,-0.074,-0.842,0.0
13.937,-0.07,-0.854,0.0
13.049,-0.067,-0.867,0.0
12.357,-0.064,-0.886,0.0
18.454,-0.095,-0.805,0.0
16.687,-0.087,-0.814,0.0
15.477,-0.082,-0.836,0.0
14.284,-0.076,-0.847,0.0
13.382,-0.073,-0.863,0.0
12.625,-0.069,-0.88,0.0
19.15,-0.104,-0.798,0.0
17.324,-0.095,-0.811,0.0
15.73,-0.088,-0.818,0.0
14.783,-0.083,-0.847,0.0
13.72,-0.078,-0.858,0.0
12.839,-0.074,-0.869,0.0
19.678,-0.113,-0.781,2.0
17.951,-0.104,-0.805,0.0
16.416,-0.096,-0.821,0.0
15.217,-0.09,-0.842,0.0
14.078,-0.084,-0.852,0.0
13.177,-0.079,-0.866,0.0
19.747,-0.118,-0.744,14.0
18.809,-0.113,-0.806,0.0
16.948,-0.103,-0.814,0.0
15.533,-0.095,-0.828,0.0
14.555,-0.09,-0.851,0.0
13.523,-0.084,-0.861,0.0
19.752,-0.122,-0.704,17.0
19.486,-0.121,-0.796,1.0
17.655,-0.111,-0.812,0.0
16.067,-0.102,-0.824,0.0
14.99,-0.095,-0.846,0.0
13.864,-0.089,-0.855,0.0
19.75,-0.125,-0.664,18.0
19.715,-0.126,-0.765,7.0
18.375,-0.118,-0.808,0.0
16.675,-0.108,-0.821,0.0
15.435,-0.101,-0.84,0.0
14.34,-0.094,-0.855,0.0
19.758,-0.128,-0.624,18.0
19.744,-0.129,-0.725,14.0
19.148,-0.125,-0.802,0.0
17.283,-0.114,-0.815,0.0
15.728,-0.104,-0.823,0.0
14.768,-0.098,-0.85,0.0
19.747,-0.13,-0.583,18.0
19.741,-0.13,-0.685,17.0
19.673,-0.13,-0.784,3.0
17.873,-0.119,-0.806,0.0
16.483,-0.11,-0.829,0.0
15.198,-0.102,-0.843,0.0
19.746,-0.131,-0.542,18.0
19.75,-0.131,-0.644,17.0
19.743,-0.132,-0.745,11.0
18.795,-0.126,-0.809,0.0
17.082,-0.115,-0.823,0.0
15.533,-0.104,-0.829,0.0
19.741,-0.131,-0.501,17.0
19.761,-0.132,-0.603,17.0
19.747,-0.132,-0.705,15.0
19.498,-0.13,-0.799,1.0
17.655,-0.118,-0.814,0.0
16.013,-0.107,-0.821,0.0
19.74,-0.131,-0.46,18.0
19.747,-0.131,-0.562,18.0
19.753,-0.131,-0.664,16.0
19.716,-0.131,-0.767,7.0
18.443,-0.123,-0.812,0.0
16.79,-0.112,-0.826,0.0
19.743,-0.13,-0.419,17.0
19.735,-0.13,-0.521,17.0
19.753,-0.13,-0.623,17.0
19.733,-0.13,-0.726,14.0
19.207,-0.126,-0.806,1.0
17.437,-0.114,-0.822,0.0
19.747,-0.128,-0.378,18.0
19.731,-0.128,-0.48,17.0
19.744,-0.128,-0.582,17.0
19.73,-0.127,-0.685,17.0
19.68,-0.127,-0.785,3.0
18.034,-0.116,-0.812,0.0
19.746,-0.125,-0.337,17.0
19.734,-0.125,-0.439,17.0
19.736,-0.125,-0.54,16.0
19.739,-0.124,-0.644,16.0
19.741,-0.124,-0.746,13.0
18.847,-0.118,-0.809,0.0
19.749,-0.122,-0.296,16.0
19.744,-0.121,-0.397,17.0
19.732,-0.121,-0.499,16.0
19.735,-0.121,-0.602,16.0
19.747,-0.12,-0.704,16.0
19.594,-0.119,-0.8,1.0
19.743,-0.118,-0.254,17.0
19.748,-0.117,-0.355,16.0
19.738,-0.117,-0.457,17.0
19.729,-0.116,-0.56,16.0
19.748,-0.115,-0.662,15.0
19.744,-0.115,-0.764,9.0
19.729,-0.113,-0.212,17.0
19.735,-0.112,-0.314,15.0
19.735,-0.111,-0.415,16.0
19.728,-0.111,-0.519,16.0
19.756,-0.11,-0.621,15.0
19.754,-0.109,-0.723,16.0
19.727,-0.107,-0.171,17.0
19.734,-0.106,-0.272,16.0
19.746,-0.106,-0.374,16.0
19.732,-0.105,-0.477,16.0
19.749,-0.104,-0.579,16.0
19.759,-0.103,-0.682,14.0
19.723,-0.101,-0.129,17.0
19.734,-0.1,-0.231,16.0
19.738,-0.099,-0.332,14.0
19.726,-0.098,-0.436,15.0
19.746,-0.097,-0.538,15.0
19.753,-0.096,-0.64,15.0
19.721,-0.094,-0.088,13.0
19.718,-0.093,-0.189,16.0
19.744,-0.092,-0.291,14.0
19.737,-0.09,-0.394,14.0
19.741,-0.089,-0.496,14.0
19.753,-0.088,-0.598,14.0
19.715,-0.086,-0.046,14.0
19.718,-0.085,-0.148,17.0
19.737,-0.083,-0.249,15.0
19.749,-0.082,-0.353,13.0
19.765,-0.081,-0.455,14.0
19.762,-0.079,-0.557,11.0
19.72,-0.077,-0.005,16.0
19.711,-0.076,-0.106,15.0
19.734,-0.074,-0.208,15.0
19.748,-0.073,-0.312,14.0
19.757,-0.072,-0.414,12.0
19.767,-0.07,-0.516,5.0
19.713,-0.068,0.035,16.0
19.719,-0.066,-0.065,14.0
19.721,-0.065,-0.167,15.0
19.738,-0.063,-0.27,14.0
19.775,-0.062,-0.373,7.0
19.777,-0.06,-0.475,1.0
19.711,-0.058,0.076,16.0
19.708,-0.056,-0.024,16.0
19.711,-0.054,-0.125,14.0
19.738,-0.053,-0.229,14.0
19.763,-0.051,-0.332,7.0
19.78,-0.049,-0.434,0.0
19.705,-0.047,0.117,17.0
19.707,-0.045,0.016,17.0
19.735,-0.043,-0.085,12.0
19.733,-0.041,-0.188,13.0
19.764,-0.04,-0.291,5.0
30.391,-0.058,-0.604,0.0
19.687,-0.035,0.158,11.0
19.709,-0.033,0.057,15.0
19.714,-0.031,-0.044,15.0
19.736,-0.029,-0.148,13.0
19.76,-0.027,-0.249,2.0
32.032,-0.042,-0.57,0.0
19.655,-0.023,0.198,16.0
19.683,-0.021,0.097,12.0
19.704,-0.019,-0.003,14.0
19.75,-0.017,-0.107,8.0
19.769,-0.015,-0.209,1.0
35.316,-0.022,-0.555,0.0
19.642,-0.01,0.239,14.0
19.749,-0.008,0.138,3.0
19.729,-0.006,0.037,9.0
19.742,-0.003,-0.066,8.0
19.776,-0.001,-0.168,0.0
0.0,0.0,0.0,0.0
19.627,0.003,0.279,13.0
19.655,0.005,0.178,11.0
19.8,0.007,0.076,3.0
19.746,0.01,-0.027,8.0
19.768,0.012,-0.129,1.0
19.769,0.014,-0.231,0.0
19.625,0.017,0.318,16.0
19.638,0.019,0.217,16.0
19.742,0.022,0.116,19.0
19.73,0.024,0.012,13.0
19.741,0.027,-0.089,8.0
19.753,0.029,-0.191,9.0
19.619,0.032,0.357,17.0
19.621,0.034,0.256,13.0
19.738,0.037,0.156,17.0
19.739,0.04,0.052,12.0
19.753,0.043,-0.049,43.0
19.763,0.045,-0.152,15.0
19.614,0.047,0.396,13.0
19.615,0.05,0.295,13.0
19.631,0.053,0.194,13.0
19.736,0.056,0.091,44.0
19.747,0.059,-0.011,34.0
19.756,0.062,-0.113,47.0
19.607,0.064,0.435,21.0
19.609,0.066,0.334,16.0
19.614,0.069,0.232,14.0
19.671,0.072,0.129,13.0
19.752,0.076,0.027,37.0
19.753,0.079,-0.074,26.0
19.614,0.081,0.474,26.0
19.613,0.084,0.372,18.0
19.613,0.087,0.271,17.0
19.659,0.09,0.168,12.0
19.674,0.093,0.066,13.0
19.694,0.096,-0.035,7.0
19.61,0.098,0.512,19.0
19.615,0.101,0.411,27.0
19.607,0.104,0.309,16.0
19.633,0.108,0.205,12.0
19.643,0.111,0.104,13.0
19.652,0.114,0.002,13.0
19.6,0.117,0.55,22.0
19.604,0.12,0.448,17.0
19.604,0.123,0.346,12.0
19.617,0.126,0.243,10.0
19.643,0.13,0.141,15.0
19.635,0.133,0.039,14.0
19.601,0.136,0.587,16.0
19.593,0.139,0.485,15.0
19.605,0.142,0.384,11.0
19.611,0.146,0.28,10.0
19.666,0.149,0.178,16.0
19.648,0.153,0.076,13.0
19.601,0.155,0.624,13.0
19.6,0.159,0.522,12.0
19.613,0.162,0.421,9.0
19.62,0.166,0.317,9.0
19.653,0.169,0.215,13.0
19.664,0.173,0.113,12.0
19.626,0.176,0.662,10.0
19.633,0.179,0.56,9.0
19.644,0.183,0.458,9.0
19.656,0.186,0.354,9.0
19.68,0.19,0.252,8.0
19.68,0.194,0.15,11.0
19.674,0.197,0.7,10.0
19.677,0.201,0.597,10.0
19.703,0.204,0.495,10.0
19.727,0.208,0.391,12.0
19.735,0.212,0.288,10.0
19.749,0.216,0.186,22.0
19.681,0.218,0.736,8.0
19.664,0.222,0.632,13.0
19.683,0.226,0.53,10.0
19.697,0.23,0.426,10.0
19.72,0.234,0.324,11.0
19.743,0.238,0.221,20.0
84.81,1.037,3.326,23.0
19.644,0.244,0.667,15.0
19.646,0.248,0.565,13.0
19.667,0.252,0.461,10.0
19.686,0.256,0.358,13.0
19.725,0.26,0.256,13.0
84.801,1.136,3.478,12.0
19.638,0.266,0.702,12.0
19.65,0.27,0.6,14.0
19.661,0.274,0.495,14.0
19.676,0.279,0.393,13.0
19.722,0.283,0.29,13.0
121.54,1.77,5.195,23.0
19.674,0.29,0.738,3.0
19.643,0.294,0.633,13.0
19.66,0.298,0.529,11.0
19.7,0.302,0.427,9.0
19.725,0.307,0.324,2.0
121.577,1.917,5.407,23.0
121.482,1.94,4.764,7.0
19.669,0.318,0.668,3.0
19.682,0.322,0.563,2.0
55.198,0.916,1.29,17.0
55.194,0.927,1.001,47.0
55.203,0.937,2.548,50.0
55.186,0.949,2.257,67.0
55.167,0.96,1.966,71.0
55.171,0.972,1.671,72.0
55.163,0.983,1.381,72.0
55.161,0.995,1.092,68.0
55.201,1.007,2.639,57.0
55.197,1.018,2.348,52.0
55.213,1.031,2.059,40.0
55.205,1.042,1.763,22.0
55.185,1.054,1.472,6.0
179.337,3.467,3.845,17.0
121.74,2.378,6.022,26.0
121.364,2.397,5.364,25.0
121.232,2.42,4.718,20.0
135.221,2.728,4.536,20.0
134.814,2.75,3.814,18.0
185.789,3.83,4.276,9.0
129.31,2.694,6.603,10.0
121.671,2.561,5.57,13.0
121.288,2.58,4.912,19.0
121.156,2.603,4.256,7.0
135.11,2.934,4.035,20.0
135.263,2.967,3.327,9.0
129.447,2.868,6.814,10.0
121.707,2.724,5.763,9.0
121.307,2.742,5.103,12.0
121.063,2.764,4.441,22.0
115.512,2.664,3.628,3.0
98.617,2.297,2.577,69.0
129.626,3.049,7.025,14.0
121.193,2.877,5.925,17.0
129.034,3.092,5.625,8.0
113.6,2.748,4.341,15.0
114.024,2.784,3.753,8.0
99.651,2.457,2.754,11.0
134.449,3.347,7.49,10.0
114.536,2.876,5.772,13.0
45.491,1.152,2.051,6.0
45.48,1.163,1.805,55.0
0.0,0.0,0.0,0.0
0.0,0.0,0.0,0.0
40.136,2.036,3.046,0.0
40.193,2.048,2.831,112.0
43.785,2.242,2.846,150.0
0.0,0.0,0.0,0.0
0.0,0.0,0.0,0.0
0.0,0.0,0.0,0.0
0.0,0.0,0.0,0.0
40.207,2.114,2.866,101.0
0.0,0.0,0.0,0.0
0.0,0.0,0.0,0.0
200.071,10.668,10.969,6.0
0.0,0.0,0.0,0.0
0.0,0.0,0.0,0.0
40.199,2.179,2.896,110.0
0.0,0.0,0.0,0.0
45.521,2.489,2.778,3.0
0.0,0.0,0.0,0.0
0.0,0.0,0.0,0.0
0.0,0.0,0.0,0.0
40.195,2.243,2.926,113.0
41.993,2.353,2.827,149.0
45.542,2.563,2.812,34.0
0.0,0.0,0.0,0.0
0.0,0.0,0.0,0.0
0.0,0.0,0.0,0.0
40.197,2.308,2.954,108.0
0.0,0.0,0.0,0.0
45.534,2.636,2.843,93.0
0.0,0.0,0.0,0.0
0.0,0.0,0.0,0.0
0.0,0.0,0.0,0.0
40.176,2.372,2.98,63.0
0.0,0.0,0.0,0.0
0.0,0.0,0.0,0.0
0.0,0.0,0.0,0.0
204.826,12.289,10.678,5.0
0.0,0.0,0.0,0.0
40.167,2.436,3.004,32.0
0.0,0.0,0.0,0.0
0.0,0.0,0.0,0.0
0.0,0.0,0.0,0.0
204.582,12.604,10.785,8.0
0.0,0.0,0.0,0.0
40.185,2.503,3.028,7.0
41.887,2.618,2.926,2.0
0.0,0.0,0.0,0.0
0.0,0.0,0.0,0.0
204.295,12.917,10.882,7.0
99.999,6.368,8.143,17.0
99.964,6.388,7.587,21.0
40.195,2.578,2.829,87.0
45.485,2.928,2.946,55.0
99.936,6.456,5.922,33.0
99.976,6.482,5.375,33.0
99.91,6.524,8.185,36.0
99.936,6.548,7.635,32.0
40.191,2.642,2.848,107.0
43.736,2.885,2.853,123.0
99.945,6.617,5.97,34.0
99.941,6.64,5.419,35.0
99.925,6.686,8.232,36.0
99.926,6.709,7.678,34.0
40.188,2.707,2.866,112.0
0.0,0.0,0.0,0.0
45.553,3.089,2.74,150.0
99.959,6.802,5.462,31.0
99.93,6.847,8.273,33.0
99.947,6.869,7.72,38.0
40.186,2.771,2.881,106.0
0.0,0.0,0.0,0.0
0.0,0.0,0.0,0.0
99.957,6.96,5.499,31.0
99.933,7.006,8.311,34.0
99.923,7.027,7.755,32.0
40.178,2.834,2.895,119.0
0.0,0.0,0.0,0.0
43.768,3.106,2.664,146.0
45.445,3.236,2.515,15.0
99.924,7.164,8.343,34.0
99.943,7.187,7.788,32.0
40.186,2.898,2.908,117.0
41.953,3.035,2.799,102.0
0.0,0.0,0.0,0.0
45.456,3.308,2.529,150.0
99.627,7.3,8.347,4.0
99.116,7.283,7.752,3.0
40.184,2.961,2.919,134.0
41.969,3.101,2.811,98.0
41.962,3.11,2.577,94.0
43.667,3.246,2.44,100.0
99.024,7.412,8.32,36.0
99.031,7.433,7.768,52.0
40.183,3.024,2.928,138.0
40.169,3.032,2.699,150.0
41.955,3.175,2.586,101.0
43.667,3.314,2.449,143.0
99.121,7.574,8.348,1.0
0.0,0.0,0.0,0.0
40.181,3.086,2.935,117.0
40.171,3.094,2.706,150.0
0.0,0.0,0.0,0.0
41.875,3.243,2.355,97.0
94.818,7.392,8.001,17.0
94.836,7.411,7.471,21.0
40.171,3.147,2.94,112.0
40.167,3.155,2.712,150.0
41.877,3.297,2.593,126.0
41.881,3.307,2.361,119.0
94.852,7.539,8.015,11.0
94.882,7.559,7.485,8.0
40.084,3.201,2.938,13.0
40.07,3.208,2.709,62.0
40.082,3.218,2.486,102.0
40.088,3.226,2.262,107.0
98.383,7.969,8.32,5.0
98.408,7.99,7.771,6.0
40.083,3.262,2.94,97.0
40.087,3.27,2.712,150.0
40.087,3.278,2.488,139.0
40.082,3.286,2.264,125.0
97.083,8.01,8.213,12.0
97.079,8.027,7.668,12.0
40.085,3.322,2.941,96.0
40.075,3.329,2.712,150.0
40.081,3.337,2.488,130.0
40.084,3.345,2.264,104.0
87.104,7.316,7.369,3.0
87.118,7.333,6.879,4.0
40.068,3.38,2.939,75.0
40.083,3.388,2.711,150.0
40.081,3.396,2.486,81.0
40.06,3.402,2.261,40.0
87.046,7.439,7.359,30.0
87.057,7.455,6.869,45.0
87.045,7.469,6.379,66.0
87.058,7.486,5.883,91.0
87.053,7.502,5.394,79.0
87.058,7.518,4.907,63.0
87.073,7.565,7.354,11.0
87.076,7.582,6.862,9.0
87.039,7.594,6.37,28.0
87.068,7.611,5.874,6.0
87.089,7.629,5.386,4.0
87.049,7.642,4.895,2.0
82.927,7.324,6.993,2.0
82.944,7.34,6.526,4.0
82.954,7.355,6.059,4.0
82.93,7.368,5.582,5.0
82.956,7.386,5.117,7.0
82.955,7.4,4.652,7.0
82.868,7.436,6.973,23.0
82.884,7.451,6.506,37.0
82.888,7.465,6.039,44.0
82.893,7.48,5.563,61.0
82.909,7.496,5.098,105.0
82.906,7.51,4.632,100.0
82.865,7.551,6.956,15.0
82.882,7.566,6.488,12.0
82.883,7.579,6.02,11.0
82.905,7.595,5.545,9.0
82.933,7.612,5.08,10.0
82.962,7.629,4.615,7.0
82.874,7.665,6.935,2.0
83.024,7.692,6.478,3.0
82.898,7.693,5.999,52.0
83.104,7.726,5.537,1.0
0.0,0.0,0.0,0.0
85.94,8.019,4.757,4.0
85.436,8.017,7.125,12.0
85.309,8.018,6.631,10.0
82.891,7.803,5.974,150.0
85.157,8.029,5.647,10.0
85.013,8.03,5.158,10.0
84.866,8.031,4.67,9.0
84.614,8.052,7.028,11.0
84.498,8.053,6.539,10.0
82.878,7.911,5.945,53.0
84.238,8.054,5.556,10.0
84.035,8.048,5.068,9.0
83.85,8.043,4.584,10.0
83.567,8.06,6.911,8.0
83.48,8.064,6.429,9.0
82.883,8.018,5.913,35.0
83.317,8.073,5.464,10.0
83.258,8.08,4.989,8.0
83.173,8.084,4.514,5.0
75.148,7.343,6.184,2.0
75.095,7.348,5.753,3.0
75.057,7.354,5.324,3.0
75.133,7.372,4.896,4.0
75.084,7.378,4.468,3.0
75.076,7.389,4.043,5.0
75.047,7.426,6.142,10.0
75.059,7.436,5.717,13.0
75.05,7.445,5.29,16.0
75.043,7.455,4.856,17.0
75.052,7.467,4.431,21.0
75.047,7.477,4.007,25.0
75.048,7.516,6.107,48.0
75.052,7.526,5.68,54.0
75.036,7.534,5.252,53.0
75.035,7.544,4.818,54.0
75.044,7.555,4.393,45.0
75.066,7.568,3.969,33.0
75.037,7.603,6.068,92.0
75.054,7.614,5.641,8.0
75.06,7.624,5.214,7.0
75.052,7.632,4.78,7.0
75.068,7.644,4.354,6.0
75.058,7.653,3.929,11.0
75.04,7.689,6.027,89.0
75.135,7.708,5.606,2.0
75.205,7.724,5.183,1.0
75.054,7.717,4.738,1.0
0.0,0.0,0.0,0.0
75.047,7.736,3.886,2.0
70.946,7.348,5.657,3.0
70.894,7.351,5.248,3.0
70.933,7.363,4.846,4.0
70.885,7.366,4.433,4.0
70.949,7.381,4.034,4.0
70.978,7.393,3.632,5.0
70.882,7.418,5.609,10.0
70.88,7.424,5.204,10.0
70.896,7.434,4.8,10.0
70.852,7.437,4.387,12.0
70.896,7.45,3.987,16.0
70.908,7.46,3.584,18.0
70.882,7.492,5.562,64.0
70.861,7.497,5.156,83.0
70.861,7.504,4.752,105.0
70.852,7.511,4.34,120.0
70.879,7.522,3.938,124.0
70.873,7.529,3.535,97.0
70.854,7.561,5.512,20.0
70.872,7.57,5.108,19.0
70.884,7.578,4.705,18.0
70.874,7.584,4.293,19.0
70.896,7.594,3.89,16.0
70.886,7.601,3.486,16.0
70.894,7.634,5.466,5.0
70.929,7.644,5.062,4.0
70.943,7.652,4.658,5.0
70.933,7.658,4.246,5.0
70.936,7.666,3.841,5.0
70.956,7.676,3.438,5.0
70.977,7.711,5.419,1.0
70.93,7.711,5.01,1.0
70.964,7.721,4.606,2.0
70.99,7.731,4.195,1.0
71.082,7.748,3.795,1.0
71.019,7.748,3.387,1.0
73.306,8.03,5.54,9.0
73.257,8.031,5.117,9.0
73.508,8.064,4.714,8.0
73.641,8.085,4.294,10.0
73.615,8.089,3.872,11.0
73.432,8.076,3.444,11.0
72.974,8.058,5.457,10.0
72.749,8.038,5.023,10.0
72.665,8.034,4.601,6.0
72.945,8.071,4.195,8.0
73.099,8.094,3.786,10.0
73.112,8.102,3.37,10.0
72.613,8.078,5.371,10.0
72.463,8.066,4.943,11.0
72.3,8.053,4.519,8.0
72.196,8.047,4.092,5.0
72.467,8.083,3.693,9.0
72.554,8.099,3.283,9.0
72.077,8.076,5.269,9.0
72.132,8.086,4.86,11.0
72.008,8.077,4.439,8.0
71.722,8.05,4.003,7.0
71.777,8.062,3.596,3.0
72.018,8.095,3.197,6.0
71.473,8.062,5.161,4.0
71.648,8.086,4.762,8.0
71.619,8.087,4.351,9.0
71.502,8.078,3.927,8.0
71.247,8.055,3.505,4.0
71.249,8.06,3.099,1.0
70.784,8.035,5.048,7.0
70.98,8.061,4.654,6.0
71.192,8.089,4.259,9.0
71.207,8.095,3.846,8.0
71.02,8.078,3.429,8.0
70.76,8.054,3.012,7.0
70.595,8.061,4.969,9.0
70.437,8.047,4.552,5.0
70.674,8.078,4.162,8.0
70.779,8.093,3.756,9.0
70.803,8.1,3.352,9.0
70.505,8.071,2.935,6.0
70.38,8.082,4.885,11.0
70.229,8.067,4.472,7.0
70.071,8.053,4.06,3.0
70.368,8.09,3.666,5.0
70.487,8.107,3.269,9.0
56.376,6.488,2.292,1.0
70.102,8.092,4.798,7.0
70.03,8.086,4.391,7.0
69.849,8.067,3.979,6.0
69.747,8.059,3.565,3.0
70.073,8.1,3.181,4.0
56.141,6.493,2.227,6.0
63.206,7.331,4.263,0.0
63.069,7.317,3.891,0.0
69.841,8.105,3.908,1.0
69.755,8.097,3.497,0.0
0.0,0.0,0.0,0.0
55.863,6.49,2.16,4.0
63.204,7.363,4.199,2.0
63.194,7.363,3.835,2.0
63.129,7.357,3.468,2.0
63.176,7.365,3.102,2.0
63.176,7.367,2.74,2.0
55.622,6.489,2.094,4.0
63.16,7.387,4.13,4.0
63.129,7.385,3.765,4.0
63.163,7.39,3.404,6.0
63.134,7.389,3.034,4.0
55.419,6.488,2.345,1.0
55.47,6.496,2.03,7.0
63.158,7.414,4.063,5.0
63.129,7.411,3.699,6.0
63.161,7.416,3.338,6.0
63.157,7.417,2.969,6.0
55.251,6.49,2.28,5.0
55.266,6.493,1.964,6.0
63.12,7.434,3.993,7.0
63.118,7.434,3.63,7.0
63.114,7.434,3.267,8.0
63.141,7.438,2.9,7.0
55.108,6.493,2.215,7.0
55.127,6.497,1.899,10.0
63.114,7.454,3.924,13.0
63.116,7.454,3.561,10.0
63.147,7.458,3.201,11.0
63.137,7.458,2.831,9.0
54.931,6.49,2.147,10.0
55.01,6.5,1.836,11.0
63.115,7.473,3.855,18.0
63.121,7.473,3.492,21.0
63.129,7.474,3.129,17.0
63.113,7.473,2.76,13.0
54.836,6.493,2.083,14.0
54.899,6.502,1.772,12.0
63.113,7.488,3.784,25.0
63.125,7.489,3.422,27.0
63.108,7.487,3.058,26.0
63.1,7.486,2.689,6.0
54.781,6.499,2.02,13.0
54.809,6.504,1.706,13.0
63.111,7.501,3.712,27.0
63.112,7.5,3.35,33.0
63.108,7.499,2.986,30.0
54.657,6.495,2.267,9.0
54.683,6.498,1.954,12.0
54.74,6.505,1.642,11.0
63.109,7.511,3.64,46.0
63.105,7.509,3.277,35.0
63.113,7.509,2.914,33.0
54.584,6.494,2.202,11.0
54.63,6.499,1.889,11.0
54.689,6.506,1.578,11.0
63.105,7.518,3.567,55.0
63.104,7.516,3.204,43.0
63.111,7.516,2.842,36.0
54.579,6.499,2.138,12.0
54.616,6.503,1.826,13.0
54.657,6.507,1.514,11.0
63.109,7.522,3.494,57.0
63.118,7.522,3.131,54.0
63.113,7.52,2.767,33.0
54.55,6.498,2.073,14.0
54.618,6.506,1.762,14.0
54.629,6.506,1.449,13.0
63.102,7.523,3.419,65.0
63.116,7.523,3.056,58.0
63.108,7.52,2.693,13.0
54.549,6.499,2.009,14.0
54.618,6.506,1.698,14.0
54.635,6.507,1.385,12.0
63.11,7.523,3.344,65.0
63.11,7.52,2.982,44.0
54.512,6.494,2.262,7.0
54.597,6.502,1.946,13.0
54.648,6.507,1.634,12.0
54.685,6.511,1.322,12.0
63.111,7.519,3.269,53.0
63.12,7.517,2.907,38.0
54.566,6.496,2.199,11.0
54.642,6.503,1.882,12.0
54.702,6.509,1.571,12.0
54.758,6.514,1.258,11.0
63.104,7.511,3.193,33.0
63.118,7.51,2.83,30.0
54.643,6.499,2.136,13.0
54.711,6.504,1.819,13.0
54.752,6.507,1.507,11.0
54.833,6.515,1.194,12.0
63.109,7.501,3.117,25.0
63.114,7.498,2.754,15.0
54.759,6.503,2.075,14.0
54.806,6.506,1.756,14.0
54.88,6.513,1.444,12.0
54.934,6.517,1.13,12.0
63.119,7.489,3.041,20.0
54.726,6.49,2.321,3.0
54.858,6.503,2.012,13.0
54.925,6.508,1.693,13.0
54.98,6.512,1.379,11.0
55.047,6.518,1.065,12.0
63.119,7.474,2.963,13.0
54.888,6.495,2.261,5.0
54.994,6.504,1.95,12.0
55.042,6.507,1.63,9.0
55.14,6.516,1.317,11.0
55.228,6.524,1.003,12.0
63.121,7.455,2.887,9.0
55.074,6.501,2.203,9.0
55.135,6.504,1.889,12.0
55.223,6.511,1.569,11.0
55.304,6.518,1.254,12.0
55.407,6.527,0.939,12.0
63.175,7.44,2.813,6.0
55.232,6.5,2.142,11.0
55.306,6.505,1.827,8.0
55.428,6.515,1.508,13.0
55.517,6.523,1.191,14.0
55.606,6.53,0.875,12.0
63.211,7.419,2.738,2.0
55.427,6.501,2.082,6.0
55.548,6.511,1.768,11.0
55.657,6.52,1.446,13.0
55.732,6.525,1.129,13.0
55.832,6.533,0.81,12.0
55.539,6.494,2.338,2.0
55.642,6.502,2.023,7.0
55.732,6.508,1.706,12.0
55.886,6.521,1.385,15.0
55.972,6.527,1.066,14.0
56.079,6.536,0.747,12.0
55.831,6.502,2.283,3.0
55.866,6.501,1.964,11.0
56.002,6.511,1.647,13.0
56.119,6.521,1.323,15.0
56.211,6.527,1.003,12.0
56.305,6.534,0.683,13.0
56.077,6.501,2.225,7.0
56.186,6.508,1.907,12.0
56.301,6.516,1.588,10.0
56.408,6.524,1.262,10.0
56.498,6.529,0.94,12.0
56.603,6.537,0.619,10.0
56.364,6.502,2.169,3.0
56.496,6.511,1.85,11.0
56.584,6.516,1.529,11.0
56.7,6.524,1.201,10.0
56.819,6.533,0.879,11.0
56.922,6.54,0.554,7.0
56.632,6.498,2.111,2.0
56.818,6.513,1.793,8.0
56.949,6.522,1.47,10.0
57.045,6.528,1.14,12.0
57.159,6.536,0.815,7.0
57.219,6.537,0.489,6.0
57.031,6.506,2.06,6.0
57.164,6.515,1.736,8.0
57.285,6.522,1.411,11.0
57.403,6.53,1.08,9.0
57.511,6.536,0.752,11.0
57.603,6.542,0.424,4.0
57.389,6.506,2.004,11.0
57.543,6.517,1.68,10.0
57.65,6.523,1.352,9.0
57.754,6.528,1.019,8.0
57.893,6.538,0.69,8.0
57.907,6.534,0.359,2.0
57.824,6.512,1.951,7.0
57.945,6.519,1.623,9.0
58.072,6.526,1.295,11.0
58.189,6.533,0.958,12.0
58.287,6.537,0.626,8.0
58.276,6.53,0.293,1.0
58.214,6.51,1.897,7.0
58.355,6.518,1.568,9.0
58.474,6.524,1.236,10.0
58.586,6.53,0.897,7.0
58.678,6.534,0.563,6.0
58.685,6.528,0.228,1.0
58.682,6.513,1.844,9.0
58.809,6.519,1.512,9.0
58.92,6.524,1.177,8.0
59.043,6.53,0.837,11.0
59.09,6.528,0.5,6.0
46.756,5.16,0.128,9.0
59.127,6.51,1.791,6.0
59.246,6.515,1.455,5.0
59.39,6.523,1.12,6.0
59.49,6.526,0.775,6.0
59.572,6.528,0.436,1.0
46.178,5.054,0.074,20.0
59.687,6.516,1.74,7.0
59.785,6.518,1.401,6.0
59.922,6.525,1.062,5.0
60.02,6.528,0.715,3.0
60.044,6.522,0.372,1.0
45.184,4.902,0.022,20.0
60.156,6.509,1.687,5.0
60.284,6.514,1.346,3.0
60.489,6.528,1.005,3.0
60.56,6.527,0.655,5.0
60.761,6.541,0.31,0.0
42.14,4.531,-0.024,13.0
60.787,6.517,1.639,7.0
60.912,6.521,1.294,7.0
61.052,6.527,0.949,8.0
61.24,6.538,0.596,11.0
47.844,5.101,0.192,1.0
42.114,4.485,-0.07,32.0
61.391,6.517,1.588,11.0
61.557,6.525,1.242,12.0
61.73,6.533,0.892,11.0
61.909,6.543,0.535,12.0
46.832,4.943,0.138,11.0
39.4,4.153,-0.107,14.0
62.069,6.521,1.539,12.0
62.204,6.525,1.188,11.0
62.382,6.534,0.836,8.0
62.564,6.544,0.475,5.0
46.71,4.878,0.089,20.0
39.679,4.138,-0.15,15.0
62.753,6.523,1.491,11.0
62.941,6.531,1.136,12.0
63.052,6.532,0.779,12.0
63.2,6.537,0.414,3.0
45.86,4.736,0.039,20.0
39.552,4.079,-0.191,15.0
63.452,6.52,1.441,12.0
63.626,6.527,1.083,11.0
63.761,6.53,0.722,9.0
52.759,5.395,0.292,1.0
44.896,4.584,-0.006,19.0
39.293,4.005,-0.229,14.0
64.178,6.517,1.393,10.0
64.317,6.52,1.031,11.0
64.475,6.525,0.666,8.0
51.867,5.24,0.236,1.0
44.48,4.486,-0.05,18.0
38.045,3.832,-0.259,11.0
65.001,6.52,1.347,8.0
65.157,6.524,0.981,7.0
65.384,6.535,0.611,5.0
47.974,4.787,0.171,12.0
44.338,4.417,-0.093,18.0
35.611,3.541,-0.277,5.0
65.837,6.52,1.302,8.0
66.032,6.527,0.93,8.0
66.24,6.535,0.556,8.0
47.333,4.661,0.124,21.0
44.214,4.347,-0.134,3.0
34.405,3.376,-0.3,11.0
66.721,6.519,1.255,8.0
66.903,6.524,0.879,9.0
49.868,4.853,0.372,2.0
46.579,4.524,0.078,22.0
0.0,0.0,0.0,0.0
33.395,3.232,-0.322,5.0
67.65,6.518,1.21,9.0
67.923,6.531,0.829,8.0
54.017,5.183,0.353,3.0
46.184,4.422,0.035,21.0
39.985,3.821,-0.195,15.0
31.769,3.03,-0.335,9.0
68.709,6.524,1.168,9.0
68.937,6.531,0.78,7.0
53.016,5.012,0.299,1.0
45.98,4.338,-0.005,20.0
39.826,3.75,-0.23,15.0
31.402,2.95,-0.359,9.0
69.821,6.529,1.125,8.0
70.078,6.538,0.731,8.0
53.027,4.936,0.253,2.0
45.942,4.267,-0.045,20.0
39.871,3.695,-0.265,3.0
30.689,2.838,-0.378,9.0
70.926,6.528,1.082,12.0
71.134,6.531,0.682,8.0
47.629,4.363,0.187,11.0
45.791,4.185,-0.083,20.0
36.857,3.361,-0.275,6.0
29.554,2.689,-0.388,8.0
72.13,6.531,1.041,8.0
72.311,6.531,0.634,6.0
47.273,4.26,0.147,21.0
0.0,0.0,0.0,0.0
35.254,3.162,-0.291,11.0
28.939,2.59,-0.403,8.0
73.336,6.528,1.0,10.0
73.551,6.531,0.588,7.0
47.055,4.168,0.11,21.0
40.027,3.537,-0.136,31.0
34.394,3.032,-0.311,8.0
28.334,2.492,-0.416,7.0
74.547,6.52,0.96,10.0
74.719,6.519,0.54,3.0
40.111,3.49,0.063,111.0
40.036,3.475,-0.166,55.0
33.452,2.896,-0.327,10.0
27.626,2.386,-0.426,7.0
40.128,3.446,0.487,91.0
40.112,3.435,0.26,118.0
40.105,3.425,0.034,139.0
40.013,3.408,-0.195,45.0
32.145,2.73,-0.338,8.0
27.028,2.29,-0.436,7.0
40.112,3.379,0.458,108.0
40.108,3.369,0.232,126.0
40.104,3.36,0.006,137.0
39.942,3.337,-0.222,18.0
31.786,2.648,-0.356,9.0
26.458,2.198,-0.445,6.0
40.111,3.313,0.431,118.0
40.107,3.302,0.205,150.0
40.099,3.292,-0.02,103.0
0.0,0.0,0.0,0.0
31.142,2.542,-0.369,9.0
25.926,2.11,-0.453,6.0
0.0,0.0,0.0,0.0
0.0,0.0,0.0,0.0
40.133,3.227,-0.046,87.0
37.515,3.008,-0.258,6.0
30.716,2.455,-0.384,8.0
25.606,2.041,-0.464,6.0
41.904,3.319,0.396,128.0
0.0,0.0,0.0,0.0
40.25,3.167,-0.071,107.0
36.646,2.875,-0.274,6.0
30.186,2.361,-0.395,8.0
25.146,1.961,-0.47,6.0
0.0,0.0,0.0,0.0
43.644,3.369,0.142,50.0
41.935,3.226,-0.098,96.0
35.722,2.739,-0.288,9.0
29.477,2.253,-0.403,8.0
24.913,1.898,-0.48,10.0
43.696,3.307,0.363,150.0
0.0,0.0,0.0,0.0
0.0,0.0,0.0,0.0
34.855,2.611,-0.299,6.0
28.982,2.164,-0.411,7.0
24.742,1.841,-0.49,6.0
40.369,2.982,0.314,70.0
40.322,2.968,0.088,44.0
40.314,2.958,-0.137,44.0
34.815,2.545,-0.317,11.0
28.659,2.088,-0.421,7.0
24.542,1.782,-0.498,5.0
41.16,2.967,0.3,104.0
40.584,2.914,0.069,3.0
40.322,2.885,-0.157,53.0
0.0,0.0,0.0,0.0
28.204,2.003,-0.428,7.0
24.345,1.723,-0.506,5.0
42.165,2.962,0.288,128.0
42.006,2.939,0.052,9.0
40.316,2.81,-0.174,54.0
0.0,0.0,0.0,0.0
27.88,1.928,-0.435,7.0
24.239,1.67,-0.514,5.0
41.944,2.868,0.269,3.0
42.224,2.876,0.035,11.0
40.325,2.735,-0.191,45.0
33.02,2.231,-0.344,10.0
27.777,1.869,-0.445,7.0
24.231,1.624,-0.523,5.0
45.183,3.005,0.272,113.0
44.637,2.957,0.02,7.0
40.318,2.66,-0.206,36.0
0.0,0.0,0.0,0.0
27.406,1.793,-0.449,7.0
24.264,1.581,-0.532,1.0
45.174,2.919,0.256,27.0
45.175,2.906,0.004,56.0
40.246,2.578,-0.22,38.0
32.333,2.062,-0.36,10.0
27.302,1.733,-0.456,7.0
20.097,1.27,-0.448,0.0
45.207,2.834,0.242,66.0
45.191,2.82,-0.009,10.0
40.201,2.498,-0.232,27.0
32.029,1.981,-0.366,9.0
27.236,1.677,-0.463,7.0
20.019,1.227,-0.452,0.0
45.178,2.745,0.229,14.0
45.198,2.733,-0.021,6.0
40.21,2.42,-0.243,18.0
31.995,1.916,-0.374,9.0
27.351,1.63,-0.472,7.0
20.002,1.187,-0.456,1.0
45.186,2.657,0.218,17.0
45.205,2.646,-0.032,5.0
40.006,2.329,-0.251,15.0
31.772,1.84,-0.379,9.0
27.36,1.577,-0.478,6.0
19.941,1.143,-0.459,1.0
45.204,2.569,0.208,48.0
40.326,2.28,-0.037,32.0
39.997,2.25,-0.259,15.0
31.726,1.775,-0.384,9.0
26.985,1.502,-0.477,3.0
20.087,1.112,-0.466,0.0
45.183,2.478,0.2,32.0
40.322,2.199,-0.044,35.0
39.924,2.166,-0.265,15.0
31.816,1.717,-0.39,5.0
26.978,1.448,-0.48,1.0
23.395,1.248,-0.546,1.0
45.182,2.389,0.194,29.0
40.33,2.12,-0.049,36.0
40.0,2.09,-0.27,15.0
31.661,1.645,-0.392,9.0
26.982,1.394,-0.483,1.0
23.562,1.21,-0.552,46.0
45.183,2.299,0.189,50.0
40.317,2.038,-0.053,38.0
0.0,0.0,0.0,0.0
31.954,1.596,-0.398,2.0
23.635,1.173,-0.425,1.0
23.505,1.159,-0.553,13.0
23.644,1.154,0.097,31.0
23.644,1.147,-0.032,39.0
23.635,1.139,-0.163,38.0
23.633,1.132,-0.296,39.0
23.624,1.124,-0.426,40.0
23.46,1.109,-0.552,20.0
23.602,1.105,0.097,66.0
23.606,1.097,-0.032,66.0
23.603,1.09,-0.163,66.0
23.603,1.083,-0.295,70.0
23.625,1.077,-0.426,76.0
23.613,1.069,-0.556,43.0
23.605,1.057,0.097,61.0
23.611,1.05,-0.032,47.0
23.612,1.042,-0.162,41.0
23.63,1.036,-0.295,46.0
23.643,1.029,-0.425,42.0
23.463,1.014,-0.551,19.0
23.631,1.01,0.098,23.0
40.322,1.71,-0.053,14.0
40.108,1.689,-0.273,9.0
32.257,1.348,-0.4,1.0
27.379,1.136,-0.49,7.0
23.524,0.968,-0.551,19.0
40.385,1.643,0.172,150.0
40.339,1.629,-0.049,151.0
40.192,1.61,-0.27,15.0
40.402,1.606,-0.497,0.0
27.574,1.087,-0.491,7.0
23.672,0.926,-0.551,5.0
41.316,1.596,0.181,75.0
40.59,1.555,-0.044,11.0
39.887,1.515,-0.262,2.0
32.147,1.21,-0.391,0.0
27.592,1.03,-0.487,4.0
23.903,0.885,-0.553,0.0
45.001,1.645,0.205,45.0
40.133,1.454,-0.037,150.0
39.997,1.436,-0.256,27.0
40.135,1.428,-0.481,1.0
27.87,0.983,-0.486,3.0
23.974,0.838,-0.55,0.0
63.981,2.207,0.304,15.0
40.134,1.372,-0.028,150.0
40.02,1.354,-0.247,37.0
40.151,1.346,-0.472,2.0
28.235,0.937,-0.486,2.0
24.278,0.798,-0.551,1.0
40.129,1.301,0.2,150.0
40.138,1.288,-0.018,150.0
40.009,1.271,-0.237,36.0
40.197,1.265,-0.462,1.0
27.689,0.862,-0.47,7.0
24.569,0.757,-0.551,1.0
40.136,1.218,0.211,125.0
40.135,1.205,-0.007,150.0
40.038,1.189,-0.226,40.0
34.256,1.006,-0.383,1.0
28.692,0.833,-0.478,2.0
24.837,0.713,-0.549,1.0
0.0,0.0,0.0,0.0
40.131,1.122,0.005,161.0
40.035,1.106,-0.212,60.0
34.703,0.948,-0.377,1.0
29.114,0.785,-0.475,4.0
25.262,0.673,-0.55,1.0
45.521,1.193,0.27,6.0
0.0,0.0,0.0,0.0
41.867,1.07,-0.207,39.0
34.97,0.882,-0.367,1.0
29.466,0.733,-0.469,2.0
25.391,0.623,-0.542,1.0
70.844,1.711,0.448,6.0
45.55,1.084,0.04,2.0
44.005,1.033,-0.199,7.0
0.0,0.0,0.0,0.0
29.7,0.678,-0.461,1.0
25.446,0.572,-0.533,0.0
113.217,2.499,0.765,17.0
65.339,1.421,0.086,0.0
45.053,0.964,-0.184,0.0
36.373,0.767,-0.35,1.0
30.396,0.631,-0.458,0.0
28.275,0.577,-0.579,0.0
113.442,2.272,0.819,14.0
55.207,1.087,0.099,18.0
47.942,0.928,-0.173,1.0
35.888,0.683,-0.328,0.0
31.475,0.588,-0.458,0.0
29.529,0.542,-0.59,0.0
55.17,0.991,0.426,118.0
55.188,0.972,0.127,52.0
52.41,0.905,-0.162,1.0
0.0,0.0,0.0,0.0
35.88,0.595,-0.503,2.0
29.866,0.486,-0.58,0.0
160.682,2.552,1.329,12.0
0.0,0.0,0.0,0.0
19.688,0.299,-0.05,0.0
19.68,0.293,-0.158,9.0
19.663,0.286,-0.264,15.0
19.679,0.28,-0.371,15.0
19.771,0.273,0.175,22.0
84.885,1.146,0.292,9.0
19.665,0.259,-0.038,2.0
19.639,0.252,-0.146,16.0
19.646,0.245,-0.252,18.0
19.657,0.239,-0.359,17.0
19.765,0.233,0.187,27.0
19.701,0.225,0.08,7.0
19.654,0.218,-0.026,10.0
19.614,0.211,-0.133,17.0
19.649,0.205,-0.24,16.0
19.662,0.199,-0.346,14.0
19.665,0.191,0.199,14.0
19.659,0.185,0.093,12.0
19.643,0.178,-0.012,18.0
19.631,0.171,-0.12,14.0
19.673,0.165,-0.226,7.0
19.748,0.159,-0.334,0.0
19.671,0.151,0.212,18.0
19.645,0.145,0.106,15.0
19.641,0.138,0.0,14.0
19.67,0.132,-0.106,9.0
40.392,0.258,-0.436,0.0
32.219,0.195,-0.521,0.0
19.645,0.111,0.226,13.0
19.665,0.105,0.121,12.0
19.715,0.099,0.015,11.0
19.745,0.093,-0.092,14.0
19.765,0.086,-0.198,27.0
19.778,0.079,-0.305,31.0
19.631,0.072,0.241,16.0
19.711,0.066,0.136,15.0
19.747,0.059,0.03,15.0
19.764,0.053,-0.077,21.0
19.754,0.046,-0.183,9.0
19.754,0.04,-0.289,13.0
19.629,0.033,0.257,16.0
19.764,0.027,0.152,5.0
19.784,0.02,0.046,3.0
19.748,0.014,-0.061,3.0
19.815,0.007,-0.167,0.0
36.448,0.002,-0.503,0.0
19.639,-0.005,0.273,13.0
19.684,-0.011,0.168,7.0
19.701,-0.018,0.063,14.0
19.713,-0.024,-0.044,14.0
19.74,-0.031,-0.15,13.0
19.756,-0.037,-0.255,12.0
19.644,-0.043,0.29,10.0
19.687,-0.05,0.185,15.0
19.699,-0.056,0.08,14.0
19.691,-0.063,-0.026,16.0
19.714,-0.07,-0.132,16.0
19.743,-0.076,-0.237,15.0
19.676,-0.082,0.308,10.0
19.714,-0.089,0.204,16.0
19.724,-0.095,0.098,10.0
19.725,-0.101,-0.008,12.0
19.712,-0.108,-0.113,16.0
19.73,-0.114,-0.219,17.0
19.741,-0.12,0.328,0.0
19.526,-0.125,0.22,0.0
160.748,-1.085,0.955,11.0
19.78,-0.139,0.009,2.0
19.744,-0.146,-0.095,12.0
19.746,-0.152,-0.2,14.0
177.161,-1.422,3.116,13.0
169.518,-1.415,2.077,15.0
160.659,-1.393,1.112,14.0
0.0,0.0,0.0,0.0
0.0,0.0,0.0,0.0
19.777,-0.19,-0.181,0.0
19.751,-0.195,0.367,8.0
19.77,-0.202,0.262,3.0
19.746,-0.208,0.156,0.0
0.0,0.0,0.0,0.0
0.0,0.0,0.0,0.0
0.0,0.0,0.0,0.0
19.753,-0.233,0.387,9.0
19.743,-0.239,0.282,12.0
19.75,-0.245,0.177,27.0
19.734,-0.251,0.07,3.0
0.0,0.0,0.0,0.0
48.141,-0.644,-0.339,0.0
19.851,-0.271,0.41,0.0
19.784,-0.276,0.304,1.0
19.747,-0.282,0.198,14.0
19.727,-0.288,0.091,17.0
0.0,0.0,0.0,0.0
0.0,0.0,0.0,0.0
0.0,0.0,0.0,0.0
0.0,0.0,0.0,0.0
122.232,-1.972,1.365,150.0
19.787,-0.325,0.114,0.0
0.0,0.0,0.0,0.0
0.0,0.0,0.0,0.0
171.415,-2.966,3.925,5.0
170.227,-2.999,2.995,7.0
122.226,-2.19,1.503,54.0
122.161,-2.227,0.843,9.0
0.0,0.0,0.0,0.0
0.0,0.0,0.0,0.0
171.67,-3.278,4.129,4.0
170.264,-3.302,3.193,8.0
122.306,-2.41,1.646,8.0
122.222,-2.444,0.985,31.0
0.0,0.0,0.0,0.0
0.0,0.0,0.0,0.0
163.37,-3.405,4.121,4.0
170.332,-3.602,3.396,7.0
0.0,0.0,0.0,0.0
122.282,-2.658,1.131,151.0
0.0,0.0,0.0,0.0
0.0,0.0,0.0,0.0
163.332,-3.688,4.317,12.0
0.0,0.0,0.0,0.0
163.611,-3.79,2.594,4.0
122.448,-2.872,1.282,2.0
0.0,0.0,0.0,0.0
0.0,0.0,0.0,0.0
163.282,-3.966,4.518,16.0
0.0,0.0,0.0,0.0
170.484,-4.237,2.914,7.0
161.941,-4.073,1.898,19.0
160.71,-4.09,1.036,7.0
0.0,0.0,0.0,0.0
163.315,-4.241,4.725,28.0
0.0,0.0,0.0,0.0
178.161,-4.729,3.274,4.0
161.869,-4.344,2.105,27.0
160.696,-4.358,1.243,11.0
0.0,0.0,0.0,0.0
140.613,-3.887,4.251,18.0
163.527,-4.567,4.082,4.0
167.755,-4.73,3.302,10.0
161.899,-4.611,2.317,20.0
162.312,-4.669,1.468,4.0
0.0,0.0,0.0,0.0
139.854,-4.093,4.412,15.0
163.299,-4.824,4.29,6.0
168.016,-5.009,3.529,5.0
162.192,-4.881,2.537,10.0
161.956,-4.919,1.681,10.0
160.671,-4.924,0.823,5.0
139.683,-4.311,4.593,17.0
163.263,-5.084,4.51,16.0
0.0,0.0,0.0,0.0
162.205,-5.138,2.757,22.0
161.947,-5.174,1.9,34.0
160.762,-5.178,1.04,14.0
138.74,-4.5,4.751,21.0
140.379,-4.591,4.069,11.0
163.345,-5.386,3.877,16.0
162.202,-5.393,2.982,25.0
162.089,-5.433,2.129,26.0
160.742,-5.43,1.267,7.0
117.607,-3.998,4.193,12.0
140.011,-4.797,4.256,11.0
163.405,-5.642,4.109,16.0
162.184,-5.64,3.209,15.0
162.159,-5.682,2.358,16.0
162.274,-5.729,1.508,12.0
117.64,-4.177,4.361,8.0
138.656,-4.958,4.411,22.0
141.686,-5.103,3.764,5.0
162.197,-5.882,3.44,4.0
162.247,-5.925,2.589,15.0
162.065,-5.958,1.735,12.0
117.572,-4.346,4.525,19.0
138.472,-5.154,4.602,25.0
141.764,-5.312,3.968,13.0
0.0,0.0,0.0,0.0
162.271,-6.161,2.824,14.0
0.0,0.0,0.0,0.0
117.186,-4.502,4.681,23.0
116.885,-4.519,4.056,24.0
118.806,-4.623,3.5,8.0
141.735,-5.55,3.419,16.0
162.219,-6.392,3.064,15.0
101.508,-4.024,1.386,1.0
116.692,-4.65,4.835,21.0
116.99,-4.689,4.233,24.0
118.433,-4.773,3.664,23.0
141.48,-5.736,3.622,20.0
162.564,-6.63,3.31,4.0
101.556,-4.165,1.536,150.0
116.701,-4.81,5.008,18.0
117.028,-4.85,4.409,23.0
119.806,-4.994,3.887,21.0
139.959,-5.865,3.794,13.0
168.674,-7.107,3.689,3.0
102.185,-4.329,1.7,1.0
116.984,-4.979,5.198,19.0
116.305,-4.976,4.559,20.0
119.413,-5.135,4.055,13.0
139.988,-6.05,4.006,9.0
142.556,-6.194,3.334,11.0
0.0,0.0,0.0,0.0
117.545,-5.156,5.402,14.0
115.744,-5.101,4.712,24.0
117.437,-5.202,4.167,12.0
118.916,-5.293,3.585,10.0
142.408,-6.369,3.549,11.0
101.822,-4.576,2.006,1.0
114.195,-5.155,5.425,20.0
116.442,-5.281,4.922,19.0
117.384,-5.349,4.349,21.0
140.713,-6.441,4.464,17.0
150.542,-6.923,3.988,12.0
0.0,0.0,0.0,0.0
114.228,-5.298,5.606,22.0
116.023,-5.405,5.087,19.0
117.315,-5.489,4.53,21.0
117.996,-5.543,3.926,16.0
142.263,-6.713,3.992,11.0
139.359,-6.605,3.183,12.0
108.97,-5.186,5.52,17.0
116.753,-5.578,5.303,12.0
116.645,-5.595,4.687,22.0
117.808,-5.675,4.107,20.0
140.992,-6.818,4.18,26.0
163.314,-7.93,3.989,9.0
108.75,-5.301,5.681,21.0
114.859,-5.621,5.401,6.0
110.069,-5.406,4.599,13.0
109.972,-5.422,4.009,12.0
125.632,-6.218,3.924,10.0
139.336,-6.924,3.626,26.0
108.456,-5.409,5.841,10.0
109.068,-5.459,5.303,21.0
108.368,-5.444,4.703,22.0
109.49,-5.519,4.169,18.0
117.35,-5.937,3.856,21.0
139.214,-7.069,3.849,13.0
108.108,-5.511,5.999,8.0
108.504,-5.549,5.452,24.0
108.17,-5.549,4.869,22.0
109.668,-5.646,4.353,12.0
109.886,-5.676,3.788,16.0
