X,Y,Z,Reflectivity
0.0,0.0,0.0,0.0
0.0,0.0,0.0,0.0
0.0,0.0,0.0,0.0
0.0,0.0,0.0,0.0
55.253,0.864,6.201,15.0
0.0,0.0,0.0,0.0
0.0,0.0,0.0,0.0
0.0,0.0,0.0,0.0
0.0,0.0,0.0,0.0
0.0,0.0,0.0,0.0
55.236,0.927,6.198,56.0
0.0,0.0,0.0,0.0
0.0,0.0,0.0,0.0
0.0,0.0,0.0,0.0
0.0,0.0,0.0,0.0
0.0,0.0,0.0,0.0
0.0,0.0,0.0,0.0
0.0,0.0,0.0,0.0
0.0,0.0,0.0,0.0
0.0,0.0,0.0,0.0
0.0,0.0,0.0,0.0
0.0,0.0,0.0,0.0
0.0,0.0,0.0,0.0
0.0,0.0,0.0,0.0
0.0,0.0,0.0,0.0
0.0,0.0,0.0,0.0
0.0,0.0,0.0,0.0
0.0,0.0,0.0,0.0
0.0,0.0,0.0,0.0
0.0,0.0,0.0,0.0
0.0,0.0,0.0,0.0
0.0,0.0,0.0,0.0
0.0,0.0,0.0,0.0
0.0,0.0,0.0,0.0
0.0,0.0,0.0,0.0
0.0,0.0,0.0,0.0
0.0,0.0,0.0,0.0
0.0,0.0,0.0,0.0
0.0,0.0,0.0,0.0
0.0,0.0,0.0,0.0
0.0,0.0,0.0,0.0
0.0,0.0,0.0,0.0
0.0,0.0,0.0,0.0
0.0,0.0,0.0,0.0
0.0,0.0,0.0,0.0
0.0,0.0,0.0,0.0
0.0,0.0,0.0,0.0
0.0,0.0,0.0,0.0
0.0,0.0,0.0,0.0
0.0,0.0,0.0,0.0
0.0,0.0,0.0,0.0
0.0,0.0,0.0,0.0
0.0,0.0,0.0,0.0
0.0,0.0,0.0,0.0
0.0,0.0,0.0,0.0
0.0,0.0,0.0,0.0
0.0,0.0,0.0,0.0
0.0,0.0,0.0,0.0
0.0,0.0,0.0,0.0
0.0,0.0,0.0,0.0
0.0,0.0,0.0,0.0
0.0,0.0,0.0,0.0
0.0,0.0,0.0,0.0
0.0,0.0,0.0,0.0
0.0,0.0,0.0,0.0
0.0,0.0,0.0,0.0
0.0,0.0,0.0,0.0
0.0,0.0,0.0,0.0
0.0,0.0,0.0,0.0
0.0,0.0,0.0,0.0
0.0,0.0,0.0,0.0
0.0,0.0,0.0,0.0
0.0,0.0,0.0,0.0
0.0,0.0,0.0,0.0
0.0,0.0,0.0,0.0
0.0,0.0,0.0,0.0
0.0,0.0,0.0,0.0
0.0,0.0,0.0,0.0
0.0,0.0,0.0,0.0
0.0,0.0,0.0,0.0
0.0,0.0,0.0,0.0
0.0,0.0,0.0,0.0
0.0,0.0,0.0,0.0
0.0,0.0,0.0,0.0
0.0,0.0,0.0,0.0
0.0,0.0,0.0,0.0
0.0,0.0,0.0,0.0
0.0,0.0,0.0,0.0
0.0,0.0,0.0,0.0
0.0,0.0,0.0,0.0
0.0,0.0,0.0,0.0
0.0,0.0,0.0,0.0
0.0,0.0,0.0,0.0
0.0,0.0,0.0,0.0
0.0,0.0,0.0,0.0
0.0,0.0,0.0,0.0
0.0,0.0,0.0,0.0
0.0,0.0,0.0,0.0
0.0,0.0,0.0,0.0
0.0,0.0,0.0,0.0
0.0,0.0,0.0,0.0
0.0,0.0,0.0,0.0
0.0,0.0,0.0,0.0
0.0,0.0,0.0,0.0
0.0,0.0,0.0,0.0
0.0,0.0,0.0,0.0
0.0,0.0,0.0,0.0
0.0,0.0,0.0,0.0
0.0,0.0,0.0,0.0
0.0,0.0,0.0,0.0
0.0,0.0,0.0,0.0
0.0,0.0,0.0,0.0
0.0,0.0,0.0,0.0
0.0,0.0,0.0,0.0
0.0,0.0,0.0,0.0
0.0,0.0,0.0,0.0
0.0,0.0,0.0,0.0
0.0,0.0,0.0,0.0
0.0,0.0,0.0,0.0
0.0,0.0,0.0,0.0
0.0,0.0,0.0,0.0
0.0,0.0,0.0,0.0
0.0,0.0,0.0,0.0
0.0,0.0,0.0,0.0
0.0,0.0,0.0,0.0
0.0,0.0,0.0,0.0
0.0,0.0,0.0,0.0
0.0,0.0,0.0,0.0
0.0,0.0,0.0,0.0
0.0,0.0,0.0,0.0
0.0,0.0,0.0,0.0
0.0,0.0,0.0,0.0
0.0,0.0,0.0,0.0
0.0,0.0,0.0,0.0
0.0,0.0,0.0,0.0
0.0,0.0,0.0,0.0
0.0,0.0,0.0,0.0
0.0,0.0,0.0,0.0
0.0,0.0,0.0,0.0
0.0,0.0,0.0,0.0
0.0,0.0,0.0,0.0
0.0,0.0,0.0,0.0
0.0,0.0,0.0,0.0
0.0,0.0,0.0,0.0
0.0,0.0,0.0,0.0
0.0,0.0,0.0,0.0
0.0,0.0,0.0,0.0
0.0,0.0,0.0,0.0
0.0,0.0,0.0,0.0
0.0,0.0,0.0,0.0
0.0,0.0,0.0,0.0
0.0,0.0,0.0,0.0
0.0,0.0,0.0,0.0
0.0,0.0,0.0,0.0
0.0,0.0,0.0,0.0
0.0,0.0,0.0,0.0
0.0,0.0,0.0,0.0
0.0,0.0,0.0,0.0
0.0,0.0,0.0,0.0
0.0,0.0,0.0,0.0
0.0,0.0,0.0,0.0
0.0,0.0,0.0,0.0
0.0,0.0,0.0,0.0
0.0,0.0,0.0,0.0
0.0,0.0,0.0,0.0
0.0,0.0,0.0,0.0
23.673,0.99,2.278,0.0
23.513,0.992,2.92,0.0
23.477,0.992,2.779,0.0
23.539,0.996,2.65,0.0
23.55,0.998,2.512,0.0
23.522,0.998,2.373,0.0
23.557,1.001,2.24,1.0
23.547,1.009,2.897,16.0
23.546,1.01,2.76,20.0
23.545,1.011,2.623,23.0
23.529,1.012,2.482,26.0
23.568,1.015,2.35,33.0
23.574,1.017,2.214,35.0
23.545,1.024,2.868,39.0
23.556,1.025,2.732,38.0
23.558,1.027,2.596,37.0
23.55,1.027,2.456,39.0
23.554,1.029,2.319,39.0
23.554,1.03,2.183,42.0
23.529,1.037,2.837,49.0
23.523,1.038,2.699,49.0
23.527,1.039,2.563,47.0
23.528,1.04,2.424,54.0
23.535,1.042,2.288,60.0
23.53,1.043,2.152,63.0
23.525,1.05,2.807,72.0
23.523,1.051,2.669,71.0
23.516,1.052,2.532,71.0
23.524,1.053,2.394,72.0
23.535,1.055,2.258,75.0
23.541,1.056,2.123,72.0
23.523,1.063,2.776,74.0
23.524,1.064,2.639,72.0
23.516,1.064,2.501,69.0
23.532,1.066,2.364,71.0
23.538,1.067,2.228,75.0
23.539,1.068,2.092,67.0
23.527,1.075,2.745,70.0
23.518,1.076,2.607,71.0
23.518,1.076,2.47,70.0
23.52,1.077,2.331,71.0
23.537,1.079,2.196,69.0
23.54,1.08,2.06,69.0
23.517,1.086,2.712,73.0
23.527,1.087,2.575,65.0
23.521,1.087,2.438,65.0
23.523,1.088,2.299,71.0
23.537,1.089,2.164,70.0
23.536,1.09,2.027,70.0
23.525,1.097,2.68,54.0
23.529,1.097,2.543,51.0
23.541,1.099,2.407,50.0
23.532,1.099,2.266,51.0
23.534,1.099,2.13,51.0
23.537,1.1,1.994,52.0
23.54,1.107,2.647,48.0
23.536,1.108,2.509,43.0
23.542,1.108,2.373,42.0
23.547,1.108,2.234,45.0
23.55,1.109,2.098,44.0
23.552,1.11,1.962,45.0
23.543,1.116,2.614,46.0
23.546,1.116,2.477,43.0
23.549,1.117,2.34,42.0
23.555,1.117,2.201,43.0
23.562,1.118,2.065,42.0
23.561,1.118,1.928,44.0
23.554,1.124,2.58,36.0
23.557,1.125,2.443,35.0
23.555,1.125,2.306,36.0
23.567,1.125,2.167,39.0
23.574,1.126,2.031,38.0
23.572,1.126,1.894,41.0
23.547,1.131,2.544,13.0
23.539,1.131,2.406,14.0
23.551,1.131,2.27,16.0
23.544,1.131,2.13,19.0
23.553,1.131,1.994,20.0
23.565,1.132,1.858,22.0
23.539,1.137,2.507,3.0
23.553,1.137,2.371,4.0
23.548,1.137,2.233,6.0
23.543,1.137,2.094,9.0
23.566,1.138,1.959,10.0
23.567,1.137,1.822,11.0
23.553,1.143,2.473,0.0
23.552,1.142,2.335,1.0
23.557,1.142,2.198,2.0
23.555,1.142,2.058,3.0
23.573,1.143,1.923,4.0
23.585,1.143,1.787,3.0
23.537,1.146,2.434,0.0
23.573,1.148,2.3,0.0
23.573,1.147,2.162,0.0
23.532,1.145,2.019,1.0
23.6,1.148,1.888,1.0
40.183,1.954,2.982,64.0
23.564,1.151,2.399,0.0
23.522,1.149,2.258,0.0
23.626,1.153,2.13,0.0
23.559,1.149,1.984,0.0
23.599,1.151,1.851,0.0
40.196,1.959,2.92,112.0
0.0,0.0,0.0,0.0
23.524,1.151,2.22,0.0
23.453,1.147,2.077,0.0
23.557,1.151,1.946,0.0
23.602,1.153,1.813,0.0
40.193,1.963,2.854,96.0
0.0,0.0,0.0,0.0
23.59,1.156,2.187,0.0
23.522,1.152,2.044,0.0
23.611,1.155,1.912,0.0
40.177,1.965,3.021,28.0
0.0,0.0,0.0,0.0
0.0,0.0,0.0,0.0
23.555,1.155,2.146,0.0
23.499,1.151,2.004,0.0
23.541,1.152,1.868,0.0
40.211,1.967,2.958,115.0
41.974,2.052,2.844,135.0
23.566,1.156,2.245,0.0
23.295,1.142,2.084,0.0
23.47,1.149,1.962,0.0
23.567,1.153,1.831,0.0
40.2,1.965,2.89,110.0
0.0,0.0,0.0,0.0
23.587,1.156,2.208,0.0
23.579,1.154,2.069,0.0
23.527,1.151,1.928,0.0
40.163,1.963,3.053,2.0
40.171,1.961,2.82,88.0
0.0,0.0,0.0,0.0
23.585,1.154,2.167,0.0
23.525,1.15,2.025,0.0
23.588,1.151,1.892,0.0
40.168,1.958,2.985,75.0
0.0,0.0,0.0,0.0
45.543,2.216,2.856,24.0
23.556,1.149,2.124,0.0
23.584,1.149,1.989,0.0
23.588,1.148,1.852,1.0
40.195,1.954,2.918,88.0
0.0,0.0,0.0,0.0
23.589,1.144,1.438,7.0
23.562,1.146,2.084,1.0
23.562,1.144,1.946,3.0
23.572,1.143,1.81,4.0
40.167,1.945,2.846,38.0
45.569,2.204,2.965,5.0
23.582,1.139,1.397,16.0
23.555,1.14,2.042,6.0
23.571,1.139,1.906,10.0
40.201,1.941,3.017,9.0
0.0,0.0,0.0,0.0
45.547,2.192,2.885,4.0
23.607,1.134,1.358,35.0
23.563,1.135,2.002,17.0
23.56,1.133,1.864,21.0
23.585,1.132,1.729,30.0
23.58,1.13,1.589,38.0
23.59,1.129,1.453,39.0
23.593,1.127,1.316,42.0
23.574,1.129,1.962,39.0
23.583,1.127,1.825,40.0
23.578,1.125,1.687,39.0
23.582,1.123,1.548,40.0
23.582,1.121,1.412,42.0
23.59,1.12,1.275,44.0
23.57,1.121,1.92,44.0
23.569,1.119,1.783,41.0
23.573,1.117,1.646,39.0
23.569,1.114,1.506,41.0
23.564,1.112,1.369,45.0
23.58,1.111,1.233,47.0
23.564,1.112,1.878,47.0
23.567,1.109,1.741,45.0
23.562,1.107,1.603,43.0
23.559,1.105,1.464,48.0
23.558,1.102,1.327,53.0
23.56,1.1,1.191,60.0
23.551,1.101,1.835,57.0
23.552,1.099,1.698,57.0
23.548,1.096,1.561,62.0
23.558,1.094,1.422,66.0
23.563,1.092,1.285,73.0
23.559,1.09,1.149,69.0
23.558,1.091,1.793,76.0
23.553,1.088,1.656,75.0
23.545,1.085,1.518,69.0
23.565,1.083,1.38,71.0
23.567,1.081,1.244,70.0
23.575,1.079,1.107,66.0
23.551,1.079,1.751,73.0
23.559,1.077,1.614,82.0
23.553,1.074,1.477,70.0
23.567,1.072,1.339,74.0
23.561,1.069,1.202,71.0
23.564,1.066,1.065,68.0
23.563,1.067,1.71,74.0
23.561,1.064,1.573,73.0
23.558,1.061,1.435,77.0
23.56,1.058,1.296,70.0
23.568,1.056,1.16,68.0
23.566,1.053,1.024,68.0
23.558,1.053,1.667,78.0
23.56,1.05,1.53,64.0
23.562,1.047,1.393,55.0
23.572,1.045,1.255,52.0
23.574,1.042,1.118,47.0
23.577,1.039,0.981,46.0
23.571,1.039,1.625,40.0
23.582,1.036,1.489,42.0
23.579,1.033,1.352,41.0
23.582,1.03,1.213,43.0
23.59,1.028,1.077,43.0
23.588,1.025,0.94,45.0
23.585,1.024,1.584,44.0
23.595,1.021,1.448,41.0
23.601,1.018,1.311,40.0
23.614,1.016,1.172,38.0
23.612,1.013,1.036,35.0
23.618,1.01,0.899,32.0
43.777,1.87,2.862,11.0
23.587,1.004,1.405,13.0
23.608,1.002,1.269,4.0
23.554,0.996,1.127,1.0
23.619,0.996,0.993,0.0
23.57,0.991,0.855,0.0
45.564,1.913,2.897,65.0
120.91,5.059,6.987,18.0
120.925,5.042,6.286,5.0
179.889,7.476,8.29,15.0
178.871,7.408,7.207,16.0
162.638,6.712,5.613,4.0
120.428,4.963,7.442,19.0
120.808,4.96,6.765,18.0
121.119,4.954,6.079,8.0
179.477,7.314,7.95,14.0
178.656,7.256,6.881,16.0
162.579,6.579,5.321,11.0
120.579,4.869,7.237,21.0
120.862,4.863,6.552,22.0
181.027,7.255,8.764,5.0
178.979,7.145,7.611,20.0
178.85,7.112,6.57,7.0
40.39,1.6,1.25,36.0
120.866,4.777,7.038,19.0
120.934,4.76,6.342,18.0
134.581,5.277,6.279,9.0
178.932,6.987,7.293,17.0
179.095,6.965,6.265,7.0
40.667,1.575,1.187,83.0
120.933,4.671,6.829,14.0
120.951,4.652,6.129,21.0
134.541,5.152,6.039,5.0
178.603,6.812,6.966,9.0
162.666,6.177,5.403,14.0
42.05,1.589,1.154,88.0
121.002,4.561,6.621,22.0
134.256,5.038,6.568,14.0
120.132,4.487,5.181,18.0
120.467,4.48,4.487,13.0
163.124,6.038,5.133,11.0
43.647,1.608,1.121,96.0
121.081,4.447,6.414,25.0
120.345,4.398,5.677,13.0
120.197,4.371,4.975,19.0
120.598,4.364,4.282,21.0
163.415,5.887,4.858,4.0
44.971,1.612,1.077,1.0
121.099,4.324,6.203,24.0
120.039,4.265,5.454,17.0
120.206,4.249,4.767,14.0
120.755,4.247,4.079,22.0
163.306,5.714,4.572,10.0
162.402,5.654,3.61,5.0
120.904,4.19,5.984,21.0
119.938,4.133,5.241,16.0
120.201,4.121,4.558,14.0
120.906,4.123,3.875,20.0
121.411,4.117,3.19,16.0
40.123,1.353,0.823,1.0
120.483,4.044,5.755,11.0
120.186,4.011,5.046,8.0
40.109,1.331,1.452,9.0
40.121,1.323,1.217,88.0
40.113,1.316,0.985,150.0
40.121,1.309,0.754,150.0
40.123,1.302,1.848,118.0
40.123,1.294,1.616,116.0
40.117,1.286,1.384,144.0
40.106,1.278,1.149,150.0
40.123,1.27,0.917,150.0
40.114,1.262,0.686,150.0
40.136,1.255,1.781,86.0
40.114,1.247,1.548,135.0
40.113,1.238,1.316,135.0
40.116,1.231,1.081,150.0
40.124,1.223,0.85,150.0
40.114,1.215,0.619,150.0
40.123,1.207,1.713,130.0
40.113,1.199,1.481,130.0
40.115,1.191,1.25,140.0
40.125,1.183,1.015,150.0
40.114,1.174,0.783,150.0
40.127,1.166,0.552,150.0
40.123,1.158,1.647,131.0
40.122,1.149,1.415,117.0
40.103,1.14,1.183,80.0
0.0,0.0,0.0,0.0
0.0,0.0,0.0,0.0
41.917,1.166,0.508,157.0
41.917,1.156,1.651,150.0
41.918,1.148,1.409,99.0
0.0,0.0,0.0,0.0
0.0,0.0,0.0,0.0
0.0,0.0,0.0,0.0
45.492,1.206,0.477,38.0
43.71,1.149,1.65,32.0
0.0,0.0,0.0,0.0
45.489,1.176,1.193,48.0
45.466,1.165,0.926,2.0
45.522,1.156,0.665,3.0
70.727,1.782,0.627,26.0
113.938,2.844,4.119,16.0
99.69,2.466,3.029,6.0
99.67,2.442,2.454,88.0
99.108,2.407,1.861,84.0
71.004,1.708,0.925,13.0
70.796,1.687,0.514,11.0
114.266,2.696,3.948,18.0
98.584,2.303,2.839,89.0
98.606,2.28,2.272,8.0
128.886,2.95,2.215,8.0
122.263,2.772,1.399,2.0
87.029,1.953,0.496,7.0
114.175,2.533,3.766,11.0
163.417,3.588,4.449,5.0
179.193,3.893,3.849,36.0
163.413,3.51,2.554,16.0
128.596,2.734,1.272,3.0
83.434,1.753,0.345,3.0
135.36,2.809,4.254,17.0
0.0,0.0,0.0,0.0
179.319,3.638,3.576,29.0
162.846,3.264,2.296,27.0
114.051,2.26,0.954,9.0
55.199,1.08,0.144,4.0
55.177,1.064,1.649,3.0
55.207,1.051,1.333,27.0
55.19,1.038,1.016,42.0
55.158,1.024,0.693,59.0
55.16,1.01,0.376,68.0
55.164,0.997,0.06,55.0
55.183,0.982,1.567,74.0
55.17,0.968,1.249,70.0
55.168,0.954,0.933,58.0
55.179,0.94,0.61,50.0
55.18,0.927,0.294,38.0
55.179,0.913,-0.022,19.0
19.702,0.32,0.53,2.0
19.707,0.315,0.417,4.0
19.729,0.311,0.304,0.0
160.697,2.493,1.542,6.0
0.0,0.0,0.0,0.0
52.333,0.785,-0.097,0.0
19.69,0.289,0.501,12.0
19.693,0.284,0.388,14.0
19.72,0.28,0.275,12.0
19.75,0.275,0.161,9.0
0.0,0.0,0.0,0.0
19.679,0.264,-0.064,10.0
19.688,0.259,0.473,10.0
19.707,0.254,0.36,12.0
19.736,0.249,0.247,17.0
19.772,0.244,0.133,23.0
19.693,0.238,0.02,7.0
19.652,0.232,-0.092,16.0
19.711,0.227,0.445,10.0
19.732,0.222,0.333,10.0
19.756,0.217,0.22,19.0
19.699,0.211,0.105,10.0
19.655,0.206,-0.007,14.0
19.639,0.2,-0.119,16.0
19.686,0.195,0.418,9.0
19.675,0.19,0.305,9.0
19.659,0.184,0.192,12.0
19.649,0.179,0.078,12.0
19.643,0.173,-0.033,14.0
19.647,0.168,-0.146,14.0
19.628,0.162,0.39,10.0
19.634,0.157,0.278,10.0
19.649,0.151,0.166,14.0
19.626,0.146,0.052,16.0
19.663,0.141,-0.06,9.0
19.687,0.136,-0.172,2.0
19.611,0.129,0.364,12.0
19.631,0.124,0.252,10.0
19.643,0.118,0.14,14.0
19.641,0.113,0.026,12.0
19.709,0.108,-0.085,1.0
19.742,0.103,-0.198,0.0
19.614,0.096,0.339,21.0
19.628,0.091,0.227,14.0
19.679,0.085,0.115,15.0
19.754,0.08,0.001,31.0
19.763,0.074,-0.111,38.0
19.769,0.069,-0.224,46.0
19.623,0.062,0.314,13.0
19.646,0.057,0.202,12.0
19.758,0.051,0.091,14.0
19.745,0.045,-0.023,37.0
19.75,0.04,-0.136,10.0
19.751,0.034,-0.248,9.0
19.621,0.028,0.29,15.0
19.742,0.022,0.179,5.0
19.804,0.017,0.067,3.0
19.741,0.011,-0.047,6.0
0.0,0.0,0.0,0.0
0.0,0.0,0.0,0.0
19.632,-0.006,0.266,14.0
19.705,-0.012,0.155,3.0
19.71,-0.017,0.043,14.0
19.737,-0.024,-0.071,9.0
19.744,-0.029,-0.183,10.0
19.769,-0.035,-0.296,1.0
19.662,-0.041,0.244,15.0
19.701,-0.047,0.132,17.0
19.703,-0.053,0.02,16.0
19.708,-0.059,-0.093,14.0
19.739,-0.065,-0.206,15.0
19.76,-0.071,-0.318,14.0
19.707,-0.077,0.222,15.0
19.707,-0.083,0.11,14.0
19.706,-0.089,-0.001,14.0
19.698,-0.095,-0.116,16.0
19.738,-0.101,-0.228,16.0
19.747,-0.107,-0.34,15.0
19.746,-0.113,0.2,11.0
19.746,-0.119,0.088,7.0
19.753,-0.125,-0.023,8.0
19.705,-0.131,-0.137,16.0
19.732,-0.137,-0.249,16.0
19.729,-0.143,-0.361,17.0
160.749,-1.22,1.461,11.0
0.0,0.0,0.0,0.0
19.777,-0.162,-0.044,3.0
19.748,-0.168,-0.158,10.0
19.753,-0.174,-0.271,11.0
19.762,-0.181,-0.383,12.0
160.746,-1.518,1.295,15.0
0.0,0.0,0.0,0.0
0.0,0.0,0.0,0.0
41.978,-0.437,-0.381,0.0
0.0,0.0,0.0,0.0
29.541,-0.326,-0.603,0.0
19.753,-0.224,0.139,0.0
0.0,0.0,0.0,0.0
0.0,0.0,0.0,0.0
41.207,-0.507,-0.415,0.0
34.037,-0.43,-0.536,0.0
29.062,-0.377,-0.622,0.0
19.764,-0.262,0.119,24.0
0.0,0.0,0.0,0.0
0.0,0.0,0.0,0.0
0.0,0.0,0.0,0.0
32.249,-0.469,-0.539,0.0
28.34,-0.421,-0.634,0.0
19.744,-0.299,0.1,14.0
0.0,0.0,0.0,0.0
0.0,0.0,0.0,0.0
0.0,0.0,0.0,0.0
31.748,-0.523,-0.56,0.0
27.36,-0.46,-0.637,0.0
0.0,0.0,0.0,0.0
0.0,0.0,0.0,0.0
0.0,0.0,0.0,0.0
37.691,-0.682,-0.485,1.0
30.299,-0.558,-0.561,0.0
21.73,-0.407,-0.525,1.0
0.0,0.0,0.0,0.0
0.0,0.0,0.0,0.0
0.0,0.0,0.0,0.0
35.307,-0.707,-0.484,0.0
30.456,-0.62,-0.59,0.0
21.7,-0.449,-0.543,155.0
0.0,0.0,0.0,0.0
0.0,0.0,0.0,0.0
0.0,0.0,0.0,0.0
0.0,0.0,0.0,0.0
29.601,-0.661,-0.597,0.0
21.729,-0.493,-0.561,151.0
0.0,0.0,0.0,0.0
0.0,0.0,0.0,0.0
0.0,0.0,0.0,0.0
33.18,-0.795,-0.508,0.0
29.414,-0.715,-0.617,0.0
25.484,-0.628,-0.678,0.0
0.0,0.0,0.0,0.0
0.0,0.0,0.0,0.0
0.0,0.0,0.0,0.0
0.0,0.0,0.0,0.0
28.221,-0.741,-0.612,0.0
25.293,-0.673,-0.691,0.0
0.0,0.0,0.0,0.0
0.0,0.0,0.0,0.0
38.422,-1.059,-0.424,0.0
32.421,-0.904,-0.544,0.0
28.165,-0.796,-0.631,0.0
24.783,-0.709,-0.695,0.0
0.0,0.0,0.0,0.0
0.0,0.0,0.0,0.0
0.0,0.0,0.0,0.0
32.004,-0.957,-0.558,0.0
27.971,-0.846,-0.645,0.0
24.201,-0.741,-0.694,0.0
0.0,0.0,0.0,0.0
0.0,0.0,0.0,0.0
37.194,-1.173,-0.459,0.0
31.557,-1.006,-0.57,0.0
27.292,-0.88,-0.647,0.0
24.041,-0.784,-0.705,0.0
0.0,0.0,0.0,0.0
0.0,0.0,0.0,0.0
37.591,-1.26,-0.487,0.0
0.0,0.0,0.0,0.0
27.049,-0.926,-0.657,0.0
23.898,-0.827,-0.715,0.0
0.0,0.0,0.0,0.0
0.0,0.0,0.0,0.0
0.0,0.0,0.0,0.0
30.617,-1.098,-0.589,0.0
0.0,0.0,0.0,0.0
23.467,-0.859,-0.714,0.0
0.0,0.0,0.0,0.0
45.171,-1.679,-0.381,0.0
35.422,-1.329,-0.497,0.0
30.058,-1.138,-0.593,0.0
26.375,-1.008,-0.669,0.0
23.043,-0.889,-0.713,0.0
0.0,0.0,0.0,0.0
0.0,0.0,0.0,0.0
35.608,-1.407,-0.517,0.0
29.972,-1.195,-0.606,0.0
26.024,-1.047,-0.672,0.0
23.009,-0.934,-0.723,0.0
0.0,0.0,0.0,0.0
0.0,0.0,0.0,0.0
34.681,-1.44,-0.519,0.0
0.0,0.0,0.0,0.0
25.95,-1.096,-0.681,0.0
23.04,-0.981,-0.734,0.0
0.0,0.0,0.0,0.0
0.0,0.0,0.0,0.0
34.781,-1.514,-0.535,0.0
0.0,0.0,0.0,0.0
25.415,-1.125,-0.677,0.0
22.69,-1.012,-0.732,0.0
0.0,0.0,0.0,0.0
42.423,-1.917,-0.431,0.0
33.052,-1.505,-0.52,0.0
29.047,-1.333,-0.623,0.0
25.176,-1.164,-0.68,0.0
22.678,-1.057,-0.739,0.0
0.0,0.0,0.0,0.0
40.263,-1.898,-0.423,0.0
33.054,-1.571,-0.531,0.0
28.777,-1.378,-0.626,0.0
25.492,-1.23,-0.697,0.0
22.513,-1.095,-0.741,0.0
0.0,0.0,0.0,0.0
0.0,0.0,0.0,0.0
32.563,-1.613,-0.533,0.0
28.778,-1.436,-0.634,0.0
25.051,-1.259,-0.692,0.0
22.272,-1.128,-0.739,0.0
0.0,0.0,0.0,0.0
0.0,0.0,0.0,0.0
34.079,-1.755,-0.567,0.0
28.923,-1.5,-0.645,0.0
25.211,-1.317,-0.702,0.0
22.262,-1.171,-0.744,0.0
0.0,0.0,0.0,0.0
0.0,0.0,0.0,0.0
32.706,-1.749,-0.551,0.0
28.517,-1.536,-0.641,0.0
25.022,-1.357,-0.702,0.0
22.144,-1.209,-0.745,0.0
0.0,0.0,0.0,0.0
0.0,0.0,0.0,0.0
32.526,-1.804,-0.553,0.0
28.07,-1.567,-0.636,0.0
24.72,-1.389,-0.698,0.0
21.963,-1.242,-0.742,0.0
0.0,0.0,0.0,0.0
0.0,0.0,0.0,0.0
0.0,0.0,0.0,0.0
28.284,-1.634,-0.645,0.0
24.563,-1.428,-0.696,0.0
21.946,-1.284,-0.744,0.0
0.0,0.0,0.0,0.0
0.0,0.0,0.0,0.0
32.57,-1.933,-0.562,0.0
27.956,-1.669,-0.64,0.0
24.829,-1.492,-0.706,0.0
22.08,-1.335,-0.75,0.0
0.0,0.0,0.0,0.0
0.0,0.0,0.0,0.0
32.613,-1.999,-0.564,0.0
28.173,-1.737,-0.646,0.0
24.657,-1.529,-0.702,0.0
21.897,-1.366,-0.745,0.0
0.0,0.0,0.0,0.0
38.551,-2.424,-0.455,0.0
32.996,-2.086,-0.572,0.0
28.344,-1.802,-0.651,0.0
0.0,0.0,0.0,0.0
21.917,-1.41,-0.746,0.0
0.0,0.0,0.0,0.0
0.0,0.0,0.0,0.0
32.686,-2.129,-0.566,0.0
27.887,-1.826,-0.64,0.0
24.827,-1.635,-0.707,0.0
21.978,-1.456,-0.747,0.0
0.0,0.0,0.0,0.0
38.994,-2.601,-0.458,0.0
33.098,-2.219,-0.571,0.0
27.834,-1.876,-0.637,0.0
24.447,-1.657,-0.694,0.0
22.147,-1.509,-0.751,0.0
0.0,0.0,0.0,0.0
40.25,-2.761,-0.469,0.0
32.845,-2.265,-0.564,0.0
28.183,-1.954,-0.642,0.0
24.883,-1.734,-0.704,0.0
22.029,-1.543,-0.745,0.0
0.0,0.0,0.0,0.0
39.934,-2.814,-0.46,0.0
32.822,-2.325,-0.559,0.0
27.872,-1.984,-0.631,0.0
0.0,0.0,0.0,0.0
22.247,-1.6,-0.749,0.0
0.0,0.0,0.0,0.0
38.861,-2.811,-0.442,0.0
32.743,-2.379,-0.552,0.0
0.0,0.0,0.0,0.0
24.965,-1.832,-0.698,0.0
22.203,-1.637,-0.743,0.0
0.0,0.0,0.0,0.0
39.401,-2.922,-0.44,0.0
32.959,-2.456,-0.549,0.0
28.535,-2.136,-0.635,0.0
25.201,-1.896,-0.7,0.0
22.282,-1.684,-0.741,0.0
0.0,0.0,0.0,0.0
39.878,-3.031,-0.436,1.0
33.008,-2.52,-0.542,0.0
0.0,0.0,0.0,0.0
25.131,-1.936,-0.691,0.0
22.315,-1.728,-0.736,0.0
0.0,0.0,0.0,0.0
41.519,-3.23,-0.443,1.0
33.475,-2.616,-0.541,0.0
29.772,-2.337,-0.647,0.0
25.604,-2.019,-0.697,0.0
22.599,-1.789,-0.739,0.0
0.0,0.0,0.0,0.0
41.536,-3.305,-0.431,0.0
0.0,0.0,0.0,0.0
0.0,0.0,0.0,0.0
25.67,-2.069,-0.691,0.0
22.876,-1.852,-0.741,0.0
0.0,0.0,0.0,0.0
41.308,-3.36,-0.414,0.0
33.0,-2.695,-0.511,0.0
0.0,0.0,0.0,0.0
25.383,-2.09,-0.674,0.0
23.036,-1.905,-0.738,0.0
0.0,0.0,0.0,0.0
0.0,0.0,0.0,0.0
34.67,-2.892,-0.524,0.0
30.292,-2.537,-0.627,0.0
25.556,-2.149,-0.668,0.0
23.101,-1.951,-0.731,0.0
0.0,0.0,0.0,0.0
0.0,0.0,0.0,0.0
0.0,0.0,0.0,0.0
0.0,0.0,0.0,0.0
0.0,0.0,0.0,0.0
23.495,-2.024,-0.733,0.0
0.0,0.0,0.0,0.0
0.0,0.0,0.0,0.0
0.0,0.0,0.0,0.0
0.0,0.0,0.0,0.0
26.923,-2.355,-0.68,0.0
23.306,-2.047,-0.716,0.0
0.0,0.0,0.0,0.0
0.0,0.0,0.0,0.0
0.0,0.0,0.0,0.0
0.0,0.0,0.0,0.0
27.315,-2.435,-0.677,0.0
23.629,-2.114,-0.714,0.0
0.0,0.0,0.0,0.0
0.0,0.0,0.0,0.0
36.712,-3.308,-0.487,0.0
31.476,-2.847,-0.592,0.0
27.429,-2.49,-0.665,0.0
24.357,-2.219,-0.723,0.0
0.0,0.0,0.0,0.0
0.0,0.0,0.0,0.0
38.581,-3.538,-0.49,0.0
31.301,-2.881,-0.571,0.0
27.617,-2.551,-0.654,0.0
24.734,-2.292,-0.72,0.0
0.0,0.0,0.0,0.0
0.0,0.0,0.0,0.0
38.575,-3.599,-0.468,1.0
0.0,0.0,0.0,0.0
0.0,0.0,0.0,0.0
24.873,-2.344,-0.71,0.0
0.0,0.0,0.0,0.0
0.0,0.0,0.0,0.0
0.0,0.0,0.0,0.0
33.132,-3.152,-0.565,0.0
28.483,-2.719,-0.641,0.0
25.336,-2.426,-0.707,0.0
0.0,0.0,0.0,0.0
0.0,0.0,0.0,0.0
0.0,0.0,0.0,0.0
34.488,-3.333,-0.566,0.0
29.392,-2.85,-0.642,0.0
25.375,-2.468,-0.692,0.0
0.0,0.0,0.0,0.0
46.154,-4.502,-0.221,0.0
0.0,0.0,0.0,0.0
0.0,0.0,0.0,0.0
29.769,-2.93,-0.63,0.0
25.942,-2.561,-0.69,0.0
0.0,0.0,0.0,0.0
0.0,0.0,0.0,0.0
42.058,-4.176,-0.4,0.0
36.042,-3.589,-0.542,0.0
30.142,-3.01,-0.616,0.0
26.62,-2.666,-0.689,0.0
89.137,-8.927,0.18,5.0
0.0,0.0,0.0,0.0
0.0,0.0,0.0,0.0
37.011,-3.738,-0.53,0.0
30.857,-3.125,-0.608,0.0
27.299,-2.773,-0.686,0.0
100.45,-10.201,0.277,1.0
55.952,-5.697,-0.147,0.0
0.0,0.0,0.0,0.0
37.056,-3.793,-0.502,0.0
31.709,-3.255,-0.601,0.0
27.98,-2.88,-0.682,0.0
87.478,-9.003,0.309,1.0
0.0,0.0,0.0,0.0
0.0,0.0,0.0,0.0
37.306,-3.869,-0.476,0.0
0.0,0.0,0.0,0.0
0.0,0.0,0.0,0.0
86.249,-8.991,0.372,10.0
0.0,0.0,0.0,0.0
0.0,0.0,0.0,0.0
38.297,-4.021,-0.458,0.0
0.0,0.0,0.0,0.0
28.716,-3.031,-0.653,0.0
0.0,0.0,0.0,0.0
0.0,0.0,0.0,0.0
0.0,0.0,0.0,0.0
40.037,-4.255,-0.445,0.0
0.0,0.0,0.0,0.0
29.219,-3.121,-0.64,0.0
83.414,-8.908,0.5,13.0
0.0,0.0,0.0,0.0
0.0,0.0,0.0,0.0
0.0,0.0,0.0,0.0
34.335,-3.701,-0.537,0.0
29.647,-3.203,-0.624,0.0
83.339,-9.002,0.572,51.0
83.42,-9.031,0.124,4.0
0.0,0.0,0.0,0.0
0.0,0.0,0.0,0.0
36.347,-3.961,-0.536,0.0
30.463,-3.327,-0.614,0.0
107.503,-12.327,6.302,11.0
0.0,0.0,0.0,0.0
110.853,-12.662,5.291,15.0
0.0,0.0,0.0,0.0
148.775,-16.93,5.47,19.0
148.038,-16.816,4.638,25.0
107.513,-12.226,6.388,18.0
0.0,0.0,0.0,0.0
108.985,-12.343,5.288,23.0
0.0,0.0,0.0,0.0
148.731,-16.778,5.583,21.0
148.085,-16.673,4.755,27.0
49.212,-5.546,2.962,15.0
0.0,0.0,0.0,0.0
108.66,-12.195,5.355,19.0
110.734,-12.402,4.844,12.0
148.797,-16.632,5.698,22.0
148.175,-16.529,4.868,29.0
49.216,-5.496,2.999,28.0
49.306,-5.494,2.735,9.0
108.438,-12.057,5.423,20.0
110.519,-12.263,4.913,18.0
148.257,-16.415,5.783,20.0
148.078,-16.362,4.969,22.0
49.206,-5.443,3.033,4.0
49.29,-5.44,2.769,18.0
108.138,-11.908,5.483,17.0
110.613,-12.154,4.993,17.0
148.382,-16.268,5.889,20.0
108.865,-11.909,3.727,20.0
0.0,0.0,0.0,0.0
49.376,-5.394,2.807,12.0
107.844,-11.755,5.54,16.0
110.571,-12.025,5.065,9.0
111.402,-12.088,4.495,18.0
108.9,-11.79,3.8,18.0
48.683,-5.276,3.066,7.0
49.521,-5.353,2.847,21.0
107.947,-11.641,5.615,17.0
110.677,-11.907,5.141,7.0
111.338,-11.95,4.563,22.0
148.281,-15.878,5.267,16.0
48.74,-5.224,3.099,19.0
49.468,-5.289,2.875,21.0
108.239,-11.544,5.697,16.0
110.768,-11.785,5.211,15.0
111.309,-11.814,4.628,21.0
108.769,-11.517,3.927,10.0
48.644,-5.155,3.122,36.0
107.901,-11.406,6.333,16.0
108.287,-11.417,5.762,22.0
113.682,-11.956,5.413,11.0
110.56,-11.598,4.659,20.0
148.942,-15.586,5.463,20.0
48.686,-5.099,3.152,38.0
108.04,-11.285,6.402,21.0
107.917,-11.243,5.801,21.0
109.301,-11.357,5.264,18.0
111.048,-11.508,4.74,21.0
149.225,-15.426,5.551,21.0
48.769,-5.046,3.183,11.0
107.464,-11.089,6.424,23.0
108.307,-11.144,5.878,18.0
108.966,-11.182,5.303,23.0
110.649,-11.324,4.778,19.0
111.675,-11.4,4.209,13.0
107.218,-10.954,7.051,18.0
107.714,-10.974,6.491,20.0
108.316,-11.004,5.93,21.0
108.809,-11.023,5.347,10.0
108.903,-11.001,4.753,6.0
111.658,-11.249,4.26,16.0
108.517,-10.942,7.187,17.0
108.191,-10.878,6.568,19.0
108.083,-10.835,5.965,18.0
108.078,-10.804,5.359,24.0
108.758,-10.84,4.793,24.0
108.854,-10.82,4.198,7.0
108.116,-10.756,7.205,22.0
108.095,-10.722,6.606,10.0
108.005,-10.681,6.004,17.0
108.125,-10.661,5.404,10.0
108.749,-10.691,4.835,12.0
108.899,-10.675,4.242,20.0
107.879,-10.584,7.231,21.0
108.086,-10.57,6.647,11.0
108.683,-10.596,6.083,21.0
108.021,-10.498,5.438,27.0
109.655,-10.626,4.916,9.0
108.798,-10.512,4.277,15.0
106.755,-10.322,7.193,11.0
110.417,-10.642,6.828,22.0
108.832,-10.456,6.128,19.0
108.063,-10.35,5.475,31.0
109.932,-10.497,4.963,19.0
108.698,-10.347,4.307,19.0
107.089,-10.2,7.249,15.0
110.327,-10.474,6.856,18.0
108.662,-10.282,6.151,26.0
108.182,-10.204,5.514,17.0
108.066,-10.161,4.909,16.0
108.603,-10.179,4.335,24.0
106.721,-10.009,7.254,29.0
110.012,-10.283,6.866,18.0
108.574,-10.114,6.174,24.0
108.284,-10.053,5.546,18.0
107.878,-9.983,4.928,22.0
108.467,-10.006,4.355,27.0
106.865,-9.863,7.289,21.0
107.688,-9.904,6.746,14.0
108.888,-9.98,6.217,16.0
108.646,-9.924,5.588,25.0
108.037,-9.836,4.959,21.0
108.451,-9.841,4.377,24.0
106.707,-9.688,7.298,20.0
109.755,-9.929,6.897,22.0
108.819,-9.81,6.233,24.0
108.987,-9.79,5.625,22.0
107.705,-9.643,4.962,22.0
108.12,-9.647,4.381,25.0
106.721,-9.526,7.317,27.0
109.977,-9.782,6.928,8.0
109.028,-9.663,6.26,16.0
0.0,0.0,0.0,0.0
107.494,-9.459,4.966,29.0
107.965,-9.467,4.389,23.0
106.949,-9.381,7.345,21.0
107.86,-9.426,6.807,12.0
105.373,-9.174,6.062,13.0
107.09,-9.289,5.554,18.0
107.685,-9.306,4.985,25.0
108.039,-9.304,4.402,28.0
107.071,-9.222,7.363,11.0
109.509,-9.396,6.919,21.0
105.374,-9.007,6.069,13.0
107.097,-9.119,5.561,20.0
107.867,-9.151,5.0,32.0
108.186,-9.144,4.413,19.0
104.605,-8.844,7.198,18.0
105.478,-8.883,6.668,18.0
109.422,-9.179,6.306,15.0
107.022,-8.942,5.559,31.0
107.898,-8.982,5.003,27.0
108.786,-9.021,4.438,22.0
104.427,-8.661,7.185,23.0
105.227,-8.692,6.652,22.0
109.185,-8.983,6.291,22.0
107.127,-8.778,5.563,32.0
107.48,-8.771,4.981,30.0
108.399,-8.811,4.419,20.0
107.377,-8.729,7.385,7.0
105.239,-8.519,6.648,22.0
109.012,-8.789,6.275,13.0
107.361,-8.621,5.57,21.0
107.727,-8.616,4.986,29.0
108.325,-8.63,4.408,21.0
104.758,-8.344,7.196,23.0
106.746,-8.466,6.734,19.0
107.577,-8.497,6.183,20.0
108.36,-8.523,5.61,27.0
108.264,-8.481,5.0,15.0
108.054,-8.429,4.386,21.0
109.762,-8.562,7.528,4.0
106.325,-8.258,6.694,20.0
108.707,-8.406,6.234,17.0
108.413,-8.347,5.598,23.0
108.581,-8.325,4.998,21.0
107.273,-8.191,4.338,17.0
105.673,-8.065,7.23,12.0
107.875,-8.198,6.774,12.0
108.412,-8.203,6.198,18.0
107.92,-8.129,5.553,20.0
108.49,-8.138,4.975,15.0
107.628,-8.039,4.332,21.0
105.032,-7.841,7.165,27.0
107.843,-8.015,6.75,21.0
107.973,-7.989,6.15,22.0
107.744,-7.936,5.521,31.0
109.138,-8.004,4.98,33.0
107.479,-7.848,4.301,24.0
110.735,-8.082,7.528,12.0
108.919,-7.912,6.79,17.0
107.517,-7.775,6.097,22.0
107.799,-7.759,5.495,33.0
108.031,-7.74,4.901,17.0
107.583,-7.673,4.276,27.0
109.73,-7.821,7.428,21.0
107.558,-7.629,6.673,19.0
107.243,-7.57,6.05,24.0
107.689,-7.566,5.458,26.0
108.255,-7.571,4.877,28.0
107.848,-7.507,4.252,24.0
107.54,-7.478,7.244,19.0
106.737,-7.386,6.588,23.0
107.16,-7.379,6.009,20.0
107.341,-7.356,5.402,17.0
107.956,-7.363,4.825,27.0
108.012,-7.333,4.22,21.0
107.395,-7.282,7.195,19.0
106.92,-7.214,6.558,26.0
106.987,-7.182,5.958,27.0
107.282,-7.167,5.358,23.0
108.046,-7.183,4.787,33.0
109.292,-7.229,4.226,23.0
107.679,-7.115,7.17,20.0
107.444,-7.064,6.546,22.0
106.86,-6.989,5.906,19.0
107.394,-6.989,5.318,35.0
107.99,-6.992,4.738,38.0
108.948,-7.019,4.166,21.0
107.39,-6.91,7.101,26.0
107.89,-6.906,6.524,16.0
107.202,-6.827,5.875,18.0
107.621,-6.819,5.28,35.0
107.928,-6.803,4.685,31.0
108.916,-6.83,4.112,23.0
107.493,-6.73,7.056,26.0
107.998,-6.726,6.477,25.0
107.061,-6.631,5.814,27.0
107.23,-6.606,5.205,25.0
108.153,-6.627,4.638,31.0
109.251,-6.661,4.068,31.0
107.978,-6.572,7.03,25.0
108.087,-6.542,6.423,32.0
107.225,-6.455,5.765,24.0
107.278,-6.423,5.148,31.0
107.722,-6.415,4.56,31.0
109.184,-6.467,4.004,33.0
108.144,-6.394,6.979,23.0
108.114,-6.357,6.362,11.0
107.225,-6.269,5.702,23.0
107.585,-6.255,5.1,24.0
107.678,-6.227,4.494,34.0
109.5,-6.297,3.951,17.0
108.048,-6.201,6.906,13.0
107.369,-6.126,6.252,22.0
107.409,-6.094,5.645,21.0
108.123,-6.099,5.057,29.0
107.645,-6.038,4.424,24.0
109.533,-6.109,3.882,17.0
108.098,-6.014,6.839,25.0
107.226,-5.93,6.173,21.0
108.037,-5.94,5.605,20.0
108.092,-5.908,4.983,22.0
108.849,-5.914,4.4,24.0
116.99,-6.32,4.065,12.0
108.372,-5.839,6.779,20.0
108.136,-5.79,6.148,23.0
108.046,-5.751,5.529,24.0
108.09,-5.718,4.905,29.0
109.532,-5.759,4.347,13.0
117.175,-6.125,3.985,15.0
108.784,-5.67,6.725,27.0
108.089,-5.598,6.065,21.0
108.417,-5.58,5.465,26.0
108.43,-5.546,4.837,24.0
117.398,-5.968,4.57,12.0
117.672,-5.945,3.912,25.0
108.676,-5.473,6.632,17.0
112.38,-5.624,6.216,20.0
109.144,-5.427,5.416,19.0
110.125,-5.441,4.825,11.0
117.397,-5.764,4.475,18.0
117.907,-5.752,3.825,27.0
108.603,-5.281,6.538,18.0
112.44,-5.432,6.127,18.0
114.544,-5.497,5.587,20.0
116.07,-5.535,4.989,24.0
117.155,-5.551,4.368,26.0
140.82,-6.629,4.45,21.0
108.568,-5.092,6.443,10.0
112.808,-5.255,6.05,13.0
114.185,-5.284,5.472,23.0
116.415,-5.352,4.903,18.0
117.55,-5.367,4.28,24.0
118.843,-5.391,3.651,17.0
115.224,-5.207,6.735,12.0
112.971,-5.071,5.958,3.0
114.365,-5.097,5.377,8.0
115.808,-5.125,4.772,28.0
117.337,-5.158,4.166,25.0
118.735,-5.183,3.538,13.0
115.013,-4.999,6.615,20.0
114.949,-4.961,5.953,17.0
117.445,-5.032,5.411,9.0
115.897,-4.93,4.665,24.0
127.048,-5.367,4.388,14.0
118.866,-4.985,3.426,9.0
114.488,-4.779,6.471,26.0
114.377,-4.74,5.81,23.0
116.655,-4.798,5.258,22.0
115.823,-4.729,4.546,17.0
116.901,-4.738,3.92,12.0
142.161,-5.721,3.955,9.0
114.51,-4.586,6.356,25.0
114.311,-4.543,5.691,20.0
116.57,-4.597,5.135,21.0
117.28,-4.589,4.482,23.0
138.957,-5.398,4.517,13.0
142.457,-5.491,3.815,12.0
114.886,-4.406,6.256,19.0
115.465,-4.393,5.624,24.0
115.521,-4.361,4.966,16.0
117.601,-4.404,4.369,11.0
138.649,-5.153,4.357,22.0
163.367,-6.023,4.198,3.0
114.396,-4.194,6.104,21.0
115.907,-4.215,5.519,24.0
117.506,-4.238,4.92,21.0
138.285,-4.948,4.985,11.0
139.954,-4.967,4.242,12.0
163.339,-5.751,4.016,20.0
114.303,-4.001,5.97,26.0
115.854,-4.021,5.385,25.0
116.861,-4.021,4.76,24.0
117.664,-4.016,4.107,9.0
140.214,-4.746,4.09,19.0
163.364,-5.482,3.828,13.0
116.198,-3.875,5.934,10.0
117.136,-3.872,5.307,20.0
116.591,-3.821,4.613,15.0
139.576,-4.535,4.708,15.0
163.255,-5.258,4.569,20.0
162.565,-5.189,3.617,3.0
116.844,-3.703,5.824,15.0
117.018,-3.676,5.161,11.0
118.871,-3.699,4.558,20.0
139.805,-4.312,4.543,22.0
163.263,-4.991,4.368,15.0
167.956,-5.089,3.531,14.0
117.289,-3.528,5.702,27.0
117.166,-3.491,5.022,14.0
118.73,-3.504,4.405,25.0
140.175,-4.099,4.381,9.0
163.372,-4.731,4.166,6.0
167.771,-4.814,3.317,12.0
117.309,-3.339,5.553,26.0
117.521,-3.313,4.886,11.0
140.175,-3.913,5.021,17.0
140.73,-3.89,4.217,14.0
0.0,0.0,0.0,0.0
0.0,0.0,0.0,0.0
117.619,-3.16,5.413,7.0
139.861,-3.721,5.631,20.0
143.776,-3.787,4.962,4.0
163.26,-4.257,4.678,22.0
0.0,0.0,0.0,0.0
170.474,-4.352,2.922,8.0
139.072,-3.518,6.214,11.0
143.34,-3.588,5.578,6.0
162.57,-4.027,5.39,12.0
163.22,-4.001,4.456,20.0
0.0,0.0,0.0,0.0
170.304,-4.083,2.687,4.0
143.895,-3.416,6.231,4.0
140.377,-3.296,5.269,24.0
162.624,-3.776,5.166,37.0
163.373,-3.752,4.234,8.0
170.4,-3.87,3.434,11.0
0.0,0.0,0.0,0.0
190.327,-4.23,7.977,18.0
140.555,-3.086,5.078,17.0
163.146,-3.539,4.952,12.0
163.377,-3.504,4.002,3.0
170.377,-3.61,3.191,6.0
144.633,-3.027,1.874,2.0
190.417,-3.941,7.703,20.0
190.359,-3.893,6.603,18.0
163.34,-3.298,4.721,38.0
171.3,-3.414,3.945,5.0
170.293,-3.353,2.941,6.0
144.564,-2.809,1.662,8.0
190.493,-3.658,7.425,18.0
162.585,-3.08,5.397,18.0
163.343,-3.055,4.48,34.0
0.0,0.0,0.0,0.0
170.228,-3.1,2.687,8.0
144.681,-2.599,1.448,150.0
190.053,-3.368,7.121,23.0
162.598,-2.842,5.152,33.0
163.354,-2.815,4.232,9.0
0.0,0.0,0.0,0.0
163.34,-2.735,2.328,31.0
19.788,-0.326,0.168,1.0
191.617,-3.12,6.886,20.0
163.302,-2.62,4.924,9.0
0.0,0.0,0.0,0.0
173.536,-2.7,3.209,7.0
19.771,-0.302,0.251,2.0
19.747,-0.297,0.136,27.0
162.543,-2.414,5.586,15.0
163.285,-2.386,4.667,39.0
0.0,0.0,0.0,0.0
19.758,-0.279,0.333,4.0
19.752,-0.274,0.219,26.0
19.756,-0.27,0.105,19.0
162.593,-2.185,5.326,72.0
19.815,-0.261,0.534,0.0
19.762,-0.256,0.418,7.0
19.74,-0.251,0.301,11.0
19.75,-0.247,0.187,18.0
0.0,0.0,0.0,0.0
19.794,-0.238,0.616,1.0
19.766,-0.234,0.501,8.0
19.735,-0.229,0.386,10.0
19.748,-0.224,0.269,5.0
160.793,-1.794,1.267,4.0
0.0,0.0,0.0,0.0
19.76,-0.211,0.582,9.0
19.748,-0.207,0.467,9.0
19.758,-0.202,0.353,5.0
164.142,-1.649,1.971,11.0
160.736,-1.579,0.998,13.0
0.0,0.0,0.0,0.0
19.749,-0.185,0.548,8.0
19.777,-0.181,0.434,5.0
176.069,-1.574,2.852,4.0
165.282,-1.443,1.704,9.0
0.0,0.0,0.0,0.0
19.781,-0.164,-0.025,1.0
19.768,-0.159,0.515,5.0
177.182,-1.394,3.595,26.0
169.419,-1.297,2.454,12.0
160.765,-1.197,1.381,10.0
19.772,-0.143,0.055,4.0
19.76,-0.138,-0.059,10.0
19.691,-0.133,0.479,5.0
19.692,-0.129,0.365,3.0
19.702,-0.125,0.251,6.0
19.732,-0.122,0.135,9.0
19.715,-0.117,0.02,11.0
19.713,-0.113,-0.093,15.0
19.67,-0.109,0.444,9.0
19.664,-0.105,0.329,9.0
19.702,-0.101,0.216,15.0
19.697,-0.097,0.1,13.0
19.707,-0.093,-0.014,15.0
19.713,-0.089,-0.128,17.0
19.656,-0.085,0.409,10.0
19.656,-0.081,0.294,10.0
19.694,-0.078,0.181,15.0
19.692,-0.074,0.065,15.0
19.71,-0.07,-0.049,16.0
19.747,-0.066,-0.164,15.0
19.642,-0.062,0.373,10.0
19.65,-0.058,0.259,10.0
19.688,-0.054,0.145,16.0
19.689,-0.051,0.029,17.0
19.735,-0.047,-0.085,11.0
19.754,-0.043,-0.199,11.0
19.635,-0.039,0.337,12.0
19.645,-0.036,0.223,15.0
19.686,-0.032,0.109,12.0
19.707,-0.028,-0.006,13.0
19.755,-0.025,-0.121,8.0
0.0,0.0,0.0,0.0
19.631,-0.018,0.301,14.0
19.667,-0.014,0.187,10.0
19.756,-0.011,0.074,4.0
19.736,-0.007,-0.042,8.0
19.775,-0.003,-0.157,0.0
19.772,0.0,-0.272,0.0
19.63,0.003,0.265,15.0
19.79,0.006,0.152,2.0
19.758,0.009,0.037,3.0
19.75,0.013,-0.079,2.0
19.758,0.016,-0.194,6.0
19.76,0.02,-0.309,17.0
19.638,0.023,0.228,16.0
19.753,0.027,0.114,10.0
19.737,0.03,0.0,27.0
19.756,0.034,-0.116,13.0
19.763,0.037,-0.231,16.0
19.766,0.04,-0.346,14.0
19.668,0.043,0.191,10.0
19.758,0.047,0.077,25.0
19.752,0.05,-0.037,40.0
19.76,0.053,-0.154,52.0
19.785,0.057,-0.269,69.0
19.778,0.06,-0.384,43.0
19.684,0.063,0.153,12.0
19.761,0.066,0.039,32.0
19.772,0.069,-0.075,19.0
19.746,0.073,-0.192,17.0
19.763,0.076,-0.307,7.0
19.774,0.079,-0.422,2.0
19.679,0.082,0.115,13.0
19.707,0.085,0.001,8.0
19.734,0.088,-0.113,0.0
19.67,0.091,-0.229,0.0
30.869,0.147,-0.54,0.0
27.544,0.136,-0.642,0.0
19.671,0.1,0.077,13.0
19.665,0.102,-0.037,8.0
19.706,0.106,-0.152,0.0
0.0,0.0,0.0,0.0
30.175,0.171,-0.587,0.0
25.843,0.15,-0.653,0.0
19.646,0.117,0.038,15.0
19.671,0.12,-0.075,9.0
19.685,0.123,-0.19,0.0
0.0,0.0,0.0,0.0
28.599,0.186,-0.611,0.0
25.099,0.167,-0.683,0.0
19.646,0.133,0.0,16.0
19.651,0.136,-0.113,11.0
19.694,0.139,-0.228,1.0
30.765,0.222,-0.54,0.0
27.234,0.2,-0.636,0.0
23.793,0.178,-0.694,0.0
19.656,0.149,-0.038,13.0
19.657,0.152,-0.153,13.0
19.68,0.155,-0.267,5.0
19.688,0.157,-0.384,7.0
19.682,0.16,-0.499,5.0
19.705,0.163,-0.614,2.0
19.643,0.164,-0.077,15.0
19.649,0.167,-0.191,14.0
19.662,0.169,-0.306,10.0
19.666,0.172,-0.422,15.0
19.678,0.175,-0.538,11.0
19.681,0.177,-0.652,9.0
19.641,0.178,-0.116,16.0
19.659,0.181,-0.23,16.0
19.657,0.183,-0.345,13.0
19.646,0.186,-0.461,16.0
19.671,0.189,-0.577,15.0
19.672,0.191,-0.691,11.0
19.652,0.192,-0.155,17.0
19.65,0.194,-0.269,16.0
19.654,0.197,-0.384,16.0
19.651,0.199,-0.501,17.0
19.663,0.202,-0.616,17.0
19.642,0.204,-0.729,8.0
19.644,0.205,-0.195,17.0
19.652,0.207,-0.309,14.0
19.666,0.21,-0.424,22.0
19.658,0.212,-0.54,17.0
19.665,0.214,-0.655,16.0
19.515,0.215,-0.764,4.0
19.648,0.217,-0.234,18.0
19.651,0.219,-0.349,16.0
19.678,0.222,-0.464,19.0
19.657,0.224,-0.58,16.0
19.656,0.226,-0.695,11.0
19.006,0.22,-0.783,1.0
19.665,0.229,-0.274,20.0
19.649,0.231,-0.388,16.0
19.661,0.233,-0.503,16.0
19.664,0.235,-0.62,14.0
19.596,0.236,-0.732,6.0
18.36,0.223,-0.793,0.0
19.679,0.24,-0.314,14.0
19.668,0.242,-0.429,17.0
19.677,0.244,-0.544,15.0
19.681,0.246,-0.66,9.0
19.501,0.245,-0.768,2.0
17.716,0.225,-0.801,0.0
19.666,0.25,-0.354,16.0
19.676,0.252,-0.469,16.0
19.685,0.254,-0.584,10.0
19.673,0.255,-0.7,3.0
18.938,0.248,-0.785,0.0
17.12,0.225,-0.809,0.0
19.677,0.259,-0.394,16.0
19.69,0.261,-0.509,12.0
19.714,0.263,-0.625,1.0
19.578,0.263,-0.737,6.0
18.083,0.245,-0.786,0.0
16.34,0.222,-0.806,0.0
19.699,0.268,-0.435,14.0
19.706,0.27,-0.55,3.0
21.138,0.291,-0.713,0.0
19.449,0.269,-0.771,2.0
17.605,0.245,-0.801,0.0
15.834,0.222,-0.813,0.0
19.71,0.276,-0.475,6.0
23.165,0.326,-0.693,0.0
20.154,0.285,-0.721,3.0
18.824,0.268,-0.785,0.0
16.882,0.242,-0.803,0.0
15.474,0.223,-0.826,0.0
19.73,0.283,-0.516,0.0
22.209,0.321,-0.71,0.0
19.565,0.284,-0.74,5.0
18.107,0.264,-0.792,0.0
16.496,0.242,-0.818,0.0
14.969,0.22,-0.83,0.0
24.226,0.356,-0.683,1.0
21.001,0.31,-0.714,0.0
19.367,0.287,-0.772,2.0
17.511,0.26,-0.802,0.0
15.808,0.236,-0.816,0.0
14.579,0.219,-0.838,1.0
22.989,0.344,-0.694,0.0
19.856,0.298,-0.715,3.0
18.707,0.282,-0.783,0.0
16.794,0.254,-0.803,0.0
15.425,0.234,-0.828,0.0
14.212,0.217,-0.846,1.0
21.782,0.331,-0.702,0.0
19.595,0.299,-0.746,3.0
17.977,0.275,-0.789,0.0
16.406,0.252,-0.818,0.0
14.897,0.23,-0.83,0.0
13.784,0.213,-0.848,1.0
21.044,0.324,-0.721,0.0
19.272,0.298,-0.772,1.0
17.46,0.271,-0.802,0.0
15.744,0.245,-0.816,0.0
14.491,0.226,-0.836,1.0
13.456,0.21,-0.855,1.0
19.717,0.307,-0.715,3.0
18.594,0.29,-0.782,0.0
16.654,0.261,-0.798,2.0
15.315,0.24,-0.825,0.0
14.148,0.223,-0.845,1.0
13.123,0.207,-0.86,0.0
19.688,0.309,-0.753,3.0
17.951,0.282,-0.791,0.0
16.329,0.257,-0.815,0.0
14.865,0.235,-0.83,0.0
13.744,0.218,-0.848,1.0
12.779,0.203,-0.863,0.0
19.221,0.303,-0.773,2.0
17.243,0.272,-0.794,0.0
15.702,0.249,-0.815,0.0
14.462,0.23,-0.837,1.0
13.413,0.213,-0.855,1.0
12.457,0.198,-0.867,0.0
18.466,0.292,-0.78,0.0
16.666,0.264,-0.801,2.0
15.238,0.242,-0.822,0.0
14.082,0.224,-0.843,1.0
13.093,0.209,-0.86,0.0
12.189,0.194,-0.872,1.0
17.862,0.283,-0.79,0.0
16.252,0.258,-0.813,0.0
14.847,0.236,-0.83,0.0
13.697,0.218,-0.847,1.0
12.762,0.203,-0.864,0.0
11.934,0.19,-0.877,1.0
16.972,0.268,-0.783,0.0
15.681,0.248,-0.815,0.0
14.448,0.229,-0.836,1.0
13.391,0.212,-0.854,1.0
12.427,0.197,-0.865,0.0
11.68,0.185,-0.882,0.0
16.643,0.262,-0.801,2.0
15.289,0.241,-0.825,0.0
14.076,0.222,-0.841,1.0
13.073,0.206,-0.859,0.0
12.171,0.192,-0.871,1.0
11.368,0.179,-0.88,0.0
16.309,0.255,-0.816,0.0
14.785,0.231,-0.826,0.0
13.702,0.214,-0.845,1.0
12.703,0.199,-0.859,0.0
11.934,0.187,-0.877,1.0
11.073,0.173,-0.879,0.0
15.678,0.243,-0.814,0.0
14.45,0.224,-0.835,1.0
13.384,0.207,-0.851,1.0
12.437,0.193,-0.865,0.0
11.707,0.181,-0.883,0.0
10.915,0.169,-0.887,0.0
15.237,0.233,-0.821,0.0
14.098,0.216,-0.841,1.0
13.079,0.2,-0.857,0.0
12.143,0.186,-0.868,1.0
11.41,0.174,-0.882,0.0
10.738,0.164,-0.893,0.0
14.829,0.224,-0.826,0.0
13.725,0.207,-0.845,1.0
12.736,0.192,-0.858,0.0
11.954,0.18,-0.877,1.0
11.12,0.167,-0.881,0.0
10.564,0.159,-0.898,0.0
14.501,0.215,-0.835,1.0
13.397,0.199,-0.849,1.0
12.47,0.185,-0.863,0.0
11.706,0.173,-0.88,0.0
10.929,0.161,-0.886,0.0
10.342,0.153,-0.899,0.0
14.128,0.206,-0.839,0.0
13.14,0.191,-0.857,1.0
12.202,0.177,-0.867,1.0
11.46,0.166,-0.883,0.0
10.775,0.156,-0.893,0.0
10.248,0.148,-0.909,0.0
13.74,0.196,-0.841,0.0
12.819,0.182,-0.86,0.0
11.998,0.17,-0.875,2.0
11.188,0.158,-0.882,0.0
10.611,0.15,-0.899,0.0
9.964,0.14,-0.903,0.0
13.418,0.186,-0.846,1.0
12.524,0.173,-0.862,0.0
11.763,0.162,-0.879,1.0
10.997,0.152,-0.887,0.0
10.362,0.142,-0.896,0.0
9.852,0.135,-0.91,0.0
13.173,0.178,-0.854,1.0
12.247,0.165,-0.865,1.0
11.56,0.155,-0.884,0.0
10.809,0.145,-0.891,0.0
10.255,0.137,-0.905,0.0
9.601,0.128,-0.904,0.0
12.902,0.168,-0.859,0.0
12.049,0.157,-0.872,1.0
11.226,0.146,-0.878,0.0
10.658,0.138,-0.897,0.0
10.039,0.129,-0.904,0.0
9.53,0.122,-0.914,0.0
12.609,0.159,-0.861,0.0
11.792,0.148,-0.874,2.0
11.07,0.139,-0.885,0.0
10.433,0.13,-0.896,0.0
9.934,0.123,-0.911,0.0
9.36,0.116,-0.914,0.0
12.381,0.15,-0.867,0.0
11.629,0.14,-0.882,1.0
10.889,0.131,-0.889,0.0
10.294,0.123,-0.902,0.0
9.709,0.115,-0.907,0.0
9.255,0.11,-0.919,0.0
12.102,0.14,-0.867,1.0
11.37,0.131,-0.881,0.0
10.72,0.123,-0.893,0.0
10.115,0.115,-0.903,0.0
9.613,0.109,-0.914,0.0
9.058,0.102,-0.915,0.0
11.871,0.131,-0.87,1.0
11.184,0.123,-0.885,0.0
10.556,0.115,-0.897,0.0
9.874,0.107,-0.898,0.0
9.417,0.102,-0.911,0.0
8.893,0.095,-0.913,0.0
11.719,0.122,-0.878,1.0
11.009,0.114,-0.889,0.0
10.368,0.107,-0.898,0.0
9.814,0.101,-0.908,0.0
9.291,0.094,-0.914,0.0
8.822,0.089,-0.92,0.0
11.507,0.113,-0.881,0.0
10.83,0.106,-0.892,1.0
10.219,0.099,-0.901,0.0
9.653,0.093,-0.909,0.0
9.207,0.088,-0.92,0.0
8.719,0.082,-0.923,0.0
11.312,0.104,-0.884,0.0
10.682,0.097,-0.896,0.0
10.027,0.09,-0.9,0.0
9.529,0.085,-0.912,0.0
9.027,0.08,-0.916,0.0
8.607,0.075,-0.924,0.0
11.122,0.094,-0.886,0.0
10.493,0.088,-0.897,0.0
9.892,0.082,-0.903,0.0
9.366,0.077,-0.911,0.0
8.896,0.072,-0.917,0.0
8.518,0.069,-0.928,0.0
10.985,0.085,-0.891,0.0
10.351,0.08,-0.9,0.0
9.742,0.074,-0.904,0.0
9.251,0.07,-0.913,0.0
8.801,0.065,-0.92,0.0
8.381,0.061,-0.925,0.0
10.795,0.076,-0.892,0.0
10.196,0.071,-0.902,0.0
9.612,0.066,-0.906,0.0
9.154,0.062,-0.917,0.0
8.7,0.058,-0.922,0.0
8.309,0.055,-0.93,0.0
10.669,0.067,-0.897,0.0
10.047,0.062,-0.903,0.0
9.554,0.058,-0.914,0.0
9.007,0.054,-0.915,0.0
8.602,0.051,-0.924,0.0
8.188,0.047,-0.928,0.0
10.494,0.058,-0.897,0.0
9.912,0.053,-0.905,0.0
9.4,0.05,-0.913,0.0
8.919,0.046,-0.919,0.0
8.51,0.043,-0.926,0.0
8.137,0.04,-0.933,0.0
10.367,0.049,-0.9,0.0
9.757,0.045,-0.904,0.0
9.212,0.041,-0.907,0.0
8.811,0.038,-0.92,0.0
8.404,0.036,-0.926,0.0
8.033,0.033,-0.932,0.0
10.242,0.039,-0.903,0.0
9.645,0.036,-0.906,0.0
9.133,0.033,-0.911,0.0
8.705,0.03,-0.92,0.0
8.314,0.028,-0.927,0.0
7.974,0.026,-0.936,0.0
10.108,0.03,-0.904,0.0
9.611,0.027,-0.916,0.0
9.035,0.025,-0.913,0.0
8.622,0.023,-0.923,0.0
8.224,0.021,-0.928,0.0
7.898,0.019,-0.937,0.0
9.982,0.021,-0.906,0.0
9.443,0.019,-0.912,0.0
8.98,0.016,-0.919,0.0
8.567,0.015,-0.927,0.0
8.162,0.013,-0.931,0.0
7.81,0.011,-0.937,0.0
9.829,0.011,-0.904,0.0
9.327,0.01,-0.912,0.0
8.854,0.008,-0.917,0.0
8.457,0.007,-0.926,0.0
8.079,0.005,-0.931,0.0
7.754,0.004,-0.939,0.0
9.712,0.002,-0.905,0.0
9.257,0.001,-0.916,0.0
8.763,0.0,-0.918,0.0
8.353,0.0,-0.924,0.0
8.014,-0.001,-0.933,0.0
7.682,-0.002,-0.939,0.0
9.642,-0.006,-0.909,0.0
9.113,-0.007,-0.912,0.0
8.688,-0.008,-0.92,0.0
8.299,-0.009,-0.928,0.0
7.955,-0.009,-0.936,0.0
7.608,-0.01,-0.939,0.0
9.566,-0.015,-0.913,0.0
9.061,-0.016,-0.917,0.0
8.61,-0.016,-0.921,0.0
8.234,-0.017,-0.929,0.0
7.882,-0.017,-0.935,0.0
7.557,-0.017,-0.941,0.0
9.428,-0.024,-0.909,0.0
8.957,-0.024,-0.916,0.0
8.541,-0.024,-0.923,0.0
8.165,-0.025,-0.93,0.0
7.813,-0.025,-0.936,0.0
7.509,-0.025,-0.943,0.0
9.357,-0.034,-0.912,0.0
8.846,-0.033,-0.913,0.0
8.463,-0.033,-0.923,0.0
8.098,-0.033,-0.931,0.0
7.771,-0.032,-0.938,0.0
7.462,-0.032,-0.944,0.0
9.311,-0.043,-0.917,0.0
8.805,-0.042,-0.918,0.0
8.38,-0.041,-0.922,0.0
8.063,-0.041,-0.935,0.0
7.706,-0.04,-0.938,0.0
7.41,-0.04,-0.945,0.0
9.218,-0.052,-0.916,0.0
8.75,-0.051,-0.92,0.0
8.348,-0.05,-0.926,0.0
7.987,-0.049,-0.933,0.0
7.676,-0.048,-0.941,0.0
7.341,-0.047,-0.943,0.0
9.137,-0.061,-0.917,0.0
8.663,-0.059,-0.919,0.0
8.296,-0.058,-0.928,0.0
7.942,-0.057,-0.935,0.0
7.614,-0.056,-0.94,0.0
7.304,-0.055,-0.945,0.0
9.066,-0.07,-0.917,0.0
8.597,-0.068,-0.919,0.0
8.228,-0.067,-0.927,0.0
7.878,-0.065,-0.934,0.0
7.574,-0.064,-0.942,0.0
7.275,-0.062,-0.947,0.0
8.981,-0.08,-0.916,0.0
8.53,-0.077,-0.919,0.0
8.164,-0.075,-0.926,0.0
7.835,-0.073,-0.935,0.0
7.518,-0.072,-0.941,0.0
7.234,-0.07,-0.947,0.0
8.896,-0.089,-0.914,0.0
8.492,-0.086,-0.921,0.0
8.121,-0.084,-0.928,0.0
7.796,-0.082,-0.936,0.0
7.473,-0.08,-0.941,0.0
7.199,-0.078,-0.948,0.0
8.868,-0.098,-0.918,0.0
8.433,-0.095,-0.921,0.0
8.081,-0.092,-0.929,0.0
7.747,-0.09,-0.936,0.0
7.459,-0.088,-0.944,0.0
7.157,-0.085,-0.948,0.0
8.789,-0.107,-0.916,0.0
8.388,-0.104,-0.922,0.0
8.037,-0.101,-0.929,0.0
7.714,-0.098,-0.937,0.0
7.412,-0.096,-0.943,0.0
7.123,-0.093,-0.948,0.0
8.767,-0.117,-0.919,0.0
8.378,-0.113,-0.926,0.0
7.998,-0.109,-0.93,0.0
7.696,-0.107,-0.94,0.0
7.37,-0.103,-0.942,0.0
7.129,-0.101,-0.953,0.0
8.703,-0.126,-0.917,0.0
8.322,-0.122,-0.925,0.0
7.987,-0.118,-0.933,0.0
7.645,-0.115,-0.938,0.0
7.317,-0.111,-0.94,0.0
7.098,-0.109,-0.953,0.0
8.659,-0.135,-0.918,0.0
8.303,-0.131,-0.927,0.0
7.957,-0.127,-0.934,0.0
7.618,-0.123,-0.939,0.0
7.309,-0.12,-0.943,0.0
7.053,-0.117,-0.95,0.0
8.639,-0.145,-0.92,0.0
8.282,-0.14,-0.929,0.0
7.925,-0.136,-0.934,0.0
7.583,-0.131,-0.938,0.0
7.273,-0.127,-0.942,0.0
7.047,-0.125,-0.953,0.0
8.625,-0.155,-0.922,0.0
8.249,-0.149,-0.929,0.0
7.897,-0.145,-0.935,0.0
7.562,-0.14,-0.939,0.0
7.275,-0.136,-0.945,0.0
6.972,-0.132,-0.946,0.0
8.606,-0.164,-0.924,0.0
8.222,-0.158,-0.93,0.0
7.876,-0.153,-0.935,0.0
7.526,-0.148,-0.937,0.0
7.264,-0.144,-0.947,0.0
6.993,-0.14,-0.951,0.0
8.594,-0.174,-0.926,0.0
8.171,-0.167,-0.927,0.0
7.872,-0.163,-0.938,0.0
7.542,-0.157,-0.942,0.0
7.269,-0.153,-0.95,0.0
6.94,-0.147,-0.947,0.0
8.579,-0.184,-0.927,0.0
8.155,-0.176,-0.927,0.0
7.839,-0.171,-0.936,0.0
7.534,-0.166,-0.943,0.0
7.263,-0.161,-0.951,0.0
6.939,-0.156,-0.948,0.0
8.561,-0.193,-0.927,0.0
8.152,-0.186,-0.929,0.0
7.821,-0.18,-0.936,0.0
7.512,-0.174,-0.943,0.0
7.204,-0.169,-0.945,0.0
6.962,-0.164,-0.953,0.0
8.505,-0.202,-0.923,0.0
8.139,-0.195,-0.93,0.0
7.819,-0.189,-0.938,0.0
7.483,-0.182,-0.941,0.0
7.208,-0.177,-0.947,0.0
6.934,-0.172,-0.951,0.0
8.499,-0.212,-0.924,0.0
8.152,-0.205,-0.933,0.0
7.816,-0.198,-0.938,0.0
7.471,-0.191,-0.94,0.0
7.18,-0.185,-0.945,0.0
6.941,-0.18,-0.953,0.0
8.471,-0.221,-0.922,0.0
8.126,-0.214,-0.931,0.0
7.798,-0.207,-0.937,0.0
7.475,-0.2,-0.942,0.0
7.199,-0.194,-0.948,0.0
6.931,-0.188,-0.952,0.0
8.483,-0.231,-0.925,0.0
8.113,-0.223,-0.93,0.0
7.784,-0.215,-0.936,0.0
7.458,-0.208,-0.94,0.0
7.207,-0.203,-0.95,0.0
6.932,-0.196,-0.953,0.0
8.487,-0.241,-0.925,0.0
8.115,-0.232,-0.931,0.0
7.753,-0.224,-0.933,0.0
7.48,-0.217,-0.943,0.0
7.198,-0.211,-0.948,0.0
6.937,-0.204,-0.953,0.0
8.49,-0.251,-0.926,0.0
8.119,-0.242,-0.931,0.0
7.799,-0.234,-0.938,0.0
7.484,-0.226,-0.943,0.0
7.208,-0.219,-0.95,0.0
6.977,-0.214,-0.959,0.0
8.505,-0.261,-0.927,0.0
8.132,-0.252,-0.932,0.0
7.772,-0.242,-0.935,0.0
7.478,-0.234,-0.942,0.0
7.221,-0.228,-0.951,0.0
6.951,-0.221,-0.955,0.0
8.501,-0.271,-0.926,0.0
8.153,-0.262,-0.934,0.0
7.789,-0.252,-0.936,0.0
7.479,-0.243,-0.942,0.0
7.244,-0.237,-0.953,0.0
6.929,-0.228,-0.951,0.0
8.52,-0.281,-0.927,0.0
8.169,-0.271,-0.934,0.0
7.814,-0.261,-0.938,0.0
7.497,-0.252,-0.943,0.0
7.224,-0.244,-0.949,0.0
6.952,-0.237,-0.953,0.0
8.525,-0.291,-0.926,0.0
8.184,-0.281,-0.935,0.0
7.84,-0.271,-0.939,0.0
7.515,-0.261,-0.943,0.0
7.258,-0.254,-0.952,0.0
6.995,-0.246,-0.957,0.0
8.554,-0.301,-0.927,0.0
8.169,-0.289,-0.931,0.0
7.864,-0.28,-0.94,0.0
7.548,-0.271,-0.946,0.0
7.236,-0.261,-0.947,0.0
6.98,-0.253,-0.953,0.0
8.578,-0.312,-0.927,0.0
8.197,-0.299,-0.932,0.0
7.886,-0.29,-0.941,0.0
7.541,-0.279,-0.943,0.0
7.255,-0.27,-0.948,0.0
6.976,-0.261,-0.95,0.0
8.59,-0.321,-0.926,0.0
8.215,-0.309,-0.931,0.0
7.888,-0.298,-0.938,0.0
7.55,-0.287,-0.941,0.0
7.267,-0.278,-0.947,0.0
7.027,-0.27,-0.955,0.0
8.608,-0.331,-0.925,0.0
8.261,-0.32,-0.934,0.0
7.918,-0.308,-0.939,0.0
7.568,-0.296,-0.941,0.0
7.303,-0.287,-0.948,0.0
7.037,-0.278,-0.953,0.0
8.629,-0.341,-0.924,0.0
8.286,-0.329,-0.933,0.0
7.937,-0.317,-0.938,0.0
7.61,-0.306,-0.942,0.0
7.35,-0.297,-0.951,0.0
7.043,-0.286,-0.951,0.0
8.662,-0.352,-0.923,0.0
8.299,-0.339,-0.931,0.0
7.919,-0.325,-0.932,0.0
7.607,-0.314,-0.939,0.0
7.371,-0.305,-0.951,0.0
7.072,-0.294,-0.952,0.0
8.708,-0.362,-0.924,0.0
8.341,-0.349,-0.931,0.0
7.987,-0.336,-0.936,0.0
7.665,-0.324,-0.942,0.0
7.389,-0.314,-0.949,0.0
7.071,-0.302,-0.948,0.0
8.737,-0.373,-0.922,0.0
8.386,-0.359,-0.932,0.0
8.017,-0.345,-0.935,0.0
7.697,-0.333,-0.941,0.0
7.383,-0.321,-0.944,0.0
7.117,-0.311,-0.95,0.0
12.832,-0.776,-0.873,0.0
12.088,-0.732,-0.886,0.0
11.437,-0.692,-0.899,0.0
10.855,-0.658,-0.911,0.0
10.249,-0.621,-0.915,0.0
9.778,-0.593,-0.925,0.0
13.086,-0.791,-0.87,0.0
12.337,-0.746,-0.885,0.0
11.651,-0.704,-0.897,0.0
11.04,-0.668,-0.909,0.0
10.453,-0.632,-0.916,0.0
9.91,-0.6,-0.921,0.0
13.248,-0.799,-0.86,0.0
12.505,-0.755,-0.877,0.0
11.848,-0.715,-0.893,0.0
11.112,-0.671,-0.897,0.0
10.582,-0.639,-0.91,0.0
10.062,-0.608,-0.919,0.0
13.588,-0.818,-0.86,0.0
12.757,-0.768,-0.874,0.0
12.037,-0.724,-0.888,0.0
11.408,-0.687,-0.903,0.0
10.791,-0.65,-0.911,0.0
10.213,-0.615,-0.916,0.0
13.962,-0.838,-0.861,0.0
13.011,-0.781,-0.871,0.0
12.279,-0.737,-0.886,0.0
11.568,-0.694,-0.897,0.0
11.016,-0.661,-0.912,0.0
10.415,-0.625,-0.917,0.0
14.388,-0.86,-0.864,0.0
13.208,-0.789,-0.862,0.0
12.46,-0.744,-0.878,0.0
11.823,-0.706,-0.897,0.0
11.148,-0.666,-0.904,0.0
10.558,-0.63,-0.912,0.0
14.62,-0.87,-0.854,0.0
13.504,-0.803,-0.859,0.0
12.729,-0.757,-0.876,0.0
12.003,-0.713,-0.891,0.0
11.336,-0.673,-0.901,0.0
10.773,-0.64,-0.913,0.0
14.965,-0.886,-0.849,0.0
13.852,-0.819,-0.858,0.0
12.963,-0.766,-0.871,0.0
12.243,-0.723,-0.888,0.0
11.598,-0.685,-0.902,0.0
11.001,-0.649,-0.914,0.0
15.404,-0.906,-0.848,0.0
14.389,-0.846,-0.867,0.0
13.223,-0.777,-0.866,0.0
12.43,-0.73,-0.881,0.0
11.808,-0.693,-0.899,0.0
11.132,-0.653,-0.906,0.0
15.86,-0.927,-0.847,0.0
14.578,-0.851,-0.854,0.0
13.478,-0.786,-0.86,0.0
12.714,-0.741,-0.88,0.0
12.013,-0.7,-0.894,0.0
11.354,-0.661,-0.905,0.0
16.21,-0.94,-0.838,0.0
14.981,-0.868,-0.853,0.0
13.853,-0.802,-0.861,0.0
12.963,-0.75,-0.875,0.0
12.212,-0.705,-0.888,0.0
11.594,-0.669,-0.904,0.0
16.774,-0.965,-0.839,0.0
15.264,-0.877,-0.843,0.0
14.361,-0.824,-0.868,0.0
13.206,-0.757,-0.869,0.0
12.427,-0.711,-0.883,0.0
11.751,-0.672,-0.896,0.0
17.144,-0.977,-0.829,0.0
15.784,-0.898,-0.845,0.0
14.605,-0.83,-0.858,0.0
13.465,-0.765,-0.863,0.0
12.705,-0.72,-0.881,0.0
11.991,-0.679,-0.894,0.0
17.618,-0.994,-0.822,0.0
16.275,-0.917,-0.844,0.0
14.976,-0.843,-0.855,0.0
13.854,-0.778,-0.864,0.0
