X,Y,Z,Reflectivity
0.0,0.0,0.0,0.0
0.0,0.0,0.0,0.0
192.538,-3.338,8.867,17.0
191.779,-3.327,7.841,20.0
190.715,-3.312,6.812,15.0
0.0,0.0,0.0,0.0
0.0,0.0,0.0,0.0
0.0,0.0,0.0,0.0
0.0,0.0,0.0,0.0
192.166,-3.372,8.239,16.0
191.244,-3.358,7.213,17.0
0.0,0.0,0.0,0.0
0.0,0.0,0.0,0.0
0.0,0.0,0.0,0.0
0.0,0.0,0.0,0.0
192.387,-3.407,8.629,19.0
191.756,-3.397,7.61,14.0
0.0,0.0,0.0,0.0
0.0,0.0,0.0,0.0
0.0,0.0,0.0,0.0
0.0,0.0,0.0,0.0
192.42,-3.433,9.014,5.0
191.862,-3.421,7.993,16.0
0.0,0.0,0.0,0.0
0.0,0.0,0.0,0.0
0.0,0.0,0.0,0.0
0.0,0.0,0.0,0.0
0.0,0.0,0.0,0.0
191.951,-3.439,8.378,18.0
0.0,0.0,0.0,0.0
0.0,0.0,0.0,0.0
0.0,0.0,0.0,0.0
0.0,0.0,0.0,0.0
0.0,0.0,0.0,0.0
192.204,-3.451,8.764,17.0
0.0,0.0,0.0,0.0
0.0,0.0,0.0,0.0
0.0,0.0,0.0,0.0
0.0,0.0,0.0,0.0
0.0,0.0,0.0,0.0
0.0,0.0,0.0,0.0
0.0,0.0,0.0,0.0
0.0,0.0,0.0,0.0
0.0,0.0,0.0,0.0
0.0,0.0,0.0,0.0
0.0,0.0,0.0,0.0
0.0,0.0,0.0,0.0
0.0,0.0,0.0,0.0
0.0,0.0,0.0,0.0
0.0,0.0,0.0,0.0
0.0,0.0,0.0,0.0
0.0,0.0,0.0,0.0
0.0,0.0,0.0,0.0
0.0,0.0,0.0,0.0
0.0,0.0,0.0,0.0
0.0,0.0,0.0,0.0
0.0,0.0,0.0,0.0
0.0,0.0,0.0,0.0
0.0,0.0,0.0,0.0
0.0,0.0,0.0,0.0
0.0,0.0,0.0,0.0
0.0,0.0,0.0,0.0
0.0,0.0,0.0,0.0
0.0,0.0,0.0,0.0
0.0,0.0,0.0,0.0
0.0,0.0,0.0,0.0
0.0,0.0,0.0,0.0
0.0,0.0,0.0,0.0
0.0,0.0,0.0,0.0
0.0,0.0,0.0,0.0
0.0,0.0,0.0,0.0
0.0,0.0,0.0,0.0
0.0,0.0,0.0,0.0
0.0,0.0,0.0,0.0
0.0,0.0,0.0,0.0
0.0,0.0,0.0,0.0
189.858,-3.262,11.191,4.0
0.0,0.0,0.0,0.0
0.0,0.0,0.0,0.0
0.0,0.0,0.0,0.0
0.0,0.0,0.0,0.0
0.0,0.0,0.0,0.0
189.984,-3.217,11.547,6.0
0.0,0.0,0.0,0.0
0.0,0.0,0.0,0.0
0.0,0.0,0.0,0.0
0.0,0.0,0.0,0.0
0.0,0.0,0.0,0.0
0.0,0.0,0.0,0.0
0.0,0.0,0.0,0.0
0.0,0.0,0.0,0.0
0.0,0.0,0.0,0.0
0.0,0.0,0.0,0.0
0.0,0.0,0.0,0.0
0.0,0.0,0.0,0.0
0.0,0.0,0.0,0.0
0.0,0.0,0.0,0.0
55.256,0.541,6.778,1.0
0.0,0.0,0.0,0.0
0.0,0.0,0.0,0.0
0.0,0.0,0.0,0.0
0.0,0.0,0.0,0.0
0.0,0.0,0.0,0.0
0.0,0.0,0.0,0.0
55.235,0.614,6.498,2.0
0.0,0.0,0.0,0.0
0.0,0.0,0.0,0.0
0.0,0.0,0.0,0.0
0.0,0.0,0.0,0.0
0.0,0.0,0.0,0.0
55.237,0.677,6.529,30.0
0.0,0.0,0.0,0.0
0.0,0.0,0.0,0.0
0.0,0.0,0.0,0.0
0.0,0.0,0.0,0.0
0.0,0.0,0.0,0.0
55.226,0.74,6.556,21.0
0.0,0.0,0.0,0.0
0.0,0.0,0.0,0.0
0.0,0.0,0.0,0.0
0.0,0.0,0.0,0.0
0.0,0.0,0.0,0.0
0.0,0.0,0.0,0.0
55.247,0.814,6.277,7.0
0.0,0.0,0.0,0.0
0.0,0.0,0.0,0.0
0.0,0.0,0.0,0.0
0.0,0.0,0.0,0.0
0.0,0.0,0.0,0.0
55.232,0.878,6.298,56.0
55.232,0.889,5.991,0.0
0.0,0.0,0.0,0.0
0.0,0.0,0.0,0.0
0.0,0.0,0.0,0.0
0.0,0.0,0.0,0.0
55.23,0.942,6.318,0.0
55.23,0.953,6.011,69.0
0.0,0.0,0.0,0.0
0.0,0.0,0.0,0.0
0.0,0.0,0.0,0.0
0.0,0.0,0.0,0.0
0.0,0.0,0.0,0.0
0.0,0.0,0.0,0.0
0.0,0.0,0.0,0.0
0.0,0.0,0.0,0.0
0.0,0.0,0.0,0.0
0.0,0.0,0.0,0.0
0.0,0.0,0.0,0.0
0.0,0.0,0.0,0.0
0.0,0.0,0.0,0.0
0.0,0.0,0.0,0.0
0.0,0.0,0.0,0.0
0.0,0.0,0.0,0.0
0.0,0.0,0.0,0.0
0.0,0.0,0.0,0.0
0.0,0.0,0.0,0.0
0.0,0.0,0.0,0.0
0.0,0.0,0.0,0.0
0.0,0.0,0.0,0.0
0.0,0.0,0.0,0.0
0.0,0.0,0.0,0.0
0.0,0.0,0.0,0.0
0.0,0.0,0.0,0.0
0.0,0.0,0.0,0.0
0.0,0.0,0.0,0.0
0.0,0.0,0.0,0.0
0.0,0.0,0.0,0.0
0.0,0.0,0.0,0.0
0.0,0.0,0.0,0.0
0.0,0.0,0.0,0.0
0.0,0.0,0.0,0.0
0.0,0.0,0.0,0.0
0.0,0.0,0.0,0.0
0.0,0.0,0.0,0.0
0.0,0.0,0.0,0.0
0.0,0.0,0.0,0.0
0.0,0.0,0.0,0.0
0.0,0.0,0.0,0.0
0.0,0.0,0.0,0.0
12.219,0.313,1.692,0.0
0.0,0.0,0.0,0.0
0.0,0.0,0.0,0.0
0.0,0.0,0.0,0.0
0.0,0.0,0.0,0.0
0.0,0.0,0.0,0.0
0.0,0.0,0.0,0.0
0.0,0.0,0.0,0.0
0.0,0.0,0.0,0.0
0.0,0.0,0.0,0.0
0.0,0.0,0.0,0.0
0.0,0.0,0.0,0.0
83.365,-9.223,1.71,24.0
83.387,-9.242,1.264,19.0
83.366,-9.255,0.817,22.0
83.345,-9.269,0.362,8.0
0.0,0.0,0.0,0.0
0.0,0.0,0.0,0.0
83.326,-9.301,1.797,34.0
83.366,-9.321,1.352,17.0
83.381,-9.338,0.906,19.0
83.405,-9.356,0.451,13.0
0.0,0.0,0.0,0.0
0.0,0.0,0.0,0.0
83.32,-9.379,1.885,36.0
83.368,-9.399,1.44,21.0
83.41,-9.419,0.995,13.0
83.392,-9.431,0.54,49.0
0.0,0.0,0.0,0.0
0.0,0.0,0.0,0.0
83.334,-9.456,1.976,30.0
83.39,-9.477,1.531,66.0
83.385,-9.489,1.085,40.0
83.385,-9.503,0.63,150.0
77.682,-8.867,0.172,6.0
0.0,0.0,0.0,0.0
83.337,-9.529,2.068,29.0
83.376,-9.546,1.623,20.0
83.395,-9.561,1.177,55.0
83.388,-9.574,0.723,32.0
83.647,-9.618,0.278,3.0
0.0,0.0,0.0,0.0
83.326,-9.596,2.161,17.0
83.374,-9.613,1.715,42.0
83.382,-9.627,1.269,24.0
83.379,-9.639,0.816,42.0
83.397,-9.654,0.37,13.0
0.0,0.0,0.0,0.0
116.314,-13.486,3.146,31.0
83.34,-9.674,1.808,51.0
83.362,-9.688,1.363,24.0
83.386,-9.702,0.909,86.0
83.359,-9.711,0.464,50.0
77.718,-9.066,0.018,2.0
116.298,-13.57,3.277,36.0
83.291,-9.729,1.902,53.0
83.367,-9.748,1.458,31.0
83.376,-9.76,1.005,54.0
83.36,-9.77,0.559,23.0
77.706,-9.119,0.107,3.0
116.294,-13.651,3.412,25.0
83.312,-9.788,2.0,44.0
83.374,-9.806,1.555,16.0
83.373,-9.816,1.101,29.0
83.391,-9.829,0.656,12.0
75.905,-8.956,0.193,0.0
116.282,-13.725,3.548,8.0
83.3,-9.841,2.097,26.0
83.374,-9.858,1.652,17.0
83.37,-9.867,1.199,53.0
83.366,-9.876,0.753,15.0
83.388,-9.889,0.309,5.0
148.347,-17.598,4.699,22.0
116.299,-13.807,3.062,27.0
83.342,-9.903,1.748,25.0
83.374,-9.915,1.295,24.0
83.369,-9.923,0.85,25.0
83.361,-9.932,0.406,16.0
148.445,-17.692,4.875,17.0
116.33,-13.874,3.198,35.0
83.336,-9.947,1.846,61.0
83.36,-9.957,1.393,45.0
83.373,-9.967,0.948,39.0
83.369,-9.975,0.503,28.0
148.317,-17.753,5.044,20.0
116.285,-13.927,3.334,30.0
83.295,-9.982,1.942,47.0
83.362,-9.998,1.491,27.0
83.375,-10.006,1.046,59.0
83.385,-10.015,0.6,42.0
148.423,-17.834,5.222,18.0
116.275,-13.978,3.47,17.0
83.276,-10.017,2.04,33.0
83.389,-10.037,1.589,39.0
83.376,-10.042,1.145,23.0
83.363,-10.047,0.7,50.0
148.369,-17.89,5.398,21.0
148.078,-17.863,4.594,19.0
116.301,-14.036,2.988,19.0
83.365,-10.066,1.687,20.0
83.358,-10.071,1.242,14.0
83.348,-10.076,0.797,42.0
148.462,-17.956,5.578,21.0
147.955,-17.902,4.767,23.0
116.298,-14.077,3.126,32.0
83.319,-10.09,1.786,31.0
83.369,-10.1,1.342,14.0
83.358,-10.104,0.897,21.0
148.377,-17.995,5.75,21.0
148.092,-17.965,4.949,22.0
116.277,-14.11,3.263,33.0
83.297,-10.111,1.883,43.0
83.415,-10.129,1.441,17.0
83.375,-10.129,0.996,11.0
148.298,-18.027,5.923,7.0
148.112,-18.008,5.123,22.0
116.266,-14.139,3.401,23.0
83.256,-10.127,1.982,38.0
83.393,-10.147,1.54,22.0
83.373,-10.148,1.094,13.0
152.29,-18.547,6.263,4.0
148.296,-18.063,5.304,15.0
147.955,-18.024,4.502,14.0
83.29,-10.148,2.08,14.0
83.394,-10.163,1.637,32.0
83.382,-10.164,1.192,17.0
94.255,-11.497,3.988,6.0
95.346,-11.63,3.524,8.0
147.873,-18.038,4.674,23.0
116.278,-14.186,3.041,23.0
83.338,-10.168,1.734,29.0
83.367,-10.173,1.29,16.0
94.285,-11.514,4.099,18.0
148.342,-18.114,5.656,18.0
147.859,-18.055,4.846,21.0
116.261,-14.196,3.177,36.0
83.292,-10.171,1.831,36.0
83.375,-10.182,1.387,17.0
94.322,-11.527,4.213,23.0
148.345,-18.127,5.83,7.0
147.912,-18.073,5.022,21.0
116.241,-14.201,3.314,30.0
83.271,-10.173,1.929,41.0
83.391,-10.188,1.485,54.0
94.146,-11.51,4.316,17.0
0.0,0.0,0.0,0.0
95.423,-11.662,3.352,7.0
116.287,-14.209,3.451,18.0
83.267,-10.173,2.026,29.0
83.403,-10.189,1.583,96.0
93.943,-11.486,4.417,19.0
94.497,-11.55,3.935,2.0
95.389,-11.656,3.462,13.0
147.918,-18.071,4.56,20.0
116.29,-14.204,2.962,13.0
83.376,-10.182,1.678,41.0
94.148,-11.507,4.536,17.0
94.305,-11.521,4.038,12.0
148.335,-18.116,5.554,19.0
147.867,-18.053,4.732,21.0
116.279,-14.192,3.098,30.0
83.309,-10.166,1.773,28.0
94.313,-11.518,4.652,14.0
94.325,-11.514,4.148,23.0
148.358,-18.102,5.729,17.0
147.88,-18.037,4.903,21.0
116.285,-14.178,3.231,35.0
83.293,-10.152,1.868,38.0
94.312,-11.505,4.761,16.0
94.176,-11.482,4.248,18.0
148.323,-18.075,5.894,3.0
148.076,-18.036,5.077,21.0
116.238,-14.151,3.362,25.0
83.282,-10.135,1.963,33.0
94.5,-11.511,4.878,17.0
93.952,-11.437,4.344,20.0
0.0,0.0,0.0,0.0
148.246,-18.025,5.251,20.0
116.258,-14.128,3.494,9.0
83.273,-10.114,2.057,19.0
94.545,-11.494,4.988,12.0
94.092,-11.431,4.458,19.0
94.371,-11.458,3.963,1.0
148.374,-18.002,5.42,20.0
147.888,-17.932,4.609,24.0
116.278,-14.091,3.0,22.0
94.55,-11.469,5.093,2.0
94.133,-11.41,4.564,20.0
94.469,-11.442,4.072,13.0
148.439,-17.965,5.588,21.0
148.007,-17.9,4.776,22.0
116.302,-14.057,3.127,37.0
0.0,0.0,0.0,0.0
94.26,-11.394,4.673,20.0
94.463,-11.409,4.173,18.0
148.238,-17.889,5.739,21.0
148.295,-17.882,4.945,19.0
116.273,-14.011,3.251,35.0
0.0,0.0,0.0,0.0
94.53,-11.392,4.788,18.0
94.36,-11.36,4.272,17.0
148.165,-17.823,5.894,20.0
148.386,-17.834,5.105,22.0
116.288,-13.965,3.376,23.0
109.202,-9.528,8.461,8.0
109.404,-9.511,7.864,7.0
106.997,-9.269,7.093,17.0
105.279,-9.087,6.381,14.0
107.373,-9.235,5.909,24.0
107.192,-9.188,5.303,23.0
109.535,-9.393,8.494,17.0
108.775,-9.293,7.826,18.0
104.651,-8.908,6.944,10.0
105.345,-8.935,6.39,19.0
108.25,-9.147,5.962,22.0
108.797,-9.16,5.387,8.0
108.335,-9.125,8.404,10.0
111.44,-9.351,8.02,15.0
104.717,-8.753,6.95,15.0
105.325,-8.771,6.391,19.0
108.821,-9.029,5.994,10.0
107.225,-8.863,5.309,20.0
108.305,-8.955,8.401,15.0
109.456,-9.015,7.876,9.0
104.815,-8.598,6.954,18.0
105.506,-8.621,6.399,25.0
107.077,-8.717,5.894,21.0
107.471,-8.716,5.315,24.0
107.296,-8.702,8.317,12.0
106.721,-8.621,7.672,17.0
104.847,-8.436,6.949,17.0
108.641,-8.708,6.58,8.0
107.509,-8.584,5.91,17.0
107.596,-8.558,5.313,35.0
107.734,-8.568,8.341,15.0
106.363,-8.425,7.637,24.0
106.183,-8.376,7.027,20.0
106.599,-8.376,6.445,17.0
108.126,-8.462,5.93,19.0
108.618,-8.466,5.35,20.0
107.484,-8.377,8.307,24.0
106.352,-8.255,7.62,33.0
105.887,-8.185,6.992,17.0
106.459,-8.194,6.42,10.0
108.653,-8.33,5.942,21.0
108.347,-8.272,5.317,26.0
104.761,-7.996,8.079,23.0
106.574,-8.099,7.617,23.0
105.601,-7.992,6.952,20.0
107.928,-8.133,6.487,30.0
107.989,-8.105,5.884,23.0
107.979,-8.071,5.277,29.0
104.673,-7.822,8.049,24.0
110.24,-8.201,7.854,8.0
105.74,-7.833,6.937,11.0
107.9,-7.959,6.46,23.0
107.713,-7.911,5.843,24.0
107.949,-7.894,5.249,27.0
107.621,-7.866,8.247,15.0
104.897,-7.632,7.446,24.0
110.555,-8.009,7.223,16.0
107.734,-7.769,6.42,20.0
107.415,-7.712,5.795,25.0
107.894,-7.712,5.215,32.0
105.089,-7.508,8.021,12.0
110.204,-7.837,7.788,15.0
107.708,-7.624,7.002,8.0
107.486,-7.573,6.37,15.0
107.412,-7.535,5.76,21.0
107.36,-7.499,5.152,25.0
104.948,-7.324,7.973,28.0
108.903,-7.564,7.658,15.0
107.63,-7.442,6.959,20.0
106.874,-7.356,6.295,25.0
107.211,-7.345,5.71,25.0
107.476,-7.33,5.118,29.0
107.691,-7.338,8.14,11.0
106.961,-7.254,7.48,14.0
108.004,-7.29,6.94,22.0
107.054,-7.191,6.262,21.0
106.879,-7.147,5.649,24.0
107.686,-7.167,5.083,31.0
108.559,-7.217,8.16,15.0
106.888,-7.071,7.427,27.0
107.939,-7.106,6.889,21.0
108.124,-7.083,6.277,22.0
107.185,-6.989,5.616,26.0
107.54,-6.979,5.027,33.0
111.971,-7.257,8.364,7.0
106.935,-6.897,7.379,23.0
107.864,-6.922,6.832,25.0
107.968,-6.895,6.215,19.0
107.348,-6.821,5.571,34.0
107.441,-6.794,4.969,26.0
108.871,-6.875,8.076,15.0
106.895,-6.716,7.321,23.0
108.334,-6.772,6.805,19.0
107.609,-6.693,6.138,28.0
107.294,-6.639,5.511,30.0
107.323,-6.607,4.904,31.0
109.409,-6.723,8.054,15.0
107.293,-6.559,7.288,20.0
108.152,-6.578,6.731,23.0
107.256,-6.49,6.055,22.0
107.769,-6.486,5.472,22.0
107.361,-6.429,4.844,35.0
109.017,-6.518,7.961,11.0
108.083,-6.428,7.277,26.0
108.19,-6.399,6.668,23.0
107.411,-6.32,5.998,24.0
107.907,-6.316,5.414,24.0
107.451,-6.257,4.781,23.0
107.958,-6.273,7.814,17.0
108.468,-6.269,7.233,7.0
108.073,-6.212,6.591,29.0
107.768,-6.161,5.948,25.0
108.047,-6.145,5.35,27.0
107.782,-6.098,4.724,25.0
109.315,-6.17,7.838,18.0
107.932,-6.058,7.124,9.0
107.816,-6.018,6.501,19.0
107.994,-5.995,5.885,23.0
108.15,-5.97,5.279,29.0
108.032,-5.93,4.659,27.0
110.939,-6.076,7.875,15.0
108.003,-5.881,7.049,23.0
107.484,-5.82,6.402,19.0
107.931,-5.81,5.802,20.0
108.248,-5.794,5.202,27.0
108.305,-5.765,4.588,18.0
112.866,-5.991,7.926,8.0
108.294,-5.716,6.985,22.0
108.391,-5.687,6.371,27.0
107.942,-5.63,5.717,11.0
108.19,-5.611,5.115,19.0
109.392,-5.641,4.548,16.0
108.223,-5.564,7.511,19.0
108.746,-5.557,6.926,22.0
108.191,-5.496,6.272,20.0
108.355,-5.472,5.652,20.0
115.362,-5.791,5.359,4.0
116.917,-5.835,4.764,9.0
114.99,-5.72,7.884,16.0
108.82,-5.38,6.837,10.0
116.506,-5.724,6.654,8.0
108.783,-5.311,5.579,28.0
116.858,-5.671,5.326,7.0
117.021,-5.644,4.666,20.0
114.754,-5.516,7.766,22.0
112.756,-5.386,6.984,19.0
112.394,-5.334,6.317,19.0
114.302,-5.39,5.759,7.0
114.377,-5.361,5.109,16.0
117.345,-5.465,4.571,26.0
115.964,-5.381,7.738,16.0
113.055,-5.211,6.895,15.0
112.632,-5.158,6.224,11.0
114.294,-5.199,5.65,15.0
114.317,-5.166,4.996,8.0
117.499,-5.277,4.463,22.0
116.234,-5.2,7.644,17.0
114.935,-5.107,6.898,24.0
115.324,-5.091,6.259,9.0
117.037,-5.134,5.671,11.0
116.209,-5.064,4.965,21.0
117.464,-5.085,4.348,25.0
114.708,-4.945,7.429,22.0
114.661,-4.91,6.768,23.0
114.578,-4.874,6.105,24.0
114.844,-4.852,5.448,16.0
116.449,-4.887,4.858,21.0
117.273,-4.888,4.22,16.0
114.742,-4.76,7.311,22.0
114.202,-4.705,6.62,26.0
114.421,-4.679,5.974,23.0
115.396,-4.687,5.352,21.0
116.48,-4.698,4.734,21.0
116.888,-4.683,4.081,25.0
115.132,-4.59,7.211,15.0
114.192,-4.52,6.495,24.0
115.179,-4.526,5.888,19.0
115.274,-4.498,5.22,25.0
117.257,-4.543,4.637,26.0
138.592,-5.332,4.687,13.0
114.623,-4.386,7.051,26.0
114.539,-4.351,6.386,23.0
115.067,-4.338,5.754,22.0
117.212,-4.386,5.175,11.0
118.297,-4.394,4.544,19.0
138.345,-5.101,4.519,25.0
114.614,-4.202,6.917,18.0
114.365,-4.161,6.243,24.0
115.809,-4.181,5.654,19.0
117.295,-4.203,5.04,20.0
123.862,-4.404,4.611,6.0
138.338,-4.881,4.355,7.0
114.451,-4.013,6.768,25.0
114.365,-3.978,6.103,26.0
115.809,-3.996,5.512,17.0
117.275,-4.016,4.896,22.0
117.603,-3.996,4.234,19.0
140.47,-4.735,4.249,15.0
114.417,-3.832,6.625,18.0
115.315,-3.831,6.011,19.0
117.093,-3.859,5.429,23.0
116.642,-3.814,4.725,22.0
139.599,-4.527,4.851,12.0
140.27,-4.511,4.067,19.0
115.667,-3.694,6.549,25.0
115.6,-3.661,5.879,14.0
117.143,-3.68,5.281,15.0
119.028,-3.707,4.669,15.0
139.793,-4.317,4.678,18.0
163.285,-5.001,4.524,15.0
114.952,-3.495,6.359,21.0
117.217,-3.533,5.807,16.0
123.794,-3.699,5.419,10.0
118.741,-3.518,4.501,22.0
142.761,-4.193,4.589,14.0
163.265,-4.754,4.308,12.0
122.437,-3.537,6.61,8.0
117.273,-3.358,5.653,25.0
117.47,-3.333,4.984,23.0
140.044,-3.938,5.119,18.0
140.6,-3.918,4.329,6.0
163.327,-4.51,4.087,5.0
124.294,-3.403,6.537,9.0
117.442,-3.186,5.497,21.0
139.792,-3.756,5.737,11.0
140.232,-3.732,4.93,10.0
163.274,-4.306,4.798,7.0
171.491,-4.479,4.05,3.0
124.461,-3.223,6.37,8.0
140.811,-3.61,6.392,11.0
143.422,-3.641,5.68,8.0
140.167,-3.525,4.729,13.0
163.263,-4.066,4.565,20.0
0.0,0.0,0.0,0.0
0.0,0.0,0.0,0.0
170.493,-4.123,7.492,6.0
139.969,-3.35,5.34,19.0
162.573,-3.852,5.247,36.0
163.325,-3.83,4.328,12.0
170.456,-3.956,3.532,6.0
140.799,-3.235,6.792,11.0
143.681,-3.267,6.099,5.0
140.475,-3.16,5.15,24.0
162.812,-3.624,5.012,10.0
163.345,-3.596,4.083,4.0
0.0,0.0,0.0,0.0
192.286,-4.145,8.986,20.0
190.251,-4.055,7.787,16.0
190.169,-4.007,6.681,21.0
163.372,-3.405,4.778,28.0
171.467,-3.532,4.023,3.0
92.285,-1.88,1.631,4.0
191.441,-3.857,8.648,21.0
190.403,-3.791,7.498,23.0
162.567,-3.2,5.46,24.0
163.289,-3.177,4.523,33.0
0.0,0.0,0.0,0.0
92.072,-1.749,1.485,1.0
191.814,-3.601,8.364,21.0
190.982,-3.541,7.219,14.0
162.594,-2.977,5.204,24.0
163.408,-2.954,4.266,15.0
170.324,-3.041,3.459,6.0
91.887,-1.62,1.334,25.0
189.989,-3.309,7.979,24.0
190.039,-3.266,6.877,18.0
162.735,-2.761,4.945,14.0
171.539,-2.872,4.2,4.0
0.0,0.0,0.0,0.0
91.842,-1.497,1.185,44.0
191.842,-3.084,7.74,13.0
191.226,-3.034,6.608,7.0
163.314,-2.555,4.695,34.0
0.0,0.0,0.0,0.0
0.0,0.0,0.0,0.0
19.758,-0.296,0.222,14.0
191.919,-2.836,7.425,21.0
162.575,-2.367,5.345,51.0
163.346,-2.343,4.421,29.0
19.759,-0.279,0.418,0.0
19.749,-0.275,0.303,8.0
19.742,-0.27,0.189,32.0
185.883,-2.511,6.878,11.0
162.654,-2.162,5.073,36.0
19.787,-0.259,0.502,2.0
19.742,-0.254,0.384,8.0
19.737,-0.25,0.269,10.0
19.741,-0.246,0.155,11.0
10.621,-0.044,-0.899,0.0
9.989,-0.043,-0.903,0.0
9.508,-0.042,-0.915,0.0
8.992,-0.041,-0.919,0.0
8.592,-0.04,-0.928,0.0
8.19,-0.039,-0.932,0.0
10.474,-0.054,-0.9,0.0
9.88,-0.052,-0.906,0.0
9.353,-0.05,-0.912,0.0
8.911,-0.049,-0.922,0.0
8.499,-0.048,-0.929,0.0
8.12,-0.047,-0.935,0.0
10.335,-0.063,-0.901,0.0
9.738,-0.06,-0.906,0.0
9.278,-0.059,-0.917,0.0
8.787,-0.057,-0.92,0.0
8.401,-0.056,-0.929,0.0
8.006,-0.054,-0.932,0.0
10.206,-0.072,-0.903,0.0
9.672,-0.07,-0.911,0.0
9.167,-0.067,-0.917,0.0
8.717,-0.065,-0.923,0.0
8.283,-0.063,-0.926,0.0
7.948,-0.062,-0.935,0.0
10.083,-0.081,-0.904,0.0
9.563,-0.078,-0.912,0.0
9.085,-0.076,-0.919,0.0
8.635,-0.073,-0.925,0.0
8.246,-0.071,-0.931,0.0
7.898,-0.07,-0.938,0.0
9.974,-0.091,-0.905,0.0
9.518,-0.088,-0.919,0.0
8.979,-0.084,-0.919,0.0
8.561,-0.082,-0.927,0.0
8.199,-0.079,-0.935,0.0
7.835,-0.077,-0.939,0.0
9.867,-0.1,-0.907,0.0
9.345,-0.096,-0.913,0.0
8.91,-0.093,-0.922,0.0
8.484,-0.09,-0.928,0.0
8.12,-0.087,-0.935,0.0
7.765,-0.085,-0.939,0.0
9.776,-0.109,-0.909,0.0
9.263,-0.105,-0.914,0.0
8.821,-0.101,-0.922,0.0
8.433,-0.098,-0.931,0.0
8.042,-0.095,-0.935,0.0
7.72,-0.092,-0.942,0.0
9.676,-0.119,-0.909,0.0
9.2,-0.114,-0.918,0.0
8.736,-0.11,-0.922,0.0
8.32,-0.106,-0.927,0.0
7.967,-0.103,-0.934,0.0
7.665,-0.1,-0.943,0.0
9.609,-0.128,-0.912,0.0
9.143,-0.123,-0.921,0.0
8.677,-0.119,-0.924,0.0
8.27,-0.114,-0.929,0.0
7.921,-0.111,-0.936,0.0
7.61,-0.108,-0.944,0.0
9.546,-0.138,-0.915,0.0
9.015,-0.132,-0.916,0.0
8.606,-0.127,-0.925,0.0
8.219,-0.123,-0.931,0.0
7.871,-0.119,-0.937,0.0
7.562,-0.116,-0.945,0.0
9.448,-0.147,-0.915,0.0
8.951,-0.141,-0.918,0.0
8.543,-0.136,-0.925,0.0
8.155,-0.131,-0.931,0.0
7.806,-0.127,-0.937,0.0
7.468,-0.123,-0.939,0.0
9.4,-0.157,-0.918,0.0
8.892,-0.15,-0.92,0.0
8.508,-0.145,-0.929,0.0
8.093,-0.139,-0.931,0.0
7.767,-0.135,-0.938,0.0
7.431,-0.131,-0.941,0.0
9.293,-0.166,-0.915,0.0
8.844,-0.159,-0.922,0.0
8.429,-0.153,-0.927,0.0
8.055,-0.148,-0.933,0.0
7.736,-0.143,-0.941,0.0
7.411,-0.139,-0.944,0.0
9.246,-0.175,-0.918,0.0
8.792,-0.168,-0.923,0.0
8.369,-0.162,-0.927,0.0
7.988,-0.156,-0.931,0.0
7.728,-0.152,-0.946,0.0
7.378,-0.147,-0.946,0.0
9.192,-0.185,-0.919,0.0
8.746,-0.178,-0.925,0.0
8.313,-0.171,-0.927,0.0
7.964,-0.165,-0.934,0.0
7.666,-0.16,-0.944,0.0
7.327,-0.154,-0.944,0.0
8.758,-0.354,-0.924,0.0
8.347,-0.339,-0.927,0.0
8.03,-0.328,-0.937,0.0
7.665,-0.315,-0.939,0.0
7.365,-0.304,-0.943,0.0
7.069,-0.293,-0.946,0.0
8.776,-0.365,-0.925,0.0
8.376,-0.35,-0.93,0.0
8.014,-0.337,-0.934,0.0
7.694,-0.325,-0.941,0.0
7.382,-0.313,-0.945,0.0
7.095,-0.303,-0.948,0.0
8.784,-0.375,-0.924,0.0
8.399,-0.36,-0.931,0.0
8.056,-0.348,-0.938,0.0
7.671,-0.333,-0.937,0.0
7.381,-0.322,-0.943,0.0
7.138,-0.313,-0.953,0.0
8.786,-0.385,-0.923,0.0
8.404,-0.37,-0.93,0.0
8.039,-0.356,-0.935,0.0
7.688,-0.342,-0.938,0.0
7.421,-0.332,-0.947,0.0
7.161,-0.322,-0.954,0.0
8.815,-0.396,-0.924,0.0
8.412,-0.38,-0.929,0.0
8.08,-0.367,-0.937,0.0
7.727,-0.352,-0.941,0.0
7.422,-0.34,-0.945,0.0
7.157,-0.33,-0.952,0.0
8.843,-0.407,-0.925,0.0
8.445,-0.391,-0.93,0.0
8.092,-0.376,-0.936,0.0
7.694,-0.36,-0.934,0.0
7.442,-0.349,-0.945,0.0
7.179,-0.339,-0.952,0.0
8.874,-0.418,-0.925,0.0
8.471,-0.401,-0.93,0.0
8.099,-0.385,-0.935,0.0
7.725,-0.369,-0.935,0.0
7.438,-0.357,-0.942,0.0
7.18,-0.346,-0.95,0.0
8.915,-0.43,-0.926,0.0
8.489,-0.411,-0.929,0.0
8.123,-0.395,-0.934,0.0
7.764,-0.379,-0.937,0.0
7.488,-0.368,-0.946,0.0
7.188,-0.355,-0.948,0.0
8.934,-0.44,-0.925,0.0
8.542,-0.423,-0.932,0.0
8.147,-0.405,-0.934,0.0
7.787,-0.389,-0.937,0.0
7.536,-0.378,-0.949,0.0
7.217,-0.363,-0.949,0.0
8.966,-0.451,-0.924,0.0
8.565,-0.433,-0.93,0.0
8.193,-0.416,-0.935,0.0
7.829,-0.399,-0.938,0.0
7.568,-0.387,-0.949,0.0
7.27,-0.374,-0.952,0.0
9.009,-0.463,-0.924,0.0
8.608,-0.444,-0.931,0.0
8.19,-0.424,-0.931,0.0
7.809,-0.406,-0.932,0.0
7.587,-0.396,-0.947,0.0
7.29,-0.382,-0.951,0.0
9.064,-0.475,-0.925,0.0
8.652,-0.455,-0.931,0.0
8.255,-0.436,-0.934,0.0
7.915,-0.419,-0.94,0.0
7.614,-0.405,-0.947,0.0
7.305,-0.39,-0.949,0.0
9.098,-0.485,-0.923,0.0
8.679,-0.465,-0.929,0.0
8.307,-0.447,-0.935,0.0
7.951,-0.429,-0.94,0.0
7.651,-0.414,-0.946,0.0
7.336,-0.399,-0.948,0.0
9.153,-0.497,-0.923,0.0
8.733,-0.476,-0.929,0.0
8.348,-0.457,-0.934,0.0
7.996,-0.439,-0.94,0.0
7.673,-0.423,-0.944,0.0
7.384,-0.409,-0.95,0.0
9.209,-0.509,-0.923,0.0
8.809,-0.488,-0.931,0.0
8.41,-0.468,-0.936,0.0
8.031,-0.449,-0.938,0.0
7.718,-0.433,-0.945,0.0
7.42,-0.417,-0.949,0.0
9.251,-0.519,-0.921,0.0
8.85,-0.499,-0.93,0.0
8.444,-0.478,-0.933,0.0
8.074,-0.458,-0.938,0.0
7.73,-0.44,-0.94,0.0
7.462,-0.426,-0.949,0.0
9.347,-0.533,-0.924,0.0
8.895,-0.509,-0.928,0.0
8.491,-0.488,-0.932,0.0
8.129,-0.468,-0.938,0.0
7.757,-0.449,-0.938,0.0
7.508,-0.436,-0.949,0.0
9.401,-0.544,-0.922,0.0
8.954,-0.52,-0.927,0.0
8.584,-0.5,-0.936,0.0
8.192,-0.479,-0.939,0.0
7.805,-0.458,-0.937,0.0
7.588,-0.447,-0.953,0.0
9.447,-0.555,-0.919,0.0
9.043,-0.533,-0.929,0.0
8.622,-0.51,-0.933,0.0
8.248,-0.489,-0.938,0.0
7.836,-0.466,-0.935,0.0
7.62,-0.455,-0.951,0.0
9.509,-0.566,-0.917,0.0
9.087,-0.543,-0.926,0.0
8.668,-0.519,-0.93,0.0
8.3,-0.499,-0.937,0.0
7.927,-0.478,-0.938,0.0
7.672,-0.464,-0.95,0.0
9.573,-0.578,-0.915,0.0
9.156,-0.554,-0.925,0.0
8.745,-0.531,-0.931,0.0
8.352,-0.509,-0.935,0.0
7.969,-0.487,-0.936,0.0
7.705,-0.472,-0.947,0.0
9.697,-0.593,-0.917,0.0
9.248,-0.567,-0.925,0.0
8.816,-0.542,-0.93,0.0
8.404,-0.518,-0.933,0.0
8.095,-0.5,-0.943,0.0
7.753,-0.481,-0.946,0.0
9.798,-0.606,-0.918,0.0
9.321,-0.578,-0.923,0.0
8.888,-0.553,-0.929,0.0
8.492,-0.529,-0.935,0.0
8.124,-0.508,-0.939,0.0
7.785,-0.488,-0.942,0.0
9.903,-0.619,-0.918,0.0
9.412,-0.59,-0.923,0.0
8.964,-0.564,-0.928,0.0
8.551,-0.539,-0.932,0.0
8.208,-0.519,-0.94,0.0
7.828,-0.496,-0.939,0.0
10.017,-0.633,-0.918,0.0
9.499,-0.602,-0.922,0.0
9.042,-0.574,-0.926,0.0
8.626,-0.549,-0.932,0.0
8.274,-0.528,-0.939,0.0
7.87,-0.504,-0.936,0.0
10.065,-0.643,-0.912,0.0
9.535,-0.61,-0.915,0.0
9.132,-0.586,-0.926,0.0
8.726,-0.561,-0.933,0.0
8.33,-0.537,-0.936,0.0
8.001,-0.517,-0.942,0.0
10.202,-0.658,-0.913,0.0
9.692,-0.626,-0.919,0.0
9.237,-0.598,-0.926,0.0
8.804,-0.571,-0.931,0.0
8.463,-0.551,-0.941,0.0
8.066,-0.526,-0.941,0.0
10.286,-0.669,-0.909,0.0
9.783,-0.638,-0.917,0.0
9.327,-0.609,-0.925,0.0
8.893,-0.582,-0.931,0.0
8.52,-0.559,-0.938,0.0
8.157,-0.536,-0.942,0.0
10.415,-0.683,-0.908,0.0
9.931,-0.653,-0.92,0.0
9.429,-0.621,-0.924,0.0
8.973,-0.592,-0.928,0.0
8.596,-0.568,-0.936,0.0
8.253,-0.547,-0.943,0.0
10.62,-0.702,-0.914,0.0
10.024,-0.664,-0.916,0.0
9.513,-0.631,-0.921,0.0
9.074,-0.603,-0.928,0.0
8.694,-0.579,-0.936,0.0
8.295,-0.554,-0.938,0.0
10.664,-0.71,-0.904,0.0
10.146,-0.676,-0.915,0.0
9.628,-0.643,-0.92,0.0
9.208,-0.616,-0.93,0.0
8.765,-0.588,-0.933,0.0
8.372,-0.562,-0.936,0.0
10.793,-0.723,-0.902,0.0
10.243,-0.687,-0.911,0.0
9.73,-0.654,-0.917,0.0
9.274,-0.624,-0.925,0.0
8.879,-0.599,-0.933,0.0
8.507,-0.575,-0.94,0.0
11.035,-0.744,-0.908,0.0
10.415,-0.703,-0.913,0.0
9.882,-0.668,-0.919,0.0
9.382,-0.635,-0.924,0.0
8.959,-0.608,-0.93,0.0
8.574,-0.582,-0.936,0.0
11.113,-0.753,-0.9,0.0
10.598,-0.719,-0.915,0.0
10.027,-0.681,-0.919,0.0
9.496,-0.646,-0.923,0.0
9.07,-0.618,-0.93,0.0
8.682,-0.593,-0.937,0.0
11.291,-0.769,-0.9,0.0
10.689,-0.728,-0.909,0.0
10.131,-0.691,-0.915,0.0
9.639,-0.659,-0.923,0.0
9.198,-0.63,-0.931,0.0
8.791,-0.602,-0.937,0.0
11.406,-0.78,-0.894,0.0
10.802,-0.739,-0.904,0.0
10.239,-0.701,-0.911,0.0
9.772,-0.67,-0.923,0.0
9.292,-0.638,-0.927,0.0
8.88,-0.611,-0.934,0.0
11.689,-0.802,-0.9,0.0
10.999,-0.755,-0.905,0.0
10.404,-0.715,-0.912,0.0
9.897,-0.681,-0.921,0.0
9.432,-0.65,-0.928,0.0
8.989,-0.62,-0.933,0.0
11.841,-0.815,-0.895,0.0
11.204,-0.772,-0.907,0.0
10.563,-0.728,-0.911,0.0
10.022,-0.692,-0.919,0.0
9.569,-0.661,-0.928,0.0
9.121,-0.631,-0.933,0.0
11.991,-0.827,-0.89,0.0
11.303,-0.78,-0.899,0.0
10.689,-0.738,-0.907,0.0
10.103,-0.699,-0.912,0.0
9.668,-0.669,-0.924,0.0
9.218,-0.639,-0.93,0.0
12.163,-0.84,-0.885,0.0
11.45,-0.792,-0.894,0.0
10.875,-0.752,-0.907,0.0
10.267,-0.711,-0.911,0.0
9.824,-0.681,-0.925,0.0
9.335,-0.648,-0.928,0.0
12.369,-0.856,-0.882,0.0
11.721,-0.811,-0.898,0.0
11.099,-0.769,-0.909,0.0
10.431,-0.723,-0.911,0.0
9.972,-0.692,-0.924,0.0
9.489,-0.659,-0.929,0.0
12.582,-0.871,-0.879,0.0
11.903,-0.824,-0.894,0.0
11.259,-0.78,-0.905,0.0
10.633,-0.737,-0.912,0.0
10.076,-0.699,-0.918,0.0
9.618,-0.668,-0.928,0.0
12.778,-0.885,-0.874,0.0
12.066,-0.836,-0.889,0.0
11.371,-0.788,-0.898,0.0
10.813,-0.75,-0.912,0.0
10.201,-0.708,-0.914,0.0
9.749,-0.676,-0.926,0.0
13.011,-0.9,-0.87,0.0
12.284,-0.85,-0.886,0.0
11.541,-0.799,-0.894,0.0
10.983,-0.761,-0.91,0.0
10.363,-0.718,-0.913,0.0
9.898,-0.686,-0.925,0.0
13.22,-0.914,-0.864,0.0
12.46,-0.861,-0.88,0.0
11.84,-0.819,-0.899,0.0
11.134,-0.77,-0.905,0.0
10.551,-0.73,-0.913,0.0
10.031,-0.694,-0.921,0.0
13.584,-0.937,-0.867,0.0
12.672,-0.874,-0.875,0.0
11.994,-0.828,-0.892,0.0
11.318,-0.781,-0.902,0.0
10.72,-0.74,-0.911,0.0
10.159,-0.701,-0.917,0.0
13.943,-0.96,-0.868,0.0
12.926,-0.89,-0.873,0.0
12.212,-0.841,-0.889,0.0
11.563,-0.796,-0.904,0.0
10.943,-0.753,-0.913,0.0
10.309,-0.71,-0.915,0.0
14.256,-0.978,-0.866,0.0
13.123,-0.901,-0.866,0.0
12.395,-0.85,-0.883,0.0
11.792,-0.809,-0.903,0.0
11.134,-0.764,-0.912,0.0
10.541,-0.723,-0.919,0.0
14.555,-0.995,-0.861,0.0
13.474,-0.921,-0.868,0.0
12.623,-0.863,-0.879,0.0
11.933,-0.815,-0.895,0.0
11.291,-0.771,-0.907,0.0
10.653,-0.727,-0.911,0.0
14.861,-1.012,-0.855,0.0
13.877,-0.945,-0.872,0.0
12.855,-0.875,-0.875,0.0
12.138,-0.826,-0.891,0.0
11.451,-0.779,-0.901,0.0
10.832,-0.736,-0.91,0.0
15.06,-1.021,-0.843,0.0
14.194,-0.961,-0.869,0.0
13.008,-0.881,-0.864,0.0
12.389,-0.838,-0.89,0.0
11.773,-0.796,-0.907,0.0
11.076,-0.749,-0.912,0.0
15.606,-1.052,-0.848,0.0
14.508,-0.977,-0.865,0.0
13.308,-0.896,-0.863,0.0
12.572,-0.846,-0.883,0.0
11.901,-0.8,-0.898,0.0
11.254,-0.756,-0.909,0.0
16.001,-1.072,-0.844,0.0
14.804,-0.991,-0.859,0.0
13.763,-0.921,-0.87,0.0
12.745,-0.852,-0.874,0.0
12.101,-0.808,-0.894,0.0
11.389,-0.76,-0.901,0.0
16.421,-1.093,-0.84,0.0
15.078,-1.002,-0.85,0.0
14.071,-0.934,-0.867,0.0
12.867,-0.854,-0.862,0.0
12.33,-0.817,-0.891,0.0
11.695,-0.775,-0.906,0.0
16.823,-1.111,-0.834,0.0
15.543,-1.025,-0.852,0.0
14.406,-0.949,-0.865,0.0
13.327,-0.877,-0.871,0.0
12.505,-0.822,-0.883,0.0
11.889,-0.781,-0.902,0.0
17.237,-1.129,-0.826,0.0
15.916,-1.041,-0.846,0.0
14.724,-0.962,-0.86,0.0
13.681,-0.893,-0.872,0.0
12.723,-0.829,-0.878,0.0
12.056,-0.785,-0.895,0.0
17.766,-1.153,-0.823,0.0
16.113,-1.045,-0.83,0.0
15.006,-0.971,-0.852,0.0
13.9,-0.899,-0.863,0.0
12.945,-0.836,-0.872,0.0
12.297,-0.793,-0.893,0.0
18.319,-1.178,-0.819,0.0
16.541,-1.062,-0.825,0.0
15.38,-0.986,-0.848,0.0
14.334,-0.917,-0.867,0.0
13.224,-0.845,-0.869,0.0
12.478,-0.796,-0.885,0.0
18.67,-1.188,-0.804,0.0
17.092,-1.085,-0.825,0.0
15.852,-1.005,-0.848,0.0
14.64,-0.927,-0.861,0.0
13.619,-0.861,-0.873,0.0
12.717,-0.802,-0.882,0.0
19.361,-1.218,-0.802,0.0
17.636,-1.107,-0.823,0.0
16.308,-1.022,-0.846,0.0
14.905,-0.933,-0.853,0.0
13.912,-0.869,-0.869,0.0
12.977,-0.809,-0.879,0.0
19.819,-1.232,-0.789,0.0
18.299,-1.135,-0.824,0.0
16.805,-1.04,-0.845,0.0
15.379,-0.95,-0.855,0.0
14.26,-0.879,-0.868,0.0
13.195,-0.812,-0.872,0.0
20.588,-1.264,-0.787,0.0
18.596,-1.139,-0.808,0.0
17.155,-1.048,-0.835,0.0
15.694,-0.957,-0.847,0.0
14.571,-0.887,-0.863,0.0
13.434,-0.816,-0.866,0.0
20.891,-1.265,-0.765,0.0
19.193,-1.159,-0.803,0.0
17.622,-1.062,-0.829,0.0
16.107,-0.968,-0.844,0.0
14.863,-0.891,-0.856,0.0
13.782,-0.825,-0.866,0.0
21.603,-1.289,-0.756,0.0
19.693,-1.172,-0.792,0.0
18.077,-1.073,-0.821,0.0
16.556,-0.98,-0.841,0.0
15.182,-0.897,-0.85,0.0
14.134,-0.833,-0.866,0.0
0.0,0.0,0.0,0.0
35.592,-1.373,-0.518,0.0
30.671,-1.175,-0.607,0.0
27.296,-1.038,-0.687,0.0
23.781,-0.898,-0.723,0.0
21.323,-0.799,-0.761,0.0
0.0,0.0,0.0,0.0
37.274,-1.38,-0.491,0.0
32.341,-1.188,-0.596,0.0
27.876,-1.016,-0.664,0.0
24.702,-0.894,-0.718,0.0
21.854,-0.785,-0.751,0.0
0.0,0.0,0.0,0.0
38.584,-1.367,-0.457,0.0
33.18,-1.167,-0.568,0.0
28.239,-0.985,-0.635,0.0
25.152,-0.87,-0.698,0.0
22.527,-0.773,-0.744,0.0
0.0,0.0,0.0,0.0
0.0,0.0,0.0,0.0
34.1,-1.143,-0.539,0.0
29.586,-0.984,-0.627,0.0
26.076,-0.86,-0.69,0.0
23.031,-0.753,-0.731,0.0
0.0,0.0,0.0,0.0
0.0,0.0,0.0,0.0
0.0,0.0,0.0,0.0
30.376,-0.96,-0.605,0.0
26.9,-0.842,-0.678,0.0
23.864,-0.74,-0.727,0.0
0.0,0.0,0.0,0.0
0.0,0.0,0.0,0.0
37.484,-1.132,-0.498,0.0
31.118,-0.931,-0.581,0.0
27.564,-0.816,-0.66,0.0
24.639,-0.722,-0.72,0.0
0.0,0.0,0.0,0.0
0.0,0.0,0.0,0.0
0.0,0.0,0.0,0.0
32.47,-0.915,-0.566,0.0
28.774,-0.803,-0.654,0.0
25.234,-0.696,-0.707,0.0
0.0,0.0,0.0,0.0
0.0,0.0,0.0,0.0
0.0,0.0,0.0,0.0
0.0,0.0,0.0,0.0
29.267,-0.765,-0.63,0.0
26.024,-0.673,-0.698,0.0
91.898,-2.354,0.082,1.0
0.0,0.0,0.0,0.0
0.0,0.0,0.0,0.0
35.328,-0.873,-0.533,0.0
30.12,-0.734,-0.614,0.0
21.7,-0.522,-0.557,0.0
0.0,0.0,0.0,0.0
0.0,0.0,0.0,0.0
0.0,0.0,0.0,0.0
35.892,-0.823,-0.501,0.0
31.739,-0.717,-0.611,0.0
21.719,-0.484,-0.533,38.0
0.0,0.0,0.0,0.0
0.0,0.0,0.0,0.0
0.0,0.0,0.0,0.0
0.0,0.0,0.0,0.0
32.103,-0.668,-0.583,0.0
21.749,-0.445,-0.51,3.0
92.908,-1.879,0.396,1.0
91.866,-1.83,-0.096,1.0
0.0,0.0,0.0,0.0
39.846,-0.768,-0.469,1.0
33.197,-0.629,-0.567,0.0
29.056,-0.542,-0.651,0.0
92.587,-1.703,0.493,3.0
91.779,-1.66,0.0,1.0
0.0,0.0,0.0,0.0
0.0,0.0,0.0,0.0
33.29,-0.57,-0.534,0.0
29.69,-0.499,-0.634,0.0
19.777,-0.326,0.125,2.0
0.0,0.0,0.0,0.0
0.0,0.0,0.0,0.0
42.506,-0.661,-0.413,0.0
35.365,-0.539,-0.532,0.0
30.17,-0.45,-0.614,0.0
19.751,-0.289,0.145,29.0
19.745,-0.282,0.04,0.0
0.0,0.0,0.0,0.0
0.0,0.0,0.0,0.0
0.0,0.0,0.0,0.0
31.108,-0.404,-0.603,0.0
19.763,-0.251,0.164,24.0
19.715,-0.244,0.059,0.0
0.0,0.0,0.0,0.0
0.0,0.0,0.0,0.0
0.0,0.0,0.0,0.0
31.216,-0.345,-0.576,0.0
19.748,-0.213,0.183,0.0
0.0,0.0,0.0,0.0
0.0,0.0,0.0,0.0
19.744,-0.193,-0.135,0.0
19.768,-0.187,-0.241,11.0
19.761,-0.18,-0.346,13.0
0.0,0.0,0.0,0.0
0.0,0.0,0.0,0.0
19.783,-0.161,-0.01,0.0
19.731,-0.154,-0.117,13.0
19.73,-0.148,-0.223,16.0
19.745,-0.141,-0.329,17.0
19.763,-0.135,0.218,1.0
19.773,-0.129,0.112,5.0
19.724,-0.122,0.006,10.0
19.704,-0.115,-0.1,15.0
19.722,-0.108,-0.206,17.0
19.757,-0.102,-0.312,15.0
19.696,-0.096,0.234,12.0
19.698,-0.089,0.128,14.0
19.701,-0.083,0.022,15.0
19.705,-0.076,-0.084,10.0
19.726,-0.069,-0.19,15.0
19.759,-0.063,-0.296,14.0
19.655,-0.057,0.249,11.0
19.691,-0.05,0.144,14.0
19.7,-0.044,0.038,15.0
19.71,-0.037,-0.069,12.0
19.749,-0.03,-0.175,8.0
36.144,-0.044,-0.515,0.0
19.637,-0.017,0.264,13.0
19.735,-0.01,0.159,5.0
19.772,-0.004,0.053,4.0
19.737,0.002,-0.054,8.0
19.765,0.008,-0.161,0.0
19.783,0.015,-0.267,2.0
19.636,0.022,0.278,14.0
19.72,0.028,0.173,16.0
19.76,0.035,0.067,17.0
19.728,0.042,-0.04,45.0
19.753,0.048,-0.146,44.0
19.761,0.055,-0.253,38.0
19.614,0.062,0.292,13.0
19.637,0.068,0.186,13.0
19.679,0.075,0.081,16.0
19.732,0.082,-0.027,12.0
19.759,0.089,-0.133,0.0
0.0,0.0,0.0,0.0
19.612,0.102,0.305,15.0
19.662,0.109,0.199,16.0
19.644,0.115,0.093,13.0
19.631,0.122,-0.014,14.0
19.658,0.129,-0.12,12.0
19.687,0.136,-0.227,1.0
19.633,0.142,0.317,11.0
19.664,0.149,0.211,14.0
19.654,0.156,0.105,11.0
19.622,0.162,-0.002,17.0
19.633,0.169,-0.108,15.0
19.648,0.176,-0.214,15.0
19.681,0.183,0.33,10.0
19.695,0.19,0.223,9.0
19.696,0.197,0.117,10.0
19.653,0.203,0.008,13.0
19.625,0.209,-0.097,16.0
19.641,0.216,-0.204,17.0
19.726,0.224,0.341,11.0
19.747,0.231,0.235,17.0
19.766,0.238,0.128,25.0
19.678,0.243,0.019,0.0
19.657,0.25,-0.087,12.0
19.653,0.257,-0.194,15.0
19.714,0.265,0.351,14.0
19.732,0.272,0.244,12.0
19.781,0.279,0.138,1.0
0.0,0.0,0.0,0.0
46.646,0.691,-0.184,1.0
19.625,0.297,-0.184,0.0
19.717,0.306,0.361,2.0
55.212,0.877,0.711,1.0
55.197,0.895,0.411,26.0
55.18,0.914,0.105,45.0
52.443,0.886,-0.184,1.0
0.0,0.0,0.0,0.0
55.175,0.973,1.034,74.0
55.172,0.992,0.734,67.0
55.182,1.011,0.434,46.0
55.182,1.029,0.129,27.0
52.353,0.995,-0.162,1.0
38.877,0.752,-0.331,2.0
179.362,3.545,3.437,31.0
162.8,3.273,2.233,19.0
114.005,2.331,0.943,7.0
0.0,0.0,0.0,0.0
52.287,1.104,-0.142,0.0
38.614,0.828,-0.315,1.0
179.188,3.919,3.499,27.0
128.746,2.858,1.812,27.0
70.848,1.596,0.61,10.0
75.321,1.722,0.231,8.0
0.0,0.0,0.0,0.0
39.877,0.938,-0.312,2.0
99.45,2.383,1.974,96.0
98.948,2.404,1.424,2.0
70.764,1.743,0.632,28.0
70.459,1.759,0.237,18.0
41.922,1.06,-0.087,155.0
39.952,1.024,-0.301,9.0
43.721,1.14,0.881,76.0
0.0,0.0,0.0,0.0
0.0,0.0,0.0,0.0
43.695,1.183,0.159,74.0
40.138,1.1,-0.072,159.0
40.009,1.11,-0.291,20.0
40.137,1.131,0.818,109.0
40.12,1.144,0.598,150.0
40.121,1.158,0.379,131.0
40.123,1.171,0.155,130.0
40.126,1.184,-0.063,150.0
40.022,1.194,-0.282,27.0
40.127,1.216,0.827,150.0
40.12,1.228,0.607,150.0
40.132,1.241,0.387,114.0
40.128,1.254,0.163,138.0
40.12,1.267,-0.056,150.0
40.026,1.278,-0.275,35.0
40.128,1.299,0.834,150.0
40.135,1.312,0.614,102.0
40.121,1.325,0.393,14.0
64.036,2.136,0.27,10.0
40.136,1.352,-0.05,150.0
40.013,1.361,-0.27,37.0
162.234,5.594,3.395,6.0
162.064,5.638,2.501,20.0
71.066,2.496,0.706,24.0
44.965,1.594,0.195,4.0
40.115,1.435,-0.046,7.0
39.999,1.444,-0.265,5.0
43.62,1.596,0.917,94.0
43.334,1.599,0.672,89.0
43.253,1.61,0.433,152.0
42.493,1.595,0.187,150.0
40.401,1.529,-0.043,22.0
40.265,1.537,-0.264,9.0
40.395,1.561,0.851,138.0
40.389,1.573,0.629,136.0
40.387,1.586,0.406,133.0
40.394,1.599,0.18,150.0
40.34,1.61,-0.042,150.0
40.293,1.621,-0.263,41.0
100.482,4.092,2.121,19.0
100.511,4.124,1.567,7.0
23.613,0.976,0.238,0.0
23.639,0.985,0.105,2.0
23.632,0.992,-0.024,25.0
23.645,1.0,-0.155,42.0
23.619,1.01,0.498,44.0
23.621,1.018,0.367,43.0
23.612,1.025,0.237,43.0
23.598,1.031,0.104,48.0
23.595,1.038,-0.025,64.0
23.605,1.046,-0.156,67.0
23.599,1.058,0.496,83.0
23.592,1.065,0.366,75.0
23.588,1.072,0.235,69.0
23.587,1.079,0.102,61.0
23.599,1.087,-0.027,63.0
23.607,1.094,-0.158,63.0
23.6,1.106,0.494,47.0
23.611,1.114,0.364,40.0
23.63,1.122,0.233,37.0
23.637,1.13,0.1,37.0
23.629,1.136,-0.03,26.0
40.236,1.948,-0.274,6.0
23.65,1.156,0.492,0.0
99.219,4.883,1.517,3.0
45.228,2.239,0.44,0.0
45.186,2.251,0.185,26.0
45.21,2.266,-0.064,5.0
39.924,2.013,-0.278,15.0
45.125,2.298,0.932,1.0
131.492,6.737,1.988,6.0
99.769,5.142,0.954,29.0
45.187,2.343,0.177,16.0
45.241,2.358,-0.073,4.0
39.988,2.097,-0.286,15.0
45.222,2.394,0.925,73.0
45.21,2.407,0.674,67.0
45.231,2.422,0.423,9.0
45.176,2.432,0.167,33.0
40.328,2.182,-0.074,34.0
39.888,2.171,-0.295,15.0
45.26,2.486,0.915,0.0
99.765,5.511,1.463,9.0
45.232,2.511,0.411,2.0
45.175,2.521,0.155,44.0
40.329,2.262,-0.085,41.0
0.0,0.0,0.0,0.0
167.9,9.555,3.351,5.0
99.75,5.705,1.435,11.0
99.552,5.721,0.878,9.0
45.176,2.609,0.142,37.0
40.322,2.34,-0.097,43.0
37.46,2.185,-0.298,4.0
45.225,2.662,0.888,150.0
45.22,2.674,0.636,147.0
45.21,2.687,0.384,19.0
45.162,2.696,0.127,44.0
40.335,2.419,-0.11,46.0
0.0,0.0,0.0,0.0
133.491,8.116,2.577,17.0
99.769,6.094,1.369,7.0
45.141,2.769,0.367,1.0
45.173,2.784,0.111,48.0
40.321,2.497,-0.125,44.0
36.27,2.256,-0.315,12.0
112.429,7.053,2.127,87.0
99.833,6.289,1.332,6.0
100.634,6.368,0.78,12.0
45.176,2.87,0.093,140.0
40.334,2.574,-0.141,43.0
35.701,2.289,-0.324,7.0
45.203,2.922,0.836,94.0
45.204,2.934,0.583,92.0
45.203,2.947,0.33,89.0
44.878,2.937,0.073,16.0
40.326,2.651,-0.159,39.0
35.194,2.323,-0.336,8.0
44.392,2.953,0.801,101.0
44.264,2.957,0.551,85.0
44.231,2.967,0.303,46.0
42.19,2.841,0.049,36.0
40.329,2.726,-0.178,44.0
34.217,2.323,-0.343,10.0
41.214,2.818,0.724,3.0
41.53,2.851,0.497,93.0
42.735,2.945,0.272,77.0
42.009,2.906,0.027,9.0
40.328,2.801,-0.199,48.0
32.151,2.241,-0.338,1.0
41.814,2.937,0.713,89.0
41.641,2.936,0.476,94.0
41.57,2.941,0.242,90.0
40.515,2.877,0.005,9.0
40.279,2.871,-0.22,57.0
32.475,2.324,-0.36,10.0
40.427,2.914,0.666,92.0
40.381,2.92,0.439,82.0
40.383,2.931,0.212,103.0
40.32,2.936,-0.017,45.0
40.205,2.938,-0.243,26.0
31.977,2.345,-0.373,9.0
45.477,3.359,0.723,6.0
43.692,3.237,0.45,31.0
43.708,3.25,0.204,97.0
0.0,0.0,0.0,0.0
38.94,2.914,-0.259,4.0
31.193,2.343,-0.383,9.0
43.706,3.305,0.668,137.0
43.708,3.316,0.423,134.0
0.0,0.0,0.0,0.0
41.916,3.2,-0.069,140.0
37.748,2.891,-0.275,5.0
30.559,2.348,-0.394,8.0
41.908,3.241,0.614,101.0
41.909,3.251,0.378,136.0
41.902,3.26,0.142,118.0
40.228,3.14,-0.093,98.0
36.466,2.855,-0.29,6.0
29.904,2.348,-0.406,8.0
41.909,3.313,0.586,123.0
41.913,3.323,0.35,129.0
0.0,0.0,0.0,0.0
40.09,3.197,-0.12,78.0
35.722,2.857,-0.309,6.0
29.065,2.332,-0.415,8.0
40.102,3.237,0.532,150.0
40.1,3.246,0.306,150.0
40.076,3.253,0.08,70.0
40.038,3.259,-0.149,70.0
34.564,2.821,-0.323,11.0
28.587,2.34,-0.428,7.0
40.104,3.303,0.503,119.0
40.12,3.313,0.277,137.0
40.106,3.321,0.05,150.0
40.001,3.321,-0.179,43.0
33.876,2.82,-0.342,10.0
27.667,2.31,-0.436,7.0
40.109,3.368,0.472,112.0
40.112,3.377,0.246,118.0
40.108,3.385,0.019,150.0
40.013,3.386,-0.21,44.0
32.06,2.721,-0.349,8.0
26.806,2.281,-0.443,6.0
40.099,3.431,0.44,6.0
53.557,4.594,0.286,6.0
40.096,3.448,-0.012,94.0
39.865,3.437,-0.241,15.0
31.544,2.727,-0.369,9.0
26.008,2.254,-0.451,6.0
74.339,6.478,0.756,6.0
47.876,4.181,0.216,3.0
40.108,3.511,-0.045,86.0
37.99,3.333,-0.261,5.0
30.641,2.695,-0.384,9.0
25.496,2.248,-0.464,6.0
73.145,6.484,0.682,6.0
47.507,4.221,0.174,14.0
45.878,4.085,-0.09,20.0
36.567,3.263,-0.283,7.0
29.456,2.635,-0.394,8.0
24.872,2.23,-0.474,7.0
71.946,6.485,0.609,8.0
47.249,4.268,0.132,21.0
45.606,4.129,-0.13,12.0
35.091,3.184,-0.302,6.0
28.693,2.609,-0.41,8.0
24.419,2.225,-0.487,5.0
70.864,6.489,0.536,5.0
46.916,4.305,0.089,21.0
41.058,3.776,-0.154,16.0
34.154,3.148,-0.325,9.0
27.258,2.517,-0.414,20.0
23.782,2.201,-0.496,7.0
69.791,6.491,0.464,0.0
46.624,4.345,0.045,21.0
40.5,3.782,-0.19,16.0
32.893,3.078,-0.344,10.0
26.962,2.528,-0.435,7.0
23.244,2.184,-0.507,5.0
53.385,5.039,0.304,3.0
45.963,4.347,0.001,20.0
39.839,3.775,-0.225,15.0
31.188,2.961,-0.356,9.0
26.115,2.484,-0.447,6.0
22.629,2.157,-0.516,5.0
53.411,5.114,0.252,5.0
45.237,4.339,-0.042,19.0
38.546,3.704,-0.255,11.0
30.504,2.937,-0.378,9.0
25.311,2.442,-0.458,6.0
22.09,2.135,-0.525,6.0
47.92,4.652,0.178,10.0
44.511,4.328,-0.087,19.0
0.0,0.0,0.0,0.0
29.496,2.879,-0.396,8.0
24.724,2.417,-0.472,5.0
21.666,2.122,-0.537,8.0
47.594,4.681,0.129,22.0
44.018,4.336,-0.13,10.0
34.63,3.417,-0.299,8.0
28.658,2.833,-0.413,8.0
23.95,2.371,-0.482,9.0
21.436,2.126,-0.553,1.0
46.683,4.649,0.079,21.0
40.064,3.996,-0.16,15.0
33.634,3.36,-0.326,7.0
27.492,2.751,-0.425,7.0
23.522,2.358,-0.498,5.0
18.322,1.84,-0.492,17.0
45.589,4.594,0.028,22.0
39.617,3.999,-0.2,15.0
31.987,3.234,-0.344,9.0
26.211,2.654,-0.433,6.0
22.968,2.329,-0.511,5.0
17.915,1.82,-0.5,20.0
44.66,4.552,-0.019,19.0
38.868,3.968,-0.238,14.0
31.005,3.17,-0.366,9.0
25.33,2.593,-0.446,6.0
22.39,2.296,-0.522,4.0
17.721,1.82,-0.514,19.0
0.0,0.0,0.0,0.0
36.923,3.81,-0.266,13.0
29.876,3.087,-0.386,8.0
24.789,2.565,-0.464,12.0
18.181,1.884,-0.444,12.0
17.618,1.829,-0.531,18.0
39.646,4.128,-0.103,14.0
34.94,3.643,-0.29,7.0
28.877,3.015,-0.405,8.0
24.28,2.538,-0.481,5.0
17.827,1.866,-0.455,18.0
17.461,1.831,-0.545,17.0
39.233,4.126,-0.146,18.0
0.0,0.0,0.0,0.0
27.544,2.904,-0.417,7.0
23.505,2.481,-0.492,5.0
17.692,1.87,-0.472,20.0
17.241,1.825,-0.558,15.0
38.644,4.102,-0.188,17.0
31.593,3.357,-0.334,9.0
26.196,2.787,-0.426,6.0
18.232,1.942,-0.402,8.0
17.59,1.876,-0.489,17.0
17.105,1.827,-0.573,17.0
38.15,4.085,-0.229,14.0
30.839,3.306,-0.361,9.0
25.332,2.719,-0.441,6.0
17.83,1.916,-0.414,15.0
17.459,1.878,-0.505,16.0
16.914,1.822,-0.586,15.0
0.0,0.0,0.0,0.0
29.651,3.205,-0.382,8.0
24.726,2.676,-0.46,5.0
17.666,1.914,-0.431,18.0
17.264,1.873,-0.52,16.0
16.73,1.817,-0.6,12.0
34.714,3.779,-0.289,9.0
28.441,3.099,-0.4,8.0
24.331,2.654,-0.481,5.0
17.565,1.918,-0.449,20.0
17.126,1.872,-0.536,18.0
16.633,1.821,-0.616,16.0
32.994,3.619,-0.314,10.0
27.172,2.983,-0.413,7.0
17.885,1.965,-0.374,10.0
17.427,1.917,-0.466,17.0
16.951,1.867,-0.551,12.0
16.522,1.821,-0.631,15.0
31.784,3.51,-0.339,10.0
26.045,2.879,-0.427,6.0
17.688,1.957,-0.391,18.0
17.304,1.916,-0.483,16.0
16.759,1.858,-0.564,13.0
16.376,1.817,-0.645,16.0
30.409,3.381,-0.361,9.0
25.382,2.824,-0.447,6.0
17.589,1.959,-0.41,17.0
17.148,1.911,-0.5,17.0
16.659,1.859,-0.581,15.0
16.305,1.821,-0.662,16.0
29.21,3.267,-0.382,8.0
18.074,2.023,-0.34,10.0
17.403,1.95,-0.427,14.0
16.993,1.905,-0.516,14.0
16.533,1.855,-0.596,16.0
16.212,1.821,-0.678,15.0
28.072,3.158,-0.401,7.0
17.844,2.009,-0.357,15.0
17.261,1.945,-0.444,14.0
16.811,1.896,-0.53,13.0
16.408,1.852,-0.612,16.0
16.108,1.82,-0.693,14.0
26.715,3.021,-0.414,7.0
17.605,1.992,-0.373,15.0
17.115,1.938,-0.461,14.0
16.714,1.894,-0.548,14.0
16.335,1.853,-0.629,17.0
16.008,1.817,-0.709,15.0
25.998,2.954,-0.434,3.0
17.431,1.982,-0.391,15.0
17.023,1.937,-0.479,16.0
16.579,1.888,-0.564,16.0
16.301,1.858,-0.648,16.0
15.942,1.818,-0.725,13.0
18.115,2.068,-0.325,13.0
17.311,1.977,-0.409,16.0
16.887,1.93,-0.496,13.0
16.453,1.882,-0.579,16.0
16.215,1.856,-0.664,12.0
15.962,1.828,-0.746,5.0
17.873,2.048,-0.342,15.0
17.163,1.968,-0.427,15.0
16.763,1.923,-0.513,14.0
16.369,1.879,-0.597,17.0
16.116,1.852,-0.68,12.0
16.091,1.85,-0.772,2.0
17.657,2.031,-0.36,18.0
17.039,1.961,-0.445,15.0
16.682,1.921,-0.531,15.0
16.321,1.88,-0.615,18.0
16.059,1.851,-0.697,13.0
16.146,1.863,-0.794,2.0
17.443,2.013,-0.377,17.0
16.909,1.952,-0.462,14.0
16.526,1.909,-0.547,16.0
16.279,1.881,-0.633,16.0
15.976,1.847,-0.714,15.0
0.0,0.0,0.0,0.0
17.279,1.999,-0.395,18.0
16.772,1.942,-0.479,14.0
16.446,1.905,-0.564,19.0
16.204,1.878,-0.651,13.0
15.918,1.845,-0.731,8.0
0.0,0.0,0.0,0.0
17.146,1.989,-0.412,18.0
16.71,1.939,-0.498,16.0
16.369,1.9,-0.582,17.0
16.116,1.872,-0.667,12.0
16.023,1.862,-0.755,3.0
16.387,1.905,-0.867,3.0
17.031,1.979,-0.431,18.0
16.64,1.935,-0.516,16.0
16.316,1.898,-0.6,17.0
16.056,1.868,-0.684,12.0
16.085,1.872,-0.778,2.0
16.423,1.913,-0.889,1.0
16.889,1.966,-0.447,16.0
16.56,1.928,-0.534,16.0
16.289,1.897,-0.618,16.0
15.977,1.862,-0.7,12.0
16.112,1.878,-0.798,3.0
16.501,1.924,-0.913,1.0
16.775,1.955,-0.465,16.0
16.47,1.92,-0.551,19.0
16.255,1.896,-0.637,13.0
15.953,1.861,-0.718,14.0
16.162,1.886,-0.821,4.0
16.688,1.948,-0.943,0.0
16.711,1.949,-0.483,18.0
16.391,1.912,-0.568,18.0
16.171,1.887,-0.653,12.0
15.908,1.857,-0.735,6.0
0.0,0.0,0.0,0.0
13.52,1.579,-0.78,0.0
16.657,1.944,-0.501,18.0
16.338,1.907,-0.585,18.0
16.118,1.882,-0.67,12.0
16.036,1.872,-0.761,2.0
16.363,1.911,-0.87,2.0
13.292,1.553,-0.783,0.0
16.609,1.938,-0.52,18.0
16.305,1.903,-0.604,18.0
16.068,1.876,-0.687,12.0
16.082,1.878,-0.782,2.0
16.424,1.918,-0.893,1.0
13.036,1.523,-0.784,0.0
16.532,1.929,-0.537,18.0
16.274,1.899,-0.622,16.0
15.988,1.865,-0.703,13.0
16.137,1.883,-0.804,2.0
16.553,1.932,-0.919,1.0
12.906,1.507,-0.791,0.0
16.452,1.918,-0.554,21.0
16.233,1.892,-0.639,13.0
15.922,1.856,-0.719,12.0
0.0,0.0,0.0,0.0
16.7,1.947,-0.947,0.0
12.755,1.488,-0.797,0.0
16.398,1.91,-0.571,19.0
16.175,1.883,-0.656,13.0
15.953,1.858,-0.738,5.0
16.372,1.907,-0.854,4.0
13.504,1.573,-0.782,0.0
12.622,1.47,-0.803,0.0
16.341,1.9,-0.588,18.0
16.119,1.874,-0.672,12.0
16.089,1.87,-0.763,2.0
16.38,1.904,-0.873,2.0
13.254,1.541,-0.782,0.0
12.499,1.453,-0.81,0.0
16.321,1.894,-0.605,19.0
16.049,1.862,-0.687,12.0
16.114,1.87,-0.782,2.0
16.498,1.914,-0.898,1.0
13.086,1.518,-0.787,0.0
12.344,1.432,-0.813,0.0
16.303,1.888,-0.623,18.0
15.99,1.851,-0.702,13.0
16.122,1.866,-0.801,3.0
16.623,1.924,-0.923,1.0
12.86,1.488,-0.788,0.0
12.163,1.408,-0.815,0.0
16.273,1.879,-0.639,16.0
15.911,1.837,-0.717,12.0
0.0,0.0,0.0,0.0
16.904,1.951,-0.957,0.0
12.751,1.472,-0.795,0.0
12.015,1.386,-0.818,0.0
16.24,1.87,-0.656,16.0
15.95,1.836,-0.736,5.0
16.487,1.897,-0.855,2.0
13.567,1.561,-0.783,0.0
12.626,1.452,-0.801,0.0
11.835,1.361,-0.819,0.0
16.156,1.854,-0.67,13.0
16.087,1.845,-0.759,2.0
16.544,1.897,-0.875,1.0
13.309,1.526,-0.782,0.0
12.494,1.432,-0.806,0.0
11.714,1.342,-0.823,0.0
16.107,1.841,-0.685,15.0
16.166,1.847,-0.78,2.0
16.658,1.903,-0.899,0.0
13.12,1.498,-0.785,0.0
12.407,1.416,-0.813,0.0
11.53,1.316,-0.822,0.0
16.037,1.825,-0.698,16.0
0.0,0.0,0.0,0.0
16.809,1.912,-0.924,1.0
12.931,1.47,-0.787,0.0
12.222,1.389,-0.814,0.0
11.487,1.305,-0.831,0.0
15.972,1.81,-0.712,16.0
0.0,0.0,0.0,0.0
17.163,1.943,-0.961,0.0
12.789,1.447,-0.791,0.0
12.119,1.371,-0.819,0.0
11.276,1.275,-0.827,0.0
15.907,1.793,-0.724,11.0
16.913,1.906,-0.867,1.0
13.635,1.536,-0.777,0.0
12.677,1.427,-0.796,0.0
11.991,1.349,-0.822,0.0
11.115,1.25,-0.826,0.0
16.022,1.797,-0.745,5.0
17.008,1.906,-0.888,2.0
13.503,1.512,-0.782,0.0
12.509,1.4,-0.798,0.0
11.858,1.327,-0.824,0.0
11.061,1.237,-0.833,0.0
16.178,1.804,-0.768,2.0
17.032,1.898,-0.905,2.0
13.239,1.474,-0.78,0.0
12.52,1.393,-0.81,0.0
11.711,1.303,-0.825,0.0
10.955,1.218,-0.835,0.0
16.415,1.819,-0.794,2.0
17.087,1.892,-0.924,2.0
13.171,1.458,-0.788,0.0
12.415,1.373,-0.815,0.0
11.644,1.287,-0.831,0.0
10.832,1.197,-0.835,0.0
17.206,1.894,-0.847,1.0
17.257,1.898,-0.949,0.0
12.934,1.422,-0.785,0.0
12.264,1.347,-0.816,0.0
11.505,1.263,-0.831,0.0
10.758,1.181,-0.839,0.0
17.497,1.913,-0.877,1.0
17.497,1.912,-0.977,0.0
12.853,1.403,-0.791,0.0
12.152,1.325,-0.819,0.0
11.364,1.239,-0.831,0.0
10.694,1.165,-0.843,0.0
17.597,1.91,-0.897,1.0
17.672,1.916,-1.001,0.0
12.704,1.376,-0.792,0.0
12.071,1.307,-0.823,0.0
11.211,1.213,-0.829,0.0
10.584,1.144,-0.843,0.0
17.671,1.903,-0.915,0.0
13.626,1.466,-0.783,0.0
12.714,1.367,-0.803,0.0
11.869,1.275,-0.819,0.0
11.12,1.193,-0.831,0.0
10.541,1.13,-0.848,0.0
17.613,1.881,-0.926,0.0
13.419,1.432,-0.782,0.0
12.576,1.341,-0.804,0.0
11.731,1.25,-0.819,0.0
11.149,1.187,-0.842,0.0
10.478,1.114,-0.851,0.0
17.596,1.863,-0.938,0.0
13.313,1.408,-0.785,0.0
12.501,1.321,-0.809,0.0
11.715,1.237,-0.826,0.0
10.992,1.16,-0.838,0.0
10.407,1.097,-0.853,0.0
17.576,1.845,-0.95,0.0
13.239,1.388,-0.791,0.0
12.452,1.304,-0.814,0.0
11.64,1.218,-0.829,0.0
10.981,1.148,-0.845,0.0
10.332,1.079,-0.854,0.0
17.638,1.834,-0.965,0.0
13.172,1.368,-0.795,0.0
12.372,1.284,-0.818,0.0
11.529,1.195,-0.829,0.0
10.865,1.125,-0.843,0.0
10.247,1.06,-0.854,0.0
17.734,1.826,-0.982,0.0
13.086,1.346,-0.799,0.0
12.275,1.261,-0.819,0.0
11.455,1.176,-0.831,0.0
10.823,1.11,-0.847,0.0
10.251,1.05,-0.861,0.0
13.749,1.401,-0.77,0.0
12.934,1.317,-0.798,0.0
12.183,1.239,-0.821,0.0
11.307,1.148,-0.827,0.0
10.685,1.084,-0.843,0.0
10.188,1.033,-0.861,0.0
13.688,1.381,-0.774,0.0
12.827,1.292,-0.799,0.0
12.139,1.221,-0.825,0.0
11.276,1.133,-0.831,0.0
10.695,1.073,-0.849,0.0
10.115,1.014,-0.861,0.0
13.709,1.368,-0.783,0.0
12.766,1.272,-0.802,0.0
12.034,1.197,-0.824,0.0
11.265,1.119,-0.837,0.0
10.653,1.057,-0.852,0.0
10.11,1.002,-0.866,0.0
13.612,1.342,-0.785,0.0
12.745,1.255,-0.807,0.0
11.953,1.175,-0.825,0.0
11.13,1.093,-0.832,0.0
10.609,1.041,-0.854,0.0
10.027,0.982,-0.864,0.0
13.485,1.314,-0.784,0.0
12.668,1.233,-0.808,0.0
11.927,1.159,-0.829,0.0
11.078,1.075,-0.834,0.0
10.535,1.021,-0.853,0.0
10.025,0.97,-0.868,0.0
13.375,1.288,-0.784,0.0
12.664,1.217,-0.814,0.0
11.78,1.131,-0.824,0.0
11.118,1.066,-0.841,0.0
10.516,1.006,-0.856,0.0
9.97,0.953,-0.868,0.0
13.295,1.264,-0.785,0.0
12.551,1.191,-0.812,0.0
11.664,1.105,-0.82,0.0
11.133,1.053,-0.847,0.0
10.451,0.987,-0.854,0.0
9.953,0.939,-0.87,0.0
13.333,1.251,-0.792,0.0
12.577,1.178,-0.818,0.0
11.698,1.094,-0.827,0.0
11.076,1.034,-0.847,0.0
10.443,0.973,-0.857,0.0
9.929,0.924,-0.872,0.0
13.384,1.239,-0.799,0.0
12.527,1.157,-0.819,0.0
11.631,1.073,-0.826,0.0
11.036,1.016,-0.847,0.0
10.402,0.956,-0.857,0.0
9.912,0.91,-0.873,0.0
13.28,1.212,-0.797,0.0
12.49,1.138,-0.82,0.0
11.603,1.055,-0.827,0.0
10.997,0.998,-0.847,0.0
10.38,0.941,-0.859,0.0
9.956,0.901,-0.88,0.0
13.164,1.184,-0.794,0.0
12.437,1.117,-0.82,0.0
11.592,1.039,-0.83,0.0
11.008,0.985,-0.851,0.0
10.372,0.926,-0.86,0.0
9.899,0.882,-0.877,0.0
13.221,1.172,-0.8,0.0
12.492,1.105,-0.826,0.0
11.584,1.022,-0.831,0.0
11.006,0.97,-0.853,0.0
10.389,0.914,-0.864,0.0
9.899,0.869,-0.879,0.0
13.187,1.151,-0.801,0.0
12.393,1.079,-0.822,0.0
11.622,1.01,-0.836,0.0
10.951,0.95,-0.851,0.0
10.374,0.898,-0.864,0.0
9.859,0.852,-0.877,0.0
13.09,1.124,-0.797,0.0
12.407,1.063,-0.825,0.0
11.624,0.994,-0.838,0.0
10.918,0.932,-0.849,0.0
10.361,0.882,-0.864,0.0
9.908,0.842,-0.883,0.0
12.987,1.097,-0.792,0.0
12.411,1.046,-0.826,0.0
11.685,0.983,-0.843,0.0
10.934,0.917,-0.852,0.0
10.324,0.864,-0.862,0.0
9.904,0.827,-0.883,0.0
13.075,1.086,-0.798,0.0
12.432,1.03,-0.828,0.0
11.703,0.967,-0.845,0.0
10.945,0.903,-0.853,0.0
10.392,0.855,-0.868,0.0
9.905,0.813,-0.883,0.0
13.057,1.066,-0.797,0.0
12.335,1.004,-0.822,0.0
11.737,0.953,-0.848,0.0
10.999,0.891,-0.857,0.0
10.377,0.839,-0.867,0.0
9.911,0.8,-0.884,0.0
13.111,1.051,-0.8,0.0
12.365,0.989,-0.824,0.0
11.667,0.931,-0.842,0.0
11.048,0.879,-0.861,0.0
10.372,0.823,-0.866,0.0
9.905,0.784,-0.883,0.0
13.094,1.031,-0.798,0.0
12.392,0.973,-0.825,0.0
11.696,0.916,-0.844,0.0
10.993,0.858,-0.855,0.0
10.381,0.809,-0.866,0.0
9.938,0.772,-0.885,0.0
13.142,1.015,-0.8,0.0
12.376,0.953,-0.822,0.0
11.699,0.898,-0.842,0.0
11.001,0.842,-0.855,0.0
10.453,0.798,-0.871,0.0
9.935,0.757,-0.883,0.0
13.143,0.995,-0.798,0.0
12.41,0.937,-0.823,0.0
11.732,0.883,-0.843,0.0
11.091,0.833,-0.86,0.0
10.434,0.781,-0.867,0.0
