X,Y,Z,Reflectivity
11.332,-0.829,-0.896,0.0
10.663,-0.783,-0.903,0.0
10.113,-0.745,-0.913,0.0
9.557,-0.707,-0.918,0.0
9.149,-0.679,-0.93,0.0
8.699,-0.648,-0.933,0.0
11.362,-0.846,-0.898,0.0
10.755,-0.804,-0.91,0.0
10.069,-0.755,-0.909,0.0
9.559,-0.72,-0.917,0.0
9.123,-0.689,-0.927,0.0
8.722,-0.661,-0.935,0.0
11.402,-0.864,-0.9,0.0
10.757,-0.818,-0.909,0.0
10.149,-0.774,-0.915,0.0
9.632,-0.738,-0.923,0.0
9.161,-0.704,-0.929,0.0
8.718,-0.672,-0.933,0.0
11.357,-0.875,-0.895,0.0
10.705,-0.828,-0.904,0.0
10.154,-0.788,-0.914,0.0
9.65,-0.751,-0.923,0.0
9.168,-0.716,-0.929,0.0
8.735,-0.685,-0.934,0.0
11.356,-0.89,-0.893,0.0
10.822,-0.85,-0.912,0.0
10.091,-0.796,-0.906,0.0
9.663,-0.764,-0.923,0.0
9.215,-0.731,-0.932,0.0
8.734,-0.696,-0.932,0.0
11.402,-0.907,-0.894,0.0
10.811,-0.863,-0.908,0.0
10.155,-0.813,-0.91,0.0
9.674,-0.777,-0.922,0.0
9.225,-0.744,-0.93,0.0
8.762,-0.709,-0.933,0.0
11.378,-0.919,-0.89,0.0
10.818,-0.877,-0.906,0.0
10.212,-0.83,-0.912,0.0
9.673,-0.789,-0.919,0.0
9.221,-0.754,-0.927,0.0
8.784,-0.721,-0.933,0.0
11.464,-0.94,-0.893,0.0
10.905,-0.897,-0.91,0.0
10.297,-0.849,-0.917,0.0
9.762,-0.808,-0.924,0.0
9.273,-0.769,-0.93,0.0
8.824,-0.734,-0.934,0.0
11.492,-0.956,-0.891,0.0
10.925,-0.911,-0.908,0.0
10.315,-0.863,-0.915,0.0
9.797,-0.822,-0.924,0.0
9.312,-0.784,-0.93,0.0
8.882,-0.75,-0.937,0.0
11.608,-0.979,-0.896,0.0
10.922,-0.924,-0.904,0.0
10.429,-0.884,-0.921,0.0
9.811,-0.834,-0.921,0.0
9.366,-0.799,-0.932,0.0
8.907,-0.762,-0.936,0.0
11.682,-0.998,-0.897,0.0
10.969,-0.94,-0.903,0.0
10.346,-0.889,-0.909,0.0
9.9,-0.853,-0.925,0.0
9.388,-0.811,-0.93,0.0
8.946,-0.775,-0.936,0.0
11.677,-1.01,-0.891,0.0
11.043,-0.958,-0.904,0.0
10.372,-0.902,-0.906,0.0
9.907,-0.864,-0.921,0.0
9.392,-0.822,-0.926,0.0
8.973,-0.787,-0.934,0.0
11.781,-1.032,-0.894,0.0
11.071,-0.972,-0.901,0.0
10.452,-0.92,-0.908,0.0
9.958,-0.879,-0.921,0.0
9.442,-0.836,-0.926,0.0
9.03,-0.802,-0.935,0.0
11.801,-1.046,-0.889,0.0
11.142,-0.99,-0.9,0.0
10.564,-0.942,-0.912,0.0
9.953,-0.889,-0.915,0.0
9.519,-0.853,-0.928,0.0
9.081,-0.816,-0.935,0.0
11.954,-1.072,-0.894,0.0
11.154,-1.003,-0.895,0.0
10.641,-0.959,-0.912,0.0
10.109,-0.913,-0.924,0.0
9.564,-0.866,-0.927,0.0
9.134,-0.83,-0.935,0.0
11.997,-1.088,-0.89,0.0
11.345,-1.031,-0.903,0.0
10.725,-0.977,-0.913,0.0
10.076,-0.92,-0.914,0.0
9.593,-0.878,-0.923,0.0
9.184,-0.843,-0.935,0.0
12.109,-1.11,-0.89,0.0
11.391,-1.046,-0.9,0.0
10.78,-0.993,-0.911,0.0
10.144,-0.936,-0.914,0.0
9.63,-0.891,-0.92,0.0
9.206,-0.854,-0.931,0.0
12.209,-1.13,-0.889,0.0
11.449,-1.063,-0.897,0.0
10.908,-1.015,-0.914,0.0
10.246,-0.955,-0.916,0.0
9.774,-0.913,-0.927,0.0
9.253,-0.867,-0.929,0.0
12.271,-1.147,-0.885,0.0
11.51,-1.079,-0.893,0.0
10.912,-1.025,-0.906,0.0
10.356,-0.975,-0.918,0.0
9.852,-0.929,-0.927,0.0
9.348,-0.884,-0.931,0.0
12.447,-1.175,-0.889,0.0
11.643,-1.101,-0.895,0.0
11.054,-1.048,-0.91,0.0
10.451,-0.992,-0.918,0.0
9.873,-0.94,-0.922,0.0
9.425,-0.899,-0.932,0.0
12.506,-1.191,-0.883,0.0
11.792,-1.125,-0.897,0.0
11.126,-1.063,-0.907,0.0
10.557,-1.011,-0.919,0.0
9.987,-0.958,-0.924,0.0
9.46,-0.91,-0.928,0.0
12.564,-1.206,-0.877,0.0
11.881,-1.143,-0.894,0.0
11.184,-1.078,-0.903,0.0
10.598,-1.023,-0.914,0.0
10.057,-0.973,-0.923,0.0
9.546,-0.925,-0.928,0.0
12.763,-1.235,-0.88,0.0
12.022,-1.166,-0.895,0.0
11.265,-1.094,-0.9,0.0
10.723,-1.044,-0.916,0.0
10.11,-0.986,-0.919,0.0
9.623,-0.94,-0.927,0.0
12.847,-1.253,-0.875,0.0
12.106,-1.183,-0.89,0.0
11.411,-1.117,-0.901,0.0
10.766,-1.055,-0.91,0.0
10.231,-1.005,-0.921,0.0
9.719,-0.956,-0.928,0.0
13.032,-1.28,-0.876,0.0
12.241,-1.204,-0.889,0.0
11.626,-1.146,-0.908,0.0
10.876,-1.074,-0.909,0.0
10.292,-1.018,-0.916,0.0
9.81,-0.972,-0.927,0.0
13.128,-1.298,-0.87,0.0
12.381,-1.226,-0.888,0.0
11.69,-1.16,-0.901,0.0
10.987,-1.092,-0.908,0.0
10.433,-1.038,-0.919,0.0
9.913,-0.988,-0.927,0.0
13.412,-1.335,-0.876,0.0
12.493,-1.245,-0.884,0.0
11.778,-1.175,-0.897,0.0
11.091,-1.109,-0.906,0.0
10.567,-1.058,-0.92,0.0
10.01,-1.004,-0.926,0.0
13.622,-1.363,-0.877,0.0
12.626,-1.266,-0.881,0.0
11.947,-1.199,-0.898,0.0
11.239,-1.13,-0.907,0.0
10.641,-1.071,-0.916,0.0
10.094,-1.018,-0.924,0.0
13.77,-1.386,-0.872,0.0
12.722,-1.282,-0.875,0.0
12.071,-1.218,-0.895,0.0
11.344,-1.146,-0.904,0.0
10.775,-1.09,-0.917,0.0
10.229,-1.036,-0.926,0.0
13.962,-1.412,-0.87,0.0
12.936,-1.31,-0.876,0.0
12.188,-1.236,-0.891,0.0
11.475,-1.165,-0.902,0.0
10.859,-1.104,-0.912,0.0
10.292,-1.048,-0.92,0.0
14.152,-1.438,-0.867,0.0
13.177,-1.341,-0.878,0.0
12.31,-1.254,-0.887,0.0
11.618,-1.185,-0.901,0.0
10.989,-1.122,-0.911,0.0
10.43,-1.066,-0.922,0.0
14.378,-1.467,-0.866,0.0
13.413,-1.37,-0.88,0.0
12.508,-1.279,-0.887,0.0
11.755,-1.203,-0.899,0.0
11.119,-1.14,-0.91,0.0
10.568,-1.084,-0.922,0.0
14.636,-1.499,-0.865,0.0
13.584,-1.393,-0.876,0.0
12.661,-1.299,-0.884,0.0
11.9,-1.223,-0.896,0.0
11.251,-1.157,-0.908,0.0
10.66,-1.098,-0.918,0.0
14.785,-1.52,-0.857,0.0
13.756,-1.415,-0.871,0.0
12.83,-1.321,-0.882,0.0
12.061,-1.243,-0.895,0.0
11.392,-1.175,-0.906,0.0
10.786,-1.114,-0.916,0.0
15.083,-1.555,-0.857,0.0
13.994,-1.444,-0.87,0.0
13.056,-1.348,-0.882,0.0
12.148,-1.255,-0.887,0.0
11.564,-1.196,-0.906,0.0
10.874,-1.126,-0.911,0.0
15.339,-1.585,-0.854,0.0
14.243,-1.473,-0.869,0.0
13.225,-1.369,-0.878,0.0
12.271,-1.271,-0.881,0.0
11.678,-1.211,-0.902,0.0
11.058,-1.147,-0.913,0.0
15.648,-1.621,-0.852,0.0
14.481,-1.501,-0.866,0.0
13.509,-1.401,-0.88,0.0
12.536,-1.301,-0.885,0.0
11.871,-1.233,-0.902,0.0
11.174,-1.161,-0.909,0.0
15.927,-1.653,-0.848,0.0
14.769,-1.533,-0.866,0.0
13.656,-1.418,-0.873,0.0
12.82,-1.332,-0.89,0.0
12.011,-1.249,-0.898,0.0
11.325,-1.178,-0.908,0.0
16.252,-1.688,-0.846,0.0
14.999,-1.559,-0.861,0.0
13.946,-1.45,-0.875,0.0
12.941,-1.346,-0.882,0.0
12.184,-1.268,-0.896,0.0
11.436,-1.191,-0.902,0.0
16.357,-1.701,-0.831,0.0
15.232,-1.584,-0.855,0.0
14.168,-1.474,-0.871,0.0
13.095,-1.363,-0.876,0.0
12.328,-1.284,-0.891,0.0
11.654,-1.214,-0.905,0.0
16.793,-1.747,-0.833,0.0
15.527,-1.616,-0.852,0.0
14.455,-1.505,-0.871,0.0
13.4,-1.395,-0.88,0.0
12.602,-1.313,-0.895,0.0
11.881,-1.238,-0.907,0.0
17.285,-1.798,-0.835,0.0
15.897,-1.654,-0.853,0.0
14.738,-1.534,-0.869,0.0
13.64,-1.42,-0.878,0.0
12.676,-1.32,-0.884,0.0
11.968,-1.247,-0.899,0.0
17.671,-1.838,-0.831,0.0
16.21,-1.686,-0.849,0.0
14.952,-1.555,-0.862,0.0
13.894,-1.445,-0.877,0.0
12.925,-1.345,-0.885,0.0
12.128,-1.262,-0.895,0.0
18.084,-1.879,-0.828,0.0
16.359,-1.7,-0.836,0.0
15.212,-1.581,-0.858,0.0
14.129,-1.468,-0.873,0.0
13.19,-1.371,-0.886,0.0
12.312,-1.28,-0.892,0.0
18.289,-1.898,-0.813,0.0
16.614,-1.724,-0.827,0.0
15.503,-1.609,-0.854,0.0
14.367,-1.491,-0.87,0.0
13.396,-1.39,-0.882,0.0
12.508,-1.298,-0.89,0.0
18.514,-1.918,-0.799,0.0
0.0,0.0,0.0,0.0
15.948,-1.652,-0.858,0.0
14.709,-1.523,-0.871,0.0
13.643,-1.413,-0.88,0.0
12.747,-1.32,-0.89,0.0
19.178,-1.983,-0.803,0.0
17.621,-1.821,-0.831,0.0
16.217,-1.676,-0.851,0.0
14.865,-1.536,-0.86,0.0
13.871,-1.433,-0.877,0.0
12.877,-1.33,-0.882,0.0
19.696,-2.031,-0.798,0.0
18.075,-1.863,-0.828,0.0
16.418,-1.692,-0.839,0.0
15.14,-1.56,-0.856,0.0
14.079,-1.45,-0.871,0.0
13.148,-1.354,-0.884,0.0
20.067,-2.063,-0.787,0.0
18.349,-1.886,-0.817,0.0
16.71,-1.716,-0.832,0.0
15.473,-1.589,-0.855,0.0
14.413,-1.479,-0.873,0.0
13.429,-1.378,-0.884,0.0
20.597,-2.11,-0.78,0.0
18.6,-1.905,-0.803,0.0
17.126,-1.753,-0.83,0.0
15.943,-1.631,-0.859,0.0
14.672,-1.5,-0.869,0.0
13.657,-1.396,-0.881,0.0
20.977,-2.141,-0.767,0.0
19.259,-1.964,-0.806,0.0
17.526,-1.786,-0.826,0.0
16.185,-1.649,-0.851,0.0
14.876,-1.514,-0.861,0.0
13.877,-1.412,-0.877,0.0
21.888,-2.224,-0.771,0.0
19.679,-1.998,-0.797,0.0
17.795,-1.805,-0.815,0.0
16.366,-1.659,-0.838,0.0
15.33,-1.553,-0.866,0.0
14.183,-1.436,-0.877,0.0
22.254,-2.25,-0.754,0.0
20.305,-2.052,-0.795,0.0
18.351,-1.853,-0.816,0.0
16.608,-1.675,-0.828,0.0
15.563,-1.569,-0.859,0.0
14.624,-1.473,-0.885,0.0
22.913,-2.305,-0.746,0.0
20.648,-2.075,-0.781,0.0
18.656,-1.873,-0.805,0.0
17.147,-1.72,-0.832,0.0
15.904,-1.594,-0.856,0.0
14.741,-1.476,-0.872,1.0
23.676,-2.368,-0.739,0.0
21.019,-2.1,-0.767,0.0
19.301,-1.926,-0.807,0.0
17.493,-1.744,-0.825,0.0
16.225,-1.616,-0.852,0.0
14.847,-1.478,-0.858,0.0
24.278,-2.413,-0.725,0.0
21.663,-2.151,-0.762,0.0
19.857,-1.969,-0.804,0.0
17.943,-1.777,-0.823,0.0
16.508,-1.633,-0.845,0.0
15.22,-1.504,-0.859,0.0
24.943,-2.463,-0.712,0.0
22.355,-2.204,-0.756,0.0
20.109,-1.98,-0.787,0.0
18.472,-1.817,-0.823,0.0
16.736,-1.644,-0.834,0.0
15.553,-1.526,-0.857,0.0
25.995,-2.548,-0.707,0.0
23.039,-2.255,-0.749,0.0
20.647,-2.018,-0.78,0.0
18.598,-1.815,-0.803,0.0
17.135,-1.67,-0.831,0.0
15.958,-1.554,-0.858,0.0
26.26,-2.554,-0.68,0.0
23.66,-2.298,-0.738,0.0
21.325,-2.068,-0.778,0.0
19.127,-1.852,-0.801,0.0
17.485,-1.691,-0.825,0.0
16.273,-1.571,-0.854,0.0
27.169,-2.621,-0.667,0.0
24.436,-2.353,-0.729,0.0
21.567,-2.074,-0.758,0.0
19.891,-1.91,-0.806,0.0
18.073,-1.732,-0.829,0.0
16.59,-1.588,-0.848,0.0
28.259,-2.702,-0.657,0.0
25.063,-2.392,-0.715,0.0
0.0,0.0,0.0,0.0
20.339,-1.935,-0.798,0.0
18.33,-1.741,-0.816,0.0
16.84,-1.597,-0.839,0.0
29.081,-2.755,-0.638,0.0
26.13,-2.471,-0.712,0.0
22.976,-2.169,-0.747,0.0
20.544,-1.936,-0.779,0.0
18.687,-1.757,-0.808,0.0
17.203,-1.615,-0.835,0.0
29.951,-2.809,-0.618,0.0
26.738,-2.503,-0.694,0.0
23.417,-2.188,-0.731,0.0
0.0,0.0,0.0,0.0
19.278,-1.794,-0.808,0.0
17.477,-1.624,-0.826,0.0
0.0,0.0,0.0,0.0
27.094,-2.51,-0.668,0.0
24.261,-2.243,-0.727,0.0
21.651,-1.998,-0.765,0.0
19.773,-1.821,-0.804,0.0
18.176,-1.67,-0.835,0.0
0.0,0.0,0.0,0.0
28.199,-2.583,-0.659,0.0
24.939,-2.28,-0.715,0.0
22.344,-2.038,-0.761,0.0
20.248,-1.843,-0.797,0.0
18.269,-1.66,-0.816,0.0
33.796,-3.067,-0.569,0.0
28.796,-2.608,-0.637,0.0
25.527,-2.306,-0.7,0.0
22.73,-2.049,-0.746,0.0
20.576,-1.851,-0.784,0.0
18.794,-1.687,-0.816,0.0
34.312,-3.076,-0.535,0.0
0.0,0.0,0.0,0.0
25.72,-2.295,-0.673,0.0
23.328,-2.077,-0.736,0.0
20.95,-1.861,-0.773,0.0
19.303,-1.71,-0.814,0.0
0.0,0.0,0.0,0.0
0.0,0.0,0.0,0.0
27.009,-2.379,-0.674,0.0
24.134,-2.121,-0.733,0.0
21.418,-1.877,-0.764,0.0
19.693,-1.722,-0.807,0.0
0.0,0.0,0.0,0.0
0.0,0.0,0.0,0.0
0.0,0.0,0.0,0.0
24.863,-2.154,-0.724,0.0
22.053,-1.906,-0.759,0.0
20.037,-1.727,-0.796,0.0
39.225,-3.378,-0.467,0.0
32.931,-2.828,-0.567,0.0
29.399,-2.517,-0.662,0.0
0.0,0.0,0.0,0.0
22.688,-1.932,-0.754,0.0
20.325,-1.726,-0.783,0.0
0.0,0.0,0.0,0.0
0.0,0.0,0.0,0.0
29.68,-2.504,-0.633,0.0
26.187,-2.203,-0.7,0.0
23.289,-1.954,-0.747,0.0
20.732,-1.734,-0.775,0.0
0.0,0.0,0.0,0.0
0.0,0.0,0.0,0.0
0.0,0.0,0.0,0.0
26.576,-2.201,-0.68,0.0
24.18,-1.997,-0.747,0.0
21.207,-1.746,-0.768,0.0
0.0,0.0,0.0,0.0
0.0,0.0,0.0,0.0
0.0,0.0,0.0,0.0
27.573,-2.246,-0.674,0.0
24.409,-1.982,-0.726,0.0
21.772,-1.763,-0.764,0.0
0.0,0.0,0.0,0.0
38.823,-3.129,-0.489,0.0
32.627,-2.621,-0.584,0.0
0.0,0.0,0.0,0.0
24.962,-1.992,-0.715,0.0
22.482,-1.789,-0.764,0.0
0.0,0.0,0.0,0.0
41.694,-3.302,-0.479,0.0
0.0,0.0,0.0,0.0
0.0,0.0,0.0,0.0
24.922,-1.953,-0.686,0.0
22.821,-1.782,-0.75,0.0
0.0,0.0,0.0,0.0
41.63,-3.236,-0.432,1.0
0.0,0.0,0.0,0.0
29.733,-2.294,-0.628,0.0
26.228,-2.017,-0.694,0.0
23.283,-1.784,-0.74,0.0
0.0,0.0,0.0,0.0
0.0,0.0,0.0,0.0
0.0,0.0,0.0,0.0
0.0,0.0,0.0,0.0
26.945,-2.032,-0.685,0.0
24.236,-1.821,-0.745,0.0
0.0,0.0,0.0,0.0
0.0,0.0,0.0,0.0
36.995,-2.754,-0.504,0.0
31.716,-2.352,-0.604,0.0
27.61,-2.04,-0.673,0.0
24.885,-1.831,-0.74,0.0
0.0,0.0,0.0,0.0
0.0,0.0,0.0,0.0
38.747,-2.824,-0.489,0.0
32.55,-2.363,-0.587,0.0
28.241,-2.042,-0.66,0.0
24.849,-1.789,-0.714,0.0
64.65,-4.649,-0.061,1.0
0.0,0.0,0.0,0.0
40.674,-2.9,-0.472,0.0
33.831,-2.402,-0.577,0.0
28.977,-2.048,-0.649,0.0
25.624,-1.804,-0.711,0.0
0.0,0.0,0.0,0.0
0.0,0.0,0.0,0.0
0.0,0.0,0.0,0.0
33.86,-2.348,-0.545,0.0
29.233,-2.018,-0.626,0.0
0.0,0.0,0.0,0.0
0.0,0.0,0.0,0.0
0.0,0.0,0.0,0.0
0.0,0.0,0.0,0.0
35.753,-2.42,-0.541,0.0
0.0,0.0,0.0,0.0
26.739,-1.793,-0.691,0.0
0.0,0.0,0.0,0.0
0.0,0.0,0.0,0.0
0.0,0.0,0.0,0.0
36.752,-2.425,-0.523,0.0
30.712,-2.017,-0.602,0.0
26.781,-1.751,-0.668,0.0
99.704,-6.506,0.278,8.0
0.0,0.0,0.0,0.0
0.0,0.0,0.0,0.0
0.0,0.0,0.0,0.0
0.0,0.0,0.0,0.0
27.983,-1.781,-0.674,0.0
0.0,0.0,0.0,0.0
0.0,0.0,0.0,0.0
0.0,0.0,0.0,0.0
0.0,0.0,0.0,0.0
32.584,-2.027,-0.582,0.0
28.048,-1.736,-0.652,0.0
108.685,-6.712,0.487,5.0
0.0,0.0,0.0,0.0
0.0,0.0,0.0,0.0
0.0,0.0,0.0,0.0
32.799,-1.982,-0.56,0.0
0.0,0.0,0.0,0.0
109.537,-6.57,0.579,2.0
0.0,0.0,0.0,0.0
0.0,0.0,0.0,0.0
40.401,-2.382,-0.441,0.0
0.0,0.0,0.0,0.0
0.0,0.0,0.0,0.0
119.206,-6.934,0.723,1.0
0.0,0.0,0.0,0.0
0.0,0.0,0.0,0.0
0.0,0.0,0.0,0.0
0.0,0.0,0.0,0.0
29.805,-1.683,-0.623,0.0
101.48,-5.716,0.691,34.0
0.0,0.0,0.0,0.0
0.0,0.0,0.0,0.0
0.0,0.0,0.0,0.0
0.0,0.0,0.0,0.0
30.325,-1.656,-0.612,0.0
101.455,-5.526,0.763,65.0
0.0,0.0,0.0,0.0
0.0,0.0,0.0,0.0
0.0,0.0,0.0,0.0
0.0,0.0,0.0,0.0
0.0,0.0,0.0,0.0
0.0,0.0,0.0,0.0
0.0,0.0,0.0,0.0
0.0,0.0,0.0,0.0
0.0,0.0,0.0,0.0
37.247,-1.907,-0.501,0.0
31.61,-1.607,-0.596,0.0
101.529,-5.145,0.899,151.0
0.0,0.0,0.0,0.0
0.0,0.0,0.0,0.0
0.0,0.0,0.0,0.0
38.264,-1.885,-0.491,0.0
32.001,-1.565,-0.583,0.0
101.547,-4.949,0.962,152.0
0.0,0.0,0.0,0.0
0.0,0.0,0.0,0.0
0.0,0.0,0.0,0.0
0.0,0.0,0.0,0.0
32.414,-1.522,-0.571,0.0
101.53,-4.751,1.021,152.0
0.0,0.0,0.0,0.0
0.0,0.0,0.0,0.0
0.0,0.0,0.0,0.0
0.0,0.0,0.0,0.0
33.008,-1.486,-0.564,0.0
101.466,-4.549,1.076,18.0
102.445,-4.554,0.532,3.0
0.0,0.0,0.0,0.0
0.0,0.0,0.0,0.0
40.439,-1.754,-0.45,0.0
0.0,0.0,0.0,0.0
0.0,0.0,0.0,0.0
102.275,-4.343,0.584,2.0
0.0,0.0,0.0,0.0
0.0,0.0,0.0,0.0
0.0,0.0,0.0,0.0
33.883,-1.39,-0.544,0.0
0.0,0.0,0.0,0.0
0.0,0.0,0.0,0.0
0.0,0.0,0.0,0.0
0.0,0.0,0.0,0.0
42.253,-1.664,-0.43,0.0
0.0,0.0,0.0,0.0
0.0,0.0,0.0,0.0
0.0,0.0,0.0,0.0
0.0,0.0,0.0,0.0
0.0,0.0,0.0,0.0
0.0,0.0,0.0,0.0
0.0,0.0,0.0,0.0
162.102,-5.961,2.021,24.0
160.71,-5.851,1.13,16.0
0.0,0.0,0.0,0.0
0.0,0.0,0.0,0.0
0.0,0.0,0.0,0.0
0.0,0.0,0.0,0.0
162.024,-5.624,2.081,24.0
160.73,-5.52,1.19,11.0
0.0,0.0,0.0,0.0
0.0,0.0,0.0,0.0
0.0,0.0,0.0,0.0
35.991,-1.183,-0.52,0.0
161.986,-5.287,2.136,21.0
160.875,-5.189,1.245,5.0
0.0,0.0,0.0,0.0
0.0,0.0,0.0,0.0
43.853,-1.366,-0.382,0.0
0.0,0.0,0.0,0.0
161.826,-4.944,2.184,25.0
160.757,-4.852,1.292,6.0
0.0,0.0,0.0,0.0
0.0,0.0,0.0,0.0
0.0,0.0,0.0,0.0
0.0,0.0,0.0,0.0
161.861,-4.605,2.228,25.0
160.736,-4.512,1.334,7.0
0.0,0.0,0.0,0.0
0.0,0.0,0.0,0.0
45.826,-1.235,-0.375,0.0
0.0,0.0,0.0,0.0
161.998,-4.265,2.268,22.0
162.061,-4.205,1.383,6.0
0.0,0.0,0.0,0.0
0.0,0.0,0.0,0.0
0.0,0.0,0.0,0.0
0.0,0.0,0.0,0.0
162.047,-3.921,2.3,8.0
161.999,-3.859,1.413,8.0
0.0,0.0,0.0,0.0
0.0,0.0,0.0,0.0
0.0,0.0,0.0,0.0
36.837,-0.822,-0.489,0.0
101.651,-2.243,1.459,1.0
101.349,-2.198,0.899,15.0
0.0,0.0,0.0,0.0
0.0,0.0,0.0,0.0
0.0,0.0,0.0,0.0
0.0,0.0,0.0,0.0
101.302,-2.022,1.466,5.0
101.21,-1.983,0.909,150.0
0.0,0.0,0.0,0.0
0.0,0.0,0.0,0.0
0.0,0.0,0.0,0.0
0.0,0.0,0.0,0.0
101.198,-1.804,1.473,3.0
101.16,-1.766,0.916,57.0
0.0,0.0,0.0,0.0
0.0,0.0,0.0,0.0
0.0,0.0,0.0,0.0
0.0,0.0,0.0,0.0
101.183,-1.586,1.477,4.0
101.164,-1.549,0.921,117.0
19.748,-0.295,0.071,12.0
0.0,0.0,0.0,0.0
0.0,0.0,0.0,0.0
0.0,0.0,0.0,0.0
19.746,-0.267,0.288,9.0
19.755,-0.26,0.179,27.0
19.748,-0.253,0.071,1.0
0.0,0.0,0.0,0.0
0.0,0.0,0.0,0.0
0.0,0.0,0.0,0.0
19.763,-0.225,0.288,7.0
101.171,-1.117,0.917,74.0
0.0,0.0,0.0,0.0
0.0,0.0,0.0,0.0
19.785,-0.197,-0.149,1.0
19.77,-0.189,-0.258,12.0
101.333,-0.939,1.47,4.0
101.232,-0.902,0.91,151.0
0.0,0.0,0.0,0.0
19.81,-0.162,-0.042,2.0
19.736,-0.154,-0.151,14.0
19.74,-0.147,-0.26,17.0
19.873,-0.141,0.286,0.0
19.744,-0.133,0.175,7.0
19.742,-0.126,0.066,8.0
19.725,-0.119,-0.044,10.0
19.715,-0.112,-0.153,16.0
19.74,-0.105,-0.262,17.0
19.676,-0.098,0.28,10.0
19.711,-0.091,0.172,14.0
19.701,-0.084,0.063,13.0
19.7,-0.077,-0.047,16.0
19.731,-0.069,-0.156,16.0
19.752,-0.063,-0.266,15.0
19.644,-0.056,0.276,10.0
19.668,-0.049,0.168,10.0
19.694,-0.042,0.059,15.0
19.71,-0.035,-0.051,13.0
19.742,-0.028,-0.16,7.0
36.445,-0.039,-0.498,0.0
19.628,-0.014,0.272,13.0
19.733,-0.007,0.164,5.0
19.793,0.0,0.055,5.0
19.746,0.006,-0.056,151.0
19.757,0.013,-0.165,3.0
19.755,0.02,-0.275,11.0
19.627,0.027,0.267,13.0
19.749,0.034,0.159,15.0
19.743,0.041,0.049,16.0
19.755,0.048,-0.061,27.0
19.773,0.055,-0.171,64.0
19.762,0.063,-0.281,41.0
19.619,0.069,0.261,16.0
19.676,0.076,0.153,13.0
19.675,0.083,0.043,10.0
19.691,0.09,-0.067,3.0
0.0,0.0,0.0,0.0
0.0,0.0,0.0,0.0
19.625,0.111,0.255,11.0
19.654,0.118,0.146,15.0
19.643,0.125,0.036,15.0
19.656,0.132,-0.074,10.0
19.663,0.139,-0.183,9.0
19.729,0.146,-0.293,2.0
19.647,0.153,0.248,12.0
19.654,0.16,0.138,12.0
19.631,0.167,0.029,14.0
19.625,0.173,-0.081,14.0
19.635,0.18,-0.191,15.0
19.653,0.187,-0.3,16.0
19.739,0.195,0.241,11.0
19.744,0.202,0.131,15.0
19.662,0.208,0.021,10.0
19.625,0.214,-0.089,16.0
19.639,0.221,-0.199,17.0
19.654,0.228,-0.309,17.0
19.753,0.237,0.232,23.0
19.762,0.244,0.122,17.0
19.555,0.248,0.012,0.0
19.67,0.256,-0.099,11.0
19.655,0.263,-0.208,15.0
19.679,0.27,-0.318,14.0
19.754,0.279,0.223,6.0
114.476,1.655,0.656,2.0
55.148,0.816,0.008,2.0
44.896,0.679,-0.248,2.0
36.052,0.557,-0.4,0.0
0.0,0.0,0.0,0.0
55.195,0.893,0.596,44.0
55.184,0.911,0.288,48.0
55.159,0.93,-0.02,56.0
42.412,0.729,-0.256,1.0
34.349,0.602,-0.399,0.0
31.303,0.559,-0.539,0.0
55.191,1.007,0.566,46.0
55.199,1.026,0.257,27.0
55.174,1.043,-0.05,19.0
41.111,0.79,-0.271,1.0
33.997,0.665,-0.415,4.0
28.589,0.569,-0.509,0.0
162.44,3.299,1.572,14.0
83.215,1.717,0.339,3.0
52.354,1.097,-0.079,1.0
40.353,0.86,-0.291,2.0
32.166,0.696,-0.412,0.0
28.305,0.622,-0.521,0.0
70.854,1.584,0.641,12.0
75.374,1.71,0.26,8.0
45.51,1.047,-0.097,30.0
38.985,0.909,-0.306,2.0
31.897,0.754,-0.429,0.0
27.353,0.656,-0.521,0.0
70.739,1.726,0.594,25.0
43.756,1.082,0.122,120.0
0.0,0.0,0.0,0.0
0.0,0.0,0.0,0.0
31.816,0.816,-0.449,0.0
26.379,0.685,-0.52,1.0
0.0,0.0,0.0,0.0
43.7,1.168,0.091,47.0
40.142,1.085,-0.14,156.0
37.022,1.013,-0.341,3.0
27.462,0.76,-0.407,1.0
26.014,0.728,-0.532,3.0
0.0,0.0,0.0,0.0
40.124,1.152,0.055,75.0
40.125,1.164,-0.17,98.0
0.0,0.0,0.0,0.0
27.454,0.814,-0.427,5.0
25.671,0.769,-0.544,6.0
40.129,1.218,0.25,132.0
40.135,1.231,0.024,150.0
40.115,1.242,-0.2,88.0
40.214,1.258,-0.431,2.0
28.921,0.913,-0.473,2.0
24.917,0.795,-0.547,2.0
40.13,1.297,0.219,150.0
40.056,1.306,-0.006,58.0
40.015,1.317,-0.231,72.0
40.127,1.332,-0.462,1.0
28.47,0.954,-0.488,2.0
24.359,0.823,-0.555,1.0
63.986,2.191,0.297,8.0
40.134,1.386,-0.039,150.0
40.005,1.393,-0.264,24.0
40.167,1.411,-0.496,1.0
27.535,0.976,-0.495,3.0
23.71,0.847,-0.56,0.0
44.312,1.602,0.168,89.0
42.714,1.556,-0.078,2.0
39.811,1.462,-0.297,2.0
31.591,1.169,-0.417,0.0
27.138,1.013,-0.511,6.0
23.348,0.878,-0.572,5.0
40.373,1.535,0.117,85.0
40.342,1.546,-0.11,154.0
40.003,1.545,-0.335,0.0
30.182,1.174,-0.426,1.0
26.487,1.038,-0.523,5.0
22.383,0.884,-0.568,1.0
40.347,1.61,0.08,150.0
40.343,1.621,-0.147,152.0
36.127,1.462,-0.335,1.0
29.329,1.195,-0.441,2.0
23.683,0.972,-0.49,35.0
21.716,0.898,-0.572,2.0
45.195,1.887,0.047,10.0
23.649,0.994,-0.108,34.0
23.653,1.001,-0.242,39.0
23.637,1.006,-0.378,44.0
23.655,1.014,-0.512,36.0
21.281,0.918,-0.581,2.0
23.616,1.029,0.001,51.0
23.609,1.035,-0.131,55.0
23.6,1.041,-0.265,64.0
23.607,1.048,-0.401,68.0
23.615,1.055,-0.535,71.0
23.638,1.062,-0.669,1.0
23.614,1.071,-0.021,73.0
23.599,1.076,-0.155,62.0
23.597,1.083,-0.288,60.0
23.619,1.09,-0.425,61.0
23.517,1.092,-0.556,22.0
20.129,0.94,-0.59,1.0
23.614,1.112,-0.046,41.0
23.642,1.12,-0.179,37.0
23.647,1.126,-0.313,35.0
23.66,1.133,-0.45,32.0
23.186,1.117,-0.573,5.0
19.756,0.957,-0.6,1.0
40.331,1.969,-0.121,43.0
36.367,1.785,-0.315,5.0
29.785,1.47,-0.427,2.0
23.703,1.176,-0.476,5.0
21.738,1.084,-0.56,0.0
19.349,0.97,-0.608,3.0
40.334,2.039,-0.164,55.0
35.122,1.784,-0.342,8.0
29.011,1.481,-0.447,3.0
24.188,1.241,-0.512,2.0
21.116,1.088,-0.567,1.0
18.867,0.977,-0.614,3.0
40.324,2.105,-0.209,43.0
33.545,1.759,-0.364,10.0
28.302,1.491,-0.468,5.0
24.093,1.275,-0.537,1.0
20.76,1.104,-0.581,4.0
18.559,0.992,-0.625,3.0
40.141,2.161,-0.253,15.0
31.789,1.719,-0.381,6.0
27.205,1.478,-0.481,2.0
20.054,1.094,-0.47,0.0
20.056,1.099,-0.584,3.0
18.239,1.004,-0.635,2.0
37.616,2.086,-0.281,4.0
30.793,1.715,-0.405,9.0
26.416,1.477,-0.497,1.0
19.752,1.109,-0.486,9.0
19.784,1.116,-0.6,6.0
17.987,1.019,-0.647,2.0
35.265,2.011,-0.305,4.0
29.435,1.685,-0.422,8.0
25.378,1.459,-0.508,1.0
19.736,1.139,-0.509,10.0
19.318,1.12,-0.608,3.0
17.585,1.023,-0.654,0.0
34.205,2.003,-0.337,11.0
28.374,1.668,-0.441,7.0
24.592,1.451,-0.522,0.0
19.72,1.168,-0.533,9.0
18.796,1.118,-0.615,3.0
17.281,1.032,-0.664,1.0
0.0,0.0,0.0,0.0
27.514,1.658,-0.461,7.0
20.075,1.214,-0.45,0.0
19.698,1.196,-0.556,10.0
18.398,1.121,-0.624,3.0
17.061,1.044,-0.676,1.0
31.02,1.908,-0.381,9.0
26.429,1.632,-0.475,6.0
19.796,1.226,-0.469,5.0
19.678,1.223,-0.58,14.0
18.16,1.133,-0.639,2.0
16.884,1.057,-0.691,1.0
29.828,1.878,-0.404,8.0
25.628,1.619,-0.494,6.0
19.729,1.251,-0.493,10.0
19.505,1.241,-0.6,3.0
17.709,1.13,-0.646,1.0
16.766,1.074,-0.707,2.0
28.555,1.838,-0.424,8.0
24.733,1.598,-0.509,5.0
19.728,1.278,-0.518,9.0
18.937,1.231,-0.607,3.0
17.407,1.135,-0.658,1.0
16.577,1.085,-0.721,1.0
27.531,1.81,-0.445,7.0
24.132,1.592,-0.528,3.0
19.713,1.304,-0.543,10.0
18.458,1.225,-0.616,3.0
17.104,1.139,-0.669,1.0
16.367,1.093,-0.734,1.0
26.355,1.768,-0.461,6.0
19.815,1.333,-0.46,3.0
19.702,1.33,-0.57,10.0
18.168,1.23,-0.631,2.0
16.922,1.149,-0.685,1.0
16.164,1.101,-0.746,1.0
25.385,1.736,-0.478,6.0
19.715,1.352,-0.484,9.0
19.599,1.348,-0.593,4.0
17.769,1.226,-0.641,1.0
16.763,1.16,-0.701,1.0
15.998,1.11,-0.761,1.0
24.538,1.709,-0.496,5.0
19.841,1.386,-0.514,10.0
18.963,1.328,-0.6,3.0
17.389,1.221,-0.651,2.0
16.594,1.168,-0.717,1.0
15.891,1.122,-0.778,1.0
23.963,1.699,-0.517,5.0
19.714,1.401,-0.538,9.0
18.517,1.319,-0.611,3.0
17.147,1.225,-0.666,1.0
16.378,1.173,-0.73,1.0
15.365,1.103,-0.773,0.0
19.825,1.428,-0.455,3.0
19.7,1.423,-0.565,10.0
18.201,1.318,-0.626,2.0
16.915,1.228,-0.681,1.0
16.145,1.175,-0.742,1.0
15.185,1.108,-0.785,0.0
19.716,1.443,-0.48,9.0
19.622,1.44,-0.59,4.0
17.749,1.305,-0.636,2.0
16.742,1.234,-0.697,1.0
16.001,1.183,-0.758,2.0
14.826,1.098,-0.788,0.0
19.718,1.465,-0.508,8.0
18.86,1.404,-0.594,3.0
17.393,1.298,-0.647,2.0
16.561,1.239,-0.713,1.0
15.774,1.183,-0.77,1.0
14.616,1.099,-0.797,0.0
19.72,1.486,-0.536,10.0
18.53,1.399,-0.61,3.0
17.146,1.298,-0.663,1.0
16.34,1.239,-0.727,1.0
15.453,1.175,-0.776,0.0
14.22,1.083,-0.796,0.0
19.713,1.506,-0.564,12.0
18.144,1.389,-0.623,2.0
16.905,1.296,-0.678,1.0
16.091,1.237,-0.739,1.0
15.064,1.16,-0.779,0.0
13.859,1.07,-0.796,0.0
19.472,1.506,-0.585,5.0
17.72,1.373,-0.634,2.0
16.74,1.3,-0.695,1.0
15.959,1.242,-0.756,2.0
14.76,1.151,-0.784,0.0
13.626,1.065,-0.802,0.0
18.823,1.474,-0.593,3.0
17.412,1.366,-0.649,2.0
16.544,1.3,-0.711,1.0
15.724,1.238,-0.768,0.0
14.437,1.139,-0.788,0.0
13.381,1.058,-0.808,0.0
18.494,1.464,-0.61,3.0
17.129,1.359,-0.663,1.0
16.348,1.299,-0.727,1.0
15.282,1.217,-0.769,0.0
14.146,1.128,-0.793,0.0
13.24,1.058,-0.818,0.0
18.108,1.449,-0.623,1.0
16.88,1.353,-0.678,1.0
16.06,1.29,-0.738,1.0
15.041,1.21,-0.779,0.0
13.81,1.113,-0.795,0.0
12.954,1.046,-0.82,0.0
17.616,1.424,-0.632,1.0
16.696,1.352,-0.695,1.0
15.949,1.293,-0.756,2.0
14.731,1.197,-0.784,0.0
13.562,1.104,-0.8,0.0
12.715,1.036,-0.824,0.0
17.37,1.418,-0.649,2.0
16.466,1.346,-0.71,1.0
15.569,1.274,-0.761,0.0
14.42,1.182,-0.789,0.0
13.462,1.105,-0.814,0.0
12.542,1.032,-0.831,0.0
17.071,1.405,-0.663,1.0
16.257,1.34,-0.725,1.0
15.171,1.253,-0.764,0.0
13.225,1.095,-0.82,0.0
12.348,1.024,-0.837,0.0
16.868,1.4,-0.68,1.0
16.025,1.332,-0.738,1.0
14.945,1.244,-0.774,0.0
12.897,1.076,-0.818,0.0
12.123,1.013,-0.839,0.0
16.661,1.394,-0.696,1.0
15.91,1.332,-0.756,1.0
14.736,1.236,-0.785,0.0
12.698,1.068,-0.825,0.0
11.836,0.997,-0.837,0.0
16.456,1.386,-0.712,2.0
15.448,1.303,-0.757,0.0
14.244,1.203,-0.78,0.0
13.289,1.123,-0.806,0.0
12.467,1.055,-0.828,0.0
11.667,0.989,-0.842,0.0
16.238,1.377,-0.726,1.0
15.208,1.291,-0.768,0.0
14.104,1.198,-0.793,0.0
13.056,1.111,-0.811,0.0
12.275,1.045,-0.833,0.0
11.479,0.979,-0.846,0.0
16.0,1.364,-0.739,2.0
14.916,1.273,-0.775,0.0
12.802,1.095,-0.814,0.0
12.095,1.036,-0.839,0.0
11.283,0.968,-0.848,0.0
15.862,1.36,-0.756,1.0
13.542,1.163,-0.801,0.0
12.644,1.087,-0.822,0.0
11.798,1.016,-0.836,0.0
11.147,0.961,-0.854,0.0
15.366,1.324,-0.755,0.0
13.274,1.146,-0.805,0.0
12.435,1.074,-0.827,0.0
11.587,1.002,-0.838,0.0
10.936,0.947,-0.854,0.0
15.196,1.315,-0.768,0.0
13.0,1.126,-0.807,0.0
12.213,1.059,-0.83,0.0
11.394,0.989,-0.84,0.0
10.791,0.938,-0.858,0.0
14.869,1.291,-0.773,0.0
12.821,1.115,-0.814,0.0
12.076,1.051,-0.838,0.0
11.241,0.979,-0.845,0.0
10.655,0.929,-0.863,0.0
13.471,1.174,-0.797,0.0
12.667,1.105,-0.823,0.0
11.815,1.032,-0.837,0.0
11.074,0.968,-0.849,0.0
10.453,0.914,-0.862,0.0
13.26,1.159,-0.804,0.0
12.432,1.088,-0.825,0.0
11.604,1.016,-0.839,0.0
10.986,0.962,-0.858,0.0
10.334,0.906,-0.867,0.0
12.95,1.134,-0.804,0.0
12.222,1.071,-0.829,0.0
11.396,1.0,-0.84,0.0
10.864,0.954,-0.864,0.0
10.211,0.897,-0.871,0.0
12.755,1.119,-0.81,0.0
12.112,1.063,-0.839,0.0
11.178,0.982,-0.84,0.0
10.583,0.93,-0.856,0.0
10.077,0.886,-0.874,0.0
13.55,1.19,-0.801,0.0
12.649,1.111,-0.82,0.0
11.788,1.036,-0.833,0.0
11.038,0.971,-0.845,0.0
10.473,0.922,-0.862,0.0
9.964,0.877,-0.878,0.0
13.312,1.17,-0.805,0.0
12.492,1.098,-0.827,0.0
11.56,1.017,-0.832,0.0
10.997,0.968,-0.856,0.0
10.316,0.908,-0.863,0.0
9.847,0.867,-0.881,0.0
13.044,1.147,-0.807,0.0
12.248,1.077,-0.828,0.0
11.438,1.006,-0.839,0.0
10.93,0.962,-0.866,0.0
10.234,0.901,-0.87,0.0
9.724,0.857,-0.883,0.0
12.84,1.128,-0.811,0.0
12.119,1.065,-0.835,0.0
11.316,0.995,-0.845,0.0
10.633,0.935,-0.857,0.0
10.077,0.887,-0.871,0.0
9.647,0.849,-0.889,0.0
12.62,1.108,-0.814,0.0
11.832,1.039,-0.832,0.0
11.036,0.97,-0.839,0.0
10.449,0.918,-0.856,0.0
9.987,0.878,-0.876,0.0
9.516,0.837,-0.89,0.0
12.496,1.096,-0.823,0.0
11.625,1.02,-0.832,0.0
10.996,0.965,-0.851,0.0
10.326,0.906,-0.86,0.0
9.847,0.864,-0.877,0.0
9.379,0.824,-0.89,0.0
12.287,1.076,-0.825,0.0
11.522,1.009,-0.84,0.0
10.912,0.956,-0.859,0.0
10.201,0.894,-0.863,0.0
9.771,0.856,-0.883,0.0
9.247,0.811,-0.889,0.0
12.172,1.064,-0.833,0.0
11.374,0.994,-0.844,0.0
10.805,0.944,-0.864,0.0
10.152,0.887,-0.871,0.0
9.661,0.845,-0.885,0.0
9.117,0.797,-0.888,0.0
11.95,1.042,-0.833,0.0
11.11,0.968,-0.838,0.0
10.58,0.922,-0.859,0.0
9.917,0.864,-0.864,0.0
9.569,0.834,-0.889,0.0
9.008,0.785,-0.889,0.0
11.68,1.015,-0.828,0.0
11.081,0.963,-0.85,0.0
10.429,0.906,-0.86,0.0
9.884,0.859,-0.873,0.0
9.435,0.82,-0.888,0.0
8.918,0.775,-0.891,0.0
11.6,1.004,-0.837,0.0
10.951,0.948,-0.853,0.0
10.326,0.894,-0.864,0.0
9.851,0.853,-0.882,0.0
9.28,0.803,-0.884,0.0
8.812,0.763,-0.891,0.0
11.439,0.986,-0.839,0.0
10.842,0.935,-0.857,0.0
10.211,0.88,-0.866,0.0
9.737,0.839,-0.883,0.0
9.254,0.797,-0.893,0.0
8.729,0.752,-0.893,0.0
11.289,0.969,-0.841,0.0
10.684,0.917,-0.857,0.0
10.083,0.865,-0.867,0.0
9.616,0.825,-0.883,0.0
9.089,0.78,-0.888,0.0
8.653,0.742,-0.895,0.0
11.189,0.956,-0.846,0.0
10.545,0.9,-0.858,0.0
10.005,0.854,-0.872,0.0
9.507,0.811,-0.884,0.0
8.554,0.73,-0.895,0.0
11.064,0.94,-0.849,0.0
10.426,0.886,-0.86,0.0
9.946,0.844,-0.878,1.0
9.459,0.803,-0.89,0.0
8.894,0.755,-0.888,0.0
8.455,0.717,-0.894,0.0
10.945,0.925,-0.852,0.0
10.304,0.87,-0.861,0.0
9.919,0.837,-0.886,0.0
9.3,0.784,-0.885,0.0
8.864,0.747,-0.895,0.0
8.408,0.709,-0.898,0.0
10.852,0.911,-0.856,0.0
10.197,0.855,-0.863,0.0
9.833,0.824,-0.889,0.0
9.252,0.775,-0.891,0.0
8.714,0.73,-0.889,0.0
8.33,0.697,-0.898,0.0
10.67,0.889,-0.853,0.0
10.157,0.846,-0.87,0.0
9.68,0.806,-0.885,0.0
9.102,0.757,-0.885,0.0
8.72,0.725,-0.899,0.0
8.246,0.685,-0.898,0.0
10.608,0.878,-0.858,0.0
10.014,0.828,-0.868,0.0
9.585,0.792,-0.886,0.0
9.073,0.749,-0.892,0.0
8.624,0.712,-0.897,0.0
8.23,0.679,-0.904,0.0
10.513,0.863,-0.861,0.0
9.974,0.818,-0.874,0.0
9.5,0.779,-0.887,0.0
8.541,0.699,-0.897,0.0
8.148,0.667,-0.903,0.0
10.436,0.85,-0.864,0.0
9.91,0.806,-0.878,0.0
9.4,0.764,-0.887,0.0
8.49,0.689,-0.899,0.0
8.109,0.658,-0.906,0.0
10.33,0.834,-0.865,0.0
9.837,0.793,-0.88,0.0
9.342,0.753,-0.889,0.0
8.776,0.707,-0.887,0.0
8.419,0.677,-0.9,0.0
8.026,0.645,-0.904,0.0
10.254,0.82,-0.868,0.0
9.781,0.781,-0.884,0.0
9.271,0.74,-0.891,0.0
8.773,0.7,-0.894,0.0
8.357,0.666,-0.9,0.0
8.01,0.638,-0.909,0.0
10.176,0.806,-0.869,0.0
9.687,0.766,-0.883,0.0
9.236,0.73,-0.895,0.0
8.731,0.69,-0.897,0.0
8.304,0.655,-0.901,0.0
7.97,0.628,-0.911,0.0
10.131,0.794,-0.874,0.0
9.64,0.755,-0.887,0.0
9.14,0.715,-0.893,0.0
8.635,0.675,-0.894,0.0
8.251,0.644,-0.902,0.0
7.932,0.619,-0.913,0.0
10.089,0.783,-0.878,0.0
9.567,0.741,-0.887,0.0
9.092,0.704,-0.895,0.0
8.587,0.664,-0.896,0.0
8.229,0.635,-0.906,0.0
7.905,0.61,-0.916,0.0
10.023,0.769,-0.88,0.0
9.525,0.73,-0.89,0.0
8.984,0.687,-0.891,0.0
8.572,0.655,-0.9,0.0
8.167,0.623,-0.905,0.0
7.882,0.601,-0.919,0.0
9.933,0.753,-0.879,0.0
9.454,0.716,-0.89,0.0
8.953,0.677,-0.894,0.0
8.464,0.639,-0.895,0.0
8.121,0.612,-0.905,0.0
7.833,0.59,-0.918,0.0
9.898,0.741,-0.882,0.0
9.403,0.703,-0.892,0.0
8.916,0.666,-0.896,0.0
8.486,0.633,-0.903,0.0
8.072,0.601,-0.905,0.0
7.806,0.581,-0.92,0.0
9.86,0.729,-0.885,0.0
9.31,0.687,-0.889,0.0
8.861,0.653,-0.896,0.0
8.393,0.618,-0.898,0.0
8.049,0.592,-0.907,0.0
7.785,0.571,-0.922,0.0
9.788,0.714,-0.884,0.0
9.344,0.681,-0.897,0.0
8.812,0.641,-0.896,0.0
8.381,0.609,-0.901,0.0
7.987,0.579,-0.905,0.0
7.745,0.561,-0.922,0.0
9.77,0.703,-0.888,0.0
9.245,0.664,-0.893,0.0
8.803,0.631,-0.9,0.0
8.355,0.598,-0.903,0.0
7.988,0.571,-0.909,0.0
7.732,0.552,-0.924,0.0
9.744,0.691,-0.89,0.0
9.259,0.656,-0.899,0.0
8.785,0.621,-0.903,0.0
8.353,0.589,-0.907,0.0
8.007,0.564,-0.915,0.0
7.703,0.542,-0.925,0.0
9.684,0.677,-0.889,0.0
8.685,0.605,-0.896,0.0
8.297,0.577,-0.905,0.0
7.973,0.553,-0.915,0.0
7.704,0.533,-0.928,0.0
9.671,0.665,-0.892,0.0
9.19,0.631,-0.9,0.0
8.687,0.595,-0.9,0.0
8.297,0.567,-0.908,0.0
7.969,0.544,-0.918,0.0
7.693,0.524,-0.93,0.0
9.605,0.65,-0.89,0.0
9.156,0.619,-0.9,0.0
8.648,0.583,-0.899,0.0
8.24,0.555,-0.905,0.0
7.947,0.534,-0.918,0.0
7.651,0.513,-0.927,0.0
9.591,0.639,-0.892,0.0
8.671,0.575,-0.905,0.0
8.257,0.546,-0.909,0.0
7.926,0.523,-0.918,0.0
7.66,0.505,-0.931,0.0
9.59,0.628,-0.895,0.0
9.096,0.594,-0.9,0.0
8.628,0.562,-0.903,0.0
8.194,0.533,-0.905,0.0
7.932,0.515,-0.921,0.0
7.629,0.494,-0.929,0.0
9.567,0.615,-0.895,0.0
9.113,0.585,-0.904,0.0
8.613,0.551,-0.903,0.0
8.221,0.525,-0.91,0.0
7.898,0.503,-0.919,0.0
7.619,0.485,-0.93,0.0
9.545,0.603,-0.895,0.0
9.106,0.574,-0.905,0.0
8.592,0.54,-0.903,0.0
8.198,0.514,-0.909,0.0
7.913,0.495,-0.922,0.0
7.61,0.475,-0.93,0.0
9.553,0.592,-0.897,0.0
9.057,0.56,-0.902,0.0
8.636,0.533,-0.909,0.0
8.181,0.503,-0.908,0.0
7.889,0.484,-0.92,0.0
7.607,0.466,-0.931,0.0
9.541,0.58,-0.897,0.0
9.024,0.547,-0.9,0.0
8.633,0.522,-0.909,0.0
8.17,0.493,-0.908,0.0
7.868,0.473,-0.919,0.0
7.602,0.456,-0.931,0.0
9.543,0.569,-0.898,0.0
9.061,0.538,-0.904,0.0
8.614,0.51,-0.908,0.0
8.155,0.482,-0.907,0.0
7.882,0.464,-0.921,0.0
7.603,0.447,-0.931,0.0
9.521,0.556,-0.897,0.0
9.028,0.525,-0.901,0.0
8.595,0.499,-0.906,0.0
8.181,0.473,-0.91,0.0
7.901,0.456,-0.923,0.0
7.614,0.438,-0.933,0.0
9.524,0.544,-0.897,0.0
9.069,0.517,-0.905,0.0
8.603,0.488,-0.907,0.0
8.186,0.463,-0.91,0.0
7.867,0.444,-0.919,0.0
7.623,0.429,-0.934,0.0
9.533,0.533,-0.897,0.0
9.08,0.506,-0.906,0.0
8.577,0.476,-0.904,0.0
8.189,0.453,-0.91,0.0
7.907,0.436,-0.923,0.0
7.602,0.418,-0.93,0.0
9.565,0.522,-0.899,0.0
9.082,0.494,-0.905,0.0
8.621,0.468,-0.907,0.0
8.232,0.445,-0.913,0.0
7.896,0.425,-0.921,0.0
7.618,0.409,-0.931,0.0
9.589,0.511,-0.9,0.0
8.668,0.459,-0.911,0.0
8.226,0.434,-0.911,0.0
7.951,0.418,-0.926,0.0
7.625,0.4,-0.931,0.0
9.571,0.499,-0.897,0.0
8.678,0.449,-0.91,0.0
8.245,0.425,-0.912,0.0
7.942,0.408,-0.923,0.0
7.639,0.391,-0.931,0.0
9.651,0.49,-0.902,0.0
9.17,0.464,-0.908,0.0
8.702,0.439,-0.911,0.0
8.305,0.417,-0.917,0.0
7.942,0.398,-0.921,0.0
7.662,0.382,-0.932,0.0
9.693,0.48,-0.904,0.0
8.733,0.429,-0.912,0.0
8.311,0.407,-0.915,0.0
7.973,0.389,-0.922,0.0
7.684,0.373,-0.932,0.0
9.695,0.467,-0.901,0.0
9.181,0.441,-0.904,0.0
8.783,0.42,-0.914,0.0
8.323,0.396,-0.913,0.0
7.998,0.379,-0.922,0.0
7.709,0.364,-0.932,0.0
9.703,0.455,-0.898,0.0
9.226,0.431,-0.905,0.0
8.832,0.411,-0.916,0.0
8.407,0.39,-0.919,0.0
8.006,0.369,-0.92,0.0
7.703,0.354,-0.928,0.0
9.761,0.445,-0.899,0.0
9.298,0.422,-0.908,0.0
8.798,0.398,-0.908,0.0
8.465,0.381,-0.922,0.0
8.036,0.36,-0.92,0.0
7.747,0.346,-0.93,0.0
9.811,0.435,-0.899,0.0
9.345,0.412,-0.909,0.0
8.889,0.39,-0.914,0.0
8.43,0.369,-0.914,0.0
8.081,0.352,-0.921,0.0
7.784,0.337,-0.931,0.0
9.842,0.423,-0.898,0.0
9.375,0.401,-0.907,0.0
8.935,0.381,-0.914,0.0
8.484,0.36,-0.915,0.0
8.12,0.343,-0.921,0.0
7.818,0.329,-0.931,0.0
9.918,0.414,-0.899,0.0
9.435,0.392,-0.907,0.0
8.951,0.37,-0.91,0.0
8.518,0.35,-0.914,0.0
8.146,0.333,-0.92,0.0
7.86,0.32,-0.931,0.0
9.965,0.403,-0.897,0.0
9.483,0.381,-0.906,0.0
9.01,0.361,-0.911,0.0
8.599,0.342,-0.918,0.0
8.23,0.326,-0.924,0.0
7.9,0.311,-0.931,0.0
10.008,0.392,-0.895,0.0
9.523,0.371,-0.904,0.0
9.027,0.349,-0.907,0.0
8.675,0.334,-0.92,0.0
8.296,0.318,-0.926,0.0
7.926,0.302,-0.928,0.0
10.072,0.381,-0.894,0.0
9.599,0.361,-0.905,0.0
9.148,0.342,-0.913,0.0
8.71,0.324,-0.918,0.0
8.309,0.308,-0.921,0.0
7.977,0.294,-0.929,0.0
10.167,0.372,-0.895,0.0
9.657,0.351,-0.903,0.0
9.219,0.333,-0.913,0.0
8.772,0.315,-0.918,0.0
8.362,0.299,-0.921,0.0
8.045,0.286,-0.93,0.0
10.242,0.361,-0.894,0.0
9.734,0.341,-0.903,0.0
9.257,0.323,-0.909,0.0
8.813,0.305,-0.915,0.0
8.447,0.291,-0.924,0.0
8.096,0.277,-0.93,0.0
10.309,0.351,-0.891,0.0
9.79,0.331,-0.9,0.0
9.34,0.314,-0.91,0.0
8.867,0.296,-0.913,0.0
8.504,0.282,-0.923,0.0
8.141,0.268,-0.928,0.0
10.415,0.341,-0.892,0.0
9.881,0.321,-0.9,0.0
9.454,0.306,-0.913,0.0
8.97,0.288,-0.916,0.0
8.572,0.273,-0.922,0.0
8.22,0.261,-0.93,0.0
10.503,0.331,-0.89,0.0
9.967,0.312,-0.899,0.0
9.511,0.295,-0.91,0.0
9.018,0.278,-0.913,0.0
8.629,0.264,-0.921,0.0
8.272,0.252,-0.928,0.0
10.645,0.322,-0.892,0.0
10.06,0.302,-0.898,0.0
9.601,0.286,-0.909,0.0
9.102,0.269,-0.912,0.0
8.708,0.256,-0.92,0.0
8.33,0.243,-0.926,0.0
10.738,0.311,-0.889,0.0
10.219,0.294,-0.902,0.0
9.683,0.277,-0.907,0.0
9.166,0.26,-0.909,0.0
8.771,0.247,-0.918,0.0
8.372,0.234,-0.922,0.0
10.858,0.301,-0.888,0.0
10.291,0.283,-0.898,0.0
9.762,0.267,-0.904,0.0
9.322,0.253,-0.915,0.0
8.868,0.239,-0.919,0.0
8.474,0.226,-0.924,0.0
10.943,0.29,-0.883,0.0
10.392,0.274,-0.895,0.0
9.911,0.259,-0.907,0.0
9.441,0.245,-0.917,0.0
8.962,0.23,-0.919,0.0
8.58,0.219,-0.926,0.0
11.064,0.28,-0.881,0.0
10.519,0.264,-0.895,0.0
9.966,0.248,-0.901,0.0
9.5,0.235,-0.912,0.0
9.082,0.223,-0.921,0.0
8.664,0.211,-0.925,0.0
11.223,0.271,-0.881,0.0
10.662,0.255,-0.894,0.0
10.059,0.239,-0.898,0.0
9.62,0.226,-0.912,0.0
9.121,0.213,-0.914,0.0
8.716,0.202,-0.921,0.0
11.383,0.262,-0.88,0.0
10.762,0.245,-0.89,0.0
10.251,0.232,-0.903,0.0
9.736,0.218,-0.911,0.0
9.134,0.203,-0.904,0.0
8.854,0.195,-0.924,0.0
11.521,0.252,-0.877,0.0
10.939,0.237,-0.891,0.0
10.385,0.223,-0.902,0.0
9.831,0.209,-0.908,0.0
9.322,0.196,-0.911,0.0
8.964,0.187,-0.924,0.0
11.736,0.243,-0.878,0.0
11.044,0.227,-0.886,0.0
10.493,0.213,-0.898,0.0
9.978,0.201,-0.909,0.0
9.492,0.189,-0.915,0.0
9.04,0.178,-0.921,0.0
11.923,0.234,-0.877,0.0
11.225,0.218,-0.886,0.0
10.669,0.205,-0.899,0.0
10.09,0.192,-0.906,0.0
9.621,0.181,-0.915,0.0
9.157,0.17,-0.92,0.0
12.155,0.225,-0.878,0.0
11.436,0.21,-0.887,0.0
10.821,0.196,-0.897,0.0
10.214,0.183,-0.903,0.0
9.729,0.173,-0.912,0.0
9.287,0.163,-0.921,0.0
12.31,0.215,-0.872,1.0
11.546,0.199,-0.88,0.0
10.941,0.187,-0.892,0.0
10.411,0.175,-0.905,0.0
9.842,0.164,-0.909,0.0
9.437,0.155,-0.922,0.0
12.484,0.205,-0.867,0.0
11.83,0.192,-0.884,1.0
11.157,0.179,-0.894,0.0
10.543,0.167,-0.902,0.0
9.971,0.156,-0.906,0.0
9.497,0.147,-0.914,0.0
12.769,0.196,-0.868,0.0
11.997,0.182,-0.88,1.0
11.319,0.17,-0.89,0.0
10.692,0.158,-0.899,0.0
10.149,0.148,-0.907,0.0
9.679,0.14,-0.917,0.0
12.954,0.186,-0.862,1.0
12.18,0.173,-0.875,1.0
11.574,0.162,-0.893,0.0
10.894,0.15,-0.9,0.0
10.326,0.141,-0.908,0.0
9.781,0.131,-0.912,0.0
13.152,0.176,-0.855,1.0
12.429,0.164,-0.874,1.0
11.714,0.152,-0.886,1.0
11.062,0.142,-0.896,0.0
10.505,0.133,-0.907,0.0
9.911,0.124,-0.909,0.0
13.46,0.167,-0.854,1.0
12.644,0.155,-0.87,0.0
11.849,0.143,-0.878,1.0
11.235,0.133,-0.893,0.0
10.652,0.125,-0.903,0.0
10.084,0.116,-0.909,0.0
13.72,0.158,-0.849,0.0
12.932,0.146,-0.869,1.0
12.131,0.135,-0.879,0.0
11.45,0.125,-0.892,0.0
10.831,0.117,-0.901,0.0
10.279,0.109,-0.909,0.0
14.068,0.149,-0.848,0.0
13.109,0.136,-0.86,0.0
12.384,0.127,-0.877,0.0
11.655,0.117,-0.889,0.0
11.025,0.109,-0.899,0.0
10.48,0.102,-0.91,0.0
14.393,0.139,-0.844,0.0
13.405,0.128,-0.857,0.0
12.628,0.118,-0.874,1.0
11.879,0.109,-0.886,0.0
11.21,0.101,-0.895,0.0
10.647,0.094,-0.907,0.0
14.693,0.13,-0.837,0.0
13.695,0.119,-0.852,0.0
12.851,0.109,-0.867,0.0
12.102,0.101,-0.882,0.0
11.427,0.093,-0.893,0.0
10.819,0.087,-0.903,0.0
15.189,0.121,-0.839,0.0
14.065,0.11,-0.851,0.0
13.116,0.101,-0.863,0.0
12.358,0.093,-0.879,0.0
11.651,0.086,-0.89,0.0
11.032,0.08,-0.901,0.0
15.534,0.112,-0.832,2.0
14.421,0.102,-0.848,0.0
13.421,0.093,-0.859,0.0
12.57,0.085,-0.872,0.0
11.898,0.078,-0.888,1.0
11.233,0.072,-0.898,0.0
15.799,0.102,-0.818,0.0
14.771,0.093,-0.842,0.0
13.72,0.084,-0.854,0.0
12.847,0.077,-0.869,0.0
12.13,0.071,-0.884,0.0
11.441,0.065,-0.894,0.0
16.423,0.094,-0.821,0.0
15.149,0.084,-0.837,0.0
14.066,0.076,-0.851,0.0
13.133,0.069,-0.864,0.0
12.398,0.063,-0.881,0.0
11.689,0.058,-0.892,0.0
16.925,0.084,-0.816,0.0
15.573,0.075,-0.832,0.0
14.48,0.068,-0.849,0.0
13.433,0.061,-0.859,0.0
12.665,0.056,-0.877,0.0
11.917,0.051,-0.888,0.0
17.384,0.075,-0.806,0.0
15.902,0.066,-0.82,0.0
14.782,0.06,-0.84,0.0
13.778,0.054,-0.856,0.0
12.917,0.049,-0.87,0.0
12.171,0.044,-0.884,0.0
18.046,0.066,-0.803,0.0
16.429,0.058,-0.817,0.0
15.247,0.052,-0.838,0.0
14.054,0.046,-0.847,0.0
13.228,0.042,-0.866,0.0
12.432,0.038,-0.879,0.0
19.031,0.058,-0.811,0.0
16.95,0.05,-0.811,0.0
15.689,0.044,-0.832,0.0
14.502,0.039,-0.846,0.0
13.524,0.035,-0.86,0.0
12.727,0.031,-0.876,0.0
19.635,0.048,-0.8,2.0
17.647,0.042,-0.811,0.0
16.156,0.036,-0.826,0.0
14.972,0.032,-0.845,0.0
13.926,0.028,-0.858,0.0
12.994,0.025,-0.869,0.0
19.775,0.038,-0.767,7.0
18.154,0.033,-0.799,0.0
16.65,0.028,-0.819,0.0
15.367,0.024,-0.837,0.0
14.303,0.021,-0.854,0.0
13.29,0.018,-0.863,0.0
19.805,0.028,-0.73,2.0
18.888,0.025,-0.794,0.0
17.359,0.021,-0.82,0.0
15.703,0.017,-0.825,0.0
14.657,0.014,-0.846,0.0
13.674,0.012,-0.861,0.0
21.317,0.02,-0.744,0.0
19.697,0.016,-0.789,1.0
17.82,0.013,-0.807,0.0
16.219,0.01,-0.82,0.0
15.136,0.008,-0.844,0.0
14.002,0.006,-0.854,0.0
22.283,0.011,-0.734,0.0
19.794,0.008,-0.755,2.0
18.46,0.006,-0.799,0.0
16.862,0.004,-0.819,0.0
15.554,0.002,-0.837,0.0
14.43,0.0,-0.851,0.0
23.406,0.002,-0.724,6.0
20.881,0.0,-0.754,0.0
19.245,-0.001,-0.794,0.0
17.468,-0.002,-0.813,0.0
15.868,-0.003,-0.821,0.0
14.877,-0.004,-0.847,0.0
23.458,-0.006,-0.678,1.0
21.822,-0.007,-0.744,0.0
19.735,-0.008,-0.775,3.0
18.04,-0.009,-0.803,0.0
16.539,-0.009,-0.822,0.0
15.317,-0.01,-0.841,0.0
25.456,-0.016,-0.684,0.0
22.556,-0.015,-0.723,0.0
19.87,-0.015,-0.739,0.0
18.753,-0.015,-0.796,0.0
17.216,-0.015,-0.82,0.0
15.755,-0.015,-0.832,0.0
26.513,-0.024,-0.658,0.0
23.653,-0.023,-0.709,0.0
21.34,-0.022,-0.75,0.0
19.63,-0.022,-0.793,1.0
17.777,-0.021,-0.81,0.0
16.248,-0.02,-0.824,0.0
28.054,-0.033,-0.639,0.0
24.782,-0.031,-0.692,0.0
22.288,-0.029,-0.737,0.0
19.766,-0.027,-0.758,2.0
18.513,-0.026,-0.806,0.0
16.97,-0.025,-0.826,0.0
29.458,-0.042,-0.61,0.0
26.12,-0.038,-0.676,0.0
23.193,-0.035,-0.72,0.0
20.642,-0.032,-0.749,0.0
19.253,-0.031,-0.798,0.0
17.499,-0.029,-0.816,0.0
0.0,0.0,0.0,0.0
27.537,-0.046,-0.655,0.0
24.277,-0.041,-0.703,0.0
21.751,-0.038,-0.744,0.0
19.715,-0.035,-0.776,2.0
18.229,-0.033,-0.812,0.0
19.758,-0.035,-0.327,0.0
29.168,-0.053,-0.633,0.0
25.67,-0.047,-0.689,0.0
22.486,-0.042,-0.722,0.0
19.908,-0.038,-0.742,0.0
18.894,-0.037,-0.801,0.0
19.775,-0.037,-0.285,6.0
30.215,-0.058,-0.592,0.0
26.864,-0.053,-0.665,0.0
23.972,-0.047,-0.719,0.0
21.395,-0.043,-0.752,0.0
19.681,-0.04,-0.793,1.0
19.769,-0.039,-0.243,14.0
19.773,-0.04,-0.345,0.0
28.801,-0.058,-0.651,0.0
24.981,-0.051,-0.696,0.0
22.344,-0.046,-0.737,0.0
19.826,-0.041,-0.756,1.0
19.757,-0.04,-0.201,15.0
19.775,-0.04,-0.303,5.0
29.598,-0.061,-0.606,0.0
26.297,-0.055,-0.676,0.0
23.373,-0.049,-0.722,0.0
21.16,-0.044,-0.762,0.0
19.743,-0.04,-0.159,15.0
19.757,-0.04,-0.261,11.0
19.749,-0.041,-0.362,0.0
27.99,-0.058,-0.66,0.0
24.376,-0.05,-0.701,0.0
22.106,-0.046,-0.749,0.0
19.737,-0.04,-0.117,15.0
19.743,-0.04,-0.219,14.0
19.764,-0.04,-0.321,2.0
29.28,-0.059,-0.629,0.0
26.045,-0.052,-0.693,0.0
22.925,-0.046,-0.728,0.0
19.735,-0.038,-0.075,13.0
19.742,-0.038,-0.176,14.0
19.769,-0.038,-0.278,7.0
31.01,-0.06,-0.6,0.0
23.355,-0.045,-0.572,0.0
24.127,-0.046,-0.715,0.0
19.722,-0.036,-0.033,17.0
19.73,-0.036,-0.134,13.0
19.76,-0.036,-0.236,11.0
19.737,-0.035,-0.339,0.0
28.999,-0.052,-0.648,0.0
25.433,-0.045,-0.699,0.0
19.713,-0.034,0.008,17.0
19.737,-0.033,-0.092,11.0
19.746,-0.033,-0.194,12.0
19.748,-0.032,-0.297,2.0
30.012,-0.049,-0.606,0.0
26.438,-0.042,-0.67,0.0
19.713,-0.03,0.051,16.0
19.718,-0.029,-0.05,15.0
19.735,-0.029,-0.151,12.0
19.757,-0.028,-0.255,3.0
32.522,-0.046,-0.587,0.0
28.234,-0.039,-0.655,0.0
19.707,-0.026,0.093,16.0
19.702,-0.025,-0.007,16.0
19.737,-0.024,-0.109,10.0
19.76,-0.024,-0.212,6.0
34.956,-0.041,-0.557,0.0
29.411,-0.033,-0.62,0.0
19.692,-0.021,0.135,9.0
19.705,-0.02,0.034,15.0
19.727,-0.019,-0.067,10.0
19.745,-0.018,-0.171,8.0
19.713,-0.017,-0.272,0.0
0.0,0.0,0.0,0.0
19.653,-0.015,0.177,10.0
19.696,-0.014,0.076,12.0
19.705,-0.013,-0.025,13.0
19.753,-0.012,-0.129,8.0
19.717,-0.011,-0.23,0.0
32.828,-0.017,-0.552,0.0
19.647,-0.009,0.218,16.0
19.693,-0.007,0.117,3.0
19.718,-0.006,0.015,12.0
19.756,-0.005,-0.087,3.0
19.76,-0.004,-0.189,0.0
36.221,-0.005,-0.533,0.0
19.622,-0.001,0.259,13.0
19.726,0.0,0.158,4.0
19.75,0.0,0.057,5.0
19.735,0.001,-0.046,10.0
19.765,0.003,-0.147,0.0
0.0,0.0,0.0,0.0
19.622,0.005,0.3,14.0
19.629,0.007,0.199,15.0
19.816,0.008,0.099,2.0
19.741,0.01,-0.004,9.0
19.761,0.011,-0.106,0.0
19.777,0.013,-0.207,0.0
19.613,0.014,0.341,15.0
19.621,0.016,0.241,14.0
19.783,0.017,0.141,2.0
19.777,0.019,0.037,3.0
19.74,0.02,-0.064,150.0
19.771,0.022,-0.166,1.0
19.62,0.023,0.382,14.0
19.618,0.025,0.281,14.0
19.672,0.027,0.181,14.0
19.75,0.029,0.078,10.0
19.751,0.03,-0.023,18.0
19.749,0.032,-0.125,16.0
19.61,0.033,0.424,13.0
19.611,0.035,0.323,16.0
19.618,0.037,0.221,15.0
19.732,0.039,0.119,12.0
19.751,0.041,0.017,15.0
19.75,0.043,-0.084,17.0
19.608,0.044,0.464,14.0
19.607,0.046,0.363,14.0
19.608,0.048,0.262,11.0
19.721,0.05,0.16,11.0
19.75,0.052,0.058,13.0
19.754,0.055,-0.043,69.0
19.605,0.056,0.505,13.0
19.603,0.058,0.404,16.0
19.608,0.06,0.303,12.0
19.621,0.062,0.2,14.0
19.734,0.065,0.099,21.0
19.753,0.067,-0.002,49.0
19.609,0.068,0.546,14.0
19.609,0.07,0.444,27.0
19.606,0.072,0.343,17.0
19.611,0.075,0.239,14.0
19.678,0.077,0.138,12.0
19.73,0.08,0.037,25.0
19.599,0.081,0.585,14.0
19.609,0.083,0.484,23.0
19.631,0.085,0.383,21.0
19.6,0.088,0.279,19.0
19.647,0.09,0.178,11.0
19.679,0.093,0.077,13.0
19.606,0.094,0.625,13.0
19.602,0.097,0.523,18.0
19.616,0.099,0.422,27.0
19.591,0.102,0.318,18.0
19.625,0.104,0.218,13.0
19.65,0.107,0.116,13.0
19.618,0.109,0.665,13.0
19.603,0.111,0.563,18.0
19.601,0.114,0.462,20.0
19.592,0.116,0.358,18.0
19.617,0.119,0.257,12.0
19.662,0.122,0.156,15.0
19.633,0.124,0.705,11.0
19.598,0.126,0.602,14.0
19.592,0.129,0.5,16.0
19.599,0.132,0.397,13.0
19.609,0.134,0.296,12.0
19.682,0.138,0.195,20.0
19.645,0.139,0.744,9.0
19.598,0.142,0.64,12.0
19.585,0.144,0.538,13.0
19.605,0.147,0.435,12.0
19.613,0.15,0.334,10.0
19.638,0.153,0.232,12.0
19.68,0.156,0.784,2.0
19.615,0.158,0.68,10.0
19.595,0.161,0.577,10.0
19.608,0.164,0.473,10.0
19.624,0.167,0.372,9.0
19.638,0.17,0.27,10.0
185.823,1.634,7.766,15.0
19.638,0.175,0.718,9.0
19.619,0.178,0.615,10.0
19.628,0.181,0.512,9.0
19.635,0.184,0.41,10.0
19.673,0.188,0.308,10.0
186.752,1.809,8.165,7.0
19.674,0.193,0.757,6.0
19.663,0.196,0.654,10.0
19.694,0.2,0.551,10.0
19.704,0.203,0.448,9.0
19.726,0.206,0.346,10.0
186.172,1.975,8.491,4.0
183.816,1.979,7.422,7.0
19.654,0.214,0.691,10.0
19.655,0.218,0.587,9.0
19.696,0.222,0.485,10.0
19.721,0.225,0.383,12.0
0.0,0.0,0.0,0.0
185.953,2.182,7.859,16.0
19.645,0.233,0.727,9.0
19.64,0.237,0.623,13.0
19.66,0.24,0.521,12.0
19.69,0.244,0.419,11.0
84.821,1.064,4.185,43.0
84.809,1.079,3.741,55.0
84.829,1.094,3.298,28.0
19.631,0.256,0.658,15.0
19.652,0.26,0.557,13.0
19.68,0.264,0.455,12.0
122.232,1.658,6.254,17.0
121.714,1.672,5.59,13.0
0.0,0.0,0.0,0.0
19.635,0.277,0.694,12.0
19.652,0.28,0.592,13.0
19.672,0.284,0.49,14.0
122.009,1.782,6.461,21.0
121.497,1.797,5.798,24.0
121.466,1.819,5.161,22.0
19.674,0.298,0.731,3.0
19.649,0.301,0.627,12.0
19.671,0.305,0.525,12.0
121.919,1.912,6.675,25.0
121.6,1.929,6.017,21.0
121.598,1.952,5.379,23.0
121.478,1.974,4.726,6.0
19.667,0.323,0.662,2.0
55.215,0.918,1.569,15.0
55.236,0.927,3.12,33.0
55.207,0.937,2.828,45.0
55.184,0.947,2.537,56.0
55.183,0.958,2.241,71.0
55.178,0.968,1.951,71.0
55.178,0.979,1.661,72.0
55.193,0.988,3.212,70.0
55.177,0.998,2.92,66.0
55.197,1.009,2.631,52.0
55.194,1.02,2.335,51.0
55.212,1.032,2.046,45.0
55.206,1.043,1.755,20.0
55.193,1.051,3.305,0.0
121.827,2.346,6.655,20.0
121.741,2.368,6.007,23.0
121.353,2.386,5.337,24.0
121.223,2.408,4.694,19.0
135.239,2.715,4.525,20.0
129.341,2.618,7.961,14.0
129.532,2.647,7.289,9.0
129.201,2.667,6.587,8.0
121.728,2.538,5.553,20.0
121.293,2.554,4.894,18.0
135.231,2.876,4.745,9.0
129.335,2.772,8.17,12.0
133.598,2.892,7.734,10.0
129.434,2.829,6.809,6.0
121.691,2.685,5.748,14.0
121.265,2.702,5.088,10.0
121.057,2.722,4.439,23.0
134.152,3.042,8.691,11.0
133.466,3.053,7.939,25.0
129.57,2.992,7.021,15.0
129.617,3.02,6.325,10.0
128.958,3.032,5.609,8.0
121.165,2.875,4.631,20.0
121.499,2.905,8.06,24.0
133.728,3.225,8.16,17.0
134.015,3.261,7.467,10.0
120.903,2.969,6.085,11.0
128.915,3.193,5.805,16.0
113.574,2.838,4.513,18.0
43.684,1.1,2.964,0.0
0.0,0.0,0.0,0.0
0.0,0.0,0.0,0.0
0.0,0.0,0.0,0.0
45.505,1.185,2.117,4.0
43.699,1.148,1.802,88.0
0.0,0.0,0.0,0.0
0.0,0.0,0.0,0.0
41.892,1.127,2.46,45.0
41.877,1.136,2.232,83.0
41.915,1.146,2.011,108.0
41.916,1.156,1.789,150.0
40.109,1.114,2.84,49.0
40.116,1.123,2.627,117.0
40.098,1.131,2.412,150.0
40.11,1.141,2.195,150.0
40.12,1.15,1.983,129.0
40.119,1.159,1.769,105.0
40.122,1.168,2.898,108.0
40.102,1.176,2.683,150.0
40.114,1.186,2.469,127.0
40.109,1.194,2.251,128.0
40.12,1.204,2.038,120.0
40.121,1.213,1.824,99.0
40.123,1.222,2.954,113.0
40.113,1.231,2.739,150.0
40.117,1.24,2.525,141.0
40.115,1.249,2.306,118.0
40.125,1.258,2.093,101.0
40.119,1.268,1.879,98.0
40.1,1.276,3.007,23.0
40.106,1.286,2.792,149.0
40.117,1.295,2.578,129.0
40.104,1.304,2.358,93.0
40.099,1.313,2.144,29.0
40.105,1.322,1.93,5.0
128.83,4.28,9.83,3.0
40.213,1.345,2.852,150.0
40.206,1.353,2.636,150.0
43.764,1.483,2.63,4.0
120.323,4.106,6.587,13.0
121.088,4.161,5.982,21.0
0.0,0.0,0.0,0.0
40.212,1.4,2.903,125.0
40.206,1.41,2.686,150.0
0.0,0.0,0.0,0.0
135.223,4.806,7.571,27.0
121.021,4.33,6.129,26.0
0.0,0.0,0.0,0.0
40.19,1.457,2.951,84.0
40.198,1.467,2.735,150.0
45.568,1.673,2.851,99.0
121.301,4.483,6.938,14.0
121.052,4.501,6.274,24.0
0.0,0.0,0.0,0.0
40.151,1.513,2.996,27.0
41.934,1.59,2.903,2.0
0.0,0.0,0.0,0.0
121.189,4.653,7.074,19.0
120.833,4.668,6.403,21.0
0.0,0.0,0.0,0.0
40.143,1.571,3.042,2.0
40.197,1.583,2.829,105.0
43.781,1.734,2.84,150.0
120.872,4.816,7.191,19.0
120.784,4.841,6.537,24.0
0.0,0.0,0.0,0.0
0.0,0.0,0.0,0.0
40.198,1.641,2.874,150.0
0.0,0.0,0.0,0.0
120.357,4.972,7.292,20.0
120.819,5.019,6.669,13.0
0.0,0.0,0.0,0.0
23.42,0.985,1.826,0.0
40.196,1.7,2.916,138.0
41.972,1.785,2.814,16.0
23.59,1.008,1.453,25.0
23.597,1.014,1.326,38.0
23.584,1.021,1.991,40.0
23.581,1.026,1.863,41.0
23.569,1.031,1.734,41.0
23.573,1.037,1.604,39.0
23.559,1.042,1.475,54.0
23.564,1.048,1.348,65.0
23.551,1.055,2.012,78.0
23.551,1.06,1.884,75.0
23.537,1.065,1.755,76.0
23.552,1.071,1.625,76.0
23.557,1.077,1.498,74.0
23.564,1.083,1.371,72.0
23.546,1.09,2.034,77.0
23.542,1.095,1.906,68.0
23.549,1.101,1.778,52.0
23.56,1.107,1.648,46.0
23.569,1.113,1.521,47.0
23.579,1.119,1.393,45.0
23.568,1.127,2.058,41.0
23.559,1.132,1.928,24.0
23.57,1.137,1.801,15.0
40.179,1.948,2.846,60.0
0.0,0.0,0.0,0.0
23.589,1.155,1.415,0.0
0.0,0.0,0.0,0.0
0.0,0.0,0.0,0.0
0.0,0.0,0.0,0.0
40.197,2.011,2.883,127.0
0.0,0.0,0.0,0.0
45.573,2.301,2.772,7.0
0.0,0.0,0.0,0.0
0.0,0.0,0.0,0.0
0.0,0.0,0.0,0.0
40.186,2.071,2.915,119.0
43.749,2.265,2.934,42.0
