X,Y,Z,Reflectivity
0.0,0.0,0.0,0.0
28.347,-2.745,-0.674,0.0
24.549,-2.372,-0.715,0.0
0.0,0.0,0.0,0.0
0.0,0.0,0.0,0.0
0.0,0.0,0.0,0.0
33.415,-3.202,-0.581,0.0
28.582,-2.732,-0.649,0.0
0.0,0.0,0.0,0.0
0.0,0.0,0.0,0.0
0.0,0.0,0.0,0.0
0.0,0.0,0.0,0.0
0.0,0.0,0.0,0.0
29.647,-2.796,-0.643,0.0
25.869,-2.434,-0.699,0.0
0.0,0.0,0.0,0.0
0.0,0.0,0.0,0.0
0.0,0.0,0.0,0.0
0.0,0.0,0.0,0.0
30.528,-2.839,-0.631,0.0
26.843,-2.49,-0.698,0.0
90.433,-8.383,0.165,4.0
0.0,0.0,0.0,0.0
0.0,0.0,0.0,0.0
36.393,-3.344,-0.521,0.0
31.499,-2.886,-0.619,0.0
27.268,-2.492,-0.682,0.0
90.388,-8.255,0.255,12.0
0.0,0.0,0.0,0.0
0.0,0.0,0.0,0.0
0.0,0.0,0.0,0.0
31.941,-2.882,-0.596,0.0
27.634,-2.486,-0.664,0.0
90.396,-8.128,0.343,18.0
0.0,0.0,0.0,0.0
0.0,0.0,0.0,0.0
0.0,0.0,0.0,0.0
32.998,-2.93,-0.584,0.0
28.74,-2.544,-0.663,0.0
90.411,-8.001,0.429,31.0
0.0,0.0,0.0,0.0
0.0,0.0,0.0,0.0
40.207,-3.523,-0.459,0.0
34.745,-3.035,-0.583,0.0
29.14,-2.537,-0.645,0.0
90.41,-7.866,0.513,36.0
0.0,0.0,0.0,0.0
0.0,0.0,0.0,0.0
41.181,-3.547,-0.433,0.0
0.0,0.0,0.0,0.0
0.0,0.0,0.0,0.0
90.404,-7.73,0.594,39.0
90.361,-7.7,0.109,1.0
0.0,0.0,0.0,0.0
0.0,0.0,0.0,0.0
0.0,0.0,0.0,0.0
0.0,0.0,0.0,0.0
90.426,-7.593,0.672,42.0
90.426,-7.566,0.187,12.0
0.0,0.0,0.0,0.0
0.0,0.0,0.0,0.0
0.0,0.0,0.0,0.0
30.485,-2.514,-0.595,0.0
90.412,-7.45,0.749,70.0
99.309,-8.153,0.289,2.0
0.0,0.0,0.0,0.0
0.0,0.0,0.0,0.0
0.0,0.0,0.0,0.0
32.231,-2.607,-0.602,0.0
100.069,-8.086,0.91,15.0
99.846,-8.037,0.371,6.0
0.0,0.0,0.0,0.0
0.0,0.0,0.0,0.0
39.535,-3.145,-0.495,0.0
32.646,-2.587,-0.584,0.0
100.079,-7.923,0.99,15.0
100.017,-7.885,0.451,9.0
0.0,0.0,0.0,0.0
0.0,0.0,0.0,0.0
41.651,-3.244,-0.489,0.0
33.419,-2.593,-0.572,0.0
100.078,-7.757,1.066,17.0
100.027,-7.719,0.527,12.0
0.0,0.0,0.0,0.0
0.0,0.0,0.0,0.0
41.468,-3.16,-0.456,1.0
0.0,0.0,0.0,0.0
100.122,-7.589,1.14,12.0
100.053,-7.551,0.601,9.0
0.0,0.0,0.0,0.0
0.0,0.0,0.0,0.0
42.043,-3.131,-0.432,0.0
0.0,0.0,0.0,0.0
100.109,-7.416,1.211,11.0
100.101,-7.381,0.67,11.0
0.0,0.0,0.0,0.0
0.0,0.0,0.0,0.0
0.0,0.0,0.0,0.0
36.801,-2.665,-0.552,1.0
100.114,-7.241,1.278,9.0
100.084,-7.204,0.737,12.0
98.963,-7.09,0.195,3.0
0.0,0.0,0.0,0.0
0.0,0.0,0.0,0.0
0.0,0.0,0.0,0.0
100.105,-7.062,1.343,8.0
100.109,-7.028,0.801,8.0
99.037,-6.918,0.257,6.0
0.0,0.0,0.0,0.0
0.0,0.0,0.0,0.0
37.118,-2.555,-0.509,0.0
100.153,-6.883,1.405,5.0
0.0,0.0,0.0,0.0
99.159,-6.746,0.318,4.0
0.0,0.0,0.0,0.0
0.0,0.0,0.0,0.0
37.055,-2.482,-0.486,0.0
0.0,0.0,0.0,0.0
0.0,0.0,0.0,0.0
99.676,-6.598,0.376,18.0
0.0,0.0,0.0,0.0
0.0,0.0,0.0,0.0
0.0,0.0,0.0,0.0
117.514,-7.643,1.782,17.0
125.195,-8.098,1.219,34.0
108.47,-6.979,0.468,1.0
0.0,0.0,0.0,0.0
0.0,0.0,0.0,0.0
0.0,0.0,0.0,0.0
147.89,-9.343,2.319,18.0
148.013,-9.298,1.516,16.0
108.646,-6.785,0.523,5.0
0.0,0.0,0.0,0.0
0.0,0.0,0.0,0.0
40.538,-2.489,-0.469,0.0
148.675,-9.111,2.402,20.0
149.892,-9.132,1.607,15.0
109.252,-6.616,0.577,2.0
0.0,0.0,0.0,0.0
0.0,0.0,0.0,0.0
0.0,0.0,0.0,0.0
148.664,-8.823,2.469,21.0
149.893,-8.843,1.673,13.0
0.0,0.0,0.0,0.0
0.0,0.0,0.0,0.0
0.0,0.0,0.0,0.0
0.0,0.0,0.0,0.0
140.726,-8.084,2.394,22.0
140.724,-8.032,1.627,18.0
101.389,-5.75,0.62,5.0
0.0,0.0,0.0,0.0
0.0,0.0,0.0,0.0
0.0,0.0,0.0,0.0
0.0,0.0,0.0,0.0
101.59,-5.599,1.213,2.0
101.467,-5.555,0.657,150.0
0.0,0.0,0.0,0.0
0.0,0.0,0.0,0.0
0.0,0.0,0.0,0.0
0.0,0.0,0.0,0.0
101.474,-5.393,1.245,29.0
102.376,-5.404,0.697,1.0
0.0,0.0,0.0,0.0
0.0,0.0,0.0,0.0
0.0,0.0,0.0,0.0
0.0,0.0,0.0,0.0
0.0,0.0,0.0,0.0
0.0,0.0,0.0,0.0
101.484,-5.118,0.156,2.0
0.0,0.0,0.0,0.0
0.0,0.0,0.0,0.0
0.0,0.0,0.0,0.0
0.0,0.0,0.0,0.0
101.368,-4.943,0.747,2.0
101.726,-4.923,0.182,1.0
0.0,0.0,0.0,0.0
0.0,0.0,0.0,0.0
0.0,0.0,0.0,0.0
0.0,0.0,0.0,0.0
101.456,-4.744,0.77,5.0
0.0,0.0,0.0,0.0
0.0,0.0,0.0,0.0
0.0,0.0,0.0,0.0
0.0,0.0,0.0,0.0
101.475,-4.574,1.346,5.0
0.0,0.0,0.0,0.0
0.0,0.0,0.0,0.0
0.0,0.0,0.0,0.0
0.0,0.0,0.0,0.0
0.0,0.0,0.0,0.0
101.552,-4.366,1.362,45.0
101.452,-4.325,0.804,25.0
0.0,0.0,0.0,0.0
0.0,0.0,0.0,0.0
44.938,-1.866,-0.388,0.0
0.0,0.0,0.0,0.0
101.638,-4.162,1.375,7.0
101.603,-4.122,0.817,1.0
0.0,0.0,0.0,0.0
0.0,0.0,0.0,0.0
0.0,0.0,0.0,0.0
162.229,-6.369,3.102,20.0
161.994,-6.298,2.206,10.0
0.0,0.0,0.0,0.0
0.0,0.0,0.0,0.0
0.0,0.0,0.0,0.0
0.0,0.0,0.0,0.0
162.241,-6.028,3.11,24.0
162.104,-5.962,2.214,22.0
160.737,-5.854,1.31,5.0
0.0,0.0,0.0,0.0
0.0,0.0,0.0,0.0
0.0,0.0,0.0,0.0
162.187,-5.688,3.11,14.0
162.185,-5.625,2.216,20.0
160.74,-5.514,1.31,4.0
0.0,0.0,0.0,0.0
0.0,0.0,0.0,0.0
0.0,0.0,0.0,0.0
162.312,-5.349,3.108,22.0
162.038,-5.282,2.209,24.0
160.747,-5.178,1.304,4.0
0.0,0.0,0.0,0.0
0.0,0.0,0.0,0.0
45.47,-1.414,-0.388,0.0
165.398,-5.102,3.157,6.0
161.83,-4.932,2.194,26.0
160.689,-4.838,1.292,6.0
0.0,0.0,0.0,0.0
0.0,0.0,0.0,0.0
44.961,-1.303,-0.388,0.0
178.128,-5.119,3.382,11.0
161.861,-4.591,2.177,30.0
160.71,-4.497,1.273,11.0
0.0,0.0,0.0,0.0
0.0,0.0,0.0,0.0
0.0,0.0,0.0,0.0
170.294,-4.531,3.208,4.0
161.901,-4.248,2.154,24.0
160.653,-4.156,1.248,4.0
0.0,0.0,0.0,0.0
0.0,0.0,0.0,0.0
0.0,0.0,0.0,0.0
170.408,-4.175,3.18,8.0
161.931,-3.906,2.124,11.0
128.773,-3.057,0.975,3.0
0.0,0.0,0.0,0.0
0.0,0.0,0.0,0.0
0.0,0.0,0.0,0.0
170.438,-3.813,3.143,6.0
128.641,-2.832,1.659,9.0
128.565,-2.783,0.945,15.0
0.0,0.0,0.0,0.0
0.0,0.0,0.0,0.0
0.0,0.0,0.0,0.0
170.416,-3.456,3.1,10.0
128.586,-2.559,1.625,27.0
128.507,-2.511,0.91,19.0
0.0,0.0,0.0,0.0
0.0,0.0,0.0,0.0
0.0,0.0,0.0,0.0
170.276,-3.094,3.048,18.0
128.576,-2.29,1.587,39.0
128.503,-2.24,0.871,9.0
0.0,0.0,0.0,0.0
0.0,0.0,0.0,0.0
42.613,-0.696,-0.426,0.0
169.748,-2.723,2.982,7.0
19.765,-0.309,0.237,1.0
19.744,-0.302,0.127,23.0
0.0,0.0,0.0,0.0
0.0,0.0,0.0,0.0
0.0,0.0,0.0,0.0
19.773,-0.275,0.34,6.0
19.752,-0.267,0.229,19.0
19.74,-0.26,0.119,17.0
0.0,0.0,0.0,0.0
0.0,0.0,0.0,0.0
0.0,0.0,0.0,0.0
19.747,-0.233,0.331,10.0
19.771,-0.226,0.221,3.0
0.0,0.0,0.0,0.0
0.0,0.0,0.0,0.0
0.0,0.0,0.0,0.0
19.778,-0.197,-0.221,7.0
19.77,-0.191,0.323,0.0
169.131,-1.58,1.82,7.0
160.623,-1.444,0.832,6.0
0.0,0.0,0.0,0.0
19.746,-0.163,-0.12,13.0
19.736,-0.156,-0.23,16.0
169.258,-1.284,2.684,6.0
19.741,-0.142,0.202,0.0
19.773,-0.136,0.092,3.0
19.727,-0.128,-0.019,10.0
19.717,-0.121,-0.129,16.0
19.736,-0.115,-0.24,17.0
19.688,-0.108,0.302,9.0
19.717,-0.101,0.192,16.0
19.704,-0.094,0.082,13.0
19.698,-0.087,-0.03,16.0
19.713,-0.081,-0.14,16.0
19.75,-0.074,-0.251,15.0
19.653,-0.067,0.29,10.0
19.687,-0.06,0.181,13.0
19.692,-0.053,0.07,15.0
19.703,-0.047,-0.041,16.0
19.742,-0.04,-0.152,13.0
19.802,-0.033,-0.263,0.0
19.625,-0.026,0.278,13.0
19.693,-0.019,0.169,6.0
19.747,-0.013,0.059,5.0
19.751,-0.006,-0.053,7.0
19.767,0.0,-0.164,0.0
19.77,0.007,-0.275,1.0
19.627,0.013,0.266,15.0
19.751,0.02,0.157,23.0
19.745,0.027,0.046,14.0
19.737,0.034,-0.066,53.0
19.756,0.04,-0.176,17.0
19.767,0.047,-0.288,31.0
19.623,0.054,0.253,14.0
19.683,0.06,0.143,12.0
19.746,0.067,0.033,32.0
19.748,0.074,-0.079,13.0
19.766,0.081,-0.19,2.0
19.765,0.087,-0.301,0.0
19.633,0.094,0.239,14.0
19.645,0.1,0.129,13.0
19.643,0.106,0.019,13.0
19.676,0.113,-0.093,9.0
19.687,0.12,-0.204,0.0
32.777,0.211,-0.523,0.0
19.659,0.133,0.225,17.0
19.641,0.14,0.115,13.0
19.65,0.146,0.004,19.0
19.629,0.152,-0.107,14.0
19.654,0.159,-0.218,14.0
19.67,0.166,-0.329,12.0
19.67,0.173,0.21,12.0
19.668,0.179,0.1,11.0
19.645,0.186,-0.01,13.0
19.617,0.192,-0.123,16.0
19.637,0.198,-0.233,16.0
19.648,0.205,-0.344,15.0
19.771,0.213,0.195,26.0
19.754,0.219,0.084,3.0
19.686,0.225,-0.026,6.0
19.633,0.231,-0.139,15.0
19.642,0.238,-0.25,17.0
19.654,0.244,-0.361,15.0
19.767,0.252,0.179,25.0
84.78,1.112,0.29,3.0
19.693,0.264,-0.043,1.0
19.671,0.27,-0.156,10.0
19.671,0.276,-0.267,14.0
19.685,0.283,-0.378,5.0
160.741,2.373,1.317,11.0
0.0,0.0,0.0,0.0
52.467,0.807,-0.162,2.0
0.0,0.0,0.0,0.0
35.455,0.568,-0.513,0.0
29.31,0.478,-0.589,0.0
55.17,0.921,0.402,68.0
55.165,0.938,0.09,115.0
47.564,0.824,-0.19,0.0
35.718,0.63,-0.348,0.0
30.888,0.554,-0.475,0.0
28.838,0.526,-0.607,0.0
55.202,1.028,0.35,21.0
55.239,1.046,0.038,26.0
43.959,0.846,-0.217,0.0
34.076,0.666,-0.364,3.0
29.296,0.581,-0.479,0.0
27.274,0.549,-0.6,0.0
11.436,0.053,-0.89,0.0
10.814,0.048,-0.899,0.0
10.256,0.044,-0.907,0.0
9.741,0.04,-0.915,0.0
9.298,0.037,-0.923,0.0
8.872,0.034,-0.928,0.0
11.62,0.044,-0.887,0.0
10.978,0.04,-0.896,0.0
10.401,0.036,-0.905,0.0
9.889,0.032,-0.914,0.0
9.405,0.029,-0.919,0.0
8.969,0.026,-0.925,0.0
11.818,0.035,-0.885,0.0
11.148,0.031,-0.894,0.0
10.561,0.028,-0.903,0.0
10.042,0.025,-0.913,0.0
9.561,0.022,-0.92,0.0
9.096,0.019,-0.924,0.0
12.004,0.026,-0.88,0.0
11.342,0.022,-0.892,0.0
10.749,0.019,-0.902,0.0
10.198,0.017,-0.911,0.0
9.66,0.014,-0.914,0.0
9.273,0.012,-0.927,0.0
12.229,0.016,-0.878,0.0
11.556,0.014,-0.89,0.0
10.913,0.011,-0.899,0.0
10.341,0.009,-0.907,0.0
9.855,0.007,-0.917,0.0
9.356,0.005,-0.921,0.0
12.466,0.007,-0.875,0.0
11.747,0.005,-0.886,0.0
11.119,0.003,-0.898,0.0
10.517,0.001,-0.906,0.0
10.002,0.0,-0.915,0.0
9.516,-0.001,-0.921,0.0
12.646,-0.001,-0.867,0.0
11.963,-0.003,-0.883,0.0
11.307,-0.004,-0.894,0.0
10.695,-0.006,-0.903,0.0
10.159,-0.007,-0.912,0.0
9.666,-0.008,-0.919,0.0
12.953,-0.01,-0.866,0.0
12.21,-0.012,-0.881,0.0
11.518,-0.013,-0.891,0.0
10.87,-0.013,-0.9,0.0
10.32,-0.014,-0.909,0.0
9.825,-0.015,-0.917,0.0
13.213,-0.02,-0.861,0.0
12.452,-0.02,-0.877,0.0
11.748,-0.021,-0.889,0.0
11.074,-0.021,-0.898,0.0
10.52,-0.021,-0.909,0.0
9.976,-0.022,-0.914,0.0
13.501,-0.029,-0.857,0.0
12.675,-0.029,-0.871,0.0
11.957,-0.029,-0.885,0.0
11.298,-0.029,-0.897,0.0
10.705,-0.028,-0.906,0.0
10.144,-0.028,-0.912,0.0
13.857,-0.038,-0.855,0.0
12.926,-0.037,-0.866,0.0
12.151,-0.036,-0.878,0.0
11.505,-0.036,-0.892,0.0
10.872,-0.035,-0.901,0.0
10.336,-0.035,-0.911,0.0
14.137,-0.047,-0.848,0.0
13.233,-0.046,-0.863,0.0
12.451,-0.045,-0.877,0.0
11.757,-0.044,-0.891,0.0
11.097,-0.042,-0.899,0.0
10.529,-0.041,-0.909,0.0
14.547,-0.057,-0.846,0.0
13.554,-0.054,-0.859,0.0
12.716,-0.052,-0.873,0.0
12.001,-0.051,-0.888,0.0
11.32,-0.049,-0.897,0.0
10.735,-0.048,-0.907,0.0
14.928,-0.066,-0.841,0.0
13.914,-0.063,-0.857,0.0
12.987,-0.06,-0.868,0.0
12.193,-0.058,-0.88,0.0
11.574,-0.056,-0.896,0.0
10.935,-0.054,-0.904,0.0
15.394,-0.075,-0.839,0.0
14.203,-0.071,-0.848,0.0
13.222,-0.068,-0.859,0.0
12.474,-0.065,-0.877,0.0
11.793,-0.063,-0.891,0.0
11.158,-0.06,-0.901,0.0
15.789,-0.085,-0.831,0.0
14.663,-0.08,-0.848,0.0
13.601,-0.075,-0.858,0.0
12.73,-0.072,-0.871,0.0
12.048,-0.069,-0.887,0.0
11.382,-0.066,-0.898,0.0
19.631,0.004,0.283,14.0
19.647,0.007,0.181,11.0
19.773,0.01,0.08,3.0
19.74,0.012,-0.023,10.0
19.777,0.015,-0.125,1.0
19.777,0.018,-0.227,1.0
19.627,0.02,0.322,16.0
19.634,0.023,0.22,16.0
19.762,0.026,0.119,7.0
19.742,0.028,0.015,11.0
19.732,0.031,-0.086,16.0
19.756,0.034,-0.188,10.0
19.621,0.036,0.36,16.0
19.629,0.039,0.259,12.0
19.738,0.042,0.158,15.0
19.741,0.045,0.054,17.0
19.75,0.048,-0.047,61.0
19.755,0.051,-0.149,14.0
19.614,0.053,0.399,14.0
19.61,0.056,0.297,12.0
19.631,0.059,0.196,13.0
19.727,0.063,0.093,21.0
19.753,0.066,-0.009,53.0
19.764,0.069,-0.111,63.0
19.617,0.071,0.437,26.0
19.612,0.074,0.335,16.0
19.612,0.077,0.234,14.0
19.668,0.081,0.13,14.0
19.75,0.084,0.029,23.0
19.751,0.087,-0.073,9.0
19.617,0.089,0.475,24.0
19.615,0.092,0.373,24.0
19.61,0.095,0.271,16.0
19.659,0.099,0.168,12.0
19.657,0.102,0.066,12.0
19.669,0.106,-0.035,9.0
19.604,0.108,0.512,21.0
19.617,0.112,0.41,25.0
19.608,0.115,0.308,13.0
19.645,0.118,0.205,15.0
19.644,0.122,0.103,14.0
19.642,0.125,0.001,15.0
19.599,0.128,0.549,18.0
19.602,0.131,0.447,14.0
19.611,0.134,0.345,11.0
19.624,0.138,0.241,10.0
19.656,0.142,0.14,15.0
19.648,0.145,0.038,15.0
19.6,0.148,0.585,14.0
19.602,0.151,0.483,12.0
19.621,0.155,0.382,10.0
19.629,0.158,0.278,11.0
19.661,0.162,0.176,14.0
19.654,0.166,0.074,12.0
19.607,0.169,0.622,10.0
19.614,0.172,0.52,10.0
19.631,0.176,0.418,10.0
19.655,0.18,0.314,9.0
19.655,0.184,0.212,11.0
19.677,0.187,0.11,11.0
19.661,0.191,0.66,10.0
19.687,0.195,0.558,10.0
19.686,0.198,0.455,9.0
19.714,0.202,0.351,9.0
19.739,0.206,0.248,9.0
19.745,0.21,0.145,16.0
19.657,0.212,0.695,10.0
19.667,0.216,0.592,9.0
19.693,0.221,0.49,9.0
19.711,0.224,0.386,10.0
19.726,0.228,0.283,11.0
19.756,0.233,0.18,28.0
19.655,0.235,0.73,11.0
19.645,0.239,0.626,13.0
19.65,0.243,0.524,12.0
19.687,0.247,0.42,10.0
19.701,0.251,0.317,12.0
19.75,0.256,0.215,22.0
84.799,1.115,3.298,15.0
19.642,0.262,0.661,15.0
19.646,0.266,0.558,13.0
19.663,0.27,0.454,10.0
19.699,0.275,0.352,13.0
19.731,0.279,0.249,13.0
121.804,1.749,4.948,8.0
19.646,0.286,0.695,10.0
19.654,0.29,0.592,11.0
19.665,0.294,0.487,11.0
19.695,0.299,0.385,12.0
19.749,0.304,0.282,2.0
121.455,1.894,5.141,25.0
19.683,0.311,0.729,1.0
19.675,0.315,0.626,7.0
19.692,0.319,0.521,3.0
55.207,0.907,1.172,7.0
55.19,0.919,0.883,46.0
55.213,0.93,2.429,45.0
55.188,0.941,2.138,52.0
55.173,0.953,1.848,65.0
55.165,0.965,1.552,75.0
55.165,0.977,1.262,75.0
55.172,0.989,0.973,71.0
55.191,1.001,2.52,57.0
55.191,1.013,2.229,52.0
55.186,1.025,1.939,42.0
55.21,1.038,1.644,26.0
55.216,1.05,1.353,14.0
55.203,1.062,1.063,4.0
121.516,2.365,5.746,24.0
121.295,2.386,5.095,23.0
135.078,2.688,4.963,12.0
135.352,2.723,4.246,19.0
163.329,3.323,4.263,4.0
179.283,3.689,3.738,34.0
121.74,2.531,5.95,12.0
121.53,2.553,5.297,23.0
121.267,2.575,4.645,17.0
114.175,2.45,3.76,11.0
134.675,2.92,3.724,16.0
179.254,3.929,4.014,5.0
129.398,2.865,6.525,20.0
114.559,2.563,5.17,13.0
121.224,2.739,4.83,13.0
114.227,2.607,3.937,16.0
98.574,2.272,2.876,64.0
98.651,2.298,2.359,87.0
129.48,3.046,6.726,11.0
129.115,3.067,6.025,13.0
121.373,2.912,5.022,14.0
113.795,2.757,4.094,22.0
121.517,2.973,3.73,5.0
99.678,2.462,2.533,23.0
45.464,1.134,2.43,1.0
45.498,1.145,2.191,1.0
45.478,1.155,1.949,11.0
0.0,0.0,0.0,0.0
0.0,0.0,0.0,0.0
0.0,0.0,0.0,0.0
43.706,1.153,2.401,131.0
0.0,0.0,0.0,0.0
0.0,0.0,0.0,0.0
43.662,1.182,1.698,47.0
41.909,1.145,1.408,150.0
41.924,1.155,1.187,150.0
40.112,1.116,2.261,37.0
40.125,1.126,2.048,98.0
40.132,1.135,1.835,89.0
40.12,1.145,1.617,123.0
40.115,1.154,1.404,131.0
40.113,1.164,1.191,136.0
40.115,1.175,2.317,150.0
40.121,1.184,2.103,110.0
40.122,1.194,1.89,114.0
40.114,1.203,1.672,126.0
40.119,1.213,1.459,147.0
40.116,1.223,1.245,149.0
40.115,1.234,2.371,130.0
40.137,1.244,2.158,110.0
40.107,1.253,1.943,101.0
40.088,1.263,1.725,79.0
40.119,1.274,1.512,134.0
40.113,1.283,1.298,150.0
40.122,1.295,2.425,127.0
40.099,1.304,2.21,76.0
40.107,1.314,1.996,24.0
40.087,1.323,1.777,5.0
40.064,1.332,1.562,1.0
120.616,4.041,4.06,21.0
0.0,0.0,0.0,0.0
120.297,4.094,6.784,19.0
121.194,4.155,6.186,22.0
120.266,4.153,5.483,14.0
120.329,4.185,4.843,16.0
120.657,4.227,4.213,21.0
41.96,1.482,2.643,75.0
135.157,4.809,7.79,16.0
121.065,4.336,6.329,20.0
120.337,4.342,5.635,14.0
120.059,4.361,4.979,22.0
120.487,4.406,4.352,20.0
45.555,1.68,2.925,58.0
121.138,4.497,7.128,10.0
121.053,4.523,6.473,20.0
134.246,5.05,6.446,14.0
120.22,4.553,5.127,17.0
178.596,6.808,6.66,14.0
0.0,0.0,0.0,0.0
121.213,4.689,7.275,13.0
120.853,4.705,6.603,21.0
121.038,4.743,5.951,13.0
179.344,7.072,7.855,16.0
178.527,7.086,6.863,18.0
0.0,0.0,0.0,0.0
45.553,1.834,2.785,6.0
120.876,4.896,6.741,22.0
121.099,4.935,6.088,18.0
179.923,7.378,8.079,14.0
178.848,7.382,7.071,16.0
41.993,1.747,2.841,109.0
45.573,1.908,2.837,48.0
23.555,0.992,1.339,0.0
23.596,0.999,1.212,3.0
23.592,1.005,1.084,24.0
23.615,1.012,0.958,38.0
23.595,1.019,1.621,41.0
23.584,1.025,1.493,42.0
23.583,1.03,1.365,44.0
23.574,1.036,1.235,46.0
23.573,1.042,1.108,55.0
23.581,1.048,0.981,67.0
23.565,1.056,1.643,82.0
23.563,1.062,1.515,77.0
23.56,1.067,1.388,78.0
23.569,1.074,1.258,71.0
23.566,1.079,1.131,74.0
23.566,1.085,1.003,69.0
23.559,1.094,1.666,72.0
23.564,1.1,1.538,57.0
23.564,1.106,1.41,52.0
23.579,1.112,1.281,47.0
23.584,1.118,1.154,44.0
23.595,1.125,1.027,40.0
40.191,1.931,2.88,6.0
0.0,0.0,0.0,0.0
23.575,1.144,1.433,5.0
23.588,1.151,1.303,1.0
23.528,1.154,1.173,0.0
179.931,8.87,7.994,16.0
40.208,1.997,2.917,128.0
0.0,0.0,0.0,0.0
45.568,2.286,2.81,44.0
0.0,0.0,0.0,0.0
0.0,0.0,0.0,0.0
180.389,9.187,8.172,4.0
40.197,2.063,2.951,116.0
0.0,0.0,0.0,0.0
45.553,2.36,2.848,77.0
0.0,0.0,0.0,0.0
0.0,0.0,0.0,0.0
0.0,0.0,0.0,0.0
40.184,2.128,2.984,65.0
0.0,0.0,0.0,0.0
0.0,0.0,0.0,0.0
0.0,0.0,0.0,0.0
0.0,0.0,0.0,0.0
0.0,0.0,0.0,0.0
40.184,2.195,3.015,11.0
0.0,0.0,0.0,0.0
0.0,0.0,0.0,0.0
0.0,0.0,0.0,0.0
0.0,0.0,0.0,0.0
206.39,11.525,9.829,4.0
40.149,2.258,3.042,1.0
40.196,2.271,2.825,107.0
45.49,2.581,2.948,3.0
0.0,0.0,0.0,0.0
0.0,0.0,0.0,0.0
203.412,11.691,9.83,5.0
0.0,0.0,0.0,0.0
40.184,2.336,2.852,122.0
0.0,0.0,0.0,0.0
0.0,0.0,0.0,0.0
0.0,0.0,0.0,0.0
203.326,12.021,9.958,6.0
0.0,0.0,0.0,0.0
40.189,2.403,2.878,121.0
0.0,0.0,0.0,0.0
112.319,6.768,6.8,10.0
0.0,0.0,0.0,0.0
0.0,0.0,0.0,0.0
0.0,0.0,0.0,0.0
40.19,2.469,2.902,143.0
0.0,0.0,0.0,0.0
45.537,2.819,2.783,3.0
112.348,6.982,6.251,2.0
112.297,7.005,5.632,2.0
0.0,0.0,0.0,0.0
40.192,2.535,2.925,117.0
43.731,2.769,2.942,61.0
45.542,2.894,2.808,24.0
100.255,6.394,5.631,10.0
100.021,6.404,5.069,18.0
99.933,6.445,7.877,32.0
40.193,2.601,2.946,115.0
41.976,2.726,2.845,87.0
45.531,2.967,2.83,39.0
99.942,6.538,5.663,34.0
99.96,6.563,5.114,34.0
99.931,6.608,7.925,32.0
40.167,2.665,2.963,69.0
0.0,0.0,0.0,0.0
45.524,3.041,2.851,33.0
99.945,6.701,5.708,30.0
99.949,6.725,5.158,34.0
99.916,6.77,7.967,34.0
40.161,2.73,2.98,63.0
0.0,0.0,0.0,0.0
45.503,3.114,2.869,77.0
45.562,3.129,2.62,140.0
99.983,6.889,5.2,35.0
99.919,6.932,8.008,34.0
40.159,2.795,2.995,40.0
0.0,0.0,0.0,0.0
43.755,3.065,2.775,150.0
45.56,3.201,2.637,136.0
99.972,7.048,5.235,34.0
99.914,7.093,8.043,35.0
40.174,2.861,3.01,36.0
0.0,0.0,0.0,0.0
43.759,3.135,2.789,150.0
0.0,0.0,0.0,0.0
45.459,3.278,2.394,150.0
99.945,7.256,8.076,32.0
40.13,2.921,3.019,33.0
0.0,0.0,0.0,0.0
41.95,3.072,2.686,100.0
0.0,0.0,0.0,0.0
45.446,3.348,2.406,7.0
99.088,7.349,8.033,7.0
40.127,2.985,3.029,21.0
41.876,3.124,2.928,2.0
41.961,3.139,2.697,100.0
43.668,3.277,2.564,150.0
43.681,3.287,2.322,123.0
99.015,7.503,8.05,20.0
40.116,3.048,3.037,12.0
40.162,3.06,2.817,107.0
40.143,3.067,2.588,98.0
0.0,0.0,0.0,0.0
41.875,3.218,2.235,5.0
94.832,7.336,7.728,5.0
40.093,3.11,3.043,8.0
40.153,3.123,2.823,78.0
40.161,3.131,2.596,136.0
41.882,3.274,2.474,117.0
41.878,3.283,2.241,150.0
94.826,7.483,7.741,40.0
94.834,7.502,7.21,22.0
40.123,3.182,2.826,39.0
40.166,3.193,2.601,116.0
0.0,0.0,0.0,0.0
41.891,3.348,2.246,6.0
95.026,7.646,7.767,1.0
40.08,3.233,3.051,9.0
40.105,3.242,2.828,89.0
40.08,3.248,2.599,103.0
40.089,3.257,2.375,123.0
40.083,3.265,2.152,121.0
97.522,7.996,7.976,10.0
40.073,3.293,3.053,7.0
40.082,3.301,2.828,81.0
40.095,3.31,2.601,111.0
40.087,3.318,2.377,114.0
40.091,3.326,2.153,105.0
96.009,8.017,7.854,1.0
40.101,3.356,3.055,7.0
40.066,3.36,2.827,77.0
40.078,3.369,2.6,117.0
40.081,3.377,2.376,134.0
40.085,3.386,2.152,106.0
87.072,7.401,7.121,12.0
87.046,7.415,6.629,15.0
87.054,7.431,6.142,17.0
87.076,7.45,5.645,27.0
87.061,7.465,5.157,34.0
87.063,7.482,4.67,93.0
87.034,7.527,7.112,27.0
87.068,7.545,6.625,22.0
87.064,7.56,6.136,27.0
87.029,7.573,5.635,13.0
87.069,7.593,5.15,11.0
87.075,7.612,4.662,8.0
83.025,7.302,6.776,1.0
82.93,7.308,6.3,2.0
82.98,7.327,5.838,3.0
82.939,7.338,5.36,4.0
82.957,7.355,4.896,3.0
82.929,7.369,4.428,3.0
82.881,7.408,6.752,12.0
82.916,7.425,6.287,18.0
82.895,7.438,5.818,22.0
82.897,7.452,5.344,29.0
82.916,7.469,4.879,39.0
82.911,7.484,4.413,53.0
82.876,7.524,6.737,28.0
82.892,7.54,6.27,36.0
82.903,7.554,5.803,19.0
82.888,7.568,5.327,13.0
82.889,7.583,4.86,12.0
82.943,7.602,4.397,15.0
82.929,7.646,6.722,5.0
82.877,7.655,6.25,60.0
82.958,7.676,5.787,4.0
83.058,7.699,5.317,3.0
83.006,7.708,4.847,2.0
82.907,7.713,4.375,3.0
83.102,7.776,6.715,5.0
82.921,7.772,6.231,9.0
82.967,7.79,5.765,3.0
85.748,8.064,5.466,11.0
85.684,8.073,4.978,10.0
85.473,8.068,4.485,6.0
83.285,7.906,6.705,11.0
82.883,7.88,6.202,3.0
83.024,7.906,5.743,5.0
84.478,8.058,5.358,8.0
84.426,8.067,4.878,10.0
84.411,8.08,4.401,10.0
83.247,8.012,6.673,10.0
83.034,8.004,6.186,5.0
82.975,8.01,5.711,9.0
83.136,8.039,5.243,8.0
83.137,8.053,4.774,8.0
83.156,8.068,4.305,7.0
75.154,7.331,5.996,2.0
75.11,7.338,5.566,2.0
75.063,7.344,5.138,3.0
75.102,7.358,4.707,3.0
75.08,7.368,4.281,3.0
75.117,7.384,3.859,3.0
75.045,7.416,5.956,10.0
75.048,7.427,5.53,9.0
75.073,7.439,5.106,12.0
75.06,7.449,4.673,13.0
75.066,7.461,4.247,18.0
75.063,7.472,3.823,22.0
75.032,7.508,5.922,79.0
75.035,7.519,5.495,76.0
75.036,7.529,5.069,79.0
75.033,7.538,4.636,66.0
75.041,7.55,4.211,52.0
75.051,7.563,3.786,34.0
75.062,7.602,5.888,9.0
75.072,7.613,5.461,8.0
75.079,7.623,5.035,8.0
74.988,7.624,4.595,8.0
75.056,7.641,4.174,73.0
75.066,7.653,3.75,5.0
75.097,7.695,5.852,8.0
17.086,1.752,1.234,0.0
75.058,7.709,4.994,1.0
75.23,7.737,4.57,0.0
75.044,7.728,4.133,13.0
71.025,7.324,3.509,2.0
70.978,7.355,5.491,2.0
70.994,7.365,5.088,3.0
70.939,7.368,4.679,3.0
70.896,7.372,4.266,4.0
70.943,7.386,3.867,4.0
70.928,7.394,3.463,7.0
70.865,7.423,5.44,11.0
70.901,7.434,5.039,15.0
70.899,7.443,4.635,13.0
70.879,7.449,4.222,17.0
70.896,7.459,3.821,18.0
70.902,7.469,3.418,21.0
70.869,7.501,5.396,95.0
70.87,7.508,4.992,83.0
70.867,7.516,4.588,115.0
70.865,7.523,4.177,115.0
70.872,7.532,3.775,93.0
70.891,7.542,3.373,90.0
70.872,7.575,5.351,15.0
70.853,7.58,4.945,14.0
70.897,7.592,4.544,14.0
70.871,7.597,4.13,12.0
70.891,7.608,3.728,10.0
70.906,7.618,3.325,10.0
70.932,7.654,5.307,4.0
70.964,7.664,4.903,4.0
70.916,7.666,4.495,3.0
70.942,7.676,4.086,3.0
70.966,7.687,3.682,4.0
70.935,7.692,3.277,3.0
71.125,7.746,5.27,0.0
70.896,7.727,4.848,0.0
71.217,7.768,4.463,1.0
73.668,8.043,4.188,1.0
73.901,8.076,3.781,4.0
73.9,8.084,3.36,5.0
73.494,8.073,5.39,11.0
73.33,8.062,4.959,10.0
73.112,8.044,4.527,9.0
73.051,8.044,4.098,9.0
73.252,8.073,3.692,8.0
73.408,8.098,3.281,10.0
72.89,8.073,5.29,10.0
72.92,8.083,4.874,11.0
72.732,8.068,4.446,10.0
72.489,8.047,4.01,9.0
72.501,8.055,3.597,7.0
72.696,8.085,3.191,7.0
72.235,8.064,5.184,8.0
72.313,8.079,4.776,10.0
72.34,8.087,4.363,10.0
72.208,8.078,3.935,9.0
72.012,8.063,3.514,4.0
72.05,8.074,3.105,4.0
71.512,8.044,5.073,4.0
71.672,8.067,4.673,5.0
71.847,8.091,4.274,8.0
71.86,8.098,3.857,8.0
71.659,8.082,3.436,7.0
71.417,8.061,3.017,4.0
71.065,8.05,4.98,7.0
70.889,8.034,4.562,5.0
71.232,8.078,4.176,6.0
71.345,8.096,3.767,6.0
71.317,8.099,3.358,7.0
71.075,8.077,2.942,5.0
70.819,8.076,4.901,10.0
70.624,8.058,4.482,9.0
70.531,8.052,4.072,7.0
70.732,8.079,3.672,7.0
70.894,8.103,3.274,8.0
56.755,6.492,2.297,1.0
70.482,8.089,4.813,9.0
70.387,8.082,4.403,10.0
70.201,8.064,3.989,6.0
70.147,8.062,3.577,2.0
70.424,8.099,3.189,6.0
56.437,6.494,2.232,3.0
70.001,8.081,4.715,3.0
70.122,8.098,4.321,7.0
69.982,8.086,3.911,8.0
69.752,8.063,3.492,5.0
69.756,8.068,3.092,2.0
56.07,6.489,2.165,6.0
63.125,7.328,4.192,1.0
63.261,7.346,3.838,1.0
63.215,7.344,3.472,2.0
63.235,7.349,3.104,1.0
63.375,7.369,2.749,0.0
55.771,6.488,2.1,2.0
63.162,7.369,4.133,3.0
63.193,7.375,3.772,3.0
63.185,7.377,3.409,4.0
63.175,7.379,3.04,2.0
63.214,7.387,2.68,1.0
55.537,6.493,2.036,8.0
63.149,7.403,4.069,5.0
63.153,7.406,3.707,5.0
63.161,7.409,3.345,6.0
63.181,7.414,2.978,4.0
55.292,6.49,2.289,5.0
55.318,6.496,1.973,5.0
63.13,7.433,4.005,8.0
63.119,7.433,3.642,8.0
63.129,7.437,3.279,8.0
63.163,7.443,2.912,8.0
55.057,6.49,2.223,6.0
55.096,6.497,1.909,9.0
63.117,7.462,3.938,15.0
63.138,7.465,3.577,14.0
63.121,7.465,3.213,15.0
63.123,7.467,2.845,13.0
54.848,6.49,2.157,9.0
54.88,6.496,1.844,10.0
63.116,7.489,3.871,27.0
63.101,7.488,3.507,24.0
63.117,7.491,3.146,27.0
63.118,7.492,2.778,23.0
54.686,6.493,2.093,13.0
54.712,6.498,1.78,12.0
63.107,7.512,3.804,67.0
63.11,7.513,3.441,38.0
63.109,7.514,3.077,43.0
63.105,7.514,2.709,18.0
54.547,6.497,2.029,14.0
54.564,6.5,1.717,12.0
63.101,7.533,3.735,137.0
63.094,7.532,3.372,115.0
63.101,7.534,3.009,142.0
63.101,7.535,2.64,8.0
54.39,6.495,1.964,12.0
54.446,6.503,1.654,11.0
63.1,7.552,3.664,90.0
63.098,7.551,3.301,118.0
63.112,7.553,2.94,140.0
54.211,6.488,2.208,5.0
54.265,6.496,1.899,10.0
54.308,6.502,1.59,13.0
63.107,7.568,3.595,46.0
63.111,7.568,3.232,64.0
63.104,7.567,2.869,68.0
54.131,6.491,2.145,6.0
54.188,6.499,1.836,11.0
54.223,6.504,1.527,11.0
63.093,7.58,3.524,26.0
63.1,7.58,3.161,37.0
63.099,7.579,2.798,34.0
54.054,6.492,2.082,7.0
54.115,6.5,1.773,13.0
54.157,6.506,1.464,12.0
63.111,7.592,3.453,27.0
63.1,7.589,3.09,29.0
63.088,7.587,2.726,11.0
54.004,6.494,2.018,12.0
54.071,6.502,1.71,11.0
54.113,6.508,1.401,12.0
63.094,7.597,3.38,21.0
63.091,7.596,3.016,24.0
53.966,6.496,2.269,1.0
53.981,6.497,1.955,12.0
54.052,6.505,1.648,11.0
54.078,6.508,1.338,12.0
63.102,7.603,3.306,19.0
63.112,7.602,2.943,22.0
53.862,6.487,2.203,1.0
53.971,6.499,1.892,12.0
54.023,6.505,1.584,13.0
54.08,6.511,1.275,12.0
63.115,7.607,3.233,18.0
63.088,7.601,2.868,21.0
53.891,6.491,2.141,2.0
53.964,6.499,1.828,13.0
54.053,6.509,1.521,12.0
54.107,6.514,1.212,13.0
63.095,7.603,3.157,19.0
63.105,7.601,2.795,18.0
53.919,6.493,2.078,5.0
54.019,6.503,1.766,13.0
54.075,6.509,1.457,12.0
54.144,6.516,1.149,11.0
63.112,7.6,3.083,20.0
63.091,7.595,2.719,7.0
53.977,6.496,2.016,11.0
54.055,6.504,1.703,11.0
54.108,6.508,1.394,13.0
54.18,6.516,1.086,12.0
63.121,7.595,3.009,27.0
54.049,6.5,2.265,2.0
54.051,6.498,1.955,13.0
54.129,6.505,1.642,13.0
54.209,6.514,1.332,13.0
54.258,6.518,1.023,13.0
63.104,7.583,2.933,31.0
54.057,6.493,2.201,4.0
54.153,6.501,1.894,11.0
54.211,6.506,1.579,14.0
54.296,6.514,1.27,14.0
54.372,6.521,0.96,12.0
63.117,7.571,2.857,76.0
54.155,6.493,2.14,7.0
54.246,6.501,1.831,11.0
54.337,6.509,1.517,12.0
54.416,6.516,1.208,13.0
54.468,6.52,0.896,13.0
63.11,7.554,2.78,130.0
54.31,6.498,2.08,7.0
54.397,6.505,1.772,11.0
54.499,6.514,1.457,12.0
54.551,6.518,1.145,13.0
54.606,6.522,0.834,12.0
63.111,7.536,2.705,23.0
54.492,6.503,2.022,13.0
54.559,6.508,1.712,13.0
54.638,6.514,1.395,14.0
54.703,6.519,1.083,13.0
54.776,6.525,0.771,12.0
54.582,6.499,2.274,8.0
54.657,6.504,1.963,12.0
54.743,6.51,1.652,13.0
54.792,6.512,1.334,13.0
54.87,6.519,1.021,14.0
54.971,6.528,0.708,12.0
54.727,6.495,2.214,10.0
54.872,6.508,1.905,11.0
54.924,6.51,1.591,10.0
55.009,6.516,1.273,10.0
55.095,6.523,0.959,12.0
55.188,6.531,0.644,12.0
54.957,6.498,2.158,10.0
55.069,6.507,1.846,11.0
55.153,6.513,1.532,11.0
55.263,6.521,1.213,12.0
55.366,6.53,0.897,12.0
55.45,6.536,0.581,13.0
55.248,6.506,2.102,10.0
55.269,6.504,1.786,7.0
55.426,6.517,1.473,11.0
55.537,6.526,1.152,13.0
55.636,6.533,0.836,13.0
55.699,6.537,0.517,11.0
55.496,6.506,2.045,9.0
55.605,6.513,1.73,13.0
55.704,6.52,1.414,12.0
55.802,6.527,1.09,13.0
55.903,6.534,0.772,13.0
55.991,6.54,0.453,10.0
55.744,6.503,1.988,12.0
55.851,6.51,1.671,14.0
56.006,6.522,1.354,12.0
56.104,6.529,1.03,13.0
56.19,6.534,0.71,13.0
56.286,6.541,0.388,9.0
56.085,6.508,1.933,12.0
56.203,6.516,1.616,11.0
56.309,6.523,1.295,12.0
56.443,6.533,0.969,13.0
56.511,6.535,0.647,11.0
56.61,6.542,0.324,3.0
56.403,6.507,1.877,8.0
56.554,6.519,1.558,10.0
56.635,6.522,1.237,11.0
56.798,6.535,0.909,10.0
56.873,6.538,0.585,7.0
51.375,5.901,0.234,17.0
56.794,6.512,1.824,7.0
56.905,6.518,1.502,10.0
57.035,6.527,1.179,9.0
57.157,6.535,0.849,7.0
57.252,6.54,0.522,6.0
51.368,5.862,0.174,12.0
57.202,6.516,1.771,9.0
57.324,6.523,1.447,10.0
57.428,6.528,1.121,10.0
57.549,6.535,0.788,11.0
57.703,6.547,0.459,5.0
46.501,5.271,0.105,14.0
57.588,6.514,1.717,8.0
57.753,6.526,1.391,8.0
57.846,6.529,1.063,6.0
57.957,6.535,0.727,9.0
58.07,6.541,0.397,4.0
46.408,5.222,0.052,7.0
58.064,6.519,1.666,10.0
58.159,6.523,1.336,10.0
58.295,6.531,1.006,11.0
58.396,6.535,0.667,6.0
58.544,6.545,0.335,1.0
44.245,4.941,0.0,18.0
58.516,6.519,1.614,9.0
58.622,6.523,1.281,8.0
58.755,6.53,0.948,9.0
58.844,6.532,0.608,11.0
58.879,6.529,0.272,1.0
0.0,0.0,0.0,0.0
58.99,6.517,1.561,11.0
59.107,6.521,1.226,8.0
59.204,6.524,0.89,6.0
59.284,6.525,0.547,3.0
47.101,5.178,0.166,3.0
42.254,4.64,-0.092,12.0
59.517,6.518,1.51,5.0
59.651,6.524,1.173,5.0
59.737,6.525,0.834,4.0
59.76,6.52,0.487,1.0
46.566,5.074,0.114,18.0
38.963,4.241,-0.126,15.0
60.07,6.519,1.46,6.0
60.167,6.52,1.119,3.0
60.348,6.531,0.777,4.0
60.338,6.521,0.428,1.0
45.966,4.961,0.064,20.0
38.491,4.15,-0.166,18.0
60.71,6.524,1.411,5.0
60.843,6.529,1.067,6.0
60.977,6.535,0.722,7.0
61.175,6.547,0.369,2.0
44.799,4.788,0.015,13.0
38.5,4.109,-0.205,17.0
61.285,6.52,1.361,11.0
61.486,6.531,1.015,10.0
61.674,6.542,0.666,9.0
47.887,5.072,0.239,1.0
42.136,4.457,-0.028,22.0
38.114,4.025,-0.243,14.0
61.991,6.525,1.313,11.0
62.192,6.536,0.963,12.0
62.34,6.541,0.61,9.0
46.805,4.904,0.186,6.0
42.247,4.42,-0.071,5.0
36.791,3.843,-0.272,12.0
62.698,6.526,1.264,10.0
62.864,6.533,0.909,12.0
63.02,6.538,0.553,8.0
47.408,4.91,0.141,21.0
40.245,4.162,-0.108,15.0
0.0,0.0,0.0,0.0
63.424,6.525,1.216,11.0
63.599,6.532,0.858,8.0
63.724,6.534,0.497,5.0
46.801,4.791,0.094,22.0
39.879,4.075,-0.146,15.0
33.15,3.383,-0.31,2.0
64.174,6.523,1.169,11.0
64.326,6.527,0.806,7.0
64.415,6.524,0.44,2.0
45.945,4.645,0.049,20.0
39.931,4.031,-0.184,24.0
31.49,3.173,-0.324,2.0
65.015,6.525,1.123,7.0
65.137,6.525,0.755,6.0
49.914,4.991,0.295,3.0
45.509,4.542,0.006,21.0
39.33,3.919,-0.217,15.0
31.388,3.122,-0.352,9.0
65.881,6.525,1.077,8.0
66.074,6.531,0.705,7.0
49.851,4.918,0.249,23.0
44.938,4.425,-0.034,19.0
38.484,3.783,-0.248,13.0
30.604,3.003,-0.37,9.0
66.825,6.528,1.032,8.0
66.954,6.527,0.655,7.0
49.845,4.85,0.205,2.0
44.828,4.353,-0.074,17.0
36.796,3.566,-0.269,6.0
29.687,2.872,-0.385,8.0
67.727,6.522,0.987,9.0
67.953,6.53,0.605,7.0
47.668,4.571,0.154,21.0
44.139,4.225,-0.11,19.0
35.489,3.39,-0.29,8.0
28.959,2.76,-0.401,8.0
68.788,6.527,0.944,8.0
69.028,6.535,0.557,3.0
46.686,4.41,0.112,21.0
41.056,3.87,-0.137,13.0
34.294,3.226,-0.309,10.0
27.9,2.619,-0.409,7.0
69.936,6.533,0.903,8.0
70.153,6.539,0.508,2.0
46.783,4.35,0.074,20.0
40.699,3.776,-0.169,16.0
0.0,0.0,0.0,0.0
27.174,2.511,-0.42,19.0
71.001,6.527,0.86,11.0
71.251,6.535,0.46,1.0
46.545,4.259,0.037,20.0
40.134,3.664,-0.198,15.0
32.235,2.936,-0.341,9.0
26.65,2.422,-0.432,6.0
72.231,6.53,0.82,10.0
53.151,4.794,0.303,2.0
46.385,4.173,0.002,20.0
39.75,3.567,-0.226,15.0
31.476,2.818,-0.356,9.0
26.086,2.33,-0.443,6.0
73.494,6.53,0.779,10.0
53.289,4.723,0.265,5.0
40.106,3.545,-0.027,78.0
39.461,3.48,-0.253,12.0
30.844,2.713,-0.372,9.0
25.58,2.244,-0.452,6.0
74.733,6.521,0.739,8.0
40.135,3.493,0.17,11.0
40.126,3.483,-0.055,106.0
36.404,3.151,-0.259,3.0
29.954,2.586,-0.382,8.0
25.238,2.173,-0.464,6.0
40.106,3.434,0.369,107.0
40.111,3.425,0.143,144.0
40.12,3.416,-0.083,105.0
35.872,3.046,-0.279,4.0
29.449,2.494,-0.395,8.0
24.877,2.102,-0.474,6.0
40.11,3.368,0.342,112.0
40.104,3.358,0.117,150.0
40.082,3.346,-0.108,69.0
34.668,2.886,-0.292,2.0
28.869,2.397,-0.406,7.0
24.581,2.035,-0.484,5.0
40.105,3.3,0.317,133.0
40.111,3.291,0.092,127.0
40.015,3.273,-0.133,80.0
0.0,0.0,0.0,0.0
28.477,2.316,-0.417,7.0
24.228,1.965,-0.491,5.0
41.915,3.377,0.307,119.0
40.117,3.222,0.068,93.0
40.064,3.209,-0.156,45.0
0.0,0.0,0.0,0.0
27.816,2.214,-0.424,7.0
24.033,1.908,-0.501,5.0
41.911,3.305,0.283,136.0
41.116,3.232,0.047,54.0
0.0,0.0,0.0,0.0
33.047,2.581,-0.336,10.0
27.597,2.148,-0.435,7.0
23.931,1.857,-0.512,5.0
43.704,3.369,0.272,150.0
41.912,3.22,0.026,144.0
41.78,3.199,-0.207,24.0
32.636,2.491,-0.348,10.0
27.169,2.066,-0.442,7.0
23.776,1.803,-0.52,3.0
43.704,3.291,0.251,150.0
40.33,3.027,0.005,21.0
40.161,3.003,-0.219,26.0
31.817,2.371,-0.354,9.0
26.772,1.988,-0.448,6.0
23.704,1.755,-0.53,1.0
40.383,2.968,0.213,96.0
40.326,2.953,-0.012,49.0
0.0,0.0,0.0,0.0
31.6,2.298,-0.366,9.0
26.303,1.906,-0.452,6.0
19.963,1.441,-0.455,1.0
41.412,2.968,0.201,70.0
40.366,2.882,-0.029,34.0
0.0,0.0,0.0,0.0
31.18,2.21,-0.374,9.0
26.194,1.849,-0.46,6.0
19.872,1.398,-0.46,3.0
42.671,2.98,0.19,38.0
40.336,2.805,-0.045,35.0
0.0,0.0,0.0,0.0
30.776,2.124,-0.381,9.0
26.076,1.793,-0.468,6.0
19.784,1.355,-0.465,4.0
42.151,2.865,0.173,6.0
40.325,2.73,-0.059,42.0
36.373,2.452,-0.256,2.0
30.377,2.04,-0.386,8.0
25.927,1.734,-0.474,6.0
19.765,1.316,-0.471,5.0
45.127,2.982,0.17,16.0
40.315,2.653,-0.071,43.0
0.0,0.0,0.0,0.0
30.338,1.979,-0.395,9.0
25.878,1.681,-0.481,6.0
19.747,1.277,-0.477,7.0
45.187,2.9,0.158,135.0
40.322,2.576,-0.083,46.0
36.805,2.341,-0.28,7.0
30.092,1.905,-0.4,8.0
25.976,1.638,-0.49,6.0
19.749,1.239,-0.482,9.0
45.181,2.812,0.146,48.0
40.321,2.498,-0.093,46.0
36.251,2.236,-0.285,4.0
29.976,1.84,-0.405,8.0
26.046,1.592,-0.497,2.0
19.738,1.201,-0.486,11.0
45.18,2.725,0.136,47.0
40.328,2.421,-0.101,46.0
35.678,2.131,-0.288,2.0
29.9,1.777,-0.41,8.0
25.777,1.525,-0.496,1.0
19.746,1.163,-0.49,11.0
45.179,2.637,0.128,46.0
40.315,2.341,-0.108,44.0
35.525,2.053,-0.292,3.0
29.816,1.714,-0.413,8.0
25.699,1.47,-0.499,1.0
19.745,1.124,-0.493,11.0
45.188,2.549,0.122,48.0
40.323,2.263,-0.114,41.0
36.164,2.019,-0.302,5.0
30.001,1.666,-0.42,5.0
25.683,1.419,-0.502,1.0
21.896,1.203,-0.549,1.0
45.176,2.46,0.117,47.0
40.322,2.183,-0.117,45.0
35.856,1.931,-0.303,7.0
29.957,1.604,-0.422,6.0
25.66,1.367,-0.503,1.0
21.951,1.163,-0.552,0.0
45.187,2.371,0.114,45.0
40.323,2.103,-0.12,47.0
35.94,1.863,-0.306,5.0
29.77,1.535,-0.421,2.0
25.541,1.309,-0.502,1.0
22.008,1.121,-0.554,1.0
45.186,2.28,0.113,58.0
40.325,2.022,-0.121,49.0
36.358,1.812,-0.31,5.0
23.65,1.172,-0.334,3.0
23.658,1.165,-0.465,26.0
22.109,1.082,-0.556,1.0
23.632,1.145,0.059,40.0
23.627,1.137,-0.07,38.0
23.627,1.13,-0.201,39.0
23.614,1.122,-0.333,46.0
23.611,1.114,-0.463,52.0
0.0,0.0,0.0,0.0
23.61,1.095,0.06,70.0
23.601,1.087,-0.069,70.0
23.604,1.08,-0.199,70.0
23.601,1.073,-0.331,66.0
23.618,1.066,-0.462,95.0
0.0,0.0,0.0,0.0
23.615,1.047,0.062,47.0
23.628,1.041,-0.067,41.0
23.633,1.033,-0.197,42.0
23.635,1.026,-0.33,45.0
23.665,1.02,-0.46,37.0
22.826,0.977,-0.569,4.0
45.178,1.912,0.124,37.0
40.312,1.693,-0.11,63.0
37.397,1.558,-0.307,1.0
30.328,1.254,-0.419,1.0
26.651,1.094,-0.514,6.0
0.0,0.0,0.0,0.0
40.353,1.624,0.117,137.0
40.343,1.611,-0.103,154.0
39.971,1.584,-0.322,1.0
30.374,1.193,-0.414,1.0
26.822,1.045,-0.512,6.0
23.15,0.895,-0.569,4.0
41.627,1.59,0.129,6.0
40.37,1.529,-0.095,1.0
39.763,1.493,-0.312,1.0
31.539,1.174,-0.423,1.0
26.902,0.993,-0.508,5.0
22.832,0.836,-0.556,0.0
44.425,1.606,0.148,2.0
40.121,1.437,-0.085,150.0
39.941,1.418,-0.303,3.0
31.469,1.107,-0.414,1.0
27.207,0.948,-0.507,3.0
22.58,0.78,-0.544,3.0
63.853,2.176,0.23,14.0
40.042,1.351,-0.073,112.0
39.879,1.332,-0.291,10.0
40.176,1.33,-0.517,2.0
27.361,0.897,-0.501,4.0
23.591,0.766,-0.561,0.0
40.131,1.284,0.157,150.0
40.129,1.271,-0.061,150.0
39.945,1.253,-0.278,12.0
40.165,1.246,-0.503,1.0
27.46,0.843,-0.494,13.0
23.551,0.716,-0.552,1.0
40.131,1.202,0.171,141.0
40.104,1.188,-0.047,66.0
40.002,1.172,-0.264,24.0
27.409,0.794,-0.333,0.0
27.995,0.802,-0.493,1.0
24.052,0.681,-0.554,0.0
43.695,1.219,0.203,66.0
40.139,1.106,-0.031,162.0
40.011,1.089,-0.248,40.0
33.616,0.904,-0.395,1.0
28.511,0.758,-0.49,1.0
24.777,0.65,-0.561,0.0
70.57,1.823,0.359,23.0
0.0,0.0,0.0,0.0
43.593,1.097,-0.251,4.0
33.558,0.834,-0.379,1.0
28.98,0.71,-0.485,2.0
24.9,0.602,-0.552,0.0
70.834,1.683,0.393,2.0
45.515,1.067,0.005,1.0
43.927,1.015,-0.232,6.0
34.892,0.795,-0.377,1.0
29.248,0.656,-0.475,3.0
25.649,0.567,-0.556,1.0
113.102,2.458,0.684,9.0
56.608,1.211,0.035,0.0
44.967,0.947,-0.215,0.0
34.392,0.712,-0.354,2.0
29.798,0.607,-0.468,1.0
28.75,0.577,-0.608,0.0
55.209,1.085,0.364,15.0
55.185,1.067,0.064,27.0
45.067,0.856,-0.19,0.0
35.579,0.664,-0.346,0.0
31.919,0.585,-0.484,0.0
28.931,0.521,-0.595,0.0
55.17,0.972,0.395,69.0
55.183,0.953,0.097,43.0
47.607,0.807,-0.173,0.0
35.532,0.59,-0.325,0.0
19.68,0.32,-0.286,1.0
19.707,0.314,-0.393,0.0
160.694,2.503,1.25,11.0
0.0,0.0,0.0,0.0
19.703,0.293,-0.059,1.0
19.668,0.287,-0.167,13.0
19.654,0.28,-0.273,16.0
19.671,0.273,-0.379,15.0
19.786,0.268,0.166,26.0
84.882,1.122,0.257,3.0
19.646,0.252,-0.046,6.0
19.634,0.246,-0.154,17.0
19.647,0.24,-0.26,18.0
19.65,0.233,-0.366,17.0
19.764,0.228,0.18,24.0
19.684,0.22,0.073,11.0
19.66,0.214,-0.032,11.0
19.622,0.207,-0.14,17.0
19.649,0.2,-0.246,16.0
19.66,0.194,-0.352,15.0
19.67,0.187,0.193,13.0
19.652,0.18,0.087,12.0
19.652,0.174,-0.018,18.0
19.635,0.167,-0.125,13.0
19.672,0.161,-0.231,3.0
32.528,0.256,-0.558,0.0
19.667,0.148,0.208,18.0
19.633,0.141,0.102,14.0
19.646,0.135,-0.003,13.0
19.665,0.129,-0.11,7.0
0.0,0.0,0.0,0.0
32.21,0.19,-0.527,0.0
19.645,0.109,0.223,12.0
19.67,0.103,0.118,12.0
19.739,0.097,0.012,15.0
19.744,0.09,-0.095,17.0
19.78,0.084,-0.201,31.0
19.765,0.077,-0.307,41.0
19.625,0.07,0.239,16.0
19.728,0.064,0.134,18.0
19.746,0.058,0.029,14.0
19.759,0.051,-0.078,21.0
19.752,0.045,-0.184,8.0
19.763,0.039,-0.29,14.0
19.642,0.032,0.256,16.0
19.787,0.025,0.152,2.0
19.773,0.019,0.046,3.0
19.753,0.013,-0.061,4.0
19.811,0.006,-0.167,0.0
0.0,0.0,0.0,0.0
19.637,-0.006,0.274,13.0
19.687,-0.012,0.169,8.0
19.704,-0.019,0.064,14.0
19.701,-0.025,-0.042,15.0
19.732,-0.031,-0.148,13.0
19.757,-0.038,-0.254,14.0
19.649,-0.044,0.292,10.0
19.684,-0.05,0.187,15.0
19.69,-0.056,0.082,14.0
19.695,-0.063,-0.024,17.0
19.72,-0.069,-0.129,17.0
19.739,-0.076,-0.234,16.0
19.673,-0.082,0.312,10.0
19.71,-0.088,0.207,15.0
19.724,-0.094,0.102,10.0
19.717,-0.101,-0.004,12.0
19.719,-0.107,-0.109,16.0
19.734,-0.113,-0.215,16.0
19.743,-0.119,0.332,0.0
165.497,-1.056,1.907,7.0
160.794,-1.079,0.997,12.0
19.772,-0.138,0.015,1.0
19.747,-0.144,-0.089,12.0
19.749,-0.15,-0.195,14.0
177.253,-1.406,3.169,17.0
169.417,-1.397,2.126,19.0
160.676,-1.374,1.161,15.0
0.0,0.0,0.0,0.0
0.0,0.0,0.0,0.0
19.784,-0.188,-0.174,0.0
19.753,-0.193,0.374,8.0
19.759,-0.199,0.269,3.0
19.735,-0.205,0.164,0.0
0.0,0.0,0.0,0.0
0.0,0.0,0.0,0.0
0.0,0.0,0.0,0.0
19.752,-0.229,0.395,9.0
19.748,-0.235,0.29,10.0
19.749,-0.242,0.185,25.0
19.733,-0.248,0.079,7.0
0.0,0.0,0.0,0.0
0.0,0.0,0.0,0.0
19.779,-0.266,0.418,0.0
19.768,-0.272,0.313,2.0
19.754,-0.278,0.208,16.0
19.733,-0.283,0.101,23.0
0.0,0.0,0.0,0.0
0.0,0.0,0.0,0.0
0.0,0.0,0.0,0.0
0.0,0.0,0.0,0.0
128.665,-2.044,1.51,51.0
19.653,-0.318,0.124,0.0
0.0,0.0,0.0,0.0
0.0,0.0,0.0,0.0
171.482,-2.924,4.033,5.0
170.263,-2.954,3.102,17.0
128.685,-2.27,1.664,18.0
128.607,-2.308,0.97,150.0
0.0,0.0,0.0,0.0
0.0,0.0,0.0,0.0
163.422,-3.071,4.041,6.0
170.241,-3.251,3.31,7.0
0.0,0.0,0.0,0.0
128.617,-2.533,1.129,29.0
0.0,0.0,0.0,0.0
0.0,0.0,0.0,0.0
163.38,-3.356,4.245,10.0
170.406,-3.551,3.528,5.0
0.0,0.0,0.0,0.0
128.652,-2.755,1.292,150.0
0.0,0.0,0.0,0.0
0.0,0.0,0.0,0.0
163.306,-3.63,4.45,18.0
0.0,0.0,0.0,0.0
170.332,-3.886,2.845,7.0
128.926,-2.977,1.46,6.0
0.0,0.0,0.0,0.0
0.0,0.0,0.0,0.0
163.315,-3.904,4.663,19.0
171.446,-4.146,3.99,4.0
170.505,-4.171,3.069,4.0
161.859,-4.005,2.044,14.0
160.65,-4.02,1.183,5.0
0.0,0.0,0.0,0.0
140.754,-3.594,4.203,11.0
0.0,0.0,0.0,0.0
168.241,-4.391,3.253,4.0
161.906,-4.271,2.263,20.0
161.897,-4.316,1.411,14.0
0.0,0.0,0.0,0.0
140.724,-3.823,4.395,5.0
163.358,-4.483,4.242,10.0
167.85,-4.65,3.474,15.0
164.033,-4.59,2.517,4.0
162.053,-4.58,1.635,16.0
160.691,-4.584,0.776,3.0
142.879,-4.107,4.658,11.0
163.215,-4.735,4.461,17.0
167.84,-4.913,3.705,13.0
163.731,-4.837,2.737,6.0
161.868,-4.823,1.854,15.0
160.62,-4.829,0.996,12.0
139.743,-4.232,4.748,19.0
140.22,-4.282,4.027,17.0
163.288,-5.03,3.832,13.0
162.239,-5.04,2.939,6.0
161.922,-5.071,2.082,28.0
160.655,-5.075,1.224,5.0
117.502,-3.738,4.159,16.0
140.323,-4.499,4.229,23.0
163.42,-5.28,4.066,21.0
162.238,-5.284,3.17,23.0
162.197,-5.325,2.319,22.0
161.96,-5.357,1.466,10.0
117.572,-3.915,4.331,17.0
138.293,-4.639,4.368,4.0
163.359,-5.522,4.303,18.0
162.317,-5.525,3.407,4.0
162.231,-5.564,2.555,13.0
162.01,-5.598,1.704,21.0
118.502,-4.118,4.538,10.0
138.305,-4.841,4.572,20.0
163.196,-5.753,4.539,8.0
0.0,0.0,0.0,0.0
162.193,-5.796,2.795,18.0
162.106,-5.833,1.945,24.0
118.078,-4.274,4.698,24.0
138.292,-5.039,4.778,15.0
140.188,-5.14,4.108,11.0
141.6,-5.225,3.393,3.0
162.238,-6.027,3.039,19.0
162.054,-6.059,2.189,5.0
117.271,-4.408,4.843,27.0
117.529,-4.445,4.237,9.0
124.736,-4.746,3.844,10.0
141.917,-5.432,3.616,20.0
162.253,-6.249,3.284,11.0
0.0,0.0,0.0,0.0
116.858,-4.551,5.003,23.0
117.346,-4.596,4.409,17.0
124.735,-4.915,4.034,5.0
141.709,-5.614,3.827,15.0
162.469,-6.474,3.539,6.0
0.0,0.0,0.0,0.0
116.745,-4.701,5.178,22.0
115.895,-4.692,4.533,20.0
124.676,-5.075,4.224,7.0
141.536,-5.792,4.042,13.0
163.235,-6.716,3.808,3.0
0.0,0.0,0.0,0.0
117.639,-4.888,5.4,13.0
115.88,-4.84,4.713,21.0
117.419,-4.929,4.161,17.0
118.812,-5.012,3.577,15.0
142.481,-6.041,3.545,15.0
0.0,0.0,0.0,0.0
114.155,-4.886,5.418,14.0
115.986,-4.988,4.899,22.0
117.509,-5.078,4.348,21.0
118.669,-5.152,3.759,20.0
142.394,-6.212,3.768,11.0
0.0,0.0,0.0,0.0
114.285,-5.03,5.605,10.0
114.445,-5.06,5.015,9.0
117.625,-5.224,4.539,17.0
116.643,-5.203,3.881,22.0
142.094,-6.366,3.985,12.0
0.0,0.0,0.0,0.0
118.442,-5.354,5.999,18.0
114.386,-5.192,5.196,14.0
117.333,-5.348,4.716,24.0
116.703,-5.341,4.069,21.0
141.037,-6.481,4.182,14.0
163.35,-7.538,3.991,5.0
109.355,-5.068,5.716,17.0
114.241,-5.316,5.375,26.0
116.71,-5.451,4.88,19.0
117.052,-5.489,4.271,23.0
117.981,-5.554,3.689,8.0
142.394,-6.729,3.712,9.0
112.36,-5.332,6.057,14.0
114.528,-5.455,5.574,21.0
116.116,-5.551,5.045,19.0
117.422,-5.633,4.477,19.0
117.898,-5.677,3.879,22.0
140.978,-6.812,3.903,10.0
112.31,-5.449,6.236,20.0
108.938,-5.303,5.479,22.0
116.341,-5.684,5.244,9.0
116.967,-5.733,4.651,13.0
117.416,-5.776,4.057,22.0
139.402,-6.881,4.091,9.0
108.525,-5.379,6.207,14.0
108.503,-5.395,5.639,22.0
108.45,-5.41,5.071,15.0
117.239,-5.866,4.857,9.0
110.063,-5.525,3.987,18.0
117.804,-5.933,3.653,15.0
108.383,-5.478,6.378,27.0
110.185,-5.586,5.909,10.0
108.491,-5.517,5.252,17.0
108.317,-5.524,4.667,26.0
109.494,-5.601,4.147,22.0
117.219,-6.015,3.828,21.0
108.71,-5.599,6.58,22.0
108.057,-5.58,5.975,20.0
108.409,-5.614,5.429,25.0
108.058,-5.612,4.836,24.0
109.282,-5.69,4.321,13.0
117.192,-6.12,4.022,10.0
108.643,-5.695,6.757,23.0
108.086,-5.68,6.158,20.0
107.992,-5.689,5.588,20.0
108.163,-5.713,5.021,25.0
108.82,-5.763,4.485,19.0
109.682,-5.823,3.949,22.0
108.332,-5.773,6.92,26.0
107.908,-5.764,6.329,21.0
108.033,-5.783,5.771,17.0
108.278,-5.81,5.209,28.0
108.146,-5.818,4.639,29.0
109.093,-5.883,4.112,28.0
108.039,-5.846,7.084,22.0
107.865,-5.85,6.508,17.0
108.029,-5.872,5.954,23.0
108.176,-5.893,5.387,25.0
107.946,-5.893,4.813,30.0
0.0,0.0,0.0,0.0
107.994,-5.93,7.263,7.0
108.183,-5.951,6.709,25.0
107.836,-5.944,6.125,20.0
107.817,-5.956,5.551,24.0
108.175,-5.988,5.005,27.0
107.68,-5.972,4.421,28.0
112.733,-6.275,7.775,10.0
108.03,-6.024,6.886,22.0
107.265,-5.992,6.275,23.0
107.498,-6.016,5.716,19.0
108.106,-6.061,5.183,26.0
107.621,-6.045,4.6,28.0
108.28,-6.103,7.649,16.0
108.014,-6.098,7.064,17.0
107.976,-6.106,6.498,20.0
107.661,-6.098,5.906,22.0
107.994,-6.127,5.36,35.0
107.513,-6.11,4.776,22.0
109.216,-6.228,7.901,20.0
108.472,-6.195,7.279,8.0
108.196,-6.189,6.693,25.0
107.387,-6.15,6.07,22.0
107.338,-6.157,5.509,20.0
107.421,-6.172,4.952,21.0
108.82,-6.274,8.057,25.0
108.278,-6.25,7.449,14.0
108.229,-6.256,6.88,11.0
107.363,-6.214,6.252,18.0
107.208,-6.214,5.684,27.0
107.531,-6.24,5.139,24.0
108.956,-6.345,8.251,15.0
107.965,-6.295,7.61,22.0
108.091,-6.309,7.052,18.0
107.994,-6.311,6.47,13.0
107.323,-6.279,5.869,24.0
107.884,-6.319,5.337,24.0
108.965,-6.404,8.435,16.0
0.0,0.0,0.0,0.0
108.159,-6.37,7.239,23.0
108.13,-6.375,6.661,22.0
107.368,-6.336,6.052,30.0
107.658,-6.36,5.507,27.0
108.767,-6.448,8.604,10.0
108.917,-6.461,8.044,15.0
107.73,-6.396,7.391,23.0
108.232,-6.431,6.847,20.0
107.569,-6.397,6.243,18.0
107.288,-6.387,5.666,26.0
107.331,-6.411,8.672,12.0
109.115,-6.521,8.242,20.0
107.571,-6.434,7.561,21.0
108.051,-6.467,7.018,22.0
108.022,-6.471,6.451,26.0
107.13,-6.421,5.837,22.0
107.273,-6.452,8.846,19.0
108.704,-6.542,8.392,16.0
107.539,-6.474,7.738,9.0
107.804,-6.494,7.181,23.0
108.113,-6.517,6.637,21.0
107.221,-6.467,6.021,19.0
108.59,-6.571,9.137,21.0
108.174,-6.549,8.533,21.0
109.258,-6.618,8.044,12.0
107.208,-6.496,7.321,21.0
108.211,-6.559,6.821,21.0
108.118,-6.557,6.25,25.0
107.327,-6.531,9.211,12.0
107.788,-6.561,8.682,17.0
108.945,-6.633,8.203,21.0
107.51,-6.547,7.518,20.0
107.897,-6.573,6.98,23.0
108.089,-6.587,6.426,31.0
107.386,-6.565,9.394,20.0
107.231,-6.557,8.815,7.0
109.056,-6.669,8.391,19.0
107.443,-6.572,7.69,14.0
107.638,-6.584,7.138,23.0
108.241,-6.622,6.611,17.0
107.274,-6.585,9.559,19.0
108.746,-6.675,9.117,18.0
107.899,-6.623,8.476,21.0
109.306,-6.708,8.001,17.0
107.191,-6.579,7.282,21.0
108.241,-6.644,6.786,21.0
109.281,-6.731,9.917,12.0
107.262,-6.605,9.167,13.0
107.766,-6.636,8.642,20.0
108.925,-6.705,8.15,18.0
107.508,-6.617,7.479,25.0
107.859,-6.638,6.936,21.0
109.255,-6.747,10.091,20.0
107.317,-6.625,9.343,21.0
107.224,-6.617,8.77,9.0
108.812,-6.713,8.315,22.0
107.508,-6.631,7.65,15.0
107.521,-6.631,7.086,24.0
109.46,-6.772,10.286,18.0
107.232,-6.632,9.509,19.0
108.648,-6.717,9.06,6.0
108.065,-6.678,8.431,20.0
109.14,-6.741,7.938,18.0
107.025,-6.608,7.223,23.0
109.411,-6.779,10.456,11.0
109.209,-6.762,9.857,6.0
107.195,-6.634,9.108,18.0
107.688,-6.661,8.57,25.0
109.1,-6.745,8.107,18.0
107.301,-6.629,7.408,23.0
107.728,-6.678,10.465,10.0
109.177,-6.764,10.026,19.0
107.262,-6.64,9.282,21.0
107.302,-6.638,8.707,15.0
108.804,-6.727,8.254,21.0
107.531,-6.643,7.59,20.0
107.825,-6.684,10.643,25.0
109.428,-6.777,10.22,20.0
107.223,-6.636,9.446,22.0
108.706,-6.722,8.99,6.0
108.586,-6.709,8.405,20.0
109.015,-6.73,7.863,11.0
107.963,-6.689,10.822,21.0
109.405,-6.77,10.385,15.0
107.075,-6.62,9.596,13.0
108.625,-6.71,9.147,7.0
107.812,-6.653,8.508,23.0
109.364,-6.743,8.052,18.0
107.951,-6.678,10.986,6.0
111.81,-6.91,10.784,6.0
109.228,-6.742,9.953,17.0
107.249,-6.613,9.193,17.0
107.646,-6.631,8.656,18.0
108.796,-6.695,8.172,20.0
0.0,0.0,0.0,0.0
107.803,-6.648,10.557,20.0
109.32,-6.733,10.124,19.0
107.337,-6.603,9.358,20.0
108.719,-6.68,8.901,6.0
108.963,-6.688,8.343,19.0
0.0,0.0,0.0,0.0
107.946,-6.638,10.729,17.0
109.422,-6.72,10.292,19.0
107.247,-6.578,9.506,19.0
108.686,-6.658,9.056,22.0
108.081,-6.612,8.432,18.0
0.0,0.0,0.0,0.0
108.024,-6.621,10.894,22.0
109.545,-6.705,10.463,12.0
109.323,-6.68,9.848,17.0
108.991,-6.651,9.238,10.0
107.86,-6.574,8.568,20.0
0.0,0.0,0.0,0.0
108.041,-6.595,11.05,10.0
111.893,-6.82,10.846,10.0
109.299,-6.651,9.999,19.0
107.37,-6.523,9.251,16.0
107.3,-6.51,8.673,20.0
0.0,0.0,0.0,0.0
0.0,0.0,0.0,0.0
107.932,-6.547,10.612,2.0
109.308,-6.619,10.153,18.0
107.352,-6.489,9.398,14.0
107.246,-6.473,8.817,16.0
0.0,0.0,0.0,0.0
0.0,0.0,0.0,0.0
108.006,-6.515,10.768,5.0
109.401,-6.588,10.31,25.0
107.42,-6.457,9.55,17.0
108.828,-6.531,9.095,14.0
0.0,0.0,0.0,0.0
0.0,0.0,0.0,0.0
108.025,-6.477,10.916,1.0
109.594,-6.557,10.477,21.0
109.108,-6.516,9.847,16.0
0.0,0.0,0.0,0.0
0.0,0.0,0.0,0.0
0.0,0.0,0.0,0.0
0.0,0.0,0.0,0.0
0.0,0.0,0.0,0.0
109.053,-6.467,9.983,19.0
107.377,-6.356,9.255,15.0
0.0,0.0,0.0,0.0
0.0,0.0,0.0,0.0
0.0,0.0,0.0,0.0
0.0,0.0,0.0,0.0
108.86,-6.408,10.104,32.0
108.929,-6.399,9.527,7.0
0.0,0.0,0.0,0.0
0.0,0.0,0.0,0.0
0.0,0.0,0.0,0.0
0.0,0.0,0.0,0.0
108.988,-6.363,10.251,20.0
107.417,-6.257,9.527,16.0
0.0,0.0,0.0,0.0
0.0,0.0,0.0,0.0
0.0,0.0,0.0,0.0
0.0,0.0,0.0,0.0
109.1,-6.312,10.395,20.0
107.298,-6.193,9.647,21.0
0.0,0.0,0.0,0.0
0.0,0.0,0.0,0.0
0.0,0.0,0.0,0.0
0.0,0.0,0.0,0.0
109.144,-6.254,10.528,23.0
109.159,-6.239,9.943,20.0
0.0,0.0,0.0,0.0
0.0,0.0,0.0,0.0
0.0,0.0,0.0,0.0
0.0,0.0,0.0,0.0
109.176,-6.192,10.658,20.0
109.198,-6.176,10.072,26.0
0.0,0.0,0.0,0.0
0.0,0.0,0.0,0.0
0.0,0.0,0.0,0.0
0.0,0.0,0.0,0.0
109.221,-6.126,10.785,14.0
109.412,-6.121,10.213,26.0
0.0,0.0,0.0,0.0
0.0,0.0,0.0,0.0
0.0,0.0,0.0,0.0
0.0,0.0,0.0,0.0
109.55,-6.074,10.936,11.0
109.467,-6.052,10.336,19.0
0.0,0.0,0.0,0.0
0.0,0.0,0.0,0.0
0.0,0.0,0.0,0.0
0.0,0.0,0.0,0.0
109.564,-6.001,11.053,7.0
109.454,-5.976,10.449,20.0
0.0,0.0,0.0,0.0
0.0,0.0,0.0,0.0
0.0,0.0,0.0,0.0
0.0,0.0,0.0,0.0
0.0,0.0,0.0,0.0
109.52,-5.901,10.567,23.0
0.0,0.0,0.0,0.0
0.0,0.0,0.0,0.0
0.0,0.0,0.0,0.0
0.0,0.0,0.0,0.0
0.0,0.0,0.0,0.0
109.489,-5.818,10.67,9.0
0.0,0.0,0.0,0.0
0.0,0.0,0.0,0.0
0.0,0.0,0.0,0.0
0.0,0.0,0.0,0.0
0.0,0.0,0.0,0.0
0.0,0.0,0.0,0.0
0.0,0.0,0.0,0.0
0.0,0.0,0.0,0.0
0.0,0.0,0.0,0.0
0.0,0.0,0.0,0.0
0.0,0.0,0.0,0.0
0.0,0.0,0.0,0.0
0.0,0.0,0.0,0.0
0.0,0.0,0.0,0.0
0.0,0.0,0.0,0.0
0.0,0.0,0.0,0.0
0.0,0.0,0.0,0.0
0.0,0.0,0.0,0.0
0.0,0.0,0.0,0.0
0.0,0.0,0.0,0.0
0.0,0.0,0.0,0.0
0.0,0.0,0.0,0.0
0.0,0.0,0.0,0.0
0.0,0.0,0.0,0.0
0.0,0.0,0.0,0.0
0.0,0.0,0.0,0.0
0.0,0.0,0.0,0.0
0.0,0.0,0.0,0.0
0.0,0.0,0.0,0.0
0.0,0.0,0.0,0.0
0.0,0.0,0.0,0.0
0.0,0.0,0.0,0.0
0.0,0.0,0.0,0.0
0.0,0.0,0.0,0.0
0.0,0.0,0.0,0.0
0.0,0.0,0.0,0.0
0.0,0.0,0.0,0.0
0.0,0.0,0.0,0.0
0.0,0.0,0.0,0.0
0.0,0.0,0.0,0.0
0.0,0.0,0.0,0.0
0.0,0.0,0.0,0.0
0.0,0.0,0.0,0.0
0.0,0.0,0.0,0.0
0.0,0.0,0.0,0.0
0.0,0.0,0.0,0.0
0.0,0.0,0.0,0.0
0.0,0.0,0.0,0.0
0.0,0.0,0.0,0.0
