X,Y,Z,Reflectivity
0.0,0.0,0.0,0.0
0.0,0.0,0.0,0.0
0.0,0.0,0.0,0.0
0.0,0.0,0.0,0.0
0.0,0.0,0.0,0.0
55.205,0.039,6.948,4.0
0.0,0.0,0.0,0.0
0.0,0.0,0.0,0.0
0.0,0.0,0.0,0.0
0.0,0.0,0.0,0.0
0.0,0.0,0.0,0.0
55.204,0.096,6.898,17.0
0.0,0.0,0.0,0.0
0.0,0.0,0.0,0.0
0.0,0.0,0.0,0.0
0.0,0.0,0.0,0.0
0.0,0.0,0.0,0.0
55.22,0.152,6.849,27.0
0.0,0.0,0.0,0.0
0.0,0.0,0.0,0.0
0.0,0.0,0.0,0.0
0.0,0.0,0.0,0.0
0.0,0.0,0.0,0.0
55.216,0.208,6.795,28.0
0.0,0.0,0.0,0.0
0.0,0.0,0.0,0.0
0.0,0.0,0.0,0.0
0.0,0.0,0.0,0.0
0.0,0.0,0.0,0.0
55.225,0.262,6.74,17.0
0.0,0.0,0.0,0.0
0.0,0.0,0.0,0.0
0.0,0.0,0.0,0.0
0.0,0.0,0.0,0.0
0.0,0.0,0.0,0.0
55.225,0.314,6.683,4.0
0.0,0.0,0.0,0.0
0.0,0.0,0.0,0.0
0.0,0.0,0.0,0.0
0.0,0.0,0.0,0.0
0.0,0.0,0.0,0.0
0.0,0.0,0.0,0.0
0.0,0.0,0.0,0.0
0.0,0.0,0.0,0.0
0.0,0.0,0.0,0.0
0.0,0.0,0.0,0.0
0.0,0.0,0.0,0.0
0.0,0.0,0.0,0.0
0.0,0.0,0.0,0.0
0.0,0.0,0.0,0.0
0.0,0.0,0.0,0.0
0.0,0.0,0.0,0.0
55.224,0.459,6.819,5.0
0.0,0.0,0.0,0.0
0.0,0.0,0.0,0.0
0.0,0.0,0.0,0.0
0.0,0.0,0.0,0.0
0.0,0.0,0.0,0.0
55.231,0.508,6.753,21.0
0.0,0.0,0.0,0.0
0.0,0.0,0.0,0.0
0.0,0.0,0.0,0.0
0.0,0.0,0.0,0.0
0.0,0.0,0.0,0.0
55.227,0.556,6.683,37.0
0.0,0.0,0.0,0.0
0.0,0.0,0.0,0.0
0.0,0.0,0.0,0.0
0.0,0.0,0.0,0.0
0.0,0.0,0.0,0.0
55.245,0.602,6.614,26.0
0.0,0.0,0.0,0.0
0.0,0.0,0.0,0.0
0.0,0.0,0.0,0.0
0.0,0.0,0.0,0.0
0.0,0.0,0.0,0.0
0.0,0.0,0.0,0.0
0.0,0.0,0.0,0.0
0.0,0.0,0.0,0.0
129.519,2.657,9.769,24.0
129.462,2.657,9.008,11.0
129.245,2.653,8.24,14.0
0.0,0.0,0.0,0.0
0.0,0.0,0.0,0.0
129.402,2.686,10.295,5.0
127.359,2.644,9.374,20.0
129.397,2.686,8.77,17.0
129.512,2.69,8.024,22.0
0.0,0.0,0.0,0.0
0.0,0.0,0.0,0.0
129.406,2.714,10.061,11.0
127.19,2.667,9.132,24.0
136.3,2.858,8.992,8.0
129.518,2.715,7.79,11.0
0.0,0.0,0.0,0.0
0.0,0.0,0.0,0.0
129.609,2.742,9.839,9.0
127.103,2.687,8.894,20.0
129.29,2.733,8.294,13.0
129.625,2.739,7.559,12.0
0.0,0.0,0.0,0.0
0.0,0.0,0.0,0.0
127.183,2.709,9.419,19.0
127.279,2.709,8.669,14.0
129.521,2.755,8.065,24.0
129.609,2.755,7.316,13.0
0.0,0.0,0.0,0.0
0.0,0.0,0.0,0.0
127.223,2.722,9.182,25.0
136.444,2.918,9.038,10.0
129.5,2.767,7.822,12.0
121.855,2.601,6.65,17.0
0.0,0.0,0.0,0.0
129.64,2.786,9.873,4.0
127.067,2.728,8.935,24.0
129.171,2.77,8.316,9.0
129.582,2.775,7.586,9.0
129.356,2.768,6.819,11.0
0.0,0.0,0.0,0.0
127.174,2.737,9.445,19.0
127.293,2.737,8.709,23.0
129.478,2.78,8.088,22.0
129.635,2.78,7.341,19.0
129.402,2.771,6.572,13.0
0.0,0.0,0.0,0.0
127.227,2.739,9.203,25.0
136.481,2.933,9.074,11.0
129.48,2.778,7.838,14.0
121.793,2.609,6.661,18.0
114.442,2.448,5.594,8.0
129.765,2.793,9.897,2.0
127.114,2.732,8.95,24.0
134.318,2.881,8.67,9.0
129.582,2.774,7.595,13.0
129.3,2.763,6.825,10.0
121.664,2.595,5.712,13.0
127.205,2.729,9.455,22.0
127.296,2.724,8.715,16.0
129.442,2.764,8.104,21.0
129.611,2.763,7.344,12.0
129.335,2.751,6.573,12.0
121.713,2.583,5.477,12.0
127.207,2.714,9.203,24.0
136.414,2.903,9.07,10.0
129.503,2.75,7.853,14.0
121.883,2.582,6.666,23.0
114.411,2.418,5.589,9.0
121.475,2.561,5.225,21.0
127.088,2.692,8.944,20.0
129.193,2.729,8.335,10.0
129.576,2.73,7.601,10.0
129.256,2.716,6.814,10.0
121.743,2.552,5.707,17.0
121.284,2.535,4.98,21.0
129.383,2.716,8.847,9.0
129.511,2.71,8.097,21.0
121.842,2.543,6.907,9.0
121.508,2.528,6.165,8.0
121.473,2.52,5.455,21.0
121.259,2.508,4.741,15.0
129.259,2.684,8.582,10.0
129.479,2.679,7.84,10.0
121.856,2.514,6.667,22.0
121.675,2.502,5.935,17.0
121.382,2.487,5.212,25.0
135.217,2.763,5.02,9.0
129.173,2.647,8.322,14.0
129.421,2.643,7.582,10.0
133.779,2.723,7.055,7.0
121.571,2.465,5.69,24.0
121.281,2.45,4.968,19.0
135.162,2.721,4.75,17.0
129.355,2.611,8.079,14.0
121.849,2.45,6.896,10.0
121.656,2.436,6.174,19.0
121.315,2.421,5.436,25.0
121.203,2.409,4.725,18.0
135.221,2.677,4.483,20.0
133.59,2.651,8.076,6.0
121.872,2.408,6.655,20.0
121.696,2.394,5.934,23.0
121.337,2.377,5.195,24.0
135.182,2.637,5.002,17.0
135.517,2.633,4.224,12.0
122.044,2.374,7.132,8.0
121.782,2.359,6.407,15.0
121.541,2.343,5.683,23.0
121.35,2.328,4.953,15.0
135.235,2.583,4.732,16.0
55.212,1.05,1.611,5.0
121.927,2.32,6.881,22.0
121.773,2.305,6.161,20.0
55.209,1.04,2.471,5.0
55.192,1.034,2.143,19.0
55.208,1.029,1.821,32.0
55.19,1.024,1.499,43.0
55.217,1.024,3.005,20.0
55.218,1.019,2.683,36.0
55.19,1.013,2.36,47.0
55.184,1.007,2.032,47.0
55.176,1.002,1.71,55.0
55.176,0.997,1.388,65.0
55.2,0.996,2.894,61.0
55.188,0.99,2.571,54.0
55.169,0.984,2.248,71.0
55.17,0.979,1.922,73.0
55.172,0.973,1.601,73.0
55.16,0.967,1.279,70.0
55.192,0.966,2.784,69.0
55.177,0.961,2.462,74.0
55.182,0.954,2.14,68.0
55.17,0.949,1.813,62.0
55.167,0.942,1.492,60.0
55.177,0.936,1.171,51.0
55.212,0.935,2.676,53.0
55.201,0.929,2.354,44.0
55.204,0.923,2.032,42.0
55.183,0.916,1.704,21.0
55.202,0.91,1.384,17.0
55.213,0.904,1.063,18.0
55.203,0.902,2.567,9.0
55.224,0.895,2.246,2.0
19.663,0.316,0.684,2.0
19.676,0.314,0.568,5.0
19.713,0.312,0.455,8.0
19.742,0.31,0.34,1.0
121.497,1.904,5.408,26.0
19.683,0.306,0.761,0.0
19.649,0.303,0.645,9.0
19.68,0.301,0.529,10.0
19.704,0.299,0.416,10.0
19.737,0.297,0.301,4.0
121.622,1.822,5.173,22.0
19.658,0.291,0.721,8.0
19.646,0.289,0.606,11.0
19.669,0.287,0.49,11.0
19.694,0.284,0.376,13.0
19.74,0.282,0.262,9.0
185.439,2.643,7.521,15.0
19.647,0.277,0.682,12.0
19.659,0.274,0.568,13.0
19.686,0.272,0.452,9.0
19.702,0.27,0.338,13.0
19.763,0.268,0.224,20.0
19.662,0.265,0.759,7.0
19.652,0.262,0.644,15.0
19.659,0.259,0.53,13.0
19.681,0.257,0.414,10.0
19.711,0.254,0.3,10.0
19.758,0.252,0.186,27.0
19.652,0.249,0.72,14.0
19.654,0.246,0.605,13.0
19.673,0.243,0.491,10.0
19.697,0.241,0.376,10.0
19.729,0.238,0.261,14.0
19.765,0.236,0.147,25.0
19.65,0.232,0.681,15.0
19.666,0.229,0.567,11.0
19.696,0.227,0.454,9.0
19.724,0.224,0.338,10.0
19.764,0.222,0.224,23.0
19.756,0.219,0.109,12.0
19.664,0.215,0.644,12.0
19.7,0.212,0.53,10.0
19.726,0.21,0.416,11.0
19.725,0.207,0.3,9.0
19.724,0.203,0.185,14.0
19.674,0.2,0.07,12.0
19.695,0.197,0.607,10.0
19.698,0.194,0.492,9.0
19.683,0.191,0.377,9.0
19.67,0.188,0.261,8.0
19.672,0.184,0.146,10.0
19.646,0.181,0.032,14.0
19.647,0.178,0.568,9.0
19.632,0.175,0.453,11.0
19.644,0.172,0.339,8.0
19.65,0.168,0.223,12.0
19.646,0.165,0.109,12.0
19.647,0.162,-0.005,20.0
19.607,0.158,0.529,12.0
19.617,0.155,0.415,10.0
19.624,0.152,0.301,10.0
19.643,0.148,0.185,14.0
19.64,0.145,0.071,13.0
19.648,0.142,-0.042,13.0
19.606,0.138,0.492,14.0
19.613,0.135,0.378,11.0
19.628,0.131,0.264,10.0
19.643,0.128,0.148,14.0
19.641,0.124,0.034,14.0
19.671,0.121,-0.079,8.0
19.619,0.117,0.455,21.0
19.612,0.114,0.341,13.0
19.645,0.11,0.228,13.0
19.651,0.107,0.112,13.0
19.657,0.103,-0.002,9.0
19.706,0.1,-0.116,0.0
19.622,0.096,0.419,27.0
19.611,0.093,0.305,17.0
19.655,0.089,0.192,11.0
19.682,0.085,0.076,14.0
19.751,0.082,-0.037,15.0
19.768,0.078,-0.152,22.0
19.616,0.074,0.383,21.0
19.616,0.071,0.269,15.0
19.685,0.067,0.156,11.0
19.749,0.063,0.04,41.0
19.763,0.06,-0.074,71.0
19.756,0.056,-0.188,29.0
19.617,0.052,0.348,13.0
19.616,0.048,0.234,15.0
19.745,0.044,0.121,14.0
19.75,0.04,0.005,19.0
19.751,0.037,-0.109,9.0
19.751,0.033,-0.223,12.0
19.622,0.029,0.313,15.0
19.686,0.025,0.199,15.0
19.76,0.021,0.086,7.0
19.762,0.017,-0.03,80.0
19.76,0.013,-0.144,0.0
19.779,0.009,-0.259,0.0
19.63,0.005,0.278,15.0
19.795,0.001,0.166,2.0
19.736,-0.002,0.051,7.0
19.747,-0.006,-0.064,3.0
19.767,-0.011,-0.179,0.0
0.0,0.0,0.0,0.0
19.636,-0.019,0.244,15.0
19.686,-0.023,0.13,10.0
19.706,-0.027,0.017,15.0
19.728,-0.031,-0.099,12.0
19.749,-0.036,-0.213,9.0
19.793,-0.04,-0.328,0.0
19.672,-0.044,0.211,14.0
19.712,-0.048,0.097,15.0
19.707,-0.052,-0.016,16.0
19.724,-0.057,-0.133,15.0
19.75,-0.061,-0.247,15.0
19.772,-0.066,-0.362,9.0
19.708,-0.07,0.177,17.0
19.705,-0.074,0.063,15.0
19.718,-0.079,-0.05,11.0
19.718,-0.083,-0.166,16.0
19.748,-0.087,-0.281,15.0
19.75,-0.092,-0.395,15.0
19.719,-0.096,0.144,14.0
19.714,-0.101,0.03,13.0
19.707,-0.105,-0.083,14.0
19.713,-0.109,-0.199,17.0
19.738,-0.114,-0.313,15.0
19.739,-0.119,-0.427,17.0
19.767,-0.123,0.112,6.0
19.729,-0.128,-0.002,9.0
19.723,-0.132,-0.116,15.0
19.716,-0.137,-0.232,17.0
19.738,-0.141,-0.346,17.0
19.743,-0.146,-0.46,18.0
0.0,0.0,0.0,0.0
19.785,-0.156,-0.034,3.0
19.751,-0.16,-0.148,12.0
19.733,-0.165,-0.264,13.0
19.747,-0.169,-0.378,13.0
19.742,-0.174,-0.492,11.0
0.0,0.0,0.0,0.0
19.725,-0.183,-0.065,0.0
19.78,-0.188,-0.179,4.0
19.768,-0.193,-0.295,1.0
19.777,-0.198,-0.41,1.0
25.521,-0.262,-0.676,0.0
0.0,0.0,0.0,0.0
0.0,0.0,0.0,0.0
0.0,0.0,0.0,0.0
31.694,-0.355,-0.523,0.0
28.103,-0.322,-0.626,0.0
24.743,-0.29,-0.694,0.0
0.0,0.0,0.0,0.0
47.6,-0.581,-0.306,0.0
0.0,0.0,0.0,0.0
0.0,0.0,0.0,0.0
27.232,-0.353,-0.649,0.0
23.701,-0.313,-0.701,0.0
0.0,0.0,0.0,0.0
0.0,0.0,0.0,0.0
34.889,-0.487,-0.478,0.0
30.124,-0.428,-0.589,1.0
26.079,-0.377,-0.66,0.0
22.919,-0.337,-0.712,1.0
0.0,0.0,0.0,0.0
42.413,-0.645,-0.399,0.0
32.807,-0.508,-0.498,0.0
29.287,-0.461,-0.616,0.0
25.383,-0.406,-0.68,0.0
22.159,-0.36,-0.721,1.0
0.0,0.0,0.0,0.0
0.0,0.0,0.0,0.0
31.753,-0.541,-0.528,0.0
27.986,-0.484,-0.629,0.0
24.537,-0.431,-0.693,0.0
21.664,-0.386,-0.736,3.0
0.0,0.0,0.0,0.0
37.801,-0.692,-0.464,1.0
31.315,-0.582,-0.565,0.0
21.724,-0.409,-0.519,0.0
21.706,-0.415,-0.643,18.0
21.384,-0.415,-0.757,2.0
42.866,-0.842,-0.34,0.0
34.961,-0.696,-0.478,0.0
30.333,-0.612,-0.589,0.0
21.696,-0.443,-0.548,156.0
21.715,-0.45,-0.674,10.0
20.797,-0.437,-0.765,1.0
0.0,0.0,0.0,0.0
0.0,0.0,0.0,0.0
21.764,-0.474,-0.452,1.0
21.692,-0.478,-0.577,156.0
21.698,-0.485,-0.703,6.0
20.082,-0.454,-0.766,0.0
0.0,0.0,0.0,0.0
32.185,-0.745,-0.527,0.0
28.565,-0.669,-0.632,0.0
21.715,-0.514,-0.607,8.0
21.662,-0.519,-0.73,4.0
19.688,-0.478,-0.777,0.0
36.432,-0.893,-0.435,0.0
31.562,-0.783,-0.558,0.0
27.09,-0.679,-0.634,0.0
23.904,-0.606,-0.699,0.0
17.809,-0.457,-0.623,3.0
17.804,-0.462,-0.725,5.0
0.0,0.0,0.0,0.0
0.0,0.0,0.0,0.0
26.541,-0.709,-0.654,1.0
17.833,-0.482,-0.544,0.0
17.77,-0.485,-0.644,155.0
17.78,-0.491,-0.746,11.0
0.0,0.0,0.0,0.0
29.968,-0.843,-0.604,0.0
25.739,-0.731,-0.666,0.0
17.802,-0.511,-0.564,13.0
17.761,-0.515,-0.665,161.0
17.786,-0.521,-0.768,7.0
33.63,-0.993,-0.525,0.0
28.687,-0.855,-0.612,0.0
25.321,-0.763,-0.685,0.0
17.784,-0.541,-0.585,14.0
17.785,-0.546,-0.687,154.0
17.772,-0.551,-0.788,2.0
32.109,-1.004,-0.539,0.0
27.887,-0.88,-0.628,0.0
24.511,-0.78,-0.692,0.0
17.768,-0.571,-0.605,0.0
17.861,-0.579,-0.71,0.0
17.736,-0.581,-0.807,1.0
0.0,0.0,0.0,0.0
26.956,-0.897,-0.637,0.0
23.687,-0.795,-0.695,0.0
21.166,-0.716,-0.744,0.0
19.327,-0.66,-0.79,1.0
17.561,-0.605,-0.818,0.0
30.124,-1.045,-0.572,0.0
26.961,-0.944,-0.666,0.0
22.986,-0.811,-0.699,0.0
20.708,-0.737,-0.75,0.0
18.951,-0.68,-0.795,0.0
17.187,-0.622,-0.819,0.0
29.871,-1.088,-0.598,0.0
25.902,-0.951,-0.666,0.0
22.797,-0.844,-0.717,0.0
20.399,-0.762,-0.76,0.0
18.498,-0.697,-0.795,0.0
16.875,-0.641,-0.821,0.0
29.466,-1.125,-0.62,0.0
25.266,-0.972,-0.676,0.0
22.532,-0.874,-0.731,0.0
20.177,-0.789,-0.772,0.0
18.135,-0.715,-0.797,0.0
16.661,-0.662,-0.827,0.0
28.448,-1.136,-0.626,0.0
24.71,-0.995,-0.684,0.0
21.912,-0.889,-0.732,0.0
19.797,-0.809,-0.776,0.0
17.942,-0.739,-0.806,0.0
16.408,-0.681,-0.83,0.0
27.729,-1.156,-0.636,0.0
24.288,-1.02,-0.695,0.0
21.567,-0.913,-0.74,0.0
19.453,-0.83,-0.78,0.0
17.614,-0.757,-0.807,0.0
16.122,-0.698,-0.831,0.0
0.0,0.0,0.0,0.0
23.577,-1.033,-0.696,0.0
21.02,-0.927,-0.74,0.0
19.182,-0.852,-0.786,0.0
17.524,-0.784,-0.818,0.0
15.942,-0.719,-0.835,0.0
26.996,-1.222,-0.666,0.0
23.336,-1.064,-0.709,0.0
20.77,-0.954,-0.749,0.0
18.844,-0.871,-0.788,0.0
17.245,-0.803,-0.82,0.0
15.703,-0.736,-0.836,0.0
25.672,-1.209,-0.655,0.0
23.059,-1.093,-0.719,0.0
20.614,-0.984,-0.76,0.0
18.68,-0.898,-0.797,0.0
16.964,-0.821,-0.82,0.0
15.526,-0.756,-0.839,0.0
25.331,-1.239,-0.666,0.0
22.689,-1.117,-0.725,0.0
20.382,-1.01,-0.767,0.0
18.377,-0.916,-0.798,0.0
16.807,-0.844,-0.825,0.0
15.381,-0.777,-0.842,0.0
24.896,-1.262,-0.673,0.0
22.386,-1.142,-0.732,0.0
20.151,-1.035,-0.773,0.0
18.106,-0.936,-0.799,0.0
16.606,-0.863,-0.827,0.0
15.196,-0.795,-0.843,0.0
25.193,-1.322,-0.698,0.0
22.322,-1.179,-0.745,0.0
19.91,-1.058,-0.777,0.0
18.0,-0.962,-0.806,0.0
16.437,-0.884,-0.83,0.0
15.063,-0.816,-0.846,0.0
24.723,-1.342,-0.701,0.0
21.803,-1.191,-0.742,0.0
19.691,-1.082,-0.781,0.0
17.782,-0.983,-0.808,0.0
16.326,-0.908,-0.834,0.0
14.925,-0.835,-0.847,0.0
24.165,-1.355,-0.7,0.0
21.636,-1.22,-0.749,0.0
19.499,-1.106,-0.785,0.0
17.728,-1.012,-0.816,0.0
16.13,-0.926,-0.834,0.0
14.85,-0.858,-0.852,0.0
23.749,-1.375,-0.702,0.0
21.163,-1.232,-0.745,0.0
19.361,-1.133,-0.791,0.0
17.501,-1.03,-0.815,0.0
15.951,-0.944,-0.833,0.0
14.756,-0.879,-0.854,0.0
23.426,-1.398,-0.705,0.0
21.0,-1.26,-0.75,0.0
19.256,-1.162,-0.796,0.0
17.386,-1.055,-0.819,0.0
15.862,-0.968,-0.837,0.0
14.631,-0.898,-0.855,0.0
22.953,-1.411,-0.702,0.0
20.708,-1.28,-0.75,0.0
18.985,-1.18,-0.794,0.0
17.249,-1.078,-0.821,0.0
15.656,-0.983,-0.833,0.0
14.58,-0.921,-0.858,0.0
22.787,-1.442,-0.707,0.0
20.62,-1.311,-0.756,0.0
18.815,-1.203,-0.795,0.0
17.155,-1.103,-0.824,0.0
15.634,-1.01,-0.839,0.0
14.518,-0.943,-0.861,0.0
22.74,-1.479,-0.715,0.0
20.452,-1.337,-0.758,0.0
18.684,-1.228,-0.797,0.0
17.01,-1.124,-0.823,0.0
15.567,-1.034,-0.841,0.0
14.413,-0.962,-0.86,0.0
22.554,-1.507,-0.717,0.0
20.488,-1.376,-0.766,0.0
18.581,-1.254,-0.8,0.0
16.912,-1.147,-0.825,0.0
15.411,-1.051,-0.838,0.0
14.331,-0.982,-0.86,0.0
22.441,-1.539,-0.721,0.0
20.314,-1.4,-0.767,0.0
18.534,-1.284,-0.803,0.0
16.855,-1.173,-0.827,0.0
15.431,-1.079,-0.844,0.0
14.333,-1.007,-0.864,0.0
22.396,-1.575,-0.726,0.0
20.267,-1.432,-0.77,0.0
18.547,-1.317,-0.809,0.0
16.665,-1.189,-0.822,0.0
15.346,-1.1,-0.843,0.0
14.252,-1.026,-0.863,0.0
22.398,-1.615,-0.732,0.0
20.175,-1.461,-0.772,0.0
18.343,-1.335,-0.804,0.0
16.748,-1.224,-0.83,0.0
15.328,-1.126,-0.846,0.0
14.212,-1.049,-0.864,0.0
22.143,-1.635,-0.728,0.0
20.15,-1.495,-0.775,0.0
18.32,-1.365,-0.807,0.0
16.674,-1.248,-0.829,0.0
15.259,-1.147,-0.844,0.0
14.202,-1.073,-0.866,0.0
22.214,-1.679,-0.734,0.0
20.069,-1.523,-0.775,0.0
18.314,-1.396,-0.809,0.0
16.685,-1.278,-0.832,0.0
15.335,-1.179,-0.851,0.0
14.171,-1.095,-0.866,0.0
22.075,-1.706,-0.732,0.0
20.037,-1.555,-0.776,0.0
18.246,-1.422,-0.808,0.0
16.661,-1.305,-0.833,0.0
15.264,-1.2,-0.849,0.0
14.166,-1.119,-0.867,0.0
22.067,-1.744,-0.733,0.0
20.126,-1.597,-0.781,0.0
18.165,-1.447,-0.806,0.0
16.733,-1.339,-0.838,0.0
15.266,-1.226,-0.85,0.0
14.152,-1.142,-0.867,0.0
22.331,-1.802,-0.743,0.0
20.019,-1.622,-0.778,0.0
18.022,-1.466,-0.8,0.0
16.685,-1.363,-0.836,0.0
15.227,-1.249,-0.848,0.0
14.139,-1.165,-0.866,0.0
22.016,-1.814,-0.733,0.0
20.131,-1.665,-0.782,0.0
18.227,-1.513,-0.809,0.0
16.641,-1.387,-0.833,0.0
15.339,-1.284,-0.854,0.0
14.187,-1.192,-0.869,0.0
22.171,-1.863,-0.737,0.0
20.058,-1.692,-0.778,0.0
18.442,-1.562,-0.818,0.0
16.758,-1.425,-0.838,0.0
15.364,-1.311,-0.854,0.0
14.202,-1.217,-0.868,0.0
22.111,-1.894,-0.734,0.0
20.107,-1.729,-0.779,0.0
18.291,-1.578,-0.81,0.0
16.762,-1.452,-0.837,0.0
15.253,-1.326,-0.846,0.0
14.229,-1.242,-0.869,0.0
22.277,-1.944,-0.737,0.0
20.196,-1.769,-0.78,0.0
18.137,-1.595,-0.801,0.0
16.717,-1.475,-0.833,0.0
15.266,-1.352,-0.845,0.0
14.261,-1.268,-0.869,0.0
22.444,-1.995,-0.739,0.0
19.995,-1.784,-0.769,0.0
18.517,-1.658,-0.815,0.0
16.868,-1.515,-0.837,0.0
15.256,-1.376,-0.842,0.0
14.322,-1.296,-0.87,0.0
22.556,-2.041,-0.738,0.0
20.208,-1.834,-0.773,0.0
18.689,-1.702,-0.819,0.0
16.941,-1.549,-0.837,0.0
15.473,-1.419,-0.851,0.0
14.332,-1.319,-0.867,0.0
22.929,-2.11,-0.746,0.0
20.326,-1.876,-0.773,0.0
18.434,-1.707,-0.803,0.0
16.996,-1.58,-0.836,0.0
15.504,-1.446,-0.848,0.0
14.338,-1.342,-0.864,0.0
22.781,-2.131,-0.735,0.0
20.684,-1.941,-0.781,0.0
18.645,-1.755,-0.807,0.0
17.022,-1.608,-0.832,0.0
15.579,-1.476,-0.848,0.0
14.439,-1.373,-0.866,0.0
22.921,-2.179,-0.732,0.0
20.632,-1.967,-0.773,0.0
18.612,-1.78,-0.8,0.0
17.132,-1.644,-0.832,0.0
15.66,-1.507,-0.847,0.0
14.516,-1.402,-0.866,0.0
22.891,-2.209,-0.724,0.0
20.802,-2.014,-0.772,0.0
18.95,-1.84,-0.808,0.0
17.2,-1.676,-0.83,0.0
15.755,-1.54,-0.847,0.0
14.549,-1.426,-0.862,0.0
23.333,-2.286,-0.729,0.0
20.594,-2.024,-0.757,0.0
18.887,-1.861,-0.798,0.0
17.238,-1.704,-0.825,0.0
15.826,-1.569,-0.844,0.0
14.646,-1.457,-0.862,0.0
23.536,-2.34,-0.726,0.0
20.996,-2.093,-0.763,0.0
18.979,-1.898,-0.794,0.0
17.344,-1.739,-0.823,0.0
16.166,-1.626,-0.856,0.0
14.742,-1.487,-0.861,0.0
23.741,-2.393,-0.722,0.0
21.214,-2.145,-0.761,0.0
19.404,-1.967,-0.803,0.0
17.423,-1.772,-0.818,0.0
16.22,-1.654,-0.851,0.0
14.872,-1.521,-0.862,0.0
23.86,-2.439,-0.714,0.0
21.512,-2.205,-0.761,0.0
19.552,-2.009,-0.799,0.0
17.677,-1.821,-0.821,0.0
16.356,-1.69,-0.85,0.0
15.01,-1.555,-0.862,0.0
24.368,-2.523,-0.717,0.0
21.779,-2.261,-0.76,0.0
19.744,-2.055,-0.797,0.0
17.503,-1.827,-0.804,0.0
16.421,-1.719,-0.844,0.0
15.171,-1.592,-0.863,0.0
24.469,-2.566,-0.707,0.0
21.988,-2.312,-0.755,0.0
19.939,-2.102,-0.794,0.0
17.612,-1.861,-0.799,0.0
16.526,-1.751,-0.84,0.0
15.287,-1.624,-0.861,0.0
24.862,-2.639,-0.704,0.0
22.106,-2.352,-0.746,0.0
19.996,-2.133,-0.784,0.0
17.61,-1.883,-0.789,0.0
16.646,-1.785,-0.837,0.0
15.406,-1.656,-0.859,0.0
25.324,-2.72,-0.702,0.0
22.459,-2.418,-0.745,0.0
20.215,-2.182,-0.78,0.0
18.566,-2.008,-0.82,0.0
16.897,-1.832,-0.839,0.0
15.522,-1.687,-0.855,0.0
25.475,-2.767,-0.689,0.0
23.043,-2.509,-0.749,0.0
20.428,-2.229,-0.775,0.0
18.575,-2.032,-0.808,0.0
17.09,-1.874,-0.837,0.0
15.748,-1.731,-0.857,0.0
25.882,-2.842,-0.684,0.0
23.162,-2.549,-0.738,0.0
20.629,-2.275,-0.769,0.0
18.729,-2.07,-0.802,0.0
17.244,-1.91,-0.833,0.0
15.958,-1.772,-0.858,0.0
26.361,-2.925,-0.678,0.0
23.599,-2.624,-0.735,0.0
21.094,-2.35,-0.772,0.0
18.976,-2.119,-0.799,0.0
17.47,-1.955,-0.831,0.0
16.158,-1.812,-0.857,0.0
26.951,-3.02,-0.673,0.0
24.117,-2.708,-0.734,0.0
21.501,-2.419,-0.771,0.0
19.434,-2.191,-0.805,0.0
17.54,-1.982,-0.822,0.0
16.301,-1.846,-0.852,0.0
0.0,0.0,0.0,0.0
24.091,-2.731,-0.715,0.0
21.689,-2.464,-0.761,0.0
19.649,-2.236,-0.799,0.0
17.822,-2.032,-0.821,0.0
16.482,-1.883,-0.849,0.0
28.339,-3.236,-0.665,0.0
24.777,-2.834,-0.716,0.0
21.953,-2.516,-0.753,0.0
20.105,-2.309,-0.801,0.0
17.766,-2.044,-0.804,0.0
16.736,-1.929,-0.849,0.0
28.633,-3.298,-0.649,0.0
25.251,-2.914,-0.709,0.0
22.281,-2.576,-0.746,0.0
20.172,-2.336,-0.787,0.0
18.036,-2.093,-0.802,0.0
16.885,-1.963,-0.842,0.0
0.0,0.0,0.0,0.0
25.554,-2.973,-0.696,0.0
0.0,0.0,0.0,0.0
20.699,-2.417,-0.791,0.0
18.863,-2.206,-0.823,0.0
17.098,-2.003,-0.838,0.0
29.933,-3.505,-0.628,0.0
0.0,0.0,0.0,0.0
23.197,-2.725,-0.738,0.0
21.005,-2.471,-0.784,0.0
18.961,-2.235,-0.81,0.0
17.33,-2.046,-0.835,0.0
30.591,-3.608,-0.615,0.0
0.0,0.0,0.0,0.0
0.0,0.0,0.0,0.0
21.283,-2.522,-0.776,0.0
19.151,-2.273,-0.801,0.0
17.494,-2.08,-0.827,0.0
0.0,0.0,0.0,0.0
0.0,0.0,0.0,0.0
24.358,-2.902,-0.731,0.0
21.532,-2.57,-0.765,0.0
19.586,-2.341,-0.802,0.0
17.552,-2.101,-0.813,0.0
0.0,0.0,0.0,0.0
28.252,-3.384,-0.669,0.0
24.861,-2.982,-0.723,0.0
21.965,-2.638,-0.76,0.0
20.003,-2.406,-0.8,0.0
18.042,-2.174,-0.819,0.0
33.154,-3.991,-0.576,0.0
0.0,0.0,0.0,0.0
25.928,-3.129,-0.73,0.0
22.297,-2.695,-0.75,0.0
20.267,-2.453,-0.791,0.0
18.632,-2.258,-0.828,0.0
33.647,-4.075,-0.552,0.0
0.0,0.0,0.0,0.0
25.644,-3.114,-0.697,0.0
22.837,-2.776,-0.746,0.0
20.621,-2.51,-0.785,0.0
18.772,-2.288,-0.816,0.0
34.404,-4.19,-0.531,0.0
30.284,-3.693,-0.63,0.0
26.374,-3.22,-0.691,0.0
0.0,0.0,0.0,0.0
21.139,-2.587,-0.783,0.0
18.944,-2.321,-0.804,0.0
0.0,0.0,0.0,0.0
0.0,0.0,0.0,0.0
26.901,-3.301,-0.677,0.0
0.0,0.0,0.0,0.0
21.162,-2.602,-0.763,0.0
19.468,-2.397,-0.807,0.0
0.0,0.0,0.0,0.0
32.124,-3.956,-0.603,0.0
27.577,-3.4,-0.666,0.0
24.46,-3.018,-0.725,0.0
22.022,-2.72,-0.771,0.0
19.789,-2.447,-0.8,0.0
39.014,-4.822,-0.483,0.0
32.413,-4.009,-0.575,0.0
28.239,-3.496,-0.653,0.0
24.712,-3.062,-0.707,0.0
22.465,-2.787,-0.763,0.0
20.123,-2.499,-0.792,0.0
39.146,-4.858,-0.444,0.0
33.731,-4.189,-0.564,0.0
29.066,-3.613,-0.641,0.0
25.407,-3.161,-0.7,0.0
22.785,-2.837,-0.75,0.0
20.632,-2.572,-0.79,0.0
41.779,-5.204,-0.429,0.0
33.904,-4.226,-0.53,0.0
30.248,-3.773,-0.635,0.0
0.0,0.0,0.0,0.0
23.4,-2.924,-0.745,0.0
21.009,-2.627,-0.782,0.0
41.916,-5.239,-0.386,0.0
0.0,0.0,0.0,0.0
30.589,-3.828,-0.61,0.0
0.0,0.0,0.0,0.0
24.215,-3.035,-0.745,0.0
21.635,-2.713,-0.782,0.0
46.693,-5.853,-0.38,0.0
37.368,-4.687,-0.504,0.0
32.322,-4.056,-0.609,0.0
27.678,-3.476,-0.673,0.0
24.621,-3.094,-0.731,0.0
21.91,-2.755,-0.768,0.0
46.702,-5.87,-0.329,2.0
0.0,0.0,0.0,0.0
32.344,-4.069,-0.574,0.0
28.376,-3.572,-0.659,0.0
24.816,-3.125,-0.71,0.0
22.424,-2.826,-0.761,0.0
47.418,-5.973,-0.281,2.0
0.0,0.0,0.0,0.0
33.946,-4.28,-0.565,0.0
29.534,-3.725,-0.653,0.0
26.063,-3.289,-0.716,0.0
22.818,-2.881,-0.749,0.0
0.0,0.0,0.0,0.0
0.0,0.0,0.0,0.0
35.257,-4.453,-0.548,0.0
30.146,-3.808,-0.633,0.0
26.267,-3.32,-0.692,0.0
23.493,-2.971,-0.745,0.0
0.0,0.0,0.0,0.0
44.682,-5.649,-0.405,0.0
36.745,-4.647,-0.53,0.0
30.818,-3.898,-0.612,0.0
27.258,-3.449,-0.688,0.0
24.29,-3.075,-0.743,0.0
0.0,0.0,0.0,0.0
45.29,-5.732,-0.36,1.0
36.861,-4.666,-0.49,0.0
31.988,-4.05,-0.6,0.0
0.0,0.0,0.0,0.0
24.93,-3.158,-0.735,0.0
0.0,0.0,0.0,0.0
47.04,-5.958,-0.32,2.0
0.0,0.0,0.0,0.0
33.914,-4.296,-0.597,0.0
28.7,-3.636,-0.659,0.0
25.61,-3.246,-0.725,0.0
0.0,0.0,0.0,0.0
48.069,-6.09,-0.272,1.0
0.0,0.0,0.0,0.0
34.09,-4.319,-0.561,0.0
29.676,-3.76,-0.647,0.0
26.189,-3.319,-0.711,0.0
74.968,-9.499,0.062,3.0
0.0,0.0,0.0,0.0
0.0,0.0,0.0,0.0
0.0,0.0,0.0,0.0
30.447,-3.857,-0.629,0.0
26.331,-3.336,-0.685,0.0
74.951,-9.494,0.148,8.0
0.0,0.0,0.0,0.0
45.177,-5.721,-0.394,1.0
36.79,-4.658,-0.521,0.0
31.364,-3.971,-0.613,0.0
27.633,-3.498,-0.688,0.0
74.918,-9.483,0.232,7.0
0.0,0.0,0.0,0.0
46.779,-5.919,-0.355,0.0
38.114,-4.821,-0.497,0.0
32.594,-4.122,-0.599,0.0
28.694,-3.629,-0.681,0.0
74.914,-9.473,0.317,5.0
0.0,0.0,0.0,0.0
47.153,-5.958,-0.304,1.0
0.0,0.0,0.0,0.0
32.733,-4.134,-0.564,0.0
0.0,0.0,0.0,0.0
78.11,-9.863,0.421,4.0
74.885,-9.452,0.003,1.0
48.743,-6.15,-0.258,0.0
0.0,0.0,0.0,0.0
35.486,-4.474,-0.571,0.0
30.2,-3.807,-0.648,0.0
83.384,-10.51,0.545,13.0
74.914,-9.438,0.089,10.0
0.0,0.0,0.0,0.0
0.0,0.0,0.0,0.0
35.668,-4.488,-0.533,0.0
30.527,-3.839,-0.62,0.0
83.349,-10.483,0.639,49.0
74.897,-9.414,0.174,14.0
0.0,0.0,0.0,0.0
45.37,-5.697,-0.385,0.0
0.0,0.0,0.0,0.0
32.213,-4.041,-0.617,0.0
83.373,-10.459,0.735,40.0
74.924,-9.393,0.259,6.0
0.0,0.0,0.0,0.0
46.58,-5.832,-0.341,1.0
0.0,0.0,0.0,0.0
32.363,-4.048,-0.584,0.0
83.365,-10.428,0.829,24.0
79.641,-9.954,0.365,1.0
0.0,0.0,0.0,0.0
48.207,-6.017,-0.3,1.0
0.0,0.0,0.0,0.0
33.832,-4.218,-0.573,0.0
83.371,-10.395,0.921,21.0
83.377,-10.386,0.475,11.0
0.0,0.0,0.0,0.0
0.0,0.0,0.0,0.0
0.0,0.0,0.0,0.0
0.0,0.0,0.0,0.0
83.371,-10.356,1.014,13.0
83.374,-10.347,0.567,22.0
74.317,-9.215,0.108,3.0
0.0,0.0,0.0,0.0
0.0,0.0,0.0,0.0
0.0,0.0,0.0,0.0
83.37,-10.314,1.107,24.0
74.426,-9.198,0.589,10.0
74.29,-9.173,0.189,20.0
0.0,0.0,0.0,0.0
46.436,-5.723,-0.382,1.0
0.0,0.0,0.0,0.0
83.381,-10.27,1.198,38.0
83.38,-10.259,0.752,14.0
74.327,-9.136,0.271,16.0
0.0,0.0,0.0,0.0
47.576,-5.836,-0.34,2.0
0.0,0.0,0.0,0.0
83.371,-10.219,1.288,31.0
83.361,-10.206,0.842,12.0
74.3,-9.087,0.352,8.0
0.0,0.0,0.0,0.0
47.882,-5.843,-0.291,0.0
0.0,0.0,0.0,0.0
83.37,-10.166,1.379,16.0
83.334,-10.149,0.931,11.0
83.363,-10.14,0.484,17.0
74.203,-9.015,0.026,2.0
0.0,0.0,0.0,0.0
0.0,0.0,0.0,0.0
83.374,-10.109,1.468,16.0
83.363,-10.095,1.02,27.0
83.35,-10.08,0.572,50.0
74.444,-8.992,0.104,3.0
0.0,0.0,0.0,0.0
40.942,-4.933,-0.381,0.0
83.395,-10.051,1.555,32.0
83.389,-10.036,1.108,59.0
83.373,-10.02,0.66,45.0
75.649,-9.08,0.186,8.0
0.0,0.0,0.0,0.0
0.0,0.0,0.0,0.0
83.381,-9.985,1.643,43.0
83.364,-9.968,1.195,17.0
83.357,-9.952,0.746,16.0
74.85,-8.923,0.26,7.0
0.0,0.0,0.0,0.0
46.522,-5.531,-0.337,0.0
83.35,-9.913,1.727,24.0
83.364,-9.898,1.279,32.0
83.36,-9.883,0.832,23.0
83.344,-9.866,0.376,16.0
0.0,0.0,0.0,0.0
47.619,-5.62,-0.297,0.0
83.319,-9.837,1.811,34.0
83.372,-9.827,1.365,57.0
83.347,-9.808,0.915,20.0
83.347,-9.792,0.459,25.0
77.699,-9.114,0.01,2.0
0.0,0.0,0.0,0.0
83.302,-9.76,1.893,46.0
83.366,-9.751,1.445,31.0
83.375,-9.735,0.996,150.0
83.378,-9.719,0.539,42.0
77.684,-9.04,0.085,8.0
0.0,0.0,0.0,0.0
83.311,-9.683,1.973,38.0
83.382,-9.674,1.526,34.0
83.384,-9.657,1.076,150.0
83.37,-9.637,0.619,43.0
77.702,-8.967,0.159,30.0
0.0,0.0,0.0,0.0
108.543,-7.208,4.348,19.0
108.852,-7.187,3.755,28.0
124.753,-8.192,3.609,10.0
116.993,-7.641,2.724,26.0
117.481,-7.63,2.082,16.0
125.239,-8.089,1.524,31.0
109.23,-7.046,4.365,23.0
109.525,-7.024,3.767,21.0
117.154,-7.469,3.377,25.0
117.222,-7.432,2.715,33.0
148.074,-9.334,2.606,12.0
148.051,-9.28,1.784,22.0
108.559,-6.792,4.324,35.0
109.776,-6.828,3.76,25.0
117.236,-7.247,3.362,23.0
117.588,-7.228,2.706,9.0
148.459,-9.072,2.59,20.0
149.742,-9.096,1.779,17.0
109.054,-6.612,4.324,25.0
109.817,-6.619,3.742,26.0
117.312,-7.028,3.343,46.0
149.156,-8.883,3.403,21.0
148.809,-8.809,2.567,28.0
149.835,-8.816,1.75,12.0
109.492,-6.429,4.318,11.0
117.507,-6.856,3.979,26.0
119.636,-6.937,3.382,8.0
149.705,-8.626,3.382,9.0
140.731,-8.06,2.395,29.0
140.657,-8.005,1.609,10.0
108.994,-6.187,4.271,19.0
117.592,-6.633,3.95,12.0
120.013,-6.727,3.362,11.0
140.649,-7.833,3.14,9.0
0.0,0.0,0.0,0.0
0.0,0.0,0.0,0.0
109.113,-5.983,4.244,21.0
116.946,-6.371,3.894,31.0
140.771,-7.617,3.901,16.0
140.668,-7.56,3.097,27.0
102.181,-5.455,1.678,1.0
0.0,0.0,0.0,0.0
109.512,-5.792,4.224,20.0
117.3,-6.161,3.867,22.0
140.239,-7.317,3.838,22.0
0.0,0.0,0.0,0.0
102.177,-5.258,1.643,1.0
101.527,-5.189,1.064,127.0
109.559,-5.582,4.185,11.0
117.664,-5.953,3.836,22.0
139.232,-6.995,3.758,26.0
0.0,0.0,0.0,0.0
0.0,0.0,0.0,0.0
101.539,-4.993,1.024,155.0
117.445,-5.755,4.438,19.0
117.986,-5.74,3.798,28.0
142.369,-6.872,3.783,18.0
0.0,0.0,0.0,0.0
0.0,0.0,0.0,0.0
101.528,-4.794,0.98,152.0
117.141,-5.51,4.375,25.0
140.727,-6.567,4.465,19.0
142.369,-6.593,3.717,11.0
0.0,0.0,0.0,0.0
0.0,0.0,0.0,0.0
0.0,0.0,0.0,0.0
117.457,-5.292,4.328,24.0
118.819,-5.312,3.711,20.0
142.475,-6.319,3.649,19.0
0.0,0.0,0.0,0.0
101.511,-4.431,1.449,27.0
0.0,0.0,0.0,0.0
117.44,-5.063,4.267,27.0
119.104,-5.091,3.657,20.0
163.269,-6.92,4.094,7.0
0.0,0.0,0.0,0.0
101.545,-4.233,1.394,46.0
101.479,-4.194,0.823,150.0
117.107,-4.817,4.188,21.0
118.602,-4.836,3.573,17.0
141.668,-5.728,3.471,19.0
162.214,-6.502,3.045,16.0
0.0,0.0,0.0,0.0
105.42,-4.151,0.792,1.0
116.889,-4.578,4.109,22.0
141.834,-5.506,4.186,12.0
141.655,-5.448,3.382,6.0
162.216,-6.183,2.943,24.0
162.013,-6.119,2.027,13.0
160.681,-6.014,1.105,7.0
138.409,-5.15,4.776,19.0
140.133,-5.164,4.045,14.0
141.738,-5.176,3.292,3.0
162.206,-5.866,2.836,16.0
162.014,-5.805,1.92,22.0
160.704,-5.702,0.998,15.0
138.359,-4.879,4.68,19.0
163.187,-5.698,4.599,16.0
163.202,-5.641,3.678,4.0
162.213,-5.549,2.723,19.0
161.919,-5.485,1.804,27.0
160.752,-5.39,0.885,9.0
138.476,-4.611,4.584,16.0
163.288,-5.381,4.482,19.0
162.277,-5.291,3.537,5.0
162.268,-5.237,2.605,13.0
161.932,-5.17,1.684,15.0
160.677,-5.074,0.763,3.0
139.787,-4.381,4.52,22.0
163.42,-5.066,4.361,13.0
168.123,-5.153,3.535,7.0
163.795,-4.965,2.501,13.0
162.045,-4.859,1.559,9.0
0.0,0.0,0.0,0.0
139.963,-4.115,4.414,8.0
163.366,-4.748,4.227,5.0
167.768,-4.819,3.392,12.0
161.945,-4.599,2.342,21.0
160.808,-4.512,1.415,4.0
0.0,0.0,0.0,0.0
140.802,-3.869,4.324,13.0
163.332,-4.431,4.089,4.0
170.404,-4.57,3.303,4.0
161.867,-4.285,2.203,24.0
160.789,-4.202,1.278,4.0
0.0,0.0,0.0,0.0
163.563,-4.181,4.88,3.0
0.0,0.0,0.0,0.0
170.328,-4.24,3.15,9.0
161.856,-3.974,2.058,15.0
0.0,0.0,0.0,0.0
0.0,0.0,0.0,0.0
163.386,-3.867,4.728,26.0
0.0,0.0,0.0,0.0
170.439,-3.921,2.997,8.0
136.223,-3.09,1.609,37.0
0.0,0.0,0.0,0.0
0.0,0.0,0.0,0.0
163.265,-3.557,4.571,23.0
0.0,0.0,0.0,0.0
170.346,-3.599,2.834,4.0
136.079,-2.832,1.478,28.0
0.0,0.0,0.0,0.0
0.0,0.0,0.0,0.0
163.348,-3.249,4.412,29.0
170.501,-3.336,3.636,5.0
0.0,0.0,0.0,0.0
136.106,-2.576,1.342,153.0
0.0,0.0,0.0,0.0
0.0,0.0,0.0,0.0
163.38,-2.944,4.247,12.0
170.324,-3.014,3.458,6.0
0.0,0.0,0.0,0.0
136.079,-2.322,1.202,152.0
19.658,-0.329,0.061,0.0
0.0,0.0,0.0,0.0
163.487,-2.642,4.078,6.0
173.421,-2.748,3.339,7.0
19.763,-0.306,0.267,0.0
19.741,-0.3,0.153,22.0
19.75,-0.294,0.041,0.0
0.0,0.0,0.0,0.0
0.0,0.0,0.0,0.0
19.768,-0.277,0.359,3.0
19.739,-0.27,0.245,13.0
19.752,-0.264,0.131,23.0
0.0,0.0,0.0,0.0
0.0,0.0,0.0,0.0
19.765,-0.246,0.449,8.0
19.743,-0.24,0.336,11.0
19.754,-0.234,0.224,9.0
0.0,0.0,0.0,0.0
0.0,0.0,0.0,0.0
48.893,-0.536,-0.286,0.0
19.75,-0.211,0.426,9.0
19.763,-0.205,0.313,2.0
163.976,-1.651,1.668,14.0
0.0,0.0,0.0,0.0
0.0,0.0,0.0,0.0
19.764,-0.181,-0.139,9.0
19.761,-0.175,0.403,1.0
169.306,-1.456,2.487,8.0
165.35,-1.371,1.485,6.0
19.759,-0.157,0.062,0.0
19.79,-0.152,-0.05,8.0
19.729,-0.146,-0.162,16.0
19.674,-0.14,0.377,0.0
19.736,-0.134,0.265,2.0
19.745,-0.128,0.153,8.0
19.72,-0.122,0.038,10.0
19.72,-0.117,-0.074,9.0
19.73,-0.111,-0.187,16.0
19.676,-0.105,0.352,9.0
19.688,-0.1,0.24,11.0
19.698,-0.094,0.127,14.0
19.702,-0.088,0.013,15.0
19.716,-0.082,-0.099,14.0
19.747,-0.077,-0.212,15.0
19.65,-0.071,0.326,10.0
19.661,-0.065,0.214,15.0
19.692,-0.06,0.102,16.0
19.693,-0.054,-0.012,16.0
19.726,-0.049,-0.125,14.0
19.759,-0.043,-0.238,6.0
19.636,-0.037,0.3,12.0
19.652,-0.032,0.188,10.0
19.687,-0.026,0.076,12.0
19.726,-0.021,-0.038,12.0
19.759,-0.015,-0.151,0.0
0.0,0.0,0.0,0.0
19.623,-0.004,0.274,14.0
19.763,0.001,0.162,2.0
19.786,0.006,0.049,3.0
19.748,0.012,-0.065,18.0
19.759,0.017,-0.178,9.0
19.758,0.022,-0.291,12.0
19.631,0.027,0.247,15.0
19.758,0.033,0.135,14.0
19.747,0.039,0.022,14.0
19.744,0.044,-0.092,142.0
19.76,0.049,-0.205,34.0
19.767,0.054,-0.318,39.0
19.636,0.06,0.22,16.0
19.688,0.065,0.107,17.0
19.76,0.071,-0.005,27.0
19.751,0.076,-0.12,8.0
19.779,0.081,-0.233,1.0
19.779,0.087,-0.347,0.0
19.67,0.092,0.192,14.0
19.655,0.097,0.079,12.0
19.661,0.102,-0.033,9.0
19.693,0.107,-0.148,1.0
35.854,0.205,-0.476,0.0
30.628,0.183,-0.582,0.0
19.659,0.123,0.163,16.0
19.646,0.128,0.05,15.0
19.657,0.133,-0.062,9.0
19.668,0.138,-0.176,9.0
19.722,0.143,-0.29,1.0
19.711,0.148,-0.403,2.0
19.659,0.153,0.134,13.0
19.648,0.158,0.021,17.0
19.632,0.163,-0.09,14.0
19.638,0.168,-0.205,14.0
19.654,0.173,-0.318,12.0
19.674,0.178,-0.432,20.0
19.684,0.183,0.105,12.0
19.652,0.188,-0.007,13.0
19.633,0.193,-0.12,16.0
19.631,0.197,-0.235,16.0
19.65,0.202,-0.348,14.0
19.662,0.208,-0.462,23.0
19.714,0.213,0.075,5.0
19.667,0.217,-0.037,7.0
19.631,0.222,-0.15,16.0
19.634,0.226,-0.265,18.0
19.648,0.231,-0.378,16.0
19.683,0.237,-0.492,18.0
19.68,0.242,0.044,0.0
19.673,0.246,-0.068,11.0
19.652,0.251,-0.181,15.0
19.661,0.256,-0.296,14.0
19.676,0.261,-0.41,14.0
19.684,0.266,-0.524,7.0
57.312,0.788,0.038,1.0
19.716,0.275,-0.1,3.0
19.683,0.28,-0.213,10.0
19.69,0.284,-0.328,5.0
19.697,0.289,-0.442,0.0
24.616,0.367,-0.694,1.0
55.131,0.835,-0.05,5.0
0.0,0.0,0.0,0.0
36.004,0.562,-0.447,2.0
0.0,0.0,0.0,0.0
26.81,0.431,-0.644,1.0
23.25,0.379,-0.693,1.0
52.474,0.867,-0.132,1.0
0.0,0.0,0.0,0.0
32.571,0.553,-0.457,1.0
29.757,0.512,-0.592,0.0
25.726,0.448,-0.66,1.0
22.678,0.4,-0.713,0.0
45.046,0.805,-0.188,0.0
35.685,0.645,-0.354,0.0
30.384,0.556,-0.477,0.0
28.098,0.521,-0.606,1.0
24.983,0.468,-0.683,1.0
21.771,0.413,-0.721,0.0
41.506,0.797,-0.242,1.0
33.865,0.657,-0.393,2.0
28.251,0.554,-0.49,0.0
27.262,0.541,-0.633,3.0
24.028,0.482,-0.697,0.0
21.092,0.427,-0.734,4.0
38.593,0.791,-0.29,2.0
25.094,0.519,-0.333,0.0
26.295,0.549,-0.501,0.0
26.155,0.552,-0.652,6.0
22.906,0.488,-0.703,1.0
20.569,0.443,-0.75,2.0
36.692,0.797,-0.338,2.0
29.842,0.655,-0.447,0.0
25.332,0.561,-0.526,1.0
24.408,0.545,-0.65,0.0
22.001,0.496,-0.713,4.0
19.468,0.443,-0.743,0.0
34.197,0.784,-0.374,2.0
29.21,0.676,-0.488,1.0
12.754,0.297,-0.286,0.0
22.949,0.54,-0.65,0.0
21.38,0.507,-0.729,4.0
19.094,0.457,-0.762,1.0
32.066,0.773,-0.406,1.0
26.654,0.648,-0.491,1.0
23.138,0.567,-0.56,0.0
22.016,0.544,-0.662,3.0
20.759,0.516,-0.744,3.0
18.396,0.461,-0.766,0.0
30.278,0.765,-0.436,1.0
25.621,0.652,-0.517,1.0
21.898,0.561,-0.568,0.0
21.054,0.544,-0.67,1.0
19.937,0.518,-0.75,1.0
18.027,0.472,-0.782,1.0
28.988,0.764,-0.468,2.0
24.829,0.659,-0.544,0.0
20.95,0.56,-0.58,0.0
20.191,0.543,-0.678,0.0
19.367,0.524,-0.762,3.0
17.665,0.481,-0.798,1.0
27.043,0.742,-0.484,1.0
23.402,0.646,-0.554,0.0
20.595,0.572,-0.607,3.0
19.271,0.539,-0.681,2.0
18.829,0.53,-0.775,1.0
17.178,0.486,-0.806,1.0
26.084,0.742,-0.514,4.0
21.974,0.629,-0.56,0.0
19.494,0.561,-0.609,0.0
18.857,0.546,-0.7,0.0
18.26,0.532,-0.784,3.0
16.73,0.49,-0.815,0.0
24.833,0.731,-0.533,1.0
21.308,0.631,-0.581,1.0
19.202,0.572,-0.634,3.0
18.294,0.548,-0.712,2.0
17.765,0.535,-0.795,0.0
16.231,0.491,-0.82,1.0
23.326,0.709,-0.543,0.0
20.437,0.625,-0.594,2.0
18.302,0.562,-0.638,1.0
17.946,0.554,-0.731,0.0
17.248,0.536,-0.803,0.0
15.635,0.488,-0.818,0.0
22.028,0.69,-0.553,1.0
19.567,0.616,-0.604,0.0
17.82,0.564,-0.653,0.0
17.329,0.551,-0.738,1.0
16.741,0.535,-0.81,0.0
15.078,0.484,-0.817,0.0
21.429,0.69,-0.577,3.0
19.184,0.621,-0.627,2.0
17.273,0.561,-0.665,1.0
17.022,0.556,-0.755,0.0
16.249,0.533,-0.815,0.0
14.661,0.483,-0.821,0.0
20.49,0.677,-0.588,2.0
18.315,0.608,-0.632,1.0
17.068,0.569,-0.688,0.0
16.818,0.563,-0.777,0.0
15.791,0.531,-0.821,0.0
14.293,0.483,-0.826,0.0
19.744,0.668,-0.603,2.0
40.19,1.366,-1.461,2.0
16.821,0.574,-0.709,0.0
16.493,0.565,-0.792,0.0
15.156,0.521,-0.816,0.0
14.002,0.484,-0.835,0.0
19.142,0.662,-0.62,2.0
17.248,0.599,-0.658,1.0
16.615,0.579,-0.73,0.0
16.141,0.565,-0.805,1.0
14.635,0.514,-0.815,0.0
18.326,0.647,-0.627,2.0
17.036,0.604,-0.682,0.0
16.367,0.582,-0.75,0.0
15.821,0.565,-0.818,0.0
14.361,0.515,-0.826,0.0
13.256,0.477,-0.84,0.0
17.843,0.642,-0.643,0.0
16.792,0.607,-0.702,0.0
16.232,0.588,-0.773,1.0
13.944,0.509,-0.827,0.0
12.853,0.471,-0.837,0.0
17.259,0.632,-0.654,0.0
16.585,0.61,-0.724,0.0
16.02,0.591,-0.792,1.0
14.724,0.545,-0.815,0.0
13.622,0.506,-0.833,0.0
12.655,0.471,-0.848,0.0
17.049,0.635,-0.677,0.0
16.381,0.612,-0.745,0.0
15.874,0.595,-0.815,0.0
14.345,0.539,-0.821,0.0
13.363,0.504,-0.842,0.0
12.385,0.468,-0.853,0.0
16.819,0.636,-0.699,0.0
16.251,0.616,-0.77,2.0
15.216,0.579,-0.809,0.0
13.948,0.532,-0.824,0.0
12.931,0.495,-0.839,0.0
12.143,0.466,-0.859,0.0
16.618,0.637,-0.721,0.0
16.039,0.617,-0.789,1.0
14.75,0.569,-0.811,0.0
13.68,0.529,-0.833,0.0
12.689,0.492,-0.847,0.0
11.959,0.465,-0.868,0.0
16.394,0.637,-0.742,0.0
15.89,0.619,-0.811,1.0
14.425,0.563,-0.82,0.0
13.376,0.523,-0.84,0.0
12.399,0.486,-0.85,0.0
11.635,0.458,-0.866,0.0
16.256,0.638,-0.765,1.0
15.175,0.597,-0.802,0.0
14.018,0.553,-0.823,0.0
12.959,0.512,-0.837,0.0
12.162,0.482,-0.856,0.0
11.422,0.454,-0.871,0.0
16.03,0.636,-0.784,1.0
14.761,0.587,-0.807,0.0
13.709,0.546,-0.83,0.0
12.744,0.509,-0.847,0.0
11.933,0.478,-0.862,0.0
11.141,0.447,-0.87,0.0
15.905,0.637,-0.807,1.0
14.482,0.581,-0.818,0.0
13.324,0.536,-0.83,0.0
12.396,0.499,-0.846,0.0
11.672,0.471,-0.864,0.0
10.907,0.441,-0.871,0.0
15.239,0.615,-0.8,0.0
13.95,0.564,-0.814,0.0
13.008,0.527,-0.834,0.0
12.155,0.493,-0.852,0.0
11.447,0.465,-0.869,0.0
10.751,0.438,-0.878,0.0
14.779,0.601,-0.803,0.0
13.74,0.559,-0.826,0.0
12.774,0.521,-0.842,0.0
11.964,0.489,-0.86,0.0
11.196,0.458,-0.87,0.0
10.568,0.433,-0.882,0.0
14.532,0.594,-0.815,0.0
13.268,0.543,-0.821,0.0
12.501,0.513,-0.847,0.0
11.771,0.483,-0.867,0.0
10.954,0.451,-0.871,0.0
10.306,0.425,-0.879,0.0
14.103,0.579,-0.816,0.0
13.085,0.538,-0.834,0.0
12.201,0.503,-0.848,0.0
11.453,0.472,-0.864,0.0
10.814,0.447,-0.879,0.0
10.11,0.418,-0.881,0.0
13.653,0.563,-0.815,0.0
12.817,0.529,-0.839,0.0
12.052,0.498,-0.859,0.0
11.167,0.462,-0.862,0.0
10.626,0.441,-0.882,0.0
9.979,0.414,-0.887,0.0
13.449,0.556,-0.826,0.0
12.578,0.521,-0.845,0.0
11.803,0.489,-0.862,0.0
11.015,0.457,-0.87,0.0
10.339,0.43,-0.877,0.0
9.885,0.411,-0.896,0.0
13.11,0.543,-0.828,0.0
12.31,0.511,-0.849,0.0
11.515,0.478,-0.861,0.0
10.832,0.45,-0.874,0.0
10.213,0.425,-0.884,0.0
9.707,0.404,-0.897,0.0
12.948,0.537,-0.84,0.0
12.084,0.502,-0.854,0.0
11.352,0.472,-0.869,0.0
10.72,0.446,-0.884,0.0
10.04,0.418,-0.886,0.0
9.615,0.401,-0.905,0.0
12.633,0.524,-0.841,0.0
11.893,0.494,-0.861,0.0
11.084,0.461,-0.867,0.0
10.468,0.435,-0.881,0.0
9.984,0.415,-0.898,0.0
9.429,0.393,-0.903,0.0
12.383,0.513,-0.846,0.0
11.643,0.483,-0.863,0.0
10.864,0.451,-0.868,0.0
10.241,0.425,-0.879,0.0
9.745,0.405,-0.893,0.0
9.289,0.386,-0.906,0.0
12.132,0.502,-0.849,0.0
11.406,0.472,-0.864,0.0
10.794,0.447,-0.881,0.0
10.097,0.418,-0.884,0.0
9.631,0.399,-0.899,0.0
9.141,0.379,-0.907,0.0
11.957,0.494,-0.856,0.0
11.207,0.463,-0.868,0.0
10.542,0.435,-0.878,0.0
9.998,0.413,-0.892,0.0
9.509,0.393,-0.903,0.0
9.008,0.372,-0.908,0.0
11.766,0.484,-0.862,0.0
10.962,0.451,-0.867,0.0
10.307,0.424,-0.875,0.0
9.859,0.406,-0.895,0.0
9.316,0.383,-0.9,0.0
8.889,0.366,-0.911,0.0
11.504,0.471,-0.862,0.0
10.776,0.441,-0.87,0.0
10.189,0.417,-0.881,0.0
9.67,0.396,-0.894,0.0
9.226,0.378,-0.907,0.0
8.775,0.359,-0.914,0.0
11.323,0.461,-0.866,0.0
10.654,0.434,-0.877,0.0
10.031,0.408,-0.884,0.0
9.588,0.39,-0.902,0.0
9.068,0.369,-0.906,0.0
8.635,0.351,-0.913,0.0
11.098,0.449,-0.866,0.0
10.422,0.421,-0.874,0.0
9.983,0.404,-0.895,0.0
9.414,0.38,-0.9,0.0
8.937,0.361,-0.907,0.0
8.551,0.346,-0.917,0.0
10.978,0.441,-0.874,0.0
10.301,0.413,-0.88,0.0
9.798,0.393,-0.894,0.0
9.291,0.373,-0.903,0.0
8.838,0.354,-0.91,0.0
8.464,0.339,-0.921,0.0
10.748,0.428,-0.872,0.0
10.171,0.405,-0.884,0.0
9.645,0.384,-0.895,0.0
9.164,0.364,-0.904,0.0
8.731,0.347,-0.912,0.0
8.335,0.331,-0.92,0.0
10.587,0.418,-0.875,0.0
10.033,0.396,-0.887,0.0
9.535,0.376,-0.899,0.0
9.065,0.357,-0.908,0.0
8.621,0.339,-0.914,0.0
8.207,0.323,-0.918,0.0
10.413,0.407,-0.876,0.0
9.965,0.389,-0.896,0.0
9.422,0.367,-0.902,0.0
8.904,0.347,-0.905,0.0
8.543,0.333,-0.918,0.0
8.124,0.316,-0.921,0.0
10.252,0.396,-0.877,0.0
9.785,0.377,-0.894,0.0
9.307,0.359,-0.904,0.0
8.826,0.34,-0.91,0.0
8.489,0.327,-0.925,0.0
8.048,0.309,-0.924,0.0
10.111,0.386,-0.879,0.0
9.674,0.368,-0.897,0.0
9.196,0.35,-0.907,0.0
8.665,0.329,-0.905,0.0
8.345,0.317,-0.921,0.0
7.976,0.303,-0.927,0.0
10.0,0.376,-0.884,0.0
9.547,0.359,-0.899,0.0
9.048,0.34,-0.904,0.0
8.605,0.323,-0.911,0.0
8.225,0.308,-0.919,0.0
7.893,0.295,-0.928,0.0
9.893,0.367,-0.888,0.0
9.456,0.35,-0.903,0.0
8.977,0.332,-0.91,0.0
8.543,0.316,-0.916,0.0
8.133,0.3,-0.92,0.0
7.813,0.288,-0.929,0.0
9.793,0.358,-0.892,0.0
9.353,0.341,-0.906,0.0
8.911,0.324,-0.915,0.0
8.468,0.308,-0.919,0.0
8.079,0.293,-0.924,0.0
7.744,0.281,-0.931,0.0
9.701,0.348,-0.896,0.0
9.233,0.331,-0.906,0.0
8.792,0.315,-0.914,0.0
8.365,0.299,-0.919,0.0
7.994,0.285,-0.925,0.0
7.68,0.274,-0.933,0.0
9.596,0.339,-0.898,0.0
9.159,0.323,-0.91,0.0
8.705,0.306,-0.916,0.0
8.298,0.291,-0.922,0.0
7.948,0.278,-0.929,0.0
7.602,0.266,-0.933,0.0
9.527,0.33,-0.904,0.0
9.016,0.312,-0.907,0.0
8.602,0.297,-0.915,0.0
8.181,0.282,-0.919,0.0
7.862,0.27,-0.929,0.0
7.556,0.259,-0.937,0.0
9.394,0.319,-0.902,0.0
8.948,0.303,-0.911,0.0
8.537,0.289,-0.919,0.0
8.124,0.274,-0.922,0.0
7.788,0.262,-0.929,0.0
7.467,0.251,-0.935,0.0
9.306,0.309,-0.905,0.0
8.869,0.294,-0.913,0.0
8.403,0.278,-0.914,0.0
8.055,0.266,-0.924,0.0
7.752,0.255,-0.934,0.0
7.393,0.243,-0.934,0.0
9.211,0.299,-0.906,0.0
8.79,0.285,-0.915,0.0
8.386,0.271,-0.922,0.0
8.006,0.258,-0.927,0.0
7.689,0.247,-0.935,0.0
7.355,0.236,-0.937,0.0
9.141,0.29,-0.909,0.0
8.734,0.276,-0.919,0.0
8.296,0.262,-0.921,0.0
7.902,0.248,-0.924,0.0
7.623,0.239,-0.935,0.0
7.323,0.229,-0.941,0.0
9.012,0.279,-0.906,0.0
8.611,0.265,-0.915,0.0
8.226,0.253,-0.922,0.0
7.851,0.24,-0.926,0.0
7.531,0.23,-0.932,0.0
7.261,0.221,-0.941,0.0
8.975,0.27,-0.911,0.0
8.559,0.257,-0.918,0.0
8.19,0.245,-0.926,0.0
7.807,0.233,-0.928,0.0
7.512,0.223,-0.937,0.0
7.252,0.215,-0.947,0.0
8.904,0.26,-0.912,0.0
8.471,0.247,-0.917,0.0
8.099,0.235,-0.923,0.0
7.743,0.224,-0.928,0.0
7.464,0.215,-0.938,0.0
7.194,0.207,-0.946,0.0
8.809,0.25,-0.911,0.0
8.418,0.238,-0.919,0.0
8.06,0.227,-0.926,0.0
7.729,0.217,-0.934,0.0
7.41,0.207,-0.938,0.0
7.144,0.199,-0.946,0.0
8.771,0.241,-0.915,0.0
8.379,0.229,-0.922,0.0
8.015,0.218,-0.928,0.0
7.696,0.209,-0.937,0.0
7.361,0.199,-0.939,0.0
7.111,0.191,-0.948,0.0
8.701,0.231,-0.915,0.0
8.285,0.219,-0.919,0.0
7.968,0.21,-0.93,0.0
7.626,0.2,-0.935,0.0
7.358,0.192,-0.944,0.0
7.091,0.184,-0.951,0.0
8.638,0.221,-0.916,0.0
8.243,0.21,-0.921,0.0
7.936,0.201,-0.932,0.0
7.592,0.192,-0.937,0.0
7.29,0.183,-0.942,0.0
7.061,0.177,-0.953,0.0
8.59,0.212,-0.917,0.0
8.213,0.202,-0.924,0.0
7.873,0.192,-0.931,0.0
7.533,0.183,-0.935,0.0
7.268,0.176,-0.944,0.0
7.01,0.168,-0.951,0.0
8.537,0.202,-0.918,0.0
8.179,0.193,-0.926,0.0
7.863,0.184,-0.936,0.0
7.51,0.175,-0.938,0.0
7.23,0.167,-0.944,0.0
6.931,0.16,-0.946,0.0
8.493,0.193,-0.919,0.0
8.144,0.184,-0.928,0.0
7.766,0.174,-0.929,0.0
7.496,0.167,-0.941,0.0
7.218,0.16,-0.948,0.0
6.92,0.152,-0.949,0.0
8.438,0.183,-0.918,0.0
8.056,0.174,-0.923,0.0
7.765,0.166,-0.934,0.0
7.453,0.159,-0.94,0.0
7.18,0.152,-0.947,0.0
6.888,0.145,-0.948,0.0
8.404,0.174,-0.92,0.0
8.048,0.165,-0.927,0.0
7.712,0.157,-0.932,0.0
7.404,0.15,-0.938,0.0
7.142,0.143,-0.946,0.0
6.889,0.137,-0.953,0.0
8.379,0.165,-0.922,0.0
8.043,0.157,-0.931,0.0
7.689,0.149,-0.934,0.0
7.39,0.142,-0.941,0.0
7.134,0.136,-0.949,0.0
6.852,0.129,-0.951,0.0
8.353,0.155,-0.923,0.0
7.982,0.147,-0.928,0.0
7.663,0.14,-0.935,0.0
7.362,0.133,-0.941,0.0
7.104,0.128,-0.949,0.0
6.85,0.122,-0.954,0.0
8.312,0.146,-0.923,0.0
7.986,0.139,-0.932,0.0
7.637,0.131,-0.935,0.0
7.334,0.125,-0.941,0.0
7.074,0.119,-0.948,0.0
6.812,0.114,-0.952,0.0
8.305,0.137,-0.925,0.0
7.962,0.13,-0.932,0.0
7.602,0.123,-0.934,0.0
7.312,0.117,-0.941,0.0
7.083,0.112,-0.952,0.0
6.84,0.107,-0.958,0.0
8.291,0.127,-0.927,0.0
7.923,0.12,-0.931,0.0
7.587,0.114,-0.935,0.0
7.312,0.109,-0.943,0.0
7.051,0.104,-0.95,0.0
6.814,0.099,-0.957,0.0
8.244,0.118,-0.924,0.0
7.916,0.112,-0.933,0.0
7.58,0.106,-0.936,0.0
7.29,0.1,-0.943,0.0
7.038,0.096,-0.95,0.0
6.788,0.091,-0.956,0.0
8.235,0.108,-0.926,0.0
7.892,0.103,-0.932,0.0
7.551,0.097,-0.935,0.0
7.297,0.092,-0.946,0.0
7.058,0.088,-0.955,0.0
6.761,0.083,-0.954,0.0
8.221,0.099,-0.926,0.0
7.886,0.094,-0.933,0.0
7.559,0.089,-0.937,0.0
7.265,0.084,-0.943,0.0
7.02,0.08,-0.951,0.0
6.757,0.076,-0.954,0.0
8.195,0.09,-0.925,0.0
7.887,0.085,-0.935,0.0
7.546,0.08,-0.937,0.0
7.257,0.076,-0.943,0.0
6.995,0.072,-0.949,0.0
6.753,0.068,-0.955,0.0
8.188,0.08,-0.925,0.0
7.861,0.076,-0.933,0.0
7.554,0.071,-0.939,0.0
7.265,0.067,-0.945,0.0
6.993,0.063,-0.95,0.0
6.755,0.06,-0.956,0.0
8.189,0.071,-0.926,0.0
7.783,0.066,-0.924,0.0
7.546,0.063,-0.939,0.0
7.256,0.059,-0.945,0.0
7.004,0.056,-0.952,0.0
6.741,0.052,-0.955,0.0
8.176,0.062,-0.925,0.0
7.845,0.058,-0.932,0.0
7.543,0.054,-0.939,0.0
7.24,0.051,-0.943,0.0
7.0,0.048,-0.951,0.0
6.747,0.045,-0.956,0.0
8.18,0.053,-0.926,0.0
7.768,0.048,-0.923,0.0
7.56,0.046,-0.941,0.0
7.267,0.043,-0.946,0.0
6.988,0.04,-0.95,0.0
6.75,0.037,-0.956,0.0
8.201,0.043,-0.928,0.0
7.889,0.04,-0.937,0.0
7.554,0.037,-0.94,0.0
7.258,0.034,-0.945,0.0
6.996,0.032,-0.95,0.0
6.736,0.029,-0.953,0.0
8.19,0.034,-0.926,0.0
7.89,0.031,-0.937,0.0
7.587,0.029,-0.943,0.0
7.265,0.026,-0.945,0.0
7.003,0.024,-0.951,0.0
6.756,0.022,-0.955,0.0
8.216,0.025,-0.928,0.0
7.882,0.022,-0.935,0.0
7.551,0.02,-0.938,0.0
7.258,0.018,-0.943,0.0
7.035,0.016,-0.954,0.0
6.763,0.014,-0.955,0.0
8.244,0.016,-0.93,0.0
7.88,0.013,-0.933,0.0
7.569,0.011,-0.939,0.0
7.268,0.009,-0.943,0.0
7.018,0.008,-0.95,0.0
6.77,0.006,-0.955,0.0
8.245,0.006,-0.928,0.0
7.902,0.004,-0.934,0.0
7.588,0.003,-0.939,0.0
7.27,0.001,-0.941,0.0
7.025,0.0,-0.949,0.0
6.774,-0.001,-0.954,0.0
8.256,-0.002,-0.927,0.0
7.93,-0.003,-0.935,0.0
7.594,-0.005,-0.938,0.0
7.299,-0.006,-0.943,0.0
7.06,-0.007,-0.952,0.0
6.799,-0.008,-0.955,0.0
8.292,-0.011,-0.929,0.0
7.945,-0.012,-0.934,0.0
7.605,-0.013,-0.937,0.0
7.32,-0.014,-0.943,0.0
7.065,-0.015,-0.95,0.0
6.834,-0.016,-0.957,0.0
8.317,-0.021,-0.929,0.0
7.95,-0.021,-0.932,0.0
7.633,-0.022,-0.937,0.0
7.335,-0.022,-0.942,0.0
7.092,-0.023,-0.951,0.0
6.816,-0.023,-0.952,0.0
8.333,-0.03,-0.927,0.0
7.981,-0.03,-0.932,0.0
7.681,-0.03,-0.94,0.0
7.359,-0.031,-0.942,0.0
7.127,-0.031,-0.953,0.0
6.872,-0.031,-0.957,0.0
8.365,-0.039,-0.927,0.0
8.014,-0.039,-0.932,0.0
7.709,-0.039,-0.94,0.0
7.378,-0.039,-0.941,0.0
7.14,-0.039,-0.951,0.0
6.859,-0.039,-0.952,0.0
8.387,-0.048,-0.925,0.0
8.046,-0.048,-0.932,0.0
7.731,-0.048,-0.939,0.0
7.439,-0.047,-0.945,0.0
7.162,-0.047,-0.95,0.0
6.914,-0.047,-0.956,0.0
8.436,-0.058,-0.926,0.0
8.087,-0.057,-0.932,0.0
7.774,-0.056,-0.939,0.0
7.446,-0.055,-0.942,0.0
7.185,-0.055,-0.949,0.0
6.95,-0.054,-0.957,0.0
8.484,-0.067,-0.926,0.0
8.114,-0.066,-0.931,0.0
7.82,-0.065,-0.94,0.0
7.457,-0.063,-0.939,0.0
7.189,-0.062,-0.945,0.0
6.973,-0.062,-0.956,0.0
8.516,-0.076,-0.925,0.0
8.147,-0.074,-0.93,0.0
7.85,-0.073,-0.939,0.0
7.508,-0.071,-0.94,0.0
7.247,-0.071,-0.948,0.0
7.01,-0.07,-0.956,0.0
8.583,-0.086,-0.926,0.0
8.193,-0.083,-0.929,0.0
7.888,-0.082,-0.938,0.0
7.557,-0.08,-0.941,0.0
7.265,-0.078,-0.945,0.0
7.027,-0.077,-0.953,0.0
8.621,-0.095,-0.924,0.0
8.26,-0.093,-0.931,0.0
7.927,-0.09,-0.937,0.0
7.623,-0.088,-0.944,0.0
7.341,-0.087,-0.949,0.0
7.093,-0.085,-0.957,0.0
8.663,-0.104,-0.922,0.0
8.301,-0.102,-0.929,0.0
7.965,-0.099,-0.935,0.0
7.633,-0.096,-0.939,0.0
7.368,-0.094,-0.947,0.0
7.109,-0.092,-0.953,0.0
8.724,-0.114,-0.922,0.0
8.349,-0.11,-0.928,0.0
7.998,-0.107,-0.933,0.0
7.69,-0.105,-0.94,0.0
7.397,-0.102,-0.945,0.0
7.149,-0.1,-0.953,0.0
8.793,-0.123,-0.922,0.0
8.413,-0.119,-0.928,0.0
8.078,-0.116,-0.935,0.0
7.739,-0.113,-0.939,0.0
7.455,-0.11,-0.945,0.0
7.221,-0.108,-0.956,0.0
8.853,-0.132,-0.92,0.0
8.482,-0.128,-0.928,0.0
8.126,-0.125,-0.933,0.0
7.764,-0.12,-0.935,0.0
7.499,-0.118,-0.944,0.0
7.187,-0.114,-0.944,0.0
8.944,-0.142,-0.921,0.0
8.56,-0.138,-0.928,0.0
8.189,-0.133,-0.933,0.0
7.846,-0.129,-0.937,0.0
7.569,-0.126,-0.946,0.0
7.269,-0.122,-0.948,0.0
8.994,-0.151,-0.918,0.0
8.626,-0.147,-0.927,0.0
8.244,-0.142,-0.931,0.0
7.919,-0.137,-0.938,0.0
7.645,-0.134,-0.948,0.0
7.357,-0.13,-0.952,0.0
9.093,-0.161,-0.919,0.0
8.67,-0.155,-0.923,0.0
8.324,-0.15,-0.931,0.0
7.989,-0.146,-0.938,0.0
7.684,-0.142,-0.944,0.0
7.365,-0.137,-0.945,0.0
9.182,-0.171,-0.918,0.0
8.77,-0.165,-0.924,0.0
8.4,-0.159,-0.931,0.0
8.041,-0.154,-0.936,0.0
7.742,-0.149,-0.943,0.0
7.415,-0.144,-0.944,0.0
9.328,-0.181,-0.923,0.0
8.858,-0.174,-0.924,0.0
8.447,-0.167,-0.927,0.0
8.102,-0.162,-0.934,0.0
7.801,-0.157,-0.942,0.0
7.495,-0.152,-0.946,0.0
9.412,-0.191,-0.92,0.0
8.948,-0.183,-0.923,0.0
8.554,-0.176,-0.929,0.0
8.183,-0.17,-0.934,0.0
7.889,-0.165,-0.943,0.0
7.576,-0.16,-0.947,0.0
9.505,-0.2,-0.918,0.0
9.055,-0.192,-0.924,0.0
8.651,-0.185,-0.929,0.0
8.273,-0.179,-0.934,0.0
7.941,-0.173,-0.94,0.0
7.638,-0.167,-0.945,0.0
9.607,-0.21,-0.917,0.0
9.149,-0.201,-0.922,0.0
8.719,-0.193,-0.926,0.0
8.343,-0.186,-0.932,0.0
8.016,-0.18,-0.939,0.0
7.718,-0.175,-0.946,0.0
9.699,-0.219,-0.914,0.0
9.249,-0.211,-0.921,0.0
8.84,-0.203,-0.928,0.0
8.44,-0.195,-0.932,0.0
8.101,-0.188,-0.938,0.0
7.782,-0.182,-0.944,0.0
9.81,-0.229,-0.912,0.0
9.384,-0.22,-0.922,0.0
8.92,-0.211,-0.925,0.0
8.542,-0.203,-0.932,0.0
8.164,-0.196,-0.935,0.0
7.866,-0.19,-0.943,0.0
9.936,-0.239,-0.91,0.0
9.478,-0.229,-0.919,0.0
9.019,-0.219,-0.923,0.0
8.632,-0.211,-0.931,0.0
8.268,-0.204,-0.936,0.0
7.934,-0.197,-0.941,0.0
10.055,-0.248,-0.908,0.0
9.618,-0.239,-0.92,0.0
9.135,-0.228,-0.923,0.0
8.738,-0.22,-0.93,0.0
8.358,-0.211,-0.935,0.0
8.024,-0.204,-0.94,0.0
10.22,-0.259,-0.909,0.0
9.716,-0.248,-0.916,0.0
9.247,-0.237,-0.921,0.0
8.852,-0.228,-0.93,0.0
8.454,-0.219,-0.933,0.0
8.099,-0.211,-0.938,0.0
10.362,-0.269,-0.907,0.0
9.832,-0.256,-0.913,0.0
9.374,-0.246,-0.92,0.0
8.932,-0.235,-0.926,0.0
8.559,-0.227,-0.933,0.0
8.173,-0.218,-0.935,0.0
10.539,-0.28,-0.907,0.0
9.961,-0.265,-0.911,0.0
9.514,-0.255,-0.92,0.0
9.075,-0.244,-0.927,0.0
8.655,-0.234,-0.931,0.0
8.292,-0.225,-0.936,0.0
10.667,-0.289,-0.903,0.0
10.139,-0.276,-0.912,0.0
9.633,-0.263,-0.918,0.0
9.188,-0.252,-0.925,0.0
8.79,-0.242,-0.932,0.0
8.393,-0.232,-0.935,0.0
10.817,-0.298,-0.9,0.0
10.299,-0.285,-0.911,0.0
9.76,-0.271,-0.915,0.0
9.355,-0.261,-0.928,0.0
8.907,-0.25,-0.931,0.0
8.513,-0.24,-0.935,0.0
10.998,-0.309,-0.898,0.0
10.446,-0.294,-0.908,0.0
9.924,-0.281,-0.915,0.0
9.436,-0.268,-0.921,0.0
9.011,-0.257,-0.928,0.0
8.632,-0.247,-0.935,0.0
11.212,-0.32,-0.898,0.0
10.594,-0.303,-0.905,0.0
10.077,-0.289,-0.914,0.0
9.575,-0.276,-0.92,0.0
9.101,-0.263,-0.923,0.0
8.745,-0.254,-0.933,0.0
11.381,-0.329,-0.894,0.0
10.798,-0.313,-0.905,0.0
10.207,-0.297,-0.909,0.0
9.711,-0.284,-0.918,0.0
9.315,-0.273,-0.93,0.0
8.877,-0.261,-0.933,0.0
11.588,-0.34,-0.891,0.0
10.947,-0.322,-0.9,0.0
10.397,-0.307,-0.909,0.0
9.871,-0.292,-0.917,0.0
9.439,-0.28,-0.927,0.0
8.976,-0.267,-0.929,0.0
