X,Y,Z,Reflectivity
148.576,-9.119,2.162,19.0
149.921,-9.15,1.35,18.0
109.322,-6.658,4.019,24.0
117.507,-7.113,3.667,18.0
149.316,-8.984,3.828,14.0
148.715,-8.893,2.972,21.0
149.362,-8.879,2.155,22.0
149.874,-8.855,1.329,18.0
109.198,-6.438,3.999,32.0
117.149,-6.864,3.638,52.0
148.441,-8.643,3.784,13.0
149.201,-8.632,2.957,16.0
140.765,-8.095,2.008,29.0
140.735,-8.042,1.225,19.0
109.223,-6.227,3.98,18.0
117.162,-6.638,3.617,30.0
163.361,-9.194,4.133,13.0
140.64,-7.863,2.76,28.0
101.492,-5.637,1.426,4.0
101.477,-5.601,0.862,151.0
109.526,-6.03,3.968,21.0
117.323,-6.415,3.595,14.0
140.696,-7.643,3.528,28.0
0.0,0.0,0.0,0.0
101.516,-5.441,1.402,24.0
0.0,0.0,0.0,0.0
109.85,-5.831,3.951,26.0
138.571,-7.305,4.21,8.0
140.648,-7.363,3.489,20.0
103.887,-5.4,1.986,2.0
0.0,0.0,0.0,0.0
101.481,-5.202,0.807,4.0
110.051,-5.623,3.925,13.0
125.527,-6.369,3.776,19.0
139.532,-7.029,3.417,11.0
0.0,0.0,0.0,0.0
0.0,0.0,0.0,0.0
101.512,-5.004,0.775,14.0
117.665,-5.779,4.157,20.0
140.963,-6.874,4.193,23.0
139.373,-6.744,3.365,14.0
0.0,0.0,0.0,0.0
0.0,0.0,0.0,0.0
101.539,-4.805,0.738,1.0
116.808,-5.506,4.083,22.0
141.935,-6.639,4.166,9.0
163.327,-7.581,3.881,5.0
0.0,0.0,0.0,0.0
101.456,-4.636,1.264,5.0
101.472,-4.601,0.697,1.0
116.802,-5.275,4.035,10.0
118.868,-5.325,3.44,8.0
142.572,-6.334,3.326,16.0
0.0,0.0,0.0,0.0
101.491,-4.436,1.22,14.0
101.718,-4.41,0.653,1.0
119.436,-5.157,4.072,15.0
140.018,-5.994,3.988,9.0
0.0,0.0,0.0,0.0
0.0,0.0,0.0,0.0
101.604,-4.241,1.173,1.0
101.495,-4.2,0.603,121.0
124.705,-5.137,4.19,8.0
141.907,-5.793,3.971,13.0
162.791,-6.59,3.641,4.0
0.0,0.0,0.0,0.0
0.0,0.0,0.0,0.0
0.0,0.0,0.0,0.0
116.892,-4.585,3.866,11.0
142.475,-5.536,3.911,13.0
162.451,-6.255,3.546,4.0
105.006,-4.005,1.692,5.0
162.093,-6.127,1.7,6.0
0.0,0.0,0.0,0.0
138.562,-5.16,4.504,27.0
141.611,-5.222,3.806,10.0
162.396,-5.93,3.45,6.0
162.134,-5.863,2.516,16.0
0.0,0.0,0.0,0.0
0.0,0.0,0.0,0.0
138.346,-4.877,4.412,9.0
163.438,-5.704,4.293,17.0
162.206,-5.604,3.346,11.0
162.254,-5.55,2.417,21.0
0.0,0.0,0.0,0.0
0.0,0.0,0.0,0.0
140.289,-4.669,4.384,10.0
163.384,-5.38,4.185,21.0
162.201,-5.285,3.24,15.0
0.0,0.0,0.0,0.0
0.0,0.0,0.0,0.0
0.0,0.0,0.0,0.0
140.06,-4.384,4.281,26.0
163.353,-5.054,4.07,11.0
0.0,0.0,0.0,0.0
0.0,0.0,0.0,0.0
146.579,-4.384,1.157,3.0
0.0,0.0,0.0,0.0
140.578,-4.124,4.195,25.0
0.0,0.0,0.0,0.0
178.136,-5.102,3.303,14.0
146.514,-4.147,1.876,10.0
146.516,-4.098,1.049,25.0
0.0,0.0,0.0,0.0
163.268,-4.472,4.749,56.0
0.0,0.0,0.0,0.0
170.478,-4.551,3.031,5.0
146.57,-3.865,1.764,25.0
146.305,-3.807,0.933,2.0
0.0,0.0,0.0,0.0
163.264,-4.153,4.619,23.0
171.297,-4.3,3.877,4.0
170.49,-4.224,2.895,8.0
146.631,-3.584,1.646,25.0
0.0,0.0,0.0,0.0
0.0,0.0,0.0,0.0
163.314,-3.84,4.485,23.0
0.0,0.0,0.0,0.0
170.445,-3.892,2.75,4.0
146.724,-3.3,1.521,56.0
0.0,0.0,0.0,0.0
0.0,0.0,0.0,0.0
163.308,-3.52,4.34,13.0
170.408,-3.616,3.563,6.0
0.0,0.0,0.0,0.0
146.855,-3.018,1.392,150.0
0.0,0.0,0.0,0.0
0.0,0.0,0.0,0.0
163.413,-3.207,4.195,15.0
170.343,-3.287,3.406,9.0
163.396,-3.099,2.341,25.0
163.231,-3.043,1.397,10.0
0.0,0.0,0.0,0.0
0.0,0.0,0.0,0.0
163.416,-2.897,4.042,3.0
170.267,-2.963,3.245,5.0
163.149,-2.788,2.184,32.0
19.729,-0.33,0.15,0.0
0.0,0.0,0.0,0.0
0.0,0.0,0.0,0.0
171.591,-2.719,4.077,3.0
169.913,-2.636,3.071,5.0
19.757,-0.3,0.244,4.0
19.736,-0.293,0.13,27.0
0.0,0.0,0.0,0.0
0.0,0.0,0.0,0.0
19.774,-0.276,0.449,0.0
19.753,-0.269,0.337,7.0
19.773,-0.263,0.225,21.0
19.741,-0.257,0.11,10.0
0.0,0.0,0.0,0.0
0.0,0.0,0.0,0.0
19.75,-0.238,0.428,9.0
19.733,-0.232,0.316,9.0
19.748,-0.226,0.203,3.0
0.0,0.0,0.0,0.0
0.0,0.0,0.0,0.0
0.0,0.0,0.0,0.0
19.766,-0.203,0.407,8.0
19.741,-0.196,0.294,0.0
168.707,-1.626,1.559,5.0
0.0,0.0,0.0,0.0
19.804,-0.178,-0.044,1.0
19.751,-0.172,-0.156,13.0
177.232,-1.495,3.459,19.0
169.567,-1.377,2.343,17.0
160.697,-1.256,1.305,15.0
19.784,-0.148,0.045,3.0
19.75,-0.142,-0.066,10.0
19.728,-0.136,-0.178,16.0
19.705,-0.13,0.361,4.0
19.724,-0.124,0.249,7.0
19.72,-0.118,0.137,10.0
19.711,-0.112,0.023,12.0
19.724,-0.107,-0.089,13.0
19.727,-0.1,-0.201,16.0
19.672,-0.094,0.338,10.0
19.686,-0.088,0.226,13.0
19.703,-0.083,0.113,15.0
19.695,-0.077,0.0,16.0
19.72,-0.071,-0.113,15.0
19.742,-0.065,-0.225,15.0
19.637,-0.059,0.313,11.0
19.657,-0.054,0.201,13.0
19.691,-0.048,0.089,16.0
19.704,-0.042,-0.024,15.0
19.746,-0.037,-0.137,13.0
19.777,-0.031,-0.25,0.0
19.634,-0.025,0.289,13.0
19.679,-0.02,0.177,8.0
19.753,-0.014,0.065,5.0
19.745,-0.008,-0.049,8.0
19.742,-0.002,-0.162,0.0
19.768,0.003,-0.275,1.0
19.63,0.008,0.264,15.0
19.743,0.014,0.152,9.0
19.742,0.019,0.04,17.0
19.746,0.025,-0.074,25.0
19.763,0.031,-0.187,16.0
19.768,0.036,-0.3,14.0
19.617,0.041,0.238,16.0
19.719,0.047,0.127,16.0
19.752,0.053,0.014,44.0
19.757,0.058,-0.1,59.0
19.772,0.064,-0.213,27.0
19.773,0.07,-0.326,13.0
19.642,0.075,0.212,13.0
19.678,0.08,0.1,13.0
19.695,0.086,-0.012,7.0
19.628,0.091,-0.126,0.0
0.0,0.0,0.0,0.0
31.229,0.162,-0.558,0.0
19.668,0.107,0.186,16.0
19.645,0.113,0.073,12.0
19.651,0.118,-0.038,11.0
19.689,0.124,-0.153,7.0
0.0,0.0,0.0,0.0
30.421,0.208,-0.585,0.0
19.665,0.14,0.159,15.0
19.643,0.145,0.046,16.0
19.645,0.15,-0.066,10.0
19.648,0.155,-0.18,13.0
19.672,0.161,-0.293,8.0
19.675,0.166,-0.406,15.0
19.679,0.172,0.131,12.0
19.643,0.176,0.018,13.0
19.641,0.182,-0.094,16.0
19.639,0.187,-0.208,15.0
19.654,0.192,-0.321,15.0
19.672,0.197,-0.434,22.0
19.736,0.203,0.103,10.0
19.662,0.208,-0.009,11.0
19.642,0.213,-0.122,16.0
19.631,0.218,-0.237,17.0
19.644,0.223,-0.35,16.0
19.675,0.228,-0.463,20.0
84.816,1.008,0.318,10.0
19.68,0.238,-0.039,3.0
19.651,0.243,-0.151,15.0
19.637,0.248,-0.266,16.0
19.652,0.253,-0.379,15.0
19.684,0.259,-0.493,15.0
0.0,0.0,0.0,0.0
19.7,0.269,-0.068,4.0
19.675,0.273,-0.181,10.0
19.667,0.278,-0.296,12.0
19.695,0.283,-0.409,4.0
25.454,0.373,-0.675,1.0
55.207,0.823,0.041,4.0
44.883,0.68,-0.224,2.0
19.717,0.303,-0.211,0.0
19.734,0.308,-0.327,0.0
27.848,0.442,-0.622,0.0
24.503,0.395,-0.688,1.0
55.155,0.903,-0.043,10.0
40.841,0.678,-0.266,1.0
33.41,0.563,-0.41,0.0
28.698,0.49,-0.52,0.0
27.143,0.47,-0.648,1.0
23.393,0.411,-0.693,0.0
52.371,0.933,-0.123,0.0
39.229,0.708,-0.317,1.0
31.222,0.571,-0.432,0.0
29.319,0.543,-0.578,0.0
26.114,0.489,-0.664,1.0
22.734,0.431,-0.709,1.0
44.867,0.863,-0.177,0.0
34.074,0.663,-0.33,1.0
29.84,0.587,-0.461,1.0
27.621,0.55,-0.588,0.0
25.061,0.505,-0.678,0.0
21.941,0.447,-0.72,1.0
41.704,0.859,-0.231,1.0
33.45,0.697,-0.378,1.0
29.232,0.615,-0.498,5.0
25.885,0.55,-0.593,1.0
23.662,0.509,-0.678,0.0
21.269,0.462,-0.732,1.0
38.725,0.85,-0.278,1.0
31.997,0.709,-0.414,0.0
25.389,0.568,-0.474,0.0
23.873,0.54,-0.586,0.0
23.056,0.526,-0.699,3.0
20.646,0.476,-0.745,2.0
36.766,0.855,-0.324,3.0
30.347,0.712,-0.442,1.0
25.338,0.6,-0.515,0.0
22.575,0.54,-0.591,0.0
22.234,0.536,-0.711,4.0
19.692,0.479,-0.743,0.0
34.984,0.859,-0.367,1.0
28.997,0.718,-0.471,1.0
24.968,0.623,-0.55,0.0
21.576,0.543,-0.602,0.0
21.342,0.542,-0.718,4.0
19.168,0.49,-0.756,1.0
32.083,0.828,-0.39,0.0
27.459,0.714,-0.492,1.0
23.279,0.61,-0.551,0.0
20.689,0.546,-0.612,1.0
0.0,0.0,0.0,0.0
18.861,0.505,-0.775,2.0
30.57,0.826,-0.424,0.0
26.008,0.707,-0.51,3.0
22.215,0.608,-0.564,0.0
20.028,0.552,-0.626,0.0
19.649,0.546,-0.728,3.0
18.192,0.509,-0.779,1.0
0.0,0.0,0.0,0.0
25.014,0.709,-0.534,1.0
21.453,0.613,-0.582,0.0
19.243,0.553,-0.634,1.0
18.949,0.548,-0.734,1.0
17.862,0.52,-0.795,0.0
27.492,0.806,-0.475,5.0
23.524,0.694,-0.542,1.0
20.696,0.614,-0.596,1.0
18.443,0.551,-0.64,0.0
18.32,0.55,-0.741,3.0
17.378,0.525,-0.804,0.0
26.062,0.792,-0.495,1.0
22.519,0.689,-0.558,0.0
19.927,0.613,-0.609,1.0
18.138,0.561,-0.661,0.0
17.899,0.557,-0.756,1.0
16.833,0.527,-0.808,0.0
25.403,0.799,-0.527,6.0
21.555,0.682,-0.572,3.0
19.246,0.612,-0.622,1.0
17.345,0.555,-0.662,0.0
17.236,0.554,-0.758,0.0
16.321,0.528,-0.812,0.0
23.926,0.777,-0.539,1.0
20.748,0.677,-0.587,1.0
18.533,0.608,-0.631,1.0
17.11,0.564,-0.683,1.0
16.888,0.56,-0.772,0.0
15.922,0.531,-0.82,0.0
22.567,0.755,-0.547,4.0
19.965,0.671,-0.6,2.0
18.177,0.614,-0.651,0.0
16.876,0.573,-0.704,0.0
16.527,0.564,-0.785,0.0
15.079,0.517,-0.804,0.0
21.633,0.744,-0.563,2.0
19.375,0.67,-0.616,3.0
17.34,0.602,-0.652,0.0
16.677,0.582,-0.725,0.0
16.182,0.567,-0.798,1.0
20.964,0.741,-0.583,3.0
18.571,0.659,-0.624,1.0
17.085,0.609,-0.673,0.0
16.443,0.588,-0.745,0.0
15.92,0.572,-0.813,1.0
14.409,0.52,-0.819,0.0
19.989,0.723,-0.592,3.0
18.217,0.662,-0.645,0.0
16.903,0.617,-0.696,0.0
16.27,0.596,-0.766,1.0
15.189,0.559,-0.803,0.0
14.074,0.52,-0.826,0.0
19.504,0.722,-0.613,3.0
17.392,0.646,-0.647,0.0
16.655,0.621,-0.716,0.0
16.121,0.604,-0.788,1.0
14.727,0.554,-0.805,0.0
13.696,0.517,-0.829,0.0
18.662,0.706,-0.62,3.0
17.159,0.651,-0.67,0.0
16.452,0.627,-0.737,0.0
15.94,0.61,-0.808,1.0
14.444,0.554,-0.816,0.0
13.406,0.516,-0.836,0.0
18.139,0.7,-0.636,3.0
16.928,0.655,-0.691,0.0
16.257,0.632,-0.758,1.0
15.288,0.596,-0.803,0.0
14.126,0.552,-0.824,0.0
13.025,0.511,-0.836,0.0
17.645,0.693,-0.65,3.0
16.682,0.658,-0.712,0.0
16.14,0.638,-0.782,1.0
14.773,0.586,-0.803,0.0
13.69,0.545,-0.824,0.0
12.755,0.509,-0.841,0.0
17.179,0.687,-0.664,3.0
16.506,0.662,-0.734,0.0
15.946,0.641,-0.801,2.0
14.525,0.586,-0.816,0.0
13.54,0.548,-0.839,0.0
12.622,0.512,-0.856,0.0
16.966,0.689,-0.687,2.0
16.277,0.663,-0.753,2.0
15.483,0.632,-0.806,0.0
14.131,0.579,-0.819,0.0
13.212,0.543,-0.843,0.0
12.244,0.504,-0.852,0.0
16.76,0.69,-0.709,2.0
16.184,0.668,-0.778,1.0
14.85,0.615,-0.8,0.0
13.764,0.571,-0.823,0.0
12.81,0.533,-0.84,0.0
12.048,0.503,-0.86,0.0
16.556,0.691,-0.73,2.0
15.967,0.668,-0.797,2.0
14.514,0.609,-0.809,0.0
13.603,0.572,-0.838,0.0
12.554,0.529,-0.846,0.0
11.717,0.495,-0.858,0.0
16.336,0.69,-0.75,2.0
15.441,0.654,-0.798,0.0
14.263,0.606,-0.82,0.0
13.208,0.562,-0.837,0.0
12.305,0.525,-0.852,0.0
11.508,0.492,-0.864,0.0
16.155,0.69,-0.77,2.0
15.085,0.646,-0.807,0.0
13.82,0.593,-0.819,0.0
12.848,0.552,-0.838,0.0
12.053,0.519,-0.856,0.0
11.337,0.49,-0.871,0.0
15.993,0.69,-0.792,4.0
14.5,0.627,-0.802,0.0
13.537,0.587,-0.827,0.0
12.638,0.549,-0.847,0.0
11.783,0.513,-0.858,0.0
11.093,0.484,-0.872,0.0
15.713,0.684,-0.806,0.0
14.251,0.622,-0.813,0.0
13.21,0.577,-0.831,0.0
12.322,0.54,-0.848,0.0
11.571,0.508,-0.863,0.0
10.894,0.479,-0.876,0.0
15.024,0.659,-0.797,0.0
13.896,0.611,-0.818,0.0
12.822,0.565,-0.829,0.0
12.146,0.536,-0.857,0.0
11.337,0.501,-0.866,0.0
10.669,0.472,-0.877,0.0
14.548,0.643,-0.798,0.0
13.643,0.604,-0.827,0.0
12.656,0.561,-0.841,0.0
11.834,0.526,-0.856,0.0
11.113,0.494,-0.869,0.0
10.545,0.47,-0.886,0.0
14.256,0.634,-0.807,0.0
13.303,0.592,-0.83,0.0
12.362,0.551,-0.843,0.0
11.592,0.518,-0.859,0.0
10.974,0.491,-0.877,0.0
10.353,0.464,-0.888,0.0
13.981,0.625,-0.816,0.0
12.997,0.582,-0.834,0.0
12.214,0.547,-0.855,0.0
11.446,0.514,-0.869,0.0
10.726,0.482,-0.876,0.0
10.205,0.459,-0.893,0.0
13.691,0.615,-0.823,0.0
12.708,0.571,-0.838,0.0
11.91,0.536,-0.854,0.0
11.195,0.504,-0.869,0.0
10.519,0.475,-0.878,0.0
10.008,0.452,-0.894,0.0
13.312,0.599,-0.823,0.0
12.424,0.56,-0.841,0.0
11.638,0.525,-0.855,0.0
10.991,0.497,-0.872,0.0
10.407,0.471,-0.887,0.0
9.847,0.446,-0.897,0.0
13.023,0.588,-0.828,0.0
12.288,0.555,-0.853,0.0
11.497,0.52,-0.865,0.0
10.841,0.491,-0.879,0.0
10.275,0.466,-0.893,0.0
9.692,0.44,-0.899,0.0
12.806,0.579,-0.836,0.0
12.059,0.545,-0.857,0.0
11.234,0.509,-0.864,0.0
10.598,0.48,-0.878,0.0
10.089,0.458,-0.894,0.0
9.569,0.434,-0.904,0.0
12.563,0.568,-0.841,0.0
11.709,0.53,-0.852,0.0
11.043,0.5,-0.868,0.0
10.417,0.472,-0.88,0.0
9.888,0.449,-0.893,0.0
9.414,0.427,-0.905,0.0
12.317,0.557,-0.845,0.0
11.544,0.522,-0.859,0.0
10.856,0.491,-0.871,0.0
10.287,0.466,-0.886,0.0
9.758,0.442,-0.898,0.0
9.216,0.418,-0.902,0.0
12.192,0.551,-0.857,0.0
11.39,0.515,-0.867,0.0
10.72,0.485,-0.878,0.0
10.136,0.459,-0.89,0.0
9.634,0.436,-0.902,0.0
9.089,0.412,-0.904,0.0
11.865,0.535,-0.853,0.0
11.098,0.5,-0.863,0.0
10.514,0.474,-0.878,0.0
9.992,0.451,-0.894,0.0
9.482,0.428,-0.903,0.0
8.988,0.406,-0.909,0.0
11.619,0.522,-0.854,0.0
11.001,0.495,-0.873,0.0
10.357,0.466,-0.882,0.0
9.812,0.441,-0.894,0.0
9.331,0.42,-0.904,0.0
8.837,0.398,-0.908,0.0
11.497,0.515,-0.864,0.0
10.768,0.482,-0.871,0.0
10.247,0.459,-0.889,0.0
9.696,0.434,-0.898,0.0
9.16,0.41,-0.902,0.0
8.754,0.392,-0.913,0.0
11.232,0.501,-0.862,0.0
10.623,0.474,-0.877,0.0
10.085,0.45,-0.891,0.0
9.567,0.427,-0.902,0.0
9.043,0.403,-0.905,0.0
8.652,0.386,-0.917,0.0
11.043,0.49,-0.864,0.0
10.474,0.464,-0.881,0.0
9.967,0.442,-0.896,0.0
9.424,0.418,-0.903,0.0
8.932,0.396,-0.908,0.0
8.508,0.377,-0.914,0.0
10.917,0.481,-0.871,0.0
10.344,0.456,-0.886,0.0
9.801,0.432,-0.896,0.0
9.284,0.409,-0.904,0.0
8.842,0.389,-0.912,0.0
8.379,0.369,-0.913,0.0
10.763,0.471,-0.875,0.0
10.185,0.445,-0.887,0.0
9.672,0.423,-0.899,0.0
9.135,0.399,-0.903,0.0
8.692,0.38,-0.91,0.0
8.247,0.36,-0.912,0.0
10.59,0.46,-0.877,0.0
10.054,0.436,-0.891,0.0
9.531,0.413,-0.9,0.0
9.017,0.391,-0.905,0.0
8.598,0.372,-0.913,0.0
8.184,0.354,-0.917,0.0
10.456,0.45,-0.881,0.0
9.922,0.427,-0.894,0.0
9.405,0.404,-0.902,0.0
8.925,0.383,-0.909,0.0
8.476,0.364,-0.912,0.0
8.086,0.347,-0.918,0.0
10.322,0.44,-0.885,0.0
9.802,0.417,-0.897,0.0
9.303,0.396,-0.905,0.0
8.767,0.373,-0.905,0.0
8.449,0.359,-0.921,0.0
8.007,0.34,-0.92,0.0
10.199,0.43,-0.888,0.0
9.673,0.407,-0.899,0.0
9.179,0.386,-0.906,0.0
8.693,0.365,-0.909,0.0
8.273,0.348,-0.914,0.0
7.947,0.333,-0.924,0.0
10.056,0.419,-0.89,0.0
9.558,0.398,-0.901,0.0
9.061,0.377,-0.906,0.0
8.579,0.356,-0.909,0.0
8.237,0.342,-0.921,0.0
7.867,0.326,-0.925,0.0
9.926,0.408,-0.891,0.0
9.436,0.388,-0.902,0.0
8.908,0.366,-0.903,0.0
8.496,0.348,-0.912,0.0
8.127,0.333,-0.919,0.0
7.771,0.318,-0.925,0.0
9.84,0.399,-0.897,0.0
9.318,0.378,-0.903,0.0
8.86,0.359,-0.91,0.0
8.404,0.34,-0.913,0.0
8.034,0.324,-0.919,0.0
7.736,0.312,-0.93,0.0
9.703,0.388,-0.896,0.0
9.215,0.368,-0.905,0.0
8.759,0.349,-0.911,0.0
8.306,0.331,-0.913,0.0
7.966,0.317,-0.922,0.0
7.675,0.305,-0.933,0.0
9.624,0.379,-0.901,0.0
9.134,0.359,-0.908,0.0
8.653,0.34,-0.91,0.0
8.185,0.321,-0.91,0.0
7.898,0.309,-0.924,0.0
7.59,0.297,-0.932,0.0
9.473,0.367,-0.899,0.0
8.976,0.347,-0.903,0.0
8.575,0.331,-0.913,0.0
8.166,0.315,-0.917,0.0
7.833,0.301,-0.926,0.0
7.545,0.29,-0.936,0.0
9.406,0.358,-0.903,0.0
8.914,0.339,-0.908,0.0
8.547,0.324,-0.92,0.0
8.041,0.304,-0.913,0.0
7.788,0.294,-0.929,0.0
7.487,0.282,-0.937,0.0
9.279,0.347,-0.902,0.0
8.826,0.329,-0.909,0.0
8.395,0.312,-0.913,0.0
8.011,0.297,-0.919,0.0
7.733,0.286,-0.932,0.0
7.412,0.274,-0.936,0.0
9.218,0.338,-0.906,0.0
8.731,0.319,-0.909,0.0
8.315,0.303,-0.913,0.0
7.936,0.289,-0.919,0.0
7.681,0.279,-0.934,0.0
7.367,0.267,-0.939,0.0
9.088,0.326,-0.903,0.0
8.655,0.31,-0.91,0.0
8.276,0.295,-0.918,0.0
7.883,0.281,-0.921,0.0
7.612,0.27,-0.933,0.0
7.318,0.259,-0.94,0.0
9.021,0.317,-0.906,0.0
8.611,0.301,-0.914,0.0
8.2,0.286,-0.918,0.0
7.854,0.273,-0.925,0.0
7.545,0.262,-0.933,0.0
7.266,0.252,-0.941,0.0
8.986,0.308,-0.911,0.0
8.527,0.291,-0.914,0.0
8.149,0.278,-0.92,0.0
7.81,0.265,-0.928,0.0
7.504,0.254,-0.935,0.0
7.233,0.244,-0.943,0.0
8.901,0.298,-0.911,0.0
8.439,0.281,-0.912,0.0
8.077,0.268,-0.92,0.0
7.73,0.256,-0.926,0.0
7.474,0.247,-0.938,0.0
7.206,0.237,-0.947,0.0
8.838,0.288,-0.913,0.0
8.381,0.272,-0.914,0.0
8.013,0.259,-0.92,0.0
7.699,0.248,-0.929,0.0
7.415,0.238,-0.938,0.0
7.15,0.229,-0.946,0.0
8.729,0.277,-0.909,0.0
8.305,0.262,-0.913,0.0
8.001,0.252,-0.925,0.0
7.687,0.241,-0.934,0.0
7.395,0.231,-0.942,0.0
7.154,0.223,-0.952,0.0
8.679,0.267,-0.911,0.0
8.293,0.254,-0.918,0.0
7.898,0.241,-0.92,0.0
7.635,0.232,-0.934,0.0
7.35,0.223,-0.942,0.0
7.112,0.215,-0.953,0.0
8.645,0.258,-0.915,0.0
8.235,0.245,-0.919,0.0
7.906,0.234,-0.927,0.0
7.56,0.223,-0.931,0.0
7.302,0.215,-0.942,0.0
7.048,0.206,-0.95,0.0
8.586,0.248,-0.915,0.0
8.21,0.237,-0.922,0.0
7.856,0.225,-0.927,0.0
7.54,0.215,-0.934,0.0
7.271,0.207,-0.943,0.0
7.023,0.199,-0.952,0.0
8.529,0.239,-0.915,0.0
8.186,0.228,-0.925,0.0
7.824,0.217,-0.929,0.0
7.513,0.207,-0.936,0.0
7.245,0.199,-0.945,0.0
6.973,0.19,-0.95,0.0
8.473,0.228,-0.915,0.0
8.131,0.218,-0.924,0.0
7.758,0.207,-0.927,0.0
7.49,0.199,-0.938,0.0
7.237,0.191,-0.948,0.0
6.926,0.182,-0.948,0.0
8.459,0.22,-0.919,0.0
8.089,0.209,-0.925,0.0
7.767,0.2,-0.932,0.0
7.425,0.19,-0.935,0.0
7.189,0.183,-0.947,0.0
6.904,0.174,-0.949,0.0
8.404,0.21,-0.918,0.0
8.068,0.2,-0.927,0.0
7.72,0.19,-0.931,0.0
7.439,0.182,-0.941,0.0
7.184,0.175,-0.95,0.0
6.877,0.167,-0.949,0.0
8.399,0.201,-0.922,0.0
8.009,0.19,-0.925,0.0
7.679,0.182,-0.93,0.0
7.403,0.174,-0.94,0.0
7.16,0.167,-0.95,0.0
6.831,0.159,-0.946,0.0
8.356,0.191,-0.921,0.0
8.012,0.182,-0.929,0.0
7.656,0.173,-0.931,0.0
7.371,0.165,-0.94,0.0
7.11,0.158,-0.947,0.0
6.812,0.151,-0.947,0.0
8.338,0.182,-0.923,0.0
8.007,0.174,-0.932,0.0
7.661,0.165,-0.935,0.0
7.354,0.157,-0.941,0.0
7.104,0.151,-0.95,0.0
6.855,0.144,-0.956,0.0
8.288,0.172,-0.921,0.0
7.951,0.164,-0.929,0.0
7.644,0.156,-0.936,0.0
7.335,0.149,-0.941,0.0
7.094,0.143,-0.951,0.0
6.837,0.137,-0.956,0.0
8.265,0.163,-0.921,0.0
7.878,0.154,-0.923,0.0
7.647,0.148,-0.94,0.0
7.322,0.141,-0.942,0.0
7.035,0.134,-0.945,0.0
6.786,0.128,-0.951,0.0
8.259,0.154,-0.923,0.0
7.905,0.146,-0.929,0.0
7.621,0.139,-0.939,0.0
7.3,0.132,-0.942,0.0
7.044,0.126,-0.949,0.0
6.781,0.12,-0.952,0.0
8.255,0.144,-0.925,0.0
7.899,0.137,-0.93,0.0
7.611,0.13,-0.94,0.0
7.323,0.124,-0.946,0.0
7.053,0.119,-0.952,0.0
6.778,0.113,-0.953,0.0
8.229,0.135,-0.924,0.0
7.893,0.128,-0.931,0.0
7.624,0.122,-0.943,0.0
7.299,0.116,-0.945,0.0
7.008,0.11,-0.947,0.0
6.767,0.105,-0.953,0.0
8.217,0.125,-0.924,0.0
7.903,0.119,-0.934,0.0
7.584,0.113,-0.939,0.0
7.298,0.108,-0.946,0.0
7.033,0.102,-0.952,0.0
6.779,0.097,-0.956,0.0
8.196,0.116,-0.923,0.0
7.872,0.11,-0.931,0.0
7.595,0.105,-0.941,0.0
7.293,0.099,-0.946,0.0
7.042,0.094,-0.954,0.0
6.752,0.089,-0.953,0.0
8.209,0.107,-0.925,0.0
7.882,0.101,-0.933,0.0
7.571,0.096,-0.939,0.0
7.267,0.091,-0.943,0.0
7.025,0.086,-0.952,0.0
6.746,0.082,-0.952,0.0
8.217,0.098,-0.927,0.0
7.878,0.092,-0.933,0.0
7.553,0.087,-0.937,0.0
7.281,0.082,-0.945,0.0
7.02,0.078,-0.951,0.0
6.762,0.074,-0.955,0.0
8.22,0.088,-0.927,0.0
7.903,0.083,-0.936,0.0
7.545,0.078,-0.936,0.0
7.264,0.074,-0.943,0.0
7.026,0.07,-0.952,0.0
6.771,0.066,-0.956,0.0
8.224,0.079,-0.927,0.0
7.891,0.074,-0.934,0.0
7.588,0.07,-0.941,0.0
7.285,0.066,-0.945,0.0
7.011,0.062,-0.949,0.0
6.756,0.059,-0.953,0.0
8.225,0.07,-0.927,0.0
7.893,0.065,-0.933,0.0
7.583,0.061,-0.939,0.0
7.266,0.057,-0.942,0.0
7.024,0.054,-0.95,0.0
6.778,0.051,-0.955,0.0
8.241,0.061,-0.927,0.0
7.915,0.057,-0.935,0.0
7.583,0.053,-0.938,0.0
7.272,0.049,-0.942,0.0
7.038,0.046,-0.951,0.0
6.757,0.043,-0.951,0.0
8.247,0.051,-0.926,0.0
7.939,0.048,-0.936,0.0
7.605,0.044,-0.94,0.0
7.299,0.041,-0.944,0.0
7.054,0.038,-0.952,0.0
6.77,0.035,-0.952,0.0
8.269,0.042,-0.927,0.0
7.939,0.039,-0.934,0.0
7.617,0.036,-0.939,0.0
7.3,0.033,-0.942,0.0
7.036,0.03,-0.947,0.0
6.807,0.028,-0.955,0.0
8.28,0.033,-0.926,0.0
7.96,0.03,-0.935,0.0
7.641,0.027,-0.94,0.0
7.307,0.024,-0.94,0.0
7.07,0.022,-0.95,0.0
6.823,0.02,-0.955,0.0
8.299,0.023,-0.925,0.0
7.963,0.021,-0.932,0.0
7.65,0.019,-0.938,0.0
7.34,0.016,-0.942,0.0
7.118,0.014,-0.954,0.0
6.825,0.013,-0.953,0.0
8.329,0.014,-0.926,0.0
7.993,0.012,-0.933,0.0
7.677,0.01,-0.939,0.0
7.361,0.008,-0.942,0.0
7.133,0.007,-0.953,0.0
6.847,0.005,-0.953,0.0
8.362,0.005,-0.926,0.0
8.006,0.003,-0.931,0.0
7.703,0.002,-0.939,0.0
7.384,0.0,-0.942,0.0
7.143,-0.001,-0.951,0.0
6.872,-0.002,-0.953,0.0
8.383,-0.003,-0.924,0.0
8.035,-0.005,-0.931,0.0
7.732,-0.006,-0.938,0.0
7.416,-0.007,-0.942,0.0
7.162,-0.008,-0.95,0.0
6.869,-0.009,-0.95,0.0
8.435,-0.013,-0.926,0.0
8.071,-0.014,-0.931,0.0
7.776,-0.015,-0.94,0.0
7.453,-0.016,-0.943,0.0
7.184,-0.016,-0.949,0.0
6.908,-0.017,-0.951,0.0
8.479,-0.022,-0.926,0.0
8.095,-0.022,-0.929,0.0
7.786,-0.023,-0.937,0.0
7.483,-0.024,-0.942,0.0
7.218,-0.024,-0.949,0.0
6.948,-0.025,-0.953,0.0
8.502,-0.031,-0.924,0.0
8.125,-0.031,-0.928,0.0
7.846,-0.032,-0.939,0.0
7.507,-0.032,-0.941,0.0
7.242,-0.032,-0.948,0.0
6.998,-0.032,-0.955,0.0
8.553,-0.04,-0.924,0.0
8.184,-0.04,-0.929,0.0
7.848,-0.04,-0.934,0.0
7.553,-0.04,-0.942,0.0
7.277,-0.04,-0.948,0.0
6.998,-0.04,-0.95,0.0
8.597,-0.05,-0.923,0.0
8.232,-0.049,-0.929,0.0
7.901,-0.049,-0.935,0.0
7.603,-0.048,-0.942,0.0
7.297,-0.048,-0.945,0.0
7.054,-0.048,-0.953,0.0
8.652,-0.059,-0.922,0.0
8.284,-0.058,-0.929,0.0
7.969,-0.057,-0.937,0.0
7.629,-0.056,-0.94,0.0
7.337,-0.056,-0.944,0.0
7.094,-0.055,-0.953,0.0
8.733,-0.068,-0.924,0.0
8.308,-0.067,-0.925,0.0
7.991,-0.066,-0.933,0.0
7.678,-0.065,-0.94,0.0
7.384,-0.064,-0.945,0.0
7.162,-0.063,-0.956,0.0
8.798,-0.078,-0.924,0.0
8.407,-0.076,-0.929,0.0
8.036,-0.074,-0.932,0.0
7.722,-0.073,-0.939,0.0
7.451,-0.072,-0.947,0.0
7.181,-0.07,-0.952,0.0
8.842,-0.087,-0.921,0.0
8.46,-0.085,-0.927,0.0
8.084,-0.083,-0.93,0.0
7.77,-0.081,-0.938,0.0
7.474,-0.079,-0.943,0.0
7.216,-0.078,-0.95,0.0
8.9,-0.096,-0.919,0.0
8.508,-0.094,-0.925,0.0
8.18,-0.092,-0.934,0.0
7.814,-0.089,-0.936,0.0
7.546,-0.087,-0.945,0.0
7.236,-0.085,-0.946,0.0
8.966,-0.105,-0.918,0.0
8.575,-0.102,-0.924,0.0
8.235,-0.1,-0.933,0.0
7.889,-0.097,-0.937,0.0
7.568,-0.095,-0.941,0.0
7.312,-0.093,-0.949,0.0
9.057,-0.115,-0.918,0.0
8.691,-0.112,-0.928,0.0
8.269,-0.108,-0.928,0.0
7.939,-0.105,-0.935,0.0
7.644,-0.103,-0.942,0.0
7.368,-0.1,-0.949,0.0
9.149,-0.125,-0.918,0.0
8.764,-0.121,-0.927,0.0
8.361,-0.117,-0.93,0.0
8.004,-0.113,-0.935,0.0
7.685,-0.11,-0.939,0.0
7.391,-0.107,-0.944,0.0
9.249,-0.134,-0.918,0.0
8.817,-0.129,-0.923,0.0
8.434,-0.125,-0.929,0.0
8.093,-0.122,-0.936,0.0
7.755,-0.118,-0.939,0.0
7.447,-0.115,-0.943,0.0
9.352,-0.144,-0.919,0.0
8.883,-0.138,-0.92,0.0
8.519,-0.134,-0.929,0.0
8.14,-0.129,-0.933,0.0
7.84,-0.126,-0.941,0.0
7.537,-0.122,-0.946,0.0
9.452,-0.153,-0.918,0.0
8.995,-0.147,-0.922,0.0
8.589,-0.142,-0.927,0.0
8.214,-0.138,-0.931,0.0
7.919,-0.134,-0.941,0.0
7.606,-0.13,-0.945,0.0
9.556,-0.163,-0.917,0.0
9.07,-0.156,-0.919,0.0
8.711,-0.151,-0.929,0.0
8.304,-0.146,-0.932,0.0
7.98,-0.141,-0.939,0.0
7.669,-0.137,-0.944,0.0
9.655,-0.172,-0.914,0.0
9.173,-0.165,-0.918,0.0
8.756,-0.159,-0.923,0.0
8.385,-0.154,-0.93,0.0
8.033,-0.149,-0.935,0.0
7.745,-0.145,-0.943,0.0
9.773,-0.182,-0.913,0.0
9.337,-0.175,-0.923,0.0
8.85,-0.168,-0.922,0.0
8.484,-0.162,-0.931,0.0
8.128,-0.157,-0.935,0.0
7.811,-0.152,-0.941,0.0
9.899,-0.192,-0.912,0.0
9.433,-0.184,-0.92,0.0
8.975,-0.177,-0.924,0.0
8.57,-0.17,-0.929,0.0
8.233,-0.165,-0.937,0.0
7.886,-0.159,-0.94,0.0
10.015,-0.201,-0.91,0.0
9.548,-0.193,-0.919,0.0
9.037,-0.184,-0.918,0.0
8.67,-0.178,-0.928,0.0
8.316,-0.172,-0.935,0.0
7.967,-0.166,-0.939,0.0
10.149,-0.211,-0.908,0.0
9.649,-0.202,-0.915,0.0
9.186,-0.194,-0.921,0.0
8.777,-0.186,-0.928,0.0
8.405,-0.18,-0.933,0.0
8.054,-0.173,-0.938,0.0
10.314,-0.221,-0.909,0.0
9.756,-0.211,-0.912,0.0
9.363,-0.203,-0.925,0.0
8.883,-0.194,-0.926,0.0
8.501,-0.187,-0.932,0.0
8.133,-0.18,-0.935,0.0
10.432,-0.23,-0.905,0.0
9.903,-0.22,-0.912,0.0
9.465,-0.211,-0.922,0.0
8.972,-0.202,-0.923,0.0
8.593,-0.194,-0.93,0.0
8.254,-0.188,-0.937,0.0
10.59,-0.24,-0.903,0.0
10.069,-0.23,-0.912,0.0
9.59,-0.22,-0.92,0.0
9.108,-0.21,-0.923,0.0
8.691,-0.202,-0.927,0.0
8.332,-0.195,-0.934,0.0
10.751,-0.25,-0.901,0.0
10.219,-0.239,-0.91,0.0
9.704,-0.228,-0.916,0.0
9.278,-0.219,-0.926,0.0
8.797,-0.209,-0.925,0.0
8.461,-0.202,-0.935,0.0
10.942,-0.26,-0.901,0.0
10.359,-0.248,-0.907,0.0
9.843,-0.236,-0.914,0.0
9.42,-0.228,-0.926,0.0
8.942,-0.217,-0.927,0.0
8.551,-0.209,-0.932,0.0
11.126,-0.27,-0.899,0.0
10.529,-0.257,-0.906,0.0
10.009,-0.246,-0.914,0.0
9.512,-0.234,-0.921,0.0
9.037,-0.224,-0.923,0.0
8.674,-0.216,-0.932,0.0
11.276,-0.279,-0.893,0.0
10.699,-0.266,-0.904,0.0
10.13,-0.253,-0.91,0.0
9.651,-0.242,-0.919,0.0
9.239,-0.233,-0.928,0.0
8.765,-0.222,-0.927,0.0
11.457,-0.289,-0.889,0.0
10.875,-0.275,-0.901,0.0
10.284,-0.261,-0.907,0.0
9.793,-0.25,-0.916,0.0
9.359,-0.24,-0.925,0.0
8.894,-0.229,-0.927,0.0
11.713,-0.3,-0.89,0.0
11.066,-0.285,-0.899,0.0
10.491,-0.271,-0.908,0.0
9.959,-0.258,-0.915,0.0
9.5,-0.247,-0.924,0.0
9.062,-0.237,-0.929,0.0
11.898,-0.309,-0.884,0.0
11.271,-0.294,-0.897,0.0
10.663,-0.279,-0.905,0.0
10.098,-0.265,-0.911,0.0
9.654,-0.255,-0.922,0.0
9.164,-0.243,-0.924,0.0
12.121,-0.319,-0.881,0.0
11.446,-0.302,-0.892,0.0
10.87,-0.288,-0.904,0.0
10.273,-0.273,-0.91,0.0
9.79,-0.261,-0.919,0.0
9.358,-0.251,-0.928,0.0
12.383,-0.33,-0.879,0.0
11.649,-0.311,-0.888,0.0
11.055,-0.296,-0.901,0.0
10.446,-0.281,-0.907,0.0
9.963,-0.269,-0.918,0.0
9.476,-0.256,-0.923,0.0
12.582,-0.339,-0.872,0.0
11.829,-0.319,-0.882,0.0
11.271,-0.305,-0.899,0.0
10.655,-0.289,-0.907,0.0
10.133,-0.276,-0.916,0.0
9.649,-0.263,-0.923,0.0
17.777,-0.483,-1.201,0.0
12.177,-0.331,-0.886,0.0
11.451,-0.312,-0.893,0.0
10.879,-0.298,-0.907,0.0
10.305,-0.283,-0.913,0.0
9.802,-0.269,-0.92,0.0
17.784,-0.486,-1.17,0.0
12.437,-0.341,-0.883,0.0
11.618,-0.319,-0.886,0.0
11.05,-0.304,-0.902,0.0
10.471,-0.289,-0.909,0.0
9.977,-0.276,-0.919,0.0
17.779,-0.489,-1.138,0.0
12.61,-0.347,-0.873,0.0
11.889,-0.328,-0.885,0.0
11.26,-0.312,-0.898,0.0
10.71,-0.297,-0.911,0.0
10.131,-0.281,-0.915,0.0
17.796,-0.492,-1.107,0.0
17.813,-0.493,-1.201,0.0
12.16,-0.337,-0.883,0.0
11.456,-0.318,-0.893,0.0
10.916,-0.304,-0.908,0.0
10.335,-0.288,-0.914,0.0
14.181,-0.393,-0.856,0.0
17.792,-0.494,-1.167,0.0
12.441,-0.346,-0.881,0.0
11.691,-0.325,-0.89,0.0
11.083,-0.309,-0.902,0.0
10.519,-0.294,-0.911,0.0
14.481,-0.402,-0.848,0.0
17.799,-0.495,-1.135,1.0
17.853,-0.497,-1.232,0.0
11.864,-0.33,-0.882,0.0
11.336,-0.316,-0.902,0.0
10.745,-0.3,-0.911,0.0
14.916,-0.414,-0.846,0.0
17.786,-0.494,-1.102,0.0
17.77,-0.494,-1.194,0.0
12.252,-0.341,-0.888,0.0
11.539,-0.321,-0.896,0.0
10.929,-0.305,-0.906,0.0
15.365,-0.426,-0.843,0.0
14.257,-0.396,-0.856,0.0
17.777,-0.494,-1.161,0.0
12.434,-0.345,-0.878,0.0
11.718,-0.326,-0.889,0.0
11.144,-0.31,-0.903,0.0
17.796,-0.492,-0.944,1.0
14.561,-0.403,-0.848,0.0
17.781,-0.492,-1.128,1.0
17.723,-0.491,-1.218,0.0
12.007,-0.333,-0.888,0.0
11.371,-0.315,-0.9,0.0
0.0,0.0,0.0,0.0
15.016,-0.414,-0.846,0.0
13.948,-0.384,-0.858,0.0
17.802,-0.491,-1.19,0.0
12.286,-0.339,-0.885,0.0
11.608,-0.32,-0.897,0.0
17.734,-0.486,-0.874,2.0
15.461,-0.424,-0.842,0.0
14.334,-0.393,-0.855,0.0
17.78,-0.487,-1.154,0.0
12.496,-0.342,-0.876,0.0
11.773,-0.322,-0.887,0.0
17.651,-0.48,-0.836,1.0
17.786,-0.484,-0.934,1.0
14.737,-0.401,-0.851,0.0
13.739,-0.373,-0.866,0.0
12.804,-0.348,-0.873,0.0
12.128,-0.329,-0.89,0.0
17.757,-0.479,-0.807,3.0
17.674,-0.477,-0.894,2.0
15.171,-0.409,-0.846,0.0
14.093,-0.38,-0.861,0.0
17.808,-0.479,-1.18,0.0
12.334,-0.332,-0.882,0.0
17.784,-0.475,-0.774,10.0
17.673,-0.472,-0.86,0.0
15.568,-0.415,-0.839,0.0
14.436,-0.385,-0.854,0.0
17.853,-0.475,-1.149,0.0
12.611,-0.335,-0.877,0.0
17.796,-0.47,-0.74,8.0
17.687,-0.467,-0.827,1.0
0.0,0.0,0.0,0.0
14.907,-0.392,-0.853,0.0
13.83,-0.363,-0.863,0.0
12.874,-0.338,-0.87,0.0
17.81,-0.464,-0.706,34.0
17.781,-0.463,-0.796,3.0
0.0,0.0,0.0,0.0
15.298,-0.397,-0.845,0.0
14.248,-0.369,-0.861,0.0
13.221,-0.342,-0.868,0.0
17.823,-0.458,-0.672,53.0
17.805,-0.456,-0.763,4.0
17.489,-0.447,-0.84,0.0
15.738,-0.402,-0.839,0.0
14.637,-0.373,-0.856,0.0
13.669,-0.347,-0.87,0.0
17.795,-0.45,-0.636,0.0
17.856,-0.45,-0.73,1.0
17.753,-0.446,-0.818,1.0
16.249,-0.408,-0.834,0.0
15.028,-0.376,-0.85,0.0
13.993,-0.349,-0.864,0.0
21.79,-0.54,-0.736,1.0
19.966,-0.494,-0.778,0.0
17.908,-0.442,-0.79,1.0
16.731,-0.411,-0.826,0.0
15.505,-0.38,-0.846,0.0
14.371,-0.352,-0.859,0.0
22.357,-0.543,-0.712,0.0
20.685,-0.501,-0.765,0.0
19.081,-0.461,-0.804,0.0
17.477,-0.421,-0.829,0.0
15.992,-0.384,-0.841,0.0
14.805,-0.354,-0.856,0.0
21.724,-0.516,-0.649,2.0
21.633,-0.512,-0.758,4.0
19.676,-0.464,-0.791,0.0
17.824,-0.419,-0.811,0.0
16.469,-0.386,-0.834,0.0
15.237,-0.356,-0.851,0.0
21.738,-0.504,-0.607,150.0
21.698,-0.501,-0.719,4.0
20.272,-0.466,-0.776,0.0
18.622,-0.426,-0.811,0.0
17.085,-0.39,-0.832,0.0
15.637,-0.355,-0.843,0.0
21.73,-0.49,-0.565,152.0
21.72,-0.487,-0.676,7.0
21.287,-0.476,-0.773,0.0
19.263,-0.429,-0.801,0.0
17.724,-0.393,-0.829,0.0
16.135,-0.356,-0.838,0.0
21.725,-0.475,-0.522,29.0
21.711,-0.473,-0.634,154.0
21.666,-0.469,-0.745,6.0
19.759,-0.426,-0.783,0.0
18.209,-0.391,-0.816,0.0
16.711,-0.357,-0.836,0.0
21.754,-0.461,-0.481,6.0
21.667,-0.457,-0.591,162.0
21.699,-0.455,-0.704,10.0
20.548,-0.428,-0.775,1.0
18.933,-0.392,-0.812,0.0
17.272,-0.356,-0.83,0.0
30.207,-0.618,-0.61,0.0
21.723,-0.441,-0.55,153.0
21.715,-0.439,-0.663,97.0
21.552,-0.433,-0.771,3.0
19.478,-0.389,-0.798,0.0
17.825,-0.354,-0.823,0.0
31.813,-0.626,-0.581,0.0
21.761,-0.425,-0.51,0.0
21.722,-0.422,-0.621,152.0
21.678,-0.418,-0.734,7.0
20.052,-0.384,-0.783,0.0
18.428,-0.351,-0.815,0.0
0.0,0.0,0.0,0.0
29.45,-0.552,-0.634,0.0
21.72,-0.404,-0.579,6.0
21.728,-0.401,-0.694,2.0
20.714,-0.38,-0.769,0.0
19.023,-0.346,-0.805,0.0
0.0,0.0,0.0,0.0
30.45,-0.544,-0.597,0.0
0.0,0.0,0.0,0.0
23.945,-0.421,-0.719,0.0
21.627,-0.377,-0.762,2.0
19.668,-0.34,-0.794,0.0
0.0,0.0,0.0,0.0
0.0,0.0,0.0,0.0
0.0,0.0,0.0,0.0
25.168,-0.42,-0.708,0.0
22.155,-0.366,-0.738,1.0
20.232,-0.331,-0.779,0.0
42.504,-0.689,-0.452,0.0
0.0,0.0,0.0,0.0
29.783,-0.473,-0.625,0.0
26.126,-0.411,-0.686,0.0
23.118,-0.36,-0.727,0.0
20.912,-0.322,-0.766,0.0
42.768,-0.652,-0.374,0.0
0.0,0.0,0.0,0.0
30.529,-0.455,-0.583,0.0
27.139,-0.4,-0.662,0.0
24.285,-0.354,-0.718,0.0
21.808,-0.314,-0.758,0.0
0.0,0.0,0.0,0.0
39.621,-0.558,-0.478,0.0
33.139,-0.461,-0.571,0.0
28.743,-0.394,-0.647,0.0
25.32,-0.343,-0.701,0.0
22.512,-0.301,-0.74,0.0
0.0,0.0,0.0,0.0
0.0,0.0,0.0,0.0
34.815,-0.448,-0.536,0.0
30.176,-0.382,-0.624,0.0
26.31,-0.329,-0.68,0.0
23.347,-0.287,-0.725,0.0
0.0,0.0,0.0,0.0
0.0,0.0,0.0,0.0
0.0,0.0,0.0,0.0
31.349,-0.363,-0.59,0.0
27.908,-0.318,-0.67,0.0
24.588,-0.276,-0.718,0.0
0.0,0.0,0.0,0.0
0.0,0.0,0.0,0.0
38.862,-0.414,-0.456,0.0
19.739,-0.206,-0.336,0.0
29.076,-0.299,-0.646,0.0
25.49,-0.257,-0.699,0.0
0.0,0.0,0.0,0.0
19.57,-0.189,-0.092,0.0
19.776,-0.188,-0.196,4.0
19.763,-0.184,-0.3,7.0
19.764,-0.18,-0.403,12.0
19.755,-0.176,-0.506,11.0
0.0,0.0,0.0,0.0
19.788,-0.168,-0.058,2.0
19.748,-0.164,-0.161,11.0
19.744,-0.16,-0.265,13.0
19.738,-0.156,-0.368,16.0
19.745,-0.152,-0.471,19.0
0.0,0.0,0.0,0.0
19.761,-0.144,-0.023,4.0
19.731,-0.14,-0.126,13.0
19.714,-0.136,-0.23,16.0
19.736,-0.132,-0.333,16.0
19.738,-0.128,-0.436,17.0
19.777,-0.124,0.113,4.0
19.729,-0.119,0.01,10.0
19.724,-0.115,-0.091,12.0
19.711,-0.111,-0.196,16.0
19.736,-0.107,-0.299,15.0
19.758,-0.103,-0.402,17.0
19.724,-0.099,0.147,14.0
19.713,-0.094,0.044,13.0
19.717,-0.09,-0.057,12.0
19.711,-0.086,-0.162,16.0
19.743,-0.082,-0.265,15.0
19.766,-0.077,-0.369,12.0
19.708,-0.073,0.181,16.0
19.692,-0.068,0.078,15.0
19.7,-0.064,-0.024,16.0
19.707,-0.06,-0.128,15.0
19.739,-0.056,-0.232,15.0
19.768,-0.051,-0.335,5.0
19.665,-0.046,0.214,15.0
19.692,-0.042,0.111,17.0
19.705,-0.038,0.008,16.0
19.732,-0.033,-0.096,10.0
19.751,-0.029,-0.199,9.0
0.0,0.0,0.0,0.0
19.641,-0.019,0.247,13.0
19.717,-0.015,0.144,3.0
19.723,-0.011,0.041,8.0
19.735,-0.006,-0.063,9.0
19.752,-0.001,-0.166,0.0
0.0,0.0,0.0,0.0
19.63,0.007,0.279,14.0
19.67,0.011,0.176,8.0
19.774,0.016,0.074,6.0
19.777,0.021,-0.031,31.0
19.767,0.025,-0.134,9.0
19.759,0.03,-0.237,13.0
19.62,0.035,0.31,15.0
19.637,0.039,0.208,15.0
19.747,0.044,0.106,15.0
19.765,0.049,0.0,24.0
19.752,0.054,-0.102,35.0
19.752,0.059,-0.206,41.0
19.611,0.063,0.341,17.0
19.618,0.068,0.239,14.0
19.666,0.073,0.136,11.0
19.749,0.077,0.031,28.0
19.762,0.083,-0.072,12.0
19.755,0.087,-0.175,2.0
19.617,0.092,0.372,26.0
19.615,0.097,0.269,15.0
19.647,0.101,0.166,14.0
19.647,0.106,0.061,13.0
19.661,0.111,-0.041,10.0
19.692,0.116,-0.144,3.0
19.61,0.121,0.402,16.0
19.615,0.126,0.299,12.0
19.669,0.131,0.197,18.0
19.637,0.136,0.092,14.0
19.64,0.141,-0.011,17.0
19.649,0.146,-0.114,13.0
19.612,0.151,0.432,12.0
19.632,0.156,0.329,11.0
19.645,0.162,0.226,13.0
19.649,0.167,0.121,12.0
19.644,0.172,0.018,15.0
19.643,0.177,-0.084,14.0
19.662,0.182,0.463,10.0
19.668,0.187,0.359,10.0
19.693,0.193,0.256,7.0
19.68,0.198,0.15,10.0
19.677,0.203,0.047,12.0
19.665,0.208,-0.056,9.0
19.705,0.214,0.492,10.0
19.719,0.219,0.389,11.0
19.724,0.224,0.285,10.0
19.762,0.23,0.179,27.0
19.759,0.235,0.075,4.0
19.691,0.239,-0.028,5.0
19.662,0.245,0.519,14.0
19.696,0.25,0.416,10.0
19.703,0.256,0.312,11.0
19.762,0.262,0.207,24.0
19.797,0.267,0.103,5.0
57.173,0.788,-0.003,1.0
19.669,0.277,0.547,15.0
19.689,0.282,0.443,10.0
19.699,0.288,0.34,12.0
19.737,0.294,0.234,2.0
160.781,2.439,1.06,7.0
0.0,0.0,0.0,0.0
19.681,0.309,0.574,9.0
19.72,0.315,0.471,3.0
55.211,0.898,1.028,13.0
55.185,0.913,0.729,41.0
55.181,0.928,0.437,56.0
55.165,0.943,0.146,62.0
55.177,0.961,1.686,72.0
55.164,0.975,1.393,73.0
55.166,0.99,1.1,68.0
55.171,1.005,0.802,63.0
55.182,1.021,0.51,47.0
55.189,1.037,0.218,37.0
135.407,2.587,4.313,14.0
163.426,3.168,4.339,9.0
179.311,3.524,3.809,29.0
163.866,3.264,2.593,11.0
162.85,3.29,1.713,22.0
113.066,2.316,0.59,9.0
135.16,2.812,4.477,22.0
134.701,2.839,3.745,15.0
179.356,3.832,4.034,8.0
179.345,3.881,3.063,13.0
128.697,2.82,1.513,26.0
113.283,2.514,0.729,16.0
114.243,2.573,3.925,22.0
98.582,2.247,2.861,32.0
98.581,2.274,2.336,142.0
179.14,4.184,3.275,19.0
71.051,1.679,0.921,6.0
70.776,1.692,0.54,23.0
113.865,2.762,4.048,24.0
115.423,2.831,3.488,4.0
134.95,3.348,3.358,14.0
128.979,3.236,2.509,10.0
45.509,1.155,0.643,8.0
45.493,1.167,0.4,40.0
45.479,1.182,1.669,23.0
0.0,0.0,0.0,0.0
0.0,0.0,0.0,0.0
0.0,0.0,0.0,0.0
43.683,1.185,0.666,60.0
41.925,1.149,0.416,152.0
0.0,0.0,0.0,0.0
40.118,1.125,1.303,79.0
40.138,1.137,1.089,120.0
40.121,1.148,0.87,145.0
40.126,1.159,0.656,150.0
40.118,1.17,0.441,144.0
40.117,1.185,1.562,150.0
40.112,1.197,1.347,149.0
40.117,1.208,1.132,150.0
40.12,1.219,0.913,150.0
40.118,1.231,0.699,150.0
40.114,1.242,0.484,150.0
40.116,1.257,1.604,113.0
40.113,1.269,1.389,150.0
40.105,1.28,1.174,150.0
40.117,1.292,0.955,150.0
40.12,1.303,0.74,150.0
40.117,1.315,0.525,150.0
120.149,3.986,4.929,9.0
120.328,4.025,4.29,20.0
121.013,4.081,3.663,20.0
121.512,4.133,3.014,9.0
162.304,5.569,3.155,3.0
161.985,5.603,2.278,22.0
114.707,4.012,4.818,11.0
120.365,4.244,4.408,16.0
121.109,4.304,3.783,16.0
45.006,1.612,1.159,12.0
44.82,1.619,0.913,79.0
44.394,1.616,0.666,75.0
120.094,4.418,5.157,21.0
120.494,4.468,4.525,10.0
162.634,6.075,5.23,12.0
42.006,1.581,1.12,96.0
41.842,1.587,0.891,71.0
41.781,1.596,0.664,108.0
179.57,6.937,7.874,7.0
178.685,6.952,6.87,18.0
162.675,6.377,5.377,6.0
40.384,1.594,1.112,111.0
40.392,1.605,0.895,125.0
40.383,1.617,0.677,139.0
180.091,7.286,8.051,17.0
178.817,7.286,7.028,18.0
183.085,7.511,6.207,5.0
45.201,1.866,1.283,12.0
100.512,4.179,2.311,8.0
23.656,0.99,0.416,1.0
23.615,0.998,1.075,10.0
23.615,1.005,0.947,28.0
23.61,1.012,0.819,39.0
23.607,1.018,0.689,45.0
23.596,1.024,0.561,46.0
23.594,1.031,0.433,47.0
23.58,1.041,1.092,60.0
23.574,1.047,0.964,63.0
23.569,1.053,0.836,64.0
23.585,1.06,0.706,111.0
23.589,1.068,0.578,77.0
23.585,1.074,0.451,70.0
23.573,1.084,1.109,75.0
23.575,1.09,0.981,69.0
23.573,1.097,0.853,57.0
23.589,1.105,0.723,51.0
23.591,1.111,0.595,43.0
23.612,1.119,0.468,42.0
23.598,1.129,1.127,40.0
23.596,1.136,0.999,21.0
23.6,1.142,0.871,10.0
23.607,1.149,0.74,3.0
23.611,1.156,0.612,0.0
23.663,1.165,0.485,0.0
0.0,0.0,0.0,0.0
179.882,8.994,7.736,15.0
179.856,9.041,6.754,15.0
162.608,8.22,5.206,15.0
45.196,2.297,1.201,9.0
45.13,2.306,0.953,0.0
0.0,0.0,0.0,0.0
214.094,11.102,9.341,7.0
180.059,9.386,6.874,19.0
162.616,8.522,5.304,12.0
45.172,2.379,1.227,10.0
45.217,2.395,0.982,32.0
0.0,0.0,0.0,0.0
0.0,0.0,0.0,0.0
180.864,9.764,7.008,20.0
162.569,8.819,5.394,7.0
45.181,2.464,1.252,12.0
199.991,10.962,4.455,4.0
213.292,11.794,10.711,5.0
204.188,11.347,9.137,7.0
181.06,10.112,7.112,11.0
162.748,9.133,5.487,5.0
45.199,2.548,1.276,11.0
45.165,2.559,1.029,0.0
0.0,0.0,0.0,0.0
203.469,11.684,9.207,8.0
200.665,11.579,7.981,10.0
198.943,11.535,6.804,6.0
45.179,2.632,1.298,4.0
45.2,2.645,1.051,11.0
206.223,12.172,10.56,6.0
203.806,12.084,9.318,10.0
198.589,11.829,7.99,14.0
197.844,11.839,6.854,17.0
45.184,2.715,1.318,3.0
134.38,8.115,3.184,11.0
204.73,12.464,10.57,6.0
201.063,12.295,9.277,6.0
0.0,0.0,0.0,0.0
197.428,12.178,6.921,17.0
163.453,10.125,4.832,16.0
45.201,2.812,1.088,8.0
112.311,7.045,5.843,4.0
0.0,0.0,0.0,0.0
197.754,12.51,8.111,6.0
197.201,12.526,6.985,6.0
100.617,6.419,3.011,6.0
45.187,2.895,1.103,1.0
99.942,6.454,5.234,32.0
99.947,6.481,4.684,34.0
99.951,6.506,4.133,35.0
99.972,6.533,3.573,38.0
99.956,6.558,3.022,40.0
44.94,2.96,1.111,95.0
99.952,6.636,5.265,33.0
99.966,6.663,4.714,35.0
99.969,6.69,4.163,42.0
99.985,6.716,3.602,39.0
99.969,6.742,3.051,40.0
43.552,2.949,1.089,73.0
99.961,6.822,5.293,33.0
99.966,6.847,4.74,35.0
99.97,6.874,4.188,36.0
99.955,6.899,3.626,40.0
99.986,6.926,3.075,38.0
42.051,2.923,1.061,86.0
99.965,7.003,5.316,33.0
99.958,7.028,4.761,32.0
99.957,7.053,4.208,35.0
99.969,7.08,3.646,38.0
99.99,7.107,3.095,14.0
41.09,2.931,1.044,70.0
45.471,3.268,2.426,150.0
45.469,3.279,2.174,150.0
45.472,3.29,1.922,150.0
45.465,3.301,1.665,150.0
45.479,3.313,1.415,150.0
40.376,2.952,1.033,116.0
43.664,3.216,2.336,6.0
43.673,3.227,2.094,49.0
43.687,3.239,1.853,116.0
43.682,3.249,1.605,150.0
43.682,3.26,1.364,150.0
43.685,3.271,1.122,118.0
43.661,3.293,2.34,136.0
43.684,3.305,2.099,139.0
43.669,3.314,1.855,150.0
43.672,3.325,1.609,150.0
43.681,3.336,1.367,150.0
43.698,3.348,1.125,124.0
41.882,3.232,2.248,95.0
41.902,3.244,2.016,96.0
41.889,3.252,1.782,150.0
41.897,3.263,1.546,127.0
41.901,3.273,1.313,116.0
41.9,3.283,1.08,112.0
41.887,3.305,2.249,132.0
41.87,3.313,2.015,75.0
41.891,3.325,1.783,143.0
41.886,3.334,1.545,136.0
41.895,3.345,1.312,104.0
0.0,0.0,0.0,0.0
40.094,3.234,2.152,118.0
40.095,3.242,1.929,111.0
40.081,3.251,1.705,148.0
40.08,3.26,1.477,150.0
40.097,3.271,1.255,131.0
40.097,3.28,1.032,150.0
40.089,3.301,2.15,123.0
40.089,3.311,1.926,134.0
40.083,3.319,1.702,150.0
40.094,3.329,1.475,148.0
40.092,3.338,1.252,131.0
40.096,3.348,1.028,150.0
40.096,3.37,2.147,111.0
40.089,3.378,1.923,105.0
40.089,3.387,1.699,132.0
40.083,3.396,1.47,122.0
40.098,3.406,1.247,137.0
40.087,3.414,1.023,70.0
87.076,7.466,4.653,45.0
87.078,7.486,4.165,120.0
87.077,7.505,3.677,110.0
87.089,7.524,3.183,137.0
74.589,6.461,2.309,8.0
74.423,6.463,1.888,10.0
87.146,7.618,4.641,6.0
87.118,7.633,4.152,76.0
87.145,7.653,3.665,4.0
87.145,7.672,3.168,1.0
73.222,6.462,2.253,9.0
73.175,6.475,1.842,8.0
82.94,7.385,4.401,6.0
82.964,7.405,3.936,7.0
82.898,7.416,3.469,9.0
82.911,7.434,2.996,11.0
71.989,6.471,2.198,9.0
71.857,6.474,1.792,10.0
82.914,7.516,4.38,52.0
82.911,7.533,3.914,62.0
82.914,7.55,3.448,52.0
82.923,7.567,2.975,25.0
70.748,6.471,2.142,10.0
70.667,6.479,1.744,10.0
82.95,7.652,4.358,11.0
83.028,7.675,3.896,7.0
82.991,7.688,3.428,3.0
83.084,7.713,2.957,1.0
69.55,6.471,2.085,9.0
69.488,6.48,1.693,9.0
82.948,7.782,4.333,2.0
82.947,7.798,3.866,7.0
85.742,8.078,3.513,11.0
68.384,6.456,2.411,2.0
68.434,6.475,2.028,7.0
68.319,6.478,1.641,7.0
84.612,8.07,4.39,6.0
82.951,7.926,3.837,15.0
84.414,8.082,3.429,10.0
67.378,6.464,2.351,7.0
67.352,6.474,1.971,8.0
67.305,6.483,1.591,7.0
82.957,8.037,4.272,7.0
82.864,8.043,3.8,6.0
83.252,8.096,3.348,4.0
66.354,6.464,2.289,7.0
66.338,6.476,1.915,10.0
66.253,6.481,1.54,10.0
75.133,7.39,3.838,4.0
75.063,7.397,3.41,7.0
75.083,7.413,2.988,3.0
65.419,6.47,2.228,6.0
65.376,6.479,1.858,8.0
65.325,6.487,1.488,7.0
75.054,7.493,3.8,45.0
75.048,7.506,3.375,69.0
75.066,7.52,2.952,36.0
64.575,6.48,2.169,10.0
64.483,6.483,1.802,8.0
64.372,6.484,1.436,8.0
75.066,7.602,3.764,11.0
75.045,7.612,3.339,10.0
74.965,7.617,2.911,1.0
63.637,6.477,2.105,8.0
63.617,6.487,1.745,11.0
63.558,6.492,1.385,12.0
75.116,7.712,3.728,2.0
75.225,7.736,3.307,1.0
62.832,6.472,2.407,3.0
62.845,6.483,2.045,13.0
62.792,6.489,1.689,13.0
62.742,6.495,1.334,13.0
70.969,7.384,3.482,6.0
70.923,7.39,3.078,5.0
62.064,6.477,2.342,7.0
62.019,6.483,1.984,12.0
62.001,6.491,1.632,12.0
61.984,6.5,1.282,12.0
70.893,7.471,3.437,27.0
70.894,7.482,3.035,36.0
61.272,6.475,2.277,5.0
61.253,6.483,1.923,9.0
61.232,6.491,1.575,9.0
61.186,6.497,1.228,10.0
70.901,7.565,3.394,33.0
70.891,7.573,2.991,27.0
60.535,6.476,2.212,2.0
60.531,6.486,1.862,5.0
60.512,6.493,1.518,3.0
60.496,6.501,1.175,2.0
70.936,7.659,3.35,5.0
70.923,7.667,2.947,5.0
59.879,6.481,2.148,5.0
59.848,6.487,1.802,8.0
59.837,6.495,1.462,7.0
59.749,6.495,1.121,5.0
73.866,8.067,3.439,3.0
73.581,8.045,3.007,3.0
59.229,6.484,2.085,4.0
59.182,6.488,1.741,6.0
59.184,6.496,1.406,7.0
59.135,6.5,1.069,8.0
73.3,8.092,3.362,11.0
72.957,8.065,2.93,2.0
58.618,6.487,2.021,9.0
58.631,6.497,1.682,9.0
58.589,6.501,1.349,8.0
58.554,6.506,1.016,7.0
72.481,8.088,3.271,10.0
58.01,6.48,2.287,2.0
57.998,6.486,1.957,9.0
58.054,6.501,1.623,10.0
58.036,6.506,1.292,11.0
58.008,6.512,0.962,7.0
71.671,8.079,3.179,3.0
57.469,6.485,2.222,3.0
57.446,6.49,1.894,11.0
57.491,6.502,1.562,10.0
57.446,6.505,1.235,11.0
57.444,6.513,0.909,11.0
70.738,8.052,3.082,6.0
56.973,6.492,2.157,2.0
56.916,6.492,1.831,10.0
56.93,6.5,1.502,12.0
56.958,6.511,1.179,11.0
56.94,6.517,0.854,11.0
70.205,8.066,3.002,5.0
56.452,6.491,2.092,5.0
56.426,6.495,1.769,10.0
56.414,6.5,1.443,10.0
56.423,6.508,1.122,11.0
56.433,6.517,0.8,11.0
55.962,6.486,2.346,1.0
55.902,6.485,2.025,8.0
55.949,6.496,1.708,12.0
55.953,6.503,1.383,14.0
55.969,6.511,1.065,13.0
55.977,6.519,0.746,13.0
55.482,6.485,2.279,5.0
55.499,6.492,1.963,10.0
55.505,6.498,1.647,11.0
55.513,6.505,1.324,14.0
55.544,6.515,1.008,13.0
55.539,6.521,0.692,13.0
55.057,6.487,2.213,8.0
55.053,6.491,1.898,12.0
55.048,6.496,1.584,9.0
55.051,6.502,1.265,11.0
55.071,6.51,0.951,13.0
55.066,6.516,0.637,12.0
54.641,6.487,2.146,13.0
54.651,6.493,1.835,13.0
54.653,6.498,1.522,13.0
54.667,6.505,1.206,14.0
54.674,6.512,0.894,12.0
54.644,6.515,0.581,11.0
54.23,6.485,2.08,8.0
54.267,6.494,1.771,13.0
54.267,6.499,1.461,11.0
54.273,6.504,1.146,15.0
54.3,6.513,0.836,18.0
54.289,6.517,0.527,11.0
53.874,6.487,2.015,10.0
53.901,6.494,1.708,12.0
53.929,6.502,1.401,12.0
53.952,6.509,1.088,13.0
53.935,6.512,0.78,12.0
53.936,6.518,0.472,10.0
53.57,6.491,1.953,11.0
53.613,6.5,1.648,14.0
53.614,6.505,1.341,14.0
53.636,6.512,1.029,13.0
53.625,6.515,0.723,14.0
53.624,6.52,0.417,13.0
53.258,6.493,1.888,10.0
53.291,6.5,1.585,13.0
53.302,6.506,1.28,13.0
53.289,6.508,0.97,13.0
53.311,6.515,0.665,12.0
53.284,6.517,0.36,10.0
52.982,6.496,1.825,11.0
52.99,6.5,1.522,13.0
53.009,6.506,1.219,12.0
53.017,6.511,0.91,12.0
53.033,6.518,0.607,13.0
53.056,6.524,0.305,8.0
52.727,6.499,1.763,12.0
52.745,6.504,1.461,14.0
52.786,6.513,1.16,14.0
52.794,6.517,0.853,15.0
52.798,6.521,0.551,12.0
52.816,6.528,0.249,3.0
52.478,6.5,1.7,11.0
52.503,6.506,1.4,11.0
52.526,6.512,1.1,14.0
52.547,6.518,0.794,13.0
52.557,6.522,0.494,12.0
42.815,5.316,0.157,2.0
52.251,6.501,1.638,7.0
52.293,6.509,1.34,10.0
52.301,6.512,1.041,13.0
52.347,6.521,0.736,14.0
52.358,6.526,0.437,13.0
18.007,2.245,0.047,5.0
52.071,6.505,1.577,11.0
52.087,6.51,1.279,11.0
52.116,6.516,0.981,10.0
52.121,6.519,0.678,12.0
52.156,6.526,0.38,11.0
18.009,2.254,0.028,13.0
51.898,6.508,1.516,12.0
51.921,6.513,1.219,12.0
51.937,6.517,0.922,11.0
51.959,6.522,0.62,10.0
17.986,2.258,0.111,1.0
18.009,2.262,0.008,17.0
51.729,6.509,1.455,12.0
51.771,6.516,1.159,13.0
51.774,6.518,0.862,11.0
51.8,6.524,0.561,11.0
17.988,2.266,0.091,9.0
18.015,2.27,-0.011,13.0
51.575,6.509,1.394,9.0
51.632,6.518,1.1,14.0
51.629,6.519,0.804,14.0
51.663,6.525,0.503,10.0
17.993,2.273,0.072,16.0
18.026,2.278,-0.031,5.0
51.442,6.51,1.333,12.0
51.49,6.517,1.039,13.0
51.517,6.521,0.745,11.0
17.966,2.275,0.155,2.0
17.985,2.278,0.052,15.0
35.903,4.549,-0.101,6.0
51.34,6.511,1.274,10.0
51.405,6.52,0.981,13.0
51.423,6.524,0.686,14.0
17.959,2.278,0.135,9.0
17.996,2.284,0.032,13.0
35.596,4.519,-0.139,17.0
51.274,6.515,1.215,11.0
51.299,6.519,0.921,13.0
51.37,6.529,0.628,10.0
17.951,2.282,0.114,14.0
18.005,2.289,0.012,7.0
34.988,4.449,-0.177,12.0
51.193,6.515,1.155,12.0
51.245,6.522,0.863,14.0
17.954,2.285,0.199,2.0
17.965,2.286,0.094,16.0
40.14,5.11,-0.017,14.0
34.635,4.41,-0.214,8.0
51.165,6.519,1.098,12.0
51.21,6.525,0.805,13.0
17.959,2.288,0.179,7.0
17.97,2.289,0.074,15.0
38.423,4.896,-0.06,10.0
16.55,2.109,-0.12,17.0
51.138,6.521,1.04,12.0
51.19,6.527,0.747,9.0
17.96,2.29,0.159,11.0
17.983,2.293,0.054,11.0
35.786,4.563,-0.096,10.0
16.565,2.112,-0.139,15.0
51.114,6.52,0.982,10.0
51.191,6.53,0.689,7.0
17.966,2.291,0.139,14.0
17.995,2.295,0.034,7.0
35.467,4.524,-0.135,21.0
16.573,2.114,-0.158,18.0
51.129,6.523,0.924,7.0
17.953,2.29,0.221,1.0
17.978,2.293,0.118,15.0
18.017,2.298,0.013,3.0
34.906,4.452,-0.173,14.0
16.555,2.111,-0.177,15.0
51.167,6.526,0.866,10.0
17.945,2.288,0.2,4.0
17.991,2.293,0.098,16.0
40.149,5.118,-0.014,15.0
34.576,4.408,-0.211,11.0
16.541,2.108,-0.195,9.0
51.201,6.526,0.809,13.0
17.953,2.287,0.18,6.0
17.978,2.29,0.077,15.0
38.402,4.892,-0.057,11.0
16.547,2.107,-0.119,16.0
29.255,3.726,-0.379,2.0
51.281,6.529,0.751,13.0
17.953,2.285,0.16,8.0
17.98,2.288,0.057,13.0
35.853,4.562,-0.094,12.0
32.431,4.126,-0.271,2.0
27.764,3.532,-0.391,2.0
51.35,6.529,0.694,13.0
17.963,2.283,0.14,11.0
17.999,2.287,0.037,12.0
35.572,4.519,-0.134,16.0
16.577,2.105,-0.157,13.0
27.359,3.475,-0.417,7.0
51.454,6.53,0.638,11.0
17.975,2.28,0.119,13.0
18.006,2.283,0.016,11.0
35.25,4.47,-0.173,12.0
16.542,2.097,-0.175,11.0
26.989,3.421,-0.441,7.0
51.574,6.532,0.581,10.0
17.976,2.275,0.099,13.0
18.014,2.279,-0.003,9.0
16.581,2.097,-0.099,17.0
30.322,3.835,-0.356,4.0
17.432,2.204,-0.305,11.0
51.725,6.534,0.524,10.0
17.992,2.272,0.079,14.0
18.006,2.272,-0.023,8.0
32.767,4.134,-0.234,10.0
29.568,3.73,-0.38,8.0
17.211,2.17,-0.32,15.0
51.838,6.529,0.467,5.0
17.989,2.264,0.059,14.0
18.03,2.269,-0.043,8.0
32.802,4.126,-0.27,10.0
28.282,3.556,-0.395,7.0
17.099,2.149,-0.337,17.0
52.037,6.533,0.411,5.0
18.005,2.259,0.039,13.0
17.821,2.235,-0.063,8.0
32.788,4.111,-0.306,5.0
27.358,3.428,-0.412,7.0
17.025,2.133,-0.354,17.0
52.229,6.533,0.356,10.0
18.011,2.251,0.02,13.0
18.012,2.25,-0.083,8.0
16.509,2.062,-0.172,8.0
26.496,3.308,-0.428,4.0
16.93,2.113,-0.37,15.0
52.444,6.534,0.3,7.0
18.012,2.242,0.0,13.0
18.045,2.245,-0.103,8.0
30.555,3.8,-0.352,9.0
17.549,2.182,-0.302,8.0
16.784,2.086,-0.385,15.0
52.734,6.541,0.246,2.0
18.025,2.234,-0.019,10.0
18.056,2.237,-0.122,11.0
29.849,3.696,-0.375,8.0
17.278,2.138,-0.316,13.0
16.712,2.067,-0.401,15.0
42.836,5.288,0.154,3.0
18.032,2.224,-0.038,9.0
18.065,2.227,-0.141,12.0
28.687,3.535,-0.391,8.0
17.196,2.117,-0.333,15.0
16.669,2.052,-0.418,16.0
46.451,5.705,0.119,17.0
18.048,2.215,-0.056,6.0
18.072,2.216,-0.16,14.0
27.627,3.386,-0.406,7.0
17.14,2.099,-0.349,16.0
16.636,2.037,-0.434,15.0
0.0,0.0,0.0,0.0
18.056,2.203,-0.075,3.0
18.077,2.204,-0.179,14.0
26.527,3.233,-0.417,7.0
17.089,2.081,-0.366,16.0
16.586,2.019,-0.45,16.0
40.459,4.913,0.02,7.0
35.616,4.321,-0.185,12.0
18.094,2.193,-0.197,15.0
25.769,3.121,-0.431,3.0
17.036,2.062,-0.382,16.0
16.558,2.003,-0.466,16.0
40.339,4.867,-0.02,2.0
34.829,4.199,-0.216,11.0
18.096,2.18,-0.215,14.0
17.807,2.143,-0.315,11.0
16.98,2.042,-0.398,15.0
16.535,1.987,-0.481,18.0
38.823,4.653,-0.057,10.0
34.516,4.133,-0.247,16.0
18.105,2.166,-0.233,12.0
17.675,2.113,-0.33,14.0
16.908,2.019,-0.412,14.0
16.521,1.972,-0.497,16.0
38.308,4.559,-0.093,14.0
33.825,4.022,-0.275,11.0
18.111,2.151,-0.25,8.0
17.538,2.081,-0.344,15.0
16.886,2.002,-0.428,16.0
16.526,1.958,-0.513,15.0
0.0,0.0,0.0,0.0
33.216,3.919,-0.301,10.0
18.131,2.137,-0.268,5.0
17.435,2.053,-0.359,15.0
16.841,1.982,-0.442,16.0
16.539,1.944,-0.529,16.0
37.962,4.449,-0.163,7.0
32.693,3.827,-0.327,10.0
26.974,3.154,-0.423,3.0
17.351,2.027,-0.373,15.0
16.818,1.963,-0.457,13.0
16.537,1.928,-0.544,17.0
35.819,4.163,-0.186,13.0
31.417,3.647,-0.342,9.0
26.277,3.047,-0.436,4.0
17.306,2.005,-0.387,15.0
16.867,1.952,-0.473,15.0
16.506,1.908,-0.558,18.0
36.028,4.151,-0.219,12.0
30.328,3.49,-0.357,8.0
18.167,2.088,-0.317,8.0
17.29,1.985,-0.402,15.0
16.903,1.939,-0.489,13.0
16.514,1.892,-0.572,16.0
35.881,4.096,-0.25,12.0
29.645,3.38,-0.375,8.0
18.068,2.057,-0.331,11.0
17.292,1.967,-0.417,15.0
16.934,1.924,-0.505,14.0
16.522,1.875,-0.586,16.0
34.969,3.954,-0.272,8.0
28.817,3.254,-0.388,8.0
18.014,2.032,-0.345,13.0
17.332,1.952,-0.432,15.0
16.978,1.91,-0.52,14.0
16.525,1.857,-0.6,16.0
0.0,0.0,0.0,0.0
28.134,3.145,-0.402,7.0
17.882,1.996,-0.357,11.0
17.381,1.938,-0.447,15.0
17.005,1.894,-0.534,17.0
16.561,1.842,-0.615,15.0
33.01,3.657,-0.31,10.0
27.081,2.996,-0.408,7.0
17.866,1.974,-0.371,11.0
17.454,1.926,-0.463,17.0
17.011,1.874,-0.548,13.0
16.581,1.825,-0.628,16.0
32.083,3.516,-0.326,10.0
