X,Y,Z,Reflectivity
19.761,-0.023,-0.252,0.0
0.0,0.0,0.0,0.0
19.693,-0.027,0.17,8.0
19.7,-0.029,0.055,15.0
19.732,-0.031,-0.059,11.0
19.745,-0.033,-0.176,10.0
19.78,-0.035,-0.292,0.0
29.222,-0.055,-0.603,0.0
19.702,-0.039,0.13,17.0
19.71,-0.042,0.015,17.0
19.725,-0.044,-0.099,12.0
19.749,-0.046,-0.217,13.0
19.779,-0.048,-0.333,1.0
28.16,-0.072,-0.639,0.0
19.712,-0.053,0.09,16.0
19.71,-0.055,-0.025,17.0
19.724,-0.057,-0.14,14.0
19.738,-0.059,-0.257,14.0
19.784,-0.062,-0.373,3.0
19.758,-0.064,-0.489,1.0
19.701,-0.066,0.05,16.0
19.724,-0.069,-0.065,12.0
19.719,-0.071,-0.179,15.0
19.748,-0.073,-0.297,14.0
19.756,-0.076,-0.413,11.0
19.764,-0.078,-0.529,7.0
19.719,-0.081,0.01,16.0
19.729,-0.083,-0.104,17.0
19.737,-0.086,-0.22,15.0
19.755,-0.088,-0.337,13.0
19.74,-0.09,-0.452,14.0
19.762,-0.093,-0.568,15.0
19.718,-0.096,-0.028,13.0
19.716,-0.098,-0.143,17.0
19.741,-0.101,-0.259,15.0
19.729,-0.103,-0.376,16.0
19.741,-0.106,-0.491,15.0
19.756,-0.108,-0.607,16.0
19.725,-0.112,-0.067,12.0
19.73,-0.114,-0.183,17.0
19.736,-0.117,-0.298,15.0
19.726,-0.119,-0.415,17.0
19.739,-0.122,-0.53,16.0
19.752,-0.125,-0.646,16.0
19.722,-0.128,-0.106,17.0
19.725,-0.131,-0.221,17.0
19.734,-0.133,-0.337,16.0
19.713,-0.136,-0.453,17.0
19.738,-0.139,-0.569,17.0
19.751,-0.142,-0.685,16.0
19.744,-0.145,-0.144,15.0
19.734,-0.148,-0.26,16.0
19.73,-0.151,-0.375,17.0
19.749,-0.154,-0.492,21.0
19.752,-0.156,-0.607,14.0
19.762,-0.159,-0.723,12.0
19.748,-0.163,-0.183,14.0
19.75,-0.166,-0.297,13.0
19.738,-0.169,-0.412,13.0
19.755,-0.172,-0.53,10.0
19.769,-0.175,-0.645,5.0
19.688,-0.177,-0.758,5.0
19.768,-0.181,-0.22,12.0
19.764,-0.184,-0.335,10.0
19.76,-0.187,-0.45,6.0
24.018,-0.231,-0.69,0.0
19.807,-0.194,-0.684,1.0
19.379,-0.192,-0.782,2.0
19.794,-0.2,-0.257,1.0
19.796,-0.204,-0.373,0.0
26.356,-0.275,-0.65,0.0
23.047,-0.244,-0.705,0.0
19.781,-0.213,-0.721,8.0
18.766,-0.205,-0.793,0.0
33.892,-0.377,-0.504,0.0
29.03,-0.328,-0.601,0.0
25.521,-0.292,-0.677,0.0
22.254,-0.258,-0.722,0.0
19.709,-0.232,-0.754,5.0
18.137,-0.216,-0.8,0.0
0.0,0.0,0.0,0.0
27.943,-0.344,-0.629,0.0
24.453,-0.305,-0.693,0.0
21.456,-0.271,-0.735,0.0
19.466,-0.249,-0.781,0.0
17.423,-0.226,-0.8,0.0
30.562,-0.403,-0.566,0.0
26.293,-0.352,-0.64,0.0
23.197,-0.314,-0.699,0.0
19.862,-0.272,-0.716,2.0
18.812,-0.261,-0.788,1.0
17.067,-0.24,-0.814,0.0
29.549,-0.422,-0.6,0.0
25.631,-0.37,-0.669,0.0
22.418,-0.328,-0.716,0.0
19.872,-0.294,-0.752,2.0
18.176,-0.272,-0.794,0.0
16.546,-0.251,-0.819,0.0
28.16,-0.433,-0.621,0.0
24.728,-0.385,-0.689,0.0
21.648,-0.341,-0.729,0.0
19.527,-0.311,-0.773,0.0
17.7,-0.285,-0.804,0.0
16.079,-0.262,-0.824,0.0
26.327,-0.435,-0.626,0.0
23.398,-0.39,-0.692,0.0
21.087,-0.356,-0.746,0.0
19.069,-0.325,-0.788,0.0
17.136,-0.295,-0.808,0.0
15.634,-0.273,-0.828,0.0
25.922,-0.458,-0.66,0.0
22.216,-0.397,-0.695,0.0
20.373,-0.368,-0.756,0.0
18.382,-0.335,-0.791,0.0
16.665,-0.307,-0.814,0.0
15.278,-0.284,-0.835,0.0
21.751,-0.41,-0.591,42.0
21.691,-0.413,-0.715,6.0
19.804,-0.381,-0.768,0.0
17.886,-0.348,-0.799,0.0
16.24,-0.319,-0.82,0.0
14.971,-0.297,-0.843,0.0
21.711,-0.436,-0.625,151.0
21.607,-0.438,-0.748,3.0
19.332,-0.396,-0.781,0.0
17.394,-0.359,-0.805,0.0
15.812,-0.33,-0.824,0.0
14.573,-0.307,-0.844,0.0
21.723,-0.463,-0.661,15.0
20.898,-0.449,-0.757,0.0
18.713,-0.406,-0.786,0.0
16.962,-0.371,-0.813,0.0
15.518,-0.343,-0.834,0.0
14.261,-0.318,-0.849,0.0
21.707,-0.49,-0.695,7.0
20.164,-0.459,-0.762,0.0
18.032,-0.414,-0.786,0.0
16.49,-0.382,-0.816,0.0
15.183,-0.355,-0.839,0.0
13.949,-0.329,-0.852,0.0
21.661,-0.516,-0.726,7.0
19.65,-0.472,-0.773,1.0
17.742,-0.43,-0.8,1.0
16.132,-0.395,-0.823,0.0
14.917,-0.368,-0.847,0.0
13.638,-0.339,-0.854,0.0
21.26,-0.534,-0.745,0.0
17.898,-0.453,-0.731,2.0
17.439,-0.445,-0.813,0.0
15.734,-0.405,-0.826,0.0
14.484,-0.376,-0.845,0.0
13.4,-0.351,-0.859,0.0
17.809,-0.471,-0.65,151.0
17.79,-0.474,-0.753,10.0
17.317,-0.466,-0.833,0.0
15.432,-0.418,-0.833,0.0
14.189,-0.388,-0.848,0.0
17.815,-0.491,-1.169,0.0
17.807,-0.495,-0.676,152.0
17.775,-0.498,-0.778,6.0
17.577,-0.496,-0.871,2.0
15.094,-0.43,-0.837,0.0
17.791,-0.511,-1.089,1.0
17.796,-0.515,-1.193,0.0
17.79,-0.518,-0.701,150.0
17.742,-0.521,-0.801,2.0
0.0,0.0,0.0,0.0
14.791,-0.441,-0.841,0.0
17.788,-0.535,-1.114,2.0
17.785,-0.539,-1.217,0.0
17.802,-0.544,-0.726,5.0
17.618,-0.542,-0.82,0.0
17.807,-0.552,-0.932,0.0
14.546,-0.454,-0.847,0.0
13.327,-0.419,-0.853,0.0
12.505,-0.397,-0.873,0.0
17.824,-0.569,-0.751,2.0
17.016,-0.548,-0.815,0.0
15.464,-0.501,-0.83,0.0
14.26,-0.465,-0.849,0.0
13.175,-0.433,-0.861,0.0
12.332,-0.409,-0.877,0.0
18.082,-0.603,-0.785,0.0
16.657,-0.56,-0.82,0.0
15.203,-0.515,-0.836,0.0
14.056,-0.479,-0.855,0.0
12.942,-0.444,-0.862,0.0
12.154,-0.42,-0.88,0.0
17.806,-0.62,-0.796,1.0
16.342,-0.573,-0.825,0.0
14.898,-0.526,-0.838,0.0
13.766,-0.489,-0.855,0.0
12.734,-0.456,-0.865,0.0
12.041,-0.434,-0.887,0.0
17.525,-0.635,-0.805,0.0
15.982,-0.583,-0.826,0.0
14.72,-0.541,-0.846,0.0
13.37,-0.495,-0.847,0.0
12.614,-0.47,-0.872,0.0
11.846,-0.444,-0.887,0.0
17.191,-0.648,-0.81,0.0
15.728,-0.597,-0.832,0.0
14.464,-0.553,-0.848,0.0
13.315,-0.512,-0.859,0.0
12.461,-0.483,-0.876,0.0
11.667,-0.455,-0.887,0.0
16.905,-0.662,-0.816,0.0
15.427,-0.608,-0.834,0.0
14.187,-0.563,-0.848,0.0
13.07,-0.522,-0.858,0.0
12.289,-0.494,-0.878,0.0
11.535,-0.467,-0.891,0.0
16.484,-0.671,-0.815,0.0
15.21,-0.623,-0.839,0.0
13.977,-0.576,-0.851,0.0
12.931,-0.536,-0.863,0.0
12.135,-0.506,-0.88,0.0
11.306,-0.475,-0.885,0.0
16.304,-0.688,-0.823,0.0
14.944,-0.634,-0.84,0.0
13.764,-0.588,-0.853,0.0
12.773,-0.549,-0.866,0.0
12.004,-0.519,-0.883,0.0
11.244,-0.489,-0.892,0.0
16.009,-0.699,-0.825,0.0
14.704,-0.646,-0.842,0.0
13.574,-0.6,-0.855,0.0
12.6,-0.56,-0.868,0.0
11.94,-0.534,-0.891,0.0
11.119,-0.501,-0.894,0.0
15.81,-0.715,-0.831,0.0
14.555,-0.662,-0.848,0.0
13.314,-0.609,-0.852,0.0
12.465,-0.573,-0.871,0.0
11.809,-0.546,-0.893,0.0
10.961,-0.51,-0.892,0.0
15.533,-0.726,-0.831,0.0
14.365,-0.675,-0.851,0.0
13.146,-0.621,-0.854,0.0
12.335,-0.586,-0.873,0.0
11.637,-0.556,-0.891,0.0
10.908,-0.525,-0.898,0.0
15.363,-0.741,-0.836,0.0
14.211,-0.69,-0.854,0.0
13.099,-0.639,-0.863,0.0
12.208,-0.599,-0.875,0.0
11.513,-0.568,-0.892,0.0
10.882,-0.54,-0.905,0.0
15.166,-0.755,-0.839,0.0
13.858,-0.694,-0.845,0.0
12.899,-0.649,-0.861,0.0
12.149,-0.615,-0.881,0.0
11.358,-0.578,-0.889,0.0
10.764,-0.551,-0.905,0.0
15.028,-0.772,-0.843,0.0
13.761,-0.71,-0.851,0.0
12.802,-0.664,-0.865,0.0
12.024,-0.627,-0.882,0.0
11.313,-0.594,-0.895,0.0
10.593,-0.559,-0.899,0.0
14.856,-0.786,-0.846,0.0
13.651,-0.726,-0.855,0.0
12.669,-0.677,-0.866,0.0
11.901,-0.639,-0.882,0.0
11.237,-0.607,-0.898,0.0
10.588,-0.575,-0.906,0.0
14.666,-0.798,-0.846,0.0
13.558,-0.742,-0.859,0.0
12.599,-0.693,-0.87,0.0
11.852,-0.655,-0.888,0.0
11.178,-0.621,-0.901,0.0
10.513,-0.587,-0.908,0.0
14.542,-0.814,-0.849,0.0
13.336,-0.751,-0.854,0.0
12.499,-0.707,-0.872,0.0
11.766,-0.669,-0.889,0.0
11.1,-0.634,-0.902,0.0
10.442,-0.6,-0.909,0.0
14.386,-0.828,-0.849,0.0
13.268,-0.768,-0.859,0.0
12.435,-0.723,-0.876,0.0
11.695,-0.683,-0.892,0.0
10.998,-0.646,-0.901,0.0
10.401,-0.614,-0.912,0.0
14.295,-0.845,-0.853,0.0
13.169,-0.782,-0.861,0.0
12.35,-0.737,-0.877,0.0
11.612,-0.697,-0.892,0.0
10.965,-0.661,-0.905,0.0
10.301,-0.624,-0.909,0.0
14.244,-0.864,-0.858,0.0
13.105,-0.799,-0.864,0.0
12.3,-0.753,-0.881,0.0
11.55,-0.711,-0.894,0.0
10.861,-0.671,-0.903,0.0
10.319,-0.641,-0.916,0.0
14.035,-0.873,-0.853,0.0
13.009,-0.813,-0.865,0.0
12.216,-0.767,-0.881,0.0
11.411,-0.72,-0.889,0.0
10.806,-0.685,-0.904,0.0
10.217,-0.651,-0.913,0.0
13.99,-0.892,-0.857,0.0
12.941,-0.829,-0.866,0.0
12.163,-0.783,-0.883,0.0
11.405,-0.737,-0.894,0.0
10.747,-0.698,-0.904,0.0
10.169,-0.663,-0.913,0.0
13.881,-0.907,-0.857,0.0
12.861,-0.844,-0.867,0.0
12.104,-0.797,-0.884,0.0
11.268,-0.746,-0.888,0.0
10.685,-0.71,-0.903,0.0
10.115,-0.675,-0.912,0.0
13.836,-0.925,-0.86,0.0
12.787,-0.858,-0.867,0.0
12.06,-0.813,-0.886,0.0
11.29,-0.765,-0.895,0.0
10.684,-0.727,-0.907,0.0
10.076,-0.688,-0.913,0.0
13.722,-0.938,-0.858,0.0
12.776,-0.877,-0.871,0.0
12.015,-0.829,-0.887,0.0
11.278,-0.781,-0.897,0.0
10.616,-0.738,-0.905,0.0
10.114,-0.706,-0.92,0.0
13.695,-0.957,-0.861,0.0
12.735,-0.894,-0.872,0.0
12.001,-0.846,-0.89,0.0
11.246,-0.796,-0.898,0.0
10.56,-0.751,-0.903,0.0
10.056,-0.718,-0.917,0.0
13.625,-0.973,-0.86,0.0
12.657,-0.908,-0.87,0.0
11.934,-0.859,-0.888,0.0
11.219,-0.811,-0.899,0.0
10.556,-0.766,-0.906,0.0
10.001,-0.729,-0.915,0.0
13.601,-0.992,-0.862,0.0
12.671,-0.928,-0.874,0.0
11.902,-0.875,-0.888,0.0
11.226,-0.828,-0.902,0.0
10.636,-0.788,-0.915,0.0
10.003,-0.744,-0.917,0.0
13.517,-1.006,-0.859,0.0
12.622,-0.943,-0.873,0.0
11.894,-0.892,-0.89,0.0
11.146,-0.839,-0.898,0.0
10.546,-0.797,-0.909,0.0
9.952,-0.756,-0.914,0.0
13.557,-1.029,-0.864,0.0
12.555,-0.957,-0.87,0.0
11.842,-0.906,-0.887,0.0
11.176,-0.858,-0.902,0.0
10.534,-0.812,-0.909,0.0
9.938,-0.769,-0.914,0.0
13.526,-1.047,-0.863,0.0
12.558,-0.976,-0.872,0.0
11.858,-0.925,-0.89,0.0
11.115,-0.87,-0.898,0.0
10.526,-0.827,-0.909,0.0
9.953,-0.785,-0.916,0.0
13.558,-1.069,-0.866,0.0
12.524,-0.991,-0.87,0.0
11.854,-0.942,-0.89,0.0
11.146,-0.889,-0.901,0.0
10.532,-0.843,-0.91,0.0
9.973,-0.801,-0.918,0.0
13.507,-1.085,-0.863,0.0
12.564,-1.013,-0.874,0.0
11.836,-0.957,-0.889,0.0
11.081,-0.9,-0.896,0.0
10.597,-0.863,-0.916,0.0
9.971,-0.815,-0.918,0.0
13.455,-1.1,-0.86,0.0
12.587,-1.032,-0.875,0.0
11.726,-0.965,-0.88,0.0
11.038,-0.912,-0.892,0.0
10.608,-0.879,-0.917,0.0
9.97,-0.829,-0.917,0.0
13.5,-1.123,-0.862,0.0
12.622,-1.053,-0.876,0.0
11.819,-0.989,-0.887,0.0
11.074,-0.93,-0.894,0.0
10.568,-0.891,-0.912,0.0
9.964,-0.843,-0.916,0.0
13.557,-1.146,-0.864,0.0
12.532,-1.063,-0.869,0.0
11.909,-1.013,-0.892,0.0
11.096,-0.947,-0.894,0.0
10.537,-0.903,-0.908,0.0
9.989,-0.859,-0.917,0.0
13.661,-1.174,-0.869,0.0
12.593,-1.085,-0.871,0.0
11.962,-1.034,-0.894,0.0
11.144,-0.966,-0.896,0.0
10.56,-0.919,-0.908,0.0
10.039,-0.876,-0.92,0.0
13.733,-1.198,-0.871,0.0
12.652,-1.107,-0.873,0.0
11.886,-1.043,-0.886,0.0
11.175,-0.984,-0.897,0.0
10.59,-0.936,-0.909,0.0
10.04,-0.89,-0.918,0.0
13.743,-1.217,-0.869,0.0
12.624,-1.121,-0.868,0.0
11.979,-1.067,-0.89,0.0
11.183,-0.999,-0.895,0.0
10.648,-0.955,-0.911,0.0
10.066,-0.905,-0.918,0.0
13.744,-1.235,-0.866,0.0
12.729,-1.147,-0.872,0.0
12.035,-1.088,-0.891,0.0
11.144,-1.011,-0.888,0.0
10.666,-0.97,-0.91,0.0
10.135,-0.925,-0.921,0.0
13.812,-1.259,-0.866,0.0
12.777,-1.168,-0.872,0.0
12.032,-1.103,-0.887,0.0
11.273,-1.036,-0.895,0.0
10.722,-0.989,-0.911,0.0
10.094,-0.933,-0.914,0.0
13.881,-1.282,-0.866,0.0
12.82,-1.188,-0.87,0.0
12.129,-1.127,-0.89,0.0
11.348,-1.057,-0.897,0.0
10.798,-1.009,-0.914,0.0
10.223,-0.958,-0.922,0.0
13.973,-1.308,-0.866,0.0
12.836,-1.205,-0.866,0.0
12.16,-1.145,-0.888,0.0
11.318,-1.069,-0.89,0.0
10.798,-1.022,-0.909,0.0
10.173,-0.966,-0.913,0.0
14.068,-1.334,-0.866,0.0
12.964,-1.233,-0.87,0.0
12.26,-1.169,-0.89,0.0
11.378,-1.088,-0.89,0.0
10.828,-1.038,-0.907,0.0
10.284,-0.989,-0.918,0.0
14.156,-1.359,-0.865,0.0
13.092,-1.26,-0.872,0.0
12.307,-1.188,-0.888,0.0
11.446,-1.108,-0.89,0.0
10.927,-1.06,-0.91,0.0
10.274,-0.999,-0.913,0.0
14.246,-1.384,-0.864,0.0
13.182,-1.284,-0.872,0.0
12.376,-1.209,-0.887,0.0
11.555,-1.131,-0.893,0.0
10.948,-1.075,-0.906,0.0
10.377,-1.021,-0.916,0.0
14.366,-1.412,-0.864,0.0
13.237,-1.304,-0.869,0.0
12.427,-1.227,-0.884,0.0
11.685,-1.157,-0.896,0.0
11.016,-1.093,-0.906,0.0
10.49,-1.044,-0.921,0.0
14.441,-1.435,-0.86,0.0
13.373,-1.332,-0.87,0.0
12.594,-1.257,-0.889,0.0
11.783,-1.179,-0.897,0.0
11.076,-1.111,-0.904,0.0
10.501,-1.056,-0.915,0.0
14.558,-1.462,-0.859,0.0
13.543,-1.363,-0.873,0.0
12.663,-1.278,-0.886,0.0
11.864,-1.2,-0.896,0.0
11.121,-1.127,-0.901,0.0
10.605,-1.078,-0.918,0.0
14.739,-1.496,-0.86,0.0
13.664,-1.39,-0.872,0.0
12.686,-1.293,-0.879,0.0
11.972,-1.223,-0.897,0.0
11.163,-1.143,-0.897,0.0
10.662,-1.094,-0.916,0.0
14.862,-1.523,-0.858,0.0
13.804,-1.417,-0.872,0.0
12.864,-1.324,-0.883,0.0
12.019,-1.239,-0.892,0.0
11.282,-1.166,-0.899,0.0
10.745,-1.113,-0.915,0.0
15.036,-1.555,-0.857,0.0
13.941,-1.445,-0.871,0.0
12.954,-1.345,-0.88,0.0
12.113,-1.261,-0.89,0.0
11.423,-1.191,-0.902,0.0
10.801,-1.129,-0.912,0.0
15.212,-1.588,-0.856,0.0
14.15,-1.48,-0.874,0.0
12.93,-1.355,-0.869,0.0
12.173,-1.278,-0.886,0.0
11.543,-1.214,-0.903,0.0
10.844,-1.143,-0.908,0.0
15.36,-1.617,-0.853,0.0
14.245,-1.502,-0.869,0.0
13.015,-1.375,-0.865,0.0
12.357,-1.308,-0.89,0.0
11.562,-1.226,-0.896,0.0
10.968,-1.166,-0.91,0.0
15.563,-1.652,-0.853,0.0
14.32,-1.522,-0.862,0.0
13.3,-1.417,-0.873,0.0
12.513,-1.335,-0.891,0.0
11.714,-1.252,-0.898,0.0
11.038,-1.182,-0.907,0.0
15.739,-1.683,-0.85,0.0
14.543,-1.558,-0.864,0.0
13.517,-1.451,-0.876,0.0
12.614,-1.356,-0.888,0.0
11.792,-1.27,-0.894,0.0
11.142,-1.202,-0.906,0.0
16.003,-1.724,-0.85,0.0
14.782,-1.595,-0.866,0.0
13.644,-1.475,-0.873,0.0
12.762,-1.382,-0.887,0.0
11.875,-1.288,-0.89,0.0
11.178,-1.215,-0.899,0.0
16.1,-1.747,-0.842,0.0
14.999,-1.63,-0.865,0.0
13.882,-1.511,-0.876,0.0
12.87,-1.403,-0.883,0.0
12.104,-1.322,-0.897,0.0
11.296,-1.236,-0.898,0.0
16.345,-1.785,-0.839,0.0
15.155,-1.658,-0.86,0.0
14.083,-1.543,-0.876,0.0
13.001,-1.426,-0.88,0.0
12.258,-1.347,-0.897,0.0
11.412,-1.256,-0.897,0.0
16.542,-1.818,-0.834,0.0
15.353,-1.69,-0.858,0.0
14.197,-1.565,-0.87,0.0
13.161,-1.453,-0.879,0.0
12.319,-1.362,-0.89,0.0
11.542,-1.278,-0.896,0.0
16.713,-1.848,-0.827,0.0
15.58,-1.725,-0.855,0.0
14.407,-1.597,-0.869,0.0
13.321,-1.478,-0.877,0.0
12.561,-1.396,-0.895,0.0
11.662,-1.298,-0.894,0.0
17.097,-1.9,-0.83,0.0
15.772,-1.755,-0.85,0.0
14.607,-1.627,-0.867,0.0
13.593,-1.517,-0.881,0.0
12.712,-1.42,-0.893,0.0
11.871,-1.328,-0.898,0.0
17.331,-1.936,-0.824,0.0
16.005,-1.79,-0.847,0.0
14.82,-1.659,-0.864,0.0
13.765,-1.543,-0.879,0.0
12.837,-1.441,-0.889,0.0
12.025,-1.351,-0.898,0.0
17.53,-1.967,-0.816,0.0
16.298,-1.831,-0.846,0.0
15.087,-1.697,-0.865,0.0
13.963,-1.572,-0.877,0.0
12.961,-1.461,-0.884,0.0
12.187,-1.375,-0.897,0.0
17.703,-1.995,-0.805,0.0
16.611,-1.874,-0.845,0.0
15.306,-1.728,-0.861,0.0
14.096,-1.593,-0.871,0.0
13.118,-1.484,-0.881,0.0
12.346,-1.398,-0.896,0.0
18.149,-2.053,-0.806,0.0
16.848,-1.908,-0.839,0.0
15.534,-1.76,-0.857,0.0
14.291,-1.621,-0.867,0.0
13.233,-1.503,-0.874,0.0
12.525,-1.424,-0.895,0.0
18.474,-2.097,-0.801,0.0
17.237,-1.958,-0.84,0.0
15.799,-1.796,-0.855,0.0
14.569,-1.658,-0.868,0.0
13.628,-1.552,-0.886,0.0
12.704,-1.448,-0.894,0.0
19.324,-2.2,-0.817,0.0
17.3,-1.971,-0.824,0.0
16.055,-1.831,-0.851,0.0
14.849,-1.694,-0.869,0.0
13.83,-1.58,-0.883,0.0
12.847,-1.469,-0.89,0.0
19.728,-2.252,-0.812,0.0
17.537,-2.003,-0.816,0.0
16.234,-1.856,-0.843,0.0
15.061,-1.723,-0.864,0.0
14.025,-1.606,-0.88,0.0
12.96,-1.485,-0.883,0.0
20.001,-2.288,-0.801,0.0
17.931,-2.053,-0.814,0.0
16.429,-1.882,-0.834,0.0
15.32,-1.756,-0.862,0.0
14.174,-1.626,-0.873,0.0
13.159,-1.51,-0.881,0.0
20.23,-2.319,-0.787,0.0
18.28,-2.097,-0.809,0.0
16.863,-1.935,-0.837,0.0
15.571,-1.788,-0.858,0.0
14.411,-1.656,-0.871,0.0
13.465,-1.548,-0.886,0.0
20.468,-2.35,-0.773,0.0
18.784,-2.157,-0.81,0.0
17.284,-1.986,-0.838,0.0
15.822,-1.819,-0.853,0.0
14.722,-1.693,-0.873,0.0
13.66,-1.572,-0.883,0.0
20.942,-2.407,-0.767,0.0
19.271,-2.216,-0.808,0.0
17.385,-1.999,-0.822,0.0
16.134,-1.856,-0.851,0.0
14.962,-1.722,-0.869,0.0
13.869,-1.597,-0.88,0.0
21.666,-2.492,-0.767,0.0
19.624,-2.258,-0.8,0.0
17.687,-2.035,-0.816,0.0
16.479,-1.897,-0.85,0.0
15.213,-1.752,-0.866,0.0
14.092,-1.623,-0.877,0.0
22.184,-2.552,-0.759,0.0
20.181,-2.322,-0.798,0.0
18.209,-2.096,-0.818,0.0
16.794,-1.933,-0.846,0.0
15.429,-1.777,-0.86,0.0
14.309,-1.648,-0.874,0.0
0.0,0.0,0.0,0.0
32.199,-3.497,-0.601,0.0
27.939,-3.03,-0.67,0.0
24.588,-2.663,-0.723,0.0
21.948,-2.374,-0.762,0.0
19.959,-2.156,-0.799,0.0
0.0,0.0,0.0,0.0
0.0,0.0,0.0,0.0
0.0,0.0,0.0,0.0
25.385,-2.729,-0.716,0.0
22.698,-2.436,-0.761,0.0
20.409,-2.188,-0.793,0.0
41.037,-4.397,-0.449,0.0
34.956,-3.739,-0.568,0.0
29.648,-3.167,-0.639,0.0
25.894,-2.761,-0.699,0.0
23.214,-2.472,-0.75,0.0
20.806,-2.212,-0.783,0.0
42.427,-4.509,-0.413,1.0
0.0,0.0,0.0,0.0
30.313,-3.211,-0.617,0.0
26.642,-2.817,-0.687,0.0
23.754,-2.508,-0.739,0.0
21.029,-2.217,-0.767,0.0
0.0,0.0,0.0,0.0
36.873,-3.878,-0.512,0.0
0.0,0.0,0.0,0.0
27.745,-2.908,-0.683,0.0
24.317,-2.544,-0.728,0.0
22.053,-2.304,-0.778,0.0
0.0,0.0,0.0,0.0
0.0,0.0,0.0,0.0
0.0,0.0,0.0,0.0
28.467,-2.956,-0.668,0.0
24.49,-2.538,-0.705,0.0
22.445,-2.322,-0.766,0.0
0.0,0.0,0.0,0.0
39.661,-4.093,-0.458,0.0
0.0,0.0,0.0,0.0
29.013,-2.982,-0.647,0.0
25.375,-2.604,-0.701,0.0
22.752,-2.33,-0.75,0.0
0.0,0.0,0.0,0.0
0.0,0.0,0.0,0.0
0.0,0.0,0.0,0.0
29.907,-3.043,-0.633,0.0
26.787,-2.72,-0.71,0.0
23.424,-2.374,-0.746,0.0
0.0,0.0,0.0,0.0
42.391,-4.285,-0.394,0.0
35.991,-3.63,-0.526,0.0
30.663,-3.086,-0.615,0.0
27.147,-2.726,-0.689,0.0
23.984,-2.403,-0.737,0.0
54.651,-5.474,-0.156,0.0
0.0,0.0,0.0,0.0
0.0,0.0,0.0,0.0
0.0,0.0,0.0,0.0
27.712,-2.751,-0.673,0.0
24.274,-2.404,-0.719,0.0
0.0,0.0,0.0,0.0
0.0,0.0,0.0,0.0
0.0,0.0,0.0,0.0
0.0,0.0,0.0,0.0
28.383,-2.783,-0.658,0.0
24.997,-2.446,-0.714,0.0
0.0,0.0,0.0,0.0
0.0,0.0,0.0,0.0
0.0,0.0,0.0,0.0
32.777,-3.182,-0.551,0.0
29.134,-2.821,-0.645,0.0
26.046,-2.516,-0.716,0.0
0.0,0.0,0.0,0.0
0.0,0.0,0.0,0.0
0.0,0.0,0.0,0.0
35.032,-3.357,-0.552,0.0
0.0,0.0,0.0,0.0
26.466,-2.523,-0.7,0.0
0.0,0.0,0.0,0.0
0.0,0.0,0.0,0.0
0.0,0.0,0.0,0.0
0.0,0.0,0.0,0.0
31.472,-2.967,-0.632,0.0
0.0,0.0,0.0,0.0
90.414,-8.498,0.216,10.0
0.0,0.0,0.0,0.0
0.0,0.0,0.0,0.0
0.0,0.0,0.0,0.0
32.18,-2.99,-0.614,0.0
27.581,-2.556,-0.674,0.0
90.39,-8.373,0.306,22.0
0.0,0.0,0.0,0.0
0.0,0.0,0.0,0.0
38.56,-3.54,-0.491,0.0
0.0,0.0,0.0,0.0
0.0,0.0,0.0,0.0
90.401,-8.249,0.394,12.0
0.0,0.0,0.0,0.0
0.0,0.0,0.0,0.0
39.221,-3.545,-0.463,0.0
0.0,0.0,0.0,0.0
0.0,0.0,0.0,0.0
90.406,-8.119,0.48,33.0
0.0,0.0,0.0,0.0
0.0,0.0,0.0,0.0
39.616,-3.524,-0.43,0.0
33.992,-3.014,-0.551,0.0
29.591,-2.615,-0.638,0.0
90.412,-7.987,0.565,34.0
0.0,0.0,0.0,0.0
0.0,0.0,0.0,0.0
42.012,-3.675,-0.417,0.0
0.0,0.0,0.0,0.0
0.0,0.0,0.0,0.0
90.393,-7.85,0.645,39.0
90.398,-7.824,0.16,6.0
0.0,0.0,0.0,0.0
0.0,0.0,0.0,0.0
35.988,-3.083,-0.519,0.0
30.968,-2.643,-0.613,0.0
90.396,-7.712,0.724,32.0
90.409,-7.685,0.239,16.0
0.0,0.0,0.0,0.0
44.64,-3.767,-0.366,0.0
0.0,0.0,0.0,0.0
32.439,-2.719,-0.614,0.0
90.422,-7.574,0.801,49.0
90.411,-7.544,0.315,38.0
0.0,0.0,0.0,0.0
0.0,0.0,0.0,0.0
38.719,-3.195,-0.493,0.0
32.452,-2.668,-0.588,0.0
100.069,-8.222,0.969,13.0
99.977,-8.183,0.429,7.0
0.0,0.0,0.0,0.0
0.0,0.0,0.0,0.0
0.0,0.0,0.0,0.0
32.946,-2.656,-0.57,0.0
100.075,-8.061,1.047,14.0
100.064,-8.028,0.508,10.0
0.0,0.0,0.0,0.0
0.0,0.0,0.0,0.0
41.505,-3.29,-0.463,1.0
33.477,-2.643,-0.554,0.0
100.101,-7.898,1.124,14.0
100.074,-7.862,0.584,12.0
0.0,0.0,0.0,0.0
0.0,0.0,0.0,0.0
41.725,-3.238,-0.435,1.0
0.0,0.0,0.0,0.0
100.124,-7.731,1.198,13.0
100.07,-7.693,0.657,12.0
0.0,0.0,0.0,0.0
0.0,0.0,0.0,0.0
42.404,-3.218,-0.412,0.0
35.571,-2.688,-0.537,0.0
100.118,-7.557,1.269,12.0
100.099,-7.522,0.727,11.0
98.936,-7.402,0.185,2.0
53.749,-4.003,-0.195,0.0
0.0,0.0,0.0,0.0
36.523,-2.696,-0.527,0.0
100.13,-7.385,1.336,10.0
100.067,-7.344,0.795,12.0
98.882,-7.224,0.25,8.0
0.0,0.0,0.0,0.0
0.0,0.0,0.0,0.0
36.932,-2.661,-0.509,0.0
100.115,-7.207,1.4,8.0
100.07,-7.169,0.858,12.0
98.951,-7.054,0.313,12.0
0.0,0.0,0.0,0.0
0.0,0.0,0.0,0.0
37.574,-2.64,-0.494,0.0
100.08,-7.024,1.46,7.0
100.08,-6.99,0.919,8.0
99.132,-6.888,0.373,12.0
0.0,0.0,0.0,0.0
49.805,-3.427,-0.357,0.0
0.0,0.0,0.0,0.0
100.09,-6.844,1.519,3.0
108.684,-7.392,1.061,6.0
99.239,-6.715,0.43,2.0
0.0,0.0,0.0,0.0
0.0,0.0,0.0,0.0
0.0,0.0,0.0,0.0
0.0,0.0,0.0,0.0
99.78,-6.604,1.027,6.0
99.737,-6.565,0.485,12.0
0.0,0.0,0.0,0.0
0.0,0.0,0.0,0.0
41.092,-2.662,-0.473,0.0
125.228,-8.098,2.033,25.0
125.247,-8.054,1.352,29.0
108.759,-6.955,0.584,2.0
0.0,0.0,0.0,0.0
0.0,0.0,0.0,0.0
0.0,0.0,0.0,0.0
148.096,-9.298,2.475,11.0
148.14,-9.247,1.67,13.0
109.314,-6.785,0.638,2.0
0.0,0.0,0.0,0.0
0.0,0.0,0.0,0.0
42.224,-2.576,-0.446,0.0
148.532,-9.045,2.547,23.0
149.857,-9.07,1.756,16.0
0.0,0.0,0.0,0.0
0.0,0.0,0.0,0.0
0.0,0.0,0.0,0.0
41.986,-2.481,-0.426,0.0
148.84,-8.776,2.615,19.0
149.739,-8.774,1.814,9.0
140.816,-8.2,0.939,3.0
0.0,0.0,0.0,0.0
0.0,0.0,0.0,0.0
0.0,0.0,0.0,0.0
140.676,-8.019,2.525,27.0
140.704,-7.969,1.757,7.0
101.483,-5.712,0.714,102.0
101.566,-5.679,0.15,2.0
0.0,0.0,0.0,0.0
0.0,0.0,0.0,0.0
0.0,0.0,0.0,0.0
101.525,-5.551,1.302,16.0
101.421,-5.507,0.747,7.0
0.0,0.0,0.0,0.0
0.0,0.0,0.0,0.0
0.0,0.0,0.0,0.0
0.0,0.0,0.0,0.0
101.482,-5.346,1.332,33.0
0.0,0.0,0.0,0.0
0.0,0.0,0.0,0.0
0.0,0.0,0.0,0.0
0.0,0.0,0.0,0.0
103.989,-5.308,1.962,1.0
0.0,0.0,0.0,0.0
101.523,-5.105,0.804,80.0
101.667,-5.076,0.239,1.0
0.0,0.0,0.0,0.0
0.0,0.0,0.0,0.0
0.0,0.0,0.0,0.0
101.36,-4.93,1.381,1.0
101.539,-4.901,0.827,150.0
0.0,0.0,0.0,0.0
0.0,0.0,0.0,0.0
0.0,0.0,0.0,0.0
0.0,0.0,0.0,0.0
0.0,0.0,0.0,0.0
101.522,-4.694,0.845,53.0
0.0,0.0,0.0,0.0
0.0,0.0,0.0,0.0
0.0,0.0,0.0,0.0
0.0,0.0,0.0,0.0
101.527,-4.525,1.418,58.0
0.0,0.0,0.0,0.0
0.0,0.0,0.0,0.0
0.0,0.0,0.0,0.0
0.0,0.0,0.0,0.0
0.0,0.0,0.0,0.0
101.527,-4.318,1.429,150.0
101.47,-4.278,0.871,150.0
101.508,-4.241,0.303,1.0
0.0,0.0,0.0,0.0
0.0,0.0,0.0,0.0
162.261,-6.626,3.191,9.0
0.0,0.0,0.0,0.0
0.0,0.0,0.0,0.0
0.0,0.0,0.0,0.0
0.0,0.0,0.0,0.0
0.0,0.0,0.0,0.0
162.287,-6.288,3.199,20.0
162.162,-6.221,2.303,10.0
0.0,0.0,0.0,0.0
0.0,0.0,0.0,0.0
0.0,0.0,0.0,0.0
46.269,-1.706,-0.366,0.0
162.224,-5.949,3.199,21.0
162.076,-5.881,2.303,23.0
162.339,-5.832,1.412,6.0
0.0,0.0,0.0,0.0
0.0,0.0,0.0,0.0
0.0,0.0,0.0,0.0
162.257,-5.613,3.196,19.0
162.165,-5.548,2.298,23.0
162.009,-5.482,1.403,6.0
0.0,0.0,0.0,0.0
0.0,0.0,0.0,0.0
45.137,-1.476,-0.361,0.0
162.279,-5.271,3.186,15.0
161.989,-5.201,2.285,18.0
0.0,0.0,0.0,0.0
0.0,0.0,0.0,0.0
0.0,0.0,0.0,0.0
0.0,0.0,0.0,0.0
168.274,-5.115,3.286,6.0
161.886,-4.861,2.266,24.0
160.683,-4.763,1.36,4.0
0.0,0.0,0.0,0.0
0.0,0.0,0.0,0.0
0.0,0.0,0.0,0.0
178.057,-5.037,3.451,8.0
161.904,-4.519,2.242,24.0
160.712,-4.427,1.336,5.0
0.0,0.0,0.0,0.0
0.0,0.0,0.0,0.0
0.0,0.0,0.0,0.0
170.444,-4.463,3.273,6.0
161.921,-4.181,2.213,22.0
160.642,-4.088,1.305,6.0
0.0,0.0,0.0,0.0
0.0,0.0,0.0,0.0
0.0,0.0,0.0,0.0
170.521,-4.106,3.238,6.0
162.049,-3.84,2.178,23.0
160.739,-3.752,1.269,16.0
0.0,0.0,0.0,0.0
0.0,0.0,0.0,0.0
0.0,0.0,0.0,0.0
170.324,-3.74,3.191,7.0
169.588,-3.662,2.235,15.0
160.623,-3.41,1.225,12.0
0.0,0.0,0.0,0.0
0.0,0.0,0.0,0.0
0.0,0.0,0.0,0.0
170.269,-3.38,3.14,5.0
163.256,-3.18,2.103,29.0
160.678,-3.07,1.176,24.0
0.0,0.0,0.0,0.0
0.0,0.0,0.0,0.0
0.0,0.0,0.0,0.0
170.37,-3.018,3.085,9.0
163.088,-2.828,2.045,30.0
19.758,-0.335,0.137,0.0
0.0,0.0,0.0,0.0
0.0,0.0,0.0,0.0
42.425,-0.674,-0.416,0.0
169.787,-2.651,3.012,11.0
19.762,-0.301,0.24,4.0
19.739,-0.293,0.13,27.0
0.0,0.0,0.0,0.0
0.0,0.0,0.0,0.0
0.0,0.0,0.0,0.0
19.763,-0.267,0.342,8.0
19.751,-0.259,0.232,17.0
19.747,-0.252,0.122,10.0
0.0,0.0,0.0,0.0
0.0,0.0,0.0,0.0
0.0,0.0,0.0,0.0
19.756,-0.225,0.333,9.0
19.759,-0.218,0.223,1.0
160.711,-1.72,0.92,9.0
0.0,0.0,0.0,0.0
19.813,-0.197,-0.109,0.0
19.777,-0.19,-0.22,11.0
19.738,-0.183,0.323,0.0
169.481,-1.517,1.833,6.0
160.709,-1.38,0.84,5.0
19.773,-0.163,-0.009,1.0
19.74,-0.155,-0.119,13.0
19.74,-0.148,-0.229,17.0
19.709,-0.142,0.313,0.0
19.742,-0.135,0.203,3.0
19.744,-0.129,0.092,7.0
19.713,-0.121,-0.019,12.0
19.714,-0.114,-0.129,16.0
19.741,-0.108,-0.24,17.0
19.682,-0.101,0.301,10.0
19.708,-0.094,0.191,15.0
19.697,-0.087,0.081,13.0
19.692,-0.08,-0.03,17.0
19.716,-0.073,-0.141,16.0
19.752,-0.067,-0.252,15.0
19.647,-0.06,0.289,10.0
19.672,-0.053,0.179,11.0
19.699,-0.046,0.069,15.0
19.703,-0.039,-0.042,15.0
19.755,-0.033,-0.153,11.0
36.976,-0.049,-0.494,0.0
19.629,-0.019,0.276,14.0
19.723,-0.012,0.167,5.0
19.788,-0.006,0.057,4.0
19.737,0.0,-0.055,9.0
19.771,0.007,-0.166,1.0
19.764,0.013,-0.277,4.0
19.63,0.02,0.264,14.0
19.755,0.027,0.154,15.0
19.75,0.034,0.043,18.0
19.754,0.04,-0.069,30.0
19.766,0.047,-0.18,28.0
19.769,0.053,-0.291,47.0
19.632,0.06,0.25,15.0
19.677,0.067,0.14,13.0
19.752,0.074,0.029,23.0
19.75,0.08,-0.083,2.0
19.782,0.087,-0.194,0.0
0.0,0.0,0.0,0.0
19.639,0.1,0.235,12.0
19.653,0.107,0.125,14.0
19.647,0.113,0.014,14.0
19.663,0.12,-0.097,10.0
19.695,0.127,-0.208,0.0
33.897,0.23,-0.549,0.0
19.662,0.14,0.22,16.0
19.651,0.146,0.11,12.0
19.636,0.152,0.0,18.0
19.629,0.159,-0.112,14.0
19.657,0.165,-0.223,15.0
19.665,0.172,-0.334,15.0
19.669,0.179,0.205,13.0
19.681,0.186,0.094,13.0
19.651,0.192,-0.016,13.0
19.622,0.198,-0.129,16.0
19.646,0.205,-0.239,17.0
19.652,0.211,-0.35,15.0
19.766,0.219,0.189,27.0
19.736,0.225,0.077,1.0
19.693,0.231,-0.033,3.0
19.641,0.237,-0.145,16.0
19.651,0.243,-0.256,17.0
19.666,0.25,-0.368,15.0
19.763,0.258,0.172,17.0
0.0,0.0,0.0,0.0
19.698,0.27,-0.05,1.0
19.685,0.276,-0.163,8.0
19.665,0.281,-0.274,14.0
19.691,0.288,-0.386,2.0
160.653,2.411,1.255,10.0
0.0,0.0,0.0,0.0
49.079,0.766,-0.17,0.0
37.197,0.593,-0.343,0.0
34.53,0.561,-0.513,0.0
29.237,0.484,-0.6,0.0
55.17,0.934,0.379,109.0
55.154,0.951,0.067,75.0
0.0,0.0,0.0,0.0
35.713,0.637,-0.363,0.0
30.422,0.552,-0.481,0.0
28.365,0.523,-0.609,0.0
55.186,1.039,0.326,7.0
55.23,1.057,0.013,37.0
0.0,0.0,0.0,0.0
34.107,0.673,-0.38,3.0
29.158,0.584,-0.49,0.0
27.078,0.55,-0.608,1.0
83.171,1.722,0.408,5.0
54.556,1.145,-0.04,1.0
41.371,0.881,-0.265,1.0
33.641,0.726,-0.409,0.0
28.57,0.625,-0.509,1.0
24.444,0.542,-0.574,0.0
76.346,1.722,0.296,2.0
45.537,1.04,-0.08,6.0
39.262,0.909,-0.292,2.0
31.891,0.748,-0.421,0.0
27.357,0.649,-0.516,0.0
23.385,0.562,-0.574,0.0
0.0,0.0,0.0,0.0
0.0,0.0,0.0,0.0
37.547,0.937,-0.319,1.0
30.345,0.766,-0.433,1.0
26.29,0.672,-0.525,1.0
22.31,0.576,-0.572,0.0
40.157,1.052,0.069,157.0
40.135,1.063,-0.158,151.0
36.642,0.981,-0.352,3.0
29.824,0.807,-0.459,1.0
25.71,0.702,-0.541,3.0
21.799,0.602,-0.583,1.0
40.129,1.123,0.024,116.0
40.019,1.131,-0.202,73.0
34.517,0.986,-0.371,1.0
27.645,0.797,-0.456,5.0
24.681,0.719,-0.548,0.0
21.016,0.618,-0.586,0.0
40.13,1.194,-0.021,150.0
40.018,1.202,-0.248,29.0
40.165,1.217,-0.478,2.0
27.845,0.852,-0.492,2.0
23.753,0.733,-0.555,0.0
20.333,0.633,-0.591,0.0
40.131,1.264,-0.069,150.0
39.919,1.268,-0.295,7.0
40.129,1.286,-0.525,2.0
26.882,0.869,-0.507,2.0
22.674,0.739,-0.557,0.0
20.099,0.66,-0.608,1.0
40.125,1.332,-0.117,121.0
40.072,1.341,-0.345,2.0
30.017,1.013,-0.429,1.0
25.948,0.883,-0.521,2.0
22.127,0.758,-0.57,1.0
19.689,0.68,-0.62,3.0
40.07,1.398,-0.166,45.0
40.133,1.41,-0.395,1.0
29.282,1.037,-0.455,2.0
24.87,0.887,-0.53,1.0
21.456,0.771,-0.58,2.0
19.174,0.694,-0.627,3.0
42.297,1.545,-0.228,2.0
33.278,1.225,-0.369,0.0
28.268,1.047,-0.475,2.0
23.759,0.886,-0.537,4.0
20.866,0.784,-0.59,1.0
18.6,0.704,-0.632,3.0
40.149,1.533,-0.269,11.0
32.06,1.232,-0.397,0.0
27.391,1.059,-0.495,7.0
23.49,0.914,-0.561,11.0
19.926,0.78,-0.59,1.0
18.234,0.719,-0.644,3.0
39.704,1.579,-0.317,1.0
30.332,1.213,-0.415,1.0
26.641,1.072,-0.517,3.0
22.46,0.909,-0.566,3.0
19.708,0.803,-0.609,2.0
17.842,0.731,-0.653,3.0
23.639,0.976,-0.22,0.0
23.663,0.983,-0.355,8.0
23.666,0.989,-0.491,34.0
21.455,0.902,-0.569,3.0
19.15,0.81,-0.618,3.0
17.531,0.745,-0.666,2.0
23.641,1.012,-0.252,47.0
23.638,1.018,-0.387,42.0
23.627,1.023,-0.522,33.0
20.946,0.912,-0.584,2.0
18.604,0.814,-0.625,3.0
17.14,0.755,-0.674,2.0
23.618,1.047,-0.284,72.0
23.619,1.052,-0.419,71.0
23.612,1.058,-0.554,36.0
23.657,1.065,-0.693,1.0
18.27,0.827,-0.64,2.0
16.971,0.772,-0.691,2.0
23.62,1.082,-0.317,70.0
23.626,1.088,-0.453,59.0
23.215,1.074,-0.577,5.0
19.632,0.912,-0.603,2.0
17.883,0.835,-0.651,2.0
16.812,0.789,-0.709,2.0
23.646,1.117,-0.351,39.0
23.656,1.122,-0.486,32.0
21.417,1.021,-0.563,1.0
19.002,0.91,-0.61,3.0
17.424,0.838,-0.659,1.0
16.654,0.805,-0.726,1.0
23.655,1.15,-0.385,3.0
23.702,1.157,-0.521,46.0
20.838,1.022,-0.577,1.0
18.538,0.913,-0.622,3.0
17.102,0.846,-0.672,2.0
16.449,0.817,-0.74,1.0
26.858,1.342,-0.476,2.0
23.484,1.179,-0.551,12.0
20.013,1.008,-0.584,2.0
18.191,0.92,-0.637,3.0
16.941,0.861,-0.69,2.0
16.277,0.83,-0.756,1.0
25.748,1.321,-0.494,1.0
22.057,1.136,-0.549,0.0
19.553,1.011,-0.599,3.0
17.834,0.925,-0.65,1.0
16.793,0.875,-0.709,2.0
16.088,0.841,-0.771,1.0
24.585,1.292,-0.508,1.0
21.108,1.114,-0.557,4.0
18.9,1.001,-0.607,3.0
17.271,0.918,-0.655,0.0
16.588,0.885,-0.725,1.0
15.977,0.856,-0.79,3.0
23.761,1.278,-0.526,1.0
20.579,1.111,-0.574,2.0
18.467,1.001,-0.621,3.0
17.055,0.928,-0.673,2.0
16.354,0.893,-0.739,1.0
15.782,0.865,-0.804,0.0
19.863,1.093,-0.47,3.0
19.92,1.099,-0.585,3.0
18.137,1.004,-0.637,2.0
16.902,0.939,-0.692,2.0
16.186,0.903,-0.756,1.0
15.232,0.852,-0.799,0.0
19.752,1.11,-0.497,12.0
19.473,1.098,-0.602,3.0
17.72,1.002,-0.65,1.0
16.721,0.949,-0.711,1.0
16.002,0.911,-0.772,3.0
14.825,0.847,-0.801,0.0
19.738,1.131,-0.527,10.0
18.772,1.079,-0.609,3.0
17.239,0.994,-0.658,1.0
16.497,0.954,-0.727,1.0
15.966,0.926,-0.795,1.0
14.386,0.837,-0.799,0.0
19.716,1.151,-0.557,11.0
18.363,1.076,-0.624,3.0
17.001,0.999,-0.676,2.0
16.306,0.961,-0.744,1.0
15.36,0.908,-0.789,0.0
14.139,0.838,-0.808,0.0
19.656,1.168,-0.586,9.0
18.016,1.074,-0.64,1.0
16.833,1.006,-0.695,1.0
16.064,0.963,-0.758,1.0
15.021,0.903,-0.795,0.0
13.822,0.833,-0.811,0.0
19.141,1.157,-0.601,3.0
17.51,1.062,-0.65,1.0
16.658,1.013,-0.714,1.0
15.966,0.973,-0.778,1.0
14.726,0.9,-0.803,0.0
13.541,0.83,-0.816,0.0
18.564,1.14,-0.612,3.0
17.172,1.058,-0.665,1.0
16.41,1.013,-0.73,1.0
15.522,0.961,-0.781,0.0
14.351,0.891,-0.805,0.0
13.294,0.827,-0.823,0.0
18.224,1.137,-0.63,2.0
16.919,1.058,-0.682,1.0
16.195,1.015,-0.746,1.0
15.191,0.954,-0.789,0.0
13.996,0.882,-0.807,0.0
12.997,0.821,-0.825,0.0
17.674,1.118,-0.639,1.0
16.754,1.062,-0.702,2.0
16.027,1.019,-0.764,1.0
14.873,0.947,-0.796,0.0
13.667,0.873,-0.81,0.0
12.757,0.817,-0.83,0.0
17.332,1.111,-0.654,1.0
16.554,1.064,-0.72,1.0
15.787,1.017,-0.777,0.0
14.46,0.933,-0.797,0.0
13.399,0.867,-0.816,0.0
12.502,0.81,-0.833,0.0
17.033,1.106,-0.669,1.0
16.308,1.061,-0.735,1.0
15.374,1.002,-0.781,0.0
14.141,0.924,-0.802,0.0
13.122,0.859,-0.82,0.0
12.324,0.808,-0.841,0.0
16.826,1.105,-0.688,1.0
16.113,1.06,-0.752,2.0
14.962,0.986,-0.785,0.0
13.768,0.91,-0.803,0.0
12.953,0.858,-0.83,0.0
12.179,0.808,-0.851,0.0
16.653,1.106,-0.708,1.0
15.948,1.061,-0.77,1.0
14.701,0.98,-0.795,0.0
13.499,0.901,-0.809,0.0
12.638,0.846,-0.83,0.0
11.905,0.798,-0.851,0.0
16.429,1.102,-0.725,1.0
15.559,1.046,-0.776,0.0
14.149,0.952,-0.787,0.0
13.276,0.895,-0.817,0.0
12.4,0.838,-0.835,0.0
11.664,0.79,-0.853,0.0
16.176,1.095,-0.74,1.0
15.21,1.032,-0.783,0.0
13.924,0.946,-0.797,0.0
13.044,0.888,-0.824,0.0
12.247,0.835,-0.844,0.0
11.43,0.781,-0.854,0.0
16.014,1.094,-0.758,3.0
14.861,1.017,-0.789,0.0
13.617,0.933,-0.802,0.0
12.745,0.875,-0.825,0.0
12.013,0.826,-0.847,0.0
11.236,0.774,-0.858,0.0
15.798,1.088,-0.773,1.0
14.511,1.001,-0.794,0.0
13.404,0.926,-0.811,0.0
12.542,0.868,-0.832,0.0
11.775,0.816,-0.85,0.0
11.09,0.77,-0.864,0.0
15.446,1.072,-0.781,0.0
14.124,0.981,-0.795,0.0
13.168,0.916,-0.817,0.0
12.345,0.86,-0.839,0.0
11.506,0.803,-0.849,0.0
10.858,0.759,-0.864,0.0
15.017,1.049,-0.783,0.0
13.919,0.973,-0.806,0.0
12.875,0.902,-0.82,0.0
12.149,0.852,-0.845,0.0
11.421,0.802,-0.86,0.0
10.703,0.753,-0.868,0.0
14.684,1.032,-0.789,0.0
13.5,0.95,-0.803,0.0
12.654,0.891,-0.825,0.0
11.903,0.84,-0.846,0.0
11.181,0.79,-0.86,0.0
10.506,0.743,-0.869,0.0
14.383,1.016,-0.795,0.0
13.295,0.94,-0.811,0.0
12.476,0.883,-0.834,0.0
11.603,0.822,-0.843,0.0
10.952,0.777,-0.86,0.0
10.336,0.735,-0.871,0.0
14.051,0.997,-0.798,0.0
13.053,0.927,-0.817,0.0
12.239,0.871,-0.837,0.0
11.416,0.813,-0.848,0.0
10.825,0.772,-0.867,0.0
10.214,0.729,-0.877,0.0
13.686,0.976,-0.799,0.0
12.804,0.914,-0.821,0.0
12.122,0.866,-0.848,0.0
11.321,0.809,-0.858,0.0
10.592,0.758,-0.865,0.0
10.086,0.723,-0.882,0.0
13.424,0.96,-0.805,0.0
12.579,0.901,-0.826,0.0
11.826,0.847,-0.845,0.0
11.007,0.79,-0.852,0.0
10.431,0.749,-0.868,0.0
9.947,0.715,-0.885,0.0
13.236,0.95,-0.814,0.0
12.413,0.891,-0.835,0.0
11.603,0.834,-0.847,0.0
10.872,0.782,-0.858,0.0
10.315,0.743,-0.874,0.0
9.781,0.705,-0.885,0.0
12.922,0.929,-0.814,0.0
12.191,0.877,-0.838,0.0
11.434,0.823,-0.852,0.0
10.773,0.776,-0.867,0.0
10.184,0.735,-0.878,0.0
9.699,0.7,-0.893,0.0
12.738,0.918,-0.822,0.0
12.015,0.866,-0.844,0.0
11.238,0.811,-0.855,0.0
10.556,0.762,-0.865,0.0
10.048,0.726,-0.882,0.0
9.532,0.689,-0.892,0.0
12.594,0.908,-0.831,0.0
11.725,0.846,-0.841,0.0
10.998,0.794,-0.853,0.0
10.358,0.748,-0.864,0.0
9.906,0.716,-0.884,0.0
9.387,0.679,-0.892,0.0
12.395,0.895,-0.836,0.0
11.513,0.831,-0.843,0.0
10.87,0.785,-0.859,0.0
10.283,0.743,-0.873,0.0
9.77,0.707,-0.886,0.0
9.309,0.674,-0.899,0.0
12.179,0.879,-0.84,0.0
11.39,0.822,-0.851,0.0
10.634,0.768,-0.856,0.0
10.113,0.731,-0.874,0.0
9.688,0.7,-0.893,0.0
9.139,0.661,-0.896,0.0
11.973,0.864,-0.843,0.0
11.191,0.807,-0.853,0.0
10.522,0.759,-0.862,0.0
9.979,0.721,-0.877,0.0
9.523,0.688,-0.892,0.0
8.996,0.65,-0.895,0.0
11.631,0.838,-0.835,0.0
10.992,0.792,-0.853,0.0
10.368,0.747,-0.865,0.0
9.84,0.71,-0.879,0.0
9.403,0.678,-0.894,0.0
8.902,0.643,-0.898,0.0
11.496,0.827,-0.842,0.0
10.863,0.782,-0.858,0.0
10.264,0.739,-0.871,0.0
9.748,0.702,-0.884,0.0
9.316,0.671,-0.899,0.0
8.742,0.63,-0.895,0.0
11.433,0.821,-0.854,0.0
10.669,0.766,-0.858,0.0
10.133,0.727,-0.873,0.0
9.665,0.694,-0.89,0.0
9.155,0.657,-0.896,0.0
8.655,0.622,-0.898,0.0
11.246,0.805,-0.855,0.0
10.579,0.757,-0.865,0.0
10.1,0.723,-0.884,0.0
9.537,0.683,-0.891,0.0
9.074,0.65,-0.901,0.0
8.57,0.614,-0.901,0.0
11.035,0.787,-0.854,0.0
10.441,0.745,-0.868,0.0
9.912,0.707,-0.881,0.0
9.42,0.672,-0.893,0.0
8.902,0.635,-0.895,0.0
8.481,0.605,-0.902,0.0
10.925,0.776,-0.859,0.0
10.293,0.731,-0.869,0.0
9.794,0.696,-0.884,0.0
9.344,0.664,-0.898,0.0
8.784,0.624,-0.895,0.0
8.345,0.593,-0.899,0.0
10.812,0.765,-0.865,0.0
10.195,0.721,-0.874,0.0
9.698,0.686,-0.887,0.0
9.185,0.649,-0.895,0.0
8.72,0.617,-0.9,0.0
8.282,0.586,-0.903,0.0
10.621,0.748,-0.863,0.0
10.13,0.713,-0.881,0.0
9.6,0.675,-0.891,0.0
9.071,0.638,-0.895,0.0
8.637,0.607,-0.902,0.0
8.203,0.577,-0.905,0.0
10.491,0.734,-0.865,0.0
9.962,0.697,-0.879,0.0
9.513,0.665,-0.894,0.0
8.946,0.626,-0.894,0.0
8.554,0.598,-0.904,0.0
8.12,0.568,-0.906,0.0
10.357,0.721,-0.867,0.0
9.849,0.685,-0.881,0.0
9.358,0.651,-0.891,0.0
8.884,0.617,-0.898,0.0
8.445,0.587,-0.903,0.0
8.038,0.558,-0.906,0.0
10.294,0.711,-0.874,0.0
9.74,0.673,-0.883,0.0
9.241,0.638,-0.891,0.0
8.74,0.603,-0.894,0.0
8.374,0.578,-0.905,0.0
7.981,0.55,-0.909,0.0
10.161,0.697,-0.874,0.0
9.657,0.662,-0.887,0.0
9.181,0.629,-0.896,0.0
8.654,0.593,-0.896,0.0
8.229,0.563,-0.899,0.0
7.921,0.542,-0.912,0.0
10.104,0.688,-0.881,0.0
9.547,0.65,-0.887,0.0
9.066,0.616,-0.895,0.0
8.598,0.584,-0.899,0.0
8.193,0.556,-0.905,0.0
7.874,0.534,-0.915,0.0
9.983,0.674,-0.882,0.0
9.487,0.64,-0.892,0.0
9.023,0.608,-0.901,0.0
8.547,0.576,-0.904,0.0
8.149,0.549,-0.909,0.0
7.844,0.528,-0.92,0.0
9.863,0.66,-0.882,0.0
9.424,0.63,-0.897,0.0
8.882,0.593,-0.896,0.0
8.449,0.564,-0.902,0.0
8.033,0.536,-0.904,0.0
7.787,0.519,-0.922,0.0
9.793,0.649,-0.886,0.0
9.299,0.616,-0.894,0.0
8.784,0.581,-0.896,0.0
8.352,0.552,-0.901,0.0
7.988,0.528,-0.908,0.0
7.758,0.512,-0.927,0.0
9.703,0.637,-0.887,0.0
9.202,0.603,-0.894,0.0
8.699,0.57,-0.896,0.0
8.269,0.541,-0.9,0.0
7.954,0.52,-0.912,0.0
7.692,0.502,-0.926,0.0
9.608,0.624,-0.888,0.0
9.147,0.593,-0.898,0.0
8.661,0.561,-0.9,0.0
8.268,0.535,-0.908,0.0
7.92,0.512,-0.915,0.0
7.636,0.493,-0.927,0.0
9.578,0.615,-0.894,0.0
9.087,0.583,-0.901,0.0
8.618,0.552,-0.904,0.0
8.164,0.522,-0.904,0.0
7.895,0.504,-0.92,0.0
7.616,0.486,-0.931,0.0
9.495,0.602,-0.895,0.0
8.974,0.568,-0.897,0.0
8.561,0.542,-0.905,0.0
8.118,0.513,-0.906,0.0
7.822,0.494,-0.918,0.0
7.57,0.477,-0.932,0.0
9.41,0.59,-0.895,0.0
8.931,0.559,-0.901,0.0
8.482,0.53,-0.904,0.0
8.11,0.506,-0.912,0.0
7.787,0.485,-0.921,0.0
7.52,0.468,-0.933,0.0
9.371,0.579,-0.899,0.0
8.839,0.546,-0.899,0.0
8.418,0.519,-0.904,0.0
8.034,0.495,-0.91,0.0
7.753,0.477,-0.923,0.0
7.475,0.459,-0.933,0.0
9.308,0.568,-0.901,0.0
8.765,0.534,-0.898,0.0
8.36,0.508,-0.905,0.0
8.004,0.486,-0.913,0.0
7.715,0.468,-0.925,0.0
7.411,0.449,-0.931,0.0
9.222,0.555,-0.899,0.0
8.738,0.525,-0.902,0.0
8.321,0.499,-0.907,0.0
7.96,0.476,-0.914,0.0
7.693,0.46,-0.928,0.0
7.395,0.441,-0.934,0.0
9.196,0.545,-0.903,0.0
8.687,0.514,-0.903,0.0
8.305,0.49,-0.911,0.0
7.913,0.466,-0.914,0.0
7.635,0.449,-0.926,0.0
7.362,0.432,-0.935,0.0
9.097,0.531,-0.9,0.0
8.646,0.503,-0.904,0.0
8.235,0.478,-0.909,0.0
7.883,0.457,-0.916,0.0
7.633,0.442,-0.931,0.0
7.319,0.423,-0.935,0.0
9.061,0.52,-0.902,0.0
8.6,0.492,-0.905,0.0
8.167,0.467,-0.906,0.0
7.839,0.447,-0.916,0.0
7.591,0.432,-0.93,0.0
7.293,0.414,-0.936,0.0
9.03,0.509,-0.904,0.0
8.576,0.483,-0.908,0.0
8.125,0.456,-0.907,0.0
7.82,0.438,-0.918,0.0
7.545,0.422,-0.929,0.0
7.263,0.405,-0.936,0.0
8.936,0.495,-0.9,0.0
8.547,0.473,-0.909,0.0
8.151,0.45,-0.914,0.0
7.771,0.428,-0.916,0.0
7.531,0.414,-0.931,0.0
7.244,0.397,-0.938,0.0
8.875,0.483,-0.898,0.0
8.465,0.46,-0.905,0.0
8.083,0.438,-0.91,0.0
7.779,0.42,-0.921,0.0
7.507,0.405,-0.932,0.0
7.249,0.39,-0.942,0.0
8.908,0.476,-0.906,0.0
8.456,0.451,-0.908,0.0
8.031,0.427,-0.908,0.0
7.735,0.41,-0.92,0.0
7.483,0.396,-0.933,0.0
7.234,0.382,-0.943,0.0
8.869,0.464,-0.906,0.0
8.418,0.44,-0.908,0.0
8.05,0.419,-0.914,0.0
7.748,0.402,-0.925,0.0
7.466,0.387,-0.934,0.0
7.239,0.374,-0.947,0.0
8.83,0.453,-0.905,0.0
8.383,0.429,-0.907,0.0
8.051,0.411,-0.917,0.0
7.713,0.392,-0.923,0.0
7.467,0.379,-0.937,0.0
7.211,0.365,-0.946,0.0
8.776,0.441,-0.903,0.0
8.372,0.419,-0.909,0.0
8.001,0.399,-0.914,0.0
7.735,0.385,-0.928,0.0
7.439,0.369,-0.935,0.0
7.198,0.356,-0.946,0.0
8.81,0.433,-0.909,0.0
8.311,0.407,-0.905,0.0
8.022,0.392,-0.919,0.0
7.666,0.373,-0.922,0.0
7.432,0.36,-0.937,0.0
7.191,0.348,-0.947,0.0
8.788,0.422,-0.909,0.0
8.392,0.401,-0.916,0.0
8.001,0.381,-0.918,0.0
7.654,0.364,-0.923,0.0
7.408,0.351,-0.935,0.0
7.167,0.338,-0.946,0.0
8.751,0.41,-0.907,0.0
8.345,0.39,-0.912,0.0
7.968,0.371,-0.916,0.0
7.63,0.354,-0.921,0.0
7.4,0.342,-0.936,0.0
7.172,0.33,-0.948,0.0
8.749,0.4,-0.908,0.0
8.3,0.378,-0.909,0.0
7.933,0.36,-0.913,0.0
7.651,0.346,-0.925,0.0
7.38,0.333,-0.934,0.0
7.167,0.322,-0.948,0.0
8.779,0.391,-0.913,0.0
8.342,0.37,-0.914,0.0
8.011,0.354,-0.923,0.0
7.647,0.337,-0.925,0.0
7.425,0.326,-0.941,0.0
7.154,0.313,-0.947,0.0
8.759,0.38,-0.911,0.0
8.303,0.359,-0.911,0.0
7.96,0.343,-0.918,0.0
7.656,0.328,-0.927,0.0
7.402,0.316,-0.938,0.0
7.155,0.304,-0.948,0.0
8.761,0.37,-0.912,0.0
8.369,0.352,-0.918,0.0
7.978,0.334,-0.92,0.0
7.681,0.32,-0.93,0.0
7.385,0.307,-0.936,0.0
7.161,0.296,-0.948,0.0
8.745,0.359,-0.91,0.0
8.338,0.341,-0.915,0.0
7.977,0.324,-0.92,0.0
7.653,0.31,-0.927,0.0
7.404,0.298,-0.938,0.0
7.161,0.287,-0.948,0.0
8.739,0.348,-0.909,0.0
8.314,0.33,-0.911,0.0
7.984,0.315,-0.92,0.0
7.686,0.302,-0.93,0.0
7.409,0.29,-0.938,0.0
7.163,0.279,-0.948,0.0
8.729,0.337,-0.907,0.0
8.367,0.321,-0.916,0.0
7.969,0.305,-0.917,0.0
7.707,0.293,-0.931,0.0
7.42,0.281,-0.939,0.0
7.163,0.27,-0.947,0.0
8.803,0.329,-0.913,0.0
8.386,0.312,-0.917,0.0
8.005,0.296,-0.92,0.0
7.693,0.283,-0.929,0.0
7.431,0.272,-0.939,0.0
7.169,0.262,-0.946,0.0
8.813,0.319,-0.913,0.0
8.433,0.304,-0.921,0.0
8.021,0.287,-0.92,0.0
7.635,0.272,-0.92,0.0
7.444,0.264,-0.939,0.0
7.19,0.254,-0.947,0.0
8.848,0.31,-0.914,0.0
8.414,0.293,-0.916,0.0
8.06,0.279,-0.923,0.0
7.713,0.266,-0.927,0.0
7.449,0.255,-0.937,0.0
7.202,0.245,-0.947,0.0
8.864,0.299,-0.913,0.0
8.472,0.284,-0.92,0.0
8.081,0.27,-0.923,0.0
7.768,0.258,-0.931,0.0
7.462,0.246,-0.937,0.0
7.222,0.237,-0.947,0.0
8.887,0.289,-0.913,0.0
8.533,0.276,-0.924,0.0
8.093,0.26,-0.921,0.0
7.779,0.249,-0.93,0.0
7.479,0.238,-0.936,0.0
7.224,0.228,-0.945,0.0
8.952,0.281,-0.916,0.0
8.52,0.265,-0.919,0.0
8.108,0.251,-0.92,0.0
7.801,0.24,-0.93,0.0
7.508,0.229,-0.937,0.0
7.252,0.22,-0.945,0.0
8.918,0.269,-0.909,0.0
8.564,0.256,-0.92,0.0
8.147,0.242,-0.921,0.0
7.83,0.231,-0.929,0.0
7.534,0.221,-0.936,0.0
7.269,0.212,-0.944,0.0
8.987,0.26,-0.912,0.0
8.619,0.247,-0.922,0.0
8.202,0.234,-0.923,0.0
7.879,0.223,-0.931,0.0
7.574,0.213,-0.937,0.0
7.274,0.203,-0.941,0.0
9.061,0.251,-0.915,0.0
8.629,0.237,-0.919,0.0
8.238,0.225,-0.923,0.0
7.926,0.215,-0.933,0.0
7.6,0.204,-0.937,0.0
7.318,0.195,-0.943,0.0
9.105,0.241,-0.914,0.0
8.668,0.228,-0.918,0.0
8.276,0.216,-0.922,0.0
7.965,0.206,-0.933,0.0
7.647,0.196,-0.938,0.0
7.34,0.187,-0.941,0.0
9.148,0.231,-0.913,0.0
8.69,0.218,-0.915,0.0
8.336,0.208,-0.924,0.0
7.987,0.197,-0.93,0.0
7.687,0.188,-0.938,0.0
7.377,0.179,-0.941,0.0
9.127,0.22,-0.905,1.0
8.792,0.21,-0.92,0.0
8.386,0.199,-0.924,0.0
8.008,0.188,-0.927,0.0
7.74,0.18,-0.939,0.0
7.432,0.172,-0.943,0.0
9.178,0.21,-0.904,0.0
8.857,0.201,-0.921,0.0
8.446,0.19,-0.924,0.0
8.054,0.18,-0.927,0.0
7.751,0.171,-0.935,0.0
7.463,0.163,-0.941,0.0
9.214,0.2,-0.9,0.0
8.899,0.192,-0.918,0.0
8.525,0.182,-0.927,0.0
8.132,0.172,-0.929,0.0
7.784,0.163,-0.933,0.0
7.512,0.156,-0.942,0.0
9.391,0.193,-0.91,0.0
8.928,0.182,-0.914,0.0
8.54,0.172,-0.921,0.0
8.214,0.164,-0.932,0.0
7.863,0.155,-0.936,0.0
7.556,0.148,-0.941,0.0
9.46,0.184,-0.909,0.0
9.016,0.173,-0.916,0.0
8.621,0.164,-0.923,0.0
8.262,0.155,-0.931,0.0
7.894,0.147,-0.933,0.0
7.577,0.139,-0.937,0.0
9.584,0.175,-0.913,0.0
9.072,0.164,-0.914,0.0
8.694,0.155,-0.923,0.0
8.299,0.146,-0.927,0.0
7.963,0.139,-0.934,0.0
7.641,0.132,-0.938,0.0
9.634,0.165,-0.909,0.0
9.183,0.155,-0.916,0.0
8.746,0.146,-0.92,0.0
8.359,0.138,-0.926,0.0
8.041,0.131,-0.935,0.0
7.721,0.124,-0.94,0.0
9.701,0.155,-0.906,0.0
9.28,0.146,-0.917,0.0
8.815,0.137,-0.919,0.0
8.433,0.13,-0.926,0.0
8.086,0.123,-0.932,0.0
7.763,0.116,-0.938,0.0
9.83,0.146,-0.908,0.0
9.382,0.138,-0.918,0.0
8.891,0.129,-0.918,0.0
8.535,0.122,-0.929,0.0
8.156,0.115,-0.932,0.0
7.827,0.109,-0.937,0.0
9.904,0.137,-0.905,0.0
9.44,0.128,-0.914,0.0
8.989,0.12,-0.919,0.0
8.604,0.114,-0.927,0.0
8.238,0.107,-0.933,0.0
7.897,0.101,-0.937,0.0
10.05,0.128,-0.908,0.0
9.5,0.119,-0.909,0.0
9.049,0.112,-0.915,0.0
8.663,0.105,-0.924,0.0
8.302,0.099,-0.931,0.0
7.973,0.094,-0.937,0.0
10.139,0.118,-0.904,0.0
9.633,0.11,-0.911,0.0
9.193,0.104,-0.919,0.0
8.754,0.097,-0.924,0.0
8.394,0.091,-0.931,0.0
8.043,0.086,-0.936,0.0
10.28,0.109,-0.905,0.0
9.785,0.102,-0.914,0.0
9.304,0.095,-0.919,0.0
8.821,0.089,-0.92,0.0
8.452,0.083,-0.928,0.0
8.104,0.078,-0.933,0.0
10.387,0.1,-0.902,0.0
9.869,0.093,-0.91,0.0
9.399,0.087,-0.917,0.0
8.864,0.08,-0.914,0.0
8.54,0.075,-0.927,0.0
8.188,0.071,-0.933,0.0
10.537,0.091,-0.902,0.0
9.992,0.084,-0.909,0.0
9.52,0.078,-0.917,0.0
8.94,0.072,-0.911,0.0
8.666,0.068,-0.93,0.0
8.272,0.063,-0.932,0.0
10.645,0.081,-0.898,0.0
10.118,0.075,-0.908,0.0
9.601,0.07,-0.913,0.0
9.152,0.065,-0.92,0.0
8.743,0.06,-0.926,0.0
8.369,0.056,-0.932,0.0
10.834,0.072,-0.9,0.0
10.241,0.066,-0.905,0.0
9.715,0.061,-0.911,0.0
9.307,0.057,-0.924,0.0
8.845,0.052,-0.925,0.0
8.462,0.049,-0.931,0.0
10.971,0.063,-0.896,0.0
10.393,0.058,-0.905,0.0
9.849,0.053,-0.91,0.0
9.382,0.049,-0.918,0.0
8.989,0.045,-0.928,0.0
8.566,0.041,-0.93,0.0
11.108,0.054,-0.892,0.0
10.528,0.049,-0.902,0.0
9.995,0.045,-0.91,0.0
9.507,0.041,-0.917,0.0
9.069,0.037,-0.924,0.0
8.663,0.034,-0.929,0.0
11.298,0.045,-0.892,0.0
10.686,0.04,-0.9,0.0
10.15,0.036,-0.909,0.0
9.601,0.033,-0.913,0.0
9.17,0.03,-0.921,0.0
8.752,0.027,-0.926,0.0
11.5,0.035,-0.891,0.0
10.868,0.032,-0.9,0.0
10.285,0.028,-0.907,0.0
9.787,0.025,-0.916,0.0
9.33,0.022,-0.923,0.0
8.883,0.02,-0.926,0.0
11.679,0.026,-0.888,0.0
11.004,0.023,-0.895,0.0
10.448,0.02,-0.905,0.0
9.932,0.017,-0.914,0.0
9.427,0.015,-0.918,0.0
9.05,0.013,-0.93,0.0
11.855,0.017,-0.883,0.0
11.21,0.014,-0.894,0.0
10.608,0.011,-0.903,0.0
10.059,0.009,-0.91,0.0
9.54,0.007,-0.914,0.0
9.125,0.006,-0.923,0.0
12.072,0.008,-0.881,0.0
11.42,0.005,-0.894,0.0
10.794,0.003,-0.902,0.0
10.222,0.001,-0.909,0.0
9.717,0.0,-0.916,0.0
9.227,-0.001,-0.919,0.0
12.296,-0.001,-0.877,0.0
11.621,-0.002,-0.891,0.0
10.969,-0.004,-0.899,0.0
10.38,-0.005,-0.907,0.0
9.88,-0.006,-0.915,0.0
9.387,-0.007,-0.92,0.0
12.527,-0.01,-0.874,0.0
11.82,-0.011,-0.887,0.0
11.163,-0.012,-0.897,0.0
10.556,-0.013,-0.905,0.0
10.033,-0.014,-0.913,0.0
9.542,-0.014,-0.919,0.0
12.749,-0.019,-0.868,0.0
12.006,-0.02,-0.881,0.0
11.356,-0.02,-0.893,0.0
10.749,-0.021,-0.903,0.0
10.2,-0.021,-0.911,0.0
9.676,-0.021,-0.916,0.0
13.038,-0.028,-0.866,0.0
12.238,-0.028,-0.878,0.0
11.603,-0.028,-0.893,0.0
10.945,-0.028,-0.901,0.0
10.378,-0.028,-0.91,0.0
9.883,-0.028,-0.918,0.0
13.264,-0.037,-0.859,0.0
12.538,-0.037,-0.878,0.0
11.774,-0.036,-0.886,0.0
11.14,-0.036,-0.898,0.0
10.562,-0.035,-0.908,0.0
10.017,-0.035,-0.914,0.0
13.571,-0.046,-0.855,0.0
12.746,-0.045,-0.87,0.0
12.023,-0.044,-0.884,0.0
11.36,-0.043,-0.896,0.0
10.768,-0.042,-0.906,0.0
10.199,-0.041,-0.912,0.0
13.91,-0.056,-0.853,0.0
13.045,-0.054,-0.868,0.0
12.292,-0.052,-0.882,0.0
11.607,-0.051,-0.895,0.0
10.971,-0.049,-0.904,0.0
10.381,-0.048,-0.91,0.0
14.177,-0.065,-0.844,0.0
13.279,-0.062,-0.86,0.0
12.545,-0.06,-0.878,0.0
11.779,-0.058,-0.887,0.0
11.194,-0.056,-0.902,0.0
10.589,-0.054,-0.909,0.0
14.683,-0.074,-0.847,0.0
13.63,-0.071,-0.858,0.0
12.775,-0.068,-0.871,0.0
11.995,-0.065,-0.882,0.0
11.394,-0.063,-0.898,0.0
10.802,-0.061,-0.908,0.0
15.057,-0.084,-0.842,0.0
13.953,-0.079,-0.853,0.0
13.06,-0.075,-0.867,0.0
12.288,-0.072,-0.881,0.0
11.625,-0.069,-0.894,0.0
10.989,-0.067,-0.903,0.0
15.442,-0.093,-0.835,0.0
14.274,-0.087,-0.846,0.0
13.364,-0.083,-0.862,0.0
12.603,-0.079,-0.88,0.0
11.831,-0.076,-0.888,0.0
11.223,-0.073,-0.901,0.0
15.812,-0.102,-0.826,0.0
14.747,-0.096,-0.847,0.0
13.583,-0.09,-0.851,0.0
12.835,-0.086,-0.872,0.0
12.104,-0.082,-0.886,0.0
11.429,-0.079,-0.896,0.0
16.341,-0.111,-0.822,0.0
15.159,-0.104,-0.841,0.0
14.021,-0.098,-0.852,0.0
13.154,-0.093,-0.869,0.0
12.359,-0.088,-0.881,0.0
11.678,-0.084,-0.893,0.0
16.892,-0.121,-0.818,0.0
15.568,-0.113,-0.835,0.0
14.463,-0.106,-0.851,0.0
13.407,-0.099,-0.86,0.0
12.677,-0.095,-0.879,0.0
11.923,-0.09,-0.889,0.0
17.465,-0.13,-0.812,0.0
15.998,-0.121,-0.827,0.0
14.886,-0.113,-0.847,0.0
13.844,-0.106,-0.861,0.0
12.925,-0.1,-0.871,0.0
12.219,-0.096,-0.887,0.0
18.068,-0.14,-0.805,0.0
16.457,-0.129,-0.819,0.0
15.33,-0.121,-0.842,0.0
14.147,-0.112,-0.852,0.0
13.256,-0.106,-0.867,0.0
12.486,-0.101,-0.882,0.0
18.798,-0.15,-0.801,0.0
17.139,-0.138,-0.819,0.0
15.731,-0.128,-0.833,0.0
14.614,-0.119,-0.851,0.0
13.596,-0.112,-0.863,0.0
12.801,-0.106,-0.879,0.0
19.461,-0.159,-0.791,2.0
17.693,-0.146,-0.811,0.0
16.255,-0.135,-0.829,0.0
15.062,-0.126,-0.848,0.0
13.897,-0.117,-0.854,0.0
13.081,-0.111,-0.872,0.0
19.725,-0.165,-0.762,7.0
18.341,-0.154,-0.804,0.0
16.742,-0.142,-0.821,0.0
15.479,-0.132,-0.84,0.0
14.404,-0.123,-0.857,0.0
13.353,-0.115,-0.863,0.0
19.777,-0.168,-0.725,10.0
19.128,-0.163,-0.8,1.0
17.377,-0.149,-0.816,0.0
15.909,-0.137,-0.831,0.0
14.826,-0.128,-0.851,0.0
13.797,-0.12,-0.864,0.0
19.791,-0.17,-0.685,2.0
19.641,-0.169,-0.781,2.0
17.965,-0.156,-0.808,0.0
16.428,-0.143,-0.825,0.0
15.25,-0.133,-0.845,0.0
14.107,-0.123,-0.854,0.0
19.778,-0.171,-0.644,2.0
19.76,-0.172,-0.746,10.0
18.68,-0.163,-0.801,1.0
17.125,-0.149,-0.825,0.0
15.692,-0.137,-0.837,0.0
14.657,-0.128,-0.858,0.0
19.779,-0.171,-0.604,5.0
19.78,-0.172,-0.706,3.0
19.453,-0.169,-0.795,2.0
17.631,-0.154,-0.813,0.0
16.198,-0.141,-0.831,0.0
15.058,-0.132,-0.85,0.0
19.776,-0.171,-0.563,7.0
19.774,-0.171,-0.665,2.0
19.73,-0.171,-0.765,6.0
18.371,-0.16,-0.809,0.0
16.777,-0.146,-0.826,0.0
15.517,-0.135,-0.844,0.0
19.762,-0.17,-0.522,10.0
19.771,-0.17,-0.624,4.0
19.772,-0.17,-0.726,8.0
19.102,-0.164,-0.802,2.0
17.413,-0.15,-0.821,0.0
15.987,-0.138,-0.836,0.0
19.754,-0.168,-0.481,12.0
19.76,-0.168,-0.583,7.0
19.785,-0.168,-0.686,4.0
19.643,-0.167,-0.784,3.0
18.066,-0.153,-0.814,0.0
16.476,-0.14,-0.828,0.0
19.754,-0.165,-0.44,14.0
19.759,-0.165,-0.542,10.0
19.763,-0.165,-0.644,7.0
19.762,-0.165,-0.748,10.0
18.779,-0.156,-0.807,1.0
17.161,-0.143,-0.826,0.0
19.753,-0.162,-0.399,14.0
19.753,-0.162,-0.501,13.0
19.758,-0.161,-0.602,10.0
19.769,-0.161,-0.707,7.0
19.5,-0.158,-0.798,2.0
17.736,-0.144,-0.817,0.0
19.757,-0.158,-0.358,15.0
19.744,-0.157,-0.459,15.0
19.753,-0.157,-0.561,13.0
19.76,-0.156,-0.666,10.0
19.71,-0.155,-0.765,7.0
18.467,-0.145,-0.813,0.0
19.755,-0.153,-0.317,16.0
19.745,-0.152,-0.418,17.0
19.746,-0.152,-0.52,17.0
19.739,-0.151,-0.624,14.0
19.762,-0.15,-0.726,10.0
19.204,-0.145,-0.805,2.0
19.754,-0.148,-0.276,17.0
19.736,-0.147,-0.377,16.0
19.739,-0.146,-0.479,17.0
19.726,-0.145,-0.582,16.0
19.761,-0.144,-0.685,14.0
19.671,-0.143,-0.783,4.0
19.748,-0.141,-0.234,17.0
19.743,-0.14,-0.335,17.0
19.73,-0.139,-0.437,17.0
19.723,-0.138,-0.54,18.0
19.751,-0.137,-0.643,17.0
