X,Y,Z,Reflectivity
0.0,0.0,0.0,0.0
0.0,0.0,0.0,0.0
0.0,0.0,0.0,0.0
0.0,0.0,0.0,0.0
0.0,0.0,0.0,0.0
0.0,0.0,0.0,0.0
0.0,0.0,0.0,0.0
0.0,0.0,0.0,0.0
84.753,0.431,7.229,15.0
0.0,0.0,0.0,0.0
0.0,0.0,0.0,0.0
0.0,0.0,0.0,0.0
0.0,0.0,0.0,0.0
0.0,0.0,0.0,0.0
84.793,0.483,7.088,10.0
0.0,0.0,0.0,0.0
0.0,0.0,0.0,0.0
0.0,0.0,0.0,0.0
0.0,0.0,0.0,0.0
0.0,0.0,0.0,0.0
0.0,0.0,0.0,0.0
0.0,0.0,0.0,0.0
0.0,0.0,0.0,0.0
0.0,0.0,0.0,0.0
0.0,0.0,0.0,0.0
84.89,0.574,7.298,2.0
0.0,0.0,0.0,0.0
0.0,0.0,0.0,0.0
0.0,0.0,0.0,0.0
0.0,0.0,0.0,0.0
0.0,0.0,0.0,0.0
84.795,0.617,7.139,18.0
0.0,0.0,0.0,0.0
0.0,0.0,0.0,0.0
0.0,0.0,0.0,0.0
0.0,0.0,0.0,0.0
0.0,0.0,0.0,0.0
84.768,0.658,6.985,4.0
0.0,0.0,0.0,0.0
0.0,0.0,0.0,0.0
0.0,0.0,0.0,0.0
121.994,0.969,7.187,10.0
0.0,0.0,0.0,0.0
0.0,0.0,0.0,0.0
0.0,0.0,0.0,0.0
0.0,0.0,0.0,0.0
0.0,0.0,0.0,0.0
0.0,0.0,0.0,0.0
84.809,0.729,7.174,11.0
0.0,0.0,0.0,0.0
0.0,0.0,0.0,0.0
0.0,0.0,0.0,0.0
122.051,1.066,7.455,15.0
0.0,0.0,0.0,0.0
84.79,0.761,7.015,18.0
0.0,0.0,0.0,0.0
0.0,0.0,0.0,0.0
0.0,0.0,0.0,0.0
121.943,1.11,7.22,27.0
0.0,0.0,0.0,0.0
84.991,0.793,6.872,1.0
0.0,0.0,0.0,0.0
0.0,0.0,0.0,0.0
0.0,0.0,0.0,0.0
121.934,1.15,6.991,6.0
0.0,0.0,0.0,0.0
0.0,0.0,0.0,0.0
0.0,0.0,0.0,0.0
0.0,0.0,0.0,0.0
121.972,1.185,7.471,24.0
0.0,0.0,0.0,0.0
0.0,0.0,0.0,0.0
0.0,0.0,0.0,0.0
0.0,0.0,0.0,0.0
0.0,0.0,0.0,0.0
121.962,1.217,7.235,24.0
0.0,0.0,0.0,0.0
0.0,0.0,0.0,0.0
0.0,0.0,0.0,0.0
0.0,0.0,0.0,0.0
0.0,0.0,0.0,0.0
121.946,1.245,6.997,9.0
0.0,0.0,0.0,0.0
186.242,1.905,8.508,7.0
0.0,0.0,0.0,0.0
0.0,0.0,0.0,0.0
121.931,1.268,7.481,21.0
122.088,1.27,6.763,8.0
0.0,0.0,0.0,0.0
186.19,1.938,8.138,17.0
0.0,0.0,0.0,0.0
0.0,0.0,0.0,0.0
121.876,1.288,7.238,23.0
0.0,0.0,0.0,0.0
0.0,0.0,0.0,0.0
185.8,1.961,7.755,15.0
0.0,0.0,0.0,0.0
0.0,0.0,0.0,0.0
121.93,1.303,6.998,11.0
0.0,0.0,0.0,0.0
186.292,1.988,8.495,7.0
19.675,0.209,0.782,1.0
0.0,0.0,0.0,0.0
121.896,1.315,7.468,20.0
122.044,1.314,6.762,16.0
0.0,0.0,0.0,0.0
186.054,1.999,8.115,16.0
19.673,0.211,0.743,9.0
0.0,0.0,0.0,0.0
121.83,1.321,7.219,20.0
122.086,1.321,6.519,3.0
0.0,0.0,0.0,0.0
185.797,2.004,7.732,18.0
19.655,0.211,0.703,11.0
121.957,1.327,7.697,3.0
122.011,1.325,6.984,14.0
0.0,0.0,0.0,0.0
186.315,2.015,8.464,19.0
19.678,0.212,0.779,1.0
19.651,0.211,0.663,12.0
121.911,1.325,7.445,23.0
122.084,1.323,6.741,18.0
0.0,0.0,0.0,0.0
185.879,2.005,8.069,14.0
19.674,0.211,0.739,9.0
19.667,0.21,0.623,11.0
121.859,1.318,7.191,22.0
0.0,0.0,0.0,0.0
0.0,0.0,0.0,0.0
185.721,1.99,7.678,6.0
19.655,0.209,0.697,11.0
19.671,0.209,0.583,9.0
122.05,1.309,6.953,12.0
0.0,0.0,0.0,0.0
186.309,1.984,8.434,13.0
19.687,0.208,0.773,3.0
19.658,0.207,0.657,11.0
19.702,0.207,0.544,11.0
122.109,1.294,6.705,9.0
0.0,0.0,0.0,0.0
185.969,1.953,8.033,18.0
19.67,0.205,0.732,9.0
19.663,0.204,0.617,10.0
19.708,0.204,0.503,10.0
0.0,0.0,0.0,0.0
0.0,0.0,0.0,0.0
183.686,1.897,7.555,12.0
19.643,0.201,0.691,10.0
19.695,0.201,0.577,10.0
19.704,0.2,0.462,9.0
0.0,0.0,0.0,0.0
186.291,1.894,8.366,20.0
19.682,0.199,0.768,4.0
19.666,0.197,0.651,10.0
19.697,0.196,0.537,10.0
19.712,0.195,0.422,9.0
0.0,0.0,0.0,0.0
186.204,1.846,7.977,8.0
19.664,0.193,0.727,10.0
19.675,0.192,0.61,9.0
19.691,0.191,0.496,9.0
19.684,0.19,0.381,9.0
0.0,0.0,0.0,0.0
19.678,0.189,0.802,1.0
19.649,0.187,0.686,10.0
19.666,0.186,0.57,9.0
19.672,0.185,0.455,9.0
19.672,0.184,0.34,11.0
186.512,1.748,8.308,17.0
19.661,0.183,0.76,8.0
19.639,0.181,0.645,10.0
19.643,0.179,0.528,9.0
19.642,0.178,0.413,9.0
19.667,0.177,0.299,8.0
185.632,1.673,7.88,7.0
19.63,0.175,0.718,9.0
19.619,0.173,0.603,9.0
19.617,0.172,0.486,10.0
19.641,0.171,0.372,9.0
19.648,0.169,0.258,11.0
19.663,0.169,0.793,2.0
19.613,0.167,0.677,10.0
19.608,0.165,0.562,10.0
19.611,0.164,0.445,10.0
19.638,0.162,0.331,9.0
19.654,0.161,0.217,14.0
19.638,0.16,0.752,8.0
19.595,0.158,0.636,10.0
19.598,0.157,0.521,11.0
19.62,0.155,0.405,9.0
19.626,0.153,0.291,11.0
19.655,0.152,0.177,14.0
19.624,0.151,0.711,10.0
19.598,0.149,0.595,11.0
19.602,0.147,0.481,10.0
19.611,0.145,0.364,10.0
19.635,0.144,0.25,12.0
19.647,0.142,0.135,14.0
19.613,0.141,0.67,12.0
19.598,0.139,0.555,14.0
19.603,0.137,0.44,12.0
19.607,0.135,0.323,10.0
19.657,0.133,0.21,17.0
19.639,0.131,0.095,14.0
19.599,0.13,0.628,14.0
19.6,0.128,0.514,15.0
19.607,0.126,0.399,12.0
19.607,0.124,0.283,10.0
19.646,0.122,0.169,15.0
19.65,0.12,0.054,14.0
19.597,0.118,0.588,19.0
19.604,0.116,0.474,18.0
19.608,0.114,0.359,13.0
19.626,0.112,0.243,10.0
19.645,0.11,0.129,13.0
19.656,0.108,0.014,12.0
19.617,0.106,0.548,25.0
19.613,0.104,0.434,29.0
19.603,0.102,0.319,15.0
19.646,0.1,0.203,13.0
19.662,0.097,0.089,12.0
19.698,0.095,-0.025,6.0
19.607,0.093,0.508,20.0
19.612,0.091,0.394,24.0
19.606,0.089,0.279,16.0
19.665,0.086,0.164,12.0
19.704,0.084,0.049,13.0
19.757,0.082,-0.065,9.0
19.618,0.079,0.469,27.0
19.608,0.077,0.354,15.0
19.626,0.075,0.24,15.0
19.673,0.072,0.124,16.0
19.754,0.07,0.009,43.0
19.761,0.068,-0.105,49.0
19.618,0.065,0.429,24.0
19.613,0.063,0.315,12.0
19.637,0.06,0.2,13.0
19.749,0.058,0.085,28.0
19.745,0.055,-0.03,48.0
19.755,0.053,-0.145,48.0
19.614,0.05,0.39,14.0
19.616,0.048,0.276,12.0
19.738,0.045,0.162,12.0
19.736,0.042,0.045,18.0
19.752,0.04,-0.069,18.0
19.764,0.037,-0.184,13.0
19.617,0.034,0.351,16.0
19.626,0.032,0.236,16.0
19.742,0.029,0.123,14.0
19.739,0.026,0.006,19.0
19.76,0.023,-0.109,5.0
19.766,0.021,-0.224,4.0
19.624,0.018,0.312,15.0
19.668,0.015,0.198,9.0
19.778,0.012,0.084,4.0
19.737,0.009,-0.033,11.0
19.769,0.006,-0.148,0.0
19.783,0.003,-0.263,0.0
19.637,0.001,0.273,14.0
19.804,-0.001,0.16,2.0
19.731,-0.004,0.045,8.0
19.749,-0.007,-0.071,2.0
19.771,-0.01,-0.186,0.0
0.0,0.0,0.0,0.0
19.65,-0.016,0.235,16.0
19.698,-0.019,0.121,8.0
19.707,-0.022,0.006,13.0
19.736,-0.025,-0.109,11.0
19.764,-0.029,-0.225,2.0
32.418,-0.052,-0.558,0.0
19.656,-0.035,0.197,12.0
19.701,-0.038,0.083,15.0
19.71,-0.041,-0.031,15.0
19.739,-0.044,-0.148,13.0
19.755,-0.048,-0.263,9.0
19.767,-0.051,-0.378,0.0
19.702,-0.054,0.16,18.0
19.698,-0.057,0.045,16.0
19.726,-0.061,-0.068,12.0
19.724,-0.064,-0.185,14.0
19.762,-0.067,-0.3,15.0
19.769,-0.071,-0.416,9.0
19.708,-0.074,0.123,16.0
19.71,-0.077,0.008,15.0
19.71,-0.081,-0.106,16.0
19.724,-0.084,-0.223,15.0
19.754,-0.088,-0.338,13.0
19.75,-0.091,-0.453,14.0
19.721,-0.094,0.086,14.0
19.72,-0.098,-0.028,12.0
19.716,-0.101,-0.143,16.0
19.73,-0.105,-0.259,15.0
19.746,-0.109,-0.375,16.0
19.742,-0.112,-0.49,16.0
19.734,-0.116,0.049,10.0
19.725,-0.119,-0.065,10.0
19.722,-0.123,-0.179,16.0
19.735,-0.126,-0.296,15.0
19.727,-0.13,-0.411,17.0
19.747,-0.133,-0.526,17.0
19.761,-0.137,0.013,7.0
19.733,-0.141,-0.1,13.0
19.729,-0.144,-0.215,16.0
19.728,-0.148,-0.332,16.0
19.735,-0.152,-0.446,18.0
19.752,-0.156,-0.562,16.0
19.789,-0.16,-0.022,1.0
19.745,-0.163,-0.136,11.0
19.746,-0.167,-0.251,12.0
19.744,-0.171,-0.367,13.0
19.739,-0.174,-0.482,12.0
19.775,-0.178,-0.598,4.0
19.766,-0.183,-0.057,0.0
19.784,-0.186,-0.171,6.0
19.777,-0.19,-0.286,3.0
19.773,-0.194,-0.403,4.0
25.511,-0.255,-0.668,0.0
22.515,-0.23,-0.721,1.0
0.0,0.0,0.0,0.0
0.0,0.0,0.0,0.0
33.243,-0.36,-0.54,0.0
0.0,0.0,0.0,0.0
24.753,-0.278,-0.691,0.0
21.898,-0.25,-0.739,0.0
0.0,0.0,0.0,0.0
0.0,0.0,0.0,0.0
31.168,-0.375,-0.559,0.0
26.84,-0.329,-0.64,0.0
23.684,-0.295,-0.702,0.0
19.917,-0.252,-0.706,0.0
43.131,-0.556,-0.348,0.0
0.0,0.0,0.0,0.0
29.795,-0.396,-0.586,0.0
25.804,-0.349,-0.66,0.0
22.792,-0.313,-0.715,0.0
19.841,-0.276,-0.738,3.0
0.0,0.0,0.0,0.0
33.42,-0.48,-0.52,0.0
28.942,-0.422,-0.618,0.0
25.047,-0.371,-0.682,0.0
22.16,-0.333,-0.733,0.0
19.863,-0.302,-0.772,0.0
38.457,-0.595,-0.44,0.0
32.141,-0.504,-0.553,0.0
27.68,-0.44,-0.637,0.0
24.125,-0.389,-0.697,0.0
21.562,-0.352,-0.748,1.0
19.39,-0.321,-0.785,0.0
35.718,-0.599,-0.466,0.0
30.364,-0.516,-0.572,0.0
26.36,-0.454,-0.649,0.0
22.963,-0.4,-0.701,0.0
20.682,-0.365,-0.751,0.0
18.854,-0.337,-0.794,0.0
33.262,-0.603,-0.488,0.0
29.816,-0.547,-0.609,0.0
21.726,-0.404,-0.57,6.0
21.711,-0.408,-0.697,4.0
20.212,-0.385,-0.766,0.0
18.212,-0.351,-0.796,0.0
33.175,-0.647,-0.538,0.0
21.771,-0.429,-0.478,0.0
21.711,-0.433,-0.603,154.0
21.661,-0.437,-0.729,8.0
19.686,-0.402,-0.776,0.0
17.786,-0.367,-0.805,0.0
31.455,-0.657,-0.558,0.0
21.74,-0.459,-0.511,151.0
21.725,-0.464,-0.636,151.0
21.45,-0.463,-0.755,1.0
19.283,-0.421,-0.79,0.0
17.404,-0.384,-0.814,0.0
29.993,-0.668,-0.577,0.0
21.726,-0.489,-0.543,153.0
21.721,-0.494,-0.669,4.0
20.547,-0.472,-0.753,0.0
18.694,-0.434,-0.793,0.0
17.006,-0.399,-0.82,0.0
29.045,-0.688,-0.601,0.0
21.731,-0.52,-0.575,3.0
21.762,-0.526,-0.702,2.0
20.089,-0.491,-0.766,0.0
17.855,-0.441,-0.784,1.0
16.438,-0.41,-0.817,0.0
28.155,-0.709,-0.624,0.0
24.703,-0.628,-0.69,0.0
21.755,-0.558,-0.733,1.0
17.794,-0.461,-0.704,7.0
17.738,-0.464,-0.804,2.0
0.0,0.0,0.0,0.0
27.169,-0.724,-0.64,0.0
23.689,-0.637,-0.695,0.0
17.802,-0.483,-0.624,153.0
17.768,-0.487,-0.728,14.0
17.691,-0.489,-0.827,1.0
17.794,-0.497,-0.934,1.0
26.305,-0.74,-0.656,0.0
17.805,-0.505,-0.546,7.0
17.759,-0.509,-0.647,160.0
17.784,-0.514,-0.753,8.0
17.757,-0.518,-0.854,2.0
17.807,-0.524,-0.959,1.0
25.763,-0.764,-0.677,0.0
17.812,-0.533,-0.571,6.0
17.756,-0.535,-0.671,159.0
17.791,-0.541,-0.777,3.0
17.696,-0.543,-0.874,2.0
17.839,-0.552,-0.985,0.0
24.579,-0.766,-0.678,0.0
17.802,-0.56,-0.593,5.0
17.812,-0.565,-0.696,55.0
17.763,-0.568,-0.798,2.0
16.287,-0.525,-0.826,0.0
14.914,-0.485,-0.842,0.0
23.84,-0.78,-0.688,0.0
21.478,-0.708,-0.743,0.0
19.405,-0.645,-0.783,0.0
17.634,-0.591,-0.815,0.0
15.963,-0.54,-0.83,0.0
14.647,-0.499,-0.846,0.0
23.412,-0.803,-0.705,0.0
20.854,-0.721,-0.747,0.0
19.114,-0.666,-0.795,0.0
17.162,-0.602,-0.814,0.0
15.69,-0.555,-0.835,0.0
14.486,-0.517,-0.854,0.0
22.654,-0.813,-0.709,0.0
20.49,-0.741,-0.759,0.0
18.708,-0.682,-0.801,0.0
16.81,-0.617,-0.818,0.0
15.386,-0.569,-0.837,0.0
14.176,-0.528,-0.853,0.0
22.095,-0.828,-0.718,0.0
20.118,-0.76,-0.769,0.0
18.101,-0.689,-0.796,0.0
16.548,-0.634,-0.824,0.0
15.165,-0.586,-0.842,0.0
13.926,-0.542,-0.854,0.0
21.685,-0.848,-0.729,0.0
19.733,-0.777,-0.776,0.0
17.837,-0.708,-0.804,0.0
16.214,-0.648,-0.826,0.0
14.877,-0.599,-0.843,0.0
13.671,-0.554,-0.853,0.0
21.273,-0.866,-0.738,0.0
19.322,-0.792,-0.781,0.0
17.527,-0.724,-0.809,0.0
15.965,-0.664,-0.83,0.0
14.745,-0.617,-0.851,0.0
13.486,-0.568,-0.856,0.0
20.901,-0.885,-0.747,0.0
19.015,-0.811,-0.788,0.0
17.345,-0.744,-0.819,0.0
15.639,-0.676,-0.829,0.0
14.498,-0.631,-0.852,0.0
13.301,-0.583,-0.858,0.0
20.461,-0.9,-0.752,0.0
18.694,-0.828,-0.794,0.0
17.025,-0.759,-0.82,0.0
15.46,-0.693,-0.835,0.0
14.277,-0.644,-0.853,0.0
13.145,-0.597,-0.861,0.0
20.277,-0.925,-0.765,0.0
18.295,-0.84,-0.795,0.0
16.702,-0.772,-0.821,0.0
15.207,-0.707,-0.836,0.0
14.106,-0.66,-0.856,0.0
13.007,-0.613,-0.864,0.0
20.032,-0.947,-0.774,0.0
18.022,-0.857,-0.8,0.0
16.528,-0.791,-0.828,0.0
15.089,-0.727,-0.843,0.0
13.86,-0.672,-0.854,0.0
12.885,-0.628,-0.868,0.0
19.735,-0.966,-0.78,0.0
17.845,-0.878,-0.807,0.0
16.188,-0.802,-0.825,0.0
14.948,-0.745,-0.848,0.0
13.723,-0.688,-0.857,0.0
12.735,-0.642,-0.868,0.0
19.43,-0.983,-0.785,0.0
17.612,-0.896,-0.812,0.0
15.977,-0.818,-0.827,0.0
14.741,-0.759,-0.849,0.0
13.595,-0.704,-0.861,0.0
12.584,-0.656,-0.869,0.0
19.227,-1.005,-0.792,0.0
17.361,-0.912,-0.814,0.0
15.734,-0.832,-0.827,0.0
14.609,-0.776,-0.853,0.0
13.452,-0.719,-0.862,0.0
12.491,-0.672,-0.872,0.0
36.371,-4.451,-0.563,1.0
30.318,-3.71,-0.631,0.0
26.597,-3.254,-0.696,0.0
23.595,-2.887,-0.746,0.0
21.224,-2.597,-0.784,0.0
19.281,-2.359,-0.816,0.0
36.393,-4.45,-0.52,5.0
0.0,0.0,0.0,0.0
27.442,-3.354,-0.686,0.0
24.112,-2.947,-0.734,0.0
21.557,-2.634,-0.771,0.0
19.699,-2.407,-0.81,0.0
36.448,-4.451,-0.478,0.0
0.0,0.0,0.0,0.0
0.0,0.0,0.0,0.0
24.963,-3.046,-0.73,0.0
22.355,-2.728,-0.774,0.0
20.144,-2.457,-0.804,0.0
0.0,0.0,0.0,0.0
0.0,0.0,0.0,0.0
28.645,-3.49,-0.648,0.0
25.169,-3.066,-0.706,0.0
22.796,-2.776,-0.762,0.0
20.21,-2.46,-0.783,0.0
0.0,0.0,0.0,0.0
0.0,0.0,0.0,0.0
29.77,-3.62,-0.638,0.0
26.207,-3.185,-0.705,0.0
23.42,-2.845,-0.755,0.0
20.861,-2.534,-0.784,0.0
0.0,0.0,0.0,0.0
0.0,0.0,0.0,0.0
30.581,-3.709,-0.62,0.0
26.445,-3.206,-0.68,0.0
23.956,-2.903,-0.744,0.0
21.491,-2.603,-0.782,0.0
0.0,0.0,0.0,0.0
0.0,0.0,0.0,0.0
0.0,0.0,0.0,0.0
27.903,-3.372,-0.684,0.0
24.404,-2.948,-0.729,0.0
21.932,-2.648,-0.772,0.0
45.807,-5.528,-0.331,0.0
0.0,0.0,0.0,0.0
0.0,0.0,0.0,0.0
28.475,-3.43,-0.665,0.0
25.124,-3.024,-0.721,0.0
22.449,-2.701,-0.764,0.0
47.943,-5.766,-0.29,0.0
0.0,0.0,0.0,0.0
33.964,-4.078,-0.568,0.0
0.0,0.0,0.0,0.0
0.0,0.0,0.0,0.0
23.251,-2.786,-0.764,0.0
0.0,0.0,0.0,0.0
0.0,0.0,0.0,0.0
0.0,0.0,0.0,0.0
30.212,-3.61,-0.635,0.0
26.491,-3.163,-0.698,0.0
23.525,-2.807,-0.746,0.0
0.0,0.0,0.0,0.0
42.358,-5.047,-0.384,0.0
36.664,-4.365,-0.528,0.0
0.0,0.0,0.0,0.0
0.0,0.0,0.0,0.0
24.457,-2.904,-0.747,0.0
0.0,0.0,0.0,0.0
45.103,-5.349,-0.357,0.0
0.0,0.0,0.0,0.0
0.0,0.0,0.0,0.0
0.0,0.0,0.0,0.0
25.136,-2.969,-0.738,0.0
0.0,0.0,0.0,0.0
47.615,-5.617,-0.322,0.0
0.0,0.0,0.0,0.0
0.0,0.0,0.0,0.0
0.0,0.0,0.0,0.0
0.0,0.0,0.0,0.0
0.0,0.0,0.0,0.0
0.0,0.0,0.0,0.0
41.006,-4.805,-0.45,1.0
0.0,0.0,0.0,0.0
29.488,-3.447,-0.641,0.0
26.22,-3.062,-0.71,0.0
77.677,-9.069,0.064,3.0
52.594,-6.133,-0.236,0.0
41.88,-4.877,-0.412,0.0
36.007,-4.188,-0.55,0.0
30.35,-3.525,-0.626,0.0
26.675,-3.095,-0.693,0.0
77.678,-9.012,0.152,23.0
0.0,0.0,0.0,0.0
0.0,0.0,0.0,0.0
0.0,0.0,0.0,0.0
0.0,0.0,0.0,0.0
27.509,-3.17,-0.684,0.0
77.704,-8.953,0.239,3.0
0.0,0.0,0.0,0.0
0.0,0.0,0.0,0.0
0.0,0.0,0.0,0.0
32.08,-3.675,-0.59,0.0
27.904,-3.192,-0.662,0.0
83.387,-9.539,0.349,16.0
0.0,0.0,0.0,0.0
0.0,0.0,0.0,0.0
0.0,0.0,0.0,0.0
0.0,0.0,0.0,0.0
28.264,-3.208,-0.64,0.0
83.373,-9.464,0.439,17.0
0.0,0.0,0.0,0.0
0.0,0.0,0.0,0.0
0.0,0.0,0.0,0.0
35.401,-3.992,-0.574,0.0
30.382,-3.421,-0.655,3.0
83.377,-9.389,0.528,13.0
83.588,-9.396,0.083,2.0
0.0,0.0,0.0,0.0
42.236,-4.731,-0.414,0.0
0.0,0.0,0.0,0.0
30.904,-3.45,-0.634,0.0
83.386,-9.31,0.616,38.0
83.881,-9.347,0.171,27.0
0.0,0.0,0.0,0.0
44.695,-4.962,-0.391,3.0
36.934,-4.093,-0.521,0.0
30.945,-3.424,-0.602,0.0
83.359,-9.223,0.703,11.0
86.382,-9.539,0.266,5.0
0.0,0.0,0.0,0.0
0.0,0.0,0.0,0.0
38.127,-4.186,-0.499,0.0
0.0,0.0,0.0,0.0
83.369,-9.138,0.788,43.0
82.796,-9.056,0.339,7.0
0.0,0.0,0.0,0.0
0.0,0.0,0.0,0.0
39.148,-4.257,-0.473,0.0
34.799,-3.776,-0.607,0.0
83.239,-9.034,0.87,39.0
83.355,-9.027,0.425,48.0
0.0,0.0,0.0,0.0
0.0,0.0,0.0,0.0
0.0,0.0,0.0,0.0
0.0,0.0,0.0,0.0
83.367,-8.953,0.955,38.0
83.469,-8.944,0.508,9.0
0.0,0.0,0.0,0.0
0.0,0.0,0.0,0.0
42.372,-4.51,-0.428,1.0
0.0,0.0,0.0,0.0
84.768,-9.005,1.053,3.0
84.967,-9.005,0.599,2.0
0.0,0.0,0.0,0.0
0.0,0.0,0.0,0.0
0.0,0.0,0.0,0.0
36.827,-3.868,-0.535,0.0
85.746,-9.007,1.145,4.0
86.012,-9.013,0.686,4.0
85.741,-8.964,0.223,15.0
0.0,0.0,0.0,0.0
0.0,0.0,0.0,0.0
0.0,0.0,0.0,0.0
86.261,-8.954,1.232,12.0
86.288,-8.934,0.768,13.0
0.0,0.0,0.0,0.0
0.0,0.0,0.0,0.0
0.0,0.0,0.0,0.0
38.0,-3.895,-0.482,0.0
87.712,-8.992,1.331,3.0
83.38,-8.525,0.817,4.0
100.371,-10.235,0.444,7.0
0.0,0.0,0.0,0.0
0.0,0.0,0.0,0.0
40.83,-4.132,-0.482,0.0
88.815,-8.987,1.427,3.0
89.006,-8.982,0.95,12.0
89.111,-8.968,0.471,8.0
0.0,0.0,0.0,0.0
0.0,0.0,0.0,0.0
41.785,-4.171,-0.458,0.0
90.172,-9.002,1.526,42.0
90.274,-8.986,1.041,78.0
90.331,-8.966,0.556,71.0
0.0,0.0,0.0,0.0
0.0,0.0,0.0,0.0
42.294,-4.163,-0.428,0.0
90.3,-8.889,1.604,16.0
90.356,-8.868,1.116,30.0
90.362,-8.844,0.629,14.0
0.0,0.0,0.0,0.0
0.0,0.0,0.0,0.0
0.0,0.0,0.0,0.0
90.366,-8.768,1.676,66.0
0.0,0.0,0.0,0.0
90.368,-8.715,0.701,45.0
90.353,-8.687,0.204,42.0
0.0,0.0,0.0,0.0
45.521,-4.35,-0.388,1.0
90.38,-8.638,1.747,50.0
90.376,-8.609,1.258,19.0
90.375,-8.582,0.769,45.0
90.387,-8.558,0.272,37.0
0.0,0.0,0.0,0.0
0.0,0.0,0.0,0.0
90.38,-8.504,1.813,46.0
90.39,-8.477,1.324,35.0
90.365,-8.447,0.836,18.0
90.367,-8.42,0.337,28.0
0.0,0.0,0.0,0.0
0.0,0.0,0.0,0.0
90.389,-8.367,1.879,36.0
90.393,-8.338,1.39,41.0
90.39,-8.31,0.9,32.0
90.338,-8.278,0.402,14.0
0.0,0.0,0.0,0.0
0.0,0.0,0.0,0.0
90.368,-8.226,1.941,31.0
90.397,-8.2,1.451,33.0
90.383,-8.169,0.961,40.0
90.399,-8.142,0.463,37.0
0.0,0.0,0.0,0.0
0.0,0.0,0.0,0.0
90.399,-8.084,2.001,48.0
90.408,-8.056,1.511,36.0
90.394,-8.025,1.02,43.0
90.396,-7.997,0.52,40.0
0.0,0.0,0.0,0.0
0.0,0.0,0.0,0.0
90.38,-7.938,2.057,37.0
90.38,-7.908,1.567,35.0
90.386,-7.879,1.076,40.0
90.399,-7.852,0.576,35.0
0.0,0.0,0.0,0.0
0.0,0.0,0.0,0.0
90.387,-7.79,2.111,35.0
90.389,-7.761,1.62,35.0
90.394,-7.731,1.129,45.0
90.406,-7.702,0.628,40.0
90.387,-7.672,0.137,5.0
0.0,0.0,0.0,0.0
90.381,-7.639,2.163,17.0
90.409,-7.611,1.672,47.0
90.391,-7.579,1.18,42.0
90.408,-7.551,0.678,63.0
90.408,-7.522,0.187,38.0
0.0,0.0,0.0,0.0
127.502,-10.561,3.119,24.0
90.442,-7.461,1.72,150.0
100.06,-8.219,1.358,10.0
99.948,-8.176,0.803,15.0
99.95,-8.142,0.259,2.0
0.0,0.0,0.0,0.0
127.51,-10.341,3.184,28.0
116.672,-9.421,2.277,15.0
100.074,-8.046,1.408,11.0
100.047,-8.01,0.853,14.0
99.827,-7.959,0.306,6.0
0.0,0.0,0.0,0.0
127.488,-10.114,3.244,30.0
118.61,-9.369,2.371,8.0
100.061,-7.869,1.454,11.0
100.032,-7.833,0.898,16.0
99.551,-7.761,0.35,8.0
0.0,0.0,0.0,0.0
127.519,-9.894,3.3,60.0
127.535,-9.849,2.604,7.0
100.109,-7.695,1.497,9.0
100.12,-7.661,0.94,14.0
99.493,-7.579,0.391,11.0
0.0,0.0,0.0,0.0
0.0,0.0,0.0,0.0
123.786,-9.337,2.577,5.0
100.061,-7.51,1.536,11.0
100.062,-7.475,0.979,12.0
99.499,-7.398,0.429,11.0
0.0,0.0,0.0,0.0
109.111,-8.069,2.908,4.0
127.105,-9.356,2.692,2.0
100.042,-7.327,1.571,9.0
100.06,-7.293,1.014,11.0
99.874,-7.244,0.465,11.0
64.545,-4.658,-0.052,1.0
109.145,-7.87,2.945,22.0
109.279,-7.841,2.35,45.0
100.109,-7.148,1.604,7.0
100.053,-7.107,1.045,9.0
99.938,-7.064,0.496,12.0
0.0,0.0,0.0,0.0
109.062,-7.663,2.975,45.0
109.308,-7.639,2.382,36.0
100.09,-6.96,1.633,7.0
100.028,-6.92,1.073,6.0
100.012,-6.883,0.524,6.0
0.0,0.0,0.0,0.0
109.136,-7.462,3.006,16.0
148.207,-10.079,3.268,16.0
0.0,0.0,0.0,0.0
0.0,0.0,0.0,0.0
99.697,-6.673,0.546,5.0
0.0,0.0,0.0,0.0
116.948,-7.775,3.248,13.0
117.158,-7.746,2.609,29.0
117.432,-7.721,1.97,9.0
125.188,-8.187,1.4,26.0
108.945,-7.084,0.619,4.0
0.0,0.0,0.0,0.0
117.188,-7.565,3.276,13.0
117.18,-7.52,2.631,33.0
125.273,-7.993,2.124,27.0
147.875,-9.381,1.679,20.0
0.0,0.0,0.0,0.0
0.0,0.0,0.0,0.0
117.421,-7.352,3.301,25.0
147.894,-9.205,3.343,11.0
148.388,-9.18,2.536,18.0
149.248,-9.179,1.715,22.0
0.0,0.0,0.0,0.0
0.0,0.0,0.0,0.0
117.279,-7.113,3.31,35.0
148.999,-8.983,3.384,18.0
148.634,-8.904,2.557,23.0
149.947,-8.927,1.737,17.0
119.917,-7.096,0.728,1.0
0.0,0.0,0.0,0.0
117.291,-6.882,3.32,16.0
149.583,-8.72,3.408,19.0
149.652,-8.667,2.584,11.0
114.879,-6.612,1.338,9.0
114.839,-6.567,0.704,5.0
0.0,0.0,0.0,0.0
119.896,-6.797,3.399,14.0
149.846,-8.438,3.42,5.0
140.711,-7.872,2.433,11.0
0.0,0.0,0.0,0.0
101.484,-5.602,0.623,151.0
0.0,0.0,0.0,0.0
140.726,-7.698,3.989,8.0
140.673,-7.642,3.21,33.0
102.246,-5.516,1.767,1.0
101.497,-5.438,1.183,3.0
102.232,-5.44,0.625,2.0
0.0,0.0,0.0,0.0
137.787,-7.26,3.901,12.0
140.664,-7.358,3.203,12.0
102.245,-5.311,1.762,1.0
101.364,-5.227,1.176,3.0
103.176,-5.282,0.626,4.0
0.0,0.0,0.0,0.0
139.168,-7.051,3.929,17.0
0.0,0.0,0.0,0.0
102.136,-5.098,1.751,1.0
101.517,-5.031,1.168,150.0
102.45,-5.04,0.611,1.0
101.562,-4.958,0.043,2.0
139.12,-6.767,3.912,9.0
0.0,0.0,0.0,0.0
0.0,0.0,0.0,0.0
101.564,-4.826,1.155,151.0
102.775,-4.847,0.599,1.0
0.0,0.0,0.0,0.0
142.258,-6.632,3.979,12.0
0.0,0.0,0.0,0.0
102.021,-4.679,1.719,1.0
101.532,-4.619,1.137,6.0
0.0,0.0,0.0,0.0
0.0,0.0,0.0,0.0
163.163,-7.272,4.531,11.0
0.0,0.0,0.0,0.0
0.0,0.0,0.0,0.0
101.495,-4.411,1.116,1.0
102.622,-4.423,0.558,4.0
0.0,0.0,0.0,0.0
139.882,-5.949,3.853,12.0
0.0,0.0,0.0,0.0
101.532,-4.243,1.667,11.0
0.0,0.0,0.0,0.0
0.0,0.0,0.0,0.0
0.0,0.0,0.0,0.0
141.765,-5.74,3.867,15.0
162.471,-6.516,3.526,5.0
0.0,0.0,0.0,0.0
0.0,0.0,0.0,0.0
0.0,0.0,0.0,0.0
0.0,0.0,0.0,0.0
142.422,-5.477,3.841,13.0
162.383,-6.183,3.474,9.0
162.228,-6.116,2.565,11.0
162.174,-6.054,1.644,14.0
160.826,-5.944,0.733,3.0
0.0,0.0,0.0,0.0
163.425,-5.944,4.35,4.0
162.231,-5.839,3.412,9.0
162.191,-5.779,2.506,15.0
162.1,-5.717,1.584,17.0
0.0,0.0,0.0,0.0
0.0,0.0,0.0,0.0
163.409,-5.609,4.287,21.0
162.266,-5.511,3.35,14.0
162.206,-5.448,2.442,21.0
162.028,-5.382,1.518,17.0
0.0,0.0,0.0,0.0
0.0,0.0,0.0,0.0
163.388,-5.273,4.217,15.0
162.346,-5.18,3.282,4.0
162.036,-5.11,2.369,17.0
0.0,0.0,0.0,0.0
0.0,0.0,0.0,0.0
0.0,0.0,0.0,0.0
163.331,-4.937,4.14,7.0
168.184,-5.023,3.322,19.0
161.907,-4.777,2.292,19.0
0.0,0.0,0.0,0.0
0.0,0.0,0.0,0.0
0.0,0.0,0.0,0.0
163.268,-4.602,4.057,4.0
178.171,-4.96,3.43,5.0
161.905,-4.447,2.209,22.0
160.726,-4.356,1.276,11.0
0.0,0.0,0.0,0.0
0.0,0.0,0.0,0.0
171.359,-4.479,4.166,3.0
170.391,-4.393,3.187,7.0
161.889,-4.114,2.119,25.0
160.633,-4.026,1.186,10.0
0.0,0.0,0.0,0.0
0.0,0.0,0.0,0.0
171.36,-4.13,4.068,5.0
170.383,-4.046,3.088,9.0
161.942,-3.785,2.025,5.0
0.0,0.0,0.0,0.0
0.0,0.0,0.0,0.0
0.0,0.0,0.0,0.0
0.0,0.0,0.0,0.0
170.248,-3.696,2.98,7.0
100.767,-2.152,1.198,10.0
100.853,-2.119,0.622,1.0
0.0,0.0,0.0,0.0
0.0,0.0,0.0,0.0
0.0,0.0,0.0,0.0
0.0,0.0,0.0,0.0
100.609,-1.947,1.13,26.0
100.805,-1.915,0.555,1.0
0.0,0.0,0.0,0.0
0.0,0.0,0.0,0.0
170.499,-3.074,3.715,3.0
0.0,0.0,0.0,0.0
100.613,-1.745,1.06,151.0
19.738,-0.335,0.094,0.0
0.0,0.0,0.0,0.0
0.0,0.0,0.0,0.0
0.0,0.0,0.0,0.0
100.931,-1.584,1.558,1.0
100.583,-1.545,0.986,150.0
19.726,-0.296,0.08,17.0
0.0,0.0,0.0,0.0
0.0,0.0,0.0,0.0
19.772,-0.277,0.401,1.0
19.744,-0.27,0.289,9.0
19.755,-0.263,0.178,27.0
19.772,-0.257,0.065,0.0
0.0,0.0,0.0,0.0
0.0,0.0,0.0,0.0
19.743,-0.237,0.385,13.0
19.748,-0.231,0.274,7.0
100.59,-1.144,0.828,31.0
0.0,0.0,0.0,0.0
0.0,0.0,0.0,0.0
19.776,-0.205,-0.173,0.0
19.759,-0.199,0.369,6.0
100.712,-0.98,1.313,83.0
100.623,-0.945,0.743,6.0
0.0,0.0,0.0,0.0
19.755,-0.172,-0.079,9.0
19.749,-0.165,-0.19,15.0
177.236,-1.433,3.156,19.0
100.773,-0.781,1.224,5.0
19.758,-0.146,0.128,0.0
19.743,-0.14,0.014,8.0
19.717,-0.133,-0.096,15.0
19.732,-0.127,-0.208,17.0
19.7,-0.121,0.333,7.0
19.71,-0.114,0.221,12.0
19.715,-0.108,0.11,12.0
19.701,-0.101,-0.003,14.0
19.712,-0.095,-0.114,16.0
19.735,-0.088,-0.226,15.0
19.659,-0.082,0.313,10.0
19.69,-0.076,0.203,14.0
19.703,-0.069,0.091,15.0
19.694,-0.063,-0.021,17.0
19.725,-0.057,-0.133,14.0
19.757,-0.051,-0.245,11.0
19.632,-0.044,0.294,11.0
19.646,-0.038,0.183,11.0
19.693,-0.032,0.072,13.0
19.718,-0.026,-0.041,12.0
19.76,-0.019,-0.153,2.0
0.0,0.0,0.0,0.0
19.625,-0.007,0.274,14.0
19.768,-0.001,0.164,3.0
19.779,0.004,0.052,3.0
19.73,0.011,-0.061,24.0
19.747,0.017,-0.173,11.0
19.751,0.023,-0.285,11.0
19.628,0.029,0.254,15.0
19.744,0.036,0.143,15.0
19.761,0.041,0.031,26.0
19.758,0.048,-0.082,41.0
19.766,0.054,-0.194,51.0
19.772,0.06,-0.307,31.0
19.628,0.066,0.233,16.0
19.68,0.072,0.122,14.0
19.726,0.079,0.01,12.0
19.738,0.085,-0.103,0.0
19.813,0.091,-0.217,0.0
33.169,0.163,-0.551,0.0
19.666,0.103,0.211,16.0
19.65,0.109,0.099,13.0
19.646,0.114,-0.011,13.0
19.666,0.12,-0.125,9.0
19.773,0.127,-0.238,0.0
0.0,0.0,0.0,0.0
19.663,0.138,0.189,15.0
19.64,0.144,0.077,12.0
19.632,0.15,-0.033,16.0
19.643,0.156,-0.147,14.0
19.657,0.162,-0.259,13.0
19.671,0.168,-0.371,16.0
19.672,0.174,0.166,12.0
19.655,0.18,0.054,11.0
19.644,0.186,-0.057,12.0
19.626,0.191,-0.17,17.0
19.644,0.197,-0.282,17.0
19.653,0.203,-0.394,17.0
19.768,0.21,0.143,22.0
19.688,0.215,0.031,8.0
19.641,0.22,-0.08,15.0
19.635,0.226,-0.194,16.0
19.655,0.232,-0.306,15.0
19.66,0.237,-0.418,17.0
19.77,0.245,0.119,12.0
19.662,0.249,0.006,0.0
19.662,0.255,-0.105,12.0
19.643,0.26,-0.219,15.0
19.668,0.266,-0.331,12.0
19.683,0.272,-0.444,10.0
0.0,0.0,0.0,0.0
55.068,0.795,-0.05,1.0
19.728,0.29,-0.13,0.0
19.676,0.295,-0.244,2.0
19.71,0.301,-0.357,0.0
27.214,0.423,-0.648,1.0
55.19,0.876,0.193,6.0
52.474,0.847,-0.115,4.0
0.0,0.0,0.0,0.0
33.246,0.555,-0.456,0.0
22.432,0.38,-0.435,0.0
26.557,0.458,-0.667,0.0
55.165,0.968,0.121,65.0
47.656,0.849,-0.167,0.0
36.036,0.652,-0.332,0.0
30.548,0.561,-0.459,0.0
29.117,0.543,-0.604,0.0
25.418,0.481,-0.673,0.0
55.238,1.062,0.046,20.0
44.912,0.875,-0.218,0.0
34.147,0.674,-0.361,2.0
29.243,0.585,-0.479,0.0
27.246,0.552,-0.602,0.0
24.763,0.509,-0.689,0.0
54.589,1.138,-0.027,1.0
41.263,0.871,-0.256,1.0
33.465,0.715,-0.399,1.0
28.186,0.609,-0.5,1.0
24.836,0.544,-0.583,0.0
23.408,0.518,-0.684,1.0
45.477,1.021,-0.086,1.0
38.768,0.88,-0.295,2.0
31.929,0.732,-0.425,0.0
26.505,0.615,-0.507,0.0
23.172,0.544,-0.576,0.0
22.813,0.541,-0.698,4.0
0.0,0.0,0.0,0.0
36.846,0.894,-0.333,2.0
30.3,0.743,-0.447,1.0
25.425,0.63,-0.523,0.0
22.26,0.557,-0.585,0.0
21.572,0.545,-0.691,4.0
40.124,1.026,-0.191,117.0
35.054,0.905,-0.367,1.0
29.125,0.759,-0.472,2.0
25.063,0.659,-0.552,0.0
21.149,0.562,-0.587,0.0
20.245,0.543,-0.678,0.0
40.01,1.084,-0.249,30.0
32.396,0.885,-0.387,0.0
27.8,0.767,-0.492,1.0
23.753,0.661,-0.558,0.0
20.735,0.581,-0.606,3.0
19.204,0.543,-0.672,0.0
39.93,1.141,-0.307,2.0
27.464,0.791,-0.368,2.0
26.813,0.778,-0.514,2.0
22.627,0.662,-0.566,0.0
19.983,0.589,-0.614,0.0
18.315,0.545,-0.668,1.0
36.646,1.1,-0.337,2.0
27.487,0.831,-0.41,3.0
25.519,0.777,-0.527,6.0
21.731,0.667,-0.576,1.0
19.307,0.597,-0.622,1.0
17.727,0.552,-0.673,0.0
40.134,1.261,-0.43,3.0
28.648,0.906,-0.471,2.0
24.421,0.778,-0.542,1.0
21.236,0.681,-0.595,1.0
19.054,0.616,-0.643,1.0
17.217,0.56,-0.68,1.0
40.142,1.316,-0.492,1.0
27.454,0.906,-0.494,2.0
22.727,0.755,-0.539,1.0
20.09,0.672,-0.594,0.0
18.272,0.615,-0.645,1.0
16.995,0.576,-0.698,0.0
30.325,1.035,-0.419,1.0
26.105,0.897,-0.51,1.0
22.207,0.768,-0.562,1.0
19.745,0.686,-0.615,3.0
40.172,1.406,-1.482,2.0
16.757,0.59,-0.714,0.0
29.19,1.034,-0.449,2.0
24.814,0.885,-0.524,1.0
21.443,0.769,-0.576,2.0
19.006,0.686,-0.622,2.0
17.287,0.627,-0.665,0.0
16.596,0.606,-0.734,0.0
27.747,1.019,-0.471,2.0
23.728,0.876,-0.539,1.0
20.65,0.767,-0.588,0.0
18.465,0.689,-0.634,3.0
17.03,0.639,-0.683,0.0
16.398,0.619,-0.752,0.0
26.923,1.022,-0.5,7.0
23.095,0.882,-0.562,2.0
19.844,0.761,-0.597,2.0
17.94,0.692,-0.645,3.0
16.813,0.652,-0.701,0.0
16.242,0.633,-0.771,1.0
23.816,0.933,-0.482,3.0
21.745,0.856,-0.565,1.0
19.37,0.766,-0.614,2.0
17.527,0.697,-0.659,2.0
16.662,0.666,-0.722,1.0
16.056,0.645,-0.789,1.0
23.656,0.954,-0.517,32.0
21.028,0.852,-0.58,1.0
18.624,0.758,-0.621,3.0
17.135,0.701,-0.672,2.0
16.495,0.678,-0.742,2.0
15.941,0.658,-0.809,2.0
23.43,0.972,-0.551,10.0
20.052,0.835,-0.587,1.0
18.2,0.761,-0.637,3.0
16.928,0.711,-0.692,2.0
16.309,0.688,-0.761,2.0
15.411,0.653,-0.808,0.0
22.044,0.938,-0.555,2.0
19.569,0.836,-0.605,2.0
17.738,0.761,-0.651,4.0
16.732,0.721,-0.712,1.0
16.128,0.698,-0.78,2.0
14.992,0.652,-0.811,0.0
21.166,0.923,-0.568,2.0
18.785,0.823,-0.613,3.0
17.242,0.758,-0.662,2.0
16.539,0.73,-0.732,2.0
15.955,0.707,-0.798,4.0
14.545,0.647,-0.812,0.0
23.633,1.055,-0.674,1.0
18.324,0.821,-0.629,3.0
17.016,0.765,-0.682,2.0
16.324,0.737,-0.75,2.0
15.736,0.713,-0.814,0.0
14.199,0.646,-0.816,0.0
19.645,0.896,-0.594,2.0
17.837,0.816,-0.642,2.0
16.819,0.773,-0.702,2.0
16.161,0.745,-0.77,2.0
23.651,1.094,-1.264,0.0
23.643,1.098,-1.4,1.0
18.958,0.882,-0.605,3.0
17.349,0.81,-0.654,2.0
16.624,0.779,-0.722,2.0
16.0,0.752,-0.789,3.0
23.593,1.113,-1.301,1.0
23.621,1.118,-1.439,0.0
18.449,0.875,-0.62,3.0
17.05,0.811,-0.671,2.0
16.382,0.782,-0.74,2.0
23.622,1.132,-1.206,1.0
23.624,1.135,-1.343,1.0
23.624,1.139,-1.48,0.0
18.018,0.87,-0.637,3.0
16.878,0.818,-0.694,2.0
16.214,0.788,-0.76,2.0
23.615,1.151,-1.247,1.0
23.609,1.154,-1.383,2.0
23.609,1.158,-1.52,1.0
17.534,0.861,-0.65,1.0
16.668,0.821,-0.714,1.0
16.026,0.792,-0.779,2.0
23.628,1.171,-1.288,1.0
23.608,1.173,-1.423,2.0
23.634,1.178,-1.562,1.0
17.104,0.853,-0.663,2.0
16.455,0.823,-0.733,1.0
15.92,0.798,-0.801,1.0
23.634,1.189,-1.328,1.0
23.643,1.192,-1.465,0.0
12.417,0.628,-0.841,0.0
16.943,0.857,-0.685,2.0
16.254,0.825,-0.751,1.0
23.678,1.205,-1.232,0.0
23.612,1.204,-1.367,1.0
23.611,1.207,-1.504,0.0
12.221,0.626,-0.849,0.0
16.753,0.859,-0.706,1.0
16.024,0.824,-0.768,2.0
23.684,1.221,-1.273,0.0
23.635,1.222,-1.409,1.0
23.641,1.225,-1.547,1.0
12.041,0.625,-0.857,0.0
16.511,0.858,-0.724,1.0
15.949,0.83,-0.792,2.0
23.718,1.238,-1.315,0.0
13.34,0.698,-0.818,0.0
12.493,0.655,-0.838,0.0
11.77,0.618,-0.858,0.0
16.305,0.857,-0.743,1.0
15.469,0.815,-0.794,0.0
14.12,0.745,-0.807,0.0
13.09,0.692,-0.825,0.0
12.314,0.653,-0.848,0.0
11.605,0.617,-0.866,0.0
16.094,0.855,-0.761,1.0
14.926,0.794,-0.792,0.0
13.723,0.732,-0.808,0.0
12.868,0.688,-0.833,0.0
12.085,0.647,-0.853,0.0
11.358,0.61,-0.867,0.0
15.977,0.857,-0.783,3.0
14.518,0.78,-0.795,0.0
13.398,0.722,-0.812,0.0
12.652,0.683,-0.841,0.0
11.853,0.641,-0.857,0.0
11.084,0.6,-0.866,0.0
15.653,0.847,-0.794,0.0
14.19,0.769,-0.802,0.0
13.237,0.719,-0.824,0.0
12.353,0.672,-0.842,0.0
11.688,0.637,-0.865,0.0
10.912,0.596,-0.871,0.0
15.052,0.822,-0.789,0.0
13.84,0.757,-0.806,0.0
12.948,0.709,-0.829,0.0
12.121,0.665,-0.847,0.0
11.394,0.626,-0.863,0.0
10.705,0.589,-0.873,0.0
14.708,0.809,-0.796,0.0
13.608,0.749,-0.815,0.0
12.685,0.7,-0.834,0.0
11.904,0.658,-0.852,0.0
11.165,0.618,-0.864,0.0
10.531,0.584,-0.877,0.0
14.26,0.789,-0.796,0.0
13.274,0.736,-0.818,0.0
12.429,0.69,-0.838,0.0
11.681,0.649,-0.856,0.0
10.965,0.611,-0.867,0.0
10.395,0.58,-0.883,0.0
13.933,0.776,-0.801,0.0
13.076,0.729,-0.828,0.0
12.215,0.682,-0.844,0.0
11.524,0.644,-0.864,0.0
10.73,0.601,-0.867,0.0
10.235,0.574,-0.887,0.0
13.532,0.757,-0.801,0.0
12.786,0.716,-0.831,0.0
12.009,0.674,-0.85,0.0
11.25,0.632,-0.863,0.0
10.571,0.595,-0.872,0.0
10.071,0.567,-0.89,0.0
13.385,0.752,-0.815,0.0
12.577,0.708,-0.838,0.0
11.783,0.664,-0.854,0.0
11.093,0.625,-0.869,0.0
10.426,0.589,-0.877,0.0
9.966,0.563,-0.897,0.0
13.152,0.742,-0.822,0.0
12.314,0.695,-0.841,0.0
11.594,0.655,-0.859,0.0
10.867,0.615,-0.869,0.0
10.313,0.584,-0.885,0.0
9.79,0.555,-0.897,0.0
12.871,0.728,-0.825,0.0
12.127,0.686,-0.848,0.0
11.409,0.646,-0.864,0.0
10.666,0.605,-0.871,0.0
10.149,0.576,-0.888,0.0
9.639,0.548,-0.899,0.0
12.625,0.715,-0.83,0.0
11.91,0.675,-0.852,0.0
11.148,0.633,-0.862,0.0
10.483,0.596,-0.873,0.0
10.01,0.569,-0.892,0.0
9.515,0.542,-0.903,0.0
12.409,0.704,-0.836,0.0
11.674,0.663,-0.854,0.0
10.93,0.621,-0.863,0.0
10.317,0.587,-0.876,0.0
9.862,0.561,-0.894,0.0
9.361,0.533,-0.903,0.0
12.186,0.692,-0.84,0.0
11.505,0.654,-0.86,0.0
10.745,0.611,-0.866,0.0
10.252,0.583,-0.886,0.0
9.722,0.553,-0.897,0.0
9.192,0.524,-0.902,0.0
12.061,0.685,-0.851,0.0
11.284,0.641,-0.861,0.0
10.573,0.601,-0.869,0.0
10.092,0.574,-0.889,0.0
9.579,0.545,-0.899,0.0
9.095,0.518,-0.907,0.0
11.809,0.67,-0.852,0.0
11.047,0.627,-0.861,0.0
10.428,0.592,-0.873,0.0
9.957,0.566,-0.893,0.0
9.433,0.536,-0.901,0.0
8.921,0.507,-0.904,0.0
11.564,0.655,-0.852,0.0
10.908,0.618,-0.867,0.0
10.351,0.587,-0.883,0.0
9.807,0.556,-0.894,0.0
9.326,0.529,-0.905,0.0
8.84,0.502,-0.909,0.0
11.445,0.647,-0.861,0.0
10.712,0.606,-0.868,0.0
10.208,0.577,-0.886,0.0
9.677,0.547,-0.897,0.0
9.17,0.519,-0.904,0.0
8.722,0.494,-0.911,0.0
11.221,0.632,-0.861,0.0
10.561,0.595,-0.871,0.0
10.084,0.569,-0.891,0.0
9.538,0.538,-0.899,0.0
9.041,0.51,-0.905,0.0
8.6,0.485,-0.911,0.0
11.031,0.62,-0.863,0.0
10.41,0.585,-0.874,0.0
9.94,0.558,-0.893,0.0
9.403,0.528,-0.9,0.0
8.902,0.5,-0.904,0.0
8.427,0.473,-0.905,0.0
10.885,0.609,-0.867,0.0
10.305,0.576,-0.881,0.0
9.819,0.549,-0.896,0.0
9.28,0.519,-0.902,0.0
8.8,0.492,-0.906,0.0
8.353,0.467,-0.909,0.0
10.721,0.596,-0.869,0.0
10.194,0.567,-0.886,0.0
9.674,0.538,-0.897,0.0
9.163,0.51,-0.903,0.0
8.712,0.485,-0.91,0.0
8.282,0.461,-0.913,0.0
10.527,0.583,-0.868,0.0
10.077,0.557,-0.89,0.0
9.52,0.527,-0.896,0.0
8.978,0.497,-0.898,0.0
8.588,0.475,-0.909,0.0
8.181,0.452,-0.913,0.0
10.434,0.574,-0.875,0.0
9.934,0.546,-0.891,0.0
9.428,0.518,-0.9,0.0
8.911,0.49,-0.903,0.0
8.094,0.444,-0.915,0.0
10.351,0.565,-0.882,0.0
9.809,0.535,-0.893,0.0
9.364,0.511,-0.906,0.0
8.838,0.482,-0.908,0.0
8.365,0.456,-0.908,0.0
8.009,0.437,-0.916,0.0
10.213,0.553,-0.884,0.0
9.714,0.526,-0.897,0.0
9.225,0.499,-0.905,0.0
8.739,0.473,-0.909,0.0
8.303,0.449,-0.912,0.0
7.947,0.43,-0.919,0.0
10.094,0.542,-0.887,0.0
9.572,0.514,-0.896,0.0
8.654,0.464,-0.911,0.0
8.201,0.44,-0.911,0.0
7.858,0.421,-0.919,0.0
10.01,0.533,-0.892,0.0
9.468,0.504,-0.899,0.0
8.171,0.434,-0.919,0.0
7.811,0.414,-0.924,0.0
9.864,0.52,-0.892,0.0
9.371,0.494,-0.901,0.0
8.44,0.444,-0.91,0.0
8.065,0.424,-0.917,0.0
7.765,0.408,-0.928,0.0
9.757,0.509,-0.894,0.0
9.273,0.483,-0.903,0.0
8.796,0.458,-0.907,0.0
8.372,0.436,-0.913,0.0
7.996,0.416,-0.918,0.0
7.706,0.4,-0.93,0.0
9.714,0.501,-0.901,0.0
8.681,0.447,-0.906,0.0
8.238,0.424,-0.908,0.0
7.941,0.408,-0.921,0.0
7.646,0.392,-0.932,0.0
9.558,0.487,-0.898,0.0
8.642,0.439,-0.911,0.0
8.132,0.413,-0.906,0.0
7.887,0.4,-0.924,0.0
7.54,0.382,-0.927,0.0
9.482,0.477,-0.901,0.0
8.539,0.428,-0.91,0.0
8.13,0.407,-0.914,0.0
7.796,0.39,-0.922,0.0
7.538,0.377,-0.935,0.0
9.422,0.468,-0.906,0.0
8.889,0.441,-0.906,0.0
8.443,0.418,-0.909,0.0
8.048,0.398,-0.914,0.0
7.737,0.382,-0.923,0.0
7.49,0.369,-0.937,0.0
8.826,0.431,-0.908,0.0
8.363,0.408,-0.909,0.0
7.994,0.389,-0.916,0.0
7.692,0.374,-0.926,0.0
7.425,0.361,-0.937,0.0
8.762,0.422,-0.911,0.0
8.299,0.399,-0.91,0.0
7.947,0.381,-0.919,0.0
7.666,0.367,-0.931,0.0
7.365,0.352,-0.937,0.0
8.673,0.411,-0.91,0.0
8.239,0.389,-0.912,0.0
7.891,0.372,-0.92,0.0
7.615,0.358,-0.932,0.0
7.288,0.343,-0.934,0.0
9.08,0.423,-0.909,0.0
8.603,0.4,-0.91,0.0
8.175,0.38,-0.912,0.0
7.818,0.362,-0.918,0.0
7.566,0.35,-0.933,0.0
7.255,0.335,-0.936,0.0
8.984,0.412,-0.907,0.0
8.543,0.391,-0.912,0.0
8.13,0.371,-0.915,0.0
7.799,0.355,-0.923,0.0
7.543,0.343,-0.936,0.0
7.245,0.328,-0.942,0.0
8.891,0.4,-0.906,0.0
8.51,0.382,-0.916,0.0
8.067,0.361,-0.914,0.0
7.769,0.347,-0.926,0.0
7.474,0.333,-0.934,0.0
7.232,0.322,-0.946,0.0
8.847,0.39,-0.908,0.0
8.387,0.369,-0.909,0.0
8.048,0.353,-0.919,0.0
7.698,0.337,-0.924,0.0
7.474,0.327,-0.94,0.0
7.22,0.315,-0.95,0.0
8.805,0.38,-0.911,0.0
8.354,0.36,-0.912,0.0
8.019,0.345,-0.922,0.0
7.704,0.33,-0.931,0.0
7.38,0.316,-0.934,0.0
7.183,0.306,-0.951,0.0
8.739,0.37,-0.911,0.0
8.311,0.351,-0.914,0.0
7.955,0.335,-0.92,0.0
7.644,0.321,-0.929,0.0
7.383,0.309,-0.94,0.0
7.139,0.298,-0.95,0.0
8.692,0.359,-0.912,0.0
8.31,0.343,-0.919,0.0
7.898,0.325,-0.919,0.0
7.619,0.312,-0.931,0.0
7.364,0.301,-0.942,0.0
7.064,0.288,-0.945,0.0
8.66,0.35,-0.914,0.0
8.264,0.333,-0.919,0.0
7.891,0.317,-0.923,0.0
7.561,0.303,-0.929,0.0
7.297,0.291,-0.939,0.0
7.035,0.28,-0.945,0.0
8.592,0.339,-0.912,0.0
8.205,0.323,-0.918,0.0
7.869,0.308,-0.925,0.0
7.558,0.295,-0.933,0.0
7.267,0.283,-0.939,0.0
7.026,0.273,-0.948,0.0
8.558,0.329,-0.914,0.0
8.159,0.313,-0.918,0.0
7.835,0.299,-0.926,0.0
7.544,0.287,-0.936,0.0
7.244,0.275,-0.94,0.0
7.002,0.265,-0.949,0.0
8.525,0.319,-0.915,0.0
8.134,0.303,-0.919,0.0
7.785,0.289,-0.924,0.0
7.474,0.277,-0.931,0.0
7.261,0.268,-0.946,0.0
6.98,0.257,-0.95,0.0
8.514,0.31,-0.918,0.0
8.091,0.293,-0.918,0.0
7.793,0.282,-0.929,0.0
7.47,0.269,-0.934,0.0
7.251,0.26,-0.948,0.0
6.949,0.248,-0.949,0.0
8.43,0.298,-0.912,0.0
8.115,0.286,-0.924,0.0
7.761,0.272,-0.928,0.0
7.449,0.26,-0.934,0.0
7.223,0.251,-0.947,0.0
6.927,0.24,-0.948,0.0
8.436,0.289,-0.916,0.0
8.067,0.276,-0.922,0.0
7.739,0.263,-0.929,0.0
7.433,0.252,-0.935,0.0
7.189,0.242,-0.946,0.0
6.923,0.232,-0.951,0.0
8.416,0.28,-0.917,0.0
8.043,0.266,-0.922,0.0
7.752,0.255,-0.933,0.0
7.443,0.244,-0.939,0.0
7.16,0.234,-0.944,0.0
6.88,0.223,-0.947,0.0
8.396,0.27,-0.918,0.0
8.024,0.257,-0.923,0.0
7.734,0.246,-0.933,0.0
7.404,0.234,-0.936,0.0
7.161,0.226,-0.947,0.0
6.873,0.216,-0.948,0.0
8.39,0.26,-0.919,0.0
8.011,0.247,-0.923,0.0
7.742,0.238,-0.936,0.0
7.392,0.226,-0.937,0.0
7.156,0.217,-0.948,0.0
6.878,0.208,-0.95,0.0
8.341,0.25,-0.916,0.0
8.043,0.239,-0.929,0.0
7.725,0.229,-0.936,0.0
7.394,0.218,-0.938,0.0
7.166,0.21,-0.95,0.0
6.884,0.2,-0.952,0.0
8.377,0.241,-0.921,0.0
8.029,0.23,-0.928,0.0
7.716,0.22,-0.936,0.0
7.376,0.209,-0.937,0.0
7.15,0.201,-0.949,0.0
6.862,0.192,-0.95,0.0
8.351,0.231,-0.92,0.0
8.022,0.221,-0.929,0.0
7.75,0.212,-0.941,0.0
7.399,0.201,-0.941,0.0
7.155,0.193,-0.951,0.0
6.851,0.184,-0.95,0.0
8.364,0.222,-0.922,0.0
8.026,0.212,-0.93,0.0
7.714,0.202,-0.937,0.0
7.361,0.192,-0.937,0.0
7.159,0.185,-0.952,0.0
6.81,0.175,-0.944,0.0
8.365,0.213,-0.922,0.0
8.019,0.202,-0.929,0.0
7.703,0.193,-0.936,0.0
7.386,0.184,-0.94,0.0
7.133,0.176,-0.948,0.0
6.853,0.168,-0.95,0.0
8.392,0.204,-0.925,0.0
7.995,0.193,-0.926,0.0
7.722,0.185,-0.938,0.0
7.385,0.175,-0.94,0.0
7.156,0.168,-0.951,0.0
6.84,0.16,-0.948,0.0
8.376,0.194,-0.923,0.0
8.005,0.183,-0.927,0.0
7.732,0.176,-0.939,0.0
7.392,0.167,-0.94,0.0
7.126,0.159,-0.947,0.0
6.862,0.152,-0.951,0.0
8.391,0.184,-0.924,0.0
8.025,0.175,-0.929,0.0
7.71,0.166,-0.936,0.0
7.408,0.159,-0.941,0.0
7.17,0.152,-0.952,0.0
6.87,0.144,-0.951,0.0
8.415,0.175,-0.925,0.0
8.044,0.166,-0.93,0.0
7.721,0.158,-0.936,0.0
7.41,0.15,-0.94,0.0
7.163,0.144,-0.95,0.0
6.895,0.137,-0.953,0.0
8.402,0.165,-0.922,0.0
8.051,0.157,-0.929,0.0
7.732,0.149,-0.935,0.0
7.379,0.141,-0.935,0.0
7.188,0.136,-0.951,0.0
6.9,0.129,-0.952,0.0
8.447,0.156,-0.925,0.0
8.099,0.148,-0.932,0.0
7.739,0.14,-0.934,0.0
7.416,0.133,-0.938,0.0
7.171,0.127,-0.947,0.0
6.899,0.121,-0.95,0.0
8.482,0.147,-0.927,0.0
8.113,0.139,-0.932,0.0
7.757,0.131,-0.934,0.0
7.451,0.125,-0.94,0.0
7.194,0.119,-0.948,0.0
6.911,0.113,-0.95,0.0
8.497,0.137,-0.926,0.0
8.125,0.13,-0.93,0.0
7.783,0.123,-0.935,0.0
7.434,0.116,-0.935,0.0
7.191,0.11,-0.945,0.0
6.927,0.105,-0.949,0.0
8.509,0.128,-0.924,0.0
8.135,0.12,-0.928,0.0
7.811,0.114,-0.935,0.0
7.497,0.108,-0.94,0.0
7.219,0.102,-0.946,0.0
6.956,0.097,-0.95,0.0
8.518,0.118,-0.921,0.0
8.147,0.111,-0.926,0.0
7.839,0.105,-0.935,0.0
7.531,0.1,-0.941,0.0
7.243,0.095,-0.946,0.0
6.968,0.09,-0.949,0.0
8.525,0.108,-0.918,0.0
8.2,0.103,-0.929,0.0
7.859,0.097,-0.934,0.0
7.574,0.092,-0.943,0.0
7.262,0.086,-0.944,0.0
7.027,0.082,-0.953,0.0
8.568,0.099,-0.918,0.0
8.23,0.094,-0.928,0.0
7.875,0.088,-0.931,0.0
7.58,0.083,-0.939,0.0
7.302,0.079,-0.946,0.0
7.041,0.074,-0.951,0.0
8.663,0.09,-0.924,0.0
8.277,0.085,-0.928,0.0
7.945,0.08,-0.935,0.0
7.628,0.075,-0.941,0.0
7.328,0.071,-0.945,0.0
7.083,0.067,-0.953,0.0
8.691,0.081,-0.922,0.0
8.331,0.076,-0.929,0.0
7.948,0.071,-0.931,0.0
7.687,0.067,-0.943,0.0
7.362,0.063,-0.944,0.0
7.123,0.059,-0.953,0.0
8.739,0.072,-0.921,0.0
8.339,0.067,-0.925,0.0
8.017,0.062,-0.933,0.0
7.67,0.058,-0.936,0.0
7.415,0.055,-0.946,0.0
7.126,0.051,-0.949,0.0
8.779,0.062,-0.919,0.0
8.399,0.058,-0.926,0.0
8.042,0.054,-0.931,0.0
7.721,0.05,-0.937,0.0
7.437,0.047,-0.944,0.0
7.162,0.044,-0.948,0.0
8.882,0.053,-0.924,0.0
8.443,0.049,-0.924,0.0
8.125,0.046,-0.934,0.0
7.78,0.042,-0.938,0.0
7.488,0.039,-0.944,0.0
7.186,0.036,-0.946,0.0
8.917,0.044,-0.92,0.0
8.518,0.04,-0.926,0.0
8.158,0.037,-0.932,0.0
7.818,0.034,-0.937,0.0
7.5,0.031,-0.94,0.0
7.222,0.028,-0.945,0.0
8.985,0.035,-0.92,0.0
8.598,0.031,-0.927,0.0
8.207,0.028,-0.93,0.0
7.879,0.026,-0.937,0.0
7.572,0.023,-0.942,0.0
7.269,0.021,-0.945,0.0
9.032,0.025,-0.917,0.0
8.633,0.022,-0.924,0.0
8.274,0.02,-0.931,0.0
7.937,0.017,-0.937,0.0
7.635,0.015,-0.943,0.0
7.324,0.013,-0.945,0.0
9.112,0.016,-0.917,0.0
8.724,0.014,-0.925,0.0
8.322,0.011,-0.928,0.0
7.98,0.009,-0.935,0.0
7.693,0.007,-0.943,0.0
7.39,0.006,-0.947,0.0
9.233,0.007,-0.92,0.0
8.785,0.005,-0.924,0.0
8.398,0.003,-0.929,0.0
8.035,0.001,-0.933,0.0
7.746,0.0,-0.942,0.0
7.421,-0.001,-0.943,0.0
9.31,-0.002,-0.919,0.0
8.873,-0.003,-0.924,0.0
8.485,-0.005,-0.93,0.0
8.086,-0.006,-0.931,0.0
7.799,-0.007,-0.94,0.0
7.486,-0.008,-0.944,0.0
9.38,-0.011,-0.916,0.0
8.94,-0.012,-0.922,0.0
8.523,-0.013,-0.925,0.0
8.158,-0.014,-0.931,0.0
7.864,-0.015,-0.94,0.0
7.547,-0.016,-0.943,0.0
9.479,-0.02,-0.916,0.0
8.999,-0.021,-0.918,0.0
8.599,-0.021,-0.924,0.0
8.251,-0.022,-0.932,0.0
7.938,-0.023,-0.94,0.0
7.611,-0.023,-0.943,0.0
9.579,-0.029,-0.915,0.0
9.119,-0.03,-0.92,0.0
8.718,-0.03,-0.927,0.0
8.336,-0.03,-0.932,0.0
8.013,-0.03,-0.94,0.0
7.685,-0.031,-0.943,0.0
9.707,-0.039,-0.916,0.0
9.225,-0.038,-0.92,0.0
8.807,-0.038,-0.926,0.0
8.424,-0.038,-0.932,0.0
8.073,-0.038,-0.937,0.0
7.752,-0.038,-0.942,0.0
9.777,-0.048,-0.911,0.0
9.324,-0.047,-0.919,0.0
8.897,-0.047,-0.925,0.0
8.476,-0.046,-0.928,0.0
8.138,-0.046,-0.935,0.0
7.821,-0.045,-0.941,0.0
9.912,-0.057,-0.911,0.0
9.418,-0.056,-0.917,0.0
8.975,-0.055,-0.922,0.0
8.576,-0.054,-0.928,0.0
8.215,-0.053,-0.933,0.0
7.91,-0.053,-0.942,0.0
10.038,-0.067,-0.91,0.0
9.532,-0.065,-0.916,0.0
9.076,-0.063,-0.921,0.0
8.674,-0.062,-0.927,0.0
8.317,-0.061,-0.934,0.0
8.007,-0.06,-0.943,0.0
10.164,-0.076,-0.909,0.0
9.676,-0.074,-0.917,0.0
9.19,-0.072,-0.92,0.0
8.775,-0.07,-0.927,0.0
8.406,-0.068,-0.933,0.0
8.08,-0.067,-0.94,0.0
10.308,-0.085,-0.908,0.0
9.78,-0.083,-0.914,0.0
9.301,-0.08,-0.919,0.0
8.844,-0.078,-0.922,0.0
8.482,-0.076,-0.93,0.0
8.143,-0.074,-0.936,0.0
10.434,-0.095,-0.904,0.0
9.907,-0.091,-0.912,0.0
9.424,-0.089,-0.918,0.0
8.996,-0.086,-0.925,0.0
8.622,-0.084,-0.933,0.0
8.24,-0.081,-0.936,0.0
10.603,-0.104,-0.904,0.0
10.043,-0.1,-0.91,0.0
9.545,-0.097,-0.916,0.0
9.115,-0.094,-0.924,0.0
8.684,-0.091,-0.927,0.0
8.355,-0.089,-0.937,0.0
10.757,-0.114,-0.902,0.0
10.193,-0.109,-0.909,0.0
9.729,-0.106,-0.919,0.0
9.263,-0.102,-0.926,0.0
8.821,-0.098,-0.929,0.0
8.455,-0.096,-0.936,0.0
10.952,-0.123,-0.902,0.0
10.352,-0.118,-0.908,0.0
9.821,-0.113,-0.914,0.0
9.35,-0.109,-0.921,0.0
8.924,-0.106,-0.926,0.0
8.538,-0.102,-0.932,0.0
11.094,-0.132,-0.897,0.0
10.503,-0.127,-0.905,0.0
9.977,-0.122,-0.913,0.0
9.492,-0.117,-0.92,0.0
9.044,-0.113,-0.925,0.0
8.675,-0.11,-0.933,0.0
11.234,-0.141,-0.892,0.0
10.687,-0.136,-0.905,0.0
10.124,-0.13,-0.911,0.0
9.67,-0.126,-0.922,0.0
9.176,-0.12,-0.924,0.0
8.774,-0.116,-0.93,0.0
11.478,-0.151,-0.893,0.0
10.829,-0.144,-0.9,0.0
10.289,-0.138,-0.909,0.0
9.768,-0.133,-0.916,0.0
9.335,-0.128,-0.925,0.0
8.888,-0.123,-0.928,0.0
11.671,-0.161,-0.889,0.0
11.05,-0.154,-0.9,0.0
10.44,-0.146,-0.906,0.0
9.934,-0.141,-0.916,0.0
9.48,-0.135,-0.924,0.0
9.025,-0.13,-0.928,0.0
11.835,-0.17,-0.883,0.0
11.205,-0.162,-0.895,0.0
10.629,-0.155,-0.905,0.0
10.087,-0.148,-0.913,0.0
9.613,-0.142,-0.921,0.0
9.165,-0.137,-0.927,0.0
11.995,-0.178,-0.875,0.0
11.402,-0.171,-0.891,0.0
10.805,-0.163,-0.902,0.0
10.275,-0.156,-0.913,0.0
9.771,-0.15,-0.92,0.0
9.313,-0.144,-0.926,0.0
12.238,-0.188,-0.872,0.0
11.627,-0.18,-0.89,0.0
11.024,-0.172,-0.901,0.0
10.442,-0.164,-0.91,0.0
9.917,-0.156,-0.917,0.0
9.476,-0.151,-0.926,0.0
12.56,-0.198,-0.874,0.0
11.807,-0.188,-0.883,0.0
11.199,-0.179,-0.897,0.0
10.61,-0.171,-0.906,0.0
10.085,-0.163,-0.915,0.0
9.607,-0.157,-0.922,0.0
12.796,-0.207,-0.868,0.0
11.998,-0.196,-0.877,0.0
11.421,-0.187,-0.894,0.0
10.773,-0.178,-0.901,0.0
10.268,-0.17,-0.913,0.0
9.755,-0.163,-0.919,0.0
13.123,-0.218,-0.867,0.0
12.268,-0.205,-0.875,0.0
11.648,-0.195,-0.892,0.0
11.027,-0.186,-0.903,0.0
10.432,-0.177,-0.909,0.0
9.921,-0.169,-0.917,0.0
13.377,-0.227,-0.86,0.0
12.523,-0.213,-0.871,0.0
11.836,-0.203,-0.885,0.0
11.193,-0.193,-0.897,0.0
10.645,-0.184,-0.909,0.0
10.114,-0.176,-0.917,0.0
13.723,-0.237,-0.858,0.0
12.825,-0.222,-0.869,0.0
12.039,-0.21,-0.879,0.0
11.435,-0.2,-0.895,0.0
10.824,-0.19,-0.904,0.0
10.286,-0.182,-0.914,0.0
14.09,-0.247,-0.855,0.0
13.1,-0.231,-0.864,0.0
12.309,-0.218,-0.876,0.0
11.688,-0.208,-0.894,0.0
11.035,-0.197,-0.902,0.0
10.493,-0.188,-0.913,0.0
14.429,-0.257,-0.85,0.0
13.507,-0.241,-0.866,0.0
12.635,-0.226,-0.876,0.0
11.88,-0.214,-0.887,0.0
11.256,-0.203,-0.899,0.0
10.688,-0.194,-0.909,0.0
14.859,-0.267,-0.847,0.0
13.757,-0.248,-0.856,0.0
12.854,-0.233,-0.867,0.0
12.101,-0.22,-0.88,0.0
11.498,-0.21,-0.896,0.0
10.935,-0.2,-0.91,0.0
15.191,-0.276,-0.837,0.0
14.195,-0.259,-0.856,0.0
13.217,-0.241,-0.866,0.0
12.361,-0.226,-0.876,0.0
11.743,-0.216,-0.893,0.0
11.095,-0.204,-0.902,0.0
15.687,-0.287,-0.835,0.0
14.513,-0.266,-0.848,0.0
13.64,-0.251,-0.868,0.0
12.65,-0.233,-0.872,0.0
11.994,-0.222,-0.89,0.0
11.326,-0.21,-0.899,0.0
16.136,-0.297,-0.829,0.0
14.978,-0.276,-0.847,0.0
13.828,-0.255,-0.854,0.0
12.928,-0.239,-0.867,0.0
12.193,-0.226,-0.881,0.0
11.55,-0.215,-0.895,0.0
16.708,-0.308,-0.826,0.0
15.322,-0.283,-0.837,0.0
14.277,-0.264,-0.854,0.0
13.3,-0.247,-0.866,0.0
12.424,-0.231,-0.873,0.0
11.794,-0.219,-0.891,0.0
17.3,-0.32,-0.822,0.0
15.816,-0.293,-0.833,0.0
14.732,-0.273,-0.853,0.0
13.714,-0.254,-0.866,1.0
12.828,-0.238,-0.877,0.0
12.044,-0.224,-0.886,0.0
17.821,-0.329,-0.812,0.0
16.353,-0.302,-0.83,0.0
15.13,-0.28,-0.846,0.0
14.074,-0.26,-0.862,0.0
13.128,-0.243,-0.872,0.0
12.32,-0.228,-0.882,0.0
18.536,-0.341,-0.808,0.0
16.93,-0.312,-0.826,0.0
15.591,-0.287,-0.841,0.0
14.381,-0.265,-0.851,0.0
13.491,-0.249,-0.869,0.0
12.63,-0.233,-0.879,0.0
19.162,-0.351,-0.797,0.0
17.52,-0.321,-0.819,0.0
15.953,-0.292,-0.829,0.0
14.914,-0.273,-0.854,0.0
13.784,-0.252,-0.86,0.0
12.903,-0.236,-0.872,0.0
19.718,-0.358,-0.781,0.0
18.017,-0.327,-0.807,0.0
16.5,-0.3,-0.824,0.0
15.189,-0.276,-0.839,0.0
14.263,-0.259,-0.862,0.0
13.214,-0.24,-0.867,0.0
20.407,-0.367,-0.769,0.0
18.773,-0.338,-0.804,0.0
17.24,-0.31,-0.827,0.0
15.704,-0.282,-0.836,0.0
14.615,-0.262,-0.854,0.0
13.687,-0.245,-0.871,0.0
21.372,-0.38,-0.762,0.0
19.462,-0.346,-0.794,0.0
17.761,-0.315,-0.816,0.0
16.326,-0.289,-0.836,0.0
15.032,-0.266,-0.848,0.0
14.015,-0.248,-0.863,0.0
21.833,-0.383,-0.734,3.0
20.092,-0.352,-0.779,0.0
18.48,-0.323,-0.812,0.0
16.85,-0.294,-0.829,0.0
15.549,-0.271,-0.845,0.0
14.442,-0.251,-0.86,0.0
22.803,-0.393,-0.721,0.0
20.77,-0.358,-0.764,0.0
19.036,-0.327,-0.798,0.0
17.302,-0.297,-0.817,0.0
15.938,-0.273,-0.835,0.0
14.805,-0.253,-0.852,0.0
24.17,-0.409,-0.716,0.0
21.667,-0.366,-0.753,2.0
19.712,-0.332,-0.787,1.0
17.998,-0.302,-0.813,0.0
16.503,-0.276,-0.831,0.0
15.216,-0.254,-0.845,0.0
25.19,-0.417,-0.696,0.0
22.266,-0.368,-0.729,1.0
20.386,-0.335,-0.773,0.0
18.721,-0.307,-0.809,0.0
17.121,-0.28,-0.828,0.0
15.651,-0.255,-0.838,0.0
26.254,-0.424,-0.673,0.0
23.246,-0.374,-0.715,0.0
21.203,-0.34,-0.761,0.0
19.404,-0.31,-0.799,0.0
17.634,-0.281,-0.817,0.0
16.224,-0.257,-0.836,0.0
27.745,-0.436,-0.655,0.0
24.627,-0.385,-0.708,0.0
21.969,-0.342,-0.745,0.0
19.991,-0.31,-0.783,0.0
18.412,-0.284,-0.816,0.0
16.82,-0.259,-0.832,0.0
29.38,-0.448,-0.634,0.0
25.69,-0.39,-0.687,0.0
22.837,-0.345,-0.728,0.0
20.618,-0.31,-0.766,0.0
19.013,-0.284,-0.805,0.0
17.407,-0.259,-0.827,0.0
30.288,-0.446,-0.593,0.0
26.943,-0.394,-0.666,0.0
24.216,-0.353,-0.724,0.0
21.484,-0.311,-0.755,0.0
19.684,-0.283,-0.793,1.0
17.965,-0.257,-0.817,0.0
0.0,0.0,0.0,0.0
0.0,0.0,0.0,0.0
25.111,-0.351,-0.7,0.0
22.394,-0.311,-0.742,1.0
19.819,-0.274,-0.759,3.0
18.758,-0.257,-0.816,0.0
34.178,-0.464,-0.532,0.0
29.733,-0.4,-0.616,0.0
26.187,-0.35,-0.678,0.0
23.269,-0.309,-0.724,0.0
20.241,-0.267,-0.734,0.0
19.412,-0.254,-0.805,1.0
36.669,-0.474,-0.497,0.0
0.0,0.0,0.0,0.0
27.805,-0.354,-0.664,0.0
24.549,-0.31,-0.715,0.0
22.06,-0.276,-0.757,0.0
19.783,-0.245,-0.781,2.0
0.0,0.0,0.0,0.0
33.394,-0.406,-0.559,0.0
29.039,-0.35,-0.635,0.0
25.594,-0.305,-0.695,0.0
22.745,-0.269,-0.735,0.0
19.81,-0.232,-0.742,5.0
0.0,0.0,0.0,0.0
35.152,-0.402,-0.518,0.0
30.291,-0.343,-0.603,0.0
26.394,-0.296,-0.665,0.0
23.812,-0.264,-0.723,0.0
21.479,-0.235,-0.763,0.0
0.0,0.0,0.0,0.0
0.0,0.0,0.0,0.0
19.689,-0.208,-0.353,0.0
28.159,-0.294,-0.653,0.0
24.953,-0.257,-0.708,0.0
22.356,-0.228,-0.749,1.0
0.0,0.0,0.0,0.0
19.76,-0.195,-0.213,0.0
19.786,-0.193,-0.316,0.0
19.773,-0.19,-0.419,5.0
19.773,-0.188,-0.522,1.0
23.052,-0.216,-0.728,0.0
19.727,-0.181,-0.072,0.0
19.776,-0.179,-0.174,7.0
19.759,-0.176,-0.276,10.0
19.746,-0.173,-0.38,13.0
19.753,-0.171,-0.483,12.0
19.759,-0.168,-0.585,9.0
19.786,-0.165,-0.034,0.0
19.762,-0.162,-0.136,11.0
19.747,-0.159,-0.238,13.0
19.738,-0.156,-0.342,15.0
19.733,-0.153,-0.444,17.0
19.752,-0.151,-0.547,17.0
19.776,-0.147,0.004,1.0
19.74,-0.144,-0.098,12.0
19.731,-0.141,-0.199,15.0
19.735,-0.138,-0.304,16.0
19.738,-0.135,-0.406,17.0
19.738,-0.132,-0.508,16.0
19.775,-0.129,0.042,6.0
19.765,-0.126,-0.06,9.0
19.728,-0.122,-0.162,16.0
19.728,-0.119,-0.266,17.0
19.737,-0.116,-0.368,17.0
19.743,-0.113,-0.47,17.0
19.74,-0.11,0.079,10.0
19.722,-0.106,-0.021,12.0
19.707,-0.103,-0.124,16.0
19.715,-0.1,-0.228,17.0
19.746,-0.097,-0.33,14.0
19.749,-0.093,-0.433,16.0
19.72,-0.09,0.117,15.0
19.71,-0.086,0.015,13.0
19.716,-0.083,-0.086,10.0
19.725,-0.08,-0.19,16.0
19.745,-0.076,-0.293,14.0
19.759,-0.073,-0.396,13.0
19.701,-0.069,0.154,17.0
19.703,-0.066,0.052,14.0
19.713,-0.062,-0.049,16.0
19.719,-0.059,-0.153,15.0
19.749,-0.056,-0.256,15.0
19.795,-0.052,-0.359,2.0
19.666,-0.048,0.191,14.0
19.694,-0.045,0.089,16.0
19.704,-0.041,-0.012,16.0
19.724,-0.038,-0.117,12.0
19.745,-0.034,-0.219,10.0
35.075,-0.054,-0.572,0.0
19.633,-0.026,0.227,15.0
19.677,-0.023,0.125,9.0
19.697,-0.019,0.023,13.0
19.736,-0.016,-0.081,7.0
19.758,-0.012,-0.183,1.0
35.792,-0.015,-0.518,0.0
