X,Y,Z,Reflectivity
0.0,0.0,0.0,0.0
0.0,0.0,0.0,0.0
0.0,0.0,0.0,0.0
0.0,0.0,0.0,0.0
0.0,0.0,0.0,0.0
0.0,0.0,0.0,0.0
0.0,0.0,0.0,0.0
0.0,0.0,0.0,0.0
100.382,6.307,12.245,6.0
100.398,6.323,11.674,8.0
100.327,6.333,11.096,8.0
100.16,6.338,10.499,10.0
100.025,6.344,9.919,12.0
99.972,6.357,9.349,18.0
99.884,6.395,12.165,35.0
99.9,6.41,11.598,32.0
99.898,6.425,11.029,32.0
99.891,6.439,10.451,36.0
99.908,6.454,9.887,34.0
99.927,6.471,9.324,34.0
99.884,6.512,12.143,37.0
99.9,6.527,11.574,34.0
99.89,6.54,11.004,38.0
99.903,6.555,10.427,37.0
99.904,6.57,9.861,35.0
99.924,6.586,9.297,35.0
99.888,6.627,12.116,36.0
99.906,6.642,11.547,34.0
99.866,6.653,10.973,36.0
99.898,6.668,10.399,35.0
99.892,6.682,9.83,37.0
99.929,6.698,9.268,34.0
99.889,6.74,12.085,32.0
99.9,6.754,11.515,35.0
99.884,6.766,10.943,33.0
99.882,6.779,10.364,36.0
99.908,6.795,9.798,34.0
99.931,6.812,9.233,34.0
99.89,6.852,12.049,34.0
99.897,6.865,11.478,31.0
99.889,6.877,10.907,33.0
99.887,6.891,10.327,34.0
99.931,6.906,9.763,36.0
99.903,6.918,9.193,32.0
99.866,6.96,12.007,33.0
99.893,6.973,11.438,38.0
99.9,6.986,10.868,38.0
99.911,7.0,10.288,34.0
99.9,7.012,9.718,34.0
99.929,7.026,9.153,36.0
99.89,7.068,11.966,33.0
99.903,7.08,11.395,36.0
99.927,7.093,10.826,35.0
99.909,7.104,10.243,38.0
99.906,7.116,9.673,36.0
99.929,7.131,9.107,36.0
99.884,7.172,11.918,34.0
99.878,7.183,11.343,35.0
99.878,7.194,10.772,34.0
99.924,7.208,10.195,39.0
99.92,7.22,9.624,37.0
99.939,7.234,9.057,33.0
99.534,7.249,11.824,4.0
99.413,7.25,11.239,2.0
99.194,7.245,10.645,2.0
99.262,7.261,10.074,3.0
99.324,7.276,9.514,2.0
99.082,7.271,8.926,2.0
99.008,7.31,11.706,10.0
99.011,7.32,11.137,10.0
99.04,7.331,10.572,10.0
99.007,7.339,9.992,11.0
99.057,7.353,9.431,13.0
99.017,7.362,8.862,13.0
98.988,7.404,11.645,43.0
98.999,7.414,11.076,43.0
98.994,7.423,10.507,50.0
98.998,7.434,9.93,56.0
99.019,7.446,9.366,55.0
99.028,7.456,8.802,47.0
99.018,7.5,11.584,7.0
99.004,7.507,11.013,74.0
98.98,7.514,10.442,8.0
99.014,7.527,9.867,6.0
99.07,7.54,9.307,4.0
99.057,7.549,8.739,13.0
94.877,7.273,11.036,4.0
94.817,7.276,10.484,4.0
94.86,7.287,9.943,4.0
94.789,7.291,9.382,4.0
94.855,7.305,8.845,4.0
94.907,7.318,8.307,5.0
94.828,7.354,10.963,14.0
94.812,7.359,10.415,13.0
94.821,7.368,9.87,14.0
94.804,7.375,9.315,16.0
94.826,7.386,8.772,16.0
94.867,7.397,8.234,18.0
94.807,7.434,10.89,45.0
94.814,7.441,10.343,49.0
94.814,7.449,9.797,48.0
94.817,7.457,9.243,50.0
94.834,7.466,8.701,45.0
94.833,7.474,8.158,44.0
94.791,7.511,10.813,10.0
94.813,7.519,10.269,11.0
94.823,7.527,9.723,13.0
94.804,7.533,9.166,10.0
94.812,7.541,8.623,9.0
94.858,7.553,8.084,10.0
94.928,7.599,10.75,2.0
94.804,7.595,10.188,2.0
94.945,7.612,9.657,4.0
94.881,7.613,9.095,3.0
94.937,7.625,8.555,4.0
94.862,7.627,8.004,3.0
98.673,7.974,11.089,6.0
98.305,7.95,10.48,6.0
98.232,7.951,9.905,6.0
98.253,7.959,9.331,6.0
98.401,7.977,8.781,6.0
98.563,7.998,8.23,7.0
97.461,7.949,10.866,10.0
97.616,7.966,10.319,10.0
97.716,7.98,9.766,11.0
97.89,8.0,9.21,10.0
98.061,8.019,8.663,10.0
98.027,8.023,8.097,10.0
97.075,7.985,10.734,11.0
97.16,7.996,10.182,10.0
97.187,8.003,9.624,10.0
97.159,8.007,9.05,9.0
96.956,7.996,8.474,9.0
96.784,7.987,7.903,9.0
96.406,7.994,10.568,7.0
96.254,7.987,9.993,7.0
96.056,7.974,9.418,7.0
96.032,7.977,8.852,9.0
96.125,7.989,8.308,8.0
96.246,8.005,7.766,10.0
87.169,7.284,9.469,1.0
87.212,7.29,8.969,1.0
87.168,7.29,8.461,1.0
87.023,7.282,7.936,2.0
87.231,7.303,7.452,1.0
87.125,7.299,6.943,1.0
87.09,7.33,9.371,4.0
87.158,7.337,8.874,4.0
87.043,7.331,8.359,4.0
87.069,7.336,7.851,3.0
87.115,7.343,7.354,4.0
87.095,7.346,6.852,5.0
87.071,7.377,9.278,12.0
87.036,7.376,8.77,11.0
87.063,7.381,8.27,11.0
87.069,7.383,7.76,9.0
87.033,7.384,7.255,8.0
87.074,7.391,6.758,11.0
87.016,7.418,9.179,30.0
87.039,7.421,8.677,25.0
87.04,7.424,8.174,22.0
87.051,7.426,7.664,18.0
87.049,7.429,7.162,19.0
87.063,7.432,6.663,20.0
87.025,7.461,9.084,48.0
87.034,7.463,8.58,61.0
87.042,7.465,8.077,60.0
87.032,7.466,7.566,62.0
87.034,7.469,7.064,54.0
87.042,7.472,6.563,63.0
87.026,7.501,8.984,29.0
87.021,7.5,8.48,38.0
87.039,7.504,7.978,46.0
87.035,7.504,7.466,54.0
87.061,7.508,6.967,58.0
87.043,7.509,6.464,48.0
87.038,7.538,8.885,44.0
87.02,7.536,8.378,15.0
87.035,7.538,7.877,18.0
87.041,7.54,7.365,25.0
87.039,7.541,6.863,26.0
87.05,7.543,6.363,37.0
87.038,7.57,8.782,36.0
87.01,7.568,8.274,9.0
87.048,7.571,7.775,10.0
87.039,7.57,7.263,12.0
87.031,7.57,6.761,14.0
87.05,7.573,6.261,48.0
87.048,7.6,8.679,23.0
87.019,7.596,8.172,6.0
87.018,7.596,7.668,6.0
87.081,7.601,7.162,7.0
87.068,7.6,6.658,10.0
87.071,7.601,6.158,36.0
87.052,7.626,8.572,4.0
87.082,7.627,8.071,3.0
87.009,7.62,7.56,4.0
87.046,7.622,7.051,4.0
87.084,7.625,6.552,8.0
87.064,7.624,6.049,13.0
82.828,7.277,8.052,1.0
0.0,0.0,0.0,0.0
87.016,7.641,7.45,1.0
82.993,7.288,6.618,1.0
87.099,7.647,6.443,4.0
87.098,7.647,5.942,3.0
83.047,7.314,7.968,1.0
0.0,0.0,0.0,0.0
83.05,7.31,7.006,1.0
83.147,7.317,6.524,0.0
87.071,7.662,6.33,12.0
87.072,7.661,5.828,1.0
82.921,7.317,7.847,2.0
82.945,7.316,7.368,2.0
83.006,7.32,6.893,1.0
83.047,7.321,6.409,0.0
87.045,7.672,6.215,10.0
82.941,7.309,5.444,1.0
82.91,7.327,7.737,3.0
83.002,7.332,7.264,2.0
82.868,7.317,6.772,2.0
82.883,7.316,6.287,1.0
82.953,7.32,5.814,1.0
83.052,7.327,5.342,1.0
82.96,7.339,7.631,3.0
82.936,7.333,7.148,2.0
82.948,7.33,6.669,4.0
82.892,7.323,6.177,1.0
83.087,7.338,5.712,1.0
82.947,7.323,5.226,2.0
82.973,7.343,7.522,3.0
82.916,7.334,7.036,3.0
82.967,7.335,6.559,3.0
82.92,7.328,6.068,2.0
82.973,7.33,5.593,1.0
82.892,7.32,5.11,2.0
82.934,7.341,7.404,3.0
82.939,7.336,6.924,2.0
82.918,7.33,6.442,2.0
82.981,7.333,5.959,1.0
82.944,7.326,5.478,2.0
82.983,7.326,5.003,1.0
82.93,7.337,7.29,3.0
83.005,7.339,6.815,3.0
82.944,7.329,6.33,3.0
83.002,7.329,5.847,2.0
82.963,7.323,5.365,1.0
82.991,7.322,4.888,0.0
82.972,7.333,7.178,3.0
82.93,7.324,6.693,4.0
82.937,7.321,6.213,1.0
83.103,7.33,5.738,1.0
83.055,7.322,5.256,1.0
82.994,7.313,4.773,0.0
83.021,7.327,7.066,2.0
82.951,7.315,6.579,1.0
87.076,7.674,6.402,1.0
87.255,7.684,5.903,1.0
87.167,7.671,5.394,1.0
87.12,7.663,4.888,3.0
83.136,7.323,6.957,1.0
82.98,7.304,6.463,1.0
87.042,7.655,6.276,33.0
87.066,7.651,5.766,3.0
87.078,7.646,5.264,4.0
87.084,7.643,4.762,6.0
87.237,7.666,7.175,1.0
87.088,7.646,6.657,4.0
87.064,7.638,6.152,41.0
87.047,7.63,5.639,6.0
87.084,7.627,5.139,8.0
87.101,7.623,4.639,9.0
87.065,7.629,7.034,4.0
87.06,7.621,6.529,11.0
87.083,7.616,6.027,10.0
87.042,7.605,5.512,10.0
87.082,7.603,5.013,12.0
87.071,7.596,4.511,18.0
87.068,7.602,6.908,11.0
87.06,7.594,6.404,47.0
87.041,7.585,5.899,13.0
87.03,7.577,5.386,18.0
87.082,7.574,4.887,26.0
87.075,7.567,4.385,47.0
87.025,7.569,6.777,18.0
87.055,7.563,6.276,42.0
87.049,7.555,5.773,32.0
87.047,7.547,5.261,52.0
87.07,7.541,4.76,70.0
87.09,7.536,4.26,65.0
87.035,7.536,6.651,38.0
87.045,7.528,6.148,60.0
87.053,7.52,5.646,72.0
87.065,7.513,5.135,94.0
87.06,7.505,4.633,122.0
87.071,7.498,4.132,52.0
87.055,7.499,6.525,58.0
87.047,7.49,6.021,70.0
87.073,7.483,5.519,38.0
87.056,7.473,5.007,26.0
87.076,7.467,4.507,23.0
87.079,7.459,4.005,14.0
87.065,7.459,6.398,31.0
87.049,7.448,5.893,15.0
87.021,7.436,5.388,11.0
40.059,3.419,2.245,8.0
40.07,3.416,2.015,36.0
40.094,3.414,1.785,91.0
40.064,3.411,2.884,9.0
40.06,3.406,2.653,43.0
40.086,3.404,2.423,97.0
40.095,3.4,2.188,112.0
40.1,3.397,1.957,101.0
40.086,3.391,1.726,132.0
40.076,3.39,2.826,97.0
40.085,3.386,2.594,118.0
40.081,3.38,2.363,118.0
40.081,3.376,2.128,104.0
40.096,3.373,1.898,111.0
40.089,3.368,1.667,144.0
40.087,3.366,2.767,138.0
40.089,3.361,2.536,118.0
40.089,3.356,2.305,110.0
40.089,3.351,2.069,110.0
40.089,3.347,1.839,136.0
40.086,3.342,1.608,150.0
40.073,3.339,2.707,150.0
40.081,3.334,2.476,115.0
40.09,3.33,2.246,105.0
40.086,3.325,2.01,114.0
40.082,3.319,1.779,150.0
40.087,3.315,1.549,150.0
40.09,3.312,2.649,109.0
40.088,3.307,2.418,127.0
40.091,3.302,2.187,118.0
40.081,3.296,1.952,128.0
40.09,3.291,1.721,150.0
40.085,3.286,1.491,148.0
40.082,3.282,2.59,138.0
40.084,3.277,2.358,122.0
40.079,3.271,2.127,122.0
40.088,3.266,1.893,128.0
40.095,3.261,1.662,145.0
40.092,3.256,1.432,119.0
40.089,3.251,2.531,119.0
40.092,3.245,2.3,115.0
40.092,3.24,2.069,97.0
40.06,3.232,1.833,57.0
40.08,3.228,1.603,8.0
0.0,0.0,0.0,0.0
40.073,3.217,2.47,9.0
0.0,0.0,0.0,0.0
41.855,3.347,2.099,65.0
41.89,3.344,1.855,130.0
41.889,3.338,1.614,143.0
41.892,3.332,1.374,124.0
41.881,3.325,2.52,114.0
41.879,3.318,2.279,128.0
41.877,3.312,2.037,79.0
41.885,3.306,1.793,150.0
41.886,3.3,1.552,125.0
41.893,3.294,1.312,110.0
41.887,3.288,2.459,123.0
41.894,3.282,2.219,126.0
41.892,3.275,1.978,89.0
41.881,3.267,1.732,142.0
41.887,3.261,1.492,117.0
41.885,3.255,1.252,73.0
41.882,3.247,2.398,99.0
41.863,3.239,2.156,46.0
41.884,3.234,1.917,5.0
0.0,0.0,0.0,0.0
43.681,3.358,1.493,140.0
43.689,3.352,1.243,143.0
43.675,3.343,2.438,133.0
43.675,3.336,2.187,136.0
43.671,3.328,1.936,150.0
43.675,3.321,1.681,150.0
43.688,3.315,1.431,150.0
43.696,3.309,1.181,123.0
43.677,3.299,2.376,134.0
43.674,3.29,2.125,136.0
43.677,3.283,1.874,150.0
43.68,3.276,1.619,150.0
43.68,3.268,1.368,134.0
43.683,3.261,1.119,91.0
43.667,3.25,2.313,83.0
43.657,3.242,2.062,34.0
0.0,0.0,0.0,0.0
0.0,0.0,0.0,0.0
45.481,3.353,1.361,26.0
40.37,2.969,0.976,99.0
45.456,3.333,2.344,150.0
45.467,3.325,2.083,150.0
45.464,3.316,1.822,150.0
45.471,3.308,1.557,150.0
40.396,2.932,1.151,101.0
40.582,2.938,0.925,91.0
45.473,3.281,2.281,150.0
45.469,3.272,2.02,150.0
45.441,3.261,1.758,61.0
45.472,3.255,1.494,4.0
41.306,2.95,1.121,68.0
40.868,2.911,0.875,83.0
99.973,7.097,4.878,30.0
99.961,7.075,4.304,32.0
99.962,7.056,3.732,45.0
99.982,7.039,3.149,30.0
41.989,2.948,1.082,118.0
41.224,2.886,0.827,79.0
99.959,6.973,4.741,34.0
99.968,6.953,4.169,35.0
99.951,6.932,3.596,37.0
42.833,2.961,1.291,12.0
43.021,2.966,1.05,74.0
41.147,2.829,0.77,3.0
99.958,6.845,4.605,33.0
99.965,6.824,4.033,35.0
99.988,6.806,3.462,36.0
43.597,2.958,1.256,54.0
43.642,2.953,1.007,84.0
43.962,2.966,0.764,72.0
99.966,6.716,4.473,36.0
99.974,6.694,3.901,38.0
99.958,6.673,3.328,40.0
44.736,2.977,1.229,76.0
45.034,2.987,0.98,107.0
45.181,2.987,0.725,115.0
99.95,6.578,4.339,36.0
99.971,6.559,3.768,38.0
99.955,6.535,3.196,32.0
45.185,2.944,1.182,96.0
45.198,2.936,0.925,43.0
45.216,2.928,0.667,3.0
100.069,6.448,4.214,17.0
100.553,6.458,3.66,8.0
163.504,10.464,5.017,6.0
0.0,0.0,0.0,0.0
112.425,7.146,2.155,52.0
112.467,7.125,1.516,4.0
112.433,7.086,4.591,3.0
112.282,7.05,3.943,3.0
45.188,2.827,1.329,10.0
45.183,2.817,1.066,92.0
45.202,2.808,0.809,29.0
45.212,2.798,0.551,2.0
197.54,12.164,7.816,16.0
162.583,9.973,5.506,9.0
45.192,2.761,1.272,6.0
134.318,8.176,3.002,33.0
0.0,0.0,0.0,0.0
99.723,6.026,1.093,12.0
197.68,11.877,7.577,8.0
162.729,9.739,5.309,11.0
45.21,2.695,1.217,25.0
45.206,2.684,0.955,150.0
45.202,2.674,0.697,27.0
45.218,2.664,0.441,4.0
198.153,11.605,7.355,12.0
163.423,9.534,5.135,15.0
0.0,0.0,0.0,0.0
167.861,9.711,3.346,6.0
99.808,5.75,1.421,8.0
99.65,5.718,0.852,7.0
198.963,11.345,7.147,5.0
45.229,2.567,1.367,2.0
45.203,2.555,1.109,44.0
45.206,2.544,0.847,73.0
45.205,2.533,0.59,3.0
63.076,3.52,0.465,3.0
162.732,9.022,5.655,4.0
45.195,2.494,1.313,12.0
0.0,0.0,0.0,0.0
0.0,0.0,0.0,0.0
122.41,6.664,1.458,4.0
45.233,2.451,0.281,5.0
162.577,8.75,5.462,8.0
45.213,2.421,1.261,77.0
45.209,2.409,1.005,4.0
45.234,2.4,0.744,1.0
100.02,5.281,1.077,14.0
45.214,2.376,0.23,7.0
162.84,8.495,5.288,10.0
163.305,8.475,4.375,6.0
45.155,2.332,0.953,0.0
45.211,2.323,0.693,8.0
45.211,2.311,0.436,95.0
45.179,2.298,0.18,48.0
163.349,8.247,5.125,15.0
45.198,2.269,1.161,1.0
45.376,2.266,0.908,0.0
0.0,0.0,0.0,0.0
23.61,1.167,0.202,0.0
45.188,2.221,0.131,29.0
23.606,1.151,0.715,15.0
23.63,1.145,0.581,35.0
23.624,1.139,0.447,38.0
23.615,1.132,0.311,38.0
23.613,1.126,0.177,38.0
23.61,1.119,0.043,46.0
23.589,1.109,0.689,62.0
23.588,1.102,0.556,67.0
23.586,1.096,0.422,65.0
23.584,1.089,0.286,65.0
23.587,1.083,0.153,67.0
23.593,1.077,0.019,68.0
23.597,1.068,0.666,120.0
23.594,1.061,0.532,108.0
23.594,1.054,0.399,56.0
23.602,1.048,0.263,51.0
23.613,1.042,0.129,45.0
23.621,1.036,-0.003,44.0
23.617,1.026,0.643,46.0
23.618,1.02,0.509,37.0
23.639,1.014,0.376,31.0
23.615,1.007,0.24,20.0
23.655,1.002,0.107,3.0
40.302,1.695,-0.045,32.0
100.522,4.187,2.642,13.0
100.503,4.158,2.073,20.0
40.338,1.657,0.604,1.0
40.387,1.647,0.372,151.0
40.357,1.635,0.144,147.0
40.344,1.623,-0.082,150.0
40.396,1.609,1.024,95.0
40.392,1.597,0.796,120.0
40.646,1.595,0.571,150.0
41.6,1.62,0.346,150.0
40.329,1.559,0.107,59.0
40.495,1.554,-0.119,13.0
42.572,1.616,1.041,91.0
43.32,1.631,0.814,81.0
43.416,1.622,0.571,89.0
43.955,1.629,0.326,176.0
43.134,1.586,0.077,2.0
40.108,1.463,-0.154,51.0
44.94,1.621,1.06,1.0
162.279,5.806,2.912,50.0
70.849,2.513,0.872,13.0
71.042,2.499,0.467,3.0
40.126,1.399,0.037,150.0
40.088,1.386,-0.187,126.0
40.071,1.368,0.911,0.0
71.187,2.41,1.218,7.0
40.112,1.346,0.46,54.0
40.127,1.334,0.23,150.0
40.128,1.321,0.004,150.0
40.057,1.307,-0.22,63.0
40.126,1.292,0.88,150.0
40.119,1.279,0.654,150.0
40.128,1.267,0.428,117.0
40.13,1.255,0.198,116.0
40.116,1.242,-0.026,150.0
40.017,1.227,-0.251,29.0
40.13,1.213,0.848,150.0
40.126,1.201,0.623,150.0
40.121,1.189,0.397,128.0
40.125,1.176,0.168,145.0
40.039,1.161,-0.056,70.0
39.97,1.147,-0.281,10.0
0.0,0.0,0.0,0.0
41.931,1.172,0.62,158.0
41.919,1.158,0.384,150.0
43.712,1.194,0.151,134.0
40.141,1.084,-0.086,157.0
0.0,0.0,0.0,0.0
0.0,0.0,0.0,0.0
45.488,1.181,0.641,15.0
70.679,1.814,0.6,26.0
43.766,1.109,0.121,150.0
0.0,0.0,0.0,0.0
37.148,0.917,-0.313,2.0
98.859,2.403,1.882,48.0
71.055,1.703,0.954,6.0
70.829,1.675,0.554,6.0
0.0,0.0,0.0,0.0
44.033,1.013,-0.152,4.0
36.829,0.836,-0.334,2.0
179.302,3.996,3.3,18.0
128.686,2.825,1.647,24.0
113.239,2.449,0.815,18.0
65.333,1.392,0.098,0.0
44.866,0.941,-0.183,0.0
36.787,0.759,-0.356,0.0
179.309,3.632,3.192,7.0
162.911,3.245,1.988,27.0
55.206,1.081,0.364,11.0
55.168,1.062,0.05,27.0
43.379,0.821,-0.202,0.0
35.891,0.667,-0.368,0.0
55.177,1.003,0.95,76.0
55.168,0.986,0.642,69.0
55.167,0.967,0.334,63.0
55.176,0.949,0.02,32.0
0.0,0.0,0.0,0.0
35.864,0.593,-0.387,1.0
19.716,0.318,0.329,0.0
163.319,2.584,1.815,17.0
0.0,0.0,0.0,0.0
55.054,0.833,-0.008,2.0
19.696,0.291,-0.112,3.0
19.669,0.284,-0.222,15.0
19.717,0.277,0.319,14.0
19.765,0.271,0.209,25.0
84.839,1.136,0.428,14.0
19.677,0.256,-0.012,1.0
19.643,0.249,-0.121,15.0
19.652,0.242,-0.231,17.0
19.728,0.236,0.31,12.0
19.76,0.229,0.2,25.0
19.71,0.222,0.09,8.0
19.643,0.214,-0.021,10.0
19.63,0.207,-0.13,16.0
19.649,0.201,-0.24,16.0
19.686,0.193,0.301,9.0
19.659,0.186,0.191,13.0
19.656,0.18,0.082,12.0
19.622,0.173,-0.029,17.0
19.638,0.166,-0.138,14.0
19.693,0.16,-0.248,2.0
19.623,0.151,0.292,11.0
19.659,0.145,0.183,15.0
19.646,0.138,0.074,12.0
19.64,0.131,-0.036,10.0
19.716,0.125,-0.146,1.0
37.01,0.222,-0.48,0.0
19.625,0.11,0.285,16.0
19.661,0.103,0.177,13.0
19.676,0.097,0.067,12.0
19.745,0.09,-0.043,14.0
19.765,0.083,-0.153,33.0
19.776,0.077,-0.262,50.0
19.617,0.069,0.279,13.0
19.687,0.062,0.171,9.0
19.744,0.055,0.062,14.0
19.749,0.048,-0.049,58.0
19.752,0.041,-0.158,10.0
19.753,0.034,-0.268,16.0
19.631,0.027,0.274,14.0
19.769,0.02,0.166,2.0
19.787,0.013,0.057,4.0
19.743,0.006,-0.054,6.0
19.756,0.0,-0.163,0.0
35.644,-0.013,-0.493,0.0
19.633,-0.014,0.269,13.0
19.674,-0.021,0.161,9.0
19.7,-0.028,0.052,15.0
19.713,-0.035,-0.058,14.0
19.743,-0.042,-0.168,14.0
19.766,-0.049,-0.277,15.0
19.661,-0.056,0.265,12.0
19.707,-0.063,0.157,16.0
19.712,-0.07,0.048,15.0
19.729,-0.077,-0.062,10.0
19.732,-0.084,-0.171,16.0
19.75,-0.091,-0.28,16.0
19.685,-0.098,0.262,9.0
19.724,-0.105,0.154,12.0
19.739,-0.113,0.045,9.0
19.739,-0.12,-0.065,10.0
19.726,-0.127,-0.174,16.0
19.747,-0.134,-0.283,17.0
169.695,-1.209,2.244,17.0
160.678,-1.204,1.238,13.0
0.0,0.0,0.0,0.0
19.766,-0.162,-0.067,6.0
19.765,-0.169,-0.176,9.0
19.764,-0.177,-0.285,8.0
0.0,0.0,0.0,0.0
0.0,0.0,0.0,0.0
0.0,0.0,0.0,0.0
0.0,0.0,0.0,0.0
0.0,0.0,0.0,0.0
34.905,-0.387,-0.506,0.0
19.749,-0.225,0.258,9.0
19.748,-0.232,0.149,10.0
0.0,0.0,0.0,0.0
0.0,0.0,0.0,0.0
0.0,0.0,0.0,0.0
34.57,-0.457,-0.502,0.0
19.749,-0.267,0.258,10.0
19.756,-0.275,0.149,28.0
19.748,-0.282,0.04,0.0
0.0,0.0,0.0,0.0
42.544,-0.639,-0.384,0.0
35.343,-0.544,-0.513,0.0
117.034,-1.836,1.531,34.0
19.773,-0.317,0.15,0.0
0.0,0.0,0.0,0.0
0.0,0.0,0.0,0.0
0.0,0.0,0.0,0.0
35.282,-0.618,-0.51,0.0
117.044,-2.085,1.538,50.0
116.96,-2.126,0.895,11.0
0.0,0.0,0.0,0.0
0.0,0.0,0.0,0.0
0.0,0.0,0.0,0.0
0.0,0.0,0.0,0.0
117.064,-2.336,1.549,23.0
117.005,-2.376,0.907,6.0
0.0,0.0,0.0,0.0
0.0,0.0,0.0,0.0
0.0,0.0,0.0,0.0
0.0,0.0,0.0,0.0
117.272,-2.589,1.567,10.0
0.0,0.0,0.0,0.0
0.0,0.0,0.0,0.0
27.114,-0.628,-0.085,0.0
0.0,0.0,0.0,0.0
35.277,-0.843,-0.497,0.0
161.964,-3.917,2.192,6.0
160.635,-3.945,1.296,4.0
0.0,0.0,0.0,0.0
0.0,0.0,0.0,0.0
45.463,-1.166,-0.383,0.0
35.477,-0.923,-0.493,0.0
161.932,-4.256,2.225,29.0
160.649,-4.282,1.33,8.0
0.0,0.0,0.0,0.0
0.0,0.0,0.0,0.0
0.0,0.0,0.0,0.0
35.817,-1.008,-0.489,0.0
161.844,-4.597,2.264,29.0
160.829,-4.625,1.372,6.0
0.0,0.0,0.0,0.0
0.0,0.0,0.0,0.0
0.0,0.0,0.0,0.0
35.826,-1.083,-0.479,0.0
161.96,-4.938,2.311,28.0
160.668,-4.958,1.417,4.0
0.0,0.0,0.0,0.0
0.0,0.0,0.0,0.0
45.078,-1.441,-0.343,1.0
37.231,-1.204,-0.486,0.0
162.107,-5.283,2.365,27.0
161.919,-5.333,1.48,6.0
0.0,0.0,0.0,0.0
0.0,0.0,0.0,0.0
0.0,0.0,0.0,0.0
37.308,-1.283,-0.474,0.0
162.187,-5.619,2.423,18.0
162.237,-5.677,1.541,11.0
0.0,0.0,0.0,0.0
0.0,0.0,0.0,0.0
0.0,0.0,0.0,0.0
37.901,-1.381,-0.467,0.0
162.089,-5.947,2.485,16.0
0.0,0.0,0.0,0.0
0.0,0.0,0.0,0.0
0.0,0.0,0.0,0.0
0.0,0.0,0.0,0.0
37.625,-1.448,-0.448,0.0
0.0,0.0,0.0,0.0
0.0,0.0,0.0,0.0
0.0,0.0,0.0,0.0
0.0,0.0,0.0,0.0
0.0,0.0,0.0,0.0
38.211,-1.548,-0.438,0.0
101.573,-4.136,1.646,21.0
0.0,0.0,0.0,0.0
0.0,0.0,0.0,0.0
0.0,0.0,0.0,0.0
0.0,0.0,0.0,0.0
40.256,-1.711,-0.442,0.0
102.176,-4.365,1.706,1.0
101.439,-4.37,1.145,2.0
102.37,-4.445,0.601,2.0
0.0,0.0,0.0,0.0
0.0,0.0,0.0,0.0
0.0,0.0,0.0,0.0
102.172,-4.568,1.761,2.0
101.496,-4.574,1.2,7.0
0.0,0.0,0.0,0.0
101.494,-4.646,0.092,1.0
0.0,0.0,0.0,0.0
0.0,0.0,0.0,0.0
102.278,-4.775,1.82,1.0
101.564,-4.776,1.258,85.0
101.569,-4.813,0.709,1.0
101.558,-4.848,0.15,3.0
0.0,0.0,0.0,0.0
0.0,0.0,0.0,0.0
0.0,0.0,0.0,0.0
101.439,-4.968,1.317,2.0
0.0,0.0,0.0,0.0
101.579,-5.046,0.213,1.0
0.0,0.0,0.0,0.0
0.0,0.0,0.0,0.0
103.98,-5.257,1.978,1.0
0.0,0.0,0.0,0.0
0.0,0.0,0.0,0.0
0.0,0.0,0.0,0.0
0.0,0.0,0.0,0.0
0.0,0.0,0.0,0.0
108.893,-8.634,3.728,19.0
115.375,-9.178,3.337,11.0
127.502,-10.174,3.009,33.0
100.072,-8.011,1.818,10.0
100.052,-8.037,1.287,12.0
100.049,-8.062,0.755,13.0
108.938,-8.79,3.852,6.0
148.504,-12.02,4.462,10.0
127.505,-10.353,3.153,27.0
90.398,-7.363,1.746,50.0
90.445,-7.391,1.267,10.0
90.423,-7.412,0.786,115.0
109.886,-9.018,4.011,23.0
116.71,-9.607,3.64,7.0
127.51,-10.526,3.3,23.0
90.392,-7.485,1.851,46.0
90.409,-7.509,1.371,48.0
90.417,-7.533,0.891,47.0
108.64,-9.061,4.094,23.0
114.368,-9.566,3.702,12.0
114.39,-9.595,3.095,11.0
90.4,-7.603,1.956,38.0
90.417,-7.627,1.477,53.0
90.416,-7.65,0.998,31.0
108.612,-9.2,4.221,20.0
114.255,-9.703,3.833,13.0
114.567,-9.755,3.234,11.0
90.385,-7.716,2.062,39.0
90.391,-7.738,1.583,36.0
90.411,-7.762,1.104,37.0
108.244,-9.303,4.335,24.0
108.344,-9.335,3.764,16.0
114.5,-9.891,3.369,10.0
90.367,-7.827,2.171,15.0
90.387,-7.849,1.693,36.0
90.397,-7.871,1.214,40.0
107.982,-9.413,4.457,23.0
108.195,-9.455,3.891,27.0
114.367,-10.017,3.506,8.0
127.541,-11.199,3.22,18.0
90.387,-7.956,1.803,42.0
90.398,-7.977,1.325,47.0
107.554,-9.502,4.571,26.0
108.034,-9.566,4.018,27.0
109.61,-9.729,3.496,8.0
127.516,-11.345,3.378,19.0
90.384,-8.06,1.916,40.0
90.388,-8.08,1.437,29.0
107.792,-9.645,4.716,23.0
107.996,-9.685,4.152,26.0
108.028,-9.71,3.581,14.0
127.488,-11.485,3.538,10.0
90.36,-8.159,2.029,31.0
90.391,-8.18,1.552,31.0
107.762,-9.762,4.852,24.0
108.633,-9.861,4.314,25.0
108.085,-9.832,3.719,26.0
107.957,-9.841,3.133,17.0
90.354,-8.254,2.144,20.0
90.391,-8.276,1.667,35.0
107.932,-9.893,4.999,23.0
108.463,-9.96,4.448,22.0
108.351,-9.97,3.869,9.0
148.023,-13.647,4.485,14.0
127.534,-11.782,3.19,26.0
90.389,-8.367,1.782,41.0
108.557,-10.06,5.167,22.0
108.945,-10.115,4.608,16.0
109.011,-10.139,4.032,12.0
114.335,-10.654,3.613,16.0
127.536,-11.907,3.355,22.0
90.379,-8.454,1.899,40.0
109.014,-10.209,5.331,22.0
109.926,-10.312,4.791,15.0
108.305,-10.177,4.146,22.0
148.219,-13.951,4.875,15.0
113.817,-10.733,3.142,7.0
90.367,-8.537,2.016,38.0
108.134,-10.226,5.429,19.0
108.715,-10.298,4.88,9.0
108.71,-10.314,4.303,19.0
148.067,-14.07,5.063,14.0
147.91,-14.079,4.276,13.0
90.366,-8.616,2.134,46.0
108.024,-10.312,5.564,31.0
108.948,-10.415,5.034,17.0
110.346,-10.565,4.514,19.0
108.379,-10.392,3.848,21.0
147.969,-14.21,4.472,15.0
119.12,-11.458,2.969,14.0
108.205,-10.42,5.715,22.0
108.026,-10.417,5.134,22.0
110.036,-10.625,4.645,18.0
108.558,-10.498,3.997,20.0
148.062,-14.338,4.67,22.0
116.333,-11.282,3.054,6.0
108.29,-10.515,5.865,21.0
108.081,-10.508,5.28,22.0
109.615,-10.672,4.775,18.0
108.635,-10.589,4.145,19.0
148.233,-14.469,4.871,13.0
116.322,-11.369,3.208,49.0
108.846,-10.652,6.041,17.0
108.403,-10.621,5.442,16.0
108.648,-10.658,4.878,21.0
110.111,-10.814,4.349,18.0
108.134,-10.633,3.699,19.0
116.349,-11.455,3.366,40.0
108.046,-10.651,6.142,18.0
108.312,-10.689,5.583,18.0
108.108,-10.679,4.999,10.0
110.872,-10.965,4.527,19.0
108.433,-10.736,3.854,17.0
116.317,-11.529,3.52,9.0
107.99,-10.718,6.284,24.0
108.936,-10.822,5.761,19.0
108.155,-10.754,5.146,17.0
109.015,-10.851,4.598,9.0
108.674,-10.828,4.009,18.0
148.086,-14.771,4.678,16.0
108.15,-10.801,6.439,19.0
108.792,-10.874,5.898,18.0
108.079,-10.813,5.286,20.0
108.845,-10.898,4.736,7.0
111.676,-11.192,4.268,19.0
108.881,-10.923,3.585,15.0
108.23,-10.871,6.589,19.0
108.064,-10.863,6.005,22.0
108.882,-10.954,5.473,11.0
110.413,-11.117,4.954,17.0
111.191,-11.204,4.399,23.0
108.908,-10.984,3.733,24.0
107.95,-10.902,6.718,9.0
108.0,-10.913,6.148,24.0
108.884,-11.01,5.619,23.0
0.0,0.0,0.0,0.0
111.128,-11.252,4.544,22.0
108.826,-11.028,3.874,17.0
48.805,-4.952,3.103,3.0
107.844,-10.949,6.284,20.0
108.511,-11.023,5.747,21.0
108.831,-11.063,5.174,23.0
110.935,-11.284,4.687,21.0
148.37,-15.102,5.483,8.0
48.775,-4.971,3.167,13.0
107.666,-10.979,6.419,19.0
108.495,-11.069,5.892,20.0
108.891,-11.115,5.325,23.0
109.241,-11.156,4.762,8.0
111.58,-11.401,4.273,9.0
48.791,-4.993,3.234,11.0
107.56,-11.011,6.558,21.0
108.558,-11.116,6.042,17.0
109.089,-11.175,5.481,22.0
109.093,-11.181,4.901,25.0
149.545,-15.333,5.926,11.0
48.712,-5.002,3.294,10.0
107.559,-11.047,6.701,18.0
107.765,-11.071,6.14,16.0
108.967,-11.198,5.618,18.0
108.941,-11.199,5.039,20.0
149.515,-15.376,6.123,7.0
48.708,-5.016,3.358,8.0
48.817,-5.028,3.106,4.0
107.392,-11.064,6.262,21.0
108.301,-11.16,5.729,19.0
109.141,-11.249,5.192,17.0
110.952,-11.44,4.69,12.0
49.77,-5.139,3.498,6.0
48.701,-5.029,3.163,21.0
107.435,-11.095,6.406,20.0
107.968,-11.151,5.853,21.0
109.277,-11.288,5.342,9.0
109.228,-11.285,4.759,16.0
49.741,-5.147,3.562,20.0
48.669,-5.036,3.225,31.0
107.601,-11.133,6.556,20.0
108.324,-11.208,6.013,17.0
110.409,-11.425,5.541,13.0
109.16,-11.297,4.898,19.0
49.649,-5.146,3.62,26.0
48.754,-5.053,3.294,22.0
107.464,-11.137,6.687,19.0
107.12,-11.099,6.086,16.0
110.188,-11.417,5.672,4.0
109.381,-11.334,5.05,17.0
49.721,-5.16,3.69,24.0
49.289,-5.114,3.394,24.0
48.738,-5.056,3.096,5.0
107.176,-11.116,6.226,20.0
108.012,-11.202,5.699,18.0
109.285,-11.333,5.185,8.0
49.76,-5.168,3.757,24.0
49.704,-5.161,3.487,21.0
48.675,-5.053,3.154,20.0
107.612,-11.168,6.389,17.0
107.893,-11.195,5.831,20.0
113.725,-11.798,5.539,5.0
49.038,-5.096,3.765,4.0
49.696,-5.162,3.549,22.0
48.659,-5.052,3.215,33.0
107.615,-11.17,6.525,20.0
108.021,-11.208,5.974,17.0
110.499,-11.462,5.523,12.0
107.001,-11.119,8.351,19.0
49.622,-5.153,3.607,24.0
48.724,-5.058,3.28,25.0
107.516,-11.156,6.653,22.0
107.123,-11.111,6.057,14.0
110.215,-11.428,5.643,5.0
48.405,-5.027,3.838,7.0
49.715,-5.16,3.675,23.0
49.207,-5.105,3.374,23.0
107.481,-11.145,6.785,13.0
107.214,-11.111,6.196,20.0
108.06,-11.194,5.667,16.0
48.24,-5.006,3.885,23.0
49.846,-5.169,3.747,21.0
49.721,-5.153,3.472,11.0
48.698,-5.043,3.134,18.0
107.401,-11.117,6.339,18.0
107.969,-11.17,5.795,21.0
48.047,-4.979,3.929,12.0
107.008,-11.082,8.176,17.0
49.769,-5.15,3.535,18.0
48.677,-5.033,3.192,25.0
107.548,-11.114,6.476,21.0
108.045,-11.159,5.929,17.0
40.26,-4.165,3.341,38.0
48.121,-4.974,3.734,3.0
49.696,-5.133,3.589,23.0
48.702,-5.026,3.252,22.0
107.608,-11.098,6.607,20.0
0.0,0.0,0.0,0.0
40.256,-4.156,3.388,42.0
48.063,-4.957,3.787,22.0
49.829,-5.135,3.658,23.0
48.717,-5.016,3.31,15.0
107.57,-11.066,6.732,14.0
107.635,-11.065,6.159,19.0
40.361,-4.156,3.445,32.0
48.045,-4.942,3.841,35.0
49.929,-5.131,3.723,14.0
107.998,-11.088,7.464,11.0
48.805,-5.006,3.111,6.0
107.632,-11.03,6.284,21.0
40.556,-4.164,3.508,24.0
48.069,-4.93,3.899,17.0
107.143,-10.976,8.114,19.0
49.767,-5.093,3.495,8.0
48.805,-4.99,3.165,15.0
107.668,-10.997,6.407,19.0
40.66,-4.16,3.563,16.0
48.084,-4.914,3.954,12.0
48.08,-4.908,3.695,3.0
49.872,-5.085,3.559,11.0
48.776,-4.968,3.218,7.0
107.832,-10.972,6.534,14.0
41.051,-4.184,3.643,17.0
40.423,-4.115,3.369,32.0
48.123,-4.893,3.751,11.0
49.955,-5.073,3.619,3.0
107.731,-10.928,7.225,16.0
107.817,-10.924,6.65,11.0
45.951,-4.664,4.129,11.0
40.427,-4.098,3.413,36.0
48.132,-4.872,3.803,20.0
107.06,-10.825,7.87,11.0
107.74,-10.879,7.34,17.0
109.89,-11.082,6.894,10.0
45.963,-4.644,4.179,12.0
40.444,-4.08,3.457,23.0
48.08,-4.844,3.85,5.0
48.133,-4.842,3.589,8.0
107.798,-10.83,7.456,15.0
108.09,-10.846,6.893,8.0
0.0,0.0,0.0,0.0
40.693,-4.084,3.52,16.0
40.455,-4.054,3.281,12.0
48.118,-4.815,3.637,16.0
107.778,-10.77,7.564,15.0
108.273,-10.804,7.014,13.0
0.0,0.0,0.0,0.0
41.16,-4.108,3.603,16.0
40.412,-4.027,3.318,14.0
48.145,-4.79,3.687,13.0
107.797,-10.71,7.672,17.0
108.125,-10.726,7.11,19.0
47.955,-4.766,4.506,22.0
45.847,-4.549,4.058,20.0
40.301,-3.991,3.348,17.0
48.144,-4.761,3.734,9.0
107.639,-10.628,7.763,13.0
108.1,-10.656,7.213,17.0
39.444,-3.895,3.744,26.0
45.861,-4.521,4.103,37.0
40.266,-3.962,3.383,17.0
106.875,-10.499,8.389,12.0
107.38,-10.531,7.846,12.0
107.268,-10.503,7.256,17.0
39.275,-3.852,3.765,39.0
45.978,-4.502,4.156,31.0
45.645,-4.461,3.877,31.0
108.174,-10.553,8.589,16.0
106.901,-10.41,7.908,15.0
107.452,-10.445,7.366,17.0
39.262,-3.824,3.799,38.0
46.014,-4.472,4.201,23.0
45.698,-4.433,3.922,11.0
108.061,-10.464,8.675,17.0
107.397,-10.381,8.037,19.0
107.697,-10.391,7.474,16.0
39.269,-3.795,3.834,37.0
45.97,-4.434,4.236,20.0
47.948,-4.616,4.157,22.0
45.715,-4.392,3.709,5.0
106.147,-10.179,8.033,19.0
107.564,-10.296,7.555,16.0
39.3,-3.768,3.87,35.0
45.967,-4.398,4.275,8.0
48.166,-4.599,4.215,22.0
47.859,-4.56,3.922,3.0
106.122,-10.091,8.119,25.0
107.284,-10.181,7.623,18.0
39.317,-3.738,3.903,17.0
39.305,-3.728,3.687,20.0
48.118,-4.555,4.249,22.0
48.289,-4.562,3.995,14.0
106.069,-9.999,8.195,15.0
106.7,-10.038,7.662,15.0
39.252,-3.699,3.927,30.0
39.269,-3.692,3.713,32.0
48.361,-4.537,4.307,23.0
48.247,-4.516,4.028,25.0
108.327,-10.118,8.451,19.0
106.311,-9.908,7.713,21.0
45.541,-4.251,4.591,4.0
39.159,-3.647,3.732,39.0
48.832,-4.538,4.385,3.0
48.296,-4.477,4.067,27.0
108.065,-9.997,8.508,17.0
106.131,-9.796,7.775,24.0
0.0,0.0,0.0,0.0
39.169,-3.612,3.76,27.0
46.788,-4.304,4.234,23.0
48.335,-4.436,4.103,32.0
108.032,-9.893,8.579,12.0
106.104,-9.695,7.844,19.0
41.188,-3.769,4.209,27.0
39.231,-3.581,3.792,26.0
47.496,-4.325,4.329,36.0
48.278,-4.385,4.13,28.0
107.937,-9.78,8.641,9.0
108.826,-9.837,8.116,15.0
41.12,-3.723,4.228,23.0
39.221,-3.542,3.816,34.0
47.368,-4.266,4.347,35.0
48.326,-4.342,4.164,22.0
107.35,-9.621,8.659,12.0
108.875,-9.734,8.184,10.0
48.855,-4.374,5.053,11.0
39.228,-3.503,3.84,29.0
47.435,-4.225,4.381,33.0
106.416,-9.454,9.231,18.0
107.335,-9.512,8.718,16.0
109.076,-9.642,8.26,16.0
48.446,-4.288,5.038,23.0
39.223,-3.462,3.861,20.0
47.42,-4.175,4.406,19.0
106.522,-9.353,9.297,9.0
109.501,-9.588,8.954,9.0
109.052,-9.524,8.316,7.0
48.733,-4.262,5.094,23.0
39.195,-3.418,3.879,15.0
47.372,-4.12,4.425,21.0
47.475,-4.117,4.167,4.0
107.059,-9.26,8.807,14.0
109.509,-9.446,8.404,12.0
48.525,-4.191,5.096,25.0
48.788,-4.202,4.852,12.0
47.429,-4.073,4.453,21.0
47.428,-4.061,4.186,11.0
106.519,-9.096,8.811,24.0
109.183,-9.297,8.429,17.0
49.233,-4.198,5.192,20.0
48.749,-4.145,4.869,19.0
49.311,-4.179,4.652,5.0
47.491,-4.014,4.211,8.0
106.583,-8.983,8.86,30.0
108.362,-9.106,8.41,11.0
49.208,-4.14,5.21,23.0
48.771,-4.091,4.891,36.0
49.32,-4.124,4.672,8.0
47.483,-3.958,4.229,4.0
106.696,-8.87,8.911,21.0
108.301,-8.976,8.445,16.0
49.146,-4.078,5.222,18.0
48.939,-4.048,4.926,16.0
49.305,-4.066,4.688,28.0
106.436,-8.75,9.517,24.0
106.668,-8.742,8.945,22.0
107.305,-8.768,8.403,13.0
49.121,-4.018,5.235,25.0
48.923,-3.989,4.94,5.0
0.0,0.0,0.0,0.0
106.66,-8.642,9.57,21.0
106.904,-8.633,8.997,19.0
107.189,-8.629,8.426,10.0
49.222,-3.967,5.26,28.0
106.596,-8.562,10.795,18.0
49.322,-3.948,4.719,33.0
106.814,-8.522,9.613,17.0
106.906,-8.503,9.025,16.0
107.197,-8.499,8.453,12.0
49.219,-3.906,5.272,36.0
106.414,-8.416,10.803,19.0
49.367,-3.891,4.735,36.0
107.537,-8.447,9.702,9.0
107.15,-8.389,9.069,15.0
107.488,-8.388,8.499,19.0
49.237,-3.845,5.285,36.0
106.355,-8.277,10.818,22.0
49.402,-3.831,4.748,27.0
107.397,-8.301,9.71,7.0
107.319,-8.266,9.103,9.0
104.934,-8.057,8.314,18.0
49.229,-3.782,5.292,18.0
106.408,-8.146,10.84,21.0
49.411,-3.77,4.756,21.0
107.152,-8.146,9.702,17.0
107.391,-8.137,9.123,9.0
104.842,-7.916,8.321,23.0
49.296,-3.724,5.305,17.0
106.977,-8.053,10.911,20.0
49.478,-3.711,4.768,13.0
107.06,-8.0,9.705,22.0
107.072,-7.974,9.105,19.0
108.496,-8.051,8.62,9.0
49.263,-3.657,5.305,6.0
107.271,-7.935,10.948,18.0
107.095,-7.892,10.327,20.0
109.406,-8.034,9.924,12.0
107.051,-7.832,9.109,9.0
108.122,-7.882,8.595,19.0
107.245,-7.82,11.555,19.0
106.783,-7.758,10.901,17.0
49.533,-3.585,4.777,4.0
109.668,-7.907,9.949,20.0
107.173,-7.699,9.121,20.0
107.228,-7.674,8.524,19.0
107.601,-7.703,11.593,19.0
106.758,-7.614,10.898,15.0
106.834,-7.59,10.302,16.0
108.305,-7.665,9.823,7.0
107.193,-7.557,9.119,20.0
107.107,-7.523,8.509,11.0
106.656,-7.492,11.485,20.0
106.821,-7.473,10.898,13.0
106.93,-7.452,10.304,16.0
106.744,-7.41,9.674,15.0
107.206,-7.413,9.111,18.0
107.302,-7.391,8.516,8.0
106.556,-7.339,11.464,24.0
106.819,-7.328,10.887,11.0
110.883,-7.577,10.674,8.0
106.551,-7.252,9.643,18.0
106.453,-7.216,9.034,20.0
105.178,-7.101,8.334,8.0
0.0,0.0,0.0,0.0
106.86,-7.185,10.876,17.0
108.11,-7.239,10.39,11.0
106.696,-7.115,9.64,19.0
106.794,-7.092,9.045,24.0
107.613,-7.118,8.508,17.0
0.0,0.0,0.0,0.0
107.786,-7.099,10.949,19.0
107.745,-7.064,10.335,25.0
107.42,-7.014,9.684,11.0
107.021,-6.959,9.042,23.0
107.856,-6.986,8.503,25.0
0.0,0.0,0.0,0.0
107.802,-6.949,10.926,17.0
107.617,-6.907,10.296,22.0
107.25,-6.853,9.642,11.0
107.244,-6.823,9.034,18.0
107.912,-6.837,8.48,23.0
0.0,0.0,0.0,0.0
107.958,-6.805,10.911,10.0
111.709,-7.01,10.656,10.0
107.24,-6.702,9.609,19.0
110.665,-6.887,9.288,9.0
108.062,-6.695,8.459,26.0
0.0,0.0,0.0,0.0
108.051,-6.659,10.886,22.0
109.261,-6.704,10.385,10.0
107.51,-6.566,9.598,16.0
107.785,-6.555,9.01,18.0
108.584,-6.574,8.461,26.0
0.0,0.0,0.0,0.0
0.0,0.0,0.0,0.0
109.35,-6.553,10.353,18.0
107.524,-6.414,9.557,21.0
0.0,0.0,0.0,0.0
108.834,-6.436,8.438,18.0
0.0,0.0,0.0,0.0
0.0,0.0,0.0,0.0
109.267,-6.392,10.3,25.0
108.584,-6.322,9.606,21.0
108.698,-6.301,8.997,27.0
108.764,-6.276,8.385,24.0
0.0,0.0,0.0,0.0
0.0,0.0,0.0,0.0
108.837,-6.211,10.208,21.0
108.889,-6.186,9.581,25.0
108.55,-6.137,8.934,26.0
109.12,-6.141,8.36,17.0
0.0,0.0,0.0,0.0
0.0,0.0,0.0,0.0
109.12,-6.071,10.18,24.0
108.613,-6.014,9.501,23.0
108.536,-5.982,8.875,23.0
111.413,-6.111,8.477,16.0
0.0,0.0,0.0,0.0
108.982,-5.936,10.731,14.0
109.219,-5.921,10.128,24.0
108.503,-5.852,9.431,25.0
108.759,-5.838,8.833,16.0
112.901,-6.031,8.525,19.0
0.0,0.0,0.0,0.0
109.473,-5.806,10.715,23.0
109.029,-5.753,10.046,21.0
108.63,-5.704,9.376,19.0
108.906,-5.69,8.779,17.0
113.09,-5.879,8.47,11.0
0.0,0.0,0.0,0.0
109.335,-5.642,10.631,14.0
112.097,-5.754,10.257,17.0
111.529,-5.695,9.555,25.0
111.662,-5.673,8.927,21.0
109.437,-5.534,8.124,20.0
0.0,0.0,0.0,0.0
0.0,0.0,0.0,0.0
112.098,-5.595,10.181,25.0
111.516,-5.537,9.477,30.0
113.724,-5.618,9.013,14.0
109.578,-5.386,8.06,12.0
0.0,0.0,0.0,0.0
126.48,-6.166,12.122,4.0
111.697,-5.415,10.063,22.0
116.268,-5.607,9.795,12.0
115.827,-5.556,9.095,13.0
118.641,-5.662,8.637,5.0
0.0,0.0,0.0,0.0
126.512,-5.987,12.029,10.0
111.635,-5.255,9.972,14.0
116.438,-5.451,9.721,24.0
115.258,-5.367,8.961,22.0
115.213,-5.336,8.297,21.0
0.0,0.0,0.0,0.0
0.0,0.0,0.0,0.0
116.399,-5.314,10.303,13.0
116.722,-5.3,9.65,24.0
114.795,-5.184,8.831,24.0
114.714,-5.151,8.167,28.0
0.0,0.0,0.0,0.0
113.305,-5.041,10.586,5.0
124.171,-5.493,10.885,14.0
115.66,-5.088,9.461,10.0
114.881,-5.025,8.738,24.0
114.835,-4.994,8.075,22.0
0.0,0.0,0.0,0.0
0.0,0.0,0.0,0.0
124.364,-5.327,10.79,13.0
115.579,-4.921,9.35,23.0
115.217,-4.879,8.658,26.0
115.813,-4.875,8.039,7.0
0.0,0.0,0.0,0.0
113.499,-4.729,10.395,4.0
124.179,-5.144,10.656,27.0
114.882,-4.732,9.186,25.0
115.169,-4.715,8.545,21.0
115.665,-4.708,7.917,19.0
0.0,0.0,0.0,0.0
113.516,-4.572,10.286,3.0
124.301,-4.976,10.545,24.0
115.186,-4.584,9.095,24.0
115.236,-4.559,8.436,24.0
115.693,-4.549,7.804,22.0
0.0,0.0,0.0,0.0
124.592,-4.847,11.164,6.0
124.396,-4.811,10.427,20.0
115.768,-4.448,9.022,23.0
115.301,-4.403,8.322,18.0
115.866,-4.399,7.696,22.0
0.0,0.0,0.0,0.0
0.0,0.0,0.0,0.0
115.087,-4.292,9.524,26.0
114.968,-4.261,8.838,23.0
123.222,-4.539,8.761,18.0
116.507,-4.264,7.613,24.0
0.0,0.0,0.0,0.0
126.306,-4.567,11.043,7.0
115.822,-4.16,9.455,24.0
114.908,-4.102,8.704,22.0
124.122,-4.403,8.687,18.0
117.721,-4.149,7.56,13.0
113.782,-3.987,10.479,4.0
126.196,-4.393,10.89,15.0
116.048,-4.014,9.341,23.0
115.905,-3.982,8.647,23.0
124.3,-4.243,8.556,10.0
116.435,-3.95,7.343,19.0
113.778,-3.835,10.345,11.0
116.286,-3.894,9.898,20.0
125.872,-4.187,9.984,14.0
124.978,-4.13,9.178,10.0
117.723,-3.865,7.965,11.0
114.602,-3.738,7.093,19.0
113.856,-3.689,10.215,1.0
116.105,-3.736,9.742,14.0
126.119,-4.031,9.852,22.0
140.265,-4.453,10.13,15.0
117.778,-3.713,7.824,26.0
115.609,-3.62,7.011,25.0
0.0,0.0,0.0,0.0
126.262,-3.898,10.436,9.0
126.09,-3.866,9.69,23.0
140.274,-4.27,9.953,12.0
125.295,-3.788,8.165,16.0
115.652,-3.473,6.869,27.0
0.0,0.0,0.0,0.0
0.0,0.0,0.0,0.0
140.327,-4.123,10.602,8.0
141.002,-4.112,9.82,17.0
125.121,-3.624,7.99,12.0
115.843,-3.331,6.727,25.0
0.0,0.0,0.0,0.0
126.2,-3.573,10.1,9.0
140.363,-3.945,10.417,12.0
124.995,-3.487,8.537,20.0
115.9,-3.21,7.245,20.0
115.817,-3.185,6.57,21.0
0.0,0.0,0.0,0.0
0.0,0.0,0.0,0.0
0.0,0.0,0.0,0.0
125.053,-3.334,8.37,21.0
122.659,-3.246,7.5,9.0
124.551,-3.271,6.893,23.0
0.0,0.0,0.0,0.0
0.0,0.0,0.0,0.0
0.0,0.0,0.0,0.0
125.204,-3.183,8.203,21.0
124.305,-3.136,7.422,27.0
124.398,-3.115,6.707,23.0
0.0,0.0,0.0,0.0
0.0,0.0,0.0,0.0
0.0,0.0,0.0,0.0
124.679,-3.019,7.986,2.0
124.421,-2.99,7.249,13.0
124.341,-2.964,6.522,12.0
0.0,0.0,0.0,0.0
0.0,0.0,0.0,0.0
0.0,0.0,0.0,0.0
124.466,-2.866,7.787,15.0
124.063,-2.834,7.042,16.0
0.0,0.0,0.0,0.0
0.0,0.0,0.0,0.0
0.0,0.0,0.0,0.0
0.0,0.0,0.0,0.0
124.979,-2.732,7.63,21.0
0.0,0.0,0.0,0.0
193.012,-4.151,9.541,7.0
0.0,0.0,0.0,0.0
0.0,0.0,0.0,0.0
0.0,0.0,0.0,0.0
0.0,0.0,0.0,0.0
0.0,0.0,0.0,0.0
192.821,-3.931,9.234,16.0
0.0,0.0,0.0,0.0
0.0,0.0,0.0,0.0
0.0,0.0,0.0,0.0
0.0,0.0,0.0,0.0
0.0,0.0,0.0,0.0
191.796,-3.697,8.88,7.0
0.0,0.0,0.0,0.0
0.0,0.0,0.0,0.0
0.0,0.0,0.0,0.0
0.0,0.0,0.0,0.0
0.0,0.0,0.0,0.0
192.383,-3.499,8.595,20.0
0.0,0.0,0.0,0.0
0.0,0.0,0.0,0.0
190.071,-3.348,11.516,9.0
189.953,-3.314,10.382,23.0
189.946,-3.283,9.274,18.0
189.989,-3.254,8.172,15.0
0.0,0.0,0.0,0.0
0.0,0.0,0.0,0.0
0.0,0.0,0.0,0.0
0.0,0.0,0.0,0.0
0.0,0.0,0.0,0.0
192.854,-3.102,7.97,18.0
0.0,0.0,0.0,0.0
0.0,0.0,0.0,0.0
0.0,0.0,0.0,0.0
0.0,0.0,0.0,0.0
193.331,-2.946,8.786,15.0
191.834,-2.893,7.6,21.0
0.0,0.0,0.0,0.0
0.0,0.0,0.0,0.0
0.0,0.0,0.0,0.0
0.0,0.0,0.0,0.0
0.0,0.0,0.0,0.0
192.127,-2.709,7.274,14.0
0.0,0.0,0.0,0.0
0.0,0.0,0.0,0.0
0.0,0.0,0.0,0.0
0.0,0.0,0.0,0.0
0.0,0.0,0.0,0.0
185.874,-2.445,6.713,13.0
0.0,0.0,0.0,0.0
0.0,0.0,0.0,0.0
0.0,0.0,0.0,0.0
0.0,0.0,0.0,0.0
186.193,-2.302,7.473,17.0
185.844,-2.273,6.376,17.0
0.0,0.0,0.0,0.0
0.0,0.0,0.0,0.0
0.0,0.0,0.0,0.0
0.0,0.0,0.0,0.0
186.089,-2.135,7.133,21.0
19.78,-0.224,0.642,2.0
0.0,0.0,0.0,0.0
0.0,0.0,0.0,0.0
0.0,0.0,0.0,0.0
0.0,0.0,0.0,0.0
184.631,-1.958,6.737,21.0
19.756,-0.207,0.605,9.0
0.0,0.0,0.0,0.0
0.0,0.0,0.0,0.0
0.0,0.0,0.0,0.0
184.263,-1.823,7.454,5.0
19.769,-0.193,0.684,2.0
19.755,-0.19,0.568,9.0
0.0,0.0,0.0,0.0
0.0,0.0,0.0,0.0
185.087,-1.703,8.236,5.0
183.87,-1.669,7.09,22.0
19.743,-0.176,0.646,11.0
19.746,-0.174,0.53,7.0
0.0,0.0,0.0,0.0
0.0,0.0,0.0,0.0
184.527,-1.553,7.859,17.0
19.775,-0.164,0.725,2.0
19.736,-0.161,0.608,6.0
19.772,-0.159,0.493,5.0
0.0,0.0,0.0,0.0
184.755,-1.435,8.594,6.0
184.385,-1.412,7.496,20.0
19.764,-0.149,0.685,2.0
19.759,-0.146,0.57,5.0
19.731,-0.144,0.454,0.0
0.0,0.0,0.0,0.0
184.753,-1.301,8.234,19.0
184.11,-1.277,7.126,17.0
19.681,-0.134,0.644,3.0
19.706,-0.132,0.53,6.0
19.695,-0.13,0.415,3.0
0.0,0.0,0.0,0.0
184.631,-1.172,7.862,17.0
19.686,-0.123,0.723,6.0
19.644,-0.12,0.604,10.0
19.659,-0.118,0.49,9.0
19.683,-0.117,0.375,8.0
186.288,-1.077,8.653,19.0
19.726,-0.112,0.8,0.0
19.659,-0.11,0.683,10.0
19.641,-0.108,0.565,11.0
19.656,-0.106,0.451,10.0
19.67,-0.104,0.336,9.0
0.0,0.0,0.0,0.0
19.7,-0.099,0.76,7.0
19.651,-0.097,0.643,13.0
19.634,-0.095,0.525,10.0
19.645,-0.094,0.411,9.0
19.669,-0.092,0.296,10.0
184.731,-0.843,7.837,20.0
19.667,-0.088,0.719,10.0
19.638,-0.086,0.603,12.0
19.626,-0.084,0.486,10.0
19.653,-0.083,0.372,9.0
19.656,-0.081,0.257,11.0
19.72,-0.078,0.796,2.0
19.65,-0.077,0.678,12.0
19.631,-0.075,0.563,12.0
19.633,-0.073,0.446,12.0
19.643,-0.072,0.331,10.0
19.676,-0.071,0.217,14.0
19.693,-0.068,0.755,9.0
19.649,-0.066,0.638,13.0
19.637,-0.065,0.523,11.0
19.618,-0.063,0.405,9.0
19.646,-0.062,0.291,10.0
19.696,-0.061,0.177,15.0
19.663,-0.058,0.713,12.0
19.634,-0.057,0.597,13.0
19.627,-0.055,0.482,11.0
19.626,-0.054,0.365,9.0
19.64,-0.053,0.25,11.0
19.7,-0.052,0.135,17.0
19.655,-0.049,0.671,13.0
19.622,-0.048,0.555,13.0
19.615,-0.046,0.44,11.0
19.624,-0.045,0.323,10.0
19.643,-0.044,0.208,15.0
19.696,-0.043,0.094,17.0
19.636,-0.041,0.629,13.0
19.623,-0.04,0.514,12.0
19.618,-0.038,0.399,11.0
19.613,-0.037,0.282,10.0
19.655,-0.036,0.167,9.0
19.708,-0.035,0.052,15.0
19.625,-0.033,0.587,14.0
19.623,-0.032,0.472,14.0
19.614,-0.031,0.357,11.0
19.627,-0.03,0.24,14.0
19.683,-0.029,0.126,10.0
19.716,-0.028,0.011,15.0
19.626,-0.026,0.546,14.0
19.619,-0.025,0.431,13.0
19.619,-0.024,0.315,12.0
19.637,-0.024,0.199,12.0
19.684,-0.023,0.084,11.0
19.721,-0.022,-0.03,13.0
19.624,-0.02,0.504,13.0
19.616,-0.019,0.389,13.0
19.628,-0.019,0.275,12.0
19.738,-0.018,0.158,3.0
19.722,-0.017,0.043,10.0
19.752,-0.016,-0.072,5.0
19.626,-0.015,0.463,13.0
19.622,-0.014,0.348,13.0
19.631,-0.013,0.233,14.0
19.695,-0.013,0.116,2.0
19.727,-0.012,0.001,12.0
19.756,-0.011,-0.114,2.0
19.624,-0.01,0.421,12.0
19.638,-0.01,0.306,13.0
19.664,-0.009,0.191,10.0
19.751,-0.008,0.074,4.0
19.751,-0.008,-0.041,9.0
19.818,-0.007,-0.157,0.0
19.625,-0.006,0.378,13.0
19.629,-0.006,0.263,13.0
19.784,-0.005,0.149,1.0
19.731,-0.005,0.032,8.0
19.775,-0.004,-0.083,1.0
0.0,0.0,0.0,0.0
19.626,-0.003,0.336,14.0
19.637,-0.003,0.222,15.0
19.788,-0.002,0.107,2.0
19.736,-0.002,-0.009,9.0
19.799,-0.002,-0.125,0.0
0.0,0.0,0.0,0.0
19.634,-0.001,0.294,14.0
19.725,0.0,0.18,5.0
19.799,0.0,0.065,3.0
19.741,0.0,-0.052,4.0
19.742,0.0,-0.168,0.0
19.732,0.0,-0.283,0.0
19.639,0.0,0.252,15.0
19.803,0.0,0.138,1.0
19.745,0.0,0.022,8.0
19.751,0.001,-0.094,0.0
19.78,0.001,-0.211,0.0
19.765,0.001,-0.326,0.0
19.647,0.001,0.21,14.0
19.798,0.001,0.095,4.0
19.753,0.001,-0.02,9.0
19.801,0.001,-0.137,0.0
19.802,0.001,-0.254,0.0
19.776,0.001,-0.369,0.0
19.819,0.001,0.169,2.0
19.789,0.001,0.053,4.0
19.766,0.001,-0.062,2.0
19.652,0.001,-0.178,0.0
19.754,0.001,-0.295,0.0
19.8,0.001,-0.412,0.0
19.815,0.001,0.127,1.0
19.753,0.001,0.011,9.0
19.764,0.0,-0.104,0.0
19.724,0.0,-0.221,0.0
19.789,0.0,-0.338,0.0
19.794,0.0,-0.454,0.0
19.809,0.0,0.084,4.0
19.754,0.0,-0.031,9.0
19.797,0.0,-0.147,0.0
34.985,-0.001,-0.469,0.0
30.129,-0.001,-0.58,0.0
26.239,-0.001,-0.658,0.0
19.765,-0.002,0.042,7.0
19.77,-0.002,-0.073,1.0
0.0,0.0,0.0,0.0
31.894,-0.004,-0.495,0.0
28.808,-0.004,-0.616,0.0
25.035,-0.004,-0.682,0.0
19.743,-0.004,0.0,10.0
19.762,-0.005,-0.115,0.0
0.0,0.0,0.0,0.0
31.313,-0.009,-0.553,0.0
27.307,-0.008,-0.642,0.0
23.689,-0.008,-0.696,0.0
19.759,-0.008,-0.042,8.0
19.771,-0.008,-0.157,0.0
35.826,-0.016,-0.495,0.0
29.746,-0.014,-0.588,0.0
25.929,-0.013,-0.665,0.0
22.514,-0.012,-0.709,0.0
19.773,-0.012,-0.083,2.0
19.699,-0.013,-0.199,0.0
0.0,0.0,0.0,0.0
28.347,-0.02,-0.621,0.0
24.705,-0.018,-0.686,0.0
21.446,-0.017,-0.721,0.0
19.765,-0.017,-0.125,5.0
0.0,0.0,0.0,0.0
30.859,-0.029,-0.557,0.0
26.765,-0.026,-0.643,0.0
23.438,-0.024,-0.7,0.0
20.694,-0.022,-0.739,0.0
19.785,-0.023,-0.167,2.0
35.785,-0.043,-0.512,0.0
29.365,-0.036,-0.592,0.0
25.576,-0.033,-0.668,0.0
22.36,-0.029,-0.715,0.0
19.758,-0.027,-0.748,2.0
19.77,-0.029,-0.208,2.0
31.889,-0.048,-0.523,0.0
28.153,-0.044,-0.627,0.0
24.316,-0.039,-0.686,0.0
21.331,-0.035,-0.727,0.0
19.61,-0.033,-0.783,1.0
19.78,-0.036,-0.25,2.0
31.506,-0.059,-0.582,0.0
26.332,-0.051,-0.641,0.0
23.139,-0.046,-0.701,0.0
20.072,-0.041,-0.725,0.0
18.899,-0.039,-0.794,0.0
19.774,-0.044,-0.291,2.0
29.259,-0.067,-0.601,1.0
25.476,-0.06,-0.673,0.0
22.315,-0.053,-0.722,0.0
19.73,-0.048,-0.754,2.0
17.981,-0.045,-0.793,0.0
19.778,-0.052,-0.332,1.0
28.064,-0.076,-0.635,0.0
24.191,-0.067,-0.689,0.0
21.257,-0.06,-0.732,0.0
19.394,-0.056,-0.782,0.0
17.331,-0.051,-0.8,0.0
19.793,-0.062,-0.373,3.0
19.774,-0.063,-0.488,0.0
23.107,-0.075,-0.705,0.0
19.866,-0.066,-0.725,0.0
18.768,-0.064,-0.795,0.0
16.785,-0.058,-0.809,0.0
19.772,-0.071,-0.412,8.0
19.773,-0.073,-0.528,3.0
19.78,-0.074,-0.644,1.0
19.703,-0.076,-0.759,3.0
17.941,-0.07,-0.796,0.0
16.23,-0.065,-0.815,0.0
19.774,-0.082,-0.452,12.0
19.773,-0.084,-0.568,10.0
19.773,-0.085,-0.683,6.0
19.316,-0.085,-0.783,0.0
17.224,-0.077,-0.799,0.0
15.759,-0.072,-0.823,0.0
19.761,-0.093,-0.491,15.0
19.773,-0.095,-0.607,15.0
19.747,-0.097,-0.722,8.0
18.677,-0.093,-0.794,0.0
16.739,-0.085,-0.81,0.0
15.33,-0.079,-0.831,0.0
19.763,-0.105,-0.531,16.0
19.754,-0.107,-0.646,14.0
19.696,-0.109,-0.759,3.0
17.864,-0.1,-0.795,0.0
16.208,-0.092,-0.816,0.0
14.944,-0.086,-0.84,0.0
19.763,-0.118,-0.569,17.0
19.749,-0.12,-0.684,16.0
19.357,-0.119,-0.784,0.0
17.28,-0.108,-0.802,0.0
15.716,-0.1,-0.822,0.0
14.449,-0.093,-0.84,0.0
19.756,-0.131,-0.608,18.0
19.752,-0.133,-0.723,13.0
18.71,-0.128,-0.794,0.0
16.745,-0.116,-0.81,0.0
15.372,-0.108,-0.834,0.0
14.022,-0.1,-0.843,0.0
19.755,-0.145,-0.645,17.0
19.691,-0.147,-0.758,3.0
17.969,-0.136,-0.797,0.0
16.215,-0.124,-0.815,0.0
14.939,-0.116,-0.839,0.0
13.717,-0.108,-0.85,0.0
19.781,-0.16,-0.683,10.0
19.336,-0.158,-0.781,1.0
17.331,-0.144,-0.801,0.0
15.68,-0.132,-0.818,0.0
14.501,-0.123,-0.842,0.0
13.423,-0.116,-0.858,0.0
19.775,-0.175,-0.721,11.0
18.732,-0.168,-0.792,0.0
16.834,-0.153,-0.81,0.0
15.39,-0.141,-0.832,0.0
14.116,-0.131,-0.846,0.0
13.068,-0.123,-0.859,0.0
19.686,-0.19,-0.754,4.0
18.037,-0.176,-0.796,0.0
16.221,-0.16,-0.81,0.0
14.947,-0.149,-0.835,0.0
13.717,-0.139,-0.847,0.0
12.79,-0.131,-0.864,0.0
19.401,-0.203,-0.778,2.0
17.384,-0.184,-0.798,0.0
15.84,-0.169,-0.82,0.0
14.517,-0.157,-0.837,0.0
13.454,-0.147,-0.855,0.0
12.498,-0.138,-0.867,0.0
18.846,-0.213,-0.789,0.0
16.887,-0.193,-0.806,0.0
15.455,-0.179,-0.827,0.0
14.113,-0.165,-0.839,0.0
13.163,-0.156,-0.86,0.0
12.244,-0.146,-0.871,0.0
18.239,-0.222,-0.796,0.0
16.334,-0.201,-0.808,0.0
15.113,-0.188,-0.836,0.0
13.882,-0.175,-0.85,0.0
12.856,-0.164,-0.862,0.0
12.011,-0.154,-0.876,0.0
17.572,-0.23,-0.797,0.0
15.941,-0.211,-0.816,0.0
14.703,-0.197,-0.838,0.0
13.54,-0.183,-0.852,0.0
12.637,-0.172,-0.869,0.0
11.798,-0.163,-0.88,0.0
17.052,-0.239,-0.803,0.0
15.59,-0.221,-0.824,0.0
14.286,-0.204,-0.839,0.0
13.242,-0.191,-0.856,0.0
12.346,-0.18,-0.87,0.0
11.602,-0.171,-0.886,0.0
16.573,-0.248,-0.808,0.0
15.277,-0.231,-0.834,0.0
13.97,-0.213,-0.843,0.0
12.955,-0.2,-0.859,0.0
12.155,-0.189,-0.877,0.0
11.382,-0.179,-0.888,0.0
16.128,-0.258,-0.813,0.0
14.888,-0.24,-0.837,0.0
13.712,-0.223,-0.851,0.0
12.61,-0.207,-0.857,0.0
11.857,-0.197,-0.875,0.0
11.231,-0.188,-0.895,0.0
15.719,-0.267,-0.818,0.0
14.449,-0.248,-0.836,0.0
13.383,-0.232,-0.852,0.0
12.512,-0.219,-0.871,0.0
11.727,-0.207,-0.885,0.0
11.005,-0.196,-0.894,0.0
15.487,-0.28,-0.83,0.0
14.167,-0.258,-0.842,0.0
13.076,-0.24,-0.853,0.0
12.263,-0.227,-0.873,0.0
11.504,-0.215,-0.886,0.0
10.849,-0.205,-0.899,0.0
15.099,-0.289,-0.833,0.0
13.907,-0.268,-0.848,0.0
12.897,-0.251,-0.861,0.0
11.978,-0.235,-0.871,0.0
11.33,-0.224,-0.89,0.0
10.671,-0.213,-0.9,0.0
14.78,-0.299,-0.838,0.0
13.624,-0.278,-0.851,0.0
12.691,-0.261,-0.867,0.0
11.823,-0.245,-0.878,0.0
11.136,-0.233,-0.891,0.0
10.521,-0.222,-0.904,0.0
14.39,-0.307,-0.837,0.0
13.365,-0.287,-0.855,0.0
12.481,-0.271,-0.871,0.0
11.651,-0.255,-0.882,0.0
11.001,-0.242,-0.897,0.0
10.355,-0.23,-0.905,0.0
14.152,-0.318,-0.844,0.0
13.058,-0.296,-0.854,0.0
12.275,-0.28,-0.874,0.0
11.465,-0.264,-0.885,0.0
10.825,-0.251,-0.898,0.0
10.228,-0.239,-0.908,0.0
13.848,-0.327,-0.846,0.0
12.978,-0.309,-0.867,0.0
12.01,-0.288,-0.872,0.0
11.342,-0.274,-0.891,0.0
10.664,-0.26,-0.9,0.0
10.101,-0.248,-0.911,0.0
13.616,-0.338,-0.85,0.0
12.577,-0.314,-0.858,0.0
11.85,-0.298,-0.877,0.0
11.133,-0.282,-0.89,0.0
10.535,-0.269,-0.903,0.0
9.965,-0.256,-0.913,0.0
13.331,-0.346,-0.85,0.0
12.385,-0.324,-0.862,0.0
11.687,-0.308,-0.881,0.0
11.006,-0.292,-0.894,0.0
10.398,-0.278,-0.906,0.0
9.832,-0.265,-0.913,0.0
13.138,-0.357,-0.855,0.0
12.252,-0.335,-0.868,0.0
11.519,-0.318,-0.883,0.0
10.841,-0.301,-0.895,0.0
10.275,-0.287,-0.908,0.0
9.705,-0.273,-0.914,0.0
17.792,-0.505,-1.18,0.0
12.019,-0.344,-0.867,0.0
11.39,-0.328,-0.887,0.0
10.747,-0.312,-0.901,0.0
10.171,-0.297,-0.911,0.0
9.62,-0.283,-0.918,0.0
17.79,-0.528,-1.202,0.0
11.928,-0.356,-0.875,0.0
11.263,-0.339,-0.891,0.0
10.603,-0.321,-0.902,0.0
10.027,-0.306,-0.911,0.0
9.503,-0.291,-0.918,0.0
12.569,-0.388,-0.864,0.0
11.771,-0.366,-0.877,0.0
11.136,-0.349,-0.894,0.0
10.515,-0.332,-0.907,0.0
9.917,-0.315,-0.913,0.0
9.406,-0.301,-0.92,0.0
12.471,-0.401,-0.872,0.0
11.676,-0.378,-0.884,0.0
10.989,-0.358,-0.895,0.0
10.382,-0.341,-0.907,0.0
9.832,-0.325,-0.916,0.0
9.306,-0.309,-0.921,0.0
12.211,-0.409,-0.868,0.0
11.558,-0.389,-0.888,0.0
10.848,-0.368,-0.896,0.0
10.265,-0.35,-0.908,0.0
9.704,-0.333,-0.915,0.0
9.246,-0.32,-0.925,0.0
12.088,-0.42,-0.872,0.0
11.374,-0.398,-0.886,0.0
10.756,-0.379,-0.9,0.0
10.169,-0.36,-0.911,0.0
9.621,-0.343,-0.917,0.0
9.12,-0.327,-0.922,0.0
11.967,-0.432,-0.876,0.0
11.241,-0.408,-0.887,0.0
10.636,-0.389,-0.901,0.0
10.054,-0.37,-0.911,0.0
9.53,-0.353,-0.918,0.0
9.037,-0.336,-0.923,0.0
11.86,-0.444,-0.88,0.0
11.217,-0.422,-0.896,0.0
10.541,-0.399,-0.903,0.0
9.99,-0.381,-0.914,0.0
9.454,-0.362,-0.92,0.0
8.952,-0.345,-0.923,0.0
11.728,-0.455,-0.881,0.0
11.018,-0.43,-0.891,0.0
10.437,-0.409,-0.904,0.0
9.855,-0.389,-0.911,0.0
9.378,-0.372,-0.921,0.0
8.873,-0.354,-0.923,0.0
11.595,-0.465,-0.882,0.0
10.923,-0.441,-0.893,0.0
10.348,-0.42,-0.906,0.0
9.806,-0.4,-0.916,0.0
9.298,-0.382,-0.922,0.0
8.825,-0.364,-0.926,0.0
11.49,-0.476,-0.884,0.0
10.856,-0.453,-0.897,0.0
10.276,-0.431,-0.908,0.0
9.714,-0.41,-0.915,0.0
9.254,-0.393,-0.925,0.0
8.773,-0.374,-0.928,0.0
11.396,-0.488,-0.886,0.0
10.75,-0.463,-0.897,0.0
10.18,-0.441,-0.908,0.0
9.621,-0.419,-0.914,0.0
9.196,-0.403,-0.927,0.0
8.703,-0.383,-0.927,0.0
11.222,-0.496,-0.881,0.0
10.678,-0.474,-0.899,0.0
10.124,-0.452,-0.911,0.0
9.567,-0.43,-0.917,0.0
9.109,-0.411,-0.925,0.0
8.66,-0.393,-0.929,0.0
11.159,-0.508,-0.884,0.0
10.626,-0.487,-0.903,0.0
10.056,-0.463,-0.912,0.0
9.514,-0.44,-0.918,0.0
9.053,-0.421,-0.926,0.0
8.609,-0.403,-0.93,0.0
11.118,-0.522,-0.889,0.0
10.534,-0.497,-0.902,0.0
9.981,-0.473,-0.912,0.0
9.448,-0.45,-0.918,0.0
9.014,-0.432,-0.928,0.0
8.563,-0.412,-0.931,0.0
11.052,-0.534,-0.891,0.0
10.443,-0.507,-0.901,0.0
9.935,-0.485,-0.914,0.0
9.371,-0.46,-0.917,0.0
8.983,-0.443,-0.93,0.0
8.511,-0.422,-0.931,0.0
10.987,-0.546,-0.892,0.0
10.409,-0.52,-0.905,0.0
9.847,-0.494,-0.912,0.0
9.349,-0.472,-0.92,0.0
8.903,-0.451,-0.927,0.0
8.474,-0.432,-0.931,0.0
10.944,-0.559,-0.895,0.0
