X,Y,Z,Reflectivity
0.0,0.0,0.0,0.0
163.223,-3.974,4.504,16.0
0.0,0.0,0.0,0.0
170.453,-4.246,2.9,7.0
161.881,-4.081,1.884,27.0
160.69,-4.099,1.023,16.0
0.0,0.0,0.0,0.0
163.276,-4.25,4.71,34.0
171.605,-4.517,4.045,6.0
178.127,-4.741,3.26,8.0
161.834,-4.353,2.092,30.0
160.713,-4.369,1.229,13.0
0.0,0.0,0.0,0.0
140.64,-3.898,4.24,21.0
163.424,-4.576,4.066,4.0
167.826,-4.745,3.289,7.0
161.884,-4.624,2.304,25.0
162.231,-4.679,1.454,3.0
0.0,0.0,0.0,0.0
139.828,-4.103,4.399,13.0
163.392,-4.838,4.278,9.0
0.0,0.0,0.0,0.0
0.0,0.0,0.0,0.0
162.04,-4.935,1.667,10.0
160.62,-4.935,0.808,3.0
139.718,-4.325,4.583,19.0
163.237,-5.097,4.494,18.0
162.621,-5.12,3.62,4.0
162.227,-5.153,2.742,25.0
161.931,-5.187,1.885,28.0
160.668,-5.192,1.026,10.0
139.43,-4.535,4.763,5.0
140.134,-4.596,4.05,14.0
163.326,-5.4,3.86,15.0
162.191,-5.407,2.965,30.0
162.139,-5.448,2.113,26.0
160.709,-5.442,1.249,10.0
117.631,-4.009,4.182,16.0
140.092,-4.812,4.244,14.0
163.372,-5.654,4.091,15.0
162.167,-5.655,3.194,16.0
162.164,-5.698,2.341,18.0
152.71,-5.404,1.402,74.0
117.659,-4.189,4.349,8.0
138.696,-4.973,4.397,24.0
141.687,-5.117,3.748,6.0
162.249,-5.9,3.425,6.0
162.178,-5.939,2.572,13.0
0.0,0.0,0.0,0.0
117.566,-4.361,4.515,21.0
138.622,-5.175,4.594,19.0
141.927,-5.335,3.959,14.0
0.0,0.0,0.0,0.0
162.224,-6.178,2.807,13.0
0.0,0.0,0.0,0.0
117.162,-4.515,4.668,21.0
116.996,-4.536,4.047,20.0
138.553,-5.406,4.066,9.0
141.807,-5.569,3.405,15.0
162.273,-6.413,3.047,14.0
101.606,-4.039,1.375,2.0
116.548,-4.656,4.815,22.0
117.125,-4.708,4.225,24.0
118.46,-4.79,3.652,24.0
141.554,-5.757,3.609,17.0
0.0,0.0,0.0,0.0
101.543,-4.178,1.526,150.0
116.729,-4.827,4.998,19.0
117.201,-4.872,4.403,22.0
119.775,-5.007,3.873,21.0
139.918,-5.882,3.777,15.0
168.695,-7.13,3.671,5.0
101.968,-4.333,1.685,1.0
116.625,-4.98,5.169,13.0
116.018,-4.98,4.535,9.0
119.385,-5.15,4.04,12.0
139.952,-6.069,3.99,7.0
142.68,-6.22,3.321,12.0
0.0,0.0,0.0,0.0
117.533,-5.173,5.39,17.0
116.108,-5.135,4.715,20.0
117.456,-5.219,4.154,18.0
118.825,-5.305,3.568,8.0
142.444,-6.392,3.534,10.0
0.0,0.0,0.0,0.0
114.21,-5.172,5.413,22.0
116.691,-5.309,4.92,19.0
117.246,-5.359,4.329,22.0
140.788,-6.465,4.448,22.0
150.575,-6.945,3.971,6.0
0.0,0.0,0.0,0.0
114.37,-5.322,5.6,20.0
116.159,-5.428,5.078,20.0
117.35,-5.507,4.517,23.0
117.931,-5.559,3.911,20.0
150.228,-7.113,4.198,6.0
139.364,-6.627,3.166,11.0
108.887,-5.198,5.503,21.0
116.716,-5.595,5.288,9.0
116.771,-5.621,4.681,21.0
117.795,-5.694,4.094,19.0
140.991,-6.843,4.165,21.0
163.343,-7.959,3.972,8.0
108.577,-5.312,5.661,24.0
115.164,-5.655,5.401,6.0
110.062,-5.425,4.587,15.0
110.115,-5.448,4.002,10.0
117.841,-5.853,3.668,11.0
139.402,-6.949,3.611,20.0
110.294,-5.519,5.926,8.0
108.929,-5.471,5.283,21.0
108.372,-5.461,4.689,21.0
109.561,-5.541,4.157,22.0
117.338,-5.956,3.839,19.0
139.144,-7.087,3.825,12.0
108.139,-5.529,5.985,17.0
108.461,-5.564,5.434,25.0
108.151,-5.567,4.854,22.0
109.576,-5.658,4.333,14.0
117.166,-6.071,4.023,11.0
138.683,-7.211,4.038,19.0
108.101,-5.64,6.156,22.0
107.984,-5.652,5.585,20.0
108.112,-5.677,5.027,26.0
109.209,-5.753,4.497,18.0
109.742,-5.798,3.945,24.0
117.359,-6.221,3.608,17.0
108.18,-5.755,6.338,22.0
107.986,-5.76,5.762,19.0
108.264,-5.792,5.211,28.0
108.082,-5.8,4.626,26.0
109.128,-5.872,4.102,27.0
116.996,-6.314,3.787,30.0
107.418,-5.818,6.47,19.0
108.046,-5.869,5.943,23.0
108.193,-5.892,5.384,25.0
107.945,-5.894,4.797,33.0
0.0,0.0,0.0,0.0
116.99,-6.423,3.978,7.0
107.729,-5.935,6.665,22.0
108.243,-5.979,6.131,22.0
107.863,-5.973,5.545,24.0
108.11,-6.001,4.981,26.0
107.627,-5.99,4.398,23.0
109.296,-6.099,3.897,15.0
108.031,-6.048,6.863,23.0
107.637,-6.04,6.275,20.0
107.278,-6.035,5.693,22.0
108.125,-6.095,5.161,31.0
107.612,-6.081,4.576,25.0
109.23,-6.188,4.076,26.0
108.244,-6.153,7.057,11.0
107.595,-6.13,6.451,23.0
107.385,-6.13,5.877,20.0
107.999,-6.179,5.336,27.0
107.465,-6.162,4.749,27.0
108.75,-6.25,4.24,19.0
108.703,-6.267,7.269,17.0
108.204,-6.251,6.668,24.0
107.506,-6.223,6.062,19.0
107.93,-6.259,5.511,23.0
107.403,-6.242,4.924,26.0
107.866,-6.281,4.382,26.0
108.203,-6.321,7.414,19.0
108.394,-6.344,6.86,26.0
107.461,-6.301,6.238,20.0
107.339,-6.304,5.659,28.0
107.285,-6.313,5.096,26.0
107.638,-6.346,4.551,31.0
107.648,-6.367,7.555,23.0
108.101,-6.404,7.021,21.0
107.983,-6.408,6.448,20.0
107.221,-6.374,5.832,25.0
107.655,-6.409,5.292,21.0
107.553,-6.414,4.726,31.0
107.585,-6.438,7.731,19.0
107.813,-6.46,7.181,21.0
108.124,-6.488,6.636,26.0
107.394,-6.454,6.019,24.0
107.471,-6.469,5.462,22.0
107.457,-6.477,4.899,26.0
109.256,-6.608,8.033,16.0
107.138,-6.487,7.315,23.0
108.258,-6.564,6.823,24.0
108.059,-6.561,6.235,25.0
107.197,-6.518,5.625,26.0
107.164,-6.524,5.064,27.0
108.817,-6.646,8.182,22.0
107.551,-6.577,7.523,24.0
108.034,-6.614,6.989,22.0
108.098,-6.625,6.417,28.0
107.037,-6.569,5.796,25.0
107.356,-6.597,5.253,26.0
108.833,-6.709,8.367,21.0
107.585,-6.639,7.706,18.0
107.415,-6.635,7.13,25.0
108.173,-6.689,6.602,15.0
107.252,-6.638,5.985,21.0
107.441,-6.657,5.433,33.0
108.023,-6.715,8.483,22.0
109.029,-6.784,7.989,17.0
106.94,-6.659,7.275,24.0
108.411,-6.756,6.796,19.0
107.808,-6.725,6.194,25.0
107.344,-6.703,5.606,29.0
107.707,-6.746,8.638,19.0
108.931,-6.828,8.164,15.0
107.075,-6.717,7.463,25.0
107.592,-6.754,6.924,24.0
107.92,-6.781,6.381,21.0
107.202,-6.74,5.778,26.0
107.245,-6.765,8.78,21.0
108.538,-6.85,8.316,19.0
107.194,-6.769,7.649,17.0
107.432,-6.788,7.091,22.0
107.933,-6.824,6.558,15.0
0.0,0.0,0.0,0.0
107.12,-6.798,8.946,21.0
107.879,-6.85,8.442,31.0
108.875,-6.916,7.947,15.0
106.873,-6.791,7.229,28.0
107.975,-6.865,6.736,20.0
107.928,-6.866,6.168,19.0
106.949,-6.826,9.108,20.0
107.684,-6.874,8.602,24.0
108.726,-6.943,8.113,11.0
107.018,-6.836,7.412,23.0
107.707,-6.882,6.894,28.0
107.806,-6.891,6.336,22.0
107.486,-6.893,9.329,20.0
107.317,-6.882,8.747,20.0
108.013,-6.928,8.235,13.0
107.233,-6.879,7.6,18.0
107.469,-6.895,7.052,25.0
107.673,-6.91,6.501,20.0
107.57,-6.926,9.509,14.0
107.058,-6.892,8.899,20.0
107.815,-6.942,8.394,23.0
108.648,-6.996,7.875,19.0
106.975,-6.888,7.19,24.0
107.751,-6.939,6.677,30.0
110.942,-7.168,9.985,6.0
106.868,-6.904,9.054,20.0
107.707,-6.957,8.557,22.0
111.763,-7.218,8.279,8.0
106.995,-6.91,7.363,25.0
107.695,-6.955,6.844,33.0
106.484,-6.899,9.754,19.0
107.635,-6.972,9.29,14.0
107.392,-6.954,8.703,20.0
107.726,-6.974,8.15,12.0
107.178,-6.938,7.543,19.0
107.533,-6.959,7.003,25.0
106.479,-6.913,9.923,10.0
110.943,-7.2,9.752,12.0
107.115,-6.949,8.849,19.0
107.68,-6.984,8.317,26.0
107.646,-6.979,7.746,11.0
107.192,-6.948,7.148,23.0
107.692,-7.003,10.206,19.0
110.879,-7.207,9.921,11.0
106.686,-6.93,8.98,24.0
107.728,-6.995,8.488,22.0
109.988,-7.137,8.085,11.0
107.019,-6.942,7.302,27.0
107.707,-7.01,10.374,21.0
106.477,-6.925,9.689,17.0
106.652,-6.932,9.141,16.0
107.382,-6.976,8.624,22.0
111.718,-7.253,8.383,12.0
107.127,-6.951,7.472,22.0
107.803,-7.018,10.549,22.0
106.471,-6.926,9.853,16.0
111.042,-7.217,9.687,8.0
107.268,-6.967,8.779,19.0
107.711,-6.991,8.245,23.0
107.378,-6.965,7.653,16.0
107.753,-7.012,10.71,22.0
107.584,-6.994,10.12,12.0
110.858,-7.201,9.839,15.0
106.948,-6.94,8.914,21.0
107.754,-6.988,8.409,23.0
0.0,0.0,0.0,0.0
107.804,-7.007,10.876,24.0
107.716,-6.995,10.292,24.0
111.11,-7.208,10.025,6.0
106.763,-6.919,9.055,20.0
107.623,-6.969,8.558,20.0
111.814,-7.234,8.3,10.0
107.828,-6.998,11.039,15.0
107.806,-6.988,10.462,24.0
106.484,-6.895,9.766,19.0
107.598,-6.96,9.284,13.0
107.386,-6.939,8.696,18.0
107.709,-6.952,8.152,13.0
111.656,-7.23,11.594,16.0
107.769,-6.969,10.614,26.0
106.86,-6.902,9.955,11.0
107.555,-6.938,9.437,14.0
107.155,-6.905,8.832,21.0
107.882,-6.943,8.319,23.0
111.482,-7.198,11.737,4.0
107.742,-6.947,10.767,18.0
107.561,-6.926,10.174,17.0
107.521,-6.914,9.586,11.0
107.022,-6.872,8.972,23.0
107.809,-6.915,8.464,29.0
0.0,0.0,0.0,0.0
107.766,-6.923,10.921,17.0
107.614,-6.904,10.329,24.0
106.532,-6.824,9.646,16.0
106.955,-6.841,9.114,18.0
107.668,-6.877,8.602,23.0
0.0,0.0,0.0,0.0
111.54,-7.136,11.459,11.0
107.821,-6.886,10.499,22.0
106.466,-6.789,9.787,19.0
107.537,-6.847,9.312,16.0
107.276,-6.821,8.717,21.0
0.0,0.0,0.0,0.0
111.578,-7.104,11.615,6.0
107.896,-6.858,10.654,16.0
107.507,-6.821,10.03,18.0
107.528,-6.812,9.456,17.0
107.163,-6.777,8.852,18.0
0.0,0.0,0.0,0.0
0.0,0.0,0.0,0.0
107.816,-6.815,10.789,16.0
107.534,-6.784,10.174,19.0
107.383,-6.763,9.585,11.0
107.177,-6.738,8.993,18.0
0.0,0.0,0.0,0.0
0.0,0.0,0.0,0.0
107.748,-6.768,10.924,27.0
107.666,-6.749,10.327,13.0
111.271,-6.962,10.076,21.0
107.231,-6.698,9.136,21.0
0.0,0.0,0.0,0.0
0.0,0.0,0.0,0.0
107.769,-6.724,11.063,10.0
107.72,-6.708,10.468,20.0
111.245,-6.912,10.214,19.0
107.294,-6.653,9.277,22.0
0.0,0.0,0.0,0.0
0.0,0.0,0.0,0.0
0.0,0.0,0.0,0.0
107.796,-6.661,10.61,21.0
109.404,-6.746,10.181,17.0
107.25,-6.6,9.405,25.0
0.0,0.0,0.0,0.0
0.0,0.0,0.0,0.0
0.0,0.0,0.0,0.0
107.902,-6.613,10.753,19.0
109.47,-6.694,10.319,17.0
107.189,-6.541,9.528,14.0
0.0,0.0,0.0,0.0
0.0,0.0,0.0,0.0
0.0,0.0,0.0,0.0
107.941,-6.557,10.884,16.0
109.523,-6.638,10.453,7.0
109.324,-6.609,9.846,17.0
0.0,0.0,0.0,0.0
0.0,0.0,0.0,0.0
0.0,0.0,0.0,0.0
107.919,-6.495,11.006,3.0
112.044,-6.727,10.821,9.0
109.314,-6.546,9.968,21.0
0.0,0.0,0.0,0.0
0.0,0.0,0.0,0.0
0.0,0.0,0.0,0.0
0.0,0.0,0.0,0.0
111.993,-6.655,10.941,1.0
109.278,-6.477,10.086,16.0
0.0,0.0,0.0,0.0
0.0,0.0,0.0,0.0
0.0,0.0,0.0,0.0
0.0,0.0,0.0,0.0
0.0,0.0,0.0,0.0
109.266,-6.406,10.201,23.0
0.0,0.0,0.0,0.0
0.0,0.0,0.0,0.0
0.0,0.0,0.0,0.0
0.0,0.0,0.0,0.0
0.0,0.0,0.0,0.0
108.827,-6.307,10.272,10.0
0.0,0.0,0.0,0.0
0.0,0.0,0.0,0.0
0.0,0.0,0.0,0.0
0.0,0.0,0.0,0.0
0.0,0.0,0.0,0.0
125.312,-7.173,11.954,4.0
0.0,0.0,0.0,0.0
0.0,0.0,0.0,0.0
0.0,0.0,0.0,0.0
0.0,0.0,0.0,0.0
0.0,0.0,0.0,0.0
109.108,-6.166,10.513,16.0
0.0,0.0,0.0,0.0
0.0,0.0,0.0,0.0
0.0,0.0,0.0,0.0
0.0,0.0,0.0,0.0
0.0,0.0,0.0,0.0
109.356,-6.098,10.637,18.0
0.0,0.0,0.0,0.0
0.0,0.0,0.0,0.0
0.0,0.0,0.0,0.0
0.0,0.0,0.0,0.0
0.0,0.0,0.0,0.0
109.139,-5.999,10.713,13.0
0.0,0.0,0.0,0.0
0.0,0.0,0.0,0.0
0.0,0.0,0.0,0.0
0.0,0.0,0.0,0.0
0.0,0.0,0.0,0.0
109.475,-5.927,10.841,10.0
0.0,0.0,0.0,0.0
0.0,0.0,0.0,0.0
0.0,0.0,0.0,0.0
0.0,0.0,0.0,0.0
0.0,0.0,0.0,0.0
109.612,-5.843,10.943,8.0
0.0,0.0,0.0,0.0
0.0,0.0,0.0,0.0
0.0,0.0,0.0,0.0
0.0,0.0,0.0,0.0
0.0,0.0,0.0,0.0
109.548,-5.743,11.023,6.0
0.0,0.0,0.0,0.0
0.0,0.0,0.0,0.0
0.0,0.0,0.0,0.0
0.0,0.0,0.0,0.0
0.0,0.0,0.0,0.0
0.0,0.0,0.0,0.0
0.0,0.0,0.0,0.0
0.0,0.0,0.0,0.0
0.0,0.0,0.0,0.0
0.0,0.0,0.0,0.0
0.0,0.0,0.0,0.0
0.0,0.0,0.0,0.0
0.0,0.0,0.0,0.0
0.0,0.0,0.0,0.0
0.0,0.0,0.0,0.0
0.0,0.0,0.0,0.0
0.0,0.0,0.0,0.0
0.0,0.0,0.0,0.0
0.0,0.0,0.0,0.0
0.0,0.0,0.0,0.0
0.0,0.0,0.0,0.0
0.0,0.0,0.0,0.0
0.0,0.0,0.0,0.0
0.0,0.0,0.0,0.0
0.0,0.0,0.0,0.0
0.0,0.0,0.0,0.0
0.0,0.0,0.0,0.0
0.0,0.0,0.0,0.0
0.0,0.0,0.0,0.0
0.0,0.0,0.0,0.0
0.0,0.0,0.0,0.0
0.0,0.0,0.0,0.0
0.0,0.0,0.0,0.0
0.0,0.0,0.0,0.0
0.0,0.0,0.0,0.0
0.0,0.0,0.0,0.0
0.0,0.0,0.0,0.0
0.0,0.0,0.0,0.0
0.0,0.0,0.0,0.0
0.0,0.0,0.0,0.0
0.0,0.0,0.0,0.0
0.0,0.0,0.0,0.0
0.0,0.0,0.0,0.0
0.0,0.0,0.0,0.0
0.0,0.0,0.0,0.0
0.0,0.0,0.0,0.0
0.0,0.0,0.0,0.0
0.0,0.0,0.0,0.0
0.0,0.0,0.0,0.0
0.0,0.0,0.0,0.0
0.0,0.0,0.0,0.0
0.0,0.0,0.0,0.0
0.0,0.0,0.0,0.0
0.0,0.0,0.0,0.0
0.0,0.0,0.0,0.0
0.0,0.0,0.0,0.0
0.0,0.0,0.0,0.0
0.0,0.0,0.0,0.0
0.0,0.0,0.0,0.0
0.0,0.0,0.0,0.0
0.0,0.0,0.0,0.0
0.0,0.0,0.0,0.0
0.0,0.0,0.0,0.0
0.0,0.0,0.0,0.0
0.0,0.0,0.0,0.0
0.0,0.0,0.0,0.0
0.0,0.0,0.0,0.0
0.0,0.0,0.0,0.0
0.0,0.0,0.0,0.0
0.0,0.0,0.0,0.0
0.0,0.0,0.0,0.0
0.0,0.0,0.0,0.0
0.0,0.0,0.0,0.0
0.0,0.0,0.0,0.0
0.0,0.0,0.0,0.0
0.0,0.0,0.0,0.0
0.0,0.0,0.0,0.0
0.0,0.0,0.0,0.0
0.0,0.0,0.0,0.0
0.0,0.0,0.0,0.0
0.0,0.0,0.0,0.0
0.0,0.0,0.0,0.0
0.0,0.0,0.0,0.0
0.0,0.0,0.0,0.0
0.0,0.0,0.0,0.0
0.0,0.0,0.0,0.0
0.0,0.0,0.0,0.0
0.0,0.0,0.0,0.0
0.0,0.0,0.0,0.0
0.0,0.0,0.0,0.0
0.0,0.0,0.0,0.0
0.0,0.0,0.0,0.0
0.0,0.0,0.0,0.0
0.0,0.0,0.0,0.0
0.0,0.0,0.0,0.0
0.0,0.0,0.0,0.0
0.0,0.0,0.0,0.0
0.0,0.0,0.0,0.0
0.0,0.0,0.0,0.0
0.0,0.0,0.0,0.0
0.0,0.0,0.0,0.0
0.0,0.0,0.0,0.0
0.0,0.0,0.0,0.0
0.0,0.0,0.0,0.0
0.0,0.0,0.0,0.0
0.0,0.0,0.0,0.0
0.0,0.0,0.0,0.0
0.0,0.0,0.0,0.0
0.0,0.0,0.0,0.0
0.0,0.0,0.0,0.0
0.0,0.0,0.0,0.0
0.0,0.0,0.0,0.0
0.0,0.0,0.0,0.0
0.0,0.0,0.0,0.0
0.0,0.0,0.0,0.0
0.0,0.0,0.0,0.0
0.0,0.0,0.0,0.0
0.0,0.0,0.0,0.0
0.0,0.0,0.0,0.0
0.0,0.0,0.0,0.0
0.0,0.0,0.0,0.0
0.0,0.0,0.0,0.0
0.0,0.0,0.0,0.0
0.0,0.0,0.0,0.0
0.0,0.0,0.0,0.0
0.0,0.0,0.0,0.0
0.0,0.0,0.0,0.0
0.0,0.0,0.0,0.0
0.0,0.0,0.0,0.0
0.0,0.0,0.0,0.0
0.0,0.0,0.0,0.0
0.0,0.0,0.0,0.0
0.0,0.0,0.0,0.0
0.0,0.0,0.0,0.0
0.0,0.0,0.0,0.0
0.0,0.0,0.0,0.0
0.0,0.0,0.0,0.0
0.0,0.0,0.0,0.0
0.0,0.0,0.0,0.0
0.0,0.0,0.0,0.0
0.0,0.0,0.0,0.0
0.0,0.0,0.0,0.0
0.0,0.0,0.0,0.0
0.0,0.0,0.0,0.0
0.0,0.0,0.0,0.0
0.0,0.0,0.0,0.0
0.0,0.0,0.0,0.0
0.0,0.0,0.0,0.0
0.0,0.0,0.0,0.0
0.0,0.0,0.0,0.0
0.0,0.0,0.0,0.0
0.0,0.0,0.0,0.0
0.0,0.0,0.0,0.0
0.0,0.0,0.0,0.0
0.0,0.0,0.0,0.0
0.0,0.0,0.0,0.0
0.0,0.0,0.0,0.0
0.0,0.0,0.0,0.0
0.0,0.0,0.0,0.0
0.0,0.0,0.0,0.0
0.0,0.0,0.0,0.0
0.0,0.0,0.0,0.0
0.0,0.0,0.0,0.0
0.0,0.0,0.0,0.0
0.0,0.0,0.0,0.0
0.0,0.0,0.0,0.0
0.0,0.0,0.0,0.0
0.0,0.0,0.0,0.0
0.0,0.0,0.0,0.0
0.0,0.0,0.0,0.0
0.0,0.0,0.0,0.0
0.0,0.0,0.0,0.0
0.0,0.0,0.0,0.0
0.0,0.0,0.0,0.0
0.0,0.0,0.0,0.0
0.0,0.0,0.0,0.0
0.0,0.0,0.0,0.0
0.0,0.0,0.0,0.0
0.0,0.0,0.0,0.0
0.0,0.0,0.0,0.0
0.0,0.0,0.0,0.0
0.0,0.0,0.0,0.0
0.0,0.0,0.0,0.0
0.0,0.0,0.0,0.0
0.0,0.0,0.0,0.0
0.0,0.0,0.0,0.0
0.0,0.0,0.0,0.0
0.0,0.0,0.0,0.0
0.0,0.0,0.0,0.0
0.0,0.0,0.0,0.0
0.0,0.0,0.0,0.0
0.0,0.0,0.0,0.0
0.0,0.0,0.0,0.0
0.0,0.0,0.0,0.0
0.0,0.0,0.0,0.0
0.0,0.0,0.0,0.0
0.0,0.0,0.0,0.0
0.0,0.0,0.0,0.0
55.124,-0.863,7.179,2.0
0.0,0.0,0.0,0.0
0.0,0.0,0.0,0.0
0.0,0.0,0.0,0.0
0.0,0.0,0.0,0.0
0.0,0.0,0.0,0.0
55.066,-0.799,7.131,4.0
0.0,0.0,0.0,0.0
0.0,0.0,0.0,0.0
0.0,0.0,0.0,0.0
0.0,0.0,0.0,0.0
0.0,0.0,0.0,0.0
0.0,0.0,0.0,0.0
84.811,0.998,6.595,9.0
0.0,0.0,0.0,0.0
0.0,0.0,0.0,0.0
121.687,1.439,7.312,17.0
84.826,1.005,4.602,12.0
0.0,0.0,0.0,0.0
84.819,1.023,6.432,3.0
84.823,1.024,5.935,5.0
84.817,1.026,5.431,15.0
84.839,1.027,4.936,30.0
84.826,1.028,4.44,40.0
84.812,1.044,6.767,21.0
84.798,1.044,6.269,15.0
84.807,1.045,5.773,33.0
84.81,1.046,5.269,42.0
84.822,1.047,4.774,47.0
84.817,1.047,4.279,43.0
84.795,1.062,6.605,41.0
84.814,1.063,6.109,42.0
84.791,1.063,5.612,49.0
84.796,1.063,5.107,49.0
84.805,1.063,4.612,51.0
84.809,1.064,4.118,45.0
84.8,1.078,6.441,44.0
84.81,1.078,5.945,49.0
84.81,1.078,5.448,54.0
84.797,1.078,4.942,52.0
84.809,1.078,4.447,48.0
84.819,1.077,3.953,42.0
84.801,1.091,6.276,43.0
84.798,1.091,5.778,50.0
84.801,1.09,5.281,46.0
84.792,1.089,4.776,46.0
84.814,1.089,4.28,42.0
84.836,1.089,3.787,41.0
84.816,1.101,6.109,45.0
84.804,1.1,5.609,50.0
84.815,1.099,5.113,44.0
84.825,1.098,4.609,45.0
84.815,1.097,4.113,39.0
84.812,1.095,3.618,34.0
84.806,1.107,5.939,41.0
84.823,1.106,5.443,44.0
84.818,1.104,4.945,39.0
84.823,1.103,4.441,36.0
84.839,1.102,3.946,33.0
84.838,1.1,3.451,24.0
84.805,1.111,5.77,37.0
84.826,1.109,5.275,38.0
84.807,1.106,4.777,34.0
84.829,1.105,4.274,32.0
84.836,1.103,3.777,31.0
19.661,0.255,0.76,6.0
84.819,1.111,5.601,36.0
84.816,1.108,5.104,37.0
84.82,1.106,4.607,31.0
84.816,1.103,4.101,35.0
84.837,1.101,3.608,32.0
19.651,0.254,0.721,13.0
84.818,1.107,5.43,37.0
84.814,1.104,4.932,39.0
84.814,1.102,4.436,36.0
84.815,1.099,3.931,39.0
84.822,1.096,3.435,32.0
19.651,0.253,0.681,15.0
84.812,1.101,5.257,43.0
84.815,1.097,4.76,47.0
84.826,1.095,4.265,41.0
84.799,1.091,3.76,47.0
19.651,0.252,0.756,7.0
19.651,0.251,0.641,15.0
84.816,1.091,5.086,41.0
84.806,1.087,4.588,47.0
84.796,1.083,4.09,44.0
84.81,1.08,3.587,53.0
19.637,0.249,0.716,13.0
19.647,0.248,0.602,14.0
84.815,1.079,4.913,47.0
84.812,1.074,4.416,51.0
84.807,1.07,3.921,50.0
84.798,1.066,3.415,42.0
19.641,0.245,0.676,15.0
19.66,0.245,0.562,14.0
84.808,1.062,4.739,48.0
84.821,1.058,4.244,52.0
84.813,1.053,3.746,57.0
19.645,0.242,0.75,9.0
19.649,0.241,0.636,14.0
19.668,0.24,0.521,13.0
84.815,1.043,4.563,38.0
84.815,1.037,4.067,46.0
84.808,1.032,3.57,45.0
19.633,0.237,0.71,13.0
19.66,0.236,0.596,11.0
19.692,0.236,0.481,11.0
84.82,1.02,4.388,27.0
84.815,1.014,3.891,30.0
84.837,1.009,3.395,15.0
19.643,0.232,0.669,14.0
19.665,0.231,0.555,12.0
19.699,0.23,0.441,10.0
84.893,0.995,4.217,5.0
84.836,0.988,3.716,6.0
19.649,0.227,0.745,9.0
19.649,0.226,0.629,12.0
19.681,0.225,0.515,10.0
19.708,0.223,0.4,11.0
0.0,0.0,0.0,0.0
185.821,2.099,7.758,19.0
19.644,0.22,0.705,12.0
19.661,0.219,0.588,10.0
19.697,0.217,0.474,10.0
19.726,0.216,0.36,11.0
186.337,2.047,8.482,20.0
19.675,0.214,0.78,2.0
19.641,0.212,0.664,11.0
19.692,0.211,0.549,10.0
19.719,0.21,0.435,10.0
19.737,0.208,0.32,10.0
186.05,1.966,8.089,16.0
19.679,0.206,0.74,9.0
19.668,0.204,0.625,10.0
19.7,0.203,0.509,10.0
19.722,0.201,0.394,10.0
19.732,0.199,0.279,8.0
183.732,1.857,7.611,9.0
19.653,0.196,0.699,10.0
19.686,0.195,0.585,10.0
19.685,0.193,0.468,9.0
19.685,0.191,0.353,9.0
19.681,0.189,0.238,9.0
19.675,0.189,0.775,7.0
19.661,0.187,0.659,10.0
19.661,0.185,0.544,9.0
19.656,0.183,0.427,9.0
19.667,0.181,0.313,9.0
19.664,0.179,0.198,13.0
19.64,0.178,0.733,9.0
19.638,0.176,0.618,9.0
19.616,0.174,0.503,9.0
19.637,0.172,0.387,9.0
19.644,0.17,0.272,9.0
19.656,0.168,0.158,13.0
19.609,0.166,0.692,11.0
19.61,0.164,0.577,10.0
19.617,0.162,0.463,10.0
19.627,0.16,0.347,9.0
19.655,0.158,0.233,14.0
19.655,0.156,0.118,12.0
19.609,0.155,0.652,12.0
19.599,0.152,0.537,11.0
19.612,0.15,0.423,10.0
19.615,0.148,0.307,11.0
19.663,0.146,0.193,15.0
19.648,0.144,0.078,13.0
19.598,0.142,0.612,14.0
19.601,0.139,0.498,13.0
19.608,0.137,0.383,10.0
19.618,0.135,0.267,10.0
19.645,0.133,0.153,14.0
19.646,0.13,0.039,15.0
19.599,0.128,0.573,18.0
19.604,0.126,0.458,14.0
19.604,0.124,0.344,11.0
19.648,0.121,0.228,15.0
19.641,0.119,0.114,14.0
19.648,0.117,0.0,13.0
19.602,0.114,0.533,19.0
19.616,0.112,0.419,19.0
19.604,0.109,0.304,13.0
19.648,0.107,0.189,14.0
19.655,0.104,0.074,12.0
19.68,0.102,-0.04,6.0
19.603,0.099,0.494,21.0
19.605,0.097,0.379,24.0
19.608,0.094,0.265,16.0
19.668,0.092,0.149,12.0
19.689,0.089,0.035,9.0
19.771,0.087,-0.079,2.0
19.619,0.084,0.455,27.0
19.608,0.081,0.34,17.0
19.628,0.078,0.226,15.0
19.671,0.076,0.11,16.0
19.762,0.074,-0.003,39.0
19.766,0.071,-0.119,35.0
19.618,0.068,0.416,25.0
19.616,0.065,0.302,12.0
19.653,0.062,0.188,12.0
19.744,0.059,0.072,36.0
19.752,0.057,-0.043,34.0
19.743,0.054,-0.157,39.0
19.617,0.051,0.377,14.0
19.62,0.048,0.263,14.0
19.739,0.045,0.149,15.0
19.743,0.042,0.033,16.0
19.757,0.039,-0.081,14.0
19.743,0.036,-0.196,17.0
19.618,0.033,0.339,16.0
19.634,0.03,0.225,15.0
19.745,0.027,0.111,15.0
19.737,0.024,-0.005,17.0
19.762,0.021,-0.12,2.0
19.786,0.018,-0.235,1.0
19.631,0.015,0.301,15.0
19.7,0.012,0.188,6.0
19.783,0.009,0.073,3.0
19.737,0.005,-0.043,6.0
0.0,0.0,0.0,0.0
35.611,0.0,-0.492,0.0
19.637,-0.003,0.263,14.0
19.751,-0.007,0.15,2.0
19.717,-0.01,0.035,10.0
19.746,-0.013,-0.081,5.0
19.765,-0.017,-0.196,0.0
0.0,0.0,0.0,0.0
19.652,-0.023,0.226,16.0
19.684,-0.027,0.111,13.0
19.714,-0.03,-0.002,15.0
19.733,-0.033,-0.118,13.0
19.754,-0.037,-0.233,7.0
19.772,-0.04,-0.349,0.0
19.671,-0.043,0.189,12.0
19.704,-0.047,0.075,15.0
19.712,-0.05,-0.039,15.0
19.725,-0.054,-0.155,14.0
19.762,-0.057,-0.271,14.0
19.777,-0.061,-0.386,4.0
19.7,-0.064,0.153,17.0
19.704,-0.068,0.038,15.0
19.718,-0.072,-0.075,11.0
19.724,-0.075,-0.192,15.0
19.747,-0.079,-0.307,14.0
19.763,-0.083,-0.422,15.0
19.719,-0.086,0.117,14.0
19.719,-0.09,0.002,14.0
19.718,-0.093,-0.112,16.0
19.727,-0.097,-0.228,16.0
19.753,-0.101,-0.343,14.0
19.747,-0.105,-0.458,15.0
19.732,-0.109,0.08,12.0
19.734,-0.112,-0.033,9.0
19.716,-0.116,-0.147,15.0
19.729,-0.12,-0.264,16.0
19.736,-0.123,-0.379,17.0
19.738,-0.127,-0.494,16.0
19.762,-0.131,0.045,7.0
19.734,-0.135,-0.068,11.0
19.73,-0.139,-0.183,15.0
19.726,-0.143,-0.299,16.0
19.725,-0.146,-0.414,18.0
19.748,-0.15,-0.529,18.0
19.771,-0.155,0.01,0.0
19.752,-0.158,-0.103,11.0
19.736,-0.162,-0.218,13.0
19.743,-0.166,-0.334,14.0
19.74,-0.17,-0.449,13.0
19.774,-0.174,-0.564,7.0
19.817,-0.179,-0.023,0.0
19.777,-0.183,-0.138,5.0
19.773,-0.187,-0.252,8.0
19.772,-0.191,-0.369,7.0
26.628,-0.262,-0.652,0.0
23.283,-0.234,-0.705,0.0
0.0,0.0,0.0,0.0
42.475,-0.446,-0.37,0.0
34.996,-0.375,-0.508,0.0
29.23,-0.319,-0.596,0.0
25.622,-0.285,-0.671,0.0
22.49,-0.255,-0.72,0.0
0.0,0.0,0.0,0.0
0.0,0.0,0.0,0.0
0.0,0.0,0.0,0.0
28.273,-0.345,-0.624,0.0
24.719,-0.307,-0.689,0.0
21.836,-0.276,-0.736,0.0
0.0,0.0,0.0,0.0
38.17,-0.499,-0.461,0.0
31.024,-0.412,-0.554,0.0
26.304,-0.356,-0.625,0.0
23.735,-0.326,-0.701,0.0
20.973,-0.293,-0.741,0.0
0.0,0.0,0.0,0.0
0.0,0.0,0.0,0.0
30.01,-0.439,-0.585,0.0
26.021,-0.386,-0.661,0.0
22.745,-0.343,-0.71,0.0
20.41,-0.312,-0.755,0.0
0.0,0.0,0.0,0.0
0.0,0.0,0.0,0.0
28.968,-0.463,-0.612,0.0
25.176,-0.408,-0.68,0.0
21.896,-0.36,-0.718,2.0
19.882,-0.331,-0.767,0.0
38.218,-0.646,-0.426,0.0
32.663,-0.56,-0.553,0.0
27.692,-0.481,-0.629,0.0
24.262,-0.427,-0.694,0.0
21.633,-0.386,-0.744,3.0
19.446,-0.351,-0.781,0.0
37.68,-0.69,-0.479,0.0
30.867,-0.573,-0.571,0.0
21.72,-0.408,-0.527,1.0
21.722,-0.413,-0.655,5.0
20.952,-0.403,-0.753,0.0
18.969,-0.37,-0.792,0.0
35.094,-0.693,-0.501,0.0
29.894,-0.597,-0.599,0.0
21.697,-0.439,-0.56,157.0
21.714,-0.444,-0.688,7.0
20.382,-0.422,-0.763,0.0
18.42,-0.386,-0.797,0.0
33.091,-0.701,-0.521,0.0
21.744,-0.466,-0.468,5.0
21.662,-0.469,-0.591,159.0
21.684,-0.475,-0.719,6.0
19.776,-0.438,-0.77,0.0
17.862,-0.4,-0.799,1.0
31.756,-0.719,-0.547,0.0
21.743,-0.498,-0.5,0.0
21.723,-0.503,-0.625,54.0
21.589,-0.505,-0.748,8.0
19.375,-0.458,-0.783,1.0
17.649,-0.422,-0.815,0.0
31.423,-0.759,-0.587,0.0
26.58,-0.649,-0.649,0.0
23.232,-0.573,-0.702,0.0
20.804,-0.518,-0.75,0.0
17.854,-0.449,-0.747,1.0
17.256,-0.438,-0.822,0.0
29.645,-0.76,-0.595,0.0
25.822,-0.669,-0.667,0.0
22.562,-0.59,-0.713,0.0
17.807,-0.47,-0.667,151.0
17.781,-0.474,-0.768,8.0
17.444,-0.47,-0.855,0.0
28.873,-0.785,-0.619,0.0
25.301,-0.694,-0.688,0.0
17.801,-0.493,-0.586,27.0
17.8,-0.498,-0.691,151.0
17.756,-0.501,-0.792,5.0
0.0,0.0,0.0,0.0
27.994,-0.804,-0.638,0.0
17.878,-0.518,-0.51,0.0
17.764,-0.52,-0.609,156.0
17.791,-0.525,-0.714,48.0
17.719,-0.528,-0.813,1.0
17.787,-0.535,-0.919,0.0
27.273,-0.826,-0.657,0.0
17.848,-0.545,-0.532,0.0
17.8,-0.549,-0.633,154.0
17.804,-0.554,-0.738,3.0
17.47,-0.548,-0.824,0.0
15.687,-0.496,-0.831,0.0
26.159,-0.834,-0.664,0.0
23.038,-0.741,-0.717,0.0
17.803,-0.577,-0.656,3.0
17.882,-0.585,-0.763,1.0
16.843,-0.555,-0.816,0.0
15.446,-0.514,-0.837,0.0
25.706,-0.86,-0.684,1.0
22.413,-0.756,-0.725,0.0
20.044,-0.682,-0.763,0.0
18.02,-0.618,-0.792,0.0
16.541,-0.572,-0.822,0.0
15.067,-0.525,-0.835,0.0
24.674,-0.866,-0.686,0.0
21.858,-0.773,-0.733,0.0
19.754,-0.704,-0.775,0.0
17.807,-0.64,-0.803,0.0
16.274,-0.589,-0.828,0.0
14.87,-0.543,-0.842,0.0
23.781,-0.873,-0.688,0.0
21.284,-0.787,-0.738,0.0
19.377,-0.722,-0.783,0.0
17.474,-0.656,-0.808,0.0
16.076,-0.608,-0.836,0.0
14.716,-0.561,-0.85,0.0
23.552,-0.903,-0.708,0.0
20.953,-0.809,-0.75,0.0
19.106,-0.744,-0.793,0.0
17.139,-0.672,-0.812,0.0
15.762,-0.622,-0.837,0.0
14.462,-0.575,-0.851,0.0
22.893,-0.915,-0.713,0.0
20.603,-0.83,-0.76,0.0
18.644,-0.756,-0.794,0.0
16.954,-0.692,-0.821,0.0
15.47,-0.636,-0.838,0.0
14.244,-0.59,-0.853,0.0
22.581,-0.94,-0.727,0.0
20.175,-0.845,-0.764,0.0
18.376,-0.776,-0.802,0.0
16.625,-0.707,-0.822,0.0
15.242,-0.652,-0.841,0.0
14.021,-0.604,-0.854,0.0
22.01,-0.953,-0.73,0.0
19.916,-0.868,-0.775,0.0
17.902,-0.786,-0.799,0.0
16.443,-0.727,-0.829,0.0
15.023,-0.668,-0.844,0.0
13.852,-0.62,-0.857,0.0
21.466,-0.965,-0.733,0.0
19.572,-0.886,-0.78,0.0
17.677,-0.805,-0.805,0.0
16.105,-0.738,-0.828,0.0
14.805,-0.683,-0.845,0.0
13.638,-0.634,-0.857,0.0
21.119,-0.985,-0.741,0.0
19.272,-0.905,-0.786,0.0
17.434,-0.824,-0.81,0.0
15.87,-0.755,-0.83,0.0
14.61,-0.699,-0.848,0.0
13.468,-0.649,-0.858,0.0
20.928,-1.012,-0.753,0.0
18.948,-0.921,-0.789,0.0
17.256,-0.844,-0.817,0.0
15.79,-0.777,-0.839,0.0
14.474,-0.717,-0.852,0.0
13.353,-0.666,-0.863,0.0
20.588,-1.03,-0.758,0.0
18.741,-0.943,-0.796,0.0
16.911,-0.856,-0.815,0.0
15.542,-0.792,-0.839,0.0
14.32,-0.734,-0.855,0.0
13.2,-0.681,-0.864,0.0
20.343,-1.052,-0.765,0.0
18.347,-0.955,-0.794,0.0
16.765,-0.877,-0.821,0.0
15.3,-0.805,-0.838,0.0
14.093,-0.746,-0.852,0.0
13.121,-0.699,-0.869,0.0
20.025,-1.07,-0.769,0.0
18.137,-0.974,-0.799,0.0
16.559,-0.895,-0.824,0.0
15.13,-0.822,-0.84,0.0
13.96,-0.763,-0.855,0.0
12.984,-0.714,-0.869,0.0
19.845,-1.094,-0.776,0.0
18.0,-0.997,-0.806,0.0
16.435,-0.916,-0.829,0.0
15.049,-0.844,-0.846,0.0
13.771,-0.776,-0.853,0.0
12.883,-0.73,-0.871,0.0
19.717,-1.12,-0.784,0.0
17.811,-1.017,-0.809,0.0
16.354,-0.939,-0.836,0.0
14.83,-0.856,-0.844,0.0
13.783,-0.8,-0.863,0.0
12.787,-0.747,-0.873,0.0
19.475,-1.14,-0.787,0.0
17.555,-1.033,-0.809,0.0
16.094,-0.952,-0.833,0.0
14.767,-0.878,-0.85,0.0
13.582,-0.812,-0.859,0.0
12.674,-0.762,-0.873,0.0
19.264,-1.161,-0.79,0.0
17.449,-1.057,-0.815,0.0
15.952,-0.971,-0.835,0.0
14.635,-0.895,-0.851,0.0
13.468,-0.828,-0.859,0.0
12.588,-0.778,-0.875,0.0
19.113,-1.184,-0.795,0.0
17.228,-1.072,-0.814,0.0
15.896,-0.994,-0.841,0.0
14.547,-0.915,-0.854,0.0
13.376,-0.846,-0.861,0.0
12.535,-0.796,-0.878,0.0
18.773,-1.194,-0.791,0.0
17.117,-1.095,-0.817,0.0
15.746,-1.012,-0.841,0.0
14.499,-0.937,-0.858,0.0
13.367,-0.868,-0.867,0.0
12.47,-0.813,-0.879,0.0
18.765,-1.226,-0.799,0.0
17.086,-1.121,-0.824,0.0
15.593,-1.028,-0.84,0.0
14.324,-0.949,-0.854,0.0
13.354,-0.889,-0.872,0.0
12.431,-0.832,-0.882,0.0
18.548,-1.243,-0.798,0.0
16.836,-1.134,-0.819,0.0
15.5,-1.049,-0.842,0.0
14.289,-0.971,-0.858,0.0
13.281,-0.907,-0.873,0.0
12.389,-0.85,-0.884,0.0
18.434,-1.266,-0.8,0.0
16.719,-1.154,-0.82,0.0
15.406,-1.068,-0.842,0.0
14.201,-0.989,-0.858,0.0
13.095,-0.917,-0.865,0.0
12.297,-0.865,-0.882,0.0
18.393,-1.295,-0.805,0.0
16.658,-1.178,-0.823,0.0
15.352,-1.09,-0.845,0.0
14.162,-1.01,-0.861,0.0
13.046,-0.935,-0.866,0.0
12.27,-0.883,-0.884,0.0
18.287,-1.318,-0.806,0.0
16.563,-1.199,-0.823,0.0
15.314,-1.113,-0.847,0.0
14.076,-1.028,-0.859,0.0
13.03,-0.956,-0.869,0.0
12.267,-0.904,-0.887,0.0
18.232,-1.344,-0.809,0.0
16.614,-1.23,-0.83,0.0
15.255,-1.134,-0.848,0.0
14.038,-1.048,-0.861,0.0
12.98,-0.973,-0.869,0.0
12.247,-0.922,-0.889,0.0
18.019,-1.358,-0.803,0.0
16.548,-1.252,-0.83,0.0
15.197,-1.155,-0.848,0.0
13.983,-1.067,-0.86,0.0
12.966,-0.994,-0.87,0.0
12.226,-0.941,-0.89,0.0
18.116,-1.395,-0.811,0.0
16.513,-1.277,-0.832,0.0
15.175,-1.178,-0.849,0.0
13.979,-1.09,-0.862,0.0
13.056,-1.022,-0.879,0.0
12.23,-0.961,-0.892,0.0
17.98,-1.414,-0.808,0.0
16.491,-1.302,-0.833,0.0
15.139,-1.2,-0.849,0.0
13.97,-1.112,-0.864,0.0
13.005,-1.039,-0.877,0.0
12.193,-0.978,-0.89,0.0
17.989,-1.443,-0.81,0.0
16.497,-1.329,-0.835,0.0
15.065,-1.218,-0.847,0.0
13.979,-1.135,-0.865,0.0
12.989,-1.058,-0.877,0.0
12.229,-1.001,-0.894,0.0
17.973,-1.471,-0.81,0.0
16.483,-1.354,-0.835,0.0
15.132,-1.248,-0.851,0.0
13.957,-1.155,-0.864,0.0
12.989,-1.079,-0.877,0.0
12.162,-1.015,-0.89,0.0
18.003,-1.502,-0.812,0.0
16.466,-1.378,-0.835,0.0
14.971,-1.258,-0.842,0.0
13.95,-1.177,-0.864,0.0
12.979,-1.099,-0.877,0.0
12.178,-1.035,-0.891,0.0
17.825,-1.515,-0.804,0.0
16.494,-1.407,-0.836,0.0
15.084,-1.291,-0.848,0.0
13.938,-1.198,-0.863,0.0
13.049,-1.125,-0.881,0.0
12.195,-1.056,-0.891,0.0
17.768,-1.538,-0.8,0.0
16.527,-1.435,-0.836,0.0
15.171,-1.322,-0.852,0.0
14.028,-1.227,-0.867,0.0
13.122,-1.152,-0.885,0.0
12.229,-1.077,-0.893,0.0
17.832,-1.571,-0.801,0.0
16.656,-1.472,-0.841,0.0
15.225,-1.35,-0.853,0.0
14.018,-1.248,-0.865,0.0
13.115,-1.171,-0.883,0.0
12.239,-1.097,-0.892,0.0
17.745,-1.59,-0.795,0.0
16.639,-1.496,-0.838,0.0
15.242,-1.375,-0.852,0.0
14.026,-1.269,-0.864,0.0
13.062,-1.186,-0.877,0.0
12.196,-1.111,-0.887,0.0
18.032,-1.642,-0.805,0.0
16.7,-1.526,-0.838,0.0
15.235,-1.396,-0.849,0.0
14.082,-1.295,-0.864,0.0
13.032,-1.202,-0.872,0.0
12.28,-1.137,-0.89,0.0
18.355,-1.699,-0.815,0.0
16.677,-1.548,-0.833,0.0
15.391,-1.433,-0.854,0.0
14.176,-1.324,-0.867,0.0
13.151,-1.233,-0.877,0.0
12.312,-1.158,-0.89,0.0
18.155,-1.706,-0.802,0.0
16.768,-1.581,-0.833,0.0
15.422,-1.458,-0.852,0.0
14.168,-1.344,-0.862,0.0
13.112,-1.248,-0.871,0.0
12.405,-1.184,-0.893,0.0
18.296,-1.746,-0.803,0.0
16.808,-1.609,-0.83,0.0
15.528,-1.49,-0.853,0.0
14.287,-1.376,-0.865,0.0
13.059,-1.261,-0.863,0.0
12.321,-1.194,-0.883,0.0
18.684,-1.809,-0.814,0.0
16.895,-1.64,-0.829,0.0
15.515,-1.511,-0.847,0.0
14.374,-1.404,-0.866,0.0
13.223,-1.295,-0.869,0.0
12.468,-1.225,-0.889,0.0
18.591,-1.825,-0.803,0.0
16.919,-1.666,-0.824,0.0
15.568,-1.537,-0.844,0.0
14.471,-1.433,-0.866,0.0
13.275,-1.318,-0.868,0.0
12.508,-1.246,-0.887,0.0
18.639,-1.855,-0.798,0.0
17.123,-1.709,-0.827,0.0
15.831,-1.584,-0.852,0.0
14.525,-1.458,-0.863,0.0
13.499,-1.358,-0.877,0.0
12.536,-1.265,-0.883,0.0
19.21,-1.937,-0.814,0.0
17.186,-1.737,-0.823,0.0
15.938,-1.615,-0.851,0.0
14.574,-1.481,-0.859,0.0
13.575,-1.384,-0.875,0.0
12.64,-1.292,-0.885,0.0
19.168,-1.957,-0.803,0.0
17.346,-1.776,-0.822,0.0
15.983,-1.64,-0.845,0.0
14.713,-1.514,-0.861,0.0
13.744,-1.418,-0.879,0.0
12.809,-1.325,-0.89,0.0
19.232,-1.988,-0.796,0.0
17.418,-1.805,-0.817,0.0
16.086,-1.671,-0.843,0.0
14.852,-1.547,-0.861,0.0
13.794,-1.44,-0.875,0.0
12.857,-1.346,-0.887,0.0
19.419,-2.031,-0.794,0.0
17.492,-1.834,-0.811,0.0
16.243,-1.707,-0.842,0.0
15.057,-1.586,-0.865,0.0
13.906,-1.469,-0.875,0.0
12.936,-1.37,-0.885,0.0
19.595,-2.073,-0.79,0.0
17.644,-1.871,-0.808,0.0
16.312,-1.733,-0.836,0.0
15.132,-1.612,-0.86,0.0
14.012,-1.496,-0.873,0.0
13.048,-1.397,-0.885,0.0
19.813,-2.119,-0.787,0.0
17.798,-1.907,-0.804,0.0
16.395,-1.761,-0.83,0.0
15.233,-1.64,-0.856,0.0
14.133,-1.525,-0.872,0.0
13.142,-1.422,-0.883,0.0
20.053,-2.167,-0.783,0.0
18.007,-1.95,-0.802,0.0
16.727,-1.816,-0.836,0.0
15.401,-1.675,-0.856,0.0
14.241,-1.553,-0.869,0.0
13.186,-1.441,-0.877,0.0
20.146,-2.199,-0.774,0.0
18.375,-2.01,-0.806,0.0
16.999,-1.864,-0.838,0.0
15.559,-1.709,-0.854,0.0
14.404,-1.586,-0.869,0.0
13.33,-1.471,-0.877,0.0
20.364,-2.245,-0.768,0.0
18.649,-2.06,-0.805,0.0
17.121,-1.895,-0.832,0.0
15.744,-1.746,-0.853,0.0
14.533,-1.615,-0.867,0.0
13.533,-1.507,-0.881,0.0
20.742,-2.308,-0.767,0.0
18.963,-2.114,-0.805,0.0
17.226,-1.924,-0.825,0.0
15.93,-1.783,-0.851,0.0
14.735,-1.652,-0.868,0.0
13.658,-1.535,-0.879,0.0
21.14,-2.373,-0.766,0.0
19.087,-2.146,-0.796,0.0
17.391,-1.959,-0.82,0.0
16.179,-1.826,-0.852,0.0
14.948,-1.69,-0.869,0.0
13.831,-1.567,-0.879,0.0
21.65,-2.451,-0.768,0.0
19.261,-2.184,-0.788,0.0
17.493,-1.987,-0.811,0.0
16.285,-1.853,-0.845,0.0
15.095,-1.721,-0.865,0.0
14.005,-1.6,-0.879,0.0
21.992,-2.509,-0.763,0.0
19.637,-2.244,-0.787,0.0
18.144,-2.077,-0.826,0.0
16.494,-1.892,-0.842,0.0
15.273,-1.755,-0.863,0.0
14.153,-1.629,-0.877,0.0
22.231,-2.556,-0.753,0.0
20.229,-2.329,-0.794,0.0
18.429,-2.126,-0.824,0.0
16.774,-1.938,-0.842,0.0
15.484,-1.792,-0.862,0.0
14.243,-1.651,-0.87,0.0
22.711,-2.63,-0.75,0.0
20.227,-2.346,-0.777,0.0
18.632,-2.164,-0.817,0.0
17.0,-1.978,-0.839,0.0
15.685,-1.828,-0.859,0.0
14.451,-1.687,-0.87,0.0
22.935,-2.674,-0.737,0.0
20.766,-2.425,-0.78,0.0
18.842,-2.204,-0.809,0.0
17.141,-2.008,-0.831,0.0
15.853,-1.86,-0.854,0.0
14.694,-1.726,-0.871,0.0
23.988,-2.816,-0.749,0.0
21.058,-2.475,-0.771,0.0
19.015,-2.238,-0.799,0.0
17.361,-2.046,-0.825,0.0
16.139,-1.905,-0.855,0.0
14.868,-1.757,-0.868,0.0
24.072,-2.843,-0.729,0.0
21.488,-2.541,-0.767,0.0
19.018,-2.252,-0.781,0.0
17.481,-2.073,-0.815,0.0
16.349,-1.941,-0.85,0.0
15.1,-1.795,-0.867,0.0
24.474,-2.907,-0.718,0.0
22.097,-2.628,-0.768,0.0
19.485,-2.32,-0.782,0.0
18.05,-2.152,-0.824,0.0
16.623,-1.984,-0.848,0.0
15.298,-1.829,-0.864,0.0
0.0,0.0,0.0,0.0
22.256,-2.661,-0.752,0.0
0.0,0.0,0.0,0.0
18.249,-2.187,-0.815,0.0
16.859,-2.023,-0.844,0.0
15.546,-1.867,-0.862,0.0
25.808,-3.097,-0.707,0.0
22.531,-2.707,-0.739,0.0
20.413,-2.455,-0.779,0.0
18.684,-2.249,-0.816,0.0
16.966,-2.045,-0.832,0.0
15.808,-1.908,-0.86,0.0
26.167,-3.155,-0.69,0.0
23.405,-2.824,-0.743,0.0
21.029,-2.54,-0.781,0.0
19.264,-2.33,-0.821,0.0
17.356,-2.101,-0.833,0.0
16.053,-1.945,-0.857,0.0
26.949,-3.263,-0.683,1.0
23.833,-2.888,-0.732,0.0
21.415,-2.597,-0.773,0.0
19.238,-2.336,-0.8,0.0
17.574,-2.136,-0.825,0.0
16.27,-1.979,-0.852,0.0
27.001,-3.282,-0.657,0.0
24.26,-2.951,-0.72,0.0
21.796,-2.653,-0.764,0.0
19.651,-2.394,-0.797,0.0
17.929,-2.186,-0.823,0.0
16.595,-2.026,-0.852,0.0
28.705,-3.501,-0.668,0.0
24.753,-3.021,-0.709,0.0
22.199,-2.711,-0.755,0.0
20.231,-2.473,-0.799,0.0
18.242,-2.232,-0.818,0.0
16.87,-2.066,-0.847,0.0
29.552,-3.615,-0.656,0.0
0.0,0.0,0.0,0.0
0.0,0.0,0.0,0.0
20.593,-2.524,-0.791,0.0
18.69,-2.293,-0.818,0.0
17.036,-2.091,-0.837,0.0
0.0,0.0,0.0,0.0
46.204,-5.623,-0.373,0.0
37.019,-4.502,-0.496,0.0
32.47,-3.946,-0.612,0.0
0.0,0.0,0.0,0.0
24.726,-3.001,-0.73,0.0
0.0,0.0,0.0,0.0
47.999,-5.819,-0.331,0.0
38.836,-4.705,-0.475,0.0
32.886,-3.981,-0.582,0.0
0.0,0.0,0.0,0.0
25.68,-3.104,-0.729,0.0
0.0,0.0,0.0,0.0
48.08,-5.805,-0.276,0.0
0.0,0.0,0.0,0.0
34.832,-4.198,-0.576,0.0
30.125,-3.628,-0.659,0.0
25.895,-3.116,-0.705,0.0
74.82,-9.002,0.055,1.0
0.0,0.0,0.0,0.0
0.0,0.0,0.0,0.0
0.0,0.0,0.0,0.0
30.562,-3.662,-0.633,0.0
27.212,-3.258,-0.71,0.0
74.982,-8.977,0.14,10.0
0.0,0.0,0.0,0.0
0.0,0.0,0.0,0.0
0.0,0.0,0.0,0.0
32.137,-3.831,-0.63,0.0
27.426,-3.266,-0.684,0.0
74.874,-8.917,0.225,24.0
0.0,0.0,0.0,0.0
45.169,-5.366,-0.346,0.0
0.0,0.0,0.0,0.0
32.06,-3.8,-0.592,0.0
28.029,-3.319,-0.667,0.0
83.375,-9.873,0.344,9.0
0.0,0.0,0.0,0.0
47.409,-5.6,-0.311,0.0
0.0,0.0,0.0,0.0
33.583,-3.957,-0.583,0.0
29.068,-3.421,-0.66,0.0
83.351,-9.81,0.437,17.0
0.0,0.0,0.0,0.0
0.0,0.0,0.0,0.0
41.038,-4.811,-0.447,0.0
0.0,0.0,0.0,0.0
29.631,-3.465,-0.64,0.0
83.38,-9.749,0.528,51.0
77.693,-9.072,0.077,5.0
0.0,0.0,0.0,0.0
42.054,-4.896,-0.412,0.0
35.042,-4.074,-0.531,0.0
30.597,-3.553,-0.628,0.0
83.386,-9.683,0.619,32.0
77.692,-9.007,0.161,38.0
0.0,0.0,0.0,0.0
0.0,0.0,0.0,0.0
37.834,-4.367,-0.532,2.0
31.987,-3.687,-0.621,0.0
83.381,-9.611,0.708,46.0
83.698,-9.632,0.263,3.0
0.0,0.0,0.0,0.0
0.0,0.0,0.0,0.0
36.595,-4.191,-0.476,0.0
0.0,0.0,0.0,0.0
83.376,-9.536,0.797,23.0
83.381,-9.52,0.351,35.0
0.0,0.0,0.0,0.0
0.0,0.0,0.0,0.0
39.604,-4.499,-0.474,0.0
33.846,-3.839,-0.586,0.0
83.382,-9.459,0.884,30.0
83.378,-9.441,0.436,11.0
0.0,0.0,0.0,0.0
0.0,0.0,0.0,0.0
39.846,-4.488,-0.436,0.0
35.078,-3.944,-0.571,0.0
83.375,-9.376,0.969,25.0
83.371,-9.358,0.522,17.0
83.575,-9.363,0.075,2.0
0.0,0.0,0.0,0.0
0.0,0.0,0.0,0.0
0.0,0.0,0.0,0.0
83.384,-9.292,1.054,24.0
83.375,-9.272,0.606,13.0
83.844,-9.306,0.16,21.0
0.0,0.0,0.0,0.0
0.0,0.0,0.0,0.0
37.773,-4.169,-0.54,0.0
83.407,-9.207,1.136,12.0
83.35,-9.181,0.687,39.0
83.693,-9.2,0.241,4.0
0.0,0.0,0.0,0.0
0.0,0.0,0.0,0.0
37.627,-4.111,-0.501,0.0
83.37,-9.111,1.217,16.0
83.044,-9.055,0.766,30.0
83.357,-9.069,0.32,15.0
0.0,0.0,0.0,0.0
0.0,0.0,0.0,0.0
0.0,0.0,0.0,0.0
83.32,-9.01,1.295,38.0
83.344,-8.992,0.847,66.0
83.34,-8.971,0.398,145.0
0.0,0.0,0.0,0.0
0.0,0.0,0.0,0.0
40.713,-4.354,-0.465,0.0
84.039,-8.989,1.384,4.0
84.282,-8.993,0.935,2.0
84.544,-9.0,0.483,3.0
0.0,0.0,0.0,0.0
0.0,0.0,0.0,0.0
0.0,0.0,0.0,0.0
83.416,-8.821,1.449,5.0
85.25,-8.993,1.022,2.0
85.374,-8.983,0.563,1.0
85.242,-8.947,0.095,3.0
0.0,0.0,0.0,0.0
0.0,0.0,0.0,0.0
86.191,-9.005,1.574,12.0
86.234,-8.987,1.109,89.0
86.245,-8.966,0.645,54.0
0.0,0.0,0.0,0.0
56.016,-5.794,-0.19,0.0
0.0,0.0,0.0,0.0
87.145,-8.993,1.666,1.0
87.26,-8.98,1.197,3.0
87.583,-8.99,0.73,2.0
100.34,-10.272,0.285,5.0
55.878,-5.706,-0.142,0.0
0.0,0.0,0.0,0.0
88.152,-8.979,1.759,3.0
88.555,-8.995,1.289,1.0
88.867,-9.001,0.814,4.0
89.087,-8.999,0.326,17.0
0.0,0.0,0.0,0.0
0.0,0.0,0.0,0.0
89.043,-8.947,1.849,44.0
89.1,-8.927,1.369,18.0
90.06,-8.998,0.898,39.0
90.275,-8.994,0.402,54.0
0.0,0.0,0.0,0.0
0.0,0.0,0.0,0.0
90.315,-8.949,1.946,58.0
90.27,-8.918,1.457,11.0
90.37,-8.901,0.97,6.0
90.326,-8.871,0.472,15.0
0.0,0.0,0.0,0.0
49.364,-4.82,-0.275,0.0
90.362,-8.825,2.015,36.0
90.344,-8.795,1.526,29.0
90.361,-8.771,1.037,46.0
90.358,-8.743,0.539,15.0
0.0,0.0,0.0,0.0
0.0,0.0,0.0,0.0
90.359,-8.69,2.082,51.0
90.379,-8.665,1.593,51.0
89.212,-8.525,1.089,14.0
90.381,-8.609,0.605,54.0
90.323,-8.576,0.115,1.0
0.0,0.0,0.0,0.0
90.378,-8.555,2.146,29.0
90.368,-8.527,1.655,41.0
90.383,-8.501,1.166,32.0
90.352,-8.47,0.666,27.0
90.381,-8.447,0.176,8.0
0.0,0.0,0.0,0.0
90.381,-8.419,2.205,11.0
90.395,-8.391,1.715,44.0
90.386,-8.362,1.225,43.0
90.365,-8.332,0.725,26.0
90.378,-8.306,0.234,19.0
0.0,0.0,0.0,0.0
127.517,-11.678,3.194,26.0
90.401,-8.25,1.773,33.0
90.368,-8.219,1.281,31.0
90.387,-8.191,0.782,43.0
90.4,-8.165,0.29,11.0
0.0,0.0,0.0,0.0
127.514,-11.476,3.271,25.0
90.381,-8.105,1.826,36.0
90.386,-8.076,1.336,34.0
90.401,-8.048,0.835,42.0
90.406,-8.021,0.344,29.0
0.0,0.0,0.0,0.0
114.479,-10.119,3.002,12.0
90.394,-7.959,1.879,51.0
90.386,-7.93,1.387,44.0
90.396,-7.9,0.886,40.0
90.407,-7.872,0.394,30.0
0.0,0.0,0.0,0.0
127.491,-11.059,3.414,22.0
90.397,-7.811,1.927,37.0
90.397,-7.781,1.436,47.0
90.423,-7.753,0.934,35.0
90.412,-7.722,0.441,33.0
0.0,0.0,0.0,0.0
114.335,-9.725,3.121,23.0
90.396,-7.657,1.974,38.0
90.389,-7.627,1.481,54.0
90.377,-7.596,0.979,52.0
90.402,-7.568,0.487,35.0
0.0,0.0,0.0,0.0
127.497,-10.626,3.542,10.0
90.408,-7.504,2.018,39.0
90.407,-7.474,1.524,150.0
90.405,-7.442,1.021,35.0
100.062,-8.204,0.585,11.0
0.0,0.0,0.0,0.0
127.506,-10.408,3.598,8.0
127.489,-10.363,2.902,30.0
100.071,-8.099,1.731,13.0
100.076,-8.065,1.174,14.0
100.068,-8.031,0.628,13.0
0.0,0.0,0.0,0.0
127.541,-10.187,3.653,9.0
127.481,-10.137,2.955,35.0
100.125,-7.926,1.773,10.0
100.05,-7.886,1.214,12.0
100.083,-7.855,0.666,13.0
0.0,0.0,0.0,0.0
148.236,-11.577,4.302,8.0
127.477,-9.91,3.001,37.0
100.104,-7.747,1.809,6.0
100.076,-7.71,1.251,13.0
100.064,-7.674,0.702,13.0
98.689,-7.536,0.153,1.0
148.253,-11.314,4.353,12.0
0.0,0.0,0.0,0.0
99.984,-7.559,1.84,4.0
100.052,-7.528,1.283,11.0
100.083,-7.495,0.735,11.0
98.765,-7.362,0.185,4.0
148.191,-11.038,4.398,13.0
0.0,0.0,0.0,0.0
100.018,-7.377,1.87,4.0
100.046,-7.344,1.313,9.0
100.102,-7.313,0.764,13.0
98.892,-7.191,0.212,7.0
109.032,-7.92,3.266,27.0
109.242,-7.895,2.672,26.0
109.357,-7.863,2.074,32.0
100.093,-7.162,1.338,8.0
100.108,-7.128,0.79,11.0
98.924,-7.009,0.237,8.0
109.102,-7.721,3.294,29.0
109.156,-7.686,2.696,45.0
109.352,-7.66,2.099,27.0
100.062,-6.975,1.361,6.0
100.145,-6.944,0.811,8.0
99.149,-6.841,0.258,5.0
109.093,-7.517,3.315,38.0
117.112,-8.027,2.915,9.0
117.429,-8.004,2.277,12.0
0.0,0.0,0.0,0.0
0.0,0.0,0.0,0.0
99.552,-6.679,0.277,4.0
109.057,-7.307,3.332,33.0
116.978,-7.796,2.93,23.0
117.377,-7.779,2.294,54.0
106.021,-6.987,1.477,26.0
125.259,-8.209,1.055,8.0
99.736,-6.502,0.291,9.0
117.221,-7.631,3.597,3.0
116.957,-7.571,2.944,24.0
125.225,-8.06,2.462,21.0
125.235,-8.015,1.758,30.0
125.304,-7.973,1.068,12.0
0.0,0.0,0.0,0.0
124.971,-7.892,3.847,11.0
117.221,-7.359,2.961,33.0
148.128,-9.245,2.923,17.0
148.365,-9.208,2.095,21.0
149.883,-9.246,1.289,20.0
108.508,-6.654,0.334,1.0
117.521,-7.194,3.624,7.0
117.335,-7.138,2.97,14.0
148.471,-8.978,2.937,16.0
149.03,-8.959,2.11,19.0
149.976,-8.961,1.294,18.0
0.0,0.0,0.0,0.0
117.213,-6.944,3.616,26.0
149.313,-8.789,3.78,17.0
149.036,-8.718,2.949,20.0
149.555,-8.692,2.117,12.0
140.712,-8.128,1.213,21.0
0.0,0.0,0.0,0.0
163.341,-4.088,4.122,4.0
170.249,-4.203,3.339,7.0
161.959,-3.941,2.265,19.0
160.749,-3.855,1.328,12.0
0.0,0.0,0.0,0.0
0.0,0.0,0.0,0.0
0.0,0.0,0.0,0.0
170.443,-3.867,3.228,12.0
162.188,-3.624,2.158,6.0
160.689,-3.533,1.216,14.0
0.0,0.0,0.0,0.0
0.0,0.0,0.0,0.0
171.506,-3.606,4.091,6.0
170.32,-3.521,3.102,6.0
163.386,-3.323,2.056,28.0
160.722,-3.214,1.1,27.0
0.0,0.0,0.0,0.0
0.0,0.0,0.0,0.0
171.399,-3.263,3.96,4.0
170.385,-3.186,2.976,7.0
163.173,-2.995,1.93,29.0
160.669,-2.893,0.977,14.0
0.0,0.0,0.0,0.0
0.0,0.0,0.0,0.0
0.0,0.0,0.0,0.0
164.018,-2.739,2.734,4.0
163.096,-2.667,1.797,24.0
19.735,-0.316,0.104,15.0
0.0,0.0,0.0,0.0
0.0,0.0,0.0,0.0
0.0,0.0,0.0,0.0
19.773,-0.291,0.313,2.0
19.746,-0.284,0.201,26.0
19.72,-0.277,0.087,17.0
0.0,0.0,0.0,0.0
0.0,0.0,0.0,0.0
19.755,-0.258,0.407,7.0
19.738,-0.252,0.295,10.0
19.743,-0.245,0.184,16.0
0.0,0.0,0.0,0.0
0.0,0.0,0.0,0.0
0.0,0.0,0.0,0.0
19.739,-0.22,0.389,10.0
19.758,-0.214,0.278,3.0
160.72,-1.689,1.355,11.0
0.0,0.0,0.0,0.0
0.0,0.0,0.0,0.0
19.778,-0.188,-0.17,9.0
19.754,-0.182,0.371,1.0
169.47,-1.514,2.231,19.0
160.715,-1.382,1.205,16.0
0.0,0.0,0.0,0.0
19.752,-0.157,-0.077,10.0
19.739,-0.15,-0.189,16.0
177.225,-1.299,3.166,15.0
19.747,-0.138,0.24,1.0
19.763,-0.132,0.129,4.0
19.729,-0.125,0.015,10.0
19.709,-0.119,-0.096,14.0
19.731,-0.113,-0.208,17.0
19.687,-0.106,0.332,9.0
19.696,-0.1,0.22,15.0
19.702,-0.094,0.108,13.0
19.694,-0.088,-0.004,16.0
19.723,-0.082,-0.116,16.0
19.748,-0.075,-0.229,15.0
19.645,-0.069,0.311,11.0
19.661,-0.063,0.199,14.0
19.701,-0.057,0.088,16.0
19.695,-0.05,-0.025,17.0
19.737,-0.045,-0.137,14.0
19.774,-0.038,-0.25,2.0
19.632,-0.032,0.29,13.0
19.668,-0.026,0.178,9.0
19.701,-0.02,0.067,7.0
19.733,-0.014,-0.046,10.0
46.358,-0.02,-0.373,0.0
19.757,-0.002,-0.271,0.0
19.633,0.003,0.268,15.0
19.763,0.009,0.157,8.0
19.752,0.015,0.045,8.0
19.735,0.021,-0.068,19.0
19.755,0.028,-0.181,9.0
19.771,0.033,-0.293,15.0
19.621,0.039,0.246,15.0
19.722,0.045,0.135,17.0
19.751,0.052,0.022,44.0
19.76,0.057,-0.091,67.0
19.774,0.063,-0.203,33.0
19.774,0.069,-0.316,14.0
19.636,0.075,0.223,16.0
19.684,0.081,0.112,13.0
19.685,0.087,0.0,8.0
19.674,0.092,-0.114,0.0
0.0,0.0,0.0,0.0
32.52,0.173,-0.559,0.0
19.671,0.11,0.2,17.0
19.649,0.116,0.088,13.0
19.64,0.122,-0.023,13.0
19.662,0.127,-0.137,9.0
19.714,0.133,-0.25,0.0
30.659,0.217,-0.564,0.0
19.667,0.145,0.176,14.0
19.648,0.15,0.064,13.0
19.651,0.156,-0.047,12.0
19.643,0.162,-0.161,14.0
19.655,0.168,-0.273,13.0
19.67,0.173,-0.386,17.0
19.687,0.179,0.152,10.0
19.662,0.185,0.039,12.0
19.633,0.19,-0.072,14.0
19.633,0.196,-0.186,16.0
19.653,0.202,-0.298,16.0
19.667,0.207,-0.411,20.0
19.772,0.215,0.127,19.0
19.675,0.219,0.014,9.0
19.645,0.224,-0.097,15.0
19.628,0.229,-0.211,17.0
19.668,0.235,-0.324,14.0
19.668,0.241,-0.436,17.0
84.901,1.067,0.435,15.0
19.738,0.253,-0.011,0.0
19.669,0.258,-0.123,13.0
19.655,0.263,-0.238,15.0
19.666,0.268,-0.35,12.0
19.696,0.274,-0.463,9.0
0.0,0.0,0.0,0.0
52.464,0.762,-0.101,3.0
19.713,0.291,-0.151,0.0
19.67,0.296,-0.265,3.0
29.97,0.459,-0.575,0.0
26.595,0.415,-0.662,1.0
55.193,0.877,0.133,8.0
47.097,0.762,-0.156,0.0
0.0,0.0,0.0,0.0
33.495,0.559,-0.497,0.0
29.473,0.5,-0.606,0.0
25.554,0.44,-0.671,0.0
55.161,0.966,0.056,58.0
44.799,0.796,-0.21,0.0
35.543,0.641,-0.37,0.0
30.309,0.554,-0.492,0.0
27.794,0.516,-0.61,0.0
24.708,0.465,-0.684,0.0
55.185,1.055,-0.022,22.0
41.257,0.799,-0.252,1.0
34.02,0.667,-0.403,4.0
27.855,0.554,-0.492,0.0
27.14,0.546,-0.635,5.0
23.336,0.475,-0.68,1.0
52.34,1.082,-0.096,0.0
38.725,0.809,-0.292,1.0
31.828,0.673,-0.422,0.0
26.773,0.573,-0.511,0.0
25.299,0.548,-0.628,0.0
22.984,0.503,-0.703,2.0
44.043,0.978,-0.145,4.0
36.773,0.825,-0.332,2.0
30.222,0.686,-0.446,1.0
25.437,0.583,-0.524,0.0
23.057,0.534,-0.607,0.0
22.343,0.523,-0.716,4.0
43.706,1.035,-0.209,10.0
34.997,0.838,-0.368,1.0
29.147,0.704,-0.473,2.0
25.114,0.613,-0.554,0.0
22.006,0.542,-0.612,0.0
21.7,0.54,-0.728,4.0
41.79,1.051,-0.262,5.0
41.888,1.064,-0.503,0.0
28.002,0.718,-0.497,1.0
23.294,0.602,-0.55,0.0
20.784,0.542,-0.61,0.0
20.703,0.545,-0.726,4.0
39.864,1.06,-0.312,2.0
31.352,0.841,-0.425,1.0
26.277,0.711,-0.507,2.0
22.413,0.611,-0.563,0.0
20.155,0.554,-0.622,0.0
19.612,0.544,-0.718,2.0
36.564,1.023,-0.342,3.0
29.786,0.84,-0.449,0.0
25.558,0.727,-0.532,2.0
21.766,0.624,-0.581,1.0
19.294,0.557,-0.626,1.0
18.692,0.544,-0.714,0.0
40.168,1.179,-0.438,2.0
27.472,0.813,-0.458,13.0
24.34,0.725,-0.545,0.0
20.802,0.624,-0.588,2.0
19.047,0.576,-0.648,1.0
18.204,0.554,-0.724,1.0
40.166,1.233,-0.502,2.0
27.453,0.848,-0.501,1.0
22.839,0.71,-0.548,0.0
20.103,0.63,-0.6,0.0
18.228,0.575,-0.649,0.0
17.281,0.549,-0.715,0.0
30.167,0.965,-0.425,1.0
25.908,0.834,-0.514,5.0
21.782,0.706,-0.557,0.0
19.438,0.634,-0.611,0.0
17.626,0.578,-0.656,0.0
16.926,0.559,-0.727,0.0
29.074,0.966,-0.456,3.0
24.883,0.832,-0.534,1.0
21.395,0.72,-0.582,2.0
19.069,0.645,-0.631,2.0
17.253,0.588,-0.67,1.0
16.587,0.568,-0.74,0.0
27.74,0.956,-0.481,3.0
23.6,0.818,-0.545,1.0
20.351,0.71,-0.587,1.0
18.312,0.642,-0.636,2.0
17.027,0.6,-0.689,0.0
16.395,0.581,-0.758,0.0
26.629,0.95,-0.505,4.0
22.257,0.798,-0.551,0.0
19.781,0.713,-0.603,3.0
40.119,1.454,-1.459,2.0
16.817,0.613,-0.709,0.0
16.238,0.595,-0.778,1.0
25.115,0.925,-0.519,1.0
21.435,0.793,-0.566,1.0
19.195,0.714,-0.617,2.0
17.295,0.646,-0.658,0.0
16.638,0.625,-0.729,0.0
16.069,0.607,-0.797,1.0
23.714,0.9,-0.529,5.0
20.879,0.796,-0.586,1.0
18.528,0.71,-0.627,3.0
17.104,0.658,-0.679,0.0
16.405,0.635,-0.746,0.0
15.922,0.619,-0.816,1.0
23.286,0.909,-0.559,5.0
19.848,0.778,-0.591,2.0
18.018,0.71,-0.641,3.0
16.88,0.668,-0.699,1.0
16.26,0.646,-0.768,2.0
15.27,0.61,-0.809,0.0
21.821,0.875,-0.561,1.0
19.382,0.78,-0.611,2.0
17.618,0.712,-0.657,2.0
16.698,0.678,-0.72,2.0
16.103,0.657,-0.788,1.0
14.883,0.609,-0.814,0.0
21.018,0.864,-0.577,3.0
18.612,0.768,-0.618,3.0
17.157,0.711,-0.669,2.0
16.489,0.686,-0.74,2.0
15.954,0.666,-0.808,2.0
14.522,0.609,-0.82,0.0
20.073,0.844,-0.585,2.0
18.152,0.766,-0.634,3.0
16.923,0.717,-0.689,2.0
16.295,0.693,-0.759,2.0
15.449,0.66,-0.809,0.0
14.159,0.607,-0.823,0.0
19.517,0.839,-0.602,2.0
17.722,0.764,-0.649,4.0
16.747,0.725,-0.71,1.0
16.111,0.7,-0.778,2.0
14.896,0.65,-0.806,0.0
13.858,0.606,-0.83,0.0
18.771,0.823,-0.612,3.0
17.227,0.758,-0.661,2.0
16.547,0.731,-0.73,2.0
15.966,0.708,-0.799,4.0
14.409,0.641,-0.804,0.0
13.443,0.6,-0.828,0.0
18.325,0.819,-0.629,2.0
16.995,0.762,-0.682,2.0
16.335,0.735,-0.75,2.0
23.649,1.068,-1.225,1.0
14.193,0.643,-0.817,0.0
13.203,0.6,-0.837,0.0
17.788,0.81,-0.642,2.0
16.808,0.768,-0.703,2.0
16.155,0.74,-0.77,2.0
23.643,1.087,-1.266,1.0
23.641,1.09,-1.403,1.0
23.646,1.094,-1.54,1.0
17.311,0.802,-0.655,3.0
16.601,0.771,-0.724,2.0
15.985,0.745,-0.79,3.0
23.621,1.104,-1.306,1.0
23.623,1.107,-1.443,1.0
23.627,1.111,-1.581,1.0
17.035,0.801,-0.674,2.0
16.357,0.771,-0.742,1.0
23.633,1.118,-1.209,2.0
23.612,1.12,-1.347,1.0
23.613,1.123,-1.484,0.0
12.386,0.591,-0.85,0.0
16.851,0.804,-0.696,1.0
16.196,0.775,-0.763,2.0
23.627,1.134,-1.25,1.0
23.622,1.137,-1.39,2.0
23.63,1.14,-1.527,1.0
12.181,0.589,-0.858,0.0
16.632,0.805,-0.717,1.0
16.0,0.776,-0.782,3.0
23.611,1.148,-1.291,2.0
23.591,1.15,-1.429,2.0
23.618,1.154,-1.568,2.0
11.88,0.582,-0.857,0.0
16.403,0.804,-0.736,1.0
23.638,1.161,-1.197,1.0
23.649,1.164,-1.335,1.0
23.601,1.164,-1.472,0.0
23.631,1.169,-1.611,0.0
11.659,0.578,-0.862,0.0
16.216,0.804,-0.756,1.0
23.645,1.175,-1.239,1.0
23.614,1.176,-1.375,2.0
23.621,1.178,-1.514,2.0
12.208,0.61,-0.853,0.0
11.391,0.571,-0.863,0.0
16.012,0.802,-0.774,3.0
23.643,1.187,-1.28,1.0
23.624,1.188,-1.416,2.0
23.614,1.19,-1.555,2.0
11.9,0.601,-0.852,0.0
11.217,0.567,-0.869,0.0
15.923,0.805,-0.797,1.0
23.631,1.197,-1.321,1.0
23.663,1.201,-1.46,0.0
23.635,1.202,-1.597,0.0
11.691,0.596,-0.858,0.0
10.988,0.561,-0.87,0.0
23.645,1.206,-1.225,1.0
23.624,1.207,-1.361,1.0
23.613,1.209,-1.497,0.0
12.271,0.629,-0.85,0.0
11.445,0.588,-0.86,0.0
10.757,0.554,-0.871,0.0
14.881,0.765,-0.797,0.0
23.632,1.217,-1.402,2.0
23.643,1.22,-1.54,1.0
11.981,0.619,-0.851,0.0
11.317,0.586,-0.87,0.0
23.626,1.225,-1.954,0.0
14.443,0.747,-0.798,0.0
23.632,1.225,-1.443,0.0
23.627,1.227,-1.58,0.0
11.809,0.614,-0.859,0.0
11.061,0.576,-0.869,0.0
10.38,0.541,-0.876,0.0
14.3,0.745,-0.815,0.0
13.203,0.689,-0.829,0.0
12.383,0.647,-0.849,0.0
11.547,0.604,-0.86,0.0
10.849,0.568,-0.871,0.0
10.264,0.538,-0.884,0.0
23.61,1.236,-1.386,1.0
23.645,1.24,-1.525,0.0
12.015,0.631,-0.844,0.0
11.32,0.595,-0.862,0.0
23.619,1.244,-1.938,0.0
10.13,0.534,-0.89,0.0
13.51,0.71,-0.816,0.0
12.628,0.665,-0.836,0.0
11.888,0.627,-0.856,0.0
11.12,0.587,-0.866,0.0
23.62,1.249,-1.977,0.0
9.974,0.528,-0.893,0.0
13.344,0.704,-0.828,0.0
12.494,0.66,-0.848,0.0
11.653,0.616,-0.858,0.0
10.879,0.576,-0.865,0.0
10.308,0.547,-0.88,0.0
9.837,0.522,-0.897,0.0
13.05,0.691,-0.831,0.0
12.214,0.647,-0.849,0.0
11.418,0.606,-0.86,0.0
10.696,0.568,-0.869,0.0
10.215,0.543,-0.889,0.0
9.692,0.516,-0.9,0.0
12.806,0.679,-0.837,0.0
11.943,0.634,-0.85,0.0
11.186,0.594,-0.861,0.0
10.543,0.561,-0.874,0.0
10.036,0.534,-0.89,0.0
9.54,0.508,-0.902,0.0
12.477,0.663,-0.836,0.0
11.711,0.623,-0.852,0.0
11.04,0.587,-0.868,0.0
10.394,0.553,-0.878,0.0
9.929,0.529,-0.897,0.0
9.36,0.499,-0.9,0.0
12.248,0.651,-0.841,0.0
11.494,0.611,-0.855,0.0
10.869,0.579,-0.872,0.0
10.263,0.547,-0.884,0.0
9.742,0.519,-0.896,0.0
9.271,0.495,-0.907,0.0
12.073,0.642,-0.848,0.0
11.334,0.603,-0.862,0.0
23.652,1.259,-1.936,0.0
10.135,0.54,-0.889,0.0
