X,Y,Z,Reflectivity
14.436,-1.696,-0.875,0.0
22.917,-2.69,-0.745,0.0
20.426,-2.401,-0.774,0.0
18.781,-2.21,-0.814,0.0
16.982,-2.001,-0.829,0.0
15.808,-1.866,-0.858,0.0
14.613,-1.727,-0.872,0.0
23.382,-2.76,-0.739,0.0
20.853,-2.465,-0.771,0.0
18.794,-2.224,-0.796,0.0
17.355,-2.057,-0.831,0.0
16.023,-1.901,-0.854,0.0
14.771,-1.755,-0.867,0.0
0.0,0.0,0.0,0.0
21.289,-2.53,-0.767,0.0
19.401,-2.308,-0.803,0.0
17.552,-2.091,-0.823,0.0
16.157,-1.927,-0.845,0.0
15.028,-1.795,-0.867,0.0
24.274,-2.896,-0.719,0.0
21.741,-2.597,-0.761,0.0
20.001,-2.391,-0.808,0.0
17.906,-2.143,-0.822,0.0
16.288,-1.952,-0.835,0.0
15.281,-1.833,-0.866,0.0
25.101,-3.009,-0.718,0.0
22.09,-2.65,-0.751,0.0
20.038,-2.407,-0.789,0.0
18.289,-2.199,-0.821,0.0
16.54,-1.991,-0.831,0.0
15.522,-1.87,-0.864,0.0
25.255,-3.04,-0.697,0.0
23.043,-2.776,-0.76,0.0
20.146,-2.43,-0.773,0.0
18.687,-2.256,-0.819,0.0
17.023,-2.057,-0.838,0.0
15.726,-1.902,-0.859,0.0
26.136,-3.159,-0.694,0.0
23.224,-2.809,-0.741,0.0
20.971,-2.539,-0.782,0.0
18.938,-2.295,-0.81,0.0
17.353,-2.104,-0.836,0.0
15.978,-1.94,-0.856,0.0
26.974,-3.271,-0.688,0.0
23.604,-2.865,-0.729,0.0
21.209,-2.576,-0.769,0.0
19.211,-2.335,-0.801,0.0
17.526,-2.132,-0.825,0.0
16.239,-1.977,-0.852,0.0
27.482,-3.344,-0.671,0.0
0.0,0.0,0.0,0.0
21.711,-2.645,-0.763,0.0
19.702,-2.402,-0.801,0.0
17.622,-2.15,-0.811,0.0
16.673,-2.036,-0.857,0.0
28.046,-3.422,-0.655,0.0
25.228,-3.08,-0.724,0.0
22.227,-2.715,-0.757,0.0
20.036,-2.449,-0.792,0.0
18.035,-2.206,-0.81,0.0
16.727,-2.047,-0.841,0.0
29.392,-3.594,-0.654,0.0
25.584,-3.13,-0.706,0.0
22.663,-2.774,-0.747,0.0
20.31,-2.488,-0.781,0.0
18.811,-2.305,-0.824,0.0
17.018,-2.087,-0.837,0.0
30.049,-3.682,-0.635,0.0
26.564,-3.256,-0.704,0.0
0.0,0.0,0.0,0.0
20.92,-2.567,-0.781,0.0
19.216,-2.359,-0.82,0.0
17.179,-2.11,-0.825,0.0
0.0,0.0,0.0,0.0
27.031,-3.319,-0.685,0.0
0.0,0.0,0.0,0.0
21.511,-2.643,-0.778,0.0
19.505,-2.398,-0.81,0.0
17.577,-2.162,-0.825,0.0
32.172,-3.954,-0.608,0.0
27.549,-3.387,-0.668,0.0
24.418,-3.002,-0.722,0.0
21.847,-2.687,-0.766,0.0
19.848,-2.442,-0.802,0.0
17.693,-2.178,-0.81,0.0
32.519,-4.0,-0.577,0.0
27.882,-3.43,-0.643,0.0
0.0,0.0,0.0,0.0
22.067,-2.716,-0.748,0.0
20.244,-2.492,-0.794,0.0
18.289,-2.252,-0.816,0.0
33.757,-4.155,-0.56,0.0
29.255,-3.601,-0.642,0.0
25.946,-3.194,-0.708,0.0
0.0,0.0,0.0,0.0
20.615,-2.539,-0.785,0.0
0.0,0.0,0.0,0.0
0.0,0.0,0.0,0.0
30.245,-3.723,-0.629,0.0
26.891,-3.31,-0.703,0.0
23.527,-2.896,-0.743,0.0
21.009,-2.587,-0.776,0.0
19.393,-2.388,-0.82,0.0
0.0,0.0,0.0,0.0
0.0,0.0,0.0,0.0
27.185,-3.345,-0.679,0.0
23.533,-2.896,-0.716,0.0
21.834,-2.687,-0.781,0.0
19.644,-2.417,-0.808,0.0
0.0,0.0,0.0,0.0
32.103,-3.948,-0.592,0.0
27.799,-3.418,-0.662,0.0
0.0,0.0,0.0,0.0
22.055,-2.711,-0.763,0.0
19.934,-2.451,-0.796,0.0
0.0,0.0,0.0,0.0
0.0,0.0,0.0,0.0
28.598,-3.512,-0.647,0.0
25.397,-3.119,-0.713,0.0
22.673,-2.784,-0.757,0.0
20.246,-2.485,-0.785,0.0
0.0,0.0,0.0,0.0
34.134,-4.187,-0.55,0.0
29.723,-3.645,-0.638,0.0
26.681,-3.271,-0.718,0.0
23.132,-2.835,-0.746,0.0
20.91,-2.562,-0.786,0.0
42.005,-5.145,-0.403,0.0
0.0,0.0,0.0,0.0
30.51,-3.734,-0.618,0.0
26.914,-3.293,-0.692,0.0
23.727,-2.902,-0.737,0.0
21.275,-2.602,-0.775,0.0
43.604,-5.33,-0.367,0.0
0.0,0.0,0.0,0.0
31.094,-3.797,-0.594,0.0
27.685,-3.379,-0.679,0.0
24.686,-3.012,-0.738,0.0
21.833,-2.663,-0.769,0.0
47.297,-5.767,-0.343,1.0
0.0,0.0,0.0,0.0
0.0,0.0,0.0,0.0
0.0,0.0,0.0,0.0
25.086,-3.052,-0.72,0.0
0.0,0.0,0.0,0.0
47.906,-5.825,-0.291,1.0
0.0,0.0,0.0,0.0
33.575,-4.077,-0.563,0.0
29.429,-3.571,-0.653,0.0
25.683,-3.115,-0.707,0.0
23.145,-2.806,-0.761,0.0
0.0,0.0,0.0,0.0
41.727,-5.053,-0.427,0.0
34.008,-4.115,-0.53,0.0
30.093,-3.639,-0.633,0.0
26.538,-3.207,-0.699,0.0
23.276,-2.811,-0.738,0.0
0.0,0.0,0.0,0.0
36.684,-4.426,-0.333,0.0
36.311,-4.377,-0.523,0.0
0.0,0.0,0.0,0.0
27.462,-3.305,-0.692,0.0
24.132,-2.903,-0.737,0.0
0.0,0.0,0.0,0.0
46.382,-5.572,-0.368,0.0
0.0,0.0,0.0,0.0
32.771,-3.93,-0.613,0.0
28.44,-3.408,-0.684,0.0
0.0,0.0,0.0,0.0
0.0,0.0,0.0,0.0
0.0,0.0,0.0,0.0
0.0,0.0,0.0,0.0
32.988,-3.938,-0.579,0.0
0.0,0.0,0.0,0.0
25.596,-3.05,-0.723,0.0
0.0,0.0,0.0,0.0
0.0,0.0,0.0,0.0
40.899,-4.862,-0.448,0.0
33.698,-4.002,-0.553,0.0
29.816,-3.537,-0.648,0.0
25.879,-3.067,-0.701,0.0
75.425,-8.939,0.063,3.0
0.0,0.0,0.0,0.0
41.498,-4.907,-0.408,1.0
0.0,0.0,0.0,0.0
30.298,-3.575,-0.625,0.0
26.677,-3.144,-0.693,0.0
77.884,-9.179,0.153,1.0
0.0,0.0,0.0,0.0
44.257,-5.203,-0.386,0.0
36.716,-4.311,-0.519,0.0
0.0,0.0,0.0,0.0
27.457,-3.216,-0.682,0.0
83.313,-9.759,0.258,2.0
0.0,0.0,0.0,0.0
0.0,0.0,0.0,0.0
0.0,0.0,0.0,0.0
33.216,-3.87,-0.611,0.0
28.147,-3.276,-0.668,0.0
83.397,-9.706,0.35,18.0
0.0,0.0,0.0,0.0
0.0,0.0,0.0,0.0
40.244,-4.664,-0.48,0.0
34.445,-3.986,-0.596,0.0
0.0,0.0,0.0,0.0
83.41,-9.641,0.441,10.0
77.673,-8.964,-0.004,3.0
0.0,0.0,0.0,0.0
41.769,-4.806,-0.453,0.0
0.0,0.0,0.0,0.0
29.623,-3.399,-0.638,0.0
83.379,-9.566,0.531,31.0
77.67,-8.897,0.079,6.0
0.0,0.0,0.0,0.0
0.0,0.0,0.0,0.0
36.759,-4.191,-0.556,0.0
30.731,-3.498,-0.629,0.0
83.386,-9.493,0.621,150.0
83.322,-9.47,0.174,1.0
0.0,0.0,0.0,0.0
0.0,0.0,0.0,0.0
36.792,-4.161,-0.518,0.0
32.506,-3.67,-0.631,0.0
83.364,-9.413,0.708,15.0
86.507,-9.751,0.272,5.0
0.0,0.0,0.0,0.0
0.0,0.0,0.0,0.0
38.357,-4.301,-0.5,0.0
32.392,-3.626,-0.595,0.0
83.387,-9.335,0.795,18.0
83.391,-9.317,0.348,6.0
0.0,0.0,0.0,0.0
0.0,0.0,0.0,0.0
0.0,0.0,0.0,0.0
33.653,-3.733,-0.584,0.0
83.366,-9.247,0.88,14.0
83.352,-9.228,0.433,10.0
0.0,0.0,0.0,0.0
0.0,0.0,0.0,0.0
0.0,0.0,0.0,0.0
0.0,0.0,0.0,0.0
83.389,-9.161,0.965,150.0
83.37,-9.14,0.517,57.0
0.0,0.0,0.0,0.0
0.0,0.0,0.0,0.0
42.319,-4.611,-0.422,0.0
35.815,-3.895,-0.549,0.0
83.228,-9.052,1.046,28.0
83.287,-9.038,0.6,45.0
83.356,-9.027,0.152,29.0
0.0,0.0,0.0,0.0
0.0,0.0,0.0,0.0
37.043,-3.986,-0.532,0.0
83.334,-8.969,1.127,49.0
83.356,-8.951,0.68,46.0
83.43,-8.938,0.233,3.0
0.0,0.0,0.0,0.0
46.041,-4.911,-0.371,0.0
36.698,-3.906,-0.492,0.0
84.624,-9.008,1.224,2.0
84.755,-9.001,0.771,3.0
86.027,-9.115,0.32,4.0
0.0,0.0,0.0,0.0
0.0,0.0,0.0,0.0
0.0,0.0,0.0,0.0
85.612,-9.01,1.318,2.0
85.823,-9.009,0.859,4.0
86.277,-9.034,0.4,1.0
0.0,0.0,0.0,0.0
0.0,0.0,0.0,0.0
40.254,-4.185,-0.466,0.0
86.227,-8.965,1.406,51.0
86.259,-8.946,0.942,36.0
86.435,-8.941,0.479,4.0
0.0,0.0,0.0,0.0
0.0,0.0,0.0,0.0
42.647,-4.379,-0.457,0.0
87.528,-8.987,1.504,2.0
87.834,-8.995,1.037,1.0
88.01,-8.989,0.564,4.0
0.0,0.0,0.0,0.0
56.053,-5.696,-0.25,0.0
38.048,-3.856,-0.374,0.0
88.784,-8.999,1.601,4.0
88.964,-8.992,1.125,7.0
89.104,-8.98,0.647,13.0
89.07,-8.953,0.157,9.0
56.996,-5.714,-0.206,0.0
0.0,0.0,0.0,0.0
89.118,-8.911,1.682,13.0
90.278,-9.0,1.216,53.0
90.295,-8.977,0.729,105.0
90.365,-8.958,0.233,13.0
0.0,0.0,0.0,0.0
0.0,0.0,0.0,0.0
90.348,-8.908,1.777,21.0
90.345,-8.88,1.289,26.0
90.333,-8.853,0.801,12.0
89.869,-8.783,0.302,7.0
0.0,0.0,0.0,0.0
0.0,0.0,0.0,0.0
90.37,-8.781,1.848,58.0
0.0,0.0,0.0,0.0
90.371,-8.727,0.87,67.0
90.378,-8.701,0.373,132.0
0.0,0.0,0.0,0.0
47.264,-4.523,-0.315,0.0
90.376,-8.648,1.915,45.0
90.373,-8.621,1.426,37.0
0.0,0.0,0.0,0.0
90.385,-8.567,0.439,147.0
0.0,0.0,0.0,0.0
0.0,0.0,0.0,0.0
90.385,-8.514,1.98,36.0
90.38,-8.485,1.491,38.0
90.373,-8.457,1.001,24.0
90.396,-8.432,0.502,34.0
0.0,0.0,0.0,0.0
0.0,0.0,0.0,0.0
90.385,-8.376,2.043,36.0
90.381,-8.348,1.553,38.0
90.391,-8.32,1.063,37.0
90.387,-8.291,0.564,15.0
0.0,0.0,0.0,0.0
0.0,0.0,0.0,0.0
90.389,-8.235,2.103,28.0
90.394,-8.207,1.612,35.0
90.365,-8.175,1.122,36.0
90.406,-8.151,0.622,46.0
90.338,-8.117,0.131,1.0
0.0,0.0,0.0,0.0
90.388,-8.092,2.16,21.0
90.404,-8.063,1.669,40.0
90.38,-8.031,1.178,75.0
90.405,-8.004,0.678,36.0
90.383,-7.974,0.188,11.0
0.0,0.0,0.0,0.0
90.37,-7.944,2.214,11.0
90.39,-7.916,1.723,35.0
90.387,-7.885,1.231,39.0
90.396,-7.856,0.732,33.0
90.413,-7.829,0.24,17.0
0.0,0.0,0.0,0.0
127.493,-10.997,3.197,23.0
90.39,-7.766,1.774,38.0
90.401,-7.737,1.282,58.0
90.385,-7.706,0.781,37.0
90.409,-7.678,0.29,24.0
0.0,0.0,0.0,0.0
127.576,-10.789,3.266,12.0
90.386,-7.613,1.822,36.0
90.406,-7.585,1.33,54.0
90.428,-7.557,0.828,54.0
90.428,-7.525,0.336,51.0
0.0,0.0,0.0,0.0
127.503,-10.566,3.329,26.0
90.399,-7.46,1.867,150.0
100.061,-8.224,1.522,11.0
100.026,-8.187,0.965,15.0
100.012,-8.153,0.421,9.0
0.0,0.0,0.0,0.0
127.517,-10.347,3.39,21.0
116.653,-9.424,2.464,14.0
100.157,-8.056,1.569,11.0
100.046,-8.014,1.012,15.0
100.091,-7.984,0.465,10.0
65.209,-5.18,-0.051,0.0
127.479,-10.121,3.445,27.0
127.58,-10.083,2.751,8.0
100.094,-7.877,1.611,12.0
100.087,-7.842,1.054,15.0
100.051,-7.805,0.507,10.0
0.0,0.0,0.0,0.0
127.512,-9.897,3.498,28.0
127.505,-9.851,2.799,41.0
100.032,-7.695,1.649,10.0
100.063,-7.661,1.093,12.0
100.071,-7.628,0.545,9.0
0.0,0.0,0.0,0.0
148.067,-11.228,4.116,2.0
0.0,0.0,0.0,0.0
100.078,-7.516,1.686,8.0
100.049,-7.478,1.128,11.0
100.136,-7.449,0.582,11.0
55.251,-4.091,0.018,1.0
109.042,-8.067,3.068,20.0
133.299,-9.812,3.02,3.0
100.077,-7.332,1.719,6.0
100.07,-7.296,1.16,12.0
100.038,-7.258,0.612,11.0
0.0,0.0,0.0,0.0
109.044,-7.866,3.101,28.0
109.252,-7.841,2.507,47.0
109.441,-7.814,1.911,7.0
100.083,-7.11,1.19,9.0
100.099,-7.076,0.64,10.0
0.0,0.0,0.0,0.0
109.046,-7.662,3.13,39.0
109.265,-7.637,2.536,41.0
109.392,-7.606,1.938,7.0
100.04,-6.919,1.213,6.0
100.007,-6.882,0.664,5.0
0.0,0.0,0.0,0.0
109.061,-7.457,3.155,37.0
117.088,-7.963,2.744,13.0
117.45,-7.945,2.107,15.0
0.0,0.0,0.0,0.0
0.0,0.0,0.0,0.0
0.0,0.0,0.0,0.0
109.917,-7.309,3.201,17.0
116.958,-7.733,2.763,28.0
117.423,-7.72,2.127,25.0
125.235,-8.189,1.567,23.0
125.07,-8.132,0.877,5.0
0.0,0.0,0.0,0.0
117.078,-7.558,3.428,13.0
117.137,-7.519,2.784,31.0
125.224,-7.992,2.287,31.0
147.895,-9.385,1.871,26.0
125.281,-7.904,0.895,6.0
0.0,0.0,0.0,0.0
125.009,-7.827,3.676,12.0
117.302,-7.301,2.802,19.0
148.028,-9.158,2.719,15.0
148.395,-9.128,1.893,15.0
149.872,-9.164,1.086,8.0
0.0,0.0,0.0,0.0
117.325,-7.117,3.458,21.0
149.251,-8.997,3.575,19.0
148.658,-8.908,2.741,20.0
149.662,-8.912,1.918,17.0
149.793,-8.866,1.093,8.0
0.0,0.0,0.0,0.0
117.22,-6.879,3.461,33.0
149.31,-8.708,3.582,18.0
149.424,-8.661,2.76,19.0
140.728,-8.105,1.807,17.0
114.894,-6.574,0.84,7.0
0.0,0.0,0.0,0.0
117.17,-6.647,3.46,12.0
147.662,-8.322,3.542,7.0
140.639,-7.874,2.597,22.0
101.565,-5.649,1.303,6.0
101.471,-5.606,0.74,155.0
0.0,0.0,0.0,0.0
137.627,-7.536,4.059,8.0
140.693,-7.653,3.371,30.0
0.0,0.0,0.0,0.0
101.499,-5.445,1.297,12.0
0.0,0.0,0.0,0.0
0.0,0.0,0.0,0.0
138.133,-7.287,4.064,15.0
140.711,-7.369,3.36,24.0
104.083,-5.411,1.908,1.0
0.0,0.0,0.0,0.0
0.0,0.0,0.0,0.0
0.0,0.0,0.0,0.0
139.138,-7.061,4.079,23.0
163.352,-8.23,3.882,5.0
0.0,0.0,0.0,0.0
101.529,-5.039,1.276,3.0
0.0,0.0,0.0,0.0
101.535,-4.965,0.149,1.0
140.976,-6.868,4.111,21.0
139.405,-6.739,3.29,9.0
0.0,0.0,0.0,0.0
101.406,-4.828,1.257,4.0
0.0,0.0,0.0,0.0
101.581,-4.762,0.131,1.0
142.151,-6.639,4.119,11.0
0.0,0.0,0.0,0.0
0.0,0.0,0.0,0.0
101.467,-4.626,1.237,7.0
101.405,-4.588,0.673,4.0
0.0,0.0,0.0,0.0
163.172,-7.29,4.691,6.0
142.597,-6.32,3.307,11.0
0.0,0.0,0.0,0.0
101.496,-4.423,1.213,7.0
0.0,0.0,0.0,0.0
0.0,0.0,0.0,0.0
139.9,-5.967,3.985,6.0
0.0,0.0,0.0,0.0
0.0,0.0,0.0,0.0
101.595,-4.221,1.186,1.0
101.498,-4.179,0.619,95.0
0.0,0.0,0.0,0.0
142.047,-5.77,4.004,10.0
0.0,0.0,0.0,0.0
162.24,-6.468,2.762,10.0
0.0,0.0,0.0,0.0
0.0,0.0,0.0,0.0
0.0,0.0,0.0,0.0
163.253,-6.298,4.545,10.0
0.0,0.0,0.0,0.0
162.206,-6.137,2.705,13.0
162.081,-6.072,1.781,14.0
160.669,-5.961,0.868,11.0
0.0,0.0,0.0,0.0
141.627,-5.172,3.889,10.0
162.315,-5.866,3.549,4.0
162.173,-5.801,2.64,17.0
162.058,-5.738,1.715,22.0
160.79,-5.635,0.804,4.0
0.0,0.0,0.0,0.0
163.31,-5.628,4.415,18.0
162.346,-5.534,3.48,4.0
162.214,-5.471,2.57,17.0
161.91,-5.402,1.643,22.0
0.0,0.0,0.0,0.0
0.0,0.0,0.0,0.0
163.333,-5.294,4.341,22.0
162.401,-5.204,3.406,7.0
162.207,-5.137,2.493,13.0
162.145,-5.078,1.568,4.0
0.0,0.0,0.0,0.0
0.0,0.0,0.0,0.0
163.358,-4.959,4.259,9.0
167.963,-5.04,3.439,18.0
163.899,-4.858,2.436,11.0
162.104,-4.747,1.485,6.0
0.0,0.0,0.0,0.0
0.0,0.0,0.0,0.0
163.406,-4.629,4.173,6.0
168.027,-4.701,3.35,11.0
161.885,-4.472,2.319,18.0
162.063,-4.418,1.395,10.0
0.0,0.0,0.0,0.0
0.0,0.0,0.0,0.0
163.373,-4.297,4.079,4.0
170.388,-4.422,3.298,6.0
161.889,-4.145,2.225,20.0
160.781,-4.058,1.29,6.0
0.0,0.0,0.0,0.0
0.0,0.0,0.0,0.0
171.467,-4.164,4.177,3.0
170.334,-4.079,3.193,8.0
161.954,-3.82,2.125,19.0
160.662,-3.733,1.189,9.0
0.0,0.0,0.0,0.0
0.0,0.0,0.0,0.0
0.0,0.0,0.0,0.0
170.353,-3.733,3.081,10.0
0.0,0.0,0.0,0.0
0.0,0.0,0.0,0.0
0.0,0.0,0.0,0.0
0.0,0.0,0.0,0.0
0.0,0.0,0.0,0.0
170.179,-3.389,2.962,4.0
106.866,-2.092,1.258,46.0
106.591,-2.049,0.644,1.0
0.0,0.0,0.0,0.0
0.0,0.0,0.0,0.0
0.0,0.0,0.0,0.0
0.0,0.0,0.0,0.0
106.763,-1.878,1.18,39.0
19.792,-0.341,0.105,0.0
0.0,0.0,0.0,0.0
0.0,0.0,0.0,0.0
0.0,0.0,0.0,0.0
0.0,0.0,0.0,0.0
106.723,-1.665,1.097,150.0
19.748,-0.301,0.089,21.0
19.882,-0.296,-0.021,0.0
0.0,0.0,0.0,0.0
19.786,-0.282,0.41,0.0
19.757,-0.275,0.298,8.0
19.75,-0.268,0.187,28.0
19.765,-0.262,0.073,2.0
0.0,0.0,0.0,0.0
0.0,0.0,0.0,0.0
19.757,-0.242,0.393,10.0
19.742,-0.236,0.281,8.0
106.739,-1.24,0.92,67.0
77.48,-0.874,0.222,1.0
0.0,0.0,0.0,0.0
0.0,0.0,0.0,0.0
19.761,-0.204,0.376,7.0
106.832,-1.068,1.432,16.0
106.758,-1.032,0.827,16.0
0.0,0.0,0.0,0.0
19.783,-0.178,-0.072,7.0
19.754,-0.171,-0.183,14.0
177.274,-1.488,3.22,19.0
106.902,-0.862,1.337,40.0
0.0,0.0,0.0,0.0
19.754,-0.146,0.021,6.0
19.731,-0.139,-0.09,15.0
19.73,-0.133,-0.201,17.0
19.71,-0.127,0.339,5.0
19.716,-0.12,0.227,10.0
19.71,-0.114,0.116,11.0
19.72,-0.107,0.002,14.0
19.709,-0.101,-0.109,16.0
19.738,-0.095,-0.221,16.0
19.667,-0.088,0.319,10.0
19.687,-0.082,0.208,15.0
19.699,-0.076,0.096,15.0
19.691,-0.07,-0.016,17.0
19.717,-0.063,-0.128,15.0
19.755,-0.057,-0.241,15.0
19.638,-0.051,0.299,11.0
19.651,-0.045,0.188,12.0
19.696,-0.038,0.076,14.0
19.72,-0.032,-0.037,13.0
19.759,-0.026,-0.149,6.0
0.0,0.0,0.0,0.0
19.632,-0.014,0.278,13.0
19.74,-0.008,0.168,4.0
19.798,-0.002,0.056,5.0
19.772,0.004,-0.057,26.0
19.775,0.01,-0.17,1.0
19.763,0.016,-0.282,16.0
19.631,0.022,0.257,15.0
19.75,0.028,0.147,14.0
19.748,0.034,0.035,17.0
19.773,0.04,-0.079,22.0
19.767,0.046,-0.191,27.0
19.772,0.052,-0.303,36.0
19.635,0.058,0.236,16.0
19.686,0.064,0.125,16.0
19.753,0.07,0.013,26.0
19.75,0.076,-0.101,8.0
19.766,0.082,-0.213,1.0
19.762,0.088,-0.325,0.0
19.656,0.094,0.214,13.0
19.653,0.1,0.102,13.0
19.646,0.105,-0.009,11.0
19.683,0.112,-0.123,7.0
0.0,0.0,0.0,0.0
0.0,0.0,0.0,0.0
19.67,0.13,0.191,16.0
19.643,0.135,0.079,13.0
19.639,0.141,-0.032,16.0
19.645,0.147,-0.146,13.0
19.666,0.153,-0.258,7.0
19.674,0.159,-0.37,9.0
19.674,0.165,0.167,13.0
19.657,0.17,0.055,13.0
19.648,0.176,-0.056,11.0
19.631,0.182,-0.169,16.0
19.652,0.188,-0.282,16.0
19.664,0.193,-0.394,17.0
19.741,0.2,0.144,16.0
19.664,0.205,0.031,11.0
19.643,0.21,-0.08,15.0
19.629,0.216,-0.194,17.0
19.651,0.222,-0.306,17.0
19.667,0.227,-0.418,19.0
19.763,0.235,0.119,18.0
19.7,0.239,0.006,1.0
19.65,0.245,-0.105,14.0
19.643,0.25,-0.219,16.0
19.668,0.256,-0.331,13.0
19.69,0.262,-0.444,15.0
19.792,0.269,0.094,0.0
53.063,0.737,-0.049,1.0
19.699,0.279,-0.131,2.0
19.668,0.284,-0.245,10.0
19.701,0.29,-0.358,3.0
27.133,0.407,-0.648,1.0
0.0,0.0,0.0,0.0
52.429,0.817,-0.118,4.0
0.0,0.0,0.0,0.0
35.095,0.566,-0.483,0.0
29.47,0.483,-0.574,0.0
26.417,0.44,-0.666,1.0
55.173,0.936,0.116,104.0
47.695,0.822,-0.171,0.0
35.932,0.629,-0.334,0.0
31.152,0.553,-0.471,0.0
28.858,0.52,-0.601,0.0
25.41,0.465,-0.675,0.0
55.196,1.026,0.041,22.0
44.634,0.842,-0.222,0.0
35.055,0.671,-0.375,2.0
29.317,0.569,-0.484,0.0
27.791,0.546,-0.618,0.0
24.796,0.494,-0.693,0.0
54.951,1.11,-0.035,2.0
41.171,0.842,-0.262,1.0
33.077,0.685,-0.399,1.0
28.93,0.607,-0.518,1.0
26.225,0.557,-0.62,5.0
23.237,0.499,-0.682,1.0
0.0,0.0,0.0,0.0
38.559,0.85,-0.3,2.0
31.717,0.707,-0.428,0.0
26.097,0.588,-0.504,0.0
23.503,0.536,-0.589,0.0
22.926,0.528,-0.706,4.0
0.0,0.0,0.0,0.0
36.804,0.868,-0.339,3.0
30.08,0.717,-0.45,1.0
25.305,0.609,-0.526,0.0
22.298,0.542,-0.591,0.0
22.07,0.542,-0.712,3.0
0.0,0.0,0.0,0.0
35.146,0.882,-0.375,4.0
28.931,0.733,-0.475,1.0
25.015,0.639,-0.556,0.0
21.178,0.546,-0.592,0.0
20.917,0.545,-0.705,3.0
40.014,1.054,-0.257,33.0
40.15,1.066,-0.488,0.0
27.837,0.746,-0.498,1.0
23.616,0.638,-0.56,0.0
20.659,0.563,-0.609,2.0
19.717,0.542,-0.694,1.0
37.783,1.05,-0.3,2.0
27.445,0.768,-0.375,1.0
26.266,0.742,-0.51,1.0
22.21,0.632,-0.561,0.0
19.861,0.57,-0.615,0.0
18.845,0.545,-0.692,0.0
36.388,1.062,-0.344,2.0
27.462,0.808,-0.417,9.0
25.599,0.759,-0.536,3.0
21.699,0.648,-0.581,1.0
19.277,0.58,-0.627,2.0
18.223,0.552,-0.697,1.0
40.129,1.227,-0.441,2.0
28.384,0.874,-0.475,4.0
24.388,0.756,-0.548,1.0
20.881,0.652,-0.591,0.0
18.882,0.594,-0.643,0.0
17.323,0.549,-0.69,1.0
40.127,1.281,-0.504,2.0
27.287,0.877,-0.499,2.0
23.133,0.748,-0.556,0.0
20.112,0.655,-0.601,0.0
18.244,0.598,-0.65,1.0
16.993,0.561,-0.704,0.0
30.146,1.003,-0.427,2.0
25.814,0.864,-0.514,1.0
22.29,0.751,-0.572,4.0
19.579,0.664,-0.617,2.0
40.165,1.37,-1.497,2.0
16.751,0.575,-0.72,0.0
28.955,1.001,-0.456,4.0
24.704,0.859,-0.531,1.0
21.296,0.744,-0.58,2.0
18.939,0.666,-0.627,2.0
17.212,0.609,-0.669,1.0
16.575,0.59,-0.74,0.0
27.552,0.986,-0.478,2.0
23.707,0.853,-0.548,0.0
20.146,0.729,-0.581,1.0
18.393,0.669,-0.638,2.0
17.015,0.623,-0.689,0.0
16.334,0.601,-0.755,0.0
26.512,0.981,-0.503,6.0
22.517,0.837,-0.557,0.0
19.753,0.738,-0.602,3.0
17.92,0.673,-0.651,3.0
16.798,0.635,-0.707,0.0
16.245,0.617,-0.778,1.0
24.999,0.954,-0.516,2.0
21.46,0.823,-0.566,1.0
19.184,0.74,-0.617,3.0
17.388,0.674,-0.661,2.0
16.629,0.647,-0.728,0.0
16.015,0.627,-0.793,1.0
23.728,0.933,-0.529,31.0
20.867,0.824,-0.585,1.0
18.527,0.735,-0.626,3.0
17.1,0.682,-0.678,2.0
16.418,0.658,-0.746,1.0
15.911,0.64,-0.815,1.0
23.195,0.938,-0.556,8.0
19.9,0.808,-0.591,3.0
18.03,0.735,-0.64,3.0
16.899,0.692,-0.699,2.0
16.263,0.669,-0.766,4.0
15.222,0.629,-0.805,0.0
21.754,0.903,-0.558,1.0
19.351,0.806,-0.608,2.0
17.621,0.737,-0.655,2.0
16.701,0.701,-0.719,2.0
16.109,0.679,-0.786,2.0
14.203,0.602,-0.775,0.0
21.035,0.894,-0.575,3.0
18.663,0.796,-0.617,3.0
17.143,0.734,-0.666,2.0
16.505,0.71,-0.738,1.0
15.965,0.69,-0.806,2.0
14.512,0.629,-0.817,0.0
20.103,0.874,-0.583,1.0
18.211,0.795,-0.633,3.0
16.959,0.743,-0.688,2.0
16.307,0.717,-0.757,2.0
15.557,0.687,-0.812,0.0
14.233,0.631,-0.826,0.0
19.592,0.871,-0.602,3.0
17.709,0.79,-0.646,2.0
16.756,0.75,-0.708,2.0
16.114,0.724,-0.776,2.0
23.661,1.067,-1.276,0.0
13.866,0.627,-0.828,0.0
18.832,0.854,-0.611,3.0
17.277,0.786,-0.66,5.0
16.572,0.757,-0.729,2.0
15.96,0.731,-0.796,3.0
23.644,1.087,-1.317,0.0
23.665,1.092,-1.455,0.0
18.34,0.848,-0.627,3.0
16.986,0.788,-0.679,2.0
16.341,0.76,-0.747,2.0
23.623,1.103,-1.219,1.0
23.662,1.108,-1.359,1.0
23.656,1.112,-1.495,0.0
17.887,0.842,-0.642,2.0
16.825,0.794,-0.701,2.0
16.156,0.765,-0.767,2.0
23.627,1.122,-1.261,1.0
23.628,1.126,-1.398,1.0
23.618,1.129,-1.534,1.0
17.333,0.829,-0.652,1.0
16.621,0.798,-0.721,1.0
15.991,0.77,-0.787,4.0
23.614,1.14,-1.301,1.0
23.616,1.144,-1.438,1.0
23.604,1.146,-1.574,1.0
17.048,0.829,-0.671,2.0
16.368,0.798,-0.739,2.0
23.624,1.155,-1.204,1.0
23.609,1.157,-1.342,1.0
23.628,1.161,-1.48,0.0
12.408,0.611,-0.849,0.0
16.873,0.832,-0.693,1.0
16.198,0.801,-0.759,1.0
23.625,1.171,-1.244,1.0
23.621,1.174,-1.383,3.0
23.616,1.177,-1.521,1.0
12.19,0.609,-0.855,0.0
16.659,0.833,-0.714,1.0
16.001,0.802,-0.778,2.0
23.625,1.187,-1.286,1.0
23.617,1.189,-1.425,1.0
23.612,1.192,-1.561,1.0
11.874,0.601,-0.854,0.0
16.42,0.831,-0.732,1.0
15.914,0.807,-0.801,1.0
23.666,1.203,-1.329,0.0
13.231,0.674,-0.821,0.0
23.704,1.211,-1.608,0.0
11.715,0.6,-0.863,0.0
16.243,0.831,-0.752,1.0
23.676,1.215,-1.234,0.0
23.609,1.214,-1.367,1.0
23.645,1.218,-1.508,0.0
12.229,0.631,-0.851,0.0
11.44,0.592,-0.863,0.0
16.024,0.829,-0.77,3.0
14.849,0.77,-0.799,0.0
23.647,1.229,-1.41,1.0
23.666,1.232,-1.551,0.0
11.968,0.624,-0.854,0.0
11.208,0.586,-0.865,0.0
15.95,0.833,-0.794,1.0
14.359,0.751,-0.798,0.0
13.408,0.703,-0.823,0.0
12.467,0.655,-0.838,0.0
11.798,0.621,-0.862,0.0
10.957,0.578,-0.864,0.0
15.389,0.811,-0.792,0.0
14.072,0.743,-0.806,0.0
13.172,0.696,-0.831,0.0
12.288,0.651,-0.848,0.0
11.53,0.612,-0.862,0.0
10.842,0.576,-0.874,0.0
15.035,0.799,-0.8,0.0
13.802,0.734,-0.814,0.0
12.867,0.686,-0.834,0.0
12.047,0.643,-0.852,0.0
11.313,0.605,-0.866,0.0
10.637,0.57,-0.876,0.0
14.609,0.781,-0.802,0.0
13.377,0.717,-0.812,0.0
12.593,0.676,-0.837,0.0
11.809,0.635,-0.855,0.0
11.042,0.594,-0.864,0.0
10.467,0.564,-0.88,0.0
14.221,0.765,-0.805,0.0
13.172,0.71,-0.822,0.0
12.391,0.669,-0.845,0.0
11.551,0.624,-0.856,0.0
10.848,0.587,-0.867,0.0
10.31,0.559,-0.884,0.0
13.888,0.752,-0.81,0.0
12.903,0.699,-0.827,0.0
12.198,0.662,-0.853,0.0
11.329,0.616,-0.859,0.0
10.741,0.585,-0.877,0.0
10.157,0.553,-0.888,0.0
13.551,0.737,-0.813,0.0
12.732,0.693,-0.838,0.0
11.88,0.648,-0.85,0.0
11.156,0.609,-0.864,0.0
10.487,0.573,-0.874,0.0
10.038,0.549,-0.895,0.0
13.249,0.723,-0.817,0.0
12.429,0.679,-0.839,0.0
11.645,0.637,-0.853,0.0
10.894,0.597,-0.862,0.0
10.374,0.569,-0.882,0.0
9.823,0.539,-0.892,0.0
13.063,0.715,-0.827,0.0
12.274,0.673,-0.848,0.0
11.411,0.626,-0.855,0.0
10.713,0.588,-0.866,0.0
10.225,0.562,-0.886,0.0
9.71,0.534,-0.898,0.0
12.835,0.705,-0.834,0.0
12.011,0.66,-0.85,0.0
11.275,0.62,-0.863,0.0
10.551,0.581,-0.87,0.0
10.036,0.553,-0.886,0.0
9.557,0.527,-0.9,0.0
12.557,0.69,-0.836,0.0
11.779,0.648,-0.853,0.0
10.992,0.605,-0.86,0.0
10.419,0.574,-0.876,0.0
9.941,0.548,-0.894,0.0
9.392,0.519,-0.899,0.0
12.357,0.68,-0.843,0.0
11.525,0.635,-0.853,0.0
10.822,0.596,-0.864,0.0
10.273,0.567,-0.881,0.0
9.791,0.54,-0.896,0.0
9.241,0.51,-0.9,0.0
12.123,0.667,-0.847,0.0
11.335,0.624,-0.857,0.0
10.69,0.589,-0.87,0.0
10.149,0.56,-0.886,0.0
9.617,0.531,-0.896,0.0
9.111,0.503,-0.902,0.0
11.918,0.656,-0.851,0.0
11.123,0.612,-0.859,0.0
10.503,0.578,-0.872,0.0
9.99,0.55,-0.888,0.0
9.488,0.523,-0.899,0.0
8.988,0.496,-0.904,0.0
11.742,0.645,-0.857,0.0
10.971,0.603,-0.864,0.0
10.412,0.573,-0.881,0.0
9.825,0.541,-0.889,0.0
9.366,0.515,-0.902,0.0
8.856,0.488,-0.905,0.0
11.514,0.631,-0.858,0.0
10.74,0.589,-0.863,0.0
10.223,0.561,-0.881,0.0
9.589,0.526,-0.883,0.0
9.2,0.505,-0.9,0.0
8.773,0.482,-0.91,0.0
11.301,0.618,-0.859,0.0
10.583,0.579,-0.866,0.0
10.096,0.552,-0.885,0.0
9.558,0.523,-0.894,0.0
9.096,0.498,-0.904,0.0
8.64,0.473,-0.909,0.0
11.089,0.604,-0.86,0.0
10.477,0.571,-0.873,0.0
9.99,0.545,-0.891,0.0
9.498,0.518,-0.903,0.0
9.008,0.491,-0.909,0.0
8.548,0.466,-0.912,0.0
10.91,0.592,-0.862,0.0
10.377,0.563,-0.88,0.0
9.783,0.531,-0.887,0.0
9.358,0.508,-0.904,0.0
8.852,0.48,-0.906,0.0
8.392,0.456,-0.908,0.0
10.816,0.584,-0.871,0.0
10.206,0.551,-0.881,0.0
9.68,0.523,-0.892,0.0
9.21,0.497,-0.903,0.0
8.773,0.474,-0.911,0.0
8.298,0.448,-0.91,0.0
10.589,0.569,-0.868,0.0
10.057,0.54,-0.882,0.0
9.596,0.515,-0.897,0.0
9.094,0.488,-0.904,0.0
8.659,0.465,-0.911,0.0
8.179,0.439,-0.909,0.0
23.671,1.264,-1.973,0.0
9.976,0.532,-0.889,0.0
9.423,0.503,-0.894,0.0
8.564,0.457,-0.913,0.0
8.132,0.434,-0.915,0.0
10.36,0.549,-0.878,0.0
9.829,0.521,-0.89,0.0
9.334,0.494,-0.899,0.0
8.405,0.445,-0.908,0.0
8.023,0.425,-0.914,0.0
9.731,0.512,-0.894,0.0
9.263,0.487,-0.905,0.0
8.776,0.461,-0.909,0.0
8.356,0.439,-0.914,0.0
7.95,0.417,-0.916,0.0
9.597,0.5,-0.894,0.0
9.102,0.474,-0.901,0.0
8.65,0.45,-0.907,0.0
8.233,0.428,-0.911,0.0
7.909,0.411,-0.922,0.0
10.005,0.517,-0.888,0.0
9.517,0.492,-0.899,0.0
8.55,0.441,-0.908,0.0
8.177,0.421,-0.916,0.0
7.851,0.404,-0.925,0.0
9.918,0.508,-0.893,0.0
9.382,0.48,-0.899,0.0
8.451,0.431,-0.908,0.0
8.111,0.414,-0.919,0.0
7.761,0.396,-0.924,0.0
9.776,0.495,-0.892,0.0
9.287,0.47,-0.901,0.0
8.801,0.445,-0.905,0.0
8.366,0.422,-0.91,0.0
8.006,0.404,-0.917,0.0
7.721,0.389,-0.929,0.0
9.701,0.486,-0.897,0.0
9.178,0.459,-0.902,0.0
8.733,0.436,-0.908,0.0
8.247,0.411,-0.907,0.0
7.957,0.397,-0.921,0.0
7.635,0.38,-0.928,0.0
9.592,0.474,-0.898,0.0
8.645,0.427,-0.909,0.0
8.258,0.407,-0.917,0.0
7.918,0.39,-0.926,0.0
7.582,0.373,-0.93,0.0
9.486,0.463,-0.899,0.0
8.953,0.436,-0.9,0.0
8.542,0.416,-0.908,0.0
8.11,0.394,-0.91,0.0
7.84,0.381,-0.925,0.0
7.521,0.365,-0.931,0.0
9.398,0.452,-0.901,0.0
8.894,0.428,-0.904,0.0
8.477,0.407,-0.911,0.0
8.047,0.386,-0.912,0.0
7.793,0.373,-0.928,0.0
7.482,0.358,-0.935,0.0
9.25,0.439,-0.897,0.0
8.816,0.418,-0.905,0.0
8.372,0.396,-0.908,0.0
8.055,0.38,-0.921,0.0
7.729,0.364,-0.929,0.0
7.417,0.349,-0.935,0.0
9.23,0.431,-0.904,0.0
8.784,0.41,-0.911,0.0
8.333,0.388,-0.913,0.0
7.949,0.37,-0.917,0.0
7.697,0.357,-0.933,0.0
7.362,0.341,-0.935,0.0
9.116,0.419,-0.902,0.0
8.712,0.4,-0.913,0.0
8.268,0.379,-0.914,0.0
7.933,0.363,-0.923,0.0
7.63,0.348,-0.932,0.0
7.314,0.333,-0.936,0.0
9.046,0.409,-0.904,0.0
8.584,0.387,-0.907,0.0
8.181,0.368,-0.912,0.0
7.886,0.354,-0.925,0.0
7.573,0.34,-0.933,0.0
7.231,0.324,-0.933,0.0
8.992,0.399,-0.907,0.0
8.531,0.378,-0.91,0.0
8.119,0.359,-0.913,0.0
7.834,0.345,-0.927,0.0
7.526,0.331,-0.934,0.0
7.234,0.318,-0.939,0.0
8.868,0.386,-0.902,0.0
8.496,0.369,-0.914,0.0
8.071,0.35,-0.914,0.0
7.787,0.337,-0.928,0.0
7.441,0.321,-0.93,0.0
7.224,0.311,-0.944,0.0
8.837,0.377,-0.907,0.0
8.473,0.361,-0.918,0.0
8.018,0.341,-0.915,0.0
7.758,0.329,-0.931,0.0
7.427,0.314,-0.934,0.0
7.177,0.303,-0.944,0.0
8.787,0.367,-0.909,0.0
8.378,0.349,-0.915,0.0
7.996,0.332,-0.919,0.0
7.682,0.319,-0.928,0.0
7.402,0.306,-0.937,0.0
7.135,0.294,-0.944,0.0
8.755,0.358,-0.912,0.0
8.333,0.34,-0.916,0.0
7.964,0.324,-0.921,0.0
7.652,0.31,-0.93,0.0
7.36,0.298,-0.937,0.0
7.116,0.287,-0.947,0.0
8.708,0.348,-0.914,0.0
8.249,0.329,-0.913,0.0
7.926,0.315,-0.923,0.0
7.594,0.301,-0.929,0.0
7.34,0.29,-0.94,0.0
7.072,0.279,-0.946,0.0
8.667,0.338,-0.915,0.0
8.217,0.32,-0.915,0.0
7.894,0.306,-0.924,0.0
7.552,0.292,-0.928,0.0
7.293,0.281,-0.939,0.0
7.05,0.271,-0.948,0.0
8.624,0.328,-0.916,0.0
8.194,0.311,-0.918,0.0
7.853,0.297,-0.925,0.0
7.546,0.284,-0.932,0.0
7.275,0.273,-0.941,0.0
7.035,0.263,-0.95,0.0
8.57,0.318,-0.916,0.0
8.172,0.302,-0.92,0.0
7.875,0.29,-0.932,0.0
7.523,0.276,-0.934,0.0
7.258,0.265,-0.943,0.0
7.004,0.255,-0.95,0.0
8.524,0.308,-0.916,0.0
8.119,0.292,-0.919,0.0
7.832,0.28,-0.931,0.0
7.487,0.267,-0.934,0.0
7.238,0.257,-0.944,0.0
6.96,0.246,-0.948,0.0
8.458,0.297,-0.913,0.0
8.112,0.283,-0.922,0.0
7.786,0.271,-0.929,0.0
7.449,0.258,-0.933,0.0
7.211,0.249,-0.944,0.0
6.966,0.239,-0.952,0.0
8.478,0.288,-0.919,0.0
8.071,0.274,-0.921,0.0
7.799,0.263,-0.935,0.0
7.425,0.249,-0.933,0.0
7.174,0.24,-0.943,0.0
6.925,0.231,-0.95,0.0
8.433,0.278,-0.918,0.0
8.06,0.265,-0.923,0.0
7.717,0.252,-0.928,0.0
7.405,0.241,-0.934,0.0
7.162,0.232,-0.944,0.0
6.919,0.223,-0.952,0.0
8.373,0.267,-0.915,0.0
8.084,0.257,-0.929,0.0
7.717,0.244,-0.931,0.0
7.415,0.233,-0.938,0.0
7.148,0.224,-0.945,0.0
6.894,0.215,-0.951,0.0
8.369,0.258,-0.917,0.0
8.064,0.247,-0.93,0.0
7.698,0.235,-0.931,0.0
7.406,0.225,-0.939,0.0
7.149,0.216,-0.947,0.0
6.888,0.207,-0.952,0.0
8.369,0.249,-0.92,0.0
8.016,0.237,-0.926,0.0
7.65,0.225,-0.928,0.0
7.376,0.216,-0.937,0.0
7.146,0.208,-0.949,0.0
6.861,0.199,-0.95,0.0
8.366,0.24,-0.922,0.0
7.98,0.227,-0.924,0.0
7.654,0.217,-0.93,0.0
7.38,0.208,-0.939,0.0
7.14,0.2,-0.95,0.0
6.863,0.191,-0.952,0.0
8.363,0.23,-0.923,0.0
7.98,0.218,-0.926,0.0
7.678,0.209,-0.934,0.0
7.363,0.199,-0.939,0.0
7.111,0.191,-0.947,0.0
6.856,0.183,-0.952,0.0
8.336,0.22,-0.921,0.0
8.01,0.21,-0.931,0.0
7.693,0.2,-0.937,0.0
7.358,0.19,-0.939,0.0
7.127,0.183,-0.95,0.0
6.857,0.175,-0.953,0.0
8.346,0.211,-0.923,0.0
7.98,0.2,-0.928,0.0
7.656,0.191,-0.934,0.0
7.343,0.182,-0.938,0.0
7.112,0.175,-0.949,0.0
6.848,0.167,-0.953,0.0
8.364,0.202,-0.926,0.0
7.973,0.191,-0.928,0.0
7.659,0.182,-0.935,0.0
7.346,0.173,-0.939,0.0
7.124,0.167,-0.951,0.0
6.843,0.159,-0.952,0.0
8.365,0.192,-0.926,0.0
7.998,0.182,-0.931,0.0
7.665,0.173,-0.935,0.0
7.391,0.166,-0.945,0.0
7.124,0.159,-0.951,0.0
6.848,0.151,-0.953,0.0
8.369,0.183,-0.927,0.0
7.963,0.172,-0.927,0.0
7.662,0.164,-0.935,0.0
7.355,0.157,-0.94,0.0
7.12,0.15,-0.95,0.0
6.835,0.143,-0.951,0.0
8.355,0.173,-0.925,0.0
7.989,0.164,-0.929,0.0
7.657,0.155,-0.933,0.0
7.396,0.149,-0.944,0.0
7.133,0.142,-0.951,0.0
6.787,0.134,-0.943,0.0
8.358,0.163,-0.924,0.0
8.023,0.155,-0.932,0.0
7.683,0.147,-0.936,0.0
7.404,0.14,-0.944,0.0
7.152,0.134,-0.952,0.0
6.866,0.128,-0.953,0.0
8.362,0.154,-0.923,0.0
8.014,0.146,-0.93,0.0
7.693,0.138,-0.936,0.0
7.367,0.131,-0.938,0.0
7.163,0.126,-0.953,0.0
6.876,0.12,-0.953,0.0
8.374,0.144,-0.923,0.0
8.024,0.137,-0.929,0.0
7.724,0.13,-0.938,0.0
7.383,0.123,-0.938,0.0
7.146,0.117,-0.949,0.0
6.857,0.111,-0.949,0.0
8.404,0.135,-0.924,0.0
8.054,0.128,-0.93,0.0
7.719,0.121,-0.935,0.0
7.412,0.115,-0.94,0.0
7.152,0.109,-0.947,0.0
6.872,0.104,-0.949,0.0
8.434,0.126,-0.925,0.0
8.064,0.119,-0.929,0.0
7.75,0.112,-0.936,0.0
7.403,0.106,-0.937,0.0
7.143,0.101,-0.944,0.0
6.918,0.096,-0.953,0.0
8.441,0.116,-0.923,0.0
8.083,0.11,-0.929,0.0
7.746,0.103,-0.933,0.0
7.448,0.098,-0.94,0.0
7.165,0.093,-0.944,0.0
6.913,0.088,-0.95,0.0
8.457,0.107,-0.921,0.0
8.118,0.101,-0.929,0.0
7.804,0.095,-0.937,0.0
7.475,0.09,-0.94,0.0
7.192,0.085,-0.945,0.0
6.944,0.081,-0.951,0.0
8.485,0.097,-0.921,0.0
8.151,0.092,-0.93,0.0
7.835,0.087,-0.937,0.0
7.504,0.082,-0.94,0.0
7.225,0.077,-0.946,0.0
6.955,0.073,-0.949,0.0
8.529,0.088,-0.921,0.0
8.184,0.083,-0.929,0.0
7.852,0.078,-0.935,0.0
7.544,0.073,-0.941,0.0
7.239,0.069,-0.944,0.0
7.006,0.066,-0.952,0.0
8.578,0.079,-0.922,0.0
8.225,0.074,-0.93,0.0
7.899,0.07,-0.936,0.0
7.567,0.065,-0.94,0.0
7.272,0.061,-0.944,0.0
7.026,0.058,-0.951,0.0
8.606,0.07,-0.92,0.0
8.268,0.065,-0.93,0.0
7.934,0.061,-0.936,0.0
7.62,0.057,-0.942,0.0
7.338,0.053,-0.948,0.0
7.048,0.05,-0.95,0.0
8.675,0.061,-0.922,0.0
8.29,0.056,-0.927,0.0
7.958,0.052,-0.934,0.0
7.629,0.049,-0.938,0.0
7.351,0.045,-0.945,0.0
7.091,0.042,-0.951,0.0
8.72,0.051,-0.921,0.0
8.365,0.048,-0.93,0.0
7.992,0.044,-0.932,0.0
7.682,0.04,-0.94,0.0
7.384,0.037,-0.944,0.0
7.116,0.035,-0.949,0.0
8.762,0.042,-0.92,0.0
8.402,0.038,-0.928,0.0
8.029,0.035,-0.931,0.0
7.709,0.032,-0.937,0.0
7.426,0.03,-0.944,0.0
7.16,0.027,-0.95,0.0
8.853,0.033,-0.923,0.0
8.454,0.03,-0.927,0.0
8.079,0.027,-0.931,0.0
7.778,0.024,-0.939,0.0
7.455,0.022,-0.942,0.0
7.199,0.02,-0.949,0.0
8.906,0.024,-0.921,0.0
8.509,0.021,-0.927,0.0
8.13,0.018,-0.93,0.0
7.797,0.016,-0.936,0.0
7.526,0.014,-0.945,0.0
7.224,0.012,-0.946,0.0
8.973,0.014,-0.92,0.0
8.563,0.012,-0.925,0.0
8.189,0.01,-0.93,0.0
7.884,0.008,-0.939,0.0
7.582,0.006,-0.945,0.0
7.261,0.004,-0.945,0.0
9.048,0.005,-0.92,0.0
8.624,0.003,-0.924,0.0
8.28,0.001,-0.933,0.0
7.935,0.0,-0.938,0.0
7.63,-0.001,-0.944,0.0
7.326,-0.002,-0.947,0.0
9.084,-0.003,-0.916,0.0
8.705,-0.005,-0.925,0.0
8.303,-0.006,-0.927,0.0
7.981,-0.007,-0.936,0.0
7.673,-0.009,-0.942,0.0
7.382,-0.01,-0.947,0.0
9.18,-0.013,-0.916,0.0
8.79,-0.014,-0.925,0.0
8.406,-0.015,-0.931,0.0
8.037,-0.016,-0.935,0.0
7.745,-0.017,-0.943,0.0
7.436,-0.017,-0.946,0.0
9.28,-0.022,-0.917,0.0
8.871,-0.023,-0.925,0.0
8.439,-0.023,-0.926,0.0
8.097,-0.024,-0.933,0.0
7.787,-0.024,-0.94,0.0
7.469,-0.025,-0.942,0.0
9.346,-0.031,-0.914,0.0
8.907,-0.031,-0.919,0.0
8.506,-0.032,-0.924,0.0
8.183,-0.032,-0.934,0.0
7.868,-0.032,-0.941,0.0
7.565,-0.032,-0.946,0.0
9.472,-0.041,-0.916,0.0
9.002,-0.04,-0.919,0.0
8.638,-0.04,-0.929,0.0
8.257,-0.04,-0.934,0.0
7.927,-0.04,-0.939,0.0
7.637,-0.04,-0.947,0.0
9.575,-0.05,-0.915,0.0
9.101,-0.049,-0.919,0.0
8.697,-0.048,-0.925,0.0
8.343,-0.048,-0.934,0.0
7.977,-0.047,-0.936,0.0
7.699,-0.047,-0.945,0.0
9.667,-0.059,-0.913,0.0
9.233,-0.058,-0.922,0.0
8.8,-0.057,-0.926,0.0
8.416,-0.056,-0.932,0.0
8.049,-0.055,-0.935,0.0
7.746,-0.054,-0.942,0.0
9.779,-0.068,-0.912,0.0
9.295,-0.067,-0.917,0.0
8.877,-0.065,-0.923,0.0
8.52,-0.064,-0.933,0.0
8.142,-0.062,-0.936,0.0
7.827,-0.061,-0.942,0.0
9.906,-0.078,-0.912,0.0
9.429,-0.076,-0.918,0.0
8.965,-0.073,-0.921,0.0
8.585,-0.072,-0.929,0.0
8.216,-0.07,-0.934,0.0
7.894,-0.069,-0.94,0.0
10.013,-0.087,-0.909,0.0
9.543,-0.084,-0.917,0.0
9.11,-0.082,-0.924,0.0
8.671,-0.08,-0.928,0.0
8.314,-0.078,-0.934,0.0
7.954,-0.076,-0.937,0.0
10.17,-0.096,-0.91,0.0
9.64,-0.093,-0.914,0.0
9.2,-0.09,-0.921,0.0
8.788,-0.088,-0.928,0.0
8.396,-0.085,-0.932,0.0
8.068,-0.083,-0.939,0.0
10.307,-0.106,-0.908,0.0
9.78,-0.102,-0.914,0.0
9.239,-0.098,-0.913,0.0
8.849,-0.095,-0.923,0.0
8.514,-0.093,-0.934,0.0
8.144,-0.09,-0.937,0.0
10.434,-0.115,-0.905,0.0
9.923,-0.111,-0.914,0.0
9.44,-0.107,-0.92,0.0
8.991,-0.103,-0.925,0.0
8.6,-0.1,-0.931,0.0
8.252,-0.098,-0.938,0.0
10.569,-0.124,-0.902,0.0
10.046,-0.12,-0.911,0.0
9.553,-0.115,-0.917,0.0
9.112,-0.111,-0.924,0.0
8.714,-0.108,-0.931,0.0
8.339,-0.104,-0.936,0.0
10.737,-0.134,-0.901,0.0
10.194,-0.129,-0.909,0.0
9.678,-0.124,-0.915,0.0
9.228,-0.119,-0.923,0.0
8.814,-0.115,-0.928,0.0
8.448,-0.112,-0.935,0.0
10.917,-0.144,-0.9,0.0
10.345,-0.137,-0.907,0.0
9.838,-0.132,-0.915,0.0
9.348,-0.127,-0.921,0.0
8.954,-0.123,-0.93,0.0
8.522,-0.118,-0.93,0.0
11.083,-0.153,-0.897,0.0
10.481,-0.146,-0.904,0.0
9.984,-0.14,-0.914,0.0
9.547,-0.136,-0.925,0.0
9.085,-0.13,-0.929,0.0
8.63,-0.125,-0.929,0.0
11.267,-0.162,-0.894,0.0
10.666,-0.155,-0.903,0.0
10.134,-0.149,-0.912,0.0
9.642,-0.143,-0.92,0.0
9.17,-0.137,-0.923,0.0
8.767,-0.132,-0.93,0.0
11.466,-0.172,-0.892,0.0
10.865,-0.164,-0.903,0.0
10.288,-0.157,-0.909,0.0
9.778,-0.15,-0.917,0.0
9.304,-0.144,-0.922,0.0
8.889,-0.139,-0.928,0.0
11.651,-0.181,-0.888,0.0
11.02,-0.173,-0.898,0.0
10.443,-0.165,-0.906,0.0
9.947,-0.158,-0.917,0.0
9.448,-0.151,-0.921,0.0
9.044,-0.146,-0.93,0.0
11.827,-0.19,-0.882,0.0
11.215,-0.182,-0.896,0.0
10.51,-0.171,-0.895,0.0
10.089,-0.166,-0.913,0.0
9.589,-0.159,-0.919,0.0
9.141,-0.152,-0.924,0.0
12.093,-0.2,-0.882,0.0
11.434,-0.191,-0.894,0.0
10.807,-0.181,-0.902,0.0
10.245,-0.173,-0.91,0.0
9.757,-0.166,-0.918,0.0
9.302,-0.159,-0.925,0.0
12.25,-0.209,-0.873,0.0
11.649,-0.199,-0.891,0.0
10.99,-0.189,-0.899,0.0
10.4,-0.18,-0.906,0.0
9.922,-0.173,-0.917,0.0
9.443,-0.166,-0.923,0.0
12.555,-0.219,-0.873,0.0
11.835,-0.208,-0.885,0.0
11.201,-0.198,-0.897,0.0
10.576,-0.188,-0.903,0.0
10.083,-0.18,-0.915,0.0
9.613,-0.172,-0.923,0.0
12.864,-0.229,-0.873,0.0
12.05,-0.216,-0.88,0.0
11.437,-0.206,-0.896,0.0
10.797,-0.196,-0.903,0.0
10.262,-0.187,-0.913,0.0
9.765,-0.179,-0.92,0.0
13.073,-0.238,-0.864,0.0
12.303,-0.225,-0.877,0.0
11.649,-0.214,-0.892,0.0
10.995,-0.203,-0.901,0.0
10.417,-0.193,-0.908,0.0
9.936,-0.185,-0.918,0.0
13.431,-0.249,-0.864,0.0
12.497,-0.232,-0.869,0.0
11.843,-0.221,-0.886,0.0
11.204,-0.21,-0.898,0.0
10.608,-0.2,-0.906,0.0
10.113,-0.191,-0.917,0.0
13.694,-0.257,-0.856,0.0
12.838,-0.242,-0.869,0.0
12.058,-0.228,-0.88,0.0
11.443,-0.218,-0.896,0.0
10.854,-0.207,-0.907,0.0
10.266,-0.197,-0.912,0.0
14.156,-0.27,-0.859,0.0
13.081,-0.25,-0.862,0.0
12.323,-0.236,-0.876,0.0
11.666,-0.225,-0.892,0.0
11.055,-0.214,-0.903,0.0
10.434,-0.202,-0.907,0.0
14.359,-0.276,-0.845,0.0
13.479,-0.26,-0.864,0.0
12.596,-0.244,-0.873,0.0
11.906,-0.231,-0.888,0.0
11.287,-0.22,-0.901,0.0
10.653,-0.208,-0.906,0.0
14.829,-0.288,-0.845,0.0
13.785,-0.269,-0.858,0.0
12.886,-0.252,-0.869,0.0
12.081,-0.237,-0.879,0.0
11.5,-0.226,-0.897,0.0
10.907,-0.215,-0.907,0.0
15.327,-0.3,-0.845,0.0
14.22,-0.279,-0.858,1.0
13.151,-0.259,-0.862,0.0
12.375,-0.244,-0.877,0.0
11.711,-0.231,-0.891,0.0
11.099,-0.22,-0.902,0.0
15.678,-0.308,-0.835,0.0
14.481,-0.286,-0.846,0.0
13.61,-0.269,-0.866,0.0
12.689,-0.251,-0.875,0.0
11.961,-0.237,-0.887,0.0
11.36,-0.226,-0.902,0.0
16.083,-0.317,-0.826,0.0
14.953,-0.296,-0.845,0.0
13.96,-0.276,-0.862,0.0
12.96,-0.257,-0.869,0.0
12.212,-0.243,-0.882,0.0
11.559,-0.23,-0.895,0.0
16.703,-0.33,-0.825,0.0
15.455,-0.306,-0.844,0.0
14.239,-0.282,-0.852,1.0
13.291,-0.264,-0.865,0.0
12.52,-0.249,-0.88,0.0
11.794,-0.235,-0.891,0.0
17.244,-0.341,-0.819,0.0
15.841,-0.313,-0.834,0.0
14.687,-0.291,-0.85,0.0
13.655,-0.271,-0.862,0.0
12.748,-0.253,-0.871,0.0
12.07,-0.239,-0.888,0.0
17.842,-0.352,-0.813,0.0
16.29,-0.321,-0.826,0.0
15.144,-0.299,-0.847,0.0
14.126,-0.279,-0.864,0.0
13.077,-0.258,-0.868,0.0
12.329,-0.244,-0.883,0.0
18.55,-0.364,-0.808,0.0
16.901,-0.332,-0.824,0.0
15.562,-0.305,-0.839,0.0
14.326,-0.281,-0.849,0.0
13.491,-0.265,-0.869,0.0
12.618,-0.248,-0.878,0.0
19.062,-0.372,-0.793,0.0
17.468,-0.34,-0.817,0.0
16.033,-0.312,-0.833,0.0
14.889,-0.29,-0.853,0.0
13.808,-0.269,-0.862,0.0
12.885,-0.251,-0.872,0.0
19.773,-0.382,-0.784,0.0
17.974,-0.347,-0.806,0.0
16.532,-0.319,-0.827,0.0
15.329,-0.296,-0.847,0.0
14.206,-0.274,-0.859,1.0
13.24,-0.255,-0.869,0.0
20.376,-0.39,-0.768,1.0
18.779,-0.359,-0.805,0.0
17.117,-0.327,-0.822,0.0
15.673,-0.299,-0.835,0.0
14.61,-0.278,-0.854,0.0
13.594,-0.259,-0.866,0.0
21.368,-0.403,-0.763,2.0
19.437,-0.366,-0.795,0.0
17.735,-0.334,-0.817,0.0
16.082,-0.302,-0.825,0.0
15.012,-0.282,-0.848,0.0
14.014,-0.263,-0.864,0.0
21.686,-0.403,-0.731,7.0
20.05,-0.372,-0.779,0.0
18.421,-0.341,-0.811,0.0
16.874,-0.312,-0.832,0.0
15.537,-0.287,-0.847,0.0
14.319,-0.264,-0.854,0.0
21.744,-0.397,-0.69,2.0
20.677,-0.377,-0.763,0.0
19.054,-0.347,-0.801,0.0
17.334,-0.315,-0.82,0.0
15.905,-0.288,-0.834,0.0
14.81,-0.267,-0.854,0.0
21.702,-0.389,-0.645,0.0
21.605,-0.386,-0.753,3.0
19.715,-0.351,-0.789,0.0
17.899,-0.318,-0.81,0.0
16.524,-0.293,-0.833,0.0
15.303,-0.27,-0.851,0.0
25.297,-0.443,-0.7,0.0
22.17,-0.387,-0.728,1.0
20.299,-0.353,-0.771,0.0
18.729,-0.325,-0.81,0.0
17.097,-0.295,-0.828,0.0
15.696,-0.27,-0.841,0.0
26.231,-0.448,-0.673,0.0
23.335,-0.397,-0.719,0.0
21.231,-0.36,-0.764,0.0
19.305,-0.326,-0.797,0.0
17.594,-0.296,-0.817,0.0
16.196,-0.271,-0.836,0.0
27.552,-0.457,-0.652,0.0
24.718,-0.409,-0.712,0.0
21.776,-0.358,-0.74,3.0
20.033,-0.328,-0.786,1.0
18.296,-0.298,-0.812,0.0
16.836,-0.273,-0.835,0.0
29.299,-0.471,-0.635,0.0
25.638,-0.41,-0.687,0.0
22.768,-0.362,-0.728,0.0
20.569,-0.326,-0.766,0.0
18.995,-0.299,-0.805,0.0
17.346,-0.272,-0.825,0.0
30.333,-0.471,-0.596,0.0
27.005,-0.417,-0.67,0.0
23.806,-0.365,-0.713,0.0
21.484,-0.328,-0.757,0.0
19.663,-0.298,-0.794,0.0
17.918,-0.27,-0.816,0.0
31.969,-0.478,-0.565,0.0
28.25,-0.419,-0.644,0.0
25.065,-0.37,-0.701,0.0
22.371,-0.328,-0.743,0.0
19.884,-0.289,-0.763,3.0
18.674,-0.27,-0.813,0.0
0.0,0.0,0.0,0.0
29.827,-0.423,-0.62,0.0
26.25,-0.37,-0.681,0.0
23.224,-0.325,-0.725,0.0
20.423,-0.284,-0.743,0.0
19.28,-0.266,-0.801,0.0
0.0,0.0,0.0,0.0
0.0,0.0,0.0,0.0
27.802,-0.373,-0.666,0.0
24.459,-0.325,-0.715,0.0
21.955,-0.289,-0.755,0.0
19.802,-0.259,-0.783,2.0
0.0,0.0,0.0,0.0
33.164,-0.425,-0.558,0.0
29.532,-0.375,-0.649,0.0
25.58,-0.321,-0.697,0.0
22.651,-0.282,-0.734,0.0
19.807,-0.244,-0.744,5.0
0.0,0.0,0.0,0.0
35.069,-0.423,-0.521,0.0
30.096,-0.359,-0.602,0.0
26.454,-0.312,-0.668,0.0
23.862,-0.279,-0.726,0.0
21.275,-0.246,-0.757,0.0
0.0,0.0,0.0,0.0
0.0,0.0,0.0,0.0
0.0,0.0,0.0,0.0
28.158,-0.31,-0.657,0.0
24.997,-0.272,-0.712,0.0
22.286,-0.239,-0.75,1.0
0.0,0.0,0.0,0.0
0.0,0.0,0.0,0.0
19.738,-0.203,-0.318,0.0
19.754,-0.201,-0.422,0.0
25.959,-0.26,-0.689,0.0
22.943,-0.227,-0.727,0.0
0.0,0.0,0.0,0.0
19.793,-0.189,-0.178,2.0
19.765,-0.186,-0.28,8.0
19.75,-0.183,-0.384,10.0
19.755,-0.181,-0.486,8.0
19.768,-0.178,-0.588,5.0
19.768,-0.174,-0.037,0.0
19.765,-0.171,-0.139,9.0
19.758,-0.168,-0.242,12.0
19.746,-0.165,-0.346,14.0
19.741,-0.162,-0.448,15.0
19.749,-0.159,-0.55,15.0
19.764,-0.156,0.0,0.0
19.751,-0.153,-0.102,12.0
19.749,-0.15,-0.204,15.0
19.727,-0.147,-0.307,16.0
19.732,-0.144,-0.41,18.0
19.74,-0.14,-0.512,19.0
19.775,-0.137,0.037,2.0
19.778,-0.134,-0.064,9.0
19.718,-0.13,-0.166,16.0
19.716,-0.127,-0.27,17.0
19.74,-0.124,-0.372,17.0
19.741,-0.121,-0.475,17.0
19.747,-0.117,0.075,9.0
19.724,-0.114,-0.026,11.0
19.716,-0.111,-0.128,16.0
19.714,-0.107,-0.232,17.0
19.751,-0.104,-0.335,14.0
19.742,-0.101,-0.438,16.0
19.716,-0.097,0.112,14.0
19.712,-0.094,0.009,13.0
19.712,-0.09,-0.092,12.0
19.71,-0.087,-0.196,16.0
19.747,-0.083,-0.298,15.0
19.756,-0.08,-0.401,14.0
19.707,-0.076,0.149,16.0
19.708,-0.072,0.046,14.0
19.707,-0.069,-0.055,15.0
19.707,-0.065,-0.159,16.0
19.742,-0.062,-0.262,15.0
19.791,-0.058,-0.365,5.0
19.684,-0.054,0.185,14.0
19.707,-0.051,0.083,16.0
19.71,-0.047,-0.019,16.0
19.721,-0.043,-0.123,13.0
19.757,-0.04,-0.226,13.0
19.789,-0.036,-0.329,0.0
19.649,-0.032,0.221,15.0
19.684,-0.028,0.118,11.0
19.705,-0.024,0.016,15.0
19.736,-0.021,-0.087,7.0
19.763,-0.017,-0.19,2.0
0.0,0.0,0.0,0.0
19.632,-0.009,0.256,14.0
19.751,-0.005,0.154,3.0
19.749,-0.001,0.052,5.0
19.742,0.002,-0.052,9.0
19.834,0.006,-0.155,0.0
19.783,0.009,-0.258,0.0
19.625,0.013,0.291,15.0
19.639,0.017,0.188,12.0
19.748,0.021,0.087,8.0
19.732,0.025,-0.017,14.0
19.747,0.029,-0.12,13.0
19.758,0.034,-0.223,17.0
19.626,0.037,0.325,16.0
19.628,0.041,0.223,15.0
19.742,0.046,0.122,15.0
19.742,0.05,0.017,15.0
19.764,0.054,-0.085,47.0
19.753,0.058,-0.188,44.0
19.616,0.062,0.359,18.0
19.618,0.066,0.257,13.0
19.656,0.071,0.155,10.0
19.732,0.075,0.051,27.0
19.764,0.079,-0.051,20.0
19.761,0.084,-0.154,10.0
19.622,0.087,0.394,24.0
19.615,0.091,0.291,18.0
19.65,0.096,0.189,11.0
19.65,0.1,0.084,12.0
19.665,0.105,-0.017,10.0
19.692,0.109,-0.12,2.0
19.609,0.113,0.427,26.0
19.608,0.117,0.324,12.0
19.65,0.122,0.222,12.0
19.629,0.126,0.117,14.0
19.633,0.131,0.015,15.0
19.668,0.136,-0.087,9.0
19.602,0.139,0.459,14.0
19.618,0.144,0.357,11.0
19.621,0.149,0.255,10.0
19.651,0.153,0.15,14.0
19.637,0.158,0.047,13.0
19.642,0.162,-0.054,15.0
19.62,0.167,0.492,12.0
19.638,0.171,0.39,9.0
19.649,0.176,0.287,8.0
19.661,0.181,0.182,13.0
19.66,0.185,0.079,13.0
19.646,0.19,-0.023,14.0
19.701,0.195,0.526,10.0
19.719,0.2,0.423,10.0
19.726,0.205,0.32,9.0
19.734,0.209,0.215,16.0
19.739,0.214,0.111,15.0
19.677,0.218,0.008,11.0
19.68,0.223,0.557,12.0
19.698,0.228,0.454,10.0
19.711,0.233,0.351,10.0
19.728,0.238,0.246,13.0
19.761,0.243,0.143,27.0
84.834,1.066,0.17,2.0
19.655,0.251,0.588,14.0
19.673,0.256,0.485,12.0
19.681,0.261,0.381,11.0
19.713,0.266,0.276,13.0
19.752,0.272,0.173,16.0
19.721,0.276,0.069,0.0
19.653,0.28,0.618,15.0
19.666,0.285,0.515,14.0
19.69,0.29,0.412,10.0
19.725,0.296,0.306,7.0
163.424,2.493,1.681,16.0
114.063,1.769,0.574,8.0
19.67,0.31,0.648,8.0
19.678,0.315,0.545,4.0
19.714,0.32,0.442,3.0
55.189,0.912,0.941,35.0
55.178,0.926,0.65,49.0
55.173,0.939,0.359,60.0
55.185,0.955,1.901,71.0
55.171,0.968,1.609,74.0
55.174,0.982,1.318,73.0
55.17,0.996,1.021,71.0
55.165,1.01,0.73,61.0
55.172,1.024,0.439,46.0
55.197,1.04,1.981,12.0
55.192,1.054,1.69,1.0
163.359,3.163,4.138,5.0
179.312,3.515,3.574,38.0
163.368,3.246,2.394,19.0
162.808,3.277,1.525,19.0
121.241,2.474,4.524,13.0
135.265,2.794,4.331,17.0
134.741,2.819,3.601,4.0
179.271,3.797,3.824,27.0
0.0,0.0,0.0,0.0
128.68,2.791,1.381,17.0
121.167,2.663,4.688,21.0
114.246,2.54,3.814,21.0
134.91,3.035,3.788,15.0
98.5,2.242,2.234,3.0
179.21,4.127,3.116,17.0
71.051,1.654,0.858,6.0
121.276,2.86,4.856,11.0
113.965,2.718,3.958,18.0
99.64,2.401,2.93,12.0
99.671,2.429,2.393,81.0
99.674,2.456,1.864,10.0
70.719,1.761,0.947,7.0
45.503,1.147,1.882,3.0
45.482,1.158,1.639,37.0
0.0,0.0,0.0,0.0
0.0,0.0,0.0,0.0
43.713,1.148,0.873,35.0
0.0,0.0,0.0,0.0
0.0,0.0,0.0,0.0
41.92,1.137,1.565,117.0
41.908,1.147,1.341,150.0
0.0,0.0,0.0,0.0
0.0,0.0,0.0,0.0
41.922,1.181,0.667,151.0
40.121,1.144,1.761,105.0
40.12,1.154,1.547,141.0
40.114,1.165,1.332,134.0
40.111,1.176,1.115,150.0
40.125,1.187,0.901,150.0
40.113,1.197,0.687,150.0
40.123,1.211,1.81,103.0
40.123,1.223,1.596,134.0
40.116,1.233,1.381,138.0
40.109,1.243,1.163,150.0
40.126,1.254,0.949,150.0
40.117,1.265,0.734,150.0
40.123,1.278,1.857,114.0
40.124,1.289,1.642,114.0
40.105,1.299,1.427,150.0
40.116,1.31,1.208,150.0
40.104,1.321,0.994,61.0
40.114,1.332,0.78,7.0
120.712,4.051,5.724,12.0
120.046,4.06,5.049,10.0
120.216,4.099,4.413,13.0
120.899,4.154,3.777,16.0
163.424,5.661,4.231,7.0
162.272,5.664,3.331,14.0
121.149,4.273,5.878,13.0
120.024,4.265,5.18,14.0
120.305,4.308,4.547,18.0
120.919,4.362,3.908,6.0
44.221,1.607,1.192,76.0
43.778,1.603,0.945,87.0
121.025,4.477,6.001,16.0
120.135,4.476,5.311,17.0
120.3,4.516,4.672,6.0
162.678,6.149,5.427,9.0
41.551,1.581,1.163,68.0
41.224,1.581,0.932,75.0
120.908,4.682,6.119,21.0
134.526,5.246,6.085,7.0
178.61,7.013,7.117,20.0
179.013,7.077,6.151,13.0
40.364,1.607,1.17,75.0
40.369,1.618,0.953,74.0
120.947,4.897,6.243,18.0
180.35,7.352,8.337,8.0
178.938,7.341,7.306,17.0
0.0,0.0,0.0,0.0
163.433,6.795,4.896,14.0
23.611,0.988,0.58,0.0
23.601,0.997,1.24,1.0
23.608,1.003,1.113,23.0
23.611,1.01,0.986,36.0
23.607,1.016,0.856,44.0
23.604,1.022,0.728,45.0
23.598,1.029,0.601,49.0
23.576,1.037,1.261,53.0
23.57,1.043,1.133,61.0
23.562,1.05,1.005,65.0
23.576,1.057,0.876,69.0
23.577,1.063,0.749,80.0
23.59,1.07,0.622,74.0
23.573,1.079,1.281,77.0
23.568,1.086,1.153,74.0
23.566,1.092,1.026,71.0
23.569,1.098,0.896,57.0
23.589,1.106,0.769,50.0
23.594,1.113,0.642,45.0
23.588,1.123,1.302,45.0
23.607,1.13,1.175,39.0
23.592,1.135,1.046,23.0
23.589,1.142,0.916,12.0
23.608,1.149,0.789,3.0
45.2,2.213,1.266,10.0
0.0,0.0,0.0,0.0
0.0,0.0,0.0,0.0
180.163,8.994,8.134,15.0
179.632,9.016,7.115,16.0
162.666,8.209,5.56,4.0
45.196,2.293,1.3,8.0
0.0,0.0,0.0,0.0
0.0,0.0,0.0,0.0
0.0,0.0,0.0,0.0
179.927,9.351,7.259,20.0
180.778,9.445,6.31,15.0
163.442,8.585,4.817,16.0
200.305,10.61,11.515,5.0
200.166,10.656,10.416,10.0
0.0,0.0,0.0,0.0
181.261,9.745,7.438,13.0
180.546,9.757,6.426,18.0
163.426,8.874,4.926,16.0
0.0,0.0,0.0,0.0
0.0,0.0,0.0,0.0
0.0,0.0,0.0,0.0
200.901,11.159,8.374,9.0
180.912,10.1,6.555,6.0
163.291,9.158,5.027,12.0
0.0,0.0,0.0,0.0
0.0,0.0,0.0,0.0
0.0,0.0,0.0,0.0
204.247,11.709,8.639,6.0
198.412,11.43,7.307,20.0
163.074,9.437,5.116,5.0
0.0,0.0,0.0,0.0
0.0,0.0,0.0,0.0
203.532,11.981,9.858,14.0
203.73,12.045,8.732,7.0
197.539,11.732,7.387,8.0
162.711,9.708,5.196,10.0
112.354,6.756,6.735,9.0
0.0,0.0,0.0,0.0
203.479,12.34,9.966,10.0
198.601,12.096,8.617,11.0
197.611,12.087,7.492,15.0
162.7,9.995,5.278,6.0
112.562,6.97,6.804,1.0
112.312,6.983,6.172,3.0
112.437,7.02,5.562,5.0
112.343,7.043,4.929,5.0
112.384,7.074,4.314,3.0
162.526,10.274,5.349,4.0
100.11,6.379,6.099,12.0
99.973,6.395,5.541,22.0
99.977,6.42,4.99,41.0
99.962,6.444,4.43,31.0
99.981,6.471,3.882,33.0
99.973,6.498,3.333,34.0
99.945,6.545,6.132,29.0
99.943,6.57,5.581,32.0
99.959,6.597,5.031,36.0
99.958,6.621,4.47,40.0
99.975,6.648,3.921,39.0
99.989,6.676,3.372,40.0
45.563,3.065,2.813,150.0
99.969,6.751,5.621,34.0
99.946,6.774,5.068,34.0
99.943,6.799,4.507,38.0
99.969,6.826,3.957,37.0
99.962,6.851,3.407,38.0
0.0,0.0,0.0,0.0
45.538,3.155,2.575,57.0
99.966,6.951,5.102,34.0
99.971,6.975,4.539,35.0
99.963,6.999,3.988,35.0
99.966,7.024,3.438,35.0
43.759,3.097,2.73,150.0
45.498,3.231,2.586,14.0
45.445,3.238,2.332,50.0
45.47,3.251,2.077,133.0
45.468,3.263,1.826,150.0
45.472,3.274,1.575,150.0
0.0,0.0,0.0,0.0
45.46,3.308,2.596,150.0
45.456,3.318,2.344,150.0
45.462,3.329,2.088,150.0
0.0,0.0,0.0,0.0
0.0,0.0,0.0,0.0
41.974,3.117,2.639,95.0
43.682,3.254,2.503,125.0
43.677,3.264,2.261,115.0
43.686,3.274,2.015,137.0
43.681,3.285,1.773,150.0
43.68,3.295,1.531,150.0
0.0,0.0,0.0,0.0
43.681,3.329,2.511,137.0
43.604,3.333,2.265,72.0
0.0,0.0,0.0,0.0
41.892,3.222,1.707,5.0
41.87,3.23,1.474,30.0
0.0,0.0,0.0,0.0
41.881,3.263,2.413,115.0
41.889,3.273,2.181,129.0
41.868,3.281,1.942,88.0
41.883,3.292,1.711,150.0
41.888,3.303,1.478,138.0
0.0,0.0,0.0,0.0
0.0,0.0,0.0,0.0
0.0,0.0,0.0,0.0
40.075,3.208,1.863,4.0
40.076,3.217,1.64,25.0
40.093,3.228,1.418,83.0
40.089,3.25,2.54,131.0
40.101,3.259,2.316,122.0
40.086,3.266,2.092,136.0
40.089,3.276,1.865,142.0
40.081,3.284,1.641,150.0
40.093,3.294,1.419,139.0
40.091,3.316,2.54,122.0
40.092,3.325,2.317,116.0
40.09,3.333,2.092,114.0
40.09,3.342,1.865,129.0
40.096,3.351,1.641,150.0
40.101,3.361,1.418,130.0
40.096,3.382,2.54,134.0
40.088,3.39,2.315,114.0
40.076,3.397,2.09,76.0
40.06,3.405,1.862,51.0
40.078,3.415,1.639,13.0
40.09,3.425,1.416,3.0
87.067,7.488,5.51,94.0
87.072,7.506,5.023,85.0
87.069,7.524,4.535,60.0
87.073,7.542,4.039,45.0
87.071,7.561,3.553,35.0
87.097,7.583,3.068,17.0
87.124,7.633,5.505,4.0
86.889,7.63,5.003,1.0
0.0,0.0,0.0,0.0
83.012,7.324,3.841,1.0
83.091,7.349,3.38,2.0
83.021,7.361,2.913,2.0
82.926,7.398,5.228,11.0
82.917,7.414,4.762,10.0
82.915,7.429,4.296,12.0
82.918,7.446,3.824,16.0
82.935,7.464,3.361,26.0
82.919,7.48,2.895,16.0
82.899,7.525,5.212,42.0
82.891,7.54,4.746,35.0
82.92,7.559,4.282,40.0
82.894,7.572,3.807,23.0
82.943,7.594,3.344,13.0
82.994,7.616,2.881,2.0
82.908,7.655,5.195,4.0
82.983,7.678,4.732,3.0
82.895,7.685,4.261,28.0
83.05,7.715,3.794,4.0
83.082,7.735,3.329,1.0
69.277,6.464,2.388,5.0
85.643,8.038,5.344,10.0
85.588,8.049,4.859,9.0
82.927,7.815,4.241,4.0
82.96,7.834,3.767,3.0
85.413,8.081,3.399,11.0
68.211,6.467,2.331,5.0
84.115,8.022,5.225,8.0
84.032,8.029,4.745,10.0
83.8,8.021,4.26,6.0
83.13,7.974,3.749,6.0
83.956,8.068,3.315,8.0
