X,Y,Z,Reflectivity
23.543,1.012,2.765,21.0
23.549,1.017,2.635,26.0
23.56,1.022,2.502,37.0
23.555,1.026,2.37,41.0
23.549,1.03,2.239,42.0
23.527,1.037,2.905,45.0
23.529,1.041,2.773,53.0
23.518,1.045,2.64,59.0
23.524,1.05,2.507,68.0
23.54,1.055,2.378,75.0
23.541,1.06,2.247,75.0
23.516,1.067,2.912,72.0
23.522,1.071,2.781,71.0
23.513,1.075,2.648,69.0
23.514,1.08,2.514,72.0
23.534,1.085,2.385,74.0
23.534,1.089,2.253,73.0
23.516,1.097,2.919,55.0
23.528,1.102,2.788,49.0
23.524,1.106,2.656,46.0
23.542,1.111,2.524,45.0
23.551,1.116,2.393,45.0
23.555,1.12,2.262,47.0
23.529,1.127,2.927,20.0
23.529,1.132,2.795,12.0
23.527,1.136,2.662,6.0
23.551,1.141,2.53,2.0
23.549,1.145,2.398,0.0
23.544,1.15,2.266,0.0
0.0,0.0,0.0,0.0
0.0,0.0,0.0,0.0
0.0,0.0,0.0,0.0
0.0,0.0,0.0,0.0
0.0,0.0,0.0,0.0
0.0,0.0,0.0,0.0
0.0,0.0,0.0,0.0
0.0,0.0,0.0,0.0
0.0,0.0,0.0,0.0
0.0,0.0,0.0,0.0
0.0,0.0,0.0,0.0
0.0,0.0,0.0,0.0
0.0,0.0,0.0,0.0
0.0,0.0,0.0,0.0
0.0,0.0,0.0,0.0
0.0,0.0,0.0,0.0
0.0,0.0,0.0,0.0
0.0,0.0,0.0,0.0
0.0,0.0,0.0,0.0
0.0,0.0,0.0,0.0
0.0,0.0,0.0,0.0
0.0,0.0,0.0,0.0
0.0,0.0,0.0,0.0
0.0,0.0,0.0,0.0
0.0,0.0,0.0,0.0
0.0,0.0,0.0,0.0
0.0,0.0,0.0,0.0
0.0,0.0,0.0,0.0
0.0,0.0,0.0,0.0
0.0,0.0,0.0,0.0
0.0,0.0,0.0,0.0
0.0,0.0,0.0,0.0
0.0,0.0,0.0,0.0
0.0,0.0,0.0,0.0
0.0,0.0,0.0,0.0
0.0,0.0,0.0,0.0
0.0,0.0,0.0,0.0
0.0,0.0,0.0,0.0
0.0,0.0,0.0,0.0
0.0,0.0,0.0,0.0
0.0,0.0,0.0,0.0
0.0,0.0,0.0,0.0
0.0,0.0,0.0,0.0
0.0,0.0,0.0,0.0
0.0,0.0,0.0,0.0
0.0,0.0,0.0,0.0
0.0,0.0,0.0,0.0
0.0,0.0,0.0,0.0
0.0,0.0,0.0,0.0
0.0,0.0,0.0,0.0
0.0,0.0,0.0,0.0
0.0,0.0,0.0,0.0
0.0,0.0,0.0,0.0
0.0,0.0,0.0,0.0
0.0,0.0,0.0,0.0
0.0,0.0,0.0,0.0
0.0,0.0,0.0,0.0
0.0,0.0,0.0,0.0
0.0,0.0,0.0,0.0
0.0,0.0,0.0,0.0
0.0,0.0,0.0,0.0
0.0,0.0,0.0,0.0
0.0,0.0,0.0,0.0
0.0,0.0,0.0,0.0
0.0,0.0,0.0,0.0
0.0,0.0,0.0,0.0
100.664,6.295,12.492,5.0
100.713,6.312,11.922,5.0
100.615,6.32,11.336,5.0
100.573,6.33,10.749,6.0
100.491,6.34,10.168,7.0
100.408,6.349,9.591,6.0
99.882,6.358,12.363,34.0
99.88,6.371,11.791,32.0
99.878,6.385,11.22,31.0
99.89,6.398,10.642,34.0
99.9,6.413,10.075,34.0
99.905,6.427,9.508,34.0
99.866,6.468,12.325,31.0
99.893,6.482,11.756,30.0
99.897,6.495,11.185,32.0
99.886,6.509,10.603,36.0
99.903,6.522,10.037,34.0
99.897,6.535,9.469,37.0
99.888,6.579,12.287,29.0
99.873,6.59,11.712,31.0
99.909,6.603,11.146,33.0
99.888,6.615,10.563,37.0
99.894,6.629,9.993,37.0
99.916,6.642,9.428,35.0
99.87,6.682,12.241,32.0
99.878,6.694,11.669,33.0
99.897,6.708,11.099,32.0
99.901,6.721,10.517,35.0
99.897,6.732,9.948,37.0
99.931,6.747,9.382,36.0
99.881,6.787,12.194,33.0
99.905,6.8,11.623,37.0
99.878,6.809,11.047,35.0
99.893,6.822,10.467,35.0
99.924,6.836,9.9,34.0
99.921,6.848,9.33,35.0
99.877,6.888,12.141,32.0
99.881,6.899,11.567,35.0
99.912,6.912,10.998,35.0
99.895,6.922,10.414,39.0
99.904,6.934,9.844,37.0
99.922,6.947,9.276,34.0
99.898,6.989,12.087,33.0
99.902,7.001,11.512,34.0
99.912,7.011,10.94,36.0
99.89,7.019,10.355,37.0
99.921,7.032,9.787,36.0
99.913,7.042,9.216,37.0
99.883,7.084,12.025,36.0
99.91,7.097,11.452,36.0
99.899,7.105,10.877,36.0
99.909,7.116,10.295,38.0
99.911,7.126,9.724,37.0
99.927,7.138,9.154,36.0
99.893,7.18,11.961,36.0
99.917,7.19,11.389,34.0
99.897,7.198,10.812,32.0
99.924,7.208,10.232,38.0
99.917,7.218,9.659,36.0
99.927,7.229,9.089,34.0
99.579,7.246,11.857,4.0
99.773,7.27,11.304,5.0
99.614,7.267,10.712,5.0
99.571,7.272,10.126,6.0
99.664,7.289,9.564,2.0
99.571,7.292,8.986,2.0
99.031,7.295,11.719,8.0
99.019,7.301,11.147,7.0
99.012,7.31,10.575,7.0
99.044,7.321,9.999,8.0
99.017,7.328,9.429,8.0
99.047,7.339,8.865,8.0
98.99,7.378,11.639,40.0
99.006,7.386,11.069,43.0
99.003,7.393,10.498,41.0
98.995,7.401,9.918,42.0
99.021,7.41,9.353,53.0
99.021,7.419,8.786,48.0
98.957,7.457,11.557,18.0
98.987,7.465,10.989,35.0
98.977,7.471,10.417,20.0
98.967,7.479,9.836,22.0
99.006,7.49,9.271,20.0
99.022,7.499,8.706,19.0
0.0,0.0,0.0,0.0
98.984,7.544,10.905,22.0
95.04,7.25,9.922,1.0
94.877,7.243,9.35,1.0
94.974,7.259,8.813,1.0
94.92,7.261,8.265,1.0
94.872,7.296,10.919,4.0
94.826,7.299,10.366,5.0
94.852,7.307,9.821,7.0
94.866,7.313,9.267,5.0
94.88,7.322,8.722,5.0
94.86,7.326,8.177,5.0
94.824,7.363,10.829,15.0
94.844,7.369,10.283,14.0
94.814,7.372,9.732,17.0
94.814,7.378,9.175,16.0
94.852,7.387,8.633,15.0
94.845,7.392,8.089,15.0
94.802,7.428,10.737,45.0
94.818,7.433,10.19,51.0
94.808,7.438,9.641,51.0
94.825,7.444,9.087,54.0
94.827,7.45,8.541,58.0
94.835,7.456,7.997,49.0
94.793,7.491,10.644,17.0
94.802,7.496,10.096,17.0
94.78,7.498,9.545,16.0
94.801,7.504,8.992,16.0
94.829,7.511,8.449,16.0
94.827,7.517,7.903,18.0
94.866,7.556,10.558,5.0
94.841,7.559,10.005,6.0
94.847,7.562,9.458,5.0
94.814,7.564,8.898,6.0
94.868,7.573,8.356,7.0
94.882,7.579,7.812,6.0
94.901,7.617,10.463,2.0
94.948,7.624,9.918,3.0
94.946,7.627,9.369,2.0
94.773,7.617,8.795,3.0
94.902,7.631,8.26,3.0
94.977,7.641,7.721,2.0
98.553,7.966,10.76,7.0
98.701,7.981,10.204,5.0
98.778,7.989,9.641,5.0
98.75,7.99,9.058,2.0
98.397,7.966,8.459,1.0
98.373,7.968,7.891,1.0
98.212,7.99,10.617,9.0
98.068,7.98,10.032,8.0
97.9,7.969,9.449,8.0
97.966,7.977,8.879,9.0
97.994,7.982,8.316,9.0
98.169,8.0,7.767,9.0
97.144,7.951,10.393,12.0
97.296,7.965,9.844,10.0
97.497,7.983,9.3,10.0
97.717,8.003,8.747,9.0
97.935,8.024,8.201,11.0
97.941,8.027,7.638,10.0
96.955,7.98,10.26,10.0
97.156,7.998,9.718,12.0
97.294,8.011,9.167,11.0
97.425,8.022,8.607,10.0
97.384,8.021,8.042,8.0
97.253,8.013,7.471,9.0
96.736,8.003,10.122,10.0
96.663,7.996,9.555,7.0
96.62,7.995,8.99,9.0
96.517,7.987,8.413,8.0
96.505,7.987,7.855,8.0
40.07,3.317,3.031,30.0
95.936,7.973,9.924,5.0
95.962,7.974,9.37,7.0
96.115,7.988,8.828,9.0
96.256,8.0,8.275,9.0
96.529,8.023,7.741,10.0
40.071,3.331,2.983,74.0
87.107,7.269,8.904,1.0
96.188,8.025,9.274,2.0
96.162,8.023,8.715,1.0
96.42,8.045,8.17,4.0
96.551,8.056,7.625,5.0
40.074,3.344,2.933,88.0
87.12,7.296,8.796,1.0
87.003,7.285,8.28,1.0
87.225,7.302,7.796,1.0
0.0,0.0,0.0,0.0
87.216,7.302,6.777,3.0
40.073,3.355,2.883,78.0
87.075,7.315,8.68,4.0
87.181,7.322,8.185,4.0
87.074,7.312,7.67,2.0
87.086,7.312,7.158,2.0
40.068,3.364,3.062,8.0
40.081,3.365,2.832,79.0
87.003,7.328,8.559,4.0
87.066,7.332,8.06,4.0
87.108,7.333,7.559,3.0
87.144,7.335,7.049,3.0
40.081,3.373,3.011,57.0
40.073,3.372,2.779,100.0
87.043,7.347,8.449,5.0
87.111,7.35,7.95,4.0
87.123,7.349,7.446,4.0
87.146,7.349,6.935,4.0
40.06,3.377,2.956,74.0
40.077,3.378,2.727,150.0
87.037,7.358,8.331,6.0
87.034,7.355,7.826,5.0
87.127,7.36,7.33,4.0
87.126,7.358,6.818,7.0
40.066,3.382,2.904,78.0
40.08,3.382,2.674,150.0
87.071,7.37,8.218,8.0
87.093,7.368,7.715,5.0
87.113,7.366,7.212,5.0
87.074,7.36,6.696,8.0
40.083,3.387,2.851,83.0
40.081,3.385,2.62,115.0
87.03,7.371,8.095,6.0
87.103,7.373,7.596,5.0
87.06,7.365,7.089,5.0
40.059,3.387,3.026,40.0
40.081,3.388,2.796,107.0
40.083,3.387,2.565,117.0
87.073,7.376,7.979,7.0
87.108,7.374,7.476,6.0
87.036,7.363,6.966,5.0
40.056,3.387,2.97,75.0
40.084,3.388,2.741,150.0
40.074,3.385,2.509,117.0
87.104,7.375,7.86,6.0
87.085,7.369,7.352,6.0
87.055,7.362,6.845,6.0
40.046,3.384,2.913,78.0
40.078,3.385,2.684,150.0
40.076,3.383,2.453,122.0
87.065,7.366,7.732,5.0
87.078,7.361,7.228,4.0
87.078,7.357,6.724,6.0
40.049,3.381,2.856,78.0
40.076,3.381,2.627,122.0
40.081,3.379,2.396,124.0
87.066,7.356,7.607,4.0
87.073,7.35,7.102,4.0
40.058,3.379,3.035,37.0
40.079,3.378,2.801,100.0
40.083,3.376,2.57,124.0
40.085,3.374,2.339,121.0
87.123,7.346,7.485,4.0
87.073,7.336,6.977,4.0
40.064,3.372,2.978,77.0
40.089,3.372,2.744,150.0
40.083,3.369,2.512,134.0
40.085,3.366,2.281,109.0
87.068,7.324,7.354,3.0
87.171,7.326,6.857,3.0
40.066,3.364,2.92,72.0
40.082,3.362,2.685,150.0
40.087,3.36,2.454,118.0
40.088,3.358,2.223,105.0
87.152,7.31,7.235,1.0
87.179,7.304,6.732,3.0
40.073,3.354,2.862,79.0
40.082,3.352,2.627,110.0
40.081,3.349,2.396,115.0
40.083,3.347,2.165,106.0
96.158,8.037,7.842,3.0
40.062,3.345,3.035,41.0
40.077,3.343,2.804,107.0
40.076,3.339,2.569,118.0
40.087,3.337,2.338,114.0
40.089,3.335,2.107,106.0
96.611,8.043,7.735,11.0
40.096,3.334,2.978,91.0
40.086,3.33,2.745,150.0
40.082,3.326,2.509,116.0
40.092,3.323,2.279,107.0
40.086,3.32,2.047,114.0
97.078,8.046,7.629,10.0
40.08,3.318,2.917,84.0
40.083,3.314,2.685,134.0
40.08,3.31,2.449,125.0
40.092,3.308,2.219,113.0
40.088,3.304,1.987,114.0
40.055,3.302,3.087,3.0
40.071,3.299,2.856,82.0
40.086,3.296,2.625,114.0
40.08,3.292,2.389,130.0
40.081,3.289,2.158,125.0
40.091,3.286,1.928,123.0
40.072,3.285,3.028,61.0
40.092,3.282,2.797,108.0
40.088,3.278,2.565,132.0
40.078,3.273,2.329,119.0
40.083,3.269,2.098,122.0
40.087,3.266,1.868,134.0
40.09,3.266,2.968,102.0
40.078,3.261,2.736,150.0
40.088,3.257,2.505,118.0
40.081,3.252,2.269,115.0
40.09,3.248,2.038,102.0
40.097,3.245,1.808,114.0
40.094,3.244,2.909,105.0
40.09,3.24,2.676,116.0
40.091,3.235,2.445,116.0
40.057,3.227,2.208,75.0
40.064,3.224,1.977,22.0
41.915,3.368,1.827,3.0
40.061,3.218,2.846,67.0
40.097,3.216,2.616,19.0
0.0,0.0,0.0,0.0
0.0,0.0,0.0,0.0
41.863,3.343,2.003,71.0
41.888,3.34,1.763,150.0
40.166,3.201,2.792,126.0
0.0,0.0,0.0,0.0
41.892,3.327,2.428,110.0
41.871,3.321,2.182,99.0
41.888,3.317,1.941,98.0
41.883,3.312,1.7,139.0
40.174,3.174,2.732,150.0
41.876,3.303,2.606,127.0
41.876,3.297,2.364,131.0
41.892,3.294,2.12,114.0
41.887,3.288,1.878,139.0
41.893,3.283,1.638,129.0
40.169,3.145,2.671,150.0
41.873,3.272,2.543,116.0
41.893,3.268,2.302,116.0
41.875,3.261,2.056,102.0
41.888,3.256,1.816,139.0
41.884,3.251,1.575,97.0
40.169,3.114,2.611,127.0
41.866,3.239,2.479,83.0
41.871,3.234,2.239,16.0
43.667,3.366,2.079,5.0
0.0,0.0,0.0,0.0
43.688,3.356,1.578,127.0
0.0,0.0,0.0,0.0
43.681,3.345,2.522,125.0
43.67,3.337,2.27,125.0
43.678,3.331,2.015,150.0
43.675,3.325,1.763,150.0
43.681,3.32,1.513,150.0
0.0,0.0,0.0,0.0
43.677,3.307,2.457,131.0
43.678,3.3,2.205,134.0
43.671,3.293,1.949,150.0
43.674,3.287,1.699,150.0
43.68,3.281,1.448,139.0
0.0,0.0,0.0,0.0
43.669,3.267,2.391,97.0
43.684,3.262,2.141,110.0
43.674,3.254,1.885,114.0
43.667,3.246,1.633,59.0
45.469,3.374,1.44,6.0
43.658,3.232,2.578,20.0
0.0,0.0,0.0,0.0
45.471,3.352,2.161,141.0
45.46,3.344,1.895,136.0
45.47,3.337,1.634,150.0
45.485,3.331,1.374,36.0
45.461,3.322,2.617,150.0
45.458,3.314,2.355,150.0
45.464,3.306,2.094,150.0
45.47,3.299,1.829,150.0
45.465,3.292,1.568,150.0
40.659,2.937,1.169,77.0
45.451,3.275,2.55,150.0
45.456,3.267,2.288,150.0
45.446,3.258,2.026,59.0
45.449,3.251,1.761,6.0
99.962,7.134,3.301,18.0
41.429,2.95,1.13,70.0
99.929,7.095,5.46,26.0
99.952,7.078,4.887,32.0
99.968,7.061,4.313,33.0
99.979,7.044,3.729,41.0
99.978,7.027,3.157,32.0
41.999,2.944,1.085,110.0
99.958,6.986,5.317,34.0
99.969,6.969,4.742,33.0
99.965,6.949,4.167,33.0
99.975,6.931,3.584,38.0
42.791,2.959,1.289,11.0
42.998,2.965,1.048,72.0
99.94,6.871,5.17,37.0
99.966,6.853,4.597,34.0
99.952,6.833,4.024,33.0
99.952,6.813,3.44,37.0
43.579,2.963,1.25,54.0
43.609,2.956,1.001,81.0
99.956,6.753,5.029,32.0
99.955,6.733,4.454,34.0
99.957,6.714,3.882,37.0
99.957,6.695,3.299,45.0
44.507,2.972,1.214,73.0
44.783,2.982,0.965,120.0
99.964,6.633,4.889,34.0
99.97,6.612,4.315,45.0
99.941,6.59,3.74,36.0
99.957,6.572,3.159,35.0
45.209,2.963,1.17,127.0
45.211,2.954,0.911,108.0
99.943,6.505,4.748,31.0
99.939,6.484,4.174,28.0
99.998,6.467,3.604,25.0
100.192,6.46,3.028,10.0
45.164,2.903,1.106,0.0
0.0,0.0,0.0,0.0
100.785,6.43,4.649,1.0
197.784,12.577,7.99,7.0
112.458,7.127,3.9,3.0
45.162,2.852,1.303,10.0
112.456,7.081,2.602,10.0
45.207,2.837,0.787,5.0
0.0,0.0,0.0,0.0
197.582,12.303,7.716,10.0
162.632,10.091,5.42,6.0
45.186,2.793,1.243,7.0
132.917,8.19,2.897,27.0
99.579,6.115,1.601,5.0
198.49,12.131,8.621,16.0
197.556,12.03,7.452,23.0
163.23,9.901,5.221,11.0
163.297,9.872,4.275,4.0
111.987,6.746,2.293,15.0
45.229,2.715,0.667,5.0
198.592,11.86,8.363,16.0
198.041,11.78,7.207,10.0
163.457,9.685,5.014,18.0
45.187,2.668,1.123,31.0
45.207,2.658,0.866,3.0
100.122,5.866,1.346,13.0
200.667,11.692,8.186,7.0
162.608,9.438,5.705,4.0
45.194,2.612,1.327,6.0
0.0,0.0,0.0,0.0
120.238,6.897,2.148,2.0
113.664,6.494,1.383,11.0
198.824,11.294,7.858,14.0
162.61,9.2,5.499,13.0
45.196,2.546,1.27,56.0
45.192,2.535,1.007,15.0
45.227,2.527,0.751,2.0
120.055,6.681,1.31,8.0
180.652,9.992,6.913,18.0
162.752,8.963,5.299,6.0
163.344,8.957,4.387,5.0
200.292,10.935,4.219,7.0
99.6,5.415,1.53,9.0
45.226,2.448,0.437,7.0
180.465,9.705,6.682,19.0
163.431,8.75,5.119,15.0
45.204,2.409,1.158,7.0
45.173,2.396,0.895,1.0
99.811,5.27,1.411,13.0
99.79,5.246,0.843,5.0
180.609,9.431,6.468,15.0
45.17,2.347,1.36,3.0
204.197,10.561,4.987,8.0
45.2,2.326,0.842,2.0
45.206,2.315,0.585,48.0
45.213,2.305,0.328,86.0
162.659,8.234,5.631,13.0
45.195,2.276,1.307,13.0
45.174,2.263,1.049,0.0
99.354,4.953,1.733,1.0
132.042,6.55,1.553,7.0
23.647,1.167,0.143,1.0
23.626,1.157,0.79,4.0
23.607,1.15,0.655,16.0
23.626,1.144,0.521,36.0
23.624,1.138,0.384,38.0
23.616,1.132,0.25,36.0
23.615,1.126,0.116,39.0
23.59,1.115,0.761,49.0
23.588,1.109,0.627,55.0
23.579,1.102,0.493,68.0
23.584,1.096,0.357,65.0
23.596,1.091,0.223,68.0
23.6,1.085,0.089,66.0
23.596,1.076,0.735,79.0
23.599,1.07,0.601,150.0
23.593,1.063,0.467,93.0
23.586,1.057,0.331,62.0
23.591,1.051,0.197,56.0
23.605,1.045,0.063,46.0
23.603,1.036,0.71,45.0
23.615,1.03,0.576,43.0
23.623,1.024,0.442,41.0
23.629,1.018,0.306,37.0
23.641,1.012,0.172,34.0
45.182,1.922,0.073,8.0
45.205,1.906,1.311,11.0
100.488,4.209,2.346,5.0
100.523,4.184,1.778,8.0
40.354,1.668,0.481,4.0
62.061,2.548,0.388,14.0
40.348,1.645,0.024,150.0
40.366,1.63,1.129,75.0
40.39,1.62,0.901,116.0
40.39,1.608,0.672,133.0
40.387,1.597,0.44,150.0
40.489,1.59,0.211,150.0
40.343,1.573,-0.016,150.0
41.52,1.602,1.119,84.0
41.915,1.606,0.893,78.0
42.086,1.6,0.658,150.0
43.491,1.641,0.43,150.0
43.533,1.63,0.184,87.0
42.696,1.587,-0.059,2.0
44.269,1.627,1.15,89.0
44.959,1.639,0.914,56.0
45.034,1.63,0.661,4.0
71.151,2.554,0.635,12.0
40.123,1.428,0.131,11.0
40.13,1.417,-0.094,150.0
163.356,5.704,4.09,4.0
0.0,0.0,0.0,0.0
70.96,2.435,0.975,5.0
70.958,2.415,0.567,23.0
40.101,1.353,0.094,77.0
40.025,1.338,-0.131,119.0
40.122,1.326,0.967,150.0
40.123,1.314,0.741,150.0
40.118,1.301,0.514,140.0
40.123,1.289,0.284,139.0
40.124,1.278,0.058,150.0
40.091,1.264,-0.168,68.0
40.127,1.25,0.932,150.0
40.133,1.238,0.706,150.0
40.123,1.225,0.479,129.0
40.132,1.214,0.249,116.0
40.13,1.202,0.023,150.0
40.048,1.187,-0.202,60.0
40.12,1.173,0.897,150.0
40.124,1.161,0.671,148.0
41.921,1.2,0.465,160.0
0.0,0.0,0.0,0.0
40.138,1.125,-0.01,157.0
40.033,1.109,-0.235,42.0
0.0,0.0,0.0,0.0
0.0,0.0,0.0,0.0
0.0,0.0,0.0,0.0
0.0,0.0,0.0,0.0
0.0,0.0,0.0,0.0
41.839,1.078,-0.279,2.0
129.027,3.275,2.679,10.0
115.518,2.895,1.749,3.0
70.778,1.75,0.673,28.0
45.608,1.113,0.172,16.0
0.0,0.0,0.0,0.0
38.814,0.923,-0.289,2.0
179.191,4.188,3.582,24.0
128.673,2.966,1.849,27.0
70.892,1.611,0.62,5.0
79.538,1.783,0.241,0.0
0.0,0.0,0.0,0.0
38.428,0.837,-0.314,3.0
179.269,3.835,3.455,20.0
128.752,2.712,1.758,15.0
113.756,2.358,0.914,15.0
0.0,0.0,0.0,0.0
48.068,0.966,-0.157,1.0
37.123,0.734,-0.329,1.0
55.205,1.069,1.025,15.0
55.187,1.051,0.715,42.0
55.167,1.032,0.406,65.0
55.152,1.014,0.091,61.0
47.728,0.861,-0.188,0.0
35.793,0.634,-0.342,0.0
55.181,0.956,0.988,53.0
55.2,0.938,0.679,45.0
55.186,0.92,0.37,7.0
55.239,0.903,0.055,19.0
44.852,0.719,-0.205,2.0
19.696,0.309,-0.2,1.0
19.736,0.302,0.341,10.0
19.748,0.295,0.23,3.0
19.781,0.289,0.12,0.0
57.107,0.817,0.023,2.0
19.671,0.274,-0.102,12.0
19.647,0.267,-0.211,16.0
19.715,0.26,0.329,12.0
19.754,0.254,0.219,28.0
19.753,0.248,0.108,10.0
19.68,0.24,-0.003,9.0
19.635,0.233,-0.113,16.0
19.645,0.226,-0.223,17.0
19.743,0.22,0.318,10.0
19.739,0.213,0.208,16.0
19.676,0.206,0.097,12.0
19.641,0.198,-0.014,13.0
19.635,0.192,-0.123,16.0
19.65,0.185,-0.233,16.0
19.65,0.178,0.307,10.0
19.67,0.171,0.197,14.0
19.642,0.164,0.087,12.0
19.62,0.158,-0.023,17.0
19.657,0.151,-0.133,12.0
0.0,0.0,0.0,0.0
19.613,0.136,0.296,12.0
19.656,0.13,0.188,15.0
19.645,0.123,0.078,12.0
19.661,0.116,-0.033,9.0
46.629,0.261,-0.338,0.0
19.745,0.104,-0.253,0.0
19.615,0.096,0.288,18.0
19.663,0.089,0.179,11.0
19.724,0.082,0.07,27.0
19.758,0.076,-0.041,57.0
19.765,0.069,-0.151,58.0
19.758,0.062,-0.261,32.0
19.624,0.054,0.28,13.0
19.744,0.048,0.172,16.0
19.737,0.041,0.062,13.0
19.74,0.034,-0.049,80.0
19.761,0.027,-0.159,2.0
19.768,0.021,-0.269,1.0
19.633,0.013,0.273,14.0
19.782,0.007,0.165,2.0
19.728,0.0,0.055,8.0
19.736,-0.007,-0.056,9.0
19.751,-0.014,-0.166,5.0
19.751,-0.021,-0.275,0.0
19.636,-0.027,0.266,12.0
19.69,-0.035,0.158,14.0
19.7,-0.041,0.048,16.0
19.715,-0.048,-0.062,14.0
19.721,-0.055,-0.171,15.0
19.756,-0.063,-0.281,15.0
19.672,-0.069,0.261,12.0
19.696,-0.077,0.152,14.0
19.713,-0.084,0.043,13.0
19.721,-0.091,-0.068,10.0
19.716,-0.098,-0.177,16.0
19.741,-0.105,-0.286,16.0
19.717,-0.112,0.256,6.0
19.784,-0.119,0.148,3.0
19.762,-0.126,0.038,7.0
19.729,-0.133,-0.072,11.0
19.741,-0.14,-0.182,15.0
19.747,-0.148,-0.291,16.0
113.215,-0.886,1.449,1.0
112.879,-0.925,0.82,2.0
0.0,0.0,0.0,0.0
19.728,-0.176,-0.076,0.0
19.794,-0.183,-0.186,3.0
19.784,-0.191,-0.296,0.0
19.753,-0.197,0.249,0.0
112.829,-1.168,0.799,2.0
0.0,0.0,0.0,0.0
0.0,0.0,0.0,0.0
0.0,0.0,0.0,0.0
34.744,-0.41,-0.525,0.0
19.746,-0.239,0.246,16.0
19.767,-0.246,0.137,21.0
0.0,0.0,0.0,0.0
0.0,0.0,0.0,0.0
0.0,0.0,0.0,0.0
34.771,-0.485,-0.529,0.0
19.763,-0.281,0.244,9.0
19.764,-0.289,0.135,22.0
0.0,0.0,0.0,0.0
0.0,0.0,0.0,0.0
42.624,-0.67,-0.417,0.0
34.478,-0.554,-0.528,0.0
112.868,-1.848,1.387,60.0
0.0,0.0,0.0,0.0
0.0,0.0,0.0,0.0
0.0,0.0,0.0,0.0
0.0,0.0,0.0,0.0
33.828,-0.616,-0.519,0.0
112.902,-2.092,1.383,23.0
113.126,-2.137,0.763,2.0
0.0,0.0,0.0,0.0
0.0,0.0,0.0,0.0
0.0,0.0,0.0,0.0
34.2,-0.696,-0.525,0.0
113.042,-2.332,1.385,14.0
0.0,0.0,0.0,0.0
0.0,0.0,0.0,0.0
0.0,0.0,0.0,0.0
0.0,0.0,0.0,0.0
34.903,-0.785,-0.535,0.0
0.0,0.0,0.0,0.0
0.0,0.0,0.0,0.0
0.0,0.0,0.0,0.0
0.0,0.0,0.0,0.0
0.0,0.0,0.0,0.0
34.626,-0.852,-0.528,0.0
161.862,-4.028,2.003,29.0
160.718,-4.058,1.106,12.0
0.0,0.0,0.0,0.0
0.0,0.0,0.0,0.0
0.0,0.0,0.0,0.0
34.445,-0.92,-0.521,1.0
161.878,-4.371,2.021,23.0
160.668,-4.396,1.126,17.0
0.0,0.0,0.0,0.0
0.0,0.0,0.0,0.0
0.0,0.0,0.0,0.0
35.014,-1.009,-0.525,0.0
161.872,-4.71,2.046,21.0
160.75,-4.737,1.151,14.0
0.0,0.0,0.0,0.0
0.0,0.0,0.0,0.0
0.0,0.0,0.0,0.0
0.0,0.0,0.0,0.0
161.883,-5.048,2.076,30.0
160.679,-5.071,1.182,11.0
0.0,0.0,0.0,0.0
0.0,0.0,0.0,0.0
0.0,0.0,0.0,0.0
0.0,0.0,0.0,0.0
162.02,-5.389,2.115,31.0
160.715,-5.404,1.219,11.0
0.0,0.0,0.0,0.0
0.0,0.0,0.0,0.0
0.0,0.0,0.0,0.0
0.0,0.0,0.0,0.0
162.087,-5.727,2.158,22.0
160.706,-5.738,1.263,14.0
0.0,0.0,0.0,0.0
0.0,0.0,0.0,0.0
0.0,0.0,0.0,0.0
35.418,-1.317,-0.497,0.0
162.236,-6.071,2.209,4.0
0.0,0.0,0.0,0.0
0.0,0.0,0.0,0.0
0.0,0.0,0.0,0.0
44.319,-1.723,-0.367,0.0
0.0,0.0,0.0,0.0
0.0,0.0,0.0,0.0
101.358,-4.036,0.862,3.0
0.0,0.0,0.0,0.0
0.0,0.0,0.0,0.0
45.099,-1.844,-0.357,0.0
37.226,-1.536,-0.497,0.0
101.55,-4.212,1.454,150.0
101.475,-4.244,0.901,24.0
0.0,0.0,0.0,0.0
0.0,0.0,0.0,0.0
45.502,-1.953,-0.342,0.0
0.0,0.0,0.0,0.0
101.518,-4.415,1.494,60.0
0.0,0.0,0.0,0.0
0.0,0.0,0.0,0.0
0.0,0.0,0.0,0.0
0.0,0.0,0.0,0.0
38.106,-1.726,-0.477,0.0
0.0,0.0,0.0,0.0
101.529,-4.656,0.988,151.0
0.0,0.0,0.0,0.0
0.0,0.0,0.0,0.0
0.0,0.0,0.0,0.0
0.0,0.0,0.0,0.0
0.0,0.0,0.0,0.0
101.544,-4.859,1.037,172.0
0.0,0.0,0.0,0.0
0.0,0.0,0.0,0.0
0.0,0.0,0.0,0.0
0.0,0.0,0.0,0.0
0.0,0.0,0.0,0.0
101.539,-5.058,1.09,161.0
103.162,-5.175,0.549,4.0
0.0,0.0,0.0,0.0
0.0,0.0,0.0,0.0
0.0,0.0,0.0,0.0
0.0,0.0,0.0,0.0
101.549,-5.256,1.146,3.0
102.481,-5.338,0.602,4.0
0.0,0.0,0.0,0.0
0.0,0.0,0.0,0.0
0.0,0.0,0.0,0.0
102.158,-5.447,1.764,1.0
0.0,0.0,0.0,0.0
101.473,-5.483,0.656,150.0
101.41,-5.514,0.098,2.0
0.0,0.0,0.0,0.0
0.0,0.0,0.0,0.0
140.651,-7.771,2.516,11.0
101.71,-5.653,1.27,1.0
101.496,-5.677,0.719,11.0
0.0,0.0,0.0,0.0
0.0,0.0,0.0,0.0
43.685,-2.488,-0.402,0.0
149.49,-8.538,2.77,13.0
149.497,-8.589,1.963,9.0
149.63,-8.648,1.158,3.0
0.0,0.0,0.0,0.0
0.0,0.0,0.0,0.0
0.0,0.0,0.0,0.0
148.656,-8.765,2.854,23.0
149.45,-8.863,2.064,18.0
149.928,-8.943,1.263,12.0
0.0,0.0,0.0,0.0
0.0,0.0,0.0,0.0
44.058,-2.673,-0.345,0.0
148.069,-9.003,2.946,16.0
148.355,-9.069,2.154,20.0
149.882,-9.214,1.369,15.0
108.667,-6.716,0.396,2.0
0.0,0.0,0.0,0.0
0.0,0.0,0.0,0.0
148.066,-9.272,3.056,12.0
125.343,-7.891,1.913,22.0
125.272,-7.926,1.238,21.0
108.526,-6.904,0.478,1.0
0.0,0.0,0.0,0.0
0.0,0.0,0.0,0.0
117.325,-7.559,2.513,43.0
117.476,-7.606,1.884,20.0
106.069,-6.901,1.131,15.0
99.697,-6.52,0.517,12.0
0.0,0.0,0.0,0.0
0.0,0.0,0.0,0.0
117.25,-7.759,2.604,29.0
0.0,0.0,0.0,0.0
0.0,0.0,0.0,0.0
0.0,0.0,0.0,0.0
0.0,0.0,0.0,0.0
0.0,0.0,0.0,0.0
148.17,-10.063,3.414,15.0
100.093,-6.83,1.769,5.0
100.054,-6.858,1.232,7.0
100.061,-6.891,0.685,7.0
0.0,0.0,0.0,0.0
0.0,0.0,0.0,0.0
109.213,-7.603,2.61,47.0
109.383,-7.65,2.028,17.0
100.094,-7.031,1.319,8.0
100.095,-7.062,0.772,11.0
98.867,-7.006,0.233,4.0
0.0,0.0,0.0,0.0
109.196,-7.784,2.706,36.0
109.364,-7.829,2.123,31.0
100.112,-7.198,1.408,8.0
100.096,-7.227,0.862,12.0
98.914,-7.172,0.322,9.0
0.0,0.0,0.0,0.0
133.105,-9.706,3.418,9.0
126.318,-9.249,2.568,4.0
100.102,-7.36,1.499,9.0
100.052,-7.386,0.953,12.0
99.208,-7.353,0.414,12.0
0.0,0.0,0.0,0.0
129.915,-9.684,3.458,2.0
123.633,-9.251,2.629,2.0
100.08,-7.518,1.593,10.0
100.074,-7.548,1.049,13.0
100.009,-7.572,0.513,12.0
0.0,0.0,0.0,0.0
127.44,-9.702,3.516,28.0
127.468,-9.741,2.835,32.0
100.106,-7.68,1.692,11.0
100.073,-7.705,1.147,17.0
100.066,-7.735,0.613,13.0
0.0,0.0,0.0,0.0
127.495,-9.904,3.644,15.0
127.49,-9.939,2.962,28.0
100.084,-7.829,1.791,10.0
100.112,-7.861,1.247,13.0
100.055,-7.885,0.712,14.0
0.0,0.0,0.0,0.0
115.519,-9.147,3.417,18.0
127.513,-10.132,3.091,39.0
100.024,-7.974,1.891,5.0
100.057,-8.005,1.348,12.0
100.083,-8.035,0.814,13.0
0.0,0.0,0.0,0.0
148.588,-11.986,4.55,10.0
127.514,-10.319,3.223,27.0
116.513,-9.461,2.324,31.0
100.037,-8.149,1.452,11.0
90.404,-7.39,0.831,33.0
90.42,-7.417,0.349,25.0
116.599,-9.575,3.694,7.0
127.51,-10.503,3.359,23.0
90.397,-7.47,1.899,51.0
90.408,-7.495,1.409,48.0
90.415,-7.519,0.927,48.0
90.425,-7.544,0.446,29.0
114.371,-9.551,3.745,11.0
114.477,-9.589,3.139,10.0
90.397,-7.595,1.996,36.0
90.396,-7.619,1.506,58.0
90.415,-7.644,1.026,33.0
90.425,-7.668,0.544,31.0
114.29,-9.703,3.869,11.0
114.54,-9.751,3.267,9.0
90.396,-7.718,2.097,36.0
90.385,-7.741,1.608,39.0
90.41,-7.766,1.127,38.0
90.405,-7.789,0.646,33.0
108.416,-9.35,3.793,19.0
114.587,-9.909,3.398,9.0
90.416,-7.841,2.199,11.0
90.381,-7.859,1.709,37.0
90.405,-7.883,1.228,51.0
90.427,-7.906,0.748,31.0
108.205,-9.471,3.907,24.0
114.225,-10.025,3.517,9.0
127.509,-11.219,3.247,20.0
90.407,-7.976,1.812,41.0
90.403,-7.997,1.332,45.0
90.421,-8.021,0.852,38.0
108.015,-9.59,4.025,25.0
109.698,-9.764,3.503,6.0
127.526,-11.379,3.396,22.0
90.377,-8.085,1.916,38.0
90.385,-8.106,1.436,31.0
90.384,-8.127,0.957,35.0
108.001,-9.72,4.15,19.0
108.029,-9.746,3.576,9.0
127.471,-11.526,3.542,14.0
90.379,-8.193,2.022,34.0
90.389,-8.214,1.543,33.0
90.39,-8.234,1.063,34.0
108.692,-9.911,4.306,27.0
108.08,-9.877,3.707,22.0
107.919,-9.885,3.129,13.0
90.366,-8.296,2.131,28.0
90.375,-8.317,1.652,36.0
90.373,-8.337,1.173,35.0
108.396,-10.009,4.426,24.0
148.5,-13.741,5.275,14.0
107.953,-10.011,3.261,6.0
127.507,-11.851,3.162,27.0
90.391,-8.419,1.762,40.0
90.382,-8.437,1.283,31.0
108.887,-10.175,4.58,18.0
108.136,-10.125,3.973,18.0
114.411,-10.734,3.597,8.0
127.517,-11.989,3.318,19.0
90.385,-8.516,1.873,43.0
90.393,-8.534,1.394,34.0
110.206,-10.415,4.77,14.0
108.442,-10.268,4.118,21.0
147.987,-14.041,4.835,15.0
127.491,-12.119,3.477,21.0
90.368,-8.607,1.985,47.0
90.381,-8.626,1.505,43.0
109.64,-10.474,4.884,22.0
108.767,-10.409,4.266,18.0
108.844,-10.436,3.692,17.0
119.134,-11.443,3.397,17.0
90.339,-8.693,2.096,46.0
90.38,-8.713,1.618,53.0
108.005,-10.423,4.947,19.0
0.0,0.0,0.0,0.0
108.506,-10.507,3.816,21.0
116.369,-11.288,3.465,9.0
90.364,-8.781,2.211,10.0
90.356,-8.796,1.731,39.0
107.95,-10.519,5.08,27.0
109.905,-10.726,4.589,23.0
108.406,-10.597,3.951,22.0
148.083,-14.5,4.596,17.0
116.356,-11.412,2.996,58.0
90.34,-8.875,1.848,30.0
108.275,-10.649,5.236,19.0
109.143,-10.75,4.698,23.0
108.66,-10.718,4.101,16.0
108.058,-10.675,3.495,25.0
116.372,-11.515,3.147,41.0
90.261,-8.946,1.963,53.0
108.068,-10.721,5.366,26.0
108.665,-10.795,4.818,20.0
111.456,-11.087,4.349,6.0
108.076,-10.766,3.634,23.0
116.345,-11.606,3.295,34.0
89.057,-8.898,2.051,16.0
108.574,-10.858,5.532,17.0
110.422,-11.058,5.04,10.0
111.132,-11.143,4.483,25.0
108.585,-10.902,3.793,23.0
116.352,-11.697,3.447,19.0
116.37,-11.715,2.831,11.0
108.859,-10.971,5.688,26.0
110.757,-11.174,5.198,10.0
111.108,-11.223,4.625,14.0
108.828,-11.007,3.943,19.0
148.233,-15.01,4.585,22.0
116.372,-11.799,2.983,37.0
108.513,-11.015,5.813,23.0
108.83,-11.058,5.251,23.0
110.812,-11.271,4.759,19.0
111.626,-11.367,4.19,7.0
148.411,-15.13,4.783,15.0
116.353,-11.875,3.135,40.0
108.486,-11.085,5.954,20.0
109.056,-11.154,5.405,21.0
109.265,-11.186,4.835,18.0
149.53,-15.323,5.807,21.0
108.862,-11.168,3.651,26.0
116.331,-11.946,3.285,42.0
108.788,-11.184,6.111,18.0
109.273,-11.244,5.558,17.0
109.124,-11.238,4.972,21.0
149.4,-15.4,5.998,20.0
108.827,-11.229,3.792,22.0
116.298,-12.012,3.437,21.0
107.157,-11.08,6.162,18.0
108.267,-11.203,5.651,13.0
109.499,-11.34,5.133,14.0
111.199,-11.526,4.612,13.0
108.774,-11.283,3.934,16.0
148.34,-15.401,4.58,20.0
107.606,-11.186,6.33,17.0
107.925,-11.225,5.776,21.0
113.763,-11.841,5.483,12.0
109.442,-11.4,4.683,18.0
148.981,-15.53,5.585,24.0
148.421,-15.483,4.777,17.0
107.824,-11.262,6.486,17.0
108.86,-11.377,5.969,19.0
110.547,-11.56,5.474,8.0
0.0,0.0,0.0,0.0
149.089,-15.61,5.785,22.0
108.789,-11.398,3.645,9.0
48.774,-5.116,2.998,6.0
108.715,-11.41,6.104,11.0
107.959,-11.336,5.488,13.0
110.65,-11.624,5.026,17.0
149.165,-15.68,5.984,14.0
108.77,-11.44,3.787,21.0
48.672,-5.125,3.056,15.0
49.569,-5.222,2.849,11.0
108.039,-11.387,5.634,19.0
110.694,-11.672,5.173,5.0
111.284,-11.74,4.61,10.0
108.794,-11.482,3.931,12.0
48.629,-5.139,3.118,39.0
49.505,-5.233,2.91,14.0
108.737,-11.498,5.814,21.0
107.817,-11.404,5.182,15.0
110.992,-11.745,4.744,16.0
148.766,-15.748,5.569,21.0
48.635,-5.155,3.183,31.0
107.635,-11.411,6.47,13.0
109.011,-11.56,5.971,19.0
107.819,-11.435,5.321,20.0
110.752,-11.75,4.878,23.0
148.678,-15.779,5.757,20.0
48.646,-5.169,3.247,10.0
48.643,-5.169,2.986,3.0
49.533,-5.265,2.777,9.0
107.945,-11.476,5.468,20.0
110.634,-11.763,5.017,23.0
111.627,-11.871,4.468,18.0
48.683,-5.185,3.313,5.0
48.612,-5.177,3.048,21.0
49.521,-5.274,2.841,23.0
108.015,-11.504,5.612,14.0
107.827,-11.486,5.028,11.0
111.16,-11.842,4.592,20.0
49.441,-5.274,3.429,8.0
48.626,-5.187,3.112,32.0
49.48,-5.278,2.903,22.0
109.095,-11.636,5.809,15.0
107.839,-11.502,5.167,21.0
110.957,-11.835,4.726,20.0
49.379,-5.274,3.488,20.0
48.669,-5.198,3.177,18.0
49.484,-5.284,2.966,13.0
109.184,-11.657,5.951,18.0
107.912,-11.521,5.307,18.0
110.83,-11.832,4.861,20.0
49.39,-5.28,3.552,24.0
48.66,-5.201,3.239,13.0
48.732,-5.207,2.983,4.0
49.591,-5.298,2.766,10.0
107.9,-11.525,5.442,24.0
110.627,-11.815,4.99,24.0
49.306,-5.274,3.607,24.0
48.664,-5.203,3.3,6.0
48.622,-5.197,3.037,18.0
49.568,-5.296,2.826,22.0
107.973,-11.534,5.581,17.0
107.788,-11.512,4.996,13.0
49.055,-5.247,3.65,24.0
49.341,-5.275,3.407,7.0
48.621,-5.196,3.097,31.0
49.473,-5.285,2.882,21.0
109.148,-11.656,5.775,14.0
107.819,-11.51,5.131,21.0
48.858,-5.224,3.697,24.0
49.363,-5.275,3.47,20.0
48.662,-5.197,3.16,18.0
49.471,-5.281,2.943,19.0
109.174,-11.65,5.911,19.0
107.866,-11.506,5.265,17.0
48.841,-5.218,3.755,19.0
49.387,-5.273,3.532,22.0
48.666,-5.193,3.219,15.0
107.471,-11.461,6.523,15.0
49.595,-5.286,2.745,4.0
107.945,-11.5,5.398,19.0
48.771,-5.204,3.809,25.0
49.359,-5.263,3.59,18.0
48.676,-5.187,3.278,10.0
48.604,-5.176,3.008,12.0
49.533,-5.271,2.801,15.0
108.001,-11.487,5.529,18.0
48.742,-5.193,3.865,27.0
49.193,-5.236,3.636,14.0
49.191,-5.232,3.372,3.0
48.616,-5.167,3.066,29.0
49.495,-5.257,2.857,20.0
108.409,-11.506,5.678,17.0
48.737,-5.182,3.922,17.0
48.991,-5.204,3.679,23.0
49.597,-5.264,3.458,12.0
48.617,-5.156,3.123,39.0
49.501,-5.245,2.914,9.0
108.901,-11.531,5.827,20.0
48.722,-5.167,3.977,5.0
48.872,-5.178,3.726,23.0
49.546,-5.245,3.511,21.0
48.638,-5.144,3.18,28.0
107.651,-11.375,6.462,15.0
108.872,-11.494,5.951,22.0
106.993,-11.315,8.858,16.0
48.856,-5.161,3.781,17.0
49.464,-5.22,3.562,23.0
48.635,-5.127,3.235,18.0
107.392,-11.312,6.565,14.0
108.719,-11.441,6.064,11.0
49.412,-5.209,4.146,12.0
48.825,-5.141,3.833,22.0
49.389,-5.194,3.611,23.0
48.795,-5.126,3.299,2.0
48.704,-5.111,3.031,19.0
107.816,-11.304,6.131,19.0
49.431,-5.191,4.202,5.0
48.782,-5.117,3.883,19.0
49.436,-5.179,3.668,17.0
49.447,-5.174,3.397,10.0
48.705,-5.091,3.084,18.0
107.645,-11.24,6.237,20.0
40.357,-4.221,3.474,40.0
48.099,-5.024,3.88,9.0
106.828,-11.145,8.042,19.0
49.516,-5.159,3.455,13.0
48.714,-5.069,3.136,15.0
107.583,-11.183,6.347,16.0
40.353,-4.202,3.517,42.0
48.071,-4.999,3.929,20.0
106.845,-11.095,8.154,19.0
49.686,-5.152,3.518,23.0
48.731,-5.047,3.188,3.0
107.56,-11.126,6.456,20.0
40.403,-4.186,3.563,39.0
48.063,-4.972,3.978,10.0
107.024,-11.057,8.278,20.0
49.537,-5.111,3.558,23.0
107.363,-11.061,7.132,19.0
107.543,-11.065,6.562,24.0
40.56,-4.18,3.618,25.0
48.178,-4.958,4.035,6.0
48.091,-4.941,3.767,16.0
49.536,-5.082,3.607,36.0
107.684,-11.032,7.258,20.0
107.559,-11.004,6.668,18.0
45.923,-4.706,4.141,6.0
40.436,-4.137,3.426,33.0
48.119,-4.915,3.816,19.0
49.653,-5.064,3.663,23.0
107.615,-10.958,7.357,14.0
109.707,-11.154,6.906,7.0
45.94,-4.679,4.187,13.0
40.377,-4.105,3.46,39.0
48.155,-4.888,3.864,12.0
0.0,0.0,0.0,0.0
107.704,-10.897,7.462,15.0
108.149,-10.924,6.907,14.0
47.791,-4.836,4.4,23.0
40.447,-4.085,3.503,31.0
45.655,-4.603,3.705,2.0
0.0,0.0,0.0,0.0
49.693,-4.993,3.488,6.0
108.186,-10.852,7.006,15.0
47.796,-4.803,4.443,30.0
40.639,-4.076,3.556,29.0
106.621,-10.673,8.75,6.0
48.23,-4.819,3.69,9.0
107.708,-10.744,7.653,15.0
108.193,-10.773,7.101,17.0
47.904,-4.778,4.495,14.0
40.497,-4.031,3.578,15.0
45.714,-4.542,3.79,5.0
48.183,-4.778,3.727,10.0
49.86,-4.935,3.585,4.0
108.092,-10.68,7.183,20.0
47.818,-4.732,4.527,5.0
45.941,-4.537,4.098,6.0
45.61,-4.495,3.819,30.0
106.86,-10.512,8.353,15.0
107.514,-10.555,7.819,13.0
107.75,-10.558,7.248,19.0
39.285,-3.856,3.751,39.0
45.961,-4.501,4.137,31.0
45.666,-4.463,3.86,12.0
106.883,-10.426,8.439,9.0
106.542,-10.371,7.83,11.0
106.701,-10.365,7.261,7.0
39.239,-3.818,3.777,42.0
45.987,-4.465,4.174,29.0
47.598,-4.611,4.059,7.0
108.16,-10.456,8.622,16.0
107.346,-10.356,7.969,21.0
107.825,-10.381,7.416,16.0
39.25,-3.785,3.807,38.0
45.925,-4.418,4.202,18.0
40.504,-3.888,3.484,14.0
107.861,-10.331,8.676,19.0
106.072,-10.137,7.951,17.0
107.685,-10.269,7.483,14.0
39.215,-3.746,3.832,37.0
0.0,0.0,0.0,0.0
48.163,-4.578,4.176,22.0
108.272,-10.269,8.783,15.0
106.042,-10.035,8.021,21.0
107.353,-10.136,7.532,15.0
39.216,-3.709,3.858,29.0
39.281,-3.706,3.648,17.0
48.316,-4.547,4.221,22.0
107.887,-10.129,8.822,18.0
106.095,-9.937,8.094,9.0
106.769,-9.977,7.56,13.0
45.492,-4.258,4.506,8.0
39.164,-3.656,3.662,13.0
48.286,-4.497,4.249,31.0
107.879,-10.022,8.888,11.0
108.226,-10.029,8.322,18.0
106.37,-9.834,7.595,19.0
45.536,-4.216,4.537,7.0
47.598,-4.395,4.48,6.0
48.183,-4.438,4.268,23.0
108.013,-9.924,8.962,14.0
108.104,-9.906,8.375,19.0
106.123,-9.701,7.638,22.0
45.607,-4.175,4.57,18.0
39.138,-3.573,3.705,7.0
47.642,-4.338,4.247,39.0
107.882,-9.798,9.011,16.0
108.603,-9.839,8.471,13.0
106.215,-9.597,7.701,16.0
45.601,-4.126,4.594,6.0
39.159,-3.533,3.728,35.0
47.498,-4.274,4.259,29.0
106.231,-9.534,8.926,21.0
108.477,-9.71,8.516,9.0
108.655,-9.7,7.931,14.0
45.526,-4.07,4.609,22.0
39.184,-3.493,3.749,25.0
47.456,-4.219,4.277,39.0
106.356,-9.429,8.986,16.0
111.411,-9.85,8.798,16.0
109.317,-9.639,8.029,14.0
48.768,-4.306,4.959,12.0
39.165,-3.448,3.765,14.0
47.456,-4.165,4.298,27.0
106.464,-9.319,9.041,15.0
110.011,-9.602,8.733,17.0
109.653,-9.544,8.099,14.0
48.799,-4.253,4.983,36.0
49.256,-4.279,4.755,13.0
47.447,-4.11,4.317,40.0
106.418,-9.191,9.08,21.0
109.734,-9.45,8.754,17.0
111.487,-9.574,8.277,5.0
48.813,-4.197,5.003,31.0
48.978,-4.198,4.746,9.0
47.489,-4.058,4.338,41.0
106.743,-9.094,9.146,19.0
106.782,-9.07,8.556,15.0
111.816,-9.47,8.34,6.0
48.748,-4.133,5.013,37.0
48.97,-4.139,4.762,15.0
47.508,-4.002,4.354,11.0
106.683,-8.961,9.174,28.0
106.863,-8.949,8.595,24.0
108.236,-9.037,8.105,19.0
48.943,-4.09,5.047,37.0
49.247,-4.102,4.803,23.0
47.46,-3.941,4.364,25.0
106.727,-8.835,9.207,17.0
106.844,-8.816,8.622,13.0
108.039,-8.887,8.118,18.0
48.969,-4.032,5.063,35.0
49.273,-4.044,4.818,21.0
47.535,-3.888,4.382,17.0
106.633,-8.694,9.224,18.0
106.924,-8.688,8.654,19.0
107.741,-8.728,8.119,15.0
49.236,-3.992,5.101,19.0
49.391,-3.991,4.84,23.0
106.234,-8.555,9.815,19.0
106.604,-8.556,9.242,17.0
106.903,-8.552,8.672,15.0
107.846,-8.599,8.147,15.0
49.379,-3.94,5.125,8.0
49.402,-3.929,4.849,17.0
106.47,-8.438,9.854,19.0
106.983,-8.45,9.291,20.0
108.672,-8.554,8.831,15.0
106.938,-8.389,8.093,15.0
106.53,-8.362,11.07,17.0
49.44,-3.867,4.859,23.0
106.626,-8.31,9.881,17.0
107.154,-8.322,9.319,16.0
107.173,-8.295,8.72,8.0
108.565,-8.373,8.227,3.0
106.134,-8.191,11.039,17.0
49.449,-3.802,4.864,16.0
107.064,-8.203,9.931,21.0
107.223,-8.186,9.332,9.0
104.897,-7.98,8.542,18.0
109.054,-8.267,8.27,8.0
106.006,-8.04,11.031,22.0
49.481,-3.738,4.87,14.0
107.069,-8.06,9.935,20.0
107.696,-8.077,9.377,14.0
104.807,-7.832,8.537,25.0
104.887,-7.809,7.955,27.0
107.249,-7.989,11.161,20.0
49.518,-3.674,4.873,10.0
107.173,-7.922,9.944,14.0
107.24,-7.898,9.335,12.0
104.79,-7.688,8.533,8.0
105.051,-7.68,7.965,12.0
106.667,-7.801,11.096,19.0
49.526,-3.607,4.872,14.0
109.322,-7.932,10.138,17.0
107.011,-7.734,9.309,20.0
0.0,0.0,0.0,0.0
107.16,-7.686,8.117,9.0
106.43,-7.636,11.064,22.0
106.927,-7.639,10.51,10.0
108.501,-7.722,10.051,16.0
106.924,-7.58,9.291,20.0
106.897,-7.548,8.686,21.0
105.181,-7.398,7.955,24.0
106.453,-7.487,11.052,21.0
106.702,-7.474,10.474,10.0
108.162,-7.547,10.005,17.0
107.258,-7.454,9.304,26.0
106.791,-7.391,8.66,25.0
105.144,-7.248,7.935,22.0
106.562,-7.344,11.046,18.0
107.809,-7.4,10.563,16.0
106.524,-7.281,9.833,8.0
107.501,-7.318,9.305,21.0
107.144,-7.264,8.669,15.0
107.886,-7.285,8.12,12.0
106.807,-7.21,11.049,21.0
107.779,-7.244,10.537,17.0
106.459,-7.126,9.803,18.0
106.378,-7.091,9.182,16.0
107.172,-7.113,8.646,23.0
111.754,-7.387,8.384,6.0
107.349,-7.093,11.077,13.0
107.818,-7.092,10.513,21.0
106.51,-6.977,9.78,19.0
107.247,-6.995,9.228,20.0
107.562,-6.985,8.646,19.0
110.202,-7.127,8.236,5.0
107.661,-6.958,11.077,20.0
107.678,-6.928,10.465,19.0
106.575,-6.828,9.752,9.0
106.948,-6.821,9.168,21.0
107.677,-6.837,8.62,20.0
108.927,-6.888,8.103,17.0
107.625,-6.8,11.036,13.0
107.737,-6.776,10.434,10.0
111.35,-6.972,10.149,20.0
107.176,-6.68,9.148,19.0
107.718,-6.685,8.584,24.0
108.736,-6.72,8.048,15.0
107.797,-6.655,11.012,13.0
109.3,-6.717,10.542,4.0
109.003,-6.669,9.892,12.0
107.403,-6.541,9.124,10.0
108.069,-6.551,8.567,23.0
109.112,-6.585,8.031,14.0
107.818,-6.499,10.967,9.0
109.293,-6.558,10.494,15.0
107.384,-6.413,9.697,14.0
108.638,-6.457,9.18,26.0
108.684,-6.431,8.565,13.0
108.341,-6.381,7.923,21.0
0.0,0.0,0.0,0.0
109.362,-6.401,10.446,23.0
107.497,-6.261,9.654,25.0
108.638,-6.298,9.126,25.0
108.709,-6.274,8.513,22.0
108.906,-6.257,7.909,25.0
0.0,0.0,0.0,0.0
108.956,-6.218,10.35,12.0
108.643,-6.171,9.699,24.0
108.658,-6.142,9.068,25.0
108.829,-6.122,8.463,21.0
109.405,-6.125,7.885,19.0
0.0,0.0,0.0,0.0
109.038,-6.063,10.296,21.0
108.85,-6.024,9.655,19.0
108.441,-5.971,8.987,25.0
109.377,-5.993,8.44,11.0
109.648,-5.979,7.836,18.0
109.164,-5.941,10.867,6.0
109.265,-5.916,10.249,26.0
108.696,-5.855,9.574,21.0
108.46,-5.814,8.921,12.0
112.792,-6.017,8.633,22.0
109.383,-5.806,7.749,7.0
109.373,-5.792,10.816,26.0
109.055,-5.746,10.158,21.0
108.479,-5.687,9.483,23.0
111.533,-5.818,9.1,18.0
113.265,-5.878,8.593,19.0
112.854,-5.826,7.918,20.0
109.261,-5.627,10.729,4.0
112.072,-5.74,10.361,14.0
111.578,-5.685,9.674,25.0
111.635,-5.657,9.027,15.0
113.101,-5.703,8.498,20.0
108.429,-5.438,7.528,8.0
0.0,0.0,0.0,0.0
112.163,-5.581,10.284,24.0
111.548,-5.521,9.588,21.0
113.761,-5.6,9.113,8.0
112.621,-5.515,8.376,8.0
114.923,-5.599,7.891,25.0
0.0,0.0,0.0,0.0
112.02,-5.411,10.183,19.0
111.69,-5.365,9.51,13.0
113.675,-5.43,9.014,18.0
116.1,-5.516,8.541,7.0
115.408,-5.453,7.829,19.0
0.0,0.0,0.0,0.0
116.395,-5.452,10.484,7.0
116.56,-5.429,9.827,22.0
115.546,-5.353,9.065,23.0
115.419,-5.317,8.394,18.0
115.486,-5.292,7.737,21.0
0.0,0.0,0.0,0.0
116.354,-5.283,10.379,20.0
116.636,-5.266,9.732,25.0
114.98,-5.162,8.92,26.0
114.984,-5.133,8.26,24.0
116.05,-5.153,7.671,19.0
0.0,0.0,0.0,0.0
124.001,-5.452,10.946,9.0
116.465,-5.091,9.61,10.0
115.12,-5.003,8.824,23.0
115.223,-4.979,8.171,20.0
114.816,-4.934,7.483,20.0
0.0,0.0,0.0,0.0
124.231,-5.285,10.848,22.0
115.582,-4.888,9.426,19.0
115.158,-4.841,8.716,28.0
120.535,-5.037,8.429,6.0
114.759,-4.767,7.365,19.0
113.466,-4.693,10.449,1.0
124.159,-5.104,10.717,28.0
114.869,-4.693,9.251,22.0
115.134,-4.677,8.597,21.0
115.651,-4.669,7.97,18.0
115.067,-4.618,7.268,7.0
113.525,-4.535,10.337,4.0
124.36,-4.937,10.605,23.0
115.173,-4.544,9.155,23.0
115.189,-4.516,8.48,25.0
115.648,-4.506,7.846,25.0
114.659,-4.441,7.119,18.0
124.617,-4.8,11.212,4.0
124.397,-4.762,10.472,13.0
115.785,-4.405,9.077,24.0
115.221,-4.356,8.355,22.0
115.803,-4.35,7.73,25.0
114.568,-4.277,6.987,25.0
0.0,0.0,0.0,0.0
115.069,-4.246,9.558,26.0
115.233,-4.224,8.904,23.0
123.247,-4.489,8.798,20.0
116.365,-4.212,7.636,21.0
114.589,-4.121,6.858,21.0
126.391,-4.52,11.084,2.0
115.783,-4.113,9.483,21.0
114.951,-4.056,8.748,23.0
124.179,-4.354,8.719,20.0
117.673,-4.098,7.582,17.0
114.456,-3.961,6.716,22.0
126.301,-4.345,10.925,18.0
116.044,-3.965,9.365,25.0
115.893,-3.933,8.681,24.0
124.241,-4.188,8.574,12.0
116.733,-3.909,7.382,23.0
114.749,-3.817,6.594,19.0
116.162,-3.839,9.905,24.0
125.81,-4.129,9.996,21.0
125.001,-4.073,9.207,15.0
117.724,-3.81,7.978,17.0
114.591,-3.683,7.102,18.0
115.723,-3.695,6.505,25.0
126.143,-4.001,10.595,15.0
126.098,-3.971,9.86,18.0
140.373,-4.391,10.162,17.0
117.83,-3.659,7.834,26.0
115.612,-3.566,7.019,23.0
115.031,-3.522,6.318,23.0
140.626,-4.276,11.628,2.0
126.082,-3.806,9.694,23.0
140.385,-4.208,9.979,17.0
125.111,-3.723,8.154,15.0
115.702,-3.419,6.872,22.0
115.912,-3.4,6.213,8.0
0.0,0.0,0.0,0.0
140.34,-4.055,10.601,17.0
141.116,-4.048,9.84,14.0
125.362,-3.569,8.0,14.0
115.861,-3.275,6.724,22.0
141.043,-3.958,7.369,12.0
126.277,-3.513,10.097,7.0
0.0,0.0,0.0,0.0
125.011,-3.427,8.543,22.0
115.893,-3.152,7.235,23.0
115.68,-3.122,6.55,16.0
124.368,-3.332,6.323,9.0
0.0,0.0,0.0,0.0
0.0,0.0,0.0,0.0
125.172,-3.273,8.373,22.0
124.558,-3.232,7.598,13.0
124.521,-3.206,6.872,22.0
117.268,-2.995,5.792,7.0
0.0,0.0,0.0,0.0
0.0,0.0,0.0,0.0
125.313,-3.122,8.2,15.0
124.431,-3.075,7.406,25.0
124.337,-3.048,6.679,18.0
140.818,-3.425,6.748,13.0
0.0,0.0,0.0,0.0
0.0,0.0,0.0,0.0
124.355,-2.946,7.95,2.0
124.086,-2.915,7.199,17.0
142.03,-3.309,7.414,9.0
140.792,-3.254,6.534,11.0
0.0,0.0,0.0,0.0
0.0,0.0,0.0,0.0
124.775,-2.808,7.787,9.0
141.651,-3.161,8.002,12.0
0.0,0.0,0.0,0.0
191.678,-4.205,8.602,17.0
0.0,0.0,0.0,0.0
0.0,0.0,0.0,0.0
124.93,-2.664,7.599,16.0
0.0,0.0,0.0,0.0
193.068,-4.047,9.48,8.0
190.349,-3.956,8.241,20.0
0.0,0.0,0.0,0.0
0.0,0.0,0.0,0.0
0.0,0.0,0.0,0.0
0.0,0.0,0.0,0.0
192.906,-3.826,9.165,8.0
190.384,-3.743,7.939,20.0
0.0,0.0,0.0,0.0
0.0,0.0,0.0,0.0
0.0,0.0,0.0,0.0
0.0,0.0,0.0,0.0
192.198,-3.598,8.818,21.0
191.742,-3.558,7.683,14.0
0.0,0.0,0.0,0.0
0.0,0.0,0.0,0.0
0.0,0.0,0.0,0.0
190.001,-3.383,9.507,14.0
189.957,-3.35,8.4,21.0
190.01,-3.32,7.298,27.0
0.0,0.0,0.0,0.0
189.965,-3.243,11.42,11.0
0.0,0.0,0.0,0.0
0.0,0.0,0.0,0.0
192.964,-3.198,8.207,19.0
191.526,-3.144,7.032,21.0
190.293,-3.08,12.224,5.0
0.0,0.0,0.0,0.0
0.0,0.0,0.0,0.0
0.0,0.0,0.0,0.0
0.0,0.0,0.0,0.0
191.896,-2.951,6.714,10.0
0.0,0.0,0.0,0.0
0.0,0.0,0.0,0.0
0.0,0.0,0.0,0.0
193.312,-2.838,8.676,14.0
192.04,-2.791,7.5,14.0
162.573,-2.338,5.405,48.0
0.0,0.0,0.0,0.0
0.0,0.0,0.0,0.0
0.0,0.0,0.0,0.0
193.215,-2.648,8.331,9.0
185.906,-2.52,6.931,12.0
162.657,-2.181,5.117,66.0
0.0,0.0,0.0,0.0
0.0,0.0,0.0,0.0
0.0,0.0,0.0,0.0
186.501,-2.376,7.701,8.0
185.877,-2.341,6.594,19.0
19.773,-0.246,0.586,0.0
0.0,0.0,0.0,0.0
0.0,0.0,0.0,0.0
0.0,0.0,0.0,0.0
185.894,-2.195,7.335,22.0
162.571,-1.897,5.467,42.0
19.765,-0.227,0.549,8.0
0.0,0.0,0.0,0.0
0.0,0.0,0.0,0.0
0.0,0.0,0.0,0.0
184.586,-2.013,6.939,13.0
19.761,-0.212,0.627,7.0
19.748,-0.21,0.512,11.0
0.0,0.0,0.0,0.0
0.0,0.0,0.0,0.0
0.0,0.0,0.0,0.0
19.786,-0.198,0.706,1.0
19.745,-0.195,0.589,10.0
19.754,-0.193,0.475,9.0
0.0,0.0,0.0,0.0
0.0,0.0,0.0,0.0
183.938,-1.713,7.309,20.0
19.75,-0.181,0.667,4.0
19.751,-0.179,0.552,8.0
19.766,-0.176,0.437,6.0
0.0,0.0,0.0,0.0
184.913,-1.595,8.072,17.0
19.755,-0.168,0.747,0.0
19.723,-0.165,0.628,9.0
19.757,-0.163,0.514,6.0
177.242,-1.443,3.576,24.0
0.0,0.0,0.0,0.0
184.42,-1.446,7.692,23.0
19.77,-0.152,0.708,6.0
19.747,-0.15,0.59,5.0
19.794,-0.148,0.476,2.0
177.172,-1.307,3.229,18.0
184.725,-1.331,8.422,16.0
184.307,-1.307,7.327,23.0
19.715,-0.137,0.668,1.0
19.716,-0.135,0.55,5.0
19.686,-0.133,0.434,3.0
19.714,-0.131,0.32,1.0
184.6,-1.197,8.052,18.0
19.707,-0.125,0.744,3.0
19.66,-0.123,0.627,9.0
19.657,-0.121,0.51,9.0
19.67,-0.119,0.395,7.0
19.696,-0.117,0.281,6.0
184.555,-1.07,7.683,20.0
19.675,-0.112,0.703,10.0
19.645,-0.11,0.588,11.0
19.65,-0.108,0.471,10.0
19.67,-0.106,0.356,9.0
19.695,-0.104,0.242,12.0
19.717,-0.101,0.781,2.0
19.659,-0.099,0.663,12.0
19.64,-0.097,0.548,11.0
19.64,-0.095,0.431,9.0
19.67,-0.093,0.317,9.0
19.711,-0.092,0.202,15.0
19.691,-0.089,0.739,9.0
19.647,-0.087,0.623,13.0
19.639,-0.085,0.508,10.0
19.642,-0.083,0.391,9.0
19.652,-0.081,0.276,10.0
19.694,-0.08,0.162,16.0
19.658,-0.077,0.698,12.0
19.639,-0.075,0.583,13.0
19.635,-0.074,0.468,11.0
19.637,-0.072,0.351,10.0
19.662,-0.07,0.237,13.0
19.709,-0.069,0.122,15.0
19.648,-0.066,0.658,14.0
19.631,-0.065,0.542,12.0
19.625,-0.063,0.427,10.0
19.641,-0.061,0.31,10.0
19.672,-0.06,0.196,13.0
19.702,-0.059,0.081,15.0
19.641,-0.056,0.616,13.0
19.627,-0.055,0.501,11.0
19.633,-0.053,0.387,10.0
19.636,-0.052,0.27,10.0
19.693,-0.05,0.155,14.0
19.705,-0.049,0.04,16.0
19.638,-0.047,0.576,14.0
19.618,-0.045,0.461,12.0
19.617,-0.044,0.346,10.0
19.631,-0.043,0.229,14.0
19.692,-0.041,0.115,16.0
19.709,-0.04,0.0,16.0
19.624,-0.038,0.535,13.0
19.625,-0.037,0.419,13.0
19.618,-0.035,0.305,11.0
19.641,-0.034,0.188,11.0
19.695,-0.033,0.073,14.0
19.723,-0.032,-0.041,14.0
19.629,-0.03,0.493,13.0
19.623,-0.029,0.378,12.0
19.625,-0.028,0.264,12.0
19.684,-0.027,0.147,6.0
19.709,-0.026,0.032,14.0
19.764,-0.025,-0.083,7.0
19.637,-0.023,0.452,16.0
19.617,-0.022,0.336,14.0
19.633,-0.021,0.222,14.0
19.684,-0.02,0.105,6.0
19.724,-0.019,-0.009,13.0
19.76,-0.018,-0.125,4.0
19.63,-0.016,0.41,13.0
19.627,-0.015,0.295,13.0
19.687,-0.014,0.181,7.0
19.733,-0.013,0.064,7.0
19.731,-0.013,-0.051,8.0
19.813,-0.012,-0.167,0.0
19.629,-0.01,0.368,13.0
19.63,-0.01,0.253,13.0
19.721,-0.009,0.139,1.0
19.716,-0.008,0.022,10.0
19.787,-0.007,-0.093,1.0
40.976,-0.014,-0.434,0.0
19.624,-0.005,0.326,15.0
19.64,-0.005,0.211,15.0
19.789,-0.004,0.097,2.0
19.734,-0.003,-0.019,9.0
19.787,-0.002,-0.135,0.0
0.0,0.0,0.0,0.0
19.628,-0.001,0.284,14.0
19.784,0.0,0.171,3.0
19.781,0.0,0.055,4.0
19.756,0.0,-0.062,2.0
19.714,0.001,-0.177,0.0
19.79,0.001,-0.294,1.0
19.633,0.002,0.242,16.0
19.791,0.002,0.128,1.0
19.741,0.003,0.012,9.0
19.764,0.003,-0.105,1.0
19.783,0.004,-0.22,0.0
19.775,0.004,-0.336,0.0
19.659,0.005,0.201,11.0
19.79,0.005,0.086,3.0
19.757,0.005,-0.029,14.0
19.755,0.006,-0.147,0.0
19.76,0.006,-0.262,1.0
19.775,0.007,-0.378,1.0
19.789,0.007,0.16,1.0
19.77,0.007,0.044,4.0
19.782,0.007,-0.071,1.0
19.759,0.008,-0.188,0.0
19.772,0.008,-0.304,1.0
19.8,0.008,-0.421,1.0
19.795,0.008,0.118,2.0
19.76,0.008,0.002,14.0
19.773,0.009,-0.113,1.0
19.764,0.009,-0.231,1.0
19.797,0.009,-0.348,1.0
19.795,0.009,-0.463,1.0
19.788,0.009,0.075,5.0
19.752,0.009,-0.04,152.0
19.763,0.009,-0.156,1.0
19.783,0.009,-0.274,1.0
19.81,0.009,-0.39,1.0
19.791,0.009,-0.506,1.0
19.768,0.009,0.032,7.0
19.76,0.009,-0.082,1.0
19.774,0.009,-0.198,1.0
19.785,0.009,-0.316,1.0
19.806,0.009,-0.433,1.0
19.78,0.009,-0.548,1.0
19.756,0.008,-0.009,16.0
19.766,0.008,-0.124,0.0
19.787,0.008,-0.241,0.0
19.759,0.008,-0.358,1.0
19.807,0.008,-0.475,1.0
19.796,0.008,-0.591,1.0
19.758,0.006,-0.051,5.0
19.778,0.006,-0.167,0.0
19.769,0.006,-0.282,1.0
19.781,0.006,-0.401,1.0
19.78,0.006,-0.516,1.0
19.779,0.005,-0.632,0.0
19.764,0.004,-0.093,1.0
19.782,0.004,-0.209,0.0
19.76,0.004,-0.324,0.0
19.778,0.003,-0.442,0.0
19.803,0.003,-0.559,0.0
21.352,0.003,-0.728,0.0
19.745,0.001,-0.135,0.0
19.755,0.001,-0.251,0.0
30.677,0.001,-0.569,0.0
19.788,0.0,-0.485,0.0
23.332,0.0,-0.709,0.0
20.386,0.0,-0.739,0.0
19.669,-0.002,-0.176,0.0
35.199,-0.004,-0.521,0.0
28.902,-0.004,-0.597,0.0
25.064,-0.004,-0.668,0.0
0.0,0.0,0.0,0.0
19.746,-0.004,-0.757,2.0
0.0,0.0,0.0,0.0
31.605,-0.011,-0.535,0.0
27.507,-0.01,-0.626,0.0
23.977,-0.01,-0.689,0.0
21.164,-0.009,-0.732,0.0
19.332,-0.009,-0.782,0.0
35.689,-0.021,-0.47,0.0
29.941,-0.018,-0.57,0.0
26.282,-0.017,-0.654,0.0
23.168,-0.016,-0.714,0.0
19.927,-0.014,-0.731,0.0
18.634,-0.014,-0.794,0.0
33.49,-0.029,-0.512,0.0
28.733,-0.026,-0.608,0.0
25.127,-0.024,-0.678,0.0
21.657,-0.022,-0.713,0.0
19.718,-0.02,-0.765,3.0
17.905,-0.019,-0.8,0.0
31.441,-0.038,-0.546,0.0
27.201,-0.034,-0.631,0.0
23.876,-0.031,-0.693,0.0
21.016,-0.028,-0.735,0.0
19.144,-0.027,-0.782,0.0
17.191,-0.025,-0.803,0.0
29.479,-0.047,-0.572,0.0
25.957,-0.042,-0.656,0.0
22.749,-0.038,-0.708,0.0
19.834,-0.034,-0.735,1.0
18.436,-0.033,-0.791,0.0
16.729,-0.031,-0.816,0.0
28.621,-0.057,-0.614,0.0
24.813,-0.051,-0.678,0.0
21.693,-0.045,-0.719,0.0
19.713,-0.042,-0.771,2.0
17.785,-0.039,-0.8,0.0
16.097,-0.037,-0.818,0.0
26.776,-0.065,-0.63,0.0
23.697,-0.059,-0.695,0.0
21.085,-0.054,-0.742,0.0
18.994,-0.05,-0.781,0.0
17.167,-0.046,-0.807,0.0
15.626,-0.043,-0.826,0.0
25.946,-0.075,-0.662,0.0
22.627,-0.067,-0.709,0.0
19.816,-0.06,-0.737,2.0
18.457,-0.057,-0.796,0.0
16.479,-0.052,-0.808,0.0
15.219,-0.049,-0.835,0.0
19.803,-0.068,-0.545,1.0
21.667,-0.076,-0.723,0.0
19.684,-0.07,-0.771,2.0
17.535,-0.064,-0.792,0.0
16.072,-0.059,-0.82,0.0
14.83,-0.056,-0.843,0.0
19.772,-0.078,-0.583,2.0
19.804,-0.08,-0.699,2.0
19.072,-0.078,-0.785,0.0
17.047,-0.071,-0.803,0.0
15.586,-0.066,-0.825,0.0
14.28,-0.062,-0.84,0.0
19.773,-0.09,-0.621,9.0
19.735,-0.091,-0.735,6.0
18.47,-0.087,-0.796,0.0
16.393,-0.078,-0.804,0.0
15.186,-0.074,-0.834,0.0
13.991,-0.069,-0.85,0.0
19.759,-0.102,-0.659,14.0
19.656,-0.103,-0.77,2.0
17.703,-0.094,-0.797,0.0
16.056,-0.087,-0.818,0.0
14.784,-0.081,-0.84,0.0
13.588,-0.076,-0.852,0.0
19.744,-0.114,-0.697,16.0
19.084,-0.112,-0.784,0.0
17.157,-0.102,-0.806,0.0
15.627,-0.095,-0.827,0.0
14.321,-0.088,-0.841,0.0
13.259,-0.083,-0.857,0.0
19.736,-0.128,-0.734,11.0
18.559,-0.122,-0.798,0.0
16.565,-0.11,-0.809,0.0
15.196,-0.103,-0.833,0.0
13.916,-0.095,-0.844,0.0
12.96,-0.09,-0.862,0.0
19.657,-0.141,-0.768,2.0
17.723,-0.129,-0.796,0.0
16.076,-0.118,-0.815,0.0
14.872,-0.111,-0.843,0.0
13.604,-0.103,-0.851,0.0
12.679,-0.097,-0.867,0.0
19.135,-0.151,-0.783,1.0
17.153,-0.137,-0.802,0.0
15.633,-0.127,-0.822,0.0
14.338,-0.118,-0.839,0.0
13.264,-0.111,-0.854,0.0
12.435,-0.105,-0.873,0.0
18.675,-0.162,-0.798,0.0
16.612,-0.146,-0.807,0.0
15.282,-0.136,-0.831,0.0
14.045,-0.127,-0.847,0.0
13.018,-0.119,-0.862,0.0
12.148,-0.112,-0.875,0.0
17.907,-0.17,-0.797,0.0
16.25,-0.156,-0.818,0.0
14.941,-0.145,-0.84,0.0
13.67,-0.134,-0.849,0.0
12.716,-0.126,-0.864,0.0
11.895,-0.12,-0.878,0.0
17.373,-0.179,-0.805,0.0
15.761,-0.164,-0.822,0.0
14.479,-0.153,-0.84,0.0
13.32,-0.142,-0.852,0.0
12.474,-0.135,-0.87,0.0
11.678,-0.128,-0.883,0.0
16.731,-0.187,-0.804,0.0
15.397,-0.174,-0.83,0.0
14.036,-0.16,-0.839,0.0
13.028,-0.151,-0.856,0.0
12.209,-0.143,-0.873,0.0
11.414,-0.135,-0.883,1.0
16.305,-0.197,-0.812,0.0
15.015,-0.183,-0.835,0.0
13.786,-0.17,-0.847,0.0
12.824,-0.16,-0.864,0.0
12.017,-0.151,-0.88,0.0
11.287,-0.144,-0.893,0.0
15.843,-0.206,-0.816,0.0
14.642,-0.192,-0.839,0.0
13.471,-0.178,-0.85,0.0
12.538,-0.168,-0.866,0.0
11.761,-0.159,-0.881,0.0
11.066,-0.151,-0.894,0.0
15.522,-0.216,-0.825,0.0
14.253,-0.2,-0.84,0.0
13.214,-0.188,-0.856,0.0
12.309,-0.176,-0.87,0.0
11.59,-0.168,-0.887,0.0
10.884,-0.159,-0.897,0.0
15.164,-0.226,-0.831,0.0
13.928,-0.209,-0.844,0.0
12.923,-0.196,-0.858,0.0
12.063,-0.185,-0.873,0.0
11.396,-0.176,-0.891,0.0
10.746,-0.168,-0.903,0.0
14.857,-0.236,-0.838,0.0
13.723,-0.22,-0.854,0.0
12.666,-0.205,-0.861,0.0
