X,Y,Z,Reflectivity
19.769,0.019,0.103,2.0
19.631,0.019,0.652,13.0
19.611,0.02,0.55,13.0
19.611,0.021,0.449,12.0
19.612,0.022,0.346,15.0
19.621,0.023,0.245,15.0
19.76,0.024,0.145,6.0
19.644,0.024,0.694,13.0
19.605,0.026,0.591,12.0
19.609,0.027,0.49,13.0
19.601,0.028,0.387,13.0
19.613,0.029,0.286,14.0
19.652,0.031,0.186,15.0
0.0,0.0,0.0,0.0
0.0,0.0,0.0,0.0
121.738,1.451,7.115,25.0
121.976,1.474,6.477,13.0
84.825,1.039,4.058,26.0
84.824,1.053,3.614,43.0
84.865,1.06,6.003,9.0
84.824,1.074,5.553,40.0
84.812,1.087,5.106,45.0
84.791,1.102,4.651,57.0
84.832,1.117,4.208,44.0
84.811,1.132,3.762,23.0
84.8,1.138,6.147,45.0
84.802,1.153,5.701,18.0
84.801,1.167,5.255,5.0
121.911,1.7,6.9,20.0
122.203,1.725,6.274,22.0
121.553,1.737,5.602,24.0
0.0,0.0,0.0,0.0
129.409,1.883,8.921,19.0
135.422,1.995,8.622,3.0
121.691,1.814,7.093,26.0
121.89,1.838,6.463,22.0
121.48,1.854,5.801,22.0
0.0,0.0,0.0,0.0
129.196,2.007,9.124,24.0
129.363,2.033,8.451,19.0
121.471,1.93,7.282,16.0
121.964,1.959,6.668,28.0
121.643,1.977,6.009,21.0
55.302,0.904,4.289,0.0
55.25,0.913,3.992,3.0
55.24,0.923,3.699,22.0
55.216,0.933,3.4,33.0
55.207,0.943,3.108,53.0
55.19,0.953,2.816,67.0
55.212,0.959,4.372,72.0
55.201,0.97,4.079,76.0
55.2,0.98,3.786,74.0
55.192,0.99,3.487,72.0
55.197,1.001,3.196,65.0
55.202,1.011,2.905,56.0
55.238,1.019,4.463,23.0
55.213,1.028,4.167,11.0
55.216,1.039,3.875,3.0
129.195,2.457,8.37,18.0
133.435,2.563,7.936,2.0
121.864,2.365,6.603,20.0
0.0,0.0,0.0,0.0
129.356,2.551,9.967,25.0
129.356,2.577,9.28,24.0
129.347,2.602,8.58,24.0
129.392,2.628,7.896,14.0
121.804,2.497,6.786,8.0
0.0,0.0,0.0,0.0
129.352,2.695,10.166,8.0
127.375,2.679,9.333,14.0
127.215,2.701,8.63,8.0
129.406,2.774,8.092,20.0
129.624,2.804,7.417,14.0
0.0,0.0,0.0,0.0
0.0,0.0,0.0,0.0
127.287,2.823,9.516,3.0
127.082,2.843,8.81,24.0
134.062,3.027,8.582,19.0
133.501,3.041,7.834,25.0
0.0,0.0,0.0,0.0
0.0,0.0,0.0,0.0
0.0,0.0,0.0,0.0
127.224,2.994,9.004,21.0
121.588,2.886,7.957,24.0
133.72,3.202,8.039,21.0
0.0,0.0,0.0,0.0
0.0,0.0,0.0,0.0
0.0,0.0,0.0,0.0
127.102,3.141,9.174,25.0
121.516,3.028,8.121,16.0
45.48,1.142,2.796,15.0
0.0,0.0,0.0,0.0
0.0,0.0,0.0,0.0
0.0,0.0,0.0,0.0
127.178,3.293,9.352,24.0
43.671,1.14,2.977,58.0
43.691,1.149,2.745,150.0
0.0,0.0,0.0,0.0
0.0,0.0,0.0,0.0
0.0,0.0,0.0,0.0
127.596,3.459,9.552,10.0
0.0,0.0,0.0,0.0
0.0,0.0,0.0,0.0
0.0,0.0,0.0,0.0
0.0,0.0,0.0,0.0
0.0,0.0,0.0,0.0
127.697,3.619,9.724,3.0
40.106,1.145,2.839,87.0
40.107,1.153,2.624,150.0
0.0,0.0,0.0,0.0
0.0,0.0,0.0,0.0
0.0,0.0,0.0,0.0
0.0,0.0,0.0,0.0
40.107,1.195,2.889,114.0
40.113,1.204,2.674,150.0
0.0,0.0,0.0,0.0
0.0,0.0,0.0,0.0
0.0,0.0,0.0,0.0
0.0,0.0,0.0,0.0
40.113,1.246,2.937,115.0
40.112,1.254,2.721,150.0
0.0,0.0,0.0,0.0
0.0,0.0,0.0,0.0
0.0,0.0,0.0,0.0
0.0,0.0,0.0,0.0
40.097,1.297,2.983,29.0
40.101,1.306,2.768,50.0
0.0,0.0,0.0,0.0
0.0,0.0,0.0,0.0
0.0,0.0,0.0,0.0
0.0,0.0,0.0,0.0
40.123,1.349,3.03,1.0
40.203,1.361,2.819,136.0
0.0,0.0,0.0,0.0
0.0,0.0,0.0,0.0
0.0,0.0,0.0,0.0
0.0,0.0,0.0,0.0
0.0,0.0,0.0,0.0
40.206,1.413,2.863,127.0
0.0,0.0,0.0,0.0
0.0,0.0,0.0,0.0
0.0,0.0,0.0,0.0
0.0,0.0,0.0,0.0
0.0,0.0,0.0,0.0
40.2,1.467,2.905,143.0
0.0,0.0,0.0,0.0
0.0,0.0,0.0,0.0
0.0,0.0,0.0,0.0
0.0,0.0,0.0,0.0
0.0,0.0,0.0,0.0
40.212,1.52,2.945,99.0
0.0,0.0,0.0,0.0
0.0,0.0,0.0,0.0
0.0,0.0,0.0,0.0
0.0,0.0,0.0,0.0
0.0,0.0,0.0,0.0
40.17,1.572,2.98,51.0
0.0,0.0,0.0,0.0
0.0,0.0,0.0,0.0
0.0,0.0,0.0,0.0
0.0,0.0,0.0,0.0
0.0,0.0,0.0,0.0
40.158,1.626,3.016,2.0
0.0,0.0,0.0,0.0
0.0,0.0,0.0,0.0
0.0,0.0,0.0,0.0
0.0,0.0,0.0,0.0
0.0,0.0,0.0,0.0
0.0,0.0,0.0,0.0
23.5,0.99,2.451,0.0
23.584,0.998,2.33,0.0
23.555,1.002,2.198,0.0
23.572,1.008,2.068,14.0
23.578,1.013,1.94,28.0
23.583,1.019,1.811,40.0
23.56,1.025,2.477,42.0
23.56,1.03,2.347,40.0
23.561,1.035,2.218,39.0
23.544,1.039,2.085,46.0
23.552,1.044,1.956,62.0
23.545,1.049,1.827,68.0
23.532,1.056,2.492,76.0
23.531,1.061,2.363,78.0
23.527,1.066,2.233,75.0
23.528,1.07,2.101,72.0
23.55,1.077,1.974,73.0
23.548,1.082,1.845,69.0
23.531,1.088,2.51,76.0
23.528,1.093,2.38,66.0
23.523,1.098,2.25,57.0
23.543,1.104,2.119,50.0
23.549,1.109,1.991,46.0
23.565,1.115,1.863,45.0
23.55,1.122,2.528,45.0
23.572,1.128,2.4,35.0
23.547,1.132,2.268,19.0
23.554,1.137,2.136,12.0
23.548,1.142,2.006,4.0
23.568,1.148,1.878,1.0
0.0,0.0,0.0,0.0
0.0,0.0,0.0,0.0
0.0,0.0,0.0,0.0
0.0,0.0,0.0,0.0
0.0,0.0,0.0,0.0
0.0,0.0,0.0,0.0
0.0,0.0,0.0,0.0
0.0,0.0,0.0,0.0
0.0,0.0,0.0,0.0
0.0,0.0,0.0,0.0
0.0,0.0,0.0,0.0
0.0,0.0,0.0,0.0
0.0,0.0,0.0,0.0
0.0,0.0,0.0,0.0
0.0,0.0,0.0,0.0
0.0,0.0,0.0,0.0
0.0,0.0,0.0,0.0
0.0,0.0,0.0,0.0
0.0,0.0,0.0,0.0
0.0,0.0,0.0,0.0
0.0,0.0,0.0,0.0
0.0,0.0,0.0,0.0
0.0,0.0,0.0,0.0
0.0,0.0,0.0,0.0
0.0,0.0,0.0,0.0
0.0,0.0,0.0,0.0
0.0,0.0,0.0,0.0
0.0,0.0,0.0,0.0
0.0,0.0,0.0,0.0
0.0,0.0,0.0,0.0
0.0,0.0,0.0,0.0
0.0,0.0,0.0,0.0
0.0,0.0,0.0,0.0
0.0,0.0,0.0,0.0
0.0,0.0,0.0,0.0
0.0,0.0,0.0,0.0
0.0,0.0,0.0,0.0
0.0,0.0,0.0,0.0
0.0,0.0,0.0,0.0
0.0,0.0,0.0,0.0
0.0,0.0,0.0,0.0
0.0,0.0,0.0,0.0
0.0,0.0,0.0,0.0
0.0,0.0,0.0,0.0
0.0,0.0,0.0,0.0
0.0,0.0,0.0,0.0
0.0,0.0,0.0,0.0
0.0,0.0,0.0,0.0
0.0,0.0,0.0,0.0
0.0,0.0,0.0,0.0
0.0,0.0,0.0,0.0
0.0,0.0,0.0,0.0
0.0,0.0,0.0,0.0
0.0,0.0,0.0,0.0
0.0,0.0,0.0,0.0
0.0,0.0,0.0,0.0
0.0,0.0,0.0,0.0
0.0,0.0,0.0,0.0
0.0,0.0,0.0,0.0
0.0,0.0,0.0,0.0
100.649,6.326,11.292,6.0
100.575,6.34,10.718,7.0
100.358,6.344,10.131,7.0
100.249,6.356,9.548,9.0
100.054,6.362,8.97,15.0
99.971,6.376,8.404,19.0
99.896,6.415,11.224,36.0
99.887,6.431,10.661,36.0
99.905,6.449,10.1,35.0
99.896,6.467,9.529,38.0
99.934,6.488,8.973,36.0
99.932,6.506,8.413,35.0
99.874,6.546,11.234,35.0
99.889,6.563,10.673,40.0
99.895,6.582,10.11,34.0
99.899,6.599,9.539,37.0
99.926,6.619,8.982,38.0
99.918,6.636,8.421,34.0
99.89,6.678,11.244,34.0
99.908,6.697,10.681,35.0
99.913,6.713,10.119,37.0
99.899,6.73,9.545,38.0
99.934,6.75,8.987,34.0
99.929,6.767,8.426,33.0
99.894,6.81,11.248,33.0
99.899,6.827,10.683,33.0
99.897,6.844,10.119,38.0
99.899,6.861,9.546,40.0
99.905,6.878,8.985,34.0
99.921,6.896,8.426,33.0
99.897,6.94,11.248,35.0
99.901,6.958,10.682,34.0
99.906,6.974,10.118,32.0
99.913,6.991,9.545,35.0
99.917,7.008,8.982,35.0
99.934,7.025,8.423,35.0
99.914,7.069,11.244,35.0
99.908,7.085,10.677,37.0
99.88,7.098,10.109,37.0
99.901,7.116,9.537,38.0
99.919,7.134,8.974,37.0
99.93,7.151,8.414,35.0
99.888,7.193,11.232,33.0
99.908,7.211,10.666,34.0
99.924,7.227,10.102,35.0
99.926,7.243,9.528,37.0
99.927,7.259,8.964,37.0
99.921,7.275,8.4,22.0
99.09,7.261,11.128,2.0
99.116,7.278,10.568,4.0
99.066,7.288,10.001,4.0
99.016,7.299,9.425,5.0
99.093,7.321,8.873,5.0
99.081,7.337,8.312,7.0
99.008,7.378,11.1,39.0
99.017,7.393,10.538,41.0
99.014,7.407,9.976,52.0
99.012,7.421,9.405,63.0
99.021,7.437,8.846,58.0
99.035,7.454,8.287,51.0
99.015,7.499,11.079,18.0
98.99,7.511,10.513,8.0
98.962,7.523,9.948,5.0
99.019,7.541,9.381,5.0
99.016,7.556,8.82,46.0
99.002,7.57,8.259,1.0
94.849,7.297,10.587,5.0
94.857,7.31,10.048,5.0
94.864,7.324,9.509,7.0
94.834,7.335,8.958,7.0
94.88,7.353,8.424,7.0
94.859,7.364,7.886,9.0
94.814,7.406,10.554,40.0
94.822,7.419,10.014,54.0
94.819,7.43,9.474,59.0
94.81,7.442,8.925,65.0
94.831,7.457,8.388,53.0
94.846,7.471,7.853,50.0
94.804,7.513,10.521,11.0
94.871,7.53,9.986,10.0
94.831,7.54,9.441,8.0
94.81,7.55,8.89,8.0
94.887,7.569,8.358,7.0
94.852,7.579,7.818,5.0
95.111,7.645,10.518,1.0
94.979,7.646,9.96,1.0
0.0,0.0,0.0,0.0
98.668,7.967,9.212,1.0
98.793,7.991,8.662,2.0
98.814,8.005,8.103,4.0
97.718,7.963,10.763,9.0
97.895,7.988,10.223,10.0
97.89,7.999,9.663,10.0
97.895,8.012,9.096,9.0
97.736,8.01,8.526,7.0
97.397,7.995,7.943,9.0
96.785,7.991,10.616,9.0
96.654,7.991,10.048,8.0
96.52,7.99,9.483,7.0
96.195,7.975,8.891,8.0
96.082,7.977,8.334,8.0
96.151,7.994,7.794,9.0
87.117,7.284,9.511,3.0
87.083,7.29,9.008,1.0
87.127,7.304,8.514,3.0
87.052,7.307,8.001,3.0
87.032,7.316,7.503,3.0
87.09,7.331,7.012,3.0
87.075,7.37,9.459,10.0
87.048,7.376,8.956,11.0
87.03,7.383,8.457,11.0
87.022,7.391,7.95,10.0
87.02,7.401,7.453,12.0
87.041,7.413,6.959,13.0
87.037,7.453,9.404,50.0
87.012,7.46,8.901,48.0
87.031,7.469,8.405,59.0
87.036,7.478,7.9,62.0
87.04,7.487,7.403,59.0
87.046,7.497,6.907,54.0
87.058,7.539,9.352,12.0
87.026,7.544,8.849,50.0
87.046,7.553,8.352,9.0
87.049,7.562,7.846,11.0
87.062,7.572,7.349,10.0
87.064,7.581,6.853,11.0
0.0,0.0,0.0,0.0
87.038,7.627,8.793,13.0
0.0,0.0,0.0,0.0
82.922,7.281,7.418,0.0
82.966,7.292,6.948,1.0
82.996,7.304,6.476,1.0
82.884,7.331,8.792,3.0
82.928,7.342,8.32,4.0
82.929,7.349,7.843,4.0
82.961,7.358,7.362,4.0
82.925,7.362,6.885,5.0
82.934,7.371,6.413,5.0
82.856,7.401,8.729,11.0
82.874,7.409,8.253,13.0
82.873,7.416,7.777,13.0
82.845,7.419,7.292,13.0
82.874,7.428,6.82,14.0
82.891,7.438,6.347,25.0
82.853,7.471,8.666,50.0
82.858,7.477,8.189,56.0
82.862,7.483,7.713,56.0
82.861,7.489,7.229,56.0
82.872,7.496,6.756,59.0
82.885,7.505,6.283,43.0
82.826,7.536,8.597,16.0
82.857,7.543,8.123,19.0
82.867,7.55,7.647,15.0
82.876,7.556,7.164,16.0
82.864,7.562,6.688,15.0
82.881,7.569,6.216,41.0
82.864,7.604,8.532,4.0
82.874,7.609,8.056,5.0
82.909,7.617,7.582,5.0
82.883,7.62,7.095,5.0
82.902,7.628,6.621,6.0
82.891,7.633,6.146,73.0
82.971,7.675,8.472,2.0
83.044,7.686,8.0,1.0
83.053,7.692,7.523,2.0
82.947,7.687,7.028,2.0
82.987,7.696,6.556,4.0
82.883,7.692,6.073,116.0
85.82,8.0,8.686,9.0
85.818,8.004,8.19,8.0
85.783,8.006,7.693,8.0
85.74,8.006,7.187,9.0
85.638,8.002,6.687,6.0
82.896,7.751,5.998,150.0
85.597,8.038,8.584,11.0
85.555,8.037,8.086,10.0
85.537,8.04,7.591,11.0
85.488,8.039,7.086,11.0
85.374,8.032,6.587,8.0
82.895,7.804,5.921,150.0
85.028,8.039,8.445,10.0
85.022,8.041,7.954,9.0
85.118,8.053,7.473,9.0
85.205,8.065,6.982,10.0
85.104,8.06,6.484,5.0
82.904,7.856,5.841,32.0
84.082,8.0,8.269,9.0
84.163,8.01,7.791,8.0
84.291,8.025,7.317,7.0
83.425,7.946,6.753,10.0
84.666,8.068,6.367,2.0
82.948,7.908,5.762,5.0
83.769,8.018,8.153,10.0
83.724,8.015,7.665,9.0
83.658,8.012,7.177,9.0
83.5,7.999,6.674,11.0
83.002,7.955,6.157,4.0
83.493,8.005,5.715,7.0
83.613,8.047,8.051,10.0
83.588,8.046,7.566,9.0
83.48,8.038,7.075,11.0
83.56,8.047,6.592,11.0
82.893,7.986,6.063,22.0
83.41,8.039,5.621,10.0
83.204,8.049,7.923,8.0
83.272,8.056,7.448,9.0
83.381,8.068,6.977,9.0
83.395,8.071,6.489,10.0
82.871,8.022,5.972,40.0
83.342,8.071,5.528,10.0
75.051,7.294,7.065,0.0
75.283,7.316,6.653,1.0
83.133,8.081,6.866,1.0
83.266,8.094,6.389,2.0
82.884,8.059,5.883,9.0
83.272,8.099,5.432,3.0
75.18,7.337,6.994,2.0
75.11,7.33,6.554,3.0
75.077,7.327,6.117,1.0
75.238,7.344,5.689,1.0
75.125,7.334,5.248,2.0
75.237,7.346,4.823,0.0
75.094,7.356,6.901,3.0
75.092,7.356,6.466,3.0
75.122,7.359,6.035,3.0
75.111,7.358,5.593,2.0
75.05,7.353,5.156,3.0
75.103,7.359,4.728,3.0
75.11,7.382,6.814,5.0
75.067,7.377,6.377,4.0
75.071,7.378,5.943,4.0
75.105,7.381,5.505,4.0
75.144,7.385,5.075,4.0
75.135,7.385,4.644,3.0
75.052,7.398,6.721,7.0
75.081,7.4,6.288,6.0
75.054,7.397,5.852,7.0
75.031,7.394,5.411,5.0
75.082,7.399,4.982,5.0
75.108,7.402,4.551,5.0
75.06,7.418,6.63,10.0
75.055,7.415,6.196,8.0
75.069,7.416,5.763,8.0
75.098,7.418,5.325,7.0
75.074,7.415,4.891,6.0
75.089,7.416,4.461,7.0
75.036,7.43,6.537,13.0
75.054,7.43,6.104,10.0
75.061,7.429,5.672,9.0
75.058,7.428,5.231,8.0
75.065,7.428,4.799,8.0
75.087,7.43,4.369,8.0
75.038,7.443,6.444,15.0
75.041,7.441,6.01,14.0
75.054,7.44,5.578,10.0
75.057,7.439,5.138,11.0
75.079,7.439,4.708,9.0
75.095,7.441,4.276,9.0
75.052,7.453,6.352,17.0
75.057,7.45,5.918,15.0
75.011,7.443,5.481,13.0
75.044,7.445,5.043,11.0
75.079,7.447,4.613,10.0
75.074,7.445,4.181,10.0
75.023,7.455,6.254,19.0
75.034,7.453,5.821,16.0
75.038,7.451,5.389,12.0
75.081,7.453,4.95,11.0
75.061,7.449,4.516,10.0
75.065,7.447,4.086,11.0
75.049,7.461,6.16,20.0
75.078,7.46,5.728,17.0
75.039,7.453,5.292,13.0
75.035,7.449,4.851,11.0
75.055,7.449,4.42,10.0
75.065,7.448,3.989,10.0
75.041,7.458,6.062,20.0
75.047,7.456,5.628,14.0
75.031,7.45,5.193,13.0
75.031,7.447,4.753,11.0
75.082,7.449,4.323,10.0
75.085,7.447,3.892,9.0
75.068,7.457,5.965,18.0
75.078,7.454,5.532,13.0
75.032,7.445,5.095,11.0
75.065,7.445,4.657,10.0
75.064,7.442,4.224,9.0
75.081,7.44,3.794,8.0
75.03,7.446,5.862,13.0
75.055,7.444,5.43,11.0
75.056,7.439,4.997,9.0
75.063,7.436,4.556,8.0
75.088,7.435,4.126,7.0
75.098,7.432,3.694,7.0
75.064,7.438,5.764,10.0
75.063,7.433,5.33,9.0
75.056,7.427,4.895,8.0
75.086,7.426,4.456,7.0
75.052,7.419,4.022,6.0
75.098,7.419,3.592,8.0
75.059,7.424,5.661,8.0
75.034,7.415,5.226,7.0
75.122,7.419,4.798,6.0
75.071,7.409,4.354,5.0
75.112,7.408,3.924,4.0
75.131,7.406,3.493,5.0
75.089,7.409,5.561,6.0
75.128,7.406,5.13,5.0
75.095,7.397,4.695,4.0
75.042,7.387,4.251,3.0
75.16,7.394,3.825,3.0
75.13,7.386,3.392,3.0
75.097,7.389,5.46,4.0
75.1,7.382,5.026,4.0
75.174,7.384,4.598,3.0
75.108,7.372,4.153,2.0
75.122,7.368,3.722,3.0
75.215,7.372,3.294,2.0
75.093,7.364,5.357,3.0
75.105,7.358,4.924,2.0
75.11,7.352,4.492,2.0
75.098,7.346,4.05,1.0
82.87,8.099,3.992,3.0
83.157,8.121,3.529,2.0
75.114,7.338,5.255,1.0
75.196,7.339,4.826,1.0
83.058,8.099,4.851,1.0
83.17,8.103,4.371,4.0
82.873,8.067,3.879,14.0
83.393,8.111,3.424,9.0
82.788,8.054,5.677,6.0
82.822,8.048,5.202,7.0
82.891,8.048,4.728,8.0
83.034,8.054,4.25,6.0
83.005,8.044,3.772,6.0
83.523,8.088,3.314,6.0
83.332,8.069,5.6,10.0
83.398,8.067,5.123,10.0
83.435,8.062,4.645,9.0
82.906,8.002,4.129,9.0
83.539,8.056,3.681,8.0
83.722,8.067,3.208,8.0
83.977,8.089,5.526,10.0
84.08,8.089,5.05,10.0
84.182,8.091,4.57,10.0
82.893,7.958,4.015,35.0
84.34,8.089,3.6,10.0
84.27,8.074,3.113,3.0
84.415,8.085,5.439,10.0
84.632,8.096,4.966,11.0
84.795,8.102,4.487,9.0
82.913,7.914,3.902,29.0
85.109,8.115,3.516,10.0
68.026,6.479,2.419,3.0
84.646,8.057,5.336,9.0
84.834,8.065,4.859,9.0
82.93,7.874,4.273,3.0
83.002,7.872,3.791,3.0
85.508,8.101,3.414,10.0
68.573,6.489,2.344,6.0
85.133,8.049,5.249,9.0
85.27,8.052,4.766,10.0
82.899,7.818,4.157,48.0
85.562,8.059,3.79,7.0
85.713,8.063,3.304,7.0
69.036,6.487,2.265,8.0
85.831,8.057,5.174,9.0
85.93,8.055,4.684,5.0
82.918,7.762,4.044,38.0
0.0,0.0,0.0,0.0
83.011,7.751,3.085,1.0
69.632,6.494,2.189,9.0
83.016,7.733,4.89,2.0
82.913,7.712,4.407,5.0
82.986,7.708,3.933,7.0
82.903,7.69,3.444,4.0
70.103,6.494,2.51,1.0
70.22,6.496,2.111,9.0
82.961,7.664,4.772,5.0
82.893,7.646,4.29,61.0
82.922,7.637,3.816,10.0
82.924,7.626,3.332,11.0
70.643,6.488,2.432,5.0
70.861,6.499,2.033,11.0
82.893,7.591,4.654,19.0
82.915,7.58,4.179,37.0
82.908,7.568,3.701,58.0
82.92,7.557,3.217,147.0
71.373,6.495,2.359,8.0
71.543,6.501,1.955,10.0
82.916,7.522,4.541,111.0
82.918,7.509,4.064,43.0
82.92,7.497,3.588,26.0
82.93,7.485,3.105,15.0
72.094,6.498,2.286,9.0
72.256,6.503,1.877,8.0
82.925,7.448,4.429,11.0
82.95,7.437,3.954,7.0
82.958,7.425,3.478,4.0
82.944,7.411,2.993,3.0
72.83,6.497,2.211,6.0
73.022,6.503,1.798,8.0
83.003,7.377,4.321,2.0
83.09,7.371,3.848,3.0
83.106,7.359,3.373,1.0
73.356,6.485,2.549,1.0
73.555,6.491,2.134,8.0
73.764,6.499,1.719,10.0
87.092,7.655,4.417,146.0
87.106,7.641,3.918,8.0
87.108,7.627,3.418,12.0
74.164,6.481,2.477,3.0
74.432,6.494,2.06,9.0
74.621,6.499,1.639,10.0
87.073,7.564,4.3,51.0
87.09,7.55,3.801,72.0
87.084,7.535,3.302,147.0
75.177,6.492,2.412,8.0
75.318,6.492,1.986,7.0
40.093,3.45,0.828,2.0
87.062,7.47,4.185,16.0
40.083,3.432,1.697,10.0
40.08,3.425,1.467,68.0
40.094,3.419,1.234,150.0
40.104,3.413,1.005,110.0
40.098,3.407,0.776,97.0
45.181,2.801,1.28,10.0
132.806,8.198,3.013,27.0
99.348,6.108,1.691,1.0
99.693,6.104,1.123,11.0
45.182,2.755,0.253,4.0
45.169,2.743,-0.001,27.0
45.169,2.723,1.237,2.0
112.015,6.724,2.434,34.0
45.212,2.702,0.726,80.0
45.208,2.689,0.466,150.0
45.192,2.677,0.211,16.0
45.209,2.666,-0.044,3.0
45.202,2.647,1.196,1.0
203.458,11.86,4.233,6.0
99.681,5.783,1.51,11.0
99.561,5.749,0.936,11.0
45.178,2.597,0.169,39.0
40.32,2.307,-0.076,38.0
45.199,2.566,1.154,7.0
45.206,2.554,0.899,87.0
45.21,2.542,0.644,13.0
80.096,4.482,0.681,3.0
45.185,2.517,0.129,42.0
40.33,2.235,-0.111,39.0
200.16,11.009,4.94,9.0
0.0,0.0,0.0,0.0
99.749,5.429,1.335,4.0
45.216,2.448,0.345,16.0
45.182,2.434,0.09,47.0
40.322,2.161,-0.146,45.0
45.174,2.401,1.076,1.0
45.299,2.395,0.824,0.0
99.783,5.247,1.252,19.0
62.719,3.281,0.427,7.0
45.179,2.351,0.053,44.0
40.323,2.087,-0.179,50.0
45.209,2.32,1.04,8.0
45.22,2.307,0.786,132.0
45.201,2.293,0.531,13.0
62.261,3.142,0.375,6.0
45.176,2.267,0.018,43.0
40.313,2.012,-0.21,40.0
23.653,1.17,0.525,0.0
23.619,1.161,0.392,5.0
23.614,1.154,0.259,17.0
23.636,1.148,0.124,37.0
23.635,1.142,-0.008,39.0
23.635,1.135,-0.141,38.0
23.596,1.122,0.507,46.0
23.592,1.115,0.374,52.0
23.59,1.108,0.241,60.0
23.6,1.101,0.106,63.0
23.596,1.094,-0.025,66.0
23.612,1.088,-0.158,68.0
23.591,1.077,0.489,77.0
23.597,1.07,0.357,76.0
23.582,1.062,0.224,63.0
23.599,1.056,0.09,60.0
23.614,1.05,-0.042,51.0
23.619,1.043,-0.174,45.0
23.623,1.032,0.474,47.0
23.625,1.025,0.341,42.0
23.634,1.019,0.209,38.0
23.646,1.012,0.074,29.0
40.322,1.714,-0.098,8.0
23.651,0.998,-0.19,1.0
100.538,4.2,1.953,10.0
100.547,4.169,1.389,19.0
40.371,1.662,0.331,2.0
40.325,1.647,0.101,140.0
40.335,1.636,-0.124,150.0
36.516,1.47,-0.317,1.0
40.389,1.607,0.759,122.0
40.416,1.595,0.533,151.0
41.221,1.615,0.313,150.0
40.34,1.568,0.077,134.0
40.467,1.56,-0.149,10.0
36.227,1.386,-0.336,2.0
42.924,1.623,0.782,69.0
43.422,1.628,0.548,94.0
43.792,1.628,0.308,183.0
43.126,1.59,0.058,2.0
40.091,1.466,-0.17,50.0
40.145,1.455,-0.394,1.0
162.269,5.811,2.867,56.0
70.928,2.518,0.857,22.0
73.289,2.578,0.476,3.0
40.128,1.399,0.032,150.0
40.106,1.386,-0.191,115.0
40.169,1.375,-0.416,2.0
40.144,1.356,0.688,4.0
40.139,1.343,0.464,112.0
40.124,1.33,0.24,150.0
40.13,1.317,0.012,150.0
40.094,1.303,-0.211,84.0
40.191,1.293,-0.435,2.0
40.13,1.274,0.669,150.0
40.129,1.261,0.445,117.0
40.134,1.248,0.221,112.0
40.115,1.234,-0.006,150.0
40.044,1.219,-0.229,43.0
40.178,1.21,-0.454,1.0
40.123,1.191,0.651,150.0
40.126,1.178,0.427,150.0
0.0,0.0,0.0,0.0
40.125,1.152,-0.023,150.0
40.016,1.135,-0.246,39.0
40.163,1.126,-0.47,1.0
0.0,0.0,0.0,0.0
0.0,0.0,0.0,0.0
45.498,1.226,0.213,3.0
40.171,1.069,-0.039,157.0
39.995,1.051,-0.261,8.0
33.03,0.857,-0.399,1.0
115.535,2.95,1.783,7.0
70.819,1.785,0.699,31.0
45.522,1.132,0.196,16.0
0.0,0.0,0.0,0.0
40.335,0.976,-0.278,2.0
32.802,0.783,-0.408,1.0
128.639,3.018,1.942,29.0
70.908,1.64,0.676,8.0
79.024,1.801,0.315,7.0
52.196,1.172,-0.086,1.0
38.789,0.858,-0.279,1.0
32.532,0.708,-0.414,1.0
163.11,3.483,2.413,19.0
114.002,2.396,1.054,5.0
0.0,0.0,0.0,0.0
52.255,1.063,-0.101,1.0
39.352,0.787,-0.294,1.0
55.237,1.086,-0.719,1.0
55.211,1.062,0.802,44.0
55.172,1.043,0.495,54.0
55.164,1.024,0.19,67.0
52.308,0.953,-0.114,2.0
40.378,0.721,-0.312,0.0
33.268,0.583,-0.441,0.0
55.194,0.946,0.789,48.0
55.186,0.926,0.483,13.0
55.128,0.906,0.178,0.0
52.324,0.842,-0.125,2.0
19.691,0.31,-0.156,0.0
19.675,0.303,-0.264,12.0
19.744,0.296,0.278,9.0
19.766,0.289,0.169,3.0
0.0,0.0,0.0,0.0
19.685,0.274,-0.05,6.0
19.662,0.267,-0.159,15.0
19.655,0.26,-0.267,17.0
19.732,0.253,0.275,13.0
19.771,0.247,0.166,27.0
19.704,0.239,0.057,2.0
19.635,0.232,-0.053,10.0
19.63,0.224,-0.161,16.0
19.66,0.218,-0.27,17.0
19.743,0.211,0.273,9.0
19.682,0.204,0.163,11.0
19.648,0.197,0.055,12.0
19.638,0.19,-0.055,12.0
19.645,0.183,-0.163,15.0
19.66,0.176,-0.272,9.0
19.645,0.168,0.27,12.0
19.656,0.161,0.162,15.0
19.637,0.154,0.053,16.0
19.66,0.148,-0.056,10.0
19.676,0.141,-0.164,5.0
0.0,0.0,0.0,0.0
19.625,0.126,0.269,12.0
19.658,0.119,0.161,15.0
19.654,0.112,0.053,11.0
19.721,0.106,-0.057,2.0
19.774,0.099,-0.166,2.0
19.769,0.092,-0.274,9.0
19.621,0.084,0.268,16.0
19.679,0.077,0.161,12.0
19.754,0.07,0.053,36.0
19.758,0.063,-0.056,34.0
19.759,0.056,-0.165,13.0
19.768,0.049,-0.274,13.0
19.624,0.042,0.269,15.0
19.756,0.035,0.162,18.0
19.781,0.028,0.054,4.0
19.738,0.021,-0.055,10.0
19.733,0.014,-0.164,0.0
0.0,0.0,0.0,0.0
19.631,0.0,0.271,14.0
19.73,-0.006,0.164,4.0
19.702,-0.013,0.055,14.0
19.719,-0.02,-0.054,12.0
19.749,-0.027,-0.162,14.0
19.762,-0.034,-0.27,7.0
19.645,-0.041,0.273,11.0
19.7,-0.048,0.166,17.0
19.705,-0.055,0.058,14.0
19.713,-0.062,-0.051,14.0
19.721,-0.07,-0.159,17.0
19.751,-0.077,-0.267,15.0
19.677,-0.083,0.276,10.0
19.712,-0.091,0.169,15.0
19.715,-0.098,0.061,11.0
19.737,-0.105,-0.048,8.0
19.724,-0.112,-0.156,17.0
19.747,-0.119,-0.264,17.0
170.443,-1.091,2.427,6.0
160.688,-1.084,1.409,8.0
19.833,-0.141,0.065,0.0
19.778,-0.147,-0.044,4.0
19.754,-0.154,-0.152,13.0
19.76,-0.161,-0.26,14.0
169.481,-1.445,2.45,17.0
160.637,-1.429,1.445,6.0
0.0,0.0,0.0,0.0
0.0,0.0,0.0,0.0
0.0,0.0,0.0,0.0
0.0,0.0,0.0,0.0
19.768,-0.21,0.29,7.0
19.759,-0.217,0.183,5.0
0.0,0.0,0.0,0.0
0.0,0.0,0.0,0.0
0.0,0.0,0.0,0.0
0.0,0.0,0.0,0.0
19.755,-0.252,0.296,9.0
19.752,-0.259,0.188,30.0
19.743,-0.266,0.081,12.0
0.0,0.0,0.0,0.0
47.735,-0.678,-0.328,0.0
0.0,0.0,0.0,0.0
163.49,-2.431,2.507,19.0
19.768,-0.301,0.195,2.0
19.737,-0.308,0.087,2.0
0.0,0.0,0.0,0.0
0.0,0.0,0.0,0.0
38.672,-0.645,-0.462,0.0
163.495,-2.774,2.566,18.0
0.0,0.0,0.0,0.0
0.0,0.0,0.0,0.0
0.0,0.0,0.0,0.0
0.0,0.0,0.0,0.0
0.0,0.0,0.0,0.0
0.0,0.0,0.0,0.0
146.014,-2.835,1.558,122.0
0.0,0.0,0.0,0.0
0.0,0.0,0.0,0.0
0.0,0.0,0.0,0.0
0.0,0.0,0.0,0.0
170.361,-3.603,2.818,5.0
145.915,-3.139,1.622,150.0
0.0,0.0,0.0,0.0
0.0,0.0,0.0,0.0
0.0,0.0,0.0,0.0
0.0,0.0,0.0,0.0
170.405,-3.956,2.899,5.0
145.86,-3.437,1.691,34.0
160.505,-3.839,0.992,3.0
0.0,0.0,0.0,0.0
0.0,0.0,0.0,0.0
0.0,0.0,0.0,0.0
170.383,-4.303,2.984,6.0
145.829,-3.736,1.766,38.0
145.873,-3.788,0.977,3.0
0.0,0.0,0.0,0.0
0.0,0.0,0.0,0.0
0.0,0.0,0.0,0.0
178.153,-4.864,3.218,17.0
145.964,-4.037,1.848,3.0
0.0,0.0,0.0,0.0
0.0,0.0,0.0,0.0
0.0,0.0,0.0,0.0
0.0,0.0,0.0,0.0
0.0,0.0,0.0,0.0
0.0,0.0,0.0,0.0
0.0,0.0,0.0,0.0
0.0,0.0,0.0,0.0
0.0,0.0,0.0,0.0
0.0,0.0,0.0,0.0
162.282,-5.092,3.126,12.0
162.033,-5.139,2.248,20.0
0.0,0.0,0.0,0.0
0.0,0.0,0.0,0.0
0.0,0.0,0.0,0.0
46.474,-1.54,-0.361,0.0
162.219,-5.414,3.231,21.0
162.203,-5.468,2.357,19.0
162.082,-5.521,1.482,5.0
0.0,0.0,0.0,0.0
0.0,0.0,0.0,0.0
0.0,0.0,0.0,0.0
108.341,-10.075,8.585,17.0
106.127,-9.87,7.844,20.0
106.809,-9.934,7.326,20.0
110.197,-10.25,6.963,10.0
108.715,-10.112,6.294,21.0
108.112,-10.057,5.686,18.0
108.005,-10.068,8.708,10.0
106.15,-9.893,7.993,18.0
107.089,-9.98,7.494,15.0
107.405,-10.009,6.935,19.0
108.762,-10.135,6.446,20.0
108.816,-10.14,5.873,16.0
48.27,-4.507,3.959,14.0
106.055,-9.901,8.134,9.0
106.651,-9.956,7.611,14.0
107.147,-10.0,7.066,22.0
108.903,-10.162,6.604,18.0
108.661,-10.139,6.014,22.0
48.281,-4.514,4.026,40.0
108.001,-10.095,8.43,15.0
106.328,-9.936,7.732,18.0
106.7,-9.969,7.181,27.0
109.933,-10.268,6.815,17.0
108.613,-10.143,6.157,28.0
48.305,-4.52,4.094,32.0
108.548,-10.153,8.62,18.0
106.299,-9.94,7.873,17.0
106.796,-9.983,7.331,21.0
107.394,-10.035,6.801,13.0
108.701,-10.154,6.307,27.0
48.294,-4.521,4.158,30.0
48.268,-4.516,3.898,3.0
106.138,-9.926,8.005,17.0
107.157,-10.017,7.499,15.0
107.35,-10.031,6.941,20.0
108.776,-10.161,6.455,19.0
48.401,-4.53,4.232,23.0
48.274,-4.516,3.962,22.0
106.015,-9.912,8.135,10.0
106.877,-9.987,7.621,14.0
107.154,-10.008,7.069,23.0
108.872,-10.164,6.602,17.0
45.993,-4.302,4.081,11.0
48.288,-4.514,4.026,37.0
108.059,-10.096,8.431,14.0
106.236,-9.919,7.712,17.0
106.768,-9.963,7.18,24.0
0.0,0.0,0.0,0.0
0.0,0.0,0.0,0.0
48.303,-4.51,4.09,31.0
108.202,-10.097,8.583,11.0
106.169,-9.9,7.843,20.0
106.813,-9.953,7.32,21.0
110.192,-10.261,6.964,6.0
47.553,-4.438,4.342,28.0
48.294,-4.503,4.151,29.0
48.329,-4.502,3.895,2.0
106.109,-9.877,7.973,17.0
107.008,-9.953,7.468,16.0
107.528,-9.994,6.93,10.0
47.467,-4.421,4.395,14.0
48.331,-4.497,4.215,18.0
48.292,-4.489,3.952,4.0
108.566,-10.083,8.293,11.0
106.428,-9.876,7.561,10.0
107.433,-9.961,7.058,21.0
39.252,-3.647,3.683,19.0
48.542,-4.505,4.293,6.0
48.436,-4.491,4.024,17.0
108.277,-10.03,8.404,21.0
106.188,-9.826,7.674,21.0
107.208,-9.912,7.173,22.0
39.173,-3.629,3.723,28.0
47.573,-4.403,4.266,21.0
48.393,-4.473,4.079,29.0
108.15,-9.987,8.524,20.0
105.979,-9.776,7.784,18.0
106.868,-9.848,7.277,24.0
39.156,-3.616,3.769,31.0
47.542,-4.385,4.32,35.0
48.343,-4.453,4.132,24.0
107.83,-9.922,8.627,13.0
105.83,-9.726,7.898,9.0
106.824,-9.807,7.399,21.0
39.248,-3.611,3.824,28.0
47.548,-4.369,4.376,23.0
48.331,-4.435,4.187,31.0
107.741,-9.874,8.744,12.0
108.442,-9.926,8.217,15.0
106.582,-9.744,7.503,18.0
39.278,-3.599,3.872,26.0
47.583,-4.353,4.433,14.0
47.891,-4.375,4.203,22.0
48.467,-4.422,3.988,11.0
108.197,-9.859,8.32,20.0
106.228,-9.667,7.598,17.0
39.262,-3.58,3.915,13.0
49.339,-4.493,4.653,18.0
47.572,-4.325,4.228,41.0
48.413,-4.396,4.037,20.0
108.558,-9.842,8.468,16.0
106.074,-9.603,7.703,19.0
45.455,-4.124,4.583,10.0
49.191,-4.456,4.693,21.0
47.53,-4.299,4.277,40.0
48.363,-4.367,4.086,38.0
108.447,-9.778,8.577,9.0
108.798,-9.796,8.018,7.0
48.871,-4.41,4.98,5.0
39.171,-3.528,3.779,35.0
47.528,-4.274,4.328,23.0
48.373,-4.343,4.138,21.0
107.84,-9.667,8.641,11.0
108.861,-9.744,8.134,17.0
48.201,-4.323,4.962,23.0
39.215,-3.511,3.824,30.0
47.406,-4.237,4.365,21.0
106.232,-9.479,9.195,14.0
107.366,-9.563,8.713,10.0
108.863,-9.681,8.245,7.0
48.599,-4.331,5.053,25.0
39.24,-3.49,3.866,27.0
47.48,-4.216,4.42,16.0
47.578,-4.217,4.166,15.0
107.212,-9.485,8.807,15.0
0.0,0.0,0.0,0.0
47.871,-4.237,5.025,20.0
39.205,-3.463,3.901,19.0
47.485,-4.186,4.467,4.0
47.455,-4.175,4.201,19.0
107.104,-9.408,8.9,13.0
111.413,-9.767,8.655,16.0
47.758,-4.196,5.059,14.0
39.157,-3.433,3.934,28.0
49.27,-4.311,4.681,14.0
47.516,-4.149,4.251,19.0
106.629,-9.294,8.959,10.0
109.883,-9.559,8.637,14.0
0.0,0.0,0.0,0.0
48.799,-4.245,4.948,7.0
49.107,-4.263,4.71,23.0
47.465,-4.111,4.289,41.0
106.416,-9.199,9.038,17.0
109.842,-9.477,8.732,23.0
50.234,-4.343,5.413,4.0
48.823,-4.211,4.993,24.0
39.252,-3.378,3.8,14.0
47.467,-4.077,4.331,34.0
106.561,-9.134,9.142,18.0
109.608,-9.375,8.807,7.0
50.229,-4.305,5.456,10.0
49.006,-4.19,5.054,23.0
48.819,-4.165,4.767,15.0
47.51,-4.044,4.375,30.0
106.905,-9.081,9.26,13.0
106.546,-9.03,8.649,19.0
46.689,-3.964,5.111,11.0
49.082,-4.158,5.102,30.0
48.808,-4.125,4.806,42.0
47.545,-4.009,4.417,16.0
47.573,-4.002,4.159,7.0
106.55,-8.944,8.733,22.0
46.787,-3.934,5.159,7.0
49.153,-4.123,5.149,23.0
48.825,-4.086,4.846,21.0
49.35,-4.12,4.622,6.0
47.589,-3.963,4.197,12.0
106.648,-8.862,8.823,21.0
105.735,-8.802,11.739,1.0
49.195,-4.085,5.191,22.0
48.968,-4.055,4.897,17.0
49.369,-4.078,4.661,35.0
47.544,-3.918,4.228,12.0
106.663,-8.769,8.902,22.0
0.0,0.0,0.0,0.0
49.119,-4.035,5.218,23.0
48.996,-4.014,4.935,14.0
49.419,-4.038,4.7,19.0
47.619,-3.881,4.268,7.0
106.651,-8.672,8.974,26.0
107.863,-8.786,12.129,13.0
49.217,-3.997,5.262,23.0
49.24,-3.989,4.993,6.0
49.435,-3.994,4.735,19.0
49.535,-3.991,4.472,4.0
106.722,-8.576,9.05,20.0
105.987,-8.532,11.989,8.0
49.239,-3.953,5.296,18.0
106.158,-8.498,10.833,13.0
49.472,-3.949,4.77,12.0
106.373,-8.469,9.671,19.0
106.688,-8.471,9.113,19.0
106.879,-8.5,12.155,2.0
49.273,-3.907,5.33,21.0
106.044,-8.386,10.884,20.0
106.022,-8.36,10.285,19.0
106.455,-8.371,9.74,16.0
107.032,-8.392,9.204,20.0
106.994,-8.402,12.231,2.0
49.293,-3.859,5.36,15.0
106.2,-8.291,10.96,17.0
105.883,-8.242,10.331,26.0
106.712,-8.282,9.822,14.0
107.076,-8.287,9.265,19.0
0.0,0.0,0.0,0.0
49.316,-3.81,5.39,11.0
106.576,-8.21,11.055,19.0
105.983,-8.139,10.395,20.0
107.105,-8.201,9.913,16.0
107.134,-8.179,9.324,21.0
107.079,-8.187,12.351,2.0
107.111,-8.165,11.757,19.0
106.108,-8.062,11.058,20.0
106.438,-8.062,10.49,16.0
49.674,-3.751,4.62,3.0
107.269,-8.076,9.384,7.0
0.0,0.0,0.0,0.0
107.018,-8.042,11.796,18.0
106.457,-7.975,11.14,18.0
106.609,-7.96,10.553,22.0
107.082,-7.971,10.005,20.0
107.449,-7.972,9.445,11.0
0.0,0.0,0.0,0.0
107.048,-7.928,11.842,24.0
106.854,-7.887,11.225,23.0
106.524,-7.837,10.586,21.0
49.626,-3.639,4.656,5.0
107.883,-7.886,9.523,10.0
107.861,-7.894,12.577,2.0
107.19,-7.819,11.898,20.0
106.721,-7.758,11.25,20.0
106.831,-7.741,10.654,27.0
109.388,-7.9,10.3,19.0
107.911,-7.767,9.561,13.0
107.605,-7.753,12.583,2.0
106.956,-7.68,11.907,25.0
107.248,-7.675,11.338,16.0
106.822,-7.618,10.686,26.0
109.243,-7.764,10.319,17.0
106.818,-7.566,9.495,8.0
0.0,0.0,0.0,0.0
107.565,-7.599,12.005,25.0
106.692,-7.51,11.31,20.0
106.863,-7.496,10.718,19.0
107.194,-7.492,10.154,11.0
106.757,-7.436,9.517,21.0
0.0,0.0,0.0,0.0
107.658,-7.478,12.041,22.0
106.441,-7.365,11.308,22.0
106.808,-7.364,10.738,19.0
108.036,-7.423,10.257,17.0
106.718,-7.306,9.537,17.0
0.0,0.0,0.0,0.0
107.919,-7.367,12.092,5.0
106.447,-7.238,11.329,20.0
106.727,-7.23,10.749,17.0
110.862,-7.483,10.545,16.0
106.564,-7.168,9.54,16.0
0.0,0.0,0.0,0.0
0.0,0.0,0.0,0.0
0.0,0.0,0.0,0.0
106.729,-7.102,10.764,16.0
108.023,-7.162,10.289,10.0
106.59,-7.04,9.556,16.0
0.0,0.0,0.0,0.0
0.0,0.0,0.0,0.0
0.0,0.0,0.0,0.0
107.638,-7.031,10.866,21.0
107.652,-7.005,10.263,22.0
107.142,-6.946,9.614,15.0
0.0,0.0,0.0,0.0
0.0,0.0,0.0,0.0
0.0,0.0,0.0,0.0
107.663,-6.9,10.874,9.0
107.467,-6.86,10.25,25.0
107.424,-6.83,9.643,11.0
0.0,0.0,0.0,0.0
0.0,0.0,0.0,0.0
0.0,0.0,0.0,0.0
107.693,-6.763,10.879,16.0
107.736,-6.74,10.276,10.0
111.651,-6.957,10.022,7.0
0.0,0.0,0.0,0.0
0.0,0.0,0.0,0.0
0.0,0.0,0.0,0.0
107.81,-6.632,10.887,11.0
112.017,-6.864,10.68,13.0
107.232,-6.543,9.62,7.0
0.0,0.0,0.0,0.0
0.0,0.0,0.0,0.0
0.0,0.0,0.0,0.0
0.0,0.0,0.0,0.0
124.535,-4.826,10.934,23.0
115.073,-4.433,9.444,31.0
0.0,0.0,0.0,0.0
0.0,0.0,0.0,0.0
0.0,0.0,0.0,0.0
0.0,0.0,0.0,0.0
0.0,0.0,0.0,0.0
115.417,-4.296,9.374,24.0
0.0,0.0,0.0,0.0
0.0,0.0,0.0,0.0
0.0,0.0,0.0,0.0
113.711,-4.134,10.443,3.0
126.347,-4.565,10.876,23.0
116.035,-4.167,9.321,26.0
0.0,0.0,0.0,0.0
0.0,0.0,0.0,0.0
0.0,0.0,0.0,0.0
113.682,-3.985,10.336,6.0
116.265,-4.051,9.901,12.0
116.015,-4.017,9.212,22.0
0.0,0.0,0.0,0.0
0.0,0.0,0.0,0.0
0.0,0.0,0.0,0.0
113.774,-3.843,10.236,4.0
116.268,-3.901,9.789,27.0
125.784,-4.194,9.867,21.0
0.0,0.0,0.0,0.0
0.0,0.0,0.0,0.0
0.0,0.0,0.0,0.0
0.0,0.0,0.0,0.0
126.223,-4.076,10.501,26.0
126.067,-4.045,9.761,23.0
0.0,0.0,0.0,0.0
0.0,0.0,0.0,0.0
0.0,0.0,0.0,0.0
0.0,0.0,0.0,0.0
126.162,-3.916,10.364,11.0
125.977,-3.883,9.623,28.0
0.0,0.0,0.0,0.0
0.0,0.0,0.0,0.0
0.0,0.0,0.0,0.0
0.0,0.0,0.0,0.0
0.0,0.0,0.0,0.0
126.119,-3.731,9.495,12.0
0.0,0.0,0.0,0.0
0.0,0.0,0.0,0.0
113.907,-3.298,10.435,2.0
0.0,0.0,0.0,0.0
126.211,-3.603,10.088,8.0
140.467,-3.982,10.416,12.0
0.0,0.0,0.0,0.0
0.0,0.0,0.0,0.0
113.927,-3.158,10.305,3.0
0.0,0.0,0.0,0.0
0.0,0.0,0.0,0.0
0.0,0.0,0.0,0.0
0.0,0.0,0.0,0.0
0.0,0.0,0.0,0.0
0.0,0.0,0.0,0.0
0.0,0.0,0.0,0.0
0.0,0.0,0.0,0.0
0.0,0.0,0.0,0.0
0.0,0.0,0.0,0.0
0.0,0.0,0.0,0.0
0.0,0.0,0.0,0.0
0.0,0.0,0.0,0.0
0.0,0.0,0.0,0.0
0.0,0.0,0.0,0.0
0.0,0.0,0.0,0.0
0.0,0.0,0.0,0.0
0.0,0.0,0.0,0.0
0.0,0.0,0.0,0.0
0.0,0.0,0.0,0.0
0.0,0.0,0.0,0.0
0.0,0.0,0.0,0.0
114.046,-2.638,10.404,3.0
0.0,0.0,0.0,0.0
0.0,0.0,0.0,0.0
0.0,0.0,0.0,0.0
0.0,0.0,0.0,0.0
0.0,0.0,0.0,0.0
114.175,-2.51,10.261,2.0
0.0,0.0,0.0,0.0
0.0,0.0,0.0,0.0
0.0,0.0,0.0,0.0
0.0,0.0,0.0,0.0
0.0,0.0,0.0,0.0
0.0,0.0,0.0,0.0
0.0,0.0,0.0,0.0
0.0,0.0,0.0,0.0
0.0,0.0,0.0,0.0
0.0,0.0,0.0,0.0
0.0,0.0,0.0,0.0
0.0,0.0,0.0,0.0
0.0,0.0,0.0,0.0
0.0,0.0,0.0,0.0
184.84,-0.96,7.818,21.0
19.676,-0.1,0.717,9.0
0.0,0.0,0.0,0.0
0.0,0.0,0.0,0.0
0.0,0.0,0.0,0.0
185.086,-0.861,8.556,6.0
19.76,-0.09,0.797,1.0
19.661,-0.088,0.678,12.0
0.0,0.0,0.0,0.0
0.0,0.0,0.0,0.0
19.575,-0.08,0.983,0.0
184.849,-0.749,8.183,21.0
19.695,-0.078,0.756,8.0
19.644,-0.076,0.64,13.0
0.0,0.0,0.0,0.0
0.0,0.0,0.0,0.0
19.608,-0.069,0.946,2.0
184.69,-0.644,7.818,22.0
19.668,-0.067,0.717,10.0
19.639,-0.065,0.601,13.0
0.0,0.0,0.0,0.0
19.606,-0.06,1.022,3.0
19.599,-0.059,0.907,8.0
19.693,-0.058,0.794,2.0
19.647,-0.056,0.677,13.0
19.632,-0.055,0.562,13.0
0.0,0.0,0.0,0.0
19.583,-0.05,0.982,15.0
19.603,-0.049,0.868,9.0
19.675,-0.048,0.754,8.0
19.634,-0.047,0.637,13.0
19.627,-0.045,0.523,13.0
19.621,-0.042,1.059,4.0
19.586,-0.041,0.942,16.0
19.638,-0.04,0.83,1.0
19.659,-0.039,0.714,10.0
19.627,-0.038,0.598,13.0
19.628,-0.037,0.483,14.0
19.576,-0.033,1.017,11.0
19.581,-0.032,0.902,16.0
19.685,-0.031,0.792,6.0
19.641,-0.03,0.673,13.0
19.612,-0.029,0.557,13.0
19.621,-0.028,0.443,14.0
19.565,-0.025,0.976,18.0
19.595,-0.024,0.863,17.0
19.663,-0.024,0.751,9.0
19.618,-0.023,0.632,12.0
19.611,-0.022,0.517,13.0
19.628,-0.021,0.403,14.0
19.572,-0.018,0.936,21.0
19.638,-0.017,0.824,10.0
19.638,-0.016,0.709,12.0
19.613,-0.015,0.591,13.0
19.614,-0.015,0.476,12.0
19.624,-0.014,0.362,14.0
19.568,-0.011,0.895,17.0
19.665,-0.011,0.784,13.0
19.631,-0.01,0.668,12.0
19.612,-0.009,0.55,13.0
19.622,-0.008,0.436,12.0
19.624,-0.008,0.321,14.0
19.597,-0.006,0.855,20.0
19.645,-0.005,0.742,11.0
19.612,-0.004,0.626,12.0
19.605,-0.004,0.509,12.0
19.61,-0.003,0.395,13.0
19.626,-0.002,0.28,14.0
19.641,0.0,0.816,17.0
19.637,0.0,0.701,12.0
19.605,0.0,0.585,12.0
19.615,0.0,0.468,11.0
19.615,0.001,0.353,13.0
19.631,0.001,0.239,15.0
19.661,0.003,0.776,16.0
19.623,0.004,0.659,12.0
19.614,0.004,0.544,12.0
19.611,0.004,0.427,11.0
19.616,0.005,0.312,14.0
19.639,0.005,0.197,13.0
19.641,0.007,0.733,12.0
19.615,0.007,0.617,12.0
19.613,0.008,0.502,13.0
19.61,0.008,0.385,13.0
19.617,0.008,0.27,13.0
19.77,0.009,0.157,2.0
19.632,0.01,0.691,13.0
19.623,0.01,0.576,13.0
19.611,0.01,0.461,12.0
19.601,0.01,0.344,16.0
19.619,0.011,0.229,16.0
19.768,0.011,0.115,5.0
19.613,0.012,0.649,12.0
19.603,0.012,0.533,13.0
19.61,0.012,0.418,12.0
19.61,0.012,0.302,14.0
19.664,0.013,0.187,8.0
19.775,0.013,0.073,6.0
19.618,0.014,0.607,13.0
19.607,0.014,0.492,13.0
19.614,0.014,0.377,16.0
19.615,0.014,0.26,14.0
19.726,0.014,0.146,18.0
19.766,0.014,0.03,5.0
19.616,0.014,0.564,14.0
19.614,0.014,0.449,12.0
19.617,0.014,0.335,16.0
19.618,0.014,0.218,15.0
19.758,0.014,0.103,7.0
19.753,0.014,-0.011,20.0
19.606,0.014,0.522,14.0
19.614,0.014,0.408,13.0
19.612,0.014,0.292,13.0
19.728,0.014,0.177,5.0
19.784,0.014,0.061,4.0
19.737,0.014,-0.053,26.0
19.617,0.014,0.481,13.0
19.621,0.014,0.366,17.0
19.617,0.013,0.251,15.0
19.736,0.013,0.135,9.0
19.762,0.013,0.019,6.0
19.787,0.012,-0.096,1.0
19.617,0.012,0.439,13.0
19.616,0.012,0.324,15.0
19.636,0.012,0.209,13.0
19.768,0.011,0.093,6.0
19.755,0.011,-0.022,150.0
19.79,0.01,-0.138,1.0
19.631,0.01,0.397,14.0
19.629,0.01,0.282,14.0
19.774,0.009,0.168,2.0
19.778,0.009,0.05,3.0
19.758,0.008,-0.064,3.0
19.767,0.008,-0.18,0.0
19.626,0.007,0.355,16.0
19.63,0.007,0.24,15.0
19.742,0.006,0.126,3.0
19.746,0.006,0.008,12.0
19.781,0.005,-0.107,1.0
19.78,0.004,-0.223,0.0
19.629,0.004,0.313,14.0
19.656,0.003,0.198,10.0
19.777,0.002,0.083,6.0
19.741,0.002,-0.033,8.0
19.762,0.001,-0.149,0.0
35.988,0.001,-0.483,0.0
19.636,0.0,0.271,14.0
19.804,0.0,0.157,2.0
19.748,-0.001,0.041,7.0
19.747,-0.002,-0.076,1.0
0.0,0.0,0.0,0.0
0.0,0.0,0.0,0.0
19.643,-0.005,0.229,16.0
19.744,-0.006,0.114,2.0
19.728,-0.007,-0.001,10.0
19.785,-0.008,-0.118,1.0
0.0,0.0,0.0,0.0
0.0,0.0,0.0,0.0
19.698,-0.011,0.187,8.0
19.738,-0.012,0.072,7.0
19.729,-0.013,-0.043,9.0
19.748,-0.014,-0.16,1.0
0.0,0.0,0.0,0.0
29.958,-0.024,-0.595,0.0
19.688,-0.017,0.145,3.0
19.713,-0.018,0.03,13.0
19.752,-0.02,-0.084,7.0
19.746,-0.021,-0.202,0.0
0.0,0.0,0.0,0.0
28.433,-0.033,-0.624,0.0
19.706,-0.025,0.104,13.0
19.72,-0.026,-0.011,13.0
19.75,-0.027,-0.126,10.0
19.756,-0.028,-0.244,0.0
30.321,-0.046,-0.552,0.0
26.954,-0.042,-0.648,0.0
19.713,-0.033,0.062,16.0
19.73,-0.034,-0.052,11.0
19.749,-0.035,-0.167,10.0
19.719,-0.037,-0.285,0.0
29.512,-0.057,-0.6,0.0
25.719,-0.052,-0.673,0.0
19.708,-0.041,0.021,17.0
19.735,-0.043,-0.094,12.0
19.757,-0.044,-0.209,11.0
19.767,-0.046,-0.327,0.0
28.331,-0.068,-0.634,0.0
24.297,-0.06,-0.686,0.0
19.717,-0.051,-0.019,17.0
19.728,-0.052,-0.134,14.0
19.749,-0.054,-0.25,13.0
19.789,-0.056,-0.368,1.0
26.363,-0.076,-0.645,0.0
23.155,-0.069,-0.702,0.0
19.737,-0.061,-0.06,15.0
19.737,-0.063,-0.176,14.0
19.764,-0.064,-0.292,14.0
19.768,-0.066,-0.409,3.0
19.795,-0.068,-0.526,1.0
22.386,-0.079,-0.725,0.0
19.737,-0.072,-0.101,16.0
19.74,-0.074,-0.216,14.0
19.769,-0.076,-0.332,11.0
19.753,-0.077,-0.45,9.0
19.766,-0.079,-0.566,5.0
19.787,-0.081,-0.682,2.0
19.724,-0.084,-0.141,17.0
19.745,-0.085,-0.257,15.0
19.761,-0.087,-0.373,13.0
19.744,-0.089,-0.49,13.0
19.756,-0.091,-0.606,12.0
19.758,-0.093,-0.721,8.0
19.732,-0.096,-0.181,17.0
19.752,-0.098,-0.297,15.0
19.744,-0.1,-0.412,15.0
19.741,-0.102,-0.53,15.0
19.756,-0.104,-0.646,14.0
19.695,-0.105,-0.759,5.0
19.741,-0.109,-0.221,17.0
19.746,-0.111,-0.337,14.0
19.737,-0.113,-0.452,16.0
19.736,-0.115,-0.569,15.0
19.745,-0.117,-0.685,15.0
19.389,-0.117,-0.786,1.0
19.738,-0.122,-0.26,17.0
19.744,-0.125,-0.376,17.0
19.738,-0.127,-0.491,16.0
19.734,-0.129,-0.608,16.0
19.745,-0.131,-0.724,13.0
18.691,-0.126,-0.795,1.0
19.75,-0.137,-0.3,16.0
19.741,-0.139,-0.415,17.0
19.741,-0.141,-0.531,17.0
19.74,-0.143,-0.648,16.0
19.693,-0.145,-0.762,4.0
17.992,-0.135,-0.801,0.0
19.749,-0.152,-0.339,17.0
19.75,-0.154,-0.454,18.0
19.749,-0.156,-0.569,15.0
19.755,-0.159,-0.687,10.0
19.342,-0.158,-0.786,1.0
17.29,-0.143,-0.803,0.0
19.756,-0.167,-0.377,15.0
19.751,-0.17,-0.492,13.0
19.765,-0.172,-0.608,8.0
19.759,-0.175,-0.725,10.0
18.672,-0.167,-0.794,1.0
16.757,-0.152,-0.811,0.0
19.763,-0.184,-0.415,10.0
19.766,-0.186,-0.531,3.0
22.211,-0.212,-0.726,0.0
19.664,-0.19,-0.76,3.0
18.058,-0.177,-0.803,0.0
16.216,-0.161,-0.816,0.0
19.797,-0.201,-0.454,0.0
24.012,-0.247,-0.69,0.0
19.828,-0.206,-0.686,0.0
19.325,-0.204,-0.783,2.0
17.206,-0.184,-0.798,0.0
15.713,-0.17,-0.82,0.0
26.104,-0.288,-0.647,0.0
22.93,-0.256,-0.702,0.0
19.783,-0.224,-0.721,8.0
18.671,-0.214,-0.792,0.0
16.86,-0.195,-0.813,0.0
15.439,-0.181,-0.835,0.0
25.22,-0.301,-0.672,0.0
22.247,-0.269,-0.722,1.0
19.723,-0.241,-0.755,3.0
18.107,-0.224,-0.801,0.0
16.302,-0.204,-0.816,0.0
15.026,-0.19,-0.84,0.0
24.336,-0.314,-0.693,0.0
21.431,-0.279,-0.735,0.0
19.315,-0.254,-0.775,1.0
17.566,-0.234,-0.809,0.0
15.836,-0.213,-0.821,0.0
14.514,-0.198,-0.838,0.0
23.113,-0.32,-0.7,0.0
19.881,-0.278,-0.718,2.0
18.863,-0.267,-0.79,0.0
16.837,-0.241,-0.805,0.0
15.47,-0.224,-0.83,0.0
14.243,-0.208,-0.848,0.0
22.434,-0.333,-0.719,1.0
19.854,-0.298,-0.752,2.0
18.322,-0.278,-0.8,0.0
16.434,-0.252,-0.815,0.0
15.103,-0.234,-0.837,0.0
13.814,-0.216,-0.847,0.0
21.689,-0.344,-0.733,0.0
19.503,-0.313,-0.772,1.0
17.706,-0.287,-0.804,0.0
15.999,-0.262,-0.822,0.0
14.709,-0.243,-0.841,0.0
13.585,-0.227,-0.856,0.0
20.847,-0.353,-0.74,0.0
19.01,-0.325,-0.786,1.0
17.177,-0.297,-0.81,0.0
15.565,-0.272,-0.826,0.0
14.306,-0.252,-0.843,0.0
13.195,-0.235,-0.854,0.0
20.269,-0.365,-0.754,0.0
18.529,-0.337,-0.797,0.0
16.662,-0.306,-0.814,0.0
15.246,-0.283,-0.835,0.0
14.024,-0.262,-0.849,0.0
13.017,-0.246,-0.864,0.0
19.761,-0.378,-0.768,0.0
17.924,-0.346,-0.8,0.0
16.265,-0.317,-0.821,0.0
14.884,-0.292,-0.839,0.0
13.744,-0.272,-0.855,0.0
12.708,-0.254,-0.865,0.0
19.227,-0.389,-0.778,0.0
17.406,-0.356,-0.806,0.0
15.857,-0.327,-0.826,0.0
14.445,-0.3,-0.838,0.0
13.434,-0.282,-0.858,0.0
12.449,-0.263,-0.867,0.0
18.774,-0.402,-0.79,0.0
17.031,-0.368,-0.815,0.0
15.445,-0.337,-0.829,0.0
14.176,-0.311,-0.845,0.0
13.143,-0.291,-0.86,0.0
12.278,-0.274,-0.875,0.0
17.974,-0.406,-0.784,0.0
16.5,-0.376,-0.816,0.0
15.074,-0.346,-0.833,0.0
13.881,-0.322,-0.849,0.0
12.855,-0.3,-0.861,0.0
12.064,-0.284,-0.878,0.0
17.782,-0.423,-0.804,1.0
15.956,-0.383,-0.813,0.0
14.733,-0.356,-0.837,0.0
13.592,-0.331,-0.852,0.0
12.525,-0.308,-0.858,0.0
11.831,-0.293,-0.879,0.0
17.459,-0.437,-0.815,0.0
15.705,-0.396,-0.824,0.0
14.424,-0.367,-0.841,0.0
13.341,-0.342,-0.856,0.0
12.431,-0.321,-0.87,0.0
11.706,-0.305,-0.888,0.0
17.508,-0.46,-0.843,0.0
15.432,-0.409,-0.832,0.0
14.187,-0.379,-0.848,0.0
17.772,-0.478,-1.167,0.0
12.224,-0.331,-0.873,0.0
11.544,-0.315,-0.892,0.0
17.563,-0.484,-0.871,3.0
15.046,-0.418,-0.833,0.0
17.809,-0.498,-1.089,0.0
17.765,-0.501,-1.192,0.0
12.043,-0.342,-0.878,0.0
11.358,-0.325,-0.894,0.0
0.0,0.0,0.0,0.0
14.749,-0.428,-0.837,0.0
17.779,-0.52,-1.112,1.0
17.8,-0.525,-1.219,0.0
11.9,-0.353,-0.884,0.0
11.177,-0.334,-0.895,0.0
17.792,-0.536,-0.931,0.0
14.494,-0.44,-0.842,0.0
17.794,-0.544,-1.137,0.0
12.437,-0.383,-0.868,0.0
11.721,-0.363,-0.886,0.0
11.029,-0.345,-0.898,0.0
15.464,-0.487,-0.83,0.0
14.229,-0.451,-0.846,0.0
13.031,-0.416,-0.85,0.0
12.213,-0.392,-0.869,0.0
11.514,-0.373,-0.886,0.0
10.924,-0.356,-0.904,0.0
15.215,-0.499,-0.836,0.0
14.049,-0.464,-0.853,0.0
12.856,-0.427,-0.855,0.0
12.133,-0.406,-0.878,0.0
11.415,-0.385,-0.892,0.0
10.732,-0.364,-0.901,0.0
14.916,-0.509,-0.838,0.0
13.694,-0.471,-0.848,0.0
12.684,-0.439,-0.859,0.0
11.965,-0.417,-0.881,0.0
11.276,-0.396,-0.895,0.0
10.585,-0.374,-0.902,0.0
14.698,-0.522,-0.844,0.0
13.361,-0.478,-0.844,0.0
12.571,-0.453,-0.867,0.0
11.76,-0.426,-0.88,0.0
11.127,-0.406,-0.897,0.0
10.481,-0.385,-0.905,0.0
14.418,-0.532,-0.844,0.0
13.232,-0.491,-0.851,0.0
12.365,-0.462,-0.867,0.0
11.71,-0.44,-0.89,0.0
10.969,-0.415,-0.897,0.0
10.378,-0.395,-0.908,0.0
14.23,-0.545,-0.849,0.0
13.09,-0.504,-0.857,0.0
12.249,-0.475,-0.872,0.0
11.498,-0.448,-0.886,0.0
10.871,-0.427,-0.901,0.0
10.252,-0.405,-0.909,0.0
13.989,-0.555,-0.85,0.0
12.887,-0.515,-0.857,0.0
12.117,-0.487,-0.876,0.0
11.265,-0.455,-0.88,0.0
10.709,-0.436,-0.899,0.0
10.159,-0.416,-0.911,0.0
13.751,-0.565,-0.85,0.0
12.706,-0.526,-0.859,0.0
12.004,-0.499,-0.88,0.0
11.258,-0.471,-0.892,0.0
10.626,-0.447,-0.903,0.0
10.075,-0.427,-0.914,0.0
13.536,-0.576,-0.851,0.0
12.614,-0.54,-0.865,0.0
11.877,-0.511,-0.883,0.0
11.099,-0.481,-0.89,0.0
10.565,-0.46,-0.908,0.0
9.951,-0.436,-0.913,0.0
13.419,-0.59,-0.856,0.0
12.464,-0.551,-0.867,0.0
11.698,-0.52,-0.881,0.0
11.068,-0.495,-0.898,0.0
10.41,-0.468,-0.905,0.0
9.873,-0.447,-0.915,0.0
13.207,-0.6,-0.855,0.0
12.323,-0.563,-0.868,0.0
11.599,-0.533,-0.884,0.0
10.942,-0.505,-0.898,0.0
10.309,-0.479,-0.905,0.0
9.784,-0.457,-0.915,0.0
13.074,-0.613,-0.858,0.0
12.25,-0.577,-0.874,0.0
11.557,-0.548,-0.891,0.0
10.804,-0.515,-0.896,0.0
10.262,-0.492,-0.91,0.0
9.711,-0.468,-0.917,0.0
12.943,-0.626,-0.86,0.0
12.147,-0.59,-0.877,0.0
11.399,-0.557,-0.888,0.0
10.743,-0.528,-0.9,0.0
10.177,-0.503,-0.911,0.0
9.632,-0.478,-0.917,0.0
12.794,-0.637,-0.86,0.0
12.067,-0.604,-0.88,0.0
11.271,-0.567,-0.887,0.0
10.662,-0.539,-0.901,0.0
10.127,-0.515,-0.914,0.0
9.574,-0.49,-0.919,0.0
12.649,-0.648,-0.86,0.0
12.022,-0.62,-0.886,0.0
11.164,-0.578,-0.887,0.0
10.599,-0.552,-0.904,0.0
10.04,-0.525,-0.914,0.0
9.508,-0.5,-0.92,0.0
12.573,-0.663,-0.864,0.0
11.908,-0.631,-0.886,0.0
11.133,-0.593,-0.892,0.0
10.558,-0.565,-0.908,0.0
9.968,-0.536,-0.914,0.0
9.45,-0.511,-0.921,0.0
12.489,-0.677,-0.867,0.0
11.816,-0.644,-0.887,0.0
11.126,-0.609,-0.899,0.0
10.422,-0.573,-0.903,0.0
9.925,-0.549,-0.916,0.0
9.397,-0.522,-0.922,0.0
12.431,-0.692,-0.87,0.0
11.753,-0.658,-0.89,0.0
11.052,-0.621,-0.9,0.0
10.351,-0.585,-0.903,0.0
9.894,-0.562,-0.919,0.0
9.373,-0.535,-0.925,0.0
12.369,-0.707,-0.873,0.0
11.649,-0.669,-0.889,0.0
11.004,-0.635,-0.902,0.0
10.316,-0.598,-0.906,0.0
9.822,-0.572,-0.918,0.0
9.316,-0.545,-0.924,0.0
12.318,-0.722,-0.876,0.0
11.573,-0.682,-0.889,0.0
10.986,-0.65,-0.906,0.0
10.238,-0.609,-0.904,0.0
9.756,-0.583,-0.917,0.0
9.287,-0.557,-0.926,0.0
12.272,-0.737,-0.879,0.0
11.578,-0.699,-0.895,0.0
10.891,-0.66,-0.904,0.0
10.246,-0.624,-0.91,0.0
9.681,-0.592,-0.915,0.0
9.232,-0.567,-0.925,0.0
12.199,-0.751,-0.879,0.0
11.394,-0.704,-0.886,0.0
10.823,-0.672,-0.903,0.0
10.166,-0.634,-0.907,0.0
9.667,-0.605,-0.917,0.0
9.213,-0.58,-0.927,0.0
12.136,-0.764,-0.88,0.0
11.163,-0.706,-0.872,0.0
10.848,-0.689,-0.909,0.0
10.148,-0.648,-0.909,0.0
9.614,-0.616,-0.916,0.0
9.174,-0.591,-0.926,0.0
12.103,-0.78,-0.882,0.0
11.17,-0.723,-0.877,0.0
10.767,-0.7,-0.906,0.0
10.115,-0.66,-0.91,0.0
9.642,-0.632,-0.922,0.0
9.124,-0.601,-0.924,0.0
12.062,-0.795,-0.883,0.0
11.299,-0.748,-0.891,0.0
10.677,-0.709,-0.902,0.0
10.096,-0.674,-0.911,0.0
9.601,-0.643,-0.921,0.0
9.107,-0.613,-0.925,0.0
12.045,-0.811,-0.885,0.0
11.291,-0.763,-0.893,0.0
10.696,-0.726,-0.907,0.0
10.072,-0.686,-0.912,0.0
9.582,-0.656,-0.922,0.0
9.092,-0.625,-0.926,0.0
11.997,-0.825,-0.884,0.0
11.272,-0.778,-0.894,0.0
10.682,-0.74,-0.908,0.0
10.027,-0.698,-0.91,0.0
9.567,-0.668,-0.922,0.0
9.093,-0.638,-0.928,0.0
12.035,-0.845,-0.889,0.0
11.252,-0.793,-0.895,0.0
10.634,-0.752,-0.905,0.0
10.01,-0.711,-0.91,0.0
9.567,-0.682,-0.924,0.0
9.069,-0.649,-0.927,0.0
11.998,-0.859,-0.888,0.0
11.231,-0.807,-0.895,0.0
10.637,-0.767,-0.907,0.0
10.016,-0.725,-0.912,0.0
9.571,-0.696,-0.925,0.0
9.077,-0.662,-0.929,0.0
11.979,-0.874,-0.888,0.0
11.207,-0.821,-0.894,0.0
10.666,-0.784,-0.911,0.0
10.033,-0.74,-0.914,0.0
9.501,-0.704,-0.919,0.0
9.054,-0.673,-0.927,0.0
11.99,-0.892,-0.89,0.0
11.214,-0.837,-0.895,0.0
10.606,-0.795,-0.906,0.0
10.03,-0.754,-0.914,0.0
9.529,-0.719,-0.922,0.0
9.042,-0.685,-0.926,0.0
11.939,-0.904,-0.886,0.0
11.261,-0.856,-0.899,0.0
10.608,-0.809,-0.906,0.0
10.028,-0.768,-0.914,0.0
9.528,-0.732,-0.922,0.0
9.069,-0.699,-0.929,0.0
11.987,-0.924,-0.889,0.0
11.257,-0.871,-0.898,0.0
10.634,-0.825,-0.908,0.0
10.013,-0.78,-0.912,0.0
9.562,-0.747,-0.925,0.0
9.055,-0.71,-0.927,0.0
12.027,-0.943,-0.892,0.0
11.248,-0.885,-0.897,0.0
10.661,-0.842,-0.91,0.0
10.013,-0.793,-0.911,0.0
9.541,-0.758,-0.922,0.0
9.073,-0.724,-0.928,0.0
12.023,-0.959,-0.89,0.0
11.252,-0.9,-0.896,0.0
10.672,-0.857,-0.909,0.0
10.073,-0.811,-0.915,0.0
9.57,-0.773,-0.923,0.0
9.086,-0.737,-0.928,0.0
12.063,-0.977,-0.891,0.0
11.315,-0.92,-0.899,0.0
10.67,-0.87,-0.907,0.0
10.061,-0.823,-0.913,0.0
9.619,-0.79,-0.926,0.0
9.111,-0.751,-0.929,0.0
12.126,-0.998,-0.893,0.0
11.305,-0.933,-0.896,0.0
10.674,-0.884,-0.905,0.0
10.083,-0.838,-0.912,0.0
9.61,-0.801,-0.923,0.0
9.138,-0.764,-0.929,0.0
12.119,-1.013,-0.89,0.0
11.383,-0.954,-0.899,0.0
10.713,-0.901,-0.906,0.0
10.102,-0.852,-0.912,0.0
9.642,-0.816,-0.924,0.0
9.139,-0.776,-0.927,0.0
12.125,-1.028,-0.887,0.0
11.422,-0.971,-0.899,0.0
10.755,-0.917,-0.907,0.0
10.086,-0.863,-0.907,0.0
9.65,-0.828,-0.922,0.0
9.197,-0.792,-0.93,0.0
12.176,-1.047,-0.887,0.0
11.438,-0.987,-0.897,0.0
10.792,-0.934,-0.906,0.0
10.224,-0.887,-0.916,0.0
9.725,-0.846,-0.926,0.0
9.218,-0.805,-0.929,0.0
12.234,-1.067,-0.887,0.0
11.485,-1.004,-0.896,0.0
10.865,-0.953,-0.908,0.0
10.199,-0.897,-0.91,0.0
9.732,-0.859,-0.923,0.0
9.267,-0.82,-0.93,0.0
12.311,-1.088,-0.888,0.0
11.51,-1.02,-0.894,0.0
10.959,-0.974,-0.912,0.0
10.275,-0.916,-0.913,0.0
9.779,-0.874,-0.923,0.0
9.28,-0.832,-0.927,0.0
12.373,-1.108,-0.887,0.0
11.597,-1.041,-0.896,0.0
10.901,-0.981,-0.902,0.0
10.34,-0.933,-0.914,0.0
9.847,-0.891,-0.925,0.0
9.323,-0.846,-0.927,0.0
12.405,-1.124,-0.884,0.0
11.663,-1.06,-0.895,0.0
10.984,-1.001,-0.904,0.0
10.411,-0.951,-0.915,0.0
9.901,-0.907,-0.925,0.0
9.394,-0.863,-0.93,0.0
12.485,-1.145,-0.883,0.0
11.808,-1.086,-0.9,0.0
11.068,-1.02,-0.905,0.0
10.432,-0.964,-0.911,0.0
9.914,-0.919,-0.921,0.0
9.447,-0.878,-0.93,0.0
12.506,-1.16,-0.878,0.0
11.819,-1.099,-0.894,0.0
11.156,-1.04,-0.906,0.0
10.538,-0.985,-0.915,0.0
10.007,-0.938,-0.924,0.0
9.497,-0.892,-0.929,0.0
12.72,-1.193,-0.886,0.0
11.918,-1.121,-0.895,0.0
11.13,-1.049,-0.897,0.0
10.591,-1.001,-0.913,0.0
10.012,-0.948,-0.918,0.0
9.538,-0.906,-0.927,0.0
12.814,-1.215,-0.884,0.0
11.99,-1.139,-0.893,0.0
11.289,-1.075,-0.903,0.0
10.598,-1.012,-0.907,0.0
10.106,-0.967,-0.92,0.0
9.595,-0.92,-0.927,0.0
12.837,-1.23,-0.878,0.0
12.107,-1.162,-0.894,0.0
11.4,-1.097,-0.904,0.0
10.745,-1.036,-0.912,0.0
10.114,-0.978,-0.914,0.0
9.684,-0.938,-0.929,0.0
13.0,-1.257,-0.88,0.0
12.172,-1.18,-0.89,0.0
11.415,-1.109,-0.897,0.0
10.82,-1.053,-0.911,0.0
10.212,-0.996,-0.916,0.0
9.757,-0.954,-0.929,0.0
13.066,-1.276,-0.875,0.0
12.274,-1.201,-0.889,0.0
11.49,-1.126,-0.895,0.0
10.884,-1.069,-0.908,0.0
10.31,-1.015,-0.917,0.0
9.815,-0.968,-0.927,0.0
13.139,-1.294,-0.87,0.0
12.339,-1.218,-0.884,0.0
11.708,-1.158,-0.903,0.0
10.92,-1.082,-0.903,0.0
10.413,-1.034,-0.918,0.0
9.868,-0.982,-0.924,0.0
13.388,-1.33,-0.876,0.0
12.464,-1.241,-0.884,0.0
11.745,-1.171,-0.897,0.0
11.087,-1.108,-0.908,0.0
10.474,-1.049,-0.915,0.0
9.972,-1.0,-0.926,0.0
13.523,-1.354,-0.874,0.0
12.643,-1.268,-0.886,0.0
11.874,-1.193,-0.897,0.0
11.149,-1.123,-0.904,0.0
10.599,-1.069,-0.917,0.0
10.029,-1.014,-0.923,0.0
13.678,-1.38,-0.873,0.0
12.763,-1.29,-0.884,0.0
12.013,-1.217,-0.897,0.0
11.201,-1.136,-0.898,0.0
10.653,-1.083,-0.913,0.0
10.091,-1.028,-0.92,0.0
13.853,-1.408,-0.872,0.0
12.893,-1.313,-0.881,0.0
12.125,-1.237,-0.895,0.0
11.365,-1.161,-0.902,0.0
10.789,-1.104,-0.915,0.0
10.184,-1.044,-0.919,0.0
14.057,-1.439,-0.872,0.0
13.041,-1.337,-0.88,0.0
12.17,-1.249,-0.887,0.0
11.496,-1.182,-0.901,0.0
10.871,-1.12,-0.911,0.0
10.275,-1.06,-0.917,0.0
14.195,-1.462,-0.868,0.0
13.195,-1.361,-0.878,0.0
12.329,-1.274,-0.887,0.0
11.593,-1.2,-0.898,0.0
10.981,-1.138,-0.91,0.0
10.453,-1.085,-0.923,0.0
14.362,-1.488,-0.864,0.0
13.391,-1.39,-0.878,0.0
12.455,-1.294,-0.884,0.0
11.744,-1.222,-0.898,0.0
11.105,-1.157,-0.91,0.0
10.518,-1.098,-0.919,0.0
