X,Y,Z,Reflectivity
12.723,-1.346,-0.866,0.0
12.188,-1.291,-0.897,0.0
11.342,-1.203,-0.896,0.0
10.806,-1.148,-0.912,0.0
15.182,-1.61,-0.854,0.0
14.08,-1.495,-0.868,0.0
12.894,-1.371,-0.864,0.0
12.243,-1.303,-0.888,0.0
11.583,-1.234,-0.903,0.0
10.903,-1.163,-0.909,0.0
15.493,-1.651,-0.856,0.0
14.366,-1.532,-0.871,0.0
13.206,-1.41,-0.872,0.0
12.339,-1.319,-0.882,0.0
11.677,-1.25,-0.898,0.0
11.051,-1.184,-0.909,0.0
15.768,-1.687,-0.854,0.0
14.531,-1.556,-0.865,0.0
13.562,-1.454,-0.88,0.0
12.539,-1.346,-0.883,0.0
11.867,-1.275,-0.9,0.0
11.146,-1.199,-0.905,0.0
15.963,-1.714,-0.847,0.0
14.751,-1.586,-0.862,0.0
13.731,-1.477,-0.876,0.0
12.686,-1.366,-0.879,0.0
12.024,-1.296,-0.898,0.0
11.273,-1.217,-0.903,0.0
16.282,-1.754,-0.846,0.0
14.978,-1.615,-0.859,0.0
13.828,-1.492,-0.867,0.0
12.879,-1.391,-0.878,0.0
12.094,-1.308,-0.89,0.0
11.406,-1.234,-0.901,0.0
16.458,-1.779,-0.837,0.0
15.221,-1.646,-0.856,0.0
14.12,-1.528,-0.87,0.0
13.12,-1.421,-0.88,0.0
12.235,-1.326,-0.886,0.0
11.593,-1.258,-0.902,0.0
16.841,-1.825,-0.837,0.0
15.528,-1.683,-0.855,0.0
14.407,-1.563,-0.871,0.0
13.446,-1.46,-0.886,0.0
12.446,-1.352,-0.887,0.0
11.695,-1.272,-0.897,0.0
17.093,-1.856,-0.83,0.0
15.831,-1.72,-0.854,0.0
14.525,-1.579,-0.861,0.0
13.607,-1.48,-0.881,0.0
12.667,-1.379,-0.888,0.0
11.89,-1.295,-0.898,0.0
17.281,-1.88,-0.819,0.0
16.119,-1.754,-0.85,0.0
14.75,-1.606,-0.857,0.0
13.764,-1.499,-0.875,0.0
12.881,-1.404,-0.888,0.0
12.055,-1.315,-0.896,0.0
17.715,-1.929,-0.819,0.0
16.399,-1.787,-0.846,0.0
15.001,-1.635,-0.854,0.0
13.999,-1.527,-0.873,0.0
12.989,-1.417,-0.88,0.0
12.186,-1.33,-0.891,0.0
17.975,-1.959,-0.809,0.0
16.653,-1.816,-0.839,0.0
15.469,-1.687,-0.862,0.0
14.28,-1.558,-0.873,0.0
13.189,-1.44,-0.877,0.0
12.35,-1.349,-0.888,0.0
18.261,-1.992,-0.8,0.0
16.959,-1.85,-0.834,0.0
15.72,-1.715,-0.857,0.0
14.461,-1.578,-0.867,0.0
13.522,-1.476,-0.883,0.0
12.524,-1.368,-0.885,0.0
19.017,-2.074,-0.81,0.0
17.25,-1.882,-0.827,0.0
15.968,-1.742,-0.85,0.0
14.656,-1.6,-0.86,0.0
13.762,-1.502,-0.881,0.0
12.837,-1.402,-0.891,0.0
19.458,-2.122,-0.805,0.0
17.517,-1.91,-0.818,0.0
16.315,-1.779,-0.849,0.0
15.066,-1.643,-0.866,0.0
13.913,-1.518,-0.874,0.0
12.955,-1.414,-0.883,0.0
19.696,-2.146,-0.79,0.0
17.922,-1.953,-0.814,0.0
16.569,-1.805,-0.841,0.0
15.265,-1.664,-0.858,0.0
14.216,-1.549,-0.875,0.0
13.176,-1.436,-0.881,0.0
20.291,-2.209,-0.788,0.0
18.318,-1.994,-0.809,0.0
16.941,-1.844,-0.839,0.0
15.607,-1.698,-0.857,0.0
14.428,-1.57,-0.869,0.0
13.53,-1.472,-0.888,0.0
20.591,-2.238,-0.774,0.0
18.828,-2.046,-0.808,0.0
17.188,-1.867,-0.829,0.0
15.931,-1.731,-0.855,0.0
14.642,-1.59,-0.863,0.0
13.676,-1.485,-0.88,0.0
21.211,-2.301,-0.77,0.0
19.32,-2.095,-0.804,0.0
17.407,-1.887,-0.817,0.0
16.3,-1.767,-0.853,0.0
15.0,-1.625,-0.865,0.0
13.884,-1.504,-0.875,0.0
21.693,-2.348,-0.76,0.0
19.745,-2.136,-0.797,0.0
17.845,-1.93,-0.815,0.0
16.507,-1.784,-0.843,0.0
15.341,-1.658,-0.865,0.0
14.227,-1.537,-0.878,0.0
22.304,-2.407,-0.752,0.0
20.191,-2.178,-0.788,0.0
18.234,-1.966,-0.809,0.0
16.855,-1.816,-0.839,0.0
15.68,-1.689,-0.864,0.0
14.431,-1.554,-0.872,0.0
23.024,-2.477,-0.747,0.0
20.585,-2.213,-0.777,0.0
18.86,-2.027,-0.812,0.0
17.202,-1.847,-0.834,0.0
15.87,-1.703,-0.854,0.0
14.685,-1.576,-0.868,0.0
23.577,-2.527,-0.735,0.0
21.178,-2.268,-0.772,0.0
19.439,-2.081,-0.812,0.0
17.449,-1.867,-0.823,0.0
16.175,-1.729,-0.849,0.0
15.002,-1.603,-0.868,0.0
24.201,-2.583,-0.723,0.0
21.796,-2.325,-0.767,0.0
19.662,-2.096,-0.796,0.0
17.648,-1.88,-0.81,0.0
16.578,-1.764,-0.849,0.0
15.259,-1.623,-0.863,0.0
24.796,-2.635,-0.708,0.0
22.433,-2.382,-0.76,0.0
20.237,-2.147,-0.793,0.0
18.468,-1.958,-0.824,0.0
16.892,-1.789,-0.843,0.0
15.64,-1.655,-0.864,0.0
0.0,0.0,0.0,0.0
22.944,-2.424,-0.748,0.0
20.537,-2.167,-0.778,0.0
18.645,-1.966,-0.807,0.0
17.239,-1.816,-0.838,0.0
15.873,-1.671,-0.856,0.0
26.64,-2.801,-0.693,0.0
23.795,-2.499,-0.745,0.0
20.938,-2.197,-0.766,0.0
19.296,-2.023,-0.811,0.0
17.456,-1.828,-0.826,0.0
16.282,-1.704,-0.857,0.0
26.914,-2.814,-0.665,1.0
24.211,-2.528,-0.726,0.0
21.904,-2.285,-0.773,0.0
19.731,-2.056,-0.804,0.0
17.867,-1.86,-0.822,0.0
16.591,-1.725,-0.852,0.0
0.0,0.0,0.0,0.0
24.811,-2.574,-0.713,0.0
22.037,-2.284,-0.75,0.0
20.107,-2.081,-0.793,0.0
18.226,-1.884,-0.816,0.0
16.838,-1.739,-0.843,0.0
0.0,0.0,0.0,0.0
25.849,-2.664,-0.71,0.0
23.069,-2.374,-0.756,0.0
20.328,-2.089,-0.776,0.0
18.66,-1.915,-0.811,0.0
17.071,-1.75,-0.833,0.0
0.0,0.0,0.0,0.0
26.234,-2.683,-0.687,0.0
23.395,-2.39,-0.737,0.0
21.115,-2.154,-0.779,0.0
19.464,-1.983,-0.821,0.0
17.499,-1.78,-0.832,0.0
31.429,-3.194,-0.616,0.0
26.946,-2.734,-0.672,0.0
24.08,-2.44,-0.728,0.0
21.6,-2.185,-0.769,0.0
19.925,-2.013,-0.815,0.0
17.635,-1.779,-0.816,0.0
0.0,0.0,0.0,0.0
28.228,-2.841,-0.668,0.0
24.544,-2.466,-0.711,0.0
22.017,-2.209,-0.757,0.0
19.957,-1.999,-0.792,0.0
18.107,-1.811,-0.815,0.0
0.0,0.0,0.0,0.0
29.073,-2.9,-0.651,0.0
0.0,0.0,0.0,0.0
22.475,-2.234,-0.744,0.0
20.558,-2.04,-0.79,0.0
18.8,-1.863,-0.822,0.0
0.0,0.0,0.0,0.0
0.0,0.0,0.0,0.0
26.573,-2.621,-0.704,0.0
23.337,-2.297,-0.744,0.0
20.952,-2.059,-0.779,0.0
19.176,-1.881,-0.815,0.0
35.88,-3.517,-0.525,0.0
0.0,0.0,0.0,0.0
0.0,0.0,0.0,0.0
24.214,-2.36,-0.742,0.0
21.531,-2.094,-0.774,0.0
19.602,-1.903,-0.809,0.0
0.0,0.0,0.0,0.0
32.103,-3.108,-0.6,0.0
0.0,0.0,0.0,0.0
24.581,-2.37,-0.723,0.0
21.859,-2.103,-0.759,0.0
19.705,-1.892,-0.789,0.0
0.0,0.0,0.0,0.0
0.0,0.0,0.0,0.0
0.0,0.0,0.0,0.0
25.146,-2.398,-0.71,0.0
0.0,0.0,0.0,0.0
20.371,-1.934,-0.792,0.0
40.872,-3.878,-0.45,0.0
0.0,0.0,0.0,0.0
0.0,0.0,0.0,0.0
26.33,-2.481,-0.712,0.0
23.165,-2.178,-0.75,0.0
20.859,-1.957,-0.786,0.0
41.436,-3.884,-0.407,0.0
0.0,0.0,0.0,0.0
0.0,0.0,0.0,0.0
26.619,-2.477,-0.689,0.0
23.767,-2.207,-0.741,0.0
21.462,-1.988,-0.784,0.0
44.565,-4.125,-0.387,0.0
36.87,-3.405,-0.516,0.0
31.408,-2.893,-0.606,0.0
0.0,0.0,0.0,0.0
24.248,-2.222,-0.728,0.0
21.744,-1.988,-0.769,0.0
0.0,0.0,0.0,0.0
38.532,-3.511,-0.495,0.0
0.0,0.0,0.0,0.0
0.0,0.0,0.0,0.0
24.996,-2.26,-0.723,0.0
22.11,-1.994,-0.757,0.0
48.218,-4.345,-0.308,0.0
0.0,0.0,0.0,0.0
33.169,-2.972,-0.565,0.0
28.466,-2.544,-0.639,0.0
25.483,-2.271,-0.708,0.0
22.056,-1.961,-0.73,0.0
0.0,0.0,0.0,0.0
41.358,-3.663,-0.439,0.0
34.713,-3.065,-0.553,0.0
0.0,0.0,0.0,0.0
0.0,0.0,0.0,0.0
23.467,-2.055,-0.751,0.0
0.0,0.0,0.0,0.0
0.0,0.0,0.0,0.0
0.0,0.0,0.0,0.0
30.281,-2.626,-0.614,0.0
26.84,-2.32,-0.688,0.0
23.906,-2.061,-0.74,0.0
0.0,0.0,0.0,0.0
0.0,0.0,0.0,0.0
0.0,0.0,0.0,0.0
31.298,-2.67,-0.601,1.0
27.182,-2.312,-0.667,0.0
24.18,-2.05,-0.723,0.0
0.0,0.0,0.0,0.0
0.0,0.0,0.0,0.0
0.0,0.0,0.0,0.0
32.534,-2.729,-0.591,0.0
0.0,0.0,0.0,0.0
0.0,0.0,0.0,0.0
0.0,0.0,0.0,0.0
0.0,0.0,0.0,0.0
0.0,0.0,0.0,0.0
32.981,-2.719,-0.566,0.0
29.66,-2.437,-0.668,0.0
25.521,-2.09,-0.711,0.0
0.0,0.0,0.0,0.0
0.0,0.0,0.0,0.0
41.784,-3.395,-0.448,0.0
34.959,-2.83,-0.566,0.0
29.296,-2.363,-0.63,0.0
26.129,-2.101,-0.702,0.0
75.338,-6.052,0.068,1.0
0.0,0.0,0.0,0.0
42.545,-3.392,-0.415,0.0
0.0,0.0,0.0,0.0
0.0,0.0,0.0,0.0
0.0,0.0,0.0,0.0
0.0,0.0,0.0,0.0
0.0,0.0,0.0,0.0
0.0,0.0,0.0,0.0
35.682,-2.778,-0.509,0.0
31.888,-2.473,-0.625,0.0
27.498,-2.124,-0.686,0.0
99.06,-7.646,0.279,4.0
0.0,0.0,0.0,0.0
0.0,0.0,0.0,0.0
36.812,-2.807,-0.491,0.0
32.033,-2.433,-0.598,0.0
27.873,-2.108,-0.67,0.0
98.985,-7.481,0.369,9.0
0.0,0.0,0.0,0.0
48.845,-3.661,-0.341,0.0
39.315,-2.934,-0.489,0.0
32.639,-2.426,-0.581,0.0
28.312,-2.096,-0.656,0.0
0.0,0.0,0.0,0.0
0.0,0.0,0.0,0.0
49.345,-3.617,-0.302,0.0
39.854,-2.909,-0.461,0.0
33.056,-2.402,-0.56,0.0
0.0,0.0,0.0,0.0
100.065,-7.231,0.545,11.0
64.483,-4.639,0.006,0.0
0.0,0.0,0.0,0.0
0.0,0.0,0.0,0.0
34.337,-2.437,-0.553,0.0
29.695,-2.098,-0.638,0.0
100.086,-7.061,0.629,8.0
0.0,0.0,0.0,0.0
0.0,0.0,0.0,0.0
41.921,-2.916,-0.416,0.0
0.0,0.0,0.0,0.0
30.092,-2.074,-0.622,0.0
100.054,-6.887,0.708,5.0
0.0,0.0,0.0,0.0
0.0,0.0,0.0,0.0
0.0,0.0,0.0,0.0
36.155,-2.441,-0.525,0.0
30.299,-2.035,-0.603,0.0
0.0,0.0,0.0,0.0
99.625,-6.648,0.245,4.0
0.0,0.0,0.0,0.0
0.0,0.0,0.0,0.0
0.0,0.0,0.0,0.0
30.671,-2.006,-0.588,0.0
125.221,-8.174,1.074,13.0
99.7,-6.474,0.318,5.0
0.0,0.0,0.0,0.0
0.0,0.0,0.0,0.0
0.0,0.0,0.0,0.0
32.245,-2.05,-0.595,0.0
125.339,-7.953,1.164,10.0
108.601,-6.853,0.423,2.0
0.0,0.0,0.0,0.0
0.0,0.0,0.0,0.0
38.186,-2.37,-0.472,0.0
0.0,0.0,0.0,0.0
149.906,-9.234,1.495,19.0
108.664,-6.655,0.497,6.0
0.0,0.0,0.0,0.0
0.0,0.0,0.0,0.0
0.0,0.0,0.0,0.0
0.0,0.0,0.0,0.0
150.042,-8.964,1.592,16.0
0.0,0.0,0.0,0.0
0.0,0.0,0.0,0.0
0.0,0.0,0.0,0.0
41.812,-2.438,-0.464,0.0
33.374,-1.935,-0.551,0.0
140.74,-8.141,1.579,21.0
0.0,0.0,0.0,0.0
0.0,0.0,0.0,0.0
0.0,0.0,0.0,0.0
41.145,-2.322,-0.432,0.0
0.0,0.0,0.0,0.0
0.0,0.0,0.0,0.0
101.467,-5.642,0.647,150.0
101.481,-5.606,0.098,5.0
0.0,0.0,0.0,0.0
0.0,0.0,0.0,0.0
34.538,-1.871,-0.531,0.0
101.566,-5.488,1.252,5.0
0.0,0.0,0.0,0.0
0.0,0.0,0.0,0.0
0.0,0.0,0.0,0.0
0.0,0.0,0.0,0.0
35.421,-1.851,-0.526,0.0
101.595,-5.293,1.304,1.0
0.0,0.0,0.0,0.0
0.0,0.0,0.0,0.0
0.0,0.0,0.0,0.0
0.0,0.0,0.0,0.0
0.0,0.0,0.0,0.0
0.0,0.0,0.0,0.0
101.515,-5.051,0.8,38.0
0.0,0.0,0.0,0.0
0.0,0.0,0.0,0.0
0.0,0.0,0.0,0.0
0.0,0.0,0.0,0.0
0.0,0.0,0.0,0.0
101.531,-4.851,0.844,150.0
0.0,0.0,0.0,0.0
0.0,0.0,0.0,0.0
0.0,0.0,0.0,0.0
0.0,0.0,0.0,0.0
0.0,0.0,0.0,0.0
101.522,-4.647,0.885,4.0
0.0,0.0,0.0,0.0
0.0,0.0,0.0,0.0
45.227,-2.02,-0.348,0.0
0.0,0.0,0.0,0.0
101.497,-4.478,1.474,47.0
0.0,0.0,0.0,0.0
0.0,0.0,0.0,0.0
0.0,0.0,0.0,0.0
0.0,0.0,0.0,0.0
37.982,-1.605,-0.486,0.0
101.539,-4.272,1.509,150.0
101.479,-4.23,0.955,8.0
0.0,0.0,0.0,0.0
0.0,0.0,0.0,0.0
0.0,0.0,0.0,0.0
37.909,-1.525,-0.474,0.0
0.0,0.0,0.0,0.0
0.0,0.0,0.0,0.0
0.0,0.0,0.0,0.0
0.0,0.0,0.0,0.0
0.0,0.0,0.0,0.0
0.0,0.0,0.0,0.0
104.969,-3.986,1.619,5.0
0.0,0.0,0.0,0.0
160.762,-5.983,0.722,3.0
0.0,0.0,0.0,0.0
0.0,0.0,0.0,0.0
38.515,-1.391,-0.462,0.0
162.207,-5.821,2.538,14.0
162.116,-5.76,1.65,17.0
0.0,0.0,0.0,0.0
0.0,0.0,0.0,0.0
0.0,0.0,0.0,0.0
0.0,0.0,0.0,0.0
162.198,-5.484,2.569,20.0
161.988,-5.414,1.678,27.0
160.698,-5.312,0.785,5.0
0.0,0.0,0.0,0.0
0.0,0.0,0.0,0.0
0.0,0.0,0.0,0.0
162.292,-5.146,2.595,6.0
161.984,-5.074,1.702,12.0
0.0,0.0,0.0,0.0
0.0,0.0,0.0,0.0
0.0,0.0,0.0,0.0
0.0,0.0,0.0,0.0
163.938,-4.852,2.64,21.0
162.126,-4.738,1.721,16.0
160.638,-4.635,0.823,6.0
0.0,0.0,0.0,0.0
0.0,0.0,0.0,0.0
0.0,0.0,0.0,0.0
178.028,-4.894,2.88,4.0
162.063,-4.395,1.732,18.0
160.633,-4.295,0.833,6.0
0.0,0.0,0.0,0.0
0.0,0.0,0.0,0.0
0.0,0.0,0.0,0.0
170.458,-4.324,2.765,8.0
162.079,-4.051,1.737,9.0
0.0,0.0,0.0,0.0
0.0,0.0,0.0,0.0
0.0,0.0,0.0,0.0
0.0,0.0,0.0,0.0
170.356,-3.958,2.763,5.0
137.39,-3.141,1.472,26.0
0.0,0.0,0.0,0.0
0.0,0.0,0.0,0.0
0.0,0.0,0.0,0.0
0.0,0.0,0.0,0.0
170.385,-3.597,2.758,4.0
137.284,-2.847,1.465,28.0
0.0,0.0,0.0,0.0
0.0,0.0,0.0,0.0
0.0,0.0,0.0,0.0
0.0,0.0,0.0,0.0
0.0,0.0,0.0,0.0
137.283,-2.556,1.454,151.0
0.0,0.0,0.0,0.0
0.0,0.0,0.0,0.0
49.453,-0.865,-0.3,0.0
0.0,0.0,0.0,0.0
164.022,-2.761,2.624,3.0
137.272,-2.26,1.437,150.0
19.747,-0.318,0.097,11.0
0.0,0.0,0.0,0.0
0.0,0.0,0.0,0.0
0.0,0.0,0.0,0.0
19.776,-0.291,0.313,1.0
19.757,-0.283,0.203,26.0
19.748,-0.275,0.094,18.0
0.0,0.0,0.0,0.0
0.0,0.0,0.0,0.0
0.0,0.0,0.0,0.0
19.75,-0.247,0.309,12.0
19.755,-0.241,0.2,16.0
0.0,0.0,0.0,0.0
0.0,0.0,0.0,0.0
47.64,-0.529,-0.313,0.0
19.73,-0.212,-0.239,0.0
19.769,-0.206,0.305,2.0
164.008,-1.65,1.622,14.0
0.0,0.0,0.0,0.0
0.0,0.0,0.0,0.0
19.754,-0.177,-0.135,10.0
19.753,-0.17,-0.244,15.0
169.256,-1.403,2.568,8.0
165.329,-1.31,1.591,15.0
19.804,-0.149,0.08,0.0
19.747,-0.142,-0.031,8.0
19.717,-0.134,-0.14,16.0
19.739,-0.128,-0.25,18.0
19.701,-0.121,0.293,5.0
19.727,-0.114,0.183,14.0
19.709,-0.107,0.074,12.0
19.712,-0.1,-0.037,14.0
19.718,-0.093,-0.146,17.0
19.746,-0.086,-0.256,15.0
19.659,-0.079,0.285,10.0
19.687,-0.072,0.176,16.0
19.693,-0.065,0.067,15.0
19.696,-0.058,-0.044,17.0
19.734,-0.051,-0.154,14.0
19.763,-0.044,-0.264,3.0
19.633,-0.037,0.278,12.0
19.669,-0.03,0.169,8.0
19.695,-0.023,0.059,10.0
19.736,-0.016,-0.052,10.0
19.771,-0.009,-0.162,0.0
19.872,-0.003,-0.273,0.0
19.632,0.004,0.269,14.0
19.745,0.01,0.161,6.0
19.752,0.017,0.051,13.0
19.747,0.024,-0.06,81.0
19.762,0.031,-0.17,16.0
19.766,0.038,-0.281,13.0
19.626,0.045,0.261,13.0
19.691,0.051,0.152,12.0
19.733,0.058,0.042,47.0
19.756,0.065,-0.069,29.0
19.759,0.072,-0.18,18.0
19.761,0.079,-0.29,2.0
19.62,0.085,0.251,16.0
19.66,0.092,0.142,12.0
19.649,0.099,0.032,11.0
19.683,0.106,-0.079,6.0
19.681,0.113,-0.189,0.0
0.0,0.0,0.0,0.0
19.65,0.127,0.241,13.0
19.65,0.134,0.131,14.0
19.64,0.14,0.022,18.0
19.632,0.146,-0.089,13.0
19.662,0.154,-0.199,13.0
19.664,0.16,-0.309,8.0
19.665,0.168,0.23,12.0
19.666,0.174,0.121,10.0
19.641,0.181,0.01,13.0
19.622,0.187,-0.1,16.0
19.635,0.194,-0.21,17.0
19.66,0.201,-0.321,15.0
19.764,0.209,0.22,23.0
19.77,0.216,0.109,15.0
19.673,0.221,0.0,8.0
19.637,0.228,-0.112,16.0
19.641,0.234,-0.222,16.0
19.662,0.241,-0.333,14.0
19.758,0.25,0.207,28.0
19.804,0.257,0.097,1.0
57.207,0.761,-0.039,1.0
19.697,0.268,-0.125,9.0
19.666,0.275,-0.236,14.0
19.681,0.282,-0.346,6.0
19.778,0.29,0.195,0.0
0.0,0.0,0.0,0.0
55.112,0.846,-0.074,4.0
0.0,0.0,0.0,0.0
0.0,0.0,0.0,0.0
31.308,0.511,-0.572,0.0
55.182,0.921,0.505,59.0
55.15,0.94,0.195,122.0
52.389,0.91,-0.108,4.0
39.576,0.699,-0.307,1.0
32.234,0.58,-0.431,0.0
30.139,0.552,-0.573,0.0
55.211,1.034,0.465,15.0
55.164,1.05,0.155,1.0
48.772,0.944,-0.136,1.0
38.296,0.753,-0.326,2.0
31.619,0.632,-0.447,0.0
26.817,0.545,-0.53,0.0
113.6,2.353,0.871,16.0
0.0,0.0,0.0,0.0
47.84,1.021,-0.171,0.0
36.78,0.796,-0.342,1.0
30.208,0.663,-0.451,0.0
25.562,0.569,-0.525,0.0
70.833,1.606,0.486,5.0
45.539,1.047,0.056,3.0
0.0,0.0,0.0,0.0
36.585,0.864,-0.37,4.0
29.807,0.713,-0.469,2.0
25.327,0.613,-0.541,1.0
70.654,1.74,0.426,22.0
0.0,0.0,0.0,0.0
0.0,0.0,0.0,0.0
35.058,0.895,-0.384,1.0
29.121,0.753,-0.483,2.0
25.292,0.661,-0.562,1.0
0.0,0.0,0.0,0.0
40.138,1.078,-0.018,162.0
40.056,1.088,-0.244,37.0
40.151,1.103,-0.475,1.0
28.352,0.787,-0.495,1.0
24.04,0.675,-0.556,0.0
40.124,1.142,0.171,147.0
40.129,1.154,-0.054,119.0
39.987,1.163,-0.28,15.0
40.144,1.179,-0.512,1.0
27.424,0.814,-0.504,10.0
23.182,0.694,-0.557,0.0
40.132,1.218,0.134,140.0
40.122,1.23,-0.092,148.0
39.926,1.235,-0.317,3.0
40.148,1.254,-0.549,1.0
26.163,0.825,-0.506,1.0
22.481,0.715,-0.562,0.0
40.12,1.293,0.096,150.0
40.061,1.303,-0.13,73.0
39.989,1.311,-0.356,0.0
30.134,0.997,-0.442,1.0
25.829,0.862,-0.524,2.0
22.299,0.751,-0.579,4.0
40.139,1.368,0.056,150.0
40.104,1.378,-0.17,80.0
40.181,1.392,-0.398,1.0
29.225,1.021,-0.458,2.0
25.041,0.882,-0.534,2.0
21.515,0.764,-0.581,2.0
43.38,1.557,0.016,1.0
42.659,1.544,-0.225,2.0
33.249,1.212,-0.363,0.0
28.483,1.047,-0.475,1.0
24.107,0.893,-0.539,1.0
21.043,0.785,-0.59,1.0
40.433,1.524,-0.026,15.0
40.184,1.526,-0.254,5.0
33.04,1.264,-0.396,1.0
27.563,1.062,-0.489,7.0
23.642,0.917,-0.554,17.0
20.268,0.792,-0.59,0.0
40.341,1.593,-0.07,150.0
39.845,1.584,-0.295,4.0
31.829,1.274,-0.416,0.0
26.965,1.086,-0.508,7.0
23.23,0.942,-0.57,12.0
19.839,0.81,-0.599,3.0
40.32,1.662,-0.115,50.0
23.648,0.981,-0.201,2.0
23.646,0.987,-0.336,23.0
23.657,0.994,-0.472,35.0
22.235,0.94,-0.57,2.0
19.589,0.834,-0.614,3.0
23.631,1.014,-0.094,46.0
23.634,1.021,-0.228,44.0
23.631,1.027,-0.362,44.0
23.617,1.033,-0.498,48.0
21.415,0.942,-0.574,2.0
19.032,0.842,-0.618,3.0
23.61,1.053,-0.121,74.0
23.608,1.059,-0.255,65.0
23.604,1.065,-0.389,66.0
23.596,1.071,-0.526,35.0
20.871,0.952,-0.584,2.0
18.616,0.854,-0.626,3.0
23.611,1.092,-0.149,63.0
23.618,1.099,-0.283,48.0
23.632,1.105,-0.418,39.0
23.499,1.105,-0.552,17.0
20.169,0.954,-0.588,1.0
18.281,0.869,-0.637,3.0
23.661,1.133,-0.178,36.0
23.641,1.138,-0.312,18.0
23.662,1.145,-0.447,14.0
23.274,1.132,-0.575,5.0
19.754,0.965,-0.6,3.0
17.965,0.883,-0.648,2.0
35.944,1.778,-0.314,8.0
29.554,1.469,-0.426,1.0
23.768,1.187,-0.478,3.0
21.564,1.082,-0.559,0.0
19.169,0.967,-0.606,3.0
17.599,0.892,-0.657,1.0
33.952,1.733,-0.339,2.0
28.716,1.472,-0.45,2.0
24.124,1.242,-0.516,3.0
20.934,1.083,-0.569,2.0
18.756,0.975,-0.617,3.0
17.187,0.897,-0.663,1.0
32.911,1.73,-0.371,10.0
27.856,1.471,-0.472,1.0
23.794,1.261,-0.539,1.0
20.472,1.09,-0.583,4.0
18.371,0.982,-0.628,3.0
17.024,0.914,-0.679,2.0
31.345,1.694,-0.394,7.0
26.415,1.434,-0.482,2.0
19.983,1.089,-0.479,1.0
19.782,1.082,-0.589,3.0
18.09,0.994,-0.642,2.0
16.891,0.932,-0.696,1.0
29.851,1.657,-0.414,7.0
25.341,1.412,-0.496,1.0
19.74,1.104,-0.499,11.0
19.424,1.091,-0.604,3.0
17.732,1.0,-0.653,1.0
16.748,0.948,-0.712,1.0
28.774,1.638,-0.437,8.0
24.531,1.402,-0.513,1.0
19.732,1.132,-0.525,9.0
18.832,1.084,-0.611,3.0
17.281,0.998,-0.659,1.0
16.564,0.961,-0.727,1.0
27.709,1.615,-0.459,6.0
20.12,1.177,-0.448,0.0
19.695,1.156,-0.551,9.0
18.404,1.085,-0.622,3.0
17.058,1.009,-0.674,1.0
16.345,0.97,-0.74,1.0
26.726,1.595,-0.479,6.0
19.795,1.185,-0.468,4.0
19.691,1.183,-0.578,10.0
18.17,1.095,-0.639,2.0
16.894,1.022,-0.691,1.0
16.156,0.981,-0.754,1.0
25.777,1.572,-0.498,2.0
19.736,1.207,-0.494,11.0
19.437,1.193,-0.598,5.0
17.664,1.088,-0.646,2.0
16.739,1.034,-0.708,1.0
16.015,0.993,-0.77,1.0
24.566,1.53,-0.509,1.0
19.723,1.232,-0.522,10.0
18.828,1.179,-0.606,3.0
17.324,1.089,-0.658,2.0
16.569,1.044,-0.725,1.0
15.868,1.003,-0.785,0.0
20.068,1.274,-0.444,0.0
19.705,1.255,-0.549,9.0
18.412,1.176,-0.618,3.0
17.063,1.093,-0.673,1.0
16.314,1.048,-0.737,1.0
15.373,0.991,-0.782,0.0
19.798,1.281,-0.466,5.0
19.654,1.275,-0.576,9.0
18.109,1.178,-0.634,2.0
16.855,1.1,-0.689,1.0
16.125,1.055,-0.751,1.0
15.115,0.992,-0.791,0.0
19.733,1.299,-0.494,10.0
19.373,1.279,-0.595,3.0
17.65,1.168,-0.644,2.0
16.711,1.109,-0.707,1.0
15.965,1.063,-0.767,2.0
14.655,0.978,-0.789,0.0
19.722,1.321,-0.522,9.0
18.756,1.259,-0.604,3.0
17.306,1.165,-0.657,1.0
16.482,1.112,-0.722,1.0
15.799,1.069,-0.783,1.0
14.299,0.97,-0.79,0.0
19.703,1.341,-0.55,9.0
18.367,1.253,-0.619,3.0
17.049,1.166,-0.672,1.0
16.269,1.115,-0.736,1.0
15.399,1.058,-0.786,0.0
14.21,0.979,-0.807,0.0
19.685,1.36,-0.579,8.0
18.011,1.247,-0.633,2.0
16.852,1.17,-0.689,1.0
16.051,1.117,-0.75,1.0
14.928,1.041,-0.784,0.0
13.856,0.969,-0.807,0.0
19.231,1.348,-0.594,3.0
17.542,1.232,-0.643,1.0
16.67,1.174,-0.707,1.0
15.956,1.126,-0.77,1.0
14.76,1.044,-0.797,0.0
13.532,0.959,-0.809,0.0
18.618,1.323,-0.603,3.0
17.26,1.229,-0.658,1.0
16.459,1.174,-0.722,1.0
15.518,1.11,-0.772,0.0
14.394,1.031,-0.799,0.0
13.275,0.953,-0.813,0.0
18.249,1.313,-0.619,2.0
16.996,1.226,-0.674,1.0
16.226,1.172,-0.736,1.0
15.123,1.095,-0.775,0.0
14.077,1.021,-0.802,0.0
13.149,0.956,-0.825,0.0
17.847,1.3,-0.632,1.0
16.795,1.225,-0.691,1.0
16.028,1.172,-0.752,2.0
14.833,1.087,-0.782,0.0
13.727,1.008,-0.803,0.0
12.729,0.936,-0.818,0.0
17.459,1.286,-0.645,2.0
16.602,1.225,-0.708,1.0
15.9,1.175,-0.77,1.0
14.546,1.077,-0.789,0.0
13.404,0.995,-0.805,0.0
12.548,0.933,-0.826,0.0
17.205,1.281,-0.661,2.0
16.36,1.22,-0.723,1.0
15.426,1.152,-0.77,0.0
14.208,1.063,-0.793,0.0
13.214,0.991,-0.813,0.0
12.41,0.932,-0.836,0.0
16.954,1.275,-0.677,1.0
16.121,1.214,-0.736,1.0
15.098,1.139,-0.777,0.0
13.976,1.056,-0.801,0.0
13.083,0.991,-0.825,0.0
12.2,0.925,-0.84,0.0
16.759,1.272,-0.695,1.0
15.974,1.214,-0.754,2.0
14.797,1.127,-0.784,0.0
13.706,1.045,-0.806,0.0
12.676,0.968,-0.819,0.0
11.915,0.912,-0.839,0.0
16.529,1.266,-0.71,1.0
15.683,1.203,-0.764,0.0
14.452,1.11,-0.788,0.0
13.293,1.023,-0.802,0.0
12.465,0.96,-0.824,0.0
11.623,0.897,-0.836,0.0
16.317,1.26,-0.726,1.0
15.262,1.18,-0.767,0.0
13.986,1.083,-0.784,0.0
13.098,1.015,-0.811,0.0
12.311,0.956,-0.833,0.0
11.461,0.891,-0.842,0.0
16.055,1.249,-0.739,1.0
14.944,1.164,-0.774,0.0
13.795,1.076,-0.794,0.0
12.87,1.005,-0.816,0.0
12.056,0.943,-0.834,0.0
11.303,0.885,-0.848,0.0
15.925,1.247,-0.757,1.0
14.754,1.157,-0.787,0.0
13.618,1.069,-0.805,0.0
12.613,0.992,-0.819,0.0
11.738,0.924,-0.83,0.0
11.138,0.878,-0.852,0.0
15.536,1.224,-0.763,0.0
14.275,1.126,-0.783,0.0
13.274,1.048,-0.804,0.0
12.455,0.985,-0.828,0.0
11.601,0.919,-0.838,0.0
10.952,0.868,-0.855,0.0
15.172,1.203,-0.767,0.0
13.07,1.038,-0.812,0.0
12.181,0.969,-0.828,0.0
11.447,0.911,-0.845,0.0
10.836,0.864,-0.862,0.0
14.888,1.186,-0.776,0.0
13.715,1.094,-0.794,0.0
12.825,1.024,-0.816,0.0
11.98,0.957,-0.833,0.0
11.257,0.901,-0.848,0.0
10.653,0.853,-0.864,0.0
14.509,1.161,-0.778,0.0
13.575,1.087,-0.806,0.0
12.608,1.011,-0.821,0.0
11.834,0.95,-0.841,0.0
11.078,0.89,-0.851,0.0
10.43,0.839,-0.862,0.0
14.214,1.142,-0.783,0.0
13.18,1.06,-0.802,0.0
12.322,0.992,-0.821,0.0
11.557,0.931,-0.838,0.0
10.952,0.883,-0.858,0.0
10.331,0.834,-0.869,0.0
13.958,1.125,-0.79,0.0
12.986,1.048,-0.81,0.0
12.128,0.979,-0.826,0.0
11.4,0.921,-0.844,0.0
10.799,0.874,-0.862,0.0
10.202,0.826,-0.873,0.0
13.669,1.105,-0.794,0.0
12.718,1.029,-0.812,0.0
11.942,0.967,-0.831,0.0
11.193,0.907,-0.845,0.0
10.558,0.856,-0.858,0.0
10.089,0.819,-0.879,0.0
13.511,1.095,-0.804,0.0
12.588,1.021,-0.822,0.0
11.759,0.954,-0.836,0.0
11.056,0.898,-0.851,0.0
10.41,0.846,-0.861,0.0
9.968,0.811,-0.883,0.0
13.24,1.075,-0.808,0.0
12.332,1.002,-0.823,0.0
11.551,0.939,-0.838,0.0
10.91,0.888,-0.856,0.0
10.317,0.84,-0.869,0.0
9.804,0.799,-0.883,0.0
12.869,1.046,-0.803,0.0
12.126,0.986,-0.827,0.0
11.362,0.925,-0.841,0.0
10.783,0.878,-0.861,0.0
10.205,0.831,-0.874,0.0
9.657,0.787,-0.883,0.0
12.694,1.033,-0.811,0.0
11.905,0.969,-0.829,0.0
11.217,0.913,-0.846,0.0
10.657,0.868,-0.866,0.0
10.073,0.821,-0.877,0.0
9.525,0.777,-0.885,0.0
12.514,1.018,-0.817,0.0
11.797,0.96,-0.838,0.0
11.062,0.901,-0.85,0.0
10.438,0.85,-0.863,0.0
9.891,0.806,-0.875,0.0
9.41,0.768,-0.887,0.0
12.355,1.005,-0.824,0.0
11.561,0.941,-0.837,0.0
10.944,0.891,-0.856,0.0
10.307,0.839,-0.867,0.0
9.844,0.802,-0.885,0.0
9.309,0.759,-0.891,0.0
12.114,0.985,-0.824,0.0
11.365,0.924,-0.839,0.0
10.759,0.875,-0.856,0.0
10.187,0.829,-0.871,0.0
9.642,0.785,-0.88,0.0
9.145,0.745,-0.888,0.0
11.951,0.97,-0.829,0.0
11.214,0.911,-0.843,0.0
10.591,0.86,-0.857,0.0
10.055,0.817,-0.873,0.0
9.502,0.772,-0.88,0.0
9.069,0.737,-0.892,0.0
11.831,0.959,-0.837,0.0
11.108,0.9,-0.85,0.0
10.454,0.847,-0.86,0.0
9.935,0.806,-0.876,0.0
9.429,0.765,-0.886,0.0
8.887,0.721,-0.886,0.0
11.655,0.942,-0.84,0.0
10.965,0.887,-0.853,0.0
10.366,0.838,-0.866,0.0
9.866,0.798,-0.882,0.0
9.304,0.753,-0.886,0.0
8.789,0.711,-0.888,0.0
11.452,0.923,-0.84,0.0
10.839,0.874,-0.857,0.0
10.217,0.824,-0.867,0.0
9.688,0.781,-0.879,0.0
9.171,0.74,-0.885,0.0
8.663,0.699,-0.887,0.0
11.28,0.906,-0.841,0.0
10.714,0.861,-0.861,0.0
10.123,0.813,-0.872,0.0
9.553,0.768,-0.879,0.0
9.057,0.728,-0.886,0.0
8.63,0.694,-0.894,0.0
11.16,0.893,-0.846,0.0
10.516,0.842,-0.858,0.0
10.013,0.801,-0.875,0.0
9.469,0.758,-0.883,0.0
8.956,0.717,-0.887,0.0
8.528,0.682,-0.894,0.0
11.039,0.88,-0.851,0.0
10.441,0.832,-0.865,0.0
9.907,0.789,-0.878,0.0
9.346,0.745,-0.883,0.0
8.85,0.705,-0.888,0.0
8.441,0.672,-0.896,0.0
10.919,0.866,-0.855,0.0
10.303,0.817,-0.866,0.0
9.783,0.776,-0.879,0.0
9.222,0.731,-0.883,0.0
8.762,0.694,-0.889,0.0
8.352,0.662,-0.896,0.0
10.806,0.853,-0.859,0.0
10.208,0.805,-0.87,0.0
9.71,0.766,-0.884,0.0
9.109,0.718,-0.882,0.0
8.663,0.683,-0.889,0.0
8.273,0.652,-0.897,0.0
10.689,0.838,-0.862,0.0
10.068,0.789,-0.87,0.0
9.58,0.751,-0.883,0.0
9.067,0.71,-0.889,0.0
8.634,0.676,-0.896,0.0
8.187,0.641,-0.897,0.0
10.565,0.824,-0.864,0.0
10.004,0.779,-0.875,0.0
9.487,0.739,-0.885,0.0
8.908,0.693,-0.883,0.0
8.505,0.662,-0.892,0.0
8.156,0.634,-0.903,0.0
10.437,0.808,-0.865,0.0
9.965,0.771,-0.883,0.0
9.396,0.727,-0.886,0.0
8.878,0.686,-0.89,0.0
8.458,0.653,-0.897,0.0
8.049,0.622,-0.9,0.0
10.353,0.796,-0.869,0.0
9.8,0.753,-0.878,0.0
9.301,0.714,-0.887,0.0
8.781,0.674,-0.889,0.0
8.375,0.642,-0.897,0.0
8.011,0.614,-0.904,0.0
10.244,0.781,-0.87,0.0
9.756,0.743,-0.885,0.0
9.189,0.7,-0.886,0.0
8.677,0.66,-0.888,0.0
8.299,0.631,-0.897,0.0
7.967,0.606,-0.907,0.0
10.162,0.769,-0.873,0.0
9.707,0.734,-0.89,0.0
9.118,0.688,-0.888,0.0
8.607,0.649,-0.889,0.0
8.293,0.625,-0.904,0.0
7.931,0.598,-0.911,0.0
10.097,0.757,-0.877,0.0
9.541,0.715,-0.884,0.0
9.036,0.676,-0.889,0.0
8.562,0.64,-0.893,0.0
8.208,0.613,-0.903,0.0
7.897,0.589,-0.914,0.0
10.004,0.743,-0.879,0.0
9.498,0.705,-0.889,0.0
8.95,0.663,-0.889,0.0
8.467,0.627,-0.89,0.0
8.161,0.604,-0.905,0.0
7.869,0.582,-0.918,0.0
9.94,0.731,-0.882,0.0
9.374,0.689,-0.885,0.0
8.855,0.65,-0.887,0.0
8.459,0.62,-0.897,0.0
8.081,0.592,-0.904,0.0
7.809,0.571,-0.918,0.0
9.859,0.717,-0.883,0.0
9.346,0.679,-0.891,0.0
8.808,0.64,-0.89,0.0
8.408,0.61,-0.899,0.0
8.034,0.582,-0.905,0.0
7.771,0.563,-0.921,0.0
9.793,0.705,-0.885,0.0
9.226,0.663,-0.887,0.0
8.737,0.627,-0.89,0.0
8.346,0.599,-0.899,0.0
7.995,0.573,-0.907,0.0
7.736,0.554,-0.923,0.0
9.705,0.691,-0.885,0.0
9.207,0.654,-0.892,0.0
8.678,0.616,-0.891,0.0
8.289,0.588,-0.899,0.0
7.977,0.565,-0.911,0.0
7.713,0.546,-0.926,0.0
9.652,0.679,-0.888,0.0
9.087,0.638,-0.888,0.0
8.66,0.607,-0.896,0.0
8.213,0.575,-0.897,0.0
7.942,0.555,-0.913,0.0
7.693,0.537,-0.929,0.0
9.6,0.667,-0.89,0.0
9.03,0.626,-0.889,0.0
8.599,0.595,-0.895,0.0
8.215,0.568,-0.903,0.0
7.928,0.547,-0.917,0.0
7.652,0.528,-0.93,0.0
9.567,0.656,-0.893,0.0
8.98,0.614,-0.89,0.0
8.57,0.585,-0.898,0.0
8.15,0.556,-0.902,0.0
7.872,0.536,-0.916,0.0
7.606,0.517,-0.929,0.0
9.479,0.641,-0.891,0.0
8.909,0.601,-0.888,0.0
8.554,0.576,-0.902,0.0
8.105,0.545,-0.902,0.0
7.837,0.526,-0.917,0.0
7.55,0.506,-0.927,0.0
9.404,0.627,-0.89,0.0
8.888,0.591,-0.892,0.0
8.466,0.562,-0.898,0.0
8.113,0.538,-0.908,0.0
7.824,0.518,-0.92,0.0
7.558,0.499,-0.932,0.0
9.371,0.615,-0.892,0.0
8.919,0.584,-0.9,0.0
8.458,0.553,-0.902,0.0
8.088,0.528,-0.909,0.0
7.802,0.509,-0.922,0.0
7.525,0.49,-0.932,0.0
9.344,0.604,-0.894,0.0
8.802,0.568,-0.893,0.0
8.453,0.544,-0.905,0.0
8.031,0.516,-0.907,0.0
7.783,0.499,-0.924,0.0
7.487,0.479,-0.932,0.0
9.315,0.593,-0.896,0.0
8.825,0.56,-0.899,0.0
8.443,0.535,-0.908,0.0
8.018,0.507,-0.909,0.0
7.764,0.49,-0.925,0.0
7.465,0.47,-0.932,0.0
9.255,0.579,-0.895,0.0
8.8,0.549,-0.901,0.0
8.366,0.521,-0.904,0.0
7.994,0.497,-0.91,0.0
7.72,0.479,-0.923,0.0
7.446,0.461,-0.933,0.0
9.199,0.566,-0.893,0.0
8.735,0.536,-0.897,0.0
8.339,0.511,-0.904,0.0
7.994,0.488,-0.913,0.0
7.713,0.47,-0.925,0.0
7.422,0.451,-0.933,0.0
9.174,0.554,-0.894,0.0
8.743,0.527,-0.901,0.0
8.312,0.5,-0.904,0.0
7.981,0.479,-0.915,0.0
7.725,0.462,-0.929,0.0
7.412,0.442,-0.934,0.0
9.189,0.545,-0.898,0.0
8.735,0.517,-0.903,0.0
8.283,0.489,-0.904,0.0
7.956,0.468,-0.914,0.0
7.685,0.451,-0.927,0.0
7.391,0.433,-0.934,0.0
9.128,0.531,-0.895,0.0
8.708,0.505,-0.903,0.0
8.312,0.481,-0.909,0.0
7.938,0.458,-0.914,0.0
7.695,0.443,-0.93,0.0
7.389,0.424,-0.935,0.0
9.092,0.519,-0.893,0.0
8.708,0.495,-0.905,0.0
8.291,0.47,-0.909,0.0
7.952,0.45,-0.917,0.0
7.671,0.433,-0.929,0.0
7.386,0.416,-0.936,0.0
9.115,0.509,-0.897,0.0
8.686,0.484,-0.904,0.0
8.283,0.46,-0.909,0.0
7.956,0.441,-0.919,0.0
7.665,0.423,-0.929,0.0
7.356,0.405,-0.934,0.0
9.08,0.497,-0.895,0.0
8.674,0.473,-0.904,0.0
8.249,0.449,-0.906,0.0
7.935,0.43,-0.918,0.0
7.666,0.414,-0.93,0.0
7.378,0.398,-0.937,0.0
9.115,0.488,-0.9,0.0
8.712,0.465,-0.909,0.0
8.263,0.439,-0.909,0.0
7.878,0.418,-0.912,0.0
7.67,0.405,-0.931,0.0
7.356,0.388,-0.935,0.0
9.115,0.477,-0.9,0.0
8.693,0.453,-0.907,0.0
8.26,0.429,-0.909,0.0
7.948,0.412,-0.92,0.0
7.663,0.396,-0.931,0.0
7.376,0.38,-0.938,0.0
9.125,0.466,-0.901,0.0
8.74,0.445,-0.912,0.0
8.283,0.421,-0.911,0.0
7.914,0.4,-0.916,0.0
7.648,0.386,-0.929,0.0
7.372,0.37,-0.937,0.0
9.129,0.455,-0.901,0.0
8.729,0.434,-0.911,0.0
8.337,0.413,-0.917,0.0
7.958,0.393,-0.921,0.0
7.656,0.377,-0.929,0.0
7.368,0.361,-0.936,0.0
9.14,0.445,-0.902,0.0
8.72,0.423,-0.909,0.0
8.329,0.402,-0.915,0.0
7.953,0.383,-0.92,0.0
7.692,0.369,-0.933,0.0
7.396,0.353,-0.939,0.0
9.144,0.434,-0.901,0.0
8.723,0.412,-0.908,0.0
8.354,0.393,-0.917,0.0
7.954,0.373,-0.918,0.0
7.698,0.36,-0.932,0.0
7.426,0.346,-0.941,0.0
9.144,0.422,-0.9,0.0
8.745,0.402,-0.909,0.0
8.365,0.383,-0.917,0.0
7.956,0.363,-0.917,0.0
7.696,0.35,-0.931,0.0
7.418,0.336,-0.939,0.0
9.173,0.412,-0.9,0.0
8.768,0.392,-0.91,0.0
8.368,0.373,-0.915,0.0
7.981,0.354,-0.918,0.0
7.694,0.34,-0.928,0.0
7.425,0.327,-0.938,0.0
9.269,0.405,-0.908,0.0
8.766,0.381,-0.907,0.0
8.418,0.365,-0.918,0.0
8.036,0.347,-0.922,0.0
7.734,0.332,-0.931,0.0
7.431,0.318,-0.936,0.0
9.23,0.392,-0.901,0.0
8.823,0.373,-0.91,0.0
8.467,0.356,-0.921,0.0
8.05,0.337,-0.921,0.0
7.748,0.323,-0.93,0.0
7.447,0.309,-0.936,0.0
9.27,0.382,-0.901,0.0
8.858,0.363,-0.911,0.0
8.49,0.346,-0.92,0.0
8.091,0.328,-0.923,0.0
7.761,0.313,-0.929,0.0
7.481,0.301,-0.937,0.0
9.331,0.372,-0.904,0.0
8.87,0.352,-0.908,0.0
8.493,0.336,-0.917,0.0
8.092,0.318,-0.92,0.0
7.781,0.305,-0.928,0.0
7.517,0.293,-0.938,0.0
9.359,0.362,-0.902,0.0
8.903,0.342,-0.908,0.0
8.541,0.327,-0.918,0.0
8.139,0.31,-0.921,0.0
7.848,0.297,-0.932,0.0
7.549,0.284,-0.939,0.0
9.414,0.352,-0.903,0.0
8.95,0.333,-0.908,0.0
8.574,0.317,-0.917,0.0
8.168,0.301,-0.92,0.0
7.864,0.288,-0.93,0.0
7.564,0.275,-0.936,0.0
9.435,0.341,-0.9,0.0
8.988,0.323,-0.907,0.0
8.651,0.309,-0.921,0.0
8.245,0.293,-0.924,0.0
7.894,0.279,-0.929,0.0
7.61,0.267,-0.938,0.0
9.437,0.329,-0.895,0.0
9.054,0.314,-0.909,0.0
8.688,0.299,-0.92,0.0
8.277,0.284,-0.923,0.0
7.958,0.271,-0.932,0.0
7.647,0.259,-0.938,0.0
9.555,0.321,-0.9,0.0
9.128,0.305,-0.91,0.0
8.712,0.289,-0.917,0.0
8.307,0.274,-0.921,0.0
8.011,0.263,-0.932,0.0
7.703,0.251,-0.939,0.0
9.621,0.311,-0.9,0.0
9.182,0.295,-0.909,0.0
8.775,0.28,-0.917,0.0
8.352,0.265,-0.92,0.0
8.029,0.253,-0.929,0.0
7.704,0.242,-0.934,0.0
9.68,0.301,-0.899,0.0
9.216,0.285,-0.906,0.0
8.799,0.27,-0.914,0.0
8.412,0.257,-0.921,0.0
8.081,0.245,-0.929,0.0
7.773,0.234,-0.937,0.0
9.739,0.291,-0.897,0.0
9.329,0.277,-0.91,0.0
8.899,0.262,-0.917,0.0
8.526,0.25,-0.926,0.0
8.157,0.237,-0.931,0.0
7.814,0.226,-0.935,0.0
9.829,0.282,-0.897,0.0
9.422,0.268,-0.912,0.0
8.944,0.253,-0.915,0.0
8.562,0.24,-0.923,0.0
8.189,0.228,-0.928,0.0
7.875,0.218,-0.936,0.0
9.874,0.271,-0.893,0.0
9.446,0.257,-0.906,0.0
9.026,0.244,-0.915,0.0
8.619,0.231,-0.922,0.0
8.288,0.221,-0.932,0.0
7.925,0.209,-0.935,0.0
10.011,0.263,-0.897,0.0
9.565,0.249,-0.909,0.0
9.093,0.235,-0.914,0.0
8.676,0.223,-0.92,0.0
8.302,0.211,-0.926,0.0
7.965,0.201,-0.932,0.0
10.072,0.253,-0.893,0.0
9.62,0.239,-0.905,0.0
9.116,0.225,-0.908,0.0
8.74,0.214,-0.919,0.0
8.437,0.205,-0.933,0.0
8.048,0.193,-0.934,0.0
10.227,0.244,-0.897,0.0
9.691,0.229,-0.903,0.0
9.159,0.215,-0.903,0.0
8.854,0.206,-0.922,0.0
8.484,0.196,-0.93,0.0
8.139,0.186,-0.936,0.0
10.288,0.234,-0.892,0.0
9.813,0.221,-0.904,0.0
9.326,0.208,-0.91,0.0
8.967,0.198,-0.924,0.0
8.514,0.186,-0.924,0.0
8.175,0.177,-0.932,0.0
10.431,0.225,-0.893,0.0
9.882,0.211,-0.9,0.0
9.443,0.2,-0.911,0.0
9.029,0.189,-0.921,0.0
8.607,0.178,-0.925,0.0
8.234,0.169,-0.93,0.0
10.591,0.216,-0.896,0.0
10.068,0.203,-0.906,0.0
9.532,0.191,-0.909,0.0
9.093,0.18,-0.917,0.0
8.713,0.171,-0.926,0.0
8.314,0.161,-0.929,0.0
10.713,0.206,-0.894,0.0
10.133,0.193,-0.9,0.0
9.648,0.182,-0.909,0.0
9.18,0.171,-0.916,0.0
8.77,0.162,-0.922,0.0
8.423,0.154,-0.931,0.0
10.867,0.197,-0.894,0.0
10.291,0.185,-0.902,0.0
9.722,0.173,-0.904,0.0
9.322,0.164,-0.919,0.0
8.9,0.155,-0.925,0.0
8.499,0.146,-0.93,0.0
10.995,0.188,-0.891,0.0
10.376,0.175,-0.897,0.0
9.834,0.164,-0.903,0.0
9.44,0.156,-0.919,0.0
8.994,0.146,-0.924,0.0
8.589,0.138,-0.929,0.0
11.105,0.178,-0.886,0.0
10.568,0.167,-0.9,0.0
9.998,0.156,-0.905,0.0
9.482,0.146,-0.911,0.0
9.059,0.138,-0.919,0.0
8.682,0.13,-0.927,0.0
11.311,0.169,-0.888,0.0
10.719,0.158,-0.899,0.0
10.13,0.147,-0.904,0.0
9.593,0.138,-0.909,0.0
9.199,0.13,-0.921,0.0
8.754,0.122,-0.924,0.0
11.488,0.16,-0.887,0.0
10.865,0.149,-0.897,0.0
10.292,0.139,-0.905,0.0
9.726,0.13,-0.908,0.0
9.32,0.123,-0.92,0.0
8.893,0.115,-0.926,0.0
11.661,0.15,-0.884,1.0
11.036,0.14,-0.896,0.0
10.448,0.131,-0.904,0.0
9.888,0.122,-0.91,0.0
9.434,0.115,-0.918,0.0
8.984,0.107,-0.923,0.0
11.799,0.14,-0.878,2.0
11.203,0.131,-0.894,0.0
10.601,0.122,-0.902,0.0
9.981,0.113,-0.904,0.0
9.501,0.106,-0.911,0.0
9.08,0.1,-0.92,0.0
12.004,0.131,-0.877,0.0
11.37,0.122,-0.891,0.0
10.77,0.114,-0.901,0.0
10.191,0.106,-0.908,0.0
9.724,0.099,-0.918,0.0
9.242,0.093,-0.922,0.0
12.242,0.122,-0.876,0.0
11.553,0.113,-0.888,0.0
10.942,0.105,-0.899,0.0
10.339,0.098,-0.906,0.0
9.828,0.091,-0.914,0.0
9.394,0.085,-0.923,0.0
12.457,0.113,-0.873,0.0
11.739,0.104,-0.885,0.0
11.118,0.097,-0.897,0.0
10.504,0.09,-0.904,0.0
9.996,0.084,-0.914,0.0
9.47,0.078,-0.916,0.0
12.697,0.104,-0.87,0.0
11.936,0.095,-0.881,1.0
11.282,0.088,-0.893,0.0
10.693,0.082,-0.904,0.0
10.133,0.076,-0.91,0.0
9.619,0.07,-0.915,0.0
12.912,0.094,-0.865,0.0
12.185,0.087,-0.88,0.0
11.492,0.08,-0.891,0.0
10.869,0.074,-0.902,0.0
10.308,0.068,-0.91,0.0
9.815,0.063,-0.918,0.0
13.174,0.085,-0.861,0.0
12.393,0.078,-0.876,1.0
11.703,0.072,-0.889,0.0
11.064,0.066,-0.9,0.0
10.479,0.061,-0.908,0.0
9.943,0.056,-0.914,0.0
13.442,0.076,-0.857,0.0
12.637,0.069,-0.872,0.0
11.897,0.063,-0.884,0.0
11.248,0.058,-0.896,0.0
10.684,0.053,-0.908,0.0
10.117,0.049,-0.913,0.0
13.734,0.066,-0.853,0.0
12.88,0.06,-0.867,0.0
12.118,0.055,-0.88,0.0
11.459,0.05,-0.894,0.0
10.834,0.046,-0.902,0.0
10.299,0.042,-0.912,0.0
14.057,0.058,-0.849,0.0
13.151,0.052,-0.864,0.0
12.384,0.047,-0.878,0.0
11.669,0.042,-0.89,0.0
11.056,0.039,-0.902,0.0
10.434,0.035,-0.906,0.0
14.374,0.048,-0.844,0.0
13.453,0.043,-0.86,0.0
12.619,0.039,-0.873,0.0
11.88,0.035,-0.886,0.0
11.244,0.031,-0.898,0.0
10.658,0.028,-0.907,0.0
14.829,0.039,-0.845,0.0
13.735,0.035,-0.854,0.0
12.89,0.031,-0.87,0.0
12.118,0.027,-0.882,0.0
11.477,0.024,-0.896,0.0
10.853,0.021,-0.905,0.0
15.182,0.03,-0.838,0.0
14.041,0.026,-0.849,0.0
13.163,0.023,-0.865,0.0
12.377,0.02,-0.879,0.0
11.675,0.017,-0.891,0.0
11.056,0.015,-0.902,0.0
15.57,0.021,-0.832,0.0
14.378,0.018,-0.843,0.0
13.457,0.015,-0.86,0.0
12.646,0.012,-0.875,0.0
11.887,0.01,-0.885,0.0
11.269,0.008,-0.899,0.0
15.977,0.012,-0.825,0.0
14.927,0.009,-0.848,0.0
13.821,0.007,-0.857,0.0
12.933,0.005,-0.872,0.0
12.166,0.003,-0.884,0.0
11.502,0.001,-0.896,0.0
16.452,0.003,-0.819,0.0
15.256,0.001,-0.839,0.0
14.134,0.0,-0.851,0.0
13.228,-0.002,-0.867,0.0
12.435,-0.003,-0.88,0.0
11.736,-0.004,-0.892,0.0
17.037,-0.006,-0.816,0.0
15.64,-0.007,-0.83,0.0
14.546,-0.008,-0.848,0.0
13.53,-0.009,-0.861,0.0
12.709,-0.01,-0.875,0.0
11.983,-0.01,-0.888,0.0
17.443,-0.015,-0.802,0.0
16.13,-0.015,-0.826,0.0
14.997,-0.016,-0.846,0.0
13.907,-0.016,-0.859,0.0
13.02,-0.016,-0.872,0.0
12.267,-0.016,-0.885,0.0
18.134,-0.024,-0.8,0.0
16.638,-0.024,-0.82,0.0
15.361,-0.023,-0.837,0.0
14.185,-0.023,-0.848,0.0
13.327,-0.023,-0.867,0.0
12.514,-0.023,-0.879,0.0
18.917,-0.033,-0.798,0.0
17.141,-0.032,-0.812,0.0
15.705,-0.031,-0.825,0.0
14.709,-0.03,-0.851,0.0
13.655,-0.029,-0.861,0.0
12.795,-0.028,-0.874,0.0
19.622,-0.043,-0.789,1.0
17.712,-0.04,-0.804,0.0
16.199,-0.038,-0.82,0.0
15.09,-0.037,-0.843,0.0
14.053,-0.035,-0.859,0.0
13.159,-0.034,-0.872,0.0
19.79,-0.05,-0.757,2.0
18.431,-0.048,-0.8,0.0
16.937,-0.046,-0.824,0.0
15.539,-0.043,-0.838,0.0
14.381,-0.041,-0.85,0.0
13.463,-0.039,-0.866,0.0
20.24,-0.059,-0.734,0.0
19.126,-0.057,-0.793,0.0
17.453,-0.053,-0.814,0.0
15.897,-0.049,-0.825,0.0
14.906,-0.047,-0.851,0.0
13.776,-0.045,-0.858,0.0
19.868,-0.063,-0.681,0.0
19.699,-0.064,-0.777,2.0
18.14,-0.06,-0.81,0.0
16.444,-0.056,-0.821,0.0
15.314,-0.053,-0.844,0.0
14.178,-0.05,-0.855,0.0
19.773,-0.068,-0.638,1.0
19.807,-0.07,-0.742,2.0
18.77,-0.067,-0.8,0.0
17.077,-0.062,-0.818,0.0
15.731,-0.058,-0.835,0.0
14.67,-0.055,-0.855,0.0
19.767,-0.073,-0.598,6.0
19.806,-0.074,-0.701,3.0
19.559,-0.074,-0.794,1.0
17.684,-0.068,-0.811,0.0
16.239,-0.063,-0.829,0.0
15.093,-0.06,-0.848,0.0
19.775,-0.077,-0.558,12.0
19.776,-0.078,-0.66,5.0
19.737,-0.079,-0.761,3.0
18.419,-0.074,-0.807,0.0
16.829,-0.069,-0.824,0.0
15.574,-0.064,-0.843,0.0
19.761,-0.08,-0.517,14.0
19.757,-0.081,-0.619,9.0
19.768,-0.082,-0.721,6.0
19.197,-0.08,-0.801,0.0
17.472,-0.074,-0.82,0.0
15.935,-0.068,-0.83,0.0
19.761,-0.083,-0.476,14.0
19.758,-0.083,-0.578,13.0
19.771,-0.084,-0.68,9.0
19.679,-0.084,-0.781,3.0
18.191,-0.078,-0.815,0.0
16.479,-0.071,-0.824,0.0
19.755,-0.084,-0.434,16.0
19.75,-0.085,-0.536,14.0
19.748,-0.085,-0.638,10.0
19.746,-0.086,-0.742,8.0
18.821,-0.082,-0.804,0.0
17.233,-0.075,-0.825,0.0
19.756,-0.085,-0.393,15.0
19.746,-0.086,-0.495,13.0
19.755,-0.086,-0.597,13.0
19.751,-0.086,-0.701,8.0
19.604,-0.086,-0.797,2.0
17.812,-0.078,-0.816,0.0
19.764,-0.086,-0.352,14.0
19.753,-0.086,-0.454,15.0
19.763,-0.086,-0.556,13.0
19.756,-0.086,-0.66,11.0
19.73,-0.086,-0.76,6.0
18.486,-0.081,-0.808,0.0
19.759,-0.085,-0.311,16.0
19.747,-0.085,-0.412,15.0
19.745,-0.085,-0.514,13.0
19.755,-0.085,-0.618,13.0
19.754,-0.085,-0.72,8.0
19.295,-0.083,-0.802,0.0
19.758,-0.084,-0.269,16.0
19.757,-0.084,-0.371,13.0
19.744,-0.083,-0.473,13.0
19.755,-0.084,-0.577,13.0
19.772,-0.083,-0.679,9.0
19.697,-0.083,-0.778,2.0
19.742,-0.082,-0.228,16.0
19.752,-0.081,-0.33,14.0
19.756,-0.081,-0.431,13.0
19.751,-0.081,-0.535,13.0
19.772,-0.081,-0.637,8.0
19.754,-0.081,-0.739,6.0
19.73,-0.079,-0.186,17.0
19.747,-0.079,-0.288,14.0
19.757,-0.078,-0.39,13.0
19.744,-0.078,-0.493,11.0
19.763,-0.078,-0.595,9.0
19.775,-0.077,-0.697,4.0
19.722,-0.075,-0.144,17.0
19.738,-0.075,-0.245,15.0
19.749,-0.074,-0.347,12.0
19.751,-0.074,-0.451,12.0
19.755,-0.073,-0.553,7.0
19.776,-0.073,-0.655,1.0
19.728,-0.071,-0.102,16.0
19.724,-0.07,-0.203,15.0
19.752,-0.07,-0.305,13.0
19.759,-0.069,-0.409,12.0
19.764,-0.069,-0.511,5.0
19.777,-0.068,-0.613,1.0
19.72,-0.066,-0.06,15.0
19.729,-0.065,-0.162,16.0
19.744,-0.065,-0.264,14.0
19.762,-0.064,-0.367,9.0
19.773,-0.063,-0.47,3.0
19.795,-0.062,-0.572,1.0
19.709,-0.06,-0.019,17.0
19.714,-0.06,-0.12,16.0
19.74,-0.059,-0.222,14.0
19.75,-0.058,-0.326,13.0
19.774,-0.057,-0.428,2.0
25.92,-0.073,-0.694,0.0
19.708,-0.054,0.022,17.0
19.72,-0.053,-0.078,14.0
19.727,-0.052,-0.179,14.0
19.754,-0.051,-0.284,13.0
19.795,-0.05,-0.386,1.0
26.938,-0.066,-0.665,0.0
19.715,-0.047,0.064,15.0
19.713,-0.046,-0.037,17.0
19.731,-0.044,-0.138,14.0
19.747,-0.043,-0.242,14.0
19.764,-0.042,-0.344,1.0
28.771,-0.059,-0.65,0.0
19.706,-0.039,0.105,18.0
19.706,-0.038,0.003,17.0
19.726,-0.036,-0.097,11.0
19.747,-0.035,-0.201,13.0
19.765,-0.033,-0.303,1.0
29.74,-0.048,-0.609,0.0
19.678,-0.03,0.146,10.0
19.707,-0.029,0.045,15.0
19.715,-0.027,-0.055,14.0
19.738,-0.026,-0.159,13.0
19.766,-0.024,-0.261,1.0
32.163,-0.037,-0.591,0.0
19.655,-0.021,0.187,13.0
19.698,-0.019,0.086,14.0
19.712,-0.017,-0.014,14.0
19.737,-0.016,-0.118,9.0
19.766,-0.014,-0.22,1.0
0.0,0.0,0.0,0.0
19.641,-0.011,0.228,15.0
19.692,-0.009,0.127,3.0
19.708,-0.007,0.026,10.0
19.743,-0.005,-0.077,6.0
19.788,-0.004,-0.179,0.0
36.055,-0.004,-0.513,0.0
19.637,0.0,0.269,14.0
19.699,0.001,0.168,8.0
19.766,0.003,0.067,3.0
19.741,0.005,-0.036,9.0
19.777,0.007,-0.138,0.0
19.758,0.009,-0.24,0.0
19.63,0.011,0.309,14.0
19.628,0.013,0.208,16.0
19.741,0.015,0.107,3.0
19.744,0.017,0.004,7.0
19.756,0.019,-0.097,2.0
19.772,0.021,-0.2,1.0
19.619,0.023,0.349,17.0
19.629,0.025,0.248,15.0
19.741,0.027,0.148,10.0
19.745,0.03,0.044,12.0
19.745,0.032,-0.057,148.0
19.755,0.034,-0.159,13.0
19.614,0.036,0.39,13.0
19.617,0.038,0.289,13.0
19.659,0.041,0.188,13.0
19.736,0.043,0.084,14.0
19.76,0.045,-0.016,23.0
19.758,0.048,-0.118,16.0
19.609,0.049,0.43,13.0
19.61,0.052,0.328,13.0
19.61,0.054,0.227,14.0
19.712,0.057,0.124,18.0
19.75,0.06,0.022,23.0
19.747,0.062,-0.079,50.0
19.601,0.064,0.469,18.0
19.613,0.066,0.368,18.0
19.614,0.069,0.266,12.0
19.647,0.071,0.163,11.0
19.718,0.074,0.062,25.0
19.755,0.077,-0.039,40.0
19.606,0.079,0.508,19.0
19.62,0.081,0.407,23.0
19.622,0.084,0.306,18.0
19.621,0.087,0.202,14.0
19.674,0.09,0.101,13.0
19.71,0.093,0.0,9.0
19.598,0.094,0.547,17.0
19.617,0.097,0.446,26.0
19.597,0.1,0.344,22.0
19.609,0.103,0.241,15.0
19.655,0.106,0.14,14.0
19.657,0.109,0.038,13.0
19.593,0.111,0.586,16.0
19.623,0.114,0.485,21.0
19.601,0.116,0.383,17.0
19.598,0.119,0.279,13.0
19.662,0.123,0.178,16.0
19.648,0.125,0.076,14.0
19.598,0.127,0.624,13.0
19.601,0.13,0.522,18.0
19.604,0.134,0.421,13.0
19.607,0.137,0.317,10.0
19.649,0.14,0.216,16.0
19.647,0.143,0.114,15.0
19.61,0.145,0.663,12.0
19.579,0.148,0.56,13.0
19.608,0.151,0.459,12.0
19.615,0.155,0.355,10.0
19.631,0.158,0.254,10.0
19.649,0.161,0.152,14.0
19.622,0.164,0.701,10.0
19.601,0.167,0.598,10.0
19.611,0.17,0.496,10.0
19.633,0.173,0.393,10.0
19.65,0.177,0.291,8.0
19.672,0.18,0.189,13.0
19.657,0.183,0.739,8.0
19.638,0.186,0.636,10.0
19.659,0.189,0.534,9.0
19.664,0.193,0.43,9.0
19.686,0.196,0.328,9.0
19.703,0.2,0.226,9.0
19.702,0.203,0.778,1.0
19.665,0.206,0.674,10.0
19.681,0.209,0.572,10.0
19.699,0.213,0.467,10.0
19.723,0.216,0.365,12.0
19.742,0.22,0.263,12.0
185.795,2.102,7.677,21.0
19.648,0.225,0.709,11.0
19.648,0.229,0.607,12.0
19.665,0.233,0.503,10.0
19.691,0.237,0.4,10.0
19.708,0.241,0.298,12.0
84.827,1.049,3.661,45.0
19.655,0.246,0.745,7.0
19.644,0.25,0.642,15.0
19.641,0.254,0.538,14.0
19.68,0.258,0.436,10.0
19.7,0.262,0.333,14.0
84.815,1.141,3.813,12.0
185.49,2.531,7.37,10.0
19.636,0.271,0.677,13.0
19.644,0.275,0.573,13.0
19.677,0.279,0.471,13.0
19.705,0.283,0.368,14.0
121.512,1.769,5.679,26.0
121.628,1.795,5.047,18.0
19.648,0.293,0.712,8.0
19.65,0.297,0.607,12.0
19.679,0.302,0.505,10.0
19.7,0.306,0.403,9.0
121.519,1.909,5.895,23.0
121.496,1.932,5.254,24.0
135.418,2.181,5.147,9.0
19.669,0.32,0.642,3.0
55.193,0.911,1.514,9.0
55.19,0.922,1.224,20.0
55.212,0.931,2.773,45.0
55.191,0.942,2.482,52.0
55.187,0.953,2.191,68.0
55.176,0.964,1.896,74.0
55.172,0.976,1.607,74.0
55.168,0.987,1.317,72.0
55.198,0.997,2.866,67.0
55.184,1.008,2.575,53.0
55.189,1.02,2.285,52.0
55.185,1.031,1.99,38.0
55.194,1.043,1.699,21.0
55.212,1.055,1.41,9.0
121.885,2.351,6.533,13.0
121.737,2.374,5.883,23.0
121.34,2.392,5.226,25.0
121.32,2.417,4.574,16.0
135.188,2.721,4.384,23.0
134.788,2.742,3.663,11.0
121.813,2.501,6.728,18.0
121.538,2.521,6.072,12.0
121.643,2.549,5.435,17.0
121.214,2.566,4.765,19.0
135.256,2.892,4.603,10.0
134.816,2.911,3.878,21.0
129.608,2.825,7.367,14.0
129.384,2.847,6.669,15.0
121.694,2.706,5.631,10.0
121.254,2.722,4.958,13.0
121.058,2.743,4.31,15.0
135.425,3.099,4.108,9.0
133.539,3.083,7.8,27.0
129.604,3.02,6.884,11.0
114.63,2.697,5.482,10.0
121.467,2.884,5.155,9.0
121.102,2.903,4.5,14.0
115.072,2.784,3.669,6.0
134.065,3.272,8.038,18.0
134.251,3.305,7.338,10.0
120.919,3.003,5.968,15.0
45.424,1.138,1.996,0.0
45.496,1.15,1.759,2.0
45.496,1.16,1.518,11.0
0.0,0.0,0.0,0.0
43.704,1.134,2.454,26.0
43.694,1.144,2.222,83.0
43.712,1.154,1.987,128.0
0.0,0.0,0.0,0.0
0.0,0.0,0.0,0.0
41.914,1.135,2.638,109.0
0.0,0.0,0.0,0.0
0.0,0.0,0.0,0.0
0.0,0.0,0.0,0.0
0.0,0.0,0.0,0.0
40.124,1.133,1.456,87.0
40.105,1.142,2.582,150.0
40.11,1.151,2.369,150.0
40.111,1.16,2.156,120.0
40.115,1.17,1.938,114.0
40.111,1.179,1.725,119.0
40.121,1.189,1.512,145.0
40.115,1.198,2.639,126.0
40.107,1.207,2.425,129.0
40.121,1.217,2.212,114.0
40.122,1.226,1.994,117.0
40.121,1.235,1.78,95.0
40.119,1.244,1.567,123.0
40.113,1.254,2.694,150.0
40.115,1.264,2.48,113.0
40.115,1.273,2.266,111.0
40.123,1.283,2.048,97.0
40.112,1.292,1.833,128.0
40.12,1.302,1.62,109.0
40.159,1.313,2.751,89.0
40.206,1.324,2.539,150.0
0.0,0.0,0.0,0.0
128.235,4.286,6.716,8.0
120.472,4.055,5.666,12.0
120.071,4.07,5.005,11.0
40.198,1.373,2.806,104.0
40.212,1.383,2.592,150.0
128.056,4.437,7.57,13.0
135.523,4.727,7.27,16.0
120.82,4.242,5.835,17.0
120.051,4.245,5.156,14.0
40.216,1.433,2.858,136.0
40.211,1.442,2.642,150.0
45.535,1.644,2.747,3.0
135.115,4.911,7.415,21.0
121.103,4.431,5.998,22.0
120.131,4.424,5.307,17.0
40.211,1.492,2.908,150.0
43.744,1.634,2.928,2.0
45.566,1.713,2.805,53.0
121.186,4.585,6.798,18.0
120.958,4.605,6.134,24.0
134.446,5.152,6.098,16.0
40.204,1.552,2.955,137.0
0.0,0.0,0.0,0.0
0.0,0.0,0.0,0.0
120.912,4.757,6.923,19.0
120.918,4.785,6.273,21.0
181.199,7.216,8.427,6.0
40.197,1.613,3.001,30.0
40.206,1.623,2.785,84.0
0.0,0.0,0.0,0.0
120.589,4.925,7.039,22.0
120.758,4.962,6.4,19.0
180.902,7.477,8.614,4.0
40.198,1.674,3.045,0.0
40.207,1.684,2.829,115.0
43.77,1.844,2.843,90.0
23.578,0.999,1.402,1.0
23.594,1.005,1.276,21.0
23.613,1.012,1.149,35.0
23.592,1.019,1.813,40.0
23.589,1.024,1.685,43.0
23.579,1.029,1.557,41.0
23.573,1.035,1.426,43.0
23.563,1.04,1.298,49.0
23.569,1.046,1.172,61.0
23.551,1.053,1.834,73.0
23.556,1.059,1.706,75.0
23.553,1.064,1.578,81.0
23.564,1.07,1.449,73.0
23.569,1.076,1.322,78.0
23.555,1.081,1.194,70.0
23.558,1.09,1.858,75.0
23.557,1.095,1.73,65.0
23.556,1.101,1.602,50.0
23.556,1.106,1.471,48.0
23.573,1.113,1.345,46.0
23.58,1.119,1.217,46.0
23.578,1.127,1.882,40.0
23.567,1.132,1.752,24.0
0.0,0.0,0.0,0.0
0.0,0.0,0.0,0.0
23.59,1.15,1.367,1.0
23.611,1.157,1.24,0.0
0.0,0.0,0.0,0.0
40.177,1.993,3.024,6.0
40.196,2.004,2.806,87.0
0.0,0.0,0.0,0.0
0.0,0.0,0.0,0.0
0.0,0.0,0.0,0.0
0.0,0.0,0.0,0.0
0.0,0.0,0.0,0.0
40.202,2.067,2.841,110.0
0.0,0.0,0.0,0.0
200.063,10.384,11.94,5.0
0.0,0.0,0.0,0.0
0.0,0.0,0.0,0.0
0.0,0.0,0.0,0.0
40.195,2.13,2.873,107.0
0.0,0.0,0.0,0.0
0.0,0.0,0.0,0.0
0.0,0.0,0.0,0.0
0.0,0.0,0.0,0.0
0.0,0.0,0.0,0.0
40.195,2.193,2.903,109.0
43.713,2.395,2.914,3.0
45.542,2.506,2.787,6.0
0.0,0.0,0.0,0.0
0.0,0.0,0.0,0.0
0.0,0.0,0.0,0.0
40.193,2.256,2.932,113.0
41.973,2.365,2.828,148.0
45.556,2.578,2.82,51.0
0.0,0.0,0.0,0.0
0.0,0.0,0.0,0.0
0.0,0.0,0.0,0.0
40.194,2.319,2.959,99.0
41.967,2.431,2.855,134.0
45.539,2.648,2.849,109.0
0.0,0.0,0.0,0.0
0.0,0.0,0.0,0.0
0.0,0.0,0.0,0.0
40.173,2.38,2.983,61.0
0.0,0.0,0.0,0.0
0.0,0.0,0.0,0.0
0.0,0.0,0.0,0.0
0.0,0.0,0.0,0.0
0.0,0.0,0.0,0.0
40.165,2.443,3.007,19.0
0.0,0.0,0.0,0.0
0.0,0.0,0.0,0.0
0.0,0.0,0.0,0.0
0.0,0.0,0.0,0.0
0.0,0.0,0.0,0.0
40.125,2.504,3.026,4.0
41.908,2.625,2.925,2.0
0.0,0.0,0.0,0.0
0.0,0.0,0.0,0.0
100.063,6.358,8.705,10.0
99.973,6.375,8.144,20.0
99.923,6.393,7.587,25.0
40.17,2.579,2.824,89.0
45.52,2.933,2.949,46.0
99.954,6.464,5.926,31.0
99.907,6.506,8.74,36.0
99.92,6.529,8.187,35.0
99.936,6.552,7.636,33.0
40.187,2.643,2.844,108.0
43.748,2.887,2.854,118.0
99.932,6.619,5.97,35.0
99.923,6.665,8.785,37.0
99.94,6.686,8.232,37.0
99.92,6.707,7.677,38.0
40.19,2.706,2.861,118.0
0.0,0.0,0.0,0.0
45.55,3.088,2.739,150.0
99.913,6.82,8.825,37.0
99.924,6.843,8.27,36.0
99.92,6.864,7.715,38.0
40.187,2.769,2.875,106.0
0.0,0.0,0.0,0.0
0.0,0.0,0.0,0.0
99.932,6.979,8.862,35.0
99.939,6.999,8.306,35.0
99.927,7.02,7.749,33.0
40.181,2.831,2.889,118.0
0.0,0.0,0.0,0.0
43.768,3.103,2.661,137.0
99.932,7.133,8.893,36.0
99.939,7.154,8.337,37.0
99.934,7.175,7.779,33.0
40.179,2.893,2.9,119.0
43.713,3.156,2.912,5.0
0.0,0.0,0.0,0.0
99.891,7.284,8.916,12.0
99.786,7.295,8.349,6.0
99.583,7.301,7.777,4.0
40.182,2.954,2.91,136.0
41.961,3.094,2.805,102.0
41.956,3.102,2.572,53.0
99.048,7.372,8.863,16.0
99.035,7.39,8.308,18.0
99.031,7.41,7.755,21.0
40.174,3.014,2.917,143.0
41.915,3.153,2.81,59.0
43.656,3.294,2.684,2.0
99.027,7.521,8.879,150.0
99.101,7.546,8.33,7.0
99.041,7.56,7.772,4.0
40.173,3.074,2.924,131.0
40.175,3.083,2.7,150.0
41.866,3.221,2.58,48.0
94.863,7.346,8.519,9.0
94.846,7.363,7.986,11.0
94.859,7.383,7.455,12.0
40.19,3.135,2.93,102.0
40.177,3.143,2.704,150.0
0.0,0.0,0.0,0.0
94.824,7.485,8.524,30.0
94.831,7.502,7.993,23.0
94.843,7.521,7.462,17.0
40.191,3.194,2.933,10.0
40.151,3.199,2.705,60.0
41.874,3.345,2.587,4.0
94.953,7.634,8.541,2.0
94.985,7.655,8.01,1.0
94.969,7.671,7.476,1.0
40.072,3.244,2.926,104.0
40.08,3.252,2.702,144.0
40.081,3.26,2.478,119.0
97.536,7.983,8.774,10.0
97.58,8.003,8.23,10.0
97.538,8.018,7.678,11.0
40.082,3.302,2.926,93.0
40.078,3.309,2.701,150.0
40.084,3.316,2.477,117.0
96.486,8.034,8.677,4.0
96.501,8.053,8.135,1.0
87.164,7.288,6.857,1.0
40.045,3.356,2.921,77.0
40.086,3.366,2.699,150.0
40.074,3.373,2.474,122.0
87.069,7.374,7.824,8.0
87.09,7.39,7.335,9.0
87.109,7.406,6.846,12.0
87.036,7.416,6.341,14.0
87.044,7.432,5.853,16.0
87.081,7.451,5.367,24.0
87.039,7.493,7.811,46.0
87.042,7.507,7.321,49.0
87.044,7.521,6.829,34.0
87.031,7.535,6.33,42.0
87.042,7.551,5.841,21.0
87.061,7.568,5.354,15.0
87.015,7.61,7.796,3.0
86.939,7.617,7.298,1.0
83.197,7.303,6.514,1.0
87.05,7.656,6.316,8.0
82.957,7.31,5.552,1.0
83.017,7.331,5.089,2.0
82.905,7.365,7.412,5.0
82.915,7.378,6.944,6.0
82.916,7.391,6.475,9.0
82.932,7.406,6.0,11.0
82.904,7.417,5.531,12.0
82.898,7.431,5.063,18.0
82.876,7.473,7.39,49.0
82.88,7.485,6.921,67.0
82.88,7.498,6.452,55.0
82.879,7.512,5.975,58.0
82.889,7.526,5.508,45.0
82.906,7.54,5.043,35.0
82.896,7.583,7.37,9.0
82.873,7.594,6.897,7.0
82.886,7.608,6.429,9.0
82.862,7.618,5.95,8.0
82.952,7.639,5.488,5.0
82.959,7.654,5.02,5.0
0.0,0.0,0.0,0.0
0.0,0.0,0.0,0.0
82.988,7.723,6.41,2.0
82.881,7.726,5.924,17.0
85.855,8.015,5.651,6.0
85.744,8.019,5.16,7.0
85.561,8.047,7.549,11.0
85.382,8.042,7.048,11.0
85.252,8.042,6.554,7.0
82.888,7.83,5.894,150.0
85.096,8.052,5.569,9.0
84.94,8.05,5.079,11.0
