X,Y,Z,Reflectivity
0.0,0.0,0.0,0.0
0.0,0.0,0.0,0.0
23.338,-1.943,-0.741,0.0
0.0,0.0,0.0,0.0
0.0,0.0,0.0,0.0
0.0,0.0,0.0,0.0
30.01,-2.529,-0.612,0.0
0.0,0.0,0.0,0.0
23.282,-1.978,-0.729,0.0
0.0,0.0,0.0,0.0
0.0,0.0,0.0,0.0
0.0,0.0,0.0,0.0
0.0,0.0,0.0,0.0
26.508,-2.289,-0.674,0.0
23.44,-2.032,-0.724,0.0
0.0,0.0,0.0,0.0
44.309,-3.856,-0.375,0.0
36.506,-3.189,-0.508,0.0
0.0,0.0,0.0,0.0
26.746,-2.354,-0.667,0.0
23.781,-2.101,-0.723,0.0
0.0,0.0,0.0,0.0
0.0,0.0,0.0,0.0
0.0,0.0,0.0,0.0
30.617,-2.735,-0.581,0.0
27.388,-2.455,-0.669,0.0
23.883,-2.149,-0.714,0.0
0.0,0.0,0.0,0.0
0.0,0.0,0.0,0.0
0.0,0.0,0.0,0.0
32.056,-2.915,-0.591,0.0
0.0,0.0,0.0,0.0
24.529,-2.247,-0.719,0.0
0.0,0.0,0.0,0.0
0.0,0.0,0.0,0.0
0.0,0.0,0.0,0.0
0.0,0.0,0.0,0.0
28.166,-2.616,-0.657,0.0
24.866,-2.317,-0.715,0.0
0.0,0.0,0.0,0.0
0.0,0.0,0.0,0.0
39.333,-3.69,-0.462,0.0
32.733,-3.08,-0.565,0.0
28.333,-2.675,-0.643,0.0
25.109,-2.379,-0.707,0.0
0.0,0.0,0.0,0.0
0.0,0.0,0.0,0.0
0.0,0.0,0.0,0.0
0.0,0.0,0.0,0.0
0.0,0.0,0.0,0.0
25.416,-2.447,-0.699,0.0
0.0,0.0,0.0,0.0
0.0,0.0,0.0,0.0
0.0,0.0,0.0,0.0
34.589,-3.36,-0.553,0.0
29.515,-2.877,-0.632,0.0
25.607,-2.504,-0.687,0.0
0.0,0.0,0.0,0.0
0.0,0.0,0.0,0.0
42.23,-4.153,-0.413,0.0
0.0,0.0,0.0,0.0
29.912,-2.959,-0.619,0.0
26.486,-2.628,-0.692,0.0
90.195,-8.949,0.157,1.0
0.0,0.0,0.0,0.0
0.0,0.0,0.0,0.0
0.0,0.0,0.0,0.0
30.722,-3.083,-0.614,0.0
27.02,-2.72,-0.687,0.0
89.071,-8.965,0.222,4.0
55.966,-5.648,-0.163,0.0
0.0,0.0,0.0,0.0
36.74,-3.728,-0.508,0.0
30.797,-3.134,-0.592,0.0
27.463,-2.803,-0.677,0.0
100.395,-10.243,0.325,3.0
56.134,-5.742,-0.121,0.0
0.0,0.0,0.0,0.0
0.0,0.0,0.0,0.0
32.644,-3.366,-0.603,0.0
27.625,-2.856,-0.66,0.0
0.0,0.0,0.0,0.0
0.0,0.0,0.0,0.0
0.0,0.0,0.0,0.0
38.306,-3.99,-0.47,0.0
0.0,0.0,0.0,0.0
27.91,-2.923,-0.644,0.0
86.228,-9.029,0.416,1.0
0.0,0.0,0.0,0.0
48.569,-5.111,-0.289,0.0
0.0,0.0,0.0,0.0
32.989,-3.488,-0.555,0.0
29.837,-3.163,-0.664,1.0
84.569,-8.964,0.48,3.0
0.0,0.0,0.0,0.0
51.58,-5.493,-0.263,1.0
40.488,-4.322,-0.429,0.0
33.443,-3.578,-0.535,0.0
29.576,-3.172,-0.632,0.0
83.346,-8.937,0.544,80.0
83.336,-8.956,0.094,9.0
0.0,0.0,0.0,0.0
42.283,-4.564,-0.412,0.0
0.0,0.0,0.0,0.0
30.667,-3.326,-0.629,0.0
83.093,-9.01,0.614,37.0
83.449,-9.067,0.168,4.0
0.0,0.0,0.0,0.0
0.0,0.0,0.0,0.0
36.7,-4.014,-0.522,0.0
0.0,0.0,0.0,0.0
83.377,-9.138,0.693,35.0
86.311,-9.479,0.252,2.0
0.0,0.0,0.0,0.0
0.0,0.0,0.0,0.0
36.956,-4.084,-0.492,0.0
0.0,0.0,0.0,0.0
83.382,-9.233,0.77,13.0
83.743,-9.291,0.322,13.0
0.0,0.0,0.0,0.0
0.0,0.0,0.0,0.0
0.0,0.0,0.0,0.0
0.0,0.0,0.0,0.0
83.374,-9.323,0.848,14.0
83.399,-9.343,0.4,11.0
0.0,0.0,0.0,0.0
47.51,-5.342,-0.287,0.0
0.0,0.0,0.0,0.0
33.744,-3.809,-0.566,0.0
83.391,-9.413,0.929,16.0
83.39,-9.429,0.481,14.0
51.071,-5.785,0.02,0.0
0.0,0.0,0.0,0.0
40.957,-4.656,-0.427,0.0
0.0,0.0,0.0,0.0
83.387,-9.496,1.011,26.0
83.381,-9.511,0.563,54.0
77.688,-8.877,0.107,6.0
0.0,0.0,0.0,0.0
44.244,-5.073,-0.418,0.0
36.292,-4.169,-0.538,0.0
83.391,-9.577,1.094,105.0
83.38,-9.591,0.647,32.0
77.686,-8.951,0.186,17.0
0.0,0.0,0.0,0.0
0.0,0.0,0.0,0.0
0.0,0.0,0.0,0.0
83.352,-9.651,1.18,24.0
83.373,-9.667,0.732,31.0
83.566,-9.704,0.286,6.0
0.0,0.0,0.0,0.0
0.0,0.0,0.0,0.0
0.0,0.0,0.0,0.0
83.373,-9.727,1.267,27.0
83.379,-9.742,0.82,66.0
83.383,-9.756,0.372,29.0
0.0,0.0,0.0,0.0
0.0,0.0,0.0,0.0
0.0,0.0,0.0,0.0
83.379,-9.799,1.355,48.0
83.392,-9.813,0.909,15.0
83.367,-9.823,0.461,18.0
75.707,-8.933,0.005,1.0
0.0,0.0,0.0,0.0
41.547,-4.916,-0.441,0.0
83.384,-9.866,1.445,36.0
83.382,-9.878,0.998,103.0
83.364,-9.888,0.55,15.0
74.973,-8.904,0.086,11.0
51.85,-6.166,-0.218,0.0
0.0,0.0,0.0,0.0
83.378,-9.928,1.534,36.0
83.376,-9.939,1.087,22.0
83.383,-9.951,0.64,33.0
75.0,-8.962,0.167,8.0
0.0,0.0,0.0,0.0
41.731,-4.999,-0.353,0.0
83.394,-9.99,1.626,42.0
83.368,-9.998,1.179,31.0
83.374,-10.009,0.732,43.0
75.779,-9.107,0.252,8.0
0.0,0.0,0.0,0.0
47.313,-5.699,-0.348,0.0
83.381,-10.044,1.718,31.0
83.367,-10.052,1.271,14.0
83.362,-10.062,0.824,52.0
83.395,-10.076,0.37,49.0
0.0,0.0,0.0,0.0
47.799,-5.788,-0.299,0.0
83.326,-10.09,1.809,25.0
83.381,-10.106,1.365,14.0
83.368,-10.113,0.918,17.0
83.349,-10.12,0.463,14.0
74.235,-9.022,0.016,1.0
0.0,0.0,0.0,0.0
83.277,-10.132,1.903,34.0
83.364,-10.151,1.457,18.0
83.355,-10.158,1.011,10.0
83.34,-10.165,0.556,19.0
74.265,-9.066,0.099,6.0
0.0,0.0,0.0,0.0
83.266,-10.175,1.996,32.0
83.39,-10.198,1.553,128.0
83.364,-10.202,1.106,21.0
83.347,-10.208,0.651,16.0
74.269,-9.104,0.183,8.0
0.0,0.0,0.0,0.0
83.294,-10.22,2.091,17.0
83.393,-10.238,1.647,85.0
83.396,-10.245,1.202,34.0
83.357,-10.248,0.747,12.0
74.312,-9.143,0.269,23.0
0.0,0.0,0.0,0.0
116.272,-14.318,3.054,23.0
83.379,-10.273,1.744,82.0
83.38,-10.279,1.297,46.0
83.37,-10.284,0.843,10.0
74.344,-9.176,0.354,10.0
0.0,0.0,0.0,0.0
116.283,-14.366,3.187,32.0
83.318,-10.298,1.839,37.0
83.375,-10.31,1.394,32.0
83.37,-10.315,0.939,11.0
83.367,-10.32,0.493,9.0
74.358,-9.21,0.043,2.0
116.264,-14.405,3.322,32.0
83.268,-10.321,1.933,36.0
83.369,-10.337,1.489,63.0
83.372,-10.342,1.035,13.0
83.379,-10.348,0.59,26.0
74.346,-9.231,0.129,2.0
116.217,-14.435,3.456,21.0
83.26,-10.344,2.03,23.0
83.395,-10.364,1.587,150.0
83.37,-10.365,1.132,22.0
83.402,-10.373,0.686,31.0
74.303,-9.245,0.214,1.0
148.024,-18.424,4.573,13.0
86.279,-10.741,2.204,7.0
83.37,-10.381,1.683,150.0
83.353,-10.382,1.229,19.0
83.377,-10.388,0.784,21.0
74.333,-9.264,0.301,0.0
147.882,-18.438,4.741,23.0
116.304,-14.502,3.105,19.0
83.353,-10.395,1.779,66.0
83.362,-10.398,1.325,22.0
83.369,-10.401,0.879,21.0
83.353,-10.402,0.434,7.0
95.711,-11.949,3.179,8.0
116.28,-14.518,3.241,28.0
83.27,-10.397,1.875,34.0
83.365,-10.41,1.422,122.0
83.383,-10.414,0.976,22.0
83.377,-10.415,0.531,21.0
95.643,-11.952,3.289,16.0
116.264,-14.529,3.374,23.0
83.267,-10.405,1.971,28.0
83.366,-10.418,1.518,150.0
83.365,-10.418,1.072,22.0
83.376,-10.42,0.627,25.0
95.582,-11.952,3.397,19.0
116.298,-14.541,3.51,9.0
83.318,-10.416,2.067,13.0
83.362,-10.421,1.614,150.0
83.37,-10.422,1.168,33.0
83.369,-10.422,0.722,22.0
95.517,-11.946,3.504,16.0
147.91,-18.496,4.633,22.0
86.23,-10.781,2.239,10.0
83.357,-10.42,1.709,150.0
83.371,-10.421,1.263,36.0
83.376,-10.42,0.818,23.0
95.609,-11.956,3.618,14.0
147.946,-18.496,4.804,16.0
116.29,-14.534,3.153,23.0
83.333,-10.413,1.803,46.0
83.354,-10.414,1.358,23.0
83.367,-10.414,0.912,21.0
95.607,-11.95,3.726,16.0
95.684,-11.955,3.215,10.0
116.252,-14.52,3.283,27.0
83.248,-10.395,1.895,34.0
83.37,-10.407,1.452,150.0
83.382,-10.406,1.007,19.0
95.553,-11.933,3.831,19.0
95.52,-11.923,3.318,18.0
116.241,-14.503,3.414,20.0
83.273,-10.386,1.99,27.0
83.388,-10.397,1.546,150.0
83.362,-10.39,1.099,21.0
95.52,-11.914,3.937,18.0
95.558,-11.912,3.426,18.0
148.014,-18.442,4.514,14.0
83.29,-10.373,2.084,10.0
83.396,-10.381,1.64,150.0
83.37,-10.374,1.193,17.0
95.001,-11.83,4.023,11.0
95.566,-11.893,3.534,11.0
147.947,-18.401,4.677,19.0
86.248,-10.721,2.255,10.0
83.362,-10.357,1.732,150.0
83.367,-10.352,1.286,63.0
94.335,-11.723,4.1,15.0
95.53,-11.863,3.639,2.0
148.05,-18.373,4.845,20.0
116.26,-14.419,3.169,30.0
83.323,-10.328,1.824,43.0
83.366,-10.327,1.378,39.0
94.097,-11.666,4.195,18.0
95.555,-11.837,3.745,7.0
148.153,-18.34,5.01,15.0
116.229,-14.378,3.295,30.0
83.256,-10.292,1.913,33.0
83.377,-10.3,1.469,34.0
94.053,-11.628,4.295,19.0
95.53,-11.801,3.848,8.0
95.656,-11.806,3.339,12.0
116.23,-14.334,3.421,20.0
83.259,-10.26,2.003,24.0
83.377,-10.267,1.559,39.0
93.991,-11.584,4.393,19.0
94.752,-11.667,3.919,5.0
95.455,-11.743,3.434,17.0
147.888,-18.178,4.511,15.0
83.312,-10.231,2.093,10.0
83.384,-10.232,1.646,150.0
94.081,-11.555,4.498,18.0
94.471,-11.591,4.007,12.0
95.411,-11.695,3.533,10.0
147.909,-18.112,4.666,24.0
116.281,-14.226,3.043,23.0
83.363,-10.189,1.734,27.0
94.231,-11.529,4.604,14.0
94.247,-11.518,4.096,17.0
148.398,-18.117,5.649,18.0
147.925,-18.04,4.82,19.0
116.295,-14.169,3.163,38.0
83.289,-10.137,1.817,28.0
104.827,-8.99,7.229,10.0
109.372,-9.343,6.932,10.0
105.354,-8.966,6.089,7.0
107.074,-9.077,5.581,22.0
107.895,-9.112,5.022,25.0
108.725,-9.149,4.456,18.0
104.794,-8.819,7.231,11.0
105.485,-8.843,6.688,21.0
109.264,-9.124,6.318,16.0
107.033,-8.902,5.58,31.0
107.7,-8.923,5.014,24.0
108.428,-8.949,4.443,18.0
104.714,-8.643,7.224,18.0
105.174,-8.646,6.667,22.0
109.114,-8.935,6.306,19.0
107.134,-8.737,5.582,33.0
107.499,-8.732,5.001,32.0
108.419,-8.773,4.439,18.0
104.812,-8.481,7.226,24.0
105.439,-8.495,6.678,22.0
108.814,-8.732,6.283,12.0
107.847,-8.62,5.612,19.0
107.731,-8.576,5.004,24.0
108.1,-8.572,4.417,21.0
106.834,-8.47,7.356,10.0
106.441,-8.404,6.732,19.0
107.588,-8.457,6.201,17.0
108.509,-8.494,5.635,23.0
108.493,-8.459,5.027,15.0
108.069,-8.392,4.403,17.0
109.769,-8.521,7.544,4.0
106.311,-8.217,6.709,19.0
108.46,-8.348,6.236,18.0
108.095,-8.284,5.597,19.0
108.579,-8.286,5.015,22.0
107.358,-8.158,4.357,17.0
105.666,-8.026,7.244,19.0
107.63,-8.138,6.773,19.0
108.172,-8.144,6.2,18.0
107.877,-8.087,5.566,26.0
108.441,-8.093,4.986,17.0
107.509,-7.989,4.341,24.0
105.375,-7.826,7.202,24.0
107.685,-7.96,6.753,10.0
107.886,-7.939,6.159,20.0
107.728,-7.891,5.533,30.0
108.936,-7.943,4.983,13.0
107.54,-7.808,4.317,23.0
110.66,-8.029,7.535,22.0
108.95,-7.868,6.804,5.0
107.376,-7.717,6.101,21.0
107.731,-7.708,5.504,26.0
108.17,-7.704,4.918,25.0
107.574,-7.628,4.288,25.0
109.721,-7.774,7.439,21.0
107.444,-7.577,6.678,19.0
107.228,-7.526,6.06,24.0
107.606,-7.517,5.464,27.0
108.203,-7.524,4.885,23.0
107.778,-7.459,4.261,23.0
107.48,-7.432,7.251,19.0
106.78,-7.348,6.6,22.0
107.134,-7.337,6.018,21.0
107.296,-7.313,5.411,14.0
107.938,-7.321,4.835,30.0
108.046,-7.293,4.231,19.0
0.0,0.0,0.0,0.0
107.043,-7.181,6.575,24.0
106.973,-7.142,5.966,25.0
107.318,-7.13,5.37,29.0
108.036,-7.142,4.796,34.0
109.255,-7.188,4.234,24.0
107.534,-7.067,7.169,22.0
107.517,-7.029,6.559,18.0
106.794,-6.946,5.911,22.0
107.433,-6.951,5.329,28.0
107.952,-6.951,4.745,32.0
108.737,-6.966,4.166,23.0
107.535,-6.88,7.12,22.0
107.926,-6.868,6.534,16.0
107.222,-6.787,5.884,21.0
107.543,-6.772,5.282,28.0
107.919,-6.762,4.691,28.0
109.046,-6.797,4.124,27.0
107.578,-6.696,7.069,24.0
108.086,-6.692,6.489,24.0
107.083,-6.594,5.822,27.0
107.208,-6.567,5.21,26.0
107.95,-6.577,4.636,26.0
109.249,-6.621,4.074,32.0
107.994,-6.534,7.037,23.0
108.062,-6.503,6.429,24.0
107.231,-6.417,5.77,24.0
107.239,-6.382,5.152,24.0
107.65,-6.371,4.562,28.0
109.198,-6.428,4.01,37.0
108.151,-6.354,6.984,18.0
107.488,-6.277,6.33,14.0
107.33,-6.233,5.711,28.0
107.962,-6.236,5.121,31.0
107.607,-6.18,4.495,30.0
109.138,-6.233,3.94,17.0
108.017,-6.155,6.907,22.0
107.461,-6.088,6.259,23.0
107.28,-6.044,5.64,25.0
108.205,-6.06,5.063,29.0
107.588,-5.991,4.423,21.0
109.515,-6.064,3.882,17.0
108.117,-5.973,6.841,30.0
107.917,-5.926,6.213,21.0
107.9,-5.89,5.599,23.0
108.176,-5.871,4.988,21.0
108.893,-5.875,4.402,21.0
117.027,-6.277,4.066,9.0
108.434,-5.801,6.784,20.0
107.97,-5.741,6.14,20.0
108.106,-5.713,5.531,22.0
108.069,-5.677,4.905,24.0
109.637,-5.725,4.352,11.0
117.28,-6.088,3.991,18.0
108.727,-5.628,6.722,32.0
108.21,-5.566,6.072,16.0
108.433,-5.543,5.466,23.0
108.554,-5.515,4.844,22.0
109.397,-5.524,4.259,12.0
117.646,-5.905,3.912,25.0
108.56,-5.431,6.626,17.0
112.28,-5.582,6.212,18.0
109.157,-5.391,5.416,19.0
110.068,-5.402,4.823,14.0
117.477,-5.729,4.479,17.0
117.942,-5.716,3.826,29.0
108.564,-5.244,6.536,18.0
112.333,-5.39,6.121,22.0
114.232,-5.443,5.572,21.0
116.219,-5.504,4.995,26.0
117.164,-5.512,4.368,23.0
140.858,-6.583,4.448,20.0
115.853,-5.395,6.874,11.0
112.717,-5.213,6.043,11.0
114.158,-5.243,5.468,18.0
116.159,-5.3,4.889,18.0
117.462,-5.324,4.275,25.0
118.842,-5.351,3.647,23.0
115.119,-5.162,6.725,22.0
112.649,-5.017,5.937,8.0
114.157,-5.048,5.363,9.0
115.808,-5.086,4.767,25.0
117.338,-5.118,4.161,24.0
118.781,-5.145,3.535,10.0
112.912,-4.87,6.489,18.0
114.649,-4.91,5.934,19.0
117.652,-5.002,5.415,13.0
115.855,-4.891,4.658,20.0
127.065,-5.326,4.384,9.0
141.589,-5.891,4.076,13.0
114.36,-4.736,6.459,28.0
114.32,-4.699,5.801,23.0
115.355,-4.705,5.193,10.0
115.902,-4.692,4.542,19.0
116.845,-4.696,3.912,19.0
142.348,-5.679,3.952,16.0
114.451,-4.544,6.346,27.0
114.48,-4.51,5.691,19.0
0.0,0.0,0.0,0.0
117.219,-4.548,4.472,25.0
138.712,-5.34,4.497,14.0
163.316,-6.241,4.363,10.0
114.359,-4.346,6.218,18.0
115.548,-4.356,5.619,24.0
117.293,-4.388,5.033,18.0
117.652,-4.367,4.362,12.0
138.703,-5.108,4.347,20.0
163.437,-5.97,4.186,4.0
114.255,-4.151,6.087,30.0
115.883,-4.176,5.508,25.0
117.428,-4.197,4.907,16.0
138.047,-4.895,4.964,10.0
140.124,-4.929,4.236,14.0
163.352,-5.697,4.001,20.0
114.27,-3.961,5.958,23.0
115.871,-3.984,5.375,23.0
116.672,-3.977,4.742,25.0
117.52,-3.973,4.091,10.0
140.236,-4.701,4.077,13.0
163.337,-5.429,3.812,14.0
116.295,-3.841,5.927,17.0
117.189,-3.836,5.298,18.0
119.036,-3.862,4.697,10.0
139.497,-4.487,4.69,20.0
163.214,-5.202,4.549,16.0
0.0,0.0,0.0,0.0
117.091,-3.673,5.823,18.0
122.122,-3.796,5.37,11.0
118.758,-3.657,4.54,23.0
139.834,-4.268,4.528,11.0
163.289,-4.939,4.349,14.0
167.86,-5.031,3.509,14.0
117.251,-3.488,5.685,24.0
117.21,-3.455,5.008,15.0
118.606,-3.462,4.385,22.0
140.423,-4.06,4.37,11.0
163.433,-4.68,4.146,8.0
167.906,-4.763,3.295,8.0
117.331,-3.303,5.538,16.0
117.446,-3.273,4.866,14.0
140.063,-3.864,4.996,13.0
163.278,-4.461,4.87,18.0
0.0,0.0,0.0,0.0
170.37,-4.565,3.123,6.0
140.88,-3.743,6.465,6.0
139.857,-3.677,5.611,20.0
140.269,-3.649,4.819,11.0
163.243,-4.205,4.653,20.0
0.0,0.0,0.0,0.0
170.463,-4.3,2.897,4.0
138.971,-3.473,6.187,9.0
143.302,-3.544,5.555,6.0
162.593,-3.977,5.365,40.0
163.252,-3.949,4.429,16.0
0.0,0.0,0.0,0.0
170.369,-4.032,2.661,3.0
143.85,-3.372,6.205,7.0
140.406,-3.255,5.248,21.0
162.618,-3.727,5.139,20.0
163.325,-3.7,4.203,10.0
170.334,-3.815,3.402,9.0
170.11,-3.768,2.419,3.0
190.295,-4.17,7.939,20.0
140.452,-3.041,5.049,10.0
163.438,-3.497,4.933,16.0
0.0,0.0,0.0,0.0
170.279,-3.555,3.156,6.0
109.645,-2.262,1.401,15.0
190.329,-3.882,7.663,23.0
190.541,-3.836,6.57,19.0
163.367,-3.248,4.69,36.0
171.468,-3.366,3.916,4.0
0.0,0.0,0.0,0.0
109.51,-2.095,1.237,95.0
190.586,-3.601,7.388,17.0
162.614,-3.031,5.364,28.0
163.344,-3.004,4.444,30.0
170.421,-3.091,3.634,4.0
0.0,0.0,0.0,0.0
109.376,-1.93,1.069,79.0
190.04,-3.311,7.078,29.0
162.64,-2.792,5.116,28.0
163.332,-2.765,4.194,5.0
0.0,0.0,0.0,0.0
109.458,-1.8,1.535,12.0
109.394,-1.773,0.903,150.0
191.948,-3.067,6.853,15.0
163.456,-2.572,4.889,14.0
171.603,-2.659,4.14,5.0
0.0,0.0,0.0,0.0
19.753,-0.296,0.246,6.0
19.737,-0.291,0.132,29.0
162.565,-2.365,5.545,30.0
163.279,-2.336,4.624,42.0
19.777,-0.278,0.445,0.0
19.754,-0.273,0.329,6.0
19.747,-0.268,0.214,28.0
19.746,-0.264,0.1,14.0
162.6,-2.14,5.286,80.0
19.789,-0.256,0.529,2.0
19.753,-0.25,0.413,8.0
19.736,-0.246,0.297,10.0
19.749,-0.241,0.182,12.0
0.0,0.0,0.0,0.0
19.775,-0.233,0.61,3.0
19.756,-0.228,0.495,9.0
19.732,-0.223,0.38,9.0
19.756,-0.219,0.264,3.0
109.373,-1.191,0.833,7.0
0.0,0.0,0.0,0.0
19.76,-0.206,0.577,9.0
19.754,-0.202,0.462,8.0
19.774,-0.197,0.348,3.0
109.487,-1.072,1.286,19.0
0.0,0.0,0.0,0.0
0.0,0.0,0.0,0.0
19.758,-0.18,0.544,8.0
19.775,-0.176,0.429,3.0
0.0,0.0,0.0,0.0
109.494,-0.93,1.102,150.0
0.0,0.0,0.0,0.0
19.791,-0.159,-0.03,2.0
19.778,-0.155,0.51,5.0
177.216,-1.355,3.551,24.0
0.0,0.0,0.0,0.0
19.735,-0.142,0.164,0.0
19.757,-0.138,0.05,7.0
19.76,-0.134,-0.064,10.0
19.681,-0.13,0.474,6.0
19.7,-0.126,0.36,5.0
19.705,-0.122,0.246,8.0
19.722,-0.118,0.13,10.0
19.722,-0.114,0.016,12.0
19.722,-0.11,-0.098,15.0
19.658,-0.105,0.439,10.0
19.663,-0.101,0.325,9.0
19.698,-0.098,0.211,15.0
19.707,-0.094,0.095,12.0
19.71,-0.09,-0.018,16.0
19.719,-0.086,-0.133,17.0
19.648,-0.081,0.403,10.0
19.647,-0.078,0.289,10.0
19.691,-0.074,0.176,16.0
19.695,-0.07,0.06,15.0
19.717,-0.066,-0.054,16.0
19.734,-0.063,-0.168,15.0
19.644,-0.058,0.368,10.0
19.641,-0.055,0.254,11.0
19.689,-0.051,0.14,15.0
19.692,-0.047,0.024,17.0
19.748,-0.044,-0.09,11.0
19.756,-0.04,-0.204,8.0
19.641,-0.036,0.333,12.0
19.651,-0.033,0.218,15.0
19.687,-0.029,0.104,10.0
19.711,-0.025,-0.011,14.0
19.748,-0.022,-0.126,6.0
37.731,-0.035,-0.46,0.0
19.628,-0.015,0.296,14.0
19.691,-0.011,0.182,8.0
19.783,-0.007,0.068,3.0
19.749,-0.004,-0.047,7.0
19.761,0.0,-0.162,0.0
19.78,0.002,-0.278,0.0
19.635,0.006,0.259,15.0
19.756,0.009,0.146,8.0
19.755,0.013,0.031,14.0
19.754,0.016,-0.085,2.0
19.751,0.02,-0.199,44.0
19.762,0.023,-0.314,13.0
19.637,0.026,0.222,16.0
19.751,0.03,0.109,11.0
19.752,0.033,-0.005,23.0
19.741,0.036,-0.122,16.0
19.77,0.04,-0.237,12.0
19.764,0.043,-0.352,49.0
19.673,0.046,0.185,10.0
19.75,0.049,0.071,28.0
19.759,0.053,-0.042,57.0
19.77,0.056,-0.159,64.0
19.772,0.059,-0.275,60.0
19.775,0.062,-0.39,34.0
19.686,0.065,0.148,13.0
19.758,0.069,0.033,31.0
19.753,0.072,-0.081,16.0
19.764,0.075,-0.198,13.0
19.769,0.078,-0.313,3.0
19.765,0.081,-0.428,1.0
19.682,0.084,0.109,12.0
19.711,0.087,-0.004,7.0
19.735,0.09,-0.119,0.0
19.716,0.093,-0.235,0.0
30.873,0.151,-0.548,0.0
24.311,0.122,-0.573,0.0
19.661,0.101,0.071,13.0
19.663,0.104,-0.042,8.0
19.708,0.107,-0.157,0.0
0.0,0.0,0.0,0.0
29.726,0.171,-0.586,0.0
25.911,0.153,-0.661,0.0
19.652,0.118,0.033,15.0
19.663,0.121,-0.08,9.0
19.698,0.124,-0.195,0.0
33.164,0.215,-0.526,0.0
28.262,0.187,-0.612,0.0
25.018,0.169,-0.688,0.0
19.646,0.135,-0.005,16.0
19.649,0.138,-0.119,11.0
19.697,0.14,-0.234,1.0
30.768,0.224,-0.548,0.0
26.804,0.199,-0.634,0.0
23.592,0.178,-0.695,0.0
19.657,0.15,-0.044,12.0
19.649,0.153,-0.158,13.0
19.692,0.156,-0.273,5.0
19.682,0.159,-0.39,8.0
19.695,0.161,-0.505,5.0
19.71,0.164,-0.62,2.0
19.645,0.165,-0.083,15.0
19.654,0.168,-0.197,14.0
19.665,0.171,-0.312,11.0
19.663,0.173,-0.428,15.0
19.684,0.176,-0.544,11.0
19.685,0.178,-0.659,10.0
19.643,0.18,-0.122,16.0
19.648,0.182,-0.236,15.0
19.658,0.185,-0.351,13.0
19.652,0.187,-0.468,16.0
19.676,0.19,-0.583,15.0
19.683,0.192,-0.698,10.0
19.645,0.193,-0.161,17.0
19.654,0.196,-0.276,16.0
19.65,0.198,-0.391,16.0
19.654,0.2,-0.507,17.0
19.666,0.203,-0.622,17.0
19.645,0.205,-0.736,7.0
19.649,0.206,-0.201,17.0
19.657,0.208,-0.316,14.0
19.676,0.211,-0.431,22.0
19.657,0.213,-0.547,18.0
19.672,0.215,-0.662,17.0
19.514,0.216,-0.771,3.0
19.663,0.218,-0.241,18.0
19.648,0.22,-0.355,16.0
19.673,0.223,-0.471,19.0
19.654,0.224,-0.587,16.0
19.663,0.227,-0.702,10.0
18.989,0.221,-0.788,0.0
19.668,0.23,-0.281,19.0
19.657,0.231,-0.395,17.0
19.67,0.234,-0.51,16.0
19.665,0.236,-0.627,15.0
19.601,0.237,-0.739,6.0
18.076,0.22,-0.787,0.0
19.669,0.24,-0.321,14.0
19.671,0.242,-0.436,18.0
19.676,0.244,-0.551,15.0
19.679,0.246,-0.667,9.0
19.491,0.246,-0.775,1.0
17.667,0.224,-0.805,0.0
19.659,0.25,-0.361,16.0
19.673,0.252,-0.475,16.0
19.689,0.254,-0.591,10.0
19.639,0.255,-0.706,4.0
18.862,0.247,-0.788,0.0
16.899,0.222,-0.805,0.0
19.671,0.259,-0.401,16.0
19.693,0.261,-0.516,12.0
19.698,0.263,-0.631,2.0
19.553,0.262,-0.743,5.0
17.936,0.242,-0.786,0.0
16.364,0.222,-0.813,0.0
19.698,0.268,-0.441,14.0
19.714,0.269,-0.557,3.0
20.941,0.288,-0.714,0.0
19.391,0.268,-0.776,1.0
17.453,0.243,-0.8,0.0
15.806,0.221,-0.817,0.0
19.713,0.276,-0.482,6.0
23.177,0.326,-0.702,0.0
19.663,0.278,-0.71,3.0
18.69,0.265,-0.786,0.0
16.901,0.241,-0.81,0.0
15.397,0.221,-0.828,0.0
19.709,0.282,-0.522,1.0
21.985,0.316,-0.711,0.0
19.563,0.283,-0.747,4.0
17.969,0.261,-0.792,0.0
16.253,0.237,-0.812,0.0
14.933,0.219,-0.833,0.0
23.998,0.351,-0.684,0.0
21.023,0.309,-0.722,0.0
19.176,0.283,-0.771,1.0
17.409,0.258,-0.803,0.0
15.729,0.234,-0.818,0.0
14.54,0.217,-0.841,1.0
22.934,0.342,-0.701,0.0
19.635,0.294,-0.714,3.0
18.476,0.277,-0.78,0.0
16.699,0.252,-0.804,0.0
15.313,0.232,-0.827,0.0
14.103,0.214,-0.844,1.0
21.506,0.325,-0.701,0.0
19.565,0.297,-0.752,3.0
17.985,0.274,-0.796,0.0
16.228,0.248,-0.814,0.0
14.844,0.228,-0.832,0.0
13.74,0.211,-0.85,1.0
20.915,0.32,-0.723,1.0
19.095,0.293,-0.772,1.0
17.365,0.268,-0.803,0.0
15.67,0.242,-0.818,0.0
14.484,0.225,-0.841,1.0
13.341,0.207,-0.852,0.0
19.659,0.304,-0.719,3.0
18.3,0.284,-0.777,1.0
16.641,0.259,-0.803,2.0
15.218,0.237,-0.825,0.0
14.061,0.22,-0.844,1.0
13.019,0.204,-0.858,0.0
19.624,0.306,-0.758,3.0
17.879,0.279,-0.794,0.0
16.265,0.255,-0.818,0.0
14.73,0.231,-0.828,0.0
13.741,0.216,-0.853,1.0
12.726,0.201,-0.864,0.0
19.034,0.298,-0.773,1.0
16.922,0.266,-0.786,0.0
15.614,0.245,-0.816,0.0
14.422,0.227,-0.84,1.0
13.297,0.21,-0.852,0.0
12.424,0.196,-0.869,0.0
18.269,0.287,-0.778,1.0
16.637,0.261,-0.805,2.0
15.179,0.239,-0.823,0.0
14.011,0.221,-0.843,1.0
12.984,0.205,-0.858,0.0
12.148,0.192,-0.873,1.0
17.789,0.279,-0.792,0.0
16.058,0.252,-0.809,0.0
14.7,0.231,-0.826,0.0
13.682,0.216,-0.851,1.0
12.727,0.201,-0.866,0.0
11.902,0.188,-0.879,0.0
16.86,0.264,-0.784,0.0
15.62,0.245,-0.818,0.0
14.43,0.226,-0.839,1.0
13.262,0.208,-0.851,0.0
12.391,0.195,-0.867,0.0
11.659,0.183,-0.884,0.0
16.624,0.259,-0.806,2.0
15.143,0.236,-0.822,0.0
14.0,0.218,-0.842,1.0
12.93,0.202,-0.855,0.0
12.12,0.189,-0.872,1.0
11.397,0.178,-0.887,0.0
15.951,0.247,-0.804,0.0
14.698,0.227,-0.826,0.0
13.681,0.212,-0.849,1.0
12.674,0.196,-0.862,0.0
11.875,0.184,-0.877,1.0
11.088,0.172,-0.884,0.0
15.672,0.24,-0.82,0.0
14.4,0.22,-0.837,1.0
13.276,0.203,-0.849,0.0
12.385,0.19,-0.866,0.0
11.659,0.178,-0.883,0.0
10.923,0.167,-0.892,0.0
15.212,0.23,-0.824,0.0
14.012,0.212,-0.841,1.0
12.987,0.196,-0.855,0.0
12.131,0.183,-0.871,1.0
11.423,0.172,-0.887,0.0
10.741,0.162,-0.897,0.0
14.764,0.22,-0.827,0.0
13.684,0.204,-0.847,0.0
12.728,0.189,-0.862,0.0
11.893,0.177,-0.876,1.0
11.119,0.165,-0.884,0.0
10.534,0.156,-0.899,0.0
14.448,0.212,-0.837,1.0
13.314,0.195,-0.849,0.0
12.465,0.182,-0.867,0.0
11.685,0.17,-0.882,1.0
10.96,0.16,-0.892,0.0
10.331,0.15,-0.901,0.0
14.082,0.202,-0.841,0.0
13.038,0.187,-0.855,0.0
12.169,0.174,-0.869,1.0
11.477,0.164,-0.888,0.0
10.762,0.153,-0.896,0.0
10.201,0.145,-0.909,0.0
13.725,0.192,-0.845,0.0
12.753,0.178,-0.859,0.0
11.95,0.167,-0.875,1.0
11.203,0.156,-0.887,0.0
10.571,0.147,-0.899,0.0
9.966,0.138,-0.906,0.0
13.379,0.183,-0.847,1.0
12.505,0.17,-0.865,0.0
11.696,0.159,-0.877,1.0
10.989,0.149,-0.89,0.0
10.376,0.14,-0.901,0.0
9.771,0.132,-0.905,0.0
13.089,0.173,-0.852,1.0
12.21,0.161,-0.866,1.0
11.509,0.152,-0.884,0.0
10.803,0.142,-0.894,0.0
10.192,0.133,-0.903,0.0
9.594,0.125,-0.906,0.0
12.867,0.165,-0.86,1.0
12.007,0.153,-0.873,1.0
11.296,0.144,-0.887,0.0
10.615,0.135,-0.897,0.0
10.024,0.127,-0.905,0.0
9.478,0.119,-0.912,0.0
12.567,0.155,-0.862,0.0
11.773,0.145,-0.876,2.0
11.034,0.135,-0.886,0.0
10.456,0.127,-0.901,0.0
9.844,0.119,-0.906,0.0
9.299,0.112,-0.911,0.0
12.332,0.146,-0.867,0.0
11.602,0.137,-0.883,1.0
10.894,0.128,-0.893,0.0
10.249,0.12,-0.901,0.0
9.731,0.113,-0.912,0.0
9.193,0.106,-0.916,0.0
12.083,0.137,-0.87,0.0
11.345,0.128,-0.882,0.0
10.694,0.12,-0.894,0.0
10.072,0.112,-0.902,0.0
9.57,0.106,-0.913,0.0
9.072,0.1,-0.919,0.0
11.839,0.127,-0.871,1.0
11.166,0.119,-0.887,0.0
10.524,0.112,-0.897,0.0
9.868,0.104,-0.9,0.0
9.385,0.098,-0.911,0.0
8.965,0.093,-0.923,0.0
11.674,0.118,-0.878,0.0
10.971,0.111,-0.889,0.0
10.378,0.104,-0.902,0.0
9.824,0.098,-0.912,0.0
9.277,0.092,-0.915,0.0
8.807,0.086,-0.92,0.0
11.506,0.11,-0.884,0.0
10.799,0.102,-0.892,0.0
10.22,0.096,-0.904,0.0
9.67,0.09,-0.913,0.0
9.14,0.084,-0.916,0.0
8.723,0.08,-0.925,0.0
11.3,0.1,-0.885,0.0
10.637,0.093,-0.895,0.0
10.055,0.088,-0.905,0.0
9.459,0.082,-0.907,0.0
9.04,0.077,-0.92,0.0
8.573,0.072,-0.923,0.0
11.097,0.091,-0.886,0.0
10.483,0.085,-0.898,0.0
9.877,0.079,-0.904,0.0
9.379,0.074,-0.914,0.0
8.918,0.07,-0.921,0.0
8.457,0.066,-0.923,0.0
10.925,0.082,-0.889,0.0
10.341,0.076,-0.901,0.0
9.767,0.071,-0.908,0.0
9.272,0.067,-0.917,0.0
8.819,0.063,-0.924,0.0
8.379,0.059,-0.927,0.0
10.781,0.073,-0.893,0.0
10.195,0.068,-0.904,0.0
9.63,0.063,-0.91,0.0
9.054,0.058,-0.909,0.0
8.644,0.055,-0.918,0.0
8.288,0.052,-0.929,0.0
10.627,0.064,-0.895,0.0
10.084,0.059,-0.908,0.0
9.456,0.055,-0.907,0.0
9.002,0.051,-0.916,0.0
8.578,0.048,-0.923,0.0
8.2,0.045,-0.931,0.0
10.48,0.054,-0.898,0.0
9.849,0.05,-0.901,0.0
9.352,0.046,-0.91,0.0
8.936,0.043,-0.922,0.0
8.513,0.04,-0.928,0.0
8.109,0.038,-0.932,0.0
10.336,0.045,-0.899,0.0
9.773,0.041,-0.907,0.0
9.283,0.038,-0.916,0.0
8.844,0.036,-0.925,0.0
8.413,0.033,-0.929,0.0
8.017,0.03,-0.932,0.0
10.207,0.036,-0.902,0.0
9.68,0.033,-0.911,0.0
9.131,0.03,-0.913,0.0
8.748,0.028,-0.926,0.0
8.303,0.025,-0.927,0.0
7.98,0.023,-0.938,0.0
10.112,0.027,-0.906,0.0
9.496,0.024,-0.906,0.0
9.049,0.022,-0.916,0.0
8.587,0.019,-0.92,0.0
8.234,0.018,-0.93,0.0
7.892,0.016,-0.938,0.0
9.958,0.017,-0.905,0.0
9.422,0.015,-0.911,0.0
8.956,0.013,-0.918,0.0
8.518,0.012,-0.923,0.0
8.121,0.01,-0.928,0.0
7.821,0.009,-0.939,0.0
9.784,0.008,-0.901,0.0
9.326,0.006,-0.913,0.0
8.89,0.005,-0.922,0.0
8.456,0.004,-0.927,0.0
8.049,0.002,-0.929,0.0
7.734,0.001,-0.938,0.0
9.696,0.0,-0.904,0.0
9.231,-0.001,-0.914,0.0
8.777,-0.002,-0.92,0.0
8.357,-0.003,-0.926,0.0
7.998,-0.004,-0.933,0.0
7.681,-0.005,-0.94,0.0
9.601,-0.009,-0.906,0.0
9.103,-0.01,-0.912,0.0
8.736,-0.011,-0.926,0.0
8.299,-0.011,-0.929,0.0
7.963,-0.012,-0.937,0.0
7.619,-0.013,-0.941,0.0
9.489,-0.018,-0.906,0.0
9.042,-0.019,-0.916,0.0
8.658,-0.019,-0.927,0.0
8.258,-0.019,-0.933,0.0
7.896,-0.02,-0.938,0.0
7.571,-0.02,-0.943,0.0
9.39,-0.028,-0.907,0.0
8.939,-0.028,-0.915,0.0
8.551,-0.028,-0.925,0.0
8.172,-0.027,-0.932,0.0
7.831,-0.027,-0.939,0.0
7.484,-0.027,-0.941,0.0
9.34,-0.037,-0.911,0.0
8.893,-0.036,-0.919,0.0
8.456,-0.036,-0.923,0.0
8.105,-0.035,-0.932,0.0
7.755,-0.035,-0.937,0.0
7.434,-0.035,-0.942,0.0
9.311,-0.046,-0.918,0.0
8.83,-0.045,-0.921,0.0
8.418,-0.044,-0.927,0.0
8.021,-0.044,-0.93,0.0
7.715,-0.043,-0.94,0.0
7.367,-0.042,-0.94,0.0
9.206,-0.055,-0.916,0.0
8.75,-0.054,-0.921,0.0
8.379,-0.053,-0.93,0.0
8.003,-0.052,-0.936,0.0
7.653,-0.051,-0.939,0.0
7.321,-0.05,-0.941,0.0
9.102,-0.065,-0.914,0.0
8.693,-0.063,-0.923,0.0
8.302,-0.061,-0.929,0.0
7.923,-0.06,-0.933,0.0
7.635,-0.059,-0.944,0.0
7.306,-0.058,-0.945,0.0
9.061,-0.074,-0.917,0.0
8.632,-0.072,-0.924,0.0
8.253,-0.07,-0.931,0.0
7.864,-0.068,-0.933,0.0
7.545,-0.067,-0.939,0.0
7.271,-0.065,-0.947,0.0
9.008,-0.084,-0.919,0.0
8.572,-0.081,-0.924,0.0
8.202,-0.079,-0.932,0.0
7.84,-0.077,-0.936,0.0
7.512,-0.075,-0.941,0.0
7.244,-0.073,-0.949,0.0
8.933,-0.093,-0.919,0.0
8.504,-0.09,-0.923,0.0
8.122,-0.087,-0.929,0.0
7.796,-0.085,-0.937,0.0
7.472,-0.083,-0.941,0.0
7.193,-0.081,-0.948,0.0
8.871,-0.102,-0.919,0.0
8.468,-0.099,-0.926,0.0
8.073,-0.096,-0.929,0.0
7.753,-0.093,-0.937,0.0
7.429,-0.091,-0.941,0.0
7.114,-0.088,-0.942,0.0
8.837,-0.112,-0.921,0.0
8.426,-0.108,-0.927,0.0
8.037,-0.104,-0.93,0.0
7.717,-0.102,-0.938,0.0
7.435,-0.099,-0.947,0.0
7.132,-0.096,-0.949,0.0
8.787,-0.121,-0.922,0.0
8.366,-0.117,-0.925,0.0
8.002,-0.113,-0.931,0.0
7.691,-0.11,-0.94,0.0
7.374,-0.107,-0.944,0.0
7.071,-0.104,-0.946,0.0
9.175,-0.455,-0.921,0.0
8.764,-0.436,-0.928,0.0
8.398,-0.419,-0.935,0.0
7.989,-0.4,-0.934,0.0
7.68,-0.386,-0.94,0.0
7.434,-0.375,-0.951,0.0
9.259,-0.467,-0.922,0.0
8.842,-0.447,-0.929,0.0
8.424,-0.428,-0.931,0.0
8.063,-0.411,-0.936,0.0
7.775,-0.397,-0.945,0.0
7.46,-0.383,-0.948,0.0
9.346,-0.478,-0.922,0.0
8.921,-0.458,-0.929,0.0
8.516,-0.439,-0.933,0.0
8.138,-0.421,-0.937,0.0
7.804,-0.405,-0.941,0.0
7.509,-0.391,-0.947,0.0
9.423,-0.49,-0.921,0.0
8.993,-0.469,-0.928,0.0
8.574,-0.449,-0.931,0.0
8.203,-0.431,-0.936,0.0
7.893,-0.416,-0.944,0.0
7.567,-0.4,-0.947,0.0
9.51,-0.501,-0.92,0.0
9.072,-0.48,-0.927,0.0
8.642,-0.459,-0.93,0.0
8.278,-0.441,-0.937,0.0
7.938,-0.424,-0.941,0.0
7.648,-0.41,-0.949,0.0
9.623,-0.514,-0.921,0.0
9.156,-0.491,-0.926,0.0
8.726,-0.469,-0.93,0.0
8.334,-0.449,-0.934,0.0
8.029,-0.434,-0.944,0.0
7.681,-0.417,-0.945,0.0
9.701,-0.525,-0.918,0.0
9.251,-0.502,-0.926,0.0
8.804,-0.479,-0.929,0.0
8.439,-0.461,-0.937,0.0
8.099,-0.443,-0.943,0.0
7.729,-0.424,-0.942,0.0
9.781,-0.536,-0.916,0.0
9.338,-0.513,-0.924,0.0
8.883,-0.489,-0.927,0.0
8.503,-0.47,-0.935,0.0
8.134,-0.451,-0.938,0.0
7.821,-0.434,-0.945,0.0
9.893,-0.548,-0.915,0.0
9.433,-0.524,-0.923,0.0
8.964,-0.499,-0.926,0.0
8.586,-0.479,-0.934,0.0
8.244,-0.462,-0.942,0.0
7.877,-0.442,-0.942,0.0
10.015,-0.561,-0.915,0.0
9.511,-0.534,-0.92,0.0
9.081,-0.511,-0.927,0.0
8.67,-0.489,-0.933,0.0
8.274,-0.468,-0.935,0.0
7.968,-0.452,-0.944,0.0
10.153,-0.574,-0.916,0.0
9.644,-0.547,-0.921,0.0
9.184,-0.522,-0.927,0.0
8.775,-0.5,-0.934,0.0
8.406,-0.48,-0.94,0.0
8.024,-0.459,-0.941,0.0
10.238,-0.584,-0.911,0.0
9.754,-0.558,-0.92,0.0
9.298,-0.533,-0.927,0.0
8.851,-0.509,-0.931,0.0
8.476,-0.488,-0.937,0.0
8.086,-0.467,-0.938,0.0
10.363,-0.597,-0.909,0.0
9.841,-0.568,-0.916,0.0
9.384,-0.543,-0.924,0.0
8.937,-0.518,-0.929,0.0
8.571,-0.498,-0.937,0.0
8.203,-0.477,-0.941,0.0
10.453,-0.607,-0.904,0.0
9.964,-0.579,-0.915,0.0
9.468,-0.552,-0.92,0.0
9.05,-0.529,-0.929,0.0
8.663,-0.507,-0.936,0.0
8.264,-0.485,-0.937,0.0
10.599,-0.62,-0.903,0.0
10.117,-0.593,-0.916,0.0
9.618,-0.564,-0.922,0.0
9.161,-0.539,-0.928,0.0
8.742,-0.515,-0.933,0.0
8.368,-0.494,-0.938,0.0
10.851,-0.639,-0.91,0.0
10.252,-0.604,-0.914,0.0
9.733,-0.575,-0.92,0.0
9.286,-0.549,-0.928,0.0
8.851,-0.525,-0.932,0.0
8.444,-0.501,-0.935,0.0
10.967,-0.649,-0.905,0.0
10.372,-0.615,-0.911,0.0
9.861,-0.586,-0.919,0.0
9.394,-0.559,-0.926,0.0
8.944,-0.533,-0.93,0.0
8.585,-0.513,-0.938,0.0
11.09,-0.66,-0.899,0.0
10.509,-0.627,-0.908,0.0
9.993,-0.597,-0.917,0.0
9.485,-0.567,-0.922,0.0
9.059,-0.543,-0.929,0.0
8.676,-0.521,-0.936,0.0
11.287,-0.675,-0.9,0.0
10.576,-0.633,-0.899,0.0
10.106,-0.606,-0.913,0.0
9.643,-0.579,-0.923,0.0
9.196,-0.553,-0.93,0.0
8.76,-0.528,-0.932,0.0
11.448,-0.687,-0.896,0.0
10.843,-0.652,-0.906,0.0
10.3,-0.62,-0.916,0.0
9.794,-0.59,-0.924,0.0
9.331,-0.563,-0.93,0.0
8.884,-0.537,-0.933,0.0
11.652,-0.702,-0.895,0.0
10.932,-0.66,-0.898,0.0
10.404,-0.628,-0.91,0.0
9.934,-0.601,-0.922,0.0
9.426,-0.571,-0.925,0.0
8.994,-0.545,-0.931,0.0
11.814,-0.714,-0.89,0.0
11.167,-0.675,-0.901,0.0
10.517,-0.637,-0.904,0.0
10.02,-0.607,-0.916,0.0
9.58,-0.581,-0.926,0.0
9.15,-0.556,-0.934,0.0
11.976,-0.725,-0.885,0.0
11.324,-0.686,-0.897,0.0
10.758,-0.653,-0.909,0.0
10.175,-0.618,-0.915,0.0
9.696,-0.589,-0.923,0.0
9.238,-0.562,-0.928,0.0
12.22,-0.741,-0.885,0.0
11.563,-0.702,-0.898,0.0
10.915,-0.663,-0.906,0.0
10.358,-0.63,-0.915,0.0
9.85,-0.599,-0.922,0.0
9.389,-0.572,-0.929,0.0
12.434,-0.755,-0.881,0.0
11.753,-0.714,-0.895,0.0
11.088,-0.674,-0.903,0.0
10.471,-0.637,-0.909,0.0
9.983,-0.607,-0.919,0.0
9.533,-0.581,-0.928,0.0
12.651,-0.768,-0.877,0.0
11.923,-0.724,-0.889,0.0
11.24,-0.683,-0.897,0.0
10.593,-0.644,-0.903,0.0
10.151,-0.618,-0.919,0.0
9.657,-0.588,-0.925,0.0
12.918,-0.784,-0.875,0.0
12.133,-0.736,-0.885,0.0
11.429,-0.694,-0.894,0.0
10.861,-0.66,-0.908,0.0
10.31,-0.626,-0.917,0.0
9.832,-0.598,-0.926,0.0
13.123,-0.795,-0.868,0.0
12.345,-0.748,-0.881,0.0
11.704,-0.71,-0.897,0.0
11.025,-0.669,-0.904,0.0
10.437,-0.633,-0.911,0.0
9.965,-0.605,-0.923,0.0
13.337,-0.807,-0.861,0.0
12.576,-0.761,-0.878,0.0
11.888,-0.719,-0.892,0.0
11.231,-0.679,-0.903,0.0
10.589,-0.641,-0.907,0.0
10.093,-0.611,-0.918,0.0
13.76,-0.83,-0.866,0.0
12.858,-0.776,-0.877,0.0
12.068,-0.728,-0.886,0.0
11.378,-0.686,-0.896,0.0
10.827,-0.653,-0.91,0.0
10.307,-0.622,-0.921,0.0
14.064,-0.846,-0.862,0.0
13.064,-0.785,-0.869,0.0
12.331,-0.741,-0.885,0.0
11.643,-0.7,-0.898,0.0
11.009,-0.662,-0.907,0.0
10.448,-0.628,-0.916,0.0
14.353,-0.86,-0.856,0.0
13.299,-0.796,-0.863,0.0
12.518,-0.749,-0.878,0.0
11.826,-0.708,-0.893,0.0
11.178,-0.669,-0.903,0.0
10.538,-0.63,-0.906,0.0
14.709,-0.877,-0.853,0.0
13.74,-0.819,-0.869,0.0
12.806,-0.763,-0.877,0.0
12.008,-0.715,-0.887,0.0
11.413,-0.679,-0.903,0.0
10.875,-0.647,-0.917,0.0
15.007,-0.89,-0.846,0.0
14.029,-0.831,-0.864,0.0
13.045,-0.773,-0.872,0.0
12.27,-0.726,-0.886,0.0
11.608,-0.687,-0.899,0.0
10.99,-0.65,-0.909,0.0
15.468,-0.912,-0.846,0.0
14.329,-0.844,-0.859,0.0
13.247,-0.78,-0.863,0.0
12.477,-0.734,-0.88,0.0
11.803,-0.694,-0.894,0.0
11.186,-0.657,-0.906,0.0
15.864,-0.929,-0.842,0.0
14.717,-0.861,-0.858,0.0
13.647,-0.797,-0.867,0.0
12.746,-0.744,-0.877,0.0
12.06,-0.703,-0.893,0.0
11.415,-0.665,-0.905,0.0
16.379,-0.951,-0.841,0.0
15.041,-0.873,-0.851,0.0
13.98,-0.81,-0.864,0.0
13.037,-0.755,-0.875,0.0
12.255,-0.709,-0.887,0.0
11.596,-0.67,-0.9,0.0
16.816,-0.969,-0.836,0.0
15.385,-0.885,-0.845,0.0
14.325,-0.823,-0.861,0.0
13.209,-0.758,-0.865,0.0
12.498,-0.716,-0.883,0.0
11.801,-0.676,-0.896,0.0
17.296,-0.987,-0.83,0.0
15.822,-0.902,-0.842,0.0
14.665,-0.835,-0.857,0.0
13.637,-0.775,-0.87,0.0
12.73,-0.723,-0.878,0.0
11.979,-0.679,-0.889,0.0
17.726,-1.002,-0.821,0.0
16.25,-0.917,-0.838,0.0
14.973,-0.843,-0.85,0.0
13.853,-0.779,-0.86,0.0
12.99,-0.73,-0.874,0.0
12.246,-0.687,-0.888,0.0
18.191,-1.017,-0.812,0.0
16.793,-0.937,-0.837,0.0
15.304,-0.852,-0.843,0.0
14.249,-0.792,-0.861,0.0
13.239,-0.735,-0.869,0.0
12.47,-0.691,-0.884,0.0
18.795,-1.038,-0.807,0.0
17.2,-0.948,-0.828,0.0
15.793,-0.869,-0.843,0.0
14.647,-0.805,-0.86,0.0
13.558,-0.743,-0.867,0.0
12.682,-0.694,-0.877,0.0
19.38,-1.057,-0.8,0.0
17.647,-0.96,-0.82,0.0
16.341,-0.888,-0.844,0.0
15.028,-0.815,-0.856,0.0
13.833,-0.748,-0.861,0.0
12.978,-0.701,-0.875,0.0
19.779,-1.064,-0.782,0.0
18.111,-0.972,-0.811,0.0
16.759,-0.898,-0.837,0.0
15.387,-0.822,-0.851,0.0
14.288,-0.762,-0.865,0.0
13.182,-0.701,-0.867,0.0
20.546,-1.089,-0.778,0.0
18.719,-0.99,-0.806,0.0
17.169,-0.906,-0.829,0.0
15.667,-0.825,-0.84,0.0
14.651,-0.769,-0.862,0.0
13.507,-0.708,-0.865,0.0
21.123,-1.103,-0.764,0.0
19.349,-1.007,-0.801,0.0
17.635,-0.916,-0.822,0.0
16.199,-0.839,-0.841,0.0
14.976,-0.774,-0.856,0.0
13.893,-0.716,-0.867,0.0
21.818,-1.12,-0.753,0.0
19.912,-1.02,-0.791,0.0
18.173,-0.928,-0.816,0.0
16.67,-0.849,-0.837,0.0
15.283,-0.776,-0.848,0.0
14.188,-0.718,-0.861,0.0
22.476,-1.134,-0.738,0.0
20.523,-1.032,-0.781,0.0
18.727,-0.939,-0.81,0.0
17.124,-0.856,-0.832,0.0
15.775,-0.786,-0.848,0.0
14.568,-0.724,-0.86,0.0
23.482,-1.162,-0.732,0.0
21.028,-1.038,-0.765,0.0
19.265,-0.948,-0.801,0.0
17.538,-0.86,-0.822,0.0
16.164,-0.79,-0.842,0.0
14.923,-0.727,-0.856,0.0
24.278,-1.178,-0.716,0.0
21.722,-1.051,-0.754,0.0
19.668,-0.948,-0.785,0.0
18.049,-0.867,-0.816,0.0
16.725,-0.8,-0.844,0.0
15.333,-0.731,-0.854,0.0
24.661,-1.172,-0.687,1.0
22.502,-1.065,-0.744,0.0
20.345,-0.96,-0.779,0.0
18.589,-0.873,-0.81,0.0
17.075,-0.799,-0.834,0.0
15.75,-0.735,-0.851,0.0
26.439,-1.228,-0.693,0.0
23.282,-1.077,-0.732,0.0
21.027,-0.969,-0.77,0.0
19.13,-0.878,-0.802,0.0
17.435,-0.797,-0.822,0.0
16.095,-0.733,-0.843,0.0
0.0,0.0,0.0,0.0
24.371,-1.101,-0.726,0.0
21.676,-0.975,-0.759,0.0
19.676,-0.881,-0.793,0.0
18.048,-0.805,-0.822,0.0
16.577,-0.736,-0.842,0.0
0.0,0.0,0.0,0.0
25.015,-1.101,-0.705,0.0
22.289,-0.977,-0.744,0.0
20.08,-0.876,-0.777,0.0
18.512,-0.804,-0.813,0.0
17.069,-0.738,-0.839,0.0
29.866,-1.286,-0.638,0.0
25.447,-1.09,-0.676,0.0
23.081,-0.984,-0.734,0.0
20.671,-0.877,-0.767,0.0
19.025,-0.803,-0.805,0.0
17.48,-0.735,-0.831,0.0
30.644,-1.282,-0.605,0.0
26.947,-1.122,-0.673,0.0
23.97,-0.993,-0.724,0.0
21.326,-0.878,-0.757,0.0
19.665,-0.806,-0.801,0.0
17.874,-0.729,-0.822,0.0
32.286,-1.31,-0.587,0.0
0.0,0.0,0.0,0.0
24.743,-0.993,-0.708,0.0
22.002,-0.879,-0.747,0.0
20.111,-0.799,-0.788,0.0
18.432,-0.728,-0.818,0.0
33.335,-1.31,-0.554,0.0
29.43,-1.151,-0.643,0.0
25.678,-0.998,-0.695,0.0
22.564,-0.872,-0.731,0.0
20.643,-0.793,-0.777,0.0
18.975,-0.725,-0.813,0.0
0.0,0.0,0.0,0.0
30.108,-1.137,-0.611,0.0
26.573,-0.997,-0.678,0.0
23.54,-0.878,-0.726,0.0
21.113,-0.783,-0.762,0.0
19.385,-0.714,-0.801,0.0
37.347,-1.369,-0.506,0.0
31.537,-1.148,-0.592,0.0
27.433,-0.992,-0.658,0.0
24.515,-0.881,-0.719,0.0
21.769,-0.777,-0.753,0.0
19.89,-0.705,-0.792,0.0
38.515,-1.358,-0.463,0.0
0.0,0.0,0.0,0.0
0.0,0.0,0.0,0.0
25.408,-0.877,-0.707,0.0
22.484,-0.77,-0.743,0.0
20.36,-0.693,-0.78,0.0
0.0,0.0,0.0,0.0
0.0,0.0,0.0,0.0
29.827,-0.994,-0.626,0.0
26.222,-0.867,-0.69,0.0
23.241,-0.763,-0.734,0.0
17.806,-0.58,-0.655,2.0
0.0,0.0,0.0,0.0
0.0,0.0,0.0,0.0
31.342,-0.998,-0.612,0.0
27.131,-0.857,-0.674,0.0
24.214,-0.758,-0.729,0.0
17.807,-0.553,-0.629,150.0
0.0,0.0,0.0,0.0
37.971,-1.162,-0.487,0.0
0.0,0.0,0.0,0.0
0.0,0.0,0.0,0.0
24.882,-0.742,-0.713,0.0
17.806,-0.526,-0.604,47.0
0.0,0.0,0.0,0.0
0.0,0.0,0.0,0.0
33.294,-0.959,-0.554,0.0
0.0,0.0,0.0,0.0
25.695,-0.727,-0.7,0.0
17.813,-0.499,-0.579,6.0
0.0,0.0,0.0,0.0
0.0,0.0,0.0,0.0
0.0,0.0,0.0,0.0
29.763,-0.803,-0.614,0.0
26.235,-0.701,-0.678,0.0
23.616,-0.624,-0.735,0.0
0.0,0.0,0.0,0.0
0.0,0.0,0.0,0.0
0.0,0.0,0.0,0.0
31.421,-0.798,-0.605,0.0
27.119,-0.681,-0.664,0.0
24.405,-0.606,-0.727,0.0
0.0,0.0,0.0,0.0
0.0,0.0,0.0,0.0
0.0,0.0,0.0,0.0
31.957,-0.759,-0.572,0.0
28.295,-0.664,-0.655,0.0
21.724,-0.504,-0.618,151.0
0.0,0.0,0.0,0.0
0.0,0.0,0.0,0.0
0.0,0.0,0.0,0.0
33.444,-0.739,-0.554,0.0
21.737,-0.474,-0.475,1.0
21.67,-0.467,-0.588,162.0
0.0,0.0,0.0,0.0
0.0,0.0,0.0,0.0
0.0,0.0,0.0,0.0
35.091,-0.717,-0.536,0.0
30.526,-0.615,-0.628,0.0
21.73,-0.431,-0.561,150.0
0.0,0.0,0.0,0.0
0.0,0.0,0.0,0.0
0.0,0.0,0.0,0.0
37.745,-0.707,-0.529,1.0
30.68,-0.566,-0.592,0.0
27.291,-0.495,-0.671,0.0
0.0,0.0,0.0,0.0
0.0,0.0,0.0,0.0
0.0,0.0,0.0,0.0
0.0,0.0,0.0,0.0
0.0,0.0,0.0,0.0
28.371,-0.466,-0.663,0.0
19.755,-0.319,0.086,3.0
0.0,0.0,0.0,0.0
0.0,0.0,0.0,0.0
0.0,0.0,0.0,0.0
33.475,-0.5,-0.565,0.0
28.888,-0.423,-0.64,0.0
19.744,-0.283,0.11,28.0
0.0,0.0,0.0,0.0
0.0,0.0,0.0,0.0
0.0,0.0,0.0,0.0
35.057,-0.461,-0.55,0.0
29.741,-0.383,-0.625,0.0
19.752,-0.248,0.133,15.0
0.0,0.0,0.0,0.0
0.0,0.0,0.0,0.0
0.0,0.0,0.0,0.0
0.0,0.0,0.0,0.0
30.731,-0.34,-0.611,0.0
109.452,-1.181,0.862,15.0
0.0,0.0,0.0,0.0
0.0,0.0,0.0,0.0
19.786,-0.195,-0.161,0.0
19.762,-0.188,-0.265,10.0
19.764,-0.182,-0.37,14.0
109.549,-0.979,0.985,151.0
0.0,0.0,0.0,0.0
19.764,-0.164,-0.032,0.0
19.743,-0.157,-0.139,13.0
19.735,-0.151,-0.243,17.0
19.75,-0.145,-0.349,17.0
19.73,-0.139,0.198,0.0
19.781,-0.133,0.094,3.0
19.729,-0.126,-0.01,10.0
19.704,-0.12,-0.117,16.0
19.726,-0.114,-0.223,17.0
19.751,-0.108,-0.328,15.0
19.711,-0.102,0.219,15.0
19.703,-0.095,0.114,14.0
19.702,-0.089,0.009,13.0
19.721,-0.083,-0.097,13.0
19.726,-0.077,-0.202,16.0
19.757,-0.071,-0.308,15.0
19.658,-0.064,0.238,14.0
19.697,-0.058,0.133,17.0
19.699,-0.052,0.028,16.0
19.718,-0.046,-0.078,13.0
19.744,-0.039,-0.183,14.0
19.761,-0.033,-0.289,0.0
19.638,-0.027,0.257,13.0
19.705,-0.02,0.153,5.0
19.716,-0.014,0.047,8.0
19.742,-0.008,-0.059,9.0
19.748,-0.002,-0.165,0.0
19.805,0.004,-0.271,0.0
19.641,0.01,0.276,15.0
19.714,0.017,0.171,9.0
19.74,0.023,0.066,16.0
19.761,0.03,-0.041,91.0
19.769,0.036,-0.146,14.0
19.769,0.043,-0.252,13.0
19.615,0.049,0.293,13.0
19.646,0.055,0.188,13.0
19.718,0.062,0.084,23.0
19.75,0.068,-0.023,45.0
19.758,0.075,-0.129,16.0
19.764,0.081,-0.235,4.0
19.623,0.088,0.311,22.0
19.644,0.094,0.206,11.0
19.651,0.1,0.1,13.0
19.648,0.107,-0.006,12.0
19.684,0.114,-0.112,8.0
40.186,0.245,-0.444,0.0
19.622,0.126,0.327,12.0
19.651,0.133,0.222,16.0
19.642,0.139,0.117,14.0
19.619,0.145,0.009,18.0
19.636,0.152,-0.095,13.0
19.656,0.159,-0.201,14.0
19.652,0.165,0.343,9.0
19.658,0.172,0.238,11.0
19.667,0.178,0.132,10.0
19.646,0.185,0.024,13.0
19.631,0.191,-0.08,14.0
19.641,0.198,-0.186,17.0
19.736,0.206,0.36,12.0
19.74,0.212,0.254,11.0
19.762,0.219,0.148,25.0
19.687,0.224,0.039,3.0
19.646,0.23,-0.066,9.0
19.652,0.237,-0.171,17.0
19.706,0.245,0.374,13.0
19.715,0.252,0.268,12.0
19.762,0.259,0.162,18.0
84.818,1.141,0.232,0.0
19.714,0.271,-0.052,1.0
19.688,0.278,-0.158,8.0
19.71,0.285,0.388,14.0
19.734,0.292,0.282,3.0
163.397,2.476,1.456,9.0
0.0,0.0,0.0,0.0
55.181,0.873,-0.108,5.0
40.724,0.657,-0.3,0.0
55.195,0.913,1.124,48.0
55.176,0.93,0.826,58.0
55.157,0.948,0.527,71.0
55.158,0.966,0.223,70.0
55.119,0.984,-0.073,18.0
41.865,0.761,-0.282,2.0
55.211,1.025,1.159,31.0
55.201,1.043,0.86,10.0
162.889,3.131,1.656,26.0
112.759,2.204,0.525,3.0
55.085,1.095,-0.041,15.0
43.371,0.876,-0.267,0.0
179.267,3.696,3.868,29.0
163.67,3.429,2.645,9.0
128.689,2.739,1.383,19.0
86.755,1.876,0.454,7.0
57.966,1.271,-0.01,0.0
43.932,0.978,-0.246,8.0
98.585,2.238,2.182,6.0
128.71,2.964,2.151,7.0
71.023,1.658,0.801,15.0
70.876,1.678,0.408,9.0
0.0,0.0,0.0,0.0
0.0,0.0,0.0,0.0
138.786,3.437,3.143,28.0
45.498,1.141,0.783,1.0
45.495,1.156,0.536,31.0
0.0,0.0,0.0,0.0
0.0,0.0,0.0,0.0
40.109,1.059,-0.184,150.0
0.0,0.0,0.0,0.0
41.924,1.138,0.741,150.0
41.926,1.152,0.513,162.0
0.0,0.0,0.0,0.0
40.108,1.128,0.051,84.0
40.025,1.139,-0.166,119.0
40.125,1.16,0.945,150.0
40.127,1.173,0.727,150.0
40.124,1.185,0.508,135.0
40.125,1.199,0.285,121.0
40.128,1.212,0.067,150.0
40.117,1.225,-0.151,95.0
40.126,1.243,0.961,150.0
40.126,1.256,0.742,150.0
40.115,1.268,0.523,150.0
40.116,1.282,0.301,147.0
40.128,1.295,0.082,150.0
40.1,1.307,-0.136,91.0
40.129,1.326,0.976,3.0
40.156,1.34,0.757,0.0
70.943,2.39,0.951,4.0
71.082,2.418,0.557,26.0
40.114,1.377,0.095,67.0
40.135,1.39,-0.123,150.0
163.447,5.74,4.029,6.0
162.267,5.751,3.113,41.0
45.097,1.612,0.618,19.0
45.034,1.624,0.366,150.0
44.195,1.608,0.118,25.0
42.534,1.561,-0.118,2.0
42.837,1.592,1.068,93.0
42.124,1.578,0.819,79.0
41.819,1.58,0.584,83.0
41.742,1.591,0.35,150.0
40.718,1.565,0.119,117.0
40.34,1.564,-0.102,153.0
40.391,1.585,1.016,97.0
40.388,1.598,0.795,124.0
40.378,1.61,0.573,150.0
40.385,1.623,0.348,151.0
45.213,1.831,0.142,6.0
40.328,1.647,-0.094,142.0
100.575,4.155,2.553,11.0
23.652,0.984,0.47,0.0
23.623,0.99,0.34,13.0
23.635,0.999,0.208,33.0
23.628,1.006,0.078,47.0
23.625,1.013,-0.051,47.0
23.603,1.023,0.603,47.0
23.601,1.031,0.473,48.0
23.601,1.038,0.343,57.0
23.588,1.045,0.211,67.0
23.599,1.053,0.081,73.0
23.604,1.061,-0.047,72.0
23.597,1.072,0.606,75.0
23.588,1.078,0.475,71.0
23.591,1.086,0.346,68.0
23.596,1.093,0.213,62.0
23.603,1.101,0.084,55.0
23.606,1.108,-0.045,45.0
23.623,1.121,0.608,41.0
23.634,1.128,0.478,40.0
23.614,1.135,0.348,24.0
23.618,1.142,0.215,11.0
45.186,2.2,0.164,16.0
40.315,1.975,-0.075,33.0
45.148,2.234,1.166,0.0
45.239,2.253,0.918,2.0
45.209,2.265,0.668,33.0
45.206,2.278,0.414,99.0
45.201,2.292,0.165,44.0
40.32,2.056,-0.075,33.0
163.56,8.426,4.226,4.0
0.0,0.0,0.0,0.0
99.857,5.205,1.477,4.0
100.066,5.245,0.916,5.0
45.185,2.382,0.164,30.0
40.321,2.138,-0.075,34.0
45.217,2.421,1.167,1.0
200.19,10.779,4.06,12.0
99.642,5.395,1.469,9.0
99.216,5.401,0.905,3.0
45.176,2.472,0.162,24.0
40.326,2.219,-0.078,36.0
45.21,2.511,1.164,22.0
45.215,2.525,0.914,85.0
45.2,2.537,0.663,18.0
45.199,2.55,0.408,2.0
45.175,2.562,0.158,36.0
40.328,2.299,-0.082,38.0
163.408,9.405,4.193,3.0
45.138,2.61,0.907,0.0
99.754,5.797,1.453,12.0
45.201,2.64,0.403,8.0
45.172,2.651,0.152,38.0
40.317,2.378,-0.087,40.0
112.012,6.665,2.858,16.0
111.936,6.693,2.235,6.0
99.806,5.997,1.438,11.0
112.37,6.783,0.985,8.0
45.167,2.739,0.145,40.0
40.323,2.457,-0.094,46.0
45.213,2.779,1.146,14.0
45.212,2.791,0.894,104.0
45.205,2.803,0.643,58.0
45.204,2.815,0.387,6.0
45.168,2.826,0.136,44.0
195.113,12.367,4.904,5.0
100.845,6.42,1.973,2.0
99.898,6.387,1.399,9.0
100.242,6.437,0.836,10.0
45.175,2.913,0.125,150.0
40.323,2.612,-0.112,41.0
45.213,2.953,1.125,138.0
45.175,2.962,0.873,118.0
45.092,2.969,0.62,120.0
44.913,2.97,0.363,150.0
43.781,2.906,0.109,4.0
40.322,2.688,-0.123,41.0
43.613,2.93,1.073,86.0
43.616,2.942,0.83,83.0
43.661,2.957,0.587,6.0
41.854,2.845,0.325,4.0
42.215,2.882,0.093,12.0
40.318,2.763,-0.135,43.0
42.514,2.936,1.032,86.0
41.447,2.873,0.775,24.0
41.965,2.92,0.551,150.0
42.002,2.934,0.313,150.0
41.294,2.896,0.077,5.0
40.31,2.838,-0.149,45.0
41.27,2.927,0.988,72.0
41.128,2.928,0.755,70.0
41.051,2.933,0.524,119.0
40.926,2.935,0.289,112.0
40.325,2.903,0.06,47.0
40.329,2.914,-0.165,42.0
40.382,2.939,0.951,109.0
40.375,2.948,0.725,76.0
45.491,3.334,0.562,25.0
45.493,3.345,0.303,96.0
40.313,2.974,0.043,43.0
40.319,2.986,-0.181,42.0
43.695,3.259,1.011,136.0
43.696,3.27,0.766,139.0
43.709,3.282,0.521,138.0
43.696,3.292,0.272,150.0
41.906,3.168,0.026,132.0
41.785,3.17,-0.207,36.0
43.702,3.338,0.991,150.0
0.0,0.0,0.0,0.0
0.0,0.0,0.0,0.0
43.7,3.371,0.251,6.0
41.817,3.236,0.006,41.0
0.0,0.0,0.0,0.0
41.895,3.274,0.93,135.0
41.902,3.285,0.695,128.0
41.908,3.295,0.459,124.0
41.902,3.305,0.22,140.0
40.116,3.174,-0.014,90.0
39.928,3.169,-0.237,16.0
0.0,0.0,0.0,0.0
0.0,0.0,0.0,0.0
40.116,3.224,0.418,8.0
40.093,3.232,0.189,11.0
40.028,3.236,-0.035,36.0
0.0,0.0,0.0,0.0
40.103,3.273,0.847,150.0
40.096,3.282,0.621,150.0
40.112,3.292,0.396,119.0
40.095,3.301,0.166,150.0
40.106,3.311,-0.058,111.0
0.0,0.0,0.0,0.0
40.109,3.342,0.823,108.0
40.107,3.351,0.597,110.0
40.101,3.36,0.372,110.0
40.098,3.368,0.142,150.0
40.113,3.379,-0.083,134.0
0.0,0.0,0.0,0.0
40.104,3.409,0.798,100.0
40.099,3.417,0.572,82.0
40.083,3.424,0.346,34.0
40.048,3.43,0.117,26.0
40.04,3.439,-0.108,69.0
35.751,3.079,-0.298,10.0
74.616,6.465,1.438,10.0
74.56,6.475,1.016,8.0
74.419,6.479,0.595,3.0
40.078,3.498,0.09,70.0
40.048,3.504,-0.135,28.0
35.156,3.084,-0.316,9.0
73.339,6.471,1.364,10.0
73.261,6.48,0.949,9.0
73.129,6.483,0.534,3.0
46.801,4.159,0.073,21.0
42.725,3.806,-0.174,7.0
34.14,3.049,-0.331,11.0
72.158,6.481,1.291,9.0
72.045,6.486,0.882,8.0
71.942,6.491,0.474,3.0
46.636,4.217,0.039,21.0
40.236,3.647,-0.192,15.0
33.002,2.998,-0.344,10.0
70.951,6.482,1.217,12.0
70.868,6.489,0.815,10.0
55.387,5.083,0.324,1.0
46.382,4.266,0.004,20.0
40.247,3.71,-0.223,15.0
31.639,2.923,-0.354,9.0
69.834,6.486,1.144,9.0
69.735,6.49,0.748,7.0
53.036,4.947,0.269,2.0
45.981,4.298,-0.031,20.0
39.656,3.715,-0.251,14.0
31.079,2.918,-0.372,9.0
68.703,6.483,1.071,8.0
68.642,6.491,0.681,6.0
53.359,5.056,0.228,4.0
45.22,4.293,-0.066,20.0
0.0,0.0,0.0,0.0
30.131,2.873,-0.385,8.0
67.686,6.485,1.0,9.0
67.622,6.491,0.616,8.0
47.795,4.597,0.164,14.0
42.512,4.097,-0.098,17.0
36.095,3.485,-0.288,4.0
29.442,2.849,-0.401,8.0
66.761,6.491,0.93,10.0
66.762,6.502,0.552,4.0
47.443,4.63,0.123,21.0
44.227,4.324,-0.139,4.0
34.706,3.399,-0.306,6.0
28.737,2.82,-0.416,7.0
65.793,6.487,0.86,8.0
65.719,6.492,0.486,3.0
46.976,4.648,0.081,21.0
40.25,3.99,-0.162,15.0
33.707,3.347,-0.327,10.0
27.757,2.762,-0.427,7.0
64.925,6.489,0.791,9.0
64.892,6.496,0.422,2.0
45.977,4.61,0.038,20.0
39.846,4.003,-0.197,25.0
32.298,3.25,-0.343,9.0
26.69,2.691,-0.435,6.0
64.129,6.493,0.722,7.0
52.917,5.366,0.295,0.0
45.147,4.586,-0.004,20.0
39.259,3.994,-0.23,15.0
31.34,3.194,-0.362,9.0
25.859,2.64,-0.445,6.0
63.412,6.501,0.654,10.0
49.74,5.107,0.231,1.0
44.489,4.575,-0.046,19.0
0.0,0.0,0.0,0.0
30.357,3.132,-0.379,8.0
25.017,2.585,-0.455,10.0
62.713,6.507,0.587,8.0
47.403,4.925,0.174,5.0
42.361,4.408,-0.085,5.0
36.303,3.784,-0.283,7.0
29.418,3.071,-0.396,8.0
24.646,2.577,-0.472,6.0
62.078,6.514,0.521,9.0
46.861,4.924,0.126,21.0
39.316,4.137,-0.117,14.0
34.434,3.629,-0.302,7.0
28.383,2.996,-0.411,7.0
23.962,2.533,-0.483,5.0
61.402,6.514,0.454,7.0
46.249,4.914,0.078,20.0
38.872,4.135,-0.155,16.0
33.418,3.56,-0.327,10.0
27.39,2.922,-0.424,7.0
23.721,2.535,-0.502,4.0
60.642,6.502,0.385,0.0
45.65,4.901,0.03,20.0
38.362,4.124,-0.193,14.0
31.641,3.406,-0.342,9.0
25.945,2.796,-0.429,6.0
18.054,1.949,-0.401,14.0
60.027,6.501,0.319,1.0
44.191,4.791,-0.016,19.0
37.677,4.09,-0.229,25.0
30.807,3.349,-0.366,9.0
25.324,2.756,-0.445,6.0
17.744,1.934,-0.413,17.0
47.898,5.236,0.204,0.0
42.303,4.63,-0.06,17.0
0.0,0.0,0.0,0.0
29.574,3.245,-0.382,8.0
24.816,2.726,-0.462,5.0
17.603,1.936,-0.428,20.0
47.007,5.185,0.15,5.0
0.0,0.0,0.0,0.0
34.867,3.855,-0.286,4.0
28.64,3.17,-0.402,8.0
18.057,2.001,-0.356,8.0
17.453,1.937,-0.444,16.0
46.424,5.165,0.098,21.0
38.668,4.307,-0.139,14.0
32.677,3.643,-0.304,7.0
27.574,3.078,-0.417,7.0
17.774,1.986,-0.37,15.0
17.325,1.938,-0.46,16.0
42.866,4.808,0.043,4.0
37.391,4.198,-0.176,13.0
31.026,3.487,-0.323,3.0
26.535,2.985,-0.43,6.0
17.625,1.985,-0.386,17.0
17.139,1.933,-0.474,17.0
43.173,4.88,-0.004,14.0
36.739,4.156,-0.213,13.0
30.696,3.476,-0.354,9.0
25.85,2.93,-0.448,2.0
17.434,1.978,-0.402,17.0
16.994,1.931,-0.489,16.0
37.194,4.235,-0.046,10.0
36.014,4.104,-0.25,12.0
29.862,3.406,-0.378,8.0
18.08,2.064,-0.334,12.0
17.269,1.973,-0.418,17.0
16.86,1.929,-0.504,15.0
37.18,4.262,-0.088,9.0
35.1,4.027,-0.284,9.0
28.639,3.288,-0.396,7.0
17.805,2.046,-0.349,15.0
17.133,1.971,-0.434,16.0
16.715,1.925,-0.52,16.0
38.058,4.391,-0.135,14.0
33.217,3.835,-0.307,7.0
27.486,3.176,-0.411,7.0
17.542,2.028,-0.365,15.0
16.976,1.965,-0.45,16.0
16.625,1.926,-0.536,16.0
37.906,4.399,-0.178,5.0
32.219,3.742,-0.335,10.0
26.758,3.11,-0.431,6.0
17.32,2.014,-0.38,14.0
16.807,1.956,-0.465,15.0
16.49,1.921,-0.551,19.0
35.495,4.142,-0.208,18.0
30.673,3.582,-0.355,9.0
18.129,2.118,-0.314,12.0
17.177,2.009,-0.397,14.0
16.689,1.953,-0.481,16.0
16.395,1.92,-0.567,18.0
35.147,4.123,-0.247,11.0
29.776,3.495,-0.38,8.0
17.956,2.109,-0.332,15.0
17.063,2.005,-0.415,16.0
16.622,1.955,-0.499,15.0
16.315,1.92,-0.583,17.0
33.708,3.972,-0.277,11.0
