X,Y,Z,Reflectivity
55.207,0.903,2.063,14.0
19.672,0.319,0.618,2.0
19.702,0.318,0.505,2.0
19.717,0.316,0.39,1.0
121.376,1.943,5.713,19.0
121.389,1.929,5.005,17.0
19.661,0.31,0.696,5.0
19.671,0.308,0.579,9.0
19.716,0.306,0.466,9.0
19.719,0.304,0.351,3.0
121.482,1.869,5.476,23.0
19.752,0.301,0.775,0.0
19.643,0.297,0.656,10.0
19.67,0.295,0.54,11.0
19.694,0.293,0.426,10.0
19.722,0.291,0.312,9.0
121.608,1.791,5.241,22.0
19.656,0.287,0.732,8.0
19.652,0.284,0.618,11.0
19.672,0.282,0.501,12.0
19.69,0.28,0.387,13.0
19.73,0.278,0.274,13.0
185.485,2.603,7.628,12.0
19.637,0.273,0.693,13.0
19.642,0.27,0.578,13.0
19.68,0.268,0.463,9.0
19.707,0.266,0.349,13.0
19.755,0.264,0.235,20.0
19.666,0.261,0.77,5.0
19.647,0.258,0.654,15.0
19.651,0.256,0.54,13.0
19.673,0.253,0.424,10.0
19.708,0.251,0.31,12.0
19.749,0.249,0.196,27.0
19.653,0.246,0.73,13.0
19.649,0.243,0.616,13.0
19.668,0.24,0.502,10.0
19.695,0.238,0.386,10.0
19.723,0.236,0.272,12.0
19.758,0.233,0.157,25.0
19.645,0.23,0.692,15.0
19.656,0.227,0.578,11.0
19.685,0.225,0.464,9.0
19.715,0.222,0.348,10.0
19.762,0.22,0.234,21.0
19.756,0.217,0.119,15.0
19.659,0.213,0.654,12.0
19.704,0.211,0.541,10.0
19.732,0.208,0.427,11.0
19.733,0.205,0.31,9.0
19.73,0.202,0.195,14.0
19.672,0.199,0.08,11.0
19.693,0.196,0.617,10.0
19.699,0.194,0.503,9.0
19.682,0.19,0.388,9.0
19.668,0.187,0.271,8.0
19.667,0.184,0.156,11.0
19.647,0.18,0.042,13.0
19.641,0.178,0.577,9.0
19.62,0.175,0.463,10.0
19.648,0.172,0.349,8.0
19.647,0.169,0.233,13.0
19.651,0.165,0.119,12.0
19.646,0.162,0.004,20.0
19.608,0.159,0.539,12.0
19.621,0.156,0.425,10.0
19.628,0.153,0.311,11.0
19.647,0.15,0.196,15.0
19.638,0.146,0.081,13.0
19.639,0.143,-0.032,15.0
19.597,0.14,0.502,15.0
19.612,0.136,0.388,11.0
19.618,0.133,0.274,9.0
19.638,0.13,0.158,15.0
19.646,0.127,0.044,15.0
19.679,0.123,-0.069,9.0
19.603,0.12,0.465,18.0
19.608,0.116,0.351,13.0
19.635,0.113,0.238,11.0
19.64,0.109,0.121,13.0
19.658,0.106,0.007,11.0
19.739,0.103,-0.106,0.0
19.623,0.099,0.428,28.0
19.613,0.095,0.314,18.0
19.654,0.092,0.201,11.0
19.674,0.089,0.085,13.0
19.759,0.085,-0.028,12.0
19.763,0.082,-0.143,15.0
19.602,0.078,0.392,21.0
19.614,0.074,0.278,14.0
19.667,0.07,0.165,10.0
19.753,0.067,0.049,58.0
19.761,0.063,-0.065,58.0
19.759,0.06,-0.179,42.0
19.618,0.056,0.356,14.0
19.618,0.052,0.242,15.0
19.746,0.048,0.129,10.0
19.749,0.045,0.013,21.0
19.759,0.041,-0.101,14.0
19.759,0.037,-0.215,21.0
19.616,0.033,0.32,15.0
19.667,0.029,0.207,15.0
19.763,0.026,0.094,11.0
19.758,0.022,-0.022,66.0
19.768,0.018,-0.136,1.0
19.765,0.014,-0.251,1.0
19.632,0.01,0.286,14.0
19.767,0.006,0.173,3.0
19.776,0.002,0.058,4.0
19.753,-0.001,-0.057,4.0
19.78,-0.005,-0.172,0.0
34.941,-0.017,-0.507,0.0
19.641,-0.014,0.251,15.0
19.683,-0.018,0.137,6.0
19.704,-0.022,0.023,14.0
19.733,-0.026,-0.092,10.0
19.765,-0.03,-0.207,6.0
32.295,-0.056,-0.526,0.0
19.663,-0.038,0.217,15.0
19.704,-0.042,0.103,16.0
19.702,-0.047,-0.01,16.0
19.727,-0.051,-0.127,14.0
19.749,-0.055,-0.241,14.0
19.791,-0.059,-0.356,4.0
19.697,-0.064,0.183,17.0
19.699,-0.068,0.069,14.0
19.712,-0.072,-0.044,14.0
19.711,-0.076,-0.16,16.0
19.75,-0.081,-0.275,14.0
19.754,-0.085,-0.39,15.0
19.714,-0.089,0.149,14.0
19.712,-0.094,0.035,13.0
19.709,-0.098,-0.078,13.0
19.711,-0.102,-0.194,16.0
19.741,-0.107,-0.308,14.0
19.738,-0.111,-0.423,17.0
19.757,-0.116,0.117,8.0
19.734,-0.12,0.002,11.0
19.718,-0.124,-0.111,16.0
19.725,-0.129,-0.227,17.0
19.728,-0.134,-0.341,17.0
19.726,-0.138,-0.455,17.0
19.729,-0.142,0.084,0.0
19.805,-0.148,-0.029,5.0
19.734,-0.152,-0.143,13.0
19.734,-0.156,-0.259,15.0
19.741,-0.161,-0.373,16.0
19.747,-0.166,-0.488,14.0
0.0,0.0,0.0,0.0
19.797,-0.175,-0.061,3.0
19.77,-0.179,-0.175,9.0
19.753,-0.184,-0.291,6.0
19.763,-0.189,-0.406,8.0
25.625,-0.251,-0.674,0.0
0.0,0.0,0.0,0.0
0.0,0.0,0.0,0.0
0.0,0.0,0.0,0.0
33.145,-0.356,-0.542,0.0
28.419,-0.312,-0.629,0.0
24.844,-0.279,-0.693,0.0
0.0,0.0,0.0,0.0
0.0,0.0,0.0,0.0
0.0,0.0,0.0,0.0
31.535,-0.385,-0.565,0.0
0.0,0.0,0.0,0.0
23.908,-0.303,-0.704,0.0
0.0,0.0,0.0,0.0
0.0,0.0,0.0,0.0
0.0,0.0,0.0,0.0
30.315,-0.415,-0.59,0.0
26.151,-0.365,-0.66,0.0
23.014,-0.327,-0.713,0.0
0.0,0.0,0.0,0.0
0.0,0.0,0.0,0.0
34.097,-0.51,-0.515,0.0
29.1,-0.442,-0.61,0.0
25.415,-0.393,-0.679,0.0
22.322,-0.351,-0.725,1.0
0.0,0.0,0.0,0.0
0.0,0.0,0.0,0.0
32.489,-0.535,-0.538,0.0
27.995,-0.469,-0.628,0.0
24.622,-0.418,-0.694,0.0
21.667,-0.374,-0.736,2.0
0.0,0.0,0.0,0.0
0.0,0.0,0.0,0.0
30.473,-0.549,-0.549,0.0
27.237,-0.498,-0.65,0.0
21.742,-0.403,-0.644,3.0
21.347,-0.401,-0.755,1.0
0.0,0.0,0.0,0.0
35.488,-0.685,-0.486,0.0
30.366,-0.594,-0.59,0.0
21.731,-0.431,-0.549,152.0
21.711,-0.436,-0.674,6.0
20.621,-0.42,-0.759,0.0
0.0,0.0,0.0,0.0
33.527,-0.7,-0.505,0.0
21.724,-0.459,-0.452,2.0
21.664,-0.464,-0.577,161.0
21.704,-0.471,-0.703,8.0
20.174,-0.443,-0.77,0.0
0.0,0.0,0.0,0.0
32.345,-0.727,-0.531,0.0
21.749,-0.495,-0.482,0.0
21.731,-0.501,-0.609,150.0
21.634,-0.504,-0.73,14.0
19.719,-0.465,-0.779,0.0
0.0,0.0,0.0,0.0
31.584,-0.762,-0.56,0.0
27.569,-0.672,-0.647,0.0
23.737,-0.586,-0.696,0.0
21.36,-0.533,-0.749,0.0
17.853,-0.45,-0.729,1.0
35.423,-0.903,-0.471,0.0
30.304,-0.78,-0.576,0.0
26.501,-0.69,-0.656,0.0
23.176,-0.61,-0.709,0.0
17.804,-0.474,-0.647,152.0
17.779,-0.478,-0.748,12.0
35.055,-0.951,-0.51,0.0
29.278,-0.803,-0.594,0.0
25.749,-0.713,-0.67,0.0
17.804,-0.498,-0.567,8.0
17.758,-0.502,-0.667,156.0
17.779,-0.508,-0.77,8.0
32.804,-0.944,-0.517,0.0
28.678,-0.833,-0.616,0.0
25.118,-0.737,-0.683,0.0
17.802,-0.527,-0.588,58.0
17.752,-0.531,-0.688,155.0
17.774,-0.537,-0.791,2.0
32.204,-0.981,-0.545,0.0
27.784,-0.854,-0.629,0.0
24.485,-0.759,-0.694,0.0
17.813,-0.558,-0.609,44.0
17.795,-0.562,-0.71,11.0
17.735,-0.566,-0.81,1.0
31.72,-1.019,-0.573,0.0
27.198,-0.882,-0.647,0.0
24.017,-0.786,-0.709,0.0
21.074,-0.696,-0.744,0.0
19.278,-0.642,-0.791,0.0
17.589,-0.591,-0.823,0.0
30.045,-1.017,-0.576,3.0
26.667,-0.91,-0.664,0.0
23.12,-0.796,-0.708,0.0
20.709,-0.719,-0.754,0.0
19.003,-0.666,-0.801,0.0
17.1,-0.604,-0.819,0.0
29.575,-1.052,-0.599,0.0
25.836,-0.927,-0.671,0.0
22.718,-0.822,-0.72,0.0
20.344,-0.742,-0.763,0.0
18.522,-0.681,-0.801,0.0
16.777,-0.622,-0.821,0.0
28.1,-1.049,-0.599,0.0
25.196,-0.948,-0.681,0.0
22.39,-0.849,-0.732,0.0
19.977,-0.763,-0.77,0.0
18.089,-0.697,-0.8,0.0
16.505,-0.641,-0.825,0.0
27.915,-1.09,-0.623,0.0
24.518,-0.965,-0.687,0.0
21.803,-0.865,-0.735,0.0
19.664,-0.786,-0.777,0.0
17.775,-0.716,-0.804,0.0
16.319,-0.662,-0.831,0.0
27.75,-1.132,-0.645,0.0
24.16,-0.993,-0.699,0.0
21.252,-0.88,-0.736,0.0
19.417,-0.81,-0.785,0.0
17.596,-0.74,-0.812,0.0
16.1,-0.682,-0.835,0.0
27.445,-1.168,-0.664,0.0
23.496,-1.007,-0.702,0.0
21.072,-0.91,-0.749,0.0
19.182,-0.834,-0.793,0.0
17.34,-0.76,-0.816,0.0
15.843,-0.699,-0.836,0.0
0.0,0.0,0.0,0.0
23.212,-1.037,-0.714,0.0
20.736,-0.932,-0.756,0.0
18.869,-0.854,-0.797,0.0
17.123,-0.781,-0.821,0.0
15.606,-0.717,-0.837,0.0
0.0,0.0,0.0,0.0
22.916,-1.064,-0.724,0.0
20.5,-0.958,-0.764,0.0
18.562,-0.873,-0.799,0.0
16.9,-0.801,-0.824,0.0
15.428,-0.736,-0.84,0.0
25.302,-1.212,-0.676,0.0
22.561,-1.088,-0.731,0.0
20.209,-0.981,-0.77,0.0
18.226,-0.891,-0.8,0.0
16.671,-0.82,-0.826,0.0
15.227,-0.754,-0.841,0.0
25.145,-1.249,-0.691,0.0
22.28,-1.114,-0.739,0.0
20.007,-1.007,-0.777,0.0
18.083,-0.916,-0.807,0.0
16.437,-0.838,-0.827,0.0
15.131,-0.776,-0.847,0.0
24.666,-1.27,-0.696,0.0
21.747,-1.126,-0.737,0.0
19.709,-1.027,-0.78,0.0
17.806,-0.934,-0.807,0.0
16.326,-0.862,-0.833,0.0
14.982,-0.796,-0.849,0.0
24.305,-1.295,-0.703,0.0
21.495,-1.152,-0.743,0.0
19.591,-1.056,-0.788,0.0
17.683,-0.959,-0.813,0.0
16.05,-0.876,-0.829,0.0
14.86,-0.816,-0.852,0.0
23.789,-1.31,-0.703,0.0
21.205,-1.174,-0.747,0.0
19.292,-1.074,-0.788,0.0
17.434,-0.977,-0.813,0.0
15.933,-0.898,-0.833,0.0
14.747,-0.836,-0.855,0.0
0.0,0.0,0.0,0.0
21.009,-1.201,-0.752,0.0
19.198,-1.104,-0.796,0.0
17.306,-1.001,-0.817,0.0
15.787,-0.918,-0.835,0.0
14.636,-0.856,-0.857,0.0
23.395,-1.372,-0.719,0.0
20.707,-1.221,-0.753,0.0
18.806,-1.115,-0.79,0.0
17.205,-1.026,-0.822,0.0
15.696,-0.941,-0.838,0.0
14.512,-0.875,-0.857,0.0
22.948,-1.386,-0.717,0.0
20.686,-1.256,-0.763,0.0
18.814,-1.149,-0.8,0.0
17.009,-1.044,-0.821,0.0
15.59,-0.963,-0.841,0.0
14.423,-0.895,-0.859,0.0
22.692,-1.411,-0.72,0.0
20.613,-1.289,-0.77,0.0
18.535,-1.165,-0.797,0.0
16.953,-1.071,-0.826,0.0
15.448,-0.982,-0.84,0.0
14.339,-0.916,-0.861,0.0
22.579,-1.444,-0.727,0.0
20.315,-1.306,-0.768,0.0
18.572,-1.2,-0.807,0.0
16.828,-1.093,-0.827,0.0
15.321,-1.001,-0.84,0.0
14.168,-0.93,-0.856,0.0
22.521,-1.481,-0.734,0.0
20.145,-1.331,-0.77,0.0
18.279,-1.214,-0.801,0.0
16.735,-1.117,-0.829,0.0
15.321,-1.028,-0.846,0.0
14.164,-0.955,-0.862,0.0
22.222,-1.501,-0.732,0.0
20.099,-1.364,-0.775,0.0
18.33,-1.25,-0.81,0.0
16.634,-1.14,-0.83,0.0
15.161,-1.044,-0.842,0.0
14.122,-0.977,-0.864,0.0
22.062,-1.529,-0.734,0.0
19.982,-1.391,-0.777,0.0
18.098,-1.266,-0.805,0.0
16.516,-1.161,-0.829,0.0
15.11,-1.067,-0.843,0.0
14.062,-0.998,-0.864,0.0
21.926,-1.558,-0.735,0.0
19.9,-1.42,-0.779,0.0
18.139,-1.301,-0.812,0.0
16.503,-1.189,-0.833,0.0
15.121,-1.094,-0.848,0.0
14.023,-1.02,-0.865,0.0
21.951,-1.598,-0.742,0.0
19.84,-1.451,-0.781,0.0
18.084,-1.328,-0.813,0.0
16.39,-1.209,-0.831,0.0
15.079,-1.118,-0.849,0.0
13.968,-1.04,-0.865,0.0
21.86,-1.629,-0.743,0.0
19.875,-1.487,-0.786,0.0
17.919,-1.347,-0.809,0.0
16.466,-1.243,-0.838,0.0
15.041,-1.141,-0.849,0.0
13.903,-1.059,-0.863,0.0
21.818,-1.663,-0.745,0.0
19.833,-1.518,-0.788,0.0
17.735,-1.363,-0.804,0.0
16.473,-1.272,-0.84,0.0
14.986,-1.162,-0.848,0.0
13.958,-1.087,-0.868,0.0
21.68,-1.689,-0.743,0.0
19.781,-1.548,-0.788,0.0
17.849,-1.403,-0.811,0.0
16.319,-1.288,-0.834,0.0
14.95,-1.185,-0.848,0.0
13.943,-1.11,-0.869,0.0
21.741,-1.731,-0.746,0.0
19.885,-1.59,-0.794,0.0
17.907,-1.437,-0.814,0.0
16.357,-1.318,-0.837,0.0
14.893,-1.205,-0.845,0.0
13.913,-1.131,-0.867,0.0
21.645,-1.759,-0.744,0.0
19.684,-1.606,-0.786,0.0
0.0,0.0,0.0,0.0
16.36,-1.346,-0.837,0.0
15.079,-1.245,-0.856,0.0
13.895,-1.152,-0.866,0.0
21.782,-1.807,-0.749,0.0
19.659,-1.637,-0.785,0.0
17.663,-1.476,-0.804,0.0
16.294,-1.367,-0.834,0.0
15.036,-1.266,-0.853,0.0
13.929,-1.178,-0.868,0.0
21.778,-1.842,-0.748,0.0
19.714,-1.674,-0.786,0.0
18.05,-1.538,-0.82,0.0
16.514,-1.413,-0.844,0.0
15.103,-1.297,-0.856,0.0
13.929,-1.201,-0.867,0.0
21.84,-1.883,-0.748,0.0
19.854,-1.718,-0.79,0.0
17.732,-1.54,-0.804,0.0
16.587,-1.445,-0.846,0.0
15.087,-1.32,-0.853,0.0
13.929,-1.223,-0.865,0.0
21.864,-1.92,-0.746,0.0
19.67,-1.733,-0.78,0.0
17.72,-1.567,-0.801,0.0
16.531,-1.467,-0.841,0.0
15.132,-1.348,-0.854,0.0
14.001,-1.252,-0.868,0.0
21.93,-1.96,-0.745,0.0
19.714,-1.768,-0.779,0.0
0.0,0.0,0.0,0.0
16.527,-1.493,-0.838,0.0
15.092,-1.368,-0.849,0.0
14.075,-1.28,-0.87,0.0
21.883,-1.99,-0.74,0.0
19.896,-1.816,-0.782,0.0
17.989,-1.647,-0.807,0.0
16.587,-1.524,-0.837,0.0
15.112,-1.393,-0.846,0.0
14.088,-1.303,-0.867,0.0
22.007,-2.035,-0.739,0.0
20.035,-1.859,-0.783,0.0
17.979,-1.674,-0.802,0.0
16.676,-1.558,-0.838,0.0
15.327,-1.437,-0.855,0.0
14.089,-1.325,-0.864,0.0
22.129,-2.08,-0.737,0.0
20.168,-1.902,-0.783,0.0
17.995,-1.702,-0.798,0.0
16.594,-1.575,-0.829,0.0
15.415,-1.468,-0.855,0.0
14.128,-1.35,-0.862,0.0
22.615,-2.16,-0.746,0.0
20.251,-1.94,-0.779,0.0
18.497,-1.777,-0.814,0.0
16.737,-1.613,-0.83,0.0
15.515,-1.501,-0.855,0.0
14.273,-1.385,-0.866,0.0
22.638,-2.195,-0.739,0.0
20.277,-1.972,-0.773,0.0
18.406,-1.796,-0.803,0.0
16.885,-1.652,-0.832,0.0
15.622,-1.533,-0.856,0.0
14.35,-1.413,-0.865,0.0
22.665,-2.23,-0.731,0.0
20.36,-2.01,-0.769,0.0
18.558,-1.837,-0.803,0.0
17.105,-1.698,-0.836,1.0
15.769,-1.57,-0.857,0.0
14.461,-1.444,-0.866,0.0
22.534,-2.249,-0.718,0.0
20.656,-2.068,-0.772,0.0
19.143,-1.922,-0.82,0.0
17.06,-1.718,-0.826,0.0
15.785,-1.594,-0.851,0.0
14.496,-1.468,-0.862,0.0
23.148,-2.343,-0.727,0.0
20.832,-2.114,-0.769,0.0
18.888,-1.922,-0.801,0.0
17.228,-1.758,-0.827,0.0
15.875,-1.625,-0.849,0.0
14.665,-1.505,-0.865,0.0
23.74,-2.435,-0.735,0.0
21.046,-2.164,-0.766,0.0
19.126,-1.972,-0.801,0.0
17.396,-1.798,-0.826,0.0
15.999,-1.659,-0.847,0.0
14.72,-1.53,-0.861,0.0
23.608,-2.452,-0.719,0.0
21.207,-2.209,-0.761,0.0
19.406,-2.026,-0.803,0.0
17.653,-1.848,-0.829,0.0
16.267,-1.708,-0.853,0.0
14.931,-1.572,-0.865,0.0
24.127,-2.538,-0.721,0.0
21.596,-2.277,-0.763,0.0
19.54,-2.065,-0.798,0.0
17.774,-1.883,-0.825,0.0
16.353,-1.737,-0.848,0.0
14.986,-1.596,-0.859,0.0
23.944,-2.549,-0.702,0.0
21.835,-2.33,-0.759,0.0
19.496,-2.085,-0.784,0.0
17.875,-1.917,-0.819,0.0
16.553,-1.779,-0.849,0.0
15.14,-1.631,-0.859,0.0
24.767,-2.667,-0.711,0.0
22.35,-2.412,-0.763,0.0
19.992,-2.162,-0.792,0.0
17.886,-1.939,-0.808,0.0
16.641,-1.809,-0.843,0.0
15.241,-1.661,-0.855,0.0
25.405,-2.766,-0.713,0.0
22.483,-2.453,-0.754,0.0
19.966,-2.183,-0.778,0.0
18.373,-2.014,-0.818,0.0
16.866,-1.853,-0.843,0.0
15.485,-1.705,-0.859,0.0
25.924,-2.853,-0.711,0.0
22.804,-2.514,-0.749,0.0
19.911,-2.2,-0.762,0.0
18.773,-2.079,-0.823,0.0
16.904,-1.876,-0.833,0.0
15.606,-1.736,-0.854,0.0
26.236,-2.916,-0.701,0.0
22.851,-2.545,-0.735,0.0
20.699,-2.31,-0.778,0.0
18.963,-2.121,-0.818,0.0
16.979,-1.903,-0.825,0.0
15.852,-1.781,-0.857,0.0
26.301,-2.953,-0.683,0.0
23.042,-2.592,-0.724,0.0
20.968,-2.363,-0.773,0.0
19.089,-2.156,-0.809,0.0
17.296,-1.958,-0.827,0.0
15.943,-1.808,-0.85,0.0
0.0,0.0,0.0,0.0
23.794,-2.701,-0.73,0.0
21.18,-2.409,-0.764,0.0
19.209,-2.19,-0.8,0.0
17.542,-2.003,-0.826,0.0
16.148,-1.848,-0.848,0.0
27.288,-3.12,-0.668,0.0
24.292,-2.783,-0.726,0.0
21.642,-2.484,-0.764,0.0
19.496,-2.242,-0.796,0.0
17.668,-2.036,-0.817,0.0
16.295,-1.881,-0.842,0.0
0.0,0.0,0.0,0.0
24.514,-2.832,-0.713,0.0
21.995,-2.546,-0.758,0.0
19.987,-2.318,-0.8,0.0
17.816,-2.07,-0.81,0.0
16.626,-1.935,-0.846,0.0
28.476,-3.312,-0.65,0.0
24.94,-2.906,-0.704,0.0
22.584,-2.636,-0.76,0.0
20.139,-2.354,-0.788,0.0
18.462,-2.162,-0.823,0.0
16.773,-1.968,-0.839,0.0
0.0,0.0,0.0,0.0
25.402,-2.982,-0.695,0.0
23.052,-2.711,-0.756,0.0
20.358,-2.398,-0.779,0.0
18.719,-2.208,-0.818,0.0
17.011,-2.01,-0.836,0.0
30.057,-3.549,-0.634,0.0
26.323,-3.113,-0.697,0.0
23.252,-2.754,-0.741,0.0
20.675,-2.453,-0.773,0.0
19.022,-2.26,-0.814,0.0
17.221,-2.05,-0.83,0.0
30.427,-3.618,-0.614,0.0
26.953,-3.21,-0.689,0.0
23.698,-2.826,-0.734,0.0
21.107,-2.521,-0.77,0.0
19.103,-2.285,-0.8,0.0
17.42,-2.087,-0.824,0.0
31.279,-3.745,-0.602,0.0
27.551,-3.303,-0.679,0.0
0.0,0.0,0.0,0.0
21.417,-2.575,-0.761,0.0
0.0,0.0,0.0,0.0
17.591,-2.121,-0.815,0.0
0.0,0.0,0.0,0.0
28.1,-3.389,-0.666,0.0
24.491,-2.958,-0.712,0.0
21.869,-2.645,-0.756,0.0
19.971,-2.419,-0.798,0.0
18.015,-2.185,-0.818,0.0
32.959,-3.994,-0.572,0.0
0.0,0.0,0.0,0.0
25.236,-3.065,-0.71,0.0
22.456,-2.731,-0.755,0.0
20.358,-2.479,-0.794,0.0
18.277,-2.228,-0.812,0.0
0.0,0.0,0.0,0.0
29.389,-3.584,-0.639,0.0
0.0,0.0,0.0,0.0
23.068,-2.82,-0.753,0.0
20.667,-2.53,-0.786,0.0
18.734,-2.296,-0.813,0.0
0.0,0.0,0.0,0.0
30.381,-3.724,-0.631,0.0
26.469,-3.248,-0.692,0.0
23.204,-2.851,-0.733,0.0
21.152,-2.601,-0.782,0.0
19.247,-2.37,-0.816,0.0
0.0,0.0,0.0,0.0
31.856,-3.923,-0.628,0.0
26.806,-3.304,-0.673,0.0
0.0,0.0,0.0,0.0
21.421,-2.646,-0.771,0.0
19.33,-2.39,-0.799,0.0
0.0,0.0,0.0,0.0
32.187,-3.981,-0.601,0.0
27.79,-3.44,-0.669,0.0
24.517,-3.038,-0.725,0.0
21.75,-2.698,-0.759,0.0
19.942,-2.476,-0.804,0.0
38.661,-4.797,-0.475,0.0
32.615,-4.05,-0.575,0.0
29.227,-3.632,-0.673,0.0
24.658,-3.067,-0.703,0.0
22.13,-2.755,-0.749,0.0
20.335,-2.534,-0.798,0.0
39.691,-4.942,-0.445,0.0
0.0,0.0,0.0,0.0
29.302,-3.654,-0.643,0.0
25.967,-3.24,-0.712,0.0
23.158,-2.892,-0.759,0.0
20.699,-2.587,-0.79,0.0
42.155,-5.266,-0.428,0.0
0.0,0.0,0.0,0.0
30.247,-3.783,-0.632,0.0
26.398,-3.304,-0.695,0.0
23.487,-2.942,-0.745,0.0
20.849,-2.613,-0.773,0.0
0.0,0.0,0.0,0.0
0.0,0.0,0.0,0.0
32.127,-4.029,-0.635,0.0
0.0,0.0,0.0,0.0
24.531,-3.08,-0.751,0.0
21.32,-2.679,-0.767,0.0
45.887,-5.763,-0.365,1.0
36.928,-4.64,-0.492,0.0
32.312,-4.062,-0.604,0.0
28.017,-3.524,-0.677,0.0
24.598,-3.096,-0.726,0.0
22.187,-2.794,-0.774,0.0
46.759,-5.885,-0.321,1.0
0.0,0.0,0.0,0.0
32.825,-4.135,-0.577,0.0
28.807,-3.63,-0.663,0.0
25.143,-3.17,-0.714,0.0
22.552,-2.845,-0.761,0.0
48.27,-6.086,-0.277,0.0
40.141,-5.063,-0.445,0.0
33.889,-4.275,-0.558,0.0
29.287,-3.696,-0.642,0.0
26.379,-3.331,-0.72,0.0
22.962,-2.9,-0.749,0.0
52.01,-6.567,-0.24,0.0
0.0,0.0,0.0,0.0
0.0,0.0,0.0,0.0
30.358,-3.836,-0.631,0.0
26.452,-3.343,-0.691,0.0
23.728,-3.0,-0.747,0.0
0.0,0.0,0.0,0.0
44.66,-5.645,-0.395,0.0
0.0,0.0,0.0,0.0
30.923,-3.91,-0.608,0.0
0.0,0.0,0.0,0.0
24.381,-3.085,-0.741,0.0
0.0,0.0,0.0,0.0
45.237,-5.722,-0.349,1.0
0.0,0.0,0.0,0.0
32.473,-4.108,-0.601,0.0
28.011,-3.544,-0.669,0.0
24.696,-3.125,-0.722,0.0
0.0,0.0,0.0,0.0
47.094,-5.958,-0.31,1.0
40.227,-5.089,-0.48,0.0
33.26,-4.208,-0.578,0.0
0.0,0.0,0.0,0.0
0.0,0.0,0.0,0.0
0.0,0.0,0.0,0.0
48.194,-6.096,-0.262,0.0
0.0,0.0,0.0,0.0
33.917,-4.29,-0.551,0.0
30.025,-3.797,-0.648,0.0
26.329,-3.33,-0.71,0.0
75.051,-9.49,0.08,4.0
0.0,0.0,0.0,0.0
0.0,0.0,0.0,0.0
0.0,0.0,0.0,0.0
30.52,-3.857,-0.624,0.0
27.007,-3.413,-0.697,0.0
74.955,-9.471,0.165,9.0
0.0,0.0,0.0,0.0
44.974,-5.679,-0.382,0.0
0.0,0.0,0.0,0.0
32.405,-4.091,-0.625,0.0
0.0,0.0,0.0,0.0
75.045,-9.471,0.25,7.0
0.0,0.0,0.0,0.0
46.592,-5.876,-0.343,1.0
38.142,-4.809,-0.488,0.0
32.449,-4.09,-0.589,0.0
28.993,-3.654,-0.681,0.0
75.43,-9.504,0.339,3.0
0.0,0.0,0.0,0.0
48.288,-6.079,-0.3,1.0
40.266,-5.067,-0.469,0.0
0.0,0.0,0.0,0.0
29.33,-3.689,-0.655,0.0
78.813,-9.911,0.444,4.0
75.194,-9.452,0.022,2.0
48.682,-6.116,-0.246,0.0
0.0,0.0,0.0,0.0
0.0,0.0,0.0,0.0
29.933,-3.756,-0.635,0.0
83.338,-10.456,0.564,10.0
74.961,-9.4,0.107,11.0
0.0,0.0,0.0,0.0
0.0,0.0,0.0,0.0
0.0,0.0,0.0,0.0
32.304,-4.042,-0.649,0.0
83.353,-10.431,0.659,22.0
74.794,-9.353,0.191,5.0
0.0,0.0,0.0,0.0
45.734,-5.712,-0.376,0.0
0.0,0.0,0.0,0.0
32.222,-4.02,-0.61,0.0
83.379,-10.402,0.754,22.0
74.331,-9.266,0.274,0.0
0.0,0.0,0.0,0.0
46.575,-5.797,-0.331,1.0
38.491,-4.788,-0.479,0.0
32.849,-4.083,-0.585,0.0
83.384,-10.367,0.848,22.0
83.379,-10.357,0.402,2.0
0.0,0.0,0.0,0.0
48.089,-5.964,-0.287,1.0
0.0,0.0,0.0,0.0
0.0,0.0,0.0,0.0
83.355,-10.324,0.94,11.0
74.402,-9.206,0.441,9.0
74.417,-9.2,0.043,4.0
0.0,0.0,0.0,0.0
0.0,0.0,0.0,0.0
0.0,0.0,0.0,0.0
83.353,-10.28,1.033,28.0
83.352,-10.27,0.586,10.0
74.294,-9.145,0.125,12.0
0.0,0.0,0.0,0.0
0.0,0.0,0.0,0.0
0.0,0.0,0.0,0.0
83.379,-10.237,1.125,24.0
83.349,-10.222,0.678,13.0
74.291,-9.101,0.205,10.0
0.0,0.0,0.0,0.0
47.379,-5.793,-0.381,0.0
37.695,-4.604,-0.505,0.0
83.371,-10.185,1.214,15.0
83.339,-10.169,0.767,13.0
74.367,-9.064,0.287,5.0
0.0,0.0,0.0,0.0
47.599,-5.788,-0.331,1.0
38.466,-4.673,-0.474,0.0
83.378,-10.132,1.304,19.0
83.351,-10.115,0.857,25.0
83.38,-10.107,0.41,28.0
0.0,0.0,0.0,0.0
48.086,-5.815,-0.284,0.0
0.0,0.0,0.0,0.0
83.361,-10.072,1.391,17.0
83.376,-10.06,0.944,66.0
83.366,-10.045,0.498,50.0
76.091,-9.157,0.039,1.0
0.0,0.0,0.0,0.0
41.866,-5.026,-0.428,0.0
83.378,-10.012,1.481,24.0
83.375,-9.997,1.033,39.0
83.361,-9.981,0.584,34.0
74.946,-8.961,0.116,11.0
0.0,0.0,0.0,0.0
45.384,-5.412,-0.416,0.0
83.356,-9.943,1.566,29.0
83.378,-9.931,1.119,27.0
83.354,-9.913,0.671,13.0
74.936,-8.899,0.192,7.0
0.0,0.0,0.0,0.0
0.0,0.0,0.0,0.0
83.364,-9.875,1.651,20.0
83.394,-9.863,1.204,28.0
83.361,-9.843,0.756,12.0
83.371,-9.829,0.3,4.0
0.0,0.0,0.0,0.0
0.0,0.0,0.0,0.0
83.332,-9.799,1.734,27.0
83.384,-9.788,1.287,40.0
83.371,-9.77,0.838,66.0
83.36,-9.754,0.382,55.0
0.0,0.0,0.0,0.0
0.0,0.0,0.0,0.0
83.304,-9.72,1.816,39.0
83.374,-9.71,1.369,25.0
83.375,-9.693,0.92,55.0
83.374,-9.677,0.463,15.0
77.697,-9.003,0.014,10.0
0.0,0.0,0.0,0.0
83.307,-9.641,1.896,39.0
83.379,-9.631,1.449,25.0
83.39,-9.615,1.0,129.0
83.36,-9.594,0.543,18.0
77.682,-8.924,0.088,9.0
0.0,0.0,0.0,0.0
83.313,-9.559,1.976,32.0
83.389,-9.549,1.528,53.0
83.396,-9.531,1.078,43.0
83.375,-9.511,0.621,150.0
86.412,-9.839,0.178,1.0
0.0,0.0,0.0,0.0
83.325,-9.474,2.053,28.0
83.388,-9.462,1.605,150.0
83.374,-9.441,1.154,16.0
83.368,-9.422,0.697,24.0
86.533,-9.761,0.257,4.0
0.0,0.0,0.0,0.0
116.359,-13.104,2.972,20.0
83.384,-9.371,1.68,37.0
83.351,-9.347,1.23,19.0
83.366,-9.329,0.772,25.0
86.413,-9.651,0.334,5.0
0.0,0.0,0.0,0.0
116.297,-12.969,3.072,34.0
83.327,-9.271,1.752,33.0
83.393,-9.258,1.303,24.0
83.349,-9.233,0.844,12.0
83.333,-9.212,0.395,13.0
0.0,0.0,0.0,0.0
116.313,-12.837,3.173,44.0
83.33,-9.176,1.823,36.0
83.375,-9.16,1.373,13.0
83.376,-9.139,0.914,150.0
82.926,-9.07,0.462,14.0
0.0,0.0,0.0,0.0
116.315,-12.699,3.27,35.0
83.334,-9.076,1.893,32.0
83.325,-9.054,1.442,8.0
83.296,-9.029,0.982,44.0
83.338,-9.013,0.532,75.0
83.342,-8.993,0.082,16.0
116.307,-12.555,3.365,32.0
83.324,-8.972,1.959,44.0
83.366,-8.955,1.509,19.0
83.525,-8.949,1.052,5.0
84.147,-8.994,0.604,3.0
84.025,-8.959,0.149,0.0
116.323,-12.408,3.457,22.0
116.32,-12.376,2.827,16.0
83.325,-8.843,1.573,3.0
85.072,-9.005,1.137,3.0
85.232,-8.999,0.678,4.0
85.416,-8.996,0.217,5.0
116.297,-12.254,3.545,10.0
116.345,-12.227,2.916,17.0
86.083,-9.023,1.69,7.0
86.176,-9.008,1.216,11.0
86.228,-8.991,0.75,55.0
0.0,0.0,0.0,0.0
148.391,-15.44,4.633,19.0
116.365,-12.074,3.0,38.0
86.352,-8.935,1.757,5.0
87.163,-8.993,1.293,1.0
87.255,-8.979,0.821,2.0
100.362,-10.301,0.399,7.0
148.42,-15.241,4.737,14.0
116.333,-11.911,3.081,38.0
88.038,-8.988,1.853,2.0
88.246,-8.984,1.369,3.0
88.545,-8.989,0.894,2.0
88.939,-9.004,0.415,4.0
148.091,-14.998,4.827,20.0
116.345,-11.748,3.158,40.0
89.036,-8.964,1.934,30.0
89.049,-8.938,1.441,49.0
89.214,-8.93,0.958,21.0
90.262,-9.009,0.479,48.0
108.087,-10.791,3.593,27.0
116.361,-11.581,3.235,43.0
90.281,-8.958,2.018,74.0
90.188,-8.922,1.517,15.0
90.216,-8.897,1.026,4.0
90.316,-8.88,0.536,17.0
108.319,-10.655,3.668,11.0
116.327,-11.405,3.306,47.0
90.337,-8.829,2.075,37.0
90.344,-8.802,1.573,40.0
90.363,-8.777,1.082,44.0
90.397,-8.754,0.59,11.0
108.814,-10.54,3.749,21.0
119.083,-11.498,3.453,12.0
90.353,-8.696,2.126,50.0
90.378,-8.67,1.626,51.0
0.0,0.0,0.0,0.0
90.385,-8.615,0.64,47.0
148.24,-14.135,5.189,17.0
147.932,-14.057,4.371,19.0
90.331,-8.554,2.175,15.0
90.375,-8.529,1.674,48.0
90.382,-8.502,1.181,32.0
90.335,-8.47,0.688,28.0
148.222,-13.899,5.267,14.0
148.036,-13.832,4.451,13.0
127.538,-11.875,3.138,24.0
90.374,-8.385,1.72,47.0
90.385,-8.358,1.227,44.0
90.391,-8.33,0.734,29.0
108.234,-9.974,3.9,8.0
108.028,-9.919,3.301,17.0
127.488,-11.666,3.198,26.0
90.378,-8.241,1.763,37.0
90.392,-8.214,1.27,32.0
90.42,-8.187,0.776,38.0
108.154,-9.794,3.945,22.0
148.027,-13.355,4.59,13.0
127.512,-11.461,3.256,23.0
90.379,-8.094,1.803,43.0
90.4,-8.067,1.309,41.0
90.405,-8.038,0.815,36.0
108.054,-9.608,3.987,31.0
108.172,-9.581,3.399,7.0
114.528,-10.105,2.972,12.0
90.381,-7.944,1.841,45.0
90.381,-7.915,1.345,42.0
90.405,-7.888,0.851,33.0
108.216,-9.441,4.036,35.0
114.137,-9.918,3.631,9.0
127.509,-11.037,3.356,22.0
90.408,-7.795,1.874,39.0
90.409,-7.765,1.379,52.0
90.395,-7.733,0.883,32.0
108.608,-9.289,4.09,22.0
114.319,-9.738,3.676,15.0
114.349,-9.702,3.05,21.0
90.39,-7.638,1.905,37.0
90.399,-7.608,1.409,66.0
90.411,-7.579,0.913,45.0
108.647,-9.106,4.126,22.0
110.989,-9.263,3.604,7.0
127.489,-10.597,3.438,14.0
90.412,-7.485,1.932,102.0
90.439,-7.456,1.436,60.0
100.039,-8.213,1.039,13.0
108.948,-8.943,4.168,26.0
116.768,-9.543,3.824,5.0
114.356,-9.306,3.115,8.0
116.544,-9.444,2.523,19.0
100.076,-8.074,1.616,15.0
100.082,-8.041,1.065,15.0
109.245,-8.773,4.206,22.0
108.876,-8.706,3.592,11.0
127.49,-10.15,3.503,24.0
127.46,-10.102,2.787,14.0
100.044,-7.895,1.638,12.0
100.087,-7.865,1.087,15.0
108.412,-8.514,4.197,16.0
108.374,-8.473,3.598,21.0
127.467,-9.92,3.529,19.0
127.498,-9.878,2.813,50.0
100.075,-7.719,1.657,11.0
100.078,-7.685,1.105,14.0
107.314,-8.235,4.173,23.0
108.295,-8.271,3.613,27.0
127.72,-9.709,3.556,2.0
0.0,0.0,0.0,0.0
100.091,-7.538,1.671,10.0
100.072,-7.502,1.12,14.0
107.687,-8.067,4.203,21.0
107.997,-8.05,3.618,24.0
109.026,-8.088,3.049,15.0
0.0,0.0,0.0,0.0
100.043,-7.351,1.682,8.0
100.131,-7.322,1.131,11.0
107.549,-7.858,4.207,29.0
107.151,-7.791,3.599,21.0
109.097,-7.893,3.061,24.0
109.259,-7.867,2.45,45.0
100.091,-7.171,1.691,8.0
100.127,-7.139,1.138,10.0
107.549,-7.661,4.214,27.0
108.689,-7.702,3.657,22.0
109.048,-7.687,3.065,45.0
109.252,-7.662,2.454,45.0
100.004,-6.978,1.692,6.0
100.062,-6.948,1.14,6.0
107.918,-7.484,4.231,26.0
108.892,-7.513,3.665,20.0
109.08,-7.486,3.067,35.0
148.121,-10.111,3.328,13.0
0.0,0.0,0.0,0.0
0.0,0.0,0.0,0.0
108.076,-7.291,4.236,14.0
109.469,-7.345,3.682,20.0
116.901,-7.803,3.284,11.0
117.165,-7.777,2.629,31.0
117.41,-7.752,1.983,5.0
106.062,-6.966,1.203,15.0
109.3,-7.169,4.278,27.0
108.917,-7.103,3.657,23.0
124.967,-8.104,3.501,10.0
117.139,-7.554,2.62,32.0
125.237,-8.03,2.106,30.0
125.332,-7.991,1.411,13.0
108.653,-6.917,4.243,24.0
109.952,-6.96,3.681,22.0
117.447,-7.391,3.279,25.0
117.27,-7.338,2.609,8.0
148.527,-9.24,2.48,17.0
150.048,-9.281,1.671,4.0
109.041,-6.732,4.243,31.0
109.938,-6.747,3.666,21.0
117.274,-7.154,3.257,35.0
148.706,-9.016,3.287,15.0
148.618,-8.958,2.458,21.0
150.042,-8.99,1.646,18.0
109.4,-6.543,4.238,21.0
117.148,-6.963,3.885,18.0
117.335,-6.932,3.238,16.0
149.18,-8.758,3.27,19.0
149.286,-8.711,2.44,18.0
140.731,-8.162,1.516,17.0
109.029,-6.31,4.201,28.0
117.686,-6.768,3.877,25.0
119.742,-6.841,3.277,25.0
147.439,-8.37,3.198,18.0
140.643,-7.935,2.266,12.0
0.0,0.0,0.0,0.0
109.006,-6.096,4.173,25.0
117.035,-6.502,3.826,24.0
148.141,-8.176,4.015,3.0
140.675,-7.715,3.014,33.0
0.0,0.0,0.0,0.0
0.0,0.0,0.0,0.0
109.231,-5.897,4.15,23.0
117.176,-6.282,3.796,27.0
140.555,-7.484,3.768,20.0
0.0,0.0,0.0,0.0
0.0,0.0,0.0,0.0
101.488,-5.296,1.009,7.0
109.503,-5.698,4.125,25.0
117.596,-6.076,3.771,19.0
140.991,-7.233,3.732,29.0
0.0,0.0,0.0,0.0
0.0,0.0,0.0,0.0
101.537,-5.101,0.973,152.0
109.82,-5.499,4.096,9.0
117.486,-5.841,3.724,8.0
139.269,-6.874,3.633,17.0
0.0,0.0,0.0,0.0
101.378,-4.932,1.499,1.0
101.535,-4.904,0.934,152.0
117.175,-5.639,4.323,25.0
140.965,-6.733,4.41,10.0
150.537,-7.135,3.865,11.0
0.0,0.0,0.0,0.0
0.0,0.0,0.0,0.0
101.523,-4.703,0.889,150.0
117.528,-5.424,4.283,20.0
118.965,-5.448,3.668,8.0
142.433,-6.471,3.592,18.0
0.0,0.0,0.0,0.0
101.489,-4.539,1.41,56.0
0.0,0.0,0.0,0.0
117.362,-5.186,4.221,22.0
118.675,-5.202,3.601,19.0
142.493,-6.196,3.523,23.0
0.0,0.0,0.0,0.0
101.537,-4.342,1.36,150.0
101.47,-4.304,0.789,150.0
127.0,-5.363,4.501,10.0
118.704,-4.97,3.539,15.0
163.345,-6.78,3.952,6.0
0.0,0.0,0.0,0.0
101.587,-4.144,1.304,4.0
0.0,0.0,0.0,0.0
116.922,-4.705,4.078,23.0
141.784,-5.655,4.146,8.0
141.736,-5.602,3.346,9.0
162.235,-6.357,2.902,16.0
0.0,0.0,0.0,0.0
0.0,0.0,0.0,0.0
138.49,-5.302,4.747,14.0
141.752,-5.376,4.059,17.0
163.239,-6.135,3.756,4.0
162.172,-6.039,2.801,20.0
162.075,-5.978,1.886,21.0
160.706,-5.874,0.967,13.0
138.218,-5.021,4.649,29.0
163.176,-5.871,4.568,13.0
162.843,-5.802,3.641,4.0
162.163,-5.722,2.695,15.0
161.951,-5.657,1.778,26.0
160.759,-5.561,0.859,5.0
138.415,-4.757,4.562,15.0
163.28,-5.554,4.459,18.0
162.41,-5.468,3.519,5.0
162.264,-5.406,2.583,17.0
161.935,-5.341,1.665,21.0
0.0,0.0,0.0,0.0
138.26,-4.481,4.457,9.0
163.348,-5.239,4.344,18.0
0.0,0.0,0.0,0.0
162.038,-5.085,2.461,14.0
0.0,0.0,0.0,0.0
0.0,0.0,0.0,0.0
139.754,-4.258,4.4,14.0
163.285,-4.92,4.219,8.0
168.0,-5.005,3.39,14.0
161.876,-4.767,2.335,19.0
0.0,0.0,0.0,0.0
0.0,0.0,0.0,0.0
140.591,-4.009,4.315,14.0
163.307,-4.602,4.087,4.0
178.208,-4.963,3.453,6.0
0.0,0.0,0.0,0.0
93.346,-2.535,0.742,1.0
0.0,0.0,0.0,0.0
140.702,-3.741,4.202,11.0
163.394,-4.288,3.953,4.0
170.481,-4.417,3.159,4.0
93.261,-2.385,1.191,19.0
93.142,-2.351,0.662,4.0
0.0,0.0,0.0,0.0
163.311,-4.03,4.736,17.0
171.58,-4.176,4.003,6.0
0.0,0.0,0.0,0.0
93.145,-2.205,1.108,14.0
93.156,-2.174,0.58,4.0
0.0,0.0,0.0,0.0
163.259,-3.716,4.587,30.0
0.0,0.0,0.0,0.0
0.0,0.0,0.0,0.0
93.119,-2.028,1.023,90.0
94.035,-2.018,0.499,2.0
93.202,-1.971,-0.032,1.0
163.32,-3.412,4.438,21.0
0.0,0.0,0.0,0.0
0.0,0.0,0.0,0.0
93.126,-1.855,0.935,170.0
94.138,-1.846,0.411,1.0
0.0,0.0,0.0,0.0
163.358,-3.106,4.28,15.0
170.184,-3.181,3.493,7.0
93.172,-1.711,1.382,7.0
93.126,-1.68,0.843,162.0
0.0,0.0,0.0,0.0
0.0,0.0,0.0,0.0
171.561,-2.94,4.322,4.0
0.0,0.0,0.0,0.0
93.148,-1.536,1.287,59.0
19.748,-0.319,0.158,7.0
19.795,-0.313,0.046,0.0
0.0,0.0,0.0,0.0
0.0,0.0,0.0,0.0
0.0,0.0,0.0,0.0
19.746,-0.289,0.252,7.0
19.742,-0.283,0.137,29.0
0.0,0.0,0.0,0.0
0.0,0.0,0.0,0.0
19.778,-0.265,0.456,2.0
19.748,-0.259,0.343,9.0
19.738,-0.252,0.23,15.0
19.724,-0.246,0.116,3.0
58.987,-0.719,0.011,0.0
0.0,0.0,0.0,0.0
19.749,-0.229,0.433,11.0
19.753,-0.223,0.321,7.0
19.775,-0.217,0.208,0.0
0.0,0.0,0.0,0.0
0.0,0.0,0.0,0.0
19.791,-0.199,-0.131,0.0
19.764,-0.193,0.411,7.0
170.538,-1.618,2.576,6.0
0.0,0.0,0.0,0.0
0.0,0.0,0.0,0.0
19.795,-0.169,-0.041,2.0
19.741,-0.163,-0.154,14.0
177.242,-1.417,3.478,23.0
0.0,0.0,0.0,0.0
19.673,-0.145,0.161,0.0
19.759,-0.14,0.047,5.0
19.763,-0.134,-0.065,10.0
19.724,-0.128,-0.177,16.0
19.686,-0.122,0.362,7.0
19.697,-0.117,0.25,9.0
19.705,-0.111,0.138,12.0
19.702,-0.105,0.023,12.0
19.717,-0.099,-0.088,13.0
19.731,-0.094,-0.201,16.0
19.658,-0.088,0.337,10.0
19.673,-0.082,0.225,14.0
19.699,-0.076,0.113,15.0
19.699,-0.071,-0.001,16.0
19.71,-0.065,-0.113,15.0
19.745,-0.059,-0.226,15.0
19.64,-0.053,0.312,11.0
19.652,-0.048,0.2,13.0
19.694,-0.042,0.088,15.0
19.706,-0.037,-0.026,14.0
19.747,-0.031,-0.139,10.0
36.868,-0.048,-0.471,0.0
19.641,-0.02,0.286,14.0
19.705,-0.014,0.175,7.0
19.76,-0.009,0.062,4.0
19.747,-0.003,-0.052,6.0
19.766,0.001,-0.165,0.0
19.766,0.007,-0.278,1.0
19.623,0.012,0.26,15.0
19.748,0.018,0.149,17.0
19.741,0.023,0.035,14.0
19.753,0.029,-0.079,10.0
19.762,0.034,-0.192,15.0
19.773,0.04,-0.305,15.0
19.637,0.045,0.233,16.0
19.727,0.05,0.122,18.0
19.771,0.056,0.009,65.0
19.752,0.061,-0.106,43.0
19.783,0.067,-0.219,21.0
19.763,0.072,-0.332,10.0
19.652,0.077,0.206,13.0
19.679,0.082,0.094,13.0
19.68,0.088,-0.018,7.0
19.679,0.093,-0.133,0.0
35.656,0.178,-0.445,0.0
31.415,0.165,-0.572,0.0
19.652,0.109,0.178,16.0
19.645,0.114,0.066,12.0
19.644,0.119,-0.046,10.0
19.671,0.124,-0.161,7.0
35.491,0.234,-0.494,0.0
30.346,0.208,-0.597,0.0
19.661,0.14,0.15,15.0
19.648,0.145,0.037,17.0
19.631,0.15,-0.075,12.0
19.645,0.155,-0.189,14.0
19.664,0.16,-0.302,9.0
19.669,0.166,-0.415,15.0
19.668,0.171,0.121,12.0
19.64,0.176,0.008,14.0
19.633,0.18,-0.103,16.0
19.631,0.185,-0.218,15.0
19.649,0.191,-0.331,15.0
19.672,0.196,-0.445,23.0
19.709,0.201,0.092,10.0
19.659,0.206,-0.02,9.0
19.637,0.21,-0.133,16.0
19.626,0.215,-0.248,17.0
19.633,0.22,-0.361,16.0
19.666,0.225,-0.474,21.0
19.715,0.231,0.062,0.0
19.651,0.235,-0.05,9.0
19.643,0.24,-0.163,15.0
19.637,0.245,-0.278,16.0
19.659,0.25,-0.391,16.0
19.687,0.255,-0.505,14.0
0.0,0.0,0.0,0.0
19.706,0.265,-0.081,9.0
19.661,0.269,-0.194,12.0
19.671,0.274,-0.309,10.0
19.687,0.279,-0.423,5.0
25.042,0.361,-0.682,0.0
55.172,0.809,0.001,3.0
44.853,0.668,-0.256,1.0
19.669,0.297,-0.225,0.0
19.849,0.305,-0.343,0.0
27.542,0.43,-0.635,0.0
24.213,0.383,-0.698,0.0
52.493,0.844,-0.081,5.0
0.0,0.0,0.0,0.0
33.929,0.561,-0.443,0.0
0.0,0.0,0.0,0.0
26.642,0.453,-0.657,0.0
23.092,0.398,-0.703,0.0
47.681,0.833,-0.151,0.0
35.991,0.637,-0.321,0.0
31.236,0.56,-0.458,0.0
29.155,0.529,-0.599,0.0
25.313,0.465,-0.666,0.0
22.387,0.416,-0.718,0.0
44.697,0.842,-0.215,0.0
35.109,0.668,-0.37,3.0
29.464,0.567,-0.481,0.0
27.806,0.542,-0.617,0.0
24.578,0.484,-0.687,0.0
21.464,0.428,-0.724,2.0
41.319,0.833,-0.267,0.0
33.129,0.675,-0.405,4.0
28.622,0.589,-0.515,1.0
26.523,0.552,-0.633,7.0
23.326,0.49,-0.691,0.0
20.921,0.444,-0.741,2.0
0.0,0.0,0.0,0.0
31.43,0.68,-0.437,0.0
25.183,0.55,-0.495,0.0
24.84,0.548,-0.634,0.0
22.545,0.502,-0.705,2.0
20.327,0.457,-0.754,0.0
0.0,0.0,0.0,0.0
29.646,0.679,-0.462,3.0
25.21,0.582,-0.538,1.0
23.068,0.537,-0.628,0.0
21.872,0.514,-0.722,3.0
19.445,0.461,-0.754,0.0
33.125,0.792,-0.382,0.0
28.511,0.687,-0.493,1.0
23.777,0.577,-0.548,0.0
22.234,0.544,-0.643,1.0
20.967,0.518,-0.728,4.0
19.08,0.475,-0.772,0.0
31.484,0.789,-0.416,1.0
26.602,0.672,-0.505,1.0
23.065,0.587,-0.571,1.0
21.154,0.542,-0.648,2.0
20.584,0.532,-0.75,2.0
18.496,0.481,-0.781,0.0
29.604,0.776,-0.443,2.0
25.657,0.677,-0.532,3.0
21.764,0.578,-0.577,0.0
20.256,0.542,-0.656,1.0
19.734,0.532,-0.753,2.0
17.968,0.488,-0.79,1.0
28.503,0.779,-0.476,1.0
24.361,0.67,-0.548,0.0
20.78,0.575,-0.587,2.0
19.313,0.538,-0.659,1.0
19.285,0.541,-0.77,3.0
17.643,0.498,-0.807,0.0
26.745,0.759,-0.494,1.0
23.125,0.661,-0.561,0.0
20.315,0.584,-0.61,0.0
18.862,0.545,-0.677,0.0
18.615,0.542,-0.776,3.0
16.935,0.496,-0.804,0.0
25.572,0.752,-0.517,1.0
21.841,0.646,-0.568,1.0
19.305,0.575,-0.614,1.0
18.282,0.547,-0.689,1.0
18.227,0.549,-0.792,2.0
16.461,0.498,-0.811,0.0
24.664,0.75,-0.543,1.0
20.729,0.634,-0.576,0.0
19.092,0.587,-0.641,1.0
17.952,0.555,-0.708,1.0
17.719,0.551,-0.802,2.0
16.04,0.501,-0.819,0.0
22.954,0.72,-0.546,0.0
20.11,0.634,-0.594,0.0
18.222,0.578,-0.644,0.0
17.286,0.551,-0.713,0.0
17.09,0.547,-0.804,1.0
15.4,0.496,-0.814,0.0
21.676,0.7,-0.555,1.0
19.372,0.629,-0.608,0.0
17.493,0.57,-0.65,0.0
17.012,0.557,-0.732,0.0
16.712,0.55,-0.816,1.0
14.993,0.496,-0.819,0.0
21.31,0.707,-0.584,1.0
19.047,0.635,-0.632,1.0
17.179,0.575,-0.669,1.0
16.761,0.564,-0.752,0.0
16.172,0.546,-0.819,0.0
14.617,0.496,-0.825,0.0
20.038,0.682,-0.585,1.0
18.269,0.624,-0.639,2.0
16.957,0.582,-0.691,0.0
16.35,0.563,-0.763,0.0
15.469,0.535,-0.812,0.0
14.168,0.492,-0.826,0.0
19.689,0.686,-0.61,3.0
40.166,1.405,-1.478,2.0
16.759,0.588,-0.713,0.0
16.217,0.572,-0.786,1.0
15.002,0.531,-0.814,0.0
13.884,0.493,-0.834,0.0
18.881,0.672,-0.62,1.0
17.183,0.614,-0.664,0.0
16.547,0.593,-0.735,0.0
15.987,0.575,-0.804,1.0
14.539,0.525,-0.816,0.0
13.479,0.489,-0.835,0.0
18.321,0.665,-0.635,2.0
16.953,0.618,-0.686,0.0
16.329,0.597,-0.755,1.0
15.587,0.572,-0.813,0.0
14.23,0.524,-0.825,0.0
13.258,0.49,-0.846,0.0
17.604,0.652,-0.643,0.0
16.759,0.622,-0.709,0.0
16.195,0.603,-0.779,1.0
14.936,0.558,-0.807,0.0
13.81,0.518,-0.826,0.0
12.733,0.479,-0.836,0.0
17.22,0.649,-0.66,1.0
16.535,0.625,-0.73,0.0
15.979,0.606,-0.798,1.0
14.584,0.554,-0.814,0.0
13.406,0.511,-0.827,0.0
12.518,0.479,-0.845,0.0
16.955,0.649,-0.681,0.0
16.315,0.626,-0.75,1.0
15.652,0.603,-0.811,0.0
14.291,0.552,-0.824,0.0
13.181,0.51,-0.837,0.0
12.242,0.475,-0.849,0.0
16.742,0.65,-0.703,0.0
16.193,0.631,-0.775,1.0
15.049,0.588,-0.807,0.0
13.884,0.544,-0.827,0.0
12.857,0.505,-0.84,0.0
12.081,0.476,-0.86,0.0
16.527,0.651,-0.725,0.0
15.955,0.63,-0.792,1.0
14.768,0.584,-0.819,0.0
13.455,0.534,-0.826,0.0
12.581,0.5,-0.845,0.0
11.821,0.472,-0.863,0.0
16.3,0.65,-0.745,1.0
15.644,0.625,-0.805,0.0
14.26,0.571,-0.817,0.0
13.157,0.528,-0.832,0.0
12.36,0.497,-0.853,0.0
11.594,0.468,-0.868,0.0
16.23,0.654,-0.771,1.0
15.137,0.612,-0.807,0.0
13.839,0.56,-0.818,0.0
12.916,0.524,-0.84,0.0
12.092,0.492,-0.857,0.0
11.337,0.462,-0.869,0.0
15.988,0.651,-0.789,1.0
14.641,0.597,-0.807,0.0
13.518,0.553,-0.824,0.0
12.688,0.52,-0.848,0.0
11.834,0.486,-0.86,0.0
11.05,0.455,-0.868,0.0
15.819,0.65,-0.809,0.0
14.352,0.591,-0.818,0.0
13.168,0.543,-0.827,0.0
12.313,0.509,-0.846,0.0
11.701,0.484,-0.872,0.0
10.932,0.453,-0.878,0.0
15.132,0.626,-0.801,0.0
13.896,0.576,-0.816,0.0
12.964,0.539,-0.837,0.0
12.075,0.503,-0.851,0.0
11.38,0.474,-0.868,0.0
10.738,0.449,-0.882,0.0
14.736,0.614,-0.806,0.0
13.591,0.567,-0.823,0.0
12.7,0.531,-0.843,0.0
11.863,0.497,-0.857,0.0
11.12,0.467,-0.868,0.0
10.511,0.442,-0.882,0.0
14.417,0.604,-0.815,0.0
13.289,0.558,-0.828,0.0
12.404,0.522,-0.845,0.0
11.721,0.494,-0.868,0.0
10.939,0.461,-0.874,0.0
10.384,0.439,-0.89,0.0
13.992,0.589,-0.815,0.0
13.092,0.552,-0.839,0.0
12.188,0.515,-0.852,0.0
11.434,0.484,-0.867,0.0
10.817,0.458,-0.883,0.0
10.227,0.434,-0.895,0.0
13.629,0.576,-0.818,0.0
12.689,0.537,-0.836,0.0
11.9,0.505,-0.853,0.0
11.199,0.475,-0.869,0.0
10.6,0.451,-0.884,0.0
10.034,0.427,-0.896,0.0
13.314,0.565,-0.823,0.0
12.484,0.53,-0.844,0.0
11.775,0.501,-0.865,0.0
10.995,0.468,-0.872,0.0
10.415,0.444,-0.887,0.0
9.89,0.422,-0.9,0.0
13.088,0.556,-0.832,0.0
12.302,0.523,-0.853,0.0
11.478,0.489,-0.863,0.0
10.779,0.459,-0.874,0.0
10.258,0.438,-0.892,0.0
9.731,0.416,-0.903,0.0
12.803,0.545,-0.836,0.0
11.999,0.511,-0.853,0.0
11.253,0.48,-0.865,0.0
10.557,0.45,-0.874,0.0
10.088,0.431,-0.894,0.0
9.552,0.408,-0.903,0.0
12.519,0.533,-0.839,0.0
11.824,0.503,-0.861,0.0
11.054,0.471,-0.869,0.0
10.449,0.445,-0.883,0.0
9.932,0.424,-0.897,0.0
9.407,0.402,-0.905,0.0
12.354,0.525,-0.848,0.0
11.596,0.493,-0.864,0.0
10.859,0.462,-0.872,0.0
10.334,0.44,-0.891,0.0
9.784,0.417,-0.901,0.0
9.247,0.394,-0.905,0.0
12.068,0.512,-0.849,0.0
11.334,0.481,-0.863,0.0
10.664,0.453,-0.874,0.0
10.127,0.43,-0.89,0.0
9.623,0.409,-0.902,0.0
9.129,0.388,-0.909,0.0
11.861,0.502,-0.854,0.0
11.153,0.472,-0.868,0.0
10.542,0.446,-0.881,0.0
9.986,0.423,-0.894,0.0
9.489,0.402,-0.905,0.0
8.968,0.38,-0.908,0.0
11.741,0.495,-0.864,0.0
10.973,0.463,-0.872,0.0
10.427,0.44,-0.889,0.0
9.846,0.415,-0.898,0.0
9.361,0.395,-0.908,0.0
8.862,0.374,-0.911,0.0
11.469,0.482,-0.863,0.0
10.827,0.455,-0.877,0.0
10.245,0.43,-0.89,0.0
9.722,0.408,-0.902,0.0
9.175,0.385,-0.905,0.0
8.766,0.368,-0.915,0.0
11.224,0.469,-0.862,0.0
10.663,0.445,-0.881,0.0
10.095,0.422,-0.893,0.0
9.556,0.399,-0.902,0.0
9.067,0.379,-0.908,0.0
8.662,0.362,-0.919,0.0
11.088,0.46,-0.869,0.0
10.478,0.435,-0.882,0.0
9.98,0.414,-0.898,0.0
9.445,0.392,-0.906,0.0
8.948,0.371,-0.911,0.0
8.538,0.354,-0.919,0.0
10.899,0.449,-0.871,0.0
10.325,0.425,-0.885,0.0
9.8,0.404,-0.897,0.0
9.328,0.384,-0.909,0.0
8.85,0.364,-0.914,0.0
8.399,0.346,-0.917,0.0
10.761,0.44,-0.877,0.0
10.211,0.417,-0.891,0.0
9.669,0.395,-0.9,0.0
9.176,0.374,-0.908,0.0
8.765,0.358,-0.919,0.0
8.299,0.339,-0.918,0.0
10.639,0.431,-0.883,0.0
10.042,0.406,-0.891,0.0
9.523,0.385,-0.901,0.0
9.023,0.365,-0.907,0.0
8.623,0.348,-0.917,0.0
8.223,0.332,-0.922,0.0
10.444,0.419,-0.882,0.0
9.881,0.396,-0.891,0.0
9.429,0.378,-0.905,0.0
8.981,0.359,-0.916,0.0
8.514,0.34,-0.918,0.0
8.09,0.323,-0.919,0.0
10.344,0.41,-0.888,0.0
9.776,0.387,-0.896,0.0
9.337,0.37,-0.91,0.0
8.844,0.35,-0.914,0.0
8.398,0.332,-0.917,0.0
8.023,0.317,-0.923,0.0
10.178,0.399,-0.888,0.0
9.676,0.379,-0.9,0.0
9.149,0.358,-0.905,0.0
8.723,0.341,-0.914,0.0
8.313,0.324,-0.92,0.0
7.955,0.31,-0.926,0.0
10.082,0.39,-0.894,0.0
9.551,0.369,-0.902,0.0
9.059,0.35,-0.908,0.0
8.645,0.333,-0.918,0.0
8.24,0.317,-0.923,0.0
7.894,0.304,-0.93,0.0
9.911,0.378,-0.892,0.0
9.439,0.36,-0.904,0.0
8.946,0.34,-0.909,0.0
8.571,0.326,-0.921,0.0
8.141,0.309,-0.923,0.0
7.78,0.295,-0.927,0.0
9.859,0.37,-0.9,0.0
9.366,0.351,-0.909,0.0
8.798,0.33,-0.905,0.0
8.425,0.315,-0.917,0.0
8.032,0.3,-0.921,0.0
7.754,0.289,-0.934,0.0
9.715,0.359,-0.9,0.0
9.216,0.34,-0.907,0.0
8.742,0.322,-0.911,0.0
8.371,0.308,-0.922,0.0
7.986,0.293,-0.926,0.0
7.658,0.281,-0.932,0.0
9.608,0.349,-0.902,0.0
9.125,0.331,-0.909,0.0
8.658,0.314,-0.913,0.0
8.279,0.299,-0.922,0.0
7.914,0.286,-0.927,0.0
7.598,0.274,-0.935,0.0
9.515,0.34,-0.905,0.0
9.03,0.322,-0.911,0.0
8.605,0.306,-0.918,0.0
8.183,0.29,-0.921,0.0
7.847,0.278,-0.929,0.0
7.548,0.267,-0.938,0.0
9.394,0.329,-0.904,0.0
8.931,0.312,-0.911,0.0
8.529,0.297,-0.92,0.0
8.129,0.283,-0.925,0.0
7.787,0.27,-0.931,0.0
7.474,0.259,-0.937,0.0
9.315,0.319,-0.907,0.0
8.837,0.302,-0.912,0.0
8.422,0.287,-0.918,0.0
8.065,0.275,-0.926,0.0
7.717,0.262,-0.931,0.0
7.441,0.252,-0.941,0.0
9.231,0.31,-0.91,0.0
8.786,0.294,-0.916,0.0
8.342,0.278,-0.918,0.0
7.945,0.264,-0.922,0.0
7.671,0.255,-0.934,0.0
7.371,0.244,-0.941,0.0
9.119,0.299,-0.908,0.0
8.706,0.285,-0.917,0.0
8.283,0.27,-0.921,0.0
7.926,0.258,-0.928,0.0
7.594,0.246,-0.933,0.0
7.335,0.237,-0.944,0.0
9.054,0.29,-0.911,0.0
8.631,0.275,-0.918,0.0
8.184,0.26,-0.918,0.0
7.863,0.249,-0.928,0.0
7.55,0.239,-0.935,0.0
7.273,0.229,-0.943,0.0
8.988,0.28,-0.914,0.0
8.528,0.265,-0.916,0.0
8.176,0.253,-0.925,0.0
7.801,0.241,-0.929,0.0
7.513,0.231,-0.938,0.0
7.251,0.222,-0.948,0.0
8.916,0.27,-0.915,0.0
8.496,0.257,-0.921,0.0
8.099,0.244,-0.924,0.0
7.776,0.233,-0.933,0.0
7.446,0.222,-0.937,0.0
7.214,0.215,-0.95,0.0
8.827,0.26,-0.914,0.0
8.435,0.247,-0.922,0.0
8.026,0.235,-0.923,0.0
7.709,0.224,-0.932,0.0
7.401,0.215,-0.938,0.0
7.136,0.206,-0.946,0.0
8.773,0.251,-0.916,0.0
8.351,0.237,-0.92,0.0
7.975,0.226,-0.925,0.0
7.679,0.217,-0.936,0.0
7.358,0.207,-0.939,0.0
7.115,0.199,-0.949,0.0
8.675,0.24,-0.913,0.0
8.297,0.228,-0.921,0.0
7.945,0.218,-0.928,0.0
7.635,0.208,-0.937,0.0
7.313,0.198,-0.939,0.0
7.086,0.192,-0.951,0.0
8.65,0.231,-0.918,0.0
8.236,0.219,-0.921,0.0
7.917,0.209,-0.931,0.0
7.591,0.2,-0.937,0.0
7.28,0.191,-0.941,0.0
7.063,0.184,-0.954,0.0
8.602,0.222,-0.919,0.0
8.221,0.211,-0.925,0.0
7.889,0.201,-0.933,0.0
7.542,0.191,-0.937,0.0
7.27,0.183,-0.945,0.0
7.028,0.176,-0.954,0.0
8.54,0.212,-0.919,0.0
8.184,0.202,-0.927,0.0
7.866,0.193,-0.936,0.0
7.457,0.182,-0.931,0.0
7.239,0.175,-0.946,0.0
6.977,0.168,-0.952,0.0
8.503,0.202,-0.92,0.0
8.136,0.192,-0.927,0.0
7.781,0.183,-0.931,0.0
7.468,0.175,-0.938,0.0
7.223,0.168,-0.949,0.0
6.988,0.161,-0.958,0.0
8.451,0.193,-0.92,0.0
8.089,0.183,-0.927,0.0
7.752,0.175,-0.933,0.0
7.457,0.167,-0.941,0.0
7.177,0.16,-0.947,0.0
6.883,0.152,-0.948,0.0
8.409,0.183,-0.92,0.0
8.02,0.173,-0.924,0.0
7.709,0.166,-0.932,0.0
7.392,0.158,-0.937,0.0
7.151,0.152,-0.948,0.0
6.864,0.144,-0.949,0.0
8.385,0.174,-0.922,0.0
8.011,0.165,-0.927,0.0
7.681,0.157,-0.933,0.0
7.38,0.15,-0.939,0.0
7.127,0.143,-0.948,0.0
6.852,0.137,-0.951,0.0
8.356,0.164,-0.923,0.0
7.984,0.156,-0.928,0.0
7.689,0.149,-0.938,0.0
7.356,0.141,-0.94,0.0
7.087,0.135,-0.946,0.0
6.844,0.13,-0.953,0.0
8.299,0.155,-0.921,0.0
7.975,0.147,-0.931,0.0
7.661,0.14,-0.938,0.0
7.327,0.133,-0.94,0.0
7.091,0.128,-0.95,0.0
6.82,0.122,-0.953,0.0
8.285,0.145,-0.923,0.0
7.954,0.138,-0.931,0.0
7.615,0.131,-0.935,0.0
7.319,0.125,-0.941,0.0
7.071,0.119,-0.95,0.0
6.8,0.114,-0.953,0.0
8.249,0.136,-0.922,0.0
7.925,0.129,-0.931,0.0
7.609,0.123,-0.937,0.0
7.301,0.116,-0.942,0.0
7.05,0.111,-0.95,0.0
6.787,0.106,-0.953,0.0
8.251,0.127,-0.925,0.0
7.901,0.12,-0.931,0.0
7.606,0.114,-0.939,0.0
7.284,0.108,-0.942,0.0
7.065,0.104,-0.954,0.0
6.763,0.098,-0.952,0.0
8.227,0.117,-0.924,0.0
7.898,0.111,-0.932,0.0
7.58,0.105,-0.938,0.0
7.286,0.1,-0.944,0.0
7.035,0.095,-0.952,0.0
6.758,0.091,-0.953,0.0
8.207,0.108,-0.924,0.0
7.885,0.102,-0.933,0.0
7.554,0.097,-0.936,0.0
7.281,0.092,-0.945,0.0
7.03,0.087,-0.952,0.0
6.767,0.083,-0.955,0.0
8.2,0.099,-0.925,0.0
7.884,0.093,-0.934,0.0
7.554,0.088,-0.938,0.0
7.263,0.083,-0.944,0.0
7.012,0.079,-0.951,0.0
6.733,0.075,-0.952,0.0
8.19,0.089,-0.925,0.0
7.88,0.085,-0.935,0.0
7.558,0.08,-0.939,0.0
7.252,0.075,-0.943,0.0
7.029,0.072,-0.954,0.0
6.74,0.067,-0.953,0.0
8.199,0.08,-0.927,0.0
7.867,0.076,-0.934,0.0
7.534,0.071,-0.937,0.0
7.237,0.067,-0.942,0.0
6.99,0.063,-0.949,0.0
6.751,0.06,-0.955,0.0
8.191,0.071,-0.926,0.0
7.847,0.066,-0.932,0.0
7.548,0.063,-0.939,0.0
7.247,0.059,-0.943,0.0
6.997,0.055,-0.95,0.0
6.746,0.052,-0.955,0.0
8.198,0.062,-0.927,0.0
7.884,0.058,-0.936,0.0
7.528,0.054,-0.936,0.0
7.278,0.051,-0.947,0.0
7.011,0.047,-0.952,0.0
6.76,0.044,-0.956,0.0
8.206,0.053,-0.928,0.0
7.87,0.049,-0.934,0.0
7.561,0.045,-0.94,0.0
7.246,0.042,-0.943,0.0
7.037,0.04,-0.955,0.0
6.736,0.037,-0.953,0.0
8.231,0.043,-0.93,0.0
7.863,0.04,-0.932,0.0
7.538,0.037,-0.936,0.0
7.274,0.034,-0.945,0.0
7.021,0.032,-0.952,0.0
6.77,0.029,-0.957,0.0
8.235,0.034,-0.929,0.0
7.87,0.031,-0.932,0.0
7.566,0.028,-0.939,0.0
7.285,0.026,-0.946,0.0
6.996,0.023,-0.948,0.0
6.776,0.021,-0.956,0.0
8.242,0.025,-0.929,0.0
7.873,0.022,-0.931,0.0
7.586,0.02,-0.94,0.0
7.283,0.017,-0.944,0.0
7.021,0.015,-0.95,0.0
6.785,0.014,-0.956,0.0
8.267,0.015,-0.93,0.0
7.902,0.013,-0.933,0.0
7.562,0.011,-0.935,0.0
7.312,0.009,-0.946,0.0
7.058,0.008,-0.953,0.0
6.764,0.006,-0.951,0.0
8.273,0.006,-0.928,0.0
7.932,0.004,-0.934,0.0
7.604,0.003,-0.938,0.0
7.302,0.001,-0.942,0.0
7.076,0.0,-0.953,0.0
6.806,-0.001,-0.955,0.0
8.28,-0.002,-0.926,0.0
7.957,-0.004,-0.934,0.0
7.654,-0.005,-0.941,0.0
7.339,-0.006,-0.945,0.0
7.093,-0.007,-0.953,0.0
6.832,-0.008,-0.956,0.0
8.299,-0.011,-0.925,0.0
7.943,-0.012,-0.93,0.0
7.675,-0.014,-0.941,0.0
7.356,-0.014,-0.944,0.0
7.098,-0.015,-0.951,0.0
6.847,-0.016,-0.955,0.0
8.347,-0.021,-0.927,0.0
7.989,-0.021,-0.932,0.0
7.669,-0.022,-0.937,0.0
7.351,-0.023,-0.94,0.0
7.097,-0.023,-0.947,0.0
6.871,-0.024,-0.956,0.0
8.371,-0.03,-0.926,0.0
8.021,-0.03,-0.932,0.0
7.707,-0.031,-0.938,0.0
7.423,-0.031,-0.946,0.0
7.133,-0.031,-0.949,0.0
6.885,-0.032,-0.954,0.0
8.417,-0.039,-0.927,0.0
8.067,-0.039,-0.933,0.0
7.74,-0.039,-0.938,0.0
7.413,-0.039,-0.94,0.0
7.154,-0.039,-0.947,0.0
6.916,-0.039,-0.955,0.0
8.451,-0.049,-0.926,0.0
8.089,-0.048,-0.931,0.0
7.764,-0.048,-0.937,0.0
7.459,-0.047,-0.942,0.0
7.176,-0.047,-0.946,0.0
6.948,-0.047,-0.955,0.0
8.522,-0.058,-0.929,0.0
8.145,-0.057,-0.933,0.0
7.789,-0.056,-0.935,0.0
7.501,-0.056,-0.943,0.0
7.21,-0.055,-0.946,0.0
6.954,-0.054,-0.951,0.0
8.553,-0.067,-0.927,0.0
8.181,-0.066,-0.932,0.0
7.854,-0.065,-0.938,0.0
7.54,-0.064,-0.943,0.0
7.22,-0.062,-0.943,0.0
6.993,-0.062,-0.952,0.0
8.602,-0.077,-0.926,0.0
8.246,-0.075,-0.933,0.0
7.869,-0.073,-0.934,0.0
7.556,-0.072,-0.939,0.0
7.287,-0.071,-0.946,0.0
7.048,-0.07,-0.954,0.0
8.651,-0.086,-0.925,0.0
8.283,-0.084,-0.931,0.0
7.916,-0.082,-0.934,0.0
7.628,-0.08,-0.943,0.0
7.343,-0.079,-0.948,0.0
7.077,-0.077,-0.953,0.0
8.7,-0.095,-0.924,0.0
8.319,-0.093,-0.929,0.0
7.955,-0.09,-0.932,0.0
7.666,-0.088,-0.941,0.0
7.358,-0.086,-0.944,0.0
7.131,-0.085,-0.954,0.0
8.755,-0.105,-0.923,0.0
8.389,-0.102,-0.93,0.0
8.0,-0.099,-0.931,0.0
7.707,-0.096,-0.94,0.0
7.394,-0.094,-0.942,0.0
7.131,-0.092,-0.948,0.0
8.805,-0.114,-0.92,0.0
8.453,-0.111,-0.93,0.0
8.113,-0.108,-0.937,0.0
7.759,-0.105,-0.939,0.0
7.451,-0.102,-0.943,0.0
7.198,-0.1,-0.951,0.0
8.908,-0.124,-0.923,0.0
8.507,-0.12,-0.928,0.0
8.15,-0.116,-0.934,0.0
7.811,-0.113,-0.938,0.0
7.541,-0.11,-0.947,0.0
7.247,-0.107,-0.95,0.0
8.962,-0.133,-0.92,0.0
8.568,-0.129,-0.927,0.0
8.224,-0.125,-0.934,0.0
7.871,-0.121,-0.938,0.0
7.568,-0.118,-0.943,0.0
7.277,-0.115,-0.947,0.0
9.036,-0.142,-0.919,0.0
8.663,-0.138,-0.929,0.0
8.241,-0.133,-0.928,0.0
7.932,-0.129,-0.937,0.0
7.651,-0.126,-0.946,0.0
7.34,-0.122,-0.948,0.0
9.151,-0.152,-0.922,0.0
8.733,-0.147,-0.927,0.0
8.31,-0.141,-0.927,0.0
7.964,-0.137,-0.933,0.0
7.698,-0.134,-0.944,0.0
7.399,-0.13,-0.948,0.0
9.219,-0.161,-0.919,0.0
8.828,-0.156,-0.928,0.0
8.422,-0.151,-0.931,0.0
8.039,-0.145,-0.933,0.0
7.738,-0.141,-0.94,0.0
7.464,-0.137,-0.948,0.0
9.324,-0.171,-0.919,0.0
8.88,-0.165,-0.924,0.0
8.518,-0.16,-0.932,0.0
8.118,-0.153,-0.933,0.0
7.837,-0.15,-0.944,0.0
7.5,-0.144,-0.944,0.0
9.46,-0.182,-0.922,0.0
8.924,-0.173,-0.918,0.0
8.574,-0.168,-0.928,0.0
8.194,-0.162,-0.932,0.0
7.894,-0.157,-0.941,0.0
7.579,-0.152,-0.945,0.0
9.541,-0.191,-0.919,0.0
9.096,-0.183,-0.925,0.0
8.685,-0.177,-0.93,0.0
8.269,-0.17,-0.931,0.0
7.97,-0.165,-0.941,0.0
7.641,-0.159,-0.943,0.0
9.638,-0.2,-0.917,0.0
9.158,-0.192,-0.92,0.0
8.76,-0.185,-0.927,0.0
8.374,-0.178,-0.933,0.0
8.042,-0.172,-0.939,0.0
7.722,-0.167,-0.944,0.0
9.752,-0.21,-0.915,0.0
9.281,-0.201,-0.921,0.0
8.86,-0.194,-0.927,0.0
8.459,-0.186,-0.931,0.0
8.103,-0.18,-0.936,0.0
7.786,-0.174,-0.941,0.0
9.859,-0.22,-0.913,0.0
9.428,-0.211,-0.924,0.0
8.964,-0.202,-0.926,0.0
8.554,-0.194,-0.931,0.0
8.201,-0.188,-0.937,0.0
7.882,-0.182,-0.943,0.0
9.979,-0.229,-0.911,0.0
9.497,-0.22,-0.918,0.0
9.06,-0.211,-0.924,0.0
8.662,-0.203,-0.931,0.0
8.281,-0.195,-0.935,0.0
7.948,-0.189,-0.94,0.0
10.147,-0.24,-0.913,0.0
9.634,-0.229,-0.918,0.0
9.203,-0.22,-0.926,0.0
8.76,-0.211,-0.929,0.0
8.408,-0.204,-0.937,0.0
8.037,-0.196,-0.939,0.0
10.264,-0.249,-0.909,0.0
9.749,-0.238,-0.916,0.0
9.282,-0.228,-0.921,0.0
8.85,-0.219,-0.927,0.0
8.487,-0.211,-0.934,0.0
8.147,-0.204,-0.941,0.0
10.4,-0.259,-0.907,0.0
9.894,-0.248,-0.915,0.0
9.434,-0.237,-0.923,0.0
8.978,-0.227,-0.927,0.0
8.58,-0.218,-0.932,0.0
8.198,-0.21,-0.935,0.0
10.562,-0.269,-0.906,0.0
10.035,-0.257,-0.914,0.0
9.535,-0.245,-0.919,0.0
9.086,-0.235,-0.925,0.0
8.702,-0.226,-0.933,0.0
8.324,-0.218,-0.937,0.0
10.715,-0.279,-0.903,0.0
10.181,-0.266,-0.912,0.0
9.678,-0.254,-0.918,0.0
9.223,-0.243,-0.925,0.0
8.785,-0.233,-0.928,0.0
8.436,-0.225,-0.937,0.0
10.896,-0.289,-0.902,0.0
10.314,-0.275,-0.908,0.0
9.823,-0.263,-0.917,0.0
9.35,-0.252,-0.924,0.0
8.911,-0.241,-0.928,0.0
8.538,-0.232,-0.935,0.0
11.074,-0.299,-0.9,0.0
10.441,-0.283,-0.904,0.0
9.968,-0.272,-0.915,0.0
9.497,-0.26,-0.924,0.0
9.04,-0.249,-0.927,0.0
8.667,-0.239,-0.935,0.0
11.238,-0.309,-0.896,0.0
10.658,-0.294,-0.906,0.0
10.11,-0.28,-0.913,0.0
9.627,-0.268,-0.921,0.0
9.178,-0.256,-0.927,0.0
8.763,-0.246,-0.932,0.0
11.427,-0.319,-0.892,0.0
10.837,-0.304,-0.904,0.0
