X,Y,Z,Reflectivity
23.605,1.065,0.244,72.0
23.6,1.059,0.11,64.0
23.587,1.05,0.755,72.0
23.587,1.044,0.621,56.0
23.605,1.038,0.487,41.0
23.608,1.032,0.351,40.0
23.62,1.026,0.217,46.0
23.628,1.02,0.083,49.0
23.613,1.011,0.729,25.0
45.23,1.925,1.14,9.0
23.635,0.999,0.461,1.0
23.653,0.993,0.325,0.0
40.363,1.685,0.326,0.0
45.175,1.873,0.109,53.0
45.213,1.857,1.346,8.0
40.355,1.646,0.972,4.0
40.357,1.635,0.744,62.0
40.381,1.625,0.511,150.0
40.392,1.614,0.282,122.0
40.345,1.602,0.053,151.0
40.386,1.588,1.159,150.0
40.726,1.59,0.938,113.0
41.614,1.613,0.722,131.0
41.699,1.604,0.483,90.0
42.371,1.619,0.251,136.0
41.077,1.558,0.011,3.0
43.269,1.625,1.197,86.0
43.619,1.625,0.959,88.0
44.153,1.632,0.72,72.0
45.008,1.651,0.475,150.0
44.997,1.638,0.22,79.0
40.116,1.449,-0.03,72.0
163.344,5.838,4.351,8.0
162.289,5.752,3.403,23.0
161.994,5.697,2.481,21.0
71.105,2.48,0.68,30.0
63.854,2.209,0.249,19.0
40.127,1.377,-0.07,150.0
121.501,4.122,3.117,12.0
40.102,1.348,0.801,9.0
40.13,1.338,0.575,117.0
40.127,1.326,0.344,150.0
40.12,1.314,0.117,150.0
40.115,1.302,-0.108,150.0
40.125,1.286,0.99,150.0
40.128,1.274,0.763,150.0
40.115,1.261,0.536,146.0
40.128,1.25,0.306,116.0
40.123,1.238,0.079,150.0
40.125,1.226,-0.146,135.0
40.129,1.211,0.953,150.0
40.123,1.199,0.726,150.0
40.116,1.186,0.499,137.0
40.126,1.174,0.269,144.0
40.06,1.16,0.043,58.0
40.049,1.148,-0.182,55.0
0.0,0.0,0.0,0.0
41.922,1.171,0.721,156.0
41.922,1.159,0.484,150.0
0.0,0.0,0.0,0.0
40.144,1.085,0.007,158.0
40.019,1.069,-0.217,49.0
0.0,0.0,0.0,0.0
0.0,0.0,0.0,0.0
70.839,1.822,0.758,25.0
70.625,1.795,0.351,21.0
0.0,0.0,0.0,0.0
0.0,0.0,0.0,0.0
99.039,2.416,2.094,67.0
98.843,2.38,1.533,11.0
70.926,1.685,0.7,8.0
76.174,1.785,0.315,4.0
45.539,1.053,-0.067,0.0
40.434,0.922,-0.287,0.0
179.183,4.017,3.643,31.0
128.819,2.847,1.894,19.0
122.329,2.664,1.11,5.0
0.0,0.0,0.0,0.0
48.908,1.034,-0.11,0.0
38.724,0.806,-0.305,1.0
179.345,3.667,3.508,26.0
162.863,3.278,2.271,23.0
113.856,2.255,0.948,8.0
55.202,1.075,0.143,22.0
47.84,0.917,-0.143,0.0
39.185,0.738,-0.337,0.0
55.172,1.018,1.039,73.0
55.163,1.0,0.729,71.0
55.159,0.982,0.419,118.0
55.155,0.963,0.104,50.0
45.309,0.777,-0.168,0.0
35.986,0.605,-0.335,0.0
19.688,0.323,0.356,0.0
163.299,2.632,2.044,23.0
114.242,1.803,0.789,8.0
0.0,0.0,0.0,0.0
19.726,0.298,-0.086,0.0
19.685,0.291,-0.197,12.0
19.714,0.284,0.344,14.0
19.744,0.277,0.234,17.0
19.774,0.271,0.123,7.0
19.714,0.264,0.01,0.0
19.661,0.257,-0.099,15.0
19.65,0.25,-0.209,17.0
19.728,0.244,0.332,12.0
19.766,0.237,0.221,26.0
19.754,0.23,0.111,12.0
19.648,0.222,-0.001,10.0
19.636,0.216,-0.111,17.0
19.648,0.209,-0.221,16.0
19.701,0.202,0.319,9.0
19.672,0.195,0.209,12.0
19.655,0.189,0.099,11.0
19.627,0.182,-0.012,15.0
19.635,0.175,-0.122,14.0
19.659,0.168,-0.232,9.0
19.631,0.161,0.307,12.0
19.667,0.155,0.198,15.0
19.641,0.148,0.088,12.0
19.632,0.141,-0.023,14.0
19.687,0.135,-0.133,8.0
0.0,0.0,0.0,0.0
19.618,0.12,0.297,14.0
19.655,0.114,0.187,15.0
19.661,0.107,0.078,11.0
19.711,0.1,-0.033,5.0
19.763,0.094,-0.143,5.0
19.775,0.087,-0.254,15.0
19.613,0.079,0.287,16.0
19.659,0.073,0.178,11.0
19.747,0.066,0.069,28.0
19.751,0.059,-0.043,150.0
19.75,0.052,-0.153,16.0
19.764,0.045,-0.263,13.0
19.625,0.038,0.278,14.0
19.742,0.031,0.17,13.0
19.784,0.024,0.06,4.0
19.747,0.018,-0.051,8.0
42.743,0.023,-0.349,0.0
0.0,0.0,0.0,0.0
19.627,-0.002,0.27,14.0
19.701,-0.009,0.161,4.0
19.705,-0.016,0.052,14.0
19.715,-0.023,-0.059,10.0
19.748,-0.03,-0.169,13.0
19.76,-0.038,-0.279,7.0
19.655,-0.044,0.263,12.0
19.698,-0.051,0.154,17.0
19.703,-0.058,0.044,15.0
19.71,-0.066,-0.066,11.0
19.723,-0.073,-0.176,16.0
19.752,-0.08,-0.286,15.0
19.693,-0.086,0.257,10.0
19.713,-0.093,0.147,13.0
19.723,-0.101,0.038,11.0
19.719,-0.108,-0.073,10.0
19.727,-0.115,-0.182,17.0
19.737,-0.122,-0.292,16.0
169.59,-1.106,2.162,5.0
160.732,-1.105,1.157,17.0
19.778,-0.143,0.032,0.0
19.736,-0.15,-0.078,10.0
19.74,-0.157,-0.188,13.0
19.746,-0.164,-0.297,12.0
169.383,-1.467,2.114,17.0
160.763,-1.448,1.115,15.0
0.0,0.0,0.0,0.0
0.0,0.0,0.0,0.0
0.0,0.0,0.0,0.0
34.277,-0.358,-0.525,0.0
19.757,-0.213,0.242,5.0
19.757,-0.22,0.132,0.0
0.0,0.0,0.0,0.0
0.0,0.0,0.0,0.0
0.0,0.0,0.0,0.0
33.234,-0.418,-0.515,0.0
19.757,-0.255,0.238,24.0
19.75,-0.262,0.128,27.0
0.0,0.0,0.0,0.0
0.0,0.0,0.0,0.0
42.021,-0.603,-0.426,0.0
0.0,0.0,0.0,0.0
19.786,-0.297,0.235,1.0
19.749,-0.304,0.126,11.0
0.0,0.0,0.0,0.0
0.0,0.0,0.0,0.0
42.743,-0.705,-0.439,0.0
32.86,-0.554,-0.519,0.0
142.37,-2.443,1.678,18.0
0.0,0.0,0.0,0.0
0.0,0.0,0.0,0.0
0.0,0.0,0.0,0.0
0.0,0.0,0.0,0.0
33.525,-0.636,-0.532,0.0
142.299,-2.747,1.666,58.0
0.0,0.0,0.0,0.0
0.0,0.0,0.0,0.0
0.0,0.0,0.0,0.0
0.0,0.0,0.0,0.0
33.354,-0.705,-0.531,0.0
142.311,-3.049,1.66,38.0
0.0,0.0,0.0,0.0
0.0,0.0,0.0,0.0
0.0,0.0,0.0,0.0
0.0,0.0,0.0,0.0
0.0,0.0,0.0,0.0
142.367,-3.352,1.66,18.0
0.0,0.0,0.0,0.0
0.0,0.0,0.0,0.0
0.0,0.0,0.0,0.0
0.0,0.0,0.0,0.0
0.0,0.0,0.0,0.0
0.0,0.0,0.0,0.0
0.0,0.0,0.0,0.0
0.0,0.0,0.0,0.0
0.0,0.0,0.0,0.0
0.0,0.0,0.0,0.0
0.0,0.0,0.0,0.0
161.957,-4.499,1.905,15.0
160.675,-4.522,1.009,11.0
0.0,0.0,0.0,0.0
0.0,0.0,0.0,0.0
0.0,0.0,0.0,0.0
0.0,0.0,0.0,0.0
161.851,-4.836,1.922,16.0
160.736,-4.861,1.028,7.0
0.0,0.0,0.0,0.0
0.0,0.0,0.0,0.0
0.0,0.0,0.0,0.0
0.0,0.0,0.0,0.0
161.912,-5.179,1.947,30.0
160.721,-5.2,1.052,11.0
0.0,0.0,0.0,0.0
0.0,0.0,0.0,0.0
0.0,0.0,0.0,0.0
34.18,-1.156,-0.528,0.0
162.014,-5.518,1.977,26.0
160.722,-5.534,1.082,17.0
0.0,0.0,0.0,0.0
0.0,0.0,0.0,0.0
0.0,0.0,0.0,0.0
33.786,-1.213,-0.514,0.0
162.132,-5.858,2.014,25.0
160.693,-5.866,1.118,12.0
0.0,0.0,0.0,0.0
0.0,0.0,0.0,0.0
0.0,0.0,0.0,0.0
0.0,0.0,0.0,0.0
0.0,0.0,0.0,0.0
0.0,0.0,0.0,0.0
0.0,0.0,0.0,0.0
0.0,0.0,0.0,0.0
0.0,0.0,0.0,0.0
0.0,0.0,0.0,0.0
101.675,-4.092,1.318,4.0
101.48,-4.119,0.762,150.0
101.545,-4.16,0.209,2.0
0.0,0.0,0.0,0.0
0.0,0.0,0.0,0.0
35.451,-1.491,-0.509,0.0
101.555,-4.294,1.35,16.0
0.0,0.0,0.0,0.0
0.0,0.0,0.0,0.0
0.0,0.0,0.0,0.0
45.115,-1.973,-0.387,0.0
0.0,0.0,0.0,0.0
101.505,-4.496,1.386,5.0
101.326,-4.523,0.832,2.0
0.0,0.0,0.0,0.0
0.0,0.0,0.0,0.0
0.0,0.0,0.0,0.0
0.0,0.0,0.0,0.0
0.0,0.0,0.0,0.0
101.536,-4.737,0.875,150.0
0.0,0.0,0.0,0.0
0.0,0.0,0.0,0.0
45.507,-2.173,-0.353,0.0
0.0,0.0,0.0,0.0
101.545,-4.904,1.472,1.0
101.556,-4.941,0.92,151.0
0.0,0.0,0.0,0.0
0.0,0.0,0.0,0.0
0.0,0.0,0.0,0.0
37.735,-1.891,-0.48,0.0
0.0,0.0,0.0,0.0
101.542,-5.143,0.969,16.0
0.0,0.0,0.0,0.0
0.0,0.0,0.0,0.0
0.0,0.0,0.0,0.0
0.0,0.0,0.0,0.0
101.537,-5.306,1.571,7.0
0.0,0.0,0.0,0.0
0.0,0.0,0.0,0.0
0.0,0.0,0.0,0.0
0.0,0.0,0.0,0.0
0.0,0.0,0.0,0.0
0.0,0.0,0.0,0.0
0.0,0.0,0.0,0.0
0.0,0.0,0.0,0.0
0.0,0.0,0.0,0.0
0.0,0.0,0.0,0.0
39.497,-2.21,-0.44,0.0
140.674,-7.892,2.332,37.0
140.689,-7.94,1.572,11.0
0.0,0.0,0.0,0.0
0.0,0.0,0.0,0.0
0.0,0.0,0.0,0.0
41.797,-2.417,-0.441,0.0
149.114,-8.646,2.561,20.0
149.946,-8.743,1.765,13.0
0.0,0.0,0.0,0.0
0.0,0.0,0.0,0.0
0.0,0.0,0.0,0.0
42.609,-2.544,-0.422,0.0
148.567,-8.89,2.645,25.0
149.61,-9.002,1.857,20.0
119.602,-7.238,0.839,2.0
0.0,0.0,0.0,0.0
0.0,0.0,0.0,0.0
0.0,0.0,0.0,0.0
147.967,-9.129,2.735,20.0
148.013,-9.181,1.937,27.0
125.35,-7.816,0.965,6.0
0.0,0.0,0.0,0.0
0.0,0.0,0.0,0.0
0.0,0.0,0.0,0.0
125.219,-7.955,2.402,40.0
125.199,-7.993,1.727,28.0
125.182,-8.035,1.052,18.0
99.67,-6.431,0.291,7.0
0.0,0.0,0.0,0.0
0.0,0.0,0.0,0.0
117.375,-7.667,2.337,52.0
106.008,-6.958,1.54,2.0
0.0,0.0,0.0,0.0
99.581,-6.603,0.365,6.0
0.0,0.0,0.0,0.0
0.0,0.0,0.0,0.0
117.429,-7.878,2.427,22.0
0.0,0.0,0.0,0.0
100.045,-6.776,0.992,2.0
99.42,-6.766,0.441,9.0
0.0,0.0,0.0,0.0
0.0,0.0,0.0,0.0
109.4,-7.53,2.348,21.0
100.066,-6.919,1.609,6.0
100.103,-6.953,1.073,8.0
99.829,-6.966,0.523,12.0
0.0,0.0,0.0,0.0
50.111,-3.53,-0.274,1.0
109.275,-7.709,2.435,46.0
100.107,-7.094,1.693,8.0
100.103,-7.124,1.156,10.0
100.055,-7.153,0.609,9.0
0.0,0.0,0.0,0.0
0.0,0.0,0.0,0.0
109.369,-7.901,2.53,14.0
100.05,-7.257,1.777,5.0
100.063,-7.29,1.241,11.0
100.084,-7.323,0.694,12.0
0.0,0.0,0.0,0.0
0.0,0.0,0.0,0.0
0.0,0.0,0.0,0.0
100.001,-7.419,1.864,2.0
100.067,-7.454,1.329,10.0
100.038,-7.483,0.783,11.0
98.813,-7.421,0.244,4.0
0.0,0.0,0.0,0.0
125.704,-3.832,10.059,10.0
126.061,-3.814,9.354,14.0
118.09,-3.546,8.076,17.0
123.864,-3.693,7.742,17.0
115.698,-3.424,6.561,26.0
141.547,-4.16,7.209,7.0
126.263,-3.683,9.931,23.0
0.0,0.0,0.0,0.0
125.237,-3.597,8.394,23.0
115.83,-3.303,7.081,25.0
115.818,-3.279,6.409,9.0
117.452,-3.3,5.819,20.0
126.333,-3.52,9.76,3.0
141.916,-3.925,10.138,11.0
125.0,-3.431,8.203,24.0
115.923,-3.157,6.922,15.0
124.394,-3.362,6.708,18.0
117.377,-3.148,5.649,26.0
0.0,0.0,0.0,0.0
124.999,-3.299,8.751,15.0
115.971,-3.036,7.444,8.0
123.968,-3.221,7.225,20.0
124.344,-3.205,6.526,15.0
140.837,-3.601,6.575,14.0
0.0,0.0,0.0,0.0
125.264,-3.149,8.585,8.0
124.619,-3.107,7.815,21.0
124.317,-3.075,7.062,29.0
141.635,-3.475,7.223,10.0
140.795,-3.426,6.364,13.0
0.0,0.0,0.0,0.0
0.0,0.0,0.0,0.0
124.592,-2.953,7.624,24.0
124.702,-2.93,6.893,10.0
140.866,-3.284,6.969,7.0
192.021,-4.44,8.387,6.0
0.0,0.0,0.0,0.0
0.0,0.0,0.0,0.0
125.067,-2.813,7.459,13.0
0.0,0.0,0.0,0.0
192.556,-4.257,9.228,19.0
190.35,-4.173,8.018,7.0
0.0,0.0,0.0,0.0
0.0,0.0,0.0,0.0
141.862,-3.024,8.239,4.0
0.0,0.0,0.0,0.0
191.832,-4.018,8.892,22.0
190.327,-3.951,7.716,23.0
0.0,0.0,0.0,0.0
0.0,0.0,0.0,0.0
0.0,0.0,0.0,0.0
0.0,0.0,0.0,0.0
191.464,-3.791,8.567,21.0
190.454,-3.737,7.415,21.0
0.0,0.0,0.0,0.0
0.0,0.0,0.0,0.0
0.0,0.0,0.0,0.0
0.0,0.0,0.0,0.0
191.84,-3.581,8.265,20.0
190.835,-3.528,7.114,16.0
0.0,0.0,0.0,0.0
0.0,0.0,0.0,0.0
0.0,0.0,0.0,0.0
190.104,-3.373,8.98,12.0
189.968,-3.339,7.871,26.0
190.008,-3.308,6.768,30.0
190.034,-3.266,12.001,4.0
189.895,-3.231,10.884,7.0
190.025,-3.2,9.782,5.0
193.098,-3.219,8.794,13.0
191.397,-3.158,7.601,16.0
162.579,-2.656,5.511,17.0
0.0,0.0,0.0,0.0
0.0,0.0,0.0,0.0
0.0,0.0,0.0,0.0
193.105,-3.013,8.456,19.0
191.78,-2.961,7.28,22.0
162.594,-2.485,5.228,55.0
0.0,0.0,0.0,0.0
0.0,0.0,0.0,0.0
0.0,0.0,0.0,0.0
192.92,-2.812,8.108,20.0
191.863,-2.766,6.944,21.0
163.008,-2.325,4.951,22.0
0.0,0.0,0.0,0.0
0.0,0.0,0.0,0.0
0.0,0.0,0.0,0.0
185.951,-2.524,7.48,15.0
191.605,-2.571,6.589,18.0
163.308,-2.167,4.667,37.0
0.0,0.0,0.0,0.0
0.0,0.0,0.0,0.0
0.0,0.0,0.0,0.0
185.854,-2.344,7.14,21.0
162.577,-2.027,5.3,49.0
19.777,-0.243,0.529,6.0
0.0,0.0,0.0,0.0
0.0,0.0,0.0,0.0
0.0,0.0,0.0,0.0
185.969,-2.171,6.804,20.0
19.77,-0.228,0.608,5.0
19.763,-0.225,0.492,9.0
0.0,0.0,0.0,0.0
0.0,0.0,0.0,0.0
186.526,-2.035,7.587,7.0
19.777,-0.213,0.686,1.0
19.753,-0.209,0.57,8.0
19.754,-0.207,0.455,9.0
0.0,0.0,0.0,0.0
0.0,0.0,0.0,0.0
184.351,-1.848,7.149,8.0
19.758,-0.195,0.648,3.0
19.746,-0.192,0.533,9.0
19.751,-0.19,0.417,7.0
0.0,0.0,0.0,0.0
185.046,-1.72,7.902,10.0
19.782,-0.181,0.729,0.0
19.728,-0.178,0.61,9.0
19.758,-0.176,0.495,7.0
19.754,-0.173,0.38,0.0
0.0,0.0,0.0,0.0
184.105,-1.56,7.508,19.0
19.776,-0.165,0.691,3.0
19.751,-0.162,0.572,6.0
19.771,-0.16,0.457,2.0
177.208,-1.415,3.069,15.0
184.778,-1.441,8.255,20.0
184.038,-1.413,7.146,20.0
19.727,-0.149,0.65,2.0
19.764,-0.147,0.534,5.0
177.168,-1.297,3.753,16.0
0.0,0.0,0.0,0.0
184.53,-1.298,7.882,20.0
19.773,-0.136,0.728,2.0
19.693,-0.134,0.61,6.0
19.683,-0.131,0.493,5.0
19.686,-0.129,0.378,2.0
19.713,-0.127,0.263,3.0
184.387,-1.161,7.508,15.0
19.673,-0.121,0.685,7.0
19.651,-0.119,0.569,9.0
19.658,-0.117,0.453,9.0
19.685,-0.115,0.338,8.0
19.709,-0.113,0.224,13.0
19.711,-0.11,0.763,6.0
19.658,-0.108,0.646,12.0
19.64,-0.106,0.53,10.0
19.642,-0.104,0.414,9.0
19.663,-0.102,0.299,9.0
19.714,-0.1,0.185,15.0
19.68,-0.097,0.722,10.0
19.647,-0.095,0.606,12.0
19.651,-0.093,0.491,10.0
19.649,-0.091,0.374,9.0
19.666,-0.089,0.26,10.0
19.709,-0.087,0.145,14.0
19.656,-0.084,0.681,12.0
19.643,-0.082,0.565,11.0
19.637,-0.081,0.451,10.0
19.64,-0.079,0.334,9.0
19.672,-0.077,0.219,13.0
19.698,-0.075,0.104,15.0
19.647,-0.073,0.64,13.0
19.636,-0.071,0.525,11.0
19.63,-0.069,0.41,10.0
19.639,-0.067,0.294,9.0
19.689,-0.066,0.179,15.0
19.704,-0.064,0.064,14.0
19.64,-0.062,0.6,13.0
19.631,-0.06,0.485,11.0
19.624,-0.058,0.37,9.0
19.641,-0.057,0.253,10.0
19.698,-0.055,0.139,17.0
19.695,-0.054,0.023,16.0
19.627,-0.051,0.559,13.0
19.628,-0.05,0.444,12.0
19.625,-0.048,0.329,9.0
19.639,-0.047,0.212,14.0
19.687,-0.045,0.098,16.0
19.713,-0.044,-0.016,16.0
19.63,-0.042,0.518,13.0
19.625,-0.04,0.403,12.0
19.628,-0.039,0.288,10.0
19.664,-0.038,0.172,9.0
19.702,-0.036,0.057,14.0
19.725,-0.035,-0.057,11.0
19.627,-0.033,0.477,14.0
19.626,-0.032,0.362,12.0
19.626,-0.03,0.247,13.0
19.681,-0.029,0.131,9.0
19.714,-0.028,0.016,14.0
19.749,-0.027,-0.099,9.0
19.636,-0.025,0.436,14.0
19.629,-0.024,0.321,12.0
19.635,-0.022,0.206,13.0
19.685,-0.021,0.089,10.0
19.719,-0.02,-0.025,12.0
19.761,-0.019,-0.141,2.0
19.623,-0.017,0.394,14.0
19.634,-0.016,0.279,13.0
19.747,-0.015,0.165,3.0
19.724,-0.014,0.047,9.0
19.75,-0.013,-0.067,4.0
42.009,-0.026,-0.389,0.0
19.625,-0.011,0.352,13.0
19.634,-0.01,0.237,15.0
19.705,-0.009,0.123,1.0
19.727,-0.008,0.006,10.0
19.767,-0.007,-0.109,1.0
0.0,0.0,0.0,0.0
19.631,-0.005,0.31,14.0
19.654,-0.004,0.196,11.0
19.786,-0.003,0.081,3.0
19.739,-0.002,-0.036,8.0
19.688,-0.001,-0.151,0.0
19.718,0.0,-0.267,0.0
19.633,0.0,0.268,16.0
19.804,0.0,0.155,1.0
19.747,0.001,0.039,6.0
19.745,0.002,-0.078,0.0
19.793,0.003,-0.194,0.0
19.774,0.003,-0.31,0.0
19.638,0.004,0.226,16.0
19.756,0.005,0.112,6.0
19.748,0.006,-0.003,9.0
19.762,0.006,-0.12,0.0
19.796,0.007,-0.236,0.0
19.792,0.007,-0.352,1.0
19.724,0.008,0.186,5.0
19.794,0.009,0.07,3.0
19.738,0.009,-0.045,151.0
19.776,0.01,-0.163,1.0
19.772,0.01,-0.278,2.0
19.775,0.011,-0.394,2.0
19.766,0.011,0.144,4.0
19.763,0.011,0.028,6.0
19.782,0.012,-0.087,1.0
19.771,0.012,-0.205,2.0
19.785,0.013,-0.321,2.0
19.786,0.013,-0.437,2.0
19.771,0.013,0.101,7.0
19.735,0.014,-0.013,18.0
19.763,0.014,-0.129,2.0
19.778,0.014,-0.247,2.0
19.787,0.015,-0.363,2.0
19.772,0.015,-0.479,2.0
19.792,0.015,0.059,4.0
19.729,0.015,-0.055,16.0
19.764,0.015,-0.171,2.0
19.77,0.016,-0.289,3.0
19.768,0.016,-0.405,7.0
19.767,0.016,-0.521,7.0
19.752,0.016,0.017,26.0
19.763,0.016,-0.098,2.0
19.768,0.016,-0.214,2.0
19.776,0.016,-0.332,2.0
19.782,0.016,-0.447,3.0
19.762,0.016,-0.563,7.0
19.768,0.016,-0.024,82.0
19.753,0.016,-0.14,4.0
19.769,0.016,-0.256,2.0
19.753,0.016,-0.373,2.0
19.773,0.016,-0.49,4.0
19.791,0.016,-0.606,5.0
19.758,0.015,-0.067,4.0
19.776,0.015,-0.183,2.0
19.783,0.015,-0.299,3.0
19.768,0.015,-0.416,3.0
19.772,0.015,-0.532,7.0
19.777,0.015,-0.648,1.0
19.775,0.014,-0.109,1.0
19.785,0.014,-0.225,2.0
19.781,0.014,-0.341,1.0
19.776,0.013,-0.458,2.0
19.777,0.013,-0.574,2.0
0.0,0.0,0.0,0.0
19.78,0.012,-0.151,1.0
19.779,0.011,-0.267,1.0
19.777,0.011,-0.382,2.0
19.763,0.011,-0.5,2.0
19.793,0.011,-0.617,2.0
19.811,0.01,-0.734,2.0
19.772,0.009,-0.193,1.0
19.781,0.008,-0.309,1.0
19.791,0.008,-0.425,1.0
19.774,0.008,-0.543,1.0
19.868,0.007,-0.662,0.0
19.727,0.007,-0.773,2.0
19.765,0.005,-0.235,0.0
19.786,0.005,-0.351,0.0
19.811,0.004,-0.467,1.0
19.8,0.004,-0.585,0.0
20.669,0.003,-0.732,0.0
18.997,0.003,-0.784,0.0
19.749,0.001,-0.277,0.0
29.704,0.001,-0.59,0.0
19.744,0.0,-0.508,0.0
22.537,0.0,-0.714,0.0
19.788,0.0,-0.743,2.0
18.396,-0.001,-0.798,0.0
33.045,-0.006,-0.533,0.0
28.361,-0.006,-0.623,0.0
24.378,-0.006,-0.678,0.0
0.0,0.0,0.0,0.0
19.634,-0.006,-0.778,1.0
17.581,-0.006,-0.8,0.0
30.517,-0.014,-0.555,0.0
26.463,-0.013,-0.636,0.0
23.34,-0.013,-0.697,0.0
20.509,-0.012,-0.735,0.0
18.865,-0.012,-0.787,0.0
17.042,-0.011,-0.811,0.0
29.349,-0.023,-0.595,0.0
25.454,-0.021,-0.665,0.0
22.365,-0.02,-0.715,0.0
19.75,-0.018,-0.749,2.0
18.226,-0.018,-0.798,0.0
16.41,-0.017,-0.814,0.0
28.029,-0.033,-0.625,0.0
24.234,-0.029,-0.682,0.0
21.283,-0.027,-0.724,0.0
19.468,-0.025,-0.778,1.0
17.524,-0.024,-0.803,0.0
15.875,-0.022,-0.821,0.0
26.372,-0.041,-0.642,0.0
23.19,-0.037,-0.7,0.0
19.995,-0.033,-0.721,0.0
18.672,-0.032,-0.784,0.0
16.939,-0.03,-0.811,0.0
15.46,-0.028,-0.831,0.0
25.332,-0.051,-0.668,0.0
22.273,-0.046,-0.717,0.0
19.717,-0.042,-0.751,2.0
18.095,-0.039,-0.797,0.0
16.241,-0.036,-0.81,0.0
14.974,-0.034,-0.835,0.0
24.185,-0.06,-0.687,0.0
21.126,-0.053,-0.723,0.0
19.414,-0.05,-0.778,0.0
17.449,-0.046,-0.803,0.0
15.843,-0.043,-0.822,0.0
14.592,-0.041,-0.843,0.0
23.043,-0.068,-0.7,0.0
20.019,-0.061,-0.725,0.0
18.726,-0.058,-0.788,0.0
16.875,-0.054,-0.811,0.0
15.406,-0.05,-0.83,0.0
14.109,-0.047,-0.843,0.0
22.242,-0.078,-0.72,0.0
19.72,-0.071,-0.753,3.0
18.1,-0.066,-0.797,0.0
16.309,-0.061,-0.815,0.0
14.979,-0.057,-0.837,0.0
13.767,-0.053,-0.85,0.0
19.786,-0.081,-0.679,2.0
19.373,-0.081,-0.778,0.0
17.409,-0.074,-0.801,0.0
15.74,-0.068,-0.818,0.0
14.523,-0.064,-0.84,0.0
13.405,-0.06,-0.854,0.0
19.759,-0.093,-0.716,8.0
18.653,-0.089,-0.785,0.0
16.634,-0.081,-0.797,0.0
15.371,-0.076,-0.828,0.0
14.104,-0.071,-0.843,0.0
13.123,-0.067,-0.861,0.0
19.709,-0.105,-0.752,5.0
18.133,-0.098,-0.798,0.0
16.32,-0.09,-0.814,0.0
14.969,-0.084,-0.835,0.0
13.717,-0.078,-0.846,0.0
12.851,-0.074,-0.867,0.0
19.457,-0.117,-0.779,1.0
17.106,-0.104,-0.785,0.0
15.792,-0.098,-0.817,0.0
14.583,-0.092,-0.841,0.0
13.439,-0.086,-0.854,0.0
12.556,-0.081,-0.871,0.0
18.644,-0.125,-0.782,0.0
16.725,-0.114,-0.799,0.0
15.462,-0.107,-0.829,0.0
14.121,-0.099,-0.841,0.0
13.142,-0.093,-0.859,0.0
12.322,-0.089,-0.878,0.0
18.141,-0.135,-0.794,0.0
16.364,-0.123,-0.811,0.0
15.048,-0.115,-0.834,0.0
13.773,-0.107,-0.845,0.0
12.873,-0.101,-0.865,0.0
12.022,-0.096,-0.879,0.0
17.548,-0.144,-0.8,0.0
15.832,-0.132,-0.814,0.0
14.724,-0.124,-0.843,0.0
13.476,-0.115,-0.852,0.0
12.575,-0.109,-0.868,0.0
11.79,-0.103,-0.883,0.0
17.089,-0.154,-0.809,0.0
15.503,-0.141,-0.825,0.0
14.243,-0.131,-0.841,0.0
13.222,-0.123,-0.859,0.0
12.319,-0.116,-0.872,0.0
11.578,-0.111,-0.888,0.0
16.49,-0.162,-0.81,0.0
15.092,-0.15,-0.829,0.0
13.831,-0.139,-0.841,0.0
12.919,-0.131,-0.862,0.0
12.069,-0.124,-0.876,0.0
11.366,-0.118,-0.891,0.0
16.038,-0.171,-0.816,0.0
14.784,-0.16,-0.838,0.0
13.604,-0.149,-0.851,0.0
12.644,-0.14,-0.865,0.0
11.881,-0.133,-0.883,0.0
11.149,-0.126,-0.894,0.0
15.644,-0.181,-0.822,0.0
14.393,-0.168,-0.84,0.0
13.315,-0.157,-0.855,0.0
12.379,-0.148,-0.868,0.0
11.617,-0.14,-0.883,0.0
10.939,-0.134,-0.895,0.0
15.263,-0.19,-0.828,0.0
14.042,-0.177,-0.843,0.0
13.05,-0.166,-0.86,0.0
12.185,-0.157,-0.875,0.0
11.437,-0.149,-0.888,0.0
10.768,-0.141,-0.899,0.0
14.898,-0.199,-0.833,0.0
13.733,-0.186,-0.847,0.0
12.772,-0.175,-0.862,0.0
11.977,-0.165,-0.88,0.0
11.262,-0.157,-0.893,0.0
10.599,-0.149,-0.902,0.0
14.625,-0.21,-0.841,0.0
13.477,-0.195,-0.853,0.0
12.553,-0.184,-0.868,0.0
11.719,-0.173,-0.88,0.0
11.044,-0.165,-0.893,0.0
10.403,-0.157,-0.902,0.0
14.224,-0.218,-0.84,0.0
13.193,-0.204,-0.856,0.0
12.324,-0.193,-0.871,0.0
11.552,-0.182,-0.885,0.0
10.876,-0.173,-0.897,0.0
10.264,-0.165,-0.907,0.0
13.889,-0.227,-0.842,0.0
12.949,-0.214,-0.86,0.0
12.129,-0.202,-0.876,0.0
11.353,-0.191,-0.888,0.0
10.725,-0.182,-0.901,0.0
10.107,-0.173,-0.908,0.0
13.595,-0.236,-0.845,0.0
12.788,-0.224,-0.869,0.0
11.925,-0.211,-0.88,0.0
11.205,-0.2,-0.893,0.0
10.545,-0.19,-0.902,0.0
9.969,-0.181,-0.911,0.0
13.39,-0.247,-0.852,0.0
12.468,-0.232,-0.866,0.0
11.747,-0.22,-0.884,0.0
10.997,-0.208,-0.893,0.0
10.4,-0.198,-0.905,0.0
9.824,-0.189,-0.912,0.0
13.161,-0.257,-0.856,0.0
12.295,-0.242,-0.871,0.0
11.573,-0.23,-0.887,0.0
10.874,-0.218,-0.898,0.0
10.23,-0.206,-0.905,0.0
9.716,-0.198,-0.916,0.0
12.886,-0.266,-0.857,0.0
12.066,-0.251,-0.872,0.0
11.346,-0.238,-0.886,0.0
10.712,-0.226,-0.9,0.0
10.12,-0.215,-0.909,0.0
9.552,-0.205,-0.914,0.0
12.743,-0.277,-0.865,0.0
11.906,-0.261,-0.877,0.0
11.2,-0.247,-0.89,0.0
10.563,-0.235,-0.902,0.0
9.99,-0.224,-0.911,0.0
9.43,-0.213,-0.915,0.0
12.517,-0.286,-0.866,0.0
11.769,-0.271,-0.883,0.0
11.063,-0.257,-0.894,0.0
10.415,-0.244,-0.903,0.0
9.84,-0.232,-0.91,0.0
9.329,-0.222,-0.917,0.0
12.339,-0.296,-0.87,0.0
11.599,-0.281,-0.885,0.0
10.906,-0.266,-0.895,0.0
10.28,-0.253,-0.904,0.0
9.734,-0.241,-0.913,0.0
9.276,-0.231,-0.924,0.0
12.175,-0.307,-0.874,0.0
11.443,-0.29,-0.887,0.0
10.777,-0.276,-0.898,0.0
10.176,-0.262,-0.908,0.0
9.635,-0.25,-0.916,0.0
9.138,-0.239,-0.922,0.0
12.02,-0.317,-0.877,0.0
11.294,-0.3,-0.89,0.0
10.642,-0.285,-0.9,0.0
10.051,-0.271,-0.909,0.0
9.495,-0.258,-0.914,0.0
9.042,-0.248,-0.923,0.0
11.827,-0.327,-0.877,0.0
11.175,-0.311,-0.894,0.0
10.513,-0.294,-0.901,0.0
9.951,-0.281,-0.912,0.0
9.359,-0.266,-0.912,0.0
8.954,-0.256,-0.925,0.0
11.715,-0.338,-0.883,0.0
11.028,-0.32,-0.894,0.0
10.426,-0.305,-0.906,0.0
9.832,-0.289,-0.912,0.0
9.33,-0.277,-0.92,0.0
8.882,-0.265,-0.927,0.0
11.576,-0.348,-0.885,0.0
10.921,-0.331,-0.898,0.0
10.302,-0.314,-0.906,0.0
9.718,-0.298,-0.912,0.0
9.261,-0.286,-0.923,0.0
8.807,-0.274,-0.929,0.0
11.441,-0.359,-0.887,0.0
10.782,-0.34,-0.898,0.0
10.191,-0.324,-0.907,0.0
9.638,-0.308,-0.915,0.0
9.174,-0.295,-0.924,0.0
8.704,-0.282,-0.927,0.0
11.361,-0.371,-0.892,0.0
10.644,-0.349,-0.897,0.0
10.087,-0.333,-0.908,0.0
9.52,-0.316,-0.913,0.0
9.048,-0.303,-0.92,0.0
8.629,-0.291,-0.928,0.0
11.213,-0.38,-0.892,0.0
10.595,-0.361,-0.903,0.0
9.987,-0.343,-0.909,0.0
9.466,-0.327,-0.917,0.0
8.98,-0.312,-0.922,0.0
8.57,-0.3,-0.93,0.0
11.079,-0.39,-0.891,0.0
10.473,-0.371,-0.903,0.0
9.919,-0.353,-0.912,0.0
9.367,-0.336,-0.916,0.0
8.92,-0.322,-0.924,0.0
8.51,-0.309,-0.931,0.0
10.981,-0.401,-0.893,0.0
10.375,-0.381,-0.904,0.0
9.825,-0.363,-0.912,0.0
9.305,-0.345,-0.919,0.0
8.839,-0.33,-0.924,0.0
8.427,-0.317,-0.929,0.0
10.883,-0.411,-0.895,0.0
10.306,-0.392,-0.906,0.0
9.742,-0.372,-0.913,0.0
9.25,-0.356,-0.921,0.0
8.779,-0.34,-0.925,0.0
8.408,-0.327,-0.934,0.0
10.843,-0.424,-0.9,0.0
10.216,-0.402,-0.907,0.0
9.695,-0.383,-0.916,0.0
9.155,-0.364,-0.919,0.0
8.739,-0.35,-0.927,0.0
8.325,-0.335,-0.932,0.0
10.723,-0.433,-0.899,0.0
10.156,-0.413,-0.909,0.0
9.579,-0.391,-0.913,0.0
9.098,-0.374,-0.92,0.0
8.689,-0.359,-0.929,0.0
8.294,-0.345,-0.934,0.0
10.592,-0.442,-0.895,0.0
10.067,-0.422,-0.909,0.0
9.525,-0.402,-0.914,0.0
9.052,-0.384,-0.922,0.0
8.643,-0.369,-0.93,0.0
8.231,-0.353,-0.933,0.0
10.551,-0.454,-0.899,0.0
10.006,-0.433,-0.91,0.0
9.503,-0.414,-0.919,0.0
8.982,-0.393,-0.921,0.0
8.607,-0.379,-0.932,0.0
8.184,-0.362,-0.933,0.0
10.513,-0.467,-0.903,0.0
9.97,-0.445,-0.913,0.0
9.437,-0.424,-0.918,0.0
8.954,-0.404,-0.923,0.0
8.515,-0.386,-0.927,0.0
8.153,-0.372,-0.934,0.0
10.483,-0.479,-0.906,0.0
9.898,-0.455,-0.912,0.0
9.381,-0.433,-0.918,0.0
8.938,-0.415,-0.927,0.0
8.495,-0.397,-0.93,0.0
8.103,-0.38,-0.933,0.0
10.39,-0.489,-0.904,0.0
9.845,-0.466,-0.913,0.0
9.344,-0.444,-0.919,0.0
8.851,-0.423,-0.922,0.0
8.48,-0.407,-0.932,0.0
8.075,-0.39,-0.934,0.0
10.36,-0.501,-0.907,0.0
9.841,-0.479,-0.917,0.0
9.305,-0.455,-0.92,0.0
8.846,-0.435,-0.926,0.0
8.452,-0.417,-0.933,0.0
8.09,-0.401,-0.94,0.0
10.288,-0.512,-0.905,0.0
9.79,-0.489,-0.917,0.0
9.255,-0.465,-0.919,0.0
8.799,-0.444,-0.925,0.0
8.418,-0.427,-0.933,0.0
8.013,-0.408,-0.934,0.0
10.277,-0.525,-0.908,0.0
9.744,-0.5,-0.916,0.0
9.24,-0.476,-0.922,0.0
8.753,-0.453,-0.924,0.0
8.386,-0.436,-0.933,0.0
8.02,-0.419,-0.938,0.0
10.23,-0.536,-0.908,0.0
9.673,-0.509,-0.913,0.0
9.19,-0.486,-0.92,0.0
8.747,-0.465,-0.926,0.0
8.378,-0.447,-0.935,0.0
8.006,-0.43,-0.939,0.0
10.184,-0.547,-0.907,0.0
9.646,-0.521,-0.914,0.0
9.188,-0.498,-0.923,0.0
8.715,-0.475,-0.926,0.0
8.388,-0.459,-0.939,0.0
7.979,-0.439,-0.938,0.0
10.186,-0.561,-0.91,0.0
9.623,-0.532,-0.914,0.0
9.169,-0.509,-0.923,0.0
8.704,-0.486,-0.927,0.0
8.342,-0.467,-0.936,0.0
7.978,-0.449,-0.94,0.0
10.162,-0.573,-0.911,0.0
9.634,-0.545,-0.918,0.0
9.127,-0.519,-0.921,0.0
8.69,-0.496,-0.927,0.0
8.348,-0.479,-0.938,0.0
7.974,-0.459,-0.941,0.0
10.127,-0.584,-0.909,0.0
9.593,-0.556,-0.916,0.0
9.126,-0.531,-0.923,0.0
8.65,-0.505,-0.924,0.0
8.313,-0.488,-0.935,0.0
7.94,-0.468,-0.939,0.0
10.12,-0.597,-0.91,0.0
9.583,-0.567,-0.916,0.0
9.114,-0.542,-0.923,0.0
8.67,-0.518,-0.928,0.0
8.314,-0.499,-0.937,0.0
7.939,-0.478,-0.939,0.0
10.107,-0.609,-0.91,0.0
9.59,-0.58,-0.918,0.0
9.13,-0.555,-0.925,0.0
8.676,-0.529,-0.929,0.0
8.307,-0.509,-0.936,0.0
7.958,-0.489,-0.942,0.0
10.084,-0.62,-0.909,0.0
9.574,-0.591,-0.917,0.0
9.111,-0.565,-0.924,0.0
8.685,-0.541,-0.93,0.0
8.272,-0.517,-0.933,0.0
7.941,-0.499,-0.94,0.0
10.063,-0.632,-0.907,0.0
9.552,-0.602,-0.914,0.0
9.103,-0.576,-0.923,0.0
8.698,-0.553,-0.932,0.0
8.316,-0.531,-0.938,0.0
7.941,-0.509,-0.94,0.0
10.033,-0.643,-0.904,0.0
9.576,-0.616,-0.916,0.0
9.118,-0.588,-0.924,0.0
8.693,-0.563,-0.931,0.0
8.329,-0.542,-0.939,0.0
7.936,-0.518,-0.939,0.0
10.107,-0.66,-0.91,0.0
9.585,-0.628,-0.917,0.0
9.136,-0.601,-0.925,0.0
8.721,-0.576,-0.933,0.0
8.307,-0.551,-0.935,0.0
7.984,-0.531,-0.944,0.0
10.098,-0.672,-0.908,0.0
9.572,-0.639,-0.914,0.0
9.129,-0.612,-0.923,0.0
8.722,-0.586,-0.932,0.0
8.349,-0.563,-0.939,0.0
7.905,-0.536,-0.933,0.0
10.11,-0.685,-0.907,0.0
9.594,-0.652,-0.915,0.0
9.144,-0.624,-0.923,0.0
8.71,-0.596,-0.929,0.0
8.368,-0.575,-0.939,0.0
7.932,-0.547,-0.935,0.0
10.124,-0.697,-0.907,0.0
9.609,-0.664,-0.914,0.0
9.161,-0.636,-0.923,0.0
8.751,-0.609,-0.931,0.0
8.331,-0.582,-0.933,0.0
7.991,-0.56,-0.94,0.0
10.185,-0.714,-0.91,0.0
9.466,-0.666,-0.898,0.0
9.196,-0.649,-0.924,0.0
8.754,-0.62,-0.929,0.0
8.355,-0.594,-0.934,0.0
8.002,-0.571,-0.939,0.0
10.146,-0.723,-0.903,0.0
9.617,-0.687,-0.91,0.0
9.255,-0.664,-0.927,0.0
8.78,-0.632,-0.929,0.0
8.4,-0.606,-0.936,0.0
8.038,-0.582,-0.941,0.0
10.245,-0.741,-0.909,0.0
9.692,-0.703,-0.914,0.0
9.271,-0.675,-0.925,0.0
8.822,-0.645,-0.931,0.0
8.436,-0.618,-0.937,0.0
8.03,-0.591,-0.937,0.0
10.325,-0.759,-0.912,0.0
9.738,-0.718,-0.914,0.0
9.277,-0.686,-0.922,0.0
8.866,-0.658,-0.932,0.0
8.47,-0.63,-0.937,0.0
8.059,-0.602,-0.937,0.0
10.356,-0.772,-0.911,0.0
9.815,-0.734,-0.917,0.0
9.312,-0.698,-0.922,0.0
8.883,-0.668,-0.93,0.0
8.468,-0.639,-0.933,0.0
8.129,-0.615,-0.941,0.0
10.323,-0.781,-0.903,0.0
9.836,-0.746,-0.915,0.0
9.307,-0.708,-0.917,0.0
8.912,-0.68,-0.929,0.0
8.515,-0.652,-0.934,0.0
8.168,-0.627,-0.942,0.0
10.413,-0.798,-0.906,0.0
9.903,-0.761,-0.916,0.0
9.428,-0.727,-0.924,0.0
8.96,-0.693,-0.929,0.0
8.578,-0.665,-0.937,0.0
8.178,-0.636,-0.939,0.0
10.488,-0.815,-0.907,0.0
9.954,-0.775,-0.916,0.0
9.458,-0.739,-0.922,0.0
9.011,-0.706,-0.929,0.0
8.598,-0.676,-0.934,0.0
8.248,-0.65,-0.942,0.0
10.498,-0.826,-0.902,0.0
9.977,-0.787,-0.912,0.0
9.528,-0.754,-0.923,0.0
9.048,-0.718,-0.928,0.0
8.674,-0.69,-0.937,0.0
8.196,-0.654,-0.931,0.0
10.623,-0.846,-0.906,0.0
10.04,-0.802,-0.912,0.0
9.571,-0.766,-0.922,0.0
9.104,-0.731,-0.928,0.0
8.727,-0.702,-0.938,0.0
8.292,-0.669,-0.937,0.0
10.752,-0.866,-0.91,0.0
10.103,-0.816,-0.911,0.0
9.639,-0.781,-0.922,0.0
9.161,-0.744,-0.928,0.0
8.759,-0.713,-0.935,0.0
8.387,-0.685,-0.942,0.0
10.784,-0.879,-0.906,0.0
10.167,-0.831,-0.909,0.0
9.676,-0.792,-0.919,0.0
9.221,-0.757,-0.927,0.0
8.807,-0.725,-0.934,0.0
8.372,-0.691,-0.934,0.0
10.893,-0.897,-0.907,0.0
10.223,-0.844,-0.907,0.0
9.75,-0.807,-0.919,0.0
9.253,-0.768,-0.923,0.0
8.887,-0.739,-0.936,0.0
8.461,-0.706,-0.937,0.0
10.939,-0.91,-0.903,0.0
10.327,-0.861,-0.908,0.0
9.866,-0.825,-0.922,0.0
9.367,-0.785,-0.928,0.0
8.928,-0.75,-0.933,0.0
8.521,-0.717,-0.937,0.0
11.042,-0.928,-0.902,0.0
10.436,-0.879,-0.91,0.0
9.891,-0.835,-0.916,0.0
9.428,-0.798,-0.926,0.0
8.963,-0.76,-0.929,0.0
8.596,-0.731,-0.939,0.0
11.057,-0.938,-0.895,0.0
10.531,-0.895,-0.91,0.0
9.917,-0.845,-0.911,0.0
9.536,-0.814,-0.929,0.0
9.062,-0.775,-0.932,0.0
8.617,-0.739,-0.934,0.0
11.189,-0.958,-0.896,0.0
10.597,-0.909,-0.906,0.0
10.113,-0.869,-0.92,0.0
9.586,-0.826,-0.925,0.0
9.097,-0.785,-0.928,0.0
8.708,-0.753,-0.936,0.0
11.342,-0.979,-0.898,0.0
10.765,-0.931,-0.911,0.0
10.191,-0.883,-0.918,0.0
9.655,-0.838,-0.923,0.0
9.198,-0.8,-0.929,0.0
8.806,-0.768,-0.938,0.0
11.471,-0.998,-0.898,0.0
10.837,-0.945,-0.907,0.0
10.274,-0.897,-0.916,0.0
9.724,-0.851,-0.92,0.0
9.311,-0.816,-0.932,0.0
8.877,-0.78,-0.937,0.0
11.565,-1.014,-0.894,0.0
10.97,-0.963,-0.908,0.0
10.382,-0.913,-0.915,0.0
9.827,-0.866,-0.921,0.0
9.383,-0.828,-0.93,0.0
8.933,-0.79,-0.934,0.0
11.646,-1.028,-0.889,0.0
11.071,-0.979,-0.905,0.0
10.427,-0.923,-0.909,0.0
9.893,-0.878,-0.917,0.0
9.457,-0.84,-0.928,0.0
9.004,-0.802,-0.933,0.0
11.838,-1.052,-0.892,0.0
11.09,-0.987,-0.896,0.0
10.501,-0.936,-0.905,0.0
10.078,-0.9,-0.924,0.0
9.543,-0.853,-0.927,0.0
9.108,-0.816,-0.934,0.0
11.996,-1.073,-0.891,0.0
11.274,-1.009,-0.899,0.0
10.686,-0.958,-0.909,0.0
10.117,-0.909,-0.917,0.0
9.632,-0.866,-0.925,0.0
9.179,-0.827,-0.931,0.0
12.143,-1.092,-0.89,0.0
11.369,-1.024,-0.894,0.0
10.848,-0.978,-0.912,0.0
10.223,-0.923,-0.915,0.0
9.733,-0.88,-0.924,0.0
9.295,-0.842,-0.933,0.0
12.28,-1.11,-0.886,0.0
11.476,-1.039,-0.89,0.0
10.902,-0.988,-0.904,0.0
10.051,-0.912,-0.889,0.0
9.842,-0.894,-0.923,0.0
9.397,-0.855,-0.933,0.0
12.43,-1.129,-0.883,0.0
11.717,-1.065,-0.896,0.0
11.065,-1.007,-0.905,0.0
10.097,-0.92,-0.881,0.0
9.958,-0.909,-0.923,0.0
9.504,-0.869,-0.932,0.0
12.542,-1.144,-0.877,0.0
11.869,-1.084,-0.893,0.0
11.223,-1.026,-0.905,0.0
10.612,-0.971,-0.914,0.0
10.103,-0.926,-0.925,0.0
9.58,-0.879,-0.929,0.0
17.247,-1.579,-0.824,0.0
16.003,-1.465,-0.849,0.0
14.83,-1.357,-0.865,0.0
13.747,-1.257,-0.876,0.0
12.766,-1.167,-0.881,0.0
12.057,-1.101,-0.896,0.0
17.576,-1.603,-0.815,0.0
16.406,-1.495,-0.847,0.0
15.122,-1.377,-0.861,0.0
14.034,-1.278,-0.874,0.0
12.99,-1.182,-0.878,0.0
12.259,-1.115,-0.894,0.0
18.3,-1.661,-0.822,0.0
16.686,-1.514,-0.838,0.0
15.372,-1.394,-0.853,0.0
14.332,-1.298,-0.872,0.0
13.256,-1.2,-0.877,0.0
12.381,-1.12,-0.885,0.0
18.516,-1.673,-0.806,0.0
17.091,-1.543,-0.834,0.0
15.663,-1.413,-0.847,0.0
14.549,-1.311,-0.865,0.0
13.57,-1.222,-0.879,0.0
12.632,-1.137,-0.885,0.0
19.232,-1.728,-0.809,0.0
17.424,-1.564,-0.825,0.0
16.166,-1.45,-0.851,0.0
14.912,-1.336,-0.865,0.0
13.83,-1.238,-0.876,0.0
12.886,-1.153,-0.884,0.0
19.693,-1.758,-0.801,0.0
17.665,-1.576,-0.812,0.0
16.484,-1.469,-0.844,0.0
15.259,-1.358,-0.864,0.0
14.191,-1.262,-0.878,0.0
13.037,-1.158,-0.876,0.0
20.137,-1.786,-0.79,0.0
18.602,-1.648,-0.828,0.0
16.714,-1.479,-0.832,0.0
15.535,-1.373,-0.857,0.0
14.378,-1.27,-0.869,0.0
13.382,-1.18,-0.88,0.0
20.597,-1.814,-0.779,0.0
18.823,-1.656,-0.811,0.0
17.186,-1.51,-0.831,0.0
15.87,-1.392,-0.853,0.0
14.649,-1.284,-0.864,0.0
13.672,-1.197,-0.879,0.0
21.111,-1.845,-0.768,0.0
19.179,-1.674,-0.798,0.0
17.405,-1.517,-0.816,0.0
16.225,-1.412,-0.848,0.0
15.009,-1.305,-0.864,0.0
13.926,-1.209,-0.875,0.0
21.802,-1.89,-0.762,0.0
19.734,-1.708,-0.793,0.0
17.89,-1.546,-0.814,0.0
16.625,-1.434,-0.845,0.0
15.353,-1.323,-0.862,0.0
14.254,-1.226,-0.875,0.0
22.365,-1.921,-0.75,0.0
20.366,-1.747,-0.79,0.0
18.485,-1.583,-0.814,0.0
16.961,-1.45,-0.838,0.0
15.531,-1.326,-0.85,0.0
14.453,-1.232,-0.867,0.0
23.259,-1.979,-0.747,0.0
20.836,-1.77,-0.779,0.0
19.105,-1.62,-0.815,0.0
17.342,-1.468,-0.833,0.0
16.04,-1.356,-0.855,0.0
14.764,-1.246,-0.865,0.0
23.494,-1.979,-0.721,0.0
21.401,-1.8,-0.769,0.0
0.0,0.0,0.0,0.0
17.677,-1.481,-0.824,0.0
16.358,-1.368,-0.849,0.0
15.069,-1.258,-0.861,0.0
24.252,-2.022,-0.71,0.0
21.953,-1.826,-0.758,0.0
19.981,-1.659,-0.796,0.0
18.027,-1.494,-0.815,0.0
16.691,-1.38,-0.842,0.0
15.413,-1.273,-0.859,0.0
25.434,-2.096,-0.709,0.0
22.565,-1.856,-0.748,0.0
20.437,-1.678,-0.785,0.0
18.827,-1.542,-0.824,0.0
17.065,-1.395,-0.837,0.0
15.742,-1.284,-0.856,0.0
26.396,-2.15,-0.699,0.0
23.249,-1.889,-0.738,0.0
20.58,-1.669,-0.762,0.0
19.006,-1.538,-0.806,0.0
17.32,-1.398,-0.826,0.0
16.141,-1.3,-0.855,0.0
27.034,-2.174,-0.679,0.0
24.163,-1.939,-0.734,0.0
21.504,-1.721,-0.767,0.0
19.77,-1.579,-0.811,0.0
17.828,-1.421,-0.826,0.0
16.517,-1.313,-0.852,0.0
27.693,-2.198,-0.658,0.0
24.764,-1.961,-0.719,0.0
22.056,-1.742,-0.756,0.0
19.991,-1.575,-0.793,0.0
18.328,-1.441,-0.824,0.0
16.764,-1.314,-0.842,0.0
28.974,-2.268,-0.649,0.0
25.398,-1.983,-0.703,0.0
22.669,-1.765,-0.747,0.0
20.185,-1.568,-0.774,0.0
18.678,-1.447,-0.815,0.0
17.094,-1.321,-0.836,0.0
29.987,-2.314,-0.632,0.0
0.0,0.0,0.0,0.0
23.547,-1.807,-0.744,0.0
20.836,-1.594,-0.77,0.0
19.241,-1.468,-0.813,0.0
17.449,-1.328,-0.83,0.0
30.475,-2.315,-0.601,0.0
26.795,-2.029,-0.67,0.0
24.243,-1.831,-0.733,0.0
21.658,-1.631,-0.772,0.0
19.541,-1.467,-0.8,0.0
17.985,-1.347,-0.831,0.0
32.526,-2.431,-0.598,0.0
0.0,0.0,0.0,0.0
24.853,-1.846,-0.719,0.0
22.201,-1.644,-0.762,0.0
20.09,-1.483,-0.795,0.0
18.256,-1.344,-0.819,0.0
33.295,-2.447,-0.569,0.0
28.846,-2.113,-0.645,0.0
25.038,-1.828,-0.692,0.0
22.636,-1.648,-0.747,0.0
20.48,-1.486,-0.785,0.0
18.63,-1.347,-0.812,0.0
34.364,-2.481,-0.543,0.0
29.867,-2.149,-0.63,0.0
26.072,-1.87,-0.687,0.0
23.064,-1.648,-0.732,0.0
20.94,-1.492,-0.775,0.0
19.038,-1.352,-0.806,0.0
0.0,0.0,0.0,0.0
0.0,0.0,0.0,0.0
27.288,-1.92,-0.685,0.0
0.0,0.0,0.0,0.0
21.396,-1.495,-0.766,0.0
19.537,-1.36,-0.802,0.0
36.986,-2.571,-0.491,0.0
31.819,-2.203,-0.591,1.0
27.936,-1.927,-0.666,0.0
24.721,-1.699,-0.723,0.0
21.957,-1.503,-0.758,0.0
20.012,-1.365,-0.797,0.0
0.0,0.0,0.0,0.0
33.024,-2.24,-0.572,0.0
28.621,-1.934,-0.647,0.0
25.338,-1.705,-0.71,0.0
22.438,-1.504,-0.747,0.0
20.425,-1.364,-0.789,0.0
0.0,0.0,0.0,0.0
34.088,-2.262,-0.549,0.0
0.0,0.0,0.0,0.0
25.899,-1.705,-0.694,0.0
23.157,-1.518,-0.743,0.0
20.806,-1.359,-0.778,0.0
0.0,0.0,0.0,0.0
36.157,-2.346,-0.54,0.0
30.73,-1.986,-0.622,0.0
26.889,-1.73,-0.689,0.0
23.349,-1.496,-0.722,0.0
21.174,-1.351,-0.767,0.0
0.0,0.0,0.0,0.0
36.248,-2.297,-0.499,0.0
31.36,-1.979,-0.598,0.0
0.0,0.0,0.0,0.0
24.375,-1.524,-0.725,0.0
21.64,-1.347,-0.759,0.0
0.0,0.0,0.0,0.0
0.0,0.0,0.0,0.0
0.0,0.0,0.0,0.0
0.0,0.0,0.0,0.0
24.967,-1.521,-0.714,0.0
22.354,-1.356,-0.758,0.0
0.0,0.0,0.0,0.0
0.0,0.0,0.0,0.0
33.592,-2.012,-0.564,0.0
28.795,-1.717,-0.639,0.0
25.288,-1.5,-0.695,0.0
22.728,-1.342,-0.746,0.0
19.616,0.085,0.273,17.0
19.662,0.093,0.165,14.0
19.647,0.099,0.057,12.0
19.658,0.107,-0.052,9.0
19.695,0.114,-0.16,2.0
34.219,0.21,-0.467,0.0
19.629,0.128,0.273,10.0
19.651,0.135,0.165,15.0
19.629,0.141,0.057,13.0
19.632,0.149,-0.052,14.0
19.648,0.155,-0.16,14.0
19.662,0.162,-0.269,13.0
19.659,0.17,0.273,8.0
19.678,0.177,0.165,11.0
19.661,0.184,0.056,12.0
19.652,0.191,-0.053,10.0
19.629,0.198,-0.161,16.0
19.655,0.205,-0.27,17.0
19.745,0.213,0.273,12.0
19.771,0.22,0.164,26.0
19.69,0.226,0.055,1.0
19.655,0.233,-0.055,7.0
19.643,0.24,-0.163,16.0
19.656,0.246,-0.272,17.0
19.736,0.255,0.27,13.0
19.761,0.262,0.162,13.0
0.0,0.0,0.0,0.0
19.682,0.275,-0.057,0.0
19.698,0.282,-0.166,3.0
19.672,0.288,-0.275,9.0
19.773,0.298,0.268,0.0
160.768,2.482,1.295,11.0
55.161,0.871,0.139,1.0
52.416,0.844,-0.162,2.0
0.0,0.0,0.0,0.0
32.876,0.552,-0.465,1.0
55.173,0.949,0.739,75.0
55.168,0.968,0.434,73.0
55.159,0.986,0.129,65.0
47.867,0.872,-0.157,1.0
39.447,0.732,-0.348,0.0
31.153,0.589,-0.447,1.0
162.912,3.151,2.149,25.0
113.852,2.24,0.871,14.0
0.0,0.0,0.0,0.0
48.412,0.985,-0.17,0.0
0.0,0.0,0.0,0.0
30.968,0.651,-0.452,1.0
128.69,2.763,1.665,23.0
113.369,2.47,0.838,14.0
0.0,0.0,0.0,0.0
44.047,0.99,-0.167,3.0
36.777,0.839,-0.343,2.0
30.505,0.706,-0.454,1.0
71.013,1.674,0.898,16.0
70.761,1.692,0.502,15.0
0.0,0.0,0.0,0.0
0.0,0.0,0.0,0.0
35.204,0.876,-0.34,2.0
30.137,0.76,-0.458,1.0
0.0,0.0,0.0,0.0
0.0,0.0,0.0,0.0
40.176,1.058,0.048,158.0
40.123,1.07,-0.178,150.0
36.556,0.986,-0.366,2.0
30.023,0.82,-0.467,1.0
0.0,0.0,0.0,0.0
0.0,0.0,0.0,0.0
40.053,1.138,0.033,54.0
40.036,1.151,-0.193,53.0
36.709,1.066,-0.381,1.0
27.444,0.806,-0.438,8.0
40.129,1.197,0.463,129.0
40.131,1.21,0.24,121.0
40.133,1.223,0.016,150.0
40.041,1.233,-0.21,43.0
40.2,1.251,-0.435,1.0
29.014,0.912,-0.475,2.0
40.123,1.28,0.446,150.0
40.123,1.293,0.222,150.0
40.08,1.304,-0.001,62.0
40.0,1.314,-0.228,75.0
40.118,1.331,-0.452,0.0
28.92,0.969,-0.487,4.0
71.036,2.411,0.756,19.0
64.074,2.195,0.325,4.0
40.127,1.387,-0.02,150.0
40.003,1.395,-0.247,34.0
40.15,1.413,-0.472,1.0
28.1,0.998,-0.487,1.0
45.009,1.619,0.456,150.0
44.643,1.62,0.203,155.0
42.631,1.56,-0.043,2.0
39.97,1.475,-0.268,2.0
32.369,1.205,-0.398,0.0
27.669,1.038,-0.495,5.0
41.749,1.586,0.401,150.0
40.963,1.569,0.164,111.0
40.332,1.557,-0.063,158.0
40.183,1.563,-0.292,15.0
32.149,1.261,-0.413,0.0
27.333,1.08,-0.504,7.0
40.381,1.615,0.364,155.0
45.196,1.821,0.155,7.0
40.342,1.638,-0.087,150.0
39.716,1.624,-0.312,2.0
23.649,0.974,-0.318,0.0
23.647,0.982,-0.45,5.0
23.628,0.991,0.199,26.0
23.646,0.999,0.066,39.0
23.636,1.005,-0.065,44.0
23.623,1.012,-0.2,45.0
23.626,1.019,-0.332,45.0
23.622,1.026,-0.465,45.0
23.601,1.036,0.183,66.0
23.6,1.043,0.051,68.0
23.597,1.05,-0.08,71.0
23.603,1.057,-0.215,69.0
23.608,1.064,-0.348,68.0
23.615,1.072,-0.48,60.0
23.602,1.082,0.167,66.0
23.603,1.089,0.035,63.0
23.607,1.096,-0.097,53.0
23.618,1.103,-0.232,44.0
23.636,1.111,-0.365,38.0
23.645,1.119,-0.498,33.0
23.638,1.129,0.151,38.0
23.632,1.135,0.018,24.0
40.333,1.949,-0.194,13.0
23.643,1.149,-0.249,3.0
23.701,1.166,-0.516,54.0
57.908,2.876,0.328,5.0
45.189,2.256,0.002,41.0
40.318,2.024,-0.224,35.0
0.0,0.0,0.0,0.0
27.965,1.42,-0.473,1.0
23.563,1.203,-0.531,22.0
45.179,2.328,0.221,9.0
45.19,2.341,-0.032,9.0
40.263,2.097,-0.256,19.0
32.319,1.692,-0.39,10.0
27.179,1.43,-0.481,1.0
23.518,1.244,-0.549,1.0
45.191,2.412,0.185,39.0
40.325,2.163,-0.061,37.0
0.0,0.0,0.0,0.0
31.388,1.701,-0.404,9.0
26.626,1.45,-0.493,2.0
19.904,1.089,-0.481,2.0
45.18,2.493,0.147,38.0
40.324,2.236,-0.095,42.0
36.863,2.054,-0.295,4.0
30.374,1.7,-0.417,8.0
25.904,1.457,-0.502,1.0
19.742,1.116,-0.494,11.0
45.188,2.575,0.109,47.0
40.323,2.308,-0.13,42.0
34.971,2.011,-0.31,2.0
29.413,1.699,-0.429,8.0
25.005,1.451,-0.506,1.0
19.734,1.15,-0.511,13.0
45.181,2.655,0.068,46.0
40.33,2.38,-0.166,45.0
34.69,2.056,-0.339,9.0
28.584,1.702,-0.443,7.0
24.418,1.46,-0.517,1.0
19.721,1.184,-0.529,9.0
45.184,2.734,0.027,44.0
40.324,2.45,-0.203,44.0
33.161,2.023,-0.355,9.0
27.802,1.704,-0.457,7.0
24.026,1.478,-0.531,1.0
19.715,1.218,-0.547,9.0
45.173,2.811,-0.016,29.0
40.25,2.514,-0.241,27.0
31.979,2.005,-0.373,9.0
26.895,1.693,-0.468,7.0
19.955,1.261,-0.46,1.0
19.706,1.251,-0.566,11.0
45.17,2.886,-0.059,5.0
0.0,0.0,0.0,0.0
30.782,1.982,-0.389,9.0
26.065,1.684,-0.479,6.0
19.77,1.282,-0.475,5.0
19.669,1.281,-0.585,11.0
40.316,2.643,-0.093,41.0
36.094,2.375,-0.288,4.0
29.788,1.967,-0.407,8.0
25.356,1.68,-0.492,6.0
19.727,1.312,-0.495,10.0
19.526,1.303,-0.6,5.0
40.336,2.71,-0.135,42.0
35.124,2.368,-0.317,6.0
28.749,1.945,-0.422,7.0
24.648,1.673,-0.504,5.0
19.724,1.343,-0.515,9.0
18.984,1.298,-0.604,3.0
40.327,2.774,-0.178,50.0
0.0,0.0,0.0,0.0
27.914,1.932,-0.439,7.0
24.044,1.67,-0.517,5.0
19.71,1.373,-0.536,9.0
18.637,1.303,-0.613,3.0
40.176,2.825,-0.22,56.0
31.828,2.245,-0.355,9.0
26.825,1.898,-0.451,6.0
23.641,1.678,-0.534,1.0
19.707,1.403,-0.557,10.0
18.403,1.315,-0.625,2.0
40.153,2.884,-0.263,4.0
31.121,2.242,-0.381,9.0
25.879,1.87,-0.464,6.0
19.743,1.431,-0.468,4.0
19.66,1.429,-0.578,10.0
18.085,1.319,-0.634,1.0
36.665,2.688,-0.281,6.0
29.801,2.191,-0.398,8.0
25.157,1.855,-0.479,6.0
19.703,1.457,-0.489,9.0
19.45,1.442,-0.594,5.0
17.755,1.32,-0.643,1.0
34.657,2.591,-0.305,4.0
28.789,2.158,-0.417,8.0
24.589,1.848,-0.496,5.0
19.699,1.485,-0.511,9.0
18.92,1.43,-0.599,3.0
17.489,1.326,-0.654,1.0
33.178,2.527,-0.331,10.0
27.55,2.104,-0.431,7.0
23.968,1.835,-0.512,5.0
19.714,1.513,-0.535,8.0
18.629,1.434,-0.612,3.0
17.239,1.331,-0.665,1.0
31.503,2.443,-0.351,9.0
26.454,2.056,-0.446,6.0
23.639,1.842,-0.533,1.0
19.693,1.539,-0.558,9.0
18.343,1.437,-0.625,2.0
17.011,1.336,-0.676,1.0
30.693,2.421,-0.379,9.0
25.556,2.021,-0.461,6.0
19.726,1.563,-0.468,6.0
19.604,1.558,-0.579,8.0
17.995,1.433,-0.634,1.0
16.833,1.344,-0.69,1.0
29.198,2.341,-0.396,8.0
24.693,1.984,-0.476,5.0
19.707,1.587,-0.492,9.0
19.107,1.543,-0.588,6.0
17.587,1.423,-0.642,1.0
16.669,1.352,-0.703,1.0
28.118,2.29,-0.416,7.0
24.194,1.975,-0.496,5.0
19.704,1.612,-0.517,8.0
18.84,1.545,-0.603,8.0
17.4,1.43,-0.657,2.0
16.492,1.359,-0.717,1.0
27.148,2.245,-0.436,7.0
23.791,1.971,-0.518,2.0
19.331,1.605,-0.531,10.0
18.509,1.54,-0.616,2.0
17.137,1.429,-0.668,1.0
16.348,1.366,-0.731,1.0
25.676,2.153,-0.445,8.0
19.741,1.659,-0.455,6.0
18.946,1.595,-0.545,14.0
18.198,1.536,-0.629,2.0
16.919,1.431,-0.682,1.0
16.101,1.364,-0.741,1.0
24.969,2.123,-0.465,7.0
19.71,1.679,-0.479,9.0
18.952,1.617,-0.569,10.0
17.795,1.522,-0.638,2.0
16.71,1.432,-0.695,1.0
15.967,1.371,-0.755,1.0
24.231,2.087,-0.482,5.0
19.697,1.699,-0.505,8.0
18.955,1.638,-0.594,14.0
17.459,1.512,-0.649,2.0
16.522,1.434,-0.709,1.0
15.764,1.37,-0.767,0.0
23.478,2.047,-0.498,5.0
20.022,1.748,-0.539,5.0
18.973,1.66,-0.619,9.0
17.263,1.513,-0.664,2.0
16.351,1.436,-0.723,1.0
15.272,1.344,-0.763,0.0
22.645,1.997,-0.51,5.0
19.917,1.76,-0.563,4.0
18.674,1.653,-0.635,3.0
16.941,1.502,-0.675,1.0
16.098,1.43,-0.733,1.0
15.079,1.342,-0.774,0.0
21.959,1.958,-0.525,4.0
19.184,1.714,-0.568,7.0
17.864,1.598,-0.631,2.0
16.732,1.5,-0.689,1.0
15.973,1.434,-0.749,1.0
21.24,1.914,-0.536,8.0
18.97,1.712,-0.587,20.0
17.601,1.591,-0.645,1.0
16.571,1.5,-0.704,1.0
15.768,1.43,-0.761,0.0
14.434,1.311,-0.779,0.0
20.55,1.87,-0.546,8.0
18.803,1.714,-0.607,16.0
17.264,1.576,-0.656,1.0
16.324,1.492,-0.716,1.0
15.282,1.399,-0.758,0.0
14.114,1.294,-0.781,0.0
19.749,1.814,-0.551,6.0
18.237,1.677,-0.613,15.0
17.002,1.566,-0.669,1.0
16.093,1.485,-0.728,2.0
14.987,1.384,-0.764,0.0
13.924,1.288,-0.79,0.0
18.984,1.759,-0.556,13.0
17.832,1.655,-0.624,14.0
16.784,1.559,-0.684,1.0
15.935,1.483,-0.742,7.0
14.779,1.377,-0.773,0.0
13.598,1.269,-0.79,0.0
18.585,1.736,-0.569,16.0
17.732,1.659,-0.645,14.0
16.602,1.555,-0.699,2.0
15.84,1.486,-0.76,1.0
14.56,1.368,-0.782,0.0
13.381,1.259,-0.796,0.0
18.233,1.717,-0.584,16.0
17.607,1.66,-0.665,7.0
16.36,1.544,-0.711,1.0
15.249,1.441,-0.752,0.0
14.25,1.348,-0.785,0.0
13.131,1.244,-0.799,0.0
17.957,1.703,-0.6,15.0
17.387,1.651,-0.681,2.0
16.079,1.528,-0.722,2.0
14.889,1.417,-0.755,0.0
13.904,1.325,-0.785,0.0
12.944,1.235,-0.806,0.0
17.807,1.7,-0.619,28.0
16.785,1.604,-0.68,0.0
15.93,1.524,-0.737,6.0
14.708,1.409,-0.767,0.0
13.687,1.312,-0.792,0.0
12.84,1.233,-0.817,0.0
17.69,1.7,-0.64,21.0
16.53,1.59,-0.693,1.0
15.84,1.525,-0.755,2.0
14.452,1.393,-0.773,0.0
13.36,1.289,-0.792,0.0
12.564,1.213,-0.817,0.0
17.519,1.693,-0.658,18.0
16.372,1.583,-0.709,2.0
15.389,1.49,-0.755,0.0
14.046,1.361,-0.771,0.0
13.191,1.279,-0.8,0.0
12.366,1.201,-0.821,0.0
17.326,1.683,-0.674,19.0
16.103,1.565,-0.719,2.0
15.01,1.46,-0.757,0.0
13.915,1.355,-0.783,0.0
12.991,1.266,-0.806,0.0
12.186,1.189,-0.826,0.0
17.095,1.668,-0.689,9.0
15.947,1.557,-0.734,9.0
14.718,1.438,-0.762,0.0
13.684,1.338,-0.789,0.0
12.769,1.25,-0.809,0.0
12.079,1.183,-0.836,0.0
16.889,1.655,-0.704,2.0
15.865,1.555,-0.752,1.0
14.461,1.419,-0.769,0.0
13.384,1.314,-0.79,0.0
12.624,1.241,-0.818,0.0
11.735,1.154,-0.828,0.0
16.269,1.6,-0.7,1.0
15.376,1.513,-0.75,0.0
14.177,1.396,-0.773,0.0
13.173,1.298,-0.796,0.0
12.41,1.224,-0.821,0.0
11.651,1.15,-0.838,0.0
12.615,1.233,-0.813,0.0
11.846,1.158,-0.832,0.0
11.059,1.081,-0.84,0.0
10.453,1.021,-0.855,0.0
9.957,0.973,-0.872,0.0
9.422,0.92,-0.88,0.0
12.447,1.212,-0.816,0.0
11.696,1.138,-0.834,0.0
10.906,1.061,-0.84,0.0
10.326,1.005,-0.856,0.0
9.851,0.958,-0.874,0.0
9.351,0.909,-0.883,0.0
12.328,1.195,-0.822,0.0
11.451,1.109,-0.829,0.0
10.895,1.055,-0.851,0.0
10.241,0.992,-0.86,0.0
9.765,0.945,-0.876,0.0
9.247,0.895,-0.883,0.0
12.139,1.17,-0.822,0.0
11.297,1.089,-0.83,0.0
10.656,1.027,-0.844,0.0
10.142,0.977,-0.862,0.0
9.652,0.929,-0.876,0.0
9.145,0.88,-0.883,0.0
12.026,1.153,-0.826,0.0
11.233,1.077,-0.836,0.0
10.598,1.015,-0.85,0.0
10.028,0.96,-0.863,0.0
9.589,0.918,-0.88,0.0
9.123,0.873,-0.89,0.0
11.847,1.129,-0.826,0.0
11.178,1.065,-0.843,0.0
10.549,1.005,-0.856,0.0
9.961,0.948,-0.867,0.0
9.49,0.903,-0.881,0.0
8.981,0.854,-0.885,0.0
11.74,1.112,-0.83,0.0
11.035,1.045,-0.843,0.0
10.415,0.985,-0.856,0.0
9.89,0.935,-0.87,0.0
9.409,0.889,-0.882,0.0
11.61,1.092,-0.832,0.0
10.938,1.029,-0.846,0.0
10.29,0.967,-0.855,0.0
9.842,0.924,-0.875,0.0
9.312,0.874,-0.882,0.0
11.393,1.064,-0.826,0.0
10.797,1.008,-0.845,0.0
10.244,0.956,-0.86,0.0
9.755,0.909,-0.876,0.0
9.304,0.867,-0.889,0.0
8.739,0.814,-0.886,0.0
11.348,1.052,-0.833,0.0
10.741,0.995,-0.85,0.0
10.186,0.943,-0.865,0.0
9.691,0.896,-0.879,0.0
8.655,0.799,-0.885,0.0
11.273,1.037,-0.837,0.0
10.623,0.976,-0.85,0.0
10.131,0.93,-0.868,0.0
9.653,0.885,-0.884,0.0
8.66,0.793,-0.893,0.0
11.202,1.021,-0.841,0.0
10.57,0.963,-0.854,0.0
10.058,0.915,-0.87,0.0
9.603,0.873,-0.887,0.0
8.533,0.775,-0.887,0.0
11.111,1.004,-0.843,0.0
10.484,0.946,-0.856,0.0
9.985,0.9,-0.872,0.0
9.507,0.856,-0.886,0.0
8.501,0.764,-0.89,0.0
11.067,0.99,-0.848,0.0
10.392,0.929,-0.856,0.0
9.904,0.884,-0.872,0.0
9.458,0.844,-0.888,0.0
8.882,0.792,-0.885,0.0
8.452,0.753,-0.891,0.0
10.919,0.968,-0.845,0.0
10.355,0.917,-0.86,0.0
9.855,0.871,-0.875,0.0
9.383,0.829,-0.888,0.0
8.835,0.78,-0.887,0.0
8.409,0.741,-0.892,0.0
10.867,0.953,-0.848,0.0
10.308,0.903,-0.863,0.0
9.774,0.855,-0.875,0.0
9.302,0.813,-0.887,0.0
8.793,0.768,-0.889,0.0
8.368,0.73,-0.894,0.0
10.842,0.941,-0.854,0.0
10.207,0.884,-0.862,0.0
9.793,0.848,-0.883,0.0
9.224,0.797,-0.885,0.0
8.734,0.754,-0.888,0.0
8.348,0.72,-0.897,0.0
10.748,0.922,-0.853,0.0
10.192,0.873,-0.867,0.0
9.71,0.831,-0.881,0.0
9.173,0.784,-0.886,0.0
8.714,0.744,-0.891,0.0
8.274,0.706,-0.894,0.0
10.675,0.905,-0.853,0.0
10.144,0.859,-0.868,0.0
9.679,0.819,-0.884,0.0
9.127,0.771,-0.886,0.0
8.667,0.731,-0.891,0.0
8.245,0.695,-0.895,0.0
10.648,0.892,-0.857,0.0
10.12,0.847,-0.872,0.0
9.635,0.805,-0.885,0.0
9.09,0.758,-0.887,0.0
8.604,0.717,-0.889,0.0
8.235,0.685,-0.898,0.0
10.597,0.877,-0.858,0.0
10.07,0.832,-0.872,0.0
9.636,0.795,-0.89,0.0
9.06,0.746,-0.889,0.0
8.621,0.709,-0.895,0.0
8.206,0.674,-0.899,0.0
10.517,0.859,-0.856,0.0
10.038,0.818,-0.874,0.0
9.585,0.78,-0.889,0.0
9.011,0.732,-0.888,0.0
8.604,0.698,-0.897,0.0
8.188,0.663,-0.901,0.0
10.552,0.85,-0.864,0.0
10.038,0.807,-0.878,0.0
9.53,0.765,-0.888,0.0
8.991,0.721,-0.89,0.0
8.56,0.685,-0.896,0.0
8.164,0.652,-0.901,0.0
10.507,0.835,-0.864,0.0
10.004,0.793,-0.879,0.0
9.521,0.754,-0.891,0.0
8.94,0.706,-0.888,0.0
8.526,0.672,-0.896,0.0
8.191,0.645,-0.907,0.0
10.467,0.819,-0.864,0.0
10.003,0.782,-0.883,0.0
9.453,0.737,-0.888,0.0
8.972,0.698,-0.894,0.0
8.523,0.662,-0.898,0.0
8.132,0.631,-0.903,0.0
10.452,0.806,-0.866,0.0
9.951,0.766,-0.881,0.0
9.437,0.725,-0.889,0.0
8.94,0.685,-0.894,0.0
8.471,0.648,-0.895,0.0
8.13,0.621,-0.905,0.0
10.404,0.79,-0.865,0.0
9.916,0.751,-0.88,0.0
9.396,0.71,-0.887,0.0
8.892,0.671,-0.891,0.0
8.486,0.639,-0.899,0.0
8.127,0.611,-0.907,0.0
10.397,0.777,-0.867,0.0
9.887,0.737,-0.88,0.0
9.469,0.704,-0.896,0.0
8.904,0.661,-0.894,0.0
8.437,0.625,-0.895,0.0
8.106,0.599,-0.906,0.0
10.395,0.764,-0.869,0.0
9.931,0.728,-0.886,0.0
9.448,0.691,-0.896,0.0
8.884,0.648,-0.894,0.0
8.477,0.617,-0.901,0.0
8.094,0.588,-0.906,0.0
10.391,0.75,-0.87,0.0
9.901,0.713,-0.884,0.0
9.458,0.68,-0.898,0.0
8.887,0.637,-0.895,0.0
8.467,0.606,-0.901,0.0
8.11,0.579,-0.909,0.0
10.392,0.737,-0.871,0.0
9.907,0.701,-0.886,0.0
9.451,0.667,-0.898,0.0
8.868,0.625,-0.894,0.0
8.467,0.595,-0.901,0.0
8.111,0.569,-0.909,0.0
10.398,0.724,-0.872,0.0
9.907,0.689,-0.886,0.0
9.434,0.654,-0.897,0.0
8.903,0.616,-0.898,0.0
8.487,0.586,-0.904,0.0
8.09,0.557,-0.907,0.0
10.41,0.712,-0.873,0.0
9.89,0.675,-0.885,0.0
9.462,0.644,-0.9,0.0
8.868,0.602,-0.894,0.0
8.504,0.576,-0.905,0.0
8.109,0.548,-0.909,0.0
10.413,0.699,-0.873,0.0
9.94,0.665,-0.889,0.0
9.434,0.629,-0.897,0.0
8.922,0.594,-0.899,0.0
8.466,0.562,-0.901,0.0
8.12,0.538,-0.91,0.0
10.397,0.684,-0.871,0.0
9.937,0.652,-0.888,0.0
9.486,0.62,-0.901,0.0
8.95,0.584,-0.901,0.0
8.521,0.554,-0.906,0.0
8.134,0.527,-0.91,0.0
10.421,0.671,-0.871,0.0
9.958,0.64,-0.888,0.0
9.493,0.608,-0.9,0.0
9.001,0.575,-0.905,0.0
8.517,0.542,-0.904,0.0
8.152,0.518,-0.911,0.0
10.426,0.658,-0.87,0.0
9.96,0.626,-0.887,0.0
9.515,0.597,-0.9,0.0
9.022,0.564,-0.905,0.0
8.546,0.533,-0.905,0.0
8.165,0.507,-0.911,0.0
10.437,0.644,-0.869,0.0
9.961,0.613,-0.885,0.0
9.527,0.584,-0.899,0.0
8.988,0.549,-0.9,0.0
8.591,0.524,-0.908,0.0
8.175,0.497,-0.91,0.0
10.483,0.633,-0.87,0.0
10.001,0.602,-0.886,0.0
9.579,0.574,-0.902,0.0
9.035,0.54,-0.902,0.0
8.608,0.513,-0.907,0.0
8.202,0.487,-0.91,0.0
10.494,0.619,-0.868,0.0
10.039,0.59,-0.886,0.0
9.569,0.561,-0.898,0.0
9.063,0.529,-0.902,0.0
8.655,0.504,-0.909,0.0
8.213,0.476,-0.909,0.0
10.606,0.611,-0.874,0.0
10.063,0.578,-0.885,0.0
9.608,0.55,-0.898,0.0
9.101,0.519,-0.902,0.0
8.645,0.491,-0.905,0.0
8.277,0.469,-0.913,0.0
10.617,0.597,-0.87,0.0
10.119,0.567,-0.886,0.0
9.608,0.536,-0.894,0.0
9.173,0.51,-0.906,0.0
8.697,0.482,-0.907,0.0
8.29,0.458,-0.911,0.0
10.642,0.584,-0.868,0.0
10.216,0.558,-0.89,0.0
9.638,0.525,-0.893,0.0
9.23,0.501,-0.907,0.0
8.752,0.473,-0.909,0.0
8.338,0.449,-0.912,0.0
10.758,0.575,-0.872,0.0
10.243,0.546,-0.887,0.0
9.766,0.518,-0.9,0.0
9.249,0.489,-0.904,0.0
