X,Y,Z,Reflectivity
0.0,0.0,0.0,0.0
0.0,0.0,0.0,0.0
0.0,0.0,0.0,0.0
101.545,-4.171,1.372,19.0
101.481,-4.203,0.819,150.0
0.0,0.0,0.0,0.0
0.0,0.0,0.0,0.0
0.0,0.0,0.0,0.0
34.927,-1.497,-0.482,0.0
101.505,-4.373,1.408,47.0
101.488,-4.41,0.856,5.0
0.0,0.0,0.0,0.0
0.0,0.0,0.0,0.0
0.0,0.0,0.0,0.0
0.0,0.0,0.0,0.0
0.0,0.0,0.0,0.0
101.538,-4.614,0.897,44.0
0.0,0.0,0.0,0.0
0.0,0.0,0.0,0.0
0.0,0.0,0.0,0.0
0.0,0.0,0.0,0.0
0.0,0.0,0.0,0.0
101.538,-4.817,0.941,151.0
0.0,0.0,0.0,0.0
0.0,0.0,0.0,0.0
0.0,0.0,0.0,0.0
37.843,-1.85,-0.474,0.0
0.0,0.0,0.0,0.0
101.541,-5.018,0.99,158.0
103.562,-5.156,0.448,1.0
0.0,0.0,0.0,0.0
0.0,0.0,0.0,0.0
0.0,0.0,0.0,0.0
0.0,0.0,0.0,0.0
0.0,0.0,0.0,0.0
102.746,-5.317,0.498,1.0
0.0,0.0,0.0,0.0
0.0,0.0,0.0,0.0
0.0,0.0,0.0,0.0
0.0,0.0,0.0,0.0
101.468,-5.413,1.097,1.0
0.0,0.0,0.0,0.0
0.0,0.0,0.0,0.0
0.0,0.0,0.0,0.0
41.136,-2.253,-0.449,0.0
0.0,0.0,0.0,0.0
0.0,0.0,0.0,0.0
0.0,0.0,0.0,0.0
0.0,0.0,0.0,0.0
0.0,0.0,0.0,0.0
41.695,-2.363,-0.43,0.0
140.73,-7.998,2.449,16.0
140.74,-8.047,1.688,16.0
0.0,0.0,0.0,0.0
0.0,0.0,0.0,0.0
0.0,0.0,0.0,0.0
0.0,0.0,0.0,0.0
148.75,-8.734,2.684,23.0
149.868,-8.852,1.895,17.0
150.143,-8.919,1.088,3.0
0.0,0.0,0.0,0.0
0.0,0.0,0.0,0.0
42.31,-2.557,-0.382,0.0
148.231,-8.979,2.773,20.0
148.314,-9.034,1.975,19.0
149.859,-9.178,1.187,11.0
0.0,0.0,0.0,0.0
0.0,0.0,0.0,0.0
0.0,0.0,0.0,0.0
147.937,-9.233,2.871,10.0
147.942,-9.282,2.074,23.0
125.192,-7.897,1.081,12.0
0.0,0.0,0.0,0.0
0.0,0.0,0.0,0.0
0.0,0.0,0.0,0.0
117.381,-7.537,2.364,41.0
117.558,-7.587,1.734,13.0
125.234,-8.122,1.174,8.0
99.675,-6.497,0.387,17.0
0.0,0.0,0.0,0.0
0.0,0.0,0.0,0.0
117.384,-7.741,2.451,43.0
0.0,0.0,0.0,0.0
0.0,0.0,0.0,0.0
99.196,-6.64,0.462,2.0
0.0,0.0,0.0,0.0
0.0,0.0,0.0,0.0
148.184,-10.032,3.212,15.0
100.052,-6.805,1.63,6.0
100.061,-6.837,1.092,6.0
99.983,-6.863,0.545,8.0
0.0,0.0,0.0,0.0
0.0,0.0,0.0,0.0
109.285,-7.584,2.456,40.0
100.093,-6.978,1.713,8.0
100.098,-7.009,1.175,9.0
100.068,-7.039,0.628,10.0
0.0,0.0,0.0,0.0
0.0,0.0,0.0,0.0
109.263,-7.768,2.548,45.0
109.35,-7.807,1.963,9.0
100.119,-7.18,1.261,11.0
100.078,-7.207,0.714,11.0
0.0,0.0,0.0,0.0
0.0,0.0,0.0,0.0
133.311,-9.7,3.227,14.0
100.084,-7.312,1.886,3.0
100.086,-7.344,1.349,8.0
100.07,-7.374,0.803,11.0
98.883,-7.316,0.264,5.0
0.0,0.0,0.0,0.0
130.383,-9.701,3.273,2.0
123.819,-9.248,2.445,10.0
100.111,-7.508,1.441,9.0
100.06,-7.534,0.894,13.0
99.049,-7.489,0.355,7.0
57.298,-4.349,-0.1,0.0
127.455,-9.687,3.318,30.0
127.449,-9.725,2.636,5.0
100.1,-7.666,1.534,9.0
100.086,-7.694,0.988,15.0
99.983,-7.715,0.453,8.0
0.0,0.0,0.0,0.0
127.487,-9.89,3.44,30.0
119.361,-9.294,2.583,13.0
100.108,-7.823,1.631,12.0
100.065,-7.849,1.086,15.0
100.05,-7.878,0.551,12.0
65.253,-5.157,0.01,0.0
127.507,-10.087,3.565,23.0
127.521,-10.125,2.885,27.0
100.138,-7.978,1.729,12.0
100.034,-7.998,1.184,12.0
100.061,-8.029,0.65,13.0
0.0,0.0,0.0,0.0
118.195,-9.529,3.425,5.0
127.494,-10.313,3.012,35.0
116.507,-9.456,2.13,11.0
100.082,-8.151,1.286,10.0
90.423,-7.389,0.679,34.0
90.438,-7.416,0.196,12.0
114.522,-9.4,3.435,3.0
127.536,-10.502,3.143,25.0
90.399,-7.467,1.746,101.0
90.395,-7.491,1.254,36.0
90.422,-7.519,0.772,51.0
90.428,-7.545,0.291,22.0
114.408,-9.555,3.551,9.0
127.534,-10.684,3.277,15.0
90.403,-7.598,1.842,36.0
90.402,-7.622,1.351,60.0
90.412,-7.646,0.869,34.0
90.43,-7.672,0.387,48.0
114.312,-9.708,3.67,11.0
127.52,-10.861,3.415,10.0
90.399,-7.722,1.938,36.0
90.391,-7.745,1.448,40.0
90.397,-7.768,0.967,36.0
90.406,-7.793,0.486,33.0
109.727,-9.469,3.643,7.0
114.529,-9.912,3.193,13.0
90.386,-7.845,2.038,36.0
90.382,-7.867,1.549,33.0
90.409,-7.892,1.068,39.0
90.417,-7.916,0.587,33.0
108.369,-9.497,3.72,20.0
114.305,-10.044,3.315,11.0
90.384,-7.963,2.139,68.0
90.377,-7.985,1.649,35.0
90.385,-8.007,1.169,57.0
90.398,-8.031,0.689,33.0
108.287,-9.63,3.84,24.0
147.812,-13.177,4.454,8.0
127.523,-11.398,3.165,18.0
90.379,-8.1,1.753,36.0
90.376,-8.121,1.272,31.0
90.406,-8.145,0.792,38.0
108.1,-9.748,3.956,25.0
148.204,-13.397,4.636,15.0
127.523,-11.556,3.312,28.0
90.397,-8.212,1.857,33.0
90.382,-8.232,1.377,34.0
90.411,-8.255,0.898,31.0
108.882,-9.951,4.114,19.0
114.212,-10.462,3.707,11.0
127.482,-11.706,3.46,16.0
90.382,-8.319,1.964,38.0
90.376,-8.338,1.484,40.0
90.393,-8.36,1.004,32.0
108.453,-10.04,4.227,19.0
108.04,-10.025,3.637,13.0
113.86,-10.589,3.227,6.0
90.36,-8.422,2.073,30.0
90.385,-8.443,1.593,38.0
90.35,-8.46,1.113,27.0
108.645,-10.183,4.366,22.0
148.336,-13.931,5.172,16.0
107.936,-10.159,3.19,12.0
90.341,-8.521,2.18,20.0
90.375,-8.542,1.701,45.0
90.372,-8.561,1.222,15.0
110.302,-10.459,4.566,6.0
108.273,-10.285,3.907,13.0
147.911,-14.079,4.55,23.0
119.232,-11.373,3.023,8.0
90.366,-8.636,1.811,46.0
90.36,-8.654,1.332,22.0
109.983,-10.544,4.688,21.0
108.535,-10.423,4.049,19.0
148.049,-14.245,4.736,19.0
118.877,-11.461,3.16,5.0
90.367,-8.728,1.923,38.0
90.284,-8.738,1.442,23.0
109.752,-10.632,4.813,19.0
108.743,-10.552,4.192,18.0
148.159,-14.402,4.924,16.0
116.284,-11.324,3.234,29.0
90.345,-8.814,2.035,38.0
0.0,0.0,0.0,0.0
108.696,-10.634,4.903,21.0
109.845,-10.765,4.371,20.0
108.466,-10.648,3.741,13.0
116.318,-11.438,3.384,38.0
90.316,-8.897,2.148,20.0
90.281,-8.909,1.668,18.0
108.301,-10.697,5.024,13.0
110.984,-10.978,4.558,17.0
108.279,-10.728,3.872,16.0
148.109,-14.697,4.496,15.0
116.358,-11.565,2.914,25.0
89.1,-8.87,1.758,12.0
108.164,-10.778,5.154,16.0
111.18,-11.095,4.707,11.0
108.593,-10.853,4.021,21.0
148.085,-14.822,4.682,17.0
116.384,-11.666,3.063,36.0
88.98,-8.933,1.87,9.0
108.188,-10.872,5.293,14.0
108.831,-10.951,4.747,9.0
111.663,-11.251,4.277,12.0
148.067,-14.938,4.871,13.0
116.349,-11.755,3.211,37.0
88.397,-8.944,1.971,3.0
108.88,-11.028,5.467,24.0
110.354,-11.191,4.956,21.0
111.406,-11.311,4.41,14.0
108.903,-11.072,3.723,21.0
116.351,-11.844,3.36,30.0
116.325,-11.857,2.742,6.0
108.894,-11.111,5.608,22.0
108.923,-11.126,5.031,26.0
0.0,0.0,0.0,0.0
108.831,-11.143,3.86,21.0
116.316,-11.924,3.51,9.0
116.37,-11.944,2.895,35.0
108.538,-11.152,5.731,21.0
108.873,-11.198,5.171,18.0
111.193,-11.448,4.691,9.0
108.788,-11.213,4.002,9.0
148.385,-15.312,4.671,18.0
116.364,-12.021,3.046,40.0
107.982,-11.167,5.844,20.0
113.667,-11.765,5.546,7.0
109.359,-11.331,4.756,15.0
148.961,-15.448,5.674,26.0
108.933,-11.309,3.57,11.0
116.359,-12.091,3.197,40.0
108.444,-11.281,6.009,17.0
110.567,-11.512,5.538,7.0
0.0,0.0,0.0,0.0
149.145,-15.555,5.87,21.0
108.846,-11.362,3.707,15.0
116.339,-12.155,3.347,31.0
107.634,-11.259,6.104,16.0
107.878,-11.293,5.543,15.0
110.656,-11.592,5.099,12.0
149.126,-15.634,6.066,7.0
108.809,-11.417,3.848,20.0
116.307,-12.213,3.497,11.0
107.857,-11.339,6.26,18.0
108.065,-11.369,5.696,19.0
113.883,-11.989,5.399,4.0
111.169,-11.712,4.669,10.0
108.776,-11.467,3.991,9.0
148.217,-15.637,4.652,23.0
107.912,-11.399,6.405,20.0
108.9,-11.509,5.884,22.0
107.876,-11.407,5.255,11.0
110.932,-11.737,4.804,18.0
148.794,-15.753,5.654,22.0
108.761,-11.522,3.557,7.0
107.644,-11.418,6.531,19.0
109.086,-11.576,6.038,20.0
107.934,-11.459,5.399,19.0
110.76,-11.764,4.941,24.0
111.614,-11.862,4.385,8.0
108.782,-11.567,3.698,27.0
107.341,-11.428,6.653,18.0
108.739,-11.581,6.16,14.0
107.998,-11.507,5.543,19.0
110.581,-11.787,5.077,23.0
111.522,-11.892,4.527,19.0
108.836,-11.611,3.841,16.0
107.077,-11.438,6.777,19.0
108.202,-11.56,6.273,19.0
108.238,-11.568,5.697,15.0
107.831,-11.528,5.091,18.0
110.931,-11.864,4.648,19.0
148.23,-15.858,5.425,27.0
48.718,-5.219,3.147,12.0
49.625,-5.317,2.941,4.0
109.202,-11.702,5.89,18.0
107.884,-11.563,5.233,18.0
111.09,-11.91,4.798,17.0
148.243,-15.897,5.614,26.0
48.721,-5.232,3.21,31.0
49.617,-5.328,3.004,8.0
109.04,-11.711,6.022,19.0
108.006,-11.601,5.377,19.0
110.788,-11.901,4.926,18.0
148.292,-15.934,5.805,18.0
48.713,-5.241,3.272,44.0
107.522,-11.569,6.648,20.0
108.838,-11.71,6.15,18.0
107.93,-11.613,5.512,18.0
110.651,-11.907,5.061,10.0
111.581,-12.008,4.51,17.0
48.718,-5.25,3.335,34.0
107.201,-11.552,6.766,17.0
49.666,-5.351,2.869,6.0
108.081,-11.644,5.657,18.0
107.825,-11.617,5.069,18.0
111.037,-11.963,4.63,17.0
48.826,-5.268,3.405,16.0
48.741,-5.257,3.138,11.0
49.631,-5.353,2.931,19.0
109.225,-11.779,5.855,20.0
108.111,-11.657,5.219,19.0
111.036,-11.971,4.769,16.0
49.447,-5.339,3.51,12.0
48.722,-5.259,3.199,24.0
49.584,-5.351,2.99,14.0
109.147,-11.776,5.988,18.0
108.093,-11.659,5.353,20.0
110.635,-11.932,4.89,20.0
49.492,-5.345,3.576,20.0
48.721,-5.26,3.259,42.0
107.687,-11.622,6.628,19.0
108.915,-11.751,6.11,19.0
107.982,-11.647,5.482,19.0
110.553,-11.921,5.023,14.0
49.511,-5.347,3.638,20.0
48.709,-5.258,3.318,37.0
107.319,-11.58,6.737,18.0
49.708,-5.361,2.849,4.0
107.971,-11.64,5.613,13.0
107.779,-11.616,5.027,18.0
49.485,-5.341,3.697,23.0
48.743,-5.258,3.38,16.0
48.762,-5.258,3.12,7.0
49.643,-5.35,2.906,17.0
109.123,-11.755,5.804,17.0
107.935,-11.623,5.163,19.0
49.072,-5.292,3.725,24.0
49.325,-5.316,3.48,7.0
48.745,-5.25,3.178,22.0
49.608,-5.34,2.963,18.0
109.164,-11.745,5.937,17.0
108.048,-11.619,5.299,18.0
48.703,-5.245,3.757,34.0
49.719,-5.351,3.568,22.0
48.7,-5.238,3.233,37.0
49.548,-5.325,3.019,4.0
108.982,-11.706,6.057,16.0
107.908,-11.583,5.42,22.0
48.618,-5.227,3.808,42.0
49.573,-5.326,3.617,23.0
48.705,-5.228,3.291,41.0
107.177,-11.496,6.658,23.0
108.701,-11.651,6.17,19.0
107.948,-11.563,5.548,19.0
48.566,-5.21,3.862,37.0
49.466,-5.302,3.666,23.0
48.733,-5.219,3.35,18.0
107.046,-11.455,6.773,17.0
108.109,-11.56,6.259,19.0
108.854,-11.63,5.719,15.0
48.568,-5.197,3.917,16.0
49.184,-5.258,3.702,23.0
49.497,-5.287,3.459,7.0
48.776,-5.205,3.141,22.0
107.767,-11.489,6.362,22.0
109.025,-11.614,5.851,20.0
40.51,-4.322,3.313,14.0
48.874,-5.209,3.734,19.0
49.544,-5.275,3.518,28.0
48.736,-5.184,3.193,22.0
107.653,-11.44,6.475,19.0
108.987,-11.57,5.971,23.0
40.367,-4.292,3.347,34.0
48.652,-5.168,3.771,13.0
49.551,-5.257,3.573,23.0
48.766,-5.168,3.249,15.0
107.432,-11.374,6.578,15.0
108.763,-11.503,6.075,13.0
40.303,-4.27,3.385,40.0
48.592,-5.141,3.819,27.0
49.578,-5.239,3.628,23.0
48.736,-5.144,3.299,10.0
107.306,-11.314,6.686,18.0
107.515,-11.324,6.119,17.0
40.315,-4.253,3.429,42.0
48.61,-5.121,3.872,13.0
49.154,-5.172,3.649,23.0
48.785,-5.127,3.354,17.0
48.735,-5.115,3.087,13.0
107.864,-11.308,6.252,21.0
40.4,-4.243,3.479,38.0
48.684,-5.105,3.928,10.0
49.132,-5.145,3.698,23.0
49.699,-5.198,3.467,11.0
48.738,-5.09,3.137,20.0
107.952,-11.262,6.366,20.0
40.568,-4.239,3.535,23.0
40.385,-4.214,3.3,17.0
48.789,-5.083,3.722,22.0
107.767,-11.213,7.626,17.0
48.769,-5.067,3.188,34.0
107.634,-11.168,6.455,18.0
40.815,-4.242,3.597,16.0
40.342,-4.186,3.336,39.0
48.755,-5.052,3.767,18.0
49.749,-5.147,3.569,8.0
48.809,-5.042,3.237,18.0
107.569,-11.096,6.554,21.0
46.008,-4.754,4.099,16.0
40.335,-4.161,3.374,40.0
48.621,-5.008,3.803,14.0
49.782,-5.119,3.619,9.0
107.688,-11.058,7.245,16.0
107.575,-11.029,6.655,21.0
45.944,-4.718,4.137,16.0
40.415,-4.144,3.419,34.0
48.039,-4.916,3.803,22.0
107.389,-10.973,7.906,14.0
107.645,-10.982,7.339,17.0
48.901,-4.98,3.069,2.0
45.949,-4.688,4.18,13.0
40.444,-4.119,3.458,35.0
47.993,-4.879,3.842,13.0
107.039,-10.863,7.976,17.0
107.744,-10.915,7.443,16.0
108.199,-10.944,6.886,16.0
0.0,0.0,0.0,0.0
40.421,-4.087,3.492,30.0
40.541,-4.092,3.281,29.0
107.121,-10.793,8.074,19.0
107.83,-10.846,7.54,13.0
108.164,-10.86,6.976,17.0
47.75,-4.803,4.426,32.0
45.723,-4.589,3.988,10.0
40.516,-4.059,3.313,22.0
48.048,-4.804,3.662,19.0
107.84,-10.763,7.63,16.0
107.886,-10.747,7.047,19.0
47.883,-4.778,4.479,19.0
45.937,-4.574,4.045,30.0
40.445,-4.019,3.34,28.0
48.051,-4.766,3.701,35.0
107.915,-10.683,7.722,13.0
108.07,-10.678,7.144,19.0
0.0,0.0,0.0,0.0
45.919,-4.535,4.079,37.0
40.359,-3.977,3.364,28.0
48.082,-4.728,3.74,15.0
107.568,-10.556,7.782,8.0
107.896,-10.568,7.216,20.0
39.354,-3.861,3.742,39.0
45.997,-4.502,4.122,32.0
48.152,-4.703,4.05,22.0
48.083,-4.686,3.776,4.0
106.551,-10.363,7.786,13.0
106.761,-10.362,7.218,13.0
39.259,-3.817,3.762,33.0
45.995,-4.461,4.155,31.0
47.605,-4.607,4.038,20.0
107.539,-10.384,8.523,15.0
107.35,-10.344,7.919,19.0
107.285,-10.315,7.328,17.0
39.249,-3.779,3.789,41.0
45.991,-4.418,4.186,20.0
47.882,-4.589,4.095,26.0
108.179,-10.344,8.648,17.0
106.264,-10.138,7.911,14.0
107.253,-10.209,7.397,15.0
39.226,-3.739,3.813,41.0
0.0,0.0,0.0,0.0
48.137,-4.567,4.148,21.0
108.092,-10.23,8.71,11.0
106.213,-10.029,7.975,18.0
107.236,-10.102,7.464,12.0
39.25,-3.703,3.84,32.0
46.033,-4.332,4.249,6.0
48.279,-4.532,4.19,22.0
107.933,-10.107,8.763,16.0
108.604,-10.146,8.219,11.0
107.045,-9.976,7.514,13.0
39.257,-3.664,3.864,23.0
47.429,-4.415,4.406,20.0
48.287,-4.483,4.219,26.0
48.208,-4.464,3.941,6.0
108.557,-10.028,8.278,18.0
106.433,-9.808,7.53,16.0
39.287,-3.626,3.889,17.0
47.518,-4.374,4.44,13.0
48.03,-4.409,4.223,22.0
108.006,-9.888,8.889,15.0
108.665,-9.923,8.343,18.0
106.42,-9.693,7.585,12.0
41.163,-3.754,4.096,3.0
47.435,-4.314,4.457,6.0
47.809,-4.336,4.228,22.0
108.461,-9.812,8.98,15.0
108.802,-9.816,8.408,15.0
106.459,-9.579,7.64,16.0
39.253,-3.537,3.925,21.0
47.423,-4.261,4.479,5.0
47.693,-4.273,4.24,21.0
48.384,-4.323,4.028,10.0
111.74,-9.956,8.686,16.0
106.376,-9.452,7.682,5.0
48.574,-4.322,4.879,11.0
39.241,-3.481,3.723,24.0
47.425,-4.195,4.237,12.0
48.304,-4.26,4.042,14.0
111.39,-9.797,8.705,20.0
109.63,-9.615,7.961,19.0
48.728,-4.278,4.915,19.0
49.2,-4.307,4.689,8.0
47.396,-4.137,4.253,31.0
106.55,-9.273,8.958,10.0
109.869,-9.534,8.628,17.0
109.324,-9.46,7.98,9.0
48.753,-4.223,4.935,35.0
49.234,-4.252,4.709,3.0
47.41,-4.082,4.271,35.0
106.535,-9.145,8.994,20.0
106.769,-9.138,8.421,9.0
109.703,-9.361,8.044,7.0
48.794,-4.168,4.956,33.0
49.047,-4.176,4.707,23.0
47.475,-4.03,4.292,15.0
106.66,-9.025,9.038,27.0
106.95,-9.022,8.468,18.0
111.759,-9.4,8.227,13.0
48.735,-4.103,4.964,34.0
49.264,-4.134,4.742,15.0
47.422,-3.967,4.3,18.0
106.719,-8.898,9.071,25.0
106.909,-8.886,8.492,15.0
108.12,-8.958,7.987,17.0
48.936,-4.058,4.997,35.0
49.258,-4.072,4.753,12.0
47.487,-3.912,4.317,10.0
106.749,-8.767,9.098,31.0
108.64,-8.893,8.653,9.0
107.9,-8.805,7.993,20.0
48.939,-3.996,5.007,25.0
49.308,-4.013,4.768,16.0
106.581,-8.645,9.71,19.0
106.596,-8.618,9.104,24.0
107.004,-8.622,8.542,10.0
107.069,-8.599,7.951,18.0
49.228,-3.957,5.045,13.0
49.287,-3.948,4.774,23.0
106.629,-8.511,9.731,15.0
106.977,-8.51,9.152,19.0
107.071,-8.488,8.563,5.0
106.289,-8.399,7.906,21.0
106.38,-8.412,10.915,22.0
49.317,-3.885,4.783,18.0
107.071,-8.406,9.783,13.0
107.048,-8.374,9.17,18.0
104.481,-8.145,8.365,22.0
106.429,-8.268,7.926,6.0
106.394,-8.271,10.926,20.0
49.347,-3.822,4.789,33.0
107.358,-8.285,9.816,8.0
107.223,-8.244,9.192,12.0
104.471,-8.004,8.37,26.0
104.738,-7.996,7.805,13.0
106.176,-8.11,10.909,21.0
49.339,-3.754,4.791,22.0
107.107,-8.121,9.796,20.0
107.355,-8.109,9.205,16.0
104.448,-7.86,8.37,10.0
104.736,-7.853,7.806,29.0
0.0,0.0,0.0,0.0
49.37,-3.689,4.793,17.0
107.127,-7.975,9.797,10.0
107.102,-7.943,9.181,13.0
109.864,-8.117,8.8,8.0
109.587,-8.066,8.162,7.0
107.014,-7.879,10.99,19.0
49.418,-3.624,4.795,4.0
109.372,-7.991,9.995,13.0
107.239,-7.805,9.185,19.0
108.188,-7.844,8.658,17.0
105.043,-7.588,7.816,19.0
106.673,-7.706,10.945,21.0
49.389,-3.554,4.788,2.0
108.383,-7.768,9.895,14.0
107.201,-7.653,9.171,17.0
107.25,-7.626,8.57,20.0
105.019,-7.44,7.801,20.0
106.812,-7.566,10.946,18.0
106.764,-7.532,10.335,17.0
108.24,-7.605,9.865,7.0
107.29,-7.508,9.161,22.0
107.052,-7.461,8.538,7.0
107.664,-7.475,7.979,16.0
106.917,-7.422,10.937,17.0
107.723,-7.447,10.408,11.0
106.558,-7.336,9.692,18.0
0.0,0.0,0.0,0.0
104.953,-7.166,8.348,15.0
107.453,-7.307,7.941,18.0
106.876,-7.266,10.91,23.0
110.854,-7.504,10.685,9.0
106.66,-7.19,9.677,19.0
106.438,-7.146,9.042,11.0
107.495,-7.186,8.524,20.0
108.972,-7.255,8.025,10.0
107.741,-7.169,10.97,18.0
107.661,-7.133,10.349,22.0
110.983,-7.321,10.037,6.0
106.854,-7.018,9.047,24.0
107.774,-7.049,8.515,22.0
108.957,-7.096,7.992,15.0
107.747,-7.014,10.936,12.0
107.555,-6.971,10.305,18.0
107.643,-6.947,9.701,9.0
107.031,-6.877,9.027,19.0
107.857,-6.899,8.486,27.0
108.907,-6.936,7.952,14.0
107.872,-6.865,10.911,9.0
111.183,-7.045,10.613,2.0
107.157,-6.759,9.618,9.0
107.149,-6.729,8.997,9.0
108.027,-6.755,8.458,22.0
108.954,-6.784,7.913,9.0
107.983,-6.716,10.881,22.0
109.42,-6.773,10.401,17.0
107.432,-6.621,9.599,16.0
108.649,-6.666,9.078,21.0
108.748,-6.643,8.469,21.0
107.584,-6.542,7.768,10.0
107.979,-6.559,10.833,5.0
109.418,-6.616,10.352,18.0
107.432,-6.465,9.551,19.0
108.935,-6.524,9.053,10.0
108.934,-6.495,8.433,20.0
107.684,-6.392,7.725,16.0
0.0,0.0,0.0,0.0
109.294,-6.448,10.287,22.0
108.61,-6.377,9.602,21.0
108.802,-6.357,8.987,29.0
108.892,-6.332,8.374,23.0
108.351,-6.271,7.717,22.0
0.0,0.0,0.0,0.0
108.937,-6.265,10.194,23.0
109.069,-6.242,9.584,25.0
108.511,-6.18,8.904,24.0
109.427,-6.202,8.355,16.0
108.333,-6.112,7.654,12.0
109.504,-6.167,10.813,12.0
109.32,-6.125,10.167,28.0
108.644,-6.058,9.482,21.0
108.506,-6.02,8.838,24.0
111.323,-6.146,8.434,18.0
111.163,-6.109,7.788,18.0
109.277,-5.993,10.722,24.0
109.187,-5.957,10.087,21.0
108.568,-5.894,9.408,24.0
108.81,-5.877,8.795,21.0
112.796,-6.062,8.473,11.0
113.041,-6.046,7.847,13.0
109.535,-5.847,10.675,21.0
109.259,-5.801,10.021,16.0
108.667,-5.741,9.344,16.0
108.919,-5.724,8.73,19.0
109.506,-5.726,8.152,17.0
108.295,-5.634,7.443,22.0
125.926,-6.536,12.186,11.0
112.073,-5.787,10.201,21.0
111.559,-5.73,9.513,21.0
111.752,-5.709,8.877,20.0
109.578,-5.57,8.077,25.0
108.32,-5.477,7.366,8.0
125.865,-6.348,12.085,8.0
111.894,-5.613,10.101,24.0
111.557,-5.567,9.429,25.0
113.734,-5.645,8.948,18.0
112.363,-5.548,8.198,8.0
114.781,-5.638,7.717,18.0
126.461,-6.193,12.043,6.0
111.673,-5.437,9.991,22.0
116.384,-5.635,9.742,18.0
115.738,-5.573,9.011,12.0
115.086,-5.512,8.302,8.0
115.093,-5.483,7.643,16.0
126.519,-6.008,11.942,19.0
111.609,-5.271,9.892,18.0
116.578,-5.474,9.661,24.0
115.168,-5.379,8.87,19.0
114.921,-5.338,8.192,20.0
116.103,-5.363,7.611,20.0
0.0,0.0,0.0,0.0
116.621,-5.339,10.234,12.0
116.768,-5.316,9.574,26.0
114.723,-5.192,8.734,23.0
114.67,-5.161,8.072,30.0
116.407,-5.211,7.527,20.0
113.323,-5.053,10.494,11.0
124.117,-5.501,10.777,21.0
115.665,-5.097,9.376,19.0
114.788,-5.029,8.632,24.0
114.856,-5.004,7.978,19.0
114.832,-4.974,7.317,22.0
113.476,-4.895,10.399,6.0
124.39,-5.334,10.68,16.0
115.603,-4.928,9.258,23.0
115.293,-4.885,8.558,22.0
115.061,-4.846,7.878,15.0
114.624,-4.801,7.19,26.0
113.546,-4.734,10.292,5.0
124.17,-5.147,10.537,27.0
114.831,-4.731,9.081,25.0
115.218,-4.718,8.436,23.0
115.75,-4.712,7.808,25.0
114.654,-4.64,7.075,23.0
124.112,-4.998,11.121,8.0
124.061,-4.966,10.398,20.0
115.383,-4.591,9.004,21.0
115.311,-4.558,8.32,19.0
115.75,-4.548,7.686,23.0
114.823,-4.483,6.963,23.0
124.632,-4.842,11.031,17.0
114.997,-4.439,9.511,18.0
115.21,-4.419,8.864,22.0
115.582,-4.405,8.213,12.0
115.824,-4.388,7.562,22.0
114.754,-4.32,6.831,21.0
0.0,0.0,0.0,0.0
115.205,-4.286,9.399,24.0
114.851,-4.244,8.705,24.0
123.22,-4.524,8.614,20.0
116.656,-4.255,7.481,27.0
114.601,-4.153,6.69,24.0
126.27,-4.551,10.885,24.0
115.898,-4.149,9.318,23.0
115.604,-4.111,8.626,22.0
115.576,-4.084,7.944,15.0
114.477,-4.018,7.207,10.0
114.352,-3.988,6.541,23.0
115.941,-4.019,9.856,18.0
115.863,-3.99,9.177,20.0
115.899,-3.965,8.509,21.0
125.884,-4.278,8.501,4.0
114.6,-3.868,7.076,12.0
0.0,0.0,0.0,0.0
116.116,-3.867,9.727,22.0
125.798,-4.16,9.807,23.0
124.559,-4.091,8.988,18.0
117.815,-3.842,7.808,29.0
115.087,-3.727,6.961,23.0
114.352,-3.678,6.255,19.0
126.109,-4.029,10.401,24.0
126.068,-3.999,9.666,16.0
140.19,-4.415,9.934,12.0
117.825,-3.685,7.655,16.0
115.727,-3.594,6.85,28.0
114.436,-3.529,6.112,21.0
140.533,-4.304,11.406,16.0
126.055,-3.833,9.499,22.0
140.862,-4.253,9.797,10.0
123.68,-3.706,7.872,20.0
115.823,-3.446,6.703,27.0
116.579,-3.445,6.072,5.0
140.504,-4.12,11.214,11.0
140.327,-4.083,10.385,12.0
125.397,-3.622,8.552,19.0
124.142,-3.559,7.733,15.0
115.918,-3.299,6.55,23.0
124.071,-3.505,6.292,17.0
126.261,-3.538,9.902,16.0
0.0,0.0,0.0,0.0
124.87,-3.446,8.339,25.0
115.933,-3.175,7.059,26.0
124.355,-3.38,6.851,9.0
117.393,-3.166,5.787,22.0
0.0,0.0,0.0,0.0
141.968,-3.767,10.104,5.0
125.184,-3.296,8.182,15.0
124.213,-3.244,7.385,23.0
124.361,-3.223,6.672,16.0
123.692,-3.181,5.919,12.0
0.0,0.0,0.0,0.0
0.0,0.0,0.0,0.0
125.399,-3.144,8.011,16.0
124.167,-3.088,7.198,27.0
141.508,-3.492,7.382,14.0
140.832,-3.447,6.531,19.0
0.0,0.0,0.0,0.0
0.0,0.0,0.0,0.0
124.371,-2.967,7.759,18.0
124.462,-2.945,7.029,16.0
141.566,-3.322,7.172,3.0
140.699,-3.274,6.311,7.0
0.0,0.0,0.0,0.0
0.0,0.0,0.0,0.0
124.948,-2.83,7.604,23.0
141.631,-3.18,7.78,3.0
140.789,-3.136,6.916,3.0
191.374,-4.226,8.29,16.0
0.0,0.0,0.0,0.0
0.0,0.0,0.0,0.0
125.098,-2.685,7.415,3.0
0.0,0.0,0.0,0.0
192.564,-4.062,9.156,24.0
190.331,-3.979,7.944,21.0
0.0,0.0,0.0,0.0
0.0,0.0,0.0,0.0
0.0,0.0,0.0,0.0
0.0,0.0,0.0,0.0
191.59,-3.822,8.803,18.0
190.368,-3.763,7.64,22.0
0.0,0.0,0.0,0.0
0.0,0.0,0.0,0.0
0.0,0.0,0.0,0.0
0.0,0.0,0.0,0.0
191.892,-3.613,8.503,22.0
190.478,-3.554,7.334,7.0
0.0,0.0,0.0,0.0
0.0,0.0,0.0,0.0
0.0,0.0,0.0,0.0
0.0,0.0,0.0,0.0
189.964,-3.367,8.098,19.0
189.999,-3.336,6.998,31.0
0.0,0.0,0.0,0.0
189.88,-3.258,11.112,10.0
190.122,-3.23,10.016,5.0
189.803,-3.193,8.877,4.0
192.614,-3.208,7.885,14.0
191.48,-3.158,6.725,14.0
0.0,0.0,0.0,0.0
0.0,0.0,0.0,0.0
0.0,0.0,0.0,0.0
193.194,-3.046,8.699,21.0
191.8,-2.994,7.522,22.0
162.604,-2.513,5.431,36.0
0.0,0.0,0.0,0.0
0.0,0.0,0.0,0.0
0.0,0.0,0.0,0.0
193.086,-2.847,8.357,19.0
191.993,-2.802,7.194,19.0
162.616,-2.348,5.146,42.0
0.0,0.0,0.0,0.0
0.0,0.0,0.0,0.0
0.0,0.0,0.0,0.0
193.084,-2.655,8.014,9.0
191.625,-2.606,6.836,20.0
163.469,-2.199,4.881,21.0
0.0,0.0,0.0,0.0
0.0,0.0,0.0,0.0
0.0,0.0,0.0,0.0
186.001,-2.378,7.385,21.0
162.635,-2.055,5.508,16.0
19.783,-0.247,0.554,2.0
0.0,0.0,0.0,0.0
0.0,0.0,0.0,0.0
0.0,0.0,0.0,0.0
185.975,-2.204,7.045,21.0
19.774,-0.231,0.633,1.0
19.764,-0.228,0.518,9.0
0.0,0.0,0.0,0.0
0.0,0.0,0.0,0.0
0.0,0.0,0.0,0.0
185.378,-2.028,6.676,15.0
19.749,-0.213,0.595,8.0
19.736,-0.21,0.48,11.0
0.0,0.0,0.0,0.0
0.0,0.0,0.0,0.0
0.0,0.0,0.0,0.0
19.767,-0.198,0.674,2.0
19.756,-0.196,0.558,9.0
19.753,-0.193,0.443,8.0
0.0,0.0,0.0,0.0
184.967,-1.752,8.141,6.0
183.919,-1.717,7.018,22.0
19.732,-0.181,0.635,7.0
19.746,-0.179,0.521,7.0
19.772,-0.177,0.406,2.0
0.0,0.0,0.0,0.0
184.307,-1.593,7.755,21.0
19.768,-0.168,0.716,3.0
19.73,-0.165,0.597,5.0
19.771,-0.163,0.483,5.0
177.27,-1.444,3.298,24.0
184.705,-1.471,8.493,7.0
184.247,-1.444,7.392,21.0
19.752,-0.152,0.677,2.0
19.754,-0.15,0.559,5.0
19.728,-0.147,0.443,0.0
0.0,0.0,0.0,0.0
184.722,-1.329,8.128,20.0
19.808,-0.14,0.756,0.0
19.695,-0.137,0.636,3.0
19.705,-0.135,0.519,5.0
19.689,-0.132,0.404,2.0
19.74,-0.131,0.289,2.0
184.52,-1.194,7.757,21.0
19.68,-0.125,0.711,6.0
19.657,-0.122,0.596,9.0
19.661,-0.12,0.479,9.0
19.675,-0.118,0.364,7.0
19.708,-0.116,0.25,9.0
19.732,-0.113,0.79,1.0
19.661,-0.111,0.671,11.0
19.652,-0.109,0.556,10.0
19.659,-0.107,0.44,9.0
19.665,-0.105,0.325,9.0
19.72,-0.103,0.21,16.0
19.698,-0.1,0.749,9.0
19.642,-0.098,0.631,12.0
19.644,-0.096,0.516,10.0
19.647,-0.094,0.4,9.0
19.654,-0.092,0.285,9.0
19.699,-0.09,0.17,14.0
19.664,-0.087,0.707,10.0
19.644,-0.086,0.591,12.0
19.634,-0.084,0.476,10.0
19.649,-0.082,0.359,9.0
19.664,-0.08,0.245,12.0
19.707,-0.079,0.13,15.0
19.655,-0.076,0.667,13.0
19.63,-0.074,0.551,11.0
19.639,-0.072,0.436,10.0
19.643,-0.071,0.32,9.0
19.684,-0.069,0.205,14.0
19.709,-0.067,0.09,16.0
19.647,-0.065,0.626,14.0
19.634,-0.063,0.511,11.0
19.621,-0.061,0.395,9.0
19.641,-0.06,0.279,9.0
19.695,-0.059,0.164,16.0
19.703,-0.057,0.049,16.0
19.632,-0.054,0.585,13.0
19.63,-0.053,0.47,11.0
19.622,-0.051,0.355,9.0
19.636,-0.05,0.238,13.0
19.696,-0.049,0.124,17.0
19.704,-0.047,0.008,17.0
19.638,-0.045,0.544,13.0
19.629,-0.043,0.429,12.0
19.622,-0.042,0.314,10.0
19.64,-0.041,0.197,13.0
19.697,-0.039,0.083,15.0
19.716,-0.038,-0.032,15.0
19.627,-0.036,0.502,13.0
19.626,-0.035,0.387,12.0
19.624,-0.033,0.273,10.0
19.668,-0.032,0.156,8.0
19.706,-0.031,0.041,14.0
19.748,-0.03,-0.073,11.0
19.628,-0.028,0.461,15.0
19.627,-0.027,0.346,12.0
19.643,-0.025,0.232,15.0
19.679,-0.024,0.115,8.0
19.719,-0.023,0.0,13.0
19.755,-0.022,-0.115,8.0
19.64,-0.02,0.42,13.0
19.62,-0.019,0.305,13.0
19.648,-0.018,0.19,10.0
19.711,-0.017,0.073,7.0
19.732,-0.016,-0.041,11.0
19.759,-0.015,-0.157,1.0
19.622,-0.014,0.378,13.0
19.628,-0.013,0.263,13.0
19.767,-0.012,0.149,2.0
19.709,-0.011,0.032,9.0
19.782,-0.01,-0.083,2.0
0.0,0.0,0.0,0.0
19.622,-0.008,0.336,14.0
19.634,-0.007,0.222,15.0
19.768,-0.006,0.107,2.0
19.74,-0.005,-0.009,10.0
19.764,-0.004,-0.125,0.0
0.0,0.0,0.0,0.0
19.636,-0.002,0.295,14.0
19.725,-0.002,0.181,6.0
19.791,-0.001,0.065,3.0
19.74,0.0,-0.052,4.0
19.801,0.0,-0.168,0.0
19.754,0.001,-0.283,0.0
19.632,0.001,0.252,15.0
19.786,0.002,0.138,1.0
19.74,0.003,0.022,7.0
19.762,0.003,-0.094,0.0
19.784,0.004,-0.21,0.0
19.784,0.005,-0.326,0.0
19.646,0.005,0.21,14.0
19.785,0.006,0.096,5.0
19.752,0.006,-0.019,13.0
19.768,0.007,-0.137,0.0
19.795,0.007,-0.253,0.0
19.776,0.008,-0.369,1.0
19.789,0.008,0.169,2.0
19.788,0.009,0.053,3.0
19.76,0.009,-0.062,30.0
19.788,0.01,-0.18,1.0
19.767,0.01,-0.296,2.0
19.784,0.01,-0.412,2.0
19.773,0.011,0.126,3.0
19.75,0.011,0.01,8.0
19.802,0.011,-0.105,1.0
19.765,0.012,-0.222,2.0
19.772,0.012,-0.338,1.0
19.794,0.012,-0.454,2.0
19.782,0.012,0.084,7.0
19.746,0.012,-0.031,51.0
19.76,0.013,-0.147,1.0
19.761,0.013,-0.264,2.0
19.76,0.013,-0.38,2.0
19.785,0.013,-0.497,2.0
19.773,0.013,0.041,5.0
19.757,0.013,-0.074,2.0
19.757,0.013,-0.189,2.0
19.766,0.013,-0.307,2.0
19.785,0.014,-0.423,2.0
19.776,0.014,-0.539,5.0
19.742,0.013,0.0,15.0
19.791,0.013,-0.116,1.0
19.783,0.013,-0.232,1.0
19.776,0.013,-0.35,1.0
19.781,0.013,-0.466,2.0
19.789,0.013,-0.581,2.0
19.73,0.012,-0.042,36.0
19.781,0.012,-0.158,1.0
19.762,0.012,-0.274,2.0
19.784,0.012,-0.392,2.0
19.778,0.012,-0.508,2.0
19.797,0.012,-0.624,2.0
19.766,0.011,-0.084,1.0
19.782,0.011,-0.2,1.0
19.781,0.011,-0.316,1.0
19.788,0.011,-0.434,1.0
19.774,0.01,-0.55,2.0
19.911,0.01,-0.67,0.0
19.774,0.009,-0.127,1.0
19.772,0.009,-0.242,1.0
19.771,0.008,-0.358,1.0
19.787,0.008,-0.476,1.0
19.803,0.008,-0.593,1.0
19.897,0.008,-0.712,0.0
19.796,0.006,-0.169,0.0
19.782,0.006,-0.285,0.0
19.77,0.005,-0.4,1.0
19.758,0.005,-0.518,0.0
19.782,0.005,-0.634,0.0
19.746,0.004,-0.749,2.0
19.797,0.002,-0.211,0.0
19.798,0.002,-0.327,0.0
19.794,0.002,-0.443,0.0
19.788,0.001,-0.56,0.0
21.24,0.001,-0.726,0.0
19.517,0.0,-0.781,1.0
0.0,0.0,0.0,0.0
0.0,0.0,0.0,0.0
26.859,-0.003,-0.658,0.0
23.141,-0.003,-0.705,0.0
19.899,-0.003,-0.723,0.0
18.694,-0.004,-0.788,0.0
34.274,-0.011,-0.51,0.0
29.141,-0.01,-0.604,0.0
25.598,-0.01,-0.681,0.0
21.935,-0.009,-0.714,0.0
19.732,-0.009,-0.758,2.0
18.102,-0.009,-0.801,0.0
32.117,-0.019,-0.545,0.0
27.616,-0.018,-0.631,0.0
24.078,-0.016,-0.69,0.0
21.017,-0.015,-0.728,0.0
19.338,-0.015,-0.783,0.0
17.332,-0.014,-0.803,0.0
29.888,-0.028,-0.57,0.0
26.185,-0.026,-0.652,0.0
23.048,-0.023,-0.709,0.0
19.902,-0.021,-0.73,0.0
18.628,-0.021,-0.793,0.0
16.783,-0.019,-0.813,0.0
28.636,-0.037,-0.605,0.0
24.757,-0.033,-0.668,0.0
21.652,-0.03,-0.711,0.0
19.702,-0.028,-0.764,2.0
17.923,-0.027,-0.8,0.0
16.112,-0.025,-0.813,0.0
27.065,-0.046,-0.627,0.0
23.892,-0.042,-0.693,0.0
21.013,-0.038,-0.733,0.0
19.166,-0.036,-0.782,0.0
17.277,-0.033,-0.806,0.0
15.671,-0.031,-0.823,0.0
26.067,-0.056,-0.657,0.0
22.896,-0.05,-0.711,0.0
19.852,-0.045,-0.732,1.0
18.458,-0.043,-0.791,0.0
16.611,-0.039,-0.809,0.0
15.221,-0.037,-0.831,0.0
24.766,-0.065,-0.674,0.0
21.782,-0.058,-0.72,0.0
19.691,-0.054,-0.766,2.0
17.72,-0.05,-0.795,0.0
16.233,-0.047,-0.823,0.0
14.865,-0.044,-0.841,0.0
23.878,-0.074,-0.698,0.0
20.767,-0.066,-0.728,0.0
19.182,-0.062,-0.785,0.0
17.209,-0.057,-0.806,0.0
15.654,-0.053,-0.825,0.0
14.372,-0.05,-0.842,0.0
19.791,-0.072,-0.617,0.0
19.817,-0.074,-0.734,2.0
18.49,-0.07,-0.793,0.0
16.559,-0.064,-0.808,0.0
15.042,-0.059,-0.823,0.0
14.003,-0.056,-0.848,0.0
13.861,-0.243,-0.847,0.0
12.775,-0.226,-0.855,0.0
12.021,-0.215,-0.874,0.0
11.275,-0.203,-0.887,0.0
10.664,-0.194,-0.901,0.0
10.064,-0.185,-0.909,0.0
13.584,-0.253,-0.851,0.0
12.579,-0.236,-0.861,0.0
11.881,-0.225,-0.882,0.0
11.115,-0.212,-0.891,0.0
10.494,-0.202,-0.902,0.0
9.917,-0.193,-0.911,0.0
13.176,-0.259,-0.844,0.0
12.348,-0.245,-0.863,0.0
11.635,-0.233,-0.881,0.0
10.952,-0.221,-0.894,0.0
10.344,-0.211,-0.905,0.0
9.776,-0.201,-0.912,0.0
13.028,-0.271,-0.853,0.0
12.259,-0.257,-0.874,0.0
11.5,-0.243,-0.887,0.0
10.797,-0.23,-0.896,0.0
10.214,-0.22,-0.907,0.0
9.665,-0.21,-0.915,0.0
12.721,-0.279,-0.851,0.0
12.097,-0.267,-0.879,0.0
11.31,-0.252,-0.888,0.0
10.655,-0.239,-0.899,0.0
10.059,-0.228,-0.908,0.0
9.546,-0.218,-0.917,0.0
12.542,-0.29,-0.856,0.0
11.867,-0.276,-0.879,0.0
11.173,-0.262,-0.892,0.0
10.539,-0.249,-0.904,0.0
9.945,-0.237,-0.911,0.0
9.452,-0.227,-0.921,0.0
12.416,-0.301,-0.864,0.0
11.703,-0.286,-0.882,0.0
10.972,-0.27,-0.89,0.0
10.35,-0.257,-0.901,0.0
9.813,-0.245,-0.911,0.0
9.314,-0.235,-0.919,0.0
12.327,-0.314,-0.873,0.0
11.509,-0.295,-0.882,0.0
10.854,-0.28,-0.895,0.0
10.248,-0.267,-0.905,0.0
9.731,-0.255,-0.916,0.0
9.207,-0.243,-0.92,0.0
12.085,-0.322,-0.871,0.0
11.419,-0.306,-0.889,0.0
10.723,-0.29,-0.897,0.0
10.136,-0.276,-0.908,0.0
9.605,-0.263,-0.916,0.0
9.127,-0.252,-0.923,0.0
11.954,-0.333,-0.876,0.0
11.26,-0.316,-0.89,0.0
10.592,-0.299,-0.899,0.0
9.996,-0.284,-0.907,0.0
9.509,-0.272,-0.918,0.0
9.023,-0.26,-0.924,0.0
11.795,-0.343,-0.878,0.0
11.089,-0.325,-0.889,0.0
10.48,-0.309,-0.901,0.0
9.88,-0.293,-0.908,0.0
9.42,-0.282,-0.92,0.0
8.932,-0.269,-0.924,0.0
11.658,-0.354,-0.881,0.0
10.994,-0.336,-0.894,0.0
10.378,-0.319,-0.904,0.0
9.796,-0.303,-0.911,0.0
9.323,-0.291,-0.921,0.0
8.872,-0.278,-0.928,0.0
11.513,-0.364,-0.882,0.0
10.888,-0.346,-0.897,0.0
10.261,-0.328,-0.905,0.0
9.713,-0.313,-0.914,0.0
9.212,-0.299,-0.92,0.0
8.77,-0.286,-0.926,0.0
11.431,-0.376,-0.888,0.0
10.762,-0.356,-0.898,0.0
10.184,-0.339,-0.908,0.0
9.632,-0.323,-0.916,0.0
9.171,-0.309,-0.925,0.0
8.7,-0.295,-0.928,0.0
11.298,-0.386,-0.889,0.0
10.673,-0.367,-0.901,0.0
10.082,-0.349,-0.909,0.0
9.547,-0.332,-0.917,0.0
9.111,-0.319,-0.928,0.0
8.651,-0.305,-0.931,0.0
11.154,-0.395,-0.888,0.0
10.566,-0.377,-0.902,0.0
10.002,-0.359,-0.911,0.0
9.472,-0.342,-0.919,0.0
9.023,-0.328,-0.927,0.0
8.562,-0.313,-0.93,0.0
11.033,-0.406,-0.888,0.0
10.474,-0.387,-0.904,0.0
9.889,-0.368,-0.91,0.0
9.401,-0.352,-0.92,0.0
8.926,-0.336,-0.925,0.0
8.506,-0.322,-0.931,0.0
10.989,-0.418,-0.894,0.0
10.395,-0.398,-0.906,0.0
9.827,-0.379,-0.913,0.0
9.32,-0.361,-0.92,0.0
8.882,-0.346,-0.928,0.0
8.446,-0.331,-0.931,0.0
10.874,-0.428,-0.894,0.0
10.307,-0.408,-0.907,0.0
9.761,-0.389,-0.915,0.0
9.262,-0.371,-0.922,0.0
8.806,-0.355,-0.928,0.0
8.413,-0.341,-0.935,0.0
10.792,-0.44,-0.896,0.0
10.242,-0.419,-0.909,0.0
9.676,-0.398,-0.914,0.0
9.202,-0.381,-0.923,0.0
8.742,-0.364,-0.927,0.0
8.38,-0.351,-0.937,0.0
10.704,-0.45,-0.896,0.0
10.154,-0.429,-0.908,0.0
9.619,-0.409,-0.916,0.0
9.151,-0.391,-0.925,0.0
8.688,-0.374,-0.928,0.0
8.29,-0.358,-0.933,0.0
10.655,-0.462,-0.9,0.0
10.069,-0.439,-0.908,0.0
9.562,-0.419,-0.917,0.0
9.078,-0.4,-0.923,0.0
8.63,-0.383,-0.927,0.0
8.265,-0.368,-0.936,0.0
10.609,-0.474,-0.903,0.0
10.034,-0.451,-0.911,0.0
9.509,-0.43,-0.918,0.0
9.029,-0.41,-0.924,0.0
8.589,-0.392,-0.928,0.0
8.205,-0.377,-0.934,0.0
10.546,-0.486,-0.904,0.0
9.978,-0.462,-0.912,0.0
9.452,-0.44,-0.918,0.0
8.975,-0.42,-0.924,0.0
8.567,-0.403,-0.931,0.0
8.157,-0.386,-0.933,0.0
10.475,-0.496,-0.903,0.0
9.91,-0.472,-0.911,0.0
9.4,-0.45,-0.918,0.0
8.952,-0.431,-0.926,0.0
8.524,-0.412,-0.931,0.0
8.138,-0.396,-0.935,0.0
10.415,-0.508,-0.904,0.0
9.865,-0.483,-0.912,0.0
9.362,-0.461,-0.919,0.0
8.89,-0.44,-0.924,0.0
8.495,-0.422,-0.932,0.0
8.118,-0.406,-0.937,0.0
10.381,-0.52,-0.905,0.0
9.809,-0.494,-0.911,0.0
9.318,-0.471,-0.919,0.0
8.876,-0.451,-0.927,0.0
8.449,-0.431,-0.931,0.0
8.096,-0.415,-0.938,0.0
10.334,-0.531,-0.906,0.0
9.806,-0.507,-0.915,0.0
9.299,-0.483,-0.921,0.0
8.835,-0.461,-0.926,0.0
8.435,-0.442,-0.932,0.0
8.047,-0.424,-0.936,0.0
10.291,-0.543,-0.906,0.0
9.74,-0.516,-0.913,0.0
9.267,-0.493,-0.921,0.0
8.825,-0.472,-0.928,0.0
8.437,-0.453,-0.936,0.0
8.021,-0.433,-0.935,0.0
10.275,-0.555,-0.908,0.0
9.719,-0.528,-0.914,0.0
9.229,-0.504,-0.92,0.0
8.79,-0.482,-0.927,0.0
8.408,-0.463,-0.935,0.0
8.011,-0.443,-0.936,0.0
10.236,-0.567,-0.908,0.0
9.716,-0.541,-0.917,0.0
9.215,-0.515,-0.921,0.0
8.795,-0.494,-0.93,0.0
8.368,-0.472,-0.933,0.0
7.994,-0.453,-0.937,0.0
10.23,-0.58,-0.91,0.0
9.689,-0.552,-0.916,0.0
9.207,-0.527,-0.923,0.0
8.768,-0.504,-0.929,0.0
8.365,-0.483,-0.934,0.0
7.967,-0.462,-0.935,0.0
10.188,-0.591,-0.908,0.0
9.665,-0.563,-0.916,0.0
9.198,-0.538,-0.924,0.0
8.752,-0.514,-0.929,0.0
8.326,-0.491,-0.931,0.0
7.968,-0.472,-0.937,0.0
10.203,-0.605,-0.911,0.0
9.666,-0.576,-0.917,0.0
9.184,-0.549,-0.924,0.0
8.743,-0.525,-0.93,0.0
8.341,-0.503,-0.934,0.0
7.961,-0.482,-0.937,0.0
10.19,-0.618,-0.911,0.0
9.662,-0.588,-0.918,0.0
9.17,-0.56,-0.923,0.0
8.727,-0.535,-0.929,0.0
8.351,-0.515,-0.936,0.0
7.974,-0.493,-0.939,0.0
10.195,-0.631,-0.912,0.0
9.663,-0.6,-0.919,0.0
9.187,-0.573,-0.925,0.0
8.738,-0.547,-0.93,0.0
8.337,-0.524,-0.935,0.0
7.987,-0.504,-0.941,0.0
10.169,-0.642,-0.91,0.0
9.67,-0.613,-0.92,0.0
9.185,-0.585,-0.925,0.0
8.749,-0.559,-0.931,0.0
8.339,-0.535,-0.935,0.0
7.966,-0.513,-0.938,0.0
10.163,-0.655,-0.909,0.0
9.655,-0.624,-0.918,0.0
9.178,-0.596,-0.924,0.0
8.749,-0.57,-0.931,0.0
8.35,-0.546,-0.936,0.0
7.954,-0.523,-0.936,0.0
10.168,-0.668,-0.909,0.0
9.695,-0.639,-0.921,0.0
9.184,-0.608,-0.924,0.0
8.753,-0.581,-0.931,0.0
8.358,-0.557,-0.936,0.0
7.972,-0.533,-0.938,0.0
10.149,-0.679,-0.906,0.0
9.687,-0.65,-0.919,0.0
9.19,-0.619,-0.924,0.0
8.751,-0.592,-0.929,0.0
8.364,-0.568,-0.935,0.0
8.0,-0.545,-0.94,0.0
10.202,-0.695,-0.91,0.0
9.701,-0.663,-0.919,0.0
9.202,-0.631,-0.923,0.0
8.775,-0.604,-0.931,0.0
8.415,-0.581,-0.94,0.0
7.983,-0.554,-0.936,0.0
10.162,-0.704,-0.904,0.0
9.697,-0.674,-0.917,0.0
9.238,-0.645,-0.925,0.0
8.784,-0.615,-0.93,0.0
8.383,-0.589,-0.934,0.0
8.018,-0.566,-0.939,0.0
10.168,-0.717,-0.902,0.0
9.703,-0.686,-0.915,0.0
9.232,-0.655,-0.922,0.0
8.814,-0.628,-0.931,0.0
8.421,-0.602,-0.936,0.0
8.042,-0.577,-0.939,0.0
10.266,-0.735,-0.908,0.0
9.782,-0.703,-0.92,0.0
9.289,-0.67,-0.925,0.0
8.837,-0.64,-0.93,0.0
8.424,-0.612,-0.934,0.0
8.031,-0.585,-0.935,0.0
10.26,-0.747,-0.905,0.0
9.796,-0.715,-0.918,0.0
9.317,-0.682,-0.925,0.0
8.875,-0.652,-0.931,0.0
8.474,-0.625,-0.937,0.0
8.063,-0.597,-0.936,0.0
10.331,-0.764,-0.907,0.0
9.829,-0.729,-0.917,0.0
9.354,-0.696,-0.925,0.0
8.913,-0.665,-0.932,0.0
8.469,-0.634,-0.933,0.0
8.123,-0.61,-0.94,0.0
10.388,-0.779,-0.908,0.0
9.867,-0.742,-0.917,0.0
9.395,-0.709,-0.925,0.0
8.951,-0.678,-0.932,0.0
8.51,-0.646,-0.934,0.0
8.125,-0.619,-0.937,0.0
10.44,-0.794,-0.908,0.0
9.865,-0.753,-0.912,0.0
9.43,-0.722,-0.924,0.0
8.973,-0.689,-0.93,0.0
8.563,-0.659,-0.935,0.0
8.162,-0.63,-0.937,0.0
10.542,-0.813,-0.912,0.0
9.961,-0.771,-0.916,0.0
9.467,-0.735,-0.923,0.0
8.977,-0.698,-0.926,0.0
8.595,-0.671,-0.934,0.0
8.195,-0.641,-0.936,0.0
10.58,-0.827,-0.91,0.0
9.952,-0.78,-0.91,0.0
9.495,-0.746,-0.921,0.0
9.042,-0.713,-0.928,0.0
8.641,-0.683,-0.935,0.0
8.241,-0.653,-0.937,0.0
10.564,-0.836,-0.902,0.0
10.027,-0.796,-0.912,0.0
9.523,-0.758,-0.918,0.0
9.094,-0.726,-0.928,0.0
8.684,-0.695,-0.934,0.0
8.245,-0.662,-0.933,0.0
10.66,-0.854,-0.904,0.0
10.105,-0.812,-0.913,0.0
9.563,-0.77,-0.916,0.0
9.17,-0.741,-0.93,0.0
8.725,-0.707,-0.933,0.0
8.308,-0.675,-0.934,0.0
10.769,-0.873,-0.907,0.0
10.186,-0.828,-0.913,0.0
9.641,-0.786,-0.917,0.0
9.227,-0.754,-0.93,0.0
8.789,-0.72,-0.934,0.0
8.385,-0.689,-0.938,0.0
10.844,-0.889,-0.906,0.0
10.243,-0.842,-0.912,0.0
9.721,-0.801,-0.919,0.0
9.243,-0.764,-0.925,0.0
8.837,-0.732,-0.933,0.0
8.441,-0.701,-0.938,0.0
10.938,-0.907,-0.906,0.0
10.289,-0.855,-0.908,0.0
9.833,-0.819,-0.922,0.0
9.31,-0.777,-0.925,0.0
8.891,-0.744,-0.932,0.0
8.516,-0.714,-0.94,0.0
11.037,-0.924,-0.906,0.0
10.407,-0.874,-0.911,0.0
9.863,-0.83,-0.917,0.0
9.358,-0.789,-0.923,0.0
8.944,-0.756,-0.931,0.0
8.527,-0.722,-0.934,0.0
11.089,-0.938,-0.902,0.0
10.382,-0.88,-0.901,0.0
9.976,-0.847,-0.92,0.0
9.458,-0.805,-0.925,0.0
9.014,-0.769,-0.931,0.0
8.586,-0.734,-0.934,0.0
11.167,-0.953,-0.899,0.0
10.549,-0.902,-0.907,0.0
10.004,-0.858,-0.915,0.0
9.493,-0.816,-0.921,0.0
9.075,-0.781,-0.93,0.0
8.66,-0.747,-0.935,0.0
11.247,-0.969,-0.896,0.0
10.69,-0.923,-0.91,0.0
10.113,-0.875,-0.916,0.0
9.576,-0.83,-0.92,0.0
9.174,-0.797,-0.932,0.0
8.73,-0.76,-0.935,0.0
11.404,-0.991,-0.899,0.0
10.708,-0.932,-0.902,0.0
10.188,-0.888,-0.913,0.0
9.695,-0.847,-0.923,0.0
9.239,-0.809,-0.93,0.0
8.815,-0.773,-0.936,0.0
11.482,-1.005,-0.894,0.0
10.871,-0.954,-0.906,0.0
10.252,-0.901,-0.91,0.0
9.811,-0.864,-0.925,0.0
9.331,-0.823,-0.931,0.0
8.9,-0.787,-0.936,0.0
11.602,-1.024,-0.893,0.0
11.02,-0.974,-0.908,0.0
10.384,-0.919,-0.912,0.0
9.923,-0.88,-0.926,0.0
9.386,-0.834,-0.927,0.0
8.951,-0.797,-0.933,0.0
11.733,-1.043,-0.891,0.0
11.089,-0.987,-0.902,0.0
10.522,-0.938,-0.913,0.0
9.975,-0.891,-0.921,0.0
9.465,-0.847,-0.925,0.0
9.016,-0.808,-0.931,0.0
11.85,-1.06,-0.888,0.0
11.199,-1.004,-0.9,0.0
10.578,-0.949,-0.907,0.0
10.102,-0.908,-0.922,0.0
9.588,-0.863,-0.927,0.0
9.159,-0.826,-0.936,0.0
12.045,-1.084,-0.891,0.0
11.365,-1.025,-0.902,0.0
10.709,-0.967,-0.908,0.0
10.176,-0.92,-0.918,0.0
9.659,-0.875,-0.924,0.0
9.201,-0.835,-0.93,0.0
12.153,-1.1,-0.886,0.0
11.433,-1.037,-0.895,0.0
10.832,-0.984,-0.906,0.0
10.252,-0.932,-0.914,0.0
9.768,-0.89,-0.924,0.0
9.328,-0.851,-0.933,0.0
12.355,-1.125,-0.887,0.0
11.609,-1.058,-0.896,0.0
11.006,-1.004,-0.909,0.0
10.438,-0.954,-0.919,0.0
9.931,-0.909,-0.928,0.0
9.384,-0.86,-0.928,0.0
12.52,-1.145,-0.885,0.0
11.735,-1.075,-0.893,0.0
11.046,-1.013,-0.9,0.0
10.484,-0.962,-0.912,0.0
10.005,-0.92,-0.924,0.0
9.494,-0.874,-0.928,0.0
12.565,-1.154,-0.874,0.0
11.817,-1.087,-0.886,0.0
11.208,-1.032,-0.9,0.0
10.612,-0.978,-0.911,0.0
10.101,-0.932,-0.921,0.0
9.611,-0.888,-0.928,0.0
12.765,-1.177,-0.873,0.0
12.035,-1.111,-0.888,0.0
11.345,-1.049,-0.898,0.0
10.769,-0.996,-0.911,0.0
10.17,-0.942,-0.915,0.0
9.732,-0.903,-0.928,0.0
13.045,-1.207,-0.877,0.0
12.204,-1.131,-0.886,0.0
11.497,-1.066,-0.896,0.0
10.884,-1.01,-0.908,0.0
10.318,-0.959,-0.916,0.0
9.842,-0.916,-0.927,0.0
13.234,-1.229,-0.874,0.0
12.415,-1.154,-0.886,0.0
11.716,-1.09,-0.899,0.0
10.988,-1.023,-0.903,0.0
10.482,-0.977,-0.918,0.0
9.94,-0.927,-0.924,0.0
13.519,-1.258,-0.876,0.0
12.506,-1.165,-0.877,0.0
11.854,-1.105,-0.895,0.0
11.159,-1.041,-0.904,0.0
10.605,-0.99,-0.915,0.0
10.046,-0.939,-0.921,0.0
13.674,-1.276,-0.87,0.0
12.683,-1.184,-0.874,0.0
12.033,-1.124,-0.894,0.0
11.28,-1.054,-0.899,0.0
10.759,-1.007,-0.915,0.0
10.151,-0.95,-0.918,0.0
13.961,-1.305,-0.87,0.0
12.96,-1.212,-0.877,0.0
12.242,-1.145,-0.894,0.0
11.48,-1.075,-0.901,0.0
10.853,-1.017,-0.909,0.0
10.353,-0.971,-0.923,0.0
14.222,-1.331,-0.868,0.0
13.246,-1.24,-0.879,0.0
12.32,-1.154,-0.883,0.0
11.662,-1.093,-0.9,0.0
10.968,-1.028,-0.905,0.0
10.507,-0.986,-0.923,0.0
14.457,-1.354,-0.864,0.0
13.493,-1.264,-0.878,0.0
12.536,-1.175,-0.883,0.0
11.793,-1.106,-0.894,0.0
11.207,-1.051,-0.91,0.0
10.571,-0.992,-0.915,0.0
14.744,-1.381,-0.862,0.0
13.711,-1.285,-0.874,0.0
12.788,-1.199,-0.883,0.0
11.918,-1.117,-0.888,0.0
11.316,-1.061,-0.903,0.0
10.72,-1.006,-0.913,0.0
15.037,-1.408,-0.859,0.0
13.969,-1.309,-0.872,0.0
12.912,-1.21,-0.875,0.0
12.16,-1.14,-0.89,0.0
11.491,-1.077,-0.902,0.0
10.902,-1.022,-0.914,0.0
15.314,-1.433,-0.854,0.0
14.243,-1.333,-0.87,0.0
13.205,-1.236,-0.876,0.0
12.352,-1.157,-0.887,0.0
11.646,-1.091,-0.898,0.0
11.054,-1.036,-0.911,0.0
15.683,-1.466,-0.853,0.0
14.502,-1.356,-0.866,0.0
13.499,-1.262,-0.878,0.0
12.551,-1.174,-0.884,0.0
11.802,-1.104,-0.894,0.0
11.194,-1.047,-0.908,0.0
15.982,-1.492,-0.848,0.0
14.818,-1.383,-0.865,0.0
13.756,-1.284,-0.875,0.0
12.666,-1.182,-0.875,0.0
12.03,-1.123,-0.895,0.0
11.341,-1.059,-0.904,0.0
16.402,-1.528,-0.848,0.0
15.055,-1.403,-0.858,0.0
14.009,-1.305,-0.872,0.0
12.983,-1.209,-0.879,0.0
12.232,-1.139,-0.893,0.0
11.501,-1.071,-0.9,0.0
16.726,-1.555,-0.841,0.0
15.36,-1.427,-0.854,0.0
14.334,-1.331,-0.872,0.0
13.308,-1.236,-0.882,0.0
12.434,-1.155,-0.89,0.0
11.705,-1.087,-0.9,0.0
17.076,-1.583,-0.834,0.0
15.738,-1.458,-0.852,0.0
14.535,-1.346,-0.864,0.0
13.516,-1.251,-0.877,0.0
12.587,-1.165,-0.883,0.0
11.869,-1.098,-0.896,0.0
17.353,-1.603,-0.824,0.0
16.046,-1.481,-0.846,0.0
14.879,-1.373,-0.864,0.0
13.806,-1.273,-0.876,0.0
12.853,-1.185,-0.883,0.0
12.114,-1.116,-0.897,0.0
17.692,-1.627,-0.815,0.0
16.496,-1.517,-0.847,0.0
15.188,-1.395,-0.86,0.0
14.077,-1.293,-0.873,0.0
13.019,-1.195,-0.876,0.0
12.326,-1.131,-0.895,0.0
18.239,-1.67,-0.814,0.0
16.871,-1.544,-0.842,0.0
15.447,-1.413,-0.853,0.0
14.367,-1.313,-0.871,0.0
13.32,-1.217,-0.878,0.0
12.453,-1.137,-0.887,0.0
18.613,-1.696,-0.805,0.0
17.154,-1.562,-0.832,0.0
15.866,-1.444,-0.853,0.0
14.609,-1.328,-0.865,0.0
13.619,-1.237,-0.878,0.0
12.607,-1.145,-0.879,0.0
19.357,-1.754,-0.809,0.0
17.422,-1.578,-0.82,0.0
16.155,-1.462,-0.846,0.0
15.011,-1.357,-0.867,0.0
13.909,-1.256,-0.877,0.0
12.964,-1.17,-0.886,0.0
19.658,-1.771,-0.794,0.0
17.881,-1.61,-0.817,0.0
16.515,-1.485,-0.841,0.0
15.244,-1.369,-0.859,0.0
14.168,-1.271,-0.873,0.0
13.093,-1.174,-0.876,0.0
20.157,-1.804,-0.786,0.0
18.368,-1.642,-0.813,0.0
16.961,-1.515,-0.84,0.0
15.604,-1.392,-0.857,0.0
14.485,-1.291,-0.872,0.0
13.385,-1.192,-0.876,0.0
20.507,-1.823,-0.77,0.0
18.88,-1.676,-0.808,0.0
17.254,-1.53,-0.83,0.0
15.877,-1.406,-0.849,0.0
14.725,-1.303,-0.865,0.0
13.722,-1.212,-0.879,0.0
21.154,-1.866,-0.764,0.0
19.465,-1.715,-0.806,0.0
17.829,-1.569,-0.832,0.0
16.266,-1.429,-0.846,0.0
15.015,-1.318,-0.861,0.0
14.008,-1.228,-0.877,0.0
21.914,-1.918,-0.761,0.0
19.9,-1.739,-0.795,0.0
18.213,-1.589,-0.824,0.0
16.634,-1.449,-0.842,0.0
15.316,-1.332,-0.856,0.0
14.281,-1.241,-0.873,0.0
22.37,-1.94,-0.744,0.0
20.146,-1.745,-0.777,0.0
18.553,-1.604,-0.813,0.0
16.973,-1.465,-0.835,0.0
15.61,-1.346,-0.85,0.0
14.562,-1.254,-0.87,0.0
23.154,-1.99,-0.738,0.0
20.642,-1.771,-0.766,0.0
19.037,-1.63,-0.807,0.0
17.45,-1.492,-0.834,0.0
16.087,-1.373,-0.853,0.0
14.888,-1.269,-0.868,0.0
23.912,-2.035,-0.728,0.0
21.562,-1.831,-0.77,0.0
19.636,-1.665,-0.805,0.0
17.631,-1.492,-0.817,0.0
16.489,-1.393,-0.851,0.0
15.132,-1.276,-0.861,0.0
0.0,0.0,0.0,0.0
21.917,-1.842,-0.752,0.0
20.029,-1.68,-0.793,0.0
18.25,-1.528,-0.821,0.0
16.908,-1.413,-0.85,0.0
15.463,-1.29,-0.859,0.0
24.884,-2.072,-0.689,0.0
22.724,-1.889,-0.748,0.0
20.465,-1.697,-0.782,0.0
18.759,-1.553,-0.818,0.0
17.188,-1.42,-0.84,0.0
15.702,-1.294,-0.85,0.0
25.649,-2.111,-0.674,0.0
23.493,-1.93,-0.741,0.0
20.972,-1.719,-0.772,0.0
19.187,-1.569,-0.81,0.0
17.444,-1.424,-0.828,0.0
16.132,-1.314,-0.851,0.0
27.149,-2.207,-0.677,0.0
23.94,-1.942,-0.723,0.0
21.617,-1.749,-0.766,0.0
19.733,-1.593,-0.806,0.0
17.931,-1.445,-0.827,0.0
16.457,-1.323,-0.846,0.0
27.831,-2.234,-0.656,0.0
0.0,0.0,0.0,0.0
22.156,-1.77,-0.756,0.0
19.953,-1.59,-0.788,0.0
18.356,-1.459,-0.821,0.0
16.839,-1.335,-0.843,0.0
28.255,-2.237,-0.627,0.0
0.0,0.0,0.0,0.0
22.927,-1.806,-0.751,3.0
20.508,-1.611,-0.782,0.0
18.886,-1.48,-0.82,0.0
17.221,-1.346,-0.838,0.0
29.892,-2.333,-0.624,0.0
26.058,-2.028,-0.681,0.0
23.453,-1.82,-0.737,0.0
21.076,-1.631,-0.775,0.0
19.349,-1.493,-0.814,0.0
17.816,-1.371,-0.844,0.0
30.618,-2.353,-0.598,0.0
26.938,-2.064,-0.668,0.0
24.01,-1.835,-0.722,0.0
21.498,-1.638,-0.762,0.0
19.741,-1.5,-0.804,0.0
18.1,-1.371,-0.833,0.0
32.622,-2.467,-0.594,0.0
28.246,-2.13,-0.663,0.0
24.816,-1.865,-0.713,0.0
22.094,-1.656,-0.754,0.0
20.184,-1.508,-0.796,0.0
18.467,-1.376,-0.825,0.0
0.0,0.0,0.0,0.0
29.178,-2.163,-0.647,0.0
25.616,-1.893,-0.703,0.0
22.42,-1.651,-0.736,0.0
20.476,-1.503,-0.781,0.0
18.895,-1.383,-0.82,0.0
0.0,0.0,0.0,0.0
29.978,-2.183,-0.626,0.0
0.0,0.0,0.0,0.0
0.0,0.0,0.0,0.0
21.042,-1.517,-0.775,0.0
19.248,-1.383,-0.811,0.0
0.0,0.0,0.0,0.0
30.448,-2.176,-0.597,0.0
27.217,-1.938,-0.678,0.0
24.02,-1.705,-0.727,0.0
21.442,-1.516,-0.763,0.0
19.768,-1.393,-0.808,0.0
0.0,0.0,0.0,0.0
30.047,-2.106,-0.552,0.0
27.823,-1.943,-0.658,0.0
24.339,-1.693,-0.707,0.0
22.104,-1.532,-0.759,0.0
20.032,-1.384,-0.794,0.0
40.098,-2.765,-0.475,0.0
0.0,0.0,0.0,0.0
28.98,-1.983,-0.65,0.0
25.791,-1.758,-0.718,0.0
22.327,-1.516,-0.74,0.0
20.479,-1.385,-0.787,0.0
0.0,0.0,0.0,0.0
33.833,-2.275,-0.539,0.0
29.884,-2.001,-0.635,0.0
26.65,-1.778,-0.71,0.0
23.259,-1.545,-0.743,0.0
20.885,-1.382,-0.778,0.0
0.0,0.0,0.0,0.0
34.889,-2.295,-0.515,0.0
30.524,-1.999,-0.612,0.0
0.0,0.0,0.0,0.0
23.716,-1.54,-0.729,0.0
21.282,-1.376,-0.767,0.0
0.0,0.0,0.0,0.0
0.0,0.0,0.0,0.0
31.118,-1.991,-0.588,0.0
27.369,-1.743,-0.665,0.0
24.347,-1.543,-0.721,0.0
21.789,-1.375,-0.761,0.0
0.0,0.0,0.0,0.0
38.086,-2.388,-0.474,0.0
32.744,-2.043,-0.581,0.0
28.2,-1.751,-0.653,0.0
24.897,-1.539,-0.709,0.0
22.599,-1.391,-0.763,0.0
0.0,0.0,0.0,0.0
40.738,-2.489,-0.461,0.0
33.548,-2.04,-0.558,0.0
29.353,-1.776,-0.647,0.0
25.266,-1.522,-0.691,0.0
22.786,-1.366,-0.745,0.0
0.0,0.0,0.0,0.0
41.315,-2.458,-0.423,0.0
0.0,0.0,0.0,0.0
30.052,-1.77,-0.63,0.0
26.563,-1.557,-0.698,0.0
23.329,-1.36,-0.737,0.0
0.0,0.0,0.0,0.0
43.109,-2.494,-0.396,0.0
36.091,-2.077,-0.523,0.0
0.0,0.0,0.0,0.0
26.909,-1.532,-0.679,0.0
24.189,-1.37,-0.739,1.0
0.0,0.0,0.0,0.0
0.0,0.0,0.0,0.0
36.635,-2.047,-0.493,0.0
30.752,-1.709,-0.581,0.0
0.0,0.0,0.0,0.0
24.447,-1.343,-0.722,0.0
0.0,0.0,0.0,0.0
0.0,0.0,0.0,0.0
0.0,0.0,0.0,0.0
32.255,-1.737,-0.577,0.0
28.159,-1.507,-0.653,0.0
24.666,-1.313,-0.704,0.0
0.0,0.0,0.0,0.0
0.0,0.0,0.0,0.0
0.0,0.0,0.0,0.0
32.808,-1.71,-0.554,0.0
29.139,-1.509,-0.648,0.0
24.668,-1.269,-0.68,0.0
0.0,0.0,0.0,0.0
0.0,0.0,0.0,0.0
0.0,0.0,0.0,0.0
0.0,0.0,0.0,0.0
29.907,-1.496,-0.636,0.0
24.878,-1.236,-0.662,0.0
0.0,0.0,0.0,0.0
0.0,0.0,0.0,0.0
0.0,0.0,0.0,0.0
0.0,0.0,0.0,0.0
30.347,-1.462,-0.618,0.0
27.068,-1.296,-0.696,0.0
101.728,-4.853,0.203,1.0
0.0,0.0,0.0,0.0
0.0,0.0,0.0,0.0
0.0,0.0,0.0,0.0
30.533,-1.416,-0.595,0.0
27.624,-1.272,-0.686,0.0
0.0,0.0,0.0,0.0
0.0,0.0,0.0,0.0
0.0,0.0,0.0,0.0
0.0,0.0,0.0,0.0
30.856,-1.374,-0.574,0.0
27.167,-1.201,-0.651,0.0
0.0,0.0,0.0,0.0
0.0,0.0,0.0,0.0
0.0,0.0,0.0,0.0
0.0,0.0,0.0,0.0
0.0,0.0,0.0,0.0
28.786,-1.218,-0.666,0.0
0.0,0.0,0.0,0.0
0.0,0.0,0.0,0.0
0.0,0.0,0.0,0.0
40.096,-1.648,-0.466,0.0
33.576,-1.368,-0.571,0.0
0.0,0.0,0.0,0.0
0.0,0.0,0.0,0.0
0.0,0.0,0.0,0.0
0.0,0.0,0.0,0.0
0.0,0.0,0.0,0.0
0.0,0.0,0.0,0.0
29.993,-1.155,-0.648,0.0
0.0,0.0,0.0,0.0
0.0,0.0,0.0,0.0
0.0,0.0,0.0,0.0
0.0,0.0,0.0,0.0
0.0,0.0,0.0,0.0
30.204,-1.104,-0.63,0.0
160.696,-5.839,1.094,15.0
0.0,0.0,0.0,0.0
0.0,0.0,0.0,0.0
0.0,0.0,0.0,0.0
35.583,-1.243,-0.527,0.0
30.435,-1.053,-0.614,0.0
160.706,-5.524,1.205,12.0
0.0,0.0,0.0,0.0
0.0,0.0,0.0,0.0
0.0,0.0,0.0,0.0
36.737,-1.211,-0.519,0.0
30.931,-1.009,-0.604,0.0
161.025,-5.215,1.312,3.0
0.0,0.0,0.0,0.0
0.0,0.0,0.0,0.0
0.0,0.0,0.0,0.0
0.0,0.0,0.0,0.0
31.931,-0.977,-0.603,0.0
0.0,0.0,0.0,0.0
0.0,0.0,0.0,0.0
0.0,0.0,0.0,0.0
0.0,0.0,0.0,0.0
37.517,-1.085,-0.484,0.0
31.705,-0.906,-0.58,0.0
162.082,-4.592,1.518,15.0
0.0,0.0,0.0,0.0
0.0,0.0,0.0,0.0
0.0,0.0,0.0,0.0
38.069,-1.024,-0.47,0.0
31.897,-0.846,-0.566,0.0
162.009,-4.26,1.607,18.0
0.0,0.0,0.0,0.0
0.0,0.0,0.0,0.0
0.0,0.0,0.0,0.0
0.0,0.0,0.0,0.0
32.455,-0.795,-0.559,0.0
124.516,-3.017,1.3,2.0
0.0,0.0,0.0,0.0
0.0,0.0,0.0,0.0
0.0,0.0,0.0,0.0
0.0,0.0,0.0,0.0
32.972,-0.739,-0.552,0.0
124.491,-2.76,1.359,65.0
0.0,0.0,0.0,0.0
0.0,0.0,0.0,0.0
0.0,0.0,0.0,0.0
0.0,0.0,0.0,0.0
33.132,-0.674,-0.539,0.0
124.447,-2.498,1.415,40.0
0.0,0.0,0.0,0.0
0.0,0.0,0.0,0.0
0.0,0.0,0.0,0.0
0.0,0.0,0.0,0.0
34.53,-0.631,-0.548,0.0
124.45,-2.237,1.466,45.0
124.401,-2.19,0.79,3.0
0.0,0.0,0.0,0.0
0.0,0.0,0.0,0.0
42.781,-0.707,-0.43,0.0
35.313,-0.571,-0.547,0.0
124.463,-1.976,1.513,23.0
19.739,-0.306,0.132,18.0
0.0,0.0,0.0,0.0
0.0,0.0,0.0,0.0
0.0,0.0,0.0,0.0
34.921,-0.491,-0.529,0.0
19.754,-0.271,0.246,13.0
19.756,-0.264,0.139,26.0
0.0,0.0,0.0,0.0
0.0,0.0,0.0,0.0
0.0,0.0,0.0,0.0
0.0,0.0,0.0,0.0
19.758,-0.229,0.252,6.0
19.737,-0.222,0.145,0.0
0.0,0.0,0.0,0.0
0.0,0.0,0.0,0.0
19.783,-0.201,-0.18,0.0
19.763,-0.194,-0.288,8.0
169.371,-1.609,2.213,9.0
160.676,-1.466,1.222,11.0
0.0,0.0,0.0,0.0
19.771,-0.166,-0.067,7.0
19.742,-0.158,-0.175,14.0
19.74,-0.152,-0.283,17.0
0.0,0.0,0.0,0.0
19.73,-0.138,0.154,1.0
19.75,-0.131,0.046,8.0
19.75,-0.124,-0.063,8.0
19.72,-0.116,-0.171,16.0
19.748,-0.11,-0.279,16.0
19.683,-0.103,0.265,9.0
19.707,-0.096,0.157,13.0
19.701,-0.088,0.05,14.0
19.712,-0.081,-0.059,14.0
19.724,-0.074,-0.167,16.0
19.76,-0.067,-0.276,15.0
19.645,-0.06,0.267,10.0
