X,Y,Z,Reflectivity
19.652,0.139,-0.124,11.0
19.67,0.145,-0.236,5.0
19.684,0.151,-0.348,4.0
19.668,0.158,0.191,14.0
19.657,0.164,0.079,12.0
19.642,0.17,-0.031,13.0
19.629,0.176,-0.145,16.0
19.648,0.182,-0.256,16.0
19.652,0.188,-0.368,14.0
19.732,0.195,0.171,14.0
19.683,0.2,0.058,11.0
19.646,0.206,-0.052,9.0
19.627,0.212,-0.166,16.0
19.649,0.218,-0.277,18.0
19.662,0.224,-0.389,17.0
19.767,0.232,0.149,27.0
19.697,0.237,0.037,0.0
19.646,0.242,-0.074,12.0
19.638,0.248,-0.187,15.0
19.655,0.254,-0.299,14.0
19.672,0.26,-0.411,15.0
19.813,0.268,0.128,2.0
61.731,0.855,0.049,0.0
19.71,0.279,-0.096,2.0
19.679,0.284,-0.21,6.0
19.683,0.29,-0.322,4.0
28.26,0.425,-0.623,0.0
113.787,1.75,0.605,4.0
55.185,0.865,-0.02,24.0
42.463,0.677,-0.257,0.0
34.428,0.559,-0.407,0.0
28.586,0.472,-0.501,0.0
27.63,0.465,-0.641,1.0
55.164,0.946,0.228,85.0
55.153,0.962,-0.085,5.0
39.811,0.706,-0.288,1.0
31.949,0.575,-0.416,0.0
29.993,0.548,-0.561,0.0
27.009,0.502,-0.659,1.0
55.208,1.045,0.161,4.0
0.0,0.0,0.0,0.0
38.401,0.748,-0.325,2.0
31.165,0.616,-0.444,1.0
27.447,0.55,-0.547,0.0
26.329,0.535,-0.675,4.0
65.308,1.349,0.11,0.0
46.511,0.973,-0.186,0.0
36.489,0.773,-0.353,2.0
29.325,0.629,-0.454,1.0
25.352,0.551,-0.537,0.0
24.98,0.55,-0.671,1.0
58.227,1.301,0.025,0.0
43.82,0.991,-0.23,3.0
34.411,0.787,-0.376,1.0
29.164,0.675,-0.488,2.0
24.735,0.579,-0.555,0.0
22.726,0.539,-0.64,1.0
0.0,0.0,0.0,0.0
41.751,1.014,-0.273,1.0
32.013,0.786,-0.392,0.0
28.005,0.695,-0.506,1.0
23.235,0.583,-0.552,0.0
21.333,0.54,-0.628,1.0
40.136,1.03,-0.086,157.0
39.892,1.034,-0.314,2.0
31.658,0.829,-0.429,0.0
26.412,0.698,-0.512,2.0
22.67,0.605,-0.569,0.0
20.302,0.548,-0.625,1.0
40.134,1.095,-0.14,150.0
36.785,1.013,-0.338,3.0
30.047,0.835,-0.448,1.0
25.663,0.72,-0.532,1.0
21.831,0.618,-0.577,0.0
19.351,0.553,-0.622,0.0
40.066,1.158,-0.195,66.0
40.118,1.169,-0.424,0.0
27.487,0.808,-0.447,7.0
24.59,0.729,-0.543,1.0
21.06,0.629,-0.586,1.0
19.21,0.579,-0.644,2.0
40.011,1.218,-0.25,28.0
40.142,1.232,-0.48,2.0
27.852,0.861,-0.492,2.0
23.48,0.732,-0.551,1.0
20.163,0.633,-0.589,0.0
18.343,0.581,-0.641,1.0
39.926,1.277,-0.305,4.0
40.171,1.294,-0.537,2.0
26.46,0.858,-0.505,2.0
22.495,0.735,-0.56,0.0
19.913,0.656,-0.61,0.0
18.186,0.603,-0.661,0.0
40.169,1.345,-0.365,1.0
29.702,1.001,-0.44,2.0
25.486,0.865,-0.523,1.0
21.706,0.742,-0.572,2.0
19.344,0.666,-0.621,3.0
17.377,0.602,-0.657,0.0
40.126,1.402,-0.423,1.0
28.79,1.012,-0.468,2.0
24.484,0.867,-0.538,1.0
21.171,0.754,-0.589,3.0
18.761,0.673,-0.629,2.0
17.199,0.621,-0.676,1.0
32.272,1.174,-0.388,0.0
27.524,1.007,-0.488,3.0
23.504,0.865,-0.552,2.0
20.104,0.745,-0.589,2.0
18.324,0.683,-0.642,3.0
17.015,0.638,-0.694,0.0
30.228,1.142,-0.408,1.0
26.557,1.009,-0.511,6.0
22.48,0.859,-0.561,1.0
19.731,0.758,-0.608,2.0
17.864,0.691,-0.653,2.0
16.79,0.653,-0.71,0.0
29.415,1.151,-0.442,3.0
23.78,0.936,-0.494,7.0
21.495,0.851,-0.569,1.0
19.148,0.762,-0.619,3.0
17.39,0.696,-0.662,2.0
16.633,0.669,-0.729,1.0
28.242,1.143,-0.467,7.0
23.608,0.96,-0.526,36.0
20.867,0.853,-0.584,1.0
18.514,0.761,-0.627,3.0
17.092,0.706,-0.677,2.0
16.456,0.683,-0.746,2.0
23.644,0.987,-0.428,23.0
23.378,0.981,-0.557,7.0
19.98,0.842,-0.591,2.0
18.061,0.765,-0.639,3.0
16.919,0.72,-0.696,2.0
16.284,0.697,-0.764,1.0
23.644,1.017,-0.464,40.0
22.148,0.957,-0.562,4.0
19.494,0.846,-0.607,2.0
17.669,0.771,-0.653,3.0
16.729,0.733,-0.715,1.0
16.105,0.709,-0.781,3.0
23.631,1.045,-0.501,75.0
23.639,1.05,-0.637,0.0
18.761,0.837,-0.614,3.0
17.256,0.773,-0.665,5.0
16.553,0.745,-0.734,2.0
15.963,0.722,-0.799,4.0
23.55,1.07,-0.537,27.0
23.614,1.077,-0.674,1.0
18.343,0.84,-0.629,3.0
17.022,0.783,-0.683,2.0
16.357,0.755,-0.751,2.0
15.663,0.726,-0.809,0.0
22.884,1.066,-0.558,5.0
19.703,0.921,-0.594,2.0
17.933,0.841,-0.644,2.0
16.835,0.793,-0.703,2.0
16.181,0.765,-0.769,2.0
23.624,1.122,-1.259,2.0
21.404,1.02,-0.557,1.0
19.031,0.911,-0.604,3.0
17.442,0.838,-0.654,2.0
16.652,0.803,-0.722,1.0
16.009,0.775,-0.787,3.0
23.627,1.148,-1.298,2.0
20.878,1.017,-0.577,1.0
18.532,0.906,-0.619,3.0
17.084,0.838,-0.669,2.0
16.395,0.808,-0.738,2.0
15.864,0.784,-0.805,1.0
23.622,1.172,-1.336,1.0
19.93,0.992,-0.583,2.0
18.13,0.905,-0.635,2.0
16.909,0.847,-0.69,2.0
16.22,0.815,-0.756,1.0
23.645,1.193,-1.239,1.0
23.622,1.196,-1.375,1.0
19.328,0.981,-0.597,3.0
17.68,0.9,-0.648,1.0
16.748,0.856,-0.711,1.0
16.024,0.821,-0.774,2.0
14.779,0.76,-0.799,0.0
23.634,1.22,-1.415,1.0
18.727,0.969,-0.61,3.0
17.179,0.891,-0.658,1.0
16.498,0.859,-0.728,1.0
15.93,0.832,-0.796,2.0
14.314,0.75,-0.798,0.0
13.366,0.702,-0.822,0.0
18.29,0.963,-0.626,3.0
16.971,0.896,-0.679,2.0
16.292,0.863,-0.746,1.0
15.315,0.813,-0.791,0.0
14.054,0.749,-0.807,0.0
13.058,0.697,-0.825,0.0
17.892,0.958,-0.643,1.0
16.797,0.902,-0.7,1.0
16.072,0.865,-0.763,2.0
14.911,0.805,-0.795,0.0
13.692,0.741,-0.809,0.0
12.847,0.697,-0.834,0.0
17.314,0.941,-0.651,0.0
16.571,0.903,-0.718,1.0
15.961,0.872,-0.784,2.0
14.454,0.792,-0.795,0.0
13.397,0.736,-0.814,0.0
12.597,0.694,-0.839,0.0
17.035,0.939,-0.669,1.0
16.324,0.902,-0.735,1.0
15.603,0.865,-0.793,0.0
14.194,0.789,-0.805,0.0
13.237,0.737,-0.827,0.0
12.385,0.692,-0.845,0.0
16.869,0.943,-0.69,1.0
16.125,0.903,-0.753,1.0
15.05,0.845,-0.79,0.0
13.801,0.777,-0.805,0.0
12.84,0.724,-0.824,0.0
12.167,0.688,-0.851,0.0
16.67,0.944,-0.71,1.0
15.995,0.907,-0.774,3.0
14.672,0.834,-0.795,0.0
13.554,0.772,-0.814,0.0
12.709,0.726,-0.837,0.0
11.922,0.682,-0.854,0.0
16.418,0.94,-0.727,1.0
15.849,0.909,-0.793,0.0
14.416,0.829,-0.805,0.0
13.277,0.765,-0.819,0.0
12.491,0.721,-0.843,0.0
11.676,0.676,-0.856,0.0
16.224,0.939,-0.745,1.0
15.149,0.879,-0.784,0.0
13.976,0.812,-0.804,0.0
12.999,0.757,-0.824,0.0
12.235,0.714,-0.846,0.0
11.484,0.672,-0.861,0.0
16.031,0.937,-0.763,4.0
14.809,0.868,-0.791,0.0
13.661,0.802,-0.808,0.0
12.844,0.755,-0.836,0.0
11.993,0.707,-0.85,0.0
11.258,0.665,-0.863,0.0
15.925,0.94,-0.785,1.0
14.421,0.853,-0.794,0.0
13.343,0.79,-0.812,0.0
12.583,0.746,-0.84,0.0
11.74,0.698,-0.851,0.0
11.06,0.659,-0.866,0.0
15.36,0.914,-0.782,0.0
14.164,0.844,-0.803,0.0
13.156,0.786,-0.822,0.0
12.314,0.737,-0.842,0.0
11.544,0.692,-0.857,0.0
10.819,0.649,-0.866,0.0
14.889,0.893,-0.784,0.0
13.78,0.828,-0.805,0.0
12.836,0.772,-0.824,0.0
12.067,0.727,-0.846,0.0
11.31,0.683,-0.858,0.0
10.681,0.646,-0.873,0.0
14.536,0.878,-0.789,0.0
13.469,0.815,-0.809,0.0
12.646,0.766,-0.833,0.0
11.814,0.717,-0.848,0.0
11.133,0.676,-0.864,0.0
10.483,0.638,-0.874,0.0
14.329,0.871,-0.802,0.0
13.2,0.803,-0.815,0.0
12.388,0.755,-0.836,0.0
11.604,0.708,-0.852,0.0
10.913,0.667,-0.865,0.0
10.349,0.633,-0.88,0.0
13.88,0.848,-0.799,0.0
12.886,0.788,-0.817,0.0
12.133,0.743,-0.839,0.0
11.466,0.703,-0.861,0.0
10.716,0.658,-0.867,0.0
10.223,0.629,-0.886,0.0
13.692,0.841,-0.811,0.0
12.656,0.778,-0.823,0.0
11.959,0.736,-0.847,0.0
11.236,0.692,-0.862,0.0
10.572,0.652,-0.872,0.0
10.061,0.621,-0.889,0.0
13.324,0.822,-0.811,0.0
12.514,0.772,-0.834,0.0
11.715,0.724,-0.848,0.0
10.973,0.679,-0.86,0.0
10.411,0.645,-0.876,0.0
9.924,0.615,-0.893,0.0
13.057,0.808,-0.816,0.0
12.319,0.763,-0.841,0.0
11.529,0.714,-0.854,0.0
10.764,0.668,-0.861,0.0
10.29,0.639,-0.882,0.0
9.801,0.609,-0.898,0.0
12.787,0.793,-0.819,0.0
12.055,0.748,-0.842,0.0
11.355,0.705,-0.859,0.0
10.682,0.664,-0.871,0.0
10.135,0.631,-0.885,0.0
9.605,0.598,-0.895,0.0
12.575,0.782,-0.825,0.0
11.823,0.735,-0.845,0.0
11.075,0.689,-0.855,0.0
10.512,0.655,-0.874,0.0
9.995,0.623,-0.889,0.0
9.471,0.591,-0.897,0.0
12.48,0.777,-0.839,0.0
11.603,0.723,-0.847,0.0
10.921,0.681,-0.86,0.0
10.327,0.644,-0.875,0.0
9.872,0.616,-0.894,0.0
9.368,0.585,-0.902,0.0
12.206,0.76,-0.839,0.0
11.452,0.714,-0.854,0.0
10.723,0.669,-0.862,0.0
10.194,0.636,-0.879,0.0
9.726,0.607,-0.895,0.0
9.221,0.576,-0.903,0.0
12.002,0.748,-0.844,0.0
11.301,0.704,-0.86,0.0
10.669,0.665,-0.874,0.0
10.079,0.629,-0.885,0.0
9.613,0.6,-0.9,0.0
9.07,0.566,-0.902,0.0
11.741,0.731,-0.844,0.0
11.051,0.688,-0.858,0.0
10.452,0.651,-0.872,0.0
9.927,0.619,-0.887,0.0
9.475,0.591,-0.902,0.0
8.938,0.558,-0.903,0.0
11.528,0.717,-0.846,0.0
10.872,0.676,-0.86,0.0
10.337,0.643,-0.878,0.0
9.817,0.611,-0.892,0.0
9.313,0.58,-0.9,0.0
8.8,0.548,-0.902,0.0
11.42,0.709,-0.855,0.0
10.712,0.665,-0.864,0.0
10.23,0.635,-0.884,0.0
9.685,0.601,-0.894,0.0
9.228,0.573,-0.906,0.0
8.683,0.54,-0.903,0.0
11.249,0.696,-0.858,0.0
10.63,0.658,-0.873,0.0
10.043,0.622,-0.882,0.0
9.572,0.593,-0.898,0.0
9.041,0.56,-0.9,0.0
8.59,0.532,-0.906,0.0
11.034,0.681,-0.858,0.0
10.461,0.645,-0.874,0.0
9.964,0.615,-0.89,0.0
9.404,0.58,-0.895,0.0
8.933,0.551,-0.903,0.0
8.464,0.523,-0.905,0.0
10.885,0.669,-0.862,0.0
10.308,0.634,-0.875,0.0
9.826,0.604,-0.891,0.0
9.319,0.573,-0.9,0.0
8.814,0.542,-0.903,0.0
8.377,0.515,-0.907,0.0
10.725,0.656,-0.864,0.0
10.223,0.626,-0.883,0.0
9.719,0.595,-0.895,0.0
9.162,0.561,-0.898,0.0
8.699,0.532,-0.903,0.0
8.266,0.506,-0.906,0.0
10.615,0.646,-0.869,0.0
10.073,0.613,-0.883,0.0
9.604,0.585,-0.898,0.0
9.059,0.551,-0.9,0.0
8.613,0.524,-0.906,0.0
8.18,0.498,-0.908,0.0
10.502,0.636,-0.874,0.0
9.991,0.605,-0.89,0.0
9.485,0.574,-0.899,0.0
8.937,0.541,-0.9,0.0
8.502,0.514,-0.906,0.0
8.103,0.49,-0.911,0.0
10.357,0.623,-0.876,0.0
9.901,0.596,-0.895,0.0
9.352,0.562,-0.899,0.0
8.838,0.531,-0.902,0.0
8.445,0.507,-0.911,0.0
8.028,0.482,-0.913,0.0
10.264,0.613,-0.881,0.0
9.742,0.582,-0.893,0.0
9.249,0.552,-0.901,0.0
8.739,0.521,-0.903,0.0
8.296,0.495,-0.906,0.0
7.969,0.475,-0.916,0.0
10.151,0.602,-0.885,0.0
9.665,0.573,-0.898,0.0
9.125,0.541,-0.901,0.0
8.606,0.51,-0.9,0.0
8.214,0.486,-0.907,0.0
7.896,0.467,-0.918,0.0
10.015,0.589,-0.885,0.0
9.511,0.559,-0.895,0.0
8.978,0.527,-0.897,0.0
8.529,0.501,-0.903,0.0
8.136,0.477,-0.908,0.0
7.829,0.459,-0.92,0.0
9.932,0.579,-0.89,0.0
9.433,0.549,-0.9,0.0
8.937,0.52,-0.904,0.0
8.423,0.49,-0.902,0.0
8.096,0.471,-0.914,0.0
7.783,0.452,-0.924,0.0
9.847,0.569,-0.894,0.0
9.338,0.539,-0.902,0.0
8.82,0.508,-0.902,0.0
8.4,0.484,-0.909,0.0
7.994,0.46,-0.912,0.0
7.729,0.444,-0.926,0.0
9.713,0.555,-0.893,0.0
9.218,0.526,-0.9,0.0
8.718,0.497,-0.902,0.0
8.266,0.471,-0.904,0.0
7.961,0.453,-0.917,0.0
7.69,0.438,-0.93,0.0
9.613,0.543,-0.894,0.0
9.1,0.514,-0.899,0.0
8.672,0.489,-0.907,0.0
8.191,0.462,-0.905,0.0
7.891,0.444,-0.917,0.0
7.611,0.428,-0.929,0.0
9.543,0.533,-0.898,0.0
9.019,0.503,-0.901,0.0
8.542,0.476,-0.902,0.0
8.135,0.453,-0.907,0.0
7.86,0.437,-0.922,0.0
7.534,0.419,-0.928,0.0
9.463,0.522,-0.9,0.0
8.961,0.494,-0.904,0.0
8.506,0.468,-0.907,0.0
8.099,0.445,-0.912,0.0
7.79,0.428,-0.922,0.0
7.525,0.413,-0.934,0.0
9.352,0.51,-0.899,0.0
8.843,0.481,-0.901,0.0
8.412,0.457,-0.906,0.0
8.038,0.436,-0.913,0.0
7.756,0.42,-0.926,0.0
7.446,0.403,-0.932,0.0
9.289,0.499,-0.902,0.0
8.763,0.47,-0.902,0.0
8.362,0.448,-0.909,0.0
7.98,0.427,-0.914,0.0
7.712,0.412,-0.928,0.0
7.428,0.396,-0.937,0.0
9.224,0.489,-0.905,0.0
8.73,0.462,-0.906,0.0
8.329,0.44,-0.913,0.0
7.946,0.419,-0.917,0.0
7.644,0.402,-0.927,0.0
7.369,0.387,-0.936,0.0
8.643,0.45,-0.905,0.0
8.224,0.428,-0.909,0.0
7.877,0.409,-0.916,0.0
7.609,0.394,-0.929,0.0
7.31,0.378,-0.935,0.0
8.612,0.442,-0.909,0.0
8.193,0.419,-0.912,0.0
7.845,0.401,-0.919,0.0
7.571,0.386,-0.931,0.0
7.259,0.37,-0.935,0.0
8.585,0.433,-0.913,0.0
8.13,0.409,-0.912,0.0
7.794,0.391,-0.92,0.0
7.512,0.376,-0.93,0.0
7.246,0.362,-0.939,0.0
8.927,0.443,-0.906,0.0
8.505,0.421,-0.912,0.0
8.056,0.398,-0.91,0.0
7.777,0.384,-0.924,0.0
7.498,0.369,-0.934,0.0
7.231,0.355,-0.943,0.0
8.834,0.431,-0.903,0.0
8.428,0.41,-0.91,0.0
8.024,0.389,-0.912,0.0
7.747,0.375,-0.926,0.0
7.445,0.36,-0.933,0.0
7.212,0.348,-0.945,0.0
8.808,0.421,-0.906,0.0
8.406,0.401,-0.913,0.0
7.993,0.381,-0.914,0.0
7.696,0.366,-0.925,0.0
7.425,0.352,-0.935,0.0
7.204,0.341,-0.949,0.0
8.779,0.412,-0.909,0.0
8.324,0.389,-0.91,0.0
7.964,0.372,-0.916,0.0
7.645,0.356,-0.924,0.0
7.428,0.345,-0.941,0.0
7.153,0.331,-0.947,0.0
8.7,0.4,-0.906,0.0
8.283,0.379,-0.91,0.0
7.908,0.361,-0.914,0.0
7.65,0.349,-0.929,0.0
7.372,0.335,-0.938,0.0
7.135,0.323,-0.949,0.0
8.647,0.389,-0.906,0.0
8.221,0.369,-0.908,0.0
7.914,0.354,-0.92,0.0
7.607,0.339,-0.928,0.0
7.337,0.326,-0.938,0.0
7.126,0.316,-0.952,0.0
8.655,0.38,-0.912,0.0
8.201,0.359,-0.911,0.0
7.893,0.345,-0.921,0.0
7.566,0.329,-0.927,0.0
7.31,0.317,-0.938,0.0
7.061,0.306,-0.947,0.0
8.598,0.369,-0.91,0.0
8.196,0.351,-0.914,0.0
7.825,0.334,-0.917,0.0
7.543,0.321,-0.928,0.0
7.295,0.309,-0.94,0.0
7.039,0.297,-0.947,0.0
8.582,0.36,-0.912,0.0
8.149,0.34,-0.912,0.0
7.864,0.327,-0.925,0.0
7.538,0.313,-0.931,0.0
7.269,0.3,-0.939,0.0
7.021,0.289,-0.948,0.0
8.545,0.349,-0.912,0.0
8.156,0.332,-0.917,0.0
7.814,0.317,-0.923,0.0
7.52,0.304,-0.932,0.0
7.256,0.292,-0.94,0.0
7.024,0.282,-0.951,0.0
8.51,0.338,-0.911,0.0
8.121,0.322,-0.915,0.0
7.818,0.309,-0.926,0.0
7.481,0.294,-0.929,0.0
7.24,0.284,-0.941,0.0
7.02,0.274,-0.953,0.0
8.498,0.329,-0.913,0.0
8.084,0.311,-0.914,0.0
7.792,0.299,-0.925,0.0
7.49,0.286,-0.933,0.0
7.232,0.275,-0.942,0.0
7.005,0.266,-0.953,0.0
8.472,0.318,-0.912,0.0
8.082,0.302,-0.916,0.0
7.8,0.291,-0.928,0.0
7.47,0.277,-0.932,0.0
7.248,0.268,-0.946,0.0
6.988,0.257,-0.952,0.0
8.453,0.308,-0.912,0.0
8.088,0.294,-0.919,0.0
7.795,0.282,-0.929,0.0
7.469,0.269,-0.934,0.0
7.231,0.259,-0.945,0.0
6.946,0.248,-0.948,0.0
8.455,0.299,-0.914,0.0
8.063,0.284,-0.917,0.0
7.775,0.272,-0.929,0.0
7.467,0.26,-0.935,0.0
7.227,0.251,-0.946,0.0
6.933,0.239,-0.947,0.0
8.451,0.289,-0.915,0.0
8.062,0.275,-0.918,0.0
7.747,0.263,-0.926,0.0
7.432,0.251,-0.931,0.0
7.224,0.242,-0.946,0.0
6.946,0.232,-0.95,0.0
8.448,0.28,-0.915,0.0
8.098,0.267,-0.923,0.0
7.751,0.254,-0.927,0.0
7.431,0.242,-0.932,0.0
7.235,0.234,-0.948,0.0
6.942,0.224,-0.95,0.0
8.455,0.27,-0.917,0.0
8.072,0.256,-0.92,0.0
7.748,0.245,-0.927,0.0
7.447,0.234,-0.934,0.0
7.243,0.226,-0.95,0.0
6.941,0.216,-0.95,0.0
8.473,0.261,-0.919,0.0
8.055,0.246,-0.919,0.0
7.754,0.236,-0.928,0.0
7.475,0.226,-0.938,0.0
7.23,0.217,-0.948,0.0
6.952,0.208,-0.951,0.0
8.448,0.25,-0.916,0.0
8.085,0.238,-0.922,0.0
7.74,0.226,-0.926,0.0
7.475,0.217,-0.937,0.0
7.24,0.209,-0.949,0.0
6.923,0.199,-0.946,0.0
8.505,0.242,-0.921,0.0
8.109,0.229,-0.924,0.0
7.764,0.218,-0.928,0.0
7.472,0.209,-0.936,0.0
7.248,0.201,-0.949,0.0
6.982,0.192,-0.954,0.0
8.475,0.231,-0.917,0.0
8.12,0.22,-0.924,0.0
7.802,0.21,-0.931,0.0
7.524,0.201,-0.941,0.0
7.241,0.192,-0.947,0.0
6.968,0.184,-0.951,0.0
8.491,0.222,-0.917,0.0
8.176,0.212,-0.929,0.0
7.82,0.201,-0.932,0.0
7.512,0.192,-0.938,0.0
7.242,0.184,-0.945,0.0
7.001,0.176,-0.954,0.0
8.535,0.213,-0.92,0.0
8.166,0.202,-0.926,0.0
7.833,0.192,-0.932,0.0
7.48,0.182,-0.933,0.0
7.262,0.175,-0.946,0.0
6.99,0.168,-0.95,0.0
8.545,0.203,-0.919,0.0
8.17,0.192,-0.924,0.0
7.865,0.184,-0.933,0.0
7.503,0.174,-0.933,0.0
7.279,0.167,-0.946,0.0
7.053,0.161,-0.957,0.0
8.586,0.194,-0.92,0.0
8.214,0.184,-0.926,0.0
7.875,0.175,-0.932,0.0
7.551,0.166,-0.937,0.0
7.282,0.159,-0.944,0.0
7.035,0.152,-0.952,0.0
8.599,0.184,-0.919,0.0
8.239,0.175,-0.926,0.0
7.89,0.166,-0.931,0.0
7.592,0.158,-0.939,0.0
7.305,0.151,-0.944,0.0
7.081,0.145,-0.955,0.0
8.642,0.175,-0.92,0.0
8.248,0.165,-0.924,0.0
7.922,0.157,-0.931,0.0
7.63,0.15,-0.94,0.0
7.335,0.143,-0.945,0.0
7.088,0.136,-0.953,0.0
8.668,0.165,-0.919,0.0
8.278,0.156,-0.923,0.0
7.958,0.149,-0.932,0.0
7.631,0.141,-0.937,0.0
7.362,0.134,-0.945,0.0
7.087,0.128,-0.949,0.0
8.735,0.156,-0.922,0.0
8.318,0.147,-0.924,0.0
7.989,0.14,-0.931,0.0
7.661,0.132,-0.937,0.0
7.387,0.126,-0.944,0.0
7.143,0.121,-0.953,0.0
8.763,0.147,-0.92,0.0
8.366,0.138,-0.924,0.0
8.023,0.131,-0.931,0.0
7.702,0.124,-0.937,0.0
7.408,0.118,-0.943,0.0
7.149,0.112,-0.949,0.0
8.814,0.137,-0.92,0.0
8.443,0.13,-0.928,0.0
8.058,0.122,-0.93,0.0
7.737,0.116,-0.937,0.0
7.436,0.11,-0.942,0.0
7.169,0.105,-0.948,0.0
8.839,0.128,-0.917,0.0
8.45,0.12,-0.923,0.0
8.099,0.114,-0.93,0.0
7.764,0.107,-0.935,0.0
7.486,0.102,-0.943,0.0
7.2,0.097,-0.947,0.0
8.873,0.118,-0.914,0.0
8.506,0.111,-0.923,0.0
8.169,0.105,-0.932,0.0
7.825,0.099,-0.937,0.0
7.53,0.094,-0.943,0.0
7.252,0.089,-0.949,0.0
8.963,0.109,-0.917,0.0
8.569,0.103,-0.924,0.0
8.194,0.097,-0.929,0.0
7.839,0.091,-0.933,0.0
7.59,0.086,-0.945,0.0
7.271,0.081,-0.945,0.0
9.062,0.1,-0.921,0.0
8.599,0.093,-0.921,0.0
8.216,0.088,-0.925,0.0
7.893,0.083,-0.933,0.0
7.624,0.078,-0.943,0.0
7.308,0.074,-0.944,0.0
9.082,0.091,-0.916,0.0
8.714,0.085,-0.926,0.0
8.284,0.079,-0.926,0.0
7.959,0.075,-0.934,0.0
7.666,0.07,-0.942,0.0
7.367,0.066,-0.946,0.0
9.134,0.081,-0.913,0.0
8.756,0.076,-0.923,0.0
8.368,0.071,-0.928,0.0
8.024,0.067,-0.935,0.0
7.709,0.062,-0.94,0.0
7.417,0.059,-0.946,0.0
9.254,0.072,-0.917,0.0
8.828,0.067,-0.923,0.0
8.419,0.062,-0.926,0.0
8.059,0.058,-0.931,0.0
7.757,0.054,-0.939,0.0
7.469,0.051,-0.945,0.0
9.305,0.063,-0.913,0.0
8.884,0.058,-0.92,0.0
8.476,0.054,-0.924,0.0
8.129,0.05,-0.932,0.0
7.824,0.047,-0.939,0.0
7.489,0.043,-0.94,0.0
9.398,0.054,-0.913,0.0
8.968,0.049,-0.92,0.0
8.566,0.045,-0.925,0.0
8.188,0.042,-0.93,0.0
7.886,0.039,-0.939,0.0
7.543,0.036,-0.939,0.0
9.485,0.044,-0.912,0.0
9.067,0.041,-0.921,0.0
8.67,0.037,-0.928,0.0
8.27,0.034,-0.931,0.0
7.946,0.031,-0.938,0.0
7.635,0.028,-0.943,0.0
9.599,0.035,-0.913,0.0
9.143,0.032,-0.919,0.0
8.724,0.029,-0.924,0.0
8.368,0.026,-0.933,0.0
8.011,0.023,-0.937,0.0
7.674,0.021,-0.939,0.0
9.698,0.026,-0.912,0.0
9.259,0.023,-0.92,0.0
8.803,0.02,-0.923,0.0
8.408,0.018,-0.928,0.0
8.072,0.015,-0.935,0.0
7.745,0.013,-0.939,0.0
9.812,0.017,-0.911,0.0
9.345,0.014,-0.918,0.0
8.879,0.012,-0.92,0.0
8.474,0.01,-0.925,0.0
8.157,0.008,-0.935,0.0
7.838,0.006,-0.941,0.0
9.934,0.007,-0.911,0.0
9.385,0.005,-0.911,0.0
8.988,0.003,-0.921,0.0
8.582,0.002,-0.927,0.0
8.22,0.0,-0.932,0.0
7.915,0.0,-0.94,0.0
10.056,-0.001,-0.91,0.0
9.488,-0.003,-0.909,0.0
9.115,-0.004,-0.923,0.0
8.719,-0.005,-0.931,0.0
8.306,-0.007,-0.931,0.0
7.969,-0.008,-0.937,0.0
10.163,-0.01,-0.907,0.0
9.681,-0.011,-0.916,0.0
9.214,-0.012,-0.921,0.0
8.793,-0.013,-0.927,0.0
8.399,-0.014,-0.931,0.0
8.049,-0.015,-0.936,0.0
10.316,-0.019,-0.907,0.0
9.818,-0.02,-0.916,0.0
9.334,-0.021,-0.921,0.0
8.853,-0.021,-0.922,0.0
8.482,-0.022,-0.929,0.0
8.164,-0.022,-0.938,0.0
10.432,-0.029,-0.904,0.0
9.903,-0.029,-0.911,0.0
9.422,-0.029,-0.917,0.0
8.978,-0.029,-0.923,0.0
8.563,-0.029,-0.926,0.0
8.209,-0.029,-0.932,0.0
10.57,-0.038,-0.901,0.0
10.044,-0.038,-0.91,0.0
9.542,-0.037,-0.916,0.0
9.073,-0.037,-0.92,0.0
8.726,-0.037,-0.932,0.0
8.303,-0.037,-0.931,0.0
10.73,-0.047,-0.9,0.0
10.183,-0.046,-0.908,0.0
9.681,-0.046,-0.915,0.0
9.192,-0.045,-0.919,0.0
8.802,-0.044,-0.927,0.0
8.446,-0.044,-0.935,0.0
10.887,-0.056,-0.897,0.0
10.327,-0.055,-0.906,0.0
9.829,-0.054,-0.915,0.0
9.285,-0.052,-0.915,0.0
8.93,-0.052,-0.928,0.0
8.513,-0.051,-0.93,0.0
11.047,-0.066,-0.894,0.0
10.47,-0.064,-0.903,0.0
9.974,-0.062,-0.914,0.0
9.498,-0.061,-0.922,0.0
9.011,-0.059,-0.923,0.0
8.646,-0.058,-0.932,0.0
11.222,-0.075,-0.892,0.0
10.634,-0.073,-0.902,0.0
10.1,-0.07,-0.91,0.0
9.614,-0.068,-0.918,0.0
9.114,-0.066,-0.919,0.0
8.761,-0.065,-0.93,0.0
11.439,-0.084,-0.892,0.0
10.786,-0.081,-0.898,0.0
10.273,-0.079,-0.91,0.0
9.774,-0.076,-0.918,0.0
9.323,-0.074,-0.926,0.0
8.851,-0.072,-0.926,0.0
11.597,-0.093,-0.886,0.0
10.979,-0.09,-0.897,0.0
10.4,-0.087,-0.905,0.0
9.892,-0.084,-0.914,0.0
9.44,-0.081,-0.922,0.0
8.971,-0.079,-0.924,0.0
11.78,-0.102,-0.881,0.0
11.152,-0.098,-0.893,0.0
10.578,-0.095,-0.903,0.0
10.058,-0.092,-0.913,0.0
9.601,-0.089,-0.922,0.0
9.131,-0.086,-0.926,0.0
12.049,-0.112,-0.882,0.0
11.392,-0.107,-0.894,0.0
10.745,-0.103,-0.9,0.0
10.219,-0.099,-0.911,0.0
9.762,-0.096,-0.922,0.0
9.24,-0.092,-0.922,0.0
11.576,-0.116,-0.889,0.0
10.953,-0.111,-0.899,0.0
10.374,-0.106,-0.908,0.0
9.887,-0.103,-0.917,0.0
9.394,-0.099,-0.921,0.0
12.489,-0.13,-0.873,0.0
11.789,-0.125,-0.886,0.0
11.132,-0.119,-0.895,0.0
10.564,-0.114,-0.906,0.0
10.054,-0.11,-0.916,0.0
9.574,-0.106,-0.923,0.0
12.742,-0.14,-0.869,0.0
12.028,-0.133,-0.883,0.0
11.371,-0.127,-0.895,0.0
10.744,-0.121,-0.903,0.0
10.211,-0.117,-0.912,0.0
9.745,-0.112,-0.922,0.0
12.992,-0.149,-0.863,0.0
12.252,-0.142,-0.878,0.0
11.559,-0.135,-0.889,0.0
10.932,-0.129,-0.9,0.0
10.366,-0.123,-0.908,0.0
9.875,-0.119,-0.917,0.0
13.303,-0.158,-0.86,0.0
12.504,-0.15,-0.874,0.0
11.792,-0.143,-0.886,0.0
11.137,-0.136,-0.897,0.0
10.538,-0.13,-0.904,0.0
10.063,-0.125,-0.916,0.0
13.602,-0.168,-0.855,0.0
12.777,-0.159,-0.87,0.0
12.057,-0.151,-0.885,0.0
11.372,-0.144,-0.895,0.0
10.756,-0.137,-0.903,0.0
10.224,-0.131,-0.912,0.0
14.031,-0.179,-0.857,0.0
13.067,-0.167,-0.867,0.0
12.275,-0.158,-0.878,0.0
11.592,-0.151,-0.891,0.0
10.952,-0.143,-0.9,0.0
10.404,-0.137,-0.909,0.0
14.326,-0.187,-0.849,0.0
13.4,-0.176,-0.864,0.0
12.566,-0.166,-0.876,0.0
11.829,-0.158,-0.888,0.0
11.173,-0.15,-0.897,0.0
10.615,-0.143,-0.908,0.0
14.731,-0.197,-0.846,0.0
13.678,-0.184,-0.857,0.0
12.79,-0.173,-0.868,0.0
12.06,-0.164,-0.883,0.0
11.415,-0.156,-0.895,0.0
10.804,-0.149,-0.904,0.0
15.162,-0.207,-0.843,0.0
14.056,-0.193,-0.854,0.0
13.094,-0.181,-0.864,0.0
12.315,-0.171,-0.878,0.0
11.662,-0.163,-0.893,0.0
11.015,-0.155,-0.901,0.0
15.536,-0.216,-0.834,0.0
14.435,-0.202,-0.85,0.0
13.477,-0.189,-0.864,0.0
12.561,-0.177,-0.872,0.0
11.881,-0.169,-0.887,0.0
11.249,-0.16,-0.898,0.0
16.003,-0.226,-0.829,0.0
14.823,-0.21,-0.845,0.0
13.83,-0.197,-0.86,0.0
12.906,-0.185,-0.871,0.0
12.162,-0.175,-0.884,0.0
11.47,-0.165,-0.894,0.0
16.635,-0.238,-0.83,0.0
15.314,-0.22,-0.843,0.0
14.21,-0.205,-0.857,0.0
13.144,-0.19,-0.862,0.0
12.411,-0.18,-0.879,0.0
11.769,-0.171,-0.895,0.0
17.086,-0.247,-0.819,0.0
15.717,-0.228,-0.835,0.0
14.605,-0.212,-0.852,0.0
13.583,-0.198,-0.864,0.0
12.735,-0.186,-0.877,0.0
11.978,-0.176,-0.887,0.0
17.631,-0.256,-0.811,0.0
16.207,-0.236,-0.83,0.0
15.026,-0.22,-0.847,0.0
13.907,-0.204,-0.858,0.0
13.004,-0.191,-0.87,0.0
12.25,-0.18,-0.883,0.0
18.383,-0.269,-0.81,0.0
16.788,-0.246,-0.826,0.0
15.493,-0.227,-0.843,0.0
14.318,-0.21,-0.854,0.0
13.42,-0.198,-0.871,0.0
12.484,-0.184,-0.875,0.0
18.984,-0.278,-0.799,1.0
17.272,-0.253,-0.816,0.0
15.88,-0.233,-0.832,0.0
14.707,-0.216,-0.849,0.0
13.731,-0.202,-0.864,0.0
12.857,-0.189,-0.876,0.0
19.628,-0.287,-0.787,1.0
17.99,-0.263,-0.814,0.0
16.44,-0.241,-0.829,0.0
15.208,-0.223,-0.847,0.0
14.115,-0.207,-0.86,0.0
13.154,-0.193,-0.869,0.0
19.897,-0.29,-0.758,3.0
18.673,-0.272,-0.808,0.0
16.949,-0.247,-0.82,0.0
15.588,-0.227,-0.837,0.0
14.534,-0.212,-0.856,0.0
13.553,-0.198,-0.868,0.0
20.581,-0.298,-0.742,0.0
19.269,-0.279,-0.794,0.0
17.649,-0.255,-0.819,0.0
16.129,-0.233,-0.834,0.0
14.97,-0.217,-0.851,0.0
13.893,-0.201,-0.862,0.0
21.976,-0.315,-0.749,0.0
19.838,-0.284,-0.778,2.0
18.284,-0.262,-0.812,0.0
16.701,-0.239,-0.829,0.0
15.442,-0.221,-0.847,0.0
14.267,-0.204,-0.856,0.0
22.674,-0.321,-0.727,0.0
19.931,-0.282,-0.742,2.0
18.972,-0.268,-0.804,0.0
17.193,-0.243,-0.819,0.0
15.818,-0.223,-0.835,0.0
14.704,-0.207,-0.853,0.0
23.833,-0.333,-0.716,0.0
21.387,-0.298,-0.752,0.0
19.574,-0.273,-0.789,0.0
17.94,-0.249,-0.818,0.0
16.436,-0.228,-0.834,0.0
15.19,-0.21,-0.85,0.0
25.08,-0.344,-0.702,0.0
22.382,-0.307,-0.742,1.0
19.802,-0.271,-0.758,3.0
18.601,-0.254,-0.81,0.0
16.921,-0.23,-0.825,0.0
15.629,-0.212,-0.842,0.0
26.089,-0.351,-0.677,0.0
23.154,-0.31,-0.721,0.0
20.087,-0.269,-0.729,0.0
19.227,-0.256,-0.799,1.0
17.535,-0.233,-0.819,0.0
16.157,-0.214,-0.838,0.0
27.107,-0.356,-0.649,0.0
24.495,-0.32,-0.712,0.0
21.896,-0.285,-0.75,0.0
19.775,-0.257,-0.781,2.0
18.308,-0.237,-0.818,0.0
16.721,-0.216,-0.833,0.0
28.724,-0.367,-0.629,0.0
25.59,-0.325,-0.692,0.0
22.683,-0.287,-0.73,0.0
19.817,-0.25,-0.742,5.0
18.981,-0.238,-0.809,1.0
17.241,-0.215,-0.824,0.0
30.204,-0.374,-0.599,0.0
26.508,-0.326,-0.663,0.0
23.879,-0.293,-0.72,0.0
21.285,-0.259,-0.754,0.0
19.564,-0.237,-0.793,2.0
17.859,-0.215,-0.817,0.0
31.862,-0.38,-0.567,0.0
28.355,-0.336,-0.651,0.0
24.962,-0.295,-0.702,0.0
22.346,-0.262,-0.745,1.0
19.75,-0.23,-0.761,7.0
18.636,-0.216,-0.814,0.0
34.112,-0.391,-0.537,0.0
29.957,-0.341,-0.626,0.0
26.14,-0.296,-0.681,0.0
23.142,-0.26,-0.725,0.0
19.832,-0.221,-0.723,2.0
19.32,-0.214,-0.804,2.0
36.205,-0.396,-0.497,0.0
0.0,0.0,0.0,0.0
27.439,-0.296,-0.659,0.0
24.459,-0.262,-0.716,0.0
21.905,-0.232,-0.754,0.0
19.684,-0.207,-0.779,5.0
0.0,0.0,0.0,0.0
0.0,0.0,0.0,0.0
29.104,-0.297,-0.64,0.0
25.598,-0.259,-0.697,0.0
22.691,-0.228,-0.735,0.0
19.776,-0.197,-0.743,9.0
19.832,-0.194,-0.191,0.0
19.775,-0.192,-0.293,2.0
19.763,-0.19,-0.394,5.0
19.764,-0.188,-0.498,2.0
23.783,-0.224,-0.722,0.0
19.799,-0.184,-0.703,1.0
19.789,-0.181,-0.151,3.0
19.758,-0.179,-0.253,10.0
19.76,-0.177,-0.355,11.0
19.748,-0.175,-0.458,10.0
19.749,-0.173,-0.56,7.0
19.776,-0.171,-0.663,5.0
19.771,-0.168,-0.111,8.0
19.75,-0.166,-0.213,12.0
19.745,-0.164,-0.314,11.0
19.733,-0.161,-0.418,14.0
19.743,-0.159,-0.52,14.0
19.754,-0.157,-0.622,13.0
19.768,-0.154,-0.071,8.0
19.745,-0.152,-0.173,14.0
19.734,-0.149,-0.275,14.0
19.719,-0.147,-0.378,17.0
19.733,-0.145,-0.481,18.0
19.744,-0.142,-0.583,17.0
19.766,-0.14,-0.032,6.0
19.734,-0.137,-0.134,14.0
19.724,-0.135,-0.235,16.0
19.73,-0.132,-0.339,16.0
19.726,-0.13,-0.441,17.0
19.737,-0.127,-0.543,17.0
19.743,-0.124,0.006,9.0
19.726,-0.122,-0.094,14.0
19.719,-0.119,-0.196,16.0
19.726,-0.116,-0.3,15.0
19.738,-0.114,-0.402,16.0
19.734,-0.111,-0.504,16.0
19.743,-0.108,0.046,11.0
19.722,-0.105,-0.055,10.0
19.716,-0.103,-0.157,16.0
19.724,-0.1,-0.261,16.0
19.745,-0.097,-0.363,14.0
19.745,-0.095,-0.466,15.0
19.723,-0.091,0.085,13.0
19.711,-0.089,-0.016,14.0
19.709,-0.086,-0.118,16.0
19.718,-0.083,-0.222,15.0
19.751,-0.08,-0.325,15.0
19.76,-0.077,-0.427,14.0
19.712,-0.074,0.123,16.0
19.701,-0.071,0.021,15.0
19.718,-0.068,-0.08,11.0
19.718,-0.065,-0.184,15.0
19.747,-0.062,-0.286,14.0
19.775,-0.059,-0.389,5.0
19.692,-0.056,0.161,17.0
19.697,-0.053,0.059,15.0
19.711,-0.05,-0.042,17.0
19.722,-0.047,-0.145,14.0
19.751,-0.044,-0.248,14.0
19.79,-0.041,-0.351,0.0
19.652,-0.037,0.199,15.0
19.69,-0.034,0.097,16.0
19.702,-0.031,-0.004,16.0
19.732,-0.028,-0.108,10.0
19.753,-0.024,-0.21,6.0
34.79,-0.038,-0.551,0.0
19.64,-0.018,0.236,14.0
19.697,-0.014,0.135,3.0
19.701,-0.011,0.033,10.0
19.732,-0.008,-0.071,8.0
19.766,-0.005,-0.173,0.0
0.0,0.0,0.0,0.0
19.632,0.001,0.273,14.0
19.668,0.005,0.172,9.0
19.775,0.008,0.07,5.0
19.742,0.012,-0.033,9.0
19.776,0.015,-0.136,1.0
19.778,0.019,-0.239,1.0
19.624,0.022,0.31,16.0
19.631,0.025,0.208,16.0
19.744,0.029,0.107,17.0
19.733,0.033,0.002,18.0
19.741,0.036,-0.099,11.0
19.762,0.04,-0.202,13.0
19.619,0.043,0.346,16.0
19.62,0.047,0.244,13.0
19.729,0.051,0.143,10.0
19.744,0.054,0.039,56.0
19.743,0.058,-0.063,33.0
19.771,0.062,-0.166,55.0
19.617,0.065,0.382,21.0
19.617,0.069,0.28,12.0
19.648,0.073,0.179,13.0
19.687,0.076,0.075,18.0
19.766,0.081,-0.027,25.0
19.758,0.084,-0.13,10.0
19.618,0.088,0.418,26.0
19.621,0.091,0.316,19.0
19.624,0.095,0.214,13.0
19.655,0.099,0.11,11.0
19.652,0.103,0.008,10.0
19.705,0.107,-0.094,2.0
19.622,0.111,0.453,24.0
19.607,0.114,0.351,16.0
19.615,0.118,0.248,10.0
19.648,0.122,0.145,15.0
19.64,0.127,0.042,13.0
19.642,0.13,-0.059,11.0
19.6,0.134,0.487,16.0
19.605,0.138,0.385,12.0
19.614,0.142,0.283,10.0
19.652,0.147,0.179,15.0
19.647,0.151,0.077,13.0
19.655,0.155,-0.025,22.0
19.595,0.158,0.522,12.0
19.624,0.163,0.42,10.0
19.636,0.167,0.318,9.0
19.654,0.171,0.213,12.0
19.664,0.176,0.111,12.0
19.647,0.18,0.008,14.0
19.654,0.184,0.557,10.0
19.664,0.188,0.455,10.0
19.679,0.192,0.352,10.0
19.702,0.197,0.248,8.0
19.699,0.201,0.145,10.0
19.675,0.205,0.041,13.0
19.681,0.21,0.592,10.0
19.696,0.214,0.489,10.0
19.726,0.219,0.386,11.0
19.724,0.223,0.281,11.0
19.761,0.228,0.178,25.0
19.765,0.232,0.075,6.0
19.649,0.235,0.623,14.0
19.673,0.24,0.521,12.0
19.689,0.244,0.418,10.0
19.699,0.249,0.313,12.0
19.747,0.254,0.21,25.0
19.775,0.259,0.107,13.0
19.646,0.261,0.656,15.0
19.656,0.266,0.552,14.0
19.67,0.27,0.45,10.0
19.69,0.275,0.345,13.0
19.728,0.28,0.242,11.0
19.809,0.286,0.139,1.0
19.653,0.288,0.687,11.0
19.659,0.293,0.584,11.0
19.682,0.298,0.481,10.0
19.702,0.303,0.376,9.0
19.751,0.308,0.274,0.0
163.405,2.592,1.412,10.0
19.649,0.316,0.719,0.0
19.687,0.321,0.616,3.0
55.209,0.914,1.438,19.0
55.181,0.926,1.142,38.0
55.176,0.939,0.852,55.0
55.166,0.952,0.561,65.0
55.197,0.966,2.105,73.0
55.182,0.979,1.814,75.0
55.171,0.991,1.522,74.0
55.164,1.005,1.226,66.0
55.169,1.018,0.936,53.0
55.178,1.031,0.645,46.0
55.202,1.046,2.19,5.0
135.287,2.596,4.653,18.0
163.377,3.175,4.758,7.0
185.366,3.646,4.4,8.0
179.356,3.571,3.312,27.0
162.76,3.28,2.146,19.0
121.303,2.476,4.994,21.0
135.143,2.791,4.849,10.0
135.259,2.826,4.138,18.0
163.286,3.451,4.116,6.0
179.226,3.833,3.572,37.0
128.867,2.789,1.889,13.0
121.342,2.657,5.173,9.0
121.123,2.682,4.523,23.0
114.157,2.555,3.657,10.0
138.746,3.14,3.698,53.0
179.119,4.099,3.828,25.0
128.76,2.978,2.069,9.0
129.007,3.019,5.684,7.0
121.231,2.867,4.7,15.0
114.239,2.73,3.823,17.0
99.625,2.406,2.796,39.0
99.676,2.432,2.269,72.0
99.651,2.455,1.74,8.0
129.009,3.215,5.865,15.0
113.613,2.859,4.56,9.0
45.49,1.155,1.584,9.0
45.484,1.167,1.338,64.0
0.0,0.0,0.0,0.0
0.0,0.0,0.0,0.0
0.0,0.0,0.0,0.0
0.0,0.0,0.0,0.0
0.0,0.0,0.0,0.0
41.89,1.14,1.289,92.0
41.923,1.152,1.068,150.0
0.0,0.0,0.0,0.0
40.116,1.124,1.932,81.0
40.122,1.135,1.719,93.0
40.11,1.145,1.505,130.0
40.119,1.155,1.288,130.0
40.11,1.165,1.074,150.0
40.112,1.176,0.861,150.0
40.121,1.189,1.985,108.0
40.126,1.199,1.771,102.0
40.106,1.209,1.557,143.0
40.117,1.22,1.339,150.0
40.107,1.231,1.126,150.0
40.118,1.241,0.912,150.0
40.129,1.254,2.037,96.0
40.136,1.265,1.823,92.0
40.132,1.275,1.608,112.0
40.116,1.284,1.389,150.0
40.116,1.295,1.175,150.0
40.122,1.306,0.962,150.0
40.077,1.317,2.084,3.0
40.079,1.328,1.869,1.0
120.023,4.009,4.957,13.0
120.23,4.047,4.311,18.0
120.968,4.105,3.692,19.0
121.452,4.154,3.059,8.0
135.613,4.682,7.215,12.0
120.799,4.203,5.78,12.0
114.668,4.019,4.872,10.0
120.289,4.247,4.455,16.0
120.978,4.303,3.833,20.0
44.922,1.61,1.183,5.0
135.196,4.892,7.351,16.0
121.148,4.414,5.936,14.0
120.077,4.406,5.239,21.0
120.375,4.449,4.595,14.0
162.562,6.052,5.334,10.0
42.582,1.596,1.169,79.0
121.151,4.584,6.723,11.0
120.918,4.606,6.059,22.0
134.542,5.161,6.019,10.0
178.605,6.898,7.014,16.0
179.09,6.965,6.072,7.0
40.376,1.58,1.152,150.0
120.832,4.773,6.836,18.0
120.907,4.807,6.188,16.0
180.809,7.237,8.281,16.0
178.838,7.204,7.211,18.0
178.917,7.255,6.251,7.0
163.456,6.671,4.833,13.0
120.766,4.974,6.958,22.0
120.799,5.006,6.308,9.0
180.19,7.515,8.438,11.0
23.582,0.989,0.974,0.0
23.603,0.996,0.848,4.0
23.607,1.003,0.721,25.0
23.61,1.012,1.384,37.0
23.6,1.017,1.255,43.0
23.589,1.023,1.127,43.0
23.582,1.029,0.998,45.0
23.584,1.035,0.87,47.0
23.585,1.041,0.743,63.0
23.567,1.05,1.404,74.0
23.567,1.056,1.276,72.0
23.559,1.062,1.148,72.0
23.565,1.068,1.019,69.0
23.569,1.075,0.892,74.0
23.566,1.081,0.765,68.0
23.568,1.09,1.426,77.0
23.569,1.096,1.298,66.0
23.566,1.103,1.17,55.0
23.573,1.109,1.041,46.0
23.592,1.116,0.914,41.0
23.601,1.123,0.787,40.0
23.599,1.132,1.449,36.0
23.582,1.138,1.32,17.0
23.59,1.144,1.192,7.0
23.6,1.151,1.062,1.0
179.617,8.81,7.116,15.0
178.96,8.826,6.12,13.0
45.563,2.266,2.837,83.0
0.0,0.0,0.0,0.0
0.0,0.0,0.0,0.0
180.966,9.142,8.299,5.0
179.666,9.123,7.265,19.0
180.233,9.2,6.311,6.0
45.548,2.344,2.873,97.0
0.0,0.0,0.0,0.0
0.0,0.0,0.0,0.0
0.0,0.0,0.0,0.0
180.063,9.455,7.422,21.0
180.662,9.535,6.464,15.0
0.0,0.0,0.0,0.0
0.0,0.0,0.0,0.0
0.0,0.0,0.0,0.0
0.0,0.0,0.0,0.0
181.312,9.834,7.606,6.0
180.573,9.841,6.594,19.0
0.0,0.0,0.0,0.0
0.0,0.0,0.0,0.0
0.0,0.0,0.0,0.0
0.0,0.0,0.0,0.0
0.0,0.0,0.0,0.0
198.892,11.184,7.399,8.0
43.756,2.479,2.855,111.0
0.0,0.0,0.0,0.0
0.0,0.0,0.0,0.0
203.401,11.68,9.915,6.0
203.821,11.756,8.824,7.0
198.559,11.505,7.514,6.0
0.0,0.0,0.0,0.0
0.0,0.0,0.0,0.0
0.0,0.0,0.0,0.0
205.879,12.18,10.166,5.0
203.904,12.117,8.952,6.0
197.618,11.795,7.597,9.0
0.0,0.0,0.0,0.0
112.367,6.787,6.857,8.0
0.0,0.0,0.0,0.0
203.602,12.399,10.171,6.0
198.835,12.158,8.844,9.0
0.0,0.0,0.0,0.0
43.664,2.702,2.928,2.0
45.541,2.829,2.804,12.0
112.336,7.007,6.3,5.0
112.291,7.033,5.67,3.0
112.228,7.056,5.051,2.0
112.476,7.1,4.446,1.0
41.977,2.669,2.837,143.0
45.552,2.908,2.828,44.0
99.96,6.407,5.656,25.0
99.949,6.43,5.095,30.0
99.939,6.454,4.546,32.0
99.954,6.481,3.999,32.0
41.976,2.742,2.857,136.0
45.535,2.985,2.848,43.0
99.933,6.575,5.7,33.0
99.941,6.601,5.141,41.0
99.939,6.625,4.59,37.0
99.961,6.652,4.042,33.0
0.0,0.0,0.0,0.0
45.523,3.062,2.867,79.0
45.549,3.075,2.617,48.0
99.95,6.772,5.182,37.0
99.948,6.797,4.632,34.0
99.966,6.822,4.082,37.0
0.0,0.0,0.0,0.0
0.0,0.0,0.0,0.0
45.563,3.153,2.635,150.0
99.95,6.941,5.219,38.0
99.977,6.967,4.669,35.0
99.962,6.99,4.117,32.0
0.0,0.0,0.0,0.0
43.764,3.093,2.788,150.0
0.0,0.0,0.0,0.0
45.44,3.233,2.387,12.0
45.446,3.244,2.137,75.0
45.463,3.256,1.887,150.0
0.0,0.0,0.0,0.0
43.72,3.164,2.798,3.0
0.0,0.0,0.0,0.0
45.456,3.311,2.402,150.0
45.466,3.323,2.15,150.0
45.466,3.334,1.899,125.0
0.0,0.0,0.0,0.0
41.959,3.108,2.697,102.0
43.689,3.246,2.566,107.0
43.675,3.255,2.318,103.0
43.683,3.265,2.077,128.0
43.671,3.275,1.834,150.0
40.185,3.034,2.815,109.0
0.0,0.0,0.0,0.0
43.665,3.317,2.573,150.0
43.676,3.327,2.327,127.0
43.683,3.338,2.085,120.0
0.0,0.0,0.0,0.0
40.175,3.1,2.822,101.0
40.176,3.109,2.598,134.0
41.884,3.251,2.476,117.0
41.888,3.26,2.239,121.0
41.878,3.269,2.006,105.0
41.884,3.28,1.774,150.0
40.155,3.166,2.827,93.0
40.173,3.176,2.603,150.0
41.88,3.32,2.481,108.0
41.89,3.33,2.244,109.0
41.868,3.338,2.01,54.0
0.0,0.0,0.0,0.0
40.086,3.227,2.826,97.0
40.081,3.235,2.601,98.0
40.083,3.244,2.378,119.0
40.086,3.252,2.151,120.0
40.085,3.261,1.928,123.0
40.081,3.27,1.704,150.0
40.093,3.293,2.829,91.0
40.1,3.302,2.605,114.0
40.081,3.309,2.38,118.0
40.08,3.317,2.152,113.0
40.083,3.326,1.929,122.0
40.087,3.335,1.706,150.0
40.068,3.355,2.828,80.0
40.086,3.365,2.605,116.0
40.083,3.373,2.38,134.0
40.093,3.382,2.153,114.0
40.095,3.391,1.929,107.0
40.094,3.399,1.705,120.0
87.065,7.43,6.144,18.0
87.057,7.446,5.655,29.0
87.076,7.466,5.169,37.0
87.071,7.483,4.672,97.0
87.092,7.503,4.187,110.0
87.089,7.521,3.7,85.0
87.066,7.567,6.139,24.0
87.071,7.583,5.65,10.0
87.06,7.6,5.161,9.0
87.042,7.616,4.664,6.0
87.088,7.637,4.18,146.0
87.097,7.657,3.693,3.0
82.906,7.334,5.837,4.0
82.95,7.353,5.374,4.0
82.939,7.369,4.908,4.0
82.928,7.384,4.433,5.0
82.978,7.405,3.972,6.0
82.949,7.42,3.506,9.0
82.896,7.461,5.825,42.0
82.898,7.477,5.359,57.0
82.898,7.493,4.892,116.0
82.902,7.508,4.419,93.0
82.907,7.525,3.955,109.0
82.918,7.542,3.49,84.0
82.909,7.587,5.811,9.0
82.914,7.603,5.345,7.0
82.932,7.62,4.879,6.0
82.904,7.632,4.403,7.0
82.946,7.652,3.94,10.0
82.948,7.668,3.475,4.0
82.993,7.718,5.799,4.0
86.316,8.043,5.544,3.0
86.223,8.05,5.053,6.0
85.876,8.034,4.541,2.0
82.918,7.772,3.919,16.0
85.825,8.06,3.574,9.0
82.947,7.836,5.775,5.0
85.263,8.069,5.455,10.0
85.113,8.069,4.966,11.0
85.015,8.075,4.473,9.0
82.903,7.889,3.895,38.0
84.784,8.085,3.506,10.0
83.113,7.971,5.762,7.0
83.804,8.051,5.336,10.0
83.733,8.058,4.859,10.0
83.747,8.074,4.38,10.0
82.916,8.009,3.87,25.0
83.613,8.092,3.431,10.0
82.619,8.04,5.701,1.0
75.22,7.332,4.765,1.0
75.153,7.338,4.337,2.0
75.175,7.353,3.905,2.0
75.118,7.361,3.479,4.0
75.084,7.371,3.054,3.0
75.083,7.411,5.154,8.0
75.066,7.422,4.728,9.0
75.068,7.434,4.302,10.0
75.038,7.443,3.87,11.0
75.059,7.458,3.447,19.0
75.057,7.471,3.024,12.0
75.057,7.511,5.122,98.0
75.048,7.521,4.696,110.0
75.053,7.533,4.271,84.0
75.046,7.545,3.839,60.0
75.055,7.558,3.415,48.0
75.051,7.57,2.991,20.0
75.084,7.614,5.09,8.0
75.069,7.623,4.663,8.0
75.064,7.634,4.238,42.0
75.122,7.652,3.809,6.0
75.073,7.659,3.381,6.0
75.006,7.665,2.955,2.0
75.117,7.715,5.057,1.0
0.0,0.0,0.0,0.0
74.973,7.722,4.197,2.0
71.004,7.323,3.566,1.0
71.008,7.335,3.163,2.0
70.917,7.337,2.758,1.0
70.893,7.371,4.737,4.0
70.899,7.382,4.335,4.0
70.914,7.393,3.933,5.0
70.894,7.402,3.522,7.0
70.92,7.415,3.122,7.0
61.902,6.482,2.375,3.0
70.861,7.456,4.696,21.0
70.879,7.467,4.295,26.0
70.875,7.477,3.892,35.0
70.879,7.487,3.482,38.0
70.879,7.497,3.081,52.0
61.168,6.479,2.312,4.0
70.868,7.543,4.656,34.0
70.882,7.553,4.253,35.0
70.879,7.562,3.851,30.0
70.872,7.57,3.441,25.0
70.891,7.583,3.04,24.0
60.48,6.478,2.25,2.0
70.862,7.625,4.613,7.0
70.934,7.642,4.213,6.0
70.848,7.641,3.806,6.0
70.929,7.659,3.4,6.0
70.941,7.67,2.998,5.0
59.82,6.476,2.188,4.0
71.052,7.727,4.58,1.0
71.084,7.739,4.177,1.0
71.177,7.758,3.777,0.0
71.095,7.758,3.361,0.0
73.484,8.028,3.057,2.0
59.267,6.483,2.129,3.0
73.226,8.045,4.671,7.0
73.468,8.08,4.268,10.0
73.502,8.092,3.852,10.0
73.35,8.084,3.418,12.0
73.032,8.058,2.988,7.0
58.749,6.489,2.07,8.0
72.421,8.034,4.569,10.0
72.561,8.057,4.164,8.0
72.747,8.086,3.761,10.0
72.793,8.1,3.341,11.0
72.422,8.067,2.911,2.0
58.181,6.488,2.009,7.0
71.939,8.055,4.487,8.0
16.498,1.849,0.934,0.0
72.043,8.082,3.671,5.0
72.095,8.095,3.256,9.0
57.68,6.483,2.276,3.0
57.716,6.494,1.949,6.0
71.481,8.076,4.404,9.0
71.23,8.054,3.982,8.0
71.041,8.04,3.566,2.0
71.272,8.073,3.164,2.0
57.234,6.49,2.214,5.0
57.238,6.496,1.889,10.0
71.0,8.09,4.318,11.0
70.84,8.078,3.904,10.0
70.602,8.058,3.488,9.0
70.535,8.057,3.075,7.0
56.755,6.489,2.15,1.0
56.749,6.495,1.827,5.0
70.434,8.091,4.227,7.0
70.459,8.1,3.825,9.0
70.331,8.091,3.417,8.0
70.034,8.063,2.996,5.0
56.325,6.491,2.088,5.0
56.326,6.497,1.767,11.0
69.758,8.075,4.129,0.0
69.931,8.1,3.739,2.0
70.037,8.119,3.344,3.0
55.86,6.48,2.343,1.0
55.881,6.488,2.024,6.0
55.924,6.498,1.707,11.0
63.194,7.369,3.686,3.0
63.217,7.376,3.325,3.0
63.204,7.38,2.962,3.0
55.488,6.483,2.279,5.0
55.53,6.493,1.963,11.0
55.559,6.502,1.647,11.0
63.155,7.415,3.628,6.0
63.182,7.422,3.268,6.0
63.157,7.424,2.905,6.0
55.16,6.488,2.216,8.0
55.157,6.492,1.901,10.0
55.195,6.502,1.588,10.0
63.122,7.459,3.569,13.0
63.125,7.463,3.208,15.0
63.127,7.468,2.847,16.0
54.803,6.487,2.152,10.0
54.821,6.494,1.839,11.0
54.858,6.503,1.528,11.0
63.117,7.504,3.511,31.0
63.106,7.506,3.148,38.0
63.11,7.511,2.787,37.0
54.513,6.491,2.09,14.0
54.529,6.498,1.778,14.0
54.546,6.504,1.468,13.0
63.115,7.548,3.45,82.0
63.097,7.549,3.087,116.0
63.112,7.554,2.726,65.0
54.17,6.487,2.025,11.0
54.212,6.495,1.717,12.0
54.232,6.502,1.407,12.0
63.097,7.586,3.388,26.0
63.119,7.592,3.027,24.0
63.09,7.592,2.664,2.0
53.938,6.493,1.963,12.0
53.944,6.497,1.655,12.0
53.972,6.504,1.347,14.0
63.1,7.625,3.325,11.0
63.123,7.63,2.965,10.0
53.643,6.486,2.212,3.0
53.67,6.492,1.9,13.0
53.716,6.501,1.594,13.0
53.748,6.508,1.288,11.0
63.145,7.665,3.264,6.0
63.108,7.663,2.901,6.0
53.431,6.49,2.149,5.0
53.454,6.495,1.839,8.0
53.502,6.504,1.534,14.0
53.508,6.508,1.227,12.0
63.152,7.699,3.199,3.0
63.152,7.701,2.837,3.0
53.221,6.492,2.085,8.0
53.275,6.5,1.777,12.0
53.308,6.507,1.473,12.0
53.309,6.51,1.168,12.0
63.265,7.742,3.139,2.0
53.206,6.512,2.335,0.0
53.035,6.493,2.023,14.0
53.073,6.5,1.715,14.0
53.13,6.509,1.412,13.0
53.143,6.513,1.109,12.0
63.257,7.768,3.072,1.0
52.82,6.488,2.262,2.0
52.885,6.497,1.961,12.0
52.911,6.502,1.653,13.0
52.945,6.508,1.351,13.0
52.981,6.515,1.049,11.0
65.619,8.084,3.116,4.0
52.696,6.492,2.2,2.0
52.718,6.496,1.899,10.0
52.776,6.505,1.593,12.0
52.795,6.508,1.291,14.0
52.836,6.515,0.989,12.0
65.27,8.063,3.029,7.0
52.55,6.492,2.137,2.0
52.608,6.5,1.837,10.0
52.652,6.506,1.531,13.0
52.673,6.51,1.23,12.0
52.732,6.519,0.93,13.0
65.21,8.074,2.955,7.0
52.481,6.498,2.076,3.0
52.511,6.503,1.776,9.0
52.562,6.509,1.472,11.0
52.58,6.513,1.17,12.0
52.624,6.52,0.87,12.0
65.154,8.084,2.88,3.0
52.347,6.494,2.013,5.0
52.417,6.503,1.715,10.0
52.468,6.51,1.411,12.0
52.507,6.516,1.11,13.0
52.549,6.522,0.81,12.0
52.287,6.498,2.253,1.0
52.293,6.498,1.952,7.0
52.339,6.504,1.654,8.0
52.392,6.511,1.35,14.0
52.443,6.517,1.05,12.0
52.482,6.523,0.75,12.0
52.179,6.493,2.188,3.0
52.253,6.501,1.892,6.0
52.301,6.507,1.593,8.0
52.361,6.514,1.289,14.0
52.407,6.52,0.99,12.0
52.458,6.527,0.69,11.0
52.171,6.497,2.129,3.0
52.239,6.505,1.832,5.0
52.276,6.509,1.533,9.0
52.34,6.516,1.229,14.0
52.386,6.522,0.93,13.0
52.427,6.528,0.629,12.0
52.143,6.497,2.068,4.0
52.189,6.502,1.77,7.0
52.258,6.509,1.472,10.0
52.33,6.518,1.168,14.0
52.366,6.522,0.869,14.0
52.418,6.529,0.569,11.0
52.131,6.497,2.007,7.0
52.213,6.505,1.71,8.0
52.282,6.513,1.412,10.0
52.326,6.517,1.108,14.0
52.391,6.525,0.809,13.0
52.439,6.531,0.509,12.0
52.185,6.502,1.949,7.0
52.238,6.507,1.651,8.0
52.324,6.516,1.354,11.0
52.367,6.52,1.049,12.0
52.412,6.525,0.75,11.0
52.453,6.53,0.449,11.0
52.241,6.505,1.89,5.0
52.29,6.509,1.592,8.0
52.352,6.515,1.294,14.0
52.433,6.524,0.989,14.0
52.475,6.528,0.689,11.0
52.514,6.532,0.389,12.0
52.289,6.505,1.831,6.0
52.362,6.511,1.534,10.0
52.406,6.515,1.234,16.0
52.494,6.524,0.93,13.0
52.554,6.53,0.63,12.0
52.574,6.532,0.329,11.0
52.375,6.507,1.774,9.0
52.447,6.513,1.475,12.0
52.498,6.517,1.176,13.0
52.566,6.524,0.87,13.0
52.635,6.531,0.569,12.0
52.657,6.532,0.267,4.0
52.469,6.507,1.716,10.0
52.538,6.513,1.416,11.0
52.629,6.522,1.117,13.0
52.674,6.525,0.811,13.0
52.72,6.529,0.509,10.0
52.775,6.534,0.207,1.0
52.596,6.509,1.659,12.0
52.672,6.515,1.359,12.0
52.735,6.521,1.058,12.0
52.796,6.525,0.751,15.0
52.844,6.529,0.449,12.0
42.87,5.295,0.118,2.0
52.739,6.511,1.602,12.0
52.822,6.518,1.301,14.0
52.889,6.523,0.999,12.0
52.941,6.526,0.691,13.0
53.0,6.531,0.388,12.0
0.0,0.0,0.0,0.0
52.894,6.511,1.545,12.0
52.991,6.519,1.243,13.0
53.037,6.522,0.941,12.0
53.114,6.528,0.632,15.0
53.188,6.534,0.328,9.0
41.938,5.15,0.018,4.0
53.086,6.513,1.488,12.0
53.173,6.52,1.187,13.0
53.228,6.523,0.882,13.0
53.298,6.529,0.573,13.0
53.34,6.53,0.268,3.0
40.061,4.902,-0.028,3.0
53.295,6.515,1.433,12.0
53.356,6.519,1.129,12.0
53.431,6.524,0.825,13.0
53.51,6.53,0.514,14.0
45.996,5.61,0.178,3.0
40.333,4.917,-0.074,3.0
53.502,6.515,1.378,12.0
53.62,6.524,1.074,14.0
53.692,6.529,0.767,16.0
53.743,6.531,0.455,10.0
45.981,5.585,0.127,17.0
0.0,0.0,0.0,0.0
53.768,6.518,1.324,12.0
53.86,6.525,1.018,14.0
53.936,6.529,0.71,14.0
53.991,6.532,0.396,8.0
45.613,5.515,0.073,20.0
0.0,0.0,0.0,0.0
54.023,6.518,1.269,13.0
54.137,6.527,0.962,13.0
54.223,6.532,0.653,13.0
54.237,6.529,0.337,5.0
44.767,5.386,0.022,19.0
35.393,4.255,-0.184,12.0
54.313,6.519,1.215,13.0
54.413,6.526,0.905,13.0
54.496,6.53,0.595,12.0
54.627,6.541,0.278,2.0
43.251,5.175,-0.026,17.0
34.852,4.167,-0.221,22.0
54.631,6.52,1.161,14.0
54.726,6.526,0.85,12.0
54.85,6.535,0.537,13.0
51.303,6.108,0.204,2.0
38.595,4.591,-0.066,7.0
34.583,4.111,-0.257,12.0
54.956,6.52,1.107,11.0
55.081,6.529,0.794,12.0
55.213,6.539,0.481,15.0
51.322,6.073,0.148,12.0
38.397,4.54,-0.108,14.0
33.621,3.972,-0.286,10.0
55.399,6.531,1.056,11.0
55.525,6.539,0.741,13.0
55.602,6.542,0.424,11.0
45.766,5.38,0.083,20.0
0.0,0.0,0.0,0.0
32.959,3.868,-0.316,10.0
55.796,6.533,1.004,12.0
55.899,6.538,0.686,13.0
55.985,6.542,0.367,5.0
44.853,5.236,0.033,19.0
37.894,4.42,-0.188,4.0
32.026,3.732,-0.341,10.0
56.193,6.531,0.951,12.0
56.308,6.538,0.63,12.0
56.398,6.541,0.31,2.0
43.624,5.055,-0.013,19.0
35.872,4.152,-0.216,17.0
30.597,3.539,-0.359,8.0
56.669,6.536,0.899,12.0
56.802,6.544,0.577,7.0
51.361,5.911,0.228,16.0
37.181,4.274,-0.05,11.0
35.956,4.129,-0.253,12.0
29.607,3.397,-0.378,8.0
57.126,6.536,0.847,8.0
57.259,6.543,0.522,6.0
51.378,5.864,0.176,11.0
37.195,4.241,-0.088,8.0
35.011,3.988,-0.283,6.0
28.74,3.27,-0.396,7.0
57.64,6.538,0.796,9.0
57.763,6.544,0.468,5.0
46.58,5.271,0.112,17.0
38.674,4.371,-0.13,15.0
0.0,0.0,0.0,0.0
27.94,3.151,-0.413,7.0
58.176,6.54,0.745,11.0
58.271,6.543,0.415,5.0
0.0,0.0,0.0,0.0
37.721,4.225,-0.164,14.0
32.509,3.637,-0.327,10.0
26.687,2.982,-0.42,7.0
58.686,6.536,0.695,9.0
58.797,6.54,0.361,2.0
44.942,4.992,0.021,19.0
37.524,4.163,-0.199,13.0
31.679,3.51,-0.349,9.0
25.9,2.866,-0.433,6.0
59.207,6.529,0.644,5.0
59.321,6.533,0.308,1.0
43.856,4.823,-0.021,18.0
37.536,4.123,-0.235,13.0
30.375,3.331,-0.363,8.0
25.198,2.76,-0.445,6.0
59.841,6.532,0.595,2.0
48.118,5.244,0.205,1.0
0.0,0.0,0.0,0.0
37.055,4.027,-0.267,13.0
29.674,3.221,-0.382,8.0
24.707,2.678,-0.459,8.0
60.508,6.534,0.546,2.0
46.538,5.018,0.156,6.0
0.0,0.0,0.0,0.0
35.111,3.774,-0.285,5.0
28.889,3.101,-0.398,8.0
24.284,2.603,-0.473,6.0
61.281,6.543,0.499,8.0
46.531,4.96,0.114,20.0
39.1,4.161,-0.126,14.0
34.138,3.627,-0.307,11.0
27.967,2.967,-0.41,7.0
23.733,2.515,-0.483,5.0
62.05,6.548,0.451,4.0
46.414,4.89,0.074,20.0
39.277,4.131,-0.16,14.0
32.949,3.46,-0.324,10.0
26.966,2.827,-0.419,6.0
23.406,2.45,-0.496,5.0
62.817,6.548,0.402,3.0
45.629,4.748,0.034,21.0
39.247,4.077,-0.193,15.0
31.853,3.303,-0.34,9.0
26.337,2.727,-0.431,6.0
22.972,2.375,-0.506,5.0
52.81,5.435,0.295,1.0
44.844,4.606,-0.003,19.0
39.12,4.011,-0.224,14.0
31.08,3.182,-0.357,9.0
25.59,2.615,-0.439,6.0
22.536,2.299,-0.515,4.0
49.746,5.052,0.238,4.0
44.391,4.499,-0.038,19.0
38.182,3.863,-0.249,13.0
30.357,3.066,-0.373,9.0
25.168,2.537,-0.452,6.0
22.108,2.225,-0.522,5.0
47.929,4.801,0.192,8.0
44.38,4.437,-0.072,18.0
0.0,0.0,0.0,0.0
29.552,2.943,-0.385,8.0
24.803,2.465,-0.464,5.0
21.754,2.158,-0.53,8.0
47.729,4.712,0.156,22.0
44.259,4.361,-0.105,14.0
34.913,3.433,-0.28,5.0
28.954,2.841,-0.399,8.0
24.392,2.389,-0.474,5.0
21.511,2.103,-0.54,4.0
46.956,4.567,0.12,22.0
0.0,0.0,0.0,0.0
34.458,3.338,-0.301,4.0
28.127,2.719,-0.407,7.0
24.054,2.32,-0.484,5.0
21.232,2.044,-0.547,6.0
46.771,4.48,0.087,22.0
40.362,3.858,-0.152,15.0
33.833,3.227,-0.318,10.0
27.545,2.622,-0.417,7.0
23.771,2.258,-0.494,5.0
20.959,1.986,-0.554,5.0
46.442,4.379,0.057,21.0
40.448,3.805,-0.178,16.0
32.899,3.088,-0.33,10.0
26.918,2.521,-0.425,7.0
23.37,2.183,-0.501,6.0
0.0,0.0,0.0,0.0
46.367,4.299,0.027,21.0
40.283,3.726,-0.203,15.0
31.856,2.94,-0.339,9.0
26.594,2.449,-0.436,7.0
23.013,2.114,-0.507,5.0
20.189,1.85,-0.558,8.0
46.31,4.221,0.0,24.0
39.762,3.615,-0.223,15.0
31.312,2.84,-0.352,9.0
25.862,2.34,-0.439,6.0
22.687,2.048,-0.513,4.0
19.992,1.801,-0.564,5.0
46.26,4.142,-0.026,21.0
0.0,0.0,0.0,0.0
30.94,2.756,-0.365,9.0
25.648,2.279,-0.449,6.0
22.408,1.986,-0.519,14.0
19.686,1.741,-0.566,6.0
40.098,3.524,-0.044,80.0
0.0,0.0,0.0,0.0
30.464,2.664,-0.375,8.0
25.318,2.208,-0.457,9.0
19.708,1.714,-0.466,8.0
19.284,1.673,-0.564,8.0
40.013,3.451,-0.063,61.0
36.317,3.123,-0.262,4.0
29.701,2.547,-0.381,8.0
25.054,2.143,-0.464,6.0
19.705,1.681,-0.476,9.0
18.842,1.603,-0.561,12.0
40.11,3.391,-0.083,122.0
36.287,3.059,-0.278,8.0
29.485,2.479,-0.391,8.0
24.892,2.087,-0.472,6.0
19.707,1.647,-0.484,10.0
19.049,1.588,-0.575,11.0
40.122,3.324,-0.1,109.0
35.405,2.924,-0.286,6.0
29.217,2.406,-0.4,8.0
24.651,2.024,-0.478,5.0
19.709,1.613,-0.493,9.0
19.129,1.561,-0.585,8.0
40.097,3.252,-0.116,58.0
34.932,2.824,-0.297,5.0
28.905,2.33,-0.407,8.0
24.409,1.962,-0.483,5.0
19.71,1.579,-0.5,9.0
19.212,1.534,-0.595,3.0
40.082,3.18,-0.131,33.0
34.876,2.758,-0.309,8.0
28.53,2.249,-0.412,7.0
24.346,1.913,-0.49,6.0
19.725,1.545,-0.507,9.0
19.042,1.487,-0.596,3.0
41.84,3.245,-0.15,71.0
34.457,2.663,-0.316,8.0
28.225,2.175,-0.416,7.0
24.299,1.866,-0.497,7.0
19.717,1.509,-0.513,8.0
18.917,1.443,-0.598,3.0
41.887,3.174,-0.162,38.0
33.279,2.512,-0.315,3.0
28.192,2.121,-0.424,7.0
24.222,1.816,-0.502,5.0
19.714,1.473,-0.518,8.0
18.808,1.401,-0.599,3.0
40.318,2.981,-0.167,44.0
33.465,2.466,-0.325,9.0
27.875,2.046,-0.426,7.0
24.194,1.769,-0.507,5.0
19.722,1.437,-0.523,7.0
18.777,1.363,-0.603,3.0
40.313,2.906,-0.176,61.0
33.474,2.404,-0.333,10.0
27.819,1.99,-0.431,7.0
24.129,1.72,-0.511,5.0
19.797,1.406,-0.529,9.0
18.743,1.326,-0.605,3.0
40.317,2.831,-0.184,55.0
0.0,0.0,0.0,0.0
27.782,1.935,-0.436,7.0
24.155,1.676,-0.515,5.0
19.716,1.363,-0.53,8.0
18.73,1.29,-0.608,3.0
40.321,2.755,-0.19,44.0
32.91,2.24,-0.338,8.0
27.881,1.89,-0.441,7.0
24.152,1.63,-0.518,5.0
19.723,1.326,-0.533,9.0
18.707,1.252,-0.609,3.0
40.318,2.677,-0.195,45.0
33.261,2.199,-0.345,8.0
27.731,1.826,-0.441,7.0
24.29,1.593,-0.524,3.0
19.719,1.288,-0.534,9.0
18.705,1.216,-0.611,3.0
40.329,2.601,-0.198,41.0
32.712,2.1,-0.341,10.0
27.76,1.775,-0.443,7.0
24.231,1.542,-0.524,1.0
19.715,1.249,-0.535,9.0
18.725,1.182,-0.612,3.0
40.326,2.523,-0.199,42.0
33.048,2.058,-0.346,10.0
27.986,1.735,-0.448,7.0
24.104,1.488,-0.521,1.0
19.724,1.212,-0.536,9.0
18.776,1.148,-0.614,3.0
40.325,2.445,-0.199,43.0
33.237,2.006,-0.348,10.0
28.039,1.684,-0.448,7.0
24.251,1.45,-0.524,0.0
19.718,1.173,-0.535,9.0
18.765,1.111,-0.613,3.0
40.331,2.367,-0.198,42.0
33.121,1.935,-0.345,3.0
28.315,1.646,-0.451,7.0
24.263,1.403,-0.523,1.0
19.765,1.137,-0.535,7.0
18.805,1.076,-0.613,3.0
40.325,2.288,-0.195,44.0
33.839,1.91,-0.35,7.0
28.581,1.605,-0.453,4.0
24.399,1.363,-0.523,1.0
19.967,1.109,-0.538,3.0
18.86,1.042,-0.612,3.0
40.329,2.209,-0.19,45.0
33.769,1.839,-0.345,7.0
28.58,1.548,-0.449,5.0
24.413,1.315,-0.52,1.0
20.951,1.122,-0.562,4.0
18.884,1.006,-0.61,3.0
40.326,2.129,-0.184,41.0
33.767,1.772,-0.34,3.0
28.808,1.503,-0.448,3.0
23.82,1.236,-0.504,5.0
21.326,1.1,-0.568,1.0
