X,Y,Z,Reflectivity
99.94,6.448,6.23,25.0
99.97,6.433,5.655,23.0
100.067,6.423,5.083,13.0
100.492,6.434,4.516,7.0
100.717,6.433,3.945,4.0
162.629,10.362,5.435,4.0
100.735,6.404,6.121,5.0
0.0,0.0,0.0,0.0
112.451,7.112,5.536,2.0
112.289,7.083,4.869,5.0
112.447,7.074,4.229,4.0
112.379,7.053,3.581,3.0
112.468,7.041,6.657,2.0
112.295,7.01,6.0,2.0
0.0,0.0,0.0,0.0
197.961,12.292,8.277,10.0
197.426,12.225,7.121,13.0
163.459,10.097,4.957,22.0
112.454,6.927,6.482,1.0
204.672,12.57,10.618,6.0
0.0,0.0,0.0,0.0
197.49,12.06,7.953,7.0
197.952,12.053,6.83,5.0
45.182,2.743,1.299,8.0
0.0,0.0,0.0,0.0
203.395,12.277,10.237,8.0
198.289,11.931,8.837,8.0
197.554,11.851,7.65,12.0
162.666,9.728,5.363,12.0
45.217,2.696,1.231,7.0
0.0,0.0,0.0,0.0
203.637,12.065,9.935,17.0
198.748,11.74,8.555,6.0
197.907,11.653,7.36,14.0
163.373,9.589,5.138,15.0
45.194,2.644,1.161,1.0
0.0,0.0,0.0,0.0
0.0,0.0,0.0,0.0
200.826,11.631,8.336,8.0
198.535,11.46,7.081,9.0
45.172,2.599,1.352,2.0
208.65,11.967,5.048,5.0
0.0,0.0,0.0,0.0
203.459,11.583,9.309,10.0
198.901,11.285,7.957,8.0
162.612,9.194,5.554,13.0
45.196,2.546,1.284,42.0
45.199,2.537,1.025,57.0
0.0,0.0,0.0,0.0
204.166,11.376,9.035,6.0
180.671,10.032,6.959,15.0
162.588,8.994,5.312,9.0
45.213,2.491,1.217,1.0
0.0,0.0,0.0,0.0
0.0,0.0,0.0,0.0
181.468,9.885,7.763,8.0
180.559,9.797,6.686,19.0
163.474,8.835,5.099,15.0
45.207,2.434,1.151,12.0
45.212,2.425,0.892,77.0
200.179,10.687,9.417,23.0
180.215,9.584,7.444,19.0
180.646,9.569,6.426,13.0
45.193,2.384,1.343,7.0
204.367,10.737,4.905,5.0
0.0,0.0,0.0,0.0
0.0,0.0,0.0,0.0
179.781,9.324,7.166,20.0
162.543,8.394,5.548,9.0
45.173,2.323,1.278,12.0
45.214,2.315,1.02,6.0
45.21,2.305,0.761,76.0
180.095,9.136,7.955,16.0
179.72,9.075,6.907,9.0
162.713,8.182,5.322,14.0
45.215,2.263,1.215,1.0
0.0,0.0,0.0,0.0
23.584,1.17,0.364,0.0
23.593,1.164,1.008,0.0
23.61,1.159,0.874,1.0
23.604,1.154,0.738,7.0
23.605,1.148,0.601,18.0
23.628,1.144,0.466,36.0
23.623,1.138,0.331,40.0
23.602,1.131,0.976,40.0
23.594,1.125,0.84,40.0
23.601,1.119,0.705,41.0
23.59,1.114,0.568,47.0
23.59,1.108,0.433,60.0
23.59,1.103,0.298,63.0
23.578,1.095,0.943,70.0
23.578,1.09,0.808,68.0
23.577,1.084,0.673,71.0
23.585,1.079,0.536,66.0
23.59,1.074,0.401,68.0
23.591,1.068,0.266,72.0
23.583,1.06,0.911,71.0
23.604,1.055,0.776,150.0
23.582,1.049,0.641,80.0
23.59,1.043,0.504,47.0
23.597,1.038,0.37,42.0
23.606,1.033,0.235,46.0
23.611,1.025,0.88,46.0
23.612,1.02,0.745,39.0
23.617,1.014,0.61,32.0
45.228,1.931,0.907,5.0
23.619,1.003,0.339,13.0
23.65,0.998,0.204,1.0
23.636,0.99,0.85,0.0
163.334,6.8,4.943,16.0
100.504,4.16,2.468,18.0
100.505,4.134,1.885,20.0
40.375,1.651,0.527,8.0
40.385,1.641,0.297,150.0
179.016,7.217,6.212,7.0
40.386,1.617,1.17,108.0
40.39,1.607,0.94,100.0
40.381,1.596,0.706,121.0
40.417,1.588,0.476,150.0
40.921,1.597,0.249,112.0
162.573,6.292,5.436,15.0
41.669,1.601,1.155,82.0
41.956,1.601,0.924,74.0
42.532,1.612,0.69,150.0
43.48,1.637,0.458,150.0
43.632,1.631,0.211,139.0
162.858,6.035,5.243,7.0
44.145,1.624,1.169,96.0
44.811,1.636,0.932,74.0
45.098,1.635,0.676,13.0
71.198,2.562,0.663,15.0
44.565,1.592,0.161,1.0
121.232,4.289,3.755,10.0
163.369,5.734,4.129,6.0
162.345,5.655,3.18,5.0
114.856,3.969,1.585,4.0
71.044,2.436,0.576,31.0
40.12,1.365,0.097,150.0
121.246,4.081,3.61,15.0
40.111,1.339,0.966,42.0
40.107,1.328,0.738,150.0
40.114,1.317,0.506,150.0
40.125,1.306,0.278,142.0
40.124,1.296,0.05,150.0
40.115,1.281,1.148,150.0
40.115,1.269,0.92,150.0
40.111,1.259,0.692,150.0
40.126,1.248,0.46,110.0
40.125,1.236,0.232,119.0
40.125,1.225,0.005,150.0
40.119,1.211,1.102,150.0
40.126,1.199,0.875,150.0
40.115,1.188,0.647,150.0
40.128,1.177,0.415,136.0
40.118,1.165,0.187,150.0
40.11,1.153,-0.039,94.0
0.0,0.0,0.0,0.0
0.0,0.0,0.0,0.0
41.93,1.166,0.63,156.0
0.0,0.0,0.0,0.0
43.717,1.191,0.157,150.0
40.134,1.081,-0.083,155.0
43.726,1.162,1.106,18.0
0.0,0.0,0.0,0.0
0.0,0.0,0.0,0.0
70.665,1.816,0.579,25.0
0.0,0.0,0.0,0.0
0.0,0.0,0.0,0.0
99.682,2.467,2.417,65.0
99.235,2.425,1.843,93.0
71.016,1.714,0.917,13.0
70.808,1.688,0.506,9.0
45.542,1.072,0.067,1.0
44.036,1.023,-0.183,6.0
179.159,4.098,4.16,15.0
128.961,2.912,2.265,6.0
128.691,2.866,1.532,15.0
113.004,2.483,0.694,7.0
56.705,1.229,0.028,0.0
43.457,0.929,-0.224,0.0
179.31,3.766,3.987,32.0
163.711,3.387,2.714,14.0
162.869,3.32,1.779,24.0
88.032,1.767,0.455,2.0
55.178,1.091,-0.026,22.0
41.564,0.809,-0.254,2.0
55.203,1.054,1.175,33.0
55.175,1.036,0.862,50.0
55.164,1.019,0.55,68.0
55.152,1.001,0.233,71.0
55.102,0.983,-0.078,7.0
40.783,0.715,-0.288,1.0
55.187,0.947,1.123,47.0
55.202,0.931,0.812,27.0
55.21,0.913,0.5,3.0
55.194,0.895,0.183,0.0
52.371,0.833,-0.121,2.0
19.681,0.307,-0.156,0.0
19.723,0.3,0.383,12.0
19.749,0.294,0.273,7.0
19.779,0.289,0.161,2.0
0.0,0.0,0.0,0.0
19.683,0.275,-0.062,9.0
19.661,0.268,-0.173,15.0
19.706,0.261,0.366,13.0
19.731,0.255,0.256,16.0
19.772,0.25,0.145,24.0
19.694,0.242,0.031,3.0
19.644,0.235,-0.079,15.0
19.649,0.229,-0.189,17.0
19.736,0.223,0.351,11.0
19.743,0.216,0.239,16.0
19.691,0.209,0.128,10.0
19.636,0.202,0.015,13.0
19.636,0.196,-0.094,16.0
19.648,0.189,-0.205,15.0
19.658,0.182,0.333,9.0
19.652,0.176,0.223,12.0
19.647,0.169,0.112,11.0
19.656,0.163,0.0,20.0
19.642,0.156,-0.11,13.0
19.679,0.15,-0.221,1.0
19.622,0.143,0.318,12.0
19.666,0.136,0.208,18.0
19.643,0.13,0.097,12.0
19.639,0.123,-0.014,12.0
19.695,0.117,-0.124,1.0
0.0,0.0,0.0,0.0
19.612,0.103,0.304,17.0
19.659,0.097,0.194,11.0
19.684,0.09,0.084,15.0
19.764,0.084,-0.028,23.0
19.76,0.077,-0.139,37.0
19.774,0.071,-0.25,59.0
19.627,0.063,0.29,12.0
19.694,0.057,0.181,9.0
19.747,0.05,0.071,16.0
19.755,0.044,-0.041,50.0
19.743,0.037,-0.152,12.0
19.753,0.03,-0.263,13.0
19.625,0.023,0.278,15.0
19.778,0.017,0.169,2.0
19.789,0.01,0.058,3.0
19.746,0.003,-0.054,7.0
19.763,-0.003,-0.164,1.0
0.0,0.0,0.0,0.0
19.632,-0.016,0.266,13.0
19.679,-0.023,0.156,9.0
19.7,-0.03,0.046,15.0
19.73,-0.036,-0.065,12.0
19.745,-0.043,-0.176,14.0
19.769,-0.05,-0.287,15.0
19.659,-0.057,0.255,13.0
19.704,-0.063,0.145,16.0
19.706,-0.07,0.035,15.0
19.706,-0.077,-0.076,12.0
19.726,-0.084,-0.187,17.0
19.752,-0.091,-0.297,15.0
19.719,-0.098,0.245,12.0
19.729,-0.105,0.135,10.0
19.726,-0.112,0.024,9.0
19.705,-0.118,-0.087,15.0
19.733,-0.126,-0.197,16.0
19.747,-0.133,-0.307,17.0
169.919,-1.201,2.027,3.0
160.83,-1.193,1.021,5.0
0.0,0.0,0.0,0.0
19.745,-0.16,-0.097,9.0
19.763,-0.167,-0.207,12.0
19.761,-0.174,-0.317,7.0
116.351,-1.066,1.333,1.0
0.0,0.0,0.0,0.0
0.0,0.0,0.0,0.0
0.0,0.0,0.0,0.0
0.0,0.0,0.0,0.0
0.0,0.0,0.0,0.0
116.156,-1.305,1.281,45.0
19.761,-0.229,0.107,1.0
0.0,0.0,0.0,0.0
0.0,0.0,0.0,0.0
0.0,0.0,0.0,0.0
32.131,-0.419,-0.543,0.0
19.746,-0.263,0.21,30.0
19.755,-0.27,0.1,22.0
0.0,0.0,0.0,0.0
0.0,0.0,0.0,0.0
0.0,0.0,0.0,0.0
31.909,-0.483,-0.551,0.0
116.106,-1.794,1.193,152.0
19.755,-0.312,0.093,1.0
0.0,0.0,0.0,0.0
0.0,0.0,0.0,0.0
38.624,-0.652,-0.465,0.0
31.901,-0.55,-0.561,0.0
116.083,-2.036,1.156,152.0
0.0,0.0,0.0,0.0
0.0,0.0,0.0,0.0
0.0,0.0,0.0,0.0
0.0,0.0,0.0,0.0
31.85,-0.617,-0.57,0.0
116.11,-2.283,1.124,151.0
0.0,0.0,0.0,0.0
0.0,0.0,0.0,0.0
0.0,0.0,0.0,0.0
36.868,-0.778,-0.464,0.0
0.0,0.0,0.0,0.0
116.282,-2.531,1.097,25.0
0.0,0.0,0.0,0.0
0.0,0.0,0.0,0.0
0.0,0.0,0.0,0.0
0.0,0.0,0.0,0.0
31.465,-0.743,-0.578,0.0
0.0,0.0,0.0,0.0
0.0,0.0,0.0,0.0
0.0,0.0,0.0,0.0
0.0,0.0,0.0,0.0
36.331,-0.921,-0.472,0.0
31.545,-0.811,-0.585,0.0
161.972,-4.212,1.467,9.0
0.0,0.0,0.0,0.0
0.0,0.0,0.0,0.0
0.0,0.0,0.0,0.0
0.0,0.0,0.0,0.0
0.0,0.0,0.0,0.0
160.743,-4.518,1.435,5.0
0.0,0.0,0.0,0.0
0.0,0.0,0.0,0.0
44.611,-1.302,-0.345,0.0
35.745,-1.057,-0.474,0.0
0.0,0.0,0.0,0.0
160.663,-4.854,1.419,4.0
0.0,0.0,0.0,0.0
0.0,0.0,0.0,0.0
45.263,-1.417,-0.354,0.0
35.401,-1.122,-0.472,0.0
30.43,-0.976,-0.573,0.0
160.773,-5.195,1.411,3.0
0.0,0.0,0.0,0.0
0.0,0.0,0.0,0.0
0.0,0.0,0.0,0.0
35.626,-1.204,-0.476,0.0
30.499,-1.042,-0.575,0.0
160.698,-5.531,1.407,4.0
0.0,0.0,0.0,0.0
0.0,0.0,0.0,0.0
0.0,0.0,0.0,0.0
0.0,0.0,0.0,0.0
31.225,-1.132,-0.589,0.0
0.0,0.0,0.0,0.0
0.0,0.0,0.0,0.0
0.0,0.0,0.0,0.0
0.0,0.0,0.0,0.0
0.0,0.0,0.0,0.0
0.0,0.0,0.0,0.0
0.0,0.0,0.0,0.0
0.0,0.0,0.0,0.0
0.0,0.0,0.0,0.0
45.354,-1.8,-0.351,0.0
37.157,-1.488,-0.491,0.0
31.344,-1.267,-0.587,0.0
101.504,-4.126,0.907,150.0
101.389,-4.159,0.349,1.0
0.0,0.0,0.0,0.0
0.0,0.0,0.0,0.0
0.0,0.0,0.0,0.0
31.562,-1.342,-0.587,0.0
0.0,0.0,0.0,0.0
0.0,0.0,0.0,0.0
0.0,0.0,0.0,0.0
45.297,-1.984,-0.338,0.0
37.839,-1.672,-0.49,0.0
31.704,-1.413,-0.584,0.0
101.417,-4.539,0.936,1.0
0.0,0.0,0.0,0.0
0.0,0.0,0.0,0.0
0.0,0.0,0.0,0.0
0.0,0.0,0.0,0.0
31.544,-1.469,-0.575,0.0
101.531,-4.747,0.958,151.0
0.0,0.0,0.0,0.0
0.0,0.0,0.0,0.0
0.0,0.0,0.0,0.0
37.913,-1.828,-0.475,0.0
31.925,-1.551,-0.575,0.0
101.535,-4.951,0.983,152.0
0.0,0.0,0.0,0.0
0.0,0.0,0.0,0.0
0.0,0.0,0.0,0.0
0.0,0.0,0.0,0.0
0.0,0.0,0.0,0.0
101.506,-5.153,1.011,14.0
0.0,0.0,0.0,0.0
0.0,0.0,0.0,0.0
48.12,-2.495,-0.313,0.0
0.0,0.0,0.0,0.0
31.917,-1.678,-0.556,0.0
0.0,0.0,0.0,0.0
0.0,0.0,0.0,0.0
0.0,0.0,0.0,0.0
0.0,0.0,0.0,0.0
0.0,0.0,0.0,0.0
0.0,0.0,0.0,0.0
0.0,0.0,0.0,0.0
0.0,0.0,0.0,0.0
0.0,0.0,0.0,0.0
0.0,0.0,0.0,0.0
0.0,0.0,0.0,0.0
31.846,-1.801,-0.532,0.0
140.745,-7.983,1.55,11.0
0.0,0.0,0.0,0.0
0.0,0.0,0.0,0.0
0.0,0.0,0.0,0.0
0.0,0.0,0.0,0.0
33.472,-1.958,-0.545,0.0
150.013,-8.798,1.714,14.0
109.725,-6.473,0.657,1.0
0.0,0.0,0.0,0.0
0.0,0.0,0.0,0.0
0.0,0.0,0.0,0.0
33.857,-2.046,-0.536,0.0
149.553,-9.058,1.777,16.0
0.0,0.0,0.0,0.0
0.0,0.0,0.0,0.0
0.0,0.0,0.0,0.0
42.025,-2.605,-0.417,0.0
34.978,-2.181,-0.537,0.0
147.909,-9.239,1.83,31.0
117.001,-7.348,0.812,2.0
0.0,0.0,0.0,0.0
0.0,0.0,0.0,0.0
42.547,-2.717,-0.401,0.0
35.807,-2.299,-0.531,0.0
125.225,-8.055,1.614,33.0
125.106,-8.09,0.933,4.0
0.0,0.0,0.0,0.0
0.0,0.0,0.0,0.0
0.0,0.0,0.0,0.0
36.287,-2.397,-0.519,0.0
0.0,0.0,0.0,0.0
0.0,0.0,0.0,0.0
99.225,-6.635,0.259,1.0
0.0,0.0,0.0,0.0
0.0,0.0,0.0,0.0
35.899,-2.438,-0.492,0.0
100.063,-6.806,1.404,6.0
100.015,-6.835,0.862,6.0
99.002,-6.8,0.318,6.0
0.0,0.0,0.0,0.0
0.0,0.0,0.0,0.0
37.304,-2.601,-0.489,0.0
100.085,-6.988,1.466,7.0
100.094,-7.021,0.926,9.0
98.975,-6.976,0.38,13.0
0.0,0.0,0.0,0.0
0.0,0.0,0.0,0.0
39.8,-2.845,-0.496,0.0
100.072,-7.165,1.531,8.0
100.086,-7.197,0.991,11.0
99.132,-7.162,0.446,11.0
0.0,0.0,0.0,0.0
47.285,-3.448,-0.302,0.0
39.647,-2.904,-0.467,0.0
100.085,-7.341,1.599,10.0
100.1,-7.375,1.06,12.0
99.978,-7.397,0.519,9.0
0.0,0.0,0.0,0.0
0.0,0.0,0.0,0.0
41.418,-3.106,-0.459,0.0
100.148,-7.52,1.672,9.0
100.097,-7.547,1.132,13.0
100.069,-7.578,0.592,11.0
0.0,0.0,0.0,0.0
0.0,0.0,0.0,0.0
41.124,-3.154,-0.425,1.0
100.121,-7.689,1.747,11.0
100.077,-7.718,1.207,14.0
100.042,-7.745,0.667,13.0
0.0,0.0,0.0,0.0
0.0,0.0,0.0,0.0
41.84,-3.279,-0.4,0.0
100.119,-7.856,1.824,10.0
100.132,-7.888,1.286,11.0
100.048,-7.912,0.745,16.0
0.0,0.0,0.0,0.0
54.194,-4.319,-0.184,0.0
45.098,-3.609,-0.396,0.0
116.644,-9.343,2.219,8.0
100.038,-8.043,1.364,11.0
100.067,-8.076,0.826,15.0
99.829,-8.087,0.278,1.0
0.0,0.0,0.0,0.0
0.0,0.0,0.0,0.0
90.416,-7.388,1.794,150.0
90.43,-7.415,1.308,30.0
90.406,-7.44,0.822,150.0
90.415,-7.468,0.327,65.0
0.0,0.0,0.0,0.0
0.0,0.0,0.0,0.0
90.405,-7.529,1.87,35.0
90.419,-7.556,1.385,57.0
90.424,-7.583,0.9,54.0
90.409,-7.609,0.405,30.0
0.0,0.0,0.0,0.0
0.0,0.0,0.0,0.0
90.38,-7.666,1.95,32.0
90.406,-7.694,1.465,47.0
90.4,-7.72,0.98,32.0
90.404,-7.747,0.487,36.0
0.0,0.0,0.0,0.0
50.828,-4.385,-0.27,0.0
90.4,-7.806,2.033,35.0
90.398,-7.831,1.548,35.0
90.395,-7.856,1.063,35.0
90.408,-7.882,0.57,39.0
0.0,0.0,0.0,0.0
0.0,0.0,0.0,0.0
90.387,-7.938,2.117,66.0
90.401,-7.965,1.633,33.0
90.39,-7.989,1.149,59.0
90.4,-8.015,0.656,37.0
90.457,-8.046,0.172,4.0
0.0,0.0,0.0,0.0
90.367,-8.069,2.204,14.0
90.401,-8.096,1.72,34.0
90.378,-8.117,1.236,30.0
90.395,-8.143,0.743,46.0
90.373,-8.167,0.26,8.0
0.0,0.0,0.0,0.0
127.531,-11.567,3.235,27.0
90.377,-8.22,1.808,34.0
90.384,-8.245,1.326,40.0
90.387,-8.269,0.833,35.0
90.394,-8.293,0.349,27.0
0.0,0.0,0.0,0.0
127.517,-11.74,3.362,26.0
90.382,-8.344,1.899,38.0
90.381,-8.367,1.416,39.0
90.348,-8.388,0.924,21.0
90.39,-8.414,0.441,35.0
0.0,0.0,0.0,0.0
127.536,-11.912,3.493,14.0
90.366,-8.463,1.992,40.0
90.382,-8.486,1.509,37.0
90.329,-8.504,1.016,14.0
90.41,-8.534,0.535,150.0
0.0,0.0,0.0,0.0
127.48,-12.071,3.624,13.0
90.381,-8.58,2.086,53.0
90.395,-8.603,1.603,53.0
89.163,-8.506,1.096,13.0
90.383,-8.645,0.629,39.0
90.393,-8.669,0.147,5.0
119.106,-11.43,3.513,11.0
90.342,-8.691,2.182,36.0
90.374,-8.714,1.7,56.0
90.308,-8.728,1.207,46.0
90.376,-8.756,0.726,31.0
90.302,-8.77,0.243,5.0
116.297,-11.302,3.554,10.0
116.345,-11.331,2.935,24.0
90.361,-8.821,1.797,33.0
90.336,-8.839,1.305,23.0
90.352,-8.862,0.825,23.0
90.358,-8.883,0.343,26.0
108.135,-10.636,3.424,13.0
116.374,-11.47,3.064,48.0
90.287,-8.919,1.896,49.0
90.282,-8.938,1.405,136.0
90.271,-8.958,0.924,127.0
90.254,-8.976,0.443,31.0
108.045,-10.751,3.543,11.0
116.347,-11.602,3.195,39.0
89.047,-8.898,1.97,36.0
89.057,-8.917,1.487,56.0
89.066,-8.937,1.013,31.0
83.403,-8.387,0.505,5.0
108.963,-10.964,3.697,20.0
116.352,-11.729,3.327,34.0
116.314,-11.749,2.705,2.0
88.452,-8.953,1.578,1.0
88.159,-8.94,1.103,2.0
88.069,-8.95,0.633,2.0
108.802,-11.063,3.816,20.0
116.325,-11.849,3.46,20.0
116.319,-11.871,2.841,12.0
86.43,-8.838,1.642,1.0
87.407,-8.955,1.195,2.0
87.234,-8.954,0.729,3.0
108.814,-11.176,3.944,13.0
148.249,-15.253,4.583,14.0
116.334,-11.989,2.977,27.0
86.226,-8.902,1.739,19.0
86.26,-8.922,1.28,15.0
86.237,-8.936,0.821,80.0
148.859,-15.435,5.572,27.0
148.373,-15.409,4.762,13.0
116.345,-12.102,3.114,37.0
86.097,-8.971,1.837,4.0
83.361,-8.701,1.336,9.0
85.919,-8.984,0.92,5.0
149.041,-15.593,5.756,28.0
108.825,-11.403,3.622,13.0
116.338,-12.209,3.252,37.0
85.173,-8.952,1.92,4.0
83.388,-8.779,1.436,6.0
85.052,-8.969,1.012,3.0
148.924,-15.715,5.929,21.0
108.738,-11.49,3.751,25.0
116.308,-12.308,3.392,25.0
116.333,-12.329,2.761,7.0
84.47,-8.965,1.556,1.0
84.276,-8.958,1.104,3.0
111.444,-11.855,4.572,23.0
148.238,-15.788,5.292,20.0
147.824,-15.766,4.49,16.0
116.349,-12.427,2.904,22.0
83.351,-8.914,1.637,14.0
83.355,-8.927,1.193,34.0
110.904,-11.887,4.685,17.0
148.273,-15.91,5.474,25.0
147.84,-15.884,4.672,18.0
116.329,-12.515,3.044,25.0
83.31,-8.974,1.737,22.0
83.277,-8.983,1.295,25.0
110.618,-11.94,4.809,18.0
148.186,-16.013,5.653,28.0
108.8,-11.77,3.57,17.0
116.304,-12.597,3.185,35.0
83.318,-9.035,1.84,31.0
83.362,-9.051,1.398,10.0
110.468,-12.004,4.939,21.0
148.245,-16.125,5.837,16.0
108.759,-11.842,3.705,18.0
116.291,-12.676,3.33,33.0
83.319,-9.092,1.943,28.0
83.382,-9.109,1.501,11.0
107.809,-11.788,4.954,11.0
111.611,-12.215,4.535,9.0
148.182,-16.232,5.232,22.0
116.31,-12.754,3.475,17.0
83.326,-9.146,2.046,24.0
83.4,-9.164,1.605,20.0
107.742,-11.848,5.086,12.0
0.0,0.0,0.0,0.0
148.293,-16.336,5.42,21.0
148.011,-16.319,4.608,22.0
116.31,-12.836,3.002,26.0
83.346,-9.207,1.708,26.0
108.695,-12.017,5.267,19.0
110.307,-12.204,4.756,8.0
148.244,-16.414,5.601,22.0
148.066,-16.407,4.794,28.0
116.327,-12.901,3.148,50.0
83.33,-9.25,1.812,33.0
108.428,-12.047,5.389,17.0
110.687,-12.305,4.912,17.0
148.791,-16.553,5.81,19.0
148.206,-16.5,4.984,25.0
116.309,-12.958,3.293,33.0
83.314,-9.289,1.915,28.0
108.099,-12.064,5.509,17.0
107.733,-12.029,4.916,8.0
149.048,-16.652,6.007,13.0
148.45,-16.596,5.179,20.0
116.297,-13.01,3.438,21.0
83.33,-9.328,2.021,23.0
108.059,-12.108,5.643,6.0
108.787,-12.195,5.101,20.0
0.0,0.0,0.0,0.0
148.885,-16.708,5.384,19.0
148.031,-16.621,4.564,25.0
116.348,-13.072,2.969,20.0
0.0,0.0,0.0,0.0
108.923,-12.254,5.247,24.0
0.0,0.0,0.0,0.0
148.698,-16.743,5.562,24.0
148.101,-16.683,4.751,26.0
116.336,-13.112,3.112,36.0
0.0,0.0,0.0,0.0
108.638,-12.26,5.368,18.0
111.122,-12.544,4.899,6.0
148.41,-16.76,5.736,26.0
148.422,-16.767,4.947,25.0
116.315,-13.146,3.257,34.0
108.443,-12.269,6.073,2.0
108.09,-12.231,5.477,18.0
110.895,-12.551,5.026,12.0
148.398,-16.8,5.92,17.0
148.643,-16.833,5.138,22.0
116.3,-13.175,3.402,24.0
108.069,-12.255,6.188,12.0
108.071,-12.256,5.611,7.0
110.676,-12.554,5.154,11.0
148.636,-16.862,6.115,3.0
148.916,-16.898,5.331,20.0
147.943,-16.792,4.509,13.0
107.762,-12.245,6.304,18.0
0.0,0.0,0.0,0.0
108.996,-12.385,5.211,10.0
0.0,0.0,0.0,0.0
148.578,-16.886,5.505,18.0
147.99,-16.823,4.693,19.0
107.736,-12.261,6.435,19.0
0.0,0.0,0.0,0.0
111.424,-12.679,5.467,5.0
0.0,0.0,0.0,0.0
148.351,-16.882,5.679,23.0
148.243,-16.87,4.885,22.0
108.004,-12.305,6.585,17.0
0.0,0.0,0.0,0.0
108.054,-12.308,5.432,13.0
111.0,-12.642,4.976,7.0
148.252,-16.884,5.855,22.0
148.54,-16.916,5.075,22.0
49.105,-5.599,3.054,5.0
108.132,-12.326,6.146,7.0
108.092,-12.319,5.566,8.0
110.926,-12.64,5.108,17.0
148.187,-16.884,6.033,11.0
148.717,-16.942,5.262,20.0
49.136,-5.604,3.116,18.0
107.772,-12.289,6.257,17.0
0.0,0.0,0.0,0.0
110.766,-12.623,5.233,8.0
0.0,0.0,0.0,0.0
148.607,-16.929,5.436,19.0
49.169,-5.608,3.178,22.0
107.645,-12.273,6.379,19.0
0.0,0.0,0.0,0.0
108.989,-12.417,5.282,6.0
0.0,0.0,0.0,0.0
148.427,-16.901,5.606,21.0
49.038,-5.591,3.228,22.0
107.98,-12.305,6.528,18.0
0.0,0.0,0.0,0.0
108.01,-12.297,5.362,13.0
111.034,-12.637,4.917,3.0
148.277,-16.87,5.774,26.0
48.972,-5.578,3.282,41.0
49.157,-5.596,3.03,3.0
108.193,-12.311,6.089,6.0
108.049,-12.289,5.49,17.0
110.918,-12.609,5.042,14.0
148.249,-16.846,5.946,13.0
48.967,-5.571,3.338,41.0
49.123,-5.585,3.085,15.0
107.968,-12.269,6.201,14.0
108.032,-12.268,5.615,6.0
110.728,-12.568,5.161,14.0
0.0,0.0,0.0,0.0
48.925,-5.558,3.392,30.0
49.123,-5.576,3.142,23.0
107.71,-12.217,6.312,16.0
0.0,0.0,0.0,0.0
108.966,-12.344,5.204,16.0
0.0,0.0,0.0,0.0
48.772,-5.529,3.439,33.0
49.089,-5.56,3.196,20.0
49.237,-5.573,2.941,6.0
0.0,0.0,0.0,0.0
108.699,-12.285,5.316,18.0
111.34,-12.574,4.848,2.0
48.75,-5.513,3.492,39.0
49.094,-5.547,3.252,10.0
49.194,-5.554,2.994,17.0
0.0,0.0,0.0,0.0
108.195,-12.194,5.411,14.0
111.142,-12.517,4.962,11.0
48.777,-5.501,3.548,37.0
49.533,-5.581,3.336,25.0
49.15,-5.532,3.046,19.0
49.316,-5.546,2.785,9.0
108.018,-12.137,5.52,14.0
107.746,-12.096,4.928,7.0
48.869,-5.494,3.609,27.0
48.861,-5.487,3.344,20.0
49.158,-5.515,3.099,10.0
49.283,-5.523,2.836,26.0
108.206,-12.115,5.646,3.0
0.0,0.0,0.0,0.0
49.234,-5.515,3.689,24.0
48.816,-5.462,3.393,37.0
49.146,-5.493,3.152,11.0
49.238,-5.497,2.887,38.0
0.0,0.0,0.0,0.0
108.707,-12.111,5.203,21.0
49.473,-5.52,3.76,16.0
48.803,-5.438,3.444,38.0
49.176,-5.473,3.205,2.0
49.211,-5.471,2.936,35.0
49.362,-5.481,2.679,1.0
108.519,-12.037,5.306,18.0
48.831,-5.424,3.761,2.0
48.922,-5.427,3.503,23.0
107.838,-11.949,7.139,11.0
49.198,-5.444,2.985,13.0
49.324,-5.451,2.727,7.0
108.145,-11.939,5.396,21.0
48.899,-5.406,3.816,11.0
49.084,-5.419,3.564,27.0
48.733,-5.373,3.274,2.0
107.742,-11.863,6.647,10.0
49.319,-5.423,2.776,8.0
107.852,-11.845,5.488,13.0
48.788,-5.366,3.856,28.0
49.282,-5.412,3.627,23.0
48.736,-5.345,3.323,23.0
107.134,-11.733,6.714,20.0
49.394,-5.401,2.828,15.0
107.826,-11.776,5.591,7.0
48.718,-5.329,3.897,35.0
49.433,-5.398,3.686,27.0
48.772,-5.318,3.372,23.0
107.218,-11.674,6.82,21.0
49.484,-5.38,2.879,10.0
108.955,-11.829,5.751,10.0
48.687,-5.294,3.941,43.0
49.219,-5.343,3.716,11.0
49.181,-5.33,3.446,27.0
48.618,-5.261,3.137,16.0
49.477,-5.345,2.924,16.0
109.25,-11.785,5.867,19.0
48.703,-5.262,3.986,15.0
48.9,-5.275,3.736,5.0
49.395,-5.318,3.505,23.0
48.595,-5.224,3.179,33.0
49.495,-5.312,2.969,4.0
109.188,-11.7,5.959,16.0
40.463,-4.343,3.347,5.0
48.859,-5.235,3.775,17.0
49.488,-5.292,3.555,23.0
48.663,-5.195,3.225,20.0
107.527,-11.461,6.543,18.0
49.584,-5.276,2.747,6.0
49.469,-5.272,4.135,6.0
48.837,-5.194,3.816,22.0
49.505,-5.256,3.597,23.0
48.68,-5.159,3.267,16.0
107.353,-11.358,6.621,18.0
108.708,-11.481,6.113,11.0
40.29,-4.262,3.401,38.0
48.829,-5.155,3.855,24.0
49.613,-5.227,3.646,19.0
48.676,-5.119,3.306,22.0
107.383,-11.272,6.71,18.0
107.659,-11.281,6.14,19.0
40.274,-4.226,3.432,42.0
48.861,-5.117,3.896,19.0
49.58,-5.182,3.682,22.0
49.409,-5.153,3.395,24.0
48.748,-5.075,3.083,12.0
107.179,-11.136,6.196,20.0
40.307,-4.194,3.466,39.0
48.16,-5.001,3.877,20.0
49.85,-5.166,3.74,10.0
49.754,-5.145,3.456,10.0
48.773,-5.033,3.121,14.0
107.5,-11.072,6.294,23.0
40.482,-4.176,3.511,35.0
48.048,-4.945,3.904,20.0
107.108,-11.001,8.114,19.0
49.727,-5.096,3.49,16.0
48.762,-4.987,3.155,17.0
107.766,-11.0,6.384,19.0
40.586,-4.148,3.548,28.0
48.131,-4.909,3.944,16.0
48.109,-4.895,3.678,3.0
49.833,-5.06,3.531,10.0
108.635,-11.006,7.104,15.0
107.976,-10.915,6.47,21.0
40.383,-4.088,3.558,27.0
45.651,-4.611,3.771,8.0
48.154,-4.853,3.713,31.0
107.519,-10.811,7.689,22.0
108.417,-10.877,7.159,18.0
108.541,-10.866,6.572,17.0
45.989,-4.61,4.081,6.0
40.467,-4.047,3.368,29.0
48.169,-4.806,3.744,19.0
107.479,-10.698,7.752,19.0
108.098,-10.735,7.203,20.0
108.067,-10.708,6.609,11.0
45.845,-4.549,4.096,36.0
40.382,-3.997,3.385,23.0
48.154,-4.754,3.771,5.0
107.503,-10.588,7.817,15.0
107.916,-10.603,7.253,19.0
108.053,-10.591,6.67,9.0
45.961,-4.511,4.133,34.0
45.699,-4.473,3.857,5.0
107.013,-10.45,8.441,8.0
106.511,-10.374,7.803,12.0
107.089,-10.405,7.256,16.0
110.427,-10.703,6.875,23.0
45.991,-4.463,4.16,36.0
47.612,-4.608,4.044,4.0
107.944,-10.419,8.572,10.0
107.181,-10.318,7.909,19.0
107.262,-10.299,7.324,17.0
110.398,-10.574,6.93,21.0
45.909,-4.402,4.177,15.0
47.936,-4.584,4.095,29.0
108.241,-10.323,8.649,15.0
107.16,-10.192,7.959,19.0
107.017,-10.152,7.358,18.0
107.334,-10.154,6.789,12.0
0.0,0.0,0.0,0.0
48.211,-4.554,4.141,27.0
107.905,-10.166,8.671,9.0
106.079,-9.966,7.926,20.0
107.046,-10.03,7.406,16.0
110.112,-10.289,7.011,6.0
45.992,-4.303,4.225,23.0
48.248,-4.5,4.164,25.0
107.788,-10.026,8.706,14.0
105.895,-9.822,7.955,14.0
106.854,-9.883,7.436,17.0
107.608,-9.925,6.895,13.0
45.978,-4.246,4.242,16.0
48.241,-4.442,4.182,29.0
107.843,-9.9,8.751,10.0
108.088,-9.894,8.16,15.0
106.662,-9.735,7.461,20.0
107.578,-9.79,6.93,6.0
47.507,-4.328,4.4,16.0
48.224,-4.38,4.198,29.0
107.989,-9.778,8.799,18.0
108.803,-9.823,8.249,22.0
106.542,-9.589,7.488,22.0
107.572,-9.654,6.964,15.0
47.37,-4.255,4.402,25.0
48.162,-4.313,4.207,20.0
107.261,-9.575,8.773,17.0
109.167,-9.715,8.31,14.0
106.615,-9.459,7.523,19.0
106.811,-9.448,6.944,22.0
12.821,-0.15,-0.861,0.0
12.002,-0.142,-0.875,0.0
11.284,-0.135,-0.889,0.0
10.626,-0.129,-0.9,0.0
10.03,-0.123,-0.908,0.0
9.514,-0.118,-0.917,0.0
12.56,-0.159,-0.862,0.0
11.799,-0.151,-0.878,0.0
11.102,-0.144,-0.891,0.0
10.462,-0.137,-0.902,0.0
9.889,-0.131,-0.91,0.0
9.366,-0.125,-0.917,0.0
12.399,-0.169,-0.869,0.0
11.581,-0.16,-0.879,0.0
10.909,-0.152,-0.892,0.0
10.303,-0.145,-0.903,0.0
9.76,-0.139,-0.912,0.0
9.281,-0.133,-0.922,0.0
12.169,-0.178,-0.87,0.0
11.434,-0.169,-0.884,0.0
10.762,-0.161,-0.895,0.0
10.176,-0.154,-0.907,0.0
9.67,-0.148,-0.918,0.0
9.138,-0.141,-0.921,0.0
11.964,-0.188,-0.873,0.0
11.276,-0.179,-0.888,0.0
10.629,-0.17,-0.899,0.0
10.038,-0.162,-0.908,0.0
9.487,-0.155,-0.914,0.0
9.034,-0.149,-0.923,0.0
11.808,-0.197,-0.877,0.0
11.136,-0.188,-0.892,0.0
10.474,-0.179,-0.9,0.0
9.9,-0.17,-0.909,0.0
9.407,-0.163,-0.919,0.0
8.942,-0.157,-0.926,0.0
11.636,-0.207,-0.88,0.0
10.965,-0.197,-0.893,0.0
10.358,-0.188,-0.904,0.0
9.786,-0.179,-0.912,0.0
9.301,-0.172,-0.921,0.0
8.808,-0.164,-0.923,0.0
11.474,-0.217,-0.883,0.0
10.819,-0.206,-0.895,0.0
10.215,-0.197,-0.905,0.0
9.668,-0.188,-0.913,0.0
9.129,-0.179,-0.915,0.0
8.71,-0.172,-0.924,0.0
11.341,-0.227,-0.887,0.0
10.672,-0.215,-0.896,0.0
10.117,-0.206,-0.908,0.0
9.566,-0.196,-0.915,0.0
9.093,-0.188,-0.923,0.0
8.628,-0.18,-0.926,0.0
11.2,-0.237,-0.89,0.0
10.574,-0.226,-0.901,0.0
9.981,-0.215,-0.908,0.0
9.495,-0.206,-0.92,0.0
8.974,-0.196,-0.922,0.0
8.56,-0.189,-0.929,0.0
11.076,-0.247,-0.893,0.0
10.436,-0.235,-0.901,0.0
9.882,-0.224,-0.911,0.0
9.367,-0.214,-0.919,0.0
8.89,-0.205,-0.924,0.0
8.474,-0.197,-0.93,0.0
10.957,-0.257,-0.896,0.0
10.321,-0.244,-0.903,0.0
9.762,-0.233,-0.911,0.0
9.24,-0.222,-0.917,0.0
8.826,-0.214,-0.927,0.0
8.397,-0.205,-0.931,0.0
10.797,-0.266,-0.894,0.0
10.215,-0.254,-0.905,0.0
9.674,-0.242,-0.913,0.0
9.152,-0.231,-0.918,0.0
8.749,-0.222,-0.928,0.0
8.335,-0.213,-0.933,0.0
10.654,-0.275,-0.894,0.0
10.119,-0.263,-0.907,0.0
9.589,-0.251,-0.915,0.0
9.092,-0.24,-0.921,0.0
8.68,-0.231,-0.93,0.0
8.265,-0.221,-0.933,0.0
10.565,-0.285,-0.897,0.0
10.04,-0.273,-0.91,0.0
9.503,-0.26,-0.916,0.0
8.99,-0.248,-0.92,0.0
8.578,-0.239,-0.927,0.0
8.19,-0.229,-0.933,0.0
10.52,-0.297,-0.903,0.0
9.924,-0.282,-0.909,0.0
9.426,-0.27,-0.918,0.0
8.921,-0.257,-0.921,0.0
8.52,-0.247,-0.929,0.0
8.128,-0.238,-0.934,0.0
10.39,-0.306,-0.902,0.0
9.839,-0.292,-0.911,0.0
9.355,-0.279,-0.92,0.0
8.862,-0.267,-0.923,0.0
8.48,-0.257,-0.933,0.0
8.086,-0.246,-0.936,0.0
10.301,-0.316,-0.903,0.0
9.788,-0.302,-0.914,0.0
9.268,-0.288,-0.919,0.0
8.803,-0.276,-0.925,0.0
8.397,-0.265,-0.931,0.0
8.009,-0.254,-0.934,0.0
10.224,-0.326,-0.905,0.0
9.695,-0.312,-0.914,0.0
9.199,-0.297,-0.92,0.0
8.74,-0.285,-0.925,0.0
8.369,-0.274,-0.934,0.0
7.982,-0.263,-0.937,0.0
10.158,-0.337,-0.907,0.0
9.624,-0.321,-0.915,0.0
9.109,-0.306,-0.918,0.0
8.717,-0.295,-0.93,0.0
8.279,-0.282,-0.931,0.0
7.935,-0.272,-0.938,0.0
10.091,-0.348,-0.909,0.0
9.564,-0.331,-0.916,0.0
9.072,-0.316,-0.921,0.0
8.611,-0.302,-0.925,0.0
8.234,-0.291,-0.932,0.0
7.893,-0.28,-0.939,0.0
10.013,-0.358,-0.909,0.0
9.498,-0.341,-0.917,0.0
9.03,-0.327,-0.923,0.0
8.599,-0.313,-0.929,0.0
8.213,-0.301,-0.935,0.0
7.839,-0.289,-0.938,0.0
9.962,-0.369,-0.911,0.0
9.449,-0.352,-0.918,0.0
8.938,-0.335,-0.92,0.0
8.523,-0.321,-0.927,0.0
8.203,-0.311,-0.939,0.0
7.814,-0.298,-0.94,0.0
9.909,-0.379,-0.913,0.0
9.401,-0.362,-0.919,0.0
8.876,-0.344,-0.919,0.0
8.503,-0.331,-0.93,0.0
8.107,-0.318,-0.933,0.0
7.789,-0.307,-0.941,0.0
9.835,-0.389,-0.911,0.0
9.331,-0.371,-0.918,0.0
8.879,-0.355,-0.924,0.0
8.439,-0.34,-0.928,0.0
8.084,-0.327,-0.935,0.0
7.741,-0.315,-0.94,0.0
9.794,-0.4,-0.913,0.0
9.306,-0.382,-0.92,0.0
8.829,-0.365,-0.924,0.0
8.444,-0.351,-0.932,0.0
8.065,-0.337,-0.937,0.0
7.731,-0.325,-0.943,0.0
9.749,-0.411,-0.913,0.0
9.283,-0.393,-0.923,0.0
8.798,-0.375,-0.925,0.0
8.398,-0.36,-0.931,0.0
8.034,-0.346,-0.937,0.0
7.693,-0.333,-0.941,0.0
9.706,-0.421,-0.914,0.0
9.249,-0.404,-0.923,0.0
8.794,-0.386,-0.928,0.0
8.342,-0.368,-0.929,0.0
7.994,-0.354,-0.936,0.0
7.671,-0.342,-0.942,0.0
9.662,-0.432,-0.913,0.0
9.21,-0.414,-0.923,0.0
8.756,-0.395,-0.927,0.0
8.342,-0.379,-0.932,0.0
7.98,-0.364,-0.937,0.0
7.67,-0.352,-0.945,0.0
9.631,-0.443,-0.914,0.0
9.197,-0.425,-0.925,0.0
8.719,-0.405,-0.926,0.0
8.313,-0.388,-0.932,0.0
7.961,-0.374,-0.937,0.0
7.652,-0.361,-0.945,0.0
9.609,-0.454,-0.915,0.0
9.169,-0.436,-0.925,0.0
8.709,-0.416,-0.928,0.0
8.289,-0.398,-0.931,0.0
7.953,-0.384,-0.939,0.0
7.653,-0.371,-0.947,0.0
9.599,-0.466,-0.917,0.0
9.137,-0.446,-0.924,0.0
8.688,-0.426,-0.928,0.0
8.295,-0.409,-0.934,0.0
7.915,-0.392,-0.936,0.0
7.641,-0.38,-0.947,0.0
9.573,-0.477,-0.916,0.0
9.127,-0.457,-0.925,0.0
8.673,-0.436,-0.928,0.0
8.285,-0.419,-0.934,0.0
7.925,-0.402,-0.939,0.0
7.654,-0.391,-0.95,0.0
9.55,-0.488,-0.916,0.0
9.098,-0.467,-0.924,0.0
8.66,-0.446,-0.928,0.0
8.255,-0.428,-0.932,0.0
7.944,-0.413,-0.942,0.0
7.642,-0.4,-0.95,0.0
9.557,-0.5,-0.917,0.0
9.068,-0.477,-0.922,0.0
8.651,-0.457,-0.928,0.0
8.258,-0.438,-0.934,0.0
7.932,-0.423,-0.942,0.0
7.607,-0.407,-0.946,0.0
9.552,-0.512,-0.918,0.0
9.083,-0.489,-0.924,0.0
8.651,-0.468,-0.929,0.0
8.247,-0.448,-0.933,0.0
7.928,-0.432,-0.942,0.0
7.61,-0.417,-0.947,0.0
9.571,-0.525,-0.92,0.0
9.069,-0.499,-0.923,0.0
8.619,-0.476,-0.925,0.0
8.231,-0.457,-0.931,0.0
7.898,-0.44,-0.938,0.0
7.632,-0.427,-0.95,0.0
9.548,-0.535,-0.918,0.0
9.068,-0.51,-0.922,0.0
8.662,-0.49,-0.93,0.0
8.25,-0.468,-0.933,0.0
7.906,-0.451,-0.939,0.0
7.631,-0.437,-0.949,0.0
9.544,-0.546,-0.917,0.0
9.091,-0.523,-0.924,0.0
8.687,-0.501,-0.932,0.0
8.256,-0.479,-0.933,0.0
7.946,-0.463,-0.943,0.0
7.629,-0.446,-0.948,0.0
9.571,-0.559,-0.919,0.0
9.095,-0.534,-0.924,0.0
8.69,-0.512,-0.931,0.0
8.264,-0.489,-0.933,0.0
7.873,-0.468,-0.933,0.0
7.629,-0.455,-0.947,0.0
9.582,-0.572,-0.918,0.0
9.119,-0.546,-0.925,0.0
8.709,-0.523,-0.932,0.0
8.309,-0.501,-0.937,0.0
7.902,-0.479,-0.935,0.0
7.604,-0.463,-0.943,0.0
9.608,-0.584,-0.919,0.0
9.127,-0.557,-0.924,0.0
8.716,-0.534,-0.931,0.0
8.342,-0.513,-0.939,0.0
7.947,-0.491,-0.939,0.0
7.664,-0.475,-0.949,0.0
9.614,-0.596,-0.917,0.0
9.132,-0.568,-0.922,0.0
8.732,-0.545,-0.931,0.0
8.275,-0.518,-0.929,0.0
7.923,-0.498,-0.934,0.0
7.651,-0.483,-0.945,0.0
9.652,-0.609,-0.918,0.0
9.162,-0.58,-0.923,0.0
8.741,-0.555,-0.929,0.0
8.354,-0.533,-0.936,0.0
7.978,-0.511,-0.938,0.0
7.625,-0.49,-0.939,0.0
9.652,-0.62,-0.916,0.0
9.176,-0.591,-0.921,0.0
8.753,-0.566,-0.928,0.0
8.383,-0.544,-0.936,0.0
8.016,-0.522,-0.94,0.0
7.702,-0.503,-0.946,0.0
9.689,-0.633,-0.916,0.0
9.208,-0.603,-0.921,0.0
8.788,-0.578,-0.928,0.0
8.414,-0.555,-0.936,0.0
8.05,-0.533,-0.941,0.0
7.723,-0.513,-0.946,0.0
9.742,-0.647,-0.917,0.0
9.272,-0.617,-0.924,0.0
8.843,-0.591,-0.93,0.0
8.43,-0.565,-0.935,0.0
8.04,-0.541,-0.936,0.0
7.775,-0.525,-0.949,0.0
9.762,-0.658,-0.914,0.0
9.311,-0.63,-0.924,0.0
8.864,-0.602,-0.929,0.0
8.489,-0.578,-0.937,0.0
8.088,-0.553,-0.938,0.0
7.744,-0.531,-0.941,0.0
9.821,-0.672,-0.915,0.0
9.351,-0.642,-0.923,0.0
8.88,-0.612,-0.926,0.0
8.499,-0.587,-0.934,0.0
8.129,-0.564,-0.939,0.0
7.785,-0.542,-0.942,0.0
9.865,-0.685,-0.914,0.0
9.41,-0.656,-0.924,0.0
8.939,-0.625,-0.927,0.0
8.541,-0.599,-0.934,0.0
8.154,-0.574,-0.937,0.0
7.803,-0.551,-0.94,0.0
9.928,-0.7,-0.915,0.0
9.443,-0.667,-0.922,0.0
8.948,-0.634,-0.923,0.0
8.541,-0.607,-0.929,0.0
8.187,-0.584,-0.936,0.0
7.839,-0.561,-0.94,0.0
9.996,-0.714,-0.915,0.0
9.449,-0.677,-0.917,0.0
9.014,-0.648,-0.924,0.0
8.61,-0.62,-0.931,0.0
8.282,-0.599,-0.942,0.0
7.903,-0.573,-0.942,0.0
10.053,-0.728,-0.914,0.0
9.519,-0.691,-0.918,0.0
9.083,-0.661,-0.926,0.0
8.666,-0.633,-0.932,0.0
8.293,-0.607,-0.937,0.0
7.958,-0.584,-0.944,0.0
10.125,-0.742,-0.914,0.0
9.616,-0.707,-0.92,0.0
9.165,-0.675,-0.927,0.0
8.732,-0.645,-0.933,0.0
8.308,-0.616,-0.933,0.0
7.975,-0.593,-0.94,0.0
10.211,-0.757,-0.914,0.0
9.651,-0.718,-0.917,0.0
9.216,-0.687,-0.926,0.0
8.768,-0.655,-0.93,0.0
8.404,-0.63,-0.938,0.0
7.991,-0.601,-0.936,0.0
10.274,-0.771,-0.912,0.0
9.772,-0.735,-0.921,0.0
9.291,-0.701,-0.926,0.0
8.854,-0.669,-0.932,0.0
8.448,-0.64,-0.936,0.0
8.038,-0.611,-0.935,0.0
10.372,-0.787,-0.913,0.0
9.818,-0.746,-0.918,0.0
9.344,-0.712,-0.924,0.0
8.879,-0.678,-0.928,0.0
8.528,-0.653,-0.938,0.0
8.139,-0.625,-0.94,0.0
10.474,-0.803,-0.913,0.0
9.929,-0.763,-0.92,0.0
9.385,-0.723,-0.921,0.0
8.948,-0.691,-0.928,0.0
8.557,-0.662,-0.934,0.0
8.165,-0.633,-0.936,0.0
10.531,-0.815,-0.909,0.0
10.004,-0.776,-0.918,0.0
9.475,-0.737,-0.921,0.0
9.039,-0.705,-0.929,0.0
8.601,-0.672,-0.931,0.0
8.237,-0.645,-0.937,0.0
10.599,-0.828,-0.906,0.0
10.044,-0.787,-0.913,0.0
9.523,-0.747,-0.917,0.0
9.118,-0.717,-0.929,0.0
8.704,-0.686,-0.934,0.0
8.362,-0.661,-0.943,0.0
10.755,-0.848,-0.909,0.0
10.128,-0.8,-0.911,0.0
9.635,-0.763,-0.919,0.0
9.195,-0.73,-0.928,0.0
8.777,-0.698,-0.934,0.0
8.422,-0.671,-0.942,0.0
10.863,-0.864,-0.908,0.0
10.281,-0.819,-0.915,0.0
9.739,-0.778,-0.92,0.0
9.265,-0.741,-0.926,0.0
8.844,-0.709,-0.932,0.0
8.465,-0.68,-0.938,0.0
10.954,-0.878,-0.905,0.0
10.372,-0.833,-0.913,0.0
9.854,-0.793,-0.921,0.0
9.369,-0.755,-0.927,0.0
8.941,-0.722,-0.933,0.0
8.535,-0.691,-0.937,0.0
11.027,-0.891,-0.9,0.0
10.429,-0.844,-0.907,0.0
9.94,-0.806,-0.919,0.0
9.465,-0.769,-0.927,0.0
9.002,-0.732,-0.93,0.0
8.604,-0.701,-0.936,0.0
14.295,-1.218,-0.865,0.0
13.148,-1.12,-0.865,0.0
12.381,-1.055,-0.88,0.0
11.757,-1.002,-0.899,0.0
11.052,-0.942,-0.904,0.0
10.518,-0.897,-0.917,0.0
14.558,-1.239,-0.86,0.0
13.551,-1.153,-0.872,0.0
12.561,-1.069,-0.875,0.0
11.913,-1.014,-0.894,0.0
11.235,-0.956,-0.903,0.0
10.615,-0.904,-0.91,0.0
14.911,-1.267,-0.86,0.0
13.869,-1.178,-0.873,0.0
12.865,-1.093,-0.878,0.0
12.101,-1.028,-0.891,0.0
11.374,-0.966,-0.898,0.0
10.808,-0.918,-0.911,0.0
15.245,-1.292,-0.857,0.0
14.117,-1.196,-0.869,0.0
13.087,-1.109,-0.874,0.0
12.322,-1.044,-0.89,0.0
11.57,-0.98,-0.897,0.0
10.974,-0.929,-0.909,0.0
15.529,-1.312,-0.851,0.0
14.411,-1.217,-0.866,0.0
13.418,-1.133,-0.877,0.0
12.49,-1.055,-0.884,0.0
11.804,-0.997,-0.898,0.0
11.123,-0.939,-0.905,0.0
15.857,-1.336,-0.846,0.0
14.654,-1.234,-0.859,0.0
13.682,-1.152,-0.874,0.0
12.789,-1.076,-0.886,0.0
11.994,-1.009,-0.894,0.0
11.323,-0.952,-0.904,0.0
16.223,-1.361,-0.842,0.0
15.014,-1.259,-0.858,0.0
13.992,-1.173,-0.874,0.0
12.865,-1.078,-0.872,0.0
12.252,-1.026,-0.896,0.0
11.466,-0.96,-0.899,0.0
16.579,-1.385,-0.836,0.0
15.365,-1.283,-0.856,0.0
14.242,-1.188,-0.868,0.0
13.146,-1.096,-0.872,0.0
12.427,-1.036,-0.89,0.0
11.62,-0.968,-0.894,0.0
17.027,-1.416,-0.833,0.0
15.691,-1.303,-0.85,0.0
14.54,-1.207,-0.865,0.0
13.561,-1.125,-0.879,0.0
12.682,-1.051,-0.889,0.0
11.878,-0.984,-0.896,0.0
17.348,-1.434,-0.823,0.0
16.044,-1.325,-0.846,0.0
14.711,-1.214,-0.853,0.0
13.826,-1.14,-0.876,0.0
12.836,-1.058,-0.881,0.0
12.11,-0.997,-0.895,0.0
17.834,-1.465,-0.82,0.0
16.427,-1.349,-0.841,0.0
15.22,-1.248,-0.86,0.0
14.123,-1.157,-0.874,0.0
13.021,-1.066,-0.874,0.0
12.298,-1.006,-0.89,0.0
18.384,-1.501,-0.818,0.0
16.711,-1.363,-0.831,0.0
15.463,-1.259,-0.85,0.0
14.33,-1.166,-0.865,0.0
13.358,-1.086,-0.877,0.0
12.525,-1.017,-0.888,0.0
18.712,-1.517,-0.804,0.0
17.111,-1.385,-0.825,0.0
15.894,-1.285,-0.85,0.0
14.68,-1.186,-0.864,0.0
13.667,-1.103,-0.877,0.0
12.782,-1.03,-0.887,0.0
19.11,-1.537,-0.793,0.0
17.546,-1.409,-0.82,0.0
16.344,-1.311,-0.85,0.0
15.008,-1.202,-0.861,0.0
13.982,-1.119,-0.876,0.0
12.966,-1.036,-0.881,0.0
19.726,-1.573,-0.789,0.0
18.062,-1.438,-0.817,0.0
16.611,-1.321,-0.839,0.0
15.286,-1.214,-0.854,0.0
14.258,-1.131,-0.872,0.0
13.025,-1.031,-0.865,0.0
20.342,-1.608,-0.783,0.0
18.466,-1.457,-0.808,0.0
16.915,-1.333,-0.829,0.0
15.587,-1.226,-0.848,0.0
14.485,-1.138,-0.864,0.0
13.502,-1.059,-0.876,0.0
20.764,-1.625,-0.769,0.0
19.084,-1.491,-0.807,0.0
17.175,-1.34,-0.816,0.0
16.159,-1.258,-0.855,0.0
14.848,-1.155,-0.863,0.0
13.79,-1.071,-0.875,0.0
21.479,-1.664,-0.763,0.0
19.587,-1.515,-0.799,0.0
17.95,-1.386,-0.827,0.0
16.457,-1.268,-0.846,0.0
15.041,-1.157,-0.852,0.0
14.124,-1.085,-0.875,0.0
21.914,-1.68,-0.747,0.0
20.173,-1.543,-0.793,0.0
18.302,-1.397,-0.816,0.0
16.818,-1.281,-0.84,0.0
15.501,-1.179,-0.855,0.0
14.392,-1.092,-0.87,0.0
23.018,-1.744,-0.75,0.0
20.664,-1.562,-0.782,0.0
18.901,-1.426,-0.815,0.0
17.194,-1.295,-0.833,0.0
15.823,-1.189,-0.85,0.0
14.621,-1.096,-0.862,0.0
23.34,-1.747,-0.727,0.0
21.156,-1.58,-0.77,0.0
19.216,-1.431,-0.8,0.0
17.822,-1.325,-0.837,0.0
16.259,-1.206,-0.85,0.0
14.916,-1.104,-0.858,0.0
24.451,-1.806,-0.725,0.0
21.734,-1.602,-0.759,0.0
19.808,-1.456,-0.795,0.0
18.033,-1.322,-0.821,0.0
16.644,-1.218,-0.845,0.0
15.274,-1.115,-0.856,0.0
25.162,-1.833,-0.71,0.0
22.281,-1.619,-0.746,0.0
20.317,-1.473,-0.787,0.0
18.435,-1.333,-0.813,0.0
17.087,-1.233,-0.843,0.0
15.611,-1.123,-0.853,0.0
25.581,-1.837,-0.685,0.0
23.654,-1.694,-0.758,0.0
20.721,-1.48,-0.773,0.0
19.032,-1.356,-0.811,0.0
17.395,-1.236,-0.833,0.0
16.036,-1.136,-0.853,0.0
26.116,-1.847,-0.662,0.0
24.483,-1.727,-0.749,0.0
21.374,-1.503,-0.766,0.0
19.407,-1.361,-0.8,0.0
17.732,-1.24,-0.824,0.0
16.359,-1.141,-0.847,0.0
27.868,-1.94,-0.667,0.0
24.344,-1.689,-0.711,0.0
22.035,-1.525,-0.759,0.0
19.838,-1.368,-0.79,0.0
18.313,-1.26,-0.825,0.0
16.762,-1.15,-0.844,0.0
28.595,-1.957,-0.644,0.0
25.136,-1.715,-0.699,0.0
22.51,-1.531,-0.744,0.0
20.342,-1.379,-0.781,0.0
18.679,-1.262,-0.816,0.0
17.027,-1.147,-0.833,0.0
29.64,-1.993,-0.626,0.0
0.0,0.0,0.0,0.0
23.342,-1.558,-0.738,0.0
20.96,-1.395,-0.776,0.0
19.118,-1.268,-0.808,0.0
17.186,-1.136,-0.817,0.0
30.739,-2.028,-0.607,0.0
0.0,0.0,0.0,0.0
23.991,-1.572,-0.726,0.0
21.44,-1.399,-0.764,0.0
19.507,-1.269,-0.798,0.0
17.89,-1.16,-0.826,0.0
32.088,-2.076,-0.59,0.0
27.385,-1.765,-0.647,0.0
24.939,-1.601,-0.721,0.0
22.065,-1.412,-0.756,0.0
19.987,-1.274,-0.791,0.0
18.339,-1.165,-0.822,0.0
0.0,0.0,0.0,0.0
28.855,-1.822,-0.643,0.0
25.407,-1.598,-0.701,0.0
22.943,-1.437,-0.756,0.0
20.417,-1.274,-0.78,0.0
18.697,-1.162,-0.813,0.0
0.0,0.0,0.0,0.0
29.464,-1.82,-0.618,0.0
25.964,-1.597,-0.681,0.0
23.366,-1.431,-0.739,0.0
20.881,-1.274,-0.77,0.0
19.198,-1.167,-0.81,0.0
36.007,-2.183,-0.518,0.0
30.61,-1.847,-0.602,0.0
0.0,0.0,0.0,0.0
24.016,-1.437,-0.728,0.0
21.678,-1.292,-0.771,0.0
19.563,-1.161,-0.799,0.0
36.896,-2.184,-0.483,0.0
31.376,-1.849,-0.577,0.0
0.0,0.0,0.0,0.0
24.509,-1.431,-0.711,0.0
22.175,-1.289,-0.761,0.0
19.986,-1.157,-0.791,0.0
0.0,0.0,0.0,0.0
0.0,0.0,0.0,0.0
28.976,-1.657,-0.649,0.0
25.223,-1.436,-0.7,0.0
22.696,-1.286,-0.75,0.0
20.512,-1.157,-0.786,0.0
42.112,-2.368,-0.446,0.0
0.0,0.0,0.0,0.0
29.629,-1.65,-0.627,0.0
26.761,-1.483,-0.71,0.0
23.216,-1.28,-0.739,0.0
20.821,-1.142,-0.772,0.0
0.0,0.0,0.0,0.0
0.0,0.0,0.0,0.0
30.762,-1.665,-0.613,0.0
26.238,-1.413,-0.664,0.0
23.942,-1.283,-0.732,0.0
21.356,-1.138,-0.767,0.0
0.0,0.0,0.0,0.0
37.352,-1.974,-0.502,0.0
31.025,-1.63,-0.581,0.0
0.0,0.0,0.0,0.0
24.532,-1.275,-0.721,0.0
22.025,-1.139,-0.764,0.0
0.0,0.0,0.0,0.0
0.0,0.0,0.0,0.0
32.268,-1.644,-0.566,0.0
28.867,-1.462,-0.662,0.0
24.925,-1.255,-0.704,0.0
22.455,-1.125,-0.753,0.0
0.0,0.0,0.0,0.0
0.0,0.0,0.0,0.0
0.0,0.0,0.0,0.0
29.462,-1.444,-0.642,0.0
25.619,-1.248,-0.694,0.0
23.094,-1.118,-0.748,0.0
0.0,0.0,0.0,0.0
0.0,0.0,0.0,0.0
0.0,0.0,0.0,0.0
30.223,-1.431,-0.625,0.0
25.785,-1.214,-0.67,0.0
23.41,-1.095,-0.733,0.0
0.0,0.0,0.0,0.0
0.0,0.0,0.0,0.0
0.0,0.0,0.0,0.0
30.971,-1.415,-0.607,0.0
26.732,-1.213,-0.666,0.0
24.044,-1.083,-0.726,0.0
0.0,0.0,0.0,0.0
45.245,-2.016,-0.352,0.0
0.0,0.0,0.0,0.0
31.811,-1.397,-0.589,0.0
28.474,-1.242,-0.679,0.0
24.423,-1.058,-0.712,0.0
0.0,0.0,0.0,0.0
0.0,0.0,0.0,0.0
0.0,0.0,0.0,0.0
32.724,-1.38,-0.572,0.0
28.716,-1.202,-0.654,0.0
25.248,-1.049,-0.71,0.0
0.0,0.0,0.0,0.0
0.0,0.0,0.0,0.0
0.0,0.0,0.0,0.0
34.666,-1.4,-0.571,0.0
29.881,-1.197,-0.651,0.0
25.731,-1.023,-0.698,0.0
0.0,0.0,0.0,0.0
0.0,0.0,0.0,0.0
0.0,0.0,0.0,0.0
34.429,-1.328,-0.532,0.0
29.948,-1.145,-0.623,0.0
26.449,-1.003,-0.691,0.0
0.0,0.0,0.0,0.0
0.0,0.0,0.0,0.0
0.0,0.0,0.0,0.0
0.0,0.0,0.0,0.0
30.984,-1.128,-0.615,1.0
25.884,-0.934,-0.652,0.0
0.0,0.0,0.0,0.0
0.0,0.0,0.0,0.0
0.0,0.0,0.0,0.0
37.065,-1.293,-0.503,0.0
31.843,-1.1,-0.603,0.0
0.0,0.0,0.0,0.0
0.0,0.0,0.0,0.0
0.0,0.0,0.0,0.0
0.0,0.0,0.0,0.0
38.076,-1.256,-0.483,0.0
31.805,-1.038,-0.573,0.0
28.097,-0.908,-0.657,0.0
0.0,0.0,0.0,0.0
0.0,0.0,0.0,0.0
0.0,0.0,0.0,0.0
0.0,0.0,0.0,0.0
33.238,-1.022,-0.571,1.0
28.983,-0.881,-0.653,0.0
160.925,-4.858,0.832,3.0
0.0,0.0,0.0,0.0
0.0,0.0,0.0,0.0
0.0,0.0,0.0,0.0
33.059,-0.952,-0.54,0.0
29.229,-0.832,-0.634,0.0
160.796,-4.538,0.965,13.0
0.0,0.0,0.0,0.0
0.0,0.0,0.0,0.0
0.0,0.0,0.0,0.0
34.572,-0.928,-0.537,0.0
29.267,-0.776,-0.612,1.0
160.67,-4.221,1.09,11.0
0.0,0.0,0.0,0.0
0.0,0.0,0.0,0.0
0.0,0.0,0.0,0.0
34.829,-0.867,-0.515,0.0
29.989,-0.736,-0.604,0.0
0.0,0.0,0.0,0.0
0.0,0.0,0.0,0.0
0.0,0.0,0.0,0.0
0.0,0.0,0.0,0.0
0.0,0.0,0.0,0.0
30.674,-0.692,-0.596,0.0
116.231,-2.591,0.96,15.0
0.0,0.0,0.0,0.0
0.0,0.0,0.0,0.0
0.0,0.0,0.0,0.0
0.0,0.0,0.0,0.0
31.669,-0.651,-0.593,0.0
116.191,-2.358,1.039,151.0
0.0,0.0,0.0,0.0
0.0,0.0,0.0,0.0
0.0,0.0,0.0,0.0
37.778,-0.713,-0.479,1.0
31.461,-0.583,-0.569,0.0
116.167,-2.121,1.114,152.0
0.0,0.0,0.0,0.0
0.0,0.0,0.0,0.0
0.0,0.0,0.0,0.0
0.0,0.0,0.0,0.0
31.862,-0.525,-0.556,0.0
116.185,-1.883,1.187,153.0
19.753,-0.313,0.095,14.0
0.0,0.0,0.0,0.0
0.0,0.0,0.0,0.0
0.0,0.0,0.0,0.0
32.694,-0.472,-0.551,0.0
19.757,-0.279,0.213,26.0
19.768,-0.272,0.106,23.0
0.0,0.0,0.0,0.0
0.0,0.0,0.0,0.0
0.0,0.0,0.0,0.0
0.0,0.0,0.0,0.0
19.762,-0.238,0.224,12.0
19.753,-0.231,0.117,0.0
0.0,0.0,0.0,0.0
0.0,0.0,0.0,0.0
38.71,-0.412,-0.402,0.0
19.778,-0.203,-0.312,0.0
116.374,-1.162,1.38,1.0
0.0,0.0,0.0,0.0
0.0,0.0,0.0,0.0
19.773,-0.176,-0.088,7.0
19.755,-0.169,-0.195,13.0
19.753,-0.162,-0.302,16.0
170.031,-1.344,2.097,11.0
160.689,-1.215,1.11,14.0
19.768,-0.142,0.029,5.0
19.739,-0.135,-0.079,12.0
19.729,-0.128,-0.186,17.0
19.747,-0.121,-0.294,16.0
19.715,-0.114,0.251,8.0
19.722,-0.107,0.144,13.0
19.703,-0.1,0.037,13.0
19.722,-0.093,-0.071,10.0
19.724,-0.086,-0.178,16.0
19.758,-0.079,-0.286,15.0
19.655,-0.072,0.259,10.0
19.694,-0.065,0.152,17.0
19.693,-0.058,0.045,15.0
19.699,-0.051,-0.063,15.0
19.743,-0.044,-0.171,14.0
19.788,-0.037,-0.279,1.0
19.632,-0.03,0.265,13.0
19.696,-0.023,0.159,6.0
19.715,-0.017,0.052,8.0
19.731,-0.01,-0.056,9.0
19.881,-0.003,-0.165,0.0
19.784,0.003,-0.272,0.0
19.624,0.01,0.272,15.0
19.737,0.017,0.166,13.0
19.744,0.024,0.058,16.0
19.762,0.031,-0.05,64.0
19.758,0.038,-0.158,17.0
19.77,0.045,-0.266,65.0
19.62,0.052,0.277,13.0
19.65,0.059,0.171,12.0
19.725,0.066,0.064,24.0
19.743,0.073,-0.045,18.0
19.762,0.08,-0.153,5.0
19.738,0.087,-0.261,0.0
19.62,0.094,0.282,16.0
19.664,0.101,0.176,15.0
19.645,0.108,0.068,12.0
19.638,0.114,-0.04,12.0
19.682,0.122,-0.148,8.0
0.0,0.0,0.0,0.0
19.63,0.136,0.287,11.0
19.663,0.143,0.18,15.0
19.643,0.15,0.072,12.0
19.615,0.156,-0.036,18.0
19.638,0.164,-0.144,15.0
19.653,0.17,-0.251,16.0
19.678,0.178,0.291,9.0
19.677,0.185,0.183,10.0
19.686,0.192,0.076,11.0
19.654,0.199,-0.033,12.0
19.636,0.205,-0.141,18.0
19.656,0.212,-0.249,18.0
19.736,0.221,0.295,12.0
19.758,0.228,0.187,27.0
19.763,0.236,0.078,2.0
19.69,0.241,-0.031,1.0
19.65,0.248,-0.138,15.0
19.657,0.255,-0.246,16.0
19.723,0.263,0.297,14.0
19.754,0.271,0.189,10.0
0.0,0.0,0.0,0.0
55.017,0.792,-0.082,1.0
19.723,0.291,-0.137,0.0
19.691,0.297,-0.245,2.0
19.731,0.306,0.298,0.0
55.205,0.876,0.532,2.0
55.195,0.894,0.228,27.0
55.137,0.913,-0.08,11.0
41.398,0.699,-0.287,2.0
32.591,0.562,-0.405,0.0
55.177,0.974,0.836,75.0
55.168,0.993,0.532,61.0
55.18,1.012,0.229,42.0
55.114,1.03,-0.079,9.0
41.182,0.784,-0.286,1.0
34.282,0.664,-0.426,1.0
163.265,3.235,2.473,23.0
162.465,3.274,1.567,18.0
83.545,1.712,0.345,4.0
52.393,1.091,-0.077,1.0
41.12,0.87,-0.287,1.0
32.985,0.709,-0.412,1.0
128.865,2.824,1.947,25.0
70.928,1.579,0.68,5.0
76.587,1.73,0.312,3.0
45.514,1.043,-0.069,6.0
40.442,0.941,-0.285,1.0
33.182,0.784,-0.417,1.0
98.915,2.379,1.486,18.0
70.852,1.727,0.673,30.0
70.594,1.745,0.281,19.0
41.941,1.05,-0.068,150.0
39.969,1.014,-0.286,9.0
32.167,0.826,-0.408,0.0
0.0,0.0,0.0,0.0
0.0,0.0,0.0,0.0
0.0,0.0,0.0,0.0
40.131,1.089,-0.071,160.0
39.967,1.098,-0.291,16.0
31.931,0.888,-0.409,0.0
40.117,1.134,0.591,105.0
40.133,1.147,0.369,145.0
40.128,1.161,0.147,126.0
40.134,1.174,-0.078,150.0
39.979,1.183,-0.299,12.0
40.142,1.201,-0.523,1.0
40.121,1.219,0.583,150.0
40.132,1.232,0.361,108.0
40.124,1.245,0.139,150.0
40.118,1.258,-0.086,150.0
39.957,1.266,-0.308,8.0
40.18,1.286,-0.532,3.0
40.127,1.302,0.574,150.0
40.137,1.316,0.352,90.0
40.122,1.328,0.129,16.0
40.123,1.341,-0.097,150.0
39.953,1.349,-0.318,6.0
40.178,1.37,-0.543,1.0
161.974,5.597,2.276,20.0
71.164,2.481,0.605,14.0
44.521,1.567,0.131,2.0
40.117,1.424,-0.108,150.0
39.83,1.427,-0.328,2.0
31.155,1.126,-0.43,1.0
43.482,1.593,0.597,86.0
43.574,1.61,0.356,150.0
0.0,0.0,0.0,0.0
40.505,1.522,-0.122,12.0
37.365,1.416,-0.32,1.0
30.309,1.158,-0.428,1.0
40.428,1.564,0.541,150.0
40.406,1.576,0.316,150.0
40.336,1.585,0.091,145.0
40.334,1.598,-0.136,135.0
36.852,1.472,-0.329,1.0
29.965,1.206,-0.435,1.0
100.514,4.092,1.31,20.0
62.016,2.543,0.463,1.0
45.179,1.867,0.085,53.0
40.327,1.679,-0.152,12.0
23.653,0.992,-0.221,28.0
23.64,0.999,-0.352,43.0
23.629,1.01,0.298,47.0
23.62,1.017,0.166,45.0
23.617,1.024,0.034,40.0
23.608,1.03,-0.099,46.0
23.609,1.038,-0.231,63.0
23.612,1.045,-0.362,65.0
23.604,1.056,0.287,75.0
23.605,1.063,0.155,70.0
23.592,1.069,0.023,67.0
23.597,1.077,-0.11,66.0
23.603,1.084,-0.241,64.0
23.613,1.092,-0.374,57.0
23.609,1.103,0.276,45.0
23.622,1.111,0.144,39.0
23.621,1.118,0.012,38.0
23.638,1.126,-0.122,36.0
23.659,1.134,-0.254,35.0
23.641,1.14,-0.386,16.0
23.63,1.151,0.263,0.0
57.982,2.843,0.323,5.0
45.172,2.228,0.0,39.0
40.32,2.0,-0.23,37.0
33.649,1.679,-0.38,5.0
28.382,1.425,-0.479,1.0
45.228,2.293,0.48,13.0
45.194,2.304,0.226,6.0
45.186,2.317,-0.026,26.0
40.267,2.076,-0.252,25.0
32.77,1.699,-0.389,9.0
0.0,0.0,0.0,0.0
45.244,2.382,0.453,3.0
45.204,2.392,0.2,27.0
45.206,2.405,-0.053,5.0
39.921,2.136,-0.274,15.0
31.781,1.709,-0.396,8.0
27.056,1.463,-0.489,4.0
66.873,3.648,0.629,0.0
45.194,2.478,0.171,25.0
40.314,2.221,-0.072,36.0
0.0,0.0,0.0,0.0
31.172,1.735,-0.409,8.0
26.597,1.488,-0.498,1.0
99.701,5.626,0.874,9.0
45.183,2.562,0.142,45.0
40.324,2.297,-0.099,43.0
37.224,2.131,-0.304,6.0
30.34,1.745,-0.418,8.0
25.9,1.497,-0.502,1.0
45.209,2.636,0.365,4.0
45.179,2.646,0.111,46.0
40.325,2.373,-0.127,45.0
35.642,2.107,-0.316,6.0
29.533,1.754,-0.428,8.0
25.421,1.517,-0.511,1.0
63.365,3.811,0.467,4.0
45.179,2.729,0.078,50.0
40.329,2.447,-0.156,46.0
35.041,2.135,-0.336,7.0
28.932,1.771,-0.44,7.0
24.836,1.527,-0.518,1.0
45.222,2.802,0.299,60.0
45.182,2.811,0.045,56.0
40.327,2.52,-0.186,51.0
33.865,2.125,-0.351,11.0
28.143,1.773,-0.45,7.0
24.51,1.551,-0.53,1.0
54.035,3.445,0.316,4.0
45.186,2.893,0.009,102.0
40.31,2.591,-0.218,39.0
0.0,0.0,0.0,0.0
27.323,1.77,-0.458,7.0
24.128,1.57,-0.541,2.0
45.18,2.961,0.228,77.0
40.335,2.653,-0.024,15.0
40.067,2.646,-0.249,15.0
31.435,2.084,-0.376,8.0
26.645,1.773,-0.469,6.0
19.903,1.33,-0.463,2.0
42.104,2.833,0.176,4.0
40.324,2.723,-0.058,35.0
0.0,0.0,0.0,0.0
30.482,2.074,-0.391,9.0
25.924,1.77,-0.479,6.0
19.759,1.354,-0.476,6.0
42.709,2.946,0.143,16.0
40.319,2.791,-0.092,40.0
36.742,2.552,-0.291,6.0
29.832,2.079,-0.408,8.0
25.268,1.767,-0.489,6.0
19.945,1.4,-0.498,10.0
41.104,2.904,0.101,3.0
40.309,2.857,-0.128,43.0
35.469,2.523,-0.313,10.0
28.921,2.064,-0.422,8.0
24.721,1.77,-0.501,5.0
19.727,1.417,-0.511,7.0
40.321,2.915,0.062,48.0
40.321,2.924,-0.165,44.0
33.732,2.454,-0.329,7.0
27.963,2.041,-0.434,7.0
24.193,1.772,-0.512,5.0
19.705,1.448,-0.529,8.0
40.327,2.981,0.024,46.0
40.309,2.989,-0.204,36.0
32.43,2.412,-0.347,8.0
27.11,2.022,-0.447,7.0
23.764,1.778,-0.526,3.0
19.706,1.479,-0.548,10.0
41.913,3.164,-0.015,143.0
38.994,2.953,-0.235,3.0
31.616,2.401,-0.37,9.0
26.223,1.997,-0.458,6.0
19.821,1.514,-0.459,3.0
19.712,1.51,-0.568,12.0
41.913,3.23,-0.057,119.0
37.336,2.885,-0.262,4.0
30.649,2.375,-0.389,9.0
25.38,1.972,-0.469,6.0
19.728,1.537,-0.476,8.0
19.665,1.537,-0.586,8.0
40.105,3.151,-0.095,61.0
0.0,0.0,0.0,0.0
29.198,2.306,-0.4,8.0
24.668,1.954,-0.481,6.0
19.711,1.565,-0.496,9.0
19.393,1.545,-0.598,3.0
40.099,3.21,-0.137,72.0
34.562,2.774,-0.314,7.0
28.447,2.289,-0.42,7.0
24.204,1.953,-0.497,5.0
19.709,1.594,-0.517,8.0
18.92,1.534,-0.604,6.0
40.084,3.266,-0.179,36.0
32.777,2.678,-0.333,10.0
27.457,2.248,-0.435,7.0
23.853,1.958,-0.516,5.0
19.703,1.621,-0.538,9.0
18.692,1.542,-0.617,3.0
39.957,3.313,-0.222,21.0
31.745,2.638,-0.357,7.0
26.297,2.19,-0.445,6.0
19.817,1.654,-0.45,3.0
19.203,1.607,-0.545,10.0
18.337,1.538,-0.625,2.0
37.749,3.181,-0.252,3.0
30.34,2.563,-0.375,8.0
25.454,2.155,-0.459,6.0
19.705,1.672,-0.469,8.0
18.991,1.615,-0.561,12.0
18.008,1.535,-0.634,2.0
35.843,3.068,-0.279,6.0
29.486,2.53,-0.397,8.0
24.881,2.139,-0.477,6.0
19.706,1.698,-0.492,9.0
18.97,1.638,-0.582,12.0
17.638,1.527,-0.642,2.0
34.432,2.993,-0.308,11.0
28.362,2.47,-0.415,7.0
24.14,2.107,-0.491,8.0
20.588,1.801,-0.538,4.0
18.963,1.662,-0.604,19.0
17.458,1.533,-0.655,2.0
32.459,2.862,-0.328,10.0
27.169,2.4,-0.429,7.0
23.499,2.08,-0.505,5.0
20.456,1.815,-0.559,6.0
18.877,1.678,-0.623,16.0
17.257,1.537,-0.668,1.0
31.412,2.808,-0.355,9.0
25.959,2.325,-0.441,6.0
22.706,2.037,-0.515,5.0
19.855,1.785,-0.566,5.0
18.556,1.672,-0.635,9.0
16.978,1.533,-0.678,1.0
29.84,2.703,-0.372,8.0
25.268,2.293,-0.459,6.0
22.003,2.0,-0.526,5.0
19.138,1.743,-0.568,9.0
17.848,1.628,-0.632,11.0
16.784,1.534,-0.69,1.0
28.508,2.615,-0.39,8.0
24.517,2.252,-0.475,5.0
21.331,1.963,-0.535,4.0
18.847,1.738,-0.582,12.0
17.766,1.641,-0.651,7.0
16.61,1.537,-0.704,1.0
27.274,2.531,-0.407,16.0
23.792,2.212,-0.49,5.0
0.0,0.0,0.0,0.0
18.348,1.711,-0.589,14.0
17.664,1.65,-0.669,5.0
16.41,1.536,-0.715,1.0
26.555,2.493,-0.428,7.0
22.958,2.158,-0.502,5.0
18.901,1.78,-0.521,15.0
18.016,1.699,-0.601,14.0
17.465,1.65,-0.683,2.0
16.187,1.532,-0.726,1.0
25.575,2.427,-0.445,6.0
22.185,2.108,-0.512,4.0
18.609,1.771,-0.536,17.0
17.835,1.7,-0.618,23.0
17.089,1.631,-0.69,0.0
15.956,1.526,-0.736,6.0
24.793,2.377,-0.463,6.0
21.664,2.08,-0.528,7.0
18.224,1.752,-0.548,16.0
17.722,1.706,-0.636,22.0
16.647,1.605,-0.693,1.0
15.927,1.538,-0.755,4.0
24.129,2.335,-0.481,5.0
21.22,2.057,-0.544,2.0
18.05,1.752,-0.566,16.0
17.487,1.7,-0.651,15.0
16.407,1.597,-0.704,1.0
15.585,1.519,-0.759,0.0
23.233,2.269,-0.493,5.0
18.489,1.808,-0.498,13.0
17.772,1.74,-0.58,16.0
17.312,1.698,-0.666,13.0
16.156,1.586,-0.714,2.0
15.233,1.498,-0.761,0.0
22.531,2.22,-0.507,5.0
18.014,1.777,-0.508,17.0
