X,Y,Z,Reflectivity
0.0,0.0,0.0,0.0
148.075,-9.017,2.877,17.0
148.255,-9.077,2.083,20.0
150.058,-9.238,1.299,14.0
0.0,0.0,0.0,0.0
0.0,0.0,0.0,0.0
0.0,0.0,0.0,0.0
125.321,-7.86,2.526,12.0
125.311,-7.9,1.851,23.0
125.228,-7.936,1.177,19.0
0.0,0.0,0.0,0.0
0.0,0.0,0.0,0.0
0.0,0.0,0.0,0.0
117.37,-7.571,2.454,53.0
117.48,-7.616,1.824,16.0
106.079,-6.912,1.077,15.0
99.7,-6.528,0.466,18.0
0.0,0.0,0.0,0.0
0.0,0.0,0.0,0.0
117.347,-7.779,2.546,33.0
0.0,0.0,0.0,0.0
0.0,0.0,0.0,0.0
0.0,0.0,0.0,0.0
0.0,0.0,0.0,0.0
0.0,0.0,0.0,0.0
148.19,-10.081,3.337,15.0
100.04,-6.837,1.715,8.0
100.104,-6.873,1.18,7.0
100.066,-6.902,0.632,9.0
0.0,0.0,0.0,0.0
0.0,0.0,0.0,0.0
109.259,-7.619,2.552,46.0
109.366,-7.661,1.968,9.0
100.076,-7.042,1.265,9.0
100.076,-7.073,0.718,9.0
0.0,0.0,0.0,0.0
0.0,0.0,0.0,0.0
109.229,-7.802,2.647,34.0
109.385,-7.847,2.065,23.0
100.132,-7.213,1.353,9.0
100.102,-7.242,0.806,13.0
98.89,-7.185,0.267,7.0
0.0,0.0,0.0,0.0
133.267,-9.739,3.349,2.0
125.878,-9.236,2.49,5.0
100.13,-7.377,1.444,11.0
100.076,-7.403,0.897,13.0
98.948,-7.35,0.358,9.0
0.0,0.0,0.0,0.0
0.0,0.0,0.0,0.0
123.089,-9.231,2.548,8.0
100.108,-7.536,1.537,11.0
100.096,-7.565,0.992,14.0
99.896,-7.581,0.456,13.0
0.0,0.0,0.0,0.0
127.469,-9.724,3.443,40.0
127.529,-9.766,2.763,27.0
100.072,-7.693,1.633,12.0
100.089,-7.724,1.089,18.0
100.053,-7.751,0.554,13.0
0.0,0.0,0.0,0.0
127.524,-9.929,3.57,22.0
127.525,-9.966,2.889,22.0
100.129,-7.853,1.733,13.0
100.091,-7.878,1.189,13.0
100.064,-7.906,0.654,14.0
0.0,0.0,0.0,0.0
115.559,-9.174,3.352,10.0
127.507,-10.157,3.017,35.0
100.116,-8.003,1.833,9.0
100.09,-8.028,1.29,11.0
100.069,-8.055,0.756,13.0
99.078,-8.004,0.219,1.0
148.484,-12.009,4.458,6.0
127.543,-10.348,3.149,31.0
90.416,-7.361,1.75,20.0
90.403,-7.384,1.258,9.0
90.431,-7.411,0.777,126.0
90.423,-7.436,0.294,43.0
148.144,-12.197,4.603,11.0
127.528,-10.533,3.282,26.0
90.402,-7.49,1.845,51.0
90.413,-7.516,1.355,52.0
90.417,-7.54,0.873,61.0
90.417,-7.564,0.391,26.0
114.305,-9.574,3.676,11.0
114.377,-9.609,3.068,13.0
90.384,-7.616,1.942,34.0
90.388,-7.639,1.452,60.0
90.406,-7.665,0.971,34.0
90.413,-7.69,0.49,33.0
114.207,-9.724,3.796,15.0
114.53,-9.778,3.197,10.0
90.394,-7.741,2.042,41.0
90.384,-7.763,1.552,38.0
90.411,-7.788,1.071,38.0
90.411,-7.811,0.59,35.0
109.448,-9.466,3.761,21.0
114.51,-9.931,3.324,10.0
90.372,-7.859,2.143,20.0
90.382,-7.882,1.653,32.0
90.407,-7.907,1.172,62.0
90.416,-7.931,0.692,35.0
108.37,-9.515,3.847,24.0
114.409,-10.071,3.452,9.0
90.406,-7.98,2.247,12.0
90.395,-8.001,1.757,43.0
90.388,-8.021,1.276,43.0
90.415,-8.046,0.796,34.0
108.09,-9.628,3.961,28.0
109.675,-9.793,3.436,12.0
127.516,-11.415,3.316,27.0
90.374,-8.111,1.861,33.0
90.42,-8.137,1.382,30.0
90.393,-8.155,0.902,35.0
108.119,-9.764,4.089,17.0
114.618,-10.375,3.724,8.0
127.506,-11.569,3.466,22.0
90.369,-8.22,1.967,34.0
90.379,-8.241,1.487,35.0
90.383,-8.263,1.008,33.0
108.868,-9.961,4.246,27.0
108.098,-9.913,3.641,23.0
107.999,-9.927,3.064,7.0
90.37,-8.327,2.075,34.0
90.369,-8.345,1.595,41.0
90.378,-8.366,1.116,33.0
108.335,-10.038,4.356,25.0
108.195,-10.046,3.775,11.0
108.062,-10.055,3.196,10.0
90.362,-8.427,2.183,15.0
90.359,-8.445,1.704,45.0
90.393,-8.467,1.225,31.0
108.848,-10.206,4.508,17.0
108.878,-10.229,3.931,16.0
114.465,-10.776,3.525,7.0
127.512,-12.03,3.237,27.0
90.377,-8.545,1.814,39.0
90.377,-8.562,1.335,27.0
110.503,-10.479,4.712,17.0
108.309,-10.291,4.044,22.0
147.897,-14.079,4.736,20.0
127.525,-12.164,3.394,17.0
90.378,-8.638,1.925,45.0
90.379,-8.655,1.447,30.0
109.713,-10.517,4.816,23.0
108.741,-10.443,4.195,22.0
108.943,-10.482,3.624,10.0
118.748,-11.447,3.309,7.0
90.362,-8.726,2.039,47.0
90.365,-8.743,1.559,37.0
108.751,-10.532,4.91,18.0
109.135,-10.587,4.347,18.0
108.793,-10.573,3.756,19.0
116.293,-11.322,3.386,25.0
90.34,-8.81,2.152,19.0
90.338,-8.826,1.673,23.0
108.184,-10.58,5.02,23.0
109.969,-10.771,4.52,22.0
108.438,-10.639,3.882,20.0
116.32,-11.431,3.534,14.0
116.371,-11.456,2.919,64.0
90.311,-8.905,1.787,19.0
108.1,-10.669,5.154,14.0
109.794,-10.852,4.651,18.0
108.666,-10.757,4.027,20.0
148.162,-14.69,4.691,22.0
116.387,-11.556,3.068,45.0
89.204,-8.871,1.878,11.0
108.127,-10.765,5.294,23.0
108.907,-10.857,4.755,15.0
111.672,-11.148,4.282,8.0
108.083,-10.805,3.56,20.0
116.353,-11.649,3.215,40.0
89.019,-8.925,1.989,21.0
111.472,-11.188,5.602,5.0
110.394,-11.095,4.961,15.0
111.273,-11.197,4.41,23.0
108.797,-10.962,3.723,24.0
116.338,-11.738,3.365,33.0
116.395,-11.76,2.751,7.0
108.89,-11.013,5.613,25.0
109.422,-11.08,5.06,18.0
111.168,-11.271,4.549,20.0
108.86,-11.05,3.867,17.0
116.31,-11.821,3.515,12.0
116.35,-11.84,2.9,27.0
108.546,-11.057,5.738,25.0
108.935,-11.109,5.18,24.0
110.683,-11.3,4.675,8.0
149.511,-15.282,5.507,12.0
148.364,-15.181,4.678,17.0
116.352,-11.92,3.053,43.0
108.3,-11.107,5.866,18.0
109.084,-11.198,5.328,20.0
0.0,0.0,0.0,0.0
149.366,-15.364,5.695,29.0
108.901,-11.213,3.576,19.0
116.352,-11.994,3.203,42.0
107.81,-11.125,5.98,19.0
110.634,-11.426,5.548,14.0
109.323,-11.301,4.902,21.0
149.248,-15.442,5.885,22.0
108.837,-11.272,3.715,21.0
116.325,-12.059,3.354,30.0
106.981,-11.104,6.074,14.0
107.934,-11.211,5.555,14.0
110.578,-11.495,5.103,8.0
171.653,-17.859,6.994,8.0
108.794,-11.329,3.856,19.0
116.325,-12.124,3.507,11.0
108.044,-11.274,6.28,19.0
107.901,-11.266,5.697,22.0
113.769,-11.888,5.401,8.0
109.888,-11.491,4.623,18.0
148.93,-15.585,5.477,19.0
148.329,-15.534,4.666,25.0
107.988,-11.322,6.418,17.0
108.692,-11.403,5.881,22.0
113.907,-11.957,5.558,9.0
110.248,-11.581,4.783,24.0
148.946,-15.656,5.673,27.0
108.852,-11.449,3.567,16.0
107.628,-11.335,6.537,17.0
49.459,-5.211,2.741,15.0
107.944,-11.379,5.409,12.0
110.609,-11.666,4.943,21.0
148.988,-15.724,5.868,24.0
108.809,-11.489,3.709,32.0
48.532,-5.131,3.012,8.0
49.403,-5.225,2.803,23.0
107.95,-11.422,5.55,19.0
110.683,-11.717,5.091,20.0
111.527,-11.812,4.538,17.0
148.284,-15.712,5.247,16.0
48.519,-5.148,3.074,36.0
49.361,-5.239,2.865,20.0
108.059,-11.472,5.697,13.0
110.594,-11.745,5.231,13.0
111.131,-11.807,4.666,22.0
148.484,-15.781,5.447,24.0
48.55,-5.167,3.14,30.0
49.38,-5.256,2.931,7.0
109.138,-11.619,5.897,14.0
107.846,-11.485,5.241,19.0
110.944,-11.818,4.802,20.0
148.466,-15.821,5.639,25.0
48.595,-5.185,3.206,16.0
107.459,-11.467,6.518,21.0
49.503,-5.283,2.738,15.0
107.913,-11.519,5.384,19.0
110.8,-11.83,4.938,21.0
111.716,-11.931,4.386,9.0
48.601,-5.197,3.27,15.0
48.547,-5.191,3.007,4.0
49.455,-5.289,2.799,19.0
107.874,-11.538,5.522,26.0
110.576,-11.827,5.071,18.0
111.407,-11.918,4.516,21.0
49.215,-5.272,3.374,18.0
48.556,-5.201,3.07,20.0
49.384,-5.29,2.859,16.0
107.873,-11.555,5.66,16.0
107.831,-11.55,5.083,16.0
111.05,-11.896,4.643,19.0
49.242,-5.282,3.439,33.0
48.574,-5.209,3.133,25.0
49.352,-5.292,2.92,6.0
109.185,-11.708,5.867,18.0
107.95,-11.575,5.227,19.0
111.088,-11.91,4.787,17.0
49.196,-5.282,3.5,39.0
48.547,-5.211,3.194,21.0
107.547,-11.542,6.502,18.0
49.474,-5.308,2.722,3.0
107.961,-11.583,5.364,19.0
110.857,-11.891,4.918,18.0
49.214,-5.287,3.563,41.0
48.614,-5.221,3.26,21.0
48.604,-5.218,2.999,4.0
49.424,-5.304,2.781,17.0
107.865,-11.574,5.493,23.0
110.628,-11.868,5.044,20.0
49.3,-5.297,3.631,24.0
49.11,-5.274,3.354,23.0
48.586,-5.215,3.058,21.0
49.39,-5.3,2.839,18.0
107.938,-11.578,5.63,18.0
107.789,-11.559,5.047,14.0
49.057,-5.269,3.674,15.0
49.259,-5.288,3.425,29.0
48.569,-5.211,3.117,25.0
49.357,-5.293,2.898,11.0
109.091,-11.695,5.822,15.0
107.868,-11.559,5.181,18.0
48.777,-5.235,3.712,18.0
49.218,-5.279,3.482,37.0
48.576,-5.207,3.176,20.0
107.562,-11.525,6.447,21.0
49.504,-5.301,2.703,4.0
107.937,-11.553,5.315,20.0
48.662,-5.217,3.763,24.0
49.201,-5.271,3.541,39.0
48.568,-5.199,3.235,17.0
107.36,-11.487,6.563,19.0
49.472,-5.29,2.759,17.0
107.943,-11.536,5.443,23.0
48.553,-5.197,3.813,35.0
49.271,-5.269,3.604,23.0
48.845,-5.22,3.311,20.0
48.512,-5.181,3.023,17.0
49.425,-5.274,2.815,21.0
107.981,-11.516,5.572,19.0
48.558,-5.187,3.87,28.0
49.181,-5.249,3.655,8.0
49.224,-5.249,3.394,22.0
48.509,-5.169,3.079,34.0
49.374,-5.257,2.869,16.0
108.109,-11.503,5.703,14.0
48.585,-5.178,3.93,10.0
48.834,-5.199,3.687,7.0
49.24,-5.238,3.452,38.0
48.517,-5.156,3.135,33.0
107.787,-11.445,6.388,17.0
109.056,-11.571,5.877,17.0
107.004,-11.373,8.776,17.0
48.757,-5.176,3.736,19.0
49.265,-5.225,3.509,29.0
48.541,-5.143,3.192,22.0
107.606,-11.391,6.496,18.0
49.439,-5.229,2.719,11.0
40.55,-4.295,3.371,12.0
48.607,-5.144,3.779,22.0
49.24,-5.205,3.562,16.0
48.591,-5.13,3.249,19.0
48.554,-5.121,2.985,3.0
49.431,-5.209,2.773,25.0
40.346,-4.259,3.399,35.0
48.613,-5.125,3.832,21.0
48.927,-5.153,3.592,4.0
48.922,-5.146,3.323,5.0
48.567,-5.103,3.038,19.0
49.435,-5.188,2.826,12.0
40.326,-4.24,3.44,40.0
48.65,-5.109,3.887,17.0
48.896,-5.128,3.642,12.0
49.501,-5.185,3.416,23.0
48.565,-5.081,3.089,32.0
108.025,-11.289,6.289,21.0
40.303,-4.219,3.482,43.0
40.42,-4.225,3.272,3.0
48.835,-5.098,3.689,21.0
49.334,-5.143,3.455,30.0
48.611,-5.061,3.142,17.0
108.049,-11.236,6.403,19.0
40.39,-4.207,3.531,42.0
45.716,-4.755,3.749,6.0
48.779,-5.067,3.735,22.0
49.348,-5.119,3.506,29.0
48.57,-5.031,3.188,6.0
107.565,-11.128,6.481,19.0
40.53,-4.2,3.584,16.0
45.722,-4.731,3.794,5.0
48.435,-5.004,3.757,22.0
49.365,-5.092,3.557,27.0
107.23,-11.046,7.146,13.0
48.661,-5.006,2.979,4.0
45.933,-4.733,4.107,12.0
40.314,-4.147,3.385,40.0
48.04,-4.934,3.773,13.0
49.398,-5.066,3.607,15.0
49.595,-5.078,3.352,3.0
107.571,-10.999,6.69,16.0
47.815,-4.897,4.321,7.0
40.32,-4.123,3.424,38.0
48.012,-4.901,3.816,12.0
49.496,-5.044,3.66,12.0
49.485,-5.035,3.39,34.0
107.729,-10.945,6.798,9.0
0.0,0.0,0.0,0.0
40.406,-4.104,3.469,37.0
45.731,-4.638,3.677,11.0
48.117,-4.871,3.602,11.0
49.505,-5.003,3.436,23.0
108.14,-10.912,6.921,15.0
47.803,-4.832,4.407,37.0
40.416,-4.078,3.505,27.0
45.68,-4.6,3.713,40.0
48.078,-4.833,3.641,32.0
49.513,-4.968,3.48,34.0
108.176,-10.837,7.016,18.0
47.832,-4.8,4.451,31.0
45.926,-4.6,4.022,10.0
45.706,-4.569,3.754,9.0
48.105,-4.799,3.684,21.0
49.666,-4.946,3.533,23.0
107.779,-10.715,7.081,16.0
47.897,-4.77,4.498,9.0
45.906,-4.562,4.06,33.0
40.491,-4.016,3.359,14.0
48.11,-4.762,3.724,9.0
49.74,-4.914,3.578,30.0
108.082,-10.658,7.188,20.0
45.65,-4.509,4.324,8.0
45.967,-4.531,4.102,20.0
47.679,-4.689,3.994,9.0
106.927,-10.495,8.362,17.0
49.767,-4.875,3.62,30.0
0.0,0.0,0.0,0.0
39.347,-3.853,3.758,39.0
45.999,-4.495,4.141,23.0
47.735,-4.655,4.035,6.0
106.91,-10.402,8.442,11.0
49.829,-4.838,3.662,4.0
106.781,-10.347,7.264,11.0
39.266,-3.811,3.78,37.0
45.95,-4.45,4.17,17.0
47.89,-4.627,4.084,18.0
107.933,-10.405,8.601,15.0
107.405,-10.332,7.971,21.0
107.501,-10.319,7.391,18.0
39.253,-3.774,3.806,40.0
0.0,0.0,0.0,0.0
48.119,-4.605,4.137,22.0
107.931,-10.306,8.676,17.0
106.192,-10.117,7.954,12.0
107.078,-10.179,7.434,15.0
39.233,-3.735,3.831,39.0
47.646,-4.525,4.391,19.0
48.327,-4.578,4.187,22.0
108.142,-10.221,8.766,12.0
106.194,-10.013,8.025,17.0
107.172,-10.082,7.511,13.0
39.258,-3.699,3.86,32.0
47.552,-4.469,4.413,10.0
48.32,-4.53,4.217,19.0
48.284,-4.515,3.944,14.0
108.642,-10.137,8.276,8.0
106.884,-9.948,7.556,9.0
39.283,-3.662,3.886,21.0
45.57,-4.237,4.256,5.0
48.407,-4.489,4.254,22.0
48.457,-4.483,3.986,4.0
108.319,-9.995,8.315,18.0
106.324,-9.787,7.578,19.0
39.316,-3.624,3.912,17.0
45.616,-4.194,4.287,9.0
47.665,-4.37,4.216,40.0
48.461,-4.432,4.013,8.0
108.612,-9.907,8.397,19.0
106.279,-9.671,7.631,16.0
39.26,-3.578,3.927,13.0
45.587,-4.142,4.308,13.0
47.552,-4.309,4.231,38.0
48.411,-4.375,4.034,15.0
108.599,-9.79,8.45,16.0
106.367,-9.562,7.691,16.0
39.262,-3.534,3.948,18.0
45.511,-4.085,4.324,12.0
47.509,-4.253,4.25,28.0
48.401,-4.321,4.057,8.0
111.632,-9.94,8.739,15.0
106.401,-9.447,7.743,4.0
48.806,-4.339,4.93,18.0
39.236,-3.478,3.745,30.0
47.495,-4.198,4.27,38.0
106.385,-9.376,8.965,11.0
111.308,-9.784,8.763,18.0
109.649,-9.611,8.026,19.0
39.195,-3.44,3.976,28.0
45.553,-3.985,4.367,8.0
47.515,-4.145,4.291,41.0
106.358,-9.251,9.005,13.0
109.802,-9.523,8.687,19.0
123.504,-10.682,9.087,7.0
48.928,-4.236,4.983,10.0
48.95,-4.225,4.712,17.0
47.491,-4.087,4.306,38.0
106.403,-9.129,9.048,23.0
106.745,-9.132,8.484,11.0
112.135,-9.564,8.29,6.0
48.936,-4.178,5.0,21.0
48.913,-4.163,4.725,15.0
47.574,-4.036,4.33,29.0
106.699,-9.026,9.106,21.0
106.833,-9.009,8.525,19.0
111.525,-9.378,8.28,7.0
48.9,-4.116,5.011,36.0
48.922,-4.104,4.74,6.0
47.585,-3.98,4.344,25.0
106.651,-8.892,9.133,26.0
106.876,-8.883,8.557,20.0
108.195,-8.966,8.061,21.0
49.092,-4.072,5.044,27.0
49.031,-4.053,4.763,8.0
47.617,-3.923,4.359,15.0
106.68,-8.762,9.16,22.0
106.79,-8.742,8.576,12.0
107.927,-8.807,8.066,23.0
49.255,-4.023,5.072,15.0
106.493,-8.668,10.369,13.0
49.514,-4.017,4.543,12.0
106.469,-8.607,9.165,20.0
106.923,-8.616,8.607,15.0
107.442,-8.631,8.049,16.0
49.351,-3.967,5.091,15.0
49.537,-3.968,4.832,3.0
49.492,-3.951,4.55,5.0
106.819,-8.498,9.212,18.0
106.902,-8.475,8.622,11.0
106.856,-8.443,8.022,17.0
49.371,-3.903,5.1,6.0
105.944,-8.348,10.348,20.0
106.61,-8.37,9.815,13.0
106.963,-8.368,9.237,17.0
107.407,-8.374,8.674,21.0
106.256,-8.257,7.987,9.0
106.715,-8.298,11.035,20.0
106.034,-8.215,10.367,15.0
106.997,-8.26,9.859,12.0
107.093,-8.237,9.257,14.0
109.688,-8.407,8.866,2.0
111.516,-8.517,8.39,4.0
106.006,-8.1,10.967,19.0
106.509,-8.107,10.418,17.0
107.045,-8.118,9.868,17.0
107.675,-8.135,9.311,17.0
104.627,-7.876,8.46,12.0
107.225,-8.042,8.069,6.0
106.066,-7.959,10.974,21.0
49.64,-3.71,4.856,12.0
107.066,-7.973,9.87,17.0
107.269,-7.959,9.274,16.0
104.514,-7.726,8.449,20.0
104.7,-7.711,7.877,27.0
107.08,-7.889,11.076,18.0
106.785,-7.836,10.442,23.0
109.467,-8.001,10.087,16.0
107.021,-7.792,9.247,20.0
104.461,-7.578,8.438,15.0
104.867,-7.579,7.882,13.0
106.515,-7.699,11.01,20.0
106.87,-7.693,10.442,14.0
109.396,-7.844,10.07,11.0
106.892,-7.635,9.226,23.0
107.026,-7.616,8.635,20.0
107.184,-7.597,8.044,15.0
106.552,-7.553,11.002,19.0
106.689,-7.532,10.411,15.0
108.257,-7.611,9.951,10.0
107.105,-7.5,9.229,18.0
106.776,-7.447,8.598,22.0
105.025,-7.297,7.867,32.0
106.63,-7.408,10.992,17.0
107.87,-7.463,10.508,10.0
108.168,-7.453,9.924,11.0
107.681,-7.389,9.259,22.0
107.004,-7.312,8.597,18.0
104.99,-7.146,7.843,21.0
106.805,-7.267,10.988,21.0
107.745,-7.3,10.473,14.0
106.32,-7.174,9.731,13.0
107.646,-7.232,9.232,22.0
107.214,-7.175,8.589,20.0
108.89,-7.258,8.108,8.0
106.852,-7.119,10.967,8.0
107.868,-7.155,10.457,13.0
106.456,-7.031,9.716,20.0
106.425,-7.0,9.099,21.0
107.424,-7.035,8.576,22.0
110.213,-7.189,8.175,6.0
107.729,-7.022,11.026,16.0
107.75,-6.993,10.414,20.0
106.482,-6.88,9.685,19.0
106.903,-6.878,9.107,20.0
107.725,-6.9,8.566,24.0
108.862,-6.943,8.04,15.0
107.739,-6.867,10.989,28.0
107.616,-6.829,10.364,22.0
111.59,-7.049,10.111,14.0
107.17,-6.739,9.09,17.0
107.759,-6.747,8.53,26.0
109.133,-6.803,8.02,19.0
107.835,-6.716,10.958,8.0
109.313,-6.777,10.484,12.0
109.124,-6.734,9.845,13.0
108.417,-6.661,9.153,22.0
107.929,-6.601,8.498,23.0
109.3,-6.656,7.987,11.0
107.94,-6.565,10.923,18.0
109.319,-6.619,10.438,17.0
109.198,-6.58,9.803,17.0
0.0,0.0,0.0,0.0
108.723,-6.492,8.512,15.0
108.916,-6.473,7.908,18.0
0.0,0.0,0.0,0.0
109.038,-6.441,10.359,15.0
107.381,-6.314,9.588,20.0
108.718,-6.362,9.077,29.0
108.726,-6.334,8.459,22.0
0.0,0.0,0.0,0.0
0.0,0.0,0.0,0.0
108.897,-6.274,10.289,24.0
108.731,-6.233,9.652,21.0
108.599,-6.197,9.009,26.0
109.099,-6.195,8.428,19.0
110.727,-6.257,7.925,18.0
109.315,-6.167,10.893,9.0
109.21,-6.13,10.256,28.0
108.732,-6.072,9.589,19.0
108.474,-6.029,8.935,25.0
111.413,-6.162,8.542,16.0
110.941,-6.106,7.874,16.0
109.31,-6.006,10.826,22.0
109.138,-5.966,10.183,19.0
108.507,-5.902,9.503,24.0
108.587,-5.877,8.877,16.0
109.363,-5.889,8.317,10.0
113.007,-6.054,7.949,18.0
109.443,-5.852,10.769,13.0
109.082,-5.802,10.106,21.0
108.613,-5.747,9.44,13.0
108.872,-5.732,8.828,16.0
109.467,-5.735,8.25,28.0
112.92,-5.886,7.867,12.0
109.318,-5.685,10.681,6.0
112.243,-5.806,10.321,25.0
111.698,-5.748,9.631,24.0
111.889,-5.727,8.994,20.0
109.5,-5.577,8.175,19.0
108.313,-5.488,7.467,17.0
125.955,-6.365,12.215,7.0
111.889,-5.624,10.206,20.0
111.746,-5.587,9.551,21.0
113.842,-5.661,9.066,18.0
112.445,-5.562,8.31,15.0
115.125,-5.664,7.849,23.0
0.0,0.0,0.0,0.0
111.95,-5.463,10.124,14.0
116.469,-5.653,9.863,19.0
115.992,-5.6,9.144,23.0
115.11,-5.527,8.416,12.0
114.841,-5.484,7.738,22.0
126.491,-6.022,12.063,11.0
116.616,-5.522,10.45,16.0
116.728,-5.496,9.788,24.0
115.417,-5.404,9.003,24.0
115.117,-5.36,8.318,19.0
116.042,-5.374,7.721,22.0
0.0,0.0,0.0,0.0
116.733,-5.356,10.358,11.0
116.879,-5.332,9.697,24.0
115.017,-5.218,8.871,27.0
114.789,-5.178,8.193,26.0
116.329,-5.218,7.636,23.0
113.464,-5.07,10.619,7.0
124.082,-5.513,10.897,7.0
116.073,-5.128,9.524,20.0
114.796,-5.042,8.747,26.0
114.91,-5.018,8.096,24.0
114.703,-4.981,7.422,11.0
0.0,0.0,0.0,0.0
124.452,-5.35,10.81,11.0
115.485,-4.935,9.366,24.0
115.434,-4.904,8.684,24.0
114.829,-4.85,7.978,13.0
114.594,-4.813,7.304,27.0
113.574,-4.749,10.41,4.0
124.107,-5.159,10.657,28.0
115.057,-4.754,9.217,26.0
115.351,-4.738,8.563,24.0
115.785,-4.728,7.928,21.0
114.872,-4.663,7.207,23.0
113.505,-4.586,10.287,4.0
124.315,-4.992,10.547,22.0
115.422,-4.605,9.125,20.0
115.328,-4.574,8.441,25.0
115.839,-4.566,7.811,24.0
114.922,-4.503,7.087,19.0
113.669,-4.431,10.18,1.0
115.284,-4.467,9.657,21.0
115.631,-4.452,9.017,23.0
115.527,-4.42,8.331,11.0
115.862,-4.405,7.686,23.0
114.692,-4.333,6.948,24.0
124.68,-4.686,11.028,5.0
115.435,-4.312,9.541,23.0
115.106,-4.271,8.847,24.0
123.276,-4.545,8.75,23.0
116.639,-4.273,7.605,25.0
114.686,-4.175,6.818,22.0
126.415,-4.575,11.034,9.0
116.24,-4.18,9.472,24.0
115.199,-4.115,8.719,25.0
124.115,-4.404,8.665,13.0
117.732,-4.151,7.539,13.0
114.446,-4.009,6.67,24.0
126.249,-4.396,10.87,15.0
116.146,-4.018,9.326,26.0
116.066,-3.988,8.648,26.0
125.978,-4.3,8.644,8.0
116.214,-3.941,7.302,18.0
0.0,0.0,0.0,0.0
116.372,-3.895,9.877,27.0
125.911,-4.185,9.955,23.0
124.965,-4.125,9.155,20.0
117.766,-3.861,7.935,19.0
114.76,-3.736,7.068,20.0
115.787,-3.745,6.463,13.0
126.342,-4.059,10.563,21.0
126.146,-4.024,9.813,25.0
140.209,-4.441,10.093,19.0
117.907,-3.709,7.794,24.0
115.615,-3.611,6.973,27.0
114.737,-3.559,6.257,22.0
140.592,-4.33,11.569,11.0
126.031,-3.854,9.64,22.0
140.44,-4.264,9.927,15.0
125.213,-3.774,8.111,13.0
115.781,-3.465,6.831,25.0
122.459,-3.639,6.516,7.0
140.462,-4.143,11.372,7.0
140.358,-4.109,10.547,13.0
141.28,-4.106,9.796,16.0
124.876,-3.602,7.92,21.0
115.859,-3.317,6.678,26.0
140.949,-4.007,7.309,11.0
126.324,-3.562,10.052,13.0
0.0,0.0,0.0,0.0
124.971,-3.472,8.492,22.0
115.897,-3.195,7.19,24.0
115.759,-3.167,6.51,15.0
117.592,-3.193,5.933,12.0
0.0,0.0,0.0,0.0
0.0,0.0,0.0,0.0
125.153,-3.317,8.326,21.0
122.729,-3.229,7.44,8.0
124.595,-3.252,6.829,23.0
117.261,-3.038,5.749,15.0
0.0,0.0,0.0,0.0
0.0,0.0,0.0,0.0
125.393,-3.169,8.16,23.0
124.201,-3.115,7.349,26.0
124.399,-3.094,6.638,16.0
140.827,-3.475,6.699,11.0
0.0,0.0,0.0,0.0
0.0,0.0,0.0,0.0
124.629,-2.997,7.924,3.0
124.208,-2.962,7.163,16.0
141.655,-3.352,7.347,13.0
140.695,-3.302,6.48,8.0
0.0,0.0,0.0,0.0
0.0,0.0,0.0,0.0
124.652,-2.847,7.735,15.0
141.586,-3.206,7.947,13.0
0.0,0.0,0.0,0.0
191.7,-4.269,8.535,16.0
0.0,0.0,0.0,0.0
0.0,0.0,0.0,0.0
125.004,-2.707,7.561,14.0
0.0,0.0,0.0,0.0
192.526,-4.098,9.386,14.0
190.402,-4.017,8.176,21.0
0.0,0.0,0.0,0.0
0.0,0.0,0.0,0.0
0.0,0.0,0.0,0.0
0.0,0.0,0.0,0.0
192.758,-3.879,9.087,15.0
190.316,-3.795,7.865,23.0
0.0,0.0,0.0,0.0
0.0,0.0,0.0,0.0
0.0,0.0,0.0,0.0
0.0,0.0,0.0,0.0
191.827,-3.645,8.73,20.0
0.0,0.0,0.0,0.0
0.0,0.0,0.0,0.0
0.0,0.0,0.0,0.0
0.0,0.0,0.0,0.0
0.0,0.0,0.0,0.0
192.423,-3.446,8.438,6.0
190.106,-3.371,7.23,19.0
0.0,0.0,0.0,0.0
189.951,-3.293,11.349,19.0
189.961,-3.262,10.241,15.0
189.96,-3.229,9.116,5.0
192.66,-3.244,8.124,10.0
191.506,-3.192,6.96,16.0
190.052,-3.124,12.14,15.0
0.0,0.0,0.0,0.0
0.0,0.0,0.0,0.0
193.52,-3.087,8.953,5.0
191.712,-3.028,7.756,11.0
192.09,-3.002,6.652,7.0
0.0,0.0,0.0,0.0
0.0,0.0,0.0,0.0
0.0,0.0,0.0,0.0
193.24,-2.886,8.608,20.0
191.867,-2.833,7.426,22.0
162.585,-2.376,5.346,56.0
0.0,0.0,0.0,0.0
0.0,0.0,0.0,0.0
0.0,0.0,0.0,0.0
193.216,-2.692,8.262,9.0
191.883,-2.645,7.089,13.0
162.608,-2.217,5.059,43.0
12.608,-1.164,-0.878,0.0
11.858,-1.096,-0.889,0.0
11.27,-1.043,-0.906,0.0
10.621,-0.985,-0.912,0.0
10.112,-0.939,-0.923,0.0
9.616,-0.894,-0.929,0.0
12.819,-1.189,-0.878,0.0
12.059,-1.12,-0.89,0.0
11.364,-1.056,-0.9,0.0
10.757,-1.001,-0.911,0.0
10.273,-0.957,-0.925,0.0
9.675,-0.903,-0.924,0.0
13.02,-1.212,-0.876,0.0
12.159,-1.133,-0.883,0.0
11.586,-1.081,-0.904,0.0
10.825,-1.011,-0.904,0.0
10.33,-0.966,-0.918,0.0
9.856,-0.922,-0.929,0.0
13.214,-1.234,-0.874,0.0
12.285,-1.149,-0.878,0.0
11.689,-1.094,-0.898,0.0
11.057,-1.036,-0.91,0.0
10.461,-0.981,-0.917,0.0
9.951,-0.934,-0.926,0.0
13.444,-1.259,-0.873,0.0
12.532,-1.175,-0.88,0.0
11.794,-1.106,-0.892,0.0
11.183,-1.05,-0.907,0.0
10.616,-0.998,-0.918,0.0
10.035,-0.944,-0.921,0.0
13.669,-1.283,-0.87,0.0
12.666,-1.19,-0.874,0.0
11.959,-1.124,-0.889,0.0
11.233,-1.057,-0.897,0.0
10.764,-1.014,-0.917,0.0
10.167,-0.958,-0.921,0.0
13.951,-1.312,-0.871,0.0
13.011,-1.225,-0.882,0.0
12.129,-1.142,-0.887,0.0
11.446,-1.079,-0.9,0.0
10.835,-1.022,-0.909,0.0
10.309,-0.973,-0.921,0.0
14.2,-1.338,-0.869,0.0
13.18,-1.242,-0.877,0.0
12.296,-1.16,-0.884,0.0
11.633,-1.098,-0.899,0.0
10.994,-1.038,-0.909,0.0
10.454,-0.988,-0.92,0.0
14.425,-1.36,-0.864,0.0
13.354,-1.26,-0.871,0.0
12.422,-1.173,-0.876,0.0
11.812,-1.115,-0.898,0.0
11.166,-1.055,-0.908,0.0
10.605,-1.003,-0.919,0.0
14.707,-1.388,-0.862,0.0
13.617,-1.285,-0.871,0.0
12.639,-1.193,-0.875,0.0
11.981,-1.132,-0.895,0.0
11.289,-1.067,-0.903,0.0
10.758,-1.017,-0.918,0.0
14.946,-1.411,-0.856,0.0
13.966,-1.318,-0.874,0.0
12.924,-1.22,-0.878,0.0
12.111,-1.144,-0.888,0.0
11.455,-1.082,-0.901,0.0
10.821,-1.023,-0.909,0.0
15.35,-1.448,-0.859,0.0
14.217,-1.341,-0.871,0.0
13.22,-1.248,-0.88,0.0
12.298,-1.161,-0.886,0.0
11.618,-1.097,-0.898,0.0
11.016,-1.04,-0.911,0.0
15.569,-1.468,-0.85,0.0
14.456,-1.363,-0.866,0.0
13.364,-1.26,-0.872,0.0
12.466,-1.175,-0.881,0.0
11.79,-1.112,-0.896,0.0
11.196,-1.056,-0.91,0.0
15.923,-1.499,-0.848,0.0
14.76,-1.389,-0.865,0.0
13.686,-1.288,-0.874,0.0
12.652,-1.191,-0.877,0.0
12.024,-1.132,-0.897,0.0
11.274,-1.061,-0.901,0.0
16.191,-1.522,-0.84,0.0
15.035,-1.413,-0.86,0.0
14.013,-1.317,-0.876,0.0
12.98,-1.219,-0.881,0.0
12.15,-1.141,-0.89,0.0
11.495,-1.08,-0.903,0.0
16.611,-1.558,-0.839,0.0
15.366,-1.441,-0.858,0.0
14.262,-1.337,-0.872,0.0
13.179,-1.235,-0.877,0.0
12.251,-1.148,-0.88,0.0
11.696,-1.096,-0.902,0.0
19.632,-0.012,0.27,14.0
19.734,-0.005,0.163,4.0
19.773,0.001,0.055,4.0
19.745,0.008,-0.055,151.0
19.761,0.015,-0.163,5.0
19.75,0.022,-0.272,9.0
19.632,0.029,0.271,13.0
19.736,0.036,0.164,13.0
19.749,0.044,0.055,27.0
19.748,0.051,-0.054,36.0
19.777,0.057,-0.163,66.0
19.768,0.065,-0.272,37.0
19.618,0.072,0.271,16.0
19.674,0.079,0.164,13.0
19.674,0.086,0.055,12.0
19.689,0.093,-0.054,5.0
19.632,0.1,-0.162,0.0
0.0,0.0,0.0,0.0
19.624,0.114,0.271,12.0
19.659,0.121,0.163,16.0
19.637,0.128,0.054,14.0
19.644,0.135,-0.055,13.0
19.655,0.142,-0.163,12.0
19.683,0.149,-0.272,4.0
19.651,0.157,0.27,10.0
19.662,0.164,0.162,12.0
19.652,0.171,0.053,13.0
19.647,0.178,-0.056,12.0
19.639,0.185,-0.165,16.0
19.646,0.191,-0.273,17.0
19.745,0.2,0.269,9.0
19.762,0.207,0.16,19.0
19.683,0.213,0.051,6.0
19.653,0.22,-0.059,9.0
19.639,0.226,-0.167,17.0
19.659,0.233,-0.276,19.0
19.73,0.242,0.266,13.0
19.77,0.249,0.158,23.0
85.043,1.105,0.209,1.0
19.682,0.262,-0.062,6.0
19.67,0.269,-0.17,12.0
19.667,0.275,-0.279,15.0
19.748,0.284,0.263,5.0
160.688,2.373,1.255,9.0
0.0,0.0,0.0,0.0
52.495,0.811,-0.176,1.0
0.0,0.0,0.0,0.0
35.236,0.569,-0.508,0.0
55.179,0.914,0.724,51.0
55.163,0.933,0.419,96.0
55.161,0.951,0.113,79.0
52.342,0.92,-0.187,1.0
39.275,0.704,-0.358,0.0
31.437,0.574,-0.461,1.0
55.184,1.03,0.711,16.0
113.746,2.163,0.835,11.0
55.287,1.069,0.099,1.0
47.894,0.943,-0.184,1.0
0.0,0.0,0.0,0.0
31.048,0.632,-0.463,0.0
128.706,2.676,1.622,22.0
113.356,2.396,0.799,17.0
0.0,0.0,0.0,0.0
44.066,0.961,-0.182,1.0
36.771,0.814,-0.356,2.0
30.148,0.677,-0.46,2.0
71.063,1.627,0.873,8.0
70.813,1.645,0.476,10.0
0.0,0.0,0.0,0.0
43.667,1.043,-0.196,58.0
36.69,0.889,-0.368,3.0
29.986,0.736,-0.468,1.0
70.879,1.773,0.845,20.0
45.519,1.153,0.289,6.0
41.928,1.075,0.033,160.0
40.097,1.041,-0.194,95.0
36.557,0.962,-0.381,2.0
29.514,0.786,-0.472,1.0
41.935,1.135,0.483,152.0
0.0,0.0,0.0,0.0
40.137,1.113,0.015,154.0
40.024,1.123,-0.211,51.0
36.572,1.038,-0.396,0.0
27.52,0.79,-0.451,2.0
40.135,1.17,0.445,128.0
40.138,1.183,0.221,115.0
40.116,1.195,-0.001,150.0
40.042,1.206,-0.229,43.0
40.204,1.224,-0.454,1.0
28.633,0.881,-0.483,3.0
40.129,1.252,0.426,132.0
40.125,1.265,0.203,146.0
40.129,1.278,-0.02,150.0
40.042,1.288,-0.248,45.0
40.146,1.304,-0.473,2.0
28.528,0.935,-0.495,2.0
70.983,2.36,0.719,6.0
64.002,2.147,0.291,11.0
40.127,1.359,-0.041,150.0
40.021,1.368,-0.268,26.0
40.202,1.387,-0.494,2.0
27.685,0.964,-0.495,3.0
71.186,2.512,0.683,21.0
44.967,1.601,0.18,17.0
40.116,1.441,-0.063,4.0
39.78,1.441,-0.289,3.0
32.185,1.175,-0.414,0.0
27.445,1.011,-0.506,5.0
43.226,1.612,0.39,150.0
0.0,0.0,0.0,0.0
40.35,1.529,-0.087,58.0
39.845,1.523,-0.313,3.0
0.0,0.0,0.0,0.0
27.008,1.049,-0.515,7.0
40.393,1.587,0.34,150.0
40.354,1.598,0.113,118.0
40.342,1.609,-0.112,150.0
39.526,1.589,-0.335,0.0
30.275,1.226,-0.426,1.0
26.688,1.089,-0.525,1.0
23.609,0.974,0.183,0.0
45.183,1.878,0.098,17.0
40.31,1.687,-0.138,4.0
23.651,0.997,-0.216,36.0
23.646,1.004,-0.348,46.0
23.646,1.011,-0.481,41.0
23.627,1.021,0.168,47.0
23.62,1.027,0.035,44.0
23.598,1.033,-0.096,51.0
23.605,1.041,-0.231,64.0
23.61,1.048,-0.364,65.0
23.619,1.056,-0.497,70.0
23.605,1.066,0.151,74.0
23.608,1.073,0.018,66.0
23.594,1.079,-0.114,62.0
23.607,1.086,-0.249,58.0
23.615,1.094,-0.381,54.0
23.632,1.101,-0.515,38.0
23.618,1.111,0.133,40.0
23.631,1.119,0.001,39.0
23.651,1.127,-0.131,37.0
23.64,1.133,-0.267,33.0
23.634,1.14,-0.4,15.0
23.7,1.15,-0.534,34.0
57.966,2.839,0.284,8.0
45.203,2.226,-0.032,9.0
40.24,1.993,-0.255,20.0
32.4,1.614,-0.391,4.0
27.138,1.359,-0.48,1.0
23.519,1.185,-0.549,23.0
45.19,2.297,0.185,29.0
40.326,2.061,-0.061,35.0
39.971,2.053,-0.286,12.0
31.534,1.629,-0.406,9.0
26.54,1.378,-0.491,1.0
22.844,1.192,-0.552,0.0
45.185,2.379,0.148,43.0
40.332,2.135,-0.095,43.0
36.09,1.92,-0.288,2.0
30.539,1.633,-0.419,6.0
25.934,1.393,-0.502,3.0
22.082,1.193,-0.552,0.0
45.184,2.461,0.109,46.0
40.322,2.207,-0.129,41.0
35.736,1.965,-0.316,5.0
29.578,1.634,-0.432,4.0
25.192,1.399,-0.51,1.0
19.743,1.102,-0.511,11.0
45.175,2.541,0.068,48.0
40.331,2.279,-0.166,43.0
34.841,1.978,-0.34,7.0
28.811,1.643,-0.446,7.0
24.581,1.408,-0.52,0.0
19.735,1.136,-0.529,11.0
45.182,2.621,0.028,44.0
40.32,2.349,-0.203,41.0
33.537,1.962,-0.358,10.0
27.836,1.636,-0.457,7.0
24.267,1.433,-0.536,0.0
19.708,1.169,-0.547,9.0
45.183,2.699,-0.015,9.0
40.261,2.416,-0.241,27.0
32.089,1.933,-0.373,9.0
27.166,1.643,-0.473,7.0
19.972,1.213,-0.46,1.0
19.697,1.202,-0.566,10.0
40.333,2.479,-0.052,43.0
0.0,0.0,0.0,0.0
30.83,1.91,-0.389,9.0
26.322,1.637,-0.484,6.0
19.782,1.235,-0.476,6.0
19.67,1.233,-0.584,12.0
40.321,2.545,-0.093,45.0
36.434,2.309,-0.29,6.0
29.999,1.908,-0.409,8.0
25.439,1.624,-0.493,6.0
19.74,1.265,-0.495,10.0
19.479,1.253,-0.598,5.0
40.327,2.611,-0.134,41.0
35.457,2.304,-0.318,6.0
28.998,1.891,-0.425,8.0
24.812,1.624,-0.507,5.0
19.732,1.296,-0.515,10.0
19.11,1.26,-0.607,3.0
40.324,2.675,-0.176,44.0
33.424,2.225,-0.335,7.0
28.144,1.88,-0.442,7.0
24.208,1.623,-0.52,5.0
19.709,1.326,-0.535,9.0
18.703,1.263,-0.614,3.0
40.256,2.734,-0.219,34.0
32.342,2.204,-0.359,9.0
26.976,1.844,-0.453,7.0
23.705,1.626,-0.535,1.0
19.7,1.356,-0.557,9.0
18.408,1.271,-0.625,3.0
0.0,0.0,0.0,0.0
0.0,0.0,0.0,0.0
26.014,1.819,-0.466,6.0
19.999,1.403,-0.474,3.0
19.669,1.384,-0.577,11.0
18.127,1.279,-0.635,3.0
36.737,2.607,-0.281,12.0
30.016,2.136,-0.4,8.0
25.338,1.809,-0.482,6.0
19.757,1.415,-0.49,5.0
19.508,1.402,-0.595,6.0
17.771,1.281,-0.643,2.0
35.063,2.54,-0.308,11.0
28.79,2.092,-0.417,8.0
24.621,1.794,-0.497,5.0
19.697,1.439,-0.511,8.0
18.948,1.389,-0.6,3.0
17.454,1.283,-0.652,2.0
33.41,2.469,-0.333,10.0
27.375,2.028,-0.429,7.0
23.975,1.781,-0.512,5.0
19.694,1.467,-0.534,8.0
18.621,1.391,-0.611,3.0
17.239,1.292,-0.664,2.0
31.962,2.406,-0.356,10.0
26.606,2.008,-0.448,6.0
19.887,1.505,-0.448,2.0
19.705,1.495,-0.558,10.0
18.32,1.394,-0.623,2.0
17.019,1.298,-0.676,1.0
30.596,2.345,-0.378,9.0
25.622,1.969,-0.462,6.0
19.726,1.519,-0.468,6.0
19.641,1.517,-0.58,8.0
17.979,1.392,-0.634,1.0
16.849,1.308,-0.69,1.0
29.384,2.291,-0.399,8.0
24.808,1.939,-0.478,5.0
19.708,1.544,-0.492,9.0
19.277,1.514,-0.593,3.0
17.625,1.388,-0.643,2.0
16.695,1.318,-0.705,1.0
27.88,2.21,-0.413,7.0
24.1,1.914,-0.494,5.0
19.707,1.569,-0.517,8.0
18.75,1.496,-0.6,3.0
17.424,1.394,-0.657,2.0
16.482,1.322,-0.716,1.0
27.077,2.18,-0.435,7.0
23.69,1.912,-0.516,2.0
19.71,1.594,-0.542,9.0
18.446,1.495,-0.614,2.0
17.155,1.394,-0.669,2.0
16.324,1.329,-0.73,1.0
25.857,2.113,-0.449,6.0
19.742,1.617,-0.455,5.0
19.613,1.61,-0.564,8.0
18.073,1.487,-0.625,1.0
16.917,1.395,-0.682,1.0
16.072,1.328,-0.74,1.0
25.046,2.076,-0.467,6.0
19.708,1.637,-0.48,9.0
19.056,1.586,-0.573,10.0
17.726,1.478,-0.636,2.0
16.693,1.395,-0.694,1.0
15.963,1.337,-0.756,1.0
24.212,2.034,-0.483,5.0
19.668,1.656,-0.504,9.0
18.763,1.583,-0.588,10.0
17.486,1.478,-0.65,2.0
16.516,1.399,-0.709,2.0
15.695,1.332,-0.764,0.0
23.626,2.011,-0.502,5.0
19.207,1.638,-0.518,10.0
18.749,1.602,-0.613,3.0
17.244,1.476,-0.664,2.0
16.359,1.403,-0.724,2.0
15.274,1.313,-0.763,0.0
23.244,2.003,-0.525,1.0
19.626,1.694,-0.555,9.0
18.154,1.57,-0.617,1.0
16.995,1.472,-0.677,2.0
16.118,1.399,-0.735,1.0
15.065,1.31,-0.773,0.0
22.034,1.921,-0.527,5.0
19.237,1.68,-0.57,7.0
17.842,1.561,-0.631,2.0
16.758,1.469,-0.69,1.0
15.934,1.399,-0.748,2.0
21.285,1.876,-0.538,6.0
18.949,1.673,-0.587,16.0
17.555,1.552,-0.645,2.0
16.565,1.467,-0.705,1.0
15.756,1.398,-0.761,0.0
14.474,1.286,-0.782,0.0
20.611,1.836,-0.549,8.0
18.934,1.689,-0.613,21.0
17.309,1.546,-0.659,1.0
16.361,1.464,-0.718,1.0
15.328,1.374,-0.761,0.0
14.242,1.279,-0.789,0.0
19.943,1.794,-0.558,6.0
18.631,1.678,-0.628,10.0
17.011,1.534,-0.671,1.0
16.116,1.456,-0.73,1.0
14.976,1.355,-0.764,0.0
13.98,1.267,-0.794,0.0
19.159,1.739,-0.562,9.0
17.94,1.631,-0.629,8.0
16.777,1.527,-0.684,1.0
15.957,1.455,-0.744,2.0
14.776,1.349,-0.774,0.0
13.596,1.243,-0.791,0.0
18.916,1.732,-0.581,14.0
17.754,1.628,-0.647,3.0
16.579,1.522,-0.7,1.0
15.818,1.454,-0.76,1.0
14.423,1.328,-0.776,0.0
13.447,1.24,-0.801,0.0
18.395,1.698,-0.59,12.0
17.499,1.618,-0.662,0.0
16.336,1.512,-0.712,1.0
15.316,1.419,-0.757,0.0
14.317,1.329,-0.79,0.0
13.26,1.232,-0.808,0.0
18.018,1.676,-0.603,13.0
16.941,1.578,-0.664,0.0
16.069,1.498,-0.722,1.0
15.022,1.403,-0.763,0.0
13.93,1.302,-0.788,0.0
12.966,1.214,-0.808,0.0
17.854,1.673,-0.622,20.0
16.794,1.575,-0.682,2.0
15.939,1.497,-0.739,5.0
14.753,1.387,-0.77,0.0
13.604,1.281,-0.789,0.0
12.774,1.204,-0.814,0.0
17.756,1.674,-0.644,17.0
16.622,1.569,-0.698,2.0
15.83,1.496,-0.756,1.0
14.304,1.353,-0.767,0.0
13.408,1.27,-0.796,0.0
12.582,1.193,-0.819,0.0
17.594,1.669,-0.662,11.0
16.393,1.557,-0.711,1.0
15.341,1.458,-0.754,0.0
14.073,1.339,-0.774,0.0
13.172,1.255,-0.8,0.0
12.341,1.177,-0.821,0.0
17.422,1.662,-0.68,4.0
16.045,1.532,-0.718,2.0
15.084,1.442,-0.762,0.0
13.947,1.334,-0.786,0.0
12.969,1.242,-0.806,0.0
12.231,1.173,-0.83,0.0
16.91,1.621,-0.683,0.0
15.937,1.529,-0.735,7.0
14.692,1.411,-0.762,0.0
13.604,1.308,-0.785,0.0
12.731,1.225,-0.808,0.0
12.024,1.158,-0.833,0.0
16.537,1.593,-0.691,1.0
15.873,1.53,-0.754,1.0
14.442,1.393,-0.769,0.0
13.413,1.295,-0.793,0.0
12.574,1.215,-0.816,0.0
11.868,1.148,-0.839,0.0
16.386,1.585,-0.707,2.0
15.279,1.479,-0.747,0.0
14.17,1.372,-0.774,0.0
13.319,1.291,-0.806,0.0
12.391,1.202,-0.821,0.0
11.621,1.128,-0.837,0.0
16.139,1.567,-0.718,3.0
15.032,1.46,-0.756,0.0
13.814,1.343,-0.774,0.0
12.998,1.264,-0.804,0.0
12.206,1.188,-0.826,0.0
11.411,1.112,-0.838,0.0
15.937,1.552,-0.731,8.0
14.709,1.433,-0.76,0.0
13.66,1.332,-0.784,0.0
12.719,1.241,-0.804,0.0
12.014,1.173,-0.829,0.0
11.215,1.096,-0.839,0.0
15.89,1.551,-0.751,1.0
14.511,1.417,-0.769,0.0
13.465,1.316,-0.791,0.0
12.617,1.234,-0.815,0.0
11.881,1.163,-0.836,0.0
11.069,1.084,-0.843,0.0
15.412,1.508,-0.749,0.0
14.344,1.404,-0.78,0.0
13.247,1.298,-0.796,0.0
12.412,1.216,-0.819,0.0
11.624,1.14,-0.834,0.0
10.894,1.069,-0.845,0.0
15.103,1.48,-0.754,0.0
13.968,1.37,-0.778,0.0
12.956,1.271,-0.796,0.0
12.246,1.202,-0.824,0.0
11.443,1.124,-0.836,0.0
10.724,1.054,-0.846,0.0
14.832,1.456,-0.76,0.0
13.725,1.348,-0.782,0.0
12.832,1.261,-0.805,0.0
12.031,1.182,-0.826,0.0
11.249,1.106,-0.837,0.0
10.613,1.044,-0.851,0.0
14.569,1.431,-0.766,0.0
13.452,1.322,-0.785,0.0
12.632,1.242,-0.809,0.0
11.88,1.168,-0.831,0.0
11.091,1.091,-0.84,0.0
10.46,1.03,-0.852,0.0
14.475,1.422,-0.78,0.0
13.299,1.307,-0.793,0.0
12.458,1.225,-0.814,0.0
11.622,1.143,-0.828,0.0
10.944,1.077,-0.843,0.0
10.349,1.019,-0.857,0.0
14.005,1.376,-0.772,0.0
13.107,1.288,-0.798,0.0
12.257,1.205,-0.817,0.0
11.505,1.131,-0.834,0.0
10.808,1.063,-0.846,0.0
10.252,1.009,-0.862,0.0
13.823,1.358,-0.78,0.0
12.898,1.267,-0.802,0.0
12.066,1.186,-0.82,0.0
11.307,1.111,-0.834,0.0
10.631,1.045,-0.846,0.0
10.113,0.995,-0.863,0.0
13.564,1.331,-0.782,0.0
12.695,1.246,-0.805,0.0
11.953,1.173,-0.827,0.0
11.13,1.093,-0.835,0.0
10.518,1.033,-0.85,0.0
10.04,0.986,-0.87,0.0
13.377,1.311,-0.788,0.0
12.552,1.23,-0.812,0.0
11.812,1.158,-0.832,0.0
10.985,1.077,-0.838,0.0
10.421,1.022,-0.855,0.0
9.927,0.974,-0.872,0.0
13.277,1.299,-0.798,0.0
12.334,1.207,-0.813,0.0
11.59,1.134,-0.83,0.0
10.864,1.063,-0.842,0.0
10.326,1.011,-0.86,0.0
9.793,0.958,-0.872,0.0
13.088,1.278,-0.803,0.0
12.264,1.197,-0.823,0.0
11.405,1.113,-0.831,0.0
10.699,1.044,-0.842,0.0
10.205,0.996,-0.862,0.0
9.734,0.95,-0.879,0.0
12.838,1.25,-0.803,0.0
12.117,1.18,-0.827,0.0
11.201,1.09,-0.829,0.0
10.615,1.033,-0.848,0.0
10.103,0.983,-0.866,0.0
9.625,0.937,-0.88,0.0
12.644,1.227,-0.806,0.0
11.927,1.157,-0.828,0.0
11.135,1.08,-0.837,0.0
10.448,1.014,-0.847,0.0
10.042,0.974,-0.872,0.0
9.528,0.924,-0.883,0.0
12.512,1.21,-0.811,0.0
11.767,1.138,-0.831,0.0
11.018,1.065,-0.841,0.0
10.382,1.004,-0.854,0.0
9.932,0.96,-0.874,0.0
9.379,0.906,-0.88,0.0
12.418,1.196,-0.82,0.0
11.613,1.118,-0.833,0.0
10.891,1.049,-0.844,0.0
10.284,0.99,-0.857,0.0
9.83,0.946,-0.876,0.0
9.271,0.892,-0.88,0.0
12.255,1.175,-0.822,0.0
11.478,1.101,-0.836,0.0
10.794,1.035,-0.848,0.0
10.195,0.977,-0.861,0.0
9.737,0.933,-0.878,0.0
9.236,0.885,-0.887,0.0
12.173,1.162,-0.83,0.0
11.268,1.075,-0.833,0.0
10.628,1.014,-0.847,0.0
10.072,0.96,-0.861,0.0
9.666,0.922,-0.882,0.0
9.114,0.869,-0.885,0.0
12.088,1.148,-0.837,0.0
11.14,1.057,-0.835,0.0
10.463,0.993,-0.844,0.0
10.032,0.951,-0.868,0.0
9.549,0.905,-0.882,0.0
9.055,0.858,-0.888,0.0
11.875,1.121,-0.834,0.0
11.095,1.047,-0.843,0.0
10.462,0.987,-0.855,0.0
9.935,0.937,-0.87,0.0
9.509,0.896,-0.888,0.0
8.941,0.842,-0.886,0.0
11.653,1.094,-0.83,0.0
10.946,1.027,-0.843,0.0
10.388,0.974,-0.859,0.0
9.903,0.928,-0.877,0.0
9.373,0.878,-0.884,0.0
8.81,0.825,-0.882,0.0
11.574,1.079,-0.836,0.0
10.785,1.005,-0.841,0.0
10.267,0.956,-0.859,0.0
9.821,0.914,-0.879,0.0
9.268,0.862,-0.883,0.0
8.767,0.815,-0.886,0.0
11.396,1.055,-0.834,0.0
10.752,0.995,-0.848,0.0
10.17,0.94,-0.861,0.0
9.722,0.899,-0.88,0.0
9.215,0.851,-0.887,0.0
8.705,0.804,-0.888,0.0
11.27,1.036,-0.835,0.0
10.696,0.982,-0.853,0.0
10.115,0.928,-0.865,0.0
9.638,0.884,-0.881,0.0
9.14,0.838,-0.888,0.0
8.639,0.791,-0.889,0.0
11.178,1.019,-0.838,0.0
10.549,0.961,-0.851,0.0
10.102,0.92,-0.873,0.0
9.592,0.873,-0.885,0.0
9.071,0.825,-0.889,0.0
8.527,0.775,-0.885,0.0
11.098,1.004,-0.841,0.0
10.451,0.944,-0.852,0.0
10.023,0.905,-0.875,0.0
9.494,0.856,-0.884,0.0
8.957,0.807,-0.885,0.0
8.494,0.765,-0.889,0.0
11.023,0.988,-0.845,0.0
10.418,0.933,-0.858,0.0
9.937,0.889,-0.875,0.0
9.452,0.845,-0.888,0.0
8.893,0.794,-0.886,0.0
8.444,0.754,-0.89,0.0
10.856,0.964,-0.84,0.0
10.363,0.92,-0.861,0.0
9.886,0.876,-0.878,0.0
9.327,0.826,-0.883,0.0
8.839,0.782,-0.888,0.0
8.384,0.741,-0.89,0.0
10.812,0.951,-0.845,0.0
10.265,0.902,-0.861,0.0
9.799,0.86,-0.878,0.0
9.279,0.814,-0.885,0.0
8.757,0.767,-0.886,0.0
8.292,0.726,-0.887,0.0
10.801,0.941,-0.852,0.0
10.246,0.891,-0.867,0.0
9.754,0.847,-0.881,0.0
9.204,0.799,-0.885,2.0
8.729,0.757,-0.889,0.0
8.293,0.718,-0.892,0.0
10.767,0.928,-0.857,0.0
10.141,0.873,-0.865,0.0
9.725,0.836,-0.885,0.0
9.213,0.791,-0.892,0.0
8.656,0.743,-0.888,0.0
8.262,0.708,-0.895,0.0
10.68,0.91,-0.857,0.0
10.128,0.862,-0.87,0.0
9.681,0.823,-0.887,0.0
9.199,0.781,-0.896,2.0
8.661,0.735,-0.894,0.0
8.254,0.699,-0.899,0.0
10.595,0.893,-0.856,0.0
10.11,0.851,-0.875,0.0
9.642,0.81,-0.889,0.0
9.075,0.762,-0.89,0.0
8.56,0.718,-0.888,0.0
8.23,0.689,-0.901,0.0
10.52,0.876,-0.856,0.0
10.036,0.834,-0.874,0.0
9.554,0.793,-0.886,0.0
9.025,0.748,-0.89,0.0
8.581,0.71,-0.895,0.0
8.19,0.677,-0.901,0.0
10.46,0.86,-0.857,0.0
10.002,0.821,-0.876,0.0
9.494,0.778,-0.886,0.0
8.531,0.698,-0.894,0.0
8.166,0.667,-0.903,0.0
10.476,0.851,-0.863,0.0
9.987,0.81,-0.88,0.0
9.497,0.769,-0.891,0.0
8.477,0.684,-0.893,0.0
8.14,0.656,-0.904,0.0
10.414,0.834,-0.863,0.0
9.939,0.795,-0.88,0.0
9.448,0.754,-0.89,0.0
8.926,0.712,-0.893,0.0
8.436,0.671,-0.892,0.0
8.115,0.645,-0.904,0.0
10.372,0.82,-0.864,0.0
9.927,0.783,-0.883,0.0
9.401,0.74,-0.89,0.0
8.87,0.697,-0.891,0.0
8.425,0.661,-0.894,0.0
8.061,0.632,-0.902,0.0
10.321,0.804,-0.864,0.0
9.874,0.768,-0.882,0.0
9.382,0.728,-0.891,0.0
8.802,0.682,-0.887,0.0
8.455,0.654,-0.9,0.0
8.095,0.625,-0.908,0.0
10.319,0.792,-0.867,0.0
9.894,0.758,-0.887,0.0
9.34,0.714,-0.89,0.0
8.845,0.675,-0.894,0.0
8.411,0.641,-0.898,0.0
8.054,0.612,-0.906,0.0
10.307,0.779,-0.869,0.0
9.861,0.744,-0.887,0.0
9.34,0.703,-0.893,0.0
8.812,0.662,-0.894,0.0
8.379,0.628,-0.897,0.0
8.045,0.602,-0.907,0.0
10.335,0.769,-0.874,0.0
9.853,0.731,-0.889,0.0
9.269,0.686,-0.888,0.0
8.838,0.653,-0.898,0.0
8.36,0.617,-0.897,0.0
8.036,0.592,-0.908,0.0
10.276,0.752,-0.871,0.0
9.806,0.716,-0.887,0.0
9.3,0.678,-0.893,0.0
8.782,0.638,-0.894,0.0
8.387,0.608,-0.902,0.0
8.032,0.582,-0.909,0.0
10.287,0.74,-0.874,0.0
9.83,0.706,-0.89,0.0
9.288,0.665,-0.894,0.0
8.765,0.626,-0.894,0.0
8.388,0.598,-0.903,0.0
7.992,0.569,-0.906,0.0
10.245,0.724,-0.872,0.0
9.81,0.692,-0.89,0.0
9.275,0.653,-0.894,0.0
8.825,0.62,-0.901,0.0
8.389,0.588,-0.904,0.0
8.011,0.56,-0.909,0.0
10.229,0.71,-0.871,0.0
9.815,0.68,-0.891,0.0
9.261,0.64,-0.893,0.0
8.767,0.604,-0.896,0.0
8.397,0.578,-0.905,0.0
8.005,0.549,-0.908,0.0
10.237,0.698,-0.872,0.0
9.788,0.666,-0.889,0.0
9.286,0.63,-0.895,0.0
8.772,0.594,-0.896,0.0
8.392,0.566,-0.905,0.0
8.022,0.54,-0.91,0.0
10.28,0.688,-0.876,0.0
9.82,0.655,-0.892,0.0
9.261,0.616,-0.893,0.0
8.716,0.578,-0.89,0.0
8.38,0.555,-0.903,0.0
8.029,0.53,-0.911,0.0
10.315,0.677,-0.878,0.0
9.803,0.641,-0.89,0.0
9.278,0.605,-0.894,0.0
8.756,0.57,-0.894,0.0
8.397,0.545,-0.905,0.0
8.06,0.521,-0.914,0.0
10.302,0.662,-0.876,0.0
9.835,0.63,-0.892,0.0
9.307,0.595,-0.896,0.0
8.792,0.56,-0.897,0.0
8.403,0.534,-0.904,0.0
8.07,0.511,-0.914,0.0
10.309,0.649,-0.876,0.0
9.859,0.619,-0.892,0.0
9.374,0.586,-0.901,0.0
8.844,0.552,-0.901,0.0
8.44,0.525,-0.907,0.0
8.068,0.5,-0.912,0.0
10.359,0.638,-0.878,0.0
9.885,0.607,-0.893,0.0
9.366,0.573,-0.898,0.0
8.861,0.541,-0.901,0.0
8.461,0.515,-0.907,0.0
8.098,0.491,-0.914,0.0
10.36,0.624,-0.876,0.0
9.903,0.595,-0.892,0.0
9.415,0.564,-0.901,0.0
8.854,0.528,-0.898,0.0
8.503,0.506,-0.91,0.0
8.132,0.482,-0.916,0.0
10.388,0.612,-0.876,0.0
9.929,0.583,-0.892,0.0
9.438,0.552,-0.901,0.0
8.927,0.52,-0.903,0.0
8.486,0.493,-0.905,0.0
8.131,0.471,-0.913,0.0
10.431,0.6,-0.876,0.0
9.954,0.571,-0.891,0.0
9.439,0.539,-0.898,0.0
8.915,0.508,-0.898,0.0
8.518,0.483,-0.906,0.0
8.143,0.461,-0.912,0.0
10.489,0.589,-0.877,0.0
9.982,0.559,-0.89,0.0
9.478,0.529,-0.898,0.0
8.982,0.499,-0.902,0.0
8.543,0.473,-0.905,0.0
8.182,0.451,-0.913,0.0
10.502,0.576,-0.874,0.0
10.011,0.547,-0.889,0.0
9.482,0.516,-0.894,0.0
8.969,0.486,-0.897,0.0
8.62,0.465,-0.91,0.0
8.198,0.441,-0.911,0.0
10.581,0.565,-0.876,0.0
10.084,0.537,-0.891,0.0
9.541,0.506,-0.896,0.0
8.973,0.474,-0.893,0.0
8.667,0.456,-0.911,0.0
8.253,0.433,-0.913,0.0
10.626,0.553,-0.875,0.0
10.153,0.527,-0.892,0.0
9.634,0.498,-0.899,0.0
9.113,0.469,-0.902,0.0
8.683,0.445,-0.908,0.0
8.297,0.423,-0.914,0.0
10.691,0.542,-0.874,0.0
10.229,0.516,-0.893,0.0
9.661,0.486,-0.897,0.0
9.179,0.46,-0.904,0.0
8.742,0.436,-0.909,0.0
8.314,0.413,-0.911,0.0
10.757,0.53,-0.874,0.0
10.259,0.504,-0.89,0.0
9.712,0.475,-0.896,0.0
9.218,0.449,-0.902,0.0
8.785,0.426,-0.908,0.0
8.414,0.406,-0.916,0.0
10.831,0.519,-0.873,0.0
10.298,0.491,-0.886,0.0
9.818,0.467,-0.899,0.0
9.267,0.438,-0.901,0.0
8.857,0.417,-0.91,0.0
8.476,0.397,-0.918,0.0
10.876,0.507,-0.869,0.0
10.349,0.48,-0.884,0.0
9.868,0.455,-0.897,0.0
9.343,0.429,-0.902,0.0
8.882,0.406,-0.906,0.0
8.494,0.387,-0.914,0.0
10.901,0.493,-0.864,0.0
10.446,0.47,-0.885,0.0
9.956,0.446,-0.898,0.0
9.493,0.423,-0.909,0.0
8.947,0.397,-0.906,0.0
8.538,0.377,-0.912,0.0
11.062,0.485,-0.868,0.0
10.544,0.46,-0.885,0.0
10.078,0.437,-0.901,0.0
9.516,0.411,-0.904,0.0
9.076,0.39,-0.912,0.0
8.653,0.37,-0.917,0.0
11.166,0.474,-0.868,0.0
10.605,0.448,-0.882,0.0
10.106,0.425,-0.896,0.0
9.584,0.401,-0.903,0.0
9.104,0.379,-0.908,0.0
8.71,0.361,-0.916,0.0
11.26,0.463,-0.865,0.0
10.656,0.436,-0.877,0.0
10.199,0.415,-0.895,0.0
9.648,0.391,-0.901,0.0
9.196,0.37,-0.909,0.0
8.774,0.351,-0.915,0.0
11.34,0.451,-0.862,0.0
10.759,0.426,-0.876,0.0
10.304,0.405,-0.895,0.0
9.751,0.382,-0.901,0.0
9.258,0.36,-0.907,0.0
8.838,0.342,-0.914,0.0
11.487,0.442,-0.862,0.0
10.838,0.414,-0.873,0.0
10.342,0.393,-0.889,0.0
9.843,0.372,-0.901,0.0
9.386,0.353,-0.91,0.0
8.917,0.333,-0.913,0.0
11.618,0.431,-0.861,0.0
11.078,0.409,-0.881,0.0
10.452,0.383,-0.888,0.0
9.952,0.363,-0.901,0.0
9.443,0.342,-0.906,0.0
8.965,0.323,-0.909,0.0
11.816,0.423,-0.864,0.0
11.069,0.394,-0.869,0.0
10.563,0.373,-0.887,0.0
10.059,0.353,-0.9,0.0
9.564,0.334,-0.908,0.0
9.114,0.316,-0.915,0.0
11.991,0.413,-0.864,0.0
11.186,0.383,-0.867,0.0
10.647,0.362,-0.882,0.0
10.161,0.344,-0.898,0.0
9.638,0.324,-0.904,0.0
9.185,0.307,-0.912,0.0
12.156,0.403,-0.863,0.0
11.282,0.372,-0.862,0.0
10.759,0.352,-0.88,0.0
10.263,0.334,-0.896,0.0
9.745,0.315,-0.903,0.0
9.297,0.298,-0.912,0.0
12.278,0.391,-0.858,0.0
11.56,0.366,-0.87,0.0
10.939,0.344,-0.882,0.0
10.334,0.323,-0.89,0.0
9.833,0.305,-0.9,0.0
9.39,0.289,-0.91,0.0
12.469,0.382,-0.857,0.0
11.757,0.357,-0.871,0.0
11.075,0.334,-0.88,0.0
10.456,0.313,-0.888,0.0
9.992,0.297,-0.903,0.0
9.492,0.28,-0.909,0.0
12.655,0.371,-0.854,0.0
11.927,0.347,-0.869,0.0
11.158,0.323,-0.873,0.0
10.618,0.305,-0.889,0.0
10.131,0.288,-0.903,0.0
9.589,0.271,-0.906,0.0
12.857,0.361,-0.852,0.0
12.033,0.335,-0.862,0.0
11.351,0.314,-0.874,0.0
10.74,0.295,-0.885,0.0
10.17,0.277,-0.893,0.0
9.734,0.263,-0.907,0.0
13.021,0.35,-0.846,0.0
12.256,0.327,-0.861,0.0
11.617,0.307,-0.879,0.0
10.867,0.285,-0.882,0.0
10.269,0.267,-0.888,0.0
9.894,0.255,-0.909,0.0
13.322,0.342,-0.848,0.0
12.477,0.317,-0.861,0.0
11.739,0.296,-0.872,0.0
10.978,0.275,-0.876,0.0
10.479,0.26,-0.892,0.0
9.933,0.244,-0.899,0.0
13.564,0.332,-0.845,0.0
12.718,0.308,-0.86,0.0
12.063,0.29,-0.88,0.0
11.28,0.269,-0.884,0.0
10.594,0.25,-0.887,0.0
10.09,0.236,-0.899,0.0
13.913,0.324,-0.847,0.0
12.919,0.298,-0.855,0.0
12.16,0.278,-0.87,0.0
11.438,0.259,-0.88,0.0
10.781,0.242,-0.887,0.0
10.223,0.227,-0.896,0.0
14.219,0.315,-0.845,1.0
13.241,0.29,-0.857,0.0
12.365,0.269,-0.866,0.0
11.667,0.251,-0.881,0.0
11.005,0.234,-0.89,0.0
10.391,0.219,-0.895,0.0
14.478,0.304,-0.839,1.0
13.429,0.279,-0.85,0.0
12.603,0.259,-0.864,0.0
11.89,0.243,-0.88,0.0
11.202,0.226,-0.889,0.0
10.617,0.212,-0.899,0.0
14.721,0.293,-0.831,0.0
13.792,0.272,-0.852,1.0
12.875,0.251,-0.864,0.0
12.118,0.234,-0.878,0.0
11.415,0.218,-0.888,1.0
10.817,0.205,-0.899,0.0
15.06,0.283,-0.827,0.0
14.095,0.262,-0.849,1.0
13.141,0.242,-0.861,0.0
12.351,0.225,-0.876,1.0
11.596,0.209,-0.884,0.0
10.964,0.196,-0.894,0.0
15.388,0.273,-0.821,0.0
14.397,0.253,-0.845,1.0
13.436,0.233,-0.859,1.0
12.523,0.215,-0.868,0.0
11.857,0.201,-0.885,0.0
11.214,0.188,-0.896,0.0
15.86,0.265,-0.821,0.0
14.753,0.244,-0.842,1.0
13.636,0.223,-0.85,1.0
12.808,0.207,-0.867,0.0
12.086,0.193,-0.882,1.0
11.39,0.18,-0.892,0.0
16.431,0.258,-0.824,0.0
14.982,0.232,-0.83,0.0
14.019,0.215,-0.851,0.0
13.102,0.199,-0.866,1.0
12.302,0.184,-0.878,0.0
11.636,0.172,-0.892,0.0
16.837,0.248,-0.816,0.0
15.374,0.223,-0.826,0.0
14.363,0.206,-0.848,0.0
13.332,0.189,-0.858,1.0
12.575,0.176,-0.876,0.0
11.843,0.164,-0.887,1.0
17.294,0.238,-0.809,0.0
15.796,0.214,-0.822,0.0
14.707,0.197,-0.843,0.0
13.624,0.18,-0.853,0.0
12.829,0.167,-0.871,1.0
12.092,0.156,-0.885,1.0
17.731,0.227,-0.799,0.0
16.231,0.205,-0.817,0.0
15.058,0.188,-0.837,0.0
13.981,0.172,-0.852,0.0
13.043,0.158,-0.863,2.0
12.313,0.147,-0.88,0.0
18.286,0.218,-0.792,0.0
16.692,0.196,-0.81,0.0
15.57,0.18,-0.838,0.0
14.371,0.164,-0.85,0.0
13.354,0.15,-0.86,0.0
12.598,0.14,-0.877,1.0
18.98,0.209,-0.788,0.0
17.307,0.188,-0.809,0.0
15.836,0.17,-0.823,0.0
14.687,0.155,-0.842,1.0
13.654,0.142,-0.855,0.0
12.866,0.132,-0.873,1.0
19.488,0.198,-0.775,2.0
17.96,0.18,-0.808,0.0
16.38,0.162,-0.822,0.0
15.122,0.147,-0.84,1.0
14.03,0.134,-0.852,0.0
13.124,0.124,-0.866,1.0
19.673,0.184,-0.746,3.0
18.523,0.171,-0.799,0.0
16.664,0.151,-0.806,0.0
15.498,0.138,-0.832,0.0
14.435,0.127,-0.85,0.0
13.455,0.116,-0.863,0.0
20.244,0.174,-0.73,0.0
19.062,0.161,-0.786,0.0
17.387,0.144,-0.808,0.0
15.928,0.13,-0.825,0.0
14.856,0.119,-0.847,0.0
13.73,0.108,-0.854,0.0
21.039,0.165,-0.719,0.0
19.584,0.15,-0.771,2.0
18.086,0.136,-0.806,0.0
16.457,0.122,-0.821,0.0
15.346,0.112,-0.846,1.0
14.139,0.101,-0.853,0.0
22.225,0.158,-0.717,0.0
19.829,0.138,-0.743,0.0
18.632,0.127,-0.795,0.0
16.998,0.114,-0.816,0.0
15.636,0.103,-0.832,0.0
14.548,0.094,-0.85,0.0
23.314,0.15,-0.708,0.0
20.876,0.131,-0.742,0.0
19.365,0.119,-0.789,0.0
17.574,0.106,-0.809,0.0
16.026,0.094,-0.821,0.0
14.992,0.086,-0.846,0.0
24.411,0.14,-0.693,0.0
22.152,0.125,-0.744,0.0
19.726,0.109,-0.765,2.0
18.218,0.098,-0.803,0.0
16.706,0.088,-0.824,0.0
15.471,0.08,-0.843,0.0
19.806,0.101,-0.524,0.0
19.842,0.099,-0.628,0.0
19.79,0.097,-0.728,3.0
18.884,0.09,-0.795,0.0
17.269,0.08,-0.817,0.0
15.766,0.072,-0.828,0.0
19.788,0.09,-0.484,9.0
19.793,0.088,-0.587,9.0
19.785,0.085,-0.689,10.0
19.666,0.083,-0.789,2.0
17.932,0.073,-0.812,0.0
16.349,0.065,-0.825,0.0
19.79,0.079,-0.445,33.0
19.806,0.077,-0.548,23.0
19.791,0.075,-0.65,22.0
19.755,0.072,-0.753,10.0
18.535,0.066,-0.802,0.0
16.922,0.059,-0.82,0.0
19.785,0.068,-0.405,38.0
19.78,0.066,-0.507,28.0
19.792,0.064,-0.61,24.0
19.768,0.062,-0.713,11.0
19.525,0.06,-0.806,1.0
17.556,0.052,-0.815,0.0
19.782,0.059,-0.364,41.0
19.792,0.057,-0.467,151.0
19.794,0.055,-0.569,19.0
19.775,0.053,-0.673,8.0
19.746,0.051,-0.774,12.0
18.043,0.045,-0.801,0.0
19.769,0.049,-0.324,18.0
19.77,0.048,-0.426,12.0
19.774,0.046,-0.528,13.0
19.779,0.045,-0.632,10.0
19.786,0.043,-0.735,5.0
18.895,0.039,-0.8,0.0
19.767,0.041,-0.283,12.0
19.76,0.04,-0.385,8.0
19.765,0.038,-0.487,10.0
19.765,0.037,-0.591,10.0
19.83,0.035,-0.695,0.0
19.685,0.034,-0.792,2.0
19.756,0.034,-0.242,18.0
19.766,0.032,-0.344,16.0
19.782,0.031,-0.446,8.0
19.763,0.029,-0.549,9.0
19.783,0.028,-0.652,4.0
19.77,0.027,-0.754,3.0
19.778,0.027,-0.2,2.0
19.769,0.025,-0.302,2.0
19.789,0.024,-0.404,2.0
19.775,0.023,-0.508,2.0
19.779,0.022,-0.61,2.0
20.653,0.021,-0.744,0.0
19.774,0.021,-0.159,1.0
19.784,0.019,-0.261,1.0
19.788,0.018,-0.363,0.0
19.782,0.017,-0.467,1.0
19.79,0.016,-0.569,0.0
19.782,0.015,-0.67,0.0
19.779,0.015,-0.117,0.0
19.789,0.014,-0.219,0.0
19.772,0.013,-0.32,0.0
19.756,0.012,-0.424,0.0
19.774,0.011,-0.526,0.0
22.857,0.012,-0.726,0.0
19.757,0.01,-0.075,1.0
0.0,0.0,0.0,0.0
35.346,0.016,-0.498,0.0
30.58,0.012,-0.592,0.0
26.884,0.01,-0.659,0.0
23.843,0.008,-0.707,0.0
19.757,0.006,-0.033,10.0
19.762,0.006,-0.134,0.0
0.0,0.0,0.0,0.0
32.129,0.007,-0.553,0.0
28.559,0.006,-0.638,0.0
25.424,0.004,-0.7,0.0
19.732,0.003,0.008,11.0
19.776,0.003,-0.093,1.0
42.227,0.005,-0.416,0.0
34.777,0.003,-0.525,0.0
30.022,0.002,-0.607,0.0
26.472,0.001,-0.672,0.0
19.742,0.001,0.05,7.0
19.738,0.0,-0.05,10.0
19.777,0.0,-0.153,0.0
0.0,0.0,0.0,0.0
32.027,0.0,-0.58,0.0
28.116,-0.001,-0.653,0.0
19.707,0.0,0.092,2.0
19.722,0.0,-0.008,12.0
19.757,-0.001,-0.11,2.0
0.0,0.0,0.0,0.0
33.672,-0.002,-0.537,0.0
29.605,-0.002,-0.625,0.0
19.735,-0.001,0.134,2.0
19.734,-0.001,0.033,9.0
19.752,-0.001,-0.067,7.0
