X,Y,Z,Reflectivity
16.99,1.574,-0.669,1.0
16.123,1.49,-0.725,2.0
15.11,1.394,-0.766,0.0
13.877,1.277,-0.782,0.0
13.024,1.196,-0.807,0.0
18.356,1.676,-0.624,10.0
16.966,1.545,-0.672,1.0
16.102,1.463,-0.728,1.0
15.066,1.366,-0.767,0.0
13.896,1.257,-0.786,0.0
12.979,1.172,-0.807,0.0
18.42,1.653,-0.63,3.0
16.912,1.514,-0.673,1.0
16.081,1.436,-0.73,1.0
14.979,1.335,-0.766,0.0
12.937,1.147,-0.806,0.0
17.982,1.585,-0.618,1.0
16.927,1.488,-0.677,1.0
16.067,1.409,-0.732,1.0
15.016,1.314,-0.77,0.0
12.908,1.124,-0.806,0.0
18.024,1.56,-0.622,2.0
16.926,1.461,-0.679,1.0
16.074,1.384,-0.734,2.0
15.112,1.298,-0.776,0.0
12.856,1.099,-0.804,0.0
18.074,1.535,-0.625,1.0
16.899,1.431,-0.679,1.0
16.08,1.359,-0.736,1.0
15.056,1.269,-0.774,0.0
13.019,1.092,-0.815,0.0
18.003,1.5,-0.624,2.0
16.892,1.403,-0.679,1.0
16.069,1.331,-0.736,1.0
15.042,1.243,-0.774,0.0
13.887,1.144,-0.792,0.0
13.037,1.071,-0.816,0.0
18.009,1.47,-0.624,1.0
16.903,1.376,-0.68,1.0
16.085,1.306,-0.736,1.0
15.041,1.218,-0.774,0.0
12.909,1.039,-0.808,0.0
18.085,1.446,-0.626,1.0
16.888,1.346,-0.678,1.0
16.124,1.282,-0.737,1.0
14.005,1.107,-0.798,0.0
13.018,1.026,-0.814,0.0
18.055,1.413,-0.624,1.0
16.919,1.32,-0.678,1.0
16.124,1.254,-0.736,1.0
15.072,1.169,-0.773,0.0
13.926,1.077,-0.792,0.0
13.02,1.004,-0.813,0.0
18.151,1.39,-0.625,2.0
16.95,1.294,-0.678,2.0
16.158,1.23,-0.735,1.0
15.152,1.149,-0.775,0.0
14.036,1.062,-0.796,0.0
13.182,0.994,-0.821,0.0
18.199,1.362,-0.624,2.0
16.976,1.267,-0.676,1.0
16.21,1.206,-0.735,1.0
15.2,1.127,-0.775,0.0
14.032,1.037,-0.793,0.0
13.192,0.972,-0.819,0.0
18.243,1.334,-0.622,2.0
17.0,1.239,-0.673,1.0
16.248,1.18,-0.733,1.0
15.33,1.11,-0.778,0.0
14.22,1.026,-0.801,0.0
13.211,0.95,-0.817,0.0
18.291,1.306,-0.619,3.0
17.049,1.213,-0.671,1.0
16.293,1.155,-0.731,1.0
15.407,1.089,-0.778,0.0
14.278,1.006,-0.8,0.0
13.293,0.933,-0.819,0.0
18.402,1.282,-0.618,4.0
17.109,1.188,-0.669,2.0
16.361,1.131,-0.73,1.0
15.616,1.076,-0.784,0.0
14.342,0.985,-0.799,0.0
13.326,0.912,-0.817,0.0
18.458,1.253,-0.614,2.0
17.155,1.161,-0.665,1.0
16.417,1.107,-0.727,1.0
15.603,1.048,-0.778,0.0
14.191,0.949,-0.786,0.0
13.493,0.899,-0.822,0.0
18.544,1.227,-0.61,3.0
17.22,1.135,-0.662,1.0
16.491,1.083,-0.724,1.0
15.737,1.029,-0.779,0.0
14.466,0.942,-0.796,0.0
13.499,0.876,-0.817,0.0
18.66,1.201,-0.607,3.0
17.302,1.11,-0.658,2.0
16.574,1.058,-0.721,1.0
15.885,1.01,-0.78,0.0
14.502,0.919,-0.792,0.0
13.443,0.848,-0.808,0.0
18.829,1.179,-0.604,3.0
17.419,1.086,-0.654,2.0
16.636,1.033,-0.716,1.0
15.977,0.988,-0.777,1.0
14.806,0.912,-0.801,0.0
13.68,0.839,-0.816,0.0
19.039,1.159,-0.602,3.0
17.503,1.06,-0.649,1.0
16.691,1.006,-0.71,2.0
15.998,0.96,-0.77,3.0
14.791,0.884,-0.793,0.0
13.719,0.816,-0.811,0.0
19.266,1.137,-0.599,3.0
17.712,1.041,-0.648,1.0
16.774,0.981,-0.705,1.0
16.069,0.936,-0.765,2.0
14.992,0.869,-0.796,0.0
13.972,0.806,-0.818,0.0
19.542,1.119,-0.597,3.0
17.877,1.019,-0.644,2.0
16.83,0.955,-0.698,1.0
16.144,0.912,-0.759,1.0
15.17,0.852,-0.796,0.0
13.995,0.783,-0.811,0.0
19.699,1.093,-0.59,3.0
18.049,0.997,-0.639,3.0
16.902,0.929,-0.69,2.0
16.224,0.887,-0.753,1.0
15.392,0.838,-0.798,0.0
14.06,0.761,-0.806,0.0
19.976,1.073,-0.585,3.0
18.205,0.973,-0.632,3.0
16.958,0.901,-0.681,2.0
16.336,0.864,-0.747,2.0
15.828,0.833,-0.81,0.0
14.422,0.755,-0.817,0.0
20.174,1.047,-0.577,2.0
18.367,0.948,-0.625,3.0
17.054,0.876,-0.673,2.0
16.405,0.838,-0.739,1.0
15.93,0.81,-0.804,1.0
14.498,0.733,-0.81,0.0
20.607,1.033,-0.575,1.0
18.579,0.926,-0.619,3.0
17.172,0.851,-0.665,2.0
16.523,0.814,-0.732,1.0
15.971,0.783,-0.794,4.0
23.609,1.151,-1.302,1.0
21.016,1.016,-0.57,2.0
18.811,0.904,-0.613,3.0
17.348,0.829,-0.659,2.0
16.627,0.79,-0.723,2.0
16.045,0.758,-0.785,2.0
23.634,1.111,-1.285,0.0
23.62,1.1,-0.622,1.0
19.193,0.889,-0.61,3.0
17.5,0.805,-0.65,2.0
16.751,0.766,-0.715,2.0
16.146,0.734,-0.777,2.0
15.11,0.683,-0.809,0.0
21.822,0.978,-0.557,2.0
19.517,0.869,-0.603,3.0
17.823,0.789,-0.647,3.0
16.862,0.742,-0.705,2.0
16.27,0.711,-0.768,2.0
15.338,0.666,-0.807,0.0
22.901,0.986,-0.564,5.0
19.819,0.847,-0.595,3.0
18.071,0.768,-0.64,3.0
16.938,0.715,-0.693,2.0
16.33,0.685,-0.756,2.0
15.817,0.659,-0.818,0.0
23.344,0.964,-0.554,15.0
20.145,0.826,-0.586,2.0
18.392,0.749,-0.634,3.0
17.089,0.691,-0.683,2.0
16.417,0.659,-0.745,0.0
15.946,0.636,-0.809,2.0
23.707,0.937,-0.54,14.0
20.823,0.817,-0.586,1.0
18.662,0.727,-0.625,3.0
17.2,0.665,-0.671,1.0
16.575,0.637,-0.736,0.0
16.057,0.613,-0.799,1.0
24.421,0.923,-0.532,1.0
21.287,0.798,-0.578,1.0
19.144,0.713,-0.622,2.0
17.328,0.64,-0.658,0.0
16.699,0.612,-0.724,0.0
16.211,0.59,-0.79,1.0
25.188,0.908,-0.522,2.0
21.693,0.776,-0.566,1.0
19.615,0.696,-0.617,3.0
40.088,1.412,-1.481,2.0
16.82,0.588,-0.711,0.0
16.637,0.577,-0.793,1.0
25.981,0.892,-0.511,2.0
22.331,0.761,-0.559,1.0
19.861,0.671,-0.603,0.0
18.23,0.611,-0.653,1.0
17.112,0.568,-0.705,1.0
17.198,0.567,-0.8,2.0
26.987,0.88,-0.501,2.0
23.175,0.749,-0.554,0.0
20.242,0.649,-0.592,0.0
18.502,0.588,-0.642,0.0
18.079,0.57,-0.724,1.0
17.684,0.553,-0.803,1.0
27.499,0.85,-0.479,11.0
23.846,0.731,-0.543,0.0
20.818,0.632,-0.585,1.0
19.187,0.577,-0.643,3.0
18.901,0.564,-0.735,1.0
18.024,0.533,-0.797,2.0
28.717,0.84,-0.467,2.0
25.084,0.726,-0.541,1.0
21.698,0.622,-0.584,0.0
19.735,0.561,-0.638,0.0
19.866,0.559,-0.748,3.0
18.149,0.506,-0.78,0.0
30.003,0.827,-0.451,1.0
25.9,0.707,-0.527,6.0
22.314,0.603,-0.573,0.0
20.907,0.559,-0.65,1.0
0.0,0.0,0.0,0.0
18.656,0.489,-0.779,1.0
31.24,0.81,-0.431,1.0
26.505,0.68,-0.506,1.0
23.209,0.589,-0.566,1.0
22.439,0.563,-0.669,4.0
0.0,0.0,0.0,0.0
19.051,0.468,-0.771,1.0
32.677,0.793,-0.408,1.0
28.435,0.682,-0.506,0.0
24.32,0.577,-0.562,0.0
23.882,0.56,-0.681,1.0
21.593,0.501,-0.73,4.0
19.266,0.442,-0.754,0.0
34.523,0.782,-0.386,1.0
29.226,0.654,-0.481,4.0
25.56,0.565,-0.556,1.0
25.213,0.551,-0.685,1.0
21.815,0.471,-0.708,1.0
19.918,0.425,-0.752,1.0
35.783,0.753,-0.352,1.0
30.131,0.627,-0.455,0.0
27.878,0.573,-0.569,0.0
26.084,0.529,-0.673,1.0
22.812,0.456,-0.709,0.0
0.0,0.0,0.0,0.0
39.283,0.765,-0.332,0.0
31.774,0.611,-0.436,0.0
30.435,0.577,-0.579,0.0
26.962,0.504,-0.658,2.0
23.137,0.427,-0.687,0.0
20.93,0.381,-0.732,1.0
40.753,0.73,-0.286,1.0
33.531,0.592,-0.412,0.0
28.879,0.503,-0.508,0.0
27.515,0.472,-0.631,1.0
24.605,0.416,-0.694,1.0
21.783,0.362,-0.73,0.0
44.401,0.727,-0.248,2.0
19.719,0.318,-0.214,0.0
19.685,0.312,-0.317,2.0
19.693,0.308,-0.423,1.0
25.274,0.388,-0.676,1.0
22.315,0.338,-0.715,0.0
19.726,0.293,-0.081,2.0
19.676,0.287,-0.184,12.0
19.655,0.282,-0.287,15.0
19.654,0.277,-0.393,15.0
19.68,0.273,-0.497,15.0
19.686,0.268,-0.601,12.0
19.678,0.263,-0.051,7.0
19.653,0.258,-0.154,15.0
19.643,0.253,-0.258,17.0
19.633,0.248,-0.363,16.0
19.668,0.244,-0.467,21.0
19.664,0.239,-0.57,17.0
19.666,0.234,-0.021,9.0
19.632,0.229,-0.124,17.0
19.639,0.225,-0.227,17.0
19.637,0.22,-0.332,14.0
19.671,0.216,-0.436,23.0
19.675,0.211,-0.54,17.0
19.663,0.206,0.008,15.0
19.637,0.201,-0.093,16.0
19.643,0.197,-0.197,15.0
19.648,0.192,-0.302,14.0
19.661,0.187,-0.405,16.0
19.672,0.183,-0.508,9.0
19.644,0.178,0.04,16.0
19.646,0.173,-0.062,12.0
19.646,0.169,-0.165,13.0
19.69,0.165,-0.27,2.0
30.606,0.249,-0.581,0.0
19.65,0.151,0.072,14.0
19.64,0.146,-0.03,14.0
19.665,0.142,-0.133,9.0
44.407,0.311,-0.538,0.0
32.11,0.217,-0.557,0.0
28.161,0.184,-0.635,0.0
19.652,0.124,0.104,15.0
19.653,0.119,0.001,12.0
19.701,0.115,-0.101,2.0
40.999,0.232,-0.429,0.0
19.726,0.107,-0.309,0.0
19.76,0.103,-0.413,0.0
19.685,0.098,0.137,13.0
19.729,0.094,0.034,17.0
19.756,0.089,-0.068,17.0
19.766,0.085,-0.173,32.0
19.772,0.081,-0.277,40.0
19.778,0.077,-0.38,52.0
19.668,0.072,0.17,12.0
19.755,0.068,0.068,30.0
19.746,0.064,-0.034,51.0
19.77,0.06,-0.14,27.0
19.765,0.056,-0.243,13.0
19.771,0.051,-0.346,14.0
19.65,0.047,0.204,14.0
19.761,0.043,0.102,11.0
19.742,0.039,0.0,17.0
19.757,0.035,-0.105,6.0
19.773,0.031,-0.208,2.0
19.78,0.027,-0.311,2.0
19.633,0.022,0.238,17.0
19.786,0.018,0.137,1.0
19.766,0.014,0.034,5.0
19.755,0.01,-0.07,2.0
19.796,0.006,-0.174,0.0
0.0,0.0,0.0,0.0
19.638,-0.001,0.272,13.0
19.681,-0.005,0.171,7.0
19.693,-0.009,0.068,13.0
19.704,-0.012,-0.035,13.0
19.746,-0.016,-0.138,12.0
19.752,-0.02,-0.241,2.0
19.636,-0.024,0.308,11.0
19.643,-0.028,0.206,15.0
19.698,-0.032,0.104,16.0
19.681,-0.035,0.0,17.0
19.726,-0.039,-0.102,14.0
19.739,-0.043,-0.205,15.0
19.652,-0.047,0.343,10.0
19.652,-0.05,0.241,12.0
19.687,-0.054,0.139,16.0
19.696,-0.058,0.035,15.0
19.717,-0.062,-0.066,14.0
19.725,-0.065,-0.169,16.0
19.65,-0.069,0.379,10.0
19.663,-0.072,0.277,10.0
19.706,-0.076,0.175,13.0
19.707,-0.08,0.071,13.0
19.716,-0.083,-0.031,15.0
19.722,-0.087,-0.133,17.0
19.661,-0.09,0.415,9.0
19.693,-0.094,0.314,8.0
19.709,-0.097,0.211,12.0
19.736,-0.101,0.107,10.0
19.723,-0.104,0.005,11.0
19.714,-0.108,-0.096,15.0
19.684,-0.111,0.452,7.0
19.71,-0.115,0.351,1.0
19.725,-0.118,0.249,1.0
19.746,-0.122,0.145,0.0
19.764,-0.125,0.043,5.0
19.777,-0.129,-0.059,9.0
19.792,-0.132,0.492,4.0
177.267,-1.217,3.49,22.0
169.298,-1.188,2.454,14.0
165.346,-1.188,1.524,14.0
0.0,0.0,0.0,0.0
19.765,-0.148,-0.022,0.0
19.759,-0.151,0.528,7.0
19.774,-0.155,0.426,3.0
0.0,0.0,0.0,0.0
169.573,-1.384,1.886,13.0
160.723,-1.337,0.958,13.0
0.0,0.0,0.0,0.0
19.754,-0.17,0.566,8.0
19.755,-0.173,0.464,8.0
19.761,-0.176,0.362,3.0
169.288,-1.542,2.21,10.0
160.837,-1.488,1.266,5.0
0.0,0.0,0.0,0.0
19.754,-0.189,0.604,9.0
19.752,-0.191,0.501,12.0
19.742,-0.194,0.399,9.0
19.753,-0.197,0.295,5.0
19.761,-0.2,0.194,0.0
0.0,0.0,0.0,0.0
19.772,-0.206,0.643,2.0
19.766,-0.209,0.54,8.0
19.741,-0.212,0.438,9.0
19.735,-0.214,0.334,9.0
19.753,-0.217,0.232,7.0
19.752,-0.22,0.13,1.0
185.866,-2.104,6.411,17.0
19.794,-0.226,0.58,2.0
19.76,-0.228,0.477,7.0
19.747,-0.231,0.373,9.0
19.742,-0.233,0.27,11.0
19.757,-0.236,0.169,23.0
185.881,-2.257,6.777,19.0
162.609,-1.994,5.087,57.0
19.772,-0.245,0.516,0.0
19.773,-0.247,0.412,4.0
19.747,-0.249,0.31,8.0
19.747,-0.252,0.208,27.0
185.941,-2.403,7.146,18.0
162.578,-2.12,5.409,25.0
163.25,-2.149,4.588,46.0
185.097,-2.456,4.226,4.0
19.781,-0.264,0.349,2.0
19.754,-0.266,0.247,8.0
192.474,-2.631,7.78,14.0
191.854,-2.643,6.763,19.0
163.141,-2.266,4.909,20.0
163.322,-2.286,4.054,12.0
0.0,0.0,0.0,0.0
19.788,-0.281,0.287,1.0
192.931,-2.774,8.183,22.0
191.871,-2.777,7.144,22.0
162.594,-2.37,5.215,50.0
163.373,-2.398,4.381,23.0
0.0,0.0,0.0,0.0
169.741,-2.525,2.798,8.0
193.199,-2.906,8.578,20.0
191.665,-2.901,7.518,18.0
191.201,-2.912,6.512,10.0
163.219,-2.501,4.701,17.0
171.69,-2.647,4.058,3.0
173.536,-2.692,3.209,9.0
0.0,0.0,0.0,0.0
192.849,-3.039,7.951,21.0
191.488,-3.035,6.904,18.0
162.594,-2.591,5.008,44.0
163.321,-2.616,4.187,6.0
0.0,0.0,0.0,0.0
189.997,-3.091,9.199,8.0
190.036,-3.106,8.216,13.0
190.021,-3.121,7.233,18.0
162.582,-2.683,5.334,42.0
163.2,-2.705,4.51,23.0
171.314,-2.853,3.852,3.0
190.019,-3.196,9.578,25.0
189.984,-3.208,8.591,19.0
190.116,-3.224,7.616,20.0
190.113,-3.238,6.616,22.0
163.01,-2.788,4.831,6.0
163.455,-2.806,4.001,6.0
0.0,0.0,0.0,0.0
192.538,-3.35,9.095,7.0
191.982,-3.351,8.074,17.0
191.03,-3.347,7.03,19.0
162.601,-2.86,5.144,22.0
163.354,-2.882,4.325,29.0
0.0,0.0,0.0,0.0
0.0,0.0,0.0,0.0
192.013,-3.44,8.459,21.0
191.976,-3.45,7.448,6.0
190.679,-3.438,6.413,9.0
163.413,-2.956,4.654,34.0
0.0,0.0,0.0,0.0
0.0,0.0,0.0,0.0
192.366,-3.529,8.863,15.0
190.473,-3.504,7.774,11.0
190.44,-3.511,6.789,22.0
162.683,-3.007,4.961,23.0
0.0,0.0,0.0,0.0
0.0,0.0,0.0,0.0
0.0,0.0,0.0,0.0
191.218,-3.589,8.188,18.0
190.375,-3.581,7.167,23.0
162.584,-3.064,5.282,30.0
0.0,0.0,0.0,0.0
0.0,0.0,0.0,0.0
0.0,0.0,0.0,0.0
191.504,-3.659,8.585,23.0
190.317,-3.642,7.548,21.0
190.422,-3.65,6.571,19.0
0.0,0.0,0.0,0.0
0.0,0.0,0.0,0.0
0.0,0.0,0.0,0.0
192.825,-3.742,9.03,15.0
190.291,-3.698,7.926,23.0
190.191,-3.699,6.94,22.0
0.0,0.0,0.0,0.0
0.0,0.0,0.0,0.0
0.0,0.0,0.0,0.0
0.0,0.0,0.0,0.0
191.413,-3.767,8.356,18.0
190.411,-3.75,7.33,20.0
0.0,0.0,0.0,0.0
0.0,0.0,0.0,0.0
0.0,0.0,0.0,0.0
0.0,0.0,0.0,0.0
191.861,-3.816,8.754,16.0
190.291,-3.787,7.698,23.0
0.0,0.0,0.0,0.0
0.0,0.0,0.0,0.0
0.0,0.0,0.0,0.0
0.0,0.0,0.0,0.0
192.771,-3.867,9.172,15.0
190.424,-3.821,8.075,22.0
0.0,0.0,0.0,0.0
0.0,0.0,0.0,0.0
125.087,-2.527,7.507,9.0
0.0,0.0,0.0,0.0
0.0,0.0,0.0,0.0
191.423,-3.864,8.493,22.0
0.0,0.0,0.0,0.0
0.0,0.0,0.0,0.0
0.0,0.0,0.0,0.0
0.0,0.0,0.0,0.0
0.0,0.0,0.0,0.0
192.319,-3.899,8.904,20.0
0.0,0.0,0.0,0.0
0.0,0.0,0.0,0.0
0.0,0.0,0.0,0.0
0.0,0.0,0.0,0.0
0.0,0.0,0.0,0.0
192.837,-3.919,9.301,15.0
0.0,0.0,0.0,0.0
0.0,0.0,0.0,0.0
0.0,0.0,0.0,0.0
124.992,-2.549,7.568,12.0
0.0,0.0,0.0,0.0
0.0,0.0,0.0,0.0
134.409,5.165,6.623,15.0
120.319,4.6,5.235,12.0
178.674,6.795,6.741,16.0
0.0,0.0,0.0,0.0
42.693,1.607,1.114,75.0
43.235,1.619,0.879,71.0
134.344,5.008,6.397,21.0
120.146,4.454,5.028,19.0
120.643,4.448,4.351,14.0
163.462,5.994,4.938,12.0
44.469,1.622,1.087,80.0
44.976,1.632,0.841,50.0
120.135,4.335,5.522,20.0
120.258,4.316,4.835,16.0
120.681,4.306,4.157,21.0
163.343,5.796,4.669,6.0
162.448,5.731,3.709,3.0
162.202,5.689,2.769,11.0
119.988,4.183,5.32,17.0
120.184,4.166,4.636,15.0
120.939,4.166,3.968,18.0
121.362,4.155,3.27,12.0
162.433,5.526,3.442,4.0
70.874,2.396,1.093,8.0
120.017,4.033,5.126,14.0
40.093,1.338,1.481,2.0
40.106,1.33,1.25,31.0
40.109,1.321,1.016,150.0
40.123,1.313,0.785,150.0
40.112,1.304,0.554,150.0
40.124,1.295,1.649,116.0
40.118,1.287,1.418,147.0
40.114,1.278,1.186,150.0
40.115,1.269,0.952,150.0
40.12,1.26,0.721,150.0
40.122,1.252,0.491,129.0
40.119,1.242,1.585,135.0
40.116,1.233,1.354,139.0
40.109,1.224,1.123,150.0
40.12,1.215,0.889,150.0
40.119,1.206,0.658,150.0
40.122,1.198,0.428,114.0
40.115,1.187,1.522,139.0
40.116,1.178,1.291,134.0
40.106,1.169,1.061,150.0
40.111,1.16,0.826,139.0
0.0,0.0,0.0,0.0
0.0,0.0,0.0,0.0
0.0,0.0,0.0,0.0
0.0,0.0,0.0,0.0
41.915,1.162,1.044,150.0
41.919,1.153,0.799,126.0
0.0,0.0,0.0,0.0
0.0,0.0,0.0,0.0
0.0,0.0,0.0,0.0
43.703,1.16,1.273,66.0
0.0,0.0,0.0,0.0
0.0,0.0,0.0,0.0
45.488,1.174,0.537,19.0
70.678,1.808,0.429,20.0
45.512,1.152,1.518,1.0
134.81,3.379,3.724,12.0
99.69,2.476,2.183,18.0
98.911,2.432,1.588,22.0
70.914,1.726,0.731,27.0
71.004,1.71,0.325,6.0
135.403,3.225,4.316,9.0
98.661,2.325,2.579,92.0
179.142,4.178,3.656,28.0
128.617,2.968,1.875,26.0
70.878,1.618,0.627,8.0
78.214,1.767,0.244,1.0
134.885,3.008,4.103,22.0
135.34,2.984,3.341,4.0
179.291,3.906,3.398,19.0
128.67,2.771,1.689,20.0
113.427,2.415,0.84,18.0
65.345,1.374,0.109,0.0
134.761,2.797,3.907,14.0
179.284,3.674,4.17,8.0
179.362,3.63,3.145,7.0
162.839,3.254,1.907,26.0
113.022,2.229,0.676,6.0
55.201,1.074,0.014,23.0
55.207,1.057,1.522,14.0
55.196,1.043,1.205,37.0
55.171,1.028,0.889,52.0
55.155,1.013,0.568,66.0
55.163,0.998,0.252,68.0
55.116,0.983,-0.063,9.0
55.191,0.968,1.445,73.0
55.176,0.953,1.128,53.0
55.18,0.938,0.813,45.0
55.189,0.924,0.492,29.0
55.179,0.909,0.176,4.0
52.416,0.849,-0.131,3.0
83.412,-8.493,0.777,3.0
100.367,-10.246,0.393,6.0
0.0,0.0,0.0,0.0
46.692,-4.791,-0.324,0.0
0.0,0.0,0.0,0.0
0.0,0.0,0.0,0.0
86.265,-8.898,0.878,18.0
86.218,-8.915,0.412,6.0
0.0,0.0,0.0,0.0
0.0,0.0,0.0,0.0
40.384,-4.206,-0.462,0.0
0.0,0.0,0.0,0.0
86.085,-8.989,0.95,6.0
83.91,-8.781,0.475,1.0
0.0,0.0,0.0,0.0
0.0,0.0,0.0,0.0
0.0,0.0,0.0,0.0
34.43,-3.638,-0.549,0.0
84.988,-8.98,1.016,2.0
84.609,-8.961,0.556,2.0
0.0,0.0,0.0,0.0
51.469,-5.475,-0.22,0.0
42.113,-4.49,-0.406,0.0
0.0,0.0,0.0,0.0
83.384,-8.911,1.073,16.0
83.358,-8.927,0.625,66.0
83.353,-8.946,0.177,43.0
0.0,0.0,0.0,0.0
0.0,0.0,0.0,0.0
37.107,-4.009,-0.522,0.0
83.181,-8.987,1.15,25.0
83.174,-9.005,0.703,34.0
83.473,-9.056,0.256,13.0
0.0,0.0,0.0,0.0
0.0,0.0,0.0,0.0
37.9,-4.138,-0.497,0.0
83.367,-9.102,1.233,16.0
83.378,-9.121,0.786,41.0
83.493,-9.151,0.339,9.0
0.0,0.0,0.0,0.0
0.0,0.0,0.0,0.0
0.0,0.0,0.0,0.0
83.376,-9.194,1.315,23.0
83.36,-9.209,0.867,12.0
83.361,-9.226,0.421,10.0
0.0,0.0,0.0,0.0
0.0,0.0,0.0,0.0
39.512,-4.398,-0.44,0.0
83.379,-9.282,1.399,15.0
83.362,-9.296,0.951,18.0
83.381,-9.314,0.505,14.0
83.396,-9.333,0.05,0.0
0.0,0.0,0.0,0.0
41.836,-4.7,-0.423,0.0
83.377,-9.366,1.486,24.0
83.386,-9.382,1.038,16.0
83.365,-9.396,0.592,20.0
0.0,0.0,0.0,0.0
0.0,0.0,0.0,0.0
0.0,0.0,0.0,0.0
83.409,-9.45,1.572,150.0
83.371,-9.46,1.125,47.0
83.385,-9.478,0.679,150.0
86.474,-9.845,0.232,3.0
0.0,0.0,0.0,0.0
0.0,0.0,0.0,0.0
83.381,-9.525,1.661,38.0
83.37,-9.538,1.214,44.0
83.349,-9.549,0.767,17.0
83.512,-9.583,0.312,4.0
0.0,0.0,0.0,0.0
0.0,0.0,0.0,0.0
83.361,-9.596,1.75,36.0
83.384,-9.612,1.303,27.0
83.395,-9.627,0.857,57.0
83.38,-9.639,0.403,12.0
0.0,0.0,0.0,0.0
0.0,0.0,0.0,0.0
83.337,-9.663,1.84,51.0
83.369,-9.68,1.393,22.0
83.383,-9.694,0.947,83.0
83.375,-9.706,0.493,52.0
77.689,-9.057,0.044,4.0
0.0,0.0,0.0,0.0
83.314,-9.727,1.93,42.0
83.361,-9.744,1.485,29.0
83.375,-9.758,1.038,47.0
83.355,-9.768,0.585,27.0
77.737,-9.121,0.129,5.0
0.0,0.0,0.0,0.0
83.298,-9.788,2.022,37.0
83.381,-9.809,1.578,14.0
83.362,-9.818,1.132,28.0
83.376,-9.831,0.678,11.0
76.409,-9.02,0.213,0.0
0.0,0.0,0.0,0.0
83.317,-9.85,2.117,27.0
83.378,-9.867,1.672,18.0
83.37,-9.876,1.226,30.0
83.368,-9.887,0.772,15.0
83.368,-9.899,0.326,5.0
0.0,0.0,0.0,0.0
116.297,-13.826,3.085,29.0
83.336,-9.917,1.765,31.0
83.359,-9.929,1.32,21.0
83.39,-9.943,0.867,31.0
83.368,-9.951,0.42,28.0
0.0,0.0,0.0,0.0
116.278,-13.896,3.219,37.0
83.357,-9.971,1.862,125.0
83.371,-9.981,1.417,26.0
83.366,-9.989,0.963,61.0
83.402,-10.003,0.517,45.0
76.044,-9.13,0.065,2.0
116.289,-13.965,3.353,33.0
83.299,-10.011,1.956,49.0
83.365,-10.027,1.512,23.0
83.37,-10.036,1.058,39.0
83.361,-10.043,0.613,51.0
75.66,-9.124,0.152,8.0
116.287,-14.026,3.487,18.0
83.277,-10.051,2.051,33.0
83.352,-10.068,1.608,14.0
83.356,-10.075,1.154,19.0
83.385,-10.087,0.709,51.0
75.958,-9.196,0.24,6.0
147.882,-17.91,4.605,19.0
116.322,-14.095,3.002,17.0
83.368,-10.109,1.706,24.0
83.384,-10.117,1.251,18.0
83.357,-10.121,0.806,20.0
83.333,-10.125,0.361,3.0
147.925,-17.98,4.779,19.0
116.294,-14.142,3.137,36.0
83.328,-10.138,1.801,30.0
83.342,-10.146,1.347,16.0
83.367,-10.155,0.903,10.0
83.346,-10.159,0.458,11.0
147.979,-18.045,4.955,19.0
116.253,-14.181,3.272,34.0
83.271,-10.163,1.898,41.0
83.372,-10.18,1.446,34.0
83.381,-10.187,1.001,13.0
83.36,-10.19,0.556,17.0
148.021,-18.102,5.132,18.0
116.286,-14.225,3.409,24.0
83.273,-10.191,1.996,40.0
83.376,-10.208,1.545,150.0
83.36,-10.21,1.099,24.0
83.352,-10.214,0.654,15.0
95.445,-11.701,3.422,17.0
147.999,-18.149,4.513,18.0
83.312,-10.219,2.096,12.0
83.393,-10.232,1.644,137.0
83.4,-10.237,1.198,41.0
83.35,-10.234,0.752,14.0
95.482,-11.73,3.536,15.0
147.99,-18.184,4.687,22.0
116.277,-14.29,3.062,32.0
83.366,-10.247,1.741,90.0
83.372,-10.251,1.295,68.0
83.368,-10.253,0.85,13.0
148.423,-18.265,5.671,6.0
147.894,-18.201,4.859,21.0
116.294,-14.314,3.199,55.0
83.355,-10.261,1.839,64.0
83.389,-10.267,1.393,50.0
83.372,-10.268,0.947,23.0
151.137,-18.623,5.952,11.0
147.978,-18.234,5.035,20.0
116.275,-14.328,3.335,33.0
83.262,-10.261,1.933,35.0
83.388,-10.277,1.491,36.0
83.376,-10.277,1.046,24.0
95.444,-11.772,3.871,8.0
95.628,-11.794,3.367,14.0
116.227,-14.333,3.47,14.0
83.255,-10.267,2.032,23.0
83.386,-10.284,1.588,48.0
83.364,-10.281,1.143,13.0
94.651,-11.681,3.95,8.0
95.611,-11.797,3.478,16.0
147.981,-18.257,4.591,18.0
86.225,-10.637,2.204,10.0
83.361,-10.283,1.686,62.0
83.377,-10.285,1.239,38.0
94.425,-11.655,4.05,15.0
95.437,-11.777,3.582,6.0
147.959,-18.255,4.76,19.0
116.272,-14.343,3.106,32.0
83.364,-10.282,1.782,65.0
83.373,-10.282,1.336,48.0
94.108,-11.614,4.145,17.0
151.172,-18.651,5.847,9.0
148.0,-18.253,4.933,21.0
116.264,-14.335,3.242,40.0
83.293,-10.267,1.877,41.0
83.371,-10.275,1.433,32.0
94.092,-11.605,4.255,20.0
95.542,-11.779,3.807,5.0
95.674,-11.791,3.3,7.0
116.239,-14.321,3.374,27.0
83.263,-10.255,1.971,32.0
83.391,-10.268,1.527,35.0
93.893,-11.57,4.352,21.0
95.238,-11.73,3.905,5.0
95.541,-11.762,3.405,16.0
116.272,-14.308,3.507,10.0
83.312,-10.248,2.067,13.0
83.385,-10.253,1.621,81.0
93.993,-11.567,4.463,18.0
94.322,-11.601,3.973,7.0
95.469,-11.736,3.507,13.0
147.899,-18.172,4.626,21.0
116.258,-14.277,3.014,22.0
83.374,-10.234,1.715,69.0
94.136,-11.565,4.576,18.0
94.238,-11.57,4.074,15.0
148.325,-18.2,5.617,9.0
147.853,-18.131,4.789,27.0
116.275,-14.251,3.143,41.0
83.318,-10.206,1.805,37.0
94.142,-11.542,4.681,16.0
94.123,-11.532,4.174,20.0
148.294,-18.156,5.779,11.0
147.937,-18.1,4.956,22.0
116.27,-14.216,3.271,35.0
83.263,-10.174,1.896,38.0
94.341,-11.538,4.795,18.0
93.878,-11.472,4.267,20.0
0.0,0.0,0.0,0.0
148.064,-18.066,5.123,17.0
116.255,-14.175,3.398,23.0
83.269,-10.146,1.986,33.0
94.347,-11.507,4.898,18.0
94.001,-11.454,4.374,20.0
152.273,-18.539,6.266,4.0
148.255,-18.035,5.287,18.0
147.931,-17.982,4.479,14.0
83.295,-10.117,2.076,16.0
94.45,-11.483,5.004,6.0
94.004,-11.417,4.474,18.0
94.446,-11.46,3.986,15.0
148.458,-17.998,5.452,18.0
147.924,-17.918,4.635,23.0
116.297,-14.075,3.02,32.0
0.0,0.0,0.0,0.0
94.046,-11.382,4.573,19.0
94.4,-11.413,4.083,14.0
148.313,-17.913,5.601,19.0
148.167,-17.878,4.798,21.0
116.307,-14.02,3.141,36.0
0.0,0.0,0.0,0.0
94.188,-11.353,4.68,20.0
94.362,-11.361,4.179,16.0
148.188,-17.823,5.749,26.0
148.343,-17.822,4.957,21.0
116.27,-13.955,3.258,34.0
0.0,0.0,0.0,0.0
94.438,-11.333,4.788,14.0
94.446,-11.32,4.279,11.0
148.23,-17.747,5.9,17.0
148.312,-17.737,5.105,20.0
116.297,-13.893,3.375,24.0
0.0,0.0,0.0,0.0
94.416,-11.277,4.881,17.0
94.596,-11.284,4.38,1.0
148.198,-17.655,6.046,12.0
148.534,-17.675,5.257,21.0
148.215,-17.617,4.447,13.0
0.0,0.0,0.0,0.0
94.464,-11.224,4.976,10.0
94.343,-11.195,4.46,11.0
151.361,-17.936,6.324,4.0
148.617,-17.589,5.405,23.0
148.087,-17.504,4.587,19.0
49.623,-5.872,2.931,1.0
0.0,0.0,0.0,0.0
94.294,-11.126,4.547,17.0
0.0,0.0,0.0,0.0
148.69,-17.497,5.548,26.0
147.959,-17.388,4.72,21.0
49.566,-5.831,2.973,19.0
0.0,0.0,0.0,0.0
94.264,-11.056,4.634,10.0
0.0,0.0,0.0,0.0
148.5,-17.367,5.679,26.0
147.972,-17.281,4.858,27.0
49.437,-5.78,3.012,22.0
0.0,0.0,0.0,0.0
107.999,-12.587,5.408,4.0
0.0,0.0,0.0,0.0
148.272,-17.227,5.802,23.0
148.117,-17.184,4.995,25.0
49.519,-5.751,3.061,17.0
0.0,0.0,0.0,0.0
107.997,-12.501,5.503,14.0
0.0,0.0,0.0,0.0
148.279,-17.109,5.934,19.0
148.455,-17.102,5.137,21.0
49.548,-5.714,3.106,22.0
0.0,0.0,0.0,0.0
108.048,-12.417,5.6,19.0
111.079,-12.743,5.143,12.0
148.399,-16.996,6.066,10.0
148.572,-16.988,5.268,21.0
49.266,-5.64,3.13,4.0
107.574,-12.293,6.249,10.0
108.005,-12.319,5.688,4.0
110.782,-12.613,5.221,15.0
0.0,0.0,0.0,0.0
148.774,-16.88,5.395,22.0
49.052,-5.572,3.157,21.0
107.597,-12.199,6.338,16.0
0.0,0.0,0.0,0.0
108.9,-12.3,5.22,22.0
0.0,0.0,0.0,0.0
148.927,-16.759,5.52,20.0
49.028,-5.524,3.194,10.0
49.114,-5.522,2.932,12.0
0.0,0.0,0.0,0.0
108.703,-12.174,5.294,23.0
110.75,-12.38,4.79,8.0
148.672,-16.586,5.625,23.0
49.117,-5.486,3.238,4.0
49.1,-5.473,2.969,23.0
49.218,-5.475,2.707,9.0
108.54,-12.049,5.368,20.0
110.425,-12.233,4.859,14.0
148.259,-16.393,5.717,23.0
48.544,-5.373,3.237,13.0
49.103,-5.423,3.005,16.0
49.175,-5.42,2.741,22.0
108.01,-11.88,5.419,18.0
110.61,-12.141,4.946,16.0
148.311,-16.245,5.824,18.0
48.538,-5.322,3.27,34.0
48.549,-5.312,3.005,3.0
49.228,-5.374,2.778,17.0
107.784,-11.741,5.482,20.0
110.57,-12.018,5.021,14.0
111.564,-12.1,4.458,15.0
48.654,-5.283,3.311,22.0
48.598,-5.265,3.041,15.0
49.304,-5.329,2.815,12.0
107.916,-11.638,5.56,16.0
110.699,-11.912,5.098,11.0
111.39,-11.96,4.522,21.0
49.234,-5.292,3.382,16.0
48.491,-5.199,3.065,36.0
49.355,-5.28,2.849,15.0
107.933,-11.52,5.628,15.0
110.636,-11.78,5.164,13.0
111.37,-11.832,4.589,20.0
49.21,-5.234,3.411,20.0
48.5,-5.145,3.095,39.0
49.323,-5.22,2.877,13.0
108.039,-11.405,5.699,21.0
113.81,-11.986,5.378,7.0
110.19,-11.578,4.605,16.0
49.385,-5.194,3.452,16.0
48.548,-5.093,3.126,22.0
107.924,-11.294,6.357,23.0
107.91,-11.264,5.753,22.0
109.362,-11.387,5.23,11.0
111.075,-11.536,4.703,20.0
49.313,-5.127,3.474,33.0
109.642,-11.37,7.121,13.0
107.418,-11.11,6.385,20.0
108.025,-11.143,5.816,20.0
109.169,-11.232,5.279,20.0
110.632,-11.354,4.743,10.0
49.478,-5.083,3.511,26.0
107.3,-10.993,7.023,14.0
107.531,-10.986,6.447,20.0
108.519,-11.057,5.898,22.0
108.862,-11.063,5.317,23.0
110.754,-11.226,4.801,18.0
49.396,-5.012,3.529,24.0
107.721,-10.899,7.103,17.0
107.983,-10.895,6.524,20.0
108.196,-10.886,5.93,26.0
108.109,-10.848,5.33,22.0
109.002,-10.909,4.773,15.0
49.515,-4.96,3.56,35.0
108.236,-10.811,7.184,17.0
108.541,-10.81,6.604,19.0
108.04,-10.731,5.967,22.0
108.114,-10.708,5.375,15.0
108.803,-10.747,4.81,33.0
49.687,-4.912,3.593,30.0
108.022,-10.647,7.213,19.0
108.152,-10.628,6.624,16.0
108.822,-10.663,6.053,19.0
108.037,-10.555,5.413,22.0
108.833,-10.603,4.852,18.0
49.738,-4.85,3.615,34.0
106.736,-10.376,7.167,15.0
110.396,-10.699,6.801,18.0
108.785,-10.511,6.089,19.0
108.02,-10.406,5.45,26.0
109.571,-10.525,4.923,18.0
106.546,-10.243,7.781,21.0
107.007,-10.256,7.22,10.0
110.461,-10.554,6.84,19.0
108.769,-10.361,6.123,30.0
108.005,-10.257,5.482,24.0
108.363,-10.259,4.901,18.0
106.764,-10.116,7.829,14.0
106.689,-10.077,7.23,24.0
110.126,-10.369,6.852,15.0
108.597,-10.193,6.143,23.0
108.112,-10.115,5.517,19.0
107.843,-10.059,4.907,24.0
106.229,-9.915,7.817,24.0
107.018,-9.955,7.28,24.0
109.546,-10.156,6.843,11.0
108.639,-10.04,6.173,24.0
108.536,-9.998,5.565,21.0
107.961,-9.914,4.937,23.0
106.096,-9.748,7.832,22.0
109.469,-10.024,7.471,6.0
107.695,-9.828,6.75,16.0
108.95,-9.909,6.212,24.0
108.814,-9.864,5.601,23.0
108.185,-9.775,4.969,23.0
106.249,-9.606,7.862,8.0
106.84,-9.625,7.31,18.0
109.841,-9.861,6.905,19.0
108.941,-9.746,6.231,18.0
108.969,-9.715,5.627,22.0
107.699,-9.569,4.963,23.0
108.882,-9.678,8.074,12.0
106.787,-9.459,7.323,22.0
106.522,-9.402,6.71,9.0
109.034,-9.591,6.25,9.0
107.28,-9.403,5.552,11.0
107.604,-9.398,4.971,24.0
109.665,-9.582,8.144,18.0
107.009,-9.315,7.348,21.0
109.363,-9.486,6.9,22.0
105.314,-9.102,6.046,14.0
107.074,-9.222,5.551,20.0
107.795,-9.252,4.988,24.0
109.384,-9.391,8.13,6.0
107.052,-9.157,7.358,11.0
109.403,-9.323,6.908,7.0
109.299,-9.279,6.28,11.0
107.061,-9.056,5.554,28.0
107.91,-9.094,4.997,27.0
111.455,-9.395,8.288,10.0
104.797,-8.799,7.205,17.0
105.496,-8.825,6.662,21.0
109.265,-9.105,6.28,18.0
107.075,-8.888,5.556,30.0
107.688,-8.907,4.986,23.0
108.023,-8.936,8.032,18.0
104.556,-8.615,7.187,14.0
105.18,-8.633,6.64,24.0
109.167,-8.925,6.269,21.0
107.174,-8.729,5.556,29.0
107.506,-8.722,4.973,30.0
107.679,-8.736,8.0,19.0
104.687,-8.458,7.189,11.0
105.296,-8.473,6.641,23.0
108.78,-8.719,6.24,12.0
107.611,-8.591,5.57,18.0
107.845,-8.577,4.98,20.0
106.33,-8.457,7.89,17.0
104.828,-8.302,7.189,24.0
106.549,-8.404,6.709,18.0
107.952,-8.481,6.18,18.0
108.514,-8.489,5.604,23.0
108.421,-8.449,4.993,15.0
106.298,-8.282,7.873,19.0
111.268,-8.632,7.615,3.0
106.314,-8.214,6.679,23.0
108.468,-8.345,6.193,18.0
108.118,-8.283,5.567,19.0
108.643,-8.289,4.984,19.0
106.283,-8.106,7.853,19.0
105.684,-8.025,7.214,14.0
107.63,-8.138,6.74,20.0
108.137,-8.142,6.153,20.0
107.894,-8.089,5.534,25.0
109.015,-8.138,4.979,15.0
106.083,-7.917,7.815,17.0
105.21,-7.816,7.157,24.0
107.741,-7.969,6.722,14.0
107.917,-7.947,6.115,24.0
107.763,-7.901,5.5,26.0
109.157,-7.97,4.957,14.0
104.908,-7.655,7.702,22.0
105.364,-7.653,7.14,16.0
108.814,-7.868,6.759,16.0
107.396,-7.73,6.055,27.0
107.777,-7.723,5.47,29.0
108.473,-7.739,4.895,20.0
105.072,-7.491,7.681,21.0
109.698,-7.785,7.4,14.0
107.594,-7.6,6.65,18.0
107.287,-7.544,6.014,26.0
107.66,-7.536,5.428,26.0
108.246,-7.542,4.849,26.0
105.059,-7.315,7.644,21.0
107.487,-7.449,7.212,18.0
106.802,-7.366,6.563,25.0
107.133,-7.355,5.967,20.0
107.397,-7.338,5.376,14.0
107.94,-7.341,4.795,31.0
108.668,-7.384,7.865,21.0
108.078,-7.307,7.21,22.0
107.005,-7.201,6.533,26.0
107.019,-7.168,5.918,24.0
107.382,-7.157,5.331,24.0
108.097,-7.172,4.758,31.0
107.186,-7.104,7.712,21.0
107.765,-7.107,7.143,24.0
107.374,-7.047,6.509,16.0
106.864,-6.98,5.862,21.0
107.43,-6.982,5.286,28.0
108.01,-6.986,4.705,38.0
107.275,-6.928,7.668,17.0
107.599,-6.915,7.08,24.0
107.853,-6.895,6.486,18.0
107.263,-6.823,5.832,22.0
107.664,-6.814,5.244,27.0
107.957,-6.798,4.648,32.0
107.083,-6.733,7.599,23.0
107.657,-6.734,7.029,24.0
108.089,-6.726,6.443,29.0
107.126,-6.633,5.768,30.0
107.212,-6.605,5.165,25.0
108.181,-6.632,4.599,31.0
107.52,-6.58,7.572,23.0
108.104,-6.579,6.998,25.0
107.887,-6.532,6.37,27.0
107.379,-6.468,5.721,24.0
107.24,-6.425,5.105,34.0
107.754,-6.422,4.518,32.0
107.652,-6.405,7.517,23.0
108.342,-6.41,6.948,24.0
107.436,-6.321,6.279,22.0
107.42,-6.287,5.656,20.0
107.563,-6.262,5.054,20.0
107.729,-6.238,4.451,31.0
108.308,-6.258,7.493,18.0
108.056,-6.209,6.861,18.0
107.625,-6.151,6.22,22.0
107.764,-6.124,5.604,27.0
108.063,-6.108,5.007,28.0
107.575,-6.047,4.373,25.0
112.783,-6.325,7.726,6.0
107.969,-6.021,6.78,22.0
108.077,-5.992,6.172,23.0
108.145,-5.961,5.549,20.0
108.03,-5.922,4.928,25.0
108.884,-5.936,4.35,23.0
108.262,-5.887,7.339,14.0
108.046,-5.84,6.707,17.0
108.146,-5.813,6.097,24.0
108.287,-5.787,5.477,28.0
108.051,-5.74,4.85,26.0
109.306,-5.775,4.285,18.0
108.268,-5.704,7.257,29.0
108.762,-5.695,6.668,24.0
108.087,-5.626,6.01,19.0
108.438,-5.61,5.401,24.0
108.325,-5.571,4.777,23.0
109.531,-5.6,4.207,16.0
111.754,-5.696,7.4,16.0
108.581,-5.501,6.57,17.0
112.327,-5.656,6.154,13.0
109.134,-5.461,5.345,18.0
110.137,-5.478,4.766,9.0
117.554,-5.811,4.418,17.0
112.675,-5.552,7.366,12.0
108.579,-5.317,6.477,23.0
112.415,-5.471,6.064,12.0
114.525,-5.538,5.511,23.0
116.466,-5.597,4.94,19.0
117.131,-5.595,4.301,24.0
112.933,-5.375,7.284,24.0
108.628,-5.136,6.383,9.0
109.321,-5.136,5.799,14.0
114.243,-5.332,5.395,23.0
116.82,-5.417,4.849,21.0
117.295,-5.405,4.199,19.0
119.187,-5.471,7.577,4.0
115.28,-5.257,6.668,13.0
112.87,-5.113,5.881,10.0
117.323,-5.28,5.431,17.0
115.729,-5.174,4.695,27.0
117.299,-5.209,4.088,17.0
115.249,-5.098,7.215,20.0
113.064,-4.966,6.43,19.0
115.544,-5.041,5.908,14.0
117.671,-5.099,5.331,15.0
115.958,-4.99,4.589,19.0
119.564,-5.111,4.05,7.0
114.686,-4.881,7.064,26.0
114.869,-4.853,6.415,26.0
114.972,-4.823,5.761,17.0
116.849,-4.868,5.175,21.0
0.0,0.0,0.0,0.0
124.682,-5.123,4.094,6.0
113.933,-4.659,6.899,24.0
114.758,-4.658,6.289,22.0
114.837,-4.627,5.634,21.0
116.773,-4.671,5.046,25.0
117.535,-4.668,4.406,26.0
124.794,-4.922,3.965,9.0
114.444,-4.491,6.805,22.0
114.608,-4.464,6.157,31.0
114.698,-4.434,5.502,17.0
117.142,-4.495,4.935,20.0
117.447,-4.474,4.274,15.0
138.328,-5.232,4.243,17.0
114.877,-4.321,6.703,25.0
115.02,-4.292,6.049,14.0
115.971,-4.295,5.433,24.0
117.429,-4.316,4.815,22.0
138.355,-5.047,4.879,17.0
140.064,-5.069,4.135,11.0
114.444,-4.118,6.545,26.0
114.343,-4.082,5.881,8.0
117.06,-4.146,5.347,22.0
116.71,-4.1,4.647,8.0
138.34,-4.821,4.713,26.0
163.2,-5.642,4.625,11.0
114.511,-3.935,6.411,19.0
119.867,-4.084,6.019,11.0
117.134,-3.958,5.208,20.0
118.774,-3.982,4.586,13.0
138.525,-4.605,4.552,16.0
163.27,-5.385,4.429,23.0
114.393,-3.749,6.263,26.0
122.275,-3.972,5.99,5.0
117.893,-3.798,5.097,24.0
117.784,-3.763,4.402,20.0
139.816,-4.431,4.423,18.0
163.392,-5.133,4.229,15.0
114.581,-3.575,6.129,20.0
117.246,-3.626,5.595,24.0
116.862,-3.582,4.904,19.0
118.417,-3.597,4.275,25.0
140.237,-4.222,4.254,17.0
163.372,-4.876,4.017,4.0
141.377,-4.189,7.378,10.0
117.245,-3.442,5.442,26.0
139.518,-4.059,5.671,12.0
143.154,-4.128,4.981,18.0
140.681,-4.021,4.085,17.0
168.118,-4.761,3.915,3.0
124.178,-3.488,6.315,19.0
125.17,-3.483,5.643,8.0
119.153,-3.285,4.685,12.0
143.454,-3.917,4.798,20.0
163.267,-4.415,4.519,43.0
168.225,-4.505,3.687,6.0
117.357,-3.117,5.806,24.0
117.433,-3.089,5.133,14.0
139.775,-3.641,5.302,16.0
162.579,-4.193,5.214,30.0
163.332,-4.172,4.296,12.0
170.515,-4.312,3.502,3.0
140.817,-3.529,6.772,7.0
139.998,-3.474,5.923,9.0
140.581,-3.453,5.136,21.0
162.861,-3.96,4.995,14.0
163.432,-3.932,4.069,4.0
170.402,-4.059,3.261,9.0
140.762,-3.32,6.568,16.0
143.299,-3.343,5.857,15.0
140.474,-3.243,4.929,17.0
163.29,-3.729,4.771,21.0
171.799,-3.881,4.028,3.0
170.346,-3.806,3.01,7.0
191.772,-4.24,8.663,15.0
190.096,-4.157,7.49,15.0
162.581,-3.514,5.464,9.0
163.224,-3.489,4.526,25.0
0.0,0.0,0.0,0.0
170.41,-3.561,2.758,3.0
190.506,-3.938,8.322,18.0
190.273,-3.887,7.211,23.0
162.581,-3.282,5.221,79.0
163.369,-3.259,4.284,17.0
170.412,-3.36,3.486,5.0
0.0,0.0,0.0,0.0
190.642,-3.67,8.038,15.0
190.441,-3.622,6.927,21.0
163.178,-3.064,4.989,20.0
163.4,-3.029,4.033,5.0
170.277,-3.118,3.22,13.0
139.181,-2.517,1.828,4.0
190.023,-3.392,7.713,18.0
190.016,-3.349,6.614,30.0
163.274,-2.839,4.736,17.0
171.397,-2.94,3.962,5.0
0.0,0.0,0.0,0.0
139.07,-2.322,1.606,29.0
191.282,-3.151,7.46,21.0
162.589,-2.642,5.398,39.0
163.242,-2.615,4.475,23.0
0.0,0.0,0.0,0.0
163.835,-2.551,2.577,6.0
19.751,-0.303,0.196,14.0
191.92,-2.903,7.174,24.0
162.626,-2.424,5.136,39.0
163.368,-2.398,4.213,17.0
19.766,-0.285,0.393,0.0
19.756,-0.281,0.278,7.0
19.743,-0.277,0.164,34.0
191.759,-2.646,6.852,21.0
163.37,-2.218,4.889,24.0
19.785,-0.264,0.477,2.0
19.746,-0.259,0.36,8.0
19.744,-0.255,0.245,13.0
19.744,-0.251,0.131,10.0
162.587,-2.034,5.539,19.0
19.789,-0.243,0.559,3.0
19.751,-0.238,0.443,8.0
19.739,-0.234,0.326,10.0
19.761,-0.23,0.212,6.0
0.0,0.0,0.0,0.0
19.778,-0.222,0.639,5.0
19.754,-0.217,0.524,9.0
19.739,-0.213,0.409,9.0
19.751,-0.209,0.293,2.0
164.127,-1.705,1.482,4.0
0.0,0.0,0.0,0.0
19.755,-0.197,0.604,10.0
19.748,-0.192,0.489,9.0
19.774,-0.189,0.375,2.0
169.516,-1.585,2.216,21.0
160.68,-1.47,1.169,16.0
0.0,0.0,0.0,0.0
19.762,-0.172,0.569,7.0
19.764,-0.169,0.455,3.0
177.073,-1.478,3.049,12.0
169.704,-1.382,1.919,5.0
160.694,-1.277,0.883,9.0
19.767,-0.153,-0.005,5.0
19.78,-0.149,0.535,6.0
177.184,-1.303,3.763,18.0
19.63,-0.14,0.303,0.0
19.744,-0.137,0.188,5.0
19.75,-0.133,0.073,7.0
19.745,-0.13,-0.041,9.0
19.677,-0.125,0.497,8.0
19.677,-0.122,0.382,6.0
19.7,-0.118,0.268,6.0
19.723,-0.115,0.152,13.0
19.719,-0.111,0.037,12.0
19.726,-0.107,-0.076,11.0
19.659,-0.103,0.46,10.0
19.663,-0.1,0.346,9.0
19.688,-0.096,0.232,13.0
19.692,-0.093,0.116,14.0
19.703,-0.089,0.001,16.0
19.723,-0.086,-0.113,16.0
19.641,-0.082,0.424,10.0
19.653,-0.078,0.309,9.0
19.698,-0.075,0.196,15.0
19.692,-0.071,0.079,14.0
19.708,-0.068,-0.034,17.0
19.724,-0.065,-0.149,15.0
19.64,-0.061,0.387,10.0
19.643,-0.057,0.273,10.0
19.692,-0.054,0.159,14.0
19.685,-0.051,0.043,16.0
19.726,-0.047,-0.071,12.0
19.756,-0.044,-0.186,13.0
19.631,-0.04,0.35,11.0
19.641,-0.037,0.236,14.0
19.684,-0.034,0.122,10.0
19.705,-0.031,0.005,14.0
19.744,-0.028,-0.109,9.0
19.786,-0.024,-0.224,0.0
19.636,-0.021,0.313,14.0
19.644,-0.018,0.199,12.0
19.714,-0.015,0.085,5.0
19.737,-0.011,-0.031,10.0
19.755,-0.008,-0.146,0.0
36.33,-0.01,-0.481,0.0
19.632,-0.002,0.275,13.0
19.788,0.0,0.162,2.0
19.777,0.003,0.047,3.0
19.779,0.006,-0.069,10.0
19.791,0.009,-0.185,1.0
19.776,0.013,-0.3,3.0
19.634,0.015,0.237,17.0
19.74,0.019,0.123,15.0
19.745,0.022,0.008,17.0
19.752,0.025,-0.108,7.0
19.754,0.028,-0.223,16.0
19.774,0.031,-0.338,13.0
19.694,0.033,0.199,13.0
19.761,0.036,0.085,17.0
19.755,0.039,-0.03,59.0
19.768,0.042,-0.147,24.0
19.75,0.045,-0.262,48.0
19.769,0.048,-0.377,25.0
19.709,0.05,0.16,13.0
19.765,0.053,0.046,38.0
19.762,0.056,-0.069,69.0
19.771,0.059,-0.186,57.0
19.773,0.062,-0.301,29.0
19.782,0.065,-0.417,28.0
19.699,0.067,0.121,18.0
19.771,0.07,0.006,30.0
19.757,0.072,-0.108,16.0
19.765,0.075,-0.225,9.0
19.767,0.078,-0.34,5.0
19.772,0.08,-0.456,2.0
19.687,0.082,0.082,14.0
19.737,0.085,-0.032,5.0
19.777,0.088,-0.147,0.0
19.745,0.09,-0.264,0.0
0.0,0.0,0.0,0.0
26.15,0.127,-0.655,0.0
19.661,0.097,0.042,12.0
19.694,0.1,-0.071,3.0
0.0,0.0,0.0,0.0
33.178,0.176,-0.51,0.0
29.001,0.158,-0.615,0.0
25.035,0.139,-0.677,0.0
19.664,0.111,0.003,13.0
19.679,0.114,-0.111,7.0
38.022,0.225,-0.436,0.0
0.0,0.0,0.0,0.0
27.554,0.169,-0.64,0.0
24.059,0.151,-0.7,0.0
19.659,0.125,-0.036,12.0
19.684,0.127,-0.151,7.0
33.824,0.223,-0.457,0.0
30.0,0.201,-0.583,0.0
25.989,0.177,-0.657,0.0
22.891,0.158,-0.712,0.0
19.66,0.137,-0.076,12.0
19.67,0.14,-0.19,7.0
19.685,0.142,-0.305,0.0
19.733,0.144,-0.423,0.0
24.902,0.185,-0.68,0.0
21.266,0.16,-0.705,0.0
19.657,0.149,-0.116,14.0
19.668,0.152,-0.231,7.0
19.675,0.154,-0.345,5.0
19.69,0.156,-0.463,3.0
19.722,0.158,-0.579,2.0
19.731,0.16,-0.694,0.0
19.654,0.161,-0.156,15.0
19.657,0.163,-0.271,9.0
19.666,0.165,-0.386,13.0
19.673,0.167,-0.502,8.0
19.691,0.169,-0.618,7.0
19.67,0.171,-0.732,3.0
19.662,0.171,-0.196,15.0
19.658,0.173,-0.311,12.0
19.666,0.175,-0.426,16.0
19.674,0.177,-0.543,12.0
19.687,0.179,-0.658,10.0
19.514,0.179,-0.766,2.0
19.654,0.181,-0.237,16.0
19.655,0.183,-0.351,13.0
19.665,0.185,-0.466,15.0
19.656,0.186,-0.582,14.0
19.671,0.188,-0.698,9.0
18.931,0.183,-0.782,0.0
19.66,0.19,-0.277,16.0
19.651,0.192,-0.392,17.0
19.663,0.193,-0.506,16.0
19.648,0.195,-0.623,17.0
19.635,0.196,-0.737,6.0
18.164,0.183,-0.788,0.0
19.657,0.198,-0.317,15.0
19.665,0.2,-0.432,22.0
19.665,0.201,-0.547,17.0
19.65,0.203,-0.663,17.0
19.471,0.202,-0.771,2.0
17.659,0.185,-0.803,0.0
19.66,0.206,-0.358,16.0
19.666,0.208,-0.473,19.0
19.666,0.209,-0.587,17.0
19.635,0.21,-0.703,10.0
18.856,0.203,-0.786,0.0
16.983,0.184,-0.807,0.0
19.684,0.213,-0.399,20.0
19.673,0.214,-0.513,17.0
19.667,0.215,-0.628,16.0
19.592,0.216,-0.742,6.0
18.102,0.201,-0.791,0.0
16.4,0.183,-0.813,0.0
19.669,0.219,-0.439,24.0
19.669,0.22,-0.553,17.0
19.671,0.221,-0.668,15.0
19.418,0.22,-0.775,2.0
17.517,0.199,-0.802,0.0
15.802,0.181,-0.816,0.0
19.673,0.224,-0.479,19.0
19.667,0.225,-0.594,16.0
19.628,0.226,-0.707,8.0
18.487,0.214,-0.776,0.0
16.856,0.196,-0.806,0.0
15.443,0.18,-0.829,0.0
19.673,0.229,-0.519,17.0
19.674,0.23,-0.634,16.0
19.547,0.229,-0.744,3.0
18.035,0.212,-0.794,0.0
16.308,0.193,-0.813,0.0
14.802,0.176,-0.825,0.0
19.686,0.233,-0.56,16.0
19.682,0.234,-0.675,14.0
19.364,0.231,-0.777,1.0
17.352,0.208,-0.799,0.0
15.701,0.188,-0.815,0.0
14.558,0.175,-0.841,0.0
19.682,0.236,-0.6,16.0
19.613,0.236,-0.712,7.0
18.481,0.223,-0.779,0.0
16.667,0.202,-0.802,0.0
15.417,0.187,-0.832,0.0
14.129,0.172,-0.845,0.0
19.685,0.238,-0.64,15.0
19.509,0.237,-0.749,3.0
17.953,0.218,-0.794,0.0
16.173,0.197,-0.811,0.0
14.847,0.182,-0.832,0.0
13.692,0.168,-0.847,0.0
19.68,0.24,-0.68,12.0
19.2,0.234,-0.776,0.0
17.285,0.212,-0.799,0.0
15.675,0.192,-0.818,1.0
14.517,0.178,-0.842,0.0
13.375,0.165,-0.855,1.0
19.608,0.24,-0.717,7.0
18.345,0.225,-0.778,0.0
16.593,0.203,-0.801,0.0
15.299,0.188,-0.829,0.0
14.07,0.173,-0.845,0.0
13.012,0.16,-0.858,1.0
19.519,0.239,-0.753,3.0
17.852,0.218,-0.793,0.0
16.166,0.198,-0.812,0.0
14.753,0.181,-0.829,0.0
13.647,0.168,-0.847,0.0
12.776,0.157,-0.868,1.0
19.099,0.233,-0.775,0.0
17.203,0.21,-0.798,0.0
15.643,0.191,-0.817,1.0
14.443,0.177,-0.841,0.0
13.304,0.163,-0.852,1.0
12.448,0.152,-0.871,0.0
18.326,0.222,-0.78,0.0
16.593,0.201,-0.803,0.0
15.24,0.185,-0.827,0.0
14.004,0.17,-0.843,0.0
12.999,0.158,-0.859,1.0
12.154,0.148,-0.874,0.0
17.798,0.214,-0.793,0.0
16.13,0.194,-0.813,0.0
14.705,0.176,-0.827,0.0
13.613,0.163,-0.846,1.0
12.73,0.153,-0.866,1.0
11.849,0.142,-0.876,2.0
17.177,0.204,-0.799,0.0
15.662,0.186,-0.82,1.0
14.411,0.171,-0.838,0.0
13.274,0.157,-0.851,1.0
12.429,0.147,-0.87,0.0
11.656,0.138,-0.884,2.0
16.49,0.193,-0.798,0.0
15.209,0.177,-0.825,0.0
13.993,0.163,-0.841,0.0
12.995,0.151,-0.858,1.0
12.14,0.141,-0.873,1.0
11.413,0.133,-0.888,0.0
16.139,0.185,-0.813,0.0
14.766,0.169,-0.83,0.0
13.637,0.156,-0.846,0.0
12.72,0.145,-0.865,0.0
11.833,0.135,-0.874,1.0
11.17,0.127,-0.89,0.0
15.647,0.175,-0.818,0.0
14.423,0.161,-0.838,0.0
13.294,0.148,-0.85,1.0
12.42,0.138,-0.868,0.0
11.691,0.13,-0.885,1.0
10.965,0.122,-0.895,0.0
15.163,0.165,-0.821,0.0
14.014,0.152,-0.84,0.0
12.989,0.141,-0.855,2.0
12.156,0.132,-0.872,0.0
11.413,0.123,-0.886,0.0
10.712,0.115,-0.894,0.0
14.862,0.157,-0.833,0.0
13.669,0.144,-0.846,0.0
12.746,0.134,-0.863,0.0
11.865,0.124,-0.874,1.0
11.192,0.117,-0.89,0.0
10.544,0.11,-0.9,0.0
14.483,0.148,-0.838,0.0
13.343,0.136,-0.85,1.0
12.464,0.126,-0.867,0.0
11.681,0.118,-0.882,0.0
10.985,0.111,-0.894,0.0
10.324,0.103,-0.9,0.0
14.059,0.138,-0.839,0.0
13.037,0.127,-0.854,1.0
12.184,0.118,-0.87,0.0
11.423,0.111,-0.883,0.0
10.764,0.104,-0.896,0.0
10.17,0.098,-0.906,0.0
13.721,0.129,-0.844,0.0
12.763,0.119,-0.86,1.0
11.936,0.111,-0.874,1.0
11.227,0.104,-0.889,0.0
10.558,0.097,-0.897,0.0
9.921,0.091,-0.901,0.0
13.414,0.119,-0.849,0.0
12.541,0.111,-0.867,1.0
11.715,0.103,-0.878,1.0
11.019,0.096,-0.892,0.0
10.377,0.09,-0.901,0.0
9.817,0.085,-0.91,0.0
13.137,0.11,-0.855,1.0
12.268,0.102,-0.87,0.0
11.513,0.095,-0.883,0.0
10.821,0.089,-0.895,0.0
10.23,0.084,-0.906,0.0
9.619,0.078,-0.908,0.0
12.839,0.101,-0.858,0.0
12.023,0.094,-0.873,1.0
11.294,0.088,-0.886,0.0
10.618,0.082,-0.896,0.0
10.038,0.076,-0.906,0.0
9.475,0.072,-0.911,0.0
12.59,0.092,-0.862,0.0
11.779,0.085,-0.875,1.0
11.099,0.08,-0.89,1.0
10.435,0.074,-0.898,0.0
9.864,0.07,-0.907,0.0
9.333,0.065,-0.913,0.0
12.385,0.083,-0.869,0.0
11.614,0.077,-0.882,0.0
10.917,0.072,-0.893,0.0
10.305,0.067,-0.904,0.0
9.7,0.062,-0.908,0.0
9.186,0.058,-0.914,0.0
12.115,0.074,-0.87,0.0
11.393,0.069,-0.884,0.0
10.741,0.064,-0.896,0.0
10.124,0.059,-0.905,0.0
9.533,0.055,-0.908,0.0
9.114,0.052,-0.921,0.0
11.913,0.065,-0.875,0.0
11.208,0.06,-0.888,0.0
10.543,0.056,-0.897,0.0
9.991,0.052,-0.909,0.0
9.459,0.048,-0.916,0.0
8.978,0.045,-0.922,0.0
11.69,0.056,-0.877,0.0
11.015,0.051,-0.89,0.0
10.392,0.048,-0.901,0.0
9.817,0.044,-0.909,0.0
9.32,0.041,-0.918,0.0
8.812,0.038,-0.919,0.0
11.525,0.047,-0.883,0.0
10.844,0.043,-0.894,0.0
10.226,0.039,-0.902,0.0
9.636,0.036,-0.907,0.0
9.155,0.033,-0.915,0.0
8.722,0.031,-0.923,0.0
11.335,0.037,-0.885,0.0
10.663,0.034,-0.895,0.0
10.085,0.031,-0.905,0.0
9.504,0.028,-0.909,0.0
9.05,0.026,-0.919,0.0
8.629,0.024,-0.927,0.0
11.147,0.028,-0.887,0.0
10.518,0.025,-0.899,0.0
9.933,0.023,-0.906,0.0
9.366,0.021,-0.91,0.0
8.92,0.019,-0.919,0.0
8.508,0.017,-0.926,0.0
10.983,0.019,-0.891,0.0
10.347,0.017,-0.899,0.0
9.825,0.015,-0.911,0.0
9.266,0.013,-0.914,0.0
8.837,0.011,-0.923,0.0
8.418,0.01,-0.929,0.0
10.816,0.01,-0.893,0.0
10.224,0.008,-0.903,0.0
9.65,0.006,-0.909,0.0
9.174,0.005,-0.918,0.0
8.729,0.004,-0.925,0.0
8.329,0.003,-0.931,0.0
10.678,0.0,-0.896,0.0
10.091,0.0,-0.905,0.0
9.487,-0.001,-0.906,0.0
9.027,-0.002,-0.916,0.0
8.629,-0.003,-0.926,0.0
8.23,-0.004,-0.931,0.0
10.513,-0.008,-0.896,0.0
9.922,-0.009,-0.904,0.0
9.386,-0.009,-0.909,0.0
8.927,-0.01,-0.918,0.0
8.535,-0.01,-0.927,0.0
8.153,-0.011,-0.933,0.0
10.394,-0.017,-0.9,0.0
9.851,-0.017,-0.91,0.0
9.299,-0.018,-0.913,0.0
8.84,-0.018,-0.921,0.0
8.431,-0.018,-0.927,0.0
8.051,-0.018,-0.932,0.0
10.267,-0.026,-0.902,0.0
9.664,-0.026,-0.905,0.0
9.193,-0.026,-0.915,0.0
8.795,-0.026,-0.927,0.0
8.349,-0.026,-0.929,0.0
7.985,-0.026,-0.935,0.0
10.142,-0.036,-0.904,0.0
9.569,-0.035,-0.908,0.0
9.107,-0.034,-0.917,0.0
8.621,-0.034,-0.919,0.0
8.26,-0.033,-0.929,0.0
7.913,-0.033,-0.936,0.0
10.005,-0.045,-0.904,0.0
9.502,-0.044,-0.913,0.0
9.011,-0.043,-0.918,0.0
8.589,-0.042,-0.926,0.0
8.21,-0.041,-0.933,0.0
7.857,-0.041,-0.939,0.0
9.917,-0.054,-0.908,0.0
9.381,-0.053,-0.913,0.0
8.938,-0.051,-0.922,0.0
8.505,-0.05,-0.927,0.0
8.129,-0.049,-0.933,0.0
7.784,-0.048,-0.939,0.0
9.792,-0.063,-0.907,0.0
9.292,-0.061,-0.915,0.0
8.835,-0.06,-0.921,0.0
8.416,-0.058,-0.927,0.0
8.059,-0.057,-0.934,0.0
7.717,-0.056,-0.94,0.0
9.69,-0.072,-0.908,0.0
9.203,-0.07,-0.916,0.0
8.741,-0.068,-0.92,0.0
8.351,-0.066,-0.929,0.0
7.979,-0.065,-0.934,0.0
7.644,-0.063,-0.939,0.0
9.619,-0.082,-0.912,0.0
9.123,-0.079,-0.918,0.0
8.659,-0.077,-0.921,0.0
8.27,-0.074,-0.928,0.0
7.923,-0.072,-0.935,0.0
7.57,-0.071,-0.938,0.0
9.51,-0.091,-0.911,0.0
9.029,-0.088,-0.917,0.0
8.59,-0.085,-0.922,0.0
8.21,-0.083,-0.93,0.0
7.885,-0.081,-0.939,0.0
7.514,-0.078,-0.938,0.0
9.429,-0.1,-0.912,0.0
9.009,-0.097,-0.924,0.0
8.528,-0.094,-0.924,0.0
8.152,-0.091,-0.931,0.0
7.796,-0.088,-0.935,0.0
7.49,-0.086,-0.942,0.0
9.358,-0.11,-0.914,0.0
8.825,-0.105,-0.913,0.0
8.49,-0.102,-0.927,0.0
8.105,-0.099,-0.933,0.0
7.747,-0.096,-0.937,0.0
7.455,-0.094,-0.945,0.0
9.274,-0.119,-0.914,0.0
8.806,-0.114,-0.919,0.0
8.434,-0.111,-0.928,0.0
8.033,-0.107,-0.932,0.0
7.727,-0.104,-0.941,0.0
7.368,-0.101,-0.94,0.0
9.193,-0.128,-0.914,0.0
8.734,-0.123,-0.919,0.0
8.354,-0.119,-0.927,0.0
7.998,-0.116,-0.934,0.0
7.69,-0.113,-0.943,0.0
7.341,-0.109,-0.942,0.0
9.128,-0.138,-0.915,0.0
8.713,-0.133,-0.923,0.0
8.313,-0.128,-0.929,0.0
7.968,-0.124,-0.937,0.0
7.636,-0.121,-0.942,0.0
7.338,-0.117,-0.948,0.0
9.08,-0.147,-0.917,0.0
8.67,-0.142,-0.925,0.0
8.266,-0.137,-0.93,0.0
7.888,-0.132,-0.933,0.0
7.601,-0.129,-0.943,0.0
7.271,-0.124,-0.944,0.0
9.029,-0.157,-0.918,0.0
8.583,-0.151,-0.922,0.0
8.221,-0.146,-0.93,0.0
7.877,-0.141,-0.938,0.0
7.552,-0.137,-0.942,0.0
7.269,-0.133,-0.949,0.0
8.983,-0.166,-0.919,0.0
8.565,-0.16,-0.926,0.0
8.169,-0.154,-0.93,0.0
7.822,-0.149,-0.936,0.0
7.556,-0.146,-0.948,0.0
7.204,-0.14,-0.945,0.0
8.913,-0.175,-0.918,0.0
8.499,-0.169,-0.924,0.0
8.123,-0.163,-0.929,0.0
7.814,-0.158,-0.94,0.0
7.499,-0.153,-0.945,0.0
7.209,-0.149,-0.95,0.0
8.881,-0.185,-0.92,0.0
8.499,-0.179,-0.929,0.0
8.115,-0.172,-0.933,0.0
7.749,-0.166,-0.936,0.0
7.443,-0.161,-0.942,0.0
7.2,-0.157,-0.953,0.0
8.833,-0.194,-0.919,0.0
8.431,-0.187,-0.926,0.0
8.096,-0.181,-0.935,0.0
7.748,-0.175,-0.94,0.0
7.421,-0.169,-0.943,0.0
7.114,-0.164,-0.945,0.0
8.829,-0.205,-0.923,0.0
8.424,-0.197,-0.929,0.0
8.053,-0.19,-0.934,0.0
7.711,-0.183,-0.939,0.0
7.406,-0.178,-0.945,0.0
7.116,-0.172,-0.949,0.0
8.787,-0.214,-0.923,0.0
8.381,-0.206,-0.928,0.0
8.04,-0.199,-0.936,0.0
7.685,-0.192,-0.939,0.0
7.402,-0.186,-0.947,0.0
7.095,-0.18,-0.949,0.0
8.758,-0.224,-0.923,0.0
8.36,-0.215,-0.929,0.0
7.999,-0.208,-0.934,0.0
7.66,-0.2,-0.939,0.0
7.373,-0.194,-0.946,0.0
7.05,-0.187,-0.945,0.0
8.74,-0.234,-0.924,0.0
8.331,-0.224,-0.928,0.0
7.986,-0.217,-0.935,0.0
7.685,-0.21,-0.945,0.0
7.329,-0.202,-0.943,0.0
7.041,-0.196,-0.946,0.0
8.693,-0.243,-0.922,0.0
8.31,-0.234,-0.929,0.0
7.976,-0.226,-0.937,0.0
7.681,-0.219,-0.946,0.0
7.313,-0.21,-0.943,0.0
7.076,-0.205,-0.953,0.0
8.701,-0.253,-0.925,0.0
8.304,-0.244,-0.93,0.0
7.945,-0.235,-0.935,0.0
7.66,-0.228,-0.946,0.0
7.315,-0.219,-0.945,0.0
7.029,-0.212,-0.948,0.0
8.678,-0.263,-0.924,0.0
8.284,-0.253,-0.929,0.0
7.924,-0.244,-0.934,0.0
7.625,-0.236,-0.943,0.0
7.306,-0.228,-0.945,0.0
7.054,-0.221,-0.953,0.0
8.674,-0.273,-0.925,0.0
8.303,-0.263,-0.933,0.0
7.924,-0.253,-0.935,0.0
7.596,-0.244,-0.94,0.0
7.299,-0.236,-0.945,0.0
7.032,-0.229,-0.951,0.0
8.667,-0.283,-0.926,0.0
8.282,-0.272,-0.931,0.0
7.93,-0.263,-0.937,0.0
7.62,-0.254,-0.944,0.0
7.308,-0.245,-0.947,0.0
7.036,-0.237,-0.952,0.0
8.668,-0.293,-0.927,0.0
8.271,-0.282,-0.931,0.0
7.919,-0.271,-0.936,0.0
7.586,-0.262,-0.94,0.0
7.293,-0.253,-0.945,0.0
7.031,-0.246,-0.951,0.0
8.664,-0.303,-0.926,0.0
8.283,-0.292,-0.932,0.0
7.953,-0.282,-0.94,0.0
7.621,-0.272,-0.945,0.0
7.33,-0.263,-0.95,0.0
7.038,-0.254,-0.952,0.0
8.647,-0.313,-0.925,0.0
8.278,-0.301,-0.932,0.0
7.923,-0.29,-0.936,0.0
7.618,-0.281,-0.944,0.0
7.295,-0.27,-0.945,0.0
7.042,-0.263,-0.952,0.0
8.666,-0.324,-0.926,0.0
8.295,-0.312,-0.933,0.0
7.948,-0.3,-0.939,0.0
7.586,-0.288,-0.939,0.0
7.335,-0.28,-0.95,0.0
7.03,-0.27,-0.95,0.0
8.669,-0.334,-0.925,0.0
8.318,-0.322,-0.935,0.0
7.936,-0.309,-0.936,0.0
7.591,-0.297,-0.939,0.0
7.339,-0.289,-0.949,0.0
7.07,-0.28,-0.954,0.0
8.683,-0.344,-0.926,0.0
8.32,-0.331,-0.933,0.0
7.943,-0.318,-0.936,0.0
7.629,-0.307,-0.942,0.0
7.344,-0.297,-0.949,0.0
7.052,-0.287,-0.951,0.0
8.714,-0.355,-0.927,0.0
8.326,-0.341,-0.932,0.0
7.95,-0.327,-0.935,0.0
7.622,-0.316,-0.94,0.0
7.345,-0.306,-0.947,0.0
7.072,-0.296,-0.952,0.0
8.726,-0.365,-0.926,0.0
8.347,-0.351,-0.933,0.0
8.0,-0.338,-0.939,0.0
7.678,-0.326,-0.945,0.0
7.321,-0.313,-0.942,0.0
7.089,-0.305,-0.952,0.0
8.747,-0.376,-0.926,0.0
8.357,-0.361,-0.931,0.0
8.017,-0.348,-0.938,0.0
7.677,-0.335,-0.942,0.0
7.398,-0.324,-0.949,0.0
7.113,-0.313,-0.953,0.0
8.783,-0.387,-0.927,0.0
8.379,-0.371,-0.931,0.0
8.031,-0.357,-0.937,0.0
7.674,-0.343,-0.939,0.0
7.398,-0.332,-0.947,0.0
7.128,-0.322,-0.952,0.0
8.774,-0.396,-0.923,0.0
8.411,-0.381,-0.931,0.0
8.048,-0.367,-0.936,0.0
7.691,-0.352,-0.938,0.0
7.433,-0.342,-0.948,0.0
7.149,-0.33,-0.952,0.0
8.847,-0.409,-0.927,0.0
8.446,-0.392,-0.932,0.0
8.078,-0.376,-0.936,0.0
7.738,-0.362,-0.94,0.0
7.469,-0.351,-0.949,0.0
7.158,-0.338,-0.95,0.0
8.88,-0.419,-0.926,0.0
8.47,-0.402,-0.93,0.0
8.123,-0.387,-0.937,0.0
7.8,-0.373,-0.944,0.0
7.431,-0.357,-0.941,0.0
7.211,-0.348,-0.953,0.0
8.914,-0.43,-0.925,0.0
8.512,-0.412,-0.931,0.0
8.128,-0.395,-0.934,0.0
7.809,-0.381,-0.941,0.0
7.541,-0.37,-0.951,0.0
7.2,-0.355,-0.948,0.0
8.965,-0.441,-0.926,0.0
8.555,-0.423,-0.931,0.0
8.185,-0.406,-0.936,0.0
7.844,-0.391,-0.941,0.0
7.5,-0.375,-0.941,0.0
7.261,-0.365,-0.952,0.0
8.998,-0.452,-0.924,0.0
