X,Y,Z,Reflectivity
23.529,1.079,2.503,70.0
23.527,1.081,2.368,72.0
23.519,1.089,3.028,66.0
23.516,1.091,2.891,58.0
23.507,1.093,2.754,54.0
23.521,1.095,2.617,54.0
23.529,1.098,2.482,51.0
23.532,1.1,2.347,49.0
23.532,1.109,3.007,48.0
23.535,1.111,2.871,44.0
23.537,1.113,2.735,41.0
23.54,1.115,2.597,42.0
23.551,1.117,2.462,45.0
23.553,1.119,2.326,44.0
23.531,1.127,2.984,15.0
23.53,1.129,2.847,13.0
23.53,1.131,2.711,11.0
23.528,1.132,2.572,10.0
23.542,1.135,2.438,8.0
23.555,1.137,2.303,5.0
23.564,1.146,2.965,0.0
23.461,1.143,2.815,0.0
23.614,1.152,2.697,0.0
23.688,1.157,2.565,0.0
23.401,1.145,2.399,0.0
23.607,1.157,2.284,0.0
0.0,0.0,0.0,0.0
0.0,0.0,0.0,0.0
0.0,0.0,0.0,0.0
0.0,0.0,0.0,0.0
0.0,0.0,0.0,0.0
0.0,0.0,0.0,0.0
0.0,0.0,0.0,0.0
0.0,0.0,0.0,0.0
0.0,0.0,0.0,0.0
0.0,0.0,0.0,0.0
0.0,0.0,0.0,0.0
0.0,0.0,0.0,0.0
0.0,0.0,0.0,0.0
0.0,0.0,0.0,0.0
0.0,0.0,0.0,0.0
0.0,0.0,0.0,0.0
0.0,0.0,0.0,0.0
0.0,0.0,0.0,0.0
0.0,0.0,0.0,0.0
0.0,0.0,0.0,0.0
0.0,0.0,0.0,0.0
0.0,0.0,0.0,0.0
0.0,0.0,0.0,0.0
0.0,0.0,0.0,0.0
0.0,0.0,0.0,0.0
0.0,0.0,0.0,0.0
0.0,0.0,0.0,0.0
0.0,0.0,0.0,0.0
0.0,0.0,0.0,0.0
0.0,0.0,0.0,0.0
0.0,0.0,0.0,0.0
0.0,0.0,0.0,0.0
0.0,0.0,0.0,0.0
0.0,0.0,0.0,0.0
0.0,0.0,0.0,0.0
0.0,0.0,0.0,0.0
0.0,0.0,0.0,0.0
0.0,0.0,0.0,0.0
0.0,0.0,0.0,0.0
0.0,0.0,0.0,0.0
0.0,0.0,0.0,0.0
0.0,0.0,0.0,0.0
0.0,0.0,0.0,0.0
0.0,0.0,0.0,0.0
0.0,0.0,0.0,0.0
0.0,0.0,0.0,0.0
0.0,0.0,0.0,0.0
0.0,0.0,0.0,0.0
0.0,0.0,0.0,0.0
0.0,0.0,0.0,0.0
0.0,0.0,0.0,0.0
0.0,0.0,0.0,0.0
0.0,0.0,0.0,0.0
0.0,0.0,0.0,0.0
0.0,0.0,0.0,0.0
0.0,0.0,0.0,0.0
0.0,0.0,0.0,0.0
0.0,0.0,0.0,0.0
0.0,0.0,0.0,0.0
0.0,0.0,0.0,0.0
0.0,0.0,0.0,0.0
0.0,0.0,0.0,0.0
0.0,0.0,0.0,0.0
0.0,0.0,0.0,0.0
0.0,0.0,0.0,0.0
0.0,0.0,0.0,0.0
0.0,0.0,0.0,0.0
0.0,0.0,0.0,0.0
0.0,0.0,0.0,0.0
0.0,0.0,0.0,0.0
0.0,0.0,0.0,0.0
0.0,0.0,0.0,0.0
0.0,0.0,0.0,0.0
0.0,0.0,0.0,0.0
0.0,0.0,0.0,0.0
0.0,0.0,0.0,0.0
0.0,0.0,0.0,0.0
0.0,0.0,0.0,0.0
0.0,0.0,0.0,0.0
0.0,0.0,0.0,0.0
0.0,0.0,0.0,0.0
0.0,0.0,0.0,0.0
0.0,0.0,0.0,0.0
0.0,0.0,0.0,0.0
0.0,0.0,0.0,0.0
0.0,0.0,0.0,0.0
0.0,0.0,0.0,0.0
0.0,0.0,0.0,0.0
0.0,0.0,0.0,0.0
0.0,0.0,0.0,0.0
0.0,0.0,0.0,0.0
0.0,0.0,0.0,0.0
0.0,0.0,0.0,0.0
0.0,0.0,0.0,0.0
0.0,0.0,0.0,0.0
40.195,2.259,3.056,1.0
0.0,0.0,0.0,0.0
0.0,0.0,0.0,0.0
0.0,0.0,0.0,0.0
0.0,0.0,0.0,0.0
0.0,0.0,0.0,0.0
40.174,2.263,2.993,70.0
0.0,0.0,0.0,0.0
0.0,0.0,0.0,0.0
0.0,0.0,0.0,0.0
0.0,0.0,0.0,0.0
0.0,0.0,0.0,0.0
40.189,2.268,2.933,121.0
0.0,0.0,0.0,0.0
0.0,0.0,0.0,0.0
0.0,0.0,0.0,0.0
0.0,0.0,0.0,0.0
0.0,0.0,0.0,0.0
40.189,2.271,2.87,110.0
0.0,0.0,0.0,0.0
0.0,0.0,0.0,0.0
0.0,0.0,0.0,0.0
0.0,0.0,0.0,0.0
40.158,2.272,3.037,10.0
0.0,0.0,0.0,0.0
0.0,0.0,0.0,0.0
0.0,0.0,0.0,0.0
0.0,0.0,0.0,0.0
0.0,0.0,0.0,0.0
40.191,2.273,2.975,108.0
41.972,2.372,2.864,146.0
0.0,0.0,0.0,0.0
0.0,0.0,0.0,0.0
0.0,0.0,0.0,0.0
0.0,0.0,0.0,0.0
40.184,2.271,2.91,114.0
0.0,0.0,0.0,0.0
0.0,0.0,0.0,0.0
0.0,0.0,0.0,0.0
0.0,0.0,0.0,0.0
0.0,0.0,0.0,0.0
40.181,2.267,2.844,104.0
45.535,2.566,2.959,74.0
0.0,0.0,0.0,0.0
0.0,0.0,0.0,0.0
0.0,0.0,0.0,0.0
40.167,2.263,3.011,55.0
0.0,0.0,0.0,0.0
45.544,2.561,2.886,106.0
0.0,0.0,0.0,0.0
0.0,0.0,0.0,0.0
0.0,0.0,0.0,0.0
40.192,2.258,2.947,115.0
43.77,2.456,2.956,59.0
45.541,2.553,2.811,3.0
0.0,0.0,0.0,0.0
0.0,0.0,0.0,0.0
0.0,0.0,0.0,0.0
40.193,2.249,2.88,111.0
43.745,2.445,2.881,105.0
0.0,0.0,0.0,0.0
0.0,0.0,0.0,0.0
0.0,0.0,0.0,0.0
40.148,2.24,3.046,6.0
0.0,0.0,0.0,0.0
0.0,0.0,0.0,0.0
0.0,0.0,0.0,0.0
0.0,0.0,0.0,0.0
0.0,0.0,0.0,0.0
40.182,2.23,2.981,80.0
41.979,2.327,2.867,150.0
45.548,2.521,2.846,17.0
0.0,0.0,0.0,0.0
0.0,0.0,0.0,0.0
0.0,0.0,0.0,0.0
40.195,2.218,2.914,109.0
0.0,0.0,0.0,0.0
0.0,0.0,0.0,0.0
0.0,0.0,0.0,0.0
0.0,0.0,0.0,0.0
40.187,2.207,3.079,0.0
40.174,2.202,2.844,83.0
0.0,0.0,0.0,0.0
0.0,0.0,0.0,0.0
0.0,0.0,0.0,0.0
0.0,0.0,0.0,0.0
40.177,2.19,3.01,51.0
0.0,0.0,0.0,0.0
45.535,2.473,2.877,39.0
0.0,0.0,0.0,0.0
0.0,0.0,0.0,0.0
0.0,0.0,0.0,0.0
40.209,2.174,2.943,111.0
0.0,0.0,0.0,0.0
45.557,2.454,2.801,0.0
0.0,0.0,0.0,0.0
200.199,10.744,9.991,4.0
0.0,0.0,0.0,0.0
40.197,2.154,2.873,110.0
43.786,2.341,2.875,114.0
0.0,0.0,0.0,0.0
200.127,10.658,10.8,9.0
200.182,10.642,9.647,21.0
40.193,2.137,3.036,38.0
0.0,0.0,0.0,0.0
45.534,2.41,2.911,79.0
200.174,10.576,11.619,20.0
200.339,10.561,10.467,7.0
0.0,0.0,0.0,0.0
40.206,2.115,2.968,103.0
41.978,2.203,2.855,111.0
45.562,2.386,2.834,10.0
0.0,0.0,0.0,0.0
0.0,0.0,0.0,0.0
216.271,11.249,9.676,5.0
40.199,2.091,2.898,114.0
0.0,0.0,0.0,0.0
0.0,0.0,0.0,0.0
0.0,0.0,0.0,0.0
0.0,0.0,0.0,0.0
180.041,9.251,7.745,13.0
0.0,0.0,0.0,0.0
0.0,0.0,0.0,0.0
0.0,0.0,0.0,0.0
0.0,0.0,0.0,0.0
0.0,0.0,0.0,0.0
179.589,9.108,7.416,16.0
41.957,2.126,2.879,80.0
45.557,2.302,2.862,61.0
0.0,0.0,0.0,0.0
0.0,0.0,0.0,0.0
180.183,9.032,8.17,16.0
179.614,8.981,7.108,13.0
0.0,0.0,0.0,0.0
0.0,0.0,0.0,0.0
0.0,0.0,0.0,0.0
0.0,0.0,0.0,0.0
179.91,8.884,7.848,15.0
23.565,1.16,0.892,0.0
0.0,0.0,0.0,0.0
23.621,1.158,1.402,0.0
23.602,1.153,1.264,2.0
23.584,1.149,1.124,4.0
23.598,1.146,0.988,11.0
23.602,1.143,0.852,18.0
45.541,2.203,2.889,10.0
23.6,1.138,1.36,28.0
23.607,1.134,1.224,38.0
23.606,1.13,1.085,38.0
23.6,1.127,0.948,38.0
23.605,1.123,0.812,38.0
23.579,1.12,1.455,46.0
23.572,1.116,1.318,45.0
23.576,1.112,1.182,45.0
23.57,1.108,1.043,47.0
23.578,1.105,0.907,56.0
23.578,1.102,0.771,63.0
23.564,1.098,1.413,70.0
23.572,1.095,1.277,73.0
23.558,1.09,1.14,69.0
23.571,1.087,1.002,66.0
23.574,1.083,0.867,67.0
23.575,1.08,0.731,68.0
23.575,1.077,1.374,81.0
23.573,1.073,1.237,75.0
23.559,1.068,1.1,70.0
23.563,1.065,0.962,70.0
23.581,1.061,0.827,94.0
23.587,1.058,0.691,112.0
23.563,1.054,1.333,69.0
23.57,1.05,1.198,54.0
23.574,1.046,1.061,51.0
23.575,1.042,0.923,47.0
23.59,1.039,0.787,44.0
23.592,1.035,0.651,44.0
23.585,1.031,1.295,45.0
23.599,1.027,1.159,41.0
23.605,1.023,1.022,42.0
23.604,1.019,0.884,40.0
23.617,1.015,0.748,38.0
23.629,1.012,0.613,34.0
23.599,1.007,1.256,19.0
23.61,1.003,1.12,4.0
23.61,0.999,0.983,1.0
23.579,0.993,0.844,0.0
23.611,0.99,0.709,0.0
100.523,4.199,2.441,9.0
120.999,5.033,6.238,9.0
179.827,7.448,8.234,13.0
178.746,7.369,7.153,20.0
162.563,6.673,5.553,7.0
45.212,1.847,1.283,13.0
40.366,1.641,0.913,2.0
121.086,4.902,6.042,8.0
179.495,7.233,7.922,17.0
178.627,7.162,6.852,12.0
162.783,6.495,5.291,11.0
40.382,1.603,1.079,98.0
40.387,1.596,0.847,98.0
134.377,5.285,6.484,15.0
179.163,7.012,7.613,14.0
178.662,6.956,6.561,11.0
40.535,1.57,1.251,15.0
41.662,1.605,1.046,100.0
41.698,1.599,0.807,74.0
134.438,5.128,6.27,17.0
120.273,4.564,4.916,7.0
0.0,0.0,0.0,0.0
42.941,1.611,1.256,27.0
43.463,1.623,1.021,90.0
43.6,1.619,0.774,80.0
120.078,4.432,5.406,23.0
120.328,4.418,4.725,19.0
162.581,5.934,5.447,6.0
44.766,1.624,1.237,41.0
44.977,1.622,0.984,7.0
162.201,5.817,2.618,46.0
114.677,4.088,4.979,9.0
120.408,4.266,4.534,17.0
121.053,4.264,3.863,11.0
163.489,5.724,4.261,12.0
162.451,5.652,3.299,4.0
161.962,5.6,2.358,11.0
120.373,4.135,5.036,13.0
120.476,4.111,4.346,19.0
121.165,4.108,3.675,20.0
40.134,1.351,0.982,1.0
40.101,1.342,0.751,8.0
40.133,1.334,0.521,95.0
40.106,1.323,1.614,41.0
40.107,1.314,1.384,150.0
40.107,1.306,1.153,150.0
40.112,1.296,0.918,150.0
40.113,1.287,0.688,150.0
40.118,1.279,0.458,128.0
40.119,1.269,1.553,142.0
40.121,1.26,1.322,138.0
40.11,1.25,1.092,150.0
40.115,1.241,0.857,150.0
40.114,1.232,0.627,150.0
40.127,1.224,0.397,118.0
40.123,1.213,1.492,148.0
40.124,1.204,1.262,143.0
40.121,1.194,1.031,150.0
40.116,1.185,0.797,150.0
40.111,1.175,0.566,150.0
40.126,1.167,0.337,138.0
40.122,1.156,1.431,127.0
40.147,1.147,1.202,94.0
0.0,0.0,0.0,0.0
0.0,0.0,0.0,0.0
41.926,1.167,0.529,158.0
41.927,1.158,0.289,150.0
41.911,1.146,1.433,60.0
0.0,0.0,0.0,0.0
0.0,0.0,0.0,0.0
0.0,0.0,0.0,0.0
0.0,0.0,0.0,0.0
45.516,1.189,0.247,88.0
45.503,1.176,1.489,69.0
45.5,1.164,1.228,2.0
129.03,3.271,2.744,5.0
115.523,2.899,1.782,4.0
70.809,1.759,0.687,30.0
45.529,1.12,0.181,42.0
115.236,2.802,3.605,3.0
98.894,2.38,2.527,35.0
98.883,2.355,1.961,8.0
128.667,3.031,1.801,10.0
70.89,1.652,0.587,8.0
74.73,1.722,0.191,0.0
134.919,3.071,4.03,17.0
135.368,3.047,3.268,3.0
179.159,3.986,3.3,15.0
128.714,2.83,1.621,24.0
113.195,2.458,0.777,16.0
0.0,0.0,0.0,0.0
134.757,2.854,3.838,11.0
179.249,3.751,4.08,20.0
163.869,3.386,2.793,6.0
162.808,3.32,1.827,27.0
112.975,2.274,0.621,4.0
55.187,1.096,-0.011,22.0
163.375,3.197,4.429,8.0
55.186,1.064,1.18,8.0
55.194,1.05,0.865,40.0
55.169,1.035,0.544,49.0
55.163,1.019,0.228,64.0
55.062,1.003,-0.086,3.0
55.174,0.988,1.421,74.0
55.172,0.973,1.106,82.0
55.165,0.958,0.79,53.0
55.187,0.943,0.47,52.0
55.195,0.929,0.155,35.0
52.442,0.868,-0.152,1.0
19.717,0.32,0.481,5.0
19.727,0.315,0.369,2.0
163.432,2.565,2.128,17.0
114.374,1.762,0.824,3.0
61.441,0.929,0.092,0.0
19.738,0.293,-0.082,1.0
19.707,0.286,0.456,10.0
19.705,0.281,0.343,13.0
19.745,0.276,0.231,17.0
19.77,0.271,0.117,4.0
19.721,0.264,0.004,0.0
19.662,0.258,-0.107,15.0
19.697,0.252,0.431,10.0
19.71,0.247,0.319,11.0
19.759,0.242,0.207,26.0
19.752,0.236,0.092,2.0
19.661,0.229,-0.019,8.0
19.637,0.224,-0.131,17.0
19.734,0.218,0.407,13.0
19.733,0.212,0.295,9.0
19.726,0.207,0.182,12.0
19.661,0.2,0.068,10.0
19.667,0.195,-0.043,12.0
19.648,0.189,-0.155,16.0
19.657,0.183,0.382,11.0
19.657,0.177,0.27,10.0
19.654,0.171,0.158,13.0
19.63,0.165,0.044,15.0
19.641,0.159,-0.067,11.0
19.671,0.154,-0.179,9.0
19.621,0.148,0.358,11.0
19.644,0.142,0.247,14.0
19.643,0.136,0.135,14.0
19.637,0.13,0.022,14.0
19.674,0.124,-0.089,9.0
0.0,0.0,0.0,0.0
19.615,0.112,0.336,16.0
19.645,0.106,0.225,11.0
19.657,0.1,0.113,12.0
19.709,0.094,0.0,10.0
19.745,0.089,-0.112,9.0
19.765,0.083,-0.224,15.0
19.613,0.076,0.314,15.0
19.64,0.07,0.203,14.0
19.746,0.064,0.092,25.0
19.743,0.058,-0.021,78.0
19.757,0.052,-0.134,13.0
19.765,0.046,-0.246,13.0
19.618,0.04,0.293,14.0
19.747,0.033,0.183,23.0
19.761,0.028,0.071,7.0
19.723,0.021,-0.042,150.0
19.811,0.015,-0.155,0.0
36.255,0.017,-0.49,0.0
19.632,0.003,0.272,14.0
19.773,-0.003,0.162,3.0
19.699,-0.009,0.05,11.0
19.734,-0.015,-0.063,8.0
19.757,-0.021,-0.175,7.0
19.782,-0.028,-0.288,0.0
19.654,-0.034,0.253,13.0
19.696,-0.04,0.141,17.0
19.701,-0.046,0.03,16.0
19.714,-0.053,-0.083,13.0
19.739,-0.059,-0.195,15.0
19.762,-0.065,-0.307,15.0
19.694,-0.072,0.234,14.0
19.706,-0.078,0.122,14.0
19.703,-0.085,0.011,14.0
19.705,-0.091,-0.102,16.0
19.729,-0.097,-0.214,16.0
19.741,-0.104,-0.326,15.0
19.736,-0.11,0.215,11.0
19.744,-0.117,0.104,7.0
19.737,-0.123,-0.007,9.0
19.717,-0.129,-0.121,16.0
19.74,-0.136,-0.232,17.0
19.74,-0.143,-0.344,17.0
165.32,-1.249,1.654,13.0
0.0,0.0,0.0,0.0
19.807,-0.162,-0.025,0.0
19.759,-0.168,-0.139,9.0
19.759,-0.175,-0.25,11.0
19.762,-0.182,-0.362,11.0
160.729,-1.528,1.468,7.0
0.0,0.0,0.0,0.0
0.0,0.0,0.0,0.0
0.0,0.0,0.0,0.0
0.0,0.0,0.0,0.0
30.406,-0.339,-0.583,0.0
19.765,-0.226,0.163,5.0
0.0,0.0,0.0,0.0
0.0,0.0,0.0,0.0
42.284,-0.527,-0.369,0.0
35.213,-0.451,-0.506,0.0
29.908,-0.393,-0.598,0.0
19.757,-0.265,0.148,31.0
0.0,0.0,0.0,0.0
0.0,0.0,0.0,0.0
41.993,-0.606,-0.399,0.0
0.0,0.0,0.0,0.0
29.313,-0.443,-0.609,0.0
19.75,-0.304,0.132,13.0
0.0,0.0,0.0,0.0
0.0,0.0,0.0,0.0
0.0,0.0,0.0,0.0
0.0,0.0,0.0,0.0
28.719,-0.492,-0.618,0.0
0.0,0.0,0.0,0.0
0.0,0.0,0.0,0.0
0.0,0.0,0.0,0.0
0.0,0.0,0.0,0.0
31.996,-0.601,-0.532,0.0
21.772,-0.417,-0.484,0.0
0.0,0.0,0.0,0.0
0.0,0.0,0.0,0.0
0.0,0.0,0.0,0.0
0.0,0.0,0.0,0.0
0.0,0.0,0.0,0.0
21.739,-0.46,-0.498,11.0
0.0,0.0,0.0,0.0
0.0,0.0,0.0,0.0
45.774,-1.014,-0.302,0.0
37.257,-0.838,-0.459,0.0
31.696,-0.724,-0.568,0.0
0.0,0.0,0.0,0.0
0.0,0.0,0.0,0.0
0.0,0.0,0.0,0.0
0.0,0.0,0.0,0.0
37.115,-0.91,-0.48,0.0
31.493,-0.784,-0.584,0.0
26.96,-0.681,-0.651,0.0
0.0,0.0,0.0,0.0
0.0,0.0,0.0,0.0
0.0,0.0,0.0,0.0
0.0,0.0,0.0,0.0
0.0,0.0,0.0,0.0
26.568,-0.725,-0.656,0.0
0.0,0.0,0.0,0.0
0.0,0.0,0.0,0.0
0.0,0.0,0.0,0.0
35.372,-1.012,-0.496,0.0
30.128,-0.873,-0.591,0.0
26.555,-0.779,-0.67,0.0
0.0,0.0,0.0,0.0
0.0,0.0,0.0,0.0
0.0,0.0,0.0,0.0
35.423,-1.086,-0.515,0.0
0.0,0.0,0.0,0.0
25.916,-0.813,-0.667,0.0
0.0,0.0,0.0,0.0
0.0,0.0,0.0,0.0
0.0,0.0,0.0,0.0
0.0,0.0,0.0,0.0
29.552,-0.978,-0.608,0.0
25.546,-0.854,-0.668,0.0
0.0,0.0,0.0,0.0
0.0,0.0,0.0,0.0
0.0,0.0,0.0,0.0
33.683,-1.171,-0.519,0.0
29.938,-1.052,-0.628,0.0
25.597,-0.909,-0.68,0.0
0.0,0.0,0.0,0.0
0.0,0.0,0.0,0.0
39.931,-1.456,-0.404,0.0
34.697,-1.278,-0.548,0.0
29.066,-1.081,-0.621,0.0
25.38,-0.953,-0.684,0.0
0.0,0.0,0.0,0.0
0.0,0.0,0.0,0.0
0.0,0.0,0.0,0.0
33.56,-1.304,-0.541,0.0
28.855,-1.132,-0.626,0.0
25.3,-1.002,-0.69,0.0
0.0,0.0,0.0,0.0
0.0,0.0,0.0,0.0
40.164,-1.629,-0.432,0.0
32.434,-1.327,-0.533,0.0
29.062,-1.2,-0.639,0.0
25.508,-1.063,-0.703,0.0
0.0,0.0,0.0,0.0
0.0,0.0,0.0,0.0
40.205,-1.713,-0.444,0.0
32.437,-1.394,-0.542,0.0
28.4,-1.231,-0.632,0.0
24.907,-1.088,-0.693,0.0
0.0,0.0,0.0,0.0
0.0,0.0,0.0,0.0
40.034,-1.787,-0.451,0.0
32.205,-1.449,-0.545,0.0
28.456,-1.291,-0.639,0.0
24.991,-1.143,-0.7,0.0
0.0,0.0,0.0,0.0
0.0,0.0,0.0,0.0
37.905,-1.769,-0.434,0.0
32.374,-1.523,-0.554,0.0
28.236,-1.338,-0.64,0.0
24.565,-1.174,-0.693,0.0
0.0,0.0,0.0,0.0
0.0,0.0,0.0,0.0
0.0,0.0,0.0,0.0
32.267,-1.583,-0.557,0.0
28.044,-1.386,-0.639,0.0
24.476,-1.219,-0.694,0.0
0.0,0.0,0.0,0.0
0.0,0.0,0.0,0.0
37.996,-1.927,-0.445,0.0
32.458,-1.658,-0.563,0.0
0.0,0.0,0.0,0.0
24.698,-1.281,-0.702,0.0
0.0,0.0,0.0,0.0
0.0,0.0,0.0,0.0
37.742,-1.99,-0.445,0.0
32.198,-1.709,-0.561,0.0
27.918,-1.493,-0.641,0.0
24.737,-1.332,-0.705,0.0
0.0,0.0,0.0,0.0
0.0,0.0,0.0,0.0
38.625,-2.113,-0.457,0.0
31.998,-1.762,-0.559,0.0
28.081,-1.557,-0.646,0.0
24.775,-1.383,-0.707,0.0
0.0,0.0,0.0,0.0
0.0,0.0,0.0,0.0
39.709,-2.252,-0.47,0.0
32.691,-1.866,-0.571,0.0
28.149,-1.617,-0.647,0.0
24.34,-1.407,-0.694,0.0
0.0,0.0,0.0,0.0
0.0,0.0,0.0,0.0
37.135,-2.179,-0.438,0.0
32.398,-1.913,-0.564,0.0
28.409,-1.688,-0.651,0.0
24.674,-1.475,-0.702,0.0
0.0,0.0,0.0,0.0
0.0,0.0,0.0,0.0
39.357,-2.386,-0.461,0.0
32.648,-1.991,-0.566,0.0
28.326,-1.738,-0.647,0.0
24.688,-1.524,-0.7,0.0
0.0,0.0,0.0,0.0
0.0,0.0,0.0,0.0
38.078,-2.383,-0.442,0.0
32.784,-2.064,-0.564,0.0
28.284,-1.791,-0.643,0.0
24.94,-1.588,-0.704,0.0
0.0,0.0,0.0,0.0
0.0,0.0,0.0,0.0
38.794,-2.503,-0.445,0.0
33.127,-2.149,-0.565,0.0
28.417,-1.854,-0.641,0.0
24.871,-1.632,-0.698,0.0
0.0,0.0,0.0,0.0
0.0,0.0,0.0,0.0
38.993,-2.591,-0.439,0.0
32.414,-2.166,-0.546,0.0
28.174,-1.893,-0.63,0.0
25.38,-1.714,-0.707,0.0
0.0,0.0,0.0,0.0
0.0,0.0,0.0,0.0
40.407,-2.762,-0.446,0.0
33.713,-2.317,-0.561,0.0
0.0,0.0,0.0,0.0
25.671,-1.783,-0.709,0.0
0.0,0.0,0.0,0.0
0.0,0.0,0.0,0.0
40.528,-2.846,-0.437,0.0
33.325,-2.353,-0.545,0.0
29.166,-2.069,-0.637,0.0
0.0,0.0,0.0,0.0
64.479,-4.604,0.028,1.0
0.0,0.0,0.0,0.0
0.0,0.0,0.0,0.0
34.109,-2.472,-0.548,0.0
29.105,-2.119,-0.627,0.0
0.0,0.0,0.0,0.0
0.0,0.0,0.0,0.0
0.0,0.0,0.0,0.0
41.862,-3.096,-0.425,0.0
0.0,0.0,0.0,0.0
29.508,-2.203,-0.626,0.0
25.933,-1.945,-0.691,0.0
0.0,0.0,0.0,0.0
0.0,0.0,0.0,0.0
41.598,-3.152,-0.407,0.0
33.612,-2.558,-0.516,0.0
30.231,-2.312,-0.629,0.0
25.856,-1.986,-0.679,0.0
0.0,0.0,0.0,0.0
0.0,0.0,0.0,0.0
41.805,-3.242,-0.392,0.0
0.0,0.0,0.0,0.0
29.962,-2.345,-0.611,0.0
26.465,-2.08,-0.684,0.0
0.0,0.0,0.0,0.0
0.0,0.0,0.0,0.0
0.0,0.0,0.0,0.0
33.789,-2.692,-0.49,0.0
30.286,-2.423,-0.605,0.0
26.624,-2.139,-0.677,0.0
0.0,0.0,0.0,0.0
0.0,0.0,0.0,0.0
0.0,0.0,0.0,0.0
0.0,0.0,0.0,0.0
31.031,-2.537,-0.605,0.0
26.807,-2.201,-0.668,0.0
90.4,-7.426,0.261,24.0
0.0,0.0,0.0,0.0
0.0,0.0,0.0,0.0
0.0,0.0,0.0,0.0
32.265,-2.693,-0.612,0.0
27.282,-2.287,-0.666,0.0
90.418,-7.583,0.308,20.0
0.0,0.0,0.0,0.0
0.0,0.0,0.0,0.0
0.0,0.0,0.0,0.0
32.536,-2.771,-0.6,0.0
0.0,0.0,0.0,0.0
90.423,-7.734,0.358,25.0
0.0,0.0,0.0,0.0
0.0,0.0,0.0,0.0
38.694,-3.347,-0.48,0.0
32.664,-2.836,-0.583,0.0
0.0,0.0,0.0,0.0
90.414,-7.883,0.412,29.0
0.0,0.0,0.0,0.0
0.0,0.0,0.0,0.0
39.056,-3.442,-0.461,0.0
32.877,-2.908,-0.567,0.0
28.823,-2.559,-0.653,0.0
90.407,-8.031,0.468,33.0
0.0,0.0,0.0,0.0
0.0,0.0,0.0,0.0
0.0,0.0,0.0,0.0
0.0,0.0,0.0,0.0
29.095,-2.63,-0.64,0.0
90.369,-8.172,0.527,17.0
0.0,0.0,0.0,0.0
0.0,0.0,0.0,0.0
41.667,-3.806,-0.438,0.0
33.678,-3.086,-0.536,0.0
0.0,0.0,0.0,0.0
90.366,-8.312,0.588,18.0
0.0,0.0,0.0,0.0
0.0,0.0,0.0,0.0
0.0,0.0,0.0,0.0
34.47,-3.212,-0.525,0.0
0.0,0.0,0.0,0.0
90.386,-8.454,0.652,40.0
90.553,-8.495,0.164,1.0
0.0,0.0,0.0,0.0
0.0,0.0,0.0,0.0
0.0,0.0,0.0,0.0
0.0,0.0,0.0,0.0
90.386,-8.589,0.718,48.0
90.409,-8.616,0.231,12.0
0.0,0.0,0.0,0.0
0.0,0.0,0.0,0.0
0.0,0.0,0.0,0.0
0.0,0.0,0.0,0.0
90.362,-8.717,0.787,52.0
90.35,-8.742,0.3,15.0
0.0,0.0,0.0,0.0
0.0,0.0,0.0,0.0
0.0,0.0,0.0,0.0
32.234,-3.156,-0.592,0.0
90.361,-8.848,0.859,14.0
90.368,-8.875,0.372,26.0
0.0,0.0,0.0,0.0
0.0,0.0,0.0,0.0
39.95,-3.956,-0.485,0.0
0.0,0.0,0.0,0.0
90.264,-8.966,0.933,88.0
90.04,-8.968,0.445,11.0
0.0,0.0,0.0,0.0
0.0,0.0,0.0,0.0
0.0,0.0,0.0,0.0
34.009,-3.425,-0.568,0.0
88.957,-8.959,0.995,6.0
88.528,-8.938,0.512,2.0
0.0,0.0,0.0,0.0
0.0,0.0,0.0,0.0
41.414,-4.214,-0.433,0.0
0.0,0.0,0.0,0.0
87.813,-8.96,1.058,1.0
87.497,-8.95,0.583,2.0
0.0,0.0,0.0,0.0
0.0,0.0,0.0,0.0
0.0,0.0,0.0,0.0
0.0,0.0,0.0,0.0
86.238,-8.911,1.116,32.0
86.249,-8.933,0.651,48.0
85.372,-8.862,0.186,4.0
0.0,0.0,0.0,0.0
44.353,-4.627,-0.384,0.0
37.15,-3.885,-0.521,0.0
85.785,-8.971,1.189,4.0
85.475,-8.959,0.724,3.0
85.935,-9.028,0.266,1.0
0.0,0.0,0.0,0.0
0.0,0.0,0.0,0.0
38.148,-4.036,-0.499,0.0
84.747,-8.967,1.254,3.0
84.433,-8.953,0.795,3.0
84.511,-8.982,0.342,2.0
0.0,0.0,0.0,0.0
18.151,-1.937,-0.123,0.0
0.0,0.0,0.0,0.0
83.363,-8.92,1.314,28.0
83.358,-8.937,0.866,83.0
83.329,-8.953,0.419,150.0
0.0,0.0,0.0,0.0
0.0,0.0,0.0,0.0
40.857,-4.418,-0.456,0.0
83.237,-9.001,1.393,7.0
83.189,-9.013,0.946,19.0
82.711,-8.979,0.496,16.0
0.0,0.0,0.0,0.0
0.0,0.0,0.0,0.0
0.0,0.0,0.0,0.0
83.366,-9.107,1.479,11.0
83.38,-9.125,1.032,150.0
83.389,-9.143,0.584,104.0
83.879,-9.215,0.129,2.0
0.0,0.0,0.0,0.0
38.559,-4.252,-0.353,0.0
83.389,-9.197,1.563,17.0
83.369,-9.211,1.116,14.0
83.377,-9.229,0.669,11.0
83.874,-9.301,0.215,34.0
0.0,0.0,0.0,0.0
0.0,0.0,0.0,0.0
83.381,-9.281,1.648,24.0
83.378,-9.296,1.202,12.0
83.387,-9.313,0.755,15.0
86.457,-9.673,0.311,7.0
0.0,0.0,0.0,0.0
47.522,-5.336,-0.337,0.0
83.38,-9.363,1.737,31.0
83.386,-9.379,1.291,17.0
83.381,-9.393,0.844,16.0
83.32,-9.402,0.389,8.0
0.0,0.0,0.0,0.0
0.0,0.0,0.0,0.0
83.315,-9.434,1.825,32.0
83.391,-9.457,1.381,47.0
83.395,-9.472,0.934,27.0
83.391,-9.486,0.479,140.0
77.535,-8.834,0.031,1.0
0.0,0.0,0.0,0.0
83.314,-9.509,1.915,36.0
83.387,-9.53,1.47,30.0
83.382,-9.543,1.024,24.0
83.368,-9.555,0.569,21.0
77.673,-8.916,0.114,16.0
0.0,0.0,0.0,0.0
83.308,-9.578,2.006,32.0
83.392,-9.6,1.562,31.0
83.38,-9.612,1.116,121.0
83.391,-9.626,0.661,42.0
77.691,-8.981,0.2,34.0
0.0,0.0,0.0,0.0
83.321,-9.647,2.098,28.0
83.395,-9.667,1.653,56.0
83.359,-9.675,1.206,16.0
83.367,-9.688,0.753,50.0
83.423,-9.708,0.308,11.0
0.0,0.0,0.0,0.0
116.314,-13.556,3.059,22.0
83.356,-9.726,1.747,28.0
83.39,-9.741,1.301,36.0
83.372,-9.75,0.847,61.0
83.373,-9.763,0.402,27.0
0.0,0.0,0.0,0.0
116.294,-13.638,3.19,33.0
83.312,-9.78,1.841,49.0
83.368,-9.797,1.396,46.0
83.337,-9.804,0.941,20.0
83.342,-9.817,0.496,15.0
75.569,-8.911,0.046,4.0
116.29,-13.716,3.324,34.0
83.289,-9.833,1.934,46.0
83.361,-9.851,1.491,24.0
83.374,-9.863,1.037,138.0
83.373,-9.873,0.592,17.0
75.058,-8.898,0.132,11.0
116.274,-13.788,3.457,24.0
83.3,-9.886,2.03,47.0
83.378,-9.904,1.587,22.0
83.372,-9.913,1.133,27.0
83.393,-9.925,0.687,16.0
74.843,-8.916,0.217,11.0
148.347,-17.678,4.581,15.0
83.303,-9.935,2.127,17.0
83.378,-9.951,1.683,47.0
83.358,-9.958,1.23,15.0
83.385,-9.97,0.785,18.0
83.364,-9.976,0.339,12.0
148.262,-17.748,4.751,22.0
116.318,-13.934,3.106,29.0
83.379,-9.996,1.781,150.0
83.378,-10.003,1.327,25.0
83.368,-10.01,0.882,60.0
83.379,-10.019,0.437,43.0
148.294,-17.827,4.926,22.0
116.282,-13.986,3.241,36.0
83.306,-10.026,1.877,51.0
83.38,-10.042,1.424,17.0
83.364,-10.047,0.979,46.0
83.379,-10.056,0.534,44.0
148.299,-17.894,5.1,21.0
116.274,-14.037,3.377,24.0
83.282,-10.059,1.973,43.0
83.385,-10.077,1.522,14.0
83.346,-10.079,1.075,20.0
83.375,-10.089,0.63,50.0
148.352,-17.959,5.273,25.0
116.265,-14.081,3.511,11.0
83.284,-10.092,2.07,23.0
83.389,-10.109,1.619,20.0
83.362,-10.111,1.174,16.0
83.381,-10.12,0.728,23.0
148.438,-18.023,5.454,18.0
147.987,-17.975,4.643,20.0
116.316,-14.133,3.029,22.0
83.365,-10.134,1.716,22.0
83.374,-10.139,1.271,17.0
83.358,-10.142,0.826,16.0
148.408,-18.066,5.626,17.0
147.819,-18.0,4.814,20.0
116.28,-14.164,3.164,37.0
83.308,-10.15,1.814,31.0
83.374,-10.162,1.37,16.0
83.36,-10.165,0.924,11.0
148.361,-18.1,5.8,13.0
147.98,-18.057,4.992,19.0
116.274,-14.192,3.3,29.0
83.273,-10.166,1.912,43.0
83.401,-10.184,1.468,50.0
83.35,-10.182,1.022,14.0
0.0,0.0,0.0,0.0
148.163,-18.111,5.177,16.0
116.273,-14.215,3.441,20.0
83.28,-10.183,2.01,34.0
83.395,-10.199,1.566,150.0
83.358,-10.197,1.121,18.0
152.244,-18.635,6.312,4.0
95.435,-11.681,3.446,15.0
147.966,-18.113,4.551,21.0
83.294,-10.197,2.107,8.0
83.402,-10.211,1.665,147.0
83.371,-10.209,1.218,26.0
94.204,-11.543,4.015,12.0
148.443,-18.188,5.533,12.0
147.844,-18.114,4.719,24.0
116.305,-14.25,3.079,34.0
83.369,-10.215,1.761,58.0
83.386,-10.217,1.316,39.0
94.174,-11.547,4.126,21.0
148.247,-18.175,5.701,11.0
147.846,-18.123,4.894,21.0
116.29,-14.254,3.216,46.0
83.307,-10.211,1.858,41.0
83.391,-10.221,1.413,43.0
94.059,-11.536,4.232,20.0
151.248,-18.547,5.994,4.0
147.961,-18.14,5.07,16.0
116.249,-14.25,3.35,29.0
83.262,-10.205,1.955,36.0
83.387,-10.219,1.511,150.0
93.903,-11.517,4.333,19.0
0.0,0.0,0.0,0.0
95.448,-11.699,3.382,15.0
116.248,-14.245,3.484,11.0
83.281,-10.203,2.05,17.0
83.397,-10.215,1.608,150.0
93.98,-11.521,4.446,18.0
94.132,-11.535,3.948,6.0
95.423,-11.689,3.491,12.0
147.915,-18.113,4.605,21.0
116.316,-14.239,2.997,18.0
83.376,-10.204,1.702,48.0
94.308,-11.551,4.571,15.0
94.143,-11.526,4.058,16.0
148.355,-18.155,5.597,18.0
147.84,-18.085,4.769,22.0
116.287,-14.219,3.129,31.0
83.309,-10.183,1.796,29.0
94.225,-11.527,4.675,15.0
93.991,-11.492,4.158,20.0
148.27,-18.12,5.764,13.0
147.913,-18.067,4.942,21.0
116.284,-14.197,3.26,30.0
83.275,-10.163,1.889,35.0
94.375,-11.528,4.788,17.0
93.884,-11.46,4.258,18.0
0.0,0.0,0.0,0.0
148.031,-18.049,5.109,21.0
116.274,-14.169,3.388,23.0
83.289,-10.144,1.982,36.0
94.379,-11.506,4.893,18.0
94.052,-11.458,4.37,18.0
94.537,-11.509,3.884,1.0
148.237,-18.035,5.279,16.0
147.939,-17.987,4.474,15.0
83.273,-10.119,2.072,15.0
94.46,-11.489,5.001,5.0
94.04,-11.429,4.473,19.0
94.475,-11.473,3.986,15.0
148.404,-18.009,5.447,22.0
147.87,-17.931,4.633,20.0
116.254,-14.088,3.019,24.0
0.0,0.0,0.0,0.0
93.999,-11.392,4.572,18.0
94.402,-11.431,4.084,17.0
148.378,-17.953,5.606,22.0
148.04,-17.898,4.796,20.0
116.287,-14.049,3.143,32.0
0.0,0.0,0.0,0.0
94.204,-11.381,4.683,20.0
94.315,-11.384,4.181,18.0
148.222,-17.875,5.758,21.0
148.326,-17.872,4.963,22.0
116.287,-14.0,3.266,33.0
0.0,0.0,0.0,0.0
94.469,-11.373,4.796,15.0
94.293,-11.341,4.278,15.0
148.199,-17.807,5.911,19.0
148.379,-17.812,5.118,21.0
116.274,-13.945,3.385,22.0
0.0,0.0,0.0,0.0
94.422,-11.323,4.891,16.0
94.245,-11.29,4.374,5.0
148.255,-17.741,6.067,10.0
148.339,-17.732,5.272,24.0
148.313,-17.712,4.471,15.0
0.0,0.0,0.0,0.0
94.356,-11.267,4.983,12.0
94.253,-11.242,4.469,7.0
151.62,-18.064,6.357,5.0
148.753,-17.703,5.433,18.0
148.418,-17.644,4.622,19.0
107.699,-12.817,6.38,7.0
94.454,-11.227,5.083,3.0
94.278,-11.192,4.565,17.0
0.0,0.0,0.0,0.0
148.822,-17.624,5.584,21.0
148.248,-17.535,4.765,17.0
107.796,-12.765,6.492,13.0
0.0,0.0,0.0,0.0
94.285,-11.135,4.658,14.0
0.0,0.0,0.0,0.0
148.598,-17.504,5.721,25.0
148.128,-17.428,4.903,21.0
49.377,-5.816,3.021,16.0
0.0,0.0,0.0,0.0
94.284,-11.074,4.748,1.0
0.0,0.0,0.0,0.0
148.534,-17.397,5.861,26.0
148.186,-17.334,5.046,21.0
49.386,-5.784,3.069,27.0
107.962,-12.625,6.123,3.0
107.988,-12.608,5.541,9.0
0.0,0.0,0.0,0.0
148.399,-17.277,5.991,13.0
148.272,-17.238,5.186,23.0
49.538,-5.766,3.125,15.0
107.941,-12.543,6.223,7.0
107.903,-12.52,5.633,8.0
110.915,-12.849,5.179,14.0
0.0,0.0,0.0,0.0
148.439,-17.145,5.325,24.0
49.605,-5.736,3.173,24.0
107.99,-12.467,6.321,13.0
0.0,0.0,0.0,0.0
110.814,-12.752,5.272,20.0
0.0,0.0,0.0,0.0
148.513,-17.037,5.456,24.0
49.334,-5.666,3.199,12.0
107.785,-12.358,6.402,18.0
0.0,0.0,0.0,0.0
111.024,-12.685,5.378,6.0
0.0,0.0,0.0,0.0
148.509,-16.913,5.58,20.0
49.48,-5.642,3.25,24.0
107.883,-12.278,6.5,16.0
0.0,0.0,0.0,0.0
108.48,-12.302,5.344,20.0
111.163,-12.584,4.873,2.0
148.537,-16.788,5.704,25.0
48.914,-5.535,3.253,36.0
108.004,-12.198,6.595,15.0
0.0,0.0,0.0,0.0
108.217,-12.176,5.418,17.0
110.987,-12.465,4.953,12.0
148.868,-16.689,5.836,20.0
48.861,-5.484,3.289,16.0
49.09,-5.499,3.036,22.0
0.0,0.0,0.0,0.0
108.093,-12.061,5.496,16.0
110.794,-12.339,5.031,10.0
149.209,-16.587,5.963,15.0
48.746,-5.425,3.318,18.0
49.088,-5.452,3.074,15.0
49.211,-5.454,2.812,21.0
107.929,-11.938,5.569,13.0
107.552,-11.874,4.964,7.0
149.523,-16.475,6.087,2.0
48.695,-5.372,3.351,14.0
48.587,-5.348,3.078,5.0
49.125,-5.396,2.843,38.0
108.052,-11.844,5.653,5.0
107.767,-11.787,5.051,17.0
111.574,-12.179,4.621,10.0
48.998,-5.355,3.407,16.0
48.486,-5.287,3.106,30.0
49.186,-5.351,2.881,19.0
109.032,-11.837,5.78,11.0
107.806,-11.679,5.127,18.0
110.99,-11.998,4.673,15.0
49.191,-5.324,3.454,17.0
48.519,-5.239,3.141,22.0
107.814,-11.616,6.388,17.0
109.148,-11.733,5.858,20.0
107.887,-11.572,5.201,18.0
110.933,-11.874,4.741,19.0
49.218,-5.274,3.487,40.0
48.494,-5.184,3.17,22.0
49.329,-5.261,2.954,5.0
109.074,-11.606,5.922,23.0
107.832,-11.447,5.266,21.0
0.0,0.0,0.0,0.0
49.27,-5.224,3.522,32.0
48.512,-5.131,3.201,20.0
107.461,-11.339,6.5,10.0
49.481,-5.208,2.716,4.0
110.52,-11.606,5.462,14.0
109.442,-11.467,4.809,18.0
49.321,-5.174,3.554,14.0
48.515,-5.076,3.229,8.0
107.526,-11.221,6.565,16.0
49.475,-5.15,2.744,8.0
110.483,-11.474,5.521,8.0
109.26,-11.32,4.86,19.0
49.335,-5.117,3.582,31.0
107.134,-11.083,7.188,18.0
107.542,-11.096,6.624,18.0
109.057,-11.223,6.107,10.0
109.018,-11.191,5.505,24.0
109.243,-11.186,4.917,17.0
49.411,-5.064,3.613,17.0
107.349,-10.974,7.258,20.0
107.598,-10.969,6.682,13.0
107.982,-10.98,6.1,20.0
108.936,-11.047,5.555,22.0
110.549,-11.182,5.029,23.0
49.488,-5.011,3.643,32.0
49.532,-5.001,3.373,5.0
109.674,-11.044,6.862,19.0
107.847,-10.83,6.143,26.0
108.669,-10.884,5.591,22.0
108.711,-10.859,4.995,9.0
0.0,0.0,0.0,0.0
49.514,-4.936,3.393,4.0
110.102,-10.945,6.937,19.0
107.912,-10.697,6.193,26.0
108.202,-10.695,5.613,21.0
108.12,-10.658,5.013,21.0
49.763,-4.91,3.706,17.0
107.724,-10.597,7.427,18.0
110.322,-10.822,6.995,10.0
108.331,-10.595,6.26,16.0
108.088,-10.54,5.649,28.0
108.071,-10.509,5.053,25.0
49.774,-4.844,3.726,6.0
108.015,-10.481,7.488,16.0
110.379,-10.677,7.04,18.0
108.724,-10.486,6.321,16.0
108.191,-10.404,5.692,23.0
108.48,-10.402,5.109,18.0
107.19,-10.286,8.062,14.0
107.677,-10.301,7.5,18.0
107.217,-10.224,6.873,9.0
108.713,-10.335,6.356,20.0
108.269,-10.262,5.731,24.0
108.515,-10.254,5.144,21.0
106.266,-10.051,8.024,19.0
107.144,-10.101,7.495,14.0
107.394,-10.092,6.916,19.0
108.736,-10.186,6.387,24.0
108.337,-10.117,5.765,15.0
108.736,-10.122,5.184,25.0
106.023,-9.877,8.034,18.0
106.929,-9.929,7.508,15.0
107.619,-9.961,6.957,9.0
108.89,-10.045,6.424,23.0
108.785,-10.003,5.814,17.0
108.498,-9.946,5.198,9.0
108.134,-9.92,8.218,10.0
106.64,-9.749,7.51,19.0
107.546,-9.799,6.976,9.0
108.99,-9.898,6.452,16.0
108.877,-9.856,5.84,23.0
108.512,-9.79,5.22,12.0
108.875,-9.83,8.295,21.0
106.593,-9.59,7.526,21.0
107.472,-9.635,6.99,14.0
111.658,-9.977,6.629,7.0
108.78,-9.688,5.853,20.0
107.502,-9.541,5.187,20.0
109.222,-9.699,8.338,15.0
106.612,-9.433,7.543,17.0
106.799,-9.417,6.96,20.0
105.328,-9.255,6.267,14.0
107.586,-9.421,5.802,17.0
107.325,-9.366,5.191,26.0
109.079,-9.523,8.338,9.0
110.828,-9.64,7.853,4.0
109.383,-9.48,7.139,9.0
105.295,-9.094,6.274,22.0
107.407,-9.244,5.801,14.0
107.388,-9.21,5.202,19.0
109.499,-9.395,8.379,16.0
108.808,-9.3,7.716,18.0
107.07,-9.117,6.994,12.0
105.344,-8.938,6.283,16.0
107.845,-9.118,5.83,26.0
108.393,-9.132,5.254,20.0
108.35,-9.131,8.294,16.0
104.427,-8.767,7.408,16.0
105.075,-8.787,6.865,8.0
109.251,-9.101,6.516,8.0
107.049,-8.884,5.787,16.0
107.34,-8.876,5.203,19.0
108.108,-8.942,8.273,22.0
104.476,-8.607,7.409,15.0
105.014,-8.618,6.859,14.0
105.828,-8.652,6.309,11.0
107.12,-8.725,5.786,28.0
107.561,-8.727,5.21,25.0
107.759,-8.743,8.242,15.0
106.96,-8.644,7.579,12.0
104.998,-8.452,6.852,18.0
108.861,-8.729,6.482,8.0
107.804,-8.61,5.815,21.0
107.613,-8.561,5.202,35.0
107.395,-8.544,8.204,18.0
106.359,-8.426,7.526,26.0
0.0,0.0,0.0,0.0
106.664,-8.381,6.338,18.0
108.541,-8.494,5.841,24.0
108.87,-8.485,5.25,14.0
107.395,-8.37,8.189,18.0
0.0,0.0,0.0,0.0
106.116,-8.2,6.896,20.0
108.501,-8.351,6.431,17.0
108.787,-8.338,5.837,23.0
108.542,-8.286,5.215,23.0
108.914,-8.313,8.286,13.0
106.78,-8.116,7.521,14.0
107.778,-8.156,6.984,8.0
108.11,-8.146,6.387,23.0
107.941,-8.1,5.77,21.0
107.987,-8.069,5.166,27.0
104.792,-7.828,7.949,10.0
110.352,-8.207,7.748,11.0
105.613,-7.821,6.819,4.0
107.987,-7.963,6.354,23.0
107.647,-7.904,5.728,24.0
108.147,-7.908,5.148,23.0
104.807,-7.659,7.923,29.0
104.922,-7.633,7.339,22.0
110.676,-8.015,7.116,9.0
107.352,-7.741,6.287,20.0
107.844,-7.741,5.708,22.0
107.953,-7.716,5.106,33.0
107.119,-7.651,8.066,7.0
109.788,-7.807,7.646,10.0
107.54,-7.611,6.881,17.0
107.219,-7.554,6.244,20.0
107.54,-7.543,5.657,25.0
107.89,-7.533,5.068,25.0
105.145,-7.335,7.88,16.0
108.849,-7.559,7.542,23.0
107.191,-7.41,6.821,17.0
107.116,-7.369,6.199,28.0
107.229,-7.343,5.6,34.0
107.701,-7.342,5.019,24.0
105.025,-7.153,7.831,27.0
107.228,-7.268,7.387,20.0
106.852,-7.208,6.757,25.0
107.102,-7.191,6.156,23.0
107.012,-7.152,5.545,29.0
107.762,-7.168,4.977,28.0
105.103,-6.983,7.792,6.0
107.029,-7.075,7.327,27.0
107.902,-7.099,6.776,21.0
107.091,-7.012,6.107,21.0
107.352,-6.996,5.515,29.0
107.719,-6.986,4.926,29.0
108.769,-7.044,8.013,18.0
106.955,-6.892,7.271,25.0
107.895,-6.918,6.722,20.0
108.497,-6.922,6.135,20.0
107.422,-6.82,5.465,28.0
107.698,-6.804,4.87,27.0
110.198,-6.952,8.06,5.0
107.146,-6.725,7.229,27.0
108.302,-6.764,6.691,12.0
107.246,-6.664,6.007,22.0
107.51,-6.647,5.413,32.0
107.619,-6.62,4.808,27.0
109.385,-6.718,7.942,7.0
107.722,-6.582,7.208,20.0
108.073,-6.57,6.617,24.0
107.186,-6.481,5.943,23.0
107.719,-6.481,5.361,22.0
107.572,-6.438,4.745,29.0
107.602,-6.428,7.748,16.0
108.032,-6.419,7.164,23.0
107.984,-6.383,6.545,15.0
107.331,-6.31,5.886,25.0
107.878,-6.309,5.303,29.0
107.545,-6.256,4.676,32.0
108.145,-6.278,7.719,21.0
110.454,-6.377,7.253,8.0
107.473,-6.172,6.445,27.0
107.284,-6.128,5.813,34.0
108.161,-6.144,5.245,36.0
107.694,-6.084,4.611,24.0
108.36,-6.109,7.661,12.0
107.993,-6.054,7.018,21.0
107.631,-6.0,6.38,24.0
107.783,-5.975,5.764,17.0
108.162,-5.963,5.17,28.0
108.192,-5.931,4.556,24.0
111.228,-6.084,7.782,12.0
108.14,-5.879,6.948,23.0
108.12,-5.845,6.33,25.0
107.927,-5.8,5.692,18.0
108.142,-5.78,5.088,28.0
109.37,-5.812,4.524,18.0
113.079,-5.992,7.825,9.0
108.596,-5.72,6.894,16.0
108.211,-5.667,6.251,24.0
108.346,-5.641,5.63,20.0
108.186,-5.6,5.005,15.0
116.808,-6.01,4.738,12.0
108.365,-5.561,7.412,28.0
108.81,-5.549,6.819,26.0
108.245,-5.488,6.165,8.0
108.561,-5.47,5.552,25.0
116.287,-5.824,5.283,8.0
116.954,-5.822,4.647,17.0
111.695,-5.543,7.544,9.0
112.47,-5.546,6.952,18.0
112.367,-5.506,6.302,19.0
108.841,-5.3,5.472,17.0
116.199,-5.625,5.178,22.0
117.32,-5.645,4.559,20.0
0.0,0.0,0.0,0.0
113.057,-5.386,6.888,10.0
112.405,-5.321,6.204,26.0
114.171,-5.372,5.638,20.0
116.133,-5.429,5.071,16.0
117.316,-5.449,4.452,28.0
116.3,-5.383,7.645,18.0
116.044,-5.335,6.962,17.0
112.749,-5.151,6.118,14.0
114.232,-5.185,5.534,22.0
115.682,-5.217,4.942,23.0
117.459,-5.263,4.346,21.0
116.553,-5.202,7.549,23.0
115.026,-5.1,6.79,23.0
115.73,-5.096,6.167,19.0
114.121,-4.993,5.417,16.0
115.983,-5.04,4.841,24.0
117.402,-5.068,4.228,25.0
114.712,-4.93,7.314,23.0
114.792,-4.901,6.66,23.0
114.616,-4.86,5.992,21.0
118.092,-4.973,5.484,11.0
115.997,-4.852,4.723,20.0
127.147,-5.283,4.45,7.0
114.677,-4.744,7.194,21.0
114.327,-4.695,6.514,27.0
114.34,-4.662,5.858,25.0
115.398,-4.671,5.237,16.0
0.0,0.0,0.0,0.0
116.868,-4.665,3.965,21.0
115.016,-4.568,7.089,21.0
114.492,-4.515,6.399,24.0
114.495,-4.483,5.741,21.0
115.289,-4.482,5.108,12.0
117.213,-4.524,4.521,25.0
138.76,-5.317,4.556,18.0
114.684,-4.371,6.94,23.0
114.458,-4.329,6.267,17.0
115.517,-4.337,5.662,26.0
117.191,-4.366,5.058,16.0
118.215,-4.372,4.423,11.0
138.635,-5.089,4.391,23.0
114.656,-4.184,6.805,21.0
114.381,-4.142,6.13,27.0
115.886,-4.163,5.543,24.0
117.444,-4.186,4.929,18.0
117.623,-4.161,4.261,12.0
140.113,-4.918,4.272,9.0
114.386,-3.99,6.65,27.0
114.316,-3.956,5.987,23.0
115.879,-3.979,5.403,25.0
116.635,-3.974,4.755,26.0
117.619,-3.977,4.12,16.0
140.241,-4.705,4.107,18.0
115.5,-3.849,6.574,21.0
116.308,-3.844,5.95,15.0
117.167,-3.84,5.318,25.0
118.966,-3.866,4.702,10.0
139.5,-4.496,4.71,20.0
163.235,-5.219,4.575,15.0
0.0,0.0,0.0,0.0
116.69,-3.673,5.819,14.0
117.048,-3.653,5.161,12.0
118.763,-3.674,4.541,22.0
139.845,-4.291,4.542,17.0
163.277,-4.968,4.364,15.0
114.425,-3.456,6.216,16.0
117.254,-3.511,5.694,23.0
123.841,-3.673,5.298,9.0
118.577,-3.487,4.377,25.0
140.331,-4.091,4.373,11.0
163.463,-4.724,4.153,5.0
141.081,-4.045,7.476,16.0
117.273,-3.33,5.535,26.0
117.527,-3.306,4.868,16.0
140.13,-3.907,4.983,16.0
140.755,-3.888,4.193,12.0
171.571,-4.695,4.121,3.0
124.393,-3.375,6.417,13.0
117.569,-3.16,5.386,11.0
139.856,-3.724,5.6,22.0
143.767,-3.792,4.911,10.0
163.224,-4.263,4.635,17.0
0.0,0.0,0.0,0.0
124.324,-3.188,6.238,2.0
138.96,-3.527,6.168,11.0
143.297,-3.603,5.534,8.0
162.562,-4.046,5.322,16.0
163.28,-4.022,4.401,16.0
0.0,0.0,0.0,0.0
140.795,-3.402,6.861,10.0
143.823,-3.439,6.175,9.0
140.462,-3.324,5.219,22.0
162.623,-3.808,5.085,25.0
163.275,-3.784,4.163,9.0
170.432,-3.908,3.361,8.0
192.394,-4.368,9.088,18.0
190.327,-4.274,7.888,14.0
140.475,-3.121,5.01,17.0
163.352,-3.589,4.864,15.0
0.0,0.0,0.0,0.0
170.313,-3.662,3.104,6.0
191.776,-4.08,8.77,19.0
190.422,-4.006,7.606,16.0
190.274,-3.958,6.499,19.0
163.289,-3.357,4.615,38.0
0.0,0.0,0.0,0.0
170.243,-3.423,2.845,6.0
191.309,-3.801,8.455,14.0
190.293,-3.736,7.306,24.0
162.576,-3.155,5.302,39.0
163.33,-3.132,4.365,23.0
170.468,-3.229,3.568,6.0
137.446,-2.573,2.084,3.0
191.978,-3.549,8.183,21.0
190.891,-3.484,7.029,19.0
162.734,-2.934,5.049,15.0
163.443,-2.909,4.109,6.0
170.387,-2.994,3.296,6.0
137.419,-2.383,1.863,2.0
190.046,-3.253,7.794,16.0
190.169,-3.212,6.697,7.0
163.28,-2.722,4.804,16.0
171.54,-2.822,4.036,5.0
173.614,-2.818,3.08,7.0
137.082,-2.195,1.638,19.0
191.706,-3.026,7.55,22.0
162.598,-2.53,5.459,38.0
163.28,-2.506,4.537,34.0
0.0,0.0,0.0,0.0
19.758,-0.294,0.318,0.0
19.755,-0.29,0.203,23.0
192.072,-2.782,7.248,19.0
162.614,-2.32,5.193,62.0
163.377,-2.295,4.269,20.0
19.778,-0.273,0.4,3.0
19.749,-0.269,0.284,9.0
19.743,-0.264,0.17,27.0
191.691,-2.528,6.908,8.0
163.274,-2.12,4.936,18.0
19.766,-0.252,0.482,5.0
19.739,-0.248,0.365,9.0
19.738,-0.244,0.251,9.0
19.758,-0.24,0.137,2.0
162.493,-1.939,5.578,12.0
19.774,-0.232,0.564,7.0
19.742,-0.227,0.448,9.0
19.742,-0.223,0.332,8.0
19.765,-0.219,0.217,1.0
0.0,0.0,0.0,0.0
19.773,-0.211,0.644,6.0
19.754,-0.207,0.529,11.0
19.744,-0.203,0.414,7.0
19.739,-0.199,0.297,1.0
164.031,-1.627,1.521,4.0
0.0,0.0,0.0,0.0
19.754,-0.187,0.609,9.0
19.753,-0.184,0.494,7.0
19.758,-0.18,0.379,1.0
169.427,-1.513,2.254,18.0
160.739,-1.404,1.205,18.0
0.0,0.0,0.0,0.0
19.767,-0.164,0.574,6.0
19.772,-0.161,0.459,2.0
177.257,-1.409,3.085,18.0
165.541,-1.286,1.904,4.0
160.78,-1.218,0.914,5.0
19.758,-0.146,-0.002,7.0
19.783,-0.142,0.538,2.0
19.706,-0.138,0.422,1.0
19.737,-0.134,0.307,1.0
19.741,-0.131,0.191,8.0
19.75,-0.127,0.076,8.0
19.736,-0.124,-0.038,11.0
19.668,-0.119,0.499,10.0
19.677,-0.116,0.385,8.0
19.686,-0.112,0.27,7.0
19.666,-0.109,0.154,13.0
19.708,-0.106,0.04,13.0
19.718,-0.102,-0.074,11.0
19.659,-0.098,0.463,10.0
19.674,-0.095,0.349,9.0
19.682,-0.091,0.234,12.0
19.687,-0.088,0.118,14.0
19.705,-0.085,0.003,15.0
19.713,-0.081,-0.11,16.0
19.642,-0.077,0.425,10.0
19.651,-0.074,0.311,10.0
19.673,-0.071,0.197,14.0
19.698,-0.068,0.081,14.0
19.706,-0.065,-0.033,17.0
19.74,-0.061,-0.148,15.0
19.63,-0.057,0.388,10.0
19.64,-0.054,0.274,9.0
19.686,-0.051,0.16,12.0
19.7,-0.048,0.044,16.0
19.729,-0.045,-0.07,11.0
19.759,-0.042,-0.185,13.0
19.638,-0.038,0.351,11.0
19.641,-0.035,0.236,15.0
19.687,-0.032,0.122,10.0
19.7,-0.029,0.005,14.0
19.747,-0.026,-0.109,9.0
19.784,-0.023,-0.224,0.0
19.632,-0.019,0.312,14.0
19.644,-0.016,0.198,12.0
19.724,-0.013,0.084,5.0
19.727,-0.01,-0.032,10.0
19.747,-0.007,-0.147,0.0
0.0,0.0,0.0,0.0
19.626,-0.001,0.274,14.0
19.804,0.001,0.161,2.0
19.77,0.004,0.045,3.0
19.77,0.007,-0.071,8.0
19.779,0.01,-0.186,1.0
19.772,0.012,-0.301,2.0
19.636,0.015,0.235,17.0
19.741,0.018,0.121,12.0
19.752,0.021,0.006,19.0
19.752,0.024,-0.11,8.0
19.747,0.026,-0.225,13.0
19.773,0.029,-0.34,12.0
19.704,0.032,0.197,14.0
19.762,0.035,0.083,18.0
19.742,0.037,-0.032,65.0
19.758,0.04,-0.149,14.0
19.779,0.043,-0.264,77.0
19.778,0.045,-0.379,24.0
19.72,0.048,0.158,12.0
19.76,0.05,0.044,27.0
19.76,0.053,-0.071,77.0
19.766,0.056,-0.188,47.0
19.78,0.058,-0.303,42.0
19.781,0.061,-0.419,36.0
19.711,0.063,0.119,19.0
19.769,0.066,0.004,42.0
19.775,0.068,-0.11,23.0
19.748,0.071,-0.228,14.0
19.766,0.073,-0.343,13.0
19.771,0.076,-0.459,8.0
19.696,0.078,0.079,15.0
19.752,0.08,-0.035,8.0
19.764,0.083,-0.15,2.0
19.773,0.085,-0.268,0.0
19.787,0.088,-0.383,0.0
26.255,0.12,-0.662,0.0
19.684,0.091,0.039,10.0
19.741,0.094,-0.075,1.0
0.0,0.0,0.0,0.0
33.948,0.17,-0.529,0.0
28.702,0.147,-0.614,0.0
25.046,0.131,-0.682,0.0
19.667,0.104,0.0,12.0
19.691,0.107,-0.115,3.0
0.0,0.0,0.0,0.0
30.53,0.173,-0.538,0.0
27.106,0.156,-0.635,0.0
23.289,0.137,-0.682,0.0
19.671,0.117,-0.04,10.0
19.693,0.119,-0.155,2.0
0.0,0.0,0.0,0.0
29.76,0.187,-0.584,0.0
25.931,0.165,-0.661,0.0
22.696,0.147,-0.711,0.0
19.671,0.129,-0.08,11.0
19.698,0.131,-0.195,2.0
32.159,0.217,-0.507,0.0
25.303,0.173,-0.549,0.0
24.927,0.173,-0.686,0.0
21.391,0.151,-0.714,0.0
19.66,0.14,-0.121,12.0
19.701,0.142,-0.236,2.0
31.109,0.227,-0.555,0.0
26.795,0.198,-0.637,0.0
23.309,0.175,-0.69,0.0
20.826,0.158,-0.738,0.0
19.025,0.205,-0.779,0.0
17.145,0.185,-0.803,0.0
15.551,0.167,-0.819,0.0
14.363,0.155,-0.842,0.0
13.192,0.142,-0.85,1.0
12.406,0.134,-0.872,0.0
18.26,0.194,-0.784,0.0
16.567,0.176,-0.808,0.0
15.124,0.161,-0.826,0.0
13.907,0.148,-0.842,0.0
12.961,0.138,-0.861,1.0
12.123,0.129,-0.877,0.0
17.678,0.185,-0.794,0.0
15.816,0.166,-0.802,0.0
14.738,0.154,-0.834,0.0
13.579,0.142,-0.849,1.0
12.676,0.132,-0.867,0.0
11.808,0.123,-0.877,1.0
17.106,0.176,-0.802,0.0
15.557,0.16,-0.82,0.0
14.376,0.147,-0.842,0.0
13.245,0.135,-0.854,0.0
12.386,0.127,-0.872,0.0
11.602,0.118,-0.885,0.0
16.548,0.166,-0.808,0.0
15.149,0.152,-0.828,0.0
13.917,0.139,-0.842,0.0
12.955,0.129,-0.861,1.0
12.121,0.121,-0.876,0.0
11.355,0.113,-0.887,0.0
15.914,0.155,-0.807,0.0
14.747,0.144,-0.834,0.0
13.61,0.132,-0.849,0.0
12.672,0.123,-0.866,0.0
11.852,0.115,-0.879,1.0
11.146,0.107,-0.892,0.0
15.463,0.146,-0.814,0.0
14.352,0.135,-0.839,0.0
13.253,0.125,-0.852,0.0
12.355,0.116,-0.868,0.0
11.614,0.108,-0.884,0.0
10.936,0.102,-0.896,0.0
15.249,0.139,-0.831,0.0
13.948,0.127,-0.841,0.0
12.957,0.117,-0.857,0.0
12.109,0.109,-0.873,0.0
11.378,0.102,-0.887,0.0
10.725,0.096,-0.899,0.0
14.755,0.129,-0.832,0.0
13.627,0.118,-0.847,0.0
12.714,0.11,-0.865,1.0
11.903,0.102,-0.881,0.0
11.169,0.096,-0.892,1.0
10.478,0.089,-0.898,0.0
14.388,0.12,-0.837,0.0
13.304,0.11,-0.852,0.0
12.44,0.102,-0.869,0.0
11.636,0.095,-0.882,0.0
10.972,0.089,-0.896,0.0
10.342,0.084,-0.905,0.0
13.992,0.11,-0.84,0.0
12.998,0.102,-0.856,0.0
12.166,0.094,-0.872,0.0
11.425,0.088,-0.887,0.0
10.747,0.082,-0.897,0.0
10.118,0.077,-0.904,0.0
13.68,0.101,-0.845,0.0
12.758,0.094,-0.863,0.0
11.931,0.087,-0.876,0.0
11.204,0.081,-0.89,1.0
10.538,0.076,-0.898,0.0
9.973,0.071,-0.909,0.0
13.363,0.092,-0.849,0.0
12.49,0.085,-0.867,0.0
11.717,0.079,-0.881,0.0
11.0,0.074,-0.893,0.0
10.368,0.069,-0.902,0.0
9.806,0.064,-0.911,0.0
13.09,0.083,-0.855,0.0
12.244,0.077,-0.871,0.0
11.473,0.071,-0.883,0.0
10.796,0.066,-0.895,0.0
10.176,0.062,-0.903,0.0
9.607,0.058,-0.909,0.0
12.84,0.074,-0.861,0.0
12.005,0.068,-0.875,0.0
11.259,0.063,-0.886,0.0
10.618,0.059,-0.898,0.0
10.019,0.055,-0.907,0.0
9.493,0.051,-0.915,0.0
12.59,0.065,-0.865,1.0
11.787,0.06,-0.879,0.0
11.079,0.055,-0.89,0.0
10.412,0.051,-0.899,0.0
9.848,0.048,-0.908,0.0
9.384,0.045,-0.92,0.0
9.818,-0.091,-0.908,0.0
9.295,-0.087,-0.913,0.0
8.85,-0.085,-0.921,0.0
8.42,-0.082,-0.926,0.0
8.04,-0.079,-0.93,0.0
7.752,-0.078,-0.942,0.0
9.711,-0.1,-0.908,0.0
9.215,-0.096,-0.915,0.0
8.753,-0.093,-0.92,0.0
8.355,-0.09,-0.927,0.0
7.994,-0.087,-0.934,0.0
7.661,-0.085,-0.939,0.0
9.627,-0.11,-0.91,0.0
9.139,-0.105,-0.917,0.0
8.702,-0.102,-0.923,0.0
8.297,-0.098,-0.929,0.0
7.937,-0.095,-0.935,0.0
7.6,-0.093,-0.939,0.0
9.567,-0.119,-0.914,0.0
9.092,-0.115,-0.921,0.0
8.631,-0.11,-0.924,0.0
8.23,-0.107,-0.93,0.0
7.866,-0.103,-0.934,0.0
7.567,-0.101,-0.943,0.0
9.472,-0.129,-0.914,0.0
9.01,-0.124,-0.921,0.0
8.565,-0.119,-0.925,0.0
8.172,-0.115,-0.931,0.0
7.832,-0.112,-0.937,0.0
7.512,-0.108,-0.943,0.0
9.372,-0.138,-0.913,0.0
8.947,-0.133,-0.923,0.0
8.49,-0.128,-0.925,0.0
8.128,-0.124,-0.933,0.0
7.791,-0.12,-0.939,0.0
7.44,-0.116,-0.94,0.0
9.289,-0.147,-0.913,0.0
8.848,-0.141,-0.92,0.0
8.429,-0.136,-0.925,0.0
8.066,-0.132,-0.933,0.0
7.754,-0.128,-0.941,0.0
7.421,-0.124,-0.944,0.0
9.23,-0.156,-0.914,0.0
8.792,-0.151,-0.921,0.0
8.385,-0.145,-0.927,0.0
8.012,-0.14,-0.933,0.0
7.704,-0.136,-0.941,0.0
7.381,-0.132,-0.945,0.0
9.165,-0.166,-0.915,0.0
8.734,-0.16,-0.922,0.0
8.334,-0.154,-0.928,0.0
7.981,-0.149,-0.935,0.0
7.656,-0.144,-0.941,0.0
7.351,-0.14,-0.946,0.0
9.12,-0.175,-0.917,0.0
8.685,-0.169,-0.923,0.0
8.293,-0.163,-0.929,0.0
7.919,-0.157,-0.933,0.0
7.62,-0.152,-0.942,0.0
7.269,-0.147,-0.941,0.0
9.085,-0.185,-0.92,0.0
8.641,-0.178,-0.924,0.0
8.24,-0.171,-0.928,0.0
7.891,-0.166,-0.935,0.0
7.58,-0.16,-0.942,0.0
7.277,-0.156,-0.947,0.0
9.037,-0.195,-0.92,0.0
8.599,-0.187,-0.925,0.0
8.202,-0.18,-0.929,0.0
7.857,-0.174,-0.936,0.0
7.564,-0.169,-0.945,0.0
7.258,-0.164,-0.948,0.0
8.978,-0.204,-0.92,0.0
8.562,-0.197,-0.926,0.0
8.167,-0.189,-0.93,0.0
7.824,-0.183,-0.937,0.0
7.502,-0.177,-0.941,0.0
7.251,-0.172,-0.952,0.0
8.95,-0.214,-0.922,0.0
8.555,-0.207,-0.93,0.0
8.153,-0.198,-0.933,0.0
7.804,-0.192,-0.938,0.0
7.503,-0.186,-0.945,0.0
7.195,-0.179,-0.948,0.0
8.895,-0.224,-0.92,0.0
8.49,-0.215,-0.927,0.0
8.097,-0.207,-0.93,0.0
7.754,-0.2,-0.936,0.0
7.466,-0.194,-0.944,0.0
7.175,-0.188,-0.949,0.0
8.852,-0.233,-0.92,0.0
8.454,-0.224,-0.927,0.0
8.084,-0.216,-0.932,0.0
7.767,-0.209,-0.941,0.0
7.432,-0.202,-0.943,0.0
7.145,-0.195,-0.948,0.0
8.825,-0.243,-0.921,0.0
8.411,-0.233,-0.926,0.0
8.056,-0.225,-0.932,0.0
7.732,-0.218,-0.94,0.0
7.43,-0.211,-0.946,0.0
7.125,-0.203,-0.948,0.0
8.811,-0.253,-0.923,0.0
8.392,-0.243,-0.926,0.0
8.027,-0.234,-0.932,0.0
7.705,-0.226,-0.939,0.0
7.403,-0.219,-0.945,0.0
7.104,-0.212,-0.947,0.0
8.814,-0.264,-0.926,0.0
8.376,-0.252,-0.927,0.0
8.038,-0.244,-0.936,0.0
7.687,-0.235,-0.939,0.0
7.414,-0.228,-0.948,0.0
7.089,-0.22,-0.947,0.0
8.771,-0.273,-0.924,0.0
8.326,-0.261,-0.924,0.0
7.999,-0.252,-0.933,0.0
7.665,-0.243,-0.939,0.0
7.389,-0.236,-0.947,0.0
7.066,-0.227,-0.946,0.0
8.772,-0.283,-0.926,0.0
8.318,-0.27,-0.925,0.0
8.005,-0.262,-0.935,0.0
7.648,-0.252,-0.938,0.0
7.378,-0.245,-0.947,0.0
7.066,-0.236,-0.947,0.0
8.747,-0.293,-0.925,0.0
8.299,-0.28,-0.924,0.0
7.989,-0.271,-0.935,0.0
7.654,-0.261,-0.94,0.0
7.365,-0.253,-0.946,0.0
7.074,-0.245,-0.949,0.0
8.748,-0.303,-0.926,0.0
8.35,-0.291,-0.931,0.0
7.985,-0.28,-0.935,0.0
7.656,-0.271,-0.941,0.0
7.398,-0.263,-0.951,0.0
7.061,-0.253,-0.948,0.0
8.757,-0.314,-0.928,0.0
8.324,-0.3,-0.929,0.0
7.971,-0.289,-0.934,0.0
7.658,-0.28,-0.942,0.0
7.371,-0.271,-0.948,0.0
7.077,-0.262,-0.951,0.0
8.742,-0.324,-0.926,0.0
8.332,-0.311,-0.93,0.0
7.971,-0.299,-0.935,0.0
7.636,-0.288,-0.939,0.0
7.375,-0.28,-0.949,0.0
7.103,-0.271,-0.954,0.0
8.747,-0.334,-0.927,0.0
8.346,-0.321,-0.931,0.0
7.985,-0.309,-0.936,0.0
7.603,-0.296,-0.935,0.0
7.376,-0.288,-0.949,0.0
7.063,-0.278,-0.949,0.0
8.748,-0.345,-0.927,0.0
8.333,-0.33,-0.929,0.0
7.98,-0.318,-0.935,0.0
7.679,-0.308,-0.944,0.0
7.373,-0.297,-0.948,0.0
7.07,-0.286,-0.949,0.0
8.757,-0.355,-0.927,0.0
8.366,-0.341,-0.932,0.0
8.013,-0.329,-0.938,0.0
7.662,-0.316,-0.941,0.0
7.364,-0.305,-0.946,0.0
7.104,-0.296,-0.953,0.0
8.746,-0.365,-0.924,0.0
8.361,-0.35,-0.931,0.0
8.03,-0.338,-0.939,0.0
7.677,-0.325,-0.941,0.0
7.349,-0.313,-0.943,0.0
7.133,-0.305,-0.955,0.0
8.768,-0.376,-0.925,0.0
8.379,-0.361,-0.931,0.0
8.031,-0.347,-0.937,0.0
7.674,-0.334,-0.939,0.0
7.38,-0.323,-0.945,0.0
7.171,-0.315,-0.959,0.0
8.802,-0.387,-0.927,0.0
8.399,-0.371,-0.931,0.0
8.037,-0.357,-0.936,0.0
7.727,-0.345,-0.944,0.0
7.414,-0.332,-0.947,0.0
7.162,-0.322,-0.956,0.0
8.831,-0.398,-0.927,0.0
8.426,-0.381,-0.932,0.0
8.042,-0.366,-0.934,0.0
7.718,-0.353,-0.941,0.0
7.427,-0.341,-0.947,0.0
7.176,-0.331,-0.955,0.0
8.842,-0.408,-0.926,0.0
8.432,-0.391,-0.93,0.0
8.057,-0.375,-0.933,0.0
7.734,-0.362,-0.94,0.0
7.41,-0.348,-0.942,0.0
7.177,-0.339,-0.953,0.0
8.88,-0.419,-0.927,0.0
8.482,-0.402,-0.932,0.0
8.083,-0.385,-0.933,0.0
7.71,-0.369,-0.934,0.0
7.489,-0.36,-0.949,0.0
7.189,-0.347,-0.951,0.0
8.905,-0.43,-0.926,0.0
8.506,-0.412,-0.931,0.0
8.087,-0.394,-0.93,0.0
7.782,-0.38,-0.939,0.0
7.506,-0.369,-0.948,0.0
7.193,-0.355,-0.949,0.0
8.925,-0.44,-0.924,0.0
8.541,-0.423,-0.931,0.0
8.149,-0.405,-0.934,0.0
7.795,-0.389,-0.937,0.0
7.555,-0.379,-0.951,0.0
7.245,-0.365,-0.952,0.0
8.988,-0.452,-0.926,0.0
8.566,-0.433,-0.93,0.0
8.169,-0.415,-0.932,0.0
7.828,-0.399,-0.937,0.0
7.544,-0.386,-0.945,0.0
7.252,-0.373,-0.949,0.0
9.052,-0.465,-0.928,0.0
8.607,-0.444,-0.929,0.0
8.252,-0.427,-0.937,0.0
7.873,-0.409,-0.938,0.0
7.599,-0.396,-0.948,0.0
7.292,-0.382,-0.95,0.0
9.089,-0.475,-0.926,0.0
8.674,-0.455,-0.932,0.0
8.27,-0.436,-0.934,0.0
7.905,-0.418,-0.937,0.0
7.637,-0.406,-0.948,0.0
7.314,-0.39,-0.948,0.0
9.14,-0.487,-0.926,0.0
8.716,-0.466,-0.931,0.0
8.325,-0.447,-0.935,0.0
7.968,-0.429,-0.94,0.0
7.636,-0.413,-0.943,0.0
7.344,-0.399,-0.947,0.0
9.187,-0.498,-0.925,0.0
8.763,-0.477,-0.93,0.0
8.371,-0.457,-0.934,0.0
7.957,-0.436,-0.933,0.0
7.697,-0.423,-0.945,0.0
7.401,-0.409,-0.95,0.0
9.236,-0.509,-0.923,0.0
8.8,-0.487,-0.928,0.0
8.398,-0.466,-0.931,0.0
8.049,-0.448,-0.938,0.0
7.725,-0.432,-0.943,0.0
7.45,-0.418,-0.951,0.0
9.302,-0.521,-0.923,0.0
8.852,-0.498,-0.927,0.0
8.464,-0.477,-0.932,0.0
8.11,-0.459,-0.939,0.0
7.759,-0.441,-0.941,0.0
7.478,-0.426,-0.948,0.0
9.364,-0.533,-0.922,0.0
8.908,-0.508,-0.925,0.0
8.523,-0.488,-0.932,0.0
8.158,-0.469,-0.938,0.0
7.798,-0.45,-0.939,0.0
7.516,-0.435,-0.947,0.0
9.42,-0.544,-0.919,0.0
9.012,-0.522,-0.929,0.0
8.585,-0.499,-0.932,0.0
8.194,-0.478,-0.935,0.0
7.871,-0.46,-0.942,0.0
7.618,-0.447,-0.953,0.0
9.504,-0.556,-0.92,0.0
9.097,-0.534,-0.93,0.0
8.638,-0.509,-0.93,0.0
8.233,-0.486,-0.933,0.0
7.889,-0.468,-0.937,0.0
7.64,-0.454,-0.949,0.0
9.602,-0.57,-0.921,0.0
9.133,-0.543,-0.926,0.0
8.715,-0.52,-0.931,0.0
8.308,-0.497,-0.934,0.0
8.003,-0.48,-0.943,0.0
7.68,-0.462,-0.947,0.0
9.664,-0.581,-0.918,0.0
9.222,-0.556,-0.926,0.0
8.799,-0.532,-0.931,0.0
8.408,-0.509,-0.937,0.0
8.048,-0.489,-0.941,0.0
7.71,-0.47,-0.943,0.0
9.766,-0.594,-0.918,0.0
9.314,-0.568,-0.926,0.0
8.854,-0.541,-0.929,0.0
8.477,-0.52,-0.936,0.0
8.139,-0.5,-0.943,0.0
7.777,-0.479,-0.944,0.0
9.826,-0.604,-0.914,0.0
9.38,-0.578,-0.924,0.0
8.923,-0.552,-0.927,0.0
8.536,-0.529,-0.934,0.0
8.177,-0.508,-0.939,0.0
7.818,-0.487,-0.941,0.0
9.943,-0.618,-0.915,0.0
9.461,-0.59,-0.922,0.0
9.035,-0.564,-0.929,0.0
8.581,-0.538,-0.93,0.0
8.303,-0.521,-0.945,0.0
7.956,-0.501,-0.949,0.0
10.083,-0.633,-0.917,0.0
9.531,-0.6,-0.918,0.0
9.109,-0.575,-0.927,0.0
8.687,-0.55,-0.932,0.0
8.335,-0.529,-0.939,0.0
7.976,-0.507,-0.942,0.0
10.144,-0.643,-0.911,0.0
9.657,-0.614,-0.92,0.0
9.213,-0.587,-0.927,0.0
8.782,-0.561,-0.932,0.0
8.425,-0.539,-0.94,0.0
8.025,-0.515,-0.939,0.0
10.276,-0.658,-0.912,0.0
9.779,-0.627,-0.92,0.0
9.302,-0.598,-0.926,0.0
8.877,-0.572,-0.932,0.0
8.493,-0.548,-0.938,0.0
8.102,-0.524,-0.939,0.0
10.329,-0.667,-0.905,0.0
9.885,-0.639,-0.919,0.0
9.409,-0.61,-0.925,0.0
8.938,-0.58,-0.928,0.0
8.555,-0.557,-0.935,0.0
8.182,-0.534,-0.938,0.0
10.537,-0.685,-0.91,0.0
9.967,-0.649,-0.915,0.0
9.516,-0.621,-0.924,0.0
9.075,-0.594,-0.931,0.0
8.664,-0.568,-0.936,0.0
8.305,-0.546,-0.942,0.0
10.639,-0.697,-0.906,0.0
10.097,-0.663,-0.914,0.0
9.572,-0.629,-0.918,0.0
9.155,-0.603,-0.928,0.0
8.765,-0.578,-0.936,0.0
8.382,-0.554,-0.94,0.0
10.757,-0.709,-0.903,0.0
10.234,-0.676,-0.914,0.0
