X,Y,Z,Reflectivity
19.762,0.004,0.075,4.0
19.752,0.004,-0.04,10.0
19.754,0.004,-0.156,0.0
19.621,0.004,0.379,14.0
19.628,0.004,0.264,14.0
19.783,0.004,0.15,1.0
19.754,0.003,0.032,6.0
19.767,0.003,-0.083,0.0
19.789,0.003,-0.199,0.0
19.627,0.003,0.337,14.0
19.638,0.003,0.222,15.0
19.785,0.002,0.108,2.0
19.751,0.002,-0.009,9.0
19.785,0.002,-0.125,0.0
19.714,0.001,-0.24,0.0
19.637,0.001,0.295,13.0
19.734,0.0,0.181,5.0
19.789,0.0,0.065,4.0
19.756,0.0,-0.052,4.0
19.812,0.0,-0.168,0.0
19.782,0.0,-0.283,0.0
19.636,-0.001,0.253,15.0
19.752,-0.001,0.139,1.0
19.725,-0.002,0.023,10.0
19.761,-0.003,-0.094,1.0
0.0,0.0,0.0,0.0
32.307,-0.006,-0.532,0.0
19.647,-0.004,0.211,15.0
19.759,-0.005,0.096,3.0
19.745,-0.006,-0.019,10.0
19.759,-0.006,-0.136,0.0
0.0,0.0,0.0,0.0
30.193,-0.012,-0.562,0.0
19.762,-0.009,0.17,3.0
19.733,-0.009,0.054,8.0
19.767,-0.01,-0.061,4.0
19.698,-0.011,-0.178,0.0
0.0,0.0,0.0,0.0
29.235,-0.019,-0.607,0.0
19.696,-0.014,0.127,3.0
19.727,-0.014,0.011,13.0
19.761,-0.015,-0.104,6.0
19.812,-0.016,-0.222,0.0
0.0,0.0,0.0,0.0
27.912,-0.026,-0.64,0.0
19.701,-0.019,0.084,12.0
19.729,-0.02,-0.03,12.0
19.749,-0.021,-0.146,5.0
0.0,0.0,0.0,0.0
30.111,-0.036,-0.579,0.0
26.161,-0.032,-0.656,0.0
19.718,-0.026,0.042,15.0
19.753,-0.027,-0.072,8.0
19.77,-0.028,-0.188,4.0
34.169,-0.051,-0.529,0.0
28.975,-0.045,-0.619,0.0
25.243,-0.04,-0.687,0.0
19.718,-0.033,0.0,16.0
19.737,-0.034,-0.114,13.0
19.776,-0.036,-0.23,3.0
31.995,-0.06,-0.563,0.0
27.661,-0.053,-0.649,0.0
23.463,-0.046,-0.688,0.0
19.726,-0.041,-0.04,15.0
19.75,-0.042,-0.156,13.0
19.767,-0.044,-0.272,3.0
29.76,-0.068,-0.587,0.0
25.997,-0.061,-0.665,0.0
22.854,-0.055,-0.718,0.0
19.738,-0.05,-0.082,13.0
19.75,-0.051,-0.197,14.0
19.779,-0.052,-0.313,4.0
19.738,-0.054,-0.43,0.0
24.882,-0.07,-0.688,0.0
21.881,-0.063,-0.733,0.0
19.735,-0.059,-0.122,16.0
19.756,-0.06,-0.238,15.0
19.789,-0.062,-0.354,3.0
19.761,-0.063,-0.471,1.0
19.791,-0.065,-0.588,0.0
20.008,-0.067,-0.712,0.0
19.739,-0.069,-0.164,16.0
19.761,-0.071,-0.279,15.0
19.758,-0.072,-0.395,9.0
19.762,-0.074,-0.513,4.0
19.79,-0.076,-0.629,1.0
19.769,-0.077,-0.744,2.0
19.743,-0.08,-0.204,16.0
19.754,-0.081,-0.319,14.0
19.755,-0.083,-0.435,13.0
19.759,-0.085,-0.553,12.0
19.772,-0.087,-0.669,8.0
19.61,-0.088,-0.778,2.0
19.755,-0.091,-0.244,16.0
19.758,-0.093,-0.36,13.0
19.742,-0.095,-0.475,13.0
19.75,-0.097,-0.593,15.0
19.752,-0.098,-0.708,9.0
18.918,-0.096,-0.789,1.0
19.753,-0.103,-0.284,16.0
19.74,-0.105,-0.399,16.0
19.744,-0.107,-0.515,15.0
19.754,-0.109,-0.633,15.0
19.732,-0.111,-0.747,8.0
18.164,-0.104,-0.794,0.0
19.751,-0.116,-0.324,16.0
19.745,-0.118,-0.439,17.0
19.749,-0.12,-0.554,16.0
19.731,-0.122,-0.671,16.0
19.558,-0.123,-0.78,2.0
17.609,-0.112,-0.805,0.0
19.753,-0.13,-0.363,18.0
19.739,-0.131,-0.478,16.0
19.75,-0.134,-0.593,16.0
19.736,-0.136,-0.711,14.0
18.892,-0.132,-0.791,0.0
16.926,-0.12,-0.808,0.0
19.742,-0.144,-0.402,18.0
19.74,-0.146,-0.517,18.0
19.754,-0.148,-0.633,16.0
19.719,-0.15,-0.749,7.0
18.175,-0.14,-0.797,0.0
16.315,-0.128,-0.811,0.0
19.751,-0.159,-0.441,19.0
19.761,-0.161,-0.556,13.0
19.771,-0.163,-0.672,9.0
19.484,-0.163,-0.778,2.0
17.536,-0.149,-0.803,0.0
15.871,-0.136,-0.819,0.0
19.758,-0.174,-0.479,13.0
19.777,-0.176,-0.595,6.0
19.767,-0.179,-0.709,8.0
18.894,-0.173,-0.79,0.0
16.953,-0.157,-0.808,0.0
15.5,-0.146,-0.83,0.0
19.801,-0.19,-0.517,0.0
22.368,-0.218,-0.715,0.0
19.739,-0.195,-0.746,6.0
18.179,-0.182,-0.795,0.0
16.35,-0.165,-0.811,0.0
15.077,-0.154,-0.836,0.0
24.577,-0.257,-0.689,0.0
21.634,-0.229,-0.732,0.0
19.544,-0.21,-0.776,3.0
17.536,-0.19,-0.8,0.0
15.851,-0.174,-0.816,0.0
14.662,-0.163,-0.84,0.0
23.247,-0.263,-0.695,0.0
19.825,-0.227,-0.708,3.0
18.933,-0.22,-0.787,0.0
17.11,-0.201,-0.812,0.0
15.555,-0.185,-0.829,0.0
14.262,-0.171,-0.844,0.0
22.467,-0.275,-0.712,0.0
19.782,-0.245,-0.742,5.0
18.426,-0.23,-0.799,0.0
16.473,-0.208,-0.812,0.0
15.179,-0.194,-0.837,0.0
13.887,-0.179,-0.847,0.0
21.689,-0.285,-0.726,0.0
19.636,-0.261,-0.772,1.0
17.585,-0.236,-0.794,0.0
16.083,-0.218,-0.821,0.0
14.783,-0.203,-0.841,0.0
13.635,-0.189,-0.856,0.0
20.843,-0.294,-0.735,1.0
19.073,-0.272,-0.784,1.0
17.193,-0.248,-0.807,0.0
15.597,-0.227,-0.824,0.0
14.394,-0.212,-0.845,0.0
13.305,-0.198,-0.859,0.0
20.012,-0.302,-0.741,1.0
18.441,-0.281,-0.79,0.0
16.599,-0.256,-0.808,0.0
15.24,-0.237,-0.832,0.0
14.061,-0.221,-0.85,0.0
12.994,-0.206,-0.861,0.0
19.744,-0.318,-0.765,0.0
17.862,-0.29,-0.796,0.0
16.255,-0.267,-0.819,0.0
14.869,-0.246,-0.837,0.0
13.692,-0.229,-0.851,0.0
12.767,-0.216,-0.868,0.0
19.268,-0.33,-0.779,0.0
17.395,-0.301,-0.805,0.0
15.742,-0.275,-0.82,0.0
14.557,-0.257,-0.844,0.0
13.417,-0.239,-0.856,0.0
12.532,-0.225,-0.873,0.0
18.722,-0.341,-0.788,0.0
16.762,-0.308,-0.803,0.0
15.478,-0.287,-0.831,0.0
14.204,-0.266,-0.847,0.0
13.208,-0.249,-0.865,0.0
12.245,-0.233,-0.873,0.0
18.101,-0.35,-0.792,0.0
16.378,-0.319,-0.811,0.0
15.115,-0.297,-0.836,0.0
13.92,-0.276,-0.853,0.0
12.881,-0.257,-0.864,0.0
12.033,-0.243,-0.877,0.0
17.583,-0.359,-0.797,0.0
15.936,-0.328,-0.815,0.0
14.734,-0.306,-0.839,0.0
13.567,-0.284,-0.853,0.0
12.621,-0.267,-0.867,0.0
11.848,-0.252,-0.883,0.0
17.155,-0.37,-0.804,0.0
15.617,-0.339,-0.823,0.0
14.337,-0.314,-0.839,0.0
13.305,-0.294,-0.857,0.0
12.383,-0.276,-0.87,0.0
11.628,-0.261,-0.884,0.0
16.776,-0.381,-0.812,0.0
15.304,-0.35,-0.83,0.0
14.119,-0.326,-0.848,0.0
12.928,-0.301,-0.853,0.0
12.258,-0.288,-0.88,0.0
11.474,-0.271,-0.89,0.0
16.435,-0.393,-0.821,0.0
15.011,-0.361,-0.836,0.0
13.821,-0.335,-0.85,0.0
12.763,-0.312,-0.861,0.0
12.064,-0.297,-0.884,0.0
11.272,-0.28,-0.891,0.0
16.011,-0.402,-0.823,0.0
14.709,-0.372,-0.841,0.0
13.507,-0.344,-0.851,0.0
12.517,-0.321,-0.862,0.0
11.806,-0.306,-0.882,0.0
11.115,-0.29,-0.895,0.0
15.65,-0.412,-0.827,0.0
14.325,-0.38,-0.84,0.0
17.835,-0.477,-1.149,0.0
12.386,-0.333,-0.871,0.0
11.661,-0.316,-0.888,0.0
10.946,-0.299,-0.897,0.0
15.318,-0.422,-0.831,0.0
17.813,-0.495,-1.069,0.0
17.762,-0.497,-1.169,0.0
12.233,-0.345,-0.877,0.0
11.482,-0.326,-0.89,0.0
10.813,-0.309,-0.901,0.0
15.045,-0.434,-0.836,0.0
17.792,-0.517,-1.092,2.0
17.794,-0.521,-1.195,1.0
12.029,-0.354,-0.879,0.0
11.309,-0.336,-0.892,0.0
10.671,-0.319,-0.904,0.0
14.79,-0.445,-0.842,0.0
17.816,-0.54,-1.117,1.0
12.591,-0.384,-0.862,0.0
11.856,-0.365,-0.882,0.0
11.095,-0.344,-0.89,0.0
10.506,-0.328,-0.903,0.0
14.525,-0.456,-0.845,0.0
13.264,-0.419,-0.848,0.0
12.475,-0.397,-0.87,0.0
11.667,-0.374,-0.883,0.0
10.979,-0.354,-0.894,0.0
10.398,-0.338,-0.907,0.0
14.24,-0.466,-0.847,0.0
13.109,-0.432,-0.855,0.0
12.309,-0.408,-0.874,0.0
11.556,-0.386,-0.889,0.0
10.879,-0.366,-0.9,0.0
10.296,-0.348,-0.911,0.0
13.987,-0.476,-0.849,0.0
12.921,-0.443,-0.858,0.0
12.142,-0.419,-0.877,0.0
11.373,-0.395,-0.888,0.0
10.744,-0.376,-0.901,0.0
10.174,-0.358,-0.913,0.0
13.7,-0.485,-0.847,0.0
12.757,-0.455,-0.862,0.0
12.009,-0.431,-0.881,0.0
11.23,-0.405,-0.89,0.0
10.617,-0.386,-0.903,0.0
10.039,-0.367,-0.912,0.0
13.545,-0.498,-0.853,0.0
12.625,-0.467,-0.868,0.0
11.868,-0.442,-0.884,0.0
11.079,-0.415,-0.891,0.0
10.504,-0.396,-0.905,0.0
9.949,-0.377,-0.915,0.0
13.384,-0.511,-0.858,0.0
12.468,-0.478,-0.871,0.0
11.633,-0.449,-0.879,0.0
10.956,-0.426,-0.892,0.0
10.394,-0.406,-0.907,0.0
9.834,-0.387,-0.915,0.0
13.1,-0.518,-0.853,0.0
12.318,-0.49,-0.873,0.0
11.596,-0.464,-0.889,0.0
10.868,-0.437,-0.897,0.0
10.289,-0.416,-0.908,0.0
9.732,-0.396,-0.915,0.0
12.963,-0.53,-0.857,0.0
12.178,-0.501,-0.875,0.0
11.495,-0.476,-0.892,0.0
10.8,-0.45,-0.902,0.0
10.201,-0.427,-0.911,0.0
9.665,-0.407,-0.919,0.0
12.877,-0.545,-0.864,0.0
12.067,-0.513,-0.879,0.0
11.338,-0.485,-0.891,0.0
10.677,-0.459,-0.902,0.0
10.095,-0.437,-0.911,0.0
9.564,-0.416,-0.918,0.0
12.718,-0.556,-0.865,0.0
11.957,-0.526,-0.882,0.0
11.216,-0.496,-0.892,0.0
10.601,-0.471,-0.905,0.0
10.031,-0.448,-0.914,0.0
9.489,-0.427,-0.92,0.0
12.537,-0.566,-0.864,0.0
11.844,-0.537,-0.884,0.0
11.094,-0.506,-0.892,0.0
10.486,-0.481,-0.904,0.0
9.952,-0.459,-0.916,0.0
9.426,-0.437,-0.922,0.0
12.457,-0.58,-0.869,0.0
11.733,-0.549,-0.886,0.0
10.963,-0.516,-0.89,0.0
10.409,-0.492,-0.906,0.0
9.867,-0.469,-0.916,0.0
9.354,-0.447,-0.922,0.0
12.368,-0.593,-0.873,0.0
11.723,-0.565,-0.894,0.0
10.944,-0.53,-0.898,0.0
10.31,-0.502,-0.906,0.0
9.776,-0.479,-0.915,0.0
9.294,-0.458,-0.923,0.0
12.262,-0.606,-0.875,0.0
11.516,-0.572,-0.887,0.0
10.867,-0.542,-0.899,0.0
10.238,-0.514,-0.907,0.0
9.716,-0.49,-0.917,0.0
9.232,-0.468,-0.924,0.0
12.18,-0.619,-0.878,0.0
11.384,-0.582,-0.885,0.0
10.805,-0.555,-0.902,0.0
10.182,-0.526,-0.909,0.0
9.658,-0.501,-0.918,0.0
9.203,-0.48,-0.928,0.0
12.085,-0.632,-0.879,0.0
11.337,-0.596,-0.889,0.0
10.722,-0.566,-0.902,0.0
10.102,-0.536,-0.909,0.0
9.611,-0.513,-0.92,0.0
9.161,-0.491,-0.929,0.0
11.79,-0.633,-0.865,0.0
11.289,-0.609,-0.892,0.0
10.689,-0.58,-0.906,0.0
10.052,-0.548,-0.911,0.0
9.546,-0.523,-0.919,0.0
9.082,-0.5,-0.927,0.0
11.94,-0.659,-0.883,0.0
11.231,-0.623,-0.895,0.0
10.624,-0.592,-0.907,0.0
9.991,-0.559,-0.911,0.0
9.504,-0.534,-0.921,0.0
9.043,-0.511,-0.928,0.0
11.884,-0.673,-0.885,0.0
11.12,-0.632,-0.892,0.0
10.596,-0.605,-0.91,0.0
9.957,-0.572,-0.913,0.0
9.468,-0.546,-0.922,0.0
9.008,-0.522,-0.929,0.0
11.806,-0.685,-0.885,0.0
11.132,-0.649,-0.898,0.0
10.511,-0.616,-0.908,0.0
9.934,-0.585,-0.916,0.0
9.432,-0.558,-0.923,0.0
8.961,-0.532,-0.928,0.0
11.771,-0.7,-0.888,0.0
11.084,-0.662,-0.899,0.0
10.463,-0.628,-0.908,0.0
9.909,-0.597,-0.918,0.0
9.382,-0.568,-0.922,0.0
8.928,-0.543,-0.929,0.0
11.737,-0.715,-0.891,0.0
11.085,-0.678,-0.904,0.0
10.423,-0.641,-0.909,0.0
9.852,-0.608,-0.916,0.0
9.366,-0.581,-0.924,0.0
8.903,-0.555,-0.93,0.0
11.684,-0.729,-0.891,0.0
11.049,-0.692,-0.905,0.0
10.341,-0.65,-0.906,0.0
9.823,-0.62,-0.917,0.0
9.335,-0.592,-0.925,0.0
8.892,-0.567,-0.931,0.0
11.676,-0.745,-0.894,0.0
10.971,-0.703,-0.902,0.0
10.322,-0.664,-0.907,0.0
9.78,-0.632,-0.916,0.0
9.312,-0.604,-0.925,0.0
8.848,-0.576,-0.929,0.0
11.628,-0.758,-0.894,0.0
10.959,-0.717,-0.904,0.0
10.258,-0.674,-0.904,0.0
9.788,-0.646,-0.919,0.0
9.306,-0.617,-0.927,0.0
8.854,-0.589,-0.932,0.0
11.611,-0.773,-0.895,0.0
10.875,-0.727,-0.9,0.0
10.299,-0.691,-0.91,0.0
9.767,-0.658,-0.92,0.0
9.309,-0.63,-0.929,0.0
8.816,-0.599,-0.93,0.0
11.522,-0.783,-0.891,0.0
10.874,-0.742,-0.902,0.0
10.247,-0.702,-0.908,0.0
9.693,-0.667,-0.914,0.0
9.316,-0.643,-0.931,0.0
8.841,-0.613,-0.934,0.0
11.503,-0.798,-0.891,0.0
10.913,-0.76,-0.907,0.0
10.266,-0.717,-0.911,0.0
9.555,-0.67,-0.903,0.0
9.255,-0.652,-0.926,0.0
8.839,-0.625,-0.935,0.0
11.48,-0.812,-0.89,0.0
10.846,-0.77,-0.902,0.0
10.216,-0.728,-0.907,0.0
9.672,-0.692,-0.914,0.0
9.252,-0.664,-0.927,0.0
8.801,-0.634,-0.932,0.0
11.495,-0.828,-0.892,0.0
10.829,-0.783,-0.901,0.0
10.225,-0.742,-0.909,0.0
9.681,-0.706,-0.916,0.0
9.249,-0.677,-0.927,0.0
8.78,-0.645,-0.929,0.0
11.518,-0.846,-0.894,0.0
10.841,-0.799,-0.903,0.0
10.248,-0.758,-0.911,0.0
9.702,-0.72,-0.918,0.0
9.234,-0.688,-0.925,0.0
8.802,-0.658,-0.932,0.0
11.48,-0.858,-0.891,0.0
10.813,-0.811,-0.9,0.0
10.267,-0.773,-0.912,0.0
9.748,-0.737,-0.922,0.0
9.258,-0.702,-0.927,0.0
8.82,-0.671,-0.933,0.0
11.51,-0.876,-0.893,0.0
10.841,-0.828,-0.901,0.0
10.316,-0.79,-0.916,0.0
9.708,-0.746,-0.917,0.0
9.296,-0.717,-0.93,0.0
8.791,-0.681,-0.929,0.0
11.536,-0.893,-0.894,0.0
10.871,-0.844,-0.903,0.0
10.316,-0.803,-0.914,0.0
9.743,-0.761,-0.919,0.0
9.281,-0.728,-0.927,0.0
8.811,-0.693,-0.93,0.0
11.529,-0.907,-0.891,0.0
10.869,-0.858,-0.901,0.0
10.36,-0.82,-0.917,0.0
9.732,-0.773,-0.916,0.0
9.29,-0.74,-0.927,0.0
8.828,-0.706,-0.93,0.0
11.516,-0.92,-0.888,0.0
10.876,-0.872,-0.899,0.0
10.328,-0.83,-0.912,0.0
9.788,-0.79,-0.92,0.0
9.299,-0.753,-0.926,0.0
8.844,-0.718,-0.93,0.0
11.55,-0.937,-0.888,0.0
10.984,-0.894,-0.906,0.0
10.355,-0.845,-0.912,0.0
9.815,-0.804,-0.92,0.0
9.317,-0.766,-0.925,0.0
8.858,-0.73,-0.929,0.0
11.569,-0.953,-0.887,0.0
11.006,-0.909,-0.904,0.0
10.401,-0.862,-0.913,0.0
9.842,-0.818,-0.919,0.0
9.358,-0.78,-0.926,0.0
8.93,-0.747,-0.934,0.0
11.618,-0.971,-0.887,0.0
11.053,-0.926,-0.905,0.0
10.458,-0.879,-0.914,0.0
9.898,-0.835,-0.921,0.0
9.391,-0.794,-0.926,0.0
8.937,-0.758,-0.931,0.0
11.695,-0.991,-0.888,0.0
11.067,-0.941,-0.902,0.0
10.472,-0.893,-0.911,0.0
9.943,-0.85,-0.922,0.0
9.416,-0.807,-0.925,0.0
8.978,-0.772,-0.932,0.0
11.776,-1.011,-0.89,0.0
11.103,-0.956,-0.901,0.0
10.459,-0.903,-0.906,0.0
9.911,-0.859,-0.915,0.0
9.442,-0.82,-0.924,0.0
9.015,-0.786,-0.932,0.0
11.815,-1.028,-0.888,0.0
11.177,-0.975,-0.902,0.0
10.567,-0.925,-0.911,0.0
9.959,-0.874,-0.915,0.0
9.482,-0.834,-0.923,0.0
9.031,-0.797,-0.929,0.0
11.957,-1.054,-0.893,0.0
11.149,-0.985,-0.894,0.0
10.672,-0.946,-0.915,0.0
10.09,-0.896,-0.922,0.0
9.543,-0.85,-0.925,0.0
9.087,-0.812,-0.931,0.0
12.003,-1.071,-0.89,0.0
11.214,-1.003,-0.894,0.0
10.652,-0.955,-0.907,0.0
10.144,-0.912,-0.921,0.0
9.62,-0.867,-0.927,0.0
9.158,-0.828,-0.933,0.0
12.041,-1.087,-0.887,0.0
11.378,-1.03,-0.9,0.0
10.742,-0.974,-0.909,0.0
10.156,-0.924,-0.917,0.0
9.647,-0.88,-0.924,0.0
9.241,-0.845,-0.936,0.0
12.128,-1.107,-0.886,0.0
11.355,-1.039,-0.892,0.0
10.786,-0.989,-0.906,0.0
10.211,-0.939,-0.915,0.0
9.709,-0.895,-0.924,0.0
9.25,-0.855,-0.931,0.0
12.213,-1.127,-0.885,0.0
11.456,-1.059,-0.893,0.0
10.845,-1.005,-0.905,0.0
10.283,-0.955,-0.915,0.0
9.802,-0.913,-0.927,0.0
9.276,-0.866,-0.928,0.0
12.286,-1.145,-0.882,0.0
11.484,-1.073,-0.887,0.0
10.955,-1.026,-0.907,0.0
10.368,-0.973,-0.916,0.0
9.864,-0.928,-0.926,0.0
9.348,-0.881,-0.929,0.0
12.391,-1.166,-0.881,0.0
11.651,-1.099,-0.892,0.0
10.988,-1.039,-0.902,0.0
10.447,-0.99,-0.916,0.0
9.908,-0.941,-0.923,0.0
9.425,-0.897,-0.93,0.0
12.603,-1.198,-0.887,0.0
11.812,-1.125,-0.896,0.0
11.073,-1.057,-0.901,0.0
10.532,-1.007,-0.915,0.0
9.981,-0.956,-0.922,0.0
9.491,-0.912,-0.929,0.0
12.678,-1.216,-0.883,0.0
11.874,-1.141,-0.892,0.0
11.214,-1.08,-0.903,0.0
10.612,-1.024,-0.914,0.0
10.015,-0.968,-0.918,0.0
9.566,-0.927,-0.929,0.0
12.803,-1.238,-0.882,0.0
11.999,-1.163,-0.892,0.0
11.318,-1.099,-0.903,0.0
10.695,-1.04,-0.913,0.0
10.127,-0.987,-0.919,0.0
9.662,-0.944,-0.93,0.0
13.027,-1.27,-0.887,0.0
12.099,-1.182,-0.889,0.0
11.349,-1.111,-0.896,0.0
10.787,-1.058,-0.911,0.0
10.209,-1.003,-0.918,0.0
9.742,-0.959,-0.93,0.0
13.127,-1.29,-0.882,0.0
12.192,-1.2,-0.886,0.0
11.537,-1.138,-0.901,0.0
10.858,-1.073,-0.908,0.0
10.333,-1.023,-0.92,0.0
9.785,-0.97,-0.925,0.0
13.166,-1.304,-0.873,0.0
12.397,-1.229,-0.89,0.0
11.615,-1.154,-0.896,0.0
10.906,-1.085,-0.902,0.0
10.433,-1.04,-0.92,0.0
9.853,-0.984,-0.922,0.0
13.349,-1.331,-0.873,0.0
12.402,-1.238,-0.879,0.0
11.719,-1.172,-0.894,0.0
11.02,-1.104,-0.901,0.0
10.508,-1.054,-0.917,0.0
9.94,-0.999,-0.921,0.0
13.5,-1.355,-0.871,0.0
12.546,-1.261,-0.877,0.0
11.871,-1.195,-0.894,0.0
11.093,-1.118,-0.897,0.0
10.598,-1.07,-0.914,0.0
10.07,-1.018,-0.924,0.0
13.751,-1.388,-0.874,0.0
12.779,-1.292,-0.881,0.0
11.998,-1.215,-0.892,0.0
11.232,-1.139,-0.897,0.0
10.705,-1.087,-0.913,0.0
10.145,-1.032,-0.92,0.0
13.923,-1.413,-0.871,0.0
13.039,-1.326,-0.886,0.0
12.025,-1.224,-0.882,0.0
11.441,-1.166,-0.902,0.0
10.827,-1.105,-0.912,0.0
10.299,-1.053,-0.924,0.0
14.098,-1.439,-0.867,0.0
13.116,-1.34,-0.878,0.0
12.194,-1.248,-0.882,0.0
11.589,-1.187,-0.902,0.0
10.909,-1.119,-0.908,0.0
10.381,-1.067,-0.92,0.0
14.295,-1.466,-0.865,0.0
13.314,-1.367,-0.877,0.0
12.41,-1.276,-0.884,0.0
11.682,-1.203,-0.897,0.0
11.048,-1.139,-0.908,0.0
10.51,-1.085,-0.92,0.0
14.503,-1.494,-0.862,0.0
13.578,-1.4,-0.88,0.0
12.549,-1.296,-0.881,0.0
11.866,-1.227,-0.898,0.0
11.143,-1.153,-0.904,0.0
10.6,-1.098,-0.917,0.0
14.728,-1.523,-0.859,0.0
13.67,-1.415,-0.871,0.0
12.758,-1.322,-0.882,0.0
12.015,-1.247,-0.896,0.0
11.251,-1.169,-0.9,0.0
10.709,-1.114,-0.914,0.0
14.971,-1.554,-0.857,0.0
13.948,-1.449,-0.873,0.0
12.891,-1.341,-0.876,0.0
12.054,-1.255,-0.885,0.0
11.374,-1.185,-0.897,0.0
10.796,-1.126,-0.909,0.0
15.26,-1.589,-0.856,0.0
14.143,-1.474,-0.869,0.0
13.096,-1.366,-0.875,0.0
12.282,-1.282,-0.888,0.0
11.589,-1.211,-0.9,0.0
10.946,-1.145,-0.909,0.0
15.399,-1.608,-0.846,0.0
14.369,-1.502,-0.867,0.0
13.375,-1.399,-0.878,0.0
12.497,-1.308,-0.889,0.0
11.792,-1.235,-0.902,0.0
11.082,-1.162,-0.908,0.0
15.847,-1.659,-0.853,0.0
14.602,-1.53,-0.864,0.0
13.647,-1.431,-0.88,0.0
12.617,-1.323,-0.883,0.0
11.974,-1.257,-0.902,0.0
11.185,-1.175,-0.903,0.0
16.074,-1.686,-0.846,0.0
14.828,-1.556,-0.86,0.0
13.772,-1.446,-0.872,0.0
12.793,-1.344,-0.88,0.0
12.074,-1.27,-0.895,0.0
11.293,-1.188,-0.898,0.0
16.322,-1.715,-0.839,0.0
15.175,-1.595,-0.861,0.0
14.074,-1.48,-0.874,0.0
13.094,-1.378,-0.885,0.0
12.183,-1.283,-0.888,0.0
11.503,-1.212,-0.901,0.0
16.666,-1.753,-0.837,0.0
15.363,-1.616,-0.854,0.0
14.271,-1.502,-0.869,0.0
13.139,-1.384,-0.872,0.0
12.493,-1.316,-0.896,0.0
11.716,-1.235,-0.903,0.0
16.969,-1.786,-0.831,0.0
15.765,-1.66,-0.856,0.0
14.504,-1.527,-0.865,0.0
13.558,-1.428,-0.883,0.0
12.583,-1.326,-0.886,0.0
11.872,-1.252,-0.9,0.0
17.273,-1.819,-0.825,0.0
16.074,-1.693,-0.853,0.0
14.761,-1.555,-0.862,0.0
13.805,-1.454,-0.881,0.0
12.765,-1.345,-0.883,0.0
12.08,-1.273,-0.9,0.0
17.552,-1.848,-0.816,0.0
16.275,-1.713,-0.843,0.0
15.1,-1.59,-0.863,0.0
14.018,-1.476,-0.877,0.0
13.015,-1.371,-0.884,0.0
12.094,-1.274,-0.886,0.0
17.995,-1.893,-0.814,0.0
16.607,-1.747,-0.839,0.0
15.335,-1.614,-0.857,0.0
14.208,-1.495,-0.871,0.0
13.176,-1.387,-0.878,0.0
12.395,-1.305,-0.892,0.0
18.505,-1.945,-0.813,0.0
17.008,-1.788,-0.838,0.0
15.694,-1.649,-0.856,0.0
14.52,-1.526,-0.871,0.0
13.585,-1.428,-0.888,0.0
12.58,-1.322,-0.889,0.0
19.019,-1.996,-0.811,0.0
17.237,-1.809,-0.827,0.0
16.014,-1.68,-0.853,0.0
14.753,-1.548,-0.866,0.0
13.686,-1.436,-0.876,0.0
12.787,-1.342,-0.887,0.0
19.386,-2.031,-0.802,0.0
17.594,-1.843,-0.821,0.0
16.261,-1.703,-0.845,0.0
15.105,-1.582,-0.867,0.0
13.973,-1.463,-0.877,0.0
13.033,-1.364,-0.887,0.0
19.823,-2.072,-0.794,0.0
17.825,-1.863,-0.809,0.0
16.537,-1.728,-0.838,0.0
15.361,-1.604,-0.862,0.0
14.223,-1.485,-0.873,0.0
13.312,-1.39,-0.888,0.0
20.184,-2.104,-0.782,0.0
18.3,-1.907,-0.806,0.0
16.977,-1.768,-0.838,0.0
15.655,-1.63,-0.857,0.0
14.448,-1.504,-0.868,0.0
13.604,-1.416,-0.89,0.0
20.677,-2.149,-0.774,0.0
18.291,-1.9,-0.781,0.0
17.329,-1.799,-0.832,0.0
15.948,-1.655,-0.852,0.0
14.761,-1.531,-0.867,0.0
13.719,-1.422,-0.879,0.0
21.338,-2.21,-0.77,0.0
18.334,-1.897,-0.759,0.0
17.544,-1.815,-0.82,0.0
16.332,-1.688,-0.851,0.0
15.116,-1.562,-0.868,0.0
14.018,-1.448,-0.88,0.0
21.851,-2.254,-0.76,0.0
20.016,-2.063,-0.802,0.0
18.051,-1.859,-0.819,0.0
16.419,-1.69,-0.834,0.0
15.358,-1.58,-0.862,0.0
14.239,-1.464,-0.874,0.0
22.436,-2.304,-0.75,0.0
20.297,-2.082,-0.787,0.0
18.322,-1.878,-0.807,0.0
16.887,-1.73,-0.835,0.0
15.682,-1.605,-0.859,0.0
14.466,-1.48,-0.869,0.0
22.97,-2.347,-0.738,0.0
20.872,-2.131,-0.781,0.0
18.745,-1.912,-0.801,0.0
17.322,-1.765,-0.834,0.0
16.005,-1.63,-0.855,0.0
14.828,-1.509,-0.871,0.0
23.798,-2.419,-0.733,0.0
21.39,-2.172,-0.772,0.0
19.271,-1.954,-0.798,0.0
17.581,-1.781,-0.823,0.0
16.268,-1.647,-0.848,0.0
15.067,-1.524,-0.865,0.0
24.534,-2.479,-0.723,0.0
21.9,-2.21,-0.761,0.0
0.0,0.0,0.0,0.0
18.0,-1.813,-0.818,0.0
16.629,-1.673,-0.844,0.0
15.366,-1.544,-0.862,0.0
25.081,-2.518,-0.706,0.0
22.581,-2.264,-0.755,0.0
20.24,-2.027,-0.784,0.0
18.715,-1.872,-0.826,0.0
16.991,-1.698,-0.84,0.0
15.661,-1.563,-0.858,0.0
25.77,-2.569,-0.692,0.0
23.224,-2.312,-0.746,0.0
21.001,-2.088,-0.786,0.0
18.812,-1.868,-0.806,0.0
17.333,-1.719,-0.834,0.0
16.007,-1.586,-0.855,0.0
26.83,-2.656,-0.685,0.0
23.545,-2.327,-0.725,0.0
21.171,-2.09,-0.764,0.0
19.535,-1.925,-0.811,0.0
17.678,-1.74,-0.827,0.0
16.323,-1.605,-0.851,0.0
27.632,-2.714,-0.669,0.0
24.516,-2.404,-0.724,0.0
21.874,-2.142,-0.761,0.0
19.874,-1.943,-0.799,0.0
17.975,-1.755,-0.818,0.0
16.586,-1.617,-0.843,0.0
28.416,-2.768,-0.652,0.0
25.201,-2.45,-0.711,0.0
22.716,-2.205,-0.761,0.0
20.567,-1.994,-0.8,0.0
18.514,-1.792,-0.818,0.0
17.006,-1.643,-0.842,0.0
29.821,-2.879,-0.645,0.0
26.04,-2.51,-0.701,0.0
23.519,-2.263,-0.758,0.0
20.872,-2.005,-0.785,0.0
19.061,-1.828,-0.818,0.0
17.357,-1.661,-0.837,0.0
0.0,0.0,0.0,0.0
26.478,-2.527,-0.679,0.0
23.746,-2.263,-0.735,0.0
21.234,-2.02,-0.771,0.0
19.519,-1.853,-0.813,0.0
17.526,-1.661,-0.823,0.0
32.142,-3.043,-0.613,0.0
27.671,-2.615,-0.674,0.0
24.496,-2.31,-0.726,0.0
21.643,-2.037,-0.758,0.0
19.699,-1.851,-0.795,0.0
17.972,-1.685,-0.82,0.0
0.0,0.0,0.0,0.0
28.572,-2.671,-0.66,0.0
24.872,-2.321,-0.706,0.0
22.573,-2.102,-0.763,0.0
20.412,-1.897,-0.798,0.0
18.53,-1.719,-0.823,0.0
0.0,0.0,0.0,0.0
0.0,0.0,0.0,0.0
0.0,0.0,0.0,0.0
22.897,-2.108,-0.745,0.0
20.693,-1.901,-0.783,0.0
18.868,-1.73,-0.814,0.0
0.0,0.0,0.0,0.0
30.106,-2.751,-0.62,0.0
26.654,-2.43,-0.69,0.0
23.554,-2.143,-0.737,0.0
21.145,-1.919,-0.774,0.0
19.368,-1.754,-0.812,0.0
0.0,0.0,0.0,0.0
30.805,-2.781,-0.596,0.0
27.481,-2.475,-0.678,0.0
24.508,-2.202,-0.737,0.0
21.723,-1.947,-0.769,0.0
19.692,-1.761,-0.801,0.0
38.653,-3.453,-0.497,0.0
0.0,0.0,0.0,0.0
0.0,0.0,0.0,0.0
0.0,0.0,0.0,0.0
22.327,-1.975,-0.763,0.0
20.217,-1.784,-0.798,0.0
38.939,-3.432,-0.454,0.0
33.393,-2.935,-0.566,0.0
28.831,-2.528,-0.642,0.0
25.416,-2.223,-0.703,0.0
22.995,-2.005,-0.758,0.0
20.75,-1.805,-0.794,0.0
41.506,-3.607,-0.434,0.0
0.0,0.0,0.0,0.0
30.053,-2.597,-0.633,0.0
26.189,-2.257,-0.694,0.0
23.591,-2.028,-0.75,0.0
20.902,-1.792,-0.776,0.0
0.0,0.0,0.0,0.0
0.0,0.0,0.0,0.0
30.792,-2.621,-0.613,0.0
26.746,-2.27,-0.677,0.0
24.062,-2.036,-0.737,0.0
21.785,-1.839,-0.783,0.0
45.276,-3.817,-0.368,0.0
0.0,0.0,0.0,0.0
32.341,-2.71,-0.607,0.0
27.65,-2.31,-0.669,0.0
24.533,-2.044,-0.724,0.0
21.791,-1.81,-0.759,0.0
0.0,0.0,0.0,0.0
38.737,-3.204,-0.478,0.0
32.898,-2.712,-0.58,0.0
28.611,-2.351,-0.66,0.0
24.754,-2.028,-0.702,0.0
22.427,-1.831,-0.756,0.0
0.0,0.0,0.0,0.0
41.321,-3.36,-0.464,0.0
34.344,-2.783,-0.568,0.0
29.176,-2.357,-0.641,0.0
25.203,-2.029,-0.688,0.0
23.029,-1.848,-0.751,0.0
50.368,-4.039,-0.243,7.0
41.61,-3.325,-0.422,0.0
36.459,-2.903,-0.564,0.0
29.926,-2.375,-0.625,0.0
26.691,-2.111,-0.7,0.0
23.335,-1.839,-0.736,0.0
0.0,0.0,0.0,0.0
0.0,0.0,0.0,0.0
36.106,-2.822,-0.52,0.0
0.0,0.0,0.0,0.0
27.639,-2.145,-0.696,0.0
23.993,-1.855,-0.732,0.0
0.0,0.0,0.0,0.0
0.0,0.0,0.0,0.0
0.0,0.0,0.0,0.0
31.863,-2.433,-0.599,0.0
0.0,0.0,0.0,0.0
24.718,-1.874,-0.728,0.0
0.0,0.0,0.0,0.0
0.0,0.0,0.0,0.0
0.0,0.0,0.0,0.0
32.764,-2.451,-0.583,0.0
28.026,-2.089,-0.648,0.0
25.205,-1.871,-0.718,0.0
0.0,0.0,0.0,0.0
0.0,0.0,0.0,0.0
39.795,-2.926,-0.453,0.0
0.0,0.0,0.0,0.0
29.125,-2.124,-0.645,0.0
0.0,0.0,0.0,0.0
0.0,0.0,0.0,0.0
0.0,0.0,0.0,0.0
41.556,-2.989,-0.432,0.0
0.0,0.0,0.0,0.0
29.969,-2.137,-0.635,0.0
26.049,-1.85,-0.691,0.0
0.0,0.0,0.0,0.0
0.0,0.0,0.0,0.0
0.0,0.0,0.0,0.0
35.905,-2.513,-0.536,0.0
30.322,-2.113,-0.614,0.0
27.095,-1.88,-0.694,0.0
99.078,-6.863,0.211,1.0
0.0,0.0,0.0,0.0
0.0,0.0,0.0,0.0
36.288,-2.479,-0.508,0.0
31.703,-2.156,-0.614,0.0
27.01,-1.828,-0.667,0.0
99.26,-6.709,0.3,4.0
0.0,0.0,0.0,0.0
0.0,0.0,0.0,0.0
0.0,0.0,0.0,0.0
32.442,-2.151,-0.6,0.0
27.997,-1.847,-0.668,0.0
99.701,-6.566,0.388,19.0
0.0,0.0,0.0,0.0
0.0,0.0,0.0,0.0
0.0,0.0,0.0,0.0
32.842,-2.12,-0.579,0.0
28.159,-1.809,-0.648,0.0
108.58,-6.962,0.513,2.0
0.0,0.0,0.0,0.0
0.0,0.0,0.0,0.0
40.681,-2.569,-0.466,0.0
33.333,-2.093,-0.561,0.0
29.073,-1.816,-0.645,0.0
108.822,-6.786,0.602,3.0
0.0,0.0,0.0,0.0
0.0,0.0,0.0,0.0
40.807,-2.504,-0.436,0.0
34.332,-2.095,-0.551,0.0
29.742,-1.806,-0.637,0.0
119.746,-7.255,0.755,1.0
0.0,0.0,0.0,0.0
0.0,0.0,0.0,0.0
42.512,-2.532,-0.421,0.0
35.955,-2.13,-0.55,0.0
30.385,-1.79,-0.628,0.0
149.78,-8.802,1.056,3.0
0.0,0.0,0.0,0.0
0.0,0.0,0.0,0.0
0.0,0.0,0.0,0.0
36.789,-2.111,-0.536,0.0
30.205,-1.723,-0.602,0.0
101.498,-5.775,0.788,5.0
0.0,0.0,0.0,0.0
0.0,0.0,0.0,0.0
0.0,0.0,0.0,0.0
36.716,-2.039,-0.509,0.0
0.0,0.0,0.0,0.0
101.481,-5.585,0.858,151.0
0.0,0.0,0.0,0.0
0.0,0.0,0.0,0.0
0.0,0.0,0.0,0.0
37.177,-1.994,-0.491,0.0
0.0,0.0,0.0,0.0
0.0,0.0,0.0,0.0
0.0,0.0,0.0,0.0
0.0,0.0,0.0,0.0
0.0,0.0,0.0,0.0
0.0,0.0,0.0,0.0
32.515,-1.67,-0.584,0.0
101.516,-5.198,0.987,47.0
103.299,-5.253,0.447,2.0
0.0,0.0,0.0,0.0
0.0,0.0,0.0,0.0
0.0,0.0,0.0,0.0
32.627,-1.613,-0.567,0.0
101.539,-5.002,1.048,158.0
102.633,-5.018,0.504,1.0
101.728,-4.939,-0.05,1.0
50.263,-2.422,-0.301,0.0
40.216,-1.923,-0.458,0.0
33.914,-1.61,-0.57,0.0
101.541,-4.802,1.104,152.0
102.635,-4.816,0.561,1.0
0.0,0.0,0.0,0.0
0.0,0.0,0.0,0.0
0.0,0.0,0.0,0.0
33.852,-1.54,-0.551,0.0
101.492,-4.599,1.156,14.0
0.0,0.0,0.0,0.0
0.0,0.0,0.0,0.0
0.0,0.0,0.0,0.0
0.0,0.0,0.0,0.0
0.0,0.0,0.0,0.0
101.485,-4.395,1.206,5.0
102.034,-4.38,0.659,6.0
0.0,0.0,0.0,0.0
0.0,0.0,0.0,0.0
42.369,-1.773,-0.42,0.0
0.0,0.0,0.0,0.0
101.619,-4.196,1.253,4.0
101.502,-4.153,0.7,89.0
0.0,0.0,0.0,0.0
52.948,-2.129,-0.215,0.0
0.0,0.0,0.0,0.0
35.049,-1.383,-0.523,0.0
0.0,0.0,0.0,0.0
0.0,0.0,0.0,0.0
0.0,0.0,0.0,0.0
0.0,0.0,0.0,0.0
45.102,-1.705,-0.41,0.0
35.445,-1.327,-0.515,0.0
162.061,-6.03,2.128,24.0
160.667,-5.921,1.235,10.0
0.0,0.0,0.0,0.0
0.0,0.0,0.0,0.0
0.0,0.0,0.0,0.0
0.0,0.0,0.0,0.0
162.21,-5.702,2.185,16.0
160.779,-5.591,1.29,5.0
0.0,0.0,0.0,0.0
0.0,0.0,0.0,0.0
0.0,0.0,0.0,0.0
36.516,-1.215,-0.506,0.0
162.091,-5.359,2.234,23.0
160.668,-5.253,1.338,4.0
0.0,0.0,0.0,0.0
0.0,0.0,0.0,0.0
0.0,0.0,0.0,0.0
0.0,0.0,0.0,0.0
161.95,-5.017,2.276,22.0
0.0,0.0,0.0,0.0
0.0,0.0,0.0,0.0
0.0,0.0,0.0,0.0
45.215,-1.334,-0.357,0.0
0.0,0.0,0.0,0.0
161.792,-4.674,2.311,21.0
0.0,0.0,0.0,0.0
0.0,0.0,0.0,0.0
0.0,0.0,0.0,0.0
0.0,0.0,0.0,0.0
0.0,0.0,0.0,0.0
161.955,-4.339,2.346,17.0
162.063,-4.281,1.461,15.0
0.0,0.0,0.0,0.0
0.0,0.0,0.0,0.0
0.0,0.0,0.0,0.0
0.0,0.0,0.0,0.0
162.041,-3.999,2.373,6.0
162.098,-3.939,1.486,20.0
0.0,0.0,0.0,0.0
0.0,0.0,0.0,0.0
0.0,0.0,0.0,0.0
0.0,0.0,0.0,0.0
163.816,-3.694,2.419,4.0
162.034,-3.592,1.504,5.0
0.0,0.0,0.0,0.0
0.0,0.0,0.0,0.0
0.0,0.0,0.0,0.0
38.014,-0.786,-0.485,0.0
163.707,-3.339,2.432,6.0
163.364,-3.27,1.53,20.0
0.0,0.0,0.0,0.0
0.0,0.0,0.0,0.0
0.0,0.0,0.0,0.0
38.096,-0.706,-0.484,0.0
163.466,-2.986,2.436,23.0
163.138,-2.92,1.534,25.0
0.0,0.0,0.0,0.0
0.0,0.0,0.0,0.0
0.0,0.0,0.0,0.0
0.0,0.0,0.0,0.0
163.444,-2.638,2.438,23.0
19.767,-0.311,0.186,7.0
19.74,-0.304,0.077,12.0
0.0,0.0,0.0,0.0
0.0,0.0,0.0,0.0
0.0,0.0,0.0,0.0
19.756,-0.276,0.294,8.0
19.748,-0.269,0.185,29.0
19.75,-0.262,0.076,4.0
0.0,0.0,0.0,0.0
47.316,-0.595,-0.343,0.0
0.0,0.0,0.0,0.0
19.757,-0.234,0.292,9.0
19.775,-0.227,0.184,2.0
0.0,0.0,0.0,0.0
0.0,0.0,0.0,0.0
19.719,-0.205,-0.144,0.0
19.778,-0.198,-0.254,6.0
19.774,-0.192,0.291,0.0
168.797,-1.582,1.553,12.0
0.0,0.0,0.0,0.0
19.779,-0.171,-0.038,0.0
19.749,-0.163,-0.147,13.0
19.74,-0.156,-0.256,17.0
169.249,-1.284,2.468,10.0
19.748,-0.142,0.178,1.0
19.758,-0.135,0.069,5.0
19.731,-0.128,-0.041,10.0
19.713,-0.121,-0.15,16.0
19.745,-0.114,-0.259,17.0
19.686,-0.107,0.283,9.0
19.717,-0.1,0.175,14.0
19.701,-0.093,0.065,14.0
19.704,-0.086,-0.045,15.0
19.721,-0.079,-0.154,17.0
19.752,-0.072,-0.264,15.0
19.654,-0.065,0.279,10.0
19.681,-0.058,0.17,13.0
19.701,-0.051,0.061,15.0
19.708,-0.044,-0.049,15.0
19.747,-0.037,-0.159,13.0
19.797,-0.03,-0.269,0.0
19.637,-0.023,0.273,14.0
19.717,-0.016,0.165,6.0
19.766,-0.009,0.056,4.0
19.739,-0.002,-0.055,7.0
19.795,0.004,-0.165,0.0
19.764,0.011,-0.274,2.0
19.624,0.018,0.268,14.0
19.742,0.025,0.16,17.0
19.755,0.032,0.05,18.0
19.728,0.039,-0.061,42.0
19.733,0.046,-0.17,48.0
19.769,0.053,-0.28,55.0
19.617,0.06,0.261,13.0
19.674,0.067,0.152,11.0
19.737,0.074,0.043,25.0
19.744,0.081,-0.067,3.0
19.725,0.088,-0.177,0.0
0.0,0.0,0.0,0.0
19.62,0.101,0.254,13.0
19.661,0.108,0.145,15.0
19.643,0.115,0.036,14.0
19.675,0.122,-0.075,9.0
19.69,0.129,-0.184,5.0
34.326,0.237,-0.513,0.0
19.649,0.143,0.247,12.0
19.664,0.15,0.137,13.0
19.643,0.157,0.028,16.0
19.634,0.163,-0.083,13.0
19.645,0.17,-0.192,14.0
19.66,0.177,-0.302,16.0
19.691,0.185,0.238,9.0
19.696,0.192,0.129,10.0
19.662,0.198,0.019,13.0
19.627,0.205,-0.092,16.0
19.635,0.211,-0.201,17.0
19.657,0.218,-0.311,17.0
19.754,0.227,0.23,24.0
19.773,0.234,0.12,19.0
19.692,0.24,0.009,1.0
19.653,0.246,-0.101,14.0
19.65,0.252,-0.211,16.0
19.67,0.259,-0.321,13.0
19.757,0.268,0.22,15.0
19.809,0.276,0.11,0.0
55.096,0.785,0.0,0.0
19.72,0.287,-0.112,0.0
19.698,0.294,-0.222,2.0
19.688,0.3,-0.332,1.0
163.21,2.556,1.731,17.0
55.207,0.883,0.277,16.0
55.158,0.9,-0.031,26.0
42.317,0.705,-0.265,1.0
34.428,0.584,-0.408,0.0
32.142,0.557,-0.561,0.0
55.17,0.977,0.553,69.0
55.166,0.995,0.244,53.0
55.105,1.012,-0.063,13.0
40.837,0.763,-0.28,2.0
35.013,0.665,-0.436,0.0
28.398,0.549,-0.512,0.0
162.783,3.213,1.533,13.0
0.0,0.0,0.0,0.0
52.26,1.066,-0.093,1.0
39.01,0.808,-0.292,1.0
32.549,0.685,-0.426,1.0
27.696,0.592,-0.517,0.0
70.867,1.544,0.621,4.0
78.236,1.731,0.247,4.0
45.568,1.022,-0.111,0.0
38.597,0.878,-0.314,2.0
31.593,0.729,-0.434,0.0
26.442,0.619,-0.512,0.0
70.733,1.684,0.571,21.0
45.524,1.098,0.112,150.0
0.0,0.0,0.0,0.0
39.869,0.987,-0.353,0.0
30.656,0.768,-0.443,1.0
26.284,0.667,-0.528,1.0
0.0,0.0,0.0,0.0
0.0,0.0,0.0,0.0
40.142,1.061,-0.155,153.0
36.74,0.982,-0.352,5.0
30.144,0.815,-0.458,1.0
25.853,0.707,-0.538,4.0
0.0,0.0,0.0,0.0
40.109,1.126,0.04,73.0
40.033,1.136,-0.184,80.0
35.952,1.031,-0.371,2.0
27.447,0.796,-0.438,5.0
25.262,0.74,-0.545,1.0
40.132,1.193,0.234,116.0
40.12,1.205,0.008,150.0
40.012,1.214,-0.216,51.0
40.173,1.231,-0.448,2.0
28.588,0.885,-0.479,3.0
24.715,0.773,-0.554,1.0
40.126,1.271,0.201,150.0
40.133,1.284,-0.025,150.0
40.036,1.293,-0.25,36.0
40.165,1.309,-0.481,2.0
27.951,0.919,-0.492,2.0
23.815,0.791,-0.554,1.0
63.941,2.149,0.265,18.0
40.135,1.36,-0.059,150.0
39.984,1.367,-0.284,13.0
40.135,1.385,-0.516,1.0
27.438,0.955,-0.507,4.0
22.89,0.803,-0.552,0.0
44.424,1.577,0.145,2.0
40.123,1.435,-0.094,31.0
39.633,1.429,-0.316,1.0
30.973,1.126,-0.425,1.0
26.666,0.977,-0.516,3.0
22.548,0.833,-0.564,0.0
40.93,1.529,0.097,4.0
40.483,1.523,-0.132,14.0
37.065,1.406,-0.33,1.0
29.838,1.14,-0.437,2.0
26.066,1.004,-0.529,3.0
21.976,0.852,-0.57,1.0
40.35,1.582,0.058,150.0
40.34,1.593,-0.169,99.0
35.64,1.417,-0.351,1.0
29.102,1.165,-0.454,2.0
23.649,0.954,-0.503,26.0
21.481,0.873,-0.578,2.0
45.192,1.854,0.021,52.0
40.317,1.665,-0.209,30.0
23.645,0.983,-0.256,7.0
23.631,0.989,-0.392,25.0
23.66,0.997,-0.526,30.0
21.071,0.894,-0.588,3.0
23.635,1.012,-0.012,46.0
23.624,1.018,-0.146,41.0
23.624,1.024,-0.279,45.0
23.617,1.031,-0.416,45.0
23.605,1.037,-0.549,57.0
23.674,1.046,-0.685,1.0
23.611,1.053,-0.036,75.0
23.607,1.059,-0.17,70.0
23.607,1.065,-0.304,71.0
23.608,1.072,-0.44,69.0
23.333,1.066,-0.567,11.0
23.645,1.086,-0.709,1.0
23.609,1.094,-0.061,63.0
23.617,1.1,-0.195,50.0
23.625,1.107,-0.329,40.0
23.637,1.114,-0.466,34.0
22.178,1.051,-0.563,1.0
19.576,0.933,-0.608,2.0
40.302,1.937,-0.149,4.0
23.649,1.142,-0.221,12.0
23.66,1.149,-0.356,4.0
23.699,1.157,-0.493,47.0
21.433,1.052,-0.568,1.0
19.072,0.941,-0.613,3.0
40.325,2.006,-0.193,43.0
33.972,1.698,-0.356,6.0
28.516,1.433,-0.46,2.0
23.582,1.191,-0.517,22.0
20.855,1.058,-0.576,1.0
18.667,0.952,-0.621,3.0
40.239,2.068,-0.239,27.0
32.619,1.685,-0.379,8.0
27.244,1.414,-0.471,1.0
23.606,1.231,-0.545,2.0
20.598,1.079,-0.592,4.0
18.38,0.967,-0.633,3.0
0.0,0.0,0.0,0.0
31.291,1.667,-0.399,6.0
26.667,1.427,-0.492,1.0
22.467,1.207,-0.544,0.0
19.88,1.073,-0.595,3.0
18.11,0.982,-0.645,2.0
36.241,1.979,-0.299,5.0
30.057,1.649,-0.419,5.0
25.549,1.408,-0.502,1.0
19.742,1.092,-0.502,9.0
19.501,1.084,-0.607,3.0
17.797,0.993,-0.655,2.0
34.888,1.96,-0.33,7.0
29.006,1.636,-0.44,8.0
24.582,1.392,-0.513,1.0
19.744,1.123,-0.526,9.0
18.908,1.08,-0.611,3.0
17.35,0.995,-0.66,1.0
33.264,1.919,-0.356,10.0
27.966,1.619,-0.458,7.0
23.799,1.384,-0.525,0.0
19.699,1.149,-0.549,9.0
18.491,1.083,-0.62,3.0
17.109,1.006,-0.672,1.0
31.687,1.875,-0.378,9.0
27.031,1.605,-0.476,6.0
19.864,1.184,-0.463,3.0
19.698,1.178,-0.573,10.0
18.252,1.096,-0.635,2.0
16.952,1.022,-0.687,1.0
30.272,1.835,-0.399,9.0
26.102,1.588,-0.493,4.0
19.734,1.205,-0.485,10.0
19.564,1.198,-0.594,7.0
17.861,1.098,-0.645,1.0
16.802,1.037,-0.703,1.0
29.032,1.801,-0.42,8.0
25.181,1.567,-0.508,3.0
19.731,1.232,-0.511,11.0
19.079,1.196,-0.605,3.0
17.498,1.101,-0.655,1.0
16.66,1.052,-0.719,1.0
27.789,1.763,-0.439,7.0
24.488,1.558,-0.526,1.0
19.718,1.259,-0.536,9.0
18.59,1.19,-0.614,3.0
17.206,1.105,-0.666,1.0
16.468,1.062,-0.732,1.0
26.641,1.726,-0.456,7.0
19.919,1.294,-0.454,2.0
19.7,1.284,-0.562,10.0
18.295,1.196,-0.628,2.0
16.989,1.114,-0.681,1.0
16.251,1.069,-0.744,1.0
25.725,1.7,-0.475,6.0
19.736,1.308,-0.477,8.0
19.664,1.307,-0.587,8.0
17.943,1.196,-0.64,2.0
16.822,1.125,-0.697,1.0
16.06,1.077,-0.757,1.0
24.871,1.675,-0.493,6.0
19.727,1.333,-0.503,10.0
19.17,1.299,-0.599,3.0
17.473,1.187,-0.647,1.0
16.657,1.135,-0.713,1.0
15.935,1.089,-0.773,3.0
24.16,1.657,-0.511,5.0
19.712,1.356,-0.53,8.0
18.643,1.286,-0.608,3.0
17.23,1.192,-0.662,2.0
16.439,1.14,-0.726,1.0
15.705,1.092,-0.784,0.0
23.473,1.638,-0.529,1.0
19.705,1.379,-0.557,11.0
18.321,1.285,-0.623,3.0
16.984,1.195,-0.676,1.0
16.249,1.146,-0.74,1.0
15.306,1.082,-0.785,0.0
19.969,1.417,-0.478,3.0
19.662,1.398,-0.583,9.0
17.933,1.279,-0.635,2.0
16.813,1.202,-0.693,2.0
16.021,1.148,-0.752,1.0
15.001,1.078,-0.791,0.0
19.722,1.421,-0.5,7.0
19.248,1.39,-0.598,3.0
17.522,1.269,-0.645,2.0
16.651,1.208,-0.71,1.0
15.963,1.161,-0.772,1.0
14.634,1.067,-0.792,0.0
19.722,1.442,-0.528,9.0
18.642,1.367,-0.606,3.0
17.275,1.269,-0.66,2.0
16.41,1.208,-0.723,1.0
15.591,1.151,-0.777,0.0
14.262,1.055,-0.792,0.0
19.704,1.462,-0.556,11.0
18.314,1.361,-0.622,2.0
16.989,1.266,-0.674,1.0
16.2,1.21,-0.738,1.0
15.29,1.144,-0.784,0.0
13.987,1.049,-0.798,0.0
19.625,1.476,-0.582,7.0
17.868,1.346,-0.632,1.0
16.811,1.269,-0.691,1.0
16.012,1.211,-0.752,2.0
14.885,1.129,-0.785,0.0
13.727,1.043,-0.803,0.0
19.029,1.449,-0.592,3.0
17.514,1.336,-0.645,1.0
16.631,1.271,-0.708,1.0
15.883,1.217,-0.769,0.0
13.516,1.039,-0.81,0.0
18.628,1.435,-0.607,3.0
17.204,1.328,-0.659,1.0
16.413,1.27,-0.723,1.0
15.41,1.194,-0.769,0.0
14.189,1.102,-0.79,0.0
13.273,1.033,-0.815,0.0
18.231,1.421,-0.62,1.0
16.939,1.322,-0.674,1.0
16.159,1.264,-0.736,1.0
13.911,1.092,-0.795,0.0
12.924,1.016,-0.813,0.0
17.724,1.396,-0.629,1.0
16.775,1.323,-0.692,1.0
15.999,1.264,-0.752,2.0
14.764,1.169,-0.78,0.0
13.758,1.091,-0.806,0.0
12.786,1.016,-0.823,0.0
17.474,1.39,-0.646,2.0
16.567,1.32,-0.708,1.0
15.794,1.261,-0.766,0.0
10.37,0.83,-0.623,0.0
12.582,1.009,-0.829,0.0
17.177,1.379,-0.661,2.0
16.354,1.315,-0.723,1.0
15.326,1.234,-0.766,0.0
14.287,1.153,-0.797,0.0
13.248,1.071,-0.816,0.0
12.351,1.0,-0.832,0.0
16.932,1.372,-0.676,1.0
16.087,1.305,-0.735,1.0
13.9,1.131,-0.796,0.0
12.936,1.054,-0.816,0.0
12.235,0.999,-0.842,0.0
16.72,1.366,-0.693,1.0
15.974,1.306,-0.754,2.0
14.63,1.198,-0.774,0.0
13.693,1.123,-0.805,0.0
12.743,1.047,-0.823,0.0
12.013,0.988,-0.845,0.0
16.508,1.359,-0.708,1.0
15.702,1.294,-0.764,0.0
14.47,1.194,-0.788,0.0
13.386,1.106,-0.807,0.0
12.58,1.041,-0.831,0.0
11.803,0.978,-0.848,0.0
16.303,1.351,-0.724,1.0
15.298,1.269,-0.767,0.0
13.193,1.097,-0.815,0.0
12.344,1.028,-0.834,0.0
11.519,0.961,-0.845,0.0
16.044,1.338,-0.736,1.0
12.881,1.078,-0.815,0.0
12.113,1.015,-0.836,0.0
11.355,0.953,-0.85,0.0
15.941,1.337,-0.755,1.0
12.711,1.07,-0.823,0.0
11.982,1.01,-0.845,0.0
11.185,0.944,-0.853,0.0
15.54,1.311,-0.759,0.0
14.302,1.207,-0.781,0.0
13.321,1.126,-0.804,0.0
12.52,1.059,-0.829,0.0
11.731,0.993,-0.845,0.0
10.986,0.931,-0.855,0.0
15.206,1.288,-0.765,0.0
14.035,1.19,-0.787,0.0
13.043,1.107,-0.806,0.0
12.311,1.046,-0.833,0.0
11.507,0.979,-0.845,0.0
10.814,0.921,-0.857,0.0
14.964,1.273,-0.775,0.0
13.784,1.174,-0.793,0.0
12.903,1.1,-0.817,0.0
12.106,1.033,-0.837,0.0
11.27,0.962,-0.845,0.0
10.625,0.908,-0.858,0.0
13.561,1.159,-0.8,0.0
12.662,1.083,-0.82,0.0
11.912,1.02,-0.841,0.0
11.104,0.952,-0.849,0.0
10.44,0.895,-0.858,0.0
13.264,1.137,-0.802,0.0
12.505,1.073,-0.828,0.0
11.605,0.996,-0.837,0.0
10.978,0.943,-0.855,0.0
10.352,0.89,-0.866,0.0
13.036,1.12,-0.807,0.0
12.303,1.058,-0.832,0.0
11.459,0.986,-0.843,0.0
10.736,0.925,-0.852,0.0
10.219,0.881,-0.87,0.0
12.884,1.11,-0.816,0.0
12.061,1.039,-0.833,0.0
11.306,0.975,-0.847,0.0
10.567,0.912,-0.853,0.0
10.083,0.871,-0.873,0.0
13.539,1.167,-0.798,0.0
12.673,1.093,-0.82,0.0
11.965,1.033,-0.844,0.0
11.103,0.959,-0.848,0.0
10.463,0.904,-0.86,0.0
9.989,0.864,-0.879,0.0
13.318,1.149,-0.804,0.0
12.557,1.084,-0.83,0.0
11.667,1.008,-0.839,0.0
10.989,0.95,-0.855,0.0
10.337,0.894,-0.864,0.0
9.858,0.853,-0.881,0.0
13.08,1.13,-0.808,0.0
12.312,1.064,-0.831,0.0
11.41,0.986,-0.836,0.0
10.223,0.885,-0.869,0.0
9.708,0.84,-0.881,0.0
12.87,1.112,-0.812,0.0
12.1,1.045,-0.833,0.0
11.278,0.975,-0.842,0.0
10.558,0.913,-0.85,0.0
10.093,0.873,-0.871,0.0
9.576,0.829,-0.882,0.0
12.69,1.096,-0.818,0.0
12.02,1.038,-0.844,0.0
11.143,0.963,-0.847,0.0
10.462,0.904,-0.857,0.0
9.978,0.863,-0.875,0.0
9.504,0.822,-0.888,0.0
12.519,1.08,-0.824,0.0
11.779,1.016,-0.843,0.0
10.95,0.945,-0.847,0.0
10.372,0.895,-0.863,0.0
9.89,0.854,-0.881,0.0
9.359,0.808,-0.887,0.0
12.351,1.064,-0.829,0.0
11.401,0.982,-0.831,0.0
10.844,0.934,-0.853,0.0
10.262,0.885,-0.868,0.0
9.767,0.842,-0.882,0.0
9.256,0.798,-0.89,0.0
12.133,1.043,-0.83,0.0
11.356,0.977,-0.843,0.0
10.116,0.87,-0.868,0.0
9.645,0.83,-0.884,0.0
9.13,0.786,-0.89,0.0
12.065,1.035,-0.841,0.0
11.216,0.962,-0.847,0.0
10.507,0.901,-0.854,0.0
9.989,0.857,-0.87,0.0
9.526,0.818,-0.885,0.0
9.063,0.778,-0.895,0.0
11.755,1.006,-0.835,0.0
11.079,0.948,-0.85,0.0
10.421,0.891,-0.86,0.0
9.932,0.85,-0.878,0.0
9.4,0.804,-0.885,0.0
8.893,0.761,-0.889,0.0
11.629,0.992,-0.84,0.0
10.932,0.932,-0.853,0.0
10.286,0.877,-0.862,0.0
9.797,0.835,-0.878,0.0
9.279,0.791,-0.885,0.0
8.804,0.751,-0.891,0.0
11.494,0.977,-0.844,0.0
10.735,0.912,-0.85,0.0
10.19,0.865,-0.866,0.0
9.71,0.825,-0.882,0.0
9.207,0.782,-0.89,0.0
8.704,0.739,-0.892,0.0
11.307,0.956,-0.844,0.0
10.595,0.896,-0.852,0.0
10.104,0.854,-0.871,0.0
9.597,0.811,-0.883,0.0
9.114,0.77,-0.892,0.0
8.656,0.732,-0.897,0.0
11.158,0.939,-0.846,0.0
10.467,0.881,-0.854,0.0
10.026,0.844,-0.875,0.0
9.488,0.798,-0.884,0.0
9.022,0.759,-0.893,0.0
8.565,0.72,-0.897,0.0
11.031,0.924,-0.849,0.0
10.405,0.871,-0.86,0.0
9.935,0.832,-0.879,0.0
9.363,0.784,-0.883,0.0
8.88,0.743,-0.889,0.0
8.459,0.708,-0.896,0.0
10.901,0.908,-0.851,0.0
10.321,0.859,-0.865,0.0
9.829,0.818,-0.88,0.0
9.295,0.773,-0.887,0.0
8.794,0.731,-0.89,0.0
8.369,0.696,-0.895,0.0
10.755,0.89,-0.851,0.0
10.229,0.846,-0.868,0.0
9.733,0.805,-0.882,0.0
9.239,0.764,-0.892,0.0
8.715,0.72,-0.891,0.0
8.323,0.688,-0.899,0.0
10.64,0.875,-0.853,0.0
10.118,0.832,-0.87,0.0
9.623,0.791,-0.882,0.0
9.08,0.746,-0.886,0.0
8.638,0.709,-0.893,0.0
8.257,0.677,-0.901,0.0
10.533,0.86,-0.855,0.0
10.013,0.817,-0.871,0.0
9.554,0.779,-0.886,0.0
9.06,0.739,-0.893,0.0
8.559,0.697,-0.893,0.0
8.187,0.667,-0.902,0.0
10.463,0.848,-0.86,0.0
9.981,0.808,-0.878,0.0
9.474,0.767,-0.888,0.0
8.913,0.721,-0.888,0.0
8.53,0.69,-0.899,0.0
8.135,0.657,-0.904,0.0
10.364,0.833,-0.862,0.0
9.895,0.795,-0.88,0.0
9.368,0.752,-0.887,0.0
8.872,0.712,-0.892,0.0
8.461,0.678,-0.899,0.0
8.058,0.645,-0.903,0.0
10.287,0.82,-0.865,0.0
9.798,0.78,-0.88,0.0
9.347,0.744,-0.894,0.0
8.772,0.697,-0.89,0.0
8.348,0.663,-0.895,0.0
8.009,0.636,-0.905,0.0
10.194,0.805,-0.867,0.0
9.745,0.769,-0.885,0.0
9.285,0.732,-0.896,0.0
8.697,0.685,-0.89,0.0
8.287,0.652,-0.896,0.0
7.987,0.628,-0.91,0.0
10.148,0.794,-0.872,0.0
9.723,0.76,-0.891,0.0
9.195,0.718,-0.895,0.0
8.644,0.674,-0.892,0.0
8.258,0.644,-0.9,0.0
7.94,0.618,-0.911,0.0
10.058,0.779,-0.872,0.0
9.588,0.742,-0.886,0.0
9.107,0.704,-0.894,0.0
8.616,0.665,-0.896,0.0
8.248,0.636,-0.906,0.0
7.896,0.609,-0.913,0.0
9.997,0.766,-0.875,0.0
9.502,0.728,-0.886,0.0
9.004,0.689,-0.891,0.0
8.525,0.651,-0.894,0.0
8.147,0.622,-0.901,0.0
7.889,0.601,-0.918,0.0
9.925,0.752,-0.876,0.0
9.473,0.717,-0.891,0.0
8.961,0.678,-0.894,0.0
8.52,0.643,-0.9,0.0
8.088,0.61,-0.901,0.0
7.841,0.591,-0.918,0.0
9.88,0.74,-0.88,0.0
9.459,0.708,-0.896,0.0
8.875,0.663,-0.892,0.0
8.43,0.629,-0.896,0.0
8.074,0.602,-0.905,0.0
7.815,0.582,-0.921,0.0
9.81,0.726,-0.88,0.0
9.388,0.694,-0.896,0.0
8.84,0.653,-0.894,0.0
8.428,0.621,-0.902,0.0
8.027,0.591,-0.905,0.0
7.778,0.572,-0.922,0.0
9.782,0.715,-0.884,0.0
9.318,0.68,-0.895,0.0
8.801,0.642,-0.896,0.0
8.352,0.608,-0.899,0.0
8.014,0.583,-0.909,0.0
7.763,0.564,-0.925,0.0
9.72,0.701,-0.884,0.0
9.236,0.665,-0.893,0.0
8.724,0.628,-0.893,0.0
8.347,0.6,-0.904,0.0
7.963,0.571,-0.908,0.0
7.753,0.555,-0.928,0.0
9.666,0.688,-0.885,0.0
8.681,0.616,-0.894,0.0
8.315,0.589,-0.905,0.0
7.967,0.563,-0.913,0.0
7.696,0.543,-0.926,0.0
9.622,0.675,-0.886,0.0
9.12,0.639,-0.892,0.0
8.722,0.61,-0.903,0.0
8.234,0.575,-0.9,0.0
7.93,0.553,-0.912,0.0
7.686,0.535,-0.928,0.0
9.63,0.666,-0.892,0.0
9.051,0.625,-0.89,0.0
8.613,0.593,-0.896,0.0
8.211,0.565,-0.902,0.0
7.903,0.543,-0.913,0.0
7.643,0.524,-0.927,0.0
9.545,0.65,-0.888,0.0
9.061,0.616,-0.895,0.0
8.603,0.584,-0.899,0.0
8.214,0.556,-0.906,0.0
7.9,0.534,-0.916,0.0
7.627,0.515,-0.928,0.0
9.512,0.638,-0.889,0.0
9.031,0.604,-0.896,0.0
8.621,0.576,-0.904,0.0
8.164,0.544,-0.903,0.0
7.891,0.525,-0.918,0.0
7.646,0.507,-0.934,0.0
9.458,0.624,-0.888,0.0
9.02,0.594,-0.898,0.0
8.589,0.564,-0.904,0.0
8.15,0.534,-0.905,0.0
7.854,0.514,-0.917,0.0
7.585,0.495,-0.929,0.0
9.485,0.615,-0.894,0.0
9.022,0.584,-0.901,0.0
8.574,0.553,-0.905,0.0
8.127,0.523,-0.905,0.0
7.856,0.505,-0.919,0.0
7.557,0.485,-0.928,0.0
9.432,0.601,-0.891,0.0
8.995,0.572,-0.901,0.0
8.553,0.542,-0.905,0.0
8.123,0.514,-0.907,0.0
7.822,0.494,-0.918,0.0
7.579,0.477,-0.932,0.0
9.436,0.59,-0.894,0.0
8.976,0.56,-0.901,0.0
8.56,0.533,-0.908,0.0
8.131,0.505,-0.909,0.0
7.846,0.486,-0.922,0.0
7.559,0.467,-0.931,0.0
9.46,0.581,-0.898,0.0
8.982,0.55,-0.904,0.0
8.518,0.52,-0.905,0.0
8.131,0.495,-0.911,0.0
7.835,0.476,-0.922,0.0
7.556,0.458,-0.932,0.0
9.449,0.569,-0.899,0.0
8.953,0.537,-0.902,0.0
8.531,0.511,-0.908,0.0
8.117,0.485,-0.91,0.0
7.831,0.466,-0.923,0.0
7.538,0.448,-0.931,0.0
9.416,0.556,-0.897,0.0
8.91,0.524,-0.899,0.0
8.494,0.498,-0.905,0.0
8.114,0.475,-0.911,0.0
7.816,0.456,-0.922,0.0
7.536,0.438,-0.932,0.0
9.403,0.543,-0.896,0.0
8.893,0.512,-0.898,0.0
8.547,0.491,-0.911,0.0
8.098,0.464,-0.91,0.0
7.814,0.446,-0.922,0.0
7.534,0.429,-0.932,0.0
9.418,0.533,-0.898,0.0
8.931,0.504,-0.902,0.0
8.525,0.479,-0.909,0.0
8.094,0.454,-0.909,0.0
7.779,0.435,-0.918,0.0
7.536,0.42,-0.932,0.0
9.378,0.519,-0.894,0.0
8.966,0.495,-0.905,0.0
8.5,0.467,-0.906,0.0
8.101,0.444,-0.91,0.0
7.826,0.428,-0.923,0.0
7.53,0.41,-0.931,0.0
9.4,0.508,-0.895,0.0
8.934,0.482,-0.901,0.0
8.538,0.459,-0.909,0.0
8.121,0.435,-0.911,0.0
7.788,0.416,-0.918,0.0
7.55,0.402,-0.932,0.0
9.42,0.498,-0.896,0.0
8.965,0.472,-0.903,0.0
8.519,0.447,-0.906,0.0
8.125,0.425,-0.911,0.0
7.843,0.409,-0.923,0.0
7.569,0.393,-0.934,0.0
9.452,0.488,-0.898,0.0
9.012,0.463,-0.907,0.0
8.528,0.437,-0.906,0.0
8.144,0.416,-0.911,0.0
7.847,0.399,-0.922,0.0
7.588,0.384,-0.935,0.0
9.485,0.477,-0.899,0.0
9.02,0.452,-0.906,0.0
8.56,0.427,-0.907,0.0
8.113,0.404,-0.906,0.0
7.875,0.39,-0.924,0.0
7.595,0.375,-0.934,0.0
9.519,0.467,-0.9,0.0
9.047,0.442,-0.906,0.0
8.615,0.419,-0.911,0.0
8.181,0.396,-0.912,0.0
7.872,0.38,-0.921,0.0
7.609,0.366,-0.933,0.0
9.528,0.455,-0.898,0.0
9.065,0.431,-0.905,0.0
8.665,0.41,-0.913,0.0
8.239,0.389,-0.916,0.0
7.911,0.372,-0.923,0.0
7.615,0.356,-0.932,0.0
9.567,0.444,-0.899,0.0
9.101,0.421,-0.906,0.0
8.686,0.4,-0.913,0.0
8.236,0.378,-0.912,0.0
7.927,0.362,-0.922,0.0
7.642,0.348,-0.932,0.0
9.616,0.434,-0.9,0.0
9.142,0.411,-0.906,0.0
8.705,0.39,-0.911,0.0
8.27,0.369,-0.913,0.0
7.975,0.354,-0.925,0.0
7.689,0.34,-0.935,0.0
9.679,0.425,-0.902,0.0
9.23,0.403,-0.911,0.0
8.757,0.381,-0.913,0.0
8.365,0.362,-0.92,0.0
7.996,0.344,-0.923,0.0
7.705,0.33,-0.933,0.0
9.725,0.414,-0.901,0.0
9.25,0.392,-0.909,0.0
8.79,0.371,-0.912,0.0
8.352,0.351,-0.914,0.0
8.033,0.336,-0.924,0.0
7.723,0.321,-0.931,0.0
9.773,0.403,-0.901,0.0
9.291,0.382,-0.908,0.0
8.849,0.362,-0.914,0.0
8.41,0.342,-0.916,0.0
8.058,0.326,-0.922,0.0
7.747,0.312,-0.93,0.0
9.811,0.392,-0.899,0.0
9.342,0.372,-0.908,0.0
8.881,0.352,-0.912,0.0
8.439,0.332,-0.914,0.0
8.117,0.318,-0.924,0.0
7.786,0.304,-0.93,0.0
9.86,0.382,-0.898,0.0
9.392,0.362,-0.907,0.0
8.914,0.341,-0.91,0.0
8.52,0.325,-0.917,0.0
8.156,0.309,-0.924,0.0
7.826,0.295,-0.929,0.0
9.918,0.371,-0.896,0.0
9.499,0.354,-0.911,0.0
8.976,0.332,-0.91,0.0
8.577,0.316,-0.918,0.0
8.209,0.3,-0.924,0.0
7.896,0.287,-0.932,0.0
9.977,0.361,-0.895,0.0
9.519,0.342,-0.906,0.0
9.067,0.324,-0.913,0.0
8.602,0.305,-0.914,0.0
8.256,0.291,-0.923,0.0
7.917,0.278,-0.929,0.0
10.086,0.352,-0.897,0.0
9.575,0.332,-0.904,0.0
9.062,0.312,-0.906,0.0
8.68,0.297,-0.916,0.0
8.3,0.282,-0.922,0.0
7.965,0.269,-0.928,0.0
10.168,0.342,-0.897,0.0
9.648,0.322,-0.904,0.0
9.157,0.304,-0.908,0.0
8.755,0.289,-0.917,0.0
8.369,0.274,-0.923,0.0
8.05,0.262,-0.932,0.0
10.232,0.331,-0.894,0.0
9.733,0.313,-0.904,0.0
9.251,0.295,-0.909,0.0
8.865,0.281,-0.921,0.0
8.453,0.266,-0.925,0.0
8.073,0.253,-0.927,0.0
10.339,0.321,-0.894,0.0
9.791,0.302,-0.9,0.0
9.372,0.287,-0.913,0.0
8.922,0.272,-0.919,0.0
8.502,0.257,-0.922,0.0
8.155,0.245,-0.929,0.0
10.461,0.312,-0.895,0.0
9.914,0.294,-0.903,0.0
9.449,0.278,-0.912,0.0
8.955,0.262,-0.914,0.0
8.59,0.249,-0.924,0.0
8.212,0.236,-0.928,0.0
10.507,0.3,-0.889,0.0
10.001,0.284,-0.901,0.0
9.503,0.268,-0.908,0.0
9.065,0.254,-0.916,0.0
8.655,0.24,-0.922,0.0
8.262,0.228,-0.926,0.0
10.64,0.291,-0.89,0.0
10.073,0.274,-0.897,0.0
9.62,0.259,-0.909,0.0
9.113,0.244,-0.912,0.0
8.682,0.231,-0.916,0.0
8.359,0.22,-0.928,0.0
10.724,0.281,-0.886,0.0
10.19,0.265,-0.897,0.0
9.703,0.25,-0.907,0.0
9.188,0.235,-0.91,0.0
8.818,0.224,-0.921,0.0
8.427,0.212,-0.926,0.0
10.863,0.271,-0.886,0.0
10.328,0.256,-0.898,0.0
9.777,0.24,-0.903,0.0
9.297,0.227,-0.91,0.0
8.932,0.216,-0.923,0.0
8.533,0.204,-0.928,0.0
11.006,0.262,-0.885,0.0
10.366,0.245,-0.89,0.0
9.912,0.232,-0.905,0.0
9.465,0.219,-0.916,0.0
9.011,0.207,-0.921,0.0
8.575,0.195,-0.923,0.0
11.144,0.252,-0.884,0.0
10.542,0.237,-0.893,0.0
10.007,0.222,-0.901,0.0
9.542,0.21,-0.912,0.0
9.093,0.198,-0.918,0.0
8.667,0.187,-0.922,0.0
11.256,0.242,-0.879,0.0
10.659,0.227,-0.89,0.0
10.122,0.213,-0.899,0.0
9.627,0.201,-0.908,0.0
9.195,0.19,-0.917,0.0
8.777,0.18,-0.923,0.0
11.491,0.234,-0.883,0.0
10.841,0.218,-0.891,0.0
10.289,0.205,-0.901,0.0
9.772,0.193,-0.91,0.0
9.312,0.182,-0.917,0.0
8.906,0.172,-0.925,0.0
11.624,0.224,-0.879,0.0
11.035,0.21,-0.893,0.0
10.382,0.196,-0.896,0.0
9.905,0.185,-0.909,0.0
9.416,0.174,-0.915,0.0
8.99,0.164,-0.922,0.0
11.855,0.215,-0.881,0.0
11.202,0.201,-0.892,0.0
10.559,0.188,-0.897,0.0
10.042,0.176,-0.908,0.0
9.584,0.166,-0.918,0.0
9.099,0.156,-0.921,0.0
12.064,0.206,-0.88,1.0
11.386,0.192,-0.891,0.0
10.723,0.179,-0.897,0.0
10.138,0.167,-0.903,0.0
9.637,0.157,-0.91,0.0
9.25,0.149,-0.923,0.0
12.174,0.195,-0.871,1.0
11.563,0.183,-0.889,0.0
10.914,0.171,-0.898,0.0
10.284,0.159,-0.902,0.0
9.782,0.149,-0.91,0.0
9.366,0.141,-0.922,0.0
12.427,0.186,-0.872,0.0
11.732,0.174,-0.885,0.0
11.017,0.161,-0.89,0.0
10.503,0.151,-0.906,0.0
9.916,0.141,-0.908,0.0
9.469,0.133,-0.918,1.0
12.655,0.177,-0.869,0.0
11.904,0.164,-0.881,1.0
11.236,0.153,-0.891,0.0
10.629,0.143,-0.901,0.0
10.057,0.133,-0.906,0.0
9.579,0.125,-0.914,0.0
12.905,0.168,-0.867,1.0
12.11,0.155,-0.878,1.0
11.466,0.145,-0.892,0.0
10.807,0.135,-0.9,0.0
10.264,0.126,-0.909,0.0
9.796,0.118,-0.92,0.0
13.048,0.157,-0.857,2.0
12.321,0.146,-0.875,0.0
11.68,0.136,-0.891,0.0
10.994,0.126,-0.898,0.0
10.432,0.118,-0.908,0.0
9.865,0.11,-0.911,1.0
13.364,0.149,-0.857,0.0
12.564,0.137,-0.872,0.0
11.818,0.127,-0.883,1.0
11.152,0.118,-0.894,0.0
10.608,0.11,-0.906,0.0
9.997,0.102,-0.907,0.0
13.631,0.139,-0.853,0.0
12.809,0.129,-0.869,0.0
12.036,0.119,-0.88,1.0
11.373,0.11,-0.893,0.0
10.747,0.102,-0.901,0.0
10.225,0.096,-0.911,0.0
13.908,0.13,-0.847,0.0
13.034,0.119,-0.863,0.0
12.268,0.11,-0.877,0.0
11.604,0.102,-0.892,0.0
10.944,0.095,-0.899,0.0
10.381,0.088,-0.908,0.0
14.219,0.12,-0.843,0.0
13.322,0.111,-0.86,0.0
12.519,0.102,-0.874,0.0
11.777,0.094,-0.886,0.0
11.145,0.087,-0.897,0.0
10.566,0.081,-0.907,0.0
14.629,0.112,-0.843,0.0
13.619,0.102,-0.856,0.0
12.785,0.094,-0.871,1.0
12.029,0.086,-0.884,1.0
11.381,0.08,-0.897,0.0
10.742,0.074,-0.903,0.0
15.001,0.103,-0.839,0.0
13.854,0.093,-0.847,0.0
13.023,0.085,-0.865,0.0
12.242,0.078,-0.879,0.0
11.608,0.072,-0.894,0.0
10.956,0.066,-0.902,0.0
15.356,0.093,-0.832,0.0
14.262,0.084,-0.847,0.0
13.318,0.077,-0.861,0.0
12.509,0.07,-0.876,0.0
11.807,0.065,-0.889,0.0
11.182,0.06,-0.901,0.0
15.755,0.084,-0.826,0.0
14.621,0.076,-0.843,0.0
13.625,0.069,-0.857,0.0
12.791,0.063,-0.873,1.0
12.022,0.057,-0.884,0.0
11.387,0.052,-0.897,0.0
19.778,-0.044,-0.379,0.0
26.968,-0.061,-0.656,0.0
23.817,-0.055,-0.702,0.0
