X,Y,Z,Reflectivity
23.041,-2.816,-0.759,0.0
20.708,-2.531,-0.793,0.0
18.797,-2.297,-0.82,0.0
0.0,0.0,0.0,0.0
30.145,-3.682,-0.632,1.0
0.0,0.0,0.0,0.0
23.296,-2.845,-0.74,0.0
21.116,-2.578,-0.783,0.0
18.982,-2.318,-0.806,0.0
0.0,0.0,0.0,0.0
30.467,-3.717,-0.603,0.0
27.204,-3.318,-0.684,0.0
24.423,-2.978,-0.747,0.0
21.6,-2.634,-0.776,0.0
19.703,-2.402,-0.813,0.0
0.0,0.0,0.0,0.0
0.0,0.0,0.0,0.0
27.866,-3.394,-0.667,0.0
24.726,-3.011,-0.727,0.0
22.126,-2.693,-0.769,0.0
19.826,-2.413,-0.795,0.0
38.689,-4.706,-0.468,0.0
0.0,0.0,0.0,0.0
29.123,-3.54,-0.663,0.0
0.0,0.0,0.0,0.0
22.962,-2.789,-0.771,0.0
20.361,-2.473,-0.792,0.0
38.775,-4.707,-0.423,0.0
35.175,-4.268,-0.572,0.0
29.865,-3.622,-0.645,0.0
0.0,0.0,0.0,0.0
23.257,-2.818,-0.753,0.0
20.871,-2.528,-0.787,0.0
38.561,-4.669,-0.375,7.0
0.0,0.0,0.0,0.0
30.367,-3.673,-0.619,0.0
26.981,-3.262,-0.697,0.0
23.835,-2.88,-0.743,0.0
21.336,-2.577,-0.779,0.0
44.386,-5.359,-0.379,0.0
0.0,0.0,0.0,0.0
0.0,0.0,0.0,0.0
27.106,-3.266,-0.668,0.0
24.537,-2.955,-0.736,0.0
21.94,-2.641,-0.775,0.0
0.0,0.0,0.0,0.0
38.131,-4.585,-0.485,1.0
0.0,0.0,0.0,0.0
28.266,-3.394,-0.664,0.0
24.931,-2.992,-0.719,0.0
22.413,-2.688,-0.766,0.0
0.0,0.0,0.0,0.0
0.0,0.0,0.0,0.0
33.976,-4.067,-0.573,0.0
28.378,-3.394,-0.633,0.0
0.0,0.0,0.0,0.0
22.825,-2.726,-0.753,0.0
0.0,0.0,0.0,0.0
0.0,0.0,0.0,0.0
0.0,0.0,0.0,0.0
30.272,-3.605,-0.64,0.0
26.326,-3.132,-0.697,0.0
23.374,-2.779,-0.744,0.0
52.273,-6.214,-0.202,0.0
0.0,0.0,0.0,0.0
36.257,-4.301,-0.527,0.0
0.0,0.0,0.0,0.0
27.114,-3.211,-0.686,0.0
24.493,-2.898,-0.751,0.0
56.628,-6.698,-0.154,0.0
0.0,0.0,0.0,0.0
36.768,-4.34,-0.492,0.0
31.68,-3.735,-0.597,0.0
27.854,-3.281,-0.673,0.0
24.557,-2.89,-0.725,0.0
0.0,0.0,0.0,0.0
0.0,0.0,0.0,0.0
0.0,0.0,0.0,0.0
33.401,-3.916,-0.59,0.0
28.534,-3.342,-0.657,0.0
25.038,-2.929,-0.71,0.0
0.0,0.0,0.0,0.0
49.394,-5.771,-0.284,0.0
41.37,-4.828,-0.459,0.0
33.983,-3.961,-0.562,0.0
0.0,0.0,0.0,0.0
26.241,-3.052,-0.714,0.0
77.645,-9.028,0.055,4.0
0.0,0.0,0.0,0.0
41.276,-4.786,-0.411,0.0
0.0,0.0,0.0,0.0
0.0,0.0,0.0,0.0
26.835,-3.1,-0.7,0.0
77.699,-8.975,0.142,25.0
0.0,0.0,0.0,0.0
0.0,0.0,0.0,0.0
36.326,-4.178,-0.519,0.0
0.0,0.0,0.0,0.0
0.0,0.0,0.0,0.0
83.698,-9.601,0.245,1.0
0.0,0.0,0.0,0.0
0.0,0.0,0.0,0.0
0.0,0.0,0.0,0.0
0.0,0.0,0.0,0.0
0.0,0.0,0.0,0.0
83.385,-9.495,0.337,11.0
0.0,0.0,0.0,0.0
0.0,0.0,0.0,0.0
0.0,0.0,0.0,0.0
0.0,0.0,0.0,0.0
28.304,-3.197,-0.645,0.0
83.408,-9.423,0.428,10.0
0.0,0.0,0.0,0.0
0.0,0.0,0.0,0.0
41.455,-4.659,-0.456,0.0
34.309,-3.85,-0.561,0.0
29.729,-3.331,-0.645,0.0
83.343,-9.338,0.517,15.0
83.815,-9.374,0.071,3.0
0.0,0.0,0.0,0.0
0.0,0.0,0.0,0.0
0.0,0.0,0.0,0.0
0.0,0.0,0.0,0.0
83.378,-9.26,0.604,11.0
83.877,-9.298,0.16,12.0
0.0,0.0,0.0,0.0
0.0,0.0,0.0,0.0
37.851,-4.173,-0.54,0.0
0.0,0.0,0.0,0.0
83.368,-9.175,0.691,36.0
83.659,-9.188,0.245,4.0
0.0,0.0,0.0,0.0
0.0,0.0,0.0,0.0
37.621,-4.108,-0.498,0.0
32.706,-3.565,-0.608,0.0
83.054,-9.052,0.773,34.0
83.372,-9.069,0.329,15.0
0.0,0.0,0.0,0.0
0.0,0.0,0.0,0.0
0.0,0.0,0.0,0.0
0.0,0.0,0.0,0.0
83.344,-8.993,0.859,79.0
83.341,-8.973,0.411,140.0
0.0,0.0,0.0,0.0
49.489,-5.305,-0.291,0.0
40.179,-4.298,-0.452,0.0
0.0,0.0,0.0,0.0
84.279,-8.998,0.951,2.0
84.425,-8.993,0.5,3.0
0.0,0.0,0.0,0.0
0.0,0.0,0.0,0.0
0.0,0.0,0.0,0.0
0.0,0.0,0.0,0.0
85.194,-8.996,1.044,2.0
85.281,-8.983,0.587,2.0
85.258,-8.959,0.129,4.0
0.0,0.0,0.0,0.0
0.0,0.0,0.0,0.0
36.375,-3.796,-0.534,0.0
86.229,-8.999,1.138,63.0
86.241,-8.977,0.675,63.0
0.0,0.0,0.0,0.0
56.067,-5.808,-0.169,0.0
0.0,0.0,0.0,0.0
36.722,-3.786,-0.505,0.0
87.202,-8.99,1.232,2.0
87.289,-8.976,0.763,3.0
100.393,-10.298,0.337,6.0
56.287,-5.759,-0.119,0.0
0.0,0.0,0.0,0.0
0.0,0.0,0.0,0.0
88.24,-8.985,1.324,3.0
88.417,-8.978,0.851,2.0
100.364,-10.164,0.426,5.0
0.0,0.0,0.0,0.0
0.0,0.0,0.0,0.0
39.575,-3.976,-0.474,0.0
89.083,-8.951,1.415,44.0
89.148,-8.933,0.936,36.0
90.2,-9.013,0.462,19.0
0.0,0.0,0.0,0.0
49.973,-4.966,-0.287,0.0
40.37,-4.001,-0.449,0.0
90.267,-8.946,1.511,43.0
90.342,-8.927,1.026,12.0
90.355,-8.902,0.539,36.0
0.0,0.0,0.0,0.0
0.0,0.0,0.0,0.0
0.0,0.0,0.0,0.0
90.331,-8.827,1.586,39.0
90.367,-8.804,1.098,49.0
90.35,-8.776,0.612,16.0
90.504,-8.765,0.115,1.0
0.0,0.0,0.0,0.0
0.0,0.0,0.0,0.0
90.386,-8.702,1.659,54.0
0.0,0.0,0.0,0.0
90.392,-8.649,0.682,55.0
90.377,-8.621,0.186,7.0
0.0,0.0,0.0,0.0
44.614,-4.23,-0.39,0.0
90.382,-8.568,1.728,42.0
90.374,-8.541,1.24,30.0
90.28,-8.504,0.751,19.0
90.389,-8.488,0.254,16.0
0.0,0.0,0.0,0.0
0.0,0.0,0.0,0.0
90.377,-8.432,1.796,47.0
90.38,-8.403,1.307,38.0
90.371,-8.374,0.818,23.0
90.386,-8.349,0.32,26.0
0.0,0.0,0.0,0.0
0.0,0.0,0.0,0.0
90.387,-8.293,1.861,34.0
90.404,-8.266,1.372,37.0
90.402,-8.237,0.883,37.0
90.339,-8.202,0.384,10.0
0.0,0.0,0.0,0.0
0.0,0.0,0.0,0.0
90.378,-8.151,1.922,34.0
90.396,-8.123,1.433,31.0
90.416,-8.096,0.943,47.0
90.396,-8.066,0.444,37.0
0.0,0.0,0.0,0.0
0.0,0.0,0.0,0.0
90.38,-8.006,1.982,60.0
90.392,-7.977,1.492,35.0
90.406,-7.95,1.002,39.0
90.392,-7.92,0.502,38.0
0.0,0.0,0.0,0.0
0.0,0.0,0.0,0.0
90.378,-7.86,2.038,32.0
90.381,-7.83,1.547,36.0
90.386,-7.8,1.056,33.0
90.402,-7.772,0.557,36.0
0.0,0.0,0.0,0.0
0.0,0.0,0.0,0.0
90.393,-7.712,2.092,34.0
90.377,-7.68,1.6,41.0
90.419,-7.654,1.11,37.0
90.4,-7.623,0.608,49.0
90.424,-7.595,0.117,4.0
0.0,0.0,0.0,0.0
90.395,-7.56,2.143,22.0
90.41,-7.53,1.651,78.0
90.424,-7.501,1.159,36.0
90.41,-7.47,0.658,150.0
0.0,0.0,0.0,0.0
0.0,0.0,0.0,0.0
127.519,-10.446,3.09,31.0
116.524,-9.503,2.19,23.0
100.082,-8.129,1.336,12.0
100.055,-8.093,0.78,14.0
99.74,-8.035,0.235,1.0
0.0,0.0,0.0,0.0
127.493,-10.223,3.153,30.0
117.729,-9.398,2.269,7.0
100.037,-7.952,1.383,11.0
100.059,-7.92,0.827,14.0
99.145,-7.813,0.28,1.0
0.0,0.0,0.0,0.0
127.523,-10.001,3.212,31.0
119.554,-9.333,2.359,10.0
100.08,-7.778,1.43,10.0
100.083,-7.744,0.873,14.0
99.142,-7.636,0.324,7.0
0.0,0.0,0.0,0.0
127.475,-9.769,3.267,28.0
127.425,-9.719,2.569,8.0
100.139,-7.603,1.472,11.0
100.084,-7.564,0.915,14.0
99.033,-7.45,0.364,8.0
0.0,0.0,0.0,0.0
130.463,-9.76,3.394,3.0
125.403,-9.334,2.578,4.0
100.095,-7.416,1.51,8.0
100.055,-7.377,0.953,12.0
99.075,-7.271,0.401,12.0
0.0,0.0,0.0,0.0
109.246,-7.972,2.882,11.0
109.382,-7.943,2.287,26.0
100.142,-7.236,1.546,7.0
100.054,-7.193,0.987,11.0
0.0,0.0,0.0,0.0
0.0,0.0,0.0,0.0
109.087,-7.758,2.914,47.0
109.29,-7.731,2.321,49.0
100.059,-7.042,1.576,7.0
100.057,-7.006,1.017,9.0
99.8,-6.954,0.468,11.0
0.0,0.0,0.0,0.0
109.118,-7.554,2.946,44.0
148.384,-10.219,3.192,12.0
100.04,-6.853,1.604,5.0
108.748,-7.41,1.136,9.0
0.0,0.0,0.0,0.0
0.0,0.0,0.0,0.0
148.173,-9.978,4.038,6.0
117.283,-7.855,2.552,29.0
0.0,0.0,0.0,0.0
99.718,-6.606,1.065,7.0
99.714,-6.57,0.517,8.0
0.0,0.0,0.0,0.0
125.049,-8.183,3.435,13.0
117.214,-7.626,2.575,36.0
125.213,-8.101,2.062,22.0
125.243,-8.058,1.362,30.0
108.875,-6.966,0.586,2.0
0.0,0.0,0.0,0.0
117.316,-7.451,3.244,24.0
117.273,-7.404,2.597,15.0
148.07,-9.294,2.464,10.0
148.029,-9.237,1.634,12.0
108.819,-6.751,0.603,2.0
0.0,0.0,0.0,0.0
117.226,-7.215,3.258,34.0
117.602,-7.194,2.62,7.0
148.604,-9.036,2.493,25.0
149.925,-9.062,1.674,15.0
0.0,0.0,0.0,0.0
0.0,0.0,0.0,0.0
117.335,-6.992,3.274,28.0
149.095,-8.83,3.337,20.0
148.856,-8.759,2.511,19.0
149.86,-8.762,1.686,5.0
119.102,-6.92,0.684,2.0
0.0,0.0,0.0,0.0
119.573,-6.888,3.344,20.0
147.444,-8.44,3.31,25.0
140.675,-7.999,2.381,33.0
0.0,0.0,0.0,0.0
101.496,-5.695,0.587,76.0
12.26,-0.683,0.003,0.0
0.0,0.0,0.0,0.0
140.737,-7.775,3.162,17.0
0.0,0.0,0.0,0.0
0.0,0.0,0.0,0.0
102.541,-5.551,0.594,2.0
0.0,0.0,0.0,0.0
140.927,-7.557,3.944,11.0
140.633,-7.487,3.158,23.0
102.264,-5.407,1.73,2.0
101.508,-5.33,1.146,6.0
102.637,-5.351,0.591,1.0
0.0,0.0,0.0,0.0
140.216,-7.238,3.918,11.0
0.0,0.0,0.0,0.0
102.224,-5.2,1.724,2.0
101.559,-5.128,1.14,151.0
103.19,-5.172,0.588,5.0
101.599,-5.056,0.016,3.0
139.196,-6.903,3.877,13.0
0.0,0.0,0.0,0.0
102.366,-5.0,1.717,1.0
101.539,-4.921,1.13,151.0
102.451,-4.927,0.572,3.0
101.583,-4.85,0.005,1.0
150.374,-7.152,4.171,13.0
139.228,-6.568,3.088,3.0
102.096,-4.779,1.698,1.0
101.508,-4.715,1.115,150.0
0.0,0.0,0.0,0.0
0.0,0.0,0.0,0.0
142.267,-6.479,3.923,18.0
0.0,0.0,0.0,0.0
101.907,-4.564,1.677,1.0
101.439,-4.506,1.096,5.0
0.0,0.0,0.0,0.0
0.0,0.0,0.0,0.0
163.316,-7.104,4.47,11.0
168.743,-7.278,3.681,5.0
101.54,-4.341,1.65,83.0
0.0,0.0,0.0,0.0
102.18,-4.291,0.513,1.0
0.0,0.0,0.0,0.0
141.523,-5.865,3.84,24.0
162.476,-6.673,3.503,6.0
0.0,0.0,0.0,0.0
0.0,0.0,0.0,0.0
0.0,0.0,0.0,0.0
0.0,0.0,0.0,0.0
142.461,-5.614,3.826,21.0
162.318,-6.335,3.454,6.0
104.967,-4.059,1.649,25.0
0.0,0.0,0.0,0.0
0.0,0.0,0.0,0.0
0.0,0.0,0.0,0.0
141.792,-5.298,3.763,3.0
162.271,-6.002,3.401,7.0
162.256,-5.943,2.497,16.0
162.263,-5.883,1.575,18.0
0.0,0.0,0.0,0.0
0.0,0.0,0.0,0.0
163.382,-5.765,4.277,17.0
162.265,-5.668,3.343,11.0
162.195,-5.604,2.435,18.0
161.98,-5.537,1.511,16.0
0.0,0.0,0.0,0.0
0.0,0.0,0.0,0.0
163.417,-5.431,4.214,16.0
162.214,-5.332,3.276,15.0
162.048,-5.27,2.368,17.0
161.956,-5.207,1.445,4.0
0.0,0.0,0.0,0.0
0.0,0.0,0.0,0.0
163.324,-5.094,4.141,13.0
0.0,0.0,0.0,0.0
161.879,-4.929,2.293,23.0
160.903,-4.843,1.364,3.0
0.0,0.0,0.0,0.0
0.0,0.0,0.0,0.0
163.32,-4.76,4.065,4.0
178.145,-5.126,3.436,6.0
161.889,-4.598,2.215,24.0
160.651,-4.504,1.283,9.0
0.0,0.0,0.0,0.0
0.0,0.0,0.0,0.0
0.0,0.0,0.0,0.0
170.533,-4.559,3.202,7.0
161.887,-4.27,2.132,29.0
160.706,-4.18,1.199,10.0
0.0,0.0,0.0,0.0
0.0,0.0,0.0,0.0
171.428,-4.293,4.085,4.0
170.353,-4.207,3.105,7.0
161.943,-3.94,2.043,24.0
160.723,-3.854,1.109,14.0
0.0,0.0,0.0,0.0
0.0,0.0,0.0,0.0
0.0,0.0,0.0,0.0
170.204,-3.856,3.001,6.0
0.0,0.0,0.0,0.0
0.0,0.0,0.0,0.0
0.0,0.0,0.0,0.0
0.0,0.0,0.0,0.0
0.0,0.0,0.0,0.0
170.413,-3.515,2.898,4.0
109.298,-2.215,1.244,14.0
0.0,0.0,0.0,0.0
0.0,0.0,0.0,0.0
0.0,0.0,0.0,0.0
0.0,0.0,0.0,0.0
0.0,0.0,0.0,0.0
109.144,-1.994,1.171,150.0
0.0,0.0,0.0,0.0
0.0,0.0,0.0,0.0
0.0,0.0,0.0,0.0
0.0,0.0,0.0,0.0
0.0,0.0,0.0,0.0
109.118,-1.777,1.094,150.0
19.721,-0.314,0.084,11.0
0.0,0.0,0.0,0.0
0.0,0.0,0.0,0.0
0.0,0.0,0.0,0.0
19.765,-0.289,0.295,3.0
19.742,-0.282,0.183,28.0
19.737,-0.275,0.07,7.0
0.0,0.0,0.0,0.0
0.0,0.0,0.0,0.0
19.765,-0.256,0.391,8.0
19.74,-0.249,0.279,10.0
19.742,-0.242,0.168,10.0
0.0,0.0,0.0,0.0
0.0,0.0,0.0,0.0
0.0,0.0,0.0,0.0
19.748,-0.217,0.375,9.0
19.754,-0.21,0.263,1.0
109.163,-1.126,0.841,31.0
0.0,0.0,0.0,0.0
19.79,-0.19,-0.072,0.0
19.759,-0.184,-0.184,11.0
19.778,-0.178,0.359,0.0
109.289,-0.95,1.367,66.0
0.0,0.0,0.0,0.0
19.754,-0.158,0.022,0.0
19.735,-0.152,-0.089,12.0
19.74,-0.145,-0.2,16.0
19.708,-0.139,0.34,0.0
19.729,-0.132,0.229,5.0
19.751,-0.126,0.118,7.0
19.723,-0.119,0.004,11.0
19.714,-0.113,-0.107,16.0
19.73,-0.106,-0.218,17.0
19.671,-0.1,0.322,9.0
19.708,-0.094,0.211,15.0
19.702,-0.087,0.099,13.0
19.694,-0.081,-0.013,16.0
19.715,-0.075,-0.125,16.0
19.75,-0.068,-0.237,15.0
19.655,-0.062,0.303,11.0
19.666,-0.056,0.192,13.0
19.697,-0.049,0.08,15.0
19.707,-0.043,-0.032,15.0
19.744,-0.037,-0.144,13.0
19.754,-0.03,-0.256,0.0
19.629,-0.024,0.283,14.0
19.704,-0.018,0.172,7.0
19.771,-0.011,0.061,4.0
19.74,-0.005,-0.052,7.0
19.783,0.0,-0.164,0.0
19.778,0.006,-0.276,1.0
19.632,0.012,0.263,15.0
19.762,0.019,0.153,22.0
19.74,0.025,0.041,13.0
19.741,0.031,-0.072,19.0
19.751,0.038,-0.184,13.0
19.762,0.044,-0.297,34.0
19.63,0.05,0.243,15.0
19.708,0.056,0.132,15.0
19.755,0.062,0.02,42.0
19.765,0.068,-0.093,21.0
19.755,0.074,-0.205,12.0
19.779,0.08,-0.318,1.0
19.635,0.086,0.222,13.0
19.658,0.092,0.11,12.0
19.655,0.098,-0.001,10.0
19.688,0.104,-0.114,4.0
0.0,0.0,0.0,0.0
31.246,0.185,-0.537,0.0
19.663,0.123,0.2,18.0
19.639,0.128,0.088,13.0
19.638,0.134,-0.023,16.0
19.65,0.14,-0.136,12.0
19.69,0.147,-0.249,5.0
19.669,0.152,-0.36,6.0
19.673,0.159,0.178,14.0
19.656,0.165,0.066,12.0
19.649,0.17,-0.045,11.0
19.629,0.176,-0.159,15.0
19.649,0.182,-0.271,16.0
19.664,0.188,-0.383,16.0
19.723,0.195,0.155,13.0
19.677,0.2,0.043,12.0
19.626,0.205,-0.068,13.0
19.619,0.211,-0.182,17.0
19.653,0.217,-0.294,18.0
19.671,0.222,-0.406,19.0
19.772,0.23,0.132,25.0
19.695,0.235,0.019,2.0
19.65,0.24,-0.092,14.0
19.643,0.245,-0.206,16.0
19.676,0.252,-0.318,12.0
19.68,0.257,-0.43,15.0
19.782,0.265,0.108,1.0
57.108,0.781,-0.013,2.0
19.698,0.275,-0.116,3.0
19.674,0.28,-0.23,11.0
19.69,0.286,-0.343,4.0
27.429,0.406,-0.634,0.0
0.0,0.0,0.0,0.0
52.441,0.808,-0.078,4.0
0.0,0.0,0.0,0.0
35.611,0.569,-0.463,1.0
30.458,0.495,-0.57,0.0
26.829,0.443,-0.655,1.0
55.177,0.929,0.161,95.0
52.409,0.896,-0.145,1.0
39.51,0.687,-0.335,0.0
31.675,0.559,-0.453,0.0
29.624,0.531,-0.593,0.0
26.165,0.476,-0.673,1.0
55.199,1.022,0.088,23.0
44.806,0.842,-0.184,0.0
35.293,0.673,-0.346,1.0
29.925,0.578,-0.467,1.0
28.054,0.55,-0.599,0.0
25.133,0.499,-0.68,0.0
55.111,1.112,0.014,2.0
42.717,0.873,-0.233,1.0
34.992,0.724,-0.39,0.0
29.225,0.612,-0.496,6.0
25.844,0.548,-0.586,1.0
24.629,0.529,-0.7,0.0
52.946,1.154,-0.059,1.0
40.384,0.891,-0.275,2.0
34.049,0.759,-0.426,0.0
28.387,0.64,-0.521,0.0
23.813,0.543,-0.573,0.0
23.212,0.536,-0.691,2.0
0.0,0.0,0.0,0.0
38.077,0.9,-0.312,2.0
30.969,0.74,-0.431,1.0
27.149,0.655,-0.536,1.0
22.709,0.554,-0.578,0.0
22.139,0.545,-0.69,2.0
0.0,0.0,0.0,0.0
0.0,0.0,0.0,0.0
29.817,0.758,-0.457,2.0
25.402,0.652,-0.537,1.0
21.616,0.56,-0.581,0.0
20.563,0.538,-0.671,1.0
40.028,1.06,-0.213,55.0
40.154,1.073,-0.444,1.0
28.651,0.772,-0.48,1.0
24.405,0.663,-0.551,1.0
20.829,0.571,-0.59,2.0
19.369,0.536,-0.66,0.0
39.991,1.118,-0.271,15.0
27.398,0.773,-0.343,1.0
27.076,0.77,-0.494,1.0
23.33,0.669,-0.561,0.0
20.567,0.595,-0.613,1.0
18.613,0.543,-0.662,0.0
37.632,1.107,-0.311,2.0
27.442,0.814,-0.384,1.0
25.949,0.776,-0.511,4.0
22.155,0.667,-0.566,1.0
19.713,0.599,-0.617,0.0
18.18,0.556,-0.673,0.0
40.151,1.24,-0.392,1.0
29.198,0.908,-0.452,1.0
25.333,0.794,-0.538,5.0
21.532,0.68,-0.583,2.0
19.234,0.611,-0.631,2.0
17.304,0.554,-0.667,0.0
40.14,1.296,-0.453,4.0
28.179,0.916,-0.479,1.0
23.995,0.785,-0.546,0.0
20.811,0.685,-0.595,0.0
18.448,0.612,-0.633,1.0
17.113,0.571,-0.686,1.0
31.771,1.069,-0.407,1.0
27.165,0.919,-0.504,2.0
22.528,0.768,-0.547,2.0
19.917,0.683,-0.6,3.0
18.204,0.628,-0.653,1.0
16.906,0.587,-0.704,0.0
29.986,1.049,-0.431,2.0
25.635,0.902,-0.516,1.0
21.721,0.769,-0.562,1.0
19.508,0.695,-0.619,3.0
17.464,0.626,-0.654,0.0
16.707,0.602,-0.722,0.0
28.85,1.047,-0.46,2.0
24.522,0.895,-0.532,1.0
21.198,0.778,-0.582,1.0
18.768,0.693,-0.625,3.0
17.19,0.638,-0.671,1.0
16.508,0.616,-0.74,0.0
27.544,1.035,-0.483,6.0
23.591,0.891,-0.549,5.0
20.163,0.765,-0.585,1.0
18.291,0.698,-0.638,3.0
16.972,0.651,-0.69,0.0
16.317,0.629,-0.757,1.0
26.599,1.032,-0.509,6.0
22.411,0.873,-0.558,1.0
19.695,0.771,-0.603,3.0
17.825,0.702,-0.651,3.0
16.773,0.664,-0.709,0.0
16.218,0.645,-0.779,1.0
23.698,0.947,-0.492,18.0
21.454,0.862,-0.569,1.0
19.015,0.767,-0.613,3.0
17.352,0.704,-0.661,2.0
16.632,0.677,-0.73,2.0
16.001,0.655,-0.795,1.0
23.6,0.97,-0.528,31.0
20.847,0.861,-0.586,2.0
18.495,0.767,-0.627,3.0
17.042,0.71,-0.677,2.0
16.429,0.688,-0.748,2.0
15.856,0.667,-0.813,1.0
23.179,0.979,-0.557,5.0
19.877,0.843,-0.592,2.0
17.957,0.765,-0.638,3.0
16.881,0.722,-0.699,2.0
16.25,0.698,-0.767,2.0
15.306,0.66,-0.81,0.0
21.807,0.945,-0.56,3.0
19.294,0.839,-0.607,3.0
17.62,0.769,-0.656,2.0
16.672,0.731,-0.718,2.0
16.069,0.708,-0.785,4.0
14.941,0.661,-0.816,0.0
23.63,1.049,-0.647,1.0
18.632,0.83,-0.617,3.0
17.18,0.768,-0.668,3.0
16.478,0.74,-0.738,2.0
15.957,0.719,-0.806,4.0
14.504,0.656,-0.817,0.0
23.626,1.072,-0.686,1.0
18.192,0.828,-0.633,2.0
16.935,0.774,-0.687,2.0
16.266,0.746,-0.756,2.0
23.658,1.09,-1.236,0.0
23.656,1.094,-1.373,0.0
19.473,0.903,-0.598,3.0
17.723,0.824,-0.647,2.0
16.743,0.781,-0.708,1.0
16.108,0.754,-0.776,2.0
23.612,1.11,-1.274,1.0
23.634,1.115,-1.412,1.0
18.761,0.887,-0.609,3.0
17.25,0.818,-0.659,2.0
16.548,0.788,-0.728,1.0
15.966,0.762,-0.796,3.0
23.61,1.132,-1.314,1.0
23.617,1.136,-1.452,0.0
18.332,0.883,-0.626,3.0
16.996,0.821,-0.678,2.0
16.321,0.791,-0.746,1.0
23.625,1.149,-1.219,2.0
23.6,1.151,-1.354,1.0
23.593,1.155,-1.491,0.0
17.89,0.877,-0.642,2.0
16.813,0.827,-0.7,2.0
16.131,0.795,-0.765,1.0
23.607,1.168,-1.258,1.0
23.615,1.172,-1.396,3.0
23.638,1.176,-1.534,1.0
17.382,0.866,-0.653,1.0
16.589,0.829,-0.719,1.0
15.991,0.801,-0.786,3.0
23.641,1.188,-1.301,0.0
23.607,1.19,-1.436,1.0
23.608,1.193,-1.573,1.0
17.058,0.863,-0.67,2.0
16.39,0.831,-0.739,1.0
15.845,0.806,-0.806,0.0
23.645,1.206,-1.342,0.0
23.636,1.209,-1.478,0.0
12.411,0.636,-0.848,0.0
16.876,0.866,-0.692,2.0
16.18,0.832,-0.757,1.0
15.177,0.783,-0.798,0.0
23.629,1.222,-1.382,2.0
23.645,1.226,-1.519,0.0
12.183,0.633,-0.853,0.0
16.693,0.868,-0.713,1.0
15.998,0.834,-0.776,3.0
14.958,0.782,-0.812,0.0
23.67,1.24,-1.425,0.0
12.65,0.664,-0.835,0.0
11.952,0.629,-0.858,0.0
16.444,0.866,-0.731,1.0
15.914,0.84,-0.799,0.0
14.327,0.758,-0.802,0.0
13.302,0.705,-0.824,0.0
12.412,0.659,-0.84,0.0
11.699,0.623,-0.86,0.0
16.231,0.864,-0.749,1.0
15.278,0.815,-0.794,0.0
13.962,0.747,-0.806,0.0
13.016,0.697,-0.828,0.0
12.182,0.654,-0.846,0.0
11.427,0.615,-0.86,0.0
16.033,0.863,-0.768,3.0
14.852,0.801,-0.797,0.0
13.626,0.736,-0.81,0.0
12.726,0.689,-0.832,0.0
11.991,0.65,-0.853,0.0
11.238,0.611,-0.865,0.0
15.945,0.866,-0.791,1.0
14.443,0.786,-0.8,0.0
13.328,0.727,-0.815,0.0
12.461,0.681,-0.836,0.0
11.783,0.645,-0.859,0.0
10.938,0.6,-0.861,0.0
15.405,0.844,-0.79,0.0
14.13,0.776,-0.807,0.0
13.078,0.719,-0.822,0.0
12.293,0.677,-0.845,0.0
11.655,0.643,-0.869,0.0
10.839,0.599,-0.871,0.0
14.962,0.827,-0.793,0.0
13.722,0.759,-0.807,0.0
12.801,0.709,-0.827,0.0
12.06,0.669,-0.85,0.0
11.382,0.633,-0.868,0.0
10.584,0.59,-0.869,0.0
14.501,0.807,-0.793,0.0
13.444,0.749,-0.813,0.0
12.553,0.7,-0.832,0.0
11.765,0.658,-0.849,0.0
11.093,0.621,-0.865,0.0
10.414,0.584,-0.873,0.0
14.307,0.801,-0.807,0.0
13.19,0.739,-0.82,0.0
12.34,0.693,-0.839,0.0
11.684,0.657,-0.863,0.0
10.918,0.615,-0.87,0.0
10.331,0.583,-0.883,0.0
13.913,0.783,-0.808,0.0
12.877,0.726,-0.822,0.0
12.172,0.687,-0.848,0.0
11.418,0.645,-0.863,0.0
10.693,0.605,-0.87,0.0
10.173,0.577,-0.887,0.0
13.504,0.764,-0.807,0.0
12.669,0.718,-0.83,0.0
11.803,0.669,-0.842,0.0
11.136,0.632,-0.86,0.0
10.476,0.596,-0.87,0.0
10.01,0.57,-0.89,0.0
13.308,0.756,-0.817,0.0
12.382,0.704,-0.832,0.0
11.735,0.668,-0.857,0.0
10.934,0.623,-0.863,0.0
10.342,0.59,-0.876,0.0
9.894,0.565,-0.896,0.0
13.028,0.742,-0.821,0.0
12.234,0.698,-0.842,0.0
11.56,0.66,-0.863,0.0
10.762,0.615,-0.867,0.0
10.271,0.588,-0.887,0.0
9.73,0.557,-0.897,0.0
12.78,0.73,-0.826,0.0
12.01,0.687,-0.846,0.0
11.283,0.646,-0.86,0.0
10.578,0.606,-0.869,0.0
10.066,0.577,-0.886,0.0
9.577,0.55,-0.898,0.0
12.555,0.718,-0.832,0.0
11.804,0.676,-0.851,0.0
11.066,0.634,-0.862,0.0
10.353,0.594,-0.867,0.0
9.946,0.571,-0.891,0.0
9.442,0.543,-0.901,0.0
12.378,0.709,-0.84,0.0
11.645,0.668,-0.858,0.0
10.861,0.623,-0.863,0.0
10.307,0.592,-0.88,0.0
9.826,0.565,-0.896,0.0
9.298,0.535,-0.902,0.0
12.18,0.698,-0.846,0.0
11.374,0.652,-0.856,0.0
10.633,0.61,-0.862,0.0
10.163,0.584,-0.884,0.0
9.688,0.557,-0.899,0.0
9.126,0.525,-0.9,0.0
11.886,0.681,-0.845,0.0
11.046,0.633,-0.849,0.0
10.491,0.602,-0.867,0.0
10.028,0.575,-0.888,0.0
9.528,0.547,-0.899,0.0
9.02,0.518,-0.904,0.0
11.722,0.671,-0.851,0.0
11.02,0.631,-0.864,0.0
10.397,0.596,-0.875,0.0
9.843,0.564,-0.887,0.0
9.403,0.539,-0.902,0.0
8.912,0.511,-0.907,0.0
11.593,0.662,-0.859,0.0
10.779,0.616,-0.861,0.0
10.268,0.587,-0.88,0.0
9.736,0.557,-0.892,0.0
9.231,0.528,-0.9,0.0
8.795,0.504,-0.908,0.0
11.331,0.646,-0.857,0.0
10.623,0.606,-0.865,0.0
10.137,0.578,-0.884,0.0
9.616,0.549,-0.896,0.0
9.165,0.523,-0.907,0.0
8.644,0.493,-0.906,0.0
11.131,0.633,-0.859,0.0
10.452,0.594,-0.867,0.0
9.968,0.567,-0.884,0.0
9.489,0.54,-0.898,0.0
9.031,0.514,-0.907,0.0
8.516,0.484,-0.905,0.0
10.957,0.62,-0.861,0.0
10.351,0.586,-0.874,0.0
9.871,0.559,-0.89,0.0
9.38,0.531,-0.902,0.0
8.877,0.503,-0.905,0.0
8.44,0.478,-0.91,0.0
10.816,0.61,-0.866,0.0
10.286,0.58,-0.883,0.0
9.72,0.548,-0.891,0.0
9.217,0.52,-0.899,0.0
8.769,0.494,-0.907,0.0
8.338,0.47,-0.911,0.0
10.635,0.597,-0.867,0.0
10.115,0.567,-0.883,0.0
9.641,0.541,-0.898,0.0
9.119,0.511,-0.903,0.0
8.678,0.487,-0.91,0.0
8.213,0.46,-0.909,0.0
10.473,0.584,-0.868,0.0
9.995,0.557,-0.886,0.0
9.494,0.529,-0.897,0.0
8.981,0.501,-0.902,0.0
8.561,0.477,-0.909,0.0
8.14,0.453,-0.912,0.0
10.389,0.576,-0.876,0.0
9.866,0.546,-0.889,0.0
9.383,0.52,-0.899,0.0
8.888,0.492,-0.904,0.0
8.456,0.468,-0.91,0.0
8.096,0.448,-0.918,0.0
10.263,0.565,-0.879,0.0
9.742,0.536,-0.891,0.0
9.246,0.508,-0.899,0.0
8.742,0.48,-0.901,0.0
8.389,0.461,-0.914,0.0
8.013,0.44,-0.919,0.0
10.165,0.555,-0.884,0.0
9.648,0.526,-0.894,0.0
9.168,0.5,-0.903,0.0
8.684,0.473,-0.907,0.0
8.266,0.45,-0.911,0.0
7.912,0.431,-0.918,0.0
10.065,0.545,-0.888,0.0
9.536,0.516,-0.896,0.0
9.086,0.491,-0.907,0.0
8.569,0.463,-0.906,0.0
8.15,0.44,-0.909,0.0
7.864,0.424,-0.923,0.0
9.967,0.535,-0.892,0.0
9.391,0.503,-0.895,0.0
8.511,0.455,-0.91,0.0
8.105,0.433,-0.914,0.0
7.778,0.416,-0.922,0.0
9.832,0.522,-0.892,0.0
9.297,0.493,-0.897,0.0
8.827,0.468,-0.903,0.0
8.415,0.446,-0.91,0.0
8.046,0.426,-0.917,0.0
7.75,0.41,-0.929,0.0
9.726,0.511,-0.894,0.0
9.246,0.485,-0.903,0.0
8.747,0.459,-0.905,0.0
8.347,0.437,-0.913,0.0
7.945,0.416,-0.915,0.0
7.649,0.4,-0.926,0.0
9.645,0.501,-0.898,0.0
8.676,0.449,-0.908,0.0
8.235,0.426,-0.91,0.0
7.895,0.408,-0.918,0.0
7.624,0.394,-0.931,0.0
9.518,0.488,-0.897,0.0
8.612,0.441,-0.911,0.0
8.171,0.418,-0.912,0.0
7.846,0.401,-0.922,0.0
7.555,0.385,-0.931,0.0
9.43,0.478,-0.899,0.0
8.474,0.428,-0.906,0.0
8.107,0.409,-0.914,0.0
7.797,0.393,-0.924,0.0
7.514,0.378,-0.934,0.0
9.384,0.469,-0.904,0.0
8.842,0.441,-0.903,0.0
8.411,0.419,-0.908,0.0
7.998,0.398,-0.91,0.0
7.729,0.384,-0.924,0.0
7.443,0.369,-0.933,0.0
9.261,0.456,-0.902,0.0
8.749,0.43,-0.903,0.0
8.368,0.411,-0.912,0.0
7.973,0.391,-0.916,0.0
7.663,0.375,-0.924,0.0
7.406,0.362,-0.936,0.0
8.763,0.424,-0.913,0.0
8.287,0.4,-0.911,0.0
7.955,0.384,-0.921,0.0
7.645,0.368,-0.93,0.0
7.358,0.354,-0.938,0.0
9.089,0.434,-0.903,0.0
8.659,0.412,-0.91,0.0
8.227,0.391,-0.912,0.0
7.896,0.375,-0.922,0.0
7.591,0.36,-0.93,0.0
7.313,0.346,-0.939,0.0
8.998,0.422,-0.902,0.0
8.572,0.401,-0.909,0.0
8.148,0.381,-0.911,0.0
7.83,0.365,-0.921,0.0
7.531,0.351,-0.93,0.0
7.251,0.337,-0.937,0.0
8.942,0.412,-0.905,0.0
8.523,0.392,-0.911,0.0
8.103,0.372,-0.913,0.0
7.752,0.355,-0.919,0.0
7.508,0.343,-0.933,0.0
7.248,0.331,-0.943,0.0
8.893,0.402,-0.907,0.0
8.457,0.382,-0.911,0.0
8.07,0.363,-0.916,0.0
7.73,0.347,-0.923,0.0
7.452,0.334,-0.933,0.0
7.217,0.323,-0.945,0.0
8.841,0.392,-0.909,0.0
8.376,0.371,-0.909,0.0
8.048,0.355,-0.92,0.0
7.659,0.337,-0.92,0.0
7.451,0.327,-0.938,0.0
7.19,0.315,-0.947,0.0
8.799,0.382,-0.911,0.0
8.297,0.36,-0.907,0.0
7.996,0.346,-0.92,0.0
7.701,0.332,-0.931,0.0
7.377,0.317,-0.935,0.0
7.146,0.307,-0.947,0.0
8.782,0.374,-0.916,0.0
8.299,0.352,-0.913,0.0
7.994,0.338,-0.926,0.0
7.64,0.322,-0.929,0.0
7.36,0.31,-0.938,0.0
7.116,0.299,-0.948,0.0
8.674,0.361,-0.911,0.0
8.255,0.342,-0.914,0.0
7.904,0.327,-0.921,0.0
7.652,0.316,-0.936,0.0
7.305,0.3,-0.936,0.0
7.098,0.291,-0.95,0.0
8.61,0.35,-0.91,0.0
8.221,0.333,-0.916,0.0
7.895,0.319,-0.924,0.0
7.571,0.305,-0.931,0.0
7.294,0.293,-0.939,0.0
7.071,0.283,-0.951,0.0
8.587,0.341,-0.912,0.0
8.172,0.323,-0.915,0.0
7.857,0.31,-0.925,0.0
7.534,0.296,-0.931,0.0
7.27,0.285,-0.94,0.0
7.037,0.275,-0.95,0.0
8.569,0.331,-0.915,0.0
8.159,0.314,-0.918,0.0
7.85,0.301,-0.928,0.0
7.495,0.287,-0.93,0.0
7.247,0.276,-0.941,0.0
6.978,0.265,-0.946,0.0
8.488,0.319,-0.911,0.0
8.129,0.305,-0.919,0.0
7.804,0.292,-0.927,0.0
7.526,0.28,-0.938,0.0
7.215,0.267,-0.94,0.0
6.961,0.257,-0.947,0.0
8.494,0.311,-0.916,0.0
8.109,0.296,-0.92,0.0
7.775,0.282,-0.927,0.0
7.48,0.27,-0.935,0.0
7.203,0.259,-0.942,0.0
6.957,0.25,-0.95,0.0
8.436,0.3,-0.913,0.0
8.115,0.287,-0.924,0.0
7.75,0.273,-0.927,0.0
7.458,0.262,-0.936,0.0
7.204,0.252,-0.945,0.0
6.911,0.241,-0.946,0.0
8.416,0.29,-0.914,0.0
8.08,0.277,-0.924,0.0
7.748,0.265,-0.93,0.0
7.427,0.253,-0.934,0.0
7.18,0.243,-0.945,0.0
6.919,0.233,-0.95,0.0
8.411,0.281,-0.916,0.0
8.05,0.268,-0.923,0.0
7.746,0.256,-0.932,0.0
7.418,0.244,-0.936,0.0
7.183,0.235,-0.947,0.0
6.905,0.225,-0.95,0.0
8.416,0.272,-0.919,0.0
8.037,0.258,-0.924,0.0
7.721,0.247,-0.931,0.0
7.387,0.235,-0.934,0.0
7.168,0.227,-0.947,0.0
6.906,0.218,-0.952,0.0
8.367,0.261,-0.916,0.0
8.026,0.249,-0.924,0.0
7.722,0.238,-0.933,0.0
7.405,0.227,-0.938,0.0
7.145,0.218,-0.946,0.0
6.88,0.209,-0.95,0.0
8.391,0.253,-0.921,0.0
8.074,0.242,-0.932,0.0
7.708,0.229,-0.933,0.0
7.39,0.219,-0.937,0.0
7.162,0.211,-0.949,0.0
6.869,0.201,-0.95,0.0
8.337,0.241,-0.916,0.0
8.017,0.231,-0.926,0.0
7.71,0.221,-0.934,0.0
7.407,0.211,-0.941,0.0
7.135,0.202,-0.947,0.0
6.849,0.193,-0.948,0.0
8.358,0.233,-0.919,0.0
8.05,0.223,-0.931,0.0
7.7,0.212,-0.934,0.0
7.378,0.202,-0.938,0.0
7.145,0.194,-0.949,0.0
6.848,0.185,-0.948,0.0
8.385,0.224,-0.923,0.0
8.035,0.213,-0.93,0.0
7.687,0.202,-0.933,0.0
7.4,0.194,-0.941,0.0
7.141,0.186,-0.948,0.0
6.829,0.176,-0.946,0.0
8.388,0.214,-0.923,0.0
8.024,0.204,-0.929,0.0
7.688,0.194,-0.933,0.0
7.401,0.185,-0.941,0.0
7.137,0.177,-0.948,0.0
6.827,0.168,-0.945,0.0
8.409,0.205,-0.926,0.0
8.026,0.194,-0.929,0.0
7.668,0.184,-0.93,0.0
7.407,0.177,-0.941,0.0
7.16,0.17,-0.95,0.0
6.84,0.161,-0.947,0.0
8.389,0.195,-0.923,0.0
8.036,0.185,-0.929,0.0
7.707,0.176,-0.934,0.0
7.423,0.168,-0.943,0.0
7.156,0.161,-0.949,0.0
6.85,0.153,-0.948,0.0
8.43,0.186,-0.926,0.0
8.029,0.176,-0.927,0.0
7.711,0.168,-0.934,0.0
7.42,0.16,-0.941,0.0
7.168,0.153,-0.95,0.0
6.872,0.145,-0.949,0.0
8.426,0.176,-0.925,0.0
8.031,0.167,-0.926,0.0
7.723,0.159,-0.934,0.0
7.418,0.151,-0.94,0.0
7.162,0.145,-0.948,0.0
6.869,0.137,-0.948,0.0
8.443,0.167,-0.925,0.0
8.045,0.158,-0.926,0.0
7.732,0.15,-0.933,0.0
7.446,0.143,-0.941,0.0
7.186,0.137,-0.949,0.0
6.911,0.13,-0.952,0.0
8.487,0.158,-0.928,0.0
8.123,0.15,-0.933,0.0
7.75,0.141,-0.934,0.0
7.45,0.134,-0.94,0.0
7.212,0.129,-0.95,0.0
6.91,0.122,-0.95,0.0
8.495,0.148,-0.926,0.0
8.114,0.14,-0.93,0.0
7.774,0.133,-0.934,0.0
7.475,0.126,-0.941,0.0
7.214,0.12,-0.948,0.0
6.967,0.115,-0.955,0.0
8.485,0.138,-0.922,0.0
8.153,0.131,-0.931,0.0
7.79,0.124,-0.933,0.0
7.524,0.118,-0.944,0.0
7.243,0.112,-0.95,0.0
6.945,0.106,-0.949,0.0
8.537,0.129,-0.924,0.0
8.182,0.122,-0.931,0.0
7.832,0.116,-0.935,0.0
7.534,0.11,-0.942,0.0
7.267,0.104,-0.95,0.0
6.987,0.099,-0.952,0.0
8.556,0.12,-0.923,0.0
8.181,0.113,-0.928,0.0
7.872,0.107,-0.936,0.0
7.546,0.101,-0.94,0.0
7.29,0.096,-0.949,0.0
7.007,0.091,-0.952,0.0
8.592,0.111,-0.922,0.0
8.204,0.104,-0.926,0.0
7.875,0.098,-0.933,0.0
7.55,0.093,-0.937,0.0
7.289,0.088,-0.945,0.0
7.026,0.083,-0.95,0.0
8.611,0.101,-0.92,0.0
8.233,0.095,-0.925,0.0
7.918,0.09,-0.934,0.0
7.6,0.084,-0.939,0.0
7.333,0.08,-0.947,0.0
7.062,0.076,-0.951,0.0
8.629,0.091,-0.917,0.0
8.284,0.086,-0.926,0.0
7.924,0.081,-0.93,0.0
7.623,0.076,-0.937,0.0
7.349,0.072,-0.944,0.0
7.093,0.068,-0.951,0.0
8.739,0.083,-0.923,0.0
8.336,0.077,-0.927,0.0
8.031,0.073,-0.937,0.0
7.658,0.068,-0.937,0.0
7.396,0.064,-0.946,0.0
7.124,0.06,-0.951,0.0
8.774,0.073,-0.921,0.0
8.399,0.069,-0.928,0.0
8.046,0.064,-0.933,0.0
7.699,0.06,-0.937,0.0
7.432,0.056,-0.945,0.0
7.155,0.053,-0.95,0.0
8.813,0.064,-0.919,0.0
8.45,0.06,-0.928,0.0
8.086,0.055,-0.932,0.0
7.727,0.051,-0.934,0.0
7.461,0.048,-0.943,0.0
7.179,0.045,-0.947,0.0
8.907,0.055,-0.922,0.0
8.495,0.051,-0.926,0.0
8.142,0.047,-0.932,0.0
7.805,0.043,-0.938,0.0
7.481,0.04,-0.94,0.0
7.239,0.037,-0.95,0.0
8.981,0.046,-0.923,0.0
8.538,0.042,-0.924,0.0
8.181,0.038,-0.93,0.0
7.859,0.035,-0.938,0.0
7.528,0.032,-0.94,0.0
7.277,0.03,-0.948,0.0
9.025,0.036,-0.92,0.0
8.584,0.033,-0.922,0.0
8.265,0.03,-0.933,0.0
7.926,0.027,-0.939,0.0
7.623,0.025,-0.945,0.0
7.316,0.022,-0.947,0.0
9.086,0.027,-0.918,0.0
8.68,0.024,-0.924,0.0
8.326,0.021,-0.932,0.0
7.977,0.019,-0.938,0.0
7.664,0.017,-0.943,0.0
7.363,0.015,-0.946,0.0
9.149,0.018,-0.916,0.0
8.778,0.015,-0.927,0.0
8.384,0.013,-0.931,0.0
8.02,0.011,-0.935,0.0
7.684,0.009,-0.938,0.0
7.39,0.007,-0.943,0.0
9.251,0.008,-0.917,0.0
8.843,0.006,-0.925,0.0
8.449,0.004,-0.93,0.0
8.069,0.003,-0.933,0.0
7.76,0.001,-0.939,0.0
7.447,0.0,-0.942,0.0
9.329,0.0,-0.916,0.0
8.901,-0.002,-0.922,0.0
8.507,-0.003,-0.927,0.0
8.137,-0.005,-0.932,0.0
7.824,-0.006,-0.939,0.0
7.5,-0.007,-0.941,0.0
9.358,-0.009,-0.909,0.0
8.963,-0.01,-0.919,0.0
8.572,-0.012,-0.925,0.0
8.226,-0.013,-0.934,0.0
7.923,-0.014,-0.942,0.0
7.584,-0.014,-0.944,0.0
9.512,-0.018,-0.913,0.0
9.061,-0.019,-0.919,0.0
8.727,-0.02,-0.932,0.0
8.298,-0.021,-0.933,0.0
7.965,-0.021,-0.938,0.0
7.66,-0.022,-0.944,0.0
9.614,-0.028,-0.912,0.0
9.163,-0.028,-0.919,0.0
8.766,-0.028,-0.927,0.0
8.395,-0.029,-0.934,0.0
8.001,-0.029,-0.933,0.0
7.704,-0.029,-0.941,0.0
9.726,-0.037,-0.912,0.0
9.292,-0.037,-0.921,0.0
8.831,-0.037,-0.923,0.0
8.437,-0.037,-0.929,0.0
8.074,-0.036,-0.932,0.0
7.808,-0.037,-0.944,0.0
9.831,-0.046,-0.91,0.0
9.37,-0.046,-0.918,0.0
8.93,-0.045,-0.923,0.0
8.507,-0.044,-0.926,0.0
8.194,-0.044,-0.936,0.0
7.864,-0.044,-0.941,0.0
9.973,-0.056,-0.911,0.0
9.458,-0.054,-0.914,0.0
9.04,-0.053,-0.923,0.0
8.625,-0.053,-0.928,0.0
8.264,-0.052,-0.934,0.0
7.938,-0.051,-0.94,0.0
10.086,-0.065,-0.908,0.0
9.588,-0.063,-0.915,0.0
9.104,-0.062,-0.918,0.0
8.737,-0.061,-0.928,0.0
8.369,-0.059,-0.935,0.0
7.989,-0.058,-0.935,0.0
10.218,-0.074,-0.907,0.0
9.711,-0.072,-0.914,0.0
9.259,-0.07,-0.921,0.0
8.824,-0.068,-0.926,0.0
8.427,-0.067,-0.93,0.0
8.097,-0.065,-0.937,0.0
10.365,-0.084,-0.906,0.0
9.873,-0.081,-0.916,0.0
9.362,-0.079,-0.918,0.0
8.948,-0.077,-0.927,0.0
8.571,-0.075,-0.934,0.0
8.206,-0.073,-0.938,0.0
10.514,-0.093,-0.904,0.0
9.977,-0.09,-0.911,0.0
9.497,-0.087,-0.918,0.0
9.055,-0.084,-0.925,0.0
8.661,-0.082,-0.931,0.0
8.298,-0.08,-0.937,0.0
10.658,-0.102,-0.901,0.0
10.11,-0.099,-0.909,0.0
9.607,-0.095,-0.915,0.0
9.148,-0.092,-0.921,0.0
8.774,-0.09,-0.93,0.0
8.394,-0.087,-0.935,0.0
10.843,-0.112,-0.901,0.0
10.283,-0.108,-0.909,0.0
9.784,-0.104,-0.917,0.0
9.285,-0.1,-0.921,0.0
8.874,-0.097,-0.928,0.0
8.494,-0.094,-0.933,0.0
10.989,-0.121,-0.897,0.0
10.432,-0.117,-0.907,0.0
9.918,-0.112,-0.915,0.0
9.386,-0.108,-0.917,0.0
9.016,-0.105,-0.929,0.0
8.607,-0.101,-0.933,0.0
11.189,-0.131,-0.896,0.0
10.578,-0.125,-0.904,0.0
10.037,-0.12,-0.911,0.0
9.507,-0.115,-0.914,0.0
9.09,-0.111,-0.922,0.0
8.743,-0.108,-0.934,0.0
16.345,-0.295,-0.824,0.0
15.206,-0.275,-0.845,0.0
14.082,-0.255,-0.856,0.0
13.112,-0.238,-0.866,0.0
12.424,-0.226,-0.886,0.0
11.689,-0.213,-0.894,0.0
16.989,-0.307,-0.824,0.0
15.602,-0.282,-0.837,0.0
14.476,-0.262,-0.852,0.0
13.455,-0.244,-0.863,0.0
12.57,-0.229,-0.872,0.0
11.894,-0.217,-0.887,0.0
17.39,-0.314,-0.809,0.0
16.131,-0.292,-0.834,0.0
14.907,-0.27,-0.848,0.0
13.849,-0.251,-0.861,0.0
12.926,-0.235,-0.871,0.0
12.178,-0.222,-0.884,0.0
18.048,-0.326,-0.805,0.0
16.561,-0.299,-0.824,0.0
15.36,-0.278,-0.844,0.0
14.196,-0.257,-0.855,0.0
13.252,-0.24,-0.867,0.0
12.482,-0.226,-0.882,0.0
18.865,-0.34,-0.804,0.0
17.2,-0.31,-0.823,0.0
15.762,-0.284,-0.835,0.0
14.596,-0.263,-0.851,0.0
13.66,-0.246,-0.867,0.0
12.684,-0.229,-0.871,0.0
19.477,-0.349,-0.792,0.0
17.538,-0.314,-0.804,0.0
16.299,-0.292,-0.832,0.0
15.077,-0.27,-0.849,0.0
14.008,-0.251,-0.861,0.0
13.043,-0.233,-0.87,0.0
20.045,-0.356,-0.776,1.0
18.506,-0.328,-0.812,0.0
16.761,-0.297,-0.822,0.0
15.512,-0.275,-0.843,0.0
14.371,-0.255,-0.855,0.0
13.373,-0.237,-0.865,0.0
20.713,-0.364,-0.761,0.0
19.115,-0.336,-0.801,0.0
17.366,-0.305,-0.817,0.0
16.016,-0.281,-0.838,0.0
14.847,-0.26,-0.854,0.0
13.817,-0.242,-0.866,0.0
21.641,-0.376,-0.752,2.0
19.727,-0.342,-0.787,1.0
18.052,-0.313,-0.814,0.0
16.444,-0.284,-0.828,0.0
15.249,-0.263,-0.846,0.0
14.176,-0.244,-0.86,0.0
22.252,-0.381,-0.728,1.0
20.302,-0.347,-0.769,0.0
18.694,-0.319,-0.805,0.0
17.02,-0.29,-0.823,0.0
15.734,-0.267,-0.842,0.0
14.461,-0.245,-0.849,0.0
23.28,-0.391,-0.715,0.0
21.176,-0.355,-0.76,0.0
19.362,-0.324,-0.795,0.0
17.661,-0.295,-0.818,0.0
16.161,-0.269,-0.832,0.0
15.026,-0.25,-0.851,0.0
24.764,-0.408,-0.711,0.0
21.779,-0.358,-0.738,4.0
20.008,-0.328,-0.781,0.0
18.321,-0.299,-0.812,0.0
16.764,-0.273,-0.83,0.0
15.456,-0.251,-0.845,0.0
25.793,-0.416,-0.689,0.0
22.776,-0.366,-0.726,0.0
20.632,-0.33,-0.764,0.0
19.025,-0.303,-0.804,0.0
17.37,-0.276,-0.824,0.0
15.889,-0.252,-0.836,0.0
26.763,-0.42,-0.661,0.0
23.848,-0.373,-0.712,0.0
21.497,-0.335,-0.752,0.0
19.58,-0.304,-0.788,0.0
17.916,-0.277,-0.814,0.0
16.418,-0.253,-0.831,0.0
28.244,-0.431,-0.64,0.0
25.214,-0.383,-0.701,0.0
22.407,-0.339,-0.739,0.0
20.124,-0.303,-0.77,1.0
18.747,-0.281,-0.814,0.0
17.059,-0.254,-0.829,0.0
29.946,-0.442,-0.619,0.0
26.251,-0.386,-0.678,0.0
23.269,-0.34,-0.721,0.0
20.83,-0.303,-0.755,0.0
19.324,-0.279,-0.8,0.0
17.655,-0.254,-0.822,0.0
31.067,-0.442,-0.579,0.0
27.821,-0.394,-0.662,0.0
24.445,-0.344,-0.708,0.0
21.978,-0.307,-0.752,0.0
19.782,-0.275,-0.779,3.0
18.302,-0.253,-0.815,0.0
33.489,-0.458,-0.557,0.0
29.353,-0.398,-0.639,0.0
25.578,-0.345,-0.688,0.0
22.702,-0.304,-0.731,0.0
19.857,-0.264,-0.742,3.0
19.049,-0.252,-0.81,0.0
0.0,0.0,0.0,0.0
30.393,-0.394,-0.601,0.0
26.694,-0.343,-0.665,0.0
23.889,-0.305,-0.72,0.0
21.407,-0.271,-0.756,0.0
19.617,-0.246,-0.795,1.0
0.0,0.0,0.0,0.0
0.0,0.0,0.0,0.0
28.568,-0.349,-0.655,0.0
25.051,-0.303,-0.706,0.0
22.35,-0.268,-0.745,1.0
19.773,-0.235,-0.761,6.0
0.0,0.0,0.0,0.0
34.915,-0.406,-0.551,0.0
29.925,-0.345,-0.626,0.0
26.045,-0.297,-0.682,0.0
23.133,-0.261,-0.725,0.0
19.828,-0.222,-0.724,2.0
0.0,0.0,0.0,0.0
35.667,-0.389,-0.492,0.0
31.235,-0.337,-0.592,0.0
27.294,-0.291,-0.661,0.0
24.272,-0.256,-0.713,0.0
21.864,-0.228,-0.755,0.0
0.0,0.0,0.0,0.0
19.744,-0.2,-0.233,0.0
19.782,-0.198,-0.335,1.0
19.778,-0.196,-0.439,1.0
25.471,-0.249,-0.698,0.0
22.607,-0.218,-0.736,0.0
19.701,-0.187,-0.092,0.0
19.779,-0.185,-0.194,5.0
19.759,-0.182,-0.296,8.0
19.757,-0.179,-0.4,12.0
19.755,-0.177,-0.502,9.0
19.778,-0.174,-0.605,6.0
19.813,-0.171,-0.053,1.0
19.769,-0.168,-0.155,10.0
19.755,-0.165,-0.257,13.0
19.751,-0.162,-0.361,13.0
19.745,-0.16,-0.463,16.0
19.757,-0.157,-0.566,15.0
19.797,-0.154,-0.014,0.0
19.744,-0.151,-0.116,12.0
19.735,-0.148,-0.218,15.0
19.728,-0.145,-0.322,16.0
19.734,-0.142,-0.424,17.0
19.738,-0.139,-0.526,17.0
19.772,-0.136,0.023,5.0
19.747,-0.133,-0.078,10.0
19.722,-0.13,-0.18,15.0
19.727,-0.127,-0.284,16.0
19.746,-0.124,-0.386,17.0
19.748,-0.121,-0.489,17.0
19.751,-0.117,0.062,9.0
19.724,-0.114,-0.04,11.0
19.711,-0.111,-0.142,15.0
19.716,-0.108,-0.246,16.0
19.743,-0.105,-0.348,14.0
19.749,-0.102,-0.451,16.0
19.729,-0.098,0.099,13.0
19.711,-0.095,-0.002,14.0
19.701,-0.091,-0.104,14.0
19.719,-0.088,-0.208,16.0
19.747,-0.085,-0.311,15.0
19.762,-0.082,-0.414,15.0
19.714,-0.078,0.136,16.0
19.705,-0.075,0.034,15.0
19.706,-0.071,-0.067,13.0
19.715,-0.068,-0.171,16.0
19.75,-0.065,-0.274,14.0
19.787,-0.061,-0.377,6.0
19.702,-0.057,0.174,16.0
19.707,-0.054,0.071,16.0
19.708,-0.051,-0.03,17.0
19.721,-0.047,-0.134,14.0
19.756,-0.044,-0.237,14.0
19.741,-0.04,-0.339,0.0
19.653,-0.036,0.21,16.0
19.697,-0.033,0.108,15.0
19.704,-0.029,0.006,16.0
19.748,-0.026,-0.098,9.0
19.753,-0.022,-0.2,4.0
33.984,-0.032,-0.522,0.0
19.639,-0.015,0.246,14.0
19.746,-0.011,0.145,3.0
19.729,-0.007,0.042,8.0
19.744,-0.004,-0.062,9.0
19.785,0.0,-0.164,0.0
0.0,0.0,0.0,0.0
19.626,0.007,0.282,13.0
19.648,0.011,0.18,10.0
19.787,0.015,0.078,3.0
19.727,0.018,-0.025,18.0
19.762,0.022,-0.128,2.0
19.769,0.026,-0.231,10.0
19.622,0.03,0.317,16.0
19.619,0.034,0.215,16.0
19.739,0.038,0.114,11.0
19.744,0.042,0.009,16.0
19.76,0.046,-0.093,20.0
19.761,0.05,-0.195,17.0
19.611,0.054,0.352,15.0
19.61,0.058,0.25,12.0
19.678,0.062,0.149,12.0
19.754,0.066,0.044,78.0
19.767,0.07,-0.057,54.0
19.763,0.074,-0.161,38.0
19.624,0.078,0.387,25.0
19.619,0.082,0.285,18.0
19.647,0.086,0.183,11.0
19.675,0.09,0.079,13.0
19.708,0.095,-0.023,8.0
19.75,0.099,-0.126,0.0
19.617,0.102,0.421,31.0
19.615,0.107,0.319,16.0
19.645,0.111,0.217,11.0
19.643,0.115,0.112,14.0
19.641,0.12,0.01,14.0
19.682,0.124,-0.092,8.0
19.599,0.128,0.455,15.0
19.622,0.132,0.353,11.0
19.618,0.137,0.25,10.0
19.636,0.141,0.146,15.0
19.641,0.145,0.043,15.0
19.651,0.15,-0.058,14.0
19.617,0.154,0.489,13.0
19.628,0.158,0.386,10.0
19.629,0.163,0.283,10.0
19.656,0.167,0.179,13.0
19.65,0.172,0.076,12.0
19.642,0.176,-0.026,15.0
19.639,0.181,0.522,10.0
19.662,0.185,0.419,9.0
19.682,0.19,0.317,9.0
19.675,0.194,0.211,9.0
19.69,0.199,0.109,10.0
19.663,0.203,0.006,14.0
19.702,0.208,0.556,11.0
19.707,0.213,0.453,10.0
19.726,0.218,0.35,10.0
19.728,0.222,0.244,13.0
19.775,0.227,0.141,26.0
19.694,0.231,0.037,2.0
19.66,0.235,0.587,13.0
19.673,0.24,0.484,11.0
19.686,0.245,0.381,11.0
19.71,0.25,0.276,12.0
19.764,0.255,0.173,27.0
84.872,1.119,0.297,13.0
19.657,0.264,0.618,16.0
19.659,0.268,0.514,15.0
19.682,0.273,0.412,11.0
19.71,0.279,0.307,13.0
19.745,0.284,0.204,8.0
113.301,1.66,0.575,2.0
19.652,0.292,0.649,13.0
19.674,0.297,0.546,12.0
19.716,0.303,0.443,9.0
19.731,0.308,0.338,2.0
163.287,2.594,1.94,21.0
55.222,0.89,0.365,1.0
55.2,0.904,1.908,8.0
55.21,0.918,1.617,21.0
55.178,0.931,1.325,41.0
55.164,0.944,1.028,58.0
55.159,0.958,0.737,78.0
55.155,0.971,0.447,73.0
55.186,0.987,1.99,73.0
55.181,1.0,1.698,65.0
55.189,1.014,1.407,49.0
55.185,1.028,1.11,40.0
55.202,1.042,0.82,34.0
55.196,1.056,0.528,11.0
135.218,2.625,5.075,11.0
135.287,2.661,4.363,19.0
134.835,2.685,3.635,4.0
179.274,3.616,3.867,20.0
179.313,3.663,2.922,5.0
128.753,2.662,1.417,12.0
121.281,2.543,4.727,16.0
135.194,2.869,4.555,13.0
134.792,2.895,3.827,21.0
135.335,2.942,3.113,3.0
179.223,3.941,3.174,18.0
128.693,2.864,1.599,28.0
121.353,2.736,4.901,12.0
114.303,2.605,4.01,16.0
98.591,2.273,2.937,29.0
98.687,2.3,2.406,93.0
99.04,2.333,1.889,13.0
98.848,2.355,1.363,63.0
121.357,2.928,5.068,14.0
113.755,2.774,4.146,26.0
121.5,2.995,3.784,8.0
134.838,3.358,3.47,16.0
129.05,3.246,2.635,6.0
45.553,1.158,0.688,3.0
0.0,0.0,0.0,0.0
0.0,0.0,0.0,0.0
43.706,1.147,1.418,81.0
43.72,1.158,1.182,144.0
0.0,0.0,0.0,0.0
0.0,0.0,0.0,0.0
41.919,1.146,1.861,150.0
0.0,0.0,0.0,0.0
0.0,0.0,0.0,0.0
41.876,1.178,1.185,36.0
40.133,1.139,0.922,117.0
40.121,1.149,0.708,141.0
40.122,1.162,1.831,123.0
40.121,1.172,1.617,150.0
40.118,1.183,1.403,141.0
40.109,1.194,1.185,150.0
40.117,1.204,0.971,150.0
40.121,1.215,0.758,150.0
40.117,1.228,1.881,111.0
40.128,1.239,1.667,110.0
40.121,1.249,1.452,148.0
40.11,1.26,1.233,150.0
40.129,1.271,1.02,150.0
40.124,1.282,0.805,150.0
40.113,1.295,1.928,118.0
40.11,1.306,1.714,79.0
40.102,1.316,1.498,42.0
40.102,1.326,1.28,7.0
121.338,4.047,3.225,15.0
40.07,1.347,0.85,0.0
121.072,4.111,5.96,22.0
119.983,4.108,5.265,21.0
120.238,4.148,4.632,16.0
120.753,4.198,3.992,22.0
163.342,5.724,4.526,9.0
162.344,5.733,3.63,3.0
121.017,4.315,6.093,22.0
120.212,4.319,5.408,19.0
120.295,4.355,4.767,19.0
120.608,4.399,4.121,8.0
43.52,1.599,1.253,17.0
43.62,1.614,1.022,101.0
120.931,4.52,6.222,24.0
134.383,5.059,6.192,20.0
178.854,6.78,7.278,12.0
178.725,6.822,6.295,6.0
40.842,1.569,1.218,15.0
40.42,1.564,0.989,128.0
120.94,4.728,6.348,24.0
134.376,5.289,6.331,8.0
179.025,7.096,7.471,18.0
178.865,7.136,6.483,15.0
40.354,1.621,1.245,1.0
40.358,1.632,1.029,1.0
120.766,4.932,6.463,17.0
180.887,7.434,8.703,6.0
179.17,7.413,7.655,18.0
178.755,7.443,6.656,8.0
23.608,0.989,0.751,0.0
45.221,1.907,1.196,11.0
23.596,1.004,1.285,24.0
23.612,1.011,1.158,37.0
23.6,1.017,1.03,43.0
23.591,1.023,0.9,43.0
23.596,1.029,0.773,44.0
23.592,1.036,0.646,54.0
23.572,1.044,1.306,66.0
23.569,1.05,1.178,71.0
23.569,1.056,1.05,69.0
23.573,1.063,0.921,70.0
23.572,1.069,0.794,74.0
23.578,1.076,0.667,72.0
23.579,1.086,1.327,79.0
23.562,1.092,1.199,74.0
23.56,1.098,1.071,59.0
23.571,1.105,0.942,51.0
23.588,1.112,0.814,44.0
23.6,1.119,0.687,40.0
23.597,1.128,1.348,43.0
23.582,1.134,1.219,24.0
23.588,1.141,1.092,12.0
23.594,1.147,0.962,4.0
23.603,1.154,0.834,0.0
163.479,8.039,4.895,13.0
0.0,0.0,0.0,0.0
0.0,0.0,0.0,0.0
0.0,0.0,0.0,0.0
179.634,9.05,7.467,18.0
180.502,9.143,6.522,10.0
163.318,8.318,5.016,13.0
0.0,0.0,0.0,0.0
0.0,0.0,0.0,0.0
0.0,0.0,0.0,0.0
180.198,9.398,7.625,11.0
180.459,9.459,6.655,18.0
162.674,8.569,5.114,14.0
0.0,0.0,0.0,0.0
0.0,0.0,0.0,0.0
0.0,0.0,0.0,0.0
0.0,0.0,0.0,0.0
180.787,9.794,6.793,19.0
162.667,8.857,5.226,12.0
0.0,0.0,0.0,0.0
0.0,0.0,0.0,0.0
0.0,0.0,0.0,0.0
0.0,0.0,0.0,0.0
180.795,10.115,6.912,7.0
162.628,9.142,5.332,12.0
0.0,0.0,0.0,0.0
0.0,0.0,0.0,0.0
0.0,0.0,0.0,0.0
0.0,0.0,0.0,0.0
0.0,0.0,0.0,0.0
162.683,9.433,5.432,6.0
45.558,2.663,2.798,9.0
0.0,0.0,0.0,0.0
205.917,12.14,10.392,7.0
0.0,0.0,0.0,0.0
198.723,11.819,7.833,9.0
197.934,11.825,6.721,6.0
45.548,2.742,2.823,15.0
0.0,0.0,0.0,0.0
204.93,12.443,10.454,7.0
201.457,12.283,9.153,7.0
198.062,12.126,7.913,7.0
197.461,12.142,6.809,8.0
45.554,2.823,2.847,48.0
112.408,6.995,6.41,4.0
112.371,7.021,5.789,5.0
112.212,7.038,5.154,4.0
112.36,7.077,4.545,2.0
197.124,12.469,6.893,6.0
45.537,2.902,2.868,96.0
99.99,6.397,5.749,19.0
99.946,6.42,5.196,33.0
99.962,6.445,4.637,32.0
99.951,6.471,4.088,30.0
99.97,6.497,3.54,34.0
45.53,2.982,2.888,91.0
99.944,6.571,5.79,35.0
99.918,6.593,5.238,39.0
99.957,6.621,4.679,36.0
99.947,6.646,4.129,37.0
99.963,6.673,3.581,35.0
0.0,0.0,0.0,0.0
45.582,3.077,2.658,113.0
99.967,6.772,5.279,34.0
99.954,6.796,4.717,37.0
99.979,6.822,4.167,32.0
99.972,6.847,3.617,39.0
0.0,0.0,0.0,0.0
45.562,3.155,2.673,150.0
99.951,6.946,5.313,33.0
99.953,6.97,4.751,36.0
99.966,6.997,4.2,32.0
99.977,7.022,3.65,44.0
43.769,3.096,2.824,150.0
43.76,3.106,2.581,48.0
45.439,3.236,2.429,45.0
45.457,3.248,2.174,121.0
45.464,3.26,1.923,150.0
45.47,3.271,1.673,150.0
41.971,3.041,2.72,113.0
0.0,0.0,0.0,0.0
45.459,3.315,2.442,150.0
45.462,3.326,2.186,150.0
0.0,0.0,0.0,0.0
0.0,0.0,0.0,0.0
41.97,3.113,2.73,115.0
0.0,0.0,0.0,0.0
43.673,3.26,2.356,116.0
43.68,3.271,2.11,134.0
43.674,3.281,1.867,150.0
43.677,3.292,1.625,150.0
40.173,3.049,2.621,126.0
0.0,0.0,0.0,0.0
43.672,3.334,2.363,95.0
0.0,0.0,0.0,0.0
43.676,3.355,1.875,6.0
41.89,3.228,1.566,10.0
40.177,3.117,2.627,145.0
41.88,3.258,2.505,122.0
41.877,3.268,2.272,132.0
41.891,3.279,2.036,109.0
41.89,3.288,1.803,150.0
41.884,3.298,1.571,137.0
40.18,3.185,2.632,150.0
0.0,0.0,0.0,0.0
0.0,0.0,0.0,0.0
0.0,0.0,0.0,0.0
40.088,3.213,1.729,7.0
40.075,3.222,1.506,46.0
40.093,3.245,2.629,104.0
40.091,3.253,2.405,129.0
40.085,3.262,2.181,121.0
40.089,3.271,1.954,125.0
40.083,3.279,1.73,150.0
40.085,3.288,1.508,150.0
40.092,3.311,2.63,115.0
40.09,3.319,2.406,117.0
40.095,3.327,2.183,111.0
40.081,3.335,1.954,116.0
40.088,3.344,1.731,145.0
40.089,3.353,1.508,132.0
40.086,3.375,2.63,134.0
40.095,3.384,2.406,122.0
40.094,3.392,2.182,104.0
40.069,3.399,1.952,80.0
40.073,3.407,1.729,56.0
40.076,3.417,1.506,15.0
87.057,7.471,5.708,53.0
87.059,7.488,5.22,79.0
87.065,7.507,4.734,99.0
87.08,7.527,4.239,59.0
87.067,7.544,3.751,40.0
87.099,7.566,3.266,31.0
87.094,7.613,5.703,6.0
87.113,7.631,5.216,4.0
87.078,7.645,4.726,1.0
87.059,7.662,4.228,42.0
82.954,7.318,3.564,2.0
82.958,7.336,3.101,2.0
82.894,7.376,5.418,7.0
82.975,7.4,4.957,7.0
82.935,7.412,4.489,10.0
82.934,7.428,4.016,12.0
82.957,7.448,3.552,17.0
82.947,7.463,3.088,21.0
82.913,7.507,5.406,55.0
82.903,7.522,4.939,50.0
82.913,7.538,4.473,40.0
82.905,7.554,3.999,37.0
82.92,7.572,3.536,27.0
82.914,7.588,3.07,17.0
82.936,7.636,5.39,5.0
82.964,7.654,4.925,4.0
82.911,7.664,4.456,3.0
82.926,7.681,3.983,17.0
82.919,7.697,3.516,3.0
83.023,7.724,3.055,1.0
86.006,8.048,5.569,9.0
85.862,8.05,5.077,10.0
85.678,8.049,4.583,8.0
82.908,7.804,3.96,40.0
85.415,8.055,3.601,11.0
85.172,8.049,3.112,6.0
84.852,8.067,5.471,11.0
84.746,8.071,4.987,10.0
84.635,8.076,4.503,10.0
82.889,7.924,3.935,38.0
84.32,8.077,3.529,9.0
67.345,6.464,2.44,2.0
83.437,8.055,5.354,9.0
83.451,8.07,4.883,10.0
83.386,8.078,4.409,10.0
82.884,8.044,3.908,24.0
83.292,8.099,3.457,6.0
66.358,6.465,2.381,3.0
75.157,7.364,4.796,3.0
75.077,7.368,4.367,3.0
75.116,7.385,3.944,5.0
75.105,7.396,3.513,7.0
75.126,7.411,3.091,5.0
65.491,6.472,2.326,5.0
75.065,7.46,4.762,19.0
75.062,7.471,4.337,28.0
75.051,7.483,3.912,33.0
75.041,7.495,3.48,45.0
75.055,7.509,3.057,94.0
64.641,6.479,2.269,9.0
75.039,7.562,4.728,28.0
75.055,7.574,4.304,31.0
75.054,7.587,3.88,18.0
75.069,7.601,3.449,18.0
75.035,7.609,3.023,7.0
63.746,6.476,2.209,7.0
75.093,7.668,4.698,3.0
75.081,7.679,4.271,9.0
75.086,7.691,3.846,8.0
75.128,7.707,3.416,3.0
75.096,7.716,2.989,1.0
62.966,6.481,2.151,11.0
70.967,7.342,4.404,2.0
70.914,7.347,3.999,3.0
70.939,7.36,3.598,4.0
70.927,7.369,3.189,3.0
70.977,7.386,2.79,3.0
62.174,6.48,2.092,7.0
70.867,7.423,4.361,9.0
70.878,7.434,3.959,11.0
70.895,7.446,3.558,15.0
70.914,7.459,3.15,20.0
70.919,7.47,2.749,7.0
61.446,6.481,2.034,10.0
70.883,7.514,4.322,124.0
70.88,7.523,3.92,121.0
70.878,7.533,3.518,89.0
70.878,7.543,3.108,99.0
70.909,7.557,2.708,5.0
60.752,6.484,1.976,6.0
70.874,7.6,4.28,11.0
70.898,7.612,3.879,9.0
70.884,7.62,3.475,9.0
70.89,7.63,3.066,8.0
60.13,6.481,2.259,0.0
60.075,6.484,1.917,5.0
70.943,7.693,4.241,3.0
70.982,7.705,3.839,3.0
70.971,7.714,3.435,4.0
70.984,7.725,3.025,2.0
59.513,6.485,2.198,2.0
59.493,6.491,1.86,4.0
73.728,8.081,4.358,10.0
73.614,8.077,3.933,10.0
73.34,8.057,3.501,10.0
73.162,8.046,3.069,11.0
58.93,6.489,2.137,6.0
58.867,6.491,1.801,11.0
72.943,8.078,4.262,9.0
73.012,8.094,3.85,11.0
72.865,8.086,3.427,11.0
72.523,8.058,2.991,7.0
58.358,6.491,2.076,5.0
58.329,6.496,1.743,10.0
72.13,8.067,4.163,6.0
72.259,8.09,3.758,10.0
72.259,8.098,3.347,10.0
71.935,8.07,2.915,3.0
57.844,6.496,2.015,8.0
57.799,6.499,1.685,10.0
71.216,8.04,4.058,5.0
71.433,8.072,3.663,3.0
71.611,8.1,3.263,6.0
57.231,6.48,2.276,3.0
57.287,6.493,1.952,11.0
57.31,6.503,1.627,10.0
70.712,8.056,3.974,10.0
70.564,8.046,3.563,7.0
70.77,8.077,3.171,6.0
56.759,6.484,2.213,2.0
56.828,6.498,1.892,5.0
56.809,6.502,1.568,8.0
70.386,8.087,3.901,9.0
70.149,8.067,3.487,6.0
69.959,8.052,3.078,3.0
56.323,6.488,2.151,3.0
56.303,6.492,1.83,10.0
56.322,6.5,1.51,11.0
63.244,7.326,3.453,3.0
69.937,8.108,3.419,2.0
69.432,8.056,2.998,0.0
55.861,6.487,2.087,4.0
55.865,6.493,1.769,11.0
55.905,6.503,1.452,14.0
63.153,7.373,3.395,4.0
63.224,7.387,3.036,3.0
55.469,6.485,2.347,1.0
55.472,6.491,2.025,9.0
55.489,6.498,1.709,10.0
55.513,6.507,1.393,12.0
63.14,7.427,3.339,8.0
63.137,7.431,2.977,7.0
55.05,6.484,2.281,4.0
55.096,6.494,1.963,11.0
55.076,6.497,1.648,10.0
55.102,6.505,1.335,9.0
63.117,7.476,3.28,20.0
63.118,7.481,2.919,23.0
54.69,6.486,2.217,11.0
54.715,6.494,1.9,13.0
54.724,6.5,1.587,11.0
54.71,6.503,1.275,11.0
63.116,7.526,3.223,114.0
63.101,7.528,2.861,143.0
54.348,6.488,2.153,6.0
54.393,6.497,1.839,10.0
54.382,6.5,1.527,11.0
54.398,6.507,1.217,12.0
63.105,7.571,3.163,30.0
63.102,7.575,2.802,36.0
54.033,6.49,2.089,6.0
54.035,6.494,1.775,12.0
54.055,6.501,1.467,11.0
54.074,6.507,1.159,13.0
63.116,7.617,3.103,13.0
63.109,7.62,2.741,5.0
53.688,6.485,2.025,7.0
53.765,6.498,1.715,11.0
53.813,6.508,1.409,12.0
53.808,6.511,1.101,13.0
63.155,7.663,3.043,6.0
53.434,6.486,2.269,3.0
53.482,6.495,1.964,8.0
53.504,6.501,1.654,13.0
53.502,6.504,1.348,13.0
53.527,6.511,1.042,11.0
63.186,7.706,2.982,3.0
53.255,6.497,2.208,4.0
53.244,6.498,1.902,10.0
53.231,6.5,1.592,13.0
53.267,6.507,1.288,12.0
53.274,6.512,0.983,12.0
63.226,7.747,2.92,2.0
52.926,6.487,2.141,4.0
52.983,6.496,1.839,11.0
53.038,6.506,1.532,12.0
53.039,6.509,1.228,13.0
53.055,6.514,0.926,12.0
65.411,8.05,2.953,2.0
52.738,6.492,2.078,7.0
52.755,6.496,1.777,11.0
52.802,6.504,1.47,14.0
52.835,6.511,1.169,13.0
52.872,6.519,0.867,13.0
65.355,8.074,2.883,3.0
52.553,6.494,2.016,8.0
52.582,6.5,1.715,13.0
52.644,6.509,1.411,12.0
52.65,6.512,1.109,13.0
52.689,6.52,0.809,12.0
52.328,6.488,2.252,1.0
52.389,6.497,1.954,8.0
52.41,6.501,1.655,11.0
52.47,6.51,1.351,13.0
52.496,6.515,1.05,13.0
52.511,6.52,0.75,12.0
52.196,6.492,2.191,3.0
52.242,6.499,1.893,5.0
52.299,6.507,1.595,8.0
52.309,6.51,1.29,14.0
52.359,6.518,0.991,12.0
52.391,6.524,0.692,12.0
52.068,6.495,2.128,5.0
52.131,6.503,1.832,7.0
52.142,6.505,1.533,9.0
52.178,6.511,1.23,12.0
52.225,6.519,0.932,10.0
52.255,6.524,0.633,12.0
51.964,6.497,2.067,10.0
52.01,6.503,1.77,10.0
52.057,6.51,1.474,11.0
52.089,6.515,1.17,13.0
52.096,6.517,0.872,10.0
52.149,6.525,0.575,12.0
51.901,6.503,2.008,10.0
51.917,6.505,1.71,11.0
51.94,6.508,1.413,12.0
52.008,6.518,1.111,13.0
52.028,6.521,0.813,12.0
52.059,6.526,0.516,9.0
51.817,6.503,1.946,9.0
51.847,6.507,1.65,12.0
51.915,6.516,1.354,15.0
51.919,6.517,1.051,13.0
51.952,6.522,0.754,9.0
51.999,6.529,0.457,4.0
51.737,6.502,1.886,11.0
51.787,6.508,1.59,12.0
51.846,6.515,1.294,14.0
51.869,6.518,0.991,14.0
51.886,6.521,0.694,8.0
51.959,6.531,0.398,3.0
51.701,6.504,1.825,12.0
51.776,6.513,1.531,12.0
51.822,6.518,1.235,12.0
51.843,6.521,0.932,14.0
51.876,6.525,0.635,10.0
17.988,2.262,0.117,1.0
