X,Y,Z,Reflectivity
12.341,-1.107,-0.889,0.0
18.587,-1.664,-0.819,0.0
16.79,-1.502,-0.828,0.0
15.66,-1.4,-0.855,0.0
14.481,-1.293,-0.868,0.0
13.464,-1.202,-0.879,0.0
12.479,-1.113,-0.88,0.0
18.842,-1.677,-0.803,0.0
17.234,-1.533,-0.825,0.0
15.987,-1.421,-0.85,0.0
14.767,-1.311,-0.864,0.0
13.736,-1.219,-0.877,0.0
12.712,-1.127,-0.878,0.0
19.358,-1.713,-0.797,0.0
17.677,-1.563,-0.821,0.0
16.387,-1.447,-0.847,0.0
14.979,-1.321,-0.855,0.0
14.049,-1.238,-0.876,0.0
13.03,-1.147,-0.882,0.0
19.89,-1.748,-0.79,0.0
18.223,-1.6,-0.82,0.0
16.718,-1.466,-0.841,0.0
15.378,-1.347,-0.856,0.0
14.304,-1.252,-0.872,0.0
13.321,-1.165,-0.882,0.0
20.226,-1.765,-0.775,0.0
18.512,-1.614,-0.807,0.0
17.038,-1.483,-0.832,0.0
15.679,-1.363,-0.85,0.0
14.605,-1.269,-0.869,0.0
13.544,-1.175,-0.878,0.0
20.73,-1.795,-0.765,0.0
19.106,-1.652,-0.805,0.0
17.403,-1.503,-0.825,0.0
16.151,-1.393,-0.853,0.0
14.9,-1.283,-0.865,0.0
13.827,-1.19,-0.876,0.0
21.747,-1.868,-0.771,0.0
19.682,-1.688,-0.801,1.0
17.7,-1.516,-0.814,0.0
16.457,-1.407,-0.845,0.0
15.114,-1.291,-0.856,0.0
14.13,-1.205,-0.875,0.0
22.19,-1.889,-0.755,0.0
20.005,-1.7,-0.786,0.0
18.418,-1.563,-0.82,0.0
16.875,-1.43,-0.842,0.0
15.462,-1.308,-0.853,0.0
14.404,-1.217,-0.871,0.0
22.663,-1.911,-0.739,0.0
20.393,-1.717,-0.772,0.0
18.769,-1.577,-0.809,0.0
17.228,-1.445,-0.836,0.0
15.874,-1.329,-0.854,0.0
14.584,-1.219,-0.861,0.0
160.716,-5.923,0.928,14.0
0.0,0.0,0.0,0.0
0.0,0.0,0.0,0.0
0.0,0.0,0.0,0.0
33.564,-1.19,-0.53,0.0
30.103,-1.057,-0.637,0.0
160.682,-5.606,1.047,15.0
0.0,0.0,0.0,0.0
52.283,-1.787,-0.221,0.0
0.0,0.0,0.0,0.0
35.728,-1.196,-0.538,0.0
30.496,-1.011,-0.624,0.0
160.698,-5.291,1.161,13.0
0.0,0.0,0.0,0.0
0.0,0.0,0.0,0.0
0.0,0.0,0.0,0.0
35.601,-1.122,-0.512,0.0
31.201,-0.973,-0.617,0.0
160.581,-4.968,1.269,11.0
0.0,0.0,0.0,0.0
0.0,0.0,0.0,0.0
0.0,0.0,0.0,0.0
35.581,-1.05,-0.489,0.0
31.326,-0.914,-0.599,0.0
160.672,-4.649,1.373,4.0
0.0,0.0,0.0,0.0
0.0,0.0,0.0,0.0
0.0,0.0,0.0,0.0
36.866,-1.014,-0.484,0.0
31.706,-0.862,-0.587,0.0
162.029,-4.363,1.482,13.0
0.0,0.0,0.0,0.0
0.0,0.0,0.0,0.0
0.0,0.0,0.0,0.0
0.0,0.0,0.0,0.0
31.941,-0.803,-0.573,0.0
0.0,0.0,0.0,0.0
0.0,0.0,0.0,0.0
0.0,0.0,0.0,0.0
0.0,0.0,0.0,0.0
0.0,0.0,0.0,0.0
31.882,-0.737,-0.555,0.0
126.875,-2.9,1.301,150.0
0.0,0.0,0.0,0.0
0.0,0.0,0.0,0.0
0.0,0.0,0.0,0.0
0.0,0.0,0.0,0.0
33.179,-0.699,-0.56,0.0
126.813,-2.637,1.365,26.0
0.0,0.0,0.0,0.0
0.0,0.0,0.0,0.0
0.0,0.0,0.0,0.0
0.0,0.0,0.0,0.0
33.163,-0.629,-0.544,0.0
126.824,-2.369,1.425,81.0
0.0,0.0,0.0,0.0
0.0,0.0,0.0,0.0
0.0,0.0,0.0,0.0
0.0,0.0,0.0,0.0
0.0,0.0,0.0,0.0
126.849,-2.108,1.48,44.0
19.759,-0.321,0.123,7.0
0.0,0.0,0.0,0.0
0.0,0.0,0.0,0.0
0.0,0.0,0.0,0.0
34.501,-0.51,-0.537,0.0
19.762,-0.286,0.238,12.0
19.747,-0.278,0.131,29.0
0.0,0.0,0.0,0.0
0.0,0.0,0.0,0.0
0.0,0.0,0.0,0.0
33.741,-0.428,-0.513,0.0
19.744,-0.244,0.245,10.0
19.764,-0.237,0.138,3.0
0.0,0.0,0.0,0.0
0.0,0.0,0.0,0.0
0.0,0.0,0.0,0.0
19.793,-0.209,-0.294,0.0
19.765,-0.202,0.252,0.0
160.643,-1.59,1.173,15.0
0.0,0.0,0.0,0.0
19.779,-0.181,-0.073,3.0
19.759,-0.173,-0.18,12.0
19.75,-0.166,-0.288,15.0
169.535,-1.376,2.211,18.0
160.808,-1.247,1.22,16.0
19.775,-0.146,0.042,2.0
19.765,-0.139,-0.067,9.0
19.72,-0.132,-0.175,16.0
19.745,-0.124,-0.283,17.0
19.708,-0.117,0.261,7.0
19.718,-0.11,0.154,13.0
19.711,-0.103,0.046,13.0
19.716,-0.096,-0.062,11.0
19.715,-0.089,-0.17,17.0
19.753,-0.082,-0.279,15.0
19.663,-0.075,0.265,10.0
19.697,-0.068,0.158,17.0
19.695,-0.061,0.05,15.0
19.709,-0.054,-0.059,16.0
19.744,-0.047,-0.167,14.0
19.76,-0.04,-0.275,1.0
19.632,-0.032,0.268,12.0
19.688,-0.026,0.161,6.0
19.72,-0.019,0.053,8.0
19.74,-0.012,-0.056,9.0
19.656,-0.004,-0.163,0.0
19.795,0.001,-0.273,0.0
19.63,0.008,0.271,15.0
19.721,0.015,0.164,13.0
19.743,0.023,0.056,16.0
19.739,0.03,-0.053,46.0
19.757,0.037,-0.162,17.0
19.771,0.044,-0.27,67.0
19.617,0.051,0.273,13.0
19.663,0.058,0.165,11.0
19.741,0.065,0.058,27.0
19.744,0.072,-0.052,18.0
19.758,0.079,-0.16,6.0
19.762,0.086,-0.269,0.0
19.619,0.093,0.274,16.0
19.665,0.1,0.166,14.0
19.645,0.107,0.058,12.0
19.656,0.114,-0.051,10.0
19.685,0.121,-0.159,6.0
32.962,0.214,-0.448,0.0
19.633,0.135,0.274,10.0
19.659,0.142,0.167,15.0
19.638,0.148,0.058,13.0
19.632,0.155,-0.05,14.0
19.638,0.162,-0.159,15.0
19.662,0.169,-0.267,15.0
19.682,0.177,0.275,8.0
19.684,0.184,0.167,10.0
19.662,0.191,0.058,10.0
19.657,0.198,-0.051,10.0
19.637,0.204,-0.159,16.0
19.65,0.211,-0.268,17.0
19.736,0.22,0.275,12.0
19.768,0.228,0.166,27.0
84.847,1.008,0.247,10.0
19.657,0.24,-0.053,5.0
19.653,0.247,-0.161,15.0
19.646,0.254,-0.269,16.0
19.725,0.262,0.273,13.0
19.763,0.27,0.164,6.0
0.0,0.0,0.0,0.0
49.193,0.706,-0.137,1.0
19.691,0.289,-0.163,1.0
19.683,0.296,-0.272,4.0
163.529,2.525,2.245,17.0
55.113,0.87,0.452,1.0
55.208,0.89,0.148,22.0
52.396,0.864,-0.154,2.0
40.6,0.683,-0.344,0.0
32.528,0.558,-0.455,1.0
55.173,0.97,0.748,73.0
55.174,0.988,0.443,66.0
55.166,1.007,0.138,38.0
48.133,0.895,-0.15,1.0
39.513,0.749,-0.342,0.0
55.243,1.066,-0.784,0.0
162.814,3.211,2.176,25.0
113.905,2.285,0.892,13.0
0.0,0.0,0.0,0.0
48.341,1.002,-0.161,1.0
38.383,0.808,-0.34,2.0
31.234,0.669,-0.45,0.0
128.717,2.812,1.69,30.0
70.878,1.572,0.537,5.0
74.708,1.682,0.152,1.0
44.011,1.005,-0.158,2.0
36.84,0.853,-0.336,1.0
30.783,0.723,-0.452,2.0
70.933,1.698,0.912,14.0
70.692,1.715,0.516,23.0
0.0,0.0,0.0,0.0
0.0,0.0,0.0,0.0
36.707,0.928,-0.346,3.0
30.182,0.772,-0.452,1.0
0.0,0.0,0.0,0.0
43.739,1.154,0.306,151.0
40.148,1.072,0.057,162.0
40.134,1.084,-0.169,150.0
36.602,1.0,-0.357,3.0
30.099,0.833,-0.461,0.0
0.0,0.0,0.0,0.0
0.0,0.0,0.0,0.0
40.113,1.154,0.043,74.0
40.112,1.167,-0.183,92.0
36.219,1.066,-0.367,2.0
27.447,0.816,-0.431,9.0
40.133,1.212,0.474,127.0
40.133,1.225,0.251,121.0
40.132,1.238,0.027,150.0
40.106,1.25,-0.199,127.0
40.244,1.268,-0.424,1.0
29.084,0.925,-0.468,2.0
40.113,1.295,0.457,150.0
40.13,1.308,0.234,150.0
40.072,1.319,0.01,55.0
40.02,1.33,-0.216,57.0
40.198,1.348,-0.441,2.0
28.978,0.981,-0.48,3.0
70.876,2.433,0.776,21.0
67.322,2.331,0.362,3.0
40.13,1.402,-0.008,150.0
40.019,1.412,-0.235,52.0
40.13,1.428,-0.46,0.0
28.634,1.028,-0.488,2.0
44.658,1.624,0.467,150.0
43.702,1.603,0.213,150.0
41.695,1.543,-0.029,1.0
40.323,1.504,-0.257,3.0
33.481,1.259,-0.401,0.0
27.852,1.056,-0.489,6.0
41.363,1.588,0.41,150.0
40.404,1.564,0.175,150.0
40.336,1.574,-0.05,158.0
40.201,1.581,-0.279,15.0
32.395,1.284,-0.405,1.0
27.488,1.097,-0.498,7.0
40.375,1.631,0.378,10.0
45.193,1.84,0.17,33.0
40.325,1.654,-0.073,66.0
39.921,1.649,-0.3,3.0
23.652,0.984,-0.31,9.0
23.663,0.992,-0.442,31.0
23.629,1.001,0.207,43.0
23.634,1.009,0.075,45.0
23.63,1.016,-0.057,41.0
23.619,1.022,-0.191,40.0
23.616,1.029,-0.324,51.0
23.62,1.037,-0.456,79.0
23.598,1.047,0.192,73.0
23.595,1.054,0.06,76.0
23.601,1.06,-0.072,70.0
23.602,1.068,-0.207,66.0
23.613,1.075,-0.339,67.0
23.611,1.082,-0.471,58.0
23.595,1.092,0.176,62.0
23.612,1.1,0.044,49.0
23.621,1.107,-0.088,40.0
23.63,1.114,-0.223,37.0
23.644,1.122,-0.356,36.0
23.662,1.13,-0.489,33.0
23.633,1.14,0.16,14.0
45.189,2.192,0.053,30.0
40.317,1.967,-0.178,39.0
34.788,1.707,-0.353,8.0
28.924,1.428,-0.456,2.0
23.703,1.177,-0.507,29.0
45.216,2.266,0.275,13.0
45.177,2.277,0.02,41.0
40.319,2.043,-0.208,46.0
33.91,1.727,-0.369,4.0
28.44,1.457,-0.469,2.0
23.933,1.233,-0.529,5.0
45.151,2.347,0.24,3.0
45.177,2.361,-0.013,26.0
40.31,2.118,-0.239,46.0
32.835,1.734,-0.382,10.0
27.867,1.479,-0.481,2.0
23.815,1.271,-0.545,1.0
45.174,2.432,0.205,15.0
45.2,2.445,-0.048,5.0
40.198,2.185,-0.269,15.0
31.657,1.73,-0.394,7.0
26.969,1.481,-0.487,1.0
19.938,1.1,-0.473,2.0
45.189,2.515,0.168,40.0
40.328,2.255,-0.076,42.0
38.082,2.14,-0.287,5.0
30.908,1.745,-0.41,9.0
26.603,1.509,-0.503,1.0
19.77,1.127,-0.485,7.0
45.185,2.595,0.13,47.0
40.325,2.327,-0.111,45.0
35.909,2.082,-0.301,4.0
29.76,1.733,-0.42,8.0
25.567,1.496,-0.505,1.0
19.742,1.16,-0.502,12.0
45.178,2.675,0.091,46.0
40.326,2.398,-0.146,50.0
35.376,2.113,-0.328,8.0
28.841,1.73,-0.433,8.0
24.795,1.494,-0.512,1.0
19.738,1.194,-0.519,12.0
45.192,2.754,0.05,49.0
40.329,2.468,-0.183,47.0
33.742,2.074,-0.343,10.0
28.201,1.74,-0.449,7.0
24.383,1.511,-0.526,1.0
19.728,1.228,-0.537,11.0
45.177,2.831,0.008,37.0
40.313,2.536,-0.22,39.0
32.377,2.045,-0.36,9.0
27.28,1.73,-0.46,7.0
20.081,1.278,-0.452,0.0
19.707,1.259,-0.556,11.0
45.157,2.906,-0.035,25.0
39.988,2.583,-0.257,15.0
31.375,2.034,-0.379,9.0
26.402,1.718,-0.471,6.0
19.857,1.297,-0.467,3.0
19.702,1.292,-0.575,11.0
40.328,2.662,-0.071,41.0
37.222,2.466,-0.276,5.0
30.231,2.009,-0.395,8.0
25.547,1.704,-0.481,6.0
19.755,1.323,-0.484,8.0
19.654,1.321,-0.593,8.0
40.33,2.728,-0.112,42.0
35.863,2.434,-0.302,5.0
29.327,1.997,-0.414,8.0
24.945,1.705,-0.496,6.0
19.723,1.353,-0.504,9.0
19.326,1.33,-0.603,3.0
40.33,2.792,-0.153,46.0
34.306,2.382,-0.325,7.0
28.483,1.984,-0.431,7.0
24.335,1.701,-0.509,5.0
19.818,1.39,-0.527,10.0
18.832,1.325,-0.608,3.0
40.293,2.852,-0.196,54.0
0.0,0.0,0.0,0.0
27.246,1.941,-0.442,7.0
23.855,1.704,-0.524,4.0
19.711,1.413,-0.545,9.0
18.535,1.333,-0.618,3.0
0.0,0.0,0.0,0.0
31.678,2.297,-0.368,9.0
26.464,1.925,-0.458,6.0
19.853,1.448,-0.458,3.0
19.698,1.441,-0.566,9.0
18.289,1.342,-0.63,2.0
37.197,2.745,-0.262,4.0
30.45,2.253,-0.387,9.0
25.494,1.892,-0.469,6.0
19.717,1.467,-0.477,8.0
19.656,1.467,-0.587,8.0
17.933,1.342,-0.638,2.0
35.817,2.695,-0.292,5.0
29.33,2.213,-0.406,8.0
24.824,1.878,-0.485,10.0
19.708,1.495,-0.499,9.0
19.222,1.462,-0.596,3.0
17.639,1.345,-0.648,1.0
34.15,2.617,-0.318,7.0
28.128,2.162,-0.422,7.0
24.261,1.869,-0.502,5.0
19.703,1.522,-0.522,8.0
18.774,1.454,-0.604,3.0
17.41,1.352,-0.66,2.0
32.341,2.524,-0.339,10.0
27.057,2.117,-0.437,7.0
23.71,1.86,-0.518,4.0
19.707,1.55,-0.545,8.0
18.508,1.459,-0.617,2.0
17.148,1.355,-0.67,1.0
31.396,2.492,-0.366,9.0
26.038,2.072,-0.452,6.0
19.776,1.578,-0.456,3.0
19.683,1.574,-0.568,9.0
18.201,1.459,-0.629,1.0
16.952,1.362,-0.683,1.0
30.209,2.438,-0.389,9.0
25.065,2.027,-0.465,6.0
19.708,1.598,-0.478,8.0
19.216,1.561,-0.578,9.0
17.777,1.448,-0.636,1.0
16.798,1.371,-0.697,1.0
28.863,2.366,-0.407,8.0
24.466,2.01,-0.484,5.0
19.706,1.622,-0.502,8.0
18.902,1.56,-0.592,12.0
17.541,1.451,-0.649,2.0
16.622,1.378,-0.71,1.0
27.677,2.303,-0.424,7.0
23.968,1.998,-0.504,5.0
19.597,1.637,-0.524,9.0
18.669,1.563,-0.608,5.0
17.306,1.452,-0.662,1.0
16.433,1.382,-0.723,2.0
26.189,2.21,-0.434,6.0
19.79,1.673,-0.441,2.0
18.901,1.601,-0.529,14.0
18.331,1.556,-0.62,2.0
17.067,1.452,-0.675,1.0
16.224,1.383,-0.734,1.0
25.451,2.177,-0.455,6.0
19.714,1.69,-0.465,9.0
19.223,1.651,-0.563,8.0
17.987,1.548,-0.631,2.0
16.823,1.45,-0.687,1.0
15.989,1.381,-0.744,1.0
24.698,2.14,-0.473,8.0
19.721,1.712,-0.49,3.0
19.005,1.653,-0.581,11.0
17.581,1.532,-0.64,2.0
16.665,1.455,-0.702,1.0
15.91,1.392,-0.761,1.0
23.972,2.103,-0.49,6.0
20.762,1.824,-0.543,4.0
18.942,1.667,-0.604,17.0
17.358,1.531,-0.654,2.0
16.477,1.456,-0.715,1.0
15.43,1.366,-0.759,0.0
23.179,2.057,-0.504,5.0
20.313,1.806,-0.558,5.0
18.866,1.68,-0.626,13.0
17.127,1.528,-0.668,1.0
16.244,1.452,-0.727,1.0
15.166,1.358,-0.765,0.0
22.359,2.006,-0.515,5.0
19.602,1.762,-0.564,5.0
18.426,1.659,-0.636,3.0
16.883,1.522,-0.681,1.0
16.022,1.447,-0.738,1.0
14.885,1.347,-0.771,0.0
21.62,1.96,-0.527,5.0
19.012,1.727,-0.572,12.0
17.813,1.62,-0.638,5.0
16.679,1.519,-0.695,1.0
15.895,1.45,-0.753,1.0
14.622,1.336,-0.777,0.0
20.917,1.915,-0.538,6.0
18.858,1.729,-0.593,12.0
17.663,1.622,-0.656,1.0
16.492,1.517,-0.709,1.0
15.627,1.439,-0.762,0.0
14.262,1.316,-0.777,0.0
19.988,1.847,-0.54,6.0
18.235,1.688,-0.598,13.0
17.142,1.589,-0.66,0.0
16.248,1.508,-0.721,1.0
15.144,1.408,-0.759,0.0
14.035,1.307,-0.784,0.0
18.959,1.768,-0.538,14.0
17.936,1.675,-0.612,13.0
16.877,1.578,-0.673,1.0
15.973,1.495,-0.73,2.0
14.865,1.394,-0.765,0.0
13.777,1.293,-0.788,0.0
18.623,1.751,-0.554,17.0
17.815,1.677,-0.632,19.0
16.727,1.576,-0.689,2.0
15.921,1.502,-0.749,4.0
14.728,1.392,-0.777,0.0
13.626,1.289,-0.798,0.0
18.281,1.732,-0.569,16.0
17.651,1.674,-0.65,14.0
16.521,1.569,-0.703,2.0
15.688,1.492,-0.76,0.0
14.472,1.378,-0.784,0.0
13.435,1.281,-0.805,0.0
18.09,1.726,-0.587,14.0
17.513,1.673,-0.669,10.0
16.293,1.558,-0.716,2.0
15.214,1.457,-0.757,0.0
14.048,1.347,-0.78,0.0
13.151,1.262,-0.806,0.0
17.855,1.715,-0.604,22.0
17.33,1.666,-0.685,2.0
15.994,1.54,-0.724,3.0
14.813,1.427,-0.758,0.0
13.778,1.329,-0.784,0.0
12.923,1.248,-0.81,0.0
17.743,1.715,-0.624,23.0
17.051,1.65,-0.698,2.0
15.938,1.544,-0.744,7.0
14.629,1.418,-0.769,0.0
13.597,1.32,-0.793,0.0
12.714,1.236,-0.814,0.0
17.515,1.703,-0.64,15.0
16.453,1.601,-0.696,0.0
15.768,1.536,-0.758,0.0
14.444,1.408,-0.779,0.0
13.34,1.302,-0.796,0.0
12.576,1.229,-0.823,0.0
17.353,1.696,-0.658,15.0
16.219,1.587,-0.709,2.0
15.156,1.484,-0.749,0.0
14.081,1.38,-0.778,0.0
13.152,1.29,-0.803,0.0
12.364,1.214,-0.826,0.0
17.153,1.684,-0.674,14.0
16.038,1.576,-0.722,6.0
14.902,1.466,-0.757,0.0
13.851,1.363,-0.785,0.0
12.959,1.277,-0.809,0.0
12.153,1.199,-0.829,0.0
16.993,1.676,-0.691,12.0
15.947,1.574,-0.74,6.0
14.653,1.447,-0.764,0.0
13.585,1.343,-0.788,0.0
12.804,1.267,-0.817,0.0
11.929,1.181,-0.83,0.0
16.757,1.659,-0.704,6.0
15.766,1.562,-0.753,0.0
14.394,1.427,-0.77,0.0
13.367,1.326,-0.794,0.0
12.558,1.247,-0.818,0.0
11.639,1.156,-0.825,0.0
16.281,1.617,-0.706,2.0
15.288,1.519,-0.751,0.0
14.141,1.406,-0.776,0.0
13.2,1.314,-0.802,0.0
12.373,1.232,-0.823,0.0
11.523,1.149,-0.833,0.0
16.016,1.595,-0.716,2.0
14.98,1.493,-0.756,0.0
13.886,1.385,-0.781,0.0
12.929,1.29,-0.803,0.0
12.239,1.222,-0.831,0.0
11.264,1.126,-0.829,0.0
15.958,1.593,-0.735,4.0
14.726,1.471,-0.763,0.0
13.678,1.367,-0.787,0.0
12.742,1.274,-0.808,0.0
11.996,1.2,-0.83,0.0
11.149,1.116,-0.836,0.0
15.915,1.592,-0.754,1.0
14.507,1.452,-0.771,0.0
13.434,1.345,-0.791,0.0
12.586,1.261,-0.815,0.0
11.769,1.18,-0.83,0.0
11.068,1.11,-0.844,0.0
15.552,1.558,-0.758,0.0
14.208,1.424,-0.774,0.0
13.215,1.325,-0.796,0.0
12.408,1.245,-0.82,0.0
11.586,1.163,-0.832,0.0
10.816,1.086,-0.84,0.0
15.021,1.507,-0.751,0.0
13.982,1.403,-0.78,0.0
13.043,1.309,-0.802,0.0
12.197,1.225,-0.822,0.0
11.332,1.138,-0.829,0.0
10.663,1.072,-0.842,0.0
14.846,1.49,-0.762,0.0
13.693,1.375,-0.781,0.0
12.777,1.283,-0.803,0.0
12.038,1.209,-0.827,0.0
11.191,1.125,-0.833,0.0
10.551,1.061,-0.847,0.0
14.595,1.465,-0.768,0.0
13.43,1.348,-0.784,0.0
12.691,1.275,-0.814,0.0
11.907,1.196,-0.833,0.0
11.113,1.117,-0.842,0.0
10.461,1.052,-0.853,0.0
14.35,1.44,-0.773,0.0
13.29,1.334,-0.792,0.0
12.491,1.254,-0.817,0.0
11.635,1.168,-0.829,0.0
10.963,1.101,-0.845,0.0
10.32,1.037,-0.855,0.0
14.065,1.411,-0.776,0.0
13.129,1.317,-0.8,0.0
12.341,1.238,-0.822,0.0
11.397,1.144,-0.826,0.0
10.753,1.079,-0.842,0.0
10.21,1.025,-0.858,0.0
13.824,1.385,-0.78,0.0
12.942,1.296,-0.804,0.0
12.125,1.215,-0.823,0.0
11.207,1.123,-0.827,0.0
10.612,1.064,-0.844,0.0
10.134,1.016,-0.865,0.0
13.622,1.362,-0.785,0.0
12.802,1.28,-0.811,0.0
11.981,1.198,-0.828,0.0
11.126,1.113,-0.834,0.0
10.534,1.054,-0.851,0.0
10.001,1.001,-0.866,0.0
13.444,1.342,-0.791,0.0
12.6,1.258,-0.814,0.0
11.733,1.171,-0.825,0.0
11.047,1.103,-0.842,0.0
10.403,1.038,-0.853,0.0
9.921,0.991,-0.871,0.0
13.292,1.324,-0.798,0.0
12.405,1.235,-0.816,0.0
11.584,1.153,-0.829,0.0
10.881,1.083,-0.842,0.0
10.288,1.024,-0.856,0.0
9.807,0.977,-0.872,0.0
13.115,1.302,-0.803,0.0
12.291,1.22,-0.823,0.0
11.428,1.134,-0.831,0.0
10.734,1.065,-0.843,0.0
10.224,1.015,-0.862,0.0
9.732,0.966,-0.877,0.0
12.935,1.28,-0.806,0.0
12.087,1.196,-0.823,0.0
11.207,1.109,-0.827,0.0
10.615,1.05,-0.846,0.0
10.121,1.001,-0.865,0.0
9.598,0.949,-0.876,0.0
12.747,1.257,-0.809,0.0
11.977,1.181,-0.829,0.0
11.152,1.099,-0.836,0.0
10.452,1.03,-0.845,0.0
10.024,0.988,-0.868,0.0
9.552,0.941,-0.882,0.0
12.622,1.24,-0.815,0.0
11.688,1.147,-0.822,0.0
11.062,1.086,-0.841,0.0
10.423,1.023,-0.854,0.0
9.926,0.974,-0.87,0.0
9.432,0.925,-0.882,0.0
12.519,1.224,-0.822,0.0
11.616,1.135,-0.829,0.0
10.908,1.066,-0.841,0.0
10.281,1.004,-0.853,0.0
9.821,0.959,-0.872,0.0
9.342,0.912,-0.883,0.0
12.33,1.199,-0.823,0.0
11.423,1.111,-0.828,0.0
10.829,1.053,-0.847,0.0
10.228,0.994,-0.86,0.0
9.753,0.947,-0.876,0.0
9.278,0.901,-0.887,0.0
12.175,1.178,-0.825,0.0
11.297,1.093,-0.83,0.0
10.715,1.036,-0.849,0.0
10.121,0.978,-0.861,0.0
9.641,0.931,-0.876,0.0
9.142,0.883,-0.883,0.0
12.058,1.16,-0.829,0.0
11.216,1.078,-0.835,0.0
10.611,1.02,-0.851,0.0
10.063,0.967,-0.866,0.0
9.562,0.918,-0.878,0.0
9.06,0.87,-0.884,0.0
11.917,1.139,-0.831,0.0
11.164,1.067,-0.842,0.0
10.431,0.996,-0.847,0.0
9.967,0.951,-0.868,0.0
9.495,0.906,-0.881,0.0
9.004,0.859,-0.888,0.0
11.729,1.114,-0.829,0.0
11.025,1.046,-0.842,0.0
10.361,0.983,-0.851,0.0
9.916,0.94,-0.872,0.0
9.465,0.897,-0.887,0.0
8.916,0.844,-0.887,0.0
11.565,1.091,-0.828,0.0
10.935,1.031,-0.845,0.0
10.296,0.97,-0.855,0.0
9.77,0.919,-0.868,0.0
9.333,0.878,-0.883,0.0
8.821,0.829,-0.886,0.0
11.48,1.074,-0.832,0.0
10.814,1.011,-0.846,0.0
10.19,0.952,-0.855,0.0
9.772,0.913,-0.877,0.0
9.272,0.865,-0.886,0.0
8.77,0.818,-0.888,0.0
11.384,1.057,-0.835,0.0
10.719,0.994,-0.847,0.0
10.17,0.943,-0.862,0.0
9.67,0.896,-0.876,0.0
8.692,0.804,-0.888,0.0
11.301,1.04,-0.838,0.0
10.63,0.978,-0.849,0.0
10.118,0.93,-0.866,0.0
9.59,0.881,-0.877,0.0
8.642,0.792,-0.89,0.0
11.204,1.023,-0.84,0.0
10.562,0.963,-0.852,0.0
10.023,0.913,-0.866,0.0
9.546,0.869,-0.88,0.0
8.587,0.78,-0.891,0.0
11.149,1.008,-0.844,0.0
10.48,0.947,-0.853,0.0
9.99,0.901,-0.871,0.0
9.505,0.857,-0.884,0.0
8.517,0.766,-0.89,0.0
11.134,0.997,-0.851,0.0
10.384,0.929,-0.853,0.0
9.913,0.886,-0.871,0.0
9.458,0.844,-0.886,0.0
8.48,0.755,-0.892,0.0
10.973,0.972,-0.847,0.0
10.351,0.916,-0.858,0.0
9.886,0.874,-0.876,0.0
9.344,0.825,-0.882,0.0
8.447,0.745,-0.894,0.0
10.925,0.958,-0.85,0.0
10.25,0.898,-0.856,0.0
9.818,0.859,-0.876,0.0
9.3,0.813,-0.884,0.0
8.786,0.767,-0.885,0.0
8.385,0.731,-0.893,0.0
10.833,0.94,-0.85,0.0
10.197,0.883,-0.858,0.0
9.759,0.844,-0.877,0.0
9.3,0.804,-0.89,0.0
8.784,0.758,-0.89,0.0
8.372,0.722,-0.897,0.0
10.767,0.923,-0.851,0.0
10.217,0.875,-0.866,0.0
9.725,0.831,-0.879,0.0
9.19,0.785,-0.884,0.0
8.742,0.745,-0.891,0.0
8.343,0.711,-0.898,0.0
10.688,0.905,-0.85,0.0
10.157,0.859,-0.866,0.0
9.656,0.816,-0.878,0.0
9.261,0.781,-0.896,0.0
8.737,0.736,-0.895,0.0
8.286,0.697,-0.896,0.0
10.665,0.892,-0.854,0.0
10.114,0.845,-0.867,0.0
9.634,0.803,-0.881,0.0
9.146,0.762,-0.889,0.0
8.699,0.724,-0.896,0.0
8.298,0.689,-0.902,0.0
10.649,0.879,-0.858,0.0
10.057,0.829,-0.867,0.0
9.618,0.792,-0.884,0.0
9.097,0.748,-0.889,0.0
8.689,0.713,-0.899,0.0
8.26,0.677,-0.901,0.0
10.561,0.861,-0.855,0.0
10.078,0.82,-0.873,0.0
9.603,0.78,-0.887,0.0
9.12,0.74,-0.895,0.0
8.65,0.7,-0.898,0.0
8.227,0.665,-0.901,0.0
10.523,0.846,-0.856,0.0
10.051,0.806,-0.875,0.0
9.594,0.768,-0.889,0.0
9.07,0.725,-0.893,0.0
8.584,0.685,-0.894,0.0
8.196,0.653,-0.901,0.0
10.515,0.833,-0.859,0.0
10.055,0.795,-0.879,0.0
9.572,0.756,-0.891,0.0
9.025,0.711,-0.892,0.0
8.581,0.675,-0.897,0.0
8.197,0.644,-0.903,0.0
10.468,0.817,-0.859,0.0
9.983,0.778,-0.875,0.0
9.533,0.741,-0.89,0.0
8.599,0.666,-0.901,0.0
8.17,0.632,-0.903,0.0
10.462,0.804,-0.861,0.0
9.949,0.763,-0.875,0.0
9.54,0.731,-0.893,0.0
8.958,0.685,-0.89,0.0
8.595,0.656,-0.903,0.0
8.164,0.622,-0.904,0.0
10.456,0.791,-0.863,0.0
9.975,0.753,-0.88,0.0
9.495,0.716,-0.891,0.0
8.948,0.673,-0.891,0.0
8.565,0.643,-0.902,0.0
8.146,0.61,-0.904,0.0
10.42,0.776,-0.862,0.0
9.969,0.741,-0.881,0.0
9.499,0.704,-0.893,0.0
8.962,0.663,-0.894,0.0
8.571,0.633,-0.904,0.0
8.144,0.6,-0.905,0.0
10.425,0.763,-0.864,0.0
9.943,0.726,-0.88,0.0
9.473,0.69,-0.892,0.0
8.982,0.653,-0.897,0.0
8.572,0.622,-0.905,0.0
8.153,0.59,-0.907,0.0
10.425,0.75,-0.865,0.0
9.965,0.715,-0.883,0.0
9.488,0.679,-0.894,0.0
8.97,0.641,-0.897,0.0
8.548,0.609,-0.903,0.0
8.148,0.579,-0.907,0.0
10.449,0.738,-0.868,0.0
9.958,0.702,-0.883,0.0
9.493,0.667,-0.895,0.0
8.994,0.631,-0.9,0.0
8.574,0.6,-0.906,0.0
8.158,0.569,-0.908,0.0
10.446,0.725,-0.868,0.0
9.968,0.69,-0.884,0.0
9.478,0.654,-0.894,0.0
8.957,0.617,-0.896,0.0
8.606,0.591,-0.91,0.0
8.163,0.559,-0.909,0.0
10.459,0.712,-0.869,0.0
9.976,0.677,-0.884,0.0
9.478,0.642,-0.894,0.0
8.969,0.606,-0.897,0.0
8.549,0.576,-0.903,0.0
8.166,0.548,-0.909,0.0
10.476,0.699,-0.869,0.0
10.0,0.666,-0.886,0.0
9.481,0.629,-0.893,0.0
9.044,0.599,-0.904,0.0
8.585,0.567,-0.906,0.0
8.143,0.536,-0.905,0.0
10.472,0.685,-0.868,0.0
10.02,0.653,-0.887,0.0
9.53,0.62,-0.897,0.0
9.054,0.587,-0.903,0.0
8.6,0.556,-0.906,0.0
8.182,0.527,-0.908,0.0
10.525,0.674,-0.871,0.0
10.036,0.641,-0.886,0.0
9.556,0.608,-0.897,0.0
9.067,0.575,-0.903,0.0
8.587,0.543,-0.903,0.0
8.202,0.518,-0.909,0.0
10.553,0.662,-0.871,0.0
9.998,0.625,-0.881,0.0
9.575,0.596,-0.897,0.0
9.065,0.563,-0.901,0.0
8.626,0.534,-0.906,0.0
8.204,0.507,-0.907,0.0
10.544,0.647,-0.868,0.0
10.09,0.617,-0.886,0.0
9.613,0.586,-0.898,0.0
9.128,0.554,-0.905,0.0
8.653,0.524,-0.906,0.0
8.246,0.498,-0.91,0.0
10.609,0.636,-0.87,0.0
10.136,0.606,-0.888,0.0
9.6,0.572,-0.894,0.0
9.176,0.545,-0.907,0.0
8.685,0.514,-0.907,0.0
8.281,0.488,-0.911,0.0
10.626,0.623,-0.868,0.0
10.15,0.593,-0.885,0.0
9.67,0.563,-0.897,0.0
9.18,0.532,-0.904,0.0
8.734,0.505,-0.909,0.0
8.304,0.478,-0.91,0.0
10.655,0.61,-0.866,0.0
10.2,0.582,-0.886,0.0
9.699,0.551,-0.896,0.0
9.226,0.522,-0.905,0.0
8.765,0.494,-0.908,0.0
8.334,0.468,-0.91,0.0
10.759,0.601,-0.87,0.0
10.211,0.568,-0.883,0.0
9.764,0.541,-0.898,0.0
9.297,0.513,-0.908,0.0
8.806,0.484,-0.909,0.0
8.386,0.46,-0.912,0.0
10.796,0.588,-0.868,0.0
10.255,0.556,-0.882,0.0
9.799,0.529,-0.897,0.0
9.294,0.5,-0.903,0.0
8.845,0.474,-0.908,0.0
8.405,0.449,-0.91,0.0
19.757,0.046,-0.221,23.0
19.774,0.044,-0.324,16.0
19.765,0.043,-0.425,10.0
19.765,0.041,-0.53,10.0
19.776,0.04,-0.632,9.0
19.79,0.038,-0.735,4.0
19.75,0.038,-0.181,9.0
19.75,0.036,-0.282,10.0
19.762,0.035,-0.384,8.0
19.76,0.034,-0.488,12.0
19.769,0.032,-0.59,15.0
19.811,0.031,-0.694,0.0
19.765,0.031,-0.139,5.0
19.766,0.03,-0.241,5.0
19.775,0.028,-0.343,3.0
19.781,0.027,-0.447,2.0
19.767,0.026,-0.549,6.0
19.787,0.025,-0.652,2.0
19.764,0.024,-0.098,1.0
19.789,0.023,-0.2,1.0
19.773,0.022,-0.302,2.0
19.768,0.021,-0.405,2.0
19.782,0.02,-0.508,2.0
19.801,0.019,-0.61,1.0
19.75,0.019,-0.056,16.0
19.775,0.018,-0.158,0.0
19.78,0.017,-0.26,0.0
19.768,0.016,-0.364,0.0
19.794,0.015,-0.466,0.0
19.81,0.014,-0.569,0.0
19.76,0.014,-0.014,9.0
19.772,0.013,-0.116,0.0
19.812,0.012,-0.218,0.0
19.791,0.011,-0.322,0.0
29.24,0.016,-0.626,0.0
25.812,0.013,-0.685,0.0
19.75,0.01,0.027,7.0
19.76,0.009,-0.074,2.0
19.597,0.008,-0.174,0.0
0.0,0.0,0.0,0.0
30.778,0.011,-0.594,0.0
27.363,0.009,-0.668,0.0
19.782,0.006,0.069,4.0
19.741,0.006,-0.032,10.0
19.757,0.005,-0.133,1.0
38.24,0.009,-0.459,0.0
0.0,0.0,0.0,0.0
28.488,0.005,-0.635,0.0
19.721,0.003,0.111,1.0
19.725,0.003,0.01,10.0
19.755,0.002,-0.091,2.0
19.764,0.002,-0.195,0.0
0.0,0.0,0.0,0.0
29.978,0.002,-0.603,0.0
19.781,0.001,0.154,3.0
19.739,0.001,0.052,6.0
19.74,0.001,-0.048,10.0
19.777,0.0,-0.152,1.0
0.0,0.0,0.0,0.0
0.0,0.0,0.0,0.0
19.652,0.0,0.195,14.0
19.712,0.0,0.095,2.0
19.719,0.0,-0.006,12.0
19.76,0.0,-0.109,2.0
19.708,0.0,-0.21,0.0
32.561,0.0,-0.515,0.0
19.64,0.0,0.238,15.0
19.752,0.0,0.138,2.0
19.732,0.0,0.036,7.0
19.742,0.0,-0.066,8.0
19.745,0.0,-0.168,0.0
0.0,0.0,0.0,0.0
19.633,0.0,0.28,14.0
19.654,0.0,0.179,11.0
19.71,0.0,0.078,3.0
19.726,0.0,-0.024,12.0
19.768,0.0,-0.126,2.0
38.562,0.002,-0.444,0.0
19.622,0.001,0.322,14.0
19.631,0.001,0.221,14.0
19.726,0.001,0.121,1.0
19.727,0.002,0.017,9.0
19.766,0.002,-0.083,2.0
19.804,0.002,-0.186,0.0
19.625,0.002,0.364,14.0
19.635,0.003,0.263,13.0
19.719,0.003,0.163,6.0
19.754,0.004,0.06,3.0
19.735,0.004,-0.041,10.0
19.762,0.005,-0.142,0.0
19.62,0.005,0.406,12.0
19.627,0.005,0.305,14.0
19.631,0.006,0.204,15.0
19.75,0.007,0.102,1.0
19.729,0.007,0.0,10.0
19.778,0.008,-0.1,0.0
19.615,0.008,0.448,12.0
19.617,0.009,0.347,13.0
19.626,0.009,0.246,14.0
19.794,0.01,0.144,2.0
19.79,0.011,0.042,4.0
19.748,0.012,-0.058,7.0
19.62,0.012,0.49,13.0
19.614,0.013,0.389,12.0
19.616,0.014,0.287,13.0
19.633,0.014,0.185,13.0
19.775,0.015,0.084,5.0
19.751,0.016,-0.016,12.0
19.618,0.017,0.532,13.0
19.626,0.017,0.431,12.0
19.614,0.018,0.33,15.0
19.62,0.019,0.226,16.0
19.777,0.021,0.126,2.0
19.773,0.022,0.025,4.0
19.617,0.022,0.573,14.0
19.613,0.023,0.472,13.0
19.609,0.024,0.371,14.0
19.623,0.025,0.268,14.0
19.706,0.027,0.168,10.0
19.765,0.028,0.067,9.0
19.613,0.028,0.615,12.0
19.602,0.029,0.514,13.0
19.609,0.03,0.413,12.0
19.611,0.032,0.31,16.0
19.627,0.033,0.209,16.0
19.743,0.035,0.108,18.0
19.631,0.035,0.657,13.0
19.611,0.036,0.555,13.0
19.609,0.038,0.454,13.0
19.599,0.039,0.351,16.0
19.621,0.04,0.25,13.0
19.738,0.042,0.15,17.0
19.64,0.042,0.699,12.0
19.612,0.044,0.597,12.0
19.609,0.045,0.495,13.0
19.595,0.047,0.392,12.0
19.611,0.048,0.291,12.0
19.639,0.05,0.19,13.0
19.652,0.051,0.741,14.0
19.62,0.052,0.638,12.0
19.608,0.054,0.536,13.0
19.597,0.055,0.433,14.0
19.605,0.057,0.332,13.0
19.627,0.059,0.231,14.0
19.652,0.06,0.782,24.0
19.62,0.061,0.679,11.0
19.598,0.063,0.577,13.0
19.592,0.065,0.473,17.0
19.631,0.067,0.373,20.0
19.61,0.069,0.271,13.0
19.623,0.069,0.821,12.0
19.634,0.071,0.72,11.0
19.612,0.073,0.618,11.0
19.59,0.075,0.514,16.0
19.62,0.077,0.413,26.0
19.613,0.079,0.311,15.0
19.584,0.079,0.859,18.0
19.648,0.082,0.76,15.0
19.61,0.083,0.657,10.0
19.584,0.085,0.553,14.0
19.608,0.088,0.452,25.0
19.588,0.09,0.35,17.0
19.583,0.09,0.898,20.0
19.652,0.093,0.799,15.0
19.619,0.095,0.696,10.0
19.585,0.097,0.592,14.0
19.608,0.099,0.491,19.0
19.608,0.101,0.39,26.0
19.584,0.102,0.938,15.0
19.645,0.105,0.839,8.0
19.636,0.107,0.737,9.0
19.597,0.109,0.632,12.0
19.6,0.111,0.53,23.0
19.607,0.114,0.429,29.0
19.609,0.114,0.979,10.0
19.628,0.117,0.878,8.0
19.674,0.12,0.777,7.0
19.602,0.122,0.671,12.0
19.588,0.124,0.569,17.0
19.601,0.127,0.468,16.0
19.639,0.128,1.019,2.0
19.627,0.13,0.916,9.0
114.0,0.774,4.734,30.0
19.62,0.135,0.71,10.0
19.599,0.138,0.608,14.0
19.593,0.14,0.506,16.0
113.982,0.824,6.143,28.0
19.64,0.144,0.956,0.0
113.998,0.854,4.956,18.0
19.646,0.15,0.75,7.0
19.597,0.152,0.646,12.0
19.598,0.154,0.544,13.0
0.0,0.0,0.0,0.0
0.0,0.0,0.0,0.0
0.0,0.0,0.0,0.0
19.648,0.164,0.787,1.0
19.606,0.167,0.684,10.0
19.612,0.169,0.582,10.0
122.012,1.064,7.046,12.0
0.0,0.0,0.0,0.0
0.0,0.0,0.0,0.0
186.353,1.706,7.826,19.0
19.637,0.182,0.722,8.0
19.641,0.185,0.62,11.0
122.002,1.161,7.277,26.0
0.0,0.0,0.0,0.0
0.0,0.0,0.0,0.0
0.0,0.0,0.0,0.0
19.693,0.199,0.761,4.0
19.665,0.202,0.657,11.0
122.039,1.262,7.508,12.0
121.986,1.281,6.867,7.0
0.0,0.0,0.0,0.0
186.092,2.011,8.508,4.0
185.89,2.039,7.529,12.0
19.647,0.218,0.693,11.0
0.0,0.0,0.0,0.0
121.843,1.385,7.084,21.0
122.057,1.406,6.456,8.0
0.0,0.0,0.0,0.0
84.811,1.004,3.589,3.0
19.654,0.236,0.729,9.0
84.895,1.026,5.535,0.0
121.723,1.492,7.297,16.0
84.819,1.053,4.639,33.0
84.818,1.067,4.187,51.0
84.808,1.081,3.741,53.0
84.81,1.096,3.298,28.0
84.813,1.102,5.681,47.0
84.824,1.117,5.235,53.0
84.807,1.13,4.788,36.0
84.816,1.145,4.335,13.0
121.728,1.664,5.583,13.0
121.501,1.683,4.937,1.0
129.44,1.804,8.898,3.0
135.478,1.912,8.6,10.0
121.643,1.737,7.081,23.0
122.097,1.765,6.454,23.0
121.61,1.779,5.788,25.0
121.537,1.799,5.147,22.0
129.271,1.926,9.109,24.0
129.552,1.953,8.446,8.0
121.424,1.853,7.277,23.0
121.852,1.881,6.65,26.0
121.777,1.902,6.004,23.0
121.575,1.921,5.356,22.0
129.25,2.056,9.331,14.0
129.306,2.08,8.652,20.0
121.406,1.975,7.482,14.0
121.911,2.006,6.859,18.0
55.225,0.919,2.816,19.0
55.203,0.929,2.525,39.0
55.227,0.935,4.08,34.0
55.202,0.944,3.786,53.0
55.192,0.955,3.494,69.0
55.191,0.965,3.196,71.0
55.197,0.975,2.905,72.0
55.186,0.986,2.614,72.0
55.204,0.992,4.169,70.0
55.194,1.003,3.876,60.0
55.208,1.013,3.585,55.0
55.211,1.024,3.287,44.0
55.211,1.035,2.996,22.0
55.197,1.045,2.704,8.0
129.293,2.465,9.976,19.0
129.359,2.491,9.294,21.0
129.191,2.512,8.596,20.0
133.574,2.623,8.167,4.0
122.024,2.42,6.816,19.0
121.629,2.437,6.15,11.0
129.406,2.609,10.189,7.0
129.523,2.636,9.51,15.0
129.37,2.659,8.811,19.0
129.267,2.683,8.106,20.0
129.558,2.714,7.437,14.0
121.915,2.579,6.353,8.0
0.0,0.0,0.0,0.0
129.552,2.784,9.713,8.0
127.103,2.756,8.853,24.0
134.338,2.94,8.629,13.0
133.571,2.95,7.87,13.0
121.818,2.714,6.53,7.0
0.0,0.0,0.0,0.0
0.0,0.0,0.0,0.0
127.201,2.904,9.05,21.0
121.674,2.803,7.997,16.0
133.509,3.104,8.065,26.0
129.58,3.04,7.141,10.0
0.0,0.0,0.0,0.0
0.0,0.0,0.0,0.0
127.22,3.055,9.239,26.0
121.413,2.941,8.158,23.0
121.407,2.966,7.512,18.0
134.411,3.312,7.6,18.0
0.0,0.0,0.0,0.0
0.0,0.0,0.0,0.0
127.271,3.209,9.425,24.0
121.332,3.085,8.326,13.0
0.0,0.0,0.0,0.0
0.0,0.0,0.0,0.0
0.0,0.0,0.0,0.0
0.0,0.0,0.0,0.0
127.696,3.375,9.636,2.0
41.851,1.115,2.93,4.0
41.9,1.125,2.709,36.0
41.903,1.134,2.486,94.0
0.0,0.0,0.0,0.0
0.0,0.0,0.0,0.0
0.0,0.0,0.0,0.0
40.081,1.117,2.86,62.0
40.113,1.126,2.647,127.0
40.113,1.135,2.433,147.0
0.0,0.0,0.0,0.0
0.0,0.0,0.0,0.0
0.0,0.0,0.0,0.0
40.112,1.168,2.915,114.0
40.115,1.177,2.7,150.0
40.114,1.186,2.485,116.0
0.0,0.0,0.0,0.0
0.0,0.0,0.0,0.0
0.0,0.0,0.0,0.0
40.074,1.218,2.963,74.0
40.109,1.228,2.751,150.0
40.115,1.237,2.535,142.0
0.0,0.0,0.0,0.0
0.0,0.0,0.0,0.0
0.0,0.0,0.0,0.0
40.104,1.271,3.015,7.0
40.106,1.279,2.8,137.0
40.109,1.288,2.585,127.0
0.0,0.0,0.0,0.0
0.0,0.0,0.0,0.0
0.0,0.0,0.0,0.0
128.75,4.248,9.836,5.0
40.213,1.335,2.855,111.0
40.213,1.344,2.639,150.0
0.0,0.0,0.0,0.0
0.0,0.0,0.0,0.0
0.0,0.0,0.0,0.0
0.0,0.0,0.0,0.0
40.212,1.388,2.901,135.0
40.208,1.396,2.684,150.0
0.0,0.0,0.0,0.0
0.0,0.0,0.0,0.0
0.0,0.0,0.0,0.0
0.0,0.0,0.0,0.0
40.201,1.441,2.945,89.0
40.199,1.45,2.728,140.0
0.0,0.0,0.0,0.0
0.0,0.0,0.0,0.0
0.0,0.0,0.0,0.0
0.0,0.0,0.0,0.0
40.173,1.494,2.986,39.0
41.961,1.57,2.892,37.0
0.0,0.0,0.0,0.0
0.0,0.0,0.0,0.0
0.0,0.0,0.0,0.0
0.0,0.0,0.0,0.0
40.104,1.546,3.022,3.0
40.205,1.558,2.812,106.0
0.0,0.0,0.0,0.0
0.0,0.0,0.0,0.0
0.0,0.0,0.0,0.0
0.0,0.0,0.0,0.0
0.0,0.0,0.0,0.0
40.204,1.613,2.851,141.0
0.0,0.0,0.0,0.0
0.0,0.0,0.0,0.0
0.0,0.0,0.0,0.0
0.0,0.0,0.0,0.0
0.0,0.0,0.0,0.0
40.202,1.667,2.888,150.0
0.0,0.0,0.0,0.0
23.47,0.985,2.221,0.0
23.493,0.991,2.095,0.0
23.545,0.998,1.969,0.0
23.576,1.005,1.843,6.0
40.201,1.722,2.924,13.0
23.571,1.017,2.381,33.0
23.573,1.022,2.252,38.0
23.57,1.027,2.123,40.0
23.568,1.032,1.991,41.0
23.559,1.037,1.862,42.0
23.552,1.042,1.733,53.0
23.534,1.048,2.398,74.0
23.535,1.053,2.269,75.0
23.527,1.058,2.139,75.0
23.542,1.064,2.009,72.0
23.553,1.07,1.881,72.0
23.545,1.075,1.752,72.0
23.533,1.082,2.417,79.0
23.536,1.087,2.288,76.0
23.533,1.092,2.158,68.0
23.54,1.097,2.027,62.0
23.549,1.102,1.899,50.0
23.554,1.108,1.77,48.0
23.55,1.115,2.437,48.0
23.561,1.121,2.308,43.0
23.572,1.126,2.179,38.0
23.547,1.13,2.045,27.0
23.562,1.136,1.917,16.0
23.57,1.142,1.789,7.0
23.532,1.148,2.452,0.0
23.47,1.15,2.316,0.0
0.0,0.0,0.0,0.0
0.0,0.0,0.0,0.0
0.0,0.0,0.0,0.0
0.0,0.0,0.0,0.0
0.0,0.0,0.0,0.0
0.0,0.0,0.0,0.0
0.0,0.0,0.0,0.0
0.0,0.0,0.0,0.0
0.0,0.0,0.0,0.0
0.0,0.0,0.0,0.0
0.0,0.0,0.0,0.0
0.0,0.0,0.0,0.0
0.0,0.0,0.0,0.0
0.0,0.0,0.0,0.0
0.0,0.0,0.0,0.0
0.0,0.0,0.0,0.0
0.0,0.0,0.0,0.0
0.0,0.0,0.0,0.0
0.0,0.0,0.0,0.0
0.0,0.0,0.0,0.0
0.0,0.0,0.0,0.0
0.0,0.0,0.0,0.0
0.0,0.0,0.0,0.0
0.0,0.0,0.0,0.0
0.0,0.0,0.0,0.0
0.0,0.0,0.0,0.0
0.0,0.0,0.0,0.0
0.0,0.0,0.0,0.0
0.0,0.0,0.0,0.0
0.0,0.0,0.0,0.0
0.0,0.0,0.0,0.0
0.0,0.0,0.0,0.0
0.0,0.0,0.0,0.0
0.0,0.0,0.0,0.0
0.0,0.0,0.0,0.0
0.0,0.0,0.0,0.0
0.0,0.0,0.0,0.0
0.0,0.0,0.0,0.0
0.0,0.0,0.0,0.0
0.0,0.0,0.0,0.0
0.0,0.0,0.0,0.0
0.0,0.0,0.0,0.0
0.0,0.0,0.0,0.0
0.0,0.0,0.0,0.0
0.0,0.0,0.0,0.0
0.0,0.0,0.0,0.0
0.0,0.0,0.0,0.0
0.0,0.0,0.0,0.0
0.0,0.0,0.0,0.0
0.0,0.0,0.0,0.0
0.0,0.0,0.0,0.0
0.0,0.0,0.0,0.0
0.0,0.0,0.0,0.0
0.0,0.0,0.0,0.0
0.0,0.0,0.0,0.0
0.0,0.0,0.0,0.0
0.0,0.0,0.0,0.0
0.0,0.0,0.0,0.0
100.629,6.327,10.974,5.0
100.512,6.338,10.398,6.0
100.314,6.345,9.815,7.0
100.275,6.361,9.241,9.0
100.059,6.366,8.663,14.0
99.951,6.38,8.096,21.0
99.892,6.419,10.918,35.0
99.898,6.437,10.358,36.0
99.893,6.455,9.796,36.0
99.904,6.474,9.228,37.0
99.924,6.494,8.672,37.0
99.934,6.514,8.115,31.0
99.9,6.555,10.938,36.0
99.874,6.571,10.374,35.0
99.914,6.592,9.816,36.0
99.921,6.61,9.247,38.0
99.927,6.63,8.688,37.0
99.934,6.649,8.13,33.0
99.886,6.691,10.951,36.0
99.89,6.708,10.389,39.0
99.902,6.727,9.828,38.0
99.912,6.745,9.259,37.0
99.927,6.765,8.7,35.0
99.936,6.784,8.142,37.0
99.898,6.827,10.964,36.0
99.908,6.844,10.401,37.0
99.916,6.863,9.839,35.0
99.92,6.88,9.268,36.0
99.911,6.897,8.706,35.0
99.94,6.917,8.149,35.0
99.891,6.959,10.969,35.0
99.89,6.976,10.404,35.0
99.898,6.994,9.842,34.0
99.92,7.012,9.272,38.0
99.93,7.03,8.711,36.0
99.94,7.049,8.152,35.0
99.89,7.092,10.97,37.0
99.911,7.11,10.408,34.0
99.903,7.126,9.843,34.0
99.89,7.143,9.268,38.0
99.931,7.163,8.711,35.0
99.935,7.181,8.15,37.0
99.91,7.225,10.971,35.0
99.897,7.24,10.403,33.0
99.862,7.254,9.835,21.0
99.873,7.272,9.263,17.0
99.88,7.288,8.701,12.0
99.871,7.305,8.139,8.0
99.031,7.29,10.867,5.0
99.03,7.305,10.306,7.0
99.048,7.322,9.746,8.0
99.017,7.335,9.175,10.0
98.999,7.35,8.615,11.0
99.053,7.371,8.062,10.0
98.993,7.415,10.851,44.0
99.01,7.431,10.291,51.0
99.014,7.446,9.731,52.0
99.001,7.461,9.16,45.0
99.025,7.479,8.603,35.0
99.026,7.496,8.045,33.0
98.986,7.54,10.835,26.0
94.832,7.237,9.842,3.0
94.96,7.261,9.317,1.0
94.929,7.274,8.766,1.0
94.944,7.289,8.231,3.0
94.962,7.306,7.697,3.0
94.841,7.342,10.363,10.0
94.825,7.355,9.821,13.0
94.83,7.37,9.283,14.0
94.825,7.383,8.735,16.0
94.818,7.397,8.198,17.0
94.844,7.413,7.665,26.0
94.812,7.456,10.336,36.0
94.833,7.471,9.799,36.0
94.828,7.484,9.259,25.0
94.809,7.497,8.709,19.0
94.827,7.512,8.174,18.0
94.854,7.529,7.64,15.0
94.788,7.569,10.307,4.0
94.798,7.584,9.767,6.0
94.85,7.6,9.233,3.0
94.905,7.618,8.69,3.0
94.957,7.635,8.157,3.0
94.975,7.651,7.62,1.0
98.523,7.984,10.68,9.0
98.528,7.997,10.119,8.0
98.254,7.987,9.531,9.0
97.921,7.972,8.933,8.0
97.779,7.975,8.365,9.0
97.747,7.986,7.809,9.0
96.875,7.962,10.467,9.0
96.678,7.957,9.893,8.0
96.647,7.967,9.339,9.0
96.654,7.98,8.78,10.0
96.689,7.996,8.234,11.0
96.811,8.019,7.696,12.0
0.0,0.0,0.0,0.0
87.22,7.277,8.89,1.0
87.129,7.28,8.383,1.0
87.161,7.294,7.881,1.0
87.181,7.307,7.387,1.0
87.082,7.31,6.885,2.0
87.072,7.351,9.334,8.0
87.051,7.359,8.834,9.0
87.05,7.369,8.336,8.0
87.084,7.382,7.834,9.0
87.029,7.389,7.334,11.0
87.052,7.402,6.842,11.0
87.025,7.441,9.286,48.0
87.034,7.451,8.789,57.0
87.035,7.461,8.291,55.0
87.036,7.471,7.787,66.0
87.031,7.48,7.291,69.0
87.046,7.492,6.798,52.0
87.039,7.534,9.242,12.0
87.045,7.543,8.745,32.0
87.013,7.55,8.244,11.0
87.021,7.56,7.739,11.0
87.06,7.573,7.246,11.0
87.077,7.584,6.753,12.0
0.0,0.0,0.0,0.0
87.023,7.63,8.693,7.0
0.0,0.0,0.0,0.0
83.043,7.297,7.338,1.0
82.921,7.296,6.854,1.0
83.052,7.317,6.392,2.0
82.903,7.343,8.708,4.0
82.931,7.353,8.235,6.0
82.904,7.359,7.757,5.0
82.88,7.365,7.273,5.0
82.871,7.373,6.799,6.0
82.892,7.384,6.328,7.0
82.86,7.42,8.65,18.0
82.856,7.426,8.175,23.0
82.869,7.436,7.7,22.0
82.874,7.443,7.219,28.0
82.869,7.45,6.745,31.0
82.891,7.462,6.274,46.0
82.85,7.496,8.594,40.0
82.862,7.504,8.119,44.0
82.866,7.512,7.644,43.0
82.858,7.519,7.16,42.0
82.877,7.528,6.688,34.0
82.893,7.537,6.218,34.0
82.863,7.573,8.537,8.0
82.857,7.578,8.06,9.0
82.897,7.588,7.588,8.0
82.882,7.594,7.104,9.0
82.937,7.607,6.634,10.0
82.881,7.609,6.157,49.0
82.877,7.646,8.478,2.0
82.988,7.661,8.012,3.0
82.949,7.665,7.531,3.0
83.003,7.676,7.052,3.0
82.947,7.677,6.573,5.0
82.867,7.677,6.093,129.0
85.809,7.988,8.711,8.0
85.821,7.994,8.22,8.0
85.808,7.999,7.725,8.0
85.762,8.001,7.221,9.0
85.75,8.007,6.728,6.0
82.876,7.746,6.028,150.0
85.457,8.024,8.607,12.0
85.398,8.024,8.11,11.0
85.4,8.029,7.619,10.0
85.305,8.026,7.112,12.0
85.272,8.03,6.621,10.0
82.885,7.811,5.962,150.0
84.92,8.039,8.482,10.0
84.936,8.046,7.994,11.0
84.98,8.055,7.51,10.0
84.912,8.054,7.007,11.0
84.882,8.057,6.518,11.0
82.89,7.874,5.89,108.0
83.883,8.004,8.304,7.0
84.011,8.021,7.833,7.0
84.128,8.036,7.36,7.0
84.095,8.038,6.865,10.0
84.316,8.064,6.4,8.0
82.904,7.934,5.819,19.0
83.364,8.013,8.179,8.0
83.276,8.008,7.69,9.0
83.228,8.007,7.206,9.0
83.185,8.007,6.716,10.0
83.356,8.029,6.251,5.0
83.046,8.004,5.753,7.0
83.171,8.05,8.082,7.0
83.069,8.044,7.592,7.0
82.944,8.035,7.104,9.0
82.848,8.029,6.611,8.0
82.765,8.026,6.129,7.0
82.785,8.032,5.656,7.0
75.09,7.315,7.224,2.0
75.141,7.323,6.796,2.0
75.119,7.323,6.361,1.0
75.111,7.326,5.92,1.0
75.197,7.338,5.495,1.0
75.137,7.335,5.061,2.0
75.074,7.358,7.149,4.0
75.141,7.367,6.721,4.0
75.119,7.367,6.286,3.0
75.09,7.367,5.844,3.0
75.088,7.37,5.413,3.0
75.079,7.372,4.982,3.0
75.11,7.403,7.075,8.0
75.064,7.401,6.638,8.0
75.078,7.404,6.206,6.0
75.02,7.4,5.762,6.0
75.06,7.407,5.334,6.0
75.079,7.412,4.905,6.0
75.027,7.433,6.99,14.0
75.044,7.436,6.558,15.0
75.041,7.438,6.125,13.0
75.043,7.44,5.686,12.0
75.063,7.444,5.256,12.0
75.066,7.448,4.825,12.0
75.033,7.47,6.911,34.0
75.027,7.47,6.477,37.0
75.037,7.472,6.045,31.0
75.047,7.475,5.606,27.0
75.043,7.476,5.174,28.0
75.05,7.479,4.743,24.0
75.035,7.503,6.829,68.0
75.038,7.504,6.395,56.0
75.025,7.503,5.962,68.0
75.04,7.505,5.523,54.0
75.041,7.507,5.092,57.0
75.031,7.508,4.661,61.0
75.034,7.532,6.746,37.0
75.041,7.533,6.313,44.0
75.029,7.532,5.879,53.0
75.04,7.534,5.439,59.0
75.032,7.534,5.007,81.0
75.036,7.536,4.576,91.0
75.041,7.559,6.661,19.0
75.035,7.558,6.227,36.0
75.03,7.558,5.793,28.0
75.038,7.559,5.353,36.0
75.032,7.559,4.922,41.0
75.049,7.562,4.491,42.0
75.035,7.583,6.572,14.0
75.03,7.581,6.139,42.0
75.051,7.583,5.708,16.0
75.075,7.585,5.269,20.0
75.046,7.582,4.836,23.0
75.055,7.584,4.405,24.0
75.045,7.603,6.486,10.0
75.055,7.604,6.053,41.0
75.057,7.603,5.619,10.0
75.012,7.598,5.177,12.0
75.042,7.601,4.746,14.0
75.032,7.6,4.314,22.0
75.058,7.622,6.396,9.0
75.055,7.62,5.962,9.0
75.025,7.616,5.526,8.0
75.033,7.616,5.087,9.0
75.05,7.617,4.657,10.0
75.037,7.616,4.224,76.0
75.025,7.633,6.302,12.0
75.086,7.637,5.873,6.0
75.064,7.633,5.439,7.0
75.047,7.63,4.997,8.0
75.056,7.63,4.566,8.0
75.049,7.628,4.135,100.0
75.035,7.645,6.211,150.0
75.062,7.645,5.779,6.0
75.023,7.639,5.343,6.0
75.035,7.639,4.903,7.0
75.071,7.641,4.474,7.0
75.071,7.639,4.043,38.0
75.059,7.655,6.119,150.0
75.077,7.654,5.686,6.0
75.047,7.648,5.251,4.0
75.026,7.644,4.809,6.0
75.084,7.647,4.381,8.0
75.087,7.647,3.95,9.0
75.047,7.657,6.023,112.0
75.108,7.66,5.594,5.0
75.067,7.653,5.157,5.0
75.054,7.65,4.716,6.0
75.052,7.647,4.284,15.0
75.068,7.647,3.854,7.0
75.09,7.663,5.931,9.0
75.058,7.656,5.493,4.0
75.034,7.65,5.059,6.0
75.045,7.648,4.62,7.0
75.064,7.648,4.189,88.0
75.105,7.649,3.76,7.0
75.09,7.66,5.834,5.0
75.094,7.657,5.4,5.0
75.044,7.648,4.963,5.0
75.049,7.645,4.524,8.0
75.05,7.642,4.092,79.0
75.067,7.641,3.662,8.0
75.099,7.656,5.737,4.0
75.073,7.648,5.302,6.0
75.081,7.645,4.868,6.0
75.037,7.636,4.426,8.0
75.064,7.636,3.995,13.0
75.051,7.632,3.563,11.0
75.066,7.642,5.636,6.0
75.085,7.64,5.203,7.0
75.031,7.63,4.767,8.0
75.026,7.625,4.327,14.0
75.056,7.624,3.897,10.0
75.064,7.622,3.465,13.0
75.05,7.629,5.536,7.0
75.067,7.625,5.103,9.0
75.042,7.618,4.668,11.0
75.037,7.613,4.227,54.0
75.057,7.611,3.796,15.0
75.049,7.606,3.364,19.0
75.05,7.612,5.434,10.0
75.071,7.609,5.002,11.0
75.028,7.6,4.566,17.0
75.038,7.596,4.127,33.0
75.058,7.593,3.696,22.0
75.063,7.59,3.265,33.0
75.052,7.594,5.334,17.0
75.038,7.587,4.899,26.0
75.038,7.581,4.466,29.0
75.033,7.575,4.027,37.0
75.062,7.573,3.597,52.0
75.054,7.568,3.166,105.0
75.036,7.57,5.232,30.0
75.048,7.564,4.8,48.0
75.043,7.558,4.367,63.0
75.044,7.552,3.927,90.0
75.046,7.547,3.496,125.0
75.049,7.543,3.065,134.0
75.034,7.544,5.131,78.0
75.043,7.538,4.699,109.0
75.043,7.532,4.266,116.0
75.04,7.525,3.826,99.0
75.049,7.52,3.395,42.0
75.052,7.515,2.964,9.0
75.05,7.516,5.03,44.0
75.045,7.508,4.597,44.0
75.079,7.505,4.166,37.0
75.059,7.497,3.726,29.0
75.056,7.49,3.295,21.0
74.987,7.478,2.86,1.0
75.06,7.485,4.929,24.0
75.045,7.475,4.496,16.0
75.06,7.47,4.063,14.0
75.066,7.464,3.624,14.0
75.101,7.46,3.194,10.0
65.389,6.49,2.405,2.0
75.052,7.448,4.826,10.0
75.069,7.442,4.395,9.0
75.085,7.435,3.964,7.0
75.086,7.429,3.524,8.0
75.157,7.429,3.096,4.0
65.733,6.491,2.331,5.0
75.061,7.41,4.725,6.0
75.096,7.405,4.294,4.0
75.122,7.399,3.864,3.0
75.106,7.39,3.424,3.0
75.162,7.388,2.994,1.0
66.089,6.49,2.253,8.0
75.167,7.377,4.63,2.0
75.086,7.361,4.192,2.0
75.225,7.366,3.767,1.0
75.254,7.361,3.328,1.0
82.725,8.083,3.183,1.0
66.451,6.486,2.175,7.0
83.223,8.117,5.013,3.0
83.216,8.107,4.533,6.0
82.888,8.065,4.038,25.0
83.327,8.098,3.572,9.0
83.089,8.066,3.085,3.0
66.898,6.487,2.1,6.0
83.487,8.088,4.915,9.0
83.741,8.102,4.448,10.0
82.912,8.012,3.927,29.0
84.104,8.117,3.492,10.0
67.301,6.488,2.408,5.0
67.466,6.496,2.026,7.0
83.801,8.06,4.82,9.0
84.135,8.081,4.355,5.0
83.048,7.966,3.821,7.0
84.567,8.101,3.397,9.0
67.834,6.49,2.336,7.0
67.996,6.498,1.952,9.0
84.321,8.048,4.737,9.0
82.929,7.903,4.181,8.0
84.676,8.059,3.783,6.0
84.968,8.076,3.299,9.0
68.395,6.492,2.263,8.0
68.594,6.503,1.877,7.0
85.247,8.069,4.673,11.0
82.911,7.836,4.068,55.0
85.528,8.071,3.706,10.0
85.646,8.072,3.211,9.0
68.98,6.492,2.19,9.0
69.154,6.499,1.799,8.0
82.997,7.787,4.439,1.0
82.972,7.772,3.96,9.0
83.024,7.765,3.486,1.0
69.481,6.489,2.512,1.0
69.699,6.5,2.12,10.0
69.864,6.506,1.725,10.0
82.921,7.707,4.323,32.0
83.005,7.703,3.851,4.0
82.988,7.689,3.374,4.0
70.152,6.489,2.443,4.0
70.391,6.502,2.048,9.0
70.583,6.51,1.65,10.0
82.901,7.629,4.212,43.0
82.924,7.618,3.737,15.0
82.914,7.604,3.261,23.0
70.928,6.495,2.376,9.0
71.118,6.501,1.975,11.0
71.296,6.507,1.572,9.0
82.91,7.55,4.102,113.0
82.926,7.537,3.628,128.0
82.927,7.525,3.152,46.0
71.741,6.499,2.309,10.0
71.937,6.506,1.904,9.0
72.112,6.511,1.496,9.0
82.914,7.467,3.995,13.0
82.964,7.459,3.522,10.0
82.952,7.444,3.046,6.0
72.514,6.495,2.241,8.0
72.727,6.504,1.831,7.0
72.906,6.508,1.419,9.0
82.964,7.386,3.89,3.0
82.963,7.372,3.415,3.0
83.203,7.379,2.948,1.0
73.328,6.491,2.172,10.0
73.583,6.502,1.758,9.0
73.742,6.504,1.341,12.0
87.066,7.657,3.971,6.0
87.098,7.644,3.473,9.0
87.039,7.624,2.973,4.0
74.235,6.49,2.103,9.0
74.498,6.5,1.685,9.0
74.687,6.504,1.262,10.0
87.079,7.56,3.86,66.0
87.089,7.545,3.363,150.0
75.137,6.496,2.471,6.0
75.353,6.502,2.04,8.0
75.452,6.497,1.612,7.0
40.083,3.444,0.627,19.0
40.085,3.433,1.726,9.0
40.08,3.425,1.497,72.0
40.092,3.419,1.268,147.0
40.092,3.411,1.035,124.0
40.104,3.405,0.806,99.0
40.103,3.398,0.577,104.0
40.089,3.385,1.676,150.0
40.097,3.378,1.447,122.0
40.086,3.369,1.218,134.0
40.1,3.363,0.985,109.0
40.109,3.356,0.757,102.0
40.105,3.349,0.528,102.0
40.094,3.336,1.627,150.0
40.094,3.327,1.398,130.0
40.088,3.319,1.169,145.0
40.091,3.311,0.936,150.0
40.093,3.304,0.708,150.0
40.107,3.298,0.479,120.0
40.094,3.283,1.579,150.0
40.101,3.276,1.35,118.0
40.092,3.268,1.121,131.0
40.101,3.26,0.889,114.0
40.076,3.25,0.659,74.0
41.915,3.392,0.451,2.0
41.883,3.375,1.599,4.0
0.0,0.0,0.0,0.0
41.89,3.358,1.121,108.0
41.893,3.349,0.878,110.0
41.906,3.342,0.64,118.0
41.902,3.334,0.401,116.0
41.893,3.318,1.55,139.0
41.902,3.31,1.311,119.0
41.895,3.3,1.072,114.0
41.9,3.292,0.83,121.0
41.896,3.283,0.591,119.0
41.903,3.275,0.353,140.0
41.894,3.26,1.502,109.0
41.887,3.25,1.263,9.0
0.0,0.0,0.0,0.0
43.69,3.371,0.816,122.0
43.707,3.363,0.567,127.0
43.7,3.354,0.319,150.0
43.686,3.336,1.517,150.0
43.684,3.327,1.268,145.0
43.698,3.318,1.019,131.0
43.688,3.307,0.766,139.0
43.693,3.299,0.518,135.0
43.688,3.289,0.27,150.0
43.682,3.272,1.467,136.0
43.673,3.261,1.219,82.0
43.697,3.253,0.971,7.0
0.0,0.0,0.0,0.0
45.478,3.366,0.49,83.0
40.368,2.979,0.205,70.0
45.472,3.338,1.479,150.0
40.374,2.954,1.083,114.0
40.372,2.945,0.854,76.0
40.396,2.938,0.621,79.0
40.681,2.949,0.394,134.0
40.692,2.941,0.164,68.0
45.465,3.268,1.43,10.0
41.234,2.954,1.063,71.0
41.176,2.94,0.827,79.0
41.59,2.96,0.596,90.0
41.899,2.973,0.363,131.0
41.813,2.957,0.125,16.0
41.969,2.952,1.277,35.0
42.026,2.945,1.04,90.0
41.227,2.88,0.786,16.0
41.575,2.894,0.553,150.0
42.835,2.971,0.327,69.0
42.201,2.917,0.083,13.0
43.23,2.971,1.271,40.0
43.426,2.973,1.031,86.0
43.596,2.974,0.787,78.0
43.659,2.968,0.537,51.0
44.257,2.998,0.294,32.0
42.306,2.856,0.041,4.0
44.349,2.975,1.26,55.0
44.663,2.984,1.015,100.0
44.965,2.993,0.768,132.0
45.171,2.996,0.511,129.0
45.185,2.986,0.256,83.0
45.008,2.964,0.0,9.0
45.222,2.959,1.241,107.0
45.198,2.945,0.985,89.0
45.187,2.933,0.729,4.0
99.701,6.448,1.035,9.0
45.162,2.909,0.213,88.0
45.182,2.899,-0.041,6.0
112.282,7.158,2.978,1.0
112.418,7.137,2.346,70.0
99.685,6.304,1.517,9.0
45.201,2.846,0.427,4.0
45.184,2.834,0.172,50.0
40.328,2.519,-0.073,46.0
45.208,2.804,1.158,5.0
132.93,8.211,2.655,15.0
99.788,6.137,1.429,7.0
112.49,6.888,0.964,10.0
45.168,2.754,0.132,47.0
40.324,2.449,-0.109,46.0
111.984,6.752,2.771,15.0
112.003,6.722,2.139,42.0
45.213,2.701,0.608,150.0
45.21,2.689,0.348,150.0
45.168,2.675,0.093,45.0
40.324,2.377,-0.143,46.0
45.217,2.645,1.08,1.0
0.0,0.0,0.0,0.0
113.587,6.583,1.431,15.0
57.042,3.291,0.392,13.0
45.171,2.593,0.055,47.0
40.327,2.305,-0.177,41.0
45.214,2.563,1.042,16.0
45.208,2.551,0.788,88.0
45.222,2.539,0.533,3.0
55.386,3.095,0.336,1.0
45.169,2.512,0.019,38.0
40.324,2.231,-0.209,40.0
0.0,0.0,0.0,0.0
99.407,5.427,1.654,3.0
45.218,2.455,0.497,3.0
45.209,2.442,0.238,42.0
45.181,2.428,-0.015,21.0
40.263,2.153,-0.24,67.0
45.187,2.396,0.972,0.0
100.09,5.279,1.59,1.0
99.76,5.232,1.023,19.0
45.179,2.357,0.205,16.0
45.209,2.345,-0.048,5.0
39.788,2.053,-0.266,15.0
45.222,2.313,0.94,76.0
45.218,2.3,0.685,98.0
45.212,2.286,0.431,1.0
45.176,2.271,0.173,52.0
40.318,2.015,-0.072,40.0
37.678,1.873,-0.278,2.0
23.623,1.163,0.474,3.0
23.617,1.156,0.341,15.0
23.643,1.15,0.209,32.0
23.63,1.142,0.074,39.0
23.615,1.135,-0.058,39.0
23.623,1.128,-0.19,42.0
23.595,1.116,0.458,54.0
23.591,1.109,0.325,60.0
23.592,1.102,0.193,62.0
23.604,1.096,0.058,62.0
23.603,1.089,-0.073,71.0
23.609,1.082,-0.205,69.0
23.592,1.07,0.443,77.0
23.588,1.063,0.31,69.0
23.59,1.056,0.178,57.0
23.601,1.049,0.044,49.0
23.614,1.043,-0.087,43.0
23.621,1.036,-0.22,45.0
23.622,1.025,0.429,46.0
23.64,1.019,0.297,36.0
23.631,1.011,0.165,27.0
45.176,1.92,0.058,12.0
40.319,1.702,-0.173,25.0
34.783,1.457,-0.344,1.0
100.492,4.164,1.77,21.0
40.381,1.661,0.485,12.0
40.385,1.649,0.26,153.0
40.338,1.634,0.03,150.0
40.336,1.621,-0.195,95.0
40.443,1.613,-0.421,0.0
40.394,1.593,0.69,150.0
41.461,1.622,0.476,150.0
41.827,1.624,0.247,111.0
40.447,1.557,0.009,15.0
41.086,1.569,-0.219,2.0
33.461,1.268,-0.365,0.0
43.47,1.627,0.721,85.0
44.675,1.658,0.492,150.0
44.966,1.655,0.244,150.0
40.11,1.463,-0.009,7.0
40.01,1.447,-0.233,40.0
40.175,1.44,-0.457,1.0
162.062,5.739,2.613,16.0
71.001,2.492,0.749,23.0
64.039,2.227,0.319,9.0
40.129,1.383,-0.027,150.0
40.032,1.366,-0.25,31.0
40.125,1.358,-0.474,1.0
40.122,1.339,0.63,112.0
40.127,1.327,0.407,139.0
40.116,1.313,0.183,142.0
40.121,1.301,-0.043,150.0
40.012,1.284,-0.266,18.0
40.194,1.278,-0.491,2.0
40.125,1.257,0.614,150.0
40.13,1.244,0.391,117.0
40.133,1.232,0.168,116.0
40.113,1.218,-0.058,150.0
39.969,1.2,-0.28,11.0
40.179,1.194,-0.505,0.0
40.121,1.174,0.6,150.0
0.0,0.0,0.0,0.0
41.933,1.199,0.161,159.0
40.135,1.135,-0.072,155.0
39.933,1.116,-0.293,7.0
32.028,0.884,-0.413,0.0
0.0,0.0,0.0,0.0
0.0,0.0,0.0,0.0
43.702,1.158,0.154,30.0
0.0,0.0,0.0,0.0
39.698,1.026,-0.303,4.0
31.618,0.807,-0.417,1.0
70.818,1.777,1.016,5.0
70.74,1.751,0.623,26.0
45.592,1.113,0.149,17.0
0.0,0.0,0.0,0.0
38.497,0.914,-0.304,1.0
31.566,0.739,-0.424,0.0
128.671,2.959,1.815,28.0
70.85,1.605,0.607,4.0
0.0,0.0,0.0,0.0
48.135,1.058,-0.125,0.0
38.513,0.834,-0.313,3.0
31.834,0.678,-0.435,1.0
162.777,3.4,2.263,13.0
113.878,2.341,0.953,9.0
0.0,0.0,0.0,0.0
47.982,0.953,-0.133,1.0
39.368,0.768,-0.327,0.0
31.422,0.602,-0.435,0.0
55.179,1.035,0.757,62.0
55.159,1.016,0.452,73.0
55.15,0.996,0.147,84.0
52.418,0.93,-0.154,1.0
0.0,0.0,0.0,0.0
34.849,0.594,-0.487,0.0
55.198,0.918,0.75,2.0
160.718,2.617,1.297,8.0
0.0,0.0,0.0,0.0
46.637,0.727,-0.142,1.0
19.682,0.3,-0.168,4.0
19.665,0.292,-0.277,15.0
19.738,0.286,0.266,13.0
19.773,0.279,0.157,10.0
0.0,0.0,0.0,0.0
19.652,0.264,-0.061,10.0
19.648,0.257,-0.17,16.0
19.662,0.25,-0.278,20.0
19.737,0.244,0.265,14.0
19.766,0.237,0.156,26.0
19.686,0.229,0.047,9.0
19.632,0.222,-0.062,13.0
19.63,0.215,-0.17,16.0
19.658,0.208,-0.279,16.0
19.694,0.201,0.264,8.0
19.67,0.194,0.155,11.0
19.65,0.186,0.047,14.0
19.642,0.179,-0.062,13.0
19.646,0.173,-0.17,14.0
19.706,0.166,-0.279,2.0
19.647,0.158,0.263,11.0
19.656,0.151,0.155,15.0
19.641,0.144,0.047,15.0
19.671,0.137,-0.062,9.0
19.681,0.131,-0.17,0.0
32.818,0.206,-0.464,0.0
19.623,0.116,0.264,14.0
19.658,0.109,0.156,13.0
19.669,0.102,0.049,10.0
19.753,0.095,-0.061,6.0
19.771,0.088,-0.169,20.0
19.776,0.082,-0.278,35.0
19.617,0.074,0.266,14.0
19.689,0.067,0.159,13.0
19.755,0.06,0.051,35.0
19.731,0.053,-0.058,55.0
19.753,0.046,-0.167,12.0
19.756,0.039,-0.275,10.0
