X,Y,Z,Reflectivity
0.0,0.0,0.0,0.0
0.0,0.0,0.0,0.0
55.249,0.602,6.705,12.0
0.0,0.0,0.0,0.0
0.0,0.0,0.0,0.0
0.0,0.0,0.0,0.0
0.0,0.0,0.0,0.0
0.0,0.0,0.0,0.0
0.0,0.0,0.0,0.0
0.0,0.0,0.0,0.0
0.0,0.0,0.0,0.0
0.0,0.0,0.0,0.0
0.0,0.0,0.0,0.0
0.0,0.0,0.0,0.0
0.0,0.0,0.0,0.0
55.233,0.738,6.428,20.0
0.0,0.0,0.0,0.0
0.0,0.0,0.0,0.0
0.0,0.0,0.0,0.0
0.0,0.0,0.0,0.0
0.0,0.0,0.0,0.0
55.227,0.801,6.44,44.0
0.0,0.0,0.0,0.0
0.0,0.0,0.0,0.0
0.0,0.0,0.0,0.0
0.0,0.0,0.0,0.0
0.0,0.0,0.0,0.0
55.205,0.864,6.448,2.0
55.239,0.875,6.143,9.0
0.0,0.0,0.0,0.0
0.0,0.0,0.0,0.0
0.0,0.0,0.0,0.0
0.0,0.0,0.0,0.0
0.0,0.0,0.0,0.0
55.23,0.939,6.149,63.0
0.0,0.0,0.0,0.0
0.0,0.0,0.0,0.0
0.0,0.0,0.0,0.0
0.0,0.0,0.0,0.0
0.0,0.0,0.0,0.0
0.0,0.0,0.0,0.0
0.0,0.0,0.0,0.0
0.0,0.0,0.0,0.0
0.0,0.0,0.0,0.0
0.0,0.0,0.0,0.0
0.0,0.0,0.0,0.0
0.0,0.0,0.0,0.0
0.0,0.0,0.0,0.0
0.0,0.0,0.0,0.0
0.0,0.0,0.0,0.0
0.0,0.0,0.0,0.0
0.0,0.0,0.0,0.0
0.0,0.0,0.0,0.0
0.0,0.0,0.0,0.0
0.0,0.0,0.0,0.0
0.0,0.0,0.0,0.0
0.0,0.0,0.0,0.0
0.0,0.0,0.0,0.0
0.0,0.0,0.0,0.0
0.0,0.0,0.0,0.0
0.0,0.0,0.0,0.0
0.0,0.0,0.0,0.0
0.0,0.0,0.0,0.0
0.0,0.0,0.0,0.0
0.0,0.0,0.0,0.0
0.0,0.0,0.0,0.0
0.0,0.0,0.0,0.0
0.0,0.0,0.0,0.0
0.0,0.0,0.0,0.0
0.0,0.0,0.0,0.0
0.0,0.0,0.0,0.0
0.0,0.0,0.0,0.0
0.0,0.0,0.0,0.0
0.0,0.0,0.0,0.0
0.0,0.0,0.0,0.0
0.0,0.0,0.0,0.0
0.0,0.0,0.0,0.0
0.0,0.0,0.0,0.0
0.0,0.0,0.0,0.0
0.0,0.0,0.0,0.0
0.0,0.0,0.0,0.0
0.0,0.0,0.0,0.0
0.0,0.0,0.0,0.0
0.0,0.0,0.0,0.0
0.0,0.0,0.0,0.0
0.0,0.0,0.0,0.0
0.0,0.0,0.0,0.0
0.0,0.0,0.0,0.0
0.0,0.0,0.0,0.0
0.0,0.0,0.0,0.0
0.0,0.0,0.0,0.0
0.0,0.0,0.0,0.0
0.0,0.0,0.0,0.0
0.0,0.0,0.0,0.0
0.0,0.0,0.0,0.0
0.0,0.0,0.0,0.0
0.0,0.0,0.0,0.0
0.0,0.0,0.0,0.0
0.0,0.0,0.0,0.0
0.0,0.0,0.0,0.0
0.0,0.0,0.0,0.0
0.0,0.0,0.0,0.0
0.0,0.0,0.0,0.0
0.0,0.0,0.0,0.0
0.0,0.0,0.0,0.0
0.0,0.0,0.0,0.0
0.0,0.0,0.0,0.0
0.0,0.0,0.0,0.0
0.0,0.0,0.0,0.0
0.0,0.0,0.0,0.0
0.0,0.0,0.0,0.0
0.0,0.0,0.0,0.0
0.0,0.0,0.0,0.0
0.0,0.0,0.0,0.0
0.0,0.0,0.0,0.0
0.0,0.0,0.0,0.0
0.0,0.0,0.0,0.0
0.0,0.0,0.0,0.0
0.0,0.0,0.0,0.0
0.0,0.0,0.0,0.0
0.0,0.0,0.0,0.0
0.0,0.0,0.0,0.0
0.0,0.0,0.0,0.0
0.0,0.0,0.0,0.0
0.0,0.0,0.0,0.0
0.0,0.0,0.0,0.0
0.0,0.0,0.0,0.0
0.0,0.0,0.0,0.0
0.0,0.0,0.0,0.0
0.0,0.0,0.0,0.0
0.0,0.0,0.0,0.0
0.0,0.0,0.0,0.0
0.0,0.0,0.0,0.0
0.0,0.0,0.0,0.0
0.0,0.0,0.0,0.0
0.0,0.0,0.0,0.0
0.0,0.0,0.0,0.0
0.0,0.0,0.0,0.0
0.0,0.0,0.0,0.0
0.0,0.0,0.0,0.0
0.0,0.0,0.0,0.0
0.0,0.0,0.0,0.0
0.0,0.0,0.0,0.0
0.0,0.0,0.0,0.0
0.0,0.0,0.0,0.0
0.0,0.0,0.0,0.0
0.0,0.0,0.0,0.0
0.0,0.0,0.0,0.0
0.0,0.0,0.0,0.0
0.0,0.0,0.0,0.0
0.0,0.0,0.0,0.0
0.0,0.0,0.0,0.0
0.0,0.0,0.0,0.0
0.0,0.0,0.0,0.0
0.0,0.0,0.0,0.0
0.0,0.0,0.0,0.0
0.0,0.0,0.0,0.0
0.0,0.0,0.0,0.0
0.0,0.0,0.0,0.0
0.0,0.0,0.0,0.0
0.0,0.0,0.0,0.0
0.0,0.0,0.0,0.0
0.0,0.0,0.0,0.0
0.0,0.0,0.0,0.0
0.0,0.0,0.0,0.0
0.0,0.0,0.0,0.0
0.0,0.0,0.0,0.0
0.0,0.0,0.0,0.0
0.0,0.0,0.0,0.0
0.0,0.0,0.0,0.0
0.0,0.0,0.0,0.0
0.0,0.0,0.0,0.0
0.0,0.0,0.0,0.0
0.0,0.0,0.0,0.0
0.0,0.0,0.0,0.0
0.0,0.0,0.0,0.0
0.0,0.0,0.0,0.0
0.0,0.0,0.0,0.0
0.0,0.0,0.0,0.0
23.522,0.991,3.04,0.0
23.477,0.991,2.897,0.0
23.464,0.992,2.76,0.0
23.511,0.996,2.627,0.0
23.568,1.001,2.497,0.0
23.583,1.004,2.363,1.0
23.552,1.011,3.021,19.0
23.539,1.012,2.882,23.0
23.542,1.014,2.746,26.0
23.552,1.017,2.608,30.0
23.559,1.019,2.473,36.0
23.56,1.021,2.337,40.0
23.544,1.029,2.996,37.0
23.537,1.03,2.858,37.0
23.543,1.033,2.722,38.0
23.544,1.034,2.583,39.0
23.537,1.036,2.446,44.0
23.54,1.038,2.311,50.0
23.52,1.046,2.968,67.0
23.516,1.047,2.831,67.0
23.519,1.049,2.695,63.0
23.522,1.05,2.556,68.0
23.533,1.053,2.421,73.0
23.538,1.055,2.286,73.0
23.513,1.062,2.942,72.0
23.521,1.064,2.806,69.0
23.516,1.065,2.668,66.0
23.52,1.067,2.53,69.0
23.529,1.069,2.395,71.0
23.535,1.071,2.26,71.0
23.512,1.079,2.915,73.0
23.514,1.08,2.779,71.0
23.515,1.081,2.642,72.0
23.522,1.083,2.504,75.0
23.535,1.085,2.37,74.0
23.534,1.087,2.233,71.0
23.516,1.094,2.889,57.0
23.517,1.095,2.752,52.0
23.528,1.097,2.616,49.0
23.524,1.098,2.477,52.0
23.534,1.1,2.342,51.0
23.533,1.101,2.206,50.0
23.534,1.11,2.863,45.0
23.541,1.111,2.727,43.0
23.54,1.112,2.59,41.0
23.543,1.114,2.451,43.0
23.561,1.116,2.317,44.0
23.561,1.117,2.181,45.0
23.525,1.123,2.834,25.0
23.524,1.124,2.696,24.0
23.528,1.126,2.56,21.0
23.529,1.127,2.421,22.0
23.543,1.129,2.286,20.0
23.549,1.13,2.15,20.0
23.546,1.138,2.807,2.0
23.525,1.138,2.667,2.0
23.534,1.139,2.531,2.0
23.535,1.14,2.392,2.0
23.57,1.143,2.259,2.0
23.574,1.144,2.123,1.0
0.0,0.0,0.0,0.0
23.335,1.141,2.615,0.0
0.0,0.0,0.0,0.0
0.0,0.0,0.0,0.0
23.569,1.155,2.228,0.0
23.506,1.153,2.086,0.0
0.0,0.0,0.0,0.0
0.0,0.0,0.0,0.0
0.0,0.0,0.0,0.0
0.0,0.0,0.0,0.0
0.0,0.0,0.0,0.0
0.0,0.0,0.0,0.0
0.0,0.0,0.0,0.0
0.0,0.0,0.0,0.0
0.0,0.0,0.0,0.0
0.0,0.0,0.0,0.0
0.0,0.0,0.0,0.0
0.0,0.0,0.0,0.0
19.648,-0.032,0.251,14.0
19.7,-0.038,0.14,17.0
19.706,-0.044,0.028,16.0
19.718,-0.05,-0.085,13.0
19.737,-0.057,-0.197,15.0
19.762,-0.063,-0.31,15.0
19.693,-0.069,0.231,15.0
19.696,-0.075,0.119,14.0
19.702,-0.081,0.007,15.0
19.697,-0.087,-0.106,16.0
19.723,-0.094,-0.218,16.0
19.746,-0.1,-0.33,14.0
19.73,-0.106,0.21,13.0
19.736,-0.112,0.098,9.0
19.731,-0.119,-0.013,10.0
19.709,-0.125,-0.126,16.0
19.732,-0.131,-0.238,17.0
19.731,-0.138,-0.35,17.0
165.33,-1.204,1.6,9.0
0.0,0.0,0.0,0.0
19.776,-0.157,-0.032,2.0
19.748,-0.163,-0.146,12.0
19.752,-0.169,-0.258,13.0
19.757,-0.175,-0.37,13.0
160.673,-1.479,1.397,11.0
0.0,0.0,0.0,0.0
0.0,0.0,0.0,0.0
0.0,0.0,0.0,0.0
0.0,0.0,0.0,0.0
29.886,-0.324,-0.589,0.0
19.761,-0.22,0.153,0.0
0.0,0.0,0.0,0.0
0.0,0.0,0.0,0.0
0.0,0.0,0.0,0.0
34.784,-0.433,-0.521,0.0
29.398,-0.376,-0.607,0.0
19.756,-0.258,0.135,26.0
0.0,0.0,0.0,0.0
0.0,0.0,0.0,0.0
0.0,0.0,0.0,0.0
0.0,0.0,0.0,0.0
28.513,-0.42,-0.613,0.0
19.754,-0.296,0.118,20.0
0.0,0.0,0.0,0.0
48.57,-0.763,-0.258,0.0
0.0,0.0,0.0,0.0
32.019,-0.524,-0.535,0.0
28.022,-0.468,-0.627,0.0
0.0,0.0,0.0,0.0
0.0,0.0,0.0,0.0
0.0,0.0,0.0,0.0
37.752,-0.68,-0.449,0.0
31.929,-0.586,-0.56,0.0
27.697,-0.518,-0.642,0.0
0.0,0.0,0.0,0.0
0.0,0.0,0.0,0.0
0.0,0.0,0.0,0.0
0.0,0.0,0.0,0.0
30.958,-0.63,-0.567,0.0
21.739,-0.45,-0.521,150.0
0.0,0.0,0.0,0.0
0.0,0.0,0.0,0.0
0.0,0.0,0.0,0.0
35.319,-0.777,-0.474,0.0
30.116,-0.673,-0.574,0.0
21.73,-0.493,-0.536,56.0
0.0,0.0,0.0,0.0
0.0,0.0,0.0,0.0
0.0,0.0,0.0,0.0
0.0,0.0,0.0,0.0
0.0,0.0,0.0,0.0
26.327,-0.65,-0.668,0.0
0.0,0.0,0.0,0.0
0.0,0.0,0.0,0.0
0.0,0.0,0.0,0.0
35.011,-0.911,-0.518,0.0
29.51,-0.778,-0.603,0.0
25.792,-0.689,-0.672,0.0
0.0,0.0,0.0,0.0
0.0,0.0,0.0,0.0
0.0,0.0,0.0,0.0
33.453,-0.937,-0.516,0.0
29.065,-0.824,-0.612,0.0
25.194,-0.724,-0.672,0.0
0.0,0.0,0.0,0.0
0.0,0.0,0.0,0.0
0.0,0.0,0.0,0.0
0.0,0.0,0.0,0.0
28.904,-0.878,-0.625,0.0
24.89,-0.765,-0.678,0.0
0.0,0.0,0.0,0.0
0.0,0.0,0.0,0.0
39.981,-1.267,-0.435,0.0
31.967,-1.024,-0.53,0.0
28.55,-0.925,-0.633,0.0
24.911,-0.816,-0.692,0.0
0.0,0.0,0.0,0.0
0.0,0.0,0.0,0.0
0.0,0.0,0.0,0.0
31.614,-1.077,-0.541,0.0
28.268,-0.973,-0.642,0.0
24.645,-0.857,-0.698,0.0
0.0,0.0,0.0,0.0
0.0,0.0,0.0,0.0
38.549,-1.377,-0.458,0.0
31.753,-1.145,-0.558,0.0
27.912,-1.017,-0.647,0.0
24.484,-0.901,-0.704,0.0
0.0,0.0,0.0,0.0
0.0,0.0,0.0,0.0
38.809,-1.464,-0.478,0.0
31.357,-1.195,-0.565,0.0
27.311,-1.05,-0.645,0.0
24.189,-0.939,-0.706,0.0
0.0,0.0,0.0,0.0
0.0,0.0,0.0,0.0
0.0,0.0,0.0,0.0
31.222,-1.252,-0.575,0.0
27.015,-1.094,-0.649,0.0
24.116,-0.985,-0.714,0.0
0.0,0.0,0.0,0.0
0.0,0.0,0.0,0.0
37.146,-1.552,-0.487,0.0
31.236,-1.316,-0.587,0.0
27.244,-1.158,-0.664,0.0
23.874,-1.024,-0.715,0.0
0.0,0.0,0.0,0.0
0.0,0.0,0.0,0.0
0.0,0.0,0.0,0.0
30.106,-1.33,-0.576,0.0
27.038,-1.204,-0.668,0.0
23.576,-1.058,-0.714,0.0
0.0,0.0,0.0,0.0
43.217,-1.965,-0.353,0.0
36.441,-1.67,-0.5,0.0
0.0,0.0,0.0,0.0
26.981,-1.256,-0.674,0.0
23.53,-1.104,-0.719,0.0
0.0,0.0,0.0,0.0
0.0,0.0,0.0,0.0
35.21,-1.685,-0.493,0.0
30.054,-1.449,-0.591,0.0
26.625,-1.293,-0.671,0.0
23.174,-1.134,-0.713,0.0
0.0,0.0,0.0,0.0
42.967,-2.127,-0.372,0.0
34.493,-1.72,-0.49,0.0
0.0,0.0,0.0,0.0
26.074,-1.32,-0.663,0.0
23.162,-1.181,-0.718,0.0
0.0,0.0,0.0,0.0
43.831,-2.258,-0.387,0.0
35.308,-1.831,-0.508,0.0
30.001,-1.567,-0.601,0.0
26.359,-1.386,-0.675,0.0
23.329,-1.235,-0.726,0.0
0.0,0.0,0.0,0.0
0.0,0.0,0.0,0.0
35.024,-1.886,-0.508,0.0
30.176,-1.636,-0.609,0.0
26.246,-1.433,-0.675,0.0
23.079,-1.268,-0.722,0.0
0.0,0.0,0.0,0.0
0.0,0.0,0.0,0.0
0.0,0.0,0.0,0.0
0.0,0.0,0.0,0.0
26.374,-1.492,-0.681,0.0
22.97,-1.308,-0.72,0.0
0.0,0.0,0.0,0.0
42.295,-2.429,-0.387,0.0
0.0,0.0,0.0,0.0
30.289,-1.762,-0.615,0.0
26.189,-1.533,-0.677,0.0
23.028,-1.356,-0.723,0.0
0.0,0.0,0.0,0.0
0.0,0.0,0.0,0.0
0.0,0.0,0.0,0.0
30.122,-1.811,-0.613,0.0
0.0,0.0,0.0,0.0
22.932,-1.396,-0.72,0.0
0.0,0.0,0.0,0.0
42.414,-2.603,-0.389,0.0
34.757,-2.145,-0.511,0.0
0.0,0.0,0.0,0.0
26.398,-1.649,-0.682,0.0
23.054,-1.449,-0.723,0.0
0.0,0.0,0.0,0.0
0.0,0.0,0.0,0.0
35.207,-2.242,-0.515,0.0
29.441,-1.885,-0.596,0.0
25.412,-1.636,-0.655,0.0
23.065,-1.494,-0.722,0.0
0.0,0.0,0.0,0.0
0.0,0.0,0.0,0.0
0.0,0.0,0.0,0.0
30.353,-2.002,-0.612,0.0
26.44,-1.753,-0.679,0.0
23.11,-1.541,-0.721,0.0
0.0,0.0,0.0,0.0
0.0,0.0,0.0,0.0
0.0,0.0,0.0,0.0
0.0,0.0,0.0,0.0
0.0,0.0,0.0,0.0
23.06,-1.581,-0.716,0.0
0.0,0.0,0.0,0.0
0.0,0.0,0.0,0.0
35.984,-2.496,-0.513,0.0
0.0,0.0,0.0,0.0
0.0,0.0,0.0,0.0
23.224,-1.636,-0.717,0.0
0.0,0.0,0.0,0.0
0.0,0.0,0.0,0.0
0.0,0.0,0.0,0.0
30.566,-2.188,-0.6,0.0
26.852,-1.932,-0.675,0.0
23.316,-1.686,-0.714,0.0
0.0,0.0,0.0,0.0
0.0,0.0,0.0,0.0
0.0,0.0,0.0,0.0
0.0,0.0,0.0,0.0
27.609,-2.037,-0.687,0.0
23.804,-1.765,-0.723,0.0
0.0,0.0,0.0,0.0
0.0,0.0,0.0,0.0
36.68,-2.748,-0.497,0.0
31.135,-2.344,-0.595,0.0
27.056,-2.046,-0.666,0.0
24.12,-1.833,-0.726,0.0
0.0,0.0,0.0,0.0
0.0,0.0,0.0,0.0
37.05,-2.843,-0.49,0.0
0.0,0.0,0.0,0.0
27.592,-2.136,-0.67,0.0
24.398,-1.898,-0.726,0.0
0.0,0.0,0.0,0.0
0.0,0.0,0.0,0.0
36.955,-2.902,-0.476,0.0
0.0,0.0,0.0,0.0
27.649,-2.19,-0.662,0.0
24.222,-1.928,-0.712,0.0
0.0,0.0,0.0,0.0
0.0,0.0,0.0,0.0
37.489,-3.011,-0.469,0.0
32.451,-2.617,-0.586,0.0
27.783,-2.25,-0.654,0.0
24.203,-1.969,-0.702,0.0
0.0,0.0,0.0,0.0
0.0,0.0,0.0,0.0
38.559,-3.165,-0.466,0.0
32.656,-2.691,-0.576,0.0
28.271,-2.34,-0.653,0.0
24.425,-2.03,-0.698,0.0
0.0,0.0,0.0,0.0
0.0,0.0,0.0,0.0
38.34,-3.213,-0.446,0.0
32.815,-2.761,-0.564,0.0
28.595,-2.415,-0.648,0.0
24.873,-2.11,-0.699,0.0
0.0,0.0,0.0,0.0
0.0,0.0,0.0,0.0
39.062,-3.34,-0.436,0.0
33.399,-2.867,-0.558,0.0
27.703,-2.387,-0.613,0.0
25.543,-2.21,-0.705,0.0
0.0,0.0,0.0,0.0
0.0,0.0,0.0,0.0
0.0,0.0,0.0,0.0
0.0,0.0,0.0,0.0
29.002,-2.548,-0.627,0.0
25.79,-2.274,-0.698,0.0
0.0,0.0,0.0,0.0
0.0,0.0,0.0,0.0
42.329,-3.76,-0.427,0.0
32.461,-2.894,-0.507,0.0
29.728,-2.66,-0.626,0.0
0.0,0.0,0.0,0.0
0.0,0.0,0.0,0.0
0.0,0.0,0.0,0.0
0.0,0.0,0.0,0.0
0.0,0.0,0.0,0.0
30.079,-2.739,-0.616,0.0
26.558,-2.428,-0.688,0.0
90.366,-8.262,0.175,3.0
0.0,0.0,0.0,0.0
0.0,0.0,0.0,0.0
0.0,0.0,0.0,0.0
30.333,-2.811,-0.603,0.0
0.0,0.0,0.0,0.0
90.401,-8.407,0.232,6.0
0.0,0.0,0.0,0.0
38.336,-3.587,-0.317,0.0
36.756,-3.451,-0.507,0.0
31.259,-2.945,-0.6,0.0
27.507,-2.6,-0.678,0.0
90.383,-8.543,0.291,39.0
55.724,-5.284,-0.122,0.0
0.0,0.0,0.0,0.0
38.353,-3.659,-0.503,0.0
32.426,-3.104,-0.601,0.0
27.471,-2.638,-0.658,0.0
90.382,-8.679,0.354,62.0
0.0,0.0,0.0,0.0
0.0,0.0,0.0,0.0
38.361,-3.717,-0.476,0.0
0.0,0.0,0.0,0.0
28.28,-2.757,-0.657,0.0
90.335,-8.808,0.418,7.0
0.0,0.0,0.0,0.0
0.0,0.0,0.0,0.0
0.0,0.0,0.0,0.0
33.11,-3.266,-0.566,0.0
0.0,0.0,0.0,0.0
90.328,-8.938,0.486,54.0
0.0,0.0,0.0,0.0
48.614,-4.837,-0.263,0.0
0.0,0.0,0.0,0.0
0.0,0.0,0.0,0.0
0.0,0.0,0.0,0.0
83.377,-8.367,0.513,6.0
0.0,0.0,0.0,0.0
0.0,0.0,0.0,0.0
42.558,-4.306,-0.431,0.0
0.0,0.0,0.0,0.0
0.0,0.0,0.0,0.0
87.964,-8.95,0.613,3.0
0.0,0.0,0.0,0.0
0.0,0.0,0.0,0.0
0.0,0.0,0.0,0.0
35.494,-3.649,-0.522,0.0
0.0,0.0,0.0,0.0
86.347,-8.901,0.673,8.0
0.0,0.0,0.0,0.0
0.0,0.0,0.0,0.0
44.449,-4.616,-0.377,1.0
37.049,-3.858,-0.514,0.0
31.166,-3.254,-0.6,0.0
85.959,-8.974,0.744,4.0
85.428,-8.939,0.278,6.0
0.0,0.0,0.0,0.0
0.0,0.0,0.0,0.0
38.327,-4.04,-0.497,0.0
0.0,0.0,0.0,0.0
84.88,-8.969,0.808,3.0
85.998,-9.107,0.356,4.0
0.0,0.0,0.0,0.0
0.0,0.0,0.0,0.0
38.965,-4.155,-0.472,0.0
0.0,0.0,0.0,0.0
83.38,-8.912,0.868,28.0
83.365,-8.929,0.42,66.0
0.0,0.0,0.0,0.0
0.0,0.0,0.0,0.0
0.0,0.0,0.0,0.0
33.414,-3.611,-0.554,0.0
83.301,-9.002,0.944,40.0
83.244,-9.015,0.496,19.0
0.0,0.0,0.0,0.0
0.0,0.0,0.0,0.0
0.0,0.0,0.0,0.0
35.488,-3.876,-0.555,0.0
83.388,-9.107,1.023,150.0
83.382,-9.125,0.576,66.0
83.814,-9.191,0.128,1.0
51.433,-5.651,-0.203,0.0
0.0,0.0,0.0,0.0
0.0,0.0,0.0,0.0
83.342,-9.195,1.103,15.0
83.385,-9.217,0.655,11.0
83.871,-9.288,0.209,29.0
0.0,0.0,0.0,0.0
45.577,-5.068,-0.38,0.0
36.517,-4.068,-0.5,0.0
83.389,-9.29,1.186,16.0
83.376,-9.305,0.737,16.0
86.464,-9.667,0.301,5.0
0.0,0.0,0.0,0.0
0.0,0.0,0.0,0.0
39.316,-4.421,-0.499,0.0
83.402,-9.377,1.269,17.0
83.375,-9.39,0.821,17.0
86.544,-9.763,0.388,5.0
0.0,0.0,0.0,0.0
0.0,0.0,0.0,0.0
0.0,0.0,0.0,0.0
83.401,-9.46,1.354,53.0
83.381,-9.472,0.906,23.0
83.385,-9.489,0.46,105.0
77.692,-8.856,0.003,0.0
0.0,0.0,0.0,0.0
41.183,-4.711,-0.438,0.0
83.381,-9.537,1.44,24.0
83.397,-9.553,0.994,25.0
83.362,-9.564,0.546,19.0
77.689,-8.927,0.084,17.0
0.0,0.0,0.0,0.0
42.054,-4.848,-0.404,0.0
83.362,-9.61,1.528,30.0
83.395,-9.628,1.081,150.0
83.375,-9.64,0.635,32.0
77.684,-8.995,0.167,25.0
0.0,0.0,0.0,0.0
0.0,0.0,0.0,0.0
83.366,-9.683,1.617,42.0
83.374,-9.697,1.17,24.0
83.385,-9.711,0.724,66.0
83.395,-9.726,0.268,4.0
0.0,0.0,0.0,0.0
0.0,0.0,0.0,0.0
83.357,-9.75,1.705,26.0
83.362,-9.762,1.26,30.0
83.371,-9.776,0.813,28.0
83.364,-9.788,0.358,9.0
0.0,0.0,0.0,0.0
47.587,-5.603,-0.304,0.0
83.316,-9.81,1.795,29.0
83.372,-9.828,1.35,27.0
83.372,-9.839,0.904,29.0
83.364,-9.85,0.449,29.0
75.529,-8.936,0.003,1.0
0.0,0.0,0.0,0.0
83.303,-9.869,1.887,42.0
83.374,-9.889,1.442,24.0
83.388,-9.901,0.997,52.0
83.39,-9.913,0.542,17.0
74.913,-8.915,0.086,25.0
0.0,0.0,0.0,0.0
83.295,-9.926,1.981,44.0
83.389,-9.947,1.537,30.0
83.383,-9.957,1.09,24.0
83.38,-9.967,0.636,32.0
0.0,0.0,0.0,0.0
0.0,0.0,0.0,0.0
83.285,-9.979,2.074,32.0
83.383,-9.999,1.63,57.0
83.366,-10.007,1.183,30.0
83.377,-10.018,0.73,47.0
83.401,-10.031,0.284,10.0
0.0,0.0,0.0,0.0
116.297,-14.004,3.028,19.0
83.362,-10.046,1.725,33.0
83.356,-10.054,1.278,16.0
83.369,-10.065,0.824,57.0
83.371,-10.074,0.378,58.0
0.0,0.0,0.0,0.0
116.284,-14.067,3.159,35.0
83.328,-10.088,1.819,34.0
83.376,-10.101,1.373,15.0
83.334,-10.104,0.919,19.0
83.384,-10.118,0.473,20.0
74.156,-9.006,0.025,2.0
116.298,-14.128,3.294,32.0
83.276,-10.123,1.914,43.0
83.378,-10.142,1.47,19.0
83.351,-10.147,1.016,11.0
83.369,-10.156,0.57,18.0
74.279,-9.056,0.111,7.0
116.264,-14.179,3.428,25.0
83.271,-10.161,2.01,35.0
83.407,-10.183,1.567,85.0
83.349,-10.182,1.112,17.0
83.37,-10.192,0.666,13.0
74.301,-9.089,0.197,11.0
147.983,-18.109,4.535,14.0
83.321,-10.201,2.108,12.0
83.389,-10.215,1.664,150.0
83.375,-10.218,1.21,36.0
83.354,-10.222,0.764,14.0
74.318,-9.119,0.284,18.0
147.891,-18.154,4.705,22.0
116.285,-14.279,3.079,29.0
83.372,-10.242,1.761,75.0
83.371,-10.247,1.307,71.0
83.355,-10.25,0.861,12.0
74.337,-9.146,0.371,21.0
147.899,-18.203,4.878,20.0
116.307,-14.319,3.214,49.0
83.333,-10.263,1.857,57.0
83.372,-10.271,1.404,51.0
83.367,-10.275,0.958,23.0
74.362,-9.169,0.457,8.0
147.982,-18.255,5.054,16.0
116.27,-14.346,3.349,27.0
83.264,-10.276,1.953,33.0
83.36,-10.291,1.5,37.0
83.362,-10.295,1.055,36.0
74.439,-9.196,0.545,8.0
95.639,-11.82,3.378,14.0
116.27,-14.372,3.483,13.0
83.286,-10.297,2.051,16.0
83.374,-10.31,1.599,82.0
83.375,-10.313,1.152,16.0
74.457,-9.212,0.632,12.0
95.639,-11.838,3.49,17.0
147.955,-18.316,4.607,20.0
86.278,-10.681,2.225,9.0
83.359,-10.321,1.695,142.0
83.381,-10.326,1.249,41.0
74.51,-9.229,0.718,11.0
95.462,-11.83,3.595,5.0
147.974,-18.338,4.781,16.0
116.274,-14.41,3.133,26.0
83.329,-10.327,1.792,53.0
83.362,-10.332,1.347,56.0
83.338,-10.33,0.9,11.0
151.292,-18.764,5.874,9.0
148.14,-18.371,4.958,15.0
116.272,-14.418,3.269,31.0
83.282,-10.327,1.888,37.0
83.359,-10.336,1.444,38.0
83.345,-10.335,0.998,12.0
95.56,-11.857,3.821,13.0
95.502,-11.847,3.308,13.0
116.242,-14.418,3.404,20.0
83.256,-10.325,1.983,29.0
83.369,-10.338,1.539,135.0
83.36,-10.336,1.094,11.0
95.5,-11.849,3.93,15.0
95.524,-11.849,3.418,18.0
147.982,-18.353,4.503,14.0
83.337,-10.333,2.081,10.0
83.371,-10.335,1.636,150.0
83.373,-10.334,1.189,24.0
94.711,-11.748,4.006,11.0
95.556,-11.848,3.529,12.0
148.027,-18.349,4.674,16.0
116.268,-14.408,3.037,16.0
83.35,-10.326,1.731,83.0
83.357,-10.325,1.284,41.0
94.446,-11.706,4.103,19.0
151.174,-18.73,5.756,9.0
148.05,-18.335,4.844,21.0
116.269,-14.394,3.169,33.0
83.299,-10.309,1.825,36.0
83.396,-10.318,1.38,37.0
93.969,-11.635,4.19,19.0
95.453,-11.812,3.744,5.0
148.113,-18.32,5.015,14.0
116.25,-14.372,3.302,29.0
83.27,-10.29,1.918,34.0
83.375,-10.3,1.474,37.0
94.003,-11.622,4.298,18.0
95.549,-11.806,3.856,9.0
95.652,-11.812,3.347,13.0
116.242,-14.347,3.431,18.0
83.266,-10.272,2.011,24.0
83.387,-10.282,1.568,44.0
93.946,-11.593,4.402,20.0
94.76,-11.686,3.93,7.0
95.511,-11.771,3.448,16.0
147.975,-18.225,4.533,15.0
86.267,-10.619,2.18,9.0
83.38,-10.258,1.66,89.0
94.071,-11.583,4.511,18.0
94.442,-11.62,4.021,12.0
95.404,-11.729,3.55,8.0
147.921,-18.174,4.693,22.0
116.297,-14.279,3.067,35.0
83.366,-10.229,1.75,74.0
94.119,-11.559,4.617,17.0
94.243,-11.564,4.116,15.0
148.396,-18.194,5.684,13.0
147.838,-18.112,4.852,26.0
116.283,-14.235,3.192,38.0
83.289,-10.189,1.839,37.0
94.216,-11.536,4.724,16.0
94.0,-11.499,4.206,20.0
148.322,-18.129,5.839,5.0
148.002,-18.074,5.016,20.0
116.268,-14.187,3.315,29.0
83.266,-10.152,1.926,37.0
94.375,-11.517,4.832,19.0
93.929,-11.451,4.303,20.0
0.0,0.0,0.0,0.0
148.15,-18.028,5.177,18.0
116.261,-14.135,3.437,18.0
83.274,-10.115,2.013,28.0
94.395,-11.477,4.933,15.0
93.997,-11.416,4.405,19.0
94.462,-11.461,3.917,4.0
148.342,-17.98,5.337,25.0
147.868,-17.905,4.524,19.0
83.301,-10.077,2.101,10.0
94.459,-11.439,5.032,6.0
94.018,-11.371,4.503,20.0
94.474,-11.414,4.014,14.0
148.364,-17.905,5.489,22.0
148.103,-17.855,4.682,21.0
116.287,-14.005,3.05,27.0
0.0,0.0,0.0,0.0
94.048,-11.324,4.598,19.0
94.424,-11.356,4.106,13.0
148.248,-17.808,5.632,21.0
148.317,-17.796,4.835,20.0
116.299,-13.939,3.165,38.0
0.0,0.0,0.0,0.0
94.193,-11.287,4.698,15.0
94.515,-11.31,4.203,6.0
148.297,-17.724,5.78,21.0
148.342,-17.707,4.983,16.0
116.285,-13.864,3.278,31.0
0.0,0.0,0.0,0.0
94.378,-11.249,4.8,11.0
94.739,-11.276,4.306,1.0
148.226,-17.619,5.92,17.0
148.395,-17.617,5.124,20.0
116.275,-13.786,3.389,22.0
0.0,0.0,0.0,0.0
94.523,-11.203,4.896,4.0
94.353,-11.166,4.377,3.0
148.321,-17.527,6.065,15.0
148.402,-17.513,5.265,22.0
116.322,-13.709,3.497,8.0
107.977,-12.74,6.279,2.0
0.0,0.0,0.0,0.0
94.258,-11.087,4.46,8.0
148.622,-17.454,6.212,3.0
148.496,-17.414,5.406,22.0
148.036,-17.335,4.589,20.0
108.045,-12.666,6.383,20.0
0.0,0.0,0.0,0.0
94.333,-11.023,4.549,7.0
0.0,0.0,0.0,0.0
148.378,-17.284,5.532,21.0
147.987,-17.212,4.719,20.0
107.966,-12.571,6.475,24.0
0.0,0.0,0.0,0.0
111.059,-12.887,5.454,5.0
0.0,0.0,0.0,0.0
148.196,-17.141,5.656,26.0
148.175,-17.111,4.852,22.0
108.011,-12.487,6.571,18.0
0.0,0.0,0.0,0.0
108.117,-12.454,5.403,17.0
0.0,0.0,0.0,0.0
148.35,-17.03,5.788,24.0
148.421,-17.01,4.985,19.0
108.023,-12.394,6.663,20.0
0.0,0.0,0.0,0.0
108.105,-12.357,5.493,14.0
111.042,-12.67,5.026,9.0
148.285,-16.889,5.907,17.0
148.643,-16.9,5.115,21.0
108.148,-12.31,6.76,12.0
108.118,-12.282,6.169,10.0
108.121,-12.259,5.579,9.0
110.988,-12.56,5.113,10.0
148.936,-16.823,6.051,4.0
148.69,-16.766,5.232,20.0
49.097,-5.542,3.107,14.0
107.863,-12.151,6.238,18.0
107.963,-12.138,5.655,2.0
108.959,-12.226,5.103,21.0
0.0,0.0,0.0,0.0
148.722,-16.624,5.346,20.0
49.113,-5.496,3.146,15.0
49.261,-5.5,2.886,8.0
0.0,0.0,0.0,0.0
108.93,-12.113,5.182,20.0
110.275,-12.237,4.647,1.0
148.316,-16.427,5.441,26.0
49.105,-5.444,3.181,13.0
49.215,-5.445,2.919,31.0
109.869,-12.129,5.917,9.0
108.583,-11.961,5.244,21.0
110.443,-12.14,4.732,13.0
148.127,-16.249,5.538,31.0
107.63,-11.82,7.049,11.0
49.185,-5.389,2.952,33.0
109.539,-11.974,5.976,19.0
108.057,-11.786,5.294,22.0
110.64,-12.042,4.815,19.0
148.187,-16.093,5.641,29.0
48.627,-5.287,3.217,26.0
49.306,-5.348,2.992,2.0
109.098,-11.806,6.023,18.0
108.141,-11.675,5.367,21.0
110.825,-11.939,4.895,18.0
148.295,-15.94,5.739,18.0
48.575,-5.227,3.245,43.0
107.323,-11.521,6.581,22.0
108.968,-11.669,6.084,18.0
107.96,-11.534,5.425,21.0
110.673,-11.795,4.957,26.0
148.863,-15.83,5.852,15.0
48.607,-5.174,3.277,15.0
107.313,-11.395,6.645,11.0
49.58,-5.251,2.798,9.0
107.989,-11.41,5.49,19.0
110.605,-11.658,5.018,17.0
149.209,-15.69,5.952,14.0
48.595,-5.115,3.303,14.0
48.567,-5.099,3.035,10.0
49.539,-5.187,2.823,16.0
107.878,-11.268,5.545,18.0
110.599,-11.523,5.078,7.0
149.383,-15.527,6.041,10.0
49.002,-5.098,3.358,9.0
48.664,-5.049,3.067,10.0
107.164,-11.091,6.164,20.0
108.525,-11.202,5.635,19.0
108.887,-11.211,5.055,23.0
110.864,-11.385,4.54,2.0
107.779,-11.08,7.441,15.0
48.709,-4.993,3.094,8.0
107.653,-11.005,6.247,20.0
108.71,-11.082,5.699,23.0
109.01,-11.083,5.116,14.0
111.123,-11.269,4.604,20.0
49.519,-5.026,3.442,17.0
108.162,-10.947,6.924,10.0
107.969,-10.897,6.315,24.0
108.931,-10.963,5.76,20.0
108.075,-10.846,5.12,18.0
111.179,-11.127,4.657,6.0
49.611,-4.969,3.471,3.0
109.979,-10.985,7.088,6.0
108.097,-10.766,6.369,26.0
108.854,-10.81,5.803,16.0
108.27,-10.721,5.175,20.0
109.597,-10.823,4.634,26.0
107.412,-10.617,7.56,17.0
107.424,-10.586,6.966,9.0
108.438,-10.653,6.432,18.0
108.155,-10.594,5.806,19.0
108.045,-10.552,5.205,22.0
109.893,-10.702,4.688,19.0
107.533,-10.481,7.608,17.0
107.315,-10.427,6.997,9.0
111.013,-10.754,6.625,9.0
108.547,-10.483,5.866,18.0
108.082,-10.408,5.244,22.0
109.854,-10.546,4.723,23.0
107.535,-10.333,7.643,17.0
107.212,-10.268,7.026,21.0
110.347,-10.535,6.62,19.0
108.586,-10.334,5.902,24.0
108.502,-10.294,5.298,17.0
109.885,-10.393,4.759,17.0
107.358,-10.162,7.663,15.0
107.247,-10.118,7.059,24.0
108.935,-10.245,6.567,16.0
108.774,-10.196,5.943,22.0
109.037,-10.189,5.353,25.0
107.599,-10.023,4.688,14.0
106.639,-9.94,7.639,11.0
107.424,-9.979,7.098,21.0
109.741,-10.161,6.641,20.0
108.779,-10.039,5.969,21.0
108.727,-10.001,5.364,14.0
107.764,-9.88,4.719,23.0
106.597,-9.779,7.661,10.0
107.419,-9.821,7.121,16.0
109.776,-10.001,6.667,16.0
108.791,-9.878,5.991,22.0
108.548,-9.823,5.376,17.0
107.782,-9.722,4.74,27.0
106.567,-9.617,7.677,18.0
107.326,-9.652,7.134,19.0
109.948,-9.853,6.696,14.0
108.84,-9.721,6.011,21.0
108.562,-9.662,5.392,13.0
107.724,-9.555,4.754,24.0
106.611,-9.461,7.696,18.0
106.955,-9.457,7.123,24.0
105.285,-9.276,6.426,10.0
107.459,-9.434,5.948,10.0
107.31,-9.388,5.344,20.0
107.775,-9.395,4.768,24.0
109.299,-9.532,7.901,18.0
106.975,-9.294,7.135,20.0
105.274,-9.112,6.434,11.0
107.421,-9.264,5.956,31.0
107.252,-9.215,5.349,23.0
107.923,-9.239,4.782,30.0
109.906,-9.413,7.952,19.0
106.99,-9.128,7.143,18.0
105.39,-8.958,6.447,13.0
108.296,-9.17,6.009,20.0
107.074,-9.032,5.344,18.0
107.841,-9.064,4.782,32.0
111.405,-9.365,8.064,15.0
104.656,-8.764,6.988,21.0
105.344,-8.787,6.445,21.0
108.839,-9.044,6.04,16.0
107.242,-8.877,5.352,16.0
107.705,-8.881,4.774,27.0
107.893,-8.898,7.807,7.0
104.77,-8.605,6.994,21.0
105.409,-8.624,6.446,25.0
107.06,-8.724,5.937,20.0
107.364,-8.714,5.353,24.0
107.447,-8.688,4.758,22.0
106.71,-8.628,7.716,17.0
104.846,-8.443,6.992,13.0
105.677,-8.475,6.456,13.0
107.222,-8.565,5.938,17.0
107.48,-8.552,5.35,33.0
108.224,-8.577,4.783,21.0
106.279,-8.421,7.674,26.0
104.851,-8.274,6.981,19.0
106.486,-8.367,6.492,12.0
108.245,-8.47,5.982,20.0
108.641,-8.467,5.395,21.0
108.665,-8.434,4.788,25.0
106.338,-8.251,7.663,32.0
105.904,-8.183,7.036,18.0
106.393,-8.185,6.471,10.0
108.505,-8.312,5.979,24.0
108.337,-8.265,5.361,23.0
108.658,-8.255,4.769,20.0
106.517,-8.089,7.657,21.0
105.618,-7.985,6.997,24.0
107.979,-8.128,6.545,26.0
108.065,-8.099,5.933,26.0
108.01,-8.06,5.323,25.0
109.624,-8.146,4.788,8.0
109.711,-8.148,7.861,11.0
105.671,-7.814,6.977,15.0
107.958,-7.947,6.519,15.0
107.745,-7.896,5.889,23.0
107.969,-7.878,5.295,27.0
107.081,-7.779,4.649,20.0
105.04,-7.627,7.5,21.0
110.542,-7.991,7.268,19.0
107.745,-7.754,6.476,20.0
107.412,-7.694,5.841,29.0
107.894,-7.695,5.26,27.0
108.476,-7.701,4.678,22.0
104.878,-7.44,7.455,15.0
107.793,-7.611,7.054,18.0
107.42,-7.549,6.423,16.0
107.364,-7.509,5.803,22.0
107.388,-7.477,5.2,24.0
108.036,-7.486,4.623,23.0
108.905,-7.54,7.704,22.0
107.859,-7.431,7.02,21.0
106.912,-7.33,6.353,28.0
107.095,-7.309,5.75,26.0
107.467,-7.3,5.163,26.0
107.911,-7.297,4.577,28.0
107.088,-7.233,7.534,18.0
107.897,-7.251,6.98,21.0
107.317,-7.178,6.336,17.0
106.861,-7.113,5.694,22.0
107.66,-7.132,5.128,27.0
108.079,-7.126,4.539,32.0
106.934,-7.041,7.477,25.0
107.807,-7.063,6.927,20.0
108.31,-7.06,6.345,21.0
107.399,-6.966,5.674,23.0
107.531,-6.94,5.073,29.0
108.168,-6.948,4.492,26.0
106.983,-6.862,7.43,26.0
107.767,-6.876,6.873,23.0
107.74,-6.838,6.26,21.0
107.399,-6.782,5.621,29.0
107.307,-6.742,5.01,26.0
108.387,-6.776,4.447,33.0
106.987,-6.679,7.374,24.0
108.27,-6.724,6.849,23.0
107.77,-6.657,6.205,22.0
107.316,-6.594,5.56,28.0
107.495,-6.57,4.961,27.0
108.419,-6.592,4.39,24.0
107.657,-6.535,7.361,19.0
108.263,-6.537,6.786,24.0
107.521,-6.457,6.13,27.0
108.017,-6.451,5.534,33.0
107.367,-6.378,4.892,35.0
107.884,-6.375,4.304,21.0
108.253,-6.384,7.337,19.0
108.247,-6.349,6.72,25.0
107.693,-6.281,6.073,23.0
107.963,-6.263,5.465,20.0
107.503,-6.202,4.831,26.0
108.403,-6.221,4.257,20.0
108.47,-6.211,7.282,9.0
107.83,-6.14,6.625,22.0
107.885,-6.108,6.014,25.0
108.023,-6.081,5.396,28.0
107.835,-6.037,4.775,26.0
109.03,-6.069,4.209,25.0
108.04,-6.001,7.179,18.0
107.427,-5.933,6.527,19.0
108.054,-5.932,5.949,22.0
108.211,-5.907,5.332,28.0
108.063,-5.866,4.71,31.0
109.175,-5.893,4.138,24.0
108.105,-5.82,7.107,27.0
108.15,-5.787,6.492,18.0
107.965,-5.744,5.865,13.0
108.397,-5.732,5.26,26.0
108.284,-5.693,4.639,21.0
109.536,-5.725,4.07,26.0
108.75,-5.668,7.065,17.0
108.33,-5.613,6.42,22.0
110.283,-5.679,5.906,7.0
108.298,-5.542,5.171,19.0
109.948,-5.593,4.625,7.0
109.956,-5.561,3.999,11.0
108.882,-5.49,6.987,14.0
108.514,-5.437,6.344,28.0
108.554,-5.405,5.726,19.0
117.632,-5.821,5.521,5.0
116.3,-5.719,4.795,21.0
117.61,-5.747,4.18,21.0
112.687,-5.489,7.136,25.0
112.601,-5.449,6.486,7.0
109.016,-5.242,5.657,24.0
114.396,-5.465,5.271,18.0
117.419,-5.573,4.74,18.0
116.76,-5.507,4.047,21.0
112.961,-5.31,7.053,21.0
115.699,-5.402,6.561,9.0
118.235,-5.483,6.028,18.0
114.348,-5.269,5.166,18.0
117.32,-5.37,4.63,21.0
116.677,-5.307,3.939,20.0
115.413,-5.23,7.1,9.0
112.77,-5.076,6.291,11.0
117.037,-5.232,5.859,9.0
116.867,-5.188,5.169,15.0
117.301,-5.172,4.519,19.0
119.475,-5.232,3.92,25.0
114.814,-5.007,6.951,25.0
115.052,-4.982,6.306,17.0
116.829,-5.025,5.734,11.0
116.635,-4.982,5.045,21.0
117.155,-4.969,4.398,26.0
119.688,-5.042,3.809,23.0
114.401,-4.797,6.811,25.0
114.646,-4.774,6.168,24.0
115.189,-4.762,5.538,19.0
116.713,-4.791,4.93,31.0
116.989,-4.767,4.272,27.0
118.49,-4.795,3.65,22.0
114.115,-4.595,6.676,26.0
115.003,-4.596,6.067,21.0
115.292,-4.574,5.422,23.0
117.187,-4.614,4.826,23.0
117.283,-4.585,4.158,15.0
141.751,-5.5,4.214,11.0
114.23,-4.409,6.559,25.0
114.82,-4.398,5.933,24.0
115.305,-4.383,5.295,11.0
117.311,-4.426,4.704,21.0
138.307,-5.178,4.752,15.0
140.206,-5.21,4.014,16.0
114.716,-4.238,6.457,26.0
116.257,-4.261,5.876,19.0
117.189,-4.262,5.25,16.0
118.232,-4.266,4.605,14.0
138.274,-4.949,4.592,21.0
163.27,-5.799,4.488,20.0
114.429,-4.04,6.309,23.0
115.793,-4.054,5.717,9.0
117.373,-4.077,5.121,23.0
123.692,-4.262,4.674,4.0
138.491,-4.734,4.438,9.0
163.368,-5.539,4.299,22.0
114.468,-3.857,6.175,26.0
116.991,-3.908,5.637,10.0
117.022,-3.877,4.966,21.0
117.621,-3.865,4.304,26.0
140.244,-4.569,4.325,11.0
163.372,-5.276,4.099,18.0
114.913,-3.687,6.058,20.0
117.134,-3.726,5.5,18.0
116.695,-3.68,4.808,22.0
118.416,-3.701,4.185,17.0
140.163,-4.343,4.148,24.0
163.359,-5.019,3.898,5.0
122.186,-3.726,6.287,9.0
117.242,-3.542,5.356,20.0
139.516,-4.177,5.569,12.0
142.863,-4.239,4.866,11.0
163.201,-4.8,4.622,15.0
167.701,-4.886,3.784,5.0
117.33,-3.392,5.883,9.0
125.22,-3.587,5.557,15.0
119.002,-3.376,4.595,22.0
143.097,-4.021,4.686,18.0
163.372,-4.548,4.409,24.0
168.173,-4.636,3.571,11.0
117.309,-3.207,5.725,24.0
117.49,-3.18,5.055,17.0
139.986,-3.753,5.217,19.0
162.597,-4.318,5.106,16.0
163.393,-4.295,4.189,8.0
168.189,-4.377,3.342,4.0
123.697,-3.19,5.865,12.0
139.916,-3.573,5.828,17.0
140.25,-3.545,5.032,25.0
163.294,-4.085,4.9,6.0
163.467,-4.047,3.964,4.0
170.519,-4.177,3.151,6.0
140.737,-3.416,6.476,18.0
143.344,-3.441,5.767,14.0
140.497,-3.338,4.842,17.0
163.385,-3.839,4.671,28.0
0.0,0.0,0.0,0.0
170.307,-3.917,2.906,8.0
191.892,-4.37,8.554,16.0
140.11,-3.156,5.437,14.0
162.58,-3.622,5.37,11.0
163.242,-3.595,4.432,17.0
0.0,0.0,0.0,0.0
0.0,0.0,0.0,0.0
190.291,-4.052,8.204,19.0
190.141,-4.0,7.096,23.0
162.617,-3.382,5.131,51.0
163.366,-3.357,4.193,13.0
170.355,-3.458,3.388,10.0
0.0,0.0,0.0,0.0
190.295,-3.772,7.915,21.0
190.471,-3.729,6.821,21.0
163.377,-3.159,4.906,17.0
171.553,-3.275,4.142,5.0
170.305,-3.21,3.129,6.0
133.52,-2.486,1.682,28.0
191.724,-3.524,7.68,20.0
190.988,-3.465,6.545,14.0
163.287,-2.923,4.652,32.0
0.0,0.0,0.0,0.0
170.377,-2.97,2.866,4.0
133.446,-2.295,1.474,150.0
191.26,-3.246,7.363,8.0
162.573,-2.721,5.317,79.0
163.29,-2.696,4.398,14.0
0.0,0.0,0.0,0.0
0.0,0.0,0.0,0.0
19.758,-0.312,0.187,8.0
191.88,-2.992,7.084,20.0
162.678,-2.5,5.065,27.0
163.402,-2.473,4.14,11.0
0.0,0.0,0.0,0.0
19.759,-0.29,0.269,5.0
19.743,-0.285,0.155,32.0
191.806,-2.729,6.771,20.0
163.34,-2.288,4.819,39.0
19.76,-0.272,0.468,0.0
19.761,-0.268,0.352,7.0
19.739,-0.263,0.237,16.0
19.75,-0.258,0.123,17.0
162.586,-2.096,5.472,42.0
19.778,-0.25,0.551,2.0
19.761,-0.246,0.435,8.0
19.729,-0.241,0.318,10.0
19.75,-0.237,0.204,13.0
0.0,0.0,0.0,0.0
19.781,-0.229,0.632,3.0
19.765,-0.224,0.517,9.0
19.741,-0.22,0.402,10.0
19.75,-0.216,0.286,3.0
160.621,-1.723,1.396,3.0
0.0,0.0,0.0,0.0
19.747,-0.203,0.597,10.0
19.745,-0.199,0.483,9.0
19.769,-0.195,0.369,3.0
169.384,-1.637,2.163,17.0
160.702,-1.521,1.122,13.0
0.0,0.0,0.0,0.0
19.757,-0.178,0.564,7.0
19.77,-0.175,0.45,6.0
0.0,0.0,0.0,0.0
169.441,-1.429,1.873,4.0
160.576,-1.322,0.844,4.0
19.768,-0.158,-0.01,2.0
19.786,-0.155,0.53,6.0
177.119,-1.352,3.724,18.0
169.286,-1.259,2.577,7.0
19.734,-0.142,0.183,1.0
19.768,-0.139,0.069,4.0
19.762,-0.135,-0.044,9.0
19.698,-0.13,0.493,6.0
19.691,-0.126,0.379,4.0
19.71,-0.123,0.265,5.0
19.731,-0.119,0.148,12.0
19.717,-0.115,0.034,12.0
19.719,-0.112,-0.079,12.0
19.655,-0.107,0.457,10.0
19.667,-0.103,0.343,9.0
19.693,-0.1,0.229,13.0
19.702,-0.096,0.112,14.0
19.7,-0.092,-0.001,15.0
19.722,-0.089,-0.115,16.0
19.643,-0.085,0.421,10.0
19.657,-0.081,0.307,9.0
19.69,-0.078,0.193,14.0
19.688,-0.074,0.077,14.0
19.714,-0.07,-0.037,17.0
19.732,-0.067,-0.151,15.0
19.641,-0.063,0.385,10.0
19.648,-0.06,0.271,10.0
19.696,-0.056,0.157,15.0
19.69,-0.053,0.04,16.0
19.729,-0.049,-0.073,13.0
19.758,-0.046,-0.188,13.0
19.632,-0.042,0.348,11.0
19.636,-0.038,0.234,14.0
19.683,-0.035,0.12,11.0
19.701,-0.032,0.004,15.0
19.746,-0.028,-0.11,10.0
19.812,-0.025,-0.226,0.0
19.63,-0.021,0.311,14.0
19.646,-0.018,0.197,12.0
19.723,-0.015,0.083,5.0
19.735,-0.011,-0.033,10.0
19.769,-0.008,-0.148,0.0
19.607,-0.005,-0.26,0.0
19.631,-0.002,0.274,13.0
19.79,0.001,0.161,2.0
19.775,0.004,0.046,3.0
19.755,0.007,-0.07,24.0
19.777,0.011,-0.185,1.0
19.774,0.014,-0.3,4.0
19.637,0.017,0.236,17.0
19.748,0.02,0.123,17.0
19.735,0.023,0.008,14.0
19.743,0.026,-0.108,8.0
19.772,0.029,-0.223,19.0
19.778,0.033,-0.339,13.0
19.686,0.035,0.199,12.0
19.756,0.039,0.085,15.0
19.762,0.042,-0.03,75.0
19.762,0.045,-0.147,61.0
19.758,0.048,-0.262,31.0
19.765,0.051,-0.377,34.0
19.697,0.053,0.16,13.0
19.773,0.057,0.046,68.0
19.762,0.059,-0.068,150.0
19.759,0.062,-0.185,46.0
19.781,0.065,-0.301,23.0
19.782,0.068,-0.416,19.0
19.693,0.071,0.122,16.0
19.765,0.074,0.007,25.0
19.756,0.077,-0.107,9.0
19.767,0.079,-0.224,3.0
19.784,0.082,-0.34,1.0
19.792,0.085,-0.455,0.0
19.683,0.087,0.083,13.0
19.692,0.09,-0.031,5.0
19.699,0.093,-0.146,0.0
0.0,0.0,0.0,0.0
30.102,0.15,-0.577,0.0
26.203,0.134,-0.655,0.0
19.662,0.103,0.043,13.0
19.689,0.106,-0.07,5.0
0.0,0.0,0.0,0.0
32.455,0.183,-0.498,0.0
28.735,0.166,-0.608,0.0
25.058,0.148,-0.677,0.0
13.438,0.144,-0.849,1.0
12.543,0.134,-0.865,1.0
11.764,0.125,-0.88,1.0
11.021,0.117,-0.89,0.0
10.404,0.109,-0.901,0.0
9.838,0.103,-0.91,0.0
13.133,0.135,-0.853,1.0
12.295,0.125,-0.87,0.0
11.517,0.117,-0.882,0.0
10.852,0.11,-0.895,0.0
10.227,0.103,-0.904,0.0
9.691,0.097,-0.913,0.0
12.883,0.126,-0.859,1.0
12.062,0.117,-0.874,0.0
11.317,0.109,-0.886,0.0
10.635,0.102,-0.896,0.0
9.958,0.095,-0.897,0.0
9.479,0.09,-0.91,0.0
12.649,0.117,-0.865,1.0
11.837,0.108,-0.878,0.0
11.103,0.101,-0.888,0.0
10.477,0.095,-0.901,0.0
9.863,0.089,-0.906,0.0
9.362,0.084,-0.914,0.0
12.396,0.108,-0.868,0.0
11.611,0.1,-0.881,0.0
10.938,0.093,-0.894,0.0
10.295,0.087,-0.902,0.0
9.73,0.082,-0.91,0.0
9.239,0.077,-0.918,0.0
12.137,0.098,-0.87,0.0
11.403,0.091,-0.884,0.0
10.727,0.085,-0.894,0.0
10.111,0.08,-0.903,0.0
9.558,0.074,-0.91,0.0
9.084,0.07,-0.918,0.0
11.933,0.089,-0.875,0.0
11.208,0.083,-0.887,1.0
10.543,0.077,-0.896,0.0
9.932,0.072,-0.903,0.0
9.446,0.068,-0.914,0.0
8.947,0.063,-0.918,0.0
11.741,0.08,-0.88,0.0
11.04,0.074,-0.892,0.0
10.397,0.069,-0.9,0.0
9.802,0.064,-0.907,0.0
9.328,0.061,-0.918,0.0
8.85,0.057,-0.923,0.0
11.525,0.071,-0.882,0.0
10.837,0.066,-0.892,0.0
10.221,0.061,-0.901,0.0
9.664,0.057,-0.909,0.0
9.162,0.053,-0.916,0.0
8.719,0.05,-0.923,0.0
11.338,0.062,-0.885,1.0
10.665,0.057,-0.895,0.0
10.085,0.053,-0.905,0.0
9.501,0.049,-0.909,0.0
9.053,0.046,-0.919,0.0
8.614,0.043,-0.925,0.0
11.151,0.052,-0.887,0.0
10.522,0.048,-0.898,0.0
9.909,0.045,-0.904,0.0
9.394,0.041,-0.913,0.0
8.928,0.038,-0.919,0.0
8.506,0.036,-0.926,0.0
10.975,0.043,-0.89,0.0
10.356,0.04,-0.9,0.0
9.777,0.036,-0.906,0.0
9.305,0.034,-0.918,0.0
8.817,0.031,-0.921,0.0
8.411,0.029,-0.928,0.0
10.821,0.034,-0.893,0.0
10.22,0.031,-0.903,0.0
9.661,0.028,-0.909,0.0
9.13,0.026,-0.913,0.0
8.723,0.024,-0.924,0.0
8.323,0.022,-0.93,0.0
10.664,0.025,-0.895,0.0
10.068,0.022,-0.903,0.0
9.529,0.02,-0.91,0.0
9.041,0.018,-0.917,0.0
8.622,0.016,-0.925,0.0
8.212,0.014,-0.929,0.0
10.514,0.015,-0.897,0.0
9.959,0.014,-0.907,0.0
9.392,0.012,-0.91,0.0
8.973,0.01,-0.923,0.0
8.521,0.009,-0.926,0.0
8.144,0.007,-0.933,0.0
10.389,0.006,-0.9,0.0
9.784,0.005,-0.904,0.0
9.309,0.003,-0.915,0.0
8.801,0.002,-0.917,0.0
8.422,0.001,-0.927,0.0
8.055,0.0,-0.933,0.0
10.253,-0.002,-0.902,0.0
9.677,-0.003,-0.907,0.0
9.174,-0.004,-0.913,0.0
8.732,-0.005,-0.921,0.0
8.35,-0.006,-0.929,0.0
7.992,-0.006,-0.936,0.0
10.111,-0.011,-0.902,0.0
9.596,-0.012,-0.912,0.0
9.107,-0.012,-0.918,0.0
8.665,-0.013,-0.925,0.0
8.265,-0.013,-0.93,0.0
7.867,-0.014,-0.931,0.0
9.993,-0.02,-0.904,0.0
9.494,-0.02,-0.914,0.0
9.004,-0.021,-0.919,0.0
8.582,-0.021,-0.926,0.0
8.186,-0.021,-0.931,0.0
7.869,-0.021,-0.941,0.0
9.867,-0.029,-0.904,0.0
9.361,-0.029,-0.912,0.0
8.893,-0.029,-0.918,0.0
8.481,-0.029,-0.926,0.0
8.128,-0.029,-0.934,0.0
7.765,-0.028,-0.938,0.0
9.756,-0.039,-0.905,0.0
9.267,-0.038,-0.914,0.0
8.788,-0.037,-0.917,0.0
8.393,-0.037,-0.926,0.0
8.047,-0.036,-0.934,0.0
7.721,-0.036,-0.941,0.0
9.655,-0.048,-0.907,0.0
9.179,-0.047,-0.915,0.0
8.723,-0.046,-0.92,0.0
8.332,-0.045,-0.928,0.0
8.002,-0.044,-0.938,0.0
7.643,-0.043,-0.94,0.0
9.618,-0.058,-0.914,0.0
9.136,-0.056,-0.92,0.0
8.66,-0.054,-0.923,0.0
8.266,-0.053,-0.929,0.0
7.908,-0.052,-0.935,0.0
7.587,-0.051,-0.941,0.0
9.503,-0.066,-0.912,0.0
9.046,-0.065,-0.921,0.0
8.614,-0.063,-0.926,0.0
8.203,-0.061,-0.931,0.0
7.857,-0.06,-0.937,0.0
7.543,-0.059,-0.944,0.0
9.347,-0.075,-0.907,0.0
8.935,-0.073,-0.918,0.0
8.543,-0.071,-0.927,0.0
8.141,-0.069,-0.932,0.0
7.795,-0.068,-0.937,0.0
7.486,-0.066,-0.943,0.0
9.316,-0.085,-0.912,0.0
8.858,-0.082,-0.919,0.0
8.439,-0.08,-0.924,0.0
8.075,-0.078,-0.932,0.0
7.733,-0.076,-0.937,0.0
7.427,-0.074,-0.943,0.0
9.214,-0.094,-0.911,0.0
8.802,-0.091,-0.921,0.0
8.406,-0.089,-0.928,0.0
8.019,-0.086,-0.932,0.0
7.689,-0.083,-0.939,0.0
7.376,-0.081,-0.943,0.0
9.164,-0.104,-0.914,0.0
8.736,-0.1,-0.922,0.0
8.351,-0.097,-0.929,0.0
7.993,-0.094,-0.936,0.0
7.661,-0.092,-0.942,0.0
7.319,-0.089,-0.942,0.0
9.109,-0.113,-0.916,0.0
8.695,-0.109,-0.924,0.0
8.289,-0.106,-0.929,0.0
7.928,-0.103,-0.935,0.0
7.617,-0.1,-0.942,0.0
7.287,-0.097,-0.944,0.0
9.07,-0.123,-0.919,0.0
8.628,-0.118,-0.924,0.0
8.218,-0.114,-0.927,0.0
7.906,-0.111,-0.938,0.0
7.552,-0.108,-0.94,0.0
7.265,-0.105,-0.947,0.0
8.976,-0.132,-0.916,0.0
8.578,-0.127,-0.925,0.0
8.193,-0.123,-0.93,0.0
7.822,-0.119,-0.934,0.0
7.523,-0.116,-0.942,0.0
7.231,-0.113,-0.947,0.0
8.912,-0.141,-0.916,0.0
8.541,-0.137,-0.927,0.0
8.137,-0.132,-0.93,0.0
7.786,-0.127,-0.935,0.0
7.457,-0.123,-0.939,0.0
7.218,-0.121,-0.95,0.0
8.878,-0.151,-0.918,0.0
8.486,-0.146,-0.926,0.0
8.102,-0.14,-0.931,0.0
7.783,-0.136,-0.94,0.0
7.448,-0.132,-0.942,0.0
7.153,-0.128,-0.946,0.0
8.836,-0.16,-0.919,0.0
8.437,-0.155,-0.926,0.0
8.076,-0.15,-0.933,0.0
7.72,-0.144,-0.937,0.0
7.432,-0.14,-0.945,0.0
7.139,-0.136,-0.949,0.0
8.811,-0.17,-0.922,0.0
8.403,-0.164,-0.927,0.0
8.061,-0.159,-0.935,0.0
7.72,-0.153,-0.941,0.0
7.396,-0.148,-0.944,0.0
7.111,-0.144,-0.948,0.0
8.784,-0.18,-0.923,0.0
8.374,-0.173,-0.928,0.0
8.027,-0.167,-0.935,0.0
7.673,-0.161,-0.939,0.0
7.358,-0.156,-0.943,0.0
7.073,-0.152,-0.947,0.0
8.742,-0.189,-0.923,0.0
8.345,-0.182,-0.929,0.0
7.983,-0.176,-0.934,0.0
7.66,-0.17,-0.941,0.0
7.356,-0.165,-0.946,0.0
7.072,-0.16,-0.95,0.0
8.739,-0.199,-0.926,0.0
8.3,-0.191,-0.927,0.0
7.97,-0.185,-0.936,0.0
7.624,-0.178,-0.939,0.0
7.316,-0.173,-0.943,0.0
7.082,-0.169,-0.954,0.0
8.706,-0.209,-0.926,0.0
8.282,-0.2,-0.928,0.0
7.953,-0.194,-0.936,0.0
7.632,-0.188,-0.943,0.0
7.311,-0.181,-0.945,0.0
7.027,-0.176,-0.949,0.0
8.67,-0.218,-0.925,0.0
8.27,-0.21,-0.929,0.0
7.924,-0.203,-0.936,0.0
7.584,-0.195,-0.939,0.0
7.318,-0.19,-0.948,0.0
7.032,-0.184,-0.952,0.0
8.644,-0.228,-0.925,0.0
8.256,-0.219,-0.93,0.0
7.941,-0.213,-0.94,0.0
7.57,-0.204,-0.94,0.0
7.285,-0.198,-0.946,0.0
7.028,-0.192,-0.953,0.0
8.616,-0.237,-0.924,0.0
8.239,-0.229,-0.93,0.0
7.891,-0.22,-0.936,0.0
7.576,-0.213,-0.942,0.0
7.26,-0.206,-0.944,0.0
7.021,-0.201,-0.953,0.0
8.611,-0.247,-0.925,0.0
8.24,-0.238,-0.932,0.0
7.896,-0.23,-0.938,0.0
7.56,-0.222,-0.941,0.0
7.254,-0.214,-0.945,0.0
6.994,-0.208,-0.951,0.0
8.595,-0.257,-0.924,0.0
8.23,-0.248,-0.932,0.0
7.885,-0.239,-0.937,0.0
7.547,-0.23,-0.941,0.0
7.263,-0.223,-0.947,0.0
6.986,-0.216,-0.95,0.0
8.581,-0.266,-0.924,0.0
8.231,-0.257,-0.933,0.0
7.876,-0.248,-0.937,0.0
7.573,-0.24,-0.945,0.0
7.272,-0.232,-0.948,0.0
7.0,-0.225,-0.953,0.0
8.584,-0.277,-0.925,0.0
8.208,-0.266,-0.93,0.0
7.876,-0.257,-0.937,0.0
7.524,-0.247,-0.939,0.0
7.257,-0.24,-0.947,0.0
7.023,-0.234,-0.956,0.0
8.585,-0.287,-0.925,0.0
8.212,-0.276,-0.931,0.0
7.85,-0.265,-0.934,0.0
7.56,-0.257,-0.943,0.0
7.266,-0.249,-0.948,0.0
7.026,-0.242,-0.956,0.0
8.588,-0.297,-0.925,0.0
8.219,-0.286,-0.931,0.0
7.86,-0.275,-0.935,0.0
7.548,-0.265,-0.941,0.0
7.278,-0.258,-0.949,0.0
7.019,-0.25,-0.955,0.0
8.597,-0.307,-0.925,0.0
8.211,-0.295,-0.93,0.0
7.888,-0.285,-0.937,0.0
7.571,-0.275,-0.943,0.0
7.297,-0.267,-0.95,0.0
7.007,-0.258,-0.952,0.0
8.605,-0.317,-0.925,0.0
8.219,-0.304,-0.93,0.0
7.894,-0.294,-0.937,0.0
7.585,-0.284,-0.944,0.0
7.286,-0.275,-0.948,0.0
7.016,-0.266,-0.952,0.0
8.617,-0.327,-0.925,0.0
8.238,-0.314,-0.93,0.0
7.929,-0.304,-0.94,0.0
7.565,-0.292,-0.94,0.0
7.3,-0.283,-0.948,0.0
7.021,-0.274,-0.951,0.0
8.644,-0.338,-0.926,0.0
8.266,-0.325,-0.931,0.0
7.896,-0.312,-0.934,0.0
7.594,-0.302,-0.942,0.0
7.304,-0.292,-0.947,0.0
7.021,-0.282,-0.95,0.0
8.694,-0.349,-0.929,0.0
8.283,-0.335,-0.931,0.0
7.946,-0.323,-0.938,0.0
7.607,-0.311,-0.941,0.0
7.317,-0.3,-0.946,0.0
7.045,-0.291,-0.951,0.0
8.716,-0.36,-0.928,0.0
8.311,-0.345,-0.932,0.0
7.945,-0.331,-0.935,0.0
7.623,-0.319,-0.94,0.0
7.325,-0.309,-0.945,0.0
7.059,-0.299,-0.95,0.0
8.731,-0.37,-0.927,0.0
8.342,-0.355,-0.932,0.0
7.994,-0.342,-0.938,0.0
7.68,-0.33,-0.945,0.0
7.335,-0.317,-0.943,0.0
7.073,-0.307,-0.949,0.0
8.756,-0.38,-0.926,0.0
8.382,-0.366,-0.933,0.0
8.008,-0.351,-0.936,0.0
7.695,-0.339,-0.943,0.0
7.38,-0.327,-0.946,0.0
7.129,-0.317,-0.954,0.0
8.78,-0.39,-0.925,0.0
8.386,-0.375,-0.93,0.0
8.033,-0.36,-0.935,0.0
7.727,-0.348,-0.944,0.0
7.392,-0.335,-0.944,0.0
7.15,-0.325,-0.953,0.0
8.818,-0.401,-0.925,0.0
8.436,-0.385,-0.931,0.0
8.062,-0.37,-0.935,0.0
7.719,-0.356,-0.939,0.0
7.438,-0.345,-0.946,0.0
7.162,-0.333,-0.951,0.0
8.876,-0.413,-0.926,0.0
8.474,-0.396,-0.931,0.0
8.089,-0.379,-0.934,0.0
7.745,-0.365,-0.938,0.0
7.476,-0.354,-0.947,0.0
7.21,-0.343,-0.953,0.0
8.907,-0.423,-0.925,0.0
8.522,-0.406,-0.931,0.0
8.124,-0.389,-0.933,0.0
7.821,-0.376,-0.942,0.0
7.502,-0.362,-0.945,0.0
7.211,-0.35,-0.949,0.0
8.957,-0.434,-0.924,0.0
8.546,-0.416,-0.929,0.0
8.191,-0.4,-0.936,0.0
7.838,-0.384,-0.939,0.0
7.542,-0.371,-0.946,0.0
7.255,-0.359,-0.95,0.0
9.025,-0.446,-0.925,0.0
8.605,-0.427,-0.93,0.0
8.209,-0.409,-0.932,0.0
7.856,-0.393,-0.936,0.0
7.588,-0.381,-0.946,0.0
7.307,-0.368,-0.952,0.0
9.086,-0.457,-0.925,0.0
8.667,-0.438,-0.93,0.0
8.282,-0.42,-0.935,0.0
7.89,-0.402,-0.935,0.0
7.608,-0.389,-0.943,0.0
7.311,-0.375,-0.947,0.0
9.141,-0.468,-0.924,0.0
8.718,-0.448,-0.929,0.0
8.34,-0.43,-0.935,0.0
7.98,-0.413,-0.939,0.0
7.649,-0.398,-0.943,0.0
7.357,-0.384,-0.947,0.0
9.212,-0.48,-0.925,0.0
8.772,-0.459,-0.928,0.0
8.38,-0.44,-0.933,0.0
8.045,-0.424,-0.941,0.0
7.689,-0.406,-0.941,0.0
7.411,-0.393,-0.948,0.0
9.276,-0.491,-0.924,0.0
8.843,-0.47,-0.929,0.0
8.42,-0.449,-0.93,0.0
8.082,-0.433,-0.938,0.0
7.733,-0.415,-0.94,0.0
7.449,-0.401,-0.947,0.0
9.33,-0.502,-0.921,0.0
8.915,-0.481,-0.929,0.0
8.509,-0.461,-0.933,0.0
8.11,-0.441,-0.934,0.0
7.833,-0.427,-0.945,0.0
7.491,-0.41,-0.945,0.0
9.417,-0.514,-0.921,0.0
8.987,-0.492,-0.928,0.0
8.561,-0.47,-0.931,0.0
8.143,-0.449,-0.931,0.0
7.862,-0.435,-0.942,0.0
7.57,-0.42,-0.948,0.0
9.494,-0.526,-0.92,0.0
9.058,-0.503,-0.927,0.0
8.662,-0.483,-0.934,0.0
8.277,-0.463,-0.938,0.0
7.94,-0.445,-0.943,0.0
7.625,-0.429,-0.948,0.0
9.563,-0.537,-0.918,0.0
9.138,-0.514,-0.926,0.0
8.723,-0.492,-0.932,0.0
8.31,-0.47,-0.934,0.0
7.977,-0.453,-0.94,0.0
7.681,-0.438,-0.947,0.0
9.66,-0.549,-0.917,0.0
9.218,-0.525,-0.925,0.0
8.771,-0.501,-0.928,0.0
8.407,-0.482,-0.936,0.0
8.066,-0.464,-0.942,0.0
7.703,-0.444,-0.942,0.0
9.753,-0.561,-0.916,0.0
9.309,-0.537,-0.925,0.0
8.883,-0.514,-0.931,0.0
8.441,-0.49,-0.931,0.0
8.116,-0.472,-0.939,0.0
7.781,-0.454,-0.943,0.0
9.845,-0.573,-0.914,0.0
9.39,-0.548,-0.923,0.0
8.953,-0.524,-0.928,0.0
8.56,-0.502,-0.935,0.0
8.167,-0.48,-0.936,0.0
7.865,-0.464,-0.945,0.0
9.929,-0.584,-0.911,0.0
9.479,-0.559,-0.921,0.0
9.058,-0.535,-0.929,0.0
8.657,-0.513,-0.936,0.0
8.285,-0.492,-0.94,0.0
7.899,-0.47,-0.94,0.0
10.059,-0.598,-0.912,0.0
9.578,-0.57,-0.92,0.0
9.138,-0.545,-0.927,0.0
8.739,-0.523,-0.935,0.0
8.355,-0.501,-0.939,0.0
7.992,-0.481,-0.941,0.0
10.193,-0.611,-0.912,0.0
9.655,-0.58,-0.916,0.0
9.24,-0.557,-0.926,0.0
8.782,-0.53,-0.929,0.0
8.41,-0.509,-0.935,0.0
8.031,-0.487,-0.936,0.0
10.328,-0.625,-0.912,0.0
9.786,-0.593,-0.917,0.0
9.338,-0.567,-0.925,0.0
8.896,-0.542,-0.93,0.0
8.488,-0.518,-0.933,0.0
8.171,-0.5,-0.943,0.0
10.411,-0.635,-0.907,0.0
9.902,-0.605,-0.916,0.0
9.435,-0.578,-0.923,0.0
8.992,-0.552,-0.929,0.0
8.612,-0.53,-0.936,0.0
8.236,-0.508,-0.94,0.0
10.539,-0.648,-0.905,0.0
10.005,-0.616,-0.912,0.0
9.548,-0.589,-0.922,0.0
9.104,-0.563,-0.929,0.0
8.72,-0.54,-0.937,0.0
8.331,-0.517,-0.94,0.0
10.708,-0.663,-0.906,0.0
10.17,-0.63,-0.914,0.0
9.64,-0.599,-0.918,0.0
9.218,-0.573,-0.928,0.0
8.783,-0.547,-0.932,0.0
8.435,-0.527,-0.94,0.0
10.842,-0.675,-0.903,0.0
10.297,-0.642,-0.912,0.0
9.801,-0.612,-0.921,0.0
9.317,-0.583,-0.926,0.0
8.904,-0.558,-0.933,0.0
8.49,-0.533,-0.935,0.0
11.045,-0.692,-0.905,0.0
10.412,-0.653,-0.909,0.0
9.923,-0.623,-0.919,0.0
9.439,-0.594,-0.926,0.0
9.028,-0.569,-0.934,0.0
8.627,-0.545,-0.938,0.0
11.163,-0.703,-0.899,0.0
10.584,-0.667,-0.909,0.0
10.04,-0.634,-0.916,0.0
9.579,-0.605,-0.926,0.0
9.117,-0.577,-0.93,0.0
8.717,-0.553,-0.936,0.0
11.275,-0.713,-0.893,0.0
10.685,-0.676,-0.903,0.0
10.207,-0.647,-0.917,0.0
9.657,-0.613,-0.92,0.0
9.246,-0.588,-0.93,0.0
8.815,-0.561,-0.934,0.0
11.473,-0.728,-0.892,0.0
10.861,-0.69,-0.902,0.0
10.373,-0.66,-0.917,0.0
9.813,-0.625,-0.921,0.0
9.35,-0.596,-0.927,0.0
8.937,-0.57,-0.934,0.0
11.664,-0.742,-0.891,0.0
11.059,-0.705,-0.903,0.0
10.473,-0.668,-0.911,0.0
9.974,-0.637,-0.921,0.0
9.505,-0.608,-0.929,0.0
9.045,-0.579,-0.932,0.0
11.86,-0.757,-0.888,0.0
11.175,-0.714,-0.896,0.0
10.629,-0.68,-0.909,0.0
10.094,-0.646,-0.918,0.0
9.595,-0.615,-0.923,0.0
9.161,-0.588,-0.93,0.0
11.994,-0.767,-0.881,0.0
11.343,-0.726,-0.893,0.0
10.737,-0.688,-0.902,0.0
10.258,-0.658,-0.917,0.0
9.748,-0.625,-0.923,0.0
9.276,-0.596,-0.928,0.0
12.263,-0.785,-0.882,0.0
11.587,-0.742,-0.895,0.0
10.962,-0.703,-0.904,0.0
10.348,-0.664,-0.91,0.0
9.88,-0.634,-0.921,0.0
9.44,-0.607,-0.93,0.0
12.472,-0.799,-0.878,0.0
11.783,-0.755,-0.892,0.0
11.14,-0.714,-0.902,0.0
10.535,-0.676,-0.91,0.0
10.028,-0.644,-0.919,0.0
9.564,-0.615,-0.927,0.0
12.679,-0.812,-0.873,0.0
11.944,-0.766,-0.886,0.0
11.284,-0.724,-0.896,0.0
10.672,-0.685,-0.905,0.0
10.19,-0.654,-0.918,0.0
9.674,-0.621,-0.923,0.0
12.885,-0.825,-0.867,0.0
12.2,-0.781,-0.886,0.0
11.548,-0.74,-0.899,0.0
10.296,-0.66,-0.912,0.0
9.831,-0.631,-0.922,0.0
13.124,-0.839,-0.863,0.0
12.389,-0.792,-0.88,0.0
11.722,-0.75,-0.894,0.0
11.063,-0.708,-0.903,0.0
10.473,-0.67,-0.911,0.0
9.976,-0.639,-0.92,0.0
13.455,-0.859,-0.864,0.0
12.597,-0.804,-0.875,0.0
11.875,-0.758,-0.887,0.0
11.249,-0.718,-0.901,0.0
10.672,-0.681,-0.911,0.0
10.133,-0.647,-0.918,0.0
13.818,-0.88,-0.865,0.0
12.867,-0.819,-0.873,0.0
12.11,-0.771,-0.885,0.0
11.352,-0.723,-0.891,0.0
10.839,-0.69,-0.908,0.0
10.307,-0.656,-0.917,0.0
14.157,-0.898,-0.863,0.0
13.067,-0.829,-0.865,0.0
12.34,-0.783,-0.882,0.0
11.669,-0.74,-0.897,0.0
11.044,-0.7,-0.907,0.0
10.437,-0.662,-0.912,0.0
14.549,-0.92,-0.864,0.0
13.434,-0.849,-0.868,0.0
12.587,-0.795,-0.879,0.0
11.86,-0.749,-0.892,0.0
11.204,-0.707,-0.902,0.0
10.601,-0.669,-0.909,0.0
14.745,-0.928,-0.852,0.0
13.735,-0.864,-0.865,0.0
12.824,-0.806,-0.875,0.0
12.019,-0.755,-0.884,0.0
11.335,-0.712,-0.893,0.0
10.821,-0.679,-0.91,0.0
15.115,-0.946,-0.848,0.0
14.181,-0.887,-0.87,0.0
13.083,-0.818,-0.871,0.0
12.297,-0.768,-0.885,0.0
11.637,-0.727,-0.898,0.0
11.014,-0.687,-0.908,0.0
15.391,-0.957,-0.839,0.0
14.492,-0.901,-0.865,0.0
13.306,-0.827,-0.864,0.0
12.484,-0.775,-0.878,0.0
11.809,-0.733,-0.892,0.0
11.208,-0.695,-0.906,0.0
15.952,-0.986,-0.843,0.0
14.772,-0.912,-0.858,0.0
13.653,-0.842,-0.864,0.0
12.74,-0.785,-0.875,0.0
11.976,-0.738,-0.885,0.0
11.328,-0.697,-0.897,0.0
16.396,-1.006,-0.84,0.0
14.951,-0.916,-0.844,0.0
14.069,-0.861,-0.868,0.0
13.067,-0.799,-0.875,0.0
12.259,-0.749,-0.886,0.0
11.601,-0.708,-0.899,0.0
16.71,-1.017,-0.828,0.0
15.414,-0.937,-0.844,0.0
14.417,-0.875,-0.865,0.0
13.232,-0.802,-0.865,0.0
12.448,-0.754,-0.879,0.0
11.756,-0.711,-0.891,0.0
17.265,-1.041,-0.827,0.0
15.926,-0.959,-0.846,0.0
14.72,-0.885,-0.859,0.0
13.654,-0.82,-0.869,0.0
12.764,-0.766,-0.879,0.0
11.965,-0.717,-0.887,0.0
17.807,-1.064,-0.823,0.0
16.361,-0.976,-0.842,0.0
15.097,-0.899,-0.856,0.0
13.953,-0.83,-0.865,0.0
13.028,-0.774,-0.876,0.0
12.231,-0.725,-0.886,0.0
18.202,-1.076,-0.811,0.0
16.845,-0.994,-0.838,0.0
15.41,-0.908,-0.847,0.0
14.277,-0.84,-0.861,0.0
13.133,-0.771,-0.861,0.0
12.437,-0.729,-0.88,0.0
18.863,-1.102,-0.809,0.0
17.233,-1.005,-0.829,0.0
15.903,-0.926,-0.848,0.0
14.671,-0.853,-0.86,0.0
13.614,-0.79,-0.87,0.0
12.702,-0.735,-0.878,0.0
19.432,-1.122,-0.801,0.0
17.732,-1.021,-0.823,0.0
16.297,-0.937,-0.842,0.0
15.024,-0.862,-0.856,0.0
14.011,-0.802,-0.871,0.0
13.016,-0.744,-0.878,0.0
19.939,-1.136,-0.789,0.0
18.23,-1.036,-0.816,0.0
16.775,-0.952,-0.839,0.0
15.382,-0.871,-0.851,0.0
14.257,-0.805,-0.863,0.0
13.185,-0.743,-0.867,0.0
20.455,-1.149,-0.775,0.0
18.729,-1.05,-0.807,0.0
17.171,-0.96,-0.83,0.0
15.734,-0.878,-0.844,0.0
14.682,-0.817,-0.864,0.0
13.437,-0.746,-0.861,0.0
20.974,-1.161,-0.76,0.0
19.377,-1.07,-0.803,0.0
17.615,-0.97,-0.822,0.0
16.142,-0.887,-0.839,0.0
15.042,-0.824,-0.861,0.0
13.896,-0.759,-0.868,0.0
21.858,-1.191,-0.756,0.0
19.895,-1.081,-0.792,0.0
18.083,-0.98,-0.814,0.0
16.693,-0.902,-0.84,0.0
15.391,-0.829,-0.855,0.0
14.223,-0.764,-0.865,0.0
22.5,-1.205,-0.741,0.0
20.369,-1.088,-0.777,0.0
18.716,-0.997,-0.812,0.0
17.096,-0.908,-0.832,0.0
15.749,-0.834,-0.849,0.0
14.674,-0.775,-0.868,0.0
22.945,-1.207,-0.718,0.0
20.808,-1.091,-0.76,0.0
19.305,-1.009,-0.806,0.0
