X,Y,Z,Reflectivity
23.595,1.045,0.48,49.0
23.609,1.04,0.344,40.0
23.609,1.034,0.21,43.0
23.621,1.028,0.076,47.0
23.622,1.019,0.723,38.0
45.234,1.94,1.128,4.0
23.61,1.006,0.454,18.0
23.614,1.0,0.318,2.0
23.614,0.994,0.184,0.0
45.174,1.889,0.097,46.0
45.205,1.874,1.335,11.0
100.478,4.136,2.397,31.0
40.374,1.65,0.734,3.0
40.393,1.64,0.501,150.0
40.386,1.628,0.272,150.0
40.334,1.615,0.043,152.0
40.384,1.602,1.149,150.0
40.382,1.591,0.92,104.0
40.863,1.598,0.699,134.0
41.671,1.617,0.473,151.0
41.991,1.617,0.238,113.0
40.617,1.553,0.001,13.0
42.618,1.614,1.168,95.0
43.378,1.63,0.943,81.0
43.586,1.625,0.701,82.0
44.637,1.651,0.46,150.0
45.011,1.652,0.209,150.0
40.115,1.461,-0.039,11.0
44.926,1.619,1.186,1.0
162.268,5.8,3.365,35.0
161.994,5.742,2.442,26.0
71.142,2.502,0.663,20.0
63.846,2.227,0.234,9.0
40.123,1.387,-0.079,150.0
121.525,4.154,3.089,8.0
40.119,1.359,0.792,1.0
40.107,1.347,0.565,28.0
40.114,1.335,0.335,150.0
40.117,1.324,0.108,150.0
40.122,1.312,-0.118,150.0
40.124,1.296,0.981,150.0
40.125,1.284,0.754,150.0
40.116,1.272,0.528,150.0
40.121,1.26,0.297,119.0
40.132,1.248,0.071,150.0
40.114,1.235,-0.155,90.0
40.126,1.219,0.944,150.0
40.123,1.207,0.717,150.0
40.12,1.195,0.491,150.0
40.128,1.183,0.261,126.0
40.062,1.169,0.034,49.0
40.01,1.155,-0.19,70.0
0.0,0.0,0.0,0.0
0.0,0.0,0.0,0.0
41.931,1.168,0.476,155.0
0.0,0.0,0.0,0.0
40.142,1.094,0.0,160.0
40.016,1.078,-0.225,53.0
0.0,0.0,0.0,0.0
0.0,0.0,0.0,0.0
70.842,1.837,0.745,15.0
70.551,1.808,0.338,24.0
0.0,0.0,0.0,0.0
0.0,0.0,0.0,0.0
99.443,2.446,2.085,97.0
98.82,2.399,1.516,51.0
70.914,1.7,0.689,13.0
74.643,1.765,0.297,4.0
45.544,1.063,-0.074,1.0
39.178,0.902,-0.284,1.0
179.216,4.054,3.617,28.0
128.795,2.874,1.875,23.0
113.995,2.506,1.018,5.0
0.0,0.0,0.0,0.0
48.331,1.032,-0.115,0.0
38.542,0.811,-0.309,2.0
179.37,3.702,3.485,28.0
162.766,3.309,2.248,22.0
113.876,2.279,0.933,8.0
55.179,1.086,0.136,7.0
0.0,0.0,0.0,0.0
36.185,0.689,-0.316,0.0
55.178,1.028,1.032,62.0
55.17,1.011,0.722,70.0
55.161,0.992,0.413,80.0
55.148,0.974,0.097,91.0
45.08,0.781,-0.172,1.0
36.054,0.614,-0.34,1.0
55.196,0.917,0.994,5.0
163.261,2.659,2.026,19.0
114.294,1.824,0.778,6.0
55.139,0.862,0.06,1.0
19.745,0.302,-0.088,0.0
19.685,0.294,-0.198,10.0
19.719,0.287,0.342,14.0
19.743,0.281,0.232,15.0
19.796,0.275,0.122,5.0
19.727,0.267,0.009,0.0
19.655,0.26,-0.1,14.0
19.654,0.254,-0.21,17.0
19.719,0.247,0.33,12.0
19.754,0.241,0.22,26.0
19.756,0.234,0.109,11.0
19.667,0.226,-0.002,10.0
19.631,0.219,-0.112,17.0
19.648,0.213,-0.222,17.0
19.735,0.206,0.319,8.0
19.667,0.198,0.207,10.0
19.655,0.192,0.098,12.0
19.636,0.185,-0.013,15.0
19.634,0.178,-0.123,14.0
19.674,0.172,-0.233,10.0
19.639,0.164,0.306,12.0
19.649,0.157,0.197,15.0
19.627,0.151,0.087,12.0
19.63,0.144,-0.024,14.0
19.675,0.137,-0.134,9.0
0.0,0.0,0.0,0.0
19.617,0.123,0.296,13.0
19.65,0.116,0.187,15.0
19.651,0.11,0.077,12.0
19.695,0.103,-0.033,5.0
19.758,0.097,-0.144,2.0
19.769,0.09,-0.254,9.0
19.616,0.082,0.287,15.0
19.661,0.075,0.178,11.0
19.754,0.069,0.069,32.0
19.744,0.062,-0.042,33.0
19.757,0.055,-0.153,14.0
19.776,0.049,-0.263,13.0
19.633,0.041,0.279,14.0
19.755,0.035,0.17,23.0
19.768,0.028,0.06,4.0
19.749,0.021,-0.051,150.0
19.727,0.014,-0.16,0.0
0.0,0.0,0.0,0.0
19.638,0.0,0.271,13.0
19.725,-0.006,0.162,3.0
19.7,-0.013,0.052,13.0
19.729,-0.02,-0.058,10.0
19.746,-0.027,-0.168,13.0
19.764,-0.034,-0.278,3.0
19.647,-0.041,0.264,12.0
19.695,-0.048,0.155,17.0
19.7,-0.055,0.045,16.0
19.718,-0.062,-0.065,12.0
19.727,-0.069,-0.175,16.0
19.758,-0.076,-0.285,15.0
19.686,-0.083,0.258,12.0
19.712,-0.09,0.149,14.0
19.724,-0.097,0.039,12.0
19.709,-0.104,-0.071,10.0
19.728,-0.111,-0.181,16.0
19.743,-0.118,-0.29,16.0
19.676,-0.125,0.252,0.0
0.0,0.0,0.0,0.0
19.77,-0.14,0.034,1.0
19.756,-0.147,-0.077,11.0
19.745,-0.154,-0.186,14.0
19.749,-0.161,-0.295,13.0
98.192,-0.834,1.235,9.0
97.935,-0.866,0.689,1.0
98.214,-0.905,0.147,1.0
0.0,0.0,0.0,0.0
42.111,-0.418,-0.407,0.0
34.257,-0.352,-0.52,0.0
19.757,-0.209,0.244,2.0
19.746,-0.216,0.135,0.0
0.0,0.0,0.0,0.0
0.0,0.0,0.0,0.0
0.0,0.0,0.0,0.0
34.35,-0.427,-0.528,0.0
19.755,-0.252,0.24,23.0
19.745,-0.259,0.131,27.0
0.0,0.0,0.0,0.0
0.0,0.0,0.0,0.0
41.509,-0.59,-0.415,0.0
33.66,-0.491,-0.523,0.0
98.057,-1.46,1.182,79.0
19.75,-0.301,0.129,13.0
0.0,0.0,0.0,0.0
0.0,0.0,0.0,0.0
42.671,-0.698,-0.432,0.0
33.131,-0.554,-0.518,0.0
98.051,-1.67,1.172,150.0
98.917,-1.72,0.637,1.0
0.0,0.0,0.0,0.0
0.0,0.0,0.0,0.0
0.0,0.0,0.0,0.0
33.016,-0.622,-0.518,0.0
98.051,-1.876,1.166,18.0
98.206,-1.915,0.627,2.0
0.0,0.0,0.0,0.0
0.0,0.0,0.0,0.0
0.0,0.0,0.0,0.0
0.0,0.0,0.0,0.0
98.12,-2.088,1.164,17.0
98.012,-2.12,0.624,1.0
0.0,0.0,0.0,0.0
0.0,0.0,0.0,0.0
0.0,0.0,0.0,0.0
33.389,-0.771,-0.525,0.0
98.151,-2.292,1.166,1.0
0.0,0.0,0.0,0.0
0.0,0.0,0.0,0.0
0.0,0.0,0.0,0.0
0.0,0.0,0.0,0.0
33.47,-0.843,-0.525,0.0
161.924,-4.123,1.931,20.0
160.736,-4.153,1.035,9.0
0.0,0.0,0.0,0.0
0.0,0.0,0.0,0.0
0.0,0.0,0.0,0.0
33.652,-0.92,-0.525,0.0
161.905,-4.469,1.945,15.0
160.698,-4.494,1.049,9.0
0.0,0.0,0.0,0.0
0.0,0.0,0.0,0.0
0.0,0.0,0.0,0.0
0.0,0.0,0.0,0.0
161.904,-4.808,1.966,16.0
160.638,-4.829,1.07,9.0
0.0,0.0,0.0,0.0
0.0,0.0,0.0,0.0
41.922,-1.305,-0.413,0.0
0.0,0.0,0.0,0.0
161.909,-5.143,1.991,29.0
160.747,-5.163,1.097,12.0
0.0,0.0,0.0,0.0
0.0,0.0,0.0,0.0
0.0,0.0,0.0,0.0
0.0,0.0,0.0,0.0
161.96,-5.483,2.024,28.0
160.685,-5.5,1.13,16.0
0.0,0.0,0.0,0.0
0.0,0.0,0.0,0.0
0.0,0.0,0.0,0.0
35.03,-1.251,-0.523,0.0
162.079,-5.823,2.064,21.0
160.727,-5.834,1.169,15.0
0.0,0.0,0.0,0.0
0.0,0.0,0.0,0.0
0.0,0.0,0.0,0.0
0.0,0.0,0.0,0.0
0.0,0.0,0.0,0.0
0.0,0.0,0.0,0.0
0.0,0.0,0.0,0.0
0.0,0.0,0.0,0.0
0.0,0.0,0.0,0.0
34.713,-1.383,-0.498,0.0
101.608,-4.069,1.352,5.0
101.492,-4.101,0.798,150.0
0.0,0.0,0.0,0.0
0.0,0.0,0.0,0.0
0.0,0.0,0.0,0.0
35.782,-1.499,-0.501,0.0
101.551,-4.275,1.387,47.0
0.0,0.0,0.0,0.0
0.0,0.0,0.0,0.0
0.0,0.0,0.0,0.0
0.0,0.0,0.0,0.0
37.344,-1.64,-0.509,0.0
101.48,-4.478,1.424,9.0
101.429,-4.512,0.872,2.0
0.0,0.0,0.0,0.0
0.0,0.0,0.0,0.0
0.0,0.0,0.0,0.0
0.0,0.0,0.0,0.0
0.0,0.0,0.0,0.0
101.544,-4.722,0.916,151.0
0.0,0.0,0.0,0.0
0.0,0.0,0.0,0.0
45.574,-2.169,-0.335,0.0
37.955,-1.82,-0.485,0.0
101.506,-4.887,1.513,1.0
101.529,-4.924,0.962,152.0
0.0,0.0,0.0,0.0
0.0,0.0,0.0,0.0
0.0,0.0,0.0,0.0
0.0,0.0,0.0,0.0
0.0,0.0,0.0,0.0
101.512,-5.123,1.012,49.0
0.0,0.0,0.0,0.0
0.0,0.0,0.0,0.0
0.0,0.0,0.0,0.0
38.868,-2.017,-0.458,0.0
0.0,0.0,0.0,0.0
0.0,0.0,0.0,0.0
102.514,-5.411,0.521,1.0
0.0,0.0,0.0,0.0
0.0,0.0,0.0,0.0
40.742,-2.194,-0.458,0.0
0.0,0.0,0.0,0.0
0.0,0.0,0.0,0.0
101.635,-5.561,0.574,2.0
0.0,0.0,0.0,0.0
0.0,0.0,0.0,0.0
40.514,-2.26,-0.432,0.0
140.675,-7.868,2.399,27.0
140.677,-7.917,1.639,14.0
0.0,0.0,0.0,0.0
0.0,0.0,0.0,0.0
0.0,0.0,0.0,0.0
42.011,-2.422,-0.422,0.0
149.384,-8.636,2.64,23.0
149.877,-8.717,1.84,15.0
120.107,-7.025,0.826,2.0
0.0,0.0,0.0,0.0
0.0,0.0,0.0,0.0
42.264,-2.516,-0.397,0.0
148.539,-8.865,2.723,21.0
149.575,-8.977,1.934,22.0
149.944,-9.051,1.13,5.0
0.0,0.0,0.0,0.0
0.0,0.0,0.0,0.0
0.0,0.0,0.0,0.0
148.053,-9.107,2.814,20.0
148.074,-9.159,2.016,26.0
125.209,-7.786,1.03,5.0
0.0,0.0,0.0,0.0
0.0,0.0,0.0,0.0
0.0,0.0,0.0,0.0
125.249,-7.931,2.47,33.0
125.249,-7.972,1.795,27.0
125.181,-8.01,1.12,25.0
99.718,-6.414,0.345,6.0
0.0,0.0,0.0,0.0
0.0,0.0,0.0,0.0
117.364,-7.643,2.401,47.0
106.059,-6.941,1.6,13.0
0.0,0.0,0.0,0.0
99.644,-6.585,0.421,13.0
0.0,0.0,0.0,0.0
0.0,0.0,0.0,0.0
117.425,-7.854,2.493,21.0
0.0,0.0,0.0,0.0
108.76,-7.343,1.14,20.0
99.51,-6.752,0.499,6.0
0.0,0.0,0.0,0.0
0.0,0.0,0.0,0.0
109.422,-7.509,2.412,12.0
100.056,-6.898,1.667,8.0
100.069,-6.929,1.13,7.0
100.083,-6.963,0.583,10.0
0.0,0.0,0.0,0.0
0.0,0.0,0.0,0.0
109.243,-7.682,2.498,49.0
100.068,-7.068,1.751,7.0
100.1,-7.101,1.215,9.0
100.063,-7.131,0.668,10.0
0.0,0.0,0.0,0.0
0.0,0.0,0.0,0.0
109.302,-7.869,2.592,21.0
109.39,-7.909,2.008,13.0
100.112,-7.269,1.302,10.0
100.05,-7.295,0.754,11.0
98.77,-7.233,0.216,3.0
0.0,0.0,0.0,0.0
0.0,0.0,0.0,0.0
0.0,0.0,0.0,0.0
100.082,-7.429,1.39,8.0
100.075,-7.459,0.844,12.0
99.002,-7.409,0.305,8.0
0.0,0.0,0.0,0.0
0.0,0.0,0.0,0.0
127.542,-9.636,2.571,6.0
100.101,-7.592,1.483,8.0
100.048,-7.618,0.937,13.0
99.485,-7.606,0.4,10.0
0.0,0.0,0.0,0.0
127.518,-9.8,3.375,71.0
127.502,-9.836,2.693,8.0
100.128,-7.753,1.579,12.0
100.045,-7.777,1.033,14.0
100.022,-7.806,0.499,9.0
0.0,0.0,0.0,0.0
127.487,-9.997,3.498,28.0
127.528,-10.037,2.817,13.0
100.084,-7.906,1.676,12.0
100.043,-7.931,1.132,14.0
100.072,-7.963,0.598,12.0
0.0,0.0,0.0,0.0
127.463,-10.192,3.625,14.0
127.547,-10.233,2.946,28.0
100.071,-8.057,1.777,11.0
100.08,-8.086,1.233,14.0
100.052,-8.111,0.699,11.0
0.0,0.0,0.0,0.0
118.187,-9.626,3.481,4.0
90.406,-7.388,2.18,17.0
90.429,-7.416,1.699,150.0
90.401,-7.438,1.208,37.0
90.424,-7.465,0.725,114.0
90.435,-7.491,0.244,31.0
116.659,-9.674,3.558,5.0
127.539,-10.608,3.21,25.0
90.39,-7.542,1.793,38.0
90.398,-7.566,1.302,56.0
90.407,-7.592,0.82,47.0
90.437,-7.619,0.338,25.0
114.364,-9.643,3.609,15.0
114.362,-9.672,2.998,22.0
90.379,-7.667,1.888,31.0
90.412,-7.693,1.398,56.0
90.403,-7.717,0.917,35.0
90.419,-7.742,0.435,32.0
114.138,-9.783,3.725,11.0
127.509,-10.96,3.482,13.0
90.391,-7.792,1.986,35.0
90.384,-7.815,1.496,38.0
90.414,-7.84,1.016,36.0
90.412,-7.864,0.535,36.0
108.342,-9.432,3.656,17.0
114.489,-9.994,3.253,9.0
90.374,-7.911,2.087,49.0
90.396,-7.935,1.596,31.0
90.388,-7.957,1.116,62.0
90.415,-7.982,0.636,33.0
108.275,-9.568,3.775,23.0
116.946,-10.362,3.455,7.0
90.38,-8.029,2.189,15.0
90.404,-8.052,1.7,36.0
90.396,-8.074,1.219,33.0
90.412,-8.097,0.738,35.0
108.1,-9.69,3.893,27.0
148.09,-13.308,4.546,14.0
127.525,-11.49,3.236,22.0
90.378,-8.164,1.803,34.0
90.379,-8.184,1.323,32.0
90.411,-8.209,0.844,31.0
108.265,-9.839,4.025,10.0
108.042,-9.841,3.441,7.0
127.499,-11.642,3.382,27.0
90.394,-8.274,1.909,36.0
90.386,-8.293,1.429,41.0
90.382,-8.314,0.948,29.0
108.942,-10.03,4.178,27.0
108.132,-9.979,3.572,10.0
127.443,-11.788,3.533,10.0
90.358,-8.377,2.016,37.0
90.399,-8.401,1.537,39.0
90.37,-8.418,1.056,28.0
108.338,-10.101,4.284,22.0
148.121,-13.839,5.071,15.0
147.947,-13.853,4.278,9.0
90.352,-8.479,2.124,28.0
90.379,-8.499,1.644,45.0
90.369,-8.518,1.164,16.0
108.682,-10.254,4.429,18.0
148.314,-14.02,5.257,16.0
147.984,-14.019,4.459,20.0
90.358,-8.577,2.233,16.0
90.39,-8.598,1.755,50.0
90.382,-8.616,1.275,21.0
110.246,-10.519,4.628,19.0
108.426,-10.366,3.976,21.0
147.937,-14.172,4.639,27.0
119.171,-11.438,3.094,24.0
90.381,-8.692,1.867,48.0
0.0,0.0,0.0,0.0
109.971,-10.608,4.754,22.0
108.692,-10.504,4.121,21.0
148.059,-14.333,4.827,20.0
116.346,-11.284,3.163,8.0
90.355,-8.781,1.978,45.0
90.298,-8.791,1.498,34.0
109.491,-10.67,4.869,15.0
108.817,-10.621,4.261,16.0
148.233,-14.493,5.016,14.0
116.321,-11.392,3.307,54.0
90.352,-8.865,2.09,36.0
90.3,-8.876,1.61,13.0
108.589,-10.684,4.966,26.0
110.798,-10.919,4.477,18.0
108.151,-10.675,3.797,20.0
116.324,-11.501,3.455,24.0
90.286,-8.941,2.202,15.0
90.254,-8.954,1.724,40.0
108.235,-10.747,5.088,14.0
111.166,-11.055,4.635,16.0
108.621,-10.818,3.952,21.0
148.079,-14.77,4.588,19.0
116.368,-11.626,2.989,33.0
89.05,-8.911,1.814,46.0
108.044,-10.822,5.216,19.0
111.18,-11.15,4.776,6.0
108.668,-10.914,4.092,11.0
148.123,-14.897,4.777,17.0
116.361,-11.72,3.136,36.0
88.696,-8.947,1.92,2.0
108.897,-10.996,5.398,16.0
110.592,-11.182,4.894,17.0
111.659,-11.304,4.349,17.0
108.905,-11.04,3.653,21.0
116.351,-11.811,3.285,37.0
116.267,-11.818,2.667,2.0
108.835,-11.074,5.534,23.0
109.053,-11.109,4.966,17.0
149.495,-15.247,6.016,5.0
108.83,-11.113,3.79,23.0
116.361,-11.897,3.434,21.0
116.379,-11.914,2.818,14.0
108.976,-11.168,5.683,19.0
108.903,-11.171,5.1,22.0
111.525,-11.453,4.63,8.0
108.836,-11.19,3.93,13.0
148.273,-15.262,4.568,19.0
116.332,-11.988,2.968,33.0
108.013,-11.143,5.773,20.0
109.334,-11.29,5.263,14.0
111.066,-11.48,4.756,19.0
148.935,-15.41,5.573,24.0
148.328,-15.364,4.763,13.0
116.363,-12.065,3.119,43.0
107.903,-11.2,5.908,16.0
113.854,-11.829,5.628,7.0
109.634,-11.4,4.838,19.0
149.103,-15.519,5.772,28.0
108.874,-11.343,3.637,16.0
116.335,-12.132,3.27,38.0
109.053,-11.385,6.114,7.0
107.812,-11.264,5.471,10.0
110.253,-11.529,5.008,17.0
149.193,-15.612,5.97,15.0
108.832,-11.399,3.778,22.0
116.329,-12.195,3.42,25.0
107.974,-11.332,6.195,19.0
107.929,-11.335,5.618,19.0
110.724,-11.637,5.174,7.0
111.404,-11.716,4.603,10.0
108.832,-11.454,3.92,14.0
148.111,-15.601,4.55,18.0
107.939,-11.383,6.334,18.0
108.592,-11.458,5.795,21.0
107.822,-11.384,5.18,12.0
111.159,-11.744,4.739,20.0
148.728,-15.723,5.551,26.0
108.822,-11.513,3.484,8.0
107.657,-11.402,6.459,21.0
109.018,-11.552,5.961,22.0
107.831,-11.433,5.321,21.0
110.876,-11.762,4.87,24.0
148.667,-15.779,5.742,24.0
108.799,-11.555,3.624,22.0
107.329,-11.413,6.578,20.0
109.079,-11.603,6.105,19.0
107.922,-11.485,5.465,20.0
110.737,-11.789,5.008,25.0
111.649,-11.892,4.455,10.0
108.861,-11.602,3.766,16.0
107.043,-11.422,6.701,20.0
49.624,-5.296,2.841,13.0
107.949,-11.526,5.607,15.0
110.566,-11.809,5.144,12.0
111.334,-11.896,4.587,19.0
148.28,-15.85,5.322,24.0
48.721,-5.215,3.113,4.0
49.569,-5.307,2.903,21.0
109.107,-11.683,5.809,13.0
107.833,-11.55,5.157,18.0
111.066,-11.9,4.721,19.0
148.294,-15.893,5.516,30.0
48.731,-5.229,3.177,15.0
49.532,-5.316,2.965,14.0
109.205,-11.722,5.956,18.0
108.103,-11.606,5.31,19.0
111.248,-11.946,4.872,18.0
148.32,-15.931,5.708,30.0
48.709,-5.238,3.239,38.0
107.633,-11.577,6.582,17.0
109.171,-11.743,6.094,17.0
107.992,-11.616,5.443,20.0
110.641,-11.903,4.988,18.0
148.48,-15.976,5.903,18.0
48.701,-5.247,3.301,43.0
107.181,-11.547,6.693,22.0
49.654,-5.349,2.835,14.0
107.852,-11.619,5.573,11.0
107.754,-11.608,4.994,16.0
111.281,-11.989,4.566,19.0
48.805,-5.265,3.371,31.0
107.343,-11.58,6.84,17.0
49.581,-5.347,2.894,20.0
109.214,-11.779,5.782,13.0
107.81,-11.626,5.133,19.0
110.995,-11.969,4.694,19.0
49.182,-5.311,3.458,24.0
48.717,-5.259,3.165,11.0
49.533,-5.346,2.954,20.0
109.186,-11.784,5.916,20.0
108.102,-11.664,5.282,20.0
110.949,-11.97,4.829,20.0
49.444,-5.342,3.539,29.0
48.711,-5.261,3.226,28.0
49.542,-5.349,3.016,7.0
109.16,-11.784,6.051,17.0
108.054,-11.661,5.413,21.0
110.599,-11.934,4.95,19.0
49.469,-5.346,3.602,26.0
48.71,-5.261,3.286,38.0
107.367,-11.593,6.669,19.0
49.658,-5.36,2.814,10.0
107.936,-11.645,5.541,13.0
107.754,-11.622,4.957,16.0
49.444,-5.341,3.662,17.0
48.734,-5.262,3.348,32.0
107.322,-11.582,6.799,17.0
49.606,-5.351,2.871,21.0
109.073,-11.761,5.731,16.0
107.764,-11.616,5.087,18.0
49.28,-5.319,3.711,5.0
49.061,-5.293,3.43,23.0
48.695,-5.25,3.144,7.0
49.533,-5.338,2.928,20.0
109.261,-11.768,5.874,19.0
108.095,-11.637,5.234,17.0
48.914,-5.274,3.742,9.0
49.537,-5.338,3.524,23.0
48.704,-5.244,3.203,21.0
49.53,-5.33,2.987,8.0
109.169,-11.742,5.999,20.0
108.021,-11.611,5.359,21.0
48.847,-5.259,3.796,19.0
49.518,-5.327,3.581,23.0
48.698,-5.235,3.26,43.0
107.444,-11.542,6.607,20.0
49.636,-5.328,2.786,3.0
107.85,-11.57,5.477,21.0
48.746,-5.238,3.845,26.0
49.458,-5.31,3.635,22.0
48.702,-5.224,3.318,40.0
107.052,-11.474,6.707,23.0
49.607,-5.313,2.842,16.0
107.952,-11.554,5.605,13.0
48.706,-5.221,3.898,35.0
49.485,-5.3,3.695,16.0
49.04,-5.247,3.397,23.0
48.738,-5.21,3.11,5.0
49.606,-5.298,2.899,18.0
109.073,-11.642,5.788,13.0
48.725,-5.208,3.957,18.0
48.979,-5.23,3.713,5.0
49.523,-5.283,3.487,23.0
48.709,-5.191,3.162,21.0
107.526,-11.45,6.404,17.0
109.115,-11.609,5.913,20.0
48.763,-5.197,4.014,9.0
48.901,-5.205,3.761,21.0
49.522,-5.265,3.542,27.0
48.679,-5.17,3.215,33.0
107.439,-11.4,6.518,18.0
108.932,-11.547,6.024,22.0
40.945,-4.347,3.416,5.0
48.863,-5.182,3.812,21.0
49.577,-5.251,3.601,23.0
48.746,-5.158,3.272,19.0
107.258,-11.337,6.623,15.0
108.574,-11.464,6.119,16.0
40.471,-4.28,3.42,29.0
48.809,-5.155,3.861,24.0
49.684,-5.241,3.661,26.0
48.79,-5.14,3.327,9.0
107.116,-11.273,6.728,18.0
107.974,-11.35,6.2,18.0
40.349,-4.248,3.453,41.0
48.821,-5.134,3.913,22.0
49.634,-5.212,3.71,22.0
49.262,-5.166,3.41,24.0
48.705,-5.101,3.109,17.0
107.965,-11.295,6.309,22.0
40.339,-4.227,3.493,42.0
48.766,-5.103,3.959,18.0
49.516,-5.174,3.751,24.0
49.687,-5.185,3.49,23.0
48.723,-5.077,3.159,31.0
107.88,-11.228,6.412,17.0
40.397,-4.211,3.539,40.0
48.058,-5.002,3.949,12.0
106.911,-11.112,8.206,20.0
49.783,-5.166,3.546,14.0
48.737,-5.051,3.208,37.0
107.557,-11.131,6.499,22.0
40.521,-4.2,3.59,31.0
48.051,-4.973,3.996,10.0
106.981,-11.055,8.315,20.0
49.756,-5.133,3.592,24.0
48.788,-5.026,3.258,19.0
107.554,-11.064,6.601,21.0
40.851,-4.209,3.658,16.0
40.387,-4.154,3.397,27.0
48.09,-4.938,3.783,10.0
49.953,-5.121,3.654,14.0
107.617,-11.017,7.287,18.0
107.567,-10.994,6.701,13.0
45.99,-4.709,4.162,10.0
40.374,-4.126,3.433,39.0
48.085,-4.906,3.827,30.0
107.072,-10.906,7.928,16.0
107.629,-10.944,7.385,17.0
48.89,-4.962,3.09,3.0
46.003,-4.678,4.204,11.0
40.445,-4.105,3.475,30.0
48.124,-4.875,3.873,13.0
106.952,-10.816,8.015,14.0
107.74,-10.876,7.488,17.0
108.206,-10.904,6.933,16.0
47.878,-4.833,4.418,24.0
40.535,-4.084,3.519,37.0
45.734,-4.599,3.72,4.0
48.131,-4.831,3.647,17.0
107.902,-10.81,7.59,16.0
108.219,-10.822,7.025,16.0
0.0,0.0,0.0,0.0
40.489,-4.047,3.548,15.0
40.619,-4.052,3.338,6.0
48.152,-4.794,3.689,13.0
107.793,-10.713,7.671,18.0
107.909,-10.705,7.091,17.0
47.803,-4.75,4.49,25.0
45.888,-4.55,4.059,9.0
45.78,-4.53,3.798,14.0
48.167,-4.756,3.729,11.0
107.876,-10.631,7.761,11.0
108.089,-10.631,7.187,21.0
0.0,0.0,0.0,0.0
46.023,-4.524,4.106,33.0
45.713,-4.484,3.828,34.0
106.913,-10.466,8.357,15.0
107.453,-10.496,7.811,9.0
0.0,0.0,0.0,0.0
39.465,-3.853,3.767,28.0
46.065,-4.488,4.144,31.0
40.434,-3.93,3.415,16.0
107.361,-10.414,8.47,17.0
106.506,-10.308,7.819,16.0
106.647,-10.3,7.247,8.0
47.754,-4.62,4.592,4.0
46.021,-4.442,4.172,34.0
47.655,-4.589,4.059,9.0
107.889,-10.365,8.586,15.0
107.524,-10.307,7.968,20.0
107.38,-10.27,7.369,17.0
39.295,-3.764,3.806,35.0
46.023,-4.398,4.204,19.0
48.04,-4.58,4.124,24.0
108.018,-10.274,8.667,17.0
106.143,-10.072,7.934,16.0
107.196,-10.149,7.425,14.0
39.305,-3.727,3.832,38.0
0.0,0.0,0.0,0.0
48.351,-4.562,4.181,22.0
108.158,-10.18,8.746,16.0
106.116,-9.963,7.999,19.0
107.194,-10.041,7.491,16.0
39.282,-3.685,3.854,36.0
0.0,0.0,0.0,0.0
48.262,-4.504,4.202,28.0
108.051,-10.059,8.802,19.0
108.553,-10.082,8.244,11.0
106.793,-9.893,7.525,13.0
39.259,-3.642,3.875,29.0
47.526,-4.397,4.427,17.0
48.398,-4.466,4.241,30.0
107.697,-9.912,8.833,17.0
108.326,-9.945,8.287,16.0
106.353,-9.739,7.551,19.0
39.296,-3.604,3.9,30.0
47.579,-4.351,4.458,26.0
48.566,-4.429,4.281,22.0
107.959,-9.821,8.909,15.0
108.689,-9.861,8.37,17.0
106.399,-9.628,7.607,14.0
39.319,-3.563,3.922,31.0
47.561,-4.297,4.48,14.0
48.314,-4.354,4.282,22.0
108.286,-9.731,8.988,14.0
108.691,-9.74,8.422,16.0
106.403,-9.51,7.657,12.0
39.311,-3.518,3.939,27.0
47.468,-4.235,4.492,17.0
48.521,-4.317,4.323,22.0
106.79,-9.476,8.911,14.0
111.475,-9.864,8.685,18.0
109.191,-9.635,7.904,10.0
39.309,-3.473,3.956,29.0
47.531,-4.187,4.518,14.0
47.63,-4.183,4.263,13.0
106.877,-9.36,8.962,8.0
111.334,-9.723,8.718,17.0
109.61,-9.545,7.977,17.0
39.292,-3.426,3.969,40.0
47.477,-4.126,4.531,19.0
109.813,-9.516,9.87,11.0
106.524,-9.203,8.971,15.0
109.806,-9.459,8.638,14.0
109.164,-9.376,7.982,10.0
39.272,-3.377,3.981,35.0
47.519,-4.073,4.551,21.0
47.563,-4.064,4.29,15.0
106.452,-9.067,8.999,23.0
106.794,-9.069,8.435,11.0
111.882,-9.474,8.216,12.0
48.82,-4.138,4.963,15.0
47.572,-4.019,4.571,15.0
47.575,-4.006,4.305,4.0
106.608,-8.95,9.043,23.0
106.878,-8.944,8.471,16.0
110.578,-9.226,8.15,2.0
48.825,-4.077,4.977,17.0
0.0,0.0,0.0,0.0
47.574,-3.947,4.318,18.0
106.672,-8.821,9.075,29.0
0.0,0.0,0.0,0.0
107.999,-8.876,7.984,18.0
48.921,-4.023,4.998,16.0
0.0,0.0,0.0,0.0
106.38,-8.691,9.677,21.0
106.63,-8.683,9.093,28.0
106.894,-8.676,8.519,11.0
107.67,-8.71,7.981,21.0
106.166,-8.596,10.866,16.0
0.0,0.0,0.0,0.0
106.314,-8.548,9.689,20.0
106.738,-8.553,9.119,21.0
107.557,-8.59,8.588,12.0
106.778,-8.5,7.93,15.0
106.015,-8.446,10.866,16.0
49.351,-3.917,4.781,21.0
106.405,-8.417,9.711,17.0
107.153,-8.446,9.168,17.0
104.627,-8.219,8.366,6.0
106.335,-8.325,7.909,19.0
106.009,-8.304,10.877,22.0
49.377,-3.853,4.788,17.0
106.759,-8.303,9.752,14.0
106.995,-8.291,9.163,22.0
104.479,-8.067,8.362,22.0
104.704,-8.056,7.794,8.0
106.39,-8.191,10.922,20.0
106.417,-8.162,10.325,14.0
107.209,-8.193,9.798,14.0
107.108,-8.156,9.177,8.0
104.419,-7.922,8.36,24.0
104.698,-7.915,7.796,20.0
105.967,-8.015,10.88,17.0
106.338,-8.012,10.318,20.0
106.954,-8.028,9.775,19.0
107.237,-8.019,9.186,18.0
110.075,-8.201,8.811,9.0
104.749,-7.776,7.798,21.0
49.467,-3.673,5.078,18.0
106.513,-7.878,10.331,20.0
106.994,-7.883,9.775,8.0
107.086,-7.859,9.169,11.0
110.039,-8.047,8.802,6.0
109.578,-7.984,8.151,8.0
49.427,-3.601,5.07,6.0
106.752,-7.747,10.346,27.0
109.213,-7.896,9.967,17.0
107.022,-7.707,9.153,17.0
107.979,-7.745,8.627,15.0
105.036,-7.505,7.801,24.0
106.522,-7.611,10.915,18.0
106.774,-7.598,10.336,15.0
109.633,-7.77,9.992,19.0
107.234,-7.571,9.157,20.0
107.099,-7.531,8.541,18.0
104.956,-7.351,7.779,17.0
106.515,-7.459,10.898,19.0
106.648,-7.437,10.306,18.0
107.669,-7.478,9.794,15.0
107.059,-7.405,9.122,23.0
106.831,-7.359,8.5,12.0
107.595,-7.383,7.954,24.0
106.751,-7.323,10.899,20.0
107.893,-7.37,10.404,17.0
106.459,-7.241,9.662,15.0
107.685,-7.296,9.152,23.0
104.907,-7.078,8.323,12.0
107.528,-7.225,7.924,17.0
106.682,-7.165,10.866,18.0
110.865,-7.415,10.661,11.0
106.385,-7.085,9.627,19.0
0.0,0.0,0.0,0.0
107.423,-7.094,8.494,21.0
109.186,-7.182,8.016,15.0
106.729,-7.017,10.84,14.0
107.594,-7.043,10.316,16.0
106.552,-6.944,9.61,16.0
106.778,-6.928,9.013,23.0
107.723,-6.96,8.484,22.0
108.641,-6.989,7.941,15.0
107.547,-6.913,10.888,11.0
107.362,-6.87,10.257,23.0
107.081,-6.822,9.621,12.0
107.0,-6.787,8.995,16.0
107.762,-6.806,8.447,26.0
108.774,-6.84,7.91,14.0
107.571,-6.757,10.85,19.0
111.765,-6.989,10.635,6.0
106.981,-6.659,9.57,8.0
106.993,-6.63,8.951,12.0
108.067,-6.667,8.428,20.0
109.338,-6.715,7.906,11.0
107.712,-6.608,10.818,18.0
111.897,-6.833,10.599,6.0
107.308,-6.522,9.552,18.0
108.336,-6.554,9.016,22.0
108.505,-6.535,8.412,22.0
107.468,-6.444,7.723,6.0
107.749,-6.452,10.771,11.0
109.074,-6.5,10.28,19.0
107.224,-6.359,9.494,20.0
108.72,-6.418,8.995,14.0
108.8,-6.394,8.382,16.0
107.661,-6.297,7.682,18.0
0.0,0.0,0.0,0.0
108.811,-6.323,10.199,19.0
0.0,0.0,0.0,0.0
108.466,-6.243,8.916,22.0
108.697,-6.226,8.316,19.0
109.325,-6.232,7.742,18.0
0.0,0.0,0.0,0.0
108.656,-6.153,10.122,20.0
108.592,-6.119,9.496,22.0
108.348,-6.076,8.844,23.0
109.462,-6.109,8.31,18.0
111.062,-6.169,7.8,15.0
108.729,-6.027,10.688,4.0
108.977,-6.01,10.087,23.0
108.334,-5.945,9.406,21.0
108.292,-5.914,8.773,21.0
111.168,-6.041,8.371,8.0
111.027,-6.003,7.727,6.0
108.842,-5.873,10.628,24.0
108.882,-5.844,10.007,21.0
108.488,-5.793,9.349,21.0
108.609,-5.771,8.726,19.0
112.767,-5.961,8.417,21.0
108.312,-5.696,7.466,19.0
109.102,-5.725,10.579,19.0
108.975,-5.69,9.94,20.0
111.498,-5.79,9.531,7.0
108.713,-5.617,8.658,13.0
113.048,-5.811,8.357,10.0
108.242,-5.534,7.384,22.0
109.055,-5.562,10.495,18.0
111.758,-5.671,10.112,19.0
111.472,-5.625,9.446,23.0
0.0,0.0,0.0,0.0
109.324,-5.459,7.999,20.0
115.013,-5.713,7.758,8.0
111.93,-5.545,10.685,1.0
111.635,-5.499,10.014,22.0
111.503,-5.463,9.36,20.0
113.56,-5.534,8.871,23.0
115.006,-5.574,8.324,9.0
114.718,-5.531,7.646,20.0
112.177,-5.392,10.616,9.0
111.439,-5.327,9.905,19.0
116.294,-5.528,9.667,18.0
113.846,-5.381,8.797,13.0
115.023,-5.407,8.228,16.0
119.994,-5.609,7.897,4.0
112.112,-5.224,10.513,8.0
111.502,-5.167,9.813,19.0
116.57,-5.371,9.587,24.0
114.73,-5.255,8.765,24.0
114.733,-5.226,8.106,27.0
116.166,-5.261,7.541,13.0
113.461,-5.121,10.538,7.0
124.088,-5.567,10.808,8.0
116.633,-5.202,9.486,18.0
114.62,-5.084,8.65,25.0
114.799,-5.063,8.005,20.0
116.503,-5.11,7.455,20.0
113.441,-4.956,10.428,7.0
127.06,-5.517,10.947,8.0
115.584,-4.99,9.291,20.0
115.229,-4.945,8.586,21.0
115.113,-4.911,7.915,17.0
114.599,-4.861,7.223,25.0
113.486,-4.794,10.32,6.0
124.12,-5.212,10.569,24.0
114.787,-4.79,9.113,22.0
115.109,-4.775,8.462,25.0
115.584,-4.767,7.832,17.0
114.664,-4.701,7.111,22.0
124.005,-5.061,11.15,7.0
124.133,-5.036,10.443,20.0
115.038,-4.638,9.012,21.0
115.134,-4.612,8.345,20.0
115.729,-4.609,7.721,22.0
114.835,-4.545,7.0,22.0
124.563,-4.907,11.067,9.0
124.341,-4.867,10.327,24.0
115.527,-4.493,8.926,21.0
115.42,-4.46,8.239,13.0
115.688,-4.443,7.591,24.0
114.686,-4.377,6.866,21.0
124.667,-4.735,10.937,17.0
114.911,-4.336,9.416,27.0
114.84,-4.307,8.746,22.0
123.207,-4.591,8.658,16.0
116.329,-4.307,7.505,26.0
114.655,-4.218,6.736,24.0
126.299,-4.621,10.935,13.0
115.656,-4.204,9.344,20.0
114.914,-4.15,8.619,24.0
124.374,-4.462,8.596,11.0
114.43,-4.078,7.248,7.0
114.444,-4.053,6.59,26.0
126.113,-4.441,10.77,24.0
115.863,-4.052,9.222,24.0
115.809,-4.023,8.548,21.0
124.505,-4.296,8.456,5.0
114.588,-3.927,7.12,12.0
115.304,-3.926,6.499,17.0
115.978,-3.924,9.762,24.0
115.831,-3.893,9.077,10.0
115.869,-3.867,8.409,11.0
117.59,-3.898,7.841,15.0
114.937,-3.784,6.999,17.0
114.352,-3.74,6.304,16.0
126.087,-4.096,10.454,16.0
126.142,-4.07,9.726,15.0
140.087,-4.487,9.988,15.0
117.748,-3.745,7.702,24.0
115.53,-3.649,6.888,26.0
114.475,-3.592,6.164,23.0
140.52,-4.378,11.469,15.0
125.808,-3.891,9.536,24.0
117.93,-3.622,8.255,8.0
125.299,-3.82,8.031,10.0
115.781,-3.503,6.75,21.0
116.506,-3.501,6.119,11.0
140.52,-4.191,11.278,9.0
126.071,-3.733,9.385,10.0
118.006,-3.469,8.101,17.0
124.191,-3.622,7.791,17.0
115.814,-3.355,6.595,26.0
124.142,-3.569,6.352,9.0
126.178,-3.599,9.953,25.0
0.0,0.0,0.0,0.0
125.039,-3.513,8.41,24.0
115.815,-3.229,7.105,25.0
115.816,-3.205,6.434,8.0
117.414,-3.225,5.844,22.0
0.0,0.0,0.0,0.0
141.912,-3.836,10.168,5.0
125.055,-3.355,8.235,21.0
124.018,-3.301,7.433,12.0
124.375,-3.285,6.733,18.0
117.313,-3.074,5.67,18.0
0.0,0.0,0.0,0.0
124.848,-3.216,8.763,2.0
125.29,-3.202,8.066,16.0
124.042,-3.146,7.252,24.0
141.45,-3.559,7.449,13.0
140.834,-3.515,6.601,17.0
0.0,0.0,0.0,0.0
0.0,0.0,0.0,0.0
124.551,-3.029,7.831,11.0
124.308,-2.998,7.081,23.0
141.589,-3.387,7.243,11.0
140.694,-3.337,6.38,10.0
0.0,0.0,0.0,0.0
0.0,0.0,0.0,0.0
124.685,-2.88,7.649,20.0
141.452,-3.241,7.841,11.0
140.819,-3.199,6.989,7.0
191.669,-4.319,8.4,16.0
0.0,0.0,0.0,0.0
0.0,0.0,0.0,0.0
124.976,-2.74,7.474,13.0
0.0,0.0,0.0,0.0
192.617,-4.149,9.259,20.0
190.299,-4.065,8.043,17.0
0.0,0.0,0.0,0.0
0.0,0.0,0.0,0.0
0.0,0.0,0.0,0.0
0.0,0.0,0.0,0.0
191.927,-3.914,8.922,8.0
190.289,-3.845,7.74,22.0
0.0,0.0,0.0,0.0
0.0,0.0,0.0,0.0
0.0,0.0,0.0,0.0
0.0,0.0,0.0,0.0
191.633,-3.691,8.598,22.0
190.536,-3.637,7.442,19.0
0.0,0.0,0.0,0.0
0.0,0.0,0.0,0.0
0.0,0.0,0.0,0.0
0.0,0.0,0.0,0.0
192.038,-3.486,8.299,22.0
191.124,-3.436,7.147,13.0
0.0,0.0,0.0,0.0
189.988,-3.341,11.231,22.0
190.034,-3.308,10.124,21.0
189.984,-3.276,8.996,15.0
190.046,-3.246,7.895,13.0
191.313,-3.235,6.834,6.0
190.054,-3.17,12.019,8.0
0.0,0.0,0.0,0.0
0.0,0.0,0.0,0.0
193.257,-3.125,8.815,14.0
191.774,-3.07,7.633,16.0
162.579,-2.576,5.524,20.0
0.0,0.0,0.0,0.0
0.0,0.0,0.0,0.0
0.0,0.0,0.0,0.0
193.062,-2.923,8.471,22.0
191.937,-2.874,7.302,22.0
162.584,-2.409,5.24,58.0
0.0,0.0,0.0,0.0
0.0,0.0,0.0,0.0
0.0,0.0,0.0,0.0
193.104,-2.726,8.129,18.0
191.877,-2.68,6.96,19.0
162.861,-2.25,4.958,30.0
0.0,0.0,0.0,0.0
0.0,0.0,0.0,0.0
0.0,0.0,0.0,0.0
186.043,-2.444,7.495,15.0
191.582,-2.489,6.602,8.0
163.327,-2.098,4.679,21.0
0.0,0.0,0.0,0.0
0.0,0.0,0.0,0.0
0.0,0.0,0.0,0.0
185.79,-2.266,7.149,23.0
162.599,-1.96,5.308,43.0
19.766,-0.235,0.53,7.0
0.0,0.0,0.0,0.0
0.0,0.0,0.0,0.0
0.0,0.0,0.0,0.0
185.294,-2.09,6.789,14.0
19.767,-0.22,0.608,7.0
19.751,-0.217,0.493,10.0
0.0,0.0,0.0,0.0
0.0,0.0,0.0,0.0
186.77,-1.966,7.605,8.0
19.773,-0.205,0.687,2.0
19.743,-0.202,0.571,9.0
19.747,-0.199,0.456,9.0
0.0,0.0,0.0,0.0
186.74,-1.828,8.339,8.0
184.009,-1.778,7.142,19.0
19.751,-0.188,0.649,3.0
19.745,-0.185,0.533,8.0
19.751,-0.183,0.418,6.0
0.0,0.0,0.0,0.0
184.902,-1.657,7.906,18.0
19.803,-0.174,0.73,1.0
19.732,-0.171,0.611,8.0
19.762,-0.169,0.496,6.0
177.254,-1.5,3.42,17.0
0.0,0.0,0.0,0.0
184.31,-1.502,7.523,21.0
19.759,-0.158,0.691,3.0
19.754,-0.156,0.573,6.0
19.793,-0.154,0.459,1.0
177.146,-1.36,3.075,16.0
184.815,-1.386,8.264,19.0
184.115,-1.358,7.154,20.0
19.734,-0.143,0.651,1.0
19.762,-0.141,0.535,3.0
19.729,-0.138,0.418,0.0
19.738,-0.136,0.303,0.0
184.54,-1.245,7.887,20.0
19.71,-0.13,0.726,3.0
19.674,-0.128,0.61,7.0
19.67,-0.126,0.493,7.0
19.686,-0.124,0.378,6.0
19.706,-0.122,0.263,6.0
19.719,-0.118,0.803,0.0
19.667,-0.116,0.685,9.0
19.65,-0.114,0.57,10.0
19.657,-0.112,0.453,9.0
19.678,-0.11,0.338,8.0
19.711,-0.108,0.224,14.0
19.713,-0.105,0.763,7.0
19.657,-0.103,0.645,13.0
19.641,-0.101,0.53,10.0
19.649,-0.099,0.413,9.0
19.665,-0.097,0.299,9.0
19.708,-0.095,0.184,14.0
19.68,-0.092,0.721,10.0
19.64,-0.09,0.605,13.0
19.634,-0.088,0.49,10.0
19.649,-0.086,0.373,9.0
19.661,-0.085,0.258,10.0
19.699,-0.083,0.144,15.0
19.657,-0.08,0.68,13.0
19.627,-0.078,0.564,12.0
19.633,-0.076,0.45,11.0
19.647,-0.075,0.333,10.0
19.674,-0.073,0.219,14.0
19.712,-0.072,0.104,16.0
19.643,-0.069,0.64,14.0
19.639,-0.067,0.524,11.0
19.629,-0.065,0.409,10.0
19.638,-0.064,0.293,9.0
19.687,-0.062,0.178,15.0
19.7,-0.061,0.063,15.0
19.637,-0.058,0.599,13.0
19.634,-0.057,0.484,11.0
19.624,-0.055,0.369,9.0
19.631,-0.054,0.252,11.0
19.691,-0.052,0.138,16.0
19.707,-0.051,0.022,17.0
19.633,-0.048,0.558,13.0
19.63,-0.047,0.443,12.0
19.629,-0.045,0.328,10.0
19.643,-0.044,0.211,14.0
19.695,-0.043,0.097,16.0
19.712,-0.041,-0.018,16.0
19.622,-0.039,0.516,13.0
19.625,-0.038,0.402,12.0
19.623,-0.036,0.287,10.0
19.653,-0.035,0.17,8.0
19.699,-0.034,0.055,15.0
19.727,-0.033,-0.059,10.0
19.629,-0.031,0.476,14.0
19.617,-0.029,0.36,12.0
19.63,-0.028,0.246,13.0
19.683,-0.027,0.129,7.0
19.71,-0.026,0.014,14.0
19.757,-0.025,-0.101,8.0
19.623,-0.023,0.434,14.0
19.625,-0.022,0.319,13.0
19.644,-0.021,0.204,12.0
19.695,-0.02,0.088,7.0
19.725,-0.019,-0.027,12.0
19.769,-0.017,-0.143,2.0
19.622,-0.016,0.392,14.0
19.63,-0.015,0.277,12.0
19.755,-0.014,0.163,3.0
19.72,-0.013,0.045,8.0
19.768,-0.012,-0.069,3.0
42.074,-0.024,-0.394,0.0
19.631,-0.01,0.35,13.0
19.637,-0.009,0.235,14.0
19.722,-0.008,0.121,1.0
19.727,-0.007,0.004,10.0
19.76,-0.006,-0.111,0.0
0.0,0.0,0.0,0.0
19.624,-0.004,0.309,14.0
19.654,-0.003,0.194,10.0
19.786,-0.002,0.08,3.0
19.744,-0.002,-0.037,7.0
19.736,-0.001,-0.153,0.0
19.728,0.0,-0.268,0.0
19.64,0.0,0.267,14.0
19.802,0.0,0.153,2.0
19.755,0.001,0.037,5.0
19.742,0.002,-0.079,0.0
19.775,0.003,-0.195,0.0
19.777,0.003,-0.311,0.0
19.644,0.004,0.225,16.0
19.751,0.004,0.111,7.0
19.751,0.005,-0.004,10.0
19.743,0.006,-0.121,0.0
19.769,0.006,-0.237,0.0
19.781,0.007,-0.353,1.0
19.719,0.007,0.184,5.0
19.79,0.008,0.069,3.0
19.748,0.008,-0.046,151.0
19.749,0.009,-0.164,1.0
19.777,0.009,-0.28,1.0
19.788,0.01,-0.396,1.0
19.786,0.01,0.142,2.0
19.764,0.01,0.026,6.0
19.795,0.011,-0.089,1.0
19.765,0.011,-0.206,1.0
19.779,0.011,-0.322,1.0
19.788,0.012,-0.438,2.0
19.782,0.012,0.099,6.0
19.797,0.012,-0.015,25.0
19.768,0.012,-0.131,1.0
19.782,0.013,-0.249,1.0
19.767,0.013,-0.365,2.0
19.794,0.013,-0.481,2.0
11.258,-0.392,-0.892,0.0
10.575,-0.37,-0.899,0.0
10.021,-0.353,-0.909,0.0
9.513,-0.337,-0.919,0.0
9.027,-0.322,-0.925,0.0
8.586,-0.308,-0.929,0.0
11.156,-0.403,-0.894,0.0
10.483,-0.381,-0.901,0.0
9.966,-0.364,-0.914,0.0
9.438,-0.347,-0.921,0.0
8.953,-0.331,-0.925,0.0
8.547,-0.318,-0.933,0.0
11.045,-0.413,-0.895,0.0
10.417,-0.392,-0.904,0.0
9.869,-0.374,-0.913,0.0
9.35,-0.356,-0.92,0.0
8.868,-0.34,-0.924,0.0
8.472,-0.327,-0.932,0.0
10.932,-0.424,-0.895,0.0
10.342,-0.403,-0.906,0.0
9.764,-0.383,-0.912,0.0
9.286,-0.366,-0.922,0.0
8.813,-0.349,-0.925,0.0
8.432,-0.336,-0.934,0.0
10.859,-0.435,-0.898,0.0
10.259,-0.413,-0.907,0.0
9.707,-0.393,-0.914,0.0
9.237,-0.376,-0.924,0.0
8.748,-0.358,-0.925,0.0
8.367,-0.345,-0.933,0.0
10.752,-0.445,-0.897,0.0
10.184,-0.424,-0.908,0.0
9.649,-0.404,-0.916,0.0
9.155,-0.385,-0.922,0.0
8.709,-0.368,-0.928,0.0
8.302,-0.353,-0.932,0.0
10.678,-0.456,-0.899,0.0
10.114,-0.434,-0.909,0.0
9.59,-0.414,-0.917,0.0
9.097,-0.395,-0.923,0.0
8.642,-0.377,-0.926,0.0
8.271,-0.363,-0.934,0.0
10.633,-0.468,-0.902,0.0
10.052,-0.445,-0.91,0.0
9.539,-0.424,-0.918,0.0
9.051,-0.405,-0.924,0.0
8.619,-0.388,-0.93,0.0
8.235,-0.372,-0.935,0.0
10.604,-0.481,-0.906,0.0
9.988,-0.455,-0.911,0.0
9.486,-0.435,-0.919,0.0
9.011,-0.415,-0.926,0.0
8.602,-0.398,-0.933,0.0
8.204,-0.382,-0.937,0.0
10.533,-0.492,-0.906,0.0
9.958,-0.468,-0.914,0.0
9.417,-0.444,-0.918,0.0
8.888,-0.422,-0.918,0.0
8.542,-0.407,-0.931,0.0
8.153,-0.391,-0.936,0.0
10.469,-0.503,-0.906,0.0
9.891,-0.478,-0.913,0.0
9.381,-0.455,-0.919,0.0
8.883,-0.433,-0.922,0.0
8.511,-0.417,-0.932,0.0
8.115,-0.4,-0.935,0.0
10.396,-0.513,-0.905,0.0
9.843,-0.489,-0.913,0.0
9.333,-0.465,-0.919,0.0
8.889,-0.446,-0.927,0.0
8.48,-0.427,-0.933,0.0
8.06,-0.408,-0.933,0.0
10.358,-0.525,-0.907,0.0
9.791,-0.499,-0.912,0.0
9.309,-0.477,-0.921,0.0
8.853,-0.456,-0.927,0.0
8.461,-0.438,-0.934,0.0
8.079,-0.42,-0.938,0.0
10.3,-0.536,-0.906,0.0
9.766,-0.511,-0.914,0.0
9.292,-0.488,-0.923,0.0
8.83,-0.466,-0.928,0.0
8.412,-0.446,-0.932,0.0
8.044,-0.429,-0.937,0.0
10.269,-0.548,-0.906,0.0
9.756,-0.523,-0.917,0.0
9.257,-0.499,-0.922,0.0
8.797,-0.476,-0.927,0.0
8.381,-0.456,-0.931,0.0
8.033,-0.439,-0.938,0.0
10.241,-0.561,-0.907,0.0
9.704,-0.533,-0.915,0.0
9.224,-0.509,-0.922,0.0
8.79,-0.488,-0.929,0.0
8.387,-0.467,-0.934,0.0
8.022,-0.449,-0.939,0.0
10.248,-0.574,-0.911,0.0
9.699,-0.546,-0.917,0.0
9.236,-0.522,-0.925,0.0
8.769,-0.498,-0.929,0.0
8.35,-0.476,-0.932,0.0
8.03,-0.46,-0.942,0.0
10.216,-0.586,-0.91,0.0
9.687,-0.558,-0.918,0.0
9.198,-0.532,-0.923,0.0
8.771,-0.51,-0.931,0.0
8.337,-0.487,-0.932,0.0
7.971,-0.467,-0.937,0.0
10.16,-0.596,-0.907,0.0
9.665,-0.569,-0.917,0.0
9.19,-0.544,-0.924,0.0
8.756,-0.52,-0.931,0.0
8.339,-0.498,-0.934,0.0
8.005,-0.48,-0.942,0.0
10.145,-0.609,-0.907,0.0
9.664,-0.582,-0.918,0.0
9.185,-0.556,-0.925,0.0
8.744,-0.531,-0.931,0.0
8.377,-0.511,-0.939,0.0
7.972,-0.488,-0.939,0.0
10.166,-0.623,-0.91,0.0
9.647,-0.593,-0.918,0.0
9.183,-0.567,-0.925,0.0
8.738,-0.542,-0.931,0.0
8.353,-0.52,-0.937,0.0
8.037,-0.503,-0.947,0.0
10.149,-0.635,-0.909,0.0
9.677,-0.608,-0.921,0.0
9.164,-0.578,-0.924,0.0
8.746,-0.554,-0.932,0.0
8.348,-0.53,-0.937,0.0
7.985,-0.51,-0.941,0.0
10.165,-0.649,-0.91,0.0
9.63,-0.617,-0.916,0.0
9.164,-0.589,-0.923,0.0
8.75,-0.565,-0.932,0.0
8.353,-0.541,-0.937,0.0
8.015,-0.522,-0.944,0.0
10.156,-0.661,-0.909,0.0
9.688,-0.633,-0.921,0.0
9.179,-0.602,-0.924,0.0
8.738,-0.575,-0.93,0.0
8.36,-0.552,-0.937,0.0
7.973,-0.529,-0.939,0.0
10.161,-0.674,-0.909,0.0
9.673,-0.644,-0.919,0.0
9.204,-0.615,-0.926,0.0
8.73,-0.585,-0.928,0.0
8.368,-0.563,-0.937,0.0
7.979,-0.539,-0.938,0.0
10.223,-0.69,-0.913,0.0
9.702,-0.657,-0.921,0.0
9.217,-0.627,-0.926,0.0
8.79,-0.6,-0.933,0.0
8.354,-0.572,-0.934,0.0
8.029,-0.552,-0.943,0.0
10.232,-0.703,-0.912,0.0
9.681,-0.667,-0.917,0.0
9.217,-0.638,-0.924,0.0
8.777,-0.609,-0.93,0.0
8.358,-0.582,-0.933,0.0
8.032,-0.562,-0.942,0.0
10.228,-0.715,-0.909,0.0
9.72,-0.682,-0.918,0.0
9.237,-0.65,-0.924,0.0
8.799,-0.621,-0.931,0.0
8.379,-0.594,-0.933,0.0
8.055,-0.573,-0.942,0.0
10.305,-0.732,-0.914,0.0
9.744,-0.695,-0.918,0.0
9.236,-0.661,-0.922,0.0
8.847,-0.635,-0.933,0.0
8.457,-0.609,-0.939,0.0
8.021,-0.58,-0.936,0.0
10.294,-0.743,-0.91,0.0
9.773,-0.708,-0.918,0.0
9.293,-0.675,-0.925,0.0
8.82,-0.643,-0.928,0.0
8.453,-0.618,-0.936,0.0
8.056,-0.591,-0.937,0.0
10.359,-0.76,-0.912,0.0
9.793,-0.72,-0.916,0.0
9.329,-0.688,-0.925,0.0
8.862,-0.656,-0.929,0.0
8.49,-0.63,-0.937,0.0
8.098,-0.603,-0.939,0.0
10.412,-0.775,-0.913,0.0
9.818,-0.733,-0.915,0.0
9.358,-0.701,-0.924,0.0
8.908,-0.669,-0.93,0.0
8.457,-0.637,-0.93,0.0
8.109,-0.613,-0.937,0.0
10.46,-0.79,-0.913,0.0
9.872,-0.748,-0.916,0.0
9.404,-0.714,-0.924,0.0
8.932,-0.681,-0.929,0.0
8.543,-0.653,-0.936,0.0
8.173,-0.627,-0.941,0.0
10.469,-0.802,-0.909,0.0
9.954,-0.764,-0.919,0.0
9.455,-0.728,-0.925,0.0
8.993,-0.695,-0.931,0.0
8.539,-0.662,-0.931,0.0
8.174,-0.635,-0.937,0.0
10.485,-0.814,-0.905,0.0
9.989,-0.777,-0.917,0.0
9.491,-0.741,-0.924,0.0
9.002,-0.705,-0.927,0.0
8.579,-0.673,-0.931,0.0
8.269,-0.651,-0.943,0.0
10.595,-0.833,-0.908,0.0
10.028,-0.791,-0.915,0.0
9.51,-0.752,-0.92,0.0
9.026,-0.716,-0.924,0.0
8.629,-0.686,-0.931,0.0
8.297,-0.662,-0.941,0.0
10.671,-0.85,-0.909,0.0
10.088,-0.805,-0.915,0.0
9.573,-0.766,-0.921,0.0
9.125,-0.732,-0.929,0.0
8.713,-0.701,-0.935,0.0
8.318,-0.671,-0.939,0.0
10.738,-0.865,-0.908,0.0
10.123,-0.818,-0.912,0.0
9.657,-0.782,-0.923,0.0
9.205,-0.747,-0.931,0.0
8.755,-0.713,-0.934,0.0
8.364,-0.683,-0.938,0.0
10.827,-0.882,-0.909,0.0
10.224,-0.835,-0.914,0.0
9.706,-0.795,-0.921,0.0
9.255,-0.76,-0.93,0.0
8.789,-0.724,-0.932,0.0
8.413,-0.694,-0.938,0.0
10.879,-0.896,-0.905,0.0
10.276,-0.849,-0.911,0.0
9.753,-0.808,-0.918,0.0
9.306,-0.772,-0.928,0.0
8.84,-0.736,-0.931,0.0
8.462,-0.706,-0.938,0.0
11.009,-0.917,-0.908,0.0
10.402,-0.868,-0.915,0.0
9.829,-0.822,-0.918,0.0
9.382,-0.787,-0.929,0.0
8.902,-0.748,-0.93,0.0
8.499,-0.716,-0.935,0.0
11.029,-0.928,-0.901,0.0
10.4,-0.877,-0.907,0.0
9.946,-0.84,-0.922,0.0
9.44,-0.8,-0.927,0.0
8.997,-0.764,-0.933,0.0
8.579,-0.73,-0.937,0.0
11.108,-0.943,-0.899,0.0
10.585,-0.901,-0.915,0.0
9.976,-0.851,-0.916,0.0
9.483,-0.811,-0.924,0.0
9.007,-0.772,-0.927,0.0
8.654,-0.743,-0.938,0.0
11.224,-0.962,-0.899,0.0
10.634,-0.913,-0.91,0.0
10.07,-0.867,-0.916,0.0
9.567,-0.825,-0.924,0.0
9.123,-0.789,-0.931,0.0
8.69,-0.753,-0.934,0.0
11.354,-0.982,-0.9,0.0
10.784,-0.934,-0.913,0.0
10.163,-0.882,-0.916,0.0
9.669,-0.841,-0.925,0.0
9.19,-0.801,-0.929,0.0
8.794,-0.768,-0.938,0.0
11.444,-0.998,-0.897,0.0
10.916,-0.953,-0.915,0.0
10.296,-0.901,-0.919,0.0
9.733,-0.853,-0.923,0.0
9.311,-0.818,-0.933,0.0
8.849,-0.779,-0.935,0.0
11.601,-1.019,-0.898,0.0
10.962,-0.965,-0.908,0.0
10.373,-0.915,-0.916,0.0
9.798,-0.866,-0.919,0.0
9.388,-0.831,-0.932,0.0
8.917,-0.791,-0.934,0.0
11.768,-1.042,-0.9,0.0
11.035,-0.978,-0.904,0.0
10.492,-0.932,-0.916,0.0
9.949,-0.885,-0.924,0.0
9.433,-0.841,-0.927,0.0
9.015,-0.805,-0.935,0.0
15.173,-1.42,-0.857,0.0
14.052,-1.315,-0.868,0.0
13.086,-1.225,-0.878,0.0
12.253,-1.147,-0.889,0.0
11.583,-1.085,-0.902,0.0
10.957,-1.026,-0.912,0.0
15.358,-1.436,-0.847,0.0
14.402,-1.347,-0.87,0.0
13.346,-1.248,-0.878,0.0
12.442,-1.164,-0.885,0.0
11.777,-1.101,-0.901,0.0
11.115,-1.04,-0.909,0.0
15.82,-1.477,-0.851,0.0
14.6,-1.363,-0.862,0.0
13.57,-1.267,-0.874,0.0
12.527,-1.17,-0.874,0.0
12.0,-1.121,-0.901,0.0
11.359,-1.061,-0.914,0.0
16.024,-1.494,-0.84,0.0
14.79,-1.378,-0.853,0.0
13.758,-1.282,-0.867,0.0
12.895,-1.202,-0.882,0.0
12.137,-1.131,-0.895,0.0
11.487,-1.07,-0.908,0.0
16.492,-1.534,-0.841,0.0
15.184,-1.412,-0.855,0.0
14.151,-1.316,-0.872,0.0
13.078,-1.216,-0.876,0.0
12.289,-1.142,-0.889,0.0
11.639,-1.081,-0.904,0.0
16.908,-1.568,-0.839,0.0
15.619,-1.448,-0.858,0.0
14.413,-1.336,-0.868,0.0
13.367,-1.239,-0.877,0.0
12.486,-1.157,-0.886,0.0
11.857,-1.098,-0.904,0.0
17.263,-1.596,-0.833,0.0
15.904,-1.47,-0.851,0.0
14.676,-1.356,-0.863,0.0
13.611,-1.257,-0.874,0.0
12.616,-1.165,-0.877,0.0
12.047,-1.112,-0.901,0.0
17.626,-1.624,-0.825,0.0
16.176,-1.489,-0.843,0.0
14.922,-1.373,-0.857,0.0
13.862,-1.275,-0.871,0.0
12.994,-1.195,-0.885,0.0
12.183,-1.12,-0.894,0.0
17.942,-1.646,-0.815,0.0
16.605,-1.522,-0.842,0.0
15.248,-1.397,-0.854,0.0
14.177,-1.298,-0.87,0.0
13.134,-1.202,-0.876,0.0
12.423,-1.136,-0.894,0.0
18.472,-1.687,-0.813,0.0
16.976,-1.549,-0.837,0.0
15.607,-1.423,-0.852,0.0
14.507,-1.322,-0.87,0.0
13.43,-1.223,-0.877,0.0
12.531,-1.14,-0.884,0.0
19.092,-1.734,-0.814,0.0
17.225,-1.563,-0.825,0.0
15.988,-1.45,-0.85,0.0
14.68,-1.33,-0.859,0.0
13.751,-1.245,-0.878,0.0
12.776,-1.156,-0.883,0.0
19.427,-1.755,-0.8,0.0
17.579,-1.586,-0.817,0.0
16.392,-1.478,-0.848,0.0
15.082,-1.358,-0.862,0.0
13.987,-1.259,-0.873,0.0
13.098,-1.178,-0.887,0.0
20.136,-1.808,-0.801,0.0
18.274,-1.639,-0.823,0.0
16.681,-1.494,-0.839,0.0
15.417,-1.38,-0.859,0.0
14.257,-1.274,-0.869,0.0
13.318,-1.189,-0.883,0.0
20.382,-1.817,-0.782,0.0
18.755,-1.67,-0.818,0.0
17.045,-1.516,-0.833,0.0
15.757,-1.4,-0.855,0.0
14.578,-1.294,-0.868,0.0
13.547,-1.201,-0.878,0.0
20.826,-1.843,-0.769,0.0
19.067,-1.685,-0.804,0.0
17.436,-1.539,-0.827,0.0
16.117,-1.421,-0.852,0.0
14.838,-1.307,-0.862,0.0
13.7,-1.205,-0.869,0.0
21.699,-1.906,-0.77,0.0
19.805,-1.737,-0.807,0.0
17.782,-1.557,-0.819,0.0
16.496,-1.443,-0.848,0.0
15.077,-1.317,-0.855,0.0
14.119,-1.232,-0.875,0.0
22.204,-1.934,-0.757,0.0
20.079,-1.746,-0.79,0.0
18.363,-1.594,-0.819,0.0
16.613,-1.44,-0.83,0.0
15.528,-1.344,-0.858,0.0
14.291,-1.235,-0.865,0.0
22.732,-1.962,-0.742,0.0
20.494,-1.766,-0.777,0.0
18.908,-1.626,-0.817,0.0
17.193,-1.477,-0.835,0.0
15.908,-1.364,-0.857,0.0
14.622,-1.252,-0.865,0.0
23.592,-2.017,-0.737,0.0
21.193,-1.809,-0.774,0.0
19.23,-1.638,-0.803,0.0
17.45,-1.484,-0.823,0.0
16.187,-1.374,-0.849,0.0
14.853,-1.259,-0.857,0.0
24.166,-2.045,-0.721,0.0
21.939,-1.853,-0.77,0.0
19.903,-1.678,-0.804,0.0
17.723,-1.491,-0.811,0.0
16.57,-1.392,-0.846,0.0
15.279,-1.281,-0.86,0.0
25.311,-2.119,-0.72,0.0
22.379,-1.87,-0.754,0.0
20.275,-1.691,-0.79,0.0
18.542,-1.543,-0.822,0.0
16.825,-1.397,-0.835,0.0
15.655,-1.298,-0.86,0.0
25.695,-2.127,-0.695,0.0
22.995,-1.899,-0.743,0.0
20.877,-1.72,-0.785,0.0
18.768,-1.543,-0.806,0.0
17.134,-1.406,-0.826,0.0
15.965,-1.307,-0.855,0.0
26.562,-2.172,-0.682,0.0
23.726,-1.936,-0.734,0.0
21.21,-1.727,-0.768,0.0
19.36,-1.573,-0.805,0.0
17.816,-1.444,-0.835,0.0
16.306,-1.319,-0.85,0.0
27.755,-2.241,-0.675,0.0
24.281,-1.956,-0.718,0.0
21.906,-1.76,-0.763,0.0
19.828,-1.59,-0.797,0.0
18.132,-1.45,-0.825,0.0
16.547,-1.32,-0.84,0.0
28.353,-2.259,-0.65,0.0
24.894,-1.978,-0.702,0.0
22.322,-1.77,-0.748,0.0
20.301,-1.605,-0.789,0.0
18.493,-1.459,-0.816,0.0
16.847,-1.326,-0.833,0.0
29.25,-2.298,-0.632,0.0
25.229,-1.977,-0.678,0.0
23.119,-1.807,-0.743,0.0
20.584,-1.604,-0.772,0.0
18.929,-1.471,-0.81,0.0
17.141,-1.329,-0.824,0.0
30.691,-2.376,-0.622,0.0
26.799,-2.069,-0.685,0.0
0.0,0.0,0.0,0.0
21.25,-1.632,-0.769,0.0
19.4,-1.485,-0.805,0.0
17.742,-1.355,-0.83,0.0
30.956,-2.36,-0.587,0.0
27.459,-2.087,-0.665,0.0
24.443,-1.852,-0.721,0.0
22.012,-1.663,-0.768,0.0
19.884,-1.498,-0.798,0.0
18.251,-1.371,-0.829,0.0
32.785,-2.459,-0.578,0.0
28.697,-2.145,-0.657,1.0
25.531,-1.902,-0.72,0.0
22.505,-1.672,-0.755,0.0
20.272,-1.501,-0.788,0.0
18.569,-1.371,-0.82,0.0
33.273,-2.452,-0.544,0.0
29.322,-2.154,-0.634,0.0
25.815,-1.89,-0.694,0.0
22.941,-1.674,-0.74,0.0
20.674,-1.504,-0.777,0.0
19.054,-1.382,-0.817,0.0
0.0,0.0,0.0,0.0
0.0,0.0,0.0,0.0
27.184,-1.954,-0.696,0.0
23.626,-1.693,-0.732,0.0
21.302,-1.521,-0.773,0.0
19.432,-1.383,-0.808,0.0
36.807,-2.615,-0.508,0.0
31.785,-2.25,-0.606,0.0
27.673,-1.952,-0.674,0.0
24.503,-1.722,-0.729,0.0
21.783,-1.526,-0.763,0.0
19.865,-1.386,-0.801,0.0
37.591,-2.618,-0.472,0.0
32.166,-2.232,-0.574,0.0
27.994,-1.935,-0.647,0.0
25.006,-1.722,-0.713,0.0
22.256,-1.527,-0.753,0.0
20.287,-1.387,-0.793,0.0
40.936,-2.793,-0.464,0.0
33.283,-2.262,-0.553,0.0
29.315,-1.985,-0.643,0.0
25.655,-1.73,-0.701,0.0
22.66,-1.522,-0.739,0.0
20.677,-1.384,-0.784,0.0
41.744,-2.788,-0.423,0.0
34.448,-2.291,-0.531,0.0
30.103,-1.994,-0.624,0.0
26.778,-1.766,-0.699,0.0
23.725,-1.558,-0.745,0.0
21.053,-1.377,-0.773,0.0
0.0,0.0,0.0,0.0
36.629,-2.381,-0.522,0.0
0.0,0.0,0.0,0.0
27.047,-1.743,-0.675,0.0
23.992,-1.54,-0.726,0.0
21.56,-1.377,-0.766,0.0
45.465,-2.898,-0.354,0.0
0.0,0.0,0.0,0.0
32.18,-2.033,-0.592,0.0
28.069,-1.765,-0.668,0.0
0.0,0.0,0.0,0.0
22.104,-1.378,-0.76,0.0
0.0,0.0,0.0,0.0
0.0,0.0,0.0,0.0
0.0,0.0,0.0,0.0
28.769,-1.764,-0.652,0.0
25.396,-1.55,-0.71,0.0
22.549,-1.369,-0.751,0.0
0.0,0.0,0.0,0.0
41.18,-2.483,-0.446,0.0
33.643,-2.018,-0.543,0.0
29.373,-1.753,-0.633,0.0
25.991,-1.544,-0.699,0.0
23.11,-1.366,-0.744,0.0
0.0,0.0,0.0,0.0
0.0,0.0,0.0,0.0
0.0,0.0,0.0,0.0
30.338,-1.761,-0.622,0.0
26.736,-1.544,-0.69,0.0
23.54,-1.353,-0.733,0.0
0.0,0.0,0.0,0.0
0.0,0.0,0.0,0.0
36.411,-2.064,-0.51,0.0
30.973,-1.746,-0.602,0.0
27.06,-1.517,-0.67,0.0
24.24,-1.352,-0.729,0.0
0.0,0.0,0.0,0.0
0.0,0.0,0.0,0.0
37.626,-2.069,-0.489,0.0
32.436,-1.773,-0.597,0.0
0.0,0.0,0.0,0.0
24.369,-1.317,-0.708,0.0
0.0,0.0,0.0,0.0
0.0,0.0,0.0,0.0
38.512,-2.05,-0.461,0.0
0.0,0.0,0.0,0.0
0.0,0.0,0.0,0.0
0.0,0.0,0.0,0.0
0.0,0.0,0.0,0.0
0.0,0.0,0.0,0.0
0.0,0.0,0.0,0.0
0.0,0.0,0.0,0.0
29.202,-1.485,-0.636,0.0
0.0,0.0,0.0,0.0
0.0,0.0,0.0,0.0
0.0,0.0,0.0,0.0
0.0,0.0,0.0,0.0
0.0,0.0,0.0,0.0
29.881,-1.466,-0.623,0.0
26.579,-1.296,-0.696,0.0
101.546,-4.932,0.154,1.0
0.0,0.0,0.0,0.0
0.0,0.0,0.0,0.0
35.656,-1.696,-0.52,0.0
0.0,0.0,0.0,0.0
26.491,-1.243,-0.67,0.0
0.0,0.0,0.0,0.0
0.0,0.0,0.0,0.0
0.0,0.0,0.0,0.0
0.0,0.0,0.0,0.0
0.0,0.0,0.0,0.0
0.0,0.0,0.0,0.0
0.0,0.0,0.0,0.0
0.0,0.0,0.0,0.0
0.0,0.0,0.0,0.0
38.236,-1.677,-0.492,0.0
32.088,-1.397,-0.584,0.0
28.452,-1.229,-0.671,0.0
0.0,0.0,0.0,0.0
0.0,0.0,0.0,0.0
0.0,0.0,0.0,0.0
38.853,-1.631,-0.468,0.0
32.439,-1.351,-0.565,0.0
29.022,-1.199,-0.661,0.0
0.0,0.0,0.0,0.0
0.0,0.0,0.0,0.0
0.0,0.0,0.0,0.0
40.102,-1.608,-0.452,0.0
34.714,-1.38,-0.577,0.0
29.175,-1.15,-0.642,0.0
0.0,0.0,0.0,0.0
0.0,0.0,0.0,0.0
0.0,0.0,0.0,0.0
0.0,0.0,0.0,0.0
0.0,0.0,0.0,0.0
29.859,-1.119,-0.635,0.0
160.768,-5.992,1.034,10.0
0.0,0.0,0.0,0.0
0.0,0.0,0.0,0.0
0.0,0.0,0.0,0.0
0.0,0.0,0.0,0.0
30.066,-1.067,-0.617,0.0
160.734,-5.675,1.148,15.0
0.0,0.0,0.0,0.0
0.0,0.0,0.0,0.0
0.0,0.0,0.0,0.0
35.659,-1.209,-0.516,0.0
30.774,-1.032,-0.611,0.0
160.68,-5.352,1.256,5.0
0.0,0.0,0.0,0.0
0.0,0.0,0.0,0.0
45.251,-1.459,-0.382,0.0
37.338,-1.191,-0.516,0.0
31.587,-0.996,-0.607,0.0
160.667,-5.031,1.359,3.0
0.0,0.0,0.0,0.0
0.0,0.0,0.0,0.0
0.0,0.0,0.0,0.0
37.297,-1.115,-0.493,0.0
31.923,-0.943,-0.594,0.0
162.183,-4.752,1.47,4.0
0.0,0.0,0.0,0.0
0.0,0.0,0.0,0.0
0.0,0.0,0.0,0.0
0.0,0.0,0.0,0.0
32.049,-0.882,-0.578,0.0
162.078,-4.42,1.561,13.0
0.0,0.0,0.0,0.0
0.0,0.0,0.0,0.0
0.0,0.0,0.0,0.0
0.0,0.0,0.0,0.0
0.0,0.0,0.0,0.0
162.033,-4.086,1.649,12.0
0.0,0.0,0.0,0.0
0.0,0.0,0.0,0.0
0.0,0.0,0.0,0.0
0.0,0.0,0.0,0.0
0.0,0.0,0.0,0.0
98.235,-2.273,1.049,11.0
0.0,0.0,0.0,0.0
0.0,0.0,0.0,0.0
0.0,0.0,0.0,0.0
0.0,0.0,0.0,0.0
33.347,-0.712,-0.55,0.0
98.15,-2.068,1.093,21.0
98.127,-2.031,0.561,2.0
0.0,0.0,0.0,0.0
0.0,0.0,0.0,0.0
0.0,0.0,0.0,0.0
33.355,-0.643,-0.536,0.0
98.111,-1.864,1.135,31.0
97.96,-1.825,0.601,5.0
0.0,0.0,0.0,0.0
0.0,0.0,0.0,0.0
0.0,0.0,0.0,0.0
34.762,-0.597,-0.545,0.0
98.111,-1.656,1.174,54.0
19.76,-0.326,0.129,3.0
98.117,-1.585,0.107,1.0
0.0,0.0,0.0,0.0
42.669,-0.658,-0.421,0.0
34.537,-0.52,-0.529,0.0
19.768,-0.291,0.243,8.0
19.745,-0.284,0.135,29.0
0.0,0.0,0.0,0.0
0.0,0.0,0.0,0.0
0.0,0.0,0.0,0.0
35.059,-0.454,-0.525,0.0
19.746,-0.249,0.249,11.0
19.747,-0.242,0.142,7.0
0.0,0.0,0.0,0.0
0.0,0.0,0.0,0.0
0.0,0.0,0.0,0.0
19.711,-0.213,-0.289,0.0
98.22,-1.032,1.27,76.0
98.104,-0.994,0.733,21.0
0.0,0.0,0.0,0.0
19.805,-0.186,-0.069,2.0
19.757,-0.179,-0.177,12.0
19.742,-0.171,-0.285,14.0
98.366,-0.822,1.296,1.0
98.298,-0.785,0.759,2.0
19.788,-0.151,0.044,1.0
19.766,-0.143,-0.065,9.0
19.723,-0.136,-0.172,17.0
19.734,-0.129,-0.28,17.0
19.721,-0.122,0.264,6.0
19.723,-0.115,0.156,14.0
19.714,-0.108,0.048,12.0
19.714,-0.1,-0.061,10.0
19.719,-0.093,-0.169,16.0
19.758,-0.087,-0.277,15.0
19.661,-0.079,0.266,10.0
19.692,-0.073,0.159,17.0
19.693,-0.065,0.051,15.0
19.702,-0.058,-0.058,16.0
19.736,-0.052,-0.166,14.0
19.759,-0.045,-0.275,2.0
19.642,-0.037,0.269,12.0
19.682,-0.03,0.161,8.0
19.699,-0.023,0.053,11.0
19.741,-0.016,-0.056,10.0
19.704,-0.009,-0.164,0.0
19.793,-0.002,-0.273,0.0
19.628,0.004,0.27,15.0
19.742,0.011,0.164,5.0
19.747,0.018,0.055,10.0
19.747,0.025,-0.054,81.0
19.759,0.032,-0.163,15.0
19.768,0.039,-0.271,13.0
19.622,0.046,0.271,13.0
19.67,0.053,0.164,11.0
19.742,0.06,0.056,34.0
19.757,0.067,-0.053,30.0
19.757,0.074,-0.162,16.0
19.766,0.081,-0.271,1.0
19.615,0.088,0.272,17.0
19.663,0.095,0.164,14.0
19.649,0.102,0.056,12.0
19.657,0.109,-0.053,9.0
19.694,0.116,-0.161,2.0
0.0,0.0,0.0,0.0
19.63,0.13,0.272,10.0
19.657,0.137,0.164,15.0
19.643,0.144,0.056,13.0
19.631,0.151,-0.054,13.0
19.644,0.158,-0.162,15.0
19.661,0.165,-0.27,14.0
19.663,0.173,0.271,8.0
19.672,0.18,0.163,10.0
19.655,0.187,0.054,10.0
19.647,0.193,-0.055,11.0
19.629,0.2,-0.163,17.0
19.667,0.208,-0.272,18.0
19.736,0.216,0.27,12.0
19.764,0.223,0.162,26.0
19.695,0.229,0.052,0.0
19.651,0.236,-0.057,8.0
19.64,0.243,-0.166,15.0
19.658,0.25,-0.274,17.0
19.733,0.259,0.268,13.0
19.774,0.266,0.159,9.0
0.0,0.0,0.0,0.0
19.685,0.279,-0.06,0.0
19.684,0.286,-0.169,2.0
19.678,0.292,-0.278,7.0
163.484,2.498,2.195,16.0
55.162,0.863,0.435,1.0
55.201,0.881,0.13,8.0
52.492,0.856,-0.171,1.0
37.951,0.632,-0.334,0.0
