X,Y,Z,Reflectivity
0.0,0.0,0.0,0.0
0.0,0.0,0.0,0.0
0.0,0.0,0.0,0.0
31.313,-3.417,-0.602,0.0
27.153,-2.97,-0.668,1.0
0.0,0.0,0.0,0.0
0.0,0.0,0.0,0.0
46.645,-5.124,-0.349,0.0
37.966,-4.18,-0.489,0.0
32.212,-3.554,-0.592,0.0
27.859,-3.081,-0.663,0.0
0.0,0.0,0.0,0.0
0.0,0.0,0.0,0.0
0.0,0.0,0.0,0.0
37.639,-4.188,-0.453,0.0
32.68,-3.644,-0.573,0.0
28.48,-3.183,-0.653,0.0
25.133,-2.815,-0.712,0.0
0.0,0.0,0.0,0.0
0.0,0.0,0.0,0.0
39.568,-4.447,-0.442,0.0
33.745,-3.801,-0.562,0.0
28.986,-3.272,-0.64,0.0
25.569,-2.892,-0.702,0.0
0.0,0.0,0.0,0.0
0.0,0.0,0.0,0.0
41.445,-4.704,-0.427,0.0
0.0,0.0,0.0,0.0
29.753,-3.39,-0.63,0.0
26.172,-2.988,-0.695,0.0
77.728,-8.871,0.107,5.0
0.0,0.0,0.0,0.0
42.247,-4.839,-0.397,0.0
35.514,-4.076,-0.528,0.0
0.0,0.0,0.0,0.0
27.058,-3.117,-0.694,0.0
77.695,-8.948,0.178,25.0
0.0,0.0,0.0,0.0
0.0,0.0,0.0,0.0
0.0,0.0,0.0,0.0
0.0,0.0,0.0,0.0
27.444,-3.189,-0.678,0.0
77.799,-9.037,0.253,2.0
0.0,0.0,0.0,0.0
0.0,0.0,0.0,0.0
38.68,-4.515,-0.502,0.0
32.09,-3.753,-0.589,0.0
27.709,-3.246,-0.658,0.0
83.385,-9.765,0.351,11.0
0.0,0.0,0.0,0.0
0.0,0.0,0.0,0.0
38.919,-4.579,-0.468,0.0
33.431,-3.94,-0.581,0.0
28.658,-3.383,-0.652,0.0
83.354,-9.837,0.433,15.0
0.0,0.0,0.0,0.0
0.0,0.0,0.0,0.0
40.626,-4.816,-0.448,0.0
34.738,-4.124,-0.57,0.0
0.0,0.0,0.0,0.0
83.353,-9.908,0.515,14.0
74.923,-8.919,0.06,10.0
52.089,-6.209,-0.237,0.0
0.0,0.0,0.0,0.0
34.887,-4.171,-0.537,0.0
30.431,-3.643,-0.632,0.0
83.38,-9.981,0.6,37.0
75.431,-9.041,0.137,7.0
0.0,0.0,0.0,0.0
44.265,-5.32,-0.398,0.0
0.0,0.0,0.0,0.0
30.77,-3.708,-0.607,0.0
83.366,-10.045,0.687,43.0
75.944,-9.161,0.218,7.0
0.0,0.0,0.0,0.0
0.0,0.0,0.0,0.0
39.044,-4.728,-0.52,0.0
0.0,0.0,0.0,0.0
83.374,-10.107,0.774,27.0
74.304,-9.018,0.292,1.0
0.0,0.0,0.0,0.0
47.712,-5.804,-0.33,1.0
39.488,-4.809,-0.484,0.0
0.0,0.0,0.0,0.0
83.337,-10.16,0.862,13.0
74.342,-9.073,0.37,8.0
0.0,0.0,0.0,0.0
47.94,-5.863,-0.28,1.0
0.0,0.0,0.0,0.0
33.412,-4.096,-0.553,0.0
83.372,-10.219,0.952,13.0
74.331,-9.119,0.45,10.0
74.296,-9.124,0.051,3.0
0.0,0.0,0.0,0.0
0.0,0.0,0.0,0.0
0.0,0.0,0.0,0.0
83.367,-10.269,1.043,31.0
83.327,-10.273,0.595,9.0
74.312,-9.17,0.133,10.0
0.0,0.0,0.0,0.0
0.0,0.0,0.0,0.0
0.0,0.0,0.0,0.0
83.372,-10.316,1.135,16.0
83.367,-10.324,0.688,17.0
74.211,-9.198,0.215,3.0
0.0,0.0,0.0,0.0
46.505,-5.774,-0.368,1.0
0.0,0.0,0.0,0.0
83.393,-10.362,1.227,18.0
83.386,-10.368,0.78,27.0
74.346,-9.251,0.297,1.0
0.0,0.0,0.0,0.0
47.89,-5.968,-0.325,0.0
0.0,0.0,0.0,0.0
83.368,-10.398,1.319,24.0
83.362,-10.403,0.873,21.0
79.89,-9.976,0.408,1.0
0.0,0.0,0.0,0.0
48.405,-6.053,-0.275,1.0
40.215,-5.033,-0.444,0.0
83.376,-10.434,1.413,48.0
83.374,-10.439,0.966,46.0
83.29,-10.435,0.519,4.0
74.95,-9.395,0.058,8.0
47.377,-5.943,-0.216,1.0
0.0,0.0,0.0,0.0
83.345,-10.462,1.506,23.0
83.37,-10.469,1.06,66.0
83.367,-10.474,0.614,38.0
74.876,-9.412,0.142,13.0
0.0,0.0,0.0,0.0
45.669,-5.747,-0.401,0.0
83.357,-10.491,1.6,23.0
83.377,-10.497,1.154,48.0
83.376,-10.501,0.708,93.0
75.065,-9.458,0.228,8.0
0.0,0.0,0.0,0.0
46.705,-5.891,-0.358,1.0
83.357,-10.514,1.695,29.0
83.389,-10.521,1.249,26.0
83.374,-10.523,0.803,96.0
75.083,-9.48,0.313,3.0
0.0,0.0,0.0,0.0
47.285,-5.975,-0.308,1.0
83.323,-10.53,1.789,24.0
83.361,-10.537,1.344,13.0
83.368,-10.54,0.897,150.0
77.857,-9.846,0.413,4.0
74.92,-9.478,-0.002,1.0
0.0,0.0,0.0,0.0
83.3,-10.543,1.884,30.0
83.352,-10.551,1.439,15.0
83.372,-10.555,0.993,55.0
83.305,-10.549,0.538,3.0
75.027,-9.503,0.083,6.0
0.0,0.0,0.0,0.0
83.255,-10.55,1.979,27.0
83.365,-10.564,1.536,19.0
83.353,-10.563,1.09,44.0
83.313,-10.559,0.635,11.0
74.825,-9.485,0.169,9.0
0.0,0.0,0.0,0.0
83.257,-10.558,2.075,13.0
83.368,-10.572,1.631,22.0
83.352,-10.57,1.184,19.0
83.353,-10.57,0.731,20.0
74.786,-9.484,0.255,5.0
0.0,0.0,0.0,0.0
86.161,-10.931,2.245,12.0
83.362,-10.574,1.727,22.0
83.334,-10.57,1.279,13.0
83.367,-10.574,0.825,25.0
77.413,-9.818,0.352,3.0
0.0,0.0,0.0,0.0
116.29,-14.754,3.164,19.0
83.293,-10.565,1.821,23.0
83.337,-10.569,1.374,16.0
83.354,-10.57,0.92,30.0
80.295,-10.181,0.456,1.0
75.158,-9.529,0.026,4.0
116.272,-14.747,3.297,29.0
83.243,-10.555,1.914,31.0
83.351,-10.566,1.47,16.0
83.366,-10.565,1.016,43.0
83.351,-10.562,0.568,5.0
74.958,-9.496,0.111,8.0
116.241,-14.733,3.428,20.0
83.252,-10.548,2.009,24.0
83.367,-10.559,1.564,19.0
83.377,-10.557,1.11,54.0
83.347,-10.55,0.663,29.0
74.896,-9.478,0.194,8.0
147.896,-18.725,4.529,19.0
86.148,-10.902,2.176,8.0
83.345,-10.543,1.658,17.0
83.358,-10.541,1.202,43.0
83.377,-10.539,0.757,51.0
74.992,-9.476,0.279,5.0
147.895,-18.698,4.696,21.0
86.216,-10.894,2.275,11.0
83.319,-10.523,1.752,23.0
83.326,-10.519,1.297,14.0
83.358,-10.518,0.851,150.0
78.31,-9.878,0.379,3.0
148.0,-18.678,4.865,22.0
116.283,-14.666,3.198,25.0
83.31,-10.501,1.843,40.0
83.332,-10.498,1.389,19.0
83.381,-10.499,0.943,150.0
83.276,-10.481,0.495,5.0
148.154,-18.657,5.034,17.0
116.245,-14.628,3.327,27.0
83.252,-10.469,1.936,30.0
83.334,-10.473,1.481,25.0
83.371,-10.471,1.036,49.0
83.35,-10.463,0.589,22.0
95.576,-12.005,3.353,13.0
116.246,-14.59,3.453,18.0
83.254,-10.441,2.027,16.0
83.365,-10.448,1.573,150.0
83.376,-10.442,1.125,35.0
83.37,-10.435,0.678,24.0
95.487,-11.959,3.453,20.0
147.974,-18.517,4.556,16.0
86.296,-10.79,2.192,8.0
83.344,-10.413,1.661,150.0
83.372,-10.408,1.214,23.0
83.389,-10.403,0.767,20.0
95.559,-11.929,3.558,13.0
147.899,-18.446,4.71,20.0
116.262,-14.487,3.078,18.0
83.362,-10.378,1.75,88.0
83.357,-10.369,1.303,33.0
83.382,-10.364,0.855,18.0
151.28,-18.817,5.792,8.0
148.005,-18.391,4.871,17.0
116.271,-14.433,3.201,29.0
83.295,-10.33,1.836,44.0
83.368,-10.33,1.39,48.0
83.363,-10.32,0.942,12.0
95.574,-11.84,3.759,5.0
148.15,-18.334,5.029,14.0
116.247,-14.37,3.322,28.0
83.258,-10.282,1.922,36.0
83.39,-10.288,1.476,37.0
83.362,-10.274,1.028,22.0
95.524,-11.782,3.857,5.0
95.477,-11.762,3.34,12.0
116.263,-14.307,3.441,19.0
83.24,-10.232,2.007,33.0
83.389,-10.239,1.561,150.0
83.385,-10.228,1.113,21.0
94.571,-11.609,3.914,2.0
95.444,-11.702,3.435,14.0
147.957,-18.118,4.528,15.0
83.282,-10.186,2.091,10.0
83.402,-10.188,1.646,52.0
83.356,-10.172,1.196,16.0
94.137,-11.497,3.991,6.0
148.396,-18.099,5.491,15.0
147.942,-18.02,4.675,20.0
116.309,-14.149,3.036,24.0
83.349,-10.127,1.727,23.0
83.382,-10.118,1.278,15.0
94.463,-11.473,4.097,17.0
148.4,-17.999,5.635,21.0
148.054,-17.932,4.823,21.0
116.299,-14.067,3.149,40.0
83.314,-10.064,1.806,38.0
83.386,-10.06,1.358,17.0
94.401,-11.398,4.185,16.0
148.165,-17.863,5.768,21.0
148.37,-17.862,4.974,21.0
116.295,-13.981,3.259,37.0
83.308,-10.0,1.886,54.0
83.378,-9.995,1.437,23.0
94.415,-11.329,4.274,13.0
148.263,-17.761,5.912,18.0
148.324,-17.742,5.111,22.0
116.233,-13.882,3.365,26.0
83.257,-9.928,1.962,40.0
83.379,-9.928,1.515,22.0
94.546,-11.268,4.369,2.0
148.12,-17.625,6.043,12.0
148.518,-17.644,5.254,20.0
116.288,-13.792,3.473,14.0
83.288,-9.863,2.037,28.0
83.361,-9.857,1.589,14.0
94.241,-11.153,4.439,6.0
148.339,-17.525,6.184,5.0
148.46,-17.51,5.385,20.0
147.97,-17.422,4.551,21.0
83.279,-9.79,2.11,11.0
83.382,-9.786,1.663,24.0
94.272,-11.074,4.524,10.0
0.0,0.0,0.0,0.0
148.606,-17.393,5.521,22.0
147.925,-17.284,4.678,23.0
116.31,-13.566,3.049,24.0
83.335,-9.703,1.733,38.0
94.291,-10.989,4.606,6.0
0.0,0.0,0.0,0.0
148.276,-17.217,5.634,23.0
148.052,-17.159,4.807,28.0
116.311,-13.456,3.145,35.0
83.32,-9.622,1.802,40.0
108.091,-12.495,5.37,7.0
0.0,0.0,0.0,0.0
148.225,-17.067,5.754,26.0
148.284,-17.041,4.935,23.0
116.304,-13.34,3.24,43.0
83.286,-9.535,1.869,37.0
108.135,-12.391,5.461,16.0
111.195,-12.715,5.01,8.0
148.274,-16.921,5.874,22.0
148.44,-16.906,5.059,22.0
116.292,-13.218,3.332,29.0
83.304,-9.45,1.935,30.0
108.067,-12.271,5.542,19.0
110.967,-12.572,5.086,15.0
148.71,-16.813,6.007,11.0
148.62,-16.768,5.181,23.0
116.271,-13.091,3.421,22.0
83.339,-9.364,1.999,24.0
108.037,-12.151,5.622,10.0
0.0,0.0,0.0,0.0
0.0,0.0,0.0,0.0
148.456,-16.586,5.285,19.0
147.994,-16.5,4.464,15.0
83.353,-9.273,2.061,16.0
0.0,0.0,0.0,0.0
108.076,-12.008,5.113,17.0
0.0,0.0,0.0,0.0
148.338,-16.405,5.386,19.0
147.993,-16.33,4.568,19.0
116.336,-12.809,2.959,24.0
109.762,-12.096,5.87,10.0
108.059,-11.88,5.188,20.0
110.421,-12.11,4.699,7.0
148.17,-16.213,5.483,30.0
108.839,-11.881,3.434,7.0
116.339,-12.671,3.037,29.0
108.991,-11.882,5.901,16.0
108.04,-11.749,5.26,20.0
110.801,-12.02,4.788,17.0
148.189,-16.037,5.58,28.0
108.796,-11.747,3.502,16.0
116.349,-12.532,3.111,45.0
109.123,-11.764,5.978,19.0
107.953,-11.608,5.323,19.0
110.92,-11.897,4.863,20.0
148.402,-15.878,5.681,24.0
108.789,-11.61,3.57,18.0
116.336,-12.385,3.183,56.0
109.113,-11.626,6.044,20.0
107.902,-11.467,5.387,17.0
110.704,-11.733,4.921,20.0
148.9,-15.741,5.788,28.0
108.766,-11.468,3.633,24.0
116.345,-12.236,3.25,36.0
108.845,-11.458,6.093,10.0
107.841,-11.321,5.445,11.0
110.591,-11.578,4.977,17.0
149.183,-15.576,5.884,15.0
108.794,-11.33,3.694,20.0
116.326,-12.082,3.314,35.0
107.111,-11.135,6.055,13.0
110.043,-11.406,5.616,16.0
109.137,-11.282,4.971,20.0
149.535,-15.416,5.976,13.0
108.839,-11.189,3.753,24.0
116.327,-11.926,3.374,27.0
107.835,-11.064,6.151,19.0
108.774,-11.128,5.607,23.0
108.903,-11.109,5.015,19.0
111.13,-11.303,4.496,23.0
108.785,-11.034,3.805,20.0
116.367,-11.771,3.432,20.0
107.957,-10.928,6.21,25.0
108.861,-10.987,5.663,22.0
110.612,-11.131,5.145,6.0
111.174,-11.154,4.549,21.0
108.444,-10.849,3.841,22.0
116.343,-11.605,3.484,15.0
107.935,-10.774,6.257,23.0
108.901,-10.836,5.713,19.0
108.085,-10.722,5.075,19.0
109.882,-10.867,4.543,20.0
108.434,-10.692,3.888,22.0
148.145,-14.562,4.499,17.0
108.308,-10.655,6.323,17.0
108.154,-10.605,5.719,22.0
108.089,-10.566,5.119,24.0
109.966,-10.717,4.59,20.0
108.487,-10.54,3.932,20.0
148.044,-14.34,4.551,21.0
108.718,-10.536,6.388,9.0
108.452,-10.476,5.774,18.0
108.342,-10.432,5.17,22.0
110.073,-10.565,4.634,23.0
108.274,-10.359,3.963,23.0
147.848,-14.102,4.596,16.0
108.872,-10.391,6.434,11.0
108.416,-10.313,5.808,22.0
108.6,-10.296,5.218,21.0
109.866,-10.381,4.661,14.0
108.736,-10.24,4.013,14.0
114.313,-10.73,3.59,11.0
108.842,-10.223,6.466,20.0
108.76,-10.179,5.859,16.0
108.934,-10.161,5.265,24.0
107.959,-10.036,4.611,17.0
109.019,-10.1,4.054,21.0
114.283,-10.553,3.619,8.0
109.091,-10.078,6.511,21.0
108.716,-10.008,5.885,18.0
108.719,-9.973,5.283,8.0
107.858,-9.861,4.634,22.0
108.111,-9.849,4.047,13.0
114.459,-10.391,3.652,8.0
109.107,-9.91,6.536,17.0
108.784,-9.844,5.913,23.0
108.498,-9.782,5.296,18.0
107.713,-9.678,4.651,22.0
108.042,-9.673,4.066,28.0
108.207,-9.655,3.473,16.0
111.689,-9.968,6.713,5.0
108.605,-9.656,5.924,20.0
107.366,-9.51,5.26,18.0
107.603,-9.495,4.664,25.0
108.213,-9.515,4.09,28.0
109.577,-9.601,3.536,17.0
105.414,-9.239,6.351,15.0
107.627,-9.396,5.886,15.0
107.259,-9.328,5.271,25.0
107.917,-9.351,4.692,23.0
108.682,-9.382,4.122,24.0
114.221,-9.824,3.7,12.0
105.325,-9.06,6.358,19.0
111.814,-9.579,6.128,6.0
107.265,-9.154,5.282,15.0
107.906,-9.174,4.702,24.0
108.556,-9.194,4.127,22.0
114.335,-9.648,3.713,10.0
105.402,-8.894,6.371,16.0
108.851,-9.147,5.973,18.0
107.778,-9.021,5.315,19.0
107.747,-8.983,4.702,20.0
109.023,-9.053,4.151,20.0
114.412,-9.464,3.72,3.0
105.63,-8.737,6.389,17.0
107.085,-8.82,5.88,21.0
107.243,-8.796,5.29,26.0
107.787,-8.805,4.705,22.0
109.064,-8.873,4.154,24.0
108.896,-8.824,3.542,9.0
105.885,-8.578,6.405,12.0
107.059,-8.637,5.877,20.0
107.683,-8.651,5.311,26.0
107.967,-8.637,4.711,37.0
108.977,-8.682,4.148,17.0
108.558,-8.612,3.527,13.0
106.973,-8.485,6.466,22.0
107.542,-8.493,5.899,22.0
108.604,-8.54,5.35,21.0
108.684,-8.51,4.736,21.0
107.943,-8.416,4.102,21.0
108.314,-8.408,3.512,16.0
106.675,-8.278,6.439,12.0
108.582,-8.389,5.947,22.0
108.472,-8.342,5.334,27.0
108.598,-8.316,4.721,23.0
107.536,-8.199,4.075,26.0
108.143,-8.211,3.494,15.0
108.123,-8.205,6.513,27.0
108.073,-8.163,5.905,20.0
108.025,-8.123,5.297,25.0
107.006,-8.011,4.637,22.0
107.76,-8.031,4.068,24.0
0.0,0.0,0.0,0.0
108.033,-8.012,6.49,28.0
107.726,-7.951,5.868,21.0
108.045,-7.937,5.28,26.0
107.193,-7.837,4.626,8.0
107.585,-7.831,4.042,32.0
108.913,-7.892,3.482,40.0
107.602,-7.79,6.443,22.0
107.62,-7.755,5.84,20.0
107.745,-7.728,5.242,24.0
108.459,-7.741,4.657,26.0
108.047,-7.675,4.034,21.0
109.188,-7.72,3.466,20.0
107.194,-7.572,6.393,11.0
107.504,-7.557,5.806,17.0
107.575,-7.526,5.206,26.0
108.047,-7.522,4.611,24.0
108.008,-7.483,4.005,27.0
109.189,-7.528,3.436,23.0
107.051,-7.374,6.354,31.0
107.192,-7.346,5.759,26.0
107.459,-7.328,5.169,25.0
107.984,-7.326,4.577,27.0
108.766,-7.342,3.999,23.0
109.016,-7.322,3.397,40.0
107.25,-7.196,6.331,18.0
106.857,-7.133,5.706,26.0
107.757,-7.156,5.148,23.0
108.097,-7.141,4.545,32.0
108.75,-7.147,3.961,25.0
109.279,-7.146,3.366,8.0
108.151,-7.062,6.344,21.0
107.442,-6.978,5.697,23.0
107.554,-6.949,5.097,24.0
108.258,-6.957,4.509,24.0
108.869,-6.96,3.923,24.0
117.01,-7.441,3.558,22.0
107.689,-6.839,6.274,27.0
107.413,-6.783,5.651,28.0
107.362,-6.743,5.043,25.0
108.379,-6.771,4.469,36.0
109.004,-6.774,3.881,21.0
125.258,-7.743,3.755,5.0
107.998,-6.664,6.243,24.0
107.301,-6.583,5.596,29.0
107.45,-6.557,4.998,26.0
108.014,-6.554,4.404,24.0
109.642,-6.616,3.851,27.0
117.369,-7.043,3.461,29.0
107.487,-6.438,6.162,33.0
108.03,-6.432,5.581,30.0
107.385,-6.357,4.941,31.0
107.846,-6.347,4.341,21.0
117.279,-6.864,4.06,17.0
117.23,-6.822,3.397,26.0
107.881,-6.264,6.126,20.0
107.989,-6.234,5.521,23.0
107.507,-6.169,4.888,24.0
108.089,-6.167,4.292,20.0
117.972,-6.689,4.018,8.0
148.533,-8.374,4.22,9.0
107.783,-6.062,6.059,22.0
107.963,-6.035,5.457,24.0
107.948,-5.998,4.845,25.0
108.886,-6.013,4.259,23.0
117.039,-6.424,3.916,26.0
137.552,-7.504,3.826,15.0
108.092,-5.883,6.01,20.0
108.346,-5.859,5.409,25.0
108.085,-5.808,4.783,24.0
109.288,-5.837,4.206,21.0
117.409,-6.233,3.854,21.0
140.351,-7.404,3.813,15.0
108.09,-5.687,5.939,13.0
108.45,-5.669,5.343,24.0
108.276,-5.624,4.721,29.0
109.479,-5.651,4.141,25.0
117.556,-6.03,3.78,19.0
140.979,-7.187,3.737,14.0
110.228,-5.602,5.981,8.0
109.242,-5.515,5.306,20.0
0.0,0.0,0.0,0.0
117.519,-5.854,4.362,10.0
117.416,-5.812,3.692,9.0
139.277,-6.848,3.59,9.0
112.398,-5.509,6.017,6.0
114.565,-5.576,5.48,23.0
116.446,-5.629,4.908,23.0
117.088,-5.622,4.258,23.0
140.953,-6.722,4.327,16.0
150.609,-7.135,3.769,4.0
109.229,-5.157,5.763,19.0
114.256,-5.356,5.377,22.0
117.094,-5.451,4.844,22.0
116.847,-5.401,4.158,19.0
141.307,-6.486,4.226,14.0
142.492,-6.494,3.452,5.0
118.703,-5.388,6.165,10.0
117.297,-5.285,5.423,14.0
115.727,-5.176,4.691,24.0
117.303,-5.207,4.075,16.0
118.862,-5.238,3.454,8.0
142.685,-6.244,3.335,11.0
115.882,-5.05,5.918,20.0
117.584,-5.086,5.335,15.0
115.97,-4.978,4.601,20.0
126.969,-5.41,4.301,4.0
141.76,-5.995,3.995,8.0
0.0,0.0,0.0,0.0
114.671,-4.79,5.754,22.0
116.788,-4.842,5.194,21.0
0.0,0.0,0.0,0.0
118.304,-4.829,3.901,3.0
141.877,-5.748,3.87,15.0
162.389,-6.53,3.506,7.0
114.436,-4.578,5.636,24.0
116.767,-4.635,5.084,21.0
117.461,-4.624,4.443,25.0
124.763,-4.872,3.996,8.0
142.593,-5.524,3.754,17.0
162.341,-6.239,3.349,14.0
115.406,-4.413,5.573,18.0
117.045,-4.438,4.982,13.0
117.48,-4.418,4.33,11.0
138.634,-5.17,4.303,20.0
167.317,-6.187,4.24,7.0
162.199,-5.949,3.185,16.0
115.88,-4.227,5.479,21.0
117.488,-4.249,4.883,21.0
138.149,-4.955,4.952,11.0
139.964,-4.975,4.204,18.0
163.342,-5.757,3.973,19.0
162.198,-5.666,3.019,21.0
115.802,-4.021,5.354,23.0
116.677,-4.015,4.727,22.0
117.56,-4.01,4.09,9.0
140.207,-4.739,4.062,14.0
163.313,-5.472,3.799,12.0
162.208,-5.387,2.847,27.0
117.148,-3.866,5.291,22.0
119.017,-3.891,4.693,7.0
139.544,-4.518,4.703,20.0
163.205,-5.235,4.55,21.0
162.84,-5.176,3.61,3.0
162.314,-5.112,2.671,4.0
122.137,-3.818,5.379,10.0
118.876,-3.681,4.554,19.0
139.835,-4.288,4.556,13.0
163.236,-4.957,4.368,15.0
167.905,-5.049,3.531,17.0
163.963,-4.883,2.512,19.0
117.241,-3.464,5.028,14.0
118.71,-3.472,4.41,22.0
140.416,-4.064,4.41,6.0
163.43,-4.684,4.182,6.0
167.825,-4.761,3.333,8.0
161.904,-4.546,2.288,21.0
117.419,-3.269,4.896,19.0
140.009,-3.858,5.034,16.0
140.734,-3.836,4.252,12.0
0.0,0.0,0.0,0.0
170.46,-4.548,3.18,5.0
161.918,-4.273,2.092,20.0
139.927,-3.659,5.661,18.0
140.301,-3.627,4.87,18.0
163.308,-4.174,4.73,15.0
0.0,0.0,0.0,0.0
170.341,-4.257,2.963,5.0
0.0,0.0,0.0,0.0
143.291,-3.505,5.614,6.0
162.575,-3.929,5.434,22.0
163.326,-3.9,4.522,30.0
0.0,0.0,0.0,0.0
170.457,-3.976,2.746,3.0
119.281,-2.749,1.237,27.0
140.426,-3.203,5.32,25.0
162.637,-3.663,5.226,15.0
163.328,-3.634,4.311,9.0
170.487,-3.745,3.502,4.0
0.0,0.0,0.0,0.0
119.218,-2.554,1.08,151.0
190.088,-4.027,6.95,20.0
162.695,-3.4,5.011,28.0
163.453,-3.37,4.094,6.0
170.35,-3.465,3.271,6.0
119.303,-2.394,1.604,13.0
119.136,-2.358,0.918,12.0
190.515,-3.725,6.703,20.0
163.373,-3.148,4.806,26.0
171.605,-3.262,4.063,5.0
170.372,-3.191,3.035,5.0
119.236,-2.201,1.438,64.0
0.0,0.0,0.0,0.0
162.574,-2.92,5.493,16.0
163.194,-2.886,4.573,29.0
0.0,0.0,0.0,0.0
119.683,-2.052,1.964,3.0
119.258,-2.014,1.271,152.0
19.742,-0.328,0.096,2.0
162.591,-2.662,5.259,58.0
163.474,-2.634,4.347,9.0
0.0,0.0,0.0,0.0
119.473,-1.862,1.788,1.0
19.744,-0.302,0.181,16.0
19.746,-0.297,0.068,9.0
163.036,-2.417,5.036,23.0
163.394,-2.379,4.104,10.0
19.786,-0.283,0.383,1.0
19.744,-0.277,0.266,9.0
19.744,-0.272,0.152,30.0
0.0,0.0,0.0,0.0
163.342,-2.171,4.802,30.0
19.769,-0.257,0.467,5.0
19.74,-0.252,0.352,9.0
19.735,-0.247,0.236,11.0
19.76,-0.242,0.123,2.0
0.0,0.0,0.0,0.0
19.77,-0.232,0.551,7.0
19.743,-0.227,0.436,10.0
19.745,-0.222,0.322,7.0
19.794,-0.218,0.207,0.0
0.0,0.0,0.0,0.0
0.0,0.0,0.0,0.0
19.761,-0.203,0.52,13.0
19.757,-0.198,0.405,7.0
19.708,-0.193,0.291,0.0
168.8,-1.614,1.502,3.0
0.0,0.0,0.0,0.0
19.785,-0.179,-0.052,2.0
19.767,-0.174,0.489,6.0
177.302,-1.525,3.363,19.0
169.456,-1.417,2.235,16.0
160.705,-1.305,1.175,15.0
19.798,-0.156,0.03,1.0
19.733,-0.15,-0.083,13.0
19.758,-0.146,0.457,0.0
177.122,-1.272,3.076,11.0
19.735,-0.137,0.228,2.0
19.762,-0.132,0.112,5.0
19.733,-0.127,-0.001,11.0
19.72,-0.123,-0.115,16.0
19.682,-0.118,0.423,9.0
19.688,-0.113,0.309,8.0
19.714,-0.109,0.195,14.0
19.709,-0.104,0.079,12.0
19.716,-0.1,-0.034,14.0
19.728,-0.095,-0.148,17.0
19.659,-0.09,0.389,9.0
19.658,-0.086,0.275,10.0
19.696,-0.082,0.162,15.0
19.699,-0.077,0.046,15.0
19.727,-0.073,-0.067,14.0
19.737,-0.069,-0.181,15.0
19.644,-0.064,0.356,10.0
19.647,-0.059,0.242,13.0
19.686,-0.055,0.129,16.0
19.703,-0.051,0.013,17.0
19.732,-0.047,-0.1,12.0
19.752,-0.042,-0.214,8.0
19.634,-0.038,0.322,12.0
19.649,-0.034,0.209,15.0
19.679,-0.03,0.095,11.0
19.71,-0.025,-0.02,13.0
19.756,-0.021,-0.134,4.0
37.637,-0.033,-0.474,0.0
19.634,-0.013,0.289,14.0
19.718,-0.009,0.176,6.0
19.783,-0.005,0.062,3.0
19.738,0.0,-0.054,6.0
19.784,0.003,-0.168,0.0
19.772,0.007,-0.283,1.0
19.636,0.011,0.255,16.0
19.748,0.015,0.142,8.0
19.748,0.019,0.027,16.0
19.753,0.023,-0.088,6.0
19.744,0.027,-0.203,17.0
19.773,0.031,-0.318,16.0
19.638,0.035,0.22,15.0
19.749,0.039,0.106,13.0
19.759,0.043,-0.007,150.0
19.737,0.047,-0.123,33.0
19.768,0.051,-0.238,32.0
19.778,0.055,-0.353,42.0
19.654,0.058,0.185,13.0
19.734,0.062,0.071,27.0
19.762,0.066,-0.042,28.0
19.773,0.07,-0.159,23.0
19.77,0.074,-0.274,12.0
19.779,0.078,-0.388,2.0
19.686,0.081,0.15,13.0
19.683,0.085,0.035,9.0
19.725,0.089,-0.078,1.0
19.855,0.093,-0.195,0.0
31.975,0.156,-0.5,0.0
28.246,0.143,-0.606,0.0
19.66,0.103,0.114,14.0
19.647,0.107,0.0,12.0
19.68,0.11,-0.113,6.0
38.992,0.226,-0.456,0.0
31.385,0.188,-0.549,0.0
27.369,0.169,-0.637,0.0
19.651,0.124,0.077,13.0
19.645,0.128,-0.036,12.0
19.665,0.132,-0.15,9.0
19.687,0.135,-0.266,0.0
30.45,0.215,-0.589,0.0
26.23,0.19,-0.66,0.0
19.647,0.145,0.04,18.0
19.647,0.149,-0.073,12.0
19.654,0.152,-0.187,12.0
19.683,0.156,-0.303,4.0
19.681,0.159,-0.417,8.0
19.686,0.163,-0.532,6.0
19.636,0.165,0.004,17.0
19.64,0.169,-0.109,15.0
19.65,0.172,-0.223,15.0
19.66,0.176,-0.34,13.0
19.666,0.179,-0.454,16.0
19.682,0.182,-0.569,14.0
19.666,0.185,-0.032,12.0
19.645,0.188,-0.147,16.0
19.646,0.191,-0.261,16.0
19.637,0.195,-0.377,15.0
19.658,0.198,-0.491,17.0
19.69,0.201,-0.606,19.0
19.643,0.204,-0.07,16.0
19.643,0.207,-0.184,16.0
19.643,0.21,-0.298,15.0
19.644,0.213,-0.414,19.0
19.672,0.216,-0.529,17.0
19.681,0.22,-0.644,16.0
19.647,0.222,-0.107,16.0
19.644,0.225,-0.221,17.0
19.647,0.228,-0.336,14.0
19.649,0.231,-0.452,19.0
19.669,0.234,-0.567,15.0
19.68,0.237,-0.682,14.0
19.649,0.239,-0.145,16.0
19.652,0.242,-0.26,17.0
19.646,0.245,-0.374,15.0
19.667,0.248,-0.491,16.0
19.689,0.251,-0.605,10.0
19.612,0.253,-0.718,6.0
19.665,0.256,-0.184,15.0
19.667,0.259,-0.298,13.0
19.667,0.262,-0.413,14.0
19.686,0.265,-0.53,8.0
22.026,0.3,-0.721,1.0
19.557,0.269,-0.754,4.0
19.676,0.272,-0.222,15.0
19.68,0.275,-0.337,10.0
19.7,0.278,-0.452,5.0
23.813,0.34,-0.688,0.0
20.905,0.301,-0.725,0.0
19.254,0.28,-0.78,1.0
19.686,0.288,-0.261,10.0
19.721,0.291,-0.377,2.0
26.385,0.393,-0.657,1.0
22.581,0.339,-0.696,0.0
19.665,0.298,-0.721,3.0
18.41,0.281,-0.782,0.0
19.673,0.302,-0.3,1.0
28.726,0.445,-0.605,0.0
25.168,0.393,-0.677,0.0
21.739,0.342,-0.713,0.0
19.754,0.313,-0.763,2.0
17.872,0.286,-0.795,0.0
30.789,0.495,-0.531,0.0
27.188,0.44,-0.627,1.0
23.935,0.39,-0.691,0.0
21.013,0.345,-0.731,1.0
19.022,0.315,-0.773,0.0
17.377,0.29,-0.807,0.0
27.281,0.456,-0.524,0.0
26.032,0.438,-0.651,0.0
22.45,0.381,-0.692,0.0
19.988,0.341,-0.735,1.0
18.466,0.317,-0.787,0.0
16.594,0.287,-0.804,0.0
28.382,0.493,-0.602,0.0
24.96,0.436,-0.675,0.0
21.408,0.376,-0.704,0.0
19.789,0.35,-0.768,2.0
17.747,0.316,-0.792,0.0
16.013,0.287,-0.808,0.0
27.202,0.488,-0.631,2.0
23.715,0.428,-0.688,0.0
20.991,0.381,-0.731,1.0
18.992,0.347,-0.774,0.0
17.388,0.319,-0.81,0.0
15.575,0.288,-0.817,0.0
26.016,0.481,-0.656,0.0
22.426,0.417,-0.696,1.0
19.945,0.373,-0.735,1.0
18.141,0.341,-0.776,0.0
16.564,0.313,-0.805,0.0
15.099,0.287,-0.822,0.0
24.675,0.469,-0.671,0.0
21.455,0.41,-0.708,1.0
19.665,0.377,-0.764,1.0
17.763,0.342,-0.795,0.0
15.918,0.308,-0.806,0.0
14.71,0.286,-0.83,0.0
23.038,0.448,-0.672,0.0
20.9,0.409,-0.732,4.0
18.862,0.37,-0.77,0.0
17.181,0.339,-0.803,0.0
15.38,0.305,-0.809,0.0
14.312,0.285,-0.836,1.0
22.407,0.446,-0.698,0.0
19.925,0.398,-0.737,0.0
18.289,0.367,-0.783,0.0
16.635,0.335,-0.811,0.0
15.0,0.303,-0.819,0.0
14.007,0.284,-0.847,1.0
21.511,0.436,-0.713,1.0
19.288,0.393,-0.752,0.0
17.699,0.362,-0.793,0.0
15.823,0.324,-0.803,0.0
14.705,0.303,-0.832,0.0
13.615,0.281,-0.85,1.0
20.875,0.431,-0.734,3.0
18.673,0.386,-0.765,0.0
17.222,0.358,-0.806,1.0
15.378,0.32,-0.811,0.0
14.275,0.299,-0.836,1.0
13.238,0.278,-0.853,0.0
20.092,0.421,-0.746,1.0
18.079,0.38,-0.777,0.0
16.462,0.347,-0.803,0.0
14.965,0.316,-0.819,0.0
13.968,0.296,-0.846,1.0
12.861,0.274,-0.854,0.0
19.224,0.408,-0.752,0.0
17.644,0.375,-0.793,0.0
15.91,0.339,-0.808,0.0
14.643,0.313,-0.83,0.0
13.568,0.291,-0.848,0.0
12.608,0.271,-0.862,0.0
18.692,0.401,-0.768,0.0
17.134,0.368,-0.804,0.0
15.399,0.332,-0.812,0.0
14.236,0.308,-0.835,1.0
13.192,0.286,-0.851,0.0
12.312,0.267,-0.866,0.0
18.009,0.389,-0.775,0.0
16.497,0.358,-0.806,0.0
14.972,0.325,-0.819,0.0
13.938,0.304,-0.845,1.0
12.794,0.279,-0.85,0.0
12.063,0.264,-0.872,0.0
17.59,0.383,-0.791,1.0
15.886,0.347,-0.807,0.0
14.627,0.32,-0.828,0.0
13.517,0.296,-0.846,0.0
12.559,0.276,-0.859,0.0
11.854,0.261,-0.88,0.0
17.108,0.375,-0.803,0.0
15.356,0.337,-0.81,0.0
14.19,0.312,-0.831,0.0
13.178,0.29,-0.85,0.0
12.284,0.271,-0.864,0.0
11.539,0.255,-0.879,0.0
16.448,0.361,-0.803,0.0
14.978,0.33,-0.819,0.0
13.918,0.307,-0.842,1.0
12.804,0.283,-0.851,0.0
12.064,0.267,-0.872,0.0
11.263,0.249,-0.88,0.0
15.832,0.348,-0.803,0.0
14.646,0.323,-0.829,0.0
13.574,0.299,-0.847,0.0
12.533,0.277,-0.857,0.0
11.85,0.262,-0.879,0.0
11.06,0.245,-0.885,0.0
15.294,0.337,-0.805,0.0
14.214,0.313,-0.831,0.0
13.18,0.291,-0.848,0.0
12.273,0.271,-0.862,0.0
11.539,0.255,-0.878,0.0
10.876,0.241,-0.891,0.0
14.89,0.327,-0.812,0.0
13.933,0.306,-0.841,1.0
12.808,0.282,-0.848,0.0
12.062,0.266,-0.87,0.0
11.22,0.247,-0.875,0.0
10.645,0.235,-0.893,0.0
14.642,0.321,-0.826,0.0
13.514,0.296,-0.841,0.0
12.642,0.277,-0.861,0.0
11.833,0.259,-0.876,0.0
11.039,0.242,-0.882,0.0
10.41,0.229,-0.892,0.0
14.257,0.31,-0.831,1.0
13.21,0.288,-0.847,0.0
12.313,0.268,-0.861,0.0
11.562,0.252,-0.877,0.0
10.837,0.236,-0.886,0.0
10.243,0.223,-0.897,0.0
13.986,0.302,-0.841,1.0
12.805,0.277,-0.844,0.0
12.11,0.262,-0.869,0.0
11.254,0.243,-0.875,0.0
10.676,0.231,-0.892,0.0
10.098,0.218,-0.903,0.0
13.596,0.292,-0.842,0.0
12.648,0.271,-0.857,0.0
11.87,0.254,-0.874,0.0
11.056,0.237,-0.879,0.0
10.4,0.223,-0.888,0.0
9.903,0.212,-0.904,0.0
13.279,0.282,-0.846,0.0
12.357,0.262,-0.859,0.0
11.679,0.248,-0.88,0.0
10.924,0.231,-0.888,0.0
10.277,0.218,-0.896,0.0
9.747,0.206,-0.907,0.0
12.902,0.27,-0.845,0.0
12.134,0.254,-0.866,0.0
11.31,0.237,-0.873,0.0
10.7,0.224,-0.89,0.0
10.103,0.211,-0.899,0.0
9.616,0.201,-0.912,0.0
12.694,0.262,-0.854,0.0
11.96,0.247,-0.874,0.0
11.095,0.229,-0.876,0.0
10.486,0.216,-0.89,0.0
9.964,0.205,-0.904,0.0
9.429,0.194,-0.911,0.0
12.484,0.254,-0.862,0.0
11.709,0.238,-0.876,0.0
10.961,0.222,-0.884,0.0
10.328,0.209,-0.895,0.0
9.778,0.198,-0.904,0.0
9.321,0.188,-0.917,0.0
12.234,0.244,-0.866,0.0
11.484,0.229,-0.879,0.0
10.751,0.214,-0.886,0.0
10.13,0.201,-0.895,0.0
9.654,0.192,-0.909,0.0
9.18,0.182,-0.918,0.0
12.032,0.235,-0.871,0.0
11.203,0.219,-0.876,0.0
10.552,0.206,-0.887,0.0
10.005,0.195,-0.901,0.0
9.51,0.185,-0.912,0.0
9.034,0.175,-0.919,0.0
11.815,0.226,-0.875,0.0
11.072,0.211,-0.885,0.0
10.412,0.198,-0.893,0.0
9.874,0.187,-0.905,0.0
9.376,0.178,-0.914,0.0
8.86,0.168,-0.916,0.0
11.501,0.215,-0.871,0.0
10.875,0.202,-0.887,0.0
10.198,0.189,-0.891,0.0
9.681,0.179,-0.903,0.0
9.226,0.17,-0.915,0.0
8.749,0.161,-0.919,0.0
11.407,0.207,-0.882,1.0
10.697,0.194,-0.89,0.0
10.123,0.183,-0.901,0.0
9.608,0.173,-0.912,0.0
9.146,0.164,-0.922,0.0
8.663,0.155,-0.924,0.0
11.18,0.197,-0.883,0.0
10.531,0.185,-0.892,0.0
9.927,0.174,-0.899,0.0
9.407,0.164,-0.908,0.0
8.926,0.155,-0.914,0.0
8.54,0.148,-0.924,0.0
10.983,0.187,-0.884,0.0
10.371,0.176,-0.895,0.0
9.815,0.166,-0.904,0.0
9.311,0.157,-0.913,0.0
8.826,0.148,-0.917,0.0
8.415,0.141,-0.924,0.0
10.822,0.178,-0.888,0.0
10.193,0.167,-0.895,0.0
9.673,0.158,-0.906,0.0
9.195,0.149,-0.916,0.0
8.733,0.141,-0.921,0.0
8.309,0.134,-0.925,0.0
10.663,0.169,-0.891,0.0
10.075,0.159,-0.9,0.0
9.5,0.149,-0.904,0.0
9.061,0.141,-0.916,0.0
8.645,0.134,-0.925,0.0
8.209,0.127,-0.926,0.0
10.535,0.16,-0.895,0.0
9.94,0.15,-0.903,0.0
9.461,0.142,-0.914,0.0
8.97,0.134,-0.92,0.0
8.523,0.127,-0.924,0.0
8.163,0.121,-0.933,0.0
10.389,0.15,-0.898,0.0
9.827,0.141,-0.906,0.0
9.308,0.133,-0.913,0.0
8.824,0.125,-0.918,0.0
8.4,0.119,-0.923,0.0
8.046,0.113,-0.931,0.0
10.225,0.141,-0.898,0.0
9.621,0.131,-0.901,0.0
9.199,0.125,-0.915,0.0
8.728,0.118,-0.92,0.0
8.332,0.112,-0.927,0.0
7.976,0.106,-0.934,0.0
10.102,0.131,-0.901,0.0
9.507,0.123,-0.903,0.0
9.085,0.116,-0.916,0.0
8.65,0.11,-0.923,0.0
8.247,0.104,-0.928,0.0
7.906,0.099,-0.936,0.0
9.979,0.122,-0.904,0.0
9.47,0.115,-0.912,0.0
8.969,0.108,-0.916,0.0
8.565,0.102,-0.926,0.0
8.154,0.097,-0.929,0.0
7.817,0.092,-0.936,0.0
9.855,0.113,-0.905,0.0
9.357,0.106,-0.913,0.0
8.876,0.1,-0.918,0.0
8.452,0.094,-0.924,0.0
8.101,0.089,-0.933,0.0
7.759,0.085,-0.939,0.0
9.753,0.104,-0.908,0.0
9.246,0.097,-0.914,0.0
8.795,0.092,-0.921,0.0
8.373,0.086,-0.926,0.0
8.006,0.082,-0.932,0.0
7.678,0.077,-0.939,0.0
9.634,0.094,-0.909,0.0
9.133,0.088,-0.914,0.0
8.64,0.083,-0.915,0.0
8.278,0.078,-0.926,0.0
7.94,0.074,-0.934,0.0
7.613,0.07,-0.94,0.0
9.504,0.085,-0.908,0.0
9.045,0.08,-0.916,0.0
8.576,0.074,-0.918,0.0
8.215,0.07,-0.928,0.0
7.891,0.067,-0.937,0.0
7.533,0.063,-0.939,0.0
9.421,0.076,-0.91,0.0
8.956,0.071,-0.917,0.0
8.539,0.066,-0.924,0.0
8.143,0.062,-0.929,0.0
7.811,0.059,-0.937,0.0
7.476,0.055,-0.94,0.0
9.332,0.066,-0.912,0.0
8.875,0.062,-0.919,0.0
8.474,0.058,-0.926,0.0
8.076,0.054,-0.93,0.0
7.736,0.051,-0.936,0.0
7.431,0.048,-0.943,0.0
9.269,0.057,-0.916,0.0
8.775,0.053,-0.918,0.0
8.399,0.05,-0.927,0.0
8.007,0.046,-0.931,0.0
7.655,0.043,-0.935,0.0
7.379,0.041,-0.944,0.0
9.16,0.048,-0.914,0.0
8.711,0.044,-0.92,0.0
8.304,0.041,-0.925,0.0
7.944,0.038,-0.932,0.0
7.654,0.036,-0.942,0.0
7.319,0.033,-0.944,0.0
9.101,0.039,-0.918,0.0
8.642,0.035,-0.921,0.0
8.237,0.033,-0.926,0.0
7.921,0.03,-0.937,0.0
7.593,0.028,-0.942,0.0
7.264,0.026,-0.944,0.0
9.035,0.029,-0.919,0.0
8.567,0.027,-0.921,0.0
8.201,0.024,-0.929,0.0
7.856,0.022,-0.936,0.0
7.53,0.02,-0.941,0.0
7.253,0.018,-0.949,0.0
8.948,0.02,-0.919,0.0
8.517,0.018,-0.924,0.0
8.136,0.016,-0.929,0.0
7.79,0.014,-0.936,0.0
7.452,0.012,-0.938,0.0
7.191,0.011,-0.947,0.0
8.853,0.011,-0.917,0.0
8.438,0.009,-0.922,0.0
8.085,0.007,-0.93,0.0
7.747,0.006,-0.937,0.0
7.428,0.004,-0.941,0.0
7.143,0.003,-0.947,0.0
8.81,0.002,-0.92,0.0
8.406,0.0,-0.926,0.0
8.067,0.0,-0.935,0.0
7.712,-0.001,-0.939,0.0
7.401,-0.002,-0.944,0.0
7.101,-0.003,-0.947,0.0
8.742,-0.007,-0.919,0.0
8.347,-0.008,-0.926,0.0
8.026,-0.009,-0.936,0.0
7.659,-0.009,-0.938,0.0
7.361,-0.01,-0.944,0.0
7.068,-0.011,-0.948,0.0
8.695,-0.016,-0.921,0.0
8.302,-0.016,-0.927,0.0
7.935,-0.017,-0.931,0.0
7.606,-0.018,-0.937,0.0
7.323,-0.018,-0.945,0.0
7.064,-0.019,-0.952,0.0
8.643,-0.025,-0.921,0.0
8.245,-0.025,-0.926,0.0
7.899,-0.026,-0.932,0.0
7.556,-0.026,-0.936,0.0
7.308,-0.026,-0.948,0.0
6.998,-0.026,-0.948,0.0
8.628,-0.035,-0.925,0.0
8.214,-0.034,-0.928,0.0
7.854,-0.034,-0.932,0.0
7.547,-0.034,-0.94,0.0
7.269,-0.034,-0.947,0.0
6.996,-0.034,-0.952,0.0
8.563,-0.044,-0.923,0.0
8.194,-0.043,-0.93,0.0
7.826,-0.043,-0.933,0.0
7.532,-0.042,-0.942,0.0
7.232,-0.042,-0.946,0.0
6.958,-0.042,-0.951,0.0
8.524,-0.053,-0.924,0.0
8.162,-0.052,-0.931,0.0
7.813,-0.051,-0.936,0.0
7.474,-0.05,-0.939,0.0
7.201,-0.05,-0.946,0.0
6.945,-0.049,-0.953,0.0
8.476,-0.062,-0.923,0.0
8.134,-0.061,-0.932,0.0
7.78,-0.06,-0.936,0.0
7.457,-0.059,-0.941,0.0
7.138,-0.058,-0.942,0.0
6.906,-0.057,-0.951,0.0
8.446,-0.072,-0.924,0.0
8.107,-0.07,-0.933,0.0
7.76,-0.069,-0.937,0.0
7.439,-0.067,-0.942,0.0
7.168,-0.066,-0.949,0.0
6.894,-0.065,-0.952,0.0
8.411,-0.081,-0.923,0.0
8.088,-0.079,-0.934,0.0
7.731,-0.077,-0.937,0.0
7.371,-0.075,-0.936,0.0
7.136,-0.074,-0.947,0.0
6.87,-0.072,-0.951,0.0
8.405,-0.09,-0.926,0.0
8.05,-0.088,-0.932,0.0
7.721,-0.086,-0.938,0.0
7.377,-0.083,-0.94,0.0
7.129,-0.082,-0.949,0.0
6.886,-0.08,-0.956,0.0
8.388,-0.1,-0.927,0.0
8.044,-0.097,-0.934,0.0
7.7,-0.094,-0.938,0.0
7.332,-0.091,-0.936,0.0
7.136,-0.09,-0.952,0.0
6.85,-0.088,-0.953,0.0
8.354,-0.109,-0.925,0.0
7.999,-0.106,-0.931,0.0
7.672,-0.103,-0.937,0.0
7.327,-0.1,-0.937,0.0
7.137,-0.099,-0.954,0.0
6.827,-0.096,-0.951,0.0
8.343,-0.118,-0.926,0.0
8.018,-0.115,-0.935,0.0
7.687,-0.112,-0.94,0.0
7.372,-0.109,-0.945,0.0
7.084,-0.106,-0.948,0.0
6.821,-0.103,-0.952,0.0
8.348,-0.128,-0.928,0.0
7.958,-0.124,-0.93,0.0
7.661,-0.12,-0.939,0.0
7.329,-0.117,-0.94,0.0
7.081,-0.114,-0.949,0.0
6.845,-0.112,-0.956,0.0
8.314,-0.137,-0.926,0.0
7.979,-0.133,-0.933,0.0
7.644,-0.129,-0.938,0.0
7.311,-0.125,-0.939,0.0
7.089,-0.123,-0.951,0.0
6.854,-0.12,-0.958,0.0
8.304,-0.146,-0.925,0.0
7.958,-0.142,-0.932,0.0
7.658,-0.138,-0.94,0.0
7.299,-0.133,-0.938,0.0
7.085,-0.131,-0.951,0.0
6.851,-0.128,-0.958,0.0
8.305,-0.156,-0.926,0.0
7.941,-0.151,-0.93,0.0
7.665,-0.147,-0.941,0.0
7.358,-0.143,-0.946,0.0
7.114,-0.139,-0.955,0.0
6.836,-0.135,-0.956,0.0
8.3,-0.165,-0.925,0.0
7.96,-0.16,-0.932,0.0
7.672,-0.156,-0.942,0.0
7.332,-0.151,-0.942,0.0
7.109,-0.147,-0.954,0.0
6.8,-0.142,-0.951,0.0
8.332,-0.175,-0.929,0.0
7.964,-0.169,-0.932,0.0
7.625,-0.164,-0.936,0.0
7.347,-0.159,-0.944,0.0
7.056,-0.154,-0.946,0.0
6.844,-0.151,-0.957,0.0
8.349,-0.185,-0.93,0.0
7.987,-0.179,-0.934,0.0
7.657,-0.173,-0.939,0.0
7.334,-0.167,-0.941,0.0
7.102,-0.163,-0.952,0.0
6.873,-0.16,-0.96,0.0
8.346,-0.195,-0.928,0.0
7.993,-0.188,-0.934,0.0
7.646,-0.181,-0.936,0.0
7.343,-0.176,-0.941,0.0
7.116,-0.172,-0.952,0.0
6.85,-0.167,-0.955,0.0
8.365,-0.204,-0.929,0.0
8.01,-0.197,-0.934,0.0
7.703,-0.191,-0.942,0.0
7.399,-0.185,-0.947,0.0
7.068,-0.179,-0.944,0.0
6.825,-0.174,-0.951,0.0
8.378,-0.214,-0.929,0.0
8.036,-0.207,-0.936,0.0
7.696,-0.2,-0.939,0.0
7.407,-0.194,-0.946,0.0
7.1,-0.187,-0.947,0.0
6.856,-0.182,-0.953,0.0
8.393,-0.224,-0.928,0.0
8.027,-0.216,-0.932,0.0
7.731,-0.209,-0.941,0.0
7.405,-0.202,-0.944,0.0
7.129,-0.196,-0.949,0.0
6.881,-0.19,-0.954,0.0
8.42,-0.234,-0.928,0.0
8.066,-0.225,-0.934,0.0
7.748,-0.218,-0.941,0.0
7.42,-0.21,-0.943,0.0
7.174,-0.205,-0.952,0.0
6.871,-0.198,-0.95,0.0
8.435,-0.243,-0.927,0.0
8.072,-0.234,-0.932,0.0
7.745,-0.226,-0.937,0.0
7.406,-0.218,-0.938,0.0
7.153,-0.212,-0.946,0.0
6.908,-0.206,-0.953,0.0
8.466,-0.253,-0.927,0.0
8.119,-0.244,-0.934,0.0
7.777,-0.236,-0.938,0.0
7.481,-0.228,-0.945,0.0
7.183,-0.221,-0.947,0.0
6.906,-0.213,-0.949,0.0
8.489,-0.263,-0.926,0.0
8.148,-0.254,-0.934,0.0
7.804,-0.245,-0.938,0.0
7.489,-0.236,-0.942,0.0
7.21,-0.229,-0.947,0.0
6.961,-0.223,-0.953,0.0
8.549,-0.273,-0.928,0.0
8.176,-0.263,-0.933,0.0
7.822,-0.253,-0.936,0.0
7.54,-0.246,-0.945,0.0
7.229,-0.237,-0.946,0.0
6.987,-0.231,-0.953,0.0
8.584,-0.283,-0.927,0.0
8.225,-0.273,-0.934,0.0
7.866,-0.263,-0.937,0.0
7.558,-0.254,-0.943,0.0
7.296,-0.247,-0.951,0.0
7.01,-0.238,-0.952,0.0
8.618,-0.293,-0.926,0.0
8.23,-0.281,-0.93,0.0
7.886,-0.271,-0.934,0.0
7.564,-0.262,-0.939,0.0
7.326,-0.255,-0.95,0.0
7.023,-0.246,-0.95,0.0
8.671,-0.303,-0.926,0.0
8.261,-0.291,-0.928,0.0
7.937,-0.281,-0.935,0.0
7.637,-0.272,-0.943,0.0
7.353,-0.263,-0.949,0.0
7.056,-0.254,-0.95,0.0
8.712,-0.313,-0.925,0.0
8.319,-0.301,-0.929,0.0
7.989,-0.29,-0.936,0.0
7.655,-0.28,-0.94,0.0
7.407,-0.272,-0.95,0.0
7.095,-0.262,-0.95,0.0
8.77,-0.324,-0.925,0.0
8.381,-0.311,-0.93,0.0
8.039,-0.3,-0.936,0.0
7.708,-0.289,-0.941,0.0
7.436,-0.28,-0.949,0.0
7.113,-0.269,-0.947,0.0
8.823,-0.334,-0.924,0.0
8.456,-0.321,-0.932,0.0
8.116,-0.31,-0.939,0.0
7.772,-0.299,-0.942,0.0
7.454,-0.288,-0.945,0.0
7.145,-0.277,-0.945,0.0
8.902,-0.345,-0.925,0.0
8.511,-0.331,-0.931,0.0
8.151,-0.319,-0.936,0.0
7.814,-0.307,-0.941,0.0
7.504,-0.296,-0.945,0.0
7.219,-0.287,-0.949,0.0
8.974,-0.356,-0.925,0.0
8.548,-0.34,-0.928,0.0
8.177,-0.327,-0.932,0.0
7.851,-0.315,-0.939,0.0
7.537,-0.304,-0.943,0.0
7.297,-0.296,-0.953,0.0
9.031,-0.366,-0.923,0.0
8.62,-0.35,-0.928,0.0
8.226,-0.336,-0.931,0.0
7.909,-0.325,-0.939,0.0
7.602,-0.313,-0.944,0.0
7.319,-0.303,-0.949,0.0
9.135,-0.377,-0.925,0.0
8.722,-0.362,-0.931,0.0
8.283,-0.345,-0.929,0.0
7.959,-0.333,-0.937,0.0
7.688,-0.323,-0.948,0.0
7.358,-0.311,-0.947,0.0
9.207,-0.388,-0.924,0.0
8.798,-0.372,-0.931,0.0
8.391,-0.356,-0.933,0.0
8.024,-0.342,-0.937,0.0
7.717,-0.33,-0.944,0.0
7.435,-0.32,-0.95,0.0
9.279,-0.398,-0.922,0.0
8.85,-0.381,-0.928,0.0
8.457,-0.366,-0.932,0.0
8.107,-0.352,-0.939,0.0
7.772,-0.339,-0.942,0.0
7.456,-0.326,-0.945,0.0
9.372,-0.409,-0.922,0.0
8.921,-0.391,-0.926,0.0
8.529,-0.375,-0.932,0.0
8.154,-0.36,-0.936,0.0
7.816,-0.347,-0.94,0.0
7.547,-0.336,-0.948,0.0
9.474,-0.421,-0.922,0.0
9.03,-0.402,-0.928,0.0
8.591,-0.384,-0.929,0.0
8.218,-0.369,-0.934,0.0
7.927,-0.357,-0.944,0.0
7.603,-0.344,-0.947,0.0
9.546,-0.43,-0.919,0.0
9.087,-0.411,-0.924,0.0
8.669,-0.394,-0.928,0.0
8.319,-0.379,-0.937,0.0
7.96,-0.364,-0.939,0.0
7.639,-0.351,-0.943,0.0
9.636,-0.441,-0.917,0.0
9.201,-0.422,-0.925,0.0
8.776,-0.404,-0.929,0.0
8.378,-0.387,-0.933,0.0
8.017,-0.372,-0.937,0.0
7.738,-0.36,-0.946,0.0
9.733,-0.452,-0.915,0.0
9.29,-0.432,-0.923,0.0
8.875,-0.414,-0.93,0.0
8.464,-0.396,-0.933,0.0
8.099,-0.381,-0.937,0.0
7.777,-0.367,-0.942,0.0
9.866,-0.464,-0.915,0.0
9.39,-0.443,-0.922,0.0
8.949,-0.423,-0.927,0.0
8.571,-0.407,-0.935,0.0
8.196,-0.39,-0.938,0.0
7.879,-0.376,-0.944,0.0
9.979,-0.475,-0.914,0.0
9.509,-0.454,-0.922,0.0
9.057,-0.434,-0.926,0.0
8.649,-0.415,-0.932,0.0
8.278,-0.399,-0.937,0.0
7.936,-0.383,-0.941,0.0
10.084,-0.485,-0.911,0.0
9.612,-0.464,-0.92,0.0
9.183,-0.445,-0.928,0.0
8.757,-0.425,-0.933,0.0
8.371,-0.407,-0.937,0.0
8.009,-0.391,-0.939,0.0
10.235,-0.498,-0.911,0.0
9.72,-0.474,-0.917,0.0
9.27,-0.453,-0.924,0.0
8.859,-0.434,-0.932,0.0
8.485,-0.417,-0.938,0.0
8.123,-0.4,-0.942,0.0
10.386,-0.51,-0.911,0.0
9.878,-0.487,-0.919,0.0
9.384,-0.463,-0.923,0.0
8.964,-0.444,-0.931,0.0
8.585,-0.426,-0.937,0.0
8.182,-0.407,-0.937,0.0
10.511,-0.521,-0.907,0.0
9.987,-0.496,-0.916,0.0
9.513,-0.474,-0.923,0.0
9.063,-0.453,-0.929,0.0
8.652,-0.433,-0.933,0.0
8.284,-0.416,-0.938,0.0
10.629,-0.532,-0.903,0.0
10.141,-0.508,-0.916,0.0
9.609,-0.483,-0.919,0.0
9.18,-0.462,-0.928,0.0
8.748,-0.441,-0.931,0.0
8.403,-0.425,-0.94,0.0
10.77,-0.543,-0.9,0.0
10.28,-0.519,-0.914,0.0
9.776,-0.494,-0.921,0.0
9.297,-0.471,-0.927,0.0
8.876,-0.451,-0.932,0.0
8.474,-0.431,-0.935,0.0
10.915,-0.554,-0.897,0.0
10.413,-0.529,-0.911,0.0
9.878,-0.503,-0.917,0.0
9.412,-0.48,-0.924,0.0
9.006,-0.46,-0.933,0.0
8.575,-0.439,-0.934,0.0
11.083,-0.566,-0.894,0.0
10.563,-0.54,-0.909,0.0
10.029,-0.514,-0.916,0.0
9.551,-0.49,-0.924,0.0
9.106,-0.468,-0.929,0.0
8.711,-0.448,-0.936,0.0
11.338,-0.582,-0.898,0.0
10.713,-0.55,-0.906,0.0
10.2,-0.525,-0.916,0.0
9.693,-0.5,-0.923,0.0
9.215,-0.476,-0.927,0.0
8.798,-0.455,-0.932,0.0
11.515,-0.593,-0.895,0.0
10.86,-0.561,-0.901,0.0
10.322,-0.534,-0.911,0.0
9.826,-0.509,-0.921,0.0
9.359,-0.485,-0.927,0.0
8.936,-0.464,-0.932,0.0
29.167,-1.072,-0.631,0.0
25.659,-0.938,-0.688,0.0
23.215,-0.844,-0.743,0.0
20.602,-0.746,-0.769,0.0
19.142,-0.689,-0.814,0.0
17.378,-0.622,-0.83,0.0
30.248,-1.078,-0.603,0.0
26.44,-0.937,-0.665,0.0
23.779,-0.838,-0.722,0.0
21.194,-0.742,-0.755,0.0
19.549,-0.681,-0.799,0.0
17.807,-0.617,-0.82,1.0
31.723,-1.093,-0.58,0.0
0.0,0.0,0.0,0.0
24.883,-0.847,-0.714,0.0
22.153,-0.75,-0.753,0.0
20.0,-0.673,-0.784,0.0
18.255,-0.611,-0.811,0.0
32.331,-1.075,-0.537,0.0
29.165,-0.964,-0.636,0.0
25.477,-0.837,-0.689,0.0
22.858,-0.746,-0.739,0.0
17.8,-0.577,-0.669,5.0
17.83,-0.575,-0.763,2.0
0.0,0.0,0.0,0.0
30.06,-0.957,-0.607,0.0
26.929,-0.851,-0.684,0.0
23.831,-0.748,-0.732,0.0
17.805,-0.555,-0.64,151.0
17.794,-0.551,-0.732,27.0
0.0,0.0,0.0,0.0
31.445,-0.96,-0.584,0.0
28.354,-0.859,-0.674,0.0
24.613,-0.74,-0.716,0.0
17.813,-0.532,-0.611,150.0
17.756,-0.526,-0.702,156.0
0.0,0.0,0.0,0.0
32.708,-0.955,-0.554,0.0
29.12,-0.844,-0.645,0.0
25.62,-0.736,-0.704,0.0
17.803,-0.508,-0.582,11.0
17.763,-0.502,-0.674,156.0
0.0,0.0,0.0,0.0
34.899,-0.972,-0.536,0.0
29.977,-0.828,-0.617,0.0
26.188,-0.717,-0.679,0.0
17.789,-0.483,-0.554,0.0
17.799,-0.479,-0.647,151.0
0.0,0.0,0.0,0.0
36.118,-0.957,-0.498,0.0
31.187,-0.818,-0.593,1.0
27.27,-0.709,-0.664,0.0
24.275,-0.625,-0.718,0.0
21.681,-0.553,-0.755,1.0
0.0,0.0,0.0,0.0
0.0,0.0,0.0,0.0
32.335,-0.803,-0.565,0.0
28.161,-0.692,-0.642,0.0
21.705,-0.528,-0.609,1.0
21.742,-0.524,-0.723,3.0
0.0,0.0,0.0,0.0
0.0,0.0,0.0,0.0
0.0,0.0,0.0,0.0
29.599,-0.684,-0.63,0.0
21.73,-0.497,-0.576,152.0
21.712,-0.491,-0.69,7.0
0.0,0.0,0.0,0.0
0.0,0.0,0.0,0.0
35.458,-0.776,-0.512,0.0
30.385,-0.657,-0.601,0.0
21.729,-0.464,-0.544,151.0
21.711,-0.458,-0.657,152.0
0.0,0.0,0.0,0.0
0.0,0.0,0.0,0.0
0.0,0.0,0.0,0.0
31.597,-0.636,-0.579,0.0
21.744,-0.432,-0.512,1.0
21.722,-0.425,-0.626,151.0
0.0,0.0,0.0,0.0
0.0,0.0,0.0,0.0
39.862,-0.751,-0.459,0.0
33.491,-0.622,-0.565,0.0
29.309,-0.536,-0.648,0.0
25.771,-0.465,-0.705,0.0
0.0,0.0,0.0,0.0
0.0,0.0,0.0,0.0
0.0,0.0,0.0,0.0
0.0,0.0,0.0,0.0
30.155,-0.504,-0.624,0.0
26.475,-0.436,-0.687,0.0
0.0,0.0,0.0,0.0
0.0,0.0,0.0,0.0
0.0,0.0,0.0,0.0
0.0,0.0,0.0,0.0
30.76,-0.465,-0.594,0.0
27.298,-0.405,-0.671,0.0
19.763,-0.288,0.063,8.0
0.0,0.0,0.0,0.0
0.0,0.0,0.0,0.0
0.0,0.0,0.0,0.0
31.33,-0.422,-0.562,0.0
27.935,-0.369,-0.648,0.0
19.758,-0.256,0.09,10.0
0.0,0.0,0.0,0.0
0.0,0.0,0.0,0.0
0.0,0.0,0.0,0.0
33.265,-0.393,-0.552,0.0
29.013,-0.334,-0.634,0.0
19.602,-0.221,0.115,0.0
0.0,0.0,0.0,0.0
0.0,0.0,0.0,0.0
43.062,-0.448,-0.43,0.0
19.786,-0.2,-0.302,1.0
19.78,-0.194,-0.406,7.0
160.686,-1.539,1.16,3.0
0.0,0.0,0.0,0.0
19.792,-0.178,-0.066,2.0
19.749,-0.172,-0.172,11.0
19.754,-0.166,-0.276,14.0
19.75,-0.16,-0.38,16.0
160.846,-1.263,1.368,3.0
0.0,0.0,0.0,0.0
19.775,-0.143,-0.04,6.0
19.724,-0.137,-0.146,16.0
19.728,-0.131,-0.251,17.0
19.75,-0.126,-0.356,17.0
19.735,-0.12,0.192,10.0
19.736,-0.114,0.088,10.0
19.724,-0.108,-0.016,12.0
19.699,-0.102,-0.122,16.0
19.739,-0.097,-0.227,16.0
19.751,-0.091,-0.331,15.0
19.695,-0.085,0.216,14.0
19.697,-0.079,0.112,15.0
19.695,-0.073,0.007,15.0
19.717,-0.067,-0.098,13.0
19.733,-0.062,-0.203,15.0
19.763,-0.056,-0.308,11.0
19.65,-0.05,0.239,13.0
19.699,-0.044,0.135,14.0
19.701,-0.038,0.03,16.0
19.724,-0.032,-0.075,10.0
19.755,-0.026,-0.18,7.0
0.0,0.0,0.0,0.0
19.633,-0.014,0.261,13.0
19.756,-0.008,0.158,4.0
19.783,-0.002,0.053,4.0
19.75,0.003,-0.053,8.0
19.79,0.009,-0.158,0.0
19.77,0.015,-0.263,1.0
19.624,0.021,0.283,15.0
19.707,0.027,0.18,15.0
19.749,0.034,0.075,12.0
19.742,0.04,-0.031,38.0
19.762,0.046,-0.136,16.0
19.76,0.052,-0.241,22.0
19.614,0.058,0.305,13.0
19.631,0.063,0.2,15.0
19.698,0.07,0.096,18.0
19.755,0.076,-0.009,27.0
19.762,0.083,-0.115,6.0
19.741,0.088,-0.22,0.0
19.622,0.094,0.326,20.0
19.635,0.101,0.221,12.0
19.654,0.107,0.117,13.0
19.646,0.113,0.01,14.0
19.679,0.119,-0.094,8.0
19.697,0.125,-0.199,1.0
19.623,0.131,0.346,12.0
19.642,0.138,0.242,11.0
19.65,0.144,0.137,14.0
19.622,0.15,0.03,17.0
19.645,0.156,-0.074,11.0
19.656,0.162,-0.179,15.0
19.656,0.169,0.366,10.0
19.661,0.175,0.261,8.0
19.666,0.182,0.156,10.0
19.663,0.187,0.049,12.0
19.657,0.194,-0.055,12.0
19.642,0.2,-0.16,17.0
19.737,0.207,0.386,13.0
19.741,0.214,0.281,11.0
19.759,0.22,0.176,26.0
19.728,0.226,0.068,2.0
19.686,0.232,-0.037,6.0
19.651,0.238,-0.142,16.0
19.694,0.245,0.404,11.0
19.708,0.251,0.299,11.0
19.756,0.258,0.194,25.0
19.779,0.265,0.086,1.0
56.992,0.783,-0.056,2.0
19.698,0.276,-0.125,6.0
19.705,0.284,0.422,12.0
19.727,0.29,0.316,9.0
19.759,0.297,0.211,0.0
113.797,1.749,0.595,7.0
55.216,0.866,-0.007,17.0
44.483,0.712,-0.244,1.0
55.202,0.904,1.23,17.0
55.188,0.922,0.933,52.0
55.174,0.939,0.637,62.0
55.158,0.955,0.334,101.0
55.162,0.973,0.038,59.0
44.957,0.808,-0.21,1.0
55.194,1.013,1.275,50.0
55.216,1.03,0.978,28.0
55.199,1.047,0.681,8.0
113.661,2.193,0.78,14.0
55.095,1.08,0.081,0.0
48.163,0.959,-0.188,0.0
185.829,3.774,4.438,6.0
179.32,3.7,3.317,21.0
128.628,2.693,1.685,14.0
113.751,2.417,0.866,11.0
79.6,1.718,0.177,0.0
50.79,1.112,-0.16,0.0
135.227,3.015,3.33,21.0
179.182,4.053,3.446,30.0
128.636,2.949,1.779,23.0
70.866,1.647,0.591,9.0
70.946,1.672,0.209,6.0
45.504,1.086,-0.111,60.0
99.697,2.42,2.525,62.0
178.998,4.404,3.568,8.0
45.443,1.131,0.66,1.0
70.778,1.786,0.638,31.0
0.0,0.0,0.0,0.0
0.0,0.0,0.0,0.0
43.717,1.15,1.137,122.0
0.0,0.0,0.0,0.0
0.0,0.0,0.0,0.0
41.932,1.142,0.406,152.0
0.0,0.0,0.0,0.0
40.128,1.119,-0.045,152.0
40.124,1.136,1.069,146.0
40.118,1.149,0.851,150.0
40.118,1.161,0.634,150.0
40.125,1.174,0.413,134.0
40.124,1.187,0.195,127.0
40.125,1.199,-0.021,150.0
40.113,1.217,1.093,150.0
40.129,1.23,0.875,150.0
40.111,1.242,0.657,150.0
40.121,1.255,0.436,136.0
40.123,1.268,0.218,150.0
40.126,1.28,0.001,150.0
40.13,1.298,1.115,150.0
40.118,1.31,0.897,150.0
40.112,1.322,0.679,27.0
70.9,2.359,0.808,17.0
70.986,2.385,0.424,17.0
40.126,1.361,0.021,150.0
121.147,4.163,3.431,6.0
0.0,0.0,0.0,0.0
162.272,5.681,2.831,43.0
70.945,2.506,0.845,5.0
44.868,1.598,0.29,18.0
43.63,1.568,0.044,1.0
43.672,1.59,1.258,18.0
43.608,1.601,1.018,96.0
43.383,1.606,0.777,82.0
43.161,1.612,0.533,155.0
42.139,1.587,0.291,95.0
40.359,1.532,0.059,33.0
40.481,1.556,1.184,89.0
40.404,1.566,0.961,124.0
40.385,1.577,0.74,116.0
40.381,1.59,0.516,121.0
40.398,1.603,0.296,150.0
40.355,1.614,0.076,150.0
163.417,6.612,4.847,15.0
100.476,4.097,2.431,22.0
100.517,4.13,1.883,8.0
23.605,0.977,0.31,0.0
23.645,0.986,0.182,1.0
45.17,1.898,0.101,4.0
23.626,1.003,0.709,36.0
23.615,1.01,0.579,42.0
23.607,1.017,0.45,42.0
23.603,1.024,0.319,42.0
23.601,1.031,0.189,49.0
23.597,1.039,0.06,60.0
23.587,1.05,0.716,150.0
23.598,1.057,0.587,150.0
23.586,1.064,0.457,73.0
23.595,1.072,0.326,70.0
23.6,1.079,0.197,70.0
23.595,1.086,0.067,63.0
23.593,1.097,0.723,61.0
23.591,1.104,0.593,46.0
23.609,1.112,0.464,40.0
23.619,1.12,0.332,40.0
23.626,1.128,0.203,38.0
23.641,1.136,0.073,34.0
23.623,1.147,0.729,3.0
23.63,1.154,0.6,0.0
23.683,1.164,0.471,0.0
132.124,6.535,1.892,5.0
45.249,2.251,0.399,1.0
45.186,2.262,0.15,48.0
163.316,8.26,5.08,15.0
45.191,2.299,1.157,1.0
45.061,2.306,0.906,0.0
0.0,0.0,0.0,0.0
99.77,5.165,0.899,22.0
45.191,2.353,0.158,25.0
163.291,8.586,5.107,10.0
45.21,2.39,1.165,40.0
45.206,2.402,0.916,85.0
45.2,2.415,0.662,25.0
45.187,2.428,0.413,1.0
45.18,2.441,0.164,28.0
163.316,8.911,5.13,13.0
163.488,8.963,4.233,4.0
45.186,2.49,0.921,1.0
45.214,2.505,0.668,2.0
45.209,2.518,0.418,14.0
45.197,2.53,0.169,49.0
163.177,9.219,5.141,10.0
163.419,9.281,4.246,5.0
0.0,0.0,0.0,0.0
99.732,5.721,1.48,8.0
99.625,5.743,0.929,14.0
45.177,2.617,0.172,16.0
163.237,9.542,5.152,11.0
45.211,2.655,1.177,148.0
45.221,2.669,0.927,100.0
45.212,2.681,0.672,18.0
45.196,2.693,0.422,3.0
45.189,2.706,0.173,23.0
163.203,9.86,5.154,14.0
163.373,9.917,4.255,6.0
133.142,8.12,2.731,29.0
99.718,6.108,1.483,8.0
45.22,2.783,0.422,5.0
45.188,2.794,0.172,48.0
112.433,7.011,3.548,4.0
112.428,7.042,2.925,6.0
112.418,7.074,2.302,74.0
99.929,6.315,1.483,12.0
99.742,6.331,0.927,8.0
45.188,2.881,0.17,105.0
99.995,6.429,3.151,30.0
45.198,2.918,1.173,94.0
45.204,2.931,0.922,102.0
45.186,2.942,0.667,99.0
45.228,2.957,0.416,117.0
45.181,2.967,0.166,36.0
99.956,6.618,3.14,35.0
44.38,2.95,1.147,77.0
44.204,2.951,0.897,89.0
43.88,2.941,0.642,70.0
43.906,2.955,0.399,35.0
42.131,2.847,0.149,5.0
99.97,6.811,3.127,35.0
43.07,2.946,1.107,78.0
40.991,2.814,0.826,30.0
41.811,2.881,0.606,10.0
42.477,2.939,0.379,84.0
42.297,2.938,0.143,33.0
99.981,7.0,3.11,30.0
41.73,2.932,1.065,79.0
41.132,2.901,0.821,85.0
41.451,2.934,0.593,83.0
41.382,2.94,0.361,122.0
41.082,2.931,0.13,55.0
45.475,3.268,1.405,112.0
40.4,2.914,1.023,106.0
40.387,2.923,0.798,92.0
40.354,2.931,0.568,76.0
40.368,2.943,0.343,72.0
40.336,2.951,0.119,47.0
45.459,3.351,1.394,10.0
43.687,3.231,1.096,15.0
43.698,3.242,0.852,142.0
43.694,3.254,0.604,150.0
43.697,3.266,0.36,137.0
43.702,3.277,0.117,125.0
43.696,3.3,1.328,150.0
43.687,3.31,1.083,137.0
43.692,3.322,0.839,131.0
43.696,3.333,0.591,124.0
43.71,3.345,0.347,129.0
41.92,3.219,0.099,142.0
41.895,3.24,1.26,103.0
41.896,3.251,1.025,124.0
41.914,3.262,0.791,120.0
41.903,3.272,0.553,123.0
41.894,3.281,0.318,124.0
0.0,0.0,0.0,0.0
41.901,3.315,1.245,124.0
41.9,3.325,1.011,113.0
41.9,3.335,0.776,108.0
0.0,0.0,0.0,0.0
0.0,0.0,0.0,0.0
40.098,3.221,0.066,65.0
40.102,3.243,1.177,133.0
40.096,3.252,0.952,150.0
40.097,3.262,0.727,150.0
40.102,3.271,0.498,119.0
40.11,3.282,0.274,150.0
40.103,3.292,0.049,150.0
40.099,3.313,1.16,150.0
40.098,3.322,0.935,133.0
40.098,3.331,0.71,107.0
40.112,3.342,0.481,107.0
40.113,3.351,0.256,117.0
40.108,3.36,0.031,150.0
40.101,3.381,1.142,150.0
40.106,3.391,0.917,110.0
40.103,3.4,0.692,105.0
40.092,3.408,0.462,110.0
40.106,3.419,0.237,101.0
40.022,3.422,0.012,52.0
75.047,6.457,2.101,8.0
74.973,6.467,1.678,9.0
74.847,6.472,1.254,9.0
74.695,6.476,0.824,9.0
53.612,4.66,0.29,3.0
40.115,3.496,-0.008,94.0
73.667,6.46,2.024,9.0
73.591,6.47,1.608,11.0
73.476,6.475,1.192,9.0
73.37,6.482,0.77,10.0
0.0,0.0,0.0,0.0
46.378,4.119,-0.034,28.0
72.359,6.464,1.948,8.0
72.28,6.472,1.539,9.0
72.205,6.482,1.131,9.0
72.077,6.485,0.716,9.0
53.035,4.784,0.228,3.0
46.18,4.176,-0.061,27.0
71.135,6.471,1.874,12.0
71.066,6.478,1.471,11.0
70.948,6.483,1.069,10.0
70.87,6.49,0.662,8.0
47.717,4.38,0.176,4.0
45.786,4.213,-0.088,20.0
69.927,6.472,1.799,11.0
69.891,6.482,1.404,10.0
69.857,6.492,1.009,8.0
69.69,6.492,0.606,6.0
47.132,4.401,0.144,19.0
44.989,4.21,-0.115,19.0
68.811,6.475,1.726,8.0
68.679,6.476,1.335,9.0
68.662,6.489,0.947,8.0
68.481,6.485,0.551,3.0
47.353,4.494,0.113,21.0
44.067,4.191,-0.142,18.0
67.68,6.472,1.652,8.0
67.632,6.48,1.269,9.0
67.578,6.488,0.885,10.0
67.523,6.497,0.496,3.0
46.888,4.521,0.08,21.0
0.0,0.0,0.0,0.0
66.671,6.475,1.58,9.0
66.639,6.484,1.203,9.0
66.605,6.494,0.825,8.0
49.888,4.873,0.33,4.0
46.638,4.565,0.045,21.0
40.226,3.946,-0.188,15.0
65.742,6.481,1.51,10.0
65.726,6.491,1.137,11.0
65.622,6.493,0.764,9.0
49.897,4.946,0.293,5.0
45.818,4.55,0.01,20.0
39.772,3.958,-0.216,15.0
64.82,6.482,1.44,10.0
64.803,6.491,1.072,9.0
64.698,6.492,0.704,9.0
56.324,5.663,0.288,4.0
44.781,4.51,-0.024,19.0
39.081,3.943,-0.242,14.0
63.986,6.487,1.371,8.0
63.925,6.491,1.008,7.0
63.839,6.494,0.644,8.0
49.629,5.057,0.214,3.0
44.331,4.525,-0.059,18.0
38.165,3.903,-0.267,13.0
63.221,6.494,1.304,10.0
63.206,6.502,0.945,9.0
63.138,6.506,0.586,10.0
47.593,4.913,0.166,6.0
0.0,0.0,0.0,0.0
0.0,0.0,0.0,0.0
62.42,6.494,1.235,7.0
62.426,6.505,0.881,8.0
62.37,6.509,0.526,7.0
