X,Y,Z,Reflectivity
0.0,0.0,0.0,0.0
0.0,0.0,0.0,0.0
0.0,0.0,0.0,0.0
121.902,1.153,7.231,22.0
0.0,0.0,0.0,0.0
0.0,0.0,0.0,0.0
0.0,0.0,0.0,0.0
0.0,0.0,0.0,0.0
0.0,0.0,0.0,0.0
121.941,1.184,6.995,7.0
0.0,0.0,0.0,0.0
186.301,1.813,8.509,5.0
0.0,0.0,0.0,0.0
0.0,0.0,0.0,0.0
121.95,1.209,7.482,21.0
0.0,0.0,0.0,0.0
0.0,0.0,0.0,0.0
186.305,1.85,8.146,11.0
0.0,0.0,0.0,0.0
0.0,0.0,0.0,0.0
121.928,1.23,7.24,25.0
0.0,0.0,0.0,0.0
0.0,0.0,0.0,0.0
185.99,1.877,7.763,7.0
0.0,0.0,0.0,0.0
122.061,1.249,7.72,2.0
121.831,1.246,6.993,8.0
0.0,0.0,0.0,0.0
186.299,1.904,8.493,15.0
19.701,0.201,0.782,1.0
0.0,0.0,0.0,0.0
121.936,1.261,7.468,21.0
122.09,1.261,6.763,6.0
0.0,0.0,0.0,0.0
186.203,1.92,8.116,19.0
19.684,0.202,0.742,9.0
0.0,0.0,0.0,0.0
121.944,1.27,7.223,24.0
0.0,0.0,0.0,0.0
0.0,0.0,0.0,0.0
186.003,1.928,7.73,7.0
19.655,0.203,0.702,9.0
122.023,1.277,7.696,2.0
122.004,1.274,6.978,9.0
0.0,0.0,0.0,0.0
186.299,1.938,8.459,12.0
19.694,0.204,0.779,1.0
19.664,0.203,0.663,11.0
121.975,1.276,7.445,23.0
122.096,1.274,6.736,9.0
0.0,0.0,0.0,0.0
186.106,1.933,8.071,15.0
19.672,0.203,0.738,9.0
19.67,0.203,0.623,10.0
121.933,1.271,7.194,23.0
0.0,0.0,0.0,0.0
0.0,0.0,0.0,0.0
183.838,1.9,7.598,8.0
19.663,0.202,0.697,10.0
19.697,0.202,0.583,9.0
122.043,1.263,6.947,7.0
0.0,0.0,0.0,0.0
186.371,1.916,8.424,16.0
19.687,0.201,0.772,3.0
19.66,0.2,0.656,10.0
19.712,0.2,0.543,11.0
122.081,1.25,6.698,3.0
0.0,0.0,0.0,0.0
186.011,1.888,8.024,16.0
19.657,0.198,0.731,9.0
19.673,0.198,0.616,9.0
19.703,0.197,0.502,10.0
0.0,0.0,0.0,0.0
0.0,0.0,0.0,0.0
19.629,0.196,0.806,0.0
19.649,0.195,0.69,10.0
19.695,0.194,0.576,10.0
19.706,0.194,0.461,9.0
0.0,0.0,0.0,0.0
186.424,1.835,8.363,11.0
19.679,0.192,0.767,7.0
19.652,0.191,0.649,10.0
19.692,0.19,0.535,10.0
19.683,0.189,0.42,9.0
0.0,0.0,0.0,0.0
186.557,1.793,7.984,13.0
19.662,0.187,0.726,10.0
19.657,0.186,0.609,9.0
19.666,0.185,0.494,9.0
19.666,0.184,0.379,9.0
0.0,0.0,0.0,0.0
19.685,0.183,0.801,1.0
19.643,0.182,0.684,9.0
19.644,0.18,0.567,9.0
19.646,0.179,0.453,10.0
19.662,0.178,0.338,10.0
186.639,1.696,8.3,22.0
19.647,0.177,0.758,7.0
19.63,0.175,0.643,9.0
19.629,0.174,0.526,8.0
19.648,0.173,0.412,10.0
19.653,0.171,0.297,8.0
185.487,1.622,7.862,20.0
19.618,0.17,0.716,9.0
19.613,0.168,0.602,9.0
19.616,0.167,0.485,10.0
19.638,0.165,0.371,8.0
19.648,0.164,0.257,11.0
19.674,0.164,0.793,2.0
19.61,0.162,0.676,10.0
19.6,0.16,0.561,10.0
19.618,0.159,0.445,10.0
19.631,0.158,0.33,10.0
19.668,0.156,0.216,14.0
19.647,0.156,0.751,8.0
19.594,0.154,0.634,11.0
19.601,0.152,0.52,10.0
19.614,0.15,0.404,10.0
19.625,0.149,0.29,10.0
19.655,0.147,0.175,14.0
19.612,0.146,0.709,10.0
19.587,0.144,0.594,12.0
19.606,0.143,0.48,12.0
19.603,0.141,0.363,10.0
19.648,0.14,0.249,13.0
19.649,0.138,0.134,14.0
19.602,0.137,0.668,12.0
19.601,0.135,0.554,15.0
19.609,0.133,0.439,12.0
19.608,0.131,0.323,10.0
19.659,0.13,0.209,18.0
19.64,0.127,0.094,14.0
19.602,0.126,0.628,14.0
19.596,0.124,0.513,16.0
19.603,0.122,0.398,12.0
19.613,0.12,0.282,10.0
19.65,0.119,0.168,15.0
19.648,0.116,0.053,14.0
19.6,0.115,0.587,18.0
19.611,0.113,0.473,18.0
19.605,0.111,0.358,14.0
19.623,0.109,0.242,10.0
19.648,0.107,0.128,13.0
19.649,0.105,0.013,12.0
19.606,0.103,0.547,23.0
19.613,0.101,0.433,30.0
19.617,0.099,0.318,16.0
19.656,0.097,0.202,11.0
19.668,0.095,0.087,13.0
19.713,0.093,-0.026,6.0
19.612,0.09,0.507,21.0
19.616,0.088,0.392,24.0
19.614,0.086,0.278,18.0
19.665,0.084,0.162,13.0
19.712,0.082,0.047,17.0
19.753,0.079,-0.067,14.0
19.616,0.077,0.467,28.0
19.61,0.075,0.352,15.0
19.618,0.072,0.238,15.0
19.683,0.07,0.122,17.0
19.759,0.068,0.007,60.0
19.764,0.066,-0.107,59.0
19.617,0.063,0.428,22.0
19.613,0.061,0.313,11.0
19.642,0.058,0.199,12.0
19.749,0.056,0.083,27.0
19.743,0.053,-0.031,44.0
19.753,0.051,-0.147,58.0
19.624,0.048,0.389,13.0
19.623,0.046,0.274,12.0
19.747,0.043,0.16,15.0
19.733,0.041,0.044,17.0
19.761,0.038,-0.071,16.0
19.761,0.036,-0.186,9.0
19.621,0.033,0.35,16.0
19.627,0.03,0.235,16.0
19.743,0.028,0.121,15.0
19.734,0.025,0.004,16.0
19.768,0.022,-0.11,3.0
19.767,0.02,-0.225,2.0
19.627,0.017,0.31,15.0
19.664,0.014,0.197,9.0
19.784,0.011,0.083,4.0
19.739,0.009,-0.034,11.0
19.765,0.006,-0.149,0.0
19.756,0.003,-0.264,0.0
19.632,0.0,0.272,14.0
19.808,-0.002,0.159,2.0
19.73,-0.005,0.044,7.0
19.76,-0.008,-0.073,2.0
19.728,-0.01,-0.187,0.0
0.0,0.0,0.0,0.0
19.641,-0.016,0.234,16.0
19.691,-0.019,0.12,8.0
19.708,-0.022,0.005,13.0
19.746,-0.026,-0.111,12.0
19.753,-0.029,-0.226,2.0
31.952,-0.052,-0.553,0.0
19.67,-0.035,0.196,13.0
19.702,-0.038,0.081,15.0
19.713,-0.041,-0.032,15.0
19.733,-0.044,-0.149,13.0
19.751,-0.047,-0.264,9.0
19.82,-0.051,-0.381,0.0
19.704,-0.053,0.159,18.0
19.705,-0.057,0.044,16.0
19.728,-0.06,-0.07,13.0
19.73,-0.063,-0.186,14.0
19.759,-0.066,-0.302,15.0
19.773,-0.07,-0.417,8.0
19.708,-0.073,0.122,16.0
19.708,-0.076,0.007,15.0
19.717,-0.079,-0.107,16.0
19.727,-0.083,-0.223,15.0
19.76,-0.086,-0.339,13.0
19.754,-0.089,-0.454,14.0
19.717,-0.093,0.085,14.0
19.72,-0.096,-0.029,13.0
19.721,-0.1,-0.144,16.0
19.734,-0.103,-0.26,15.0
19.742,-0.107,-0.376,16.0
19.744,-0.11,-0.49,16.0
19.742,-0.114,0.048,11.0
19.726,-0.117,-0.066,10.0
19.72,-0.121,-0.18,15.0
19.738,-0.124,-0.297,15.0
19.743,-0.128,-0.412,17.0
19.739,-0.131,-0.527,16.0
19.753,-0.135,0.011,8.0
19.74,-0.139,-0.102,14.0
19.738,-0.143,-0.217,15.0
19.733,-0.146,-0.334,17.0
19.739,-0.15,-0.449,17.0
19.756,-0.154,-0.564,15.0
19.812,-0.158,-0.024,1.0
19.745,-0.161,-0.139,12.0
19.742,-0.165,-0.253,13.0
19.746,-0.169,-0.37,13.0
19.764,-0.173,-0.485,12.0
19.78,-0.177,-0.601,5.0
19.8,-0.181,-0.059,1.0
19.78,-0.184,-0.174,7.0
19.774,-0.188,-0.289,4.0
19.755,-0.191,-0.405,5.0
25.628,-0.254,-0.675,0.0
22.454,-0.227,-0.722,0.0
0.0,0.0,0.0,0.0
0.0,0.0,0.0,0.0
32.265,-0.345,-0.528,0.0
28.095,-0.306,-0.626,0.0
24.663,-0.273,-0.693,0.0
21.754,-0.246,-0.737,0.0
0.0,0.0,0.0,0.0
0.0,0.0,0.0,0.0
30.847,-0.368,-0.559,0.0
26.875,-0.326,-0.646,0.0
23.584,-0.291,-0.704,0.0
19.868,-0.249,-0.708,1.0
0.0,0.0,0.0,0.0
35.65,-0.462,-0.501,0.0
29.925,-0.394,-0.594,0.0
25.995,-0.347,-0.669,0.0
22.712,-0.308,-0.716,0.0
19.822,-0.273,-0.74,4.0
0.0,0.0,0.0,0.0
33.147,-0.471,-0.521,0.0
29.293,-0.422,-0.63,0.0
24.971,-0.365,-0.685,0.0
22.107,-0.328,-0.734,0.0
19.79,-0.298,-0.772,1.0
0.0,0.0,0.0,0.0
31.539,-0.489,-0.549,0.0
27.577,-0.433,-0.64,0.0
24.071,-0.383,-0.7,0.0
21.432,-0.346,-0.748,1.0
19.237,-0.315,-0.783,1.0
0.0,0.0,0.0,0.0
30.163,-0.507,-0.575,0.0
26.283,-0.448,-0.653,0.0
23.042,-0.398,-0.708,0.0
20.529,-0.359,-0.75,0.0
18.789,-0.333,-0.795,0.0
34.062,-0.611,-0.506,0.0
29.78,-0.541,-0.615,0.0
21.728,-0.4,-0.575,2.0
21.708,-0.404,-0.702,4.0
20.091,-0.379,-0.766,0.0
18.172,-0.347,-0.798,0.0
0.0,0.0,0.0,0.0
21.718,-0.424,-0.483,0.0
21.72,-0.429,-0.609,153.0
21.651,-0.433,-0.734,6.0
19.583,-0.396,-0.777,0.0
17.639,-0.361,-0.802,0.0
31.023,-0.642,-0.559,0.0
21.732,-0.455,-0.517,152.0
21.719,-0.459,-0.642,151.0
21.346,-0.456,-0.757,1.0
19.179,-0.415,-0.791,0.0
16.618,-0.363,-0.781,0.0
30.129,-0.666,-0.588,0.0
21.72,-0.485,-0.55,155.0
21.711,-0.49,-0.675,6.0
20.463,-0.467,-0.756,0.0
18.531,-0.427,-0.792,0.0
16.764,-0.39,-0.814,0.0
29.084,-0.684,-0.612,0.0
21.717,-0.516,-0.582,6.0
21.731,-0.522,-0.708,3.0
19.964,-0.484,-0.768,0.0
17.828,-0.437,-0.788,0.0
16.297,-0.403,-0.815,0.0
27.963,-0.699,-0.629,0.0
24.439,-0.616,-0.69,0.0
21.688,-0.552,-0.738,0.0
17.808,-0.458,-0.71,3.0
17.716,-0.46,-0.809,1.0
15.951,-0.418,-0.821,0.0
0.0,0.0,0.0,0.0
23.775,-0.635,-0.705,0.0
17.8,-0.479,-0.63,153.0
17.768,-0.483,-0.734,13.0
17.571,-0.482,-0.827,1.0
17.82,-0.493,-0.942,0.0
26.003,-0.726,-0.657,0.0
17.807,-0.502,-0.553,7.0
17.755,-0.505,-0.653,158.0
17.778,-0.51,-0.759,8.0
17.59,-0.509,-0.852,2.0
15.413,-0.45,-0.836,0.0
25.252,-0.743,-0.673,0.0
17.802,-0.528,-0.577,13.0
17.748,-0.531,-0.677,158.0
17.78,-0.537,-0.783,3.0
17.462,-0.532,-0.869,2.0
15.165,-0.466,-0.842,0.0
24.332,-0.753,-0.68,0.0
17.824,-0.556,-0.601,104.0
17.805,-0.56,-0.702,49.0
17.747,-0.563,-0.804,2.0
16.173,-0.517,-0.826,0.0
14.833,-0.479,-0.843,0.0
24.058,-0.782,-0.703,0.0
17.817,-0.584,-0.623,0.0
19.255,-0.636,-0.784,0.0
17.551,-0.584,-0.818,0.0
15.834,-0.531,-0.829,0.0
14.58,-0.493,-0.847,0.0
23.397,-0.797,-0.713,0.0
20.663,-0.709,-0.749,0.0
18.896,-0.653,-0.793,0.0
17.062,-0.594,-0.816,0.0
15.619,-0.548,-0.837,0.0
14.362,-0.508,-0.852,0.0
22.715,-0.809,-0.72,0.0
20.273,-0.727,-0.759,0.0
18.397,-0.665,-0.794,0.0
16.744,-0.61,-0.821,0.0
15.301,-0.561,-0.838,0.0
14.08,-0.521,-0.852,0.0
22.111,-0.823,-0.727,0.0
19.936,-0.747,-0.77,0.0
17.96,-0.678,-0.797,0.0
16.339,-0.622,-0.82,0.0
15.02,-0.576,-0.84,0.0
13.873,-0.536,-0.856,0.0
21.575,-0.838,-0.734,0.0
19.551,-0.764,-0.777,0.0
17.694,-0.697,-0.805,0.0
15.997,-0.634,-0.821,0.0
14.8,-0.591,-0.845,0.0
13.634,-0.549,-0.857,0.0
21.146,-0.855,-0.743,0.0
19.259,-0.784,-0.787,0.0
17.437,-0.715,-0.812,0.0
15.767,-0.651,-0.826,0.0
14.557,-0.605,-0.847,0.0
13.414,-0.561,-0.857,0.0
20.735,-0.872,-0.75,0.0
18.821,-0.797,-0.789,0.0
17.141,-0.73,-0.816,0.0
15.615,-0.67,-0.835,0.0
14.408,-0.622,-0.853,0.0
13.143,-0.571,-0.853,0.0
20.457,-0.893,-0.761,0.0
18.483,-0.812,-0.793,0.0
16.879,-0.747,-0.821,0.0
15.444,-0.688,-0.841,0.0
14.179,-0.635,-0.854,0.0
13.015,-0.587,-0.858,0.0
20.08,-0.91,-0.767,0.0
18.163,-0.828,-0.797,0.0
16.65,-0.764,-0.826,0.0
15.158,-0.7,-0.84,0.0
13.961,-0.649,-0.854,0.0
12.87,-0.602,-0.861,0.0
19.809,-0.93,-0.775,0.0
17.877,-0.845,-0.802,0.0
16.409,-0.78,-0.829,0.0
15.012,-0.718,-0.846,0.0
13.669,-0.658,-0.849,0.0
12.687,-0.615,-0.861,0.0
19.602,-0.953,-0.785,0.0
17.702,-0.866,-0.81,0.0
16.11,-0.793,-0.829,0.0
14.727,-0.729,-0.843,0.0
13.559,-0.675,-0.854,0.0
12.558,-0.629,-0.863,0.0
19.302,-0.97,-0.789,0.0
17.455,-0.883,-0.813,0.0
15.987,-0.813,-0.836,0.0
14.578,-0.746,-0.847,0.0
13.368,-0.688,-0.853,0.0
12.468,-0.646,-0.867,0.0
18.991,-0.986,-0.792,0.0
17.195,-0.898,-0.815,0.0
15.726,-0.826,-0.835,0.0
14.54,-0.768,-0.857,0.0
13.14,-0.698,-0.849,0.0
12.39,-0.662,-0.871,0.0
18.743,-1.005,-0.796,0.0
16.997,-0.916,-0.819,0.0
15.502,-0.84,-0.835,0.0
14.327,-0.781,-0.855,0.0
13.051,-0.715,-0.853,0.0
12.282,-0.677,-0.873,0.0
18.47,-1.021,-0.798,0.0
16.785,-0.933,-0.821,0.0
15.391,-0.86,-0.84,0.0
14.179,-0.797,-0.856,0.0
13.058,-0.738,-0.863,0.0
12.224,-0.694,-0.878,0.0
18.307,-1.042,-0.804,0.0
16.512,-0.945,-0.819,0.0
15.118,-0.87,-0.836,0.0
13.884,-0.803,-0.848,0.0
12.969,-0.754,-0.866,0.0
12.141,-0.71,-0.88,0.0
17.983,-1.054,-0.802,0.0
16.484,-0.971,-0.828,0.0
15.003,-0.889,-0.839,0.0
13.843,-0.824,-0.854,0.0
12.866,-0.77,-0.867,0.0
12.045,-0.725,-0.881,0.0
17.896,-1.079,-0.809,0.0
16.335,-0.99,-0.831,0.0
14.979,-0.912,-0.847,0.0
13.699,-0.839,-0.854,0.0
12.796,-0.787,-0.87,0.0
12.015,-0.743,-0.885,0.0
17.7,-1.097,-0.81,0.0
16.106,-1.003,-0.828,0.0
14.863,-0.93,-0.849,0.0
13.608,-0.856,-0.856,0.0
12.686,-0.802,-0.87,0.0
11.95,-0.759,-0.887,0.0
17.581,-1.119,-0.814,0.0
15.964,-1.021,-0.83,0.0
14.687,-0.944,-0.846,0.0
13.551,-0.875,-0.859,0.0
12.62,-0.819,-0.872,0.0
11.887,-0.775,-0.888,0.0
17.318,-1.131,-0.81,0.0
15.839,-1.039,-0.831,0.0
14.628,-0.964,-0.85,0.0
13.522,-0.895,-0.864,0.0
12.568,-0.836,-0.874,0.0
11.826,-0.791,-0.889,0.0
17.275,-1.156,-0.816,0.0
15.703,-1.056,-0.83,0.0
14.578,-0.985,-0.853,0.0
13.439,-0.912,-0.864,0.0
12.528,-0.854,-0.876,0.0
11.803,-0.809,-0.892,0.0
17.147,-1.176,-0.817,0.0
15.658,-1.079,-0.834,0.0
14.496,-1.003,-0.854,0.0
13.369,-0.929,-0.865,0.0
12.464,-0.87,-0.877,0.0
11.745,-0.824,-0.892,0.0
17.01,-1.194,-0.817,0.0
15.454,-1.09,-0.829,0.0
14.442,-1.023,-0.856,0.0
13.286,-0.945,-0.864,0.0
12.488,-0.893,-0.883,0.0
11.671,-0.838,-0.891,0.0
17.1,-1.229,-0.827,0.0
15.505,-1.119,-0.837,0.0
14.387,-1.043,-0.857,0.0
13.276,-0.966,-0.867,0.0
12.421,-0.908,-0.881,0.0
11.642,-0.855,-0.892,0.0
17.022,-1.251,-0.828,0.0
15.433,-1.139,-0.837,0.0
14.314,-1.061,-0.857,0.0
13.274,-0.988,-0.871,0.0
12.431,-0.929,-0.885,0.0
11.671,-0.876,-0.897,0.0
16.943,-1.272,-0.828,0.0
15.431,-1.163,-0.841,0.0
14.266,-1.08,-0.857,0.0
13.227,-1.006,-0.87,0.0
12.363,-0.944,-0.883,0.0
11.588,-0.889,-0.893,0.0
16.866,-1.294,-0.827,0.0
15.294,-1.178,-0.836,0.0
14.292,-1.105,-0.861,0.0
13.179,-1.023,-0.87,0.0
12.377,-0.965,-0.886,0.0
11.503,-0.9,-0.889,0.0
16.825,-1.317,-0.828,0.0
15.369,-1.208,-0.842,0.0
14.209,-1.121,-0.859,0.0
13.075,-1.036,-0.865,0.0
12.344,-0.982,-0.886,0.0
11.588,-0.925,-0.897,0.0
16.722,-1.335,-0.825,0.0
15.246,-1.222,-0.837,0.0
14.183,-1.142,-0.858,0.0
13.076,-1.056,-0.866,0.0
12.316,-0.999,-0.885,0.0
11.537,-0.939,-0.894,0.0
16.793,-1.367,-0.83,0.0
15.266,-1.248,-0.839,0.0
14.172,-1.163,-0.859,0.0
13.1,-1.079,-0.868,0.0
12.358,-1.022,-0.888,0.0
11.533,-0.957,-0.894,0.0
16.707,-1.387,-0.826,0.0
15.37,-1.28,-0.846,0.0
14.233,-1.19,-0.862,0.0
13.157,-1.104,-0.872,0.0
12.354,-1.04,-0.888,0.0
11.461,-0.969,-0.888,0.0
16.752,-1.416,-0.828,0.0
15.385,-1.305,-0.846,0.0
14.189,-1.208,-0.86,0.0
13.178,-1.126,-0.873,0.0
12.337,-1.058,-0.887,0.0
11.504,-0.99,-0.891,0.0
16.758,-1.442,-0.828,0.0
15.394,-1.329,-0.846,0.0
14.216,-1.232,-0.86,0.0
13.104,-1.139,-0.868,0.0
12.332,-1.076,-0.885,0.0
11.58,-1.014,-0.896,0.0
16.832,-1.473,-0.83,0.0
15.472,-1.359,-0.849,0.0
14.223,-1.254,-0.859,0.0
12.991,-1.149,-0.859,0.0
12.314,-1.093,-0.883,0.0
11.646,-1.037,-0.9,0.0
16.871,-1.502,-0.83,0.0
15.446,-1.379,-0.845,0.0
14.317,-1.283,-0.863,0.0
13.233,-1.19,-0.873,0.0
12.338,-1.113,-0.882,0.0
11.547,-1.045,-0.89,0.0
16.934,-1.532,-0.83,0.0
15.465,-1.404,-0.844,0.0
14.368,-1.308,-0.864,0.0
13.259,-1.211,-0.872,0.0
12.351,-1.132,-0.881,0.0
11.555,-1.063,-0.889,0.0
16.941,-1.557,-0.827,0.0
15.341,-1.414,-0.834,1.0
14.382,-1.33,-0.861,0.0
13.28,-1.232,-0.87,0.0
12.39,-1.153,-0.881,0.0
11.671,-1.09,-0.895,0.0
17.102,-1.596,-0.831,0.0
15.643,-1.465,-0.846,0.0
14.441,-1.356,-0.861,0.0
13.277,-1.251,-0.867,0.0
12.38,-1.17,-0.877,0.0
11.713,-1.11,-0.895,0.0
17.148,-1.624,-0.828,0.0
15.648,-1.487,-0.842,0.0
14.505,-1.382,-0.861,0.0
13.334,-1.274,-0.866,0.0
12.482,-1.197,-0.88,0.0
11.844,-1.139,-0.901,0.0
17.186,-1.651,-0.824,0.0
15.741,-1.517,-0.842,0.0
14.547,-1.406,-0.858,0.0
13.443,-1.303,-0.869,0.0
12.428,-1.208,-0.872,0.0
11.849,-1.155,-0.897,0.0
17.234,-1.679,-0.821,0.0
15.96,-1.559,-0.848,0.0
14.638,-1.434,-0.858,0.0
13.576,-1.334,-0.872,0.0
12.693,-1.251,-0.886,0.0
11.898,-1.176,-0.896,0.0
17.174,-1.695,-0.811,0.0
16.061,-1.59,-0.847,0.0
14.729,-1.462,-0.858,0.0
13.661,-1.36,-0.872,0.0
12.674,-1.265,-0.879,0.0
11.992,-1.2,-0.898,0.0
17.354,-1.735,-0.812,0.0
16.173,-1.622,-0.846,0.0
14.872,-1.495,-0.86,0.0
13.77,-1.388,-0.873,0.0
12.73,-1.287,-0.878,0.0
12.035,-1.22,-0.896,0.0
17.518,-1.774,-0.812,0.0
16.217,-1.646,-0.841,0.0
14.935,-1.52,-0.856,0.0
13.906,-1.419,-0.875,0.0
12.893,-1.319,-0.883,0.0
12.061,-1.238,-0.892,0.0
17.685,-1.813,-0.811,0.0
16.443,-1.69,-0.844,0.0
15.158,-1.561,-0.861,0.0
13.997,-1.445,-0.874,0.0
12.953,-1.341,-0.88,0.0
12.045,-1.25,-0.884,0.0
18.012,-1.868,-0.816,0.0
16.424,-1.707,-0.834,0.0
15.181,-1.582,-0.854,0.0
14.068,-1.47,-0.87,0.0
13.092,-1.371,-0.882,0.0
12.125,-1.273,-0.884,0.0
17.949,-1.882,-0.803,0.0
16.722,-1.758,-0.84,0.0
15.278,-1.61,-0.851,0.0
14.202,-1.5,-0.87,0.0
13.159,-1.393,-0.879,0.0
12.228,-1.298,-0.884,0.0
18.392,-1.95,-0.812,0.0
16.839,-1.789,-0.836,0.0
15.454,-1.646,-0.851,0.0
14.231,-1.519,-0.863,0.0
13.367,-1.43,-0.884,0.0
12.365,-1.326,-0.886,0.0
18.818,-2.016,-0.819,0.0
16.954,-1.82,-0.83,0.0
15.647,-1.683,-0.852,0.0
14.385,-1.551,-0.863,0.0
13.466,-1.455,-0.882,0.0
12.522,-1.356,-0.889,0.0
18.668,-2.02,-0.8,0.0
17.12,-1.856,-0.827,0.0
15.875,-1.725,-0.854,0.0
14.638,-1.594,-0.868,0.0
13.494,-1.472,-0.874,0.0
12.592,-1.377,-0.885,0.0
19.099,-2.086,-0.805,0.0
17.33,-1.897,-0.825,0.0
15.915,-1.745,-0.845,0.0
14.781,-1.624,-0.866,0.0
13.684,-1.507,-0.877,0.0
12.709,-1.403,-0.884,0.0
0.0,0.0,0.0,0.0
17.342,-1.916,-0.813,0.0
16.095,-1.781,-0.842,0.0
14.937,-1.656,-0.864,0.0
13.83,-1.537,-0.876,0.0
12.907,-1.437,-0.888,0.0
19.664,-2.187,-0.8,0.0
17.757,-1.978,-0.819,0.0
16.376,-1.828,-0.844,0.0
15.13,-1.692,-0.864,0.0
13.965,-1.565,-0.874,0.0
13.037,-1.464,-0.887,0.0
19.862,-2.227,-0.793,0.0
18.044,-2.027,-0.818,0.0
16.513,-1.858,-0.838,0.0
15.283,-1.723,-0.861,0.0
14.211,-1.605,-0.878,0.0
13.139,-1.487,-0.883,0.0
20.203,-2.284,-0.79,0.0
0.0,0.0,0.0,0.0
16.685,-1.892,-0.833,0.0
15.437,-1.754,-0.857,0.0
14.346,-1.633,-0.874,0.0
13.4,-1.528,-0.889,0.0
20.402,-2.324,-0.78,0.0
18.537,-2.115,-0.81,0.0
16.89,-1.93,-0.83,0.0
15.704,-1.797,-0.858,0.0
14.45,-1.656,-0.868,0.0
13.485,-1.549,-0.883,0.0
20.723,-2.377,-0.775,0.0
18.841,-2.164,-0.807,0.0
17.24,-1.983,-0.832,0.0
15.886,-1.831,-0.854,0.0
14.617,-1.687,-0.865,0.0
13.634,-1.576,-0.881,0.0
20.943,-2.418,-0.765,0.0
19.145,-2.214,-0.803,0.0
17.398,-2.015,-0.824,0.0
16.044,-1.861,-0.848,0.0
14.846,-1.724,-0.866,0.0
13.728,-1.597,-0.875,0.0
21.345,-2.48,-0.761,0.0
19.339,-2.25,-0.793,0.0
17.719,-2.065,-0.823,0.0
16.213,-1.892,-0.842,0.0
15.113,-1.766,-0.867,0.0
13.959,-1.634,-0.876,0.0
21.913,-2.562,-0.76,0.0
19.84,-2.322,-0.796,0.0
17.985,-2.108,-0.818,0.0
16.361,-1.92,-0.834,0.0
15.276,-1.795,-0.862,0.0
14.152,-1.666,-0.875,0.0
22.376,-2.631,-0.755,0.0
20.162,-2.373,-0.789,0.0
18.279,-2.154,-0.814,0.0
16.838,-1.987,-0.842,0.0
15.597,-1.843,-0.864,0.0
14.379,-1.701,-0.875,0.0
23.113,-2.731,-0.757,0.0
20.458,-2.42,-0.78,0.0
18.667,-2.211,-0.813,0.0
17.193,-2.039,-0.843,0.0
15.771,-1.872,-0.859,0.0
14.577,-1.733,-0.872,0.0
23.201,-2.755,-0.737,0.0
20.783,-2.47,-0.772,0.0
19.208,-2.286,-0.817,0.0
17.338,-2.065,-0.833,0.0
16.004,-1.909,-0.855,0.0
14.781,-1.765,-0.87,0.0
23.54,-2.808,-0.724,0.0
21.297,-2.543,-0.77,0.0
19.454,-2.325,-0.808,0.0
17.491,-2.092,-0.822,0.0
16.338,-1.957,-0.856,0.0
15.031,-1.802,-0.869,0.0
23.818,-2.853,-0.708,0.0
21.849,-2.619,-0.767,0.0
19.614,-2.353,-0.794,0.0
17.815,-2.139,-0.819,0.0
16.451,-1.977,-0.845,0.0
15.251,-1.835,-0.865,0.0
24.826,-2.984,-0.712,0.0
22.19,-2.669,-0.756,0.0
20.22,-2.435,-0.797,0.0
18.286,-2.203,-0.821,0.0
16.79,-2.025,-0.844,0.0
15.445,-1.864,-0.86,0.0
41.501,-5.015,-0.385,1.0
36.011,-4.349,-0.526,0.0
30.918,-3.731,-0.617,0.0
27.514,-3.319,-0.698,0.0
23.994,-2.893,-0.737,0.0
21.613,-2.604,-0.78,0.0
43.968,-5.296,-0.356,0.0
0.0,0.0,0.0,0.0
31.791,-3.824,-0.597,0.0
0.0,0.0,0.0,0.0
0.0,0.0,0.0,0.0
22.141,-2.659,-0.773,0.0
46.673,-5.602,-0.323,0.0
0.0,0.0,0.0,0.0
32.707,-3.92,-0.575,0.0
28.784,-3.447,-0.663,0.0
0.0,0.0,0.0,0.0
22.578,-2.7,-0.761,0.0
48.603,-5.811,-0.28,0.0
0.0,0.0,0.0,0.0
0.0,0.0,0.0,0.0
29.811,-3.555,-0.652,0.0
26.09,-3.109,-0.71,0.0
23.169,-2.759,-0.754,0.0
0.0,0.0,0.0,0.0
41.067,-4.885,-0.408,0.0
35.375,-4.204,-0.54,0.0
0.0,0.0,0.0,0.0
26.837,-3.184,-0.699,0.0
23.385,-2.772,-0.734,0.0
0.0,0.0,0.0,0.0
43.55,-5.155,-0.382,0.0
36.75,-4.346,-0.518,0.0
32.073,-3.789,-0.627,0.0
27.345,-3.227,-0.681,0.0
24.125,-2.845,-0.729,0.0
0.0,0.0,0.0,0.0
0.0,0.0,0.0,0.0
0.0,0.0,0.0,0.0
32.365,-3.803,-0.595,0.0
28.124,-3.301,-0.667,0.0
25.336,-2.971,-0.736,0.0
0.0,0.0,0.0,0.0
0.0,0.0,0.0,0.0
0.0,0.0,0.0,0.0
0.0,0.0,0.0,0.0
29.015,-3.386,-0.655,0.0
26.116,-3.044,-0.729,0.0
77.764,-9.063,0.0,1.0
0.0,0.0,0.0,0.0
0.0,0.0,0.0,0.0
0.0,0.0,0.0,0.0
30.34,-3.518,-0.651,0.0
26.388,-3.056,-0.707,0.0
77.696,-8.998,0.088,20.0
0.0,0.0,0.0,0.0
0.0,0.0,0.0,0.0
0.0,0.0,0.0,0.0
31.2,-3.594,-0.634,0.0
27.003,-3.106,-0.693,0.0
77.723,-8.94,0.175,11.0
0.0,0.0,0.0,0.0
0.0,0.0,0.0,0.0
36.974,-4.234,-0.513,0.0
31.215,-3.57,-0.6,0.0
27.872,-3.183,-0.685,0.0
86.514,-9.88,0.29,3.0
0.0,0.0,0.0,0.0
45.872,-5.222,-0.336,0.0
0.0,0.0,0.0,0.0
0.0,0.0,0.0,0.0
28.07,-3.181,-0.659,0.0
86.598,-9.815,0.385,6.0
0.0,0.0,0.0,0.0
0.0,0.0,0.0,0.0
0.0,0.0,0.0,0.0
33.984,-3.827,-0.579,0.0
29.205,-3.283,-0.654,0.0
83.378,-9.373,0.46,15.0
0.0,0.0,0.0,0.0
0.0,0.0,0.0,0.0
0.0,0.0,0.0,0.0
35.161,-3.925,-0.561,0.0
0.0,0.0,0.0,0.0
83.375,-9.293,0.549,25.0
83.855,-9.329,0.104,12.0
0.0,0.0,0.0,0.0
0.0,0.0,0.0,0.0
36.624,-4.053,-0.546,0.0
31.093,-3.434,-0.63,0.0
83.369,-9.209,0.637,29.0
83.843,-9.244,0.191,3.0
0.0,0.0,0.0,0.0
0.0,0.0,0.0,0.0
37.603,-4.122,-0.522,0.0
31.851,-3.485,-0.613,0.0
90.383,-7.926,1.998,37.0
90.402,-7.898,1.508,35.0
90.403,-7.868,1.017,37.0
90.405,-7.839,0.517,37.0
0.0,0.0,0.0,0.0
0.0,0.0,0.0,0.0
90.365,-7.775,2.053,36.0
90.375,-7.746,1.562,40.0
90.39,-7.718,1.071,37.0
90.406,-7.689,0.571,43.0
0.0,0.0,0.0,0.0
0.0,0.0,0.0,0.0
90.385,-7.626,2.106,29.0
90.391,-7.596,1.614,47.0
90.403,-7.566,1.122,42.0
90.405,-7.536,0.623,55.0
90.402,-7.506,0.131,20.0
0.0,0.0,0.0,0.0
90.396,-7.472,2.155,27.0
90.403,-7.442,1.664,150.0
100.061,-8.203,1.297,11.0
100.006,-8.164,0.742,13.0
99.153,-8.061,0.196,1.0
0.0,0.0,0.0,0.0
127.48,-10.317,3.106,32.0
116.678,-9.404,2.207,9.0
100.086,-8.032,1.347,12.0
100.06,-7.996,0.791,14.0
99.406,-7.912,0.245,1.0
0.0,0.0,0.0,0.0
127.499,-10.097,3.167,28.0
118.8,-9.368,2.303,6.0
100.076,-7.857,1.394,12.0
100.049,-7.82,0.838,17.0
99.137,-7.714,0.29,3.0
0.0,0.0,0.0,0.0
127.504,-9.871,3.225,69.0
120.792,-9.309,2.395,7.0
100.085,-7.677,1.438,10.0
100.061,-7.642,0.882,13.0
99.15,-7.537,0.332,8.0
0.0,0.0,0.0,0.0
0.0,0.0,0.0,0.0
123.919,-9.327,2.507,13.0
100.109,-7.499,1.479,11.0
100.054,-7.459,0.921,13.0
99.043,-7.35,0.371,10.0
0.0,0.0,0.0,0.0
109.18,-8.056,2.847,1.0
109.535,-8.044,2.258,3.0
100.088,-7.314,1.516,8.0
100.079,-7.277,0.958,12.0
99.254,-7.183,0.407,12.0
64.462,-4.642,-0.087,1.0
109.154,-7.853,2.884,23.0
109.307,-7.825,2.289,51.0
100.145,-7.133,1.55,7.0
100.074,-7.093,0.99,11.0
99.283,-7.001,0.439,12.0
0.0,0.0,0.0,0.0
109.1,-7.646,2.917,46.0
109.35,-7.622,2.324,27.0
100.066,-6.939,1.578,6.0
100.032,-6.9,1.019,6.0
99.676,-6.84,0.47,5.0
0.0,0.0,0.0,0.0
117.0,-7.978,3.159,8.0
117.328,-7.958,2.525,8.0
0.0,0.0,0.0,0.0
0.0,0.0,0.0,0.0
99.654,-6.65,0.494,10.0
0.0,0.0,0.0,0.0
117.085,-7.76,3.19,14.0
117.182,-7.722,2.549,31.0
117.456,-7.697,1.909,20.0
125.212,-8.162,1.336,31.0
108.904,-7.059,0.563,1.0
0.0,0.0,0.0,0.0
117.123,-7.538,3.215,21.0
117.255,-7.503,2.573,27.0
125.284,-7.97,2.06,22.0
147.903,-9.357,1.605,17.0
108.913,-6.85,0.583,2.0
0.0,0.0,0.0,0.0
117.365,-7.328,3.24,30.0
147.971,-9.183,3.271,17.0
148.543,-9.163,2.465,20.0
149.757,-9.181,1.646,16.0
109.343,-6.665,0.6,2.0
0.0,0.0,0.0,0.0
117.273,-7.092,3.252,36.0
148.909,-8.951,3.309,20.0
148.706,-8.883,2.485,21.0
149.961,-8.903,1.664,16.0
0.0,0.0,0.0,0.0
0.0,0.0,0.0,0.0
117.353,-6.866,3.265,10.0
149.611,-8.7,3.337,20.0
140.763,-8.134,2.363,11.0
114.879,-6.595,1.283,8.0
114.791,-6.548,0.65,6.0
0.0,0.0,0.0,0.0
120.012,-6.784,3.345,16.0
149.924,-8.419,3.35,5.0
0.0,0.0,0.0,0.0
0.0,0.0,0.0,0.0
101.487,-5.587,0.576,59.0
0.0,0.0,0.0,0.0
140.704,-7.674,3.924,11.0
140.702,-7.622,3.145,29.0
102.049,-5.491,1.717,2.0
0.0,0.0,0.0,0.0
102.404,-5.434,0.581,2.0
0.0,0.0,0.0,0.0
138.932,-7.297,3.87,13.0
140.809,-7.344,3.144,3.0
102.002,-5.283,1.712,2.0
101.538,-5.22,1.133,14.0
103.131,-5.264,0.58,5.0
101.616,-5.15,0.009,1.0
139.367,-7.042,3.874,22.0
0.0,0.0,0.0,0.0
102.424,-5.098,1.712,1.0
101.543,-5.015,1.125,151.0
102.507,-5.025,0.567,1.0
101.628,-4.945,0.0,2.0
142.321,-6.901,3.942,12.0
139.365,-6.706,3.086,5.0
102.199,-4.878,1.696,2.0
101.543,-4.809,1.112,152.0
102.644,-4.822,0.555,1.0
0.0,0.0,0.0,0.0
142.382,-6.613,3.923,15.0
0.0,0.0,0.0,0.0
102.092,-4.666,1.679,1.0
101.471,-4.599,1.095,6.0
0.0,0.0,0.0,0.0
0.0,0.0,0.0,0.0
142.375,-6.322,3.897,9.0
0.0,0.0,0.0,0.0
0.0,0.0,0.0,0.0
101.574,-4.397,1.077,1.0
102.563,-4.402,0.517,3.0
0.0,0.0,0.0,0.0
139.948,-5.929,3.8,12.0
0.0,0.0,0.0,0.0
101.563,-4.226,1.627,18.0
0.0,0.0,0.0,0.0
0.0,0.0,0.0,0.0
0.0,0.0,0.0,0.0
141.757,-5.713,3.812,17.0
162.477,-6.488,3.465,5.0
0.0,0.0,0.0,0.0
0.0,0.0,0.0,0.0
0.0,0.0,0.0,0.0
0.0,0.0,0.0,0.0
142.426,-5.451,3.789,4.0
162.287,-6.149,3.412,13.0
162.266,-6.089,2.508,11.0
162.215,-6.026,1.586,14.0
0.0,0.0,0.0,0.0
0.0,0.0,0.0,0.0
163.487,-5.92,4.295,6.0
162.284,-5.815,3.357,12.0
162.247,-5.753,2.451,15.0
162.077,-5.688,1.527,11.0
0.0,0.0,0.0,0.0
0.0,0.0,0.0,0.0
163.373,-5.576,4.23,23.0
162.258,-5.477,3.294,19.0
162.216,-5.415,2.387,24.0
162.133,-5.355,1.465,6.0
0.0,0.0,0.0,0.0
0.0,0.0,0.0,0.0
163.395,-5.237,4.162,21.0
162.213,-5.142,3.226,4.0
161.948,-5.073,2.315,23.0
0.0,0.0,0.0,0.0
0.0,0.0,0.0,0.0
0.0,0.0,0.0,0.0
163.455,-4.904,4.09,6.0
167.992,-4.981,3.264,9.0
161.871,-4.74,2.239,28.0
160.707,-4.648,1.308,9.0
0.0,0.0,0.0,0.0
0.0,0.0,0.0,0.0
163.504,-4.57,4.012,3.0
178.111,-4.912,3.372,8.0
161.866,-4.406,2.157,26.0
160.857,-4.32,1.226,6.0
0.0,0.0,0.0,0.0
0.0,0.0,0.0,0.0
171.495,-4.439,4.116,3.0
170.544,-4.353,3.138,7.0
161.95,-4.077,2.072,9.0
0.0,0.0,0.0,0.0
0.0,0.0,0.0,0.0
0.0,0.0,0.0,0.0
171.462,-4.089,4.019,3.0
170.39,-4.001,3.037,8.0
118.364,-2.736,1.445,13.0
0.0,0.0,0.0,0.0
0.0,0.0,0.0,0.0
0.0,0.0,0.0,0.0
0.0,0.0,0.0,0.0
170.14,-3.648,2.929,4.0
118.234,-2.492,1.371,25.0
118.255,-2.452,0.695,1.0
0.0,0.0,0.0,0.0
0.0,0.0,0.0,0.0
0.0,0.0,0.0,0.0
0.0,0.0,0.0,0.0
118.14,-2.252,1.293,150.0
0.0,0.0,0.0,0.0
0.0,0.0,0.0,0.0
49.4,-0.89,-0.296,0.0
170.434,-3.023,3.667,4.0
118.669,-2.064,1.885,3.0
118.153,-2.014,1.213,156.0
19.742,-0.329,0.089,2.0
0.0,0.0,0.0,0.0
0.0,0.0,0.0,0.0
172.662,-2.718,3.593,4.0
19.806,-0.304,0.3,0.0
19.747,-0.297,0.188,18.0
19.739,-0.29,0.075,14.0
0.0,0.0,0.0,0.0
0.0,0.0,0.0,0.0
19.78,-0.271,0.396,4.0
19.738,-0.264,0.284,10.0
19.756,-0.257,0.173,25.0
19.718,-0.25,0.06,0.0
0.0,0.0,0.0,0.0
0.0,0.0,0.0,0.0
19.751,-0.231,0.38,12.0
19.76,-0.225,0.269,5.0
118.33,-1.309,0.945,2.0
0.0,0.0,0.0,0.0
0.0,0.0,0.0,0.0
19.786,-0.198,-0.178,2.0
19.771,-0.193,0.364,2.0
169.388,-1.595,2.168,7.0
160.73,-1.46,1.15,6.0
0.0,0.0,0.0,0.0
19.761,-0.166,-0.083,11.0
19.739,-0.159,-0.195,15.0
177.208,-1.378,3.117,18.0
165.369,-1.233,1.975,4.0
19.773,-0.14,0.124,1.0
19.734,-0.133,0.01,9.0
19.711,-0.127,-0.1,15.0
19.732,-0.12,-0.212,17.0
19.69,-0.114,0.328,9.0
19.713,-0.108,0.217,15.0
19.707,-0.101,0.106,13.0
19.705,-0.095,-0.007,15.0
19.718,-0.088,-0.118,16.0
19.743,-0.082,-0.23,15.0
19.646,-0.076,0.309,10.0
19.678,-0.069,0.198,15.0
19.693,-0.063,0.087,16.0
19.696,-0.056,-0.026,16.0
19.735,-0.05,-0.137,14.0
19.755,-0.044,-0.249,5.0
19.634,-0.037,0.29,12.0
19.662,-0.031,0.179,9.0
19.692,-0.025,0.068,10.0
19.734,-0.019,-0.045,11.0
19.762,-0.013,-0.157,0.0
0.0,0.0,0.0,0.0
19.635,0.0,0.271,14.0
19.781,0.005,0.161,2.0
19.773,0.011,0.048,4.0
19.76,0.017,-0.065,37.0
19.743,0.024,-0.177,9.0
19.773,0.03,-0.289,14.0
19.623,0.036,0.25,15.0
19.776,0.042,0.14,21.0
19.759,0.049,0.028,27.0
19.756,0.055,-0.085,61.0
19.762,0.061,-0.197,48.0
19.768,0.067,-0.31,17.0
19.635,0.073,0.23,16.0
19.673,0.079,0.118,13.0
19.687,0.085,0.007,8.0
19.72,0.091,-0.106,0.0
0.0,0.0,0.0,0.0
32.027,0.168,-0.537,0.0
19.665,0.109,0.209,17.0
19.648,0.115,0.097,13.0
19.645,0.121,-0.014,13.0
19.659,0.127,-0.128,10.0
19.682,0.133,-0.24,0.0
31.366,0.222,-0.561,0.0
19.663,0.145,0.186,14.0
19.652,0.151,0.075,12.0
19.642,0.157,-0.036,15.0
19.636,0.162,-0.15,14.0
19.659,0.169,-0.262,15.0
19.659,0.174,-0.373,16.0
19.681,0.181,0.164,10.0
19.665,0.186,0.052,10.0
19.641,0.192,-0.059,11.0
19.627,0.198,-0.172,16.0
19.644,0.203,-0.284,17.0
19.656,0.209,-0.396,17.0
19.777,0.216,0.142,25.0
19.686,0.221,0.029,6.0
19.65,0.227,-0.082,14.0
19.633,0.232,-0.196,16.0
19.668,0.238,-0.308,15.0
19.666,0.244,-0.42,16.0
19.789,0.252,0.118,9.0
57.458,0.749,0.015,0.0
19.675,0.261,-0.106,10.0
19.649,0.267,-0.22,14.0
19.676,0.273,-0.333,10.0
19.69,0.278,-0.445,5.0
0.0,0.0,0.0,0.0
55.12,0.814,-0.053,2.0
0.0,0.0,0.0,0.0
19.676,0.301,-0.245,0.0
30.95,0.483,-0.562,0.0
27.056,0.43,-0.646,1.0
55.202,0.894,0.19,39.0
52.407,0.864,-0.118,3.0
40.945,0.686,-0.325,0.0
32.388,0.552,-0.446,1.0
27.843,0.482,-0.542,0.0
26.493,0.466,-0.667,1.0
55.17,0.988,0.118,58.0
47.935,0.871,-0.17,0.0
37.315,0.689,-0.346,0.0
30.497,0.571,-0.46,0.0
28.986,0.55,-0.603,0.0
25.666,0.494,-0.68,0.0
55.181,1.08,0.044,10.0
44.688,0.887,-0.219,0.0
0.0,0.0,0.0,0.0
29.286,0.597,-0.481,1.0
26.464,0.546,-0.585,1.0
24.802,0.518,-0.69,0.0
54.504,1.155,-0.028,1.0
40.923,0.878,-0.255,1.0
34.133,0.741,-0.408,1.0
28.352,0.623,-0.503,1.0
24.477,0.544,-0.575,0.0
23.662,0.532,-0.691,1.0
45.524,1.038,-0.086,3.0
38.747,0.893,-0.295,2.0
31.486,0.734,-0.42,0.0
26.829,0.632,-0.514,0.0
23.242,0.553,-0.578,1.0
22.594,0.544,-0.691,4.0
0.0,0.0,0.0,0.0
0.0,0.0,0.0,0.0
30.37,0.756,-0.448,1.0
25.664,0.645,-0.528,1.0
21.982,0.558,-0.578,0.0
21.22,0.544,-0.679,2.0
40.056,1.038,-0.189,69.0
36.667,0.96,-0.383,0.0
29.075,0.768,-0.47,1.0
24.884,0.663,-0.547,1.0
21.046,0.566,-0.583,0.0
19.936,0.541,-0.667,0.0
40.035,1.099,-0.247,25.0
40.171,1.112,-0.478,1.0
27.997,0.782,-0.493,1.0
23.641,0.666,-0.554,1.0
20.712,0.588,-0.605,3.0
18.965,0.543,-0.662,0.0
0.0,0.0,0.0,0.0
27.442,0.8,-0.367,3.0
27.208,0.8,-0.52,5.0
22.528,0.668,-0.562,1.0
19.954,0.596,-0.612,0.0
18.254,0.55,-0.665,1.0
36.61,1.113,-0.335,2.0
29.948,0.917,-0.446,1.0
25.603,0.79,-0.528,6.0
21.673,0.674,-0.573,2.0
19.305,0.605,-0.621,1.0
17.555,0.554,-0.666,0.0
40.129,1.277,-0.428,3.0
28.68,0.919,-0.47,2.0
24.546,0.792,-0.543,1.0
21.079,0.685,-0.59,2.0
18.964,0.621,-0.64,2.0
17.188,0.566,-0.679,1.0
40.135,1.333,-0.49,1.0
27.437,0.918,-0.492,3.0
22.54,0.759,-0.534,2.0
20.217,0.685,-0.597,2.0
18.25,0.622,-0.644,2.0
16.956,0.582,-0.696,0.0
30.339,1.049,-0.417,1.0
26.282,0.914,-0.512,2.0
22.043,0.772,-0.556,1.0
19.719,0.694,-0.613,3.0
17.754,0.629,-0.654,0.0
16.782,0.598,-0.715,0.0
29.305,1.052,-0.449,3.0
24.86,0.897,-0.524,1.0
21.355,0.775,-0.572,1.0
18.981,0.693,-0.62,2.0
17.255,0.634,-0.663,1.0
16.585,0.613,-0.733,0.0
27.792,1.033,-0.47,3.0
23.681,0.885,-0.536,4.0
20.588,0.774,-0.585,1.0
18.475,0.698,-0.633,3.0
17.042,0.647,-0.682,0.0
16.379,0.626,-0.75,0.0
26.933,1.035,-0.499,7.0
23.254,0.898,-0.564,3.0
19.852,0.771,-0.596,2.0
17.961,0.701,-0.644,3.0
16.854,0.661,-0.702,0.0
16.219,0.64,-0.769,1.0
23.75,0.942,-0.478,2.0
21.741,0.866,-0.563,1.0
19.393,0.776,-0.614,2.0
17.56,0.706,-0.658,2.0
16.677,0.674,-0.722,2.0
16.055,0.652,-0.787,1.0
23.641,0.965,-0.514,38.0
21.003,0.861,-0.578,3.0
18.633,0.767,-0.62,3.0
17.135,0.709,-0.671,2.0
16.489,0.686,-0.74,2.0
15.93,0.665,-0.807,2.0
23.432,0.983,-0.549,12.0
20.037,0.844,-0.584,1.0
18.155,0.768,-0.634,3.0
16.93,0.72,-0.691,2.0
16.287,0.695,-0.758,2.0
15.348,0.658,-0.803,0.0
22.134,0.953,-0.555,4.0
19.595,0.847,-0.604,2.0
17.715,0.769,-0.648,3.0
16.738,0.73,-0.711,1.0
16.115,0.706,-0.777,2.0
14.953,0.657,-0.808,0.0
21.25,0.938,-0.568,2.0
18.822,0.834,-0.612,3.0
17.251,0.767,-0.66,2.0
16.551,0.739,-0.731,2.0
15.964,0.716,-0.797,4.0
14.533,0.654,-0.809,0.0
23.637,1.067,-0.672,1.0
18.353,0.832,-0.627,3.0
17.015,0.774,-0.68,2.0
16.334,0.746,-0.748,2.0
15.684,0.719,-0.809,0.0
14.26,0.656,-0.818,0.0
19.675,0.908,-0.592,3.0
17.893,0.828,-0.642,2.0
16.822,0.781,-0.7,2.0
16.169,0.754,-0.768,2.0
23.625,1.106,-1.259,0.0
23.625,1.11,-1.396,1.0
18.999,0.894,-0.604,3.0
17.364,0.82,-0.652,2.0
16.625,0.788,-0.721,1.0
15.983,0.76,-0.787,3.0
23.619,1.127,-1.3,1.0
23.631,1.132,-1.437,1.0
18.491,0.887,-0.62,3.0
17.061,0.821,-0.67,2.0
16.38,0.791,-0.738,1.0
15.658,0.759,-0.798,1.0
23.611,1.148,-1.34,0.0
23.618,1.152,-1.477,0.0
18.059,0.882,-0.636,2.0
16.877,0.827,-0.692,2.0
16.228,0.798,-0.759,1.0
23.622,1.165,-1.244,1.0
23.607,1.168,-1.38,1.0
23.633,1.173,-1.518,2.0
17.578,0.873,-0.649,1.0
16.678,0.831,-0.712,1.0
15.983,0.799,-0.775,2.0
23.622,1.184,-1.285,1.0
23.619,1.187,-1.421,1.0
23.627,1.191,-1.559,1.0
17.113,0.864,-0.661,1.0
16.429,0.831,-0.73,1.0
15.906,0.807,-0.799,1.0
23.673,1.205,-1.328,0.0
23.625,1.206,-1.463,0.0
12.494,0.639,-0.846,0.0
16.937,0.867,-0.684,2.0
16.249,0.834,-0.75,1.0
15.326,0.789,-0.796,0.0
23.596,1.218,-1.364,0.0
23.645,1.224,-1.504,0.0
12.245,0.635,-0.85,0.0
16.776,0.871,-0.706,3.0
16.033,0.834,-0.767,2.0
14.746,0.769,-0.791,0.0
23.651,1.237,-1.409,1.0
23.678,1.242,-1.548,0.0
12.037,0.632,-0.856,0.0
16.527,0.869,-0.724,1.0
15.948,0.84,-0.791,2.0
14.574,0.77,-0.807,0.0
13.221,0.7,-0.81,0.0
12.481,0.662,-0.837,0.0
11.746,0.625,-0.856,0.0
16.294,0.867,-0.742,1.0
15.407,0.821,-0.791,0.0
14.172,0.757,-0.809,0.0
13.17,0.705,-0.83,0.0
12.301,0.66,-0.846,0.0
11.585,0.623,-0.864,0.0
16.083,0.865,-0.76,2.0
14.987,0.808,-0.795,0.0
13.858,0.748,-0.815,0.0
12.762,0.69,-0.826,0.0
12.076,0.655,-0.852,0.0
11.335,0.616,-0.866,0.0
15.974,0.868,-0.783,3.0
14.766,0.803,-0.809,0.0
13.445,0.733,-0.814,0.0
12.602,0.688,-0.838,0.0
11.881,0.65,-0.859,0.0
11.032,0.605,-0.861,0.0
15.604,0.855,-0.791,0.0
14.229,0.781,-0.804,0.0
13.26,0.729,-0.826,0.0
12.334,0.68,-0.841,0.0
11.569,0.639,-0.856,0.0
10.879,0.602,-0.868,0.0
15.022,0.83,-0.787,0.0
13.994,0.775,-0.814,0.0
12.9,0.715,-0.825,0.0
12.139,0.674,-0.848,0.0
11.365,0.632,-0.86,0.0
10.649,0.593,-0.868,0.0
14.833,0.826,-0.803,0.0
13.489,0.752,-0.808,1.0
12.634,0.705,-0.83,0.0
11.942,0.668,-0.855,0.0
11.097,0.622,-0.859,0.0
10.483,0.588,-0.872,0.0
14.353,0.804,-0.801,0.0
13.428,0.753,-0.827,0.0
12.414,0.697,-0.836,0.0
11.602,0.653,-0.85,0.0
10.957,0.618,-0.867,0.0
10.338,0.583,-0.878,0.0
14.05,0.792,-0.808,0.0
13.132,0.741,-0.831,0.0
12.289,0.694,-0.849,0.0
11.371,0.643,-0.852,0.0
10.724,0.608,-0.866,0.0
10.217,0.58,-0.885,0.0
13.78,0.781,-0.815,0.0
12.706,0.721,-0.825,0.0
12.03,0.683,-0.851,0.0
11.171,0.635,-0.856,0.0
10.542,0.6,-0.869,0.0
10.067,0.574,-0.889,0.0
13.467,0.766,-0.819,1.0
12.488,0.711,-0.832,0.0
11.732,0.669,-0.849,0.0
10.932,0.624,-0.856,0.0
10.39,0.594,-0.874,0.0
9.945,0.569,-0.895,0.0
13.297,0.759,-0.831,0.0
12.38,0.707,-0.845,0.0
11.526,0.659,-0.854,0.0
10.827,0.62,-0.866,0.0
10.273,0.589,-0.881,0.0
9.783,0.561,-0.896,0.0
10.085,0.549,-0.885,0.0
9.608,0.523,-0.899,0.0
9.044,0.492,-0.898,0.0
8.655,0.47,-0.911,0.0
8.205,0.446,-0.911,0.0
7.912,0.43,-0.925,0.0
9.976,0.538,-0.888,0.0
9.491,0.512,-0.9,0.0
8.55,0.46,-0.911,0.0
8.139,0.438,-0.914,0.0
7.805,0.42,-0.922,0.0
9.883,0.528,-0.892,0.0
9.375,0.501,-0.9,0.0
8.46,0.451,-0.912,0.0
8.052,0.429,-0.914,0.0
7.766,0.413,-0.927,0.0
9.774,0.517,-0.894,0.0
9.287,0.491,-0.903,0.0
8.325,0.439,-0.907,0.0
7.986,0.421,-0.916,0.0
7.725,0.407,-0.931,0.0
9.672,0.506,-0.896,0.0
9.188,0.48,-0.905,0.0
8.693,0.454,-0.906,0.0
8.262,0.431,-0.91,0.0
7.959,0.415,-0.923,0.0
7.637,0.397,-0.93,0.0
9.575,0.495,-0.898,0.0
8.654,0.446,-0.912,0.0
8.16,0.42,-0.908,0.0
7.855,0.404,-0.92,0.0
7.575,0.389,-0.931,0.0
9.514,0.486,-0.903,0.0
8.536,0.435,-0.909,0.0
8.143,0.414,-0.915,0.0
7.848,0.399,-0.927,0.0
7.504,0.381,-0.93,0.0
9.392,0.473,-0.902,0.0
8.462,0.425,-0.91,0.0
8.086,0.406,-0.917,0.0
7.767,0.389,-0.926,0.0
7.491,0.375,-0.937,0.0
9.316,0.463,-0.904,0.0
8.846,0.439,-0.909,0.0
8.378,0.415,-0.91,0.0
8.035,0.397,-0.92,0.0
7.705,0.38,-0.927,0.0
7.42,0.366,-0.935,0.0
9.222,0.451,-0.904,0.0
8.757,0.428,-0.909,0.0
8.301,0.405,-0.909,0.0
7.951,0.387,-0.918,0.0
7.657,0.372,-0.928,0.0
7.36,0.357,-0.935,0.0
9.143,0.44,-0.905,0.0
8.671,0.417,-0.908,0.0
8.23,0.395,-0.91,0.0
7.917,0.379,-0.922,0.0
7.62,0.364,-0.931,0.0
7.342,0.35,-0.94,0.0
9.083,0.43,-0.908,0.0
8.625,0.408,-0.911,0.0
8.194,0.387,-0.913,0.0
7.847,0.37,-0.921,0.0
7.599,0.357,-0.935,0.0
7.268,0.341,-0.937,0.0
9.008,0.419,-0.908,0.0
8.535,0.397,-0.91,0.0
8.129,0.377,-0.913,0.0
7.818,0.362,-0.924,0.0
7.55,0.349,-0.936,0.0
7.242,0.334,-0.94,0.0
8.934,0.408,-0.908,0.0
8.471,0.386,-0.91,0.0
8.097,0.369,-0.916,0.0
7.744,0.352,-0.922,0.0
7.499,0.34,-0.936,0.0
7.231,0.327,-0.945,0.0
8.856,0.397,-0.908,0.0
8.431,0.377,-0.913,0.0
8.037,0.359,-0.916,0.0
7.733,0.344,-0.927,0.0
7.476,0.332,-0.939,0.0
7.197,0.319,-0.946,0.0
8.784,0.386,-0.907,0.0
8.362,0.367,-0.912,0.0
8.03,0.351,-0.922,0.0
7.701,0.336,-0.929,0.0
7.431,0.323,-0.939,0.0
7.174,0.311,-0.948,0.0
8.727,0.376,-0.908,0.0
8.309,0.357,-0.912,0.0
7.967,0.341,-0.92,0.0
7.625,0.326,-0.925,0.0
7.378,0.314,-0.938,0.0
7.134,0.303,-0.948,0.0
8.683,0.366,-0.909,0.0
8.289,0.348,-0.915,0.0
7.939,0.332,-0.922,0.0
7.6,0.317,-0.928,0.0
7.336,0.305,-0.938,0.0
7.117,0.295,-0.951,0.0
8.667,0.357,-0.913,0.0
8.247,0.338,-0.916,0.0
7.882,0.322,-0.921,0.0
7.602,0.31,-0.933,0.0
7.315,0.297,-0.94,0.0
7.08,0.287,-0.95,0.0
8.587,0.345,-0.91,0.0
8.19,0.328,-0.915,0.0
7.898,0.315,-0.928,0.0
7.557,0.301,-0.932,0.0
7.285,0.289,-0.94,0.0
7.027,0.278,-0.947,0.0
8.574,0.336,-0.914,0.0
8.168,0.319,-0.917,0.0
7.857,0.306,-0.927,0.0
7.536,0.292,-0.933,0.0
7.275,0.281,-0.943,0.0
6.981,0.269,-0.945,0.0
8.534,0.326,-0.914,0.0
8.146,0.31,-0.919,0.0
7.851,0.297,-0.931,0.0
7.517,0.284,-0.935,0.0
7.238,0.272,-0.942,0.0
6.967,0.261,-0.947,0.0
8.52,0.316,-0.917,0.0
8.109,0.3,-0.919,0.0
7.788,0.287,-0.927,0.0
7.487,0.275,-0.935,0.0
7.258,0.265,-0.948,0.0
6.945,0.253,-0.947,0.0
8.49,0.306,-0.917,0.0
8.079,0.29,-0.919,0.0
7.758,0.278,-0.927,0.0
7.484,0.267,-0.937,0.0
7.22,0.256,-0.946,0.0
6.932,0.245,-0.948,0.0
8.451,0.296,-0.916,0.0
8.053,0.281,-0.919,0.0
7.749,0.269,-0.929,0.0
7.475,0.258,-0.939,0.0
7.189,0.247,-0.945,0.0
6.922,0.237,-0.949,0.0
8.427,0.286,-0.917,0.0
8.068,0.273,-0.924,0.0
7.74,0.26,-0.93,0.0
7.461,0.25,-0.94,0.0
7.199,0.24,-0.948,0.0
6.907,0.229,-0.949,0.0
8.388,0.276,-0.915,0.0
8.067,0.264,-0.926,0.0
7.752,0.252,-0.934,0.0
7.432,0.241,-0.939,0.0
7.17,0.231,-0.946,0.0
6.898,0.221,-0.95,0.0
8.365,0.266,-0.915,0.0
8.051,0.254,-0.926,0.0
7.734,0.243,-0.934,0.0
7.402,0.232,-0.937,0.0
7.157,0.223,-0.946,0.0
6.879,0.213,-0.949,0.0
8.371,0.257,-0.918,0.0
8.007,0.244,-0.923,0.0
7.707,0.234,-0.932,0.0
7.388,0.223,-0.936,0.0
7.173,0.215,-0.95,0.0
6.872,0.205,-0.949,0.0
8.345,0.246,-0.916,0.0
8.014,0.235,-0.925,0.0
7.717,0.225,-0.935,0.0
7.365,0.214,-0.935,0.0
7.138,0.206,-0.946,0.0
6.877,0.197,-0.951,0.0
8.361,0.238,-0.919,0.0
8.038,0.227,-0.929,0.0
7.705,0.216,-0.934,0.0
7.387,0.206,-0.938,0.0
7.149,0.198,-0.949,0.0
6.849,0.189,-0.948,0.0
8.355,0.228,-0.919,0.0
8.013,0.217,-0.927,0.0
7.675,0.207,-0.931,0.0
7.378,0.197,-0.938,0.0
7.167,0.19,-0.951,0.0
6.88,0.182,-0.952,0.0
8.358,0.218,-0.92,0.0
8.004,0.208,-0.926,0.0
7.741,0.199,-0.939,0.0
7.359,0.188,-0.935,0.0
7.161,0.182,-0.951,0.0
6.877,0.173,-0.952,0.0
8.39,0.209,-0.923,0.0
8.036,0.199,-0.929,0.0
0.0,0.0,0.0,0.0
7.371,0.18,-0.936,0.0
7.141,0.173,-0.948,0.0
6.884,0.166,-0.953,0.0
8.395,0.2,-0.923,0.0
8.029,0.19,-0.928,0.0
0.0,0.0,0.0,0.0
7.381,0.172,-0.937,0.0
7.173,0.166,-0.951,0.0
6.862,0.157,-0.949,0.0
8.403,0.19,-0.923,0.0
8.054,0.181,-0.93,0.0
7.758,0.173,-0.94,0.0
7.395,0.163,-0.938,0.0
7.182,0.157,-0.952,0.0
6.854,0.149,-0.947,0.0
8.422,0.181,-0.924,0.0
8.053,0.172,-0.929,0.0
7.759,0.164,-0.939,0.0
7.398,0.155,-0.937,0.0
7.17,0.149,-0.949,0.0
6.885,0.142,-0.95,0.0
8.432,0.171,-0.924,0.0
8.05,0.162,-0.927,0.0
7.757,0.155,-0.937,0.0
7.425,0.147,-0.939,0.0
7.186,0.141,-0.949,0.0
6.889,0.133,-0.949,0.0
8.402,0.161,-0.918,0.0
8.084,0.153,-0.929,0.0
7.787,0.146,-0.938,0.0
7.453,0.139,-0.941,0.0
7.188,0.132,-0.948,0.0
6.917,0.126,-0.951,0.0
8.405,0.151,-0.916,0.0
8.103,0.144,-0.929,0.0
7.782,0.137,-0.935,0.0
7.468,0.13,-0.94,0.0
7.189,0.124,-0.946,0.0
6.945,0.118,-0.953,0.0
8.462,0.143,-0.92,0.0
8.152,0.136,-0.932,0.0
7.811,0.129,-0.936,0.0
7.478,0.122,-0.939,0.0
7.216,0.116,-0.946,0.0
6.957,0.11,-0.952,0.0
8.443,0.132,-0.915,0.0
8.184,0.127,-0.932,0.0
7.809,0.119,-0.933,0.0
7.519,0.114,-0.941,0.0
7.242,0.108,-0.947,0.0
6.994,0.103,-0.954,0.0
8.553,0.124,-0.923,0.0
8.213,0.118,-0.932,0.0
7.862,0.111,-0.936,0.0
7.532,0.105,-0.939,0.0
7.255,0.1,-0.945,0.0
6.998,0.095,-0.951,0.0
8.593,0.115,-0.923,0.0
8.222,0.108,-0.929,0.0
7.916,0.103,-0.938,0.0
7.558,0.097,-0.939,0.0
7.285,0.092,-0.946,0.0
7.014,0.087,-0.95,0.0
8.609,0.105,-0.921,0.0
8.24,0.099,-0.927,0.0
7.913,0.094,-0.934,0.0
7.598,0.088,-0.94,0.0
7.31,0.084,-0.945,0.0
7.069,0.079,-0.953,0.0
8.64,0.096,-0.919,0.0
8.268,0.09,-0.925,0.0
7.94,0.085,-0.932,0.0
7.638,0.08,-0.94,0.0
7.357,0.076,-0.947,0.0
7.098,0.072,-0.953,0.0
8.721,0.087,-0.922,0.0
8.311,0.081,-0.925,0.0
7.977,0.076,-0.932,0.0
7.688,0.072,-0.941,0.0
7.358,0.068,-0.942,0.0
7.104,0.064,-0.949,0.0
8.8,0.078,-0.925,0.0
8.407,0.073,-0.93,0.0
8.016,0.068,-0.931,0.0
7.674,0.063,-0.935,0.0
7.424,0.06,-0.945,0.0
7.122,0.056,-0.946,0.0
8.823,0.068,-0.921,0.0
8.426,0.064,-0.926,0.0
8.099,0.059,-0.935,0.0
7.768,0.056,-0.94,0.0
7.425,0.052,-0.94,0.0
7.158,0.048,-0.946,0.0
8.879,0.059,-0.921,0.0
8.463,0.055,-0.924,0.0
8.125,0.051,-0.932,0.0
7.795,0.047,-0.938,0.0
7.503,0.044,-0.944,0.0
7.234,0.041,-0.95,0.0
8.942,0.05,-0.92,0.0
8.551,0.046,-0.927,0.0
8.191,0.042,-0.933,0.0
7.872,0.039,-0.941,0.0
7.506,0.036,-0.938,0.0
7.267,0.033,-0.949,0.0
8.998,0.041,-0.919,0.0
8.615,0.037,-0.927,0.0
8.247,0.034,-0.932,0.0
7.897,0.031,-0.937,0.0
7.591,0.028,-0.942,0.0
7.302,0.026,-0.947,0.0
9.073,0.031,-0.919,0.0
8.676,0.028,-0.926,0.0
8.259,0.025,-0.926,0.0
7.954,0.023,-0.937,0.0
7.67,0.02,-0.945,0.0
7.33,0.018,-0.944,0.0
9.167,0.022,-0.92,0.0
8.729,0.019,-0.923,0.0
8.335,0.017,-0.927,0.0
7.995,0.015,-0.934,0.0
7.703,0.013,-0.942,0.0
7.401,0.011,-0.946,0.0
9.21,0.013,-0.915,0.0
8.796,0.01,-0.922,0.0
8.41,0.008,-0.928,0.0
8.059,0.007,-0.934,0.0
7.768,0.005,-0.943,0.0
7.43,0.003,-0.942,0.0
9.299,0.004,-0.915,0.0
8.841,0.002,-0.918,0.0
8.465,0.0,-0.925,0.0
8.117,-0.001,-0.932,0.0
7.82,-0.002,-0.941,0.0
7.512,-0.003,-0.945,0.0
9.398,-0.005,-0.915,0.0
8.977,-0.006,-0.923,0.0
8.576,-0.007,-0.928,0.0
8.197,-0.009,-0.933,0.0
7.851,-0.01,-0.936,0.0
7.582,-0.011,-0.945,0.0
9.502,-0.014,-0.915,0.0
9.068,-0.015,-0.922,0.0
8.643,-0.016,-0.926,0.0
8.28,-0.017,-0.933,0.0
7.969,-0.018,-0.941,0.0
7.636,-0.018,-0.944,0.0
9.609,-0.023,-0.915,0.0
9.163,-0.024,-0.922,0.0
8.737,-0.024,-0.926,0.0
8.358,-0.025,-0.932,0.0
8.027,-0.025,-0.939,0.0
7.714,-0.026,-0.944,0.0
9.711,-0.033,-0.913,0.0
9.278,-0.033,-0.923,0.0
8.808,-0.033,-0.924,0.0
8.423,-0.033,-0.93,0.0
8.085,-0.033,-0.936,0.0
7.792,-0.033,-0.945,0.0
9.836,-0.042,-0.913,0.0
9.357,-0.041,-0.919,0.0
8.881,-0.041,-0.92,0.0
8.496,-0.041,-0.927,0.0
8.163,-0.041,-0.935,0.0
7.813,-0.04,-0.938,0.0
9.934,-0.051,-0.91,0.0
9.441,-0.05,-0.916,0.0
9.041,-0.05,-0.926,0.0
8.611,-0.049,-0.929,0.0
8.248,-0.048,-0.934,0.0
7.92,-0.048,-0.94,0.0
10.054,-0.061,-0.909,0.0
9.588,-0.059,-0.918,0.0
9.109,-0.058,-0.921,0.0
8.709,-0.057,-0.928,0.0
8.34,-0.056,-0.934,0.0
8.034,-0.055,-0.943,0.0
10.183,-0.07,-0.907,0.0
9.683,-0.068,-0.914,0.0
9.252,-0.067,-0.923,0.0
8.807,-0.065,-0.927,0.0
8.417,-0.063,-0.931,0.0
8.077,-0.062,-0.937,0.0
10.317,-0.079,-0.905,0.0
9.806,-0.077,-0.913,0.0
9.346,-0.075,-0.92,0.0
8.908,-0.073,-0.926,0.0
8.541,-0.071,-0.933,0.0
8.16,-0.069,-0.936,0.0
10.473,-0.089,-0.904,0.0
9.957,-0.086,-0.913,0.0
9.469,-0.083,-0.919,0.0
9.037,-0.081,-0.926,0.0
8.62,-0.078,-0.93,0.0
8.258,-0.076,-0.935,0.0
10.608,-0.098,-0.901,0.0
10.094,-0.095,-0.911,0.0
9.588,-0.091,-0.917,0.0
9.143,-0.089,-0.924,0.0
8.735,-0.086,-0.93,0.0
8.345,-0.083,-0.933,0.0
10.776,-0.107,-0.9,0.0
10.225,-0.103,-0.908,0.0
9.725,-0.1,-0.916,0.0
9.285,-0.097,-0.925,0.0
8.842,-0.093,-0.928,0.0
8.455,-0.091,-0.933,0.0
10.902,-0.116,-0.894,0.0
10.352,-0.112,-0.904,0.0
9.873,-0.108,-0.915,0.0
9.36,-0.104,-0.918,0.0
8.975,-0.101,-0.928,0.0
8.59,-0.098,-0.934,0.0
11.095,-0.126,-0.893,0.0
10.544,-0.121,-0.905,0.0
10.013,-0.116,-0.913,0.0
9.55,-0.112,-0.922,0.0
9.02,-0.107,-0.919,0.0
8.669,-0.104,-0.93,0.0
11.294,-0.135,-0.892,0.0
10.707,-0.13,-0.902,0.0
10.161,-0.125,-0.91,0.0
9.672,-0.12,-0.919,0.0
9.162,-0.115,-0.919,0.0
8.809,-0.112,-0.931,0.0
11.492,-0.145,-0.89,0.0
10.87,-0.139,-0.899,0.0
10.318,-0.133,-0.908,0.0
9.797,-0.127,-0.915,0.0
9.326,-0.122,-0.921,0.0
8.95,-0.119,-0.931,0.0
11.699,-0.154,-0.887,0.0
11.063,-0.147,-0.897,0.0
10.482,-0.141,-0.906,0.0
9.967,-0.135,-0.915,0.0
9.517,-0.13,-0.924,0.0
9.011,-0.125,-0.923,0.0
11.901,-0.164,-0.883,0.0
11.26,-0.156,-0.895,0.0
10.677,-0.149,-0.905,0.0
10.128,-0.143,-0.913,0.0
9.643,-0.137,-0.92,0.0
9.17,-0.132,-0.924,0.0
12.08,-0.172,-0.876,0.0
11.456,-0.165,-0.891,0.0
10.845,-0.157,-0.901,0.0
10.283,-0.15,-0.91,0.0
9.81,-0.145,-0.92,0.0
9.327,-0.139,-0.924,0.0
12.324,-0.182,-0.873,0.0
11.672,-0.174,-0.889,0.0
11.065,-0.166,-0.901,0.0
10.459,-0.158,-0.907,0.0
9.981,-0.152,-0.919,0.0
9.478,-0.145,-0.923,0.0
12.612,-0.192,-0.872,0.0
11.872,-0.182,-0.883,0.0
11.246,-0.174,-0.896,0.0
10.672,-0.166,-0.908,0.0
10.132,-0.159,-0.915,0.0
9.634,-0.152,-0.921,0.0
12.836,-0.201,-0.866,0.0
12.075,-0.19,-0.878,0.0
11.479,-0.182,-0.895,0.0
10.841,-0.173,-0.903,0.0
10.289,-0.165,-0.911,0.0
9.81,-0.158,-0.921,0.0
13.099,-0.21,-0.86,0.0
12.373,-0.2,-0.878,0.0
11.698,-0.19,-0.891,0.0
11.035,-0.18,-0.9,0.0
10.484,-0.172,-0.91,0.0
9.96,-0.164,-0.917,0.0
13.503,-0.221,-0.863,0.0
12.648,-0.208,-0.875,0.0
11.91,-0.197,-0.886,0.0
11.247,-0.187,-0.897,0.0
10.691,-0.179,-0.909,0.0
10.121,-0.17,-0.913,0.0
13.774,-0.23,-0.856,0.0
12.897,-0.216,-0.869,0.0
12.065,-0.204,-0.876,0.0
11.488,-0.195,-0.895,0.0
10.876,-0.185,-0.905,0.0
10.316,-0.177,-0.912,0.0
14.119,-0.24,-0.852,0.0
13.167,-0.225,-0.863,0.0
12.376,-0.212,-0.876,0.0
11.695,-0.201,-0.89,0.0
11.075,-0.191,-0.901,0.0
10.508,-0.182,-0.91,0.0
14.415,-0.249,-0.843,0.0
13.564,-0.235,-0.864,0.0
12.722,-0.221,-0.877,0.0
11.968,-0.209,-0.888,0.0
11.316,-0.198,-0.899,0.0
10.724,-0.189,-0.908,0.0
14.927,-0.261,-0.845,0.0
13.844,-0.243,-0.856,0.0
12.879,-0.226,-0.863,0.0
12.092,-0.213,-0.875,0.0
11.564,-0.205,-0.897,0.0
10.931,-0.194,-0.905,0.0
15.388,-0.271,-0.842,0.0
14.197,-0.251,-0.851,0.0
13.258,-0.235,-0.864,0.0
12.393,-0.22,-0.873,0.0
11.801,-0.211,-0.893,0.0
11.15,-0.2,-0.902,0.0
15.747,-0.28,-0.833,0.0
14.576,-0.26,-0.846,0.0
13.65,-0.244,-0.864,0.0
12.788,-0.229,-0.877,0.0
12.025,-0.216,-0.887,0.0
11.353,-0.204,-0.897,0.0
16.167,-0.289,-0.824,0.0
15.111,-0.271,-0.848,0.0
13.97,-0.251,-0.857,0.0
12.961,-0.233,-0.864,0.0
12.187,-0.22,-0.876,0.0
11.625,-0.21,-0.896,0.0
16.643,-0.299,-0.816,0.0
15.496,-0.278,-0.84,0.0
14.269,-0.257,-0.848,0.0
13.397,-0.242,-0.867,0.0
12.515,-0.226,-0.875,0.0
11.839,-0.214,-0.89,0.0
17.366,-0.312,-0.818,0.0
15.944,-0.287,-0.834,0.0
14.739,-0.265,-0.847,0.0
13.722,-0.248,-0.861,0.0
12.849,-0.232,-0.873,0.0
12.053,-0.218,-0.882,0.0
17.946,-0.322,-0.811,0.0
16.31,-0.293,-0.821,0.0
15.289,-0.275,-0.849,0.0
14.121,-0.254,-0.859,0.0
13.1,-0.236,-0.865,0.0
12.344,-0.223,-0.879,0.0
18.653,-0.334,-0.806,0.0
16.982,-0.304,-0.821,0.0
15.679,-0.281,-0.84,0.0
14.405,-0.258,-0.847,0.0
13.522,-0.243,-0.866,0.0
12.711,-0.228,-0.88,0.0
19.251,-0.343,-0.794,0.0
17.527,-0.312,-0.813,0.0
16.1,-0.287,-0.83,0.0
14.972,-0.267,-0.851,0.0
13.877,-0.247,-0.861,0.0
12.916,-0.23,-0.868,0.0
19.894,-0.352,-0.781,0.0
18.239,-0.323,-0.81,0.0
16.473,-0.291,-0.817,0.0
15.426,-0.273,-0.847,0.0
14.222,-0.251,-0.854,0.0
13.32,-0.235,-0.869,0.0
20.526,-0.36,-0.765,0.0
18.888,-0.331,-0.802,0.0
17.197,-0.301,-0.819,0.0
15.848,-0.277,-0.838,0.0
14.637,-0.256,-0.85,0.0
13.684,-0.239,-0.865,0.0
21.515,-0.373,-0.759,1.0
19.441,-0.336,-0.786,1.0
17.761,-0.307,-0.81,0.0
16.224,-0.28,-0.825,0.0
15.208,-0.262,-0.853,0.0
14.025,-0.241,-0.859,0.0
21.929,-0.375,-0.73,1.0
20.121,-0.343,-0.774,0.0
18.548,-0.316,-0.809,0.0
16.955,-0.288,-0.829,0.0
15.581,-0.264,-0.842,0.0
14.394,-0.244,-0.852,0.0
22.995,-0.386,-0.719,0.0
20.861,-0.35,-0.76,0.0
19.229,-0.322,-0.8,1.0
17.437,-0.291,-0.817,0.0
16.044,-0.267,-0.834,0.0
14.921,-0.248,-0.853,0.0
24.321,-0.401,-0.711,0.0
21.682,-0.356,-0.746,3.0
19.809,-0.325,-0.784,0.0
18.087,-0.296,-0.811,0.0
16.591,-0.27,-0.829,0.0
15.392,-0.25,-0.849,0.0
25.526,-0.411,-0.695,0.0
22.333,-0.359,-0.723,0.0
20.498,-0.328,-0.769,0.0
18.888,-0.302,-0.808,0.0
17.177,-0.273,-0.824,0.0
15.741,-0.25,-0.837,0.0
26.562,-0.418,-0.67,0.0
23.787,-0.373,-0.722,0.0
21.303,-0.333,-0.757,0.0
19.458,-0.303,-0.794,0.0
17.783,-0.276,-0.817,0.0
16.266,-0.251,-0.832,0.0
27.999,-0.428,-0.65,0.0
24.822,-0.378,-0.704,0.0
22.262,-0.338,-0.746,0.0
20.032,-0.302,-0.777,1.0
18.472,-0.278,-0.812,0.0
16.899,-0.253,-0.83,0.0
29.452,-0.436,-0.624,0.0
26.012,-0.384,-0.685,0.0
23.032,-0.338,-0.726,0.0
20.33,-0.297,-0.747,0.0
19.169,-0.278,-0.803,0.0
17.403,-0.251,-0.82,0.0
30.857,-0.441,-0.592,1.0
27.13,-0.386,-0.66,0.0
24.333,-0.344,-0.717,0.0
21.689,-0.305,-0.753,0.0
19.775,-0.276,-0.789,2.0
18.024,-0.25,-0.812,0.0
31.785,-0.437,-0.545,0.0
28.459,-0.389,-0.634,0.0
25.482,-0.346,-0.7,0.0
22.57,-0.304,-0.738,0.0
19.826,-0.265,-0.751,3.0
18.812,-0.25,-0.81,0.0
35.042,-0.461,-0.531,0.0
30.15,-0.394,-0.612,0.0
26.499,-0.344,-0.675,0.0
23.493,-0.302,-0.722,0.0
0.0,0.0,0.0,0.0
19.456,-0.247,-0.799,0.0
0.0,0.0,0.0,0.0
31.721,-0.395,-0.581,0.0
28.082,-0.346,-0.659,0.0
24.773,-0.303,-0.712,0.0
22.228,-0.27,-0.753,0.0
19.766,-0.238,-0.772,5.0
0.0,0.0,0.0,0.0
0.0,0.0,0.0,0.0
29.59,-0.345,-0.634,0.0
25.949,-0.299,-0.693,0.0
22.898,-0.262,-0.73,0.0
19.806,-0.224,-0.734,3.0
0.0,0.0,0.0,0.0
35.811,-0.396,-0.512,0.0
