X,Y,Z,Reflectivity
9.918,0.223,-0.897,0.0
9.429,0.211,-0.908,0.0
8.975,0.201,-0.917,0.0
8.567,0.191,-0.926,0.0
8.141,0.181,-0.927,0.0
10.342,0.227,-0.891,0.0
9.796,0.215,-0.901,0.0
9.216,0.201,-0.901,0.0
8.852,0.193,-0.918,0.0
8.46,0.184,-0.926,0.0
8.049,0.174,-0.929,0.0
10.196,0.218,-0.893,0.0
9.689,0.206,-0.904,0.0
9.145,0.194,-0.907,0.0
8.762,0.185,-0.921,0.0
8.386,0.177,-0.93,0.0
7.996,0.168,-0.934,0.0
10.08,0.208,-0.897,0.0
9.572,0.197,-0.907,0.0
9.083,0.186,-0.913,0.0
8.642,0.177,-0.92,0.0
8.277,0.169,-0.93,0.0
7.911,0.161,-0.935,0.0
9.995,0.2,-0.903,0.0
9.414,0.188,-0.905,0.0
8.959,0.178,-0.913,0.0
8.548,0.169,-0.922,0.0
8.152,0.16,-0.927,0.0
7.81,0.153,-0.933,0.0
9.851,0.19,-0.903,0.0
9.379,0.18,-0.914,0.0
8.893,0.17,-0.918,0.0
8.464,0.161,-0.924,0.0
8.108,0.154,-0.932,0.0
7.741,0.146,-0.935,0.0
9.725,0.18,-0.904,0.0
9.245,0.171,-0.913,0.0
8.784,0.161,-0.918,0.0
8.389,0.153,-0.927,0.0
7.997,0.145,-0.93,0.0
7.681,0.139,-0.938,0.0
9.614,0.171,-0.906,0.0
9.154,0.162,-0.915,0.0
8.685,0.153,-0.919,0.0
8.271,0.145,-0.924,0.0
7.935,0.138,-0.933,0.0
7.594,0.131,-0.937,0.0
9.495,0.161,-0.906,0.0
9.041,0.153,-0.915,0.0
8.604,0.144,-0.921,0.0
8.182,0.136,-0.924,0.0
7.86,0.13,-0.933,0.0
7.554,0.125,-0.941,0.0
9.464,0.153,-0.914,0.0
8.953,0.144,-0.917,0.0
8.559,0.137,-0.926,0.0
8.138,0.129,-0.928,0.0
7.791,0.123,-0.934,0.0
7.478,0.117,-0.94,0.0
9.326,0.143,-0.912,0.0
8.882,0.135,-0.919,0.0
8.427,0.127,-0.921,0.0
8.023,0.12,-0.924,0.0
7.718,0.115,-0.934,0.0
7.417,0.11,-0.941,0.0
9.222,0.133,-0.912,0.0
8.814,0.127,-0.922,0.0
8.394,0.12,-0.927,0.0
7.989,0.113,-0.929,0.0
7.667,0.107,-0.936,0.0
7.376,0.102,-0.944,0.0
9.163,0.124,-0.915,0.0
8.722,0.117,-0.922,0.0
8.317,0.111,-0.927,0.0
7.961,0.105,-0.934,0.0
7.608,0.1,-0.937,0.0
7.305,0.095,-0.942,0.0
9.042,0.115,-0.913,0.0
8.624,0.108,-0.92,0.0
8.243,0.102,-0.927,0.0
7.88,0.097,-0.933,0.0
7.559,0.092,-0.939,0.0
7.252,0.087,-0.943,0.0
8.968,0.105,-0.914,0.0
8.558,0.1,-0.922,0.0
8.158,0.094,-0.926,0.0
7.813,0.089,-0.933,0.0
7.496,0.084,-0.938,0.0
7.219,0.08,-0.946,0.0
8.898,0.096,-0.915,0.0
8.485,0.09,-0.922,0.0
8.092,0.085,-0.926,0.0
7.769,0.081,-0.935,0.0
7.458,0.076,-0.94,0.0
7.166,0.073,-0.945,0.0
8.849,0.087,-0.918,0.0
8.429,0.082,-0.923,0.0
8.034,0.077,-0.926,0.0
7.707,0.073,-0.934,0.0
7.419,0.069,-0.942,0.0
7.138,0.065,-0.948,0.0
8.789,0.078,-0.92,0.0
8.392,0.073,-0.926,0.0
7.984,0.068,-0.927,0.0
7.659,0.065,-0.935,0.0
7.39,0.061,-0.945,0.0
7.089,0.058,-0.947,0.0
8.744,0.069,-0.922,0.0
8.33,0.064,-0.926,0.0
7.963,0.06,-0.931,0.0
7.621,0.057,-0.936,0.0
7.335,0.053,-0.944,0.0
7.062,0.05,-0.949,0.0
8.678,0.059,-0.922,0.0
8.265,0.055,-0.926,0.0
7.903,0.052,-0.931,0.0
7.606,0.049,-0.94,0.0
7.26,0.045,-0.939,0.0
7.017,0.043,-0.949,0.0
8.629,0.05,-0.923,0.0
8.2,0.046,-0.924,0.0
7.862,0.043,-0.932,0.0
7.548,0.04,-0.939,0.0
7.247,0.038,-0.943,0.0
6.985,0.035,-0.949,0.0
8.566,0.041,-0.923,0.0
8.162,0.037,-0.926,0.0
7.839,0.035,-0.934,0.0
7.521,0.032,-0.94,0.0
7.223,0.03,-0.945,0.0
6.963,0.028,-0.951,0.0
8.523,0.031,-0.923,0.0
8.121,0.029,-0.926,0.0
7.821,0.026,-0.937,0.0
7.467,0.024,-0.938,0.0
7.206,0.022,-0.947,0.0
6.951,0.02,-0.954,0.0
8.462,0.022,-0.922,0.0
8.096,0.02,-0.928,0.0
7.793,0.018,-0.938,0.0
7.422,0.016,-0.937,0.0
7.182,0.014,-0.948,0.0
6.891,0.012,-0.95,0.0
8.438,0.013,-0.924,0.0
8.062,0.011,-0.929,0.0
7.741,0.009,-0.936,0.0
7.395,0.008,-0.938,0.0
7.132,0.006,-0.945,0.0
6.888,0.005,-0.953,0.0
8.415,0.004,-0.926,0.0
8.003,0.002,-0.926,0.0
7.699,0.001,-0.935,0.0
7.373,0.0,-0.939,0.0
7.14,-0.001,-0.95,0.0
6.85,-0.002,-0.951,0.0
8.371,-0.005,-0.925,0.0
7.981,-0.006,-0.927,0.0
7.683,-0.007,-0.937,0.0
7.328,-0.008,-0.936,0.0
7.103,-0.009,-0.948,0.0
6.843,-0.01,-0.953,0.0
8.346,-0.014,-0.926,0.0
7.973,-0.015,-0.93,0.0
7.644,-0.015,-0.935,0.0
7.355,-0.016,-0.943,0.0
7.104,-0.017,-0.951,0.0
6.836,-0.017,-0.955,0.0
8.312,-0.023,-0.925,0.0
7.959,-0.024,-0.931,0.0
7.639,-0.024,-0.937,0.0
7.309,-0.024,-0.94,0.0
7.07,-0.025,-0.949,0.0
6.798,-0.025,-0.952,0.0
8.288,-0.033,-0.925,0.0
7.955,-0.033,-0.934,0.0
7.615,-0.033,-0.937,0.0
7.317,-0.033,-0.943,0.0
7.056,-0.033,-0.95,0.0
6.794,-0.033,-0.953,0.0
8.27,-0.042,-0.926,0.0
7.92,-0.042,-0.932,0.0
7.603,-0.041,-0.938,0.0
7.254,-0.041,-0.937,0.0
7.044,-0.041,-0.95,0.0
6.769,-0.041,-0.952,0.0
8.26,-0.051,-0.927,0.0
7.919,-0.051,-0.934,0.0
7.597,-0.05,-0.939,0.0
7.253,-0.049,-0.938,0.0
7.016,-0.049,-0.948,0.0
6.776,-0.048,-0.954,0.0
8.249,-0.061,-0.927,0.0
7.907,-0.059,-0.934,0.0
7.594,-0.058,-0.94,0.0
7.239,-0.057,-0.938,0.0
7.024,-0.057,-0.95,0.0
6.785,-0.056,-0.956,0.0
8.245,-0.07,-0.928,0.0
7.907,-0.069,-0.935,0.0
7.597,-0.067,-0.941,0.0
7.265,-0.066,-0.942,0.0
7.046,-0.065,-0.954,0.0
6.747,-0.064,-0.952,0.0
8.246,-0.079,-0.929,0.0
7.869,-0.077,-0.931,0.0
7.589,-0.076,-0.941,0.0
7.278,-0.074,-0.944,0.0
7.048,-0.073,-0.955,0.0
6.735,-0.071,-0.951,0.0
8.244,-0.088,-0.929,0.0
7.853,-0.086,-0.93,0.0
7.575,-0.084,-0.939,0.0
7.263,-0.082,-0.943,0.0
7.018,-0.081,-0.951,0.0
6.766,-0.079,-0.955,0.0
8.24,-0.098,-0.929,0.0
7.916,-0.096,-0.937,0.0
7.596,-0.093,-0.942,0.0
7.277,-0.091,-0.944,0.0
7.004,-0.089,-0.949,0.0
6.791,-0.087,-0.958,0.0
8.247,-0.107,-0.93,0.0
7.9,-0.104,-0.935,0.0
7.562,-0.101,-0.937,0.0
7.256,-0.099,-0.941,0.0
7.033,-0.097,-0.952,0.0
6.766,-0.095,-0.954,0.0
8.236,-0.116,-0.928,0.0
7.89,-0.113,-0.933,0.0
7.583,-0.11,-0.939,0.0
7.267,-0.107,-0.942,0.0
7.0,-0.105,-0.947,0.0
6.753,-0.102,-0.952,0.0
8.247,-0.126,-0.928,0.0
7.907,-0.122,-0.934,0.0
7.597,-0.119,-0.94,0.0
7.244,-0.115,-0.938,0.0
7.0,-0.113,-0.946,0.0
6.775,-0.11,-0.954,0.0
8.262,-0.135,-0.928,0.0
7.916,-0.131,-0.934,0.0
7.596,-0.127,-0.939,0.0
7.296,-0.124,-0.943,0.0
7.046,-0.121,-0.951,0.0
6.794,-0.118,-0.955,0.0
8.277,-0.145,-0.928,0.0
7.913,-0.14,-0.931,0.0
7.617,-0.136,-0.939,0.0
7.281,-0.132,-0.939,0.0
7.067,-0.129,-0.952,0.0
6.787,-0.126,-0.952,0.0
8.293,-0.154,-0.928,0.0
7.966,-0.15,-0.936,0.0
7.661,-0.146,-0.943,0.0
7.313,-0.14,-0.941,0.0
7.112,-0.138,-0.956,0.0
6.829,-0.134,-0.956,0.0
8.3,-0.163,-0.926,0.0
7.983,-0.159,-0.935,0.0
7.652,-0.154,-0.939,0.0
7.315,-0.149,-0.939,0.0
7.124,-0.146,-0.955,0.0
6.837,-0.142,-0.955,0.0
8.336,-0.173,-0.927,0.0
8.005,-0.168,-0.935,0.0
7.671,-0.162,-0.938,0.0
7.344,-0.157,-0.94,0.0
7.118,-0.154,-0.951,0.0
6.865,-0.15,-0.956,0.0
8.36,-0.183,-0.926,0.0
8.051,-0.178,-0.937,0.0
7.717,-0.172,-0.941,0.0
7.405,-0.166,-0.945,0.0
7.137,-0.162,-0.951,0.0
6.871,-0.157,-0.954,0.0
8.426,-0.193,-0.93,0.0
8.04,-0.186,-0.932,0.0
7.729,-0.18,-0.939,0.0
7.42,-0.174,-0.943,0.0
7.178,-0.17,-0.953,0.0
6.944,-0.166,-0.961,0.0
8.456,-0.203,-0.929,0.0
8.076,-0.195,-0.932,0.0
7.767,-0.189,-0.939,0.0
7.444,-0.183,-0.942,0.0
7.164,-0.177,-0.947,0.0
6.918,-0.173,-0.953,0.0
8.488,-0.212,-0.928,0.0
8.113,-0.205,-0.932,0.0
7.789,-0.198,-0.938,0.0
7.441,-0.191,-0.938,0.0
7.223,-0.186,-0.951,0.0
6.955,-0.181,-0.954,0.0
8.535,-0.222,-0.928,0.0
8.148,-0.214,-0.931,0.0
7.824,-0.207,-0.937,0.0
7.523,-0.2,-0.944,0.0
7.237,-0.194,-0.948,0.0
6.967,-0.188,-0.952,0.0
8.591,-0.232,-0.929,0.0
8.174,-0.223,-0.929,0.0
7.858,-0.215,-0.936,0.0
7.524,-0.208,-0.939,0.0
7.273,-0.202,-0.948,0.0
6.995,-0.196,-0.951,0.0
8.626,-0.242,-0.927,0.0
8.216,-0.232,-0.928,0.0
7.913,-0.225,-0.938,0.0
7.623,-0.218,-0.946,0.0
7.268,-0.209,-0.942,0.0
7.012,-0.203,-0.948,0.0
8.636,-0.25,-0.922,0.0
8.293,-0.242,-0.931,0.0
7.967,-0.234,-0.938,0.0
7.632,-0.226,-0.942,0.0
7.3,-0.217,-0.941,0.0
7.07,-0.212,-0.951,0.0
8.688,-0.26,-0.921,0.0
8.343,-0.251,-0.93,0.0
7.998,-0.243,-0.936,0.0
7.659,-0.234,-0.939,0.0
7.413,-0.228,-0.95,0.0
7.144,-0.221,-0.955,0.0
8.793,-0.272,-0.925,0.0
8.397,-0.261,-0.93,0.0
8.031,-0.251,-0.933,0.0
7.72,-0.243,-0.94,0.0
7.421,-0.235,-0.945,0.0
7.105,-0.226,-0.944,0.0
8.849,-0.281,-0.924,0.0
8.408,-0.269,-0.924,0.0
8.116,-0.261,-0.936,0.0
7.766,-0.251,-0.939,0.0
7.434,-0.242,-0.94,0.0
7.195,-0.236,-0.949,0.0
8.921,-0.292,-0.924,0.0
8.477,-0.279,-0.924,0.0
8.174,-0.27,-0.936,0.0
7.79,-0.259,-0.935,0.0
7.511,-0.251,-0.943,0.0
7.227,-0.243,-0.947,0.0
9.009,-0.302,-0.925,0.0
8.513,-0.287,-0.92,0.0
8.236,-0.279,-0.935,0.0
7.88,-0.269,-0.938,0.0
7.568,-0.259,-0.943,0.0
7.306,-0.252,-0.95,0.0
9.082,-0.312,-0.924,0.0
8.625,-0.298,-0.924,0.0
8.285,-0.288,-0.933,0.0
7.956,-0.278,-0.94,0.0
7.652,-0.269,-0.946,0.0
7.328,-0.259,-0.946,0.0
9.14,-0.322,-0.92,0.0
8.72,-0.309,-0.925,0.0
8.366,-0.297,-0.933,0.0
7.97,-0.285,-0.933,0.0
7.688,-0.276,-0.942,0.0
7.385,-0.266,-0.946,0.0
9.247,-0.333,-0.922,0.0
8.838,-0.32,-0.929,0.0
8.41,-0.306,-0.929,0.0
8.065,-0.294,-0.936,0.0
7.747,-0.284,-0.941,0.0
7.462,-0.275,-0.948,0.0
9.318,-0.342,-0.919,0.0
8.893,-0.328,-0.925,0.0
8.487,-0.315,-0.929,0.0
8.138,-0.303,-0.936,0.0
7.836,-0.293,-0.944,0.0
7.514,-0.283,-0.946,0.0
9.424,-0.353,-0.919,0.0
8.966,-0.338,-0.923,0.0
8.555,-0.324,-0.927,0.0
8.194,-0.311,-0.933,0.0
7.902,-0.301,-0.943,0.0
7.583,-0.291,-0.946,0.0
9.528,-0.364,-0.918,0.0
9.109,-0.349,-0.927,0.0
8.671,-0.334,-0.929,0.0
8.294,-0.321,-0.935,0.0
7.95,-0.309,-0.939,0.0
7.672,-0.299,-0.948,0.0
9.644,-0.375,-0.918,0.0
9.197,-0.359,-0.925,0.0
8.764,-0.344,-0.929,0.0
8.347,-0.329,-0.931,0.0
8.01,-0.316,-0.936,0.0
7.719,-0.306,-0.944,0.0
9.752,-0.386,-0.917,0.0
9.286,-0.369,-0.923,0.0
8.844,-0.352,-0.927,0.0
8.436,-0.337,-0.93,0.0
8.11,-0.326,-0.938,0.0
7.795,-0.314,-0.944,0.0
9.869,-0.396,-0.916,0.0
9.39,-0.378,-0.922,0.0
8.912,-0.361,-0.923,0.0
8.54,-0.347,-0.931,0.0
8.202,-0.334,-0.938,0.0
7.835,-0.32,-0.939,0.0
9.974,-0.407,-0.913,0.0
9.502,-0.389,-0.92,0.0
9.083,-0.373,-0.929,0.0
8.653,-0.356,-0.932,0.0
8.299,-0.343,-0.939,0.0
7.943,-0.329,-0.941,0.0
10.085,-0.417,-0.91,0.0
9.619,-0.399,-0.919,0.0
9.192,-0.382,-0.928,0.0
8.763,-0.366,-0.932,0.0
8.342,-0.349,-0.932,0.0
8.02,-0.337,-0.94,0.0
10.247,-0.429,-0.911,0.0
9.722,-0.408,-0.916,0.0
9.286,-0.391,-0.925,0.0
8.824,-0.373,-0.927,0.0
8.463,-0.359,-0.934,0.0
8.107,-0.345,-0.939,0.0
10.379,-0.44,-0.908,0.0
9.856,-0.419,-0.915,0.0
9.378,-0.399,-0.921,0.0
8.917,-0.381,-0.924,0.0
8.572,-0.367,-0.934,0.0
8.214,-0.353,-0.939,0.0
10.48,-0.449,-0.903,0.0
10.011,-0.43,-0.916,0.0
9.513,-0.409,-0.921,0.0
9.086,-0.392,-0.929,0.0
8.668,-0.375,-0.932,0.0
8.31,-0.361,-0.939,0.0
10.675,-0.462,-0.904,0.0
10.091,-0.437,-0.908,0.0
9.649,-0.419,-0.92,0.0
9.198,-0.401,-0.927,0.0
8.76,-0.383,-0.93,0.0
8.345,-0.365,-0.93,0.0
10.776,-0.47,-0.897,0.0
10.289,-0.45,-0.911,0.0
9.755,-0.428,-0.916,0.0
9.329,-0.41,-0.927,0.0
8.871,-0.391,-0.928,0.0
8.521,-0.376,-0.937,0.0
10.969,-0.483,-0.897,0.0
10.407,-0.459,-0.906,0.0
9.919,-0.438,-0.917,0.0
9.436,-0.418,-0.923,0.0
8.999,-0.399,-0.928,0.0
8.627,-0.384,-0.936,0.0
11.14,-0.494,-0.894,0.0
10.577,-0.47,-0.905,0.0
10.024,-0.446,-0.911,0.0
9.563,-0.426,-0.921,0.0
9.149,-0.409,-0.93,0.0
8.721,-0.39,-0.933,0.0
11.337,-0.506,-0.893,0.0
10.758,-0.481,-0.904,0.0
10.176,-0.456,-0.909,0.0
9.724,-0.436,-0.921,0.0
9.261,-0.416,-0.927,0.0
8.835,-0.398,-0.931,0.0
11.525,-0.517,-0.89,0.0
10.931,-0.491,-0.902,0.0
10.358,-0.466,-0.909,0.0
9.866,-0.445,-0.919,0.0
9.396,-0.424,-0.925,0.0
8.949,-0.405,-0.929,0.0
11.719,-0.528,-0.886,0.0
11.084,-0.5,-0.897,0.0
10.55,-0.477,-0.909,0.0
9.99,-0.452,-0.915,0.0
9.543,-0.433,-0.925,0.0
9.098,-0.413,-0.93,0.0
11.975,-0.542,-0.887,0.0
11.352,-0.514,-0.901,0.0
10.708,-0.486,-0.906,0.0
10.146,-0.461,-0.913,0.0
9.689,-0.441,-0.923,0.0
9.258,-0.422,-0.931,0.0
12.165,-0.552,-0.881,0.0
11.45,-0.52,-0.89,0.0
10.834,-0.493,-0.899,0.0
10.329,-0.47,-0.913,0.0
9.829,-0.448,-0.92,0.0
9.364,-0.428,-0.926,0.0
12.366,-0.562,-0.876,0.0
11.717,-0.533,-0.891,0.0
11.005,-0.501,-0.895,0.0
10.491,-0.479,-0.91,0.0
9.978,-0.456,-0.918,0.0
9.518,-0.435,-0.926,0.0
12.576,-0.573,-0.87,0.0
11.967,-0.545,-0.891,0.0
11.279,-0.514,-0.899,0.0
10.638,-0.486,-0.905,0.0
10.123,-0.463,-0.914,0.0
9.661,-0.442,-0.923,0.0
12.904,-0.588,-0.871,0.0
12.18,-0.555,-0.886,0.0
11.467,-0.523,-0.894,0.0
10.811,-0.494,-0.901,0.0
10.309,-0.471,-0.913,0.0
9.793,-0.448,-0.919,0.0
13.068,-0.595,-0.86,0.0
12.375,-0.564,-0.879,0.0
11.645,-0.531,-0.888,0.0
11.04,-0.504,-0.901,0.0
10.455,-0.477,-0.908,0.0
9.987,-0.456,-0.92,0.0
13.415,-0.61,-0.86,0.0
12.612,-0.574,-0.874,0.0
11.935,-0.543,-0.89,0.0
11.235,-0.512,-0.898,0.0
10.672,-0.486,-0.909,0.0
10.117,-0.461,-0.915,0.0
13.714,-0.623,-0.856,0.0
12.867,-0.584,-0.87,0.0
12.132,-0.551,-0.884,0.0
11.418,-0.519,-0.893,0.0
10.867,-0.494,-0.907,0.0
10.329,-0.469,-0.916,0.0
14.053,-0.636,-0.853,0.0
13.127,-0.594,-0.865,0.0
12.384,-0.561,-0.881,0.0
11.683,-0.529,-0.894,0.0
11.015,-0.499,-0.9,0.0
10.468,-0.474,-0.91,0.0
14.502,-0.654,-0.855,0.0
13.459,-0.607,-0.864,0.0
12.598,-0.568,-0.874,0.0
11.909,-0.537,-0.89,0.0
11.228,-0.506,-0.898,0.0
10.661,-0.48,-0.908,0.0
14.905,-0.669,-0.852,0.0
13.723,-0.615,-0.856,0.0
12.875,-0.577,-0.871,0.0
12.177,-0.546,-0.888,0.0
11.442,-0.513,-0.894,0.0
10.913,-0.489,-0.91,0.0
15.198,-0.678,-0.842,0.0
14.171,-0.632,-0.859,0.0
13.136,-0.585,-0.865,0.0
12.37,-0.551,-0.88,0.0
11.691,-0.52,-0.893,0.0
11.038,-0.491,-0.901,0.0
15.787,-0.699,-0.847,0.0
14.509,-0.642,-0.854,0.0
13.478,-0.596,-0.864,0.0
12.603,-0.557,-0.874,0.0
11.973,-0.529,-0.893,0.0
11.266,-0.497,-0.9,0.0
16.117,-0.709,-0.836,0.0
14.966,-0.657,-0.854,0.0
13.754,-0.604,-0.857,0.0
12.921,-0.567,-0.873,0.0
12.162,-0.533,-0.886,0.0
11.499,-0.503,-0.897,0.0
16.596,-0.723,-0.831,0.0
15.326,-0.667,-0.847,0.0
14.193,-0.617,-0.858,0.0
13.134,-0.571,-0.864,0.0
12.398,-0.538,-0.88,0.0
11.743,-0.509,-0.895,0.0
17.164,-0.741,-0.829,0.0
15.765,-0.68,-0.843,0.0
14.566,-0.627,-0.855,0.0
13.481,-0.58,-0.863,0.0
12.663,-0.544,-0.876,0.0
12.015,-0.515,-0.894,0.0
17.483,-0.747,-0.813,0.0
16.259,-0.693,-0.84,0.0
15.013,-0.639,-0.854,0.0
13.855,-0.589,-0.862,0.0
13.013,-0.552,-0.877,0.0
12.216,-0.518,-0.887,0.0
18.121,-0.765,-0.81,0.0
16.676,-0.703,-0.832,0.0
15.327,-0.645,-0.844,0.0
14.296,-0.6,-0.863,0.0
13.17,-0.552,-0.864,0.0
12.462,-0.522,-0.882,0.0
18.741,-0.781,-0.804,0.0
17.199,-0.715,-0.827,0.0
15.86,-0.658,-0.845,0.0
14.646,-0.607,-0.858,0.0
13.611,-0.563,-0.868,0.0
12.671,-0.523,-0.874,0.0
19.325,-0.794,-0.794,0.0
17.718,-0.726,-0.82,0.0
16.309,-0.667,-0.839,0.0
15.033,-0.613,-0.853,0.0
13.935,-0.568,-0.863,0.0
13.009,-0.529,-0.874,0.0
19.949,-0.807,-0.783,0.0
18.21,-0.735,-0.809,0.0
16.762,-0.675,-0.832,0.0
15.466,-0.621,-0.849,0.0
14.335,-0.574,-0.862,0.0
13.334,-0.533,-0.871,0.0
20.554,-0.818,-0.77,0.0
18.838,-0.748,-0.803,0.0
17.368,-0.687,-0.831,0.0
15.963,-0.63,-0.848,0.0
14.682,-0.578,-0.856,0.0
13.639,-0.536,-0.866,0.0
21.341,-0.834,-0.761,0.0
19.458,-0.758,-0.794,0.0
17.731,-0.689,-0.816,0.0
16.308,-0.632,-0.837,0.0
15.079,-0.583,-0.852,0.0
14.007,-0.54,-0.864,0.0
21.991,-0.843,-0.744,0.0
20.034,-0.766,-0.782,0.0
18.356,-0.699,-0.811,0.0
16.868,-0.641,-0.835,0.0
15.497,-0.587,-0.848,0.0
14.421,-0.544,-0.864,0.0
22.806,-0.856,-0.73,0.0
20.626,-0.772,-0.767,0.0
19.031,-0.71,-0.807,0.0
17.264,-0.642,-0.823,0.0
15.974,-0.592,-0.845,0.0
14.751,-0.545,-0.857,0.0
23.619,-0.868,-0.714,0.0
21.455,-0.785,-0.76,0.0
19.476,-0.71,-0.791,0.0
17.828,-0.648,-0.818,0.0
16.353,-0.592,-0.836,0.0
15.06,-0.543,-0.848,0.0
24.704,-0.886,-0.703,0.0
22.209,-0.794,-0.747,0.0
20.111,-0.716,-0.781,0.0
18.376,-0.651,-0.811,0.0
16.743,-0.591,-0.826,0.0
15.603,-0.549,-0.851,0.0
25.526,-0.893,-0.681,0.0
22.711,-0.791,-0.723,0.0
20.781,-0.721,-0.77,0.0
19.078,-0.659,-0.808,0.0
17.493,-0.601,-0.832,0.0
16.019,-0.548,-0.845,0.0
0.0,0.0,0.0,0.0
24.062,-0.815,-0.724,0.0
21.373,-0.721,-0.754,0.0
19.586,-0.657,-0.795,0.0
17.765,-0.593,-0.813,1.0
16.432,-0.546,-0.837,0.0
28.261,-0.934,-0.654,0.0
25.159,-0.828,-0.712,0.0
22.357,-0.732,-0.749,0.0
17.794,-0.579,-0.69,3.0
17.865,-0.579,-0.786,2.0
17.151,-0.553,-0.844,0.0
29.08,-0.932,-0.622,0.0
25.725,-0.82,-0.683,0.0
23.068,-0.731,-0.732,0.0
17.809,-0.561,-0.66,151.0
17.809,-0.558,-0.752,2.0
17.625,-0.55,-0.836,1.0
0.0,0.0,0.0,0.0
27.144,-0.837,-0.674,0.0
17.835,-0.546,-0.535,0.0
17.801,-0.542,-0.628,152.0
17.795,-0.539,-0.721,150.0
17.767,-0.535,-0.812,2.0
31.722,-0.949,-0.568,0.0
27.806,-0.827,-0.642,0.0
0.0,0.0,0.0,0.0
17.801,-0.522,-0.598,30.0
17.765,-0.518,-0.689,159.0
17.784,-0.515,-0.782,8.0
33.323,-0.959,-0.539,0.0
29.575,-0.845,-0.632,0.0
26.061,-0.74,-0.692,0.0
17.803,-0.502,-0.567,6.0
17.758,-0.497,-0.658,157.0
17.772,-0.494,-0.751,13.0
35.347,-0.976,-0.511,0.0
31.267,-0.857,-0.615,0.0
27.059,-0.737,-0.673,0.0
23.738,-0.641,-0.716,0.0
17.806,-0.478,-0.63,150.0
17.794,-0.474,-0.722,22.0
0.0,0.0,0.0,0.0
31.902,-0.836,-0.574,0.0
28.01,-0.729,-0.649,0.0
24.833,-0.641,-0.707,0.0
22.016,-0.564,-0.742,0.0
17.807,-0.452,-0.693,2.0
0.0,0.0,0.0,0.0
33.572,-0.839,-0.547,0.0
29.299,-0.725,-0.63,0.0
21.656,-0.531,-0.58,0.0
21.888,-0.532,-0.701,0.0
20.737,-0.5,-0.772,0.0
0.0,0.0,0.0,0.0
35.373,-0.838,-0.517,0.0
29.962,-0.703,-0.594,0.0
21.715,-0.505,-0.546,5.0
21.733,-0.501,-0.66,30.0
21.593,-0.493,-0.768,4.0
0.0,0.0,0.0,0.0
37.168,-0.832,-0.483,0.0
31.893,-0.707,-0.581,0.0
21.754,-0.477,-0.512,4.0
21.666,-0.47,-0.622,158.0
21.692,-0.466,-0.737,9.0
0.0,0.0,0.0,0.0
0.0,0.0,0.0,0.0
33.257,-0.692,-0.552,0.0
21.729,-0.447,-0.476,2.0
21.684,-0.441,-0.588,157.0
21.719,-0.437,-0.703,6.0
0.0,0.0,0.0,0.0
0.0,0.0,0.0,0.0
34.932,-0.679,-0.523,0.0
30.382,-0.583,-0.616,0.0
21.736,-0.412,-0.554,2.0
21.731,-0.407,-0.668,2.0
0.0,0.0,0.0,0.0
0.0,0.0,0.0,0.0
0.0,0.0,0.0,0.0
31.758,-0.564,-0.595,0.0
27.735,-0.486,-0.664,0.0
24.453,-0.423,-0.714,0.0
0.0,0.0,0.0,0.0
0.0,0.0,0.0,0.0
0.0,0.0,0.0,0.0
0.0,0.0,0.0,0.0
27.902,-0.448,-0.625,0.0
25.399,-0.402,-0.702,0.0
0.0,0.0,0.0,0.0
0.0,0.0,0.0,0.0
0.0,0.0,0.0,0.0
34.691,-0.515,-0.543,0.0
29.653,-0.433,-0.619,0.0
26.287,-0.377,-0.686,0.0
19.75,-0.278,0.033,0.0
0.0,0.0,0.0,0.0
0.0,0.0,0.0,0.0
36.376,-0.485,-0.514,0.0
30.551,-0.4,-0.592,0.0
26.997,-0.346,-0.665,0.0
19.757,-0.248,0.062,0.0
0.0,0.0,0.0,0.0
0.0,0.0,0.0,0.0
0.0,0.0,0.0,0.0
31.844,-0.367,-0.57,0.0
28.362,-0.319,-0.656,0.0
0.0,0.0,0.0,0.0
0.0,0.0,0.0,0.0
50.856,-0.533,-0.297,0.0
19.823,-0.203,-0.222,0.0
19.807,-0.197,-0.325,1.0
19.757,-0.191,-0.428,7.0
160.725,-1.519,0.979,13.0
0.0,0.0,0.0,0.0
19.777,-0.176,-0.087,4.0
19.756,-0.17,-0.193,12.0
19.744,-0.165,-0.296,13.0
19.743,-0.16,-0.4,17.0
160.714,-1.26,1.208,16.0
19.689,-0.149,0.044,0.0
19.775,-0.144,-0.059,8.0
19.719,-0.138,-0.165,16.0
19.731,-0.133,-0.269,17.0
19.752,-0.128,-0.373,18.0
19.744,-0.122,0.175,10.0
19.736,-0.117,0.071,9.0
19.719,-0.111,-0.032,12.0
19.709,-0.106,-0.137,16.0
19.736,-0.1,-0.241,16.0
19.75,-0.095,-0.346,15.0
19.715,-0.089,0.202,17.0
19.71,-0.084,0.098,14.0
19.699,-0.078,-0.005,15.0
19.7,-0.072,-0.111,15.0
19.726,-0.067,-0.215,15.0
19.762,-0.061,-0.319,14.0
19.66,-0.056,0.228,14.0
19.695,-0.05,0.124,18.0
19.7,-0.045,0.02,16.0
19.726,-0.039,-0.085,10.0
19.743,-0.033,-0.189,12.0
19.667,-0.028,-0.292,0.0
19.631,-0.022,0.253,13.0
19.735,-0.016,0.151,4.0
19.725,-0.011,0.046,8.0
19.736,-0.005,-0.059,9.0
19.717,0.0,-0.163,0.0
19.807,0.005,-0.269,0.0
19.632,0.011,0.279,14.0
19.682,0.017,0.175,8.0
19.746,0.022,0.071,11.0
19.743,0.028,-0.034,31.0
19.762,0.034,-0.139,10.0
19.756,0.039,-0.244,17.0
19.624,0.045,0.303,14.0
19.626,0.051,0.199,14.0
19.74,0.057,0.095,22.0
19.755,0.063,-0.01,64.0
19.76,0.069,-0.115,38.0
19.772,0.074,-0.22,22.0
19.615,0.08,0.326,18.0
19.622,0.086,0.223,15.0
19.665,0.091,0.119,11.0
19.657,0.097,0.012,10.0
19.7,0.103,-0.091,2.0
0.0,0.0,0.0,0.0
19.615,0.115,0.35,14.0
19.622,0.121,0.246,10.0
19.647,0.127,0.141,15.0
19.634,0.132,0.035,15.0
19.642,0.138,-0.068,11.0
19.667,0.144,-0.173,12.0
19.622,0.15,0.372,11.0
19.634,0.156,0.268,10.0
19.647,0.162,0.164,12.0
19.65,0.168,0.057,12.0
19.64,0.174,-0.046,14.0
19.643,0.18,-0.15,16.0
19.684,0.187,0.396,10.0
19.709,0.193,0.291,8.0
19.724,0.199,0.187,14.0
19.693,0.205,0.079,10.0
19.652,0.211,-0.024,12.0
19.64,0.216,-0.129,17.0
19.713,0.224,0.418,12.0
19.718,0.23,0.313,11.0
19.756,0.236,0.208,26.0
19.753,0.242,0.101,16.0
19.691,0.247,-0.004,1.0
19.662,0.253,-0.109,15.0
19.694,0.26,0.438,12.0
19.703,0.267,0.333,14.0
19.738,0.273,0.228,13.0
19.795,0.28,0.121,1.0
61.682,0.892,0.05,0.0
46.627,0.688,-0.211,2.0
19.711,0.297,0.459,10.0
19.722,0.304,0.353,3.0
163.407,2.572,2.059,19.0
55.179,0.885,0.394,2.0
55.193,0.902,0.099,24.0
52.442,0.873,-0.185,2.0
55.177,0.939,1.339,67.0
55.165,0.956,1.044,80.0
55.165,0.973,0.748,72.0
55.161,0.99,0.447,73.0
55.17,1.007,0.152,55.0
55.031,1.021,-0.142,1.0
55.197,1.045,1.392,5.0
179.361,3.448,3.562,29.0
163.08,3.187,2.365,23.0
162.773,3.232,1.472,13.0
86.423,1.742,0.317,1.0
54.888,1.123,-0.092,1.0
163.506,3.409,4.274,6.0
179.27,3.792,3.723,38.0
128.932,2.767,1.985,9.0
128.692,2.801,1.278,6.0
79.388,1.751,0.361,6.0
56.259,1.259,-0.045,0.0
98.572,2.245,2.663,57.0
98.619,2.275,2.133,92.0
128.854,3.012,2.094,10.0
71.004,1.682,0.765,21.0
70.964,1.703,0.383,10.0
0.0,0.0,0.0,0.0
115.524,2.856,3.218,17.0
138.765,3.473,3.118,10.0
45.504,1.153,0.777,4.0
0.0,0.0,0.0,0.0
0.0,0.0,0.0,0.0
0.0,0.0,0.0,0.0
0.0,0.0,0.0,0.0
0.0,0.0,0.0,0.0
41.934,1.145,0.75,150.0
0.0,0.0,0.0,0.0
0.0,0.0,0.0,0.0
41.924,1.184,0.067,41.0
40.13,1.149,1.181,133.0
40.134,1.162,0.964,150.0
40.119,1.174,0.747,150.0
40.112,1.187,0.527,150.0
40.134,1.2,0.31,112.0
40.123,1.212,0.094,150.0
40.124,1.229,1.21,150.0
40.116,1.241,0.993,150.0
40.121,1.254,0.776,150.0
40.117,1.266,0.555,150.0
40.124,1.278,0.338,124.0
40.122,1.291,0.121,150.0
40.123,1.308,1.238,117.0
40.118,1.32,1.02,25.0
40.129,1.333,0.803,2.0
70.843,2.376,1.028,6.0
71.147,2.409,0.648,19.0
63.963,2.185,0.236,16.0
121.003,4.188,3.813,16.0
163.403,5.705,4.264,11.0
162.286,5.714,3.354,31.0
162.185,5.76,2.456,43.0
45.062,1.614,0.438,50.0
45.049,1.628,0.194,150.0
162.633,5.949,5.225,9.0
0.0,0.0,0.0,0.0
43.114,1.603,0.917,64.0
42.353,1.588,0.666,126.0
41.883,1.583,0.431,90.0
41.912,1.598,0.204,109.0
162.611,6.274,5.319,16.0
40.382,1.569,1.101,143.0
40.382,1.582,0.881,105.0
40.385,1.594,0.658,150.0
40.382,1.607,0.438,150.0
40.392,1.619,0.219,103.0
162.594,6.594,5.405,12.0
45.19,1.846,1.256,13.0
100.485,4.135,2.246,8.0
162.238,6.728,2.727,14.0
23.629,0.987,0.268,1.0
23.632,0.994,0.139,23.0
23.628,1.005,0.797,37.0
23.616,1.012,0.668,41.0
23.606,1.018,0.539,44.0
23.608,1.026,0.408,43.0
23.61,1.033,0.279,50.0
23.594,1.039,0.15,68.0
23.591,1.05,0.806,87.0
23.595,1.057,0.678,151.0
23.584,1.064,0.548,81.0
23.582,1.071,0.417,73.0
23.596,1.079,0.289,69.0
23.599,1.086,0.16,64.0
23.59,1.097,0.816,62.0
23.593,1.104,0.687,47.0
23.594,1.112,0.558,39.0
23.606,1.119,0.427,40.0
23.62,1.127,0.298,39.0
23.637,1.135,0.169,35.0
23.625,1.145,0.826,3.0
23.586,1.15,0.696,0.0
23.592,1.158,0.567,0.0
45.167,2.23,0.834,0.0
45.168,2.243,0.587,1.0
45.195,2.258,0.339,2.0
180.109,9.09,6.365,5.0
163.433,8.297,4.879,22.0
45.164,2.306,1.101,0.0
0.0,0.0,0.0,0.0
99.776,5.153,1.328,11.0
99.807,5.185,0.781,9.0
180.61,9.472,6.437,15.0
163.473,8.621,4.929,16.0
45.199,2.396,1.114,75.0
45.202,2.41,0.861,53.0
45.218,2.424,0.614,6.0
67.024,3.613,0.542,4.0
180.565,9.828,6.484,18.0
163.485,8.946,4.972,16.0
200.461,11.025,4.993,6.0
45.187,2.498,0.872,1.0
45.224,2.513,0.624,7.0
45.219,2.526,0.376,50.0
198.704,11.205,7.18,18.0
163.444,9.262,5.006,15.0
0.0,0.0,0.0,0.0
167.922,9.611,3.277,12.0
99.799,5.74,1.399,11.0
99.49,5.752,0.846,9.0
197.765,11.538,7.182,14.0
163.436,9.582,5.034,16.0
45.219,2.663,1.143,144.0
111.993,6.627,2.204,41.0
45.215,2.688,0.64,4.0
112.14,6.7,0.97,14.0
197.6,11.91,7.205,17.0
163.489,9.9,5.059,16.0
163.468,9.943,4.155,7.0
132.929,8.124,2.632,22.0
99.726,6.123,1.424,11.0
45.192,2.787,0.396,14.0
112.358,6.991,4.108,2.0
112.405,7.024,3.489,5.0
112.391,7.053,2.868,7.0
112.426,7.087,2.236,49.0
99.832,6.322,1.434,12.0
111.975,7.123,0.99,6.0
100.002,6.416,3.664,26.0
99.992,6.441,3.11,33.0
45.224,2.925,1.156,114.0
45.218,2.937,0.901,114.0
45.213,2.949,0.651,109.0
45.222,2.963,0.401,120.0
99.973,6.604,3.666,36.0
99.984,6.632,3.112,37.0
44.298,2.95,1.133,76.0
44.107,2.949,0.879,85.0
43.765,2.938,0.63,77.0
43.837,2.956,0.389,10.0
99.953,6.794,3.664,38.0
99.974,6.821,3.11,39.0
43.022,2.947,1.099,77.0
40.986,2.819,0.816,41.0
42.189,2.912,0.606,17.0
42.366,2.936,0.374,81.0
99.975,6.985,3.66,34.0
99.979,7.011,3.105,31.0
41.694,2.934,1.063,75.0
41.092,2.903,0.815,85.0
41.381,2.934,0.591,82.0
41.296,2.94,0.361,100.0
45.469,3.262,1.661,150.0
45.467,3.273,1.408,140.0
40.388,2.918,1.026,107.0
40.354,2.926,0.796,79.0
40.367,2.937,0.572,73.0
40.382,2.949,0.348,70.0
0.0,0.0,0.0,0.0
43.696,3.226,1.347,8.0
43.674,3.236,1.103,62.0
43.69,3.249,0.856,149.0
43.701,3.261,0.613,141.0
43.702,3.272,0.37,136.0
43.684,3.295,1.583,150.0
43.695,3.307,1.34,150.0
43.701,3.319,1.096,137.0
43.693,3.329,0.848,132.0
43.698,3.341,0.605,123.0
43.711,3.353,0.362,112.0
41.899,3.237,1.51,110.0
41.895,3.247,1.276,112.0
41.897,3.258,1.042,117.0
41.901,3.269,0.804,118.0
41.913,3.28,0.571,122.0
41.909,3.29,0.337,115.0
41.893,3.312,1.5,139.0
41.908,3.323,1.266,122.0
41.904,3.333,1.032,115.0
41.903,3.343,0.794,110.0
0.0,0.0,0.0,0.0
0.0,0.0,0.0,0.0
40.097,3.24,1.425,125.0
40.096,3.25,1.2,134.0
40.085,3.258,0.976,150.0
40.096,3.269,0.748,150.0
40.097,3.279,0.524,142.0
40.107,3.29,0.3,130.0
40.104,3.311,1.413,141.0
40.098,3.32,1.188,130.0
40.1,3.329,0.964,137.0
40.103,3.339,0.735,108.0
40.109,3.349,0.511,108.0
40.103,3.358,0.287,100.0
40.095,3.379,1.399,126.0
40.095,3.389,1.174,150.0
40.099,3.398,0.949,110.0
40.105,3.408,0.721,104.0
40.112,3.418,0.496,101.0
40.093,3.426,0.272,45.0
87.097,7.491,3.007,45.0
74.871,6.457,2.165,9.0
74.763,6.463,1.742,9.0
74.659,6.472,1.313,10.0
74.531,6.478,0.893,9.0
74.318,6.478,0.474,1.0
73.499,6.447,2.507,2.0
73.438,6.457,2.092,9.0
73.367,6.467,1.678,10.0
73.279,6.475,1.258,9.0
73.181,6.483,0.844,9.0
54.808,4.868,0.325,2.0
72.262,6.459,2.432,5.0
72.204,6.469,2.024,8.0
72.112,6.477,1.616,9.0
71.989,6.482,1.202,10.0
71.891,6.488,0.796,9.0
52.546,4.754,0.286,1.0
71.001,6.463,2.356,9.0
70.91,6.469,1.953,10.0
70.865,6.479,1.553,11.0
70.77,6.486,1.146,12.0
70.664,6.492,0.747,11.0
55.44,5.105,0.274,1.0
69.8,6.466,2.28,8.0
69.75,6.475,1.886,11.0
69.65,6.48,1.49,9.0
69.577,6.488,1.09,9.0
69.437,6.49,0.696,8.0
49.376,4.625,0.217,0.0
68.657,6.467,2.205,8.0
68.61,6.477,1.817,7.0
68.534,6.483,1.428,7.0
68.421,6.486,1.034,8.0
68.332,6.492,0.647,10.0
53.475,5.091,0.205,3.0
67.546,6.466,2.131,8.0
67.475,6.473,1.748,8.0
67.431,6.482,1.366,9.0
67.373,6.49,0.978,9.0
67.252,6.492,0.596,4.0
47.827,4.627,0.155,7.0
66.493,6.467,2.057,9.0
66.461,6.476,1.681,9.0
66.41,6.484,1.304,9.0
66.343,6.491,0.922,10.0
66.279,6.498,0.547,9.0
47.879,4.703,0.124,22.0
65.531,6.471,1.986,9.0
65.504,6.48,1.614,9.0
65.455,6.487,1.243,10.0
65.408,6.495,0.866,9.0
65.268,6.494,0.496,3.0
47.044,4.69,0.091,21.0
64.661,6.479,1.916,9.0
64.609,6.485,1.549,8.0
64.487,6.485,1.181,8.0
64.392,6.487,0.809,9.0
64.365,6.496,0.444,3.0
46.521,4.704,0.058,21.0
63.771,6.481,1.845,7.0
63.734,6.488,1.483,9.0
63.668,6.492,1.121,11.0
63.617,6.498,0.754,8.0
63.625,6.51,0.394,3.0
45.894,4.705,0.024,20.0
62.967,6.486,1.776,12.0
62.967,6.497,1.42,10.0
62.9,6.5,1.061,12.0
62.875,6.509,0.698,14.0
62.772,6.509,0.342,2.0
45.368,4.713,-0.009,21.0
62.167,6.488,1.707,10.0
62.14,6.495,1.354,11.0
62.116,6.502,1.001,13.0
62.12,6.513,0.643,12.0
62.06,6.518,0.29,1.0
42.118,4.431,-0.041,18.0
61.385,6.487,1.637,12.0
61.359,6.494,1.288,10.0
61.354,6.503,0.94,10.0
61.335,6.511,0.586,13.0
47.913,5.094,0.186,0.0
41.92,4.464,-0.074,25.0
60.672,6.49,1.57,7.0
60.684,6.5,1.225,6.0
60.585,6.498,0.879,4.0
60.569,6.506,0.529,3.0
0.0,0.0,0.0,0.0
39.984,4.309,-0.104,15.0
59.984,6.49,1.502,8.0
59.946,6.495,1.161,5.0
59.92,6.501,0.819,5.0
59.876,6.505,0.473,2.0
46.695,5.08,0.104,20.0
0.0,0.0,0.0,0.0
59.374,6.495,1.437,5.0
59.302,6.496,1.097,6.0
59.267,6.501,0.759,6.0
59.269,6.51,0.416,2.0
46.117,5.072,0.062,20.0
38.175,4.204,-0.165,14.0
58.791,6.5,1.37,9.0
58.74,6.502,1.035,7.0
58.732,6.509,0.701,8.0
58.699,6.514,0.361,2.0
0.0,0.0,0.0,0.0
37.352,4.157,-0.195,13.0
58.202,6.501,1.304,10.0
58.207,6.509,0.973,12.0
58.188,6.515,0.641,9.0
58.14,6.517,0.304,2.0
42.937,4.819,-0.019,16.0
36.88,4.145,-0.226,13.0
57.674,6.505,1.24,10.0
57.651,6.509,0.91,8.0
57.644,6.516,0.582,8.0
51.374,5.814,0.221,8.0
37.214,4.217,-0.051,3.0
36.305,4.119,-0.257,11.0
57.193,6.511,1.175,8.0
57.17,6.515,0.849,8.0
57.143,6.519,0.523,6.0
51.384,5.868,0.172,16.0
37.191,4.252,-0.087,28.0
35.484,4.062,-0.285,10.0
56.674,6.509,1.11,13.0
56.673,6.515,0.786,12.0
56.649,6.519,0.463,9.0
46.518,5.359,0.11,14.0
38.382,4.427,-0.127,14.0
34.259,3.956,-0.309,8.0
56.201,6.509,1.045,13.0
56.225,6.518,0.724,13.0
56.179,6.52,0.403,11.0
45.614,5.298,0.063,21.0
0.0,0.0,0.0,0.0
33.006,3.842,-0.33,10.0
55.791,6.513,0.981,12.0
55.798,6.52,0.663,13.0
55.776,6.523,0.345,6.0
44.679,5.23,0.016,19.0
35.631,4.175,-0.19,12.0
31.793,3.729,-0.35,9.0
55.361,6.512,0.918,13.0
55.368,6.518,0.601,12.0
55.339,6.521,0.285,3.0
0.0,0.0,0.0,0.0
35.129,4.147,-0.223,19.0
30.76,3.635,-0.371,9.0
54.94,6.509,0.854,13.0
54.965,6.517,0.54,14.0
55.0,6.526,0.226,1.0
38.643,4.589,-0.065,6.0
34.505,4.101,-0.255,17.0
18.111,2.155,-0.237,10.0
54.596,6.511,0.791,13.0
54.619,6.519,0.479,13.0
51.338,6.132,0.157,4.0
38.288,4.577,-0.105,14.0
34.071,4.076,-0.288,11.0
18.129,2.171,-0.257,16.0
54.27,6.513,0.729,12.0
54.257,6.516,0.418,10.0
45.945,5.522,0.091,20.0
37.217,4.476,-0.142,14.0
18.087,2.177,-0.172,9.0
18.119,2.183,-0.276,10.0
53.967,6.515,0.667,11.0
53.977,6.52,0.358,5.0
45.227,5.467,0.041,19.0
35.871,4.339,-0.175,12.0
18.079,2.188,-0.192,15.0
26.239,3.179,-0.428,6.0
53.702,6.519,0.606,12.0
53.66,6.517,0.298,6.0
40.399,4.91,-0.006,14.0
18.057,2.196,-0.108,8.0
18.092,2.202,-0.211,13.0
25.668,3.126,-0.447,4.0
53.426,6.518,0.543,12.0
53.42,6.521,0.238,2.0
40.047,4.891,-0.05,4.0
18.044,2.205,-0.127,16.0
29.312,3.585,-0.375,3.0
17.333,2.121,-0.321,13.0
53.193,6.52,0.483,11.0
46.599,5.715,0.156,6.0
18.049,2.214,-0.042,5.0
18.048,2.216,-0.147,14.0
28.656,3.52,-0.398,7.0
17.181,2.112,-0.337,16.0
52.973,6.521,0.421,11.0
42.832,5.275,0.095,4.0
18.041,2.223,-0.062,14.0
0.0,0.0,0.0,0.0
27.417,3.382,-0.412,7.0
17.081,2.108,-0.354,17.0
52.782,6.523,0.361,10.0
18.02,2.228,0.02,2.0
18.041,2.231,-0.083,15.0
16.545,2.047,-0.172,5.0
26.478,3.278,-0.428,6.0
16.959,2.101,-0.371,17.0
52.577,6.521,0.3,6.0
18.019,2.235,0.0,8.0
18.043,2.239,-0.103,10.0
30.598,3.799,-0.354,9.0
17.533,2.178,-0.303,8.0
16.784,2.086,-0.386,16.0
42.856,5.332,0.195,5.0
18.031,2.244,-0.021,15.0
33.201,4.134,-0.228,6.0
29.721,3.702,-0.378,8.0
17.251,2.149,-0.318,14.0
16.628,2.073,-0.402,16.0
18.007,2.246,0.061,5.0
18.028,2.25,-0.041,15.0
33.034,4.124,-0.265,10.0
28.636,3.576,-0.397,8.0
17.126,2.139,-0.335,16.0
16.541,2.067,-0.419,16.0
18.006,2.252,0.041,12.0
17.956,2.246,-0.061,9.0
32.845,4.11,-0.301,7.0
27.368,3.425,-0.41,7.0
17.036,2.133,-0.353,16.0
16.486,2.065,-0.436,17.0
18.014,2.257,0.02,16.0
17.261,2.163,-0.079,4.0
16.523,2.071,-0.17,10.0
26.483,3.321,-0.427,5.0
16.851,2.114,-0.368,13.0
16.444,2.063,-0.454,18.0
18.013,2.261,0.0,16.0
33.729,4.234,-0.193,4.0
30.555,3.836,-0.35,8.0
17.494,2.197,-0.302,10.0
16.68,2.095,-0.384,16.0
16.387,2.059,-0.471,17.0
18.026,2.265,-0.02,13.0
33.018,4.15,-0.227,10.0
29.93,3.762,-0.377,8.0
17.243,2.168,-0.318,14.0
16.582,2.085,-0.401,17.0
16.326,2.054,-0.488,16.0
18.032,2.268,-0.041,7.0
32.769,4.122,-0.263,10.0
28.593,3.597,-0.393,7.0
17.068,2.148,-0.334,15.0
16.515,2.078,-0.418,16.0
16.288,2.05,-0.506,17.0
35.656,4.488,-0.123,6.0
32.693,4.115,-0.3,5.0
27.488,3.46,-0.41,7.0
16.94,2.132,-0.351,14.0
16.482,2.075,-0.436,16.0
16.254,2.047,-0.524,17.0
35.382,4.454,-0.162,8.0
16.528,2.08,-0.17,10.0
26.645,3.354,-0.428,5.0
16.778,2.112,-0.367,13.0
16.433,2.069,-0.454,17.0
16.226,2.043,-0.541,17.0
16.587,2.087,-0.095,12.0
30.451,3.832,-0.349,8.0
17.505,2.203,-0.301,10.0
16.66,2.097,-0.383,16.0
16.366,2.06,-0.471,16.0
16.203,2.039,-0.559,17.0
32.929,4.142,-0.226,10.0
29.774,3.745,-0.375,8.0
17.262,2.171,-0.316,14.0
16.574,2.084,-0.4,17.0
16.319,2.052,-0.488,17.0
16.167,2.033,-0.576,18.0
32.841,4.127,-0.263,12.0
28.443,3.574,-0.39,7.0
17.104,2.149,-0.333,15.0
16.518,2.075,-0.418,16.0
16.294,2.047,-0.506,17.0
16.138,2.027,-0.593,18.0
32.747,4.11,-0.299,5.0
27.438,3.443,-0.408,7.0
17.012,2.134,-0.35,14.0
16.477,2.067,-0.435,17.0
16.26,2.039,-0.523,17.0
16.118,2.022,-0.611,16.0
17.613,1.251,-0.642,1.0
16.711,1.182,-0.701,1.0
15.987,1.127,-0.759,2.0
15.028,1.056,-0.798,0.0
13.785,0.965,-0.808,0.0
12.875,0.898,-0.826,0.0
17.681,1.225,-0.639,1.0
16.781,1.158,-0.699,1.0
16.008,1.101,-0.755,2.0
14.979,1.027,-0.791,0.0
13.909,0.95,-0.811,0.0
12.921,0.879,-0.825,0.0
17.796,1.202,-0.637,1.0
16.8,1.13,-0.694,1.0
16.071,1.077,-0.752,1.0
14.934,0.998,-0.783,0.0
13.86,0.922,-0.803,0.0
13.0,0.862,-0.825,0.0
17.975,1.183,-0.637,2.0
16.838,1.104,-0.689,2.0
16.132,1.053,-0.749,1.0
15.169,0.987,-0.789,0.0
13.986,0.906,-0.804,0.0
13.096,0.845,-0.825,0.0
18.115,1.16,-0.634,2.0
16.922,1.079,-0.685,2.0
16.203,1.029,-0.745,1.0
15.295,0.968,-0.789,0.0
14.091,0.888,-0.804,0.0
13.144,0.825,-0.822,0.0
18.235,1.136,-0.63,2.0
16.966,1.052,-0.679,1.0
16.282,1.006,-0.741,1.0
15.408,0.948,-0.787,0.0
14.122,0.865,-0.799,0.0
13.291,0.811,-0.825,0.0
18.334,1.11,-0.624,3.0
17.035,1.027,-0.673,1.0
16.352,0.981,-0.735,1.0
15.742,0.941,-0.796,0.0
14.175,0.843,-0.794,0.0
13.344,0.79,-0.821,0.0
18.46,1.085,-0.618,3.0
17.099,1.0,-0.666,1.0
16.426,0.957,-0.729,1.0
15.929,0.923,-0.796,1.0
14.467,0.835,-0.802,0.0
13.559,0.779,-0.826,0.0
18.65,1.063,-0.614,3.0
17.234,0.978,-0.661,1.0
16.533,0.933,-0.724,1.0
15.963,0.897,-0.788,2.0
14.589,0.816,-0.8,0.0
13.639,0.759,-0.822,0.0
18.865,1.042,-0.609,3.0
17.312,0.952,-0.653,1.0
16.656,0.911,-0.719,1.0
15.998,0.871,-0.779,3.0
14.878,0.806,-0.806,0.0
13.747,0.741,-0.82,0.0
19.088,1.021,-0.603,3.0
17.585,0.936,-0.651,0.0
16.749,0.887,-0.711,2.0
16.056,0.846,-0.771,2.0
15.03,0.788,-0.803,0.0
23.611,1.231,-1.391,2.0
19.413,1.004,-0.6,2.0
17.831,0.917,-0.647,1.0
16.815,0.86,-0.702,2.0
16.16,0.823,-0.764,1.0
23.64,1.198,-1.247,1.0
23.62,1.19,-1.374,1.0
19.682,0.983,-0.593,2.0
18.008,0.895,-0.64,3.0
16.908,0.835,-0.693,2.0
16.285,0.8,-0.757,2.0
23.632,1.155,-1.227,2.0
23.632,1.149,-1.356,0.0
19.96,0.962,-0.586,1.0
18.269,0.876,-0.635,3.0
16.996,0.81,-0.683,2.0
16.354,0.775,-0.747,2.0
15.897,0.749,-0.812,1.0
23.612,1.106,-1.335,0.0
23.64,1.098,-0.674,1.0
18.484,0.853,-0.627,3.0
17.146,0.787,-0.674,4.0
16.486,0.752,-0.739,2.0
15.955,0.723,-0.801,5.0
14.638,0.66,-0.815,0.0
20.95,0.936,-0.579,2.0
18.707,0.831,-0.618,3.0
17.295,0.763,-0.665,2.0
16.606,0.728,-0.73,2.0
16.062,0.7,-0.792,3.0
14.828,0.642,-0.812,0.0
21.326,0.916,-0.57,4.0
19.104,0.815,-0.614,3.0
17.597,0.746,-0.66,2.0
16.722,0.704,-0.719,2.0
16.186,0.677,-0.783,2.0
15.135,0.629,-0.814,0.0
21.852,0.9,-0.563,2.0
19.612,0.803,-0.611,3.0
17.797,0.723,-0.65,3.0
16.827,0.68,-0.707,0.0
16.246,0.652,-0.77,1.0
15.459,0.616,-0.816,0.0
22.601,0.892,-0.561,1.0
19.851,0.778,-0.599,2.0
18.13,0.706,-0.644,3.0
16.953,0.656,-0.695,0.0
16.329,0.627,-0.758,0.0
15.856,0.605,-0.821,1.0
23.398,0.884,-0.556,1.0
20.134,0.755,-0.587,1.0
18.459,0.687,-0.637,3.0
17.074,0.631,-0.682,0.0
16.486,0.605,-0.747,0.0
16.007,0.583,-0.812,1.0
23.915,0.862,-0.543,1.0
21.057,0.753,-0.591,3.0
18.935,0.673,-0.633,1.0
17.219,0.607,-0.669,1.0
16.656,0.582,-0.737,0.0
16.465,0.571,-0.817,1.0
24.844,0.854,-0.537,1.0
21.461,0.732,-0.579,3.0
19.24,0.651,-0.621,2.0
17.398,0.584,-0.657,0.0
17.101,0.569,-0.737,1.0
16.923,0.559,-0.82,0.0
25.752,0.841,-0.527,6.0
21.813,0.707,-0.563,1.0
19.762,0.635,-0.615,0.0
18.182,0.58,-0.665,0.0
18.12,0.573,-0.76,1.0
17.069,0.535,-0.807,0.0
26.23,0.814,-0.506,5.0
22.742,0.699,-0.56,1.0
20.303,0.619,-0.608,0.0
18.507,0.559,-0.655,0.0
18.846,0.564,-0.767,3.0
17.403,0.516,-0.802,0.0
27.192,0.798,-0.492,1.0
23.726,0.69,-0.555,0.0
20.773,0.598,-0.597,3.0
19.51,0.557,-0.666,0.0
19.423,0.549,-0.767,3.0
17.92,0.502,-0.803,1.0
28.533,0.791,-0.481,1.0
24.702,0.678,-0.547,3.0
21.499,0.584,-0.591,0.0
20.889,0.562,-0.687,2.0
19.364,0.516,-0.74,0.0
18.184,0.48,-0.792,0.0
29.651,0.774,-0.461,1.0
25.412,0.656,-0.53,1.0
22.36,0.571,-0.585,0.0
22.299,0.564,-0.704,4.0
0.0,0.0,0.0,0.0
18.51,0.459,-0.781,0.0
30.617,0.75,-0.436,1.0
25.979,0.629,-0.508,0.0
23.288,0.558,-0.578,0.0
23.108,0.548,-0.699,4.0
20.861,0.489,-0.742,2.0
18.923,0.439,-0.773,0.0
32.529,0.745,-0.42,1.0
27.856,0.631,-0.507,1.0
25.767,0.577,-0.605,1.0
23.522,0.52,-0.679,0.0
21.398,0.467,-0.731,2.0
19.428,0.42,-0.767,0.0
33.146,0.707,-0.381,3.0
29.229,0.616,-0.491,0.0
27.588,0.574,-0.609,1.0
25.093,0.516,-0.689,1.0
22.03,0.447,-0.722,0.0
19.913,0.399,-0.758,2.0
35.214,0.697,-0.356,1.0
30.417,0.594,-0.468,0.0
29.433,0.568,-0.608,0.0
25.657,0.488,-0.668,0.0
22.697,0.426,-0.711,1.0
20.572,0.381,-0.753,1.0
37.734,0.689,-0.327,0.0
32.488,0.585,-0.453,1.0
29.845,0.53,-0.573,0.0
26.738,0.468,-0.657,1.0
23.475,0.405,-0.701,1.0
21.004,0.358,-0.738,1.0
41.037,0.688,-0.295,0.0
35.987,0.595,-0.448,2.0
19.74,0.321,-0.35,0.0
27.475,0.44,-0.634,0.0
24.379,0.385,-0.691,1.0
21.784,0.338,-0.732,0.0
19.702,0.301,-0.112,1.0
19.675,0.296,-0.215,12.0
19.676,0.291,-0.319,12.0
19.674,0.286,-0.424,13.0
19.694,0.282,-0.528,10.0
19.695,0.277,-0.632,3.0
19.683,0.272,-0.081,12.0
19.65,0.267,-0.184,15.0
19.651,0.262,-0.288,16.0
19.636,0.258,-0.393,16.0
19.677,0.254,-0.497,18.0
19.683,0.249,-0.601,16.0
19.663,0.244,-0.051,9.0
19.643,0.239,-0.154,17.0
19.655,0.235,-0.257,18.0
19.635,0.23,-0.362,16.0
19.672,0.225,-0.466,23.0
19.679,0.221,-0.569,18.0
19.667,0.216,-0.019,13.0
19.636,0.211,-0.122,16.0
19.639,0.207,-0.225,16.0
19.643,0.202,-0.33,15.0
19.667,0.198,-0.434,18.0
19.673,0.194,-0.537,12.0
19.645,0.189,0.011,15.0
19.633,0.184,-0.09,15.0
19.647,0.18,-0.194,14.0
19.666,0.176,-0.299,6.0
19.694,0.172,-0.402,5.0
26.274,0.223,-0.675,0.0
19.65,0.162,0.043,17.0
19.655,0.158,-0.058,11.0
19.658,0.154,-0.161,10.0
0.0,0.0,0.0,0.0
30.995,0.229,-0.582,0.0
27.294,0.196,-0.655,0.0
19.647,0.137,0.076,13.0
19.648,0.132,-0.025,12.0
19.687,0.128,-0.128,4.0
37.598,0.237,-0.446,0.0
0.0,0.0,0.0,0.0
28.36,0.166,-0.633,0.0
19.661,0.111,0.109,13.0
19.675,0.107,0.007,9.0
19.761,0.103,-0.095,1.0
19.762,0.099,-0.2,3.0
19.768,0.095,-0.304,6.0
19.776,0.091,-0.407,12.0
19.69,0.086,0.144,14.0
19.745,0.082,0.041,37.0
19.76,0.078,-0.061,50.0
19.765,0.074,-0.166,68.0
19.763,0.07,-0.269,58.0
19.774,0.066,-0.372,29.0
19.675,0.062,0.178,10.0
19.752,0.058,0.076,14.0
19.74,0.054,-0.026,36.0
19.755,0.05,-0.131,14.0
19.753,0.046,-0.234,18.0
19.763,0.042,-0.337,13.0
19.639,0.038,0.212,16.0
19.744,0.034,0.111,9.0
19.801,0.03,0.008,22.0
19.758,0.026,-0.096,1.0
19.774,0.022,-0.199,0.0
19.775,0.018,-0.302,1.0
19.638,0.015,0.247,16.0
19.799,0.011,0.146,2.0
19.745,0.007,0.043,6.0
19.734,0.003,-0.06,8.0
19.769,0.0,-0.163,1.0
36.556,-0.007,-0.492,0.0
19.636,-0.007,0.283,13.0
19.656,-0.011,0.181,10.0
19.694,-0.014,0.079,14.0
19.698,-0.018,-0.024,15.0
19.741,-0.022,-0.127,13.0
19.756,-0.025,-0.23,9.0
19.639,-0.029,0.319,11.0
19.65,-0.032,0.217,15.0
19.699,-0.036,0.115,17.0
19.691,-0.04,0.011,16.0
19.718,-0.043,-0.091,12.0
19.739,-0.047,-0.193,15.0
19.65,-0.05,0.355,10.0
19.653,-0.054,0.253,11.0
19.69,-0.057,0.151,17.0
19.695,-0.061,0.048,14.0
19.715,-0.064,-0.053,15.0
19.717,-0.068,-0.156,16.0
19.654,-0.071,0.392,10.0
19.664,-0.075,0.29,10.0
19.707,-0.078,0.189,15.0
19.705,-0.081,0.085,13.0
19.71,-0.085,-0.016,13.0
19.719,-0.088,-0.118,16.0
19.664,-0.091,0.429,9.0
19.676,-0.095,0.328,8.0
19.699,-0.098,0.226,10.0
19.722,-0.101,0.122,10.0
19.731,-0.105,0.02,10.0
19.726,-0.108,-0.081,10.0
19.679,-0.111,0.467,7.0
19.709,-0.114,0.366,2.0
19.685,-0.117,0.263,0.0
19.734,-0.121,0.16,2.0
19.783,-0.124,0.058,3.0
19.758,-0.127,-0.043,8.0
19.775,-0.13,0.508,5.0
177.197,-1.199,3.635,21.0
169.214,-1.169,2.593,7.0
165.248,-1.167,1.662,13.0
160.673,-1.159,0.785,8.0
19.757,-0.145,-0.005,0.0
19.776,-0.148,0.546,7.0
19.773,-0.151,0.444,3.0
177.306,-1.388,3.065,18.0
169.496,-1.351,2.036,19.0
160.742,-1.304,1.1,16.0
0.0,0.0,0.0,0.0
19.745,-0.166,0.584,9.0
19.745,-0.169,0.482,7.0
19.76,-0.171,0.38,3.0
170.282,-1.504,2.379,11.0
168.641,-1.513,1.486,6.0
0.0,0.0,0.0,0.0
19.76,-0.183,0.623,7.0
19.745,-0.185,0.52,11.0
19.748,-0.188,0.418,8.0
19.757,-0.19,0.314,4.0
163.993,-1.605,1.765,13.0
160.677,-1.594,0.901,11.0
19.782,-0.199,0.662,2.0
19.754,-0.201,0.559,8.0
19.734,-0.203,0.456,9.0
19.735,-0.206,0.353,9.0
19.76,-0.208,0.251,5.0
19.77,-0.211,0.149,0.0
185.994,-2.019,6.599,19.0
19.778,-0.217,0.599,2.0
19.763,-0.219,0.497,8.0
19.735,-0.221,0.392,10.0
19.732,-0.223,0.29,9.0
19.746,-0.225,0.189,17.0
185.872,-2.155,6.965,28.0
162.581,-1.902,5.25,52.0
19.797,-0.233,0.537,2.0
19.759,-0.235,0.432,7.0
19.749,-0.237,0.33,9.0
19.74,-0.239,0.228,14.0
186.02,-2.288,7.343,18.0
191.653,-2.377,6.574,16.0
163.364,-2.042,4.758,25.0
19.771,-0.249,0.472,1.0
19.761,-0.251,0.369,6.0
19.751,-0.252,0.267,9.0
193.054,-2.502,8.006,12.0
191.877,-2.506,6.968,18.0
162.627,-2.138,5.064,58.0
163.342,-2.163,4.228,22.0
19.791,-0.264,0.41,0.0
19.766,-0.265,0.307,5.0
193.361,-2.627,8.409,5.0
192.099,-2.627,7.361,19.0
162.6,-2.238,5.39,35.0
163.265,-2.26,4.551,46.0
0.0,0.0,0.0,0.0
19.768,-0.277,0.346,0.0
193.264,-2.738,8.786,18.0
191.787,-2.733,7.73,11.0
191.855,-2.748,6.739,18.0
163.266,-2.352,4.877,19.0
163.378,-2.367,4.037,11.0
0.0,0.0,0.0,0.0
0.0,0.0,0.0,0.0
192.977,-2.855,8.166,24.0
191.708,-2.849,7.122,24.0
162.565,-2.428,5.183,58.0
163.264,-2.45,4.364,26.0
0.0,0.0,0.0,0.0
0.0,0.0,0.0,0.0
193.206,-2.955,8.567,20.0
191.572,-2.943,7.504,17.0
191.325,-2.951,6.487,12.0
163.276,-2.529,4.693,16.0
171.465,-2.667,4.044,4.0
0.0,0.0,0.0,0.0
0.0,0.0,0.0,0.0
192.812,-3.05,7.939,20.0
191.424,-3.038,6.872,19.0
162.601,-2.59,4.999,51.0
163.436,-2.613,4.183,6.0
0.0,0.0,0.0,0.0
190.045,-3.076,9.191,7.0
190.018,-3.086,8.206,11.0
190.008,-3.094,7.205,10.0
162.592,-2.656,5.328,37.0
163.23,-2.674,4.508,28.0
189.961,-3.142,10.554,13.0
190.005,-3.149,9.574,20.0
190.012,-3.158,8.593,22.0
190.026,-3.166,7.592,31.0
190.007,-3.174,6.612,29.0
162.873,-2.727,4.825,5.0
189.963,-3.209,10.94,19.0
190.009,-3.217,9.96,21.0
190.025,-3.224,8.979,21.0
189.985,-3.229,7.974,14.0
190.044,-3.237,6.994,20.0
162.625,-2.776,5.147,28.0
0.0,0.0,0.0,0.0
0.0,0.0,0.0,0.0
0.0,0.0,0.0,0.0
192.451,-3.328,8.463,19.0
191.499,-3.317,7.431,20.0
190.692,-3.308,6.417,12.0
0.0,0.0,0.0,0.0
0.0,0.0,0.0,0.0
0.0,0.0,0.0,0.0
192.415,-3.378,8.85,18.0
191.681,-3.367,7.824,18.0
190.71,-3.354,6.798,21.0
0.0,0.0,0.0,0.0
0.0,0.0,0.0,0.0
0.0,0.0,0.0,0.0
0.0,0.0,0.0,0.0
192.079,-3.416,8.224,18.0
191.195,-3.401,7.198,11.0
0.0,0.0,0.0,0.0
0.0,0.0,0.0,0.0
0.0,0.0,0.0,0.0
0.0,0.0,0.0,0.0
192.119,-3.45,8.609,23.0
191.706,-3.443,7.599,13.0
0.0,0.0,0.0,0.0
0.0,0.0,0.0,0.0
0.0,0.0,0.0,0.0
0.0,0.0,0.0,0.0
192.298,-3.478,8.997,8.0
191.777,-3.468,7.982,14.0
0.0,0.0,0.0,0.0
0.0,0.0,0.0,0.0
0.0,0.0,0.0,0.0
0.0,0.0,0.0,0.0
0.0,0.0,0.0,0.0
191.779,-3.485,8.361,20.0
0.0,0.0,0.0,0.0
0.0,0.0,0.0,0.0
0.0,0.0,0.0,0.0
0.0,0.0,0.0,0.0
0.0,0.0,0.0,0.0
192.264,-3.503,8.755,20.0
0.0,0.0,0.0,0.0
0.0,0.0,0.0,0.0
0.0,0.0,0.0,0.0
0.0,0.0,0.0,0.0
0.0,0.0,0.0,0.0
0.0,0.0,0.0,0.0
0.0,0.0,0.0,0.0
0.0,0.0,0.0,0.0
0.0,0.0,0.0,0.0
0.0,0.0,0.0,0.0
0.0,0.0,0.0,0.0
0.0,0.0,0.0,0.0
0.0,0.0,0.0,0.0
0.0,0.0,0.0,0.0
0.0,0.0,0.0,0.0
0.0,0.0,0.0,0.0
0.0,0.0,0.0,0.0
0.0,0.0,0.0,0.0
0.0,0.0,0.0,0.0
0.0,0.0,0.0,0.0
0.0,0.0,0.0,0.0
0.0,0.0,0.0,0.0
0.0,0.0,0.0,0.0
0.0,0.0,0.0,0.0
0.0,0.0,0.0,0.0
0.0,0.0,0.0,0.0
0.0,0.0,0.0,0.0
0.0,0.0,0.0,0.0
0.0,0.0,0.0,0.0
0.0,0.0,0.0,0.0
0.0,0.0,0.0,0.0
0.0,0.0,0.0,0.0
0.0,0.0,0.0,0.0
0.0,0.0,0.0,0.0
0.0,0.0,0.0,0.0
0.0,0.0,0.0,0.0
0.0,0.0,0.0,0.0
0.0,0.0,0.0,0.0
0.0,0.0,0.0,0.0
0.0,0.0,0.0,0.0
0.0,0.0,0.0,0.0
0.0,0.0,0.0,0.0
0.0,0.0,0.0,0.0
0.0,0.0,0.0,0.0
0.0,0.0,0.0,0.0
0.0,0.0,0.0,0.0
0.0,0.0,0.0,0.0
0.0,0.0,0.0,0.0
0.0,0.0,0.0,0.0
0.0,0.0,0.0,0.0
0.0,0.0,0.0,0.0
0.0,0.0,0.0,0.0
0.0,0.0,0.0,0.0
0.0,0.0,0.0,0.0
0.0,0.0,0.0,0.0
0.0,0.0,0.0,0.0
0.0,0.0,0.0,0.0
0.0,0.0,0.0,0.0
0.0,0.0,0.0,0.0
0.0,0.0,0.0,0.0
0.0,0.0,0.0,0.0
0.0,0.0,0.0,0.0
0.0,0.0,0.0,0.0
0.0,0.0,0.0,0.0
0.0,0.0,0.0,0.0
0.0,0.0,0.0,0.0
0.0,0.0,0.0,0.0
0.0,0.0,0.0,0.0
0.0,0.0,0.0,0.0
0.0,0.0,0.0,0.0
0.0,0.0,0.0,0.0
0.0,0.0,0.0,0.0
0.0,0.0,0.0,0.0
0.0,0.0,0.0,0.0
0.0,0.0,0.0,0.0
0.0,0.0,0.0,0.0
0.0,0.0,0.0,0.0
0.0,0.0,0.0,0.0
0.0,0.0,0.0,0.0
0.0,0.0,0.0,0.0
0.0,0.0,0.0,0.0
0.0,0.0,0.0,0.0
0.0,0.0,0.0,0.0
0.0,0.0,0.0,0.0
0.0,0.0,0.0,0.0
0.0,0.0,0.0,0.0
0.0,0.0,0.0,0.0
0.0,0.0,0.0,0.0
0.0,0.0,0.0,0.0
0.0,0.0,0.0,0.0
0.0,0.0,0.0,0.0
0.0,0.0,0.0,0.0
0.0,0.0,0.0,0.0
0.0,0.0,0.0,0.0
0.0,0.0,0.0,0.0
0.0,0.0,0.0,0.0
0.0,0.0,0.0,0.0
0.0,0.0,0.0,0.0
0.0,0.0,0.0,0.0
0.0,0.0,0.0,0.0
0.0,0.0,0.0,0.0
0.0,0.0,0.0,0.0
0.0,0.0,0.0,0.0
0.0,0.0,0.0,0.0
0.0,0.0,0.0,0.0
0.0,0.0,0.0,0.0
0.0,0.0,0.0,0.0
0.0,0.0,0.0,0.0
0.0,0.0,0.0,0.0
0.0,0.0,0.0,0.0
0.0,0.0,0.0,0.0
0.0,0.0,0.0,0.0
0.0,0.0,0.0,0.0
0.0,0.0,0.0,0.0
0.0,0.0,0.0,0.0
0.0,0.0,0.0,0.0
0.0,0.0,0.0,0.0
0.0,0.0,0.0,0.0
0.0,0.0,0.0,0.0
0.0,0.0,0.0,0.0
0.0,0.0,0.0,0.0
0.0,0.0,0.0,0.0
0.0,0.0,0.0,0.0
0.0,0.0,0.0,0.0
0.0,0.0,0.0,0.0
0.0,0.0,0.0,0.0
0.0,0.0,0.0,0.0
0.0,0.0,0.0,0.0
0.0,0.0,0.0,0.0
0.0,0.0,0.0,0.0
0.0,0.0,0.0,0.0
0.0,0.0,0.0,0.0
0.0,0.0,0.0,0.0
0.0,0.0,0.0,0.0
0.0,0.0,0.0,0.0
0.0,0.0,0.0,0.0
0.0,0.0,0.0,0.0
0.0,0.0,0.0,0.0
0.0,0.0,0.0,0.0
0.0,0.0,0.0,0.0
0.0,0.0,0.0,0.0
0.0,0.0,0.0,0.0
0.0,0.0,0.0,0.0
0.0,0.0,0.0,0.0
0.0,0.0,0.0,0.0
0.0,0.0,0.0,0.0
0.0,0.0,0.0,0.0
0.0,0.0,0.0,0.0
0.0,0.0,0.0,0.0
84.595,-0.676,7.441,1.0
0.0,0.0,0.0,0.0
0.0,0.0,0.0,0.0
0.0,0.0,0.0,0.0
0.0,0.0,0.0,0.0
0.0,0.0,0.0,0.0
0.0,0.0,0.0,0.0
0.0,0.0,0.0,0.0
0.0,0.0,0.0,0.0
0.0,0.0,0.0,0.0
0.0,0.0,0.0,0.0
0.0,0.0,0.0,0.0
0.0,0.0,0.0,0.0
0.0,0.0,0.0,0.0
0.0,0.0,0.0,0.0
0.0,0.0,0.0,0.0
0.0,0.0,0.0,0.0
0.0,0.0,0.0,0.0
0.0,0.0,0.0,0.0
0.0,0.0,0.0,0.0
0.0,0.0,0.0,0.0
0.0,0.0,0.0,0.0
0.0,0.0,0.0,0.0
0.0,0.0,0.0,0.0
0.0,0.0,0.0,0.0
0.0,0.0,0.0,0.0
0.0,0.0,0.0,0.0
0.0,0.0,0.0,0.0
0.0,0.0,0.0,0.0
0.0,0.0,0.0,0.0
0.0,0.0,0.0,0.0
0.0,0.0,0.0,0.0
0.0,0.0,0.0,0.0
0.0,0.0,0.0,0.0
0.0,0.0,0.0,0.0
0.0,0.0,0.0,0.0
0.0,0.0,0.0,0.0
55.232,-0.152,6.836,5.0
0.0,0.0,0.0,0.0
0.0,0.0,0.0,0.0
0.0,0.0,0.0,0.0
0.0,0.0,0.0,0.0
0.0,0.0,0.0,0.0
55.219,-0.099,6.897,33.0
0.0,0.0,0.0,0.0
0.0,0.0,0.0,0.0
0.0,0.0,0.0,0.0
0.0,0.0,0.0,0.0
0.0,0.0,0.0,0.0
55.222,-0.045,6.957,6.0
0.0,0.0,0.0,0.0
0.0,0.0,0.0,0.0
0.0,0.0,0.0,0.0
0.0,0.0,0.0,0.0
0.0,0.0,0.0,0.0
0.0,0.0,0.0,0.0
0.0,0.0,0.0,0.0
0.0,0.0,0.0,0.0
0.0,0.0,0.0,0.0
0.0,0.0,0.0,0.0
0.0,0.0,0.0,0.0
0.0,0.0,0.0,0.0
55.226,0.076,6.765,14.0
0.0,0.0,0.0,0.0
0.0,0.0,0.0,0.0
0.0,0.0,0.0,0.0
0.0,0.0,0.0,0.0
0.0,0.0,0.0,0.0
55.218,0.132,6.816,28.0
0.0,0.0,0.0,0.0
0.0,0.0,0.0,0.0
0.0,0.0,0.0,0.0
0.0,0.0,0.0,0.0
0.0,0.0,0.0,0.0
0.0,0.0,0.0,0.0
0.0,0.0,0.0,0.0
0.0,0.0,0.0,0.0
0.0,0.0,0.0,0.0
0.0,0.0,0.0,0.0
0.0,0.0,0.0,0.0
0.0,0.0,0.0,0.0
0.0,0.0,0.0,0.0
0.0,0.0,0.0,0.0
0.0,0.0,0.0,0.0
0.0,0.0,0.0,0.0
0.0,0.0,0.0,0.0
0.0,0.0,0.0,0.0
0.0,0.0,0.0,0.0
0.0,0.0,0.0,0.0
0.0,0.0,0.0,0.0
0.0,0.0,0.0,0.0
0.0,0.0,0.0,0.0
0.0,0.0,0.0,0.0
0.0,0.0,0.0,0.0
0.0,0.0,0.0,0.0
0.0,0.0,0.0,0.0
0.0,0.0,0.0,0.0
0.0,0.0,0.0,0.0
0.0,0.0,0.0,0.0
0.0,0.0,0.0,0.0
0.0,0.0,0.0,0.0
0.0,0.0,0.0,0.0
0.0,0.0,0.0,0.0
0.0,0.0,0.0,0.0
0.0,0.0,0.0,0.0
0.0,0.0,0.0,0.0
0.0,0.0,0.0,0.0
0.0,0.0,0.0,0.0
0.0,0.0,0.0,0.0
0.0,0.0,0.0,0.0
0.0,0.0,0.0,0.0
0.0,0.0,0.0,0.0
0.0,0.0,0.0,0.0
0.0,0.0,0.0,0.0
0.0,0.0,0.0,0.0
0.0,0.0,0.0,0.0
0.0,0.0,0.0,0.0
0.0,0.0,0.0,0.0
0.0,0.0,0.0,0.0
0.0,0.0,0.0,0.0
0.0,0.0,0.0,0.0
0.0,0.0,0.0,0.0
0.0,0.0,0.0,0.0
0.0,0.0,0.0,0.0
0.0,0.0,0.0,0.0
0.0,0.0,0.0,0.0
0.0,0.0,0.0,0.0
0.0,0.0,0.0,0.0
0.0,0.0,0.0,0.0
0.0,0.0,0.0,0.0
0.0,0.0,0.0,0.0
0.0,0.0,0.0,0.0
0.0,0.0,0.0,0.0
0.0,0.0,0.0,0.0
0.0,0.0,0.0,0.0
0.0,0.0,0.0,0.0
0.0,0.0,0.0,0.0
0.0,0.0,0.0,0.0
0.0,0.0,0.0,0.0
0.0,0.0,0.0,0.0
0.0,0.0,0.0,0.0
0.0,0.0,0.0,0.0
0.0,0.0,0.0,0.0
0.0,0.0,0.0,0.0
0.0,0.0,0.0,0.0
0.0,0.0,0.0,0.0
0.0,0.0,0.0,0.0
0.0,0.0,0.0,0.0
0.0,0.0,0.0,0.0
0.0,0.0,0.0,0.0
0.0,0.0,0.0,0.0
0.0,0.0,0.0,0.0
0.0,0.0,0.0,0.0
0.0,0.0,0.0,0.0
0.0,0.0,0.0,0.0
0.0,0.0,0.0,0.0
0.0,0.0,0.0,0.0
0.0,0.0,0.0,0.0
0.0,0.0,0.0,0.0
0.0,0.0,0.0,0.0
0.0,0.0,0.0,0.0
0.0,0.0,0.0,0.0
0.0,0.0,0.0,0.0
0.0,0.0,0.0,0.0
0.0,0.0,0.0,0.0
0.0,0.0,0.0,0.0
0.0,0.0,0.0,0.0
0.0,0.0,0.0,0.0
0.0,0.0,0.0,0.0
0.0,0.0,0.0,0.0
0.0,0.0,0.0,0.0
0.0,0.0,0.0,0.0
0.0,0.0,0.0,0.0
0.0,0.0,0.0,0.0
0.0,0.0,0.0,0.0
0.0,0.0,0.0,0.0
0.0,0.0,0.0,0.0
0.0,0.0,0.0,0.0
0.0,0.0,0.0,0.0
0.0,0.0,0.0,0.0
0.0,0.0,0.0,0.0
0.0,0.0,0.0,0.0
0.0,0.0,0.0,0.0
0.0,0.0,0.0,0.0
0.0,0.0,0.0,0.0
0.0,0.0,0.0,0.0
0.0,0.0,0.0,0.0
23.509,0.991,3.128,0.0
23.613,0.998,3.005,0.0
23.494,0.995,2.854,0.0
23.523,0.999,2.72,0.0
23.551,1.003,2.588,1.0
23.564,1.006,2.454,10.0
23.536,1.014,3.115,23.0
