X,Y,Z,Reflectivity
170.29,-3.065,3.137,12.0
134.582,-2.372,1.729,21.0
134.514,-2.324,0.98,27.0
0.0,0.0,0.0,0.0
0.0,0.0,0.0,0.0
42.672,-0.691,-0.406,0.0
173.573,-2.76,3.129,9.0
19.785,-0.307,0.246,1.0
19.752,-0.299,0.135,25.0
0.0,0.0,0.0,0.0
0.0,0.0,0.0,0.0
42.133,-0.593,-0.419,0.0
19.761,-0.272,0.347,6.0
19.747,-0.264,0.237,16.0
19.741,-0.257,0.126,16.0
0.0,0.0,0.0,0.0
0.0,0.0,0.0,0.0
0.0,0.0,0.0,0.0
19.752,-0.23,0.338,10.0
19.767,-0.223,0.228,2.0
160.793,-1.761,0.956,6.0
0.0,0.0,0.0,0.0
19.68,-0.201,-0.104,0.0
19.771,-0.195,-0.215,8.0
19.768,-0.189,0.328,0.0
169.292,-1.565,1.867,7.0
160.75,-1.428,0.874,6.0
19.718,-0.168,-0.005,0.0
19.742,-0.161,-0.115,13.0
19.732,-0.154,-0.225,17.0
169.242,-1.275,2.722,4.0
19.766,-0.141,0.207,1.0
19.774,-0.135,0.096,4.0
19.722,-0.127,-0.016,10.0
19.715,-0.12,-0.126,16.0
19.739,-0.113,-0.237,17.0
19.682,-0.107,0.305,9.0
19.71,-0.1,0.195,16.0
19.7,-0.093,0.084,12.0
19.699,-0.086,-0.027,16.0
19.716,-0.08,-0.138,17.0
19.751,-0.073,-0.249,15.0
19.647,-0.066,0.292,10.0
19.677,-0.059,0.182,12.0
19.693,-0.053,0.072,15.0
19.697,-0.046,-0.04,16.0
19.74,-0.039,-0.15,13.0
19.724,-0.032,-0.261,0.0
19.631,-0.026,0.279,13.0
19.703,-0.019,0.169,6.0
19.741,-0.012,0.059,6.0
19.749,-0.006,-0.053,7.0
19.795,0.0,-0.164,0.0
19.78,0.007,-0.275,1.0
19.635,0.014,0.265,15.0
19.751,0.021,0.156,23.0
19.746,0.027,0.045,14.0
19.764,0.034,-0.067,48.0
19.771,0.04,-0.178,20.0
19.77,0.047,-0.289,29.0
19.623,0.053,0.251,15.0
19.683,0.06,0.141,13.0
19.746,0.067,0.031,32.0
19.747,0.073,-0.081,13.0
19.75,0.08,-0.193,2.0
19.736,0.087,-0.303,0.0
19.634,0.093,0.236,14.0
19.655,0.1,0.126,13.0
19.641,0.106,0.015,12.0
19.669,0.112,-0.096,8.0
19.648,0.119,-0.207,0.0
32.86,0.21,-0.531,0.0
19.665,0.132,0.221,17.0
19.645,0.139,0.11,13.0
19.656,0.145,0.0,19.0
19.627,0.151,-0.112,14.0
19.649,0.158,-0.223,13.0
19.673,0.165,-0.334,11.0
19.669,0.171,0.205,13.0
19.673,0.178,0.094,12.0
19.642,0.184,-0.016,13.0
19.628,0.19,-0.128,16.0
19.646,0.196,-0.239,16.0
19.651,0.202,-0.35,15.0
19.768,0.21,0.189,25.0
19.742,0.217,0.078,3.0
19.676,0.222,-0.033,5.0
19.626,0.228,-0.145,16.0
19.644,0.234,-0.256,17.0
19.662,0.241,-0.368,16.0
19.759,0.249,0.172,26.0
84.906,1.099,0.259,4.0
19.674,0.26,-0.05,3.0
19.672,0.267,-0.164,12.0
19.669,0.273,-0.275,15.0
19.684,0.279,-0.386,7.0
160.728,2.342,1.249,12.0
0.0,0.0,0.0,0.0
46.789,0.71,-0.164,0.0
0.0,0.0,0.0,0.0
35.689,0.564,-0.533,1.0
29.331,0.472,-0.603,0.0
55.191,0.909,0.376,53.0
55.163,0.926,0.064,60.0
45.201,0.773,-0.203,0.0
35.616,0.619,-0.365,0.0
31.454,0.557,-0.5,0.0
25.652,0.462,-0.553,0.0
55.195,1.014,0.321,43.0
55.191,1.03,0.009,24.0
42.489,0.806,-0.233,0.0
34.417,0.663,-0.387,2.0
29.216,0.572,-0.494,0.0
27.521,0.547,-0.621,1.0
83.916,1.698,0.403,3.0
54.839,1.126,-0.046,1.0
40.603,0.846,-0.264,1.0
32.976,0.697,-0.405,1.0
28.757,0.616,-0.516,1.0
25.003,0.543,-0.59,0.0
78.086,1.724,0.293,4.0
45.473,1.017,-0.086,0.0
39.003,0.884,-0.295,2.0
31.787,0.73,-0.424,0.0
0.0,0.0,0.0,0.0
23.244,0.547,-0.574,0.0
0.0,0.0,0.0,0.0
0.0,0.0,0.0,0.0
37.166,0.91,-0.322,1.0
31.08,0.769,-0.448,1.0
26.013,0.652,-0.523,1.0
22.426,0.568,-0.578,0.0
0.0,0.0,0.0,0.0
40.105,1.042,-0.164,150.0
36.622,0.962,-0.358,3.0
29.65,0.787,-0.461,1.0
25.749,0.691,-0.547,6.0
21.713,0.589,-0.584,0.0
40.131,1.103,0.016,154.0
40.048,1.111,-0.21,55.0
34.294,0.962,-0.375,1.0
28.659,0.811,-0.479,2.0
24.584,0.703,-0.55,1.0
21.077,0.608,-0.592,0.0
40.131,1.172,-0.029,150.0
40.02,1.181,-0.257,24.0
40.154,1.196,-0.486,1.0
27.47,0.825,-0.491,7.0
23.361,0.708,-0.551,0.0
20.466,0.626,-0.599,2.0
40.132,1.242,-0.077,150.0
39.906,1.246,-0.304,4.0
40.151,1.264,-0.534,2.0
26.245,0.833,-0.501,1.0
22.577,0.723,-0.559,0.0
19.829,0.64,-0.604,0.0
40.053,1.307,-0.126,91.0
40.088,1.319,-0.354,0.0
30.138,1.0,-0.438,1.0
25.702,0.859,-0.522,2.0
22.194,0.748,-0.578,4.0
19.555,0.664,-0.62,3.0
40.106,1.377,-0.177,86.0
40.129,1.387,-0.405,1.0
29.071,1.013,-0.459,2.0
24.878,0.873,-0.537,1.0
21.391,0.756,-0.584,3.0
19.121,0.681,-0.631,2.0
40.017,1.439,-0.227,5.0
32.7,1.184,-0.372,1.0
27.869,1.016,-0.476,1.0
23.895,0.877,-0.546,1.0
20.804,0.769,-0.594,0.0
18.537,0.69,-0.635,3.0
39.833,1.496,-0.277,3.0
31.654,1.196,-0.401,0.0
27.139,1.032,-0.498,6.0
23.262,0.891,-0.562,5.0
19.947,0.769,-0.596,2.0
18.129,0.703,-0.645,3.0
39.943,1.563,-0.331,0.0
29.967,1.18,-0.419,1.0
0.0,0.0,0.0,0.0
21.999,0.877,-0.561,1.0
19.648,0.788,-0.613,2.0
17.769,0.717,-0.656,3.0
35.383,1.44,-0.341,1.0
29.092,1.19,-0.446,2.0
23.683,0.975,-0.499,39.0
21.381,0.885,-0.574,2.0
18.953,0.789,-0.617,3.0
17.364,0.727,-0.665,2.0
23.659,0.998,-0.26,39.0
23.645,1.003,-0.395,41.0
23.617,1.007,-0.53,27.0
20.767,0.891,-0.587,3.0
18.493,0.798,-0.628,3.0
17.07,0.74,-0.678,2.0
23.619,1.031,-0.293,55.0
23.623,1.037,-0.428,61.0
23.618,1.042,-0.563,31.0
19.881,0.882,-0.589,1.0
18.154,0.809,-0.642,2.0
16.931,0.759,-0.696,2.0
23.629,1.066,-0.326,72.0
23.617,1.071,-0.461,64.0
0.0,0.0,0.0,0.0
19.512,0.893,-0.606,3.0
17.706,0.815,-0.651,2.0
16.758,0.775,-0.713,2.0
23.626,1.099,-0.359,49.0
23.63,1.105,-0.495,37.0
21.235,0.997,-0.566,1.0
18.845,0.889,-0.612,3.0
17.276,0.819,-0.66,2.0
16.607,0.791,-0.73,1.0
23.667,1.134,-0.394,36.0
23.64,1.137,-0.529,22.0
20.78,1.004,-0.584,1.0
18.437,0.895,-0.626,3.0
17.046,0.831,-0.676,2.0
16.38,0.802,-0.744,1.0
26.779,1.319,-0.485,1.0
23.456,1.16,-0.559,8.0
19.859,0.986,-0.587,2.0
18.078,0.901,-0.64,2.0
16.893,0.846,-0.695,2.0
16.246,0.817,-0.762,1.0
25.43,1.285,-0.498,1.0
21.791,1.106,-0.552,1.0
19.366,0.986,-0.601,2.0
17.678,0.904,-0.652,1.0
16.752,0.86,-0.714,1.0
16.022,0.826,-0.775,2.0
24.367,1.262,-0.514,1.0
20.931,1.088,-0.561,3.0
18.759,0.979,-0.611,3.0
17.227,0.903,-0.661,1.0
16.554,0.871,-0.731,1.0
15.96,0.843,-0.796,2.0
23.618,1.253,-0.534,1.0
20.434,1.088,-0.579,4.0
18.331,0.979,-0.625,2.0
17.001,0.912,-0.679,2.0
16.337,0.879,-0.746,1.0
15.5,0.837,-0.797,0.0
22.2,1.204,-0.536,0.0
19.736,1.074,-0.589,2.0
17.994,0.982,-0.64,2.0
16.842,0.923,-0.698,2.0
16.127,0.887,-0.761,1.0
15.128,0.835,-0.801,0.0
19.765,1.095,-0.507,10.0
19.123,1.063,-0.6,3.0
17.532,0.977,-0.651,1.0
16.647,0.931,-0.716,1.0
15.982,0.897,-0.779,3.0
14.734,0.83,-0.803,0.0
19.838,1.121,-0.54,6.0
18.616,1.055,-0.614,3.0
17.148,0.975,-0.664,1.0
16.421,0.937,-0.731,1.0
15.804,0.904,-0.795,1.0
14.46,0.83,-0.811,0.0
19.717,1.135,-0.567,9.0
18.23,1.053,-0.629,2.0
16.933,0.981,-0.682,2.0
16.237,0.943,-0.749,1.0
15.343,0.894,-0.796,1.0
14.04,0.821,-0.809,0.0
19.574,1.147,-0.594,8.0
17.815,1.047,-0.643,0.0
16.767,0.989,-0.702,2.0
16.016,0.947,-0.764,2.0
14.926,0.885,-0.798,0.0
13.78,0.819,-0.816,0.0
18.943,1.129,-0.605,3.0
17.363,1.038,-0.654,1.0
16.578,0.994,-0.72,1.0
15.926,0.957,-0.785,1.0
14.53,0.876,-0.8,0.0
13.481,0.815,-0.82,0.0
18.407,1.115,-0.617,3.0
17.046,1.035,-0.669,1.0
16.324,0.994,-0.735,1.0
15.381,0.939,-0.783,0.0
14.183,0.868,-0.803,0.0
13.226,0.812,-0.825,0.0
18.087,1.112,-0.635,2.0
16.834,1.038,-0.688,1.0
16.125,0.996,-0.751,2.0
14.992,0.929,-0.787,0.0
13.856,0.86,-0.807,0.0
12.981,0.808,-0.831,0.0
17.553,1.095,-0.644,1.0
16.687,1.043,-0.708,1.0
15.976,1.001,-0.77,1.0
14.672,0.921,-0.793,0.0
13.514,0.851,-0.809,0.0
12.75,0.804,-0.837,0.0
17.21,1.088,-0.659,2.0
16.443,1.041,-0.724,1.0
15.597,0.99,-0.777,0.0
14.431,0.918,-0.803,0.0
13.261,0.845,-0.815,0.0
12.501,0.799,-0.84,0.0
16.951,1.085,-0.676,1.0
16.227,1.04,-0.741,1.0
15.153,0.974,-0.779,0.0
14.04,0.904,-0.804,0.0
13.061,0.843,-0.824,0.0
12.242,0.792,-0.843,0.0
16.789,1.087,-0.697,2.0
16.044,1.041,-0.758,1.0
14.82,0.963,-0.786,0.0
13.698,0.892,-0.807,0.0
12.854,0.839,-0.831,0.0
12.044,0.788,-0.849,0.0
16.571,1.084,-0.714,1.0
15.853,1.039,-0.775,0.0
14.529,0.954,-0.794,0.0
13.377,0.88,-0.809,0.0
12.554,0.828,-0.832,0.0
11.781,0.778,-0.849,0.0
16.324,1.079,-0.73,1.0
15.385,1.019,-0.776,0.0
14.22,0.943,-0.8,0.0
13.15,0.874,-0.817,0.0
12.382,0.824,-0.841,0.0
11.535,0.769,-0.85,0.0
16.106,1.075,-0.746,1.0
15.033,1.005,-0.783,0.0
13.927,0.932,-0.806,0.0
12.952,0.869,-0.825,0.0
12.179,0.818,-0.847,0.0
11.255,0.758,-0.848,0.0
15.975,1.075,-0.765,2.0
14.754,0.995,-0.792,0.0
13.512,0.912,-0.803,0.0
12.703,0.859,-0.83,0.0
11.836,0.802,-0.842,0.0
11.042,0.749,-0.85,0.0
15.679,1.064,-0.776,0.0
14.422,0.98,-0.797,0.0
13.322,0.907,-0.814,0.0
12.455,0.849,-0.834,0.0
11.583,0.791,-0.843,0.0
10.895,0.745,-0.856,0.0
15.227,1.041,-0.779,0.0
13.977,0.957,-0.795,0.0
13.11,0.899,-0.822,0.0
12.278,0.843,-0.842,0.0
11.456,0.787,-0.852,0.0
10.701,0.737,-0.858,0.0
11.046,0.777,-0.847,0.0
10.407,0.732,-0.859,0.0
9.991,0.703,-0.882,0.0
9.516,0.669,-0.896,0.0
8.97,0.631,-0.897,0.0
8.512,0.599,-0.901,0.0
10.911,0.765,-0.852,0.0
10.29,0.721,-0.863,0.0
9.831,0.689,-0.881,0.0
9.348,0.655,-0.893,0.0
8.895,0.623,-0.901,0.0
8.435,0.591,-0.904,0.0
10.765,0.751,-0.855,0.0
10.177,0.71,-0.867,0.0
9.744,0.68,-0.886,0.0
9.276,0.647,-0.899,0.0
8.77,0.612,-0.9,0.0
8.349,0.583,-0.906,0.0
10.553,0.733,-0.852,0.0
10.115,0.703,-0.875,0.0
9.636,0.669,-0.889,0.0
9.142,0.635,-0.897,0.0
8.643,0.6,-0.898,0.0
8.276,0.575,-0.908,0.0
10.444,0.722,-0.856,0.0
10.047,0.694,-0.881,0.0
9.528,0.658,-0.891,0.0
9.03,0.624,-0.898,0.0
8.58,0.592,-0.903,0.0
8.195,0.566,-0.91,0.0
10.358,0.712,-0.862,0.0
9.872,0.678,-0.878,0.0
9.447,0.649,-0.895,0.0
8.959,0.615,-0.902,0.0
8.455,0.58,-0.9,0.0
8.077,0.554,-0.907,0.0
10.277,0.702,-0.868,0.0
9.807,0.669,-0.885,0.0
9.283,0.633,-0.891,0.0
8.845,0.603,-0.901,0.0
8.386,0.572,-0.903,0.0
8.033,0.547,-0.912,0.0
10.199,0.691,-0.873,0.0
9.69,0.657,-0.886,0.0
9.246,0.626,-0.899,0.0
8.732,0.591,-0.9,0.0
8.293,0.561,-0.903,0.0
7.972,0.539,-0.914,0.0
10.052,0.676,-0.873,0.0
9.608,0.646,-0.889,0.0
9.114,0.613,-0.896,0.0
8.604,0.578,-0.897,0.0
8.243,0.553,-0.907,0.0
7.934,0.532,-0.919,0.0
9.963,0.665,-0.876,0.0
9.534,0.636,-0.893,0.0
9.055,0.604,-0.901,0.0
8.574,0.571,-0.903,0.0
8.17,0.544,-0.908,0.0
7.845,0.522,-0.917,0.0
9.903,0.655,-0.882,0.0
9.399,0.621,-0.891,0.0
8.953,0.592,-0.9,0.0
8.485,0.56,-0.903,0.0
8.094,0.534,-0.908,0.0
7.81,0.515,-0.922,0.0
9.83,0.645,-0.886,0.0
9.351,0.613,-0.896,0.0
8.865,0.58,-0.901,0.0
8.416,0.55,-0.905,0.0
8.033,0.525,-0.91,0.0
7.774,0.508,-0.926,0.0
9.762,0.634,-0.89,0.0
9.215,0.598,-0.893,0.0
8.784,0.569,-0.902,0.0
8.341,0.54,-0.905,0.0
8.013,0.518,-0.916,0.0
7.723,0.499,-0.928,0.0
9.623,0.618,-0.887,0.0
9.194,0.59,-0.9,0.0
8.695,0.558,-0.901,0.0
8.268,0.53,-0.906,0.0
7.931,0.507,-0.915,0.0
7.671,0.49,-0.929,0.0
9.579,0.609,-0.892,0.0
9.135,0.58,-0.903,0.0
8.589,0.545,-0.899,0.0
8.203,0.52,-0.906,0.0
7.913,0.501,-0.92,0.0
7.645,0.483,-0.933,0.0
9.541,0.599,-0.897,0.0
9.055,0.568,-0.904,0.0
8.55,0.536,-0.902,0.0
8.148,0.51,-0.908,0.0
7.864,0.492,-0.922,0.0
7.556,0.472,-0.929,0.0
9.434,0.586,-0.896,0.0
8.985,0.557,-0.905,0.0
8.462,0.524,-0.901,0.0
8.076,0.499,-0.907,0.0
7.787,0.481,-0.92,0.0
7.514,0.463,-0.931,0.0
9.313,0.571,-0.892,0.0
8.894,0.544,-0.903,0.0
8.444,0.516,-0.906,0.0
8.06,0.492,-0.912,0.0
7.752,0.472,-0.922,0.0
7.473,0.455,-0.932,0.0
9.246,0.559,-0.894,0.0
8.8,0.531,-0.901,0.0
8.373,0.505,-0.905,0.0
7.993,0.481,-0.911,0.0
7.733,0.465,-0.926,0.0
7.454,0.447,-0.936,0.0
9.205,0.549,-0.897,0.0
8.753,0.521,-0.903,0.0
8.307,0.493,-0.905,0.0
7.979,0.473,-0.916,0.0
7.691,0.456,-0.927,0.0
7.404,0.438,-0.935,0.0
9.131,0.536,-0.897,0.0
8.718,0.511,-0.906,0.0
8.282,0.485,-0.908,0.0
7.918,0.463,-0.915,0.0
7.654,0.446,-0.928,0.0
7.383,0.43,-0.938,0.0
9.087,0.526,-0.899,0.0
8.654,0.499,-0.905,0.0
8.228,0.474,-0.908,0.0
7.922,0.456,-0.921,0.0
7.606,0.437,-0.928,0.0
7.333,0.42,-0.937,0.0
9.042,0.515,-0.9,0.0
8.557,0.486,-0.901,0.0
8.193,0.464,-0.91,0.0
7.836,0.443,-0.916,0.0
7.597,0.429,-0.932,0.0
7.275,0.41,-0.934,0.0
8.983,0.503,-0.9,0.0
8.55,0.478,-0.906,0.0
8.15,0.454,-0.91,0.0
7.816,0.435,-0.918,0.0
7.569,0.42,-0.933,0.0
7.244,0.401,-0.935,0.0
8.94,0.492,-0.901,0.0
8.485,0.466,-0.904,0.0
8.141,0.446,-0.914,0.0
7.804,0.426,-0.921,0.0
7.504,0.409,-0.929,0.0
7.247,0.394,-0.939,0.0
8.908,0.481,-0.903,0.0
8.487,0.457,-0.909,0.0
8.1,0.435,-0.914,0.0
7.771,0.417,-0.922,0.0
7.493,0.401,-0.932,0.0
7.236,0.386,-0.942,0.0
8.884,0.471,-0.905,0.0
8.465,0.447,-0.911,0.0
8.063,0.425,-0.913,0.0
7.747,0.407,-0.923,0.0
7.448,0.391,-0.93,0.0
7.236,0.379,-0.945,0.0
8.868,0.461,-0.908,0.0
8.449,0.438,-0.913,0.0
8.013,0.414,-0.912,0.0
7.739,0.399,-0.925,0.0
7.442,0.383,-0.933,0.0
7.224,0.37,-0.947,0.0
8.8,0.448,-0.904,0.0
8.424,0.428,-0.914,0.0
8.009,0.405,-0.914,0.0
7.721,0.39,-0.926,0.0
7.433,0.374,-0.934,0.0
7.226,0.363,-0.95,0.0
8.778,0.437,-0.906,0.0
8.346,0.415,-0.908,0.0
8.008,0.397,-0.917,0.0
7.713,0.381,-0.928,0.0
7.426,0.366,-0.936,0.0
7.208,0.354,-0.95,0.0
8.785,0.428,-0.909,0.0
8.341,0.405,-0.911,0.0
8.0,0.388,-0.919,0.0
7.671,0.37,-0.926,0.0
7.399,0.356,-0.935,0.0
7.15,0.343,-0.945,0.0
8.761,0.418,-0.909,0.0
8.352,0.397,-0.914,0.0
8.0,0.379,-0.921,0.0
7.678,0.362,-0.929,0.0
7.394,0.348,-0.937,0.0
7.169,0.336,-0.949,0.0
8.779,0.409,-0.914,0.0
8.285,0.384,-0.909,0.0
7.981,0.369,-0.921,0.0
7.64,0.352,-0.926,0.0
7.399,0.34,-0.939,0.0
7.134,0.326,-0.946,0.0
8.705,0.395,-0.908,0.0
8.32,0.376,-0.915,0.0
7.962,0.359,-0.92,0.0
7.666,0.344,-0.93,0.0
7.362,0.33,-0.935,0.0
7.149,0.319,-0.949,0.0
8.715,0.386,-0.91,0.0
8.287,0.365,-0.912,0.0
7.95,0.349,-0.92,0.0
7.617,0.333,-0.926,0.0
7.356,0.321,-0.936,0.0
7.16,0.311,-0.952,0.0
8.71,0.376,-0.911,0.0
8.304,0.357,-0.915,0.0
7.94,0.34,-0.92,0.0
7.638,0.326,-0.929,0.0
7.336,0.312,-0.934,0.0
7.136,0.302,-0.949,0.0
8.693,0.365,-0.91,0.0
8.304,0.347,-0.916,0.0
7.979,0.332,-0.925,0.0
7.617,0.316,-0.927,0.0
7.355,0.304,-0.937,0.0
7.136,0.293,-0.949,0.0
8.733,0.356,-0.914,0.0
8.297,0.337,-0.915,0.0
7.979,0.323,-0.925,0.0
7.617,0.307,-0.927,0.0
7.371,0.296,-0.939,0.0
7.106,0.284,-0.945,0.0
8.722,0.345,-0.913,0.0
8.315,0.328,-0.917,0.0
7.976,0.313,-0.924,0.0
7.656,0.299,-0.931,0.0
7.392,0.288,-0.941,0.0
7.13,0.276,-0.948,0.0
8.746,0.336,-0.915,0.0
8.315,0.318,-0.916,0.0
7.987,0.304,-0.925,0.0
7.655,0.29,-0.931,0.0
7.387,0.279,-0.94,0.0
7.133,0.268,-0.948,0.0
8.766,0.326,-0.916,0.0
8.359,0.31,-0.92,0.0
8.009,0.295,-0.927,0.0
7.689,0.282,-0.934,0.0
7.393,0.27,-0.939,0.0
7.146,0.26,-0.948,0.0
8.773,0.316,-0.915,0.0
8.392,0.301,-0.923,0.0
8.01,0.286,-0.925,0.0
7.698,0.273,-0.933,0.0
7.397,0.261,-0.939,0.0
7.143,0.251,-0.947,0.0
8.821,0.307,-0.919,0.0
8.401,0.291,-0.922,0.0
8.035,0.277,-0.927,0.0
7.712,0.264,-0.933,0.0
7.436,0.253,-0.942,0.0
7.148,0.242,-0.946,0.0
8.802,0.296,-0.914,0.0
8.428,0.282,-0.923,0.0
8.05,0.267,-0.926,0.0
7.732,0.255,-0.934,0.0
7.413,0.244,-0.937,0.0
7.169,0.234,-0.946,0.0
8.793,0.285,-0.911,0.0
8.442,0.272,-0.922,0.0
8.082,0.259,-0.927,0.0
7.741,0.246,-0.932,0.0
7.445,0.236,-0.938,0.0
7.192,0.226,-0.947,0.0
8.812,0.275,-0.91,0.0
8.458,0.262,-0.92,0.0
8.103,0.25,-0.927,0.0
7.785,0.239,-0.935,0.0
7.461,0.227,-0.938,0.0
7.209,0.218,-0.947,0.0
8.884,0.267,-0.914,0.0
8.498,0.253,-0.921,0.0
8.134,0.241,-0.927,0.0
7.798,0.229,-0.933,0.0
7.484,0.219,-0.938,0.0
7.223,0.21,-0.945,0.0
8.905,0.256,-0.912,0.0
8.527,0.244,-0.921,0.0
8.135,0.231,-0.924,0.0
7.851,0.222,-0.936,0.0
7.507,0.21,-0.937,0.0
7.255,0.202,-0.946,0.0
8.958,0.247,-0.914,0.0
8.589,0.235,-0.924,0.0
8.166,0.222,-0.923,0.0
7.86,0.212,-0.933,0.0
7.538,0.202,-0.937,0.0
7.27,0.193,-0.944,0.0
8.981,0.237,-0.911,0.0
8.607,0.225,-0.921,0.0
8.237,0.214,-0.927,0.0
7.891,0.203,-0.933,0.0
7.577,0.194,-0.938,0.0
7.289,0.185,-0.943,0.0
9.074,0.229,-0.916,0.0
8.632,0.216,-0.919,0.0
8.305,0.206,-0.93,0.0
7.933,0.195,-0.933,0.0
7.613,0.186,-0.938,0.0
7.312,0.177,-0.941,0.0
9.097,0.218,-0.912,0.0
8.71,0.207,-0.922,0.0
8.319,0.196,-0.926,0.0
8.01,0.187,-0.937,0.0
7.644,0.177,-0.937,0.0
7.351,0.169,-0.942,0.0
9.158,0.209,-0.913,0.0
8.753,0.198,-0.92,0.0
8.359,0.187,-0.925,0.0
8.019,0.178,-0.933,0.0
7.672,0.169,-0.935,0.0
7.4,0.161,-0.943,0.0
9.169,0.198,-0.907,0.0
8.791,0.188,-0.918,0.0
8.41,0.179,-0.925,0.0
8.076,0.17,-0.933,0.0
7.742,0.161,-0.938,0.0
7.432,0.153,-0.941,0.0
9.284,0.19,-0.912,0.0
8.843,0.179,-0.917,0.0
8.456,0.17,-0.923,0.0
8.092,0.161,-0.929,0.0
7.774,0.153,-0.935,0.0
7.476,0.145,-0.941,0.0
9.353,0.181,-0.911,0.0
8.926,0.171,-0.919,0.0
8.487,0.16,-0.92,0.0
8.158,0.153,-0.93,0.0
7.847,0.145,-0.938,0.0
7.519,0.138,-0.94,0.0
9.442,0.171,-0.912,0.0
8.995,0.162,-0.918,0.0
8.589,0.152,-0.924,0.0
8.219,0.144,-0.93,0.0
7.886,0.137,-0.936,0.0
7.569,0.13,-0.94,0.0
9.495,0.162,-0.909,0.0
9.039,0.152,-0.915,0.0
8.669,0.144,-0.925,0.0
8.287,0.136,-0.93,0.0
7.91,0.128,-0.931,0.0
7.644,0.122,-0.942,0.0
9.529,0.151,-0.904,0.0
9.123,0.143,-0.915,0.0
8.716,0.135,-0.922,0.0
8.36,0.128,-0.931,0.0
8.026,0.121,-0.937,0.0
7.69,0.114,-0.94,0.0
9.677,0.143,-0.909,0.0
9.262,0.135,-0.92,0.0
8.783,0.126,-0.92,0.0
8.418,0.119,-0.929,0.0
8.104,0.113,-0.939,0.0
7.748,0.107,-0.94,0.0
9.772,0.134,-0.908,0.0
9.326,0.126,-0.917,0.0
8.873,0.118,-0.921,0.0
8.483,0.111,-0.927,0.0
8.145,0.105,-0.935,0.0
7.809,0.099,-0.939,0.0
9.839,0.124,-0.904,0.0
9.353,0.116,-0.91,0.0
8.975,0.11,-0.922,0.0
8.554,0.103,-0.926,0.0
8.173,0.097,-0.929,0.0
7.862,0.091,-0.937,0.0
9.903,0.114,-0.899,0.0
9.43,0.107,-0.907,0.0
9.066,0.101,-0.921,0.0
8.674,0.095,-0.929,0.0
8.284,0.089,-0.933,0.0
7.932,0.084,-0.936,0.0
10.062,0.106,-0.902,0.0
9.624,0.099,-0.915,0.0
9.143,0.092,-0.919,0.0
8.719,0.086,-0.924,0.0
8.368,0.081,-0.932,0.0
8.041,0.077,-0.94,0.0
10.214,0.097,-0.904,0.0
9.701,0.09,-0.911,0.0
9.26,0.084,-0.919,0.0
8.818,0.078,-0.924,0.0
8.457,0.073,-0.932,0.0
8.104,0.069,-0.937,0.0
10.377,0.088,-0.906,0.0
9.833,0.081,-0.911,0.0
9.312,0.075,-0.913,0.0
8.959,0.071,-0.928,0.0
8.534,0.066,-0.93,0.0
8.164,0.061,-0.934,0.0
10.464,0.078,-0.901,0.0
9.932,0.072,-0.908,0.0
9.387,0.066,-0.909,0.0
9.03,0.062,-0.924,0.0
8.632,0.058,-0.93,0.0
8.265,0.054,-0.935,0.0
10.608,0.069,-0.9,0.0
10.05,0.063,-0.906,0.0
9.575,0.059,-0.915,0.0
9.139,0.054,-0.923,0.0
8.717,0.05,-0.928,0.0
8.32,0.046,-0.93,0.0
10.771,0.06,-0.899,0.0
10.197,0.055,-0.906,0.0
9.69,0.05,-0.913,0.0
9.262,0.046,-0.923,0.0
8.797,0.042,-0.924,0.0
8.418,0.039,-0.93,0.0
10.929,0.05,-0.898,0.0
10.348,0.046,-0.905,0.0
9.81,0.042,-0.911,0.0
9.323,0.038,-0.916,0.0
8.951,0.035,-0.928,0.0
8.533,0.032,-0.931,0.0
11.093,0.041,-0.896,0.0
10.487,0.037,-0.903,0.0
9.993,0.034,-0.914,0.0
9.431,0.03,-0.914,0.0
9.046,0.027,-0.925,0.0
8.629,0.024,-0.929,0.0
11.252,0.032,-0.893,0.0
10.656,0.028,-0.902,0.0
10.11,0.025,-0.91,0.0
9.607,0.022,-0.917,0.0
9.152,0.02,-0.922,0.0
8.736,0.017,-0.927,0.0
11.428,0.023,-0.89,0.0
10.81,0.019,-0.899,0.0
10.255,0.017,-0.908,0.0
9.713,0.014,-0.913,0.0
9.298,0.012,-0.923,0.0
8.865,0.01,-0.928,0.0
11.629,0.013,-0.888,0.0
10.996,0.011,-0.898,0.0
10.415,0.008,-0.906,0.0
9.886,0.006,-0.914,0.0
9.421,0.004,-0.921,0.0
9.005,0.003,-0.928,0.0
11.829,0.004,-0.885,0.0
11.173,0.002,-0.896,0.0
10.558,0.0,-0.902,0.0
10.015,0.0,-0.91,0.0
9.541,-0.002,-0.918,0.0
9.109,-0.003,-0.925,0.0
12.004,-0.004,-0.88,0.0
11.363,-0.006,-0.893,0.0
10.753,-0.007,-0.902,0.0
10.193,-0.008,-0.91,0.0
9.705,-0.009,-0.918,0.0
9.219,-0.01,-0.921,0.0
12.246,-0.013,-0.878,0.0
11.559,-0.014,-0.89,0.0
10.931,-0.015,-0.9,0.0
10.334,-0.016,-0.906,0.0
9.826,-0.017,-0.914,0.0
9.335,-0.017,-0.918,0.0
12.487,-0.023,-0.876,0.0
11.762,-0.023,-0.887,0.0
11.141,-0.023,-0.899,0.0
10.544,-0.024,-0.908,0.0
9.968,-0.024,-0.911,0.0
9.484,-0.024,-0.917,0.0
12.737,-0.032,-0.872,0.0
11.971,-0.032,-0.883,0.0
11.319,-0.032,-0.894,0.0
10.714,-0.031,-0.904,0.0
10.168,-0.031,-0.912,0.0
9.703,-0.031,-0.921,0.0
12.956,-0.041,-0.865,0.0
12.214,-0.04,-0.88,0.0
11.513,-0.04,-0.89,0.0
10.919,-0.039,-0.903,0.0
10.331,-0.038,-0.909,0.0
9.828,-0.038,-0.916,0.0
13.252,-0.05,-0.862,0.0
12.46,-0.049,-0.876,0.0
11.759,-0.048,-0.889,0.0
11.121,-0.047,-0.9,0.0
10.53,-0.045,-0.908,0.0
9.974,-0.044,-0.913,0.0
13.498,-0.059,-0.855,0.0
12.728,-0.058,-0.873,0.0
11.961,-0.056,-0.883,0.0
11.318,-0.054,-0.896,0.0
10.751,-0.053,-0.908,0.0
10.173,-0.051,-0.913,0.0
13.825,-0.069,-0.851,0.0
12.991,-0.066,-0.868,0.0
12.247,-0.064,-0.883,0.0
11.558,-0.061,-0.895,0.0
10.939,-0.059,-0.905,0.0
10.348,-0.057,-0.91,0.0
14.152,-0.078,-0.846,0.0
13.274,-0.074,-0.864,0.0
12.479,-0.071,-0.877,0.0
11.781,-0.069,-0.891,0.0
11.141,-0.066,-0.901,0.0
10.54,-0.064,-0.908,0.0
14.56,-0.087,-0.845,0.0
13.574,-0.083,-0.859,0.0
12.723,-0.079,-0.871,0.0
11.968,-0.075,-0.884,0.0
11.354,-0.073,-0.898,0.0
10.76,-0.07,-0.907,0.0
15.041,-0.097,-0.845,0.0
13.904,-0.091,-0.854,0.0
13.035,-0.087,-0.869,0.0
12.249,-0.083,-0.882,0.0
11.604,-0.08,-0.896,0.0
10.977,-0.076,-0.905,0.0
15.4,-0.106,-0.837,0.0
14.269,-0.1,-0.85,0.0
13.321,-0.094,-0.863,0.0
12.52,-0.09,-0.878,0.0
11.814,-0.086,-0.89,0.0
11.204,-0.082,-0.903,0.0
15.775,-0.115,-0.828,0.0
14.722,-0.109,-0.849,0.0
13.643,-0.102,-0.858,0.0
12.773,-0.096,-0.872,0.0
12.043,-0.092,-0.885,0.0
11.422,-0.088,-0.899,0.0
16.298,-0.125,-0.825,0.0
15.155,-0.117,-0.846,0.0
13.947,-0.109,-0.851,0.0
13.095,-0.103,-0.868,0.0
12.365,-0.099,-0.885,0.0
11.652,-0.094,-0.894,0.0
16.803,-0.134,-0.818,0.0
15.572,-0.125,-0.839,0.0
14.427,-0.117,-0.852,0.0
13.419,-0.11,-0.864,0.0
12.625,-0.105,-0.879,0.0
11.911,-0.099,-0.891,0.0
17.408,-0.144,-0.814,0.0
15.847,-0.132,-0.823,0.0
14.835,-0.125,-0.847,0.0
13.722,-0.116,-0.857,0.0
12.862,-0.11,-0.87,0.0
12.18,-0.105,-0.887,0.0
17.957,-0.153,-0.804,0.0
16.509,-0.142,-0.825,0.0
15.299,-0.132,-0.844,0.0
14.183,-0.124,-0.858,0.0
13.22,-0.116,-0.868,0.0
12.464,-0.11,-0.883,0.0
18.726,-0.164,-0.802,0.0
17.035,-0.15,-0.818,0.0
15.727,-0.139,-0.837,0.0
14.492,-0.129,-0.848,0.0
13.572,-0.122,-0.864,0.0
12.748,-0.115,-0.878,0.0
19.395,-0.173,-0.792,2.0
17.636,-0.159,-0.812,0.0
16.149,-0.146,-0.827,0.0
15.006,-0.136,-0.848,0.0
13.909,-0.127,-0.858,0.0
12.994,-0.119,-0.869,0.0
19.703,-0.179,-0.766,5.0
18.357,-0.168,-0.808,0.0
16.653,-0.153,-0.819,0.0
15.434,-0.142,-0.841,0.0
14.34,-0.133,-0.856,0.0
13.377,-0.124,-0.868,0.0
19.771,-0.182,-0.729,8.0
19.067,-0.176,-0.801,1.0
17.316,-0.16,-0.817,0.0
15.865,-0.148,-0.833,0.0
14.746,-0.138,-0.85,0.0
13.715,-0.128,-0.862,0.0
19.829,-0.184,-0.691,0.0
19.595,-0.182,-0.784,3.0
17.859,-0.167,-0.807,0.0
16.457,-0.154,-0.83,0.0
15.232,-0.143,-0.847,0.0
14.125,-0.133,-0.859,0.0
22.39,-0.208,-0.735,1.0
19.759,-0.184,-0.75,8.0
18.697,-0.175,-0.807,0.0
16.985,-0.159,-0.822,0.0
15.692,-0.147,-0.841,0.0
14.533,-0.137,-0.854,0.0
23.168,-0.216,-0.713,0.0
19.796,-0.185,-0.711,3.0
19.367,-0.181,-0.796,1.0
17.562,-0.164,-0.814,0.0
16.06,-0.15,-0.828,0.0
14.994,-0.14,-0.85,0.0
24.529,-0.227,-0.705,0.0
21.667,-0.201,-0.734,1.0
19.703,-0.183,-0.77,4.0
18.212,-0.169,-0.807,0.0
16.617,-0.154,-0.822,0.0
15.441,-0.143,-0.844,0.0
19.782,-0.182,-0.527,2.0
22.744,-0.209,-0.724,0.0
19.764,-0.182,-0.731,8.0
19.027,-0.175,-0.804,1.0
17.345,-0.159,-0.822,0.0
15.833,-0.145,-0.832,0.0
19.767,-0.179,-0.486,7.0
19.78,-0.179,-0.589,2.0
0.0,0.0,0.0,0.0
19.611,-0.177,-0.788,3.0
17.861,-0.161,-0.81,0.0
16.485,-0.149,-0.832,0.0
19.76,-0.176,-0.445,10.0
19.768,-0.176,-0.547,5.0
19.801,-0.176,-0.65,1.0
19.743,-0.175,-0.752,9.0
18.722,-0.166,-0.81,0.0
17.073,-0.151,-0.826,0.0
19.76,-0.172,-0.404,13.0
19.748,-0.172,-0.505,10.0
19.782,-0.172,-0.608,5.0
19.777,-0.171,-0.712,4.0
19.433,-0.168,-0.8,2.0
17.581,-0.151,-0.814,0.0
19.76,-0.168,-0.363,15.0
19.751,-0.167,-0.465,13.0
19.76,-0.167,-0.566,9.0
19.76,-0.166,-0.67,7.0
19.714,-0.165,-0.771,6.0
18.39,-0.153,-0.814,0.0
19.759,-0.162,-0.322,13.0
19.737,-0.162,-0.423,14.0
19.741,-0.161,-0.525,12.0
19.753,-0.16,-0.629,10.0
19.753,-0.16,-0.731,10.0
19.111,-0.154,-0.806,1.0
19.756,-0.156,-0.281,15.0
19.741,-0.155,-0.382,16.0
19.742,-0.155,-0.484,17.0
19.742,-0.154,-0.587,14.0
19.76,-0.153,-0.69,12.0
19.66,-0.151,-0.787,3.0
19.75,-0.15,-0.239,16.0
19.738,-0.148,-0.341,16.0
19.728,-0.147,-0.442,17.0
19.727,-0.146,-0.546,17.0
19.747,-0.145,-0.648,16.0
19.74,-0.144,-0.75,13.0
19.746,-0.142,-0.198,17.0
19.74,-0.141,-0.3,17.0
19.734,-0.14,-0.402,17.0
19.722,-0.138,-0.505,18.0
19.736,-0.137,-0.607,16.0
19.751,-0.136,-0.709,16.0
19.731,-0.134,-0.157,17.0
19.734,-0.132,-0.259,17.0
19.733,-0.131,-0.36,17.0
19.712,-0.13,-0.464,16.0
19.737,-0.128,-0.566,17.0
19.738,-0.127,-0.668,17.0
19.728,-0.125,-0.117,16.0
19.726,-0.123,-0.218,17.0
19.735,-0.122,-0.32,15.0
19.724,-0.12,-0.423,16.0
19.726,-0.119,-0.525,16.0
19.754,-0.117,-0.628,16.0
19.74,-0.115,-0.076,10.0
19.717,-0.113,-0.178,16.0
19.736,-0.112,-0.28,16.0
19.722,-0.11,-0.383,17.0
19.734,-0.109,-0.485,15.0
19.745,-0.107,-0.587,15.0
19.731,-0.104,-0.035,12.0
19.716,-0.103,-0.137,16.0
19.733,-0.101,-0.239,16.0
19.74,-0.099,-0.343,14.0
19.739,-0.097,-0.444,15.0
19.742,-0.096,-0.546,15.0
19.726,-0.093,0.004,14.0
19.712,-0.091,-0.096,14.0
19.718,-0.089,-0.198,16.0
19.733,-0.088,-0.302,15.0
19.752,-0.086,-0.404,14.0
19.748,-0.084,-0.506,13.0
19.716,-0.081,0.044,15.0
19.715,-0.079,-0.056,13.0
19.719,-0.077,-0.158,16.0
19.734,-0.075,-0.262,15.0
19.754,-0.073,-0.364,12.0
19.762,-0.071,-0.466,9.0
19.712,-0.069,0.084,15.0
19.703,-0.066,-0.016,16.0
19.718,-0.064,-0.118,15.0
19.73,-0.062,-0.222,14.0
19.763,-0.06,-0.324,14.0
19.771,-0.058,-0.426,2.0
19.7,-0.055,0.124,17.0
19.706,-0.053,0.023,16.0
19.728,-0.051,-0.078,14.0
19.726,-0.048,-0.182,14.0
19.751,-0.046,-0.284,11.0
19.788,-0.044,-0.386,0.0
19.686,-0.041,0.164,12.0
19.705,-0.039,0.063,15.0
19.707,-0.036,-0.038,16.0
19.727,-0.034,-0.142,13.0
19.758,-0.032,-0.244,6.0
32.308,-0.048,-0.567,0.0
19.646,-0.026,0.203,16.0
19.689,-0.024,0.102,12.0
19.708,-0.021,0.0,15.0
19.738,-0.019,-0.102,8.0
19.758,-0.016,-0.205,2.0
0.0,0.0,0.0,0.0
19.638,-0.011,0.243,14.0
19.731,-0.008,0.142,3.0
19.722,-0.005,0.04,9.0
19.741,-0.003,-0.063,9.0
19.765,0.0,-0.165,0.0
0.0,0.0,0.0,0.0
19.632,0.004,0.282,15.0
19.654,0.007,0.18,11.0
19.779,0.01,0.079,3.0
19.738,0.013,-0.024,10.0
19.791,0.016,-0.126,1.0
19.781,0.019,-0.229,1.0
19.621,0.021,0.32,16.0
19.631,0.024,0.219,16.0
19.741,0.027,0.118,11.0
19.733,0.03,0.014,15.0
19.739,0.033,-0.087,10.0
19.751,0.036,-0.19,8.0
19.623,0.039,0.359,16.0
19.61,0.042,0.257,12.0
19.733,0.045,0.156,14.0
19.733,0.048,0.052,16.0
19.754,0.051,-0.049,54.0
19.756,0.054,-0.152,52.0
19.613,0.057,0.397,15.0
19.625,0.06,0.295,12.0
19.626,0.063,0.193,14.0
19.731,0.067,0.09,21.0
19.772,0.07,-0.011,66.0
19.763,0.073,-0.114,44.0
19.622,0.076,0.435,27.0
19.618,0.079,0.333,17.0
19.62,0.082,0.231,16.0
19.673,0.086,0.128,13.0
19.704,0.089,0.026,12.0
19.737,0.093,-0.076,2.0
19.618,0.095,0.472,24.0
19.617,0.098,0.37,26.0
19.61,0.102,0.268,15.0
19.653,0.105,0.164,14.0
19.658,0.109,0.063,13.0
19.664,0.112,-0.039,10.0
19.609,0.115,0.508,19.0
19.614,0.119,0.407,18.0
19.606,0.122,0.305,12.0
19.645,0.126,0.201,16.0
19.646,0.129,0.099,15.0
19.65,0.133,-0.002,15.0
19.599,0.136,0.545,17.0
19.604,0.139,0.443,13.0
19.614,0.143,0.341,10.0
19.636,0.147,0.237,12.0
19.65,0.15,0.135,14.0
19.647,0.154,0.033,16.0
19.598,0.157,0.581,12.0
19.614,0.161,0.479,11.0
19.626,0.164,0.377,9.0
19.63,0.168,0.273,10.0
19.661,0.172,0.171,13.0
19.658,0.176,0.068,13.0
19.645,0.179,0.618,10.0
19.647,0.183,0.515,9.0
19.661,0.187,0.413,9.0
19.672,0.191,0.309,9.0
19.68,0.195,0.207,10.0
19.683,0.198,0.104,10.0
19.674,0.202,0.654,11.0
19.69,0.206,0.552,10.0
19.703,0.21,0.449,10.0
19.725,0.214,0.345,11.0
19.74,0.218,0.242,13.0
19.763,0.222,0.139,24.0
19.647,0.225,0.688,13.0
19.66,0.229,0.586,10.0
19.679,0.233,0.483,10.0
19.693,0.237,0.379,10.0
19.723,0.242,0.276,12.0
19.754,0.246,0.174,30.0
19.66,0.248,0.723,12.0
19.644,0.252,0.62,15.0
19.656,0.257,0.517,13.0
19.676,0.261,0.413,10.0
19.704,0.266,0.311,13.0
19.759,0.27,0.208,20.0
19.689,0.273,0.758,1.0
19.641,0.277,0.654,13.0
19.654,0.281,0.551,13.0
19.693,0.286,0.447,10.0
19.707,0.29,0.344,13.0
19.753,0.295,0.242,2.0
121.697,1.846,4.897,13.0
19.659,0.302,0.687,8.0
19.673,0.306,0.585,10.0
19.688,0.311,0.48,7.0
19.715,0.316,0.377,2.0
55.2,0.896,0.768,2.0
55.24,0.908,2.314,12.0
55.22,0.92,2.023,31.0
55.186,0.931,1.732,25.0
55.177,0.943,1.436,53.0
55.165,0.956,1.147,70.0
55.173,0.968,0.857,73.0
55.191,0.98,2.403,76.0
55.18,0.992,2.112,72.0
55.172,1.004,1.822,62.0
55.173,1.016,1.526,51.0
55.193,1.029,1.237,48.0
55.211,1.042,0.947,35.0
121.581,2.323,5.491,20.0
121.289,2.344,4.839,13.0
135.285,2.644,4.683,22.0
135.181,2.673,3.955,14.0
185.298,3.708,4.447,6.0
179.349,3.631,3.361,27.0
121.625,2.49,5.687,23.0
121.392,2.513,5.035,25.0
135.227,2.83,4.896,10.0
135.253,2.861,4.169,17.0
163.366,3.494,4.174,6.0
179.224,3.874,3.635,35.0
114.428,2.501,5.528,5.0
121.428,2.682,5.225,3.0
121.114,2.703,4.57,24.0
114.14,2.573,3.693,13.0
138.753,3.161,3.756,24.0
98.566,2.268,2.148,11.0
129.601,3.014,6.457,13.0
128.98,3.031,5.744,7.0
121.263,2.879,4.761,11.0
114.029,2.734,3.861,16.0
99.649,2.412,2.847,41.0
99.679,2.437,2.322,55.0
114.525,2.829,5.879,24.0
128.934,3.215,5.933,14.0
45.505,1.145,1.853,1.0
45.503,1.156,1.607,5.0
45.487,1.166,1.365,48.0
45.504,1.178,1.125,89.0
43.686,1.142,2.305,93.0
43.708,1.152,2.074,112.0
0.0,0.0,0.0,0.0
0.0,0.0,0.0,0.0
0.0,0.0,0.0,0.0
41.925,1.146,1.096,121.0
0.0,0.0,0.0,0.0
0.0,0.0,0.0,0.0
40.102,1.126,1.747,46.0
40.127,1.137,1.53,115.0
40.124,1.147,1.317,119.0
40.112,1.156,1.104,139.0
40.115,1.167,2.229,133.0
40.127,1.176,2.016,105.0
40.115,1.186,1.802,107.0
40.11,1.196,1.584,150.0
40.108,1.206,1.371,150.0
40.113,1.216,1.158,148.0
40.115,1.228,2.284,133.0
40.121,1.238,2.07,113.0
40.118,1.247,1.856,92.0
40.118,1.257,1.639,103.0
40.115,1.268,1.425,150.0
40.116,1.277,1.211,150.0
40.118,1.289,2.337,132.0
40.123,1.299,2.123,112.0
40.101,1.308,1.908,71.0
40.092,1.318,1.689,13.0
40.108,1.329,1.476,3.0
120.767,4.032,3.801,13.0
0.0,0.0,0.0,0.0
120.303,4.082,6.52,9.0
121.052,4.138,5.914,22.0
119.927,4.13,5.206,21.0
120.21,4.171,4.575,18.0
120.76,4.221,3.952,24.0
41.988,1.48,2.553,18.0
135.183,4.799,7.494,23.0
121.086,4.329,6.064,23.0
120.174,4.327,5.363,21.0
120.262,4.36,4.724,17.0
120.681,4.405,4.094,8.0
45.581,1.678,2.826,65.0
121.263,4.496,6.869,20.0
121.041,4.519,6.207,25.0
134.342,5.048,6.154,21.0
120.357,4.554,4.869,6.0
179.021,6.818,6.283,6.0
0.0,0.0,0.0,0.0
121.09,4.681,6.999,20.0
120.949,4.706,6.341,23.0
134.391,5.263,6.309,15.0
179.012,7.056,7.444,16.0
178.735,7.09,6.474,11.0
45.519,1.821,2.927,3.0
120.553,4.852,7.103,20.0
120.76,4.892,6.465,21.0
180.803,7.369,8.689,7.0
179.338,7.355,7.654,18.0
178.688,7.373,6.666,18.0
0.0,0.0,0.0,0.0
120.22,5.032,7.213,18.0
23.608,0.994,1.289,0.0
23.591,0.999,1.158,4.0
23.596,1.005,1.032,26.0
23.616,1.012,0.905,39.0
23.596,1.02,1.568,43.0
23.586,1.025,1.44,45.0
23.573,1.03,1.311,43.0
23.575,1.036,1.182,44.0
23.569,1.042,1.054,54.0
23.582,1.049,0.928,64.0
23.57,1.057,1.59,84.0
23.562,1.062,1.462,76.0
23.56,1.068,1.334,77.0
23.553,1.074,1.204,65.0
23.574,1.081,1.078,73.0
23.568,1.086,0.95,68.0
23.558,1.094,1.612,70.0
23.558,1.1,1.484,54.0
23.57,1.106,1.357,48.0
23.572,1.113,1.227,46.0
23.586,1.119,1.1,41.0
23.602,1.126,0.973,40.0
41.964,2.019,2.911,3.0
0.0,0.0,0.0,0.0
23.586,1.146,1.379,4.0
23.576,1.151,1.249,1.0
23.619,1.16,1.123,0.0
179.661,8.871,7.571,19.0
40.182,1.999,2.823,91.0
43.773,2.189,2.837,137.0
0.0,0.0,0.0,0.0
0.0,0.0,0.0,0.0
0.0,0.0,0.0,0.0
180.154,9.191,7.747,12.0
40.202,2.067,2.858,116.0
0.0,0.0,0.0,0.0
200.202,10.396,12.057,8.0
0.0,0.0,0.0,0.0
0.0,0.0,0.0,0.0
200.188,10.543,8.77,4.0
40.205,2.134,2.892,111.0
42.881,2.286,2.85,137.0
45.545,2.439,2.778,2.0
0.0,0.0,0.0,0.0
0.0,0.0,0.0,0.0
0.0,0.0,0.0,0.0
40.206,2.2,2.923,111.0
42.005,2.309,2.823,131.0
45.574,2.517,2.814,18.0
0.0,0.0,0.0,0.0
0.0,0.0,0.0,0.0
0.0,0.0,0.0,0.0
40.202,2.267,2.952,120.0
41.985,2.378,2.853,136.0
45.569,2.593,2.847,93.0
0.0,0.0,0.0,0.0
0.0,0.0,0.0,0.0
204.729,11.801,9.417,7.0
40.171,2.333,2.977,78.0
0.0,0.0,0.0,0.0
45.558,2.668,2.877,107.0
0.0,0.0,0.0,0.0
0.0,0.0,0.0,0.0
203.786,12.086,9.504,14.0
40.181,2.401,3.004,41.0
0.0,0.0,0.0,0.0
0.0,0.0,0.0,0.0
112.529,6.805,6.549,1.0
204.922,12.445,10.804,6.0
200.956,12.255,9.495,5.0
40.157,2.466,3.027,7.0
40.181,2.478,2.807,89.0
0.0,0.0,0.0,0.0
112.362,6.981,6.603,2.0
112.299,7.005,5.984,6.0
112.349,7.036,5.371,5.0
40.232,2.538,3.055,1.0
40.181,2.545,2.829,87.0
43.773,2.782,2.841,120.0
100.142,6.388,5.94,14.0
99.96,6.401,5.38,24.0
99.977,6.427,4.832,28.0
99.91,6.47,7.638,38.0
40.199,2.612,2.851,106.0
43.775,2.855,2.864,143.0
99.947,6.542,5.977,35.0
99.955,6.566,5.428,37.0
99.947,6.59,4.877,35.0
99.943,6.637,7.688,33.0
40.192,2.678,2.869,119.0
0.0,0.0,0.0,0.0
45.52,3.054,2.742,103.0
99.976,6.732,5.473,33.0
99.959,6.755,4.922,35.0
99.944,6.803,7.732,35.0
40.185,2.744,2.886,104.0
0.0,0.0,0.0,0.0
45.545,3.13,2.763,150.0
99.952,6.894,5.511,29.0
99.966,6.919,4.961,32.0
99.933,6.966,7.77,34.0
40.185,2.81,2.901,117.0
0.0,0.0,0.0,0.0
43.764,3.08,2.671,145.0
99.948,7.057,5.548,23.0
99.983,7.083,4.998,21.0
99.909,7.127,7.803,31.0
40.184,2.875,2.915,128.0
0.0,0.0,0.0,0.0
43.759,3.15,2.685,150.0
45.467,3.284,2.538,150.0
45.469,3.295,2.287,150.0
99.898,7.289,7.832,15.0
40.174,2.939,2.926,124.0
41.951,3.079,2.823,86.0
41.934,3.086,2.584,49.0
43.671,3.224,2.449,30.0
43.672,3.234,2.208,75.0
99.025,7.383,7.79,15.0
40.176,3.004,2.936,135.0
0.0,0.0,0.0,0.0
41.938,3.153,2.595,99.0
43.668,3.293,2.459,140.0
43.674,3.304,2.218,126.0
99.077,7.546,7.815,8.0
40.175,3.068,2.945,122.0
40.166,3.076,2.721,150.0
0.0,0.0,0.0,0.0
41.871,3.224,2.366,42.0
41.881,3.234,2.134,87.0
94.857,7.375,7.501,12.0
40.173,3.132,2.951,93.0
40.168,3.14,2.727,150.0
41.857,3.281,2.605,123.0
41.877,3.292,2.373,124.0
41.883,3.301,2.14,111.0
94.846,7.525,7.512,16.0
40.175,3.195,2.957,9.0
40.141,3.201,2.731,37.0
40.101,3.206,2.5,9.0
40.073,3.212,2.275,36.0
40.075,3.221,2.052,69.0
98.398,7.96,7.803,1.0
40.089,3.251,2.954,102.0
40.084,3.259,2.73,150.0
40.082,3.267,2.502,126.0
40.089,3.276,2.278,122.0
40.086,3.284,2.055,135.0
97.198,8.016,7.713,11.0
40.088,3.313,2.956,89.0
40.081,3.32,2.731,147.0
40.079,3.328,2.503,123.0
40.089,3.337,2.279,112.0
40.089,3.345,2.056,105.0
87.116,7.316,6.914,3.0
40.074,3.373,2.955,75.0
40.075,3.381,2.731,150.0
40.085,3.389,2.503,112.0
40.084,3.397,2.278,89.0
40.076,3.404,2.054,43.0
87.044,7.442,6.906,31.0
87.072,7.46,6.419,60.0
87.069,7.476,5.93,72.0
87.058,7.492,5.433,100.0
87.066,7.51,4.945,96.0
87.07,7.527,4.458,52.0
87.075,7.575,6.903,11.0
87.044,7.587,6.411,17.0
87.057,7.605,5.922,8.0
87.085,7.624,5.426,5.0
87.084,7.641,4.938,3.0
87.079,7.657,4.45,2.0
82.938,7.337,6.566,4.0
82.914,7.351,6.096,4.0
82.943,7.368,5.632,5.0
82.967,7.385,5.159,8.0
83.014,7.404,4.696,7.0
82.924,7.412,4.226,8.0
82.883,7.453,6.549,39.0
82.889,7.468,6.082,58.0
82.897,7.483,5.616,87.0
82.898,7.498,5.141,98.0
82.898,7.513,4.675,87.0
82.898,7.528,4.211,52.0
82.898,7.573,6.534,11.0
82.882,7.586,6.065,14.0
82.92,7.604,5.601,8.0
82.93,7.619,5.126,8.0
82.96,7.637,4.661,5.0
82.914,7.647,4.193,105.0
82.999,7.7,6.524,2.0
82.888,7.703,6.046,125.0
83.212,7.747,5.601,1.0
86.019,8.022,5.296,3.0
86.014,8.037,4.812,5.0
82.923,7.763,4.172,32.0
85.116,8.014,6.668,11.0
82.907,7.82,6.026,150.0
84.872,8.019,5.689,10.0
84.719,8.018,5.192,10.0
84.683,8.029,4.713,9.0
82.924,7.877,4.148,7.0
84.212,8.045,6.571,11.0
82.882,7.93,5.998,38.0
83.859,8.036,5.594,10.0
83.706,8.035,5.103,10.0
83.55,8.034,4.622,9.0
82.993,7.994,4.124,5.0
83.315,8.071,6.472,8.0
82.863,8.039,5.968,18.0
83.139,8.078,5.517,3.0
83.027,8.081,5.032,2.0
75.15,7.326,4.129,1.0
75.162,7.34,3.706,2.0
75.111,7.375,5.807,4.0
75.092,7.383,5.38,5.0
75.081,7.393,4.953,5.0
75.097,7.406,4.522,6.0
75.098,7.418,4.096,7.0
75.075,7.428,3.672,9.0
75.056,7.466,5.771,27.0
75.055,7.476,5.345,35.0
75.049,7.487,4.919,42.0
75.055,7.498,4.486,48.0
75.048,7.509,4.061,98.0
75.054,7.521,3.638,99.0
75.038,7.559,5.736,21.0
75.036,7.568,5.31,20.0
75.044,7.58,4.884,19.0
75.016,7.587,4.449,17.0
75.06,7.603,4.027,25.0
75.072,7.615,3.603,11.0
75.142,7.662,5.707,4.0
75.077,7.665,5.275,4.0
75.127,7.68,4.852,4.0
75.186,7.696,4.421,3.0
75.048,7.692,3.988,32.0
75.062,7.705,3.563,3.0
70.946,7.319,5.351,2.0
71.018,7.335,4.953,1.0
70.949,7.337,4.545,2.0
70.954,7.347,4.134,2.0
70.997,7.361,3.735,2.0
71.001,7.371,3.333,3.0
70.921,7.399,5.31,7.0
70.916,7.407,4.906,7.0
70.918,7.415,4.503,7.0
70.895,7.422,4.091,9.0
70.882,7.43,3.687,9.0
70.91,7.443,3.287,11.0
70.867,7.474,5.265,29.0
70.883,7.484,4.861,37.0
70.882,7.492,4.458,46.0
70.873,7.499,4.047,83.0
70.874,7.508,3.645,127.0
70.889,7.519,3.242,150.0
70.87,7.552,5.221,26.0
70.88,7.561,4.817,24.0
70.862,7.566,4.413,23.0
70.867,7.575,4.002,23.0
70.881,7.585,3.6,20.0
70.9,7.596,3.199,16.0
70.911,7.631,5.179,6.0
70.941,7.642,4.775,6.0
70.827,7.637,4.364,6.0
70.917,7.656,3.957,6.0
70.938,7.666,3.555,5.0
70.928,7.674,3.151,4.0
70.952,7.71,5.131,2.0
71.035,7.726,4.732,2.0
71.052,7.735,4.328,2.0
71.019,7.739,3.914,1.0
70.976,7.742,3.507,3.0
73.902,8.07,3.232,1.0
73.571,8.068,5.269,9.0
73.632,8.081,4.852,10.0
73.493,8.073,4.423,10.0
73.29,8.059,3.986,10.0
73.114,8.047,3.559,9.0
73.202,8.065,3.147,9.0
72.631,8.035,5.147,9.0
72.915,8.073,4.751,8.0
72.981,8.087,4.338,10.0
72.889,8.084,3.909,11.0
72.631,8.062,3.481,9.0
72.47,8.052,3.06,7.0
72.01,8.033,5.047,8.0
72.188,8.059,4.647,6.0
72.367,8.085,4.244,9.0
72.411,8.096,3.826,10.0
72.271,8.087,3.407,10.0
72.013,8.066,2.985,5.0
71.696,8.061,4.968,8.0
71.455,8.04,4.543,3.0
71.633,8.066,4.143,3.0
71.853,8.097,3.739,7.0
71.858,8.104,3.329,9.0
71.571,8.079,2.907,3.0
71.312,8.08,4.882,9.0
71.092,8.059,4.46,8.0
70.921,8.045,4.044,7.0
71.037,8.064,3.637,3.0
71.315,8.102,3.244,5.0
57.097,6.492,2.271,3.0
70.855,8.085,4.79,11.0
70.78,8.081,4.38,10.0
70.603,8.066,3.965,8.0
70.461,8.055,3.547,7.0
70.653,8.082,3.152,7.0
56.682,6.489,2.206,1.0
70.341,8.081,4.694,4.0
70.449,8.097,4.298,9.0
70.362,8.091,3.89,9.0
70.115,8.068,3.468,6.0
69.984,8.058,3.061,3.0
56.332,6.49,2.143,3.0
69.55,8.04,4.579,2.0
69.992,8.095,4.207,3.0
70.038,8.104,3.809,4.0
69.978,8.102,3.397,7.0
69.727,8.078,2.987,2.0
55.996,6.491,2.079,5.0
63.223,7.353,4.104,2.0
63.205,7.353,3.741,2.0
63.239,7.36,3.381,3.0
63.228,7.363,3.011,2.0
55.6,6.478,2.33,1.0
55.668,6.49,2.015,6.0
63.203,7.391,4.044,4.0
63.202,7.394,3.681,4.0
63.163,7.392,3.316,4.0
63.159,7.395,2.947,4.0
55.399,6.49,2.268,5.0
55.427,6.497,1.952,6.0
63.116,7.42,3.976,7.0
63.172,7.429,3.616,7.0
63.124,7.426,3.251,7.0
63.137,7.431,2.884,6.0
55.104,6.488,2.202,8.0
55.151,6.497,1.888,11.0
63.098,7.454,3.912,13.0
63.124,7.459,3.551,13.0
63.129,7.462,3.189,14.0
63.129,7.465,2.82,13.0
54.875,6.491,2.138,9.0
54.906,6.498,1.825,11.0
63.11,7.488,3.849,26.0
63.107,7.49,3.486,26.0
63.113,7.492,3.125,27.0
63.114,7.495,2.756,19.0
54.658,6.493,2.073,13.0
54.672,6.498,1.761,12.0
63.108,7.519,3.783,90.0
63.1,7.519,3.421,60.0
63.108,7.522,3.059,74.0
63.093,7.522,2.69,22.0
54.467,6.496,2.01,13.0
54.506,6.503,1.7,11.0
63.1,7.546,3.717,95.0
63.106,7.547,3.355,117.0
63.1,7.548,2.993,140.0
54.173,6.482,2.252,3.0
54.267,6.495,1.946,10.0
54.314,6.502,1.637,12.0
63.105,7.571,3.65,32.0
63.103,7.572,3.288,40.0
63.104,7.573,2.925,38.0
54.066,6.489,2.191,4.0
54.105,6.495,1.882,11.0
54.148,6.502,1.574,12.0
63.106,7.594,3.583,25.0
63.107,7.594,3.22,22.0
63.113,7.595,2.857,24.0
53.922,6.49,2.126,3.0
53.982,6.499,1.819,12.0
54.022,6.505,1.511,12.0
63.105,7.613,3.513,18.0
63.09,7.611,3.15,14.0
63.107,7.614,2.788,11.0
53.779,6.489,2.061,5.0
53.862,6.5,1.756,12.0
53.898,6.505,1.448,12.0
63.103,7.629,3.443,13.0
63.112,7.63,3.081,10.0
63.081,7.627,2.717,3.0
53.706,6.493,1.999,11.0
53.771,6.502,1.693,13.0
53.837,6.511,1.386,12.0
63.095,7.642,3.372,9.0
63.116,7.644,3.01,8.0
53.576,6.488,2.247,3.0
53.635,6.496,1.937,15.0
53.682,6.502,1.63,15.0
53.751,6.511,1.324,12.0
63.101,7.654,3.3,7.0
63.126,7.656,2.939,7.0
53.514,6.49,2.184,5.0
53.595,6.499,1.874,13.0
53.66,6.507,1.568,13.0
53.711,6.514,1.262,13.0
63.162,7.67,3.231,5.0
63.156,7.668,2.868,6.0
53.509,6.496,2.122,7.0
53.571,6.503,1.811,11.0
53.621,6.508,1.505,12.0
53.651,6.512,1.198,13.0
63.153,7.674,3.157,6.0
63.13,7.669,2.793,4.0
53.503,6.499,2.059,9.0
53.558,6.505,1.748,12.0
53.613,6.511,1.442,12.0
53.671,6.518,1.136,12.0
63.141,7.675,3.082,6.0
53.426,6.492,2.301,2.0
53.484,6.498,1.996,9.0
53.535,6.503,1.685,12.0
53.599,6.51,1.38,13.0
53.679,6.519,1.074,13.0
63.136,7.673,3.008,5.0
53.439,6.493,2.239,4.0
53.547,6.504,1.936,8.0
53.578,6.507,1.624,13.0
53.639,6.513,1.318,15.0
53.693,6.519,1.011,12.0
63.145,7.671,2.934,5.0
53.487,6.495,2.178,5.0
53.562,6.503,1.873,11.0
53.615,6.508,1.562,14.0
53.681,6.514,1.256,14.0
53.742,6.521,0.95,12.0
63.146,7.665,2.859,6.0
53.552,6.498,2.117,9.0
53.61,6.503,1.812,10.0
53.677,6.509,1.5,13.0
53.76,6.517,1.194,12.0
53.831,6.525,0.887,14.0
63.125,7.653,2.783,5.0
53.62,6.498,2.056,11.0
53.691,6.504,1.75,12.0
53.773,6.511,1.439,13.0
53.855,6.52,1.132,13.0
53.907,6.524,0.824,12.0
53.608,6.489,2.301,1.0
53.71,6.498,1.996,10.0
53.798,6.506,1.69,13.0
53.879,6.513,1.378,13.0
53.956,6.52,1.071,13.0
53.992,6.523,0.762,11.0
53.726,6.49,2.242,1.0
53.83,6.499,1.936,11.0
53.92,6.507,1.63,12.0
53.985,6.512,1.317,15.0
54.071,6.52,1.009,13.0
54.123,6.524,0.699,12.0
53.87,6.492,2.183,1.0
53.987,6.502,1.877,12.0
54.075,6.51,1.57,13.0
54.124,6.513,1.255,13.0
54.235,6.523,0.947,12.0
54.303,6.529,0.636,12.0
54.073,6.498,2.126,6.0
54.148,6.503,1.818,12.0
54.228,6.509,1.509,12.0
54.311,6.516,1.195,13.0
54.407,6.524,0.885,14.0
54.462,6.528,0.574,11.0
54.249,6.499,2.069,9.0
54.344,6.506,1.76,13.0
54.446,6.514,1.45,11.0
54.514,6.519,1.135,13.0
54.578,6.523,0.823,12.0
54.647,6.529,0.511,11.0
54.479,6.503,2.012,13.0
54.581,6.511,1.703,13.0
54.644,6.514,1.391,13.0
54.72,6.52,1.074,13.0
54.816,6.527,0.762,13.0
54.9,6.534,0.448,14.0
54.704,6.504,1.955,12.0
54.804,6.511,1.644,12.0
54.89,6.517,1.331,13.0
54.949,6.52,1.013,12.0
55.056,6.529,0.699,12.0
55.138,6.535,0.385,13.0
54.958,6.506,1.9,12.0
55.046,6.512,1.587,9.0
55.131,6.517,1.274,11.0
55.25,6.526,0.954,14.0
55.342,6.533,0.639,11.0
55.428,6.539,0.322,5.0
55.237,6.508,1.844,11.0
55.345,6.515,1.53,11.0
55.458,6.523,1.216,13.0
55.559,6.53,0.893,12.0
55.674,6.539,0.577,13.0
51.338,6.026,0.238,2.0
55.554,6.511,1.789,11.0
55.665,6.519,1.474,12.0
55.791,6.528,1.158,12.0
55.877,6.533,0.834,12.0
55.963,6.538,0.514,12.0
51.334,5.993,0.178,5.0
55.858,6.511,1.734,12.0
55.993,6.521,1.417,14.0
56.083,6.525,1.098,14.0
56.214,6.535,0.774,12.0
56.296,6.539,0.452,12.0
46.56,5.404,0.108,11.0
56.225,6.514,1.68,11.0
56.338,6.521,1.361,12.0
56.504,6.534,1.042,10.0
56.593,6.538,0.714,12.0
56.66,6.541,0.391,7.0
46.382,5.35,0.055,5.0
56.597,6.516,1.626,10.0
56.738,6.525,1.306,7.0
56.858,6.532,0.984,9.0
56.976,6.539,0.654,8.0
51.442,5.899,0.296,5.0
37.187,4.261,0.002,15.0
57.016,6.519,1.575,10.0
57.162,6.529,1.251,8.0
57.286,6.536,0.926,10.0
57.37,6.538,0.593,8.0
51.393,5.852,0.238,9.0
37.201,4.232,-0.04,5.0
57.449,6.521,1.521,9.0
57.594,6.529,1.196,11.0
57.698,6.534,0.868,7.0
57.788,6.538,0.533,6.0
47.109,5.324,0.166,3.0
42.434,4.791,-0.092,5.0
57.912,6.523,1.469,9.0
58.02,6.527,1.141,9.0
58.158,6.535,0.811,10.0
58.273,6.541,0.474,6.0
46.46,5.209,0.112,16.0
38.937,4.361,-0.127,14.0
58.368,6.52,1.417,9.0
58.501,6.527,1.086,8.0
58.638,6.534,0.754,7.0
58.707,6.534,0.413,4.0
45.938,5.107,0.061,20.0
37.837,4.202,-0.165,13.0
58.901,6.523,1.366,11.0
58.994,6.525,1.032,10.0
59.107,6.529,0.696,8.0
59.157,6.527,0.353,2.0
44.692,4.925,0.012,18.0
37.711,4.151,-0.204,20.0
59.403,6.52,1.314,5.0
59.536,6.525,0.978,4.0
59.613,6.525,0.639,4.0
51.111,5.587,0.251,1.0
43.712,4.772,-0.034,18.0
37.578,4.098,-0.243,23.0
60.011,6.524,1.265,5.0
60.097,6.523,0.924,3.0
60.192,6.525,0.582,1.0
48.078,5.205,0.186,7.0
0.0,0.0,0.0,0.0
37.205,4.017,-0.279,13.0
60.655,6.528,1.216,4.0
60.752,6.529,0.872,6.0
60.957,6.541,0.527,6.0
46.535,4.986,0.132,12.0
41.874,4.481,-0.119,4.0
34.727,3.711,-0.296,8.0
61.281,6.526,1.166,11.0
61.461,6.535,0.819,10.0
61.652,6.545,0.47,8.0
46.436,4.923,0.085,20.0
39.173,4.146,-0.15,18.0
0.0,0.0,0.0,0.0
62.029,6.533,1.118,12.0
62.189,6.539,0.767,11.0
62.327,6.543,0.414,3.0
45.667,4.787,0.039,21.0
39.144,4.097,-0.189,14.0
32.199,3.365,-0.338,9.0
62.711,6.529,1.069,9.0
62.91,6.539,0.715,14.0
63.056,6.543,0.358,2.0
44.983,4.66,-0.004,19.0
38.679,4.001,-0.223,14.0
31.218,3.224,-0.358,9.0
63.465,6.529,1.022,11.0
63.623,6.534,0.663,9.0
52.789,5.412,0.25,2.0
44.249,4.529,-0.046,19.0
37.901,3.872,-0.255,6.0
30.224,3.083,-0.375,8.0
64.228,6.525,0.975,11.0
64.378,6.528,0.61,6.0
47.413,4.799,0.18,7.0
44.225,4.468,-0.087,18.0
35.411,3.572,-0.27,2.0
29.487,2.969,-0.393,8.0
65.087,6.527,0.928,6.0
65.294,6.534,0.56,3.0
47.519,4.747,0.138,21.0
44.116,4.399,-0.125,5.0
34.751,3.459,-0.296,6.0
28.783,2.86,-0.408,7.0
65.999,6.53,0.884,8.0
66.171,6.534,0.51,6.0
46.941,4.626,0.096,21.0
40.509,3.985,-0.15,15.0
33.833,3.322,-0.317,11.0
27.796,2.724,-0.418,7.0
66.918,6.529,0.839,8.0
49.886,4.857,0.342,4.0
46.284,4.497,0.056,21.0
40.165,3.895,-0.182,15.0
32.117,3.109,-0.328,5.0
27.011,2.609,-0.429,7.0
67.932,6.531,0.795,8.0
53.754,5.157,0.324,5.0
45.956,4.4,0.017,20.0
39.743,3.797,-0.213,15.0
31.41,2.995,-0.346,9.0
26.241,2.497,-0.438,6.0
68.996,6.533,0.752,7.0
52.945,5.002,0.278,2.0
45.899,4.327,-0.018,20.0
0.0,0.0,0.0,0.0
31.055,2.915,-0.366,9.0
25.609,2.399,-0.447,6.0
70.088,6.533,0.71,9.0
52.983,4.927,0.237,2.0
45.911,4.259,-0.053,20.0
37.298,3.453,-0.258,5.0
30.223,2.792,-0.38,8.0
25.195,2.322,-0.459,6.0
71.249,6.533,0.667,8.0
47.526,4.347,0.177,21.0
45.859,4.185,-0.087,20.0
36.59,3.331,-0.28,6.0
29.436,2.674,-0.391,8.0
24.854,2.252,-0.471,6.0
72.454,6.53,0.626,5.0
47.17,4.241,0.141,21.0
0.0,0.0,0.0,0.0
34.965,3.128,-0.293,11.0
28.909,2.58,-0.405,7.0
24.43,2.175,-0.48,8.0
73.76,6.531,0.586,8.0
47.137,4.163,0.109,16.0
40.026,3.526,-0.132,26.0
34.302,3.014,-0.31,9.0
28.317,2.482,-0.416,7.0
24.097,2.107,-0.489,10.0
53.963,4.691,0.393,2.0
40.111,3.478,0.066,106.0
40.02,3.461,-0.158,47.0
0.0,0.0,0.0,0.0
27.882,2.399,-0.427,7.0
23.848,2.047,-0.499,5.0
40.106,3.421,0.267,123.0
40.11,3.412,0.041,150.0
40.039,3.397,-0.183,56.0
32.144,2.719,-0.331,5.0
27.222,2.297,-0.433,7.0
23.844,2.006,-0.514,5.0
40.106,3.354,0.243,142.0
40.101,3.344,0.017,126.0
40.0,3.326,-0.207,33.0
32.112,2.662,-0.35,10.0
26.684,2.206,-0.441,6.0
23.735,1.957,-0.525,1.0
40.112,3.286,0.22,143.0
40.017,3.269,-0.005,52.0
39.77,3.239,-0.228,15.0
31.453,2.554,-0.36,9.0
26.22,2.123,-0.447,6.0
19.841,1.602,-0.45,3.0
41.903,3.361,0.207,139.0
40.107,3.207,-0.026,81.0
0.0,0.0,0.0,0.0
31.017,2.465,-0.371,9.0
25.93,2.054,-0.456,6.0
19.774,1.562,-0.458,4.0
41.902,3.288,0.186,135.0
0.0,0.0,0.0,0.0
37.526,2.925,-0.254,3.0
30.558,2.374,-0.381,9.0
25.645,1.986,-0.463,6.0
19.725,1.523,-0.467,6.0
0.0,0.0,0.0,0.0
41.891,3.202,-0.068,76.0
36.952,2.815,-0.267,3.0
30.086,2.284,-0.389,8.0
25.323,1.917,-0.469,6.0
19.721,1.488,-0.475,8.0
43.66,3.271,0.154,3.0
40.323,3.01,-0.083,44.0
0.0,0.0,0.0,0.0
29.754,2.205,-0.397,8.0
25.202,1.862,-0.477,6.0
19.715,1.451,-0.483,9.0
40.326,2.947,0.126,50.0
40.321,2.936,-0.099,46.0
36.637,2.658,-0.295,12.0
29.569,2.137,-0.406,8.0
25.12,1.809,-0.485,6.0
19.945,1.431,-0.497,6.0
41.117,2.929,0.113,4.0
40.324,2.861,-0.114,45.0
35.629,2.518,-0.299,7.0
29.357,2.067,-0.413,8.0
24.986,1.753,-0.491,5.0
19.73,1.379,-0.498,10.0
42.203,2.928,0.101,9.0
40.323,2.787,-0.127,44.0
34.986,2.408,-0.305,5.0
28.837,1.977,-0.415,8.0
24.877,1.699,-0.497,5.0
19.734,1.342,-0.504,11.0
42.304,2.855,0.089,3.0
40.316,2.71,-0.139,42.0
35.078,2.348,-0.316,5.0
28.541,1.903,-0.419,7.0
24.903,1.653,-0.504,5.0
19.731,1.305,-0.509,10.0
45.169,2.963,0.083,56.0
40.32,2.634,-0.149,43.0
33.838,2.2,-0.313,3.0
28.57,1.85,-0.426,8.0
24.905,1.606,-0.51,5.0
19.73,1.267,-0.514,11.0
45.173,2.877,0.073,52.0
40.322,2.556,-0.158,52.0
34.743,2.192,-0.329,9.0
28.495,1.79,-0.431,7.0
24.715,1.546,-0.511,1.0
19.737,1.229,-0.518,12.0
45.176,2.789,0.064,49.0
40.319,2.478,-0.166,47.0
0.0,0.0,0.0,0.0
28.341,1.725,-0.434,7.0
24.591,1.49,-0.513,1.0
19.729,1.19,-0.521,11.0
45.182,2.701,0.057,47.0
40.322,2.399,-0.172,43.0
34.283,2.029,-0.336,11.0
28.627,1.686,-0.442,7.0
24.629,1.444,-0.517,0.0
19.733,1.151,-0.523,12.0
45.173,2.612,0.052,46.0
40.33,2.321,-0.176,42.0
34.336,1.965,-0.34,8.0
28.76,1.638,-0.447,4.0
24.514,1.389,-0.517,1.0
19.779,1.115,-0.526,9.0
45.189,2.525,0.048,43.0
40.328,2.241,-0.179,45.0
34.539,1.909,-0.345,9.0
28.567,1.571,-0.446,2.0
24.574,1.344,-0.519,1.0
21.242,1.155,-0.566,2.0
45.188,2.435,0.046,45.0
40.335,2.162,-0.181,77.0
34.168,1.821,-0.342,6.0
28.663,1.519,-0.448,5.0
24.52,1.292,-0.519,1.0
21.1,1.105,-0.563,1.0
45.184,2.344,0.045,45.0
40.336,2.08,-0.181,50.0
34.387,1.763,-0.344,6.0
28.78,1.467,-0.449,2.0
23.679,1.2,-0.5,21.0
21.272,1.072,-0.567,1.0
45.185,2.254,0.047,48.0
40.328,1.999,-0.179,38.0
23.63,1.164,-0.235,9.0
23.622,1.156,-0.368,24.0
23.653,1.151,-0.498,32.0
21.356,1.032,-0.568,1.0
23.621,1.13,0.026,42.0
23.616,1.122,-0.103,48.0
23.61,1.115,-0.233,54.0
