X,Y,Z,Reflectivity
87.049,7.548,6.379,39.0
87.064,7.541,5.877,49.0
87.063,7.531,5.374,72.0
87.06,7.522,4.864,116.0
87.08,7.515,4.363,73.0
87.078,7.507,3.861,65.0
87.052,7.504,6.252,57.0
87.057,7.494,5.749,61.0
87.055,7.485,5.247,39.0
87.087,7.478,4.737,28.0
87.086,7.469,4.235,19.0
87.101,7.461,3.735,13.0
87.074,7.458,6.125,22.0
87.067,7.447,5.622,14.0
40.059,3.422,2.355,3.0
40.063,3.417,2.12,22.0
40.072,3.414,1.89,66.0
40.086,3.41,1.66,110.0
40.071,3.408,2.76,45.0
40.093,3.405,2.529,91.0
40.084,3.399,2.297,112.0
40.094,3.395,2.063,102.0
40.088,3.39,1.832,121.0
40.086,3.385,1.601,139.0
40.076,3.382,2.701,150.0
40.088,3.378,2.47,122.0
40.083,3.373,2.238,109.0
40.089,3.368,2.004,108.0
40.092,3.363,1.773,138.0
40.091,3.359,1.543,133.0
40.093,3.356,2.642,118.0
40.088,3.35,2.41,116.0
40.088,3.345,2.18,110.0
40.088,3.339,1.945,120.0
40.09,3.334,1.714,150.0
40.087,3.33,1.484,146.0
40.087,3.326,2.583,124.0
40.097,3.321,2.352,117.0
40.086,3.314,2.12,116.0
40.079,3.309,1.885,148.0
40.084,3.304,1.655,150.0
40.09,3.299,1.425,131.0
40.085,3.294,2.524,138.0
40.088,3.289,2.293,118.0
40.096,3.284,2.063,121.0
40.078,3.277,1.827,150.0
40.093,3.273,1.597,150.0
40.094,3.267,1.367,118.0
40.085,3.262,2.465,126.0
40.092,3.256,2.235,114.0
40.08,3.249,2.003,100.0
40.086,3.244,1.769,119.0
40.08,3.238,1.539,73.0
40.086,3.233,1.309,8.0
40.072,3.226,2.406,72.0
40.076,3.221,2.176,8.0
0.0,0.0,0.0,0.0
0.0,0.0,0.0,0.0
41.885,3.347,1.548,133.0
41.891,3.342,1.307,115.0
41.885,3.335,2.455,108.0
41.896,3.329,2.215,104.0
41.879,3.321,1.973,79.0
41.884,3.315,1.728,142.0
41.897,3.309,1.488,128.0
41.889,3.303,1.248,110.0
41.886,3.296,2.395,127.0
41.878,3.288,2.153,117.0
41.886,3.281,1.913,124.0
41.885,3.275,1.668,130.0
41.893,3.269,1.428,117.0
41.891,3.262,1.188,98.0
41.885,3.254,2.334,104.0
41.86,3.245,2.092,77.0
41.872,3.239,1.852,13.0
0.0,0.0,0.0,0.0
0.0,0.0,0.0,0.0
43.685,3.358,1.176,144.0
43.688,3.349,2.372,110.0
43.678,3.34,2.121,130.0
43.672,3.333,1.87,150.0
43.674,3.325,1.615,150.0
43.684,3.318,1.364,150.0
43.692,3.312,1.115,120.0
43.671,3.301,2.309,128.0
43.679,3.294,2.059,136.0
43.67,3.285,1.808,150.0
43.676,3.278,1.554,150.0
43.689,3.271,1.303,136.0
43.699,3.265,1.054,108.0
43.664,3.252,2.248,91.0
43.661,3.244,1.997,40.0
45.457,3.369,1.819,5.0
0.0,0.0,0.0,0.0
45.47,3.354,1.294,20.0
40.369,2.97,0.918,81.0
45.463,3.335,2.278,150.0
45.462,3.326,2.017,150.0
45.469,3.317,1.756,150.0
45.48,3.309,1.492,150.0
40.395,2.932,1.094,100.0
40.534,2.935,0.866,84.0
45.461,3.28,2.215,150.0
45.48,3.272,1.955,144.0
45.443,3.261,1.693,38.0
40.979,2.933,1.288,9.0
41.347,2.951,1.063,73.0
41.184,2.932,0.824,75.0
99.957,7.09,4.733,33.0
99.97,7.07,4.162,32.0
99.979,7.051,3.59,37.0
41.962,2.951,1.262,36.0
42.011,2.946,1.023,119.0
41.634,2.912,0.776,40.0
99.957,6.963,4.599,31.0
99.95,6.941,4.026,37.0
99.954,6.921,3.454,37.0
42.925,2.963,1.234,50.0
43.171,2.972,0.994,52.0
41.211,2.829,0.714,3.0
99.951,6.833,4.467,33.0
99.976,6.813,3.896,34.0
99.967,6.793,3.324,34.0
43.598,2.953,1.196,81.0
43.822,2.959,0.952,68.0
44.208,2.977,0.708,83.0
99.957,6.7,4.337,36.0
99.971,6.681,3.766,36.0
99.964,6.658,3.194,37.0
44.877,2.979,1.173,93.0
45.149,2.987,0.922,115.0
45.207,2.982,0.666,114.0
99.956,6.563,4.207,35.0
99.954,6.541,3.636,34.0
99.96,6.518,3.065,32.0
45.191,2.937,1.123,75.0
45.203,2.928,0.866,4.0
100.088,6.462,1.346,9.0
100.407,6.452,4.099,9.0
100.902,6.46,3.543,3.0
45.174,2.882,1.328,8.0
112.419,7.146,2.652,7.0
112.437,7.123,2.011,67.0
99.701,6.295,1.216,4.0
112.327,7.054,4.443,3.0
0.0,0.0,0.0,0.0
45.19,2.817,1.272,57.0
45.193,2.807,1.01,40.0
45.209,2.798,0.752,2.0
99.717,6.149,1.093,11.0
197.483,12.111,7.57,22.0
162.782,9.943,5.311,15.0
163.4,9.944,4.399,13.0
134.956,8.18,2.851,15.0
99.709,6.02,1.538,6.0
45.225,2.72,0.44,3.0
197.884,11.834,7.343,16.0
163.45,9.734,5.133,15.0
45.2,2.681,1.162,150.0
45.197,2.67,0.9,14.0
45.196,2.659,0.642,3.0
45.203,2.649,0.386,1.0
198.53,11.565,7.131,11.0
45.232,2.623,1.367,2.0
0.0,0.0,0.0,0.0
167.858,9.655,3.146,3.0
113.75,6.516,1.485,8.0
45.193,2.578,0.333,1.0
162.683,9.22,5.654,6.0
45.197,2.55,1.313,32.0
45.199,2.539,1.056,30.0
45.222,2.529,0.795,2.0
119.969,6.681,1.429,9.0
63.037,3.495,0.393,6.0
162.54,8.951,5.464,10.0
45.169,2.475,1.261,6.0
200.165,10.92,4.451,8.0
45.166,2.452,0.743,1.0
45.217,2.444,0.487,25.0
45.204,2.431,0.23,51.0
179.153,4.24,3.317,14.0
128.58,3.0,1.661,8.0
113.244,2.607,0.829,9.0
58.593,1.33,0.095,0.0
44.072,0.986,-0.174,1.0
0.0,0.0,0.0,0.0
179.287,3.88,3.212,7.0
128.657,2.742,1.586,21.0
113.262,2.377,0.762,15.0
55.16,1.139,0.057,4.0
43.807,0.89,-0.199,0.0
35.027,0.7,-0.355,1.0
55.18,1.081,0.957,4.0
55.201,1.063,0.649,36.0
55.174,1.044,0.34,48.0
55.152,1.026,0.027,48.0
42.386,0.774,-0.215,0.0
35.861,0.642,-0.382,0.0
55.175,0.966,0.928,60.0
55.185,0.948,0.62,51.0
55.186,0.93,0.312,20.0
55.194,0.911,-0.001,28.0
44.443,0.719,-0.249,2.0
19.689,0.311,-0.22,1.0
19.748,0.304,0.322,6.0
19.763,0.298,0.212,2.0
19.73,0.291,0.101,0.0
57.0,0.822,-0.028,2.0
19.667,0.276,-0.119,12.0
19.66,0.27,-0.229,15.0
19.724,0.263,0.312,12.0
19.759,0.256,0.203,28.0
84.807,1.073,0.4,20.0
19.682,0.242,-0.018,7.0
19.636,0.235,-0.128,16.0
19.648,0.228,-0.237,17.0
19.74,0.221,0.304,10.0
19.736,0.214,0.194,16.0
19.672,0.207,0.084,11.0
19.654,0.2,-0.026,12.0
19.633,0.193,-0.135,16.0
19.659,0.186,-0.245,16.0
19.646,0.179,0.295,9.0
19.654,0.172,0.186,13.0
19.645,0.165,0.077,12.0
19.619,0.158,-0.033,16.0
19.656,0.152,-0.143,11.0
36.424,0.268,-0.467,0.0
19.621,0.137,0.288,11.0
19.656,0.131,0.179,16.0
19.654,0.124,0.07,12.0
19.66,0.117,-0.04,8.0
19.769,0.111,-0.15,0.0
19.742,0.104,-0.259,0.0
19.625,0.095,0.282,20.0
19.675,0.089,0.173,13.0
19.73,0.082,0.064,30.0
19.76,0.075,-0.046,62.0
19.763,0.068,-0.156,61.0
19.763,0.061,-0.265,45.0
19.623,0.054,0.276,13.0
19.748,0.047,0.169,16.0
19.734,0.04,0.059,14.0
19.753,0.033,-0.051,74.0
19.762,0.026,-0.161,1.0
19.8,0.019,-0.271,0.0
19.625,0.012,0.272,15.0
19.775,0.005,0.164,3.0
19.721,-0.001,0.055,8.0
19.731,-0.009,-0.055,9.0
19.748,-0.015,-0.165,8.0
19.746,-0.022,-0.274,0.0
19.643,-0.029,0.268,12.0
19.697,-0.036,0.16,14.0
19.702,-0.043,0.051,16.0
19.704,-0.051,-0.059,16.0
19.721,-0.058,-0.168,15.0
19.753,-0.065,-0.277,14.0
19.668,-0.071,0.265,12.0
19.703,-0.079,0.157,14.0
19.708,-0.086,0.048,13.0
19.722,-0.093,-0.062,9.0
19.722,-0.101,-0.171,16.0
19.738,-0.108,-0.28,16.0
19.729,-0.114,0.263,3.0
19.762,-0.122,0.155,1.0
19.772,-0.129,0.046,4.0
19.756,-0.136,-0.064,10.0
19.743,-0.143,-0.173,14.0
19.751,-0.15,-0.282,15.0
169.425,-1.349,2.251,17.0
160.727,-1.339,1.249,13.0
0.0,0.0,0.0,0.0
19.923,-0.18,-0.066,0.0
19.774,-0.186,-0.175,0.0
19.79,-0.193,-0.284,0.0
19.767,-0.199,0.261,1.0
0.0,0.0,0.0,0.0
0.0,0.0,0.0,0.0
0.0,0.0,0.0,0.0
0.0,0.0,0.0,0.0
35.149,-0.419,-0.505,0.0
19.742,-0.241,0.261,13.0
19.755,-0.249,0.152,26.0
0.0,0.0,0.0,0.0
0.0,0.0,0.0,0.0
0.0,0.0,0.0,0.0
35.071,-0.494,-0.503,0.0
19.776,-0.284,0.262,2.0
19.749,-0.291,0.153,17.0
0.0,0.0,0.0,0.0
0.0,0.0,0.0,0.0
42.578,-0.675,-0.375,0.0
35.789,-0.58,-0.512,1.0
126.033,-2.082,1.677,31.0
125.976,-2.129,0.985,99.0
0.0,0.0,0.0,0.0
0.0,0.0,0.0,0.0
0.0,0.0,0.0,0.0
35.265,-0.648,-0.501,0.0
126.011,-2.351,1.689,26.0
125.988,-2.398,0.999,127.0
0.0,0.0,0.0,0.0
0.0,0.0,0.0,0.0
43.2,-0.869,-0.371,0.0
35.137,-0.72,-0.494,0.0
126.05,-2.619,1.707,7.0
126.027,-2.665,1.017,150.0
0.0,0.0,0.0,0.0
0.0,0.0,0.0,0.0
0.0,0.0,0.0,0.0
35.313,-0.798,-0.491,0.0
126.242,-2.888,1.731,2.0
126.153,-2.931,1.04,4.0
0.0,0.0,0.0,0.0
0.0,0.0,0.0,0.0
44.26,-1.077,-0.365,0.0
35.437,-0.875,-0.486,0.0
161.942,-4.043,2.255,15.0
0.0,0.0,0.0,0.0
0.0,0.0,0.0,0.0
0.0,0.0,0.0,0.0
45.744,-1.209,-0.366,0.0
35.345,-0.947,-0.476,0.0
161.863,-4.379,2.293,27.0
160.708,-4.407,1.4,8.0
0.0,0.0,0.0,0.0
0.0,0.0,0.0,0.0
0.0,0.0,0.0,0.0
0.0,0.0,0.0,0.0
161.886,-4.718,2.34,23.0
0.0,0.0,0.0,0.0
0.0,0.0,0.0,0.0
0.0,0.0,0.0,0.0
0.0,0.0,0.0,0.0
0.0,0.0,0.0,0.0
161.982,-5.057,2.393,18.0
162.116,-5.119,1.512,6.0
0.0,0.0,0.0,0.0
0.0,0.0,0.0,0.0
0.0,0.0,0.0,0.0
0.0,0.0,0.0,0.0
162.196,-5.401,2.454,22.0
161.984,-5.454,1.57,15.0
0.0,0.0,0.0,0.0
0.0,0.0,0.0,0.0
0.0,0.0,0.0,0.0
38.283,-1.345,-0.465,0.0
162.187,-5.735,2.518,16.0
162.245,-5.797,1.637,16.0
0.0,0.0,0.0,0.0
0.0,0.0,0.0,0.0
0.0,0.0,0.0,0.0
0.0,0.0,0.0,0.0
105.035,-3.93,1.675,6.0
0.0,0.0,0.0,0.0
0.0,0.0,0.0,0.0
0.0,0.0,0.0,0.0
0.0,0.0,0.0,0.0
0.0,0.0,0.0,0.0
0.0,0.0,0.0,0.0
0.0,0.0,0.0,0.0
0.0,0.0,0.0,0.0
0.0,0.0,0.0,0.0
0.0,0.0,0.0,0.0
0.0,0.0,0.0,0.0
101.528,-4.206,1.717,27.0
0.0,0.0,0.0,0.0
102.582,-4.323,0.623,4.0
0.0,0.0,0.0,0.0
0.0,0.0,0.0,0.0
0.0,0.0,0.0,0.0
108.989,-10.089,5.363,22.0
107.574,-9.975,4.722,14.0
108.397,-10.07,4.184,19.0
108.094,-10.06,3.589,9.0
113.897,-10.62,3.18,7.0
90.38,-8.442,2.045,31.0
108.762,-10.171,5.495,14.0
107.921,-10.108,4.88,10.0
108.664,-10.194,4.337,20.0
148.399,-13.946,5.122,17.0
107.938,-10.16,3.154,9.0
90.381,-8.522,2.164,21.0
108.162,-10.212,5.606,20.0
108.46,-10.255,5.047,25.0
110.162,-10.432,4.542,8.0
108.237,-10.265,3.877,14.0
147.903,-14.049,4.517,23.0
127.54,-12.135,3.222,25.0
108.208,-10.309,5.753,24.0
108.294,-10.331,5.182,24.0
110.012,-10.509,4.681,24.0
108.533,-10.383,4.033,22.0
147.947,-14.174,4.715,24.0
119.188,-11.436,3.169,25.0
108.603,-10.434,5.917,19.0
108.0,-10.388,5.312,25.0
109.679,-10.564,4.813,22.0
108.711,-10.485,4.183,24.0
108.899,-10.517,3.615,13.0
0.0,0.0,0.0,0.0
108.624,-10.519,6.064,19.0
108.009,-10.472,5.457,27.0
108.229,-10.505,4.894,16.0
109.4,-10.633,4.357,20.0
108.55,-10.564,3.748,15.0
116.341,-11.337,3.403,23.0
108.946,-10.629,6.228,16.0
108.091,-10.557,5.606,24.0
108.075,-10.568,5.032,22.0
109.883,-10.756,4.524,22.0
108.421,-10.626,3.89,20.0
148.096,-14.532,4.53,18.0
108.147,-10.626,6.329,20.0
108.499,-10.67,5.775,17.0
108.048,-10.637,5.178,19.0
109.362,-10.778,4.651,22.0
108.548,-10.709,4.041,17.0
108.216,-10.687,3.458,12.0
108.115,-10.692,6.475,21.0
108.363,-10.726,5.914,20.0
108.116,-10.711,5.328,23.0
108.71,-10.779,4.77,24.0
111.437,-11.06,4.3,6.0
108.111,-10.741,3.599,25.0
108.732,-10.817,6.659,20.0
107.904,-10.743,6.034,24.0
108.266,-10.787,5.48,20.0
108.687,-10.838,4.913,13.0
111.344,-11.112,4.444,20.0
108.255,-10.813,3.749,24.0
109.809,-10.984,6.872,21.0
107.89,-10.799,6.179,23.0
108.891,-10.907,5.659,20.0
110.761,-11.102,5.159,8.0
111.131,-11.148,4.586,22.0
108.584,-10.901,3.905,24.0
108.186,-10.876,6.918,13.0
107.972,-10.861,6.331,22.0
108.657,-10.936,5.793,20.0
108.154,-10.893,5.182,15.0
111.096,-11.196,4.734,6.0
108.719,-10.964,4.056,9.0
108.833,-10.992,7.106,16.0
107.947,-10.906,6.475,20.0
108.327,-10.95,5.921,19.0
108.76,-10.999,5.357,22.0
110.619,-11.194,4.861,15.0
111.627,-11.303,4.314,17.0
108.328,-10.984,7.218,16.0
107.971,-10.952,6.619,14.0
108.092,-10.969,6.053,20.0
108.87,-11.052,5.508,24.0
108.996,-11.07,4.935,9.0
111.204,-11.301,4.447,11.0
107.753,-10.966,7.326,18.0
107.577,-10.951,6.742,11.0
107.811,-10.978,6.184,23.0
108.701,-11.073,5.647,23.0
108.805,-11.088,5.074,24.0
111.082,-11.323,4.591,8.0
107.786,-11.005,7.473,15.0
48.856,-4.989,3.128,10.0
107.637,-10.994,6.318,22.0
108.437,-11.078,5.778,25.0
108.882,-11.126,5.224,21.0
110.675,-11.313,4.722,10.0
107.925,-11.05,7.628,14.0
48.862,-5.002,3.193,19.0
107.562,-11.014,6.455,22.0
108.336,-11.094,5.915,18.0
109.1,-11.175,5.377,21.0
109.279,-11.196,4.806,18.0
49.75,-5.104,3.582,7.0
48.819,-5.009,3.254,14.0
107.561,-11.037,6.597,23.0
108.634,-11.147,6.075,17.0
109.165,-11.203,5.523,20.0
109.101,-11.198,4.94,25.0
49.654,-5.104,3.64,24.0
48.768,-5.012,3.315,14.0
107.561,-11.055,6.739,17.0
107.641,-11.063,6.161,19.0
108.567,-11.158,5.636,17.0
108.909,-11.194,5.075,20.0
49.154,-5.06,3.669,24.0
108.024,-11.119,7.486,15.0
48.857,-5.028,3.125,13.0
107.399,-11.05,6.287,21.0
108.168,-11.129,5.756,19.0
109.137,-11.228,5.227,18.0
48.865,-5.035,3.711,24.0
107.948,-11.12,7.623,13.0
48.796,-5.025,3.184,20.0
107.466,-11.065,6.43,23.0
108.105,-11.128,5.892,18.0
109.249,-11.245,5.372,15.0
48.761,-5.027,3.766,19.0
49.762,-5.128,3.577,5.0
48.775,-5.025,3.246,20.0
107.58,-11.08,6.574,24.0
108.747,-11.197,6.065,17.0
109.221,-11.243,5.509,14.0
48.47,-4.998,3.805,23.0
49.709,-5.123,3.637,23.0
48.767,-5.023,3.307,18.0
107.574,-11.077,6.71,17.0
107.543,-11.07,6.133,17.0
108.776,-11.194,5.624,15.0
48.179,-4.966,3.844,22.0
49.226,-5.071,3.664,23.0
48.761,-5.021,3.368,2.0
48.857,-5.028,3.108,10.0
107.49,-11.057,6.265,22.0
108.268,-11.133,5.731,19.0
48.033,-4.947,3.892,8.0
48.86,-5.029,3.697,22.0
107.896,-11.099,7.586,12.0
48.833,-5.02,3.167,17.0
107.515,-11.048,6.397,24.0
108.147,-11.107,5.857,20.0
40.381,-4.154,3.322,35.0
48.744,-5.011,3.748,15.0
49.747,-5.11,3.558,4.0
48.826,-5.012,3.226,15.0
107.569,-11.036,6.531,24.0
108.58,-11.133,6.012,17.0
40.353,-4.145,3.368,38.0
48.417,-4.969,3.781,22.0
49.76,-5.103,3.619,15.0
48.756,-4.996,3.279,6.0
107.564,-11.014,6.659,21.0
107.86,-11.037,6.101,20.0
40.399,-4.141,3.421,37.0
48.068,-4.923,3.812,22.0
49.327,-5.047,3.647,22.0
107.627,-11.004,7.368,17.0
48.885,-4.994,3.084,3.0
107.75,-10.999,6.221,25.0
40.49,-4.14,3.476,32.0
47.999,-4.903,3.863,14.0
49.774,-5.08,3.738,15.0
107.885,-11.001,7.51,12.0
48.84,-4.975,3.138,15.0
107.805,-10.973,6.348,22.0
45.926,-4.683,3.997,6.0
45.616,-4.646,3.724,5.0
107.193,-10.907,8.173,20.0
107.61,-10.938,7.615,16.0
48.879,-4.963,3.196,6.0
107.912,-10.948,6.477,19.0
45.902,-4.665,4.047,11.0
40.532,-4.114,3.355,28.0
48.023,-4.87,3.715,5.0
107.489,-10.887,7.727,19.0
108.421,-10.97,7.21,19.0
108.006,-10.917,6.602,15.0
45.931,-4.651,4.101,21.0
40.521,-4.098,3.399,31.0
48.055,-4.854,3.771,17.0
107.321,-10.828,7.832,17.0
107.994,-10.884,7.299,19.0
109.622,-11.035,6.819,20.0
45.981,-4.637,4.156,13.0
45.616,-4.594,3.875,4.0
48.084,-4.836,3.825,11.0
107.066,-10.756,7.929,17.0
107.83,-10.819,7.404,18.0
109.893,-11.012,6.954,12.0
0.0,0.0,0.0,0.0
45.645,-4.576,3.927,12.0
40.545,-4.059,3.269,6.0
48.084,-4.807,3.611,9.0
107.755,-10.759,7.512,11.0
107.255,-10.695,6.899,8.0
47.813,-4.776,4.423,8.0
45.816,-4.57,3.989,23.0
45.681,-4.55,3.73,14.0
48.091,-4.783,3.661,30.0
107.743,-10.701,7.621,18.0
107.92,-10.704,7.051,17.0
47.858,-4.755,4.476,21.0
45.897,-4.553,4.043,30.0
40.452,-4.007,3.344,22.0
48.097,-4.757,3.71,19.0
107.828,-10.649,7.735,11.0
108.062,-10.656,7.168,21.0
39.449,-3.897,3.728,9.0
45.908,-4.528,4.089,32.0
40.382,-3.976,3.378,28.0
48.095,-4.728,3.757,5.0
107.503,-10.552,7.816,14.0
0.0,0.0,0.0,0.0
39.376,-3.866,3.76,37.0
45.955,-4.504,4.138,29.0
48.004,-4.697,4.061,22.0
108.41,-10.589,8.572,12.0
106.69,-10.403,7.858,12.0
0.0,0.0,0.0,0.0
39.249,-3.828,3.785,37.0
45.987,-4.477,4.184,20.0
47.673,-4.633,4.077,21.0
108.255,-10.502,8.659,17.0
107.405,-10.401,8.008,19.0
107.872,-10.428,7.458,12.0
39.276,-3.804,3.823,38.0
45.96,-4.442,4.223,19.0
47.807,-4.612,4.132,21.0
107.914,-10.392,8.728,16.0
106.113,-10.2,8.005,21.0
107.619,-10.326,7.534,17.0
39.289,-3.777,3.86,38.0
0.0,0.0,0.0,0.0
47.992,-4.595,4.189,26.0
107.874,-10.308,8.819,15.0
106.123,-10.122,8.097,20.0
107.278,-10.213,7.601,13.0
39.3,-3.748,3.894,28.0
39.314,-3.742,3.68,16.0
47.867,-4.546,4.219,22.0
48.084,-4.558,3.97,3.0
107.455,-10.166,8.286,17.0
106.732,-10.077,7.65,15.0
39.249,-3.712,3.921,20.0
39.301,-3.709,3.71,28.0
48.408,-4.559,4.305,23.0
48.203,-4.53,4.018,22.0
108.116,-10.14,8.422,18.0
106.169,-9.937,7.691,25.0
39.253,-3.681,3.952,16.0
39.242,-3.671,3.735,31.0
45.979,-4.292,4.124,16.0
48.242,-4.493,4.059,34.0
108.193,-10.056,8.51,20.0
105.929,-9.824,7.754,24.0
0.0,0.0,0.0,0.0
39.143,-3.628,3.755,40.0
45.951,-4.249,4.156,15.0
48.285,-4.455,4.097,28.0
108.058,-9.947,8.579,12.0
106.073,-9.743,7.841,10.0
48.713,-4.482,4.977,5.0
39.21,-3.599,3.79,30.0
47.471,-4.346,4.328,30.0
48.249,-4.407,4.128,28.0
108.192,-9.861,8.663,11.0
108.279,-9.846,8.078,14.0
48.65,-4.431,5.004,7.0
39.219,-3.563,3.817,27.0
47.414,-4.297,4.354,27.0
48.272,-4.365,4.162,22.0
107.587,-9.705,8.685,14.0
108.882,-9.798,8.193,19.0
48.896,-4.408,5.061,9.0
39.241,-3.528,3.845,26.0
47.372,-4.248,4.38,21.0
48.432,-4.332,4.206,23.0
107.3,-9.575,8.729,19.0
109.68,-9.763,8.32,14.0
48.173,-4.295,5.016,23.0
39.233,-3.488,3.868,25.0
47.42,-4.205,4.413,18.0
48.384,-4.28,4.231,3.0
107.241,-9.462,8.787,16.0
111.492,-9.813,8.521,7.0
0.0,0.0,0.0,0.0
39.214,-3.447,3.888,27.0
47.364,-4.152,4.434,17.0
47.41,-4.145,4.172,3.0
107.149,-9.342,8.838,7.0
111.414,-9.69,8.576,6.0
48.621,-4.235,5.117,25.0
48.751,-4.234,4.86,10.0
47.423,-4.107,4.465,18.0
47.436,-4.096,4.199,14.0
106.902,-9.207,8.872,15.0
109.485,-9.404,8.483,15.0
49.133,-4.226,5.196,19.0
48.816,-4.186,4.891,22.0
0.0,0.0,0.0,0.0
47.435,-4.044,4.222,12.0
106.583,-9.063,8.896,23.0
106.994,-9.072,8.341,6.0
49.272,-4.184,5.234,17.0
48.76,-4.128,4.908,34.0
49.28,-4.159,4.687,12.0
47.474,-3.995,4.246,21.0
106.643,-8.949,8.948,21.0
106.934,-8.948,8.381,6.0
49.233,-4.125,5.251,15.0
48.782,-4.074,4.931,26.0
49.282,-4.104,4.707,10.0
47.441,-3.939,4.262,15.0
106.701,-8.832,8.996,25.0
108.148,-8.926,8.518,20.0
49.116,-4.058,5.257,17.0
48.941,-4.031,4.965,23.0
49.294,-4.047,4.727,15.0
47.464,-3.885,4.282,5.0
106.687,-8.707,9.032,26.0
106.982,-8.705,8.464,9.0
49.176,-4.006,5.281,20.0
48.963,-3.976,4.984,21.0
49.303,-3.99,4.743,20.0
106.606,-8.6,9.652,19.0
106.987,-8.605,9.091,21.0
107.655,-8.633,8.549,11.0
49.216,-3.95,5.3,20.0
106.375,-8.51,10.86,20.0
49.309,-3.932,4.758,30.0
107.091,-8.512,9.725,15.0
107.162,-8.489,9.136,17.0
104.575,-8.259,8.333,5.0
49.218,-3.89,5.313,40.0
106.464,-8.387,10.897,23.0
49.341,-3.874,4.774,22.0
107.297,-8.397,9.77,11.0
107.056,-8.35,9.152,22.0
104.514,-8.126,8.352,24.0
49.248,-3.832,5.327,36.0
106.322,-8.245,10.905,17.0
49.362,-3.815,4.786,30.0
107.377,-8.27,9.799,13.0
107.261,-8.233,9.189,7.0
104.44,-7.989,8.365,23.0
49.254,-3.771,5.337,14.0
106.111,-8.095,10.902,22.0
49.346,-3.751,4.792,20.0
107.055,-8.111,9.786,21.0
107.478,-8.115,9.224,16.0
104.443,-7.858,8.38,12.0
49.275,-3.71,5.346,30.0
107.292,-8.049,11.036,20.0
49.393,-3.692,4.803,15.0
106.957,-7.967,9.79,15.0
107.185,-7.955,9.21,13.0
109.807,-8.121,8.821,13.0
49.27,-3.645,5.35,9.0
107.041,-7.891,11.02,17.0
49.421,-3.63,4.809,9.0
109.456,-8.011,10.026,18.0
107.083,-7.807,9.208,18.0
108.172,-7.859,8.696,18.0
107.33,-7.802,11.66,21.0
106.603,-7.719,10.979,20.0
49.387,-3.562,4.808,4.0
108.233,-7.778,9.917,19.0
107.023,-7.662,9.205,19.0
107.165,-7.644,8.616,23.0
107.914,-7.699,11.725,21.0
106.732,-7.586,10.993,19.0
106.726,-7.557,10.389,18.0
108.169,-7.629,9.91,16.0
107.281,-7.539,9.225,20.0
106.873,-7.483,8.589,17.0
106.619,-7.467,11.58,20.0
106.854,-7.453,11.001,16.0
107.893,-7.496,10.499,12.0
106.541,-7.373,9.755,17.0
107.689,-7.423,9.253,23.0
107.089,-7.355,8.599,10.0
106.816,-7.335,11.594,18.0
106.867,-7.31,10.993,18.0
107.879,-7.35,10.487,14.0
106.437,-7.223,9.734,20.0
106.434,-7.194,9.134,10.0
107.323,-7.226,8.606,13.0
0.0,0.0,0.0,0.0
106.878,-7.165,10.98,18.0
107.971,-7.209,10.481,20.0
106.495,-7.081,9.725,19.0
106.899,-7.079,9.158,16.0
107.379,-7.083,8.593,23.0
0.0,0.0,0.0,0.0
107.763,-7.076,11.053,17.0
107.766,-7.046,10.441,28.0
106.694,-6.948,9.722,9.0
107.102,-6.946,9.154,21.0
107.705,-6.957,8.598,21.0
0.0,0.0,0.0,0.0
107.803,-6.929,11.033,31.0
111.202,-7.117,10.749,6.0
111.221,-7.087,10.109,16.0
107.185,-6.802,9.135,18.0
107.787,-6.812,8.577,21.0
0.0,0.0,0.0,0.0
107.879,-6.784,11.012,3.0
107.803,-6.75,10.392,7.0
109.144,-6.804,9.89,7.0
107.188,-6.654,9.105,10.0
107.852,-6.667,8.551,22.0
0.0,0.0,0.0,0.0
108.015,-6.64,10.993,17.0
109.543,-6.705,10.525,9.0
109.308,-6.661,9.87,18.0
0.0,0.0,0.0,0.0
108.397,-6.548,8.558,17.0
0.0,0.0,0.0,0.0
0.0,0.0,0.0,0.0
109.571,-6.552,10.488,21.0
107.362,-6.391,9.654,17.0
109.194,-6.471,9.199,8.0
108.819,-6.419,8.55,17.0
0.0,0.0,0.0,0.0
0.0,0.0,0.0,0.0
108.974,-6.36,10.386,9.0
107.415,-6.24,9.614,21.0
108.701,-6.286,9.112,27.0
108.814,-6.264,8.504,26.0
0.0,0.0,0.0,0.0
0.0,0.0,0.0,0.0
109.104,-6.214,10.35,21.0
108.835,-6.17,9.692,29.0
108.738,-6.134,9.064,22.0
109.262,-6.136,8.488,16.0
0.0,0.0,0.0,0.0
109.29,-6.097,10.938,4.0
109.476,-6.079,10.331,24.0
108.993,-6.023,9.652,18.0
108.563,-5.971,8.995,19.0
111.197,-6.085,8.58,14.0
0.0,0.0,0.0,0.0
109.599,-5.959,10.911,18.0
109.292,-5.913,10.255,17.0
108.703,-5.852,9.567,22.0
110.785,-5.935,9.119,16.0
112.831,-6.016,8.644,21.0
0.0,0.0,0.0,0.0
0.0,0.0,0.0,0.0
109.327,-5.759,10.195,11.0
111.181,-5.828,9.72,18.0
111.631,-5.822,9.121,21.0
113.304,-5.88,8.613,19.0
0.0,0.0,0.0,0.0
125.881,-6.485,12.381,7.0
112.109,-5.746,10.384,15.0
111.623,-5.692,9.688,26.0
111.747,-5.67,9.06,11.0
113.229,-5.716,8.534,14.0
0.0,0.0,0.0,0.0
0.0,0.0,0.0,0.0
112.239,-5.591,10.32,24.0
111.555,-5.529,9.606,28.0
111.782,-5.511,8.987,14.0
112.699,-5.527,8.416,24.0
0.0,0.0,0.0,0.0
0.0,0.0,0.0,0.0
112.338,-5.437,10.25,17.0
111.719,-5.378,9.54,18.0
116.02,-5.557,9.242,19.0
116.18,-5.536,8.592,11.0
0.0,0.0,0.0,0.0
0.0,0.0,0.0,0.0
116.448,-5.47,10.537,8.0
116.582,-5.446,9.867,20.0
115.734,-5.379,9.131,24.0
115.776,-5.353,8.471,17.0
0.0,0.0,0.0,0.0
0.0,0.0,0.0,0.0
116.421,-5.305,10.44,18.0
116.691,-5.288,9.781,24.0
115.426,-5.201,9.013,23.0
115.081,-5.158,8.327,23.0
0.0,0.0,0.0,0.0
0.0,0.0,0.0,0.0
0.0,0.0,0.0,0.0
116.622,-5.121,9.677,11.0
115.107,-5.025,8.89,23.0
115.475,-5.014,8.256,21.0
0.0,0.0,0.0,0.0
0.0,0.0,0.0,0.0
124.498,-5.322,10.948,5.0
124.099,-5.274,10.185,13.0
115.06,-4.862,8.783,28.0
115.78,-4.865,8.172,15.0
0.0,0.0,0.0,0.0
0.0,0.0,0.0,0.0
124.156,-5.132,10.802,27.0
114.962,-4.725,9.328,19.0
115.212,-4.707,8.685,20.0
115.744,-4.701,8.059,15.0
0.0,0.0,0.0,0.0
113.552,-4.565,10.425,2.0
124.316,-4.967,10.695,25.0
114.992,-4.566,9.218,22.0
115.038,-4.542,8.559,24.0
115.657,-4.539,7.94,22.0
0.0,0.0,0.0,0.0
113.568,-4.408,10.312,5.0
124.394,-4.799,10.575,26.0
115.542,-4.43,9.145,21.0
115.078,-4.386,8.445,26.0
115.755,-4.385,7.828,22.0
0.0,0.0,0.0,0.0
113.896,-4.264,10.223,2.0
114.894,-4.274,9.647,20.0
115.774,-4.281,9.04,27.0
115.163,-4.232,8.329,17.0
115.988,-4.237,7.72,23.0
0.0,0.0,0.0,0.0
0.0,0.0,0.0,0.0
115.081,-4.127,9.537,23.0
114.923,-4.096,8.848,19.0
123.772,-4.382,8.814,17.0
117.912,-4.148,7.718,24.0
113.638,-3.974,10.606,5.0
126.22,-4.385,11.047,2.0
116.057,-4.006,9.485,23.0
115.649,-3.966,8.772,22.0
124.315,-4.235,8.711,22.0
117.498,-3.978,7.555,23.0
113.772,-3.828,10.487,19.0
116.154,-3.882,10.031,10.0
116.078,-3.853,9.351,13.0
115.894,-3.822,8.655,19.0
118.088,-3.869,8.136,7.0
117.535,-3.825,7.418,9.0
113.759,-3.677,10.347,6.0
115.969,-3.723,9.875,25.0
125.862,-4.013,9.987,18.0
125.825,-3.984,9.242,11.0
118.043,-3.712,7.986,26.0
115.863,-3.618,7.17,22.0
0.0,0.0,0.0,0.0
126.466,-3.894,10.609,20.0
125.965,-3.852,9.837,20.0
140.316,-4.262,10.13,20.0
118.063,-3.561,7.839,14.0
115.593,-3.462,7.007,23.0
0.0,0.0,0.0,0.0
0.0,0.0,0.0,0.0
126.126,-3.696,9.686,13.0
141.044,-4.103,10.0,14.0
125.061,-3.612,8.142,20.0
115.819,-3.322,6.87,24.0
0.0,0.0,0.0,0.0
0.0,0.0,0.0,0.0
140.354,-3.935,10.592,17.0
141.707,-3.943,9.856,14.0
125.044,-3.454,7.972,8.0
115.982,-3.18,6.724,20.0
0.0,0.0,0.0,0.0
0.0,0.0,0.0,0.0
0.0,0.0,0.0,0.0
125.021,-3.323,8.524,23.0
116.038,-3.061,7.238,13.0
124.411,-3.258,7.04,13.0
0.0,0.0,0.0,0.0
0.0,0.0,0.0,0.0
0.0,0.0,0.0,0.0
125.208,-3.175,8.362,19.0
124.429,-3.132,7.588,26.0
124.483,-3.11,6.87,26.0
0.0,0.0,0.0,0.0
0.0,0.0,0.0,0.0
0.0,0.0,0.0,0.0
125.18,-3.025,8.181,2.0
124.872,-2.995,7.436,21.0
124.373,-2.96,6.686,19.0
0.0,0.0,0.0,0.0
0.0,0.0,0.0,0.0
0.0,0.0,0.0,0.0
124.364,-2.859,7.944,8.0
124.028,-2.828,7.202,14.0
142.308,-3.219,7.438,10.0
0.0,0.0,0.0,0.0
0.0,0.0,0.0,0.0
0.0,0.0,0.0,0.0
124.952,-2.727,7.792,3.0
141.876,-3.071,8.021,7.0
0.0,0.0,0.0,0.0
0.0,0.0,0.0,0.0
0.0,0.0,0.0,0.0
0.0,0.0,0.0,0.0
124.883,-2.582,7.592,7.0
0.0,0.0,0.0,0.0
0.0,0.0,0.0,0.0
0.0,0.0,0.0,0.0
0.0,0.0,0.0,0.0
0.0,0.0,0.0,0.0
0.0,0.0,0.0,0.0
0.0,0.0,0.0,0.0
192.665,-3.704,9.17,4.0
0.0,0.0,0.0,0.0
0.0,0.0,0.0,0.0
0.0,0.0,0.0,0.0
0.0,0.0,0.0,0.0
0.0,0.0,0.0,0.0
192.52,-3.494,8.854,18.0
0.0,0.0,0.0,0.0
0.0,0.0,0.0,0.0
0.0,0.0,0.0,0.0
190.072,-3.311,10.64,21.0
190.024,-3.278,9.53,14.0
189.992,-3.247,8.422,13.0
0.0,0.0,0.0,0.0
0.0,0.0,0.0,0.0
0.0,0.0,0.0,0.0
0.0,0.0,0.0,0.0
0.0,0.0,0.0,0.0
193.023,-3.102,8.235,21.0
0.0,0.0,0.0,0.0
190.163,-2.98,12.242,5.0
0.0,0.0,0.0,0.0
0.0,0.0,0.0,0.0
0.0,0.0,0.0,0.0
192.784,-2.904,7.896,7.0
0.0,0.0,0.0,0.0
0.0,0.0,0.0,0.0
0.0,0.0,0.0,0.0
0.0,0.0,0.0,0.0
0.0,0.0,0.0,0.0
186.118,-2.62,7.296,8.0
0.0,0.0,0.0,0.0
0.0,0.0,0.0,0.0
0.0,0.0,0.0,0.0
0.0,0.0,0.0,0.0
0.0,0.0,0.0,0.0
185.889,-2.44,6.959,19.0
0.0,0.0,0.0,0.0
0.0,0.0,0.0,0.0
0.0,0.0,0.0,0.0
0.0,0.0,0.0,0.0
186.439,-2.301,7.73,15.0
185.919,-2.269,6.628,24.0
0.0,0.0,0.0,0.0
0.0,0.0,0.0,0.0
0.0,0.0,0.0,0.0
0.0,0.0,0.0,0.0
186.158,-2.132,7.384,16.0
19.761,-0.223,0.668,0.0
0.0,0.0,0.0,0.0
0.0,0.0,0.0,0.0
0.0,0.0,0.0,0.0
0.0,0.0,0.0,0.0
184.53,-1.954,6.981,16.0
19.758,-0.206,0.632,7.0
0.0,0.0,0.0,0.0
0.0,0.0,0.0,0.0
0.0,0.0,0.0,0.0
0.0,0.0,0.0,0.0
19.771,-0.192,0.711,1.0
19.749,-0.19,0.595,10.0
0.0,0.0,0.0,0.0
0.0,0.0,0.0,0.0
0.0,0.0,0.0,0.0
183.945,-1.669,7.343,23.0
19.759,-0.177,0.673,5.0
19.752,-0.174,0.558,7.0
0.0,0.0,0.0,0.0
0.0,0.0,0.0,0.0
184.763,-1.554,8.124,16.0
183.956,-1.527,6.995,19.0
19.733,-0.161,0.635,9.0
19.765,-0.159,0.52,6.0
0.0,0.0,0.0,0.0
0.0,0.0,0.0,0.0
184.52,-1.415,7.76,21.0
19.761,-0.149,0.713,4.0
19.738,-0.147,0.597,4.0
19.788,-0.145,0.483,2.0
0.0,0.0,0.0,0.0
184.837,-1.302,8.492,11.0
184.301,-1.28,7.391,19.0
19.689,-0.134,0.672,2.0
19.698,-0.132,0.557,6.0
19.681,-0.13,0.442,5.0
0.0,0.0,0.0,0.0
184.69,-1.174,8.122,15.0
19.7,-0.123,0.751,3.0
19.648,-0.121,0.632,10.0
19.646,-0.119,0.517,9.0
19.676,-0.117,0.403,8.0
0.0,0.0,0.0,0.0
184.659,-1.052,7.753,17.0
19.675,-0.11,0.711,9.0
19.641,-0.108,0.593,12.0
19.643,-0.106,0.478,10.0
19.667,-0.104,0.363,9.0
186.252,-0.962,8.538,19.0
19.727,-0.1,0.788,2.0
19.655,-0.098,0.671,12.0
19.64,-0.096,0.553,11.0
19.646,-0.094,0.438,9.0
19.657,-0.092,0.324,9.0
184.723,-0.845,8.096,20.0
19.678,-0.088,0.747,8.0
19.637,-0.086,0.63,12.0
19.622,-0.084,0.513,10.0
19.642,-0.083,0.398,9.0
19.658,-0.081,0.284,9.0
184.753,-0.741,7.72,18.0
19.669,-0.077,0.706,11.0
19.63,-0.075,0.59,13.0
19.632,-0.074,0.473,11.0
19.647,-0.072,0.358,9.0
19.659,-0.071,0.244,13.0
19.699,-0.068,0.782,5.0
19.647,-0.067,0.665,13.0
19.615,-0.065,0.549,12.0
19.627,-0.064,0.433,12.0
19.631,-0.062,0.318,11.0
19.666,-0.061,0.204,14.0
19.671,-0.059,0.741,9.0
19.631,-0.057,0.624,13.0
19.62,-0.056,0.509,11.0
19.622,-0.054,0.392,10.0
19.621,-0.053,0.277,10.0
19.694,-0.052,0.163,13.0
19.656,-0.05,0.699,12.0
19.625,-0.048,0.583,13.0
19.615,-0.047,0.468,11.0
19.623,-0.046,0.351,10.0
19.643,-0.045,0.236,13.0
19.697,-0.044,0.122,16.0
19.646,-0.041,0.657,14.0
19.621,-0.04,0.541,13.0
19.621,-0.039,0.426,12.0
19.615,-0.038,0.309,10.0
19.645,-0.037,0.195,13.0
19.699,-0.036,0.081,15.0
19.635,-0.034,0.616,13.0
19.62,-0.033,0.5,12.0
19.619,-0.032,0.385,12.0
19.615,-0.031,0.268,11.0
19.688,-0.03,0.154,7.0
19.713,-0.029,0.039,15.0
19.627,-0.027,0.574,13.0
19.625,-0.026,0.459,14.0
19.61,-0.025,0.344,11.0
19.629,-0.024,0.227,15.0
19.682,-0.023,0.112,8.0
19.714,-0.023,-0.002,14.0
19.622,-0.021,0.532,13.0
19.616,-0.02,0.417,12.0
19.62,-0.019,0.303,12.0
19.653,-0.019,0.186,9.0
19.694,-0.018,0.071,8.0
19.732,-0.017,-0.043,11.0
19.625,-0.016,0.491,13.0
19.627,-0.015,0.376,13.0
19.629,-0.014,0.261,12.0
19.706,-0.014,0.145,2.0
19.72,-0.013,0.029,10.0
19.764,-0.012,-0.085,2.0
19.625,-0.011,0.449,13.0
19.618,-0.01,0.334,13.0
19.632,-0.01,0.219,14.0
19.715,-0.009,0.103,2.0
19.736,-0.009,-0.012,12.0
19.756,-0.008,-0.127,1.0
19.623,-0.007,0.407,13.0
19.619,-0.007,0.292,12.0
19.729,-0.006,0.178,6.0
19.758,-0.006,0.061,4.0
19.759,-0.005,-0.054,5.0
19.616,-0.005,-0.168,0.0
19.629,-0.004,0.365,14.0
19.633,-0.004,0.25,14.0
19.735,-0.003,0.136,0.0
19.73,-0.003,0.019,10.0
19.764,-0.002,-0.096,0.0
40.672,-0.005,-0.437,0.0
19.63,-0.002,0.323,14.0
19.64,-0.001,0.208,14.0
19.81,-0.001,0.094,2.0
19.738,-0.001,-0.023,9.0
19.737,0.0,-0.139,0.0
36.806,-0.001,-0.475,0.0
19.631,0.0,0.281,14.0
19.792,0.0,0.167,2.0
19.761,0.0,0.051,4.0
19.748,0.0,-0.065,1.0
19.791,0.0,-0.182,0.0
19.754,0.0,-0.297,0.0
19.636,0.0,0.239,16.0
19.8,0.0,0.125,1.0
19.738,0.0,0.009,9.0
19.774,0.0,-0.108,0.0
19.779,0.0,-0.223,0.0
19.767,0.0,-0.339,0.0
19.666,0.0,0.198,10.0
19.808,0.0,0.083,3.0
19.75,0.0,-0.032,9.0
19.668,0.0,-0.149,0.0
19.732,0.0,-0.265,0.0
30.073,0.0,-0.58,0.0
19.804,0.0,0.156,1.0
19.747,0.0,0.041,6.0
19.758,0.0,-0.074,0.0
19.658,0.0,-0.191,0.0
19.806,0.0,-0.308,0.0
28.622,0.0,-0.614,0.0
19.8,-0.001,0.114,2.0
19.743,-0.001,-0.001,10.0
19.75,-0.001,-0.116,0.0
0.0,0.0,0.0,0.0
31.459,-0.003,-0.557,0.0
27.25,-0.003,-0.642,0.0
19.795,-0.003,0.072,4.0
19.753,-0.003,-0.043,7.0
19.821,-0.003,-0.159,0.0
0.0,0.0,0.0,0.0
29.913,-0.006,-0.594,0.0
25.778,-0.006,-0.663,0.0
19.74,-0.005,0.029,10.0
19.793,-0.006,-0.086,1.0
40.856,-0.013,-0.417,0.0
33.073,-0.012,-0.534,0.0
28.292,-0.01,-0.622,0.0
24.849,-0.01,-0.692,0.0
19.744,-0.009,-0.012,12.0
19.758,-0.009,-0.127,1.0
0.0,0.0,0.0,0.0
30.929,-0.017,-0.565,0.0
26.679,-0.015,-0.644,0.0
23.419,-0.014,-0.702,0.0
19.754,-0.013,-0.053,7.0
19.782,-0.014,-0.17,0.0
33.642,-0.025,-0.486,0.0
29.308,-0.022,-0.598,0.0
25.534,-0.02,-0.671,0.0
22.467,-0.019,-0.722,0.0
19.767,-0.018,-0.096,8.0
19.732,-0.019,-0.211,0.0
32.232,-0.032,-0.533,0.0
27.966,-0.029,-0.629,0.0
24.311,-0.026,-0.689,0.0
21.337,-0.023,-0.73,0.0
19.763,-0.024,-0.137,7.0
19.885,-0.025,-0.254,0.0
31.092,-0.04,-0.579,0.0
26.258,-0.035,-0.646,0.0
23.247,-0.032,-0.708,0.0
20.172,-0.028,-0.732,0.0
19.759,-0.03,-0.178,7.0
32.909,-0.052,-0.49,0.0
28.822,-0.047,-0.598,0.0
25.227,-0.042,-0.674,0.0
22.129,-0.038,-0.721,0.0
19.747,-0.035,-0.759,2.0
19.769,-0.037,-0.22,6.0
31.947,-0.062,-0.543,0.0
27.945,-0.056,-0.639,0.0
23.893,-0.049,-0.688,0.0
21.172,-0.044,-0.734,0.0
19.373,-0.042,-0.785,0.0
19.768,-0.045,-0.261,6.0
30.093,-0.07,-0.574,0.0
26.066,-0.063,-0.65,0.0
23.146,-0.057,-0.715,0.0
19.901,-0.05,-0.731,0.0
18.491,-0.048,-0.787,0.0
19.776,-0.053,-0.302,6.0
19.739,-0.055,-0.416,0.0
25.017,-0.071,-0.674,0.0
21.94,-0.063,-0.722,0.0
19.705,-0.058,-0.764,2.0
17.888,-0.054,-0.798,0.0
19.784,-0.063,-0.342,5.0
19.764,-0.064,-0.457,1.0
19.777,-0.065,-0.573,0.0
20.057,-0.068,-0.7,0.0
19.204,-0.066,-0.783,0.0
17.35,-0.061,-0.809,0.0
19.779,-0.072,-0.382,10.0
19.767,-0.074,-0.497,4.0
19.776,-0.075,-0.613,1.0
19.789,-0.077,-0.732,3.0
18.484,-0.073,-0.792,0.0
16.626,-0.067,-0.809,0.0
19.764,-0.083,-0.422,15.0
19.762,-0.085,-0.537,11.0
19.772,-0.086,-0.653,7.0
19.677,-0.087,-0.767,3.0
17.67,-0.08,-0.792,0.0
16.11,-0.074,-0.816,0.0
19.757,-0.094,-0.461,14.0
19.761,-0.096,-0.576,14.0
19.752,-0.097,-0.692,9.0
19.258,-0.097,-0.789,0.0
17.272,-0.088,-0.808,0.0
15.638,-0.081,-0.824,0.0
19.751,-0.106,-0.499,16.0
19.755,-0.108,-0.615,16.0
19.737,-0.109,-0.73,11.0
18.357,-0.103,-0.788,0.0
16.612,-0.095,-0.81,0.0
15.236,-0.089,-0.833,0.0
19.755,-0.119,-0.538,17.0
19.752,-0.12,-0.654,16.0
19.684,-0.122,-0.766,3.0
17.718,-0.111,-0.795,0.0
16.168,-0.103,-0.82,0.0
14.88,-0.096,-0.842,0.0
19.751,-0.132,-0.577,17.0
19.751,-0.134,-0.692,15.0
19.215,-0.132,-0.786,0.0
17.218,-0.12,-0.806,0.0
15.694,-0.111,-0.827,0.0
14.414,-0.103,-0.844,0.0
19.752,-0.146,-0.615,17.0
19.753,-0.148,-0.73,11.0
18.562,-0.141,-0.794,0.0
16.65,-0.128,-0.811,0.0
15.244,-0.119,-0.832,0.0
14.025,-0.111,-0.848,0.0
19.77,-0.16,-0.652,12.0
19.656,-0.161,-0.763,3.0
17.758,-0.148,-0.793,0.0
16.137,-0.136,-0.817,0.0
14.9,-0.127,-0.842,0.0
13.694,-0.118,-0.853,0.0
19.79,-0.175,-0.69,5.0
19.22,-0.172,-0.783,0.0
17.279,-0.157,-0.805,0.0
15.686,-0.144,-0.824,0.0
14.454,-0.135,-0.843,0.0
13.327,-0.126,-0.855,0.0
19.776,-0.191,-0.726,9.0
18.596,-0.182,-0.792,0.0
16.656,-0.165,-0.806,0.0
15.302,-0.153,-0.832,0.0
14.108,-0.143,-0.849,0.0
13.033,-0.134,-0.861,0.0
19.669,-0.206,-0.759,3.0
18.008,-0.191,-0.8,0.0
16.26,-0.175,-0.817,0.0
14.931,-0.162,-0.839,0.0
13.717,-0.151,-0.851,0.0
12.77,-0.142,-0.867,0.0
19.354,-0.22,-0.782,1.0
17.371,-0.199,-0.803,0.0
15.806,-0.183,-0.822,0.0
14.511,-0.17,-0.841,0.0
13.404,-0.159,-0.855,0.0
12.483,-0.15,-0.87,0.0
18.72,-0.229,-0.789,0.0
16.705,-0.206,-0.802,0.0
15.423,-0.193,-0.83,0.0
14.158,-0.179,-0.846,0.0
13.112,-0.167,-0.86,0.0
12.204,-0.157,-0.872,0.0
18.07,-0.238,-0.794,0.0
16.325,-0.217,-0.812,0.0
14.992,-0.201,-0.833,0.0
13.817,-0.187,-0.85,0.0
12.783,-0.175,-0.861,0.0
11.945,-0.165,-0.874,0.0
17.496,-0.247,-0.799,0.0
15.973,-0.227,-0.822,0.0
14.648,-0.211,-0.839,0.0
13.46,-0.195,-0.851,0.0
12.526,-0.184,-0.865,0.0
11.776,-0.174,-0.882,0.0
17.051,-0.257,-0.807,0.0
15.637,-0.238,-0.831,0.0
14.252,-0.219,-0.84,0.0
13.249,-0.205,-0.86,0.0
12.305,-0.193,-0.87,0.0
11.599,-0.183,-0.888,0.0
16.585,-0.266,-0.812,0.0
15.174,-0.246,-0.832,0.0
13.926,-0.228,-0.844,0.0
12.939,-0.214,-0.861,0.0
11.992,-0.2,-0.868,0.0
11.386,-0.191,-0.891,0.0
16.121,-0.275,-0.816,0.0
14.842,-0.256,-0.838,0.0
13.712,-0.238,-0.854,0.0
12.604,-0.221,-0.859,0.0
11.855,-0.21,-0.877,0.0
11.181,-0.2,-0.893,0.0
15.769,-0.286,-0.824,0.0
14.444,-0.264,-0.838,0.0
13.401,-0.247,-0.856,0.0
12.436,-0.231,-0.868,0.0
11.69,-0.219,-0.884,0.0
10.998,-0.208,-0.896,0.0
15.41,-0.296,-0.829,0.0
14.199,-0.275,-0.846,1.0
13.117,-0.256,-0.858,0.0
12.191,-0.24,-0.87,0.0
11.478,-0.228,-0.886,0.0
10.842,-0.217,-0.9,0.0
15.073,-0.306,-0.834,0.0
13.921,-0.285,-0.851,0.0
12.825,-0.264,-0.859,0.0
11.955,-0.249,-0.871,0.0
11.309,-0.237,-0.89,0.0
10.663,-0.226,-0.901,0.0
14.758,-0.316,-0.839,0.0
13.609,-0.294,-0.852,0.0
12.58,-0.274,-0.861,0.0
11.856,-0.26,-0.881,0.0
11.144,-0.246,-0.893,0.0
10.487,-0.234,-0.902,0.0
14.399,-0.325,-0.839,0.0
13.275,-0.301,-0.851,0.0
12.389,-0.283,-0.866,0.0
11.639,-0.269,-0.882,0.0
10.946,-0.255,-0.894,0.0
10.355,-0.243,-0.906,0.0
14.076,-0.333,-0.841,0.0
13.032,-0.311,-0.854,0.0
12.17,-0.293,-0.868,0.0
11.492,-0.279,-0.888,0.0
10.818,-0.264,-0.898,0.0
10.223,-0.252,-0.909,0.0
13.901,-0.346,-0.849,0.0
12.811,-0.321,-0.857,0.0
12.041,-0.304,-0.875,0.0
11.296,-0.287,-0.888,0.0
10.659,-0.273,-0.9,0.0
10.096,-0.261,-0.911,0.0
13.658,-0.356,-0.853,0.0
12.533,-0.329,-0.855,0.0
11.894,-0.314,-0.881,0.0
11.151,-0.297,-0.891,0.0
10.507,-0.282,-0.901,0.0
9.978,-0.27,-0.914,0.0
13.398,-0.365,-0.854,0.0
12.448,-0.342,-0.866,0.0
11.679,-0.323,-0.88,0.0
11.002,-0.306,-0.894,0.0
10.411,-0.292,-0.906,0.0
9.834,-0.278,-0.913,0.0
17.805,-0.507,-1.158,0.0
12.255,-0.352,-0.868,0.0
11.565,-0.334,-0.886,0.0
10.874,-0.316,-0.897,0.0
10.256,-0.301,-0.906,0.0
9.705,-0.286,-0.914,0.0
17.785,-0.529,-1.18,0.0
12.145,-0.364,-0.876,0.0
11.431,-0.345,-0.89,0.0
10.726,-0.326,-0.899,0.0
10.155,-0.31,-0.91,0.0
9.598,-0.295,-0.915,0.0
12.571,-0.39,-0.849,0.0
11.982,-0.374,-0.878,0.0
11.224,-0.353,-0.888,0.0
10.62,-0.336,-0.902,0.0
10.029,-0.32,-0.91,0.0
9.5,-0.305,-0.918,0.0
12.51,-0.404,-0.859,0.0
11.83,-0.385,-0.881,0.0
11.086,-0.363,-0.89,0.0
10.475,-0.345,-0.902,0.0
9.915,-0.329,-0.911,0.0
9.413,-0.314,-0.92,0.0
12.429,-0.418,-0.868,0.0
11.707,-0.396,-0.885,0.0
11.036,-0.376,-0.898,0.0
10.377,-0.355,-0.905,0.0
9.821,-0.338,-0.914,0.0
9.348,-0.324,-0.924,0.0
12.268,-0.428,-0.87,0.0
11.496,-0.404,-0.881,0.0
10.874,-0.384,-0.896,0.0
10.297,-0.366,-0.909,0.0
9.72,-0.348,-0.915,0.0
9.232,-0.332,-0.922,0.0
12.188,-0.441,-0.877,0.0
11.389,-0.415,-0.885,0.0
10.735,-0.393,-0.896,0.0
10.157,-0.375,-0.908,0.0
9.632,-0.358,-0.916,0.0
9.149,-0.342,-0.923,0.0
12.034,-0.452,-0.878,0.0
11.245,-0.425,-0.885,0.0
10.623,-0.404,-0.897,0.0
10.067,-0.385,-0.91,0.0
9.557,-0.368,-0.919,0.0
9.094,-0.352,-0.927,0.0
11.909,-0.463,-0.88,0.0
11.145,-0.436,-0.888,0.0
10.548,-0.415,-0.901,0.0
10.006,-0.396,-0.913,0.0
9.468,-0.377,-0.919,0.0
8.988,-0.36,-0.924,0.0
11.725,-0.472,-0.878,0.0
11.035,-0.447,-0.889,0.0
10.466,-0.426,-0.904,0.0
9.901,-0.405,-0.913,0.0
9.388,-0.387,-0.92,0.0
8.916,-0.369,-0.925,0.0
11.567,-0.481,-0.876,0.0
10.954,-0.458,-0.893,0.0
10.368,-0.436,-0.904,0.0
9.796,-0.414,-0.912,0.0
9.309,-0.396,-0.92,0.0
8.858,-0.379,-0.927,0.0
11.503,-0.494,-0.881,0.0
10.872,-0.47,-0.895,0.0
10.29,-0.447,-0.906,0.0
9.743,-0.426,-0.915,0.0
9.261,-0.407,-0.923,0.0
8.806,-0.389,-0.928,0.0
11.418,-0.507,-0.884,0.0
10.817,-0.482,-0.899,0.0
10.228,-0.459,-0.909,0.0
9.658,-0.435,-0.915,0.0
9.199,-0.417,-0.924,0.0
8.745,-0.399,-0.929,0.0
11.345,-0.519,-0.886,0.0
10.699,-0.492,-0.897,0.0
10.18,-0.47,-0.912,0.0
9.598,-0.446,-0.916,0.0
9.128,-0.426,-0.924,0.0
8.69,-0.408,-0.929,0.0
11.222,-0.529,-0.885,0.0
10.629,-0.504,-0.899,0.0
10.094,-0.481,-0.911,0.0
9.555,-0.457,-0.918,0.0
9.084,-0.437,-0.925,0.0
8.643,-0.418,-0.93,0.0
11.203,-0.543,-0.891,0.0
10.579,-0.516,-0.902,0.0
9.987,-0.489,-0.908,0.0
9.491,-0.467,-0.919,0.0
9.032,-0.447,-0.926,0.0
8.611,-0.428,-0.932,0.0
11.143,-0.556,-0.893,0.0
10.479,-0.525,-0.899,0.0
9.953,-0.501,-0.911,0.0
9.465,-0.479,-0.922,0.0
8.966,-0.456,-0.924,0.0
8.563,-0.438,-0.932,0.0
11.061,-0.567,-0.893,0.0
10.468,-0.539,-0.905,0.0
9.889,-0.512,-0.911,0.0
9.41,-0.489,-0.922,0.0
8.939,-0.467,-0.927,0.0
8.507,-0.447,-0.931,0.0
10.99,-0.579,-0.893,0.0
10.398,-0.55,-0.904,0.0
9.865,-0.524,-0.914,0.0
9.375,-0.501,-0.923,0.0
8.922,-0.479,-0.929,0.0
8.481,-0.457,-0.932,0.0
10.958,-0.592,-0.896,0.0
10.337,-0.561,-0.904,0.0
9.844,-0.537,-0.917,0.0
9.329,-0.511,-0.923,0.0
8.869,-0.488,-0.928,0.0
8.438,-0.467,-0.931,0.0
10.915,-0.605,-0.897,0.0
10.329,-0.575,-0.908,0.0
9.774,-0.546,-0.914,0.0
9.28,-0.521,-0.922,0.0
8.826,-0.498,-0.927,0.0
8.429,-0.478,-0.934,0.0
10.893,-0.619,-0.9,0.0
10.299,-0.587,-0.909,0.0
9.752,-0.559,-0.916,0.0
9.263,-0.533,-0.924,0.0
8.802,-0.509,-0.928,0.0
8.391,-0.487,-0.933,0.0
10.878,-0.633,-0.902,0.0
10.223,-0.597,-0.906,0.0
9.722,-0.57,-0.917,0.0
9.247,-0.545,-0.925,0.0
8.768,-0.519,-0.927,0.0
8.372,-0.498,-0.933,0.0
10.825,-0.644,-0.901,0.0
10.205,-0.61,-0.907,0.0
9.676,-0.581,-0.915,0.0
9.205,-0.555,-0.924,0.0
8.768,-0.531,-0.93,0.0
8.344,-0.508,-0.932,0.0
10.811,-0.658,-0.903,0.0
10.178,-0.622,-0.908,0.0
9.655,-0.593,-0.916,0.0
9.2,-0.567,-0.926,0.0
8.761,-0.542,-0.931,0.0
8.332,-0.518,-0.933,0.0
10.764,-0.67,-0.902,0.0
10.146,-0.634,-0.907,0.0
9.637,-0.605,-0.916,0.0
9.176,-0.578,-0.925,0.0
8.737,-0.553,-0.93,0.0
8.324,-0.529,-0.934,0.0
10.755,-0.684,-0.903,0.0
10.133,-0.647,-0.908,0.0
9.627,-0.617,-0.917,0.0
9.171,-0.59,-0.926,0.0
8.731,-0.564,-0.931,0.0
8.31,-0.539,-0.933,0.0
10.697,-0.694,-0.899,0.0
10.09,-0.657,-0.905,0.0
9.615,-0.629,-0.917,0.0
9.125,-0.599,-0.923,0.0
8.722,-0.575,-0.931,0.0
8.291,-0.549,-0.932,0.0
10.704,-0.709,-0.901,0.0
10.15,-0.675,-0.911,0.0
9.592,-0.64,-0.915,0.0
9.129,-0.612,-0.924,0.0
8.733,-0.587,-0.933,0.0
8.328,-0.562,-0.937,0.0
10.704,-0.723,-0.902,0.0
10.15,-0.688,-0.912,0.0
9.608,-0.654,-0.917,0.0
9.143,-0.625,-0.925,0.0
8.736,-0.599,-0.933,0.0
8.326,-0.573,-0.937,0.0
10.786,-0.742,-0.908,0.0
10.149,-0.701,-0.912,0.0
9.607,-0.666,-0.917,0.0
9.13,-0.635,-0.924,0.0
8.735,-0.61,-0.933,0.0
8.326,-0.584,-0.936,0.0
10.675,-0.748,-0.899,0.0
10.16,-0.715,-0.912,0.0
9.606,-0.678,-0.916,0.0
9.151,-0.649,-0.925,0.0
8.737,-0.622,-0.933,0.0
8.317,-0.594,-0.935,0.0
10.662,-0.761,-0.897,0.0
10.158,-0.727,-0.911,0.0
9.619,-0.691,-0.917,0.0
9.167,-0.661,-0.926,0.0
8.75,-0.634,-0.933,0.0
8.345,-0.606,-0.937,0.0
10.718,-0.779,-0.9,0.0
10.165,-0.741,-0.91,0.0
9.647,-0.706,-0.918,0.0
9.186,-0.674,-0.927,0.0
8.764,-0.646,-0.933,0.0
8.352,-0.617,-0.936,0.0
10.76,-0.795,-0.902,0.0
10.171,-0.754,-0.909,0.0
9.655,-0.718,-0.917,0.0
9.17,-0.684,-0.923,0.0
8.779,-0.658,-0.933,0.0
8.372,-0.629,-0.937,0.0
10.802,-0.811,-0.903,0.0
10.204,-0.769,-0.91,0.0
9.695,-0.733,-0.919,0.0
9.206,-0.698,-0.925,0.0
8.788,-0.669,-0.932,0.0
8.425,-0.643,-0.941,0.0
10.788,-0.823,-0.899,0.0
10.171,-0.778,-0.905,0.0
9.726,-0.747,-0.919,0.0
9.222,-0.71,-0.924,0.0
8.812,-0.681,-0.932,0.0
8.396,-0.651,-0.935,0.0
10.86,-0.841,-0.902,0.0
10.278,-0.799,-0.911,0.0
9.755,-0.76,-0.919,0.0
9.276,-0.725,-0.926,0.0
8.833,-0.693,-0.931,0.0
8.431,-0.663,-0.936,0.0
10.892,-0.856,-0.901,0.0
10.301,-0.812,-0.91,0.0
9.78,-0.773,-0.918,0.0
9.288,-0.737,-0.924,0.0
8.858,-0.705,-0.931,0.0
8.469,-0.676,-0.937,0.0
10.964,-0.874,-0.903,0.0
10.362,-0.829,-0.911,0.0
9.811,-0.787,-0.917,0.0
9.369,-0.754,-0.929,0.0
8.902,-0.718,-0.932,0.0
8.508,-0.689,-0.938,0.0
10.986,-0.888,-0.901,0.0
10.438,-0.846,-0.913,0.0
9.838,-0.8,-0.915,0.0
9.395,-0.766,-0.927,0.0
8.929,-0.73,-0.931,0.0
8.56,-0.702,-0.94,0.0
11.051,-0.905,-0.901,0.0
10.42,-0.856,-0.907,0.0
9.904,-0.816,-0.917,0.0
9.442,-0.78,-0.927,0.0
8.956,-0.742,-0.929,0.0
8.566,-0.712,-0.936,0.0
11.09,-0.92,-0.899,0.0
10.461,-0.87,-0.905,0.0
9.982,-0.833,-0.919,0.0
9.47,-0.792,-0.925,0.0
9.006,-0.756,-0.93,0.0
8.582,-0.722,-0.934,0.0
11.165,-0.938,-0.899,0.0
10.471,-0.882,-0.901,0.0
9.996,-0.844,-0.915,0.0
9.488,-0.803,-0.922,0.0
9.043,-0.768,-0.929,0.0
8.627,-0.735,-0.934,0.0
11.272,-0.959,-0.901,0.0
10.569,-0.901,-0.903,0.0
10.073,-0.861,-0.916,0.0
9.537,-0.817,-0.921,0.0
9.122,-0.784,-0.931,0.0
8.695,-0.749,-0.936,0.0
11.331,-0.975,-0.899,0.0
10.691,-0.922,-0.907,0.0
10.095,-0.873,-0.912,0.0
9.601,-0.832,-0.921,0.0
9.177,-0.797,-0.931,0.0
8.76,-0.763,-0.937,0.0
11.387,-0.99,-0.896,0.0
10.76,-0.938,-0.906,0.0
10.183,-0.89,-0.913,0.0
9.709,-0.85,-0.925,0.0
9.242,-0.811,-0.932,0.0
8.792,-0.774,-0.935,0.0
11.452,-1.006,-0.894,0.0
10.841,-0.955,-0.905,0.0
10.234,-0.903,-0.911,0.0
9.787,-0.866,-0.926,0.0
9.29,-0.824,-0.93,0.0
8.849,-0.787,-0.935,0.0
11.587,-1.028,-0.896,0.0
10.931,-0.972,-0.905,0.0
10.335,-0.921,-0.912,0.0
9.842,-0.879,-0.924,0.0
9.36,-0.838,-0.93,0.0
8.897,-0.799,-0.933,0.0
11.642,-1.043,-0.892,0.0
11.075,-0.995,-0.909,0.0
10.469,-0.942,-0.916,0.0
9.889,-0.892,-0.921,0.0
9.423,-0.852,-0.929,0.0
9.019,-0.817,-0.939,0.0
11.733,-1.061,-0.89,0.0
11.112,-1.007,-0.903,0.0
10.538,-0.957,-0.914,0.0
9.945,-0.905,-0.918,0.0
9.466,-0.863,-0.925,0.0
9.058,-0.828,-0.935,0.0
11.841,-1.081,-0.888,0.0
11.159,-1.02,-0.898,0.0
10.523,-0.964,-0.904,0.0
10.035,-0.921,-0.918,0.0
9.557,-0.879,-0.926,0.0
9.108,-0.84,-0.933,0.0
11.991,-1.103,-0.889,0.0
11.284,-1.04,-0.898,0.0
10.664,-0.985,-0.907,0.0
10.156,-0.94,-0.92,0.0
9.65,-0.895,-0.927,0.0
9.197,-0.855,-0.934,0.0
12.121,-1.124,-0.888,0.0
11.457,-1.064,-0.902,0.0
10.785,-1.004,-0.908,0.0
10.213,-0.952,-0.916,0.0
9.719,-0.908,-0.925,0.0
9.279,-0.869,-0.934,0.0
12.269,-1.146,-0.888,0.0
11.485,-1.075,-0.894,0.0
10.866,-1.019,-0.905,0.0
10.334,-0.971,-0.918,0.0
9.829,-0.925,-0.926,0.0
9.35,-0.881,-0.932,0.0
12.323,-1.16,-0.881,0.0
11.614,-1.094,-0.893,0.0
10.964,-1.035,-0.902,0.0
10.44,-0.987,-0.917,0.0
9.943,-0.942,-0.927,0.0
9.417,-0.894,-0.93,0.0
12.552,-1.189,-0.885,0.0
11.865,-1.125,-0.901,0.0
11.037,-1.048,-0.898,0.0
10.568,-1.006,-0.918,0.0
9.979,-0.951,-0.921,0.0
9.53,-0.91,-0.931,0.0
12.73,-1.213,-0.885,0.0
11.923,-1.138,-0.893,0.0
11.144,-1.065,-0.895,0.0
10.627,-1.017,-0.912,0.0
10.084,-0.967,-0.92,0.0
9.607,-0.922,-0.929,0.0
12.796,-1.226,-0.876,0.0
12.094,-1.161,-0.893,0.0
11.343,-1.09,-0.899,0.0
10.748,-1.034,-0.911,0.0
10.193,-0.982,-0.919,0.0
9.709,-0.937,-0.928,0.0
12.913,-1.244,-0.871,0.0
12.258,-1.183,-0.893,0.0
11.43,-1.104,-0.894,0.0
10.837,-1.048,-0.907,0.0
10.285,-0.996,-0.917,0.0
9.817,-0.952,-0.928,0.0
13.125,-1.271,-0.871,0.0
12.285,-1.191,-0.882,0.0
11.654,-1.131,-0.899,0.0
10.921,-1.061,-0.902,0.0
10.427,-1.014,-0.918,0.0
9.893,-0.964,-0.925,0.0
13.404,-1.303,-0.875,0.0
12.501,-1.217,-0.883,0.0
11.808,-1.151,-0.898,0.0
11.073,-1.08,-0.903,0.0
10.549,-1.031,-0.917,0.0
9.99,-0.977,-0.922,0.0
13.647,-1.332,-0.876,0.0
12.649,-1.236,-0.88,0.0
11.984,-1.172,-0.898,0.0
11.215,-1.098,-0.902,0.0
10.658,-1.045,-0.914,0.0
10.089,-0.99,-0.92,0.0
13.746,-1.347,-0.867,0.0
12.829,-1.258,-0.877,0.0
12.117,-1.189,-0.894,0.0
11.306,-1.111,-0.896,0.0
10.795,-1.062,-0.914,0.0
10.166,-1.001,-0.915,0.0
14.07,-1.383,-0.871,0.0
13.064,-1.285,-0.878,0.0
12.22,-1.203,-0.887,0.0
11.466,-1.13,-0.895,0.0
10.92,-1.077,-0.911,0.0
10.333,-1.02,-0.918,0.0
14.33,-1.412,-0.87,0.0
13.233,-1.305,-0.874,0.0
12.393,-1.223,-0.885,0.0
11.723,-1.158,-0.901,0.0
11.013,-1.089,-0.906,0.0
10.477,-1.037,-0.918,0.0
14.544,-1.437,-0.866,0.0
13.438,-1.328,-0.871,0.0
12.642,-1.25,-0.887,0.0
11.826,-1.171,-0.895,0.0
11.137,-1.103,-0.903,0.0
10.599,-1.051,-0.916,0.0
14.786,-1.463,-0.862,0.0
13.625,-1.349,-0.867,0.0
12.857,-1.274,-0.887,0.0
11.998,-1.19,-0.893,0.0
11.219,-1.113,-0.895,0.0
10.756,-1.068,-0.916,0.0
15.12,-1.498,-0.863,0.0
13.993,-1.387,-0.873,0.0
12.989,-1.288,-0.88,0.0
12.136,-1.205,-0.888,0.0
11.41,-1.133,-0.896,0.0
10.869,-1.08,-0.912,0.0
15.281,-1.516,-0.853,0.0
14.305,-1.42,-0.875,0.0
13.134,-1.304,-0.873,0.0
12.385,-1.23,-0.891,0.0
11.622,-1.155,-0.898,0.0
11.002,-1.094,-0.909,0.0
15.635,-1.552,-0.853,0.0
14.455,-1.435,-0.865,0.0
13.431,-1.334,-0.876,0.0
12.595,-1.251,-0.89,0.0
11.873,-1.18,-0.902,0.0
11.13,-1.107,-0.905,0.0
15.97,-1.585,-0.851,0.0
14.767,-1.466,-0.865,0.0
13.693,-1.36,-0.875,0.0
12.761,-1.268,-0.885,0.0
12.02,-1.194,-0.898,0.0
11.183,-1.112,-0.895,0.0
16.243,-1.612,-0.844,0.0
15.028,-1.491,-0.861,0.0
13.912,-1.381,-0.871,0.0
13.028,-1.293,-0.886,0.0
12.15,-1.207,-0.891,0.0
11.354,-1.128,-0.893,0.0
16.59,-1.645,-0.84,0.0
15.3,-1.517,-0.856,0.0
14.262,-1.414,-0.874,0.0
13.128,-1.302,-0.876,0.0
12.345,-1.224,-0.889,0.0
11.655,-1.156,-0.902,0.0
16.911,-1.675,-0.834,0.0
15.7,-1.555,-0.858,0.0
14.489,-1.435,-0.868,0.0
13.39,-1.326,-0.875,0.0
12.602,-1.248,-0.891,0.0
11.872,-1.176,-0.902,0.0
17.211,-1.702,-0.826,0.0
16.065,-1.588,-0.856,0.0
14.778,-1.461,-0.866,0.0
13.687,-1.353,-0.876,0.0
12.761,-1.261,-0.885,0.0
12.022,-1.188,-0.898,0.0
17.46,-1.723,-0.814,0.0
16.302,-1.608,-0.847,0.0
15.043,-1.483,-0.861,0.0
13.922,-1.373,-0.872,0.0
12.983,-1.28,-0.882,0.0
12.207,-1.203,-0.895,0.0
17.97,-1.768,-0.814,0.0
16.519,-1.625,-0.836,0.0
15.399,-1.514,-0.861,0.0
14.258,-1.402,-0.874,0.0
13.29,-1.306,-0.885,0.0
12.387,-1.217,-0.891,0.0
18.506,-1.816,-0.813,0.0
16.929,-1.66,-0.833,0.0
15.578,-1.527,-0.849,0.0
14.481,-1.419,-0.868,0.0
13.422,-1.315,-0.876,0.0
12.59,-1.233,-0.888,0.0
18.823,-1.84,-0.801,0.0
17.334,-1.694,-0.83,0.0
16.059,-1.569,-0.854,0.0
14.795,-1.444,-0.866,0.0
13.721,-1.339,-0.876,0.0
12.853,-1.254,-0.889,0.0
19.298,-1.879,-0.795,0.0
17.502,-1.703,-0.814,0.0
16.435,-1.599,-0.851,0.0
15.06,-1.464,-0.861,0.0
13.995,-1.36,-0.875,0.0
12.986,-1.261,-0.881,0.0
19.874,-1.927,-0.792,0.0
18.093,-1.753,-0.817,0.0
16.595,-1.607,-0.837,0.0
15.471,-1.497,-0.864,0.0
14.343,-1.387,-0.877,0.0
13.14,-1.27,-0.873,0.0
20.187,-1.948,-0.777,0.0
18.557,-1.789,-0.812,0.0
17.018,-1.639,-0.835,0.0
15.684,-1.51,-0.854,0.0
14.501,-1.395,-0.866,0.0
13.575,-1.305,-0.883,0.0
20.733,-1.99,-0.769,0.0
18.881,-1.81,-0.8,0.0
17.394,-1.666,-0.829,0.0
16.031,-1.534,-0.851,0.0
14.877,-1.422,-0.868,0.0
13.791,-1.317,-0.878,0.0
21.573,-2.058,-0.771,0.0
19.667,-1.874,-0.806,0.0
17.86,-1.7,-0.827,0.0
16.403,-1.56,-0.848,0.0
15.158,-1.44,-0.864,0.0
14.072,-1.336,-0.876,0.0
22.088,-2.094,-0.759,0.0
19.815,-1.876,-0.785,0.0
18.158,-1.717,-0.816,0.0
16.751,-1.582,-0.843,0.0
15.462,-1.459,-0.86,0.0
14.378,-1.355,-0.875,0.0
22.497,-2.118,-0.742,0.0
20.378,-1.916,-0.78,0.0
18.627,-1.749,-0.811,0.0
17.029,-1.597,-0.833,0.0
15.816,-1.482,-0.858,0.0
14.59,-1.365,-0.868,0.0
23.065,-2.155,-0.729,0.0
20.781,-1.939,-0.766,0.0
19.033,-1.773,-0.802,0.0
17.5,-1.628,-0.832,0.0
16.094,-1.496,-0.85,0.0
14.948,-1.387,-0.869,0.0
23.68,-2.195,-0.716,0.0
21.684,-2.007,-0.77,0.0
19.78,-1.828,-0.807,0.0
17.646,-1.628,-0.815,0.0
16.539,-1.524,-0.851,0.0
15.088,-1.389,-0.856,0.0
0.0,0.0,0.0,0.0
22.202,-2.037,-0.758,0.0
19.972,-1.83,-0.787,0.0
18.218,-1.666,-0.816,0.0
16.985,-1.551,-0.851,0.0
15.548,-1.418,-0.861,0.0
25.0,-2.277,-0.688,0.0
22.596,-2.054,-0.741,0.0
20.322,-1.845,-0.773,0.0
18.734,-1.698,-0.814,0.0
17.115,-1.548,-0.834,0.0
15.848,-1.431,-0.856,0.0
26.378,-2.38,-0.69,0.0
23.475,-2.114,-0.738,0.0
0.0,0.0,0.0,0.0
19.173,-1.72,-0.807,0.0
17.459,-1.564,-0.827,0.0
16.122,-1.441,-0.849,0.0
27.436,-2.45,-0.68,0.0
24.022,-2.141,-0.722,0.0
21.625,-1.923,-0.765,0.0
19.476,-1.729,-0.793,0.0
17.848,-1.581,-0.821,0.0
16.603,-1.468,-0.852,0.0
0.0,0.0,0.0,0.0
24.418,-2.152,-0.702,0.0
22.226,-1.955,-0.756,0.0
20.036,-1.759,-0.789,0.0
18.613,-1.631,-0.832,0.0
16.849,-1.473,-0.842,0.0
0.0,0.0,0.0,0.0
25.796,-2.248,-0.707,0.0
22.666,-1.971,-0.741,0.0
20.242,-1.756,-0.771,0.0
18.747,-1.623,-0.813,0.0
17.274,-1.492,-0.841,0.0
0.0,0.0,0.0,0.0
26.23,-2.258,-0.684,0.0
23.566,-2.024,-0.739,0.0
20.804,-1.783,-0.765,0.0
19.034,-1.627,-0.801,0.0
17.449,-1.488,-0.826,1.0
30.68,-2.614,-0.598,0.0
27.259,-2.317,-0.676,0.0
24.223,-2.054,-0.728,0.0
21.796,-1.844,-0.773,0.0
19.762,-1.668,-0.806,0.0
17.601,-1.482,-0.811,0.0
