X,Y,Z,Reflectivity
19.632,0.175,0.425,10.0
19.65,0.179,0.322,9.0
19.655,0.183,0.219,11.0
19.669,0.187,0.117,11.0
19.661,0.19,0.667,10.0
19.688,0.194,0.566,10.0
19.696,0.197,0.463,9.0
19.713,0.201,0.359,10.0
19.732,0.205,0.256,9.0
19.752,0.209,0.154,16.0
19.666,0.212,0.703,10.0
19.661,0.215,0.6,10.0
19.688,0.219,0.498,10.0
19.704,0.223,0.394,10.0
19.722,0.227,0.291,11.0
19.748,0.231,0.189,25.0
19.661,0.234,0.738,9.0
19.646,0.238,0.635,14.0
19.666,0.242,0.533,12.0
19.684,0.246,0.428,10.0
19.709,0.25,0.326,12.0
19.751,0.254,0.223,18.0
84.833,1.109,3.336,27.0
19.641,0.26,0.669,15.0
19.644,0.264,0.566,13.0
19.661,0.268,0.462,11.0
19.69,0.273,0.36,14.0
19.724,0.277,0.257,14.0
121.706,1.736,4.997,7.0
19.643,0.284,0.703,10.0
19.648,0.288,0.6,12.0
19.668,0.292,0.496,12.0
19.7,0.297,0.394,12.0
19.745,0.302,0.291,2.0
121.394,1.881,5.194,27.0
19.686,0.309,0.738,0.0
19.656,0.312,0.634,8.0
19.696,0.317,0.531,4.0
19.716,0.322,0.428,2.0
55.205,0.914,0.909,32.0
55.217,0.925,2.456,43.0
55.192,0.936,2.164,49.0
55.186,0.947,1.874,60.0
55.166,0.959,1.578,71.0
55.169,0.971,1.289,72.0
55.16,0.983,0.999,73.0
55.199,0.995,2.547,63.0
55.181,1.007,2.256,59.0
55.194,1.019,1.966,47.0
55.189,1.031,1.67,43.0
55.209,1.043,1.381,23.0
55.198,1.056,1.091,8.0
121.653,2.352,5.813,24.0
121.301,2.371,5.156,26.0
135.078,2.671,5.031,12.0
135.28,2.705,4.313,25.0
134.743,2.724,3.585,4.0
179.277,3.665,3.828,17.0
121.601,2.512,6.005,13.0
121.528,2.538,5.361,21.0
121.257,2.559,4.708,17.0
135.141,2.882,4.521,12.0
134.748,2.905,3.799,22.0
135.347,2.948,3.101,2.0
129.379,2.849,6.593,20.0
121.626,2.705,5.555,7.0
121.297,2.724,4.899,11.0
114.337,2.594,4.002,16.0
98.589,2.26,2.931,16.0
98.573,2.282,2.411,150.0
129.558,3.03,6.803,9.0
129.192,3.051,6.099,9.0
121.362,2.894,5.087,13.0
113.762,2.738,4.155,19.0
0.0,0.0,0.0,0.0
99.693,2.447,2.588,37.0
121.22,3.004,6.547,10.0
121.076,3.029,5.898,9.0
45.503,1.149,1.975,2.0
45.5,1.159,1.73,15.0
0.0,0.0,0.0,0.0
0.0,0.0,0.0,0.0
43.712,1.145,2.425,117.0
43.707,1.155,2.193,120.0
0.0,0.0,0.0,0.0
0.0,0.0,0.0,0.0
41.895,1.137,1.431,53.0
41.918,1.148,1.21,150.0
0.0,0.0,0.0,0.0
40.118,1.118,2.071,34.0
40.099,1.127,1.856,70.0
40.119,1.138,1.64,108.0
40.121,1.147,1.428,127.0
40.127,1.157,1.215,136.0
40.112,1.167,2.34,150.0
40.12,1.177,2.127,110.0
40.125,1.186,1.914,110.0
40.118,1.196,1.696,124.0
40.112,1.205,1.482,150.0
40.111,1.216,1.269,150.0
40.117,1.227,2.396,140.0
40.123,1.236,2.182,116.0
40.125,1.246,1.968,104.0
40.113,1.255,1.75,87.0
40.114,1.265,1.536,133.0
40.113,1.275,1.322,150.0
40.119,1.286,2.449,117.0
40.121,1.295,2.234,120.0
40.125,1.305,2.02,92.0
40.093,1.313,1.8,43.0
40.115,1.324,1.587,7.0
120.515,4.008,4.127,17.0
0.0,0.0,0.0,0.0
120.181,4.061,6.848,16.0
121.183,4.125,6.257,13.0
120.348,4.125,5.558,14.0
120.317,4.153,4.914,10.0
120.459,4.188,4.276,20.0
40.21,1.41,2.557,150.0
136.817,4.831,7.968,8.0
135.462,4.816,7.161,13.0
121.05,4.332,5.739,17.0
120.028,4.326,5.049,21.0
120.372,4.368,4.419,17.0
40.205,1.471,2.605,135.0
135.938,5.009,8.081,14.0
121.091,4.491,6.548,15.0
121.046,4.518,5.884,13.0
120.216,4.518,5.2,19.0
178.543,6.754,6.767,6.0
0.0,0.0,0.0,0.0
45.549,1.748,2.761,2.0
120.859,4.668,6.676,18.0
120.903,4.7,6.017,19.0
179.534,7.024,7.972,15.0
178.62,7.036,6.975,17.0
41.973,1.666,2.818,107.0
45.577,1.821,2.815,19.0
120.81,4.856,6.811,23.0
121.038,4.896,6.161,20.0
180.075,7.328,8.197,14.0
178.976,7.33,7.186,16.0
0.0,0.0,0.0,0.0
45.559,1.892,2.864,75.0
120.774,5.045,6.941,20.0
23.556,0.99,1.224,0.0
23.626,0.998,1.1,1.0
23.603,1.003,0.972,23.0
40.177,1.721,2.785,3.0
23.597,1.017,1.508,39.0
23.584,1.022,1.38,43.0
23.585,1.028,1.25,45.0
23.581,1.033,1.123,47.0
23.581,1.039,0.996,51.0
23.561,1.047,1.657,66.0
23.563,1.053,1.53,69.0
23.561,1.059,1.402,79.0
23.561,1.064,1.273,74.0
23.569,1.071,1.146,74.0
23.565,1.077,1.018,70.0
23.559,1.085,1.681,76.0
23.558,1.091,1.553,74.0
23.55,1.096,1.425,66.0
23.565,1.103,1.296,55.0
23.579,1.109,1.169,49.0
23.588,1.115,1.042,43.0
23.578,1.124,1.705,44.0
23.591,1.13,1.577,38.0
23.572,1.135,1.448,21.0
23.575,1.141,1.318,12.0
23.591,1.147,1.191,4.0
23.608,1.154,1.064,0.0
40.208,1.982,2.944,119.0
41.977,2.079,2.845,113.0
45.567,2.268,2.841,97.0
0.0,0.0,0.0,0.0
0.0,0.0,0.0,0.0
181.077,9.147,8.321,4.0
40.216,2.047,2.979,89.0
0.0,0.0,0.0,0.0
0.0,0.0,0.0,0.0
0.0,0.0,0.0,0.0
0.0,0.0,0.0,0.0
0.0,0.0,0.0,0.0
40.193,2.112,3.011,28.0
0.0,0.0,0.0,0.0
0.0,0.0,0.0,0.0
0.0,0.0,0.0,0.0
0.0,0.0,0.0,0.0
0.0,0.0,0.0,0.0
40.202,2.178,3.044,1.0
40.183,2.187,2.823,83.0
45.508,2.487,2.948,5.0
0.0,0.0,0.0,0.0
0.0,0.0,0.0,0.0
0.0,0.0,0.0,0.0
0.0,0.0,0.0,0.0
40.198,2.253,2.853,118.0
0.0,0.0,0.0,0.0
0.0,0.0,0.0,0.0
0.0,0.0,0.0,0.0
0.0,0.0,0.0,0.0
0.0,0.0,0.0,0.0
40.192,2.319,2.881,122.0
0.0,0.0,0.0,0.0
45.41,2.642,2.753,0.0
0.0,0.0,0.0,0.0
205.713,12.069,10.223,5.0
0.0,0.0,0.0,0.0
40.195,2.385,2.908,126.0
0.0,0.0,0.0,0.0
45.553,2.724,2.791,4.0
0.0,0.0,0.0,0.0
0.0,0.0,0.0,0.0
0.0,0.0,0.0,0.0
40.188,2.45,2.932,121.0
41.992,2.57,2.833,150.0
45.532,2.798,2.816,19.0
0.0,0.0,0.0,0.0
0.0,0.0,0.0,0.0
0.0,0.0,0.0,0.0
40.187,2.516,2.955,97.0
41.975,2.638,2.855,141.0
45.533,2.872,2.842,80.0
100.844,6.385,5.74,3.0
100.566,6.392,5.173,6.0
99.934,6.4,7.953,31.0
40.184,2.582,2.976,82.0
0.0,0.0,0.0,0.0
45.534,2.947,2.865,104.0
99.96,6.492,5.741,34.0
99.96,6.516,5.191,33.0
99.924,6.56,8.001,34.0
40.165,2.646,2.994,36.0
0.0,0.0,0.0,0.0
0.0,0.0,0.0,0.0
99.939,6.654,5.786,34.0
99.951,6.677,5.236,35.0
99.941,6.725,8.048,34.0
40.162,2.711,3.011,19.0
0.0,0.0,0.0,0.0
0.0,0.0,0.0,0.0
45.556,3.106,2.656,150.0
99.963,6.839,5.278,32.0
99.91,6.883,8.086,30.0
99.921,6.905,7.533,22.0
41.915,2.905,2.927,3.0
43.772,3.044,2.81,135.0
0.0,0.0,0.0,0.0
99.977,6.998,5.314,34.0
99.938,7.045,8.124,34.0
99.915,7.065,7.568,26.0
40.168,2.849,2.819,95.0
43.758,3.113,2.824,130.0
43.76,3.123,2.582,111.0
45.467,3.255,2.431,150.0
99.923,7.202,8.156,33.0
99.921,7.224,7.6,29.0
40.18,2.913,2.833,95.0
41.953,3.051,2.72,107.0
45.414,3.313,2.693,63.0
45.454,3.326,2.444,150.0
99.098,7.301,8.116,5.0
40.1,2.963,3.06,3.0
40.179,2.977,2.843,109.0
41.957,3.118,2.732,110.0
0.0,0.0,0.0,0.0
43.674,3.265,2.359,115.0
99.032,7.453,8.135,51.0
99.057,7.476,7.583,50.0
40.178,3.04,2.852,116.0
40.17,3.049,2.624,132.0
43.668,3.323,2.61,150.0
43.673,3.333,2.367,116.0
94.984,7.298,7.821,2.0
94.908,7.311,7.285,4.0
40.18,3.103,2.859,100.0
40.166,3.11,2.63,143.0
41.884,3.252,2.51,114.0
41.877,3.261,2.277,115.0
94.849,7.435,7.824,50.0
94.851,7.454,7.294,65.0
40.179,3.165,2.865,106.0
40.171,3.173,2.636,150.0
41.885,3.317,2.515,112.0
41.877,3.325,2.282,109.0
94.939,7.589,7.842,6.0
94.844,7.599,7.303,4.0
40.081,3.219,2.862,101.0
40.091,3.228,2.634,103.0
40.082,3.235,2.41,113.0
40.089,3.244,2.187,106.0
98.403,8.017,8.135,12.0
98.243,8.022,7.571,9.0
40.082,3.28,2.864,82.0
40.076,3.288,2.636,119.0
40.084,3.297,2.412,133.0
40.085,3.305,2.188,113.0
96.4,7.999,7.972,8.0
96.249,8.005,7.42,6.0
40.079,3.341,2.864,80.0
40.082,3.349,2.636,128.0
40.084,3.357,2.412,125.0
40.083,3.364,2.188,106.0
87.098,7.357,7.202,5.0
87.045,7.368,6.709,10.0
40.069,3.399,2.863,20.0
40.057,3.405,2.633,8.0
40.075,3.415,2.41,2.0
87.082,7.438,4.75,16.0
87.044,7.481,7.193,66.0
87.054,7.496,6.704,60.0
87.056,7.513,6.214,50.0
87.051,7.528,5.717,44.0
87.057,7.545,5.229,30.0
87.059,7.563,4.741,22.0
87.074,7.611,7.187,4.0
87.027,7.621,6.693,4.0
87.048,7.639,6.205,47.0
82.868,7.287,5.432,0.0
83.074,7.321,4.979,1.0
83.057,7.334,4.513,1.0
82.912,7.366,6.832,5.0
82.898,7.38,6.363,7.0
82.92,7.396,5.898,9.0
82.908,7.409,5.423,11.0
82.923,7.426,4.957,11.0
82.932,7.442,4.492,18.0
82.876,7.48,6.816,60.0
82.885,7.495,6.348,55.0
82.885,7.508,5.881,59.0
82.894,7.523,5.405,46.0
82.895,7.538,4.939,33.0
82.901,7.554,4.474,28.0
82.883,7.596,6.798,7.0
82.888,7.61,6.33,32.0
82.892,7.623,5.862,5.0
82.941,7.641,5.389,5.0
82.965,7.658,4.924,4.0
82.961,7.672,4.457,3.0
86.322,8.029,7.058,3.0
82.964,7.73,6.314,4.0
82.975,7.743,5.846,5.0
86.046,8.044,5.568,9.0
85.919,8.046,5.076,9.0
85.705,8.041,4.581,8.0
85.381,8.056,6.957,5.0
85.177,8.05,6.458,3.0
82.902,7.847,5.817,18.0
85.069,8.066,5.479,10.0
85.014,8.075,4.995,10.0
84.854,8.075,4.507,10.0
83.504,7.99,6.777,10.0
84.052,8.055,6.345,7.0
82.953,7.962,5.791,10.0
83.856,8.062,5.372,9.0
83.85,8.075,4.898,10.0
83.726,8.077,4.418,11.0
82.671,8.019,6.678,4.0
82.682,8.032,6.21,1.0
82.699,8.045,5.742,1.0
75.361,7.342,4.799,0.0
75.201,7.339,4.363,1.0
75.168,7.347,3.937,1.0
75.117,7.382,6.038,4.0
75.1,7.39,5.61,5.0
75.102,7.401,5.184,6.0
75.099,7.411,4.751,6.0
75.081,7.42,4.324,8.0
75.065,7.43,3.899,9.0
75.045,7.467,6.0,27.0
75.043,7.477,5.572,33.0
75.048,7.487,5.147,48.0
75.052,7.498,4.714,48.0
75.055,7.509,4.288,107.0
75.047,7.52,3.863,124.0
75.043,7.559,5.963,20.0
75.056,7.569,5.537,20.0
75.048,7.578,5.11,20.0
75.042,7.587,4.676,18.0
75.052,7.599,4.251,32.0
75.061,7.61,3.827,11.0
75.086,7.651,5.929,10.0
75.116,7.663,5.503,4.0
75.065,7.667,5.073,3.0
75.085,7.679,4.64,4.0
75.044,7.685,4.211,13.0
75.114,7.702,3.79,6.0
71.017,7.318,5.569,0.0
70.925,7.316,5.157,1.0
70.976,7.331,4.757,2.0
70.954,7.337,4.345,2.0
71.03,7.354,3.947,2.0
70.992,7.36,3.541,3.0
70.92,7.388,5.52,6.0
70.893,7.393,5.114,6.0
70.897,7.402,4.71,7.0
70.899,7.411,4.299,7.0
70.922,7.422,3.897,8.0
70.907,7.429,3.495,9.0
70.879,7.462,5.473,23.0
70.86,7.467,5.067,28.0
70.882,7.477,4.665,31.0
70.881,7.485,4.254,38.0
70.883,7.494,3.851,48.0
70.88,7.502,3.448,80.0
70.861,7.534,5.427,36.0
70.872,7.543,5.022,40.0
70.861,7.549,4.617,33.0
70.865,7.557,4.207,32.0
70.863,7.565,3.803,27.0
70.891,7.577,3.401,24.0
70.885,7.61,5.38,8.0
70.895,7.618,4.976,8.0
70.903,7.626,4.571,7.0
70.882,7.63,4.159,7.0
70.917,7.642,3.757,7.0
70.929,7.651,3.354,6.0
70.955,7.688,5.335,3.0
70.979,7.696,4.931,3.0
70.903,7.695,4.521,2.0
70.913,7.703,4.109,2.0
70.979,7.718,3.709,2.0
71.012,7.729,3.307,2.0
73.616,8.046,5.481,8.0
73.357,8.024,5.042,7.0
73.365,8.031,4.623,8.0
73.597,8.064,4.21,8.0
73.784,8.091,3.8,10.0
73.709,8.091,3.376,10.0
73.24,8.073,5.396,11.0
73.061,8.059,4.965,10.0
72.845,8.041,4.534,8.0
72.801,8.043,4.107,8.0
73.075,8.08,3.706,9.0
73.199,8.101,3.295,10.0
72.665,8.074,5.296,12.0
72.693,8.082,4.882,10.0
72.507,8.066,4.455,10.0
72.307,8.05,4.022,8.0
72.371,8.064,3.612,7.0
72.545,8.09,3.207,9.0
72.08,8.069,5.194,6.0
72.163,8.083,4.787,10.0
72.165,8.088,4.374,10.0
72.0,8.076,3.945,9.0
71.895,8.07,3.528,4.0
71.966,8.085,3.121,3.0
71.281,8.038,5.075,3.0
71.519,8.069,4.682,4.0
71.706,8.094,4.284,9.0
71.644,8.092,3.864,8.0
71.466,8.078,3.446,6.0
71.245,8.059,3.028,3.0
70.912,8.05,4.988,9.0
70.782,8.039,4.572,6.0
71.081,8.078,4.184,8.0
71.229,8.099,3.779,7.0
71.146,8.095,3.367,7.0
70.849,8.066,2.948,6.0
70.701,8.077,4.91,10.0
70.481,8.055,4.49,8.0
70.479,8.059,4.086,6.0
70.688,8.087,3.686,8.0
70.81,8.106,3.287,9.0
70.555,8.082,2.873,2.0
70.376,8.088,4.822,9.0
70.29,8.081,4.412,8.0
70.091,8.062,3.998,5.0
70.008,8.056,3.585,2.0
70.407,8.107,3.202,6.0
56.324,6.489,2.24,3.0
69.992,8.089,4.729,3.0
70.036,8.097,4.33,7.0
69.913,8.086,3.921,6.0
69.707,8.066,3.503,4.0
69.789,8.08,3.107,2.0
56.049,6.492,2.175,7.0
63.206,7.344,4.208,1.0
63.185,7.344,3.843,1.0
63.197,7.348,3.481,3.0
63.289,7.361,3.118,1.0
63.156,7.349,2.749,1.0
55.774,6.493,2.109,2.0
63.157,7.373,4.142,3.0
63.214,7.382,3.784,3.0
16.842,1.967,0.911,1.0
63.173,7.382,3.05,3.0
63.154,7.382,2.687,1.0
55.514,6.492,2.045,8.0
63.175,7.408,4.08,5.0
63.127,7.404,3.715,5.0
63.164,7.41,3.354,6.0
63.141,7.41,2.984,5.0
55.281,6.49,2.296,4.0
55.302,6.495,1.98,5.0
63.138,7.434,4.013,8.0
63.131,7.435,3.649,7.0
63.13,7.436,3.286,8.0
63.128,7.438,2.918,7.0
55.104,6.494,2.231,6.0
55.114,6.498,1.916,10.0
63.117,7.459,3.944,15.0
63.119,7.461,3.581,14.0
63.123,7.462,3.219,13.0
63.124,7.464,2.85,12.0
54.878,6.49,2.164,9.0
54.94,6.5,1.852,11.0
63.108,7.483,3.877,26.0
63.115,7.484,3.514,22.0
63.114,7.485,3.151,21.0
63.123,7.487,2.784,22.0
54.748,6.495,2.1,13.0
54.778,6.501,1.788,12.0
63.111,7.505,3.809,45.0
63.108,7.505,3.445,37.0
63.117,7.507,3.083,37.0
63.092,7.505,2.713,18.0
54.619,6.498,2.035,14.0
54.627,6.501,1.722,12.0
63.107,7.524,3.738,106.0
63.099,7.523,3.375,78.0
63.097,7.523,3.012,78.0
54.439,6.491,2.281,5.0
54.485,6.498,1.97,13.0
54.516,6.502,1.659,13.0
63.102,7.54,3.667,124.0
63.099,7.539,3.303,150.0
63.102,7.54,2.942,150.0
54.333,6.492,2.215,4.0
54.394,6.5,1.905,10.0
54.434,6.505,1.595,11.0
63.099,7.553,3.596,90.0
63.099,7.552,3.233,126.0
63.099,7.552,2.871,139.0
54.254,6.493,2.151,5.0
54.286,6.497,1.841,11.0
54.338,6.504,1.532,10.0
63.112,7.565,3.525,53.0
63.102,7.563,3.162,85.0
63.101,7.562,2.8,92.0
54.15,6.489,2.085,8.0
54.247,6.501,1.778,13.0
54.293,6.506,1.468,11.0
63.098,7.572,3.452,44.0
63.114,7.572,3.089,55.0
63.092,7.569,2.725,29.0
54.137,6.493,2.022,11.0
54.208,6.502,1.714,13.0
54.261,6.508,1.404,12.0
63.104,7.577,3.378,32.0
63.106,7.576,3.015,39.0
54.046,6.487,2.271,3.0
54.128,6.496,1.958,12.0
54.214,6.505,1.651,12.0
54.247,6.509,1.341,12.0
63.107,7.58,3.304,31.0
63.11,7.578,2.941,38.0
54.098,6.494,2.211,4.0
54.14,6.498,1.896,13.0
54.198,6.504,1.587,13.0
54.272,6.513,1.278,12.0
63.111,7.58,3.23,30.0
63.111,7.577,2.868,40.0
54.097,6.493,2.146,5.0
54.173,6.501,1.833,12.0
54.242,6.508,1.524,12.0
54.29,6.513,1.214,13.0
63.114,7.576,3.155,51.0
63.102,7.572,2.792,53.0
54.169,6.498,2.086,8.0
54.198,6.5,1.77,12.0
54.281,6.508,1.461,12.0
54.356,6.516,1.151,13.0
63.117,7.57,3.08,78.0
63.104,7.565,2.717,32.0
54.207,6.496,2.022,10.0
54.273,6.502,1.708,13.0
54.351,6.51,1.398,12.0
54.435,6.518,1.088,12.0
63.106,7.559,3.005,123.0
54.227,6.493,2.27,3.0
54.315,6.501,1.962,11.0
54.399,6.508,1.648,11.0
54.448,6.512,1.336,12.0
54.525,6.52,1.025,11.0
63.111,7.548,2.93,150.0
54.377,6.5,2.212,4.0
54.417,6.502,1.901,12.0
54.498,6.509,1.586,13.0
54.564,6.514,1.274,13.0
54.627,6.52,0.962,12.0
63.107,7.532,2.854,88.0
54.467,6.497,2.15,10.0
54.564,6.506,1.841,13.0
54.63,6.51,1.524,13.0
54.696,6.516,1.211,13.0
54.758,6.521,0.899,12.0
63.113,7.514,2.778,24.0
54.624,6.5,2.09,13.0
54.705,6.506,1.779,13.0
54.753,6.508,1.461,11.0
54.84,6.516,1.149,12.0
54.922,6.523,0.835,12.0
63.153,7.498,2.703,5.0
54.804,6.503,2.031,14.0
54.897,6.51,1.719,12.0
54.948,6.513,1.4,11.0
55.031,6.519,1.086,13.0
55.123,6.527,0.773,11.0
54.876,6.495,2.282,4.0
54.968,6.501,1.97,13.0
55.064,6.508,1.658,9.0
55.157,6.515,1.339,12.0
55.261,6.524,1.025,12.0
55.356,6.532,0.71,12.0
55.11,6.499,2.226,8.0
55.221,6.507,1.914,10.0
55.305,6.513,1.599,11.0
55.417,6.522,1.279,13.0
55.521,6.53,0.964,12.0
55.601,6.536,0.646,12.0
55.353,6.501,2.17,9.0
55.447,6.507,1.855,8.0
55.571,6.517,1.54,13.0
55.65,6.522,1.218,14.0
55.768,6.531,0.901,12.0
55.849,6.537,0.582,12.0
55.624,6.504,2.113,5.0
55.731,6.511,1.797,12.0
55.829,6.518,1.481,14.0
55.924,6.524,1.157,13.0
56.031,6.532,0.838,12.0
56.129,6.539,0.519,12.0
55.867,6.501,2.056,6.0
56.001,6.511,1.74,11.0
56.129,6.521,1.422,12.0
56.222,6.526,1.096,13.0
56.326,6.533,0.776,12.0
56.389,6.536,0.454,11.0
56.202,6.506,2.001,11.0
56.308,6.512,1.683,11.0
56.435,6.521,1.362,11.0
56.552,6.529,1.035,12.0
56.653,6.536,0.713,11.0
56.714,6.538,0.389,5.0
65.993,6.524,1.143,10.0
66.176,6.53,0.77,11.0
49.903,4.915,0.297,20.0
45.601,4.483,0.008,20.0
39.638,3.89,-0.217,14.0
31.452,3.081,-0.351,9.0
66.916,6.525,1.098,7.0
67.1,6.531,0.72,6.0
49.959,4.853,0.253,3.0
45.174,4.379,-0.031,19.0
0.0,0.0,0.0,0.0
30.665,2.961,-0.369,9.0
67.886,6.526,1.053,9.0
68.09,6.532,0.67,9.0
0.0,0.0,0.0,0.0
44.927,4.292,-0.071,20.0
36.164,3.448,-0.262,2.0
29.714,2.827,-0.384,8.0
68.912,6.526,1.01,8.0
69.1,6.529,0.62,4.0
47.012,4.433,0.156,21.0
45.066,4.24,-0.109,19.0
35.468,3.33,-0.287,6.0
28.715,2.691,-0.395,7.0
70.022,6.529,0.967,10.0
70.297,6.54,0.573,4.0
47.044,4.367,0.117,21.0
41.212,3.817,-0.134,16.0
34.465,3.185,-0.307,6.0
27.538,2.54,-0.401,8.0
71.154,6.529,0.926,10.0
71.382,6.535,0.525,3.0
46.815,4.276,0.08,21.0
40.321,3.674,-0.163,12.0
33.559,3.051,-0.325,10.0
27.628,2.506,-0.424,7.0
72.298,6.525,0.884,10.0
54.82,4.935,0.36,1.0
46.547,4.18,0.043,24.0
42.686,3.824,-0.205,3.0
32.207,2.878,-0.337,9.0
26.888,2.397,-0.433,7.0
73.592,6.526,0.844,11.0
53.577,4.739,0.312,5.0
40.103,3.539,0.007,86.0
39.865,3.509,-0.221,20.0
31.718,2.785,-0.355,9.0
26.192,2.294,-0.441,6.0
74.875,6.523,0.804,9.0
53.666,4.663,0.274,9.0
40.113,3.476,-0.021,92.0
39.695,3.431,-0.249,10.0
30.84,2.659,-0.367,9.0
25.731,2.212,-0.451,6.0
40.113,3.429,0.403,110.0
40.101,3.419,0.177,144.0
40.113,3.41,-0.049,126.0
37.069,3.143,-0.257,3.0
30.182,2.553,-0.379,8.0
25.352,2.138,-0.462,9.0
40.111,3.363,0.376,116.0
40.103,3.353,0.15,150.0
40.101,3.343,-0.075,103.0
36.273,3.015,-0.276,4.0
29.788,2.469,-0.394,8.0
25.024,2.069,-0.472,6.0
40.106,3.296,0.35,117.0
40.111,3.286,0.125,114.0
40.022,3.269,-0.1,107.0
35.638,2.903,-0.293,5.0
29.044,2.359,-0.402,8.0
24.613,1.993,-0.479,5.0
41.914,3.373,0.34,121.0
40.11,3.218,0.101,99.0
40.072,3.204,-0.124,51.0
35.014,2.792,-0.308,8.0
28.563,2.271,-0.412,7.0
24.421,1.936,-0.49,5.0
41.908,3.3,0.316,131.0
0.0,0.0,0.0,0.0
0.0,0.0,0.0,0.0
33.926,2.646,-0.318,7.0
28.152,2.189,-0.422,7.0
24.258,1.88,-0.499,5.0
43.703,3.365,0.306,150.0
41.915,3.217,0.059,143.0
41.778,3.196,-0.175,40.0
33.316,2.54,-0.33,10.0
27.827,2.114,-0.431,7.0
24.075,1.823,-0.508,5.0
43.707,3.287,0.284,150.0
40.328,3.023,0.036,32.0
40.313,3.011,-0.189,41.0
32.874,2.447,-0.341,10.0
27.378,2.031,-0.438,7.0
23.96,1.771,-0.517,5.0
19.671,0.18,0.198,14.0
19.653,0.174,0.092,11.0
19.65,0.167,-0.013,19.0
19.644,0.16,-0.121,12.0
19.687,0.154,-0.227,1.0
32.054,0.241,-0.542,0.0
19.68,0.141,0.212,20.0
19.64,0.134,0.106,14.0
19.647,0.128,0.001,12.0
19.691,0.121,-0.106,4.0
0.0,0.0,0.0,0.0
33.78,0.187,-0.545,1.0
19.632,0.101,0.227,15.0
19.681,0.095,0.122,13.0
19.754,0.089,0.017,27.0
19.76,0.083,-0.091,32.0
19.77,0.076,-0.197,59.0
19.766,0.07,-0.303,37.0
19.627,0.062,0.243,16.0
19.742,0.056,0.139,14.0
19.741,0.05,0.033,17.0
19.74,0.043,-0.074,16.0
19.751,0.037,-0.18,11.0
19.758,0.031,-0.286,2.0
19.636,0.024,0.26,15.0
19.813,0.017,0.156,2.0
19.761,0.011,0.05,4.0
19.744,0.004,-0.057,8.0
19.762,-0.001,-0.163,1.0
0.0,0.0,0.0,0.0
19.639,-0.014,0.277,13.0
19.657,-0.02,0.172,9.0
19.698,-0.027,0.067,15.0
19.702,-0.033,-0.039,16.0
19.729,-0.039,-0.144,14.0
19.752,-0.046,-0.25,15.0
19.649,-0.052,0.296,10.0
19.687,-0.059,0.191,15.0
19.694,-0.065,0.086,13.0
19.69,-0.071,-0.02,15.0
19.718,-0.078,-0.126,16.0
19.741,-0.084,-0.231,16.0
19.688,-0.09,0.315,9.0
19.721,-0.097,0.21,13.0
19.746,-0.103,0.105,9.0
19.722,-0.109,-0.001,10.0
19.715,-0.115,-0.106,16.0
19.735,-0.122,-0.212,16.0
177.083,-1.15,3.009,7.0
169.637,-1.155,1.978,6.0
160.713,-1.145,1.018,15.0
19.958,-0.148,0.018,0.0
19.761,-0.153,-0.087,10.0
19.768,-0.159,-0.192,13.0
19.769,-0.165,0.356,1.0
169.584,-1.475,2.152,6.0
160.708,-1.45,1.184,5.0
0.0,0.0,0.0,0.0
0.0,0.0,0.0,0.0
0.0,0.0,0.0,0.0
19.75,-0.202,0.376,10.0
19.759,-0.209,0.271,6.0
19.761,-0.215,0.166,2.0
0.0,0.0,0.0,0.0
0.0,0.0,0.0,0.0
47.317,-0.56,-0.359,0.0
19.774,-0.239,0.398,8.0
19.754,-0.245,0.293,10.0
19.744,-0.251,0.188,28.0
19.739,-0.257,0.081,13.0
0.0,0.0,0.0,0.0
0.0,0.0,0.0,0.0
0.0,0.0,0.0,0.0
19.751,-0.281,0.315,0.0
19.755,-0.287,0.21,8.0
19.732,-0.292,0.103,18.0
0.0,0.0,0.0,0.0
0.0,0.0,0.0,0.0
0.0,0.0,0.0,0.0
0.0,0.0,0.0,0.0
119.784,-1.957,1.413,59.0
0.0,0.0,0.0,0.0
0.0,0.0,0.0,0.0
0.0,0.0,0.0,0.0
171.419,-3.002,4.04,5.0
170.201,-3.029,3.109,10.0
119.8,-2.169,1.555,40.0
119.748,-2.205,0.909,65.0
0.0,0.0,0.0,0.0
0.0,0.0,0.0,0.0
163.495,-3.154,4.052,6.0
170.315,-3.334,3.319,9.0
0.0,0.0,0.0,0.0
119.753,-2.415,1.055,150.0
0.0,0.0,0.0,0.0
0.0,0.0,0.0,0.0
163.442,-3.435,4.252,10.0
170.484,-3.634,3.534,5.0
0.0,0.0,0.0,0.0
119.837,-2.623,1.206,150.0
0.0,0.0,0.0,0.0
0.0,0.0,0.0,0.0
163.339,-3.71,4.454,20.0
0.0,0.0,0.0,0.0
170.221,-3.965,2.845,5.0
0.0,0.0,0.0,0.0
0.0,0.0,0.0,0.0
0.0,0.0,0.0,0.0
163.276,-3.986,4.664,18.0
0.0,0.0,0.0,0.0
170.435,-4.258,3.071,7.0
161.925,-4.091,2.048,19.0
160.797,-4.106,1.185,5.0
0.0,0.0,0.0,0.0
163.271,-4.256,4.879,10.0
0.0,0.0,0.0,0.0
168.177,-4.477,3.252,4.0
161.89,-4.356,2.263,21.0
160.74,-4.369,1.4,3.0
0.0,0.0,0.0,0.0
140.681,-3.896,4.392,11.0
163.386,-4.57,4.241,6.0
167.841,-4.741,3.473,16.0
163.773,-4.673,2.513,16.0
162.13,-4.669,1.634,12.0
160.786,-4.675,0.776,3.0
142.987,-4.189,4.66,8.0
163.194,-4.826,4.461,18.0
168.255,-5.023,3.716,4.0
0.0,0.0,0.0,0.0
161.885,-4.918,1.856,16.0
160.697,-4.925,0.997,11.0
139.54,-4.307,4.742,19.0
140.273,-4.368,4.031,17.0
163.298,-5.128,3.833,13.0
162.227,-5.138,2.941,20.0
161.957,-5.172,2.085,23.0
160.759,-5.175,1.226,7.0
117.563,-3.811,4.162,16.0
140.386,-4.587,4.232,14.0
163.348,-5.38,4.067,23.0
162.179,-5.382,3.171,22.0
162.165,-5.425,2.321,21.0
162.006,-5.462,1.47,12.0
117.591,-3.988,4.332,12.0
138.315,-4.726,4.369,6.0
163.351,-5.623,4.303,16.0
162.31,-5.629,3.409,6.0
162.283,-5.67,2.558,15.0
162.114,-5.705,1.706,16.0
118.346,-4.19,4.534,11.0
138.238,-4.928,4.57,30.0
141.668,-5.086,3.941,10.0
0.0,0.0,0.0,0.0
162.193,-5.902,2.796,24.0
162.079,-5.939,1.946,16.0
117.812,-4.341,4.687,20.0
138.399,-5.132,4.781,11.0
141.751,-5.291,4.154,14.0
141.681,-5.322,3.395,8.0
162.206,-6.133,3.038,18.0
162.151,-6.169,2.189,10.0
117.21,-4.484,4.84,24.0
117.424,-4.519,4.233,21.0
118.43,-4.584,3.648,12.0
141.729,-5.52,3.61,21.0
162.267,-6.358,3.283,15.0
0.0,0.0,0.0,0.0
116.75,-4.625,4.996,24.0
117.015,-4.66,4.393,21.0
118.293,-4.739,3.822,12.0
141.509,-5.702,3.819,22.0
162.606,-6.589,3.537,4.0
0.0,0.0,0.0,0.0
116.892,-4.786,5.182,21.0
116.559,-4.798,4.556,21.0
127.088,-5.26,4.303,6.0
141.759,-5.897,4.043,8.0
142.537,-5.962,3.321,6.0
0.0,0.0,0.0,0.0
117.481,-4.962,5.388,12.0
115.832,-4.917,4.705,25.0
117.334,-5.004,4.152,22.0
118.693,-5.088,3.568,18.0
142.51,-6.14,3.538,23.0
0.0,0.0,0.0,0.0
114.187,-4.966,5.414,12.0
115.833,-5.062,4.886,24.0
117.485,-5.159,4.342,21.0
118.795,-5.239,3.757,17.0
142.369,-6.309,3.758,22.0
0.0,0.0,0.0,0.0
0.0,0.0,0.0,0.0
0.0,0.0,0.0,0.0
0.0,0.0,0.0,0.0
0.0,0.0,0.0,0.0
0.0,0.0,0.0,0.0
0.0,0.0,0.0,0.0
0.0,0.0,0.0,0.0
0.0,0.0,0.0,0.0
0.0,0.0,0.0,0.0
84.635,0.759,7.155,3.0
0.0,0.0,0.0,0.0
0.0,0.0,0.0,0.0
0.0,0.0,0.0,0.0
0.0,0.0,0.0,0.0
0.0,0.0,0.0,0.0
84.786,0.811,7.026,24.0
0.0,0.0,0.0,0.0
0.0,0.0,0.0,0.0
0.0,0.0,0.0,0.0
0.0,0.0,0.0,0.0
0.0,0.0,0.0,0.0
84.8,0.86,6.884,20.0
0.0,0.0,0.0,0.0
0.0,0.0,0.0,0.0
0.0,0.0,0.0,0.0
0.0,0.0,0.0,0.0
0.0,0.0,0.0,0.0
84.795,0.905,6.738,6.0
0.0,0.0,0.0,0.0
0.0,0.0,0.0,0.0
0.0,0.0,0.0,0.0
0.0,0.0,0.0,0.0
0.0,0.0,0.0,0.0
0.0,0.0,0.0,0.0
0.0,0.0,0.0,0.0
0.0,0.0,0.0,0.0
0.0,0.0,0.0,0.0
0.0,0.0,0.0,0.0
84.763,0.982,6.944,2.0
0.0,0.0,0.0,0.0
0.0,0.0,0.0,0.0
0.0,0.0,0.0,0.0
0.0,0.0,0.0,0.0
0.0,0.0,0.0,0.0
84.802,1.02,6.795,19.0
84.77,1.023,6.287,1.0
84.828,1.027,5.797,11.0
84.824,1.03,5.302,26.0
0.0,0.0,0.0,0.0
0.0,0.0,0.0,0.0
84.787,1.055,6.639,39.0
84.801,1.057,6.135,42.0
84.8,1.06,5.64,48.0
84.804,1.063,5.145,46.0
0.0,0.0,0.0,0.0
0.0,0.0,0.0,0.0
84.805,1.086,6.485,54.0
84.787,1.088,5.979,49.0
84.817,1.09,5.485,48.0
84.811,1.093,4.99,41.0
0.0,0.0,0.0,0.0
0.0,0.0,0.0,0.0
84.794,1.114,6.327,39.0
84.801,1.116,5.823,35.0
84.805,1.117,5.328,22.0
84.819,1.119,4.835,14.0
0.0,0.0,0.0,0.0
0.0,0.0,0.0,0.0
84.814,1.139,6.17,10.0
84.768,1.14,5.663,7.0
121.345,1.633,7.398,18.0
122.07,1.645,6.729,18.0
0.0,0.0,0.0,0.0
0.0,0.0,0.0,0.0
129.444,1.772,9.173,2.0
135.533,1.856,8.799,4.0
121.592,1.667,7.183,23.0
122.1,1.675,6.501,22.0
0.0,0.0,0.0,0.0
0.0,0.0,0.0,0.0
129.56,1.803,8.934,3.0
121.46,1.69,7.653,12.0
121.962,1.698,6.971,21.0
122.173,1.701,6.27,22.0
0.0,0.0,0.0,0.0
0.0,0.0,0.0,0.0
0.0,0.0,0.0,0.0
121.445,1.712,7.418,23.0
121.922,1.719,6.736,21.0
121.753,1.716,6.016,25.0
0.0,0.0,0.0,0.0
129.351,1.844,9.18,16.0
0.0,0.0,0.0,0.0
121.619,1.731,7.195,23.0
122.13,1.739,6.512,22.0
121.466,1.728,5.767,25.0
0.0,0.0,0.0,0.0
129.434,1.861,8.934,10.0
121.349,1.742,7.666,14.0
121.892,1.748,6.974,23.0
122.162,1.752,6.276,22.0
121.681,1.743,5.541,20.0
129.145,1.869,9.417,6.0
0.0,0.0,0.0,0.0
121.382,1.752,7.429,21.0
121.816,1.756,6.73,26.0
121.736,1.753,6.013,23.0
121.559,1.749,5.296,22.0
129.341,1.878,9.174,23.0
0.0,0.0,0.0,0.0
121.614,1.76,7.203,25.0
122.123,1.764,6.507,23.0
121.474,1.752,5.762,25.0
121.727,1.754,5.064,11.0
129.43,1.881,8.925,9.0
121.365,1.76,7.658,16.0
121.917,1.765,6.979,22.0
122.121,1.764,6.263,23.0
121.682,1.754,5.53,20.0
19.653,0.282,0.778,0.0
0.0,0.0,0.0,0.0
121.402,1.756,7.417,23.0
121.843,1.759,6.73,23.0
121.655,1.752,5.998,23.0
121.555,1.746,5.282,22.0
19.667,0.281,0.739,7.0
0.0,0.0,0.0,0.0
121.649,1.751,7.189,24.0
122.138,1.753,6.502,22.0
121.475,1.739,5.746,25.0
121.744,1.738,5.047,9.0
19.642,0.279,0.699,12.0
121.366,1.74,7.64,19.0
121.933,1.742,6.961,22.0
122.101,1.739,6.256,23.0
121.664,1.728,5.512,20.0
19.685,0.278,0.776,0.0
19.64,0.277,0.66,13.0
121.438,1.724,7.399,23.0
121.943,1.724,6.715,22.0
121.696,1.715,5.988,23.0
121.56,1.706,5.258,19.0
19.648,0.275,0.735,8.0
19.653,0.274,0.62,14.0
121.723,1.705,7.167,23.0
122.143,1.704,6.476,22.0
121.575,1.689,5.733,21.0
185.506,2.568,7.648,9.0
19.641,0.27,0.695,13.0
19.655,0.269,0.58,13.0
121.968,1.682,6.932,19.0
122.15,1.677,6.227,22.0
121.779,1.665,5.497,11.0
19.67,0.267,0.771,2.0
19.644,0.266,0.655,15.0
19.66,0.265,0.541,15.0
122.075,1.652,6.691,14.0
121.937,1.642,5.969,15.0
84.812,1.137,3.656,4.0
19.644,0.262,0.73,10.0
19.658,0.26,0.615,14.0
19.671,0.259,0.501,14.0
84.816,1.122,4.474,15.0
84.815,1.116,3.978,17.0
84.82,1.11,3.482,21.0
19.631,0.255,0.689,14.0
19.655,0.254,0.575,13.0
19.684,0.253,0.461,9.0
84.826,1.094,4.301,39.0
84.809,1.088,3.805,47.0
19.665,0.25,0.767,5.0
19.637,0.248,0.649,14.0
19.66,0.247,0.535,14.0
19.687,0.246,0.42,11.0
84.808,1.062,4.126,44.0
84.807,1.055,3.629,51.0
19.643,0.242,0.725,12.0
19.647,0.241,0.608,12.0
19.678,0.239,0.494,11.0
19.692,0.238,0.38,11.0
84.825,1.027,3.95,38.0
84.822,1.019,3.454,32.0
19.633,0.234,0.684,14.0
19.648,0.232,0.568,12.0
19.691,0.231,0.455,9.0
19.718,0.23,0.34,11.0
84.835,0.989,3.778,5.0
19.652,0.227,0.76,8.0
19.636,0.225,0.645,12.0
19.669,0.223,0.529,10.0
19.709,0.222,0.415,11.0
19.731,0.22,0.3,11.0
185.862,2.076,7.895,19.0
19.649,0.217,0.719,10.0
19.666,0.215,0.605,10.0
19.699,0.214,0.489,10.0
19.725,0.212,0.375,12.0
19.752,0.21,0.26,12.0
19.679,0.209,0.795,0.0
19.649,0.207,0.679,11.0
19.697,0.205,0.566,10.0
19.715,0.203,0.45,10.0
19.725,0.201,0.335,9.0
19.724,0.199,0.22,14.0
19.688,0.198,0.756,9.0
19.675,0.196,0.64,10.0
19.698,0.194,0.526,9.0
19.694,0.192,0.409,9.0
19.687,0.189,0.294,8.0
19.672,0.187,0.179,10.0
19.651,0.186,0.714,9.0
19.652,0.183,0.599,10.0
19.653,0.181,0.484,9.0
19.652,0.179,0.368,10.0
19.65,0.177,0.253,10.0
19.671,0.175,0.139,12.0
19.633,0.173,0.673,10.0
19.621,0.17,0.558,9.0
19.621,0.168,0.444,10.0
19.633,0.166,0.328,9.0
19.659,0.164,0.213,13.0
19.65,0.161,0.099,12.0
19.604,0.159,0.633,11.0
19.617,0.157,0.519,11.0
19.614,0.155,0.404,10.0
19.622,0.152,0.288,10.0
19.657,0.15,0.174,14.0
19.648,0.148,0.06,15.0
19.597,0.145,0.593,13.0
19.609,0.143,0.479,13.0
19.616,0.14,0.365,10.0
19.63,0.138,0.249,12.0
19.64,0.135,0.135,13.0
19.637,0.133,0.02,15.0
19.597,0.131,0.554,17.0
19.601,0.128,0.44,13.0
19.607,0.125,0.326,10.0
19.65,0.123,0.21,17.0
19.643,0.12,0.095,13.0
19.657,0.118,-0.018,12.0
19.604,0.115,0.515,17.0
19.605,0.112,0.401,17.0
19.614,0.11,0.287,13.0
19.652,0.107,0.171,14.0
19.655,0.104,0.056,12.0
19.705,0.102,-0.057,4.0
19.61,0.099,0.476,25.0
19.623,0.096,0.362,22.0
19.613,0.093,0.248,14.0
19.662,0.091,0.132,11.0
19.713,0.088,0.017,10.0
19.759,0.085,-0.097,5.0
19.609,0.082,0.438,25.0
19.605,0.079,0.323,17.0
19.638,0.076,0.209,13.0
19.684,0.074,0.093,18.0
19.752,0.071,-0.02,41.0
19.763,0.068,-0.135,50.0
19.621,0.065,0.4,20.0
19.61,0.062,0.285,12.0
19.673,0.059,0.172,10.0
19.754,0.056,0.055,24.0
19.752,0.053,-0.058,40.0
19.763,0.05,-0.173,44.0
19.616,0.047,0.362,14.0
19.624,0.043,0.248,15.0
19.745,0.04,0.134,14.0
19.731,0.037,0.017,24.0
19.752,0.034,-0.096,8.0
19.747,0.031,-0.211,15.0
19.622,0.028,0.324,15.0
19.647,0.025,0.21,14.0
19.755,0.021,0.097,8.0
19.755,0.018,-0.019,29.0
19.783,0.015,-0.134,1.0
19.783,0.012,-0.249,0.0
19.637,0.008,0.287,14.0
19.771,0.005,0.174,3.0
19.776,0.001,0.059,4.0
19.741,-0.001,-0.057,3.0
42.473,-0.01,-0.37,0.0
34.884,-0.014,-0.507,0.0
19.636,-0.011,0.25,15.0
19.685,-0.015,0.136,3.0
19.706,-0.018,0.021,13.0
19.74,-0.022,-0.094,9.0
19.775,-0.025,-0.21,2.0
32.046,-0.047,-0.526,0.0
19.651,-0.032,0.213,15.0
19.692,-0.036,0.099,16.0
19.701,-0.039,-0.014,15.0
19.722,-0.043,-0.131,13.0
19.765,-0.047,-0.246,11.0
19.78,-0.05,-0.361,0.0
19.699,-0.054,0.177,16.0
19.7,-0.057,0.063,15.0
19.723,-0.061,-0.051,15.0
19.722,-0.065,-0.168,15.0
19.759,-0.069,-0.283,14.0
19.77,-0.072,-0.398,11.0
19.707,-0.076,0.141,16.0
19.709,-0.08,0.027,15.0
19.711,-0.083,-0.087,15.0
19.72,-0.087,-0.203,15.0
19.743,-0.091,-0.318,14.0
19.753,-0.095,-0.433,16.0
19.726,-0.099,0.106,12.0
19.715,-0.102,-0.008,13.0
19.716,-0.106,-0.122,16.0
19.721,-0.11,-0.239,16.0
19.745,-0.114,-0.353,16.0
19.746,-0.118,-0.468,16.0
19.756,-0.122,0.071,9.0
19.765,-0.126,-0.043,9.0
19.72,-0.13,-0.157,16.0
19.725,-0.134,-0.274,16.0
19.74,-0.138,-0.389,17.0
19.737,-0.142,-0.503,17.0
19.778,-0.146,0.036,1.0
19.754,-0.15,-0.078,11.0
19.745,-0.154,-0.192,14.0
19.734,-0.158,-0.308,15.0
19.737,-0.162,-0.423,16.0
19.753,-0.167,-0.538,13.0
0.0,0.0,0.0,0.0
19.769,-0.175,-0.112,8.0
19.768,-0.179,-0.227,10.0
19.756,-0.183,-0.343,11.0
19.762,-0.188,-0.458,6.0
24.053,-0.234,-0.697,0.0
0.0,0.0,0.0,0.0
0.0,0.0,0.0,0.0
19.679,-0.204,-0.26,0.0
30.529,-0.323,-0.583,1.0
26.291,-0.284,-0.654,0.0
23.04,-0.254,-0.707,0.0
0.0,0.0,0.0,0.0
0.0,0.0,0.0,0.0
34.753,-0.406,-0.517,0.0
29.267,-0.348,-0.608,0.0
25.501,-0.309,-0.677,0.0
22.392,-0.276,-0.724,0.0
0.0,0.0,0.0,0.0
0.0,0.0,0.0,0.0
32.868,-0.428,-0.543,0.0
27.759,-0.367,-0.622,0.0
24.702,-0.332,-0.696,0.0
21.688,-0.297,-0.737,0.0
0.0,0.0,0.0,0.0
0.0,0.0,0.0,0.0
30.659,-0.44,-0.556,0.0
26.872,-0.392,-0.646,0.0
23.501,-0.348,-0.7,0.0
20.93,-0.315,-0.745,0.0
42.651,-0.652,-0.349,0.0
34.925,-0.542,-0.487,0.0
30.029,-0.473,-0.592,0.0
25.896,-0.413,-0.663,0.0
22.755,-0.369,-0.714,0.0
20.388,-0.335,-0.758,0.0
0.0,0.0,0.0,0.0
34.095,-0.576,-0.529,0.0
29.435,-0.504,-0.626,0.0
25.1,-0.436,-0.682,0.0
21.812,-0.384,-0.719,2.0
19.871,-0.355,-0.77,1.0
38.104,-0.69,-0.43,0.0
31.926,-0.586,-0.544,0.0
27.758,-0.516,-0.633,0.0
21.729,-0.409,-0.623,24.0
21.637,-0.412,-0.746,4.0
19.466,-0.376,-0.784,0.0
36.93,-0.722,-0.472,0.0
30.32,-0.6,-0.562,0.0
21.729,-0.435,-0.528,151.0
21.685,-0.44,-0.655,26.0
21.151,-0.434,-0.761,1.0
18.992,-0.394,-0.793,0.0
34.867,-0.732,-0.497,0.0
21.723,-0.461,-0.435,0.0
21.666,-0.466,-0.559,160.0
21.702,-0.472,-0.687,10.0
20.486,-0.451,-0.767,0.0
18.401,-0.409,-0.795,0.0
33.19,-0.747,-0.521,0.0
21.851,-0.497,-0.469,0.0
21.726,-0.5,-0.592,152.0
21.67,-0.504,-0.717,7.0
19.792,-0.465,-0.769,1.0
17.815,-0.423,-0.795,1.0
31.706,-0.761,-0.543,0.0
27.73,-0.673,-0.634,0.0
24.357,-0.597,-0.697,0.0
21.57,-0.534,-0.744,0.0
0.0,0.0,0.0,0.0
17.665,-0.447,-0.813,1.0
30.822,-0.787,-0.57,0.0
26.785,-0.691,-0.65,0.0
23.592,-0.615,-0.708,0.0
17.804,-0.469,-0.639,151.0
17.786,-0.473,-0.741,9.0
17.445,-0.469,-0.827,0.0
29.802,-0.808,-0.593,0.0
25.797,-0.706,-0.661,0.0
17.82,-0.492,-0.559,4.0
17.761,-0.496,-0.661,155.0
17.783,-0.501,-0.765,7.0
17.64,-0.502,-0.86,2.0
28.817,-0.826,-0.611,0.0
25.098,-0.726,-0.676,0.0
17.801,-0.52,-0.582,48.0
17.755,-0.523,-0.684,155.0
17.768,-0.529,-0.787,4.0
17.628,-0.529,-0.883,4.0
0.0,0.0,0.0,0.0
24.47,-0.747,-0.691,0.0
17.812,-0.549,-0.605,151.0
17.8,-0.553,-0.709,49.0
17.746,-0.557,-0.809,2.0
16.116,-0.51,-0.827,0.0
27.227,-0.868,-0.646,0.0
23.9,-0.768,-0.704,0.0
17.816,-0.578,-0.627,1.0
19.174,-0.627,-0.787,0.0
17.514,-0.578,-0.82,0.0
15.782,-0.525,-0.83,0.0
26.052,-0.873,-0.65,0.0
23.234,-0.785,-0.713,0.0
20.656,-0.703,-0.752,0.0
18.874,-0.648,-0.798,0.0
17.048,-0.59,-0.818,0.0
15.56,-0.543,-0.836,0.0
25.409,-0.893,-0.664,0.0
22.58,-0.799,-0.719,0.0
20.292,-0.724,-0.763,0.0
18.317,-0.659,-0.795,0.0
16.743,-0.607,-0.823,0.0
15.281,-0.559,-0.839,0.0
24.763,-0.911,-0.675,0.0
22.114,-0.819,-0.729,0.0
19.9,-0.743,-0.77,0.0
17.988,-0.677,-0.801,0.0
16.272,-0.617,-0.818,0.0
15.049,-0.575,-0.843,0.0
24.49,-0.941,-0.695,0.0
21.542,-0.834,-0.734,0.0
19.549,-0.763,-0.778,0.0
17.654,-0.694,-0.806,0.0
16.176,-0.64,-0.831,0.0
14.814,-0.591,-0.846,0.0
23.935,-0.96,-0.704,0.0
21.105,-0.852,-0.742,0.0
19.31,-0.786,-0.789,0.0
17.424,-0.714,-0.814,0.0
15.775,-0.651,-0.827,0.0
14.617,-0.608,-0.85,0.0
23.418,-0.978,-0.713,0.0
20.731,-0.872,-0.75,0.0
18.813,-0.797,-0.788,0.0
17.092,-0.729,-0.815,0.0
15.664,-0.673,-0.837,0.0
14.36,-0.621,-0.849,1.0
22.813,-0.991,-0.717,0.0
20.466,-0.895,-0.76,0.0
18.576,-0.818,-0.796,0.0
16.919,-0.75,-0.823,0.0
15.486,-0.691,-0.842,0.0
14.159,-0.636,-0.851,0.0
22.43,-1.012,-0.726,0.0
20.109,-0.914,-0.766,0.0
18.317,-0.838,-0.802,0.0
16.658,-0.767,-0.826,0.0
15.222,-0.706,-0.842,0.0
13.91,-0.649,-0.849,0.0
21.884,-1.025,-0.728,0.0
19.9,-0.938,-0.776,0.0
17.956,-0.852,-0.802,0.0
16.421,-0.784,-0.829,0.0
15.043,-0.723,-0.845,0.0
13.72,-0.664,-0.849,0.0
18.761,-1.422,-0.797,0.0
17.185,-1.308,-0.826,0.0
15.661,-1.197,-0.84,0.0
14.414,-1.107,-0.856,0.0
13.402,-1.033,-0.871,0.0
12.458,-0.965,-0.88,0.0
18.808,-1.457,-0.802,0.0
17.044,-1.326,-0.822,0.0
15.616,-1.22,-0.841,0.0
14.372,-1.127,-0.856,0.0
13.385,-1.054,-0.872,0.0
12.437,-0.984,-0.88,0.0
18.778,-1.486,-0.803,0.0
17.01,-1.351,-0.822,0.0
15.551,-1.24,-0.839,0.0
14.379,-1.151,-0.858,0.0
13.307,-1.07,-0.868,0.0
12.425,-1.003,-0.88,0.0
18.77,-1.515,-0.804,0.0
17.067,-1.383,-0.827,0.0
15.604,-1.27,-0.843,0.0
14.397,-1.176,-0.86,0.0
13.252,-1.087,-0.865,0.0
12.401,-1.021,-0.879,0.0
19.034,-1.567,-0.817,0.0
17.03,-1.408,-0.826,0.0
15.623,-1.296,-0.844,0.0
14.405,-1.2,-0.861,0.0
13.271,-1.11,-0.867,0.0
12.452,-1.045,-0.883,0.0
18.705,-1.57,-0.803,0.0
17.086,-1.439,-0.828,0.0
15.569,-1.316,-0.842,0.0
14.393,-1.221,-0.86,0.0
13.285,-1.132,-0.868,0.0
12.438,-1.063,-0.882,0.0
18.649,-1.594,-0.8,0.0
17.126,-1.47,-0.83,0.0
15.64,-1.347,-0.845,0.0
14.416,-1.246,-0.86,0.0
13.288,-1.153,-0.867,0.0
12.453,-1.084,-0.882,0.0
18.819,-1.638,-0.806,0.0
17.143,-1.498,-0.829,0.0
15.705,-1.377,-0.847,0.0
14.421,-1.269,-0.859,0.0
13.415,-1.184,-0.874,0.0
12.516,-1.109,-0.885,0.0
18.769,-1.663,-0.801,0.0
17.06,-1.517,-0.823,0.0
15.693,-1.4,-0.844,0.0
14.502,-1.298,-0.862,0.0
13.441,-1.207,-0.874,0.0
12.472,-1.124,-0.881,0.0
18.933,-1.706,-0.806,0.0
17.112,-1.547,-0.823,0.0
15.722,-1.426,-0.843,0.0
14.504,-1.32,-0.86,0.0
13.55,-1.238,-0.879,0.0
12.472,-1.143,-0.878,0.0
18.946,-1.736,-0.803,0.0
17.216,-1.582,-0.825,0.0
15.565,-1.435,-0.832,0.0
14.564,-1.347,-0.86,0.0
13.531,-1.256,-0.875,0.0
12.558,-1.17,-0.882,0.0
19.087,-1.777,-0.804,0.0
17.288,-1.615,-0.824,0.0
15.811,-1.481,-0.841,0.0
14.645,-1.376,-0.862,0.0
13.607,-1.283,-0.876,0.0
12.572,-1.189,-0.879,0.0
19.102,-1.806,-0.8,0.0
17.379,-1.648,-0.824,0.0
16.006,-1.523,-0.847,0.0
14.7,-1.403,-0.861,0.0
13.595,-1.302,-0.871,0.0
12.598,-1.21,-0.877,0.0
19.062,-1.829,-0.793,0.0
17.413,-1.676,-0.82,0.0
16.08,-1.553,-0.846,0.0
14.666,-1.42,-0.854,0.0
13.702,-1.331,-0.874,0.0
12.77,-1.244,-0.885,0.0
19.089,-1.859,-0.787,0.0
17.676,-1.726,-0.826,0.0
16.108,-1.578,-0.842,0.0
14.782,-1.452,-0.856,0.0
13.782,-1.358,-0.874,0.0
12.834,-1.268,-0.885,0.0
19.505,-1.926,-0.797,0.0
17.556,-1.738,-0.814,0.0
16.16,-1.605,-0.838,0.0
14.846,-1.478,-0.854,0.0
13.876,-1.386,-0.874,0.0
12.954,-1.298,-0.888,0.0
19.65,-1.967,-0.795,0.0
17.874,-1.794,-0.822,0.0
16.333,-1.644,-0.841,0.0
14.922,-1.506,-0.852,0.0
13.946,-1.411,-0.873,0.0
13.087,-1.328,-0.891,0.0
19.694,-1.997,-0.788,0.0
17.987,-1.829,-0.819,0.0
16.385,-1.67,-0.836,0.0
15.168,-1.551,-0.859,0.0
14.026,-1.438,-0.871,0.0
13.103,-1.347,-0.886,0.0
20.054,-2.06,-0.793,0.0
18.065,-1.86,-0.813,0.0
16.622,-1.716,-0.84,0.0
15.231,-1.576,-0.855,0.0
14.127,-1.466,-0.87,0.0
13.149,-1.368,-0.883,0.0
20.128,-2.092,-0.786,0.0
18.258,-1.903,-0.813,0.0
16.707,-1.746,-0.835,0.0
15.329,-1.606,-0.852,0.0
14.193,-1.49,-0.867,0.0
13.206,-1.391,-0.879,0.0
20.072,-2.112,-0.772,0.0
18.501,-1.951,-0.813,0.0
16.914,-1.788,-0.836,0.0
15.6,-1.653,-0.858,0.0
14.355,-1.525,-0.868,0.0
13.358,-1.423,-0.882,0.0
20.324,-2.162,-0.77,0.0
18.637,-1.987,-0.808,0.0
17.052,-1.823,-0.833,0.0
15.616,-1.673,-0.85,0.0
14.489,-1.556,-0.868,0.0
13.505,-1.454,-0.883,0.0
20.65,-2.221,-0.77,0.0
18.937,-2.041,-0.81,0.0
17.317,-1.871,-0.835,0.0
15.849,-1.716,-0.853,0.0
14.676,-1.593,-0.87,0.0
13.641,-1.484,-0.883,0.0
20.84,-2.265,-0.764,0.0
18.71,-2.038,-0.788,0.0
17.456,-1.906,-0.83,0.0
16.014,-1.752,-0.851,0.0
14.841,-1.627,-0.87,0.0
13.74,-1.51,-0.88,0.0
21.285,-2.337,-0.766,0.0
19.421,-2.136,-0.805,0.0
17.733,-1.955,-0.832,0.0
16.146,-1.784,-0.847,0.0
14.965,-1.657,-0.867,0.0
13.833,-1.535,-0.877,0.0
21.654,-2.4,-0.764,0.0
19.539,-2.17,-0.796,0.0
17.679,-1.967,-0.817,0.0
16.32,-1.82,-0.844,0.0
15.077,-1.685,-0.863,0.0
13.976,-1.565,-0.876,0.0
22.016,-2.463,-0.761,0.0
19.873,-2.227,-0.795,0.0
18.009,-2.022,-0.819,0.0
16.599,-1.868,-0.847,0.0
15.233,-1.717,-0.86,0.0
14.083,-1.591,-0.872,0.0
22.117,-2.496,-0.748,0.0
20.011,-2.262,-0.786,0.0
18.347,-2.078,-0.82,0.0
16.67,-1.892,-0.837,0.0
15.47,-1.759,-0.861,0.0
14.223,-1.62,-0.869,0.0
22.739,-2.588,-0.751,0.0
20.336,-2.319,-0.782,0.0
18.397,-2.101,-0.808,0.0
16.929,-1.937,-0.837,0.0
15.634,-1.792,-0.858,0.0
14.315,-1.644,-0.863,0.0
23.082,-2.648,-0.744,0.0
20.789,-2.389,-0.783,0.0
18.513,-2.131,-0.797,0.0
17.099,-1.972,-0.831,0.0
15.829,-1.829,-0.855,0.0
14.526,-1.681,-0.864,0.0
23.324,-2.697,-0.732,0.0
21.034,-2.436,-0.774,0.0
18.864,-2.188,-0.797,0.0
17.371,-2.018,-0.829,0.0
16.006,-1.863,-0.851,0.0
14.795,-1.725,-0.867,0.0
23.64,-2.753,-0.722,0.0
21.515,-2.51,-0.773,0.0
19.233,-2.247,-0.795,0.0
17.408,-2.037,-0.816,0.0
16.196,-1.898,-0.847,0.0
14.958,-1.756,-0.863,0.0
24.346,-2.855,-0.722,0.0
21.892,-2.571,-0.768,0.0
19.829,-2.332,-0.802,0.0
17.85,-2.102,-0.821,0.0
16.336,-1.927,-0.84,0.0
15.243,-1.801,-0.866,0.0
24.584,-2.902,-0.707,0.0
22.162,-2.619,-0.757,0.0
20.253,-2.397,-0.801,0.0
18.239,-2.162,-0.822,0.0
16.628,-1.974,-0.839,0.0
15.473,-1.839,-0.865,0.0
25.758,-3.059,-0.716,0.0
22.65,-2.693,-0.752,0.0
20.539,-2.446,-0.793,0.0
18.506,-2.206,-0.816,0.0
17.01,-2.031,-0.842,0.0
15.642,-1.87,-0.859,0.0
25.869,-3.09,-0.695,0.0
22.978,-2.748,-0.741,0.0
20.802,-2.491,-0.783,0.0
18.619,-2.232,-0.803,0.0
17.212,-2.066,-0.835,0.0
15.826,-1.902,-0.854,0.0
26.611,-3.196,-0.689,0.0
23.527,-2.828,-0.736,0.0
21.055,-2.534,-0.772,0.0
19.367,-2.334,-0.817,0.0
17.352,-2.093,-0.825,0.0
16.087,-1.943,-0.852,0.0
27.127,-3.274,-0.675,0.0
23.956,-2.894,-0.726,0.0
21.605,-2.613,-0.771,0.0
19.564,-2.368,-0.805,0.0
17.788,-2.156,-0.828,0.0
16.052,-1.948,-0.834,0.0
27.735,-3.362,-0.663,0.0
0.0,0.0,0.0,0.0
22.014,-2.674,-0.763,0.0
19.687,-2.394,-0.79,0.0
18.187,-2.214,-0.828,0.0
16.69,-2.034,-0.85,0.0
28.088,-3.42,-0.642,0.0
25.262,-3.078,-0.713,0.0
22.41,-2.733,-0.753,0.0
20.499,-2.503,-0.801,0.0
18.528,-2.264,-0.824,0.0
16.832,-2.059,-0.839,0.0
29.198,-3.569,-0.637,0.0
25.892,-3.167,-0.704,0.0
22.747,-2.785,-0.741,0.0
20.817,-2.551,-0.792,0.0
18.825,-2.309,-0.817,0.0
17.052,-2.093,-0.832,0.0
30.28,-3.714,-0.628,0.0
26.184,-3.214,-0.684,0.0
23.614,-2.9,-0.744,0.0
20.918,-2.571,-0.773,0.0
19.175,-2.359,-0.812,0.0
17.346,-2.136,-0.828,0.0
30.895,-3.801,-0.608,0.0
0.0,0.0,0.0,0.0
24.218,-2.983,-0.737,0.0
21.378,-2.635,-0.767,0.0
19.537,-2.41,-0.806,0.0
17.597,-2.172,-0.821,0.0
32.131,-3.964,-0.597,0.0
27.8,-3.431,-0.666,0.0
24.315,-3.003,-0.713,0.0
22.008,-2.72,-0.765,0.0
19.936,-2.465,-0.8,0.0
18.218,-2.254,-0.829,0.0
32.328,-3.998,-0.565,0.0
0.0,0.0,0.0,0.0
25.005,-3.095,-0.705,0.0
22.36,-2.769,-0.753,0.0
20.324,-2.518,-0.794,0.0
18.543,-2.299,-0.824,0.0
0.0,0.0,0.0,0.0
29.192,-3.618,-0.635,0.0
0.0,0.0,0.0,0.0
22.766,-2.824,-0.741,0.0
20.761,-2.577,-0.787,0.0
18.753,-2.329,-0.812,0.0
0.0,0.0,0.0,0.0
30.688,-3.809,-0.633,0.0
27.142,-3.37,-0.705,0.0
23.535,-2.924,-0.74,0.0
21.374,-2.656,-0.787,0.0
19.296,-2.399,-0.814,0.0
0.0,0.0,0.0,0.0
31.378,-3.9,-0.611,0.0
27.275,-3.391,-0.677,0.0
23.772,-2.956,-0.72,0.0
21.819,-2.714,-0.778,0.0
19.633,-2.443,-0.805,0.0
86.224,-8.956,1.837,32.0
86.246,-8.934,1.372,9.0
86.68,-8.956,0.911,2.0
87.151,-8.981,0.436,2.0
0.0,0.0,0.0,0.0
0.0,0.0,0.0,0.0
87.709,-8.994,1.94,3.0
87.946,-8.994,1.47,3.0
88.088,-8.984,0.996,2.0
88.262,-8.977,0.512,3.0
0.0,0.0,0.0,0.0
0.0,0.0,0.0,0.0
88.902,-8.995,2.037,4.0
89.021,-8.982,1.557,13.0
89.072,-8.961,1.077,53.0
89.11,-8.939,0.588,30.0
90.204,-9.024,0.107,5.0
0.0,0.0,0.0,0.0
90.252,-9.005,2.137,16.0
90.267,-8.98,1.649,77.0
0.0,0.0,0.0,0.0
90.368,-8.937,0.663,48.0
90.374,-8.911,0.174,6.0
0.0,0.0,0.0,0.0
116.353,-11.442,2.841,21.0
90.335,-8.855,1.716,27.0
90.363,-8.831,1.227,36.0
90.378,-8.805,0.73,34.0
90.355,-8.777,0.239,14.0
0.0,0.0,0.0,0.0
119.026,-11.529,2.991,10.0
90.369,-8.725,1.781,60.0
90.378,-8.698,1.291,22.0
90.379,-8.672,0.792,63.0
90.398,-8.646,0.302,150.0
0.0,0.0,0.0,0.0
127.546,-12.161,3.293,28.0
90.38,-8.589,1.842,41.0
90.382,-8.562,1.352,34.0
0.0,0.0,0.0,0.0
90.405,-8.509,0.362,33.0
0.0,0.0,0.0,0.0
127.528,-11.966,3.374,26.0
90.375,-8.45,1.9,37.0
90.377,-8.422,1.41,39.0
90.353,-8.392,0.909,27.0
90.394,-8.367,0.419,28.0
0.0,0.0,0.0,0.0
127.503,-11.763,3.453,18.0
90.395,-8.31,1.957,31.0
90.411,-8.283,1.465,36.0
90.387,-8.252,0.965,37.0
90.361,-8.221,0.473,17.0
0.0,0.0,0.0,0.0
127.488,-11.558,3.528,13.0
90.369,-8.163,2.009,33.0
90.388,-8.136,1.517,31.0
90.365,-8.106,1.016,43.0
90.408,-8.081,0.524,37.0
0.0,0.0,0.0,0.0
113.938,-10.147,3.216,9.0
90.373,-8.017,2.059,77.0
90.376,-7.987,1.566,32.0
90.406,-7.961,1.065,45.0
90.406,-7.931,0.573,39.0
90.463,-7.908,0.08,1.0
114.547,-10.011,3.293,8.0
90.362,-7.866,2.105,24.0
90.378,-7.838,1.613,33.0
90.372,-7.808,1.11,37.0
90.402,-7.78,0.618,36.0
90.358,-7.748,0.125,4.0
116.751,-10.008,3.414,10.0
90.382,-7.716,2.15,21.0
90.392,-7.687,1.657,33.0
90.399,-7.657,1.154,42.0
90.414,-7.629,0.66,41.0
90.409,-7.598,0.167,11.0
116.699,-9.805,3.467,7.0
127.511,-10.669,3.091,24.0
90.395,-7.533,1.696,74.0
90.414,-7.504,1.194,35.0
90.41,-7.473,0.7,149.0
90.426,-7.444,0.206,2.0
116.6,-9.596,3.513,2.0
127.528,-10.45,3.145,25.0
116.529,-9.508,2.236,28.0
100.062,-8.129,1.362,14.0
100.049,-8.095,0.815,13.0
99.263,-7.998,0.266,2.0
115.787,-9.324,3.534,14.0
127.506,-10.222,3.193,30.0
117.617,-9.388,2.301,8.0
100.053,-7.952,1.4,11.0
100.017,-7.915,0.852,14.0
0.0,0.0,0.0,0.0
118.006,-5.664,3.722,12.0
150.524,-7.17,3.909,13.0
0.0,0.0,0.0,0.0
0.0,0.0,0.0,0.0
101.547,-4.725,0.929,150.0
0.0,0.0,0.0,0.0
118.875,-5.467,3.715,7.0
142.395,-6.498,3.657,18.0
0.0,0.0,0.0,0.0
101.503,-4.557,1.463,4.0
0.0,0.0,0.0,0.0
0.0,0.0,0.0,0.0
118.643,-5.221,3.671,20.0
142.483,-6.217,3.612,19.0
0.0,0.0,0.0,0.0
101.531,-4.355,1.429,150.0
101.485,-4.317,0.862,47.0
0.0,0.0,0.0,0.0
118.71,-4.983,3.629,15.0
141.537,-5.888,3.535,12.0
0.0,0.0,0.0,0.0
101.65,-4.156,1.393,6.0
0.0,0.0,0.0,0.0
0.0,0.0,0.0,0.0
118.729,-4.745,3.582,13.0
141.633,-5.61,3.482,18.0
162.214,-6.365,3.079,18.0
161.92,-6.295,2.151,6.0
0.0,0.0,0.0,0.0
0.0,0.0,0.0,0.0
141.79,-5.38,4.216,4.0
0.0,0.0,0.0,0.0
162.185,-6.035,3.006,24.0
162.07,-5.973,2.08,28.0
160.692,-5.864,1.162,13.0
0.0,0.0,0.0,0.0
139.984,-5.027,4.095,16.0
163.326,-5.806,3.862,9.0
162.255,-5.71,2.927,17.0
161.945,-5.643,1.998,25.0
160.709,-5.541,1.082,14.0
0.0,0.0,0.0,0.0
163.159,-5.532,4.69,11.0
163.306,-5.479,3.777,11.0
162.22,-5.381,2.841,23.0
161.88,-5.312,1.91,30.0
160.63,-5.216,0.995,13.0
0.0,0.0,0.0,0.0
163.277,-5.203,4.601,15.0
0.0,0.0,0.0,0.0
0.0,0.0,0.0,0.0
161.918,-4.987,1.818,16.0
160.661,-4.892,0.902,7.0
0.0,0.0,0.0,0.0
163.227,-4.875,4.504,21.0
167.797,-4.95,3.686,15.0
163.969,-4.778,2.679,7.0
162.018,-4.666,1.721,17.0
160.638,-4.569,0.803,4.0
0.0,0.0,0.0,0.0
163.257,-4.544,4.4,21.0
168.052,-4.62,3.584,10.0
0.0,0.0,0.0,0.0
161.963,-4.338,1.614,21.0
0.0,0.0,0.0,0.0
0.0,0.0,0.0,0.0
163.281,-4.22,4.292,11.0
170.391,-4.344,3.52,4.0
170.299,-4.281,2.558,5.0
0.0,0.0,0.0,0.0
0.0,0.0,0.0,0.0
0.0,0.0,0.0,0.0
163.407,-3.896,4.18,6.0
170.312,-4.0,3.395,7.0
0.0,0.0,0.0,0.0
119.89,-2.735,1.027,150.0
0.0,0.0,0.0,0.0
0.0,0.0,0.0,0.0
163.536,-3.577,4.062,3.0
170.257,-3.664,3.268,10.0
119.853,-2.539,1.625,6.0
119.827,-2.497,0.936,70.0
0.0,0.0,0.0,0.0
0.0,0.0,0.0,0.0
171.534,-3.413,4.127,9.0
170.182,-3.327,3.133,7.0
119.858,-2.303,1.53,37.0
119.766,-2.26,0.84,12.0
0.0,0.0,0.0,0.0
0.0,0.0,0.0,0.0
171.387,-3.07,3.982,3.0
170.415,-2.997,2.997,5.0
119.852,-2.066,1.43,53.0
19.754,-0.334,0.122,1.0
0.0,0.0,0.0,0.0
50.348,-0.818,-0.257,0.0
0.0,0.0,0.0,0.0
0.0,0.0,0.0,0.0
19.759,-0.302,0.218,10.0
19.741,-0.295,0.105,27.0
0.0,0.0,0.0,0.0
0.0,0.0,0.0,0.0
19.799,-0.277,0.425,1.0
19.762,-0.27,0.313,8.0
19.749,-0.264,0.201,27.0
19.748,-0.257,0.087,4.0
0.0,0.0,0.0,0.0
0.0,0.0,0.0,0.0
19.758,-0.239,0.406,10.0
19.749,-0.232,0.294,8.0
19.78,-0.226,0.183,1.0
0.0,0.0,0.0,0.0
0.0,0.0,0.0,0.0
19.713,-0.206,-0.154,0.0
19.755,-0.201,0.387,7.0
170.496,-1.683,2.38,7.0
160.813,-1.534,1.332,5.0
0.0,0.0,0.0,0.0
19.768,-0.175,-0.062,6.0
19.753,-0.169,-0.174,14.0
177.241,-1.469,3.302,24.0
169.937,-1.352,2.201,14.0
160.704,-1.229,1.17,15.0
19.762,-0.144,0.029,6.0
19.731,-0.138,-0.082,13.0
19.728,-0.131,-0.194,16.0
19.71,-0.126,0.347,5.0
19.711,-0.12,0.235,10.0
19.714,-0.113,0.123,10.0
19.703,-0.107,0.009,13.0
19.706,-0.101,-0.102,15.0
19.733,-0.095,-0.214,16.0
19.657,-0.089,0.325,10.0
19.685,-0.083,0.213,14.0
19.7,-0.077,0.102,15.0
19.697,-0.071,-0.011,16.0
19.727,-0.064,-0.123,14.0
19.753,-0.058,-0.236,15.0
19.635,-0.052,0.303,11.0
19.653,-0.046,0.192,12.0
19.694,-0.04,0.08,14.0
19.71,-0.034,-0.033,14.0
19.753,-0.028,-0.146,7.0
0.0,0.0,0.0,0.0
19.635,-0.016,0.281,14.0
19.734,-0.011,0.17,6.0
19.794,-0.005,0.058,4.0
19.742,0.001,-0.056,8.0
19.785,0.006,-0.168,1.0
19.768,0.013,-0.281,3.0
19.634,0.018,0.258,14.0
19.744,0.024,0.147,14.0
19.747,0.03,0.035,17.0
19.751,0.036,-0.079,22.0
19.765,0.042,-0.192,56.0
19.762,0.048,-0.304,25.0
19.634,0.054,0.235,15.0
19.697,0.06,0.123,17.0
19.746,0.066,0.011,37.0
19.75,0.071,-0.103,15.0
19.757,0.077,-0.215,4.0
19.762,0.083,-0.328,0.0
19.654,0.089,0.211,12.0
19.657,0.094,0.099,13.0
19.655,0.1,-0.012,10.0
19.69,0.106,-0.127,3.0
0.0,0.0,0.0,0.0
31.214,0.187,-0.558,0.0
19.67,0.123,0.186,16.0
19.644,0.129,0.074,13.0
19.638,0.134,-0.037,15.0
19.656,0.14,-0.151,11.0
19.692,0.146,-0.264,2.0
19.676,0.151,-0.376,6.0
19.668,0.157,0.161,14.0
19.651,0.163,0.049,13.0
19.648,0.168,-0.062,11.0
19.641,0.173,-0.176,15.0
19.652,0.179,-0.289,16.0
19.671,0.185,-0.402,19.0
19.704,0.191,0.136,10.0
19.663,0.196,0.023,13.0
19.633,0.201,-0.088,15.0
19.628,0.206,-0.202,16.0
19.651,0.212,-0.315,14.0
19.675,0.218,-0.428,22.0
19.773,0.225,0.11,15.0
19.704,0.23,-0.003,6.0
19.642,0.234,-0.115,14.0
19.634,0.24,-0.229,16.0
19.657,0.245,-0.342,13.0
19.675,0.251,-0.455,16.0
84.805,1.107,0.355,5.0
19.705,0.262,-0.03,0.0
19.677,0.267,-0.142,10.0
19.662,0.272,-0.256,14.0
19.685,0.278,-0.37,10.0
19.719,0.284,-0.483,1.0
0.0,0.0,0.0,0.0
52.409,0.784,-0.153,1.0
37.976,0.577,-0.328,0.0
19.67,0.304,-0.284,1.0
29.61,0.466,-0.598,0.0
25.76,0.412,-0.668,0.0
55.205,0.899,0.075,41.0
45.112,0.746,-0.196,1.0
35.658,0.599,-0.359,0.0
32.36,0.552,-0.514,0.0
28.363,0.491,-0.613,0.0
25.121,0.441,-0.687,0.0
55.139,0.984,-0.003,31.0
42.167,0.763,-0.244,1.0
55.194,1.012,-0.635,0.0
29.611,0.55,-0.513,0.0
27.332,0.515,-0.63,1.0
24.133,0.461,-0.695,0.0
55.116,1.068,-0.084,2.0
39.314,0.772,-0.285,1.0
32.506,0.646,-0.422,1.0
27.535,0.554,-0.518,0.0
26.653,0.543,-0.655,6.0
22.935,0.473,-0.695,0.0
0.0,0.0,0.0,0.0
0.0,0.0,0.0,0.0
29.355,0.627,-0.425,0.0
25.692,0.555,-0.522,0.0
25.17,0.55,-0.656,1.0
22.315,0.493,-0.71,3.0
43.989,0.984,-0.199,9.0
34.887,0.789,-0.358,1.0
29.523,0.675,-0.473,2.0
25.085,0.579,-0.548,0.0
22.878,0.534,-0.631,0.0
21.802,0.514,-0.727,4.0
40.856,0.974,-0.248,9.0
32.691,0.786,-0.386,1.0
28.398,0.689,-0.498,1.0
23.654,0.58,-0.553,0.0
21.843,0.54,-0.637,1.0
20.787,0.519,-0.725,4.0
39.697,1.002,-0.303,5.0
31.726,0.808,-0.424,0.0
26.753,0.687,-0.511,1.0
22.687,0.588,-0.566,0.0
20.62,0.539,-0.633,0.0
20.483,0.54,-0.747,3.0
36.74,0.978,-0.338,4.0
29.969,0.804,-0.448,1.0
25.77,0.698,-0.534,4.0
21.731,0.593,-0.577,0.0
19.718,0.542,-0.637,0.0
0.0,0.0,0.0,0.0
40.138,1.123,-0.434,1.0
28.573,0.806,-0.473,1.0
24.334,0.691,-0.543,0.0
20.799,0.595,-0.586,1.0
19.138,0.552,-0.649,1.0
18.854,0.548,-0.748,2.0
40.145,1.176,-0.499,1.0
27.402,0.808,-0.498,7.0
22.998,0.683,-0.55,0.0
20.295,0.607,-0.604,1.0
18.278,0.551,-0.65,1.0
18.231,0.553,-0.753,2.0
30.156,0.922,-0.424,0.0
25.85,0.795,-0.512,6.0
