X,Y,Z,Reflectivity
0.0,0.0,0.0,0.0
0.0,0.0,0.0,0.0
0.0,0.0,0.0,0.0
101.521,-5.359,1.491,17.0
0.0,0.0,0.0,0.0
0.0,0.0,0.0,0.0
0.0,0.0,0.0,0.0
0.0,0.0,0.0,0.0
0.0,0.0,0.0,0.0
0.0,0.0,0.0,0.0
101.539,-5.118,0.956,161.0
0.0,0.0,0.0,0.0
0.0,0.0,0.0,0.0
0.0,0.0,0.0,0.0
0.0,0.0,0.0,0.0
0.0,0.0,0.0,0.0
101.536,-4.912,0.972,166.0
0.0,0.0,0.0,0.0
0.0,0.0,0.0,0.0
0.0,0.0,0.0,0.0
0.0,0.0,0.0,0.0
0.0,0.0,0.0,0.0
101.515,-4.704,0.985,150.0
0.0,0.0,0.0,0.0
0.0,0.0,0.0,0.0
0.0,0.0,0.0,0.0
0.0,0.0,0.0,0.0
0.0,0.0,0.0,0.0
101.378,-4.487,0.993,2.0
0.0,0.0,0.0,0.0
0.0,0.0,0.0,0.0
0.0,0.0,0.0,0.0
0.0,0.0,0.0,0.0
101.554,-4.326,1.56,150.0
0.0,0.0,0.0,0.0
0.0,0.0,0.0,0.0
0.0,0.0,0.0,0.0
0.0,0.0,0.0,0.0
162.307,-6.642,3.392,12.0
0.0,0.0,0.0,0.0
0.0,0.0,0.0,0.0
0.0,0.0,0.0,0.0
0.0,0.0,0.0,0.0
0.0,0.0,0.0,0.0
162.255,-6.304,3.389,10.0
104.922,-4.037,1.612,2.0
0.0,0.0,0.0,0.0
0.0,0.0,0.0,0.0
0.0,0.0,0.0,0.0
0.0,0.0,0.0,0.0
162.182,-5.963,3.379,11.0
162.201,-5.903,2.484,17.0
162.199,-5.841,1.588,17.0
0.0,0.0,0.0,0.0
0.0,0.0,0.0,0.0
0.0,0.0,0.0,0.0
162.269,-5.624,3.367,13.0
162.188,-5.561,2.468,17.0
161.984,-5.496,1.57,18.0
0.0,0.0,0.0,0.0
0.0,0.0,0.0,0.0
0.0,0.0,0.0,0.0
162.283,-5.288,3.348,12.0
162.118,-5.22,2.447,14.0
162.076,-5.157,1.548,6.0
0.0,0.0,0.0,0.0
0.0,0.0,0.0,0.0
0.0,0.0,0.0,0.0
168.26,-5.127,3.443,5.0
163.904,-4.932,2.445,28.0
162.146,-4.821,1.521,6.0
0.0,0.0,0.0,0.0
0.0,0.0,0.0,0.0
47.512,-1.36,-0.348,0.0
167.851,-4.761,3.401,13.0
161.989,-4.535,2.384,14.0
162.011,-4.478,1.486,15.0
0.0,0.0,0.0,0.0
0.0,0.0,0.0,0.0
0.0,0.0,0.0,0.0
168.198,-4.416,3.369,5.0
161.901,-4.191,2.343,13.0
0.0,0.0,0.0,0.0
0.0,0.0,0.0,0.0
0.0,0.0,0.0,0.0
0.0,0.0,0.0,0.0
170.376,-4.118,3.365,7.0
163.632,-3.895,2.322,4.0
123.887,-2.905,1.07,71.0
0.0,0.0,0.0,0.0
0.0,0.0,0.0,0.0
0.0,0.0,0.0,0.0
170.348,-3.764,3.312,11.0
0.0,0.0,0.0,0.0
123.838,-2.644,1.029,150.0
0.0,0.0,0.0,0.0
0.0,0.0,0.0,0.0
0.0,0.0,0.0,0.0
170.321,-3.406,3.252,9.0
123.869,-2.431,1.674,8.0
123.803,-2.385,0.984,150.0
0.0,0.0,0.0,0.0
53.309,-0.988,-0.175,0.0
0.0,0.0,0.0,0.0
170.272,-3.045,3.184,12.0
123.853,-2.17,1.625,24.0
123.803,-2.123,0.934,78.0
0.0,0.0,0.0,0.0
0.0,0.0,0.0,0.0
42.787,-0.688,-0.397,0.0
173.586,-2.739,3.172,5.0
19.775,-0.305,0.251,1.0
19.743,-0.297,0.14,26.0
19.828,-0.291,0.028,0.0
0.0,0.0,0.0,0.0
0.0,0.0,0.0,0.0
19.773,-0.27,0.352,7.0
19.746,-0.263,0.241,15.0
19.745,-0.256,0.131,16.0
0.0,0.0,0.0,0.0
0.0,0.0,0.0,0.0
41.933,-0.5,-0.428,0.0
19.754,-0.229,0.341,10.0
19.755,-0.222,0.231,2.0
0.0,0.0,0.0,0.0
0.0,0.0,0.0,0.0
19.724,-0.201,-0.101,0.0
19.769,-0.194,-0.212,9.0
19.768,-0.188,0.331,0.0
169.196,-1.551,1.89,10.0
160.711,-1.416,0.895,6.0
19.722,-0.166,-0.002,0.0
19.746,-0.16,-0.113,13.0
19.741,-0.153,-0.223,17.0
0.0,0.0,0.0,0.0
19.753,-0.14,0.209,2.0
19.762,-0.133,0.098,6.0
19.724,-0.126,-0.014,12.0
19.72,-0.119,-0.124,16.0
19.735,-0.113,-0.235,17.0
19.68,-0.106,0.306,10.0
19.709,-0.099,0.196,16.0
19.703,-0.093,0.086,12.0
19.701,-0.086,-0.026,16.0
19.719,-0.079,-0.136,17.0
19.757,-0.073,-0.248,15.0
19.645,-0.066,0.293,10.0
19.681,-0.059,0.183,12.0
19.706,-0.052,0.073,15.0
19.71,-0.046,-0.039,16.0
19.747,-0.039,-0.15,13.0
19.748,-0.032,-0.261,0.0
19.633,-0.026,0.279,13.0
19.701,-0.019,0.17,6.0
19.744,-0.012,0.059,5.0
19.735,-0.006,-0.053,7.0
19.783,0.0,-0.164,0.0
19.786,0.007,-0.275,1.0
19.627,0.013,0.265,15.0
19.755,0.02,0.156,22.0
19.732,0.027,0.045,15.0
19.745,0.033,-0.067,48.0
19.761,0.04,-0.179,17.0
19.767,0.047,-0.29,28.0
19.623,0.053,0.25,14.0
19.688,0.06,0.14,13.0
19.754,0.067,0.03,30.0
19.752,0.073,-0.083,14.0
19.758,0.08,-0.194,3.0
19.739,0.086,-0.305,0.0
19.621,0.092,0.235,13.0
19.651,0.099,0.124,13.0
19.648,0.105,0.014,13.0
19.667,0.112,-0.098,8.0
19.755,0.119,-0.21,0.0
32.213,0.205,-0.524,0.0
19.662,0.132,0.219,17.0
19.641,0.138,0.108,13.0
19.649,0.144,-0.002,18.0
19.632,0.151,-0.114,14.0
19.657,0.157,-0.225,12.0
19.665,0.164,-0.337,10.0
19.673,0.171,0.202,13.0
19.673,0.177,0.091,12.0
19.646,0.183,-0.019,13.0
19.622,0.189,-0.131,17.0
19.647,0.196,-0.243,16.0
19.662,0.202,-0.354,15.0
19.765,0.21,0.186,25.0
19.713,0.216,0.074,2.0
19.678,0.222,-0.037,5.0
19.628,0.227,-0.149,16.0
19.644,0.233,-0.26,17.0
19.656,0.24,-0.372,17.0
19.773,0.248,0.167,25.0
84.827,1.094,0.24,1.0
19.694,0.26,-0.055,5.0
19.667,0.265,-0.168,13.0
19.67,0.271,-0.279,15.0
19.693,0.278,-0.391,9.0
160.782,2.332,1.21,5.0
0.0,0.0,0.0,0.0
46.642,0.704,-0.176,0.0
36.978,0.57,-0.352,0.0
19.648,0.309,-0.298,0.0
29.166,0.468,-0.608,0.0
55.188,0.904,0.36,52.0
55.168,0.921,0.048,52.0
44.941,0.764,-0.215,0.0
35.76,0.619,-0.377,0.0
31.51,0.555,-0.51,0.0
28.471,0.51,-0.623,0.0
55.194,1.009,0.304,44.0
55.17,1.025,-0.008,23.0
41.908,0.791,-0.243,1.0
34.71,0.666,-0.402,2.0
28.915,0.563,-0.499,0.0
27.462,0.543,-0.629,2.0
83.965,1.691,0.374,2.0
54.822,1.12,-0.066,1.0
40.672,0.842,-0.279,1.0
32.58,0.684,-0.412,1.0
28.432,0.606,-0.521,1.0
25.201,0.545,-0.604,0.0
0.0,0.0,0.0,0.0
50.238,1.118,-0.115,0.0
38.697,0.872,-0.308,2.0
31.111,0.71,-0.427,0.0
26.402,0.61,-0.512,0.0
23.169,0.542,-0.581,0.0
0.0,0.0,0.0,0.0
0.0,0.0,0.0,0.0
36.788,0.895,-0.334,2.0
30.49,0.751,-0.453,2.0
25.728,0.641,-0.528,0.0
22.179,0.559,-0.581,0.0
0.0,0.0,0.0,0.0
40.12,1.036,-0.182,108.0
0.0,0.0,0.0,0.0
29.239,0.772,-0.468,2.0
25.298,0.674,-0.549,1.0
21.509,0.579,-0.589,1.0
40.143,1.096,-0.001,157.0
40.047,1.104,-0.228,56.0
40.154,1.118,-0.458,1.0
28.424,0.799,-0.488,1.0
24.075,0.684,-0.551,0.0
20.735,0.594,-0.592,2.0
40.126,1.164,-0.049,150.0
39.99,1.171,-0.276,14.0
40.149,1.186,-0.505,1.0
27.413,0.817,-0.504,7.0
23.028,0.693,-0.554,0.0
20.418,0.62,-0.608,2.0
40.135,1.233,-0.098,144.0
39.948,1.238,-0.325,2.0
40.138,1.254,-0.555,1.0
25.987,0.819,-0.51,3.0
22.105,0.702,-0.559,0.0
19.722,0.632,-0.612,0.0
40.127,1.3,-0.148,89.0
36.195,1.182,-0.339,1.0
29.782,0.98,-0.449,2.0
25.426,0.843,-0.531,1.0
21.7,0.726,-0.577,2.0
19.27,0.65,-0.622,3.0
40.084,1.365,-0.199,91.0
40.184,1.378,-0.429,2.0
28.804,0.995,-0.471,3.0
24.5,0.853,-0.543,1.0
21.247,0.745,-0.592,2.0
18.794,0.664,-0.631,2.0
40.009,1.427,-0.251,19.0
32.359,1.162,-0.387,0.0
27.565,0.997,-0.487,2.0
23.429,0.853,-0.55,0.0
20.139,0.738,-0.588,1.0
18.432,0.68,-0.643,3.0
39.747,1.48,-0.301,1.0
30.315,1.136,-0.403,0.0
26.857,1.013,-0.51,6.0
22.974,0.872,-0.57,2.0
19.823,0.757,-0.605,2.0
17.964,0.691,-0.651,3.0
36.481,1.415,-0.326,1.0
29.697,1.159,-0.435,2.0
23.804,0.935,-0.484,2.0
21.702,0.857,-0.568,1.0
19.4,0.771,-0.618,2.0
17.615,0.705,-0.662,2.0
33.681,1.358,-0.347,0.0
28.906,1.172,-0.463,6.0
23.653,0.965,-0.514,37.0
21.151,0.868,-0.583,2.0
18.693,0.771,-0.622,3.0
17.187,0.713,-0.67,2.0
23.654,0.989,-0.276,24.0
23.664,0.995,-0.412,34.0
23.577,0.997,-0.545,21.0
20.392,0.867,-0.59,2.0
18.289,0.782,-0.634,3.0
17.009,0.731,-0.687,3.0
23.626,1.022,-0.31,46.0
23.637,1.028,-0.445,41.0
23.164,1.013,-0.569,5.0
19.738,0.867,-0.599,2.0
17.89,0.79,-0.646,2.0
16.857,0.749,-0.705,2.0
23.627,1.056,-0.343,69.0
23.617,1.06,-0.478,59.0
23.62,1.066,-0.613,1.0
19.247,0.873,-0.612,3.0
17.413,0.793,-0.653,2.0
16.664,0.763,-0.721,2.0
23.611,1.087,-0.377,60.0
23.623,1.093,-0.512,41.0
20.983,0.975,-0.575,1.0
18.637,0.87,-0.619,3.0
17.164,0.805,-0.669,2.0
16.505,0.778,-0.738,1.0
23.65,1.121,-0.412,36.0
23.557,1.122,-0.545,16.0
20.119,0.962,-0.581,0.0
18.258,0.877,-0.634,3.0
16.972,0.819,-0.686,2.0
16.3,0.79,-0.753,2.0
23.695,1.155,-0.448,11.0
0.0,0.0,0.0,0.0
19.66,0.966,-0.597,2.0
17.837,0.88,-0.646,2.0
16.814,0.833,-0.706,2.0
16.137,0.803,-0.77,1.0
23.749,1.188,-0.485,9.0
21.373,1.073,-0.559,1.0
18.965,0.956,-0.605,3.0
17.398,0.881,-0.657,1.0
16.643,0.846,-0.724,1.0
15.981,0.816,-0.787,4.0
23.638,1.212,-0.519,13.0
20.774,1.069,-0.575,3.0
18.534,0.957,-0.619,3.0
17.07,0.885,-0.67,1.0
16.41,0.854,-0.739,1.0
15.885,0.83,-0.806,1.0
22.874,1.2,-0.537,0.0
20.133,1.06,-0.588,3.0
18.156,0.959,-0.635,3.0
16.907,0.897,-0.69,2.0
16.221,0.864,-0.755,1.0
15.139,0.809,-0.792,0.0
21.807,1.17,-0.545,1.0
19.408,1.045,-0.597,3.0
17.762,0.959,-0.648,1.0
16.754,0.908,-0.709,1.0
16.04,0.872,-0.772,2.0
14.876,0.812,-0.801,0.0
19.909,1.09,-0.529,3.0
18.817,1.034,-0.608,3.0
17.264,0.952,-0.657,1.0
16.527,0.914,-0.726,1.0
15.93,0.884,-0.791,1.0
14.503,0.807,-0.804,0.0
20.001,1.117,-0.563,7.0
18.349,1.028,-0.622,2.0
17.004,0.956,-0.674,2.0
16.287,0.918,-0.741,1.0
15.389,0.871,-0.789,0.0
14.174,0.804,-0.808,0.0
19.729,1.123,-0.586,7.0
17.987,1.027,-0.638,2.0
16.862,0.965,-0.695,2.0
16.092,0.924,-0.758,2.0
15.023,0.865,-0.794,0.0
13.855,0.8,-0.812,0.0
19.105,1.107,-0.598,3.0
17.447,1.013,-0.646,0.0
16.661,0.97,-0.713,1.0
15.981,0.933,-0.777,4.0
14.64,0.857,-0.797,0.0
13.548,0.796,-0.815,0.0
18.558,1.093,-0.61,3.0
17.127,1.011,-0.661,1.0
16.433,0.973,-0.729,1.0
15.786,0.937,-0.793,0.0
14.472,0.861,-0.811,0.0
13.292,0.793,-0.821,0.0
13.513,0.932,-0.813,0.0
12.628,0.872,-0.833,0.0
11.815,0.817,-0.847,0.0
11.066,0.766,-0.859,0.0
10.425,0.722,-0.869,0.0
9.972,0.692,-0.89,0.0
13.175,0.912,-0.813,0.0
12.4,0.859,-0.837,0.0
11.542,0.8,-0.846,0.0
10.883,0.755,-0.861,0.0
10.274,0.714,-0.873,0.0
9.785,0.68,-0.888,0.0
12.938,0.898,-0.818,0.0
12.146,0.843,-0.838,0.0
11.355,0.789,-0.85,0.0
10.683,0.743,-0.862,0.0
10.174,0.708,-0.88,0.0
9.643,0.672,-0.89,0.0
12.766,0.888,-0.827,0.0
11.933,0.83,-0.842,0.0
11.202,0.78,-0.855,0.0
10.514,0.733,-0.865,0.0
10.041,0.7,-0.884,0.0
9.556,0.667,-0.897,0.0
12.521,0.872,-0.83,0.0
11.724,0.817,-0.845,0.0
11.027,0.769,-0.859,0.0
10.371,0.723,-0.869,0.0
9.888,0.69,-0.886,0.0
9.441,0.659,-0.9,0.0
12.353,0.861,-0.837,0.0
11.527,0.803,-0.848,0.0
10.873,0.758,-0.863,0.0
10.228,0.714,-0.872,0.0
9.727,0.679,-0.886,0.0
9.231,0.645,-0.894,0.0
12.156,0.847,-0.842,0.0
11.344,0.791,-0.852,0.0
10.632,0.741,-0.86,0.0
10.1,0.705,-0.876,0.0
9.629,0.672,-0.891,0.0
9.145,0.639,-0.9,0.0
11.938,0.831,-0.845,0.0
11.181,0.779,-0.856,0.0
10.467,0.729,-0.862,0.0
9.997,0.697,-0.882,0.0
9.511,0.663,-0.894,0.0
9.031,0.63,-0.902,0.0
11.713,0.815,-0.846,0.0
10.978,0.764,-0.856,0.0
10.369,0.722,-0.869,0.0
9.815,0.683,-0.88,0.0
9.381,0.653,-0.896,0.0
8.864,0.618,-0.898,0.0
11.516,0.8,-0.848,0.0
10.834,0.753,-0.86,0.0
10.217,0.71,-0.871,0.0
9.728,0.676,-0.886,0.0
9.261,0.644,-0.898,0.0
8.787,0.611,-0.903,0.0
11.335,0.786,-0.851,0.0
10.672,0.74,-0.863,0.0
10.123,0.702,-0.877,0.0
9.619,0.667,-0.89,0.0
9.19,0.637,-0.904,0.0
8.694,0.603,-0.906,0.0
11.226,0.776,-0.858,0.0
10.447,0.722,-0.859,0.0
10.015,0.692,-0.881,0.0
9.529,0.659,-0.895,0.0
9.03,0.624,-0.9,0.0
8.533,0.59,-0.901,0.0
10.97,0.756,-0.854,0.0
10.384,0.715,-0.868,0.0
9.85,0.678,-0.88,0.0
9.406,0.648,-0.896,0.0
8.903,0.613,-0.9,0.0
8.456,0.582,-0.904,0.0
10.851,0.744,-0.859,0.0
10.241,0.703,-0.87,0.0
9.779,0.671,-0.887,0.0
9.26,0.635,-0.895,0.0
8.77,0.601,-0.898,0.0
8.367,0.574,-0.906,0.0
10.695,0.73,-0.861,0.0
10.142,0.692,-0.875,0.0
9.662,0.66,-0.889,0.0
9.164,0.626,-0.898,0.0
8.713,0.595,-0.904,0.0
8.268,0.564,-0.906,0.0
10.556,0.717,-0.863,0.0
10.038,0.682,-0.879,0.0
9.532,0.647,-0.89,0.0
9.048,0.614,-0.898,0.0
8.586,0.583,-0.902,0.0
8.188,0.556,-0.908,0.0
10.404,0.703,-0.864,0.0
9.949,0.672,-0.884,0.0
9.455,0.638,-0.894,0.0
8.935,0.603,-0.898,0.0
8.519,0.575,-0.906,0.0
8.076,0.545,-0.905,0.0
10.325,0.693,-0.87,0.0
9.854,0.661,-0.887,0.0
9.335,0.626,-0.894,0.0
8.857,0.594,-0.901,0.0
8.427,0.565,-0.906,0.0
8.024,0.538,-0.909,0.0
10.229,0.682,-0.875,0.0
9.735,0.649,-0.888,0.0
9.235,0.615,-0.896,0.0
8.75,0.583,-0.901,0.0
8.348,0.556,-0.908,0.0
7.975,0.531,-0.913,0.0
10.131,0.671,-0.878,0.0
9.634,0.637,-0.891,0.0
9.168,0.606,-0.9,0.0
8.65,0.572,-0.9,0.0
8.262,0.546,-0.908,0.0
7.932,0.524,-0.918,0.0
10.02,0.658,-0.88,0.0
9.542,0.626,-0.893,0.0
9.043,0.593,-0.899,0.0
8.578,0.562,-0.903,0.0
8.17,0.535,-0.907,0.0
7.869,0.515,-0.92,0.0
9.964,0.649,-0.886,0.0
9.47,0.616,-0.897,0.0
8.91,0.579,-0.895,0.0
8.525,0.554,-0.907,0.0
8.094,0.526,-0.908,0.0
7.802,0.506,-0.921,0.0
9.823,0.634,-0.885,0.0
9.328,0.601,-0.894,0.0
8.862,0.571,-0.9,0.0
8.443,0.543,-0.907,0.0
8.055,0.518,-0.912,0.0
7.766,0.499,-0.925,0.0
9.742,0.623,-0.888,0.0
9.242,0.59,-0.895,0.0
8.78,0.56,-0.901,0.0
8.31,0.53,-0.902,0.0
8.001,0.509,-0.915,0.0
7.724,0.491,-0.928,0.0
9.649,0.61,-0.889,0.0
9.176,0.58,-0.898,0.0
8.665,0.547,-0.898,0.0
8.252,0.52,-0.904,0.0
7.941,0.5,-0.916,0.0
7.65,0.481,-0.927,0.0
9.573,0.599,-0.892,0.0
9.053,0.566,-0.895,0.0
8.629,0.539,-0.903,0.0
8.203,0.511,-0.907,0.0
7.909,0.493,-0.92,0.0
7.627,0.475,-0.931,0.0
9.547,0.59,-0.898,0.0
9.004,0.556,-0.899,0.0
8.589,0.53,-0.907,0.0
8.114,0.5,-0.905,0.0
7.854,0.483,-0.921,0.0
7.56,0.465,-0.931,0.0
9.484,0.579,-0.901,0.0
8.924,0.544,-0.899,0.0
8.533,0.52,-0.909,0.0
8.079,0.492,-0.908,0.0
7.803,0.474,-0.922,0.0
7.525,0.457,-0.933,0.0
9.34,0.563,-0.896,0.0
8.881,0.535,-0.903,0.0
8.423,0.506,-0.905,0.0
8.036,0.483,-0.911,0.0
7.752,0.465,-0.923,0.0
7.478,0.448,-0.934,0.0
9.318,0.554,-0.902,0.0
8.819,0.524,-0.904,0.0
8.382,0.497,-0.908,0.0
7.968,0.472,-0.909,0.0
7.738,0.458,-0.928,0.0
7.431,0.439,-0.934,0.0
9.234,0.542,-0.901,0.0
8.763,0.513,-0.906,0.0
8.301,0.485,-0.906,0.0
7.963,0.465,-0.915,0.0
7.712,0.45,-0.931,0.0
7.373,0.429,-0.933,0.0
9.144,0.528,-0.9,0.0
8.68,0.501,-0.904,0.0
8.249,0.475,-0.906,0.0
7.913,0.455,-0.916,0.0
7.66,0.44,-0.931,0.0
7.355,0.421,-0.936,0.0
9.079,0.517,-0.9,0.0
8.595,0.488,-0.901,0.0
8.212,0.466,-0.908,0.0
7.87,0.445,-0.916,0.0
7.617,0.43,-0.931,0.0
7.337,0.414,-0.939,0.0
9.03,0.506,-0.901,0.0
8.639,0.483,-0.912,0.0
8.159,0.455,-0.908,0.0
7.88,0.439,-0.923,0.0
7.592,0.422,-0.933,0.0
7.269,0.403,-0.935,0.0
8.977,0.494,-0.902,0.0
8.517,0.468,-0.904,0.0
8.149,0.447,-0.912,0.0
7.838,0.429,-0.923,0.0
7.535,0.412,-0.931,0.0
7.244,0.395,-0.937,0.0
8.975,0.486,-0.908,0.0
8.5,0.459,-0.908,0.0
8.097,0.436,-0.911,0.0
7.814,0.42,-0.925,0.0
7.517,0.403,-0.933,0.0
7.229,0.387,-0.939,0.0
8.911,0.473,-0.906,0.0
8.431,0.447,-0.905,0.0
8.056,0.426,-0.911,0.0
7.776,0.41,-0.925,0.0
7.496,0.395,-0.935,0.0
7.241,0.38,-0.945,0.0
8.883,0.463,-0.908,0.0
8.455,0.44,-0.912,0.0
8.025,0.416,-0.912,0.0
7.714,0.399,-0.922,0.0
7.461,0.385,-0.934,0.0
7.232,0.372,-0.947,0.0
8.844,0.452,-0.908,0.0
8.401,0.428,-0.911,0.0
8.053,0.409,-0.919,0.0
7.695,0.39,-0.923,0.0
7.443,0.376,-0.936,0.0
7.207,0.364,-0.947,0.0
8.793,0.44,-0.907,0.0
8.356,0.417,-0.91,0.0
7.994,0.398,-0.916,0.0
7.69,0.382,-0.926,0.0
7.418,0.367,-0.935,0.0
7.198,0.356,-0.949,0.0
8.8,0.431,-0.911,0.0
8.315,0.406,-0.909,0.0
7.98,0.389,-0.917,0.0
7.673,0.373,-0.927,0.0
7.399,0.359,-0.936,0.0
7.191,0.348,-0.951,0.0
8.758,0.42,-0.91,0.0
8.315,0.398,-0.912,0.0
7.968,0.38,-0.919,0.0
7.708,0.366,-0.934,0.0
7.41,0.351,-0.94,0.0
7.172,0.339,-0.951,0.0
8.743,0.41,-0.912,0.0
8.286,0.387,-0.911,0.0
7.956,0.371,-0.92,0.0
7.653,0.355,-0.929,0.0
7.386,0.342,-0.939,0.0
7.141,0.329,-0.949,0.0
8.738,0.4,-0.914,0.0
8.253,0.376,-0.91,0.0
7.938,0.361,-0.92,0.0
7.639,0.346,-0.93,0.0
7.353,0.332,-0.937,0.0
7.132,0.321,-0.949,0.0
8.704,0.389,-0.912,0.0
8.31,0.37,-0.918,0.0
7.915,0.351,-0.919,0.0
7.616,0.336,-0.928,0.0
7.357,0.324,-0.939,0.0
7.137,0.313,-0.952,0.0
8.684,0.378,-0.912,0.0
8.247,0.357,-0.912,0.0
7.964,0.344,-0.926,0.0
7.614,0.328,-0.929,0.0
7.365,0.316,-0.941,0.0
7.121,0.304,-0.95,0.0
8.667,0.367,-0.911,0.0
8.283,0.349,-0.918,0.0
7.902,0.332,-0.92,0.0
7.6,0.318,-0.929,0.0
7.337,0.306,-0.938,0.0
7.104,0.295,-0.949,0.0
8.675,0.358,-0.913,0.0
8.251,0.339,-0.915,0.0
7.916,0.324,-0.922,0.0
7.612,0.31,-0.931,0.0
7.352,0.298,-0.941,0.0
7.092,0.286,-0.948,0.0
8.654,0.347,-0.911,0.0
8.279,0.33,-0.918,0.0
7.925,0.315,-0.924,0.0
7.626,0.302,-0.933,0.0
7.335,0.289,-0.939,0.0
7.089,0.278,-0.948,0.0
8.661,0.337,-0.912,0.0
8.272,0.32,-0.918,0.0
7.917,0.305,-0.923,0.0
7.614,0.292,-0.931,0.0
7.356,0.281,-0.941,0.0
7.089,0.27,-0.947,0.0
8.711,0.329,-0.917,0.0
8.249,0.31,-0.915,0.0
7.928,0.296,-0.924,0.0
7.653,0.285,-0.936,0.0
7.341,0.272,-0.939,0.0
7.077,0.261,-0.945,0.0
8.662,0.317,-0.911,0.0
8.284,0.301,-0.918,0.0
7.955,0.288,-0.926,0.0
7.628,0.274,-0.932,0.0
7.369,0.264,-0.942,0.0
7.118,0.254,-0.95,0.0
8.688,0.307,-0.913,0.0
8.29,0.291,-0.917,0.0
7.954,0.278,-0.925,0.0
7.674,0.267,-0.936,0.0
7.374,0.255,-0.941,0.0
7.125,0.245,-0.95,0.0
8.721,0.298,-0.915,0.0
8.336,0.283,-0.921,0.0
7.995,0.27,-0.928,0.0
7.702,0.259,-0.938,0.0
7.376,0.246,-0.94,0.0
7.145,0.237,-0.951,0.0
8.756,0.288,-0.917,0.0
8.329,0.273,-0.918,0.0
7.978,0.26,-0.924,0.0
7.643,0.248,-0.929,0.0
7.421,0.239,-0.944,0.0
7.111,0.228,-0.945,0.0
8.761,0.278,-0.915,0.0
8.359,0.264,-0.919,0.0
8.025,0.252,-0.928,0.0
7.687,0.24,-0.932,0.0
7.418,0.23,-0.941,0.0
7.163,0.221,-0.949,0.0
8.801,0.269,-0.916,0.0
8.385,0.254,-0.92,0.0
8.04,0.242,-0.927,0.0
7.717,0.231,-0.933,0.0
7.44,0.221,-0.942,0.0
7.182,0.212,-0.949,0.0
8.832,0.259,-0.916,0.0
8.411,0.245,-0.919,0.0
8.077,0.234,-0.928,0.0
7.741,0.223,-0.933,0.0
7.434,0.212,-0.938,0.0
7.182,0.204,-0.947,0.0
8.876,0.25,-0.917,0.0
8.452,0.236,-0.921,0.0
8.082,0.224,-0.925,0.0
7.785,0.214,-0.935,0.0
7.481,0.205,-0.941,0.0
7.219,0.196,-0.948,0.0
8.89,0.239,-0.915,0.0
8.489,0.227,-0.921,0.0
8.154,0.216,-0.93,0.0
7.769,0.205,-0.93,0.0
7.53,0.197,-0.943,0.0
7.262,0.188,-0.95,0.0
8.948,0.23,-0.916,0.0
8.528,0.218,-0.921,0.0
8.176,0.207,-0.928,0.0
7.818,0.196,-0.932,0.0
7.514,0.187,-0.937,0.0
7.254,0.179,-0.945,0.0
9.029,0.221,-0.92,0.0
8.562,0.208,-0.92,0.0
8.194,0.198,-0.925,0.0
7.851,0.188,-0.931,0.0
7.582,0.18,-0.941,0.0
7.261,0.171,-0.942,0.0
9.081,0.212,-0.92,0.0
8.58,0.199,-0.917,0.0
8.204,0.188,-0.922,0.0
7.918,0.18,-0.934,0.0
7.613,0.172,-0.941,0.0
7.305,0.163,-0.943,0.0
9.098,0.202,-0.916,0.0
8.629,0.19,-0.916,0.0
8.257,0.18,-0.922,0.0
7.947,0.171,-0.933,0.0
7.69,0.164,-0.945,0.0
7.35,0.156,-0.944,0.0
9.122,0.191,-0.912,0.0
8.715,0.181,-0.92,0.0
8.363,0.172,-0.928,0.0
7.981,0.163,-0.931,0.0
7.691,0.155,-0.94,0.0
7.364,0.147,-0.941,0.0
9.208,0.182,-0.914,0.0
8.778,0.172,-0.92,0.0
8.421,0.163,-0.929,0.0
8.038,0.154,-0.932,0.0
7.71,0.146,-0.936,0.0
7.401,0.139,-0.94,0.0
9.306,0.174,-0.917,0.0
8.834,0.163,-0.919,0.0
8.455,0.154,-0.926,0.0
8.096,0.146,-0.932,0.0
7.752,0.138,-0.935,0.0
7.485,0.132,-0.944,0.0
9.371,0.164,-0.916,0.0
8.902,0.154,-0.919,0.0
8.502,0.145,-0.924,0.0
8.183,0.138,-0.935,0.0
7.845,0.131,-0.94,0.0
7.484,0.123,-0.938,0.0
9.455,0.155,-0.916,0.0
8.966,0.145,-0.918,0.0
8.552,0.136,-0.922,0.0
8.208,0.129,-0.931,0.0
7.913,0.123,-0.941,0.0
7.576,0.116,-0.942,0.0
9.493,0.145,-0.911,0.0
9.028,0.136,-0.916,0.0
8.622,0.128,-0.922,0.0
8.253,0.121,-0.928,0.0
7.961,0.115,-0.939,0.0
7.635,0.109,-0.943,0.0
9.526,0.135,-0.906,0.0
9.152,0.127,-0.92,0.0
8.715,0.12,-0.923,0.0
8.322,0.113,-0.928,0.0
8.018,0.107,-0.938,0.0
7.681,0.101,-0.941,0.0
9.672,0.126,-0.91,0.0
9.222,0.118,-0.918,0.0
8.802,0.111,-0.924,0.0
8.399,0.105,-0.929,0.0
8.059,0.099,-0.935,0.0
7.721,0.093,-0.938,0.0
9.803,0.117,-0.913,0.0
9.3,0.109,-0.916,0.0
8.878,0.103,-0.923,0.0
8.501,0.097,-0.931,0.0
8.117,0.091,-0.933,0.0
7.815,0.086,-0.941,0.0
9.865,0.108,-0.908,0.0
9.394,0.101,-0.915,0.0
8.966,0.094,-0.922,0.0
8.566,0.088,-0.929,0.0
8.2,0.083,-0.934,0.0
7.869,0.078,-0.939,0.0
9.922,0.098,-0.902,1.0
9.471,0.091,-0.913,0.0
9.042,0.086,-0.92,0.0
8.632,0.08,-0.926,0.0
8.283,0.075,-0.934,0.0
7.954,0.071,-0.94,0.0
10.086,0.089,-0.906,0.0
9.588,0.083,-0.913,0.0
9.128,0.077,-0.918,0.0
8.724,0.072,-0.926,0.0
8.341,0.067,-0.931,0.0
8.017,0.063,-0.938,0.0
10.216,0.08,-0.905,0.0
9.707,0.074,-0.913,0.0
9.27,0.069,-0.922,0.0
8.831,0.064,-0.926,0.0
8.421,0.059,-0.929,0.0
8.065,0.055,-0.934,0.0
10.333,0.07,-0.903,0.0
9.775,0.065,-0.907,0.0
9.358,0.06,-0.919,0.0
8.951,0.056,-0.928,0.0
8.533,0.052,-0.931,0.0
8.19,0.048,-0.938,0.0
10.48,0.061,-0.903,0.0
9.953,0.056,-0.911,0.0
9.455,0.052,-0.916,0.0
9.018,0.048,-0.923,0.0
8.632,0.044,-0.931,0.0
8.248,0.041,-0.934,0.0
10.602,0.052,-0.9,0.0
10.086,0.047,-0.91,0.0
9.566,0.043,-0.914,0.0
9.129,0.04,-0.923,0.0
8.716,0.036,-0.928,0.0
8.33,0.033,-0.932,0.0
10.762,0.042,-0.899,0.0
10.225,0.039,-0.909,0.0
9.715,0.035,-0.916,0.0
9.236,0.031,-0.921,0.0
8.832,0.029,-0.928,0.0
8.426,0.026,-0.931,0.0
10.906,0.033,-0.896,0.0
10.347,0.03,-0.906,0.0
9.788,0.026,-0.909,0.0
9.427,0.024,-0.927,0.0
8.928,0.021,-0.926,0.0
8.534,0.019,-0.931,0.0
11.077,0.024,-0.895,0.0
10.491,0.021,-0.904,0.0
9.956,0.018,-0.911,0.0
9.48,0.016,-0.919,0.0
9.039,0.013,-0.924,0.0
8.626,0.011,-0.929,0.0
11.261,0.015,-0.894,0.0
10.642,0.012,-0.901,0.0
10.086,0.01,-0.908,0.0
9.592,0.008,-0.916,0.0
9.142,0.006,-0.922,0.0
8.754,0.004,-0.929,0.0
11.439,0.006,-0.891,0.0
10.823,0.003,-0.901,0.0
10.278,0.002,-0.91,0.0
9.738,0.0,-0.915,0.0
9.302,-0.001,-0.924,0.0
8.882,-0.002,-0.93,0.0
11.607,-0.003,-0.887,0.0
10.988,-0.004,-0.898,0.0
10.416,-0.006,-0.906,0.0
9.887,-0.007,-0.914,0.0
9.409,-0.008,-0.92,0.0
8.973,-0.009,-0.925,0.0
11.833,-0.012,-0.886,0.0
11.182,-0.013,-0.896,0.0
10.575,-0.014,-0.904,0.0
10.039,-0.015,-0.912,0.0
9.528,-0.015,-0.917,0.0
9.116,-0.016,-0.925,0.0
12.008,-0.021,-0.88,0.0
11.362,-0.022,-0.893,0.0
10.767,-0.022,-0.903,0.0
10.215,-0.023,-0.912,0.0
9.708,-0.023,-0.918,0.0
9.258,-0.023,-0.925,0.0
12.247,-0.03,-0.878,0.0
11.561,-0.03,-0.89,0.0
10.952,-0.03,-0.901,0.0
10.358,-0.03,-0.908,0.0
9.839,-0.03,-0.914,0.0
9.386,-0.03,-0.922,0.0
12.458,-0.04,-0.873,0.0
11.773,-0.039,-0.887,0.0
11.111,-0.038,-0.896,0.0
10.543,-0.038,-0.907,0.0
10.005,-0.037,-0.913,0.0
9.536,-0.037,-0.921,0.0
12.697,-0.049,-0.868,0.0
11.99,-0.048,-0.883,0.0
11.347,-0.047,-0.896,0.0
10.751,-0.046,-0.907,0.0
10.187,-0.045,-0.913,0.0
9.673,-0.044,-0.918,0.0
12.954,-0.058,-0.864,0.0
12.241,-0.056,-0.881,0.0
11.523,-0.055,-0.89,0.0
10.908,-0.053,-0.901,0.0
10.352,-0.052,-0.91,0.0
9.833,-0.05,-0.916,0.0
13.282,-0.067,-0.863,0.0
12.46,-0.065,-0.875,0.0
11.771,-0.063,-0.889,0.0
11.126,-0.061,-0.9,0.0
10.537,-0.059,-0.908,0.0
10.0,-0.057,-0.914,0.0
13.552,-0.076,-0.858,0.0
12.666,-0.073,-0.868,0.0
11.964,-0.07,-0.883,0.0
11.316,-0.068,-0.895,0.0
10.752,-0.066,-0.907,0.0
10.167,-0.063,-0.911,0.0
13.823,-0.085,-0.85,0.0
12.933,-0.081,-0.863,0.0
12.268,-0.078,-0.883,0.0
11.527,-0.075,-0.891,0.0
10.931,-0.072,-0.903,0.0
10.359,-0.07,-0.91,0.0
14.236,-0.095,-0.85,0.0
13.271,-0.09,-0.862,0.0
12.478,-0.086,-0.876,0.0
11.775,-0.082,-0.89,0.0
11.137,-0.079,-0.9,0.0
10.582,-0.076,-0.911,0.0
14.624,-0.104,-0.847,0.0
13.611,-0.099,-0.859,0.0
12.733,-0.094,-0.871,0.0
11.968,-0.089,-0.882,0.0
11.38,-0.086,-0.898,0.0
10.78,-0.082,-0.908,0.0
15.031,-0.114,-0.843,0.0
13.902,-0.107,-0.852,0.0
12.958,-0.101,-0.862,0.0
12.253,-0.096,-0.88,0.0
11.568,-0.092,-0.892,0.0
10.988,-0.089,-0.905,0.0
15.385,-0.123,-0.834,0.0
14.32,-0.116,-0.851,0.0
13.339,-0.109,-0.863,0.0
12.494,-0.103,-0.874,0.0
11.845,-0.099,-0.891,0.0
11.182,-0.094,-0.9,0.0
15.69,-0.131,-0.822,0.0
14.755,-0.125,-0.85,0.0
13.693,-0.117,-0.86,0.0
12.799,-0.11,-0.872,0.0
12.091,-0.105,-0.887,0.0
11.425,-0.1,-0.898,0.0
16.385,-0.142,-0.827,0.0
15.101,-0.132,-0.841,0.0
14.004,-0.124,-0.853,0.0
13.041,-0.116,-0.864,0.0
12.301,-0.111,-0.879,0.0
11.649,-0.106,-0.893,0.0
16.857,-0.151,-0.819,0.0
15.402,-0.139,-0.828,0.0
14.449,-0.132,-0.852,0.0
13.452,-0.124,-0.865,0.0
12.63,-0.117,-0.878,0.0
11.921,-0.111,-0.891,0.0
17.46,-0.161,-0.815,0.0
15.995,-0.149,-0.829,0.0
14.848,-0.139,-0.847,0.0
13.755,-0.13,-0.857,0.0
12.892,-0.122,-0.871,0.0
12.176,-0.116,-0.886,0.0
18.064,-0.171,-0.808,0.0
16.538,-0.158,-0.825,0.0
15.258,-0.146,-0.84,0.0
14.148,-0.136,-0.854,0.0
13.198,-0.128,-0.865,0.0
12.412,-0.121,-0.878,0.0
18.732,-0.181,-0.801,0.0
17.015,-0.165,-0.815,0.0
15.632,-0.153,-0.83,0.0
14.594,-0.143,-0.852,0.0
13.583,-0.134,-0.864,0.0
12.755,-0.126,-0.877,0.0
19.502,-0.191,-0.795,1.0
17.626,-0.174,-0.81,0.0
16.216,-0.161,-0.829,0.0
14.985,-0.149,-0.845,0.0
13.928,-0.139,-0.858,0.0
12.996,-0.13,-0.868,0.0
19.722,-0.196,-0.764,6.0
18.411,-0.184,-0.808,0.0
16.78,-0.168,-0.824,0.0
15.406,-0.155,-0.838,0.0
14.38,-0.145,-0.856,0.0
13.438,-0.136,-0.87,0.0
19.786,-0.198,-0.727,8.0
19.099,-0.192,-0.8,0.0
17.355,-0.175,-0.817,0.0
15.839,-0.16,-0.829,0.0
14.776,-0.15,-0.85,0.0
13.766,-0.14,-0.864,0.0
0.0,0.0,0.0,0.0
19.639,-0.198,-0.783,3.0
17.958,-0.181,-0.809,0.0
16.486,-0.167,-0.83,0.0
15.237,-0.155,-0.846,0.0
14.143,-0.144,-0.858,0.0
22.487,-0.226,-0.735,0.0
19.773,-0.199,-0.748,9.0
18.76,-0.189,-0.807,0.0
16.966,-0.171,-0.819,0.0
15.639,-0.158,-0.836,0.0
14.586,-0.148,-0.855,0.0
23.275,-0.233,-0.713,0.0
19.84,-0.199,-0.711,2.0
19.511,-0.196,-0.8,1.0
17.587,-0.177,-0.813,0.0
16.183,-0.163,-0.832,0.0
15.002,-0.151,-0.849,0.0
24.668,-0.246,-0.706,0.0
22.061,-0.22,-0.745,0.0
19.727,-0.196,-0.768,5.0
18.38,-0.183,-0.812,0.0
16.721,-0.166,-0.826,0.0
15.404,-0.153,-0.84,0.0
25.719,-0.253,-0.683,0.0
22.843,-0.225,-0.725,0.0
19.775,-0.194,-0.729,7.0
19.037,-0.187,-0.802,0.0
17.373,-0.171,-0.822,0.0
15.971,-0.157,-0.838,0.0
19.763,-0.192,-0.484,0.0
24.178,-0.234,-0.717,0.0
0.0,0.0,0.0,0.0
19.625,-0.19,-0.787,2.0
18.058,-0.174,-0.817,0.0
16.465,-0.158,-0.83,0.0
19.773,-0.188,-0.444,5.0
25.17,-0.239,-0.694,0.0
22.506,-0.213,-0.737,0.0
19.758,-0.187,-0.751,8.0
18.788,-0.177,-0.81,0.0
17.045,-0.16,-0.823,0.0
19.762,-0.183,-0.402,10.0
19.768,-0.183,-0.504,4.0
19.816,-0.183,-0.608,0.0
19.784,-0.182,-0.71,2.0
19.507,-0.179,-0.801,1.0
17.715,-0.162,-0.819,0.0
19.773,-0.178,-0.361,13.0
19.756,-0.177,-0.463,9.0
19.776,-0.177,-0.565,5.0
19.783,-0.176,-0.669,1.0
19.728,-0.175,-0.769,6.0
18.412,-0.163,-0.813,0.0
19.758,-0.172,-0.32,10.0
19.759,-0.171,-0.422,11.0
19.742,-0.17,-0.523,10.0
19.764,-0.17,-0.627,7.0
19.764,-0.169,-0.729,9.0
19.152,-0.163,-0.806,1.0
19.762,-0.166,-0.279,14.0
19.75,-0.164,-0.38,13.0
19.739,-0.163,-0.482,13.0
19.756,-0.162,-0.586,11.0
19.768,-0.161,-0.688,9.0
19.666,-0.16,-0.786,3.0
19.758,-0.158,-0.238,15.0
19.748,-0.157,-0.339,15.0
19.741,-0.156,-0.44,17.0
19.738,-0.154,-0.544,18.0
19.755,-0.153,-0.646,14.0
19.746,-0.152,-0.748,10.0
19.754,-0.15,-0.196,15.0
19.737,-0.148,-0.297,16.0
19.742,-0.147,-0.399,17.0
19.726,-0.146,-0.503,17.0
19.745,-0.144,-0.605,15.0
19.759,-0.143,-0.707,16.0
19.735,-0.141,-0.155,15.0
19.735,-0.139,-0.257,16.0
19.738,-0.138,-0.359,17.0
19.716,-0.136,-0.462,17.0
19.74,-0.135,-0.564,17.0
19.749,-0.133,-0.666,17.0
19.738,-0.131,-0.114,16.0
19.733,-0.129,-0.216,16.0
19.74,-0.128,-0.317,16.0
19.72,-0.126,-0.421,17.0
19.735,-0.125,-0.523,16.0
19.754,-0.123,-0.625,16.0
19.749,-0.121,-0.074,10.0
19.725,-0.119,-0.175,16.0
19.728,-0.117,-0.277,16.0
19.723,-0.115,-0.38,17.0
19.737,-0.114,-0.482,16.0
19.749,-0.112,-0.585,16.0
19.732,-0.109,-0.033,12.0
19.714,-0.107,-0.135,16.0
19.723,-0.105,-0.236,16.0
19.739,-0.104,-0.34,14.0
19.743,-0.102,-0.442,16.0
19.745,-0.1,-0.544,15.0
19.726,-0.097,0.006,14.0
19.715,-0.095,-0.094,13.0
19.728,-0.093,-0.196,16.0
19.734,-0.091,-0.299,15.0
19.746,-0.089,-0.401,15.0
19.754,-0.087,-0.504,14.0
19.717,-0.085,0.047,15.0
19.722,-0.083,-0.054,13.0
19.718,-0.08,-0.156,16.0
19.735,-0.078,-0.26,15.0
19.761,-0.076,-0.362,12.0
19.76,-0.074,-0.464,11.0
19.705,-0.071,0.086,15.0
19.704,-0.069,-0.014,16.0
19.713,-0.067,-0.116,14.0
19.729,-0.065,-0.22,15.0
19.764,-0.062,-0.322,15.0
19.782,-0.06,-0.425,2.0
19.71,-0.057,0.126,17.0
19.707,-0.055,0.025,16.0
19.722,-0.052,-0.076,14.0
19.732,-0.05,-0.18,14.0
19.757,-0.048,-0.282,12.0
19.824,-0.045,-0.386,0.0
19.688,-0.042,0.166,12.0
19.701,-0.04,0.064,15.0
19.699,-0.037,-0.036,16.0
19.733,-0.035,-0.14,13.0
19.761,-0.032,-0.243,6.0
31.726,-0.048,-0.554,0.0
19.655,-0.027,0.205,16.0
19.683,-0.024,0.104,12.0
19.696,-0.022,0.002,14.0
19.748,-0.019,-0.101,8.0
19.776,-0.016,-0.203,2.0
33.858,-0.024,-0.523,0.0
19.641,-0.011,0.244,13.0
19.743,-0.008,0.144,3.0
19.728,-0.005,0.042,7.0
19.733,-0.002,-0.061,9.0
19.768,0.0,-0.164,0.0
0.0,0.0,0.0,0.0
19.63,0.005,0.283,14.0
19.647,0.008,0.182,11.0
19.774,0.011,0.08,3.0
19.744,0.014,-0.023,9.0
19.797,0.017,-0.125,1.0
19.779,0.02,-0.227,1.0
19.621,0.023,0.321,17.0
19.633,0.026,0.22,16.0
19.744,0.029,0.119,15.0
19.722,0.032,0.015,17.0
19.734,0.035,-0.086,15.0
19.75,0.038,-0.189,9.0
19.62,0.041,0.36,15.0
19.627,0.044,0.258,12.0
19.726,0.048,0.157,13.0
19.744,0.051,0.053,13.0
19.769,0.054,-0.048,150.0
19.751,0.057,-0.151,31.0
19.616,0.06,0.398,18.0
19.606,0.063,0.296,12.0
19.628,0.066,0.194,15.0
19.688,0.07,0.091,18.0
19.755,0.073,-0.01,47.0
19.753,0.077,-0.113,30.0
19.624,0.079,0.435,29.0
19.612,0.083,0.333,17.0
19.616,0.086,0.231,16.0
19.676,0.09,0.128,12.0
19.681,0.093,0.026,10.0
19.718,0.097,-0.076,2.0
19.612,0.099,0.472,22.0
19.615,0.103,0.37,26.0
19.61,0.106,0.268,14.0
19.645,0.11,0.165,14.0
19.649,0.113,0.062,13.0
19.65,0.117,-0.039,12.0
19.6,0.12,0.508,18.0
19.605,0.123,0.406,16.0
19.602,0.127,0.304,11.0
19.651,0.131,0.201,17.0
19.639,0.135,0.099,15.0
19.648,0.138,-0.002,16.0
19.603,0.141,0.545,15.0
19.598,0.145,0.442,12.0
19.615,0.149,0.341,10.0
19.626,0.152,0.237,11.0
19.658,0.156,0.134,14.0
19.647,0.16,0.032,15.0
19.61,0.163,0.58,11.0
19.613,0.167,0.478,11.0
19.631,0.171,0.376,9.0
19.636,0.175,0.272,9.0
19.656,0.179,0.17,12.0
19.665,0.183,0.068,14.0
19.659,0.186,0.617,10.0
19.677,0.19,0.515,9.0
19.685,0.194,0.413,9.0
19.694,0.198,0.308,9.0
19.727,0.202,0.206,13.0
19.697,0.206,0.103,10.0
19.659,0.21,0.653,12.0
19.679,0.214,0.55,10.0
19.709,0.218,0.448,10.0
19.722,0.222,0.344,10.0
19.739,0.226,0.241,14.0
19.766,0.231,0.138,25.0
19.645,0.233,0.687,14.0
19.654,0.237,0.584,11.0
19.678,0.241,0.482,10.0
19.687,0.246,0.377,11.0
19.717,0.25,0.275,12.0
19.758,0.255,0.172,28.0
19.659,0.257,0.721,12.0
19.647,0.261,0.618,15.0
19.652,0.265,0.515,14.0
19.684,0.27,0.411,10.0
19.708,0.274,0.308,14.0
19.746,0.279,0.205,13.0
19.68,0.282,0.755,1.0
19.646,0.286,0.651,12.0
19.655,0.29,0.548,12.0
19.697,0.295,0.444,10.0
19.713,0.299,0.341,9.0
19.809,0.305,0.239,0.0
121.494,1.9,4.866,11.0
19.67,0.311,0.684,6.0
19.676,0.316,0.581,4.0
19.714,0.321,0.477,2.0
55.205,0.912,1.046,22.0
55.192,0.924,0.757,46.0
55.197,0.936,2.303,52.0
55.174,0.948,2.011,57.0
55.174,0.96,1.721,70.0
55.168,0.972,1.425,74.0
55.163,0.984,1.135,69.0
55.166,0.997,0.845,69.0
55.2,1.009,2.391,54.0
55.2,1.022,2.101,44.0
55.196,1.035,1.81,27.0
55.196,1.047,1.514,16.0
55.199,1.06,1.223,3.0
179.395,3.486,3.033,13.0
121.482,2.389,5.457,26.0
121.234,2.411,4.805,19.0
135.178,2.72,4.646,16.0
134.829,2.743,3.91,18.0
185.7,3.822,4.406,7.0
179.336,3.732,3.31,26.0
121.771,2.563,5.659,18.0
121.368,2.583,5.0,21.0
121.257,2.609,4.356,13.0
135.205,2.941,4.13,20.0
135.19,2.972,3.416,8.0
179.168,3.981,3.582,36.0
129.36,2.906,6.21,3.0
121.287,2.753,5.182,8.0
121.088,2.778,4.534,23.0
115.133,2.669,3.691,13.0
98.598,2.309,2.641,57.0
98.861,2.339,2.124,92.0
121.195,2.897,6.001,22.0
128.974,3.112,5.701,8.0
113.568,2.767,4.419,16.0
114.006,2.804,3.82,8.0
115.491,2.869,3.259,19.0
138.781,3.482,3.183,12.0
45.488,1.153,2.318,22.0
45.479,1.163,2.077,84.0
0.0,0.0,0.0,0.0
0.0,0.0,0.0,0.0
43.712,1.15,1.296,58.0
43.72,1.161,1.065,106.0
0.0,0.0,0.0,0.0
41.896,1.134,1.973,74.0
41.911,1.144,1.751,150.0
0.0,0.0,0.0,0.0
0.0,0.0,0.0,0.0
0.0,0.0,0.0,0.0
40.117,1.136,2.159,131.0
40.117,1.146,1.945,123.0
40.12,1.156,1.732,117.0
40.107,1.165,1.514,144.0
40.114,1.175,1.301,150.0
40.109,1.185,1.087,150.0
40.124,1.197,2.213,118.0
40.132,1.207,2.0,115.0
40.117,1.216,1.785,97.0
40.117,1.226,1.568,133.0
40.114,1.236,1.354,140.0
40.115,1.246,1.141,150.0
40.126,1.259,2.267,113.0
40.112,1.268,2.052,94.0
40.133,1.278,1.839,108.0
40.121,1.288,1.62,115.0
40.112,1.298,1.406,150.0
40.114,1.308,1.192,150.0
0.0,0.0,0.0,0.0
128.071,4.247,6.716,4.0
120.701,4.033,5.685,12.0
120.089,4.042,5.002,13.0
120.216,4.076,4.365,15.0
120.935,4.132,3.746,20.0
43.796,1.51,2.586,3.0
135.608,4.71,7.28,15.0
120.883,4.229,5.843,15.0
119.991,4.227,5.146,13.0
120.374,4.272,4.519,17.0
120.895,4.322,3.894,18.0
135.166,4.876,8.147,11.0
135.15,4.909,7.421,17.0
121.047,4.428,5.998,19.0
120.11,4.423,5.296,21.0
120.328,4.461,4.66,17.0
162.658,6.072,5.429,4.0
45.567,1.716,2.8,35.0
121.205,4.595,6.797,14.0
120.936,4.615,6.132,24.0
134.519,5.168,6.086,14.0
178.781,6.913,7.128,15.0
178.91,6.965,6.175,11.0
45.569,1.789,2.852,104.0
120.803,4.773,6.912,20.0
120.903,4.808,6.267,22.0
180.957,7.242,8.389,18.0
179.046,7.212,7.339,17.0
178.792,7.249,6.37,15.0
0.0,0.0,0.0,0.0
120.748,4.967,7.041,21.0
120.767,4.999,6.392,13.0
180.404,7.512,8.558,14.0
23.579,0.988,0.991,0.0
23.597,0.994,0.865,1.0
43.79,1.861,2.836,25.0
23.597,1.009,1.401,28.0
23.613,1.015,1.274,39.0
23.595,1.02,1.144,46.0
23.595,1.026,1.016,44.0
23.587,1.032,0.889,46.0
23.568,1.04,1.55,51.0
23.554,1.045,1.422,61.0
23.553,1.051,1.295,67.0
23.563,1.058,1.165,70.0
23.578,1.064,1.039,70.0
23.578,1.07,0.912,70.0
23.572,1.079,1.574,79.0
23.567,1.084,1.446,76.0
23.551,1.09,1.317,70.0
23.56,1.096,1.188,67.0
23.572,1.103,1.061,54.0
23.581,1.109,0.934,45.0
23.577,1.118,1.596,43.0
23.591,1.125,1.469,40.0
23.602,1.131,1.342,38.0
23.586,1.136,1.211,21.0
23.599,1.143,1.084,11.0
23.61,1.15,0.957,3.0
0.0,0.0,0.0,0.0
0.0,0.0,0.0,0.0
0.0,0.0,0.0,0.0
0.0,0.0,0.0,0.0
0.0,0.0,0.0,0.0
179.57,9.044,7.433,20.0
41.918,2.127,2.913,4.0
0.0,0.0,0.0,0.0
0.0,0.0,0.0,0.0
0.0,0.0,0.0,0.0
0.0,0.0,0.0,0.0
180.153,9.372,7.605,5.0
40.207,2.108,2.827,109.0
43.774,2.306,2.84,123.0
0.0,0.0,0.0,0.0
200.116,10.644,10.781,9.0
200.195,10.699,9.697,6.0
0.0,0.0,0.0,0.0
40.205,2.175,2.859,104.0
0.0,0.0,0.0,0.0
0.0,0.0,0.0,0.0
0.0,0.0,0.0,0.0
0.0,0.0,0.0,0.0
204.151,11.303,8.93,7.0
40.201,2.242,2.888,118.0
0.0,0.0,0.0,0.0
45.604,2.566,2.778,1.0
0.0,0.0,0.0,0.0
0.0,0.0,0.0,0.0
203.494,11.606,9.043,11.0
40.198,2.31,2.916,133.0
0.0,0.0,0.0,0.0
45.568,2.641,2.806,21.0
0.0,0.0,0.0,0.0
205.731,12.025,10.402,9.0
203.678,11.957,9.185,15.0
40.192,2.377,2.942,113.0
41.975,2.492,2.842,150.0
45.549,2.716,2.835,35.0
0.0,0.0,0.0,0.0
204.925,12.319,10.489,6.0
201.996,12.192,9.232,5.0
40.193,2.444,2.967,109.0
0.0,0.0,0.0,0.0
45.555,2.792,2.862,67.0
0.0,0.0,0.0,0.0
204.388,12.627,10.58,7.0
0.0,0.0,0.0,0.0
40.178,2.51,2.989,63.0
0.0,0.0,0.0,0.0
0.0,0.0,0.0,0.0
0.0,0.0,0.0,0.0
100.707,6.389,5.267,5.0
100.514,6.402,4.706,5.0
40.174,2.577,3.01,38.0
0.0,0.0,0.0,0.0
0.0,0.0,0.0,0.0
99.929,6.481,5.826,35.0
99.95,6.506,5.277,34.0
99.962,6.531,4.729,32.0
99.907,6.575,7.535,24.0
41.925,2.768,2.93,2.0
0.0,0.0,0.0,0.0
99.93,6.646,5.872,35.0
99.957,6.672,5.323,34.0
99.957,6.696,4.773,36.0
99.937,6.742,7.582,33.0
40.168,2.719,2.825,82.0
0.0,0.0,0.0,0.0
45.55,3.105,2.696,150.0
99.979,6.839,5.366,35.0
99.947,6.86,4.813,32.0
99.943,6.908,7.622,33.0
40.196,2.787,2.843,106.0
43.76,3.044,2.852,128.0
0.0,0.0,0.0,0.0
99.964,7.001,5.402,32.0
99.98,7.026,4.851,33.0
99.936,7.072,7.658,35.0
40.186,2.853,2.856,106.0
43.74,3.115,2.866,91.0
43.762,3.126,2.621,138.0
45.461,3.258,2.471,150.0
45.463,3.269,2.221,150.0
99.945,7.236,7.69,33.0
40.186,2.918,2.869,112.0
41.953,3.056,2.762,88.0
43.762,3.198,2.634,150.0
0.0,0.0,0.0,0.0
0.0,0.0,0.0,0.0
99.027,7.333,7.648,6.0
40.185,2.984,2.88,123.0
41.943,3.124,2.772,87.0
0.0,0.0,0.0,0.0
43.68,3.273,2.398,124.0
43.671,3.282,2.155,127.0
99.035,7.494,7.672,35.0
40.178,3.048,2.888,135.0
40.181,3.057,2.665,150.0
0.0,0.0,0.0,0.0
0.0,0.0,0.0,0.0
43.675,3.352,2.164,6.0
94.873,7.33,7.368,4.0
40.185,3.113,2.896,105.0
40.171,3.12,2.671,150.0
41.879,3.262,2.547,120.0
41.888,3.272,2.315,121.0
41.887,3.281,2.082,107.0
94.834,7.48,7.379,46.0
40.185,3.177,2.902,98.0
40.172,3.185,2.677,150.0
0.0,0.0,0.0,0.0
0.0,0.0,0.0,0.0
41.855,3.345,2.086,9.0
95.002,7.644,7.403,2.0
40.082,3.233,2.899,102.0
40.088,3.241,2.675,135.0
40.083,3.249,2.447,121.0
40.086,3.258,2.224,115.0
40.089,3.266,2.001,123.0
97.739,8.017,7.622,12.0
40.078,3.295,2.901,83.0
40.079,3.303,2.677,150.0
40.084,3.312,2.449,117.0
40.088,3.32,2.225,105.0
40.093,3.329,2.002,109.0
87.152,7.284,6.8,2.0
40.064,3.356,2.901,71.0
40.077,3.365,2.677,150.0
40.076,3.373,2.449,124.0
40.089,3.382,2.226,118.0
40.084,3.39,2.001,95.0
87.063,7.411,6.791,14.0
87.06,7.426,6.302,21.0
87.074,7.445,5.815,28.0
87.063,7.461,5.318,38.0
87.076,7.479,4.831,70.0
87.082,7.498,4.344,81.0
87.022,7.539,6.784,19.0
87.064,7.559,6.297,60.0
87.063,7.575,5.808,11.0
87.104,7.596,5.313,10.0
87.115,7.614,4.826,8.0
87.086,7.628,4.337,120.0
82.94,7.309,6.457,2.0
83.016,7.331,5.996,3.0
82.922,7.339,5.522,3.0
82.994,7.361,5.053,4.0
82.934,7.372,4.584,4.0
82.926,7.387,4.119,5.0
82.886,7.428,6.441,22.0
82.901,7.444,5.976,27.0
82.899,7.458,5.509,34.0
82.905,7.474,5.034,50.0
82.909,7.49,4.569,112.0
82.91,7.506,4.104,126.0
82.864,7.547,6.425,22.0
82.886,7.563,5.96,13.0
82.905,7.579,5.494,11.0
82.923,7.595,5.02,11.0
82.936,7.612,4.555,8.0
82.92,7.625,4.088,51.0
82.941,7.673,6.414,4.0
82.961,7.688,5.947,12.0
17.263,1.602,1.14,0.0
83.079,7.726,5.011,2.0
85.962,8.01,4.701,1.0
82.912,7.741,4.067,58.0
85.4,8.02,6.582,6.0
82.895,7.798,5.92,150.0
85.261,8.035,5.609,11.0
85.166,8.04,5.113,10.0
84.993,8.038,4.624,9.0
82.906,7.857,4.043,41.0
84.553,8.058,6.493,11.0
82.896,7.913,5.896,41.0
84.346,8.065,5.522,9.0
84.192,8.064,5.028,10.0
84.037,8.063,4.545,10.0
82.937,7.971,4.019,27.0
83.399,8.06,6.377,8.0
82.882,8.024,5.868,30.0
83.282,8.075,5.424,8.0
83.235,8.084,4.942,6.0
83.171,8.092,4.469,3.0
82.873,8.076,3.986,3.0
75.105,7.36,5.714,3.0
75.098,7.37,5.289,4.0
75.026,7.374,4.859,4.0
75.095,7.393,4.431,5.0
75.082,7.403,4.005,6.0
75.087,7.416,3.582,8.0
75.045,7.452,5.68,18.0
75.047,7.463,5.254,25.0
75.057,7.474,4.83,27.0
75.048,7.485,4.396,36.0
75.043,7.496,3.971,44.0
75.06,7.51,3.548,73.0
75.034,7.547,5.646,29.0
75.042,7.557,5.221,29.0
75.045,7.569,4.795,25.0
75.029,7.578,4.361,22.0
75.07,7.594,3.938,15.0
75.064,7.605,3.513,15.0
75.106,7.649,5.616,5.0
75.089,7.656,5.187,4.0
75.134,7.671,4.764,3.0
75.081,7.677,4.327,4.0
75.095,7.689,3.902,10.0
75.111,7.702,3.478,4.0
70.888,7.306,5.264,1.0
70.906,7.316,4.862,2.0
71.013,7.337,4.465,2.0
70.979,7.343,4.053,2.0
70.93,7.348,3.648,2.0
70.997,7.365,3.249,3.0
70.945,7.396,5.229,6.0
70.921,7.401,4.824,6.0
70.906,7.409,4.42,7.0
70.925,7.42,4.01,8.0
70.908,7.428,3.607,9.0
70.89,7.436,3.205,10.0
70.87,7.469,5.183,27.0
70.87,7.477,4.779,32.0
70.877,7.487,4.376,41.0
70.882,7.496,3.966,59.0
70.874,7.504,3.563,104.0
70.889,7.516,3.162,150.0
70.868,7.549,5.14,26.0
70.85,7.555,4.734,26.0
70.875,7.565,4.333,26.0
70.87,7.573,3.922,23.0
70.886,7.584,3.52,20.0
70.893,7.594,3.117,17.0
70.854,7.624,5.094,6.0
70.897,7.636,4.692,6.0
70.917,7.647,4.288,6.0
70.875,7.65,3.876,5.0
70.922,7.664,3.475,5.0
70.924,7.673,3.072,4.0
70.942,7.709,5.051,2.0
70.962,7.719,4.647,1.0
70.954,7.725,4.243,2.0
70.974,7.735,3.832,2.0
70.995,7.745,3.429,4.0
73.594,8.038,3.136,1.0
73.269,8.037,5.165,8.0
73.551,8.075,4.765,9.0
73.624,8.09,4.35,10.0
73.482,8.082,3.915,11.0
73.231,8.062,3.484,10.0
73.082,8.054,3.061,9.0
72.514,8.026,5.059,10.0
72.604,8.042,4.65,8.0
72.906,8.083,4.253,9.0
72.928,8.092,3.831,10.0
72.832,8.089,3.41,10.0
72.498,8.06,2.983,6.0
72.186,8.057,4.981,10.0
72.007,8.043,4.557,5.0
72.222,8.074,4.157,5.0
72.306,8.09,3.742,10.0
72.353,8.102,3.332,10.0
72.039,8.075,2.907,2.0
71.798,8.08,4.897,10.0
71.594,8.062,4.474,8.0
71.402,8.047,4.053,3.0
71.603,8.076,3.648,3.0
71.801,8.105,3.249,6.0
57.398,6.485,2.27,1.0
71.284,8.084,4.803,9.0
71.242,8.085,4.393,9.0
70.96,8.058,3.969,9.0
70.77,8.042,3.547,4.0
71.0,8.075,3.154,4.0
57.03,6.491,2.208,3.0
70.667,8.073,4.702,8.0
70.802,8.093,4.306,10.0
70.681,8.085,3.894,10.0
70.477,8.067,3.472,8.0
70.461,8.071,3.069,5.0
56.551,6.483,2.14,3.0
69.92,8.044,4.592,2.0
70.201,8.08,4.207,5.0
70.348,8.102,3.814,7.0
70.261,8.097,3.4,8.0
70.011,8.074,2.987,4.0
56.253,6.492,2.08,5.0
69.63,8.063,4.51,1.0
0.0,0.0,0.0,0.0
63.312,7.339,3.375,1.0
70.054,8.125,3.327,2.0
55.9,6.487,2.335,1.0
55.879,6.49,2.014,8.0
63.213,7.365,4.036,3.0
63.184,7.365,3.671,2.0
63.196,7.37,3.31,2.0
63.18,7.372,2.941,3.0
55.547,6.485,2.268,5.0
55.574,6.493,1.951,11.0
63.155,7.401,3.973,5.0
63.152,7.404,3.61,4.0
63.127,7.404,3.246,5.0
63.166,7.412,2.88,5.0
55.258,6.488,2.203,8.0
55.302,6.497,1.889,9.0
63.119,7.437,3.908,10.0
63.128,7.441,3.547,8.0
63.112,7.442,3.184,8.0
63.14,7.448,2.817,8.0
55.002,6.492,2.139,10.0
55.043,6.5,1.826,11.0
63.116,7.474,3.846,20.0
63.129,7.478,3.485,24.0
63.097,7.477,3.121,20.0
63.112,7.481,2.753,16.0
54.743,6.492,2.075,14.0
54.763,6.497,1.763,11.0
63.11,7.508,3.783,57.0
63.105,7.509,3.42,38.0
63.105,7.511,3.058,44.0
63.105,7.514,2.69,14.0
54.544,6.497,2.013,15.0
54.561,6.502,1.701,13.0
63.107,7.539,3.718,129.0
63.103,7.54,3.355,142.0
63.1,7.542,2.993,150.0
63.075,7.541,2.624,4.0
54.301,6.494,1.948,11.0
54.323,6.5,1.637,11.0
63.108,7.569,3.651,40.0
63.102,7.569,3.289,44.0
63.103,7.571,2.927,46.0
54.081,6.49,2.193,4.0
54.117,6.496,1.884,12.0
54.142,6.501,1.575,13.0
63.093,7.593,3.584,22.0
63.11,7.596,3.223,22.0
63.119,7.598,2.861,25.0
53.89,6.489,2.128,2.0
53.968,6.5,1.821,12.0
53.993,6.505,1.513,12.0
63.115,7.619,3.518,17.0
63.13,7.622,3.156,11.0
63.107,7.62,2.793,10.0
53.72,6.487,2.064,5.0
53.8,6.498,1.758,12.0
53.847,6.506,1.451,12.0
63.108,7.639,3.449,11.0
63.132,7.642,3.087,7.0
63.102,7.639,2.723,2.0
53.634,6.494,2.002,13.0
53.701,6.503,1.696,14.0
53.709,6.505,1.389,12.0
63.112,7.658,3.379,7.0
63.097,7.656,3.016,7.0
53.502,6.492,2.249,3.0
53.558,6.499,1.939,12.0
53.593,6.504,1.633,13.0
53.615,6.508,1.326,13.0
63.14,7.676,3.31,5.0
63.121,7.674,2.946,5.0
53.398,6.491,2.185,5.0
53.474,6.501,1.877,7.0
53.511,6.506,1.571,14.0
53.557,6.512,1.265,12.0
63.128,7.687,3.238,4.0
63.163,7.69,2.877,4.0
53.354,6.496,2.124,6.0
53.381,6.499,1.813,10.0
53.432,6.505,1.508,13.0
53.474,6.511,1.203,12.0
63.15,7.699,3.167,3.0
63.177,7.701,2.805,3.0
53.302,6.497,2.06,11.0
53.363,6.504,1.752,12.0
53.409,6.509,1.447,12.0
53.424,6.512,1.141,11.0
63.131,7.703,3.094,4.0
53.218,6.492,2.303,2.0
53.295,6.501,2.0,12.0
53.319,6.503,1.69,13.0
53.385,6.511,1.385,14.0
53.419,6.515,1.08,11.0
63.159,7.71,3.023,3.0
53.2,6.493,2.241,3.0
53.245,6.497,1.937,10.0
53.319,6.506,1.628,13.0
53.37,6.511,1.324,13.0
53.407,6.515,1.018,11.0
63.15,7.71,2.949,4.0
53.252,6.5,2.18,4.0
53.286,6.502,1.876,10.0
53.345,6.508,1.566,13.0
53.402,6.515,1.261,13.0
53.42,6.516,0.956,12.0
63.2,7.714,2.878,3.0
53.254,6.498,2.118,7.0
53.317,6.504,1.814,11.0
53.367,6.508,1.505,13.0
53.422,6.514,1.199,13.0
53.453,6.517,0.894,13.0
63.177,7.706,2.802,2.0
53.308,6.5,2.058,11.0
53.355,6.504,1.753,12.0
53.41,6.509,1.444,12.0
53.48,6.516,1.138,11.0
53.549,6.523,0.832,12.0
53.323,6.497,2.302,3.0
53.381,6.502,1.997,11.0
53.432,6.506,1.693,13.0
53.508,6.513,1.382,13.0
53.577,6.52,1.076,12.0
53.63,6.525,0.77,14.0
53.417,6.499,2.242,4.0
53.483,6.505,1.937,7.0
53.534,6.508,1.631,13.0
53.602,6.514,1.321,16.0
53.673,6.521,1.015,13.0
53.736,6.527,0.708,12.0
53.513,6.499,2.183,5.0
53.594,6.506,1.878,12.0
53.655,6.511,1.572,14.0
53.715,6.515,1.261,13.0
53.788,6.522,0.954,13.0
53.857,6.528,0.646,11.0
53.584,6.494,2.122,8.0
53.694,6.503,1.818,12.0
53.772,6.51,1.511,12.0
53.856,6.517,1.2,13.0
53.929,6.523,0.892,13.0
53.98,6.527,0.583,10.0
53.737,6.496,2.064,6.0
53.848,6.505,1.759,11.0
53.914,6.51,1.452,12.0
54.006,6.518,1.139,13.0
54.091,6.525,0.831,12.0
54.136,6.528,0.521,10.0
53.928,6.5,2.008,10.0
54.023,6.507,1.701,12.0
54.098,6.512,1.393,12.0
54.185,6.519,1.079,13.0
54.261,6.525,0.769,14.0
54.325,6.53,0.459,9.0
54.126,6.501,1.951,13.0
54.227,6.509,1.642,14.0
54.308,6.515,1.333,14.0
54.411,6.523,1.018,14.0
54.479,6.528,0.708,13.0
54.563,6.535,0.396,10.0
54.358,6.505,1.894,11.0
54.476,6.514,1.586,11.0
54.553,6.519,1.276,13.0
54.607,6.521,0.958,13.0
54.699,6.529,0.646,12.0
54.779,6.535,0.334,9.0
54.592,6.506,1.838,13.0
54.694,6.513,1.528,13.0
54.773,6.517,1.216,13.0
54.859,6.523,0.898,14.0
54.943,6.529,0.584,13.0
55.061,6.54,0.271,3.0
54.877,6.51,1.783,12.0
54.948,6.513,1.471,10.0
55.034,6.518,1.157,12.0
55.136,6.526,0.838,12.0
55.242,6.534,0.523,12.0
51.336,6.068,0.193,11.0
55.153,6.51,1.728,10.0
55.252,6.516,1.414,12.0
55.402,6.529,1.101,13.0
55.49,6.534,0.78,14.0
55.563,6.538,0.462,14.0
51.348,6.038,0.133,9.0
55.489,6.515,1.674,10.0
55.604,6.522,1.359,14.0
55.713,6.53,1.042,13.0
55.821,6.537,0.719,13.0
55.887,6.539,0.4,7.0
45.574,5.329,0.065,20.0
55.82,6.516,1.62,13.0
55.951,6.525,1.303,14.0
56.051,6.53,0.985,13.0
56.147,6.536,0.659,14.0
56.224,6.54,0.339,5.0
44.29,5.148,0.014,18.0
56.183,6.518,1.567,11.0
56.297,6.525,1.247,12.0
56.418,6.532,0.927,12.0
56.542,6.541,0.6,11.0
56.611,6.543,0.277,1.0
42.877,4.951,-0.034,11.0
56.569,6.519,1.513,12.0
56.683,6.526,1.191,10.0
56.817,6.534,0.87,11.0
56.959,6.544,0.54,9.0
51.381,5.898,0.194,18.0
37.18,4.264,-0.072,28.0
56.992,6.522,1.46,10.0
57.133,6.531,1.138,7.0
57.253,6.538,0.812,7.0
57.35,6.542,0.48,7.0
46.231,5.268,0.123,20.0
37.269,4.243,-0.113,6.0
57.431,6.523,1.408,10.0
57.57,6.531,1.083,9.0
57.694,6.539,0.756,8.0
57.806,6.544,0.421,4.0
46.428,5.25,0.073,14.0
38.106,4.305,-0.157,14.0
57.914,6.526,1.357,10.0
58.007,6.529,1.027,7.0
58.151,6.537,0.698,10.0
58.229,6.539,0.361,3.0
42.845,4.806,0.02,5.0
37.15,4.163,-0.193,13.0
58.383,6.524,1.305,9.0
58.519,6.531,0.974,6.0
58.614,6.534,0.64,7.0
58.718,6.537,0.3,1.0
43.794,4.87,-0.025,18.0
37.291,4.143,-0.234,13.0
58.88,6.522,1.253,11.0
59.038,6.531,0.92,11.0
59.108,6.53,0.583,7.0
59.179,6.53,0.241,1.0
42.559,4.69,-0.069,17.0
0.0,0.0,0.0,0.0
59.449,6.524,1.203,6.0
59.55,6.526,0.865,6.0
59.662,6.529,0.526,3.0
47.005,5.137,0.142,10.0
39.611,4.324,-0.105,14.0
0.0,0.0,0.0,0.0
60.007,6.521,1.152,5.0
60.134,6.525,0.812,3.0
60.267,6.531,0.47,1.0
46.264,5.006,0.092,20.0
38.567,4.168,-0.142,14.0
33.775,3.645,-0.317,6.0
60.661,6.525,1.103,6.0
60.822,6.533,0.76,7.0
60.966,6.539,0.415,4.0
45.48,4.871,0.045,21.0
38.661,4.135,-0.181,18.0
31.424,3.357,-0.326,5.0
61.337,6.529,1.055,11.0
61.527,6.538,0.708,11.0
61.73,6.55,0.359,2.0
42.108,4.461,0.001,16.0
38.551,4.079,-0.217,14.0
31.216,3.298,-0.354,9.0
62.078,6.534,1.008,13.0
62.244,6.541,0.656,11.0
46.764,4.906,0.227,1.0
44.588,4.67,-0.041,13.0
0.0,0.0,0.0,0.0
30.242,3.158,-0.372,8.0
62.77,6.529,0.958,11.0
62.979,6.54,0.604,10.0
47.612,4.936,0.186,5.0
0.0,0.0,0.0,0.0
36.634,3.786,-0.276,12.0
29.482,3.042,-0.39,8.0
63.569,6.533,0.912,10.0
63.694,6.534,0.552,7.0
47.324,4.846,0.141,21.0
40.006,4.09,-0.111,15.0
35.084,3.581,-0.297,6.0
28.681,2.922,-0.405,7.0
64.328,6.527,0.864,9.0
64.441,6.527,0.5,4.0
46.811,4.732,0.097,21.0
40.078,4.044,-0.147,16.0
33.895,3.414,-0.317,8.0
27.874,2.803,-0.419,7.0
65.233,6.531,0.818,6.0
49.926,4.989,0.343,3.0
46.324,4.621,0.055,20.0
40.036,3.986,-0.182,15.0
31.947,3.175,-0.326,3.0
26.769,2.655,-0.425,7.0
66.128,6.53,0.773,10.0
49.902,4.918,0.3,19.0
45.748,4.499,0.016,21.0
39.625,3.89,-0.214,15.0
31.473,3.084,-0.348,9.0
26.094,2.552,-0.436,6.0
67.096,6.531,0.728,7.0
54.025,5.247,0.28,4.0
45.265,4.387,-0.021,19.0
38.846,3.758,-0.242,14.0
30.763,2.97,-0.365,8.0
25.601,2.467,-0.449,6.0
68.117,6.532,0.684,8.0
0.0,0.0,0.0,0.0
45.177,4.313,-0.057,19.0
0.0,0.0,0.0,0.0
29.958,2.849,-0.38,8.0
25.134,2.385,-0.461,6.0
69.149,6.529,0.641,6.0
47.147,4.442,0.17,15.0
45.205,4.25,-0.091,19.0
35.857,3.364,-0.279,5.0
29.191,2.732,-0.392,8.0
24.767,2.313,-0.473,8.0
70.392,6.541,0.6,5.0
47.11,4.367,0.135,21.0
41.364,3.826,-0.115,9.0
35.0,3.23,-0.298,6.0
28.229,2.599,-0.4,8.0
24.349,2.237,-0.482,5.0
71.519,6.536,0.557,4.0
46.926,4.278,0.1,21.0
0.0,0.0,0.0,0.0
34.069,3.091,-0.314,11.0
27.992,2.534,-0.416,7.0
23.9,2.158,-0.49,5.0
72.767,6.535,0.517,2.0
46.651,4.179,0.068,20.0
42.781,3.823,-0.178,4.0
33.001,2.942,-0.327,10.0
27.415,2.438,-0.426,7.0
23.599,2.094,-0.5,5.0
53.866,4.752,0.346,2.0
40.115,3.529,0.032,94.0
39.981,3.508,-0.193,33.0
32.325,2.829,-0.341,10.0
26.885,2.347,-0.435,7.0
23.451,2.042,-0.512,5.0
53.536,4.635,0.31,9.0
40.018,3.455,0.006,50.0
39.981,3.443,-0.218,15.0
31.512,2.707,-0.352,9.0
26.23,2.247,-0.44,6.0
19.793,1.691,-0.444,2.0
40.103,3.406,0.208,150.0
40.103,3.396,-0.016,150.0
0.0,0.0,0.0,0.0
31.14,2.622,-0.366,9.0
25.933,2.178,-0.451,6.0
19.749,1.654,-0.454,4.0
40.109,3.339,0.185,150.0
40.118,3.33,-0.039,114.0
0.0,0.0,0.0,0.0
30.671,2.531,-0.377,9.0
25.562,2.104,-0.458,6.0
19.718,1.618,-0.464,7.0
40.112,3.27,0.164,89.0
40.082,3.258,-0.061,33.0
37.093,3.006,-0.264,5.0
30.253,2.444,-0.388,8.0
25.249,2.034,-0.466,6.0
19.715,1.583,-0.474,9.0
0.0,0.0,0.0,0.0
40.081,3.188,-0.081,57.0
36.468,2.891,-0.278,11.0
29.696,2.347,-0.396,8.0
25.036,1.973,-0.474,6.0
19.713,1.548,-0.484,9.0
41.887,3.268,0.13,49.0
41.833,3.254,-0.104,87.0
35.731,2.77,-0.289,6.0
29.178,2.255,-0.402,8.0
24.815,1.911,-0.481,8.0
19.714,1.514,-0.492,9.0
41.987,3.201,0.112,132.0
41.882,3.182,-0.122,77.0
35.197,2.665,-0.3,6.0
29.005,2.189,-0.412,8.0
24.731,1.86,-0.49,6.0
19.707,1.477,-0.5,9.0
40.319,3.001,0.091,43.0
40.322,2.991,-0.134,45.0
34.346,2.539,-0.306,8.0
28.528,2.101,-0.416,7.0
24.567,1.803,-0.496,6.0
19.715,1.442,-0.508,8.0
40.321,2.929,0.076,45.0
40.317,2.917,-0.148,55.0
34.635,2.497,-0.321,11.0
