X,Y,Z,Reflectivity
18.83,-1.912,-0.81,0.0
17.41,-1.766,-0.841,0.0
16.072,-1.628,-0.862,0.0
26.536,-2.686,-0.682,0.0
23.582,-2.384,-0.731,0.0
21.213,-2.142,-0.77,0.0
19.269,-1.943,-0.804,0.0
17.699,-1.783,-0.832,0.0
16.218,-1.631,-0.849,0.0
28.01,-2.815,-0.684,0.0
24.351,-2.444,-0.723,0.0
21.721,-2.177,-0.76,0.0
19.738,-1.975,-0.797,0.0
17.779,-1.777,-0.813,0.0
16.631,-1.66,-0.848,0.0
0.0,0.0,0.0,0.0
25.084,-2.498,-0.713,0.0
22.437,-2.231,-0.756,0.0
20.102,-1.996,-0.786,0.0
18.531,-1.838,-0.823,0.0
17.014,-1.685,-0.846,0.0
29.102,-2.879,-0.635,0.0
25.82,-2.55,-0.7,0.0
23.219,-2.289,-0.752,0.0
20.832,-2.051,-0.788,0.0
18.684,-1.837,-0.805,0.0
17.244,-1.693,-0.835,0.0
29.856,-2.928,-0.613,0.0
26.536,-2.598,-0.685,0.0
23.71,-2.318,-0.738,0.0
21.169,-2.066,-0.774,0.0
19.299,-1.88,-0.807,0.0
17.789,-1.73,-0.839,0.0
30.938,-3.007,-0.596,0.0
27.429,-2.661,-0.674,0.0
24.335,-2.356,-0.727,0.0
21.62,-2.09,-0.762,0.0
19.88,-1.918,-0.806,0.0
17.812,-1.716,-0.817,0.0
32.941,-3.17,-0.593,0.0
0.0,0.0,0.0,0.0
24.734,-2.371,-0.707,0.0
22.266,-2.131,-0.757,0.0
19.761,-1.888,-0.777,0.0
18.44,-1.758,-0.823,0.0
0.0,0.0,0.0,0.0
29.063,-2.763,-0.641,0.0
25.588,-2.428,-0.7,0.0
23.218,-2.198,-0.76,0.0
20.453,-1.933,-0.778,0.0
18.816,-1.775,-0.816,0.0
0.0,0.0,0.0,0.0
0.0,0.0,0.0,0.0
26.479,-2.485,-0.691,0.0
23.433,-2.194,-0.738,0.0
20.939,-1.957,-0.771,0.0
19.089,-1.78,-0.804,0.0
36.903,-3.439,-0.527,0.0
31.164,-2.897,-0.61,0.0
27.217,-2.525,-0.677,0.0
23.93,-2.215,-0.725,0.0
21.618,-1.997,-0.77,0.0
19.581,-1.804,-0.801,0.0
37.165,-3.422,-0.485,0.0
32.074,-2.946,-0.589,0.0
28.046,-2.57,-0.663,0.0
24.72,-2.26,-0.719,0.0
21.896,-1.997,-0.753,0.0
19.923,-1.813,-0.791,0.0
39.145,-3.559,-0.464,0.0
32.434,-2.942,-0.557,0.0
28.521,-2.58,-0.641,0.0
25.543,-2.305,-0.712,0.0
22.866,-2.059,-0.759,0.0
20.507,-1.842,-0.789,0.0
41.756,-3.747,-0.445,0.0
33.521,-3.0,-0.535,0.0
29.681,-2.65,-0.632,0.0
26.257,-2.338,-0.701,0.0
23.145,-2.056,-0.741,0.0
20.97,-1.858,-0.783,0.0
42.538,-3.765,-0.404,0.0
0.0,0.0,0.0,0.0
29.862,-2.629,-0.601,0.0
26.822,-2.355,-0.685,0.0
23.958,-2.098,-0.739,0.0
21.497,-1.877,-0.777,0.0
45.034,-3.929,-0.376,0.0
37.301,-3.245,-0.509,0.0
0.0,0.0,0.0,0.0
27.92,-2.415,-0.681,0.0
24.334,-2.099,-0.723,0.0
21.705,-1.867,-0.76,0.0
0.0,0.0,0.0,0.0
38.836,-3.328,-0.486,0.0
32.596,-2.785,-0.581,0.0
28.103,-2.394,-0.653,0.0
25.219,-2.142,-0.72,0.0
0.0,0.0,0.0,0.0
0.0,0.0,0.0,0.0
0.0,0.0,0.0,0.0
0.0,0.0,0.0,0.0
29.261,-2.452,-0.648,0.0
25.608,-2.139,-0.703,0.0
23.051,-1.92,-0.756,0.0
0.0,0.0,0.0,0.0
0.0,0.0,0.0,0.0
34.458,-2.849,-0.539,0.0
29.736,-2.451,-0.626,0.0
26.265,-2.158,-0.693,0.0
23.269,-1.906,-0.738,0.0
0.0,0.0,0.0,0.0
0.0,0.0,0.0,0.0
0.0,0.0,0.0,0.0
0.0,0.0,0.0,0.0
27.193,-2.195,-0.688,0.0
23.947,-1.926,-0.734,0.0
0.0,0.0,0.0,0.0
0.0,0.0,0.0,0.0
0.0,0.0,0.0,0.0
32.357,-2.573,-0.613,0.0
27.383,-2.17,-0.665,0.0
24.456,-1.931,-0.724,0.0
0.0,0.0,0.0,0.0
0.0,0.0,0.0,0.0
38.063,-2.979,-0.475,0.0
32.651,-2.546,-0.585,0.0
28.007,-2.176,-0.651,0.0
25.284,-1.957,-0.723,0.0
0.0,0.0,0.0,0.0
0.0,0.0,0.0,0.0
40.838,-3.134,-0.469,1.0
33.291,-2.545,-0.563,0.0
29.005,-2.209,-0.646,0.0
25.398,-1.927,-0.701,0.0
0.0,0.0,0.0,0.0
0.0,0.0,0.0,0.0
41.891,-3.149,-0.44,0.0
0.0,0.0,0.0,0.0
29.814,-2.223,-0.635,0.0
26.095,-1.938,-0.695,0.0
0.0,0.0,0.0,0.0
0.0,0.0,0.0,0.0
0.0,0.0,0.0,0.0
35.191,-2.579,-0.528,0.0
30.064,-2.194,-0.612,0.0
0.0,0.0,0.0,0.0
98.915,-7.179,0.203,2.0
0.0,0.0,0.0,0.0
0.0,0.0,0.0,0.0
36.946,-2.646,-0.52,0.0
31.135,-2.221,-0.605,0.0
27.696,-1.967,-0.687,0.0
98.913,-7.014,0.293,8.0
0.0,0.0,0.0,0.0
0.0,0.0,0.0,0.0
0.0,0.0,0.0,0.0
31.879,-2.221,-0.591,0.0
27.986,-1.941,-0.669,0.0
99.187,-6.868,0.38,10.0
0.0,0.0,0.0,0.0
0.0,0.0,0.0,0.0
38.837,-2.651,-0.479,0.0
32.741,-2.225,-0.579,0.0
0.0,0.0,0.0,0.0
99.447,-6.715,0.467,3.0
0.0,0.0,0.0,0.0
0.0,0.0,0.0,0.0
0.0,0.0,0.0,0.0
32.901,-2.178,-0.554,0.0
0.0,0.0,0.0,0.0
99.741,-6.56,0.55,7.0
0.0,0.0,0.0,0.0
0.0,0.0,0.0,0.0
41.925,-2.716,-0.448,0.0
0.0,0.0,0.0,0.0
29.422,-1.887,-0.63,0.0
109.198,-6.99,0.688,3.0
0.0,0.0,0.0,0.0
0.0,0.0,0.0,0.0
42.684,-2.689,-0.423,0.0
0.0,0.0,0.0,0.0
0.0,0.0,0.0,0.0
0.0,0.0,0.0,0.0
0.0,0.0,0.0,0.0
0.0,0.0,0.0,0.0
0.0,0.0,0.0,0.0
36.132,-2.198,-0.525,0.0
30.345,-1.836,-0.605,0.0
149.912,-9.054,1.17,10.0
0.0,0.0,0.0,0.0
0.0,0.0,0.0,0.0
0.0,0.0,0.0,0.0
36.735,-2.168,-0.508,0.0
30.543,-1.792,-0.587,0.0
149.814,-8.775,1.273,11.0
0.0,0.0,0.0,0.0
0.0,0.0,0.0,0.0
46.068,-2.65,-0.358,0.0
37.108,-2.122,-0.488,0.0
0.0,0.0,0.0,0.0
140.803,-7.984,1.29,4.0
0.0,0.0,0.0,0.0
0.0,0.0,0.0,0.0
0.0,0.0,0.0,0.0
37.981,-2.1,-0.475,0.0
32.515,-1.787,-0.582,0.0
0.0,0.0,0.0,0.0
0.0,0.0,0.0,0.0
0.0,0.0,0.0,0.0
0.0,0.0,0.0,0.0
0.0,0.0,0.0,0.0
32.64,-1.732,-0.565,0.0
0.0,0.0,0.0,0.0
102.575,-5.391,0.512,2.0
0.0,0.0,0.0,0.0
0.0,0.0,0.0,0.0
40.658,-2.094,-0.46,0.0
0.0,0.0,0.0,0.0
101.533,-5.177,1.114,112.0
103.221,-5.226,0.573,6.0
0.0,0.0,0.0,0.0
0.0,0.0,0.0,0.0
0.0,0.0,0.0,0.0
0.0,0.0,0.0,0.0
101.559,-4.98,1.169,151.0
102.51,-4.99,0.624,2.0
101.509,-4.903,0.068,1.0
0.0,0.0,0.0,0.0
0.0,0.0,0.0,0.0
33.961,-1.604,-0.532,0.0
101.532,-4.778,1.22,75.0
0.0,0.0,0.0,0.0
0.0,0.0,0.0,0.0
0.0,0.0,0.0,0.0
0.0,0.0,0.0,0.0
34.546,-1.563,-0.525,0.0
101.472,-4.573,1.266,11.0
0.0,0.0,0.0,0.0
0.0,0.0,0.0,0.0
0.0,0.0,0.0,0.0
0.0,0.0,0.0,0.0
0.0,0.0,0.0,0.0
101.565,-4.373,1.311,17.0
101.463,-4.333,0.759,19.0
0.0,0.0,0.0,0.0
0.0,0.0,0.0,0.0
0.0,0.0,0.0,0.0
35.872,-1.479,-0.515,0.0
101.607,-4.169,1.353,5.0
101.515,-4.128,0.799,9.0
0.0,0.0,0.0,0.0
0.0,0.0,0.0,0.0
0.0,0.0,0.0,0.0
37.241,-1.46,-0.521,0.0
161.936,-6.317,2.215,11.0
0.0,0.0,0.0,0.0
0.0,0.0,0.0,0.0
0.0,0.0,0.0,0.0
45.211,-1.697,-0.371,0.0
36.993,-1.375,-0.505,0.0
162.075,-5.99,2.27,19.0
162.414,-5.941,1.389,5.0
0.0,0.0,0.0,0.0
0.0,0.0,0.0,0.0
0.0,0.0,0.0,0.0
0.0,0.0,0.0,0.0
162.223,-5.659,2.32,17.0
161.961,-5.59,1.432,5.0
0.0,0.0,0.0,0.0
0.0,0.0,0.0,0.0
0.0,0.0,0.0,0.0
37.546,-1.241,-0.491,0.0
162.16,-5.322,2.36,23.0
161.892,-5.253,1.471,4.0
0.0,0.0,0.0,0.0
0.0,0.0,0.0,0.0
0.0,0.0,0.0,0.0
0.0,0.0,0.0,0.0
0.0,0.0,0.0,0.0
88.365,-2.684,0.822,9.0
0.0,0.0,0.0,0.0
0.0,0.0,0.0,0.0
0.0,0.0,0.0,0.0
0.0,0.0,0.0,0.0
88.366,-2.533,1.321,6.0
88.227,-2.495,0.836,151.0
0.0,0.0,0.0,0.0
0.0,0.0,0.0,0.0
0.0,0.0,0.0,0.0
0.0,0.0,0.0,0.0
88.37,-2.346,1.334,1.0
88.116,-2.306,0.847,7.0
0.0,0.0,0.0,0.0
0.0,0.0,0.0,0.0
0.0,0.0,0.0,0.0
37.526,-0.926,-0.466,0.0
0.0,0.0,0.0,0.0
88.184,-2.12,0.857,182.0
89.3,-2.114,0.377,2.0
88.102,-2.053,-0.119,2.0
0.0,0.0,0.0,0.0
0.0,0.0,0.0,0.0
88.175,-1.964,1.347,1.0
88.186,-1.933,0.863,185.0
0.0,0.0,0.0,0.0
88.439,-1.872,-0.115,1.0
0.0,0.0,0.0,0.0
37.834,-0.773,-0.465,0.0
88.291,-1.778,1.352,5.0
88.165,-1.743,0.865,151.0
0.0,0.0,0.0,0.0
0.0,0.0,0.0,0.0
0.0,0.0,0.0,0.0
0.0,0.0,0.0,0.0
88.274,-1.591,1.351,3.0
88.17,-1.557,0.864,151.0
0.0,0.0,0.0,0.0
0.0,0.0,0.0,0.0
0.0,0.0,0.0,0.0
0.0,0.0,0.0,0.0
88.468,-1.406,1.351,1.0
88.215,-1.368,0.861,150.0
19.747,-0.298,0.083,18.0
0.0,0.0,0.0,0.0
0.0,0.0,0.0,0.0
0.0,0.0,0.0,0.0
19.76,-0.271,0.3,9.0
19.752,-0.264,0.191,28.0
19.75,-0.257,0.082,3.0
0.0,0.0,0.0,0.0
0.0,0.0,0.0,0.0
0.0,0.0,0.0,0.0
19.759,-0.229,0.297,8.0
19.745,-0.222,0.188,1.0
0.0,0.0,0.0,0.0
0.0,0.0,0.0,0.0
19.729,-0.2,-0.14,0.0
19.767,-0.193,-0.25,10.0
0.0,0.0,0.0,0.0
168.878,-1.536,1.586,4.0
90.825,-0.793,0.35,2.0
19.769,-0.165,-0.035,1.0
19.74,-0.157,-0.144,14.0
19.738,-0.15,-0.253,17.0
170.153,-1.244,2.506,4.0
19.738,-0.137,0.181,5.0
19.748,-0.13,0.072,7.0
19.726,-0.123,-0.039,10.0
19.718,-0.115,-0.148,17.0
19.738,-0.108,-0.257,16.0
19.671,-0.101,0.285,10.0
19.714,-0.095,0.176,14.0
19.715,-0.088,0.067,13.0
19.698,-0.081,-0.043,16.0
19.722,-0.074,-0.153,16.0
19.755,-0.067,-0.263,15.0
19.64,-0.06,0.279,10.0
19.681,-0.053,0.171,11.0
19.693,-0.046,0.061,14.0
19.71,-0.039,-0.049,14.0
19.746,-0.032,-0.159,9.0
0.0,0.0,0.0,0.0
19.633,-0.017,0.273,14.0
19.748,-0.011,0.165,6.0
19.789,-0.004,0.055,4.0
19.745,0.002,-0.055,10.0
19.781,0.009,-0.165,1.0
19.764,0.016,-0.275,8.0
19.633,0.023,0.266,13.0
19.746,0.03,0.158,16.0
19.746,0.037,0.048,16.0
19.745,0.044,-0.062,81.0
19.762,0.051,-0.172,48.0
19.772,0.058,-0.283,65.0
19.62,0.065,0.259,15.0
19.675,0.072,0.15,13.0
19.687,0.079,0.04,12.0
19.728,0.086,-0.07,2.0
19.714,0.092,-0.18,0.0
35.394,0.179,-0.521,0.0
19.639,0.106,0.251,12.0
19.653,0.113,0.142,15.0
19.641,0.12,0.032,14.0
19.665,0.127,-0.079,9.0
19.662,0.134,-0.188,8.0
19.724,0.141,-0.299,0.0
19.652,0.148,0.242,13.0
19.659,0.154,0.133,12.0
19.648,0.161,0.023,15.0
19.625,0.168,-0.088,14.0
19.638,0.175,-0.197,15.0
19.661,0.182,-0.307,16.0
19.722,0.19,0.233,10.0
19.711,0.196,0.123,10.0
19.653,0.202,0.013,12.0
19.619,0.209,-0.097,16.0
19.634,0.215,-0.207,17.0
19.661,0.223,-0.317,16.0
19.759,0.231,0.223,26.0
19.756,0.238,0.113,16.0
19.714,0.244,0.003,0.0
19.65,0.25,-0.108,13.0
19.65,0.257,-0.218,15.0
19.675,0.263,-0.328,13.0
19.759,0.272,0.212,10.0
113.011,1.599,0.585,2.0
55.059,0.796,-0.022,1.0
19.668,0.291,-0.12,0.0
19.692,0.297,-0.23,1.0
19.655,0.303,-0.34,0.0
55.229,0.874,0.562,4.0
55.198,0.892,0.252,33.0
55.139,0.91,-0.056,15.0
40.854,0.688,-0.274,1.0
32.859,0.564,-0.404,0.0
31.766,0.556,-0.569,0.0
55.181,0.987,0.526,64.0
55.186,1.006,0.217,38.0
55.095,1.021,-0.091,4.0
39.67,0.748,-0.292,1.0
55.131,1.058,-0.715,1.0
28.116,0.549,-0.522,0.0
114.106,2.273,1.014,5.0
0.0,0.0,0.0,0.0
52.256,1.074,-0.121,0.0
38.545,0.804,-0.309,2.0
31.799,0.674,-0.434,0.0
27.382,0.589,-0.527,0.0
70.884,1.553,0.58,4.0
0.0,0.0,0.0,0.0
45.55,1.027,-0.138,0.0
37.99,0.868,-0.332,2.0
30.765,0.713,-0.442,1.0
26.514,0.623,-0.529,0.0
70.723,1.69,0.527,17.0
0.0,0.0,0.0,0.0
0.0,0.0,0.0,0.0
35.166,0.874,-0.334,2.0
30.154,0.758,-0.455,1.0
25.676,0.654,-0.532,1.0
0.0,0.0,0.0,0.0
40.214,1.053,0.043,156.0
40.115,1.063,-0.182,150.0
36.47,0.978,-0.374,2.0
29.391,0.797,-0.467,1.0
25.37,0.696,-0.546,2.0
41.928,1.167,0.247,159.0
40.075,1.128,0.01,66.0
40.018,1.138,-0.214,71.0
34.612,0.995,-0.383,1.0
27.495,0.799,-0.459,7.0
24.722,0.726,-0.552,1.0
40.137,1.195,0.203,114.0
40.133,1.207,-0.022,150.0
40.012,1.215,-0.247,33.0
40.194,1.233,-0.479,2.0
28.076,0.869,-0.493,3.0
24.203,0.757,-0.561,0.0
40.123,1.271,0.168,150.0
40.126,1.283,-0.057,150.0
40.01,1.291,-0.282,14.0
40.103,1.306,-0.513,2.0
27.386,0.899,-0.505,3.0
22.807,0.756,-0.549,0.0
63.764,2.141,0.211,16.0
40.129,1.359,-0.093,150.0
39.994,1.366,-0.318,2.0
31.327,1.079,-0.429,1.0
26.761,0.93,-0.518,4.0
22.502,0.788,-0.562,0.0
44.13,1.564,0.105,2.0
40.11,1.433,-0.13,60.0
36.862,1.328,-0.328,2.0
29.939,1.087,-0.438,1.0
25.8,0.944,-0.524,1.0
21.836,0.806,-0.567,0.0
40.982,1.528,0.058,5.0
40.755,1.531,-0.171,4.0
35.572,1.347,-0.351,1.0
29.37,1.12,-0.459,3.0
24.307,0.934,-0.517,4.0
21.429,0.83,-0.577,1.0
40.346,1.578,0.018,156.0
40.319,1.588,-0.209,73.0
34.03,1.35,-0.369,1.0
28.516,1.139,-0.473,4.0
23.647,0.951,-0.526,31.0
21.063,0.853,-0.588,2.0
45.187,1.848,-0.024,8.0
40.259,1.657,-0.249,15.0
23.644,0.98,-0.28,1.0
23.639,0.986,-0.416,21.0
23.57,0.99,-0.549,22.0
20.581,0.87,-0.596,2.0
23.636,1.008,-0.037,46.0
23.629,1.014,-0.171,42.0
23.627,1.02,-0.305,43.0
23.622,1.026,-0.441,42.0
23.377,1.022,-0.569,11.0
19.911,0.876,-0.597,3.0
23.619,1.048,-0.062,74.0
23.61,1.054,-0.196,73.0
23.609,1.06,-0.329,71.0
23.61,1.066,-0.466,66.0
0.0,0.0,0.0,0.0
19.563,0.894,-0.608,3.0
23.607,1.088,-0.088,65.0
23.612,1.094,-0.222,55.0
23.618,1.101,-0.356,43.0
23.641,1.108,-0.493,36.0
21.471,1.012,-0.569,1.0
19.067,0.903,-0.614,3.0
23.654,1.129,-0.114,38.0
23.649,1.135,-0.248,27.0
23.636,1.141,-0.383,12.0
23.698,1.15,-0.521,39.0
21.069,1.028,-0.583,2.0
18.693,0.917,-0.623,3.0
40.226,1.988,-0.241,18.0
32.557,1.617,-0.38,4.0
27.324,1.364,-0.474,1.0
23.553,1.182,-0.545,22.0
20.232,1.02,-0.583,0.0
18.33,0.929,-0.632,2.0
39.252,2.003,-0.281,11.0
31.513,1.616,-0.405,9.0
26.384,1.36,-0.489,1.0
22.717,1.177,-0.552,1.0
19.864,1.034,-0.596,3.0
18.132,0.948,-0.647,2.0
36.171,1.904,-0.302,5.0
29.924,1.583,-0.42,5.0
25.397,1.349,-0.501,1.0
21.788,1.163,-0.556,0.0
19.341,1.037,-0.604,3.0
17.767,0.957,-0.656,1.0
34.833,1.888,-0.333,10.0
29.003,1.579,-0.442,3.0
24.652,1.347,-0.516,1.0
19.819,1.088,-0.53,5.0
18.889,1.041,-0.613,3.0
17.346,0.961,-0.662,1.0
32.873,1.832,-0.355,5.0
27.92,1.562,-0.461,1.0
24.084,1.353,-0.534,0.0
19.88,1.121,-0.556,5.0
18.488,1.047,-0.623,3.0
17.089,0.972,-0.673,2.0
31.503,1.803,-0.38,9.0
26.997,1.551,-0.48,3.0
19.848,1.145,-0.466,2.0
19.686,1.14,-0.576,9.0
18.223,1.059,-0.637,2.0
16.935,0.988,-0.689,1.0
30.168,1.77,-0.403,9.0
25.935,1.528,-0.494,1.0
19.736,1.167,-0.488,10.0
19.557,1.16,-0.597,7.0
17.895,1.066,-0.649,1.0
16.774,1.003,-0.704,2.0
28.867,1.735,-0.423,8.0
24.772,1.495,-0.504,1.0
19.734,1.195,-0.514,11.0
19.06,1.158,-0.608,3.0
17.506,1.068,-0.658,1.0
16.617,1.017,-0.72,1.0
27.925,1.718,-0.446,7.0
24.044,1.484,-0.521,0.0
19.715,1.221,-0.54,10.0
18.567,1.154,-0.616,3.0
17.194,1.072,-0.669,1.0
16.426,1.027,-0.733,1.0
26.713,1.679,-0.462,7.0
19.876,1.253,-0.457,2.0
19.708,1.247,-0.566,10.0
18.265,1.159,-0.631,2.0
16.973,1.081,-0.684,1.0
16.218,1.036,-0.746,1.0
25.673,1.648,-0.48,6.0
19.732,1.271,-0.481,9.0
19.634,1.268,-0.591,7.0
17.832,1.155,-0.641,2.0
16.791,1.091,-0.7,2.0
16.07,1.048,-0.762,2.0
24.822,1.625,-0.498,6.0
19.737,1.296,-0.509,9.0
19.103,1.258,-0.602,3.0
17.501,1.156,-0.653,2.0
16.604,1.1,-0.715,1.0
15.944,1.06,-0.778,1.0
24.126,1.61,-0.518,5.0
19.721,1.319,-0.536,9.0
18.58,1.247,-0.611,3.0
17.187,1.156,-0.665,1.0
16.439,1.109,-0.731,1.0
15.646,1.059,-0.785,0.0
19.852,1.348,-0.454,2.0
19.707,1.342,-0.563,9.0
18.215,1.244,-0.625,2.0
16.94,1.16,-0.68,1.0
16.183,1.111,-0.742,1.0
15.259,1.051,-0.788,0.0
19.74,1.364,-0.479,10.0
19.608,1.358,-0.588,6.0
17.873,1.241,-0.639,1.0
16.761,1.167,-0.697,1.0
16.014,1.118,-0.758,2.0
14.831,1.038,-0.787,0.0
19.871,1.395,-0.511,13.0
19.025,1.339,-0.598,3.0
17.427,1.23,-0.648,2.0
16.591,1.173,-0.713,1.0
15.92,1.129,-0.776,1.0
14.566,1.036,-0.794,0.0
19.727,1.407,-0.535,9.0
18.547,1.326,-0.61,3.0
17.159,1.229,-0.663,2.0
16.406,1.178,-0.729,2.0
15.468,1.113,-0.776,0.0
14.232,1.027,-0.796,0.0
19.71,1.426,-0.564,10.0
18.159,1.317,-0.623,1.0
16.916,1.229,-0.678,1.0
16.156,1.177,-0.742,1.0
15.141,1.105,-0.782,0.0
13.822,1.011,-0.794,0.0
19.556,1.434,-0.588,4.0
17.709,1.302,-0.634,2.0
16.744,1.233,-0.695,1.0
15.983,1.18,-0.757,2.0
14.8,1.095,-0.786,0.0
13.501,1.001,-0.795,0.0
18.863,1.402,-0.595,3.0
17.375,1.294,-0.647,2.0
16.555,1.235,-0.712,1.0
15.793,1.181,-0.772,0.0
14.543,1.09,-0.794,0.0
13.374,1.004,-0.807,0.0
18.507,1.392,-0.611,3.0
17.119,1.29,-0.663,2.0
16.316,1.232,-0.726,1.0
15.38,1.164,-0.774,0.0
14.095,1.069,-0.79,0.0
13.101,0.995,-0.81,0.0
18.103,1.378,-0.624,2.0
16.881,1.287,-0.679,2.0
16.062,1.227,-0.738,1.0
15.117,1.157,-0.783,0.0
13.681,1.049,-0.788,0.0
12.94,0.994,-0.82,0.0
17.678,1.36,-0.636,2.0
16.688,1.286,-0.696,2.0
15.968,1.233,-0.758,1.0
13.468,1.044,-0.795,0.0
12.692,0.985,-0.823,0.0
17.389,1.352,-0.651,2.0
16.463,1.282,-0.711,1.0
15.645,1.22,-0.766,0.0
14.381,1.124,-0.788,0.0
13.284,1.04,-0.805,0.0
12.506,0.981,-0.83,0.0
17.075,1.34,-0.665,1.0
16.266,1.279,-0.727,1.0
15.283,1.203,-0.771,0.0
13.02,1.028,-0.808,0.0
12.33,0.976,-0.837,0.0
16.841,1.334,-0.681,1.0
16.063,1.274,-0.742,1.0
14.959,1.188,-0.777,0.0
12.844,1.023,-0.817,0.0
12.164,0.971,-0.844,0.0
16.656,1.33,-0.699,1.0
15.938,1.275,-0.76,1.0
13.376,1.073,-0.794,0.0
12.698,1.02,-0.827,0.0
11.915,0.959,-0.844,0.0
16.424,1.322,-0.713,1.0
15.539,1.252,-0.764,0.0
14.172,1.144,-0.779,0.0
13.284,1.074,-0.808,0.0
12.515,1.013,-0.833,0.0
11.634,0.943,-0.842,0.0
16.183,1.312,-0.727,1.0
15.214,1.235,-0.771,0.0
14.111,1.147,-0.797,0.0
12.913,1.051,-0.805,0.0
12.369,1.008,-0.842,0.0
11.412,0.931,-0.843,0.0
16.013,1.307,-0.744,2.0
14.826,1.211,-0.774,0.0
13.58,1.111,-0.787,0.0
12.779,1.047,-0.816,0.0
12.081,0.991,-0.841,0.0
11.264,0.925,-0.849,0.0
15.86,1.302,-0.76,0.0
14.517,1.193,-0.78,0.0
13.335,1.097,-0.793,0.0
12.609,1.039,-0.824,0.0
11.805,0.974,-0.839,0.0
11.11,0.917,-0.854,0.0
15.419,1.273,-0.762,0.0
14.244,1.177,-0.786,0.0
13.185,1.091,-0.803,0.0
12.415,1.028,-0.829,0.0
11.591,0.961,-0.841,0.0
10.903,0.905,-0.854,0.0
15.09,1.252,-0.768,0.0
12.909,1.073,-0.806,0.0
12.261,1.02,-0.837,0.0
11.446,0.953,-0.848,0.0
10.81,0.901,-0.863,0.0
12.744,1.064,-0.814,0.0
12.05,1.007,-0.841,0.0
11.219,0.938,-0.848,0.0
10.622,0.889,-0.864,0.0
13.354,1.118,-0.796,0.0
12.593,1.055,-0.823,0.0
11.718,0.982,-0.835,0.0
11.082,0.93,-0.854,0.0
10.451,0.878,-0.866,0.0
14.186,1.19,-0.785,0.0
13.243,1.112,-0.809,0.0
12.405,1.042,-0.829,0.0
11.487,0.966,-0.835,0.0
10.91,0.918,-0.857,0.0
10.313,0.869,-0.869,0.0
12.905,1.086,-0.807,0.0
12.23,1.03,-0.835,0.0
11.353,0.957,-0.842,0.0
10.762,0.908,-0.861,0.0
10.175,0.859,-0.873,0.0
13.587,1.146,-0.791,0.0
12.772,1.078,-0.817,0.0
11.932,1.007,-0.832,0.0
11.217,0.948,-0.848,0.0
10.546,0.892,-0.858,0.0
10.064,0.851,-0.878,0.0
13.39,1.131,-0.799,0.0
12.617,1.066,-0.825,0.0
11.748,0.993,-0.836,0.0
11.047,0.935,-0.851,0.0
10.412,0.882,-0.862,0.0
9.928,0.841,-0.88,0.0
13.051,1.104,-0.797,0.0
12.416,1.051,-0.83,0.0
11.462,0.97,-0.832,0.0
10.903,0.923,-0.856,0.0
10.312,0.874,-0.869,0.0
9.62,0.816,-0.866,0.0
12.921,1.093,-0.807,0.0
12.188,1.032,-0.832,0.0
11.378,0.964,-0.842,0.0
10.715,0.908,-0.856,0.0
10.127,0.859,-0.867,0.0
9.616,0.816,-0.879,0.0
12.757,1.08,-0.814,0.0
11.936,1.011,-0.831,0.0
11.172,0.946,-0.842,0.0
10.51,0.891,-0.854,0.0
10.057,0.853,-0.875,0.0
9.53,0.808,-0.885,0.0
12.616,1.068,-0.823,0.0
11.754,0.995,-0.834,0.0
11.055,0.936,-0.848,0.0
10.425,0.883,-0.861,0.0
9.92,0.841,-0.877,0.0
9.405,0.797,-0.886,0.0
12.385,1.047,-0.824,0.0
11.532,0.975,-0.834,0.0
10.93,0.925,-0.854,0.0
10.303,0.872,-0.865,0.0
9.675,0.819,-0.869,0.0
9.365,0.793,-0.895,0.0
12.254,1.035,-0.832,0.0
11.373,0.96,-0.838,0.0
10.759,0.909,-0.854,0.0
10.182,0.86,-0.868,0.0
9.636,0.814,-0.878,0.0
9.272,0.784,-0.898,0.0
12.037,1.015,-0.833,0.0
11.322,0.954,-0.849,0.0
10.655,0.898,-0.86,0.0
10.107,0.852,-0.875,0.0
9.569,0.807,-0.884,0.0
9.057,0.764,-0.889,0.0
11.823,0.994,-0.834,0.0
11.126,0.936,-0.848,0.0
10.494,0.883,-0.861,0.0
9.971,0.839,-0.877,0.0
9.445,0.794,-0.885,0.0
8.96,0.754,-0.892,0.0
11.633,0.976,-0.835,0.0
10.987,0.921,-0.852,0.0
10.352,0.868,-0.863,0.0
9.879,0.829,-0.881,0.0
9.38,0.787,-0.891,0.0
8.827,0.74,-0.89,0.0
11.479,0.96,-0.838,0.0
10.883,0.91,-0.857,0.0
10.266,0.858,-0.868,0.0
9.733,0.813,-0.88,0.0
9.278,0.775,-0.893,0.0
8.722,0.729,-0.89,0.0
11.357,0.946,-0.843,0.0
10.683,0.89,-0.855,0.0
10.138,0.844,-0.87,0.0
9.632,0.802,-0.883,0.0
9.154,0.762,-0.892,0.0
8.633,0.719,-0.891,0.0
11.2,0.929,-0.845,0.0
10.565,0.876,-0.858,0.0
10.053,0.833,-0.874,0.0
9.578,0.794,-0.89,0.0
8.999,0.746,-0.888,0.0
8.532,0.707,-0.891,0.0
11.108,0.917,-0.851,0.0
10.446,0.862,-0.861,0.0
9.99,0.824,-0.881,0.0
9.458,0.78,-0.889,0.0
8.912,0.735,-0.89,0.0
8.487,0.7,-0.896,0.0
10.942,0.899,-0.851,0.0
10.333,0.848,-0.863,0.0
9.847,0.808,-0.879,0.0
9.336,0.766,-0.889,0.0
8.858,0.727,-0.894,0.0
8.413,0.69,-0.898,0.0
10.818,0.883,-0.854,0.0
10.239,0.836,-0.867,0.0
9.736,0.794,-0.88,0.0
8.716,0.711,-0.89,0.0
8.322,0.678,-0.898,0.0
10.708,0.869,-0.857,0.0
10.164,0.824,-0.872,0.0
9.703,0.787,-0.888,0.0
9.126,0.74,-0.889,0.0
8.656,0.701,-0.893,0.0
8.251,0.668,-0.899,0.0
10.649,0.858,-0.863,0.0
10.067,0.811,-0.874,0.0
9.611,0.774,-0.89,0.0
8.639,0.695,-0.9,0.0
8.198,0.659,-0.902,0.0
10.505,0.841,-0.863,0.0
9.985,0.799,-0.877,0.0
9.522,0.761,-0.892,0.0
8.465,0.676,-0.891,0.0
8.151,0.651,-0.905,0.0
10.359,0.823,-0.861,0.0
9.881,0.784,-0.878,0.0
9.417,0.747,-0.891,0.0
8.903,0.706,-0.895,0.0
8.457,0.67,-0.899,0.0
8.055,0.638,-0.903,0.0
10.32,0.813,-0.868,0.0
9.823,0.773,-0.883,0.0
9.342,0.735,-0.893,0.0
8.788,0.691,-0.892,0.0
8.353,0.656,-0.896,0.0
8.021,0.63,-0.907,0.0
10.216,0.798,-0.869,0.0
9.746,0.761,-0.885,0.0
9.215,0.719,-0.89,0.0
8.683,0.677,-0.889,0.0
8.334,0.649,-0.901,0.0
7.974,0.621,-0.909,0.0
10.15,0.786,-0.873,0.0
9.648,0.746,-0.885,0.0
8.645,0.667,-0.893,0.0
8.265,0.638,-0.902,0.0
7.943,0.612,-0.912,0.0
10.056,0.771,-0.873,0.0
9.561,0.732,-0.885,0.0
8.569,0.655,-0.893,0.0
8.214,0.627,-0.903,0.0
7.901,0.603,-0.914,0.0
10.009,0.76,-0.878,0.0
9.531,0.723,-0.891,0.0
8.991,0.681,-0.892,0.0
8.537,0.646,-0.897,0.0
8.167,0.617,-0.905,0.0
7.878,0.595,-0.918,0.0
9.917,0.745,-0.878,0.0
9.501,0.713,-0.895,0.0
8.999,0.674,-0.9,0.0
8.464,0.634,-0.896,0.0
8.142,0.609,-0.909,0.0
7.835,0.585,-0.919,0.0
9.882,0.734,-0.882,0.0
9.422,0.699,-0.895,0.0
8.837,0.655,-0.89,0.0
8.428,0.624,-0.898,0.0
8.064,0.596,-0.906,0.0
7.814,0.577,-0.923,0.0
9.776,0.718,-0.88,0.0
9.404,0.689,-0.901,0.0
8.757,0.641,-0.889,0.0
8.365,0.612,-0.898,0.0
8.006,0.585,-0.905,0.0
7.757,0.566,-0.922,0.0
9.767,0.708,-0.886,0.0
9.303,0.674,-0.897,0.0
8.765,0.634,-0.896,0.0
8.333,0.602,-0.9,0.0
7.97,0.575,-0.907,0.0
7.746,0.558,-0.926,0.0
9.687,0.694,-0.886,0.0
9.226,0.66,-0.896,0.0
8.697,0.621,-0.894,0.0
8.284,0.591,-0.9,0.0
7.989,0.569,-0.914,0.0
7.678,0.546,-0.923,0.0
9.628,0.68,-0.886,0.0
9.152,0.646,-0.895,0.0
8.651,0.609,-0.895,0.0
8.266,0.581,-0.903,0.0
7.941,0.558,-0.914,0.0
7.667,0.538,-0.926,0.0
9.611,0.67,-0.89,0.0
9.135,0.636,-0.898,0.0
8.604,0.598,-0.895,0.0
8.242,0.572,-0.906,0.0
7.907,0.547,-0.914,0.0
7.643,0.528,-0.928,0.0
9.565,0.657,-0.891,0.0
9.127,0.626,-0.903,0.0
8.611,0.59,-0.901,0.0
8.191,0.56,-0.904,0.0
7.887,0.538,-0.916,0.0
7.622,0.519,-0.929,0.0
9.5,0.643,-0.89,0.0
9.017,0.609,-0.896,0.0
8.567,0.578,-0.9,0.0
8.201,0.552,-0.91,0.0
7.886,0.53,-0.92,0.0
7.595,0.509,-0.929,0.0
9.507,0.634,-0.895,0.0
8.978,0.597,-0.897,0.0
8.529,0.566,-0.9,0.0
8.151,0.54,-0.908,0.0
7.862,0.52,-0.92,0.0
7.56,0.499,-0.929,0.0
9.468,0.621,-0.896,0.0
8.951,0.586,-0.898,0.0
8.519,0.556,-0.903,0.0
8.105,0.528,-0.906,0.0
7.847,0.51,-0.922,0.0
7.555,0.491,-0.931,0.0
9.46,0.61,-0.899,0.0
8.918,0.574,-0.898,0.0
8.514,0.547,-0.905,0.0
8.102,0.519,-0.909,0.0
7.829,0.501,-0.923,0.0
7.51,0.479,-0.928,0.0
9.395,0.596,-0.896,0.0
8.877,0.562,-0.897,0.0
8.462,0.534,-0.903,0.0
8.066,0.508,-0.907,0.0
7.795,0.49,-0.921,0.0
7.53,0.472,-0.933,0.0
9.372,0.584,-0.896,0.0
8.883,0.552,-0.9,0.0
8.483,0.526,-0.907,0.0
8.082,0.5,-0.911,0.0
7.787,0.48,-0.923,0.0
7.502,0.462,-0.932,0.0
9.375,0.573,-0.899,0.0
8.884,0.542,-0.902,0.0
8.463,0.515,-0.908,0.0
8.084,0.491,-0.914,0.0
7.769,0.47,-0.922,0.0
7.516,0.454,-0.935,0.0
9.325,0.56,-0.896,0.0
8.865,0.531,-0.902,0.0
8.461,0.505,-0.909,0.0
8.053,0.479,-0.912,0.0
7.778,0.462,-0.925,0.0
7.5,0.444,-0.935,0.0
9.336,0.549,-0.899,0.0
8.866,0.52,-0.904,0.0
8.421,0.493,-0.906,0.0
8.046,0.47,-0.912,0.0
7.766,0.452,-0.925,0.0
7.505,0.436,-0.936,0.0
9.337,0.538,-0.9,0.0
8.865,0.51,-0.905,0.0
8.366,0.48,-0.901,0.0
8.011,0.458,-0.909,0.0
7.743,0.441,-0.923,0.0
7.483,0.425,-0.934,0.0
9.329,0.527,-0.901,0.0
8.874,0.499,-0.907,0.0
8.393,0.471,-0.905,0.0
8.069,0.451,-0.916,0.0
7.77,0.433,-0.926,0.0
7.482,0.416,-0.934,0.0
9.329,0.515,-0.901,0.0
8.847,0.487,-0.904,0.0
8.419,0.462,-0.908,0.0
8.07,0.442,-0.917,0.0
7.745,0.423,-0.923,0.0
7.481,0.407,-0.934,0.0
9.343,0.505,-0.902,0.0
8.879,0.478,-0.907,0.0
8.397,0.451,-0.905,0.0
8.034,0.43,-0.912,0.0
7.771,0.415,-0.926,0.0
7.47,0.397,-0.933,0.0
9.356,0.494,-0.903,0.0
8.874,0.467,-0.906,0.0
8.457,0.444,-0.911,0.0
8.077,0.422,-0.917,0.0
7.761,0.404,-0.925,0.0
7.499,0.389,-0.936,0.0
9.378,0.484,-0.904,0.0
8.906,0.458,-0.909,0.0
8.424,0.431,-0.907,0.0
8.079,0.412,-0.916,0.0
7.827,0.398,-0.931,0.0
7.527,0.381,-0.938,0.0
9.378,0.472,-0.903,0.0
8.919,0.447,-0.909,0.0
8.466,0.423,-0.91,0.0
8.096,0.403,-0.917,0.0
7.826,0.388,-0.93,0.0
7.502,0.371,-0.934,0.0
9.405,0.461,-0.904,0.0
8.955,0.438,-0.911,0.0
8.505,0.414,-0.913,0.0
8.109,0.393,-0.916,0.0
7.817,0.378,-0.927,0.0
7.504,0.361,-0.932,0.0
9.434,0.451,-0.905,0.0
8.938,0.426,-0.907,0.0
8.544,0.405,-0.915,0.0
8.08,0.382,-0.911,0.0
7.842,0.369,-0.928,0.0
7.529,0.353,-0.934,0.0
9.444,0.44,-0.903,0.0
8.96,0.415,-0.907,0.0
8.508,0.393,-0.908,0.0
8.138,0.374,-0.915,0.0
7.856,0.36,-0.928,0.0
7.551,0.344,-0.934,0.0
9.49,0.43,-0.905,0.0
8.976,0.405,-0.905,0.0
8.593,0.386,-0.915,0.0
8.183,0.366,-0.918,0.0
7.854,0.349,-0.925,0.0
7.582,0.336,-0.935,0.0
9.499,0.418,-0.902,0.0
9.039,0.396,-0.909,0.0
8.628,0.376,-0.915,0.0
8.23,0.357,-0.92,0.0
7.917,0.342,-0.929,0.0
7.599,0.327,-0.934,0.0
9.509,0.406,-0.899,0.0
9.078,0.386,-0.909,0.0
8.642,0.366,-0.913,0.0
8.271,0.348,-0.921,0.0
7.949,0.333,-0.929,0.0
7.629,0.318,-0.934,0.0
9.548,0.395,-0.898,0.0
9.137,0.377,-0.91,0.0
8.728,0.358,-0.918,0.0
8.309,0.339,-0.921,0.0
7.976,0.324,-0.928,0.0
7.682,0.31,-0.937,0.0
9.618,0.386,-0.9,0.0
9.194,0.367,-0.911,0.0
8.717,0.346,-0.912,0.0
8.35,0.33,-0.921,0.0
7.99,0.314,-0.926,0.0
7.722,0.302,-0.938,0.0
9.712,0.377,-0.904,0.0
9.207,0.356,-0.908,0.0
8.767,0.337,-0.913,0.0
8.371,0.32,-0.919,0.0
8.022,0.305,-0.925,0.0
7.741,0.293,-0.936,0.0
9.742,0.366,-0.901,0.0
9.288,0.347,-0.91,0.0
8.868,0.33,-0.918,0.0
8.429,0.312,-0.92,0.0
8.094,0.298,-0.928,0.0
7.769,0.284,-0.934,0.0
9.774,0.355,-0.898,0.0
9.343,0.337,-0.91,0.0
8.867,0.318,-0.912,0.0
8.47,0.302,-0.919,0.0
8.103,0.287,-0.924,0.0
7.823,0.276,-0.935,0.0
9.852,0.345,-0.898,0.0
9.396,0.327,-0.908,0.0
8.967,0.31,-0.916,0.0
8.525,0.293,-0.919,0.0
8.186,0.28,-0.927,0.0
7.884,0.268,-0.937,0.0
9.936,0.335,-0.899,0.0
9.491,0.318,-0.911,0.0
9.001,0.3,-0.913,0.0
8.572,0.284,-0.917,0.0
8.239,0.271,-0.927,0.0
7.904,0.259,-0.933,0.0
10.02,0.326,-0.899,0.0
9.527,0.308,-0.907,0.0
9.069,0.291,-0.913,0.0
8.619,0.275,-0.916,0.0
8.29,0.262,-0.926,0.0
7.959,0.25,-0.933,0.0
10.112,0.316,-0.899,0.0
9.586,0.297,-0.904,0.0
9.11,0.281,-0.909,0.0
8.712,0.267,-0.918,0.0
8.337,0.254,-0.925,0.0
8.015,0.242,-0.933,0.0
10.203,0.306,-0.898,0.0
9.65,0.287,-0.902,0.0
9.209,0.272,-0.911,0.0
8.813,0.259,-0.921,0.0
8.396,0.245,-0.924,0.0
8.088,0.234,-0.934,0.0
10.293,0.296,-0.897,0.0
9.757,0.279,-0.903,0.0
9.271,0.263,-0.909,0.0
8.893,0.25,-0.921,0.0
8.455,0.236,-0.922,0.0
8.132,0.226,-0.932,0.0
10.335,0.285,-0.891,0.0
9.857,0.269,-0.903,0.0
9.371,0.254,-0.91,0.0
8.959,0.241,-0.92,0.0
8.56,0.229,-0.926,0.0
8.186,0.217,-0.93,0.0
10.496,0.277,-0.895,0.0
9.956,0.26,-0.903,0.0
9.488,0.246,-0.912,0.0
9.016,0.232,-0.917,0.0
8.607,0.22,-0.922,0.0
8.27,0.209,-0.931,0.0
10.622,0.267,-0.895,0.0
10.075,0.251,-0.903,0.0
9.577,0.237,-0.911,0.0
9.111,0.224,-0.917,0.0
8.681,0.211,-0.921,0.0
8.318,0.201,-0.928,0.0
10.751,0.258,-0.894,0.0
10.147,0.241,-0.899,0.0
9.646,0.227,-0.907,0.0
9.157,0.214,-0.911,0.0
8.807,0.204,-0.924,0.0
8.415,0.193,-0.929,0.0
10.821,0.247,-0.888,0.0
10.311,0.233,-0.902,0.0
9.761,0.219,-0.907,0.0
9.195,0.204,-0.905,0.0
8.887,0.195,-0.923,0.0
8.493,0.185,-0.928,0.0
10.979,0.238,-0.889,0.0
10.434,0.224,-0.901,0.0
9.847,0.209,-0.903,0.0
9.439,0.199,-0.918,0.0
8.947,0.187,-0.919,0.0
8.584,0.177,-0.928,0.0
11.139,0.229,-0.889,0.0
10.56,0.215,-0.899,0.0
9.952,0.2,-0.901,0.0
9.509,0.189,-0.913,0.0
9.027,0.178,-0.916,0.0
8.659,0.169,-0.925,0.0
11.283,0.219,-0.886,0.0
10.697,0.206,-0.898,0.0
10.12,0.193,-0.904,0.0
9.577,0.18,-0.908,0.0
9.166,0.171,-0.918,0.0
8.757,0.161,-0.925,0.0
11.427,0.209,-0.883,0.0
10.812,0.196,-0.894,0.0
10.257,0.184,-0.903,0.0
9.706,0.172,-0.908,0.0
9.26,0.162,-0.916,0.0
8.87,0.154,-0.925,0.0
11.631,0.201,-0.884,1.0
10.967,0.187,-0.892,0.0
10.394,0.175,-0.901,0.0
9.828,0.164,-0.906,0.0
9.447,0.155,-0.922,0.0
8.966,0.146,-0.923,0.0
11.8,0.191,-0.881,1.0
11.086,0.177,-0.887,0.0
10.554,0.167,-0.901,0.0
9.983,0.156,-0.907,0.0
9.511,0.147,-0.915,0.0
9.08,0.138,-0.922,0.0
11.979,0.181,-0.878,1.0
11.299,0.169,-0.889,0.0
10.709,0.158,-0.9,0.0
10.157,0.148,-0.908,0.0
9.615,0.138,-0.912,0.0
9.207,0.131,-0.922,0.0
12.144,0.172,-0.873,1.0
11.519,0.161,-0.89,0.0
10.888,0.15,-0.899,0.0
10.285,0.14,-0.906,0.0
9.783,0.131,-0.914,0.0
9.332,0.123,-0.921,0.0
12.366,0.162,-0.872,0.0
11.699,0.151,-0.887,1.0
11.029,0.141,-0.895,0.0
10.487,0.132,-0.908,0.0
9.874,0.122,-0.907,0.0
9.424,0.115,-0.917,0.0
12.615,0.153,-0.871,1.0
11.797,0.141,-0.877,1.0
11.183,0.132,-0.891,0.0
10.625,0.123,-0.904,0.0
10.033,0.115,-0.907,0.0
9.564,0.108,-0.916,0.0
12.838,0.144,-0.867,1.0
12.066,0.133,-0.879,0.0
11.421,0.124,-0.892,0.0
10.816,0.115,-0.904,0.0
10.218,0.107,-0.908,0.0
9.778,0.101,-0.921,0.0
13.05,0.134,-0.861,1.0
12.268,0.124,-0.874,0.0
11.613,0.115,-0.889,0.0
10.968,0.107,-0.899,0.0
10.413,0.1,-0.909,0.0
9.865,0.093,-0.914,0.0
13.328,0.125,-0.858,1.0
12.54,0.115,-0.874,0.0
11.802,0.107,-0.885,0.0
11.167,0.099,-0.897,0.0
10.576,0.092,-0.906,0.0
10.034,0.085,-0.913,0.0
13.579,0.115,-0.852,0.0
12.757,0.106,-0.868,1.0
12.019,0.098,-0.882,0.0
11.343,0.091,-0.893,0.0
10.761,0.084,-0.904,0.0
10.19,0.078,-0.91,0.0
13.877,0.106,-0.849,0.0
13.01,0.098,-0.864,0.0
12.242,0.09,-0.878,0.0
11.561,0.083,-0.891,0.0
10.945,0.077,-0.901,0.0
10.371,0.071,-0.909,0.0
14.24,0.097,-0.847,0.0
13.276,0.089,-0.859,1.0
12.471,0.081,-0.873,0.0
11.785,0.075,-0.888,0.0
11.139,0.069,-0.899,0.0
10.546,0.064,-0.906,0.0
14.56,0.088,-0.841,0.0
13.582,0.08,-0.856,0.0
12.727,0.073,-0.869,1.0
12.003,0.067,-0.884,0.0
11.368,0.062,-0.897,0.0
10.755,0.057,-0.906,0.0
14.923,0.079,-0.837,0.0
13.903,0.071,-0.852,0.0
13.014,0.065,-0.866,0.0
12.233,0.059,-0.88,0.0
11.584,0.054,-0.894,0.0
10.932,0.05,-0.901,0.0
15.325,0.07,-0.833,0.0
14.286,0.063,-0.851,0.0
13.295,0.057,-0.862,0.0
12.487,0.051,-0.876,0.0
11.792,0.047,-0.889,0.0
11.134,0.043,-0.898,0.0
15.747,0.061,-0.828,0.0
14.617,0.054,-0.845,0.0
13.623,0.049,-0.859,0.0
12.747,0.044,-0.872,0.0
12.024,0.04,-0.885,0.0
11.364,0.036,-0.896,0.0
15.856,0.05,-0.805,0.0
15.001,0.046,-0.84,0.0
13.888,0.04,-0.85,0.0
13.037,0.036,-0.867,0.0
12.271,0.032,-0.881,0.0
11.588,0.029,-0.892,0.0
16.62,0.042,-0.813,0.0
15.364,0.037,-0.831,0.0
14.35,0.033,-0.851,0.0
13.338,0.029,-0.862,0.0
12.531,0.025,-0.876,0.0
11.833,0.022,-0.889,0.0
17.345,0.033,-0.816,0.0
15.766,0.028,-0.823,0.0
14.661,0.024,-0.842,0.0
13.665,0.021,-0.858,0.0
12.846,0.018,-0.874,1.0
12.096,0.016,-0.886,0.0
17.842,0.024,-0.806,0.0
16.14,0.02,-0.813,0.0
15.097,0.017,-0.839,0.0
13.989,0.014,-0.852,0.0
13.116,0.011,-0.867,0.0
12.377,0.009,-0.883,0.0
18.499,0.015,-0.8,0.0
16.715,0.011,-0.81,0.0
15.524,0.009,-0.833,0.0
14.451,0.007,-0.852,0.0
13.427,0.005,-0.862,0.0
12.643,0.003,-0.878,0.0
19.159,0.006,-0.792,0.0
17.447,0.003,-0.812,0.0
15.835,0.001,-0.819,0.0
14.793,0.0,-0.844,0.0
13.816,-0.001,-0.86,0.0
12.93,-0.002,-0.872,0.0
19.725,-0.003,-0.777,2.0
17.974,-0.004,-0.801,0.0
16.319,-0.005,-0.812,0.0
15.257,-0.006,-0.841,0.0
14.145,-0.007,-0.853,0.0
13.235,-0.008,-0.867,0.0
19.827,-0.011,-0.743,1.0
18.765,-0.012,-0.8,0.0
16.969,-0.013,-0.812,0.0
15.674,-0.013,-0.833,0.0
14.589,-0.013,-0.851,0.0
13.57,-0.014,-0.862,0.0
21.208,-0.021,-0.752,0.0
19.482,-0.021,-0.792,0.0
17.709,-0.02,-0.812,0.0
16.055,-0.02,-0.821,0.0
15.024,-0.02,-0.846,0.0
13.933,-0.019,-0.857,0.0
21.936,-0.03,-0.735,0.0
19.752,-0.028,-0.764,2.0
18.336,-0.028,-0.804,0.0
16.62,-0.026,-0.816,0.0
15.405,-0.026,-0.837,0.0
14.37,-0.025,-0.855,0.0
22.928,-0.039,-0.722,0.0
20.071,-0.035,-0.736,0.0
19.052,-0.035,-0.797,0.0
17.28,-0.033,-0.814,0.0
15.843,-0.031,-0.828,0.0
14.785,-0.03,-0.85,0.0
24.002,-0.048,-0.707,0.0
21.646,-0.045,-0.749,0.0
19.709,-0.042,-0.784,2.0
18.031,-0.039,-0.812,0.0
16.268,-0.037,-0.817,0.0
15.212,-0.035,-0.843,0.0
25.373,-0.058,-0.695,0.0
22.407,-0.052,-0.73,0.0
19.873,-0.047,-0.75,1.0
18.736,-0.046,-0.806,0.0
17.035,-0.042,-0.821,0.0
15.679,-0.04,-0.837,0.0
26.353,-0.066,-0.668,0.0
23.376,-0.06,-0.713,0.0
21.244,-0.055,-0.758,0.0
19.458,-0.051,-0.797,0.0
17.517,-0.047,-0.808,0.0
16.001,-0.044,-0.821,0.0
19.797,-0.053,-0.461,0.0
24.549,-0.067,-0.698,0.0
22.011,-0.061,-0.74,0.0
19.746,-0.056,-0.767,2.0
18.364,-0.052,-0.808,0.0
16.688,-0.048,-0.821,0.0
19.788,-0.056,-0.42,2.0
19.718,-0.057,-0.52,0.0
23.039,-0.067,-0.726,0.0
20.176,-0.059,-0.742,0.0
19.052,-0.057,-0.799,0.0
17.362,-0.052,-0.818,0.0
19.793,-0.059,-0.378,6.0
19.758,-0.059,-0.479,1.0
19.798,-0.06,-0.582,0.0
21.624,-0.066,-0.75,0.0
19.687,-0.061,-0.784,2.0
18.069,-0.056,-0.813,0.0
19.767,-0.06,-0.336,12.0
19.771,-0.061,-0.438,3.0
19.779,-0.061,-0.54,1.0
22.515,-0.07,-0.733,0.0
19.88,-0.062,-0.75,1.0
18.811,-0.059,-0.807,0.0
19.771,-0.061,-0.295,15.0
19.778,-0.061,-0.397,6.0
19.754,-0.062,-0.498,2.0
19.776,-0.062,-0.603,0.0
0.0,0.0,0.0,0.0
19.604,-0.062,-0.8,1.0
19.758,-0.061,-0.253,15.0
19.775,-0.061,-0.355,9.0
19.769,-0.061,-0.457,3.0
19.767,-0.062,-0.561,1.0
22.141,-0.069,-0.742,0.0
19.783,-0.062,-0.765,2.0
19.746,-0.06,-0.211,16.0
19.768,-0.061,-0.313,14.0
19.769,-0.061,-0.415,5.0
19.771,-0.061,-0.519,1.0
23.173,-0.071,-0.728,0.0
20.466,-0.063,-0.748,0.0
19.738,-0.059,-0.169,16.0
19.752,-0.059,-0.271,14.0
19.774,-0.059,-0.373,5.0
19.764,-0.059,-0.477,2.0
19.778,-0.059,-0.579,0.0
21.807,-0.064,-0.75,0.0
19.729,-0.057,-0.127,16.0
19.742,-0.057,-0.229,14.0
19.748,-0.056,-0.33,10.0
19.768,-0.056,-0.434,2.0
25.772,-0.073,-0.699,0.0
22.797,-0.064,-0.736,0.0
19.734,-0.054,-0.085,13.0
19.734,-0.054,-0.186,15.0
19.76,-0.053,-0.288,13.0
19.776,-0.053,-0.392,2.0
26.79,-0.071,-0.669,0.0
23.801,-0.063,-0.717,0.0
19.722,-0.05,-0.043,17.0
19.728,-0.05,-0.144,14.0
19.751,-0.049,-0.246,14.0
19.757,-0.049,-0.35,2.0
28.417,-0.07,-0.65,0.0
25.107,-0.061,-0.703,0.0
19.707,-0.046,-0.001,17.0
19.73,-0.045,-0.102,12.0
19.744,-0.045,-0.204,14.0
19.751,-0.044,-0.307,6.0
29.551,-0.065,-0.612,0.0
26.357,-0.057,-0.682,0.0
19.613,0.137,0.688,10.0
19.594,0.14,0.586,15.0
19.597,0.143,0.484,14.0
19.61,0.146,0.381,11.0
19.627,0.149,0.279,10.0
19.663,0.152,0.178,16.0
19.634,0.154,0.727,9.0
19.594,0.157,0.624,12.0
19.606,0.16,0.522,11.0
19.614,0.163,0.419,10.0
19.639,0.167,0.317,9.0
19.652,0.17,0.215,14.0
19.664,0.172,0.766,4.0
19.615,0.175,0.662,10.0
19.621,0.178,0.561,9.0
19.626,0.182,0.457,9.0
19.655,0.185,0.355,11.0
19.668,0.188,0.253,8.0
19.692,0.191,0.805,0.0
19.66,0.194,0.701,10.0
19.662,0.197,0.599,9.0
19.701,0.201,0.496,10.0
19.724,0.205,0.394,11.0
19.737,0.208,0.291,9.0
186.032,1.99,7.962,18.0
19.684,0.213,0.739,7.0
19.663,0.217,0.636,11.0
19.684,0.22,0.532,10.0
19.708,0.224,0.43,10.0
19.719,0.227,0.328,11.0
186.599,2.181,8.332,9.0
19.69,0.233,0.776,1.0
19.645,0.236,0.671,14.0
19.648,0.239,0.567,11.0
19.676,0.243,0.465,11.0
19.703,0.247,0.363,12.0
84.827,1.076,3.94,43.0
84.822,1.091,3.496,48.0
19.637,0.256,0.706,12.0
19.637,0.259,0.602,15.0
19.668,0.263,0.5,15.0
19.682,0.267,0.397,12.0
121.951,1.675,5.884,17.0
121.775,1.695,5.239,14.0
19.65,0.277,0.742,3.0
19.634,0.28,0.637,14.0
19.659,0.284,0.535,14.0
19.695,0.289,0.433,12.0
122.054,1.808,6.109,23.0
121.565,1.824,5.448,23.0
121.633,1.849,4.813,8.0
19.651,0.302,0.672,8.0
19.663,0.306,0.57,11.0
19.696,0.31,0.468,8.0
121.897,1.942,6.315,20.0
121.397,1.958,5.654,20.0
121.394,1.981,5.017,19.0
55.214,0.911,1.986,15.0
55.2,0.922,1.696,20.0
55.194,0.933,1.407,39.0
55.211,0.942,2.955,55.0
55.195,0.953,2.665,66.0
55.19,0.964,2.375,76.0
55.167,0.974,2.078,75.0
55.181,0.985,1.789,74.0
55.174,0.996,1.5,70.0
55.206,1.006,3.049,58.0
55.197,1.017,2.759,47.0
55.213,1.028,2.469,44.0
55.21,1.039,2.173,24.0
55.199,1.051,1.882,8.0
55.186,1.061,1.592,2.0
122.05,2.369,6.945,16.0
121.805,2.389,6.289,13.0
121.493,2.407,5.633,22.0
121.329,2.429,4.973,22.0
135.111,2.733,4.827,15.0
135.384,2.768,4.126,20.0
129.423,2.667,7.575,9.0
121.848,2.537,6.489,20.0
121.671,2.558,5.838,13.0
121.486,2.58,5.175,24.0
121.257,2.6,4.526,19.0
114.195,2.473,3.661,13.0
129.503,2.829,7.789,14.0
129.617,2.858,7.11,11.0
129.46,2.882,6.417,19.0
114.731,2.578,5.069,16.0
121.229,2.751,4.717,19.0
114.237,2.617,3.842,17.0
133.428,3.082,8.234,21.0
133.738,3.117,7.545,17.0
129.445,3.044,6.616,11.0
128.947,3.06,5.896,15.0
121.385,2.908,4.909,11.0
113.909,2.754,4.006,22.0
121.397,2.959,7.679,24.0
134.023,3.295,7.767,18.0
114.508,2.84,6.027,12.0
114.625,2.867,5.415,8.0
45.467,1.147,1.907,1.0
45.504,1.158,1.667,7.0
0.0,0.0,0.0,0.0
0.0,0.0,0.0,0.0
43.691,1.14,2.365,71.0
43.715,1.15,2.13,110.0
0.0,0.0,0.0,0.0
0.0,0.0,0.0,0.0
41.882,1.13,2.774,74.0
41.915,1.14,2.553,115.0
0.0,0.0,0.0,0.0
0.0,0.0,0.0,0.0
0.0,0.0,0.0,0.0
40.11,1.127,1.586,40.0
40.107,1.136,2.714,150.0
40.114,1.145,2.501,150.0
40.106,1.154,2.287,150.0
40.123,1.163,2.07,115.0
40.108,1.172,1.855,127.0
40.119,1.181,1.643,150.0
40.105,1.19,2.771,139.0
40.11,1.199,2.557,122.0
40.107,1.209,2.343,139.0
40.122,1.218,2.126,113.0
40.123,1.227,1.912,110.0
40.128,1.237,1.698,100.0
40.117,1.246,2.827,124.0
40.11,1.255,2.612,146.0
40.126,1.264,2.398,110.0
40.128,1.274,2.18,113.0
40.119,1.283,1.966,100.0
40.119,1.292,1.752,112.0
40.113,1.302,2.881,37.0
40.177,1.314,2.67,64.0
0.0,0.0,0.0,0.0
120.198,3.987,6.691,20.0
121.219,4.049,6.1,17.0
120.258,4.045,5.409,13.0
40.219,1.363,2.941,131.0
40.194,1.371,2.723,150.0
0.0,0.0,0.0,0.0
136.73,4.731,7.786,8.0
121.11,4.219,6.249,13.0
120.213,4.216,5.56,17.0
40.186,1.42,2.989,38.0
40.202,1.43,2.775,120.0
45.599,1.632,2.903,32.0
136.755,4.928,7.957,11.0
121.063,4.391,6.396,14.0
134.308,4.904,6.377,10.0
40.103,1.476,3.033,4.0
40.206,1.489,2.825,137.0
43.785,1.631,2.84,150.0
121.349,4.55,7.208,13.0
120.979,4.565,6.537,18.0
120.999,4.594,5.888,12.0
0.0,0.0,0.0,0.0
40.2,1.547,2.871,150.0
0.0,0.0,0.0,0.0
45.568,1.775,2.76,4.0
120.825,4.735,6.668,19.0
120.969,4.77,6.025,14.0
0.0,0.0,0.0,0.0
40.202,1.606,2.918,150.0
41.978,1.687,2.82,99.0
45.528,1.841,2.808,19.0
120.83,4.916,6.804,22.0
121.058,4.954,6.165,14.0
0.0,0.0,0.0,0.0
40.218,1.668,2.964,110.0
0.0,0.0,0.0,0.0
45.478,1.907,2.855,72.0
23.58,0.994,1.353,0.0
23.592,1.0,1.226,3.0
23.581,1.007,1.891,17.0
23.584,1.013,1.763,28.0
23.59,1.019,1.636,39.0
23.578,1.024,1.505,44.0
23.584,1.03,1.378,43.0
23.571,1.035,1.25,48.0
23.555,1.042,1.913,58.0
23.552,1.047,1.785,63.0
23.552,1.053,1.657,73.0
23.557,1.059,1.527,71.0
23.566,1.065,1.4,71.0
23.561,1.07,1.273,72.0
23.551,1.078,1.936,75.0
23.548,1.083,1.808,77.0
23.547,1.089,1.68,70.0
23.55,1.094,1.55,65.0
23.558,1.1,1.422,58.0
23.572,1.107,1.295,52.0
23.563,1.114,1.96,48.0
23.568,1.12,1.832,41.0
23.577,1.126,1.704,39.0
23.596,1.133,1.575,36.0
23.57,1.137,1.445,19.0
23.585,1.143,1.318,10.0
23.537,1.149,1.979,0.0
23.531,1.154,1.85,0.0
40.199,1.982,2.941,111.0
41.985,2.08,2.839,127.0
45.554,2.268,2.833,96.0
0.0,0.0,0.0,0.0
0.0,0.0,0.0,0.0
0.0,0.0,0.0,0.0
40.166,2.042,2.973,70.0
0.0,0.0,0.0,0.0
0.0,0.0,0.0,0.0
0.0,0.0,0.0,0.0
0.0,0.0,0.0,0.0
0.0,0.0,0.0,0.0
40.183,2.106,3.008,20.0
0.0,0.0,0.0,0.0
0.0,0.0,0.0,0.0
200.307,10.638,11.693,6.0
0.0,0.0,0.0,0.0
0.0,0.0,0.0,0.0
40.156,2.166,3.036,1.0
40.158,2.176,2.813,80.0
45.531,2.478,2.94,3.0
0.0,0.0,0.0,0.0
0.0,0.0,0.0,0.0
0.0,0.0,0.0,0.0
0.0,0.0,0.0,0.0
40.192,2.24,2.844,111.0
0.0,0.0,0.0,0.0
0.0,0.0,0.0,0.0
0.0,0.0,0.0,0.0
0.0,0.0,0.0,0.0
0.0,0.0,0.0,0.0
40.186,2.302,2.87,125.0
0.0,0.0,0.0,0.0
0.0,0.0,0.0,0.0
0.0,0.0,0.0,0.0
0.0,0.0,0.0,0.0
0.0,0.0,0.0,0.0
40.188,2.364,2.895,115.0
0.0,0.0,0.0,0.0
45.523,2.699,2.78,5.0
0.0,0.0,0.0,0.0
0.0,0.0,0.0,0.0
0.0,0.0,0.0,0.0
40.183,2.427,2.919,138.0
43.763,2.653,2.939,64.0
45.521,2.77,2.807,11.0
0.0,0.0,0.0,0.0
0.0,0.0,0.0,0.0
0.0,0.0,0.0,0.0
40.189,2.489,2.941,117.0
41.975,2.609,2.841,150.0
45.534,2.841,2.831,53.0
0.0,0.0,0.0,0.0
100.631,6.344,8.539,2.0
100.641,6.367,7.983,5.0
40.192,2.551,2.962,96.0
0.0,0.0,0.0,0.0
45.544,2.911,2.854,90.0
99.905,6.431,9.08,36.0
99.938,6.455,8.527,35.0
99.932,6.475,7.973,35.0
40.164,2.611,2.978,72.0
0.0,0.0,0.0,0.0
45.53,2.981,2.873,93.0
99.927,6.588,9.125,33.0
99.935,6.609,8.571,36.0
99.939,6.631,8.017,38.0
40.167,2.673,2.995,33.0
0.0,0.0,0.0,0.0
0.0,0.0,0.0,0.0
99.93,6.742,9.166,36.0
99.926,6.763,8.609,38.0
99.927,6.784,8.053,35.0
99.911,6.804,7.488,22.0
0.0,0.0,0.0,0.0
0.0,0.0,0.0,0.0
99.904,6.894,9.198,35.0
99.955,6.918,8.646,33.0
99.917,6.936,8.087,33.0
99.909,6.956,7.521,22.0
41.924,2.928,2.923,3.0
43.768,3.066,2.809,130.0
99.912,7.045,9.23,37.0
99.933,7.069,8.674,36.0
99.905,7.086,8.115,34.0
99.927,7.109,7.55,27.0
41.949,2.992,2.936,2.0
43.75,3.13,2.819,122.0
99.915,7.197,9.257,34.0
99.925,7.219,8.699,37.0
99.94,7.239,8.143,34.0
99.92,7.257,7.574,24.0
40.162,2.926,2.82,93.0
41.964,3.065,2.714,99.0
98.994,7.28,9.193,3.0
99.074,7.305,8.646,4.0
99.042,7.321,8.09,6.0
40.058,2.969,3.044,7.0
40.167,2.985,2.828,114.0
41.962,3.127,2.721,103.0
99.01,7.428,9.213,56.0
99.021,7.448,8.658,60.0
99.018,7.467,8.104,54.0
99.02,7.486,7.541,40.0
40.174,3.045,2.835,111.0
40.18,3.053,2.611,126.0
94.856,7.256,8.839,1.0
94.783,7.269,8.3,1.0
94.883,7.295,7.777,3.0
40.054,3.087,3.054,2.0
40.172,3.104,2.839,91.0
40.163,3.111,2.614,144.0
94.813,7.391,8.843,20.0
94.816,7.409,8.311,30.0
94.845,7.429,7.781,40.0
94.863,7.448,7.241,54.0
40.169,3.161,2.841,89.0
40.164,3.169,2.617,150.0
94.858,7.532,8.852,10.0
94.879,7.55,8.321,9.0
94.844,7.564,7.785,7.0
40.089,3.205,3.061,1.0
40.062,3.21,2.834,68.0
40.081,3.22,2.612,93.0
98.576,7.969,9.2,4.0
98.729,7.998,8.657,5.0
98.682,8.011,8.099,6.0
40.092,3.261,3.061,2.0
40.083,3.268,2.835,93.0
40.083,3.276,2.611,104.0
97.324,8.005,9.08,9.0
97.08,8.001,8.51,9.0
96.74,7.99,7.934,8.0
40.068,3.316,3.057,2.0
40.07,3.323,2.832,77.0
40.081,3.332,2.608,104.0
87.227,7.295,8.131,1.0
87.211,7.309,7.637,2.0
87.093,7.313,7.135,3.0
40.063,3.371,3.052,5.0
40.071,3.378,2.828,77.0
40.088,3.387,2.604,110.0
87.03,7.399,8.102,14.0
87.035,7.413,7.611,16.0
87.047,7.429,7.121,21.0
87.028,7.442,6.619,27.0
87.052,7.459,6.131,46.0
87.055,7.474,5.642,51.0
87.024,7.517,8.088,24.0
87.039,7.532,7.596,19.0
87.044,7.546,7.105,16.0
87.032,7.56,6.604,15.0
87.046,7.575,6.114,24.0
87.073,7.593,5.626,10.0
0.0,0.0,0.0,0.0
82.715,7.267,7.203,1.0
82.974,7.303,6.755,2.0
82.965,7.316,6.277,2.0
82.977,7.331,5.81,2.0
82.956,7.342,5.342,2.0
82.905,7.381,7.668,7.0
82.897,7.392,7.198,9.0
82.904,7.405,6.729,11.0
82.894,7.417,6.251,13.0
82.917,7.432,5.784,16.0
82.911,7.445,5.316,22.0
82.871,7.485,7.642,47.0
82.866,7.497,7.171,55.0
82.876,7.51,6.701,45.0
82.894,7.524,6.226,40.0
82.891,7.536,5.757,34.0
82.916,7.552,5.291,21.0
82.901,7.594,7.617,7.0
82.919,7.607,7.148,7.0
82.913,7.618,6.677,7.0
82.88,7.628,6.196,84.0
82.886,7.64,5.728,4.0
82.93,7.657,5.262,4.0
86.446,8.026,7.913,1.0
86.233,8.017,7.403,3.0
83.051,7.733,6.657,6.0
82.868,7.727,6.165,150.0
86.166,8.047,5.923,4.0
86.16,8.06,5.434,8.0
85.054,7.999,7.752,10.0
85.019,8.007,7.265,10.0
84.911,8.008,6.772,4.0
82.86,7.825,6.13,44.0
84.965,8.036,5.805,4.0
84.997,8.051,5.326,9.0
84.143,8.013,7.632,10.0
84.001,8.01,7.141,10.0
83.795,8.001,6.646,10.0
82.877,7.924,6.094,9.0
83.663,8.01,5.678,8.0
83.691,8.024,5.205,9.0
83.441,8.043,7.529,10.0
83.346,8.044,7.045,10.0
83.266,8.046,6.565,10.0
82.851,8.017,6.052,16.0
82.923,8.034,5.587,10.0
82.849,8.038,5.112,8.0
75.126,7.326,6.741,3.0
75.06,7.328,6.307,3.0
75.132,7.344,5.885,2.0
75.034,7.343,5.442,3.0
75.172,7.365,5.025,3.0
75.102,7.369,4.594,3.0
75.068,7.403,6.695,9.0
75.075,7.411,6.267,8.0
75.058,7.418,5.838,10.0
75.07,7.428,5.403,9.0
75.073,7.437,4.976,10.0
75.066,7.446,4.549,12.0
75.028,7.479,6.648,39.0
75.031,7.487,6.22,54.0
75.025,7.494,5.791,55.0
75.042,7.505,5.357,86.0
75.039,7.513,4.929,95.0
75.057,7.524,4.503,111.0
75.005,7.555,6.6,18.0
75.04,7.566,6.174,42.0
75.028,7.572,5.744,16.0
75.036,7.581,5.309,16.0
75.049,7.59,4.883,15.0
75.049,7.599,4.456,14.0
75.071,7.637,6.558,7.0
75.054,7.641,6.127,150.0
75.093,7.653,5.7,4.0
75.12,7.663,5.266,4.0
75.104,7.669,4.837,3.0
75.072,7.675,4.407,3.0
75.11,7.714,6.51,1.0
75.039,7.712,6.074,41.0
0.0,0.0,0.0,0.0
71.226,7.335,4.943,0.0
0.0,0.0,0.0,0.0
70.999,7.326,4.118,0.0
70.911,7.35,6.095,3.0
70.876,7.352,5.685,3.0
70.93,7.364,5.283,3.0
70.931,7.37,4.872,3.0
70.892,7.373,4.464,4.0
70.952,7.386,4.064,4.0
70.909,7.414,6.042,8.0
70.88,7.416,5.633,9.0
70.894,7.423,5.229,10.0
70.884,7.428,4.815,9.0
70.903,7.436,4.412,10.0
70.914,7.444,4.008,12.0
70.867,7.471,5.983,25.0
70.859,7.476,5.576,34.0
70.868,7.482,5.171,36.0
70.873,7.488,4.758,38.0
70.877,7.494,4.354,41.0
70.88,7.5,3.95,77.0
70.868,7.53,5.927,41.0
70.864,7.534,5.52,46.0
70.864,7.539,5.114,41.0
70.854,7.543,4.7,42.0
70.862,7.55,4.295,41.0
70.877,7.557,3.892,33.0
70.848,7.585,5.866,11.0
70.857,7.59,5.46,10.0
70.844,7.593,5.052,11.0
70.889,7.602,4.643,11.0
70.898,7.609,4.237,11.0
70.884,7.613,3.831,11.0
70.909,7.645,5.81,4.0
70.914,7.649,5.403,4.0
70.896,7.652,4.994,4.0
70.904,7.657,4.581,6.0
70.946,7.667,4.178,5.0
70.953,7.673,3.773,5.0
70.987,7.705,5.752,2.0
70.953,7.705,5.342,2.0
70.983,7.712,4.937,2.0
71.068,7.725,4.528,2.0
70.967,7.718,4.116,2.0
70.947,7.721,3.709,2.0
73.87,8.068,5.919,8.0
73.681,8.051,5.48,6.0
73.444,8.029,5.04,6.0
73.435,8.031,4.611,6.0
73.673,8.062,4.204,6.0
73.862,8.087,3.792,8.0
73.476,8.073,5.818,10.0
73.478,8.076,5.395,10.0
73.319,8.061,4.962,10.0
73.168,8.048,4.525,10.0
73.123,8.047,4.103,9.0
73.342,8.075,3.696,9.0
72.868,8.05,5.698,10.0
73.077,8.076,5.294,10.0
73.078,8.078,4.875,11.0
73.02,8.075,4.444,11.0
72.783,8.053,4.012,10.0
72.723,8.05,3.592,8.0
72.308,8.029,5.583,8.0
72.504,8.053,5.181,9.0
72.691,8.076,4.776,10.0
72.796,8.09,4.358,11.0
72.69,8.081,3.935,11.0
72.459,8.059,3.508,8.0
72.152,8.05,5.497,9.0
72.045,8.039,5.074,7.0
72.256,8.065,4.674,7.0
72.461,8.09,4.263,11.0
72.524,8.1,3.851,10.0
72.391,8.088,3.43,9.0
72.053,8.073,5.416,10.0
71.917,8.059,4.991,9.0
71.77,8.044,4.567,3.0
72.039,8.076,4.163,5.0
72.213,8.098,3.76,9.0
72.266,8.107,3.348,10.0
71.877,8.085,5.325,9.0
71.817,8.079,4.908,10.0
71.662,8.063,4.485,7.0
71.552,8.052,4.059,4.0
71.856,8.088,3.664,3.0
72.01,8.108,3.259,8.0
71.601,8.082,5.227,6.0
71.668,8.09,4.819,9.0
71.637,8.088,4.405,8.0
71.469,8.07,3.977,7.0
71.292,8.051,3.558,2.0
71.653,8.094,3.165,2.0
71.053,8.046,5.11,4.0
71.346,8.079,4.72,5.0
71.547,8.102,4.321,9.0
71.46,8.093,3.898,8.0
71.258,8.071,3.477,6.0
71.131,8.058,3.063,2.0
70.878,8.048,5.017,7.0
70.89,8.049,4.61,5.0
71.254,8.09,4.225,7.0
71.373,8.104,3.813,7.0
71.294,8.095,3.4,7.0
71.032,8.067,2.98,4.0
70.887,8.068,4.938,10.0
70.743,8.051,4.52,8.0
70.836,8.061,4.118,6.0
71.131,8.094,3.72,5.0
71.285,8.112,3.318,7.0
57.056,6.494,2.328,1.0
70.925,8.088,4.859,10.0
70.848,8.077,4.446,10.0
70.636,8.053,4.026,9.0
70.712,8.061,3.617,4.0
71.091,8.104,3.228,6.0
56.998,6.498,2.261,3.0
70.791,8.085,4.769,10.0
70.896,8.095,4.367,9.0
70.735,8.076,3.95,9.0
70.605,8.06,3.529,7.0
70.715,8.072,3.129,6.0
56.94,6.5,2.192,2.0
70.627,8.076,4.674,7.0
70.851,8.099,4.281,10.0
70.852,8.098,3.873,10.0
70.732,8.083,3.453,9.0
70.627,8.07,3.042,7.0
56.867,6.497,2.123,2.0
70.396,8.055,4.577,4.0
70.646,8.082,4.185,8.0
70.876,8.106,3.79,9.0
70.892,8.106,3.377,9.0
70.638,8.076,2.96,6.0
56.839,6.498,2.055,4.0
70.455,8.065,4.495,8.0
70.482,8.065,4.091,6.0
70.721,8.091,3.698,7.0
70.921,8.112,3.294,8.0
56.826,6.498,2.312,2.0
56.874,6.503,1.988,6.0
70.635,8.086,4.421,10.0
70.489,8.066,4.006,8.0
70.504,8.065,3.602,6.0
70.838,8.1,3.204,8.0
56.819,6.496,2.243,2.0
56.911,6.505,1.92,9.0
70.786,8.099,4.344,10.0
70.709,8.087,3.932,11.0
70.507,8.061,3.516,8.0
70.608,8.07,3.108,6.0
56.879,6.499,2.176,2.0
56.942,6.505,1.852,10.0
70.794,8.094,4.259,9.0
70.915,8.103,3.857,10.0
70.802,8.087,3.444,9.0
70.663,8.068,3.023,7.0
56.885,6.493,2.107,2.0
57.021,6.507,1.785,10.0
70.742,8.078,4.168,8.0
71.02,8.105,3.775,7.0
71.109,8.112,3.371,8.0
70.805,8.074,2.943,4.0
57.074,6.505,2.044,5.0
57.099,6.507,1.717,8.0
70.676,8.057,4.078,8.0
70.963,8.086,3.685,4.0
71.234,8.113,3.289,7.0
57.101,6.5,2.303,2.0
57.178,6.506,1.977,7.0
57.262,6.513,1.652,10.0
70.904,8.067,4.002,9.0
70.844,8.056,3.591,3.0
71.251,8.097,3.202,3.0
57.21,6.498,2.236,5.0
57.318,6.507,1.912,11.0
57.39,6.513,1.584,11.0
71.286,8.091,3.934,8.0
71.181,8.074,3.519,5.0
71.103,8.06,3.106,2.0
57.319,6.494,2.169,6.0
57.45,6.505,1.844,11.0
57.569,6.516,1.518,8.0
71.684,8.114,3.868,8.0
71.62,8.1,3.452,7.0
71.459,8.077,3.033,4.0
57.574,6.504,2.107,5.0
57.664,6.51,1.779,8.0
57.725,6.513,1.45,8.0
71.932,8.115,3.789,7.0
71.972,8.114,3.378,9.0
71.733,8.081,2.955,3.0
57.791,6.506,2.043,8.0
57.886,6.513,1.714,10.0
57.978,6.519,1.384,10.0
72.033,8.097,3.705,6.0
72.262,8.116,3.3,9.0
57.91,6.499,2.312,3.0
58.001,6.505,1.977,11.0
58.109,6.513,1.647,10.0
58.199,6.519,1.317,9.0
72.108,8.072,3.618,4.0
72.389,8.097,3.216,8.0
58.16,6.5,2.25,2.0
58.281,6.509,1.914,7.0
58.357,6.513,1.581,9.0
58.486,6.523,1.25,8.0
72.468,8.076,3.545,9.0
72.468,8.069,3.129,6.0
58.404,6.498,2.186,3.0
58.55,6.508,1.849,9.0
58.666,6.516,1.516,9.0
58.775,6.523,1.182,8.0
73.009,8.097,3.48,10.0
72.937,8.081,3.058,7.0
58.737,6.501,2.125,7.0
58.842,6.508,1.785,12.0
58.96,6.515,1.451,10.0
59.059,6.521,1.115,9.0
73.547,8.113,3.414,12.0
73.358,8.084,2.984,5.0
59.086,6.504,2.064,6.0
59.182,6.509,1.722,6.0
59.303,6.517,1.386,5.0
59.371,6.519,1.047,5.0
73.876,8.101,3.338,6.0
59.279,6.494,2.337,1.0
59.445,6.505,2.003,4.0
