X,Y,Z,Reflectivity
19.631,0.0,0.27,15.0
19.773,0.007,0.16,3.0
19.768,0.013,0.048,5.0
19.737,0.02,-0.065,39.0
19.756,0.026,-0.176,9.0
19.761,0.032,-0.288,13.0
19.625,0.038,0.251,15.0
19.725,0.045,0.141,16.0
19.76,0.051,0.029,38.0
19.759,0.058,-0.084,75.0
19.772,0.064,-0.196,37.0
19.773,0.07,-0.308,13.0
19.62,0.076,0.232,16.0
19.669,0.082,0.121,12.0
19.676,0.089,0.01,9.0
19.706,0.095,-0.103,1.0
40.655,0.209,-0.443,0.0
32.642,0.178,-0.541,0.0
19.666,0.113,0.212,17.0
19.638,0.119,0.101,14.0
19.633,0.125,-0.01,14.0
19.645,0.132,-0.123,11.0
19.692,0.138,-0.235,2.0
19.651,0.144,-0.346,0.0
19.677,0.15,0.192,14.0
19.651,0.156,0.08,12.0
19.64,0.162,-0.03,15.0
19.629,0.168,-0.144,15.0
19.648,0.174,-0.255,16.0
19.661,0.181,-0.367,15.0
19.704,0.187,0.171,10.0
19.673,0.193,0.059,12.0
19.647,0.199,-0.052,10.0
19.619,0.204,-0.165,17.0
19.644,0.21,-0.277,17.0
19.654,0.216,-0.389,17.0
19.775,0.225,0.149,27.0
19.705,0.23,0.037,1.0
19.649,0.235,-0.074,14.0
19.636,0.24,-0.187,16.0
19.652,0.246,-0.299,15.0
19.67,0.252,-0.411,16.0
19.79,0.26,0.127,6.0
57.268,0.772,0.043,0.0
19.7,0.271,-0.096,5.0
19.673,0.276,-0.21,11.0
19.681,0.282,-0.322,9.0
19.708,0.288,-0.435,1.0
113.9,1.707,0.6,2.0
55.107,0.841,-0.022,10.0
44.284,0.689,-0.27,1.0
35.857,0.568,-0.426,1.0
28.798,0.464,-0.506,0.0
27.5,0.452,-0.64,1.0
55.165,0.925,0.224,71.0
55.116,0.939,-0.089,4.0
39.99,0.692,-0.292,0.0
32.338,0.569,-0.424,0.0
31.131,0.556,-0.585,0.0
27.095,0.492,-0.663,1.0
55.193,1.021,0.157,25.0
48.015,0.902,-0.136,1.0
39.193,0.746,-0.334,0.0
31.0,0.599,-0.444,1.0
27.985,0.548,-0.56,0.0
26.325,0.523,-0.677,1.0
0.0,0.0,0.0,0.0
44.624,0.914,-0.182,0.0
36.423,0.756,-0.357,2.0
29.305,0.616,-0.457,3.0
25.586,0.545,-0.545,0.0
25.303,0.545,-0.683,1.0
55.759,1.22,0.018,0.0
43.809,0.97,-0.235,5.0
34.412,0.771,-0.381,2.0
29.178,0.662,-0.492,2.0
24.563,0.564,-0.555,1.0
23.175,0.539,-0.656,1.0
0.0,0.0,0.0,0.0
40.562,0.966,-0.271,7.0
32.522,0.783,-0.403,1.0
28.109,0.684,-0.512,1.0
23.312,0.573,-0.557,0.0
21.773,0.542,-0.645,1.0
0.0,0.0,0.0,0.0
39.665,1.009,-0.318,7.0
30.556,0.786,-0.42,0.0
26.471,0.688,-0.518,1.0
22.315,0.585,-0.564,0.0
20.374,0.54,-0.631,1.0
40.141,1.076,-0.148,150.0
36.648,0.992,-0.344,3.0
29.813,0.814,-0.45,1.0
25.555,0.704,-0.535,2.0
21.774,0.606,-0.58,0.0
19.386,0.544,-0.628,0.0
40.017,1.136,-0.203,75.0
34.358,0.984,-0.371,1.0
27.56,0.796,-0.455,6.0
24.454,0.712,-0.546,0.0
20.887,0.613,-0.586,0.0
19.203,0.569,-0.648,1.0
40.017,1.198,-0.259,24.0
40.169,1.212,-0.49,2.0
27.611,0.84,-0.495,2.0
23.245,0.713,-0.552,0.0
20.341,0.629,-0.599,1.0
18.285,0.57,-0.644,1.0
39.924,1.256,-0.316,2.0
40.173,1.273,-0.548,1.0
26.018,0.831,-0.504,3.0
22.1,0.711,-0.556,0.0
19.779,0.641,-0.611,0.0
18.038,0.589,-0.661,0.0
40.057,1.319,-0.375,0.0
29.631,0.983,-0.447,2.0
25.297,0.845,-0.526,1.0
21.592,0.726,-0.575,2.0
19.27,0.652,-0.624,2.0
17.314,0.59,-0.66,0.0
40.125,1.38,-0.435,3.0
28.614,0.99,-0.474,3.0
24.394,0.85,-0.544,1.0
20.986,0.736,-0.59,2.0
18.654,0.658,-0.632,2.0
17.145,0.609,-0.679,0.0
40.127,1.437,-0.495,0.0
27.361,0.986,-0.495,3.0
22.841,0.828,-0.544,0.0
19.952,0.728,-0.591,2.0
18.268,0.671,-0.646,1.0
16.958,0.626,-0.697,0.0
30.077,1.119,-0.416,1.0
26.309,0.984,-0.515,5.0
22.162,0.834,-0.561,0.0
19.669,0.744,-0.613,3.0
17.787,0.677,-0.656,2.0
16.782,0.643,-0.716,0.0
29.145,1.124,-0.448,2.0
23.828,0.923,-0.503,9.0
21.318,0.831,-0.573,1.0
18.976,0.744,-0.62,3.0
17.284,0.681,-0.664,2.0
16.573,0.656,-0.732,0.0
27.882,1.111,-0.472,7.0
23.618,0.946,-0.535,25.0
20.628,0.831,-0.586,0.0
18.449,0.747,-0.632,3.0
17.051,0.694,-0.682,2.0
16.379,0.67,-0.749,2.0
27.068,1.113,-0.5,6.0
23.198,0.959,-0.562,5.0
19.836,0.824,-0.594,2.0
17.953,0.749,-0.643,3.0
16.885,0.708,-0.702,2.0
16.266,0.685,-0.77,2.0
23.663,1.003,-0.475,38.0
21.761,0.926,-0.562,2.0
19.339,0.827,-0.61,2.0
17.606,0.756,-0.659,2.0
16.689,0.72,-0.72,1.0
16.077,0.697,-0.787,3.0
23.625,1.03,-0.512,39.0
21.039,0.921,-0.576,2.0
18.672,0.821,-0.619,3.0
17.156,0.757,-0.669,2.0
16.494,0.731,-0.738,1.0
15.936,0.71,-0.805,5.0
23.628,1.057,-0.549,37.0
23.638,1.062,-0.685,2.0
18.257,0.824,-0.634,2.0
16.961,0.768,-0.689,2.0
16.298,0.741,-0.755,2.0
23.657,1.081,-1.233,1.0
0.0,0.0,0.0,0.0
19.573,0.901,-0.599,2.0
17.786,0.822,-0.647,2.0
16.779,0.779,-0.708,2.0
16.123,0.751,-0.774,2.0
23.631,1.106,-1.271,1.0
21.31,1.001,-0.564,1.0
18.884,0.89,-0.609,3.0
17.286,0.818,-0.657,1.0
16.597,0.788,-0.728,1.0
15.976,0.761,-0.793,4.0
23.633,1.131,-1.309,1.0
23.654,1.136,-0.665,0.0
18.388,0.886,-0.623,3.0
17.022,0.823,-0.675,2.0
16.353,0.793,-0.744,2.0
23.621,1.15,-1.211,1.0
23.615,1.154,-1.347,1.0
19.784,0.97,-0.589,2.0
17.963,0.883,-0.638,2.0
16.866,0.832,-0.696,2.0
16.179,0.801,-0.763,1.0
23.628,1.174,-1.251,0.0
23.632,1.178,-1.388,1.0
19.137,0.957,-0.601,3.0
17.525,0.879,-0.651,1.0
16.669,0.839,-0.716,1.0
15.986,0.807,-0.78,4.0
23.645,1.198,-1.291,0.0
23.626,1.201,-1.427,1.0
18.562,0.945,-0.614,3.0
17.1,0.873,-0.664,2.0
16.412,0.841,-0.732,1.0
15.881,0.816,-0.802,1.0
23.685,1.221,-1.333,0.0
13.348,0.69,-0.828,0.0
18.194,0.943,-0.632,2.0
16.918,0.879,-0.686,2.0
16.249,0.847,-0.752,1.0
15.297,0.8,-0.798,0.0
23.625,1.239,-1.369,0.0
13.117,0.69,-0.836,0.0
17.664,0.931,-0.644,1.0
16.763,0.886,-0.708,2.0
16.032,0.849,-0.769,2.0
14.934,0.793,-0.804,0.0
13.739,0.732,-0.819,0.0
12.863,0.687,-0.842,0.0
17.191,0.92,-0.655,1.0
16.512,0.886,-0.725,1.0
15.946,0.857,-0.792,2.0
14.373,0.775,-0.798,0.0
13.368,0.723,-0.82,0.0
12.544,0.68,-0.842,0.0
16.979,0.921,-0.675,2.0
16.285,0.886,-0.742,1.0
15.322,0.835,-0.786,0.0
14.137,0.773,-0.809,0.0
13.18,0.722,-0.831,0.0
12.352,0.679,-0.85,0.0
16.815,0.925,-0.697,1.0
16.097,0.887,-0.761,1.0
14.956,0.826,-0.793,0.0
13.817,0.765,-0.814,0.0
12.932,0.718,-0.837,0.0
12.036,0.67,-0.848,0.0
16.586,0.924,-0.716,1.0
15.969,0.891,-0.781,2.0
14.675,0.821,-0.803,0.0
13.447,0.754,-0.815,0.0
12.658,0.711,-0.84,0.0
11.874,0.669,-0.857,0.0
16.345,0.921,-0.733,1.0
15.609,0.881,-0.79,0.0
14.211,0.804,-0.802,0.0
13.236,0.75,-0.825,0.0
12.4,0.704,-0.844,0.0
11.604,0.661,-0.857,0.0
16.13,0.919,-0.751,1.0
15.076,0.86,-0.789,0.0
13.94,0.797,-0.81,0.0
12.964,0.743,-0.83,0.0
12.214,0.701,-0.853,0.0
11.374,0.654,-0.86,0.0
15.988,0.919,-0.771,4.0
14.716,0.848,-0.795,0.0
13.609,0.786,-0.814,0.0
12.688,0.734,-0.834,0.0
11.92,0.691,-0.852,0.0
11.191,0.65,-0.865,0.0
15.865,0.921,-0.792,0.0
14.288,0.831,-0.796,0.0
13.318,0.776,-0.819,0.0
12.453,0.727,-0.839,0.0
11.686,0.683,-0.855,0.0
10.968,0.642,-0.866,0.0
15.163,0.887,-0.782,0.0
14.052,0.824,-0.806,0.0
13.205,0.775,-0.834,0.0
12.224,0.719,-0.844,0.0
11.506,0.678,-0.862,0.0
10.81,0.638,-0.872,0.0
14.962,0.882,-0.797,0.0
13.731,0.811,-0.811,0.0
12.788,0.756,-0.829,0.0
12.06,0.714,-0.853,0.0
11.236,0.667,-0.86,0.0
10.58,0.629,-0.871,0.0
14.493,0.86,-0.796,0.0
13.378,0.795,-0.812,0.0
12.579,0.749,-0.837,0.0
11.688,0.697,-0.846,0.0
11.062,0.661,-0.866,0.0
10.475,0.626,-0.88,0.0
14.137,0.844,-0.8,0.0
13.237,0.792,-0.826,0.0
12.311,0.737,-0.839,0.0
11.625,0.697,-0.861,0.0
10.892,0.654,-0.87,0.0
10.289,0.619,-0.882,0.0
13.856,0.832,-0.807,0.0
12.867,0.773,-0.824,0.0
12.147,0.731,-0.848,0.0
11.33,0.683,-0.858,0.0
10.753,0.649,-0.877,0.0
10.117,0.611,-0.884,0.0
13.429,0.81,-0.804,0.0
12.676,0.765,-0.833,0.0
11.863,0.717,-0.848,0.0
11.153,0.675,-0.863,0.0
10.524,0.638,-0.876,0.0
9.972,0.605,-0.888,0.0
13.281,0.804,-0.817,0.0
12.44,0.754,-0.838,0.0
11.663,0.708,-0.853,0.0
10.963,0.666,-0.866,0.0
10.326,0.628,-0.876,0.0
9.85,0.6,-0.893,0.0
13.016,0.79,-0.822,0.0
12.198,0.741,-0.841,0.0
11.417,0.695,-0.853,0.0
10.79,0.657,-0.87,0.0
10.202,0.622,-0.882,0.0
9.687,0.591,-0.894,0.0
12.79,0.779,-0.828,0.0
12.012,0.732,-0.848,0.0
11.216,0.684,-0.856,0.0
10.586,0.646,-0.871,0.0
10.084,0.616,-0.888,0.0
9.578,0.586,-0.899,0.0
12.54,0.765,-0.832,0.0
11.75,0.717,-0.848,0.0
11.001,0.672,-0.858,0.0
10.397,0.636,-0.872,0.0
9.942,0.608,-0.892,0.0
9.433,0.578,-0.901,0.0
12.358,0.754,-0.84,0.0
11.604,0.709,-0.856,0.0
10.851,0.663,-0.863,0.0
10.255,0.627,-0.876,0.0
9.788,0.599,-0.893,0.0
9.267,0.568,-0.899,0.0
12.138,0.741,-0.844,0.0
11.321,0.692,-0.852,0.0
10.669,0.652,-0.865,0.0
10.131,0.62,-0.881,0.0
9.632,0.59,-0.894,0.0
9.154,0.561,-0.903,0.0
11.935,0.729,-0.848,0.0
11.198,0.684,-0.86,0.0
10.574,0.646,-0.874,0.0
10.028,0.613,-0.888,0.0
9.516,0.582,-0.898,0.0
9.021,0.552,-0.903,0.0
11.712,0.715,-0.85,0.0
10.998,0.671,-0.861,0.0
10.376,0.634,-0.873,0.0
9.883,0.604,-0.89,0.0
9.396,0.574,-0.901,0.0
8.878,0.543,-0.903,0.0
11.605,0.707,-0.859,0.0
10.78,0.657,-0.861,0.0
10.293,0.627,-0.881,0.0
9.732,0.593,-0.891,0.0
9.299,0.567,-0.905,0.0
8.757,0.534,-0.904,0.0
11.354,0.69,-0.858,0.0
10.682,0.649,-0.869,0.0
9.635,0.586,-0.896,0.0
9.111,0.554,-0.901,0.0
8.633,0.525,-0.904,0.0
11.178,0.678,-0.861,0.0
10.507,0.637,-0.87,0.0
10.037,0.608,-0.889,0.0
9.511,0.577,-0.899,0.0
9.007,0.546,-0.903,0.0
8.548,0.519,-0.907,0.0
10.992,0.664,-0.862,0.0
10.376,0.627,-0.874,0.0
9.876,0.597,-0.889,0.0
9.353,0.565,-0.897,0.0
8.842,0.534,-0.9,0.0
8.423,0.509,-0.906,0.0
10.836,0.652,-0.866,0.0
10.249,0.617,-0.878,0.0
9.724,0.585,-0.889,0.0
9.24,0.556,-0.9,0.0
8.802,0.529,-0.908,0.0
8.349,0.502,-0.91,0.0
10.677,0.639,-0.868,0.0
10.135,0.607,-0.882,0.0
9.631,0.576,-0.894,0.0
9.069,0.543,-0.896,0.0
8.622,0.516,-0.902,0.0
8.259,0.494,-0.912,0.0
10.563,0.629,-0.873,0.0
10.019,0.596,-0.886,0.0
9.535,0.567,-0.898,0.0
8.982,0.534,-0.899,0.0
8.559,0.509,-0.907,0.0
8.154,0.485,-0.911,0.0
10.447,0.618,-0.877,0.0
9.908,0.586,-0.889,0.0
9.414,0.557,-0.9,0.0
8.895,0.526,-0.902,0.0
8.497,0.502,-0.911,0.0
8.067,0.477,-0.912,0.0
10.275,0.604,-0.876,0.0
9.784,0.575,-0.891,0.0
9.25,0.543,-0.896,0.0
8.798,0.517,-0.904,0.0
8.364,0.491,-0.908,0.0
8.002,0.47,-0.916,0.0
10.167,0.593,-0.88,0.0
9.67,0.564,-0.893,0.0
9.194,0.536,-0.902,0.0
8.684,0.506,-0.904,0.0
8.303,0.484,-0.912,0.0
7.936,0.462,-0.918,0.0
10.084,0.584,-0.886,0.0
9.593,0.555,-0.898,0.0
9.01,0.521,-0.896,0.0
8.57,0.495,-0.902,0.0
8.192,0.473,-0.91,0.0
7.893,0.456,-0.923,0.0
9.958,0.572,-0.887,0.0
9.438,0.541,-0.895,0.0
8.957,0.513,-0.901,0.0
8.5,0.487,-0.906,0.0
8.119,0.465,-0.912,0.0
7.8,0.446,-0.922,0.0
9.868,0.561,-0.891,0.0
9.314,0.529,-0.895,0.0
8.836,0.502,-0.9,0.0
8.454,0.479,-0.911,0.0
8.048,0.456,-0.914,0.0
7.759,0.439,-0.926,0.0
9.741,0.548,-0.891,0.0
9.253,0.52,-0.9,0.0
8.772,0.493,-0.904,0.0
8.35,0.469,-0.909,0.0
7.979,0.447,-0.915,0.0
7.722,0.433,-0.931,0.0
9.665,0.538,-0.895,0.0
9.175,0.51,-0.903,0.0
8.677,0.482,-0.904,0.0
8.272,0.459,-0.91,0.0
7.953,0.441,-0.921,0.0
7.636,0.423,-0.929,0.0
9.608,0.529,-0.9,0.0
9.066,0.499,-0.902,0.0
8.612,0.473,-0.906,0.0
8.172,0.448,-0.908,0.0
7.867,0.431,-0.92,0.0
7.571,0.415,-0.929,0.0
9.398,0.511,-0.891,0.0
8.97,0.487,-0.902,0.0
8.543,0.463,-0.908,0.0
8.138,0.441,-0.913,0.0
7.836,0.424,-0.925,0.0
7.527,0.407,-0.932,0.0
9.38,0.504,-0.899,0.0
8.462,0.453,-0.908,0.0
8.081,0.432,-0.915,0.0
7.793,0.416,-0.928,0.0
7.477,0.399,-0.933,0.0
9.305,0.493,-0.901,0.0
8.842,0.468,-0.907,0.0
8.389,0.443,-0.909,0.0
7.984,0.421,-0.912,0.0
7.731,0.407,-0.928,0.0
7.411,0.39,-0.933,0.0
9.247,0.483,-0.904,0.0
8.72,0.455,-0.903,0.0
8.328,0.433,-0.91,0.0
7.975,0.414,-0.919,0.0
7.648,0.397,-0.925,0.0
7.387,0.383,-0.937,0.0
8.672,0.445,-0.906,0.0
8.271,0.424,-0.912,0.0
7.918,0.405,-0.919,0.0
7.62,0.389,-0.929,0.0
7.326,0.374,-0.936,0.0
8.614,0.435,-0.908,0.0
8.219,0.415,-0.913,0.0
7.886,0.397,-0.923,0.0
7.563,0.38,-0.929,0.0
7.292,0.366,-0.938,0.0
8.542,0.425,-0.907,0.0
8.168,0.405,-0.915,0.0
7.836,0.388,-0.923,0.0
7.551,0.373,-0.934,0.0
7.24,0.357,-0.937,0.0
8.963,0.439,-0.908,0.0
8.484,0.414,-0.908,0.0
8.082,0.394,-0.912,0.0
7.797,0.379,-0.925,0.0
7.487,0.363,-0.932,0.0
7.245,0.351,-0.944,0.0
8.832,0.424,-0.902,0.0
8.425,0.404,-0.908,0.0
8.05,0.385,-0.914,0.0
7.805,0.373,-0.932,0.0
7.468,0.356,-0.935,0.0
7.23,0.344,-0.947,0.0
8.803,0.415,-0.905,0.0
8.397,0.395,-0.911,0.0
8.019,0.376,-0.917,0.0
7.706,0.361,-0.926,0.0
7.439,0.347,-0.937,0.0
7.191,0.335,-0.947,0.0
8.772,0.405,-0.908,0.0
8.348,0.385,-0.912,0.0
7.985,0.367,-0.918,0.0
7.668,0.352,-0.927,0.0
7.409,0.339,-0.938,0.0
7.154,0.326,-0.947,0.0
8.743,0.396,-0.911,0.0
8.327,0.376,-0.915,0.0
7.979,0.359,-0.923,0.0
7.625,0.342,-0.926,0.0
7.35,0.329,-0.935,0.0
7.133,0.319,-0.949,0.0
8.703,0.386,-0.912,0.0
8.263,0.365,-0.913,0.0
7.93,0.349,-0.922,0.0
7.607,0.334,-0.929,0.0
7.335,0.321,-0.938,0.0
7.063,0.308,-0.944,0.0
8.635,0.374,-0.91,0.0
8.233,0.355,-0.915,0.0
7.877,0.339,-0.92,0.0
7.565,0.325,-0.928,0.0
7.326,0.314,-0.94,0.0
7.052,0.301,-0.946,0.0
8.61,0.364,-0.912,0.0
8.2,0.346,-0.915,0.0
7.888,0.332,-0.925,0.0
7.531,0.315,-0.927,0.0
7.289,0.304,-0.94,0.0
7.03,0.293,-0.947,0.0
8.574,0.354,-0.912,0.0
8.172,0.336,-0.916,0.0
7.875,0.323,-0.928,0.0
7.52,0.307,-0.93,0.0
7.247,0.295,-0.938,0.0
6.994,0.284,-0.945,0.0
8.543,0.344,-0.913,0.0
8.17,0.328,-0.919,0.0
7.86,0.314,-0.929,0.0
7.541,0.3,-0.935,0.0
7.287,0.289,-0.946,0.0
6.976,0.276,-0.946,0.0
8.525,0.334,-0.914,0.0
8.13,0.317,-0.918,0.0
7.833,0.304,-0.929,0.0
7.516,0.291,-0.935,0.0
7.249,0.28,-0.944,0.0
6.984,0.268,-0.949,0.0
8.465,0.322,-0.911,0.0
8.125,0.308,-0.92,0.0
7.771,0.294,-0.924,0.0
7.484,0.282,-0.934,0.0
7.23,0.271,-0.944,0.0
6.988,0.261,-0.952,0.0
8.501,0.315,-0.917,0.0
8.102,0.298,-0.92,0.0
7.802,0.286,-0.931,0.0
7.471,0.273,-0.934,0.0
7.236,0.263,-0.946,0.0
6.946,0.252,-0.948,0.0
8.465,0.304,-0.916,0.0
8.086,0.289,-0.921,0.0
7.732,0.275,-0.924,0.0
7.447,0.264,-0.933,0.0
7.24,0.255,-0.949,0.0
6.944,0.244,-0.95,0.0
8.453,0.294,-0.916,0.0
8.08,0.28,-0.922,0.0
7.771,0.268,-0.931,0.0
7.449,0.255,-0.935,0.0
7.217,0.246,-0.947,0.0
6.946,0.236,-0.951,0.0
8.439,0.284,-0.916,0.0
8.07,0.27,-0.922,0.0
7.742,0.258,-0.928,0.0
7.454,0.247,-0.937,0.0
7.205,0.238,-0.947,0.0
6.915,0.227,-0.948,0.0
8.422,0.274,-0.916,0.0
8.081,0.261,-0.924,0.0
7.747,0.249,-0.93,0.0
7.412,0.237,-0.932,0.0
7.194,0.229,-0.946,0.0
6.937,0.22,-0.952,0.0
8.45,0.265,-0.919,0.0
8.09,0.252,-0.926,0.0
7.784,0.242,-0.935,0.0
7.432,0.229,-0.935,0.0
7.203,0.221,-0.948,0.0
6.918,0.211,-0.949,0.0
8.45,0.255,-0.92,0.0
8.096,0.243,-0.927,0.0
7.78,0.232,-0.935,0.0
7.435,0.221,-0.936,0.0
7.198,0.213,-0.947,0.0
6.946,0.204,-0.953,0.0
8.441,0.245,-0.919,0.0
8.099,0.234,-0.927,0.0
7.766,0.223,-0.933,0.0
7.46,0.213,-0.939,0.0
7.194,0.204,-0.946,0.0
6.947,0.196,-0.953,0.0
8.455,0.236,-0.92,0.0
8.076,0.224,-0.924,0.0
7.783,0.214,-0.934,0.0
7.48,0.205,-0.941,0.0
7.218,0.196,-0.949,0.0
6.974,0.188,-0.956,0.0
8.458,0.226,-0.919,0.0
8.107,0.215,-0.927,0.0
7.775,0.205,-0.932,0.0
7.461,0.195,-0.938,0.0
7.221,0.188,-0.948,0.0
6.93,0.179,-0.949,0.0
8.473,0.217,-0.92,0.0
8.08,0.205,-0.922,0.0
7.795,0.196,-0.934,0.0
7.483,0.187,-0.939,0.0
7.225,0.179,-0.948,0.0
6.949,0.171,-0.95,0.0
8.507,0.207,-0.922,0.0
8.135,0.197,-0.927,0.0
7.803,0.187,-0.933,0.0
7.494,0.179,-0.939,0.0
7.247,0.171,-0.949,0.0
6.958,0.163,-0.95,0.0
8.533,0.198,-0.923,0.0
8.161,0.188,-0.928,0.0
7.833,0.179,-0.935,0.0
7.515,0.17,-0.94,0.0
7.25,0.163,-0.947,0.0
6.936,0.154,-0.945,0.0
8.548,0.188,-0.922,0.0
8.165,0.178,-0.926,0.0
7.838,0.17,-0.933,0.0
7.52,0.162,-0.938,0.0
7.257,0.154,-0.946,0.0
6.975,0.147,-0.948,0.0
8.567,0.179,-0.921,0.0
8.186,0.169,-0.926,0.0
7.855,0.161,-0.932,0.0
7.543,0.153,-0.938,0.0
7.289,0.147,-0.947,0.0
6.94,0.138,-0.941,0.0
8.582,0.169,-0.92,0.0
8.253,0.161,-0.93,0.0
7.859,0.152,-0.93,0.0
7.577,0.145,-0.939,0.0
7.272,0.138,-0.942,0.0
7.023,0.132,-0.949,0.0
8.631,0.16,-0.921,0.0
8.307,0.152,-0.933,0.0
7.915,0.144,-0.933,0.0
7.608,0.137,-0.94,0.0
7.312,0.13,-0.944,0.0
7.019,0.123,-0.946,0.0
8.677,0.151,-0.922,0.0
8.289,0.142,-0.927,0.0
7.953,0.135,-0.933,0.0
7.625,0.128,-0.938,0.0
7.346,0.122,-0.945,0.0
7.075,0.116,-0.95,0.0
8.699,0.141,-0.92,0.0
8.292,0.133,-0.923,0.0
7.999,0.127,-0.935,0.0
7.661,0.12,-0.939,0.0
7.34,0.113,-0.94,0.0
7.145,0.109,-0.955,0.0
8.734,0.132,-0.919,0.0
8.359,0.124,-0.926,0.0
8.028,0.118,-0.933,0.0
7.699,0.111,-0.939,0.0
7.399,0.106,-0.943,0.0
7.15,0.101,-0.951,0.0
8.789,0.122,-0.919,0.0
8.4,0.115,-0.925,0.0
8.059,0.109,-0.932,0.0
7.722,0.103,-0.937,0.0
7.439,0.098,-0.944,0.0
7.169,0.093,-0.949,0.0
8.827,0.113,-0.918,0.0
8.438,0.106,-0.924,0.0
8.099,0.1,-0.931,0.0
7.761,0.095,-0.936,0.0
7.471,0.09,-0.943,0.0
7.199,0.085,-0.948,0.0
8.896,0.104,-0.919,0.0
8.491,0.097,-0.924,0.0
8.155,0.092,-0.932,0.0
7.787,0.086,-0.934,0.0
7.503,0.082,-0.941,0.0
7.226,0.077,-0.947,0.0
8.985,0.095,-0.921,0.0
8.54,0.089,-0.923,0.0
8.168,0.083,-0.928,0.0
7.85,0.078,-0.935,0.0
7.553,0.074,-0.942,0.0
7.277,0.07,-0.948,0.0
9.016,0.085,-0.918,0.0
8.634,0.08,-0.926,0.0
8.234,0.075,-0.928,0.0
7.914,0.07,-0.937,0.0
7.605,0.066,-0.942,0.0
7.3,0.062,-0.945,0.0
9.058,0.076,-0.915,0.0
8.669,0.071,-0.923,0.0
8.311,0.066,-0.93,0.0
7.949,0.062,-0.934,0.0
7.658,0.058,-0.942,0.0
7.352,0.054,-0.945,0.0
9.146,0.067,-0.916,0.0
8.758,0.062,-0.925,0.0
8.342,0.058,-0.926,0.0
8.018,0.054,-0.935,0.0
7.72,0.05,-0.943,0.0
7.415,0.047,-0.946,0.0
9.228,0.058,-0.915,0.0
8.826,0.053,-0.924,0.0
8.412,0.049,-0.926,0.0
8.074,0.046,-0.934,0.0
7.752,0.042,-0.939,0.0
7.454,0.039,-0.944,0.0
9.319,0.048,-0.916,0.0
8.909,0.045,-0.924,0.0
8.474,0.041,-0.925,0.0
8.131,0.037,-0.933,0.0
7.813,0.034,-0.939,0.0
7.503,0.032,-0.943,0.0
9.427,0.039,-0.917,0.0
8.954,0.036,-0.92,0.0
8.562,0.032,-0.926,0.0
8.193,0.029,-0.932,0.0
7.89,0.027,-0.94,0.0
7.577,0.024,-0.945,0.0
9.479,0.03,-0.912,0.0
9.027,0.027,-0.918,0.0
8.589,0.024,-0.92,0.0
8.254,0.021,-0.93,0.0
7.934,0.019,-0.937,0.0
7.637,0.017,-0.944,0.0
9.563,0.021,-0.91,0.0
9.114,0.018,-0.917,0.0
8.696,0.015,-0.922,0.0
8.334,0.013,-0.93,0.0
7.997,0.011,-0.936,0.0
7.679,0.009,-0.94,0.0
9.68,0.011,-0.911,0.0
9.215,0.009,-0.917,0.0
8.823,0.007,-0.926,0.0
8.409,0.005,-0.929,0.0
8.046,0.003,-0.932,0.0
7.732,0.002,-0.938,0.0
9.796,0.002,-0.911,0.0
9.343,0.0,-0.919,0.0
8.912,0.0,-0.925,0.0
8.493,-0.002,-0.928,0.0
8.113,-0.003,-0.931,0.0
7.835,-0.004,-0.941,0.0
9.915,-0.006,-0.91,0.0
9.39,-0.007,-0.912,0.0
8.989,-0.009,-0.922,0.0
8.562,-0.01,-0.925,0.0
8.224,-0.011,-0.933,0.0
7.926,-0.012,-0.942,0.0
10.042,-0.015,-0.909,0.0
9.531,-0.016,-0.914,0.0
9.113,-0.017,-0.923,0.0
8.661,-0.018,-0.925,0.0
8.328,-0.019,-0.934,0.0
7.986,-0.019,-0.939,0.0
10.154,-0.025,-0.906,0.0
9.616,-0.025,-0.91,0.0
9.191,-0.026,-0.919,0.0
8.781,-0.026,-0.926,0.0
8.398,-0.026,-0.931,0.0
8.052,-0.027,-0.936,0.0
10.313,-0.034,-0.907,0.0
9.776,-0.034,-0.912,0.0
9.333,-0.034,-0.921,0.0
8.872,-0.034,-0.924,0.0
8.491,-0.034,-0.93,0.0
8.131,-0.034,-0.935,0.0
10.443,-0.043,-0.905,0.0
9.907,-0.043,-0.911,0.0
9.415,-0.042,-0.916,0.0
8.995,-0.042,-0.925,0.0
8.57,-0.041,-0.927,0.0
8.235,-0.041,-0.935,0.0
10.58,-0.053,-0.902,0.0
10.04,-0.051,-0.909,0.0
9.565,-0.051,-0.918,0.0
9.118,-0.05,-0.925,0.0
8.685,-0.049,-0.927,0.0
8.342,-0.048,-0.935,0.0
10.739,-0.062,-0.9,0.0
10.192,-0.06,-0.909,0.0
9.691,-0.059,-0.916,0.0
9.215,-0.057,-0.921,0.0
8.837,-0.056,-0.931,0.0
8.422,-0.055,-0.932,0.0
10.889,-0.071,-0.897,0.0
10.355,-0.069,-0.908,0.0
9.816,-0.067,-0.913,0.0
9.335,-0.065,-0.92,0.0
8.913,-0.064,-0.926,0.0
8.522,-0.062,-0.931,0.0
11.081,-0.08,-0.897,0.0
10.477,-0.078,-0.904,0.0
9.966,-0.075,-0.913,0.0
9.516,-0.073,-0.923,0.0
9.068,-0.071,-0.928,0.0
8.626,-0.069,-0.929,0.0
11.256,-0.09,-0.894,0.0
10.638,-0.086,-0.902,0.0
10.12,-0.084,-0.911,0.0
9.611,-0.081,-0.918,0.0
9.157,-0.078,-0.923,0.0
8.755,-0.076,-0.929,0.0
11.445,-0.099,-0.892,0.0
10.832,-0.095,-0.901,0.0
10.268,-0.092,-0.909,0.0
9.761,-0.089,-0.917,0.0
9.269,-0.085,-0.92,0.0
8.879,-0.083,-0.929,0.0
11.619,-0.108,-0.887,0.0
11.002,-0.104,-0.898,0.0
10.461,-0.1,-0.909,0.0
9.924,-0.097,-0.916,0.0
9.446,-0.093,-0.922,0.0
8.98,-0.09,-0.924,0.0
11.822,-0.118,-0.883,0.0
11.208,-0.113,-0.897,0.0
10.596,-0.108,-0.904,0.0
10.054,-0.104,-0.912,0.0
9.62,-0.101,-0.923,0.0
9.153,-0.097,-0.927,0.0
12.039,-0.127,-0.88,0.0
11.401,-0.122,-0.893,0.0
10.8,-0.117,-0.903,0.0
10.235,-0.112,-0.911,0.0
9.681,-0.107,-0.913,0.0
9.246,-0.103,-0.921,0.0
12.26,-0.136,-0.876,0.0
11.63,-0.13,-0.892,0.0
10.974,-0.124,-0.9,0.0
10.427,-0.12,-0.911,0.0
9.859,-0.114,-0.914,0.0
9.42,-0.11,-0.923,0.0
12.504,-0.145,-0.872,0.0
11.765,-0.138,-0.883,0.0
11.183,-0.133,-0.898,0.0
10.581,-0.127,-0.906,0.0
10.054,-0.122,-0.914,0.0
9.598,-0.117,-0.924,0.0
12.785,-0.155,-0.87,0.0
12.029,-0.147,-0.882,0.0
11.375,-0.14,-0.894,0.0
10.77,-0.134,-0.904,0.0
10.224,-0.129,-0.912,0.0
9.633,-0.122,-0.91,0.0
13.066,-0.165,-0.867,0.0
12.279,-0.156,-0.879,0.0
11.601,-0.149,-0.891,0.0
10.989,-0.142,-0.903,0.0
10.41,-0.135,-0.91,0.0
9.886,-0.13,-0.917,0.0
87.07,7.625,6.031,8.0
87.09,7.644,5.543,1.0
82.991,7.3,4.818,1.0
83.023,7.319,4.346,1.0
83.012,7.336,3.881,2.0
82.987,7.351,3.415,2.0
82.903,7.389,5.733,9.0
82.914,7.406,5.268,10.0
82.935,7.423,4.803,12.0
82.912,7.438,4.328,15.0
82.928,7.456,3.865,22.0
82.934,7.473,3.4,27.0
82.898,7.516,5.719,46.0
82.898,7.531,5.253,36.0
82.912,7.547,4.788,30.0
82.9,7.562,4.313,37.0
82.885,7.577,3.847,18.0
82.943,7.599,3.386,11.0
82.917,7.642,5.705,4.0
82.973,7.662,5.241,4.0
83.029,7.683,4.778,3.0
82.911,7.687,4.296,11.0
83.001,7.71,3.835,6.0
83.084,7.735,3.373,2.0
85.813,8.037,5.884,7.0
85.853,8.055,5.403,10.0
85.797,8.064,4.916,10.0
83.01,7.818,4.28,3.0
82.968,7.829,3.812,8.0
85.5,8.084,3.449,12.0
84.307,8.017,5.758,6.0
84.343,8.034,5.285,7.0
84.259,8.041,4.805,9.0
84.37,8.067,4.326,5.0
83.0,7.951,3.789,9.0
84.183,8.08,3.37,10.0
83.109,8.023,5.651,10.0
82.985,8.024,5.173,9.0
82.887,8.029,4.699,9.0
82.759,8.03,4.218,8.0
82.774,8.047,3.751,4.0
83.018,8.085,3.296,1.0
75.139,7.359,5.083,3.0
75.105,7.368,4.655,3.0
75.175,7.387,4.235,4.0
75.1,7.392,3.8,5.0
75.088,7.404,3.376,6.0
75.008,7.41,2.949,2.0
75.04,7.453,5.048,20.0
75.06,7.467,4.624,22.0
75.053,7.478,4.199,32.0
75.044,7.489,3.767,42.0
75.06,7.503,3.344,47.0
75.042,7.514,2.92,13.0
75.047,7.555,5.017,31.0
75.047,7.566,4.592,28.0
75.065,7.579,4.169,37.0
75.049,7.589,3.736,18.0
75.07,7.603,3.312,15.0
74.926,7.602,2.883,2.0
75.111,7.66,4.987,4.0
75.077,7.667,4.56,3.0
75.034,7.674,4.132,53.0
75.11,7.694,3.704,3.0
75.149,7.71,3.28,3.0
62.988,6.473,2.393,2.0
70.98,7.331,4.679,2.0
70.987,7.342,4.276,2.0
70.949,7.348,3.872,3.0
70.955,7.359,3.463,4.0
70.987,7.374,3.063,3.0
62.263,6.478,2.335,5.0
70.908,7.414,4.637,7.0
70.923,7.425,4.235,8.0
70.889,7.431,3.831,10.0
70.866,7.439,3.421,13.0
70.897,7.452,3.021,17.0
61.591,6.484,2.276,5.0
70.876,7.498,4.596,104.0
70.873,7.506,4.193,128.0
70.871,7.516,3.791,134.0
70.878,7.527,3.381,141.0
70.879,7.537,2.98,115.0
60.87,6.482,2.214,3.0
70.894,7.585,4.556,16.0
70.889,7.594,4.152,13.0
70.883,7.602,3.749,12.0
70.921,7.616,3.341,11.0
70.888,7.622,2.937,9.0
60.186,6.48,2.152,1.0
70.962,7.676,4.516,4.0
70.951,7.683,4.112,3.0
70.985,7.696,3.71,3.0
70.965,7.702,3.299,3.0
70.941,7.709,2.894,2.0
59.603,6.485,2.094,4.0
52.365,6.509,1.628,9.0
52.431,6.514,1.329,13.0
52.531,6.524,1.03,13.0
52.575,6.527,0.724,13.0
52.613,6.53,0.423,15.0
18.019,2.236,0.041,0.0
52.5,6.511,1.571,11.0
52.571,6.517,1.271,14.0
52.646,6.524,0.971,13.0
52.711,6.529,0.665,14.0
52.768,6.534,0.363,10.0
18.028,2.231,0.02,1.0
52.654,6.514,1.515,12.0
52.725,6.52,1.215,12.0
52.786,6.524,0.913,15.0
52.848,6.529,0.606,14.0
52.881,6.53,0.303,5.0
18.036,2.226,0.0,1.0
52.81,6.514,1.459,13.0
52.875,6.519,1.157,13.0
52.94,6.523,0.855,13.0
53.021,6.53,0.547,12.0
53.097,6.537,0.244,2.0
18.042,2.22,-0.02,1.0
52.987,6.515,1.402,12.0
53.073,6.521,1.1,12.0
53.133,6.525,0.797,12.0
53.185,6.528,0.488,12.0
46.482,5.702,0.16,4.0
36.22,4.442,-0.082,5.0
53.203,6.517,1.348,13.0
53.282,6.523,1.044,13.0
53.327,6.524,0.739,12.0
53.397,6.529,0.43,10.0
46.32,5.661,0.107,20.0
36.29,4.433,-0.123,6.0
53.434,6.519,1.293,13.0
53.51,6.523,0.988,12.0
53.599,6.53,0.682,13.0
53.672,6.535,0.37,15.0
45.646,5.554,0.053,17.0
0.0,0.0,0.0,0.0
53.685,6.52,1.237,15.0
53.771,6.525,0.932,15.0
53.848,6.53,0.625,12.0
53.918,6.534,0.311,4.0
40.403,4.893,0.002,9.0
35.418,4.287,-0.2,12.0
53.956,6.521,1.183,12.0
54.05,6.527,0.875,11.0
54.129,6.531,0.566,11.0
54.177,6.533,0.251,1.0
40.17,4.84,-0.042,6.0
34.642,4.172,-0.235,12.0
54.265,6.523,1.128,12.0
54.354,6.528,0.819,15.0
54.434,6.533,0.509,9.0
51.248,6.146,0.18,1.0
38.528,4.617,-0.084,14.0
34.259,4.103,-0.27,11.0
54.579,6.524,1.075,13.0
54.674,6.529,0.764,13.0
54.767,6.535,0.452,15.0
46.043,5.49,0.111,16.0
38.008,4.528,-0.124,15.0
33.461,3.983,-0.301,10.0
54.918,6.524,1.021,12.0
55.024,6.531,0.708,13.0
55.13,6.538,0.394,14.0
45.329,5.371,0.06,20.0
0.0,0.0,0.0,0.0
32.787,3.878,-0.331,10.0
55.324,6.53,0.968,13.0
55.453,6.539,0.654,13.0
55.587,6.548,0.337,5.0
44.313,5.215,0.011,19.0
35.532,4.178,-0.194,12.0
31.44,3.694,-0.351,9.0
55.754,6.535,0.916,13.0
55.862,6.541,0.598,14.0
51.312,6.002,0.256,3.0
42.572,4.975,-0.034,12.0
35.548,4.15,-0.231,16.0
30.349,3.54,-0.37,8.0
56.166,6.535,0.863,12.0
56.264,6.539,0.543,12.0
46.667,5.418,0.184,1.0
42.235,4.898,-0.078,7.0
35.496,4.113,-0.268,11.0
29.426,3.406,-0.39,8.0
56.632,6.538,0.811,12.0
56.713,6.54,0.489,8.0
51.418,5.923,0.149,5.0
37.191,4.279,-0.107,12.0
34.718,3.991,-0.298,8.0
28.362,3.257,-0.405,7.0
111.563,-5.49,9.878,22.0
111.569,-5.49,9.292,16.0
113.361,-5.577,8.846,23.0
109.306,-5.376,7.945,24.0
115.143,-5.663,7.766,11.0
112.506,-5.533,7.0,10.0
111.86,-5.524,10.098,20.0
111.473,-5.503,9.477,24.0
111.819,-5.518,8.917,18.0
112.93,-5.572,8.402,16.0
115.149,-5.679,7.963,4.0
116.057,-5.723,7.417,10.0
112.044,-5.548,10.307,20.0
111.463,-5.517,9.665,24.0
111.645,-5.522,9.093,7.0
113.213,-5.598,8.615,24.0
109.263,-5.4,7.741,8.0
111.632,-5.516,7.323,17.0
112.017,-5.556,10.494,14.0
111.64,-5.534,9.869,20.0
111.6,-5.528,9.276,15.0
113.308,-5.61,8.811,23.0
109.227,-5.405,7.92,21.0
115.473,-5.711,7.767,6.0
125.693,-6.241,11.984,6.0
111.8,-5.547,10.069,20.0
111.518,-5.529,9.456,21.0
111.951,-5.545,8.891,19.0
112.961,-5.592,8.377,13.0
108.305,-5.358,7.462,6.0
126.217,-6.268,12.244,2.0
112.017,-5.558,10.274,17.0
111.505,-5.527,9.639,23.0
111.611,-5.528,9.049,12.0
113.178,-5.6,8.581,23.0
109.183,-5.398,7.704,6.0
0.0,0.0,0.0,0.0
112.004,-5.553,10.459,16.0
111.546,-5.525,9.827,21.0
111.658,-5.523,9.235,10.0
113.362,-5.602,8.778,22.0
109.305,-5.397,7.889,22.0
0.0,0.0,0.0,0.0
125.724,-6.224,11.943,4.0
111.818,-5.528,10.031,20.0
111.504,-5.505,9.401,22.0
0.0,0.0,0.0,0.0
109.308,-5.385,8.063,12.0
0.0,0.0,0.0,0.0
0.0,0.0,0.0,0.0
112.009,-5.524,10.226,24.0
111.433,-5.488,9.572,21.0
111.626,-5.489,8.999,18.0
113.004,-5.55,8.515,18.0
0.0,0.0,0.0,0.0
0.0,0.0,0.0,0.0
112.018,-5.506,10.403,23.0
111.46,-5.47,9.75,21.0
111.668,-5.473,9.177,10.0
113.481,-5.553,8.725,22.0
0.0,0.0,0.0,0.0
0.0,0.0,0.0,0.0
112.014,-5.483,10.576,7.0
111.53,-5.451,9.928,24.0
111.558,-5.444,9.339,24.0
113.367,-5.522,8.891,23.0
0.0,0.0,0.0,0.0
0.0,0.0,0.0,0.0
0.0,0.0,0.0,0.0
111.983,-5.445,10.138,21.0
111.459,-5.411,9.499,21.0
111.697,-5.413,8.928,10.0
0.0,0.0,0.0,0.0
0.0,0.0,0.0,0.0
0.0,0.0,0.0,0.0
112.151,-5.422,10.323,22.0
111.479,-5.379,9.669,22.0
111.715,-5.379,9.097,14.0
0.0,0.0,0.0,0.0
0.0,0.0,0.0,0.0
0.0,0.0,0.0,0.0
112.237,-5.391,10.495,14.0
111.445,-5.341,9.828,23.0
116.37,-5.566,9.644,13.0
0.0,0.0,0.0,0.0
0.0,0.0,0.0,0.0
0.0,0.0,0.0,0.0
126.533,-6.033,12.014,13.0
111.57,-5.308,9.999,19.0
116.346,-5.522,9.808,8.0
0.0,0.0,0.0,0.0
0.0,0.0,0.0,0.0
0.0,0.0,0.0,0.0
0.0,0.0,0.0,0.0
112.144,-5.291,10.209,17.0
111.581,-5.251,9.563,18.0
0.0,0.0,0.0,0.0
0.0,0.0,0.0,0.0
0.0,0.0,0.0,0.0
0.0,0.0,0.0,0.0
0.0,0.0,0.0,0.0
0.0,0.0,0.0,0.0
0.0,0.0,0.0,0.0
0.0,0.0,0.0,0.0
0.0,0.0,0.0,0.0
0.0,0.0,0.0,0.0
0.0,0.0,0.0,0.0
0.0,0.0,0.0,0.0
0.0,0.0,0.0,0.0
0.0,0.0,0.0,0.0
0.0,0.0,0.0,0.0
0.0,0.0,0.0,0.0
0.0,0.0,0.0,0.0
0.0,0.0,0.0,0.0
0.0,0.0,0.0,0.0
0.0,0.0,0.0,0.0
0.0,0.0,0.0,0.0
0.0,0.0,0.0,0.0
0.0,0.0,0.0,0.0
0.0,0.0,0.0,0.0
0.0,0.0,0.0,0.0
0.0,0.0,0.0,0.0
0.0,0.0,0.0,0.0
0.0,0.0,0.0,0.0
0.0,0.0,0.0,0.0
0.0,0.0,0.0,0.0
0.0,0.0,0.0,0.0
0.0,0.0,0.0,0.0
0.0,0.0,0.0,0.0
0.0,0.0,0.0,0.0
0.0,0.0,0.0,0.0
0.0,0.0,0.0,0.0
0.0,0.0,0.0,0.0
0.0,0.0,0.0,0.0
0.0,0.0,0.0,0.0
0.0,0.0,0.0,0.0
0.0,0.0,0.0,0.0
0.0,0.0,0.0,0.0
0.0,0.0,0.0,0.0
0.0,0.0,0.0,0.0
0.0,0.0,0.0,0.0
0.0,0.0,0.0,0.0
0.0,0.0,0.0,0.0
0.0,0.0,0.0,0.0
0.0,0.0,0.0,0.0
0.0,0.0,0.0,0.0
0.0,0.0,0.0,0.0
0.0,0.0,0.0,0.0
0.0,0.0,0.0,0.0
0.0,0.0,0.0,0.0
0.0,0.0,0.0,0.0
0.0,0.0,0.0,0.0
0.0,0.0,0.0,0.0
0.0,0.0,0.0,0.0
0.0,0.0,0.0,0.0
0.0,0.0,0.0,0.0
0.0,0.0,0.0,0.0
0.0,0.0,0.0,0.0
0.0,0.0,0.0,0.0
0.0,0.0,0.0,0.0
0.0,0.0,0.0,0.0
0.0,0.0,0.0,0.0
0.0,0.0,0.0,0.0
0.0,0.0,0.0,0.0
0.0,0.0,0.0,0.0
0.0,0.0,0.0,0.0
0.0,0.0,0.0,0.0
0.0,0.0,0.0,0.0
0.0,0.0,0.0,0.0
0.0,0.0,0.0,0.0
0.0,0.0,0.0,0.0
0.0,0.0,0.0,0.0
0.0,0.0,0.0,0.0
0.0,0.0,0.0,0.0
0.0,0.0,0.0,0.0
0.0,0.0,0.0,0.0
0.0,0.0,0.0,0.0
0.0,0.0,0.0,0.0
0.0,0.0,0.0,0.0
0.0,0.0,0.0,0.0
0.0,0.0,0.0,0.0
0.0,0.0,0.0,0.0
0.0,0.0,0.0,0.0
0.0,0.0,0.0,0.0
0.0,0.0,0.0,0.0
0.0,0.0,0.0,0.0
0.0,0.0,0.0,0.0
0.0,0.0,0.0,0.0
0.0,0.0,0.0,0.0
0.0,0.0,0.0,0.0
0.0,0.0,0.0,0.0
0.0,0.0,0.0,0.0
0.0,0.0,0.0,0.0
0.0,0.0,0.0,0.0
0.0,0.0,0.0,0.0
0.0,0.0,0.0,0.0
0.0,0.0,0.0,0.0
0.0,0.0,0.0,0.0
0.0,0.0,0.0,0.0
0.0,0.0,0.0,0.0
0.0,0.0,0.0,0.0
0.0,0.0,0.0,0.0
0.0,0.0,0.0,0.0
0.0,0.0,0.0,0.0
0.0,0.0,0.0,0.0
0.0,0.0,0.0,0.0
0.0,0.0,0.0,0.0
0.0,0.0,0.0,0.0
0.0,0.0,0.0,0.0
0.0,0.0,0.0,0.0
0.0,0.0,0.0,0.0
0.0,0.0,0.0,0.0
0.0,0.0,0.0,0.0
0.0,0.0,0.0,0.0
0.0,0.0,0.0,0.0
0.0,0.0,0.0,0.0
0.0,0.0,0.0,0.0
0.0,0.0,0.0,0.0
55.064,-0.82,7.111,4.0
0.0,0.0,0.0,0.0
0.0,0.0,0.0,0.0
0.0,0.0,0.0,0.0
0.0,0.0,0.0,0.0
0.0,0.0,0.0,0.0
55.101,-0.757,7.111,4.0
0.0,0.0,0.0,0.0
0.0,0.0,0.0,0.0
0.0,0.0,0.0,0.0
0.0,0.0,0.0,0.0
0.0,0.0,0.0,0.0
55.1,-0.693,7.104,4.0
0.0,0.0,0.0,0.0
0.0,0.0,0.0,0.0
0.0,0.0,0.0,0.0
0.0,0.0,0.0,0.0
0.0,0.0,0.0,0.0
55.046,-0.63,7.087,3.0
0.0,0.0,0.0,0.0
0.0,0.0,0.0,0.0
0.0,0.0,0.0,0.0
0.0,0.0,0.0,0.0
0.0,0.0,0.0,0.0
55.112,-0.568,7.083,1.0
0.0,0.0,0.0,0.0
0.0,0.0,0.0,0.0
0.0,0.0,0.0,0.0
0.0,0.0,0.0,0.0
0.0,0.0,0.0,0.0
55.116,-0.504,7.068,2.0
0.0,0.0,0.0,0.0
0.0,0.0,0.0,0.0
0.0,0.0,0.0,0.0
0.0,0.0,0.0,0.0
0.0,0.0,0.0,0.0
55.095,-0.441,7.048,2.0
0.0,0.0,0.0,0.0
0.0,0.0,0.0,0.0
0.0,0.0,0.0,0.0
0.0,0.0,0.0,0.0
0.0,0.0,0.0,0.0
55.099,-0.378,7.029,9.0
0.0,0.0,0.0,0.0
0.0,0.0,0.0,0.0
0.0,0.0,0.0,0.0
0.0,0.0,0.0,0.0
0.0,0.0,0.0,0.0
55.087,-0.314,7.004,7.0
0.0,0.0,0.0,0.0
0.0,0.0,0.0,0.0
0.0,0.0,0.0,0.0
0.0,0.0,0.0,0.0
0.0,0.0,0.0,0.0
55.208,-0.253,6.994,5.0
0.0,0.0,0.0,0.0
0.0,0.0,0.0,0.0
0.0,0.0,0.0,0.0
0.0,0.0,0.0,0.0
0.0,0.0,0.0,0.0
55.251,-0.191,6.972,12.0
0.0,0.0,0.0,0.0
0.0,0.0,0.0,0.0
0.0,0.0,0.0,0.0
0.0,0.0,0.0,0.0
0.0,0.0,0.0,0.0
55.212,-0.13,6.937,15.0
0.0,0.0,0.0,0.0
0.0,0.0,0.0,0.0
0.0,0.0,0.0,0.0
0.0,0.0,0.0,0.0
0.0,0.0,0.0,0.0
55.212,-0.068,6.904,27.0
0.0,0.0,0.0,0.0
0.0,0.0,0.0,0.0
0.0,0.0,0.0,0.0
0.0,0.0,0.0,0.0
0.0,0.0,0.0,0.0
55.22,-0.009,6.87,29.0
0.0,0.0,0.0,0.0
0.0,0.0,0.0,0.0
0.0,0.0,0.0,0.0
0.0,0.0,0.0,0.0
0.0,0.0,0.0,0.0
55.215,0.05,6.831,28.0
0.0,0.0,0.0,0.0
0.0,0.0,0.0,0.0
0.0,0.0,0.0,0.0
0.0,0.0,0.0,0.0
0.0,0.0,0.0,0.0
55.221,0.109,6.791,22.0
0.0,0.0,0.0,0.0
0.0,0.0,0.0,0.0
0.0,0.0,0.0,0.0
0.0,0.0,0.0,0.0
0.0,0.0,0.0,0.0
55.236,0.167,6.75,14.0
0.0,0.0,0.0,0.0
0.0,0.0,0.0,0.0
0.0,0.0,0.0,0.0
0.0,0.0,0.0,0.0
0.0,0.0,0.0,0.0
55.252,0.224,6.707,5.0
0.0,0.0,0.0,0.0
0.0,0.0,0.0,0.0
0.0,0.0,0.0,0.0
0.0,0.0,0.0,0.0
0.0,0.0,0.0,0.0
0.0,0.0,0.0,0.0
0.0,0.0,0.0,0.0
0.0,0.0,0.0,0.0
0.0,0.0,0.0,0.0
0.0,0.0,0.0,0.0
0.0,0.0,0.0,0.0
0.0,0.0,0.0,0.0
0.0,0.0,0.0,0.0
0.0,0.0,0.0,0.0
0.0,0.0,0.0,0.0
0.0,0.0,0.0,0.0
0.0,0.0,0.0,0.0
0.0,0.0,0.0,0.0
0.0,0.0,0.0,0.0
0.0,0.0,0.0,0.0
0.0,0.0,0.0,0.0
0.0,0.0,0.0,0.0
55.217,0.437,6.821,6.0
0.0,0.0,0.0,0.0
0.0,0.0,0.0,0.0
0.0,0.0,0.0,0.0
0.0,0.0,0.0,0.0
0.0,0.0,0.0,0.0
55.225,0.488,6.765,19.0
0.0,0.0,0.0,0.0
0.0,0.0,0.0,0.0
0.0,0.0,0.0,0.0
0.0,0.0,0.0,0.0
0.0,0.0,0.0,0.0
55.236,0.54,6.708,29.0
0.0,0.0,0.0,0.0
0.0,0.0,0.0,0.0
0.0,0.0,0.0,0.0
0.0,0.0,0.0,0.0
0.0,0.0,0.0,0.0
55.228,0.59,6.646,28.0
0.0,0.0,0.0,0.0
0.0,0.0,0.0,0.0
0.0,0.0,0.0,0.0
0.0,0.0,0.0,0.0
0.0,0.0,0.0,0.0
55.228,0.639,6.583,29.0
0.0,0.0,0.0,0.0
0.0,0.0,0.0,0.0
0.0,0.0,0.0,0.0
0.0,0.0,0.0,0.0
0.0,0.0,0.0,0.0
55.227,0.687,6.518,25.0
0.0,0.0,0.0,0.0
0.0,0.0,0.0,0.0
0.0,0.0,0.0,0.0
0.0,0.0,0.0,0.0
0.0,0.0,0.0,0.0
55.233,0.734,6.451,20.0
0.0,0.0,0.0,0.0
0.0,0.0,0.0,0.0
0.0,0.0,0.0,0.0
0.0,0.0,0.0,0.0
0.0,0.0,0.0,0.0
55.238,0.778,6.382,18.0
0.0,0.0,0.0,0.0
0.0,0.0,0.0,0.0
0.0,0.0,0.0,0.0
0.0,0.0,0.0,0.0
0.0,0.0,0.0,0.0
55.23,0.822,6.31,20.0
0.0,0.0,0.0,0.0
0.0,0.0,0.0,0.0
0.0,0.0,0.0,0.0
0.0,0.0,0.0,0.0
0.0,0.0,0.0,0.0
55.235,0.864,6.238,25.0
0.0,0.0,0.0,0.0
0.0,0.0,0.0,0.0
55.171,0.877,5.261,0.0
55.201,0.882,4.943,0.0
0.0,0.0,0.0,0.0
55.245,0.905,6.164,55.0
55.25,0.909,5.842,16.0
55.244,0.914,5.513,24.0
55.237,0.918,5.191,29.0
55.225,0.922,4.87,43.0
0.0,0.0,0.0,0.0
55.22,0.943,6.084,70.0
55.224,0.947,5.762,73.0
55.213,0.951,5.433,72.0
55.204,0.956,5.111,73.0
55.209,0.96,4.79,71.0
0.0,0.0,0.0,0.0
55.225,0.981,6.005,45.0
55.22,0.984,5.682,50.0
55.224,0.988,5.355,47.0
55.228,0.992,5.034,43.0
55.221,0.996,4.713,39.0
0.0,0.0,0.0,0.0
55.244,1.017,5.927,0.0
55.176,1.019,5.598,0.0
55.238,1.023,5.276,0.0
0.0,0.0,0.0,0.0
0.0,0.0,0.0,0.0
0.0,0.0,0.0,0.0
0.0,0.0,0.0,0.0
0.0,0.0,0.0,0.0
0.0,0.0,0.0,0.0
0.0,0.0,0.0,0.0
0.0,0.0,0.0,0.0
0.0,0.0,0.0,0.0
0.0,0.0,0.0,0.0
0.0,0.0,0.0,0.0
0.0,0.0,0.0,0.0
0.0,0.0,0.0,0.0
0.0,0.0,0.0,0.0
0.0,0.0,0.0,0.0
0.0,0.0,0.0,0.0
0.0,0.0,0.0,0.0
0.0,0.0,0.0,0.0
0.0,0.0,0.0,0.0
129.429,2.635,10.264,5.0
0.0,0.0,0.0,0.0
0.0,0.0,0.0,0.0
0.0,0.0,0.0,0.0
0.0,0.0,0.0,0.0
0.0,0.0,0.0,0.0
129.322,2.697,10.051,11.0
0.0,0.0,0.0,0.0
0.0,0.0,0.0,0.0
0.0,0.0,0.0,0.0
0.0,0.0,0.0,0.0
0.0,0.0,0.0,0.0
129.576,2.763,9.863,2.0
0.0,0.0,0.0,0.0
0.0,0.0,0.0,0.0
0.0,0.0,0.0,0.0
0.0,0.0,0.0,0.0
0.0,0.0,0.0,0.0
127.198,2.768,9.474,11.0
0.0,0.0,0.0,0.0
0.0,0.0,0.0,0.0
0.0,0.0,0.0,0.0
0.0,0.0,0.0,0.0
0.0,0.0,0.0,0.0
127.143,2.816,9.258,26.0
0.0,0.0,0.0,0.0
0.0,0.0,0.0,0.0
0.0,0.0,0.0,0.0
0.0,0.0,0.0,0.0
0.0,0.0,0.0,0.0
127.134,2.863,9.043,24.0
0.0,0.0,0.0,0.0
0.0,0.0,0.0,0.0
0.0,0.0,0.0,0.0
0.0,0.0,0.0,0.0
127.185,2.904,9.569,6.0
127.078,2.905,8.82,23.0
0.0,0.0,0.0,0.0
0.0,0.0,0.0,0.0
0.0,0.0,0.0,0.0
0.0,0.0,0.0,0.0
127.165,2.942,9.346,24.0
121.632,2.816,8.231,15.0
0.0,0.0,0.0,0.0
0.0,0.0,0.0,0.0
0.0,0.0,0.0,0.0
0.0,0.0,0.0,0.0
127.212,2.978,9.126,19.0
121.554,2.846,8.012,24.0
0.0,0.0,0.0,0.0
0.0,0.0,0.0,0.0
0.0,0.0,0.0,0.0
127.378,3.01,9.655,10.0
127.167,3.006,8.898,17.0
121.488,2.871,7.793,19.0
0.0,0.0,0.0,0.0
0.0,0.0,0.0,0.0
0.0,0.0,0.0,0.0
127.251,3.033,9.419,25.0
121.45,2.894,8.282,20.0
121.428,2.892,7.572,12.0
0.0,0.0,0.0,0.0
0.0,0.0,0.0,0.0
0.0,0.0,0.0,0.0
127.074,3.049,9.177,22.0
121.498,2.913,8.066,25.0
133.9,3.21,8.111,22.0
0.0,0.0,0.0,0.0
0.0,0.0,0.0,0.0
127.321,3.072,9.719,8.0
127.008,3.063,8.942,13.0
121.417,2.926,7.839,19.0
133.76,3.222,7.856,22.0
0.0,0.0,0.0,0.0
0.0,0.0,0.0,0.0
127.263,3.083,9.48,27.0
121.338,2.938,8.317,22.0
121.407,2.936,7.614,17.0
133.972,3.237,7.623,13.0
0.0,0.0,0.0,0.0
0.0,0.0,0.0,0.0
127.123,3.087,9.232,25.0
121.466,2.946,8.099,23.0
134.02,3.248,8.155,16.0
121.366,2.937,6.678,6.0
0.0,0.0,0.0,0.0
127.353,3.099,9.755,4.0
127.023,3.087,8.987,9.0
121.373,2.945,7.866,22.0
133.911,3.246,7.898,21.0
120.855,2.925,6.425,8.0
0.0,0.0,0.0,0.0
127.25,3.095,9.508,24.0
121.354,2.946,8.357,20.0
121.348,2.941,7.635,18.0
133.961,3.242,7.646,13.0
120.985,2.924,6.202,11.0
0.0,0.0,0.0,0.0
127.146,3.085,9.256,23.0
121.471,2.942,8.134,23.0
133.938,3.238,8.172,20.0
121.376,2.929,6.697,5.0
121.08,2.917,5.974,17.0
127.257,3.082,9.765,5.0
127.107,3.072,9.009,11.0
121.391,2.928,7.894,21.0
133.774,3.22,7.904,23.0
120.887,2.904,6.439,10.0
129.105,3.095,6.124,14.0
127.207,3.064,9.515,24.0
121.349,2.917,8.367,18.0
121.39,2.911,7.66,13.0
133.851,3.204,7.653,12.0
121.085,2.891,6.216,18.0
128.938,3.072,5.868,13.0
127.183,3.043,9.267,23.0
121.494,2.9,8.143,24.0
133.748,3.184,8.182,20.0
129.606,3.078,7.159,9.0
121.182,2.871,5.988,16.0
129.061,3.05,5.625,6.0
127.141,3.017,9.019,18.0
121.53,2.875,7.911,22.0
133.756,3.156,7.925,25.0
133.627,3.145,7.124,10.0
129.092,3.03,6.129,10.0
121.389,2.841,5.057,11.0
121.619,2.856,8.389,12.0
133.483,3.126,8.427,12.0
133.755,3.122,7.661,19.0
129.492,3.013,6.648,12.0
114.317,2.652,5.201,11.0
121.298,2.805,4.812,17.0
25.104,-1.507,-0.682,0.0
22.304,-1.347,-0.732,0.0
20.075,-1.219,-0.772,0.0
18.245,-1.114,-0.806,0.0
16.711,-1.026,-0.832,0.0
15.341,-0.947,-0.851,0.0
25.016,-1.548,-0.691,0.0
22.084,-1.373,-0.734,0.0
20.119,-1.258,-0.782,0.0
18.094,-1.138,-0.807,0.0
16.617,-1.05,-0.835,0.0
15.164,-0.964,-0.847,0.0
0.0,0.0,0.0,0.0
22.107,-1.415,-0.744,0.0
19.81,-1.274,-0.778,0.0
18.083,-1.169,-0.813,0.0
16.401,-1.066,-0.83,0.0
15.101,-0.987,-0.849,0.0
24.535,-1.606,-0.697,0.0
21.747,-1.431,-0.74,0.0
19.757,-1.307,-0.783,0.0
17.933,-1.192,-0.813,0.0
16.439,-1.099,-0.838,0.0
15.004,-1.008,-0.849,0.0
24.348,-1.638,-0.699,0.0
21.666,-1.465,-0.744,0.0
19.503,-1.325,-0.779,0.0
17.781,-1.214,-0.812,0.0
16.346,-1.122,-0.838,0.0
14.943,-1.031,-0.85,0.0
24.092,-1.664,-0.699,0.0
21.64,-1.502,-0.749,0.0
19.563,-1.364,-0.786,0.0
17.799,-1.247,-0.817,0.0
16.254,-1.145,-0.837,0.0
14.88,-1.053,-0.85,0.0
23.834,-1.688,-0.697,0.0
21.473,-1.528,-0.748,0.0
19.467,-1.392,-0.787,0.0
17.649,-1.268,-0.814,0.0
15.832,-1.143,-0.819,1.0
14.831,-1.076,-0.851,0.0
24.092,-1.749,-0.71,0.0
21.424,-1.563,-0.751,0.0
19.314,-1.415,-0.785,0.0
17.66,-1.3,-0.818,0.0
16.18,-1.197,-0.84,0.0
14.747,-1.096,-0.848,0.0
23.573,-1.753,-0.698,0.0
21.521,-1.608,-0.758,0.0
19.375,-1.454,-0.79,0.0
17.548,-1.323,-0.816,0.0
16.138,-1.222,-0.84,0.0
14.769,-1.124,-0.852,0.0
23.909,-1.82,-0.711,0.0
21.373,-1.634,-0.755,0.0
19.356,-1.486,-0.792,0.0
17.424,-1.344,-0.812,0.0
16.168,-1.253,-0.843,0.0
14.724,-1.146,-0.85,0.0
23.841,-1.856,-0.711,0.0
21.379,-1.672,-0.757,0.0
19.347,-1.519,-0.793,0.0
17.436,-1.375,-0.813,0.0
16.062,-1.272,-0.839,0.0
14.776,-1.175,-0.854,0.0
23.767,-1.891,-0.71,0.0
21.178,-1.692,-0.75,0.0
19.123,-1.534,-0.784,0.0
17.427,-1.404,-0.813,0.0
16.107,-1.303,-0.841,0.0
14.742,-1.198,-0.852,0.0
23.861,-1.94,-0.713,0.0
21.34,-1.741,-0.756,0.0
19.27,-1.579,-0.79,0.0
17.563,-1.445,-0.819,0.0
16.173,-1.336,-0.845,0.0
14.824,-1.23,-0.857,0.0
23.487,-1.949,-0.701,0.0
21.272,-1.772,-0.753,0.0
19.164,-1.602,-0.785,0.0
17.534,-1.472,-0.817,0.0
16.259,-1.37,-0.848,0.0
14.814,-1.254,-0.855,0.0
23.967,-2.029,-0.714,0.0
21.325,-1.812,-0.753,0.0
19.433,-1.657,-0.794,0.0
17.533,-1.501,-0.816,0.0
16.175,-1.39,-0.842,0.0
14.802,-1.277,-0.853,0.0
24.119,-2.081,-0.715,0.0
21.586,-1.87,-0.76,0.0
19.671,-1.71,-0.801,0.0
17.61,-1.537,-0.817,0.0
16.19,-1.418,-0.841,0.0
14.822,-1.303,-0.852,0.0
10.342,0.36,-0.889,0.0
9.823,0.341,-0.901,0.0
9.314,0.323,-0.909,0.0
8.872,0.308,-0.918,0.0
8.4,0.291,-0.918,0.0
8.058,0.279,-0.928,0.0
10.183,0.349,-0.89,0.0
9.656,0.331,-0.9,0.0
9.143,0.313,-0.905,0.0
8.697,0.297,-0.912,0.0
8.302,0.283,-0.919,0.0
7.953,0.271,-0.927,0.0
10.094,0.341,-0.896,0.0
9.55,0.322,-0.903,0.0
9.09,0.306,-0.913,0.0
8.622,0.29,-0.916,0.0
8.247,0.277,-0.925,0.0
7.888,0.264,-0.931,0.0
9.907,0.329,-0.893,0.0
9.433,0.312,-0.905,0.0
8.973,0.297,-0.913,0.0
8.512,0.281,-0.916,0.0
8.134,0.268,-0.923,0.0
7.812,0.257,-0.932,0.0
9.858,0.321,-0.902,0.0
9.342,0.304,-0.909,0.0
8.883,0.288,-0.915,0.0
8.416,0.273,-0.917,0.0
8.076,0.261,-0.927,0.0
7.721,0.249,-0.932,0.0
9.643,0.308,-0.894,0.0
9.226,0.294,-0.909,0.0
8.738,0.278,-0.912,0.0
8.34,0.265,-0.92,0.0
7.962,0.252,-0.924,0.0
7.644,0.242,-0.932,0.0
9.584,0.3,-0.901,0.0
9.068,0.283,-0.905,0.0
8.677,0.27,-0.916,0.0
8.274,0.257,-0.923,0.0
7.951,0.247,-0.933,0.0
7.591,0.235,-0.935,0.0
9.493,0.291,-0.904,0.0
9.02,0.275,-0.911,0.0
8.608,0.262,-0.92,0.0
8.205,0.249,-0.925,0.0
7.849,0.238,-0.93,0.0
7.528,0.228,-0.936,0.0
9.382,0.281,-0.905,0.0
8.903,0.265,-0.91,0.0
8.495,0.253,-0.918,0.0
8.107,0.24,-0.924,0.0
7.802,0.231,-0.934,0.0
7.475,0.22,-0.939,0.0
9.286,0.271,-0.906,0.0
8.844,0.257,-0.914,0.0
8.401,0.243,-0.917,0.0
8.042,0.232,-0.925,0.0
7.73,0.223,-0.934,0.0
7.411,0.213,-0.939,0.0
9.193,0.261,-0.907,0.0
8.734,0.247,-0.913,0.0
8.339,0.235,-0.92,0.0
7.981,0.224,-0.927,0.0
7.677,0.215,-0.937,0.0
7.366,0.206,-0.941,0.0
9.083,0.251,-0.907,0.0
8.684,0.239,-0.917,0.0
8.268,0.226,-0.921,0.0
7.902,0.216,-0.927,0.0
7.621,0.207,-0.938,0.0
7.306,0.198,-0.942,0.0
9.02,0.241,-0.91,0.0
8.571,0.229,-0.914,0.0
8.224,0.218,-0.924,0.0
7.87,0.208,-0.931,0.0
7.535,0.199,-0.935,0.0
7.26,0.191,-0.943,0.0
8.935,0.232,-0.91,0.0
8.525,0.22,-0.918,0.0
8.197,0.211,-0.93,0.0
7.831,0.201,-0.934,0.0
7.488,0.191,-0.937,0.0
7.236,0.184,-0.947,0.0
8.912,0.223,-0.916,0.0
8.467,0.211,-0.92,0.0
8.09,0.201,-0.925,0.0
7.741,0.191,-0.931,0.0
7.467,0.184,-0.941,0.0
7.197,0.176,-0.949,0.0
8.825,0.213,-0.916,0.0
8.387,0.202,-0.919,0.0
8.043,0.193,-0.927,0.0
7.686,0.183,-0.931,0.0
7.415,0.176,-0.942,0.0
7.14,0.168,-0.948,0.0
9.602,-0.248,-0.916,0.0
9.168,-0.238,-0.924,0.0
8.737,-0.228,-0.928,0.0
8.351,-0.22,-0.933,0.0
8.017,-0.212,-0.939,0.0
7.671,-0.204,-0.94,0.0
9.714,-0.258,-0.915,0.0
9.271,-0.248,-0.923,0.0
8.821,-0.237,-0.926,0.0
8.435,-0.228,-0.932,0.0
8.106,-0.22,-0.939,0.0
7.769,-0.212,-0.942,0.0
9.842,-0.268,-0.915,0.0
9.379,-0.257,-0.922,0.0
8.942,-0.246,-0.927,0.0
8.524,-0.236,-0.93,0.0
8.179,-0.228,-0.937,0.0
7.854,-0.22,-0.942,0.0
9.962,-0.278,-0.913,0.0
9.498,-0.266,-0.921,0.0
9.038,-0.255,-0.925,0.0
8.631,-0.245,-0.931,0.0
8.28,-0.236,-0.937,0.0
7.944,-0.228,-0.942,0.0
10.081,-0.288,-0.91,0.0
9.575,-0.275,-0.916,0.0
9.147,-0.264,-0.924,0.0
8.709,-0.252,-0.927,0.0
8.356,-0.243,-0.934,0.0
8.029,-0.235,-0.941,0.0
10.209,-0.298,-0.908,0.0
9.731,-0.285,-0.917,0.0
9.284,-0.273,-0.925,0.0
8.836,-0.261,-0.928,0.0
8.446,-0.251,-0.933,0.0
8.129,-0.243,-0.941,0.0
10.345,-0.307,-0.905,0.0
9.88,-0.295,-0.917,0.0
9.379,-0.281,-0.921,0.0
8.979,-0.27,-0.93,0.0
8.564,-0.259,-0.933,0.0
8.213,-0.25,-0.939,0.0
10.53,-0.319,-0.906,0.0
9.998,-0.304,-0.914,0.0
9.514,-0.29,-0.92,0.0
9.066,-0.278,-0.926,0.0
8.666,-0.267,-0.932,0.0
8.303,-0.257,-0.937,0.0
10.668,-0.328,-0.903,0.0
10.153,-0.314,-0.913,0.0
9.655,-0.299,-0.92,0.0
9.166,-0.285,-0.923,0.0
8.764,-0.274,-0.929,0.0
8.395,-0.263,-0.935,0.0
10.838,-0.339,-0.901,0.0
10.295,-0.323,-0.911,0.0
9.792,-0.308,-0.918,0.0
9.307,-0.294,-0.923,0.0
8.91,-0.283,-0.931,0.0
8.513,-0.271,-0.935,0.0
11.038,-0.35,-0.901,0.0
10.41,-0.331,-0.905,0.0
9.929,-0.317,-0.916,0.0
9.458,-0.303,-0.924,0.0
9.024,-0.29,-0.929,0.0
8.614,-0.278,-0.933,0.0
11.186,-0.359,-0.896,0.0
10.609,-0.342,-0.906,0.0
10.105,-0.327,-0.916,0.0
9.591,-0.311,-0.921,0.0
9.122,-0.297,-0.925,0.0
8.731,-0.285,-0.932,0.0
11.369,-0.369,-0.893,0.0
10.777,-0.351,-0.903,0.0
10.225,-0.334,-0.911,0.0
9.706,-0.318,-0.917,0.0
9.247,-0.304,-0.923,0.0
8.84,-0.292,-0.929,0.0
11.594,-0.381,-0.892,0.0
11.018,-0.363,-0.905,0.0
10.423,-0.344,-0.911,0.0
9.899,-0.328,-0.919,0.0
9.428,-0.313,-0.925,0.0
8.99,-0.299,-0.93,0.0
11.792,-0.391,-0.888,0.0
11.151,-0.371,-0.898,0.0
10.574,-0.352,-0.907,0.0
10.064,-0.336,-0.918,0.0
9.564,-0.32,-0.923,0.0
9.104,-0.306,-0.927,0.0
12.025,-0.402,-0.886,0.0
11.3,-0.378,-0.892,0.0
10.754,-0.361,-0.905,0.0
10.206,-0.343,-0.914,0.0
9.699,-0.327,-0.92,0.0
9.297,-0.314,-0.931,0.0
17.857,-0.575,-0.771,1.0
17.191,-0.553,-0.831,0.0
15.65,-0.502,-0.838,0.0
14.541,-0.466,-0.855,0.0
13.479,-0.431,-0.863,0.0
12.63,-0.403,-0.874,0.0
17.828,-0.566,-0.736,2.0
17.734,-0.562,-0.824,2.0
15.698,-0.497,-0.81,0.0
14.935,-0.472,-0.85,0.0
13.904,-0.438,-0.863,0.0
12.885,-0.406,-0.867,0.0
17.804,-0.557,-0.701,151.0
17.776,-0.555,-0.792,2.0
17.455,-0.544,-0.868,0.0
15.366,-0.478,-0.845,0.0
14.293,-0.444,-0.861,0.0
17.811,-0.552,-1.165,0.0
17.786,-0.548,-0.667,155.0
17.798,-0.547,-0.759,3.0
17.548,-0.538,-0.839,0.0
17.787,-0.544,-0.945,1.0
14.669,-0.447,-0.855,0.0
17.806,-0.542,-1.131,1.0
17.788,-0.538,-0.633,155.0
17.784,-0.536,-0.725,39.0
17.743,-0.534,-0.815,2.0
17.663,-0.53,-0.905,5.0
15.048,-0.45,-0.849,0.0
17.804,-0.531,-1.097,0.0
17.804,-0.528,-0.6,150.0
17.758,-0.525,-0.69,158.0
17.794,-0.525,-0.784,6.0
17.633,-0.518,-0.869,3.0
17.81,-0.522,-0.97,0.0
14.457,-0.422,-0.863,0.0
17.82,-0.517,-0.566,11.0
17.76,-0.514,-0.656,164.0
17.787,-0.513,-0.749,8.0
17.582,-0.505,-0.833,0.0
0.0,0.0,0.0,0.0
14.819,-0.423,-0.856,0.0
17.816,-0.505,-0.532,0.0
17.804,-0.503,-0.624,153.0
17.795,-0.501,-0.715,150.0
17.747,-0.498,-0.807,4.0
17.635,-0.493,-0.893,3.0
15.203,-0.423,-0.849,0.0
24.934,-0.689,-0.697,0.0
17.814,-0.49,-0.59,7.0
17.798,-0.488,-0.682,153.0
17.773,-0.485,-0.775,9.0
17.574,-0.478,-0.857,1.0
17.816,-0.482,-0.961,0.0
26.041,-0.7,-0.679,0.0
17.774,-0.476,-0.555,0.0
17.808,-0.474,-0.648,152.0
17.79,-0.472,-0.742,8.0
17.68,-0.467,-0.829,1.0
17.786,-0.468,-0.926,0.0
27.856,-0.727,-0.673,0.0
24.32,-0.632,-0.714,0.0
17.818,-0.461,-0.615,0.0
17.79,-0.458,-0.708,12.0
17.792,-0.455,-0.8,2.0
17.212,-0.438,-0.863,0.0
28.825,-0.729,-0.643,0.0
25.147,-0.632,-0.691,0.0
22.467,-0.562,-0.733,0.0
20.42,-0.508,-0.774,0.0
17.995,-0.445,-0.775,0.0
17.335,-0.426,-0.837,0.0
30.117,-0.735,-0.615,0.0
21.725,-0.527,-0.555,0.0
21.721,-0.524,-0.668,0.0
21.442,-0.514,-0.773,0.0
19.433,-0.463,-0.801,0.0
17.765,-0.421,-0.825,1.0
31.767,-0.747,-0.589,0.0
0.0,0.0,0.0,0.0
21.728,-0.505,-0.628,150.0
21.656,-0.5,-0.74,7.0
20.017,-0.459,-0.788,1.0
18.079,-0.411,-0.805,0.0
33.428,-0.755,-0.558,0.0
21.726,-0.487,-0.475,0.0
21.711,-0.483,-0.587,156.0
21.695,-0.48,-0.701,7.0
20.69,-0.454,-0.776,0.0
19.015,-0.414,-0.812,0.0
0.0,0.0,0.0,0.0
30.353,-0.651,-0.608,0.0
21.724,-0.462,-0.548,153.0
21.713,-0.458,-0.662,151.0
21.59,-0.452,-0.77,3.0
19.525,-0.406,-0.798,1.0
0.0,0.0,0.0,0.0
0.0,0.0,0.0,0.0
40.108,1.129,0.939,79.0
40.121,1.141,0.72,123.0
40.125,1.153,0.505,150.0
40.13,1.165,0.29,130.0
40.124,1.18,1.409,144.0
40.123,1.192,1.193,150.0
40.117,1.204,0.978,150.0
40.115,1.216,0.758,150.0
40.119,1.227,0.543,150.0
40.126,1.24,0.328,110.0
40.123,1.255,1.446,148.0
40.125,1.267,1.23,150.0
40.115,1.278,1.015,150.0
40.122,1.29,0.795,150.0
40.118,1.302,0.579,150.0
40.127,1.315,0.364,150.0
120.17,3.988,4.442,11.0
120.832,4.045,3.816,18.0
121.381,4.099,3.178,14.0
162.387,5.531,3.362,4.0
70.868,2.434,1.085,3.0
70.915,2.457,0.704,24.0
120.339,4.218,4.551,13.0
120.851,4.273,3.919,20.0
44.879,1.6,1.213,2.0
44.986,1.616,0.969,44.0
44.629,1.617,0.72,90.0
44.184,1.614,0.475,103.0
120.378,4.447,4.652,14.0
162.63,6.056,5.406,9.0
42.061,1.579,1.171,81.0
41.899,1.585,0.936,73.0
41.632,1.587,0.705,87.0
41.567,1.597,0.479,150.0
178.659,6.94,7.045,19.0
179.1,7.009,6.093,6.0
40.378,1.591,1.155,112.0
40.383,1.604,0.933,111.0
40.387,1.616,0.714,103.0
40.375,1.627,0.496,39.0
178.878,7.29,7.188,12.0
183.219,7.518,6.368,6.0
45.181,1.867,1.325,1.0
100.537,4.185,2.395,10.0
23.625,0.99,0.434,1.0
23.623,0.997,0.306,24.0
23.618,1.007,0.965,37.0
23.615,1.013,0.837,42.0
23.605,1.02,0.708,44.0
23.598,1.027,0.578,45.0
23.598,1.034,0.45,48.0
23.591,1.04,0.322,59.0
23.582,1.05,0.98,71.0
23.586,1.058,0.852,70.0
23.579,1.064,0.723,83.0
23.585,1.071,0.593,70.0
23.593,1.079,0.465,69.0
23.587,1.085,0.337,69.0
23.572,1.095,0.994,65.0
23.589,1.103,0.866,50.0
23.595,1.11,0.738,41.0
23.604,1.117,0.607,38.0
23.622,1.125,0.48,39.0
23.623,1.132,0.351,40.0
23.606,1.142,1.009,9.0
23.627,1.15,0.881,2.0
23.59,1.155,0.752,0.0
45.165,2.224,1.189,3.0
45.215,2.24,0.944,0.0
45.232,2.253,0.698,1.0
179.902,9.051,7.796,13.0
179.647,9.087,6.802,10.0
162.544,8.269,5.268,11.0
45.174,2.31,1.212,5.0
207.736,10.687,4.444,9.0
0.0,0.0,0.0,0.0
214.168,11.182,9.39,8.0
180.28,9.463,6.917,19.0
162.656,8.585,5.352,10.0
45.193,2.397,1.235,67.0
45.211,2.411,0.988,50.0
45.218,2.424,0.742,6.0
0.0,0.0,0.0,0.0
180.843,9.835,7.022,17.0
162.579,8.886,5.423,8.0
45.171,2.482,1.255,12.0
45.187,2.495,1.008,0.0
45.214,2.51,0.761,3.0
0.0,0.0,0.0,0.0
198.998,11.201,7.811,7.0
162.652,9.201,5.493,8.0
45.194,2.569,1.274,11.0
0.0,0.0,0.0,0.0
0.0,0.0,0.0,0.0
203.561,11.788,9.187,9.0
200.331,11.656,7.94,7.0
162.624,9.506,5.553,5.0
45.208,2.654,1.29,15.0
45.207,2.667,1.042,150.0
112.015,6.639,1.97,80.0
202.051,12.08,9.188,7.0
0.0,0.0,0.0,0.0
197.888,11.941,6.823,9.0
45.179,2.738,1.304,6.0
133.324,8.117,3.118,21.0
45.163,2.762,0.808,0.0
198.769,12.257,9.101,7.0
0.0,0.0,0.0,0.0
0.0,0.0,0.0,0.0
45.167,2.822,1.317,4.0
112.454,7.056,2.662,17.0
112.428,7.086,2.043,56.0
100.62,6.395,4.634,5.0
100.341,6.404,4.068,8.0
100.064,6.413,3.505,18.0
99.978,6.435,2.941,21.0
45.193,2.92,1.08,91.0
45.211,2.934,0.832,104.0
99.952,6.54,4.627,37.0
99.959,6.566,4.075,36.0
99.975,6.594,3.524,35.0
99.965,6.619,2.962,32.0
44.437,2.954,1.071,82.0
44.249,2.954,0.823,90.0
99.968,6.727,4.647,33.0
99.976,6.753,4.095,35.0
99.982,6.78,3.542,36.0
99.95,6.805,2.978,25.0
43.144,2.948,1.047,80.0
41.041,2.815,0.769,9.0
99.98,6.913,4.663,32.0
