X,Y,Z,Reflectivity
19.696,-0.056,0.074,14.0
19.713,-0.06,-0.039,16.0
19.717,-0.064,-0.156,15.0
19.748,-0.068,-0.27,14.0
19.77,-0.072,-0.385,13.0
19.706,-0.076,0.153,16.0
19.7,-0.08,0.039,14.0
19.709,-0.084,-0.074,12.0
19.711,-0.088,-0.19,16.0
19.747,-0.092,-0.305,15.0
19.747,-0.096,-0.42,16.0
19.723,-0.1,0.119,13.0
19.715,-0.104,0.005,12.0
19.712,-0.108,-0.109,15.0
19.724,-0.112,-0.225,17.0
19.743,-0.117,-0.34,16.0
19.74,-0.121,-0.454,17.0
19.765,-0.125,0.085,6.0
19.762,-0.129,-0.028,8.0
19.719,-0.133,-0.143,16.0
19.72,-0.138,-0.259,17.0
19.738,-0.142,-0.374,17.0
19.741,-0.146,-0.488,19.0
19.786,-0.151,0.051,0.0
19.758,-0.155,-0.063,10.0
19.741,-0.16,-0.177,13.0
19.741,-0.164,-0.293,12.0
19.741,-0.168,-0.407,13.0
19.753,-0.173,-0.522,9.0
0.0,0.0,0.0,0.0
19.793,-0.182,-0.096,2.0
19.769,-0.186,-0.21,7.0
19.762,-0.191,-0.327,5.0
19.781,-0.195,-0.442,0.0
24.649,-0.249,-0.693,0.0
0.0,0.0,0.0,0.0
0.0,0.0,0.0,0.0
0.0,0.0,0.0,0.0
30.817,-0.339,-0.56,0.0
27.107,-0.304,-0.65,0.0
23.54,-0.269,-0.7,0.0
0.0,0.0,0.0,0.0
0.0,0.0,0.0,0.0
35.002,-0.425,-0.487,0.0
29.908,-0.37,-0.592,0.0
26.007,-0.328,-0.665,0.0
22.812,-0.293,-0.716,0.0
0.0,0.0,0.0,0.0
0.0,0.0,0.0,0.0
33.639,-0.456,-0.522,0.0
28.996,-0.4,-0.62,0.0
25.19,-0.353,-0.685,0.0
22.187,-0.317,-0.731,0.0
0.0,0.0,0.0,0.0
0.0,0.0,0.0,0.0
30.895,-0.463,-0.528,0.0
27.398,-0.417,-0.629,0.0
24.216,-0.375,-0.696,0.0
21.481,-0.338,-0.742,0.0
0.0,0.0,0.0,0.0
0.0,0.0,0.0,0.0
30.486,-0.501,-0.568,0.0
26.499,-0.442,-0.649,0.0
23.292,-0.394,-0.705,0.0
20.787,-0.357,-0.75,0.0
0.0,0.0,0.0,0.0
34.824,-0.615,-0.5,0.0
29.96,-0.537,-0.603,0.0
21.707,-0.394,-0.564,0.0
21.735,-0.4,-0.691,3.0
20.252,-0.378,-0.761,0.0
0.0,0.0,0.0,0.0
32.902,-0.631,-0.522,0.0
21.836,-0.424,-0.472,0.0
21.727,-0.428,-0.597,153.0
21.672,-0.432,-0.721,6.0
19.87,-0.401,-0.775,1.0
0.0,0.0,0.0,0.0
0.0,0.0,0.0,0.0
21.69,-0.454,-0.5,26.0
21.706,-0.46,-0.628,153.0
21.599,-0.464,-0.749,3.0
19.371,-0.421,-0.784,0.0
0.0,0.0,0.0,0.0
30.11,-0.67,-0.564,0.0
21.728,-0.489,-0.532,151.0
21.712,-0.494,-0.659,6.0
21.005,-0.484,-0.758,0.0
18.937,-0.441,-0.793,0.0
34.862,-0.821,-0.501,0.0
29.728,-0.708,-0.598,0.0
21.706,-0.522,-0.562,1.0
22.037,-0.536,-0.699,0.0
20.235,-0.498,-0.759,0.0
17.886,-0.445,-0.773,1.0
32.939,-0.827,-0.518,0.0
28.763,-0.73,-0.618,0.0
25.067,-0.643,-0.682,0.0
22.032,-0.571,-0.728,0.0
17.808,-0.466,-0.691,64.0
17.764,-0.47,-0.792,3.0
31.787,-0.849,-0.542,0.0
0.0,0.0,0.0,0.0
24.38,-0.664,-0.695,0.0
17.805,-0.49,-0.612,151.0
17.788,-0.494,-0.714,26.0
17.694,-0.496,-0.812,4.0
31.572,-0.894,-0.578,0.0
26.811,-0.766,-0.645,0.0
17.819,-0.514,-0.531,3.0
17.769,-0.517,-0.633,161.0
17.79,-0.523,-0.736,9.0
17.587,-0.522,-0.829,1.0
30.035,-0.899,-0.588,0.0
26.249,-0.793,-0.664,0.0
17.825,-0.543,-0.553,1.0
17.758,-0.546,-0.655,155.0
17.805,-0.553,-0.759,3.0
17.495,-0.548,-0.846,0.0
29.232,-0.922,-0.607,0.0
25.515,-0.812,-0.676,0.0
22.542,-0.724,-0.726,0.0
17.787,-0.576,-0.677,3.0
17.859,-0.584,-0.782,1.0
16.526,-0.545,-0.819,0.0
28.346,-0.941,-0.622,0.0
24.96,-0.836,-0.691,0.0
21.943,-0.741,-0.733,0.0
19.767,-0.673,-0.775,0.0
17.8,-0.611,-0.8,1.0
16.259,-0.563,-0.825,0.0
0.0,0.0,0.0,0.0
24.132,-0.848,-0.695,0.0
21.423,-0.759,-0.74,0.0
19.391,-0.693,-0.783,0.0
17.583,-0.634,-0.811,0.0
15.985,-0.581,-0.829,0.0
26.05,-0.952,-0.631,0.0
23.599,-0.87,-0.706,0.0
21.025,-0.781,-0.75,0.0
19.08,-0.715,-0.791,0.0
17.311,-0.653,-0.817,0.0
15.71,-0.598,-0.832,0.0
26.055,-0.997,-0.659,0.0
23.109,-0.891,-0.716,0.0
20.677,-0.803,-0.759,0.0
18.654,-0.73,-0.793,0.0
17.054,-0.673,-0.823,0.0
15.47,-0.615,-0.835,0.0
25.601,-1.023,-0.674,0.0
22.562,-0.908,-0.722,0.0
20.276,-0.822,-0.765,0.0
18.322,-0.749,-0.798,0.0
16.76,-0.69,-0.826,0.0
15.297,-0.634,-0.841,0.0
25.087,-1.046,-0.685,0.0
22.142,-0.93,-0.731,0.0
19.928,-0.843,-0.772,0.0
18.038,-0.768,-0.803,0.0
16.44,-0.705,-0.826,0.0
15.083,-0.652,-0.844,0.0
24.546,-1.065,-0.694,0.0
21.753,-0.951,-0.739,0.0
19.522,-0.859,-0.774,0.0
17.795,-0.789,-0.809,0.0
16.128,-0.72,-0.825,0.0
14.872,-0.668,-0.846,0.0
24.224,-1.093,-0.707,0.0
21.194,-0.963,-0.739,0.0
19.39,-0.887,-0.787,0.0
17.495,-0.806,-0.811,0.0
16.001,-0.742,-0.833,0.0
14.666,-0.685,-0.847,0.0
23.773,-1.115,-0.714,0.0
20.784,-0.981,-0.743,0.0
18.806,-0.893,-0.779,0.0
17.309,-0.828,-0.817,0.0
15.748,-0.758,-0.834,0.0
14.553,-0.705,-0.853,0.0
22.994,-1.118,-0.71,0.0
20.723,-1.014,-0.758,0.0
18.85,-0.928,-0.797,0.0
17.086,-0.847,-0.821,0.0
15.522,-0.774,-0.834,0.0
14.345,-0.72,-0.853,0.0
22.809,-1.149,-0.723,0.0
20.365,-1.032,-0.761,0.0
18.536,-0.946,-0.798,0.0
16.854,-0.865,-0.823,0.0
15.399,-0.795,-0.84,0.0
14.155,-0.735,-0.852,0.0
22.33,-1.164,-0.724,0.0
20.152,-1.057,-0.768,0.0
18.248,-0.962,-0.799,0.0
16.705,-0.886,-0.828,0.0
15.248,-0.814,-0.843,0.0
13.984,-0.751,-0.852,0.0
22.021,-1.186,-0.73,0.0
19.939,-1.08,-0.774,0.0
18.071,-0.985,-0.804,0.0
16.505,-0.905,-0.83,0.0
15.072,-0.831,-0.843,0.0
13.928,-0.773,-0.858,0.0
21.758,-1.21,-0.736,0.0
19.737,-1.104,-0.779,0.0
17.876,-1.006,-0.807,0.0
16.299,-0.922,-0.83,0.0
14.901,-0.848,-0.843,0.0
13.721,-0.786,-0.855,0.0
21.595,-1.239,-0.744,0.0
19.468,-1.123,-0.781,0.0
17.719,-1.028,-0.811,0.0
15.966,-0.932,-0.823,0.0
14.788,-0.868,-0.846,0.0
13.585,-0.802,-0.854,0.0
21.273,-1.258,-0.746,0.0
19.317,-1.149,-0.786,0.0
17.635,-1.054,-0.818,0.0
15.925,-0.957,-0.83,0.0
14.706,-0.889,-0.85,0.0
13.466,-0.818,-0.855,0.0
21.063,-1.283,-0.75,0.0
19.212,-1.176,-0.793,0.0
17.497,-1.077,-0.821,0.0
15.927,-0.986,-0.839,0.0
14.607,-0.909,-0.852,0.0
13.54,-0.847,-0.866,0.0
20.844,-1.306,-0.753,0.0
19.106,-1.204,-0.798,0.0
17.277,-1.094,-0.819,0.0
15.688,-0.999,-0.834,0.0
14.489,-0.927,-0.852,0.0
13.506,-0.868,-0.871,0.0
20.741,-1.336,-0.759,0.0
18.879,-1.222,-0.797,0.0
17.034,-1.108,-0.815,0.0
15.648,-1.023,-0.839,0.0
14.447,-0.949,-0.856,0.0
13.449,-0.888,-0.873,0.0
20.48,-1.355,-0.758,0.0
18.73,-1.245,-0.799,0.0
17.054,-1.139,-0.823,0.0
15.525,-1.042,-0.839,0.0
14.364,-0.969,-0.857,0.0
13.304,-0.902,-0.869,0.0
20.454,-1.388,-0.765,0.0
18.65,-1.272,-0.802,0.0
16.989,-1.164,-0.827,0.0
15.471,-1.065,-0.841,0.0
14.325,-0.991,-0.86,0.0
13.218,-0.919,-0.868,0.0
20.424,-1.422,-0.771,0.0
18.364,-1.284,-0.797,0.0
16.926,-1.189,-0.829,0.0
15.426,-1.089,-0.844,0.0
14.231,-1.01,-0.859,0.0
13.142,-0.937,-0.867,0.0
20.163,-1.439,-0.768,0.0
18.433,-1.321,-0.805,0.0
16.78,-1.208,-0.827,0.0
15.332,-1.109,-0.843,0.0
14.164,-1.029,-0.859,0.0
13.145,-0.96,-0.871,0.0
20.169,-1.473,-0.773,0.0
18.375,-1.348,-0.807,0.0
16.737,-1.233,-0.829,0.0
15.299,-1.133,-0.845,0.0
14.132,-1.051,-0.86,0.0
13.246,-0.989,-0.881,0.0
20.107,-1.503,-0.775,0.0
18.138,-1.362,-0.801,0.0
16.73,-1.261,-0.832,0.0
15.25,-1.155,-0.846,0.0
14.164,-1.077,-0.865,0.0
13.189,-1.008,-0.879,0.0
19.956,-1.525,-0.773,0.0
18.281,-1.403,-0.81,0.0
16.623,-1.281,-0.83,0.0
15.15,-1.173,-0.843,0.0
14.16,-1.101,-0.867,0.0
13.127,-1.025,-0.877,0.0
19.874,-1.552,-0.773,0.0
18.203,-1.428,-0.809,0.0
16.66,-1.312,-0.834,0.0
15.109,-1.195,-0.842,0.0
14.14,-1.123,-0.867,0.0
13.022,-1.038,-0.872,0.0
19.906,-1.588,-0.776,0.0
18.055,-1.446,-0.804,0.0
16.561,-1.332,-0.83,0.0
15.126,-1.221,-0.844,0.0
14.12,-1.145,-0.867,0.0
13.086,-1.065,-0.877,0.0
19.852,-1.616,-0.775,0.0
18.191,-1.487,-0.811,0.0
16.568,-1.359,-0.831,0.0
15.206,-1.253,-0.849,0.0
14.121,-1.168,-0.868,0.0
13.123,-1.09,-0.88,0.0
20.027,-1.663,-0.782,0.0
17.875,-1.49,-0.797,0.0
16.537,-1.384,-0.83,0.0
15.238,-1.28,-0.851,0.0
14.051,-1.185,-0.863,0.0
13.111,-1.11,-0.879,0.0
20.071,-1.699,-0.783,0.0
18.025,-1.532,-0.804,0.0
16.624,-1.418,-0.834,0.0
15.279,-1.308,-0.853,0.0
14.108,-1.212,-0.866,0.0
13.016,-1.123,-0.872,0.0
19.911,-1.717,-0.776,0.0
18.391,-1.592,-0.819,0.0
16.605,-1.443,-0.832,0.0
15.209,-1.326,-0.848,0.0
14.106,-1.235,-0.865,0.0
13.02,-1.144,-0.871,0.0
20.063,-1.762,-0.78,0.0
18.126,-1.598,-0.805,0.0
16.67,-1.474,-0.833,0.0
15.196,-1.349,-0.845,0.0
14.163,-1.262,-0.867,0.0
12.98,-1.16,-0.867,0.0
20.162,-1.802,-0.781,0.0
18.304,-1.641,-0.81,0.0
16.7,-1.503,-0.832,0.0
15.048,-1.359,-0.835,0.0
14.235,-1.29,-0.869,0.0
13.108,-1.192,-0.873,0.0
20.224,-1.839,-0.78,0.0
18.419,-1.68,-0.812,0.0
16.823,-1.54,-0.835,0.0
15.299,-1.405,-0.846,0.0
14.265,-1.314,-0.868,0.0
13.115,-1.213,-0.871,0.0
20.216,-1.868,-0.775,0.0
18.201,-1.688,-0.798,0.0
16.855,-1.568,-0.833,0.0
15.392,-1.437,-0.847,0.0
14.33,-1.342,-0.868,0.0
13.105,-1.231,-0.867,0.0
20.433,-1.919,-0.778,0.0
18.384,-1.732,-0.802,0.0
16.87,-1.594,-0.829,0.0
15.555,-1.475,-0.852,0.0
14.398,-1.37,-0.868,0.0
13.209,-1.261,-0.87,0.0
20.535,-1.959,-0.776,0.0
18.654,-1.785,-0.808,0.0
17.08,-1.639,-0.834,0.0
15.543,-1.497,-0.847,0.0
14.479,-1.399,-0.869,0.0
13.354,-1.294,-0.875,0.0
20.863,-2.02,-0.782,0.0
18.578,-1.804,-0.799,0.0
17.182,-1.674,-0.833,0.0
15.711,-1.535,-0.85,0.0
14.473,-1.419,-0.863,0.0
13.423,-1.32,-0.875,0.0
20.707,-2.035,-0.769,0.0
18.723,-1.845,-0.798,0.0
17.079,-1.688,-0.822,0.0
15.803,-1.566,-0.849,0.0
14.604,-1.452,-0.865,0.0
13.533,-1.35,-0.877,0.0
20.91,-2.084,-0.768,0.0
18.938,-1.892,-0.799,0.0
17.072,-1.711,-0.815,0.0
15.853,-1.593,-0.845,0.0
14.633,-1.475,-0.861,0.0
13.651,-1.38,-0.878,0.0
20.994,-2.121,-0.762,0.0
19.375,-1.963,-0.81,0.0
17.355,-1.763,-0.82,0.0
16.017,-1.631,-0.847,0.0
14.831,-1.515,-0.866,0.0
13.724,-1.406,-0.877,0.0
21.408,-2.191,-0.767,0.0
19.355,-1.986,-0.8,0.0
17.629,-1.814,-0.825,0.0
16.075,-1.658,-0.842,0.0
14.936,-1.545,-0.865,0.0
13.795,-1.431,-0.874,0.0
21.523,-2.231,-0.76,0.0
19.506,-2.027,-0.796,0.0
17.674,-1.841,-0.818,0.0
16.273,-1.7,-0.844,0.0
15.008,-1.572,-0.861,0.0
13.923,-1.462,-0.875,0.0
21.76,-2.283,-0.757,0.0
19.662,-2.068,-0.792,0.0
17.817,-1.879,-0.815,0.0
16.296,-1.723,-0.836,0.0
15.107,-1.601,-0.858,0.0
13.975,-1.485,-0.87,0.0
22.001,-2.336,-0.753,0.0
19.901,-2.118,-0.79,0.0
17.982,-1.918,-0.812,0.0
16.549,-1.77,-0.839,0.0
15.198,-1.629,-0.854,0.0
14.136,-1.519,-0.872,0.0
22.21,-2.385,-0.747,0.0
0.0,0.0,0.0,0.0
17.977,-1.939,-0.801,0.0
16.608,-1.796,-0.832,0.0
15.364,-1.665,-0.854,0.0
14.305,-1.554,-0.874,0.0
22.746,-2.469,-0.751,0.0
20.497,-2.23,-0.788,0.0
0.0,0.0,0.0,0.0
16.737,-1.829,-0.828,0.0
15.463,-1.694,-0.849,0.0
14.399,-1.581,-0.87,0.0
22.859,-2.508,-0.739,0.0
20.451,-2.248,-0.773,0.0
18.623,-2.052,-0.805,0.0
17.144,-1.893,-0.837,0.0
15.744,-1.742,-0.854,0.0
14.537,-1.612,-0.868,0.0
23.356,-2.588,-0.739,0.0
20.614,-2.289,-0.765,0.0
18.762,-2.087,-0.798,0.0
17.335,-1.933,-0.834,0.0
15.827,-1.768,-0.847,0.0
14.642,-1.64,-0.864,0.0
23.518,-2.631,-0.728,0.0
21.107,-2.366,-0.768,0.0
19.342,-2.172,-0.809,0.0
17.379,-1.956,-0.823,0.0
15.981,-1.802,-0.844,0.0
14.881,-1.682,-0.867,0.0
23.83,-2.691,-0.719,0.0
21.467,-2.429,-0.765,0.0
19.728,-2.236,-0.81,0.0
17.591,-1.998,-0.82,0.0
16.154,-1.838,-0.841,0.0
15.06,-1.717,-0.866,0.0
24.198,-2.757,-0.712,0.0
21.792,-2.487,-0.759,0.0
19.842,-2.269,-0.799,0.0
17.874,-2.047,-0.819,0.0
16.394,-1.882,-0.84,0.0
15.273,-1.756,-0.866,0.0
24.723,-2.84,-0.707,0.0
22.084,-2.541,-0.752,0.0
20.055,-2.312,-0.791,0.0
17.882,-2.065,-0.805,0.0
16.595,-1.92,-0.837,0.0
15.397,-1.785,-0.86,0.0
0.0,0.0,0.0,0.0
22.573,-2.618,-0.75,0.0
20.272,-2.355,-0.783,0.0
18.444,-2.147,-0.814,0.0
16.912,-1.972,-0.838,0.0
15.615,-1.824,-0.859,0.0
26.006,-3.034,-0.701,0.0
22.859,-2.671,-0.74,0.0
20.599,-2.411,-0.778,0.0
18.625,-2.184,-0.806,0.0
17.119,-2.01,-0.834,0.0
15.853,-1.865,-0.858,0.0
0.0,0.0,0.0,0.0
23.314,-2.744,-0.734,0.0
20.964,-2.471,-0.773,0.0
0.0,0.0,0.0,0.0
17.344,-2.051,-0.829,0.0
15.989,-1.894,-0.851,0.0
26.929,-3.186,-0.678,0.0
23.725,-2.811,-0.725,0.0
21.405,-2.54,-0.77,0.0
19.528,-2.321,-0.81,0.0
17.529,-2.086,-0.822,0.0
16.237,-1.936,-0.85,0.0
27.389,-3.262,-0.665,0.0
24.643,-2.939,-0.731,0.0
21.84,-2.608,-0.766,0.0
0.0,0.0,0.0,0.0
18.004,-2.156,-0.827,0.0
16.489,-1.978,-0.847,0.0
28.183,-3.377,-0.657,0.0
22.695,-2.723,-0.652,0.0
22.182,-2.665,-0.757,0.0
20.039,-2.41,-0.794,0.0
18.153,-2.186,-0.817,0.0
16.699,-2.014,-0.842,0.0
0.0,0.0,0.0,0.0
0.0,0.0,0.0,0.0
22.717,-2.744,-0.753,0.0
20.36,-2.462,-0.787,0.0
18.439,-2.233,-0.812,0.0
16.934,-2.053,-0.837,0.0
29.698,-3.598,-0.635,0.0
26.278,-3.187,-0.703,0.0
23.15,-2.811,-0.744,0.0
20.939,-2.545,-0.788,0.0
18.884,-2.298,-0.813,0.0
17.263,-2.104,-0.836,0.0
30.17,-3.673,-0.615,0.0
26.478,-3.227,-0.682,0.0
23.362,-2.85,-0.728,0.0
21.143,-2.582,-0.775,0.0
19.302,-2.36,-0.811,0.0
17.432,-2.134,-0.826,0.0
31.596,-3.864,-0.612,0.0
27.486,-3.365,-0.68,1.0
0.0,0.0,0.0,0.0
21.713,-2.663,-0.773,0.0
19.711,-2.42,-0.808,0.0
17.645,-2.169,-0.818,0.0
32.045,-3.936,-0.587,0.0
28.09,-3.453,-0.666,0.0
24.736,-3.043,-0.719,0.0
21.993,-2.708,-0.76,0.0
19.907,-2.454,-0.795,0.0
18.06,-2.228,-0.819,0.0
0.0,0.0,0.0,0.0
28.407,-3.505,-0.643,0.0
25.71,-3.175,-0.72,0.0
22.401,-2.769,-0.75,0.0
20.49,-2.535,-0.796,0.0
18.651,-2.309,-0.825,0.0
0.0,0.0,0.0,0.0
29.718,-3.679,-0.642,0.0
26.008,-3.222,-0.701,0.0
22.96,-2.847,-0.745,0.0
20.981,-2.603,-0.793,0.0
18.821,-2.337,-0.813,0.0
0.0,0.0,0.0,0.0
30.583,-3.798,-0.627,0.0
26.938,-3.347,-0.697,0.0
23.232,-2.889,-0.728,0.0
21.319,-2.653,-0.783,0.0
19.174,-2.387,-0.807,0.0
0.0,0.0,0.0,0.0
0.0,0.0,0.0,0.0
27.493,-3.425,-0.681,0.0
23.186,-2.89,-0.701,0.0
21.5,-2.681,-0.766,0.0
19.828,-2.475,-0.813,0.0
37.929,-4.731,-0.491,0.0
32.221,-4.02,-0.59,0.0
0.0,0.0,0.0,0.0
23.801,-2.973,-0.694,0.0
21.803,-2.725,-0.753,0.0
20.221,-2.528,-0.806,0.0
0.0,0.0,0.0,0.0
32.683,-4.086,-0.562,0.0
29.012,-3.628,-0.655,0.0
26.122,-3.268,-0.732,0.0
22.668,-2.837,-0.757,0.0
20.445,-2.56,-0.792,0.0
0.0,0.0,0.0,0.0
0.0,0.0,0.0,0.0
29.873,-3.741,-0.641,0.0
26.539,-3.325,-0.714,0.0
23.041,-2.888,-0.744,0.0
21.019,-2.635,-0.791,0.0
0.0,0.0,0.0,0.0
0.0,0.0,0.0,0.0
30.379,-3.809,-0.617,0.0
26.598,-3.336,-0.686,0.0
23.349,-2.929,-0.727,0.0
21.305,-2.673,-0.778,0.0
46.595,-5.844,-0.395,0.0
36.845,-4.622,-0.509,0.0
32.228,-4.043,-0.618,0.0
0.0,0.0,0.0,0.0
23.677,-2.972,-0.71,0.0
21.834,-2.741,-0.772,0.0
46.49,-5.834,-0.341,2.0
0.0,0.0,0.0,0.0
32.361,-4.061,-0.584,0.0
0.0,0.0,0.0,0.0
0.0,0.0,0.0,0.0
22.25,-2.794,-0.761,0.0
46.808,-5.874,-0.29,1.0
0.0,0.0,0.0,0.0
33.622,-4.219,-0.568,0.0
29.277,-3.674,-0.654,0.0
25.983,-3.261,-0.72,0.0
22.948,-2.88,-0.758,0.0
48.549,-6.091,-0.245,0.0
0.0,0.0,0.0,0.0
0.0,0.0,0.0,0.0
30.021,-3.766,-0.636,0.0
26.629,-3.34,-0.707,0.0
23.101,-2.898,-0.737,0.0
0.0,0.0,0.0,0.0
43.338,-5.433,-0.401,0.0
0.0,0.0,0.0,0.0
30.521,-3.825,-0.611,0.0
26.738,-3.351,-0.679,0.0
23.641,-2.962,-0.727,0.0
0.0,0.0,0.0,0.0
46.367,-5.807,-0.375,0.0
37.356,-4.677,-0.502,0.0
32.228,-4.034,-0.609,0.0
27.825,-3.482,-0.674,0.0
0.0,0.0,0.0,0.0
0.0,0.0,0.0,0.0
0.0,0.0,0.0,0.0
0.0,0.0,0.0,0.0
32.598,-4.074,-0.578,0.0
0.0,0.0,0.0,0.0
25.642,-3.203,-0.729,0.0
0.0,0.0,0.0,0.0
48.109,-6.005,-0.278,0.0
0.0,0.0,0.0,0.0
33.577,-4.188,-0.556,0.0
0.0,0.0,0.0,0.0
25.86,-3.223,-0.705,0.0
0.0,0.0,0.0,0.0
0.0,0.0,0.0,0.0
0.0,0.0,0.0,0.0
0.0,0.0,0.0,0.0
30.214,-3.758,-0.627,0.0
26.958,-3.351,-0.704,0.0
74.374,-9.245,0.137,2.0
0.0,0.0,0.0,0.0
0.0,0.0,0.0,0.0
0.0,0.0,0.0,0.0
31.897,-3.956,-0.626,0.0
27.504,-3.409,-0.687,0.0
74.335,-9.213,0.223,4.0
0.0,0.0,0.0,0.0
46.488,-5.754,-0.357,2.0
0.0,0.0,0.0,0.0
32.254,-3.987,-0.596,0.0
28.2,-3.484,-0.672,0.0
74.29,-9.178,0.308,13.0
0.0,0.0,0.0,0.0
47.784,-5.894,-0.313,3.0
40.195,-4.954,-0.482,0.0
33.767,-4.159,-0.586,0.0
29.241,-3.599,-0.664,0.0
74.313,-9.148,0.392,21.0
74.383,-9.148,-0.005,1.0
48.106,-5.911,-0.26,1.0
39.955,-4.906,-0.434,0.0
0.0,0.0,0.0,0.0
29.729,-3.644,-0.641,0.0
83.367,-10.22,0.535,22.0
74.225,-9.091,0.078,3.0
0.0,0.0,0.0,0.0
0.0,0.0,0.0,0.0
0.0,0.0,0.0,0.0
30.511,-3.724,-0.623,0.0
83.35,-10.172,0.629,15.0
74.304,-9.059,0.163,7.0
0.0,0.0,0.0,0.0
0.0,0.0,0.0,0.0
0.0,0.0,0.0,0.0
32.045,-3.892,-0.618,0.0
83.387,-10.128,0.723,33.0
75.948,-9.214,0.251,5.0
0.0,0.0,0.0,0.0
47.239,-5.719,-0.353,0.0
38.319,-4.634,-0.492,0.0
0.0,0.0,0.0,0.0
83.367,-10.073,0.813,61.0
83.4,-10.065,0.367,44.0
0.0,0.0,0.0,0.0
47.925,-5.77,-0.306,1.0
0.0,0.0,0.0,0.0
33.635,-4.041,-0.575,0.0
83.371,-10.017,0.905,42.0
83.371,-10.004,0.458,36.0
74.955,-8.983,0.009,2.0
0.0,0.0,0.0,0.0
0.0,0.0,0.0,0.0
0.0,0.0,0.0,0.0
83.36,-9.955,0.994,26.0
83.355,-9.941,0.548,21.0
74.925,-8.924,0.091,20.0
0.0,0.0,0.0,0.0
0.0,0.0,0.0,0.0
36.124,-4.286,-0.54,0.0
83.379,-9.894,1.084,148.0
83.373,-9.878,0.637,18.0
75.491,-8.932,0.172,3.0
0.0,0.0,0.0,0.0
0.0,0.0,0.0,0.0
36.555,-4.307,-0.508,0.0
83.364,-9.824,1.172,20.0
83.386,-9.812,0.725,23.0
83.36,-9.794,0.277,3.0
0.0,0.0,0.0,0.0
0.0,0.0,0.0,0.0
37.861,-4.429,-0.487,0.0
83.378,-9.756,1.258,25.0
83.377,-9.739,0.811,99.0
83.372,-9.723,0.363,26.0
0.0,0.0,0.0,0.0
0.0,0.0,0.0,0.0
0.0,0.0,0.0,0.0
83.385,-9.681,1.344,22.0
83.382,-9.664,0.896,78.0
83.408,-9.651,0.449,12.0
77.664,-8.971,-0.006,3.0
0.0,0.0,0.0,0.0
41.39,-4.765,-0.448,0.0
83.388,-9.603,1.428,21.0
83.39,-9.586,0.979,38.0
83.38,-9.567,0.532,31.0
77.687,-8.899,0.07,7.0
0.0,0.0,0.0,0.0
0.0,0.0,0.0,0.0
83.395,-9.522,1.51,54.0
83.383,-9.503,1.062,41.0
83.382,-9.485,0.614,150.0
0.0,0.0,0.0,0.0
0.0,0.0,0.0,0.0
0.0,0.0,0.0,0.0
83.372,-9.434,1.591,40.0
83.347,-9.412,1.142,16.0
83.382,-9.398,0.694,14.0
86.477,-9.727,0.246,7.0
0.0,0.0,0.0,0.0
0.0,0.0,0.0,0.0
83.373,-9.346,1.669,30.0
83.361,-9.325,1.22,12.0
83.388,-9.309,0.772,22.0
86.373,-9.623,0.326,8.0
0.0,0.0,0.0,0.0
48.451,-5.376,-0.338,0.0
83.36,-9.253,1.747,30.0
83.38,-9.235,1.298,23.0
83.357,-9.212,0.848,13.0
83.347,-9.192,0.391,15.0
0.0,0.0,0.0,0.0
0.0,0.0,0.0,0.0
83.329,-9.155,1.822,33.0
83.393,-9.141,1.373,12.0
83.374,-9.118,0.923,150.0
82.58,-9.012,0.461,19.0
0.0,0.0,0.0,0.0
0.0,0.0,0.0,0.0
114.304,-9.737,3.789,13.0
114.344,-9.701,3.165,21.0
90.392,-7.638,2.006,34.0
90.41,-7.608,1.503,63.0
90.398,-7.578,1.008,39.0
90.416,-7.549,0.513,34.0
110.943,-9.259,3.721,18.0
114.493,-9.515,3.212,9.0
90.391,-7.482,2.04,43.0
90.399,-7.452,1.536,150.0
100.066,-8.214,1.152,13.0
100.066,-8.18,0.603,13.0
114.279,-9.339,3.873,5.0
118.198,-9.618,3.356,6.0
127.491,-10.33,2.921,28.0
100.062,-8.072,1.734,14.0
100.084,-8.039,1.185,13.0
100.091,-8.005,0.636,14.0
108.644,-8.686,3.715,18.0
115.63,-9.203,3.32,13.0
127.477,-10.102,2.959,29.0
100.087,-7.896,1.763,11.0
100.089,-7.862,1.214,13.0
100.074,-7.827,0.664,13.0
108.352,-8.471,3.736,21.0
148.16,-11.529,4.294,5.0
127.481,-9.875,2.993,60.0
100.072,-7.716,1.789,8.0
100.093,-7.683,1.24,11.0
100.071,-7.647,0.689,11.0
108.225,-8.264,3.758,27.0
148.162,-11.26,4.328,15.0
0.0,0.0,0.0,0.0
123.844,-9.324,2.242,7.0
100.107,-7.502,1.261,10.0
100.095,-7.466,0.711,11.0
108.057,-8.054,3.774,23.0
109.063,-8.089,3.208,11.0
0.0,0.0,0.0,0.0
109.319,-8.031,2.0,4.0
100.122,-7.321,1.279,11.0
100.097,-7.283,0.729,12.0
107.281,-7.799,3.765,28.0
108.978,-7.882,3.223,28.0
109.216,-7.861,2.628,38.0
109.35,-7.832,2.017,23.0
100.097,-7.133,1.294,8.0
100.101,-7.099,0.743,10.0
108.263,-7.669,3.814,19.0
109.117,-7.69,3.241,30.0
109.183,-7.656,2.64,45.0
109.407,-7.632,2.031,20.0
100.093,-6.946,1.305,6.0
100.012,-6.905,0.752,6.0
108.426,-7.479,3.83,26.0
109.06,-7.481,3.249,42.0
117.195,-7.997,2.843,12.0
117.434,-7.972,2.188,19.0
0.0,0.0,0.0,0.0
0.0,0.0,0.0,0.0
108.863,-7.303,3.852,22.0
109.522,-7.307,3.268,22.0
116.958,-7.76,2.843,26.0
117.38,-7.746,2.192,36.0
106.011,-6.957,1.393,16.0
125.149,-8.168,0.953,10.0
108.803,-7.09,3.851,33.0
124.774,-8.085,3.725,8.0
117.027,-7.541,2.845,30.0
125.225,-8.023,2.338,37.0
125.317,-7.984,1.647,17.0
125.292,-7.936,0.953,6.0
109.135,-6.902,3.861,22.0
124.997,-7.859,3.729,18.0
117.296,-7.332,2.848,24.0
147.972,-9.194,2.758,19.0
148.291,-9.16,1.942,15.0
149.88,-9.203,1.132,12.0
109.609,-6.719,3.871,21.0
117.326,-7.148,3.492,12.0
149.065,-9.027,3.609,15.0
148.437,-8.935,2.756,23.0
149.604,-8.951,1.947,22.0
149.752,-8.907,1.118,11.0
109.655,-6.509,3.863,23.0
117.239,-6.916,3.478,34.0
149.277,-8.751,3.598,21.0
149.431,-8.706,2.757,22.0
140.713,-8.148,1.814,8.0
140.701,-8.095,1.033,16.0
117.798,-6.762,4.134,12.0
117.205,-6.684,3.46,18.0
147.47,-8.356,3.533,19.0
140.623,-7.915,2.572,29.0
101.535,-5.678,1.293,5.0
101.467,-5.639,0.728,152.0
116.899,-6.479,4.081,7.0
137.559,-7.572,4.036,6.0
140.687,-7.694,3.345,24.0
0.0,0.0,0.0,0.0
101.552,-5.479,1.273,7.0
0.0,0.0,0.0,0.0
117.039,-6.254,4.06,9.0
138.029,-7.326,4.019,13.0
140.689,-7.415,3.312,28.0
0.0,0.0,0.0,0.0
0.0,0.0,0.0,0.0
0.0,0.0,0.0,0.0
117.37,-6.04,4.042,20.0
139.131,-7.11,4.016,20.0
172.03,-8.727,4.005,4.0
102.151,-5.144,1.798,1.0
101.53,-5.076,1.22,21.0
0.0,0.0,0.0,0.0
117.863,-5.83,4.025,21.0
141.012,-6.924,4.027,16.0
139.339,-6.791,3.202,11.0
0.0,0.0,0.0,0.0
101.524,-4.874,1.188,150.0
102.6,-4.89,0.629,1.0
117.784,-5.592,3.983,18.0
150.345,-7.084,4.243,10.0
0.0,0.0,0.0,0.0
0.0,0.0,0.0,0.0
101.543,-4.673,1.153,10.0
0.0,0.0,0.0,0.0
116.653,-5.304,3.901,24.0
142.178,-6.413,3.96,15.0
0.0,0.0,0.0,0.0
102.249,-4.538,1.692,1.0
101.512,-4.469,1.113,3.0
102.264,-4.466,0.549,1.0
119.608,-5.2,3.951,25.0
139.882,-6.03,3.837,9.0
0.0,0.0,0.0,0.0
101.542,-4.304,1.637,150.0
0.0,0.0,0.0,0.0
0.0,0.0,0.0,0.0
124.763,-5.176,4.066,8.0
141.559,-5.821,3.819,25.0
162.347,-6.619,3.47,11.0
0.0,0.0,0.0,0.0
0.0,0.0,0.0,0.0
0.0,0.0,0.0,0.0
124.81,-4.929,4.006,10.0
142.407,-5.571,3.771,19.0
162.3,-6.289,3.387,11.0
105.054,-4.033,1.592,2.0
0.0,0.0,0.0,0.0
0.0,0.0,0.0,0.0
138.565,-5.193,4.374,22.0
0.0,0.0,0.0,0.0
162.178,-5.962,3.297,15.0
162.181,-5.903,2.37,20.0
162.303,-5.852,1.461,10.0
0.0,0.0,0.0,0.0
139.937,-4.965,4.339,7.0
163.356,-5.74,4.147,17.0
162.287,-5.645,3.207,16.0
162.159,-5.585,2.277,25.0
0.0,0.0,0.0,0.0
0.0,0.0,0.0,0.0
140.415,-4.709,4.271,15.0
163.374,-5.42,4.049,22.0
162.2,-5.323,3.107,20.0
161.9,-5.257,2.174,23.0
160.773,-5.163,1.254,9.0
0.0,0.0,0.0,0.0
140.173,-4.421,4.173,24.0
163.385,-5.096,3.944,11.0
165.551,-5.106,3.063,6.0
161.799,-4.934,2.067,23.0
160.687,-4.843,1.147,13.0
0.0,0.0,0.0,0.0
140.45,-4.153,4.087,14.0
0.0,0.0,0.0,0.0
178.097,-5.145,3.175,7.0
161.904,-4.621,1.957,17.0
160.708,-4.531,1.036,16.0
0.0,0.0,0.0,0.0
163.261,-4.509,4.635,50.0
0.0,0.0,0.0,0.0
170.514,-4.592,2.917,4.0
161.941,-4.306,1.84,21.0
160.762,-4.222,0.92,11.0
0.0,0.0,0.0,0.0
163.246,-4.193,4.514,20.0
0.0,0.0,0.0,0.0
170.446,-4.258,2.786,5.0
162.03,-3.994,1.718,7.0
0.0,0.0,0.0,0.0
0.0,0.0,0.0,0.0
11.946,0.562,-0.85,0.0
23.597,1.112,-1.817,0.0
10.518,0.496,-0.871,0.0
10.047,0.473,-0.891,0.0
9.536,0.45,-0.902,0.0
9.039,0.427,-0.907,0.0
11.773,0.553,-0.857,0.0
10.982,0.516,-0.863,0.0
10.416,0.489,-0.879,0.0
9.909,0.466,-0.895,0.0
9.393,0.442,-0.903,0.0
8.88,0.418,-0.906,0.0
11.632,0.545,-0.865,0.0
10.715,0.502,-0.859,0.0
10.274,0.481,-0.884,0.0
9.76,0.457,-0.897,0.0
9.303,0.436,-0.909,0.0
8.801,0.413,-0.912,0.0
11.323,0.528,-0.86,0.0
10.581,0.494,-0.865,0.0
10.155,0.474,-0.889,0.0
9.645,0.45,-0.902,0.0
9.095,0.425,-0.903,0.0
8.665,0.405,-0.911,0.0
11.136,0.517,-0.863,0.0
10.483,0.487,-0.873,0.0
9.988,0.464,-0.89,0.0
9.497,0.441,-0.903,0.0
8.993,0.418,-0.907,0.0
8.606,0.4,-0.919,0.0
10.909,0.504,-0.863,0.0
10.373,0.479,-0.88,0.0
9.903,0.457,-0.898,0.0
9.363,0.432,-0.904,0.0
8.865,0.409,-0.908,0.0
8.463,0.391,-0.916,0.0
10.702,0.491,-0.862,0.0
10.233,0.47,-0.884,0.0
9.736,0.447,-0.898,0.0
9.204,0.422,-0.903,0.0
8.793,0.403,-0.914,0.0
8.347,0.383,-0.916,0.0
10.563,0.481,-0.867,0.0
10.106,0.461,-0.888,0.0
9.589,0.437,-0.898,0.0
9.11,0.415,-0.907,0.0
8.655,0.394,-0.912,0.0
8.256,0.376,-0.919,0.0
10.44,0.472,-0.872,0.0
9.997,0.452,-0.893,0.0
9.485,0.428,-0.902,0.0
8.983,0.406,-0.908,0.0
8.587,0.388,-0.918,0.0
8.152,0.368,-0.919,0.0
10.376,0.465,-0.882,0.0
9.917,0.444,-0.9,0.0
9.379,0.42,-0.906,0.0
8.874,0.397,-0.909,0.0
8.409,0.376,-0.911,0.0
8.035,0.359,-0.917,0.0
10.269,0.456,-0.887,0.0
9.759,0.433,-0.899,0.0
9.205,0.408,-0.902,0.0
8.795,0.39,-0.914,0.0
8.382,0.371,-0.92,0.0
7.94,0.351,-0.917,0.0
10.137,0.445,-0.89,0.0
9.657,0.424,-0.903,0.0
9.13,0.401,-0.907,0.0
8.638,0.379,-0.909,0.0
8.244,0.361,-0.916,0.0
7.904,0.346,-0.924,0.0
10.026,0.436,-0.893,0.0
9.513,0.413,-0.903,0.0
9.007,0.391,-0.907,0.0
8.561,0.371,-0.913,0.0
8.183,0.354,-0.92,0.0
7.86,0.34,-0.93,0.0
9.93,0.426,-0.898,0.0
9.408,0.403,-0.905,0.0
8.915,0.382,-0.909,0.0
8.478,0.363,-0.915,0.0
8.078,0.345,-0.919,0.0
7.798,0.333,-0.932,0.0
9.777,0.414,-0.896,0.0
9.246,0.391,-0.901,0.0
8.784,0.371,-0.907,0.0
8.358,0.353,-0.913,0.0
8.023,0.338,-0.923,0.0
7.7,0.324,-0.93,0.0
9.642,0.403,-0.896,0.0
9.207,0.384,-0.909,0.0
8.686,0.362,-0.908,0.0
8.308,0.346,-0.918,0.0
7.962,0.331,-0.926,0.0
7.645,0.317,-0.933,0.0
9.559,0.393,-0.9,0.0
9.081,0.373,-0.908,0.0
8.651,0.355,-0.915,0.0
8.169,0.335,-0.912,0.0
7.881,0.322,-0.926,0.0
7.565,0.309,-0.933,0.0
9.452,0.383,-0.901,0.0
8.986,0.363,-0.909,0.0
8.57,0.346,-0.916,0.0
8.166,0.329,-0.921,0.0
7.828,0.315,-0.929,0.0
7.505,0.301,-0.934,0.0
9.384,0.374,-0.906,0.0
8.889,0.353,-0.909,0.0
8.467,0.336,-0.915,0.0
8.074,0.32,-0.92,0.0
7.772,0.307,-0.931,0.0
7.465,0.295,-0.938,0.0
9.275,0.363,-0.906,0.0
8.813,0.344,-0.911,0.0
8.379,0.326,-0.915,0.0
7.996,0.311,-0.92,0.0
7.713,0.299,-0.933,0.0
7.399,0.286,-0.938,0.0
9.172,0.352,-0.906,0.0
8.711,0.333,-0.91,0.0
8.303,0.317,-0.916,0.0
7.981,0.304,-0.927,0.0
7.633,0.29,-0.931,0.0
7.348,0.279,-0.939,0.0
9.079,0.341,-0.906,0.0
8.643,0.324,-0.912,0.0
8.267,0.309,-0.92,0.0
7.89,0.294,-0.925,0.0
7.534,0.28,-0.927,0.0
7.284,0.271,-0.939,0.0
8.994,0.331,-0.906,0.0
8.57,0.314,-0.913,0.0
8.172,0.299,-0.918,0.0
7.854,0.287,-0.929,0.0
7.505,0.273,-0.931,0.0
7.26,0.264,-0.943,0.0
8.928,0.321,-0.909,0.0
8.5,0.305,-0.914,0.0
8.099,0.29,-0.918,0.0
7.774,0.277,-0.927,0.0
7.509,0.267,-0.939,0.0
7.234,0.257,-0.946,0.0
8.895,0.312,-0.914,0.0
8.448,0.296,-0.916,0.0
8.092,0.283,-0.924,0.0
7.756,0.27,-0.932,0.0
7.477,0.26,-0.941,0.0
7.205,0.249,-0.949,0.0
8.805,0.302,-0.912,0.0
8.37,0.286,-0.915,0.0
8.037,0.274,-0.925,0.0
7.664,0.26,-0.927,0.0
7.411,0.251,-0.94,0.0
7.142,0.241,-0.947,0.0
8.712,0.291,-0.91,0.0
8.315,0.277,-0.916,0.0
7.96,0.264,-0.923,0.0
7.619,0.252,-0.928,0.0
7.381,0.243,-0.942,0.0
7.112,0.233,-0.949,0.0
8.702,0.282,-0.916,0.0
8.273,0.267,-0.918,0.0
7.94,0.256,-0.927,0.0
7.61,0.244,-0.933,0.0
7.315,0.234,-0.939,0.0
7.085,0.226,-0.951,0.0
8.61,0.271,-0.913,0.0
8.279,0.26,-0.925,0.0
7.911,0.247,-0.93,0.0
7.558,0.235,-0.933,0.0
7.262,0.225,-0.938,0.0
7.043,0.218,-0.951,0.0
8.593,0.263,-0.918,0.0
8.196,0.249,-0.922,0.0
7.898,0.239,-0.934,0.0
7.521,0.227,-0.934,0.0
7.257,0.218,-0.943,0.0
7.007,0.21,-0.951,0.0
8.542,0.253,-0.918,0.0
8.164,0.24,-0.924,0.0
7.836,0.23,-0.932,0.0
7.495,0.219,-0.935,0.0
7.265,0.211,-0.949,0.0
7.005,0.203,-0.955,0.0
8.467,0.242,-0.915,0.0
8.153,0.232,-0.928,0.0
7.795,0.221,-0.932,0.0
7.459,0.21,-0.936,0.0
7.211,0.202,-0.946,0.0
6.95,0.194,-0.952,0.0
8.431,0.233,-0.917,0.0
8.114,0.223,-0.929,0.0
7.769,0.212,-0.933,0.0
7.436,0.202,-0.937,0.0
7.194,0.194,-0.948,0.0
6.926,0.186,-0.953,0.0
8.404,0.223,-0.918,0.0
8.053,0.213,-0.926,0.0
7.738,0.203,-0.934,0.0
7.416,0.194,-0.938,0.0
7.161,0.186,-0.948,0.0
6.882,0.178,-0.95,0.0
8.363,0.214,-0.918,0.0
8.054,0.204,-0.93,0.0
7.662,0.193,-0.929,0.0
7.392,0.185,-0.939,0.0
7.138,0.178,-0.948,0.0
6.853,0.17,-0.95,0.0
8.335,0.204,-0.919,0.0
8.056,0.196,-0.934,0.0
7.622,0.184,-0.927,0.0
7.374,0.177,-0.94,0.0
7.134,0.17,-0.951,0.0
6.819,0.162,-0.948,0.0
8.327,0.195,-0.922,0.0
8.002,0.186,-0.931,0.0
7.665,0.177,-0.936,0.0
7.352,0.169,-0.94,0.0
7.105,0.162,-0.95,0.0
6.808,0.154,-0.949,0.0
8.324,0.186,-0.925,0.0
8.019,0.178,-0.936,0.0
7.607,0.168,-0.932,0.0
7.339,0.16,-0.941,0.0
7.105,0.154,-0.952,0.0
6.796,0.146,-0.95,0.0
8.312,0.177,-0.926,0.0
7.944,0.168,-0.93,0.0
7.57,0.159,-0.929,0.0
7.312,0.152,-0.94,0.0
7.077,0.146,-0.951,0.0
6.797,0.139,-0.952,0.0
8.292,0.167,-0.926,0.0
7.934,0.159,-0.931,0.0
7.586,0.15,-0.933,0.0
7.306,0.144,-0.942,0.0
7.083,0.138,-0.953,0.0
6.789,0.131,-0.952,0.0
8.275,0.158,-0.926,0.0
7.93,0.15,-0.933,0.0
7.59,0.142,-0.936,0.0
7.292,0.135,-0.941,0.0
7.044,0.13,-0.95,0.0
6.784,0.124,-0.953,0.0
8.252,0.148,-0.925,0.0
7.936,0.141,-0.935,0.0
7.56,0.133,-0.933,0.0
7.288,0.127,-0.942,0.0
7.03,0.121,-0.949,0.0
6.781,0.116,-0.954,0.0
8.267,0.139,-0.928,0.0
7.896,0.132,-0.931,0.0
7.568,0.125,-0.936,0.0
7.286,0.119,-0.943,0.0
6.989,0.113,-0.944,0.0
6.778,0.108,-0.954,0.0
8.251,0.13,-0.928,0.0
7.899,0.123,-0.932,0.0
7.565,0.116,-0.936,0.0
7.277,0.11,-0.942,0.0
6.982,0.105,-0.944,0.0
6.787,0.1,-0.956,0.0
8.249,0.12,-0.928,0.0
7.869,0.113,-0.929,0.0
7.587,0.108,-0.939,0.0
7.278,0.102,-0.943,0.0
7.016,0.097,-0.949,0.0
6.757,0.092,-0.952,0.0
8.228,0.111,-0.926,0.0
7.897,0.105,-0.933,0.0
7.567,0.099,-0.937,0.0
7.279,0.094,-0.943,0.0
7.015,0.089,-0.948,0.0
6.754,0.085,-0.952,0.0
8.225,0.101,-0.925,0.0
7.917,0.096,-0.935,0.0
7.546,0.09,-0.934,0.0
7.262,0.085,-0.94,0.0
7.018,0.081,-0.948,0.0
6.767,0.077,-0.953,0.0
8.257,0.092,-0.928,0.0
7.897,0.087,-0.932,0.0
7.589,0.082,-0.938,0.0
7.284,0.077,-0.942,0.0
7.043,0.073,-0.951,0.0
6.763,0.069,-0.952,0.0
8.273,0.083,-0.929,0.0
7.898,0.078,-0.931,0.0
7.608,0.073,-0.94,0.0
7.292,0.069,-0.942,0.0
7.039,0.065,-0.949,0.0
6.776,0.061,-0.952,0.0
8.275,0.074,-0.928,0.0
7.896,0.069,-0.929,0.0
7.594,0.065,-0.936,0.0
7.334,0.061,-0.946,0.0
7.067,0.057,-0.952,0.0
6.787,0.054,-0.952,0.0
8.277,0.064,-0.926,0.0
7.941,0.06,-0.933,0.0
7.609,0.056,-0.937,0.0
7.345,0.053,-0.946,0.0
7.076,0.049,-0.951,0.0
6.794,0.046,-0.952,0.0
8.324,0.055,-0.929,0.0
7.967,0.051,-0.934,0.0
7.645,0.048,-0.939,0.0
7.353,0.044,-0.945,0.0
7.075,0.041,-0.949,0.0
6.836,0.039,-0.956,0.0
8.32,0.046,-0.926,0.0
7.995,0.042,-0.935,0.0
7.616,0.039,-0.933,0.0
7.37,0.036,-0.945,0.0
7.093,0.033,-0.949,0.0
6.805,0.031,-0.949,0.0
8.337,0.036,-0.925,0.0
8.011,0.033,-0.934,0.0
7.638,0.03,-0.933,0.0
7.385,0.028,-0.944,0.0
7.11,0.025,-0.949,0.0
6.849,0.023,-0.952,0.0
8.379,0.027,-0.927,0.0
8.016,0.024,-0.931,0.0
7.678,0.022,-0.934,0.0
7.359,0.019,-0.937,0.0
7.129,0.017,-0.948,0.0
6.868,0.015,-0.952,0.0
8.395,0.018,-0.925,0.0
8.078,0.015,-0.935,0.0
7.73,0.013,-0.937,0.0
7.42,0.011,-0.942,0.0
7.157,0.009,-0.948,0.0
6.892,0.008,-0.952,0.0
8.454,0.009,-0.927,0.0
8.143,0.007,-0.938,0.0
7.777,0.005,-0.939,0.0
7.437,0.003,-0.94,0.0
7.174,0.002,-0.947,0.0
6.921,0.0,-0.952,0.0
8.495,0.0,-0.927,0.0
8.13,-0.001,-0.932,0.0
7.783,-0.003,-0.935,0.0
7.463,-0.004,-0.939,0.0
7.202,-0.005,-0.947,0.0
6.957,-0.007,-0.953,0.0
8.503,-0.009,-0.923,0.0
8.156,-0.01,-0.93,0.0
7.794,-0.011,-0.932,0.0
7.532,-0.012,-0.943,0.0
7.259,-0.013,-0.95,0.0
6.979,-0.014,-0.952,0.0
8.555,-0.018,-0.923,0.0
8.229,-0.019,-0.933,0.0
7.858,-0.02,-0.935,0.0
7.564,-0.02,-0.942,0.0
7.297,-0.021,-0.95,0.0
7.015,-0.022,-0.952,0.0
8.639,-0.028,-0.927,0.0
8.23,-0.028,-0.928,0.0
7.937,-0.028,-0.939,0.0
7.598,-0.029,-0.941,0.0
7.337,-0.029,-0.95,0.0
7.035,-0.029,-0.95,0.0
8.693,-0.037,-0.926,0.0
8.283,-0.037,-0.928,0.0
7.949,-0.037,-0.934,0.0
7.651,-0.037,-0.942,0.0
7.352,-0.037,-0.946,0.0
7.076,-0.037,-0.95,0.0
8.734,-0.046,-0.924,0.0
8.348,-0.046,-0.929,0.0
7.977,-0.045,-0.931,0.0
7.684,-0.045,-0.94,0.0
7.369,-0.045,-0.943,0.0
7.135,-0.045,-0.952,0.0
8.773,-0.055,-0.921,0.0
8.417,-0.054,-0.93,0.0
8.048,-0.054,-0.933,0.0
7.738,-0.053,-0.941,0.0
7.442,-0.052,-0.946,0.0
7.156,-0.052,-0.949,0.0
8.856,-0.065,-0.922,0.0
8.486,-0.064,-0.93,0.0
8.089,-0.062,-0.931,0.0
7.757,-0.061,-0.936,0.0
7.501,-0.06,-0.947,0.0
7.201,-0.059,-0.948,0.0
8.912,-0.074,-0.92,0.0
8.534,-0.072,-0.928,0.0
8.17,-0.071,-0.933,0.0
7.793,-0.069,-0.934,0.0
7.523,-0.068,-0.943,0.0
7.271,-0.067,-0.951,0.0
8.988,-0.083,-0.92,0.0
8.567,-0.081,-0.924,0.0
8.218,-0.079,-0.931,0.0
7.867,-0.077,-0.935,0.0
7.595,-0.076,-0.944,0.0
7.29,-0.074,-0.946,0.0
9.058,-0.093,-0.918,0.0
8.659,-0.09,-0.925,0.0
8.28,-0.088,-0.93,0.0
7.912,-0.085,-0.932,0.0
7.636,-0.084,-0.942,0.0
7.347,-0.082,-0.946,0.0
9.143,-0.102,-0.918,0.0
8.75,-0.099,-0.926,0.0
8.359,-0.096,-0.93,0.0
8.011,-0.094,-0.936,0.0
7.712,-0.092,-0.943,0.0
7.424,-0.09,-0.948,0.0
9.25,-0.112,-0.919,0.0
8.823,-0.108,-0.924,0.0
8.46,-0.105,-0.932,0.0
8.094,-0.102,-0.937,0.0
7.745,-0.099,-0.939,0.0
7.44,-0.096,-0.942,0.0
9.334,-0.121,-0.917,0.0
8.903,-0.117,-0.923,0.0
8.51,-0.113,-0.928,0.0
8.139,-0.11,-0.933,0.0
7.814,-0.107,-0.938,0.0
7.489,-0.104,-0.94,0.0
9.419,-0.13,-0.915,0.0
8.984,-0.126,-0.921,0.0
8.558,-0.121,-0.924,0.0
8.226,-0.118,-0.934,0.0
7.967,-0.116,-0.948,0.0
7.622,-0.112,-0.948,0.0
9.536,-0.14,-0.915,0.0
9.069,-0.134,-0.919,0.0
8.671,-0.13,-0.926,0.0
8.304,-0.126,-0.933,0.0
7.965,-0.122,-0.938,0.0
7.657,-0.119,-0.943,0.0
9.66,-0.15,-0.916,0.0
9.177,-0.144,-0.919,0.0
8.782,-0.139,-0.927,0.0
8.379,-0.134,-0.931,0.0
8.067,-0.13,-0.94,0.0
7.713,-0.126,-0.94,0.0
9.769,-0.159,-0.914,0.0
9.302,-0.153,-0.92,0.0
8.872,-0.147,-0.926,0.0
8.497,-0.142,-0.933,0.0
8.108,-0.137,-0.934,0.0
7.812,-0.134,-0.942,0.0
9.87,-0.168,-0.911,0.0
9.404,-0.162,-0.919,0.0
8.951,-0.155,-0.922,0.0
8.585,-0.15,-0.932,0.0
8.228,-0.145,-0.937,0.0
7.862,-0.14,-0.938,0.0
10.006,-0.178,-0.911,0.0
9.522,-0.171,-0.918,0.0
9.077,-0.164,-0.923,0.0
8.664,-0.158,-0.929,0.0
8.303,-0.153,-0.935,0.0
7.988,-0.148,-0.942,0.0
10.152,-0.188,-0.91,0.0
9.644,-0.18,-0.916,0.0
9.193,-0.173,-0.923,0.0
8.749,-0.166,-0.926,0.0
8.388,-0.16,-0.933,0.0
8.048,-0.155,-0.938,0.0
10.291,-0.197,-0.909,0.0
9.792,-0.189,-0.917,0.0
9.295,-0.181,-0.92,0.0
8.865,-0.174,-0.926,0.0
8.502,-0.168,-0.934,0.0
8.122,-0.162,-0.936,0.0
10.439,-0.207,-0.907,0.0
9.897,-0.198,-0.913,0.0
9.463,-0.191,-0.923,0.0
8.951,-0.181,-0.922,0.0
8.59,-0.175,-0.931,0.0
8.268,-0.17,-0.94,0.0
14.457,-0.377,-0.851,0.0
13.449,-0.351,-0.861,0.0
12.596,-0.329,-0.872,0.0
11.905,-0.312,-0.888,0.0
11.316,-0.297,-0.903,0.0
10.696,-0.281,-0.91,0.0
14.84,-0.387,-0.846,0.0
13.818,-0.361,-0.859,0.0
12.855,-0.336,-0.866,0.0
12.124,-0.318,-0.882,0.0
11.496,-0.301,-0.896,0.0
10.875,-0.285,-0.904,0.0
15.302,-0.399,-0.844,0.0
14.212,-0.371,-0.857,0.0
13.224,-0.346,-0.867,0.0
12.336,-0.323,-0.874,0.0
11.701,-0.307,-0.89,0.0
11.141,-0.292,-0.905,0.0
15.671,-0.408,-0.834,0.0
14.587,-0.381,-0.852,0.0
13.594,-0.355,-0.865,0.0
12.675,-0.331,-0.874,0.0
11.955,-0.313,-0.887,0.0
11.397,-0.298,-0.905,0.0
16.226,-0.422,-0.833,0.0
14.963,-0.389,-0.846,0.0
13.92,-0.362,-0.86,0.0
12.964,-0.337,-0.869,0.0
12.195,-0.317,-0.881,0.0
11.553,-0.301,-0.895,0.0
16.96,-0.439,-0.839,0.0
15.428,-0.399,-0.843,0.0
14.305,-0.37,-0.856,0.0
13.248,-0.343,-0.863,0.0
12.405,-0.321,-0.872,0.0
11.807,-0.306,-0.892,0.0
17.373,-0.447,-0.826,0.0
15.803,-0.407,-0.833,0.0
14.703,-0.378,-0.851,0.0
13.663,-0.351,-0.863,0.0
12.758,-0.328,-0.873,0.0
12.046,-0.31,-0.886,0.0
17.773,-0.454,-0.81,2.0
16.384,-0.418,-0.832,0.0
15.096,-0.385,-0.845,0.0
14.05,-0.358,-0.86,0.0
13.067,-0.333,-0.868,0.0
12.266,-0.312,-0.879,0.0
17.834,-0.451,-0.779,2.0
16.944,-0.429,-0.828,0.0
15.529,-0.392,-0.839,0.0
14.413,-0.364,-0.855,0.0
13.4,-0.338,-0.864,0.0
12.548,-0.316,-0.875,0.0
17.878,-0.448,-0.746,1.0
17.552,-0.439,-0.823,0.0
15.993,-0.4,-0.833,0.0
14.84,-0.37,-0.851,0.0
13.807,-0.344,-0.864,0.0
12.84,-0.32,-0.87,0.0
19.746,-0.489,-0.786,0.0
17.825,-0.44,-0.802,1.0
16.493,-0.407,-0.827,0.0
15.258,-0.376,-0.846,0.0
14.199,-0.349,-0.861,0.0
13.182,-0.324,-0.867,0.0
20.249,-0.494,-0.766,0.0
18.555,-0.452,-0.798,0.0
17.179,-0.417,-0.828,0.0
15.676,-0.38,-0.838,0.0
14.606,-0.354,-0.857,0.0
13.624,-0.329,-0.87,0.0
21.402,-0.514,-0.768,0.0
19.398,-0.465,-0.796,0.0
17.731,-0.424,-0.82,1.0
16.161,-0.385,-0.832,0.0
15.055,-0.358,-0.853,0.0
13.957,-0.331,-0.864,0.0
21.672,-0.511,-0.736,7.0
19.962,-0.47,-0.781,0.0
18.188,-0.427,-0.806,0.0
16.68,-0.39,-0.827,0.0
15.357,-0.358,-0.841,0.0
14.34,-0.334,-0.859,0.0
21.73,-0.502,-0.695,4.0
20.663,-0.476,-0.768,0.0
19.074,-0.438,-0.808,0.0
17.375,-0.398,-0.827,0.0
15.917,-0.364,-0.84,0.0
14.806,-0.337,-0.858,0.0
21.717,-0.491,-0.653,56.0
21.614,-0.487,-0.761,4.0
19.607,-0.44,-0.792,0.0
17.825,-0.399,-0.814,1.0
16.457,-0.367,-0.836,1.0
15.149,-0.337,-0.848,0.0
21.702,-0.479,-0.609,154.0
21.707,-0.477,-0.722,5.0
20.147,-0.441,-0.774,0.0
18.565,-0.405,-0.811,0.0
16.782,-0.365,-0.82,0.0
15.655,-0.339,-0.846,0.0
21.69,-0.466,-0.566,158.0
21.708,-0.464,-0.679,12.0
21.245,-0.453,-0.774,1.0
19.21,-0.407,-0.801,0.0
17.516,-0.37,-0.821,0.0
16.068,-0.338,-0.836,0.0
21.737,-0.453,-0.525,88.0
21.699,-0.45,-0.636,155.0
21.67,-0.448,-0.747,7.0
19.818,-0.408,-0.788,0.0
18.224,-0.373,-0.819,0.0
16.672,-0.34,-0.835,0.0
21.758,-0.439,-0.483,2.0
21.7,-0.436,-0.594,156.0
21.709,-0.434,-0.706,5.0
20.448,-0.406,-0.773,0.0
18.878,-0.373,-0.811,0.0
17.224,-0.339,-0.829,0.0
30.092,-0.587,-0.609,0.0
21.735,-0.421,-0.552,92.0
21.71,-0.418,-0.664,14.0
21.496,-0.412,-0.771,2.0
19.446,-0.37,-0.798,0.0
17.785,-0.337,-0.822,0.0
32.156,-0.603,-0.589,0.0
28.003,-0.522,-0.658,0.0
21.716,-0.402,-0.622,12.0
21.684,-0.399,-0.735,4.0
20.054,-0.367,-0.784,1.0
18.424,-0.335,-0.816,0.0
34.401,-0.619,-0.564,0.0
29.992,-0.536,-0.647,0.0
25.929,-0.46,-0.693,0.0
22.666,-0.399,-0.726,0.0
20.679,-0.362,-0.769,0.0
19.069,-0.331,-0.807,1.0
0.0,0.0,0.0,0.0
30.548,-0.521,-0.6,0.0
26.671,-0.451,-0.662,0.0
24.013,-0.403,-0.722,0.0
21.639,-0.36,-0.763,3.0
19.554,-0.323,-0.791,0.0
38.282,-0.625,-0.481,0.0
31.668,-0.513,-0.562,0.0
27.858,-0.447,-0.638,0.0
25.088,-0.399,-0.707,0.0
22.285,-0.351,-0.743,0.0
20.212,-0.316,-0.779,0.0
0.0,0.0,0.0,0.0
33.706,-0.516,-0.533,0.0
29.926,-0.454,-0.628,0.0
26.112,-0.392,-0.686,0.0
23.108,-0.343,-0.727,0.0
20.759,-0.305,-0.761,0.0
0.0,0.0,0.0,0.0
0.0,0.0,0.0,0.0
30.74,-0.437,-0.588,0.0
0.0,0.0,0.0,0.0
24.424,-0.34,-0.722,0.0
21.823,-0.3,-0.758,0.0
0.0,0.0,0.0,0.0
0.0,0.0,0.0,0.0
0.0,0.0,0.0,0.0
29.065,-0.38,-0.654,0.0
25.397,-0.328,-0.702,0.0
22.551,-0.288,-0.741,0.0
0.0,0.0,0.0,0.0
42.655,-0.529,-0.433,0.0
34.917,-0.427,-0.536,0.0
0.0,0.0,0.0,0.0
26.49,-0.315,-0.683,0.0
23.498,-0.275,-0.728,0.0
0.0,0.0,0.0,0.0
0.0,0.0,0.0,0.0
0.0,0.0,0.0,0.0
31.257,-0.344,-0.586,0.0
27.653,-0.299,-0.662,0.0
24.559,-0.262,-0.715,0.0
0.0,0.0,0.0,0.0
0.0,0.0,0.0,0.0
19.688,-0.199,-0.229,0.0
19.782,-0.196,-0.334,1.0
19.772,-0.192,-0.437,4.0
25.689,-0.245,-0.701,0.0
0.0,0.0,0.0,0.0
19.792,-0.181,-0.091,0.0
19.765,-0.177,-0.194,9.0
19.749,-0.174,-0.298,10.0
19.748,-0.17,-0.4,13.0
19.752,-0.166,-0.503,14.0
0.0,0.0,0.0,0.0
19.793,-0.159,-0.055,3.0
19.745,-0.155,-0.158,13.0
19.731,-0.151,-0.262,16.0
19.737,-0.147,-0.365,17.0
19.737,-0.143,-0.467,18.0
19.769,-0.139,0.082,0.0
19.752,-0.135,-0.02,7.0
19.717,-0.131,-0.122,16.0
19.718,-0.127,-0.227,16.0
19.74,-0.123,-0.33,16.0
19.738,-0.119,-0.432,17.0
19.756,-0.115,0.117,8.0
19.725,-0.111,0.014,10.0
19.713,-0.107,-0.087,10.0
19.716,-0.103,-0.192,16.0
19.752,-0.099,-0.295,15.0
19.755,-0.095,-0.398,15.0
19.716,-0.091,0.151,14.0
19.717,-0.087,0.049,14.0
19.715,-0.083,-0.053,13.0
19.699,-0.078,-0.157,16.0
19.735,-0.074,-0.26,15.0
19.764,-0.07,-0.363,11.0
19.702,-0.066,0.186,16.0
19.697,-0.061,0.083,16.0
19.701,-0.057,-0.018,15.0
19.713,-0.053,-0.123,14.0
19.75,-0.049,-0.226,14.0
19.773,-0.045,-0.33,2.0
19.66,-0.04,0.219,15.0
19.69,-0.036,0.117,14.0
19.697,-0.031,0.015,15.0
19.733,-0.027,-0.089,9.0
19.758,-0.023,-0.193,6.0
34.917,-0.033,-0.523,0.0
19.635,-0.014,0.253,13.0
19.75,-0.009,0.151,3.0
19.731,-0.005,0.048,6.0
19.736,0.0,-0.056,8.0
19.742,0.003,-0.159,0.0
19.76,0.007,-0.263,0.0
19.625,0.012,0.285,15.0
19.645,0.016,0.183,10.0
19.761,0.021,0.081,8.0
19.732,0.025,-0.024,19.0
19.735,0.03,-0.127,9.0
19.759,0.035,-0.23,17.0
19.617,0.039,0.317,15.0
19.628,0.043,0.215,15.0
19.745,0.048,0.113,10.0
19.744,0.053,0.007,55.0
19.747,0.057,-0.095,42.0
19.764,0.062,-0.199,46.0
19.621,0.066,0.349,20.0
19.607,0.071,0.246,15.0
19.664,0.076,0.143,11.0
19.74,0.081,0.039,21.0
19.755,0.086,-0.064,8.0
19.763,0.091,-0.167,1.0
19.62,0.094,0.38,27.0
19.613,0.099,0.277,15.0
19.651,0.104,0.175,14.0
19.644,0.109,0.069,13.0
19.657,0.114,-0.033,11.0
19.695,0.119,-0.136,6.0
19.607,0.123,0.41,15.0
19.61,0.128,0.308,11.0
19.658,0.133,0.205,17.0
19.642,0.138,0.1,14.0
19.633,0.142,-0.002,18.0
19.641,0.148,-0.105,13.0
19.617,0.152,0.441,12.0
19.624,0.157,0.338,10.0
19.639,0.162,0.235,12.0
19.648,0.167,0.13,12.0
19.64,0.172,0.026,14.0
19.648,0.177,-0.076,13.0
19.651,0.182,0.471,10.0
19.674,0.187,0.368,9.0
19.698,0.192,0.265,7.0
19.686,0.197,0.159,9.0
19.677,0.202,0.056,13.0
19.665,0.207,-0.047,10.0
19.708,0.213,0.502,10.0
19.717,0.218,0.398,11.0
19.721,0.223,0.294,10.0
19.749,0.228,0.188,26.0
19.767,0.234,0.085,9.0
19.691,0.238,-0.019,7.0
19.671,0.243,0.529,13.0
19.693,0.249,0.426,10.0
19.7,0.254,0.322,11.0
19.752,0.26,0.217,20.0
19.779,0.265,0.113,9.0
0.0,0.0,0.0,0.0
19.669,0.275,0.558,14.0
19.684,0.28,0.454,10.0
19.692,0.285,0.35,13.0
19.743,0.291,0.245,4.0
160.717,2.419,1.149,11.0
0.0,0.0,0.0,0.0
19.676,0.307,0.585,10.0
19.707,0.312,0.482,6.0
19.713,0.318,0.378,1.0
55.193,0.905,0.762,24.0
55.177,0.92,0.47,50.0
55.172,0.935,0.178,51.0
55.186,0.951,1.718,68.0
55.18,0.966,1.426,76.0
55.164,0.98,1.133,71.0
55.162,0.995,0.835,74.0
55.16,1.01,0.543,58.0
55.181,1.025,0.251,43.0
55.226,1.042,1.792,8.0
163.255,3.127,4.434,12.0
179.3,3.483,3.919,16.0
179.344,3.531,2.949,4.0
162.929,3.253,1.816,31.0
113.29,2.292,0.662,14.0
135.188,2.777,4.563,22.0
134.749,2.804,3.832,22.0
185.783,3.914,4.295,5.0
179.279,3.828,3.176,19.0
128.717,2.784,1.597,25.0
113.596,2.488,0.806,13.0
114.244,2.539,4.001,16.0
135.08,3.038,4.012,12.0
135.163,3.078,3.296,17.0
179.141,4.127,3.396,20.0
128.701,3.002,1.756,15.0
70.856,1.672,0.59,15.0
113.85,2.726,4.128,21.0
121.468,2.94,3.756,3.0
99.667,2.441,2.552,37.0
129.005,3.195,2.603,3.0
45.499,1.139,0.675,1.0
70.854,1.794,0.675,25.0
0.0,0.0,0.0,0.0
0.0,0.0,0.0,0.0
43.712,1.145,1.17,40.0
43.723,1.158,0.933,150.0
0.0,0.0,0.0,0.0
0.0,0.0,0.0,0.0
0.0,0.0,0.0,0.0
0.0,0.0,0.0,0.0
0.0,0.0,0.0,0.0
40.106,1.132,0.902,81.0
40.117,1.143,0.688,149.0
40.116,1.155,0.474,150.0
40.114,1.169,1.594,150.0
40.125,1.181,1.38,143.0
40.11,1.191,1.165,150.0
40.122,1.202,0.946,150.0
40.125,1.214,0.732,150.0
40.117,1.225,0.517,150.0
40.124,1.24,1.638,114.0
40.122,1.251,1.423,145.0
40.102,1.262,1.208,150.0
40.117,1.273,0.989,150.0
40.126,1.285,0.774,150.0
40.116,1.296,0.559,150.0
40.107,1.311,1.68,36.0
40.109,1.322,1.465,7.0
120.878,4.019,3.766,14.0
121.413,4.07,3.118,16.0
162.512,5.495,3.303,4.0
70.842,2.416,1.06,5.0
119.992,4.137,5.149,13.0
120.298,4.181,4.515,17.0
120.916,4.236,3.888,20.0
163.381,5.769,4.358,7.0
45.01,1.602,0.959,1.0
45.09,1.618,0.719,16.0
120.084,4.357,5.271,24.0
120.314,4.398,4.632,19.0
162.603,5.989,5.385,10.0
43.223,1.604,1.194,65.0
42.719,1.597,0.95,74.0
42.004,1.583,0.709,107.0
134.55,5.125,6.033,10.0
178.618,6.853,7.046,17.0
179.082,6.922,6.097,6.0
40.386,1.572,1.153,150.0
40.392,1.584,0.936,97.0
40.39,1.596,0.718,141.0
180.547,7.206,8.258,13.0
178.918,7.192,7.218,16.0
178.848,7.238,6.25,6.0
163.428,6.66,4.811,17.0
100.501,4.124,2.417,16.0
162.3,6.707,3.028,14.0
23.58,0.984,1.098,0.0
23.605,0.991,0.972,0.0
23.6,0.998,0.844,16.0
23.62,1.005,0.715,33.0
23.624,1.012,0.587,43.0
23.609,1.018,0.459,47.0
23.597,1.027,1.119,47.0
23.593,1.034,0.991,44.0
23.568,1.039,0.862,53.0
23.591,1.047,0.733,151.0
23.597,1.054,0.605,150.0
23.589,1.06,0.478,79.0
23.577,1.07,1.137,75.0
23.575,1.077,1.009,69.0
23.57,1.083,0.881,68.0
23.585,1.091,0.751,69.0
23.576,1.097,0.623,65.0
23.589,1.104,0.496,52.0
23.597,1.115,1.155,47.0
23.607,1.122,1.028,39.0
23.61,1.129,0.899,37.0
23.594,1.135,0.768,27.0
23.609,1.142,0.641,14.0
23.623,1.149,0.513,3.0
23.499,1.154,1.167,0.0
179.922,8.886,7.96,13.0
179.678,8.924,6.973,18.0
162.634,8.122,5.411,13.0
45.194,2.27,1.258,34.0
45.214,2.283,1.012,92.0
0.0,0.0,0.0,0.0
180.082,9.226,8.088,6.0
179.808,9.262,7.095,20.0
162.686,8.424,5.517,5.0
45.196,2.352,1.286,10.0
208.032,10.888,4.79,5.0
200.141,10.57,10.205,19.0
200.234,10.63,9.117,24.0
0.0,0.0,0.0,0.0
180.696,9.694,6.239,18.0
45.228,2.439,1.314,5.0
200.399,10.864,4.734,10.0
0.0,0.0,0.0,0.0
204.078,11.216,9.413,6.0
198.971,10.989,8.088,6.0
180.955,10.043,6.35,7.0
163.394,9.112,4.842,17.0
45.209,2.534,1.092,48.0
0.0,0.0,0.0,0.0
204.874,11.637,9.56,10.0
200.537,11.445,8.258,18.0
198.417,11.377,7.066,17.0
163.532,9.422,4.93,16.0
45.157,2.614,1.114,0.0
0.0,0.0,0.0,0.0
203.662,11.945,9.604,10.0
198.536,11.696,8.275,16.0
197.72,11.703,7.139,21.0
163.497,9.722,5.006,15.0
112.011,6.69,2.817,10.0
204.764,12.331,10.876,7.0
203.638,12.317,9.696,12.0
198.502,12.06,8.363,20.0
197.539,12.056,7.219,20.0
163.289,10.009,5.072,11.0
45.187,2.782,1.155,11.0
112.36,6.974,6.015,2.0
112.395,7.006,5.399,4.0
112.367,7.032,4.78,5.0
112.364,7.061,4.151,5.0
112.403,7.096,3.536,2.0
163.402,10.359,4.244,3.0
100.002,6.39,5.392,19.0
99.96,6.413,4.84,26.0
99.968,6.44,4.29,29.0
99.962,6.465,3.729,36.0
99.978,6.492,3.18,33.0
45.213,2.947,1.189,116.0
99.939,6.568,5.423,36.0
99.977,6.595,4.874,35.0
99.963,6.62,4.323,43.0
99.956,6.646,3.761,38.0
99.964,6.672,3.211,34.0
43.819,2.936,1.166,74.0
99.96,6.75,5.454,34.0
99.965,6.776,4.903,34.0
99.955,6.802,4.351,33.0
99.949,6.826,3.789,41.0
99.956,6.853,3.239,43.0
42.782,2.944,1.15,75.0
99.96,6.932,5.482,34.0
99.984,6.959,4.929,37.0
99.971,6.982,4.376,35.0
99.951,7.007,3.813,39.0
99.967,7.034,3.262,35.0
41.562,2.935,1.126,73.0
45.453,3.234,2.502,33.0
45.465,3.245,2.251,133.0
45.467,3.257,1.999,150.0
45.473,3.269,1.744,150.0
45.475,3.28,1.492,150.0
40.377,2.923,1.102,108.0
45.463,3.315,2.511,150.0
45.464,3.327,2.259,150.0
0.0,0.0,0.0,0.0
0.0,0.0,0.0,0.0
43.677,3.228,1.44,11.0
43.685,3.24,1.199,77.0
43.67,3.263,2.419,133.0
43.672,3.273,2.176,140.0
43.673,3.284,1.934,150.0
43.677,3.295,1.687,150.0
43.687,3.307,1.445,150.0
43.695,3.318,1.203,148.0
43.654,3.339,2.422,40.0
43.66,3.349,2.18,5.0
41.888,3.223,1.858,12.0
41.866,3.232,1.62,70.0
41.887,3.244,1.389,115.0
41.899,3.255,1.157,103.0
41.886,3.277,2.326,138.0
41.89,3.287,2.093,112.0
41.883,3.297,1.86,128.0
41.889,3.307,1.623,150.0
41.892,3.317,1.39,136.0
41.901,3.328,1.158,113.0
40.084,3.206,2.227,8.0
40.082,3.215,2.004,39.0
40.1,3.226,1.781,98.0
40.09,3.234,1.554,139.0
40.099,3.244,1.331,124.0
40.096,3.254,1.108,150.0
40.096,3.276,2.227,119.0
40.092,3.285,2.003,123.0
40.089,3.293,1.78,150.0
40.085,3.302,1.552,150.0
40.093,3.312,1.329,132.0
40.088,3.321,1.106,150.0
40.103,3.345,2.225,114.0
40.094,3.352,2.001,111.0
40.09,3.361,1.777,126.0
40.089,3.37,1.549,136.0
40.097,3.38,1.326,125.0
40.099,3.389,1.102,150.0
40.097,3.411,2.221,6.0
87.1,7.428,4.339,11.0
87.089,7.445,3.851,18.0
87.088,7.465,3.356,28.0
87.109,7.485,2.87,8.0
74.988,6.46,2.052,8.0
87.071,7.551,4.813,24.0
87.067,7.569,4.325,71.0
87.106,7.591,3.84,11.0
87.101,7.609,3.343,10.0
73.707,6.455,2.417,4.0
73.627,6.465,2.003,8.0
83.072,7.342,4.578,2.0
82.946,7.347,4.105,3.0
83.026,7.371,3.644,5.0
82.925,7.379,3.168,4.0
72.463,6.463,2.362,7.0
72.332,6.468,1.953,9.0
82.89,7.458,4.55,33.0
82.927,7.477,4.087,43.0
82.914,7.493,3.622,59.0
82.915,7.51,3.148,150.0
71.257,6.469,2.306,9.0
71.133,6.474,1.904,12.0
82.933,7.594,4.533,11.0
82.927,7.611,4.066,18.0
82.933,7.627,3.601,8.0
82.931,7.643,3.127,6.0
70.027,6.469,2.247,10.0
69.936,6.475,1.852,12.0
0.0,0.0,0.0,0.0
82.925,7.74,4.042,50.0
85.857,8.03,3.702,6.0
85.746,8.037,3.207,8.0
68.923,6.474,2.191,9.0
68.826,6.478,1.801,7.0
85.047,8.052,4.598,11.0
82.929,7.868,4.016,58.0
84.625,8.045,3.621,9.0
84.426,8.042,3.13,6.0
67.799,6.472,2.132,9.0
67.714,6.477,1.75,7.0
83.928,8.075,4.507,10.0
82.888,7.989,3.984,34.0
83.56,8.069,3.545,10.0
83.174,8.048,3.052,4.0
66.69,6.466,2.072,8.0
66.683,6.478,1.697,11.0
75.14,7.341,4.006,2.0
75.141,7.354,3.582,4.0
75.118,7.365,3.158,2.0
65.813,6.465,2.388,2.0
65.789,6.476,2.017,8.0
65.719,6.482,1.645,9.0
75.058,7.444,3.97,12.0
75.072,7.459,3.546,20.0
75.056,7.47,3.122,22.0
64.942,6.475,2.328,6.0
64.873,6.48,1.96,8.0
64.804,6.486,1.592,11.0
75.062,7.553,3.935,37.0
75.045,7.564,3.51,37.0
75.066,7.579,3.087,25.0
64.057,6.479,2.266,7.0
63.968,6.481,1.902,6.0
63.909,6.487,1.54,8.0
75.085,7.662,3.899,8.0
75.13,7.678,3.476,5.0
75.002,7.678,3.046,3.0
63.183,6.478,2.203,8.0
63.117,6.482,1.844,10.0
63.128,6.496,1.488,11.0
70.929,7.336,3.646,1.0
70.979,7.351,3.247,3.0
70.954,7.36,2.844,2.0
62.382,6.481,2.142,6.0
62.339,6.487,1.787,8.0
62.318,6.496,1.435,9.0
70.878,7.425,3.605,9.0
70.908,7.439,3.204,10.0
70.942,7.454,2.804,9.0
61.558,6.478,2.078,10.0
61.551,6.487,1.73,11.0
61.541,6.497,1.381,11.0
70.881,7.519,3.563,112.0
70.885,7.53,3.161,146.0
70.909,7.543,2.76,27.0
60.859,6.483,2.018,6.0
60.837,6.491,1.673,7.0
60.786,6.495,1.327,6.0
70.887,7.611,3.519,12.0
70.887,7.621,3.116,8.0
60.123,6.472,2.302,0.0
60.14,6.484,1.956,5.0
60.109,6.49,1.614,5.0
60.059,6.494,1.272,5.0
70.927,7.705,3.475,3.0
71.003,7.722,3.075,2.0
59.542,6.484,2.241,2.0
59.479,6.485,1.895,4.0
59.447,6.491,1.557,6.0
59.442,6.5,1.22,5.0
73.253,8.046,3.54,10.0
73.235,8.053,3.122,9.0
58.923,6.487,2.177,5.0
58.877,6.491,1.835,10.0
