X,Y,Z,Reflectivity
70.893,2.403,0.728,6.0
40.111,1.349,0.183,23.0
40.105,1.335,1.278,22.0
40.112,1.324,1.05,150.0
40.122,1.314,0.821,150.0
40.111,1.303,0.588,150.0
40.125,1.293,0.36,125.0
40.117,1.282,0.132,150.0
40.112,1.269,1.228,150.0
40.123,1.259,1.0,150.0
40.115,1.248,0.772,150.0
40.115,1.237,0.539,142.0
40.128,1.226,0.31,113.0
40.116,1.215,0.082,150.0
40.118,1.201,1.179,150.0
40.129,1.191,0.951,150.0
40.112,1.179,0.722,150.0
40.124,1.168,0.49,150.0
0.0,0.0,0.0,0.0
40.122,1.146,0.033,150.0
0.0,0.0,0.0,0.0
41.936,1.172,0.943,150.0
41.915,1.159,0.704,150.0
0.0,0.0,0.0,0.0
0.0,0.0,0.0,0.0
40.144,1.076,-0.014,156.0
0.0,0.0,0.0,0.0
0.0,0.0,0.0,0.0
45.501,1.178,0.711,15.0
70.794,1.813,0.696,28.0
70.586,1.788,0.294,16.0
0.0,0.0,0.0,0.0
99.677,2.462,2.577,54.0
99.255,2.424,2.002,93.0
98.829,2.384,1.432,22.0
70.813,1.688,0.617,12.0
74.529,1.755,0.226,2.0
45.515,1.058,-0.12,0.0
135.215,3.099,3.344,11.0
179.23,4.054,3.415,22.0
128.672,2.872,1.72,26.0
113.329,2.496,0.861,18.0
65.316,1.419,0.125,0.0
45.258,0.97,-0.169,0.0
179.234,3.778,4.235,7.0
179.387,3.728,3.221,10.0
162.885,3.339,2.002,27.0
113.027,2.282,0.736,14.0
55.22,1.098,0.047,23.0
43.332,0.849,-0.208,0.0
55.211,1.063,1.246,18.0
55.185,1.046,0.933,45.0
55.16,1.029,0.62,60.0
55.151,1.012,0.302,69.0
55.139,0.995,-0.009,40.0
42.392,0.752,-0.247,1.0
55.182,0.96,1.189,57.0
55.189,0.943,0.877,47.0
55.199,0.927,0.564,27.0
55.248,0.91,0.246,2.0
52.476,0.848,-0.062,4.0
41.274,0.655,-0.282,0.0
19.708,0.305,0.405,11.0
19.745,0.3,0.294,5.0
19.765,0.294,0.182,1.0
0.0,0.0,0.0,0.0
19.685,0.281,-0.042,2.0
19.667,0.275,-0.153,14.0
19.704,0.268,0.386,14.0
19.719,0.262,0.274,12.0
19.757,0.256,0.163,26.0
19.688,0.249,0.049,0.0
19.639,0.243,-0.061,13.0
19.65,0.236,-0.172,17.0
19.727,0.23,0.367,11.0
19.737,0.224,0.256,14.0
19.74,0.218,0.145,16.0
19.654,0.211,0.031,13.0
19.637,0.204,-0.079,16.0
19.65,0.198,-0.19,15.0
19.668,0.191,0.349,11.0
19.662,0.185,0.238,11.0
19.658,0.179,0.127,11.0
19.624,0.172,0.014,17.0
19.629,0.166,-0.096,14.0
19.67,0.16,-0.207,8.0
19.622,0.153,0.331,11.0
19.667,0.147,0.221,17.0
19.629,0.14,0.11,14.0
19.642,0.134,-0.002,13.0
19.676,0.127,-0.113,8.0
0.0,0.0,0.0,0.0
19.614,0.114,0.314,14.0
19.656,0.108,0.204,14.0
19.669,0.102,0.094,12.0
19.726,0.095,-0.018,9.0
19.762,0.089,-0.13,11.0
19.781,0.082,-0.241,19.0
19.611,0.075,0.299,14.0
19.653,0.069,0.188,12.0
19.755,0.062,0.078,23.0
19.752,0.056,-0.034,70.0
19.755,0.049,-0.145,16.0
19.755,0.043,-0.256,10.0
19.624,0.036,0.284,14.0
19.728,0.029,0.174,12.0
19.781,0.022,0.063,4.0
19.746,0.016,-0.049,8.0
0.0,0.0,0.0,0.0
0.0,0.0,0.0,0.0
19.634,-0.003,0.269,14.0
19.702,-0.01,0.16,4.0
19.699,-0.016,0.049,15.0
19.724,-0.023,-0.063,9.0
19.749,-0.03,-0.174,14.0
19.771,-0.037,-0.285,5.0
19.651,-0.043,0.256,13.0
19.701,-0.05,0.146,17.0
19.701,-0.057,0.035,16.0
19.706,-0.064,-0.076,12.0
19.726,-0.07,-0.187,16.0
19.758,-0.077,-0.298,15.0
19.694,-0.084,0.243,13.0
19.707,-0.09,0.133,13.0
19.715,-0.097,0.022,12.0
19.698,-0.104,-0.089,15.0
19.717,-0.111,-0.2,17.0
19.745,-0.118,-0.311,16.0
19.76,-0.125,0.232,1.0
19.666,-0.131,0.121,0.0
19.756,-0.138,0.01,3.0
19.731,-0.145,-0.101,12.0
19.745,-0.152,-0.212,15.0
19.764,-0.159,-0.323,14.0
169.354,-1.42,1.891,6.0
160.743,-1.403,0.895,4.0
0.0,0.0,0.0,0.0
19.903,-0.187,-0.113,0.0
19.813,-0.193,-0.224,0.0
19.739,-0.2,-0.333,0.0
19.776,-0.207,0.209,1.0
0.0,0.0,0.0,0.0
0.0,0.0,0.0,0.0
0.0,0.0,0.0,0.0
0.0,0.0,0.0,0.0
32.036,-0.392,-0.558,0.0
19.759,-0.248,0.199,30.0
19.751,-0.254,0.089,8.0
0.0,0.0,0.0,0.0
0.0,0.0,0.0,0.0
0.0,0.0,0.0,0.0
31.652,-0.453,-0.567,0.0
19.755,-0.289,0.19,17.0
19.75,-0.296,0.079,4.0
0.0,0.0,0.0,0.0
0.0,0.0,0.0,0.0
0.0,0.0,0.0,0.0
31.608,-0.519,-0.58,0.0
163.167,-2.731,1.497,10.0
0.0,0.0,0.0,0.0
0.0,0.0,0.0,0.0
0.0,0.0,0.0,0.0
37.723,-0.685,-0.498,1.0
0.0,0.0,0.0,0.0
146.5,-2.758,1.285,114.0
0.0,0.0,0.0,0.0
0.0,0.0,0.0,0.0
0.0,0.0,0.0,0.0
0.0,0.0,0.0,0.0
30.408,-0.627,-0.582,0.0
146.352,-3.061,1.231,11.0
0.0,0.0,0.0,0.0
0.0,0.0,0.0,0.0
0.0,0.0,0.0,0.0
35.433,-0.792,-0.493,0.0
30.26,-0.687,-0.59,0.0
146.3,-3.364,1.183,150.0
0.0,0.0,0.0,0.0
0.0,0.0,0.0,0.0
0.0,0.0,0.0,0.0
35.269,-0.863,-0.502,0.0
30.403,-0.755,-0.602,0.0
146.198,-3.672,1.139,10.0
0.0,0.0,0.0,0.0
0.0,0.0,0.0,0.0
0.0,0.0,0.0,0.0
35.005,-0.929,-0.507,0.0
0.0,0.0,0.0,0.0
146.104,-3.972,1.103,9.0
0.0,0.0,0.0,0.0
0.0,0.0,0.0,0.0
0.0,0.0,0.0,0.0
34.946,-1.001,-0.514,0.0
29.981,-0.87,-0.608,0.0
0.0,0.0,0.0,0.0
0.0,0.0,0.0,0.0
0.0,0.0,0.0,0.0
0.0,0.0,0.0,0.0
0.0,0.0,0.0,0.0
29.641,-0.922,-0.606,0.0
0.0,0.0,0.0,0.0
0.0,0.0,0.0,0.0
0.0,0.0,0.0,0.0
0.0,0.0,0.0,0.0
34.817,-1.144,-0.525,0.0
0.0,0.0,0.0,0.0
0.0,0.0,0.0,0.0
0.0,0.0,0.0,0.0
0.0,0.0,0.0,0.0
0.0,0.0,0.0,0.0
0.0,0.0,0.0,0.0
29.566,-1.044,-0.612,0.0
160.696,-5.712,1.112,17.0
0.0,0.0,0.0,0.0
0.0,0.0,0.0,0.0
0.0,0.0,0.0,0.0
34.002,-1.259,-0.519,0.0
29.827,-1.116,-0.62,0.0
0.0,0.0,0.0,0.0
0.0,0.0,0.0,0.0
0.0,0.0,0.0,0.0
0.0,0.0,0.0,0.0
0.0,0.0,0.0,0.0
30.175,-1.191,-0.628,0.0
0.0,0.0,0.0,0.0
0.0,0.0,0.0,0.0
0.0,0.0,0.0,0.0
0.0,0.0,0.0,0.0
0.0,0.0,0.0,0.0
29.698,-1.234,-0.618,0.0
101.518,-4.238,0.695,39.0
0.0,0.0,0.0,0.0
0.0,0.0,0.0,0.0
42.42,-1.817,-0.414,0.0
0.0,0.0,0.0,0.0
29.72,-1.296,-0.617,0.0
102.385,-4.484,0.706,5.0
0.0,0.0,0.0,0.0
0.0,0.0,0.0,0.0
0.0,0.0,0.0,0.0
0.0,0.0,0.0,0.0
29.931,-1.366,-0.619,0.0
0.0,0.0,0.0,0.0
101.523,-4.692,0.152,4.0
0.0,0.0,0.0,0.0
0.0,0.0,0.0,0.0
0.0,0.0,0.0,0.0
29.912,-1.427,-0.615,0.0
101.493,-4.858,0.722,1.0
101.517,-4.897,0.165,3.0
0.0,0.0,0.0,0.0
0.0,0.0,0.0,0.0
34.198,-1.688,-0.51,0.0
30.068,-1.495,-0.614,0.0
103.337,-5.157,0.752,3.0
0.0,0.0,0.0,0.0
0.0,0.0,0.0,0.0
0.0,0.0,0.0,0.0
0.0,0.0,0.0,0.0
30.122,-1.558,-0.609,0.0
102.544,-5.323,0.766,1.0
0.0,0.0,0.0,0.0
0.0,0.0,0.0,0.0
0.0,0.0,0.0,0.0
35.271,-1.882,-0.512,0.0
30.225,-1.624,-0.604,0.0
101.477,-5.469,0.782,132.0
101.379,-5.499,0.227,2.0
0.0,0.0,0.0,0.0
0.0,0.0,0.0,0.0
0.0,0.0,0.0,0.0
30.301,-1.688,-0.597,0.0
101.482,-5.669,0.81,25.0
0.0,0.0,0.0,0.0
0.0,0.0,0.0,0.0
43.649,-2.486,-0.371,0.0
35.814,-2.053,-0.5,0.0
30.39,-1.753,-0.59,0.0
140.981,-8.156,1.169,4.0
0.0,0.0,0.0,0.0
0.0,0.0,0.0,0.0
0.0,0.0,0.0,0.0
36.517,-2.164,-0.498,0.0
31.085,-1.854,-0.593,0.0
149.92,-8.961,1.295,15.0
0.0,0.0,0.0,0.0
0.0,0.0,0.0,0.0
0.0,0.0,0.0,0.0
37.017,-2.266,-0.491,0.0
31.241,-1.924,-0.584,0.0
150.02,-9.257,1.352,10.0
108.535,-6.735,0.387,1.0
0.0,0.0,0.0,0.0
0.0,0.0,0.0,0.0
37.151,-2.346,-0.478,0.0
0.0,0.0,0.0,0.0
125.25,-7.968,1.181,23.0
0.0,0.0,0.0,0.0
0.0,0.0,0.0,0.0
0.0,0.0,0.0,0.0
0.0,0.0,0.0,0.0
0.0,0.0,0.0,0.0
99.708,-6.531,0.985,4.0
99.667,-6.562,0.442,18.0
0.0,0.0,0.0,0.0
0.0,0.0,0.0,0.0
39.092,-2.615,-0.467,0.0
32.873,-2.21,-0.572,0.0
108.723,-7.322,1.126,3.0
99.34,-6.725,0.489,6.0
0.0,0.0,0.0,0.0
0.0,0.0,0.0,0.0
39.93,-2.744,-0.457,0.0
32.811,-2.267,-0.554,0.0
100.06,-6.923,1.088,8.0
99.774,-6.938,0.543,12.0
0.0,0.0,0.0,0.0
0.0,0.0,0.0,0.0
40.585,-2.864,-0.443,0.0
33.314,-2.362,-0.545,0.0
100.061,-7.104,1.142,10.0
100.115,-7.142,0.6,10.0
0.0,0.0,0.0,0.0
0.0,0.0,0.0,0.0
41.907,-3.032,-0.434,0.0
0.0,0.0,0.0,0.0
100.082,-7.285,1.201,11.0
100.08,-7.319,0.659,11.0
0.0,0.0,0.0,0.0
0.0,0.0,0.0,0.0
41.857,-3.103,-0.408,0.0
34.959,-2.603,-0.53,0.0
100.105,-7.463,1.261,11.0
100.097,-7.495,0.72,11.0
0.0,0.0,0.0,0.0
0.0,0.0,0.0,0.0
0.0,0.0,0.0,0.0
34.747,-2.648,-0.505,0.0
100.118,-7.638,1.326,12.0
100.098,-7.669,0.785,14.0
98.937,-7.612,0.24,1.0
0.0,0.0,0.0,0.0
0.0,0.0,0.0,0.0
0.0,0.0,0.0,0.0
100.094,-7.81,1.394,14.0
100.054,-7.839,0.853,15.0
99.237,-7.807,0.309,1.0
0.0,0.0,0.0,0.0
0.0,0.0,0.0,0.0
0.0,0.0,0.0,0.0
100.07,-7.977,1.465,13.0
100.079,-8.01,0.925,15.0
99.853,-8.024,0.383,8.0
0.0,0.0,0.0,0.0
0.0,0.0,0.0,0.0
38.66,-3.144,-0.48,0.0
100.077,-8.145,1.537,11.0
90.425,-7.387,0.902,19.0
90.397,-7.412,0.414,25.0
0.0,0.0,0.0,0.0
0.0,0.0,0.0,0.0
38.972,-3.232,-0.455,0.0
90.413,-7.505,1.458,51.0
90.417,-7.533,0.972,49.0
90.435,-7.562,0.484,33.0
0.0,0.0,0.0,0.0
0.0,0.0,0.0,0.0
40.343,-3.411,-0.439,0.0
90.407,-7.65,1.53,42.0
90.42,-7.678,1.044,36.0
90.408,-7.704,0.556,37.0
0.0,0.0,0.0,0.0
0.0,0.0,0.0,0.0
41.517,-3.576,-0.418,0.0
90.38,-7.789,1.603,35.0
90.394,-7.817,1.118,39.0
90.41,-7.845,0.632,37.0
90.349,-7.867,0.136,3.0
50.283,-4.393,-0.194,0.0
0.0,0.0,0.0,0.0
90.403,-7.931,1.68,35.0
90.383,-7.954,1.195,77.0
90.401,-7.982,0.709,36.0
90.369,-8.006,0.214,10.0
0.0,0.0,0.0,0.0
0.0,0.0,0.0,0.0
90.376,-8.064,1.759,35.0
90.403,-8.091,1.273,35.0
90.411,-8.117,0.788,40.0
90.338,-8.137,0.294,7.0
0.0,0.0,0.0,0.0
0.0,0.0,0.0,0.0
90.374,-8.196,1.84,34.0
90.39,-8.223,1.355,38.0
90.416,-8.249,0.87,33.0
90.381,-8.271,0.375,24.0
0.0,0.0,0.0,0.0
0.0,0.0,0.0,0.0
90.369,-8.325,1.923,37.0
90.397,-8.351,1.438,42.0
90.381,-8.374,0.954,22.0
90.4,-8.4,0.459,35.0
0.0,0.0,0.0,0.0
0.0,0.0,0.0,0.0
90.362,-8.451,2.008,38.0
90.369,-8.474,1.523,38.0
90.343,-8.495,1.038,15.0
90.405,-8.525,0.546,76.0
0.0,0.0,0.0,0.0
0.0,0.0,0.0,0.0
90.366,-8.573,2.095,42.0
90.372,-8.596,1.61,52.0
89.025,-8.492,1.11,8.0
90.372,-8.643,0.634,42.0
90.38,-8.667,0.15,11.0
0.0,0.0,0.0,0.0
90.352,-8.692,2.184,43.0
90.375,-8.716,1.7,70.0
90.351,-8.737,1.217,44.0
90.383,-8.763,0.724,28.0
89.694,-8.718,0.239,1.0
0.0,0.0,0.0,0.0
116.317,-11.342,2.931,26.0
90.389,-8.835,1.793,26.0
90.331,-8.851,1.31,16.0
90.35,-8.874,0.817,48.0
90.371,-8.899,0.334,24.0
0.0,0.0,0.0,0.0
116.384,-11.494,3.053,41.0
90.257,-8.935,1.885,43.0
90.265,-8.957,1.403,77.0
89.916,-8.943,0.907,27.0
89.295,-8.903,0.424,10.0
0.0,0.0,0.0,0.0
116.364,-11.634,3.175,40.0
89.061,-8.923,1.954,26.0
89.037,-8.941,1.478,11.0
88.975,-8.956,0.993,7.0
83.421,-8.416,0.484,2.0
0.0,0.0,0.0,0.0
116.367,-11.771,3.3,37.0
88.322,-8.953,2.032,1.0
88.037,-8.942,1.556,1.0
88.014,-8.959,1.076,3.0
87.593,-8.936,0.603,2.0
82.951,-8.481,0.129,0.0
116.29,-11.895,3.424,28.0
116.407,-11.931,2.806,8.0
87.189,-8.954,1.636,2.0
83.367,-8.58,1.111,8.0
86.273,-8.897,0.69,14.0
0.0,0.0,0.0,0.0
116.256,-12.019,3.551,12.0
116.347,-12.051,2.933,15.0
86.216,-8.947,1.713,68.0
86.233,-8.966,1.245,24.0
86.157,-8.975,0.784,6.0
86.146,-8.992,0.324,6.0
148.321,-15.489,4.697,23.0
116.341,-12.171,3.063,33.0
85.606,-8.972,1.797,3.0
85.322,-8.958,1.328,3.0
85.187,-8.961,0.872,3.0
0.0,0.0,0.0,0.0
148.336,-15.642,4.866,20.0
116.351,-12.29,3.196,39.0
84.677,-8.959,1.874,2.0
84.589,-8.965,1.413,2.0
84.479,-8.97,0.96,3.0
84.164,-8.952,0.509,3.0
108.861,-11.585,3.697,17.0
116.357,-12.402,3.331,69.0
83.486,-8.913,1.945,10.0
83.349,-8.913,1.489,15.0
83.367,-8.93,1.046,50.0
83.343,-8.942,0.601,110.0
108.896,-11.689,3.825,17.0
116.311,-12.504,3.465,24.0
83.332,-8.972,2.038,47.0
83.231,-8.975,1.583,6.0
83.228,-8.989,1.14,30.0
83.249,-9.006,0.698,52.0
148.196,-16.04,5.38,15.0
147.913,-16.031,4.581,22.0
83.324,-9.043,2.136,10.0
83.355,-9.06,1.684,15.0
83.364,-9.074,1.24,13.0
83.363,-9.088,0.797,59.0
148.149,-16.159,5.554,31.0
147.864,-16.149,4.755,25.0
116.335,-12.722,3.121,32.0
83.324,-9.124,1.783,38.0
83.36,-9.141,1.34,18.0
83.382,-9.156,0.896,37.0
148.216,-16.285,5.735,32.0
148.026,-16.283,4.937,21.0
116.315,-12.81,3.259,39.0
83.312,-9.187,1.882,34.0
83.378,-9.206,1.439,20.0
83.385,-9.218,0.996,12.0
148.879,-16.469,5.938,24.0
148.179,-16.41,5.119,21.0
116.276,-12.891,3.397,24.0
83.339,-9.25,1.983,28.0
83.379,-9.266,1.54,22.0
83.374,-9.277,1.096,19.0
149.582,-16.654,6.148,5.0
148.464,-16.546,5.312,19.0
148.0,-16.511,4.507,17.0
83.321,-9.306,2.085,16.0
83.382,-9.323,1.642,34.0
83.391,-9.334,1.199,20.0
0.0,0.0,0.0,0.0
148.921,-16.695,5.508,22.0
148.039,-16.611,4.688,27.0
116.301,-13.063,3.052,27.0
83.339,-9.37,1.743,33.0
83.385,-9.385,1.3,17.0
0.0,0.0,0.0,0.0
148.535,-16.742,5.679,20.0
148.231,-16.722,4.876,28.0
116.303,-13.132,3.195,37.0
83.31,-9.416,1.845,34.0
83.374,-9.431,1.404,23.0
0.0,0.0,0.0,0.0
148.4,-16.812,5.857,23.0
148.521,-16.838,5.071,23.0
116.276,-13.193,3.338,32.0
83.314,-9.461,1.948,32.0
83.391,-9.477,1.506,56.0
111.104,-12.636,5.114,7.0
148.272,-16.874,6.033,13.0
148.759,-16.94,5.261,21.0
116.289,-13.252,3.482,16.0
83.333,-9.503,2.05,30.0
83.37,-9.515,1.608,57.0
111.096,-12.689,5.251,14.0
0.0,0.0,0.0,0.0
148.42,-16.971,5.431,21.0
147.818,-16.912,4.606,25.0
83.356,-9.543,2.153,14.0
83.348,-9.548,1.709,26.0
110.979,-12.724,5.381,18.0
0.0,0.0,0.0,0.0
148.35,-17.025,5.61,19.0
148.067,-17.0,4.798,25.0
116.305,-13.361,3.148,56.0
83.326,-9.578,1.812,37.0
110.94,-12.763,5.517,5.0
0.0,0.0,0.0,0.0
148.206,-17.063,5.789,26.0
148.267,-17.078,4.986,24.0
116.297,-13.401,3.291,34.0
83.304,-9.604,1.914,35.0
108.152,-12.48,5.512,17.0
0.0,0.0,0.0,0.0
148.25,-17.117,5.973,13.0
148.41,-17.141,5.172,25.0
116.311,-13.438,3.435,19.0
83.314,-9.63,2.017,31.0
108.143,-12.511,5.645,22.0
110.928,-12.835,5.198,4.0
0.0,0.0,0.0,0.0
148.386,-17.178,5.355,19.0
147.866,-17.123,4.549,18.0
83.306,-9.65,2.119,17.0
108.186,-12.544,5.783,8.0
111.048,-12.877,5.342,8.0
0.0,0.0,0.0,0.0
148.307,-17.202,5.536,24.0
147.979,-17.168,4.735,21.0
116.329,-13.499,3.102,31.0
0.0,0.0,0.0,0.0
94.393,-10.964,4.657,2.0
0.0,0.0,0.0,0.0
148.306,-17.229,5.717,22.0
148.032,-17.2,4.916,25.0
116.289,-13.513,3.243,35.0
0.0,0.0,0.0,0.0
108.126,-12.576,5.467,4.0
0.0,0.0,0.0,0.0
148.301,-17.248,5.897,21.0
148.115,-17.227,5.101,21.0
116.245,-13.521,3.383,23.0
107.981,-12.573,6.169,4.0
108.204,-12.597,5.601,7.0
0.0,0.0,0.0,0.0
148.586,-17.294,6.09,5.0
148.333,-17.264,5.286,22.0
147.989,-17.224,4.485,14.0
107.972,-12.58,6.299,16.0
108.195,-12.602,5.733,5.0
94.261,-10.977,4.489,5.0
0.0,0.0,0.0,0.0
148.369,-17.273,5.467,19.0
147.961,-17.224,4.661,22.0
107.966,-12.582,6.429,17.0
0.0,0.0,0.0,0.0
94.261,-10.978,4.603,6.0
0.0,0.0,0.0,0.0
148.411,-17.276,5.645,23.0
148.008,-17.226,4.839,22.0
107.965,-12.579,6.558,18.0
0.0,0.0,0.0,0.0
0.0,0.0,0.0,0.0
0.0,0.0,0.0,0.0
148.369,-17.262,5.82,20.0
148.121,-17.228,5.019,24.0
107.931,-12.569,6.684,20.0
108.208,-12.594,6.121,2.0
108.188,-12.586,5.538,9.0
0.0,0.0,0.0,0.0
148.272,-17.235,5.989,11.0
148.252,-17.226,5.196,22.0
107.95,-12.558,6.813,17.0
108.022,-12.56,6.236,9.0
108.182,-12.571,5.666,15.0
110.927,-12.884,5.203,1.0
0.0,0.0,0.0,0.0
148.352,-17.214,5.37,24.0
49.597,-5.762,3.187,9.0
107.986,-12.538,6.359,16.0
108.176,-12.552,5.789,5.0
110.969,-12.868,5.332,8.0
0.0,0.0,0.0,0.0
148.292,-17.177,5.537,24.0
49.82,-5.778,3.258,25.0
107.958,-12.512,6.48,19.0
0.0,0.0,0.0,0.0
111.066,-12.854,5.461,7.0
0.0,0.0,0.0,0.0
148.177,-17.128,5.698,26.0
49.908,-5.776,3.32,25.0
107.912,-12.479,6.599,25.0
0.0,0.0,0.0,0.0
108.136,-12.486,5.438,12.0
0.0,0.0,0.0,0.0
148.226,-17.09,5.865,19.0
49.823,-5.752,3.37,24.0
107.807,-12.435,6.712,23.0
0.0,0.0,0.0,0.0
108.149,-12.452,5.559,21.0
111.293,-12.805,5.122,3.0
148.34,-17.052,6.033,11.0
49.449,-5.692,3.4,25.0
49.203,-5.658,3.117,12.0
107.581,-12.359,6.238,6.0
108.172,-12.416,5.678,13.0
111.037,-12.734,5.231,16.0
0.0,0.0,0.0,0.0
49.26,-5.652,3.44,24.0
49.215,-5.641,3.171,17.0
107.552,-12.314,6.35,15.0
0.0,0.0,0.0,0.0
110.914,-12.674,5.343,9.0
0.0,0.0,0.0,0.0
48.785,-5.577,3.459,28.0
49.038,-5.599,3.211,23.0
107.667,-12.28,6.47,18.0
0.0,0.0,0.0,0.0
108.937,-12.398,5.361,13.0
0.0,0.0,0.0,0.0
48.755,-5.551,3.508,40.0
48.977,-5.569,3.258,28.0
49.185,-5.586,3.007,12.0
0.0,0.0,0.0,0.0
108.242,-12.266,5.437,19.0
111.22,-12.589,4.988,5.0
48.788,-5.53,3.559,27.0
49.012,-5.548,3.311,20.0
49.164,-5.558,3.055,19.0
49.288,-5.565,2.791,7.0
108.187,-12.201,5.544,15.0
111.197,-12.526,5.097,12.0
48.952,-5.522,3.621,23.0
48.843,-5.502,3.348,22.0
49.152,-5.529,3.103,8.0
49.283,-5.536,2.84,30.0
108.09,-12.126,5.645,10.0
107.795,-12.078,5.048,18.0
49.363,-5.539,3.7,26.0
48.806,-5.469,3.393,38.0
49.153,-5.499,3.151,9.0
49.234,-5.501,2.884,39.0
0.0,0.0,0.0,0.0
108.537,-12.094,5.185,20.0
49.469,-5.52,3.755,17.0
48.86,-5.444,3.443,29.0
108.029,-12.017,7.027,11.0
49.201,-5.465,2.928,23.0
49.382,-5.477,2.672,0.0
108.78,-12.048,5.297,19.0
49.177,-5.454,3.779,1.0
48.939,-5.419,3.494,25.0
107.816,-11.92,7.112,12.0
49.219,-5.433,2.974,10.0
109.9,-12.113,6.045,13.0
108.336,-11.922,5.372,17.0
48.684,-5.365,3.785,18.0
49.172,-5.41,3.555,21.0
48.724,-5.352,3.257,22.0
107.55,-11.794,6.594,11.0
49.489,-5.418,2.765,9.0
107.957,-11.801,5.447,23.0
48.624,-5.323,3.822,18.0
49.302,-5.387,3.607,32.0
48.686,-5.311,3.296,34.0
107.465,-11.702,6.681,18.0
49.582,-5.389,2.813,20.0
107.89,-11.709,5.536,14.0
48.534,-5.275,3.856,23.0
49.396,-5.358,3.655,24.0
48.926,-5.298,3.354,27.0
48.705,-5.264,3.068,8.0
49.519,-5.343,2.85,23.0
108.059,-11.639,5.633,16.0
48.549,-5.237,3.897,37.0
49.014,-5.277,3.667,13.0
49.394,-5.307,3.426,23.0
48.729,-5.226,3.108,26.0
49.493,-5.298,2.888,4.0
108.902,-11.637,5.762,18.0
48.561,-5.196,3.937,11.0
48.788,-5.21,3.688,7.0
49.557,-5.281,3.476,24.0
48.697,-5.18,3.144,22.0
107.772,-11.442,6.371,24.0
108.784,-11.528,5.838,22.0
40.503,-4.298,3.314,4.0
48.711,-5.158,3.719,19.0
49.468,-5.227,3.506,27.0
48.68,-5.133,3.18,40.0
107.723,-11.338,6.448,16.0
108.879,-11.436,5.924,20.0
40.507,-4.261,3.345,13.0
48.649,-5.106,3.75,30.0
49.619,-5.197,3.552,25.0
48.718,-5.091,3.217,25.0
107.637,-11.225,6.519,21.0
107.485,-11.186,5.923,13.0
40.421,-4.212,3.366,28.0
48.662,-5.06,3.785,22.0
49.585,-5.144,3.585,28.0
48.771,-5.049,3.253,10.0
107.582,-11.113,6.588,19.0
107.17,-11.046,5.978,13.0
40.357,-4.165,3.388,40.0
48.048,-4.947,3.769,19.0
49.904,-5.127,3.641,23.0
107.258,-10.995,7.225,19.0
107.55,-11.0,6.655,19.0
107.863,-11.007,6.084,18.0
40.38,-4.126,3.416,36.0
48.064,-4.899,3.801,21.0
49.98,-5.083,3.677,13.0
107.702,-10.928,7.322,19.0
108.075,-10.941,6.753,10.0
107.969,-10.904,6.156,27.0
40.518,-4.097,3.452,37.0
48.09,-4.851,3.831,5.0
48.131,-4.843,3.569,5.0
107.764,-10.817,7.389,19.0
109.846,-10.999,6.928,16.0
107.878,-10.777,6.211,24.0
40.517,-4.053,3.474,30.0
45.736,-4.563,3.67,11.0
107.094,-10.657,8.003,17.0
107.575,-10.678,7.435,17.0
110.212,-10.913,7.011,18.0
108.046,-10.673,6.279,26.0
40.407,-3.996,3.487,13.0
45.673,-4.505,3.688,13.0
107.332,-10.56,8.076,17.0
107.387,-10.538,7.476,24.0
110.366,-10.802,7.077,5.0
108.414,-10.585,6.354,19.0
47.776,-4.67,4.146,5.0
47.702,-4.65,3.876,8.0
107.289,-10.43,8.125,17.0
107.498,-10.423,7.535,15.0
107.327,-10.379,6.931,6.0
108.722,-10.487,6.423,11.0
47.927,-4.629,4.182,13.0
47.715,-4.595,3.899,8.0
106.159,-10.195,8.086,19.0
107.606,-10.305,7.591,18.0
107.198,-10.238,6.97,21.0
110.304,-10.507,6.562,16.0
48.083,-4.585,4.216,15.0
48.303,-4.593,3.967,11.0
106.009,-10.051,8.118,26.0
107.43,-10.157,7.622,16.0
107.228,-10.109,7.014,24.0
108.9,-10.239,6.521,17.0
48.66,-4.58,4.285,23.0
48.268,-4.529,3.983,28.0
108.058,-10.111,8.316,7.0
106.351,-9.921,7.584,11.0
107.507,-10.0,7.072,21.0
109.501,-10.157,6.597,21.0
48.377,-4.492,4.277,23.0
48.444,-4.485,4.013,10.0
108.229,-9.989,8.365,18.0
106.204,-9.774,7.608,24.0
107.477,-9.861,7.104,16.0
109.513,-10.018,6.632,14.0
47.681,-4.366,4.23,38.0
48.438,-4.421,4.028,14.0
108.639,-9.886,8.429,19.0
106.128,-9.628,7.634,17.0
107.332,-9.708,7.124,21.0
109.694,-9.891,6.673,20.0
47.55,-4.291,4.232,32.0
48.397,-4.353,4.037,18.0
108.597,-9.738,8.455,12.0
108.659,-9.713,7.844,8.0
106.975,-9.533,7.127,25.0
110.058,-9.777,6.721,19.0
47.542,-4.227,4.242,34.0
106.845,-9.468,8.937,13.0
111.443,-9.842,8.701,19.0
109.429,-9.634,7.922,14.0
107.026,-9.392,7.152,24.0
107.927,-9.44,6.613,16.0
47.514,-4.159,4.249,12.0
106.893,-9.325,8.962,8.0
109.868,-9.553,8.597,12.0
109.218,-9.465,7.926,14.0
107.074,-9.248,7.174,12.0
109.75,-9.448,6.742,10.0
47.509,-4.092,4.256,44.0
106.544,-9.147,8.949,18.0
109.604,-9.377,8.592,5.0
109.733,-9.355,7.978,14.0
104.748,-8.901,7.03,19.0
105.481,-8.933,6.493,17.0
47.556,-4.029,4.266,15.0
106.559,-8.998,8.96,25.0
106.933,-8.998,8.393,7.0
111.713,-9.368,8.132,21.0
104.709,-8.75,7.036,18.0
105.365,-8.776,6.493,24.0
47.533,-3.961,4.267,13.0
106.681,-8.857,8.978,23.0
108.171,-8.948,8.496,20.0
107.988,-8.9,7.866,11.0
104.726,-8.601,7.043,25.0
105.23,-8.612,6.488,29.0
47.571,-3.895,4.271,8.0
106.637,-8.699,8.977,24.0
107.143,-8.708,8.417,16.0
0.0,0.0,0.0,0.0
104.815,-8.457,7.049,22.0
105.571,-8.489,6.509,21.0
106.645,-8.577,9.575,17.0
106.952,-8.569,9.002,21.0
107.622,-8.589,8.452,16.0
106.313,-8.454,7.741,23.0
106.228,-8.417,7.139,17.0
107.132,-8.457,6.6,24.0
107.682,-8.503,9.663,19.0
107.698,-8.471,9.058,10.0
104.637,-8.198,8.211,12.0
106.188,-8.288,7.724,27.0
105.835,-8.228,7.104,10.0
106.352,-8.238,6.543,15.0
107.406,-8.321,9.628,7.0
107.353,-8.284,9.017,21.0
104.629,-8.042,8.199,30.0
106.298,-8.138,7.72,21.0
105.692,-8.06,7.082,20.0
107.948,-8.2,6.626,13.0
107.164,-8.14,9.591,20.0
107.145,-8.105,8.984,8.0
110.959,-8.359,8.678,14.0
104.798,-7.864,7.594,10.0
105.48,-7.885,7.049,22.0
107.872,-8.031,6.604,22.0
107.236,-7.982,9.578,19.0
110.261,-8.174,9.224,7.0
109.651,-8.095,8.553,17.0
105.068,-7.725,7.592,19.0
110.82,-8.115,7.383,10.0
107.856,-7.866,6.579,11.0
108.681,-7.925,9.683,15.0
110.245,-8.004,9.197,15.0
105.08,-7.598,8.172,9.0
104.883,-7.551,7.553,20.0
110.4,-7.915,7.328,19.0
107.683,-7.689,6.541,19.0
106.933,-7.632,9.498,15.0
106.482,-7.568,8.854,14.0
104.919,-7.424,8.13,27.0
110.634,-7.794,7.935,19.0
107.83,-7.564,7.125,19.0
106.843,-7.465,6.457,19.0
106.768,-7.455,9.45,22.0
106.522,-7.404,8.823,23.0
105.06,-7.27,8.106,18.0
110.882,-7.64,7.916,4.0
107.548,-7.378,7.07,23.0
106.882,-7.3,6.423,28.0
106.754,-7.287,9.41,22.0
106.606,-7.244,8.791,26.0
107.83,-7.293,8.281,20.0
107.288,-7.225,7.619,18.0
108.231,-7.256,7.073,25.0
107.141,-7.152,6.397,21.0
106.582,-7.109,9.353,13.0
106.765,-7.088,8.761,26.0
107.595,-7.111,8.219,15.0
107.102,-7.047,7.562,22.0
107.589,-7.047,6.986,22.0
108.178,-7.054,6.413,15.0
107.587,-7.008,9.394,13.0
107.245,-6.952,8.753,22.0
107.702,-6.95,8.178,8.0
107.137,-6.882,7.515,21.0
107.637,-6.882,6.939,27.0
107.812,-6.862,6.341,22.0
107.465,-6.831,9.331,18.0
107.306,-6.789,8.705,18.0
108.79,-6.85,8.206,19.0
107.231,-6.719,7.468,23.0
108.01,-6.737,6.909,26.0
107.692,-6.685,6.277,25.0
107.259,-6.649,9.257,22.0
107.544,-6.635,8.668,18.0
108.709,-6.674,8.141,18.0
107.233,-6.551,7.41,24.0
108.145,-6.575,6.858,28.0
108.058,-6.538,6.239,20.0
107.36,-6.486,9.205,16.0
107.665,-6.472,8.616,23.0
108.97,-6.518,8.098,13.0
107.841,-6.418,7.388,25.0
108.258,-6.411,6.801,26.0
107.396,-6.329,6.136,22.0
107.345,-6.315,9.137,19.0
108.623,-6.357,8.624,17.0
108.749,-6.333,8.014,22.0
108.43,-6.283,7.36,12.0
108.14,-6.234,6.724,22.0
107.414,-6.162,6.069,21.0
108.647,-6.221,9.177,24.0
108.677,-6.19,8.557,25.0
108.968,-6.175,7.958,27.0
112.949,-6.368,7.592,7.0
108.133,-6.065,6.651,25.0
108.053,-6.029,6.031,25.0
108.636,-6.048,9.1,28.0
108.687,-6.019,8.481,11.0
109.419,-6.027,7.912,17.0
108.007,-5.917,7.182,17.0
108.346,-5.906,6.586,22.0
108.004,-5.857,5.951,21.0
108.573,-5.873,9.015,22.0
109.162,-5.872,8.437,8.0
109.35,-5.851,7.825,21.0
108.228,-5.76,7.115,23.0
108.574,-5.748,6.518,22.0
107.999,-5.688,5.867,16.0
111.663,-5.865,9.183,10.0
113.082,-5.906,8.651,24.0
109.36,-5.679,7.739,13.0
108.599,-5.609,7.052,15.0
108.507,-5.573,6.426,23.0
110.143,-5.627,5.894,7.0
111.685,-5.689,9.093,13.0
112.948,-5.722,8.546,21.0
108.788,-5.479,7.608,17.0
112.66,-5.643,7.221,14.0
108.433,-5.401,6.331,28.0
108.417,-5.37,5.71,18.0
111.75,-5.517,9.001,9.0
112.468,-5.521,8.412,16.0
114.929,-5.609,7.936,23.0
112.793,-5.472,7.131,31.0
112.665,-5.434,6.477,14.0
109.071,-5.232,5.646,22.0
115.907,-5.541,9.229,23.0
116.295,-5.527,8.592,16.0
115.455,-5.455,7.866,21.0
113.159,-5.315,7.048,9.0
112.755,-5.264,6.376,20.0
118.09,-5.482,6.003,18.0
115.539,-5.344,9.091,22.0
115.297,-5.299,8.407,20.0
115.679,-5.284,7.77,20.0
115.396,-5.24,7.076,10.0
112.994,-5.1,6.28,14.0
117.099,-5.254,5.838,11.0
114.935,-5.138,8.93,25.0
114.947,-5.107,8.268,23.0
116.12,-5.128,7.685,20.0
114.832,-5.039,6.927,24.0
115.129,-5.022,6.285,22.0
116.87,-5.066,5.709,21.0
115.106,-4.969,8.825,27.0
114.866,-4.927,8.143,20.0
114.767,-4.891,7.476,24.0
114.539,-4.85,6.79,24.0
114.611,-4.822,6.135,24.0
115.221,-4.818,5.506,17.0
115.17,-4.795,8.706,26.0
120.56,-4.988,8.418,11.0
114.812,-4.719,7.354,18.0
114.129,-4.661,6.643,27.0
114.789,-4.657,6.02,20.0
115.334,-4.65,5.386,24.0
115.133,-4.619,8.576,23.0
115.676,-4.609,7.948,20.0
115.371,-4.566,7.261,9.0
114.21,-4.491,6.518,22.0
115.094,-4.497,5.907,24.0
115.261,-4.473,5.252,16.0
115.163,-4.446,8.444,20.0
115.793,-4.44,7.823,22.0
114.624,-4.365,7.081,26.0
114.618,-4.335,6.408,23.0
115.069,-4.323,5.77,24.0
117.227,-4.374,5.205,25.0
123.359,-4.578,8.899,14.0
116.142,-4.28,7.706,25.0
114.61,-4.193,6.942,23.0
114.399,-4.156,6.258,24.0
115.815,-4.177,5.667,18.0
117.308,-4.201,5.064,22.0
123.837,-4.41,8.78,21.0
117.876,-4.168,7.676,20.0
114.509,-4.02,6.794,23.0
114.435,-3.989,6.117,28.0
115.822,-4.008,5.524,16.0
117.516,-4.037,4.927,23.0
124.335,-4.246,8.658,17.0
116.935,-3.965,7.466,24.0
114.453,-3.851,6.646,19.0
114.762,-3.833,5.988,19.0
117.113,-3.882,5.434,20.0
116.72,-3.841,4.743,24.0
117.973,-3.857,8.061,18.0
114.691,-3.721,7.172,21.0
115.664,-3.724,6.563,24.0
115.556,-3.692,5.877,16.0
117.177,-3.715,5.282,14.0
119.1,-3.747,4.682,11.0
118.011,-3.687,7.904,26.0
115.673,-3.586,7.076,25.0
115.119,-3.541,6.375,24.0
117.242,-3.578,5.803,27.0
122.169,-3.7,5.341,4.0
118.888,-3.573,4.511,25.0
125.24,-3.737,8.217,18.0
115.73,-3.425,6.921,23.0
116.037,-3.406,6.266,13.0
117.326,-3.416,5.644,26.0
117.445,-3.393,4.972,24.0
118.618,-3.399,4.336,15.0
125.358,-3.563,8.045,14.0
115.905,-3.267,6.765,21.0
141.113,-3.944,7.419,16.0
117.46,-3.255,5.483,19.0
139.588,-3.837,5.708,16.0
140.299,-3.824,4.925,7.0
115.987,-3.136,7.276,23.0
115.751,-3.103,6.588,17.0
124.497,-3.308,6.363,9.0
140.822,-3.711,6.367,9.0
139.809,-3.652,5.513,19.0
143.743,-3.722,4.836,4.0
124.572,-3.198,7.628,20.0
124.462,-3.167,6.899,28.0
192.004,-4.842,9.528,5.0
117.371,-2.934,5.132,12.0
140.122,-3.473,5.317,15.0
162.591,-3.994,5.228,18.0
124.721,-3.036,7.449,20.0
124.439,-3.001,6.708,18.0
140.841,-3.366,6.777,11.0
143.734,-3.405,6.068,14.0
140.664,-3.301,5.124,23.0
162.707,-3.785,4.985,17.0
124.17,-2.859,7.225,19.0
142.264,-3.246,7.451,12.0
140.789,-3.182,6.556,10.0
190.243,-4.258,7.735,8.0
140.483,-3.114,4.896,10.0
163.35,-3.588,4.749,25.0
141.832,-3.082,8.028,7.0
0.0,0.0,0.0,0.0
191.491,-4.081,8.612,16.0
190.296,-4.015,7.433,13.0
162.584,-3.396,5.406,35.0
163.294,-3.378,4.485,33.0
0.0,0.0,0.0,0.0
0.0,0.0,0.0,0.0
190.979,-3.83,8.282,14.0
190.248,-3.776,7.125,22.0
162.641,-3.196,5.149,41.0
163.435,-3.178,4.225,15.0
0.0,0.0,0.0,0.0
192.364,-3.658,9.143,11.0
191.355,-3.6,7.983,21.0
190.501,-3.545,6.82,20.0
163.383,-3.008,4.899,16.0
171.468,-3.124,4.147,6.0
0.0,0.0,0.0,0.0
190.009,-3.382,8.713,17.0
189.993,-3.344,7.606,25.0
190.047,-3.308,6.484,22.0
163.269,-2.81,4.622,29.0
0.0,0.0,0.0,0.0
0.0,0.0,0.0,0.0
193.201,-3.208,8.528,21.0
191.318,-3.14,7.332,23.0
162.592,-2.638,5.27,48.0
163.34,-2.619,4.343,12.0
172.234,-2.729,3.578,3.0
0.0,0.0,0.0,0.0
192.95,-2.979,8.183,24.0
191.906,-2.926,7.02,18.0
162.939,-2.454,4.995,23.0
163.446,-2.432,4.062,6.0
19.696,-0.289,0.375,0.0
0.0,0.0,0.0,0.0
192.546,-2.753,7.827,19.0
191.711,-2.706,6.675,22.0
163.327,-2.277,4.72,38.0
19.774,-0.272,0.456,1.0
19.749,-0.268,0.341,8.0
0.0,0.0,0.0,0.0
185.933,-2.452,7.225,20.0
162.57,-2.116,5.372,57.0
19.787,-0.254,0.536,2.0
19.761,-0.25,0.42,8.0
19.746,-0.246,0.305,12.0
0.0,0.0,0.0,0.0
185.995,-2.252,6.89,21.0
19.771,-0.236,0.617,2.0
19.755,-0.232,0.499,8.0
19.742,-0.228,0.384,12.0
19.752,-0.225,0.269,6.0
186.673,-2.096,7.661,6.0
19.757,-0.218,0.695,0.0
19.757,-0.215,0.58,8.0
19.742,-0.211,0.463,9.0
19.757,-0.208,0.348,6.0
163.869,-1.704,1.934,13.0
185.739,-1.896,7.279,6.0
19.755,-0.198,0.658,3.0
19.748,-0.195,0.543,9.0
19.759,-0.192,0.426,7.0
19.745,-0.188,0.311,0.0
168.821,-1.588,1.679,14.0
19.784,-0.182,0.738,0.0
19.747,-0.178,0.621,10.0
19.752,-0.175,0.506,6.0
19.778,-0.172,0.389,0.0
169.392,-1.454,2.349,20.0
160.725,-1.355,1.293,18.0
19.764,-0.162,0.699,5.0
19.758,-0.159,0.584,5.0
19.784,-0.157,0.469,2.0
177.238,-1.382,3.156,18.0
169.79,-1.298,2.032,5.0
160.716,-1.205,0.986,12.0
19.726,-0.144,0.66,1.0
19.764,-0.141,0.546,3.0
19.705,-0.138,0.43,1.0
19.759,-0.136,0.314,0.0
19.746,-0.133,0.198,6.0
19.754,-0.13,0.083,7.0
19.666,-0.126,0.62,9.0
19.668,-0.123,0.505,8.0
19.677,-0.12,0.39,7.0
19.698,-0.118,0.274,6.0
19.727,-0.115,0.159,13.0
19.724,-0.112,0.044,12.0
19.658,-0.109,0.581,12.0
19.661,-0.106,0.466,10.0
19.664,-0.104,0.352,8.0
19.685,-0.101,0.235,12.0
19.705,-0.098,0.12,14.0
19.715,-0.096,0.005,15.0
19.642,-0.092,0.542,11.0
19.646,-0.09,0.427,9.0
19.648,-0.087,0.313,9.0
19.695,-0.085,0.196,14.0
19.7,-0.082,0.081,13.0
19.716,-0.08,-0.033,16.0
19.642,-0.077,0.503,12.0
19.646,-0.074,0.388,9.0
19.65,-0.072,0.273,10.0
19.679,-0.069,0.157,17.0
19.696,-0.067,0.042,15.0
19.727,-0.065,-0.072,14.0
19.637,-0.062,0.463,13.0
19.639,-0.06,0.349,10.0
19.648,-0.057,0.234,13.0
19.678,-0.055,0.118,17.0
19.702,-0.053,0.003,17.0
19.733,-0.05,-0.112,14.0
19.638,-0.048,0.424,13.0
19.633,-0.045,0.309,10.0
19.649,-0.043,0.194,12.0
19.688,-0.041,0.078,15.0
19.71,-0.039,-0.036,14.0
19.75,-0.037,-0.152,13.0
19.628,-0.034,0.383,13.0
19.621,-0.032,0.269,11.0
19.693,-0.03,0.155,6.0
19.695,-0.028,0.038,14.0
19.745,-0.026,-0.076,6.0
19.775,-0.024,-0.192,1.0
19.634,-0.021,0.343,14.0
19.642,-0.019,0.229,14.0
19.684,-0.017,0.114,3.0
19.721,-0.015,-0.002,13.0
19.762,-0.013,-0.117,2.0
0.0,0.0,0.0,0.0
19.625,-0.009,0.303,14.0
19.683,-0.007,0.189,10.0
19.781,-0.005,0.074,3.0
19.746,-0.003,-0.042,7.0
19.804,-0.001,-0.158,0.0
19.775,0.0,-0.274,0.0
19.63,0.001,0.263,15.0
19.785,0.003,0.149,1.0
19.749,0.005,0.033,5.0
19.763,0.007,-0.084,1.0
19.762,0.009,-0.199,1.0
19.761,0.011,-0.315,2.0
19.637,0.012,0.221,16.0
19.746,0.014,0.107,8.0
19.734,0.016,-0.007,22.0
19.76,0.018,-0.124,4.0
19.753,0.019,-0.24,17.0
19.777,0.021,-0.356,10.0
19.745,0.023,0.181,24.0
19.748,0.024,0.066,17.0
19.757,0.026,-0.049,150.0
19.748,0.028,-0.166,8.0
19.747,0.029,-0.282,12.0
19.776,0.031,-0.398,10.0
19.759,0.032,0.14,12.0
19.754,0.034,0.024,17.0
19.761,0.035,-0.09,13.0
19.766,0.037,-0.208,21.0
19.769,0.038,-0.324,14.0
19.776,0.04,-0.439,12.0
19.755,0.041,0.098,16.0
19.745,0.042,-0.017,43.0
19.772,0.044,-0.132,26.0
19.769,0.045,-0.25,57.0
19.763,0.046,-0.365,26.0
19.764,0.048,-0.481,38.0
19.751,0.049,0.057,25.0
19.766,0.05,-0.058,26.0
19.764,0.051,-0.173,33.0
19.768,0.053,-0.291,28.0
19.777,0.054,-0.407,30.0
19.786,0.055,-0.523,30.0
19.767,0.056,0.015,49.0
19.772,0.057,-0.1,60.0
19.767,0.058,-0.216,41.0
19.774,0.06,-0.333,46.0
19.785,0.061,-0.449,59.0
19.788,0.062,-0.565,24.0
19.765,0.062,-0.026,63.0
19.775,0.063,-0.142,49.0
19.769,0.064,-0.257,35.0
19.779,0.066,-0.375,28.0
19.788,0.067,-0.491,23.0
19.787,0.068,-0.607,16.0
19.772,0.068,-0.068,31.0
19.769,0.069,-0.183,28.0
19.766,0.07,-0.299,16.0
19.758,0.071,-0.417,18.0
19.777,0.072,-0.533,12.0
19.783,0.073,-0.648,9.0
19.765,0.073,-0.11,17.0
19.758,0.074,-0.225,14.0
19.764,0.075,-0.341,12.0
19.761,0.076,-0.458,11.0
19.78,0.077,-0.575,6.0
19.793,0.077,-0.691,2.0
19.766,0.077,-0.151,15.0
19.764,0.078,-0.267,10.0
19.77,0.079,-0.383,7.0
19.776,0.079,-0.5,3.0
19.794,0.08,-0.617,2.0
19.778,0.081,-0.732,6.0
19.766,0.08,-0.193,6.0
19.77,0.081,-0.309,2.0
19.782,0.082,-0.424,3.0
19.762,0.083,-0.542,1.0
19.787,0.083,-0.658,1.0
19.687,0.084,-0.77,2.0
19.78,0.083,-0.235,2.0
19.786,0.084,-0.351,2.0
19.778,0.084,-0.466,1.0
19.775,0.085,-0.584,0.0
19.794,0.086,-0.7,0.0
19.034,0.083,-0.785,0.0
11.919,-0.131,-0.876,0.0
11.202,-0.125,-0.888,0.0
10.533,-0.119,-0.896,0.0
9.967,-0.114,-0.907,0.0
9.47,-0.11,-0.917,0.0
8.944,-0.105,-0.919,0.0
11.738,-0.141,-0.879,0.0
11.053,-0.134,-0.892,0.0
10.419,-0.128,-0.901,0.0
9.846,-0.122,-0.91,0.0
9.341,-0.117,-0.918,0.0
8.877,-0.113,-0.924,0.0
11.552,-0.15,-0.881,0.0
10.894,-0.143,-0.894,0.0
10.265,-0.136,-0.902,0.0
9.717,-0.131,-0.912,0.0
9.234,-0.126,-0.92,0.0
8.759,-0.12,-0.924,0.0
11.392,-0.16,-0.884,0.0
10.722,-0.152,-0.895,0.0
10.127,-0.145,-0.904,0.0
9.599,-0.139,-0.913,0.0
9.13,-0.134,-0.922,0.0
8.677,-0.128,-0.927,0.0
11.234,-0.169,-0.887,0.0
10.598,-0.161,-0.898,0.0
10.018,-0.154,-0.907,0.0
9.489,-0.147,-0.915,0.0
8.995,-0.141,-0.92,0.0
8.58,-0.136,-0.928,0.0
11.096,-0.179,-0.89,0.0
10.44,-0.17,-0.898,0.0
9.884,-0.162,-0.908,0.0
9.4,-0.156,-0.919,0.0
8.901,-0.149,-0.922,0.0
8.482,-0.144,-0.928,0.0
10.965,-0.189,-0.893,0.0
10.285,-0.179,-0.897,0.0
9.781,-0.171,-0.91,0.0
9.278,-0.164,-0.918,0.0
8.767,-0.157,-0.919,0.0
8.384,-0.151,-0.927,0.0
10.809,-0.198,-0.894,0.0
10.16,-0.188,-0.899,0.0
9.666,-0.18,-0.911,0.0
9.143,-0.172,-0.916,0.0
8.725,-0.166,-0.925,0.0
8.339,-0.16,-0.932,0.0
10.693,-0.208,-0.897,0.0
10.073,-0.197,-0.903,0.0
9.554,-0.189,-0.912,0.0
9.033,-0.18,-0.915,0.0
8.654,-0.174,-0.927,0.0
8.23,-0.167,-0.93,0.0
10.564,-0.217,-0.898,0.0
9.985,-0.207,-0.906,0.0
9.484,-0.198,-0.915,0.0
8.96,-0.189,-0.918,0.0
8.541,-0.182,-0.924,0.0
8.164,-0.175,-0.931,0.0
10.452,-0.227,-0.899,0.0
9.89,-0.216,-0.908,0.0
9.398,-0.207,-0.917,0.0
8.895,-0.198,-0.92,0.0
8.491,-0.19,-0.928,0.0
8.112,-0.183,-0.934,0.0
10.362,-0.237,-0.902,0.0
9.808,-0.226,-0.91,0.0
9.325,-0.217,-0.919,0.0
8.818,-0.206,-0.921,0.0
8.44,-0.199,-0.931,0.0
8.075,-0.192,-0.937,0.0
10.249,-0.246,-0.902,0.0
9.704,-0.235,-0.91,0.0
9.193,-0.224,-0.916,0.0
8.749,-0.215,-0.923,0.0
8.39,-0.208,-0.934,0.0
7.975,-0.199,-0.934,0.0
10.144,-0.256,-0.903,0.0
9.642,-0.245,-0.914,0.0
9.109,-0.233,-0.916,0.0
8.678,-0.224,-0.924,0.0
8.287,-0.215,-0.93,0.0
7.934,-0.208,-0.936,0.0
10.071,-0.266,-0.906,0.0
9.574,-0.255,-0.916,0.0
9.053,-0.243,-0.918,0.0
8.63,-0.233,-0.926,0.0
8.232,-0.224,-0.931,0.0
7.897,-0.216,-0.939,0.0
10.001,-0.276,-0.908,0.0
9.485,-0.264,-0.916,0.0
8.982,-0.252,-0.919,0.0
8.537,-0.241,-0.923,0.0
8.17,-0.232,-0.931,0.0
7.827,-0.224,-0.937,0.0
9.925,-0.286,-0.909,0.0
9.434,-0.274,-0.919,0.0
8.935,-0.261,-0.921,0.0
8.526,-0.251,-0.929,0.0
8.12,-0.241,-0.932,0.0
7.808,-0.233,-0.941,0.0
9.836,-0.296,-0.909,0.0
9.371,-0.284,-0.92,0.0
8.896,-0.271,-0.924,0.0
8.465,-0.26,-0.929,0.0
8.06,-0.249,-0.931,0.0
7.761,-0.241,-0.941,0.0
9.777,-0.306,-0.911,0.0
9.32,-0.294,-0.922,0.0
8.816,-0.28,-0.922,0.0
8.416,-0.269,-0.93,0.0
8.057,-0.259,-0.937,0.0
7.714,-0.25,-0.941,0.0
9.698,-0.316,-0.91,0.0
9.252,-0.303,-0.921,0.0
8.768,-0.289,-0.923,0.0
8.347,-0.277,-0.928,0.0
8.003,-0.267,-0.936,0.0
7.683,-0.258,-0.943,0.0
9.645,-0.326,-0.911,0.0
9.16,-0.311,-0.918,0.0
8.692,-0.297,-0.921,0.0
8.319,-0.286,-0.93,0.0
7.974,-0.276,-0.937,0.0
7.659,-0.267,-0.944,0.0
9.612,-0.337,-0.914,0.0
9.089,-0.32,-0.916,0.0
8.643,-0.307,-0.921,0.0
8.285,-0.296,-0.931,0.0
7.944,-0.285,-0.938,0.0
7.633,-0.276,-0.946,0.0
9.555,-0.347,-0.914,0.0
9.072,-0.331,-0.92,0.0
8.634,-0.317,-0.925,0.0
8.253,-0.305,-0.932,0.0
7.915,-0.294,-0.939,0.0
7.605,-0.284,-0.946,0.0
9.506,-0.357,-0.914,0.0
9.003,-0.34,-0.917,0.0
8.581,-0.326,-0.923,0.0
8.227,-0.314,-0.933,0.0
7.885,-0.303,-0.939,0.0
7.56,-0.292,-0.944,0.0
9.472,-0.367,-0.915,0.0
9.002,-0.351,-0.921,0.0
8.571,-0.336,-0.926,0.0
8.165,-0.322,-0.93,0.0
7.846,-0.311,-0.938,0.0
7.553,-0.301,-0.947,0.0
9.443,-0.378,-0.917,0.0
8.941,-0.36,-0.919,0.0
8.566,-0.347,-0.929,0.0
8.135,-0.331,-0.93,0.0
7.812,-0.32,-0.937,0.0
7.512,-0.309,-0.944,0.0
9.405,-0.388,-0.917,0.0
8.965,-0.372,-0.925,0.0
8.525,-0.356,-0.928,0.0
8.119,-0.341,-0.931,0.0
7.8,-0.329,-0.939,0.0
7.489,-0.318,-0.944,0.0
9.383,-0.399,-0.918,0.0
8.902,-0.381,-0.921,0.0
8.522,-0.367,-0.93,0.0
8.125,-0.351,-0.934,0.0
7.763,-0.338,-0.937,0.0
7.49,-0.327,-0.947,0.0
9.371,-0.411,-0.919,0.0
8.859,-0.39,-0.919,0.0
8.497,-0.376,-0.93,0.0
8.06,-0.359,-0.929,0.0
7.78,-0.348,-0.941,0.0
7.436,-0.335,-0.942,0.0
9.346,-0.421,-0.919,0.0
8.854,-0.401,-0.921,0.0
8.488,-0.386,-0.931,0.0
8.078,-0.37,-0.933,0.0
7.747,-0.356,-0.938,0.0
7.464,-0.345,-0.947,0.0
9.336,-0.432,-0.92,0.0
8.84,-0.411,-0.921,0.0
8.466,-0.396,-0.93,0.0
8.071,-0.379,-0.933,0.0
7.754,-0.366,-0.941,0.0
7.468,-0.354,-0.949,0.0
9.325,-0.443,-0.92,0.0
8.834,-0.422,-0.922,0.0
8.456,-0.406,-0.93,0.0
8.08,-0.39,-0.935,0.0
7.747,-0.375,-0.941,0.0
7.474,-0.364,-0.95,0.0
9.329,-0.455,-0.922,0.0
8.84,-0.433,-0.923,0.0
8.437,-0.415,-0.929,0.0
8.072,-0.399,-0.935,0.0
7.75,-0.385,-0.942,0.0
7.402,-0.37,-0.941,0.0
9.302,-0.465,-0.92,0.0
8.858,-0.445,-0.926,0.0
8.453,-0.426,-0.931,0.0
8.047,-0.408,-0.933,0.0
7.752,-0.395,-0.942,0.0
7.428,-0.38,-0.945,0.0
9.314,-0.477,-0.921,0.0
8.85,-0.455,-0.925,0.0
8.482,-0.438,-0.934,0.0
8.035,-0.417,-0.931,0.0
7.771,-0.405,-0.944,0.0
7.442,-0.39,-0.947,0.0
9.32,-0.488,-0.921,0.0
8.843,-0.465,-0.924,0.0
8.457,-0.447,-0.931,0.0
8.043,-0.427,-0.932,0.0
7.73,-0.412,-0.939,0.0
7.451,-0.399,-0.947,0.0
9.334,-0.5,-0.922,0.0
8.835,-0.475,-0.922,0.0
8.449,-0.457,-0.93,0.0
8.073,-0.438,-0.934,0.0
7.774,-0.424,-0.944,0.0
7.437,-0.407,-0.945,0.0
9.318,-0.51,-0.92,0.0
8.887,-0.489,-0.927,0.0
8.463,-0.467,-0.93,0.0
8.093,-0.449,-0.936,0.0
7.776,-0.433,-0.943,0.0
7.496,-0.419,-0.951,0.0
9.341,-0.522,-0.92,0.0
8.892,-0.499,-0.926,0.0
8.461,-0.477,-0.928,0.0
8.122,-0.46,-0.938,0.0
7.783,-0.443,-0.942,0.0
7.47,-0.427,-0.946,0.0
9.369,-0.535,-0.921,0.0
8.892,-0.51,-0.924,0.0
8.492,-0.489,-0.93,0.0
8.072,-0.466,-0.93,0.0
7.776,-0.451,-0.94,0.0
7.479,-0.436,-0.946,0.0
9.389,-0.547,-0.921,0.0
8.936,-0.522,-0.926,0.0
8.509,-0.499,-0.93,0.0
8.122,-0.478,-0.934,0.0
7.831,-0.463,-0.944,0.0
7.512,-0.446,-0.948,0.0
9.413,-0.559,-0.921,0.0
8.942,-0.533,-0.924,0.0
8.574,-0.513,-0.934,0.0
8.146,-0.489,-0.934,0.0
7.791,-0.469,-0.937,0.0
7.524,-0.455,-0.947,0.0
9.425,-0.57,-0.919,0.0
8.972,-0.544,-0.924,0.0
8.587,-0.523,-0.933,0.0
8.155,-0.498,-0.932,0.0
7.843,-0.481,-0.94,0.0
7.542,-0.464,-0.946,0.0
9.492,-0.584,-0.922,0.0
9.012,-0.556,-0.925,0.0
8.596,-0.533,-0.93,0.0
8.222,-0.511,-0.936,0.0
7.888,-0.492,-0.942,0.0
7.558,-0.473,-0.945,0.0
9.523,-0.596,-0.921,0.0
9.051,-0.568,-0.925,0.0
8.629,-0.544,-0.93,0.0
8.239,-0.521,-0.935,0.0
7.942,-0.504,-0.945,0.0
7.572,-0.482,-0.944,0.0
9.554,-0.608,-0.92,0.0
9.058,-0.578,-0.922,0.0
8.653,-0.554,-0.929,0.0
8.279,-0.532,-0.935,0.0
7.918,-0.511,-0.938,0.0
7.629,-0.494,-0.947,0.0
9.586,-0.62,-0.918,0.0
9.114,-0.591,-0.923,0.0
8.736,-0.569,-0.933,0.0
8.277,-0.541,-0.931,0.0
7.967,-0.522,-0.94,0.0
7.69,-0.506,-0.95,0.0
9.65,-0.634,-0.919,0.0
9.155,-0.603,-0.922,0.0
8.766,-0.579,-0.931,0.0
8.355,-0.554,-0.935,0.0
8.012,-0.533,-0.941,0.0
7.75,-0.517,-0.953,0.0
9.656,-0.643,-0.914,0.0
9.231,-0.617,-0.924,0.0
8.825,-0.592,-0.933,0.0
8.412,-0.566,-0.936,0.0
8.05,-0.543,-0.94,0.0
7.742,-0.524,-0.947,0.0
9.72,-0.657,-0.914,0.0
9.258,-0.628,-0.921,0.0
8.847,-0.602,-0.929,0.0
8.464,-0.577,-0.936,0.0
8.084,-0.553,-0.939,0.0
7.772,-0.533,-0.946,0.0
9.828,-0.673,-0.918,0.0
9.305,-0.639,-0.92,0.0
8.886,-0.612,-0.927,0.0
8.483,-0.586,-0.933,0.0
8.14,-0.564,-0.94,0.0
7.796,-0.542,-0.943,0.0
9.881,-0.686,-0.916,0.0
9.394,-0.654,-0.922,0.0
8.944,-0.624,-0.927,0.0
8.533,-0.597,-0.932,0.0
8.184,-0.574,-0.939,0.0
7.835,-0.552,-0.942,0.0
9.97,-0.701,-0.917,0.0
9.475,-0.668,-0.923,0.0
9.013,-0.637,-0.928,0.0
8.638,-0.612,-0.937,0.0
8.262,-0.587,-0.942,0.0
7.878,-0.561,-0.942,0.0
10.048,-0.715,-0.916,0.0
9.503,-0.678,-0.919,0.0
9.073,-0.649,-0.927,0.0
8.651,-0.62,-0.932,0.0
8.276,-0.595,-0.937,0.0
7.924,-0.571,-0.941,0.0
10.056,-0.723,-0.909,0.0
9.578,-0.691,-0.918,0.0
9.15,-0.661,-0.927,0.0
8.707,-0.631,-0.931,0.0
8.318,-0.604,-0.935,0.0
7.977,-0.581,-0.94,0.0
10.154,-0.738,-0.909,0.0
9.676,-0.705,-0.919,0.0
9.242,-0.675,-0.928,0.0
8.829,-0.647,-0.936,0.0
8.37,-0.615,-0.933,0.0
8.028,-0.591,-0.939,0.0
10.225,-0.751,-0.907,0.0
9.764,-0.719,-0.919,0.0
9.271,-0.684,-0.923,0.0
8.88,-0.657,-0.934,0.0
8.443,-0.626,-0.934,0.0
8.097,-0.602,-0.94,0.0
10.355,-0.768,-0.909,0.0
9.862,-0.733,-0.919,0.0
9.388,-0.7,-0.926,0.0
8.93,-0.667,-0.93,0.0
8.562,-0.641,-0.939,0.0
8.138,-0.611,-0.937,0.0
10.493,-0.786,-0.911,0.0
9.951,-0.747,-0.918,0.0
9.463,-0.712,-0.924,0.0
8.975,-0.677,-0.926,0.0
8.604,-0.65,-0.935,0.0
8.243,-0.624,-0.941,0.0
10.611,-0.802,-0.911,0.0
10.02,-0.759,-0.914,0.0
9.555,-0.725,-0.924,0.0
9.098,-0.692,-0.93,0.0
8.692,-0.662,-0.936,0.0
8.284,-0.633,-0.937,0.0
10.735,-0.818,-0.911,0.0
10.07,-0.769,-0.909,0.0
9.647,-0.738,-0.923,0.0
9.183,-0.704,-0.929,0.0
8.769,-0.673,-0.935,0.0
8.372,-0.644,-0.938,0.0
10.851,-0.833,-0.909,0.0
10.216,-0.786,-0.911,0.0
9.67,-0.745,-0.915,0.0
9.225,-0.712,-0.924,0.0
8.832,-0.683,-0.932,0.0
8.495,-0.659,-0.943,0.0
10.944,-0.846,-0.905,0.0
10.349,-0.802,-0.912,0.0
9.795,-0.76,-0.916,0.0
9.378,-0.729,-0.929,0.0
8.899,-0.693,-0.929,0.0
8.554,-0.668,-0.94,0.0
11.09,-0.864,-0.905,0.0
10.455,-0.815,-0.91,0.0
9.999,-0.781,-0.924,0.0
9.435,-0.738,-0.924,0.0
8.979,-0.704,-0.928,0.0
8.638,-0.678,-0.939,0.0
11.171,-0.875,-0.899,0.0
10.59,-0.831,-0.91,0.0
10.018,-0.787,-0.914,0.0
9.587,-0.755,-0.928,0.0
9.132,-0.72,-0.933,0.0
8.721,-0.689,-0.938,0.0
11.315,-0.892,-0.898,0.0
10.735,-0.847,-0.909,0.0
10.117,-0.8,-0.911,0.0
9.703,-0.768,-0.927,0.0
9.167,-0.727,-0.926,0.0
8.805,-0.699,-0.937,0.0
11.535,-0.914,-0.902,0.0
10.863,-0.862,-0.907,0.0
10.285,-0.817,-0.914,0.0
9.775,-0.778,-0.923,0.0
9.29,-0.74,-0.927,0.0
8.862,-0.707,-0.932,0.0
11.631,-0.926,-0.895,0.0
11.068,-0.882,-0.911,0.0
10.478,-0.836,-0.919,0.0
9.91,-0.792,-0.923,0.0
9.386,-0.751,-0.925,0.0
8.921,-0.715,-0.927,0.0
11.811,-0.944,-0.894,0.0
11.117,-0.89,-0.901,0.0
10.524,-0.843,-0.91,0.0
9.988,-0.801,-0.918,0.0
9.536,-0.766,-0.928,0.0
9.045,-0.727,-0.928,0.0
12.047,-0.967,-0.897,0.0
11.254,-0.904,-0.898,0.0
10.696,-0.86,-0.911,0.0
10.069,-0.811,-0.912,0.0
9.618,-0.775,-0.923,0.0
9.175,-0.74,-0.93,0.0
12.141,-0.977,-0.889,0.0
11.429,-0.921,-0.898,0.0
10.806,-0.872,-0.906,0.0
10.196,-0.823,-0.911,0.0
9.8,-0.792,-0.928,0.0
9.254,-0.749,-0.926,0.0
12.347,-0.997,-0.888,0.0
11.68,-0.944,-0.902,0.0
10.98,-0.888,-0.906,0.0
10.462,-0.847,-0.921,0.0
9.881,-0.8,-0.922,0.0
9.425,-0.764,-0.93,0.0
12.537,-1.014,-0.885,0.0
11.807,-0.956,-0.896,0.0
11.125,-0.901,-0.903,0.0
10.55,-0.856,-0.914,0.0
9.98,-0.81,-0.918,0.0
9.532,-0.774,-0.928,0.0
12.694,-1.029,-0.879,0.0
12.045,-0.977,-0.898,0.0
11.296,-0.917,-0.902,0.0
10.679,-0.867,-0.911,0.0
10.11,-0.822,-0.916,0.0
9.679,-0.787,-0.929,0.0
12.962,-1.052,-0.879,0.0
12.177,-0.989,-0.891,0.0
11.405,-0.926,-0.895,0.0
10.86,-0.883,-0.911,0.0
10.31,-0.839,-0.92,0.0
9.829,-0.8,-0.929,0.0
13.169,-1.069,-0.875,0.0
12.395,-1.007,-0.89,0.0
11.571,-0.94,-0.892,0.0
10.96,-0.891,-0.904,0.0
10.469,-0.852,-0.919,0.0
9.918,-0.807,-0.924,0.0
13.378,-1.086,-0.87,0.0
12.603,-1.024,-0.887,0.0
11.836,-0.962,-0.896,0.0
11.133,-0.905,-0.903,0.0
10.612,-0.863,-0.917,0.0
10.066,-0.819,-0.923,0.0
13.678,-1.11,-0.871,0.0
12.736,-1.034,-0.878,0.0
12.065,-0.98,-0.896,0.0
11.317,-0.92,-0.901,0.0
10.705,-0.87,-0.91,0.0
10.131,-0.824,-0.915,0.0
13.97,-1.133,-0.87,0.0
12.93,-1.049,-0.873,0.0
12.235,-0.993,-0.891,0.0
11.547,-0.937,-0.903,0.0
10.908,-0.885,-0.911,0.0
10.35,-0.84,-0.92,0.0
14.241,-1.154,-0.866,0.0
13.226,-1.071,-0.874,0.0
12.45,-1.009,-0.889,0.0
11.663,-0.945,-0.895,0.0
11.093,-0.899,-0.91,0.0
10.511,-0.852,-0.919,0.0
14.51,-1.173,-0.861,0.0
13.499,-1.091,-0.872,0.0
12.644,-1.022,-0.884,0.0
11.908,-0.963,-0.897,0.0
11.207,-0.906,-0.903,0.0
10.692,-0.864,-0.919,0.0
14.795,-1.193,-0.857,0.0
13.823,-1.115,-0.873,0.0
12.766,-1.029,-0.874,0.0
12.15,-0.979,-0.897,0.0
11.457,-0.924,-0.907,0.0
10.831,-0.873,-0.914,0.0
15.17,-1.22,-0.856,0.0
14.09,-1.133,-0.869,0.0
13.127,-1.055,-0.879,0.0
12.305,-0.989,-0.89,0.0
11.673,-0.938,-0.906,0.0
10.993,-0.883,-0.912,0.0
15.577,-1.248,-0.856,0.0
14.352,-1.149,-0.864,0.0
13.369,-1.07,-0.875,0.0
12.496,-1.0,-0.885,0.0
11.805,-0.944,-0.899,0.0
11.152,-0.892,-0.908,0.0
15.842,-1.264,-0.847,0.0
14.674,-1.17,-0.861,0.0
13.663,-1.089,-0.874,0.0
12.703,-1.012,-0.881,0.0
12.086,-0.963,-0.902,0.0
11.312,-0.9,-0.904,0.0
16.17,-1.284,-0.84,0.0
15.029,-1.193,-0.859,0.0
13.951,-1.107,-0.871,0.0
12.995,-1.03,-0.881,0.0
12.235,-0.969,-0.894,0.0
11.541,-0.914,-0.904,0.0
16.688,-1.319,-0.841,0.0
15.346,-1.212,-0.854,0.0
14.217,-1.122,-0.866,0.0
13.262,-1.046,-0.879,0.0
12.429,-0.979,-0.889,0.0
11.727,-0.923,-0.901,0.0
17.023,-1.337,-0.832,0.0
15.77,-1.238,-0.854,0.0
14.531,-1.139,-0.863,0.0
13.557,-1.062,-0.878,0.0
12.597,-0.986,-0.882,0.0
11.931,-0.933,-0.899,0.0
17.413,-1.359,-0.825,0.0
16.091,-1.255,-0.847,0.0
14.868,-1.158,-0.861,0.0
13.775,-1.072,-0.871,0.0
12.904,-1.003,-0.884,0.0
12.162,-0.945,-0.897,0.0
17.971,-1.393,-0.824,0.0
16.521,-1.279,-0.844,0.0
15.233,-1.178,-0.858,0.0
14.126,-1.091,-0.872,0.0
13.136,-1.014,-0.88,0.0
12.353,-0.952,-0.893,0.0
18.419,-1.417,-0.816,0.0
16.877,-1.297,-0.836,0.0
15.476,-1.188,-0.848,0.0
14.416,-1.105,-0.867,0.0
13.393,-1.025,-0.876,0.0
12.564,-0.961,-0.888,0.0
18.915,-1.443,-0.809,0.0
17.207,-1.311,-0.826,0.0
15.893,-1.209,-0.847,0.0
14.663,-1.114,-0.86,0.0
13.655,-1.036,-0.873,0.0
12.703,-0.963,-0.879,0.0
19.246,-1.456,-0.794,0.0
17.793,-1.344,-0.828,0.0
16.302,-1.229,-0.844,0.0
15.028,-1.132,-0.858,0.0
14.047,-1.056,-0.876,0.0
12.981,-0.975,-0.878,0.0
19.859,-1.488,-0.789,0.0
18.288,-1.368,-0.823,0.0
16.765,-1.252,-0.842,0.0
15.299,-1.14,-0.85,0.0
14.3,-1.064,-0.87,0.0
13.302,-0.989,-0.879,0.0
20.357,-1.51,-0.778,0.0
18.64,-1.38,-0.81,0.0
17.044,-1.259,-0.83,0.0
15.752,-1.162,-0.852,0.0
14.544,-1.071,-0.863,0.0
13.586,-0.999,-0.877,0.0
20.941,-1.536,-0.769,0.0
19.278,-1.412,-0.809,0.0
17.358,-1.269,-0.819,0.0
16.197,-1.181,-0.851,0.0
14.78,-1.076,-0.854,0.0
13.871,-1.008,-0.875,0.0
21.477,-1.557,-0.756,0.0
19.642,-1.421,-0.794,0.0
18.059,-1.304,-0.825,0.0
16.548,-1.193,-0.844,0.0
15.256,-1.097,-0.858,0.0
14.141,-1.015,-0.87,0.0
22.205,-1.591,-0.748,0.0
20.246,-1.447,-0.788,0.0
18.438,-1.315,-0.814,0.0
16.78,-1.194,-0.831,0.0
15.596,-1.107,-0.854,0.0
14.444,-1.023,-0.867,0.0
22.897,-1.619,-0.736,0.0
20.599,-1.453,-0.771,0.0
18.874,-1.328,-0.805,0.0
17.321,-1.216,-0.832,0.0
15.938,-1.117,-0.849,0.0
14.717,-1.029,-0.861,0.0
23.793,-1.659,-0.73,1.0
21.384,-1.488,-0.768,0.0
19.193,-1.332,-0.79,0.0
17.745,-1.228,-0.825,0.0
16.382,-1.131,-0.848,0.0
15.039,-1.036,-0.858,0.0
24.581,-1.689,-0.717,0.0
21.909,-1.502,-0.754,0.0
20.002,-1.367,-0.793,0.0
18.258,-1.245,-0.822,0.0
16.773,-1.141,-0.843,0.0
15.407,-1.045,-0.856,0.0
0.0,0.0,0.0,0.0
22.6,-1.525,-0.744,0.0
20.387,-1.372,-0.778,0.0
18.682,-1.254,-0.813,0.0
17.041,-1.14,-0.831,0.0
15.736,-1.05,-0.85,0.0
26.248,-1.748,-0.688,0.0
23.423,-1.555,-0.737,0.0
20.989,-1.389,-0.77,0.0
19.188,-1.266,-0.807,0.0
17.425,-1.146,-0.824,0.0
16.103,-1.056,-0.846,0.0
27.182,-1.779,-0.673,0.0
24.481,-1.597,-0.735,0.0
21.775,-1.416,-0.768,0.0
19.619,-1.272,-0.797,0.0
18.052,-1.167,-0.828,0.0
16.541,-1.066,-0.846,0.0
28.227,-1.815,-0.658,0.0
25.031,-1.604,-0.715,0.0
22.278,-1.423,-0.753,0.0
20.178,-1.284,-0.79,0.0
18.41,-1.168,-0.818,0.0
16.925,-1.07,-0.841,0.0
0.0,0.0,0.0,0.0
25.852,-1.625,-0.702,0.0
22.771,-1.426,-0.738,0.0
20.501,-1.28,-0.774,0.0
18.816,-1.171,-0.809,0.0
17.32,-1.074,-0.836,0.0
29.835,-1.845,-0.611,0.0
26.594,-1.639,-0.684,0.0
23.663,-1.453,-0.733,0.0
21.005,-1.285,-0.764,0.0
19.386,-1.181,-0.807,0.0
17.732,-1.077,-0.831,0.0
31.634,-1.916,-0.604,0.0
27.095,-1.635,-0.66,0.0
0.0,0.0,0.0,0.0
21.633,-1.295,-0.756,0.0
19.823,-1.182,-0.797,0.0
18.098,-1.075,-0.823,0.0
32.746,-1.94,-0.58,0.0
28.329,-1.672,-0.651,0.0
25.14,-1.477,-0.709,0.0
22.478,-1.315,-0.755,0.0
20.24,-1.18,-0.786,0.0
18.566,-1.078,-0.819,0.0
0.0,0.0,0.0,0.0
29.697,-1.712,-0.641,0.0
0.0,0.0,0.0,0.0
22.807,-1.303,-0.735,0.0
20.645,-1.175,-0.774,0.0
19.007,-1.077,-0.813,0.0
35.342,-1.997,-0.529,0.0
30.149,-1.695,-0.61,0.0
26.462,-1.481,-0.675,0.0
23.822,-1.328,-0.735,0.0
21.247,-1.179,-0.768,0.0
19.453,-1.074,-0.805,0.0
0.0,0.0,0.0,0.0
31.878,-1.746,-0.602,0.0
0.0,0.0,0.0,0.0
24.253,-1.316,-0.716,0.0
21.9,-1.183,-0.762,0.0
19.969,-1.073,-0.8,0.0
0.0,0.0,0.0,0.0
0.0,0.0,0.0,0.0
0.0,0.0,0.0,0.0
25.259,-1.333,-0.713,0.0
22.426,-1.178,-0.751,0.0
20.295,-1.06,-0.787,0.0
0.0,0.0,0.0,0.0
0.0,0.0,0.0,0.0
30.1,-1.551,-0.649,0.0
0.0,0.0,0.0,0.0
23.107,-1.178,-0.745,0.0
20.658,-1.048,-0.775,0.0
43.053,-2.177,-0.42,0.0
0.0,0.0,0.0,0.0
30.264,-1.513,-0.615,0.0
26.437,-1.314,-0.679,0.0
23.58,-1.166,-0.73,0.0
21.294,-1.047,-0.772,0.0
0.0,0.0,0.0,0.0
0.0,0.0,0.0,0.0
0.0,0.0,0.0,0.0
26.835,-1.292,-0.656,0.0
24.1,-1.154,-0.717,0.0
21.466,-1.021,-0.752,0.0
0.0,0.0,0.0,0.0
38.105,-1.796,-0.479,0.0
32.368,-1.516,-0.578,0.0
28.096,-1.307,-0.653,0.0
0.0,0.0,0.0,0.0
22.253,-1.023,-0.753,0.0
0.0,0.0,0.0,0.0
40.291,-1.833,-0.458,0.0
33.559,-1.517,-0.559,0.0
29.312,-1.316,-0.647,0.0
25.52,-1.138,-0.698,0.0
22.792,-1.01,-0.744,0.0
0.0,0.0,0.0,0.0
41.892,-1.836,-0.427,0.0
0.0,0.0,0.0,0.0
29.856,-1.29,-0.624,0.0
0.0,0.0,0.0,0.0
23.386,-0.997,-0.736,0.0
0.0,0.0,0.0,0.0
44.216,-1.863,-0.4,0.0
0.0,0.0,0.0,0.0
