X,Y,Z,Reflectivity
148.434,-17.042,6.175,2.0
49.29,-5.667,3.435,24.0
49.412,-5.674,3.177,23.0
107.658,-12.348,6.342,19.0
0.0,0.0,0.0,0.0
110.895,-12.691,5.324,14.0
0.0,0.0,0.0,0.0
48.765,-5.583,3.449,35.0
49.39,-5.647,3.226,24.0
107.782,-12.307,6.459,17.0
0.0,0.0,0.0,0.0
111.042,-12.65,5.443,10.0
0.0,0.0,0.0,0.0
48.741,-5.554,3.497,38.0
49.117,-5.589,3.257,23.0
49.181,-5.589,2.995,17.0
49.278,-5.593,2.73,1.0
108.148,-12.259,5.408,17.0
111.187,-12.588,4.96,5.0
48.813,-5.534,3.55,31.0
49.242,-5.575,3.314,23.0
49.147,-5.556,3.041,19.0
49.3,-5.566,2.779,23.0
108.01,-12.178,5.505,12.0
107.803,-12.139,4.912,8.0
48.884,-5.512,3.602,28.0
48.962,-5.512,3.342,23.0
49.167,-5.527,3.09,10.0
49.256,-5.529,2.823,35.0
108.047,-12.113,5.608,7.0
108.036,-12.095,5.024,20.0
49.163,-5.511,3.669,24.0
48.817,-5.464,3.377,36.0
49.18,-5.496,3.136,3.0
49.229,-5.493,2.867,40.0
0.0,0.0,0.0,0.0
108.237,-12.042,5.131,17.0
49.481,-5.513,3.738,20.0
48.895,-5.438,3.428,23.0
107.392,-11.925,6.945,17.0
49.243,-5.459,2.913,23.0
109.783,-12.152,5.898,2.0
108.461,-11.988,5.238,18.0
49.085,-5.432,3.752,5.0
49.18,-5.434,3.491,23.0
48.687,-5.37,3.191,19.0
107.556,-11.844,6.454,16.0
49.625,-5.455,2.709,3.0
108.167,-11.872,5.317,20.0
48.888,-5.373,3.779,20.0
49.262,-5.404,3.539,21.0
48.658,-5.328,3.231,42.0
107.567,-11.759,6.546,20.0
49.605,-5.413,2.749,16.0
107.925,-11.758,5.394,23.0
48.769,-5.321,3.81,20.0
49.297,-5.368,3.583,36.0
48.65,-5.287,3.271,39.0
48.751,-5.289,3.006,4.0
49.563,-5.367,2.787,21.0
107.979,-11.673,5.484,19.0
48.631,-5.265,3.839,42.0
49.357,-5.333,3.626,33.0
48.738,-5.256,3.314,5.0
48.624,-5.233,3.037,17.0
108.586,-11.665,6.19,16.0
107.94,-11.575,5.565,17.0
48.584,-5.217,3.873,38.0
49.425,-5.296,3.669,12.0
49.665,-5.311,3.415,8.0
48.64,-5.191,3.074,32.0
107.931,-11.497,6.234,23.0
108.164,-11.5,5.657,17.0
48.609,-5.175,3.911,18.0
49.016,-5.207,3.675,23.0
49.49,-5.246,3.44,22.0
48.652,-5.147,3.11,34.0
107.939,-11.396,6.311,18.0
108.304,-11.412,5.742,21.0
48.659,-5.134,3.95,6.0
48.768,-5.134,3.691,16.0
49.605,-5.211,3.483,17.0
48.729,-5.108,3.149,22.0
107.939,-11.29,6.386,20.0
107.944,-11.268,5.797,19.0
48.057,-5.023,3.934,6.0
48.896,-5.099,3.734,23.0
49.616,-5.162,3.517,34.0
107.224,-11.13,7.003,7.0
107.549,-11.14,6.434,19.0
108.033,-11.167,5.872,19.0
48.02,-4.97,3.962,6.0
48.211,-4.978,3.713,5.0
49.629,-5.112,3.549,27.0
107.378,-11.035,7.08,19.0
107.538,-11.027,6.501,21.0
108.437,-11.095,5.961,20.0
40.409,-4.14,3.36,32.0
48.176,-4.923,3.74,20.0
49.767,-5.074,3.589,23.0
107.779,-10.962,7.17,19.0
107.899,-10.949,6.586,17.0
108.002,-10.933,6.0,23.0
40.535,-4.109,3.394,24.0
48.145,-4.867,3.765,16.0
49.921,-5.034,3.629,20.0
108.216,-10.886,7.261,19.0
109.55,-10.993,6.749,21.0
107.857,-10.798,6.053,28.0
40.536,-4.063,3.417,34.0
45.802,-4.579,3.607,3.0
107.166,-10.687,7.849,19.0
107.979,-10.74,7.303,21.0
109.958,-10.909,6.832,19.0
107.992,-10.688,6.116,21.0
40.463,-4.01,3.431,28.0
45.752,-4.522,3.626,7.0
107.454,-10.592,7.925,14.0
107.641,-10.583,7.333,19.0
110.262,-10.812,6.904,12.0
108.632,-10.625,6.204,16.0
47.801,-4.681,4.077,11.0
108.435,-10.589,8.648,15.0
106.961,-10.416,7.938,13.0
107.631,-10.453,7.383,17.0
110.474,-10.7,6.968,20.0
108.704,-10.5,6.257,18.0
47.91,-4.633,4.107,8.0
108.033,-10.418,8.664,16.0
107.442,-10.332,8.02,18.0
107.621,-10.32,7.427,18.0
110.345,-10.551,7.007,13.0
108.72,-10.367,6.304,17.0
48.145,-4.596,4.147,22.0
108.214,-10.301,8.721,17.0
106.196,-10.08,7.97,10.0
107.138,-10.139,7.436,17.0
107.273,-10.124,6.852,19.0
108.749,-10.234,6.345,28.0
48.337,-4.554,4.182,26.0
107.822,-10.127,8.729,12.0
105.999,-9.927,7.993,14.0
106.951,-9.986,7.461,16.0
107.652,-10.022,6.913,7.0
108.895,-10.108,6.391,21.0
48.312,-4.489,4.196,34.0
107.742,-9.98,8.758,12.0
108.638,-10.032,8.227,8.0
106.811,-9.833,7.485,16.0
107.593,-9.875,6.942,12.0
109.279,-10.0,6.445,16.0
48.277,-4.422,4.207,33.0
107.904,-9.852,8.802,10.0
108.351,-9.862,8.235,20.0
106.469,-9.661,7.49,22.0
107.455,-9.72,6.962,11.0
108.745,-9.807,6.442,12.0
48.196,-4.35,4.213,23.0
107.313,-9.655,8.781,15.0
109.012,-9.777,8.311,19.0
106.549,-9.525,7.52,22.0
107.123,-9.546,6.965,16.0
111.642,-9.918,6.638,6.0
48.419,-4.305,4.242,5.0
107.177,-9.497,8.792,17.0
109.563,-9.676,8.376,16.0
106.614,-9.385,7.545,16.0
106.821,-9.373,6.966,20.0
105.335,-9.212,6.283,15.0
47.618,-4.168,4.18,4.0
109.526,-9.554,9.003,6.0
109.096,-9.484,8.358,10.0
108.718,-9.419,7.711,10.0
109.275,-9.436,7.142,12.0
105.313,-9.064,6.297,19.0
47.599,-4.099,4.185,7.0
106.57,-9.146,8.774,20.0
109.397,-9.357,8.395,14.0
108.73,-9.267,7.725,12.0
104.622,-8.886,6.849,9.0
105.325,-8.917,6.307,20.0
106.519,-9.022,9.377,22.0
106.589,-8.996,8.785,24.0
108.339,-9.112,8.323,17.0
104.342,-8.746,7.42,9.0
104.765,-8.751,6.866,9.0
105.456,-8.778,6.322,15.0
47.673,-3.97,4.199,10.0
107.11,-8.887,8.833,20.0
108.249,-8.95,8.32,17.0
109.511,-9.021,7.792,15.0
104.799,-8.601,6.87,13.0
105.618,-8.639,6.334,19.0
106.519,-8.716,9.384,12.0
106.827,-8.708,8.81,21.0
107.461,-8.728,8.259,13.0
107.089,-8.665,7.619,16.0
104.913,-8.458,6.876,15.0
109.02,-8.757,6.535,4.0
106.702,-8.573,9.398,20.0
106.853,-8.552,8.809,21.0
107.824,-8.597,8.282,17.0
106.449,-8.455,7.567,23.0
105.24,-8.328,6.892,17.0
106.791,-8.421,6.395,17.0
106.929,-8.433,9.41,19.0
107.954,-8.48,8.891,7.0
107.44,-8.407,8.244,22.0
106.369,-8.291,7.552,26.0
106.092,-8.238,6.937,18.0
108.432,-8.387,6.482,7.0
107.271,-8.297,9.428,22.0
104.584,-8.057,8.602,7.0
104.855,-8.046,8.033,18.0
106.7,-8.156,7.562,21.0
105.701,-8.048,6.896,10.0
108.056,-8.195,6.444,29.0
0.0,0.0,0.0,0.0
104.488,-7.892,8.576,19.0
104.742,-7.878,8.005,24.0
110.586,-8.284,7.818,8.0
105.619,-7.88,6.872,10.0
108.02,-8.026,6.421,26.0
107.388,-7.978,9.401,10.0
104.44,-7.727,8.551,10.0
104.818,-7.724,7.989,12.0
104.935,-7.7,7.395,21.0
110.707,-8.09,7.179,18.0
107.884,-7.851,6.388,26.0
107.082,-7.791,9.347,20.0
108.097,-7.831,8.823,16.0
107.145,-7.728,8.14,18.0
104.883,-7.532,7.365,11.0
107.628,-7.698,6.95,16.0
107.403,-7.65,6.331,15.0
106.932,-7.612,9.304,22.0
106.939,-7.58,8.698,19.0
105.055,-7.415,7.949,27.0
109.626,-7.703,7.665,17.0
107.669,-7.533,6.919,22.0
106.908,-7.449,6.267,26.0
107.228,-7.467,9.295,22.0
106.795,-7.403,8.651,26.0
105.009,-7.248,7.91,17.0
107.059,-7.356,7.448,14.0
0.0,0.0,0.0,0.0
107.035,-7.291,6.236,38.0
107.663,-7.329,9.293,23.0
107.144,-7.261,8.639,16.0
108.565,-7.323,8.137,19.0
106.977,-7.183,7.4,24.0
108.016,-7.221,6.861,24.0
108.476,-7.221,6.277,19.0
106.647,-7.092,9.162,19.0
107.292,-7.102,8.606,21.0
111.82,-7.367,8.334,10.0
106.969,-7.016,7.355,24.0
107.827,-7.039,6.803,22.0
108.144,-7.029,6.21,27.0
106.979,-6.945,9.141,22.0
107.728,-6.961,8.592,23.0
108.822,-6.998,8.06,20.0
106.824,-6.838,7.294,32.0
107.92,-6.875,6.757,16.0
107.688,-6.828,6.132,24.0
107.212,-6.789,9.107,21.0
107.885,-6.798,8.549,23.0
109.043,-6.838,8.021,18.0
107.046,-6.68,7.254,23.0
108.326,-6.728,6.725,20.0
107.466,-6.644,6.062,23.0
108.689,-6.71,9.174,16.0
108.249,-6.65,8.519,19.0
109.387,-6.688,7.986,11.0
107.683,-6.551,7.237,22.0
108.163,-6.548,6.654,24.0
107.378,-6.468,5.996,33.0
0.0,0.0,0.0,0.0
108.92,-6.517,8.508,19.0
107.824,-6.42,7.806,17.0
108.142,-6.407,7.203,22.0
108.027,-6.368,6.58,23.0
107.531,-6.308,5.939,21.0
108.912,-6.377,9.062,26.0
108.861,-6.342,8.435,24.0
108.514,-6.29,7.788,19.0
108.548,-6.26,7.161,11.0
107.644,-6.177,6.488,22.0
107.486,-6.138,5.867,22.0
108.587,-6.188,8.962,25.0
109.526,-6.209,8.414,18.0
108.602,-6.125,7.722,13.0
107.965,-6.057,7.049,19.0
107.275,-5.986,6.392,22.0
108.037,-5.998,5.823,19.0
108.52,-6.012,8.88,26.0
111.298,-6.134,8.471,17.0
111.088,-6.089,7.819,17.0
108.101,-5.893,6.979,24.0
108.021,-5.858,6.357,26.0
107.96,-5.823,5.738,18.0
108.848,-5.857,8.825,17.0
112.871,-6.039,8.503,11.0
108.355,-5.766,7.542,13.0
108.429,-5.739,6.917,16.0
108.247,-5.699,6.287,25.0
107.983,-5.655,5.657,15.0
111.466,-5.821,8.949,11.0
109.5,-5.686,8.162,20.0
108.333,-5.594,7.454,23.0
108.805,-5.587,6.853,25.0
108.213,-5.526,6.197,19.0
108.467,-5.509,5.592,31.0
111.731,-5.658,8.877,21.0
109.613,-5.518,8.079,22.0
115.645,-5.788,7.859,9.0
112.463,-5.597,6.988,12.0
112.464,-5.566,6.345,13.0
108.78,-5.354,5.515,23.0
113.711,-5.579,8.935,19.0
112.367,-5.481,8.183,12.0
114.766,-5.565,7.698,21.0
112.622,-5.428,6.897,16.0
112.493,-5.392,6.245,25.0
114.408,-5.452,5.697,13.0
0.0,0.0,0.0,0.0
114.87,-5.423,8.259,15.0
115.893,-5.438,7.667,14.0
116.022,-5.412,6.997,6.0
112.73,-5.227,6.153,15.0
114.248,-5.267,5.582,14.0
114.971,-5.28,8.817,26.0
114.719,-5.237,8.138,27.0
116.166,-5.269,7.572,19.0
115.516,-5.209,6.854,17.0
112.802,-5.055,6.047,13.0
114.335,-5.093,5.474,11.0
114.688,-5.088,8.681,25.0
114.821,-5.061,8.029,21.0
116.309,-5.096,7.464,20.0
115.06,-5.01,6.711,18.0
115.25,-4.986,6.061,21.0
114.304,-4.916,5.356,17.0
115.447,-4.943,8.618,24.0
115.357,-4.907,7.946,16.0
114.725,-4.848,7.241,26.0
114.742,-4.818,6.571,22.0
114.486,-4.776,5.898,24.0
115.412,-4.785,5.283,10.0
115.35,-4.761,8.487,23.0
115.724,-4.745,7.846,21.0
114.514,-4.665,7.105,23.0
114.471,-4.632,6.431,25.0
114.408,-4.6,5.769,19.0
115.381,-4.608,5.155,21.0
115.346,-4.584,8.356,18.0
115.822,-4.571,7.722,25.0
114.338,-4.483,6.964,21.0
114.601,-4.462,6.307,27.0
114.656,-4.435,5.651,18.0
115.443,-4.435,5.026,18.0
115.692,-4.421,8.246,15.0
115.865,-4.396,7.589,22.0
114.729,-4.324,6.853,24.0
114.403,-4.282,6.163,13.0
115.76,-4.303,5.568,29.0
117.462,-4.337,4.976,25.0
123.211,-4.523,8.635,16.0
116.779,-4.257,7.509,20.0
114.702,-4.151,6.712,25.0
114.395,-4.11,6.024,26.0
115.88,-4.135,5.434,24.0
117.139,-4.15,4.818,19.0
115.72,-4.075,7.966,19.0
114.479,-4.002,7.219,11.0
114.453,-3.973,6.556,26.0
114.346,-3.939,5.879,26.0
115.896,-3.965,5.29,24.0
116.761,-3.965,4.656,19.0
117.671,-3.97,7.95,11.0
114.906,-3.848,7.1,23.0
115.599,-3.842,6.473,20.0
116.441,-3.841,5.836,11.0
117.316,-3.842,5.204,16.0
118.978,-3.867,4.591,15.0
117.84,-3.805,7.808,29.0
115.164,-3.689,6.963,27.0
114.789,-3.65,6.278,24.0
117.201,-3.697,5.72,22.0
116.906,-3.659,5.03,17.0
118.557,-3.682,4.417,26.0
125.481,-3.87,8.145,9.0
115.796,-3.542,6.845,24.0
114.449,-3.474,6.104,16.0
117.366,-3.533,5.568,32.0
116.852,-3.491,4.869,17.0
118.571,-3.514,4.255,24.0
124.611,-3.664,7.916,21.0
115.889,-3.381,6.69,25.0
141.067,-4.082,7.327,12.0
117.408,-3.369,5.407,11.0
139.633,-3.975,5.624,18.0
143.205,-4.044,4.94,15.0
115.964,-3.248,7.204,18.0
115.99,-3.221,6.532,19.0
117.531,-3.237,5.938,11.0
139.208,-3.802,6.214,10.0
139.829,-3.787,5.432,11.0
143.502,-3.851,4.744,17.0
116.07,-3.089,7.04,7.0
124.423,-3.284,6.826,23.0
117.356,-3.07,5.757,15.0
117.606,-3.05,5.076,16.0
140.067,-3.601,5.237,16.0
162.547,-4.142,5.136,35.0
124.146,-3.135,7.346,25.0
124.288,-3.111,6.634,11.0
140.868,-3.494,6.701,14.0
143.712,-3.533,5.989,9.0
140.545,-3.424,5.045,25.0
163.207,-3.94,4.913,17.0
124.277,-2.973,7.167,14.0
141.801,-3.359,7.353,12.0
140.805,-3.305,6.485,13.0
143.236,-3.33,5.751,13.0
140.427,-3.235,4.825,16.0
163.365,-3.728,4.668,23.0
141.661,-3.201,7.95,11.0
0.0,0.0,0.0,0.0
191.71,-4.251,8.534,16.0
190.044,-4.172,7.337,10.0
162.615,-3.535,5.334,14.0
163.277,-3.515,4.412,15.0
0.0,0.0,0.0,0.0
192.832,-4.065,9.395,18.0
190.37,-3.972,8.168,25.0
190.108,-3.926,7.035,21.0
162.592,-3.325,5.074,51.0
163.373,-3.306,4.15,11.0
0.0,0.0,0.0,0.0
192.924,-3.819,9.086,11.0
190.41,-3.729,7.86,21.0
190.464,-3.692,6.737,23.0
163.459,-3.134,4.832,24.0
171.484,-3.254,4.077,8.0
0.0,0.0,0.0,0.0
192.165,-3.563,8.731,24.0
191.555,-3.514,7.59,22.0
162.49,-2.947,5.479,11.0
163.25,-2.928,4.555,32.0
0.0,0.0,0.0,0.0
189.997,-3.327,9.417,25.0
189.99,-3.289,8.311,25.0
190.083,-3.253,7.211,20.0
162.596,-2.751,5.207,54.0
163.375,-2.733,4.285,6.0
0.0,0.0,0.0,0.0
0.0,0.0,0.0,0.0
192.918,-3.11,8.112,22.0
191.822,-3.054,6.948,23.0
163.122,-2.566,4.944,16.0
163.288,-2.538,4.001,4.0
173.449,-2.664,3.243,4.0
193.27,-2.926,8.918,17.0
191.923,-2.87,7.738,20.0
191.518,-2.827,6.608,18.0
163.275,-2.38,4.668,50.0
0.0,0.0,0.0,0.0
19.759,-0.28,0.335,4.0
0.0,0.0,0.0,0.0
186.03,-2.568,7.173,17.0
162.571,-2.214,5.321,77.0
163.31,-2.195,4.378,26.0
19.765,-0.262,0.415,6.0
19.744,-0.258,0.299,11.0
0.0,0.0,0.0,0.0
185.959,-2.361,6.839,23.0
162.749,-2.037,5.037,30.0
19.767,-0.244,0.494,7.0
19.747,-0.24,0.379,12.0
19.742,-0.236,0.264,8.0
186.308,-2.194,7.598,16.0
186.03,-2.159,6.503,14.0
19.763,-0.225,0.575,7.0
19.739,-0.222,0.458,10.0
19.759,-0.219,0.343,8.0
19.756,-0.215,0.228,0.0
186.429,-2.0,7.264,6.0
19.772,-0.208,0.655,3.0
19.747,-0.205,0.539,11.0
19.74,-0.201,0.422,8.0
19.78,-0.198,0.307,1.0
163.995,-1.622,1.596,6.0
19.76,-0.191,0.733,0.0
19.749,-0.188,0.617,8.0
19.74,-0.184,0.502,8.0
19.766,-0.181,0.385,2.0
169.426,-1.531,2.317,18.0
160.703,-1.427,1.264,13.0
19.78,-0.172,0.696,3.0
19.753,-0.168,0.58,6.0
19.758,-0.165,0.465,3.0
177.193,-1.457,3.125,18.0
169.453,-1.367,2.0,12.0
160.697,-1.272,0.963,12.0
19.746,-0.152,0.658,2.0
19.776,-0.149,0.544,5.0
177.19,-1.316,3.841,12.0
176.324,-1.283,2.775,4.0
19.744,-0.14,0.195,2.0
19.763,-0.137,0.08,3.0
19.701,-0.133,0.619,6.0
19.686,-0.13,0.503,6.0
19.691,-0.128,0.389,3.0
19.708,-0.125,0.272,3.0
19.738,-0.122,0.157,12.0
19.74,-0.119,0.042,12.0
19.651,-0.115,0.579,11.0
19.661,-0.113,0.465,10.0
19.668,-0.11,0.35,8.0
19.689,-0.107,0.233,12.0
19.71,-0.105,0.119,13.0
19.718,-0.102,0.004,15.0
19.648,-0.098,0.541,12.0
19.648,-0.096,0.426,9.0
19.659,-0.093,0.311,9.0
19.694,-0.09,0.195,14.0
19.716,-0.088,0.08,13.0
19.722,-0.085,-0.034,16.0
19.638,-0.082,0.501,12.0
19.647,-0.079,0.387,9.0
19.65,-0.077,0.272,9.0
19.69,-0.074,0.156,17.0
19.699,-0.071,0.041,15.0
19.73,-0.069,-0.074,12.0
19.638,-0.066,0.462,13.0
19.641,-0.063,0.347,9.0
19.647,-0.061,0.232,14.0
19.68,-0.058,0.116,16.0
19.704,-0.056,0.001,16.0
19.73,-0.054,-0.113,14.0
19.638,-0.051,0.422,12.0
19.626,-0.048,0.307,10.0
19.647,-0.046,0.193,11.0
19.696,-0.044,0.076,15.0
19.71,-0.041,-0.038,15.0
19.75,-0.039,-0.153,13.0
19.626,-0.036,0.383,13.0
19.626,-0.034,0.268,11.0
19.677,-0.032,0.154,8.0
19.701,-0.03,0.037,15.0
19.751,-0.027,-0.077,7.0
19.761,-0.025,-0.193,1.0
19.632,-0.023,0.343,13.0
19.641,-0.02,0.228,15.0
19.676,-0.018,0.114,3.0
19.709,-0.016,-0.002,13.0
19.757,-0.014,-0.118,2.0
38.683,-0.023,-0.458,0.0
19.637,-0.01,0.303,14.0
19.678,-0.007,0.188,10.0
19.78,-0.005,0.074,3.0
19.751,-0.003,-0.043,7.0
19.804,-0.001,-0.159,0.0
19.77,0.0,-0.274,0.0
19.629,0.002,0.262,15.0
19.785,0.004,0.148,1.0
19.762,0.006,0.033,6.0
19.781,0.008,-0.084,1.0
19.78,0.01,-0.199,1.0
19.774,0.012,-0.315,2.0
19.633,0.013,0.222,16.0
19.753,0.015,0.108,7.0
19.757,0.017,-0.007,19.0
19.754,0.019,-0.124,9.0
19.753,0.021,-0.239,16.0
19.761,0.023,-0.355,9.0
19.735,0.024,0.182,18.0
19.752,0.026,0.067,13.0
19.734,0.028,-0.047,151.0
19.75,0.03,-0.165,9.0
19.764,0.031,-0.28,14.0
19.773,0.033,-0.396,12.0
19.767,0.035,0.142,15.0
19.746,0.036,0.026,16.0
19.751,0.038,-0.089,15.0
19.735,0.04,-0.206,17.0
19.771,0.041,-0.322,12.0
19.774,0.043,-0.438,41.0
19.748,0.044,0.1,18.0
19.758,0.046,-0.014,150.0
19.76,0.047,-0.13,32.0
19.785,0.049,-0.248,23.0
19.77,0.05,-0.363,29.0
19.779,0.052,-0.479,61.0
19.757,0.053,0.059,33.0
19.761,0.054,-0.056,45.0
19.767,0.056,-0.171,51.0
19.769,0.057,-0.289,44.0
19.781,0.059,-0.405,41.0
19.784,0.06,-0.521,33.0
19.769,0.061,0.017,64.0
19.767,0.062,-0.097,51.0
19.772,0.064,-0.213,30.0
19.776,0.065,-0.33,26.0
19.778,0.066,-0.446,29.0
19.784,0.068,-0.562,17.0
19.768,0.068,-0.023,33.0
19.774,0.07,-0.139,27.0
19.801,0.071,-0.255,21.0
19.756,0.072,-0.372,17.0
19.786,0.073,-0.488,12.0
19.789,0.075,-0.604,8.0
19.76,0.075,-0.065,16.0
19.772,0.076,-0.181,15.0
19.781,0.077,-0.297,8.0
19.761,0.078,-0.414,7.0
19.783,0.079,-0.53,2.0
19.801,0.081,-0.647,1.0
19.78,0.081,-0.107,5.0
19.771,0.082,-0.222,2.0
19.773,0.083,-0.338,2.0
19.766,0.084,-0.456,2.0
19.811,0.085,-0.573,0.0
20.113,0.087,-0.699,0.0
19.774,0.086,-0.149,1.0
19.75,0.087,-0.264,0.0
19.758,0.088,-0.38,0.0
19.722,0.088,-0.497,0.0
22.921,0.104,-0.712,0.0
19.797,0.091,-0.731,3.0
19.757,0.09,-0.191,0.0
19.724,0.091,-0.306,0.0
28.372,0.132,-0.606,0.0
24.515,0.115,-0.669,0.0
21.912,0.104,-0.726,0.0
19.702,0.094,-0.769,2.0
19.713,0.093,-0.232,0.0
19.862,0.095,-0.35,0.0
27.17,0.131,-0.638,0.0
23.513,0.114,-0.692,0.0
20.657,0.101,-0.729,0.0
19.096,0.094,-0.786,0.0
0.0,0.0,0.0,0.0
29.499,0.145,-0.582,0.0
25.651,0.127,-0.656,0.0
22.533,0.112,-0.711,0.0
19.794,0.099,-0.74,2.0
18.435,0.093,-0.797,0.0
0.0,0.0,0.0,0.0
28.095,0.141,-0.614,0.0
24.475,0.124,-0.678,0.0
21.455,0.109,-0.722,0.0
19.617,0.1,-0.775,1.0
17.689,0.09,-0.803,0.0
31.065,0.157,-0.562,0.0
26.647,0.136,-0.638,0.0
23.332,0.119,-0.695,0.0
20.128,0.103,-0.719,0.0
18.883,0.097,-0.786,0.0
16.974,0.087,-0.806,0.0
29.292,0.149,-0.591,0.0
25.49,0.13,-0.664,0.0
22.415,0.115,-0.714,0.0
19.75,0.101,-0.747,2.0
18.237,0.094,-0.796,0.0
16.401,0.085,-0.812,0.0
27.751,0.141,-0.617,0.0
24.291,0.124,-0.682,0.0
21.256,0.108,-0.722,0.0
19.467,0.1,-0.777,1.0
17.502,0.09,-0.801,0.0
15.837,0.081,-0.817,0.0
26.48,0.134,-0.644,0.0
23.146,0.117,-0.698,0.0
19.853,0.1,-0.715,0.0
18.699,0.094,-0.785,0.0
16.933,0.085,-0.81,0.0
15.387,0.078,-0.826,0.0
25.324,0.126,-0.668,0.0
22.103,0.11,-0.712,0.0
19.742,0.098,-0.752,2.0
18.044,0.089,-0.794,0.0
16.216,0.08,-0.809,0.0
15.001,0.074,-0.836,0.0
24.185,0.117,-0.688,0.0
21.251,0.103,-0.729,0.0
19.377,0.093,-0.778,0.0
17.395,0.084,-0.802,0.0
15.752,0.076,-0.818,0.0
14.569,0.07,-0.842,0.0
22.933,0.107,-0.7,0.0
19.833,0.093,-0.721,2.0
18.673,0.087,-0.788,0.0
16.77,0.078,-0.808,0.0
15.349,0.071,-0.829,0.0
14.112,0.065,-0.845,0.0
19.789,0.089,-0.644,0.0
19.721,0.088,-0.757,2.0
17.921,0.08,-0.792,0.0
15.969,0.071,-0.801,0.0
14.948,0.066,-0.837,0.0
13.738,0.06,-0.85,0.0
19.832,0.084,-0.685,1.0
19.205,0.081,-0.775,0.0
17.349,0.073,-0.802,0.0
15.655,0.066,-0.817,0.0
14.45,0.06,-0.839,0.0
13.379,0.055,-0.855,0.0
19.793,0.079,-0.723,5.0
18.555,0.074,-0.787,0.0
16.826,0.066,-0.811,0.0
15.318,0.06,-0.83,0.0
14.058,0.054,-0.844,0.0
13.041,0.05,-0.86,0.0
19.728,0.073,-0.76,3.0
17.72,0.065,-0.787,0.0
16.207,0.059,-0.814,0.0
14.904,0.053,-0.837,0.0
13.712,0.049,-0.851,0.0
12.769,0.045,-0.867,0.0
19.29,0.064,-0.782,0.0
17.201,0.057,-0.798,0.0
15.651,0.051,-0.817,0.0
14.404,0.046,-0.838,0.0
13.342,0.042,-0.854,0.0
12.485,0.039,-0.873,0.0
18.495,0.055,-0.786,0.0
16.696,0.049,-0.807,0.0
15.31,0.044,-0.83,0.0
14.01,0.04,-0.843,0.0
13.049,0.036,-0.861,0.0
12.185,0.033,-0.876,0.0
17.788,0.045,-0.791,0.0
16.133,0.04,-0.811,0.0
14.919,0.037,-0.837,0.0
13.703,0.033,-0.851,0.0
12.727,0.03,-0.865,0.0
11.935,0.027,-0.881,0.0
17.282,0.036,-0.801,0.0
15.64,0.032,-0.816,0.0
14.459,0.029,-0.839,0.0
13.346,0.026,-0.854,0.0
12.463,0.024,-0.871,0.0
11.678,0.021,-0.884,0.0
16.625,0.027,-0.802,0.0
15.29,0.024,-0.827,0.0
13.994,0.021,-0.839,0.0
13.036,0.019,-0.859,0.0
12.181,0.017,-0.874,0.0
11.452,0.015,-0.889,0.0
16.173,0.018,-0.811,0.0
14.841,0.016,-0.831,0.0
13.706,0.014,-0.847,0.0
12.763,0.012,-0.865,0.0
11.967,0.01,-0.881,0.0
11.205,0.009,-0.891,0.0
15.629,0.009,-0.813,0.0
14.455,0.007,-0.836,0.0
13.397,0.006,-0.853,0.0
12.488,0.005,-0.869,0.0
11.7,0.003,-0.883,0.0
11.015,0.002,-0.896,0.0
15.361,0.0,-0.827,0.0
14.078,0.0,-0.84,0.0
13.091,-0.001,-0.857,0.0
12.242,-0.002,-0.875,0.0
11.488,-0.002,-0.888,0.0
10.805,-0.003,-0.898,0.0
14.953,-0.008,-0.832,0.0
13.769,-0.008,-0.846,0.0
12.786,-0.009,-0.861,0.0
11.98,-0.009,-0.878,0.0
11.26,-0.01,-0.891,0.0
10.613,-0.01,-0.902,0.0
14.563,-0.017,-0.836,0.0
13.422,-0.017,-0.849,0.0
12.528,-0.017,-0.866,0.0
11.747,-0.017,-0.882,0.0
11.045,-0.017,-0.894,0.0
10.422,-0.017,-0.904,0.0
14.081,-0.026,-0.833,0.0
13.131,-0.025,-0.854,0.0
12.34,-0.025,-0.874,0.0
11.521,-0.024,-0.885,0.0
10.854,-0.024,-0.897,0.0
10.228,-0.024,-0.905,0.0
13.844,-0.035,-0.843,0.0
12.87,-0.034,-0.859,0.0
12.047,-0.033,-0.874,0.0
11.322,-0.032,-0.889,0.0
10.647,-0.031,-0.898,0.0
10.021,-0.03,-0.904,0.0
13.523,-0.045,-0.847,0.0
12.632,-0.043,-0.865,0.0
11.843,-0.041,-0.88,0.0
11.088,-0.04,-0.889,0.0
10.493,-0.039,-0.903,0.0
9.891,-0.037,-0.909,0.0
13.254,-0.054,-0.852,0.0
12.405,-0.052,-0.87,0.0
11.619,-0.049,-0.882,0.0
10.932,-0.048,-0.895,0.0
10.313,-0.046,-0.905,0.0
9.742,-0.045,-0.912,0.0
12.985,-0.063,-0.856,0.0
12.149,-0.06,-0.871,0.0
11.413,-0.058,-0.885,0.0
10.77,-0.056,-0.899,0.0
10.127,-0.053,-0.905,0.0
9.605,-0.052,-0.915,0.0
12.737,-0.072,-0.86,0.0
11.96,-0.069,-0.877,0.0
11.225,-0.066,-0.889,0.0
10.586,-0.063,-0.901,0.0
9.988,-0.061,-0.908,0.0
9.467,-0.059,-0.916,0.0
12.54,-0.081,-0.867,0.0
11.738,-0.078,-0.879,0.0
11.054,-0.074,-0.892,0.0
10.419,-0.071,-0.903,0.0
9.841,-0.069,-0.91,0.0
9.35,-0.066,-0.92,0.0
12.306,-0.091,-0.869,0.0
11.564,-0.087,-0.884,0.0
10.869,-0.083,-0.894,0.0
10.268,-0.079,-0.906,0.0
9.718,-0.076,-0.914,0.0
9.234,-0.074,-0.923,0.0
12.066,-0.1,-0.871,0.0
11.386,-0.096,-0.888,0.0
10.705,-0.091,-0.897,0.0
10.113,-0.087,-0.907,0.0
9.586,-0.084,-0.916,0.0
9.083,-0.081,-0.921,0.0
11.903,-0.109,-0.876,0.0
11.204,-0.104,-0.89,0.0
10.56,-0.1,-0.9,0.0
9.946,-0.095,-0.907,0.0
9.425,-0.091,-0.914,0.0
8.952,-0.088,-0.921,0.0
11.696,-0.118,-0.878,0.0
11.019,-0.113,-0.891,0.0
10.397,-0.108,-0.901,0.0
9.831,-0.104,-0.911,0.0
9.333,-0.1,-0.919,0.0
8.889,-0.096,-0.927,0.0
11.547,-0.128,-0.883,0.0
10.879,-0.122,-0.895,0.0
10.258,-0.117,-0.904,0.0
9.709,-0.112,-0.913,0.0
9.217,-0.107,-0.92,0.0
8.757,-0.103,-0.926,0.0
11.378,-0.137,-0.886,0.0
10.707,-0.131,-0.896,0.0
10.124,-0.125,-0.906,0.0
9.57,-0.12,-0.913,0.0
9.093,-0.115,-0.92,0.0
8.625,-0.11,-0.923,0.0
11.202,-0.147,-0.887,0.0
10.573,-0.14,-0.899,0.0
10.01,-0.134,-0.909,0.0
9.493,-0.128,-0.918,0.0
8.987,-0.123,-0.921,0.0
8.547,-0.118,-0.926,0.0
11.073,-0.156,-0.891,0.0
10.427,-0.149,-0.9,0.0
9.873,-0.142,-0.909,0.0
9.364,-0.136,-0.918,0.0
8.892,-0.131,-0.923,0.0
8.49,-0.126,-0.931,0.0
10.93,-0.166,-0.893,0.0
10.292,-0.158,-0.901,0.0
9.781,-0.151,-0.913,0.0
9.272,-0.145,-0.92,0.0
8.81,-0.139,-0.926,0.0
8.389,-0.134,-0.93,0.0
10.782,-0.175,-0.895,0.0
10.173,-0.167,-0.903,0.0
9.661,-0.16,-0.913,0.0
9.127,-0.153,-0.917,0.0
8.685,-0.147,-0.923,0.0
8.321,-0.142,-0.933,0.0
10.655,-0.185,-0.897,0.0
10.088,-0.177,-0.907,0.0
9.539,-0.169,-0.913,0.0
9.058,-0.162,-0.921,0.0
8.601,-0.155,-0.924,0.0
8.208,-0.149,-0.93,0.0
10.556,-0.195,-0.901,0.0
9.965,-0.185,-0.908,0.0
9.438,-0.177,-0.914,0.0
8.966,-0.17,-0.921,0.0
8.532,-0.163,-0.926,0.0
8.16,-0.158,-0.934,0.0
10.441,-0.204,-0.902,0.0
9.858,-0.195,-0.909,0.0
9.358,-0.186,-0.917,0.0
8.895,-0.179,-0.924,0.0
8.488,-0.172,-0.931,0.0
8.094,-0.166,-0.935,0.0
10.324,-0.214,-0.903,0.0
9.776,-0.204,-0.912,0.0
9.27,-0.195,-0.918,0.0
8.786,-0.187,-0.922,0.0
8.386,-0.18,-0.929,0.0
8.032,-0.174,-0.936,0.0
10.234,-0.224,-0.906,0.0
9.681,-0.213,-0.913,0.0
9.163,-0.204,-0.917,0.0
8.73,-0.196,-0.925,0.0
8.349,-0.189,-0.933,0.0
7.966,-0.182,-0.936,0.0
10.124,-0.233,-0.906,0.0
9.591,-0.223,-0.914,0.0
9.086,-0.213,-0.918,0.0
8.612,-0.203,-0.921,0.0
8.271,-0.197,-0.932,0.0
7.907,-0.19,-0.937,0.0
10.043,-0.243,-0.908,0.0
9.527,-0.232,-0.916,0.0
9.011,-0.222,-0.919,0.0
8.562,-0.212,-0.923,0.0
8.202,-0.205,-0.932,0.0
7.831,-0.197,-0.935,0.0
9.939,-0.252,-0.908,0.0
9.441,-0.242,-0.916,0.0
8.976,-0.232,-0.923,0.0
8.499,-0.221,-0.924,0.0
8.144,-0.213,-0.932,0.0
7.786,-0.206,-0.937,0.0
9.878,-0.263,-0.911,0.0
9.364,-0.251,-0.917,0.0
8.887,-0.24,-0.921,0.0
8.477,-0.231,-0.929,0.0
8.102,-0.222,-0.934,0.0
7.73,-0.213,-0.936,0.0
9.801,-0.273,-0.911,0.0
9.306,-0.261,-0.919,0.0
8.824,-0.249,-0.922,0.0
8.428,-0.24,-0.93,0.0
8.064,-0.231,-0.936,0.0
7.727,-0.223,-0.942,0.0
9.715,-0.282,-0.911,0.0
9.25,-0.27,-0.92,0.0
8.775,-0.258,-0.923,0.0
8.342,-0.247,-0.927,0.0
8.026,-0.24,-0.938,0.0
7.676,-0.231,-0.941,0.0
9.649,-0.292,-0.911,0.0
9.206,-0.28,-0.922,0.0
8.738,-0.268,-0.926,0.0
8.267,-0.255,-0.924,0.0
7.979,-0.248,-0.938,0.0
7.623,-0.239,-0.94,0.0
9.597,-0.302,-0.913,0.0
9.153,-0.29,-0.923,0.0
8.67,-0.277,-0.924,0.0
8.268,-0.265,-0.93,0.0
7.914,-0.256,-0.935,0.0
7.59,-0.247,-0.941,0.0
9.553,-0.313,-0.915,0.0
9.077,-0.299,-0.921,0.0
8.642,-0.286,-0.927,0.0
8.217,-0.274,-0.929,0.0
7.907,-0.265,-0.939,0.0
7.563,-0.255,-0.942,0.0
9.524,-0.323,-0.918,0.0
9.024,-0.308,-0.921,0.0
8.616,-0.296,-0.929,0.0
8.18,-0.283,-0.929,0.0
7.882,-0.274,-0.941,0.0
7.54,-0.264,-0.943,0.0
9.45,-0.333,-0.916,0.0
8.963,-0.317,-0.92,0.0
8.569,-0.305,-0.928,0.0
8.153,-0.292,-0.931,0.0
7.838,-0.283,-0.94,0.0
7.49,-0.272,-0.941,0.0
9.417,-0.343,-0.917,0.0
8.953,-0.328,-0.923,0.0
8.54,-0.315,-0.929,0.0
8.148,-0.302,-0.934,0.0
7.819,-0.292,-0.941,0.0
7.484,-0.281,-0.944,0.0
9.365,-0.353,-0.917,0.0
8.924,-0.338,-0.924,0.0
8.493,-0.324,-0.928,0.0
8.145,-0.313,-0.937,0.0
7.799,-0.301,-0.942,0.0
7.45,-0.289,-0.943,0.0
9.343,-0.364,-0.918,0.0
8.877,-0.348,-0.923,0.0
8.471,-0.334,-0.929,0.0
8.097,-0.321,-0.935,0.0
7.775,-0.31,-0.942,0.0
7.436,-0.298,-0.944,0.0
9.32,-0.375,-0.919,0.0
8.847,-0.358,-0.923,0.0
8.444,-0.343,-0.929,0.0
8.069,-0.33,-0.934,0.0
7.761,-0.319,-0.943,0.0
7.431,-0.307,-0.946,0.0
9.298,-0.385,-0.92,0.0
8.825,-0.368,-0.923,0.0
8.417,-0.353,-0.928,0.0
8.047,-0.339,-0.934,0.0
7.713,-0.327,-0.94,0.0
7.413,-0.316,-0.945,0.0
9.264,-0.395,-0.919,0.0
8.818,-0.378,-0.925,0.0
8.431,-0.364,-0.932,0.0
8.047,-0.349,-0.936,0.0
7.704,-0.336,-0.94,0.0
7.376,-0.323,-0.942,0.0
9.257,-0.407,-0.921,0.0
8.81,-0.389,-0.926,0.0
8.394,-0.373,-0.93,0.0
8.058,-0.36,-0.939,0.0
7.73,-0.347,-0.945,0.0
7.384,-0.333,-0.945,0.0
9.236,-0.417,-0.92,0.0
8.799,-0.399,-0.926,0.0
8.382,-0.382,-0.93,0.0
8.031,-0.368,-0.938,0.0
7.696,-0.355,-0.942,0.0
7.376,-0.342,-0.945,0.0
9.23,-0.428,-0.921,0.0
8.794,-0.41,-0.927,0.0
8.391,-0.393,-0.932,0.0
7.975,-0.376,-0.932,0.0
7.693,-0.364,-0.943,0.0
7.39,-0.352,-0.947,0.0
9.226,-0.44,-0.921,0.0
8.787,-0.421,-0.927,0.0
8.383,-0.403,-0.932,0.0
8.0,-0.387,-0.935,0.0
7.714,-0.375,-0.946,0.0
7.394,-0.361,-0.948,0.0
9.227,-0.451,-0.922,0.0
8.794,-0.431,-0.928,0.0
8.369,-0.413,-0.93,0.0
8.021,-0.397,-0.938,0.0
7.692,-0.383,-0.943,0.0
7.38,-0.369,-0.947,0.0
9.231,-0.462,-0.922,0.0
8.798,-0.442,-0.929,0.0
8.37,-0.423,-0.931,0.0
8.025,-0.407,-0.938,0.0
7.693,-0.392,-0.943,0.0
7.394,-0.379,-0.948,0.0
9.23,-0.473,-0.922,0.0
8.804,-0.453,-0.929,0.0
8.382,-0.433,-0.931,0.0
8.049,-0.418,-0.941,0.0
7.724,-0.403,-0.946,0.0
7.398,-0.388,-0.948,0.0
9.244,-0.484,-0.923,0.0
8.799,-0.463,-0.927,0.0
8.402,-0.444,-0.933,0.0
8.024,-0.426,-0.937,0.0
7.699,-0.411,-0.942,0.0
7.379,-0.395,-0.945,0.0
9.246,-0.496,-0.922,0.0
8.802,-0.474,-0.927,0.0
8.411,-0.455,-0.932,0.0
7.988,-0.434,-0.931,0.0
7.681,-0.419,-0.939,0.0
7.405,-0.405,-0.947,0.0
9.279,-0.508,-0.923,0.0
8.828,-0.485,-0.928,0.0
8.395,-0.463,-0.929,0.0
8.007,-0.444,-0.932,0.0
7.719,-0.43,-0.942,0.0
7.43,-0.415,-0.948,0.0
9.274,-0.518,-0.921,0.0
8.829,-0.495,-0.926,0.0
8.421,-0.474,-0.93,0.0
8.065,-0.456,-0.937,0.0
7.746,-0.44,-0.943,0.0
7.431,-0.424,-0.947,0.0
9.311,-0.531,-0.922,0.0
8.863,-0.507,-0.927,0.0
8.466,-0.486,-0.933,0.0
8.085,-0.466,-0.937,0.0
7.77,-0.45,-0.944,0.0
7.471,-0.434,-0.949,0.0
9.327,-0.542,-0.921,0.0
8.888,-0.518,-0.927,0.0
8.477,-0.496,-0.931,0.0
8.101,-0.476,-0.936,0.0
7.787,-0.46,-0.943,0.0
7.499,-0.444,-0.95,0.0
9.366,-0.555,-0.921,0.0
8.913,-0.53,-0.926,0.0
8.532,-0.509,-0.934,0.0
8.119,-0.486,-0.935,0.0
7.752,-0.466,-0.936,0.0
7.512,-0.453,-0.949,0.0
9.4,-0.567,-0.921,0.0
8.958,-0.542,-0.927,0.0
8.56,-0.52,-0.934,0.0
8.177,-0.498,-0.938,0.0
7.791,-0.477,-0.937,0.0
7.515,-0.462,-0.946,0.0
9.43,-0.579,-0.92,0.0
8.978,-0.553,-0.925,0.0
8.602,-0.532,-0.934,0.0
8.207,-0.509,-0.938,0.0
7.832,-0.487,-0.939,0.0
7.554,-0.472,-0.948,0.0
9.48,-0.591,-0.92,0.0
9.015,-0.564,-0.925,0.0
8.61,-0.541,-0.931,0.0
8.204,-0.517,-0.933,0.0
7.83,-0.495,-0.934,0.0
7.567,-0.48,-0.945,0.0
9.491,-0.602,-0.916,0.0
9.066,-0.577,-0.925,0.0
8.63,-0.551,-0.928,0.0
8.26,-0.529,-0.935,0.0
7.927,-0.509,-0.942,0.0
7.61,-0.491,-0.946,0.0
9.565,-0.616,-0.918,0.0
9.113,-0.589,-0.925,0.0
8.699,-0.564,-0.931,0.0
8.279,-0.538,-0.933,0.0
8.004,-0.522,-0.946,0.0
7.618,-0.499,-0.943,0.0
9.605,-0.628,-0.916,0.0
9.169,-0.601,-0.925,0.0
8.745,-0.575,-0.931,0.0
8.323,-0.549,-0.932,0.0
7.986,-0.528,-0.939,0.0
7.673,-0.509,-0.945,0.0
9.696,-0.643,-0.919,0.0
9.222,-0.613,-0.924,0.0
8.794,-0.586,-0.93,0.0
8.415,-0.563,-0.937,0.0
8.037,-0.539,-0.939,0.0
7.725,-0.52,-0.946,0.0
9.746,-0.655,-0.917,0.0
9.291,-0.626,-0.925,0.0
8.856,-0.599,-0.93,0.0
8.45,-0.573,-0.935,0.0
8.062,-0.548,-0.937,0.0
7.742,-0.528,-0.942,0.0
9.798,-0.667,-0.915,0.0
9.351,-0.638,-0.924,0.0
8.918,-0.611,-0.93,0.0
8.496,-0.583,-0.934,0.0
8.104,-0.558,-0.936,0.0
7.749,-0.535,-0.937,0.0
9.907,-0.683,-0.918,0.0
9.411,-0.65,-0.923,0.0
8.956,-0.621,-0.927,0.0
8.552,-0.594,-0.933,0.0
8.176,-0.57,-0.937,0.0
7.857,-0.549,-0.944,0.0
9.982,-0.696,-0.917,0.0
9.455,-0.661,-0.92,0.0
9.049,-0.635,-0.93,0.0
8.585,-0.604,-0.93,0.0
8.224,-0.58,-0.936,0.0
7.881,-0.557,-0.94,0.0
9.995,-0.705,-0.91,0.0
9.542,-0.675,-0.92,0.0
9.118,-0.647,-0.929,0.0
8.662,-0.616,-0.931,0.0
8.278,-0.59,-0.935,0.0
7.917,-0.566,-0.938,0.0
10.153,-0.724,-0.915,0.0
9.624,-0.688,-0.92,0.0
9.171,-0.658,-0.927,0.0
8.75,-0.629,-0.933,0.0
8.35,-0.602,-0.936,0.0
7.964,-0.575,-0.936,0.0
10.171,-0.733,-0.908,0.0
9.709,-0.702,-0.919,0.0
9.219,-0.668,-0.923,0.0
8.831,-0.641,-0.933,0.0
8.413,-0.612,-0.935,0.0
8.063,-0.588,-0.94,0.0
10.258,-0.747,-0.906,0.0
9.819,-0.717,-0.92,0.0
9.283,-0.679,-0.921,0.0
8.919,-0.654,-0.934,0.0
8.493,-0.624,-0.936,0.0
8.129,-0.599,-0.94,0.0
10.422,-0.766,-0.91,0.0
9.864,-0.727,-0.915,0.0
9.389,-0.693,-0.922,0.0
8.975,-0.664,-0.931,0.0
8.565,-0.635,-0.935,0.0
8.159,-0.606,-0.935,0.0
10.51,-0.779,-0.907,0.0
9.926,-0.738,-0.911,0.0
9.489,-0.707,-0.922,0.0
9.041,-0.675,-0.929,0.0
8.658,-0.647,-0.936,0.0
8.25,-0.618,-0.937,0.0
10.637,-0.795,-0.908,0.0
9.986,-0.748,-0.906,0.0
9.584,-0.719,-0.921,0.0
9.127,-0.686,-0.928,0.0
8.711,-0.656,-0.933,0.0
8.277,-0.625,-0.931,0.0
10.748,-0.81,-0.906,0.0
10.169,-0.768,-0.912,0.0
9.662,-0.731,-0.919,0.0
9.213,-0.698,-0.927,0.0
8.808,-0.669,-0.934,0.0
8.374,-0.637,-0.933,0.0
10.884,-0.826,-0.905,0.0
10.355,-0.787,-0.917,0.0
9.79,-0.745,-0.92,0.0
9.315,-0.711,-0.927,0.0
8.905,-0.681,-0.934,0.0
8.502,-0.651,-0.938,0.0
11.026,-0.842,-0.905,0.0
10.398,-0.796,-0.909,0.0
9.894,-0.758,-0.919,0.0
9.404,-0.722,-0.925,0.0
8.989,-0.691,-0.933,0.0
8.589,-0.662,-0.938,0.0
11.131,-0.856,-0.901,0.0
10.485,-0.807,-0.905,0.0
9.979,-0.769,-0.915,0.0
9.487,-0.733,-0.922,0.0
9.066,-0.701,-0.93,0.0
8.649,-0.67,-0.934,0.0
11.278,-0.872,-0.899,0.0
10.72,-0.83,-0.912,0.0
10.044,-0.779,-0.909,0.0
9.609,-0.746,-0.922,0.0
9.182,-0.714,-0.931,0.0
8.755,-0.682,-0.935,0.0
11.431,-0.888,-0.898,0.0
10.757,-0.837,-0.903,0.0
10.184,-0.794,-0.909,0.0
9.724,-0.759,-0.921,0.0
9.264,-0.724,-0.928,0.0
8.841,-0.692,-0.933,0.0
11.592,-0.905,-0.896,0.0
10.917,-0.853,-0.902,0.0
10.395,-0.814,-0.915,0.0
9.835,-0.771,-0.919,0.0
9.364,-0.735,-0.926,0.0
8.952,-0.703,-0.933,0.0
11.829,-0.927,-0.9,0.0
11.107,-0.872,-0.904,0.0
10.491,-0.824,-0.91,0.0
9.961,-0.784,-0.919,0.0
9.489,-0.747,-0.926,0.0
9.067,-0.715,-0.933,0.0
11.925,-0.938,-0.892,0.0
11.266,-0.887,-0.903,0.0
10.635,-0.838,-0.909,0.0
10.035,-0.792,-0.912,0.0
9.593,-0.758,-0.923,0.0
9.151,-0.724,-0.93,0.0
12.075,-0.953,-0.887,0.0
11.397,-0.9,-0.898,0.0
10.75,-0.85,-0.905,0.0
10.118,-0.801,-0.907,0.0
9.708,-0.769,-0.922,0.0
9.238,-0.733,-0.927,0.0
12.321,-0.975,-0.889,0.0
11.635,-0.921,-0.902,0.0
10.9,-0.864,-0.903,0.0
10.361,-0.822,-0.914,0.0
9.826,-0.78,-0.92,0.0
9.365,-0.744,-0.927,0.0
12.483,-0.99,-0.884,0.0
11.75,-0.932,-0.895,0.0
11.112,-0.882,-0.905,0.0
10.445,-0.83,-0.908,0.0
9.963,-0.793,-0.919,0.0
9.493,-0.756,-0.926,0.0
12.658,-1.005,-0.879,0.0
11.964,-0.951,-0.895,0.0
11.165,-0.888,-0.894,0.0
10.624,-0.845,-0.909,0.0
10.115,-0.806,-0.919,0.0
9.624,-0.767,-0.926,0.0
12.878,-1.024,-0.877,0.0
12.109,-0.963,-0.889,0.0
11.307,-0.9,-0.89,0.0
10.818,-0.861,-0.91,0.0
10.278,-0.819,-0.919,0.0
9.72,-0.775,-0.922,0.0
13.06,-1.039,-0.871,0.0
12.332,-0.981,-0.888,0.0
11.633,-0.926,-0.899,0.0
10.96,-0.873,-0.907,0.0
10.419,-0.83,-0.917,0.0
9.863,-0.787,-0.921,0.0
13.264,-1.055,-0.866,0.0
12.486,-0.994,-0.881,0.0
11.842,-0.943,-0.899,0.0
11.089,-0.883,-0.901,0.0
10.477,-0.835,-0.907,0.0
9.962,-0.794,-0.916,0.0
13.655,-1.086,-0.872,0.0
12.653,-1.006,-0.875,0.0
11.996,-0.954,-0.893,0.0
11.192,-0.891,-0.894,0.0
10.696,-0.851,-0.911,0.0
10.136,-0.807,-0.917,0.0
13.892,-1.103,-0.867,0.0
12.944,-1.028,-0.876,0.0
12.199,-0.969,-0.89,0.0
11.381,-0.904,-0.892,0.0
10.894,-0.866,-0.912,0.0
10.287,-0.818,-0.916,0.0
14.19,-1.125,-0.865,0.0
13.113,-1.04,-0.869,0.0
12.416,-0.985,-0.888,0.0
11.72,-0.929,-0.901,0.0
11.037,-0.875,-0.907,0.0
10.49,-0.832,-0.918,0.0
14.489,-1.147,-0.862,0.0
13.47,-1.066,-0.872,0.0
12.562,-0.994,-0.88,0.0
11.92,-0.943,-0.899,0.0
11.189,-0.885,-0.903,0.0
10.648,-0.842,-0.916,0.0
14.834,-1.171,-0.86,0.0
13.781,-1.087,-0.872,0.0
12.854,-1.014,-0.881,0.0
12.087,-0.953,-0.893,0.0
11.328,-0.893,-0.897,0.0
10.808,-0.852,-0.913,0.0
15.168,-1.193,-0.857,0.0
14.031,-1.103,-0.867,0.0
13.117,-1.031,-0.879,0.0
12.345,-0.97,-0.894,0.0
11.535,-0.906,-0.896,0.0
10.932,-0.859,-0.907,0.0
15.424,-1.209,-0.848,0.0
14.358,-1.125,-0.865,0.0
13.325,-1.043,-0.873,0.0
12.493,-0.978,-0.886,0.0
11.824,-0.925,-0.901,0.0
11.136,-0.871,-0.907,0.0
15.845,-1.236,-0.847,0.0
14.662,-1.143,-0.861,0.0
13.652,-1.064,-0.874,0.0
12.584,-0.98,-0.873,0.0
12.089,-0.941,-0.902,0.0
11.28,-0.878,-0.902,0.0
16.345,-1.269,-0.849,0.0
14.988,-1.163,-0.857,0.0
13.903,-1.078,-0.869,0.0
12.867,-0.997,-0.873,0.0
12.248,-0.948,-0.896,0.0
11.492,-0.889,-0.901,0.0
16.542,-1.277,-0.834,0.0
15.34,-1.183,-0.854,0.0
14.225,-1.097,-0.867,0.0
13.195,-1.016,-0.875,0.0
12.433,-0.957,-0.89,0.0
11.807,-0.908,-0.907,0.0
17.102,-1.313,-0.836,0.0
15.652,-1.2,-0.848,0.0
14.483,-1.109,-0.86,0.0
13.45,-1.029,-0.871,0.0
12.683,-0.97,-0.888,0.0
11.924,-0.911,-0.898,0.0
17.351,-1.323,-0.822,0.0
16.057,-1.223,-0.845,0.0
14.874,-1.132,-0.861,0.0
13.842,-1.052,-0.875,0.0
12.862,-0.977,-0.881,0.0
12.126,-0.92,-0.895,0.0
17.949,-1.358,-0.823,0.0
16.412,-1.241,-0.839,0.0
15.201,-1.148,-0.857,0.0
14.084,-1.062,-0.869,0.0
13.039,-0.982,-0.873,0.0
12.378,-0.931,-0.894,0.0
18.188,-1.366,-0.806,0.0
16.851,-1.264,-0.835,0.0
15.616,-1.169,-0.856,0.0
14.42,-1.078,-0.867,0.0
13.352,-0.997,-0.873,0.0
12.57,-0.938,-0.888,0.0
18.877,-1.405,-0.808,0.0
17.176,-1.277,-0.825,0.0
15.864,-1.178,-0.845,0.0
14.667,-1.087,-0.86,0.0
13.754,-1.018,-0.878,0.0
12.766,-0.944,-0.883,0.0
19.476,-1.436,-0.803,0.0
17.673,-1.302,-0.822,0.0
16.283,-1.197,-0.842,0.0
15.022,-1.103,-0.858,0.0
13.931,-1.021,-0.868,0.0
12.978,-0.95,-0.877,0.0
19.903,-1.454,-0.79,0.0
18.269,-1.332,-0.821,0.0
16.698,-1.215,-0.838,0.0
15.395,-1.119,-0.855,0.0
14.342,-1.04,-0.872,0.0
13.138,-0.952,-0.868,0.0
20.49,-1.481,-0.782,0.0
18.729,-1.351,-0.813,0.0
17.15,-1.235,-0.834,0.0
15.708,-1.129,-0.848,0.0
14.524,-1.042,-0.86,0.0
13.564,-0.971,-0.875,0.0
20.997,-1.5,-0.769,0.0
19.183,-1.368,-0.803,0.0
17.567,-1.25,-0.827,0.0
16.171,-1.149,-0.848,0.0
14.853,-1.053,-0.857,0.0
13.868,-0.981,-0.873,0.0
21.549,-1.521,-0.757,0.0
19.708,-1.388,-0.795,0.0
17.96,-1.263,-0.819,0.0
16.478,-1.156,-0.839,0.0
15.322,-1.073,-0.861,0.0
14.166,-0.99,-0.87,0.0
22.154,-1.544,-0.744,0.0
20.274,-1.41,-0.787,0.0
18.611,-1.291,-0.82,0.0
16.953,-1.174,-0.838,0.0
15.596,-1.077,-0.852,0.0
14.475,-0.997,-0.867,0.0
23.256,-1.599,-0.745,0.0
20.752,-1.423,-0.774,0.0
19.036,-1.303,-0.81,0.0
17.311,-1.182,-0.829,0.0
16.021,-1.091,-0.851,0.0
14.807,-1.006,-0.864,0.0
24.021,-1.628,-0.734,0.0
21.239,-1.436,-0.76,0.0
19.552,-1.319,-0.802,0.0
17.873,-1.202,-0.829,0.0
16.366,-1.098,-0.845,0.0
15.084,-1.01,-0.858,0.0
24.578,-1.641,-0.714,0.0
21.968,-1.463,-0.754,0.0
20.035,-1.33,-0.792,0.0
18.274,-1.21,-0.82,0.0
16.828,-1.111,-0.844,0.0
15.3,-1.008,-0.847,0.0
25.522,-1.677,-0.704,0.0
22.415,-1.469,-0.735,0.0
20.533,-1.341,-0.781,0.0
18.623,-1.213,-0.808,0.0
17.12,-1.112,-0.833,0.0
15.834,-1.026,-0.853,0.0
26.453,-1.709,-0.69,0.0
23.599,-1.52,-0.739,0.0
21.03,-1.35,-0.769,0.0
19.307,-1.236,-0.809,0.0
17.523,-1.118,-0.827,0.0
16.084,-1.023,-0.843,0.0
27.756,-1.762,-0.683,0.0
24.084,-1.524,-0.719,0.0
21.578,-1.36,-0.757,0.0
19.729,-1.24,-0.798,0.0
18.064,-1.132,-0.826,0.0
16.524,-1.032,-0.842,0.0
28.165,-1.755,-0.652,0.0
0.0,0.0,0.0,0.0
22.153,-1.37,-0.745,0.0
20.35,-1.255,-0.793,0.0
18.514,-1.138,-0.819,0.0
17.012,-1.042,-0.842,0.0
29.117,-1.778,-0.632,0.0
25.582,-1.557,-0.69,0.0
23.257,-1.41,-0.749,0.0
20.71,-1.251,-0.778,0.0
19.0,-1.144,-0.814,0.0
17.405,-1.044,-0.837,0.0
30.557,-1.828,-0.62,0.0
26.872,-1.601,-0.686,0.0
23.678,-1.406,-0.729,0.0
21.017,-1.243,-0.759,0.0
19.423,-1.144,-0.804,0.0
17.735,-1.041,-0.827,0.0
31.933,-1.869,-0.602,0.0
0.0,0.0,0.0,0.0
24.61,-1.428,-0.723,0.0
21.844,-1.263,-0.758,0.0
19.965,-1.15,-0.798,0.0
18.086,-1.037,-0.818,0.0
0.0,0.0,0.0,0.0
28.564,-1.627,-0.649,0.0
0.0,0.0,0.0,0.0
22.473,-1.269,-0.749,0.0
20.409,-1.148,-0.788,0.0
18.558,-1.039,-0.814,0.0
34.162,-1.907,-0.549,0.0
0.0,0.0,0.0,0.0
25.974,-1.437,-0.691,0.0
22.977,-1.265,-0.734,0.0
20.722,-1.136,-0.771,0.0
19.064,-1.041,-0.81,0.0
0.0,0.0,0.0,0.0
30.324,-1.642,-0.606,0.0
26.777,-1.444,-0.676,0.0
23.572,-1.265,-0.721,0.0
21.161,-1.13,-0.759,0.0
19.621,-1.043,-0.807,0.0
0.0,0.0,0.0,0.0
31.797,-1.676,-0.592,0.0
27.777,-1.457,-0.664,0.0
24.253,-1.266,-0.71,0.0
21.974,-1.141,-0.759,0.0
19.99,-1.033,-0.796,0.0
0.0,0.0,0.0,0.0
32.567,-1.669,-0.564,0.0
28.575,-1.456,-0.645,0.0
0.0,0.0,0.0,0.0
22.687,-1.145,-0.754,0.0
20.348,-1.021,-0.784,0.0
0.0,0.0,0.0,0.0
34.326,-1.708,-0.55,0.0
0.0,0.0,0.0,0.0
26.182,-1.288,-0.698,0.0
23.177,-1.134,-0.741,0.0
20.891,-1.016,-0.778,0.0
0.0,0.0,0.0,0.0
36.177,-1.744,-0.534,0.0
30.624,-1.468,-0.614,0.0
0.0,0.0,0.0,0.0
23.939,-1.134,-0.735,0.0
21.219,-0.999,-0.763,0.0
0.0,0.0,0.0,0.0
0.0,0.0,0.0,0.0
31.099,-1.441,-0.584,0.0
27.583,-1.27,-0.667,0.0
24.49,-1.121,-0.721,0.0
21.696,-0.987,-0.754,0.0
0.0,0.0,0.0,0.0
0.0,0.0,0.0,0.0
32.458,-1.451,-0.57,0.0
28.601,-1.271,-0.656,0.0
25.195,-1.112,-0.711,0.0
22.523,-0.988,-0.755,0.0
0.0,0.0,0.0,0.0
41.47,-1.799,-0.46,0.0
34.375,-1.482,-0.563,0.0
0.0,0.0,0.0,0.0
25.726,-1.093,-0.696,0.0
22.867,-0.965,-0.74,0.0
0.0,0.0,0.0,0.0
0.0,0.0,0.0,0.0
0.0,0.0,0.0,0.0
29.985,-1.233,-0.617,0.0
26.334,-1.075,-0.681,0.0
23.604,-0.956,-0.736,0.0
0.0,0.0,0.0,0.0
44.683,-1.788,-0.39,0.0
35.737,-1.419,-0.502,0.0
30.47,-1.201,-0.592,0.0
27.204,-1.064,-0.673,0.0
24.188,-0.939,-0.727,0.0
0.0,0.0,0.0,0.0
0.0,0.0,0.0,0.0
0.0,0.0,0.0,0.0
32.109,-1.209,-0.588,0.0
28.239,-1.055,-0.667,0.0
24.809,-0.919,-0.718,0.0
0.0,0.0,0.0,0.0
0.0,0.0,0.0,0.0
0.0,0.0,0.0,0.0
32.871,-1.181,-0.566,0.0
28.418,-1.012,-0.64,0.0
0.0,0.0,0.0,0.0
0.0,0.0,0.0,0.0
0.0,0.0,0.0,0.0
0.0,0.0,0.0,0.0
0.0,0.0,0.0,0.0
29.043,-0.982,-0.624,0.0
25.904,-0.868,-0.694,0.0
0.0,0.0,0.0,0.0
0.0,0.0,0.0,0.0
0.0,0.0,0.0,0.0
0.0,0.0,0.0,0.0
30.061,-0.962,-0.615,0.0
26.803,-0.849,-0.691,0.0
0.0,0.0,0.0,0.0
0.0,0.0,0.0,0.0
0.0,0.0,0.0,0.0
0.0,0.0,0.0,0.0
31.881,-0.962,-0.62,0.0
0.0,0.0,0.0,0.0
0.0,0.0,0.0,0.0
0.0,0.0,0.0,0.0
0.0,0.0,0.0,0.0
37.9,-1.085,-0.498,0.0
31.743,-0.898,-0.587,0.0
28.17,-0.788,-0.671,0.0
0.0,0.0,0.0,0.0
0.0,0.0,0.0,0.0
0.0,0.0,0.0,0.0
0.0,0.0,0.0,0.0
31.93,-0.844,-0.56,0.0
28.609,-0.746,-0.655,0.0
160.74,-4.155,0.774,3.0
0.0,0.0,0.0,0.0
0.0,0.0,0.0,0.0
0.0,0.0,0.0,0.0
0.0,0.0,0.0,0.0
29.157,-0.705,-0.641,0.0
160.728,-3.849,0.917,15.0
0.0,0.0,0.0,0.0
0.0,0.0,0.0,0.0
0.0,0.0,0.0,0.0
34.814,-0.786,-0.549,0.0
29.557,-0.657,-0.624,0.0
160.711,-3.534,1.058,12.0
0.0,0.0,0.0,0.0
0.0,0.0,0.0,0.0
0.0,0.0,0.0,0.0
35.1,-0.724,-0.524,0.0
30.343,-0.615,-0.615,0.0
160.732,-3.218,1.193,16.0
0.0,0.0,0.0,0.0
0.0,0.0,0.0,0.0
0.0,0.0,0.0,0.0
37.752,-0.704,-0.532,0.0
30.172,-0.552,-0.587,0.0
160.78,-2.902,1.322,10.0
0.0,0.0,0.0,0.0
0.0,0.0,0.0,0.0
0.0,0.0,0.0,0.0
39.212,-0.654,-0.523,0.0
0.0,0.0,0.0,0.0
19.776,-0.317,0.177,1.0
19.756,-0.31,0.071,6.0
0.0,0.0,0.0,0.0
0.0,0.0,0.0,0.0
0.0,0.0,0.0,0.0
32.117,-0.46,-0.577,0.0
19.748,-0.277,0.192,29.0
19.743,-0.27,0.085,15.0
0.0,0.0,0.0,0.0
0.0,0.0,0.0,0.0
0.0,0.0,0.0,0.0
32.417,-0.399,-0.559,0.0
19.757,-0.237,0.206,16.0
0.0,0.0,0.0,0.0
0.0,0.0,0.0,0.0
0.0,0.0,0.0,0.0
40.173,-0.427,-0.45,0.0
19.802,-0.203,-0.328,0.0
164.065,-1.638,1.819,15.0
160.752,-1.549,0.916,12.0
0.0,0.0,0.0,0.0
19.771,-0.176,-0.102,7.0
19.757,-0.169,-0.208,13.0
19.75,-0.162,-0.315,15.0
169.905,-1.346,1.991,16.0
160.746,-1.216,1.016,19.0
19.754,-0.142,0.018,6.0
19.721,-0.135,-0.09,15.0
19.724,-0.128,-0.196,17.0
19.742,-0.121,-0.303,16.0
19.714,-0.115,0.242,9.0
19.719,-0.108,0.136,13.0
19.714,-0.101,0.029,12.0
19.717,-0.094,-0.078,10.0
19.724,-0.087,-0.185,17.0
19.761,-0.08,-0.292,15.0
19.664,-0.073,0.253,11.0
19.696,-0.067,0.147,17.0
19.695,-0.06,0.04,15.0
19.711,-0.053,-0.068,15.0
19.737,-0.046,-0.175,13.0
19.768,-0.04,-0.282,1.0
19.636,-0.032,0.263,12.0
19.697,-0.026,0.157,6.0
19.703,-0.019,0.05,9.0
19.735,-0.012,-0.058,10.0
19.794,-0.005,-0.165,0.0
19.758,0.001,-0.272,0.0
19.633,0.008,0.272,15.0
19.733,0.015,0.167,8.0
19.746,0.022,0.06,16.0
19.743,0.028,-0.049,150.0
19.762,0.035,-0.156,16.0
19.761,0.042,-0.263,14.0
19.62,0.049,0.281,13.0
19.652,0.056,0.174,13.0
19.736,0.063,0.068,27.0
19.757,0.07,-0.04,28.0
19.757,0.077,-0.148,11.0
19.775,0.084,-0.255,1.0
19.614,0.09,0.289,18.0
19.657,0.097,0.182,14.0
19.647,0.104,0.076,13.0
19.65,0.111,-0.032,11.0
19.684,0.118,-0.139,7.0
39.479,0.25,-0.495,0.0
19.625,0.131,0.296,12.0
19.663,0.139,0.19,17.0
19.638,0.145,0.083,13.0
19.656,0.152,-0.025,20.0
19.642,0.159,-0.132,14.0
19.654,0.166,-0.239,15.0
19.667,0.174,0.304,10.0
19.662,0.181,0.196,13.0
19.67,0.187,0.089,12.0
19.642,0.194,-0.019,13.0
19.634,0.2,-0.126,17.0
19.653,0.208,-0.233,17.0
19.735,0.216,0.31,12.0
19.761,0.224,0.203,27.0
19.766,0.23,0.095,11.0
19.701,0.236,-0.014,4.0
19.648,0.243,-0.121,15.0
19.661,0.25,-0.228,17.0
19.712,0.258,0.315,14.0
19.758,0.266,0.208,18.0
19.802,0.273,0.1,0.0
56.928,0.806,-0.026,1.0
19.713,0.286,-0.117,1.0
19.674,0.292,-0.224,4.0
19.736,0.301,0.32,2.0
163.288,2.549,1.759,23.0
55.179,0.88,0.292,4.0
55.183,0.899,-0.014,32.0
45.087,0.75,-0.258,1.0
35.537,0.604,-0.398,0.0
55.177,0.96,0.906,75.0
55.172,0.979,0.604,72.0
55.162,0.997,0.302,61.0
55.168,1.016,-0.005,29.0
42.632,0.799,-0.237,1.0
35.159,0.671,-0.388,2.0
163.94,3.2,2.718,4.0
162.868,3.236,1.808,27.0
113.153,2.285,0.635,9.0
55.214,1.133,0.001,0.0
43.453,0.907,-0.237,0.0
35.232,0.747,-0.385,2.0
179.035,3.877,2.988,4.0
128.683,2.83,1.442,9.0
87.412,1.95,0.499,4.0
57.742,1.308,0.006,1.0
43.96,1.011,-0.236,2.0
36.716,0.857,-0.398,1.0
99.031,2.353,1.66,63.0
70.946,1.709,0.799,26.0
70.667,1.726,0.407,21.0
0.0,0.0,0.0,0.0
0.0,0.0,0.0,0.0
0.0,0.0,0.0,0.0
0.0,0.0,0.0,0.0
0.0,0.0,0.0,0.0
43.733,1.161,0.253,150.0
40.139,1.079,0.007,158.0
40.074,1.092,-0.212,75.0
0.0,0.0,0.0,0.0
0.0,0.0,0.0,0.0
40.125,1.137,0.453,150.0
40.125,1.15,0.232,135.0
40.118,1.163,0.006,150.0
40.07,1.175,-0.213,74.0
0.0,0.0,0.0,0.0
40.126,1.209,0.672,150.0
40.127,1.222,0.451,118.0
40.13,1.236,0.23,125.0
40.132,1.248,0.004,150.0
40.113,1.261,-0.216,99.0
40.173,1.276,-0.438,3.0
40.126,1.293,0.669,150.0
40.116,1.306,0.447,150.0
40.109,1.318,0.226,58.0
40.124,1.332,0.0,150.0
40.066,1.343,-0.22,94.0
40.167,1.359,-0.443,4.0
162.285,5.569,2.69,6.0
70.922,2.456,0.783,27.0
72.998,2.551,0.402,4.0
40.12,1.415,-0.004,89.0
40.085,1.427,-0.226,84.0
40.142,1.442,-0.448,0.0
43.894,1.598,0.721,78.0
43.456,1.596,0.473,101.0
43.517,1.612,0.232,153.0
40.831,1.526,-0.011,5.0
40.751,1.536,-0.237,3.0
33.945,1.29,-0.385,1.0
40.825,1.571,0.662,150.0
40.387,1.567,0.431,150.0
40.389,1.579,0.208,143.0
40.331,1.59,-0.019,153.0
40.317,1.603,-0.243,35.0
40.36,1.617,-0.467,0.0
100.525,4.076,1.609,16.0
100.547,4.109,1.052,17.0
45.163,1.859,0.221,3.0
45.191,1.874,-0.033,11.0
40.287,1.683,-0.253,3.0
23.653,0.996,-0.279,35.0
23.631,1.006,0.372,46.0
23.614,1.013,0.24,45.0
23.616,1.02,0.109,44.0
23.612,1.027,-0.023,43.0
23.606,1.034,-0.155,54.0
23.606,1.042,-0.286,66.0
23.598,1.053,0.364,76.0
23.597,1.06,0.233,77.0
23.594,1.067,0.102,68.0
23.595,1.074,-0.031,67.0
23.607,1.082,-0.162,63.0
23.608,1.089,-0.293,60.0
23.598,1.1,0.356,52.0
23.621,1.109,0.225,39.0
23.625,1.116,0.094,38.0
23.635,1.123,-0.039,39.0
23.643,1.131,-0.171,37.0
23.644,1.139,-0.303,21.0
23.641,1.15,0.348,1.0
23.683,1.159,0.217,0.0
45.164,2.224,0.162,44.0
40.317,1.998,-0.083,42.0
39.203,1.954,-0.299,12.0
31.637,1.587,-0.418,6.0
45.212,2.29,0.648,17.0
99.852,5.087,0.875,7.0
45.168,2.315,0.143,37.0
40.321,2.078,-0.1,42.0
37.166,1.926,-0.299,2.0
30.978,1.615,-0.423,9.0
45.234,2.381,0.629,3.0
45.228,2.393,0.376,46.0
45.175,2.404,0.123,47.0
40.324,2.157,-0.118,45.0
35.931,1.933,-0.306,2.0
30.389,1.643,-0.429,5.0
99.748,5.444,1.34,5.0
66.919,3.671,0.525,4.0
45.165,2.491,0.101,42.0
40.314,2.235,-0.138,40.0
35.978,2.006,-0.324,6.0
29.66,1.662,-0.433,8.0
113.68,6.427,1.469,7.0
57.027,3.239,0.417,3.0
45.183,2.579,0.078,46.0
40.312,2.312,-0.159,41.0
34.935,2.014,-0.334,10.0
29.25,1.695,-0.443,8.0
45.213,2.643,0.559,6.0
45.219,2.656,0.306,81.0
45.163,2.665,0.052,45.0
40.328,2.391,-0.182,43.0
34.017,2.026,-0.344,10.0
28.393,1.699,-0.446,7.0
113.073,6.823,1.334,11.0
62.619,3.795,0.388,4.0
45.164,2.75,0.026,46.0
40.316,2.465,-0.206,42.0
33.422,2.053,-0.358,10.0
28.071,1.732,-0.458,7.0
45.212,2.812,0.506,7.0
54.227,3.387,0.303,6.0
45.177,2.834,0.0,38.0
40.307,2.539,-0.231,37.0
32.435,2.052,-0.368,9.0
27.355,1.738,-0.464,7.0
99.754,6.389,1.053,10.0
45.17,2.904,0.223,65.0
45.167,2.916,-0.03,33.0
40.102,2.599,-0.256,15.0
31.649,2.059,-0.379,9.0
26.755,1.748,-0.471,7.0
45.101,2.97,0.446,140.0
44.91,2.968,0.192,53.0
40.317,2.675,-0.054,32.0
0.0,0.0,0.0,0.0
30.779,2.058,-0.39,9.0
26.159,1.757,-0.479,6.0
41.741,2.823,0.383,4.0
42.146,2.861,0.15,4.0
40.33,2.749,-0.083,42.0
37.164,2.542,-0.289,4.0
30.24,2.077,-0.406,8.0
25.606,1.765,-0.488,6.0
42.194,2.929,0.356,148.0
41.899,2.919,0.118,11.0
40.317,2.819,-0.113,44.0
36.229,2.543,-0.309,9.0
29.378,2.069,-0.416,8.0
24.975,1.765,-0.495,6.0
41.149,2.929,0.316,88.0
40.4,2.885,0.082,4.0
40.319,2.889,-0.144,49.0
34.985,2.516,-0.326,9.0
28.708,2.071,-0.429,7.0
24.545,1.777,-0.506,7.0
40.376,2.943,0.278,80.0
40.32,2.948,0.05,46.0
40.314,2.958,-0.176,45.0
33.547,2.469,-0.34,10.0
27.847,2.056,-0.439,7.0
24.103,1.786,-0.516,5.0
43.714,3.26,0.265,150.0
42.117,3.151,0.017,102.0
41.763,3.134,-0.218,16.0
32.567,2.452,-0.357,10.0
27.103,2.046,-0.45,7.0
23.818,1.804,-0.53,3.0
43.706,3.332,0.228,150.0
41.911,3.204,-0.018,146.0
41.817,3.206,-0.254,2.0
31.53,2.425,-0.373,9.0
26.2,2.021,-0.458,6.0
19.832,1.534,-0.459,2.0
41.91,3.262,0.182,144.0
40.255,3.142,-0.052,104.0
37.597,2.943,-0.261,5.0
30.685,2.408,-0.39,9.0
25.558,2.012,-0.469,6.0
19.723,1.557,-0.474,7.0
0.0,0.0,0.0,0.0
40.107,3.194,-0.088,79.0
36.615,2.924,-0.288,7.0
29.48,2.361,-0.401,8.0
24.853,1.996,-0.479,5.0
19.711,1.587,-0.492,9.0
40.063,3.244,0.101,68.0
40.016,3.249,-0.125,81.0
35.028,2.851,-0.308,7.0
28.755,2.347,-0.419,8.0
24.419,1.998,-0.494,5.0
19.714,1.618,-0.51,9.0
40.105,3.308,0.062,150.0
40.048,3.312,-0.164,50.0
34.008,2.82,-0.332,10.0
27.828,2.313,-0.432,7.0
23.975,1.998,-0.508,5.0
19.608,1.638,-0.527,9.0
40.113,3.368,0.023,150.0
40.021,3.369,-0.203,42.0
32.084,2.708,-0.345,9.0
26.691,2.258,-0.441,6.0
23.519,1.994,-0.522,3.0
19.029,1.618,-0.53,14.0
40.05,3.422,-0.016,53.0
39.829,3.41,-0.242,13.0
31.215,2.679,-0.367,9.0
25.785,2.218,-0.452,6.0
19.723,1.701,-0.457,4.0
19.566,1.691,-0.565,8.0
40.115,3.484,-0.056,102.0
0.0,0.0,0.0,0.0
30.367,2.649,-0.388,9.0
25.131,2.197,-0.466,7.0
21.932,1.922,-0.532,8.0
19.274,1.693,-0.577,7.0
40.136,3.541,-0.099,47.0
35.334,3.124,-0.288,8.0
29.089,2.578,-0.402,8.0
24.507,2.176,-0.481,5.0
21.408,1.905,-0.542,5.0
18.97,1.692,-0.588,16.0
0.0,0.0,0.0,0.0
34.317,3.08,-0.316,9.0
28.029,2.521,-0.418,7.0
23.887,2.153,-0.494,5.0
20.897,1.888,-0.551,9.0
18.946,1.715,-0.608,28.0
40.24,3.657,-0.186,15.0
32.568,2.965,-0.335,10.0
26.962,2.46,-0.431,7.0
23.255,2.126,-0.507,5.0
20.312,1.861,-0.558,7.0
18.425,1.691,-0.611,14.0
39.778,3.666,-0.227,15.0
31.368,2.896,-0.358,9.0
26.07,2.411,-0.446,6.0
22.473,2.083,-0.515,5.0
19.106,1.774,-0.547,11.0
17.951,1.67,-0.616,13.0
0.0,0.0,0.0,0.0
30.197,2.825,-0.379,8.0
25.212,2.363,-0.46,6.0
21.886,2.055,-0.526,5.0
18.656,1.755,-0.555,16.0
17.812,1.679,-0.631,19.0
35.519,3.36,-0.284,5.0
29.047,2.752,-0.397,8.0
24.576,2.332,-0.477,5.0
21.388,2.033,-0.539,7.0
18.262,1.739,-0.564,16.0
17.706,1.689,-0.648,20.0
0.0,0.0,0.0,0.0
27.808,2.667,-0.413,7.0
23.819,2.288,-0.49,5.0
20.993,2.02,-0.553,1.0
18.123,1.747,-0.581,18.0
17.541,1.694,-0.663,17.0
