X,Y,Z,Reflectivity
148.437,-17.743,4.882,21.0
116.305,-13.882,3.197,46.0
83.293,-9.928,1.839,38.0
94.327,-11.254,4.731,14.0
0.0,0.0,0.0,0.0
148.26,-17.633,5.829,21.0
148.38,-17.62,5.017,20.0
116.288,-13.789,3.303,28.0
83.282,-9.861,1.916,40.0
94.467,-11.195,4.824,1.0
0.0,0.0,0.0,0.0
148.346,-17.522,5.97,19.0
148.412,-17.502,5.153,21.0
116.283,-13.691,3.408,20.0
83.279,-9.79,1.991,35.0
0.0,0.0,0.0,0.0
94.4,-11.089,4.393,2.0
148.581,-17.425,6.109,13.0
148.435,-17.378,5.284,21.0
148.058,-17.305,4.469,15.0
83.306,-9.721,2.063,23.0
108.234,-12.642,5.719,1.0
94.339,-10.999,4.472,3.0
0.0,0.0,0.0,0.0
148.335,-17.232,5.407,20.0
147.903,-17.153,4.589,21.0
83.328,-9.647,2.134,13.0
0.0,0.0,0.0,0.0
111.0,-12.838,5.355,20.0
0.0,0.0,0.0,0.0
148.301,-17.089,5.529,20.0
147.947,-17.017,4.714,27.0
116.319,-13.355,3.075,34.0
0.0,0.0,0.0,0.0
110.856,-12.714,5.44,11.0
0.0,0.0,0.0,0.0
148.381,-16.952,5.653,22.0
148.092,-16.887,4.838,22.0
116.323,-13.24,3.168,45.0
0.0,0.0,0.0,0.0
108.204,-12.303,5.394,14.0
0.0,0.0,0.0,0.0
148.444,-16.81,5.769,25.0
148.341,-16.765,4.96,24.0
116.32,-13.121,3.257,33.0
49.301,-5.566,2.764,14.0
108.181,-12.188,5.475,16.0
107.737,-12.112,4.866,7.0
148.869,-16.7,5.9,19.0
148.346,-16.608,5.071,24.0
116.298,-12.993,3.343,28.0
49.305,-5.514,2.801,36.0
108.12,-12.065,5.551,13.0
107.767,-12.0,4.946,16.0
149.406,-16.599,6.028,15.0
148.319,-16.443,5.176,24.0
116.32,-12.869,3.426,20.0
49.366,-5.466,2.839,19.0
108.01,-11.933,5.623,7.0
107.762,-11.878,5.021,15.0
148.413,-16.323,6.09,7.0
148.216,-16.266,5.273,18.0
116.338,-12.74,3.505,9.0
49.511,-5.426,2.881,17.0
109.098,-11.929,5.752,9.0
107.829,-11.763,5.095,19.0
111.236,-12.106,4.638,17.0
148.167,-16.089,5.369,26.0
147.837,-16.017,4.549,24.0
49.497,-5.368,2.912,9.0
109.156,-11.808,5.825,18.0
107.913,-11.645,5.168,20.0
111.032,-11.952,4.7,21.0
148.303,-15.925,5.468,28.0
147.938,-15.849,4.646,23.0
107.651,-11.545,6.401,24.0
109.141,-11.674,5.892,19.0
107.831,-11.504,5.231,22.0
110.955,-11.807,4.764,22.0
148.741,-15.789,5.572,22.0
148.191,-15.692,4.742,18.0
107.755,-11.42,6.472,18.0
108.918,-11.513,5.944,22.0
113.886,-12.006,5.59,6.0
109.635,-11.528,4.77,20.0
148.987,-15.625,5.666,29.0
108.838,-11.385,3.545,7.0
107.705,-11.277,6.529,17.0
108.766,-11.357,5.996,17.0
110.45,-11.502,5.483,7.0
109.282,-11.349,4.814,21.0
149.317,-15.467,5.758,28.0
108.847,-11.246,3.601,22.0
107.574,-11.124,6.578,23.0
108.71,-11.209,6.049,18.0
109.063,-11.215,5.47,22.0
109.162,-11.193,4.864,21.0
111.505,-11.403,4.355,7.0
108.851,-11.101,3.655,25.0
107.703,-10.994,6.638,12.0
108.052,-10.998,6.064,21.0
108.887,-11.05,5.512,22.0
110.47,-11.179,4.973,21.0
111.219,-11.223,4.397,22.0
108.387,-10.906,3.69,23.0
109.634,-11.041,6.807,22.0
107.862,-10.829,6.102,25.0
108.591,-10.87,5.546,20.0
108.684,-10.848,4.941,16.0
111.078,-11.054,4.439,19.0
108.127,-10.73,3.727,21.0
109.969,-10.922,6.874,20.0
108.034,-10.696,6.157,22.0
108.127,-10.673,5.566,21.0
108.126,-10.641,4.959,20.0
109.928,-10.784,4.437,23.0
108.585,-10.622,3.784,20.0
110.375,-10.804,6.942,10.0
108.546,-10.591,6.228,15.0
108.072,-10.512,5.604,24.0
108.066,-10.478,4.996,24.0
110.503,-10.682,4.5,16.0
108.384,-10.445,3.816,20.0
110.467,-10.654,6.987,23.0
108.901,-10.468,6.285,17.0
108.113,-10.358,5.643,30.0
108.486,-10.36,5.052,22.0
110.286,-10.499,4.526,7.0
108.244,-10.272,3.845,13.0
107.258,-10.186,6.818,8.0
108.701,-10.289,6.307,29.0
108.14,-10.2,5.676,23.0
108.437,-10.195,5.082,20.0
108.824,-10.198,4.498,18.0
148.432,-13.866,5.315,11.0
110.134,-10.294,7.031,6.0
108.789,-10.133,6.342,19.0
108.237,-10.048,5.709,14.0
108.21,-10.011,5.098,18.0
108.527,-10.007,4.513,23.0
108.32,-9.955,3.905,11.0
107.603,-9.893,6.895,16.0
109.208,-10.006,6.392,15.0
108.85,-9.938,5.767,21.0
108.366,-9.86,5.129,14.0
108.105,-9.802,4.519,24.0
108.093,-9.768,3.919,25.0
109.61,-9.909,7.046,12.0
108.735,-9.795,6.384,15.0
108.967,-9.78,5.794,20.0
108.28,-9.684,5.145,17.0
107.613,-9.59,4.516,23.0
108.086,-9.6,3.937,29.0
106.756,-9.486,6.879,21.0
105.301,-9.321,6.199,9.0
107.649,-9.494,5.739,16.0
107.415,-9.439,5.119,21.0
107.668,-9.427,4.533,29.0
108.197,-9.439,3.956,32.0
106.854,-9.325,6.899,10.0
105.329,-9.158,6.213,12.0
108.641,-9.41,5.805,5.0
107.461,-9.273,5.132,26.0
107.984,-9.283,4.558,24.0
108.458,-9.289,3.976,21.0
109.243,-9.359,7.063,9.0
105.331,-8.988,6.222,17.0
107.595,-9.146,5.757,16.0
108.05,-9.149,5.168,19.0
108.32,-9.136,4.578,15.0
108.658,-9.131,3.988,19.0
105.216,-8.842,6.806,12.0
109.292,-9.147,6.461,10.0
107.069,-8.926,5.731,18.0
107.484,-8.926,5.144,25.0
108.32,-8.96,4.58,18.0
109.701,-9.038,4.028,25.0
105.204,-8.667,6.807,14.0
109.074,-8.95,6.448,10.0
107.111,-8.754,5.733,31.0
107.466,-8.747,5.141,30.0
108.58,-8.802,4.59,22.0
109.148,-8.813,4.005,23.0
105.021,-8.48,6.791,20.0
109.072,-8.77,6.443,12.0
108.063,-8.652,5.779,24.0
107.668,-8.586,5.145,37.0
108.066,-8.581,4.56,36.0
108.515,-8.582,3.975,26.0
106.332,-8.407,6.869,17.0
106.777,-8.406,6.298,16.0
108.464,-8.5,5.791,28.0
108.879,-8.497,5.193,18.0
108.804,-8.455,4.581,18.0
108.191,-8.373,3.951,26.0
106.244,-8.219,6.85,20.0
108.419,-8.351,6.383,15.0
108.484,-8.319,5.778,20.0
108.541,-8.288,5.162,23.0
108.267,-8.231,4.544,14.0
107.876,-8.166,3.924,25.0
107.925,-8.167,6.943,9.0
108.166,-8.148,6.35,20.0
107.895,-8.092,5.729,25.0
108.084,-8.07,5.122,28.0
107.204,-7.969,4.48,26.0
107.859,-7.981,3.903,21.0
107.722,-7.968,6.909,7.0
108.023,-7.953,6.32,21.0
107.77,-7.898,5.7,24.0
108.215,-7.893,5.105,19.0
107.812,-7.829,4.482,21.0
107.388,-7.763,3.862,26.0
107.62,-7.774,6.876,15.0
107.286,-7.714,6.251,16.0
107.702,-7.707,5.669,23.0
107.919,-7.687,5.063,26.0
107.69,-7.635,4.449,22.0
107.854,-7.613,3.85,18.0
107.55,-7.584,6.841,16.0
107.122,-7.518,6.211,21.0
107.443,-7.504,5.625,29.0
107.995,-7.507,5.036,21.0
107.624,-7.445,4.413,25.0
108.503,-7.47,3.84,29.0
106.703,-7.339,6.754,18.0
107.07,-7.328,6.174,31.0
107.034,-7.289,5.568,24.0
107.723,-7.299,4.986,25.0
108.067,-7.286,4.394,26.0
108.969,-7.312,3.819,21.0
107.588,-7.21,6.771,22.0
108.28,-7.219,6.203,20.0
107.088,-7.102,5.53,23.0
107.794,-7.114,4.949,27.0
109.033,-7.159,4.391,21.0
108.834,-7.11,3.771,32.0
107.754,-7.029,6.738,23.0
108.27,-7.025,6.158,25.0
107.294,-6.926,5.497,28.0
107.7,-6.917,4.899,31.0
109.024,-6.965,4.344,24.0
109.717,-6.975,3.754,21.0
108.05,-6.859,6.708,9.0
107.471,-6.785,6.064,23.0
107.423,-6.747,5.455,32.0
107.516,-6.716,4.841,25.0
108.753,-6.757,4.283,32.0
109.913,-6.794,3.709,24.0
108.222,-6.679,6.667,20.0
107.065,-6.57,5.989,20.0
107.557,-6.564,5.407,22.0
107.54,-6.528,4.788,30.0
109.219,-6.593,4.246,21.0
109.879,-6.598,3.651,16.0
108.098,-6.478,6.603,23.0
107.271,-6.392,5.944,27.0
108.046,-6.402,5.374,26.0
107.461,-6.333,4.727,38.0
109.194,-6.399,4.185,24.0
117.383,-6.84,3.836,29.0
107.817,-6.269,6.523,23.0
107.437,-6.211,5.892,21.0
108.05,-6.21,5.312,35.0
107.677,-6.154,4.673,27.0
109.18,-6.204,4.121,23.0
117.118,-6.617,3.758,24.0
107.209,-6.044,6.422,23.0
108.028,-6.054,5.858,22.0
108.12,-6.024,5.249,26.0
108.154,-5.989,4.626,22.0
109.096,-6.005,4.048,29.0
117.135,-6.41,3.683,26.0
107.948,-5.893,6.396,19.0
107.983,-5.858,5.784,19.0
108.251,-5.838,5.183,28.0
108.627,-5.822,4.574,20.0
109.703,-5.845,3.997,25.0
117.841,-6.241,3.626,15.0
108.276,-5.719,6.341,25.0
107.928,-5.664,5.706,11.0
108.172,-5.642,5.104,20.0
109.658,-5.683,4.541,19.0
110.061,-5.669,3.932,17.0
125.525,-6.425,3.772,12.0
108.186,-5.52,6.256,20.0
108.462,-5.499,5.655,23.0
116.203,-5.852,5.397,6.0
117.077,-5.858,4.759,12.0
117.507,-5.842,4.109,21.0
140.972,-6.966,4.13,26.0
112.569,-5.544,6.422,9.0
108.821,-5.324,5.588,29.0
116.708,-5.673,5.329,10.0
117.079,-5.654,4.668,20.0
117.805,-5.651,4.027,21.0
150.386,-7.168,4.287,8.0
112.624,-5.35,6.335,21.0
114.274,-5.39,5.775,9.0
114.456,-5.363,5.133,22.0
117.374,-5.462,4.583,26.0
116.7,-5.394,3.893,22.0
142.288,-6.532,3.938,18.0
112.885,-5.162,6.254,10.0
117.72,-5.346,5.849,16.0
114.463,-5.161,5.034,10.0
117.588,-5.266,4.49,20.0
118.939,-5.289,3.864,23.0
142.434,-6.29,3.818,5.0
115.455,-5.078,6.294,16.0
116.931,-5.105,5.706,16.0
116.403,-5.044,5.015,22.0
117.446,-5.053,4.379,25.0
119.767,-5.115,3.782,25.0
139.945,-5.933,3.621,6.0
114.685,-4.841,6.144,23.0
115.127,-4.823,5.51,18.0
116.6,-4.849,4.914,29.0
117.094,-4.833,4.254,24.0
118.488,-4.854,3.629,23.0
141.671,-5.762,3.532,23.0
114.691,-4.641,6.033,23.0
115.358,-4.633,5.409,23.0
117.08,-4.665,4.82,25.0
117.042,-4.627,4.137,24.0
141.637,-5.558,4.199,10.0
141.694,-5.518,3.392,10.0
115.015,-4.455,5.935,24.0
117.254,-4.506,5.379,11.0
117.354,-4.474,4.712,24.0
138.404,-5.235,4.752,13.0
140.179,-5.259,4.011,12.0
141.671,-5.272,3.244,4.0
115.31,-4.268,5.83,10.0
117.3,-4.306,5.258,21.0
118.308,-4.307,4.627,14.0
138.297,-4.993,4.602,32.0
163.18,-5.843,4.497,16.0
162.45,-5.768,3.547,3.0
115.849,-4.089,5.731,7.0
117.279,-4.104,5.13,20.0
138.757,-4.814,5.273,4.0
138.472,-4.763,4.455,13.0
163.329,-5.57,4.321,22.0
162.249,-5.485,3.364,12.0
119.789,-4.024,5.791,7.0
117.08,-3.899,4.99,22.0
117.796,-3.887,4.344,21.0
140.253,-4.586,4.354,11.0
163.389,-5.296,4.136,21.0
162.32,-5.214,3.181,5.0
117.243,-3.74,5.533,19.0
117.008,-3.698,4.849,18.0
118.481,-3.709,4.23,24.0
140.097,-4.347,4.186,24.0
163.353,-5.022,3.944,4.0
168.298,-5.126,3.1,8.0
117.404,-3.549,5.4,12.0
139.502,-4.177,5.615,18.0
118.632,-3.517,4.093,8.0
140.655,-4.129,4.031,17.0
167.872,-4.881,3.85,6.0
178.189,-5.13,3.064,13.0
125.202,-3.577,5.606,12.0
119.136,-3.369,4.648,17.0
143.21,-4.009,4.765,21.0
163.267,-4.526,4.478,38.0
168.278,-4.615,3.65,8.0
0.0,0.0,0.0,0.0
117.648,-3.168,5.118,13.0
139.958,-3.728,5.283,20.0
162.597,-4.285,5.203,24.0
163.41,-4.262,4.273,12.0
168.25,-4.341,3.433,5.0
161.874,-4.133,2.375,8.0
140.025,-3.543,5.91,12.0
140.42,-3.514,5.119,26.0
162.61,-4.025,4.992,6.0
163.544,-4.004,4.064,5.0
170.479,-4.127,3.257,9.0
161.903,-3.876,2.163,22.0
143.412,-3.399,5.862,20.0
140.538,-3.293,4.937,18.0
163.359,-3.783,4.797,18.0
171.557,-3.927,4.034,4.0
170.296,-3.851,3.023,10.0
162.172,-3.623,1.946,6.0
190.226,-4.205,7.516,15.0
162.533,-3.549,5.485,4.0
163.259,-3.522,4.569,29.0
0.0,0.0,0.0,0.0
170.335,-3.583,2.789,5.0
163.538,-3.396,1.736,15.0
190.235,-3.905,7.247,23.0
162.578,-3.293,5.255,92.0
163.391,-3.267,4.342,22.0
170.259,-3.359,3.525,6.0
163.541,-3.185,2.444,22.0
163.256,-3.137,1.501,21.0
190.45,-3.615,6.984,22.0
162.817,-3.047,5.03,24.0
163.407,-3.017,4.108,8.0
170.301,-3.099,3.281,15.0
163.226,-2.928,2.203,30.0
160.733,-2.841,1.243,12.0
189.992,-3.315,6.688,30.0
163.272,-2.807,4.805,15.0
0.0,0.0,0.0,0.0
173.664,-2.896,3.088,7.0
163.076,-2.678,1.96,30.0
19.753,-0.319,0.123,12.0
162.568,-2.59,5.478,32.0
163.289,-2.559,4.558,33.0
0.0,0.0,0.0,0.0
163.811,-2.488,2.667,9.0
19.742,-0.294,0.207,18.0
19.745,-0.29,0.093,24.0
162.594,-2.351,5.233,48.0
163.397,-2.322,4.313,20.0
19.777,-0.276,0.408,2.0
19.741,-0.271,0.291,8.0
19.75,-0.266,0.177,27.0
19.755,-0.261,0.063,1.0
162.873,-2.117,4.988,26.0
19.784,-0.252,0.491,5.0
19.738,-0.247,0.376,9.0
19.729,-0.242,0.26,8.0
19.755,-0.237,0.146,2.0
0.0,0.0,0.0,0.0
19.769,-0.228,0.574,8.0
19.745,-0.223,0.459,10.0
19.744,-0.219,0.345,8.0
19.769,-0.214,0.229,0.0
160.695,-1.709,0.937,11.0
0.0,0.0,0.0,0.0
19.749,-0.2,0.542,10.0
19.751,-0.196,0.427,7.0
19.748,-0.191,0.313,0.0
168.804,-1.601,1.689,17.0
0.0,0.0,0.0,0.0
19.84,-0.178,-0.031,0.0
19.763,-0.173,0.509,6.0
19.788,-0.169,0.396,0.0
169.267,-1.41,2.409,18.0
160.745,-1.302,1.34,14.0
19.765,-0.155,0.05,0.0
19.768,-0.151,-0.064,10.0
19.77,-0.146,0.477,1.0
177.25,-1.276,3.25,15.0
19.727,-0.137,0.247,1.0
19.77,-0.133,0.131,3.0
19.736,-0.128,0.017,10.0
19.724,-0.124,-0.097,15.0
19.689,-0.119,0.441,9.0
19.683,-0.115,0.327,8.0
19.71,-0.111,0.213,14.0
19.714,-0.107,0.097,12.0
19.713,-0.103,-0.016,14.0
19.717,-0.098,-0.13,17.0
19.658,-0.094,0.407,9.0
19.665,-0.09,0.293,10.0
19.697,-0.086,0.18,14.0
19.7,-0.081,0.063,14.0
19.709,-0.077,-0.05,15.0
19.736,-0.073,-0.164,16.0
19.642,-0.069,0.372,10.0
19.652,-0.065,0.259,10.0
19.697,-0.061,0.145,17.0
19.696,-0.057,0.029,16.0
19.74,-0.053,-0.085,12.0
19.753,-0.049,-0.199,14.0
19.637,-0.044,0.337,10.0
19.641,-0.04,0.224,15.0
19.687,-0.037,0.11,13.0
19.703,-0.032,-0.005,14.0
19.755,-0.029,-0.119,11.0
19.663,-0.025,-0.233,0.0
19.633,-0.021,0.303,14.0
19.663,-0.017,0.189,10.0
19.741,-0.013,0.075,5.0
19.735,-0.009,-0.041,9.0
19.759,-0.005,-0.155,0.0
19.793,-0.001,-0.27,0.0
19.624,0.001,0.267,14.0
19.79,0.005,0.154,2.0
19.761,0.009,0.04,3.0
19.734,0.013,-0.076,2.0
19.768,0.017,-0.191,6.0
19.768,0.02,-0.306,15.0
19.634,0.024,0.232,16.0
19.757,0.028,0.118,10.0
19.755,0.031,0.003,17.0
19.751,0.035,-0.112,15.0
19.777,0.039,-0.227,14.0
19.767,0.042,-0.342,39.0
19.655,0.046,0.195,12.0
19.753,0.05,0.081,27.0
19.75,0.053,-0.032,55.0
19.769,0.057,-0.149,63.0
19.773,0.061,-0.264,47.0
19.782,0.064,-0.379,32.0
19.685,0.067,0.159,12.0
19.749,0.071,0.045,28.0
19.756,0.075,-0.069,13.0
19.769,0.078,-0.186,8.0
19.76,0.081,-0.301,1.0
19.785,0.085,-0.416,0.0
19.672,0.088,0.122,12.0
19.668,0.091,0.007,9.0
19.775,0.095,-0.107,0.0
0.0,0.0,0.0,0.0
0.0,0.0,0.0,0.0
27.711,0.148,-0.635,0.0
19.656,0.108,0.084,13.0
19.658,0.111,-0.029,10.0
19.689,0.114,-0.143,2.0
0.0,0.0,0.0,0.0
29.909,0.184,-0.569,0.0
26.464,0.167,-0.657,0.0
19.648,0.127,0.047,16.0
19.674,0.13,-0.066,9.0
19.682,0.133,-0.181,5.0
33.924,0.236,-0.513,0.0
0.0,0.0,0.0,0.0
25.262,0.183,-0.676,0.0
19.645,0.145,0.009,19.0
19.638,0.148,-0.104,12.0
19.67,0.152,-0.219,8.0
19.685,0.155,-0.335,3.0
19.691,0.158,-0.45,4.0
19.706,0.161,-0.565,1.0
19.653,0.163,-0.028,14.0
19.646,0.166,-0.142,14.0
19.66,0.169,-0.257,14.0
19.659,0.172,-0.373,16.0
19.673,0.175,-0.488,11.0
19.683,0.178,-0.603,10.0
19.649,0.18,-0.067,15.0
19.646,0.183,-0.181,15.0
19.655,0.186,-0.295,15.0
19.649,0.189,-0.411,18.0
19.676,0.192,-0.526,15.0
19.674,0.195,-0.641,16.0
19.644,0.197,-0.105,17.0
19.656,0.2,-0.219,16.0
19.647,0.202,-0.334,14.0
19.674,0.205,-0.45,23.0
19.673,0.208,-0.565,17.0
19.681,0.211,-0.68,18.0
19.646,0.212,-0.144,17.0
19.651,0.215,-0.258,17.0
19.651,0.218,-0.373,17.0
19.655,0.221,-0.489,18.0
19.67,0.223,-0.604,17.0
19.638,0.225,-0.717,8.0
19.645,0.227,-0.183,17.0
19.661,0.23,-0.298,16.0
19.658,0.233,-0.412,17.0
19.662,0.235,-0.529,16.0
19.674,0.238,-0.644,15.0
19.567,0.239,-0.754,4.0
19.658,0.242,-0.223,17.0
19.65,0.244,-0.337,15.0
19.665,0.247,-0.452,17.0
19.678,0.25,-0.569,14.0
19.691,0.252,-0.684,6.0
19.284,0.249,-0.782,0.0
19.66,0.255,-0.261,16.0
19.666,0.258,-0.376,15.0
19.677,0.26,-0.491,14.0
19.683,0.263,-0.608,3.0
19.612,0.264,-0.72,5.0
18.59,0.252,-0.791,0.0
19.679,0.268,-0.301,13.0
19.68,0.271,-0.416,12.0
19.706,0.273,-0.531,3.0
21.876,0.306,-0.719,0.0
19.556,0.276,-0.757,3.0
17.763,0.252,-0.792,0.0
19.696,0.281,-0.341,10.0
19.707,0.283,-0.456,3.0
23.917,0.346,-0.693,0.0
20.849,0.304,-0.727,1.0
19.194,0.282,-0.782,1.0
17.296,0.256,-0.805,0.0
19.696,0.292,-0.381,2.0
26.1,0.39,-0.657,0.0
22.707,0.341,-0.703,0.0
19.603,0.297,-0.724,5.0
18.422,0.281,-0.787,0.0
16.656,0.255,-0.809,1.0
28.135,0.432,-0.6,0.0
24.796,0.383,-0.674,0.0
21.667,0.337,-0.715,0.0
19.639,0.307,-0.764,2.0
17.699,0.279,-0.792,0.0
16.151,0.256,-0.817,0.0
27.015,0.428,-0.631,1.0
23.397,0.373,-0.682,0.0
20.84,0.334,-0.729,1.0
19.094,0.308,-0.781,1.0
17.034,0.276,-0.797,0.0
15.588,0.254,-0.82,0.0
25.773,0.42,-0.653,0.0
22.62,0.371,-0.705,0.0
19.963,0.329,-0.739,2.0
18.14,0.3,-0.779,0.0
16.641,0.277,-0.812,1.0
15.193,0.254,-0.83,0.0
24.63,0.412,-0.675,0.0
21.469,0.361,-0.713,1.0
19.661,0.332,-0.768,1.0
17.691,0.3,-0.796,0.0
15.852,0.27,-0.806,0.0
14.665,0.251,-0.831,1.0
23.033,0.394,-0.677,0.0
20.855,0.358,-0.735,1.0
18.986,0.328,-0.779,0.0
17.208,0.298,-0.809,0.0
15.513,0.27,-0.819,0.0
14.37,0.251,-0.843,1.0
22.571,0.394,-0.709,0.0
19.943,0.349,-0.743,2.0
18.157,0.319,-0.782,0.0
16.234,0.287,-0.795,0.0
15.062,0.267,-0.826,0.0
13.962,0.248,-0.847,1.0
21.303,0.378,-0.712,0.0
19.54,0.348,-0.766,1.0
17.714,0.317,-0.798,1.0
15.845,0.284,-0.808,0.0
14.628,0.263,-0.832,1.0
13.635,0.246,-0.855,1.0
20.74,0.374,-0.734,1.0
18.891,0.341,-0.779,0.0
17.091,0.31,-0.804,0.0
15.501,0.282,-0.822,0.0
14.32,0.261,-0.843,1.0
13.218,0.242,-0.855,0.0
19.952,0.364,-0.746,2.0
18.006,0.329,-0.778,0.0
16.272,0.298,-0.798,0.0
15.021,0.276,-0.826,0.0
13.89,0.256,-0.845,1.0
12.857,0.238,-0.858,0.0
19.38,0.357,-0.763,1.0
17.663,0.326,-0.798,1.0
15.745,0.291,-0.803,0.0
14.606,0.271,-0.832,1.0
13.624,0.253,-0.856,1.0
12.58,0.235,-0.864,0.0
18.79,0.349,-0.777,0.0
17.022,0.317,-0.803,0.0
15.444,0.288,-0.819,0.0
14.277,0.267,-0.842,1.0
13.194,0.247,-0.855,0.0
12.284,0.231,-0.868,0.0
17.998,0.336,-0.78,0.0
16.318,0.305,-0.802,0.0
14.905,0.279,-0.819,0.0
13.884,0.261,-0.846,1.0
12.856,0.242,-0.858,0.0
12.056,0.227,-0.876,0.0
17.591,0.33,-0.796,0.0
15.783,0.296,-0.806,0.0
14.602,0.274,-0.831,1.0
13.575,0.256,-0.853,1.0
12.537,0.236,-0.861,0.0
11.789,0.223,-0.879,0.0
17.03,0.32,-0.804,0.0
15.423,0.29,-0.818,0.0
14.268,0.268,-0.84,1.0
13.182,0.248,-0.854,0.0
12.291,0.232,-0.868,0.0
11.483,0.217,-0.879,0.0
16.27,0.305,-0.8,0.0
14.942,0.281,-0.821,0.0
13.892,0.261,-0.845,1.0
12.835,0.242,-0.857,0.0
12.068,0.227,-0.876,0.0
11.331,0.214,-0.889,0.0
15.646,0.293,-0.799,0.0
14.581,0.273,-0.83,1.0
13.6,0.255,-0.853,1.0
12.567,0.236,-0.863,0.0
11.796,0.221,-0.879,0.0
11.05,0.208,-0.888,0.0
15.368,0.286,-0.814,0.0
14.278,0.266,-0.839,1.0
13.152,0.245,-0.85,0.0
12.264,0.229,-0.865,0.0
11.47,0.214,-0.876,0.0
10.829,0.202,-0.891,0.0
15.02,0.278,-0.824,0.0
13.889,0.257,-0.843,1.0
12.839,0.238,-0.854,0.0
12.07,0.224,-0.875,0.0
11.358,0.21,-0.889,0.0
10.625,0.197,-0.894,0.0
14.595,0.268,-0.828,1.0
13.61,0.25,-0.851,1.0
12.589,0.231,-0.861,0.0
11.822,0.217,-0.879,0.0
11.09,0.203,-0.889,0.0
10.413,0.191,-0.896,0.0
14.288,0.259,-0.837,1.0
13.187,0.239,-0.85,0.0
12.258,0.222,-0.861,0.0
11.468,0.208,-0.874,0.0
10.856,0.197,-0.891,0.0
10.176,0.184,-0.895,0.0
13.93,0.25,-0.842,1.0
12.886,0.231,-0.854,0.0
12.097,0.216,-0.872,0.0
11.362,0.203,-0.887,0.0
10.652,0.19,-0.894,0.0
10.061,0.18,-0.903,0.0
13.635,0.241,-0.849,1.0
12.632,0.223,-0.86,0.0
11.861,0.209,-0.877,0.0
11.125,0.196,-0.888,0.0
10.47,0.184,-0.897,0.0
9.926,0.174,-0.909,0.0
13.258,0.23,-0.849,0.0
12.376,0.215,-0.865,0.0
11.558,0.2,-0.875,0.0
10.907,0.189,-0.89,0.0
10.231,0.177,-0.895,0.0
9.704,0.167,-0.906,0.0
12.954,0.22,-0.853,0.0
12.133,0.206,-0.869,1.0
11.431,0.194,-0.886,1.0
10.683,0.181,-0.891,0.0
10.067,0.17,-0.899,0.0
9.578,0.162,-0.911,0.0
12.71,0.211,-0.859,0.0
11.904,0.198,-0.874,1.0
11.195,0.186,-0.887,0.0
10.505,0.174,-0.895,0.0
9.952,0.164,-0.906,0.0
9.438,0.155,-0.915,0.0
12.45,0.202,-0.863,0.0
11.721,0.19,-0.881,0.0
10.99,0.177,-0.89,0.0
10.307,0.166,-0.896,0.0
9.788,0.157,-0.908,0.0
9.24,0.148,-0.911,0.0
12.181,0.192,-0.865,1.0
11.428,0.18,-0.878,0.0
10.779,0.169,-0.891,0.0
10.161,0.159,-0.9,0.0
9.617,0.15,-0.909,0.0
9.152,0.142,-0.918,0.0
12.018,0.184,-0.874,1.0
11.266,0.172,-0.885,0.0
10.581,0.161,-0.893,0.0
10.005,0.152,-0.903,0.0
9.483,0.143,-0.912,0.0
8.996,0.135,-0.918,0.0
11.804,0.175,-0.878,1.0
11.033,0.163,-0.885,0.0
10.436,0.153,-0.898,0.0
9.853,0.144,-0.906,0.0
9.406,0.137,-0.92,0.0
8.867,0.129,-0.919,0.0
11.619,0.166,-0.883,0.0
10.917,0.155,-0.893,0.0
10.256,0.145,-0.899,0.0
9.698,0.136,-0.908,0.0
9.202,0.129,-0.915,0.0
8.73,0.122,-0.919,0.0
11.35,0.155,-0.881,0.0
10.71,0.146,-0.893,0.0
10.116,0.137,-0.903,0.0
9.507,0.128,-0.905,0.0
9.053,0.121,-0.915,0.0
8.687,0.116,-0.928,0.0
11.18,0.146,-0.885,0.0
10.531,0.137,-0.895,0.0
9.916,0.128,-0.9,0.0
9.434,0.121,-0.913,0.0
8.948,0.114,-0.918,0.0
8.529,0.109,-0.925,0.0
10.99,0.137,-0.887,0.0
10.404,0.129,-0.9,0.0
9.82,0.121,-0.907,0.0
9.316,0.114,-0.915,0.0
8.86,0.108,-0.922,0.0
8.448,0.102,-0.929,0.0
10.82,0.127,-0.889,0.0
10.249,0.12,-0.902,0.0
9.701,0.113,-0.91,0.0
9.129,0.105,-0.911,0.0
8.756,0.1,-0.925,0.0
8.332,0.095,-0.929,0.0
10.691,0.119,-0.895,0.0
10.029,0.11,-0.897,0.0
9.503,0.104,-0.906,0.0
9.053,0.098,-0.917,0.0
8.64,0.093,-0.925,0.0
8.228,0.088,-0.929,0.0
10.481,0.109,-0.892,0.0
9.899,0.102,-0.9,0.0
9.437,0.096,-0.913,0.0
8.941,0.09,-0.918,0.0
8.55,0.085,-0.928,0.0
8.111,0.08,-0.928,0.0
10.368,0.1,-0.897,0.0
9.841,0.094,-0.909,0.0
9.322,0.088,-0.915,0.0
8.868,0.083,-0.923,0.0
8.443,0.078,-0.928,0.0
8.041,0.073,-0.931,0.0
10.255,0.091,-0.902,0.0
9.659,0.084,-0.905,0.0
9.19,0.079,-0.915,0.0
8.723,0.074,-0.92,0.0
8.327,0.07,-0.927,0.0
7.98,0.066,-0.935,0.0
10.145,0.082,-0.905,0.0
9.54,0.076,-0.907,0.0
9.06,0.071,-0.914,0.0
8.643,0.067,-0.923,0.0
8.239,0.063,-0.928,0.0
7.901,0.059,-0.936,0.0
9.928,0.071,-0.899,0.0
9.466,0.067,-0.912,0.0
8.968,0.063,-0.916,0.0
8.537,0.059,-0.923,0.0
8.183,0.055,-0.932,0.0
7.817,0.052,-0.936,0.0
9.848,0.063,-0.904,0.0
9.34,0.058,-0.912,0.0
8.874,0.054,-0.918,0.0
8.464,0.051,-0.925,0.0
8.066,0.047,-0.929,0.0
7.743,0.045,-0.937,0.0
9.757,0.053,-0.908,0.0
9.293,0.05,-0.918,0.0
8.774,0.046,-0.918,0.0
8.36,0.043,-0.924,0.0
8.029,0.04,-0.934,0.0
7.662,0.037,-0.936,0.0
9.634,0.044,-0.908,0.0
9.127,0.041,-0.913,0.0
8.697,0.038,-0.92,0.0
8.305,0.035,-0.928,0.0
7.952,0.032,-0.935,0.0
7.623,0.03,-0.941,0.0
9.523,0.035,-0.908,0.0
9.045,0.032,-0.915,0.0
8.665,0.03,-0.927,0.0
8.231,0.027,-0.929,0.0
7.898,0.025,-0.937,0.0
7.554,0.023,-0.941,0.0
9.45,0.026,-0.912,0.0
8.997,0.023,-0.92,0.0
8.558,0.021,-0.925,0.0
8.163,0.019,-0.93,0.0
7.816,0.017,-0.936,0.0
7.481,0.015,-0.94,0.0
9.363,0.017,-0.914,0.0
8.889,0.015,-0.919,0.0
8.45,0.013,-0.922,0.0
8.071,0.011,-0.928,0.0
7.753,0.009,-0.937,0.0
7.443,0.008,-0.943,0.0
9.29,0.007,-0.916,0.0
8.839,0.006,-0.923,0.0
8.388,0.004,-0.924,0.0
8.016,0.003,-0.93,0.0
7.699,0.002,-0.938,0.0
7.367,0.0,-0.941,0.0
9.177,-0.001,-0.914,0.0
8.733,-0.002,-0.92,0.0
8.357,-0.003,-0.929,0.0
7.974,-0.004,-0.933,0.0
7.64,-0.005,-0.939,0.0
7.338,-0.006,-0.944,0.0
9.093,-0.01,-0.914,0.0
8.66,-0.011,-0.921,0.0
8.277,-0.012,-0.928,0.0
7.911,-0.012,-0.933,0.0
7.596,-0.013,-0.94,0.0
7.27,-0.014,-0.942,0.0
9.052,-0.02,-0.918,0.0
8.582,-0.02,-0.92,0.0
8.203,-0.02,-0.927,0.0
7.863,-0.02,-0.935,0.0
7.556,-0.021,-0.942,0.0
7.236,-0.021,-0.944,0.0
8.938,-0.029,-0.915,0.0
8.527,-0.028,-0.922,0.0
8.158,-0.029,-0.929,0.0
7.815,-0.029,-0.936,0.0
7.503,-0.029,-0.942,0.0
7.194,-0.029,-0.945,0.0
8.909,-0.038,-0.919,0.0
8.501,-0.037,-0.926,0.0
8.118,-0.037,-0.931,0.0
7.768,-0.037,-0.936,0.0
7.459,-0.036,-0.942,0.0
7.162,-0.036,-0.946,0.0
8.869,-0.047,-0.922,0.0
8.451,-0.046,-0.927,0.0
8.062,-0.046,-0.931,0.0
7.723,-0.045,-0.937,0.0
7.418,-0.044,-0.943,0.0
7.157,-0.044,-0.951,0.0
8.807,-0.056,-0.922,0.0
8.372,-0.055,-0.924,0.0
8.03,-0.054,-0.933,0.0
7.68,-0.053,-0.937,0.0
7.367,-0.052,-0.941,0.0
7.102,-0.051,-0.949,0.0
8.699,-0.065,-0.917,0.0
8.317,-0.064,-0.924,0.0
7.958,-0.062,-0.93,0.0
7.634,-0.061,-0.937,0.0
7.323,-0.06,-0.941,0.0
7.068,-0.059,-0.949,0.0
8.669,-0.075,-0.919,0.0
8.292,-0.073,-0.927,0.0
7.924,-0.071,-0.931,0.0
7.589,-0.069,-0.936,0.0
7.312,-0.068,-0.944,0.0
7.053,-0.067,-0.951,0.0
8.617,-0.084,-0.919,0.0
8.238,-0.082,-0.925,0.0
7.91,-0.08,-0.934,0.0
7.555,-0.077,-0.936,0.0
7.302,-0.076,-0.947,0.0
7.02,-0.075,-0.951,0.0
8.593,-0.093,-0.921,0.0
8.22,-0.091,-0.928,0.0
7.866,-0.088,-0.933,0.0
7.53,-0.086,-0.937,0.0
7.274,-0.084,-0.947,0.0
7.002,-0.082,-0.952,0.0
8.56,-0.103,-0.922,0.0
8.201,-0.1,-0.93,0.0
7.838,-0.097,-0.934,0.0
7.524,-0.094,-0.94,0.0
7.246,-0.092,-0.947,0.0
6.975,-0.09,-0.952,0.0
8.54,-0.112,-0.924,0.0
8.162,-0.109,-0.929,0.0
7.832,-0.106,-0.937,0.0
7.516,-0.103,-0.943,0.0
7.232,-0.1,-0.948,0.0
6.94,-0.098,-0.95,0.0
8.516,-0.122,-0.925,0.0
8.153,-0.118,-0.932,0.0
7.82,-0.115,-0.938,0.0
7.461,-0.111,-0.939,0.0
7.185,-0.108,-0.945,0.0
6.924,-0.105,-0.951,0.0
8.477,-0.131,-0.924,0.0
8.111,-0.127,-0.93,0.0
7.793,-0.123,-0.938,0.0
7.481,-0.12,-0.944,0.0
7.202,-0.117,-0.95,0.0
6.934,-0.114,-0.955,0.0
8.471,-0.141,-0.926,0.0
8.093,-0.136,-0.931,0.0
7.79,-0.132,-0.94,0.0
7.449,-0.128,-0.942,0.0
7.147,-0.124,-0.945,0.0
6.875,-0.121,-0.948,0.0
8.613,-0.308,-0.93,0.0
8.212,-0.295,-0.932,0.0
7.865,-0.284,-0.937,0.0
7.567,-0.275,-0.944,0.0
7.264,-0.265,-0.947,0.0
7.017,-0.258,-0.954,0.0
8.625,-0.317,-0.927,0.0
8.246,-0.305,-0.932,0.0
7.896,-0.294,-0.936,0.0
7.587,-0.283,-0.943,0.0
7.313,-0.275,-0.949,0.0
7.02,-0.265,-0.951,0.0
8.662,-0.327,-0.927,0.0
8.294,-0.315,-0.933,0.0
7.923,-0.302,-0.935,0.0
7.59,-0.291,-0.939,0.0
7.321,-0.283,-0.946,0.0
7.041,-0.273,-0.949,0.0
8.717,-0.338,-0.928,0.0
8.339,-0.325,-0.933,0.0
7.971,-0.312,-0.936,0.0
7.661,-0.302,-0.943,0.0
7.361,-0.291,-0.947,0.0
7.086,-0.282,-0.951,0.0
8.778,-0.349,-0.929,0.0
8.361,-0.334,-0.931,0.0
8.018,-0.322,-0.937,0.0
7.663,-0.309,-0.938,0.0
7.392,-0.3,-0.946,0.0
7.116,-0.29,-0.95,0.0
8.797,-0.358,-0.925,0.0
8.417,-0.344,-0.931,0.0
8.042,-0.331,-0.934,0.0
7.756,-0.32,-0.945,0.0
7.414,-0.308,-0.944,0.0
7.146,-0.298,-0.949,0.0
8.847,-0.369,-0.924,0.0
8.452,-0.354,-0.929,0.0
8.101,-0.341,-0.935,0.0
7.793,-0.329,-0.944,0.0
7.463,-0.317,-0.945,0.0
7.18,-0.306,-0.949,0.0
8.911,-0.379,-0.924,0.0
8.528,-0.365,-0.931,0.0
8.155,-0.35,-0.935,0.0
7.781,-0.336,-0.936,0.0
7.493,-0.325,-0.943,0.0
7.227,-0.315,-0.949,0.0
8.987,-0.391,-0.925,0.0
8.594,-0.375,-0.932,0.0
8.179,-0.359,-0.932,0.0
7.868,-0.346,-0.94,0.0
7.546,-0.334,-0.943,0.0
7.29,-0.324,-0.952,0.0
9.086,-0.403,-0.928,0.0
8.635,-0.384,-0.929,0.0
8.253,-0.369,-0.933,0.0
7.893,-0.354,-0.937,0.0
7.63,-0.344,-0.947,0.0
7.319,-0.331,-0.949,0.0
9.119,-0.412,-0.924,0.0
8.69,-0.394,-0.927,0.0
8.321,-0.379,-0.934,0.0
7.972,-0.365,-0.939,0.0
7.678,-0.353,-0.946,0.0
7.391,-0.341,-0.952,0.0
9.193,-0.423,-0.923,0.0
8.781,-0.406,-0.929,0.0
8.375,-0.388,-0.932,0.0
8.047,-0.375,-0.94,0.0
7.71,-0.36,-0.943,0.0
7.43,-0.349,-0.95,0.0
9.276,-0.434,-0.923,0.0
8.849,-0.416,-0.928,0.0
8.458,-0.399,-0.933,0.0
8.072,-0.382,-0.936,0.0
7.762,-0.369,-0.942,0.0
7.445,-0.355,-0.944,0.0
9.353,-0.445,-0.921,0.0
8.915,-0.426,-0.926,0.0
8.538,-0.409,-0.934,0.0
8.15,-0.392,-0.937,0.0
7.833,-0.378,-0.943,0.0
7.494,-0.363,-0.943,0.0
9.446,-0.457,-0.921,0.0
8.997,-0.436,-0.926,0.0
8.596,-0.418,-0.931,0.0
8.198,-0.4,-0.934,0.0
7.905,-0.387,-0.943,0.0
7.604,-0.374,-0.949,0.0
9.539,-0.468,-0.92,0.0
9.08,-0.447,-0.925,0.0
8.685,-0.429,-0.932,0.0
8.308,-0.412,-0.937,0.0
7.958,-0.395,-0.941,0.0
7.668,-0.382,-0.949,0.0
9.621,-0.479,-0.918,0.0
9.194,-0.459,-0.926,0.0
8.77,-0.439,-0.931,0.0
8.352,-0.419,-0.933,0.0
8.055,-0.406,-0.944,0.0
7.725,-0.39,-0.947,0.0
9.737,-0.491,-0.918,0.0
9.282,-0.469,-0.925,0.0
8.839,-0.448,-0.929,0.0
8.454,-0.43,-0.935,0.0
8.089,-0.413,-0.938,0.0
7.754,-0.397,-0.941,0.0
9.809,-0.501,-0.913,0.0
9.352,-0.479,-0.921,0.0
8.904,-0.457,-0.925,0.0
8.543,-0.44,-0.934,0.0
8.187,-0.423,-0.94,0.0
7.854,-0.407,-0.944,0.0
9.987,-0.516,-0.918,0.0
9.464,-0.49,-0.921,0.0
9.032,-0.469,-0.927,0.0
8.607,-0.448,-0.931,0.0
8.271,-0.432,-0.939,0.0
7.92,-0.415,-0.942,0.0
10.093,-0.527,-0.916,0.0
9.569,-0.501,-0.919,0.0
9.155,-0.48,-0.929,0.0
8.743,-0.46,-0.935,0.0
8.332,-0.439,-0.936,0.0
8.002,-0.423,-0.942,0.0
10.193,-0.537,-0.912,0.0
9.71,-0.513,-0.921,0.0
9.226,-0.489,-0.925,0.0
8.818,-0.468,-0.932,0.0
8.431,-0.449,-0.936,0.0
8.088,-0.432,-0.942,0.0
10.288,-0.547,-0.908,0.0
9.797,-0.523,-0.917,0.0
9.344,-0.5,-0.925,0.0
8.904,-0.477,-0.93,0.0
8.518,-0.458,-0.935,0.0
8.145,-0.439,-0.938,0.0
10.42,-0.559,-0.906,0.0
9.939,-0.535,-0.917,0.0
9.451,-0.51,-0.923,0.0
9.011,-0.487,-0.929,0.0
8.624,-0.467,-0.935,0.0
8.271,-0.449,-0.941,0.0
10.552,-0.571,-0.903,0.0
10.092,-0.547,-0.918,0.0
9.562,-0.52,-0.921,0.0
9.106,-0.496,-0.926,0.0
8.724,-0.476,-0.934,0.0
8.321,-0.455,-0.936,0.0
10.733,-0.585,-0.904,0.0
10.192,-0.557,-0.913,0.0
9.704,-0.531,-0.921,0.0
9.232,-0.506,-0.926,0.0
8.824,-0.485,-0.933,0.0
8.462,-0.466,-0.94,0.0
10.847,-0.595,-0.899,0.0
10.318,-0.567,-0.91,0.0
9.8,-0.54,-0.916,0.0
9.354,-0.516,-0.925,0.0
8.924,-0.493,-0.931,0.0
8.541,-0.473,-0.936,0.0
11.105,-0.613,-0.904,0.0
10.461,-0.578,-0.907,0.0
9.966,-0.552,-0.918,0.0
9.455,-0.524,-0.922,0.0
9.05,-0.503,-0.931,0.0
8.638,-0.481,-0.935,0.0
11.19,-0.621,-0.895,0.0
10.667,-0.593,-0.91,0.0
10.092,-0.561,-0.915,0.0
9.608,-0.535,-0.923,0.0
9.182,-0.512,-0.931,0.0
8.761,-0.49,-0.935,0.0
11.366,-0.633,-0.893,0.0
10.781,-0.601,-0.904,0.0
10.221,-0.571,-0.911,0.0
9.746,-0.545,-0.922,0.0
9.301,-0.521,-0.929,0.0
8.873,-0.498,-0.934,0.0
11.665,-0.652,-0.899,0.0
10.952,-0.613,-0.902,0.0
10.401,-0.583,-0.912,0.0
9.894,-0.555,-0.921,0.0
9.422,-0.53,-0.927,0.0
8.999,-0.506,-0.933,0.0
11.798,-0.662,-0.892,0.0
11.139,-0.626,-0.901,0.0
10.564,-0.594,-0.91,0.0
10.019,-0.564,-0.917,0.0
9.553,-0.538,-0.925,0.0
9.111,-0.514,-0.931,0.0
17.365,-0.918,-0.828,0.0
15.924,-0.841,-0.842,0.0
14.722,-0.776,-0.855,0.0
13.628,-0.718,-0.864,0.0
12.776,-0.672,-0.877,0.0
12.057,-0.633,-0.89,0.0
17.772,-0.93,-0.816,0.0
16.371,-0.855,-0.837,0.0
15.143,-0.79,-0.853,0.0
13.991,-0.728,-0.863,0.0
13.042,-0.678,-0.872,0.0
12.278,-0.637,-0.886,0.0
18.375,-0.95,-0.812,0.0
16.873,-0.871,-0.834,0.0
15.497,-0.798,-0.847,0.0
14.416,-0.741,-0.864,0.0
13.372,-0.687,-0.871,0.0
12.535,-0.642,-0.882,0.0
18.986,-0.97,-0.807,0.0
17.386,-0.886,-0.829,0.0
15.94,-0.811,-0.843,0.0
14.7,-0.746,-0.856,0.0
13.687,-0.693,-0.868,0.0
12.747,-0.645,-0.875,0.0
19.576,-0.986,-0.798,0.0
17.822,-0.896,-0.819,0.0
16.445,-0.825,-0.841,0.0
15.127,-0.757,-0.854,0.0
13.993,-0.699,-0.863,0.0
13.057,-0.651,-0.874,0.0
20.082,-0.997,-0.784,0.0
18.328,-0.908,-0.811,0.0
16.855,-0.833,-0.833,0.0
15.5,-0.764,-0.849,0.0
14.415,-0.709,-0.865,0.0
13.355,-0.655,-0.871,0.0
20.712,-1.013,-0.773,0.0
18.999,-0.927,-0.808,0.0
17.32,-0.842,-0.826,0.0
15.948,-0.774,-0.846,0.0
14.717,-0.712,-0.857,0.0
13.625,-0.658,-0.865,0.0
21.315,-1.025,-0.759,0.0
19.58,-0.939,-0.799,0.0
17.781,-0.85,-0.818,0.0
16.315,-0.778,-0.837,0.0
15.143,-0.72,-0.856,0.0
14.087,-0.668,-0.869,0.0
21.875,-1.033,-0.741,0.0
20.082,-0.946,-0.784,0.0
18.349,-0.861,-0.812,0.0
16.888,-0.791,-0.837,0.0
15.555,-0.726,-0.852,0.0
14.374,-0.669,-0.863,0.0
22.841,-1.059,-0.735,0.0
20.655,-0.954,-0.772,0.0
18.868,-0.869,-0.803,0.0
17.275,-0.793,-0.827,0.0
15.906,-0.728,-0.844,0.0
14.766,-0.673,-0.861,0.0
23.971,-1.089,-0.73,0.0
21.133,-0.957,-0.754,0.0
19.401,-0.875,-0.793,0.0
17.736,-0.797,-0.819,0.0
16.354,-0.732,-0.84,0.0
15.112,-0.675,-0.855,0.0
24.635,-1.095,-0.708,0.0
21.923,-0.971,-0.744,0.0
20.103,-0.887,-0.787,0.0
18.381,-0.808,-0.817,0.0
16.784,-0.735,-0.834,0.0
15.463,-0.675,-0.849,0.0
25.619,-1.113,-0.694,0.0
22.833,-0.988,-0.737,0.0
20.662,-0.891,-0.775,0.0
18.858,-0.81,-0.807,0.0
17.351,-0.742,-0.833,0.0
15.867,-0.676,-0.845,0.0
26.659,-1.131,-0.677,0.0
23.484,-0.992,-0.719,0.0
21.048,-0.885,-0.754,0.0
19.364,-0.811,-0.796,0.0
17.809,-0.743,-0.825,0.0
16.336,-0.678,-0.843,0.0
27.863,-1.152,-0.662,0.0
24.901,-1.025,-0.721,0.0
21.846,-0.895,-0.746,0.0
19.99,-0.815,-0.789,0.0
18.199,-0.739,-0.813,0.0
16.74,-0.676,-0.836,0.0
29.015,-1.167,-0.641,0.0
25.59,-1.024,-0.699,0.0
22.672,-0.903,-0.737,0.0
20.441,-0.81,-0.773,0.0
18.845,-0.743,-0.811,0.0
17.255,-0.677,-0.833,0.0
30.336,-1.185,-0.621,0.0
26.371,-1.025,-0.677,0.0
23.668,-0.915,-0.731,0.0
21.101,-0.812,-0.764,0.0
19.398,-0.742,-0.803,0.0
17.729,-0.675,-0.827,0.0
0.0,0.0,0.0,0.0
27.669,-1.042,-0.665,0.0
24.547,-0.919,-0.718,0.0
21.672,-0.807,-0.749,0.0
19.831,-0.735,-0.789,0.0
18.054,-0.665,-0.813,0.0
0.0,0.0,0.0,0.0
28.767,-1.048,-0.645,0.0
25.472,-0.922,-0.704,0.0
22.583,-0.813,-0.744,0.0
20.395,-0.73,-0.779,0.0
18.753,-0.667,-0.814,0.0
33.873,-1.198,-0.529,0.0
0.0,0.0,0.0,0.0
26.26,-0.917,-0.684,0.0
23.237,-0.806,-0.729,0.0
20.909,-0.721,-0.765,0.0
19.233,-0.659,-0.804,1.0
36.191,-1.233,-0.508,0.0
31.215,-1.056,-0.601,0.0
0.0,0.0,0.0,0.0
24.534,-0.819,-0.731,0.0
21.686,-0.719,-0.76,0.0
19.76,-0.651,-0.795,0.0
38.288,-1.254,-0.478,0.0
32.109,-1.044,-0.568,0.0
28.567,-0.922,-0.655,0.0
25.342,-0.812,-0.716,0.0
22.389,-0.712,-0.749,0.0
17.802,-0.562,-0.689,151.0
0.0,0.0,0.0,0.0
0.0,0.0,0.0,0.0
29.441,-0.909,-0.629,0.0
25.827,-0.791,-0.69,0.0
17.824,-0.542,-0.569,1.0
17.751,-0.535,-0.66,158.0
0.0,0.0,0.0,0.0
35.364,-1.05,-0.517,0.0
0.0,0.0,0.0,0.0
26.754,-0.782,-0.674,0.0
17.817,-0.516,-0.542,1.0
17.759,-0.51,-0.633,155.0
0.0,0.0,0.0,0.0
0.0,0.0,0.0,0.0
31.793,-0.89,-0.583,0.0
0.0,0.0,0.0,0.0
24.603,-0.677,-0.711,0.0
17.797,-0.485,-0.608,11.0
0.0,0.0,0.0,0.0
0.0,0.0,0.0,0.0
33.231,-0.882,-0.56,0.0
0.0,0.0,0.0,0.0
25.356,-0.659,-0.696,0.0
22.611,-0.582,-0.739,0.0
0.0,0.0,0.0,0.0
0.0,0.0,0.0,0.0
0.0,0.0,0.0,0.0
30.005,-0.743,-0.623,0.0
26.419,-0.647,-0.687,0.0
21.808,-0.528,-0.682,0.0
0.0,0.0,0.0,0.0
0.0,0.0,0.0,0.0
0.0,0.0,0.0,0.0
31.342,-0.727,-0.606,0.0
21.72,-0.498,-0.534,10.0
21.72,-0.492,-0.648,150.0
0.0,0.0,0.0,0.0
0.0,0.0,0.0,0.0
40.019,-0.876,-0.502,0.0
31.925,-0.69,-0.572,0.0
21.726,-0.463,-0.503,10.0
21.67,-0.457,-0.616,162.0
0.0,0.0,0.0,0.0
0.0,0.0,0.0,0.0
0.0,0.0,0.0,0.0
0.0,0.0,0.0,0.0
21.852,-0.431,-0.476,0.0
21.732,-0.423,-0.588,150.0
0.0,0.0,0.0,0.0
0.0,0.0,0.0,0.0
0.0,0.0,0.0,0.0
35.039,-0.644,-0.532,0.0
30.172,-0.547,-0.617,0.0
26.279,-0.469,-0.676,0.0
0.0,0.0,0.0,0.0
0.0,0.0,0.0,0.0
0.0,0.0,0.0,0.0
0.0,0.0,0.0,0.0
30.947,-0.51,-0.592,0.0
27.571,-0.446,-0.673,0.0
19.753,-0.314,0.066,1.0
0.0,0.0,0.0,0.0
0.0,0.0,0.0,0.0
0.0,0.0,0.0,0.0
31.88,-0.471,-0.569,0.0
28.508,-0.413,-0.659,0.0
19.752,-0.281,0.091,25.0
0.0,0.0,0.0,0.0
0.0,0.0,0.0,0.0
40.035,-0.534,-0.452,0.0
33.535,-0.438,-0.556,0.0
28.968,-0.37,-0.633,0.0
19.75,-0.247,0.116,10.0
0.0,0.0,0.0,0.0
0.0,0.0,0.0,0.0
0.0,0.0,0.0,0.0
34.925,-0.395,-0.536,0.0
0.0,0.0,0.0,0.0
160.744,-1.731,1.145,11.0
0.0,0.0,0.0,0.0
0.0,0.0,0.0,0.0
19.748,-0.194,-0.174,0.0
19.773,-0.189,-0.279,9.0
19.764,-0.183,-0.384,13.0
160.678,-1.446,1.338,7.0
0.0,0.0,0.0,0.0
19.785,-0.166,-0.044,1.0
19.741,-0.159,-0.151,13.0
19.739,-0.153,-0.255,16.0
19.742,-0.148,-0.36,17.0
165.373,-1.192,1.571,13.0
19.763,-0.136,0.083,2.0
19.738,-0.13,-0.021,9.0
19.71,-0.124,-0.128,16.0
19.725,-0.118,-0.233,17.0
19.751,-0.112,-0.338,15.0
19.723,-0.106,0.209,15.0
19.719,-0.1,0.105,13.0
19.712,-0.094,0.0,14.0
19.712,-0.087,-0.106,14.0
19.731,-0.081,-0.21,16.0
19.763,-0.076,-0.316,15.0
19.667,-0.069,0.231,14.0
19.697,-0.063,0.127,17.0
19.692,-0.057,0.022,16.0
19.724,-0.051,-0.084,12.0
19.748,-0.045,-0.189,14.0
19.769,-0.038,-0.294,1.0
19.636,-0.032,0.252,12.0
19.703,-0.026,0.148,7.0
19.7,-0.02,0.043,13.0
19.733,-0.014,-0.063,10.0
19.751,-0.007,-0.168,0.0
0.0,0.0,0.0,0.0
19.624,0.004,0.273,14.0
19.703,0.01,0.169,5.0
19.764,0.017,0.064,7.0
19.751,0.023,-0.042,91.0
19.763,0.029,-0.148,10.0
19.774,0.035,-0.253,15.0
19.618,0.041,0.292,13.0
19.645,0.048,0.188,12.0
19.749,0.054,0.084,22.0
19.747,0.061,-0.023,56.0
19.753,0.067,-0.128,40.0
19.769,0.073,-0.234,19.0
19.627,0.079,0.312,21.0
19.625,0.085,0.207,13.0
19.647,0.092,0.102,11.0
19.66,0.098,-0.004,9.0
19.697,0.104,-0.109,2.0
40.208,0.226,-0.438,0.0
19.616,0.117,0.33,13.0
19.651,0.124,0.226,13.0
19.642,0.13,0.121,14.0
19.626,0.136,0.014,17.0
19.645,0.142,-0.091,11.0
19.659,0.148,-0.196,11.0
19.633,0.155,0.349,11.0
19.642,0.161,0.243,12.0
19.653,0.168,0.138,12.0
19.634,0.174,0.031,14.0
19.64,0.18,-0.073,13.0
19.64,0.187,-0.179,16.0
19.705,0.194,0.367,10.0
19.728,0.201,0.262,8.0
19.744,0.207,0.156,17.0
19.686,0.213,0.048,9.0
19.653,0.219,-0.057,8.0
19.644,0.225,-0.162,17.0
19.705,0.233,0.384,12.0
19.714,0.239,0.278,12.0
19.758,0.246,0.172,27.0
84.868,1.087,0.278,11.0
19.711,0.258,-0.041,0.0
19.672,0.264,-0.146,14.0
19.693,0.272,0.4,13.0
19.726,0.279,0.294,12.0
19.764,0.286,0.188,2.0
113.478,1.682,0.463,1.0
55.125,0.834,-0.071,7.0
44.796,0.692,-0.299,1.0
19.707,0.312,0.415,2.0
55.201,0.892,0.867,17.0
55.19,0.909,0.569,47.0
55.181,0.927,0.266,54.0
55.145,0.945,-0.03,80.0
44.938,0.785,-0.266,0.0
55.183,0.985,1.204,70.0
55.168,1.002,0.906,55.0
55.193,1.021,0.609,40.0
55.197,1.038,0.305,24.0
55.223,1.057,0.008,26.0
44.586,0.868,-0.233,0.0
179.353,3.561,4.039,13.0
179.4,3.619,3.071,15.0
128.768,2.638,1.508,13.0
113.237,2.357,0.703,17.0
65.225,1.379,0.053,1.0
44.327,0.951,-0.203,0.0
135.271,2.959,3.135,3.0
179.238,3.98,3.186,18.0
128.692,2.9,1.592,14.0
70.819,1.619,0.486,7.0
45.507,1.054,0.066,1.0
0.0,0.0,0.0,0.0
99.56,2.381,2.37,150.0
99.583,2.412,1.831,20.0
70.805,1.739,0.918,12.0
70.686,1.759,0.527,29.0
0.0,0.0,0.0,0.0
0.0,0.0,0.0,0.0
0.0,0.0,0.0,0.0
43.731,1.149,0.829,150.0
43.73,1.162,0.592,150.0
0.0,0.0,0.0,0.0
0.0,0.0,0.0,0.0
40.142,1.106,-0.112,154.0
41.877,1.172,1.044,40.0
40.131,1.136,0.783,116.0
40.124,1.149,0.565,150.0
40.14,1.162,0.343,131.0
40.12,1.174,0.125,145.0
40.124,1.188,-0.092,150.0
40.125,1.205,1.021,150.0
40.131,1.218,0.803,150.0
40.12,1.23,0.585,150.0
40.138,1.243,0.362,113.0
40.123,1.256,0.144,150.0
40.123,1.269,-0.073,150.0
40.123,1.287,1.04,150.0
40.121,1.3,0.821,150.0
40.121,1.312,0.603,115.0
40.107,1.325,0.381,30.0
64.04,2.136,0.259,10.0
40.128,1.351,-0.055,150.0
121.421,4.144,3.201,8.0
162.413,5.596,3.397,6.0
162.061,5.633,2.505,18.0
71.059,2.493,0.704,26.0
44.881,1.588,0.2,3.0
40.115,1.432,-0.039,26.0
44.263,1.601,1.184,93.0
43.774,1.596,0.932,85.0
43.549,1.602,0.689,85.0
43.482,1.614,0.447,150.0
43.182,1.617,0.208,155.0
40.527,1.53,-0.025,14.0
41.57,1.589,1.127,107.0
40.48,1.56,0.876,150.0
40.394,1.57,0.653,139.0
40.38,1.581,0.428,122.0
40.387,1.594,0.208,139.0
40.336,1.605,-0.012,150.0
45.181,1.82,1.239,8.0
100.498,4.079,2.207,38.0
100.586,4.114,1.659,16.0
100.542,4.144,1.098,6.0
23.628,0.981,0.128,0.0
45.191,1.891,-0.001,8.0
23.637,1.0,0.655,29.0
23.627,1.007,0.525,37.0
23.62,1.013,0.395,41.0
23.609,1.021,0.263,45.0
23.606,1.028,0.134,46.0
23.6,1.035,0.005,54.0
23.596,1.047,0.659,151.0
23.603,1.054,0.53,150.0
23.583,1.06,0.4,73.0
23.594,1.068,0.268,71.0
23.594,1.075,0.139,67.0
23.6,1.083,0.01,63.0
23.591,1.095,0.664,67.0
23.6,1.102,0.535,49.0
23.601,1.109,0.405,41.0
23.613,1.117,0.273,38.0
23.626,1.125,0.143,37.0
23.639,1.132,0.014,39.0
45.208,2.189,1.28,7.0
23.604,1.15,0.538,1.0
23.7,1.161,0.41,0.0
0.0,0.0,0.0,0.0
62.368,3.094,0.387,6.0
45.177,2.255,0.032,55.0
45.21,2.279,1.286,35.0
45.215,2.293,1.037,5.0
45.203,2.306,0.788,1.0
99.79,5.12,1.18,24.0
62.706,3.236,0.396,6.0
45.174,2.345,0.036,43.0
45.199,2.369,1.29,10.0
45.207,2.383,1.041,5.0
45.204,2.396,0.791,87.0
45.201,2.409,0.537,77.0
45.204,2.423,0.288,5.0
45.17,2.434,0.039,46.0
45.207,2.459,1.292,11.0
199.949,10.938,4.613,8.0
45.197,2.485,0.792,0.0
119.987,6.632,1.43,8.0
45.263,2.515,0.289,2.0
45.177,2.523,0.039,47.0
45.218,2.55,1.293,10.0
208.951,11.843,4.822,7.0
0.0,0.0,0.0,0.0
113.566,6.502,1.353,15.0
57.029,3.281,0.364,13.0
45.183,2.612,0.038,46.0
45.18,2.636,1.291,9.0
45.225,2.652,1.042,135.0
45.206,2.663,0.791,150.0
112.017,6.632,1.329,29.0
45.208,2.69,0.286,9.0
45.174,2.701,0.036,47.0
45.201,2.727,1.288,8.0
133.741,8.107,3.072,29.0
45.117,2.747,0.786,0.0
113.235,6.926,1.334,13.0
45.209,2.778,0.282,1.0
45.17,2.789,0.031,48.0
45.187,2.814,1.284,10.0
112.419,7.033,2.57,23.0
112.409,7.064,1.946,63.0
100.176,6.324,1.168,9.0
62.293,3.95,0.381,7.0
45.178,2.878,0.025,94.0
45.193,2.903,1.277,14.0
45.202,2.916,1.026,93.0
45.216,2.93,0.775,102.0
45.188,2.941,0.519,96.0
45.195,2.953,0.268,91.0
44.536,2.923,0.017,9.0
44.625,2.953,1.253,46.0
44.456,2.954,1.001,87.0
44.295,2.955,0.751,94.0
44.084,2.953,0.498,89.0
44.296,2.979,0.254,3.0
42.21,2.851,0.007,11.0
43.256,2.945,1.206,70.0
43.177,2.951,0.963,47.0
41.251,2.831,0.69,3.0
41.936,2.889,0.464,129.0
42.581,2.945,0.234,87.0
0.0,0.0,0.0,0.0
41.892,2.931,1.157,84.0
40.914,2.874,0.902,90.0
41.658,2.937,0.686,82.0
41.566,2.941,0.449,125.0
41.292,2.933,0.216,76.0
40.378,2.879,-0.014,12.0
40.57,2.915,1.109,89.0
40.392,2.913,0.879,79.0
40.381,2.923,0.653,77.0
40.357,2.931,0.423,78.0
40.384,2.943,0.198,93.0
40.323,2.95,-0.026,45.0
45.454,3.35,1.228,27.0
43.699,3.231,0.937,12.0
43.697,3.242,0.692,129.0
43.694,3.253,0.444,136.0
43.707,3.265,0.199,150.0
42.018,3.15,-0.042,114.0
43.691,3.3,1.165,139.0
43.69,3.31,0.92,146.0
43.703,3.322,0.676,130.0
43.7,3.333,0.427,129.0
0.0,0.0,0.0,0.0
41.901,3.218,-0.058,147.0
41.891,3.24,1.1,85.0
41.902,3.251,0.866,132.0
41.904,3.261,0.631,125.0
41.904,3.272,0.393,119.0
41.907,3.283,0.158,150.0
40.108,3.152,-0.073,84.0
41.902,3.316,1.082,119.0
41.899,3.326,0.848,106.0
41.9,3.336,0.612,111.0
41.911,3.347,0.373,116.0
0.0,0.0,0.0,0.0
40.111,3.224,-0.091,89.0
40.097,3.243,1.017,150.0
40.095,3.253,0.792,147.0
40.099,3.263,0.568,139.0
40.112,3.273,0.339,116.0
40.109,3.283,0.113,150.0
40.104,3.292,-0.11,105.0
40.094,3.312,0.997,150.0
40.113,3.323,0.773,111.0
40.107,3.332,0.547,103.0
40.097,3.341,0.318,110.0
40.1,3.351,0.092,150.0
40.107,3.361,-0.132,102.0
40.109,3.382,0.977,115.0
40.102,3.391,0.751,106.0
40.109,3.4,0.526,117.0
40.104,3.409,0.296,106.0
40.069,3.415,0.07,50.0
40.012,3.42,-0.154,53.0
75.103,6.46,1.788,8.0
74.964,6.463,1.362,8.0
74.89,6.473,0.94,9.0
74.708,6.475,0.51,3.0
40.107,3.485,0.048,104.0
40.04,3.488,-0.177,49.0
73.743,6.462,1.712,10.0
73.692,6.474,1.296,11.0
73.622,6.484,0.88,10.0
73.509,6.489,0.457,2.0
46.583,4.123,0.027,29.0
42.79,3.797,-0.215,4.0
72.524,6.473,1.639,9.0
72.374,6.475,1.227,8.0
72.297,6.484,0.818,10.0
53.5,4.81,0.298,0.0
46.438,4.185,-0.002,20.0
40.056,3.618,-0.227,15.0
71.258,6.474,1.564,10.0
71.157,6.479,1.161,10.0
71.055,6.484,0.757,9.0
52.95,4.843,0.26,2.0
46.235,4.238,-0.033,22.0
0.0,0.0,0.0,0.0
70.119,6.479,1.492,11.0
70.036,6.485,1.094,11.0
69.987,6.494,0.698,7.0
53.001,4.929,0.224,2.0
45.763,4.266,-0.064,19.0
0.0,0.0,0.0,0.0
68.981,6.479,1.418,9.0
68.926,6.487,1.028,8.0
68.854,6.494,0.637,6.0
47.486,4.488,0.166,5.0
44.903,4.253,-0.096,19.0
36.548,3.469,-0.284,7.0
67.915,6.479,1.347,9.0
67.872,6.488,0.963,9.0
67.755,6.49,0.577,7.0
47.559,4.565,0.131,22.0
42.555,4.093,-0.123,17.0
35.506,3.422,-0.303,5.0
66.895,6.48,1.275,8.0
66.864,6.49,0.896,10.0
66.758,6.493,0.516,3.0
47.063,4.586,0.093,21.0
40.564,3.96,-0.149,9.0
34.277,3.354,-0.32,11.0
65.986,6.488,1.205,9.0
65.922,6.493,0.831,8.0
65.751,6.488,0.455,2.0
46.574,4.605,0.054,21.0
40.178,3.98,-0.18,15.0
0.0,0.0,0.0,0.0
65.056,6.487,1.134,8.0
64.999,6.493,0.765,6.0
64.874,6.492,0.396,1.0
45.635,4.574,0.015,21.0
39.703,3.987,-0.211,19.0
31.956,3.215,-0.351,9.0
64.19,6.488,1.065,9.0
64.172,6.497,0.701,7.0
52.783,5.353,0.277,1.0
44.772,4.548,-0.023,19.0
39.075,3.977,-0.242,14.0
31.102,3.171,-0.369,9.0
63.436,6.495,0.998,10.0
63.428,6.505,0.637,10.0
49.787,5.114,0.217,2.0
44.288,4.557,-0.061,19.0
37.046,3.818,-0.262,12.0
30.19,3.117,-0.385,8.0
62.696,6.5,0.931,10.0
62.692,6.51,0.574,7.0
47.264,4.915,0.164,5.0
39.672,4.132,-0.091,6.0
35.072,3.659,-0.28,2.0
29.343,3.067,-0.401,8.0
62.042,6.51,0.864,12.0
62.004,6.516,0.51,9.0
46.819,4.927,0.119,19.0
39.269,4.139,-0.127,14.0
34.558,3.648,-0.308,10.0
28.397,3.002,-0.414,7.0
61.268,6.504,0.795,10.0
61.295,6.515,0.446,6.0
46.182,4.916,0.073,20.0
38.75,4.131,-0.162,16.0
33.352,3.561,-0.329,10.0
27.391,2.929,-0.426,7.0
60.606,6.504,0.729,5.0
60.52,6.503,0.383,1.0
45.532,4.899,0.028,20.0
38.222,4.118,-0.196,14.0
31.91,3.443,-0.346,6.0
25.973,2.807,-0.429,6.0
59.98,6.505,0.662,2.0
59.849,6.499,0.32,1.0
44.265,4.812,-0.015,19.0
37.634,4.097,-0.231,22.0
30.858,3.364,-0.365,9.0
25.46,2.78,-0.446,6.0
59.384,6.505,0.596,3.0
59.245,6.497,0.257,1.0
0.0,0.0,0.0,0.0
36.848,4.051,-0.263,11.0
29.93,3.295,-0.384,8.0
25.031,2.759,-0.464,6.0
58.852,6.508,0.531,8.0
47.113,5.216,0.157,3.0
0.0,0.0,0.0,0.0
34.894,3.872,-0.285,4.0
28.843,3.205,-0.4,7.0
18.022,2.005,-0.353,9.0
58.4,6.517,0.467,4.0
46.459,5.19,0.106,19.0
38.839,4.344,-0.132,15.0
33.467,3.747,-0.308,3.0
28.085,3.148,-0.419,7.0
17.819,2.0,-0.367,15.0
57.916,6.519,0.402,3.0
46.35,5.223,0.057,6.0
37.715,4.254,-0.168,14.0
31.02,3.503,-0.319,2.0
26.702,3.019,-0.427,6.0
17.609,1.993,-0.382,15.0
57.465,6.522,0.337,1.0
37.192,4.225,0.006,9.0
36.537,4.155,-0.203,12.0
31.083,3.539,-0.353,9.0
26.015,2.965,-0.444,2.0
17.428,1.988,-0.397,16.0
51.39,5.878,0.245,17.0
37.19,4.258,-0.034,11.0
36.046,4.131,-0.239,12.0
29.845,3.423,-0.371,8.0
18.131,2.082,-0.329,13.0
17.261,1.984,-0.412,17.0
46.643,5.374,0.172,3.0
38.959,4.492,-0.078,8.0
35.466,4.093,-0.274,10.0
29.072,3.358,-0.394,8.0
17.902,2.07,-0.345,15.0
17.122,1.982,-0.427,17.0
46.528,5.398,0.12,14.0
38.323,4.449,-0.119,17.0
33.803,3.928,-0.299,10.0
27.88,3.242,-0.408,7.0
17.592,2.048,-0.358,15.0
16.971,1.977,-0.443,16.0
45.39,5.3,0.066,21.0
0.0,0.0,0.0,0.0
32.821,3.838,-0.327,10.0
18.141,2.123,-0.286,5.0
17.408,2.039,-0.374,16.0
16.791,1.969,-0.457,17.0
44.277,5.201,0.015,19.0
35.458,4.168,-0.19,12.0
31.459,3.701,-0.349,9.0
18.124,2.134,-0.307,15.0
17.216,2.028,-0.39,17.0
16.686,1.968,-0.473,16.0
42.307,4.998,-0.034,14.0
34.989,4.136,-0.228,18.0
18.112,2.142,-0.222,2.0
17.982,2.129,-0.325,16.0
17.094,2.025,-0.407,15.0
16.583,1.966,-0.49,16.0
38.585,4.582,-0.076,14.0
34.176,4.061,-0.262,11.0
18.116,2.154,-0.243,11.0
17.617,2.096,-0.339,14.0
16.888,2.011,-0.421,15.0
16.488,1.965,-0.506,17.0
37.857,4.517,-0.118,14.0
33.488,3.998,-0.296,10.0
18.113,2.164,-0.264,15.0
17.31,2.069,-0.353,14.0
16.739,2.002,-0.437,17.0
16.402,1.963,-0.523,16.0
0.0,0.0,0.0,0.0
18.099,2.17,-0.181,8.0
18.122,2.174,-0.285,12.0
17.128,2.056,-0.369,14.0
16.64,1.999,-0.454,16.0
16.355,1.966,-0.54,15.0
35.223,4.239,-0.192,13.0
18.094,2.178,-0.202,14.0
17.988,2.167,-0.304,7.0
17.014,2.05,-0.387,15.0
16.54,1.994,-0.471,17.0
16.313,1.968,-0.558,15.0
34.574,4.176,-0.229,5.0
18.097,2.186,-0.223,14.0
17.6,2.127,-0.318,10.0
16.853,2.038,-0.403,17.0
16.458,1.991,-0.488,17.0
16.27,1.97,-0.576,16.0
18.085,2.191,-0.141,13.0
18.112,2.195,-0.245,9.0
17.311,2.099,-0.333,14.0
16.756,2.033,-0.42,17.0
16.391,1.989,-0.505,17.0
16.225,1.97,-0.593,16.0
18.088,2.198,-0.162,16.0
27.471,3.339,-0.404,5.0
17.163,2.087,-0.35,15.0
16.638,2.024,-0.437,16.0
16.335,1.988,-0.523,17.0
16.186,1.971,-0.611,15.0
18.091,2.203,-0.183,15.0
26.314,3.206,-0.418,7.0
17.049,2.078,-0.368,14.0
16.544,2.017,-0.454,15.0
16.3,1.988,-0.541,16.0
16.15,1.971,-0.629,16.0
18.097,2.208,-0.205,12.0
25.626,3.128,-0.437,4.0
16.905,2.064,-0.385,14.0
16.454,2.01,-0.471,16.0
16.281,1.989,-0.559,16.0
16.123,1.971,-0.647,13.0
29.264,3.577,-0.366,3.0
17.339,2.12,-0.316,13.0
16.783,2.053,-0.402,14.0
16.38,2.004,-0.488,17.0
16.229,1.986,-0.577,15.0
16.074,1.968,-0.664,11.0
28.41,3.478,-0.389,8.0
17.2,2.105,-0.334,16.0
16.695,2.044,-0.42,15.0
16.347,2.002,-0.506,17.0
16.199,1.985,-0.595,16.0
16.046,1.966,-0.681,12.0
27.134,3.324,-0.403,7.0
17.113,2.097,-0.352,16.0
16.604,2.035,-0.437,15.0
16.319,2.0,-0.525,17.0
16.174,1.983,-0.613,16.0
15.975,1.959,-0.697,16.0
25.877,3.172,-0.414,6.0
16.985,2.082,-0.369,15.0
16.515,2.025,-0.454,16.0
16.291,1.998,-0.543,15.0
16.134,1.979,-0.63,14.0
15.945,1.956,-0.714,13.0
25.6,3.138,-0.44,2.0
16.848,2.065,-0.386,14.0
16.426,2.014,-0.47,16.0
16.264,1.994,-0.561,14.0
16.101,1.975,-0.648,12.0
15.934,1.955,-0.733,6.0
17.281,2.118,-0.317,14.0
16.748,2.053,-0.403,14.0
16.381,2.008,-0.488,16.0
16.23,1.989,-0.578,14.0
16.062,1.969,-0.665,11.0
15.968,1.958,-0.753,3.0
17.178,2.104,-0.335,18.0
16.681,2.043,-0.421,15.0
16.354,2.003,-0.506,17.0
16.191,1.983,-0.596,15.0
16.011,1.961,-0.681,12.0
16.015,1.962,-0.773,2.0
17.112,2.094,-0.353,18.0
16.587,2.029,-0.437,16.0
16.313,1.996,-0.524,17.0
16.167,1.978,-0.613,15.0
15.975,1.955,-0.698,15.0
16.042,1.963,-0.793,2.0
17.008,2.078,-0.37,18.0
16.522,2.019,-0.454,16.0
16.31,1.993,-0.542,16.0
16.141,1.972,-0.631,14.0
15.922,1.945,-0.713,12.0
0.0,0.0,0.0,0.0
16.886,2.06,-0.386,17.0
16.459,2.007,-0.471,16.0
16.288,1.986,-0.559,15.0
16.095,1.963,-0.647,12.0
15.926,1.942,-0.731,6.0
0.0,0.0,0.0,0.0
16.799,2.045,-0.403,18.0
16.419,1.998,-0.488,17.0
16.245,1.977,-0.576,15.0
16.054,1.953,-0.663,11.0
15.953,1.941,-0.75,3.0
16.263,1.978,-0.859,2.0
16.723,2.031,-0.42,18.0
16.377,1.988,-0.505,17.0
16.208,1.967,-0.592,15.0
15.983,1.939,-0.677,11.0
15.928,1.933,-0.766,2.0
16.29,1.976,-0.878,1.0
16.655,2.017,-0.436,17.0
16.357,1.98,-0.522,16.0
16.22,1.963,-0.61,14.0
15.946,1.929,-0.693,12.0
16.078,1.945,-0.791,2.0
16.343,1.977,-0.898,0.0
16.596,2.003,-0.452,18.0
16.35,1.973,-0.539,15.0
16.167,1.95,-0.626,14.0
15.925,1.92,-0.709,11.0
16.082,1.939,-0.809,2.0
16.421,1.979,-0.92,0.0
16.556,1.991,-0.468,18.0
16.334,1.963,-0.556,15.0
16.138,1.939,-0.642,13.0
15.904,1.911,-0.725,7.0
0.0,0.0,0.0,0.0
16.556,1.988,-0.945,0.0
16.515,1.978,-0.484,19.0
16.304,1.952,-0.571,16.0
16.076,1.924,-0.656,12.0
15.872,1.899,-0.74,4.0
0.0,0.0,0.0,0.0
16.647,1.99,-0.967,0.0
16.495,1.967,-0.5,18.0
16.275,1.94,-0.587,17.0
16.037,1.911,-0.67,12.0
16.011,1.907,-0.762,2.0
16.322,1.943,-0.871,1.0
16.785,1.998,-0.992,0.0
16.474,1.956,-0.516,18.0
16.27,1.93,-0.603,17.0
16.03,1.901,-0.686,12.0
16.093,1.907,-0.782,2.0
16.357,1.938,-0.889,1.0
16.857,1.997,-1.013,0.0
