X,Y,Z,Reflectivity
19.075,0.2,-0.797,0.0
19.663,0.204,-0.271,17.0
19.671,0.2,-0.373,15.0
19.663,0.197,-0.475,14.0
19.673,0.194,-0.58,11.0
19.682,0.191,-0.683,8.0
19.55,0.186,-0.78,2.0
19.665,0.185,-0.234,16.0
19.664,0.181,-0.336,10.0
19.68,0.178,-0.439,8.0
19.691,0.175,-0.543,3.0
19.727,0.173,-0.647,0.0
19.801,0.17,-0.752,1.0
19.658,0.166,-0.196,12.0
19.712,0.164,-0.299,2.0
19.676,0.16,-0.401,0.0
25.947,0.208,-0.666,0.0
22.814,0.179,-0.704,0.0
20.878,0.16,-0.753,0.0
19.682,0.149,-0.159,10.0
0.0,0.0,0.0,0.0
0.0,0.0,0.0,0.0
27.083,0.193,-0.643,0.0
24.355,0.17,-0.705,0.0
21.485,0.147,-0.733,0.0
19.682,0.132,-0.121,9.0
0.0,0.0,0.0,0.0
32.644,0.209,-0.539,0.0
28.624,0.18,-0.624,0.0
25.386,0.156,-0.685,0.0
22.477,0.134,-0.723,0.0
19.712,0.116,-0.082,2.0
41.797,0.24,-0.392,0.0
34.357,0.192,-0.5,0.0
29.957,0.163,-0.594,0.0
26.556,0.141,-0.664,0.0
23.594,0.122,-0.712,0.0
19.738,0.1,-0.043,6.0
19.759,0.097,-0.146,2.0
19.759,0.095,-0.248,3.0
19.762,0.092,-0.352,8.0
19.769,0.09,-0.455,12.0
19.785,0.087,-0.558,11.0
19.759,0.085,-0.004,35.0
19.771,0.082,-0.106,29.0
19.769,0.08,-0.209,31.0
19.76,0.077,-0.313,28.0
19.777,0.075,-0.415,39.0
19.776,0.073,-0.518,36.0
19.767,0.071,0.034,42.0
19.763,0.068,-0.067,119.0
19.764,0.066,-0.169,32.0
19.771,0.063,-0.273,28.0
19.767,0.061,-0.375,25.0
19.783,0.059,-0.478,150.0
19.758,0.057,0.074,14.0
19.751,0.054,-0.027,45.0
19.746,0.052,-0.129,16.0
19.739,0.05,-0.233,18.0
19.766,0.048,-0.335,15.0
19.766,0.046,-0.437,10.0
19.757,0.044,0.114,11.0
19.742,0.042,0.012,16.0
19.744,0.04,-0.089,7.0
19.733,0.037,-0.193,13.0
19.747,0.035,-0.294,17.0
19.761,0.033,-0.396,9.0
19.743,0.031,0.155,11.0
19.765,0.029,0.053,5.0
19.736,0.027,-0.048,78.0
19.78,0.025,-0.152,1.0
19.775,0.023,-0.254,1.0
19.782,0.021,-0.356,1.0
19.642,0.019,0.195,13.0
19.748,0.018,0.094,6.0
19.75,0.016,-0.007,9.0
19.739,0.014,-0.111,0.0
19.733,0.012,-0.212,0.0
34.479,0.018,-0.549,0.0
19.636,0.008,0.235,15.0
19.772,0.007,0.135,1.0
19.745,0.005,0.033,7.0
19.747,0.003,-0.07,6.0
19.774,0.002,-0.172,0.0
0.0,0.0,0.0,0.0
19.63,-0.001,0.276,14.0
19.663,-0.002,0.175,10.0
19.698,-0.004,0.074,7.0
19.724,-0.006,-0.028,12.0
19.757,-0.007,-0.13,7.0
19.746,-0.009,-0.232,0.0
19.634,-0.01,0.317,13.0
19.639,-0.012,0.216,15.0
19.684,-0.013,0.115,8.0
19.694,-0.015,0.012,14.0
19.74,-0.016,-0.089,7.0
19.76,-0.017,-0.191,6.0
19.63,-0.019,0.358,13.0
19.631,-0.02,0.257,11.0
19.661,-0.022,0.156,8.0
19.698,-0.023,0.053,14.0
19.714,-0.024,-0.048,14.0
19.746,-0.026,-0.149,14.0
19.631,-0.027,0.399,13.0
19.635,-0.028,0.298,11.0
19.644,-0.029,0.197,14.0
19.678,-0.031,0.094,16.0
19.699,-0.032,-0.006,16.0
19.734,-0.033,-0.107,11.0
19.636,-0.034,0.441,13.0
19.632,-0.035,0.34,10.0
19.641,-0.036,0.239,11.0
19.676,-0.038,0.136,15.0
19.706,-0.039,0.035,16.0
19.722,-0.04,-0.065,16.0
19.638,-0.041,0.483,12.0
19.638,-0.042,0.382,10.0
19.634,-0.043,0.281,10.0
19.669,-0.044,0.178,13.0
19.705,-0.045,0.077,16.0
19.712,-0.046,-0.023,16.0
19.629,-0.047,0.524,13.0
19.632,-0.048,0.423,11.0
19.631,-0.048,0.322,10.0
19.648,-0.049,0.219,14.0
19.693,-0.05,0.119,16.0
19.714,-0.051,0.017,16.0
19.638,-0.052,0.566,14.0
19.639,-0.053,0.465,11.0
19.632,-0.053,0.364,9.0
19.642,-0.054,0.261,9.0
19.695,-0.055,0.161,17.0
19.699,-0.055,0.059,14.0
19.647,-0.056,0.608,14.0
19.637,-0.057,0.507,11.0
19.637,-0.057,0.406,10.0
19.635,-0.058,0.303,9.0
19.673,-0.058,0.202,14.0
19.705,-0.059,0.101,15.0
19.645,-0.06,0.65,13.0
19.633,-0.06,0.548,12.0
19.627,-0.061,0.447,11.0
19.642,-0.061,0.344,9.0
19.662,-0.061,0.244,11.0
19.696,-0.062,0.143,17.0
19.674,-0.063,0.693,11.0
19.632,-0.063,0.59,12.0
19.637,-0.063,0.489,11.0
19.628,-0.064,0.386,9.0
19.651,-0.064,0.286,10.0
19.699,-0.064,0.185,15.0
19.694,-0.065,0.735,9.0
19.643,-0.065,0.632,12.0
19.64,-0.065,0.531,11.0
19.635,-0.065,0.428,10.0
19.657,-0.065,0.327,10.0
19.661,-0.065,0.226,13.0
19.734,-0.067,0.779,2.0
19.662,-0.067,0.674,11.0
19.633,-0.066,0.572,12.0
19.632,-0.066,0.469,11.0
19.641,-0.066,0.368,9.0
19.658,-0.066,0.267,10.0
184.763,-0.637,7.683,21.0
19.676,-0.067,0.716,9.0
19.64,-0.067,0.614,12.0
19.626,-0.067,0.51,11.0
19.647,-0.066,0.409,10.0
19.65,-0.066,0.308,10.0
184.912,-0.638,8.077,21.0
19.705,-0.067,0.759,6.0
19.649,-0.067,0.655,11.0
19.63,-0.066,0.551,13.0
19.637,-0.066,0.45,12.0
19.648,-0.065,0.349,10.0
184.991,-0.631,8.469,12.0
19.731,-0.066,0.801,0.0
19.659,-0.066,0.697,10.0
19.624,-0.065,0.592,13.0
19.634,-0.064,0.491,12.0
19.646,-0.064,0.391,9.0
19.595,-0.065,0.938,0.0
184.854,-0.61,7.894,24.0
19.685,-0.064,0.739,8.0
19.645,-0.063,0.634,12.0
19.632,-0.062,0.532,12.0
19.643,-0.062,0.431,13.0
19.626,-0.063,0.98,1.0
185.019,-0.589,8.285,17.0
19.717,-0.061,0.781,2.0
19.655,-0.06,0.675,11.0
19.628,-0.06,0.572,14.0
19.629,-0.059,0.471,12.0
19.637,-0.06,1.022,0.0
19.618,-0.059,0.919,1.0
184.673,-0.55,7.7,20.0
19.677,-0.057,0.716,9.0
19.638,-0.056,0.614,13.0
19.632,-0.055,0.512,13.0
0.0,0.0,0.0,0.0
19.616,-0.055,0.96,5.0
19.631,-0.054,0.859,0.0
19.691,-0.053,0.757,6.0
19.647,-0.052,0.654,13.0
19.631,-0.051,0.552,13.0
0.0,0.0,0.0,0.0
19.614,-0.051,1.0,4.0
19.603,-0.049,0.897,7.0
19.701,-0.048,0.798,0.0
19.662,-0.047,0.695,10.0
19.636,-0.046,0.593,13.0
0.0,0.0,0.0,0.0
19.596,-0.045,1.039,1.0
19.598,-0.044,0.937,12.0
19.596,-0.043,0.834,2.0
19.677,-0.041,0.735,8.0
19.641,-0.04,0.633,13.0
0.0,0.0,0.0,0.0
0.0,0.0,0.0,0.0
19.586,-0.038,0.976,13.0
19.586,-0.036,0.873,13.0
19.719,-0.035,0.777,3.0
19.646,-0.033,0.672,12.0
0.0,0.0,0.0,0.0
138.767,-0.233,7.922,4.0
19.596,-0.031,1.017,6.0
19.573,-0.029,0.912,16.0
19.63,-0.028,0.813,1.0
19.667,-0.026,0.712,11.0
0.0,0.0,0.0,0.0
0.0,0.0,0.0,0.0
19.598,-0.023,1.055,2.0
19.561,-0.022,0.95,16.0
19.589,-0.02,0.85,16.0
19.689,-0.018,0.752,8.0
0.0,0.0,0.0,0.0
0.0,0.0,0.0,0.0
0.0,0.0,0.0,0.0
19.552,-0.013,0.988,14.0
19.565,-0.011,0.887,17.0
19.665,-0.01,0.79,9.0
113.896,-0.062,7.772,14.0
0.0,0.0,0.0,0.0
139.003,-0.048,8.036,2.0
19.581,-0.004,1.028,6.0
19.56,-0.002,0.925,21.0
19.598,0.0,0.825,17.0
0.0,0.0,0.0,0.0
0.0,0.0,0.0,0.0
0.0,0.0,0.0,0.0
19.612,0.004,1.067,1.0
19.559,0.006,0.962,19.0
19.577,0.009,0.861,19.0
0.0,0.0,0.0,0.0
113.87,0.061,7.617,6.0
0.0,0.0,0.0,0.0
138.998,0.107,7.832,11.0
19.553,0.017,1.0,14.0
19.554,0.019,0.898,21.0
0.0,0.0,0.0,0.0
113.868,0.124,7.833,5.0
0.0,0.0,0.0,0.0
0.0,0.0,0.0,0.0
19.557,0.028,1.036,7.0
19.554,0.03,0.934,23.0
0.0,0.0,0.0,0.0
0.0,0.0,0.0,0.0
0.0,0.0,0.0,0.0
0.0,0.0,0.0,0.0
19.604,0.04,1.075,1.0
19.565,0.042,0.971,23.0
0.0,0.0,0.0,0.0
0.0,0.0,0.0,0.0
113.886,0.275,7.664,13.0
0.0,0.0,0.0,0.0
139.027,0.373,7.886,4.0
19.56,0.054,1.007,13.0
0.0,0.0,0.0,0.0
0.0,0.0,0.0,0.0
0.0,0.0,0.0,0.0
0.0,0.0,0.0,0.0
0.0,0.0,0.0,0.0
19.582,0.068,1.043,6.0
0.0,0.0,0.0,0.0
0.0,0.0,0.0,0.0
0.0,0.0,0.0,0.0
113.941,0.445,7.473,17.0
0.0,0.0,0.0,0.0
19.626,0.082,1.081,0.0
84.83,0.355,7.062,4.0
0.0,0.0,0.0,0.0
0.0,0.0,0.0,0.0
0.0,0.0,0.0,0.0
0.0,0.0,0.0,0.0
0.0,0.0,0.0,0.0
84.784,0.417,7.207,18.0
0.0,0.0,0.0,0.0
0.0,0.0,0.0,0.0
0.0,0.0,0.0,0.0
113.94,0.629,7.272,29.0
0.0,0.0,0.0,0.0
0.0,0.0,0.0,0.0
0.0,0.0,0.0,0.0
0.0,0.0,0.0,0.0
0.0,0.0,0.0,0.0
0.0,0.0,0.0,0.0
113.951,0.736,6.867,34.0
0.0,0.0,0.0,0.0
84.763,0.562,7.048,12.0
0.0,0.0,0.0,0.0
0.0,0.0,0.0,0.0
0.0,0.0,0.0,0.0
0.0,0.0,0.0,0.0
0.0,0.0,0.0,0.0
84.791,0.633,7.192,6.0
0.0,0.0,0.0,0.0
0.0,0.0,0.0,0.0
0.0,0.0,0.0,0.0
0.0,0.0,0.0,0.0
0.0,0.0,0.0,0.0
0.0,0.0,0.0,0.0
84.852,0.72,6.885,2.0
0.0,0.0,0.0,0.0
0.0,0.0,0.0,0.0
0.0,0.0,0.0,0.0
0.0,0.0,0.0,0.0
0.0,0.0,0.0,0.0
84.796,0.794,7.015,19.0
0.0,0.0,0.0,0.0
0.0,0.0,0.0,0.0
0.0,0.0,0.0,0.0
0.0,0.0,0.0,0.0
0.0,0.0,0.0,0.0
0.0,0.0,0.0,0.0
0.0,0.0,0.0,0.0
0.0,0.0,0.0,0.0
0.0,0.0,0.0,0.0
0.0,0.0,0.0,0.0
0.0,0.0,0.0,0.0
0.0,0.0,0.0,0.0
84.812,0.967,6.82,31.0
0.0,0.0,0.0,0.0
0.0,0.0,0.0,0.0
0.0,0.0,0.0,0.0
0.0,0.0,0.0,0.0
0.0,0.0,0.0,0.0
0.0,0.0,0.0,0.0
84.795,1.064,6.494,39.0
84.821,1.08,6.044,34.0
0.0,0.0,0.0,0.0
0.0,0.0,0.0,0.0
0.0,0.0,0.0,0.0
0.0,0.0,0.0,0.0
0.0,0.0,0.0,0.0
84.81,1.165,6.164,12.0
0.0,0.0,0.0,0.0
0.0,0.0,0.0,0.0
0.0,0.0,0.0,0.0
0.0,0.0,0.0,0.0
0.0,0.0,0.0,0.0
0.0,0.0,0.0,0.0
0.0,0.0,0.0,0.0
0.0,0.0,0.0,0.0
0.0,0.0,0.0,0.0
0.0,0.0,0.0,0.0
0.0,0.0,0.0,0.0
0.0,0.0,0.0,0.0
0.0,0.0,0.0,0.0
0.0,0.0,0.0,0.0
55.156,0.897,5.128,0.0
55.201,0.909,4.831,1.0
55.241,0.92,4.538,15.0
55.224,0.931,4.241,30.0
55.244,0.937,5.806,36.0
55.234,0.947,5.507,62.0
55.213,0.957,5.207,72.0
55.208,0.968,4.904,74.0
55.21,0.979,4.607,73.0
55.206,0.99,4.311,64.0
55.234,0.996,5.877,55.0
55.23,1.007,5.578,28.0
55.22,1.018,5.279,10.0
55.173,1.028,4.971,2.0
55.039,1.036,4.663,0.0
0.0,0.0,0.0,0.0
0.0,0.0,0.0,0.0
0.0,0.0,0.0,0.0
0.0,0.0,0.0,0.0
0.0,0.0,0.0,0.0
0.0,0.0,0.0,0.0
0.0,0.0,0.0,0.0
0.0,0.0,0.0,0.0
0.0,0.0,0.0,0.0
0.0,0.0,0.0,0.0
0.0,0.0,0.0,0.0
0.0,0.0,0.0,0.0
0.0,0.0,0.0,0.0
0.0,0.0,0.0,0.0
0.0,0.0,0.0,0.0
0.0,0.0,0.0,0.0
0.0,0.0,0.0,0.0
0.0,0.0,0.0,0.0
0.0,0.0,0.0,0.0
0.0,0.0,0.0,0.0
0.0,0.0,0.0,0.0
0.0,0.0,0.0,0.0
0.0,0.0,0.0,0.0
0.0,0.0,0.0,0.0
0.0,0.0,0.0,0.0
0.0,0.0,0.0,0.0
0.0,0.0,0.0,0.0
0.0,0.0,0.0,0.0
0.0,0.0,0.0,0.0
0.0,0.0,0.0,0.0
0.0,0.0,0.0,0.0
0.0,0.0,0.0,0.0
0.0,0.0,0.0,0.0
0.0,0.0,0.0,0.0
0.0,0.0,0.0,0.0
0.0,0.0,0.0,0.0
0.0,0.0,0.0,0.0
0.0,0.0,0.0,0.0
0.0,0.0,0.0,0.0
0.0,0.0,0.0,0.0
0.0,0.0,0.0,0.0
0.0,0.0,0.0,0.0
0.0,0.0,0.0,0.0
0.0,0.0,0.0,0.0
0.0,0.0,0.0,0.0
0.0,0.0,0.0,0.0
0.0,0.0,0.0,0.0
0.0,0.0,0.0,0.0
0.0,0.0,0.0,0.0
0.0,0.0,0.0,0.0
0.0,0.0,0.0,0.0
0.0,0.0,0.0,0.0
0.0,0.0,0.0,0.0
0.0,0.0,0.0,0.0
0.0,0.0,0.0,0.0
0.0,0.0,0.0,0.0
0.0,0.0,0.0,0.0
0.0,0.0,0.0,0.0
0.0,0.0,0.0,0.0
0.0,0.0,0.0,0.0
0.0,0.0,0.0,0.0
0.0,0.0,0.0,0.0
0.0,0.0,0.0,0.0
0.0,0.0,0.0,0.0
0.0,0.0,0.0,0.0
0.0,0.0,0.0,0.0
0.0,0.0,0.0,0.0
0.0,0.0,0.0,0.0
0.0,0.0,0.0,0.0
0.0,0.0,0.0,0.0
0.0,0.0,0.0,0.0
0.0,0.0,0.0,0.0
0.0,0.0,0.0,0.0
0.0,0.0,0.0,0.0
0.0,0.0,0.0,0.0
0.0,0.0,0.0,0.0
0.0,0.0,0.0,0.0
0.0,0.0,0.0,0.0
0.0,0.0,0.0,0.0
0.0,0.0,0.0,0.0
0.0,0.0,0.0,0.0
0.0,0.0,0.0,0.0
0.0,0.0,0.0,0.0
0.0,0.0,0.0,0.0
0.0,0.0,0.0,0.0
0.0,0.0,0.0,0.0
0.0,0.0,0.0,0.0
0.0,0.0,0.0,0.0
0.0,0.0,0.0,0.0
0.0,0.0,0.0,0.0
0.0,0.0,0.0,0.0
0.0,0.0,0.0,0.0
0.0,0.0,0.0,0.0
0.0,0.0,0.0,0.0
0.0,0.0,0.0,0.0
0.0,0.0,0.0,0.0
0.0,0.0,0.0,0.0
0.0,0.0,0.0,0.0
0.0,0.0,0.0,0.0
0.0,0.0,0.0,0.0
0.0,0.0,0.0,0.0
0.0,0.0,0.0,0.0
0.0,0.0,0.0,0.0
0.0,0.0,0.0,0.0
0.0,0.0,0.0,0.0
0.0,0.0,0.0,0.0
0.0,0.0,0.0,0.0
0.0,0.0,0.0,0.0
0.0,0.0,0.0,0.0
0.0,0.0,0.0,0.0
0.0,0.0,0.0,0.0
0.0,0.0,0.0,0.0
0.0,0.0,0.0,0.0
23.543,0.989,2.372,0.0
23.501,0.992,2.237,0.0
23.536,1.001,2.909,0.0
23.561,1.006,2.78,1.0
23.55,1.011,2.647,18.0
23.537,1.014,2.512,26.0
23.562,1.02,2.383,37.0
23.559,1.025,2.252,41.0
23.554,1.032,2.92,38.0
23.544,1.036,2.787,40.0
23.531,1.04,2.654,47.0
23.529,1.044,2.519,57.0
23.526,1.048,2.388,70.0
23.534,1.053,2.258,72.0
23.522,1.061,2.924,72.0
23.514,1.065,2.791,69.0
23.51,1.069,2.659,65.0
23.52,1.074,2.526,69.0
23.53,1.079,2.396,72.0
23.531,1.083,2.265,71.0
23.512,1.09,2.93,64.0
23.522,1.095,2.799,55.0
23.528,1.1,2.668,49.0
23.539,1.104,2.535,47.0
23.543,1.109,2.404,47.0
23.553,1.114,2.273,45.0
23.555,1.122,2.942,40.0
23.526,1.125,2.806,23.0
23.527,1.13,2.673,15.0
23.533,1.134,2.54,10.0
23.549,1.139,2.409,4.0
23.55,1.143,2.278,1.0
0.0,0.0,0.0,0.0
0.0,0.0,0.0,0.0
0.0,0.0,0.0,0.0
0.0,0.0,0.0,0.0
0.0,0.0,0.0,0.0
0.0,0.0,0.0,0.0
0.0,0.0,0.0,0.0
0.0,0.0,0.0,0.0
0.0,0.0,0.0,0.0
0.0,0.0,0.0,0.0
0.0,0.0,0.0,0.0
0.0,0.0,0.0,0.0
0.0,0.0,0.0,0.0
0.0,0.0,0.0,0.0
0.0,0.0,0.0,0.0
0.0,0.0,0.0,0.0
0.0,0.0,0.0,0.0
0.0,0.0,0.0,0.0
0.0,0.0,0.0,0.0
0.0,0.0,0.0,0.0
0.0,0.0,0.0,0.0
0.0,0.0,0.0,0.0
0.0,0.0,0.0,0.0
0.0,0.0,0.0,0.0
0.0,0.0,0.0,0.0
0.0,0.0,0.0,0.0
0.0,0.0,0.0,0.0
0.0,0.0,0.0,0.0
0.0,0.0,0.0,0.0
0.0,0.0,0.0,0.0
0.0,0.0,0.0,0.0
0.0,0.0,0.0,0.0
0.0,0.0,0.0,0.0
0.0,0.0,0.0,0.0
0.0,0.0,0.0,0.0
0.0,0.0,0.0,0.0
0.0,0.0,0.0,0.0
0.0,0.0,0.0,0.0
0.0,0.0,0.0,0.0
0.0,0.0,0.0,0.0
0.0,0.0,0.0,0.0
0.0,0.0,0.0,0.0
0.0,0.0,0.0,0.0
0.0,0.0,0.0,0.0
0.0,0.0,0.0,0.0
0.0,0.0,0.0,0.0
0.0,0.0,0.0,0.0
0.0,0.0,0.0,0.0
0.0,0.0,0.0,0.0
0.0,0.0,0.0,0.0
0.0,0.0,0.0,0.0
0.0,0.0,0.0,0.0
0.0,0.0,0.0,0.0
0.0,0.0,0.0,0.0
0.0,0.0,0.0,0.0
0.0,0.0,0.0,0.0
0.0,0.0,0.0,0.0
0.0,0.0,0.0,0.0
0.0,0.0,0.0,0.0
0.0,0.0,0.0,0.0
0.0,0.0,0.0,0.0
0.0,0.0,0.0,0.0
0.0,0.0,0.0,0.0
0.0,0.0,0.0,0.0
0.0,0.0,0.0,0.0
0.0,0.0,0.0,0.0
0.0,0.0,0.0,0.0
0.0,0.0,0.0,0.0
0.0,0.0,0.0,0.0
0.0,0.0,0.0,0.0
0.0,0.0,0.0,0.0
100.745,6.337,9.657,2.0
99.893,6.326,12.398,23.0
99.906,6.34,11.827,28.0
99.893,6.351,11.255,26.0
99.885,6.364,10.675,32.0
99.89,6.378,10.107,30.0
99.915,6.393,9.542,31.0
99.887,6.435,12.36,37.0
99.894,6.448,11.788,31.0
99.885,6.46,11.216,37.0
99.91,6.475,10.638,35.0
99.912,6.488,10.07,36.0
99.913,6.502,9.502,37.0
99.87,6.542,12.316,33.0
99.883,6.555,11.745,31.0
99.885,6.568,11.173,33.0
99.901,6.58,10.595,36.0
99.914,6.594,10.026,35.0
99.912,6.607,9.458,36.0
99.879,6.647,12.273,33.0
99.894,6.661,11.7,31.0
99.909,6.673,11.13,33.0
99.891,6.683,10.547,33.0
99.926,6.698,9.98,34.0
99.901,6.71,9.408,36.0
99.889,6.752,12.224,34.0
99.89,6.763,11.65,33.0
99.894,6.775,11.077,34.0
99.88,6.785,10.494,38.0
99.898,6.798,9.925,35.0
99.919,6.812,9.358,36.0
99.865,6.852,12.166,33.0
99.895,6.865,11.596,34.0
99.91,6.876,11.024,36.0
99.895,6.887,10.44,36.0
99.899,6.897,9.87,35.0
99.926,6.911,9.302,37.0
99.884,6.952,12.111,34.0
99.888,6.962,11.537,34.0
99.898,6.973,10.964,37.0
99.883,6.982,10.38,36.0
99.916,6.995,9.812,37.0
99.913,7.006,9.241,35.0
99.895,7.048,12.051,35.0
99.891,7.058,11.475,35.0
99.89,7.067,10.9,35.0
99.893,7.078,10.317,34.0
99.908,7.088,9.748,35.0
99.929,7.1,9.179,35.0
99.896,7.142,11.985,35.0
99.902,7.15,11.411,36.0
99.906,7.161,10.836,37.0
99.904,7.169,10.252,34.0
99.905,7.179,9.68,38.0
99.927,7.191,9.111,36.0
99.862,7.23,11.912,20.0
99.905,7.24,11.341,20.0
99.898,7.249,10.765,19.0
99.92,7.259,10.183,21.0
99.921,7.269,9.611,17.0
99.889,7.276,9.036,15.0
98.978,7.253,11.734,4.0
99.072,7.267,11.173,3.0
99.024,7.272,10.597,4.0
99.025,7.28,10.018,3.0
99.064,7.291,9.454,4.0
99.073,7.301,8.888,4.0
98.973,7.335,11.658,16.0
98.993,7.345,11.088,16.0
99.02,7.355,10.52,16.0
98.998,7.36,9.938,16.0
99.018,7.37,9.372,19.0
99.014,7.378,8.804,17.0
98.977,7.418,11.578,38.0
98.996,7.425,11.008,40.0
98.992,7.433,10.436,52.0
99.003,7.44,9.858,54.0
98.999,7.448,9.289,48.0
99.018,7.457,8.723,49.0
98.991,7.496,11.496,7.0
99.0,7.503,10.925,91.0
98.977,7.508,10.351,8.0
98.973,7.516,9.77,11.0
99.0,7.524,9.204,8.0
99.054,7.535,8.642,9.0
94.857,7.256,10.932,2.0
94.82,7.259,10.38,2.0
94.906,7.271,9.841,4.0
94.882,7.275,9.282,2.0
94.986,7.29,8.746,2.0
94.887,7.288,8.193,2.0
94.816,7.322,10.841,7.0
94.82,7.327,10.293,7.0
94.881,7.337,9.751,10.0
94.797,7.336,9.186,8.0
94.889,7.349,8.649,8.0
94.891,7.356,8.105,7.0
94.801,7.387,10.749,26.0
94.824,7.393,10.203,23.0
94.833,7.398,9.656,29.0
94.823,7.402,9.099,29.0
94.842,7.409,8.555,25.0
94.831,7.414,8.009,26.0
94.805,7.45,10.657,40.0
94.792,7.453,10.106,44.0
94.806,7.457,9.56,43.0
94.824,7.463,9.005,46.0
94.843,7.47,8.461,47.0
94.825,7.473,7.915,48.0
94.811,7.509,10.562,14.0
94.804,7.513,10.011,13.0
94.845,7.519,9.468,13.0
94.816,7.52,8.909,13.0
94.845,7.527,8.364,13.0
94.839,7.531,7.819,14.0
94.792,7.563,10.461,4.0
94.803,7.567,9.913,5.0
94.806,7.571,9.365,5.0
94.944,7.585,8.821,5.0
94.868,7.582,8.268,6.0
94.845,7.586,7.719,5.0
95.11,7.642,10.395,1.0
94.749,7.614,9.807,2.0
94.947,7.634,9.277,2.0
94.985,7.64,8.722,2.0
94.942,7.639,8.172,3.0
94.911,7.641,7.622,3.0
98.73,7.984,10.682,7.0
98.704,7.983,10.107,5.0
98.631,7.98,9.529,4.0
98.314,7.957,8.92,3.0
98.333,7.961,8.355,2.0
98.514,7.979,7.803,1.0
97.788,7.955,10.47,8.0
97.861,7.962,9.909,8.0
97.882,7.966,9.345,9.0
98.118,7.987,8.791,8.0
98.348,8.008,8.245,9.0
98.444,8.018,7.686,9.0
97.396,7.967,10.315,10.0
97.611,7.985,9.771,10.0
97.729,7.995,9.218,10.0
98.006,8.02,8.667,10.0
98.092,8.029,8.109,10.0
97.929,8.017,7.532,8.0
97.309,7.999,10.19,9.0
97.392,8.007,9.634,9.0
97.452,8.013,9.074,9.0
97.294,8.0,8.488,9.0
97.192,7.992,7.919,10.0
40.073,3.296,3.034,27.0
96.546,7.972,9.994,8.0
96.488,7.967,9.428,9.0
96.63,7.979,8.883,9.0
96.7,7.985,8.32,11.0
96.939,8.006,7.781,10.0
40.066,3.309,2.985,72.0
96.151,7.971,9.835,8.0
96.35,7.987,9.296,11.0
96.55,8.003,8.756,10.0
96.837,8.026,8.212,10.0
96.953,8.036,7.662,10.0
40.087,3.323,2.937,90.0
96.37,8.018,9.736,5.0
96.445,8.022,9.184,7.0
96.534,8.029,8.633,8.0
96.585,8.032,8.07,9.0
96.556,8.029,7.509,7.0
40.085,3.333,2.886,80.0
96.473,8.05,9.623,1.0
96.474,8.048,9.064,1.0
96.164,8.021,8.477,2.0
96.106,8.014,7.906,4.0
40.097,3.344,3.066,6.0
40.075,3.341,2.834,87.0
87.055,7.282,8.57,1.0
87.168,7.289,8.075,1.0
87.28,7.298,7.579,1.0
96.074,8.031,7.778,2.0
40.064,3.348,3.012,53.0
40.078,3.349,2.782,106.0
87.181,7.308,8.467,2.0
87.267,7.312,7.968,1.0
87.176,7.303,7.455,1.0
0.0,0.0,0.0,0.0
40.062,3.354,2.959,74.0
40.076,3.355,2.729,150.0
87.113,7.313,8.344,3.0
87.097,7.309,7.837,2.0
87.095,7.306,7.332,1.0
87.12,7.306,6.821,2.0
40.056,3.358,2.905,70.0
40.075,3.358,2.675,150.0
87.086,7.319,8.223,4.0
87.117,7.318,7.721,3.0
87.144,7.316,7.218,2.0
40.067,3.363,3.082,1.0
40.052,3.36,2.85,73.0
40.082,3.361,2.621,106.0
87.075,7.321,8.102,4.0
87.122,7.322,7.6,2.0
87.239,7.328,7.105,1.0
40.056,3.363,3.027,39.0
40.093,3.364,2.798,95.0
40.079,3.362,2.566,122.0
87.116,7.326,7.984,3.0
87.102,7.32,7.477,3.0
87.178,7.322,6.979,3.0
40.049,3.362,2.97,71.0
40.086,3.363,2.741,147.0
40.08,3.361,2.51,116.0
87.131,7.323,7.862,3.0
87.128,7.319,7.357,2.0
87.165,7.317,6.855,2.0
40.048,3.359,2.914,72.0
40.075,3.36,2.684,150.0
40.078,3.358,2.454,113.0
87.122,7.315,7.738,1.0
87.022,7.301,7.224,2.0
87.087,7.302,6.726,3.0
40.054,3.356,2.857,76.0
40.069,3.355,2.627,111.0
40.079,3.354,2.397,115.0
87.133,7.306,7.614,1.0
87.194,7.304,7.114,1.0
40.048,3.352,3.035,32.0
40.075,3.352,2.801,103.0
40.079,3.35,2.57,117.0
40.075,3.348,2.339,114.0
96.411,8.068,8.284,1.0
96.443,8.063,7.728,2.0
40.069,3.347,2.979,78.0
40.079,3.345,2.744,150.0
40.081,3.343,2.512,131.0
40.081,3.34,2.281,106.0
96.466,8.051,8.148,5.0
96.491,8.046,7.591,6.0
40.076,3.338,2.921,80.0
40.076,3.335,2.685,147.0
40.079,3.333,2.454,115.0
40.093,3.332,2.224,103.0
96.225,8.008,7.987,8.0
96.407,8.014,7.443,8.0
40.063,3.327,2.861,79.0
40.078,3.325,2.627,107.0
40.082,3.323,2.396,114.0
40.085,3.32,2.165,108.0
96.505,8.002,7.868,9.0
40.064,3.318,3.034,43.0
40.088,3.317,2.804,107.0
40.087,3.313,2.568,125.0
40.082,3.309,2.336,122.0
40.085,3.307,2.105,121.0
97.271,8.032,7.784,11.0
40.096,3.307,2.976,88.0
40.078,3.302,2.743,150.0
40.074,3.298,2.508,131.0
40.078,3.295,2.277,115.0
40.089,3.292,2.046,124.0
97.849,8.043,7.684,12.0
40.069,3.289,2.915,81.0
40.084,3.286,2.684,119.0
40.074,3.282,2.448,129.0
40.087,3.279,2.217,118.0
40.089,3.276,1.986,113.0
40.093,3.278,3.088,3.0
40.067,3.272,2.854,81.0
40.081,3.268,2.623,102.0
40.082,3.264,2.388,116.0
40.085,3.261,2.157,117.0
40.086,3.257,1.926,103.0
40.077,3.257,3.026,72.0
40.091,3.254,2.795,108.0
40.083,3.249,2.563,116.0
40.088,3.246,2.328,115.0
40.079,3.241,2.096,106.0
40.092,3.238,1.866,89.0
40.084,3.237,2.966,106.0
40.081,3.232,2.734,149.0
40.095,3.229,2.503,107.0
40.059,3.221,2.265,40.0
40.084,3.22,2.036,7.0
0.0,0.0,0.0,0.0
40.07,3.214,2.904,39.0
40.13,3.213,2.676,24.0
0.0,0.0,0.0,0.0
0.0,0.0,0.0,0.0
41.862,3.338,2.063,76.0
41.884,3.335,1.823,145.0
40.136,3.195,2.848,44.0
40.171,3.192,2.618,150.0
41.883,3.323,2.488,103.0
41.881,3.318,2.242,120.0
41.87,3.312,2.0,76.0
41.885,3.309,1.76,147.0
40.165,3.171,2.789,150.0
41.027,3.234,2.611,122.0
41.886,3.296,2.424,124.0
41.876,3.29,2.178,123.0
41.878,3.285,1.937,107.0
41.882,3.28,1.697,138.0
40.167,3.143,2.728,150.0
41.886,3.272,2.603,122.0
41.877,3.266,2.36,106.0
41.885,3.26,2.115,113.0
41.886,3.255,1.874,123.0
41.884,3.25,1.633,102.0
40.174,3.114,2.667,143.0
41.887,3.241,2.539,105.0
41.861,3.233,2.296,28.0
43.633,3.364,2.138,3.0
0.0,0.0,0.0,0.0
43.687,3.356,1.637,119.0
40.154,3.081,2.605,91.0
0.0,0.0,0.0,0.0
43.678,3.339,2.33,121.0
43.67,3.332,2.074,134.0
43.674,3.327,1.823,150.0
43.686,3.322,1.572,150.0
41.968,3.187,2.66,95.0
43.677,3.31,2.516,140.0
43.68,3.304,2.265,128.0
43.677,3.297,2.009,141.0
43.68,3.291,1.758,150.0
43.683,3.284,1.507,145.0
0.0,0.0,0.0,0.0
43.674,3.272,2.45,111.0
43.679,3.265,2.199,118.0
43.684,3.259,1.944,124.0
43.685,3.253,1.693,108.0
43.662,3.244,1.442,28.0
43.664,3.239,2.637,61.0
43.672,3.232,2.385,7.0
0.0,0.0,0.0,0.0
45.463,3.35,1.956,126.0
45.47,3.344,1.695,143.0
45.47,3.337,1.434,150.0
45.454,3.329,2.677,150.0
45.459,3.321,2.415,150.0
45.461,3.314,2.154,150.0
45.462,3.307,1.889,150.0
45.471,3.3,1.628,150.0
45.473,3.293,1.367,24.0
45.452,3.284,2.611,150.0
45.454,3.276,2.349,150.0
45.459,3.269,2.088,142.0
45.444,3.261,1.822,67.0
45.456,3.254,1.561,7.0
41.268,2.947,1.18,66.0
45.453,3.237,2.543,4.0
99.971,7.104,5.02,25.0
99.972,7.086,4.446,30.0
99.96,7.068,3.861,39.0
99.967,7.052,3.288,38.0
41.973,2.953,1.139,103.0
99.937,7.012,5.447,35.0
99.978,6.996,4.874,31.0
99.947,6.976,4.298,31.0
99.964,6.959,3.714,38.0
99.97,6.942,3.142,33.0
42.728,2.96,1.098,80.0
99.947,6.903,5.302,34.0
99.975,6.886,4.729,34.0
99.962,6.865,4.154,37.0
99.967,6.847,3.572,38.0
43.405,2.965,1.301,11.0
43.551,2.967,1.057,75.0
99.931,6.788,5.159,32.0
99.966,6.77,4.586,33.0
99.953,6.75,4.011,33.0
99.939,6.731,3.429,39.0
44.123,2.963,1.261,43.0
44.389,2.973,1.014,81.0
99.952,6.67,5.018,35.0
99.944,6.651,4.444,40.0
99.955,6.632,3.871,35.0
99.959,6.612,3.288,39.0
45.127,2.977,1.226,90.0
45.194,2.972,0.969,119.0
108.926,-10.968,5.537,15.0
110.488,-11.139,5.029,20.0
111.181,-11.222,4.471,22.0
108.913,-11.008,3.79,23.0
116.336,-11.774,3.433,22.0
116.376,-11.793,2.818,15.0
108.81,-11.038,5.672,24.0
109.015,-11.072,5.104,22.0
111.063,-11.292,4.61,18.0
108.786,-11.074,3.928,12.0
148.346,-15.119,4.569,20.0
116.351,-11.873,2.967,36.0
108.452,-11.079,5.796,23.0
108.9,-11.136,5.241,22.0
110.531,-11.315,4.733,9.0
149.51,-15.321,5.593,18.0
108.838,-11.166,3.495,13.0
116.359,-11.951,3.119,50.0
108.138,-11.118,5.92,18.0
109.208,-11.239,5.398,13.0
109.197,-11.249,4.817,18.0
149.308,-15.395,5.781,28.0
108.855,-11.235,3.636,19.0
116.353,-12.022,3.269,36.0
107.071,-11.075,6.001,10.0
110.396,-11.428,5.599,14.0
109.366,-11.331,4.967,19.0
149.359,-15.488,5.975,14.0
108.759,-11.289,3.774,22.0
116.303,-12.082,3.42,22.0
49.535,-5.152,2.841,5.0
108.035,-11.245,5.62,16.0
110.682,-11.528,5.171,7.0
111.388,-11.611,4.601,7.0
108.784,-11.349,3.916,9.0
148.331,-15.488,4.554,18.0
49.501,-5.175,2.904,19.0
108.109,-11.309,5.768,19.0
113.731,-11.905,5.462,8.0
109.499,-11.469,4.666,17.0
148.933,-15.612,5.557,24.0
148.303,-15.558,4.748,17.0
49.441,-5.192,2.965,13.0
108.916,-11.445,5.954,21.0
110.458,-11.614,5.451,7.0
110.529,-11.629,4.857,20.0
148.94,-15.68,5.754,28.0
108.761,-11.457,3.625,21.0
49.458,-5.216,3.032,3.0
108.8,-11.481,6.092,21.0
107.969,-11.398,5.471,19.0
110.697,-11.692,5.009,18.0
148.92,-15.738,5.948,17.0
108.719,-11.495,3.765,22.0
48.623,-5.148,3.045,4.0
49.567,-5.249,2.84,11.0
107.996,-11.441,5.612,18.0
110.627,-11.725,5.149,12.0
111.33,-11.804,4.59,19.0
148.296,-15.731,5.328,19.0
48.675,-5.17,3.111,16.0
49.508,-5.26,2.901,18.0
109.01,-11.585,5.807,17.0
107.782,-11.458,5.157,21.0
110.985,-11.802,4.72,21.0
148.578,-15.806,5.531,27.0
48.583,-5.175,3.168,35.0
49.451,-5.268,2.961,14.0
109.229,-11.64,5.959,21.0
107.903,-11.5,5.301,19.0
110.858,-11.818,4.857,21.0
148.488,-15.835,5.718,20.0
48.572,-5.187,3.23,41.0
107.312,-11.46,6.565,18.0
108.878,-11.629,6.079,17.0
107.879,-11.524,5.438,22.0
110.672,-11.823,4.992,22.0
111.566,-11.921,4.438,17.0
48.61,-5.201,3.296,32.0
107.053,-11.455,6.687,21.0
49.472,-5.293,2.826,4.0
107.889,-11.544,5.577,18.0
110.575,-11.833,5.128,9.0
111.071,-11.887,4.56,21.0
48.943,-5.245,3.381,23.0
48.624,-5.21,3.099,16.0
49.422,-5.295,2.887,10.0
109.145,-11.695,5.782,13.0
107.826,-11.553,5.137,19.0
110.863,-11.879,4.691,18.0
49.289,-5.289,3.468,21.0
48.594,-5.213,3.159,29.0
107.424,-11.523,6.41,18.0
109.173,-11.709,5.92,18.0
108.023,-11.583,5.283,17.0
110.952,-11.897,4.835,17.0
49.269,-5.291,3.528,36.0
48.594,-5.216,3.22,38.0
107.363,-11.523,6.542,21.0
108.927,-11.688,6.044,19.0
107.95,-11.581,5.414,21.0
110.666,-11.87,4.959,20.0
49.226,-5.288,3.588,41.0
48.599,-5.218,3.281,40.0
107.12,-11.499,6.66,21.0
108.741,-11.669,6.169,16.0
107.889,-11.574,5.545,18.0
110.605,-11.863,5.094,9.0
49.237,-5.289,3.649,28.0
48.788,-5.238,3.355,23.0
48.632,-5.219,3.084,13.0
49.41,-5.3,2.864,10.0
108.816,-11.669,5.725,16.0
107.801,-11.556,5.098,18.0
49.066,-5.268,3.698,23.0
49.262,-5.286,3.448,23.0
48.606,-5.213,3.142,26.0
49.411,-5.296,2.924,4.0
109.202,-11.701,5.88,19.0
107.854,-11.552,5.231,18.0
48.726,-5.227,3.732,19.0
49.286,-5.284,3.509,34.0
48.562,-5.203,3.198,40.0
107.362,-11.496,6.485,20.0
109.047,-11.669,6.003,19.0
107.889,-11.54,5.363,19.0
48.593,-5.206,3.78,33.0
49.249,-5.272,3.567,41.0
48.586,-5.197,3.258,37.0
107.207,-11.461,6.603,22.0
108.759,-11.62,6.117,14.0
107.941,-11.526,5.493,20.0
48.537,-5.191,3.834,36.0
49.255,-5.263,3.626,27.0
48.641,-5.194,3.319,14.0
107.04,-11.42,6.72,19.0
49.528,-5.28,2.844,9.0
108.163,-11.524,5.632,14.0
48.552,-5.182,3.892,16.0
49.199,-5.246,3.68,21.0
49.265,-5.248,3.419,15.0
48.632,-5.176,3.109,20.0
49.485,-5.263,2.898,19.0
109.063,-11.591,5.802,16.0
48.563,-5.17,3.949,4.0
48.916,-5.202,3.714,14.0
49.286,-5.236,3.476,30.0
48.632,-5.162,3.164,21.0
49.45,-5.244,2.952,18.0
108.948,-11.544,5.92,27.0
40.996,-4.351,3.38,10.0
48.708,-5.165,3.753,19.0
49.312,-5.223,3.534,27.0
48.65,-5.148,3.219,16.0
49.454,-5.228,3.007,6.0
108.839,-11.495,6.032,21.0
40.467,-4.281,3.381,29.0
48.569,-5.132,3.796,21.0
49.271,-5.2,3.586,17.0
48.598,-5.123,3.27,13.0
48.585,-5.117,3.008,5.0
49.545,-5.213,2.8,9.0
40.326,-4.25,3.415,40.0
48.608,-5.117,3.853,17.0
49.079,-5.16,3.625,19.0
48.624,-5.106,3.324,14.0
48.573,-5.095,3.058,18.0
49.499,-5.186,2.85,17.0
40.328,-4.232,3.458,42.0
48.658,-5.1,3.908,13.0
49.012,-5.131,3.672,23.0
49.42,-5.167,3.43,5.0
48.595,-5.074,3.111,30.0
49.523,-5.165,2.903,14.0
40.341,-4.215,3.501,40.0
40.458,-4.221,3.292,10.0
48.817,-5.086,3.707,21.0
49.367,-5.137,3.477,25.0
48.618,-5.052,3.162,38.0
107.664,-11.174,6.421,19.0
40.469,-4.207,3.554,30.0
45.721,-4.746,3.766,4.0
48.73,-5.051,3.75,19.0
49.386,-5.112,3.528,26.0
48.647,-5.029,3.212,23.0
107.558,-11.104,6.521,20.0
45.937,-4.75,4.08,7.0
40.369,-4.168,3.365,29.0
48.283,-4.978,3.763,22.0
49.509,-5.096,3.585,23.0
48.624,-4.998,3.257,5.0
107.554,-11.04,6.624,16.0
45.907,-4.72,4.121,13.0
40.327,-4.14,3.4,41.0
47.985,-4.918,3.785,20.0
49.475,-5.062,3.63,23.0
107.659,-10.999,7.315,20.0
48.701,-4.968,3.045,4.0
45.963,-4.696,4.17,12.0
40.361,-4.117,3.441,35.0
47.983,-4.887,3.83,15.0
49.523,-5.035,3.679,31.0
49.516,-5.026,3.41,12.0
48.734,-4.939,3.092,3.0
47.797,-4.852,4.38,29.0
40.447,-4.098,3.486,38.0
45.745,-4.627,3.693,12.0
0.0,0.0,0.0,0.0
49.645,-5.004,3.463,14.0
108.242,-10.892,6.964,15.0
47.772,-4.816,4.42,36.0
40.452,-4.07,3.522,17.0
45.693,-4.589,3.729,20.0
48.029,-4.814,3.653,22.0
49.602,-4.963,3.503,12.0
108.318,-10.819,7.062,15.0
47.865,-4.789,4.47,16.0
45.9,-4.584,4.036,15.0
40.534,-4.04,3.342,26.0
48.038,-4.779,3.694,30.0
49.643,-4.929,3.547,20.0
108.148,-10.719,7.139,20.0
48.149,-4.78,4.537,17.0
45.901,-4.548,4.074,34.0
45.765,-4.525,3.811,5.0
48.065,-4.743,3.735,4.0
49.751,-4.9,3.595,7.0
108.103,-10.626,7.222,19.0
39.469,-3.886,3.751,36.0
45.963,-4.516,4.116,25.0
40.42,-3.963,3.398,20.0
106.959,-10.465,8.396,8.0
49.804,-4.863,3.637,14.0
106.758,-10.404,7.214,6.0
39.316,-3.838,3.766,37.0
45.988,-4.479,4.153,25.0
47.689,-4.635,4.045,10.0
107.495,-10.425,8.518,19.0
106.745,-10.33,7.875,17.0
0.0,0.0,0.0,0.0
39.297,-3.801,3.793,39.0
0.0,0.0,0.0,0.0
47.922,-4.614,4.099,9.0
106.16,-10.2,8.488,13.0
107.152,-10.272,7.98,15.0
107.579,-10.292,7.423,19.0
39.282,-3.764,3.819,40.0
0.0,0.0,0.0,0.0
48.161,-4.593,4.153,22.0
108.203,-10.296,8.724,18.0
106.519,-10.112,8.005,11.0
107.294,-10.162,7.476,15.0
39.267,-3.725,3.844,37.0
47.557,-4.5,4.394,12.0
48.443,-4.573,4.208,22.0
48.301,-4.549,3.925,3.0
106.226,-9.982,8.05,18.0
107.334,-10.063,7.545,14.0
39.305,-3.69,3.873,30.0
47.474,-4.446,4.415,7.0
48.499,-4.53,4.244,22.0
48.225,-4.494,3.949,20.0
106.091,-9.863,8.104,14.0
106.658,-9.891,7.563,10.0
39.331,-3.653,3.899,24.0
39.317,-3.642,3.68,10.0
47.993,-4.434,4.227,22.0
48.349,-4.456,3.987,4.0
106.001,-9.745,8.157,10.0
106.58,-9.774,7.616,10.0
39.323,-3.611,3.921,20.0
45.606,-4.177,4.294,13.0
47.56,-4.345,4.215,35.0
48.358,-4.406,4.013,4.0
108.691,-9.878,8.422,17.0
106.509,-9.656,7.666,13.0
39.268,-3.565,3.935,10.0
49.299,-4.463,4.667,14.0
47.466,-4.285,4.231,23.0
48.352,-4.353,4.037,20.0
108.516,-9.744,8.462,13.0
106.571,-9.544,7.723,16.0
39.311,-3.525,3.959,28.0
39.226,-3.508,3.732,13.0
47.42,-4.229,4.249,34.0
48.341,-4.299,4.059,22.0
111.477,-9.886,8.744,19.0
109.001,-9.64,7.949,4.0
48.678,-4.311,4.925,21.0
39.297,-3.47,3.757,22.0
47.439,-4.177,4.271,33.0
106.398,-9.341,8.98,10.0
0.0,0.0,0.0,0.0
109.636,-9.572,8.039,18.0
48.759,-4.262,4.953,5.0
49.244,-4.291,4.728,14.0
47.414,-4.12,4.288,42.0
106.399,-9.218,9.022,20.0
109.804,-9.485,8.701,18.0
111.575,-9.611,8.223,6.0
48.774,-4.206,4.973,13.0
39.357,-3.384,3.793,12.0
47.454,-4.067,4.309,37.0
106.664,-9.114,9.082,21.0
106.828,-9.101,8.502,14.0
111.799,-9.496,8.278,9.0
48.77,-4.147,4.988,29.0
49.009,-4.154,4.739,8.0
47.487,-4.013,4.327,16.0
106.66,-8.985,9.114,23.0
106.868,-8.974,8.538,22.0
108.251,-9.063,8.048,7.0
48.801,-4.09,5.006,32.0
49.106,-4.102,4.762,5.0
47.465,-3.952,4.338,21.0
106.701,-8.857,9.147,23.0
106.871,-8.844,8.566,12.0
108.067,-8.914,8.062,19.0
48.951,-4.042,5.034,36.0
49.321,-4.059,4.795,3.0
47.552,-3.9,4.358,14.0
106.593,-8.716,9.162,21.0
106.825,-8.706,8.586,17.0
107.749,-8.754,8.061,19.0
49.083,-3.991,5.058,18.0
49.416,-4.004,4.815,14.0
49.439,-3.993,4.54,4.0
106.592,-8.579,9.183,21.0
107.09,-8.59,8.627,17.0
107.532,-8.597,8.063,16.0
49.304,-3.945,5.089,4.0
49.367,-3.936,4.818,22.0
106.528,-8.464,9.8,19.0
107.026,-8.475,9.235,19.0
108.769,-8.582,8.778,15.0
106.318,-8.361,7.986,15.0
49.349,-3.883,5.1,3.0
49.447,-3.877,4.832,18.0
107.086,-8.367,9.864,12.0
107.002,-8.332,9.245,21.0
107.328,-8.328,8.672,11.0
106.302,-8.221,7.995,2.0
105.979,-8.2,10.963,27.0
49.406,-3.808,4.832,13.0
107.209,-8.235,9.883,20.0
107.281,-8.21,9.276,6.0
116.695,-8.898,9.437,8.0
109.037,-8.286,8.206,6.0
107.058,-8.139,11.079,19.0
49.447,-3.745,4.838,15.0
106.995,-8.075,9.866,20.0
107.505,-8.083,9.298,17.0
104.73,-7.845,8.47,15.0
107.257,-8.006,8.073,8.0
107.443,-8.023,11.119,20.0
49.511,-3.683,4.844,16.0
107.173,-7.942,9.881,10.0
107.135,-7.91,9.264,13.0
104.619,-7.695,8.458,23.0
104.786,-7.678,7.883,26.0
106.611,-7.814,11.029,18.0
49.498,-3.614,4.84,20.0
109.35,-7.953,10.076,13.0
107.052,-7.755,9.25,21.0
104.598,-7.549,8.449,16.0
104.907,-7.543,7.884,9.0
106.486,-7.658,11.007,19.0
106.754,-7.647,10.429,14.0
108.13,-7.713,9.953,14.0
106.996,-7.603,9.233,18.0
107.007,-7.575,8.632,18.0
107.543,-7.584,8.069,10.0
106.623,-7.52,11.007,18.0
106.711,-7.495,10.411,16.0
108.097,-7.561,9.934,14.0
107.174,-7.466,9.232,23.0
106.825,-7.413,8.6,24.0
105.072,-7.262,7.867,29.0
106.696,-7.372,10.996,14.0
107.8,-7.419,10.497,16.0
106.478,-7.296,9.765,10.0
107.681,-7.348,9.256,21.0
107.213,-7.288,8.609,16.0
105.068,-7.113,7.845,21.0
106.774,-7.226,10.981,22.0
108.011,-7.28,10.494,16.0
106.386,-7.139,9.733,15.0
106.662,-7.128,9.143,17.0
107.269,-7.14,8.588,23.0
111.866,-7.415,8.325,5.0
107.804,-7.142,11.059,17.0
107.717,-7.106,10.437,24.0
106.526,-6.997,9.716,18.0
107.182,-7.01,9.158,22.0
107.642,-7.01,8.587,21.0
108.751,-7.052,8.06,19.0
107.783,-6.985,11.023,18.0
107.515,-6.937,10.384,8.0
111.136,-7.139,10.101,9.0
106.945,-6.839,9.102,17.0
107.724,-6.859,8.558,19.0
109.175,-6.922,8.055,17.0
107.992,-6.841,11.007,12.0
109.357,-6.897,10.522,7.0
109.255,-6.86,9.891,8.0
107.053,-6.691,9.072,17.0
107.756,-6.706,8.52,23.0
109.145,-6.764,8.012,12.0
108.001,-6.686,10.966,14.0
109.553,-6.75,10.498,21.0
107.392,-6.586,9.678,18.0
0.0,0.0,0.0,0.0
108.461,-6.592,8.53,18.0
108.585,-6.57,7.924,16.0
0.0,0.0,0.0,0.0
108.861,-6.548,10.383,11.0
107.285,-6.422,9.62,20.0
109.124,-6.502,9.152,13.0
108.917,-6.461,8.515,17.0
107.666,-6.357,7.806,19.0
0.0,0.0,0.0,0.0
108.944,-6.393,10.337,24.0
107.225,-6.262,9.561,13.0
108.698,-6.318,9.062,28.0
108.903,-6.301,8.459,24.0
109.358,-6.297,7.873,22.0
109.148,-6.276,10.924,6.0
109.38,-6.258,10.321,28.0
108.669,-6.187,9.632,17.0
108.474,-6.147,8.985,26.0
109.533,-6.177,8.448,10.0
110.964,-6.229,7.926,13.0
109.563,-6.138,10.904,24.0
109.192,-6.086,10.24,18.0
108.53,-6.02,9.556,28.0
108.539,-5.992,8.927,18.0
111.445,-6.122,8.529,15.0
110.997,-6.067,7.862,18.0
109.493,-5.974,10.83,4.0
109.19,-5.928,10.173,18.0
108.611,-5.867,9.496,18.0
108.852,-5.85,8.884,14.0
113.073,-6.046,8.582,17.0
108.381,-5.766,7.607,8.0
0.0,0.0,0.0,0.0
125.589,-6.633,11.616,12.0
111.659,-5.867,9.688,25.0
111.5,-5.828,9.024,26.0
109.479,-5.694,8.235,23.0
108.327,-5.607,7.53,16.0
125.929,-6.503,12.284,15.0
112.26,-5.767,10.306,26.0
111.687,-5.705,9.611,25.0
111.933,-5.689,8.979,20.0
109.536,-5.538,8.159,19.0
115.725,-5.821,7.96,7.0
126.018,-6.323,12.199,4.0
111.98,-5.589,10.196,18.0
111.783,-5.548,9.536,21.0
113.857,-5.621,9.047,15.0
112.482,-5.523,8.293,18.0
114.92,-5.613,7.815,24.0
126.712,-6.171,12.166,2.0
112.12,-5.431,10.119,11.0
116.313,-5.603,9.828,17.0
115.853,-5.551,9.113,21.0
118.555,-5.65,8.645,3.0
114.904,-5.447,7.721,19.0
126.518,-5.978,12.043,8.0
116.351,-5.467,10.404,19.0
116.592,-5.448,9.754,24.0
115.357,-5.36,8.977,22.0
115.325,-5.329,8.312,20.0
116.013,-5.332,7.696,22.0
0.0,0.0,0.0,0.0
116.471,-5.303,10.313,19.0
116.744,-5.286,9.664,28.0
114.889,-5.173,8.839,24.0
114.733,-5.136,8.167,32.0
116.366,-5.181,7.616,22.0
113.296,-5.025,10.581,6.0
124.118,-5.472,10.876,10.0
115.906,-5.081,9.488,15.0
114.852,-5.007,8.728,26.0
114.937,-4.981,8.075,20.0
114.805,-4.947,7.406,17.0
0.0,0.0,0.0,0.0
124.376,-5.307,10.78,15.0
115.396,-4.894,9.335,23.0
115.269,-4.859,8.648,24.0
114.718,-4.807,7.946,4.0
114.613,-4.776,7.28,27.0
113.476,-4.707,10.376,2.0
124.152,-5.118,10.634,27.0
115.011,-4.712,9.186,26.0
115.218,-4.693,8.526,23.0
115.707,-4.684,7.897,22.0
114.973,-4.627,7.185,20.0
113.562,-4.55,10.266,2.0
124.236,-4.947,10.512,22.0
115.296,-4.562,9.089,24.0
115.339,-4.536,8.416,23.0
115.745,-4.524,7.778,22.0
114.86,-4.463,7.057,19.0
124.579,-4.817,11.128,8.0
124.37,-4.778,10.389,17.0
115.678,-4.416,8.995,25.0
115.318,-4.376,8.289,16.0
115.874,-4.369,7.66,23.0
114.675,-4.298,6.92,22.0
0.0,0.0,0.0,0.0
115.292,-4.27,9.502,26.0
115.035,-4.233,8.816,24.0
123.173,-4.503,8.714,22.0
116.702,-4.24,7.583,22.0
114.634,-4.139,6.788,21.0
126.381,-4.537,11.002,13.0
116.074,-4.139,9.431,24.0
115.108,-4.078,8.686,23.0
124.324,-4.375,8.649,17.0
114.432,-4.0,7.301,9.0
114.379,-3.973,6.637,23.0
126.124,-4.355,10.829,18.0
116.111,-3.982,9.295,25.0
115.95,-3.949,8.609,24.0
124.299,-4.206,8.497,8.0
116.274,-3.908,7.278,16.0
0.0,0.0,0.0,0.0
116.25,-3.857,9.836,26.0
125.952,-4.149,9.926,23.0
124.948,-4.088,9.123,17.0
117.721,-3.826,7.903,23.0
114.746,-3.704,7.039,26.0
115.646,-3.707,6.426,23.0
126.144,-4.017,10.515,23.0
126.106,-3.987,9.778,22.0
140.274,-4.403,10.062,15.0
117.917,-3.675,7.762,23.0
115.6,-3.578,6.942,26.0
114.461,-3.518,6.212,21.0
140.54,-4.289,11.528,9.0
126.003,-3.817,9.603,21.0
140.583,-4.227,9.898,13.0
125.142,-3.735,8.072,19.0
115.773,-3.431,6.797,25.0
122.52,-3.605,6.486,6.0
140.467,-4.102,11.332,7.0
140.333,-4.068,10.505,15.0
125.371,-3.606,8.655,11.0
124.716,-3.561,7.874,20.0
115.829,-3.282,6.642,24.0
124.067,-3.491,6.396,11.0
126.281,-3.524,10.01,13.0
0.0,0.0,0.0,0.0
124.9,-3.432,8.449,24.0
115.872,-3.161,7.154,24.0
124.486,-3.37,6.964,11.0
117.495,-3.157,5.893,17.0
0.0,0.0,0.0,0.0
0.0,0.0,0.0,0.0
125.161,-3.282,8.288,22.0
124.563,-3.241,7.511,23.0
124.519,-3.215,6.786,20.0
123.821,-3.172,6.032,7.0
0.0,0.0,0.0,0.0
0.0,0.0,0.0,0.0
125.353,-3.132,8.117,16.0
124.363,-3.083,7.318,24.0
124.199,-3.054,6.587,11.0
140.8,-3.434,6.65,15.0
0.0,0.0,0.0,0.0
0.0,0.0,0.0,0.0
124.382,-2.955,7.866,9.0
124.074,-2.923,7.112,13.0
141.861,-3.316,7.309,8.0
140.82,-3.265,6.439,12.0
0.0,0.0,0.0,0.0
0.0,0.0,0.0,0.0
124.827,-2.817,7.703,15.0
141.575,-3.168,7.899,12.0
0.0,0.0,0.0,0.0
191.615,-4.217,8.467,18.0
0.0,0.0,0.0,0.0
0.0,0.0,0.0,0.0
125.002,-2.673,7.516,9.0
0.0,0.0,0.0,0.0
192.744,-4.051,9.329,18.0
190.309,-3.964,8.105,21.0
0.0,0.0,0.0,0.0
0.0,0.0,0.0,0.0
0.0,0.0,0.0,0.0
0.0,0.0,0.0,0.0
192.807,-3.831,9.023,8.0
190.379,-3.748,7.802,20.0
0.0,0.0,0.0,0.0
0.0,0.0,0.0,0.0
0.0,0.0,0.0,0.0
0.0,0.0,0.0,0.0
192.092,-3.604,8.677,23.0
191.633,-3.561,7.541,13.0
0.0,0.0,0.0,0.0
0.0,0.0,0.0,0.0
0.0,0.0,0.0,0.0
189.947,-3.388,9.368,10.0
189.986,-3.357,8.266,21.0
190.04,-3.325,7.163,27.0
0.0,0.0,0.0,0.0
189.977,-3.249,11.282,9.0
0.0,0.0,0.0,0.0
0.0,0.0,0.0,0.0
192.854,-3.2,8.06,20.0
191.502,-3.147,6.89,22.0
190.094,-3.08,12.072,4.0
0.0,0.0,0.0,0.0
0.0,0.0,0.0,0.0
193.344,-3.038,8.875,14.0
191.883,-2.984,7.689,20.0
162.569,-2.502,5.567,9.0
0.0,0.0,0.0,0.0
0.0,0.0,0.0,0.0
0.0,0.0,0.0,0.0
193.143,-2.838,8.525,15.0
192.128,-2.793,7.359,18.0
162.605,-2.339,5.284,53.0
0.0,0.0,0.0,0.0
0.0,0.0,0.0,0.0
0.0,0.0,0.0,0.0
193.182,-2.648,8.184,16.0
185.962,-2.52,6.793,7.0
162.666,-2.182,4.998,42.0
0.0,0.0,0.0,0.0
0.0,0.0,0.0,0.0
0.0,0.0,0.0,0.0
186.254,-2.373,7.554,19.0
185.955,-2.343,6.458,15.0
19.794,-0.246,0.572,1.0
0.0,0.0,0.0,0.0
0.0,0.0,0.0,0.0
0.0,0.0,0.0,0.0
185.86,-2.196,7.2,20.0
162.596,-1.899,5.351,43.0
19.764,-0.228,0.535,9.0
0.0,0.0,0.0,0.0
0.0,0.0,0.0,0.0
0.0,0.0,0.0,0.0
184.702,-2.019,6.817,16.0
19.751,-0.213,0.613,8.0
19.747,-0.21,0.498,11.0
0.0,0.0,0.0,0.0
0.0,0.0,0.0,0.0
0.0,0.0,0.0,0.0
19.779,-0.198,0.692,2.0
19.743,-0.195,0.576,9.0
19.759,-0.193,0.461,8.0
0.0,0.0,0.0,0.0
186.611,-1.766,8.38,5.0
183.895,-1.716,7.181,24.0
19.737,-0.181,0.653,6.0
19.746,-0.179,0.538,8.0
19.776,-0.177,0.423,4.0
0.0,0.0,0.0,0.0
184.676,-1.595,7.934,21.0
19.786,-0.168,0.734,1.0
19.737,-0.165,0.615,7.0
19.764,-0.163,0.5,5.0
177.232,-1.444,3.453,24.0
0.0,0.0,0.0,0.0
184.259,-1.445,7.555,19.0
19.766,-0.152,0.695,3.0
19.76,-0.15,0.577,5.0
19.775,-0.148,0.462,0.0
177.221,-1.308,3.109,15.0
28.108,-0.052,-0.623,0.0
24.438,-0.047,-0.684,0.0
21.427,-0.042,-0.725,0.0
19.561,-0.039,-0.779,1.0
17.471,-0.036,-0.798,0.0
15.942,-0.034,-0.821,0.0
26.221,-0.06,-0.634,0.0
23.299,-0.055,-0.7,0.0
20.367,-0.049,-0.731,0.0
18.76,-0.046,-0.785,0.0
16.894,-0.043,-0.806,0.0
15.48,-0.04,-0.829,0.0
25.31,-0.07,-0.664,0.0
22.312,-0.063,-0.715,0.0
19.746,-0.057,-0.748,2.0
18.131,-0.054,-0.795,0.0
16.511,-0.05,-0.821,0.0
15.088,-0.047,-0.839,0.0
24.264,-0.079,-0.685,0.0
21.419,-0.072,-0.729,0.0
19.477,-0.066,-0.777,1.0
17.349,-0.06,-0.795,0.0
15.831,-0.056,-0.818,0.0
14.638,-0.053,-0.842,0.0
19.762,-0.075,-0.596,1.0
19.893,-0.077,-0.716,2.0
18.74,-0.074,-0.784,0.0
16.801,-0.068,-0.803,0.0
15.443,-0.063,-0.829,0.0
14.183,-0.059,-0.844,0.0
19.756,-0.087,-0.634,5.0
19.718,-0.088,-0.748,3.0
18.099,-0.082,-0.793,0.0
16.327,-0.075,-0.812,0.0
15.047,-0.071,-0.837,0.0
13.816,-0.066,-0.849,0.0
19.761,-0.098,-0.673,10.0
19.563,-0.099,-0.78,1.0
17.463,-0.09,-0.799,0.0
15.837,-0.083,-0.818,0.0
14.594,-0.078,-0.84,0.0
13.473,-0.073,-0.854,0.0
19.742,-0.111,-0.71,16.0
18.792,-0.107,-0.786,0.0
16.96,-0.098,-0.808,0.0
15.448,-0.091,-0.828,0.0
14.195,-0.085,-0.844,0.0
13.142,-0.08,-0.858,0.0
19.717,-0.124,-0.747,7.0
18.152,-0.116,-0.793,0.0
16.404,-0.106,-0.813,0.0
15.048,-0.099,-0.835,0.0
13.846,-0.092,-0.849,0.0
12.848,-0.087,-0.864,0.0
19.55,-0.137,-0.777,2.0
17.506,-0.124,-0.798,0.0
15.875,-0.114,-0.816,0.0
14.655,-0.107,-0.841,0.0
13.484,-0.1,-0.852,0.0
12.576,-0.095,-0.869,0.0
18.905,-0.147,-0.787,0.0
16.986,-0.133,-0.806,0.0
15.523,-0.124,-0.827,0.0
14.188,-0.114,-0.84,0.0
13.198,-0.108,-0.859,0.0
12.347,-0.102,-0.876,0.0
18.241,-0.155,-0.792,0.0
16.492,-0.142,-0.812,0.0
15.086,-0.132,-0.831,0.0
13.902,-0.123,-0.849,0.0
12.906,-0.116,-0.863,0.0
12.046,-0.109,-0.876,0.0
17.583,-0.164,-0.795,0.0
15.989,-0.151,-0.817,0.0
14.754,-0.141,-0.839,0.0
13.57,-0.131,-0.853,0.0
12.616,-0.123,-0.867,0.0
11.836,-0.117,-0.882,0.0
17.094,-0.173,-0.804,0.0
15.478,-0.159,-0.818,0.0
14.33,-0.149,-0.841,0.0
13.214,-0.139,-0.854,0.0
12.37,-0.131,-0.872,0.0
11.613,-0.125,-0.886,0.0
16.653,-0.183,-0.812,0.0
15.192,-0.169,-0.829,0.0
13.958,-0.157,-0.843,0.0
12.929,-0.147,-0.858,0.0
12.104,-0.139,-0.874,0.0
11.4,-0.133,-0.89,0.0
16.159,-0.192,-0.816,0.0
14.892,-0.179,-0.838,0.0
13.688,-0.166,-0.85,0.0
12.68,-0.156,-0.863,0.0
11.935,-0.148,-0.882,0.0
11.209,-0.14,-0.894,0.0
15.778,-0.202,-0.823,0.0
14.477,-0.187,-0.839,0.0
13.414,-0.175,-0.856,0.0
12.489,-0.165,-0.871,0.0
11.69,-0.156,-0.884,0.0
11.007,-0.148,-0.896,0.0
15.394,-0.211,-0.829,0.0
14.19,-0.197,-0.846,0.0
13.006,-0.182,-0.851,0.0
12.262,-0.173,-0.875,0.0
11.496,-0.164,-0.888,0.0
10.837,-0.156,-0.9,0.0
15.033,-0.221,-0.833,0.0
13.829,-0.205,-0.847,0.0
12.829,-0.192,-0.86,0.0
11.994,-0.181,-0.876,0.0
11.317,-0.173,-0.892,0.0
10.642,-0.164,-0.901,0.0
14.687,-0.23,-0.838,0.0
13.534,-0.214,-0.85,0.0
12.613,-0.201,-0.866,0.0
11.8,-0.19,-0.88,0.0
11.123,-0.181,-0.895,0.0
10.475,-0.172,-0.904,0.0
14.327,-0.239,-0.839,0.0
13.279,-0.224,-0.855,0.0
12.363,-0.21,-0.868,0.0
11.619,-0.199,-0.885,0.0
10.934,-0.189,-0.896,0.0
10.315,-0.18,-0.906,0.0
13.99,-0.248,-0.841,0.0
12.974,-0.232,-0.855,0.0
12.136,-0.219,-0.871,0.0
11.434,-0.208,-0.888,0.0
10.791,-0.198,-0.901,0.0
10.16,-0.188,-0.908,0.0
13.784,-0.259,-0.85,0.0
12.808,-0.243,-0.864,0.0
11.956,-0.228,-0.876,0.0
11.25,-0.217,-0.891,0.0
10.58,-0.206,-0.899,0.0
10.017,-0.196,-0.91,0.0
13.502,-0.268,-0.852,0.0
12.536,-0.251,-0.864,0.0
11.81,-0.238,-0.882,0.0
11.097,-0.226,-0.895,0.0
10.464,-0.215,-0.905,0.0
9.873,-0.204,-0.911,0.0
13.253,-0.278,-0.855,0.0
12.404,-0.262,-0.872,0.0
11.584,-0.247,-0.882,0.0
10.944,-0.235,-0.898,0.0
10.308,-0.223,-0.906,0.0
9.746,-0.213,-0.913,0.0
12.98,-0.287,-0.855,0.0
12.155,-0.271,-0.872,0.0
11.411,-0.256,-0.884,0.0
10.782,-0.244,-0.899,0.0
10.166,-0.232,-0.907,0.0
9.627,-0.221,-0.915,0.0
12.774,-0.297,-0.859,0.0
12.038,-0.282,-0.879,0.0
11.258,-0.266,-0.888,0.0
10.629,-0.253,-0.901,0.0
10.051,-0.241,-0.911,0.0
9.511,-0.23,-0.917,0.0
12.593,-0.307,-0.864,0.0
11.825,-0.291,-0.879,0.0
11.133,-0.276,-0.892,0.0
10.492,-0.262,-0.903,0.0
9.92,-0.249,-0.912,0.0
9.42,-0.239,-0.921,0.0
12.443,-0.318,-0.869,0.0
11.638,-0.3,-0.88,0.0
10.987,-0.285,-0.895,0.0
10.358,-0.271,-0.905,0.0
9.792,-0.258,-0.912,0.0
9.288,-0.247,-0.919,0.0
12.246,-0.328,-0.871,0.0
11.496,-0.31,-0.884,0.0
10.799,-0.293,-0.893,0.0
10.24,-0.28,-0.907,0.0
9.68,-0.267,-0.914,0.0
9.213,-0.256,-0.923,0.0
12.092,-0.339,-0.875,0.0
11.342,-0.32,-0.886,0.0
10.699,-0.304,-0.898,0.0
10.138,-0.29,-0.91,0.0
9.583,-0.276,-0.916,0.0
9.113,-0.264,-0.924,0.0
11.9,-0.348,-0.875,0.0
11.254,-0.331,-0.892,0.0
10.606,-0.314,-0.902,0.0
10.013,-0.299,-0.911,0.0
9.498,-0.286,-0.919,0.0
9.013,-0.273,-0.924,0.0
11.782,-0.359,-0.879,0.0
11.144,-0.342,-0.896,0.0
10.48,-0.324,-0.903,0.0
9.923,-0.309,-0.914,0.0
9.396,-0.294,-0.919,0.0
8.92,-0.281,-0.925,0.0
11.624,-0.369,-0.88,0.0
11.01,-0.352,-0.897,0.0
10.366,-0.334,-0.904,0.0
9.789,-0.317,-0.912,0.0
9.323,-0.304,-0.922,0.0
8.826,-0.29,-0.924,0.0
11.559,-0.382,-0.887,0.0
10.836,-0.36,-0.894,0.0
10.261,-0.343,-0.906,0.0
9.719,-0.327,-0.915,0.0
9.242,-0.313,-0.924,0.0
8.759,-0.299,-0.926,0.0
11.335,-0.389,-0.881,0.0
10.762,-0.372,-0.899,0.0
10.171,-0.353,-0.908,0.0
9.622,-0.336,-0.916,0.0
9.176,-0.323,-0.926,0.0
8.699,-0.308,-0.929,0.0
11.239,-0.4,-0.885,0.0
10.66,-0.382,-0.9,0.0
10.075,-0.363,-0.909,0.0
9.534,-0.346,-0.916,0.0
9.064,-0.331,-0.923,0.0
8.635,-0.317,-0.93,0.0
11.115,-0.41,-0.885,0.0
10.583,-0.393,-0.904,0.0
10.001,-0.374,-0.912,0.0
9.464,-0.356,-0.918,0.0
9.029,-0.342,-0.928,0.0
8.564,-0.326,-0.93,0.0
11.068,-0.423,-0.891,0.0
10.459,-0.402,-0.902,0.0
9.908,-0.383,-0.912,0.0
9.382,-0.365,-0.918,0.0
8.942,-0.35,-0.927,0.0
8.507,-0.335,-0.931,0.0
10.965,-0.434,-0.892,0.0
10.374,-0.413,-0.904,0.0
9.81,-0.393,-0.911,0.0
9.309,-0.375,-0.919,0.0
8.867,-0.359,-0.926,0.0
8.468,-0.345,-0.933,0.0
10.888,-0.445,-0.895,0.0
10.311,-0.424,-0.906,0.0
9.751,-0.403,-0.913,0.0
9.269,-0.385,-0.922,0.0
8.805,-0.368,-0.927,0.0
8.393,-0.353,-0.932,0.0
10.8,-0.456,-0.895,0.0
10.217,-0.434,-0.906,0.0
9.672,-0.413,-0.913,0.0
9.197,-0.395,-0.922,0.0
8.758,-0.378,-0.928,0.0
8.343,-0.362,-0.932,0.0
10.749,-0.468,-0.899,0.0
10.166,-0.445,-0.908,0.0
9.627,-0.424,-0.915,0.0
9.144,-0.405,-0.923,0.0
8.705,-0.388,-0.928,0.0
8.305,-0.372,-0.934,0.0
10.72,-0.482,-0.904,0.0
10.109,-0.456,-0.91,0.0
9.574,-0.435,-0.916,0.0
9.086,-0.415,-0.923,0.0
8.649,-0.397,-0.928,0.0
8.273,-0.382,-0.935,0.0
10.612,-0.491,-0.901,0.0
10.051,-0.467,-0.911,0.0
9.524,-0.445,-0.917,0.0
9.053,-0.425,-0.925,0.0
8.625,-0.407,-0.93,0.0
8.255,-0.392,-0.938,0.0
10.54,-0.502,-0.901,0.0
9.998,-0.478,-0.912,0.0
9.474,-0.456,-0.918,0.0
9.024,-0.436,-0.927,0.0
8.584,-0.417,-0.931,0.0
8.222,-0.401,-0.939,0.0
10.503,-0.514,-0.903,0.0
9.95,-0.489,-0.912,0.0
9.439,-0.467,-0.919,0.0
8.969,-0.446,-0.926,0.0
8.537,-0.426,-0.93,0.0
8.156,-0.409,-0.935,0.0
10.438,-0.525,-0.903,0.0
9.888,-0.5,-0.911,0.0
9.388,-0.477,-0.919,0.0
8.939,-0.456,-0.927,0.0
8.52,-0.437,-0.932,0.0
8.125,-0.419,-0.935,0.0
10.337,-0.744,-0.909,0.0
9.809,-0.709,-0.917,0.0
9.302,-0.674,-0.922,0.0
8.893,-0.647,-0.932,0.0
8.479,-0.619,-0.936,0.0
8.086,-0.592,-0.937,0.0
10.319,-0.755,-0.904,0.0
9.83,-0.722,-0.916,0.0
9.337,-0.687,-0.922,0.0
8.92,-0.659,-0.931,0.0
8.502,-0.63,-0.935,0.0
8.073,-0.6,-0.933,0.0
10.336,-0.768,-0.902,0.0
9.86,-0.735,-0.915,0.0
9.368,-0.7,-0.922,0.0
8.929,-0.669,-0.929,0.0
8.533,-0.642,-0.935,0.0
8.123,-0.613,-0.936,0.0
10.417,-0.785,-0.905,0.0
9.879,-0.747,-0.913,0.0
9.407,-0.713,-0.922,0.0
8.955,-0.681,-0.928,0.0
8.583,-0.655,-0.937,0.0
8.184,-0.627,-0.939,0.0
10.456,-0.8,-0.904,0.0
9.935,-0.762,-0.914,0.0
9.477,-0.729,-0.924,0.0
8.999,-0.694,-0.929,0.0
8.581,-0.664,-0.933,0.0
8.155,-0.633,-0.932,0.0
10.528,-0.816,-0.906,0.0
9.978,-0.776,-0.913,0.0
9.519,-0.742,-0.924,0.0
9.039,-0.707,-0.928,0.0
8.632,-0.677,-0.934,0.0
8.214,-0.646,-0.935,0.0
10.555,-0.829,-0.903,0.0
10.03,-0.79,-0.913,0.0
9.555,-0.755,-0.922,0.0
9.052,-0.717,-0.925,0.0
8.67,-0.689,-0.934,0.0
8.29,-0.661,-0.939,0.0
10.634,-0.846,-0.904,0.0
10.14,-0.809,-0.917,0.0
9.654,-0.772,-0.927,0.0
9.164,-0.735,-0.931,0.0
8.712,-0.701,-0.933,0.0
8.283,-0.668,-0.933,0.0
10.668,-0.859,-0.9,0.0
10.187,-0.823,-0.916,0.0
9.732,-0.788,-0.928,0.0
9.168,-0.744,-0.926,0.0
8.748,-0.712,-0.932,0.0
8.305,-0.678,-0.931,0.0
10.747,-0.876,-0.9,0.0
10.213,-0.835,-0.912,0.0
9.725,-0.797,-0.921,0.0
9.215,-0.757,-0.925,0.0
8.828,-0.727,-0.935,0.0
8.348,-0.689,-0.93,0.0
10.809,-0.891,-0.898,0.0
10.236,-0.846,-0.907,0.0
9.749,-0.808,-0.917,0.0
9.277,-0.771,-0.925,0.0
8.873,-0.739,-0.933,0.0
8.459,-0.706,-0.936,0.0
10.905,-0.909,-0.899,0.0
10.353,-0.865,-0.91,0.0
9.868,-0.826,-0.921,0.0
9.381,-0.788,-0.928,0.0
8.925,-0.751,-0.932,0.0
8.514,-0.718,-0.936,0.0
10.986,-0.925,-0.897,0.0
10.477,-0.884,-0.913,0.0
9.904,-0.838,-0.917,0.0
9.448,-0.801,-0.928,0.0
8.98,-0.763,-0.931,0.0
8.56,-0.729,-0.935,0.0
11.093,-0.944,-0.898,0.0
10.551,-0.899,-0.911,0.0
9.991,-0.854,-0.918,0.0
9.497,-0.813,-0.925,0.0
9.058,-0.777,-0.932,0.0
8.634,-0.743,-0.936,0.0
11.149,-0.957,-0.893,0.0
10.563,-0.909,-0.904,0.0
10.068,-0.868,-0.916,0.0
9.564,-0.827,-0.924,0.0
9.147,-0.792,-0.934,0.0
8.69,-0.754,-0.935,0.0
11.294,-0.978,-0.895,0.0
10.697,-0.929,-0.906,0.0
10.121,-0.88,-0.913,0.0
9.61,-0.838,-0.92,0.0
9.171,-0.801,-0.928,0.0
8.788,-0.769,-0.938,0.0
11.41,-0.997,-0.895,0.0
10.752,-0.941,-0.902,0.0
10.216,-0.896,-0.912,0.0
9.72,-0.854,-0.922,0.0
9.233,-0.813,-0.926,0.0
8.852,-0.781,-0.936,0.0
11.498,-1.013,-0.892,0.0
10.851,-0.958,-0.9,0.0
10.31,-0.912,-0.911,0.0
9.858,-0.873,-0.926,0.0
9.368,-0.832,-0.931,0.0
8.914,-0.793,-0.935,0.0
11.652,-1.034,-0.893,0.0
11.001,-0.978,-0.902,0.0
10.443,-0.93,-0.913,0.0
9.902,-0.884,-0.921,0.0
9.458,-0.846,-0.931,0.0
9.018,-0.808,-0.937,0.0
11.827,-1.057,-0.895,0.0
11.029,-0.988,-0.894,0.0
10.529,-0.944,-0.911,0.0
9.99,-0.898,-0.919,0.0
9.538,-0.859,-0.929,0.0
9.089,-0.82,-0.935,0.0
11.922,-1.073,-0.89,0.0
11.171,-1.007,-0.895,0.0
10.628,-0.96,-0.909,0.0
10.073,-0.911,-0.917,0.0
9.597,-0.869,-0.925,0.0
9.184,-0.833,-0.936,0.0
12.016,-1.088,-0.885,0.0
11.3,-1.025,-0.893,0.0
10.762,-0.978,-0.909,0.0
10.184,-0.927,-0.916,0.0
9.693,-0.883,-0.925,0.0
9.263,-0.846,-0.934,0.0
12.232,-1.114,-0.888,0.0
11.53,-1.052,-0.899,0.0
10.812,-0.988,-0.902,0.0
10.263,-0.939,-0.913,0.0
9.809,-0.899,-0.925,0.0
9.333,-0.856,-0.931,0.0
