X,Y,Z,Reflectivity
19.698,0.279,-0.081,10.0
19.669,0.272,-0.192,15.0
19.714,0.265,0.348,13.0
19.746,0.259,0.238,22.0
19.757,0.252,0.127,18.0
19.686,0.245,0.014,5.0
19.643,0.238,-0.095,16.0
19.64,0.231,-0.205,17.0
19.743,0.225,0.335,11.0
19.75,0.219,0.224,18.0
19.699,0.212,0.113,10.0
19.646,0.205,0.001,13.0
19.628,0.198,-0.108,16.0
19.664,0.192,-0.219,15.0
19.657,0.185,0.321,9.0
19.666,0.178,0.211,13.0
19.647,0.171,0.1,11.0
19.628,0.164,-0.011,18.0
19.648,0.158,-0.121,13.0
19.688,0.152,-0.231,1.0
19.622,0.144,0.308,11.0
19.676,0.138,0.199,17.0
19.63,0.131,0.088,12.0
19.65,0.124,-0.022,11.0
19.703,0.118,-0.133,1.0
32.865,0.186,-0.406,0.0
19.62,0.104,0.297,17.0
19.669,0.097,0.187,12.0
19.696,0.091,0.077,15.0
19.762,0.084,-0.034,24.0
19.755,0.077,-0.144,44.0
19.771,0.07,-0.255,61.0
19.616,0.063,0.286,13.0
19.713,0.056,0.177,9.0
19.753,0.05,0.067,17.0
19.738,0.043,-0.044,68.0
19.744,0.036,-0.155,13.0
19.761,0.029,-0.265,4.0
19.624,0.022,0.276,15.0
19.776,0.015,0.167,2.0
19.76,0.008,0.057,4.0
19.739,0.001,-0.054,8.0
19.773,-0.005,-0.165,1.0
0.0,0.0,0.0,0.0
19.642,-0.018,0.267,13.0
19.676,-0.025,0.157,10.0
19.703,-0.032,0.048,16.0
19.717,-0.039,-0.063,14.0
19.733,-0.046,-0.173,15.0
19.764,-0.053,-0.284,14.0
19.664,-0.059,0.258,13.0
19.692,-0.066,0.149,16.0
19.704,-0.073,0.039,14.0
19.71,-0.08,-0.071,11.0
19.722,-0.087,-0.181,16.0
19.747,-0.094,-0.291,15.0
19.712,-0.101,0.251,10.0
19.754,-0.108,0.142,9.0
19.736,-0.115,0.032,9.0
19.713,-0.122,-0.079,15.0
19.72,-0.129,-0.189,16.0
19.745,-0.136,-0.299,17.0
0.0,0.0,0.0,0.0
160.736,-1.223,1.098,17.0
0.0,0.0,0.0,0.0
19.751,-0.164,-0.086,7.0
19.761,-0.171,-0.196,10.0
19.769,-0.179,-0.306,4.0
164.072,-1.539,1.978,13.0
160.602,-1.561,1.045,7.0
0.0,0.0,0.0,0.0
0.0,0.0,0.0,0.0
0.0,0.0,0.0,0.0
33.209,-0.372,-0.524,0.0
19.755,-0.227,0.232,16.0
19.748,-0.234,0.122,6.0
0.0,0.0,0.0,0.0
0.0,0.0,0.0,0.0
0.0,0.0,0.0,0.0
0.0,0.0,0.0,0.0
19.763,-0.269,0.227,25.0
19.756,-0.277,0.117,27.0
0.0,0.0,0.0,0.0
0.0,0.0,0.0,0.0
0.0,0.0,0.0,0.0
33.31,-0.516,-0.542,0.0
129.106,-2.038,1.458,150.0
19.753,-0.318,0.113,1.0
0.0,0.0,0.0,0.0
0.0,0.0,0.0,0.0
0.0,0.0,0.0,0.0
33.376,-0.587,-0.549,0.0
129.098,-2.308,1.435,151.0
0.0,0.0,0.0,0.0
0.0,0.0,0.0,0.0
49.456,-0.938,-0.275,0.0
0.0,0.0,0.0,0.0
32.21,-0.635,-0.535,0.0
129.066,-2.582,1.417,27.0
0.0,0.0,0.0,0.0
0.0,0.0,0.0,0.0
0.0,0.0,0.0,0.0
0.0,0.0,0.0,0.0
33.157,-0.724,-0.554,0.0
129.151,-2.857,1.405,150.0
0.0,0.0,0.0,0.0
0.0,0.0,0.0,0.0
0.0,0.0,0.0,0.0
0.0,0.0,0.0,0.0
32.347,-0.775,-0.543,0.0
161.977,-3.93,1.751,3.0
0.0,0.0,0.0,0.0
0.0,0.0,0.0,0.0
0.0,0.0,0.0,0.0
0.0,0.0,0.0,0.0
31.616,-0.825,-0.532,0.0
162.073,-4.274,1.747,19.0
0.0,0.0,0.0,0.0
0.0,0.0,0.0,0.0
0.0,0.0,0.0,0.0
0.0,0.0,0.0,0.0
31.894,-0.899,-0.536,0.0
162.035,-4.614,1.749,16.0
0.0,0.0,0.0,0.0
0.0,0.0,0.0,0.0
49.645,-1.467,-0.287,0.0
0.0,0.0,0.0,0.0
31.713,-0.961,-0.532,0.0
161.981,-4.948,1.755,8.0
160.683,-4.968,0.859,4.0
0.0,0.0,0.0,0.0
0.0,0.0,0.0,0.0
0.0,0.0,0.0,0.0
33.239,-1.077,-0.555,0.0
161.948,-5.286,1.769,23.0
160.664,-5.305,0.873,4.0
0.0,0.0,0.0,0.0
0.0,0.0,0.0,0.0
0.0,0.0,0.0,0.0
32.216,-1.112,-0.534,0.0
162.108,-5.632,1.791,21.0
160.77,-5.648,0.895,6.0
0.0,0.0,0.0,0.0
50.468,-1.81,-0.277,0.0
0.0,0.0,0.0,0.0
31.79,-1.163,-0.523,0.0
161.993,-5.968,1.815,6.0
0.0,0.0,0.0,0.0
0.0,0.0,0.0,0.0
0.0,0.0,0.0,0.0
0.0,0.0,0.0,0.0
33.125,-1.281,-0.538,0.0
0.0,0.0,0.0,0.0
0.0,0.0,0.0,0.0
0.0,0.0,0.0,0.0
0.0,0.0,0.0,0.0
0.0,0.0,0.0,0.0
32.989,-1.344,-0.529,0.0
0.0,0.0,0.0,0.0
101.794,-4.207,0.628,2.0
0.0,0.0,0.0,0.0
0.0,0.0,0.0,0.0
40.388,-1.714,-0.416,0.0
0.0,0.0,0.0,0.0
101.458,-4.364,1.208,5.0
0.0,0.0,0.0,0.0
0.0,0.0,0.0,0.0
0.0,0.0,0.0,0.0
0.0,0.0,0.0,0.0
0.0,0.0,0.0,0.0
101.445,-4.568,1.238,5.0
101.429,-4.604,0.686,1.0
0.0,0.0,0.0,0.0
0.0,0.0,0.0,0.0
0.0,0.0,0.0,0.0
0.0,0.0,0.0,0.0
101.532,-4.777,1.274,53.0
0.0,0.0,0.0,0.0
101.482,-4.848,0.168,4.0
0.0,0.0,0.0,0.0
0.0,0.0,0.0,0.0
35.723,-1.745,-0.527,0.0
101.534,-4.98,1.313,5.0
0.0,0.0,0.0,0.0
101.58,-5.056,0.208,3.0
0.0,0.0,0.0,0.0
0.0,0.0,0.0,0.0
0.0,0.0,0.0,0.0
0.0,0.0,0.0,0.0
0.0,0.0,0.0,0.0
0.0,0.0,0.0,0.0
0.0,0.0,0.0,0.0
0.0,0.0,0.0,0.0
35.58,-1.879,-0.495,0.0
101.56,-5.38,1.4,15.0
101.419,-5.409,0.847,2.0
0.0,0.0,0.0,0.0
0.0,0.0,0.0,0.0
0.0,0.0,0.0,0.0
36.704,-2.011,-0.493,0.0
101.585,-5.582,1.449,8.0
101.499,-5.611,0.898,150.0
0.0,0.0,0.0,0.0
0.0,0.0,0.0,0.0
46.711,-2.632,-0.351,0.0
37.264,-2.113,-0.482,0.0
140.771,-8.005,2.081,22.0
140.705,-8.052,1.318,18.0
0.0,0.0,0.0,0.0
0.0,0.0,0.0,0.0
0.0,0.0,0.0,0.0
0.0,0.0,0.0,0.0
149.326,-8.776,2.289,19.0
149.984,-8.866,1.487,20.0
109.314,-6.5,0.492,1.0
0.0,0.0,0.0,0.0
0.0,0.0,0.0,0.0
40.331,-2.44,-0.477,0.0
148.701,-9.018,2.366,21.0
149.87,-9.14,1.574,16.0
108.69,-6.664,0.553,7.0
0.0,0.0,0.0,0.0
0.0,0.0,0.0,0.0
39.767,-2.48,-0.446,0.0
147.909,-9.243,2.444,13.0
125.36,-7.877,1.394,8.0
108.687,-6.867,0.621,4.0
0.0,0.0,0.0,0.0
0.0,0.0,0.0,0.0
42.126,-2.705,-0.445,0.0
117.547,-7.562,2.018,19.0
125.216,-8.098,1.474,25.0
99.849,-6.492,0.637,2.0
0.0,0.0,0.0,0.0
0.0,0.0,0.0,0.0
0.0,0.0,0.0,0.0
117.41,-7.768,2.096,7.0
0.0,0.0,0.0,0.0
0.0,0.0,0.0,0.0
0.0,0.0,0.0,0.0
0.0,0.0,0.0,0.0
0.0,0.0,0.0,0.0
100.003,-6.794,1.856,5.0
100.062,-6.832,1.318,5.0
99.997,-6.861,0.778,6.0
98.927,-6.82,0.228,1.0
0.0,0.0,0.0,0.0
0.0,0.0,0.0,0.0
109.364,-7.625,2.111,27.0
100.091,-7.01,1.393,7.0
100.096,-7.042,0.854,9.0
98.844,-6.987,0.302,8.0
0.0,0.0,0.0,0.0
0.0,0.0,0.0,0.0
109.357,-7.814,2.195,37.0
100.106,-7.185,1.471,8.0
100.125,-7.217,0.933,12.0
98.933,-7.164,0.38,13.0
0.0,0.0,0.0,0.0
0.0,0.0,0.0,0.0
126.472,-9.252,2.64,3.0
100.085,-7.353,1.55,9.0
100.103,-7.385,1.013,12.0
99.544,-7.375,0.463,11.0
0.0,0.0,0.0,0.0
0.0,0.0,0.0,0.0
123.552,-9.244,2.68,2.0
100.152,-7.523,1.634,9.0
100.125,-7.551,1.096,13.0
100.031,-7.576,0.548,12.0
0.0,0.0,0.0,0.0
0.0,0.0,0.0,0.0
127.476,-9.747,2.874,42.0
100.067,-7.682,1.719,12.0
100.074,-7.711,1.182,14.0
100.05,-7.741,0.636,15.0
0.0,0.0,0.0,0.0
0.0,0.0,0.0,0.0
127.518,-9.956,2.988,30.0
100.027,-7.84,1.808,9.0
100.09,-7.875,1.272,11.0
100.047,-7.9,0.725,14.0
0.0,0.0,0.0,0.0
0.0,0.0,0.0,0.0
127.517,-10.158,3.104,40.0
100.049,-7.999,1.899,5.0
100.028,-8.026,1.362,12.0
100.066,-8.058,0.817,14.0
99.949,-8.078,0.28,1.0
0.0,0.0,0.0,0.0
127.517,-10.355,3.223,25.0
90.395,-7.366,1.8,45.0
90.413,-7.393,1.316,11.0
90.434,-7.42,0.824,142.0
90.429,-7.446,0.339,65.0
0.0,0.0,0.0,0.0
127.532,-10.548,3.344,22.0
90.397,-7.502,1.886,42.0
90.409,-7.528,1.403,57.0
90.415,-7.555,0.911,57.0
90.424,-7.582,0.428,30.0
0.0,0.0,0.0,0.0
114.383,-9.633,3.113,21.0
90.392,-7.637,1.976,40.0
90.4,-7.663,1.494,47.0
90.398,-7.687,1.002,35.0
90.413,-7.714,0.519,33.0
0.0,0.0,0.0,0.0
114.483,-9.809,3.231,11.0
90.398,-7.768,2.068,38.0
90.391,-7.792,1.585,35.0
90.393,-7.817,1.094,39.0
90.401,-7.842,0.612,37.0
90.395,-7.866,0.13,2.0
114.511,-9.973,3.35,8.0
90.379,-7.895,2.162,25.0
90.392,-7.919,1.68,32.0
90.4,-7.944,1.189,72.0
90.409,-7.969,0.707,34.0
90.436,-7.996,0.225,13.0
116.895,-10.344,3.544,4.0
127.548,-11.317,3.186,14.0
90.38,-8.042,1.776,37.0
90.355,-8.063,1.284,31.0
90.404,-8.092,0.803,41.0
90.405,-8.114,0.322,11.0
148.116,-13.305,4.65,13.0
127.521,-11.484,3.323,25.0
90.382,-8.162,1.873,29.0
90.383,-8.184,1.382,33.0
90.406,-8.208,0.9,33.0
90.365,-8.228,0.42,14.0
108.093,-9.85,3.511,18.0
127.485,-11.647,3.46,22.0
90.378,-8.278,1.972,33.0
90.373,-8.299,1.482,42.0
90.397,-8.323,1.0,33.0
90.398,-8.345,0.519,23.0
108.135,-9.99,3.632,13.0
107.934,-9.996,3.05,7.0
90.367,-8.389,2.072,37.0
90.392,-8.412,1.581,42.0
90.371,-8.432,1.1,31.0
90.395,-8.455,0.619,39.0
148.176,-13.87,5.143,19.0
147.946,-13.879,4.347,16.0
90.354,-8.497,2.174,19.0
90.375,-8.519,1.683,47.0
90.37,-8.539,1.203,14.0
90.384,-8.561,0.723,40.0
108.617,-10.296,3.895,11.0
147.799,-14.042,4.513,18.0
127.494,-12.139,3.215,20.0
90.373,-8.624,1.788,47.0
90.373,-8.644,1.307,22.0
90.378,-8.664,0.828,68.0
108.438,-10.403,4.014,23.0
148.011,-14.23,4.691,23.0
118.946,-11.46,3.137,9.0
90.36,-8.724,1.894,49.0
0.0,0.0,0.0,0.0
90.388,-8.765,0.933,56.0
108.672,-10.546,4.152,19.0
148.15,-14.406,4.87,23.0
116.328,-11.334,3.204,37.0
90.349,-8.82,2.0,36.0
90.252,-8.829,1.519,23.0
90.209,-8.844,1.038,5.0
0.0,0.0,0.0,0.0
108.316,-10.646,3.69,20.0
116.344,-11.457,3.344,47.0
90.285,-8.907,2.106,49.0
90.271,-8.924,1.626,55.0
90.268,-8.941,1.146,98.0
111.027,-11.007,4.506,20.0
108.279,-10.752,3.818,21.0
116.32,-11.572,3.484,20.0
116.355,-11.597,2.855,15.0
89.076,-8.895,1.714,36.0
89.075,-8.911,1.241,26.0
111.158,-11.13,4.649,15.0
108.598,-10.892,3.965,20.0
148.107,-14.878,4.619,21.0
116.352,-11.708,2.998,33.0
88.728,-8.944,1.815,3.0
88.557,-8.943,1.342,1.0
110.967,-11.215,4.778,17.0
111.758,-11.312,4.217,11.0
148.259,-15.031,4.806,14.0
116.361,-11.815,3.143,41.0
87.987,-8.949,1.91,2.0
87.836,-8.949,1.44,4.0
109.583,-11.174,4.854,19.0
149.473,-15.263,5.828,14.0
108.83,-11.13,3.665,24.0
116.345,-11.916,3.287,38.0
86.309,-8.854,1.981,8.0
87.119,-8.951,1.537,2.0
109.138,-11.222,4.972,23.0
149.405,-15.384,6.011,18.0
108.83,-11.221,3.8,18.0
116.297,-12.007,3.431,24.0
86.224,-8.915,2.087,15.0
86.235,-8.93,1.63,46.0
110.506,-11.452,5.173,7.0
111.222,-11.541,4.616,13.0
108.744,-11.299,3.934,10.0
148.407,-15.44,4.566,21.0
116.366,-12.122,2.963,22.0
86.105,-8.982,1.736,6.0
113.693,-11.87,5.467,7.0
109.433,-11.438,4.68,15.0
148.919,-15.584,5.576,22.0
148.274,-15.536,4.75,16.0
116.345,-12.204,3.109,39.0
85.463,-8.976,1.83,2.0
110.506,-11.618,5.453,6.0
110.574,-11.636,4.869,19.0
148.959,-15.693,5.769,28.0
108.761,-11.471,3.622,26.0
116.336,-12.283,3.257,41.0
84.807,-8.965,1.924,3.0
107.915,-11.418,5.463,18.0
110.691,-11.723,5.015,21.0
111.617,-11.834,4.465,15.0
108.759,-11.542,3.762,17.0
116.322,-12.357,3.406,25.0
83.905,-8.922,2.012,6.0
107.995,-11.495,5.607,18.0
110.533,-11.776,5.151,15.0
111.344,-11.873,4.596,22.0
148.222,-15.819,5.317,24.0
147.864,-15.796,4.519,20.0
116.329,-12.439,2.937,25.0
109.125,-11.68,5.807,14.0
107.894,-11.557,5.168,20.0
110.977,-11.897,4.724,17.0
148.173,-15.898,5.506,31.0
147.899,-15.881,4.71,16.0
116.345,-12.504,3.087,43.0
109.138,-11.742,5.947,20.0
108.163,-11.644,5.318,19.0
110.76,-11.932,4.856,20.0
148.212,-15.977,5.695,21.0
108.839,-11.742,3.605,21.0
116.34,-12.561,3.237,36.0
109.024,-11.784,6.083,16.0
108.052,-11.686,5.452,18.0
110.545,-11.962,4.99,17.0
111.593,-12.083,4.432,13.0
108.776,-11.786,3.742,16.0
116.298,-12.609,3.383,24.0
108.74,-11.802,6.205,15.0
107.798,-11.705,5.578,13.0
107.76,-11.707,5.003,17.0
111.584,-12.129,4.574,12.0
148.151,-16.114,5.287,24.0
147.925,-16.098,4.493,17.0
49.378,-5.379,2.881,10.0
109.454,-11.929,5.805,11.0
108.033,-11.779,5.154,17.0
110.46,-12.049,4.671,6.0
148.112,-16.164,5.475,27.0
147.899,-16.148,4.681,14.0
49.347,-5.394,2.943,28.0
109.86,-12.012,5.967,17.0
108.171,-11.832,5.3,22.0
110.468,-12.087,4.812,19.0
148.216,-16.223,5.67,27.0
108.999,-11.936,3.59,10.0
49.285,-5.403,3.003,30.0
109.892,-12.05,6.111,17.0
108.064,-11.852,5.432,17.0
110.609,-12.135,4.959,12.0
148.277,-16.271,5.861,19.0
148.088,-16.256,5.065,20.0
49.275,-5.415,3.065,8.0
49.377,-5.427,2.808,8.0
107.979,-11.87,5.566,11.0
110.646,-12.165,5.103,7.0
149.298,-16.419,6.091,6.0
148.203,-16.302,5.258,21.0
49.23,-5.422,3.126,4.0
49.388,-5.439,2.872,23.0
109.868,-12.1,5.803,2.0
108.583,-11.96,5.145,17.0
110.563,-12.18,4.65,1.0
148.269,-16.336,5.447,26.0
107.352,-11.842,6.953,19.0
49.315,-5.44,2.93,37.0
109.784,-12.11,5.938,5.0
108.549,-11.973,5.281,21.0
110.408,-12.178,4.783,7.0
148.208,-16.349,5.632,22.0
107.776,-11.905,7.116,14.0
49.282,-5.442,2.99,36.0
109.708,-12.114,6.07,5.0
108.137,-11.94,5.395,24.0
110.53,-12.203,4.925,16.0
148.423,-16.386,5.821,16.0
48.955,-5.412,3.293,4.0
49.262,-5.444,3.05,21.0
49.444,-5.463,2.797,4.0
107.981,-11.929,5.52,17.0
107.677,-11.893,4.93,8.0
149.506,-16.512,6.048,10.0
48.883,-5.406,3.349,15.0
49.195,-5.438,3.106,18.0
49.391,-5.458,2.855,18.0
108.062,-11.94,5.657,2.0
108.183,-11.95,5.086,16.0
0.0,0.0,0.0,0.0
48.857,-5.403,3.406,18.0
49.2,-5.438,3.168,7.0
49.338,-5.452,2.912,35.0
109.708,-12.119,5.877,2.0
108.681,-12.002,5.241,21.0
110.376,-12.185,4.734,5.0
48.88,-5.404,3.468,16.0
107.638,-11.894,7.061,17.0
49.289,-5.443,2.969,39.0
109.802,-12.121,6.015,7.0
108.227,-11.942,5.351,22.0
110.485,-12.187,4.872,14.0
49.004,-5.413,3.537,23.0
107.806,-11.901,7.202,9.0
49.266,-5.436,3.027,22.0
109.809,-12.11,6.147,9.0
108.023,-11.906,5.469,19.0
110.638,-12.189,5.01,13.0
49.11,-5.418,3.603,25.0
48.831,-5.384,3.32,5.0
49.233,-5.425,3.083,7.0
49.41,-5.441,2.824,13.0
107.91,-11.875,5.591,7.0
107.706,-11.847,5.003,11.0
49.206,-5.42,3.668,23.0
48.824,-5.374,3.377,4.0
107.233,-11.794,6.841,20.0
49.358,-5.425,2.879,31.0
109.727,-12.052,5.812,8.0
108.047,-11.86,5.145,18.0
49.197,-5.408,3.725,22.0
49.146,-5.398,3.456,11.0
107.478,-11.795,6.982,19.0
49.326,-5.409,2.934,31.0
109.87,-12.04,5.944,17.0
108.166,-11.845,5.272,22.0
49.0,-5.374,3.766,23.0
49.236,-5.394,3.519,23.0
48.761,-5.338,3.222,9.0
49.296,-5.391,2.988,21.0
110.074,-12.029,6.08,20.0
107.933,-11.786,5.383,23.0
48.695,-5.325,3.798,29.0
49.21,-5.376,3.572,19.0
48.682,-5.313,3.271,23.0
107.353,-11.706,6.626,16.0
108.705,-11.842,6.125,17.0
107.816,-11.736,5.494,15.0
48.606,-5.299,3.844,35.0
49.26,-5.364,3.63,23.0
48.666,-5.294,3.323,31.0
107.228,-11.652,6.735,21.0
49.428,-5.366,2.838,4.0
107.925,-11.705,5.618,6.0
48.497,-5.268,3.889,28.0
49.364,-5.356,3.691,28.0
48.884,-5.297,3.391,22.0
48.646,-5.266,3.107,5.0
49.524,-5.355,2.896,6.0
109.151,-11.79,5.797,16.0
48.514,-5.249,3.942,14.0
49.075,-5.303,3.721,23.0
49.293,-5.32,3.471,22.0
48.639,-5.243,3.157,23.0
49.576,-5.338,2.951,13.0
109.115,-11.735,5.907,18.0
48.566,-5.232,3.996,6.0
48.708,-5.24,3.743,23.0
49.354,-5.302,3.527,35.0
48.599,-5.214,3.204,41.0
49.539,-5.309,2.999,23.0
109.036,-11.67,6.014,17.0
40.82,-4.376,3.4,16.0
48.573,-5.2,3.782,35.0
49.385,-5.28,3.578,26.0
48.634,-5.192,3.256,20.0
49.539,-5.281,3.048,10.0
108.692,-11.574,6.101,11.0
40.837,-4.355,3.442,32.0
48.533,-5.168,3.827,26.0
49.424,-5.255,3.63,19.0
48.679,-5.169,3.306,15.0
48.639,-5.157,3.04,5.0
107.35,-11.367,6.13,15.0
40.341,-4.278,3.44,38.0
48.531,-5.139,3.875,26.0
49.369,-5.219,3.673,23.0
48.639,-5.134,3.35,7.0
48.635,-5.126,3.086,20.0
107.834,-11.35,6.259,19.0
40.31,-4.249,3.475,40.0
48.566,-5.112,3.923,10.0
48.801,-5.128,3.676,22.0
49.43,-5.185,3.45,13.0
48.647,-5.095,3.132,33.0
107.824,-11.276,6.358,20.0
40.353,-4.227,3.516,37.0
40.444,-4.229,3.303,12.0
48.716,-5.085,3.714,22.0
49.511,-5.159,3.501,12.0
48.675,-5.064,3.177,39.0
107.572,-11.173,6.439,20.0
40.375,-4.2,3.555,21.0
40.443,-4.2,3.34,14.0
48.724,-5.051,3.758,14.0
49.663,-5.139,3.555,30.0
48.703,-5.031,3.221,15.0
107.549,-11.09,6.53,24.0
45.88,-4.739,4.079,11.0
40.328,-4.157,3.365,37.0
48.257,-4.965,3.763,22.0
49.652,-5.099,3.596,23.0
107.761,-11.048,7.218,21.0
107.589,-11.011,6.621,14.0
45.895,-4.705,4.118,15.0
40.331,-4.126,3.398,38.0
47.965,-4.897,3.779,18.0
49.65,-5.06,3.636,24.0
107.711,-10.955,7.302,18.0
109.746,-11.142,6.842,6.0
47.827,-4.863,4.331,8.0
40.434,-4.103,3.439,37.0
48.02,-4.863,3.822,13.0
49.776,-5.03,3.684,24.0
107.799,-10.874,7.39,18.0
108.225,-10.896,6.83,11.0
0.0,0.0,0.0,0.0
40.478,-4.073,3.474,19.0
45.716,-4.59,3.673,4.0
49.876,-4.997,3.729,8.0
107.843,-10.783,7.474,14.0
110.04,-10.981,7.026,6.0
47.852,-4.782,4.405,8.0
45.892,-4.576,3.972,7.0
45.689,-4.546,3.704,28.0
48.033,-4.769,3.626,12.0
107.552,-10.656,7.53,19.0
107.71,-10.649,6.953,12.0
47.654,-4.719,4.421,13.0
0.0,0.0,0.0,0.0
45.689,-4.503,3.736,7.0
48.052,-4.726,3.66,10.0
107.587,-10.558,7.606,15.0
107.695,-10.546,7.024,16.0
48.044,-4.711,4.489,9.0
45.97,-4.497,4.042,20.0
47.536,-4.639,3.918,5.0
107.106,-10.43,8.229,17.0
107.267,-10.421,7.654,14.0
107.067,-10.377,7.053,12.0
47.714,-4.631,4.489,12.0
45.951,-4.449,4.07,18.0
47.619,-4.6,3.955,17.0
106.125,-10.228,8.219,18.0
106.949,-10.282,7.695,17.0
107.127,-10.276,7.121,13.0
45.517,-4.373,4.31,9.0
47.971,-4.596,4.277,6.0
47.814,-4.569,4.0,22.0
106.539,-10.157,8.314,19.0
106.87,-10.164,7.752,17.0
106.89,-10.141,7.166,19.0
39.312,-3.735,3.745,39.0
0.0,0.0,0.0,0.0
48.155,-4.551,4.055,25.0
108.084,-10.189,8.494,14.0
106.252,-9.991,7.764,21.0
106.791,-10.017,7.216,22.0
39.313,-3.692,3.766,36.0
45.938,-4.302,4.147,20.0
48.255,-4.507,4.089,31.0
108.3,-10.089,8.567,19.0
106.077,-9.857,7.806,28.0
106.943,-9.911,7.281,22.0
39.175,-3.635,3.773,41.0
47.491,-4.395,4.31,31.0
48.236,-4.451,4.111,25.0
108.084,-9.947,8.603,10.0
106.177,-9.745,7.864,18.0
106.771,-9.774,7.318,13.0
39.233,-3.596,3.796,29.0
47.483,-4.34,4.331,33.0
48.259,-4.398,4.134,24.0
108.11,-9.826,8.651,7.0
108.722,-9.853,8.099,17.0
106.675,-9.641,7.358,23.0
39.234,-3.55,3.813,28.0
47.372,-4.274,4.341,35.0
48.503,-4.363,4.175,22.0
107.38,-9.631,8.637,13.0
108.876,-9.739,8.153,15.0
106.708,-9.518,7.401,18.0
39.246,-3.504,3.83,31.0
47.429,-4.223,4.364,37.0
48.215,-4.28,4.168,5.0
107.329,-9.499,8.671,17.0
109.023,-9.619,8.204,15.0
106.772,-9.394,7.442,17.0
39.261,-3.458,3.845,10.0
47.402,-4.163,4.377,35.0
106.867,-9.356,9.273,13.0
109.519,-9.559,8.884,14.0
109.31,-9.512,8.259,9.0
108.783,-9.438,7.616,12.0
39.273,-3.41,3.858,29.0
47.423,-4.106,4.393,21.0
106.978,-9.232,9.314,16.0
106.851,-9.191,8.698,14.0
109.482,-9.389,8.302,17.0
108.82,-9.303,7.649,13.0
48.822,-4.178,4.809,10.0
47.498,-4.051,4.413,21.0
106.608,-9.064,9.309,24.0
106.608,-9.034,8.703,21.0
108.456,-9.161,8.251,16.0
109.837,-9.249,7.745,7.0
48.786,-4.112,4.816,38.0
47.453,-3.985,4.419,18.0
47.494,-3.976,4.157,3.0
106.867,-8.917,8.747,21.0
108.206,-9.001,8.252,18.0
104.488,-8.663,7.388,16.0
48.81,-4.05,4.828,15.0
0.0,0.0,0.0,0.0
106.556,-8.781,9.346,20.0
106.804,-8.772,8.759,23.0
107.905,-8.833,8.246,16.0
104.511,-8.527,7.404,18.0
48.969,-3.998,4.851,16.0
49.423,-4.021,4.618,5.0
107.012,-8.675,9.399,16.0
106.812,-8.629,8.772,21.0
107.571,-8.661,8.234,16.0
106.773,-8.567,7.576,15.0
106.139,-8.523,10.525,18.0
49.4,-3.952,4.62,21.0
107.447,-8.565,9.447,20.0
107.109,-8.508,8.805,15.0
107.377,-8.5,8.226,16.0
106.36,-8.39,7.553,22.0
105.919,-8.359,10.509,19.0
49.374,-3.882,4.621,7.0
107.096,-8.39,9.42,10.0
107.256,-8.372,8.821,18.0
107.756,-8.381,8.259,10.0
106.368,-8.244,7.557,26.0
49.452,-3.834,4.908,5.0
107.018,-8.267,10.017,18.0
107.265,-8.255,9.436,21.0
104.507,-8.013,8.595,12.0
104.826,-8.009,8.032,21.0
106.631,-8.118,7.573,17.0
106.78,-8.132,10.594,19.0
107.134,-8.128,10.024,21.0
107.735,-8.142,9.472,17.0
104.481,-7.867,8.588,11.0
104.709,-7.854,8.018,21.0
110.475,-8.257,7.839,7.0
49.488,-3.699,4.906,14.0
107.244,-7.984,10.026,19.0
107.526,-7.973,9.445,10.0
109.891,-8.118,9.022,13.0
104.759,-7.709,8.011,12.0
105.054,-7.702,7.444,19.0
49.477,-3.628,4.899,16.0
109.362,-7.986,10.21,18.0
107.109,-7.79,9.395,16.0
107.934,-7.819,8.847,10.0
107.165,-7.733,8.18,19.0
104.907,-7.542,7.418,21.0
106.95,-7.688,10.575,14.0
108.853,-7.793,10.145,18.0
106.933,-7.625,9.362,24.0
106.786,-7.583,8.734,17.0
105.084,-7.431,8.002,28.0
110.573,-7.789,7.797,13.0
108.309,-7.629,10.688,24.0
108.028,-7.578,10.046,15.0
107.11,-7.482,9.354,21.0
106.661,-7.419,8.7,33.0
104.998,-7.274,7.972,26.0
108.973,-7.519,7.659,17.0
107.929,-7.445,10.624,19.0
111.113,-7.632,10.306,11.0
107.15,-7.328,9.33,20.0
106.927,-7.282,8.695,18.0
107.891,-7.318,8.163,13.0
107.085,-7.233,7.497,17.0
107.886,-7.284,10.588,17.0
106.438,-7.155,9.841,10.0
106.9,-7.155,9.276,11.0
107.047,-7.133,8.671,26.0
111.788,-7.418,8.423,7.0
106.994,-7.071,7.456,23.0
107.815,-7.12,10.546,26.0
106.484,-7.0,9.81,19.0
107.323,-7.025,9.277,16.0
107.507,-7.006,8.671,20.0
108.745,-7.056,8.155,7.0
106.973,-6.912,7.416,27.0
107.826,-6.961,10.507,11.0
111.178,-7.144,10.199,18.0
107.16,-6.856,9.221,15.0
107.647,-6.857,8.64,16.0
109.138,-6.921,8.141,18.0
106.972,-6.754,7.373,23.0
107.762,-6.796,10.456,9.0
109.105,-6.849,9.963,16.0
107.172,-6.697,9.176,19.0
107.706,-6.7,8.598,23.0
109.19,-6.762,8.096,17.0
107.31,-6.616,7.349,21.0
111.923,-6.893,10.808,8.0
109.358,-6.704,9.936,19.0
107.354,-6.551,9.141,11.0
108.034,-6.561,8.573,17.0
109.046,-6.592,8.032,15.0
107.601,-6.474,7.315,21.0
109.591,-6.584,10.528,14.0
107.407,-6.423,9.703,15.0
107.388,-6.39,9.088,10.0
108.735,-6.439,8.57,17.0
109.026,-6.427,7.973,22.0
108.357,-6.357,7.308,10.0
109.073,-6.389,10.418,18.0
107.353,-6.258,9.639,17.0
108.685,-6.305,9.137,30.0
108.84,-6.284,8.518,24.0
109.283,-6.278,7.93,19.0
107.969,-6.173,7.22,8.0
109.276,-6.236,10.372,24.0
108.855,-6.181,9.709,20.0
108.583,-6.136,9.063,23.0
109.567,-6.161,8.508,11.0
110.524,-6.185,7.952,20.0
108.02,-6.015,7.156,16.0
109.483,-6.085,10.322,18.0
108.589,-6.004,9.615,23.0
108.463,-5.966,8.983,18.0
111.344,-6.093,8.573,13.0
110.82,-6.033,7.899,14.0
108.133,-5.859,7.091,27.0
109.227,-5.904,10.224,20.0
108.656,-5.843,9.546,24.0
111.563,-5.969,9.162,14.0
113.091,-6.019,8.629,19.0
111.25,-5.89,7.852,6.0
108.302,-5.706,7.026,10.0
112.347,-5.904,10.434,10.0
111.633,-5.836,9.727,23.0
111.515,-5.799,9.076,22.0
109.504,-5.664,8.273,14.0
108.4,-5.577,7.569,10.0
108.85,-5.57,6.979,17.0
112.167,-5.724,10.331,29.0
111.608,-5.665,9.637,24.0
111.779,-5.643,9.009,15.0
109.676,-5.508,8.201,17.0
115.192,-5.754,7.953,12.0
108.927,-5.412,6.897,8.0
112.126,-5.555,10.235,20.0
111.575,-5.496,9.543,22.0
113.754,-5.574,9.076,11.0
112.504,-5.482,8.318,19.0
114.867,-5.566,7.835,26.0
112.711,-5.433,7.043,24.0
112.009,-5.381,10.129,10.0
116.362,-5.558,9.852,21.0
115.719,-5.497,9.133,21.0
118.662,-5.606,8.671,6.0
115.566,-5.429,7.781,20.0
112.941,-5.277,6.958,18.0
116.436,-5.421,10.426,13.0
116.728,-5.404,9.779,23.0
115.314,-5.307,8.997,21.0
115.146,-5.269,8.309,21.0
115.902,-5.274,7.698,20.0
115.461,-5.225,7.008,8.0
116.391,-5.247,10.313,8.0
116.716,-5.231,9.668,20.0
114.877,-5.118,8.853,22.0
114.833,-5.086,8.178,25.0
116.416,-5.126,7.621,17.0
114.836,-5.028,6.858,26.0
124.133,-5.414,10.878,14.0
115.656,-5.013,9.467,11.0
115.181,-4.963,8.763,22.0
114.793,-4.916,8.062,19.0
114.692,-4.884,7.395,25.0
114.556,-4.849,6.727,23.0
124.25,-5.238,10.761,23.0
115.104,-4.821,9.304,22.0
115.144,-4.793,8.642,28.0
115.816,-4.792,8.013,10.0
114.768,-4.72,7.28,19.0
114.234,-4.67,6.59,28.0
124.201,-5.054,10.625,27.0
114.956,-4.648,9.168,25.0
115.087,-4.624,8.513,21.0
115.735,-4.621,7.883,24.0
115.282,-4.575,7.188,14.0
114.206,-4.504,6.463,25.0
124.221,-4.876,10.49,24.0
115.232,-4.494,9.063,22.0
115.091,-4.459,8.386,21.0
115.723,-4.455,7.754,26.0
114.669,-4.388,7.022,23.0
114.518,-4.354,6.353,21.0
115.049,-4.352,9.585,20.0
115.734,-4.348,8.971,24.0
123.362,-4.604,8.848,13.0
116.012,-4.302,7.64,24.0
114.636,-4.223,6.887,23.0
114.387,-4.187,6.213,25.0
115.273,-4.196,9.466,25.0
114.893,-4.153,8.77,22.0
123.283,-4.428,8.696,20.0
117.446,-4.189,7.593,21.0
114.557,-4.059,6.744,22.0
114.429,-4.028,6.078,27.0
116.058,-4.062,9.389,23.0
115.498,-4.014,8.674,24.0
124.421,-4.295,8.624,14.0
116.801,-4.004,7.408,17.0
114.512,-3.899,6.601,17.0
114.444,-3.87,5.938,16.0
115.974,-3.898,9.237,22.0
115.959,-3.87,8.563,18.0
117.765,-3.903,8.015,9.0
114.672,-3.773,7.128,14.0
115.705,-3.781,6.523,16.0
122.357,-3.971,6.191,8.0
125.986,-4.062,9.872,25.0
140.24,-4.49,10.175,12.0
117.861,-3.746,7.867,25.0
115.405,-3.641,7.023,25.0
115.23,-3.61,6.346,23.0
117.21,-3.646,5.777,22.0
126.033,-3.892,9.706,23.0
140.397,-4.304,9.998,15.0
125.316,-3.813,8.196,17.0
115.642,-3.492,6.881,25.0
116.416,-3.489,6.253,6.0
117.24,-3.489,5.62,24.0
126.129,-3.725,9.541,10.0
140.998,-4.132,9.845,15.0
124.952,-3.635,8.0,23.0
115.82,-3.344,6.732,27.0
141.083,-4.043,7.383,13.0
117.248,-3.335,5.459,22.0
140.338,-3.96,10.419,9.0
125.069,-3.502,8.558,18.0
115.912,-3.22,7.257,15.0
115.813,-3.193,6.569,21.0
124.274,-3.399,6.328,15.0
124.723,-3.385,5.628,4.0
0.0,0.0,0.0,0.0
125.075,-3.34,8.378,21.0
115.967,-3.072,7.093,7.0
124.506,-3.272,6.88,24.0
117.378,-3.059,5.806,16.0
117.401,-3.036,5.127,8.0
0.0,0.0,0.0,0.0
125.264,-3.184,8.203,21.0
124.288,-3.133,7.416,23.0
124.356,-3.108,6.686,21.0
140.77,-3.49,6.752,9.0
143.624,-3.532,6.055,7.0
0.0,0.0,0.0,0.0
0.0,0.0,0.0,0.0
124.235,-2.975,7.224,14.0
141.705,-3.366,7.402,14.0
140.739,-3.314,6.536,15.0
143.39,-3.348,5.826,18.0
0.0,0.0,0.0,0.0
124.478,-2.852,7.768,12.0
141.651,-3.217,8.017,13.0
0.0,0.0,0.0,0.0
191.769,-4.281,8.605,12.0
190.229,-4.209,7.433,9.0
0.0,0.0,0.0,0.0
124.986,-2.712,7.603,18.0
0.0,0.0,0.0,0.0
192.789,-4.11,9.466,15.0
190.166,-4.017,8.231,13.0
190.251,-3.984,7.13,19.0
0.0,0.0,0.0,0.0
0.0,0.0,0.0,0.0
0.0,0.0,0.0,0.0
192.818,-3.882,9.153,17.0
190.318,-3.796,7.927,20.0
190.391,-3.763,6.826,20.0
0.0,0.0,0.0,0.0
0.0,0.0,0.0,0.0
0.0,0.0,0.0,0.0
192.061,-3.646,8.802,21.0
191.473,-3.601,7.661,13.0
190.713,-3.552,6.524,7.0
0.0,0.0,0.0,0.0
0.0,0.0,0.0,0.0
0.0,0.0,0.0,0.0
192.489,-3.438,8.499,7.0
190.019,-3.36,7.284,22.0
162.61,-2.847,5.29,43.0
189.948,-3.284,11.406,16.0
190.086,-3.252,10.304,6.0
190.046,-3.219,9.194,5.0
192.844,-3.233,8.187,18.0
191.41,-3.176,7.012,16.0
162.669,-2.672,5.014,21.0
0.0,0.0,0.0,0.0
0.0,0.0,0.0,0.0
0.0,0.0,0.0,0.0
191.956,-3.012,7.815,18.0
192.031,-2.98,6.701,8.0
163.347,-2.508,4.749,34.0
0.0,0.0,0.0,0.0
0.0,0.0,0.0,0.0
193.256,-2.861,8.675,17.0
191.895,-2.809,7.474,22.0
162.595,-2.354,5.388,48.0
163.321,-2.338,4.46,40.0
0.0,0.0,0.0,0.0
0.0,0.0,0.0,0.0
193.205,-2.662,8.324,13.0
185.893,-2.532,6.909,9.0
162.619,-2.189,5.095,64.0
19.803,-0.263,0.505,1.0
0.0,0.0,0.0,0.0
0.0,0.0,0.0,0.0
186.485,-2.384,7.698,10.0
185.979,-2.35,6.576,20.0
19.783,-0.247,0.584,0.0
19.76,-0.243,0.468,8.0
0.0,0.0,0.0,0.0
0.0,0.0,0.0,0.0
185.942,-2.198,7.335,22.0
162.616,-1.898,5.45,40.0
19.764,-0.227,0.547,8.0
19.744,-0.224,0.431,11.0
0.0,0.0,0.0,0.0
0.0,0.0,0.0,0.0
184.553,-2.008,6.936,14.0
19.756,-0.212,0.625,7.0
19.744,-0.209,0.509,12.0
19.75,-0.206,0.394,8.0
0.0,0.0,0.0,0.0
0.0,0.0,0.0,0.0
19.795,-0.197,0.706,1.0
19.733,-0.194,0.587,9.0
19.75,-0.191,0.472,8.0
19.781,-0.189,0.358,2.0
0.0,0.0,0.0,0.0
183.94,-1.701,7.291,18.0
19.738,-0.179,0.667,5.0
19.745,-0.177,0.55,7.0
19.772,-0.174,0.435,5.0
176.187,-1.535,2.851,3.0
184.815,-1.575,8.048,23.0
19.809,-0.166,0.747,0.0
19.741,-0.163,0.628,9.0
19.762,-0.16,0.512,5.0
177.231,-1.419,3.56,20.0
169.289,-1.334,2.411,14.0
184.436,-1.421,7.673,20.0
19.776,-0.15,0.707,4.0
19.761,-0.147,0.591,5.0
19.758,-0.145,0.474,1.0
177.19,-1.279,3.216,16.0
19.683,-0.139,0.242,0.0
184.274,-1.276,7.307,20.0
19.691,-0.134,0.665,3.0
19.687,-0.131,0.55,6.0
19.682,-0.129,0.433,4.0
19.707,-0.127,0.318,3.0
19.721,-0.124,0.203,9.0
19.709,-0.121,0.742,6.0
19.655,-0.119,0.625,10.0
19.663,-0.116,0.51,9.0
19.675,-0.114,0.394,8.0
19.684,-0.112,0.279,7.0
19.718,-0.11,0.164,14.0
19.676,-0.107,0.701,11.0
19.645,-0.104,0.585,12.0
19.652,-0.102,0.47,9.0
19.661,-0.1,0.354,9.0
19.686,-0.098,0.239,11.0
19.705,-0.096,0.125,15.0
19.657,-0.093,0.661,13.0
19.641,-0.091,0.546,11.0
19.652,-0.089,0.431,9.0
19.653,-0.087,0.314,9.0
19.695,-0.085,0.2,15.0
19.706,-0.083,0.085,13.0
19.652,-0.08,0.621,14.0
19.641,-0.078,0.506,11.0
19.639,-0.076,0.391,9.0
19.648,-0.075,0.274,9.0
19.695,-0.073,0.16,17.0
19.707,-0.071,0.044,16.0
19.633,-0.068,0.58,13.0
19.634,-0.066,0.465,12.0
19.635,-0.065,0.35,9.0
19.654,-0.063,0.234,13.0
19.696,-0.061,0.119,16.0
19.699,-0.059,0.004,16.0
19.634,-0.057,0.54,13.0
19.627,-0.055,0.425,11.0
19.631,-0.053,0.31,10.0
19.652,-0.052,0.193,11.0
19.699,-0.05,0.078,15.0
19.715,-0.049,-0.035,16.0
19.63,-0.046,0.499,12.0
19.63,-0.044,0.384,11.0
19.633,-0.043,0.27,10.0
19.675,-0.041,0.153,10.0
19.701,-0.04,0.038,15.0
19.739,-0.038,-0.076,9.0
19.629,-0.036,0.458,13.0
19.615,-0.035,0.343,11.0
19.635,-0.033,0.228,14.0
19.687,-0.032,0.112,12.0
19.708,-0.03,-0.002,14.0
19.75,-0.029,-0.118,12.0
19.629,-0.027,0.417,13.0
19.621,-0.025,0.302,12.0
19.653,-0.024,0.188,9.0
19.688,-0.023,0.071,12.0
19.731,-0.021,-0.043,11.0
19.757,-0.02,-0.159,2.0
19.622,-0.018,0.376,14.0
19.635,-0.017,0.261,13.0
19.731,-0.016,0.147,2.0
19.71,-0.014,0.029,10.0
19.764,-0.013,-0.085,2.0
0.0,0.0,0.0,0.0
19.622,-0.01,0.334,14.0
19.626,-0.009,0.22,14.0
19.74,-0.008,0.105,2.0
19.73,-0.007,-0.012,10.0
19.74,-0.006,-0.127,0.0
0.0,0.0,0.0,0.0
19.632,-0.003,0.293,14.0
19.727,-0.002,0.179,5.0
19.789,-0.001,0.063,4.0
19.752,0.0,-0.054,3.0
19.771,0.0,-0.169,0.0
19.773,0.001,-0.285,1.0
19.641,0.002,0.251,16.0
19.764,0.003,0.137,1.0
19.742,0.004,0.021,9.0
19.774,0.005,-0.096,0.0
19.788,0.006,-0.211,0.0
19.777,0.007,-0.327,1.0
19.642,0.008,0.209,13.0
19.779,0.009,0.095,5.0
19.739,0.01,-0.02,150.0
19.767,0.011,-0.138,1.0
19.78,0.012,-0.253,1.0
19.785,0.012,-0.369,1.0
19.753,0.013,0.168,9.0
19.778,0.014,0.053,3.0
19.74,0.015,-0.062,14.0
19.77,0.015,-0.18,2.0
19.778,0.016,-0.295,4.0
19.766,0.017,-0.411,6.0
19.763,0.017,0.126,7.0
19.736,0.018,0.01,12.0
19.767,0.019,-0.104,4.0
19.759,0.019,-0.222,10.0
19.752,0.02,-0.337,16.0
19.776,0.021,-0.454,9.0
19.763,0.021,0.084,13.0
19.75,0.021,-0.031,150.0
19.751,0.022,-0.146,16.0
19.748,0.022,-0.264,10.0
19.769,0.023,-0.38,8.0
19.759,0.024,-0.496,14.0
19.742,0.023,0.041,19.0
19.744,0.024,-0.073,8.0
19.748,0.024,-0.189,10.0
19.757,0.025,-0.307,12.0
19.774,0.025,-0.422,8.0
19.759,0.026,-0.538,13.0
19.745,0.026,0.0,17.0
19.766,0.026,-0.115,8.0
19.748,0.026,-0.231,10.0
19.757,0.027,-0.349,10.0
19.758,0.027,-0.465,10.0
19.768,0.027,-0.581,10.0
19.765,0.027,-0.042,81.0
19.755,0.027,-0.158,9.0
19.741,0.027,-0.273,10.0
19.763,0.028,-0.391,8.0
19.769,0.028,-0.507,10.0
19.78,0.028,-0.623,8.0
19.763,0.027,-0.084,7.0
19.751,0.028,-0.2,13.0
19.761,0.028,-0.315,12.0
19.77,0.028,-0.433,8.0
19.765,0.028,-0.549,11.0
19.792,0.028,-0.666,1.0
19.769,0.027,-0.126,10.0
19.763,0.027,-0.242,9.0
19.762,0.027,-0.358,8.0
19.76,0.027,-0.475,10.0
19.768,0.027,-0.591,9.0
19.812,0.027,-0.709,2.0
19.754,0.026,-0.168,9.0
19.763,0.026,-0.284,10.0
19.76,0.026,-0.399,8.0
19.757,0.026,-0.517,10.0
19.777,0.026,-0.633,7.0
19.76,0.026,-0.749,7.0
19.76,0.025,-0.21,23.0
19.765,0.024,-0.326,11.0
19.77,0.024,-0.441,8.0
19.763,0.024,-0.559,10.0
19.856,0.024,-0.678,0.0
19.606,0.024,-0.784,1.0
19.757,0.022,-0.252,15.0
19.761,0.022,-0.367,10.0
19.765,0.022,-0.483,12.0
19.768,0.021,-0.601,12.0
19.794,0.021,-0.717,2.0
18.807,0.02,-0.792,0.0
19.783,0.019,-0.293,11.0
19.772,0.019,-0.409,7.0
19.767,0.018,-0.524,10.0
19.786,0.018,-0.643,4.0
19.757,0.018,-0.757,4.0
18.075,0.016,-0.799,0.0
19.778,0.015,-0.335,2.0
19.781,0.015,-0.451,2.0
19.789,0.014,-0.567,3.0
0.0,0.0,0.0,0.0
19.372,0.013,-0.784,0.0
17.335,0.011,-0.803,0.0
19.771,0.01,-0.376,1.0
19.783,0.01,-0.492,2.0
19.779,0.009,-0.608,1.0
19.84,0.009,-0.728,1.0
18.567,0.008,-0.79,0.0
16.657,0.006,-0.806,0.0
19.79,0.005,-0.418,0.0
19.796,0.004,-0.533,0.0
19.886,0.004,-0.652,0.0
19.736,0.003,-0.765,3.0
17.77,0.002,-0.792,0.0
16.323,0.001,-0.824,0.0
19.782,0.0,-0.458,0.0
23.885,-0.001,-0.692,0.0
20.875,-0.002,-0.727,0.0
19.102,-0.002,-0.779,0.0
17.22,-0.003,-0.804,0.0
15.704,-0.003,-0.825,0.0
25.771,-0.009,-0.649,0.0
22.648,-0.009,-0.703,0.0
19.822,-0.008,-0.731,1.0
18.475,-0.009,-0.792,0.0
16.694,-0.009,-0.813,0.0
15.287,-0.008,-0.834,0.0
24.914,-0.018,-0.678,0.0
21.698,-0.017,-0.718,0.0
19.709,-0.016,-0.767,2.0
17.689,-0.015,-0.794,0.0
16.167,-0.015,-0.82,0.0
14.913,-0.014,-0.844,0.0
23.601,-0.027,-0.691,0.0
20.974,-0.025,-0.736,0.0
19.023,-0.024,-0.779,0.0
17.097,-0.022,-0.802,0.0
15.65,-0.021,-0.825,0.0
14.349,-0.02,-0.841,0.0
22.789,-0.036,-0.712,0.0
19.803,-0.032,-0.735,1.0
18.483,-0.031,-0.794,0.0
16.576,-0.029,-0.811,0.0
15.238,-0.028,-0.835,0.0
13.985,-0.026,-0.848,0.0
21.597,-0.045,-0.718,0.0
19.691,-0.042,-0.77,2.0
17.61,-0.039,-0.791,0.0
16.05,-0.036,-0.817,0.0
14.788,-0.034,-0.839,0.0
13.587,-0.032,-0.851,0.0
20.59,-0.053,-0.725,0.0
19.016,-0.05,-0.781,0.0
17.15,-0.047,-0.804,0.0
15.631,-0.044,-0.826,0.0
14.3,-0.041,-0.84,0.0
13.297,-0.039,-0.859,0.0
19.826,-0.062,-0.737,1.0
18.295,-0.059,-0.786,0.0
16.695,-0.055,-0.815,0.0
15.199,-0.051,-0.833,0.0
13.986,-0.048,-0.848,0.0
12.964,-0.045,-0.862,0.0
19.68,-0.073,-0.769,2.0
17.556,-0.067,-0.789,0.0
16.08,-0.062,-0.816,0.0
14.751,-0.058,-0.836,0.0
13.62,-0.055,-0.852,0.0
12.678,-0.052,-0.867,0.0
19.106,-0.083,-0.783,0.0
17.066,-0.075,-0.799,0.0
15.67,-0.07,-0.825,0.0
14.318,-0.065,-0.839,0.0
13.292,-0.062,-0.857,0.0
12.42,-0.059,-0.873,0.0
18.233,-0.091,-0.781,0.0
16.716,-0.085,-0.814,0.0
15.214,-0.078,-0.83,0.0
13.993,-0.073,-0.846,0.0
12.996,-0.069,-0.862,0.0
12.156,-0.066,-0.878,0.0
17.654,-0.1,-0.789,0.0
16.141,-0.093,-0.816,0.0
14.835,-0.087,-0.836,0.0
13.636,-0.081,-0.85,0.0
12.709,-0.077,-0.867,0.0
11.936,-0.073,-0.884,0.0
17.174,-0.109,-0.799,0.0
15.733,-0.102,-0.824,0.0
14.443,-0.095,-0.841,0.0
13.281,-0.088,-0.852,0.0
12.457,-0.084,-0.872,0.0
11.668,-0.08,-0.885,0.0
16.701,-0.119,-0.807,0.0
15.335,-0.11,-0.831,0.0
14.066,-0.103,-0.844,0.0
13.024,-0.097,-0.859,0.0
12.217,-0.092,-0.877,0.0
11.436,-0.087,-0.888,0.0
16.275,-0.128,-0.816,0.0
14.903,-0.119,-0.834,0.0
13.745,-0.111,-0.849,0.0
12.787,-0.105,-0.866,0.0
11.943,-0.099,-0.879,0.0
11.231,-0.095,-0.892,0.0
15.794,-0.137,-0.819,0.0
14.498,-0.127,-0.836,0.0
13.39,-0.119,-0.85,0.0
12.497,-0.113,-0.868,0.0
11.731,-0.107,-0.883,0.0
11.041,-0.102,-0.896,0.0
15.436,-0.147,-0.827,0.0
14.194,-0.137,-0.843,0.0
13.068,-0.127,-0.853,0.0
12.234,-0.121,-0.871,0.0
11.506,-0.115,-0.886,0.0
10.836,-0.109,-0.898,0.0
15.087,-0.156,-0.834,0.0
13.808,-0.145,-0.844,0.0
12.891,-0.137,-0.863,0.0
12.027,-0.129,-0.876,0.0
11.318,-0.123,-0.891,0.0
10.655,-0.117,-0.901,0.0
14.716,-0.166,-0.838,0.0
13.503,-0.154,-0.848,0.0
12.594,-0.145,-0.864,0.0
11.811,-0.137,-0.88,0.0
11.123,-0.131,-0.894,0.0
10.468,-0.125,-0.903,0.0
14.299,-0.174,-0.838,0.0
13.275,-0.163,-0.855,0.0
12.416,-0.154,-0.872,0.0
11.612,-0.146,-0.885,0.0
10.938,-0.139,-0.897,0.0
10.297,-0.132,-0.905,0.0
14.064,-0.184,-0.847,0.0
12.944,-0.171,-0.855,0.0
12.13,-0.162,-0.872,0.0
11.412,-0.154,-0.888,0.0
10.766,-0.147,-0.9,0.0
10.159,-0.14,-0.909,0.0
13.72,-0.193,-0.848,0.0
12.803,-0.182,-0.865,0.0
11.95,-0.172,-0.877,0.0
11.212,-0.163,-0.89,0.0
10.558,-0.155,-0.899,0.0
9.994,-0.148,-0.91,0.0
13.472,-0.203,-0.853,0.0
12.512,-0.19,-0.865,0.0
11.753,-0.181,-0.881,0.0
11.044,-0.171,-0.893,0.0
10.421,-0.163,-0.904,0.0
9.839,-0.156,-0.911,0.0
13.127,-0.211,-0.851,0.0
12.339,-0.2,-0.872,0.0
11.551,-0.189,-0.883,0.0
10.885,-0.18,-0.897,0.0
10.282,-0.172,-0.907,0.0
9.723,-0.164,-0.914,0.0
12.945,-0.221,-0.858,0.0
12.053,-0.208,-0.869,0.0
11.407,-0.199,-0.889,0.0
10.735,-0.189,-0.9,0.0
10.126,-0.18,-0.908,0.0
9.591,-0.172,-0.916,0.0
12.753,-0.232,-0.864,0.0
11.911,-0.218,-0.876,0.0
11.229,-0.208,-0.891,0.0
10.562,-0.197,-0.9,0.0
9.99,-0.188,-0.91,0.0
9.499,-0.18,-0.921,0.0
12.559,-0.242,-0.868,0.0
11.71,-0.227,-0.877,0.0
11.062,-0.217,-0.893,0.0
10.427,-0.206,-0.903,0.0
9.838,-0.196,-0.91,0.0
9.335,-0.187,-0.918,0.0
12.313,-0.25,-0.868,0.0
11.522,-0.236,-0.879,0.0
10.922,-0.226,-0.897,0.0
10.276,-0.214,-0.904,0.0
9.728,-0.204,-0.913,0.0
9.205,-0.195,-0.917,0.0
12.142,-0.261,-0.872,0.0
11.412,-0.247,-0.885,0.0
10.756,-0.234,-0.897,0.0
10.147,-0.223,-0.906,0.0
9.628,-0.213,-0.916,0.0
9.122,-0.204,-0.921,0.0
11.934,-0.27,-0.872,0.0
11.237,-0.256,-0.886,0.0
10.611,-0.243,-0.898,0.0
10.031,-0.232,-0.909,0.0
9.527,-0.222,-0.918,0.0
9.023,-0.212,-0.922,0.0
11.769,-0.28,-0.875,0.0
11.115,-0.266,-0.891,0.0
10.497,-0.253,-0.902,0.0
9.912,-0.241,-0.91,0.0
9.412,-0.231,-0.919,0.0
8.919,-0.22,-0.923,0.0
11.689,-0.291,-0.883,0.0
11.012,-0.277,-0.896,0.0
10.351,-0.262,-0.902,0.0
9.8,-0.25,-0.912,0.0
9.297,-0.239,-0.919,0.0
8.844,-0.229,-0.926,0.0
11.49,-0.3,-0.882,0.0
10.897,-0.287,-0.899,0.0
10.239,-0.271,-0.904,0.0
9.678,-0.258,-0.912,0.0
9.228,-0.248,-0.923,0.0
8.737,-0.237,-0.925,0.0
11.38,-0.311,-0.886,0.0
10.721,-0.295,-0.897,0.0
10.131,-0.281,-0.906,0.0
9.6,-0.268,-0.915,0.0
9.115,-0.256,-0.922,0.0
8.682,-0.246,-0.929,0.0
11.229,-0.321,-0.887,0.0
10.621,-0.305,-0.9,0.0
10.028,-0.29,-0.908,0.0
9.522,-0.278,-0.918,0.0
9.038,-0.265,-0.924,0.0
8.61,-0.255,-0.93,0.0
11.141,-0.332,-0.892,0.0
10.492,-0.315,-0.9,0.0
9.933,-0.3,-0.91,0.0
9.443,-0.287,-0.92,0.0
8.954,-0.274,-0.924,0.0
8.532,-0.263,-0.93,0.0
11.042,-0.343,-0.895,0.0
10.405,-0.325,-0.903,0.0
9.839,-0.31,-0.911,0.0
9.364,-0.296,-0.922,0.0
8.892,-0.283,-0.927,0.0
8.437,-0.271,-0.928,0.0
10.928,-0.353,-0.896,0.0
10.314,-0.335,-0.905,0.0
9.753,-0.319,-0.912,0.0
9.309,-0.307,-0.926,0.0
8.8,-0.292,-0.926,0.0
8.375,-0.279,-0.93,0.0
10.775,-0.362,-0.894,0.0
10.225,-0.345,-0.907,0.0
9.669,-0.329,-0.913,0.0
9.22,-0.315,-0.925,0.0
8.745,-0.301,-0.928,0.0
8.332,-0.289,-0.932,0.0
10.722,-0.374,-0.899,0.0
10.132,-0.355,-0.908,0.0
9.599,-0.339,-0.915,0.0
9.095,-0.323,-0.92,0.0
8.692,-0.311,-0.93,0.0
8.251,-0.297,-0.93,0.0
10.615,-0.384,-0.899,0.0
10.049,-0.365,-0.909,0.0
9.509,-0.348,-0.915,0.0
9.046,-0.333,-0.923,0.0
8.634,-0.32,-0.931,0.0
8.202,-0.305,-0.932,0.0
10.517,-0.394,-0.899,0.0
9.998,-0.376,-0.912,0.0
9.469,-0.359,-0.918,0.0
8.982,-0.342,-0.923,0.0
8.554,-0.328,-0.929,0.0
8.17,-0.315,-0.934,0.0
10.454,-0.405,-0.901,0.0
9.92,-0.386,-0.912,0.0
9.398,-0.368,-0.918,0.0
8.922,-0.351,-0.924,0.0
8.495,-0.337,-0.929,0.0
8.133,-0.324,-0.936,0.0
10.415,-0.417,-0.905,0.0
9.841,-0.396,-0.912,0.0
9.344,-0.378,-0.919,0.0
8.888,-0.362,-0.926,0.0
8.466,-0.347,-0.931,0.0
8.096,-0.333,-0.937,0.0
10.322,-0.427,-0.904,0.0
9.765,-0.406,-0.912,0.0
9.292,-0.388,-0.92,0.0
8.817,-0.371,-0.925,0.0
8.436,-0.357,-0.933,0.0
8.045,-0.342,-0.936,0.0
10.252,-0.437,-0.905,0.0
9.755,-0.418,-0.917,0.0
9.228,-0.398,-0.92,0.0
8.818,-0.382,-0.93,0.0
8.381,-0.365,-0.932,0.0
8.017,-0.351,-0.938,0.0
10.199,-0.448,-0.906,0.0
9.659,-0.427,-0.913,0.0
9.196,-0.409,-0.922,0.0
8.761,-0.391,-0.929,0.0
8.333,-0.374,-0.932,0.0
7.985,-0.361,-0.939,0.0
10.157,-0.46,-0.908,0.0
9.634,-0.439,-0.916,0.0
9.177,-0.42,-0.925,0.0
8.699,-0.4,-0.927,0.0
8.327,-0.385,-0.935,0.0
7.949,-0.369,-0.938,0.0
10.103,-0.471,-0.908,0.0
9.582,-0.449,-0.915,0.0
9.122,-0.429,-0.923,0.0
8.664,-0.41,-0.928,0.0
8.273,-0.393,-0.933,0.0
7.923,-0.379,-0.939,0.0
10.042,-0.481,-0.907,0.0
9.55,-0.46,-0.917,0.0
9.087,-0.44,-0.924,0.0
8.639,-0.42,-0.929,0.0
8.25,-0.403,-0.934,0.0
7.889,-0.387,-0.938,0.0
10.022,-0.493,-0.909,0.0
9.512,-0.47,-0.917,0.0
9.061,-0.45,-0.925,0.0
8.61,-0.43,-0.929,0.0
8.207,-0.412,-0.932,0.0
7.87,-0.397,-0.939,0.0
9.995,-0.505,-0.91,0.0
9.488,-0.482,-0.918,0.0
8.997,-0.459,-0.921,0.0
8.592,-0.44,-0.93,0.0
8.204,-0.423,-0.935,0.0
7.859,-0.407,-0.94,0.0
9.995,-0.518,-0.913,0.0
9.461,-0.493,-0.918,0.0
8.985,-0.47,-0.923,0.0
8.565,-0.45,-0.929,0.0
8.189,-0.433,-0.935,0.0
7.843,-0.416,-0.94,0.0
9.935,-0.528,-0.91,0.0
9.442,-0.504,-0.919,0.0
8.976,-0.481,-0.924,0.0
8.518,-0.459,-0.926,0.0
8.169,-0.442,-0.935,0.0
7.833,-0.426,-0.941,0.0
9.924,-0.54,-0.912,0.0
9.426,-0.515,-0.919,0.0
8.967,-0.493,-0.925,0.0
8.553,-0.472,-0.932,0.0
8.165,-0.452,-0.936,0.0
7.821,-0.435,-0.941,0.0
9.903,-0.552,-0.911,0.0
9.411,-0.527,-0.919,0.0
8.932,-0.502,-0.923,0.0
8.531,-0.482,-0.931,0.0
8.157,-0.463,-0.936,0.0
7.795,-0.444,-0.939,0.0
9.904,-0.564,-0.913,0.0
9.402,-0.538,-0.92,0.0
8.947,-0.514,-0.926,0.0
8.544,-0.493,-0.933,0.0
8.143,-0.472,-0.935,0.0
7.775,-0.453,-0.937,0.0
9.904,-0.577,-0.914,0.0
9.391,-0.549,-0.919,0.0
8.929,-0.525,-0.924,0.0
8.539,-0.504,-0.933,0.0
8.141,-0.482,-0.936,0.0
7.802,-0.464,-0.941,0.0
9.892,-0.589,-0.913,0.0
9.385,-0.561,-0.919,0.0
8.941,-0.537,-0.926,0.0
8.541,-0.515,-0.934,0.0
8.153,-0.493,-0.937,0.0
7.814,-0.475,-0.943,0.0
9.903,-0.602,-0.914,0.0
9.387,-0.573,-0.919,0.0
8.932,-0.547,-0.925,0.0
8.55,-0.526,-0.934,0.0
8.135,-0.502,-0.935,0.0
7.819,-0.485,-0.943,0.0
9.906,-0.614,-0.914,0.0
9.394,-0.585,-0.919,0.0
8.956,-0.56,-0.927,0.0
8.559,-0.537,-0.935,0.0
8.147,-0.513,-0.936,0.0
7.779,-0.492,-0.937,0.0
9.909,-0.626,-0.913,0.0
9.367,-0.594,-0.916,0.0
8.942,-0.57,-0.924,0.0
8.572,-0.548,-0.935,0.0
8.153,-0.523,-0.935,0.0
7.79,-0.502,-0.938,0.0
9.915,-0.639,-0.913,0.0
9.424,-0.609,-0.92,0.0
8.96,-0.581,-0.925,0.0
8.561,-0.558,-0.933,0.0
8.175,-0.535,-0.937,0.0
7.814,-0.513,-0.939,0.0
9.943,-0.652,-0.913,0.0
9.438,-0.621,-0.92,0.0
8.983,-0.594,-0.926,0.0
8.558,-0.568,-0.931,0.0
8.15,-0.542,-0.932,0.0
7.832,-0.523,-0.94,0.0
9.965,-0.665,-0.913,0.0
9.437,-0.632,-0.918,0.0
8.994,-0.605,-0.925,0.0
8.591,-0.58,-0.932,0.0
8.21,-0.556,-0.937,0.0
7.84,-0.533,-0.939,0.0
9.996,-0.679,-0.914,0.0
9.515,-0.649,-0.923,0.0
9.03,-0.618,-0.926,0.0
8.606,-0.591,-0.931,0.0
8.218,-0.566,-0.935,0.0
7.864,-0.544,-0.939,0.0
10.026,-0.692,-0.913,0.0
9.522,-0.66,-0.92,0.0
9.077,-0.631,-0.928,0.0
8.637,-0.603,-0.932,0.0
8.247,-0.577,-0.936,0.0
7.846,-0.551,-0.934,0.0
10.034,-0.704,-0.911,0.0
9.513,-0.67,-0.916,0.0
9.099,-0.643,-0.927,0.0
8.648,-0.613,-0.93,0.0
8.282,-0.589,-0.937,0.0
7.914,-0.565,-0.939,0.0
10.068,-0.718,-0.91,0.0
9.612,-0.687,-0.922,0.0
9.148,-0.656,-0.928,0.0
8.716,-0.627,-0.934,0.0
8.303,-0.599,-0.936,0.0
7.922,-0.574,-0.937,0.0
10.135,-0.733,-0.912,0.0
9.617,-0.698,-0.918,0.0
9.16,-0.667,-0.925,0.0
8.722,-0.637,-0.93,0.0
8.334,-0.61,-0.935,0.0
7.974,-0.586,-0.939,0.0
10.161,-0.746,-0.909,0.0
9.672,-0.712,-0.919,0.0
9.243,-0.682,-0.929,0.0
8.789,-0.651,-0.933,0.0
8.366,-0.621,-0.935,0.0
7.967,-0.594,-0.935,0.0
10.214,-0.76,-0.909,0.0
9.711,-0.725,-0.918,0.0
9.269,-0.694,-0.927,0.0
8.79,-0.66,-0.929,0.0
8.389,-0.632,-0.933,0.0
8.058,-0.609,-0.941,0.0
10.277,-0.775,-0.909,0.0
9.794,-0.741,-0.92,0.0
9.299,-0.705,-0.925,0.0
8.859,-0.674,-0.931,0.0
8.409,-0.641,-0.93,0.0
8.049,-0.616,-0.935,0.0
10.376,-0.793,-0.912,0.0
9.833,-0.753,-0.918,0.0
9.345,-0.718,-0.924,0.0
8.888,-0.685,-0.929,0.0
8.495,-0.656,-0.935,0.0
8.082,-0.626,-0.934,0.0
10.435,-0.807,-0.91,0.0
9.894,-0.767,-0.917,0.0
9.397,-0.731,-0.923,0.0
8.971,-0.7,-0.932,0.0
8.55,-0.669,-0.935,0.0
8.129,-0.637,-0.934,0.0
10.511,-0.823,-0.91,0.0
9.99,-0.784,-0.92,0.0
9.461,-0.744,-0.923,0.0
9.03,-0.712,-0.931,0.0
8.599,-0.68,-0.934,0.0
8.186,-0.649,-0.935,0.0
10.58,-0.838,-0.909,0.0
10.024,-0.796,-0.916,0.0
9.534,-0.759,-0.923,0.0
9.062,-0.723,-0.928,0.0
8.644,-0.691,-0.933,0.0
8.213,-0.659,-0.932,0.0
10.634,-0.851,-0.905,0.0
10.068,-0.808,-0.912,0.0
9.555,-0.768,-0.918,0.0
9.107,-0.734,-0.926,0.0
8.699,-0.703,-0.932,0.0
8.282,-0.671,-0.933,0.0
10.708,-0.866,-0.904,0.0
10.07,-0.816,-0.905,0.0
9.649,-0.784,-0.92,0.0
9.172,-0.747,-0.925,0.0
8.784,-0.717,-0.934,0.0
8.378,-0.686,-0.937,0.0
10.803,-0.882,-0.903,0.0
10.234,-0.838,-0.911,0.0
9.707,-0.796,-0.917,0.0
9.257,-0.761,-0.926,0.0
8.838,-0.729,-0.933,0.0
8.415,-0.695,-0.934,0.0
10.978,-0.905,-0.908,0.0
10.288,-0.85,-0.907,0.0
9.811,-0.812,-0.919,0.0
9.328,-0.774,-0.925,0.0
8.888,-0.739,-0.93,0.0
8.488,-0.708,-0.935,0.0
11.039,-0.918,-0.904,0.0
10.406,-0.867,-0.909,0.0
9.919,-0.829,-0.92,0.0
9.419,-0.789,-0.926,0.0
8.982,-0.753,-0.932,0.0
8.533,-0.717,-0.932,0.0
11.117,-0.933,-0.9,0.0
10.533,-0.885,-0.91,0.0
9.989,-0.841,-0.917,0.0
9.494,-0.801,-0.925,0.0
9.075,-0.768,-0.933,0.0
8.614,-0.73,-0.933,0.0
11.178,-0.945,-0.895,0.0
10.565,-0.895,-0.903,0.0
10.113,-0.859,-0.919,0.0
9.531,-0.811,-0.919,0.0
9.131,-0.778,-0.93,0.0
8.721,-0.745,-0.936,0.0
11.36,-0.968,-0.898,0.0
10.664,-0.91,-0.901,0.0
10.232,-0.875,-0.92,0.0
9.615,-0.824,-0.918,0.0
9.208,-0.79,-0.929,0.0
8.789,-0.756,-0.935,0.0
11.487,-0.986,-0.897,0.0
10.778,-0.927,-0.9,0.0
10.288,-0.886,-0.915,0.0
9.659,-0.833,-0.912,0.0
9.358,-0.809,-0.934,0.0
8.878,-0.769,-0.935,0.0
11.543,-0.997,-0.89,0.0
11.004,-0.952,-0.907,0.0
10.425,-0.904,-0.916,0.0
9.745,-0.846,-0.91,0.0
9.428,-0.82,-0.931,0.0
8.976,-0.782,-0.936,0.0
11.809,-1.027,-0.898,0.0
11.059,-0.963,-0.9,0.0
10.508,-0.916,-0.912,0.0
9.88,-0.863,-0.912,0.0
9.477,-0.829,-0.926,0.0
9.064,-0.794,-0.935,0.0
11.958,-1.045,-0.896,0.0
11.213,-0.982,-0.901,0.0
10.656,-0.934,-0.913,0.0
10.106,-0.887,-0.922,0.0
9.573,-0.842,-0.925,0.0
9.128,-0.804,-0.931,0.0
12.065,-1.06,-0.891,0.0
11.353,-0.999,-0.899,0.0
10.704,-0.943,-0.905,0.0
10.214,-0.901,-0.92,0.0
9.65,-0.853,-0.921,0.0
9.222,-0.816,-0.93,0.0
12.218,-1.079,-0.888,0.0
11.505,-1.017,-0.898,0.0
10.951,-0.97,-0.914,0.0
10.277,-0.911,-0.914,0.0
9.67,-0.858,-0.912,0.0
9.343,-0.83,-0.932,0.0
12.395,-1.099,-0.887,0.0
11.608,-1.031,-0.893,0.0
11.017,-0.979,-0.906,0.0
10.465,-0.931,-0.918,0.0
9.685,-0.863,-0.902,0.0
9.391,-0.838,-0.925,0.0
12.579,-1.12,-0.885,0.0
11.785,-1.05,-0.892,0.0
11.116,-0.992,-0.901,0.0
10.523,-0.94,-0.911,0.0
10.035,-0.897,-0.922,0.0
9.535,-0.854,-0.928,0.0
12.753,-1.139,-0.882,0.0
12.067,-1.079,-0.899,0.0
11.27,-1.009,-0.9,0.0
10.704,-0.959,-0.913,0.0
10.169,-0.912,-0.922,0.0
9.661,-0.867,-0.928,0.0
12.847,-1.151,-0.873,0.0
12.154,-1.09,-0.89,0.0
11.482,-1.031,-0.903,0.0
10.809,-0.971,-0.909,0.0
10.275,-0.924,-0.919,0.0
9.783,-0.881,-0.927,0.0
13.099,-1.177,-0.873,0.0
12.266,-1.103,-0.883,0.0
11.623,-1.046,-0.899,0.0
10.981,-0.989,-0.909,0.0
10.428,-0.94,-0.919,0.0
9.874,-0.891,-0.923,0.0
13.321,-1.199,-0.871,0.0
12.424,-1.119,-0.879,0.0
11.735,-1.058,-0.893,0.0
11.072,-0.999,-0.903,0.0
10.515,-0.949,-0.913,0.0
10.01,-0.904,-0.923,0.0
13.624,-1.228,-0.873,0.0
12.677,-1.143,-0.88,0.0
11.974,-1.081,-0.895,0.0
11.265,-1.017,-0.904,0.0
10.699,-0.967,-0.915,0.0
10.117,-0.915,-0.92,0.0
13.881,-1.253,-0.872,0.0
12.856,-1.161,-0.876,0.0
12.169,-1.099,-0.894,0.0
11.441,-1.034,-0.903,0.0
10.792,-0.976,-0.909,0.0
10.265,-0.929,-0.92,0.0
14.139,-1.277,-0.869,0.0
13.129,-1.186,-0.877,0.0
12.282,-1.11,-0.886,0.0
11.587,-1.048,-0.898,0.0
10.963,-0.992,-0.909,0.0
10.443,-0.945,-0.921,0.0
14.391,-1.3,-0.866,0.0
13.364,-1.207,-0.875,0.0
12.494,-1.129,-0.884,0.0
11.84,-1.07,-0.902,0.0
11.135,-1.007,-0.908,0.0
10.529,-0.952,-0.914,0.0
14.665,-1.324,-0.862,0.0
13.676,-1.235,-0.877,0.0
12.669,-1.144,-0.879,0.0
11.997,-1.084,-0.898,0.0
11.295,-1.021,-0.905,0.0
10.695,-0.967,-0.914,0.0
14.939,-1.348,-0.858,0.0
13.948,-1.258,-0.875,0.0
12.924,-1.166,-0.879,0.0
12.156,-1.097,-0.893,0.0
11.41,-1.03,-0.899,0.0
10.828,-0.978,-0.911,0.0
15.216,-1.371,-0.853,0.0
14.188,-1.278,-0.871,0.0
13.163,-1.186,-0.877,0.0
12.329,-1.111,-0.889,0.0
11.604,-1.046,-0.898,0.0
11.023,-0.993,-0.912,0.0
15.541,-1.398,-0.85,0.0
14.433,-1.298,-0.866,0.0
13.371,-1.202,-0.873,0.0
12.509,-1.125,-0.884,0.0
11.835,-1.064,-0.899,0.0
11.1,-0.998,-0.902,0.0
15.945,-1.431,-0.85,0.0
14.731,-1.322,-0.863,0.0
13.718,-1.231,-0.876,0.0
12.735,-1.142,-0.882,0.0
12.027,-1.078,-0.897,0.0
11.356,-1.018,-0.907,0.0
16.209,-1.451,-0.841,0.0
14.911,-1.334,-0.852,0.0
13.983,-1.251,-0.873,0.0
12.876,-1.151,-0.874,0.0
12.212,-1.092,-0.893,0.0
11.517,-1.029,-0.903,0.0
16.729,-1.492,-0.844,0.0
15.343,-1.368,-0.855,0.0
14.246,-1.27,-0.869,0.0
13.125,-1.169,-0.872,0.0
12.367,-1.101,-0.887,0.0
11.648,-1.037,-0.897,0.0
17.047,-1.515,-0.836,0.0
15.663,-1.391,-0.85,0.0
14.521,-1.289,-0.865,0.0
13.482,-1.196,-0.876,0.0
12.755,-1.131,-0.896,0.0
11.917,-1.056,-0.901,0.0
17.312,-1.532,-0.824,0.0
16.107,-1.424,-0.851,0.0
14.769,-1.305,-0.859,0.0
13.812,-1.22,-0.877,0.0
12.805,-1.13,-0.881,0.0
12.128,-1.07,-0.899,0.0
17.745,-1.563,-0.819,0.0
16.404,-1.444,-0.843,0.0
15.104,-1.328,-0.856,0.0
14.084,-1.238,-0.874,0.0
12.915,-1.134,-0.87,0.0
12.278,-1.078,-0.892,0.0
18.201,-1.595,-0.814,0.0
16.908,-1.48,-0.845,0.0
15.533,-1.359,-0.858,0.0
14.326,-1.252,-0.869,0.0
13.283,-1.16,-0.876,0.0
12.37,-1.079,-0.881,0.0
18.758,-1.634,-0.812,0.0
17.114,-1.489,-0.831,0.0
15.729,-1.367,-0.846,0.0
14.592,-1.267,-0.864,0.0
13.638,-1.184,-0.879,0.0
12.644,-1.096,-0.882,0.0
19.077,-1.651,-0.798,0.0
17.599,-1.522,-0.829,0.0
16.263,-1.405,-0.852,0.0
14.819,-1.278,-0.856,0.0
13.971,-1.204,-0.881,0.0
12.959,-1.116,-0.885,0.0
19.832,-1.705,-0.801,0.0
17.807,-1.529,-0.813,0.0
16.468,-1.412,-0.839,0.0
15.154,-1.298,-0.853,0.0
14.186,-1.214,-0.874,0.0
13.149,-1.124,-0.879,0.0
20.036,-1.71,-0.781,0.0
18.585,-1.584,-0.822,0.0
16.887,-1.437,-0.836,0.0
15.534,-1.32,-0.852,0.0
14.458,-1.227,-0.869,0.0
13.451,-1.141,-0.88,0.0
20.437,-1.73,-0.767,0.0
18.802,-1.589,-0.804,0.0
17.178,-1.45,-0.825,0.0
15.807,-1.332,-0.844,0.0
14.709,-1.238,-0.863,0.0
13.812,-1.161,-0.883,0.0
21.407,-1.797,-0.772,0.0
19.4,-1.626,-0.802,0.0
17.498,-1.464,-0.815,0.0
16.267,-1.359,-0.845,0.0
15.112,-1.26,-0.865,0.0
14.033,-1.169,-0.877,0.0
21.891,-1.82,-0.758,0.0
19.913,-1.653,-0.794,1.0
17.972,-1.489,-0.811,0.0
16.696,-1.381,-0.843,0.0
15.308,-1.264,-0.854,0.0
14.307,-1.18,-0.873,0.0
22.542,-1.856,-0.748,0.0
20.205,-1.661,-0.777,0.0
18.476,-1.516,-0.807,0.0
16.931,-1.387,-0.831,0.0
15.665,-1.281,-0.851,0.0
14.56,-1.188,-0.868,0.0
23.399,-1.907,-0.743,0.0
21.016,-1.709,-0.777,0.0
18.991,-1.541,-0.802,0.0
17.437,-1.413,-0.83,0.0
16.112,-1.303,-0.852,0.0
14.827,-1.197,-0.862,0.0
24.101,-1.942,-0.73,0.0
21.572,-1.735,-0.767,0.0
19.65,-1.577,-0.802,0.0
17.841,-1.429,-0.824,0.0
