X,Y,Z,Reflectivity
40.411,-4.219,3.346,26.0
48.716,-5.074,3.766,18.0
49.338,-5.128,3.543,25.0
107.274,-11.125,7.107,13.0
107.581,-11.133,6.537,18.0
108.045,-11.157,5.975,18.0
40.337,-4.171,3.367,35.0
48.244,-4.977,3.762,22.0
49.381,-5.082,3.579,23.0
107.272,-11.015,7.176,16.0
107.527,-11.016,6.604,22.0
108.094,-11.051,6.046,17.0
40.334,-4.129,3.392,38.0
48.011,-4.903,3.774,20.0
49.482,-5.041,3.617,22.0
49.468,-5.027,3.339,13.0
107.814,-10.932,6.687,12.0
108.001,-10.926,6.106,26.0
40.495,-4.102,3.43,36.0
45.766,-4.624,3.625,14.0
49.469,-4.987,3.645,19.0
49.576,-4.985,3.375,14.0
109.853,-11.02,6.875,19.0
107.888,-10.796,6.161,27.0
40.478,-4.056,3.452,27.0
45.711,-4.568,3.646,18.0
107.113,-10.678,7.953,14.0
49.515,-4.923,3.398,12.0
110.025,-10.913,6.946,20.0
107.932,-10.679,6.222,26.0
40.39,-4.002,3.466,21.0
107.009,-10.574,8.591,16.0
49.731,-4.901,3.718,10.0
49.722,-4.887,3.438,4.0
110.36,-10.82,7.023,9.0
108.409,-10.601,6.303,19.0
46.027,-4.506,3.973,6.0
47.658,-4.653,3.85,3.0
107.289,-10.447,8.074,12.0
107.752,-10.464,7.503,14.0
110.359,-10.688,7.075,9.0
108.77,-10.507,6.374,14.0
47.965,-4.639,4.162,10.0
107.877,-10.404,8.763,14.0
0.0,0.0,0.0,0.0
107.624,-10.322,7.541,20.0
107.233,-10.256,6.921,16.0
0.0,0.0,0.0,0.0
48.154,-4.599,4.199,16.0
48.304,-4.6,3.944,8.0
106.116,-10.076,8.076,16.0
107.334,-10.162,7.564,18.0
107.253,-10.126,6.965,23.0
108.833,-10.248,6.466,16.0
48.54,-4.575,4.252,23.0
48.273,-4.536,3.96,21.0
106.037,-9.937,8.109,8.0
107.186,-10.015,7.592,14.0
107.555,-10.02,7.023,17.0
109.032,-10.13,6.515,20.0
48.323,-4.494,4.249,5.0
48.415,-4.489,3.988,7.0
108.449,-10.024,8.33,16.0
106.369,-9.802,7.569,17.0
107.469,-9.874,7.052,17.0
109.332,-10.016,6.568,17.0
47.799,-4.383,4.218,30.0
48.449,-4.429,4.005,15.0
108.66,-9.903,8.378,17.0
106.439,-9.67,7.604,14.0
107.42,-9.729,7.079,19.0
109.895,-9.924,6.632,18.0
47.567,-4.299,4.21,25.0
48.407,-4.361,4.015,13.0
108.667,-9.76,8.407,7.0
106.392,-9.525,7.628,17.0
107.017,-9.551,7.078,22.0
110.073,-9.792,6.67,16.0
47.607,-4.239,4.225,23.0
106.989,-9.496,8.897,13.0
111.397,-9.855,8.643,21.0
109.537,-9.66,7.876,7.0
106.954,-9.401,7.096,25.0
105.34,-9.23,6.403,10.0
47.512,-4.166,4.226,15.0
106.902,-9.341,8.91,5.0
111.323,-9.695,8.657,7.0
109.555,-9.509,7.897,13.0
107.03,-9.259,7.118,18.0
105.318,-9.081,6.418,8.0
47.532,-4.101,4.235,47.0
106.713,-9.176,8.909,17.0
109.145,-9.353,8.502,11.0
109.06,-9.315,7.875,17.0
106.944,-9.103,7.126,18.0
105.399,-8.942,6.435,15.0
47.585,-4.039,4.245,18.0
106.503,-9.008,8.904,28.0
108.239,-9.123,8.443,8.0
111.548,-9.369,8.065,15.0
104.678,-8.761,6.983,25.0
105.346,-8.789,6.44,21.0
47.598,-3.973,4.249,12.0
106.641,-8.869,8.921,21.0
108.207,-8.968,8.446,18.0
107.858,-8.906,7.803,7.0
104.709,-8.615,6.989,20.0
105.313,-8.635,6.442,28.0
47.627,-3.907,4.253,11.0
106.641,-8.717,8.925,21.0
107.208,-8.73,8.37,16.0
106.618,-8.65,7.715,19.0
104.793,-8.471,6.995,18.0
105.547,-8.502,6.456,20.0
106.844,-8.608,9.541,20.0
106.848,-8.576,8.94,21.0
107.613,-8.605,8.398,15.0
106.327,-8.47,7.69,23.0
104.827,-8.319,6.994,28.0
106.952,-8.456,6.536,22.0
19.758,0.035,0.131,15.0
19.754,0.036,0.016,18.0
19.752,0.038,-0.098,16.0
19.744,0.039,-0.216,17.0
19.766,0.041,-0.332,11.0
19.783,0.042,-0.448,40.0
19.76,0.043,0.09,16.0
19.757,0.045,-0.025,150.0
19.753,0.046,-0.14,40.0
19.762,0.048,-0.258,26.0
19.781,0.049,-0.374,25.0
19.776,0.051,-0.489,30.0
19.751,0.051,0.048,27.0
19.769,0.053,-0.066,60.0
19.759,0.054,-0.182,40.0
19.777,0.056,-0.3,32.0
19.78,0.057,-0.416,38.0
19.782,0.058,-0.531,35.0
19.764,0.059,0.007,62.0
19.774,0.06,-0.108,62.0
19.765,0.061,-0.224,36.0
19.771,0.062,-0.341,35.0
19.78,0.064,-0.457,45.0
19.803,0.065,-0.573,22.0
19.775,0.065,-0.034,38.0
19.771,0.066,-0.15,40.0
19.773,0.068,-0.265,30.0
19.779,0.069,-0.383,24.0
19.783,0.07,-0.499,15.0
19.78,0.071,-0.614,12.0
19.771,0.071,-0.075,24.0
19.767,0.072,-0.191,19.0
19.773,0.073,-0.307,13.0
19.772,0.074,-0.424,13.0
19.786,0.075,-0.541,8.0
19.79,0.076,-0.656,5.0
19.768,0.076,-0.117,13.0
19.768,0.077,-0.233,9.0
19.775,0.078,-0.349,9.0
19.775,0.079,-0.466,6.0
19.788,0.08,-0.583,2.0
19.805,0.081,-0.699,2.0
19.767,0.08,-0.159,7.0
19.777,0.081,-0.275,3.0
19.783,0.082,-0.391,2.0
19.785,0.083,-0.509,1.0
19.799,0.084,-0.625,0.0
19.751,0.084,-0.74,5.0
19.783,0.084,-0.201,1.0
19.769,0.085,-0.317,1.0
19.78,0.086,-0.433,1.0
19.758,0.086,-0.55,0.0
19.855,0.087,-0.669,0.0
19.608,0.087,-0.776,1.0
19.787,0.087,-0.243,0.0
19.786,0.087,-0.359,0.0
19.794,0.088,-0.475,0.0
19.85,0.089,-0.594,0.0
19.83,0.089,-0.71,1.0
18.855,0.086,-0.785,0.0
19.804,0.089,-0.285,0.0
19.797,0.089,-0.4,0.0
25.092,0.114,-0.655,0.0
19.914,0.091,-0.638,0.0
19.746,0.091,-0.748,3.0
18.183,0.084,-0.796,0.0
19.742,0.09,-0.325,0.0
19.774,0.091,-0.442,0.0
24.525,0.113,-0.691,0.0
20.203,0.093,-0.69,0.0
19.45,0.09,-0.778,0.0
17.444,0.081,-0.8,0.0
19.76,0.091,-0.367,0.0
26.452,0.122,-0.647,0.0
23.197,0.107,-0.703,0.0
19.818,0.092,-0.718,2.0
18.652,0.087,-0.785,0.0
16.899,0.079,-0.81,0.0
19.79,0.091,-0.409,0.0
24.939,0.115,-0.661,0.0
22.05,0.101,-0.714,0.0
19.698,0.091,-0.755,3.0
17.985,0.083,-0.795,0.0
16.276,0.075,-0.814,0.0
19.763,0.09,-0.449,0.0
24.086,0.109,-0.688,0.0
20.305,0.092,-0.699,0.0
19.203,0.087,-0.775,0.0
17.296,0.079,-0.8,0.0
15.773,0.072,-0.822,0.0
19.804,0.088,-0.491,0.0
19.757,0.088,-0.605,0.0
19.784,0.088,-0.722,3.0
18.528,0.082,-0.786,0.0
16.773,0.075,-0.81,0.0
15.347,0.068,-0.831,0.0
19.804,0.086,-0.532,0.0
19.804,0.086,-0.648,0.0
19.706,0.085,-0.76,2.0
17.85,0.077,-0.795,0.0
16.062,0.069,-0.809,0.0
14.819,0.064,-0.834,0.0
19.787,0.083,-0.572,1.0
19.823,0.083,-0.689,2.0
19.151,0.079,-0.778,0.0
17.209,0.071,-0.802,0.0
15.699,0.065,-0.823,0.0
14.448,0.059,-0.842,0.0
19.794,0.079,-0.613,5.0
19.766,0.078,-0.728,5.0
18.347,0.072,-0.783,0.0
16.603,0.065,-0.807,0.0
15.268,0.06,-0.832,0.0
14.005,0.054,-0.845,0.0
19.798,0.074,-0.653,10.0
19.729,0.074,-0.767,3.0
17.709,0.065,-0.792,0.0
16.064,0.059,-0.814,0.0
14.661,0.054,-0.829,1.0
13.645,0.049,-0.851,0.0
19.792,0.069,-0.693,13.0
19.046,0.066,-0.778,0.0
17.233,0.059,-0.805,0.0
15.633,0.053,-0.824,0.0
14.361,0.048,-0.84,0.0
13.297,0.044,-0.856,0.0
19.773,0.063,-0.732,10.0
18.445,0.058,-0.79,0.0
16.582,0.052,-0.808,0.0
15.109,0.046,-0.826,0.0
13.954,0.042,-0.844,0.0
13.002,0.039,-0.863,0.0
19.753,0.056,-0.77,7.0
17.617,0.049,-0.79,0.0
16.061,0.044,-0.814,0.0
14.682,0.04,-0.831,0.0
13.626,0.037,-0.851,0.0
12.67,0.033,-0.866,0.0
18.977,0.047,-0.777,1.0
17.121,0.042,-0.801,0.0
15.59,0.037,-0.821,0.0
14.315,0.033,-0.839,0.0
13.297,0.03,-0.857,0.0
12.425,0.028,-0.874,0.0
18.432,0.038,-0.79,0.0
16.616,0.033,-0.81,0.0
15.226,0.03,-0.831,0.0
13.936,0.027,-0.844,0.0
12.974,0.024,-0.861,0.0
12.135,0.022,-0.877,0.0
17.688,0.029,-0.793,0.0
15.956,0.025,-0.808,0.0
14.812,0.022,-0.837,0.0
13.591,0.02,-0.849,0.0
12.678,0.018,-0.866,0.0
11.882,0.016,-0.881,0.0
17.169,0.019,-0.802,0.0
15.626,0.017,-0.821,0.0
14.347,0.015,-0.838,0.0
13.291,0.013,-0.855,0.0
12.408,0.011,-0.871,0.0
11.634,0.01,-0.885,0.0
16.573,0.01,-0.805,0.0
15.278,0.009,-0.832,0.0
14.004,0.007,-0.844,0.0
13.003,0.006,-0.861,0.0
12.173,0.004,-0.877,0.0
11.422,0.003,-0.89,0.0
16.011,0.001,-0.808,0.0
14.839,0.0,-0.835,0.0
13.637,0.0,-0.847,0.0
12.732,-0.001,-0.867,0.0
11.9,-0.001,-0.88,0.0
11.182,-0.002,-0.892,0.0
15.736,-0.007,-0.823,0.0
14.322,-0.007,-0.832,0.0
13.371,-0.008,-0.855,0.0
12.435,-0.008,-0.869,0.0
11.675,-0.008,-0.884,0.0
10.97,-0.009,-0.895,0.0
15.276,-0.016,-0.826,0.0
14.008,-0.015,-0.839,0.0
13.033,-0.015,-0.857,0.0
12.198,-0.015,-0.875,0.0
11.452,-0.015,-0.888,0.0
10.769,-0.015,-0.899,0.0
15.018,-0.025,-0.839,0.0
13.724,-0.024,-0.847,0.0
12.782,-0.023,-0.864,0.0
11.954,-0.023,-0.879,0.0
11.221,-0.022,-0.891,0.0
10.582,-0.022,-0.902,0.0
14.486,-0.034,-0.835,0.0
13.406,-0.033,-0.851,0.0
12.5,-0.031,-0.867,0.0
11.723,-0.03,-0.882,0.0
11.02,-0.03,-0.894,0.0
10.377,-0.029,-0.903,0.0
14.106,-0.043,-0.838,0.0
13.142,-0.041,-0.857,0.0
12.27,-0.039,-0.872,0.0
11.505,-0.038,-0.886,0.0
10.823,-0.037,-0.897,0.0
10.222,-0.036,-0.907,0.0
13.837,-0.052,-0.846,0.0
12.874,-0.05,-0.862,0.0
12.05,-0.048,-0.877,0.0
11.292,-0.046,-0.889,0.0
10.653,-0.044,-0.901,0.0
10.042,-0.043,-0.908,0.0
13.505,-0.061,-0.848,0.0
12.6,-0.058,-0.865,0.0
11.815,-0.056,-0.88,0.0
11.109,-0.054,-0.893,0.0
10.45,-0.052,-0.901,0.0
9.89,-0.05,-0.911,0.0
13.262,-0.07,-0.855,0.0
12.387,-0.067,-0.87,0.0
11.628,-0.064,-0.885,0.0
10.896,-0.061,-0.894,0.0
10.301,-0.059,-0.905,0.0
9.724,-0.057,-0.912,0.0
13.003,-0.08,-0.859,0.0
12.181,-0.076,-0.876,0.0
11.427,-0.073,-0.888,0.0
10.726,-0.069,-0.897,0.0
10.157,-0.067,-0.909,0.0
9.594,-0.064,-0.915,0.0
12.747,-0.089,-0.862,0.0
11.922,-0.085,-0.876,0.0
11.22,-0.081,-0.89,0.0
10.573,-0.077,-0.901,0.0
9.965,-0.074,-0.908,0.0
9.452,-0.071,-0.916,0.0
12.498,-0.098,-0.865,0.0
11.765,-0.094,-0.883,0.0
11.046,-0.089,-0.893,0.0
10.424,-0.086,-0.905,0.0
9.869,-0.082,-0.914,0.0
9.352,-0.079,-0.921,0.0
12.292,-0.108,-0.87,0.0
11.535,-0.102,-0.883,0.0
10.868,-0.098,-0.895,0.0
10.251,-0.094,-0.905,0.0
9.683,-0.09,-0.912,0.0
9.193,-0.086,-0.919,0.0
12.114,-0.117,-0.875,0.0
11.362,-0.111,-0.887,0.0
10.696,-0.106,-0.897,0.0
10.108,-0.102,-0.908,0.0
9.579,-0.098,-0.916,0.0
9.064,-0.094,-0.92,0.0
11.908,-0.126,-0.877,0.0
11.188,-0.12,-0.889,0.0
10.552,-0.115,-0.9,0.0
9.947,-0.109,-0.908,0.0
9.456,-0.106,-0.918,0.0
8.961,-0.101,-0.922,0.0
11.721,-0.136,-0.88,0.0
11.025,-0.129,-0.892,0.0
10.42,-0.123,-0.904,0.0
9.819,-0.118,-0.91,0.0
9.327,-0.113,-0.919,0.0
8.86,-0.109,-0.924,0.0
11.544,-0.145,-0.883,0.0
10.886,-0.138,-0.896,0.0
10.268,-0.132,-0.905,0.0
9.675,-0.126,-0.91,0.0
9.144,-0.12,-0.913,0.0
8.736,-0.116,-0.923,0.0
11.377,-0.154,-0.886,0.0
10.71,-0.147,-0.896,0.0
10.148,-0.141,-0.908,0.0
9.58,-0.134,-0.914,0.0
9.087,-0.129,-0.92,0.0
8.633,-0.124,-0.924,0.0
11.221,-0.164,-0.888,0.0
10.582,-0.156,-0.899,0.0
10.005,-0.149,-0.908,0.0
9.487,-0.143,-0.917,0.0
9.008,-0.137,-0.923,0.0
8.577,-0.132,-0.929,0.0
11.065,-0.173,-0.89,0.0
10.456,-0.165,-0.902,0.0
9.874,-0.158,-0.909,0.0
9.361,-0.151,-0.917,0.0
8.887,-0.145,-0.922,0.0
8.465,-0.139,-0.928,0.0
10.943,-0.183,-0.894,0.0
10.313,-0.174,-0.902,0.0
9.757,-0.166,-0.91,0.0
9.219,-0.159,-0.914,0.0
8.81,-0.153,-0.925,0.0
8.386,-0.147,-0.929,0.0
10.819,-0.193,-0.897,0.0
10.2,-0.183,-0.904,0.0
9.659,-0.175,-0.912,0.0
9.155,-0.168,-0.919,0.0
8.72,-0.161,-0.926,0.0
8.318,-0.155,-0.932,0.0
10.695,-0.202,-0.899,0.0
10.085,-0.193,-0.906,0.0
9.581,-0.185,-0.916,0.0
9.054,-0.176,-0.919,0.0
8.659,-0.17,-0.929,0.0
8.225,-0.163,-0.931,0.0
10.539,-0.211,-0.897,0.0
9.993,-0.202,-0.909,0.0
9.489,-0.193,-0.918,0.0
8.917,-0.183,-0.915,0.0
8.582,-0.178,-0.93,0.0
8.166,-0.171,-0.933,0.0
10.446,-0.221,-0.901,0.0
9.859,-0.211,-0.907,0.0
9.374,-0.202,-0.917,0.0
8.889,-0.193,-0.922,0.0
8.494,-0.186,-0.93,0.0
8.117,-0.179,-0.936,0.0
10.34,-0.231,-0.903,0.0
9.781,-0.22,-0.91,0.0
9.264,-0.21,-0.915,0.0
8.823,-0.202,-0.924,0.0
8.432,-0.195,-0.932,0.0
8.049,-0.187,-0.936,0.0
10.257,-0.241,-0.905,0.0
9.705,-0.23,-0.913,0.0
9.195,-0.22,-0.918,0.0
8.757,-0.211,-0.926,0.0
8.365,-0.203,-0.933,0.0
8.004,-0.196,-0.939,0.0
10.159,-0.251,-0.907,0.0
9.618,-0.239,-0.914,0.0
9.098,-0.228,-0.917,0.0
8.668,-0.219,-0.924,0.0
8.276,-0.211,-0.931,0.0
7.935,-0.204,-0.938,0.0
10.059,-0.26,-0.907,0.0
9.55,-0.249,-0.916,0.0
9.009,-0.237,-0.916,0.0
8.621,-0.228,-0.927,0.0
8.245,-0.22,-0.934,0.0
7.911,-0.213,-0.942,0.0
9.988,-0.271,-0.909,0.0
9.462,-0.258,-0.916,0.0
8.997,-0.247,-0.923,0.0
8.572,-0.237,-0.929,0.0
8.166,-0.228,-0.933,0.0
7.817,-0.22,-0.938,0.0
9.908,-0.28,-0.91,0.0
9.392,-0.268,-0.917,0.0
8.942,-0.257,-0.924,0.0
8.511,-0.246,-0.93,0.0
8.122,-0.236,-0.934,0.0
7.762,-0.228,-0.937,0.0
9.816,-0.29,-0.909,0.0
9.37,-0.279,-0.922,0.0
8.827,-0.264,-0.919,0.0
8.48,-0.256,-0.933,0.0
8.077,-0.245,-0.935,0.0
7.752,-0.237,-0.942,0.0
9.74,-0.3,-0.91,0.0
9.273,-0.287,-0.919,0.0
8.812,-0.275,-0.924,0.0
8.411,-0.264,-0.931,0.0
8.052,-0.254,-0.938,0.0
7.712,-0.245,-0.943,0.0
9.688,-0.31,-0.911,0.0
9.205,-0.296,-0.919,0.0
8.78,-0.285,-0.927,0.0
8.337,-0.272,-0.929,0.0
8.022,-0.264,-0.94,0.0
7.651,-0.253,-0.941,0.0
9.644,-0.321,-0.914,0.0
9.133,-0.306,-0.918,0.0
8.721,-0.294,-0.926,0.0
8.312,-0.282,-0.931,0.0
7.947,-0.271,-0.936,0.0
7.645,-0.262,-0.945,0.0
9.593,-0.331,-0.915,0.0
9.101,-0.316,-0.92,0.0
8.667,-0.303,-0.926,0.0
8.314,-0.292,-0.936,0.0
7.903,-0.28,-0.936,0.0
7.609,-0.271,-0.945,0.0
9.55,-0.341,-0.916,0.0
9.049,-0.325,-0.92,0.0
8.622,-0.312,-0.926,0.0
8.237,-0.3,-0.932,0.0
7.915,-0.29,-0.941,0.0
7.558,-0.279,-0.942,0.0
9.501,-0.352,-0.916,0.0
8.996,-0.335,-0.919,0.0
8.608,-0.322,-0.928,0.0
8.196,-0.309,-0.932,0.0
7.865,-0.298,-0.939,0.0
7.521,-0.287,-0.941,0.0
9.461,-0.362,-0.917,0.0
8.967,-0.345,-0.92,0.0
8.573,-0.332,-0.929,0.0
8.163,-0.318,-0.932,0.0
7.819,-0.306,-0.937,0.0
7.516,-0.296,-0.944,0.0
9.432,-0.373,-0.918,0.0
8.944,-0.356,-0.922,0.0
8.542,-0.341,-0.929,0.0
8.16,-0.328,-0.935,0.0
7.816,-0.316,-0.94,0.0
7.49,-0.305,-0.944,0.0
9.391,-0.383,-0.918,0.0
8.932,-0.366,-0.924,0.0
8.499,-0.351,-0.927,0.0
8.138,-0.337,-0.935,0.0
7.8,-0.325,-0.941,0.0
7.498,-0.315,-0.948,0.0
9.377,-0.394,-0.92,0.0
8.928,-0.377,-0.926,0.0
8.49,-0.361,-0.929,0.0
8.127,-0.347,-0.937,0.0
7.775,-0.334,-0.94,0.0
7.462,-0.322,-0.945,0.0
9.363,-0.406,-0.921,0.0
8.894,-0.387,-0.925,0.0
8.49,-0.372,-0.932,0.0
8.093,-0.356,-0.935,0.0
7.752,-0.343,-0.94,0.0
7.455,-0.332,-0.946,0.0
9.321,-0.415,-0.919,0.0
8.888,-0.398,-0.927,0.0
8.482,-0.382,-0.933,0.0
8.086,-0.366,-0.936,0.0
7.759,-0.353,-0.942,0.0
7.424,-0.339,-0.944,0.0
9.298,-0.426,-0.919,0.0
8.86,-0.408,-0.926,0.0
8.445,-0.391,-0.93,0.0
8.035,-0.374,-0.931,0.0
7.729,-0.361,-0.94,0.0
7.424,-0.349,-0.945,0.0
9.284,-0.437,-0.919,0.0
8.852,-0.418,-0.926,0.0
8.418,-0.4,-0.928,0.0
8.063,-0.385,-0.936,0.0
7.725,-0.37,-0.941,0.0
7.448,-0.359,-0.949,0.0
9.262,-0.447,-0.918,0.0
8.831,-0.428,-0.925,0.0
8.433,-0.411,-0.931,0.0
8.052,-0.394,-0.935,0.0
7.732,-0.38,-0.942,0.0
7.413,-0.366,-0.945,0.0
9.305,-0.46,-0.923,0.0
8.822,-0.438,-0.925,0.0
8.43,-0.421,-0.931,0.0
8.059,-0.404,-0.936,0.0
7.705,-0.388,-0.939,0.0
7.419,-0.376,-0.946,0.0
9.286,-0.471,-0.921,0.0
8.873,-0.452,-0.93,0.0
8.423,-0.431,-0.93,0.0
8.078,-0.415,-0.939,0.0
7.735,-0.399,-0.942,0.0
7.411,-0.384,-0.945,0.0
9.311,-0.483,-0.923,0.0
8.861,-0.462,-0.928,0.0
8.419,-0.441,-0.93,0.0
8.07,-0.424,-0.937,0.0
7.724,-0.408,-0.941,0.0
7.414,-0.393,-0.945,0.0
9.294,-0.493,-0.921,0.0
8.867,-0.473,-0.929,0.0
8.427,-0.451,-0.93,0.0
8.056,-0.433,-0.935,0.0
7.74,-0.418,-0.942,0.0
7.444,-0.404,-0.948,0.0
9.319,-0.506,-0.923,0.0
8.842,-0.482,-0.925,0.0
8.431,-0.461,-0.929,0.0
8.074,-0.444,-0.936,0.0
7.765,-0.428,-0.944,0.0
7.452,-0.413,-0.948,0.0
9.319,-0.516,-0.921,0.0
8.88,-0.494,-0.927,0.0
8.449,-0.472,-0.93,0.0
8.057,-0.452,-0.933,0.0
7.752,-0.437,-0.941,0.0
7.442,-0.421,-0.945,0.0
9.342,-0.529,-0.921,0.0
8.872,-0.504,-0.925,0.0
8.463,-0.483,-0.929,0.0
8.088,-0.463,-0.934,0.0
7.772,-0.447,-0.941,0.0
7.488,-0.432,-0.949,0.0
9.377,-0.541,-0.923,0.0
8.907,-0.516,-0.926,0.0
8.51,-0.495,-0.932,0.0
8.16,-0.477,-0.941,0.0
7.77,-0.456,-0.939,0.0
7.474,-0.44,-0.945,0.0
9.369,-0.551,-0.919,0.0
8.963,-0.529,-0.929,0.0
8.54,-0.506,-0.933,0.0
8.124,-0.484,-0.934,0.0
7.797,-0.466,-0.94,0.0
7.54,-0.452,-0.951,0.0
9.417,-0.565,-0.921,0.0
8.94,-0.538,-0.924,0.0
8.534,-0.515,-0.929,0.0
8.184,-0.496,-0.938,0.0
7.866,-0.479,-0.945,0.0
7.504,-0.458,-0.944,0.0
9.447,-0.577,-0.92,0.0
8.982,-0.55,-0.925,0.0
8.589,-0.528,-0.932,0.0
8.237,-0.508,-0.941,0.0
7.87,-0.487,-0.943,0.0
7.531,-0.468,-0.944,0.0
9.474,-0.588,-0.919,0.0
9.043,-0.563,-0.927,0.0
8.618,-0.539,-0.932,0.0
8.241,-0.517,-0.937,0.0
7.915,-0.498,-0.944,0.0
7.561,-0.478,-0.944,0.0
9.526,-0.602,-0.92,0.0
9.06,-0.574,-0.925,0.0
8.652,-0.55,-0.931,0.0
8.254,-0.527,-0.935,0.0
7.94,-0.508,-0.944,0.0
7.548,-0.485,-0.939,0.0
9.568,-0.614,-0.919,0.0
9.133,-0.588,-0.928,0.0
8.696,-0.561,-0.931,0.0
8.261,-0.535,-0.931,0.0
8.012,-0.521,-0.948,0.0
7.593,-0.495,-0.941,0.0
9.617,-0.626,-0.919,0.0
9.146,-0.598,-0.924,0.0
8.719,-0.572,-0.929,0.0
8.34,-0.549,-0.936,0.0
7.967,-0.526,-0.938,0.0
7.66,-0.507,-0.944,0.0
9.68,-0.64,-0.919,0.0
9.205,-0.611,-0.925,0.0
8.78,-0.584,-0.93,0.0
8.366,-0.558,-0.934,0.0
8.052,-0.539,-0.943,0.0
7.716,-0.518,-0.947,0.0
9.745,-0.654,-0.919,0.0
9.27,-0.624,-0.925,0.0
8.811,-0.595,-0.928,0.0
8.413,-0.57,-0.933,0.0
8.113,-0.551,-0.945,0.0
7.742,-0.527,-0.945,0.0
9.782,-0.665,-0.916,0.0
9.309,-0.635,-0.923,0.0
8.872,-0.607,-0.929,0.0
8.449,-0.58,-0.932,0.0
8.115,-0.558,-0.94,0.0
7.775,-0.537,-0.943,0.0
9.869,-0.68,-0.918,0.0
9.377,-0.648,-0.923,0.0
8.932,-0.619,-0.928,0.0
8.53,-0.593,-0.934,0.0
8.163,-0.569,-0.939,0.0
7.836,-0.548,-0.945,0.0
9.945,-0.694,-0.917,0.0
9.426,-0.66,-0.921,0.0
8.963,-0.629,-0.925,0.0
8.593,-0.605,-0.935,0.0
8.234,-0.581,-0.941,0.0
7.863,-0.556,-0.942,0.0
9.984,-0.705,-0.913,0.0
9.455,-0.67,-0.917,0.0
9.06,-0.643,-0.928,0.0
8.162,-0.581,-0.882,0.0
8.278,-0.591,-0.94,0.0
7.901,-0.566,-0.94,0.0
10.054,-0.718,-0.912,0.0
9.571,-0.685,-0.92,0.0
9.12,-0.655,-0.927,0.0
7.911,-0.569,-0.848,0.0
8.327,-0.601,-0.938,0.0
7.967,-0.577,-0.941,0.0
10.14,-0.732,-0.911,0.0
9.671,-0.7,-0.922,0.0
9.204,-0.668,-0.927,0.0
8.689,-0.632,-0.924,0.0
8.386,-0.612,-0.937,0.0
7.976,-0.583,-0.935,0.0
10.229,-0.746,-0.91,0.0
9.715,-0.711,-0.917,0.0
9.225,-0.676,-0.921,0.0
8.845,-0.65,-0.932,0.0
8.452,-0.623,-0.937,0.0
8.072,-0.596,-0.939,0.0
10.368,-0.764,-0.913,0.0
9.83,-0.726,-0.919,0.0
9.279,-0.687,-0.918,0.0
8.933,-0.663,-0.933,0.0
8.408,-0.625,-0.924,0.0
8.131,-0.606,-0.938,0.0
10.377,-0.772,-0.904,0.0
9.9,-0.738,-0.916,0.0
9.406,-0.703,-0.922,0.0
8.999,-0.674,-0.932,0.0
8.103,-0.608,-0.883,0.0
8.209,-0.617,-0.939,0.0
10.518,-0.79,-0.906,0.0
10.014,-0.753,-0.917,0.0
9.51,-0.717,-0.922,0.0
9.094,-0.687,-0.932,0.0
8.583,-0.65,-0.927,0.0
8.246,-0.625,-0.935,0.0
10.637,-0.805,-0.906,0.0
10.082,-0.765,-0.913,0.0
9.6,-0.729,-0.921,0.0
9.177,-0.699,-0.931,0.0
8.687,-0.663,-0.929,0.0
8.361,-0.639,-0.94,0.0
10.815,-0.825,-0.91,0.0
10.122,-0.774,-0.906,0.0
9.726,-0.745,-0.923,0.0
9.207,-0.706,-0.925,0.0
8.843,-0.68,-0.936,0.0
8.453,-0.651,-0.941,0.0
10.883,-0.836,-0.904,0.0
10.293,-0.792,-0.91,0.0
9.797,-0.755,-0.919,0.0
9.295,-0.718,-0.923,0.0
8.946,-0.692,-0.937,0.0
8.499,-0.659,-0.936,0.0
11.017,-0.852,-0.903,0.0
10.434,-0.809,-0.911,0.0
9.928,-0.771,-0.921,0.0
9.39,-0.73,-0.922,0.0
9.033,-0.704,-0.936,0.0
8.573,-0.669,-0.935,0.0
11.137,-0.867,-0.9,0.0
10.499,-0.819,-0.905,0.0
9.98,-0.779,-0.914,0.0
9.533,-0.746,-0.925,0.0
9.102,-0.713,-0.933,0.0
8.67,-0.681,-0.935,0.0
11.207,-0.878,-0.893,0.0
10.665,-0.836,-0.907,0.0
10.123,-0.795,-0.915,0.0
9.617,-0.756,-0.922,0.0
9.208,-0.725,-0.933,0.0
8.681,-0.685,-0.926,0.0
11.371,-0.895,-0.892,0.0
10.818,-0.853,-0.907,0.0
10.176,-0.803,-0.908,0.0
9.778,-0.773,-0.926,0.0
9.3,-0.736,-0.931,0.0
8.831,-0.7,-0.931,0.0
11.593,-0.917,-0.896,0.0
10.95,-0.867,-0.905,0.0
10.409,-0.826,-0.916,0.0
9.867,-0.784,-0.922,0.0
9.397,-0.747,-0.929,0.0
8.932,-0.711,-0.931,0.0
11.729,-0.932,-0.892,0.0
11.087,-0.882,-0.902,0.0
10.483,-0.835,-0.909,0.0
9.953,-0.794,-0.918,0.0
9.517,-0.76,-0.929,0.0
9.066,-0.725,-0.933,0.0
11.899,-0.949,-0.89,0.0
11.206,-0.895,-0.898,0.0
10.689,-0.854,-0.914,0.0
10.061,-0.805,-0.915,0.0
9.646,-0.773,-0.929,0.0
9.183,-0.736,-0.933,0.0
12.118,-0.969,-0.891,0.0
11.388,-0.912,-0.898,0.0
10.798,-0.866,-0.909,0.0
10.173,-0.816,-0.912,0.0
9.796,-0.787,-0.93,0.0
9.233,-0.743,-0.926,0.0
12.255,-0.983,-0.884,0.0
11.602,-0.932,-0.899,0.0
10.957,-0.881,-0.908,0.0
10.358,-0.833,-0.914,0.0
9.84,-0.792,-0.921,0.0
9.384,-0.756,-0.929,0.0
12.438,-1.0,-0.881,0.0
11.696,-0.941,-0.891,0.0
11.054,-0.89,-0.901,0.0
10.501,-0.846,-0.913,0.0
9.978,-0.805,-0.921,0.0
9.496,-0.767,-0.927,0.0
12.589,-1.014,-0.875,0.0
11.876,-0.957,-0.888,0.0
11.169,-0.901,-0.895,0.0
10.67,-0.861,-0.913,0.0
10.144,-0.819,-0.922,0.0
9.604,-0.776,-0.924,0.0
12.835,-1.035,-0.875,0.0
12.099,-0.976,-0.889,0.0
11.422,-0.922,-0.9,0.0
10.821,-0.874,-0.911,0.0
10.216,-0.826,-0.915,0.0
9.752,-0.789,-0.925,0.0
13.073,-1.055,-0.873,0.0
12.257,-0.99,-0.883,0.0
11.613,-0.938,-0.899,0.0
10.92,-0.883,-0.904,0.0
10.387,-0.84,-0.915,0.0
9.863,-0.798,-0.922,0.0
13.363,-1.079,-0.874,0.0
12.45,-1.005,-0.88,0.0
11.739,-0.949,-0.892,0.0
11.11,-0.898,-0.904,0.0
10.577,-0.855,-0.917,0.0
10.052,-0.813,-0.925,0.0
13.613,-1.099,-0.871,0.0
12.638,-1.02,-0.875,0.0
11.918,-0.962,-0.889,0.0
11.26,-0.91,-0.9,0.0
10.695,-0.864,-0.912,0.0
10.178,-0.823,-0.922,0.0
13.897,-1.121,-0.869,0.0
12.863,-1.037,-0.872,0.0
12.163,-0.981,-0.889,0.0
11.536,-0.931,-0.906,0.0
10.883,-0.878,-0.912,0.0
10.323,-0.833,-0.92,0.0
14.166,-1.141,-0.865,0.0
13.197,-1.063,-0.876,0.0
12.389,-0.998,-0.888,0.0
11.622,-0.936,-0.896,0.0
11.029,-0.888,-0.908,0.0
10.441,-0.841,-0.915,0.0
14.492,-1.165,-0.864,0.0
13.43,-1.079,-0.872,0.0
12.457,-1.001,-0.874,0.0
11.793,-0.948,-0.891,0.0
11.14,-0.895,-0.901,0.0
10.585,-0.851,-0.912,0.0
14.728,-1.181,-0.857,0.0
13.751,-1.102,-0.872,0.0
12.796,-1.026,-0.879,0.0
12.047,-0.966,-0.893,0.0
11.365,-0.911,-0.902,0.0
10.77,-0.863,-0.912,0.0
15.172,-1.213,-0.86,0.0
14.036,-1.122,-0.869,0.0
12.961,-1.036,-0.871,0.0
12.249,-0.978,-0.889,0.0
11.573,-0.924,-0.901,0.0
10.959,-0.875,-0.912,0.0
15.344,-1.222,-0.847,0.0
14.282,-1.137,-0.863,0.0
13.371,-1.064,-0.879,0.0
12.473,-0.993,-0.887,0.0
11.702,-0.931,-0.894,0.0
11.075,-0.881,-0.905,0.0
15.639,-1.241,-0.84,0.0
14.56,-1.155,-0.859,0.0
13.614,-1.079,-0.875,0.0
12.7,-1.006,-0.884,0.0
12.029,-0.953,-0.901,0.0
11.211,-0.888,-0.899,0.0
16.204,-1.28,-0.846,0.0
14.931,-1.179,-0.858,0.0
13.863,-1.094,-0.869,0.0
12.913,-1.018,-0.879,0.0
12.172,-0.959,-0.893,0.0
11.419,-0.899,-0.898,0.0
16.598,-1.304,-0.841,0.0
15.311,-1.202,-0.856,0.0
14.211,-1.115,-0.87,0.0
13.198,-1.035,-0.879,0.0
12.383,-0.97,-0.89,0.0
11.657,-0.913,-0.899,0.0
16.986,-1.327,-0.835,0.0
15.604,-1.218,-0.849,0.0
14.44,-1.126,-0.862,0.0
13.448,-1.048,-0.875,0.0
12.615,-0.982,-0.887,0.0
11.888,-0.925,-0.899,0.0
17.484,-1.357,-0.833,0.0
16.026,-1.243,-0.847,0.0
14.791,-1.146,-0.86,0.0
13.742,-1.064,-0.873,0.0
12.843,-0.993,-0.883,0.0
12.121,-0.936,-0.898,0.0
17.655,-1.361,-0.814,0.0
16.432,-1.265,-0.844,0.0
15.139,-1.164,-0.857,0.0
14.009,-1.076,-0.868,0.0
13.043,-1.001,-0.877,0.0
12.302,-0.943,-0.892,0.0
18.239,-1.395,-0.813,0.0
16.85,-1.288,-0.84,0.0
15.547,-1.187,-0.856,0.0
14.352,-1.094,-0.868,0.0
13.441,-1.023,-0.883,0.0
12.505,-0.951,-0.887,0.0
18.67,-1.417,-0.804,0.0
17.195,-1.303,-0.83,0.0
15.77,-1.193,-0.844,0.0
14.633,-1.106,-0.862,0.0
13.6,-1.026,-0.872,0.0
12.696,-0.957,-0.881,0.0
19.305,-1.452,-0.801,0.0
17.486,-1.313,-0.817,0.0
16.314,-1.223,-0.848,0.0
14.998,-1.123,-0.86,0.0
13.897,-1.039,-0.87,0.0
12.934,-0.966,-0.878,0.0
19.906,-1.483,-0.796,0.0
18.194,-1.353,-0.823,0.0
16.74,-1.243,-0.845,0.0
15.201,-1.127,-0.848,0.0
14.27,-1.056,-0.872,0.0
13.287,-0.982,-0.881,0.0
20.307,-1.497,-0.781,0.0
18.529,-1.364,-0.81,0.0
17.017,-1.25,-0.833,0.0
15.706,-1.152,-0.853,0.0
14.518,-1.063,-0.864,0.0
13.539,-0.99,-0.877,0.0
20.808,-1.518,-0.768,0.0
19.149,-1.394,-0.808,0.0
17.358,-1.261,-0.823,0.0
16.065,-1.165,-0.848,0.0
14.838,-1.074,-0.861,0.0
13.802,-0.997,-0.873,0.0
21.631,-1.56,-0.766,0.0
19.507,-1.404,-0.793,0.0
17.976,-1.291,-0.825,0.0
16.524,-1.184,-0.847,0.0
15.23,-1.089,-0.861,0.0
14.145,-1.01,-0.874,0.0
22.083,-1.573,-0.748,0.0
20.1,-1.429,-0.787,0.0
18.447,-1.308,-0.819,0.0
16.932,-1.198,-0.842,0.0
15.493,-1.094,-0.852,0.0
14.381,-1.013,-0.866,0.0
22.627,-1.591,-0.732,0.0
20.652,-1.448,-0.777,0.0
18.931,-1.324,-0.811,0.0
17.198,-1.201,-0.829,0.0
15.894,-1.107,-0.85,0.0
14.654,-1.018,-0.861,0.0
23.686,-1.642,-0.731,0.0
21.308,-1.474,-0.769,0.0
19.422,-1.34,-0.803,0.0
17.646,-1.214,-0.824,0.0
16.205,-1.112,-0.842,0.0
15.073,-1.032,-0.862,0.0
24.506,-1.675,-0.72,0.0
21.876,-1.491,-0.757,0.0
19.921,-1.354,-0.794,0.0
18.079,-1.225,-0.817,0.0
16.746,-1.132,-0.845,0.0
15.334,-1.034,-0.855,0.0
0.0,0.0,0.0,0.0
22.321,-1.498,-0.74,0.0
20.303,-1.358,-0.779,0.0
18.554,-1.238,-0.812,0.0
17.048,-1.134,-0.835,0.0
15.669,-1.04,-0.85,0.0
26.382,-1.746,-0.697,0.0
22.918,-1.513,-0.726,0.0
20.797,-1.369,-0.768,0.0
19.022,-1.248,-0.804,0.0
17.563,-1.149,-0.835,0.0
16.119,-1.052,-0.851,0.0
0.0,0.0,0.0,0.0
23.673,-1.536,-0.715,0.0
21.447,-1.387,-0.761,0.0
19.532,-1.259,-0.798,0.0
17.929,-1.152,-0.826,1.0
16.55,-1.061,-0.85,0.0
28.154,-1.8,-0.663,0.0
24.823,-1.581,-0.714,0.0
22.107,-1.404,-0.752,0.0
20.06,-1.27,-0.79,0.0
18.328,-1.156,-0.818,0.0
16.927,-1.064,-0.844,0.0
0.0,0.0,0.0,0.0
0.0,0.0,0.0,0.0
22.587,-1.406,-0.736,0.0
20.625,-1.28,-0.782,0.0
18.671,-1.155,-0.806,0.0
17.275,-1.064,-0.837,0.0
29.913,-1.839,-0.618,0.0
26.63,-1.631,-0.69,0.0
23.488,-1.433,-0.732,0.0
21.0,-1.277,-0.767,0.0
19.274,-1.167,-0.805,0.0
17.688,-1.068,-0.832,0.0
30.672,-1.847,-0.591,0.0
0.0,0.0,0.0,0.0
24.004,-1.434,-0.715,0.0
21.708,-1.292,-0.762,0.0
19.716,-1.169,-0.796,0.0
17.985,-1.062,-0.821,0.0
0.0,0.0,0.0,0.0
28.531,-1.673,-0.66,0.0
24.921,-1.455,-0.707,0.0
22.223,-1.292,-0.75,0.0
20.243,-1.173,-0.79,0.0
18.514,-1.068,-0.82,0.0
0.0,0.0,0.0,0.0
0.0,0.0,0.0,0.0
25.799,-1.472,-0.697,0.0
22.691,-1.289,-0.735,0.0
20.662,-1.168,-0.778,0.0
19.011,-1.07,-0.816,0.0
36.269,-2.036,-0.549,0.0
29.906,-1.672,-0.61,0.0
26.315,-1.464,-0.675,0.0
23.431,-1.298,-0.727,0.0
21.078,-1.162,-0.765,0.0
19.414,-1.065,-0.807,0.0
36.672,-2.007,-0.506,0.0
31.531,-1.717,-0.601,0.0
0.0,0.0,0.0,0.0
0.0,0.0,0.0,0.0
21.747,-1.167,-0.761,0.0
19.86,-1.061,-0.799,0.0
0.0,0.0,0.0,0.0
0.0,0.0,0.0,0.0
0.0,0.0,0.0,0.0
0.0,0.0,0.0,0.0
22.183,-1.158,-0.747,0.0
20.182,-1.048,-0.786,0.0
40.073,-2.074,-0.448,0.0
0.0,0.0,0.0,0.0
29.093,-1.49,-0.632,0.0
25.92,-1.32,-0.702,0.0
22.797,-1.155,-0.738,0.0
20.752,-1.046,-0.781,0.0
0.0,0.0,0.0,0.0
0.0,0.0,0.0,0.0
30.311,-1.505,-0.62,0.0
26.474,-1.308,-0.684,0.0
23.604,-1.159,-0.734,0.0
21.059,-1.029,-0.767,0.0
0.0,0.0,0.0,0.0
0.0,0.0,0.0,0.0
31.422,-1.512,-0.603,0.0
27.191,-1.3,-0.668,0.0
24.064,-1.144,-0.719,0.0
21.659,-1.024,-0.762,0.0
0.0,0.0,0.0,0.0
0.0,0.0,0.0,0.0
32.275,-1.501,-0.58,0.0
28.003,-1.294,-0.655,0.0
24.777,-1.138,-0.71,0.0
22.262,-1.016,-0.756,0.0
0.0,0.0,0.0,0.0
39.848,-1.8,-0.458,0.0
0.0,0.0,0.0,0.0
29.475,-1.314,-0.654,0.0
25.342,-1.122,-0.696,0.0
22.661,-0.997,-0.742,0.0
0.0,0.0,0.0,0.0
0.0,0.0,0.0,0.0
0.0,0.0,0.0,0.0
29.625,-1.271,-0.622,0.0
26.488,-1.128,-0.696,0.0
23.276,-0.984,-0.735,0.0
0.0,0.0,0.0,0.0
0.0,0.0,0.0,0.0
0.0,0.0,0.0,0.0
30.261,-1.247,-0.601,0.0
27.132,-1.11,-0.682,0.0
23.893,-0.97,-0.728,0.0
0.0,0.0,0.0,0.0
0.0,0.0,0.0,0.0
0.0,0.0,0.0,0.0
0.0,0.0,0.0,0.0
27.556,-1.079,-0.662,0.0
24.592,-0.956,-0.722,0.0
0.0,0.0,0.0,0.0
0.0,0.0,0.0,0.0
0.0,0.0,0.0,0.0
0.0,0.0,0.0,0.0
28.452,-1.064,-0.653,0.0
25.005,-0.927,-0.707,0.0
0.0,0.0,0.0,0.0
0.0,0.0,0.0,0.0
0.0,0.0,0.0,0.0
33.477,-1.203,-0.555,0.0
29.622,-1.055,-0.649,0.0
25.399,-0.896,-0.691,0.0
0.0,0.0,0.0,0.0
0.0,0.0,0.0,0.0
0.0,0.0,0.0,0.0
33.963,-1.159,-0.528,0.0
29.904,-1.011,-0.624,0.0
26.532,-0.888,-0.695,0.0
0.0,0.0,0.0,0.0
0.0,0.0,0.0,0.0
0.0,0.0,0.0,0.0
35.318,-1.141,-0.514,0.0
0.0,0.0,0.0,0.0
26.036,-0.824,-0.656,0.0
0.0,0.0,0.0,0.0
0.0,0.0,0.0,0.0
0.0,0.0,0.0,0.0
0.0,0.0,0.0,0.0
32.029,-0.965,-0.605,0.0
27.231,-0.811,-0.66,0.0
0.0,0.0,0.0,0.0
0.0,0.0,0.0,0.0
45.919,-1.327,-0.33,0.0
0.0,0.0,0.0,0.0
32.08,-0.905,-0.576,0.0
28.2,-0.786,-0.657,0.0
0.0,0.0,0.0,0.0
0.0,0.0,0.0,0.0
0.0,0.0,0.0,0.0
38.137,-1.015,-0.446,0.0
33.156,-0.872,-0.565,0.0
0.0,0.0,0.0,0.0
0.0,0.0,0.0,0.0
0.0,0.0,0.0,0.0
0.0,0.0,0.0,0.0
0.0,0.0,0.0,0.0
33.805,-0.823,-0.546,0.0
29.606,-0.711,-0.637,0.0
0.0,0.0,0.0,0.0
0.0,0.0,0.0,0.0
0.0,0.0,0.0,0.0
0.0,0.0,0.0,0.0
0.0,0.0,0.0,0.0
30.182,-0.666,-0.624,0.0
139.768,-3.049,0.982,16.0
0.0,0.0,0.0,0.0
0.0,0.0,0.0,0.0
0.0,0.0,0.0,0.0
35.404,-0.723,-0.513,0.0
30.728,-0.617,-0.61,0.0
139.745,-2.77,1.094,151.0
0.0,0.0,0.0,0.0
0.0,0.0,0.0,0.0
0.0,0.0,0.0,0.0
37.551,-0.693,-0.515,0.0
0.0,0.0,0.0,0.0
139.755,-2.493,1.202,152.0
0.0,0.0,0.0,0.0
0.0,0.0,0.0,0.0
0.0,0.0,0.0,0.0
36.858,-0.606,-0.478,0.0
31.873,-0.513,-0.585,0.0
19.777,-0.313,0.184,5.0
19.744,-0.305,0.078,12.0
0.0,0.0,0.0,0.0
0.0,0.0,0.0,0.0
0.0,0.0,0.0,0.0
32.436,-0.457,-0.572,0.0
19.756,-0.273,0.198,31.0
19.74,-0.265,0.091,16.0
0.0,0.0,0.0,0.0
0.0,0.0,0.0,0.0
0.0,0.0,0.0,0.0
32.299,-0.39,-0.549,0.0
19.768,-0.232,0.211,12.0
0.0,0.0,0.0,0.0
0.0,0.0,0.0,0.0
0.0,0.0,0.0,0.0
19.753,-0.205,-0.216,0.0
19.774,-0.198,-0.323,2.0
169.45,-1.646,1.919,6.0
160.675,-1.507,0.952,13.0
0.0,0.0,0.0,0.0
19.751,-0.171,-0.098,10.0
19.739,-0.164,-0.204,15.0
19.743,-0.157,-0.311,16.0
169.958,-1.301,2.026,10.0
160.696,-1.176,1.047,13.0
19.76,-0.137,0.022,7.0
19.72,-0.13,-0.086,12.0
19.719,-0.123,-0.193,17.0
19.749,-0.116,-0.3,16.0
19.707,-0.11,0.245,9.0
19.709,-0.103,0.139,13.0
19.706,-0.096,0.032,13.0
19.715,-0.089,-0.075,11.0
19.721,-0.082,-0.182,16.0
19.757,-0.076,-0.29,15.0
19.657,-0.069,0.255,11.0
19.698,-0.062,0.149,18.0
19.7,-0.055,0.042,15.0
19.715,-0.048,-0.066,14.0
19.747,-0.041,-0.173,13.0
19.747,-0.034,-0.28,0.0
19.63,-0.027,0.264,13.0
19.704,-0.02,0.158,6.0
19.725,-0.013,0.052,7.0
19.738,-0.007,-0.056,8.0
19.737,0.0,-0.164,0.0
19.779,0.006,-0.271,0.0
19.624,0.013,0.273,15.0
19.742,0.02,0.167,19.0
19.745,0.027,0.06,12.0
19.737,0.034,-0.048,54.0
19.76,0.041,-0.155,13.0
19.76,0.048,-0.263,28.0
19.617,0.055,0.281,13.0
19.652,0.062,0.175,12.0
19.711,0.069,0.068,18.0
19.739,0.076,-0.04,17.0
19.759,0.083,-0.148,2.0
19.761,0.09,-0.255,0.0
19.609,0.097,0.288,16.0
19.663,0.104,0.182,15.0
19.644,0.111,0.075,13.0
19.637,0.118,-0.033,13.0
19.67,0.125,-0.14,10.0
19.793,0.132,-0.249,0.0
19.633,0.139,0.295,12.0
19.663,0.146,0.189,15.0
19.638,0.152,0.081,12.0
19.626,0.159,-0.027,17.0
19.641,0.166,-0.134,16.0
19.652,0.173,-0.241,16.0
19.676,0.181,0.302,9.0
19.684,0.188,0.195,10.0
19.685,0.195,0.087,11.0
19.651,0.202,-0.021,12.0
19.631,0.208,-0.128,16.0
19.651,0.215,-0.236,18.0
19.729,0.224,0.308,12.0
19.767,0.231,0.201,27.0
19.766,0.238,0.093,8.0
19.704,0.244,-0.016,1.0
19.657,0.25,-0.124,15.0
19.652,0.257,-0.231,15.0
19.725,0.266,0.312,14.0
19.751,0.273,0.205,11.0
113.132,1.605,0.556,1.0
55.055,0.8,-0.035,2.0
44.973,0.669,-0.275,0.0
19.691,0.299,-0.228,0.0
19.722,0.308,0.316,0.0
55.206,0.881,0.583,6.0
55.197,0.9,0.281,43.0
55.147,0.918,-0.026,28.0
42.508,0.721,-0.253,0.0
0.0,0.0,0.0,0.0
55.174,0.978,0.893,73.0
55.169,0.997,0.59,53.0
55.184,1.016,0.288,41.0
55.17,1.035,-0.019,24.0
42.407,0.809,-0.247,0.0
34.139,0.663,-0.386,2.0
163.802,3.254,2.671,10.0
162.803,3.288,1.761,20.0
113.055,2.321,0.602,7.0
0.0,0.0,0.0,0.0
43.097,0.914,-0.248,1.0
34.984,0.754,-0.393,1.0
128.951,2.836,2.112,12.0
71.031,1.586,0.773,3.0
87.606,1.985,0.472,4.0
45.507,1.047,-0.009,4.0
45.393,1.06,-0.259,8.0
36.677,0.868,-0.411,0.0
99.268,2.395,1.629,17.0
70.963,1.735,0.774,30.0
70.64,1.752,0.382,22.0
0.0,0.0,0.0,0.0
40.135,1.022,-0.228,36.0
36.688,0.946,-0.41,0.0
0.0,0.0,0.0,0.0
0.0,0.0,0.0,0.0
0.0,0.0,0.0,0.0
40.14,1.094,-0.008,158.0
40.05,1.105,-0.229,57.0
34.058,0.951,-0.382,0.0
40.125,1.138,0.657,150.0
40.13,1.152,0.436,137.0
40.135,1.165,0.214,126.0
40.115,1.178,-0.01,150.0
40.058,1.19,-0.231,69.0
40.191,1.207,-0.454,1.0
40.13,1.223,0.654,150.0
40.125,1.237,0.432,119.0
40.121,1.249,0.211,132.0
40.14,1.263,-0.014,150.0
40.056,1.274,-0.235,71.0
40.181,1.291,-0.458,3.0
40.137,1.307,0.649,138.0
40.114,1.319,0.427,37.0
40.129,1.333,0.206,4.0
40.127,1.347,-0.019,150.0
40.043,1.357,-0.241,77.0
40.126,1.373,-0.463,2.0
162.138,5.624,2.601,16.0
71.045,2.487,0.746,24.0
44.91,1.586,0.223,3.0
40.124,1.43,-0.026,11.0
40.044,1.44,-0.248,9.0
33.348,1.21,-0.391,0.0
0.0,0.0,0.0,0.0
43.441,1.611,0.448,150.0
43.127,1.613,0.205,150.0
40.45,1.526,-0.035,15.0
40.288,1.533,-0.258,5.0
33.295,1.277,-0.398,0.0
40.394,1.568,0.631,139.0
40.39,1.581,0.407,125.0
40.385,1.593,0.182,150.0
40.328,1.604,-0.045,150.0
40.266,1.614,-0.268,27.0
33.27,1.344,-0.406,1.0
100.503,4.11,1.544,12.0
100.561,4.143,0.987,5.0
45.167,1.875,0.192,7.0
40.311,1.686,-0.056,4.0
23.649,0.996,-0.164,36.0
23.636,1.003,-0.295,47.0
23.621,1.014,0.356,47.0
23.616,1.021,0.224,43.0
23.608,1.028,0.093,45.0
23.601,1.035,-0.04,54.0
23.603,1.042,-0.171,64.0
23.618,1.05,-0.303,70.0
23.602,1.061,0.347,76.0
23.601,1.068,0.216,69.0
23.591,1.075,0.085,66.0
23.601,1.083,-0.048,58.0
23.614,1.091,-0.18,64.0
23.617,1.098,-0.311,56.0
23.613,1.109,0.339,43.0
23.626,1.117,0.207,37.0
23.636,1.124,0.076,38.0
23.643,1.132,-0.057,37.0
23.631,1.139,-0.189,19.0
23.648,1.147,-0.321,7.0
131.876,6.462,1.841,3.0
115.67,5.701,0.97,3.0
45.172,2.24,0.126,65.0
40.307,2.011,-0.115,50.0
0.0,0.0,0.0,0.0
31.318,1.581,-0.439,4.0
99.737,5.085,1.349,5.0
99.769,5.115,0.791,16.0
45.176,2.33,0.106,42.0
40.321,2.091,-0.134,43.0
35.793,1.866,-0.319,3.0
30.213,1.584,-0.438,3.0
45.216,2.393,0.59,72.0
45.222,2.407,0.337,69.0
45.184,2.418,0.084,46.0
40.324,2.169,-0.153,44.0
35.437,1.917,-0.333,5.0
29.599,1.61,-0.444,5.0
120.05,6.59,1.505,12.0
63.101,3.482,0.438,4.0
45.172,2.506,0.06,45.0
40.324,2.248,-0.175,45.0
34.848,1.952,-0.346,6.0
29.052,1.636,-0.451,8.0
113.682,6.461,1.363,11.0
57.041,3.257,0.364,18.0
45.166,2.592,0.035,44.0
40.318,2.325,-0.197,42.0
34.069,1.973,-0.358,11.0
28.49,1.659,-0.459,7.0
45.232,2.655,0.516,129.0
45.242,2.668,0.263,150.0
45.167,2.676,0.009,39.0
40.316,2.4,-0.221,40.0
33.08,1.979,-0.367,10.0
27.762,1.668,-0.464,7.0
99.719,6.043,1.078,11.0
45.185,2.75,0.235,6.0
45.183,2.762,-0.018,31.0
40.191,2.468,-0.245,30.0
32.418,1.999,-0.38,10.0
27.176,1.684,-0.471,7.0
99.672,6.225,1.014,9.0
45.179,2.833,0.206,17.0
45.198,2.846,-0.047,6.0
39.987,2.529,-0.271,15.0
31.486,2.0,-0.39,9.0
26.583,1.695,-0.478,6.0
45.192,2.904,0.429,3.0
45.184,2.915,0.175,103.0
40.325,2.612,-0.07,39.0
37.916,2.466,-0.282,6.0
30.562,1.996,-0.4,8.0
25.957,1.703,-0.485,6.0
44.915,2.968,0.395,147.0
44.511,2.953,0.141,11.0
40.326,2.685,-0.098,44.0
36.069,2.411,-0.295,5.0
29.71,1.994,-0.41,8.0
25.399,1.711,-0.493,6.0
41.839,2.839,0.337,3.0
42.241,2.876,0.103,13.0
40.325,2.756,-0.128,43.0
35.403,2.429,-0.315,6.0
29.112,2.005,-0.424,8.0
24.897,1.721,-0.502,5.0
42.059,2.927,0.307,150.0
41.502,2.898,0.069,5.0
40.327,2.826,-0.159,46.0
0.0,0.0,0.0,0.0
28.283,1.996,-0.433,7.0
24.413,1.729,-0.512,5.0
41.164,2.936,0.268,108.0
40.331,2.886,0.035,10.0
40.31,2.894,-0.192,56.0
32.845,2.366,-0.345,10.0
27.496,1.988,-0.444,7.0
24.038,1.744,-0.524,5.0
40.391,2.95,0.229,87.0
40.321,2.954,0.001,44.0
40.261,2.959,-0.225,28.0
32.055,2.364,-0.363,9.0
26.762,1.98,-0.455,6.0
23.663,1.756,-0.536,2.0
43.702,3.264,0.211,150.0
42.002,3.147,-0.034,115.0
38.94,2.927,-0.251,2.0
31.164,2.349,-0.38,9.0
25.962,1.964,-0.463,6.0
19.767,1.5,-0.465,3.0
0.0,0.0,0.0,0.0
41.913,3.209,-0.071,139.0
0.0,0.0,0.0,0.0
30.233,2.328,-0.396,8.0
25.317,1.956,-0.475,6.0
19.709,1.527,-0.481,8.0
0.0,0.0,0.0,0.0
40.144,3.138,-0.104,80.0
35.986,2.821,-0.297,10.0
29.164,2.292,-0.409,8.0
24.717,1.948,-0.486,5.0
19.713,1.559,-0.5,9.0
40.105,3.188,0.085,98.0
40.105,3.197,-0.142,70.0
34.578,2.764,-0.318,6.0
28.424,2.278,-0.425,7.0
24.154,1.941,-0.498,5.0
19.7,1.588,-0.518,8.0
40.029,3.243,0.047,55.0
40.025,3.252,-0.179,43.0
32.86,2.677,-0.333,10.0
27.453,2.242,-0.437,7.0
23.938,1.961,-0.517,5.0
19.701,1.618,-0.537,9.0
40.113,3.311,0.007,122.0
39.974,3.308,-0.219,26.0
31.872,2.645,-0.356,6.0
26.375,2.194,-0.446,6.0
19.843,1.655,-0.448,2.0
19.239,1.609,-0.544,10.0
40.109,3.371,-0.033,150.0
0.0,0.0,0.0,0.0
30.067,2.539,-0.366,2.0
25.544,2.162,-0.459,6.0
19.723,1.673,-0.466,7.0
19.03,1.619,-0.558,12.0
40.034,3.422,-0.074,56.0
36.204,3.101,-0.272,3.0
29.726,2.552,-0.392,8.0
24.981,2.15,-0.474,6.0
19.714,1.7,-0.486,9.0
19.026,1.645,-0.578,10.0
40.1,3.484,-0.116,78.0
35.185,3.063,-0.302,9.0
28.801,2.513,-0.411,8.0
24.302,2.125,-0.487,7.0
21.137,1.853,-0.544,7.0
18.944,1.664,-0.595,16.0
40.077,3.536,-0.158,56.0
33.792,2.987,-0.326,10.0
27.818,2.464,-0.426,7.0
23.709,2.105,-0.501,5.0
20.717,1.843,-0.555,6.0
18.926,1.688,-0.615,23.0
40.051,3.586,-0.202,12.0
31.864,2.859,-0.342,7.0
26.559,2.388,-0.436,6.0
22.96,2.068,-0.51,5.0
20.164,1.82,-0.563,6.0
18.657,1.688,-0.627,15.0
0.0,0.0,0.0,0.0
30.878,2.81,-0.366,9.0
25.719,2.345,-0.451,6.0
22.3,2.037,-0.52,4.0
19.626,1.796,-0.57,27.0
18.05,1.656,-0.627,16.0
37.067,3.413,-0.27,7.0
29.875,2.756,-0.388,8.0
25.019,2.312,-0.467,6.0
21.737,2.012,-0.532,7.0
18.852,1.749,-0.569,14.0
17.817,1.656,-0.639,16.0
34.919,3.257,-0.294,11.0
28.518,2.664,-0.403,7.0
24.357,2.28,-0.483,5.0
21.277,1.995,-0.545,6.0
18.432,1.731,-0.577,16.0
17.696,1.665,-0.656,14.0
32.103,3.032,-0.308,2.0
27.4,2.592,-0.419,7.0
23.702,2.246,-0.498,5.0
18.891,1.793,-0.506,9.0
18.143,1.725,-0.59,14.0
17.557,1.673,-0.671,12.0
31.482,3.009,-0.339,9.0
26.291,2.517,-0.433,6.0
22.875,2.193,-0.507,5.0
18.604,1.786,-0.52,15.0
17.899,1.722,-0.603,18.0
17.361,1.673,-0.684,10.0
30.599,2.957,-0.366,9.0
25.376,2.456,-0.448,6.0
22.144,2.147,-0.517,6.0
18.216,1.769,-0.532,17.0
17.736,1.725,-0.619,20.0
17.126,1.668,-0.696,11.0
29.355,2.868,-0.386,8.0
24.709,2.417,-0.466,5.0
21.656,2.122,-0.532,7.0
18.01,1.767,-0.547,16.0
17.533,1.723,-0.633,16.0
16.93,1.666,-0.708,7.0
28.426,2.805,-0.409,8.0
23.979,2.37,-0.482,5.0
21.358,2.114,-0.551,0.0
17.748,1.759,-0.561,17.0
17.377,1.725,-0.649,12.0
16.517,1.642,-0.711,5.0
26.858,2.676,-0.419,7.0
23.317,2.327,-0.497,5.0
18.278,1.826,-0.494,17.0
17.583,1.759,-0.578,18.0
17.197,1.723,-0.663,9.0
16.196,1.625,-0.718,4.0
25.781,2.593,-0.434,6.0
22.585,2.274,-0.509,4.0
17.962,1.811,-0.508,16.0
17.401,1.756,-0.593,17.0
16.955,1.714,-0.675,13.0
16.012,1.621,-0.729,6.0
25.008,2.536,-0.452,7.0
22.084,2.243,-0.525,2.0
17.727,1.802,-0.523,16.0
17.286,1.76,-0.611,18.0
16.837,1.716,-0.692,13.0
15.97,1.63,-0.748,5.0
24.399,2.495,-0.472,8.0
18.239,1.867,-0.457,14.0
17.592,1.803,-0.542,17.0
17.033,1.748,-0.624,14.0
16.725,1.718,-0.709,10.0
15.717,1.617,-0.756,0.0
23.632,2.435,-0.487,5.0
17.888,1.845,-0.471,15.0
17.437,1.801,-0.559,17.0
16.866,1.744,-0.639,13.0
16.332,1.69,-0.712,8.0
15.19,1.574,-0.75,0.0
22.918,2.379,-0.501,5.0
17.712,1.84,-0.489,18.0
17.295,1.799,-0.577,17.0
16.725,1.741,-0.655,13.0
16.085,1.677,-0.722,11.0
14.957,1.561,-0.758,0.0
18.18,1.899,-0.421,11.0
17.626,1.843,-0.509,18.0
17.09,1.789,-0.592,14.0
16.647,1.744,-0.674,13.0
15.963,1.675,-0.737,8.0
17.754,1.865,-0.922,0.0
17.876,1.879,-0.437,16.0
17.47,1.838,-0.527,15.0
16.852,1.775,-0.605,13.0
16.484,1.738,-0.688,12.0
16.134,1.703,-0.766,2.0
17.642,1.864,-0.939,0.0
17.721,1.874,-0.456,20.0
17.264,1.827,-0.543,14.0
16.725,1.772,-0.622,13.0
16.321,1.73,-0.702,12.0
0.0,0.0,0.0,0.0
17.51,1.86,-0.955,0.0
17.635,1.875,-0.477,20.0
17.132,1.823,-0.561,14.0
16.664,1.774,-0.642,18.0
16.111,1.717,-0.714,10.0
17.709,1.889,-0.887,0.0
17.571,1.876,-0.981,0.0
17.538,1.874,-0.497,18.0
17.003,1.818,-0.579,17.0
16.601,1.776,-0.661,15.0
15.948,1.708,-0.728,10.0
17.669,1.894,-0.908,1.0
13.628,1.462,-0.779,0.0
17.381,1.865,-0.515,17.0
16.817,1.806,-0.594,16.0
16.409,1.763,-0.674,13.0
16.122,1.734,-0.757,2.0
17.564,1.89,-0.926,1.0
13.433,1.447,-0.785,0.0
17.214,1.855,-0.532,17.0
16.709,1.801,-0.612,15.0
16.292,1.757,-0.691,12.0
16.626,1.795,-0.802,2.0
17.337,1.873,-0.936,1.0
13.252,1.433,-0.792,0.0
17.122,1.851,-0.551,18.0
16.649,1.801,-0.632,17.0
16.181,1.752,-0.707,10.0
17.488,1.894,-0.866,1.0
17.346,1.88,-0.959,0.0
13.007,1.411,-0.794,0.0
16.934,1.837,-0.567,14.0
16.494,1.79,-0.647,13.0
15.985,1.736,-0.719,10.0
17.506,1.902,-0.89,1.0
17.595,1.913,-0.996,0.0
12.838,1.397,-0.8,0.0
16.774,1.824,-0.583,14.0
16.356,1.779,-0.663,13.0
15.978,1.739,-0.739,6.0
17.446,1.9,-0.909,1.0
13.495,1.471,-0.781,0.0
12.686,1.383,-0.807,0.0
16.69,1.819,-0.602,15.0
16.295,1.777,-0.681,15.0
16.319,1.78,-0.776,2.0
17.344,1.893,-0.926,1.0
13.339,1.457,-0.789,0.0
12.5,1.366,-0.811,0.0
16.622,1.815,-0.62,17.0
16.164,1.766,-0.696,12.0
16.718,1.827,-0.816,2.0
17.262,1.887,-0.944,1.0
13.186,1.442,-0.797,0.0
12.284,1.344,-0.813,0.0
16.521,1.807,-0.638,16.0
16.019,1.752,-0.71,11.0
17.365,1.9,-0.87,0.0
17.403,1.905,-0.974,0.0
12.971,1.421,-0.8,0.0
12.109,1.327,-0.817,0.0
16.37,1.792,-0.653,16.0
15.949,1.746,-0.728,9.0
17.436,1.91,-0.896,0.0
13.557,1.485,-0.776,0.0
12.715,1.394,-0.801,0.0
11.924,1.307,-0.82,0.0
16.299,1.785,-0.67,17.0
16.101,1.764,-0.754,2.0
17.325,1.898,-0.912,1.0
13.409,1.47,-0.784,0.0
12.608,1.382,-0.81,0.0
11.843,1.299,-0.829,0.0
16.225,1.777,-0.687,16.0
16.43,1.8,-0.791,2.0
17.221,1.887,-0.927,1.0
13.211,1.448,-0.789,0.0
12.41,1.361,-0.813,0.0
11.608,1.273,-0.827,0.0
16.102,1.763,-0.702,13.0
0.0,0.0,0.0,0.0
17.297,1.895,-0.953,0.0
13.015,1.426,-0.793,0.0
12.253,1.343,-0.817,0.0
11.45,1.255,-0.83,0.0
15.972,1.748,-0.716,12.0
17.438,1.909,-0.882,0.0
17.5,1.916,-0.985,0.0
12.786,1.4,-0.795,0.0
12.089,1.324,-0.821,0.0
11.244,1.231,-0.828,0.0
15.975,1.746,-0.735,6.0
17.439,1.907,-0.902,0.0
13.486,1.474,-0.775,0.0
12.65,1.383,-0.801,0.0
11.896,1.301,-0.822,0.0
11.143,1.219,-0.834,0.0
16.207,1.769,-0.765,2.0
17.383,1.897,-0.92,1.0
13.418,1.465,-0.787,0.0
12.526,1.367,-0.808,0.0
11.796,1.288,-0.829,0.0
10.989,1.2,-0.836,0.0
16.687,1.818,-0.807,2.0
17.271,1.882,-0.934,1.0
13.254,1.444,-0.793,0.0
12.369,1.347,-0.812,0.0
11.607,1.265,-0.829,0.0
10.859,1.183,-0.838,0.0
17.521,1.905,-0.867,1.0
17.333,1.884,-0.957,0.0
12.987,1.412,-0.792,0.0
12.121,1.317,-0.81,0.0
11.388,1.238,-0.826,0.0
10.714,1.164,-0.839,0.0
17.582,1.906,-0.89,1.0
17.594,1.907,-0.992,0.0
12.843,1.392,-0.797,0.0
12.087,1.31,-0.821,0.0
11.289,1.223,-0.832,0.0
10.609,1.15,-0.843,0.0
17.603,1.903,-0.91,1.0
13.506,1.46,-0.776,0.0
12.662,1.368,-0.8,0.0
11.924,1.288,-0.823,0.0
11.149,1.204,-0.834,0.0
10.532,1.138,-0.849,0.0
17.513,1.886,-0.925,1.0
13.381,1.441,-0.783,0.0
12.58,1.354,-0.809,0.0
11.811,1.271,-0.828,0.0
10.998,1.184,-0.835,0.0
10.393,1.118,-0.849,0.0
17.407,1.868,-0.938,1.0
13.242,1.42,-0.789,0.0
12.398,1.329,-0.81,0.0
11.536,1.237,-0.821,0.0
10.883,1.167,-0.837,0.0
10.321,1.106,-0.854,0.0
17.507,1.871,-0.962,0.0
13.019,1.391,-0.79,0.0
12.264,1.309,-0.814,0.0
11.492,1.227,-0.83,0.0
10.743,1.146,-0.838,0.0
10.22,1.09,-0.856,0.0
17.685,1.881,-0.99,0.0
12.897,1.371,-0.796,0.0
12.194,1.296,-0.822,0.0
11.297,1.2,-0.828,0.0
10.598,1.125,-0.837,0.0
10.139,1.076,-0.86,0.0
13.619,1.441,-0.776,0.0
12.784,1.352,-0.801,0.0
11.959,1.264,-0.818,0.0
11.148,1.178,-0.828,0.0
10.529,1.112,-0.843,0.0
10.041,1.06,-0.861,0.0
13.494,1.42,-0.782,0.0
12.669,1.332,-0.807,0.0
11.868,1.248,-0.824,0.0
11.099,1.166,-0.835,0.0
10.446,1.097,-0.846,0.0
9.956,1.045,-0.864,0.0
13.364,1.398,-0.787,0.0
12.587,1.316,-0.813,0.0
11.797,1.233,-0.83,0.0
10.957,1.144,-0.835,0.0
10.361,1.082,-0.849,0.0
9.933,1.037,-0.871,0.0
13.187,1.371,-0.789,0.0
12.462,1.295,-0.817,0.0
11.684,1.213,-0.833,0.0
10.922,1.133,-0.842,0.0
10.335,1.072,-0.856,0.0
9.825,1.019,-0.871,0.0
13.088,1.351,-0.795,0.0
12.281,1.267,-0.816,0.0
11.471,1.183,-0.828,0.0
10.76,1.109,-0.839,0.0
10.246,1.055,-0.858,0.0
9.765,1.005,-0.874,0.0
12.939,1.327,-0.797,0.0
12.203,1.25,-0.821,0.0
11.405,1.168,-0.833,0.0
10.743,1.099,-0.847,0.0
10.157,1.039,-0.859,0.0
9.686,0.99,-0.875,0.0
12.821,1.305,-0.8,0.0
12.087,1.229,-0.824,0.0
11.254,1.144,-0.831,0.0
10.575,1.074,-0.843,0.0
10.122,1.027,-0.865,0.0
9.626,0.976,-0.878,0.0
12.751,1.287,-0.806,0.0
12.013,1.212,-0.828,0.0
11.247,1.134,-0.84,0.0
10.525,1.06,-0.847,0.0
10.031,1.009,-0.865,0.0
9.561,0.962,-0.879,0.0
12.643,1.266,-0.81,0.0
11.933,1.194,-0.832,0.0
11.09,1.108,-0.837,0.0
10.466,1.045,-0.851,0.0
9.97,0.995,-0.867,0.0
9.497,0.947,-0.881,0.0
12.548,1.246,-0.813,0.0
11.764,1.167,-0.829,0.0
11.037,1.093,-0.841,0.0
10.4,1.029,-0.853,0.0
9.934,0.982,-0.872,0.0
9.421,0.931,-0.881,0.0
12.435,1.223,-0.814,0.0
11.705,1.15,-0.833,0.0
10.969,1.077,-0.844,0.0
10.359,1.016,-0.857,0.0
9.861,0.966,-0.872,0.0
9.379,0.918,-0.883,0.0
12.351,1.203,-0.817,0.0
11.565,1.125,-0.831,0.0
10.905,1.06,-0.846,0.0
10.249,0.995,-0.855,0.0
9.82,0.953,-0.875,0.0
9.29,0.9,-0.881,0.0
12.278,1.184,-0.821,0.0
11.492,1.107,-0.834,0.0
10.867,1.046,-0.85,0.0
10.259,0.986,-0.862,0.0
9.744,0.936,-0.875,0.0
9.229,0.885,-0.881,0.0
12.178,1.162,-0.822,0.0
11.393,1.086,-0.833,0.0
10.747,1.023,-0.847,0.0
10.144,0.965,-0.859,0.0
9.703,0.922,-0.877,0.0
9.181,0.871,-0.882,0.0
12.116,1.144,-0.824,0.0
11.31,1.066,-0.834,0.0
10.691,1.007,-0.849,0.0
10.17,0.956,-0.867,0.0
9.703,0.912,-0.882,0.0
9.147,0.858,-0.884,0.0
12.104,1.13,-0.83,0.0
11.297,1.053,-0.839,0.0
10.635,0.99,-0.85,0.0
10.085,0.938,-0.865,0.0
9.65,0.896,-0.882,0.0
9.161,0.85,-0.89,0.0
12.008,1.108,-0.83,0.0
11.233,1.035,-0.84,0.0
10.602,0.976,-0.853,0.0
10.075,0.926,-0.869,0.0
9.613,0.882,-0.884,0.0
11.989,1.093,-0.834,0.0
11.205,1.02,-0.843,0.0
10.536,0.958,-0.852,0.0
10.024,0.91,-0.869,0.0
9.562,0.867,-0.883,0.0
11.874,1.069,-0.831,0.0
11.125,1.0,-0.842,0.0
10.527,0.945,-0.856,0.0
10.011,0.897,-0.872,0.0
9.582,0.857,-0.889,0.0
9.029,0.807,-0.889,0.0
11.818,1.05,-0.832,0.0
11.128,0.987,-0.846,0.0
10.451,0.925,-0.854,0.0
9.993,0.883,-0.874,0.0
9.55,0.843,-0.89,0.0
11.751,1.03,-0.832,0.0
11.084,0.97,-0.847,0.0
10.465,0.914,-0.859,0.0
9.96,0.869,-0.875,0.0
9.467,0.824,-0.885,0.0
8.953,0.778,-0.888,0.0
11.733,1.014,-0.834,0.0
11.033,0.952,-0.847,0.0
10.424,0.898,-0.859,0.0
9.926,0.853,-0.875,0.0
9.48,0.814,-0.889,0.0
11.705,0.997,-0.835,0.0
11.035,0.938,-0.85,0.0
10.411,0.884,-0.861,0.0
9.933,0.841,-0.878,0.0
9.48,0.802,-0.892,0.0
8.921,0.753,-0.89,0.0
11.637,0.977,-0.833,0.0
11.051,0.926,-0.854,0.0
10.405,0.87,-0.863,0.0
9.901,0.826,-0.878,0.0
9.485,0.79,-0.895,0.0
8.883,0.738,-0.888,0.0
11.64,0.962,-0.836,0.0
11.014,0.908,-0.853,0.0
10.39,0.855,-0.863,0.0
9.906,0.814,-0.88,0.0
9.448,0.775,-0.893,0.0
8.864,0.725,-0.888,0.0
11.633,0.946,-0.837,0.0
10.995,0.893,-0.853,0.0
10.356,0.839,-0.862,0.0
9.879,0.799,-0.879,0.0
9.395,0.758,-0.889,0.0
8.86,0.713,-0.888,0.0
11.659,0.933,-0.841,0.0
11.003,0.879,-0.855,0.0
10.342,0.824,-0.862,0.0
9.922,0.789,-0.884,0.0
9.451,0.75,-0.895,0.0
8.84,0.7,-0.887,0.0
11.644,0.916,-0.84,0.0
10.944,0.859,-0.851,0.0
10.376,0.813,-0.865,0.0
9.967,0.779,-0.888,0.0
9.43,0.735,-0.894,0.0
8.855,0.689,-0.889,0.0
11.582,0.895,-0.836,0.0
10.955,0.845,-0.852,0.0
10.36,0.797,-0.864,0.0
9.918,0.761,-0.884,0.0
9.429,0.722,-0.894,0.0
8.863,0.677,-0.89,0.0
11.611,0.882,-0.838,0.0
10.958,0.83,-0.853,0.0
10.41,0.787,-0.868,0.0
9.911,0.747,-0.883,0.0
9.437,0.71,-0.894,0.0
8.901,0.668,-0.893,0.0
11.615,0.866,-0.838,0.0
11.023,0.82,-0.857,0.0
10.425,0.773,-0.869,0.0
9.958,0.737,-0.887,0.0
9.474,0.699,-0.897,0.0
8.9,0.655,-0.893,0.0
11.615,0.85,-0.837,0.0
10.995,0.802,-0.854,0.0
10.437,0.759,-0.869,0.0
9.932,0.721,-0.883,0.0
9.486,0.687,-0.897,0.0
8.89,0.642,-0.89,0.0
11.686,0.838,-0.841,0.0
11.055,0.791,-0.857,0.0
10.422,0.743,-0.866,0.0
9.959,0.708,-0.884,0.0
9.506,0.675,-0.897,0.0
8.916,0.631,-0.891,0.0
11.767,0.827,-0.845,0.0
11.099,0.778,-0.858,0.0
10.48,0.733,-0.869,0.0
9.988,0.696,-0.885,0.0
9.516,0.662,-0.896,0.0
8.965,0.621,-0.895,0.0
11.734,0.808,-0.839,0.0
11.141,0.765,-0.859,0.0
10.5,0.719,-0.868,0.0
10.029,0.685,-0.886,0.0
9.566,0.651,-0.899,0.0
8.959,0.608,-0.892,0.0
11.826,0.798,-0.843,0.0
11.149,0.749,-0.857,0.0
10.552,0.707,-0.869,0.0
10.025,0.67,-0.883,0.0
9.577,0.638,-0.897,0.0
8.981,0.596,-0.891,0.0
11.824,0.78,-0.839,0.0
11.189,0.736,-0.856,0.0
10.594,0.694,-0.87,0.0
10.082,0.659,-0.885,0.0
9.621,0.627,-0.898,0.0
9.057,0.588,-0.895,0.0
11.89,0.767,-0.84,0.0
11.214,0.721,-0.854,0.0
10.64,0.682,-0.869,0.0
10.13,0.647,-0.885,0.0
9.616,0.612,-0.894,0.0
9.118,0.579,-0.898,0.0
12.002,0.757,-0.843,0.0
11.249,0.707,-0.852,0.0
10.675,0.668,-0.868,0.0
10.141,0.633,-0.882,0.0
9.645,0.6,-0.892,0.0
9.185,0.569,-0.901,0.0
12.021,0.74,-0.839,0.0
11.323,0.694,-0.853,0.0
10.771,0.658,-0.871,0.0
10.213,0.622,-0.883,0.0
9.727,0.59,-0.895,0.0
9.212,0.557,-0.899,0.0
12.135,0.729,-0.841,0.0
11.412,0.683,-0.854,0.0
10.826,0.646,-0.87,0.0
10.263,0.61,-0.882,0.0
9.811,0.581,-0.898,0.0
9.281,0.547,-0.901,0.0
12.235,0.717,-0.842,0.0
11.538,0.673,-0.857,0.0
10.866,0.632,-0.867,0.0
10.305,0.597,-0.88,0.0
9.882,0.57,-0.899,0.0
9.353,0.538,-0.902,0.0
12.339,0.705,-0.842,0.0
11.595,0.66,-0.855,0.0
10.896,0.617,-0.863,0.0
10.353,0.584,-0.878,0.0
9.919,0.558,-0.896,0.0
9.377,0.525,-0.899,0.0
12.441,0.692,-0.841,0.0
11.659,0.646,-0.853,0.0
10.996,0.607,-0.864,0.0
10.437,0.574,-0.879,0.0
9.931,0.544,-0.891,0.0
9.46,0.516,-0.901,0.0
12.521,0.678,-0.839,0.0
11.683,0.63,-0.847,0.0
11.063,0.594,-0.862,0.0
10.483,0.561,-0.876,0.0
10.037,0.535,-0.894,0.0
9.562,0.507,-0.904,0.0
23.668,1.247,-1.569,0.0
11.961,0.627,-0.858,0.0
