X,Y,Z,Reflectivity
108.619,-6.202,8.717,26.0
108.998,-6.195,8.127,20.0
0.0,0.0,0.0,0.0
125.074,-7.063,12.126,3.0
109.095,-6.13,9.952,24.0
108.613,-6.075,9.277,28.0
108.536,-6.042,8.652,23.0
109.496,-6.066,8.105,6.0
0.0,0.0,0.0,0.0
109.158,-6.007,10.521,21.0
109.052,-5.972,9.887,21.0
108.865,-5.932,9.236,23.0
108.73,-5.895,8.604,22.0
109.4,-5.903,8.035,20.0
0.0,0.0,0.0,0.0
109.173,-5.849,10.457,23.0
109.214,-5.822,9.834,20.0
111.134,-5.894,9.361,7.0
108.856,-5.745,8.546,16.0
109.489,-5.751,7.973,18.0
109.544,-5.74,11.051,5.0
109.412,-5.705,10.409,21.0
109.206,-5.664,9.762,17.0
111.543,-5.755,9.322,22.0
112.208,-5.761,8.735,21.0
109.556,-5.596,7.903,14.0
0.0,0.0,0.0,0.0
125.75,-6.373,11.876,14.0
111.901,-5.641,9.925,20.0
111.668,-5.601,9.253,18.0
113.626,-5.669,8.764,21.0
111.345,-5.526,7.953,17.0
0.0,0.0,0.0,0.0
126.501,-6.228,11.853,14.0
111.528,-5.462,9.81,22.0
111.761,-5.444,9.177,11.0
113.787,-5.514,8.691,15.0
115.214,-5.554,8.142,20.0
0.0,0.0,0.0,0.0
126.554,-6.05,11.76,10.0
111.585,-5.305,9.728,18.0
116.218,-5.496,9.452,24.0
115.593,-5.436,8.738,20.0
114.529,-5.357,8.002,25.0
0.0,0.0,0.0,0.0
116.666,-5.41,10.745,10.0
111.849,-5.157,9.658,20.0
116.205,-5.329,9.354,21.0
115.092,-5.249,8.604,17.0
114.773,-5.206,7.923,24.0
0.0,0.0,0.0,0.0
113.424,-5.098,10.349,8.0
124.079,-5.545,10.607,19.0
115.639,-5.139,9.208,23.0
114.827,-5.073,8.483,21.0
114.938,-5.05,7.832,22.0
0.0,0.0,0.0,0.0
113.359,-4.934,10.241,5.0
124.252,-5.375,10.507,8.0
115.309,-4.96,9.075,26.0
115.509,-4.939,8.427,24.0
114.941,-4.888,7.726,22.0
0.0,0.0,0.0,0.0
124.422,-5.237,11.12,15.0
124.056,-5.191,10.373,20.0
115.086,-4.787,8.947,23.0
115.678,-4.784,8.327,25.0
115.752,-4.76,7.668,21.0
0.0,0.0,0.0,0.0
124.033,-5.048,10.963,19.0
114.897,-4.646,9.491,23.0
115.36,-4.638,8.854,22.0
115.716,-4.624,8.214,14.0
115.801,-4.6,7.553,20.0
0.0,0.0,0.0,0.0
124.496,-4.893,10.876,24.0
115.142,-4.496,9.394,19.0
115.13,-4.468,8.716,24.0
115.76,-4.466,8.096,22.0
115.57,-4.431,7.417,20.0
113.568,-4.333,10.458,1.0
124.487,-4.719,10.742,8.0
115.229,-4.34,9.276,24.0
115.077,-4.306,8.586,25.0
115.677,-4.302,7.963,22.0
116.606,-4.31,7.357,18.0
113.651,-4.177,10.338,7.0
115.064,-4.203,9.799,16.0
115.909,-4.206,9.199,24.0
115.539,-4.165,8.491,21.0
115.903,-4.151,7.848,18.0
114.533,-4.077,7.095,18.0
113.54,-4.018,10.197,2.0
115.23,-4.051,9.68,20.0
115.518,-4.035,9.035,19.0
115.944,-4.022,8.386,9.0
117.863,-4.062,7.844,17.0
114.661,-3.926,6.968,31.0
0.0,0.0,0.0,0.0
116.135,-3.925,9.617,23.0
115.948,-3.892,8.929,11.0
124.266,-4.144,8.837,24.0
117.784,-3.901,7.695,23.0
114.674,-3.773,6.831,21.0
126.358,-4.13,11.041,20.0
126.117,-4.095,10.288,23.0
115.946,-3.739,8.786,21.0
127.426,-4.082,8.905,9.0
117.534,-3.739,7.535,19.0
115.621,-3.652,6.743,29.0
116.205,-3.645,10.007,18.0
125.684,-3.915,10.093,11.0
125.99,-3.898,9.387,22.0
118.104,-3.628,8.103,23.0
123.767,-3.776,7.775,17.0
115.757,-3.507,6.604,25.0
126.672,-3.809,10.744,6.0
126.27,-3.771,9.976,13.0
140.425,-4.163,10.278,13.0
125.249,-3.685,8.428,16.0
115.779,-3.383,7.121,11.0
115.876,-3.361,6.456,23.0
0.0,0.0,0.0,0.0
126.284,-3.608,9.807,24.0
0.0,0.0,0.0,0.0
125.164,-3.522,8.252,23.0
115.873,-3.237,6.969,26.0
124.319,-3.448,6.757,15.0
0.0,0.0,0.0,0.0
0.0,0.0,0.0,0.0
141.985,-3.847,10.004,11.0
125.274,-3.369,8.086,10.0
123.932,-3.309,7.282,18.0
124.354,-3.295,6.586,15.0
0.0,0.0,0.0,0.0
0.0,0.0,0.0,0.0
125.258,-3.24,8.648,9.0
125.084,-3.21,7.896,12.0
124.163,-3.162,7.119,25.0
141.59,-3.578,7.297,12.0
0.0,0.0,0.0,0.0
0.0,0.0,0.0,0.0
125.337,-3.089,8.471,7.0
124.46,-3.042,7.675,21.0
124.544,-3.021,6.959,28.0
0.0,0.0,0.0,0.0
0.0,0.0,0.0,0.0
0.0,0.0,0.0,0.0
0.0,0.0,0.0,0.0
124.874,-2.903,7.515,26.0
124.645,-2.875,6.778,4.0
140.945,-3.225,6.847,10.0
0.0,0.0,0.0,0.0
0.0,0.0,0.0,0.0
0.0,0.0,0.0,0.0
125.131,-2.761,7.339,3.0
0.0,0.0,0.0,0.0
192.537,-4.179,9.055,20.0
0.0,0.0,0.0,0.0
0.0,0.0,0.0,0.0
0.0,0.0,0.0,0.0
0.0,0.0,0.0,0.0
0.0,0.0,0.0,0.0
191.529,-3.938,8.708,22.0
0.0,0.0,0.0,0.0
0.0,0.0,0.0,0.0
0.0,0.0,0.0,0.0
0.0,0.0,0.0,0.0
0.0,0.0,0.0,0.0
191.474,-3.722,8.398,22.0
0.0,0.0,0.0,0.0
0.0,0.0,0.0,0.0
0.0,0.0,0.0,0.0
0.0,0.0,0.0,0.0
192.573,-3.566,9.252,5.0
191.788,-3.518,8.1,18.0
0.0,0.0,0.0,0.0
0.0,0.0,0.0,0.0
189.939,-3.375,11.04,8.0
189.987,-3.345,9.919,22.0
189.984,-3.313,8.812,29.0
190.014,-3.283,7.708,25.0
0.0,0.0,0.0,0.0
190.063,-3.207,11.837,14.0
0.0,0.0,0.0,0.0
0.0,0.0,0.0,0.0
193.215,-3.166,8.632,19.0
191.459,-3.107,7.442,18.0
0.0,0.0,0.0,0.0
0.0,0.0,0.0,0.0
0.0,0.0,0.0,0.0
0.0,0.0,0.0,0.0
192.949,-2.964,8.29,24.0
191.901,-2.919,7.128,21.0
0.0,0.0,0.0,0.0
0.0,0.0,0.0,0.0
0.0,0.0,0.0,0.0
0.0,0.0,0.0,0.0
192.791,-2.77,7.947,21.0
191.764,-2.728,6.788,18.0
0.0,0.0,0.0,0.0
0.0,0.0,0.0,0.0
0.0,0.0,0.0,0.0
0.0,0.0,0.0,0.0
185.941,-2.491,7.334,17.0
162.582,-2.155,5.466,35.0
0.0,0.0,0.0,0.0
0.0,0.0,0.0,0.0
0.0,0.0,0.0,0.0
0.0,0.0,0.0,0.0
185.889,-2.317,6.998,23.0
162.636,-2.004,5.174,41.0
0.0,0.0,0.0,0.0
0.0,0.0,0.0,0.0
0.0,0.0,0.0,0.0
186.448,-2.179,7.765,8.0
185.888,-2.148,6.657,18.0
19.772,-0.225,0.593,7.0
0.0,0.0,0.0,0.0
0.0,0.0,0.0,0.0
0.0,0.0,0.0,0.0
0.0,0.0,0.0,0.0
19.774,-0.211,0.671,2.0
19.755,-0.208,0.555,9.0
0.0,0.0,0.0,0.0
0.0,0.0,0.0,0.0
0.0,0.0,0.0,0.0
184.113,-1.832,6.98,18.0
19.747,-0.194,0.633,6.0
19.741,-0.191,0.518,11.0
0.0,0.0,0.0,0.0
0.0,0.0,0.0,0.0
184.339,-1.705,7.736,8.0
19.77,-0.18,0.712,2.0
19.738,-0.177,0.595,8.0
19.753,-0.175,0.481,7.0
0.0,0.0,0.0,0.0
0.0,0.0,0.0,0.0
184.065,-1.556,7.372,22.0
19.752,-0.164,0.673,3.0
19.761,-0.162,0.558,6.0
19.777,-0.16,0.443,1.0
0.0,0.0,0.0,0.0
184.664,-1.442,8.119,21.0
19.753,-0.152,0.753,0.0
19.725,-0.149,0.634,2.0
19.787,-0.147,0.52,6.0
177.216,-1.304,3.629,24.0
0.0,0.0,0.0,0.0
184.518,-1.305,7.752,24.0
19.749,-0.137,0.714,2.0
19.696,-0.135,0.594,5.0
19.689,-0.132,0.479,5.0
19.698,-0.13,0.365,2.0
186.191,-1.206,8.547,7.0
184.241,-1.173,7.377,17.0
19.664,-0.123,0.672,8.0
19.647,-0.121,0.554,9.0
19.672,-0.119,0.44,9.0
19.688,-0.117,0.326,8.0
184.737,-1.072,8.112,14.0
19.698,-0.112,0.749,7.0
19.651,-0.11,0.632,12.0
19.636,-0.108,0.515,11.0
19.662,-0.106,0.401,9.0
19.674,-0.104,0.286,9.0
184.733,-0.953,7.738,19.0
19.674,-0.099,0.709,10.0
19.638,-0.097,0.592,12.0
19.635,-0.095,0.475,10.0
19.66,-0.094,0.361,10.0
19.68,-0.092,0.247,11.0
19.717,-0.089,0.786,2.0
19.659,-0.087,0.669,12.0
19.638,-0.086,0.553,11.0
19.629,-0.084,0.436,9.0
19.652,-0.082,0.321,9.0
19.69,-0.081,0.207,15.0
19.693,-0.078,0.745,9.0
19.648,-0.076,0.628,13.0
19.63,-0.075,0.512,11.0
19.638,-0.073,0.396,9.0
19.656,-0.071,0.281,9.0
19.698,-0.07,0.167,17.0
19.67,-0.067,0.703,12.0
19.635,-0.066,0.587,13.0
19.633,-0.064,0.472,11.0
19.63,-0.063,0.355,10.0
19.654,-0.061,0.24,13.0
19.703,-0.06,0.126,16.0
19.654,-0.057,0.662,13.0
19.625,-0.056,0.545,12.0
19.621,-0.054,0.431,12.0
19.627,-0.053,0.314,10.0
19.664,-0.052,0.199,13.0
19.704,-0.05,0.085,15.0
19.637,-0.048,0.62,13.0
19.628,-0.047,0.505,12.0
19.622,-0.045,0.39,10.0
19.622,-0.044,0.273,10.0
19.682,-0.043,0.159,10.0
19.7,-0.042,0.044,16.0
19.625,-0.04,0.579,14.0
19.628,-0.038,0.463,12.0
19.619,-0.037,0.348,10.0
19.631,-0.036,0.232,14.0
19.687,-0.035,0.117,13.0
19.713,-0.034,0.002,16.0
19.628,-0.032,0.538,13.0
19.623,-0.031,0.422,12.0
19.622,-0.03,0.307,12.0
19.652,-0.029,0.191,11.0
19.697,-0.028,0.076,14.0
19.724,-0.027,-0.038,13.0
19.628,-0.025,0.496,13.0
19.627,-0.024,0.381,13.0
19.624,-0.023,0.266,12.0
19.692,-0.022,0.15,3.0
19.71,-0.021,0.035,13.0
19.769,-0.02,-0.08,6.0
19.63,-0.019,0.455,14.0
19.626,-0.018,0.339,13.0
19.633,-0.017,0.225,14.0
19.686,-0.016,0.108,3.0
19.723,-0.015,-0.006,13.0
19.754,-0.014,-0.122,2.0
19.627,-0.013,0.413,13.0
19.629,-0.012,0.298,13.0
19.673,-0.012,0.183,8.0
19.724,-0.011,0.066,6.0
19.743,-0.01,-0.049,9.0
19.805,-0.009,-0.165,0.0
19.624,-0.008,0.371,14.0
19.632,-0.008,0.256,13.0
19.749,-0.007,0.142,1.0
19.728,-0.006,0.024,10.0
19.787,-0.006,-0.091,1.0
0.0,0.0,0.0,0.0
19.629,-0.004,0.329,14.0
19.638,-0.004,0.214,15.0
19.791,-0.003,0.099,2.0
19.75,-0.002,-0.018,9.0
19.767,-0.002,-0.134,0.0
19.715,-0.001,-0.248,0.0
19.639,-0.001,0.286,15.0
19.773,0.0,0.173,3.0
19.779,0.0,0.057,4.0
19.751,0.0,-0.06,2.0
19.764,0.0,-0.176,0.0
19.771,0.001,-0.292,0.0
19.636,0.001,0.244,16.0
19.794,0.001,0.13,1.0
19.747,0.002,0.014,8.0
19.744,0.002,-0.102,0.0
19.754,0.002,-0.218,0.0
19.768,0.003,-0.334,0.0
19.655,0.003,0.202,12.0
19.777,0.003,0.088,5.0
19.749,0.003,-0.027,11.0
19.748,0.004,-0.144,0.0
19.773,0.004,-0.261,0.0
19.753,0.004,-0.376,0.0
19.818,0.004,0.162,2.0
19.774,0.004,0.046,3.0
19.762,0.004,-0.069,1.0
19.773,0.004,-0.187,0.0
19.77,0.005,-0.303,1.0
19.805,0.005,-0.419,0.0
19.773,0.004,0.119,2.0
19.75,0.004,0.003,13.0
19.776,0.005,-0.112,1.0
19.791,0.005,-0.229,0.0
19.789,0.005,-0.345,0.0
19.806,0.005,-0.462,1.0
19.791,0.004,0.077,4.0
19.748,0.004,-0.038,11.0
19.782,0.004,-0.154,0.0
19.76,0.004,-0.271,0.0
19.761,0.004,-0.387,0.0
19.794,0.004,-0.504,0.0
19.764,0.003,0.035,7.0
19.799,0.003,-0.08,0.0
19.768,0.003,-0.196,0.0
19.748,0.003,-0.314,0.0
19.823,0.002,-0.431,0.0
19.795,0.002,-0.546,0.0
19.758,0.001,-0.007,9.0
19.753,0.001,-0.123,0.0
19.738,0.001,-0.238,0.0
19.768,0.001,-0.356,0.0
19.753,0.0,-0.472,1.0
19.778,0.0,-0.588,0.0
19.754,0.0,-0.049,4.0
19.592,-0.001,-0.163,0.0
19.714,-0.001,-0.279,0.0
29.744,-0.002,-0.599,0.0
25.667,-0.002,-0.667,0.0
22.546,-0.002,-0.718,0.0
19.78,-0.003,-0.091,1.0
0.0,0.0,0.0,0.0
32.469,-0.008,-0.529,0.0
27.975,-0.007,-0.623,0.0
24.411,-0.007,-0.687,0.0
21.371,-0.006,-0.726,0.0
19.755,-0.007,-0.132,0.0
0.0,0.0,0.0,0.0
0.0,0.0,0.0,0.0
26.497,-0.012,-0.646,0.0
23.176,-0.012,-0.701,0.0
20.093,-0.011,-0.726,0.0
12.971,-0.329,-0.856,0.0
12.093,-0.309,-0.868,0.0
11.414,-0.294,-0.885,0.0
10.774,-0.279,-0.899,0.0
10.189,-0.266,-0.91,0.0
9.634,-0.254,-0.916,0.0
12.722,-0.338,-0.856,0.0
12.001,-0.321,-0.877,0.0
11.253,-0.303,-0.887,0.0
10.65,-0.289,-0.903,0.0
10.059,-0.275,-0.911,0.0
9.528,-0.262,-0.918,0.0
12.547,-0.349,-0.86,0.0
11.807,-0.33,-0.877,0.0
11.123,-0.313,-0.891,0.0
10.479,-0.297,-0.901,0.0
9.943,-0.284,-0.913,0.0
9.413,-0.271,-0.919,0.0
12.418,-0.36,-0.866,0.0
11.707,-0.342,-0.884,0.0
10.962,-0.323,-0.892,0.0
10.338,-0.306,-0.902,0.0
9.836,-0.294,-0.915,0.0
9.338,-0.281,-0.923,0.0
12.286,-0.372,-0.872,0.0
11.513,-0.351,-0.883,0.0
10.829,-0.332,-0.893,0.0
10.248,-0.317,-0.906,0.0
9.702,-0.302,-0.914,0.0
9.246,-0.29,-0.925,0.0
12.145,-0.383,-0.876,0.0
11.326,-0.36,-0.882,0.0
10.73,-0.343,-0.897,0.0
10.132,-0.326,-0.907,0.0
9.624,-0.312,-0.917,0.0
9.141,-0.298,-0.924,0.0
12.016,-0.394,-0.879,0.0
11.192,-0.37,-0.884,0.0
10.64,-0.354,-0.902,0.0
10.041,-0.336,-0.91,0.0
9.535,-0.321,-0.919,0.0
9.076,-0.308,-0.928,0.0
11.829,-0.404,-0.878,0.0
11.137,-0.382,-0.891,0.0
10.505,-0.363,-0.901,0.0
9.944,-0.346,-0.911,0.0
9.431,-0.33,-0.919,0.0
8.942,-0.315,-0.923,0.0
11.712,-0.415,-0.882,0.0
11.052,-0.394,-0.896,0.0
10.424,-0.374,-0.905,0.0
9.855,-0.356,-0.913,0.0
9.348,-0.34,-0.921,0.0
8.865,-0.324,-0.924,0.0
11.572,-0.425,-0.883,0.0
10.903,-0.403,-0.894,0.0
10.324,-0.384,-0.906,0.0
9.758,-0.365,-0.914,0.0
9.28,-0.35,-0.923,0.0
8.805,-0.334,-0.927,0.0
11.44,-0.436,-0.883,0.0
10.815,-0.414,-0.897,0.0
10.186,-0.393,-0.904,0.0
9.693,-0.376,-0.917,0.0
9.206,-0.359,-0.924,0.0
8.747,-0.343,-0.928,0.0
11.26,-0.444,-0.88,0.0
10.662,-0.423,-0.894,0.0
10.125,-0.404,-0.907,0.0
9.603,-0.385,-0.917,0.0
9.149,-0.369,-0.926,0.0
8.681,-0.352,-0.929,0.0
11.186,-0.456,-0.883,0.0
10.634,-0.436,-0.901,0.0
10.054,-0.414,-0.909,0.0
9.547,-0.396,-0.919,0.0
9.07,-0.378,-0.926,0.0
8.644,-0.362,-0.932,0.0
11.102,-0.467,-0.886,0.0
10.507,-0.445,-0.898,0.0
9.958,-0.424,-0.908,0.0
9.489,-0.406,-0.921,0.0
8.982,-0.387,-0.924,0.0
8.6,-0.372,-0.934,0.0
11.019,-0.479,-0.887,0.0
10.432,-0.456,-0.9,0.0
9.891,-0.434,-0.91,0.0
9.412,-0.416,-0.921,0.0
8.929,-0.396,-0.925,0.0
8.502,-0.38,-0.93,0.0
10.969,-0.492,-0.891,0.0
10.384,-0.468,-0.903,0.0
9.84,-0.446,-0.912,0.0
9.34,-0.425,-0.92,0.0
8.893,-0.407,-0.927,0.0
8.457,-0.389,-0.931,0.0
10.449,-0.706,-0.906,0.0
9.877,-0.67,-0.912,0.0
9.385,-0.639,-0.919,0.0
8.949,-0.611,-0.928,0.0
8.513,-0.584,-0.931,0.0
8.149,-0.561,-0.937,0.0
10.44,-0.719,-0.905,0.0
9.899,-0.684,-0.913,0.0
9.385,-0.651,-0.919,0.0
8.945,-0.622,-0.927,0.0
8.52,-0.595,-0.931,0.0
8.148,-0.571,-0.936,0.0
10.367,-0.726,-0.897,0.0
9.896,-0.696,-0.912,0.0
9.417,-0.664,-0.921,0.0
8.95,-0.634,-0.926,0.0
8.562,-0.608,-0.934,0.0
8.133,-0.58,-0.933,0.0
10.442,-0.744,-0.902,0.0
9.931,-0.71,-0.914,0.0
9.419,-0.676,-0.919,0.0
8.99,-0.648,-0.928,0.0
8.595,-0.621,-0.936,0.0
8.144,-0.591,-0.932,0.0
10.478,-0.76,-0.903,0.0
9.908,-0.721,-0.909,0.0
9.459,-0.69,-0.921,0.0
9.013,-0.66,-0.929,0.0
8.595,-0.632,-0.934,0.0
8.209,-0.605,-0.938,0.0
10.502,-0.774,-0.903,0.0
9.959,-0.736,-0.911,0.0
9.456,-0.701,-0.918,0.0
9.04,-0.673,-0.929,0.0
8.588,-0.641,-0.931,0.0
8.195,-0.614,-0.934,0.0
10.555,-0.79,-0.904,0.0
9.946,-0.747,-0.907,0.0
9.502,-0.716,-0.92,0.0
9.049,-0.684,-0.927,0.0
8.643,-0.655,-0.934,0.0
8.213,-0.625,-0.933,0.0
10.619,-0.807,-0.906,0.0
10.001,-0.762,-0.909,0.0
9.494,-0.726,-0.916,0.0
9.079,-0.696,-0.927,0.0
8.677,-0.668,-0.934,0.0
8.289,-0.64,-0.939,0.0
10.647,-0.821,-0.905,0.0
10.034,-0.776,-0.908,0.0
9.564,-0.742,-0.919,0.0
9.078,-0.706,-0.924,0.0
8.7,-0.679,-0.933,0.0
8.285,-0.649,-0.935,0.0
10.707,-0.838,-0.906,0.0
10.047,-0.788,-0.905,0.0
9.631,-0.758,-0.921,0.0
9.086,-0.717,-0.92,0.0
8.721,-0.69,-0.932,0.0
8.328,-0.661,-0.936,0.0
10.761,-0.853,-0.905,0.0
10.147,-0.807,-0.91,0.0
9.659,-0.77,-0.919,0.0
9.198,-0.736,-0.927,0.0
8.753,-0.702,-0.931,0.0
8.346,-0.672,-0.934,0.0
10.793,-0.867,-0.903,0.0
10.239,-0.825,-0.913,0.0
9.687,-0.783,-0.917,0.0
9.238,-0.748,-0.927,0.0
8.804,-0.715,-0.932,0.0
8.398,-0.684,-0.936,0.0
10.887,-0.886,-0.905,0.0
10.294,-0.84,-0.912,0.0
9.739,-0.797,-0.917,0.0
9.284,-0.762,-0.926,0.0
8.857,-0.729,-0.933,0.0
8.473,-0.699,-0.939,0.0
10.959,-0.903,-0.905,0.0
10.328,-0.853,-0.909,0.0
9.8,-0.812,-0.917,0.0
9.325,-0.774,-0.925,0.0
8.938,-0.744,-0.936,0.0
8.474,-0.707,-0.934,0.0
11.06,-0.922,-0.906,0.0
10.396,-0.869,-0.909,0.0
9.859,-0.826,-0.916,0.0
9.347,-0.785,-0.921,0.0
8.958,-0.755,-0.932,0.0
8.539,-0.721,-0.936,0.0
11.091,-0.935,-0.902,0.0
10.502,-0.888,-0.912,0.0
9.906,-0.839,-0.914,0.0
9.406,-0.799,-0.921,0.0
8.986,-0.765,-0.929,0.0
8.573,-0.732,-0.934,0.0
11.165,-0.951,-0.9,0.0
10.59,-0.905,-0.912,0.0
9.985,-0.855,-0.915,0.0
9.553,-0.82,-0.929,0.0
9.066,-0.78,-0.931,0.0
8.652,-0.746,-0.936,0.0
11.252,-0.969,-0.899,0.0
10.599,-0.915,-0.905,0.0
10.096,-0.873,-0.918,0.0
9.561,-0.829,-0.922,0.0
9.119,-0.792,-0.93,0.0
8.719,-0.76,-0.937,0.0
11.363,-0.988,-0.9,0.0
10.72,-0.934,-0.908,0.0
10.164,-0.888,-0.916,0.0
9.623,-0.842,-0.921,0.0
9.173,-0.805,-0.928,0.0
8.805,-0.774,-0.939,0.0
11.446,-1.005,-0.898,0.0
10.877,-0.957,-0.912,0.0
10.225,-0.902,-0.913,0.0
9.693,-0.856,-0.92,0.0
9.228,-0.817,-0.926,0.0
8.828,-0.783,-0.935,0.0
11.562,-1.024,-0.897,0.0
10.961,-0.973,-0.91,0.0
10.295,-0.916,-0.911,0.0
9.804,-0.874,-0.922,0.0
9.289,-0.83,-0.925,0.0
8.876,-0.794,-0.932,0.0
11.641,-1.04,-0.894,0.0
10.983,-0.983,-0.903,0.0
10.453,-0.938,-0.916,0.0
9.851,-0.885,-0.918,0.0
9.376,-0.844,-0.925,0.0
9.011,-0.813,-0.938,0.0
11.745,-1.058,-0.891,0.0
11.078,-1.0,-0.901,0.0
10.583,-0.957,-0.918,0.0
9.919,-0.898,-0.915,0.0
9.479,-0.86,-0.927,0.0
9.076,-0.825,-0.937,0.0
11.954,-1.085,-0.896,0.0
11.265,-1.024,-0.906,0.0
10.624,-0.968,-0.912,0.0
10.043,-0.916,-0.918,0.0
9.589,-0.877,-0.928,0.0
9.132,-0.836,-0.934,0.0
12.038,-1.101,-0.891,0.0
11.316,-1.036,-0.899,0.0
10.683,-0.98,-0.907,0.0
10.103,-0.928,-0.913,0.0
9.669,-0.89,-0.927,0.0
9.189,-0.847,-0.931,0.0
12.163,-1.119,-0.889,0.0
11.399,-1.051,-0.895,0.0
10.795,-0.997,-0.906,0.0
10.232,-0.946,-0.915,0.0
9.718,-0.9,-0.922,0.0
9.284,-0.862,-0.931,0.0
12.319,-1.141,-0.888,0.0
11.503,-1.067,-0.891,0.0
10.917,-1.014,-0.905,0.0
10.343,-0.962,-0.914,0.0
9.789,-0.912,-0.918,0.0
9.399,-0.877,-0.933,0.0
12.331,-1.149,-0.876,0.0
11.702,-1.092,-0.894,0.0
11.068,-1.034,-0.906,0.0
10.507,-0.983,-0.918,0.0
9.966,-0.934,-0.924,0.0
9.472,-0.889,-0.93,0.0
12.642,-1.184,-0.885,0.0
11.883,-1.115,-0.896,0.0
11.178,-1.05,-0.903,0.0
10.614,-0.998,-0.916,0.0
10.091,-0.951,-0.925,0.0
9.55,-0.901,-0.927,0.0
12.831,-1.208,-0.884,0.0
12.081,-1.139,-0.898,0.0
11.223,-1.059,-0.894,0.0
10.724,-1.013,-0.914,0.0
10.177,-0.963,-0.922,0.0
9.653,-0.915,-0.927,0.0
12.94,-1.224,-0.878,0.0
12.176,-1.153,-0.891,0.0
11.484,-1.089,-0.903,0.0
10.837,-1.029,-0.911,0.0
10.289,-0.978,-0.92,0.0
9.765,-0.929,-0.926,0.0
13.098,-1.244,-0.874,0.0
12.299,-1.169,-0.886,0.0
11.568,-1.101,-0.896,0.0
10.949,-1.043,-0.908,0.0
10.401,-0.992,-0.919,0.0
9.876,-0.943,-0.925,0.0
13.341,-1.272,-0.875,0.0
12.479,-1.191,-0.885,0.0
11.756,-1.123,-0.897,0.0
11.115,-1.063,-0.909,0.0
10.55,-1.01,-0.919,0.0
9.972,-0.955,-0.923,0.0
13.544,-1.295,-0.872,0.0
12.656,-1.211,-0.883,0.0
11.912,-1.141,-0.894,0.0
11.236,-1.078,-0.905,0.0
10.641,-1.022,-0.914,0.0
10.098,-0.97,-0.922,0.0
13.745,-1.318,-0.869,0.0
12.855,-1.234,-0.881,0.0
12.088,-1.161,-0.893,0.0
11.29,-1.085,-0.896,0.0
10.828,-1.042,-0.917,0.0
10.234,-0.986,-0.922,0.0
14.033,-1.349,-0.87,0.0
13.066,-1.257,-0.88,0.0
12.293,-1.184,-0.893,0.0
11.568,-1.114,-0.904,0.0
10.918,-1.053,-0.912,0.0
10.334,-0.997,-0.918,0.0
14.286,-1.376,-0.868,0.0
13.371,-1.289,-0.884,0.0
12.398,-1.196,-0.886,0.0
11.727,-1.132,-0.902,0.0
11.047,-1.067,-0.908,0.0
10.495,-1.014,-0.919,0.0
14.526,-1.401,-0.864,0.0
13.533,-1.306,-0.877,0.0
12.56,-1.213,-0.881,0.0
11.884,-1.148,-0.899,0.0
11.179,-1.081,-0.905,0.0
10.628,-1.028,-0.917,0.0
14.79,-1.428,-0.861,0.0
13.688,-1.322,-0.87,0.0
12.825,-1.24,-0.884,0.0
12.051,-1.165,-0.896,0.0
11.371,-1.1,-0.906,0.0
10.774,-1.043,-0.916,0.0
15.043,-1.454,-0.857,0.0
14.006,-1.354,-0.872,0.0
13.006,-1.258,-0.879,0.0
12.21,-1.181,-0.892,0.0
11.51,-1.114,-0.902,0.0
10.884,-1.054,-0.911,0.0
15.294,-1.478,-0.851,0.0
14.242,-1.377,-0.868,0.0
13.34,-1.29,-0.884,0.0
12.297,-1.189,-0.882,0.0
11.678,-1.13,-0.9,0.0
11.041,-1.069,-0.91,0.0
15.639,-1.511,-0.85,0.0
14.542,-1.405,-0.867,0.0
13.535,-1.308,-0.879,0.0
12.555,-1.214,-0.884,0.0
11.872,-1.148,-0.899,0.0
11.168,-1.08,-0.905,0.0
16.009,-1.546,-0.849,0.0
14.772,-1.426,-0.862,0.0
13.68,-1.321,-0.871,0.0
12.841,-1.24,-0.887,0.0
12.105,-1.169,-0.9,0.0
11.416,-1.103,-0.91,0.0
16.331,-1.575,-0.844,0.0
15.041,-1.45,-0.857,0.0
14.034,-1.353,-0.874,0.0
12.997,-1.253,-0.88,0.0
12.258,-1.182,-0.895,0.0
11.495,-1.109,-0.901,0.0
16.718,-1.61,-0.841,0.0
15.35,-1.478,-0.854,0.0
14.297,-1.376,-0.871,0.0
13.298,-1.28,-0.882,0.0
12.42,-1.195,-0.89,0.0
11.724,-1.128,-0.903,0.0
17.078,-1.641,-0.837,0.0
15.737,-1.512,-0.854,0.0
14.523,-1.395,-0.865,0.0
13.497,-1.296,-0.877,0.0
12.574,-1.207,-0.884,0.0
11.847,-1.137,-0.896,0.0
17.345,-1.662,-0.826,0.0
16.061,-1.539,-0.85,0.0
14.844,-1.422,-0.864,0.0
13.764,-1.318,-0.876,0.0
12.834,-1.229,-0.885,0.0
12.114,-1.159,-0.9,0.0
17.61,-1.683,-0.815,0.0
16.459,-1.572,-0.848,0.0
15.146,-1.446,-0.861,0.0
14.046,-1.34,-0.874,0.0
13.061,-1.246,-0.882,0.0
12.28,-1.171,-0.895,0.0
18.4,-1.752,-0.826,0.0
16.894,-1.608,-0.847,0.0
15.45,-1.469,-0.857,0.0
14.319,-1.361,-0.871,0.0
13.346,-1.268,-0.883,0.0
12.484,-1.186,-0.892,0.0
18.791,-1.782,-0.817,0.0
17.146,-1.625,-0.836,0.0
15.789,-1.495,-0.853,0.0
14.584,-1.381,-0.867,0.0
13.481,-1.275,-0.873,0.0
12.748,-1.205,-0.893,0.0
19.134,-1.806,-0.805,0.0
17.304,-1.632,-0.819,0.0
16.071,-1.515,-0.846,0.0
14.826,-1.397,-0.861,0.0
13.885,-1.307,-0.879,0.0
12.903,-1.214,-0.886,0.0
19.653,-1.846,-0.8,0.0
17.845,-1.675,-0.82,0.0
16.468,-1.544,-0.844,0.0
15.267,-1.431,-0.865,0.0
14.12,-1.322,-0.874,0.0
13.07,-1.223,-0.879,0.0
20.195,-1.887,-0.793,0.0
18.511,-1.728,-0.825,0.0
16.83,-1.569,-0.839,0.0
15.519,-1.446,-0.857,0.0
14.369,-1.338,-0.87,0.0
13.362,-1.243,-0.879,0.0
20.678,-1.92,-0.783,0.0
18.706,-1.735,-0.807,0.0
17.273,-1.601,-0.836,0.0
15.811,-1.464,-0.851,0.0
14.664,-1.356,-0.867,0.0
13.662,-1.262,-0.88,0.0
21.021,-1.939,-0.767,0.0
19.325,-1.781,-0.807,0.0
17.543,-1.615,-0.825,0.0
16.327,-1.501,-0.856,0.0
14.941,-1.372,-0.862,0.0
13.911,-1.276,-0.876,0.0
21.614,-1.98,-0.758,0.0
19.728,-1.805,-0.796,0.0
18.121,-1.656,-0.827,0.0
16.595,-1.515,-0.846,0.0
15.319,-1.397,-0.863,0.0
14.199,-1.293,-0.875,0.0
22.19,-2.018,-0.747,0.0
20.24,-1.838,-0.788,0.0
18.578,-1.685,-0.822,0.0
16.926,-1.533,-0.84,0.0
15.619,-1.412,-0.857,0.0
14.413,-1.302,-0.867,0.0
23.317,-2.103,-0.753,0.0
20.571,-1.852,-0.773,0.0
18.905,-1.7,-0.81,0.0
17.051,-1.531,-0.822,0.0
15.902,-1.426,-0.851,0.0
14.767,-1.322,-0.868,0.0
23.571,-2.108,-0.728,0.0
21.234,-1.895,-0.768,0.0
19.399,-1.729,-0.804,0.0
17.613,-1.567,-0.825,0.0
16.308,-1.449,-0.85,0.0
15.086,-1.338,-0.866,0.0
24.386,-2.16,-0.72,0.0
22.01,-1.947,-0.766,0.0
19.92,-1.759,-0.798,0.0
18.145,-1.599,-0.825,0.0
16.643,-1.465,-0.844,0.0
15.274,-1.342,-0.856,0.0
24.717,-2.169,-0.695,0.0
22.478,-1.968,-0.751,0.0
20.362,-1.78,-0.788,0.0
18.553,-1.619,-0.817,0.0
17.003,-1.481,-0.839,0.0
15.701,-1.365,-0.858,0.0
26.125,-2.268,-0.699,0.0
23.215,-2.012,-0.744,0.0
20.867,-1.805,-0.778,0.0
19.027,-1.642,-0.812,0.0
17.295,-1.49,-0.83,0.0
16.118,-1.386,-0.858,0.0
27.128,-2.33,-0.689,0.0
23.744,-2.035,-0.728,0.0
21.386,-1.829,-0.769,0.0
19.492,-1.664,-0.806,0.0
17.663,-1.504,-0.823,0.0
16.336,-1.389,-0.848,0.0
27.602,-2.343,-0.664,0.0
24.375,-2.064,-0.715,0.0
22.015,-1.86,-0.762,0.0
20.024,-1.689,-0.8,0.0
18.236,-1.535,-0.825,0.0
16.707,-1.403,-0.845,0.0
28.584,-2.397,-0.649,0.0
25.209,-2.109,-0.706,0.0
22.799,-1.903,-0.758,0.0
20.359,-1.695,-0.787,0.0
18.685,-1.552,-0.821,0.0
16.935,-1.404,-0.833,0.0
29.395,-2.433,-0.629,0.0
26.278,-2.17,-0.7,0.0
23.263,-1.916,-0.743,0.0
20.833,-1.712,-0.777,0.0
19.071,-1.563,-0.812,0.0
17.234,-1.409,-0.825,0.0
30.107,-2.459,-0.604,0.0
26.805,-2.183,-0.679,0.0
23.794,-1.933,-0.728,0.0
21.306,-1.727,-0.767,0.0
19.458,-1.573,-0.803,0.0
17.75,-1.431,-0.826,0.0
31.423,-2.529,-0.589,0.0
27.492,-2.207,-0.66,0.0
24.562,-1.966,-0.72,0.0
22.046,-1.76,-0.765,0.0
20.017,-1.594,-0.8,0.0
18.253,-1.45,-0.826,0.0
32.934,-2.612,-0.575,0.0
0.0,0.0,0.0,0.0
25.051,-1.975,-0.702,0.0
22.754,-1.789,-0.76,0.0
20.353,-1.596,-0.787,0.0
18.581,-1.453,-0.817,0.0
0.0,0.0,0.0,0.0
28.915,-2.251,-0.62,0.0
0.0,0.0,0.0,0.0
23.289,-1.802,-0.748,0.0
20.795,-1.604,-0.778,0.0
19.05,-1.465,-0.814,0.0
34.756,-2.669,-0.518,0.0
30.108,-2.305,-0.608,0.0
26.77,-2.043,-0.682,0.0
23.306,-1.773,-0.719,0.0
21.363,-1.62,-0.772,0.0
19.348,-1.463,-0.802,0.0
36.277,-2.739,-0.496,0.0
32.284,-2.429,-0.612,0.0
0.0,0.0,0.0,0.0
24.394,-1.824,-0.723,0.0
21.809,-1.625,-0.762,0.0
19.943,-1.481,-0.803,0.0
38.888,-2.884,-0.484,0.0
32.903,-2.431,-0.583,0.0
28.394,-2.091,-0.654,0.0
25.103,-1.842,-0.713,0.0
22.352,-1.635,-0.754,0.0
20.299,-1.479,-0.792,0.0
39.803,-2.897,-0.447,0.0
34.524,-2.503,-0.571,0.0
29.016,-2.096,-0.633,0.0
25.981,-1.87,-0.707,0.0
23.086,-1.656,-0.751,0.0
20.611,-1.473,-0.78,0.0
41.846,-2.986,-0.421,0.0
34.365,-2.443,-0.527,0.0
29.613,-2.097,-0.611,0.0
0.0,0.0,0.0,0.0
23.726,-1.667,-0.744,0.0
21.241,-1.487,-0.779,0.0
0.0,0.0,0.0,0.0
35.979,-2.504,-0.51,0.0
31.047,-2.152,-0.605,0.0
27.459,-1.896,-0.683,0.0
24.275,-1.67,-0.733,0.0
21.522,-1.475,-0.764,0.0
0.0,0.0,0.0,0.0
0.0,0.0,0.0,0.0
33.123,-2.247,-0.607,0.0
27.935,-1.887,-0.663,0.0
24.981,-1.68,-0.726,0.0
22.075,-1.479,-0.759,0.0
0.0,0.0,0.0,0.0
0.0,0.0,0.0,0.0
33.296,-2.207,-0.574,0.0
28.976,-1.912,-0.656,0.0
25.261,-1.66,-0.706,0.0
22.66,-1.483,-0.754,0.0
0.0,0.0,0.0,0.0
0.0,0.0,0.0,0.0
33.718,-2.182,-0.544,0.0
0.0,0.0,0.0,0.0
25.664,-1.646,-0.689,0.0
22.887,-1.461,-0.737,0.0
0.0,0.0,0.0,0.0
0.0,0.0,0.0,0.0
35.36,-2.232,-0.533,0.0
29.903,-1.879,-0.613,0.0
26.654,-1.667,-0.688,0.0
23.478,-1.461,-0.731,0.0
0.0,0.0,0.0,0.0
0.0,0.0,0.0,0.0
37.017,-2.276,-0.519,0.0
0.0,0.0,0.0,0.0
27.418,-1.67,-0.679,0.0
23.897,-1.448,-0.719,0.0
0.0,0.0,0.0,0.0
46.459,-2.795,-0.357,0.0
0.0,0.0,0.0,0.0
0.0,0.0,0.0,0.0
27.692,-1.64,-0.658,0.0
24.706,-1.456,-0.719,0.0
0.0,0.0,0.0,0.0
0.0,0.0,0.0,0.0
38.382,-2.232,-0.461,0.0
32.51,-1.88,-0.568,0.0
28.617,-1.647,-0.652,0.0
25.356,-1.451,-0.713,0.0
0.0,0.0,0.0,0.0
0.0,0.0,0.0,0.0
41.007,-2.314,-0.454,0.0
0.0,0.0,0.0,0.0
28.858,-1.61,-0.63,0.0
25.626,-1.422,-0.696,0.0
101.444,-5.613,0.055,3.0
0.0,0.0,0.0,0.0
0.0,0.0,0.0,0.0
0.0,0.0,0.0,0.0
30.007,-1.621,-0.627,0.0
26.172,-1.405,-0.687,0.0
0.0,0.0,0.0,0.0
0.0,0.0,0.0,0.0
0.0,0.0,0.0,0.0
35.328,-1.857,-0.518,0.0
30.287,-1.582,-0.606,0.0
26.481,-1.375,-0.671,0.0
0.0,0.0,0.0,0.0
0.0,0.0,0.0,0.0
0.0,0.0,0.0,0.0
37.088,-1.882,-0.511,0.0
31.616,-1.594,-0.605,0.0
26.999,-1.352,-0.661,0.0
0.0,0.0,0.0,0.0
0.0,0.0,0.0,0.0
0.0,0.0,0.0,0.0
38.515,-1.884,-0.498,0.0
32.07,-1.557,-0.587,0.0
0.0,0.0,0.0,0.0
0.0,0.0,0.0,0.0
0.0,0.0,0.0,0.0
0.0,0.0,0.0,0.0
0.0,0.0,0.0,0.0
32.577,-1.521,-0.569,0.0
0.0,0.0,0.0,0.0
0.0,0.0,0.0,0.0
0.0,0.0,0.0,0.0
0.0,0.0,0.0,0.0
39.583,-1.786,-0.448,0.0
33.039,-1.48,-0.551,0.0
29.599,-1.315,-0.653,0.0
102.428,-4.533,0.577,2.0
0.0,0.0,0.0,0.0
0.0,0.0,0.0,0.0
0.0,0.0,0.0,0.0
0.0,0.0,0.0,0.0
29.659,-1.262,-0.632,0.0
101.495,-4.297,0.646,75.0
0.0,0.0,0.0,0.0
0.0,0.0,0.0,0.0
0.0,0.0,0.0,0.0
35.167,-1.44,-0.536,0.0
29.901,-1.213,-0.616,0.0
101.884,-4.115,0.721,1.0
0.0,0.0,0.0,0.0
0.0,0.0,0.0,0.0
0.0,0.0,0.0,0.0
38.056,-1.483,-0.554,0.0
30.675,-1.185,-0.612,0.0
0.0,0.0,0.0,0.0
0.0,0.0,0.0,0.0
0.0,0.0,0.0,0.0
0.0,0.0,0.0,0.0
37.307,-1.38,-0.518,0.0
30.987,-1.136,-0.598,0.0
150.729,-5.494,1.263,74.0
0.0,0.0,0.0,0.0
0.0,0.0,0.0,0.0
0.0,0.0,0.0,0.0
37.194,-1.302,-0.494,0.0
0.0,0.0,0.0,0.0
150.902,-5.194,1.358,151.0
0.0,0.0,0.0,0.0
0.0,0.0,0.0,0.0
0.0,0.0,0.0,0.0
38.238,-1.261,-0.486,0.0
32.313,-1.054,-0.585,0.0
151.027,-4.894,1.445,38.0
0.0,0.0,0.0,0.0
0.0,0.0,0.0,0.0
47.709,-1.494,-0.322,0.0
38.553,-1.194,-0.468,0.0
32.434,-0.992,-0.57,0.0
151.337,-4.594,1.529,31.0
0.0,0.0,0.0,0.0
0.0,0.0,0.0,0.0
0.0,0.0,0.0,0.0
0.0,0.0,0.0,0.0
0.0,0.0,0.0,0.0
161.935,-4.583,1.717,19.0
160.642,-4.486,0.834,6.0
0.0,0.0,0.0,0.0
0.0,0.0,0.0,0.0
0.0,0.0,0.0,0.0
0.0,0.0,0.0,0.0
161.942,-4.248,1.792,22.0
160.663,-4.154,0.907,9.0
0.0,0.0,0.0,0.0
0.0,0.0,0.0,0.0
0.0,0.0,0.0,0.0
0.0,0.0,0.0,0.0
162.043,-3.913,1.863,28.0
160.772,-3.824,0.975,21.0
0.0,0.0,0.0,0.0
0.0,0.0,0.0,0.0
0.0,0.0,0.0,0.0
34.906,-0.78,-0.55,0.0
162.39,-3.582,1.931,3.0
160.732,-3.487,1.037,13.0
0.0,0.0,0.0,0.0
0.0,0.0,0.0,0.0
0.0,0.0,0.0,0.0
34.873,-0.706,-0.537,0.0
163.339,-3.261,2.0,28.0
160.709,-3.148,1.094,25.0
0.0,0.0,0.0,0.0
0.0,0.0,0.0,0.0
0.0,0.0,0.0,0.0
35.425,-0.642,-0.534,0.0
163.155,-2.912,2.05,32.0
160.671,-2.809,1.144,16.0
0.0,0.0,0.0,0.0
0.0,0.0,0.0,0.0
42.7,-0.699,-0.398,0.0
0.0,0.0,0.0,0.0
163.179,-2.567,2.097,23.0
19.752,-0.303,0.146,18.0
19.782,-0.296,0.038,0.0
0.0,0.0,0.0,0.0
45.253,-0.646,-0.41,0.0
35.145,-0.489,-0.511,0.0
19.752,-0.268,0.258,10.0
19.756,-0.261,0.15,25.0
0.0,0.0,0.0,0.0
0.0,0.0,0.0,0.0
0.0,0.0,0.0,0.0
0.0,0.0,0.0,0.0
19.747,-0.226,0.262,6.0
160.649,-1.787,1.259,5.0
0.0,0.0,0.0,0.0
0.0,0.0,0.0,0.0
19.791,-0.198,-0.171,1.0
19.768,-0.191,-0.279,10.0
169.336,-1.582,2.282,15.0
160.724,-1.442,1.286,13.0
0.0,0.0,0.0,0.0
19.77,-0.163,-0.06,6.0
19.745,-0.155,-0.168,14.0
19.744,-0.148,-0.276,17.0
0.0,0.0,0.0,0.0
19.743,-0.134,0.16,3.0
19.742,-0.127,0.052,9.0
19.732,-0.12,-0.057,9.0
19.721,-0.113,-0.166,16.0
19.745,-0.106,-0.274,16.0
19.673,-0.099,0.269,10.0
19.706,-0.092,0.162,14.0
19.703,-0.085,0.053,14.0
19.699,-0.077,-0.056,16.0
19.723,-0.071,-0.164,16.0
19.752,-0.063,-0.273,15.0
19.645,-0.056,0.27,10.0
19.682,-0.049,0.162,11.0
19.704,-0.042,0.054,15.0
19.717,-0.035,-0.055,13.0
19.753,-0.028,-0.164,8.0
35.407,-0.039,-0.488,0.0
19.627,-0.014,0.27,14.0
19.738,-0.007,0.163,5.0
19.785,0.0,0.055,5.0
19.759,0.005,-0.055,56.0
19.753,0.013,-0.164,3.0
19.758,0.02,-0.273,15.0
19.622,0.027,0.27,14.0
19.743,0.034,0.163,15.0
19.753,0.041,0.054,15.0
19.75,0.048,-0.056,28.0
19.773,0.056,-0.165,60.0
19.772,0.063,-0.274,44.0
19.616,0.069,0.269,16.0
19.667,0.076,0.161,13.0
19.674,0.084,0.053,12.0
19.705,0.09,-0.057,3.0
0.0,0.0,0.0,0.0
36.778,0.196,-0.512,0.0
19.626,0.111,0.267,12.0
19.652,0.119,0.159,15.0
19.637,0.126,0.05,13.0
19.647,0.132,-0.059,10.0
19.673,0.139,-0.168,11.0
19.716,0.147,-0.277,1.0
19.645,0.153,0.265,11.0
19.657,0.16,0.156,13.0
19.645,0.167,0.048,13.0
19.643,0.174,-0.062,11.0
19.639,0.181,-0.17,16.0
19.658,0.188,-0.279,17.0
19.743,0.197,0.263,9.0
19.747,0.203,0.154,17.0
19.68,0.21,0.044,9.0
19.639,0.216,-0.065,12.0
19.636,0.223,-0.174,17.0
19.655,0.23,-0.283,20.0
19.734,0.239,0.259,14.0
19.778,0.246,0.15,25.0
0.0,0.0,0.0,0.0
19.685,0.259,-0.07,9.0
19.66,0.265,-0.179,14.0
19.666,0.272,-0.288,16.0
19.748,0.281,0.254,6.0
160.728,2.349,1.182,9.0
0.0,0.0,0.0,0.0
52.387,0.802,-0.2,0.0
36.616,0.572,-0.343,0.0
35.595,0.569,-0.531,1.0
55.2,0.905,0.696,50.0
55.167,0.924,0.39,68.0
55.161,0.942,0.083,130.0
0.0,0.0,0.0,0.0
37.16,0.66,-0.359,2.0
31.064,0.562,-0.473,0.0
55.198,1.022,0.679,38.0
55.186,1.04,0.372,8.0
55.241,1.059,0.066,12.0
45.172,0.881,-0.201,0.0
38.332,0.761,-0.383,0.0
30.975,0.625,-0.482,1.0
128.676,2.651,1.539,21.0
113.178,2.369,0.724,17.0
0.0,0.0,0.0,0.0
43.928,0.949,-0.211,2.0
0.0,0.0,0.0,0.0
29.851,0.664,-0.476,2.0
71.032,1.612,0.822,8.0
70.852,1.63,0.425,4.0
0.0,0.0,0.0,0.0
0.0,0.0,0.0,0.0
0.0,0.0,0.0,0.0
29.359,0.715,-0.48,2.0
70.887,1.756,0.79,28.0
70.69,1.775,0.394,19.0
0.0,0.0,0.0,0.0
40.043,1.031,-0.227,72.0
34.483,0.899,-0.387,1.0
29.034,0.767,-0.488,2.0
0.0,0.0,0.0,0.0
41.933,1.139,0.214,152.0
40.143,1.103,-0.018,157.0
40.019,1.113,-0.245,55.0
40.171,1.131,-0.471,1.0
28.521,0.812,-0.493,1.0
40.13,1.16,0.409,134.0
40.128,1.172,0.185,128.0
40.122,1.185,-0.038,150.0
40.001,1.194,-0.266,31.0
40.176,1.213,-0.491,2.0
27.921,0.851,-0.497,3.0
40.13,1.241,0.388,116.0
40.124,1.254,0.163,149.0
40.126,1.267,-0.06,150.0
39.99,1.276,-0.287,15.0
40.129,1.293,-0.513,3.0
27.513,0.895,-0.505,2.0
40.12,1.323,0.365,9.0
63.91,2.127,0.224,19.0
40.129,1.349,-0.083,150.0
39.907,1.353,-0.31,6.0
40.194,1.376,-0.537,1.0
27.238,0.941,-0.517,4.0
40.313,2.579,-0.212,37.0
32.117,2.062,-0.351,3.0
27.372,1.763,-0.455,7.0
24.062,1.556,-0.538,1.0
19.714,1.279,-0.553,9.0
18.441,1.201,-0.622,3.0
0.0,0.0,0.0,0.0
31.21,2.053,-0.376,9.0
26.433,1.745,-0.468,6.0
19.835,1.314,-0.466,3.0
19.69,1.309,-0.575,11.0
18.198,1.214,-0.635,2.0
36.5,2.449,-0.274,4.0
30.057,2.024,-0.396,8.0
25.592,1.729,-0.483,6.0
19.735,1.338,-0.486,8.0
19.59,1.332,-0.594,6.0
17.906,1.222,-0.645,1.0
35.275,2.42,-0.305,6.0
28.996,1.996,-0.415,8.0
24.81,1.713,-0.496,5.0
19.723,1.366,-0.509,10.0
19.173,1.332,-0.604,3.0
17.529,1.222,-0.652,1.0
32.832,2.301,-0.322,3.0
28.012,1.969,-0.434,7.0
24.203,1.706,-0.512,5.0
19.789,1.399,-0.534,9.0
18.686,1.325,-0.61,3.0
17.32,1.232,-0.664,1.0
32.024,2.29,-0.352,10.0
26.634,1.91,-0.444,6.0
23.732,1.707,-0.531,1.0
19.699,1.421,-0.555,9.0
18.408,1.332,-0.623,2.0
17.095,1.24,-0.676,1.0
30.851,2.249,-0.376,9.0
25.876,1.892,-0.463,6.0
19.763,1.449,-0.466,4.0
19.674,1.446,-0.578,9.0
18.036,1.33,-0.633,1.0
16.885,1.248,-0.689,1.0
29.565,2.196,-0.396,8.0
25.077,1.867,-0.479,6.0
19.706,1.471,-0.489,10.0
19.451,1.456,-0.595,3.0
17.731,1.331,-0.644,1.0
16.747,1.26,-0.704,1.0
28.544,2.158,-0.418,8.0
24.427,1.851,-0.497,7.0
19.7,1.496,-0.513,8.0
18.836,1.435,-0.6,3.0
17.425,1.33,-0.655,1.0
16.575,1.269,-0.717,1.0
27.259,2.095,-0.433,7.0
23.815,1.835,-0.514,5.0
19.711,1.522,-0.538,9.0
18.53,1.435,-0.614,3.0
17.159,1.332,-0.666,1.0
16.393,1.276,-0.73,1.0
26.077,2.037,-0.447,6.0
19.8,1.55,-0.453,3.0
19.702,1.546,-0.563,9.0
18.209,1.432,-0.626,1.0
16.95,1.337,-0.68,1.0
16.162,1.277,-0.741,1.0
25.134,1.994,-0.464,6.0
19.715,1.567,-0.476,9.0
19.576,1.56,-0.585,6.0
17.743,1.417,-0.633,1.0
16.804,1.345,-0.696,1.0
15.996,1.283,-0.754,2.0
24.376,1.962,-0.482,5.0
19.699,1.589,-0.502,8.0
19.032,1.539,-0.594,5.0
17.51,1.419,-0.648,2.0
16.571,1.346,-0.708,1.0
15.864,1.291,-0.769,1.0
23.964,1.957,-0.506,5.0
19.714,1.613,-0.528,8.0
18.733,1.535,-0.609,3.0
17.252,1.417,-0.662,1.0
16.408,1.351,-0.723,1.0
15.325,1.264,-0.763,0.0
19.822,1.64,-0.444,2.0
19.385,1.607,-0.546,10.0
18.269,1.517,-0.619,1.0
17.014,1.416,-0.675,1.0
16.194,1.35,-0.736,1.0
15.145,1.265,-0.775,0.0
19.729,1.653,-0.469,9.0
18.991,1.594,-0.56,12.0
17.911,1.506,-0.631,1.0
16.783,1.414,-0.689,1.0
15.978,1.349,-0.747,1.0
14.86,1.257,-0.78,0.0
19.715,1.671,-0.495,9.0
18.814,1.598,-0.58,11.0
17.545,1.493,-0.641,2.0
16.611,1.416,-0.704,1.0
15.874,1.356,-0.764,0.0
19.483,1.671,-0.515,9.0
18.988,1.631,-0.611,5.0
17.308,1.489,-0.656,3.0
16.412,1.414,-0.718,1.0
15.407,1.33,-0.763,0.0
19.692,1.707,-0.548,9.0
18.648,1.619,-0.626,2.0
17.08,1.485,-0.671,2.0
16.196,1.411,-0.731,1.0
15.153,1.322,-0.771,0.0
19.346,1.694,-0.565,7.0
17.883,1.568,-0.625,2.0
16.832,1.478,-0.685,1.0
15.954,1.403,-0.742,1.0
18.96,1.676,-0.58,15.0
17.621,1.56,-0.64,2.0
16.623,1.474,-0.699,1.0
15.861,1.408,-0.76,0.0
13.403,1.194,-0.796,0.0
18.95,1.69,-0.606,25.0
17.362,1.551,-0.655,2.0
16.458,1.472,-0.715,1.0
15.339,1.374,-0.756,0.0
14.242,1.277,-0.784,0.0
13.195,1.185,-0.802,0.0
18.692,1.681,-0.623,14.0
17.069,1.537,-0.667,1.0
16.203,1.461,-0.726,1.0
15.068,1.36,-0.764,0.0
14.053,1.271,-0.793,0.0
13.038,1.181,-0.811,0.0
18.115,1.642,-0.63,8.0
16.815,1.526,-0.681,1.0
15.967,1.451,-0.738,1.0
14.807,1.347,-0.771,0.0
13.64,1.243,-0.789,0.0
12.806,1.168,-0.814,0.0
17.773,1.623,-0.643,3.0
16.63,1.52,-0.697,1.0
15.843,1.45,-0.755,1.0
14.432,1.322,-0.772,0.0
13.413,1.231,-0.795,0.0
12.604,1.158,-0.819,0.0
17.417,1.601,-0.654,0.0
16.391,1.508,-0.71,1.0
15.298,1.41,-0.75,0.0
14.269,1.316,-0.783,0.0
13.168,1.216,-0.799,0.0
12.463,1.152,-0.828,0.0
17.029,1.575,-0.663,0.0
16.162,1.497,-0.723,1.0
15.085,1.399,-0.761,0.0
14.016,1.301,-0.789,0.0
12.95,1.203,-0.804,0.0
12.254,1.14,-0.831,0.0
16.793,1.563,-0.678,1.0
15.952,1.486,-0.736,6.0
14.796,1.379,-0.767,0.0
13.684,1.277,-0.79,0.0
12.809,1.197,-0.813,0.0
12.065,1.129,-0.836,0.0
16.647,1.557,-0.695,1.0
15.855,1.485,-0.753,1.0
14.48,1.357,-0.771,0.0
13.504,1.267,-0.799,0.0
12.626,1.186,-0.819,0.0
11.767,1.106,-0.832,0.0
16.412,1.543,-0.709,1.0
15.3,1.439,-0.749,0.0
14.243,1.341,-0.779,0.0
13.311,1.254,-0.806,0.0
12.458,1.175,-0.826,0.0
11.589,1.094,-0.835,0.0
16.103,1.52,-0.718,1.0
15.016,1.419,-0.755,0.0
13.993,1.323,-0.784,0.0
13.049,1.235,-0.808,0.0
12.241,1.159,-0.829,0.0
11.396,1.08,-0.837,0.0
15.948,1.511,-0.733,6.0
14.782,1.402,-0.764,0.0
13.661,1.296,-0.785,0.0
12.757,1.212,-0.808,0.0
12.075,1.148,-0.834,0.0
11.214,1.067,-0.84,0.0
15.875,1.509,-0.751,1.0
14.515,1.381,-0.771,0.0
13.539,1.289,-0.797,0.0
12.658,1.206,-0.819,0.0
11.837,1.129,-0.834,0.0
11.078,1.057,-0.845,0.0
15.327,1.461,-0.747,0.0
14.28,1.362,-0.778,0.0
13.25,1.265,-0.798,0.0
12.445,1.189,-0.822,0.0
11.557,1.105,-0.83,0.0
10.958,1.048,-0.851,0.0
15.099,1.443,-0.756,0.0
13.961,1.335,-0.779,0.0
13.039,1.247,-0.803,0.0
12.341,1.181,-0.832,0.0
11.453,1.097,-0.839,0.0
10.75,1.03,-0.849,0.0
14.815,1.419,-0.762,0.0
13.727,1.315,-0.785,0.0
12.803,1.227,-0.806,0.0
12.127,1.163,-0.835,0.0
11.212,1.076,-0.836,0.0
10.605,1.018,-0.852,0.0
14.478,1.388,-0.764,0.0
13.552,1.3,-0.793,0.0
12.69,1.218,-0.816,0.0
11.861,1.139,-0.832,0.0
11.101,1.067,-0.843,0.0
10.414,1.001,-0.851,0.0
14.245,1.367,-0.771,0.0
13.269,1.274,-0.794,0.0
12.478,1.199,-0.819,0.0
11.57,1.112,-0.827,0.0
10.959,1.054,-0.847,0.0
10.335,0.994,-0.858,0.0
14.055,1.35,-0.779,0.0
13.065,1.255,-0.799,0.0
12.364,1.188,-0.828,0.0
11.438,1.1,-0.833,0.0
10.76,1.035,-0.845,0.0
10.204,0.982,-0.861,0.0
13.83,1.328,-0.785,0.0
12.804,1.23,-0.8,0.0
12.161,1.169,-0.83,0.0
11.264,1.083,-0.835,0.0
10.613,1.02,-0.848,0.0
10.127,0.974,-0.867,0.0
13.522,1.298,-0.785,0.0
12.667,1.216,-0.808,0.0
12.005,1.153,-0.835,0.0
11.13,1.069,-0.839,0.0
10.451,1.004,-0.848,0.0
10.042,0.965,-0.873,0.0
13.487,1.294,-0.8,0.0
12.535,1.202,-0.816,0.0
11.722,1.125,-0.83,0.0
11.039,1.059,-0.847,0.0
10.357,0.994,-0.854,0.0
9.918,0.952,-0.875,0.0
13.181,1.263,-0.798,0.0
12.422,1.19,-0.824,0.0
11.498,1.102,-0.829,0.0
10.767,1.032,-0.839,0.0
10.255,0.983,-0.859,0.0
9.831,0.943,-0.88,0.0
12.974,1.241,-0.802,0.0
12.247,1.171,-0.827,0.0
11.428,1.093,-0.838,0.0
10.734,1.027,-0.85,0.0
10.184,0.974,-0.865,0.0
9.702,0.928,-0.88,0.0
12.824,1.224,-0.808,0.0
12.072,1.152,-0.83,0.0
11.219,1.071,-0.836,0.0
10.599,1.012,-0.852,0.0
10.076,0.962,-0.868,0.0
9.605,0.917,-0.883,0.0
12.63,1.202,-0.811,0.0
11.853,1.128,-0.829,0.0
11.137,1.06,-0.843,0.0
10.462,0.996,-0.854,0.0
9.998,0.952,-0.874,0.0
9.49,0.903,-0.884,0.0
12.541,1.19,-0.82,0.0
11.676,1.108,-0.831,0.0
10.997,1.043,-0.846,0.0
10.345,0.981,-0.856,0.0
9.891,0.938,-0.876,0.0
9.402,0.892,-0.887,0.0
12.368,1.17,-0.823,0.0
11.514,1.089,-0.833,0.0
10.862,1.027,-0.848,0.0
10.256,0.969,-0.861,0.0
9.757,0.922,-0.875,0.0
9.303,0.879,-0.888,0.0
12.142,1.144,-0.822,0.0
11.332,1.067,-0.832,0.0
10.71,1.008,-0.848,0.0
10.123,0.953,-0.861,0.0
9.677,0.911,-0.879,0.0
12.049,1.13,-0.829,0.0
11.182,1.049,-0.834,0.0
10.647,0.998,-0.855,0.0
10.037,0.941,-0.865,0.0
9.615,0.901,-0.884,0.0
11.901,1.111,-0.832,0.0
11.127,1.038,-0.842,0.0
10.487,0.978,-0.854,0.0
9.961,0.929,-0.869,0.0
9.549,0.89,-0.888,0.0
11.713,1.088,-0.831,0.0
11.061,1.027,-0.849,0.0
10.384,0.963,-0.856,0.0
9.886,0.917,-0.873,0.0
9.43,0.874,-0.887,0.0
8.847,0.82,-0.884,0.0
11.614,1.072,-0.836,0.0
10.903,1.006,-0.848,0.0
10.307,0.951,-0.861,0.0
9.842,0.908,-0.88,0.0
9.342,0.861,-0.889,0.0
8.746,0.806,-0.883,0.0
11.411,1.047,-0.833,0.0
10.691,0.981,-0.842,0.0
10.174,0.933,-0.86,0.0
9.764,0.895,-0.882,0.0
8.725,0.799,-0.889,0.0
11.282,1.029,-0.835,0.0
10.609,0.967,-0.846,0.0
10.133,0.923,-0.866,0.0
9.699,0.883,-0.886,0.0
8.636,0.785,-0.889,0.0
11.202,1.014,-0.84,0.0
10.553,0.955,-0.852,0.0
10.077,0.911,-0.871,0.0
9.619,0.869,-0.888,0.0
8.549,0.772,-0.888,0.0
11.123,1.0,-0.844,0.0
10.453,0.939,-0.853,0.0
9.984,0.896,-0.872,0.0
9.505,0.853,-0.886,0.0
9.011,0.808,-0.892,0.0
8.512,0.762,-0.892,0.0
10.98,0.979,-0.843,0.0
10.395,0.926,-0.858,0.0
9.921,0.883,-0.876,0.0
9.381,0.835,-0.883,0.0
8.462,0.752,-0.894,0.0
10.904,0.964,-0.847,0.0
10.335,0.913,-0.862,0.0
9.862,0.871,-0.879,0.0
9.37,0.827,-0.89,0.0
8.849,0.78,-0.891,0.0
8.396,0.74,-0.894,0.0
10.801,0.947,-0.848,0.0
10.257,0.898,-0.864,0.0
9.781,0.856,-0.88,0.0
9.353,0.818,-0.896,0.0
8.769,0.766,-0.89,0.0
8.377,0.731,-0.899,0.0
10.746,0.933,-0.852,0.0
10.198,0.885,-0.867,0.0
9.718,0.843,-0.882,0.0
8.686,0.752,-0.889,0.0
8.304,0.718,-0.897,0.0
10.674,0.918,-0.854,0.0
10.125,0.87,-0.868,0.0
9.651,0.829,-0.883,0.0
9.135,0.783,-0.889,0.0
8.7,0.745,-0.897,0.0
8.263,0.707,-0.899,0.0
10.571,0.9,-0.854,0.0
10.076,0.857,-0.871,0.0
9.59,0.815,-0.884,0.0
8.785,0.746,-0.861,0.0
8.617,0.731,-0.894,0.0
8.257,0.7,-0.904,0.0
10.523,0.887,-0.857,0.0
10.003,0.842,-0.872,0.0
9.571,0.805,-0.889,0.0
8.822,0.741,-0.871,0.0
8.551,0.717,-0.893,0.0
8.166,0.684,-0.9,0.0
10.409,0.868,-0.855,0.0
9.956,0.829,-0.874,0.0
9.494,0.789,-0.888,0.0
8.915,0.74,-0.886,0.0
8.52,0.707,-0.895,0.0
8.152,0.675,-0.904,0.0
10.4,0.857,-0.861,0.0
9.93,0.817,-0.878,0.0
9.464,0.778,-0.891,0.0
8.458,0.693,-0.894,0.0
8.1,0.663,-0.903,0.0
10.32,0.84,-0.86,0.0
9.89,0.804,-0.88,0.0
9.465,0.768,-0.897,0.0
8.881,0.72,-0.893,0.0
8.416,0.681,-0.894,0.0
8.085,0.654,-0.906,0.0
10.275,0.826,-0.862,0.0
9.885,0.793,-0.885,0.0
9.367,0.751,-0.892,0.0
8.828,0.707,-0.892,0.0
8.407,0.672,-0.898,0.0
8.036,0.641,-0.904,0.0
10.273,0.815,-0.867,0.0
9.804,0.777,-0.883,0.0
9.316,0.737,-0.892,0.0
8.811,0.696,-0.895,0.0
8.376,0.661,-0.899,0.0
8.017,0.631,-0.906,0.0
10.243,0.802,-0.869,0.0
9.796,0.766,-0.887,0.0
9.3,0.726,-0.895,0.0
8.631,0.673,-0.881,0.0
8.346,0.649,-0.899,0.0
7.997,0.621,-0.907,0.0
10.213,0.789,-0.871,0.0
9.767,0.753,-0.888,0.0
9.274,0.714,-0.896,0.0
8.74,0.671,-0.895,0.0
8.322,0.638,-0.9,0.0
7.988,0.612,-0.91,0.0
10.175,0.774,-0.872,0.0
9.716,0.738,-0.888,0.0
9.221,0.699,-0.895,0.0
8.748,0.662,-0.9,0.0
8.262,0.624,-0.897,0.0
7.985,0.602,-0.912,0.0
10.156,0.762,-0.874,0.0
9.661,0.723,-0.886,0.0
9.195,0.687,-0.895,0.0
8.703,0.649,-0.898,0.0
8.287,0.617,-0.902,0.0
7.957,0.591,-0.912,0.0
10.141,0.749,-0.876,0.0
9.713,0.716,-0.894,0.0
9.168,0.674,-0.896,0.0
8.674,0.636,-0.897,0.0
8.297,0.608,-0.906,0.0
7.948,0.581,-0.913,0.0
10.143,0.737,-0.879,0.0
9.664,0.701,-0.892,0.0
9.131,0.661,-0.894,0.0
8.7,0.628,-0.902,0.0
8.256,0.595,-0.903,0.0
7.942,0.571,-0.914,0.0
10.128,0.724,-0.88,0.0
9.639,0.687,-0.892,0.0
9.185,0.653,-0.901,0.0
8.62,0.612,-0.896,0.0
8.239,0.584,-0.903,0.0
7.937,0.561,-0.915,0.0
10.093,0.709,-0.878,0.0
9.624,0.675,-0.892,0.0
9.193,0.643,-0.904,0.0
8.688,0.606,-0.904,0.0
8.255,0.575,-0.906,0.0
7.91,0.549,-0.913,0.0
10.098,0.697,-0.88,0.0
9.612,0.662,-0.892,0.0
9.038,0.621,-0.89,0.0
8.672,0.594,-0.904,0.0
8.208,0.561,-0.902,0.0
7.943,0.542,-0.918,0.0
10.108,0.685,-0.882,0.0
9.605,0.649,-0.892,0.0
9.059,0.611,-0.893,0.0
8.694,0.585,-0.907,0.0
8.267,0.555,-0.909,0.0
7.93,0.531,-0.917,0.0
10.112,0.673,-0.883,0.0
9.626,0.639,-0.895,0.0
9.065,0.6,-0.894,0.0
8.61,0.568,-0.898,0.0
8.272,0.545,-0.91,0.0
7.93,0.521,-0.917,0.0
10.141,0.662,-0.886,0.0
9.631,0.627,-0.895,0.0
9.08,0.589,-0.895,0.0
8.652,0.56,-0.903,0.0
8.252,0.533,-0.907,0.0
7.946,0.512,-0.919,0.0
10.102,0.646,-0.882,0.0
9.652,0.616,-0.897,0.0
9.148,0.582,-0.901,0.0
8.68,0.551,-0.905,0.0
8.256,0.522,-0.907,0.0
7.96,0.502,-0.92,0.0
10.099,0.633,-0.881,0.0
9.617,0.601,-0.893,0.0
9.139,0.569,-0.9,0.0
8.68,0.539,-0.904,0.0
8.27,0.512,-0.908,0.0
7.965,0.492,-0.919,0.0
10.137,0.622,-0.883,0.0
9.673,0.592,-0.897,0.0
9.109,0.556,-0.896,0.0
8.708,0.53,-0.906,0.0
8.303,0.504,-0.91,0.0
7.967,0.482,-0.918,0.0
10.173,0.611,-0.885,0.0
9.73,0.583,-0.901,0.0
9.17,0.547,-0.9,0.0
8.678,0.516,-0.901,0.0
8.307,0.493,-0.909,0.0
7.983,0.472,-0.919,0.0
10.232,0.601,-0.888,0.0
9.735,0.57,-0.899,0.0
9.26,0.54,-0.907,0.0
8.727,0.508,-0.904,0.0
8.349,0.484,-0.912,0.0
7.995,0.462,-0.918,0.0
10.257,0.589,-0.887,0.0
9.759,0.558,-0.899,0.0
9.258,0.528,-0.904,0.0
8.77,0.498,-0.906,0.0
8.344,0.472,-0.909,0.0
7.99,0.451,-0.915,0.0
10.255,0.575,-0.884,0.0
9.76,0.545,-0.896,0.0
9.321,0.519,-0.907,0.0
8.829,0.49,-0.91,0.0
8.401,0.464,-0.912,0.0
8.042,0.443,-0.918,0.0
10.294,0.563,-0.884,0.0
9.82,0.535,-0.898,0.0
9.358,0.508,-0.908,0.0
8.408,0.453,-0.91,0.0
8.057,0.433,-0.917,0.0
10.329,0.551,-0.883,0.0
9.848,0.524,-0.896,0.0
9.333,0.494,-0.901,0.0
8.872,0.468,-0.907,0.0
8.452,0.444,-0.911,0.0
8.081,0.423,-0.916,0.0
10.382,0.54,-0.883,0.0
9.903,0.513,-0.897,0.0
9.418,0.486,-0.906,0.0
8.938,0.46,-0.91,0.0
8.512,0.436,-0.914,0.0
8.123,0.415,-0.917,0.0
10.405,0.527,-0.88,0.0
9.896,0.499,-0.892,0.0
9.456,0.475,-0.905,0.0
8.96,0.449,-0.908,0.0
8.552,0.426,-0.914,0.0
8.147,0.405,-0.916,0.0
10.458,0.516,-0.879,0.0
9.984,0.49,-0.895,0.0
9.51,0.465,-0.905,0.0
9.042,0.44,-0.911,0.0
8.609,0.417,-0.915,0.0
8.185,0.395,-0.915,0.0
10.505,0.504,-0.877,0.0
10.008,0.478,-0.891,0.0
9.59,0.456,-0.907,0.0
9.091,0.43,-0.911,0.0
8.663,0.408,-0.916,0.0
8.254,0.387,-0.918,0.0
10.607,0.494,-0.88,0.0
10.114,0.469,-0.894,0.0
9.634,0.445,-0.905,0.0
9.131,0.42,-0.909,0.0
8.709,0.398,-0.915,0.0
8.299,0.378,-0.918,0.0
10.656,0.482,-0.877,0.0
10.133,0.456,-0.889,0.0
9.668,0.433,-0.902,0.0
9.207,0.411,-0.91,0.0
8.817,0.391,-0.92,0.0
8.355,0.369,-0.918,0.0
10.754,0.472,-0.877,0.0
10.227,0.447,-0.89,0.0
9.722,0.422,-0.9,0.0
9.252,0.4,-0.908,0.0
8.865,0.382,-0.919,0.0
8.384,0.359,-0.915,0.0
10.845,0.461,-0.877,0.0
10.261,0.434,-0.886,0.0
9.79,0.412,-0.899,0.0
9.286,0.389,-0.904,0.0
8.916,0.372,-0.917,0.0
8.49,0.352,-0.92,0.0
10.936,0.451,-0.876,0.0
10.34,0.424,-0.884,0.0
9.881,0.403,-0.899,0.0
9.405,0.381,-0.908,0.0
8.937,0.361,-0.912,0.0
8.562,0.344,-0.921,0.0
11.066,0.441,-0.877,0.0
10.46,0.415,-0.886,0.0
9.939,0.392,-0.896,0.0
9.496,0.372,-0.909,0.0
9.025,0.352,-0.913,0.0
8.633,0.335,-0.921,0.0
11.188,0.431,-0.877,0.0
10.57,0.405,-0.886,0.0
10.06,0.383,-0.898,0.0
9.6,0.364,-0.91,0.0
9.112,0.343,-0.914,0.0
8.676,0.325,-0.918,0.0
11.254,0.419,-0.872,0.0
10.654,0.394,-0.883,0.0
10.133,0.373,-0.895,0.0
9.671,0.354,-0.908,0.0
9.15,0.333,-0.909,0.0
8.788,0.317,-0.921,0.0
11.37,0.408,-0.87,0.0
10.778,0.385,-0.883,0.0
10.19,0.361,-0.89,0.0
9.778,0.345,-0.909,0.0
9.301,0.326,-0.915,0.0
8.856,0.308,-0.92,0.0
11.527,0.399,-0.871,0.0
10.873,0.374,-0.88,0.0
10.348,0.353,-0.894,0.0
9.836,0.334,-0.904,0.0
9.392,0.317,-0.914,0.0
8.933,0.299,-0.918,0.0
11.627,0.387,-0.866,0.0
11.029,0.365,-0.881,0.0
10.42,0.342,-0.889,0.0
9.904,0.323,-0.9,0.0
9.502,0.308,-0.915,0.0
9.026,0.291,-0.918,0.0
11.807,0.378,-0.867,0.0
11.15,0.355,-0.879,0.0
10.575,0.334,-0.891,0.0
10.011,0.314,-0.899,0.0
9.585,0.299,-0.912,0.0
9.084,0.281,-0.914,0.0
11.961,0.368,-0.865,0.0
11.249,0.344,-0.874,0.0
10.73,0.325,-0.892,0.0
10.155,0.306,-0.9,0.0
9.64,0.288,-0.906,0.0
9.222,0.274,-0.917,0.0
12.154,0.359,-0.865,0.0
11.396,0.334,-0.872,0.0
10.81,0.314,-0.886,0.0
10.271,0.296,-0.898,0.0
9.827,0.282,-0.912,0.0
9.293,0.264,-0.913,0.0
12.346,0.349,-0.864,0.0
11.623,0.326,-0.876,0.0
10.969,0.305,-0.885,0.0
10.353,0.286,-0.892,0.0
9.897,0.271,-0.907,0.0
9.441,0.257,-0.916,0.0
12.527,0.339,-0.861,0.0
11.774,0.316,-0.872,0.0
11.121,0.296,-0.884,0.0
10.509,0.277,-0.893,0.0
10.012,0.262,-0.904,0.0
9.523,0.247,-0.911,0.0
12.736,0.329,-0.859,0.0
11.944,0.306,-0.87,0.0
11.169,0.284,-0.873,0.0
10.68,0.269,-0.893,0.0
10.146,0.254,-0.903,0.0
9.649,0.239,-0.911,0.0
12.929,0.318,-0.855,0.0
12.073,0.295,-0.863,0.0
11.406,0.276,-0.876,0.0
10.843,0.26,-0.892,0.0
10.262,0.244,-0.9,0.0
9.789,0.231,-0.911,0.0
13.147,0.308,-0.852,0.0
12.365,0.288,-0.867,0.0
11.645,0.268,-0.879,0.0
11.007,0.251,-0.891,0.0
10.389,0.235,-0.896,0.0
9.943,0.223,-0.911,0.0
13.455,0.3,-0.853,0.0
12.599,0.278,-0.866,0.0
11.832,0.259,-0.876,0.0
11.087,0.24,-0.881,0.0
10.566,0.227,-0.896,0.0
10.062,0.214,-0.908,0.0
13.763,0.291,-0.853,1.0
12.809,0.269,-0.862,0.0
12.097,0.251,-0.879,0.0
11.252,0.231,-0.878,0.0
10.826,0.221,-0.903,0.0
10.12,0.204,-0.898,0.0
14.001,0.281,-0.847,1.0
13.041,0.259,-0.859,0.0
12.248,0.241,-0.871,0.0
11.495,0.224,-0.88,0.0
10.922,0.21,-0.895,0.0
10.346,0.197,-0.903,0.0
14.302,0.271,-0.844,1.0
13.349,0.251,-0.859,0.0
12.445,0.231,-0.867,0.0
11.78,0.216,-0.884,0.0
11.133,0.202,-0.895,0.0
10.524,0.189,-0.902,0.0
14.577,0.261,-0.838,1.0
13.613,0.241,-0.855,1.0
12.749,0.223,-0.868,0.0
12.042,0.209,-0.885,1.0
11.376,0.195,-0.896,0.0
10.739,0.182,-0.903,0.0
14.914,0.251,-0.834,0.0
13.889,0.231,-0.85,1.0
12.993,0.214,-0.864,1.0
12.181,0.198,-0.876,1.0
11.542,0.186,-0.891,0.0
10.913,0.174,-0.901,0.0
15.263,0.242,-0.83,0.0
14.237,0.223,-0.849,1.0
13.229,0.205,-0.859,1.0
12.424,0.19,-0.873,0.0
11.707,0.177,-0.885,0.0
11.061,0.165,-0.895,0.0
15.661,0.233,-0.826,0.0
14.56,0.214,-0.844,0.0
13.538,0.196,-0.856,1.0
12.68,0.181,-0.87,0.0
11.985,0.169,-0.886,1.0
11.297,0.158,-0.895,0.0
15.855,0.22,-0.81,0.0
14.873,0.204,-0.838,0.0
13.798,0.187,-0.85,0.0
12.964,0.173,-0.868,1.0
12.143,0.16,-0.877,1.0
11.557,0.15,-0.896,0.0
16.574,0.214,-0.818,0.0
15.273,0.195,-0.834,0.0
14.191,0.179,-0.85,0.0
13.144,0.163,-0.858,1.0
12.451,0.152,-0.878,0.0
11.727,0.142,-0.889,2.0
17.127,0.206,-0.816,0.0
15.663,0.186,-0.829,0.0
14.544,0.17,-0.846,0.0
13.512,0.156,-0.858,0.0
12.719,0.144,-0.875,0.0
11.9,0.133,-0.881,0.0
17.557,0.196,-0.806,0.0
15.878,0.174,-0.812,0.0
14.929,0.161,-0.842,0.0
13.816,0.147,-0.853,0.0
12.954,0.136,-0.868,1.0
12.199,0.126,-0.881,0.0
18.146,0.187,-0.801,0.0
16.606,0.168,-0.82,0.0
15.344,0.153,-0.838,1.0
14.183,0.139,-0.851,0.0
13.269,0.128,-0.865,0.0
12.467,0.118,-0.878,0.0
18.791,0.178,-0.796,0.0
17.13,0.159,-0.815,0.0
15.715,0.144,-0.83,0.0
14.554,0.131,-0.846,0.0
13.536,0.12,-0.858,0.0
12.745,0.111,-0.875,0.0
19.353,0.168,-0.784,1.0
17.566,0.15,-0.804,0.0
15.995,0.134,-0.815,0.0
14.973,0.123,-0.843,0.0
13.881,0.112,-0.854,0.0
13.014,0.103,-0.869,0.0
19.686,0.155,-0.761,1.0
18.368,0.142,-0.806,0.0
16.74,0.127,-0.822,0.0
15.461,0.115,-0.842,1.0
14.287,0.105,-0.852,0.0
13.349,0.096,-0.866,1.0
20.161,0.144,-0.742,0.0
18.919,0.133,-0.795,0.0
17.182,0.118,-0.811,0.0
15.727,0.106,-0.827,0.0
14.651,0.097,-0.846,0.0
13.633,0.088,-0.859,0.0
21.066,0.136,-0.736,0.0
19.546,0.124,-0.785,1.0
17.904,0.111,-0.812,0.0
16.075,0.098,-0.814,0.0
15.105,0.09,-0.844,0.0
14.009,0.081,-0.856,0.0
22.097,0.128,-0.73,0.0
19.772,0.112,-0.755,3.0
18.551,0.103,-0.805,0.0
16.911,0.092,-0.824,0.0
15.574,0.082,-0.84,0.0
14.381,0.074,-0.85,0.0
23.095,0.119,-0.717,0.0
19.87,0.1,-0.72,1.0
19.13,0.094,-0.793,0.0
17.465,0.084,-0.816,0.0
15.874,0.074,-0.824,0.0
14.92,0.068,-0.853,0.0
19.796,0.09,-0.576,6.0
19.791,0.088,-0.679,8.0
19.732,0.085,-0.779,2.0
18.04,0.076,-0.808,0.0
