X,Y,Z,Reflectivity
21.571,-1.255,-0.754,0.0
19.848,-1.151,-0.797,0.0
17.945,-1.038,-0.816,0.0
16.649,-0.96,-0.845,0.0
15.262,-0.877,-0.854,0.0
24.957,-1.43,-0.703,0.0
22.354,-1.277,-0.746,0.0
20.332,-1.158,-0.785,0.0
18.606,-1.056,-0.817,0.0
17.08,-0.966,-0.84,0.0
15.616,-0.88,-0.85,0.0
26.516,-1.49,-0.705,0.0
22.984,-1.288,-0.731,0.0
20.86,-1.165,-0.773,0.0
19.117,-1.063,-0.81,0.0
17.432,-0.967,-0.83,0.0
16.052,-0.887,-0.849,0.0
26.95,-1.485,-0.675,0.0
23.847,-1.309,-0.722,0.0
21.467,-1.174,-0.763,0.0
19.473,-1.061,-0.796,0.0
17.841,-0.969,-0.822,0.0
16.405,-0.887,-0.842,0.0
0.0,0.0,0.0,0.0
0.0,0.0,0.0,0.0
22.201,-1.188,-0.755,0.0
20.131,-1.073,-0.792,0.0
18.386,-0.976,-0.819,0.0
16.872,-0.892,-0.841,0.0
28.618,-1.509,-0.63,0.0
25.767,-1.353,-0.702,0.0
22.777,-1.191,-0.74,0.0
20.561,-1.071,-0.777,0.0
18.817,-0.976,-0.81,0.0
17.381,-0.897,-0.839,0.0
30.118,-1.55,-0.617,0.0
26.834,-1.375,-0.691,0.0
23.456,-1.197,-0.726,0.0
21.128,-1.073,-0.767,0.0
19.451,-0.983,-0.808,0.0
17.607,-0.886,-0.824,0.0
31.334,-1.572,-0.595,0.0
27.133,-1.355,-0.658,0.0
24.286,-1.207,-0.716,0.0
21.77,-1.077,-0.758,0.0
19.896,-0.98,-0.797,0.0
17.87,-0.876,-0.81,0.0
32.374,-1.582,-0.568,0.0
29.292,-1.425,-0.668,1.0
0.0,0.0,0.0,0.0
22.47,-1.082,-0.75,0.0
20.313,-0.973,-0.784,0.0
18.462,-0.88,-0.81,0.0
33.619,-1.597,-0.541,0.0
29.673,-1.403,-0.633,0.0
26.026,-1.224,-0.692,0.0
23.19,-1.085,-0.74,0.0
20.732,-0.965,-0.771,0.0
19.208,-0.889,-0.815,0.0
0.0,0.0,0.0,0.0
30.201,-1.385,-0.601,0.0
26.793,-1.222,-0.674,0.0
23.986,-1.088,-0.732,0.0
21.377,-0.965,-0.764,0.0
19.534,-0.877,-0.801,0.0
37.053,-1.656,-0.491,0.0
32.004,-1.422,-0.592,0.0
27.737,-1.226,-0.659,0.0
24.514,-1.077,-0.713,0.0
22.021,-0.962,-0.757,0.0
19.99,-0.868,-0.792,0.0
0.0,0.0,0.0,0.0
33.076,-1.422,-0.566,0.0
28.908,-1.235,-0.646,0.0
25.703,-1.091,-0.712,0.0
22.734,-0.959,-0.749,0.0
20.46,-0.858,-0.782,0.0
0.0,0.0,0.0,0.0
34.608,-1.435,-0.544,0.0
29.679,-1.223,-0.623,0.0
26.222,-1.074,-0.691,0.0
23.213,-0.944,-0.734,0.0
20.854,-0.843,-0.769,0.0
0.0,0.0,0.0,0.0
0.0,0.0,0.0,0.0
30.823,-1.223,-0.605,0.0
27.016,-1.064,-0.675,0.0
23.973,-0.938,-0.726,0.0
21.537,-0.837,-0.765,0.0
0.0,0.0,0.0,0.0
0.0,0.0,0.0,0.0
31.767,-1.211,-0.582,0.0
27.553,-1.042,-0.653,0.0
24.744,-0.929,-0.717,0.0
21.951,-0.818,-0.751,0.0
0.0,0.0,0.0,0.0
40.206,-1.48,-0.473,0.0
33.269,-1.215,-0.566,0.0
28.676,-1.039,-0.642,0.0
25.482,-0.916,-0.705,0.0
22.665,-0.809,-0.747,0.0
0.0,0.0,0.0,0.0
0.0,0.0,0.0,0.0
34.275,-1.196,-0.54,0.0
29.605,-1.025,-0.625,0.0
0.0,0.0,0.0,0.0
23.256,-0.792,-0.737,0.0
0.0,0.0,0.0,0.0
0.0,0.0,0.0,0.0
0.0,0.0,0.0,0.0
30.309,-0.998,-0.602,0.0
27.005,-0.882,-0.679,0.0
23.941,-0.775,-0.729,0.0
0.0,0.0,0.0,0.0
0.0,0.0,0.0,0.0
37.33,-1.178,-0.495,0.0
31.645,-0.989,-0.59,0.0
27.887,-0.864,-0.668,0.0
24.623,-0.755,-0.72,0.0
0.0,0.0,0.0,0.0
0.0,0.0,0.0,0.0
0.0,0.0,0.0,0.0
32.183,-0.951,-0.562,0.0
0.0,0.0,0.0,0.0
25.111,-0.727,-0.704,0.0
0.0,0.0,0.0,0.0
0.0,0.0,0.0,0.0
0.0,0.0,0.0,0.0
33.452,-0.93,-0.545,0.0
29.205,-0.803,-0.631,0.0
0.0,0.0,0.0,0.0
89.42,-2.412,0.073,1.0
0.0,0.0,0.0,0.0
0.0,0.0,0.0,0.0
0.0,0.0,0.0,0.0
29.633,-0.762,-0.606,0.0
26.795,-0.681,-0.691,0.0
0.0,0.0,0.0,0.0
0.0,0.0,0.0,0.0
0.0,0.0,0.0,0.0
35.231,-0.854,-0.495,0.0
31.683,-0.758,-0.613,0.0
21.706,-0.512,-0.535,0.0
0.0,0.0,0.0,0.0
0.0,0.0,0.0,0.0
0.0,0.0,0.0,0.0
38.184,-0.856,-0.495,0.0
32.592,-0.72,-0.596,0.0
21.737,-0.473,-0.513,9.0
90.536,-1.95,0.373,2.0
89.493,-1.899,-0.106,1.0
0.0,0.0,0.0,0.0
0.0,0.0,0.0,0.0
0.0,0.0,0.0,0.0
21.738,-0.433,-0.49,0.0
90.239,-1.776,0.465,4.0
89.567,-1.735,-0.014,1.0
0.0,0.0,0.0,0.0
40.76,-0.763,-0.444,0.0
33.776,-0.621,-0.548,0.0
29.63,-0.535,-0.639,0.0
89.472,-1.594,0.551,10.0
0.0,0.0,0.0,0.0
0.0,0.0,0.0,0.0
42.608,-0.717,-0.422,0.0
34.839,-0.575,-0.531,0.0
30.243,-0.489,-0.622,0.0
19.76,-0.314,0.141,9.0
19.867,-0.309,0.035,0.0
0.0,0.0,0.0,0.0
0.0,0.0,0.0,0.0
0.0,0.0,0.0,0.0
30.361,-0.432,-0.596,0.0
19.756,-0.276,0.159,33.0
19.76,-0.269,0.054,1.0
0.0,0.0,0.0,0.0
0.0,0.0,0.0,0.0
0.0,0.0,0.0,0.0
31.534,-0.388,-0.59,0.0
19.753,-0.237,0.178,13.0
89.618,-1.049,0.327,1.0
0.0,0.0,0.0,0.0
0.0,0.0,0.0,0.0
19.838,-0.212,-0.247,0.0
19.778,-0.205,-0.352,2.0
0.0,0.0,0.0,0.0
0.0,0.0,0.0,0.0
0.0,0.0,0.0,0.0
19.753,-0.179,-0.124,8.0
19.75,-0.173,-0.23,13.0
19.747,-0.166,-0.335,15.0
165.404,-1.346,1.772,6.0
160.659,-1.256,0.86,6.0
19.76,-0.147,0.0,4.0
19.727,-0.14,-0.107,14.0
19.733,-0.134,-0.213,16.0
19.751,-0.127,-0.319,16.0
19.718,-0.121,0.227,9.0
19.729,-0.114,0.121,11.0
19.714,-0.107,0.015,12.0
19.707,-0.101,-0.091,12.0
19.726,-0.094,-0.198,16.0
19.761,-0.088,-0.304,15.0
19.669,-0.081,0.242,12.0
19.697,-0.075,0.136,16.0
19.706,-0.068,0.03,16.0
19.717,-0.061,-0.077,13.0
19.741,-0.055,-0.183,14.0
19.768,-0.048,-0.289,5.0
19.639,-0.041,0.256,12.0
19.672,-0.035,0.15,8.0
19.697,-0.028,0.045,14.0
19.726,-0.021,-0.062,10.0
19.769,-0.015,-0.169,1.0
36.546,-0.015,-0.509,0.0
19.626,-0.001,0.27,15.0
19.728,0.004,0.165,4.0
19.782,0.011,0.059,6.0
19.743,0.018,-0.049,150.0
19.753,0.025,-0.155,13.0
19.767,0.031,-0.262,11.0
19.619,0.038,0.283,12.0
19.672,0.044,0.177,10.0
19.769,0.051,0.072,22.0
19.763,0.058,-0.036,69.0
19.758,0.065,-0.143,40.0
19.774,0.072,-0.25,17.0
19.63,0.078,0.295,25.0
19.655,0.085,0.189,11.0
19.657,0.092,0.083,12.0
19.66,0.098,-0.024,9.0
19.697,0.105,-0.13,2.0
36.596,0.208,-0.44,0.0
19.614,0.119,0.307,13.0
19.673,0.126,0.201,19.0
19.638,0.132,0.095,14.0
19.62,0.139,-0.012,17.0
19.638,0.145,-0.119,13.0
19.66,0.153,-0.225,10.0
19.644,0.159,0.318,10.0
19.653,0.166,0.212,12.0
19.656,0.173,0.106,10.0
19.64,0.18,-0.002,14.0
19.632,0.186,-0.108,16.0
19.636,0.193,-0.214,17.0
19.737,0.201,0.33,10.0
19.743,0.208,0.223,18.0
19.766,0.215,0.116,18.0
19.674,0.221,0.007,9.0
19.635,0.227,-0.098,16.0
19.653,0.234,-0.205,18.0
19.708,0.242,0.339,13.0
19.739,0.249,0.233,18.0
19.772,0.257,0.126,13.0
0.0,0.0,0.0,0.0
19.697,0.269,-0.089,8.0
19.675,0.275,-0.196,12.0
19.71,0.284,0.348,13.0
19.753,0.291,0.242,1.0
160.677,2.427,1.098,8.0
55.22,0.852,0.071,0.0
0.0,0.0,0.0,0.0
0.0,0.0,0.0,0.0
55.2,0.912,1.0,50.0
55.17,0.93,0.699,55.0
55.16,0.948,0.399,124.0
55.157,0.968,0.093,67.0
49.478,0.885,-0.185,0.0
39.3,0.716,-0.361,0.0
40.104,3.264,0.444,113.0
40.098,3.273,0.217,136.0
40.106,3.283,-0.008,143.0
39.82,3.269,-0.237,19.0
31.864,2.623,-0.369,10.0
26.388,2.178,-0.455,6.0
40.123,3.331,0.412,111.0
40.112,3.34,0.185,140.0
40.101,3.347,-0.04,145.0
0.0,0.0,0.0,0.0
30.751,2.581,-0.381,9.0
25.573,2.152,-0.462,9.0
40.118,3.395,0.38,112.0
40.109,3.403,0.152,128.0
40.098,3.41,-0.073,68.0
36.332,3.098,-0.275,2.0
29.735,2.542,-0.393,8.0
25.147,2.155,-0.475,7.0
75.094,6.472,0.648,6.0
40.106,3.464,0.119,65.0
40.12,3.474,-0.107,97.0
35.706,3.099,-0.301,11.0
29.112,2.533,-0.41,8.0
24.576,2.144,-0.485,8.0
73.854,6.475,0.574,9.0
47.045,4.134,0.099,21.0
40.081,3.53,-0.141,69.0
34.399,3.037,-0.32,11.0
28.348,2.509,-0.424,7.0
24.08,2.136,-0.497,6.0
72.677,6.48,0.5,2.0
46.647,4.168,0.057,21.0
42.593,3.815,-0.189,5.0
32.026,2.874,-0.327,1.0
27.317,2.458,-0.434,7.0
23.465,2.116,-0.505,5.0
52.54,4.762,0.313,2.0
46.49,4.222,0.013,20.0
40.132,3.652,-0.215,15.0
31.866,2.906,-0.355,9.0
26.57,2.429,-0.446,7.0
22.886,2.096,-0.514,5.0
52.982,4.877,0.266,3.0
46.11,4.253,-0.03,21.0
0.0,0.0,0.0,0.0
30.925,2.864,-0.374,9.0
25.594,2.375,-0.454,6.0
22.274,2.071,-0.522,6.0
47.095,4.4,0.191,5.0
45.446,4.254,-0.072,20.0
36.551,3.428,-0.266,4.0
29.771,2.798,-0.389,8.0
24.982,2.352,-0.468,5.0
21.771,2.054,-0.531,6.0
47.384,4.49,0.146,17.0
44.148,4.191,-0.114,19.0
35.672,3.393,-0.295,10.0
28.79,2.743,-0.404,8.0
24.478,2.337,-0.483,5.0
21.432,2.05,-0.545,7.0
46.983,4.513,0.098,22.0
0.0,0.0,0.0,0.0
33.929,3.271,-0.314,5.0
27.977,2.702,-0.421,7.0
23.898,2.312,-0.496,5.0
21.04,2.039,-0.556,1.0
46.405,4.516,0.049,21.0
40.201,3.919,-0.185,15.0
32.739,3.197,-0.337,10.0
26.707,2.613,-0.43,6.0
23.192,2.273,-0.505,5.0
18.391,1.805,-0.505,15.0
45.457,4.48,0.0,21.0
39.392,3.888,-0.223,15.0
31.355,3.101,-0.356,9.0
25.932,2.568,-0.445,6.0
22.541,2.236,-0.515,4.0
18.167,1.806,-0.518,20.0
44.54,4.443,-0.046,19.0
38.204,3.817,-0.257,13.0
30.369,3.039,-0.377,9.0
25.084,2.514,-0.457,6.0
22.106,2.219,-0.529,4.0
17.852,1.795,-0.529,18.0
43.894,4.429,-0.093,18.0
35.639,3.601,-0.279,6.0
29.18,2.953,-0.394,8.0
24.519,2.485,-0.474,5.0
18.371,1.865,-0.46,9.0
17.664,1.796,-0.543,18.0
40.062,4.087,-0.129,15.0
34.193,3.494,-0.305,11.0
28.204,2.886,-0.413,7.0
23.954,2.454,-0.49,5.0
18.057,1.853,-0.472,15.0
17.52,1.801,-0.558,18.0
39.604,4.083,-0.173,15.0
32.529,3.358,-0.327,5.0
26.91,2.782,-0.424,7.0
23.173,2.399,-0.5,5.0
17.771,1.843,-0.485,17.0
17.333,1.8,-0.572,18.0
38.822,4.043,-0.213,14.0
31.264,3.26,-0.35,9.0
25.753,2.689,-0.435,6.0
22.789,2.382,-0.518,1.0
17.662,1.849,-0.502,19.0
17.178,1.801,-0.586,17.0
37.788,3.972,-0.251,14.0
30.318,3.191,-0.374,8.0
25.001,2.634,-0.451,6.0
17.986,1.898,-0.429,14.0
17.549,1.854,-0.519,18.0
16.943,1.793,-0.598,15.0
35.344,3.749,-0.276,6.0
28.966,3.076,-0.391,8.0
24.399,2.594,-0.469,5.0
17.735,1.888,-0.444,18.0
17.304,1.844,-0.532,14.0
16.771,1.79,-0.612,15.0
34.004,3.638,-0.305,10.0
28.02,3.0,-0.411,7.0
24.01,2.574,-0.49,5.0
17.633,1.893,-0.462,17.0
17.168,1.845,-0.548,16.0
16.67,1.794,-0.628,16.0
32.228,3.475,-0.326,6.0
26.456,2.855,-0.419,6.0
18.125,1.958,-0.391,11.0
17.477,1.89,-0.479,15.0
17.077,1.849,-0.565,16.0
16.602,1.8,-0.645,16.0
31.094,3.378,-0.352,9.0
25.459,2.768,-0.434,6.0
17.771,1.934,-0.404,15.0
17.31,1.886,-0.495,15.0
16.814,1.834,-0.577,13.0
16.402,1.791,-0.657,15.0
29.658,3.245,-0.372,8.0
24.834,2.72,-0.453,6.0
17.615,1.931,-0.422,20.0
17.194,1.887,-0.512,17.0
16.679,1.832,-0.593,13.0
16.295,1.792,-0.672,15.0
28.62,3.152,-0.393,8.0
24.332,2.682,-0.473,3.0
17.528,1.934,-0.441,18.0
17.073,1.886,-0.53,16.0
16.593,1.834,-0.61,16.0
16.203,1.793,-0.688,16.0
27.436,3.041,-0.41,7.0
17.804,1.975,-0.368,13.0
17.374,1.929,-0.459,15.0
16.89,1.877,-0.544,14.0
16.463,1.831,-0.625,15.0
16.089,1.791,-0.703,14.0
26.156,2.915,-0.423,6.0
17.669,1.971,-0.387,18.0
17.253,1.926,-0.477,15.0
16.71,1.867,-0.559,13.0
16.365,1.83,-0.641,16.0
15.98,1.789,-0.718,14.0
25.407,2.847,-0.442,4.0
17.502,1.962,-0.405,16.0
17.086,1.917,-0.493,14.0
16.628,1.867,-0.577,16.0
16.291,1.831,-0.659,15.0
15.898,1.789,-0.734,9.0
18.057,2.033,-0.336,13.0
17.349,1.955,-0.423,15.0
16.974,1.914,-0.511,14.0
16.507,1.863,-0.593,15.0
16.22,1.832,-0.676,14.0
16.075,1.817,-0.762,4.0
17.79,2.012,-0.353,16.0
17.216,1.948,-0.44,15.0
16.801,1.903,-0.526,13.0
16.384,1.857,-0.609,16.0
16.093,1.825,-0.691,14.0
16.143,1.832,-0.785,2.0
17.629,2.002,-0.372,17.0
17.081,1.941,-0.458,15.0
16.678,1.896,-0.543,16.0
16.317,1.856,-0.627,17.0
16.007,1.822,-0.706,14.0
16.279,1.855,-0.812,2.0
17.43,1.987,-0.389,18.0
16.978,1.936,-0.476,14.0
16.59,1.893,-0.56,15.0
16.292,1.86,-0.646,16.0
15.902,1.817,-0.722,12.0
0.0,0.0,0.0,0.0
17.284,1.976,-0.407,18.0
16.872,1.93,-0.494,13.0
16.473,1.885,-0.577,15.0
16.185,1.853,-0.662,12.0
15.967,1.83,-0.745,5.0
16.535,1.896,-0.866,1.0
17.176,1.97,-0.426,17.0
16.757,1.922,-0.512,14.0
16.377,1.88,-0.594,17.0
16.082,1.847,-0.677,12.0
16.106,1.85,-0.771,2.0
16.51,1.898,-0.885,1.0
17.08,1.963,-0.445,16.0
16.659,1.916,-0.529,14.0
16.317,1.877,-0.612,18.0
16.016,1.843,-0.694,12.0
16.188,1.864,-0.795,2.0
16.555,1.907,-0.908,1.0
16.966,1.954,-0.462,16.0
16.569,1.909,-0.546,17.0
16.288,1.877,-0.631,16.0
15.923,1.836,-0.71,12.0
16.208,1.87,-0.816,2.0
16.652,1.922,-0.934,0.0
16.837,1.942,-0.48,16.0
16.483,1.902,-0.564,18.0
16.238,1.874,-0.649,13.0
15.889,1.835,-0.728,9.0
0.0,0.0,0.0,0.0
13.419,1.551,-0.769,0.0
16.744,1.934,-0.497,18.0
16.4,1.895,-0.581,17.0
16.163,1.868,-0.665,12.0
16.014,1.851,-0.753,3.0
16.432,1.9,-0.867,2.0
13.216,1.529,-0.774,0.0
16.675,1.927,-0.515,18.0
16.337,1.889,-0.599,18.0
16.092,1.861,-0.682,12.0
16.107,1.863,-0.777,2.0
16.461,1.905,-0.889,1.0
13.078,1.514,-0.781,0.0
16.603,1.92,-0.533,18.0
16.31,1.886,-0.617,18.0
16.016,1.853,-0.698,12.0
16.194,1.874,-0.801,2.0
16.526,1.913,-0.912,1.0
12.87,1.49,-0.784,0.0
16.506,1.909,-0.55,19.0
16.277,1.883,-0.635,16.0
15.934,1.843,-0.714,12.0
0.0,0.0,0.0,0.0
16.689,1.931,-0.941,0.0
12.807,1.482,-0.796,0.0
16.438,1.9,-0.567,19.0
16.218,1.875,-0.652,13.0
15.933,1.842,-0.732,7.0
16.427,1.9,-0.851,2.0
13.472,1.558,-0.775,0.0
12.662,1.465,-0.802,0.0
16.389,1.893,-0.585,18.0
16.133,1.864,-0.668,12.0
16.073,1.857,-0.758,2.0
16.444,1.9,-0.871,2.0
13.175,1.522,-0.774,0.0
12.457,1.44,-0.803,0.0
16.35,1.886,-0.602,19.0
16.061,1.853,-0.683,12.0
16.193,1.868,-0.782,2.0
16.499,1.904,-0.893,1.0
13.065,1.508,-0.782,0.0
12.393,1.43,-0.814,0.0
16.318,1.88,-0.619,19.0
16.001,1.843,-0.699,13.0
16.219,1.868,-0.802,2.0
16.579,1.91,-0.917,0.0
12.856,1.481,-0.785,0.0
12.227,1.409,-0.817,0.0
16.29,1.873,-0.637,17.0
15.92,1.83,-0.714,12.0
0.0,0.0,0.0,0.0
16.828,1.934,-0.95,0.0
12.802,1.472,-0.796,0.0
11.976,1.377,-0.814,0.0
16.254,1.865,-0.654,15.0
15.927,1.827,-0.732,6.0
16.53,1.896,-0.855,2.0
13.477,1.545,-0.776,0.0
12.633,1.449,-0.8,0.0
11.841,1.358,-0.818,0.0
16.163,1.849,-0.668,13.0
16.092,1.841,-0.757,2.0
16.586,1.897,-0.876,1.0
13.305,1.521,-0.78,0.0
12.5,1.429,-0.805,0.0
11.746,1.343,-0.824,0.0
16.103,1.837,-0.683,15.0
16.191,1.846,-0.78,2.0
16.643,1.897,-0.897,1.0
13.183,1.503,-0.787,0.0
12.441,1.418,-0.815,0.0
11.608,1.323,-0.827,0.0
16.036,1.823,-0.697,15.0
16.328,1.855,-0.804,2.0
16.787,1.907,-0.923,1.0
12.995,1.476,-0.79,0.0
12.263,1.393,-0.816,0.0
11.45,1.3,-0.828,0.0
15.982,1.81,-0.712,15.0
0.0,0.0,0.0,0.0
17.07,1.931,-0.956,0.0
12.754,1.443,-0.789,0.0
12.031,1.361,-0.813,0.0
11.262,1.273,-0.826,0.0
15.908,1.794,-0.725,10.0
16.869,1.901,-0.865,1.0
13.547,1.526,-0.773,0.0
12.651,1.425,-0.795,0.0
11.924,1.342,-0.818,0.0
11.215,1.262,-0.834,0.0
16.032,1.799,-0.747,3.0
16.945,1.901,-0.886,1.0
13.352,1.497,-0.775,0.0
12.546,1.406,-0.801,0.0
11.747,1.316,-0.818,0.0
11.102,1.244,-0.837,0.0
16.174,1.806,-0.769,2.0
16.971,1.894,-0.904,1.0
13.159,1.468,-0.776,0.0
12.464,1.39,-0.808,0.0
11.678,1.302,-0.824,0.0
10.955,1.221,-0.836,0.0
16.485,1.831,-0.8,2.0
17.035,1.891,-0.924,1.0
12.985,1.441,-0.779,0.0
12.349,1.37,-0.812,0.0
11.64,1.29,-0.833,0.0
10.837,1.201,-0.837,0.0
17.098,1.888,-0.846,1.0
17.23,1.902,-0.951,1.0
12.923,1.425,-0.787,0.0
12.244,1.35,-0.817,0.0
11.515,1.269,-0.834,0.0
10.736,1.182,-0.84,0.0
17.426,1.913,-0.878,0.0
17.489,1.918,-0.981,0.0
12.736,1.396,-0.787,0.0
12.173,1.334,-0.823,0.0
11.374,1.245,-0.834,0.0
10.615,1.162,-0.84,0.0
17.563,1.915,-0.9,0.0
13.485,1.469,-0.768,0.0
12.713,1.384,-0.797,0.0
11.93,1.298,-0.817,0.0
11.211,1.219,-0.832,0.0
10.522,1.144,-0.842,0.0
17.557,1.901,-0.915,1.0
13.373,1.447,-0.773,0.0
12.584,1.36,-0.8,0.0
11.924,1.288,-0.827,0.0
11.084,1.197,-0.832,0.0
10.52,1.135,-0.85,0.0
17.573,1.889,-0.931,1.0
13.315,1.43,-0.781,0.0
12.48,1.339,-0.803,0.0
11.806,1.266,-0.829,0.0
11.013,1.18,-0.836,0.0
10.398,1.113,-0.849,0.0
17.504,1.867,-0.941,0.0
13.045,1.39,-0.776,0.0
12.425,1.323,-0.81,0.0
11.725,1.247,-0.832,0.0
10.918,1.16,-0.838,0.0
10.344,1.099,-0.853,0.0
17.61,1.863,-0.961,0.0
13.118,1.386,-0.79,0.0
12.356,1.305,-0.815,0.0
11.545,1.218,-0.829,0.0
10.883,1.147,-0.843,0.0
10.262,1.081,-0.854,0.0
17.676,1.854,-0.978,0.0
12.977,1.36,-0.791,0.0
12.287,1.286,-0.819,0.0
11.461,1.199,-0.831,0.0
10.766,1.125,-0.842,0.0
10.226,1.068,-0.858,0.0
13.372,1.39,-0.749,0.0
12.883,1.338,-0.795,0.0
12.11,1.256,-0.816,0.0
11.339,1.175,-0.83,0.0
10.711,1.109,-0.845,0.0
10.109,1.046,-0.856,0.0
13.261,1.365,-0.752,0.0
12.808,1.317,-0.799,0.0
12.045,1.238,-0.82,0.0
11.216,1.151,-0.829,0.0
10.62,1.089,-0.845,0.0
10.098,1.034,-0.861,0.0
13.37,1.363,-0.767,0.0
12.698,1.293,-0.8,0.0
11.992,1.22,-0.824,0.0
11.161,1.134,-0.832,0.0
10.569,1.073,-0.848,0.0
10.055,1.02,-0.864,0.0
13.363,1.349,-0.775,0.0
12.686,1.279,-0.807,0.0
11.923,1.201,-0.827,0.0
11.09,1.115,-0.833,0.0
10.504,1.055,-0.849,0.0
9.997,1.003,-0.865,0.0
13.288,1.327,-0.778,0.0
12.609,1.258,-0.81,0.0
11.794,1.175,-0.824,0.0
11.053,1.1,-0.837,0.0
10.506,1.044,-0.855,0.0
9.998,0.993,-0.871,0.0
13.232,1.307,-0.782,0.0
12.591,1.242,-0.816,0.0
11.722,1.155,-0.826,0.0
11.042,1.086,-0.842,0.0
10.427,1.025,-0.854,0.0
9.935,0.975,-0.871,0.0
13.109,1.28,-0.782,0.0
12.504,1.219,-0.816,0.0
11.684,1.137,-0.829,0.0
10.981,1.068,-0.843,0.0
10.359,1.006,-0.854,0.0
9.905,0.961,-0.873,0.0
12.999,1.254,-0.781,0.0
12.461,1.2,-0.82,0.0
11.577,1.114,-0.827,0.0
10.949,1.052,-0.845,0.0
10.31,0.989,-0.855,0.0
9.864,0.945,-0.874,0.0
13.071,1.246,-0.791,0.0
12.403,1.18,-0.821,0.0
11.628,1.105,-0.836,0.0
10.867,1.031,-0.844,0.0
10.305,0.976,-0.859,0.0
9.833,0.93,-0.875,0.0
13.03,1.226,-0.794,0.0
12.351,1.16,-0.823,0.0
11.483,1.077,-0.83,0.0
10.852,1.016,-0.847,0.0
10.262,0.959,-0.859,0.0
9.828,0.917,-0.878,0.0
13.002,1.207,-0.797,0.0
12.265,1.137,-0.821,0.0
11.496,1.064,-0.835,0.0
10.822,1.0,-0.848,0.0
10.24,0.944,-0.861,0.0
9.783,0.901,-0.878,0.0
12.99,1.19,-0.801,0.0
12.285,1.123,-0.827,0.0
11.473,1.047,-0.837,0.0
10.824,0.986,-0.852,0.0
10.245,0.932,-0.864,0.0
9.782,0.888,-0.881,0.0
12.876,1.162,-0.798,0.0
12.255,1.104,-0.828,0.0
11.482,1.033,-0.841,0.0
10.778,0.968,-0.851,0.0
10.225,0.916,-0.865,0.0
9.753,0.873,-0.881,0.0
12.916,1.149,-0.804,0.0
12.227,1.086,-0.83,0.0
11.435,1.013,-0.84,0.0
10.729,0.949,-0.85,0.0
10.195,0.9,-0.865,0.0
9.737,0.858,-0.882,0.0
12.874,1.128,-0.804,0.0
12.238,1.07,-0.833,0.0
11.421,0.997,-0.842,0.0
10.77,0.938,-0.855,0.0
10.219,0.888,-0.869,0.0
9.739,0.845,-0.884,0.0
12.868,1.11,-0.806,0.0
12.271,1.056,-0.837,0.0
11.391,0.979,-0.841,0.0
10.731,0.92,-0.854,0.0
10.171,0.87,-0.867,0.0
9.758,0.833,-0.887,0.0
12.845,1.09,-0.806,0.0
12.187,1.032,-0.833,0.0
11.384,0.962,-0.842,0.0
10.748,0.907,-0.857,0.0
10.184,0.857,-0.869,0.0
9.739,0.818,-0.886,0.0
12.833,1.072,-0.807,0.0
12.135,1.011,-0.831,0.0
11.399,0.948,-0.844,0.0
10.191,0.844,-0.87,0.0
9.752,0.806,-0.888,0.0
12.866,1.056,-0.809,0.0
12.165,0.997,-0.833,0.0
11.33,0.926,-0.84,0.0
10.767,0.878,-0.859,0.0
10.206,0.83,-0.872,0.0
9.712,0.788,-0.884,0.0
12.873,1.039,-0.81,0.0
12.13,0.976,-0.831,0.0
11.392,0.915,-0.844,0.0
10.832,0.868,-0.865,0.0
10.184,0.814,-0.87,0.0
9.741,0.777,-0.887,0.0
12.912,1.023,-0.812,0.0
12.211,0.965,-0.836,0.0
11.385,0.897,-0.843,0.0
10.791,0.848,-0.861,0.0
10.245,0.804,-0.875,0.0
9.797,0.767,-0.891,0.0
12.976,1.009,-0.815,0.0
12.188,0.945,-0.834,0.0
11.417,0.883,-0.845,0.0
10.821,0.835,-0.862,0.0
10.239,0.788,-0.873,0.0
9.778,0.751,-0.889,0.0
12.943,0.987,-0.812,0.0
12.255,0.932,-0.837,0.0
11.446,0.868,-0.845,0.0
10.836,0.82,-0.862,0.0
10.26,0.774,-0.873,0.0
9.784,0.736,-0.888,0.0
13.019,0.974,-0.815,0.0
12.337,0.92,-0.84,0.0
11.44,0.851,-0.843,0.0
10.855,0.805,-0.862,0.0
10.285,0.761,-0.874,0.0
9.82,0.724,-0.889,0.0
13.094,0.96,-0.817,0.0
12.281,0.898,-0.834,0.0
11.487,0.837,-0.844,0.0
10.874,0.79,-0.861,0.0
10.345,0.75,-0.876,0.0
9.849,0.712,-0.889,0.0
13.079,0.939,-0.813,0.0
12.358,0.884,-0.836,0.0
11.607,0.828,-0.85,0.0
10.91,0.776,-0.861,0.0
10.33,0.733,-0.872,0.0
9.864,0.698,-0.888,0.0
13.165,0.925,-0.814,0.0
12.381,0.867,-0.834,0.0
11.553,0.807,-0.843,0.0
10.941,0.762,-0.86,0.0
10.353,0.719,-0.871,0.0
9.921,0.687,-0.89,0.0
13.221,0.909,-0.814,0.0
12.484,0.855,-0.837,0.0
11.657,0.796,-0.846,0.0
11.062,0.753,-0.866,0.0
10.476,0.711,-0.878,0.0
9.921,0.671,-0.887,0.0
13.247,0.89,-0.81,0.0
12.546,0.84,-0.837,0.0
11.799,0.788,-0.852,0.0
11.058,0.736,-0.861,0.0
10.45,0.693,-0.872,0.0
9.989,0.66,-0.888,0.0
13.353,0.877,-0.811,0.0
12.609,0.825,-0.836,0.0
11.839,0.772,-0.85,0.0
11.155,0.725,-0.864,0.0
10.514,0.681,-0.872,0.0
10.034,0.647,-0.888,0.0
13.399,0.859,-0.808,0.0
12.663,0.809,-0.833,0.0
11.906,0.758,-0.849,0.0
11.193,0.71,-0.861,0.0
10.599,0.67,-0.874,0.0
10.085,0.635,-0.887,0.0
13.452,0.841,-0.805,0.0
12.703,0.791,-0.83,0.0
11.984,0.744,-0.849,0.0
11.247,0.695,-0.859,0.0
10.682,0.658,-0.875,0.0
10.201,0.626,-0.892,0.0
13.589,0.828,-0.805,0.0
12.799,0.777,-0.829,0.0
12.094,0.732,-0.85,0.0
11.285,0.68,-0.856,0.0
10.793,0.648,-0.878,0.0
10.192,0.609,-0.885,0.0
13.622,0.809,-0.799,0.0
12.98,0.768,-0.833,0.0
12.188,0.718,-0.849,0.0
11.327,0.665,-0.852,0.0
10.789,0.631,-0.871,0.0
10.253,0.597,-0.884,0.0
13.876,0.803,-0.806,0.0
12.972,0.747,-0.824,0.0
12.316,0.706,-0.85,0.0
11.525,0.658,-0.86,0.0
10.858,0.618,-0.87,0.0
10.303,0.584,-0.882,0.0
14.082,0.792,-0.808,0.0
13.162,0.737,-0.827,0.0
12.363,0.69,-0.845,0.0
11.684,0.649,-0.864,0.0
10.958,0.606,-0.87,0.0
10.406,0.573,-0.883,0.0
14.198,0.777,-0.805,0.0
13.234,0.721,-0.822,0.0
12.401,0.672,-0.838,0.0
11.73,0.633,-0.858,0.0
11.033,0.593,-0.868,0.0
23.647,1.266,-1.99,0.0
14.427,0.767,-0.807,0.0
13.465,0.713,-0.827,0.0
23.631,1.245,-1.58,0.0
11.802,0.619,-0.855,0.0
11.151,0.582,-0.868,0.0
23.652,1.23,-1.972,0.0
23.643,1.22,-1.305,1.0
23.641,1.214,-1.433,1.0
23.618,1.208,-1.56,1.0
11.99,0.61,-0.858,0.0
11.212,0.568,-0.864,0.0
23.603,1.19,-1.948,0.0
23.627,1.183,-1.284,1.0
23.615,1.176,-1.411,2.0
23.615,1.17,-1.54,2.0
12.121,0.598,-0.857,0.0
11.375,0.558,-0.866,0.0
10.75,0.525,-0.877,0.0
23.614,1.145,-1.262,1.0
23.627,1.14,-1.391,1.0
23.655,1.136,-1.521,0.0
12.225,0.584,-0.854,0.0
11.515,0.547,-0.867,0.0
10.836,0.512,-0.875,0.0
23.634,1.11,-1.242,0.0
23.602,1.103,-1.368,0.0
13.051,0.606,-0.827,0.0
12.254,0.566,-0.844,0.0
11.575,0.532,-0.86,0.0
10.953,0.501,-0.873,0.0
15.797,0.717,-0.815,0.0
14.385,0.65,-0.82,0.0
13.301,0.597,-0.83,0.0
12.497,0.558,-0.849,0.0
11.809,0.525,-0.866,0.0
11.012,0.487,-0.867,0.0
15.943,0.7,-0.807,2.0
14.393,0.628,-0.806,0.0
13.457,0.584,-0.826,0.0
12.802,0.552,-0.856,0.0
11.899,0.511,-0.86,0.0
11.199,0.478,-0.87,0.0
15.998,0.678,-0.793,1.0
14.768,0.622,-0.811,0.0
13.626,0.571,-0.822,0.0
12.837,0.534,-0.845,1.0
12.089,0.5,-0.861,0.0
11.334,0.466,-0.869,0.0
16.164,0.661,-0.784,1.0
15.06,0.612,-0.811,0.0
13.865,0.56,-0.821,0.0
12.93,0.519,-0.837,0.0
12.272,0.49,-0.86,0.0
11.52,0.457,-0.87,0.0
16.266,0.64,-0.77,1.0
15.33,0.6,-0.808,0.0
14.145,0.55,-0.822,0.0
13.096,0.506,-0.832,0.0
12.452,0.478,-0.859,0.0
11.741,0.448,-0.873,0.0
16.355,0.619,-0.755,1.0
15.854,0.597,-0.817,1.0
14.362,0.537,-0.817,0.0
13.346,0.496,-0.833,0.0
12.574,0.464,-0.852,0.0
11.862,0.435,-0.867,0.0
16.519,0.601,-0.743,0.0
16.045,0.58,-0.808,1.0
14.583,0.524,-0.812,0.0
13.647,0.487,-0.835,0.0
12.765,0.452,-0.849,0.0
12.035,0.424,-0.865,0.0
16.703,0.583,-0.731,0.0
16.472,0.571,-0.809,1.0
14.9,0.513,-0.811,0.0
13.997,0.479,-0.838,0.0
13.007,0.442,-0.849,0.0
12.226,0.412,-0.863,0.0
17.066,0.571,-0.725,0.0
16.902,0.562,-0.808,1.0
15.273,0.504,-0.812,0.0
14.186,0.465,-0.831,0.0
13.3,0.433,-0.85,0.0
12.453,0.402,-0.863,0.0
17.771,0.57,-0.732,0.0
17.478,0.556,-0.813,1.0
15.832,0.5,-0.821,0.0
14.369,0.45,-0.823,0.0
13.446,0.418,-0.842,0.0
12.649,0.391,-0.86,0.0
18.459,0.566,-0.736,1.0
17.667,0.537,-0.798,0.0
16.18,0.488,-0.817,0.0
14.699,0.44,-0.822,0.0
13.847,0.412,-0.848,0.0
12.796,0.377,-0.852,0.0
19.309,0.565,-0.743,3.0
18.024,0.523,-0.789,2.0
16.637,0.479,-0.817,0.0
14.95,0.427,-0.815,0.0
14.072,0.399,-0.842,0.0
13.114,0.369,-0.854,0.0
20.045,0.559,-0.743,2.0
18.419,0.509,-0.78,0.0
17.017,0.467,-0.811,1.0
15.452,0.42,-0.82,0.0
14.332,0.387,-0.837,0.0
13.407,0.359,-0.854,0.0
20.739,0.55,-0.739,2.0
18.931,0.498,-0.775,1.0
17.387,0.454,-0.803,0.0
15.972,0.413,-0.824,0.0
14.575,0.374,-0.83,0.0
13.712,0.348,-0.853,0.0
21.297,0.537,-0.727,4.0
19.17,0.479,-0.756,0.0
17.762,0.44,-0.794,0.0
16.272,0.399,-0.816,0.0
14.856,0.361,-0.823,0.0
14.01,0.338,-0.851,1.0
21.953,0.525,-0.716,3.0
19.58,0.464,-0.742,0.0
18.318,0.43,-0.791,0.0
16.764,0.389,-0.814,0.0
15.281,0.352,-0.823,0.0
14.306,0.326,-0.846,1.0
22.781,0.515,-0.708,1.0
20.772,0.465,-0.755,1.0
18.695,0.414,-0.778,0.0
17.396,0.382,-0.818,0.0
15.786,0.343,-0.825,0.0
14.567,0.313,-0.838,0.0
23.517,0.502,-0.694,0.0
21.016,0.444,-0.731,3.0
19.16,0.401,-0.767,0.0
17.688,0.366,-0.803,0.0
16.063,0.329,-0.814,0.0
14.87,0.301,-0.832,0.0
24.56,0.493,-0.685,0.0
21.722,0.432,-0.72,0.0
19.841,0.39,-0.762,1.0
18.178,0.354,-0.795,0.0
16.68,0.321,-0.818,0.0
15.33,0.292,-0.832,0.0
25.373,0.479,-0.666,0.0
22.746,0.425,-0.717,0.0
20.217,0.373,-0.743,0.0
18.789,0.343,-0.791,2.0
17.217,0.311,-0.815,0.0
15.706,0.28,-0.827,0.0
26.712,0.472,-0.657,1.0
23.14,0.404,-0.691,0.0
21.027,0.363,-0.738,1.0
19.172,0.327,-0.775,0.0
17.754,0.299,-0.811,0.0
16.32,0.272,-0.831,0.0
27.593,0.456,-0.632,1.0
24.623,0.402,-0.693,0.0
21.686,0.349,-0.724,0.0
19.592,0.312,-0.758,3.0
18.262,0.287,-0.803,0.0
16.627,0.258,-0.818,1.0
19.707,0.303,-0.417,2.0
19.699,0.299,-0.52,0.0
22.758,0.341,-0.72,0.0
19.614,0.29,-0.725,3.0
18.819,0.275,-0.794,0.0
17.21,0.248,-0.817,0.0
19.672,0.28,-0.382,15.0
19.683,0.277,-0.485,14.0
19.683,0.273,-0.588,8.0
19.708,0.27,-0.694,3.0
19.428,0.262,-0.785,1.0
17.754,0.236,-0.811,0.0
19.66,0.259,-0.347,16.0
19.672,0.255,-0.45,18.0
19.672,0.252,-0.552,16.0
19.649,0.248,-0.657,15.0
19.576,0.243,-0.756,5.0
18.285,0.224,-0.802,0.0
19.666,0.238,-0.312,16.0
19.666,0.235,-0.414,19.0
19.668,0.231,-0.517,18.0
19.646,0.227,-0.62,18.0
19.644,0.224,-0.723,9.0
19.111,0.214,-0.803,0.0
19.653,0.218,-0.275,18.0
19.644,0.214,-0.378,16.0
19.659,0.211,-0.48,17.0
19.653,0.208,-0.585,16.0
19.675,0.204,-0.688,13.0
19.527,0.199,-0.784,2.0
19.652,0.198,-0.239,17.0
19.653,0.195,-0.342,14.0
19.656,0.191,-0.444,16.0
19.668,0.188,-0.548,10.0
19.691,0.185,-0.652,6.0
19.697,0.182,-0.754,2.0
19.662,0.179,-0.202,15.0
19.681,0.176,-0.305,7.0
19.682,0.173,-0.407,7.0
19.711,0.17,-0.512,2.0
23.1,0.195,-0.72,0.0
20.783,0.173,-0.757,0.0
19.667,0.161,-0.165,12.0
19.713,0.158,-0.268,1.0
30.559,0.24,-0.574,0.0
27.046,0.208,-0.652,0.0
23.233,0.175,-0.68,0.0
21.6,0.16,-0.745,0.0
19.673,0.143,-0.128,10.0
0.0,0.0,0.0,0.0
30.826,0.215,-0.521,0.0
28.15,0.192,-0.624,0.0
25.271,0.168,-0.691,0.0
22.383,0.146,-0.728,0.0
19.689,0.126,-0.09,8.0
0.0,0.0,0.0,0.0
35.157,0.215,-0.525,0.0
29.528,0.176,-0.597,0.0
26.613,0.155,-0.676,0.0
23.375,0.133,-0.715,0.0
19.708,0.109,-0.051,6.0
19.74,0.107,-0.153,0.0
19.76,0.104,-0.256,0.0
19.77,0.101,-0.36,0.0
19.775,0.099,-0.463,1.0
19.782,0.096,-0.566,1.0
19.757,0.094,-0.012,18.0
19.76,0.091,-0.114,12.0
19.771,0.088,-0.217,16.0
19.758,0.086,-0.321,16.0
19.785,0.083,-0.424,21.0
19.785,0.081,-0.526,22.0
19.767,0.078,0.026,48.0
19.767,0.076,-0.075,60.0
19.772,0.073,-0.177,64.0
19.771,0.071,-0.281,63.0
19.772,0.068,-0.384,40.0
19.786,0.066,-0.487,68.0
19.751,0.064,0.066,26.0
19.758,0.061,-0.035,150.0
19.757,0.059,-0.138,39.0
19.755,0.056,-0.241,13.0
19.773,0.054,-0.344,12.0
19.774,0.052,-0.446,14.0
19.757,0.05,0.106,17.0
19.757,0.047,0.004,19.0
19.757,0.045,-0.097,9.0
19.74,0.043,-0.201,10.0
19.756,0.041,-0.303,11.0
19.767,0.038,-0.406,9.0
19.755,0.036,0.146,22.0
19.748,0.034,0.044,14.0
19.742,0.032,-0.057,150.0
19.748,0.03,-0.161,3.0
19.779,0.028,-0.263,2.0
19.776,0.026,-0.365,1.0
19.653,0.024,0.185,9.0
19.788,0.022,0.085,4.0
19.761,0.02,-0.016,9.0
19.761,0.018,-0.12,1.0
19.782,0.016,-0.222,0.0
19.751,0.014,-0.324,0.0
19.635,0.012,0.226,16.0
19.762,0.01,0.126,1.0
19.74,0.008,0.024,7.0
19.759,0.006,-0.079,2.0
0.0,0.0,0.0,0.0
0.0,0.0,0.0,0.0
19.63,0.001,0.267,13.0
19.7,0.0,0.166,7.0
19.717,-0.002,0.065,7.0
19.731,-0.004,-0.038,12.0
19.759,-0.005,-0.14,4.0
0.0,0.0,0.0,0.0
19.632,-0.009,0.307,14.0
19.648,-0.01,0.206,15.0
19.682,-0.012,0.106,9.0
19.699,-0.014,0.002,14.0
19.751,-0.015,-0.099,8.0
19.749,-0.017,-0.2,4.0
19.629,-0.018,0.349,12.0
19.643,-0.02,0.247,12.0
19.666,-0.021,0.147,8.0
19.694,-0.023,0.043,15.0
19.717,-0.024,-0.057,14.0
19.754,-0.026,-0.159,14.0
19.622,-0.027,0.39,12.0
19.636,-0.029,0.288,10.0
19.653,-0.03,0.187,12.0
19.684,-0.031,0.085,16.0
19.7,-0.033,-0.016,16.0
19.732,-0.034,-0.118,13.0
19.634,-0.035,0.431,13.0
19.634,-0.037,0.33,10.0
19.644,-0.038,0.229,12.0
19.686,-0.039,0.126,17.0
19.7,-0.04,0.024,16.0
19.726,-0.042,-0.076,13.0
19.638,-0.043,0.472,12.0
19.646,-0.044,0.371,10.0
19.642,-0.045,0.27,9.0
19.684,-0.046,0.167,14.0
19.702,-0.047,0.066,15.0
19.71,-0.048,-0.034,17.0
19.633,-0.05,0.514,13.0
19.64,-0.051,0.412,11.0
19.641,-0.052,0.311,10.0
19.654,-0.053,0.209,14.0
19.7,-0.054,0.108,16.0
19.699,-0.054,0.006,16.0
19.636,-0.056,0.555,13.0
19.641,-0.057,0.454,12.0
19.641,-0.057,0.353,9.0
19.65,-0.058,0.25,10.0
19.691,-0.059,0.149,17.0
19.705,-0.06,0.048,14.0
19.646,-0.061,0.597,13.0
19.635,-0.062,0.496,11.0
19.643,-0.063,0.395,9.0
19.647,-0.063,0.292,9.0
19.696,-0.064,0.191,14.0
19.705,-0.064,0.09,15.0
19.665,-0.066,0.64,13.0
19.634,-0.066,0.538,11.0
19.637,-0.067,0.437,10.0
19.647,-0.067,0.334,10.0
19.67,-0.068,0.233,12.0
19.705,-0.068,0.132,15.0
19.672,-0.07,0.682,12.0
19.643,-0.07,0.58,13.0
19.629,-0.07,0.478,10.0
19.642,-0.071,0.375,9.0
19.661,-0.071,0.275,10.0
19.703,-0.071,0.174,14.0
19.682,-0.073,0.724,9.0
19.648,-0.073,0.622,13.0
19.628,-0.073,0.52,10.0
19.638,-0.073,0.417,9.0
19.664,-0.074,0.316,9.0
19.681,-0.074,0.215,13.0
19.715,-0.075,0.767,4.0
19.66,-0.075,0.664,12.0
19.636,-0.075,0.562,12.0
19.639,-0.075,0.459,10.0
19.661,-0.075,0.358,10.0
19.67,-0.075,0.257,9.0
184.785,-0.726,7.585,21.0
19.672,-0.077,0.705,10.0
19.639,-0.077,0.603,12.0
19.637,-0.076,0.5,10.0
19.659,-0.076,0.399,9.0
19.657,-0.076,0.298,9.0
184.759,-0.734,7.973,17.0
19.696,-0.078,0.748,7.0
19.644,-0.077,0.645,12.0
19.631,-0.077,0.541,11.0
19.642,-0.077,0.44,10.0
19.658,-0.076,0.339,10.0
185.154,-0.736,8.38,5.0
19.72,-0.078,0.79,0.0
19.666,-0.077,0.687,10.0
19.629,-0.077,0.582,13.0
19.645,-0.076,0.481,11.0
19.649,-0.076,0.38,9.0
0.0,0.0,0.0,0.0
184.827,-0.725,7.797,20.0
19.685,-0.076,0.728,9.0
19.631,-0.075,0.623,12.0
19.629,-0.075,0.522,11.0
19.64,-0.074,0.421,9.0
0.0,0.0,0.0,0.0
184.996,-0.711,8.19,15.0
19.708,-0.075,0.77,2.0
19.648,-0.074,0.664,11.0
19.637,-0.073,0.563,13.0
19.646,-0.072,0.462,12.0
0.0,0.0,0.0,0.0
185.009,-0.69,8.577,8.0
184.74,-0.682,7.609,19.0
19.671,-0.071,0.707,9.0
19.65,-0.07,0.604,13.0
19.644,-0.07,0.503,12.0
0.0,0.0,0.0,0.0
0.0,0.0,0.0,0.0
184.829,-0.652,7.998,23.0
19.689,-0.068,0.748,7.0
19.644,-0.067,0.645,12.0
19.635,-0.066,0.543,13.0
0.0,0.0,0.0,0.0
19.618,-0.066,0.99,0.0
184.99,-0.617,8.385,14.0
19.714,-0.064,0.789,0.0
19.67,-0.063,0.686,11.0
19.646,-0.062,0.583,14.0
0.0,0.0,0.0,0.0
19.498,-0.061,1.024,0.0
19.594,-0.06,0.928,0.0
184.812,-0.562,7.78,20.0
19.681,-0.058,0.726,9.0
19.653,-0.057,0.623,13.0
0.0,0.0,0.0,0.0
0.0,0.0,0.0,0.0
19.604,-0.055,0.968,4.0
19.593,-0.054,0.864,0.0
19.712,-0.053,0.767,4.0
19.654,-0.051,0.663,13.0
0.0,0.0,0.0,0.0
0.0,0.0,0.0,0.0
19.597,-0.049,1.007,2.0
19.593,-0.048,0.904,9.0
184.689,-0.439,7.566,11.0
19.669,-0.045,0.703,10.0
0.0,0.0,0.0,0.0
0.0,0.0,0.0,0.0
19.581,-0.043,1.046,0.0
19.587,-0.041,0.942,14.0
19.603,-0.039,0.842,6.0
19.683,-0.038,0.743,8.0
0.0,0.0,0.0,0.0
0.0,0.0,0.0,0.0
0.0,0.0,0.0,0.0
19.583,-0.033,0.981,13.0
19.588,-0.032,0.88,14.0
19.713,-0.03,0.783,2.0
113.831,-0.181,7.718,5.0
0.0,0.0,0.0,0.0
138.866,-0.195,7.968,2.0
19.582,-0.025,1.019,6.0
19.575,-0.023,0.917,17.0
19.626,-0.021,0.818,6.0
0.0,0.0,0.0,0.0
0.0,0.0,0.0,0.0
0.0,0.0,0.0,0.0
19.596,-0.016,1.058,1.0
19.572,-0.014,0.955,17.0
19.57,-0.012,0.853,18.0
0.0,0.0,0.0,0.0
113.899,-0.067,7.573,2.0
0.0,0.0,0.0,0.0
0.0,0.0,0.0,0.0
19.555,-0.005,0.992,14.0
19.566,-0.003,0.89,18.0
0.0,0.0,0.0,0.0
113.862,-0.009,7.787,9.0
0.0,0.0,0.0,0.0
0.0,0.0,0.0,0.0
19.572,0.004,1.03,6.0
19.558,0.007,0.927,20.0
0.0,0.0,0.0,0.0
0.0,0.0,0.0,0.0
0.0,0.0,0.0,0.0
0.0,0.0,0.0,0.0
19.602,0.015,1.068,1.0
19.557,0.018,0.963,23.0
0.0,0.0,0.0,0.0
0.0,0.0,0.0,0.0
113.928,0.131,7.623,8.0
0.0,0.0,0.0,0.0
139.075,0.195,7.836,8.0
19.56,0.029,0.999,15.0
0.0,0.0,0.0,0.0
0.0,0.0,0.0,0.0
113.949,0.2,7.834,2.0
0.0,0.0,0.0,0.0
0.0,0.0,0.0,0.0
19.571,0.042,1.035,8.0
0.0,0.0,0.0,0.0
0.0,0.0,0.0,0.0
0.0,0.0,0.0,0.0
113.946,0.289,7.43,1.0
0.0,0.0,0.0,0.0
19.612,0.055,1.073,1.0
0.0,0.0,0.0,0.0
0.0,0.0,0.0,0.0
0.0,0.0,0.0,0.0
113.849,0.366,7.626,11.0
0.0,0.0,0.0,0.0
0.0,0.0,0.0,0.0
84.779,0.296,7.177,18.0
0.0,0.0,0.0,0.0
0.0,0.0,0.0,0.0
0.0,0.0,0.0,0.0
0.0,0.0,0.0,0.0
0.0,0.0,0.0,0.0
84.736,0.357,7.321,0.0
0.0,0.0,0.0,0.0
0.0,0.0,0.0,0.0
0.0,0.0,0.0,0.0
113.962,0.55,7.432,17.0
0.0,0.0,0.0,0.0
0.0,0.0,0.0,0.0
84.818,0.435,7.027,4.0
0.0,0.0,0.0,0.0
0.0,0.0,0.0,0.0
0.0,0.0,0.0,0.0
113.948,0.656,7.024,7.0
0.0,0.0,0.0,0.0
84.793,0.502,7.169,19.0
0.0,0.0,0.0,0.0
0.0,0.0,0.0,0.0
0.0,0.0,0.0,0.0
113.827,0.748,7.205,5.0
0.0,0.0,0.0,0.0
0.0,0.0,0.0,0.0
0.0,0.0,0.0,0.0
0.0,0.0,0.0,0.0
0.0,0.0,0.0,0.0
0.0,0.0,0.0,0.0
0.0,0.0,0.0,0.0
0.0,0.0,0.0,0.0
84.809,0.658,6.998,13.0
0.0,0.0,0.0,0.0
0.0,0.0,0.0,0.0
0.0,0.0,0.0,0.0
0.0,0.0,0.0,0.0
0.0,0.0,0.0,0.0
84.82,0.732,7.134,7.0
0.0,0.0,0.0,0.0
0.0,0.0,0.0,0.0
0.0,0.0,0.0,0.0
0.0,0.0,0.0,0.0
0.0,0.0,0.0,0.0
0.0,0.0,0.0,0.0
84.813,0.824,6.805,5.0
0.0,0.0,0.0,0.0
0.0,0.0,0.0,0.0
0.0,0.0,0.0,0.0
0.0,0.0,0.0,0.0
0.0,0.0,0.0,0.0
84.801,0.903,6.932,21.0
0.0,0.0,0.0,0.0
0.0,0.0,0.0,0.0
0.0,0.0,0.0,0.0
0.0,0.0,0.0,0.0
0.0,0.0,0.0,0.0
0.0,0.0,0.0,0.0
84.783,0.998,6.603,13.0
0.0,0.0,0.0,0.0
0.0,0.0,0.0,0.0
0.0,0.0,0.0,0.0
0.0,0.0,0.0,0.0
0.0,0.0,0.0,0.0
84.818,1.082,6.727,4.0
84.804,1.098,6.273,43.0
0.0,0.0,0.0,0.0
0.0,0.0,0.0,0.0
0.0,0.0,0.0,0.0
0.0,0.0,0.0,0.0
0.0,0.0,0.0,0.0
84.843,1.183,6.394,0.0
0.0,0.0,0.0,0.0
0.0,0.0,0.0,0.0
0.0,0.0,0.0,0.0
0.0,0.0,0.0,0.0
0.0,0.0,0.0,0.0
0.0,0.0,0.0,0.0
0.0,0.0,0.0,0.0
0.0,0.0,0.0,0.0
0.0,0.0,0.0,0.0
0.0,0.0,0.0,0.0
0.0,0.0,0.0,0.0
0.0,0.0,0.0,0.0
0.0,0.0,0.0,0.0
55.243,0.901,5.576,0.0
55.266,0.912,5.28,2.0
55.231,0.922,4.974,17.0
55.233,0.933,4.677,36.0
55.208,0.944,4.378,57.0
55.237,0.95,5.946,69.0
55.223,0.961,5.645,73.0
55.226,0.971,5.346,71.0
55.195,0.981,5.04,71.0
55.211,0.993,4.744,63.0
55.215,1.003,4.447,53.0
55.205,1.01,6.011,6.0
55.254,1.022,5.716,3.0
55.25,1.033,5.417,0.0
0.0,0.0,0.0,0.0
0.0,0.0,0.0,0.0
0.0,0.0,0.0,0.0
0.0,0.0,0.0,0.0
0.0,0.0,0.0,0.0
0.0,0.0,0.0,0.0
0.0,0.0,0.0,0.0
0.0,0.0,0.0,0.0
0.0,0.0,0.0,0.0
0.0,0.0,0.0,0.0
0.0,0.0,0.0,0.0
0.0,0.0,0.0,0.0
0.0,0.0,0.0,0.0
0.0,0.0,0.0,0.0
0.0,0.0,0.0,0.0
0.0,0.0,0.0,0.0
0.0,0.0,0.0,0.0
0.0,0.0,0.0,0.0
0.0,0.0,0.0,0.0
0.0,0.0,0.0,0.0
0.0,0.0,0.0,0.0
0.0,0.0,0.0,0.0
0.0,0.0,0.0,0.0
0.0,0.0,0.0,0.0
0.0,0.0,0.0,0.0
0.0,0.0,0.0,0.0
0.0,0.0,0.0,0.0
0.0,0.0,0.0,0.0
0.0,0.0,0.0,0.0
0.0,0.0,0.0,0.0
0.0,0.0,0.0,0.0
0.0,0.0,0.0,0.0
0.0,0.0,0.0,0.0
0.0,0.0,0.0,0.0
0.0,0.0,0.0,0.0
0.0,0.0,0.0,0.0
0.0,0.0,0.0,0.0
0.0,0.0,0.0,0.0
0.0,0.0,0.0,0.0
0.0,0.0,0.0,0.0
0.0,0.0,0.0,0.0
0.0,0.0,0.0,0.0
0.0,0.0,0.0,0.0
0.0,0.0,0.0,0.0
0.0,0.0,0.0,0.0
0.0,0.0,0.0,0.0
0.0,0.0,0.0,0.0
0.0,0.0,0.0,0.0
0.0,0.0,0.0,0.0
0.0,0.0,0.0,0.0
0.0,0.0,0.0,0.0
0.0,0.0,0.0,0.0
0.0,0.0,0.0,0.0
0.0,0.0,0.0,0.0
0.0,0.0,0.0,0.0
0.0,0.0,0.0,0.0
0.0,0.0,0.0,0.0
0.0,0.0,0.0,0.0
0.0,0.0,0.0,0.0
0.0,0.0,0.0,0.0
0.0,0.0,0.0,0.0
0.0,0.0,0.0,0.0
0.0,0.0,0.0,0.0
0.0,0.0,0.0,0.0
0.0,0.0,0.0,0.0
0.0,0.0,0.0,0.0
0.0,0.0,0.0,0.0
0.0,0.0,0.0,0.0
0.0,0.0,0.0,0.0
0.0,0.0,0.0,0.0
0.0,0.0,0.0,0.0
0.0,0.0,0.0,0.0
0.0,0.0,0.0,0.0
0.0,0.0,0.0,0.0
0.0,0.0,0.0,0.0
0.0,0.0,0.0,0.0
0.0,0.0,0.0,0.0
0.0,0.0,0.0,0.0
0.0,0.0,0.0,0.0
0.0,0.0,0.0,0.0
0.0,0.0,0.0,0.0
0.0,0.0,0.0,0.0
0.0,0.0,0.0,0.0
0.0,0.0,0.0,0.0
0.0,0.0,0.0,0.0
0.0,0.0,0.0,0.0
0.0,0.0,0.0,0.0
0.0,0.0,0.0,0.0
0.0,0.0,0.0,0.0
0.0,0.0,0.0,0.0
0.0,0.0,0.0,0.0
0.0,0.0,0.0,0.0
0.0,0.0,0.0,0.0
0.0,0.0,0.0,0.0
0.0,0.0,0.0,0.0
0.0,0.0,0.0,0.0
0.0,0.0,0.0,0.0
0.0,0.0,0.0,0.0
0.0,0.0,0.0,0.0
0.0,0.0,0.0,0.0
0.0,0.0,0.0,0.0
0.0,0.0,0.0,0.0
0.0,0.0,0.0,0.0
0.0,0.0,0.0,0.0
0.0,0.0,0.0,0.0
0.0,0.0,0.0,0.0
0.0,0.0,0.0,0.0
0.0,0.0,0.0,0.0
0.0,0.0,0.0,0.0
0.0,0.0,0.0,0.0
0.0,0.0,0.0,0.0
0.0,0.0,0.0,0.0
0.0,0.0,0.0,0.0
0.0,0.0,0.0,0.0
23.697,0.998,2.553,0.0
23.512,0.995,2.402,0.0
23.571,1.002,2.277,0.0
23.555,1.009,2.945,3.0
23.537,1.012,2.81,21.0
23.555,1.017,2.681,27.0
23.556,1.022,2.547,37.0
23.559,1.027,2.415,40.0
23.554,1.031,2.284,42.0
23.53,1.037,2.95,43.0
23.527,1.042,2.817,54.0
23.515,1.046,2.683,60.0
23.527,1.05,2.551,68.0
23.536,1.055,2.42,75.0
23.537,1.06,2.289,75.0
23.516,1.067,2.955,70.0
23.519,1.071,2.823,72.0
23.513,1.075,2.69,66.0
23.529,1.08,2.557,70.0
23.531,1.084,2.426,74.0
23.529,1.089,2.294,74.0
23.515,1.097,2.96,54.0
23.512,1.1,2.827,49.0
23.522,1.105,2.696,45.0
23.543,1.11,2.564,45.0
23.55,1.115,2.433,46.0
23.556,1.119,2.302,45.0
23.53,1.127,2.967,21.0
23.523,1.13,2.833,12.0
23.541,1.135,2.703,7.0
23.53,1.139,2.567,3.0
23.529,1.143,2.434,0.0
23.572,1.15,2.307,0.0
0.0,0.0,0.0,0.0
0.0,0.0,0.0,0.0
0.0,0.0,0.0,0.0
0.0,0.0,0.0,0.0
0.0,0.0,0.0,0.0
0.0,0.0,0.0,0.0
0.0,0.0,0.0,0.0
0.0,0.0,0.0,0.0
0.0,0.0,0.0,0.0
0.0,0.0,0.0,0.0
0.0,0.0,0.0,0.0
0.0,0.0,0.0,0.0
0.0,0.0,0.0,0.0
0.0,0.0,0.0,0.0
0.0,0.0,0.0,0.0
0.0,0.0,0.0,0.0
0.0,0.0,0.0,0.0
0.0,0.0,0.0,0.0
0.0,0.0,0.0,0.0
0.0,0.0,0.0,0.0
0.0,0.0,0.0,0.0
0.0,0.0,0.0,0.0
0.0,0.0,0.0,0.0
0.0,0.0,0.0,0.0
0.0,0.0,0.0,0.0
0.0,0.0,0.0,0.0
0.0,0.0,0.0,0.0
0.0,0.0,0.0,0.0
0.0,0.0,0.0,0.0
0.0,0.0,0.0,0.0
0.0,0.0,0.0,0.0
0.0,0.0,0.0,0.0
0.0,0.0,0.0,0.0
0.0,0.0,0.0,0.0
0.0,0.0,0.0,0.0
0.0,0.0,0.0,0.0
0.0,0.0,0.0,0.0
0.0,0.0,0.0,0.0
0.0,0.0,0.0,0.0
0.0,0.0,0.0,0.0
0.0,0.0,0.0,0.0
0.0,0.0,0.0,0.0
0.0,0.0,0.0,0.0
0.0,0.0,0.0,0.0
0.0,0.0,0.0,0.0
0.0,0.0,0.0,0.0
0.0,0.0,0.0,0.0
0.0,0.0,0.0,0.0
0.0,0.0,0.0,0.0
0.0,0.0,0.0,0.0
0.0,0.0,0.0,0.0
0.0,0.0,0.0,0.0
0.0,0.0,0.0,0.0
0.0,0.0,0.0,0.0
0.0,0.0,0.0,0.0
0.0,0.0,0.0,0.0
0.0,0.0,0.0,0.0
0.0,0.0,0.0,0.0
0.0,0.0,0.0,0.0
0.0,0.0,0.0,0.0
0.0,0.0,0.0,0.0
0.0,0.0,0.0,0.0
0.0,0.0,0.0,0.0
0.0,0.0,0.0,0.0
0.0,0.0,0.0,0.0
0.0,0.0,0.0,0.0
0.0,0.0,0.0,0.0
0.0,0.0,0.0,0.0
0.0,0.0,0.0,0.0
0.0,0.0,0.0,0.0
0.0,0.0,0.0,0.0
0.0,0.0,0.0,0.0
99.867,6.316,12.442,19.0
99.91,6.331,11.875,22.0
99.914,6.344,11.303,23.0
99.896,6.355,10.721,29.0
99.922,6.369,10.155,29.0
99.918,6.382,9.586,31.0
99.881,6.423,12.402,35.0
99.87,6.435,11.827,36.0
99.891,6.447,11.258,32.0
99.891,6.459,10.677,37.0
99.9,6.473,10.108,36.0
99.9,6.485,9.54,37.0
99.883,6.528,12.355,37.0
99.878,6.539,11.781,32.0
99.902,6.552,11.212,32.0
99.903,6.563,10.63,39.0
99.911,6.576,10.061,38.0
99.917,6.588,9.493,36.0
99.874,6.63,12.304,32.0
99.878,6.64,11.731,31.0
99.881,6.652,11.158,33.0
99.9,6.664,10.578,35.0
99.914,6.676,10.009,37.0
99.903,6.687,9.438,36.0
99.876,6.729,12.25,32.0
99.892,6.741,11.677,33.0
99.898,6.753,11.104,37.0
99.888,6.762,10.52,33.0
99.891,6.774,9.95,35.0
99.92,6.788,9.382,37.0
99.877,6.828,12.191,33.0
99.888,6.838,11.618,36.0
99.897,6.849,11.044,37.0
99.886,6.858,10.46,37.0
99.903,6.869,9.891,36.0
99.909,6.882,9.32,36.0
99.877,6.922,12.129,33.0
99.898,6.933,11.556,37.0
99.908,6.944,10.982,34.0
99.898,6.952,10.398,35.0
99.922,6.964,9.828,35.0
99.906,6.973,9.256,36.0
99.882,7.015,12.063,34.0
99.916,7.026,11.491,38.0
99.89,7.034,10.913,36.0
99.907,7.044,10.331,39.0
99.927,7.055,9.761,33.0
99.915,7.064,9.188,39.0
99.898,7.106,11.994,32.0
99.902,7.115,11.418,38.0
99.905,7.124,10.843,35.0
99.909,7.132,10.26,33.0
99.913,7.142,9.687,37.0
99.93,7.153,9.117,34.0
99.901,7.194,11.921,32.0
99.91,7.202,11.345,35.0
99.921,7.21,10.771,37.0
99.927,7.219,10.187,38.0
99.926,7.228,9.613,37.0
99.919,7.236,9.04,36.0
99.424,7.243,11.786,4.0
99.524,7.258,11.223,2.0
99.526,7.265,10.65,2.0
99.333,7.259,10.048,3.0
99.617,7.288,9.504,2.0
99.627,7.298,8.934,2.0
98.984,7.292,11.653,8.0
99.009,7.299,11.084,6.0
99.016,7.309,10.513,7.0
99.032,7.316,9.935,7.0
99.047,7.324,9.368,6.0
99.05,7.334,8.799,7.0
98.991,7.37,11.57,34.0
98.991,7.376,10.997,36.0
99.009,7.384,10.427,30.0
99.002,7.39,9.846,33.0
99.021,7.399,9.279,38.0
99.016,7.406,8.71,35.0
98.962,7.443,11.477,21.0
99.013,7.453,10.911,35.0
98.991,7.457,10.336,32.0
98.998,7.463,9.757,41.0
99.027,7.472,9.19,35.0
99.019,7.478,8.621,38.0
98.994,7.516,11.391,2.0
99.023,7.523,10.821,43.0
98.964,7.525,10.242,4.0
99.002,7.534,9.665,5.0
99.029,7.542,9.097,8.0
99.034,7.548,8.53,4.0
94.847,7.268,10.822,2.0
94.831,7.27,10.271,4.0
94.902,7.281,9.73,5.0
94.861,7.282,9.169,3.0
94.904,7.291,8.627,3.0
94.895,7.295,8.081,3.0
94.854,7.33,10.729,7.0
94.804,7.33,10.174,7.0
94.844,7.337,9.631,10.0
94.774,7.335,9.067,7.0
94.88,7.349,8.531,7.0
94.894,7.355,7.986,7.0
94.803,7.385,10.627,23.0
94.834,7.391,10.081,20.0
94.819,7.392,9.531,23.0
94.802,7.394,8.973,21.0
94.841,7.403,8.43,21.0
94.863,7.408,7.887,21.0
94.797,7.439,10.527,43.0
94.811,7.444,9.978,51.0
94.828,7.449,9.431,50.0
94.82,7.451,8.874,54.0
94.837,7.456,8.329,54.0
94.84,7.461,7.783,51.0
94.796,7.492,10.424,17.0
94.798,7.494,9.874,19.0
94.808,7.498,9.326,18.0
94.789,7.499,8.768,19.0
94.839,7.505,8.226,24.0
94.851,7.511,7.681,28.0
94.861,7.546,10.326,7.0
94.836,7.546,9.773,13.0
94.794,7.544,9.22,8.0
94.791,7.547,8.662,8.0
94.838,7.553,8.12,8.0
94.837,7.555,7.574,10.0
94.869,7.592,10.219,4.0
94.842,7.591,9.666,5.0
94.89,7.596,9.121,4.0
94.786,7.59,8.554,5.0
94.915,7.602,8.018,4.0
94.891,7.602,7.47,5.0
95.099,7.653,10.132,1.0
94.915,7.638,9.563,1.0
94.901,7.637,9.012,1.0
94.874,7.637,8.451,3.0
94.94,7.644,7.909,2.0
94.98,7.648,7.366,3.0
98.196,8.035,8.201,11.0
98.291,8.034,7.64,10.0
40.076,3.273,2.883,81.0
40.083,3.27,2.647,105.0
40.071,3.266,2.415,129.0
40.086,3.264,2.185,115.0
98.397,8.022,8.071,8.0
40.07,3.263,3.055,25.0
40.082,3.26,2.823,94.0
40.068,3.256,2.587,115.0
40.086,3.254,2.357,112.0
40.086,3.252,2.126,111.0
98.311,7.982,7.917,4.0
40.088,3.251,2.996,98.0
40.084,3.246,2.764,126.0
40.087,3.243,2.528,116.0
40.098,3.241,2.297,114.0
40.087,3.237,2.066,95.0
94.914,7.67,7.502,1.0
40.085,3.235,2.936,103.0
40.082,3.231,2.704,145.0
40.082,3.227,2.468,103.0
40.069,3.222,2.236,44.0
40.074,3.219,2.006,8.0
94.898,7.628,7.358,4.0
40.06,3.215,2.874,65.0
40.095,3.214,2.645,24.0
0.0,0.0,0.0,0.0
0.0,0.0,0.0,0.0
41.868,3.345,2.033,65.0
40.101,3.204,3.048,8.0
40.124,3.202,2.818,47.0
40.155,3.2,2.588,132.0
41.872,3.332,2.452,105.0
41.886,3.329,2.211,101.0
41.874,3.324,1.969,76.0
40.164,3.188,2.992,44.0
40.181,3.185,2.76,150.0
41.863,3.314,2.634,124.0
41.881,3.31,2.389,122.0
41.875,3.305,2.148,108.0
41.882,3.301,1.906,107.0
40.174,3.167,2.931,118.0
40.173,3.162,2.699,150.0
41.887,3.292,2.571,127.0
41.871,3.286,2.325,124.0
41.887,3.282,2.084,108.0
41.889,3.278,1.844,144.0
40.163,3.142,2.869,89.0
40.164,3.137,2.637,134.0
41.879,3.265,2.507,112.0
41.874,3.26,2.261,111.0
41.879,3.255,2.02,97.0
41.888,3.251,1.78,128.0
40.179,3.117,2.809,130.0
0.0,0.0,0.0,0.0
41.866,3.237,2.443,69.0
41.867,3.232,2.197,11.0
43.678,3.366,2.041,5.0
0.0,0.0,0.0,0.0
40.175,3.089,2.747,150.0
41.942,3.219,2.626,31.0
43.655,3.345,2.481,93.0
43.671,3.34,2.226,127.0
43.675,3.335,1.975,150.0
43.68,3.33,1.724,150.0
40.176,3.06,2.686,146.0
43.657,3.318,2.666,146.0
43.667,3.313,2.414,131.0
43.675,3.307,2.159,135.0
43.667,3.301,1.907,150.0
43.677,3.296,1.656,150.0
0.0,0.0,0.0,0.0
43.67,3.286,2.6,146.0
43.667,3.279,2.348,113.0
43.673,3.273,2.093,124.0
43.68,3.267,1.842,141.0
43.675,3.261,1.59,145.0
41.967,3.129,2.677,93.0
43.664,3.249,2.534,94.0
43.657,3.242,2.282,61.0
43.663,3.236,2.026,10.0
0.0,0.0,0.0,0.0
0.0,0.0,0.0,0.0
43.709,3.221,2.722,41.0
45.449,3.342,2.568,150.0
45.46,3.336,2.308,150.0
45.461,3.33,2.041,150.0
45.463,3.323,1.78,150.0
45.473,3.317,1.519,150.0
43.763,3.186,2.66,150.0
45.461,3.302,2.501,150.0
45.453,3.294,2.239,150.0
45.464,3.288,1.974,150.0
45.476,3.282,1.713,150.0
45.469,3.275,1.452,116.0
0.0,0.0,0.0,0.0
45.468,3.26,2.434,128.0
45.455,3.251,2.172,16.0
45.435,3.243,1.905,3.0
99.973,7.12,3.618,30.0
41.464,2.946,1.262,16.0
45.541,3.229,2.633,68.0
99.957,7.069,5.203,34.0
99.954,7.052,4.627,35.0
99.953,7.034,4.042,36.0
99.968,7.02,3.47,38.0
41.995,2.942,1.216,108.0
99.959,6.984,5.63,31.0
99.963,6.967,5.056,32.0
99.954,6.949,4.48,33.0
99.954,6.931,3.896,36.0
99.958,6.915,3.323,37.0
42.91,2.961,1.18,67.0
99.957,6.88,5.484,31.0
99.967,6.862,4.91,33.0
99.957,6.842,4.335,33.0
99.965,6.825,3.752,35.0
99.987,6.81,3.18,38.0
43.589,2.961,1.136,77.0
99.947,6.768,5.338,36.0
99.953,6.75,4.764,34.0
99.961,6.732,4.191,40.0
99.958,6.715,3.607,36.0
99.981,6.698,3.035,30.0
44.523,2.974,1.096,81.0
99.94,6.654,5.194,36.0
99.963,6.637,4.62,38.0
99.949,6.617,4.046,35.0
99.939,6.597,3.463,35.0
45.17,2.973,1.306,27.0
45.212,2.968,1.049,117.0
99.954,6.537,5.051,35.0
99.972,6.52,4.478,33.0
99.953,6.498,3.904,33.0
99.98,6.481,3.322,28.0
45.209,2.922,1.243,7.0
45.231,2.914,0.984,1.0
100.226,6.433,4.922,9.0
100.689,6.444,4.368,5.0
197.216,12.581,7.426,6.0
112.682,7.165,3.585,1.0
112.468,7.129,2.934,3.0
112.428,7.106,2.29,75.0
112.291,7.067,5.357,4.0
112.305,7.046,4.714,4.0
112.36,7.025,4.072,2.0
163.459,10.186,4.971,17.0
45.194,2.807,1.115,50.0
45.198,2.798,0.857,4.0
198.848,12.259,9.21,5.0
197.703,12.144,8.021,8.0
197.959,12.116,6.897,8.0
45.188,2.756,1.311,9.0
134.372,8.17,3.132,27.0
122.465,7.421,2.155,1.0
198.796,11.991,8.933,5.0
197.446,11.865,7.741,10.0
162.526,9.731,5.442,12.0
45.205,2.696,1.25,12.0
45.216,2.688,0.992,150.0
45.223,2.679,0.734,150.0
204.028,12.026,8.891,6.0
198.302,11.646,7.508,10.0
163.281,9.552,5.247,10.0
163.371,9.52,4.299,5.0
167.72,9.739,3.457,6.0
99.738,5.769,1.486,8.0
200.546,11.539,8.47,19.0
198.576,11.38,7.252,10.0
163.418,9.327,5.033,17.0
45.179,2.568,1.128,1.0
45.205,2.56,0.871,18.0
45.219,2.551,0.614,73.0
199.075,11.169,8.145,5.0
0.0,0.0,0.0,0.0
45.191,2.514,1.332,8.0
199.989,11.079,4.735,7.0
177.061,9.77,3.183,4.0
120.277,6.609,1.476,6.0
180.902,9.884,7.167,18.0
162.575,8.843,5.513,7.0
45.169,2.446,1.273,9.0
45.198,2.436,1.012,18.0
45.201,2.426,0.754,90.0
45.207,2.416,0.496,28.0
180.572,9.59,6.92,22.0
162.894,8.61,5.312,6.0
163.358,8.595,4.396,6.0
0.0,0.0,0.0,0.0
0.0,0.0,0.0,0.0
99.79,5.179,0.969,45.0
180.564,9.309,6.692,12.0
163.425,8.384,5.124,15.0
45.21,2.308,1.159,49.0
45.19,2.296,0.897,100.0
45.206,2.286,0.64,7.0
45.218,2.276,0.383,1.0
178.9,8.942,6.408,16.0
45.209,2.248,1.362,2.0
23.55,1.165,0.575,0.0
23.632,1.163,0.44,2.0
23.621,1.157,0.305,9.0
23.629,1.151,0.171,21.0
23.616,1.142,0.817,37.0
23.617,1.136,0.683,39.0
23.612,1.13,0.548,38.0
23.607,1.124,0.411,40.0
23.606,1.118,0.277,43.0
23.593,1.111,0.143,55.0
23.58,1.102,0.788,68.0
23.583,1.096,0.654,71.0
23.576,1.089,0.519,63.0
23.585,1.084,0.383,68.0
23.594,1.078,0.249,67.0
23.6,1.073,0.115,69.0
23.59,1.064,0.761,106.0
23.597,1.058,0.627,151.0
23.59,1.051,0.493,80.0
23.591,1.045,0.356,46.0
23.613,1.04,0.223,42.0
23.61,1.034,0.089,45.0
23.609,1.025,0.735,45.0
23.62,1.018,0.601,37.0
23.625,1.012,0.467,27.0
23.615,1.005,0.33,18.0
23.625,0.999,0.196,2.0
45.175,1.899,0.119,38.0
45.151,1.881,1.355,3.0
100.507,4.16,2.447,16.0
100.501,4.134,1.877,9.0
40.368,1.648,0.52,6.0
40.39,1.638,0.292,154.0
40.338,1.625,0.062,150.0
40.386,1.612,1.168,111.0
40.389,1.6,0.939,94.0
40.394,1.589,0.71,126.0
41.414,1.618,0.489,150.0
41.737,1.619,0.256,131.0
40.383,1.555,0.019,25.0
41.992,1.6,1.17,93.0
42.741,1.617,0.949,75.0
43.315,1.626,0.716,84.0
43.649,1.626,0.47,128.0
44.666,1.652,0.228,156.0
43.386,1.592,-0.023,1.0
44.983,1.633,1.207,19.0
162.294,5.846,3.437,28.0
162.093,5.791,2.515,38.0
71.127,2.52,0.693,19.0
63.962,2.249,0.262,5.0
40.121,1.399,-0.062,150.0
121.485,4.189,3.139,8.0
165.552,5.662,3.342,10.0
70.984,2.406,1.031,7.0
40.108,1.347,0.351,36.0
40.119,1.336,0.125,150.0
40.125,1.325,-0.101,132.0
40.128,1.309,0.998,150.0
40.124,1.297,0.771,150.0
40.121,1.285,0.544,150.0
40.125,1.273,0.314,118.0
40.122,1.261,0.087,150.0
40.085,1.248,-0.139,62.0
40.125,1.233,0.96,150.0
40.132,1.221,0.734,150.0
40.129,1.209,0.507,119.0
40.123,1.197,0.276,128.0
40.123,1.185,0.05,97.0
40.036,1.17,-0.175,82.0
40.127,1.157,0.924,109.0
41.935,1.196,0.729,153.0
41.911,1.183,0.492,170.0
41.933,1.171,0.251,154.0
40.135,1.109,0.015,159.0
40.025,1.094,-0.21,56.0
43.73,1.177,0.969,152.0
0.0,0.0,0.0,0.0
0.0,0.0,0.0,0.0
70.558,1.834,0.363,9.0
0.0,0.0,0.0,0.0
41.784,1.059,-0.255,6.0
99.663,2.488,2.124,14.0
98.948,2.44,1.551,22.0
70.899,1.726,0.712,22.0
70.881,1.703,0.306,5.0
45.528,1.079,-0.059,14.0
39.75,0.93,-0.275,1.0
19.757,-0.199,0.244,0.0
0.0,0.0,0.0,0.0
0.0,0.0,0.0,0.0
0.0,0.0,0.0,0.0
0.0,0.0,0.0,0.0
33.62,-0.4,-0.518,0.0
19.745,-0.241,0.239,18.0
19.754,-0.248,0.13,20.0
0.0,0.0,0.0,0.0
0.0,0.0,0.0,0.0
0.0,0.0,0.0,0.0
33.123,-0.465,-0.516,0.0
19.77,-0.284,0.237,10.0
19.758,-0.29,0.127,21.0
0.0,0.0,0.0,0.0
0.0,0.0,0.0,0.0
42.623,-0.674,-0.435,0.0
32.999,-0.534,-0.519,0.0
89.576,-1.476,1.062,40.0
89.531,-1.51,0.568,3.0
0.0,0.0,0.0,0.0
0.0,0.0,0.0,0.0
0.0,0.0,0.0,0.0
33.602,-0.616,-0.531,0.0
89.595,-1.668,1.055,151.0
89.568,-1.7,0.561,5.0
89.572,-1.733,0.067,3.0
0.0,0.0,0.0,0.0
40.352,-0.81,-0.418,0.0
33.553,-0.686,-0.532,0.0
89.599,-1.858,1.051,151.0
90.274,-1.905,0.561,2.0
89.639,-1.924,0.064,2.0
0.0,0.0,0.0,0.0
0.0,0.0,0.0,0.0
0.0,0.0,0.0,0.0
89.607,-2.048,1.05,151.0
90.62,-2.105,0.563,2.0
0.0,0.0,0.0,0.0
0.0,0.0,0.0,0.0
0.0,0.0,0.0,0.0
0.0,0.0,0.0,0.0
89.568,-2.238,1.052,18.0
89.752,-2.275,0.561,2.0
