X,Y,Z,Reflectivity
19.767,0.048,-0.34,23.0
19.647,0.051,0.197,13.0
19.747,0.056,0.084,28.0
19.765,0.06,-0.029,68.0
19.768,0.064,-0.146,34.0
19.764,0.067,-0.26,24.0
19.77,0.071,-0.375,14.0
19.68,0.075,0.163,14.0
19.691,0.079,0.049,12.0
19.75,0.083,-0.065,2.0
19.741,0.087,-0.181,0.0
19.739,0.091,-0.295,0.0
29.18,0.14,-0.606,0.0
19.659,0.098,0.127,13.0
19.654,0.101,0.013,11.0
19.685,0.105,-0.1,5.0
0.0,0.0,0.0,0.0
32.604,0.188,-0.548,0.0
27.915,0.166,-0.63,0.0
19.648,0.12,0.091,13.0
19.643,0.124,-0.022,13.0
19.67,0.127,-0.136,9.0
36.395,0.243,-0.467,0.0
30.508,0.209,-0.568,0.0
26.534,0.187,-0.648,0.0
19.647,0.141,0.055,16.0
19.646,0.145,-0.058,10.0
19.655,0.149,-0.172,11.0
19.687,0.153,-0.289,3.0
19.682,0.156,-0.403,8.0
19.689,0.16,-0.517,5.0
19.644,0.162,0.019,17.0
19.641,0.166,-0.094,15.0
19.646,0.169,-0.208,14.0
19.656,0.173,-0.325,12.0
19.67,0.177,-0.439,17.0
19.673,0.18,-0.553,14.0
19.656,0.183,-0.017,13.0
19.643,0.186,-0.131,16.0
19.642,0.189,-0.245,16.0
19.649,0.193,-0.361,14.0
19.656,0.196,-0.476,17.0
19.683,0.2,-0.591,18.0
19.654,0.202,-0.054,13.0
19.643,0.205,-0.168,17.0
19.651,0.209,-0.282,16.0
19.64,0.212,-0.398,18.0
19.664,0.216,-0.513,18.0
19.678,0.219,-0.628,17.0
19.65,0.221,-0.092,16.0
19.641,0.224,-0.206,16.0
19.658,0.228,-0.32,13.0
19.648,0.231,-0.436,18.0
19.668,0.234,-0.551,16.0
19.679,0.237,-0.666,15.0
19.65,0.239,-0.129,16.0
19.649,0.242,-0.243,17.0
19.645,0.245,-0.357,15.0
19.658,0.249,-0.474,17.0
19.684,0.252,-0.589,12.0
19.676,0.255,-0.703,3.0
19.663,0.257,-0.167,15.0
19.654,0.26,-0.281,14.0
19.667,0.263,-0.396,14.0
19.678,0.266,-0.512,9.0
19.731,0.27,-0.629,0.0
19.558,0.27,-0.737,6.0
19.675,0.274,-0.205,14.0
19.682,0.277,-0.32,9.0
19.689,0.28,-0.435,5.0
24.58,0.353,-0.688,0.0
21.406,0.311,-0.724,0.0
19.501,0.286,-0.773,2.0
19.685,0.29,-0.244,7.0
19.699,0.293,-0.358,2.0
26.826,0.403,-0.644,1.0
23.014,0.349,-0.689,0.0
20.54,0.314,-0.734,3.0
18.968,0.293,-0.789,0.0
19.68,0.305,-0.282,1.0
29.039,0.455,-0.585,0.0
25.583,0.404,-0.665,0.0
22.392,0.357,-0.714,0.0
19.862,0.319,-0.749,3.0
18.059,0.292,-0.786,0.0
29.589,0.482,-0.483,0.0
27.677,0.454,-0.612,0.0
24.663,0.408,-0.689,0.0
21.22,0.353,-0.719,0.0
19.524,0.327,-0.775,1.0
17.658,0.298,-0.803,0.0
28.401,0.482,-0.518,0.0
26.902,0.46,-0.648,1.0
22.988,0.396,-0.687,0.0
20.735,0.359,-0.742,1.0
18.748,0.327,-0.78,0.0
17.103,0.301,-0.812,0.0
28.762,0.507,-0.581,0.0
25.428,0.451,-0.662,0.0
22.25,0.397,-0.709,0.0
19.893,0.358,-0.752,3.0
17.933,0.325,-0.782,0.0
16.325,0.297,-0.807,0.0
27.572,0.503,-0.612,1.0
24.371,0.448,-0.683,0.0
21.191,0.392,-0.717,1.0
19.377,0.36,-0.77,1.0
17.636,0.33,-0.804,0.0
15.848,0.298,-0.815,0.0
26.921,0.507,-0.651,1.0
22.922,0.434,-0.688,0.0
20.807,0.396,-0.745,1.0
18.547,0.355,-0.774,0.0
16.98,0.327,-0.808,0.0
15.406,0.298,-0.823,0.0
25.14,0.488,-0.657,0.0
22.163,0.432,-0.708,0.0
19.85,0.389,-0.75,1.0
18.057,0.356,-0.789,0.0
16.292,0.322,-0.807,0.0
14.911,0.297,-0.826,0.0
24.369,0.485,-0.685,0.0
21.103,0.422,-0.717,2.0
19.143,0.385,-0.762,0.0
17.537,0.354,-0.802,0.0
15.826,0.321,-0.816,0.0
14.569,0.297,-0.836,0.0
22.807,0.465,-0.687,0.0
20.792,0.426,-0.747,2.0
18.57,0.382,-0.776,0.0
16.921,0.349,-0.807,0.0
15.333,0.318,-0.821,0.0
14.159,0.295,-0.841,1.0
21.84,0.454,-0.701,1.0
19.847,0.415,-0.753,0.0
17.921,0.376,-0.784,0.0
16.181,0.341,-0.804,0.0
14.839,0.314,-0.824,0.0
13.827,0.294,-0.848,1.0
21.144,0.448,-0.721,4.0
19.057,0.405,-0.76,0.0
17.477,0.373,-0.799,0.0
15.816,0.339,-0.817,0.0
14.534,0.313,-0.836,0.0
13.457,0.291,-0.853,0.0
20.632,0.445,-0.744,1.0
18.473,0.4,-0.774,0.0
16.89,0.367,-0.806,0.0
15.324,0.334,-0.822,0.0
14.141,0.309,-0.841,1.0
13.069,0.287,-0.854,0.0
19.651,0.43,-0.748,0.0
17.782,0.39,-0.78,0.0
16.206,0.357,-0.806,0.0
14.763,0.326,-0.821,0.0
13.769,0.305,-0.846,0.0
12.685,0.282,-0.854,0.0
19.014,0.421,-0.761,0.0
17.404,0.387,-0.798,0.0
15.775,0.351,-0.815,0.0
14.459,0.323,-0.833,0.0
13.444,0.301,-0.853,0.0
12.421,0.279,-0.861,0.0
18.356,0.411,-0.771,0.0
16.879,0.379,-0.807,0.0
15.231,0.343,-0.817,0.0
14.129,0.319,-0.842,1.0
12.965,0.293,-0.848,0.0
12.149,0.275,-0.866,0.0
17.725,0.4,-0.778,0.0
16.268,0.368,-0.809,0.0
14.768,0.335,-0.821,0.0
13.736,0.312,-0.845,0.0
12.726,0.29,-0.857,0.0
11.905,0.272,-0.872,0.0
17.352,0.395,-0.796,0.0
15.8,0.36,-0.817,0.0
14.446,0.33,-0.831,0.0
13.361,0.306,-0.848,0.0
12.413,0.285,-0.861,0.0
11.668,0.268,-0.877,0.0
16.833,0.385,-0.805,0.0
15.277,0.35,-0.819,0.0
14.133,0.324,-0.84,0.0
12.991,0.299,-0.85,0.0
12.204,0.281,-0.87,0.0
11.418,0.263,-0.88,0.0
16.263,0.373,-0.809,0.0
14.891,0.342,-0.827,0.0
13.724,0.316,-0.843,0.0
12.719,0.293,-0.856,0.0
11.893,0.274,-0.87,0.0
11.136,0.257,-0.88,0.0
15.7,0.361,-0.811,0.0
14.426,0.332,-0.829,0.0
13.39,0.309,-0.847,0.0
12.402,0.286,-0.858,0.0
11.682,0.27,-0.877,0.0
10.963,0.254,-0.887,0.0
15.299,0.352,-0.819,0.0
14.156,0.326,-0.84,1.0
12.992,0.299,-0.847,0.0
12.185,0.281,-0.867,0.0
11.435,0.264,-0.88,0.0
10.747,0.248,-0.89,0.0
14.862,0.341,-0.823,0.0
13.754,0.316,-0.842,0.0
12.742,0.293,-0.854,0.0
11.871,0.273,-0.867,0.0
11.172,0.257,-0.881,0.0
10.525,0.242,-0.891,0.0
14.414,0.33,-0.825,0.0
13.434,0.307,-0.848,0.0
12.439,0.285,-0.857,0.0
11.644,0.267,-0.872,0.0
10.932,0.251,-0.882,0.0
10.343,0.237,-0.895,0.0
14.159,0.322,-0.837,1.0
13.055,0.297,-0.848,0.0
12.216,0.278,-0.864,0.0
11.403,0.26,-0.875,0.0
10.827,0.247,-0.894,0.0
10.184,0.232,-0.9,0.0
13.803,0.312,-0.841,0.0
12.707,0.287,-0.848,0.0
11.959,0.271,-0.868,0.0
11.147,0.252,-0.875,0.0
10.572,0.239,-0.892,0.0
10.031,0.227,-0.905,0.0
13.489,0.303,-0.846,0.0
12.482,0.28,-0.856,0.0
11.697,0.262,-0.87,0.0
10.961,0.246,-0.881,0.0
10.371,0.233,-0.894,0.0
9.796,0.22,-0.902,0.0
13.147,0.292,-0.849,0.0
12.246,0.272,-0.862,0.0
11.511,0.255,-0.877,0.0
10.813,0.24,-0.888,0.0
10.208,0.226,-0.898,0.0
9.668,0.214,-0.907,0.0
12.777,0.28,-0.847,0.0
12.038,0.264,-0.868,0.0
11.26,0.247,-0.878,0.0
10.586,0.232,-0.888,0.0
10.04,0.22,-0.901,0.0
9.481,0.208,-0.906,0.0
12.579,0.272,-0.856,0.0
11.765,0.255,-0.869,0.0
11.063,0.239,-0.882,0.0
10.436,0.225,-0.894,0.0
9.855,0.213,-0.902,0.0
9.334,0.201,-0.909,0.0
12.343,0.263,-0.861,0.0
11.594,0.247,-0.876,0.0
10.873,0.231,-0.885,0.0
10.259,0.218,-0.896,0.0
9.725,0.207,-0.907,0.0
9.158,0.194,-0.908,0.0
12.12,0.254,-0.866,0.0
11.281,0.236,-0.872,0.0
10.691,0.224,-0.889,0.0
10.051,0.21,-0.895,0.0
9.55,0.199,-0.907,0.0
9.085,0.189,-0.916,0.0
11.896,0.245,-0.87,0.0
11.145,0.229,-0.88,0.0
10.526,0.216,-0.893,0.0
9.894,0.202,-0.898,0.0
9.417,0.192,-0.91,0.0
8.951,0.183,-0.917,0.0
11.667,0.235,-0.873,0.0
10.946,0.22,-0.883,0.0
10.363,0.208,-0.896,0.0
9.802,0.196,-0.906,0.0
9.282,0.185,-0.912,0.0
8.832,0.176,-0.92,0.0
11.503,0.226,-0.879,0.0
10.785,0.212,-0.887,0.0
10.151,0.199,-0.894,0.0
9.659,0.189,-0.908,0.0
9.171,0.179,-0.916,0.0
8.706,0.169,-0.921,0.0
11.287,0.216,-0.881,0.0
10.629,0.203,-0.891,0.0
10.033,0.191,-0.9,0.0
9.501,0.181,-0.908,0.0
9.071,0.172,-0.92,0.0
8.579,0.162,-0.921,0.0
11.096,0.207,-0.884,0.0
10.423,0.194,-0.89,0.0
9.876,0.183,-0.901,0.0
9.346,0.173,-0.908,0.0
8.88,0.164,-0.915,0.0
8.521,0.157,-0.928,0.0
10.891,0.197,-0.884,0.0
10.325,0.186,-0.898,0.0
9.711,0.174,-0.901,0.0
9.26,0.166,-0.914,0.0
8.805,0.157,-0.921,0.0
8.412,0.15,-0.929,0.0
10.756,0.188,-0.889,0.0
10.176,0.177,-0.901,0.0
9.649,0.168,-0.91,0.0
9.127,0.158,-0.915,0.0
8.645,0.149,-0.917,0.0
8.266,0.142,-0.925,0.0
10.589,0.179,-0.891,0.0
9.996,0.168,-0.899,0.0
9.493,0.159,-0.909,0.0
9.001,0.15,-0.915,0.0
8.576,0.142,-0.922,0.0
8.18,0.135,-0.928,0.0
10.439,0.169,-0.894,0.0
9.86,0.159,-0.901,0.0
9.403,0.151,-0.914,0.0
8.845,0.141,-0.912,0.0
8.525,0.136,-0.929,0.0
8.114,0.129,-0.932,0.0
10.33,0.161,-0.899,0.0
9.756,0.151,-0.905,0.0
9.238,0.142,-0.911,0.0
8.781,0.134,-0.918,0.0
8.413,0.128,-0.929,0.0
8.029,0.122,-0.933,0.0
10.175,0.151,-0.9,0.0
9.619,0.142,-0.906,0.0
9.137,0.134,-0.914,0.0
8.674,0.126,-0.919,0.0
8.312,0.12,-0.929,0.0
7.926,0.114,-0.932,0.0
10.064,0.142,-0.903,0.0
9.462,0.133,-0.904,0.0
9.024,0.126,-0.915,0.0
8.587,0.119,-0.921,0.0
8.21,0.113,-0.929,0.0
7.889,0.108,-0.939,0.0
9.891,0.132,-0.901,0.0
9.45,0.125,-0.916,0.0
8.917,0.117,-0.916,0.0
8.509,0.111,-0.924,0.0
8.138,0.105,-0.931,0.0
7.778,0.1,-0.936,0.0
9.792,0.123,-0.904,0.0
9.266,0.115,-0.91,0.0
8.821,0.109,-0.917,0.0
8.406,0.103,-0.924,0.0
8.073,0.098,-0.934,0.0
7.724,0.093,-0.939,0.0
9.672,0.113,-0.906,0.0
9.181,0.107,-0.913,0.0
8.74,0.101,-0.92,0.0
8.324,0.095,-0.925,0.0
7.968,0.09,-0.932,0.0
7.664,0.086,-0.941,0.0
9.618,0.105,-0.912,0.0
9.065,0.098,-0.912,0.0
8.668,0.092,-0.923,0.0
8.249,0.087,-0.927,0.0
7.927,0.083,-0.937,0.0
7.598,0.078,-0.942,0.0
9.49,0.095,-0.911,0.0
9.007,0.089,-0.917,0.0
8.57,0.084,-0.922,0.0
8.177,0.079,-0.928,0.0
7.868,0.075,-0.939,0.0
7.508,0.071,-0.94,0.0
9.334,0.085,-0.907,0.0
8.906,0.08,-0.917,0.0
8.491,0.075,-0.923,0.0
8.121,0.071,-0.931,0.0
7.77,0.067,-0.936,0.0
7.479,0.064,-0.945,0.0
9.273,0.076,-0.911,0.0
8.816,0.071,-0.917,0.0
8.403,0.067,-0.923,0.0
8.07,0.063,-0.934,0.0
7.701,0.059,-0.936,0.0
7.42,0.056,-0.945,0.0
9.19,0.067,-0.913,0.0
8.739,0.062,-0.919,0.0
8.351,0.059,-0.926,0.0
7.942,0.055,-0.928,0.0
7.649,0.052,-0.938,0.0
7.334,0.049,-0.942,0.0
9.09,0.057,-0.912,0.0
8.622,0.053,-0.915,0.0
8.275,0.05,-0.926,0.0
7.934,0.047,-0.935,0.0
7.598,0.044,-0.939,0.0
7.302,0.041,-0.945,0.0
9.047,0.048,-0.917,0.0
8.591,0.045,-0.92,0.0
8.223,0.042,-0.928,0.0
7.889,0.039,-0.937,0.0
7.579,0.036,-0.944,0.0
7.248,0.034,-0.945,0.0
8.939,0.039,-0.914,0.0
8.546,0.036,-0.923,0.0
8.167,0.033,-0.929,0.0
7.808,0.031,-0.935,0.0
7.481,0.028,-0.939,0.0
7.209,0.026,-0.947,0.0
8.914,0.03,-0.92,0.0
8.495,0.027,-0.925,0.0
8.107,0.025,-0.93,0.0
7.759,0.023,-0.936,0.0
7.441,0.021,-0.94,0.0
7.171,0.019,-0.948,0.0
8.841,0.021,-0.92,0.0
8.448,0.018,-0.927,0.0
8.055,0.016,-0.931,0.0
7.728,0.014,-0.938,0.0
7.396,0.013,-0.941,0.0
7.135,0.011,-0.949,0.0
8.779,0.011,-0.92,0.0
8.367,0.009,-0.925,0.0
8.01,0.008,-0.932,0.0
7.677,0.006,-0.938,0.0
7.335,0.005,-0.939,0.0
7.096,0.004,-0.949,0.0
8.704,0.002,-0.919,0.0
8.353,0.001,-0.93,0.0
7.968,0.0,-0.933,0.0
7.656,-0.001,-0.941,0.0
7.325,-0.002,-0.943,0.0
7.087,-0.003,-0.954,0.0
8.622,-0.006,-0.917,0.0
8.283,-0.007,-0.928,0.0
7.93,-0.008,-0.934,0.0
7.619,-0.009,-0.942,0.0
7.321,-0.01,-0.948,0.0
7.048,-0.011,-0.953,0.0
8.599,-0.015,-0.92,0.0
8.222,-0.016,-0.927,0.0
7.899,-0.017,-0.936,0.0
7.599,-0.017,-0.945,0.0
7.266,-0.018,-0.945,0.0
6.997,-0.018,-0.951,0.0
8.562,-0.025,-0.922,0.0
8.179,-0.025,-0.927,0.0
7.841,-0.025,-0.934,0.0
7.513,-0.025,-0.939,0.0
7.236,-0.026,-0.946,0.0
6.979,-0.026,-0.953,0.0
8.52,-0.034,-0.922,0.0
8.175,-0.034,-0.932,0.0
7.805,-0.034,-0.934,0.0
7.496,-0.034,-0.941,0.0
7.2,-0.034,-0.945,0.0
6.95,-0.034,-0.953,0.0
8.477,-0.043,-0.922,0.0
8.133,-0.043,-0.931,0.0
7.784,-0.042,-0.936,0.0
7.486,-0.042,-0.944,0.0
7.192,-0.042,-0.948,0.0
6.915,-0.041,-0.951,0.0
8.437,-0.052,-0.922,0.0
8.086,-0.052,-0.93,0.0
7.755,-0.051,-0.936,0.0
7.442,-0.05,-0.942,0.0
7.167,-0.05,-0.948,0.0
6.902,-0.049,-0.953,0.0
8.407,-0.062,-0.922,0.0
8.082,-0.061,-0.933,0.0
7.731,-0.059,-0.936,0.0
7.417,-0.058,-0.942,0.0
7.136,-0.057,-0.947,0.0
6.926,-0.057,-0.959,0.0
8.384,-0.071,-0.923,0.0
8.052,-0.069,-0.933,0.0
7.704,-0.068,-0.936,0.0
7.386,-0.066,-0.941,0.0
7.117,-0.065,-0.947,0.0
6.868,-0.064,-0.954,0.0
8.38,-0.08,-0.926,0.0
8.019,-0.078,-0.932,0.0
7.682,-0.076,-0.936,0.0
7.384,-0.075,-0.943,0.0
7.111,-0.073,-0.949,0.0
6.871,-0.072,-0.956,0.0
8.353,-0.09,-0.926,0.0
7.988,-0.087,-0.931,0.0
7.674,-0.085,-0.938,0.0
7.31,-0.083,-0.936,0.0
7.087,-0.081,-0.948,0.0
6.861,-0.08,-0.957,0.0
8.341,-0.099,-0.927,0.0
8.003,-0.096,-0.935,0.0
7.656,-0.094,-0.937,0.0
7.349,-0.092,-0.942,0.0
7.081,-0.089,-0.949,0.0
6.84,-0.088,-0.956,0.0
8.333,-0.108,-0.928,0.0
7.988,-0.105,-0.934,0.0
7.652,-0.103,-0.939,0.0
7.344,-0.1,-0.943,0.0
7.06,-0.097,-0.947,0.0
6.798,-0.095,-0.951,0.0
8.33,-0.118,-0.929,0.0
7.956,-0.114,-0.932,0.0
7.647,-0.111,-0.939,0.0
7.31,-0.108,-0.94,0.0
7.104,-0.106,-0.954,0.0
6.792,-0.103,-0.951,0.0
8.317,-0.127,-0.928,0.0
7.968,-0.124,-0.934,0.0
7.646,-0.12,-0.94,0.0
7.336,-0.117,-0.944,0.0
7.06,-0.114,-0.949,0.0
6.804,-0.111,-0.953,0.0
8.307,-0.137,-0.928,0.0
7.96,-0.132,-0.934,0.0
7.642,-0.129,-0.94,0.0
7.31,-0.125,-0.941,0.0
7.033,-0.121,-0.946,0.0
6.83,-0.119,-0.957,0.0
8.314,-0.146,-0.929,0.0
7.944,-0.141,-0.933,0.0
7.634,-0.137,-0.939,0.0
7.315,-0.133,-0.942,0.0
7.069,-0.13,-0.951,0.0
6.811,-0.127,-0.955,0.0
8.32,-0.156,-0.93,0.0
7.941,-0.15,-0.932,0.0
7.651,-0.146,-0.941,0.0
7.328,-0.142,-0.944,0.0
7.054,-0.138,-0.948,0.0
6.781,-0.134,-0.95,0.0
8.306,-0.165,-0.928,0.0
7.962,-0.16,-0.934,0.0
7.626,-0.155,-0.938,0.0
7.331,-0.15,-0.944,0.0
7.064,-0.146,-0.949,0.0
6.824,-0.142,-0.956,0.0
8.299,-0.174,-0.926,0.0
7.972,-0.169,-0.935,0.0
7.666,-0.164,-0.942,0.0
7.36,-0.159,-0.946,0.0
7.123,-0.155,-0.956,0.0
6.807,-0.15,-0.952,0.0
8.305,-0.184,-0.926,0.0
8.003,-0.179,-0.937,0.0
7.652,-0.172,-0.939,0.0
7.338,-0.167,-0.942,0.0
7.068,-0.162,-0.948,0.0
6.843,-0.158,-0.956,0.0
9.067,-0.356,-0.928,0.0
8.639,-0.34,-0.931,0.0
8.248,-0.327,-0.934,0.0
7.881,-0.313,-0.936,0.0
7.615,-0.304,-0.946,0.0
7.34,-0.295,-0.953,0.0
9.092,-0.364,-0.922,0.0
8.68,-0.349,-0.927,0.0
8.321,-0.336,-0.934,0.0
7.969,-0.324,-0.939,0.0
7.678,-0.313,-0.947,0.0
7.372,-0.302,-0.95,0.0
9.182,-0.375,-0.922,0.0
8.776,-0.36,-0.929,0.0
8.393,-0.346,-0.934,0.0
8.025,-0.332,-0.938,0.0
7.73,-0.321,-0.946,0.0
7.417,-0.31,-0.948,0.0
9.275,-0.386,-0.922,0.0
8.834,-0.37,-0.927,0.0
8.455,-0.355,-0.933,0.0
8.094,-0.341,-0.938,0.0
7.746,-0.328,-0.94,0.0
7.451,-0.317,-0.945,0.0
9.376,-0.398,-0.923,0.0
8.904,-0.379,-0.925,0.0
8.531,-0.365,-0.932,0.0
8.131,-0.349,-0.934,0.0
7.823,-0.337,-0.941,0.0
7.577,-0.328,-0.953,0.0
9.45,-0.408,-0.92,0.0
8.988,-0.389,-0.924,0.0
8.596,-0.374,-0.93,0.0
8.205,-0.358,-0.933,0.0
7.884,-0.345,-0.939,0.0
7.593,-0.334,-0.946,0.0
9.534,-0.418,-0.918,0.0
9.108,-0.401,-0.926,0.0
8.69,-0.384,-0.931,0.0
8.323,-0.369,-0.937,0.0
7.968,-0.354,-0.941,0.0
7.662,-0.342,-0.946,0.0
9.645,-0.429,-0.918,0.0
9.212,-0.411,-0.926,0.0
8.78,-0.394,-0.93,0.0
8.377,-0.377,-0.934,0.0
8.06,-0.364,-0.942,0.0
7.757,-0.351,-0.949,0.0
9.754,-0.441,-0.917,0.0
9.297,-0.421,-0.924,0.0
8.858,-0.403,-0.928,0.0
8.47,-0.386,-0.934,0.0
8.148,-0.373,-0.942,0.0
7.828,-0.359,-0.948,0.0
9.837,-0.45,-0.913,0.0
9.384,-0.431,-0.921,0.0
8.93,-0.411,-0.925,0.0
8.561,-0.396,-0.933,0.0
8.211,-0.381,-0.94,0.0
7.859,-0.365,-0.942,0.0
9.959,-0.462,-0.912,0.0
9.506,-0.442,-0.921,0.0
9.056,-0.422,-0.926,0.0
8.637,-0.404,-0.931,0.0
8.29,-0.389,-0.938,0.0
7.955,-0.374,-0.943,0.0
10.134,-0.475,-0.915,0.0
9.619,-0.452,-0.92,0.0
9.155,-0.432,-0.925,0.0
8.742,-0.413,-0.931,0.0
8.378,-0.397,-0.937,0.0
8.019,-0.382,-0.94,0.0
10.237,-0.485,-0.911,0.0
9.744,-0.463,-0.919,0.0
9.277,-0.442,-0.925,0.0
8.824,-0.422,-0.928,0.0
8.484,-0.407,-0.938,0.0
8.109,-0.39,-0.94,0.0
10.374,-0.497,-0.909,0.0
9.836,-0.472,-0.915,0.0
9.414,-0.453,-0.926,0.0
8.941,-0.431,-0.928,0.0
8.606,-0.416,-0.94,0.0
8.203,-0.398,-0.94,0.0
10.52,-0.509,-0.908,0.0
9.994,-0.484,-0.916,0.0
9.507,-0.462,-0.922,0.0
9.044,-0.44,-0.926,0.0
8.668,-0.423,-0.934,0.0
8.294,-0.406,-0.939,0.0
10.608,-0.517,-0.901,0.0
10.128,-0.495,-0.914,0.0
9.665,-0.473,-0.924,0.0
9.165,-0.45,-0.926,0.0
8.807,-0.433,-0.937,0.0
8.41,-0.415,-0.94,0.0
10.776,-0.53,-0.9,0.0
10.3,-0.507,-0.915,0.0
9.772,-0.482,-0.92,0.0
9.296,-0.46,-0.926,0.0
8.858,-0.439,-0.93,0.0
8.483,-0.421,-0.936,0.0
10.874,-0.538,-0.893,0.0
10.427,-0.517,-0.911,0.0
9.894,-0.492,-0.917,0.0
9.426,-0.469,-0.925,0.0
8.976,-0.448,-0.929,0.0
8.61,-0.43,-0.937,0.0
11.102,-0.553,-0.895,0.0
10.537,-0.526,-0.905,0.0
10.044,-0.502,-0.916,0.0
9.545,-0.478,-0.922,0.0
9.129,-0.458,-0.931,0.0
8.751,-0.44,-0.939,0.0
11.222,-0.562,-0.888,0.0
10.721,-0.538,-0.905,0.0
10.203,-0.513,-0.915,0.0
9.708,-0.488,-0.923,0.0
9.236,-0.465,-0.928,0.0
8.833,-0.446,-0.934,0.0
11.516,-0.579,-0.894,0.0
10.834,-0.546,-0.898,0.0
10.379,-0.524,-0.915,0.0
9.839,-0.497,-0.921,0.0
9.359,-0.474,-0.926,0.0
8.939,-0.453,-0.932,0.0
11.696,-0.591,-0.89,0.0
11.102,-0.561,-0.903,0.0
10.464,-0.53,-0.906,0.0
9.97,-0.506,-0.918,0.0
9.498,-0.482,-0.925,0.0
9.07,-0.461,-0.931,0.0
11.93,-0.604,-0.889,0.0
11.217,-0.569,-0.895,0.0
10.677,-0.542,-0.908,0.0
10.173,-0.517,-0.92,0.0
9.67,-0.492,-0.926,0.0
9.204,-0.469,-0.93,0.0
12.104,-0.615,-0.883,0.0
11.483,-0.584,-0.898,0.0
10.795,-0.549,-0.901,0.0
10.309,-0.525,-0.916,0.0
9.784,-0.499,-0.921,0.0
9.332,-0.476,-0.928,0.0
12.295,-0.625,-0.877,0.0
11.638,-0.593,-0.892,0.0
10.901,-0.555,-0.893,0.0
10.473,-0.534,-0.914,0.0
9.953,-0.508,-0.921,0.0
9.484,-0.485,-0.928,0.0
12.55,-0.639,-0.875,0.0
11.879,-0.605,-0.891,0.0
11.196,-0.571,-0.899,0.0
10.59,-0.54,-0.907,0.0
10.112,-0.516,-0.919,0.0
9.634,-0.492,-0.927,0.0
12.758,-0.65,-0.869,0.0
12.097,-0.616,-0.887,0.0
11.362,-0.579,-0.893,0.0
10.776,-0.55,-0.905,0.0
10.303,-0.526,-0.919,0.0
9.776,-0.499,-0.924,0.0
13.042,-0.663,-0.867,0.0
12.286,-0.625,-0.881,0.0
11.587,-0.59,-0.891,0.0
10.9,-0.555,-0.897,0.0
10.433,-0.532,-0.914,0.0
9.951,-0.507,-0.924,0.0
13.336,-0.677,-0.864,0.0
12.513,-0.636,-0.876,0.0
11.823,-0.601,-0.89,0.0
11.149,-0.567,-0.899,0.0
10.596,-0.539,-0.91,0.0
10.092,-0.513,-0.92,0.0
13.611,-0.69,-0.859,0.0
12.733,-0.645,-0.87,0.0
12.049,-0.611,-0.887,0.0
11.315,-0.574,-0.893,0.0
10.819,-0.549,-0.911,0.0
10.288,-0.522,-0.92,0.0
13.926,-0.703,-0.855,0.0
13.031,-0.658,-0.868,0.0
12.255,-0.619,-0.881,0.0
11.573,-0.585,-0.894,0.0
10.932,-0.552,-0.902,0.0
10.442,-0.527,-0.916,0.0
14.366,-0.723,-0.858,0.0
13.331,-0.671,-0.865,0.0
12.527,-0.63,-0.879,0.0
11.822,-0.594,-0.893,0.0
11.128,-0.559,-0.899,0.0
10.579,-0.532,-0.91,0.0
14.759,-0.739,-0.856,0.0
13.648,-0.683,-0.863,0.0
12.71,-0.636,-0.87,0.0
12.04,-0.602,-0.888,0.0
11.299,-0.565,-0.893,0.0
10.759,-0.538,-0.906,0.0
15.11,-0.753,-0.85,0.0
13.967,-0.695,-0.859,0.0
13.018,-0.648,-0.868,0.0
12.269,-0.61,-0.884,0.0
11.54,-0.573,-0.892,0.0
10.93,-0.543,-0.902,0.0
15.47,-0.765,-0.843,0.0
14.345,-0.709,-0.857,0.0
13.359,-0.66,-0.868,0.0
12.499,-0.617,-0.879,0.0
11.845,-0.584,-0.895,0.0
11.181,-0.551,-0.903,0.0
15.944,-0.783,-0.842,0.0
14.762,-0.724,-0.856,0.0
13.656,-0.67,-0.863,0.0
12.766,-0.625,-0.875,0.0
12.052,-0.59,-0.889,0.0
11.322,-0.554,-0.895,0.0
16.346,-0.796,-0.834,0.0
15.117,-0.736,-0.85,0.0
14.111,-0.686,-0.867,0.0
13.036,-0.633,-0.87,0.0
12.301,-0.597,-0.886,0.0
11.55,-0.56,-0.892,0.0
16.888,-0.815,-0.833,0.0
15.304,-0.738,-0.834,0.0
14.271,-0.687,-0.852,0.0
13.341,-0.642,-0.868,0.0
12.524,-0.602,-0.88,0.0
11.859,-0.569,-0.895,0.0
17.378,-0.831,-0.826,0.0
15.925,-0.76,-0.84,0.0
14.799,-0.705,-0.858,0.0
13.651,-0.65,-0.864,0.0
12.772,-0.607,-0.875,0.0
12.075,-0.573,-0.89,0.0
17.915,-0.847,-0.82,0.0
16.36,-0.772,-0.834,0.0
15.122,-0.712,-0.85,0.0
13.986,-0.658,-0.86,0.0
13.043,-0.612,-0.87,0.0
12.307,-0.577,-0.885,0.0
18.204,-0.85,-0.801,0.0
16.822,-0.784,-0.828,0.0
15.589,-0.725,-0.848,0.0
14.443,-0.671,-0.862,0.0
13.411,-0.622,-0.871,0.0
12.519,-0.579,-0.878,0.0
18.944,-0.873,-0.8,0.0
17.442,-0.802,-0.827,0.0
16.014,-0.735,-0.843,0.0
14.773,-0.677,-0.856,0.0
13.662,-0.625,-0.863,0.0
12.839,-0.586,-0.878,0.0
19.607,-0.891,-0.793,0.0
17.885,-0.811,-0.817,0.0
16.395,-0.742,-0.834,0.0
15.167,-0.685,-0.852,0.0
14.097,-0.635,-0.865,0.0
13.11,-0.589,-0.873,0.0
20.16,-0.902,-0.78,0.0
18.438,-0.823,-0.809,0.0
16.881,-0.752,-0.828,0.0
15.571,-0.691,-0.847,0.0
14.488,-0.642,-0.863,0.0
13.39,-0.592,-0.868,0.0
20.726,-0.912,-0.765,0.0
19.083,-0.838,-0.804,0.0
17.451,-0.764,-0.826,0.0
16.044,-0.7,-0.844,0.0
14.823,-0.646,-0.857,0.0
13.702,-0.595,-0.864,0.0
21.467,-0.928,-0.755,0.0
19.754,-0.852,-0.797,0.0
17.993,-0.774,-0.82,0.0
16.428,-0.704,-0.836,0.0
15.244,-0.652,-0.855,0.0
14.01,-0.597,-0.859,0.0
22.375,-0.949,-0.748,0.0
20.153,-0.853,-0.778,0.0
18.5,-0.78,-0.811,0.0
16.962,-0.713,-0.833,0.0
15.49,-0.649,-0.841,0.0
14.537,-0.607,-0.865,0.0
23.294,-0.969,-0.738,0.0
20.871,-0.865,-0.77,0.0
19.051,-0.787,-0.801,0.0
17.44,-0.718,-0.826,0.0
16.097,-0.661,-0.846,0.0
14.806,-0.605,-0.856,0.0
23.929,-0.974,-0.716,0.0
21.532,-0.873,-0.757,0.0
19.708,-0.796,-0.795,0.0
17.841,-0.718,-0.814,0.0
16.457,-0.66,-0.837,0.0
15.222,-0.608,-0.853,0.0
25.128,-1.0,-0.709,0.0
22.309,-0.884,-0.745,0.0
20.232,-0.799,-0.781,0.0
18.4,-0.724,-0.808,0.0
16.935,-0.663,-0.832,0.0
15.532,-0.606,-0.844,0.0
26.014,-1.01,-0.689,0.0
23.131,-0.894,-0.733,0.0
20.766,-0.799,-0.766,0.0
19.109,-0.732,-0.806,0.0
17.516,-0.669,-0.83,0.0
16.063,-0.61,-0.845,0.0
26.629,-1.007,-0.659,0.0
23.923,-0.901,-0.717,0.0
21.419,-0.803,-0.753,0.0
19.613,-0.732,-0.793,0.0
17.991,-0.668,-0.821,0.0
16.455,-0.608,-0.837,0.0
27.898,-1.026,-0.643,0.0
24.975,-0.914,-0.705,0.0
22.319,-0.812,-0.746,0.0
20.123,-0.729,-0.779,0.0
18.433,-0.665,-0.81,0.0
17.05,-0.612,-0.838,0.0
0.0,0.0,0.0,0.0
26.045,-0.925,-0.691,0.0
22.973,-0.811,-0.729,0.0
20.806,-0.731,-0.77,0.0
19.202,-0.671,-0.811,0.0
17.532,-0.609,-0.832,0.0
30.964,-1.07,-0.608,0.0
0.0,0.0,0.0,0.0
23.984,-0.82,-0.72,0.0
21.502,-0.731,-0.76,0.0
19.621,-0.663,-0.796,0.0
17.77,-0.597,-0.813,1.0
31.852,-1.064,-0.572,0.0
28.436,-0.945,-0.659,0.0
24.939,-0.823,-0.708,0.0
22.135,-0.727,-0.746,0.0
17.792,-0.58,-0.692,3.0
17.842,-0.578,-0.787,2.0
33.811,-1.09,-0.552,0.0
29.411,-0.942,-0.633,0.0
25.973,-0.826,-0.694,0.0
22.945,-0.725,-0.735,0.0
17.81,-0.559,-0.663,152.0
17.803,-0.555,-0.756,3.0
35.375,-1.097,-0.519,0.0
30.136,-0.928,-0.599,0.0
26.719,-0.817,-0.67,0.0
17.759,-0.539,-0.54,0.0
17.766,-0.536,-0.633,156.0
17.798,-0.533,-0.727,114.0
0.0,0.0,0.0,0.0
0.0,0.0,0.0,0.0
27.961,-0.819,-0.656,0.0
24.745,-0.719,-0.712,0.0
17.799,-0.514,-0.605,62.0
17.762,-0.509,-0.696,155.0
0.0,0.0,0.0,0.0
33.309,-0.94,-0.553,0.0
29.082,-0.814,-0.635,0.0
25.511,-0.708,-0.693,0.0
17.822,-0.491,-0.577,2.0
17.778,-0.485,-0.668,154.0
0.0,0.0,0.0,0.0
35.156,-0.945,-0.528,0.0
29.747,-0.793,-0.602,0.0
26.684,-0.705,-0.682,0.0
23.519,-0.616,-0.724,0.0
17.809,-0.462,-0.641,6.0
0.0,0.0,0.0,0.0
0.0,0.0,0.0,0.0
31.417,-0.794,-0.587,0.0
0.0,0.0,0.0,0.0
24.527,-0.608,-0.717,0.0
21.692,-0.533,-0.747,2.0
0.0,0.0,0.0,0.0
0.0,0.0,0.0,0.0
0.0,0.0,0.0,0.0
0.0,0.0,0.0,0.0
21.74,-0.508,-0.602,150.0
21.704,-0.502,-0.714,5.0
0.0,0.0,0.0,0.0
0.0,0.0,0.0,0.0
0.0,0.0,0.0,0.0
30.288,-0.671,-0.634,0.0
21.703,-0.476,-0.568,156.0
21.711,-0.471,-0.682,15.0
0.0,0.0,0.0,0.0
0.0,0.0,0.0,0.0
0.0,0.0,0.0,0.0
0.0,0.0,0.0,0.0
21.723,-0.444,-0.535,63.0
21.718,-0.438,-0.649,151.0
0.0,0.0,0.0,0.0
0.0,0.0,0.0,0.0
0.0,0.0,0.0,0.0
32.222,-0.618,-0.578,0.0
28.326,-0.536,-0.657,0.0
21.729,-0.405,-0.618,8.0
0.0,0.0,0.0,0.0
0.0,0.0,0.0,0.0
0.0,0.0,0.0,0.0
33.48,-0.591,-0.551,0.0
29.137,-0.507,-0.633,1.0
25.678,-0.439,-0.692,0.0
0.0,0.0,0.0,0.0
0.0,0.0,0.0,0.0
42.579,-0.696,-0.412,0.0
35.331,-0.568,-0.531,0.0
30.3,-0.479,-0.615,0.0
26.529,-0.412,-0.678,0.0
19.747,-0.302,0.044,0.0
0.0,0.0,0.0,0.0
0.0,0.0,0.0,0.0
0.0,0.0,0.0,0.0
0.0,0.0,0.0,0.0
27.468,-0.383,-0.663,0.0
19.749,-0.27,0.071,10.0
0.0,0.0,0.0,0.0
0.0,0.0,0.0,0.0
39.83,-0.512,-0.487,0.0
32.266,-0.406,-0.565,0.0
28.264,-0.348,-0.643,0.0
19.753,-0.238,0.098,1.0
0.0,0.0,0.0,0.0
0.0,0.0,0.0,0.0
41.124,-0.461,-0.448,0.0
33.473,-0.366,-0.541,0.0
29.649,-0.316,-0.635,0.0
103.799,-1.08,0.659,3.0
0.0,0.0,0.0,0.0
0.0,0.0,0.0,0.0
19.772,-0.189,-0.189,6.0
19.759,-0.183,-0.293,11.0
19.75,-0.177,-0.397,13.0
103.902,-0.906,0.796,69.0
0.0,0.0,0.0,0.0
19.792,-0.161,-0.057,3.0
19.741,-0.155,-0.163,13.0
19.739,-0.149,-0.267,17.0
19.735,-0.143,-0.371,17.0
19.727,-0.138,0.176,0.0
19.758,-0.132,0.072,3.0
19.73,-0.126,-0.031,9.0
19.701,-0.12,-0.137,16.0
19.731,-0.115,-0.242,17.0
19.75,-0.109,-0.346,14.0
19.727,-0.104,0.201,15.0
19.725,-0.098,0.097,13.0
19.712,-0.092,-0.007,14.0
19.701,-0.086,-0.113,15.0
19.738,-0.08,-0.217,15.0
19.76,-0.074,-0.322,15.0
19.665,-0.069,0.225,14.0
19.701,-0.063,0.121,16.0
19.699,-0.057,0.017,16.0
19.718,-0.051,-0.089,13.0
19.751,-0.045,-0.194,14.0
19.775,-0.039,-0.299,1.0
19.643,-0.033,0.248,12.0
19.688,-0.028,0.145,8.0
19.704,-0.022,0.04,13.0
19.725,-0.016,-0.066,9.0
19.771,-0.01,-0.17,0.0
0.0,0.0,0.0,0.0
19.636,0.001,0.271,14.0
19.706,0.007,0.168,5.0
19.773,0.013,0.063,6.0
19.76,0.019,-0.043,75.0
19.751,0.025,-0.148,14.0
19.758,0.031,-0.253,12.0
19.624,0.037,0.294,13.0
19.653,0.043,0.19,12.0
19.738,0.049,0.086,48.0
19.754,0.056,-0.02,52.0
19.769,0.062,-0.126,61.0
19.767,0.067,-0.231,32.0
19.615,0.073,0.315,17.0
19.634,0.079,0.211,15.0
19.672,0.085,0.107,12.0
19.672,0.091,0.0,9.0
19.693,0.097,-0.104,0.0
41.493,0.218,-0.441,0.0
19.612,0.109,0.336,15.0
19.636,0.115,0.232,10.0
19.645,0.122,0.127,14.0
19.631,0.127,0.02,15.0
19.657,0.134,-0.083,10.0
19.664,0.14,-0.188,8.0
19.622,0.146,0.357,11.0
19.631,0.152,0.252,10.0
19.641,0.158,0.147,14.0
19.636,0.164,0.041,13.0
19.648,0.17,-0.063,12.0
19.645,0.176,-0.168,16.0
19.673,0.183,0.377,10.0
19.7,0.19,0.272,7.0
19.698,0.196,0.167,9.0
19.68,0.202,0.06,12.0
19.662,0.208,-0.044,10.0
19.639,0.214,-0.149,17.0
19.713,0.222,0.397,11.0
19.719,0.228,0.292,11.0
19.757,0.235,0.187,27.0
84.815,1.035,0.341,20.0
19.682,0.246,-0.026,1.0
19.65,0.251,-0.131,15.0
19.686,0.259,0.415,12.0
19.715,0.266,0.31,13.0
19.748,0.272,0.205,14.0
19.807,0.279,0.097,0.0
57.227,0.827,-0.023,0.0
19.714,0.29,-0.113,0.0
19.705,0.297,0.433,10.0
19.738,0.304,0.328,2.0
163.281,2.57,1.843,21.0
55.175,0.886,0.321,4.0
55.203,0.904,0.025,37.0
44.992,0.751,-0.22,1.0
55.184,0.941,1.263,68.0
55.171,0.959,0.966,80.0
55.17,0.977,0.67,70.0
55.157,0.993,0.368,70.0
55.169,1.011,0.071,43.0
47.825,0.892,-0.194,1.0
55.227,1.052,1.31,1.0
179.387,3.473,3.291,23.0
162.83,3.203,2.111,27.0
113.948,2.278,0.853,12.0
65.01,1.321,0.137,0.0
48.308,0.996,-0.157,1.0
0.0,0.0,0.0,0.0
179.248,3.826,3.431,30.0
128.772,2.789,1.771,26.0
70.874,1.557,0.586,3.0
78.344,1.747,0.226,4.0
45.457,1.028,-0.113,0.0
98.614,2.269,2.493,85.0
99.196,2.315,1.973,24.0
98.831,2.337,1.433,51.0
70.839,1.697,0.637,26.0
70.834,1.72,0.255,11.0
0.0,0.0,0.0,0.0
138.791,3.473,3.611,11.0
45.506,1.152,0.938,4.0
0.0,0.0,0.0,0.0
0.0,0.0,0.0,0.0
45.521,1.196,0.196,23.0
40.141,1.068,-0.043,157.0
41.903,1.132,1.119,92.0
41.927,1.147,0.893,150.0
0.0,0.0,0.0,0.0
41.921,1.173,0.435,161.0
0.0,0.0,0.0,0.0
40.057,1.146,-0.017,51.0
40.115,1.165,1.097,150.0
40.121,1.178,0.88,150.0
40.124,1.19,0.663,150.0
40.121,1.203,0.441,128.0
40.129,1.216,0.224,125.0
40.125,1.228,0.007,150.0
40.122,1.246,1.122,150.0
40.124,1.259,0.904,150.0
40.123,1.272,0.687,150.0
40.123,1.285,0.465,144.0
40.115,1.297,0.247,150.0
40.087,1.309,0.03,64.0
40.126,1.328,1.145,2.0
40.115,1.339,0.927,0.0
165.329,5.574,2.923,6.0
70.924,2.414,0.862,6.0
70.999,2.439,0.477,10.0
40.12,1.391,0.052,150.0
121.273,4.259,3.527,3.0
44.895,1.59,1.061,1.0
45.067,1.61,0.82,8.0
45.074,1.624,0.57,150.0
44.772,1.627,0.323,153.0
42.714,1.566,0.076,2.0
42.7,1.585,1.262,4.0
42.417,1.588,1.023,81.0
41.942,1.583,0.783,79.0
41.825,1.591,0.549,136.0
41.582,1.595,0.319,150.0
40.352,1.561,0.09,113.0
40.387,1.581,1.212,109.0
40.397,1.594,0.992,91.0
40.381,1.605,0.772,149.0
40.362,1.617,0.547,80.0
40.382,1.63,0.327,54.0
45.188,1.839,0.12,25.0
163.483,6.73,4.977,14.0
100.511,4.168,2.511,9.0
23.631,0.987,0.461,1.0
23.611,0.993,0.329,20.0
23.638,1.001,0.2,38.0
23.628,1.009,0.071,49.0
23.609,1.019,0.727,48.0
23.603,1.026,0.598,44.0
23.585,1.032,0.469,49.0
23.585,1.04,0.337,58.0
23.598,1.048,0.208,68.0
23.6,1.055,0.079,72.0
23.591,1.066,0.735,77.0
23.587,1.073,0.606,75.0
23.574,1.08,0.476,68.0
23.588,1.087,0.345,66.0
23.588,1.095,0.216,60.0
23.602,1.103,0.087,51.0
23.595,1.114,0.742,41.0
23.612,1.122,0.613,38.0
23.619,1.13,0.484,38.0
23.605,1.136,0.352,23.0
23.626,1.144,0.222,10.0
45.182,2.202,0.178,11.0
162.888,8.022,5.169,11.0
45.167,2.238,1.185,1.0
45.207,2.253,0.937,2.0
45.21,2.267,0.685,31.0
45.226,2.281,0.437,131.0
45.202,2.293,0.188,39.0
162.745,8.34,5.2,14.0
45.197,2.329,1.195,1.0
207.682,10.764,4.351,6.0
0.0,0.0,0.0,0.0
100.087,5.247,0.987,8.0
45.184,2.382,0.197,11.0
162.733,8.662,5.23,11.0
45.181,2.418,1.203,4.0
200.158,10.771,4.227,18.0
99.482,5.382,1.543,6.0
120.011,6.528,1.202,4.0
45.182,2.471,0.204,6.0
162.779,8.988,5.254,11.0
45.208,2.509,1.21,11.0
45.2,2.522,0.96,82.0
45.202,2.534,0.707,40.0
45.192,2.547,0.457,3.0
45.198,2.561,0.209,7.0
162.714,9.307,5.27,10.0
45.233,2.6,1.215,3.0
45.271,2.615,0.966,0.0
99.404,5.771,1.563,6.0
45.224,2.638,0.461,3.0
45.206,2.65,0.212,11.0
162.707,9.628,5.281,13.0
45.155,2.684,1.216,3.0
111.95,6.686,2.395,13.0
0.0,0.0,0.0,0.0
99.719,6.012,1.021,11.0
45.178,2.737,0.213,7.0
162.667,9.943,5.284,6.0
45.18,2.774,1.217,7.0
45.198,2.787,0.967,74.0
45.192,2.799,0.713,87.0
45.206,2.813,0.463,13.0
54.156,3.385,0.255,7.0
112.511,7.094,3.654,2.0
45.188,2.861,1.217,2.0
130.024,8.269,2.781,4.0
100.133,6.397,1.577,15.0
99.817,6.404,1.02,9.0
45.186,2.911,0.211,44.0
99.976,6.496,3.242,37.0
45.179,2.948,1.214,102.0
45.19,2.961,0.964,119.0
45.123,2.969,0.707,120.0
44.972,2.971,0.456,133.0
44.759,2.97,0.205,89.0
99.974,6.687,3.233,37.0
43.636,2.93,1.169,81.0
43.609,2.94,0.925,82.0
43.603,2.951,0.679,53.0
41.666,2.832,0.417,4.0
42.752,2.917,0.191,17.0
99.981,6.876,3.221,36.0
42.572,2.938,1.135,81.0
40.985,2.839,0.864,31.0
42.07,2.926,0.649,128.0
41.997,2.932,0.415,150.0
41.981,2.943,0.181,95.0
99.981,7.064,3.206,29.0
41.346,2.931,1.095,74.0
40.808,2.904,0.854,80.0
41.06,2.933,0.626,119.0
40.931,2.934,0.397,119.0
40.589,2.921,0.167,124.0
45.478,3.297,1.449,150.0
40.376,2.938,1.061,119.0
40.37,2.948,0.836,75.0
45.502,3.334,0.684,3.0
45.476,3.344,0.431,119.0
45.483,3.356,0.177,72.0
43.693,3.248,1.382,142.0
43.695,3.259,1.138,126.0
43.691,3.27,0.894,138.0
43.703,3.282,0.646,131.0
43.702,3.293,0.403,132.0
43.695,3.304,0.159,124.0
43.684,3.327,1.37,150.0
43.698,3.339,1.126,145.0
0.0,0.0,0.0,0.0
0.0,0.0,0.0,0.0
41.906,3.233,0.374,6.0
41.889,3.243,0.14,37.0
41.889,3.267,1.301,117.0
41.908,3.278,1.067,117.0
41.906,3.288,0.833,123.0
41.904,3.298,0.594,121.0
41.9,3.308,0.36,124.0
0.0,0.0,0.0,0.0
41.904,3.341,1.287,111.0
0.0,0.0,0.0,0.0
0.0,0.0,0.0,0.0
40.079,3.224,0.554,9.0
40.105,3.236,0.33,144.0
40.073,3.244,0.106,74.0
40.098,3.268,1.217,150.0
40.107,3.278,0.993,150.0
40.091,3.286,0.767,150.0
40.096,3.296,0.539,129.0
40.107,3.306,0.314,135.0
40.106,3.316,0.09,150.0
40.102,3.338,1.201,145.0
40.106,3.347,0.976,115.0
40.108,3.356,0.751,105.0
40.108,3.366,0.522,109.0
40.104,3.375,0.297,108.0
40.101,3.384,0.072,150.0
40.099,3.405,1.183,133.0
40.08,3.413,0.957,57.0
40.083,3.423,0.732,16.0
40.094,3.433,0.504,5.0
40.088,3.442,0.278,1.0
40.106,3.453,0.053,99.0
74.514,6.455,2.163,9.0
74.43,6.464,1.742,9.0
74.338,6.473,1.322,9.0
74.221,6.479,0.896,7.0
74.035,6.479,0.477,1.0
46.763,4.104,0.038,7.0
73.181,6.462,2.087,10.0
73.081,6.469,1.673,9.0
72.981,6.476,1.26,8.0
72.904,6.485,0.842,9.0
54.853,4.891,0.324,3.0
46.54,4.161,0.013,27.0
71.934,6.469,2.012,9.0
71.837,6.476,1.605,9.0
71.73,6.481,1.199,10.0
71.636,6.488,0.787,10.0
52.64,4.779,0.281,2.0
46.418,4.225,-0.012,22.0
70.681,6.471,1.937,11.0
70.626,6.479,1.537,10.0
70.546,6.487,1.138,10.0
70.431,6.492,0.732,9.0
52.959,4.893,0.252,3.0
46.121,4.271,-0.04,22.0
69.514,6.474,1.862,9.0
69.426,6.479,1.469,10.0
69.327,6.485,1.075,8.0
69.238,6.49,0.676,8.0
47.165,4.431,0.195,1.0
45.522,4.286,-0.068,20.0
68.384,6.475,1.789,7.0
68.31,6.48,1.401,8.0
68.22,6.486,1.014,10.0
68.172,6.495,0.622,9.0
47.895,4.572,0.166,6.0
44.564,4.264,-0.096,19.0
67.279,6.472,1.715,8.0
67.263,6.482,1.334,7.0
67.209,6.49,0.953,7.0
67.126,6.495,0.567,4.0
47.608,4.616,0.133,20.0
44.394,4.313,-0.126,17.0
66.329,6.478,1.645,10.0
66.28,6.486,1.269,10.0
66.236,6.494,0.893,10.0
66.179,6.501,0.511,7.0
47.357,4.661,0.098,21.0
43.986,4.338,-0.157,5.0
65.387,6.481,1.574,9.0
65.357,6.489,1.204,9.0
65.288,6.495,0.833,7.0
65.146,6.492,0.456,2.0
46.744,4.667,0.062,21.0
39.974,3.999,-0.172,19.0
64.493,6.483,1.504,7.0
64.381,6.484,1.137,10.0
64.382,6.495,0.772,7.0
64.267,6.496,0.4,2.0
45.8,4.637,0.026,20.0
39.792,4.036,-0.202,16.0
63.659,6.488,1.436,11.0
63.611,6.494,1.074,12.0
63.55,6.498,0.712,8.0
63.453,6.5,0.345,2.0
45.249,4.643,-0.009,20.0
39.031,4.012,-0.23,15.0
62.872,6.492,1.367,11.0
62.845,6.5,1.011,12.0
62.805,6.505,0.653,12.0
62.797,6.516,0.291,0.0
44.734,4.649,-0.046,18.0
38.279,3.985,-0.256,9.0
62.128,6.496,1.3,10.0
62.119,6.505,0.947,12.0
62.111,6.514,0.594,11.0
52.918,5.559,0.201,1.0
42.161,4.436,-0.079,11.0
0.0,0.0,0.0,0.0
61.377,6.496,1.232,12.0
61.36,6.504,0.883,11.0
61.366,6.514,0.534,12.0
46.655,4.96,0.136,7.0
41.97,4.469,-0.115,10.0
35.1,3.743,-0.295,5.0
60.704,6.5,1.164,6.0
60.651,6.503,0.819,4.0
60.544,6.501,0.473,2.0
46.39,4.989,0.094,20.0
38.469,4.143,-0.14,13.0
34.179,3.687,-0.319,7.0
59.996,6.496,1.097,6.0
59.94,6.499,0.755,3.0
59.897,6.503,0.414,2.0
45.856,4.985,0.051,21.0
38.009,4.138,-0.173,13.0
32.643,3.559,-0.334,10.0
59.392,6.5,1.031,5.0
59.335,6.501,0.693,5.0
59.253,6.501,0.354,2.0
44.798,4.921,0.008,19.0
37.678,4.145,-0.207,15.0
31.704,3.493,-0.354,9.0
58.823,6.503,0.965,11.0
58.848,6.514,0.631,10.0
58.791,6.516,0.296,1.0
43.778,4.858,-0.033,18.0
37.121,4.124,-0.239,12.0
30.676,3.413,-0.372,8.0
58.283,6.507,0.9,9.0
58.26,6.511,0.568,6.0
58.327,6.527,0.236,0.0
42.453,4.756,-0.073,17.0
35.178,3.946,-0.261,2.0
29.631,3.328,-0.389,8.0
57.773,6.51,0.836,6.0
57.763,6.516,0.506,6.0
46.619,5.265,0.143,6.0
39.098,4.42,-0.107,15.0
34.943,3.955,-0.294,10.0
28.585,3.24,-0.404,7.0
57.321,6.517,0.772,9.0
57.303,6.521,0.444,6.0
46.12,5.254,0.094,20.0
37.173,4.239,-0.139,30.0
32.726,3.736,-0.309,3.0
27.865,3.185,-0.422,7.0
56.858,6.518,0.708,8.0
56.839,6.522,0.383,3.0
46.361,5.325,0.048,5.0
36.655,4.214,-0.175,13.0
32.127,3.698,-0.336,9.0
26.791,3.087,-0.433,6.0
56.422,6.519,0.644,11.0
56.309,6.512,0.321,2.0
43.99,5.092,0.0,18.0
35.775,4.145,-0.207,15.0
31.103,3.608,-0.358,9.0
18.159,2.108,-0.312,6.0
56.013,6.521,0.581,13.0
51.379,5.987,0.239,3.0
42.854,4.998,-0.045,17.0
35.412,4.134,-0.243,14.0
29.983,3.503,-0.377,8.0
18.132,2.121,-0.331,16.0
55.629,6.523,0.517,12.0
51.348,6.026,0.184,11.0
38.579,4.531,-0.082,14.0
34.743,4.084,-0.275,11.0
18.144,2.135,-0.247,1.0
17.771,2.093,-0.344,16.0
55.252,6.521,0.454,15.0
46.199,5.457,0.116,20.0
38.159,4.511,-0.122,14.0
33.466,3.959,-0.302,10.0
18.125,2.146,-0.267,11.0
17.427,2.065,-0.356,15.0
54.887,6.519,0.391,13.0
45.273,5.381,0.063,20.0
0.0,0.0,0.0,0.0
33.125,3.943,-0.335,10.0
18.12,2.159,-0.287,14.0
17.226,2.054,-0.371,16.0
54.564,6.519,0.328,4.0
44.306,5.297,0.013,19.0
35.357,4.23,-0.191,12.0
18.089,2.165,-0.203,9.0
18.072,2.165,-0.306,11.0
17.095,2.05,-0.387,17.0
54.193,6.51,0.266,1.0
40.374,4.853,-0.032,5.0
34.761,4.181,-0.226,11.0
18.09,2.177,-0.223,15.0
17.744,2.137,-0.32,10.0
16.915,2.039,-0.402,17.0
46.017,5.556,0.174,1.0
36.267,4.381,-0.07,7.0
18.058,2.183,-0.138,10.0
18.096,2.188,-0.244,12.0
17.366,2.102,-0.333,13.0
16.781,2.032,-0.418,17.0
46.052,5.586,0.122,20.0
0.0,0.0,0.0,0.0
18.076,2.195,-0.159,14.0
27.7,3.365,-0.405,2.0
17.203,2.091,-0.35,16.0
16.664,2.027,-0.434,16.0
0.0,0.0,0.0,0.0
18.066,2.201,-0.076,4.0
18.082,2.205,-0.179,14.0
26.303,3.209,-0.415,6.0
17.071,2.084,-0.367,16.0
16.561,2.023,-0.451,16.0
44.446,5.435,0.016,4.0
18.058,2.209,-0.096,14.0
18.098,2.215,-0.2,8.0
25.676,3.144,-0.434,6.0
16.906,2.071,-0.383,14.0
16.467,2.019,-0.467,17.0
41.959,5.149,-0.032,4.0
18.064,2.217,-0.117,16.0
29.884,3.67,-0.366,6.0
17.387,2.136,-0.314,11.0
16.786,2.063,-0.399,14.0
16.378,2.014,-0.483,17.0
18.043,2.221,-0.035,8.0
18.062,2.224,-0.138,13.0
0.0,0.0,0.0,0.0
17.176,2.116,-0.33,16.0
16.658,2.053,-0.416,14.0
16.333,2.014,-0.501,17.0
18.04,2.226,-0.056,16.0
0.0,0.0,0.0,0.0
27.675,3.418,-0.403,7.0
17.098,2.112,-0.348,17.0
16.564,2.047,-0.433,17.0
16.305,2.016,-0.519,16.0
18.045,2.232,-0.076,16.0
16.662,2.061,-0.166,4.0
26.657,3.299,-0.419,6.0
16.987,2.103,-0.366,16.0
16.472,2.04,-0.449,17.0
16.255,2.014,-0.537,16.0
18.057,2.238,-0.098,13.0
30.803,3.819,-0.343,9.0
26.079,3.234,-0.44,2.0
16.767,2.08,-0.381,14.0
16.42,2.037,-0.467,18.0
16.23,2.014,-0.555,15.0
18.068,2.243,-0.119,7.0
29.953,3.719,-0.369,8.0
17.314,2.15,-0.312,13.0
16.633,2.066,-0.397,14.0
16.354,2.032,-0.484,16.0
16.181,2.011,-0.572,16.0
33.135,4.118,-0.257,4.0
28.613,3.557,-0.386,8.0
17.161,2.133,-0.33,16.0
16.578,2.061,-0.415,16.0
16.313,2.029,-0.502,17.0
16.15,2.009,-0.59,18.0
32.829,4.084,-0.293,3.0
27.702,3.446,-0.405,7.0
17.065,2.123,-0.347,16.0
16.515,2.055,-0.433,17.0
16.292,2.028,-0.521,17.0
16.138,2.009,-0.608,18.0
16.531,2.057,-0.166,8.0
26.748,3.329,-0.423,6.0
16.924,2.106,-0.365,14.0
16.451,2.048,-0.45,17.0
16.248,2.023,-0.538,16.0
16.121,2.007,-0.626,16.0
30.607,3.809,-0.344,9.0
17.53,2.181,-0.297,8.0
16.758,2.085,-0.38,13.0
16.4,2.041,-0.468,17.0
16.221,2.019,-0.556,16.0
16.096,2.004,-0.644,14.0
29.57,3.679,-0.366,8.0
17.25,2.146,-0.312,14.0
16.65,2.071,-0.397,14.0
16.349,2.034,-0.485,16.0
16.179,2.013,-0.573,16.0
16.075,2.0,-0.662,14.0
28.443,3.536,-0.384,8.0
17.156,2.133,-0.33,16.0
16.584,2.061,-0.414,15.0
16.309,2.027,-0.502,16.0
16.15,2.008,-0.59,17.0
16.024,1.992,-0.678,15.0
27.465,3.411,-0.402,7.0
17.08,2.121,-0.348,17.0
16.522,2.051,-0.431,17.0
16.287,2.022,-0.52,17.0
16.138,2.004,-0.608,17.0
15.97,1.983,-0.693,16.0
26.527,3.29,-0.418,7.0
16.929,2.099,-0.364,15.0
16.477,2.043,-0.448,18.0
16.26,2.016,-0.538,15.0
16.126,1.999,-0.626,15.0
15.936,1.975,-0.71,14.0
25.913,3.208,-0.437,1.0
16.81,2.08,-0.38,14.0
16.417,2.031,-0.465,17.0
16.225,2.007,-0.554,13.0
16.105,1.992,-0.643,13.0
15.889,1.966,-0.725,6.0
17.278,2.134,-0.311,13.0
16.704,2.063,-0.396,14.0
16.366,2.02,-0.482,18.0
16.217,2.002,-0.572,14.0
16.049,1.981,-0.658,12.0
15.919,1.965,-0.744,3.0
17.188,2.118,-0.328,17.0
16.655,2.051,-0.413,14.0
16.347,2.013,-0.499,16.0
16.184,1.993,-0.588,15.0
16.021,1.972,-0.674,11.0
15.927,1.96,-0.762,2.0
17.126,2.104,-0.345,18.0
16.61,2.04,-0.429,15.0
16.321,2.004,-0.516,16.0
16.173,1.985,-0.605,15.0
16.004,1.964,-0.691,14.0
15.981,1.961,-0.781,2.0
17.053,2.088,-0.361,19.0
16.548,2.026,-0.445,16.0
16.309,1.996,-0.532,16.0
16.163,1.977,-0.622,15.0
15.964,1.952,-0.706,15.0
15.947,1.95,-0.796,2.0
16.976,2.071,-0.377,16.0
16.513,2.014,-0.462,17.0
16.297,1.987,-0.549,15.0
16.109,1.963,-0.637,13.0
15.904,1.938,-0.72,10.0
0.0,0.0,0.0,0.0
16.869,2.05,-0.393,18.0
16.468,2.0,-0.478,17.0
16.279,1.976,-0.565,16.0
16.078,1.951,-0.652,12.0
15.921,1.931,-0.737,4.0
0.0,0.0,0.0,0.0
16.681,1.784,-0.627,19.0
16.261,1.737,-0.703,12.0
17.557,1.873,-0.858,0.0
17.507,1.865,-0.957,0.0
13.18,1.402,-0.795,0.0
12.434,1.321,-0.821,0.0
16.704,1.767,-0.637,17.0
16.248,1.716,-0.712,12.0
17.768,1.874,-0.879,0.0
17.623,1.856,-0.974,0.0
13.107,1.379,-0.799,0.0
12.346,1.297,-0.822,0.0
16.745,1.751,-0.648,14.0
16.128,1.684,-0.715,11.0
15.082,1.572,-0.755,0.0
13.86,1.443,-0.773,0.0
13.055,1.357,-0.803,0.0
12.25,1.272,-0.823,0.0
16.827,1.738,-0.66,14.0
16.013,1.651,-0.719,11.0
15.024,1.547,-0.759,0.0
13.771,1.416,-0.775,0.0
12.945,1.329,-0.802,0.0
12.06,1.237,-0.816,0.0
16.924,1.727,-0.672,14.0
16.0,1.63,-0.726,7.0
14.852,1.51,-0.758,0.0
13.804,1.402,-0.784,0.0
12.873,1.305,-0.804,0.0
12.123,1.227,-0.826,0.0
17.0,1.712,-0.683,15.0
15.947,1.604,-0.731,4.0
14.714,1.477,-0.757,0.0
13.701,1.373,-0.784,0.0
12.87,1.288,-0.809,0.0
12.078,1.207,-0.828,0.0
16.974,1.687,-0.689,13.0
15.954,1.583,-0.738,7.0
14.836,1.469,-0.77,0.0
13.604,1.345,-0.784,0.0
12.823,1.266,-0.812,0.0
11.956,1.178,-0.824,0.0
17.008,1.667,-0.697,2.0
15.938,1.559,-0.743,6.0
14.617,1.427,-0.764,0.0
13.6,1.326,-0.789,0.0
12.805,1.246,-0.815,0.0
12.004,1.166,-0.832,0.0
16.592,1.603,-0.686,1.0
15.926,1.536,-0.748,4.0
14.635,1.409,-0.77,0.0
13.567,1.304,-0.792,0.0
12.702,1.218,-0.813,0.0
11.906,1.14,-0.829,0.0
16.647,1.585,-0.694,2.0
15.912,1.512,-0.753,2.0
14.606,1.385,-0.773,0.0
13.499,1.278,-0.792,0.0
12.696,1.199,-0.816,0.0
11.87,1.119,-0.83,0.0
16.609,1.557,-0.697,1.0
15.894,1.487,-0.756,1.0
14.615,1.365,-0.777,0.0
13.546,1.262,-0.798,0.0
12.668,1.178,-0.818,0.0
11.816,1.097,-0.829,0.0
16.575,1.53,-0.699,1.0
15.817,1.457,-0.756,0.0
14.519,1.334,-0.776,0.0
13.433,1.232,-0.794,0.0
12.649,1.158,-0.819,0.0
11.92,1.089,-0.839,0.0
16.544,1.502,-0.701,2.0
15.76,1.427,-0.757,0.0
14.556,1.316,-0.78,0.0
13.497,1.217,-0.801,0.0
12.714,1.144,-0.826,0.0
11.871,1.066,-0.838,0.0
16.527,1.475,-0.704,1.0
15.682,1.397,-0.755,0.0
14.472,1.286,-0.778,0.0
13.447,1.192,-0.8,0.0
12.643,1.119,-0.823,0.0
11.837,1.045,-0.837,0.0
16.501,1.448,-0.704,1.0
15.741,1.378,-0.76,0.0
13.433,1.17,-0.8,0.0
12.637,1.099,-0.824,0.0
11.83,1.026,-0.837,0.0
16.502,1.423,-0.706,1.0
15.702,1.35,-0.76,0.0
14.382,1.234,-0.776,0.0
13.488,1.154,-0.804,0.0
12.69,1.083,-0.828,0.0
11.808,1.006,-0.837,0.0
16.508,1.397,-0.707,2.0
15.734,1.329,-0.762,0.0
14.509,1.222,-0.783,0.0
13.419,1.127,-0.801,0.0
12.651,1.06,-0.826,0.0
11.889,0.994,-0.842,0.0
16.51,1.372,-0.707,1.0
15.79,1.308,-0.764,0.0
14.464,1.195,-0.781,0.0
13.538,1.116,-0.808,0.0
12.668,1.042,-0.827,0.0
11.898,0.976,-0.843,0.0
16.527,1.347,-0.708,1.0
15.793,1.283,-0.764,0.0
14.466,1.172,-0.78,0.0
13.579,1.098,-0.81,0.0
12.696,1.023,-0.828,0.0
11.876,0.955,-0.841,0.0
16.526,1.32,-0.706,1.0
15.817,1.26,-0.764,0.0
14.506,1.152,-0.781,0.0
13.471,1.067,-0.802,0.0
12.656,0.999,-0.824,0.0
11.913,0.938,-0.842,0.0
16.584,1.297,-0.707,1.0
15.899,1.24,-0.766,0.0
14.557,1.132,-0.782,0.0
13.592,1.054,-0.807,0.0
12.733,0.985,-0.827,0.0
11.975,0.924,-0.845,0.0
16.634,1.274,-0.707,1.0
15.909,1.215,-0.764,1.0
14.706,1.12,-0.788,0.0
13.653,1.036,-0.808,0.0
12.801,0.969,-0.829,0.0
12.084,0.912,-0.85,0.0
16.64,1.247,-0.704,1.0
15.944,1.191,-0.762,2.0
14.728,1.097,-0.786,0.0
13.634,1.012,-0.804,0.0
12.788,0.947,-0.825,0.0
12.07,0.891,-0.846,0.0
16.685,1.223,-0.702,1.0
15.977,1.167,-0.76,2.0
14.95,1.089,-0.794,1.0
13.722,0.996,-0.806,0.0
12.871,0.931,-0.827,0.0
12.088,0.872,-0.844,0.0
16.742,1.199,-0.7,1.0
15.983,1.141,-0.756,2.0
14.942,1.063,-0.789,0.0
13.814,0.979,-0.808,0.0
12.88,0.91,-0.824,0.0
12.166,0.857,-0.846,0.0
16.772,1.173,-0.696,1.0
16.017,1.116,-0.752,2.0
14.989,1.041,-0.787,0.0
13.816,0.956,-0.803,0.0
12.931,0.892,-0.823,0.0
12.222,0.84,-0.845,0.0
16.811,1.147,-0.691,1.0
16.076,1.093,-0.749,1.0
15.08,1.021,-0.786,0.0
13.934,0.94,-0.804,0.0
13.007,0.875,-0.823,0.0
12.303,0.824,-0.846,0.0
16.861,1.122,-0.686,1.0
16.144,1.07,-0.746,1.0
15.266,1.008,-0.789,0.0
13.962,0.919,-0.8,0.0
13.141,0.861,-0.826,0.0
12.371,0.808,-0.845,0.0
16.921,1.097,-0.682,2.0
16.216,1.047,-0.742,1.0
15.269,0.982,-0.783,0.0
14.095,0.903,-0.801,0.0
13.242,0.845,-0.826,0.0
12.429,0.79,-0.843,0.0
16.994,1.073,-0.676,1.0
16.298,1.025,-0.738,1.0
15.425,0.966,-0.783,0.0
14.29,0.891,-0.805,0.0
13.229,0.822,-0.818,0.0
12.552,0.777,-0.845,0.0
17.055,1.048,-0.67,1.0
16.356,1.0,-0.732,1.0
15.735,0.958,-0.79,0.0
14.393,0.873,-0.803,0.0
13.366,0.807,-0.819,0.0
12.656,0.761,-0.845,0.0
17.128,1.022,-0.663,1.0
16.457,0.978,-0.727,1.0
15.936,0.943,-0.791,1.0
14.541,0.857,-0.803,0.0
13.513,0.793,-0.82,0.0
12.69,0.742,-0.84,0.0
17.231,0.999,-0.657,1.0
16.54,0.955,-0.721,1.0
15.962,0.917,-0.783,3.0
14.641,0.838,-0.799,0.0
13.601,0.775,-0.817,0.0
12.766,0.724,-0.837,0.0
17.403,0.979,-0.652,1.0
16.658,0.933,-0.715,1.0
15.997,0.892,-0.774,2.0
14.852,0.824,-0.801,0.0
13.706,0.757,-0.814,0.0
12.928,0.711,-0.838,0.0
17.629,0.961,-0.648,1.0
16.754,0.909,-0.708,2.0
16.078,0.868,-0.766,2.0
15.113,0.812,-0.804,0.0
23.638,1.265,-1.387,0.0
12.999,0.692,-0.833,0.0
17.908,0.946,-0.646,1.0
16.845,0.885,-0.699,2.0
16.191,0.846,-0.76,1.0
15.261,0.794,-0.801,0.0
23.625,1.223,-1.369,1.0
23.636,1.218,-1.498,0.0
18.083,0.924,-0.638,2.0
16.928,0.86,-0.689,2.0
16.304,0.824,-0.752,1.0
23.626,1.189,-1.221,1.0
23.626,1.183,-1.35,1.0
23.635,1.177,-1.479,0.0
18.279,0.903,-0.631,2.0
17.009,0.836,-0.679,2.0
16.386,0.801,-0.743,1.0
15.922,0.774,-0.81,1.0
23.635,1.143,-1.331,1.0
23.613,1.136,-1.457,1.0
18.509,0.883,-0.623,3.0
17.156,0.813,-0.67,2.0
16.53,0.779,-0.735,2.0
15.959,0.748,-0.798,3.0
23.615,1.101,-1.308,0.0
23.619,1.096,-1.437,0.0
18.783,0.864,-0.615,3.0
17.305,0.791,-0.66,5.0
16.624,0.756,-0.724,2.0
16.054,0.725,-0.788,3.0
14.937,0.671,-0.814,0.0
13.834,0.618,-0.829,0.0
19.197,0.85,-0.611,3.0
17.65,0.777,-0.657,3.0
16.75,0.733,-0.714,2.0
16.171,0.704,-0.778,2.0
15.164,0.655,-0.812,0.0
13.987,0.601,-0.824,0.0
19.641,0.837,-0.607,2.0
17.859,0.756,-0.648,3.0
16.863,0.709,-0.702,2.0
16.265,0.68,-0.767,3.0
15.551,0.646,-0.817,0.0
14.24,0.588,-0.825,0.0
19.893,0.814,-0.594,2.0
18.14,0.738,-0.64,3.0
17.015,0.687,-0.691,1.0
16.338,0.656,-0.753,0.0
15.92,0.635,-0.82,1.0
14.543,0.576,-0.827,0.0
20.412,0.801,-0.589,1.0
18.475,0.72,-0.632,3.0
17.124,0.663,-0.677,0.0
16.471,0.633,-0.742,0.0
15.97,0.61,-0.805,1.0
21.098,0.793,-0.586,1.0
18.831,0.703,-0.623,3.0
17.248,0.639,-0.664,0.0
16.623,0.612,-0.73,0.0
16.13,0.589,-0.795,1.0
15.061,0.546,-0.823,0.0
21.519,0.773,-0.573,2.0
19.45,0.694,-0.622,3.0
40.17,1.422,-1.5,2.0
16.801,0.59,-0.719,0.0
16.588,0.578,-0.799,1.0
15.288,0.529,-0.818,0.0
22.356,0.766,-0.569,4.0
19.767,0.673,-0.609,1.0
18.162,0.613,-0.657,0.0
17.067,0.572,-0.71,0.0
17.051,0.567,-0.801,1.0
15.798,0.521,-0.826,0.0
22.886,0.748,-0.556,0.0
20.134,0.652,-0.596,0.0
18.299,0.588,-0.639,0.0
17.935,0.572,-0.724,0.0
17.712,0.56,-0.81,2.0
16.134,0.506,-0.824,0.0
23.836,0.74,-0.549,0.0
20.781,0.64,-0.59,1.0
19.15,0.585,-0.645,2.0
18.586,0.562,-0.727,0.0
18.019,0.541,-0.801,1.0
16.405,0.488,-0.817,0.0
24.95,0.735,-0.544,1.0
21.605,0.631,-0.586,0.0
19.341,0.559,-0.627,0.0
19.725,0.565,-0.746,3.0
18.095,0.514,-0.781,0.0
16.825,0.474,-0.816,0.0
25.896,0.721,-0.53,5.0
22.07,0.609,-0.569,0.0
20.369,0.557,-0.633,1.0
20.607,0.558,-0.752,2.0
18.759,0.504,-0.785,1.0
17.24,0.459,-0.813,0.0
26.65,0.701,-0.51,1.0
22.957,0.598,-0.562,0.0
21.746,0.561,-0.647,1.0
20.893,0.534,-0.735,4.0
18.923,0.479,-0.766,0.0
17.516,0.439,-0.802,0.0
28.395,0.704,-0.505,1.0
24.291,0.596,-0.56,0.0
23.129,0.561,-0.656,0.0
21.758,0.523,-0.735,4.0
19.39,0.461,-0.757,0.0
17.878,0.42,-0.793,0.0
29.318,0.681,-0.48,2.0
25.263,0.581,-0.547,1.0
25.174,0.572,-0.678,2.0
22.024,0.495,-0.712,1.0
20.292,0.451,-0.764,1.0
18.446,0.406,-0.792,0.0
29.4,0.639,-0.439,0.0
26.599,0.572,-0.538,0.0
26.343,0.56,-0.672,5.0
22.804,0.479,-0.705,1.0
0.0,0.0,0.0,0.0
19.042,0.391,-0.79,1.0
55.248,1.121,-0.746,1.0
28.604,0.573,-0.537,0.0
27.108,0.537,-0.652,2.0
23.664,0.463,-0.696,0.0
21.133,0.408,-0.733,1.0
19.594,0.374,-0.783,2.0
55.206,1.04,-0.664,0.0
31.519,0.586,-0.545,0.0
27.728,0.509,-0.625,1.0
24.802,0.449,-0.692,0.0
21.906,0.392,-0.727,0.0
19.89,0.351,-0.765,3.0
35.73,0.622,-0.375,1.0
0.0,0.0,0.0,0.0
29.006,0.491,-0.61,0.0
25.622,0.428,-0.676,0.0
22.589,0.372,-0.715,0.0
19.902,0.323,-0.735,3.0
19.681,0.315,-0.176,0.0
19.675,0.31,-0.28,6.0
19.692,0.306,-0.383,3.0
19.711,0.302,-0.489,1.0
23.408,0.353,-0.704,0.0
20.97,0.311,-0.741,1.0
19.69,0.288,-0.145,10.0
19.661,0.283,-0.248,15.0
19.665,0.278,-0.351,13.0
19.659,0.274,-0.456,16.0
19.687,0.269,-0.56,14.0
19.685,0.265,-0.664,7.0
19.664,0.26,-0.113,15.0
19.65,0.256,-0.216,17.0
19.669,0.251,-0.319,14.0
19.646,0.247,-0.424,18.0
19.659,0.242,-0.527,17.0
19.675,0.238,-0.63,17.0
19.649,0.234,-0.08,16.0
19.646,0.229,-0.183,17.0
19.653,0.225,-0.286,17.0
19.643,0.22,-0.391,16.0
19.661,0.216,-0.494,17.0
19.675,0.212,-0.597,17.0
19.667,0.208,-0.048,12.0
19.644,0.204,-0.15,17.0
19.654,0.199,-0.253,16.0
19.651,0.195,-0.358,14.0
19.67,0.191,-0.461,14.0
19.668,0.187,-0.564,9.0
19.642,0.182,-0.014,17.0
19.639,0.178,-0.117,15.0
19.648,0.174,-0.22,11.0
19.687,0.17,-0.325,3.0
19.672,0.166,-0.427,1.0
25.373,0.209,-0.684,0.0
19.656,0.158,0.019,20.0
19.648,0.154,-0.083,11.0
19.681,0.15,-0.185,6.0
0.0,0.0,0.0,0.0
30.022,0.217,-0.6,0.0
26.079,0.183,-0.657,0.0
19.648,0.134,0.053,14.0
19.658,0.13,-0.048,10.0
19.695,0.126,-0.151,1.0
36.014,0.223,-0.468,0.0
31.058,0.186,-0.565,0.0
27.686,0.16,-0.648,0.0
19.674,0.11,0.088,13.0
19.693,0.106,-0.013,8.0
19.753,0.103,-0.116,1.0
19.766,0.099,-0.221,2.0
19.772,0.095,-0.324,4.0
19.767,0.091,-0.427,10.0
19.687,0.087,0.123,15.0
19.764,0.084,0.021,35.0
19.767,0.08,-0.081,35.0
19.765,0.076,-0.186,59.0
19.774,0.072,-0.289,62.0
19.763,0.069,-0.391,37.0
19.696,0.065,0.159,10.0
19.762,0.061,0.057,65.0
19.738,0.058,-0.045,42.0
19.747,0.054,-0.149,17.0
19.762,0.05,-0.252,14.0
19.768,0.047,-0.355,11.0
19.672,0.043,0.195,14.0
19.749,0.039,0.093,14.0
19.741,0.036,-0.008,17.0
19.753,0.032,-0.112,2.0
19.773,0.028,-0.215,2.0
19.778,0.025,-0.318,1.0
19.633,0.021,0.232,16.0
19.786,0.018,0.131,1.0
19.761,0.014,0.028,6.0
19.744,0.011,-0.075,2.0
0.0,0.0,0.0,0.0
35.996,0.008,-0.511,0.0
19.637,0.001,0.269,13.0
19.694,-0.002,0.167,6.0
19.694,-0.005,0.065,8.0
