X,Y,Z,Reflectivity
26.106,0.56,-0.618,1.0
23.355,0.505,-0.69,1.0
20.947,0.457,-0.74,2.0
18.703,0.411,-0.77,0.0
30.217,0.67,-0.42,0.0
25.928,0.579,-0.51,0.0
24.114,0.543,-0.614,0.0
22.494,0.51,-0.705,4.0
20.287,0.464,-0.753,0.0
18.218,0.419,-0.782,0.0
29.538,0.685,-0.464,3.0
25.211,0.588,-0.541,1.0
22.973,0.54,-0.626,0.0
21.794,0.516,-0.722,4.0
19.315,0.461,-0.752,0.0
17.771,0.427,-0.795,0.0
28.352,0.685,-0.496,1.0
23.507,0.572,-0.547,0.0
22.312,0.546,-0.648,1.0
20.884,0.515,-0.73,3.0
18.829,0.467,-0.768,0.0
17.253,0.431,-0.803,0.0
26.313,0.661,-0.509,0.0
22.527,0.569,-0.566,0.0
21.436,0.545,-0.663,2.0
20.442,0.523,-0.753,0.0
18.263,0.471,-0.778,0.0
16.791,0.435,-0.813,0.0
25.246,0.657,-0.535,1.0
21.538,0.564,-0.581,0.0
20.692,0.545,-0.678,0.0
19.416,0.515,-0.751,1.0
17.921,0.478,-0.797,1.0
16.161,0.433,-0.812,0.0
23.842,0.642,-0.549,1.0
20.757,0.562,-0.598,2.0
20.198,0.55,-0.699,0.0
19.098,0.523,-0.774,1.0
17.254,0.475,-0.799,0.0
15.719,0.435,-0.819,0.0
22.357,0.621,-0.556,0.0
19.975,0.557,-0.613,0.0
19.403,0.544,-0.708,3.0
18.305,0.516,-0.776,1.0
16.816,0.476,-0.81,0.0
15.116,0.431,-0.816,0.0
21.664,0.619,-0.579,0.0
19.26,0.553,-0.627,1.0
19.046,0.549,-0.73,1.0
17.987,0.521,-0.796,0.0
16.226,0.472,-0.812,0.0
14.718,0.431,-0.822,0.0
20.718,0.607,-0.592,1.0
18.572,0.547,-0.639,0.0
18.64,0.551,-0.749,1.0
17.239,0.512,-0.795,0.0
15.674,0.468,-0.814,0.0
14.363,0.431,-0.829,0.0
19.974,0.6,-0.608,0.0
18.269,0.551,-0.662,1.0
18.292,0.554,-0.769,2.0
16.849,0.513,-0.808,1.0
15.134,0.462,-0.814,0.0
13.994,0.429,-0.834,0.0
19.252,0.592,-0.623,2.0
18.031,0.556,-0.688,0.0
17.823,0.552,-0.783,2.0
15.622,0.486,-0.779,1.0
14.828,0.463,-0.825,0.0
13.633,0.427,-0.838,0.0
18.362,0.576,-0.628,0.0
17.514,0.552,-0.701,0.0
17.513,0.554,-0.802,1.0
15.522,0.492,-0.803,0.0
14.328,0.456,-0.824,0.0
13.191,0.422,-0.836,0.0
17.945,0.574,-0.647,0.0
17.204,0.552,-0.72,0.0
16.867,0.543,-0.804,1.0
15.144,0.489,-0.812,0.0
13.955,0.453,-0.829,0.0
12.835,0.418,-0.837,0.0
17.287,0.563,-0.656,0.0
17.049,0.557,-0.746,0.0
16.227,0.532,-0.804,0.0
14.852,0.488,-0.824,0.0
13.591,0.448,-0.833,0.0
12.562,0.415,-0.843,0.0
17.106,0.566,-0.681,1.0
16.905,0.561,-0.771,0.0
15.67,0.521,-0.806,0.0
14.394,0.48,-0.825,0.0
13.255,0.444,-0.837,0.0
12.33,0.414,-0.851,0.0
16.887,0.567,-0.704,0.0
16.661,0.561,-0.791,1.0
15.184,0.512,-0.809,0.0
14.036,0.475,-0.831,0.0
12.915,0.438,-0.84,0.0
12.12,0.413,-0.859,0.0
16.647,0.566,-0.725,0.0
16.267,0.555,-0.803,1.0
14.766,0.505,-0.815,0.0
13.659,0.468,-0.834,0.0
12.517,0.43,-0.837,0.0
11.824,0.408,-0.86,0.0
16.427,0.565,-0.746,0.0
15.837,0.546,-0.811,0.0
14.26,0.493,-0.813,0.0
13.099,0.454,-0.825,0.0
12.336,0.429,-0.849,0.0
11.655,0.406,-0.87,0.0
16.284,0.567,-0.77,1.0
15.204,0.53,-0.807,0.0
14.026,0.49,-0.826,0.0
12.847,0.45,-0.833,0.0
12.103,0.425,-0.855,0.0
11.366,0.4,-0.869,0.0
16.154,0.567,-0.794,1.0
14.778,0.52,-0.812,0.0
13.695,0.483,-0.832,0.0
12.661,0.447,-0.844,0.0
11.897,0.421,-0.862,0.0
11.174,0.397,-0.875,0.0
15.857,0.561,-0.808,1.0
14.359,0.509,-0.815,0.0
0.0,0.0,0.0,0.0
12.362,0.44,-0.847,0.0
11.611,0.414,-0.863,0.0
10.938,0.391,-0.877,0.0
15.283,0.545,-0.807,0.0
14.104,0.504,-0.827,0.0
12.931,0.463,-0.833,0.0
12.128,0.435,-0.853,0.0
11.418,0.41,-0.87,0.0
10.787,0.388,-0.885,0.0
14.799,0.531,-0.809,0.0
13.667,0.491,-0.826,0.0
12.677,0.456,-0.84,0.0
11.877,0.428,-0.858,0.0
11.203,0.404,-0.874,0.0
10.565,0.382,-0.886,0.0
14.464,0.521,-0.817,0.0
13.418,0.484,-0.836,0.0
12.373,0.447,-0.843,0.0
11.644,0.421,-0.862,0.0
10.977,0.398,-0.877,0.0
10.384,0.377,-0.89,0.0
14.183,0.513,-0.827,0.0
12.952,0.469,-0.83,0.0
12.185,0.442,-0.852,0.0
11.421,0.415,-0.866,0.0
10.837,0.394,-0.885,0.0
10.207,0.372,-0.893,0.0
13.754,0.499,-0.826,0.0
12.697,0.461,-0.837,0.0
11.947,0.434,-0.857,0.0
11.246,0.409,-0.873,0.0
10.661,0.388,-0.89,0.0
10.065,0.367,-0.899,0.0
13.47,0.489,-0.833,0.0
12.473,0.453,-0.844,0.0
11.734,0.427,-0.862,0.0
10.999,0.401,-0.874,0.0
10.43,0.38,-0.889,0.0
9.895,0.361,-0.902,0.0
12.996,0.472,-0.827,0.0
12.179,0.443,-0.846,0.0
11.463,0.417,-0.863,0.0
10.822,0.394,-0.879,0.0
10.257,0.374,-0.893,0.0
9.71,0.354,-0.902,0.0
12.748,0.463,-0.833,0.0
11.961,0.434,-0.851,0.0
11.307,0.411,-0.871,0.0
10.662,0.388,-0.884,0.0
10.056,0.366,-0.893,0.0
9.546,0.348,-0.903,0.0
12.559,0.455,-0.843,0.0
11.795,0.428,-0.86,0.0
11.072,0.402,-0.872,0.0
10.488,0.381,-0.888,0.0
9.93,0.361,-0.899,0.0
9.43,0.343,-0.909,0.0
12.293,0.444,-0.846,0.0
11.595,0.419,-0.865,0.0
10.887,0.394,-0.876,0.0
10.294,0.372,-0.889,0.0
9.794,0.354,-0.903,0.0
9.268,0.335,-0.909,0.0
12.05,0.434,-0.85,0.0
11.328,0.408,-0.865,0.0
10.73,0.386,-0.881,0.0
10.128,0.365,-0.892,0.0
9.615,0.346,-0.903,0.0
9.139,0.329,-0.912,0.0
11.881,0.425,-0.858,0.0
11.204,0.401,-0.874,0.0
10.546,0.378,-0.884,0.0
9.971,0.357,-0.895,0.0
9.493,0.34,-0.908,0.0
9.003,0.323,-0.913,0.0
11.665,0.415,-0.862,0.0
10.978,0.391,-0.874,0.0
10.397,0.37,-0.889,0.0
9.806,0.349,-0.896,0.0
9.361,0.333,-0.91,0.0
8.88,0.316,-0.915,0.0
11.464,0.405,-0.865,0.0
10.798,0.382,-0.878,0.0
10.216,0.361,-0.89,0.0
9.714,0.343,-0.904,0.0
9.251,0.327,-0.915,0.0
8.737,0.308,-0.915,0.0
11.243,0.394,-0.867,0.0
10.622,0.372,-0.881,0.0
10.073,0.353,-0.894,0.0
9.534,0.334,-0.902,0.0
9.047,0.317,-0.909,0.0
8.62,0.302,-0.917,0.0
11.1,0.385,-0.873,0.0
10.484,0.364,-0.886,0.0
9.939,0.345,-0.898,0.0
9.437,0.327,-0.908,0.0
8.934,0.31,-0.912,0.0
8.558,0.296,-0.924,0.0
10.937,0.376,-0.878,0.0
10.351,0.355,-0.891,0.0
9.791,0.336,-0.9,0.0
9.265,0.318,-0.906,0.0
8.87,0.304,-0.919,0.0
8.4,0.288,-0.92,0.0
10.779,0.366,-0.882,0.0
10.21,0.347,-0.894,0.0
9.638,0.327,-0.9,0.0
9.162,0.311,-0.91,0.0
8.734,0.296,-0.919,0.0
8.323,0.282,-0.924,0.0
10.617,0.356,-0.884,0.0
10.023,0.336,-0.893,0.0
9.532,0.319,-0.905,0.0
9.021,0.302,-0.91,0.0
8.625,0.288,-0.92,0.0
8.213,0.274,-0.924,0.0
10.489,0.347,-0.889,0.0
9.919,0.328,-0.898,0.0
9.443,0.312,-0.91,0.0
8.892,0.293,-0.91,0.0
8.523,0.281,-0.922,0.0
8.1,0.266,-0.923,0.0
10.337,0.337,-0.891,0.0
9.77,0.318,-0.899,0.0
9.262,0.301,-0.906,0.0
8.836,0.287,-0.917,0.0
8.41,0.273,-0.922,0.0
8.055,0.261,-0.93,0.0
10.223,0.328,-0.896,0.0
9.646,0.309,-0.901,0.0
9.18,0.293,-0.911,0.0
8.718,0.278,-0.917,0.0
8.345,0.266,-0.926,0.0
7.964,0.253,-0.931,0.0
10.025,0.316,-0.892,0.0
9.552,0.301,-0.906,0.0
9.081,0.285,-0.914,0.0
8.605,0.27,-0.917,0.0
8.246,0.258,-0.927,0.0
7.868,0.246,-0.93,0.0
9.896,0.306,-0.894,0.0
9.415,0.291,-0.906,0.0
8.968,0.276,-0.915,0.0
8.549,0.263,-0.922,0.0
8.134,0.25,-0.925,0.0
7.791,0.239,-0.932,0.0
9.765,0.296,-0.896,0.0
9.291,0.281,-0.906,0.0
8.839,0.267,-0.913,0.0
8.398,0.253,-0.917,0.0
8.061,0.242,-0.927,0.0
7.73,0.232,-0.935,0.0
9.683,0.287,-0.901,0.0
9.197,0.272,-0.909,0.0
8.746,0.258,-0.915,0.0
8.349,0.246,-0.923,0.0
7.995,0.235,-0.93,0.0
7.659,0.224,-0.936,0.0
9.576,0.278,-0.903,0.0
9.095,0.263,-0.91,0.0
8.676,0.25,-0.918,0.0
8.265,0.238,-0.924,0.0
7.92,0.227,-0.931,0.0
7.577,0.217,-0.935,0.0
9.49,0.268,-0.906,0.0
8.987,0.253,-0.91,0.0
8.589,0.241,-0.92,0.0
8.179,0.229,-0.924,0.0
7.887,0.22,-0.937,0.0
7.529,0.21,-0.939,0.0
9.389,0.259,-0.908,0.0
8.88,0.244,-0.91,0.0
8.495,0.232,-0.92,0.0
8.113,0.221,-0.926,0.0
7.8,0.212,-0.936,0.0
7.483,0.203,-0.942,0.0
9.301,0.249,-0.91,0.0
8.839,0.236,-0.916,0.0
8.409,0.224,-0.92,0.0
8.06,0.214,-0.93,0.0
7.722,0.204,-0.935,0.0
7.392,0.194,-0.939,0.0
9.193,0.239,-0.91,0.0
8.777,0.227,-0.919,0.0
8.317,0.214,-0.919,0.0
7.957,0.204,-0.926,0.0
7.612,0.195,-0.931,0.0
7.335,0.187,-0.94,0.0
9.09,0.229,-0.909,0.0
8.682,0.218,-0.919,0.0
8.287,0.207,-0.925,0.0
7.929,0.197,-0.932,0.0
7.589,0.188,-0.936,0.0
7.299,0.18,-0.943,0.0
9.057,0.22,-0.916,0.0
8.632,0.209,-0.922,0.0
8.201,0.198,-0.924,0.0
7.843,0.188,-0.93,0.0
7.538,0.18,-0.937,0.0
7.267,0.173,-0.946,0.0
8.995,0.211,-0.918,0.0
8.563,0.2,-0.924,0.0
8.133,0.189,-0.924,0.0
7.83,0.181,-0.936,0.0
7.495,0.173,-0.939,0.0
7.222,0.165,-0.947,0.0
8.859,0.2,-0.913,0.0
8.484,0.191,-0.923,0.0
8.088,0.181,-0.927,0.0
7.753,0.172,-0.934,0.0
7.427,0.164,-0.938,0.0
7.169,0.158,-0.947,0.0
8.816,0.191,-0.917,0.0
8.449,0.182,-0.927,0.0
8.031,0.172,-0.928,0.0
7.713,0.164,-0.937,0.0
7.392,0.157,-0.94,0.0
7.138,0.15,-0.95,0.0
8.723,0.181,-0.915,0.0
8.326,0.172,-0.921,0.0
7.993,0.164,-0.93,0.0
7.65,0.156,-0.936,0.0
7.343,0.149,-0.94,0.0
7.093,0.143,-0.95,0.0
8.641,0.171,-0.914,0.0
8.266,0.163,-0.921,0.0
7.935,0.155,-0.93,0.0
7.587,0.147,-0.934,0.0
7.294,0.141,-0.94,0.0
7.065,0.135,-0.952,0.0
8.63,0.163,-0.919,0.0
8.243,0.154,-0.926,0.0
7.882,0.146,-0.93,0.0
7.555,0.139,-0.936,0.0
7.26,0.133,-0.942,0.0
7.045,0.128,-0.955,0.0
8.608,0.154,-0.924,0.0
8.196,0.145,-0.926,0.0
7.855,0.138,-0.933,0.0
7.482,0.131,-0.933,0.0
7.243,0.125,-0.945,0.0
6.981,0.12,-0.951,0.0
8.551,0.144,-0.924,0.0
8.139,0.136,-0.926,0.0
7.812,0.129,-0.933,0.0
7.456,0.123,-0.935,0.0
7.23,0.118,-0.948,0.0
6.932,0.112,-0.949,0.0
8.493,0.135,-0.923,0.0
8.093,0.127,-0.926,0.0
7.782,0.121,-0.935,0.0
7.466,0.115,-0.941,0.0
7.184,0.11,-0.947,0.0
6.934,0.105,-0.954,0.0
8.432,0.125,-0.922,0.0
8.058,0.118,-0.927,0.0
7.739,0.112,-0.935,0.0
7.426,0.107,-0.94,0.0
7.165,0.102,-0.949,0.0
6.893,0.097,-0.952,0.0
8.44,0.116,-0.928,0.0
8.026,0.109,-0.928,0.0
7.726,0.104,-0.938,0.0
7.388,0.098,-0.94,0.0
7.139,0.094,-0.949,0.0
6.855,0.089,-0.951,0.0
8.371,0.106,-0.924,0.0
7.998,0.1,-0.929,0.0
7.71,0.096,-0.94,0.0
7.377,0.09,-0.942,0.0
7.127,0.086,-0.951,0.0
6.812,0.081,-0.949,0.0
8.358,0.097,-0.927,0.0
7.978,0.092,-0.931,0.0
7.67,0.087,-0.939,0.0
7.342,0.082,-0.941,0.0
7.101,0.078,-0.951,0.0
6.819,0.074,-0.953,0.0
8.293,0.088,-0.924,0.0
7.951,0.083,-0.931,0.0
7.653,0.078,-0.94,0.0
7.313,0.074,-0.941,0.0
7.08,0.07,-0.951,0.0
6.807,0.066,-0.954,0.0
8.283,0.078,-0.926,0.0
7.917,0.074,-0.93,0.0
7.599,0.069,-0.936,0.0
7.318,0.066,-0.944,0.0
7.062,0.062,-0.952,0.0
6.798,0.059,-0.955,0.0
8.269,0.069,-0.928,0.0
7.911,0.065,-0.932,0.0
7.605,0.061,-0.94,0.0
7.277,0.057,-0.941,0.0
7.043,0.054,-0.952,0.0
6.788,0.051,-0.956,0.0
8.232,0.06,-0.926,0.0
7.928,0.056,-0.937,0.0
7.597,0.053,-0.941,0.0
7.286,0.049,-0.945,0.0
7.002,0.046,-0.948,0.0
6.774,0.043,-0.956,0.0
8.212,0.051,-0.926,0.0
7.875,0.047,-0.933,0.0
7.576,0.044,-0.94,0.0
7.259,0.041,-0.943,0.0
6.998,0.038,-0.949,0.0
6.765,0.036,-0.956,0.0
8.224,0.041,-0.929,0.0
7.871,0.038,-0.934,0.0
7.567,0.035,-0.941,0.0
7.257,0.033,-0.944,0.0
7.018,0.03,-0.953,0.0
6.733,0.028,-0.953,0.0
8.181,0.032,-0.926,0.0
7.859,0.029,-0.934,0.0
7.534,0.027,-0.938,0.0
7.248,0.024,-0.944,0.0
6.989,0.022,-0.95,0.0
6.725,0.02,-0.953,0.0
8.193,0.023,-0.928,0.0
7.855,0.021,-0.934,0.0
7.541,0.018,-0.94,0.0
7.245,0.016,-0.945,0.0
6.989,0.014,-0.951,0.0
6.755,0.013,-0.958,0.0
8.183,0.014,-0.928,0.0
7.842,0.012,-0.933,0.0
7.535,0.01,-0.939,0.0
7.232,0.008,-0.943,0.0
6.987,0.006,-0.951,0.0
6.764,0.005,-0.959,0.0
8.183,0.004,-0.928,0.0
7.864,0.003,-0.936,0.0
7.565,0.001,-0.943,0.0
0.0,0.0,0.0,0.0
6.971,-0.001,-0.949,0.0
6.747,-0.002,-0.957,0.0
8.183,-0.004,-0.928,0.0
7.86,-0.005,-0.936,0.0
7.534,-0.006,-0.939,0.0
7.249,-0.008,-0.946,0.0
6.985,-0.008,-0.951,0.0
6.723,-0.01,-0.953,0.0
8.186,-0.013,-0.928,0.0
7.853,-0.014,-0.934,0.0
7.544,-0.015,-0.94,0.0
7.234,-0.016,-0.943,0.0
7.007,-0.017,-0.953,0.0
6.744,-0.017,-0.956,0.0
8.166,-0.022,-0.925,0.0
7.852,-0.023,-0.933,0.0
7.525,-0.024,-0.937,0.0
7.233,-0.024,-0.942,0.0
7.0,-0.025,-0.951,0.0
6.741,-0.025,-0.954,0.0
8.161,-0.032,-0.923,0.0
7.884,-0.032,-0.936,0.0
7.561,-0.032,-0.94,0.0
7.229,-0.032,-0.94,0.0
7.03,-0.033,-0.954,0.0
6.764,-0.033,-0.956,0.0
8.218,-0.041,-0.928,0.0
7.89,-0.041,-0.935,0.0
7.59,-0.041,-0.942,0.0
7.282,-0.041,-0.946,0.0
7.056,-0.041,-0.956,0.0
6.812,-0.041,-0.962,0.0
8.157,-0.05,-0.919,0.0
7.892,-0.05,-0.934,0.0
7.596,-0.049,-0.941,0.0
7.285,-0.049,-0.944,0.0
7.057,-0.049,-0.954,0.0
6.802,-0.048,-0.958,0.0
8.247,-0.06,-0.927,0.0
7.901,-0.059,-0.932,0.0
7.603,-0.058,-0.94,0.0
7.325,-0.057,-0.947,0.0
7.072,-0.057,-0.954,0.0
6.818,-0.056,-0.958,0.0
8.27,-0.069,-0.927,0.0
7.953,-0.068,-0.936,0.0
7.618,-0.066,-0.939,0.0
7.311,-0.065,-0.943,0.0
7.057,-0.064,-0.95,0.0
6.81,-0.064,-0.955,0.0
8.29,-0.078,-0.926,0.0
7.958,-0.077,-0.933,0.0
7.649,-0.075,-0.94,0.0
7.364,-0.074,-0.947,0.0
7.074,-0.072,-0.949,0.0
6.805,-0.071,-0.951,0.0
8.338,-0.088,-0.928,0.0
7.98,-0.086,-0.932,0.0
7.666,-0.084,-0.938,0.0
7.368,-0.082,-0.944,0.0
7.094,-0.08,-0.948,0.0
6.844,-0.079,-0.953,0.0
8.378,-0.097,-0.929,0.0
7.996,-0.094,-0.93,0.0
7.694,-0.092,-0.938,0.0
7.386,-0.09,-0.942,0.0
7.12,-0.088,-0.948,0.0
6.874,-0.087,-0.954,0.0
8.378,-0.106,-0.924,0.0
8.072,-0.104,-0.935,0.0
7.736,-0.101,-0.939,0.0
7.423,-0.099,-0.943,0.0
7.173,-0.097,-0.951,0.0
6.894,-0.094,-0.953,0.0
8.427,-0.116,-0.925,0.0
8.1,-0.113,-0.934,0.0
7.763,-0.11,-0.938,0.0
7.414,-0.106,-0.938,0.0
7.193,-0.105,-0.95,0.0
6.916,-0.102,-0.952,0.0
8.485,-0.125,-0.926,0.0
8.146,-0.122,-0.934,0.0
7.794,-0.118,-0.937,0.0
7.486,-0.115,-0.942,0.0
7.199,-0.112,-0.946,0.0
6.93,-0.109,-0.949,0.0
8.528,-0.135,-0.925,0.0
8.149,-0.13,-0.929,0.0
7.854,-0.127,-0.939,0.0
7.542,-0.124,-0.944,0.0
7.242,-0.12,-0.947,0.0
6.97,-0.117,-0.95,0.0
8.605,-0.145,-0.928,0.0
8.211,-0.14,-0.931,0.0
7.89,-0.136,-0.938,0.0
7.581,-0.132,-0.944,0.0
7.276,-0.128,-0.946,0.0
6.995,-0.125,-0.948,0.0
8.659,-0.154,-0.927,0.0
8.258,-0.149,-0.93,0.0
7.926,-0.144,-0.936,0.0
7.616,-0.14,-0.942,0.0
7.354,-0.137,-0.95,0.0
7.049,-0.132,-0.95,0.0
8.713,-0.164,-0.926,0.0
8.271,-0.157,-0.925,0.0
7.979,-0.153,-0.936,0.0
7.657,-0.148,-0.941,0.0
7.361,-0.144,-0.945,0.0
7.108,-0.141,-0.952,0.0
8.769,-0.173,-0.925,0.0
8.358,-0.167,-0.928,0.0
8.04,-0.162,-0.936,0.0
7.727,-0.157,-0.943,0.0
7.41,-0.152,-0.945,0.0
7.019,-0.145,-0.934,0.0
8.821,-0.183,-0.923,0.0
8.44,-0.176,-0.929,0.0
8.074,-0.17,-0.933,0.0
7.764,-0.165,-0.941,0.0
7.455,-0.16,-0.944,0.0
7.208,-0.156,-0.953,0.0
8.864,-0.192,-0.92,0.0
8.522,-0.186,-0.931,0.0
8.136,-0.179,-0.933,0.0
7.799,-0.173,-0.938,0.0
7.523,-0.168,-0.946,0.0
7.237,-0.163,-0.95,0.0
8.982,-0.202,-0.923,0.0
8.582,-0.195,-0.929,0.0
8.221,-0.188,-0.935,0.0
7.907,-0.183,-0.943,0.0
7.608,-0.177,-0.949,0.0
7.289,-0.171,-0.949,0.0
9.056,-0.212,-0.922,0.0
8.664,-0.205,-0.93,0.0
8.258,-0.196,-0.931,0.0
7.925,-0.19,-0.937,0.0
7.652,-0.185,-0.947,0.0
7.358,-0.179,-0.951,0.0
9.144,-0.222,-0.922,0.0
8.719,-0.213,-0.926,0.0
8.337,-0.205,-0.931,0.0
7.964,-0.198,-0.934,0.0
7.694,-0.192,-0.944,0.0
7.413,-0.186,-0.95,0.0
9.239,-0.232,-0.922,0.0
8.799,-0.222,-0.926,0.0
8.381,-0.213,-0.927,0.0
8.05,-0.206,-0.935,0.0
7.764,-0.2,-0.944,0.0
7.433,-0.193,-0.945,0.0
9.326,-0.242,-0.921,0.0
8.842,-0.23,-0.92,0.0
8.511,-0.223,-0.932,0.0
8.139,-0.215,-0.936,0.0
7.812,-0.208,-0.941,0.0
7.491,-0.2,-0.943,0.0
9.447,-0.252,-0.922,0.0
8.962,-0.241,-0.923,0.0
8.578,-0.232,-0.93,0.0
8.195,-0.223,-0.933,0.0
7.896,-0.216,-0.942,0.0
7.592,-0.209,-0.947,0.0
9.52,-0.261,-0.918,0.0
9.06,-0.25,-0.922,0.0
8.67,-0.241,-0.929,0.0
8.293,-0.232,-0.935,0.0
7.963,-0.224,-0.941,0.0
7.65,-0.216,-0.945,0.0
9.638,-0.272,-0.918,0.0
9.184,-0.26,-0.924,0.0
8.763,-0.25,-0.929,0.0
8.382,-0.24,-0.934,0.0
8.036,-0.232,-0.939,0.0
7.735,-0.224,-0.946,0.0
9.741,-0.281,-0.915,0.0
9.287,-0.27,-0.923,0.0
8.855,-0.258,-0.927,0.0
8.455,-0.248,-0.932,0.0
8.107,-0.239,-0.937,0.0
7.807,-0.231,-0.945,0.0
9.851,-0.291,-0.913,0.0
9.426,-0.28,-0.924,0.0
8.949,-0.267,-0.926,0.0
8.568,-0.257,-0.933,0.0
8.186,-0.247,-0.936,0.0
7.868,-0.238,-0.942,0.0
9.987,-0.301,-0.913,0.0
9.502,-0.288,-0.919,0.0
9.093,-0.277,-0.929,0.0
8.664,-0.265,-0.932,0.0
8.291,-0.255,-0.937,0.0
7.957,-0.246,-0.942,0.0
10.124,-0.312,-0.912,0.0
9.614,-0.297,-0.917,0.0
9.172,-0.285,-0.924,0.0
8.763,-0.274,-0.931,0.0
8.394,-0.263,-0.937,0.0
8.038,-0.253,-0.941,0.0
10.225,-0.321,-0.907,0.0
9.752,-0.307,-0.917,0.0
9.284,-0.294,-0.923,0.0
8.836,-0.281,-0.926,0.0
8.494,-0.271,-0.936,0.0
8.109,-0.26,-0.937,0.0
10.411,-0.333,-0.909,0.0
9.871,-0.316,-0.915,0.0
9.44,-0.304,-0.925,0.0
8.933,-0.289,-0.924,0.0
8.578,-0.278,-0.933,0.0
8.212,-0.268,-0.937,0.0
10.575,-0.343,-0.908,0.0
10.035,-0.327,-0.915,0.0
9.522,-0.311,-0.919,0.0
9.073,-0.298,-0.925,0.0
8.7,-0.287,-0.933,0.0
8.317,-0.275,-0.937,0.0
10.694,-0.352,-0.903,0.0
10.157,-0.336,-0.911,0.0
9.665,-0.321,-0.919,0.0
9.199,-0.306,-0.924,0.0
8.798,-0.294,-0.931,0.0
8.419,-0.282,-0.936,0.0
10.842,-0.362,-0.899,0.0
10.272,-0.344,-0.906,0.0
9.795,-0.329,-0.916,0.0
9.38,-0.316,-0.929,0.0
8.892,-0.301,-0.928,0.0
8.547,-0.29,-0.937,0.0
11.053,-0.374,-0.9,0.0
10.486,-0.356,-0.909,0.0
9.95,-0.339,-0.916,0.0
9.472,-0.323,-0.923,0.0
9.045,-0.31,-0.929,0.0
8.649,-0.297,-0.935,0.0
11.246,-0.385,-0.898,0.0
10.629,-0.365,-0.905,0.0
10.114,-0.348,-0.915,0.0
9.614,-0.332,-0.922,0.0
9.176,-0.318,-0.929,0.0
8.759,-0.304,-0.933,0.0
11.417,-0.395,-0.894,0.0
10.783,-0.374,-0.901,0.0
10.263,-0.357,-0.912,0.0
9.76,-0.34,-0.92,0.0
9.337,-0.326,-0.93,0.0
8.855,-0.31,-0.929,0.0
11.648,-0.406,-0.894,0.0
11.045,-0.386,-0.906,0.0
10.428,-0.366,-0.91,0.0
9.902,-0.348,-0.918,0.0
9.458,-0.333,-0.926,0.0
9.005,-0.318,-0.93,0.0
11.827,-0.416,-0.888,0.0
11.202,-0.395,-0.9,0.0
10.606,-0.375,-0.908,0.0
10.076,-0.357,-0.917,0.0
9.578,-0.34,-0.923,0.0
9.133,-0.325,-0.928,0.0
12.064,-0.427,-0.886,0.0
11.403,-0.405,-0.898,0.0
10.795,-0.384,-0.907,0.0
10.215,-0.364,-0.913,0.0
9.737,-0.348,-0.922,0.0
9.275,-0.332,-0.927,0.0
12.238,-0.436,-0.879,0.0
11.618,-0.415,-0.895,0.0
10.984,-0.393,-0.904,0.0
10.359,-0.371,-0.908,0.0
9.9,-0.355,-0.92,0.0
9.423,-0.339,-0.926,0.0
12.515,-0.448,-0.877,0.0
11.787,-0.423,-0.888,0.0
11.188,-0.402,-0.902,0.0
10.561,-0.38,-0.908,0.0
10.069,-0.363,-0.919,0.0
9.577,-0.346,-0.924,0.0
12.659,-0.455,-0.866,0.0
12.108,-0.436,-0.892,0.0
11.332,-0.408,-0.894,0.0
10.731,-0.387,-0.904,0.0
10.234,-0.37,-0.916,0.0
9.72,-0.352,-0.921,0.0
13.027,-0.469,-0.869,0.0
12.249,-0.442,-0.881,0.0
11.62,-0.42,-0.897,0.0
10.981,-0.397,-0.906,0.0
10.394,-0.376,-0.912,0.0
9.883,-0.358,-0.919,0.0
13.252,-0.478,-0.861,0.0
12.499,-0.451,-0.877,0.0
11.778,-0.426,-0.888,0.0
11.179,-0.405,-0.903,0.0
10.59,-0.384,-0.911,0.0
10.081,-0.366,-0.92,0.0
13.693,-0.494,-0.865,0.0
12.691,-0.459,-0.868,0.0
12.019,-0.435,-0.885,0.0
11.34,-0.41,-0.895,0.0
10.829,-0.392,-0.912,0.0
10.225,-0.371,-0.915,0.0
13.924,-0.502,-0.855,0.0
12.936,-0.467,-0.862,0.0
12.239,-0.442,-0.879,0.0
11.644,-0.421,-0.899,0.0
11.008,-0.398,-0.907,0.0
10.421,-0.377,-0.914,0.0
14.379,-0.518,-0.857,0.0
13.28,-0.479,-0.861,0.0
12.541,-0.452,-0.878,0.0
11.769,-0.424,-0.887,0.0
11.196,-0.404,-0.902,0.0
10.622,-0.383,-0.912,0.0
14.704,-0.528,-0.85,0.0
13.739,-0.494,-0.866,0.0
12.742,-0.458,-0.869,0.0
12.086,-0.434,-0.889,0.0
11.371,-0.409,-0.896,0.0
10.826,-0.389,-0.909,0.0
15.147,-0.542,-0.848,0.0
13.996,-0.501,-0.856,0.0
13.024,-0.466,-0.865,0.0
12.262,-0.439,-0.879,0.0
11.663,-0.417,-0.897,0.0
11.026,-0.394,-0.906,0.0
15.554,-0.554,-0.842,0.0
14.453,-0.514,-0.858,0.0
13.449,-0.479,-0.868,0.0
12.53,-0.446,-0.876,0.0
11.896,-0.423,-0.893,0.0
11.209,-0.399,-0.9,0.0
15.937,-0.564,-0.834,0.0
14.786,-0.523,-0.85,0.0
13.778,-0.487,-0.864,0.0
12.818,-0.453,-0.872,0.0
12.136,-0.429,-0.889,0.0
11.493,-0.406,-0.901,0.0
16.446,-0.578,-0.83,0.0
15.258,-0.536,-0.849,0.0
14.141,-0.496,-0.86,0.0
13.068,-0.458,-0.864,0.0
12.339,-0.432,-0.88,0.0
11.692,-0.409,-0.895,0.0
16.905,-0.589,-0.822,0.0
15.655,-0.545,-0.842,0.0
14.527,-0.505,-0.857,0.0
13.558,-0.471,-0.872,0.0
12.606,-0.437,-0.876,0.0
11.971,-0.415,-0.894,0.0
17.689,-0.61,-0.827,0.0
16.084,-0.554,-0.835,0.0
14.862,-0.511,-0.849,0.0
13.887,-0.477,-0.867,0.0
12.932,-0.444,-0.874,0.0
12.175,-0.417,-0.887,0.0
17.852,-0.609,-0.801,0.0
16.619,-0.566,-0.832,0.0
15.343,-0.522,-0.847,0.0
14.219,-0.483,-0.861,0.0
13.224,-0.449,-0.869,0.0
12.422,-0.421,-0.881,0.0
18.802,-0.633,-0.808,0.0
17.086,-0.575,-0.823,0.0
15.732,-0.528,-0.839,0.0
14.57,-0.488,-0.854,0.0
13.498,-0.452,-0.862,0.0
12.669,-0.423,-0.875,0.0
19.313,-0.642,-0.794,0.0
17.766,-0.589,-0.822,1.0
16.243,-0.538,-0.836,0.0
14.961,-0.494,-0.849,0.0
13.984,-0.461,-0.866,0.0
12.838,-0.422,-0.862,0.0
17.792,-0.582,-0.698,1.0
17.842,-0.583,-0.792,1.0
16.748,-0.546,-0.83,0.0
15.418,-0.501,-0.846,0.0
14.394,-0.467,-0.864,0.0
13.279,-0.43,-0.866,0.0
17.794,-0.573,-0.664,9.0
17.842,-0.573,-0.759,1.0
17.549,-0.562,-0.837,0.0
15.93,-0.509,-0.844,0.0
14.695,-0.468,-0.855,0.0
13.699,-0.435,-0.868,0.0
17.823,-0.563,-0.632,29.0
17.793,-0.561,-0.723,10.0
17.765,-0.558,-0.814,2.0
0.0,0.0,0.0,0.0
15.157,-0.474,-0.853,0.0
14.078,-0.439,-0.865,0.0
17.798,-0.552,-0.597,8.0
17.777,-0.549,-0.688,154.0
17.801,-0.548,-0.782,2.0
17.618,-0.541,-0.867,2.0
17.855,-0.547,-0.971,0.0
14.498,-0.442,-0.864,0.0
17.832,-0.541,-0.565,1.0
17.764,-0.537,-0.655,158.0
17.781,-0.536,-0.747,5.0
17.673,-0.531,-0.836,0.0
17.793,-0.532,-0.934,0.0
14.822,-0.442,-0.855,0.0
17.824,-0.528,-0.531,0.0
17.767,-0.525,-0.621,155.0
17.804,-0.524,-0.715,151.0
17.779,-0.521,-0.808,3.0
17.648,-0.515,-0.893,5.0
17.801,-0.518,-0.993,0.0
25.092,-0.725,-0.701,0.0
17.813,-0.512,-0.589,16.0
17.757,-0.509,-0.68,158.0
17.785,-0.508,-0.775,8.0
17.667,-0.502,-0.861,2.0
17.828,-0.505,-0.962,0.0
25.944,-0.73,-0.676,0.0
17.831,-0.499,-0.557,4.0
17.754,-0.495,-0.646,156.0
17.759,-0.492,-0.74,14.0
17.708,-0.489,-0.83,3.0
0.0,0.0,0.0,0.0
27.282,-0.745,-0.66,0.0
24.369,-0.662,-0.715,0.0
17.814,-0.481,-0.615,150.0
17.804,-0.479,-0.709,150.0
17.776,-0.476,-0.8,4.0
17.6,-0.469,-0.883,1.0
28.831,-0.763,-0.644,0.0
25.457,-0.67,-0.7,0.0
22.406,-0.586,-0.732,0.0
17.812,-0.463,-0.676,150.0
17.796,-0.461,-0.768,6.0
17.298,-0.445,-0.836,0.0
29.505,-0.754,-0.604,0.0
26.259,-0.667,-0.673,0.0
23.676,-0.598,-0.73,0.0
21.171,-0.531,-0.764,0.0
0.0,0.0,0.0,0.0
17.746,-0.44,-0.825,1.0
31.548,-0.777,-0.588,0.0
27.83,-0.681,-0.662,0.0
21.723,-0.528,-0.629,0.0
21.67,-0.523,-0.742,3.0
20.036,-0.481,-0.791,0.0
18.026,-0.43,-0.804,0.0
0.0,0.0,0.0,0.0
28.963,-0.68,-0.636,0.0
21.738,-0.507,-0.59,88.0
21.719,-0.503,-0.704,4.0
20.566,-0.473,-0.774,0.0
19.028,-0.435,-0.815,0.0
34.878,-0.79,-0.522,0.0
28.92,-0.65,-0.583,0.0
21.726,-0.485,-0.55,152.0
21.703,-0.481,-0.665,48.0
21.493,-0.473,-0.77,2.0
19.588,-0.427,-0.803,0.0
0.0,0.0,0.0,0.0
0.0,0.0,0.0,0.0
21.73,-0.462,-0.511,11.0
21.661,-0.457,-0.624,160.0
21.689,-0.453,-0.738,9.0
20.086,-0.417,-0.788,1.0
0.0,0.0,0.0,0.0
33.265,-0.677,-0.551,0.0
21.734,-0.439,-0.473,0.0
21.712,-0.434,-0.587,155.0
21.715,-0.43,-0.7,4.0
20.639,-0.405,-0.773,0.0
0.0,0.0,0.0,0.0
35.337,-0.68,-0.523,0.0
30.603,-0.583,-0.611,0.0
21.719,-0.41,-0.549,1.0
21.732,-0.406,-0.662,3.0
21.586,-0.399,-0.77,3.0
0.0,0.0,0.0,0.0
0.0,0.0,0.0,0.0
31.843,-0.57,-0.58,0.0
28.074,-0.497,-0.661,0.0
24.828,-0.435,-0.713,0.0
21.837,-0.378,-0.741,2.0
0.0,0.0,0.0,0.0
0.0,0.0,0.0,0.0
33.219,-0.556,-0.548,0.0
29.54,-0.488,-0.644,0.0
25.81,-0.421,-0.697,0.0
22.769,-0.367,-0.733,0.0
0.0,0.0,0.0,0.0
0.0,0.0,0.0,0.0
0.0,0.0,0.0,0.0
30.372,-0.464,-0.609,0.0
26.682,-0.402,-0.674,0.0
23.861,-0.354,-0.727,0.0
0.0,0.0,0.0,0.0
0.0,0.0,0.0,0.0
0.0,0.0,0.0,0.0
31.246,-0.438,-0.573,0.0
28.16,-0.389,-0.664,0.0
24.819,-0.337,-0.714,0.0
0.0,0.0,0.0,0.0
49.187,-0.646,-0.302,0.0
0.0,0.0,0.0,0.0
32.999,-0.419,-0.549,0.0
28.979,-0.362,-0.634,0.0
25.678,-0.315,-0.695,0.0
94.811,-1.143,0.068,2.0
0.0,0.0,0.0,0.0
0.0,0.0,0.0,0.0
35.144,-0.4,-0.527,0.0
29.71,-0.331,-0.6,0.0
26.855,-0.293,-0.683,3.0
0.0,0.0,0.0,0.0
0.0,0.0,0.0,0.0
0.0,0.0,0.0,0.0
19.779,-0.198,-0.264,3.0
19.767,-0.193,-0.367,8.0
19.763,-0.188,-0.47,7.0
0.0,0.0,0.0,0.0
0.0,0.0,0.0,0.0
19.777,-0.175,-0.126,8.0
19.747,-0.17,-0.231,12.0
19.751,-0.165,-0.334,14.0
19.755,-0.161,-0.438,20.0
0.0,0.0,0.0,0.0
19.772,-0.151,0.008,1.0
19.727,-0.146,-0.094,11.0
19.718,-0.141,-0.199,15.0
19.736,-0.137,-0.303,16.0
19.732,-0.132,-0.406,17.0
19.786,-0.128,0.143,2.0
19.742,-0.122,0.039,9.0
19.749,-0.118,-0.063,8.0
19.706,-0.113,-0.168,16.0
19.728,-0.108,-0.271,16.0
19.749,-0.103,-0.375,15.0
19.718,-0.098,0.173,16.0
19.714,-0.093,0.07,13.0
19.717,-0.088,-0.032,14.0
19.702,-0.083,-0.137,17.0
19.744,-0.078,-0.241,15.0
19.748,-0.074,-0.345,14.0
19.684,-0.069,0.204,14.0
19.704,-0.064,0.101,16.0
19.696,-0.059,-0.002,15.0
19.711,-0.054,-0.107,13.0
19.736,-0.049,-0.211,14.0
19.769,-0.044,-0.315,2.0
19.654,-0.038,0.233,14.0
19.688,-0.033,0.13,10.0
19.702,-0.028,0.027,15.0
19.729,-0.023,-0.077,9.0
19.77,-0.018,-0.181,2.0
35.189,-0.023,-0.508,0.0
19.632,-0.008,0.263,14.0
19.736,-0.002,0.16,6.0
19.799,0.002,0.057,3.0
19.74,0.007,-0.048,9.0
19.782,0.012,-0.152,1.0
19.785,0.017,-0.256,1.0
19.621,0.022,0.291,15.0
19.677,0.028,0.188,15.0
19.749,0.033,0.085,11.0
19.757,0.038,-0.02,19.0
19.751,0.043,-0.124,16.0
19.764,0.049,-0.228,42.0
19.618,0.053,0.319,13.0
19.616,0.059,0.216,15.0
19.695,0.064,0.113,16.0
19.743,0.07,0.007,42.0
19.772,0.075,-0.096,23.0
19.76,0.081,-0.2,15.0
19.615,0.086,0.347,17.0
19.616,0.091,0.244,16.0
19.649,0.096,0.14,12.0
19.654,0.102,0.035,11.0
19.676,0.107,-0.068,8.0
19.673,0.113,-0.172,0.0
19.609,0.118,0.374,15.0
19.614,0.123,0.27,11.0
19.658,0.129,0.167,15.0
19.631,0.134,0.061,13.0
19.635,0.14,-0.041,16.0
19.656,0.145,-0.145,13.0
19.622,0.151,0.401,12.0
19.64,0.156,0.297,11.0
19.658,0.162,0.193,13.0
19.64,0.167,0.087,11.0
19.639,0.173,-0.016,15.0
19.647,0.178,-0.12,16.0
19.665,0.184,0.427,10.0
19.688,0.19,0.323,9.0
19.714,0.196,0.22,10.0
19.69,0.201,0.113,10.0
19.661,0.206,0.009,13.0
19.644,0.212,-0.094,16.0
19.706,0.218,0.453,10.0
19.717,0.224,0.349,11.0
19.73,0.23,0.245,13.0
19.756,0.235,0.138,26.0
19.698,0.241,0.033,0.0
19.653,0.245,-0.07,9.0
19.674,0.252,0.477,12.0
19.695,0.258,0.373,12.0
19.718,0.264,0.269,12.0
19.746,0.27,0.163,13.0
0.0,0.0,0.0,0.0
53.075,0.757,-0.124,1.0
19.68,0.287,0.501,14.0
19.694,0.292,0.397,11.0
19.734,0.298,0.293,3.0
163.343,2.521,1.543,15.0
113.434,1.783,0.469,1.0
55.205,0.884,-0.065,22.0
55.212,0.902,1.473,12.0
55.192,0.918,1.179,28.0
55.164,0.933,0.884,56.0
55.162,0.949,0.585,67.0
55.16,0.965,0.292,81.0
55.153,0.98,-0.001,57.0
55.178,0.999,1.535,59.0
55.176,1.015,1.241,47.0
55.186,1.031,0.947,34.0
55.184,1.048,0.648,14.0
113.577,2.191,0.729,11.0
55.298,1.082,0.059,3.0
134.851,2.686,3.904,17.0
185.608,3.752,4.383,7.0
179.285,3.678,3.278,23.0
128.669,2.678,1.653,16.0
113.807,2.401,0.854,11.0
0.0,0.0,0.0,0.0
135.149,2.939,4.059,19.0
135.218,2.979,3.339,16.0
179.181,4.002,3.468,29.0
128.63,2.909,1.788,31.0
70.887,1.624,0.606,12.0
74.588,1.731,0.24,4.0
135.413,3.191,4.209,7.0
99.123,2.365,2.551,20.0
99.561,2.406,2.03,93.0
99.281,2.429,1.483,5.0
70.854,1.754,0.679,32.0
70.625,1.77,0.299,22.0
45.499,1.157,1.461,36.0
0.0,0.0,0.0,0.0
0.0,0.0,0.0,0.0
0.0,0.0,0.0,0.0
0.0,0.0,0.0,0.0
0.0,0.0,0.0,0.0
41.925,1.144,1.387,150.0
0.0,0.0,0.0,0.0
0.0,0.0,0.0,0.0
0.0,0.0,0.0,0.0
0.0,0.0,0.0,0.0
40.12,1.154,0.246,150.0
40.123,1.169,1.365,144.0
40.123,1.181,1.149,150.0
40.118,1.192,0.933,150.0
40.118,1.204,0.714,150.0
40.12,1.216,0.498,143.0
40.122,1.228,0.283,120.0
40.123,1.244,1.401,143.0
40.116,1.255,1.185,150.0
40.119,1.268,0.969,150.0
40.111,1.28,0.749,150.0
40.11,1.292,0.533,150.0
40.124,1.304,0.317,150.0
40.115,1.32,1.436,8.0
121.073,4.021,3.682,16.0
121.494,4.071,3.04,15.0
165.56,5.596,3.233,4.0
70.815,2.414,1.001,3.0
71.12,2.446,0.622,22.0
120.407,4.19,4.41,18.0
121.056,4.25,3.781,16.0
163.387,5.783,4.221,8.0
45.014,1.606,0.915,3.0
44.984,1.619,0.672,91.0
44.914,1.63,0.428,150.0
120.394,4.421,4.507,13.0
162.691,6.021,5.209,12.0
42.754,1.595,1.138,75.0
42.063,1.581,0.888,82.0
41.832,1.585,0.656,76.0
41.757,1.595,0.43,150.0
178.636,6.901,6.822,16.0
162.701,6.332,5.331,8.0
40.383,1.583,1.104,121.0
40.384,1.596,0.882,112.0
40.391,1.608,0.663,150.0
40.396,1.621,0.445,151.0
178.689,7.248,6.952,18.0
162.663,6.646,5.447,4.0
45.208,1.86,1.268,12.0
100.466,4.163,2.264,6.0
23.628,0.986,0.404,0.0
23.626,0.993,0.276,13.0
23.622,1.003,0.935,31.0
23.615,1.01,0.806,39.0
23.607,1.016,0.678,43.0
23.598,1.023,0.547,45.0
23.605,1.031,0.419,44.0
23.584,1.037,0.291,54.0
23.583,1.047,0.948,70.0
23.577,1.054,0.82,75.0
23.588,1.061,0.692,113.0
23.584,1.068,0.561,72.0
23.595,1.075,0.433,71.0
23.587,1.082,0.305,69.0
23.58,1.093,0.962,71.0
23.582,1.1,0.834,52.0
23.589,1.107,0.706,44.0
23.606,1.114,0.575,40.0
23.616,1.122,0.447,39.0
23.626,1.129,0.319,40.0
23.604,1.139,0.977,14.0
23.602,1.146,0.848,4.0
23.628,1.154,0.72,0.0
23.636,1.161,0.589,0.0
45.358,2.242,0.883,0.0
45.227,2.249,0.634,1.0
179.578,9.018,7.527,20.0
180.508,9.114,6.579,10.0
163.26,8.292,5.059,14.0
45.205,2.309,1.149,0.0
0.0,0.0,0.0,0.0
0.0,0.0,0.0,0.0
180.081,9.389,7.635,16.0
180.514,9.464,6.666,17.0
0.0,0.0,0.0,0.0
45.204,2.396,1.17,66.0
45.203,2.408,0.923,76.0
45.224,2.422,0.676,9.0
181.433,9.81,7.772,6.0
180.627,9.818,6.748,18.0
162.731,8.89,5.189,10.0
45.231,2.483,1.189,1.0
45.139,2.491,0.94,0.0
45.16,2.506,0.693,2.0
204.378,11.445,8.838,7.0
198.831,11.188,7.506,17.0
162.629,9.197,5.248,17.0
45.152,2.566,1.205,4.0
0.0,0.0,0.0,0.0
99.236,5.696,1.56,4.0
203.99,11.814,8.895,10.0
199.284,11.594,7.593,7.0
162.565,9.502,5.302,10.0
45.191,2.653,1.221,82.0
45.217,2.668,0.973,150.0
112.014,6.64,1.797,50.0
198.466,11.87,8.718,12.0
197.482,11.862,7.587,19.0
162.677,9.815,5.355,10.0
45.192,2.739,1.234,5.0
133.279,8.116,2.908,32.0
45.129,2.761,0.737,0.0
198.741,12.261,8.786,16.0
197.645,12.247,7.647,8.0
112.169,6.98,3.722,2.0
45.179,2.824,1.246,8.0
112.442,7.058,2.482,20.0
112.431,7.09,1.863,24.0
100.593,6.396,4.471,6.0
100.335,6.408,3.906,10.0
100.033,6.414,3.342,20.0
45.19,2.909,1.256,27.0
45.197,2.922,1.007,97.0
45.204,2.935,0.758,96.0
99.961,6.543,4.463,38.0
99.959,6.569,3.91,36.0
99.951,6.595,3.358,40.0
44.599,2.955,1.247,40.0
44.433,2.955,0.997,87.0
44.382,2.964,0.752,102.0
99.971,6.733,4.48,33.0
99.973,6.758,3.927,37.0
99.969,6.784,3.373,37.0
43.262,2.947,1.216,58.0
43.147,2.951,0.974,67.0
41.197,2.829,0.703,4.0
99.967,6.92,4.492,33.0
99.955,6.943,3.937,38.0
99.976,6.971,3.385,36.0
41.909,2.933,1.183,81.0
41.12,2.889,0.933,89.0
41.655,2.938,0.714,77.0
45.449,3.23,2.046,6.0
45.448,3.241,1.794,53.0
45.478,3.255,1.543,144.0
40.693,2.922,1.151,79.0
40.44,2.915,0.919,84.0
40.382,2.921,0.695,78.0
45.467,3.314,2.049,150.0
45.47,3.326,1.796,127.0
0.0,0.0,0.0,0.0
45.456,3.348,1.286,47.0
45.476,3.361,1.035,3.0
43.687,3.24,0.752,95.0
43.681,3.264,1.968,136.0
43.684,3.275,1.726,150.0
43.686,3.286,1.483,150.0
43.691,3.298,1.236,150.0
43.693,3.308,0.993,145.0
43.702,3.321,0.751,126.0
0.0,0.0,0.0,0.0
0.0,0.0,0.0,0.0
41.894,3.226,1.42,9.0
41.877,3.236,1.183,55.0
41.892,3.248,0.95,128.0
41.89,3.258,0.717,130.0
41.889,3.281,1.883,130.0
41.893,3.291,1.65,150.0
41.893,3.302,1.417,131.0
41.899,3.312,1.179,121.0
41.9,3.322,0.946,113.0
41.902,3.333,0.713,107.0
40.093,3.211,1.798,8.0
40.075,3.219,1.574,58.0
40.108,3.232,1.352,104.0
40.099,3.24,1.123,119.0
40.09,3.249,0.9,150.0
40.096,3.26,0.677,138.0
40.09,3.281,1.792,150.0
40.087,3.29,1.568,150.0
40.1,3.3,1.344,128.0
40.086,3.309,1.116,150.0
40.092,3.319,0.893,126.0
40.099,3.329,0.669,103.0
40.088,3.351,1.785,141.0
40.089,3.359,1.561,144.0
40.101,3.37,1.337,120.0
40.082,3.378,1.108,150.0
40.104,3.389,0.885,106.0
40.101,3.398,0.661,103.0
40.08,3.418,1.775,3.0
87.079,7.447,3.37,17.0
87.129,7.471,2.885,5.0
75.204,6.465,2.062,7.0
74.996,6.465,1.636,9.0
74.872,6.471,1.215,9.0
87.078,7.576,3.836,14.0
87.122,7.598,3.35,11.0
73.706,6.444,2.42,3.0
73.705,6.461,2.0,9.0
73.611,6.47,1.585,10.0
73.547,6.48,1.172,10.0
82.98,7.357,3.631,3.0
82.971,7.375,3.165,4.0
72.504,6.46,2.359,8.0
72.442,6.47,1.943,8.0
72.353,6.478,1.535,10.0
72.214,6.482,1.128,9.0
82.927,7.49,3.601,62.0
82.933,7.508,3.135,150.0
71.284,6.468,2.295,8.0
71.132,6.469,1.883,12.0
71.058,6.478,1.482,12.0
70.972,6.486,1.083,11.0
82.954,7.627,3.572,8.0
82.95,7.643,3.106,4.0
70.011,6.465,2.227,9.0
69.957,6.475,1.825,10.0
69.882,6.482,1.431,9.0
69.797,6.49,1.037,8.0
85.903,8.034,3.665,7.0
85.754,8.038,3.176,6.0
68.875,6.469,2.163,9.0
68.812,6.477,1.767,8.0
68.704,6.481,1.378,8.0
68.615,6.487,0.991,8.0
84.855,8.069,3.583,9.0
84.358,8.038,3.087,4.0
67.808,6.474,2.099,9.0
67.682,6.476,1.707,7.0
67.588,6.481,1.325,9.0
67.515,6.488,0.944,11.0
83.645,8.084,3.493,10.0
66.714,6.46,2.409,4.0
66.635,6.465,2.031,9.0
66.625,6.477,1.649,11.0
66.589,6.487,1.272,10.0
66.531,6.494,0.897,10.0
75.119,7.373,3.099,3.0
65.773,6.468,2.342,5.0
65.707,6.474,1.969,7.0
65.652,6.481,1.59,10.0
65.591,6.487,1.219,10.0
65.509,6.493,0.849,11.0
75.056,7.479,3.056,20.0
64.802,6.468,2.273,8.0
64.8,6.479,1.906,8.0
64.744,6.486,1.533,12.0
64.643,6.488,1.166,8.0
64.549,6.491,0.8,8.0
75.021,7.584,3.012,8.0
63.985,6.479,2.207,6.0
63.873,6.479,1.842,6.0
63.83,6.487,1.474,10.0
63.746,6.49,1.111,10.0
63.732,6.501,0.752,10.0
75.148,7.704,2.972,1.0
63.077,6.477,2.138,10.0
63.063,6.486,1.78,11.0
63.004,6.492,1.416,10.0
62.984,6.501,1.059,12.0
62.935,6.508,0.703,14.0
70.989,7.377,2.763,1.0
62.263,6.48,2.07,6.0
62.221,6.486,1.717,10.0
62.207,6.495,1.358,10.0
62.208,6.505,1.007,13.0
62.176,6.513,0.654,13.0
61.496,6.473,2.353,3.0
61.471,6.48,2.004,9.0
61.478,6.49,1.656,10.0
61.431,6.496,1.3,10.0
61.43,6.506,0.953,12.0
61.405,6.514,0.605,11.0
60.777,6.477,2.284,2.0
60.772,6.486,1.939,4.0
60.727,6.491,1.594,7.0
60.694,6.497,1.242,6.0
60.677,6.505,0.898,4.0
60.552,6.503,0.553,4.0
60.028,6.475,2.213,1.0
60.006,6.481,1.872,6.0
59.982,6.487,1.531,8.0
59.932,6.492,1.183,5.0
59.944,6.502,0.843,5.0
59.824,6.499,0.503,1.0
59.423,6.484,2.147,3.0
59.343,6.483,1.807,5.0
59.345,6.492,1.47,6.0
59.33,6.499,1.127,6.0
59.261,6.501,0.789,6.0
59.22,6.506,0.452,4.0
58.786,6.485,2.079,9.0
58.785,6.493,1.744,10.0
58.747,6.498,1.409,9.0
58.715,6.502,1.069,7.0
58.709,6.511,0.736,8.0
58.66,6.514,0.402,3.0
58.152,6.484,2.01,8.0
58.157,6.493,1.679,8.0
58.159,6.5,1.349,10.0
58.129,6.505,1.011,12.0
58.115,6.512,0.681,10.0
58.08,6.517,0.35,3.0
57.569,6.486,1.942,7.0
57.611,6.497,1.616,8.0
57.615,6.505,1.288,9.0
57.58,6.509,0.954,9.0
57.569,6.517,0.626,11.0
51.456,5.832,0.267,1.0
57.041,6.489,1.876,8.0
57.088,6.501,1.553,9.0
57.078,6.507,1.228,9.0
57.09,6.516,0.897,11.0
57.051,6.519,0.571,9.0
51.4,5.881,0.223,18.0
56.53,6.491,1.81,11.0
56.541,6.499,1.488,10.0
56.56,6.508,1.167,12.0
56.579,6.517,0.839,13.0
56.548,6.52,0.517,11.0
46.644,5.385,0.161,2.0
56.033,6.491,1.745,12.0
56.06,6.5,1.426,13.0
56.073,6.508,1.107,12.0
56.082,6.516,0.782,14.0
56.078,6.522,0.463,10.0
46.458,5.409,0.118,10.0
55.631,6.499,1.681,12.0
55.628,6.505,1.364,15.0
55.644,6.512,1.047,15.0
55.645,6.519,0.724,14.0
55.632,6.524,0.407,12.0
45.896,5.388,0.074,20.0
55.18,6.498,1.617,10.0
55.177,6.503,1.302,12.0
55.201,6.511,0.988,13.0
55.197,6.517,0.668,12.0
55.177,6.521,0.353,13.0
45.097,5.335,0.031,20.0
54.76,6.497,1.553,12.0
54.763,6.503,1.241,13.0
54.758,6.508,0.928,13.0
54.78,6.516,0.609,14.0
54.739,6.517,0.297,5.0
43.993,5.243,-0.011,18.0
54.386,6.5,1.489,11.0
54.379,6.504,1.179,13.0
54.38,6.509,0.868,14.0
54.356,6.512,0.552,11.0
54.36,6.518,0.241,1.0
40.375,4.846,-0.051,4.0
54.029,6.502,1.426,12.0
54.027,6.506,1.117,14.0
54.048,6.513,0.808,11.0
54.012,6.514,0.494,10.0
46.017,5.554,0.158,1.0
214.744,25.946,-0.488,108.0
53.68,6.502,1.362,14.0
53.718,6.51,1.056,15.0
53.713,6.514,0.75,15.0
53.694,6.516,0.436,12.0
46.113,5.601,0.112,19.0
0.0,0.0,0.0,0.0
53.383,6.504,1.3,11.0
53.384,6.509,0.995,12.0
53.395,6.514,0.69,11.0
53.406,6.52,0.38,9.0
0.0,0.0,0.0,0.0
18.047,2.206,-0.077,7.0
53.109,6.508,1.239,11.0
53.109,6.511,0.935,11.0
53.129,6.517,0.632,13.0
53.136,6.522,0.323,10.0
42.055,5.166,0.014,1.0
18.062,2.22,-0.096,16.0
52.833,6.508,1.177,12.0
52.854,6.514,0.875,14.0
52.881,6.52,0.573,13.0
52.846,6.52,0.265,3.0
18.033,2.226,-0.012,5.0
18.057,2.23,-0.115,13.0
52.606,6.511,1.116,12.0
52.635,6.518,0.815,13.0
52.635,6.521,0.514,13.0
42.77,5.302,0.168,3.0
18.019,2.235,-0.031,14.0
33.202,4.121,-0.248,2.0
52.384,6.513,1.055,11.0
52.411,6.519,0.756,11.0
52.404,6.521,0.455,12.0
18.01,2.242,0.051,2.0
18.028,2.245,-0.051,15.0
33.041,4.118,-0.283,7.0
52.154,6.511,0.994,9.0
52.176,6.516,0.695,13.0
52.199,6.522,0.397,12.0
17.996,2.249,0.032,12.0
17.777,2.223,-0.07,9.0
32.795,4.103,-0.317,5.0
52.006,6.516,0.934,9.0
52.015,6.52,0.637,11.0
17.997,2.256,0.117,0.0
17.993,2.257,0.012,16.0
35.203,4.418,-0.177,3.0
16.528,2.075,-0.177,10.0
51.848,6.518,0.874,11.0
51.859,6.521,0.577,8.0
17.978,2.261,0.097,6.0
18.0,2.265,-0.007,13.0
16.573,2.086,-0.101,13.0
30.439,3.834,-0.361,8.0
51.701,6.519,0.814,13.0
51.724,6.524,0.518,10.0
17.984,2.269,0.077,14.0
18.022,2.274,-0.027,7.0
32.679,4.125,-0.237,7.0
29.616,3.74,-0.385,7.0
51.585,6.522,0.754,11.0
17.976,2.273,0.159,2.0
17.998,2.276,0.057,15.0
35.874,4.538,-0.095,4.0
32.571,4.122,-0.273,6.0
27.849,3.526,-0.393,4.0
51.481,6.523,0.695,11.0
17.974,2.277,0.139,8.0
17.999,2.281,0.036,14.0
35.617,4.515,-0.135,13.0
16.568,2.101,-0.157,12.0
27.317,3.465,-0.416,7.0
51.405,6.525,0.636,11.0
17.975,2.282,0.119,14.0
18.006,2.286,0.016,8.0
35.003,4.445,-0.172,12.0
16.534,2.1,-0.176,12.0
16.637,2.114,-0.272,13.0
17.966,2.284,0.201,1.0
17.989,2.287,0.099,16.0
40.151,5.105,-0.009,6.0
16.556,2.105,-0.1,12.0
16.542,2.104,-0.195,7.0
16.896,2.15,-0.296,18.0
17.957,2.285,0.181,5.0
17.984,2.289,0.078,15.0
38.423,4.89,-0.052,7.0
16.553,2.107,-0.119,16.0
16.538,2.105,-0.214,8.0
16.872,2.148,-0.315,17.0
17.97,2.289,0.16,11.0
17.996,2.292,0.057,12.0
35.776,4.557,-0.09,10.0
16.547,2.107,-0.138,13.0
16.578,2.112,-0.233,6.0
16.799,2.14,-0.333,17.0
17.961,2.288,0.14,14.0
18.008,2.294,0.037,8.0
35.52,4.525,-0.13,19.0
16.57,2.111,-0.157,17.0
16.604,2.115,-0.252,13.0
16.727,2.131,-0.35,16.0
17.982,2.291,0.119,18.0
18.015,2.295,0.016,4.0
34.998,4.458,-0.167,12.0
16.526,2.105,-0.175,13.0
16.621,2.117,-0.271,20.0
16.626,2.118,-0.367,16.0
17.987,2.291,0.099,18.0
40.116,5.109,-0.008,11.0
34.671,4.415,-0.205,7.0
16.526,2.104,-0.194,7.0
16.907,2.153,-0.295,18.0
16.556,2.108,-0.384,17.0
17.986,2.289,0.079,15.0
38.377,4.884,-0.051,8.0
16.554,2.106,-0.116,15.0
29.319,3.73,-0.378,2.0
16.894,2.149,-0.314,15.0
16.515,2.101,-0.402,16.0
17.992,2.287,0.059,15.0
35.878,4.56,-0.087,10.0
32.438,4.122,-0.265,3.0
27.719,3.522,-0.388,2.0
16.925,2.15,-0.334,16.0
16.483,2.094,-0.42,16.0
18.002,2.285,0.038,13.0
35.615,4.52,-0.127,14.0
16.57,2.102,-0.154,12.0
27.336,3.468,-0.413,7.0
16.803,2.131,-0.35,13.0
16.466,2.088,-0.438,16.0
18.011,2.282,0.018,12.0
35.331,4.476,-0.165,12.0
16.529,2.093,-0.172,11.0
26.947,3.412,-0.438,7.0
16.705,2.115,-0.367,13.0
16.421,2.078,-0.455,16.0
18.016,2.278,-0.001,11.0
16.589,2.097,-0.096,16.0
30.356,3.836,-0.35,3.0
17.438,2.203,-0.303,10.0
16.639,2.101,-0.384,16.0
16.371,2.067,-0.472,16.0
18.015,2.272,-0.021,10.0
32.825,4.138,-0.227,10.0
29.739,3.748,-0.376,8.0
17.226,2.17,-0.318,14.0
16.576,2.088,-0.401,16.0
16.325,2.056,-0.488,16.0
18.034,2.268,-0.04,9.0
32.844,4.128,-0.262,11.0
28.474,3.578,-0.39,7.0
17.107,2.148,-0.334,16.0
16.523,2.075,-0.417,17.0
16.3,2.046,-0.505,17.0
0.0,0.0,0.0,0.0
32.825,4.112,-0.297,6.0
27.475,3.44,-0.406,7.0
17.044,2.133,-0.351,15.0
16.49,2.063,-0.434,17.0
16.276,2.036,-0.522,17.0
18.008,2.249,-0.079,9.0
16.522,2.062,-0.167,9.0
26.621,3.321,-0.422,4.0
16.891,2.106,-0.366,14.0
16.464,2.052,-0.451,17.0
16.246,2.024,-0.538,16.0
18.052,2.245,-0.099,10.0
30.628,3.807,-0.342,9.0
17.605,2.187,-0.297,5.0
16.763,2.081,-0.381,14.0
16.412,2.037,-0.467,18.0
16.243,2.015,-0.555,15.0
18.062,2.236,-0.117,12.0
30.015,3.714,-0.368,8.0
17.34,2.144,-0.311,12.0
16.722,2.067,-0.397,15.0
16.387,2.024,-0.483,19.0
16.225,2.004,-0.572,15.0
18.071,2.227,-0.136,14.0
0.0,0.0,0.0,0.0
17.212,2.118,-0.327,14.0
16.657,2.049,-0.413,14.0
16.353,2.01,-0.499,16.0
16.196,1.99,-0.587,15.0
18.081,2.216,-0.155,15.0
27.91,3.419,-0.398,7.0
17.163,2.101,-0.343,14.0
16.657,2.038,-0.43,14.0
16.348,1.999,-0.515,17.0
16.193,1.979,-0.603,15.0
18.086,2.205,-0.173,15.0
26.855,3.272,-0.41,6.0
17.124,2.085,-0.359,15.0
16.61,2.021,-0.445,15.0
16.33,1.985,-0.531,17.0
16.178,1.966,-0.618,15.0
18.092,2.192,-0.19,16.0
25.85,3.13,-0.42,2.0
17.101,2.069,-0.375,16.0
16.575,2.004,-0.46,16.0
16.321,1.972,-0.546,14.0
16.169,1.953,-0.634,14.0
18.093,2.179,-0.208,15.0
17.893,2.153,-0.307,11.0
17.019,2.046,-0.39,14.0
16.551,1.988,-0.475,17.0
16.334,1.961,-0.562,16.0
16.143,1.937,-0.648,14.0
18.112,2.166,-0.225,12.0
17.783,2.125,-0.322,14.0
16.974,2.027,-0.405,14.0
16.542,1.974,-0.49,16.0
16.31,1.945,-0.577,16.0
16.106,1.919,-0.661,13.0
18.128,2.153,-0.242,8.0
17.672,2.097,-0.337,15.0
16.92,2.006,-0.419,15.0
16.517,1.957,-0.505,14.0
16.297,1.929,-0.591,17.0
16.097,1.904,-0.676,14.0
18.14,2.139,-0.258,4.0
17.54,2.066,-0.35,16.0
16.902,1.989,-0.433,15.0
16.566,1.948,-0.521,16.0
16.287,1.913,-0.605,18.0
16.078,1.887,-0.689,13.0
27.462,3.212,-0.416,6.0
17.448,2.039,-0.363,15.0
16.874,1.97,-0.447,14.0
16.583,1.934,-0.536,16.0
16.289,1.898,-0.619,17.0
16.03,1.866,-0.701,12.0
26.488,3.073,-0.423,6.0
17.39,2.015,-0.377,15.0
16.912,1.958,-0.463,14.0
16.545,1.913,-0.549,18.0
16.297,1.883,-0.633,17.0
15.975,1.844,-0.712,13.0
25.822,2.97,-0.434,1.0
17.369,1.995,-0.391,15.0
16.947,1.945,-0.478,14.0
16.56,1.898,-0.563,16.0
16.297,1.866,-0.647,16.0
15.951,1.825,-0.724,13.0
18.145,2.068,-0.32,10.0
17.376,1.978,-0.405,17.0
16.975,1.93,-0.492,14.0
16.557,1.88,-0.576,16.0
16.28,1.847,-0.659,15.0
15.864,1.798,-0.732,8.0
18.081,2.041,-0.333,12.0
17.394,1.961,-0.419,15.0
17.038,1.918,-0.507,14.0
16.56,1.862,-0.589,15.0
16.251,1.825,-0.67,15.0
15.97,1.792,-0.75,4.0
17.982,2.009,-0.345,11.0
17.434,1.945,-0.433,15.0
17.076,1.903,-0.521,15.0
16.566,1.844,-0.601,13.0
16.22,1.804,-0.681,16.0
16.136,1.792,-0.769,2.0
24.184,2.675,-0.481,1.0
17.475,1.93,-0.447,15.0
17.097,1.886,-0.534,14.0
16.615,1.83,-0.615,15.0
16.224,1.785,-0.693,14.0
16.305,1.792,-0.789,2.0
23.94,2.619,-0.493,1.0
17.531,1.915,-0.46,18.0
17.11,1.867,-0.546,14.0
16.637,1.813,-0.627,16.0
16.192,1.762,-0.702,11.0
0.0,0.0,0.0,0.0
18.162,1.965,-0.386,12.0
17.573,1.898,-0.473,18.0
17.122,1.847,-0.558,18.0
16.653,1.794,-0.639,18.0
16.152,1.738,-0.711,9.0
17.666,1.898,-0.878,1.0
18.2,1.947,-0.398,9.0
17.614,1.881,-0.485,17.0
17.126,1.826,-0.569,14.0
16.666,1.774,-0.65,16.0
16.073,1.709,-0.718,11.0
17.753,1.885,-0.894,0.0
18.204,1.924,-0.41,9.0
17.628,1.86,-0.497,18.0
17.152,1.807,-0.58,15.0
16.684,1.755,-0.66,13.0
16.039,1.684,-0.726,11.0
14.777,1.55,-0.752,0.0
22.437,2.341,-0.518,1.0
17.662,1.84,-0.508,19.0
17.186,1.787,-0.591,15.0
16.735,1.738,-0.672,12.0
15.956,1.654,-0.731,9.0
14.766,1.528,-0.76,0.0
22.18,2.284,-0.525,1.0
17.698,1.82,-0.518,18.0
17.288,1.774,-0.604,16.0
16.829,1.724,-0.685,13.0
15.95,1.632,-0.739,7.0
14.671,1.498,-0.763,0.0
21.854,2.22,-0.528,1.0
17.777,1.803,-0.53,18.0
17.356,1.757,-0.615,17.0
16.88,1.706,-0.695,14.0
15.93,1.607,-0.746,3.0
14.597,1.47,-0.766,0.0
21.558,2.16,-0.531,6.0
17.742,1.774,-0.537,17.0
17.448,1.742,-0.627,15.0
16.814,1.675,-0.701,10.0
15.896,1.581,-0.752,2.0
14.551,1.445,-0.771,0.0
21.447,2.118,-0.539,6.0
17.93,1.767,-0.551,16.0
17.495,1.721,-0.636,14.0
16.72,1.642,-0.704,1.0
15.873,1.556,-0.758,1.0
14.438,1.412,-0.771,0.0
21.174,2.06,-0.541,5.0
18.122,1.759,-0.564,16.0
17.623,1.707,-0.648,17.0
16.503,1.596,-0.701,2.0
15.809,1.526,-0.761,1.0
14.378,1.385,-0.773,0.0
21.044,2.016,-0.545,5.0
18.219,1.742,-0.574,16.0
17.642,1.683,-0.655,13.0
16.466,1.567,-0.706,2.0
15.685,1.49,-0.761,0.0
14.353,1.361,-0.777,0.0
20.831,1.964,-0.547,5.0
18.353,1.726,-0.585,15.0
17.655,1.657,-0.662,4.0
16.433,1.539,-0.71,1.0
15.531,1.452,-0.758,0.0
14.323,1.336,-0.78,0.0
20.313,1.884,-0.54,6.0
18.533,1.714,-0.596,11.0
17.305,1.597,-0.654,1.0
16.375,1.508,-0.712,1.0
15.399,1.415,-0.756,0.0
14.195,1.302,-0.777,0.0
20.478,1.867,-0.55,7.0
18.916,1.72,-0.614,24.0
17.276,1.567,-0.657,2.0
16.394,1.484,-0.717,2.0
15.379,1.389,-0.759,0.0
14.15,1.275,-0.778,0.0
20.374,1.825,-0.552,6.0
18.891,1.687,-0.617,14.0
17.264,1.538,-0.661,2.0
16.349,1.453,-0.719,1.0
15.234,1.351,-0.755,0.0
14.203,1.257,-0.784,0.0
19.9,1.75,-0.543,8.0
19.015,1.668,-0.625,3.0
17.227,1.507,-0.663,3.0
16.329,1.425,-0.721,1.0
15.324,1.334,-0.763,0.0
14.216,1.235,-0.787,0.0
19.219,1.659,-0.528,10.0
18.544,1.596,-0.613,3.0
17.164,1.474,-0.663,2.0
16.338,1.399,-0.724,2.0
15.23,1.301,-0.76,0.0
14.168,1.207,-0.786,0.0
19.171,1.623,-0.529,12.0
18.449,1.558,-0.612,2.0
17.14,1.443,-0.664,1.0
16.352,1.373,-0.726,2.0
15.257,1.278,-0.763,0.0
14.252,1.19,-0.792,0.0
19.695,1.634,-0.545,10.0
18.393,1.522,-0.612,2.0
17.115,1.412,-0.664,2.0
16.334,1.344,-0.727,1.0
15.366,1.261,-0.77,0.0
14.117,1.155,-0.786,0.0
19.72,1.603,-0.547,11.0
18.379,1.489,-0.612,2.0
17.123,1.383,-0.665,2.0
16.302,1.313,-0.726,1.0
15.317,1.23,-0.767,0.0
14.235,1.14,-0.792,0.0
19.72,1.569,-0.547,10.0
18.408,1.46,-0.613,2.0
17.116,1.353,-0.665,1.0
16.335,1.288,-0.727,1.0
15.388,1.21,-0.771,0.0
14.08,1.104,-0.784,0.0
19.718,1.535,-0.547,10.0
18.432,1.43,-0.613,3.0
17.099,1.322,-0.664,1.0
16.366,1.262,-0.728,1.0
15.393,1.183,-0.77,0.0
14.272,1.094,-0.793,0.0
19.716,1.5,-0.545,10.0
18.457,1.4,-0.613,3.0
17.144,1.296,-0.664,2.0
16.363,1.233,-0.726,1.0
15.485,1.163,-0.773,0.0
14.349,1.074,-0.796,0.0
19.715,1.465,-0.543,10.0
18.494,1.37,-0.612,3.0
17.217,1.271,-0.665,2.0
16.394,1.206,-0.726,1.0
15.541,1.14,-0.774,0.0
14.414,1.054,-0.798,0.0
19.715,1.431,-0.54,9.0
18.511,1.338,-0.61,3.0
17.212,1.24,-0.662,1.0
16.428,1.18,-0.724,1.0
15.666,1.121,-0.778,0.0
14.441,1.03,-0.797,0.0
19.721,1.395,-0.537,10.0
18.55,1.308,-0.608,3.0
17.247,1.211,-0.66,2.0
16.469,1.152,-0.723,1.0
15.734,1.097,-0.777,1.0
14.482,1.006,-0.796,0.0
19.725,1.36,-0.533,9.0
18.664,1.282,-0.607,3.0
17.293,1.183,-0.658,2.0
16.517,1.126,-0.721,1.0
15.875,1.078,-0.781,1.0
14.842,1.004,-0.812,0.0
19.713,1.324,-0.527,9.0
18.743,1.254,-0.604,3.0
17.357,1.156,-0.655,1.0
16.558,1.099,-0.718,1.0
15.909,1.051,-0.777,1.0
14.609,0.962,-0.794,0.0
19.734,1.289,-0.522,9.0
18.891,1.229,-0.603,3.0
17.434,1.13,-0.652,1.0
16.629,1.073,-0.716,1.0
15.969,1.026,-0.775,1.0
14.577,0.933,-0.788,0.0
19.739,1.254,-0.515,11.0
19.041,1.204,-0.601,3.0
17.528,1.104,-0.65,2.0
16.683,1.046,-0.712,1.0
16.005,0.999,-0.771,2.0
14.763,0.918,-0.792,0.0
19.745,1.218,-0.507,12.0
19.277,1.184,-0.601,3.0
17.628,1.078,-0.646,1.0
16.744,1.019,-0.707,2.0
16.03,0.971,-0.765,2.0
14.98,0.904,-0.797,0.0
19.75,1.182,-0.499,12.0
19.525,1.163,-0.6,5.0
17.774,1.054,-0.644,1.0
16.792,0.991,-0.702,2.0
16.096,0.946,-0.761,2.0
14.894,0.871,-0.786,0.0
19.753,1.146,-0.49,10.0
19.679,1.136,-0.596,5.0
17.952,1.032,-0.641,2.0
16.837,0.963,-0.696,2.0
16.171,0.921,-0.756,2.0
15.195,0.861,-0.794,0.0
19.777,1.111,-0.481,8.0
19.851,1.11,-0.591,3.0
18.083,1.006,-0.637,2.0
16.893,0.935,-0.689,2.0
16.258,0.895,-0.752,2.0
15.329,0.84,-0.793,0.0
22.796,1.238,-0.541,0.0
20.059,1.084,-0.586,3.0
18.249,0.981,-0.632,3.0
16.977,0.908,-0.683,2.0
16.326,0.869,-0.746,2.0
15.786,0.836,-0.807,0.0
23.481,1.233,-0.544,5.0
20.287,1.059,-0.58,2.0
18.369,0.954,-0.625,3.0
17.051,0.881,-0.675,2.0
16.406,0.843,-0.739,1.0
15.918,0.813,-0.804,2.0
23.708,1.201,-0.534,37.0
20.748,1.045,-0.58,1.0
18.571,0.93,-0.62,3.0
17.147,0.854,-0.668,2.0
16.518,0.818,-0.733,1.0
15.979,0.787,-0.796,3.0
23.644,1.154,-0.517,27.0
21.077,1.023,-0.575,2.0
18.777,0.906,-0.614,3.0
17.288,0.829,-0.661,2.0
16.64,0.793,-0.727,2.0
16.025,0.76,-0.787,3.0
23.627,1.11,-0.5,52.0
23.647,1.104,-0.629,1.0
19.158,0.889,-0.613,3.0
17.414,0.803,-0.653,2.0
16.708,0.766,-0.718,2.0
16.126,0.735,-0.78,2.0
23.631,1.067,-0.483,85.0
21.87,0.981,-0.565,3.0
19.525,0.87,-0.61,2.0
17.748,0.786,-0.652,3.0
16.82,0.74,-0.709,2.0
16.214,0.709,-0.772,2.0
23.658,1.025,-0.465,40.0
22.56,0.971,-0.565,3.0
19.786,0.846,-0.602,2.0
17.956,0.762,-0.645,3.0
16.927,0.714,-0.7,2.0
16.297,0.683,-0.762,3.0
26.895,1.116,-0.506,6.0
23.298,0.96,-0.564,7.0
19.99,0.818,-0.592,1.0
18.255,0.742,-0.641,3.0
17.043,0.688,-0.69,1.0
16.354,0.655,-0.75,0.0
27.406,1.087,-0.492,7.0
23.655,0.932,-0.552,9.0
20.635,0.807,-0.593,0.0
18.509,0.718,-0.633,3.0
17.137,0.66,-0.679,0.0
16.47,0.63,-0.741,0.0
27.824,1.053,-0.474,2.0
24.115,0.906,-0.541,1.0
21.171,0.789,-0.589,2.0
18.801,0.696,-0.626,2.0
17.233,0.633,-0.666,0.0
16.622,0.606,-0.732,0.0
28.897,1.042,-0.466,3.0
24.898,0.891,-0.535,1.0
21.444,0.761,-0.576,2.0
19.277,0.679,-0.623,2.0
40.18,1.404,-1.515,2.0
16.776,0.581,-0.723,0.0
29.506,1.011,-0.447,3.0
25.569,0.869,-0.524,2.0
21.769,0.733,-0.563,1.0
19.501,0.652,-0.611,0.0
17.879,0.592,-0.656,0.0
17.212,0.565,-0.724,0.0
40.124,1.303,-0.566,1.0
25.987,0.837,-0.506,3.0
22.633,0.722,-0.562,0.0
20.133,0.637,-0.61,2.0
18.277,0.573,-0.651,1.0
18.321,0.569,-0.751,2.0
40.151,1.234,-0.525,1.0
27.394,0.834,-0.505,7.0
23.533,0.71,-0.559,1.0
20.689,0.618,-0.604,1.0
19.154,0.567,-0.662,0.0
19.202,0.563,-0.766,3.0
27.441,0.795,-0.329,0.0
28.443,0.816,-0.493,1.0
24.316,0.69,-0.551,0.0
20.909,0.588,-0.587,0.0
20.189,0.562,-0.675,0.0
19.598,0.54,-0.76,1.0
