X,Y,Z,Reflectivity
19.789,-0.061,-0.483,0.0
23.213,-0.074,-0.703,0.0
19.73,-0.065,-0.059,13.0
19.725,-0.067,-0.175,15.0
19.761,-0.069,-0.29,14.0
19.763,-0.071,-0.408,6.0
19.779,-0.072,-0.524,2.0
22.367,-0.084,-0.723,0.0
19.722,-0.077,-0.1,17.0
19.745,-0.079,-0.215,15.0
19.757,-0.081,-0.331,12.0
19.755,-0.082,-0.448,11.0
19.76,-0.084,-0.564,9.0
19.776,-0.086,-0.68,5.0
19.723,-0.089,-0.14,17.0
19.745,-0.091,-0.255,15.0
19.756,-0.093,-0.371,14.0
19.745,-0.095,-0.488,14.0
19.763,-0.097,-0.604,14.0
19.737,-0.099,-0.719,9.0
19.729,-0.102,-0.18,17.0
19.745,-0.104,-0.295,15.0
19.741,-0.106,-0.411,15.0
19.739,-0.108,-0.528,15.0
19.755,-0.11,-0.644,14.0
19.703,-0.112,-0.758,6.0
19.739,-0.115,-0.219,17.0
19.75,-0.117,-0.335,15.0
19.734,-0.119,-0.45,16.0
19.735,-0.122,-0.567,16.0
19.743,-0.124,-0.683,16.0
19.409,-0.124,-0.785,1.0
19.745,-0.129,-0.259,17.0
19.744,-0.131,-0.374,17.0
19.728,-0.134,-0.489,16.0
19.73,-0.136,-0.606,17.0
19.74,-0.138,-0.722,13.0
18.673,-0.133,-0.792,1.0
19.749,-0.144,-0.298,17.0
19.741,-0.146,-0.413,18.0
19.744,-0.149,-0.528,17.0
19.744,-0.151,-0.645,15.0
19.703,-0.153,-0.759,5.0
18.01,-0.142,-0.799,0.0
19.747,-0.159,-0.336,17.0
19.742,-0.162,-0.451,17.0
19.752,-0.164,-0.567,12.0
19.765,-0.167,-0.685,8.0
19.408,-0.166,-0.786,1.0
17.363,-0.151,-0.805,0.0
19.763,-0.176,-0.375,13.0
19.752,-0.178,-0.49,10.0
19.781,-0.181,-0.606,3.0
19.756,-0.183,-0.723,10.0
18.685,-0.176,-0.793,0.0
16.746,-0.16,-0.808,0.0
19.777,-0.193,-0.413,7.0
25.197,-0.249,-0.673,0.0
22.29,-0.223,-0.726,1.0
19.689,-0.2,-0.758,4.0
18.032,-0.185,-0.799,0.0
16.341,-0.17,-0.82,0.0
27.704,-0.294,-0.631,0.0
24.138,-0.26,-0.69,0.0
19.804,-0.216,-0.682,0.0
19.426,-0.214,-0.784,1.0
17.406,-0.194,-0.804,0.0
15.698,-0.177,-0.817,0.0
26.219,-0.302,-0.646,0.0
22.996,-0.268,-0.7,0.0
19.8,-0.234,-0.718,5.0
18.732,-0.224,-0.791,0.0
16.927,-0.205,-0.813,0.0
15.411,-0.189,-0.831,0.0
25.303,-0.315,-0.67,0.0
22.327,-0.282,-0.721,1.0
19.792,-0.252,-0.755,2.0
18.18,-0.235,-0.801,0.0
16.378,-0.214,-0.817,0.0
15.039,-0.199,-0.838,0.0
24.426,-0.328,-0.691,0.0
21.516,-0.292,-0.734,0.0
19.474,-0.267,-0.777,0.0
17.467,-0.242,-0.801,0.0
15.76,-0.221,-0.814,0.0
14.641,-0.208,-0.842,0.0
23.241,-0.335,-0.698,0.0
19.936,-0.29,-0.715,1.0
18.917,-0.279,-0.789,0.0
16.938,-0.252,-0.807,0.0
15.538,-0.234,-0.831,0.0
14.27,-0.217,-0.846,0.0
22.551,-0.348,-0.718,1.0
20.102,-0.314,-0.757,0.0
18.343,-0.289,-0.797,0.0
16.52,-0.263,-0.816,0.0
15.151,-0.244,-0.837,0.0
13.931,-0.227,-0.851,0.0
21.702,-0.358,-0.728,2.0
19.613,-0.327,-0.773,0.0
17.535,-0.295,-0.793,0.0
15.968,-0.272,-0.817,0.0
14.763,-0.254,-0.841,0.0
13.628,-0.236,-0.856,0.0
20.961,-0.369,-0.74,0.0
19.045,-0.338,-0.783,0.0
17.22,-0.309,-0.808,0.0
15.531,-0.281,-0.821,0.0
14.424,-0.264,-0.846,0.0
13.265,-0.245,-0.856,0.0
20.354,-0.381,-0.753,0.0
18.596,-0.351,-0.796,0.0
16.766,-0.319,-0.815,0.0
15.298,-0.294,-0.834,0.0
14.152,-0.275,-0.854,0.0
13.037,-0.255,-0.863,0.0
19.872,-0.394,-0.767,0.0
17.925,-0.358,-0.796,0.0
16.297,-0.329,-0.819,0.0
14.95,-0.304,-0.839,0.0
13.807,-0.284,-0.856,0.0
12.727,-0.264,-0.863,0.0
19.342,-0.406,-0.778,0.0
17.491,-0.37,-0.805,0.0
15.709,-0.335,-0.814,0.0
14.549,-0.313,-0.84,0.0
13.458,-0.292,-0.855,0.0
12.534,-0.275,-0.87,0.0
18.747,-0.415,-0.784,0.0
17.075,-0.381,-0.813,0.0
15.496,-0.349,-0.827,0.0
14.278,-0.324,-0.847,0.0
13.192,-0.302,-0.859,0.0
12.408,-0.287,-0.88,0.0
18.096,-0.422,-0.784,0.0
16.476,-0.388,-0.809,0.0
15.156,-0.36,-0.833,0.0
13.956,-0.334,-0.849,0.0
12.893,-0.311,-0.86,0.0
12.057,-0.293,-0.874,0.0
17.775,-0.437,-0.797,1.0
16.163,-0.4,-0.819,0.0
14.854,-0.371,-0.838,0.0
13.688,-0.344,-0.853,0.0
12.68,-0.321,-0.864,0.0
11.874,-0.303,-0.878,0.0
17.523,-0.452,-0.812,0.0
15.775,-0.41,-0.822,0.0
14.6,-0.382,-0.845,0.0
13.385,-0.353,-0.854,0.0
12.478,-0.332,-0.869,0.0
11.699,-0.314,-0.882,0.0
17.589,-0.476,-0.84,0.0
17.85,-0.486,-0.956,0.0
14.262,-0.391,-0.846,0.0
17.812,-0.493,-1.162,0.0
12.317,-0.343,-0.875,0.0
11.548,-0.324,-0.887,0.0
17.603,-0.499,-0.865,3.0
15.046,-0.429,-0.827,0.0
17.802,-0.512,-1.081,1.0
17.797,-0.516,-1.186,0.0
12.036,-0.351,-0.872,0.0
11.375,-0.334,-0.89,0.0
0.0,0.0,0.0,0.0
14.826,-0.442,-0.835,0.0
17.795,-0.535,-1.105,1.0
12.662,-0.383,-0.861,0.0
11.833,-0.361,-0.873,0.0
11.2,-0.344,-0.892,0.0
17.787,-0.551,-0.923,0.0
14.581,-0.455,-0.841,0.0
17.831,-0.56,-1.131,0.0
12.552,-0.397,-0.87,0.0
11.711,-0.373,-0.88,0.0
11.052,-0.354,-0.895,0.0
15.559,-0.502,-0.828,0.0
14.376,-0.467,-0.848,0.0
13.179,-0.431,-0.853,0.0
12.357,-0.407,-0.873,0.0
11.534,-0.383,-0.882,0.0
10.915,-0.365,-0.898,0.0
15.296,-0.515,-0.833,0.0
14.149,-0.479,-0.852,0.0
13.048,-0.445,-0.861,0.0
12.181,-0.418,-0.876,0.0
11.388,-0.394,-0.885,0.0
10.757,-0.374,-0.898,0.0
15.05,-0.527,-0.838,0.0
13.806,-0.487,-0.848,0.0
12.835,-0.456,-0.863,0.0
12.027,-0.43,-0.879,0.0
11.232,-0.404,-0.886,0.0
10.657,-0.386,-0.903,0.0
14.749,-0.537,-0.839,0.0
13.556,-0.497,-0.849,0.0
12.66,-0.467,-0.866,0.0
11.799,-0.438,-0.876,0.0
11.13,-0.416,-0.891,0.0
10.549,-0.396,-0.906,0.0
14.495,-0.548,-0.841,0.0
13.414,-0.51,-0.856,0.0
12.466,-0.477,-0.867,0.0
11.603,-0.447,-0.875,0.0
10.96,-0.425,-0.89,0.0
10.43,-0.407,-0.907,0.0
14.365,-0.563,-0.85,0.0
13.269,-0.523,-0.861,0.0
12.341,-0.49,-0.872,0.0
11.547,-0.461,-0.884,0.0
10.87,-0.437,-0.895,0.0
10.3,-0.416,-0.907,0.0
14.076,-0.572,-0.847,0.0
13.066,-0.534,-0.862,0.0
12.161,-0.5,-0.872,0.0
11.431,-0.473,-0.887,0.0
10.8,-0.45,-0.9,0.0
10.216,-0.428,-0.911,0.0
13.851,-0.583,-0.848,0.0
12.888,-0.545,-0.863,0.0
12.049,-0.513,-0.876,0.0
11.27,-0.482,-0.886,0.0
10.693,-0.46,-0.902,0.0
10.132,-0.439,-0.913,0.0
13.617,-0.592,-0.847,0.0
12.726,-0.557,-0.865,0.0
11.968,-0.527,-0.882,0.0
11.187,-0.495,-0.89,0.0
10.55,-0.47,-0.9,0.0
10.05,-0.45,-0.916,0.0
13.546,-0.609,-0.856,0.0
12.544,-0.567,-0.864,0.0
11.83,-0.538,-0.883,0.0
11.083,-0.506,-0.892,0.0
10.509,-0.483,-0.907,0.0
9.954,-0.46,-0.916,0.0
13.408,-0.622,-0.859,0.0
12.448,-0.581,-0.869,0.0
11.618,-0.545,-0.878,0.0
10.895,-0.514,-0.887,0.0
10.416,-0.494,-0.908,0.0
9.861,-0.47,-0.916,0.0
13.11,-0.628,-0.852,0.0
12.322,-0.593,-0.871,0.0
11.586,-0.561,-0.885,0.0
10.829,-0.527,-0.891,0.0
10.339,-0.506,-0.91,0.0
9.79,-0.482,-0.918,0.0
12.974,-0.64,-0.853,0.0
12.233,-0.607,-0.875,0.0
11.492,-0.573,-0.887,0.0
10.812,-0.542,-0.898,0.0
10.227,-0.515,-0.908,0.0
9.737,-0.493,-0.921,0.0
12.931,-0.657,-0.861,0.0
12.106,-0.618,-0.875,0.0
11.419,-0.586,-0.891,0.0
10.757,-0.555,-0.902,0.0
10.177,-0.528,-0.911,0.0
9.658,-0.504,-0.921,0.0
12.84,-0.671,-0.864,0.0
12.008,-0.631,-0.877,0.0
11.316,-0.597,-0.891,0.0
10.682,-0.567,-0.903,0.0
10.112,-0.539,-0.913,0.0
9.584,-0.514,-0.92,0.0
12.723,-0.684,-0.865,0.0
11.904,-0.643,-0.877,0.0
11.278,-0.612,-0.895,0.0
10.612,-0.579,-0.904,0.0
10.069,-0.552,-0.916,0.0
9.518,-0.525,-0.92,0.0
12.628,-0.698,-0.867,0.0
11.884,-0.66,-0.883,0.0
11.161,-0.623,-0.893,0.0
10.482,-0.588,-0.9,0.0
9.969,-0.562,-0.913,0.0
9.479,-0.537,-0.922,0.0
12.537,-0.711,-0.868,0.0
11.837,-0.675,-0.887,0.0
11.116,-0.637,-0.896,0.0
10.503,-0.604,-0.908,0.0
9.915,-0.573,-0.914,0.0
9.445,-0.549,-0.925,0.0
12.483,-0.726,-0.871,0.0
11.76,-0.688,-0.888,0.0
11.057,-0.649,-0.898,0.0
10.467,-0.618,-0.91,0.0
9.875,-0.585,-0.915,0.0
9.397,-0.56,-0.925,0.0
12.429,-0.742,-0.874,0.0
11.682,-0.7,-0.888,0.0
11.019,-0.664,-0.9,0.0
10.394,-0.629,-0.909,0.0
9.828,-0.597,-0.916,0.0
9.372,-0.572,-0.927,0.0
12.401,-0.758,-0.878,0.0
11.631,-0.714,-0.89,0.0
10.955,-0.676,-0.9,0.0
10.334,-0.64,-0.909,0.0
9.837,-0.613,-0.921,0.0
9.3,-0.582,-0.924,0.0
12.317,-0.771,-0.878,0.0
11.595,-0.729,-0.892,0.0
10.951,-0.692,-0.904,0.0
10.313,-0.654,-0.911,0.0
9.766,-0.622,-0.919,0.0
9.266,-0.593,-0.924,0.0
12.284,-0.787,-0.88,0.0
11.524,-0.742,-0.891,0.0
10.91,-0.705,-0.905,0.0
10.293,-0.668,-0.913,0.0
9.749,-0.636,-0.921,0.0
9.256,-0.606,-0.927,0.0
12.246,-0.803,-0.882,0.0
11.585,-0.762,-0.9,0.0
10.774,-0.712,-0.897,0.0
10.2,-0.677,-0.908,0.0
9.707,-0.647,-0.92,0.0
9.209,-0.616,-0.925,0.0
12.178,-0.816,-0.88,0.0
11.494,-0.773,-0.896,0.0
10.78,-0.728,-0.901,0.0
10.15,-0.688,-0.907,0.0
9.638,-0.656,-0.916,0.0
9.192,-0.629,-0.926,0.0
12.115,-0.829,-0.879,0.0
11.359,-0.78,-0.888,0.0
10.846,-0.748,-0.909,0.0
10.168,-0.704,-0.911,0.0
9.668,-0.672,-0.921,0.0
9.189,-0.642,-0.927,0.0
12.078,-0.844,-0.879,0.0
11.374,-0.798,-0.892,0.0
10.805,-0.761,-0.908,0.0
10.169,-0.719,-0.913,0.0
9.673,-0.687,-0.923,0.0
9.168,-0.653,-0.927,0.0
12.075,-0.861,-0.881,0.0
11.419,-0.817,-0.897,0.0
10.843,-0.779,-0.913,0.0
10.09,-0.728,-0.908,0.0
9.63,-0.697,-0.921,0.0
9.167,-0.666,-0.928,0.0
12.671,-1.175,-0.881,0.0
11.96,-1.112,-0.897,0.0
11.201,-1.044,-0.902,0.0
10.61,-0.992,-0.914,0.0
10.07,-0.944,-0.923,0.0
9.563,-0.899,-0.93,0.0
12.742,-1.196,-0.879,0.0
11.996,-1.128,-0.894,0.0
11.252,-1.061,-0.9,0.0
10.641,-1.006,-0.911,0.0
10.102,-0.957,-0.92,0.0
9.607,-0.913,-0.928,0.0
12.715,-1.206,-0.87,0.0
12.1,-1.151,-0.894,0.0
11.403,-1.087,-0.905,0.0
10.725,-1.025,-0.911,0.0
10.199,-0.977,-0.923,0.0
9.621,-0.924,-0.924,0.0
12.91,-1.237,-0.875,0.0
12.16,-1.168,-0.891,0.0
11.492,-1.106,-0.905,0.0
10.811,-1.043,-0.912,0.0
10.218,-0.988,-0.918,0.0
9.697,-0.94,-0.925,0.0
13.0,-1.259,-0.873,0.0
12.212,-1.185,-0.887,0.0
11.539,-1.122,-0.901,0.0
10.859,-1.058,-0.909,0.0
10.268,-1.003,-0.915,0.0
9.795,-0.959,-0.927,0.0
13.131,-1.283,-0.873,0.0
12.31,-1.206,-0.885,0.0
11.593,-1.138,-0.897,0.0
10.948,-1.077,-0.908,0.0
10.424,-1.028,-0.922,0.0
9.856,-0.974,-0.926,0.0
13.281,-1.31,-0.873,0.0
12.318,-1.218,-0.877,0.0
11.752,-1.164,-0.901,0.0
11.025,-1.094,-0.906,0.0
10.513,-1.046,-0.922,0.0
9.893,-0.986,-0.922,0.0
13.504,-1.344,-0.877,0.0
12.472,-1.243,-0.878,0.0
11.833,-1.182,-0.898,0.0
11.13,-1.114,-0.906,0.0
10.601,-1.063,-0.921,0.0
9.967,-1.002,-0.921,0.0
13.615,-1.366,-0.874,0.0
12.666,-1.273,-0.882,0.0
11.948,-1.203,-0.897,0.0
11.18,-1.128,-0.902,0.0
10.637,-1.075,-0.916,0.0
10.089,-1.022,-0.924,0.0
13.745,-1.39,-0.871,0.0
12.777,-1.295,-0.879,0.0
12.038,-1.222,-0.894,0.0
11.326,-1.152,-0.904,0.0
10.728,-1.093,-0.914,0.0
10.183,-1.039,-0.924,0.0
13.883,-1.415,-0.868,0.0
13.025,-1.329,-0.885,0.0
12.173,-1.244,-0.893,0.0
11.479,-1.176,-0.906,0.0
10.816,-1.11,-0.913,0.0
10.291,-1.058,-0.924,0.0
14.034,-1.44,-0.865,0.0
13.049,-1.341,-0.875,0.0
12.235,-1.259,-0.887,0.0
11.613,-1.197,-0.906,0.0
10.893,-1.125,-0.909,0.0
10.353,-1.071,-0.921,0.0
14.319,-1.479,-0.87,0.0
13.205,-1.366,-0.874,0.0
12.414,-1.286,-0.889,0.0
11.644,-1.208,-0.898,0.0
10.997,-1.143,-0.908,0.0
10.474,-1.091,-0.922,0.0
14.483,-1.505,-0.867,0.0
13.392,-1.394,-0.874,0.0
12.526,-1.306,-0.885,0.0
11.833,-1.235,-0.901,0.0
11.132,-1.164,-0.908,0.0
10.568,-1.107,-0.92,0.0
14.624,-1.529,-0.861,0.0
13.636,-1.428,-0.877,0.0
12.639,-1.325,-0.881,0.0
11.909,-1.25,-0.896,0.0
11.235,-1.181,-0.906,0.0
10.669,-1.123,-0.918,0.0
14.836,-1.56,-0.859,0.0
13.743,-1.446,-0.87,0.0
12.92,-1.362,-0.888,0.0
12.051,-1.272,-0.894,0.0
11.387,-1.203,-0.907,0.0
10.746,-1.137,-0.914,0.0
15.122,-1.598,-0.86,0.0
13.938,-1.474,-0.868,0.0
13.086,-1.386,-0.886,0.0
12.182,-1.292,-0.892,0.0
11.516,-1.223,-0.905,0.0
10.857,-1.154,-0.912,0.0
15.357,-1.63,-0.858,0.0
14.198,-1.509,-0.87,0.0
13.233,-1.408,-0.882,0.0
12.259,-1.306,-0.885,0.0
11.655,-1.243,-0.904,0.0
10.947,-1.169,-0.908,0.0
15.592,-1.662,-0.855,0.0
14.382,-1.535,-0.866,0.0
13.388,-1.43,-0.878,0.0
12.523,-1.339,-0.89,0.0
11.771,-1.26,-0.9,0.0
11.097,-1.189,-0.909,0.0
15.916,-1.703,-0.856,0.0
14.64,-1.568,-0.866,0.0
13.557,-1.454,-0.874,0.0
12.683,-1.361,-0.888,0.0
11.905,-1.279,-0.897,0.0
11.216,-1.206,-0.906,0.0
16.119,-1.731,-0.849,0.0
14.907,-1.602,-0.865,0.0
13.815,-1.486,-0.876,0.0
12.891,-1.388,-0.888,0.0
12.06,-1.3,-0.896,0.0
11.378,-1.227,-0.906,0.0
16.27,-1.752,-0.839,0.0
15.104,-1.628,-0.859,0.0
13.943,-1.504,-0.868,0.0
13.038,-1.408,-0.883,0.0
12.113,-1.309,-0.886,0.0
11.443,-1.238,-0.898,0.0
16.613,-1.794,-0.837,0.0
15.4,-1.664,-0.859,0.0
14.23,-1.539,-0.87,0.0
13.231,-1.432,-0.881,0.0
12.371,-1.34,-0.89,0.0
11.701,-1.268,-0.905,0.0
16.895,-1.829,-0.832,0.0
15.677,-1.698,-0.856,0.0
14.489,-1.57,-0.869,0.0
13.516,-1.466,-0.884,0.0
12.588,-1.366,-0.891,0.0
11.785,-1.28,-0.897,0.0
17.265,-1.872,-0.83,0.0
15.98,-1.734,-0.854,0.0
14.768,-1.603,-0.868,0.0
13.714,-1.49,-0.881,0.0
12.779,-1.389,-0.889,0.0
12.028,-1.308,-0.902,0.0
17.502,-1.901,-0.821,0.0
16.119,-1.751,-0.842,0.0
14.968,-1.627,-0.862,0.0
13.867,-1.508,-0.874,0.0
12.975,-1.412,-0.887,0.0
12.128,-1.32,-0.894,0.0
17.819,-1.937,-0.814,0.0
16.493,-1.794,-0.841,0.0
15.284,-1.663,-0.861,0.0
14.113,-1.536,-0.872,0.0
13.152,-1.432,-0.883,0.0
12.282,-1.338,-0.891,0.0
18.219,-1.982,-0.81,0.0
16.806,-1.829,-0.837,0.0
15.535,-1.691,-0.856,0.0
14.353,-1.563,-0.87,0.0
13.383,-1.458,-0.882,0.0
12.536,-1.366,-0.894,0.0
19.295,-2.099,-0.834,0.0
17.093,-1.86,-0.83,0.0
15.862,-1.727,-0.855,0.0
14.589,-1.588,-0.866,0.0
13.63,-1.484,-0.882,0.0
12.74,-1.388,-0.892,0.0
19.388,-2.109,-0.814,2.0
17.398,-1.893,-0.823,0.0
16.128,-1.755,-0.849,0.0
14.939,-1.626,-0.868,0.0
13.851,-1.507,-0.879,0.0
12.936,-1.408,-0.89,0.0
19.496,-2.12,-0.795,0.0
17.807,-1.936,-0.82,0.0
16.525,-1.797,-0.849,0.0
15.199,-1.653,-0.864,0.0
14.061,-1.529,-0.874,0.0
13.147,-1.43,-0.888,0.0
20.046,-2.177,-0.792,0.0
18.027,-1.958,-0.808,0.0
16.618,-1.805,-0.833,0.0
15.503,-1.684,-0.862,0.0
14.302,-1.553,-0.871,0.0
13.35,-1.45,-0.884,0.0
20.352,-2.207,-0.778,0.0
18.714,-2.029,-0.815,0.0
17.122,-1.856,-0.837,0.0
15.746,-1.707,-0.855,0.0
14.635,-1.586,-0.873,0.0
13.59,-1.473,-0.883,0.0
20.623,-2.233,-0.762,0.0
19.377,-2.097,-0.819,1.0
17.483,-1.892,-0.832,0.0
16.066,-1.738,-0.852,0.0
14.929,-1.615,-0.871,0.0
13.817,-1.494,-0.88,0.0
21.489,-2.321,-0.767,0.0
19.452,-2.1,-0.797,0.0
17.778,-1.919,-0.823,0.0
16.297,-1.758,-0.843,0.0
15.111,-1.63,-0.862,0.0
14.014,-1.511,-0.874,0.0
21.987,-2.368,-0.756,0.0
20.273,-2.183,-0.805,0.0
17.931,-1.93,-0.807,0.0
16.605,-1.786,-0.838,0.0
15.541,-1.671,-0.867,0.0
14.303,-1.538,-0.874,0.0
0.0,0.0,0.0,0.0
20.33,-2.182,-0.781,0.0
18.643,-2.0,-0.815,0.0
16.9,-1.812,-0.831,0.0
15.799,-1.693,-0.861,0.0
14.555,-1.559,-0.87,0.0
23.288,-2.492,-0.741,0.0
21.058,-2.252,-0.782,0.0
18.789,-2.008,-0.797,0.0
17.478,-1.867,-0.836,0.0
16.149,-1.724,-0.858,0.0
14.859,-1.585,-0.869,0.0
24.137,-2.572,-0.737,0.0
21.416,-2.281,-0.767,0.0
19.633,-2.089,-0.807,0.0
17.727,-1.885,-0.825,0.0
16.279,-1.73,-0.844,0.0
15.154,-1.61,-0.866,0.0
24.869,-2.639,-0.727,0.0
22.129,-2.346,-0.764,0.0
19.933,-2.112,-0.794,0.0
17.939,-1.899,-0.811,0.0
0.0,0.0,0.0,0.0
15.478,-1.636,-0.865,0.0
25.267,-2.668,-0.705,0.0
22.615,-2.386,-0.751,0.0
20.372,-2.147,-0.785,0.0
18.46,-1.944,-0.811,0.0
16.949,-1.783,-0.835,0.0
15.782,-1.659,-0.861,0.0
26.374,-2.77,-0.702,0.0
23.359,-2.451,-0.745,0.0
21.095,-2.211,-0.785,0.0
18.756,-1.964,-0.8,0.0
17.421,-1.822,-0.835,0.0
16.138,-1.687,-0.859,0.0
27.005,-2.82,-0.684,0.0
23.801,-2.482,-0.729,0.0
21.317,-2.221,-0.766,0.0
19.531,-2.033,-0.807,0.0
17.732,-1.843,-0.827,0.0
16.379,-1.701,-0.851,0.0
27.837,-2.888,-0.669,0.0
24.493,-2.538,-0.718,0.0
22.125,-2.29,-0.766,0.0
20.115,-2.08,-0.805,0.0
18.338,-1.894,-0.832,0.0
16.511,-1.703,-0.836,0.0
28.212,-2.907,-0.642,0.0
25.207,-2.594,-0.707,0.0
22.595,-2.322,-0.753,0.0
20.293,-2.083,-0.786,0.0
18.492,-1.896,-0.815,0.0
17.281,-1.77,-0.853,0.0
0.0,0.0,0.0,0.0
26.453,-2.703,-0.708,0.0
23.204,-2.368,-0.744,0.0
20.686,-2.108,-0.775,0.0
18.918,-1.925,-0.809,0.0
17.381,-1.766,-0.836,0.0
30.766,-3.124,-0.621,0.0
26.725,-2.709,-0.681,0.0
23.858,-2.415,-0.735,0.0
0.0,0.0,0.0,0.0
19.348,-1.953,-0.803,0.0
17.657,-1.78,-0.827,0.0
31.28,-3.15,-0.592,0.0
0.0,0.0,0.0,0.0
0.0,0.0,0.0,0.0
21.992,-2.204,-0.768,0.0
19.795,-1.981,-0.797,0.0
18.041,-1.803,-0.822,0.0
0.0,0.0,0.0,0.0
0.0,0.0,0.0,0.0
25.409,-2.528,-0.719,0.0
22.781,-2.263,-0.767,0.0
20.298,-2.013,-0.792,0.0
18.373,-1.819,-0.814,0.0
0.0,0.0,0.0,0.0
29.362,-2.899,-0.638,0.0
25.904,-2.553,-0.7,0.0
23.222,-2.285,-0.753,1.0
20.871,-2.05,-0.788,0.0
18.689,-1.832,-0.805,0.0
35.081,-3.437,-0.533,0.0
30.357,-2.968,-0.622,0.0
0.0,0.0,0.0,0.0
23.682,-2.306,-0.739,0.0
21.467,-2.087,-0.784,0.0
19.324,-1.875,-0.808,0.0
0.0,0.0,0.0,0.0
31.662,-3.064,-0.61,0.0
27.105,-2.617,-0.666,0.0
24.349,-2.347,-0.73,0.0
21.799,-2.096,-0.769,0.0
19.69,-1.89,-0.799,0.0
0.0,0.0,0.0,0.0
0.0,0.0,0.0,0.0
28.431,-2.716,-0.664,0.0
24.712,-2.355,-0.711,0.0
22.413,-2.132,-0.764,0.0
20.259,-1.923,-0.798,0.0
0.0,0.0,0.0,0.0
0.0,0.0,0.0,0.0
28.909,-2.729,-0.641,0.0
25.777,-2.428,-0.711,0.0
22.917,-2.154,-0.754,0.0
20.44,-1.917,-0.781,0.0
41.468,-3.886,-0.43,0.0
0.0,0.0,0.0,0.0
29.966,-2.795,-0.629,0.0
26.424,-2.458,-0.698,0.0
23.373,-2.169,-0.741,0.0
20.899,-1.936,-0.774,0.0
0.0,0.0,0.0,0.0
0.0,0.0,0.0,0.0
0.0,0.0,0.0,0.0
26.923,-2.473,-0.679,0.0
0.0,0.0,0.0,0.0
21.45,-1.961,-0.77,0.0
0.0,0.0,0.0,0.0
37.428,-3.41,-0.5,0.0
31.821,-2.892,-0.594,0.0
27.837,-2.523,-0.671,0.0
24.423,-2.208,-0.719,0.0
21.918,-1.976,-0.761,0.0
46.907,-4.226,-0.324,0.0
38.818,-3.488,-0.474,0.0
33.181,-2.973,-0.582,0.0
28.354,-2.534,-0.651,0.0
25.386,-2.262,-0.718,0.0
22.855,-2.031,-0.768,0.0
0.0,0.0,0.0,0.0
41.301,-3.658,-0.459,0.0
33.784,-2.983,-0.555,0.0
29.37,-2.586,-0.642,0.0
25.738,-2.26,-0.7,0.0
22.971,-2.011,-0.747,0.0
0.0,0.0,0.0,0.0
0.0,0.0,0.0,0.0
0.0,0.0,0.0,0.0
29.682,-2.574,-0.616,0.0
26.746,-2.313,-0.698,0.0
23.476,-2.024,-0.738,0.0
0.0,0.0,0.0,0.0
0.0,0.0,0.0,0.0
0.0,0.0,0.0,0.0
0.0,0.0,0.0,0.0
27.142,-2.309,-0.679,0.0
24.259,-2.058,-0.737,0.0
0.0,0.0,0.0,0.0
0.0,0.0,0.0,0.0
37.104,-3.124,-0.491,0.0
32.45,-2.723,-0.605,0.0
0.0,0.0,0.0,0.0
24.631,-2.054,-0.722,0.0
0.0,0.0,0.0,0.0
0.0,0.0,0.0,0.0
38.899,-3.219,-0.474,0.0
33.005,-2.722,-0.582,0.0
28.413,-2.335,-0.652,0.0
24.723,-2.025,-0.7,0.0
0.0,0.0,0.0,0.0
0.0,0.0,0.0,0.0
41.349,-3.36,-0.463,0.0
0.0,0.0,0.0,0.0
29.207,-2.357,-0.642,0.0
25.926,-2.085,-0.708,0.0
0.0,0.0,0.0,0.0
0.0,0.0,0.0,0.0
41.663,-3.323,-0.425,0.0
0.0,0.0,0.0,0.0
30.298,-2.399,-0.636,0.0
26.772,-2.112,-0.705,0.0
0.0,0.0,0.0,0.0
0.0,0.0,0.0,0.0
0.0,0.0,0.0,0.0
36.492,-2.843,-0.536,0.0
0.0,0.0,0.0,0.0
27.194,-2.102,-0.69,0.0
99.048,-7.65,0.236,2.0
0.0,0.0,0.0,0.0
0.0,0.0,0.0,0.0
36.924,-2.818,-0.508,0.0
31.126,-2.366,-0.595,0.0
27.587,-2.088,-0.675,0.0
98.922,-7.481,0.327,6.0
0.0,0.0,0.0,0.0
0.0,0.0,0.0,0.0
37.18,-2.777,-0.478,0.0
32.809,-2.44,-0.598,0.0
27.77,-2.057,-0.654,0.0
99.095,-7.332,0.416,13.0
0.0,0.0,0.0,0.0
0.0,0.0,0.0,0.0
39.224,-2.864,-0.469,0.0
33.249,-2.418,-0.576,0.0
0.0,0.0,0.0,0.0
100.028,-7.235,0.506,10.0
64.798,-4.665,-0.019,0.0
0.0,0.0,0.0,0.0
41.884,-2.989,-0.466,0.0
0.0,0.0,0.0,0.0
29.044,-2.054,-0.635,0.0
100.062,-7.066,0.59,9.0
0.0,0.0,0.0,0.0
0.0,0.0,0.0,0.0
41.81,-2.912,-0.431,0.0
34.313,-2.379,-0.538,0.0
0.0,0.0,0.0,0.0
100.066,-6.895,0.669,5.0
0.0,0.0,0.0,0.0
0.0,0.0,0.0,0.0
0.0,0.0,0.0,0.0
0.0,0.0,0.0,0.0
0.0,0.0,0.0,0.0
0.0,0.0,0.0,0.0
0.0,0.0,0.0,0.0
0.0,0.0,0.0,0.0
0.0,0.0,0.0,0.0
0.0,0.0,0.0,0.0
0.0,0.0,0.0,0.0
125.063,-8.178,1.027,8.0
99.73,-6.488,0.282,5.0
0.0,0.0,0.0,0.0
0.0,0.0,0.0,0.0
37.571,-2.406,-0.504,0.0
31.737,-2.022,-0.597,0.0
125.303,-7.968,1.118,13.0
0.0,0.0,0.0,0.0
0.0,0.0,0.0,0.0
0.0,0.0,0.0,0.0
38.205,-2.377,-0.486,0.0
32.475,-2.01,-0.588,0.0
149.911,-9.259,1.44,15.0
108.637,-6.671,0.458,4.0
0.0,0.0,0.0,0.0
0.0,0.0,0.0,0.0
0.0,0.0,0.0,0.0
32.327,-1.941,-0.564,0.0
150.054,-8.989,1.541,16.0
109.209,-6.502,0.531,2.0
0.0,0.0,0.0,0.0
0.0,0.0,0.0,0.0
0.0,0.0,0.0,0.0
34.979,-2.034,-0.589,0.0
140.725,-8.165,1.531,11.0
0.0,0.0,0.0,0.0
0.0,0.0,0.0,0.0
0.0,0.0,0.0,0.0
40.43,-2.288,-0.438,0.0
0.0,0.0,0.0,0.0
0.0,0.0,0.0,0.0
101.49,-5.658,0.615,150.0
101.692,-5.634,0.066,1.0
0.0,0.0,0.0,0.0
41.784,-2.285,-0.429,0.0
0.0,0.0,0.0,0.0
101.608,-5.506,1.222,3.0
102.424,-5.513,0.677,1.0
0.0,0.0,0.0,0.0
0.0,0.0,0.0,0.0
0.0,0.0,0.0,0.0
35.414,-1.855,-0.537,0.0
101.507,-5.304,1.274,6.0
0.0,0.0,0.0,0.0
0.0,0.0,0.0,0.0
0.0,0.0,0.0,0.0
0.0,0.0,0.0,0.0
0.0,0.0,0.0,0.0
0.0,0.0,0.0,0.0
101.391,-5.059,0.771,2.0
0.0,0.0,0.0,0.0
0.0,0.0,0.0,0.0
45.341,-2.213,-0.397,0.0
0.0,0.0,0.0,0.0
101.47,-4.9,1.369,1.0
101.523,-4.865,0.818,150.0
0.0,0.0,0.0,0.0
0.0,0.0,0.0,0.0
0.0,0.0,0.0,0.0
0.0,0.0,0.0,0.0
0.0,0.0,0.0,0.0
101.499,-4.662,0.859,6.0
0.0,0.0,0.0,0.0
0.0,0.0,0.0,0.0
0.0,0.0,0.0,0.0
0.0,0.0,0.0,0.0
101.527,-4.497,1.451,55.0
0.0,0.0,0.0,0.0
0.0,0.0,0.0,0.0
0.0,0.0,0.0,0.0
0.0,0.0,0.0,0.0
37.779,-1.605,-0.493,0.0
101.545,-4.293,1.486,150.0
101.468,-4.253,0.931,11.0
0.0,0.0,0.0,0.0
0.0,0.0,0.0,0.0
0.0,0.0,0.0,0.0
37.734,-1.526,-0.48,0.0
0.0,0.0,0.0,0.0
0.0,0.0,0.0,0.0
0.0,0.0,0.0,0.0
0.0,0.0,0.0,0.0
0.0,0.0,0.0,0.0
38.066,-1.461,-0.473,0.0
105.03,-4.01,1.598,2.0
0.0,0.0,0.0,0.0
0.0,0.0,0.0,0.0
0.0,0.0,0.0,0.0
0.0,0.0,0.0,0.0
38.47,-1.397,-0.469,0.0
162.217,-5.858,2.507,15.0
162.182,-5.796,1.619,15.0
0.0,0.0,0.0,0.0
0.0,0.0,0.0,0.0
0.0,0.0,0.0,0.0
38.686,-1.325,-0.464,0.0
162.24,-5.522,2.541,19.0
162.027,-5.452,1.65,19.0
0.0,0.0,0.0,0.0
0.0,0.0,0.0,0.0
0.0,0.0,0.0,0.0
0.0,0.0,0.0,0.0
162.28,-5.182,2.567,6.0
161.979,-5.112,1.675,12.0
0.0,0.0,0.0,0.0
0.0,0.0,0.0,0.0
0.0,0.0,0.0,0.0
0.0,0.0,0.0,0.0
163.931,-4.891,2.615,23.0
162.143,-4.777,1.697,14.0
160.79,-4.678,0.8,3.0
0.0,0.0,0.0,0.0
0.0,0.0,0.0,0.0
0.0,0.0,0.0,0.0
0.0,0.0,0.0,0.0
161.991,-4.427,1.709,21.0
160.914,-4.336,0.813,5.0
0.0,0.0,0.0,0.0
0.0,0.0,0.0,0.0
40.256,-1.039,-0.464,0.0
170.383,-4.355,2.742,6.0
162.058,-4.081,1.717,25.0
160.85,-3.991,0.819,4.0
0.0,0.0,0.0,0.0
0.0,0.0,0.0,0.0
0.0,0.0,0.0,0.0
170.326,-3.993,2.744,5.0
162.071,-3.74,1.719,11.0
0.0,0.0,0.0,0.0
0.0,0.0,0.0,0.0
0.0,0.0,0.0,0.0
0.0,0.0,0.0,0.0
170.355,-3.628,2.74,5.0
102.813,-2.153,1.087,18.0
0.0,0.0,0.0,0.0
0.0,0.0,0.0,0.0
0.0,0.0,0.0,0.0
0.0,0.0,0.0,0.0
0.0,0.0,0.0,0.0
102.769,-1.933,1.08,150.0
0.0,0.0,0.0,0.0
0.0,0.0,0.0,0.0
0.0,0.0,0.0,0.0
0.0,0.0,0.0,0.0
0.0,0.0,0.0,0.0
102.717,-1.711,1.068,150.0
19.744,-0.322,0.096,8.0
0.0,0.0,0.0,0.0
0.0,0.0,0.0,0.0
0.0,0.0,0.0,0.0
19.777,-0.294,0.312,1.0
19.753,-0.287,0.202,24.0
19.754,-0.28,0.093,18.0
0.0,0.0,0.0,0.0
0.0,0.0,0.0,0.0
40.008,-0.524,-0.478,0.0
19.752,-0.252,0.308,12.0
19.758,-0.245,0.199,19.0
19.679,-0.237,0.089,0.0
0.0,0.0,0.0,0.0
0.0,0.0,0.0,0.0
39.259,-0.431,-0.477,0.0
19.766,-0.21,0.304,4.0
102.756,-1.057,1.014,151.0
0.0,0.0,0.0,0.0
0.0,0.0,0.0,0.0
19.762,-0.181,-0.135,9.0
19.753,-0.174,-0.244,14.0
0.0,0.0,0.0,0.0
102.776,-0.84,0.988,150.0
0.0,0.0,0.0,0.0
19.745,-0.147,-0.031,7.0
19.726,-0.139,-0.14,16.0
19.735,-0.132,-0.25,17.0
19.722,-0.125,0.293,3.0
19.723,-0.119,0.183,13.0
19.716,-0.111,0.074,10.0
19.716,-0.104,-0.037,14.0
19.718,-0.098,-0.146,17.0
19.747,-0.091,-0.256,16.0
19.67,-0.083,0.286,10.0
19.694,-0.076,0.177,16.0
19.693,-0.069,0.067,14.0
19.707,-0.062,-0.043,17.0
19.736,-0.055,-0.153,14.0
19.746,-0.048,-0.263,6.0
19.632,-0.041,0.278,12.0
19.665,-0.035,0.169,9.0
19.693,-0.027,0.06,12.0
19.728,-0.021,-0.051,11.0
19.729,-0.014,-0.161,0.0
0.0,0.0,0.0,0.0
19.625,0.0,0.27,15.0
19.765,0.006,0.162,3.0
19.774,0.013,0.052,5.0
19.749,0.02,-0.059,77.0
19.755,0.027,-0.169,10.0
19.766,0.034,-0.28,14.0
19.624,0.041,0.262,13.0
19.704,0.048,0.153,11.0
19.756,0.055,0.043,49.0
19.76,0.062,-0.068,39.0
19.774,0.069,-0.178,25.0
19.769,0.076,-0.289,7.0
19.623,0.082,0.252,17.0
19.657,0.089,0.143,13.0
19.648,0.096,0.033,10.0
19.692,0.103,-0.078,6.0
19.742,0.11,-0.188,0.0
0.0,0.0,0.0,0.0
19.648,0.123,0.243,12.0
19.647,0.13,0.133,14.0
19.64,0.137,0.023,17.0
19.637,0.144,-0.088,12.0
19.658,0.15,-0.198,12.0
19.673,0.157,-0.308,6.0
19.658,0.164,0.232,12.0
19.67,0.171,0.122,11.0
19.647,0.177,0.012,13.0
19.623,0.184,-0.098,16.0
19.637,0.19,-0.208,16.0
19.651,0.197,-0.318,15.0
19.763,0.205,0.222,21.0
19.756,0.212,0.111,15.0
19.666,0.218,0.001,10.0
19.627,0.224,-0.11,16.0
19.643,0.231,-0.22,17.0
19.67,0.238,-0.331,14.0
19.756,0.246,0.21,28.0
19.793,0.253,0.099,3.0
57.226,0.752,-0.032,0.0
19.672,0.264,-0.123,10.0
19.67,0.271,-0.233,14.0
19.678,0.277,-0.343,9.0
23.607,1.049,-0.112,73.0
23.609,1.056,-0.246,74.0
23.606,1.061,-0.38,68.0
23.603,1.067,-0.517,39.0
23.665,1.077,-0.653,1.0
18.739,0.857,-0.623,3.0
23.608,1.089,-0.14,67.0
23.613,1.095,-0.274,55.0
23.618,1.101,-0.408,41.0
23.567,1.105,-0.544,24.0
23.646,1.115,-0.68,1.0
18.402,0.872,-0.634,3.0
23.649,1.129,-0.168,38.0
23.646,1.135,-0.303,26.0
23.644,1.141,-0.437,15.0
23.327,1.131,-0.566,5.0
19.857,0.968,-0.595,2.0
18.077,0.886,-0.645,2.0
36.493,1.802,-0.304,7.0
29.948,1.485,-0.42,1.0
23.706,1.182,-0.467,1.0
21.853,1.094,-0.557,0.0
19.406,0.976,-0.605,2.0
17.742,0.897,-0.655,1.0
35.209,1.793,-0.337,8.0
29.066,1.487,-0.443,3.0
24.365,1.252,-0.51,2.0
21.048,1.086,-0.563,1.0
18.867,0.979,-0.612,3.0
17.317,0.902,-0.661,1.0
33.367,1.75,-0.361,10.0
28.3,1.491,-0.467,5.0
24.016,1.271,-0.534,1.0
20.706,1.1,-0.58,4.0
18.5,0.988,-0.624,3.0
17.087,0.916,-0.674,2.0
31.586,1.705,-0.383,7.0
26.968,1.461,-0.481,2.0
20.171,1.097,-0.474,0.0
19.97,1.091,-0.586,2.0
18.169,0.997,-0.637,3.0
16.927,0.933,-0.69,2.0
30.386,1.684,-0.408,6.0
25.861,1.439,-0.494,1.0
19.746,1.103,-0.49,10.0
19.674,1.103,-0.603,3.0
17.861,1.006,-0.649,1.0
16.815,0.95,-0.707,1.0
29.134,1.656,-0.429,8.0
24.878,1.419,-0.508,1.0
19.739,1.13,-0.516,11.0
19.022,1.093,-0.608,3.0
17.396,1.004,-0.655,1.0
16.631,0.964,-0.722,1.0
28.066,1.635,-0.451,7.0
23.984,1.402,-0.523,0.0
19.714,1.156,-0.542,8.0
18.512,1.09,-0.617,3.0
17.117,1.011,-0.668,1.0
16.414,0.974,-0.735,1.0
27.04,1.612,-0.471,7.0
19.858,1.188,-0.46,3.0
19.698,1.182,-0.569,10.0
18.259,1.1,-0.633,3.0
16.936,1.023,-0.684,1.0
16.241,0.985,-0.749,1.0
26.073,1.589,-0.49,4.0
19.742,1.206,-0.484,11.0
19.598,1.202,-0.593,8.0
17.807,1.096,-0.642,2.0
16.787,1.036,-0.702,1.0
16.07,0.995,-0.764,2.0
24.958,1.553,-0.504,3.0
19.733,1.231,-0.511,12.0
19.091,1.195,-0.604,3.0
17.444,1.095,-0.654,2.0
16.618,1.047,-0.718,1.0
15.942,1.008,-0.78,1.0
24.242,1.538,-0.524,1.0
19.717,1.255,-0.539,9.0
18.537,1.183,-0.613,3.0
17.154,1.098,-0.667,1.0
16.422,1.055,-0.733,1.0
15.534,1.001,-0.782,0.0
19.865,1.284,-0.457,3.0
19.704,1.278,-0.567,10.0
18.224,1.185,-0.628,2.0
16.933,1.104,-0.682,1.0
16.198,1.06,-0.746,1.0
15.267,1.001,-0.791,0.0
19.748,1.3,-0.483,9.0
19.596,1.293,-0.591,6.0
17.792,1.178,-0.639,2.0
16.767,1.113,-0.7,2.0
16.014,1.066,-0.761,1.0
14.905,0.995,-0.794,0.0
19.732,1.322,-0.511,10.0
18.945,1.272,-0.599,3.0
17.44,1.174,-0.652,2.0
16.558,1.118,-0.716,1.0
15.87,1.074,-0.777,1.0
14.511,0.985,-0.794,0.0
19.719,1.342,-0.54,8.0
18.505,1.263,-0.613,3.0
17.155,1.173,-0.666,2.0
16.352,1.121,-0.731,1.0
15.639,1.075,-0.789,0.0
14.236,0.981,-0.8,0.0
19.712,1.362,-0.568,9.0
18.167,1.258,-0.628,2.0
16.9,1.174,-0.681,1.0
16.118,1.122,-0.744,1.0
15.134,1.056,-0.786,0.0
13.982,0.978,-0.806,0.0
19.465,1.365,-0.59,4.0
17.7,1.244,-0.638,1.0
16.734,1.179,-0.7,1.0
15.977,1.128,-0.761,2.0
14.853,1.051,-0.793,0.0
13.631,0.967,-0.807,0.0
18.801,1.337,-0.598,3.0
17.385,1.239,-0.653,2.0
16.532,1.18,-0.716,1.0
15.737,1.126,-0.773,0.0
14.475,1.038,-0.795,0.0
13.485,0.969,-0.818,0.0
18.435,1.328,-0.614,2.0
17.096,1.234,-0.668,1.0
16.3,1.179,-0.73,1.0
15.258,1.106,-0.773,0.0
14.15,1.028,-0.798,0.0
13.157,0.958,-0.818,0.0
18.004,1.313,-0.627,1.0
16.836,1.23,-0.683,1.0
16.069,1.176,-0.744,2.0
15.003,1.1,-0.783,0.0
13.79,1.014,-0.799,0.0
12.92,0.952,-0.823,0.0
17.567,1.296,-0.638,2.0
16.684,1.233,-0.702,1.0
15.957,1.182,-0.763,1.0
14.667,1.088,-0.787,0.0
13.696,1.018,-0.814,0.0
12.664,0.943,-0.826,0.0
17.266,1.288,-0.653,2.0
16.48,1.231,-0.718,1.0
15.628,1.17,-0.771,0.0
14.243,1.068,-0.786,0.0
13.367,1.004,-0.815,0.0
12.554,0.945,-0.838,0.0
17.004,1.281,-0.669,1.0
16.243,1.226,-0.733,1.0
11.149,0.843,-0.567,0.0
14.072,1.066,-0.798,0.0
13.098,0.994,-0.818,0.0
12.279,0.933,-0.838,0.0
16.807,1.278,-0.687,2.0
16.007,1.22,-0.746,2.0
11.153,0.851,-0.584,0.0
13.797,1.054,-0.804,0.0
12.747,0.976,-0.816,0.0
12.108,0.929,-0.845,0.0
16.612,1.275,-0.704,1.0
15.864,1.219,-0.764,0.0
14.664,1.129,-0.79,0.0
13.544,1.044,-0.81,0.0
12.667,0.978,-0.83,0.0
11.777,0.911,-0.84,0.0
16.414,1.27,-0.721,1.0
15.375,1.191,-0.764,0.0
14.179,1.1,-0.786,0.0
13.189,1.025,-0.808,0.0
12.348,0.961,-0.828,0.0
11.517,0.898,-0.839,0.0
16.148,1.259,-0.733,1.0
15.268,1.192,-0.782,0.0
13.945,1.09,-0.794,0.0
12.936,1.013,-0.813,0.0
12.204,0.957,-0.837,0.0
11.435,0.898,-0.851,0.0
15.985,1.255,-0.751,1.0
14.756,1.16,-0.778,0.0
13.667,1.076,-0.799,0.0
12.757,1.006,-0.821,0.0
12.027,0.949,-0.843,0.0
11.264,0.89,-0.855,0.0
15.698,1.241,-0.761,0.0
14.41,1.14,-0.781,0.0
13.429,1.064,-0.805,0.0
12.551,0.995,-0.827,0.0
11.801,0.937,-0.845,0.0
11.113,0.884,-0.86,0.0
15.376,1.222,-0.768,0.0
14.269,1.135,-0.795,0.0
13.259,1.056,-0.815,0.0
12.346,0.985,-0.832,0.0
11.527,0.92,-0.843,0.0
10.885,0.87,-0.859,0.0
15.04,1.202,-0.774,0.0
12.88,1.031,-0.811,0.0
12.166,0.975,-0.838,0.0
11.364,0.912,-0.849,0.0
10.755,0.864,-0.865,0.0
14.594,1.172,-0.773,0.0
13.643,1.096,-0.801,0.0
12.713,1.023,-0.82,0.0
11.927,0.96,-0.839,0.0
11.168,0.9,-0.85,0.0
10.559,0.852,-0.865,0.0
14.402,1.161,-0.784,0.0
13.401,1.081,-0.807,0.0
12.534,1.012,-0.827,0.0
11.728,0.948,-0.843,0.0
11.014,0.891,-0.855,0.0
10.417,0.844,-0.869,0.0
14.066,1.138,-0.787,0.0
13.147,1.065,-0.811,0.0
12.345,1.0,-0.833,0.0
11.475,0.931,-0.842,0.0
10.845,0.88,-0.858,0.0
10.296,0.837,-0.875,0.0
13.839,1.123,-0.795,0.0
12.906,1.048,-0.816,0.0
12.084,0.982,-0.833,0.0
11.293,0.919,-0.845,0.0
10.731,0.874,-0.865,0.0
10.152,0.827,-0.878,0.0
13.626,1.109,-0.802,0.0
12.701,1.034,-0.821,0.0
11.904,0.97,-0.839,0.0
11.165,0.91,-0.852,0.0
10.507,0.857,-0.863,0.0
10.024,0.819,-0.881,0.0
13.376,1.09,-0.807,0.0
12.534,1.022,-0.829,0.0
11.648,0.951,-0.837,0.0
11.036,0.901,-0.858,0.0
10.386,0.849,-0.868,0.0
9.86,0.807,-0.881,0.0
13.005,1.062,-0.804,0.0
12.351,1.009,-0.834,0.0
11.436,0.935,-0.839,0.0
10.259,0.84,-0.872,0.0
9.761,0.799,-0.886,0.0
12.894,1.054,-0.815,0.0
12.097,0.989,-0.834,0.0
11.275,0.922,-0.843,0.0
10.123,0.829,-0.875,0.0
9.635,0.79,-0.889,0.0
12.719,1.04,-0.822,0.0
11.875,0.971,-0.836,0.0
11.148,0.912,-0.849,0.0
10.478,0.858,-0.86,0.0
10.034,0.822,-0.881,0.0
9.52,0.78,-0.891,0.0
12.489,1.021,-0.824,0.0
11.625,0.951,-0.834,0.0
11.002,0.9,-0.853,0.0
10.363,0.848,-0.864,0.0
9.877,0.809,-0.881,0.0
9.389,0.769,-0.892,0.0
12.329,1.007,-0.831,0.0
11.501,0.94,-0.841,0.0
10.891,0.89,-0.859,0.0
10.255,0.838,-0.87,0.0
9.767,0.799,-0.885,0.0
9.231,0.755,-0.89,0.0
12.162,0.992,-0.836,0.0
11.304,0.923,-0.842,0.0
10.154,0.829,-0.875,0.0
9.664,0.789,-0.889,0.0
9.145,0.747,-0.894,0.0
11.921,0.971,-0.835,0.0
11.217,0.914,-0.85,0.0
10.572,0.862,-0.863,0.0
10.03,0.818,-0.877,0.0
9.527,0.777,-0.889,0.0
8.979,0.732,-0.89,0.0
11.776,0.957,-0.84,0.0
11.08,0.901,-0.855,0.0
10.386,0.845,-0.861,0.0
9.907,0.806,-0.88,0.0
9.422,0.766,-0.891,0.0
8.871,0.722,-0.891,0.0
11.52,0.934,-0.837,0.0
10.918,0.885,-0.856,0.0
10.303,0.836,-0.868,0.0
9.79,0.794,-0.882,0.0
9.305,0.755,-0.892,0.0
8.787,0.713,-0.894,0.0
11.382,0.92,-0.842,0.0
10.76,0.87,-0.858,0.0
10.189,0.824,-0.871,0.0
9.719,0.786,-0.888,0.0
9.194,0.743,-0.893,0.0
8.691,0.703,-0.895,0.0
11.217,0.904,-0.844,0.0
10.628,0.856,-0.861,0.0
10.081,0.812,-0.874,0.0
9.564,0.77,-0.886,0.0
9.063,0.73,-0.892,0.0
8.59,0.692,-0.895,0.0
11.142,0.894,-0.852,0.0
10.478,0.84,-0.861,0.0
9.958,0.798,-0.876,0.0
9.477,0.76,-0.89,0.0
8.958,0.718,-0.893,0.0
8.504,0.682,-0.897,0.0
11.035,0.881,-0.857,0.0
10.343,0.826,-0.863,0.0
9.88,0.788,-0.881,0.0
9.362,0.747,-0.89,0.0
8.833,0.705,-0.891,0.0
8.441,0.673,-0.9,0.0
10.899,0.866,-0.859,0.0
10.248,0.814,-0.867,0.0
9.753,0.774,-0.881,0.0
9.257,0.735,-0.891,0.0
8.764,0.695,-0.894,0.0
8.359,0.663,-0.901,0.0
10.15,0.801,-0.871,0.0
9.676,0.764,-0.886,0.0
9.151,0.722,-0.891,0.0
8.701,0.686,-0.898,0.0
8.276,0.653,-0.902,0.0
10.593,0.832,-0.86,0.0
10.075,0.79,-0.876,0.0
9.601,0.753,-0.89,0.0
9.055,0.71,-0.892,0.0
8.57,0.672,-0.894,0.0
8.207,0.643,-0.904,0.0
10.506,0.819,-0.864,0.0
9.986,0.778,-0.879,0.0
9.483,0.739,-0.889,0.0
8.494,0.661,-0.895,0.0
8.129,0.632,-0.904,0.0
10.411,0.806,-0.868,0.0
9.881,0.764,-0.88,0.0
9.442,0.73,-0.895,0.0
8.46,0.654,-0.901,0.0
8.068,0.623,-0.906,0.0
10.286,0.79,-0.868,0.0
9.795,0.752,-0.883,0.0
9.289,0.713,-0.891,0.0
8.812,0.676,-0.896,0.0
8.404,0.644,-0.904,0.0
8.005,0.613,-0.907,0.0
10.21,0.778,-0.872,0.0
9.713,0.74,-0.885,0.0
9.229,0.702,-0.894,0.0
8.709,0.662,-0.895,0.0
8.324,0.633,-0.903,0.0
7.971,0.605,-0.911,0.0
10.117,0.765,-0.873,0.0
9.651,0.729,-0.889,0.0
9.078,0.685,-0.888,0.0
8.633,0.651,-0.895,0.0
8.28,0.624,-0.907,0.0
7.922,0.596,-0.913,0.0
10.085,0.755,-0.88,0.0
9.547,0.714,-0.888,0.0
9.036,0.675,-0.893,0.0
8.574,0.64,-0.897,0.0
8.219,0.613,-0.907,0.0
7.882,0.588,-0.916,0.0
10.001,0.742,-0.882,0.0
9.479,0.702,-0.89,0.0
8.993,0.666,-0.896,0.0
8.546,0.632,-0.902,0.0
8.11,0.599,-0.903,0.0
7.862,0.58,-0.921,0.0
9.891,0.726,-0.881,0.0
9.391,0.689,-0.89,0.0
8.832,0.647,-0.888,0.0
8.432,0.617,-0.897,0.0
8.083,0.591,-0.907,0.0
7.819,0.571,-0.922,0.0
9.836,0.714,-0.884,0.0
9.304,0.675,-0.89,0.0
8.803,0.638,-0.893,0.0
8.39,0.607,-0.9,0.0
8.046,0.582,-0.909,0.0
7.766,0.561,-0.922,0.0
9.791,0.703,-0.888,0.0
9.229,0.662,-0.89,0.0
8.772,0.628,-0.896,0.0
8.361,0.598,-0.903,0.0
7.991,0.571,-0.909,0.0
7.731,0.552,-0.924,0.0
9.705,0.689,-0.888,0.0
9.199,0.652,-0.894,0.0
8.693,0.615,-0.895,0.0
8.301,0.587,-0.903,0.0
7.95,0.561,-0.911,0.0
7.716,0.544,-0.928,0.0
9.625,0.675,-0.888,0.0
9.153,0.641,-0.897,0.0
8.623,0.603,-0.894,0.0
8.274,0.577,-0.906,0.0
7.942,0.554,-0.915,0.0
7.672,0.534,-0.929,0.0
9.581,0.663,-0.89,0.0
9.056,0.626,-0.893,0.0
8.601,0.593,-0.898,0.0
8.172,0.563,-0.901,0.0
7.905,0.544,-0.917,0.0
7.598,0.522,-0.925,0.0
9.532,0.651,-0.892,0.0
8.995,0.613,-0.893,0.0
8.523,0.58,-0.895,0.0
8.2,0.557,-0.909,0.0
7.861,0.533,-0.917,0.0
7.584,0.514,-0.928,0.0
9.493,0.639,-0.894,0.0
9.005,0.605,-0.9,0.0
8.55,0.574,-0.903,0.0
8.181,0.548,-0.912,0.0
7.833,0.524,-0.918,0.0
7.582,0.506,-0.932,0.0
9.409,0.624,-0.892,0.0
8.96,0.593,-0.9,0.0
8.499,0.562,-0.903,0.0
8.098,0.534,-0.907,0.0
7.797,0.514,-0.918,0.0
7.536,0.496,-0.931,0.0
9.374,0.613,-0.894,0.0
8.937,0.583,-0.903,0.0
8.475,0.552,-0.905,0.0
8.045,0.523,-0.905,0.0
7.795,0.506,-0.922,0.0
7.506,0.486,-0.931,0.0
9.374,0.603,-0.898,0.0
8.829,0.567,-0.896,0.0
8.411,0.539,-0.902,0.0
8.05,0.515,-0.91,0.0
7.801,0.498,-0.926,0.0
7.482,0.477,-0.932,0.0
9.319,0.59,-0.897,0.0
8.858,0.559,-0.903,0.0
8.427,0.531,-0.907,0.0
8.031,0.505,-0.911,0.0
7.773,0.488,-0.927,0.0
7.479,0.468,-0.934,0.0
9.306,0.579,-0.9,0.0
8.858,0.55,-0.907,0.0
8.357,0.518,-0.903,0.0
8.006,0.495,-0.912,0.0
7.725,0.476,-0.924,0.0
7.439,0.458,-0.932,0.0
9.254,0.566,-0.898,0.0
8.801,0.537,-0.904,0.0
8.365,0.509,-0.907,0.0
8.014,0.487,-0.916,0.0
7.724,0.468,-0.927,0.0
7.42,0.448,-0.933,0.0
9.222,0.554,-0.898,0.0
8.784,0.526,-0.905,0.0
8.35,0.499,-0.908,0.0
8.012,0.477,-0.918,0.0
7.693,0.457,-0.925,0.0
7.415,0.44,-0.934,0.0
9.213,0.543,-0.9,0.0
8.753,0.514,-0.905,0.0
8.335,0.489,-0.909,0.0
7.975,0.466,-0.916,0.0
7.684,0.448,-0.926,0.0
7.405,0.431,-0.935,0.0
9.236,0.534,-0.905,0.0
8.733,0.503,-0.905,0.0
8.307,0.478,-0.908,0.0
7.969,0.457,-0.917,0.0
7.709,0.441,-0.931,0.0
7.381,0.421,-0.933,0.0
9.53,0.352,-0.909,0.0
9.043,0.332,-0.912,0.0
8.583,0.313,-0.913,0.0
8.225,0.299,-0.922,0.0
7.902,0.285,-0.929,0.0
7.593,0.273,-0.935,0.0
9.552,0.341,-0.905,0.0
9.091,0.322,-0.912,0.0
8.66,0.305,-0.916,0.0
8.295,0.291,-0.925,0.0
7.938,0.276,-0.929,0.0
7.638,0.264,-0.936,0.0
9.573,0.329,-0.902,0.0
9.145,0.313,-0.912,0.0
8.718,0.296,-0.917,0.0
8.319,0.281,-0.922,0.0
7.977,0.268,-0.928,0.0
7.691,0.257,-0.938,0.0
9.658,0.32,-0.903,0.0
9.164,0.302,-0.907,0.0
8.799,0.288,-0.92,0.0
8.344,0.271,-0.919,0.0
8.065,0.261,-0.933,0.0
7.719,0.248,-0.936,0.0
9.703,0.309,-0.901,0.0
9.233,0.292,-0.908,0.0
8.83,0.278,-0.917,0.0
8.435,0.264,-0.923,0.0
8.049,0.25,-0.925,0.0
7.758,0.239,-0.935,0.0
9.775,0.299,-0.9,0.0
9.325,0.284,-0.91,0.0
8.936,0.27,-0.921,0.0
8.518,0.256,-0.926,0.0
8.123,0.242,-0.927,0.0
7.823,0.232,-0.936,0.0
9.843,0.289,-0.899,0.0
9.37,0.274,-0.907,0.0
8.968,0.26,-0.917,0.0
8.542,0.246,-0.921,0.0
8.193,0.234,-0.929,0.0
7.878,0.224,-0.936,0.0
9.951,0.281,-0.901,0.0
9.476,0.265,-0.909,0.0
9.025,0.251,-0.915,0.0
8.62,0.238,-0.922,0.0
8.28,0.227,-0.932,0.0
7.91,0.215,-0.933,0.0
10.025,0.27,-0.898,0.0
9.537,0.255,-0.907,0.0
9.102,0.242,-0.915,0.0
8.685,0.229,-0.922,0.0
8.293,0.217,-0.926,0.0
7.981,0.207,-0.935,0.0
10.127,0.261,-0.898,0.0
9.621,0.246,-0.906,0.0
9.147,0.232,-0.911,0.0
8.779,0.221,-0.923,0.0
8.357,0.209,-0.925,0.0
8.04,0.199,-0.934,0.0
10.248,0.252,-0.899,0.0
9.723,0.237,-0.906,0.0
9.145,0.221,-0.902,0.0
8.823,0.211,-0.919,0.0
8.445,0.201,-0.926,0.0
8.085,0.19,-0.931,0.0
10.344,0.242,-0.898,0.0
9.844,0.228,-0.908,0.0
9.386,0.216,-0.916,0.0
8.925,0.203,-0.921,0.0
8.516,0.192,-0.925,0.0
8.135,0.182,-0.928,0.0
10.428,0.232,-0.894,0.0
9.9,0.218,-0.902,0.0
9.448,0.206,-0.912,0.0
9.031,0.195,-0.922,0.0
8.602,0.184,-0.925,0.0
8.21,0.174,-0.928,0.0
10.59,0.223,-0.896,0.0
10.003,0.209,-0.901,0.0
9.529,0.197,-0.91,0.0
9.088,0.186,-0.918,0.0
8.683,0.176,-0.924,0.0
8.289,0.166,-0.927,0.0
10.745,0.214,-0.898,0.0
10.162,0.2,-0.904,0.0
9.643,0.188,-0.91,0.0
9.224,0.178,-0.921,0.0
8.793,0.168,-0.926,0.0
8.383,0.159,-0.928,0.0
10.815,0.203,-0.891,0.0
10.238,0.19,-0.898,0.0
9.753,0.179,-0.909,0.0
9.27,0.169,-0.915,0.0
8.84,0.159,-0.92,0.0
8.511,0.151,-0.932,0.0
10.966,0.194,-0.89,0.0
10.368,0.181,-0.897,0.0
9.847,0.17,-0.905,0.0
9.408,0.161,-0.917,0.0
8.986,0.152,-0.924,0.0
8.588,0.144,-0.93,0.0
11.126,0.185,-0.889,0.0
10.546,0.173,-0.9,0.0
9.995,0.162,-0.906,0.0
9.483,0.152,-0.912,0.0
9.059,0.143,-0.92,0.0
8.659,0.135,-0.926,0.0
11.288,0.175,-0.888,0.0
10.713,0.164,-0.9,0.0
10.158,0.154,-0.908,0.0
9.591,0.144,-0.91,0.0
9.206,0.136,-0.923,0.0
8.789,0.128,-0.929,0.0
11.506,0.167,-0.89,0.0
10.838,0.155,-0.896,0.0
10.272,0.145,-0.905,0.0
9.725,0.135,-0.91,0.0
9.311,0.128,-0.921,0.0
8.846,0.12,-0.923,0.0
11.642,0.157,-0.885,2.0
11.013,0.146,-0.896,0.0
10.455,0.137,-0.906,0.0
9.864,0.127,-0.909,0.0
9.434,0.12,-0.92,0.0
9.002,0.113,-0.926,0.0
11.777,0.147,-0.879,2.0
11.151,0.137,-0.891,0.0
10.579,0.128,-0.902,0.0
9.944,0.118,-0.902,0.0
9.565,0.112,-0.919,0.0
9.109,0.105,-0.924,0.0
11.955,0.137,-0.875,0.0
11.308,0.128,-0.888,0.0
10.721,0.119,-0.899,0.0
10.173,0.111,-0.908,0.0
9.669,0.104,-0.915,0.0
9.26,0.098,-0.926,0.0
12.203,0.129,-0.875,0.0
11.533,0.119,-0.889,0.0
10.917,0.111,-0.899,0.0
10.344,0.103,-0.908,0.0
9.843,0.097,-0.917,0.0
9.326,0.09,-0.919,0.0
12.434,0.119,-0.873,0.0
11.693,0.11,-0.884,0.0
11.051,0.102,-0.894,0.0
10.502,0.095,-0.906,0.0
9.923,0.088,-0.909,0.0
9.542,0.083,-0.925,0.0
12.636,0.11,-0.868,0.0
11.905,0.101,-0.881,0.0
11.242,0.094,-0.892,0.0
10.664,0.087,-0.904,0.0
10.107,0.081,-0.91,0.0
9.625,0.075,-0.918,0.0
12.863,0.1,-0.864,0.0
12.145,0.093,-0.88,0.0
11.462,0.086,-0.891,0.0
10.855,0.079,-0.902,0.0
10.31,0.073,-0.912,0.0
9.736,0.068,-0.913,0.0
13.112,0.091,-0.86,0.0
12.364,0.084,-0.876,0.0
11.674,0.077,-0.889,0.0
11.017,0.071,-0.898,0.0
10.471,0.066,-0.909,0.0
9.882,0.06,-0.911,0.0
13.394,0.082,-0.856,0.0
12.591,0.075,-0.872,0.0
11.864,0.069,-0.884,0.0
11.222,0.063,-0.896,0.0
10.653,0.058,-0.907,0.0
10.103,0.054,-0.914,0.0
13.701,0.073,-0.853,0.0
12.821,0.066,-0.866,0.0
12.068,0.06,-0.879,0.0
11.416,0.055,-0.893,0.0
10.819,0.051,-0.903,0.0
10.266,0.047,-0.912,0.0
13.969,0.063,-0.847,0.0
13.116,0.058,-0.864,0.0
12.339,0.052,-0.878,0.0
11.658,0.048,-0.892,0.0
11.002,0.043,-0.9,0.0
10.438,0.04,-0.909,0.0
14.397,0.055,-0.848,0.0
13.373,0.049,-0.858,0.0
12.613,0.044,-0.876,1.0
11.851,0.04,-0.886,0.0
11.226,0.036,-0.899,0.0
10.644,0.033,-0.908,0.0
14.663,0.045,-0.839,0.0
13.7,0.04,-0.855,0.0
12.802,0.036,-0.866,0.0
12.058,0.032,-0.881,0.0
11.432,0.029,-0.895,0.0
10.827,0.026,-0.905,0.0
15.096,0.036,-0.836,0.0
14.028,0.032,-0.851,0.0
13.14,0.028,-0.866,0.0
12.339,0.024,-0.879,0.0
11.648,0.022,-0.891,0.0
11.034,0.019,-0.902,0.0
15.482,0.027,-0.83,0.0
14.389,0.023,-0.847,0.0
13.429,0.02,-0.861,0.0
12.596,0.017,-0.875,0.0
11.899,0.015,-0.889,0.0
11.267,0.012,-0.901,0.0
15.89,0.018,-0.823,0.0
14.635,0.015,-0.835,0.0
13.772,0.012,-0.857,0.0
12.842,0.01,-0.868,0.0
12.138,0.007,-0.884,0.0
11.48,0.006,-0.896,0.0
16.348,0.009,-0.817,0.0
15.177,0.006,-0.838,0.0
14.088,0.004,-0.851,0.0
13.193,0.002,-0.867,0.0
12.397,0.001,-0.88,0.0
11.683,0.0,-0.891,0.0
16.987,0.0,-0.817,0.0
15.57,-0.001,-0.83,0.0
14.484,-0.003,-0.848,0.0
13.475,-0.004,-0.861,0.0
12.667,-0.005,-0.875,0.0
11.958,-0.006,-0.889,0.0
17.434,-0.009,-0.806,0.0
16.046,-0.01,-0.825,0.0
14.858,-0.011,-0.841,0.0
13.852,-0.011,-0.858,0.0
12.963,-0.012,-0.871,0.0
12.221,-0.012,-0.885,0.0
18.06,-0.018,-0.8,0.0
16.456,-0.018,-0.815,0.0
15.305,-0.018,-0.837,0.0
14.192,-0.018,-0.852,0.0
13.274,-0.018,-0.866,0.0
12.483,-0.018,-0.88,0.0
18.77,-0.027,-0.796,0.0
17.156,-0.026,-0.817,0.0
15.655,-0.026,-0.826,0.0
14.575,-0.025,-0.847,0.0
13.636,-0.025,-0.863,0.0
12.742,-0.024,-0.873,0.0
19.614,-0.037,-0.794,0.0
17.711,-0.035,-0.808,0.0
16.262,-0.033,-0.827,0.0
15.019,-0.032,-0.843,0.0
13.965,-0.031,-0.856,0.0
13.095,-0.03,-0.871,0.0
19.755,-0.045,-0.76,2.0
18.516,-0.043,-0.809,0.0
16.729,-0.041,-0.817,0.0
15.369,-0.038,-0.832,0.0
14.376,-0.037,-0.853,0.0
13.424,-0.036,-0.866,0.0
20.031,-0.052,-0.731,0.0
19.004,-0.051,-0.792,0.0
17.192,-0.048,-0.806,0.0
15.854,-0.045,-0.827,0.0
14.826,-0.043,-0.85,0.0
13.772,-0.041,-0.861,0.0
21.651,-0.064,-0.747,0.0
19.716,-0.059,-0.782,2.0
18.028,-0.055,-0.809,0.0
16.464,-0.052,-0.826,0.0
15.198,-0.049,-0.841,0.0
14.141,-0.046,-0.856,0.0
22.416,-0.072,-0.729,0.0
19.813,-0.065,-0.747,2.0
18.676,-0.062,-0.801,0.0
17.012,-0.058,-0.819,0.0
15.522,-0.054,-0.828,0.0
14.53,-0.051,-0.85,0.0
19.779,-0.068,-0.603,2.0
19.792,-0.07,-0.706,2.0
19.571,-0.07,-0.799,0.0
17.636,-0.064,-0.813,0.0
16.118,-0.059,-0.827,0.0
14.963,-0.056,-0.845,0.0
19.776,-0.073,-0.563,7.0
19.79,-0.074,-0.665,2.0
19.729,-0.074,-0.765,3.0
18.317,-0.07,-0.807,0.0
16.725,-0.065,-0.823,0.0
15.378,-0.06,-0.837,0.0
19.767,-0.076,-0.522,10.0
19.773,-0.077,-0.624,6.0
19.765,-0.078,-0.726,3.0
19.008,-0.075,-0.798,0.0
17.186,-0.069,-0.81,0.0
15.723,-0.064,-0.823,0.0
19.764,-0.079,-0.481,13.0
19.758,-0.079,-0.582,11.0
19.77,-0.08,-0.685,7.0
19.687,-0.081,-0.786,3.0
18.094,-0.075,-0.815,0.0
16.464,-0.068,-0.827,0.0
19.761,-0.081,-0.44,15.0
19.756,-0.081,-0.541,13.0
19.766,-0.082,-0.643,8.0
19.739,-0.082,-0.746,6.0
18.724,-0.079,-0.805,0.0
16.996,-0.072,-0.818,0.0
19.763,-0.082,-0.398,15.0
19.753,-0.082,-0.5,13.0
19.767,-0.083,-0.602,11.0
19.76,-0.083,-0.706,8.0
19.579,-0.083,-0.8,1.0
17.611,-0.075,-0.811,0.0
19.77,-0.083,-0.357,14.0
19.747,-0.083,-0.458,14.0
19.756,-0.083,-0.56,13.0
19.761,-0.083,-0.664,9.0
19.731,-0.083,-0.765,5.0
18.54,-0.079,-0.815,0.0
19.762,-0.082,-0.315,16.0
19.76,-0.082,-0.417,14.0
19.757,-0.082,-0.519,13.0
19.763,-0.083,-0.623,10.0
19.756,-0.083,-0.724,7.0
19.254,-0.081,-0.805,0.0
19.757,-0.081,-0.274,16.0
19.763,-0.081,-0.376,13.0
19.744,-0.081,-0.477,13.0
19.758,-0.081,-0.581,12.0
19.768,-0.081,-0.683,8.0
19.695,-0.081,-0.782,2.0
19.744,-0.079,-0.232,16.0
19.749,-0.079,-0.334,14.0
19.751,-0.079,-0.435,14.0
19.746,-0.079,-0.539,12.0
19.764,-0.079,-0.641,6.0
19.757,-0.079,-0.743,5.0
19.733,-0.077,-0.19,17.0
19.755,-0.077,-0.292,14.0
19.759,-0.076,-0.394,13.0
19.746,-0.076,-0.497,10.0
19.759,-0.076,-0.599,7.0
19.78,-0.075,-0.702,2.0
19.723,-0.074,-0.148,17.0
19.745,-0.073,-0.25,15.0
19.749,-0.073,-0.351,11.0
19.749,-0.072,-0.455,10.0
19.758,-0.072,-0.557,6.0
19.778,-0.072,-0.66,1.0
19.721,-0.07,-0.106,16.0
19.736,-0.069,-0.208,15.0
19.752,-0.069,-0.31,14.0
19.758,-0.068,-0.413,10.0
19.756,-0.067,-0.515,4.0
19.794,-0.067,-0.618,1.0
19.723,-0.065,-0.064,14.0
19.726,-0.064,-0.166,16.0
19.748,-0.064,-0.268,14.0
19.771,-0.063,-0.372,9.0
19.758,-0.062,-0.473,2.0
19.801,-0.061,-0.576,1.0
19.707,-0.06,-0.023,17.0
19.72,-0.059,-0.124,15.0
19.734,-0.058,-0.226,14.0
19.755,-0.057,-0.33,12.0
19.775,-0.056,-0.432,2.0
25.91,-0.072,-0.7,0.0
19.706,-0.053,0.018,17.0
19.723,-0.052,-0.083,12.0
19.721,-0.051,-0.184,14.0
19.753,-0.05,-0.288,13.0
19.784,-0.049,-0.39,1.0
26.681,-0.065,-0.664,0.0
19.711,-0.046,0.06,16.0
19.714,-0.045,-0.041,17.0
19.727,-0.044,-0.142,13.0
19.751,-0.043,-0.246,14.0
19.767,-0.042,-0.348,0.0
28.815,-0.059,-0.656,0.0
19.703,-0.039,0.101,18.0
19.707,-0.037,0.0,17.0
19.734,-0.036,-0.101,11.0
19.743,-0.035,-0.205,13.0
19.782,-0.034,-0.307,1.0
29.535,-0.048,-0.611,0.0
19.686,0.198,0.774,2.0
19.654,0.201,0.67,10.0
19.69,0.205,0.569,10.0
19.703,0.208,0.465,10.0
19.733,0.212,0.363,12.0
19.746,0.216,0.26,11.0
185.848,2.06,7.655,18.0
19.651,0.221,0.707,10.0
19.648,0.224,0.604,10.0
19.673,0.228,0.5,10.0
19.701,0.232,0.398,11.0
19.721,0.236,0.296,12.0
84.817,1.028,3.649,26.0
19.659,0.241,0.743,8.0
19.647,0.245,0.64,14.0
19.647,0.249,0.535,13.0
19.693,0.253,0.433,10.0
19.701,0.257,0.331,13.0
84.837,1.119,3.803,36.0
84.82,1.134,3.359,12.0
19.631,0.266,0.674,14.0
19.645,0.27,0.57,13.0
19.663,0.274,0.468,13.0
19.698,0.278,0.366,15.0
121.542,1.736,5.665,26.0
121.692,1.761,5.034,13.0
19.648,0.288,0.71,8.0
19.649,0.292,0.605,12.0
19.674,0.296,0.503,13.0
19.69,0.3,0.4,12.0
121.522,1.872,5.877,23.0
121.434,1.894,5.236,26.0
19.673,0.31,0.745,0.0
19.665,0.314,0.639,8.0
19.693,0.318,0.537,4.0
19.727,0.323,0.435,2.0
55.226,0.914,2.766,14.0
55.221,0.925,2.475,36.0
55.199,0.935,2.184,46.0
55.18,0.946,1.888,53.0
55.171,0.957,1.599,69.0
55.174,0.968,1.309,75.0
55.2,0.978,2.857,75.0
55.178,0.989,2.566,70.0
55.186,1.0,2.276,66.0
55.176,1.011,1.98,51.0
55.191,1.023,1.691,50.0
55.194,1.034,1.401,43.0
55.206,1.045,2.951,4.0
121.654,2.328,5.862,20.0
121.277,2.346,5.206,24.0
121.274,2.371,4.554,9.0
135.253,2.673,4.368,22.0
134.767,2.693,3.646,7.0
121.811,2.456,6.713,20.0
121.612,2.478,6.062,17.0
121.502,2.502,5.415,23.0
121.266,2.524,4.754,19.0
135.161,2.841,4.587,17.0
134.803,2.862,3.863,25.0
129.608,2.777,7.353,15.0
129.352,2.799,6.655,15.0
121.636,2.657,5.614,13.0
121.319,2.677,4.948,18.0
121.163,2.7,4.303,14.0
135.307,3.046,4.093,10.0
133.541,3.032,7.788,22.0
129.55,2.97,6.87,12.0
129.522,2.999,6.185,8.0
121.326,2.836,5.14,10.0
121.087,2.856,4.489,24.0
115.162,2.742,3.662,10.0
133.868,3.215,8.017,23.0
134.007,3.247,7.313,4.0
120.995,2.959,5.963,22.0
128.89,3.181,5.658,7.0
113.566,2.829,4.385,21.0
45.48,1.143,1.515,1.0
45.476,1.152,2.792,51.0
0.0,0.0,0.0,0.0
0.0,0.0,0.0,0.0
0.0,0.0,0.0,0.0
43.703,1.147,1.752,73.0
43.713,1.157,1.521,150.0
0.0,0.0,0.0,0.0
41.9,1.128,2.412,44.0
41.898,1.137,2.19,83.0
41.923,1.148,1.965,118.0
0.0,0.0,0.0,0.0
0.0,0.0,0.0,0.0
40.113,1.126,2.581,138.0
40.112,1.135,2.368,150.0
40.118,1.144,2.155,122.0
40.108,1.153,1.937,121.0
40.131,1.163,1.725,123.0
40.115,1.172,1.511,150.0
40.115,1.182,2.639,127.0
40.111,1.191,2.425,131.0
40.119,1.2,2.211,115.0
40.111,1.209,1.993,118.0
40.11,1.218,1.779,97.0
40.124,1.228,1.566,126.0
40.108,1.237,2.693,150.0
40.119,1.247,2.48,127.0
40.117,1.257,2.265,112.0
40.118,1.266,2.048,95.0
40.126,1.276,1.834,102.0
40.123,1.285,1.62,110.0
40.117,1.295,2.748,150.0
40.111,1.304,2.533,69.0
0.0,0.0,0.0,0.0
40.074,1.321,2.098,3.0
120.847,4.012,5.68,10.0
120.05,4.014,5.003,17.0
40.194,1.355,2.806,115.0
40.207,1.364,2.591,150.0
0.0,0.0,0.0,0.0
135.604,4.666,7.273,12.0
120.904,4.189,5.839,20.0
119.954,4.186,5.152,16.0
40.212,1.414,2.858,123.0
40.206,1.423,2.642,150.0
41.938,1.494,2.53,1.0
135.163,4.849,7.419,23.0
121.067,4.373,5.997,21.0
120.102,4.367,5.307,22.0
40.204,1.473,2.908,150.0
40.204,1.483,2.691,150.0
45.569,1.691,2.806,50.0
121.139,4.525,6.797,20.0
120.927,4.546,6.135,23.0
134.42,5.086,6.1,16.0
40.2,1.532,2.956,113.0
0.0,0.0,0.0,0.0
45.575,1.759,2.86,135.0
120.996,4.7,6.931,18.0
120.915,4.726,6.277,22.0
134.473,5.288,6.258,9.0
40.157,1.591,2.999,41.0
41.921,1.67,2.904,2.0
45.489,1.824,2.906,5.0
120.49,4.859,7.038,23.0
120.763,4.9,6.403,17.0
180.969,7.388,8.624,6.0
0.0,0.0,0.0,0.0
40.205,1.663,2.831,119.0
43.757,1.821,2.844,42.0
120.236,5.032,7.155,19.0
120.727,5.082,6.534,14.0
23.603,0.999,1.15,2.0
23.587,1.006,1.813,13.0
40.186,1.723,2.872,11.0
23.61,1.018,1.559,38.0
23.587,1.023,1.428,45.0
23.586,1.028,1.301,45.0
23.583,1.034,1.173,47.0
23.566,1.041,1.836,54.0
23.556,1.046,1.708,62.0
23.55,1.051,1.579,67.0
23.557,1.057,1.45,73.0
23.564,1.063,1.323,74.0
23.563,1.069,1.196,72.0
23.555,1.076,1.859,72.0
23.545,1.082,1.73,71.0
23.551,1.088,1.603,75.0
23.552,1.093,1.473,68.0
23.566,1.1,1.346,62.0
23.572,1.106,1.219,54.0
23.563,1.114,1.883,46.0
23.564,1.119,1.754,42.0
23.59,1.126,1.628,39.0
23.594,1.132,1.497,38.0
23.582,1.137,1.369,21.0
23.589,1.143,1.241,10.0
23.573,1.151,1.905,0.0
40.149,1.97,3.026,4.0
40.178,1.981,2.809,89.0
