X,Y,Z,Reflectivity
10.972,1.091,-0.845,0.0
10.309,1.024,-0.854,0.0
9.819,0.975,-0.87,0.0
9.299,0.923,-0.877,0.0
12.422,1.228,-0.825,0.0
11.468,1.132,-0.827,0.0
10.837,1.069,-0.844,0.0
10.228,1.008,-0.856,0.0
9.778,0.963,-0.874,0.0
9.208,0.907,-0.876,0.0
12.184,1.194,-0.819,0.0
11.341,1.111,-0.827,0.0
10.757,1.052,-0.846,0.0
10.165,0.994,-0.859,0.0
9.736,0.951,-0.878,0.0
9.173,0.896,-0.88,0.0
11.931,1.16,-0.811,0.0
11.275,1.095,-0.831,0.0
10.711,1.039,-0.851,0.0
10.15,0.984,-0.865,0.0
9.632,0.933,-0.876,0.0
9.068,0.878,-0.877,0.0
11.849,1.141,-0.815,0.0
11.218,1.08,-0.835,0.0
10.587,1.018,-0.849,0.0
10.01,0.962,-0.861,0.0
9.571,0.919,-0.878,0.0
9.018,0.865,-0.879,0.0
11.719,1.118,-0.814,0.0
11.171,1.065,-0.84,0.0
10.437,0.994,-0.844,0.0
9.999,0.951,-0.867,0.0
9.529,0.906,-0.881,0.0
8.939,0.849,-0.878,0.0
11.673,1.103,-0.819,0.0
11.108,1.049,-0.843,0.0
10.473,0.988,-0.854,0.0
9.961,0.938,-0.87,0.0
9.448,0.889,-0.88,0.0
8.933,0.84,-0.883,0.0
11.633,1.088,-0.824,0.0
11.029,1.031,-0.844,0.0
10.369,0.968,-0.852,0.0
9.906,0.924,-0.872,0.0
9.367,0.872,-0.878,0.0
8.874,0.826,-0.883,0.0
11.629,1.076,-0.831,0.0
11.012,1.018,-0.849,0.0
10.341,0.955,-0.856,0.0
9.857,0.909,-0.874,0.0
9.325,0.859,-0.88,0.0
8.83,0.812,-0.884,0.0
11.501,1.053,-0.828,0.0
10.883,0.995,-0.846,0.0
10.302,0.941,-0.859,0.0
9.796,0.893,-0.874,0.0
9.313,0.848,-0.884,0.0
8.763,0.797,-0.882,0.0
11.438,1.035,-0.83,0.0
10.825,0.978,-0.847,0.0
10.286,0.928,-0.863,0.0
9.786,0.882,-0.878,0.0
9.243,0.832,-0.882,0.0
8.733,0.785,-0.883,0.0
11.379,1.017,-0.831,0.0
10.775,0.962,-0.848,0.0
10.244,0.913,-0.865,0.0
9.716,0.865,-0.876,0.0
9.2,0.818,-0.882,0.0
8.733,0.775,-0.887,0.0
11.252,0.994,-0.827,0.0
10.689,0.943,-0.847,0.0
10.216,0.9,-0.867,0.0
9.657,0.849,-0.875,0.0
9.133,0.802,-0.88,0.0
8.719,0.764,-0.89,0.0
11.292,0.985,-0.835,0.0
10.71,0.932,-0.853,0.0
10.141,0.881,-0.865,0.0
9.627,0.835,-0.877,0.0
9.124,0.79,-0.883,0.0
8.706,0.753,-0.892,0.0
11.285,0.971,-0.839,0.0
10.602,0.911,-0.848,0.0
10.133,0.869,-0.868,0.0
9.63,0.824,-0.881,0.0
9.085,0.776,-0.882,0.0
8.694,0.742,-0.894,0.0
11.218,0.952,-0.838,0.0
10.571,0.896,-0.849,0.0
10.123,0.856,-0.871,0.0
9.605,0.811,-0.882,0.0
9.096,0.767,-0.887,0.0
8.684,0.731,-0.896,0.0
11.209,0.938,-0.841,0.0
10.556,0.881,-0.852,0.0
10.098,0.842,-0.872,0.0
9.615,0.8,-0.885,0.0
9.077,0.754,-0.887,0.0
8.661,0.718,-0.896,0.0
11.211,0.924,-0.844,0.0
10.584,0.871,-0.857,0.0
10.054,0.826,-0.87,0.0
9.572,0.785,-0.884,0.0
9.07,0.742,-0.889,0.0
8.583,0.701,-0.89,0.0
11.215,0.911,-0.847,0.0
10.601,0.859,-0.86,0.0
10.055,0.813,-0.873,0.0
9.588,0.774,-0.887,0.0
9.074,0.731,-0.891,0.0
8.596,0.691,-0.893,0.0
11.158,0.892,-0.845,0.0
10.509,0.838,-0.855,0.0
10.077,0.802,-0.877,0.0
9.511,0.756,-0.882,0.0
9.035,0.716,-0.889,0.0
8.565,0.678,-0.891,0.0
11.061,0.87,-0.839,0.0
10.516,0.825,-0.857,0.0
10.067,0.788,-0.877,0.0
9.544,0.746,-0.886,0.0
9.002,0.702,-0.887,0.0
8.65,0.673,-0.901,0.0
11.046,0.854,-0.839,0.0
10.484,0.809,-0.855,0.0
10.029,0.772,-0.875,0.0
9.557,0.734,-0.888,0.0
9.029,0.692,-0.89,0.0
8.604,0.658,-0.897,0.0
11.082,0.842,-0.843,0.0
10.517,0.798,-0.859,0.0
10.079,0.763,-0.88,0.0
9.556,0.721,-0.889,0.0
9.031,0.68,-0.891,0.0
8.62,0.648,-0.899,0.0
11.148,0.833,-0.848,0.0
10.531,0.785,-0.86,0.0
10.061,0.748,-0.878,0.0
9.577,0.71,-0.891,0.0
9.022,0.667,-0.89,0.0
8.653,0.639,-0.902,0.0
11.129,0.816,-0.846,0.0
10.551,0.772,-0.861,0.0
10.075,0.735,-0.879,0.0
9.573,0.697,-0.89,0.0
9.08,0.659,-0.895,0.0
8.658,0.627,-0.902,0.0
11.02,0.793,-0.838,0.0
10.532,0.756,-0.859,0.0
10.081,0.722,-0.879,0.0
9.582,0.684,-0.89,0.0
9.064,0.646,-0.893,0.0
8.653,0.615,-0.901,0.0
11.184,0.79,-0.849,0.0
10.528,0.741,-0.858,0.0
10.077,0.708,-0.877,0.0
9.586,0.671,-0.889,0.0
9.119,0.637,-0.897,0.0
8.688,0.605,-0.904,0.0
11.212,0.776,-0.849,0.0
10.492,0.724,-0.853,0.0
10.089,0.694,-0.877,0.0
9.606,0.659,-0.89,0.0
9.119,0.624,-0.896,0.0
8.689,0.593,-0.902,0.0
11.121,0.754,-0.84,0.0
10.504,0.71,-0.852,0.0
10.118,0.682,-0.877,0.0
9.644,0.648,-0.891,0.0
9.154,0.614,-0.897,0.0
8.731,0.584,-0.904,0.0
11.269,0.748,-0.849,0.0
10.571,0.7,-0.855,0.0
10.152,0.67,-0.878,0.0
9.686,0.637,-0.893,0.0
9.162,0.601,-0.895,0.0
8.747,0.572,-0.904,0.0
11.265,0.732,-0.846,0.0
10.64,0.689,-0.858,0.0
10.183,0.657,-0.878,0.0
9.697,0.624,-0.891,0.0
9.206,0.591,-0.897,0.0
8.779,0.562,-0.904,0.0
11.427,0.726,-0.854,0.0
10.604,0.672,-0.851,0.0
10.202,0.644,-0.876,0.0
9.702,0.61,-0.888,0.0
9.264,0.581,-0.899,0.0
8.777,0.549,-0.901,0.0
11.468,0.712,-0.853,0.0
10.738,0.665,-0.858,0.0
10.22,0.631,-0.873,0.0
9.761,0.6,-0.889,0.0
9.312,0.571,-0.9,0.0
8.855,0.541,-0.905,0.0
11.543,0.7,-0.854,0.0
10.774,0.651,-0.857,0.0
10.234,0.616,-0.87,0.0
9.816,0.589,-0.89,0.0
9.346,0.559,-0.899,0.0
8.849,0.527,-0.901,0.0
11.652,0.69,-0.857,0.0
10.928,0.645,-0.864,0.0
10.319,0.606,-0.873,0.0
9.859,0.577,-0.889,0.0
9.433,0.55,-0.903,0.0
8.985,0.523,-0.91,0.0
11.773,0.68,-0.86,0.0
10.99,0.632,-0.863,0.0
10.386,0.595,-0.873,0.0
9.929,0.567,-0.891,0.0
9.435,0.537,-0.898,0.0
8.96,0.508,-0.903,0.0
11.798,0.664,-0.855,0.0
11.136,0.625,-0.869,0.0
10.482,0.586,-0.875,0.0
9.937,0.553,-0.886,0.0
9.55,0.529,-0.904,0.0
9.033,0.499,-0.905,0.0
11.915,0.654,-0.857,0.0
11.15,0.609,-0.863,0.0
10.495,0.571,-0.87,0.0
10.013,0.543,-0.886,0.0
9.578,0.517,-0.901,0.0
9.068,0.487,-0.903,0.0
11.963,0.639,-0.853,0.0
11.233,0.597,-0.862,0.0
23.669,1.254,-1.948,0.0
10.043,0.53,-0.882,0.0
9.651,0.507,-0.901,0.0
9.162,0.479,-0.906,0.0
12.072,0.627,-0.852,0.0
11.38,0.588,-0.866,0.0
23.58,1.215,-1.924,0.0
10.12,0.519,-0.882,0.0
9.666,0.493,-0.896,0.0
9.208,0.468,-0.904,0.0
12.167,0.614,-0.851,0.0
11.469,0.576,-0.864,0.0
10.756,0.538,-0.869,0.0
10.16,0.506,-0.878,0.0
9.75,0.483,-0.896,0.0
9.281,0.458,-0.904,0.0
12.272,0.602,-0.848,0.0
11.55,0.564,-0.862,0.0
10.932,0.531,-0.875,0.0
10.233,0.495,-0.876,0.0
9.801,0.472,-0.893,0.0
9.348,0.448,-0.903,0.0
12.422,0.591,-0.849,0.0
11.636,0.551,-0.859,0.0
10.97,0.517,-0.869,0.0
10.365,0.486,-0.879,0.0
9.877,0.461,-0.892,0.0
9.443,0.439,-0.904,0.0
12.545,0.579,-0.847,0.0
11.87,0.545,-0.866,0.0
11.121,0.508,-0.872,0.0
10.44,0.474,-0.876,0.0
9.948,0.45,-0.889,0.0
9.543,0.429,-0.905,0.0
12.644,0.565,-0.842,0.0
11.935,0.531,-0.86,0.0
11.247,0.498,-0.872,0.0
10.564,0.465,-0.877,0.0
10.042,0.44,-0.889,0.0
9.596,0.418,-0.902,0.0
12.855,0.556,-0.845,0.0
12.081,0.52,-0.859,0.0
11.397,0.488,-0.873,0.0
10.706,0.456,-0.879,0.0
10.136,0.429,-0.887,0.0
9.683,0.408,-0.9,0.0
12.91,0.54,-0.836,0.0
12.165,0.506,-0.853,0.0
11.452,0.474,-0.865,0.0
10.807,0.445,-0.876,0.0
10.241,0.419,-0.886,0.0
9.797,0.399,-0.901,0.0
13.122,0.531,-0.836,0.0
12.31,0.495,-0.851,0.0
11.608,0.464,-0.865,0.0
10.955,0.435,-0.877,0.0
10.346,0.409,-0.885,0.0
9.879,0.388,-0.898,0.0
13.349,0.521,-0.837,0.0
12.517,0.486,-0.852,0.0
11.813,0.456,-0.868,0.0
11.119,0.426,-0.878,0.0
10.46,0.399,-0.883,0.0
9.97,0.378,-0.896,0.0
13.507,0.509,-0.832,0.0
12.669,0.474,-0.848,0.0
11.986,0.446,-0.867,0.0
11.223,0.415,-0.874,0.0
10.643,0.391,-0.886,0.0
10.108,0.369,-0.896,0.0
13.806,0.501,-0.835,0.0
12.944,0.466,-0.852,0.0
12.161,0.436,-0.866,0.0
11.359,0.404,-0.871,0.0
10.776,0.381,-0.885,0.0
10.224,0.359,-0.895,0.0
14.014,0.489,-0.831,0.0
13.088,0.454,-0.846,0.0
12.288,0.423,-0.861,0.0
11.568,0.396,-0.874,0.0
10.989,0.374,-0.889,0.0
10.35,0.35,-0.893,0.0
14.238,0.478,-0.827,0.0
13.263,0.442,-0.842,0.0
12.496,0.414,-0.86,0.0
11.693,0.384,-0.869,0.0
11.108,0.363,-0.885,0.0
10.482,0.34,-0.891,0.0
14.464,0.466,-0.822,0.0
13.603,0.435,-0.846,0.0
12.704,0.404,-0.858,0.0
11.889,0.375,-0.868,0.0
11.211,0.351,-0.879,0.0
10.667,0.332,-0.894,0.0
14.75,0.456,-0.82,0.0
13.8,0.424,-0.841,0.0
12.879,0.392,-0.853,0.0
12.089,0.366,-0.867,0.0
11.381,0.342,-0.877,0.0
10.798,0.322,-0.89,0.0
15.138,0.448,-0.821,0.0
14.085,0.414,-0.839,0.0
13.107,0.382,-0.851,0.0
12.272,0.355,-0.864,0.0
11.646,0.335,-0.882,0.0
10.968,0.313,-0.889,0.0
15.395,0.436,-0.814,0.0
14.32,0.403,-0.834,0.0
13.422,0.374,-0.853,0.0
12.486,0.345,-0.861,0.0
11.794,0.324,-0.877,0.0
11.114,0.303,-0.886,0.0
15.909,0.431,-0.82,0.0
14.572,0.391,-0.828,0.0
13.706,0.365,-0.852,0.0
12.664,0.334,-0.856,0.0
11.998,0.314,-0.875,0.0
11.299,0.294,-0.884,0.0
16.329,0.421,-0.818,0.0
14.862,0.38,-0.823,0.0
13.932,0.354,-0.846,0.0
12.924,0.325,-0.854,0.0
12.207,0.305,-0.872,0.0
11.498,0.284,-0.883,0.0
16.751,0.412,-0.814,0.0
15.225,0.371,-0.821,0.0
14.191,0.343,-0.84,0.0
13.26,0.317,-0.857,0.0
12.396,0.294,-0.867,0.0
11.688,0.275,-0.88,0.0
17.235,0.403,-0.812,0.0
15.702,0.364,-0.823,0.0
14.528,0.334,-0.838,0.0
13.602,0.31,-0.858,1.0
12.693,0.286,-0.869,0.0
11.945,0.267,-0.881,0.0
17.573,0.39,-0.801,1.0
16.051,0.353,-0.817,0.0
14.797,0.322,-0.831,0.0
13.881,0.3,-0.854,1.0
12.867,0.275,-0.86,0.0
12.179,0.258,-0.879,0.0
17.872,0.376,-0.787,0.0
16.439,0.342,-0.81,0.0
15.172,0.313,-0.828,0.0
14.164,0.289,-0.849,1.0
13.23,0.268,-0.863,0.0
12.374,0.248,-0.873,0.0
18.373,0.366,-0.78,0.0
17.118,0.337,-0.817,0.0
15.501,0.302,-0.821,0.0
14.42,0.278,-0.841,0.0
13.526,0.259,-0.861,0.0
12.614,0.238,-0.869,0.0
18.947,0.356,-0.773,0.0
17.599,0.327,-0.811,1.0
15.906,0.293,-0.816,0.0
14.836,0.27,-0.841,0.0
13.817,0.249,-0.856,1.0
12.881,0.23,-0.866,0.0
19.755,0.35,-0.773,2.0
17.921,0.314,-0.795,1.0
16.619,0.288,-0.825,0.0
15.139,0.259,-0.833,0.0
14.141,0.239,-0.852,1.0
13.195,0.221,-0.865,1.0
19.793,0.329,-0.741,3.0
18.395,0.302,-0.785,0.0
16.707,0.272,-0.801,1.0
15.483,0.249,-0.825,0.0
14.495,0.23,-0.849,1.0
13.486,0.212,-0.861,1.0
0.0,0.0,0.0,0.0
19.119,0.295,-0.783,0.0
17.586,0.268,-0.813,0.0
15.747,0.237,-0.812,0.0
14.87,0.221,-0.845,1.0
13.784,0.202,-0.855,0.0
21.203,0.309,-0.72,0.0
19.549,0.282,-0.766,3.0
17.974,0.256,-0.799,0.0
16.616,0.233,-0.827,0.0
15.221,0.211,-0.837,0.0
14.185,0.194,-0.855,0.0
19.703,0.268,-0.634,6.0
19.589,0.263,-0.733,7.0
18.805,0.249,-0.802,0.0
17.021,0.223,-0.817,0.0
15.633,0.202,-0.832,1.0
14.534,0.185,-0.85,0.0
19.686,0.249,-0.599,16.0
19.668,0.245,-0.701,11.0
19.271,0.237,-0.787,2.0
17.537,0.213,-0.81,0.0
15.818,0.189,-0.813,0.0
14.899,0.176,-0.844,0.0
19.671,0.231,-0.562,18.0
19.675,0.227,-0.665,17.0
19.568,0.223,-0.763,3.0
18.132,0.204,-0.804,0.0
16.695,0.185,-0.827,0.0
15.306,0.167,-0.838,0.0
19.674,0.213,-0.526,18.0
19.683,0.21,-0.628,17.0
19.66,0.207,-0.73,6.0
18.689,0.194,-0.793,0.0
17.129,0.175,-0.817,0.0
15.702,0.158,-0.831,0.0
19.678,0.196,-0.489,15.0
19.669,0.193,-0.591,12.0
19.686,0.19,-0.694,7.0
19.405,0.185,-0.787,1.0
17.752,0.166,-0.813,0.0
16.08,0.148,-0.82,0.0
19.681,0.18,-0.452,10.0
19.7,0.177,-0.555,4.0
19.714,0.174,-0.657,1.0
19.71,0.171,-0.762,2.0
18.247,0.156,-0.8,0.0
16.733,0.141,-0.821,0.0
19.724,0.164,-0.415,1.0
25.412,0.208,-0.666,0.0
22.715,0.183,-0.713,0.0
20.43,0.161,-0.75,0.0
19.03,0.148,-0.797,0.0
17.377,0.132,-0.818,0.0
30.466,0.23,-0.581,0.0
26.772,0.199,-0.649,0.0
24.144,0.176,-0.711,0.0
21.171,0.151,-0.735,0.0
19.572,0.137,-0.781,1.0
17.902,0.123,-0.807,0.0
32.663,0.223,-0.558,0.0
28.13,0.188,-0.626,0.0
25.034,0.164,-0.687,0.0
22.105,0.142,-0.724,0.0
19.823,0.125,-0.752,1.0
18.487,0.114,-0.797,0.0
0.0,0.0,0.0,0.0
29.705,0.178,-0.603,0.0
26.341,0.155,-0.671,0.0
22.964,0.132,-0.706,0.0
20.79,0.117,-0.747,0.0
19.264,0.106,-0.792,0.0
35.992,0.196,-0.473,0.0
19.658,0.105,-0.36,0.0
19.772,0.103,-0.464,0.0
19.805,0.101,-0.569,0.0
19.864,0.099,-0.674,0.0
19.725,0.096,-0.771,2.0
19.778,0.095,-0.219,2.0
19.778,0.093,-0.321,5.0
19.767,0.091,-0.424,9.0
19.777,0.089,-0.528,9.0
19.788,0.086,-0.631,10.0
19.782,0.084,-0.733,8.0
19.784,0.083,-0.179,32.0
19.77,0.081,-0.281,30.0
19.785,0.079,-0.384,30.0
19.775,0.077,-0.488,54.0
19.783,0.075,-0.59,26.0
19.795,0.073,-0.693,27.0
19.78,0.072,-0.139,59.0
19.789,0.07,-0.241,39.0
19.784,0.068,-0.343,29.0
19.773,0.066,-0.447,34.0
19.782,0.064,-0.549,21.0
19.778,0.063,-0.652,16.0
19.76,0.062,-0.098,49.0
19.766,0.06,-0.2,49.0
19.752,0.058,-0.302,45.0
19.759,0.056,-0.406,19.0
19.775,0.054,-0.508,14.0
19.777,0.053,-0.61,9.0
19.761,0.052,-0.057,67.0
19.756,0.05,-0.158,16.0
19.765,0.048,-0.261,13.0
19.757,0.047,-0.364,13.0
19.773,0.045,-0.466,12.0
19.771,0.043,-0.568,13.0
19.753,0.042,-0.015,26.0
19.754,0.041,-0.117,8.0
19.751,0.039,-0.219,13.0
19.767,0.038,-0.323,12.0
19.761,0.036,-0.425,9.0
19.777,0.035,-0.527,14.0
19.755,0.034,0.025,15.0
19.748,0.033,-0.075,18.0
19.754,0.031,-0.177,6.0
19.76,0.03,-0.281,4.0
19.778,0.029,-0.383,2.0
19.776,0.027,-0.485,2.0
19.771,0.027,0.067,7.0
19.759,0.025,-0.034,28.0
19.772,0.024,-0.136,1.0
19.769,0.023,-0.239,1.0
19.795,0.022,-0.342,1.0
19.799,0.02,-0.444,1.0
19.762,0.02,0.109,2.0
19.75,0.018,0.007,9.0
19.768,0.017,-0.094,1.0
19.777,0.016,-0.198,0.0
19.757,0.015,-0.299,0.0
19.758,0.014,-0.401,0.0
19.797,0.013,0.151,2.0
19.789,0.012,0.049,4.0
19.749,0.011,-0.052,8.0
19.728,0.01,-0.155,0.0
0.0,0.0,0.0,0.0
31.402,0.014,-0.571,0.0
19.649,0.008,0.191,15.0
19.772,0.007,0.091,2.0
19.738,0.006,-0.01,10.0
19.749,0.005,-0.113,1.0
0.0,0.0,0.0,0.0
0.0,0.0,0.0,0.0
19.64,0.003,0.233,15.0
19.761,0.003,0.133,1.0
19.731,0.002,0.031,8.0
19.743,0.001,-0.071,6.0
19.809,0.001,-0.174,0.0
36.345,0.0,-0.506,0.0
19.634,0.0,0.275,14.0
19.673,0.0,0.174,9.0
19.72,-0.001,0.073,5.0
19.722,-0.001,-0.03,13.0
19.753,-0.002,-0.131,2.0
40.329,-0.005,-0.475,0.0
19.624,-0.003,0.317,14.0
19.636,-0.003,0.216,14.0
19.681,-0.004,0.115,2.0
19.711,-0.004,0.012,12.0
19.752,-0.005,-0.089,4.0
19.771,-0.005,-0.19,0.0
19.629,-0.005,0.359,14.0
19.642,-0.006,0.258,12.0
19.713,-0.006,0.158,6.0
19.696,-0.006,0.054,8.0
19.732,-0.007,-0.046,12.0
19.764,-0.007,-0.147,5.0
19.631,-0.007,0.401,13.0
19.625,-0.007,0.301,14.0
19.637,-0.008,0.2,14.0
19.684,-0.008,0.097,6.0
19.708,-0.008,-0.003,13.0
19.749,-0.008,-0.105,6.0
19.628,-0.008,0.444,15.0
19.62,-0.008,0.343,13.0
19.627,-0.008,0.242,13.0
19.701,-0.008,0.14,3.0
19.708,-0.008,0.038,12.0
19.729,-0.008,-0.062,11.0
19.627,-0.009,0.486,13.0
19.623,-0.008,0.385,13.0
19.612,-0.008,0.284,12.0
19.639,-0.008,0.181,12.0
19.683,-0.008,0.08,8.0
19.725,-0.008,-0.02,13.0
19.623,-0.008,0.528,14.0
19.629,-0.008,0.427,13.0
19.619,-0.008,0.326,13.0
19.623,-0.007,0.223,14.0
19.689,-0.007,0.123,3.0
19.726,-0.007,0.021,13.0
19.626,-0.007,0.57,14.0
19.623,-0.007,0.469,12.0
19.621,-0.006,0.368,14.0
19.62,-0.006,0.265,12.0
19.679,-0.005,0.164,8.0
19.704,-0.005,0.063,7.0
19.634,-0.005,0.612,13.0
19.618,-0.004,0.51,12.0
19.614,-0.004,0.409,12.0
19.618,-0.003,0.306,14.0
19.633,-0.003,0.205,14.0
19.687,-0.002,0.104,2.0
19.626,-0.002,0.653,13.0
19.615,-0.002,0.552,13.0
19.612,-0.001,0.451,12.0
19.61,0.0,0.348,13.0
19.622,0.0,0.247,13.0
19.769,0.0,0.147,3.0
19.649,0.0,0.696,13.0
19.614,0.001,0.594,12.0
19.614,0.002,0.492,11.0
19.611,0.003,0.389,12.0
19.626,0.003,0.288,13.0
19.639,0.004,0.188,15.0
19.657,0.004,0.738,12.0
19.624,0.005,0.635,12.0
19.613,0.006,0.534,13.0
19.604,0.007,0.431,11.0
19.614,0.008,0.33,14.0
19.627,0.009,0.229,15.0
19.661,0.009,0.779,18.0
19.642,0.01,0.677,12.0
19.614,0.011,0.575,12.0
19.601,0.012,0.472,12.0
19.617,0.014,0.371,13.0
19.621,0.015,0.27,14.0
19.606,0.015,0.818,18.0
19.644,0.016,0.718,12.0
19.608,0.017,0.616,11.0
19.604,0.018,0.512,13.0
19.611,0.02,0.412,13.0
19.621,0.021,0.31,15.0
19.586,0.021,0.858,24.0
19.652,0.022,0.759,17.0
19.611,0.024,0.657,12.0
19.596,0.025,0.553,13.0
19.608,0.026,0.452,13.0
19.613,0.028,0.351,17.0
19.568,0.028,0.898,24.0
19.635,0.029,0.799,18.0
19.633,0.031,0.698,11.0
19.602,0.032,0.593,12.0
19.611,0.034,0.492,14.0
19.611,0.035,0.391,13.0
19.563,0.035,0.938,24.0
19.594,0.037,0.837,25.0
19.64,0.039,0.738,13.0
19.607,0.04,0.633,12.0
19.608,0.042,0.531,14.0
19.605,0.044,0.43,13.0
19.574,0.043,0.978,24.0
19.586,0.045,0.877,25.0
19.655,0.047,0.778,24.0
19.619,0.049,0.673,12.0
19.603,0.051,0.571,13.0
19.602,0.053,0.47,14.0
19.565,0.053,1.017,12.0
19.579,0.054,0.916,25.0
19.605,0.056,0.816,14.0
19.625,0.058,0.713,12.0
19.608,0.06,0.611,12.0
19.594,0.062,0.509,14.0
19.598,0.062,1.058,5.0
19.578,0.064,0.955,22.0
19.587,0.066,0.854,23.0
19.637,0.068,0.752,15.0
19.611,0.07,0.65,12.0
19.602,0.072,0.548,14.0
139.155,0.518,7.793,6.0
19.565,0.075,0.994,15.0
19.577,0.077,0.893,23.0
19.626,0.079,0.791,16.0
19.622,0.081,0.689,12.0
19.606,0.083,0.587,14.0
0.0,0.0,0.0,0.0
19.582,0.086,1.033,7.0
19.578,0.088,0.931,21.0
19.62,0.091,0.83,9.0
19.63,0.093,0.728,10.0
19.601,0.095,0.625,13.0
0.0,0.0,0.0,0.0
19.609,0.098,1.073,0.0
19.559,0.1,0.969,10.0
19.588,0.103,0.866,11.0
19.658,0.105,0.767,12.0
19.612,0.108,0.664,13.0
0.0,0.0,0.0,0.0
0.0,0.0,0.0,0.0
19.618,0.113,1.01,7.0
19.586,0.115,0.904,13.0
19.689,0.119,0.806,4.0
19.623,0.121,0.702,11.0
113.936,0.707,7.278,21.0
113.96,0.721,6.684,2.0
19.622,0.126,1.048,0.0
19.61,0.129,0.943,9.0
113.991,0.768,4.89,24.0
19.641,0.135,0.74,8.0
0.0,0.0,0.0,0.0
113.95,0.802,6.899,22.0
113.963,0.817,6.304,34.0
19.656,0.143,0.982,0.0
113.956,0.849,5.102,14.0
19.683,0.149,0.778,2.0
0.0,0.0,0.0,0.0
0.0,0.0,0.0,0.0
0.0,0.0,0.0,0.0
0.0,0.0,0.0,0.0
0.0,0.0,0.0,0.0
186.474,1.557,7.719,9.0
0.0,0.0,0.0,0.0
0.0,0.0,0.0,0.0
122.007,1.06,7.2,20.0
0.0,0.0,0.0,0.0
0.0,0.0,0.0,0.0
186.588,1.704,8.063,21.0
0.0,0.0,0.0,0.0
0.0,0.0,0.0,0.0
122.049,1.158,7.425,15.0
0.0,0.0,0.0,0.0
0.0,0.0,0.0,0.0
0.0,0.0,0.0,0.0
0.0,0.0,0.0,0.0
0.0,0.0,0.0,0.0
0.0,0.0,0.0,0.0
121.943,1.278,6.983,18.0
0.0,0.0,0.0,0.0
0.0,0.0,0.0,0.0
0.0,0.0,0.0,0.0
0.0,0.0,0.0,0.0
0.0,0.0,0.0,0.0
121.794,1.381,7.188,26.0
122.032,1.404,6.561,19.0
122.612,1.431,5.947,2.0
0.0,0.0,0.0,0.0
0.0,0.0,0.0,0.0
0.0,0.0,0.0,0.0
121.712,1.489,7.393,13.0
84.831,1.052,4.706,30.0
84.812,1.066,4.26,42.0
84.785,1.071,6.645,34.0
84.81,1.086,6.198,36.0
84.797,1.1,5.75,49.0
84.811,1.115,5.294,54.0
84.813,1.13,4.848,38.0
84.825,1.144,4.402,14.0
0.0,0.0,0.0,0.0
84.815,1.165,6.341,11.0
129.323,1.8,8.986,7.0
135.493,1.91,8.686,4.0
121.636,1.736,7.155,24.0
121.947,1.763,6.531,23.0
0.0,0.0,0.0,0.0
0.0,0.0,0.0,0.0
129.258,1.925,9.194,20.0
0.0,0.0,0.0,0.0
121.342,1.851,7.335,23.0
121.924,1.881,6.726,27.0
0.0,0.0,0.0,0.0
0.0,0.0,0.0,0.0
129.336,2.055,9.408,8.0
129.28,2.077,8.704,20.0
121.444,1.974,7.534,13.0
121.972,2.005,6.922,17.0
55.242,0.913,4.693,3.0
55.237,0.923,4.398,21.0
55.229,0.933,4.104,28.0
55.198,0.943,3.803,51.0
55.198,0.953,3.51,70.0
55.195,0.964,3.218,69.0
55.213,0.97,4.777,74.0
55.213,0.98,4.482,74.0
55.201,0.991,4.188,72.0
55.194,1.001,3.888,60.0
55.193,1.011,3.595,55.0
55.206,1.022,3.303,45.0
55.235,1.029,4.864,3.0
55.206,1.039,4.566,0.0
129.243,2.459,10.003,21.0
129.382,2.487,9.311,21.0
129.311,2.511,8.619,18.0
129.206,2.535,7.926,7.0
0.0,0.0,0.0,0.0
0.0,0.0,0.0,0.0
129.408,2.604,10.208,3.0
129.517,2.632,9.513,21.0
129.421,2.655,8.816,20.0
129.294,2.679,8.119,19.0
0.0,0.0,0.0,0.0
0.0,0.0,0.0,0.0
0.0,0.0,0.0,0.0
129.559,2.777,9.702,9.0
127.121,2.751,8.841,24.0
134.418,2.936,8.633,12.0
0.0,0.0,0.0,0.0
0.0,0.0,0.0,0.0
0.0,0.0,0.0,0.0
0.0,0.0,0.0,0.0
127.241,2.901,9.03,22.0
121.615,2.798,7.982,12.0
0.0,0.0,0.0,0.0
0.0,0.0,0.0,0.0
0.0,0.0,0.0,0.0
0.0,0.0,0.0,0.0
127.229,3.05,9.202,26.0
121.491,2.936,8.137,24.0
0.0,0.0,0.0,0.0
0.0,0.0,0.0,0.0
0.0,0.0,0.0,0.0
0.0,0.0,0.0,0.0
127.27,3.199,9.372,26.0
121.439,3.078,8.292,11.0
0.0,0.0,0.0,0.0
0.0,0.0,0.0,0.0
0.0,0.0,0.0,0.0
0.0,0.0,0.0,0.0
127.33,3.353,9.539,6.0
0.0,0.0,0.0,0.0
0.0,0.0,0.0,0.0
0.0,0.0,0.0,0.0
0.0,0.0,0.0,0.0
0.0,0.0,0.0,0.0
0.0,0.0,0.0,0.0
40.096,1.113,2.838,36.0
0.0,0.0,0.0,0.0
0.0,0.0,0.0,0.0
0.0,0.0,0.0,0.0
0.0,0.0,0.0,0.0
0.0,0.0,0.0,0.0
40.11,1.162,2.886,98.0
0.0,0.0,0.0,0.0
0.0,0.0,0.0,0.0
0.0,0.0,0.0,0.0
0.0,0.0,0.0,0.0
0.0,0.0,0.0,0.0
40.113,1.213,2.934,108.0
0.0,0.0,0.0,0.0
0.0,0.0,0.0,0.0
0.0,0.0,0.0,0.0
0.0,0.0,0.0,0.0
0.0,0.0,0.0,0.0
40.096,1.263,2.977,49.0
0.0,0.0,0.0,0.0
0.0,0.0,0.0,0.0
0.0,0.0,0.0,0.0
0.0,0.0,0.0,0.0
0.0,0.0,0.0,0.0
40.123,1.315,3.022,2.0
0.0,0.0,0.0,0.0
0.0,0.0,0.0,0.0
0.0,0.0,0.0,0.0
0.0,0.0,0.0,0.0
0.0,0.0,0.0,0.0
0.0,0.0,0.0,0.0
0.0,0.0,0.0,0.0
0.0,0.0,0.0,0.0
0.0,0.0,0.0,0.0
0.0,0.0,0.0,0.0
0.0,0.0,0.0,0.0
0.0,0.0,0.0,0.0
0.0,0.0,0.0,0.0
0.0,0.0,0.0,0.0
0.0,0.0,0.0,0.0
0.0,0.0,0.0,0.0
0.0,0.0,0.0,0.0
0.0,0.0,0.0,0.0
0.0,0.0,0.0,0.0
0.0,0.0,0.0,0.0
0.0,0.0,0.0,0.0
0.0,0.0,0.0,0.0
0.0,0.0,0.0,0.0
0.0,0.0,0.0,0.0
0.0,0.0,0.0,0.0
0.0,0.0,0.0,0.0
0.0,0.0,0.0,0.0
0.0,0.0,0.0,0.0
0.0,0.0,0.0,0.0
0.0,0.0,0.0,0.0
0.0,0.0,0.0,0.0
0.0,0.0,0.0,0.0
0.0,0.0,0.0,0.0
0.0,0.0,0.0,0.0
0.0,0.0,0.0,0.0
0.0,0.0,0.0,0.0
0.0,0.0,0.0,0.0
0.0,0.0,0.0,0.0
0.0,0.0,0.0,0.0
0.0,0.0,0.0,0.0
0.0,0.0,0.0,0.0
23.515,0.987,1.92,0.0
23.49,0.993,2.584,0.0
23.569,1.001,2.463,0.0
23.57,1.006,2.333,3.0
23.551,1.01,2.199,22.0
23.575,1.016,2.072,33.0
23.577,1.021,1.943,40.0
23.556,1.028,2.609,40.0
23.554,1.033,2.478,40.0
23.547,1.037,2.348,40.0
23.537,1.041,2.215,52.0
23.539,1.047,2.085,62.0
23.543,1.052,1.957,70.0
23.532,1.059,2.623,77.0
23.531,1.063,2.492,74.0
23.538,1.068,2.363,73.0
23.536,1.073,2.23,71.0
23.544,1.079,2.101,73.0
23.544,1.084,1.972,71.0
23.523,1.09,2.637,71.0
23.526,1.095,2.507,62.0
23.525,1.1,2.376,50.0
23.544,1.105,2.246,49.0
23.55,1.111,2.116,46.0
23.564,1.116,1.988,46.0
23.55,1.123,2.654,43.0
23.534,1.127,2.521,24.0
23.537,1.132,2.391,15.0
23.527,1.137,2.258,9.0
23.559,1.143,2.13,3.0
23.542,1.147,1.999,0.0
0.0,0.0,0.0,0.0
0.0,0.0,0.0,0.0
0.0,0.0,0.0,0.0
0.0,0.0,0.0,0.0
0.0,0.0,0.0,0.0
0.0,0.0,0.0,0.0
0.0,0.0,0.0,0.0
0.0,0.0,0.0,0.0
0.0,0.0,0.0,0.0
0.0,0.0,0.0,0.0
0.0,0.0,0.0,0.0
0.0,0.0,0.0,0.0
0.0,0.0,0.0,0.0
0.0,0.0,0.0,0.0
0.0,0.0,0.0,0.0
0.0,0.0,0.0,0.0
0.0,0.0,0.0,0.0
0.0,0.0,0.0,0.0
0.0,0.0,0.0,0.0
0.0,0.0,0.0,0.0
0.0,0.0,0.0,0.0
0.0,0.0,0.0,0.0
0.0,0.0,0.0,0.0
0.0,0.0,0.0,0.0
0.0,0.0,0.0,0.0
0.0,0.0,0.0,0.0
0.0,0.0,0.0,0.0
0.0,0.0,0.0,0.0
0.0,0.0,0.0,0.0
0.0,0.0,0.0,0.0
0.0,0.0,0.0,0.0
0.0,0.0,0.0,0.0
0.0,0.0,0.0,0.0
0.0,0.0,0.0,0.0
0.0,0.0,0.0,0.0
0.0,0.0,0.0,0.0
0.0,0.0,0.0,0.0
0.0,0.0,0.0,0.0
0.0,0.0,0.0,0.0
0.0,0.0,0.0,0.0
0.0,0.0,0.0,0.0
0.0,0.0,0.0,0.0
0.0,0.0,0.0,0.0
0.0,0.0,0.0,0.0
0.0,0.0,0.0,0.0
0.0,0.0,0.0,0.0
0.0,0.0,0.0,0.0
0.0,0.0,0.0,0.0
0.0,0.0,0.0,0.0
0.0,0.0,0.0,0.0
0.0,0.0,0.0,0.0
0.0,0.0,0.0,0.0
0.0,0.0,0.0,0.0
0.0,0.0,0.0,0.0
0.0,0.0,0.0,0.0
0.0,0.0,0.0,0.0
0.0,0.0,0.0,0.0
0.0,0.0,0.0,0.0
0.0,0.0,0.0,0.0
0.0,0.0,0.0,0.0
0.0,0.0,0.0,0.0
0.0,0.0,0.0,0.0
100.669,6.323,10.58,4.0
100.572,6.335,9.993,5.0
100.507,6.349,9.422,6.0
100.364,6.357,8.846,7.0
99.899,6.371,11.632,33.0
99.897,6.388,11.067,37.0
99.894,6.404,10.503,35.0
99.893,6.421,9.93,37.0
99.922,6.44,9.371,37.0
99.905,6.457,8.809,35.0
99.901,6.501,11.634,32.0
99.88,6.515,11.066,35.0
99.888,6.532,10.503,36.0
99.924,6.551,9.932,37.0
99.908,6.566,9.368,36.0
99.932,6.585,8.809,35.0
99.87,6.624,11.628,35.0
99.889,6.641,11.064,36.0
99.893,6.657,10.499,36.0
99.905,6.675,9.926,37.0
99.907,6.69,9.363,37.0
99.923,6.709,8.802,35.0
99.892,6.752,11.623,32.0
99.876,6.765,11.055,36.0
99.876,6.781,10.489,36.0
99.917,6.801,9.917,37.0
99.914,6.816,9.354,37.0
99.913,6.833,8.791,35.0
99.904,6.877,11.614,34.0
99.913,6.893,11.047,34.0
99.917,6.908,10.48,34.0
99.901,6.921,9.903,37.0
99.913,6.938,9.34,35.0
99.91,6.955,8.776,36.0
99.907,7.0,11.598,36.0
99.917,7.017,11.03,36.0
99.892,7.03,10.46,38.0
99.896,7.044,9.885,37.0
99.927,7.063,9.322,38.0
99.929,7.078,8.758,34.0
99.919,7.123,11.579,34.0
99.909,7.137,11.009,34.0
99.904,7.151,10.441,32.0
99.898,7.165,9.863,36.0
99.942,7.183,9.301,37.0
99.902,7.195,8.733,36.0
99.878,7.24,11.55,17.0
99.897,7.255,10.982,15.0
99.901,7.268,10.415,11.0
99.805,7.275,9.828,7.0
99.823,7.291,9.263,6.0
99.663,7.294,8.684,5.0
99.031,7.294,11.424,7.0
99.015,7.305,10.857,6.0
99.047,7.321,10.296,7.0
99.048,7.334,9.723,10.0
99.051,7.349,9.161,11.0
99.032,7.361,8.598,13.0
98.981,7.404,11.385,39.0
98.994,7.416,10.822,48.0
99.006,7.431,10.258,54.0
99.008,7.444,9.684,56.0
99.027,7.458,9.124,42.0
99.015,7.471,8.562,42.0
98.981,7.515,11.349,4.0
98.99,7.528,10.784,26.0
95.149,7.247,9.823,1.0
0.0,0.0,0.0,0.0
99.055,7.57,9.088,1.0
94.83,7.26,8.162,1.0
94.841,7.305,10.835,5.0
94.837,7.315,10.292,6.0
94.816,7.325,9.748,8.0
94.934,7.346,9.209,8.0
94.858,7.352,8.662,8.0
94.856,7.363,8.123,12.0
94.801,7.404,10.788,41.0
94.801,7.415,10.245,48.0
94.812,7.426,9.704,52.0
94.826,7.438,9.155,54.0
94.828,7.45,8.615,56.0
94.839,7.462,8.077,50.0
94.786,7.502,10.74,13.0
94.858,7.519,10.204,11.0
94.843,7.528,9.659,12.0
94.83,7.537,9.107,9.0
94.84,7.549,8.567,6.0
94.836,7.56,8.027,7.0
94.856,7.606,10.697,1.0
94.808,7.612,10.148,2.0
94.86,7.626,9.61,3.0
94.833,7.634,9.055,2.0
94.984,7.657,8.528,1.0
94.893,7.661,7.979,1.0
98.089,7.965,11.006,8.0
97.848,7.954,10.416,8.0
97.847,7.964,9.855,9.0
97.903,7.978,9.291,8.0
97.906,7.99,8.732,10.0
98.127,8.018,8.193,10.0
96.773,7.952,10.799,12.0
96.937,7.974,10.26,10.0
97.037,7.992,9.714,10.0
97.149,8.01,9.16,11.0
97.165,8.021,8.606,9.0
97.067,8.024,8.043,8.0
87.173,7.246,9.672,1.0
96.436,8.024,10.145,3.0
96.518,8.04,9.599,1.0
96.57,8.053,9.041,1.0
87.165,7.278,7.661,1.0
87.251,7.294,7.171,1.0
87.124,7.322,9.606,6.0
87.031,7.321,9.095,4.0
87.099,7.335,8.602,4.0
87.078,7.341,8.091,4.0
87.063,7.347,7.592,4.0
87.092,7.358,7.097,5.0
87.039,7.393,9.533,19.0
87.03,7.398,9.032,17.0
87.037,7.406,8.532,16.0
87.027,7.412,8.023,15.0
87.042,7.42,7.526,16.0
87.047,7.429,7.029,19.0
87.021,7.465,9.466,49.0
87.022,7.471,8.965,44.0
87.032,7.479,8.465,55.0
87.031,7.485,7.957,61.0
87.046,7.494,7.459,61.0
87.039,7.5,6.962,51.0
87.036,7.538,9.399,11.0
87.021,7.542,8.896,48.0
87.005,7.547,8.394,11.0
87.026,7.555,7.887,12.0
87.047,7.564,7.39,12.0
87.038,7.57,6.891,12.0
87.101,7.613,9.334,3.0
87.025,7.611,8.825,29.0
87.083,7.623,8.328,2.0
87.064,7.627,7.817,1.0
87.16,7.641,7.326,1.0
87.162,7.648,6.827,2.0
82.872,7.306,8.81,3.0
82.906,7.314,8.335,3.0
82.937,7.321,7.861,2.0
82.837,7.318,7.366,2.0
82.948,7.333,6.9,3.0
82.94,7.338,6.424,3.0
82.868,7.366,8.736,7.0
82.903,7.373,8.261,6.0
82.894,7.376,7.783,6.0
82.915,7.383,7.299,7.0
82.892,7.386,6.821,6.0
82.89,7.391,6.346,9.0
82.859,7.422,8.659,19.0
82.866,7.426,8.181,20.0
82.841,7.428,7.701,18.0
82.862,7.434,7.218,19.0
82.887,7.441,6.744,25.0
82.888,7.445,6.269,27.0
82.85,7.475,8.58,47.0
82.854,7.478,8.102,52.0
82.857,7.482,7.624,57.0
82.87,7.487,7.14,58.0
82.878,7.491,6.665,57.0
82.89,7.498,6.19,50.0
82.836,7.525,8.498,23.0
82.851,7.528,8.021,24.0
82.879,7.534,7.545,28.0
82.858,7.535,7.058,28.0
82.883,7.541,6.584,27.0
82.899,7.547,6.109,26.0
82.855,7.575,8.416,8.0
82.842,7.575,7.936,9.0
82.891,7.582,7.463,9.0
82.869,7.583,6.975,10.0
82.927,7.591,6.503,9.0
82.896,7.592,6.025,10.0
82.864,7.621,8.331,4.0
82.864,7.622,7.852,4.0
82.914,7.629,7.378,5.0
82.896,7.629,6.89,6.0
82.948,7.638,6.417,7.0
82.942,7.64,5.941,7.0
83.0,7.675,8.256,2.0
83.078,7.684,7.783,1.0
82.939,7.672,7.291,3.0
82.98,7.679,6.807,4.0
82.907,7.674,6.324,10.0
82.957,7.682,5.851,6.0
86.381,8.028,8.497,4.0
86.294,8.022,7.989,1.0
82.965,7.713,7.203,1.0
82.908,7.709,6.711,6.0
82.883,7.709,6.232,85.0
83.003,7.722,5.764,3.0
85.742,8.006,8.339,10.0
85.855,8.017,7.854,9.0
85.964,8.028,7.367,8.0
83.065,7.758,6.631,5.0
82.88,7.742,6.139,150.0
86.077,8.042,5.881,4.0
85.405,8.007,8.209,11.0
85.434,8.01,7.718,11.0
85.389,8.006,7.221,11.0
85.485,8.016,6.726,10.0
82.882,7.773,6.045,150.0
85.588,8.027,5.751,9.0
85.436,8.04,8.113,11.0
85.452,8.041,7.62,11.0
85.415,8.037,7.123,11.0
85.371,8.034,6.619,9.0
82.888,7.8,5.948,150.0
85.426,8.04,5.64,10.0
85.225,8.047,7.993,11.0
85.353,8.057,7.511,11.0
85.388,8.06,7.021,8.0
85.329,8.054,6.515,3.0
82.932,7.828,5.855,12.0
85.487,8.07,5.543,11.0
84.706,8.02,7.843,9.0
84.853,8.032,7.366,8.0
85.128,8.057,6.897,3.0
82.89,7.845,6.229,5.0
82.951,7.85,5.756,4.0
85.326,8.075,5.43,10.0
84.434,8.013,7.715,10.0
84.454,8.013,7.228,8.0
84.384,8.005,6.733,10.0
82.87,7.86,6.127,52.0
84.681,8.032,5.772,7.0
84.81,8.043,5.293,9.0
84.598,8.044,7.625,11.0
84.564,8.039,7.131,10.0
84.558,8.036,6.643,11.0
82.859,7.873,6.023,150.0
84.625,8.039,5.664,10.0
84.647,8.041,5.177,10.0
84.598,8.057,7.517,11.0
84.712,8.064,7.037,10.0
84.789,8.07,6.553,10.0
82.896,7.887,5.921,106.0
84.85,8.071,5.571,10.0
84.894,8.075,5.086,10.0
84.364,8.043,7.389,9.0
84.55,8.057,6.915,6.0
84.759,8.074,6.442,4.0
82.907,7.896,5.814,11.0
84.895,8.083,5.464,11.0
84.92,8.083,4.978,10.0
84.014,8.014,7.248,9.0
83.564,7.968,6.726,9.0
82.905,7.902,6.193,4.0
84.242,8.026,5.799,5.0
84.536,8.052,5.332,8.0
84.684,8.063,4.855,9.0
84.187,8.032,7.154,10.0
84.179,8.027,6.666,10.0
82.865,7.898,6.082,43.0
84.333,8.034,5.694,9.0
84.358,8.034,5.21,9.0
84.455,8.041,4.73,10.0
84.49,8.059,7.066,12.0
84.635,8.068,6.588,11.0
82.873,7.896,5.973,123.0
84.671,8.064,5.605,10.0
84.697,8.063,5.119,10.0
84.719,8.061,4.633,10.0
84.667,8.069,6.968,8.0
84.772,8.075,6.486,7.0
82.913,7.893,5.865,42.0
84.963,8.083,5.511,10.0
85.04,8.087,5.026,10.0
85.059,8.085,4.538,9.0
83.391,7.939,6.75,10.0
82.871,7.884,6.229,3.0
84.618,8.044,5.872,2.0
84.965,8.073,5.397,10.0
85.101,8.082,4.915,9.0
85.217,8.088,4.432,2.0
84.443,8.026,6.721,9.0
82.899,7.873,6.119,125.0
84.661,8.034,5.76,9.0
84.751,8.037,5.268,9.0
84.914,8.049,4.788,9.0
82.902,7.853,4.198,7.0
84.853,8.047,6.637,11.0
82.883,7.854,6.004,150.0
85.028,8.051,5.668,11.0
85.042,8.047,5.169,10.0
85.172,8.053,4.686,9.0
82.913,7.836,4.084,51.0
85.231,8.062,6.548,4.0
82.905,7.835,5.889,17.0
85.487,8.072,5.579,11.0
85.622,8.08,5.084,11.0
85.622,8.073,4.592,8.0
82.912,7.812,3.969,31.0
82.893,7.817,6.252,9.0
85.621,8.067,5.962,2.0
85.826,8.079,5.481,10.0
86.003,8.088,4.988,10.0
82.932,7.794,4.332,3.0
82.98,7.792,3.857,4.0
82.898,7.789,6.136,150.0
85.689,8.043,5.848,10.0
85.828,8.049,5.362,8.0
85.985,8.057,4.867,7.0
82.905,7.761,4.216,45.0
86.275,8.071,3.89,2.0
82.893,7.757,6.02,136.0
85.889,8.029,5.741,4.0
85.84,8.017,5.241,1.0
83.216,7.764,4.594,1.0
82.92,7.729,4.1,52.0
82.919,7.723,3.622,3.0
82.997,7.732,5.909,6.0
82.881,7.712,5.422,2.0
83.016,7.717,4.952,3.0
82.954,7.703,4.462,4.0
82.96,7.696,3.985,11.0
82.932,7.687,3.507,4.0
82.98,7.691,5.79,4.0
82.951,7.68,5.309,4.0
82.996,7.675,4.833,4.0
82.913,7.659,4.343,44.0
82.98,7.657,3.869,6.0
82.96,7.648,3.39,8.0
82.938,7.645,5.669,6.0
82.879,7.63,5.187,8.0
82.9,7.623,4.709,9.0
82.906,7.615,4.225,50.0
82.91,7.606,3.748,18.0
82.942,7.602,3.273,24.0
82.911,7.596,5.549,12.0
82.9,7.585,5.07,18.0
82.89,7.574,4.591,27.0
82.886,7.565,4.106,49.0
82.911,7.559,3.63,77.0
82.93,7.552,3.155,141.0
82.889,7.544,5.431,42.0
82.904,7.535,4.953,69.0
82.905,7.525,4.475,103.0
82.907,7.516,3.99,64.0
82.921,7.507,3.514,36.0
82.938,7.501,3.037,26.0
82.897,7.491,5.313,42.0
82.921,7.482,4.836,30.0
82.892,7.47,4.356,20.0
82.909,7.461,3.871,13.0
82.945,7.454,3.397,10.0
83.038,7.453,2.924,3.0
82.915,7.435,5.195,13.0
82.966,7.428,4.719,7.0
82.933,7.415,4.241,6.0
82.97,7.407,3.757,5.0
82.983,7.398,3.28,3.0
72.729,6.476,2.458,4.0
82.977,7.379,5.081,4.0
83.005,7.37,4.605,3.0
87.011,7.715,4.327,2.0
83.04,7.351,3.643,3.0
87.126,7.702,3.322,1.0
73.445,6.483,2.378,6.0
87.201,7.687,5.215,1.0
87.129,7.668,4.709,4.0
87.082,7.651,4.205,140.0
87.076,7.639,3.697,12.0
87.116,7.631,3.198,12.0
74.184,6.489,2.298,3.0
87.054,7.602,5.085,14.0
87.073,7.591,4.584,20.0
87.078,7.579,4.083,37.0
87.069,7.565,3.574,69.0
87.095,7.555,3.076,128.0
74.872,6.485,2.214,8.0
87.078,7.529,4.964,109.0
87.082,7.516,4.462,92.0
87.073,7.503,3.962,40.0
87.066,7.489,3.453,21.0
40.084,3.442,1.36,2.0
40.085,3.436,1.13,19.0
40.075,3.429,2.229,2.0
40.079,3.423,1.998,21.0
40.093,3.417,1.769,96.0
40.094,3.412,1.535,119.0
40.097,3.406,1.305,133.0
40.1,3.4,1.075,150.0
40.095,3.393,2.174,113.0
40.096,3.386,1.943,110.0
40.085,3.378,1.713,139.0
40.089,3.372,1.479,119.0
40.095,3.367,1.249,138.0
40.094,3.361,1.02,128.0
40.093,3.352,2.119,115.0
40.091,3.346,1.888,140.0
40.087,3.339,1.658,150.0
40.097,3.333,1.425,140.0
40.094,3.326,1.195,131.0
40.09,3.319,0.965,150.0
40.09,3.311,2.063,120.0
40.086,3.303,1.833,150.0
40.084,3.296,1.603,150.0
40.088,3.29,1.369,130.0
40.088,3.283,1.14,150.0
40.095,3.277,0.911,150.0
40.093,3.268,2.009,111.0
40.087,3.26,1.779,133.0
40.088,3.253,1.548,133.0
40.066,3.244,1.314,77.0
40.084,3.239,1.085,9.0
0.0,0.0,0.0,0.0
40.069,3.221,1.954,3.0
0.0,0.0,0.0,0.0
41.881,3.351,1.562,129.0
41.886,3.344,1.318,119.0
41.898,3.337,1.078,112.0
41.901,3.33,0.839,105.0
41.875,3.317,1.986,83.0
41.892,3.311,1.747,139.0
41.892,3.303,1.507,124.0
41.891,3.295,1.263,112.0
41.898,3.288,1.023,116.0
41.908,3.282,0.784,115.0
41.895,3.269,1.932,119.0
41.891,3.261,1.691,128.0
41.88,3.252,1.452,60.0
41.885,3.245,1.208,3.0
0.0,0.0,0.0,0.0
43.702,3.369,0.762,117.0
43.681,3.355,1.958,141.0
43.68,3.347,1.708,150.0
43.681,3.338,1.459,150.0
43.689,3.33,1.205,141.0
43.686,3.322,0.955,144.0
43.692,3.314,0.706,124.0
43.68,3.3,1.902,150.0
43.684,3.292,1.652,150.0
43.691,3.283,1.403,137.0
43.698,3.276,1.15,119.0
43.7,3.267,0.9,137.0
43.671,3.256,0.65,25.0
43.664,3.242,1.846,11.0
0.0,0.0,0.0,0.0
45.474,3.358,1.403,89.0
40.371,2.973,1.012,108.0
40.365,2.964,0.781,75.0
40.373,2.957,0.551,74.0
45.468,3.316,1.866,150.0
45.474,3.307,1.607,150.0
40.45,2.932,1.198,110.0
40.85,2.953,0.973,115.0
40.983,2.954,0.743,112.0
41.147,2.957,0.511,118.0
45.458,3.253,1.81,5.0
99.98,7.132,3.41,26.0
41.548,2.954,1.18,70.0
40.841,2.895,0.923,90.0
41.957,2.966,0.709,95.0
41.947,2.956,0.47,114.0
99.958,7.01,3.859,32.0
99.978,6.989,3.29,36.0
42.479,2.96,1.155,72.0
40.975,2.846,0.877,34.0
41.394,2.866,0.65,3.0
41.952,2.896,0.42,7.0
99.95,6.864,3.739,34.0
99.959,6.842,3.17,37.0
43.543,2.97,1.133,73.0
43.59,2.964,0.882,82.0
43.68,2.96,0.634,76.0
44.236,2.988,0.391,107.0
99.961,6.717,3.623,36.0
99.955,6.694,3.054,31.0
44.667,2.981,1.111,82.0
44.961,2.99,0.857,120.0
45.162,2.993,0.605,128.0
45.216,2.986,0.348,101.0
99.97,6.566,3.509,35.0
45.187,2.957,1.329,18.0
45.213,2.949,1.073,120.0
45.182,2.936,0.811,13.0
45.228,2.928,0.555,1.0
62.389,4.025,0.411,9.0
100.71,6.46,3.423,4.0
45.183,2.887,1.278,6.0
112.389,7.155,2.542,12.0
112.4,7.129,1.893,34.0
99.713,6.3,1.113,9.0
54.21,3.412,0.298,6.0
0.0,0.0,0.0,0.0
45.197,2.816,1.229,75.0
45.195,2.805,0.973,12.0
99.583,6.157,1.569,8.0
99.642,6.137,1.005,8.0
45.164,2.77,0.199,27.0
163.34,9.954,5.197,14.0
163.549,9.926,4.274,4.0
112.019,6.77,2.292,5.0
45.213,2.721,0.664,2.0
112.043,6.718,1.012,26.0
45.176,2.697,0.152,45.0
163.478,9.697,5.031,20.0
45.212,2.67,1.135,16.0
45.217,2.658,0.878,2.0
99.888,5.848,1.364,7.0
80.069,4.667,0.64,3.0
45.17,2.621,0.105,44.0
45.194,2.604,1.344,7.0
0.0,0.0,0.0,0.0
45.188,2.58,0.832,0.0
45.206,2.569,0.571,13.0
45.209,2.558,0.316,61.0
45.174,2.545,0.06,46.0
45.178,2.526,1.299,9.0
45.257,2.519,1.044,0.0
0.0,0.0,0.0,0.0
120.113,6.623,1.402,9.0
62.539,3.432,0.376,7.0
45.167,2.466,0.016,37.0
45.197,2.449,1.255,6.0
45.211,2.438,1.0,34.0
45.23,2.427,0.745,136.0
45.18,2.413,0.484,4.0
45.173,2.4,0.229,10.0
45.185,2.389,-0.026,8.0
163.523,8.578,4.39,3.0
0.0,0.0,0.0,0.0
0.0,0.0,0.0,0.0
99.773,5.15,0.977,11.0
45.207,2.321,0.187,47.0
40.325,2.059,-0.06,44.0
45.212,2.29,1.172,17.0
45.198,2.276,0.916,1.0
45.203,2.264,0.661,0.0
99.278,4.945,0.882,3.0
45.182,2.238,0.146,50.0
40.327,1.986,-0.096,29.0
23.623,1.153,0.591,15.0
23.636,1.147,0.458,36.0
23.627,1.14,0.325,38.0
23.62,1.133,0.189,37.0
23.62,1.127,0.056,40.0
23.61,1.119,-0.076,47.0
23.588,1.108,0.57,65.0
23.591,1.102,0.437,68.0
23.584,1.095,0.304,62.0
23.587,1.088,0.169,66.0
23.596,1.082,0.036,68.0
23.604,1.076,-0.096,67.0
23.599,1.065,0.551,150.0
23.59,1.058,0.418,63.0
23.591,1.051,0.285,53.0
23.608,1.045,0.15,45.0
23.618,1.039,0.017,43.0
23.618,1.032,-0.115,44.0
23.618,1.022,0.533,39.0
23.628,1.015,0.4,33.0
23.614,1.008,0.267,20.0
23.636,1.002,0.132,3.0
45.183,1.902,0.0,26.0
40.311,1.685,-0.227,26.0
100.482,4.158,2.193,18.0
40.404,1.66,0.654,1.0
40.385,1.647,0.427,152.0
40.381,1.635,0.196,150.0
40.345,1.621,-0.03,153.0
40.244,1.605,-0.256,21.0
40.388,1.593,0.851,128.0
41.348,1.618,0.639,150.0
41.666,1.618,0.41,152.0
41.294,1.591,0.171,65.0
40.504,1.549,-0.059,9.0
39.846,1.512,-0.282,2.0
43.532,1.633,0.887,89.0
43.748,1.627,0.646,67.0
44.899,1.656,0.411,153.0
45.124,1.65,0.156,18.0
40.117,1.455,-0.086,150.0
39.869,1.434,-0.308,2.0
162.264,5.767,3.201,38.0
161.997,5.708,2.288,16.0
71.079,2.482,0.605,21.0
40.137,1.389,0.113,105.0
40.127,1.376,-0.111,150.0
39.977,1.358,-0.335,1.0
40.115,1.345,0.766,41.0
40.125,1.333,0.541,150.0
40.129,1.32,0.316,141.0
40.113,1.307,0.088,150.0
40.116,1.295,-0.136,150.0
36.547,1.168,-0.328,1.0
40.125,1.266,0.742,150.0
40.129,1.253,0.517,132.0
40.125,1.24,0.293,118.0
40.116,1.227,0.064,150.0
40.119,1.214,-0.159,117.0
36.358,1.089,-0.347,2.0
40.122,1.184,0.719,150.0
40.128,1.172,0.495,145.0
0.0,0.0,0.0,0.0
40.135,1.146,0.042,153.0
40.078,1.132,-0.18,75.0
36.438,1.017,-0.367,2.0
0.0,0.0,0.0,0.0
43.729,1.188,0.517,150.0
0.0,0.0,0.0,0.0
0.0,0.0,0.0,0.0
40.122,1.051,-0.201,36.0
35.093,0.908,-0.371,6.0
121.177,3.083,2.049,8.0
70.954,1.781,0.804,28.0
70.913,1.757,0.408,12.0
45.526,1.113,0.003,150.0
45.401,1.095,-0.249,2.0
34.144,0.812,-0.377,1.0
128.711,3.008,2.117,18.0
70.947,1.634,0.771,3.0
79.451,1.802,0.421,6.0
54.458,1.217,-0.019,0.0
41.427,0.912,-0.245,1.0
33.132,0.719,-0.38,1.0
163.615,3.485,2.622,17.0
162.677,3.409,1.701,18.0
86.619,1.786,0.424,3.0
55.133,1.119,-0.042,14.0
41.21,0.822,-0.26,1.0
33.342,0.654,-0.396,0.0
55.206,1.06,0.863,44.0
55.181,1.041,0.556,53.0
55.163,1.022,0.249,67.0
55.094,1.003,-0.062,10.0
40.649,0.726,-0.272,2.0
33.223,0.582,-0.406,0.0
55.196,0.945,0.844,51.0
55.198,0.926,0.537,14.0
55.211,0.907,0.231,0.0
52.397,0.843,-0.076,4.0
19.658,0.309,-0.137,0.0
19.677,0.303,-0.247,9.0
19.734,0.296,0.295,10.0
19.762,0.289,0.186,5.0
0.0,0.0,0.0,0.0
19.692,0.275,-0.034,1.0
19.656,0.267,-0.143,14.0
19.647,0.261,-0.252,17.0
19.728,0.254,0.29,13.0
19.765,0.248,0.181,28.0
19.701,0.24,0.071,1.0
19.656,0.233,-0.039,7.0
19.63,0.225,-0.148,17.0
19.653,0.219,-0.257,17.0
19.744,0.212,0.285,8.0
19.691,0.205,0.175,10.0
19.661,0.198,0.066,12.0
19.647,0.191,-0.044,12.0
19.639,0.184,-0.152,15.0
19.669,0.177,-0.261,12.0
19.653,0.17,0.28,10.0
19.658,0.163,0.171,15.0
19.632,0.156,0.062,14.0
19.647,0.149,-0.047,11.0
19.683,0.142,-0.156,8.0
34.871,0.24,-0.47,0.0
19.625,0.127,0.276,12.0
19.658,0.12,0.168,15.0
19.651,0.113,0.059,12.0
19.7,0.106,-0.05,3.0
19.776,0.1,-0.16,1.0
19.781,0.093,-0.269,6.0
19.631,0.085,0.273,16.0
19.664,0.078,0.165,11.0
19.751,0.072,0.057,40.0
19.74,0.064,-0.053,35.0
19.769,0.057,-0.162,17.0
19.767,0.051,-0.271,14.0
19.631,0.043,0.272,14.0
19.748,0.036,0.164,24.0
19.776,0.029,0.056,4.0
19.757,0.022,-0.054,77.0
19.822,0.015,-0.164,0.0
35.49,0.014,-0.489,0.0
19.639,0.0,0.271,14.0
19.726,-0.006,0.163,4.0
19.707,-0.013,0.055,14.0
19.715,-0.02,-0.055,11.0
19.746,-0.027,-0.164,13.0
19.759,-0.034,-0.272,6.0
19.652,-0.041,0.271,11.0
19.692,-0.048,0.163,17.0
19.701,-0.055,0.055,15.0
19.707,-0.062,-0.055,14.0
19.726,-0.069,-0.163,16.0
19.747,-0.076,-0.272,15.0
19.672,-0.083,0.271,10.0
19.711,-0.09,0.163,14.0
19.709,-0.097,0.055,12.0
19.747,-0.105,-0.054,8.0
19.722,-0.112,-0.162,16.0
19.745,-0.119,-0.271,17.0
0.0,0.0,0.0,0.0
160.654,-1.085,1.346,14.0
19.621,-0.139,0.056,0.0
19.77,-0.148,-0.053,6.0
19.748,-0.155,-0.161,13.0
19.752,-0.162,-0.269,13.0
169.483,-1.449,2.367,21.0
160.692,-1.433,1.363,13.0
0.0,0.0,0.0,0.0
0.0,0.0,0.0,0.0
43.549,-0.435,-0.35,0.0
0.0,0.0,0.0,0.0
19.75,-0.211,0.278,7.0
19.755,-0.218,0.17,3.0
0.0,0.0,0.0,0.0
0.0,0.0,0.0,0.0
0.0,0.0,0.0,0.0
0.0,0.0,0.0,0.0
19.758,-0.253,0.281,10.0
19.754,-0.26,0.173,30.0
19.754,-0.267,0.065,2.0
0.0,0.0,0.0,0.0
0.0,0.0,0.0,0.0
0.0,0.0,0.0,0.0
0.0,0.0,0.0,0.0
19.762,-0.302,0.178,5.0
19.745,-0.309,0.07,0.0
0.0,0.0,0.0,0.0
0.0,0.0,0.0,0.0
0.0,0.0,0.0,0.0
136.225,-2.325,2.005,2.0
135.801,-2.368,1.258,153.0
0.0,0.0,0.0,0.0
0.0,0.0,0.0,0.0
0.0,0.0,0.0,0.0
0.0,0.0,0.0,0.0
0.0,0.0,0.0,0.0
135.774,-2.655,1.297,35.0
0.0,0.0,0.0,0.0
0.0,0.0,0.0,0.0
0.0,0.0,0.0,0.0
0.0,0.0,0.0,0.0
0.0,0.0,0.0,0.0
135.829,-2.939,1.341,151.0
0.0,0.0,0.0,0.0
0.0,0.0,0.0,0.0
0.0,0.0,0.0,0.0
38.404,-0.887,-0.46,0.0
163.579,-3.825,2.564,8.0
161.97,-3.845,1.658,4.0
0.0,0.0,0.0,0.0
0.0,0.0,0.0,0.0
0.0,0.0,0.0,0.0
0.0,0.0,0.0,0.0
170.566,-4.349,2.741,3.0
162.022,-4.189,1.724,22.0
160.823,-4.216,0.838,3.0
0.0,0.0,0.0,0.0
0.0,0.0,0.0,0.0
0.0,0.0,0.0,0.0
178.276,-4.914,2.941,4.0
162.027,-4.525,1.794,16.0
160.803,-4.549,0.909,6.0
15.838,-0.453,0.002,0.0
0.0,0.0,0.0,0.0
40.555,-1.192,-0.434,0.0
163.818,-4.858,2.78,7.0
161.929,-4.861,1.87,16.0
160.744,-4.885,0.986,8.0
0.0,0.0,0.0,0.0
0.0,0.0,0.0,0.0
0.0,0.0,0.0,0.0
162.273,-5.143,2.834,22.0
161.925,-5.191,1.952,29.0
160.741,-5.211,1.068,15.0
0.0,0.0,0.0,0.0
0.0,0.0,0.0,0.0
0.0,0.0,0.0,0.0
162.225,-5.471,2.92,22.0
162.012,-5.52,2.04,25.0
160.712,-5.534,1.155,15.0
0.0,0.0,0.0,0.0
0.0,0.0,0.0,0.0
0.0,0.0,0.0,0.0
162.267,-5.797,3.013,23.0
162.139,-5.849,2.135,24.0
160.74,-5.857,1.248,6.0
0.0,0.0,0.0,0.0
0.0,0.0,0.0,0.0
0.0,0.0,0.0,0.0
162.202,-6.121,3.11,22.0
161.998,-6.171,2.232,6.0
0.0,0.0,0.0,0.0
0.0,0.0,0.0,0.0
0.0,0.0,0.0,0.0
45.64,-1.803,-0.359,0.0
162.203,-6.443,3.214,13.0
101.631,-4.072,1.466,7.0
101.474,-4.101,0.916,150.0
0.0,0.0,0.0,0.0
0.0,0.0,0.0,0.0
0.0,0.0,0.0,0.0
0.0,0.0,0.0,0.0
101.544,-4.265,1.532,150.0
0.0,0.0,0.0,0.0
0.0,0.0,0.0,0.0
0.0,0.0,0.0,0.0
0.0,0.0,0.0,0.0
0.0,0.0,0.0,0.0
0.0,0.0,0.0,0.0
101.484,-4.494,1.058,18.0
0.0,0.0,0.0,0.0
0.0,0.0,0.0,0.0
0.0,0.0,0.0,0.0
0.0,0.0,0.0,0.0
0.0,0.0,0.0,0.0
101.535,-4.692,1.135,152.0
0.0,0.0,0.0,0.0
101.496,-4.758,0.033,1.0
0.0,0.0,0.0,0.0
139.258,-6.604,3.159,7.0
0.0,0.0,0.0,0.0
101.525,-4.883,1.214,150.0
0.0,0.0,0.0,0.0
101.518,-4.95,0.114,3.0
0.0,0.0,0.0,0.0
0.0,0.0,0.0,0.0
102.047,-5.064,1.849,1.0
101.521,-5.071,1.296,3.0
0.0,0.0,0.0,0.0
0.0,0.0,0.0,0.0
0.0,0.0,0.0,0.0
140.895,-7.203,3.425,15.0
0.0,0.0,0.0,0.0
101.52,-5.256,1.38,16.0
0.0,0.0,0.0,0.0
0.0,0.0,0.0,0.0
0.0,0.0,0.0,0.0
140.633,-7.444,3.539,30.0
0.0,0.0,0.0,0.0
101.534,-5.441,1.469,12.0
101.502,-5.472,0.915,61.0
0.0,0.0,0.0,0.0
0.0,0.0,0.0,0.0
163.376,-8.942,4.258,14.0
140.68,-7.744,2.913,21.0
0.0,0.0,0.0,0.0
0.0,0.0,0.0,0.0
0.0,0.0,0.0,0.0
0.0,0.0,0.0,0.0
119.744,-6.763,3.229,21.0
149.798,-8.508,3.239,4.0
140.773,-8.039,2.292,11.0
140.754,-8.082,1.525,12.0
0.0,0.0,0.0,0.0
0.0,0.0,0.0,0.0
117.355,-6.831,3.275,14.0
149.061,-8.725,3.365,21.0
148.718,-8.75,2.563,22.0
149.918,-8.866,1.768,16.0
119.948,-7.132,0.775,2.0
0.0,0.0,0.0,0.0
117.295,-7.03,3.388,30.0
148.942,-8.971,3.508,15.0
148.315,-8.979,2.702,20.0
148.406,-9.031,1.898,15.0
149.919,-9.17,1.118,8.0
0.0,0.0,0.0,0.0
117.433,-7.235,3.509,9.0
117.258,-7.26,2.879,25.0
148.012,-9.207,2.845,14.0
147.941,-9.248,2.041,28.0
125.218,-7.866,1.06,10.0
0.0,0.0,0.0,0.0
117.003,-7.402,3.617,27.0
116.938,-7.433,2.993,22.0
117.407,-7.497,2.379,27.0
125.192,-8.03,1.857,23.0
125.221,-8.07,1.192,26.0
99.731,-6.457,0.418,16.0
109.15,-7.081,3.488,16.0
117.184,-7.636,3.121,16.0
117.293,-7.677,2.499,40.0
0.0,0.0,0.0,0.0
0.0,0.0,0.0,0.0
99.656,-6.611,0.525,7.0
109.26,-7.263,3.61,24.0
148.099,-9.885,4.106,7.0
117.057,-7.847,2.623,10.0
0.0,0.0,0.0,0.0
108.772,-7.354,1.27,16.0
100.136,-6.8,0.638,2.0
108.888,-7.408,3.719,22.0
109.079,-7.452,3.145,50.0
109.282,-7.495,2.57,11.0
109.434,-7.537,1.981,10.0
100.142,-6.924,1.281,7.0
100.102,-6.95,0.75,8.0
108.357,-7.536,3.822,22.0
109.088,-7.617,3.268,27.0
109.176,-7.653,2.691,49.0
109.357,-7.696,2.105,37.0
100.068,-7.069,1.395,8.0
100.055,-7.095,0.863,11.0
107.399,-7.63,3.911,25.0
108.966,-7.77,3.389,41.0
109.242,-7.818,2.819,20.0
109.348,-7.855,2.23,31.0
100.118,-7.217,1.51,8.0
100.112,-7.245,0.98,13.0
107.456,-7.789,4.038,26.0
108.938,-7.924,3.516,38.0
109.092,-7.964,2.942,7.0
126.304,-9.253,2.724,2.0
100.101,-7.359,1.627,9.0
100.119,-7.387,1.098,12.0
107.646,-7.956,4.174,22.0
107.97,-8.006,3.613,22.0
109.181,-8.123,3.075,2.0
0.0,0.0,0.0,0.0
100.119,-7.5,1.748,9.0
100.079,-7.521,1.218,11.0
107.344,-8.081,4.29,22.0
108.104,-8.164,3.748,26.0
148.236,-11.23,4.353,13.0
127.457,-9.687,3.054,30.0
100.153,-7.637,1.87,1.0
100.065,-7.656,1.339,10.0
107.857,-8.264,4.443,17.0
108.315,-8.324,3.888,28.0
116.228,-8.959,3.556,8.0
127.502,-9.858,3.212,30.0
119.524,-9.27,2.379,8.0
100.085,-7.786,1.462,10.0
108.382,-8.445,4.599,16.0
108.539,-8.482,4.031,24.0
115.803,-9.077,3.688,8.0
127.477,-10.021,3.371,28.0
118.445,-9.337,2.505,10.0
100.076,-7.913,1.588,11.0
108.002,-8.552,4.719,38.0
109.139,-8.666,4.191,21.0
108.736,-8.658,3.599,10.0
127.505,-10.182,3.533,20.0
127.501,-10.209,2.86,23.0
100.068,-8.036,1.716,14.0
107.372,-8.635,4.829,25.0
108.964,-8.786,4.324,22.0
109.093,-8.819,3.751,5.0
118.108,-9.573,3.424,6.0
127.497,-10.361,3.023,30.0
90.402,-7.367,1.666,56.0
107.602,-8.782,4.978,23.0
108.081,-8.843,4.428,16.0
109.952,-9.018,3.924,20.0
148.144,-12.181,4.488,11.0
127.511,-10.511,3.188,31.0
90.414,-7.472,1.783,66.0
107.692,-8.913,5.123,22.0
108.674,-9.015,4.594,21.0
108.664,-9.036,4.018,16.0
114.318,-9.528,3.613,11.0
127.514,-10.653,3.355,13.0
90.392,-7.571,1.902,31.0
108.132,-9.07,5.287,19.0
107.986,-9.079,4.71,20.0
108.589,-9.149,4.161,22.0
114.287,-9.651,3.765,9.0
114.346,-9.677,3.162,21.0
90.397,-7.668,2.023,36.0
107.125,-9.101,5.381,24.0
107.895,-9.185,4.849,29.0
108.174,-9.227,4.289,23.0
114.215,-9.764,3.913,6.0
116.634,-9.992,3.381,9.0
90.379,-7.759,2.143,27.0
107.146,-9.212,5.526,22.0
107.739,-9.282,4.987,25.0
107.962,-9.319,4.425,24.0
108.281,-9.365,3.856,21.0
114.592,-9.931,3.475,8.0
127.511,-11.072,3.194,21.0
107.51,-9.349,5.69,16.0
107.472,-9.363,5.119,22.0
107.623,-9.393,4.558,27.0
108.201,-9.462,4.0,27.0
113.807,-9.971,3.606,4.0
114.516,-10.053,3.024,16.0
108.859,-9.571,5.912,17.0
107.468,-9.464,5.267,16.0
107.613,-9.493,4.706,23.0
108.095,-9.553,4.144,26.0
108.287,-9.587,3.58,20.0
127.479,-11.306,3.542,6.0
108.839,-9.667,6.06,22.0
108.76,-9.676,5.479,16.0
107.724,-9.598,4.858,27.0
108.059,-9.644,4.292,26.0
108.105,-9.665,3.723,24.0
116.775,-10.458,3.405,7.0
108.857,-9.762,6.211,23.0
108.986,-9.788,5.64,18.0
108.295,-9.741,5.032,24.0
108.391,-9.765,4.453,23.0
108.137,-9.757,3.873,26.0
148.151,-13.388,4.524,17.0
108.964,-9.861,6.367,20.0
108.865,-9.865,5.784,19.0
108.397,-9.837,5.188,13.0
108.13,-9.825,4.591,22.0
108.73,-9.895,4.043,11.0
108.16,-9.857,3.452,7.0
109.394,-9.986,6.545,15.0
108.731,-9.936,5.929,20.0
108.703,-9.947,5.353,11.0
107.735,-9.871,4.725,19.0
108.827,-9.984,4.199,25.0
108.145,-9.935,3.601,20.0
109.786,-10.101,6.721,18.0
108.726,-10.014,6.081,22.0
108.63,-10.017,5.5,20.0
107.814,-9.954,4.877,20.0
108.419,-10.021,4.331,25.0
108.184,-10.012,3.752,8.0
110.093,-10.205,6.894,15.0
108.623,-10.078,6.226,24.0
108.135,-10.043,5.625,21.0
108.375,-10.077,5.054,21.0
108.76,-10.124,4.497,18.0
148.376,-13.827,5.353,11.0
107.409,-10.025,6.876,15.0
108.76,-10.161,6.385,24.0
108.422,-10.138,5.791,16.0
108.876,-10.19,5.228,22.0
109.837,-10.291,4.694,14.0
108.355,-10.161,4.06,22.0
107.281,-10.077,7.018,23.0
108.913,-10.239,6.547,12.0
108.698,-10.228,5.958,20.0
108.423,-10.21,5.358,17.0
109.854,-10.354,4.848,14.0
108.568,-10.242,4.218,23.0
107.005,-10.11,7.148,20.0
110.22,-10.422,6.779,21.0
108.697,-10.284,6.109,28.0
108.074,-10.233,5.49,27.0
0.0,0.0,0.0,0.0
108.727,-10.312,4.375,17.0
106.95,-10.16,7.294,15.0
110.374,-10.492,6.943,21.0
108.717,-10.341,6.262,20.0
108.093,-10.288,5.642,31.0
108.544,-10.337,5.093,16.0
110.283,-10.511,4.592,18.0
107.692,-10.281,7.496,18.0
110.432,-10.548,7.101,8.0
110.52,-10.561,6.521,17.0
108.346,-10.36,5.808,22.0
108.183,-10.35,5.226,21.0
109.807,-10.512,4.724,24.0
107.457,-10.304,7.632,19.0
107.109,-10.275,7.038,13.0
110.674,-10.622,6.684,17.0
108.67,-10.434,5.977,18.0
108.004,-10.374,5.368,26.0
109.662,-10.539,4.871,16.0
49.73,-4.788,3.601,4.0
106.845,-10.29,7.168,16.0
110.395,-10.634,6.821,20.0
108.752,-10.48,6.132,20.0
108.031,-10.414,5.518,29.0
108.091,-10.424,4.95,19.0
49.791,-4.81,3.675,8.0
107.651,-10.402,7.372,17.0
110.415,-10.671,6.974,18.0
108.606,-10.499,6.272,19.0
108.147,-10.457,5.672,23.0
108.124,-10.458,5.1,23.0
49.805,-4.826,3.744,4.0
107.674,-10.434,7.521,16.0
110.192,-10.68,7.11,6.0
108.566,-10.523,6.419,17.0
108.288,-10.498,5.828,20.0
108.071,-10.479,5.244,25.0
107.406,-10.433,8.222,18.0
49.739,-4.831,3.542,4.0
107.592,-10.451,7.09,16.0
108.281,-10.519,6.55,7.0
108.624,-10.553,5.993,20.0
108.048,-10.498,5.388,21.0
107.056,-10.42,8.341,16.0
49.743,-4.841,3.61,23.0
107.634,-10.475,7.238,17.0
108.009,-10.511,6.679,9.0
108.652,-10.574,6.141,13.0
108.09,-10.518,5.536,26.0
108.506,-10.579,8.601,8.0
49.772,-4.851,3.679,23.0
107.366,-10.463,7.364,18.0
110.338,-10.751,6.97,14.0
108.308,-10.552,6.266,17.0
108.119,-10.533,5.68,21.0
108.277,-10.568,8.727,18.0
49.776,-4.857,3.746,7.0
107.513,-10.487,7.519,21.0
107.75,-10.508,6.951,8.0
108.452,-10.575,6.418,16.0
108.294,-10.557,5.833,21.0
40.378,-3.944,3.308,7.0
107.208,-10.468,8.212,16.0
49.723,-4.852,3.543,5.0
107.642,-10.502,7.085,20.0
108.258,-10.559,6.55,12.0
