X,Y,Z,Reflectivity
8.73,-0.587,-0.931,0.0
11.343,-0.763,-0.89,0.0
10.705,-0.723,-0.9,0.0
10.149,-0.688,-0.911,0.0
9.64,-0.656,-0.92,0.0
9.168,-0.627,-0.927,0.0
8.72,-0.599,-0.931,0.0
11.294,-0.775,-0.888,0.0
10.671,-0.736,-0.899,0.0
10.149,-0.702,-0.912,0.0
9.616,-0.668,-0.919,0.0
9.168,-0.639,-0.928,0.0
8.733,-0.612,-0.934,0.0
11.317,-0.792,-0.891,0.0
10.728,-0.754,-0.905,0.0
10.114,-0.714,-0.91,0.0
9.626,-0.682,-0.921,0.0
9.156,-0.651,-0.928,0.0
8.7,-0.621,-0.931,0.0
11.336,-0.809,-0.893,0.0
10.715,-0.767,-0.904,0.0
10.128,-0.728,-0.912,0.0
9.597,-0.693,-0.919,0.0
9.141,-0.662,-0.927,0.0
8.727,-0.635,-0.934,0.0
11.369,-0.827,-0.896,0.0
10.692,-0.78,-0.902,0.0
10.122,-0.741,-0.911,0.0
9.593,-0.705,-0.918,0.0
9.13,-0.673,-0.925,0.0
8.715,-0.645,-0.933,0.0
11.344,-0.84,-0.894,0.0
10.744,-0.798,-0.906,0.0
10.139,-0.756,-0.912,0.0
9.596,-0.718,-0.918,0.0
9.141,-0.686,-0.926,0.0
8.724,-0.657,-0.933,0.0
11.403,-0.859,-0.897,0.0
10.748,-0.812,-0.906,0.0
10.141,-0.769,-0.912,0.0
9.642,-0.734,-0.922,0.0
9.144,-0.698,-0.926,0.0
8.727,-0.669,-0.932,0.0
11.43,-0.876,-0.898,0.0
10.791,-0.829,-0.908,0.0
10.15,-0.783,-0.911,0.0
9.664,-0.748,-0.923,0.0
9.169,-0.712,-0.927,0.0
8.737,-0.681,-0.932,0.0
11.384,-0.887,-0.893,0.0
10.778,-0.842,-0.906,0.0
10.17,-0.797,-0.911,0.0
9.678,-0.761,-0.922,0.0
9.185,-0.725,-0.927,0.0
8.759,-0.694,-0.933,0.0
11.401,-0.902,-0.892,0.0
10.733,-0.852,-0.9,0.0
10.205,-0.813,-0.912,0.0
9.677,-0.773,-0.92,0.0
9.18,-0.736,-0.924,0.0
8.793,-0.707,-0.934,0.0
11.455,-0.92,-0.894,0.0
10.803,-0.871,-0.903,0.0
10.226,-0.827,-0.912,0.0
9.72,-0.789,-0.922,0.0
9.226,-0.751,-0.926,0.0
8.76,-0.715,-0.929,0.0
11.5,-0.938,-0.894,0.0
10.877,-0.89,-0.906,0.0
10.291,-0.845,-0.915,0.0
9.692,-0.798,-0.916,0.0
9.24,-0.763,-0.925,0.0
8.775,-0.727,-0.928,0.0
11.473,-0.949,-0.889,0.0
10.887,-0.904,-0.904,0.0
10.303,-0.858,-0.912,0.0
9.774,-0.816,-0.921,0.0
9.304,-0.779,-0.928,0.0
8.749,-0.735,-0.922,0.0
11.573,-0.971,-0.892,0.0
10.913,-0.918,-0.902,0.0
10.357,-0.874,-0.913,0.0
9.792,-0.829,-0.919,0.0
9.327,-0.792,-0.927,0.0
8.857,-0.754,-0.93,0.0
11.6,-0.987,-0.89,0.0
11.003,-0.939,-0.905,0.0
10.436,-0.893,-0.916,0.0
9.867,-0.846,-0.922,0.0
9.378,-0.807,-0.928,0.0
8.892,-0.767,-0.93,0.0
11.633,-1.003,-0.887,0.0
11.048,-0.955,-0.904,0.0
10.379,-0.899,-0.906,0.0
9.892,-0.86,-0.92,0.0
9.461,-0.824,-0.932,0.0
8.961,-0.783,-0.933,0.0
11.754,-1.026,-0.891,0.0
11.072,-0.969,-0.9,0.0
10.472,-0.919,-0.909,0.0
9.934,-0.874,-0.919,0.0
9.468,-0.835,-0.928,0.0
8.981,-0.795,-0.93,0.0
11.833,-1.045,-0.891,0.0
11.086,-0.982,-0.896,0.0
10.614,-0.943,-0.916,0.0
10.045,-0.894,-0.924,0.0
9.51,-0.849,-0.927,0.0
9.022,-0.808,-0.929,0.0
11.948,-1.068,-0.893,0.0
11.178,-1.002,-0.897,0.0
10.524,-0.945,-0.903,0.0
10.018,-0.902,-0.916,0.0
9.585,-0.865,-0.929,0.0
9.102,-0.824,-0.932,0.0
11.959,-1.081,-0.887,0.0
11.228,-1.017,-0.895,0.0
10.624,-0.965,-0.905,0.0
10.071,-0.917,-0.914,0.0
9.64,-0.88,-0.928,0.0
9.132,-0.836,-0.93,0.0
12.067,-1.103,-0.888,0.0
11.346,-1.039,-0.897,0.0
10.783,-0.99,-0.911,0.0
10.105,-0.93,-0.911,0.0
9.703,-0.895,-0.928,0.0
9.221,-0.853,-0.933,0.0
12.185,-1.125,-0.888,0.0
11.441,-1.059,-0.897,0.0
10.812,-1.003,-0.907,0.0
10.197,-0.948,-0.912,0.0
9.769,-0.91,-0.928,0.0
9.228,-0.862,-0.927,0.0
12.268,-1.144,-0.886,0.0
11.486,-1.073,-0.892,0.0
10.903,-1.021,-0.907,0.0
10.281,-0.965,-0.912,0.0
9.787,-0.921,-0.922,0.0
9.349,-0.882,-0.932,0.0
12.319,-1.16,-0.881,0.0
11.6,-1.094,-0.893,0.0
10.941,-1.034,-0.902,0.0
10.366,-0.982,-0.912,0.0
9.822,-0.933,-0.918,0.0
9.409,-0.895,-0.931,0.0
12.467,-1.184,-0.882,0.0
11.79,-1.122,-0.899,0.0
11.024,-1.051,-0.9,0.0
10.515,-1.005,-0.917,0.0
9.952,-0.953,-0.923,0.0
9.467,-0.909,-0.93,0.0
12.589,-1.206,-0.881,0.0
11.863,-1.139,-0.895,0.0
11.107,-1.068,-0.898,0.0
10.531,-1.015,-0.91,0.0
10.026,-0.968,-0.921,0.0
9.549,-0.924,-0.93,0.0
12.696,-1.227,-0.878,0.0
11.953,-1.157,-0.892,0.0
11.14,-1.08,-0.892,0.0
10.627,-1.032,-0.91,0.0
10.063,-0.98,-0.916,0.0
9.656,-0.942,-0.932,0.0
12.823,-1.249,-0.876,0.0
12.099,-1.18,-0.892,0.0
11.321,-1.106,-0.896,0.0
10.763,-1.054,-0.912,0.0
10.19,-0.999,-0.919,0.0
9.716,-0.955,-0.929,0.0
13.064,-1.281,-0.881,0.0
12.162,-1.195,-0.886,0.0
11.459,-1.128,-0.897,0.0
10.853,-1.07,-0.91,0.0
10.268,-1.014,-0.917,0.0
9.774,-0.967,-0.926,0.0
13.211,-1.305,-0.879,0.0
12.327,-1.219,-0.887,0.0
11.574,-1.147,-0.895,0.0
10.934,-1.085,-0.906,0.0
10.375,-1.031,-0.916,0.0
9.852,-0.981,-0.924,0.0
13.338,-1.326,-0.875,0.0
12.446,-1.239,-0.883,0.0
11.7,-1.167,-0.894,0.0
11.012,-1.1,-0.902,0.0
10.524,-1.053,-0.919,0.0
9.958,-0.998,-0.924,0.0
13.526,-1.353,-0.874,0.0
12.672,-1.269,-0.888,0.0
11.881,-1.192,-0.896,0.0
11.069,-1.112,-0.896,0.0
10.622,-1.069,-0.918,0.0
10.055,-1.013,-0.923,0.0
13.665,-1.375,-0.87,0.0
12.774,-1.287,-0.882,0.0
12.038,-1.214,-0.896,0.0
11.236,-1.135,-0.898,0.0
10.7,-1.082,-0.914,0.0
10.159,-1.029,-0.922,0.0
13.93,-1.409,-0.873,0.0
12.845,-1.3,-0.874,0.0
12.25,-1.242,-0.899,0.0
11.423,-1.159,-0.902,0.0
10.798,-1.098,-0.911,0.0
10.236,-1.042,-0.919,0.0
14.128,-1.435,-0.87,0.0
13.034,-1.326,-0.873,0.0
12.374,-1.26,-0.895,0.0
11.556,-1.178,-0.9,0.0
10.938,-1.117,-0.911,0.0
10.366,-1.06,-0.919,0.0
14.328,-1.462,-0.867,0.0
13.237,-1.352,-0.873,0.0
12.507,-1.279,-0.892,0.0
11.769,-1.205,-0.904,0.0
11.038,-1.132,-0.907,0.0
10.553,-1.083,-0.924,0.0
14.556,-1.492,-0.866,0.0
13.475,-1.382,-0.874,0.0
12.629,-1.297,-0.886,0.0
11.871,-1.22,-0.899,0.0
11.135,-1.146,-0.903,0.0
10.613,-1.093,-0.918,0.0
14.743,-1.516,-0.86,0.0
13.804,-1.421,-0.88,0.0
12.766,-1.315,-0.882,0.0
12.018,-1.24,-0.896,0.0
11.248,-1.161,-0.899,0.0
10.724,-1.108,-0.915,0.0
14.934,-1.541,-0.854,0.0
13.958,-1.441,-0.873,0.0
12.954,-1.339,-0.88,0.0
12.157,-1.257,-0.893,0.0
11.497,-1.19,-0.906,0.0
10.858,-1.125,-0.914,0.0
15.204,-1.573,-0.852,0.0
14.176,-1.468,-0.871,0.0
13.16,-1.364,-0.879,0.0
12.334,-1.279,-0.891,0.0
11.476,-1.191,-0.891,0.0
10.974,-1.14,-0.911,0.0
15.531,-1.611,-0.853,0.0
14.36,-1.49,-0.865,0.0
13.299,-1.381,-0.873,0.0
12.463,-1.295,-0.886,0.0
11.82,-1.229,-0.904,0.0
11.082,-1.153,-0.907,0.0
15.916,-1.654,-0.855,0.0
14.617,-1.52,-0.863,0.0
13.641,-1.419,-0.879,0.0
12.697,-1.322,-0.887,0.0
11.982,-1.248,-0.901,0.0
11.164,-1.164,-0.9,0.0
16.131,-1.679,-0.847,0.0
14.88,-1.549,-0.861,0.0
13.9,-1.448,-0.878,0.0
12.834,-1.338,-0.881,0.0
12.139,-1.266,-0.898,0.0
11.266,-1.176,-0.894,0.0
16.329,-1.701,-0.838,0.0
15.151,-1.579,-0.858,0.0
14.13,-1.473,-0.875,0.0
13.057,-1.362,-0.88,0.0
12.262,-1.28,-0.892,0.0
11.461,-1.197,-0.895,0.0
16.864,-1.758,-0.844,0.0
15.405,-1.607,-0.853,0.0
14.336,-1.496,-0.87,0.0
13.275,-1.386,-0.878,0.0
12.491,-1.304,-0.893,0.0
11.712,-1.224,-0.9,0.0
17.054,-1.779,-0.832,0.0
15.782,-1.646,-0.854,0.0
14.586,-1.522,-0.867,0.0
13.569,-1.416,-0.881,0.0
12.638,-1.32,-0.887,0.0
11.902,-1.243,-0.899,0.0
17.253,-1.799,-0.82,0.0
16.074,-1.677,-0.85,0.0
14.792,-1.543,-0.861,0.0
13.823,-1.442,-0.879,0.0
12.797,-1.335,-0.882,0.0
12.074,-1.26,-0.897,0.0
17.621,-1.837,-0.815,0.0
16.24,-1.693,-0.838,0.0
15.133,-1.577,-0.861,0.0
14.081,-1.468,-0.878,0.0
13.088,-1.365,-0.886,0.0
12.253,-1.278,-0.894,0.0
18.177,-1.893,-0.817,0.0
16.61,-1.729,-0.835,0.0
15.319,-1.595,-0.852,0.0
14.263,-1.485,-0.87,0.0
13.252,-1.38,-0.879,0.0
12.362,-1.287,-0.886,0.0
18.467,-1.92,-0.807,0.0
16.858,-1.753,-0.826,0.0
15.851,-1.648,-0.861,0.0
14.519,-1.509,-0.867,0.0
13.47,-1.4,-0.876,0.0
12.689,-1.319,-0.893,0.0
19.073,-1.98,-0.808,0.0
17.302,-1.795,-0.825,0.0
16.094,-1.67,-0.853,0.0
14.796,-1.535,-0.864,0.0
13.841,-1.435,-0.882,0.0
12.817,-1.329,-0.885,0.0
19.437,-2.013,-0.798,0.0
17.655,-1.828,-0.819,0.0
16.25,-1.682,-0.84,0.0
15.067,-1.559,-0.86,0.0
14.073,-1.456,-0.878,0.0
13.004,-1.345,-0.881,0.0
19.888,-2.054,-0.791,0.0
18.045,-1.863,-0.813,0.0
16.676,-1.721,-0.84,0.0
15.346,-1.583,-0.856,0.0
14.253,-1.47,-0.871,0.0
13.341,-1.375,-0.886,0.0
20.343,-2.094,-0.782,0.0
18.508,-1.904,-0.809,0.0
17.03,-1.751,-0.835,0.0
15.76,-1.62,-0.858,0.0
14.594,-1.5,-0.872,0.0
13.524,-1.389,-0.88,0.0
20.804,-2.134,-0.772,0.0
18.816,-1.929,-0.798,0.0
17.374,-1.78,-0.829,0.0
16.061,-1.644,-0.853,0.0
14.823,-1.517,-0.866,0.0
13.857,-1.417,-0.883,0.0
21.736,-2.22,-0.777,0.0
19.509,-1.991,-0.801,0.0
17.678,-1.803,-0.819,0.0
16.323,-1.664,-0.845,0.0
15.056,-1.534,-0.859,0.0
14.017,-1.427,-0.874,0.0
22.127,-2.25,-0.762,0.0
19.895,-2.021,-0.79,0.0
18.253,-1.853,-0.822,0.0
16.866,-1.711,-0.85,0.0
15.394,-1.561,-0.858,0.0
14.402,-1.459,-0.879,0.0
22.471,-2.274,-0.744,0.0
20.285,-2.051,-0.779,0.0
18.624,-1.881,-0.813,0.0
17.045,-1.72,-0.837,0.0
15.852,-1.598,-0.862,0.0
14.644,-1.475,-0.874,0.0
23.352,-2.35,-0.741,0.0
0.0,0.0,0.0,0.0
19.153,-1.923,-0.811,0.0
17.217,-1.727,-0.822,0.0
16.077,-1.611,-0.853,0.0
14.725,-1.475,-0.859,0.0
23.761,-2.377,-0.722,0.0
21.714,-2.17,-0.775,0.0
19.56,-1.952,-0.802,0.0
17.687,-1.763,-0.82,0.0
16.424,-1.636,-0.849,0.0
15.129,-1.505,-0.862,0.0
24.378,-2.423,-0.708,0.0
22.206,-2.204,-0.763,0.0
19.884,-1.971,-0.788,0.0
18.044,-1.787,-0.813,0.0
16.812,-1.663,-0.846,0.0
15.422,-1.524,-0.858,0.0
25.427,-2.51,-0.705,0.0
22.779,-2.245,-0.752,0.0
20.401,-2.008,-0.782,0.0
18.528,-1.822,-0.81,0.0
17.025,-1.672,-0.834,0.0
15.802,-1.55,-0.858,0.0
0.0,0.0,0.0,0.0
23.275,-2.277,-0.738,0.0
20.636,-2.016,-0.763,0.0
0.0,0.0,0.0,0.0
17.377,-1.693,-0.828,0.0
16.171,-1.573,-0.857,0.0
26.623,-2.587,-0.668,0.0
23.831,-2.312,-0.724,0.0
21.833,-2.115,-0.779,0.0
19.737,-1.91,-0.81,0.0
17.761,-1.716,-0.824,0.0
16.442,-1.586,-0.85,0.0
27.807,-2.68,-0.661,0.0
24.296,-2.337,-0.706,0.0
22.124,-2.125,-0.76,0.0
19.931,-1.912,-0.792,0.0
17.996,-1.723,-0.811,0.0
16.779,-1.604,-0.845,0.0
28.663,-2.738,-0.644,0.0
25.254,-2.408,-0.701,0.0
22.806,-2.171,-0.754,0.0
20.088,-1.909,-0.772,0.0
18.44,-1.749,-0.807,0.0
17.11,-1.621,-0.839,0.0
30.093,-2.847,-0.637,0.0
25.944,-2.45,-0.687,0.0
23.647,-2.229,-0.751,3.0
20.898,-1.966,-0.777,0.0
18.927,-1.778,-0.804,0.0
17.557,-1.646,-0.839,0.0
30.409,-2.848,-0.605,0.0
26.992,-2.523,-0.68,0.0
23.869,-2.227,-0.728,0.0
21.571,-2.009,-0.774,0.0
19.592,-1.821,-0.807,0.0
17.786,-1.65,-0.827,0.0
32.292,-2.993,-0.601,0.0
27.855,-2.576,-0.666,0.0
24.692,-2.279,-0.721,0.0
22.19,-2.044,-0.768,0.0
20.001,-1.839,-0.798,0.0
18.163,-1.666,-0.821,0.0
33.07,-3.031,-0.574,0.0
28.715,-2.626,-0.65,0.0
25.308,-2.309,-0.707,0.0
22.449,-2.044,-0.749,0.0
20.377,-1.851,-0.787,0.0
18.632,-1.689,-0.819,0.0
34.158,-3.094,-0.55,0.0
29.939,-2.705,-0.64,0.0
26.274,-2.369,-0.701,0.0
23.197,-2.086,-0.744,0.0
20.988,-1.884,-0.785,0.0
19.06,-1.707,-0.814,0.0
0.0,0.0,0.0,0.0
30.442,-2.717,-0.613,0.0
26.988,-2.402,-0.687,0.0
23.924,-2.124,-0.738,0.0
21.339,-1.89,-0.771,0.0
19.48,-1.722,-0.807,0.0
0.0,0.0,0.0,0.0
31.172,-2.745,-0.59,0.0
27.443,-2.411,-0.665,0.0
24.394,-2.137,-0.723,0.0
22.073,-1.929,-0.771,0.0
19.805,-1.727,-0.797,0.0
38.843,-3.383,-0.482,0.0
32.475,-2.821,-0.575,0.0
0.0,0.0,0.0,0.0
24.77,-2.14,-0.704,0.0
22.362,-1.927,-0.754,0.0
20.132,-1.73,-0.786,0.0
40.001,-3.435,-0.449,0.0
33.359,-2.856,-0.551,0.0
29.759,-2.541,-0.649,0.0
25.701,-2.189,-0.7,0.0
23.229,-1.973,-0.756,0.0
20.569,-1.742,-0.779,0.0
0.0,0.0,0.0,0.0
0.0,0.0,0.0,0.0
30.174,-2.538,-0.624,0.0
26.452,-2.219,-0.69,0.0
23.656,-1.979,-0.743,0.0
20.978,-1.75,-0.77,0.0
0.0,0.0,0.0,0.0
0.0,0.0,0.0,0.0
30.546,-2.529,-0.596,0.0
27.657,-2.283,-0.69,0.0
24.127,-1.986,-0.73,0.0
21.699,-1.781,-0.772,0.0
0.0,0.0,0.0,0.0
38.503,-3.146,-0.504,0.0
32.157,-2.619,-0.592,0.0
0.0,0.0,0.0,0.0
24.509,-1.984,-0.714,0.0
22.119,-1.785,-0.762,0.0
0.0,0.0,0.0,0.0
38.877,-3.123,-0.465,0.0
33.164,-2.655,-0.574,0.0
28.559,-2.279,-0.649,0.0
25.079,-1.995,-0.703,0.0
22.42,-1.777,-0.748,0.0
0.0,0.0,0.0,0.0
41.544,-3.278,-0.452,1.0
33.751,-2.654,-0.547,0.0
29.478,-2.31,-0.637,0.0
26.286,-2.052,-0.708,0.0
22.809,-1.775,-0.736,0.0
0.0,0.0,0.0,0.0
41.772,-3.235,-0.409,0.0
0.0,0.0,0.0,0.0
0.0,0.0,0.0,0.0
26.724,-2.047,-0.691,0.0
23.408,-1.787,-0.731,0.0
0.0,0.0,0.0,0.0
0.0,0.0,0.0,0.0
36.571,-2.767,-0.515,0.0
0.0,0.0,0.0,0.0
27.392,-2.057,-0.68,0.0
24.056,-1.799,-0.726,0.0
0.0,0.0,0.0,0.0
0.0,0.0,0.0,0.0
0.0,0.0,0.0,0.0
31.62,-2.334,-0.584,0.0
27.676,-2.035,-0.659,0.0
24.547,-1.798,-0.716,0.0
0.0,0.0,0.0,0.0
0.0,0.0,0.0,0.0
39.746,-2.884,-0.479,1.0
32.908,-2.377,-0.575,0.0
28.168,-2.026,-0.643,0.0
24.906,-1.785,-0.701,0.0
0.0,0.0,0.0,0.0
0.0,0.0,0.0,0.0
40.421,-2.867,-0.447,0.0
34.148,-2.412,-0.564,0.0
0.0,0.0,0.0,0.0
25.499,-1.786,-0.694,0.0
0.0,0.0,0.0,0.0
0.0,0.0,0.0,0.0
0.0,0.0,0.0,0.0
34.474,-2.379,-0.537,0.0
30.179,-2.073,-0.631,0.0
26.191,-1.791,-0.688,0.0
0.0,0.0,0.0,0.0
0.0,0.0,0.0,0.0
0.0,0.0,0.0,0.0
35.929,-2.418,-0.526,1.0
30.183,-2.022,-0.603,0.0
27.313,-1.821,-0.692,0.0
99.654,-6.635,0.239,4.0
0.0,0.0,0.0,0.0
0.0,0.0,0.0,0.0
36.619,-2.403,-0.503,0.0
0.0,0.0,0.0,0.0
27.866,-1.81,-0.681,0.0
99.707,-6.467,0.327,4.0
0.0,0.0,0.0,0.0
0.0,0.0,0.0,0.0
37.313,-2.384,-0.481,0.0
31.64,-2.012,-0.577,0.0
28.113,-1.778,-0.664,0.0
0.0,0.0,0.0,0.0
0.0,0.0,0.0,0.0
0.0,0.0,0.0,0.0
0.0,0.0,0.0,0.0
33.394,-2.064,-0.581,0.0
28.813,-1.771,-0.656,0.0
108.897,-6.681,0.538,3.0
0.0,0.0,0.0,0.0
0.0,0.0,0.0,0.0
0.0,0.0,0.0,0.0
34.255,-2.056,-0.569,0.0
29.593,-1.766,-0.651,0.0
109.971,-6.549,0.631,1.0
0.0,0.0,0.0,0.0
0.0,0.0,0.0,0.0
42.487,-2.487,-0.445,0.0
0.0,0.0,0.0,0.0
29.755,-1.722,-0.631,0.0
9.583,0.653,-0.888,0.0
9.102,0.619,-0.895,0.0
8.633,0.586,-0.898,0.0
8.202,0.556,-0.901,0.0
7.911,0.535,-0.914,0.0
7.654,0.516,-0.928,0.0
9.608,0.644,-0.894,0.0
9.106,0.609,-0.899,0.0
8.629,0.576,-0.901,0.0
8.219,0.548,-0.905,0.0
7.899,0.525,-0.915,0.0
7.636,0.507,-0.928,0.0
9.582,0.632,-0.894,0.0
9.074,0.597,-0.898,0.0
8.635,0.567,-0.904,0.0
8.18,0.536,-0.904,0.0
7.91,0.517,-0.919,0.0
7.617,0.497,-0.928,0.0
9.528,0.617,-0.892,0.0
9.048,0.585,-0.898,0.0
8.639,0.557,-0.907,0.0
8.167,0.525,-0.904,0.0
7.889,0.507,-0.918,0.0
7.618,0.488,-0.93,0.0
9.506,0.605,-0.892,0.0
9.039,0.574,-0.899,0.0
8.61,0.545,-0.906,0.0
8.157,0.515,-0.905,0.0
7.883,0.497,-0.919,0.0
7.625,0.48,-0.933,0.0
9.525,0.595,-0.896,0.0
9.06,0.565,-0.903,0.0
8.537,0.531,-0.899,0.0
8.163,0.506,-0.907,0.0
7.887,0.488,-0.921,0.0
7.629,0.471,-0.935,0.0
9.465,0.58,-0.892,0.0
9.017,0.551,-0.9,0.0
8.554,0.521,-0.903,0.0
8.169,0.497,-0.909,0.0
7.863,0.477,-0.92,0.0
7.568,0.458,-0.928,0.0
9.487,0.57,-0.895,0.0
9.014,0.54,-0.901,0.0
8.603,0.514,-0.909,0.0
8.164,0.486,-0.909,0.0
7.869,0.468,-0.921,0.0
7.586,0.45,-0.931,0.0
9.493,0.559,-0.896,0.0
9.038,0.53,-0.904,0.0
8.594,0.503,-0.908,0.0
8.159,0.476,-0.909,0.0
7.857,0.457,-0.92,0.0
7.579,0.44,-0.93,0.0
9.496,0.547,-0.897,0.0
9.102,0.523,-0.911,0.0
8.59,0.492,-0.908,0.0
8.17,0.467,-0.91,0.0
7.852,0.447,-0.919,0.0
7.606,0.432,-0.934,0.0
9.507,0.536,-0.898,0.0
9.003,0.506,-0.901,0.0
8.593,0.481,-0.908,0.0
8.165,0.456,-0.909,0.0
7.887,0.439,-0.923,0.0
7.565,0.42,-0.928,0.0
9.513,0.525,-0.897,0.0
9.022,0.496,-0.902,0.0
8.607,0.471,-0.909,0.0
8.183,0.447,-0.911,0.0
7.882,0.429,-0.922,0.0
7.581,0.411,-0.929,0.0
9.515,0.513,-0.897,0.0
8.639,0.462,-0.911,0.0
8.196,0.437,-0.911,0.0
7.915,0.421,-0.924,0.0
7.599,0.402,-0.93,0.0
9.534,0.502,-0.897,0.0
8.591,0.449,-0.904,0.0
8.211,0.427,-0.911,0.0
7.934,0.412,-0.925,0.0
7.602,0.393,-0.929,0.0
9.553,0.49,-0.897,0.0
8.607,0.438,-0.904,0.0
8.228,0.418,-0.911,0.0
7.943,0.402,-0.924,0.0
7.616,0.384,-0.929,0.0
9.625,0.482,-0.901,0.0
8.678,0.431,-0.909,0.0
8.232,0.407,-0.91,0.0
7.927,0.391,-0.92,0.0
7.663,0.376,-0.933,0.0
22.297,0.004,-0.721,0.0
19.842,0.001,-0.745,1.0
18.808,0.0,-0.804,0.0
16.977,-0.001,-0.815,0.0
15.65,-0.002,-0.832,0.0
14.567,-0.003,-0.851,0.0
23.399,-0.004,-0.71,0.0
21.043,-0.006,-0.747,0.0
19.554,-0.007,-0.796,0.0
17.671,-0.007,-0.812,0.0
16.205,-0.008,-0.829,0.0
15.055,-0.009,-0.848,0.0
24.472,-0.013,-0.693,0.0
21.81,-0.014,-0.73,0.0
19.746,-0.014,-0.763,2.0
18.438,-0.014,-0.81,0.0
16.692,-0.014,-0.82,0.0
15.472,-0.014,-0.84,0.0
25.693,-0.022,-0.676,0.0
23.019,-0.021,-0.724,0.0
20.563,-0.021,-0.753,0.0
18.974,-0.02,-0.795,0.0
17.443,-0.02,-0.821,0.0
15.952,-0.019,-0.833,0.0
26.835,-0.031,-0.65,0.0
24.064,-0.029,-0.707,0.0
21.468,-0.027,-0.742,0.0
19.707,-0.026,-0.785,2.0
17.951,-0.025,-0.808,0.0
16.557,-0.024,-0.83,0.0
28.657,-0.04,-0.635,0.0
25.163,-0.037,-0.688,0.0
22.581,-0.034,-0.734,0.0
19.836,-0.031,-0.749,0.0
18.759,-0.03,-0.805,0.0
17.075,-0.028,-0.821,0.0
29.859,-0.048,-0.601,0.0
26.275,-0.044,-0.664,0.0
23.117,-0.04,-0.704,1.0
21.188,-0.037,-0.756,0.0
19.582,-0.035,-0.8,0.0
17.643,-0.032,-0.812,0.0
19.716,-0.035,-0.355,0.0
28.174,-0.052,-0.653,0.0
24.686,-0.046,-0.699,0.0
21.811,-0.042,-0.732,0.0
19.767,-0.039,-0.766,2.0
18.39,-0.036,-0.807,0.0
19.776,-0.038,-0.315,2.0
29.393,-0.058,-0.619,0.0
25.855,-0.052,-0.678,0.0
23.047,-0.047,-0.725,0.0
20.62,-0.042,-0.755,0.0
19.124,-0.04,-0.799,0.0
19.764,-0.04,-0.273,10.0
19.784,-0.041,-0.375,0.0
0.0,0.0,0.0,0.0
24.282,-0.051,-0.713,0.0
21.57,-0.046,-0.744,0.0
19.726,-0.042,-0.782,2.0
19.757,-0.042,-0.231,15.0
19.774,-0.042,-0.333,2.0
28.881,-0.062,-0.635,0.0
25.24,-0.055,-0.687,0.0
22.742,-0.049,-0.737,0.0
19.923,-0.043,-0.748,0.0
19.757,-0.042,-0.189,15.0
19.77,-0.042,-0.291,9.0
19.792,-0.043,-0.393,0.0
26.344,-0.057,-0.662,0.0
23.578,-0.051,-0.714,0.0
21.277,-0.046,-0.754,0.0
19.743,-0.042,-0.147,14.0
19.763,-0.042,-0.249,14.0
19.775,-0.042,-0.351,1.0
28.363,-0.061,-0.653,0.0
24.945,-0.053,-0.703,0.0
21.942,-0.047,-0.731,0.0
19.733,-0.041,-0.106,14.0
19.748,-0.041,-0.207,14.0
19.771,-0.041,-0.309,5.0
29.505,-0.061,-0.617,0.0
26.006,-0.054,-0.677,0.0
23.176,-0.048,-0.723,0.0
19.736,-0.039,-0.063,15.0
19.74,-0.039,-0.165,14.0
19.76,-0.039,-0.267,10.0
19.776,-0.039,-0.371,0.0
28.069,-0.055,-0.671,0.0
24.526,-0.047,-0.712,0.0
19.716,-0.037,-0.021,17.0
19.729,-0.037,-0.123,14.0
19.749,-0.036,-0.224,13.0
19.762,-0.036,-0.328,1.0
29.097,-0.052,-0.633,0.0
25.516,-0.045,-0.686,0.0
19.707,-0.034,0.02,18.0
19.732,-0.033,-0.081,11.0
19.735,-0.033,-0.182,13.0
19.759,-0.032,-0.286,3.0
30.71,-0.05,-0.603,0.0
26.487,-0.042,-0.656,0.0
19.706,-0.03,0.062,16.0
19.715,-0.029,-0.038,15.0
19.742,-0.029,-0.14,13.0
19.744,-0.028,-0.244,5.0
32.224,-0.045,-0.564,0.0
28.47,-0.038,-0.644,0.0
19.704,-0.025,0.104,15.0
19.702,-0.024,0.002,16.0
19.741,-0.024,-0.098,9.0
19.745,-0.023,-0.202,7.0
34.259,-0.039,-0.526,0.0
29.651,-0.032,-0.608,0.0
19.683,-0.02,0.146,8.0
19.705,-0.019,0.045,15.0
19.715,-0.018,-0.056,12.0
19.749,-0.017,-0.159,9.0
19.801,-0.016,-0.262,0.0
31.414,-0.024,-0.577,0.0
19.652,-0.014,0.187,13.0
19.693,-0.013,0.087,10.0
19.715,-0.012,-0.014,13.0
19.757,-0.011,-0.117,8.0
19.793,-0.009,-0.219,0.0
0.0,0.0,0.0,0.0
19.649,-0.007,0.229,15.0
19.704,-0.006,0.128,2.0
19.713,-0.004,0.027,10.0
19.732,-0.003,-0.076,6.0
19.777,-0.002,-0.178,0.0
0.0,0.0,0.0,0.0
19.632,0.0,0.271,14.0
19.688,0.001,0.17,8.0
19.756,0.002,0.069,3.0
19.737,0.004,-0.034,10.0
19.767,0.005,-0.136,0.0
19.622,0.008,0.311,14.0
19.638,0.009,0.21,15.0
19.791,0.011,0.11,1.0
19.736,0.012,0.006,8.0
19.773,0.014,-0.095,1.0
19.806,0.016,-0.197,0.0
19.626,0.017,0.353,16.0
19.624,0.018,0.251,14.0
19.771,0.02,0.151,3.0
19.778,0.022,0.048,4.0
19.731,0.024,-0.053,76.0
19.756,0.025,-0.155,3.0
19.623,0.027,0.394,14.0
19.616,0.028,0.293,14.0
19.646,0.03,0.192,14.0
19.735,0.032,0.089,16.0
19.737,0.034,-0.012,17.0
19.762,0.036,-0.114,8.0
19.614,0.037,0.435,13.0
19.614,0.039,0.333,16.0
19.619,0.041,0.232,15.0
19.736,0.043,0.13,12.0
19.742,0.045,0.028,18.0
19.747,0.047,-0.073,60.0
19.607,0.048,0.475,14.0
19.605,0.05,0.374,12.0
19.614,0.052,0.273,11.0
19.663,0.054,0.17,9.0
19.753,0.057,0.069,56.0
19.75,0.059,-0.032,47.0
19.607,0.06,0.515,14.0
19.598,0.062,0.414,17.0
19.61,0.064,0.313,12.0
19.613,0.066,0.21,15.0
19.702,0.069,0.109,17.0
19.751,0.071,0.008,60.0
19.601,0.073,0.556,15.0
19.621,0.075,0.455,26.0
19.608,0.077,0.353,17.0
19.602,0.079,0.25,15.0
19.664,0.082,0.149,12.0
19.711,0.084,0.047,21.0
19.605,0.086,0.596,14.0
19.619,0.088,0.494,22.0
19.617,0.09,0.393,21.0
19.594,0.093,0.289,18.0
19.649,0.095,0.188,12.0
19.665,0.098,0.087,13.0
19.603,0.099,0.635,13.0
19.6,0.102,0.533,18.0
19.606,0.104,0.432,27.0
19.593,0.107,0.328,18.0
19.628,0.11,0.227,12.0
19.65,0.112,0.126,14.0
19.618,0.114,0.674,12.0
19.594,0.116,0.572,17.0
19.605,0.119,0.471,17.0
19.592,0.122,0.367,15.0
19.614,0.125,0.266,12.0
19.657,0.128,0.165,16.0
19.631,0.129,0.714,10.0
19.598,0.132,0.612,13.0
19.595,0.135,0.51,16.0
19.599,0.137,0.406,12.0
19.611,0.14,0.305,11.0
19.663,0.144,0.204,17.0
19.654,0.145,0.754,8.0
19.604,0.148,0.65,11.0
19.589,0.151,0.548,12.0
19.603,0.154,0.444,10.0
19.624,0.157,0.343,11.0
19.634,0.16,0.241,11.0
19.674,0.162,0.793,1.0
19.612,0.164,0.688,10.0
19.602,0.167,0.586,10.0
19.613,0.17,0.482,11.0
19.646,0.174,0.381,9.0
19.638,0.177,0.279,9.0
186.289,1.702,7.869,13.0
19.634,0.182,0.726,8.0
19.632,0.185,0.624,10.0
19.661,0.188,0.521,9.0
19.666,0.192,0.419,9.0
19.688,0.195,0.317,9.0
186.516,1.873,8.235,12.0
19.694,0.201,0.767,3.0
19.652,0.203,0.662,10.0
19.694,0.207,0.56,10.0
19.706,0.21,0.457,10.0
19.726,0.214,0.355,12.0
0.0,0.0,0.0,0.0
185.734,2.07,7.581,16.0
19.645,0.222,0.699,10.0
19.648,0.225,0.595,10.0
19.676,0.229,0.493,10.0
19.7,0.232,0.391,11.0
84.836,1.013,4.063,5.0
84.818,1.027,3.618,27.0
19.653,0.241,0.735,9.0
19.641,0.244,0.631,15.0
19.66,0.248,0.528,14.0
19.683,0.252,0.426,11.0
84.809,1.096,4.216,44.0
84.824,1.112,3.773,46.0
84.81,1.127,3.329,17.0
19.636,0.264,0.666,15.0
19.648,0.268,0.563,13.0
19.666,0.271,0.461,13.0
122.197,1.706,6.297,25.0
121.573,1.719,5.626,23.0
121.629,1.741,4.991,9.0
19.638,0.284,0.701,10.0
19.651,0.288,0.598,13.0
19.676,0.292,0.496,13.0
121.894,1.828,6.496,23.0
121.603,1.847,5.842,23.0
121.45,1.867,5.199,26.0
19.66,0.306,0.736,1.0
19.662,0.309,0.633,9.0
19.682,0.313,0.531,8.0
121.974,1.962,6.715,27.0
121.691,1.981,6.061,18.0
55.205,0.909,2.459,7.0
55.222,0.92,2.165,27.0
55.2,0.93,1.875,29.0
55.184,0.941,1.585,46.0
55.212,0.95,3.136,64.0
55.196,0.96,2.844,72.0
55.189,0.97,2.554,73.0
55.185,0.981,2.257,75.0
55.179,0.991,1.967,73.0
55.177,1.003,1.678,67.0
55.209,1.012,3.23,53.0
55.215,1.023,2.939,48.0
55.215,1.034,2.648,25.0
55.196,1.045,2.351,13.0
55.213,1.056,2.062,2.0
135.313,2.618,4.342,17.0
133.608,2.606,8.04,8.0
121.914,2.402,6.691,20.0
121.714,2.423,6.039,23.0
121.386,2.441,5.372,23.0
121.261,2.463,4.728,21.0
135.19,2.773,4.558,20.0
129.422,2.678,8.0,19.0
129.536,2.706,7.322,10.0
129.301,2.727,6.625,15.0
121.664,2.591,5.58,13.0
121.303,2.608,4.923,17.0
121.213,2.633,4.281,7.0
134.273,2.941,8.516,9.0
133.572,2.953,7.765,15.0
133.662,2.984,7.064,5.0
129.273,2.912,6.136,5.0
121.268,2.758,5.115,10.0
121.073,2.78,4.469,23.0
121.621,2.815,7.908,21.0
133.572,3.121,7.978,26.0
129.629,3.056,7.054,15.0
121.15,2.882,5.94,20.0
129.084,3.098,5.646,8.0
113.592,2.751,4.369,13.0
121.528,2.967,8.091,25.0
121.386,2.99,7.437,11.0
134.492,3.341,7.527,14.0
114.53,2.869,5.79,19.0
45.488,1.15,2.059,2.0
45.495,1.159,1.818,13.0
43.674,1.122,2.974,6.0
43.697,1.132,2.743,42.0
43.702,1.142,2.511,97.0
43.706,1.152,2.275,124.0
0.0,0.0,0.0,0.0
0.0,0.0,0.0,0.0
0.0,0.0,0.0,0.0
0.0,0.0,0.0,0.0
0.0,0.0,0.0,0.0
0.0,0.0,0.0,0.0
0.0,0.0,0.0,0.0
40.1,1.127,1.719,39.0
40.103,1.136,2.848,81.0
40.111,1.144,2.634,150.0
40.113,1.153,2.421,150.0
40.109,1.162,2.203,138.0
40.126,1.172,1.99,108.0
40.12,1.181,1.776,104.0
40.119,1.19,2.906,116.0
40.098,1.198,2.69,150.0
40.116,1.207,2.477,115.0
40.12,1.217,2.259,119.0
40.123,1.226,2.045,118.0
40.122,1.235,1.832,94.0
40.12,1.245,2.961,107.0
40.102,1.253,2.745,150.0
40.115,1.262,2.531,115.0
40.119,1.272,2.313,112.0
40.121,1.281,2.099,102.0
40.117,1.29,1.885,106.0
40.087,1.299,3.012,6.0
0.0,0.0,0.0,0.0
40.197,1.32,2.589,112.0
0.0,0.0,0.0,0.0
120.197,4.003,6.445,11.0
121.076,4.061,5.846,21.0
0.0,0.0,0.0,0.0
40.216,1.368,2.858,150.0
40.198,1.377,2.641,150.0
41.96,1.447,2.528,41.0
135.267,4.695,7.426,16.0
121.067,4.231,5.999,24.0
0.0,0.0,0.0,0.0
40.205,1.424,2.908,117.0
40.19,1.433,2.691,150.0
45.558,1.635,2.801,44.0
135.18,4.883,7.587,26.0
121.072,4.403,6.146,27.0
0.0,0.0,0.0,0.0
40.2,1.481,2.956,103.0
0.0,0.0,0.0,0.0
0.0,0.0,0.0,0.0
121.199,4.552,6.946,27.0
120.957,4.572,6.284,24.0
0.0,0.0,0.0,0.0
40.151,1.538,3.0,27.0
40.184,1.548,2.786,95.0
0.0,0.0,0.0,0.0
121.066,4.722,7.078,21.0
120.955,4.747,6.421,22.0
0.0,0.0,0.0,0.0
40.122,1.595,3.044,1.0
40.209,1.608,2.833,115.0
0.0,0.0,0.0,0.0
120.68,4.883,7.191,20.0
120.822,4.918,6.549,20.0
0.0,0.0,0.0,0.0
0.0,0.0,0.0,0.0
40.208,1.667,2.877,150.0
0.0,0.0,0.0,0.0
45.557,1.91,2.763,3.0
23.575,0.994,1.303,0.0
23.579,1.001,1.968,0.0
23.572,1.006,1.839,15.0
40.197,1.725,2.919,10.0
23.593,1.018,1.583,37.0
23.582,1.023,1.454,46.0
23.58,1.029,1.327,47.0
23.564,1.036,1.991,44.0
23.556,1.041,1.862,51.0
23.549,1.046,1.733,60.0
23.54,1.051,1.603,68.0
23.565,1.057,1.477,71.0
23.569,1.063,1.349,72.0
23.547,1.07,2.013,75.0
23.549,1.076,1.885,72.0
23.542,1.081,1.756,70.0
23.554,1.087,1.627,71.0
23.56,1.093,1.499,73.0
23.564,1.099,1.372,65.0
23.556,1.106,2.036,48.0
23.561,1.112,1.908,42.0
23.569,1.118,1.78,41.0
23.574,1.123,1.65,40.0
23.596,1.13,1.523,39.0
23.593,1.135,1.394,29.0
23.571,1.142,2.058,3.0
23.556,1.147,1.929,1.0
23.549,1.152,1.799,0.0
40.196,1.976,2.848,110.0
0.0,0.0,0.0,0.0
0.0,0.0,0.0,0.0
0.0,0.0,0.0,0.0
0.0,0.0,0.0,0.0
0.0,0.0,0.0,0.0
40.189,2.037,2.881,124.0
0.0,0.0,0.0,0.0
45.562,2.33,2.77,2.0
0.0,0.0,0.0,0.0
0.0,0.0,0.0,0.0
0.0,0.0,0.0,0.0
40.198,2.098,2.914,114.0
41.984,2.201,2.814,140.0
45.548,2.398,2.804,22.0
0.0,0.0,0.0,0.0
0.0,0.0,0.0,0.0
0.0,0.0,0.0,0.0
40.198,2.159,2.944,102.0
41.988,2.265,2.845,123.0
45.543,2.468,2.837,44.0
0.0,0.0,0.0,0.0
0.0,0.0,0.0,0.0
0.0,0.0,0.0,0.0
40.179,2.219,2.971,54.0
0.0,0.0,0.0,0.0
45.548,2.536,2.869,101.0
0.0,0.0,0.0,0.0
0.0,0.0,0.0,0.0
0.0,0.0,0.0,0.0
40.176,2.279,2.997,33.0
0.0,0.0,0.0,0.0
0.0,0.0,0.0,0.0
0.0,0.0,0.0,0.0
0.0,0.0,0.0,0.0
0.0,0.0,0.0,0.0
40.169,2.34,3.021,8.0
40.174,2.349,2.801,94.0
0.0,0.0,0.0,0.0
0.0,0.0,0.0,0.0
0.0,0.0,0.0,0.0
0.0,0.0,0.0,0.0
40.145,2.4,3.043,0.0
40.198,2.412,2.826,95.0
45.549,2.743,2.951,47.0
0.0,0.0,0.0,0.0
0.0,0.0,0.0,0.0
0.0,0.0,0.0,0.0
0.0,0.0,0.0,0.0
40.193,2.472,2.846,112.0
0.0,0.0,0.0,0.0
0.0,0.0,0.0,0.0
0.0,0.0,0.0,0.0
0.0,0.0,0.0,0.0
0.0,0.0,0.0,0.0
40.187,2.533,2.866,112.0
0.0,0.0,0.0,0.0
99.922,6.364,9.395,24.0
99.923,6.385,8.841,28.0
99.947,6.408,8.289,34.0
99.914,6.426,7.722,34.0
40.19,2.594,2.884,109.0
0.0,0.0,0.0,0.0
99.913,6.515,9.437,35.0
99.913,6.536,8.882,34.0
99.945,6.558,8.33,33.0
99.904,6.577,7.761,36.0
40.184,2.654,2.899,110.0
0.0,0.0,0.0,0.0
99.894,6.664,9.475,34.0
99.908,6.686,8.919,32.0
99.905,6.705,8.363,35.0
99.919,6.727,7.799,38.0
40.193,2.714,2.914,95.0
43.769,2.965,2.931,59.0
99.916,6.814,9.51,37.0
99.9,6.834,8.952,35.0
99.912,6.855,8.396,33.0
99.939,6.876,7.833,35.0
40.192,2.774,2.926,99.0
43.778,3.03,2.945,2.0
99.895,6.962,9.539,33.0
99.91,6.983,8.983,35.0
99.932,7.004,8.426,34.0
99.913,7.024,7.858,37.0
40.182,2.833,2.937,115.0
41.975,2.968,2.834,122.0
99.926,7.113,9.567,35.0
99.919,7.132,9.008,35.0
99.927,7.152,8.45,32.0
99.912,7.171,7.881,38.0
40.177,2.891,2.945,115.0
41.971,3.029,2.843,125.0
99.922,7.258,9.588,25.0
99.914,7.277,9.028,16.0
99.861,7.293,8.464,9.0
99.752,7.304,7.888,6.0
40.182,2.95,2.953,114.0
41.959,3.089,2.85,110.0
99.031,7.339,9.519,12.0
99.071,7.361,8.968,12.0
99.039,7.376,8.41,15.0
99.059,7.396,7.847,16.0
40.178,3.008,2.958,116.0
0.0,0.0,0.0,0.0
98.988,7.479,9.528,21.0
99.003,7.499,8.973,54.0
99.054,7.52,8.423,14.0
99.012,7.536,7.854,12.0
40.171,3.065,2.962,107.0
40.172,3.072,2.738,150.0
94.889,7.305,9.141,4.0
94.943,7.326,8.613,5.0
94.807,7.333,8.068,5.0
94.837,7.352,7.53,6.0
40.156,3.12,2.963,67.0
40.168,3.129,2.739,150.0
94.834,7.435,9.141,51.0
94.832,7.452,8.605,54.0
94.842,7.469,8.074,52.0
94.839,7.485,7.532,50.0
40.155,3.176,2.963,67.0
40.17,3.185,2.74,150.0
94.872,7.571,9.144,5.0
94.847,7.586,8.607,4.0
94.886,7.605,8.076,4.0
94.825,7.617,7.528,4.0
40.083,3.226,2.957,99.0
40.08,3.234,2.732,129.0
98.084,7.965,9.449,8.0
97.934,7.969,8.882,10.0
97.832,7.977,8.322,10.0
97.851,7.996,7.762,11.0
40.083,3.282,2.954,88.0
40.082,3.289,2.729,150.0
96.502,7.968,9.288,10.0
96.586,7.99,8.751,12.0
96.539,8.003,8.202,10.0
96.641,8.028,7.655,10.0
40.086,3.336,2.95,89.0
40.082,3.343,2.725,149.0
87.13,7.312,8.375,3.0
87.067,7.32,7.877,3.0
87.096,7.336,7.387,4.0
87.117,7.353,6.889,4.0
40.058,3.388,2.942,68.0
40.086,3.397,2.718,91.0
87.048,7.421,8.353,25.0
87.046,7.434,7.86,29.0
87.046,7.447,7.367,40.0
87.044,7.462,6.866,51.0
87.054,7.477,6.377,66.0
87.059,7.492,5.887,89.0
87.035,7.534,8.333,13.0
87.019,7.545,7.839,12.0
87.028,7.559,7.347,12.0
87.042,7.574,6.847,11.0
87.061,7.589,6.357,36.0
87.089,7.606,5.869,8.0
82.851,7.279,7.912,1.0
82.987,7.303,7.454,1.0
82.945,7.311,6.981,2.0
82.901,7.319,6.499,3.0
82.874,7.33,6.028,3.0
83.014,7.355,5.57,3.0
82.911,7.389,7.894,9.0
82.873,7.397,7.419,9.0
82.883,7.41,6.95,10.0
82.878,7.422,6.472,19.0
82.898,7.436,6.004,20.0
82.924,7.451,5.538,24.0
70.855,7.527,6.004,41.0
70.861,7.531,5.598,44.0
70.867,7.536,5.191,41.0
70.858,7.54,4.776,47.0
70.873,7.545,4.372,42.0
70.877,7.551,3.967,42.0
70.837,7.575,5.939,14.0
70.854,7.58,5.533,14.0
70.851,7.583,5.125,13.0
70.862,7.588,4.713,16.0
70.885,7.595,4.308,15.0
70.89,7.6,3.904,15.0
70.889,7.628,5.877,6.0
70.863,7.627,5.468,6.0
70.892,7.634,5.062,6.0
70.905,7.638,4.649,7.0
70.882,7.64,4.242,7.0
70.875,7.643,3.836,6.0
70.934,7.676,5.814,3.0
70.984,7.684,5.409,3.0
70.936,7.682,4.998,3.0
70.885,7.679,4.58,4.0
70.959,7.691,4.178,3.0
70.935,7.692,3.77,3.0
71.165,7.742,5.763,0.0
70.921,7.718,5.335,2.0
71.072,7.737,4.938,2.0
70.942,7.725,4.515,2.0
71.122,7.748,4.118,1.0
70.995,7.738,3.704,1.0
73.822,8.071,5.905,8.0
73.686,8.058,5.47,7.0
73.465,8.037,5.03,8.0
73.408,8.033,4.597,6.0
73.557,8.052,4.184,7.0
73.837,8.086,3.777,7.0
73.495,8.073,5.802,10.0
73.564,8.082,5.384,9.0
73.401,8.065,4.95,9.0
73.216,8.048,4.509,10.0
73.172,8.045,4.086,9.0
73.366,8.069,3.677,7.0
72.936,8.045,5.681,8.0
73.205,8.076,5.28,9.0
73.277,8.085,4.864,10.0
73.243,8.083,4.432,12.0
73.049,8.064,4.002,10.0
72.929,8.053,3.577,8.0
72.506,8.028,5.57,9.0
72.657,8.046,5.162,9.0
72.959,8.08,4.765,9.0
73.104,8.097,4.346,10.0
73.012,8.089,3.922,10.0
72.829,8.07,3.495,9.0
72.465,8.051,5.488,9.0
72.333,8.036,5.061,10.0
72.491,8.054,4.655,8.0
72.766,8.086,4.247,9.0
72.889,8.101,3.835,10.0
72.826,8.095,3.415,10.0
72.498,8.079,5.41,10.0
72.337,8.06,4.981,10.0
72.246,8.05,4.56,7.0
72.362,8.064,4.143,7.0
72.589,8.09,3.739,9.0
72.743,8.108,3.33,10.0
72.393,8.088,5.321,12.0
72.369,8.085,4.902,11.0
72.266,8.073,4.479,8.0
72.103,8.055,4.046,7.0
72.281,8.075,3.641,6.0
72.486,8.099,3.236,9.0
72.138,8.077,5.22,7.0
72.278,8.092,4.813,12.0
72.316,8.095,4.399,10.0
72.192,8.081,3.97,9.0
72.051,8.065,3.548,4.0
72.151,8.077,3.139,6.0
71.695,8.042,5.104,4.0
72.038,8.079,4.713,7.0
72.217,8.098,4.309,10.0
72.226,8.099,3.886,9.0
72.143,8.089,3.467,9.0
71.974,8.07,3.046,5.0
71.72,8.056,5.021,8.0
71.664,8.048,4.604,3.0
72.072,8.093,4.215,5.0
72.195,8.105,3.799,11.0
72.18,8.103,3.384,10.0
71.964,8.078,2.96,5.0
71.87,8.082,4.945,9.0
71.691,8.059,4.519,6.0
71.708,8.059,4.107,3.0
72.055,8.097,3.705,7.0
72.163,8.108,3.296,9.0
57.793,6.493,2.309,2.0
71.94,8.094,4.864,10.0
71.825,8.079,4.442,8.0
71.693,8.062,4.021,5.0
71.749,8.066,3.604,3.0
72.089,8.103,3.207,8.0
57.806,6.496,2.24,4.0
71.895,8.091,4.773,8.0
72.0,8.1,4.366,8.0
71.929,8.089,3.947,8.0
71.803,8.073,3.52,6.0
71.888,8.08,3.111,3.0
57.781,6.494,2.168,5.0
71.705,8.068,4.672,4.0
72.035,8.102,4.278,8.0
72.089,8.105,3.867,10.0
72.001,8.092,3.441,9.0
71.872,8.076,3.021,4.0
57.834,6.497,2.099,7.0
71.543,8.045,4.573,3.0
71.884,8.079,4.18,4.0
72.133,8.104,3.779,10.0
72.247,8.114,3.363,9.0
71.95,8.078,2.936,3.0
57.944,6.504,2.032,10.0
71.855,8.072,4.504,7.0
71.761,8.057,4.084,4.0
72.126,8.095,3.689,7.0
72.26,8.106,3.273,9.0
57.891,6.492,2.29,3.0
58.0,6.502,1.961,9.0
72.142,8.093,4.431,9.0
72.034,8.076,4.01,7.0
72.014,8.07,3.594,4.0
72.208,8.088,3.182,7.0
58.011,6.495,2.223,4.0
58.119,6.505,1.893,8.0
72.341,8.1,4.353,10.0
72.317,8.093,3.935,9.0
72.251,8.081,3.515,8.0
72.245,8.076,3.092,7.0
58.142,6.496,2.154,3.0
58.237,6.504,1.823,8.0
72.441,8.093,4.266,10.0
72.622,8.108,3.859,10.0
72.589,8.1,3.439,10.0
72.416,8.076,3.007,8.0
58.336,6.502,2.088,5.0
58.434,6.51,1.756,9.0
72.43,8.071,4.174,7.0
72.753,8.101,3.774,10.0
72.903,8.112,3.363,11.0
72.811,8.097,2.932,2.0
58.497,6.502,2.02,9.0
58.589,6.508,1.687,10.0
72.515,8.056,4.086,10.0
72.765,8.077,3.683,7.0
73.091,8.108,3.279,9.0
58.585,6.494,2.285,2.0
58.712,6.504,1.954,9.0
58.803,6.511,1.619,10.0
72.923,8.073,4.018,10.0
72.889,8.063,3.597,8.0
73.179,8.089,3.19,9.0
58.826,6.498,2.22,5.0
58.951,6.507,1.887,7.0
59.02,6.511,1.551,8.0
73.45,8.1,3.953,10.0
73.313,8.078,3.524,9.0
73.275,8.067,3.102,10.0
59.107,6.502,2.157,5.0
59.178,6.505,1.82,4.0
59.249,6.509,1.482,6.0
73.796,8.103,3.878,10.0
73.8,8.096,3.455,8.0
73.545,8.061,3.02,3.0
59.373,6.502,2.09,4.0
59.472,6.508,1.753,6.0
59.579,6.515,1.415,5.0
71.018,7.76,3.642,2.0
71.112,7.764,3.238,1.0
59.603,6.501,2.371,1.0
59.705,6.506,2.027,6.0
59.814,6.513,1.687,10.0
59.866,6.514,1.345,6.0
70.968,7.715,3.548,4.0
70.937,7.703,3.139,3.0
59.824,6.49,2.303,3.0
59.983,6.502,1.959,7.0
60.083,6.507,1.619,5.0
60.188,6.513,1.277,3.0
70.909,7.665,3.456,7.0
70.926,7.659,3.049,7.0
60.305,6.505,2.246,0.0
60.402,6.509,1.897,4.0
60.485,6.512,1.553,4.0
60.619,6.521,1.209,5.0
70.881,7.615,3.366,16.0
70.88,7.606,2.958,20.0
60.587,6.495,2.18,3.0
60.766,6.507,1.832,5.0
60.904,6.516,1.488,6.0
61.01,6.521,1.14,7.0
70.883,7.566,3.276,88.0
70.887,7.557,2.869,104.0
61.061,6.502,2.121,5.0
61.168,6.507,1.768,8.0
61.321,6.516,1.42,10.0
61.474,6.525,1.072,11.0
70.891,7.513,3.187,38.0
70.909,7.506,2.781,7.0
61.49,6.501,2.059,9.0
61.652,6.511,1.705,11.0
61.826,6.522,1.356,12.0
61.967,6.53,1.004,11.0
70.916,7.46,3.1,11.0
61.882,6.501,2.35,7.0
61.999,6.505,1.998,9.0
62.171,6.515,1.642,11.0
62.293,6.52,1.288,10.0
62.407,6.525,0.934,9.0
70.982,7.407,3.014,4.0
62.417,6.505,2.293,6.0
62.558,6.511,1.94,6.0
62.672,6.515,1.578,12.0
62.819,6.522,1.222,12.0
62.971,6.53,0.865,11.0
71.167,7.364,2.936,0.0
62.921,6.502,2.234,10.0
63.062,6.507,1.878,11.0
63.255,6.518,1.515,10.0
63.396,6.525,1.156,11.0
63.49,6.526,0.796,11.0
75.019,7.694,3.004,1.0
63.495,6.503,2.178,8.0
63.652,6.509,1.82,10.0
63.801,6.515,1.452,9.0
63.935,6.521,1.09,7.0
64.062,6.525,0.727,6.0
74.905,7.61,2.91,1.0
64.134,6.506,2.124,7.0
64.256,6.509,1.76,8.0
64.397,6.513,1.39,8.0
64.464,6.511,1.022,8.0
64.655,6.522,0.656,9.0
64.649,6.503,2.434,2.0
64.782,6.506,2.068,9.0
64.899,6.508,1.701,8.0
65.102,6.518,1.327,8.0
65.275,6.526,0.959,7.0
65.441,6.533,0.587,6.0
65.278,6.498,2.38,3.0
65.46,6.506,2.013,8.0
65.62,6.51,1.643,9.0
65.802,6.518,1.265,8.0
65.951,6.523,0.891,8.0
66.181,6.536,0.516,5.0
66.003,6.498,2.33,8.0
66.154,6.501,1.957,10.0
66.366,6.512,1.584,9.0
66.555,6.519,1.201,9.0
66.707,6.523,0.824,8.0
49.869,4.869,0.332,5.0
66.724,6.494,2.278,7.0
66.944,6.503,1.903,7.0
67.181,6.514,1.526,6.0
67.368,6.521,1.139,9.0
67.544,6.527,0.757,8.0
53.424,5.154,0.294,4.0
67.641,6.503,2.232,9.0
67.851,6.51,1.851,7.0
68.001,6.512,1.467,9.0
68.237,6.523,1.077,10.0
68.342,6.522,0.689,9.0
53.358,5.083,0.235,4.0
68.468,6.499,2.183,7.0
68.715,6.51,1.799,8.0
68.941,6.519,1.412,9.0
69.106,6.522,1.015,9.0
69.296,6.528,0.623,5.0
47.127,4.431,0.155,18.0
69.398,6.5,2.136,8.0
69.664,6.512,1.747,9.0
69.895,6.521,1.355,9.0
70.07,6.524,0.953,11.0
70.323,6.535,0.556,4.0
47.032,4.362,0.104,21.0
70.416,6.505,2.091,10.0
70.672,6.515,1.696,11.0
70.925,6.524,1.299,10.0
71.078,6.525,0.89,11.0
71.246,6.528,0.487,2.0
46.722,4.272,0.054,20.0
71.481,6.509,2.048,11.0
71.691,6.514,1.646,10.0
71.979,6.525,1.243,9.0
72.145,6.526,0.828,9.0
53.369,4.817,0.309,0.0
46.444,4.184,0.005,24.0
72.571,6.509,2.004,8.0
72.758,6.51,1.595,7.0
73.002,6.518,1.186,9.0
73.281,6.529,0.767,8.0
53.278,4.736,0.255,4.0
46.429,4.118,-0.041,5.0
73.607,6.499,1.957,9.0
73.843,6.504,1.545,12.0
74.146,6.515,1.13,8.0
74.424,6.524,0.704,6.0
47.904,4.19,0.181,4.0
40.109,3.5,-0.075,95.0
74.84,6.5,1.917,8.0
75.134,6.51,1.498,8.0
75.339,6.512,1.074,7.0
40.096,3.457,0.34,7.0
40.055,3.446,0.113,53.0
40.078,3.439,-0.114,41.0
40.109,3.425,0.988,113.0
40.105,3.415,0.761,98.0
40.103,3.407,0.533,111.0
40.103,3.398,0.302,111.0
40.101,3.389,0.074,150.0
40.058,3.378,-0.152,67.0
40.105,3.364,0.951,113.0
40.106,3.355,0.723,106.0
40.103,3.346,0.496,112.0
40.099,3.337,0.265,139.0
40.1,3.329,0.038,150.0
40.044,3.315,-0.188,51.0
40.099,3.302,0.914,150.0
40.098,3.293,0.687,150.0
40.103,3.285,0.46,108.0
40.096,3.275,0.228,128.0
40.037,3.261,0.001,34.0
39.853,3.237,-0.223,15.0
0.0,0.0,0.0,0.0
0.0,0.0,0.0,0.0
41.912,3.366,0.443,117.0
41.893,3.355,0.202,134.0
40.113,3.204,-0.033,85.0
39.887,3.177,-0.258,5.0
41.904,3.318,0.881,122.0
41.906,3.308,0.644,127.0
41.902,3.298,0.407,120.0
41.902,3.288,0.166,126.0
41.052,3.212,-0.068,39.0
36.88,2.876,-0.27,4.0
0.0,0.0,0.0,0.0
0.0,0.0,0.0,0.0
43.705,3.368,0.388,129.0
43.636,3.352,0.137,61.0
41.86,3.206,-0.104,46.0
35.835,2.736,-0.291,8.0
43.691,3.316,0.847,138.0
43.699,3.305,0.6,133.0
43.7,3.295,0.354,138.0
43.614,3.278,0.103,46.0
40.321,3.021,-0.132,42.0
34.784,2.598,-0.309,10.0
45.495,3.376,0.847,105.0
45.496,3.365,0.59,38.0
40.375,2.976,0.296,76.0
40.31,2.962,0.064,45.0
40.315,2.952,-0.162,42.0
0.0,0.0,0.0,0.0
40.826,2.96,0.729,119.0
40.977,2.96,0.501,125.0
41.124,2.96,0.271,87.0
40.609,2.913,0.035,4.0
40.3,2.881,-0.192,54.0
32.397,2.308,-0.336,6.0
41.965,2.969,0.719,110.0
41.961,2.958,0.482,150.0
42.164,2.961,0.248,101.0
40.343,2.823,0.006,9.0
40.26,2.807,-0.219,38.0
31.759,2.206,-0.352,6.0
41.332,2.851,0.68,3.0
41.633,2.861,0.45,5.0
42.036,2.877,0.218,3.0
40.334,2.75,-0.02,18.0
40.153,2.727,-0.246,22.0
31.433,2.127,-0.369,9.0
44.499,2.989,0.702,96.0
44.845,3.0,0.456,150.0
45.071,3.003,0.205,48.0
40.319,2.676,-0.046,34.0
0.0,0.0,0.0,0.0
30.871,2.032,-0.382,9.0
45.226,2.955,0.685,111.0
45.224,2.943,0.431,3.0
45.176,2.927,0.177,150.0
40.318,2.601,-0.071,40.0
36.676,2.356,-0.27,3.0
30.35,1.942,-0.394,8.0
99.748,6.334,1.452,8.0
112.194,7.092,1.005,7.0
45.171,2.843,0.151,46.0
40.321,2.526,-0.095,45.0
36.513,2.278,-0.29,11.0
30.032,1.865,-0.407,8.0
113.299,6.983,1.586,9.0
112.55,6.904,0.945,10.0
45.172,2.758,0.126,47.0
40.32,2.451,-0.116,48.0
35.669,2.158,-0.302,6.0
29.611,1.784,-0.417,8.0
45.219,2.701,0.609,150.0
45.219,2.688,0.356,92.0
45.167,2.673,0.103,46.0
40.316,2.374,-0.137,45.0
35.02,2.052,-0.315,10.0
29.249,1.705,-0.426,8.0
113.672,6.574,1.474,15.0
57.038,3.282,0.421,4.0
45.184,2.586,0.081,47.0
40.315,2.296,-0.156,45.0
35.147,1.992,-0.333,9.0
29.093,1.641,-0.438,8.0
119.998,6.709,1.501,12.0
63.15,3.512,0.437,6.0
45.172,2.499,0.061,43.0
40.318,2.218,-0.174,45.0
34.519,1.889,-0.342,8.0
28.81,1.568,-0.446,3.0
45.215,2.439,0.546,102.0
45.213,2.426,0.294,11.0
45.173,2.41,0.042,42.0
40.312,2.138,-0.191,41.0
34.011,1.794,-0.351,7.0
28.702,1.506,-0.456,4.0
99.763,5.185,1.166,24.0
62.647,3.237,0.383,6.0
45.172,2.321,0.024,39.0
40.303,2.059,-0.206,39.0
33.828,1.718,-0.361,6.0
28.422,1.434,-0.462,2.0
132.315,6.614,1.499,3.0
57.96,2.879,0.334,6.0
45.18,2.23,0.009,14.0
40.31,1.977,-0.22,8.0
23.652,1.153,-0.26,33.0
23.652,1.146,-0.392,34.0
23.623,1.133,0.26,39.0
23.618,1.125,0.128,41.0
23.606,1.117,-0.002,47.0
23.597,1.11,-0.136,62.0
23.605,1.103,-0.267,61.0
23.615,1.096,-0.398,68.0
23.598,1.084,0.252,76.0
23.602,1.077,0.122,72.0
23.589,1.069,-0.009,69.0
23.607,1.062,-0.142,62.0
23.606,1.055,-0.273,59.0
23.619,1.048,-0.404,45.0
23.618,1.036,0.247,47.0
23.615,1.029,0.116,47.0
23.629,1.022,-0.014,41.0
23.635,1.015,-0.148,34.0
23.642,1.008,-0.279,22.0
23.656,1.001,-0.41,2.0
100.588,4.21,1.031,8.0
62.016,2.576,0.292,12.0
40.334,1.663,-0.033,147.0
40.223,1.646,-0.259,15.0
40.448,1.642,-0.485,0.0
27.638,1.113,-0.484,7.0
40.391,1.608,0.407,150.0
40.428,1.596,0.183,150.0
40.335,1.579,-0.039,155.0
40.072,1.556,-0.265,4.0
32.296,1.244,-0.392,0.0
27.603,1.054,-0.488,7.0
43.582,1.644,0.433,150.0
43.921,1.642,0.193,150.0
43.044,1.595,-0.047,2.0
39.922,1.467,-0.269,8.0
40.228,1.466,-0.493,0.0
27.479,0.992,-0.488,3.0
71.138,2.535,0.699,19.0
63.952,2.259,0.275,5.0
40.129,1.404,-0.048,151.0
39.986,1.386,-0.272,18.0
40.186,1.38,-0.495,1.0
27.567,0.938,-0.492,2.0
40.132,1.348,0.392,108.0
40.133,1.334,0.17,152.0
40.123,1.32,-0.05,150.0
39.984,1.303,-0.274,14.0
40.185,1.296,-0.497,2.0
27.722,0.885,-0.496,3.0
40.127,1.262,0.391,113.0
40.13,1.249,0.17,132.0
40.127,1.236,-0.051,150.0
39.981,1.218,-0.274,13.0
40.13,1.209,-0.496,1.0
27.544,0.82,-0.492,2.0
0.0,0.0,0.0,0.0
0.0,0.0,0.0,0.0
40.133,1.151,-0.049,153.0
39.991,1.133,-0.273,15.0
40.17,1.126,-0.495,0.0
27.788,0.769,-0.495,1.0
0.0,0.0,0.0,0.0
0.0,0.0,0.0,0.0
0.0,0.0,0.0,0.0
39.907,1.047,-0.27,5.0
32.801,0.849,-0.402,1.0
28.357,0.725,-0.503,1.0
70.833,1.781,0.7,30.0
45.556,1.129,0.2,8.0
0.0,0.0,0.0,0.0
40.592,0.98,-0.27,2.0
33.891,0.806,-0.412,1.0
28.496,0.669,-0.502,0.0
70.904,1.634,0.709,4.0
79.282,1.8,0.358,8.0
52.331,1.17,-0.049,1.0
40.878,0.9,-0.266,1.0
33.049,0.717,-0.396,1.0
29.098,0.621,-0.508,1.0
162.552,3.403,1.653,18.0
86.82,1.788,0.407,2.0
55.152,1.117,-0.042,17.0
41.359,0.823,-0.262,1.0
34.373,0.673,-0.406,0.0
29.994,0.577,-0.518,1.0
55.176,1.038,0.572,64.0
55.158,1.02,0.27,70.0
55.145,1.0,-0.031,36.0
41.585,0.74,-0.255,2.0
34.334,0.599,-0.398,0.0
31.6,0.541,-0.539,0.0
55.205,0.922,0.585,3.0
113.722,1.86,0.584,3.0
55.064,0.881,-0.017,10.0
19.579,0.307,-0.115,0.0
19.675,0.301,-0.222,9.0
19.684,0.295,-0.33,9.0
19.758,0.288,0.214,13.0
19.789,0.281,0.107,1.0
0.0,0.0,0.0,0.0
19.649,0.265,-0.109,15.0
19.646,0.259,-0.216,16.0
19.668,0.253,-0.324,14.0
19.762,0.246,0.221,28.0
19.757,0.239,0.113,16.0
19.665,0.231,0.005,10.0
19.618,0.224,-0.102,16.0
19.64,0.217,-0.209,17.0
19.657,0.211,-0.317,15.0
19.694,0.203,0.227,10.0
19.676,0.196,0.12,11.0
19.642,0.189,0.013,14.0
19.628,0.182,-0.095,15.0
19.654,0.175,-0.202,14.0
19.698,0.169,-0.31,2.0
19.654,0.161,0.234,14.0
19.64,0.154,0.127,14.0
19.639,0.148,0.02,16.0
19.65,0.141,-0.087,10.0
19.668,0.134,-0.194,0.0
32.791,0.213,-0.502,0.0
19.64,0.12,0.242,12.0
19.655,0.113,0.136,13.0
19.657,0.106,0.029,9.0
19.755,0.1,-0.079,2.0
19.762,0.093,-0.186,14.0
19.78,0.086,-0.294,21.0
19.618,0.078,0.251,15.0
19.696,0.072,0.145,15.0
19.748,0.065,0.039,24.0
19.765,0.058,-0.069,23.0
19.759,0.052,-0.177,15.0
19.758,0.044,-0.283,13.0
19.616,0.037,0.261,15.0
19.747,0.031,0.156,8.0
19.785,0.024,0.049,3.0
19.752,0.017,-0.059,4.0
0.0,0.0,0.0,0.0
0.0,0.0,0.0,0.0
19.63,-0.002,0.271,13.0
19.688,-0.009,0.166,6.0
19.702,-0.016,0.059,14.0
19.705,-0.022,-0.048,14.0
19.74,-0.029,-0.155,14.0
19.759,-0.036,-0.262,12.0
19.642,-0.042,0.283,10.0
19.685,-0.049,0.177,16.0
19.705,-0.056,0.071,14.0
19.702,-0.063,-0.037,16.0
19.714,-0.07,-0.143,16.0
19.741,-0.077,-0.25,15.0
19.681,-0.083,0.295,10.0
19.722,-0.09,0.189,16.0
19.717,-0.097,0.083,10.0
19.728,-0.103,-0.025,11.0
19.719,-0.11,-0.131,16.0
19.731,-0.117,-0.237,17.0
19.562,-0.123,0.306,0.0
165.376,-1.095,1.697,10.0
0.0,0.0,0.0,0.0
19.774,-0.144,-0.011,1.0
19.743,-0.151,-0.118,11.0
19.752,-0.158,-0.224,13.0
176.551,-1.469,2.883,5.0
169.164,-1.467,1.853,11.0
160.869,-1.448,0.896,4.0
0.0,0.0,0.0,0.0
0.0,0.0,0.0,0.0
0.0,0.0,0.0,0.0
19.757,-0.204,0.336,8.0
19.77,-0.211,0.23,5.0
19.766,-0.218,0.124,0.0
0.0,0.0,0.0,0.0
0.0,0.0,0.0,0.0
0.0,0.0,0.0,0.0
19.756,-0.243,0.351,8.0
19.747,-0.25,0.245,16.0
19.747,-0.257,0.139,27.0
0.0,0.0,0.0,0.0
0.0,0.0,0.0,0.0
0.0,0.0,0.0,0.0
173.621,-2.49,3.224,5.0
19.798,-0.29,0.261,0.0
19.743,-0.296,0.154,10.0
0.0,0.0,0.0,0.0
0.0,0.0,0.0,0.0
0.0,0.0,0.0,0.0
0.0,0.0,0.0,0.0
0.0,0.0,0.0,0.0
127.782,-2.17,1.108,153.0
0.0,0.0,0.0,0.0
0.0,0.0,0.0,0.0
0.0,0.0,0.0,0.0
170.307,-3.111,3.446,10.0
0.0,0.0,0.0,0.0
127.758,-2.42,1.218,153.0
0.0,0.0,0.0,0.0
0.0,0.0,0.0,0.0
0.0,0.0,0.0,0.0
170.589,-3.45,3.603,4.0
0.0,0.0,0.0,0.0
127.788,-2.669,1.333,150.0
0.0,0.0,0.0,0.0
0.0,0.0,0.0,0.0
0.0,0.0,0.0,0.0
0.0,0.0,0.0,0.0
170.377,-3.83,2.845,5.0
127.979,-2.919,1.454,10.0
0.0,0.0,0.0,0.0
0.0,0.0,0.0,0.0
0.0,0.0,0.0,0.0
0.0,0.0,0.0,0.0
170.373,-4.153,3.008,7.0
161.961,-4.002,1.996,14.0
160.682,-4.023,1.108,8.0
0.0,0.0,0.0,0.0
0.0,0.0,0.0,0.0
0.0,0.0,0.0,0.0
170.422,-4.477,3.178,6.0
161.869,-4.304,2.156,24.0
160.714,-4.326,1.269,13.0
0.0,0.0,0.0,0.0
0.0,0.0,0.0,0.0
163.349,-4.544,4.082,4.0
167.782,-4.718,3.299,7.0
161.895,-4.604,2.321,20.0
162.114,-4.663,1.447,4.0
0.0,0.0,0.0,0.0
0.0,0.0,0.0,0.0
163.415,-4.844,4.253,6.0
0.0,0.0,0.0,0.0
162.214,-4.911,2.497,13.0
162.077,-4.957,1.618,6.0
0.0,0.0,0.0,0.0
0.0,0.0,0.0,0.0
163.339,-5.137,4.426,18.0
162.541,-5.163,3.541,4.0
162.233,-5.205,2.674,35.0
161.924,-5.246,1.793,24.0
160.712,-5.257,0.927,10.0
0.0,0.0,0.0,0.0
163.281,-5.428,4.604,15.0
163.27,-5.478,3.738,5.0
162.23,-5.491,2.853,21.0
161.958,-5.531,1.972,22.0
160.739,-5.54,1.106,16.0
0.0,0.0,0.0,0.0
139.993,-4.898,4.105,17.0
163.236,-5.76,3.92,5.0
162.204,-5.772,3.036,22.0
162.096,-5.819,2.159,23.0
160.747,-5.819,1.289,4.0
0.0,0.0,0.0,0.0
138.37,-5.08,4.216,13.0
141.738,-5.245,3.567,4.0
162.203,-6.052,3.224,17.0
162.039,-6.095,2.347,8.0
0.0,0.0,0.0,0.0
0.0,0.0,0.0,0.0
124.795,-4.795,3.95,11.0
142.181,-5.504,3.748,21.0
162.292,-6.33,3.419,14.0
0.0,0.0,0.0,0.0
0.0,0.0,0.0,0.0
0.0,0.0,0.0,0.0
118.287,-4.743,3.887,9.0
141.577,-5.718,3.904,18.0
162.684,-6.617,3.625,5.0
0.0,0.0,0.0,0.0
101.495,-4.186,1.179,1.0
101.478,-4.215,0.643,150.0
119.691,-4.995,4.08,7.0
118.81,-4.991,3.422,6.0
142.53,-6.028,3.351,13.0
0.0,0.0,0.0,0.0
101.501,-4.35,1.305,32.0
101.515,-4.38,0.769,6.0
117.32,-5.084,4.146,21.0
118.808,-5.182,3.572,25.0
142.525,-6.256,3.532,21.0
0.0,0.0,0.0,0.0
0.0,0.0,0.0,0.0
101.397,-4.535,0.897,1.0
117.562,-5.279,4.304,21.0
118.794,-5.367,3.722,8.0
142.327,-6.469,3.708,12.0
0.0,0.0,0.0,0.0
0.0,0.0,0.0,0.0
101.54,-4.699,1.031,152.0
117.261,-5.448,4.446,24.0
117.995,-5.514,3.852,9.0
150.353,-7.066,4.116,12.0
139.252,-6.581,3.064,5.0
0.0,0.0,0.0,0.0
101.548,-4.853,1.165,150.0
117.169,-5.622,4.598,20.0
117.925,-5.689,4.005,18.0
140.962,-6.837,4.046,20.0
0.0,0.0,0.0,0.0
0.0,0.0,0.0,0.0
0.0,0.0,0.0,0.0
117.438,-5.808,4.766,9.0
116.997,-5.816,4.131,19.0
125.545,-6.271,3.771,13.0
140.977,-7.078,3.478,11.0
0.0,0.0,0.0,0.0
0.0,0.0,0.0,0.0
108.344,-5.514,4.544,7.0
109.804,-5.616,4.027,26.0
117.326,-6.03,3.685,15.0
140.448,-7.252,3.659,26.0
0.0,0.0,0.0,0.0
0.0,0.0,0.0,0.0
108.27,-5.665,4.691,26.0
109.332,-5.746,4.162,24.0
117.133,-6.184,3.842,24.0
140.866,-7.472,3.867,24.0
140.697,-7.498,3.124,32.0
0.0,0.0,0.0,0.0
108.041,-5.803,4.835,32.0
108.839,-5.871,4.297,24.0
117.012,-6.34,4.005,16.0
137.536,-7.483,3.972,10.0
163.438,-8.931,3.86,7.0
140.654,-7.72,2.585,13.0
108.146,-5.956,4.995,25.0
107.716,-5.955,4.408,24.0
109.315,-6.069,3.899,12.0
117.156,-6.53,3.551,23.0
147.482,-8.255,3.697,16.0
140.764,-7.912,2.791,16.0
108.07,-6.092,5.146,27.0
107.702,-6.095,4.563,30.0
109.258,-6.208,4.055,23.0
117.298,-6.689,3.725,25.0
119.787,-6.858,3.177,11.0
149.565,-8.597,3.182,14.0
107.848,-6.216,5.292,25.0
107.509,-6.22,4.711,30.0
109.438,-6.354,4.22,19.0
117.106,-6.823,3.889,36.0
117.312,-6.861,3.281,27.0
149.19,-8.758,3.39,21.0
108.024,-6.359,5.458,25.0
107.46,-6.348,4.865,31.0
107.997,-6.402,4.323,18.0
109.784,-6.531,3.808,26.0
117.345,-7.004,3.455,22.0
149.121,-8.932,3.61,13.0
107.404,-6.451,5.587,24.0
107.318,-6.466,5.018,24.0
108.453,-6.556,4.502,28.0
109.235,-6.626,3.951,20.0
119.918,-7.297,3.71,7.0
117.269,-7.16,3.014,36.0
107.09,-6.557,5.732,32.0
107.267,-6.588,5.178,26.0
108.089,-6.658,4.65,29.0
109.039,-6.737,4.107,24.0
109.987,-6.815,3.566,17.0
117.375,-7.296,3.191,31.0
107.149,-6.679,5.895,20.0
107.549,-6.723,5.352,29.0
107.884,-6.764,4.803,33.0
108.66,-6.832,4.257,23.0
109.81,-6.925,3.727,22.0
117.134,-7.409,3.363,29.0
108.529,-6.882,6.137,20.0
107.296,-6.823,5.504,31.0
107.66,-6.865,4.957,23.0
109.056,-6.971,4.438,19.0
108.816,-6.976,3.858,28.0
124.775,-8.021,3.771,6.0
108.213,-6.974,6.284,24.0
107.181,-6.925,5.66,22.0
107.66,-6.974,5.121,23.0
108.065,-7.017,4.562,34.0
108.921,-7.091,4.027,21.0
108.984,-7.114,3.46,22.0
107.596,-7.042,6.413,17.0
106.819,-7.007,5.805,23.0
107.54,-7.07,5.28,22.0
108.021,-7.119,4.725,25.0
109.188,-7.213,4.205,19.0
109.352,-7.241,3.638,20.0
107.189,-7.117,6.552,24.0
107.087,-7.126,5.984,22.0
107.187,-7.147,5.426,21.0
107.998,-7.217,4.89,27.0
108.011,-7.235,4.325,27.0
108.665,-7.294,3.783,25.0
106.827,-7.19,6.696,22.0
107.093,-7.223,6.149,31.0
107.23,-7.246,5.594,29.0
107.651,-7.29,5.041,21.0
107.653,-7.306,4.477,23.0
108.321,-7.366,3.938,25.0
0.0,0.0,0.0,0.0
106.97,-7.307,6.31,29.0
107.209,-7.338,5.76,22.0
107.556,-7.375,5.205,34.0
