X,Y,Z,Reflectivity
11.16,0.787,-0.855,0.0
10.426,0.735,-0.859,0.0
10.024,0.707,-0.885,0.0
9.52,0.672,-0.896,0.0
9.022,0.637,-0.901,0.0
11.711,0.824,-0.846,0.0
10.974,0.772,-0.856,0.0
10.379,0.731,-0.87,0.0
9.898,0.697,-0.888,0.0
9.386,0.661,-0.897,0.0
8.811,0.621,-0.893,0.0
11.501,0.808,-0.848,0.0
10.806,0.759,-0.859,0.0
10.28,0.722,-0.876,0.0
9.769,0.687,-0.89,0.0
9.263,0.651,-0.898,0.0
8.754,0.616,-0.9,0.0
11.294,0.792,-0.848,0.0
10.629,0.745,-0.859,0.0
10.11,0.709,-0.876,0.0
9.617,0.674,-0.89,0.0
9.156,0.642,-0.9,0.0
8.643,0.606,-0.9,0.0
11.194,0.782,-0.856,0.0
10.519,0.735,-0.865,0.0
10.007,0.699,-0.881,0.0
9.524,0.666,-0.895,0.0
8.987,0.628,-0.896,0.0
8.51,0.595,-0.898,0.0
11.007,0.767,-0.857,0.0
10.35,0.721,-0.865,0.0
9.926,0.691,-0.887,0.0
9.418,0.656,-0.897,0.0
8.852,0.617,-0.895,0.0
8.424,0.587,-0.901,0.0
10.813,0.75,-0.856,0.0
10.233,0.71,-0.869,0.0
9.794,0.679,-0.888,0.0
9.295,0.645,-0.898,0.0
8.764,0.608,-0.898,0.0
8.361,0.58,-0.905,0.0
10.653,0.736,-0.857,0.0
10.152,0.701,-0.876,0.0
9.67,0.668,-0.89,0.0
9.211,0.636,-0.902,0.0
8.665,0.598,-0.899,0.0
8.263,0.57,-0.905,0.0
10.531,0.724,-0.861,0.0
10.059,0.691,-0.88,0.0
9.551,0.656,-0.891,0.0
9.056,0.622,-0.898,0.0
8.602,0.59,-0.903,0.0
8.171,0.561,-0.906,0.0
10.429,0.712,-0.866,0.0
9.94,0.679,-0.883,0.0
9.446,0.645,-0.893,0.0
8.888,0.607,-0.893,0.0
8.458,0.577,-0.899,0.0
8.098,0.552,-0.908,0.0
10.322,0.701,-0.87,0.0
9.846,0.668,-0.886,0.0
9.403,0.638,-0.901,0.0
8.823,0.598,-0.897,0.0
8.422,0.571,-0.905,0.0
8.01,0.543,-0.907,0.0
10.232,0.69,-0.874,0.0
9.754,0.657,-0.89,0.0
9.25,0.623,-0.897,0.0
8.723,0.587,-0.897,0.0
8.278,0.557,-0.9,0.0
7.988,0.537,-0.915,0.0
10.111,0.677,-0.876,0.0
9.666,0.647,-0.893,0.0
9.106,0.609,-0.894,0.0
8.666,0.579,-0.902,0.0
8.243,0.551,-0.905,0.0
7.922,0.529,-0.916,0.0
10.023,0.666,-0.88,0.0
9.549,0.634,-0.893,0.0
8.99,0.596,-0.893,0.0
8.535,0.566,-0.898,0.0
8.172,0.541,-0.907,0.0
7.855,0.52,-0.917,0.0
9.966,0.656,-0.886,0.0
9.457,0.622,-0.895,0.0
8.915,0.586,-0.895,0.0
8.479,0.557,-0.901,0.0
8.098,0.532,-0.908,0.0
7.802,0.512,-0.92,0.0
9.888,0.645,-0.89,0.0
9.38,0.611,-0.898,0.0
8.798,0.573,-0.893,0.0
8.381,0.545,-0.9,0.0
8.06,0.524,-0.912,0.0
7.769,0.505,-0.924,0.0
9.799,0.633,-0.892,0.0
9.297,0.6,-0.9,0.0
8.79,0.567,-0.901,0.0
8.343,0.538,-0.905,0.0
8.019,0.516,-0.916,0.0
7.711,0.496,-0.925,0.0
9.719,0.622,-0.895,0.0
9.239,0.59,-0.904,0.0
8.627,0.55,-0.893,0.0
8.282,0.528,-0.906,0.0
7.949,0.506,-0.916,0.0
7.677,0.488,-0.929,0.0
9.583,0.606,-0.892,0.0
9.163,0.579,-0.905,0.0
8.6,0.543,-0.899,0.0
8.209,0.517,-0.907,0.0
7.884,0.496,-0.916,0.0
7.617,0.479,-0.929,0.0
9.502,0.594,-0.893,0.0
9.027,0.564,-0.9,0.0
8.575,0.535,-0.905,0.0
8.126,0.506,-0.905,0.0
7.851,0.488,-0.92,0.0
7.553,0.469,-0.929,0.0
9.415,0.581,-0.894,0.0
8.948,0.552,-0.901,0.0
8.468,0.521,-0.901,0.0
8.076,0.497,-0.907,0.0
7.787,0.478,-0.919,0.0
7.531,0.462,-0.933,0.0
9.322,0.568,-0.893,0.0
8.854,0.539,-0.899,0.0
8.432,0.513,-0.905,0.0
8.047,0.489,-0.911,0.0
7.758,0.47,-0.923,0.0
7.487,0.453,-0.934,0.0
9.301,0.56,-0.899,0.0
8.781,0.527,-0.899,0.0
8.361,0.501,-0.904,0.0
8.017,0.48,-0.914,0.0
7.729,0.462,-0.926,0.0
7.426,0.444,-0.932,0.0
9.226,0.547,-0.899,0.0
8.769,0.519,-0.905,0.0
8.277,0.489,-0.901,0.0
7.947,0.469,-0.912,0.0
7.725,0.455,-0.931,0.0
7.405,0.436,-0.935,0.0
9.196,0.538,-0.903,0.0
8.64,0.504,-0.898,0.0
8.279,0.482,-0.908,0.0
7.969,0.463,-0.921,0.0
7.683,0.446,-0.932,0.0
7.388,0.428,-0.939,0.0
9.118,0.525,-0.902,0.0
8.607,0.494,-0.901,0.0
8.198,0.47,-0.905,0.0
7.872,0.451,-0.915,0.0
7.589,0.434,-0.926,0.0
7.328,0.418,-0.936,0.0
9.035,0.512,-0.9,0.0
8.559,0.484,-0.902,0.0
8.196,0.462,-0.91,0.0
7.857,0.443,-0.919,0.0
7.588,0.426,-0.931,0.0
7.274,0.408,-0.934,0.0
8.967,0.5,-0.899,0.0
8.522,0.474,-0.903,0.0
8.159,0.453,-0.911,0.0
7.807,0.432,-0.918,0.0
7.557,0.417,-0.932,0.0
7.243,0.399,-0.935,0.0
8.943,0.489,-0.902,0.0
8.527,0.466,-0.909,0.0
8.124,0.443,-0.912,0.0
7.766,0.422,-0.918,0.0
7.511,0.408,-0.931,0.0
7.245,0.392,-0.939,0.0
8.878,0.477,-0.901,0.0
8.453,0.453,-0.906,0.0
8.058,0.431,-0.909,0.0
7.777,0.415,-0.923,0.0
7.498,0.399,-0.933,0.0
7.242,0.385,-0.943,0.0
8.854,0.467,-0.903,0.0
8.437,0.444,-0.908,0.0
8.046,0.422,-0.912,0.0
7.762,0.406,-0.925,0.0
7.473,0.39,-0.934,0.0
7.241,0.377,-0.946,0.0
8.801,0.455,-0.902,0.0
8.379,0.432,-0.906,0.0
8.028,0.413,-0.914,0.0
7.745,0.398,-0.927,0.0
7.467,0.382,-0.936,0.0
7.216,0.369,-0.946,0.0
8.781,0.445,-0.903,0.0
8.423,0.426,-0.915,0.0
8.019,0.404,-0.916,0.0
7.719,0.388,-0.927,0.0
7.441,0.373,-0.936,0.0
7.221,0.361,-0.95,0.0
8.72,0.433,-0.901,0.0
8.35,0.413,-0.91,0.0
8.002,0.395,-0.918,0.0
7.725,0.38,-0.931,0.0
7.414,0.364,-0.936,0.0
7.189,0.352,-0.949,0.0
8.72,0.423,-0.904,0.0
8.335,0.403,-0.911,0.0
7.989,0.385,-0.919,0.0
7.661,0.369,-0.926,0.0
7.402,0.355,-0.937,0.0
7.174,0.343,-0.949,0.0
8.702,0.413,-0.905,0.0
8.309,0.393,-0.911,0.0
7.983,0.376,-0.921,0.0
7.682,0.361,-0.93,0.0
7.38,0.346,-0.936,0.0
7.162,0.334,-0.949,0.0
8.682,0.402,-0.905,0.0
8.278,0.382,-0.91,0.0
7.948,0.366,-0.919,0.0
7.649,0.351,-0.928,0.0
7.392,0.338,-0.939,0.0
7.133,0.325,-0.947,0.0
8.67,0.392,-0.906,0.0
8.281,0.373,-0.912,0.0
7.963,0.358,-0.922,0.0
7.664,0.343,-0.932,0.0
7.363,0.328,-0.937,0.0
7.136,0.317,-0.949,0.0
8.638,0.381,-0.904,0.0
8.27,0.363,-0.912,0.0
7.937,0.347,-0.92,0.0
7.648,0.333,-0.931,0.0
7.367,0.32,-0.939,0.0
7.12,0.308,-0.948,0.0
8.637,0.371,-0.905,0.0
8.267,0.354,-0.913,0.0
7.965,0.339,-0.924,0.0
7.618,0.323,-0.928,0.0
7.364,0.311,-0.939,0.0
7.108,0.299,-0.947,0.0
8.676,0.362,-0.91,0.0
8.255,0.343,-0.912,0.0
7.93,0.329,-0.921,0.0
7.648,0.316,-0.932,0.0
7.368,0.303,-0.94,0.0
7.11,0.291,-0.948,0.0
8.68,0.353,-0.91,0.0
8.25,0.334,-0.912,0.0
7.967,0.321,-0.926,0.0
7.647,0.307,-0.932,0.0
7.366,0.294,-0.94,0.0
7.097,0.282,-0.946,0.0
8.692,0.343,-0.912,0.0
8.279,0.325,-0.915,0.0
7.957,0.311,-0.924,0.0
7.639,0.297,-0.931,0.0
7.359,0.285,-0.939,0.0
7.094,0.274,-0.945,0.0
8.689,0.332,-0.911,0.0
8.327,0.317,-0.92,0.0
7.97,0.302,-0.925,0.0
7.613,0.287,-0.928,0.0
7.376,0.277,-0.94,0.0
7.104,0.265,-0.946,0.0
8.679,0.322,-0.909,0.0
8.337,0.307,-0.92,0.0
7.952,0.292,-0.922,0.0
7.657,0.28,-0.932,0.0
7.397,0.269,-0.942,0.0
7.108,0.257,-0.946,0.0
8.698,0.312,-0.91,0.0
8.323,0.297,-0.917,0.0
7.996,0.284,-0.926,0.0
7.652,0.27,-0.93,0.0
7.426,0.261,-0.945,0.0
7.128,0.249,-0.947,0.0
8.721,0.302,-0.911,0.0
8.352,0.288,-0.919,0.0
8.0,0.275,-0.925,0.0
7.728,0.264,-0.938,0.0
7.429,0.252,-0.943,0.0
7.132,0.241,-0.946,0.0
8.731,0.292,-0.91,0.0
8.361,0.278,-0.918,0.0
8.04,0.266,-0.928,0.0
7.7,0.253,-0.933,0.0
7.437,0.243,-0.942,0.0
7.167,0.233,-0.949,0.0
8.742,0.282,-0.909,0.0
8.431,0.27,-0.923,0.0
8.067,0.257,-0.929,0.0
7.74,0.245,-0.935,0.0
7.435,0.234,-0.94,0.0
7.179,0.225,-0.948,0.0
8.8,0.273,-0.912,0.0
8.422,0.26,-0.92,0.0
8.083,0.248,-0.928,0.0
7.723,0.235,-0.93,0.0
7.466,0.226,-0.941,0.0
7.218,0.217,-0.95,0.0
8.824,0.263,-0.911,0.0
8.429,0.25,-0.917,0.0
8.092,0.238,-0.926,0.0
7.756,0.227,-0.931,0.0
7.477,0.217,-0.94,0.0
7.223,0.209,-0.948,0.0
8.854,0.254,-0.911,0.0
8.497,0.242,-0.921,0.0
8.127,0.23,-0.926,0.0
7.79,0.219,-0.932,0.0
7.493,0.209,-0.938,0.0
7.236,0.2,-0.947,0.0
8.884,0.244,-0.91,0.0
8.524,0.232,-0.92,0.0
8.203,0.222,-0.931,0.0
7.858,0.211,-0.936,0.0
7.534,0.201,-0.94,0.0
7.26,0.192,-0.946,0.0
8.917,0.234,-0.909,0.0
8.544,0.223,-0.918,0.0
8.215,0.212,-0.928,0.0
7.859,0.202,-0.932,0.0
7.547,0.192,-0.937,0.0
7.273,0.184,-0.944,0.0
9.01,0.226,-0.913,0.0
8.612,0.214,-0.92,0.0
8.26,0.204,-0.928,0.0
7.919,0.194,-0.935,0.0
7.591,0.184,-0.938,0.0
7.307,0.176,-0.944,0.0
9.092,0.217,-0.916,0.0
8.655,0.205,-0.92,0.0
8.302,0.195,-0.928,0.0
0.0,0.0,0.0,0.0
7.637,0.176,-0.939,0.0
7.375,0.169,-0.948,0.0
9.091,0.206,-0.91,0.0
8.682,0.195,-0.917,0.0
8.365,0.186,-0.93,0.0
7.983,0.176,-0.932,0.0
7.701,0.169,-0.942,0.0
7.373,0.16,-0.943,0.0
9.13,0.196,-0.908,0.0
8.736,0.186,-0.917,0.0
8.379,0.177,-0.925,0.0
8.022,0.168,-0.931,0.0
7.711,0.16,-0.938,0.0
7.414,0.152,-0.943,0.0
9.219,0.188,-0.91,0.0
8.816,0.178,-0.919,0.0
8.463,0.169,-0.928,0.0
8.076,0.159,-0.931,0.0
7.783,0.152,-0.941,0.0
7.456,0.144,-0.942,0.0
9.246,0.177,-0.906,0.0
8.881,0.169,-0.919,0.0
8.479,0.159,-0.923,0.0
8.123,0.151,-0.93,0.0
7.806,0.143,-0.937,0.0
7.517,0.137,-0.944,0.0
9.353,0.169,-0.908,0.0
8.9,0.159,-0.913,0.0
8.51,0.15,-0.92,0.0
8.207,0.143,-0.933,0.0
7.807,0.134,-0.93,0.0
7.591,0.129,-0.947,0.0
9.449,0.16,-0.91,0.0
8.964,0.15,-0.912,0.0
8.627,0.142,-0.925,0.0
8.233,0.134,-0.929,0.0
7.893,0.127,-0.934,0.0
7.622,0.121,-0.944,0.0
9.489,0.15,-0.905,0.0
9.044,0.141,-0.912,0.0
8.696,0.134,-0.924,0.0
8.295,0.126,-0.928,0.0
7.989,0.119,-0.937,0.0
7.681,0.113,-0.944,0.0
9.545,0.14,-0.902,0.0
9.135,0.132,-0.912,0.0
8.74,0.125,-0.921,0.0
8.328,0.117,-0.924,0.0
8.045,0.111,-0.936,0.0
7.731,0.106,-0.942,0.0
9.68,0.131,-0.905,0.0
9.2,0.123,-0.91,0.0
8.768,0.115,-0.915,0.0
8.478,0.11,-0.932,0.0
8.116,0.103,-0.936,0.0
7.777,0.098,-0.94,0.0
9.825,0.122,-0.908,0.0
9.324,0.114,-0.912,0.0
8.947,0.108,-0.924,0.0
8.514,0.101,-0.927,0.0
8.18,0.095,-0.935,0.0
7.805,0.09,-0.935,0.0
9.859,0.112,-0.901,1.0
9.37,0.105,-0.907,0.0
8.989,0.099,-0.919,0.0
8.587,0.093,-0.925,0.0
8.229,0.087,-0.931,0.0
7.897,0.082,-0.937,0.0
9.954,0.103,-0.898,0.0
9.471,0.096,-0.906,0.0
9.045,0.09,-0.914,0.0
8.677,0.085,-0.925,0.0
8.302,0.079,-0.93,0.0
7.989,0.075,-0.939,0.0
10.125,0.094,-0.902,0.0
9.637,0.088,-0.911,0.0
9.147,0.082,-0.914,0.0
8.759,0.077,-0.924,0.0
8.388,0.072,-0.93,0.0
8.052,0.067,-0.936,0.0
10.271,0.085,-0.903,0.0
9.712,0.079,-0.906,0.0
9.237,0.073,-0.912,0.0
8.818,0.068,-0.919,0.0
8.498,0.064,-0.932,0.0
8.141,0.06,-0.937,0.0
10.411,0.076,-0.903,0.0
9.83,0.07,-0.905,0.0
9.372,0.065,-0.913,0.0
8.976,0.06,-0.924,0.0
8.571,0.056,-0.929,0.0
8.211,0.052,-0.934,0.0
10.544,0.067,-0.901,0.0
10.002,0.062,-0.908,0.0
9.456,0.056,-0.91,0.0
9.024,0.052,-0.918,0.0
8.67,0.049,-0.928,0.0
8.275,0.045,-0.931,0.0
10.674,0.058,-0.898,0.0
10.123,0.053,-0.906,0.0
9.578,0.048,-0.909,0.0
9.116,0.044,-0.915,0.0
8.734,0.041,-0.924,0.0
8.377,0.038,-0.931,0.0
10.828,0.048,-0.897,0.0
10.25,0.044,-0.904,0.0
9.694,0.04,-0.907,0.0
9.275,0.036,-0.918,0.0
8.834,0.033,-0.922,0.0
8.504,0.03,-0.934,0.0
10.994,0.039,-0.896,0.0
10.412,0.035,-0.904,0.0
9.901,0.032,-0.912,0.0
9.371,0.028,-0.915,0.0
8.935,0.026,-0.92,0.0
8.585,0.023,-0.93,0.0
11.171,0.03,-0.894,0.0
10.568,0.026,-0.902,0.0
10.036,0.023,-0.911,0.0
9.496,0.021,-0.913,0.0
9.039,0.018,-0.918,0.0
8.692,0.016,-0.929,0.0
11.343,0.021,-0.892,0.0
10.735,0.018,-0.901,0.0
10.177,0.015,-0.909,0.0
9.639,0.013,-0.913,0.0
9.168,0.01,-0.917,0.0
8.781,0.009,-0.926,0.0
11.538,0.012,-0.89,0.0
10.877,0.009,-0.897,0.0
10.333,0.007,-0.907,0.0
9.811,0.005,-0.915,0.0
9.333,0.003,-0.92,0.0
8.88,0.001,-0.923,0.0
11.699,0.002,-0.885,0.0
11.057,0.0,-0.895,0.0
10.511,0.0,-0.907,0.0
9.953,-0.002,-0.913,0.0
9.446,-0.003,-0.917,0.0
8.999,-0.004,-0.921,0.0
11.916,-0.006,-0.883,0.0
11.254,-0.007,-0.894,0.0
10.67,-0.009,-0.904,0.0
10.101,-0.01,-0.91,0.0
9.561,-0.011,-0.913,0.0
9.092,-0.011,-0.916,0.0
12.099,-0.015,-0.878,0.0
11.466,-0.016,-0.892,0.0
10.841,-0.017,-0.901,0.0
10.252,-0.017,-0.908,0.0
9.791,-0.018,-0.919,0.0
9.239,-0.018,-0.916,0.0
12.362,-0.024,-0.877,0.0
11.657,-0.025,-0.889,0.0
11.032,-0.025,-0.899,0.0
10.445,-0.025,-0.908,0.0
9.915,-0.025,-0.914,0.0
9.379,-0.025,-0.914,0.0
12.583,-0.034,-0.872,0.0
11.874,-0.033,-0.885,0.0
11.214,-0.033,-0.895,0.0
10.617,-0.033,-0.905,0.0
10.073,-0.033,-0.912,0.0
9.551,-0.032,-0.915,0.0
12.844,-0.043,-0.869,0.0
12.019,-0.042,-0.876,0.0
11.446,-0.041,-0.895,0.0
10.796,-0.04,-0.902,0.0
10.248,-0.04,-0.91,0.0
9.751,-0.039,-0.918,0.0
13.147,-0.052,-0.867,0.0
12.365,-0.051,-0.88,0.0
11.636,-0.049,-0.89,0.0
11.009,-0.048,-0.901,0.0
10.419,-0.047,-0.908,0.0
9.921,-0.046,-0.917,0.0
13.361,-0.061,-0.858,0.0
12.558,-0.059,-0.873,0.0
11.849,-0.057,-0.886,0.0
11.192,-0.055,-0.896,0.0
10.629,-0.054,-0.907,0.0
10.095,-0.052,-0.915,0.0
13.594,-0.07,-0.849,0.0
12.857,-0.068,-0.871,0.0
12.118,-0.065,-0.884,0.0
11.45,-0.063,-0.897,0.0
10.818,-0.061,-0.904,0.0
10.244,-0.059,-0.91,0.0
13.975,-0.079,-0.848,0.0
13.131,-0.076,-0.866,0.0
12.378,-0.073,-0.881,0.0
11.659,-0.07,-0.892,0.0
11.028,-0.068,-0.902,0.0
10.444,-0.065,-0.909,0.0
14.387,-0.089,-0.848,0.0
13.411,-0.084,-0.86,0.0
12.577,-0.081,-0.872,0.0
11.853,-0.077,-0.885,0.0
11.246,-0.074,-0.899,0.0
10.654,-0.072,-0.908,0.0
14.788,-0.099,-0.845,0.0
13.701,-0.093,-0.854,0.0
12.906,-0.089,-0.872,0.0
12.118,-0.084,-0.883,0.0
11.502,-0.081,-0.899,0.0
10.859,-0.078,-0.905,0.0
15.158,-0.108,-0.837,0.0
14.104,-0.102,-0.853,0.0
13.191,-0.096,-0.867,0.0
12.387,-0.092,-0.88,0.0
11.698,-0.088,-0.892,0.0
11.066,-0.084,-0.902,0.0
15.549,-0.117,-0.83,0.0
14.514,-0.11,-0.85,0.0
13.467,-0.104,-0.859,0.0
12.673,-0.099,-0.876,0.0
11.922,-0.094,-0.887,0.0
11.286,-0.09,-0.898,0.0
16.073,-0.127,-0.828,0.0
14.887,-0.118,-0.844,0.0
13.783,-0.111,-0.854,0.0
12.973,-0.105,-0.872,0.0
12.239,-0.1,-0.887,0.0
11.557,-0.096,-0.898,0.0
16.548,-0.136,-0.821,0.0
15.277,-0.127,-0.838,0.0
14.194,-0.119,-0.852,0.0
13.277,-0.112,-0.868,0.0
12.48,-0.106,-0.88,0.0
11.786,-0.101,-0.893,0.0
17.179,-0.146,-0.819,0.0
15.653,-0.134,-0.828,0.0
14.625,-0.127,-0.849,0.0
13.574,-0.118,-0.861,0.0
12.743,-0.112,-0.874,0.0
12.032,-0.107,-0.888,0.0
17.802,-0.156,-0.815,0.0
16.223,-0.143,-0.827,0.0
15.039,-0.134,-0.844,0.0
13.887,-0.125,-0.853,0.0
13.093,-0.118,-0.873,0.0
12.331,-0.112,-0.886,0.0
18.429,-0.166,-0.807,0.0
16.814,-0.152,-0.824,0.0
15.371,-0.14,-0.833,0.0
14.291,-0.131,-0.85,0.0
13.415,-0.124,-0.867,0.0
12.61,-0.117,-0.881,0.0
19.007,-0.175,-0.795,1.0
17.42,-0.161,-0.819,0.0
15.885,-0.148,-0.829,0.0
14.752,-0.138,-0.848,0.0
13.69,-0.129,-0.858,0.0
12.937,-0.122,-0.878,0.0
19.627,-0.184,-0.782,3.0
17.982,-0.169,-0.81,0.0
16.338,-0.154,-0.82,0.0
15.128,-0.143,-0.839,0.0
14.111,-0.134,-0.856,0.0
13.234,-0.126,-0.872,0.0
19.755,-0.187,-0.748,8.0
18.684,-0.178,-0.804,0.0
17.128,-0.163,-0.825,0.0
15.615,-0.15,-0.835,0.0
14.589,-0.14,-0.856,0.0
13.525,-0.13,-0.863,0.0
19.797,-0.189,-0.709,3.0
19.386,-0.186,-0.795,1.0
17.7,-0.17,-0.817,0.0
16.097,-0.155,-0.828,0.0
15.009,-0.145,-0.85,0.0
13.878,-0.134,-0.858,0.0
22.017,-0.211,-0.745,0.0
19.69,-0.189,-0.767,4.0
18.346,-0.177,-0.81,0.0
16.74,-0.162,-0.827,0.0
15.406,-0.149,-0.841,0.0
14.256,-0.138,-0.852,0.0
22.747,-0.218,-0.723,0.0
19.776,-0.19,-0.731,8.0
18.961,-0.183,-0.799,0.0
17.334,-0.167,-0.821,0.0
15.796,-0.153,-0.83,0.0
14.772,-0.143,-0.853,0.0
23.84,-0.228,-0.709,0.0
19.802,-0.19,-0.691,0.0
19.61,-0.188,-0.786,2.0
17.931,-0.172,-0.813,0.0
16.475,-0.158,-0.832,0.0
15.172,-0.146,-0.845,0.0
25.088,-0.238,-0.695,0.0
22.424,-0.213,-0.737,1.0
19.751,-0.188,-0.751,8.0
18.63,-0.177,-0.806,0.0
17.104,-0.162,-0.829,0.0
15.586,-0.148,-0.836,0.0
19.767,-0.186,-0.507,2.0
23.311,-0.219,-0.718,0.0
19.8,-0.186,-0.712,3.0
19.4,-0.182,-0.8,1.0
17.64,-0.165,-0.818,0.0
16.121,-0.151,-0.831,0.0
19.755,-0.183,-0.466,7.0
19.775,-0.183,-0.569,1.0
22.072,-0.203,-0.749,0.0
19.702,-0.181,-0.772,4.0
18.369,-0.169,-0.814,0.0
16.822,-0.154,-0.832,0.0
19.76,-0.179,-0.425,10.0
19.768,-0.179,-0.527,6.0
19.791,-0.178,-0.629,2.0
19.746,-0.178,-0.732,9.0
19.005,-0.17,-0.802,1.0
17.307,-0.155,-0.82,0.0
19.758,-0.174,-0.384,14.0
19.745,-0.174,-0.485,10.0
19.766,-0.173,-0.587,6.0
19.774,-0.173,-0.691,3.0
19.627,-0.171,-0.788,3.0
18.083,-0.157,-0.819,0.0
19.759,-0.169,-0.342,14.0
19.749,-0.169,-0.444,12.0
19.751,-0.168,-0.546,10.0
19.761,-0.167,-0.649,7.0
19.74,-0.166,-0.75,10.0
18.771,-0.157,-0.811,1.0
19.751,-0.163,-0.301,13.0
19.737,-0.162,-0.402,14.0
19.744,-0.162,-0.504,14.0
19.739,-0.161,-0.608,11.0
19.754,-0.16,-0.71,9.0
19.456,-0.157,-0.8,2.0
19.756,-0.157,-0.26,15.0
19.742,-0.156,-0.361,15.0
19.73,-0.154,-0.463,17.0
19.733,-0.153,-0.567,16.0
19.756,-0.153,-0.669,15.0
19.712,-0.151,-0.769,7.0
19.746,-0.149,-0.219,16.0
19.738,-0.148,-0.32,16.0
19.732,-0.147,-0.422,17.0
19.724,-0.145,-0.525,18.0
19.738,-0.144,-0.627,16.0
19.738,-0.143,-0.729,15.0
19.742,-0.141,-0.178,16.0
19.729,-0.14,-0.279,16.0
19.734,-0.138,-0.381,17.0
19.716,-0.137,-0.484,17.0
19.744,-0.136,-0.587,16.0
19.748,-0.134,-0.688,17.0
19.728,-0.132,-0.137,17.0
19.732,-0.13,-0.238,17.0
19.738,-0.129,-0.34,17.0
19.715,-0.127,-0.443,17.0
19.727,-0.126,-0.545,16.0
19.744,-0.125,-0.647,16.0
19.733,-0.122,-0.096,15.0
19.725,-0.121,-0.197,16.0
19.733,-0.119,-0.299,15.0
19.727,-0.117,-0.403,17.0
19.723,-0.116,-0.504,16.0
19.746,-0.114,-0.607,16.0
19.746,-0.112,-0.055,9.0
19.717,-0.11,-0.157,16.0
19.732,-0.109,-0.259,16.0
19.731,-0.107,-0.362,15.0
19.729,-0.105,-0.464,16.0
19.747,-0.103,-0.566,16.0
19.725,-0.101,-0.015,13.0
19.716,-0.099,-0.116,16.0
19.72,-0.097,-0.217,16.0
19.74,-0.095,-0.321,14.0
19.739,-0.093,-0.423,16.0
19.748,-0.091,-0.525,15.0
19.716,-0.089,0.025,13.0
19.717,-0.087,-0.075,10.0
19.726,-0.085,-0.177,16.0
19.732,-0.083,-0.28,15.0
19.748,-0.081,-0.383,13.0
19.747,-0.079,-0.484,12.0
19.719,-0.076,0.066,14.0
19.709,-0.074,-0.035,16.0
19.716,-0.072,-0.137,16.0
19.728,-0.07,-0.241,15.0
19.758,-0.068,-0.343,13.0
19.768,-0.066,-0.445,6.0
19.716,-0.063,0.105,16.0
19.704,-0.061,0.004,16.0
19.714,-0.058,-0.097,12.0
19.722,-0.056,-0.201,15.0
19.749,-0.054,-0.303,13.0
19.793,-0.052,-0.406,1.0
19.703,-0.049,0.145,17.0
19.704,-0.046,0.044,16.0
19.709,-0.044,-0.057,16.0
19.723,-0.042,-0.161,14.0
19.753,-0.039,-0.263,9.0
31.715,-0.059,-0.587,0.0
19.658,-0.034,0.184,13.0
19.694,-0.032,0.083,16.0
19.702,-0.029,-0.018,15.0
19.731,-0.027,-0.121,12.0
19.771,-0.024,-0.224,3.0
33.495,-0.037,-0.552,0.0
19.646,-0.019,0.224,15.0
19.691,-0.016,0.123,6.0
19.707,-0.013,0.021,13.0
19.74,-0.011,-0.082,6.0
19.747,-0.008,-0.184,1.0
36.354,-0.01,-0.527,0.0
19.631,-0.002,0.263,14.0
19.722,0.0,0.162,6.0
19.763,0.002,0.06,4.0
19.745,0.005,-0.043,9.0
19.737,0.008,-0.145,0.0
19.761,0.011,-0.247,0.0
19.623,0.013,0.302,15.0
19.634,0.016,0.2,15.0
19.755,0.019,0.099,5.0
19.752,0.022,-0.004,22.0
19.776,0.025,-0.106,2.0
19.759,0.028,-0.209,6.0
19.618,0.031,0.34,18.0
19.629,0.034,0.238,15.0
19.746,0.037,0.138,13.0
19.736,0.04,0.033,15.0
19.734,0.043,-0.068,47.0
19.753,0.046,-0.17,16.0
19.62,0.049,0.378,13.0
19.618,0.052,0.276,12.0
19.648,0.055,0.175,10.0
19.767,0.058,0.072,21.0
19.76,0.062,-0.03,53.0
19.755,0.065,-0.133,53.0
19.628,0.067,0.416,26.0
19.607,0.071,0.314,14.0
19.62,0.074,0.212,15.0
19.68,0.077,0.109,15.0
19.749,0.081,0.007,27.0
19.76,0.084,-0.095,13.0
19.619,0.087,0.453,28.0
19.613,0.09,0.351,18.0
19.613,0.094,0.25,16.0
19.655,0.097,0.146,12.0
19.663,0.101,0.044,12.0
19.691,0.104,-0.057,7.0
19.607,0.107,0.49,19.0
19.622,0.111,0.389,22.0
19.604,0.114,0.287,12.0
19.651,0.117,0.183,16.0
19.634,0.121,0.081,13.0
19.643,0.125,-0.02,14.0
19.602,0.128,0.527,19.0
19.601,0.131,0.425,13.0
19.604,0.135,0.323,10.0
19.637,0.138,0.219,15.0
19.646,0.142,0.117,14.0
19.643,0.146,0.015,18.0
19.599,0.149,0.563,13.0
19.612,0.152,0.461,11.0
19.617,0.156,0.359,10.0
19.63,0.16,0.255,10.0
19.661,0.164,0.153,13.0
19.643,0.167,0.051,13.0
19.616,0.171,0.599,10.0
19.615,0.174,0.497,10.0
19.642,0.178,0.395,10.0
19.667,0.182,0.291,9.0
19.668,0.186,0.189,13.0
19.673,0.19,0.086,12.0
19.673,0.194,0.637,10.0
19.696,0.198,0.534,10.0
19.707,0.202,0.432,9.0
19.72,0.206,0.327,10.0
19.744,0.21,0.225,14.0
19.75,0.214,0.122,17.0
19.656,0.216,0.671,13.0
19.667,0.221,0.569,10.0
19.685,0.225,0.466,10.0
19.709,0.229,0.362,10.0
19.727,0.233,0.259,12.0
19.763,0.238,0.156,29.0
19.643,0.24,0.705,13.0
19.651,0.244,0.602,14.0
19.656,0.248,0.5,13.0
19.674,0.253,0.395,10.0
19.7,0.257,0.293,11.0
19.758,0.262,0.19,26.0
19.655,0.264,0.739,8.0
19.643,0.268,0.636,15.0
19.654,0.273,0.533,14.0
19.684,0.277,0.429,9.0
19.702,0.282,0.326,13.0
19.745,0.286,0.224,7.0
185.551,2.734,7.302,5.0
19.651,0.293,0.67,10.0
19.66,0.297,0.567,12.0
19.695,0.302,0.463,9.0
19.717,0.307,0.36,6.0
163.482,2.583,2.129,15.0
121.418,1.944,4.981,22.0
19.683,0.319,0.703,1.0
19.683,0.323,0.6,2.0
55.206,0.92,1.389,22.0
55.183,0.932,1.099,49.0
55.172,0.944,0.809,56.0
55.179,0.955,2.354,71.0
55.175,0.967,2.064,71.0
55.171,0.98,1.773,74.0
55.159,0.992,1.477,75.0
55.165,1.004,1.188,65.0
55.177,1.017,0.898,55.0
55.212,1.03,2.445,31.0
55.198,1.042,2.154,13.0
135.247,2.586,4.567,13.0
163.283,3.159,4.638,12.0
185.403,3.629,4.291,12.0
179.333,3.55,3.205,24.0
121.548,2.434,5.578,25.0
121.312,2.457,4.927,22.0
135.14,2.768,4.775,11.0
135.17,2.799,4.05,20.0
163.293,3.42,4.033,3.0
179.317,3.796,3.482,35.0
121.651,2.603,5.77,16.0
121.455,2.627,5.12,12.0
121.157,2.649,4.467,21.0
135.223,2.988,4.258,10.0
138.77,3.098,3.636,77.0
179.166,4.041,3.749,28.0
129.669,2.955,6.347,12.0
128.923,2.969,5.628,7.0
121.236,2.821,4.652,19.0
0.0,0.0,0.0,0.0
98.795,2.346,2.738,26.0
99.006,2.374,2.22,48.0
121.088,2.934,6.109,18.0
128.92,3.154,5.821,15.0
113.583,2.806,4.528,19.0
113.89,2.841,3.926,8.0
115.429,2.907,3.367,12.0
45.482,1.156,1.086,2.0
0.0,0.0,0.0,0.0
0.0,0.0,0.0,0.0
43.698,1.143,1.805,54.0
43.711,1.154,1.569,140.0
0.0,0.0,0.0,0.0
0.0,0.0,0.0,0.0
41.931,1.139,2.237,113.0
41.918,1.149,2.014,108.0
0.0,0.0,0.0,0.0
0.0,0.0,0.0,0.0
40.101,1.128,1.284,41.0
40.131,1.139,1.072,112.0
40.115,1.149,2.197,140.0
40.127,1.16,1.984,119.0
40.127,1.17,1.77,111.0
40.103,1.179,1.552,150.0
40.112,1.189,1.339,150.0
40.114,1.199,1.126,150.0
40.119,1.211,2.252,126.0
40.123,1.221,2.038,118.0
40.117,1.231,1.824,98.0
40.117,1.24,1.606,119.0
40.113,1.25,1.393,141.0
40.112,1.26,1.179,150.0
40.126,1.272,2.306,113.0
40.12,1.282,2.091,105.0
40.116,1.292,1.876,119.0
40.127,1.302,1.659,107.0
40.115,1.312,1.445,129.0
40.102,1.321,1.23,43.0
0.0,0.0,0.0,0.0
128.11,4.292,6.842,11.0
120.923,4.082,5.812,16.0
120.016,4.082,5.115,18.0
120.183,4.117,4.48,15.0
120.935,4.173,3.863,19.0
41.995,1.461,2.519,8.0
135.282,4.743,7.393,23.0
121.043,4.273,5.965,19.0
120.059,4.268,5.262,18.0
120.374,4.309,4.632,17.0
120.708,4.352,3.999,12.0
45.564,1.657,2.789,14.0
135.15,4.949,7.547,13.0
121.024,4.463,6.11,25.0
120.066,4.457,5.405,13.0
120.27,4.495,4.77,10.0
0.0,0.0,0.0,0.0
45.563,1.73,2.843,91.0
121.193,4.631,6.91,17.0
121.002,4.653,6.249,22.0
134.528,5.208,6.212,19.0
178.898,6.97,7.299,15.0
178.989,7.019,6.343,14.0
0.0,0.0,0.0,0.0
120.652,4.801,7.014,23.0
120.916,4.843,6.379,22.0
180.969,7.295,8.557,15.0
179.325,7.275,7.515,17.0
178.716,7.295,6.53,18.0
43.78,1.802,2.829,121.0
120.573,4.992,7.141,20.0
120.722,5.029,6.5,19.0
23.595,0.989,1.141,0.0
23.633,0.996,1.015,0.0
23.608,1.001,0.887,18.0
43.775,1.872,2.875,12.0
23.605,1.015,1.422,38.0
23.592,1.02,1.294,44.0
23.586,1.026,1.165,44.0
23.585,1.032,1.037,44.0
23.582,1.038,0.91,49.0
23.562,1.046,1.571,61.0
23.553,1.052,1.444,75.0
23.551,1.058,1.316,72.0
23.564,1.064,1.187,70.0
23.57,1.07,1.06,73.0
23.578,1.077,0.933,69.0
23.565,1.085,1.595,83.0
23.565,1.091,1.467,75.0
23.559,1.096,1.339,63.0
23.561,1.103,1.21,53.0
23.582,1.109,1.083,48.0
23.59,1.116,0.956,42.0
23.59,1.125,1.619,42.0
23.6,1.131,1.492,38.0
23.578,1.136,1.362,20.0
23.584,1.142,1.232,10.0
23.602,1.149,1.105,3.0
23.599,1.155,0.978,0.0
41.923,2.069,2.915,4.0
0.0,0.0,0.0,0.0
0.0,0.0,0.0,0.0
0.0,0.0,0.0,0.0
0.0,0.0,0.0,0.0
179.931,9.11,7.612,14.0
40.206,2.052,2.831,113.0
43.763,2.244,2.843,150.0
0.0,0.0,0.0,0.0
0.0,0.0,0.0,0.0
0.0,0.0,0.0,0.0
214.215,11.202,9.237,7.0
40.211,2.119,2.864,108.0
0.0,0.0,0.0,0.0
0.0,0.0,0.0,0.0
0.0,0.0,0.0,0.0
0.0,0.0,0.0,0.0
0.0,0.0,0.0,0.0
40.199,2.185,2.895,110.0
0.0,0.0,0.0,0.0
45.528,2.497,2.781,2.0
0.0,0.0,0.0,0.0
0.0,0.0,0.0,0.0
204.108,11.349,9.111,5.0
40.201,2.252,2.925,116.0
41.977,2.362,2.824,150.0
45.56,2.575,2.816,35.0
0.0,0.0,0.0,0.0
205.883,11.739,10.458,6.0
204.591,11.717,9.275,4.0
40.207,2.32,2.953,121.0
41.973,2.432,2.853,142.0
45.557,2.651,2.846,97.0
0.0,0.0,0.0,0.0
0.0,0.0,0.0,0.0
203.735,12.006,9.368,8.0
40.178,2.385,2.977,78.0
41.962,2.501,2.879,129.0
45.536,2.725,2.874,79.0
29.988,1.802,1.725,0.0
204.712,12.351,10.659,6.0
0.0,0.0,0.0,0.0
40.178,2.452,3.002,41.0
0.0,0.0,0.0,0.0
0.0,0.0,0.0,0.0
0.0,0.0,0.0,0.0
0.0,0.0,0.0,0.0
112.336,6.992,5.299,2.0
40.173,2.519,3.024,10.0
41.913,2.637,2.924,4.0
0.0,0.0,0.0,0.0
100.721,6.386,5.91,5.0
100.525,6.399,5.346,6.0
100.129,6.399,4.775,9.0
99.932,6.432,7.576,32.0
40.175,2.595,2.824,85.0
0.0,0.0,0.0,0.0
99.945,6.503,5.914,36.0
99.952,6.528,5.365,34.0
99.949,6.552,4.815,35.0
99.936,6.6,7.625,34.0
40.19,2.663,2.844,107.0
43.774,2.91,2.856,122.0
99.951,6.671,5.96,30.0
99.967,6.695,5.411,36.0
99.957,6.719,4.861,32.0
99.93,6.766,7.669,35.0
40.185,2.73,2.862,108.0
0.0,0.0,0.0,0.0
45.552,3.115,2.736,150.0
99.93,6.857,5.451,35.0
99.962,6.883,4.901,33.0
99.931,6.929,7.709,33.0
40.193,2.795,2.877,110.0
0.0,0.0,0.0,0.0
45.523,3.187,2.751,79.0
99.961,7.022,5.488,33.0
99.961,7.045,4.937,33.0
99.929,7.091,7.745,34.0
40.184,2.86,2.891,116.0
0.0,0.0,0.0,0.0
43.771,3.135,2.659,146.0
45.455,3.267,2.51,150.0
45.456,3.277,2.259,150.0
99.924,7.255,7.776,31.0
40.194,2.927,2.904,114.0
41.94,3.063,2.797,80.0
0.0,0.0,0.0,0.0
0.0,0.0,0.0,0.0
45.435,3.349,2.27,7.0
99.039,7.351,7.733,8.0
40.182,2.99,2.914,134.0
0.0,0.0,0.0,0.0
43.605,3.265,2.673,4.0
43.67,3.279,2.435,131.0
43.678,3.29,2.193,134.0
99.021,7.511,7.755,20.0
40.184,3.056,2.923,138.0
40.167,3.063,2.698,150.0
41.96,3.209,2.581,33.0
43.677,3.35,2.444,5.0
41.867,3.221,2.11,9.0
94.884,7.348,7.449,7.0
40.189,3.121,2.931,93.0
40.166,3.127,2.705,150.0
0.0,0.0,0.0,0.0
41.881,3.278,2.35,130.0
41.89,3.289,2.118,114.0
94.857,7.497,7.46,35.0
40.16,3.182,2.934,37.0
40.162,3.19,2.71,150.0
0.0,0.0,0.0,0.0
0.0,0.0,0.0,0.0
40.077,3.209,2.031,5.0
94.999,7.658,7.482,2.0
40.087,3.239,2.933,105.0
40.071,3.246,2.707,150.0
40.083,3.255,2.48,126.0
40.093,3.264,2.258,123.0
40.088,3.272,2.034,125.0
97.559,8.016,7.69,11.0
40.101,3.302,2.936,93.0
40.076,3.309,2.71,150.0
40.081,3.317,2.482,114.0
40.085,3.325,2.258,112.0
40.09,3.334,2.035,104.0
87.193,7.299,6.874,1.0
40.065,3.361,2.934,75.0
40.086,3.371,2.711,150.0
40.085,3.379,2.482,125.0
40.087,3.387,2.258,123.0
40.087,3.395,2.034,92.0
87.076,7.422,6.863,19.0
87.053,7.437,6.372,26.0
87.048,7.453,5.884,33.0
87.058,7.47,5.388,50.0
87.071,7.488,4.901,114.0
87.083,7.505,4.416,83.0
87.046,7.549,6.856,17.0
87.046,7.565,6.367,46.0
87.091,7.585,5.881,11.0
87.062,7.599,5.381,9.0
87.078,7.617,4.895,8.0
87.109,7.637,4.409,10.0
82.994,7.321,6.528,2.0
82.943,7.331,6.058,3.0
82.917,7.343,5.59,3.0
82.968,7.363,5.118,5.0
82.945,7.377,4.651,5.0
82.961,7.394,4.188,5.0
82.892,7.433,6.51,26.0
82.899,7.449,6.043,31.0
82.889,7.462,5.575,41.0
82.895,7.478,5.101,57.0
82.908,7.495,4.636,125.0
82.908,7.51,4.171,107.0
82.883,7.553,6.493,16.0
82.873,7.565,6.026,12.0
82.912,7.583,5.561,10.0
82.938,7.601,5.087,12.0
82.921,7.614,4.62,7.0
82.916,7.629,4.154,85.0
82.965,7.678,6.482,3.0
82.903,7.687,6.008,47.0
83.05,7.714,5.551,2.0
83.08,7.732,5.076,2.0
86.08,8.025,4.774,1.0
82.922,7.746,4.133,49.0
85.31,8.016,6.643,11.0
82.894,7.802,5.986,150.0
85.092,8.023,5.664,11.0
84.94,8.023,5.166,10.0
84.819,8.025,4.681,10.0
82.914,7.86,4.108,16.0
84.446,8.05,6.551,11.0
82.869,7.913,5.959,50.0
84.181,8.051,5.577,10.0
83.997,8.048,5.082,10.0
83.755,8.038,4.596,9.0
82.948,7.975,4.084,9.0
83.44,8.067,6.445,11.0
82.878,8.025,5.932,37.0
83.248,8.073,5.488,9.0
83.157,8.078,5.002,5.0
83.066,8.082,4.528,2.0
82.891,8.078,4.052,2.0
75.121,7.361,5.775,3.0
75.074,7.368,5.345,4.0
75.098,7.381,4.922,4.0
75.092,7.393,4.488,5.0
75.087,7.404,4.063,6.0
75.097,7.417,3.64,8.0
75.068,7.454,5.74,20.0
75.034,7.462,5.311,24.0
75.054,7.474,4.887,27.0
75.045,7.484,4.454,36.0
75.063,7.497,4.031,48.0
75.06,7.509,3.606,81.0
75.029,7.546,5.703,29.0
75.036,7.556,5.278,30.0
75.046,7.567,4.852,27.0
75.051,7.579,4.419,24.0
75.057,7.591,3.995,18.0
75.059,7.602,3.571,14.0
75.1,7.646,5.673,5.0
75.088,7.654,5.245,4.0
75.106,7.666,4.82,3.0
75.06,7.671,4.383,4.0
75.071,7.683,3.958,22.0
75.107,7.698,3.535,4.0
70.987,7.313,5.326,1.0
71.05,7.328,4.926,1.0
70.916,7.323,4.514,1.0
70.956,7.337,4.106,2.0
70.946,7.345,3.703,1.0
70.972,7.358,3.303,3.0
70.922,7.389,5.282,6.0
70.937,7.399,4.879,7.0
70.883,7.402,4.472,6.0
70.91,7.414,4.064,7.0
70.891,7.422,3.66,8.0
70.906,7.433,3.259,9.0
70.875,7.465,5.238,26.0
70.866,7.473,4.833,31.0
70.887,7.484,4.43,41.0
70.878,7.492,4.019,45.0
70.878,7.5,3.617,83.0
70.898,7.512,3.216,126.0
70.865,7.544,5.193,29.0
70.882,7.554,4.789,28.0
70.86,7.559,4.385,27.0
70.886,7.57,3.976,27.0
70.884,7.579,3.573,20.0
70.887,7.588,3.17,20.0
70.894,7.624,5.149,7.0
70.887,7.631,4.744,6.0
70.911,7.641,4.341,6.0
70.907,7.648,3.93,5.0
70.922,7.658,3.528,6.0
70.951,7.67,3.126,5.0
70.845,7.693,5.097,2.0
71.054,7.722,4.707,2.0
71.005,7.724,4.299,2.0
70.977,7.728,3.885,1.0
70.979,7.737,3.481,5.0
71.01,7.748,3.079,1.0
73.542,8.059,5.24,8.0
73.681,8.081,4.829,10.0
73.611,8.081,4.404,11.0
73.375,8.063,3.964,11.0
73.166,8.048,3.535,10.0
73.191,8.059,3.12,9.0
72.605,8.028,5.119,9.0
72.893,8.066,4.723,8.0
73.003,8.085,4.313,10.0
72.97,8.089,3.887,11.0
72.755,8.072,3.461,10.0
72.538,8.056,3.037,6.0
72.097,8.04,5.027,9.0
72.1,8.046,4.616,5.0
72.383,8.084,4.22,9.0
72.427,8.096,3.801,10.0
72.368,8.096,3.386,9.0
72.083,8.072,2.962,4.0
71.764,8.067,4.947,9.0
71.503,8.044,4.519,5.0
71.517,8.051,4.112,3.0
71.808,8.09,3.711,6.0
71.909,8.108,3.305,8.0
71.611,8.081,2.884,2.0
71.36,8.083,4.861,9.0
71.141,8.064,4.438,9.0
70.941,8.047,4.019,8.0
70.933,8.052,3.607,3.0
71.288,8.098,3.218,5.0
57.082,6.49,2.251,3.0
70.835,8.082,4.765,10.0
70.867,8.091,4.361,10.0
70.674,8.074,3.944,10.0
70.49,8.058,3.524,7.0
70.644,8.081,3.128,7.0
56.664,6.487,2.186,1.0
70.25,8.071,4.663,3.0
70.431,8.096,4.271,8.0
70.408,8.098,3.867,10.0
70.194,8.078,3.447,7.0
69.987,8.06,3.037,3.0
56.313,6.49,2.122,3.0
69.539,8.041,4.554,1.0
69.841,8.08,4.173,2.0
70.049,8.108,3.785,3.0
70.037,8.111,3.376,6.0
69.712,8.078,2.962,2.0
55.942,6.487,2.058,5.0
63.201,7.352,4.081,2.0
63.194,7.355,3.718,2.0
63.23,7.363,3.357,2.0
63.209,7.364,2.988,2.0
55.61,6.482,2.311,2.0
55.668,6.493,1.995,8.0
63.154,7.389,4.018,5.0
63.132,7.389,3.654,4.0
63.119,7.391,3.291,5.0
63.166,7.4,2.926,4.0
55.375,6.49,2.248,5.0
55.401,6.497,1.933,6.0
63.147,7.427,3.957,7.0
63.131,7.428,3.594,7.0
63.14,7.432,3.232,6.0
63.147,7.435,2.865,7.0
55.1,6.491,2.183,9.0
55.119,6.497,1.869,11.0
63.117,7.461,3.892,16.0
63.104,7.461,3.53,14.0
63.101,7.463,3.167,14.0
63.109,7.467,2.799,14.0
54.828,6.49,2.118,12.0
54.875,6.498,1.806,11.0
63.106,7.493,3.829,28.0
63.109,7.495,3.466,30.0
63.119,7.498,3.105,30.0
63.124,7.502,2.736,20.0
54.626,6.494,2.055,13.0
54.652,6.5,1.743,12.0
63.106,7.524,3.763,114.0
63.097,7.525,3.401,84.0
63.107,7.528,3.039,108.0
63.113,7.531,2.671,17.0
54.405,6.494,1.991,12.0
54.456,6.502,1.681,11.0
63.105,7.553,3.698,83.0
63.094,7.552,3.335,105.0
63.102,7.555,2.974,114.0
54.205,6.491,2.237,4.0
54.212,6.494,1.927,12.0
54.254,6.501,1.618,13.0
63.103,7.578,3.631,27.0
63.109,7.579,3.269,31.0
63.102,7.58,2.907,32.0
54.044,6.493,2.174,3.0
54.059,6.496,1.864,12.0
54.092,6.502,1.556,12.0
63.113,7.602,3.564,20.0
63.111,7.603,3.201,20.0
63.099,7.602,2.838,20.0
53.864,6.49,2.108,3.0
53.935,6.5,1.802,12.0
53.986,6.508,1.494,13.0
63.102,7.621,3.494,15.0
63.117,7.623,3.133,13.0
63.089,7.62,2.769,7.0
53.725,6.49,2.044,6.0
53.789,6.499,1.738,13.0
53.834,6.505,1.431,12.0
63.099,7.638,3.424,11.0
63.101,7.638,3.061,9.0
53.609,6.489,2.293,1.0
53.647,6.494,1.981,13.0
53.705,6.502,1.675,14.0
53.755,6.509,1.369,12.0
63.134,7.657,3.355,7.0
63.1,7.653,2.991,7.0
53.499,6.488,2.228,4.0
53.594,6.5,1.919,12.0
53.637,6.505,1.613,14.0
53.676,6.511,1.305,13.0
63.143,7.67,3.283,6.0
63.114,7.666,2.918,6.0
53.48,6.495,2.166,5.0
53.55,6.504,1.856,9.0
53.59,6.509,1.55,12.0
53.62,6.513,1.243,14.0
63.134,7.678,3.21,5.0
63.16,7.68,2.848,5.0
53.397,6.492,2.101,8.0
53.494,6.503,1.792,10.0
53.543,6.509,1.487,13.0
53.584,6.515,1.18,12.0
63.144,7.685,3.137,5.0
63.09,7.677,2.772,2.0
53.397,6.497,2.039,10.0
53.464,6.504,1.73,12.0
53.522,6.511,1.424,13.0
53.56,6.515,1.118,11.0
63.167,7.691,3.065,5.0
53.305,6.489,2.28,3.0
53.393,6.498,1.977,9.0
53.473,6.507,1.668,13.0
53.506,6.51,1.362,13.0
53.582,6.519,1.056,11.0
63.167,7.691,2.991,4.0
53.389,6.499,2.221,5.0
53.423,6.501,1.915,7.0
53.479,6.507,1.606,13.0
53.536,6.513,1.299,13.0
53.583,6.518,0.993,12.0
63.124,7.683,2.915,5.0
53.413,6.499,2.159,5.0
53.468,6.504,1.854,7.0
53.524,6.509,1.543,12.0
53.57,6.513,1.237,14.0
53.646,6.522,0.931,13.0
63.161,7.682,2.841,5.0
53.463,6.5,2.098,8.0
53.501,6.502,1.792,10.0
53.572,6.509,1.481,12.0
53.639,6.516,1.175,13.0
53.721,6.525,0.869,12.0
63.152,7.672,2.766,2.0
53.538,6.501,2.037,11.0
53.576,6.504,1.731,12.0
53.672,6.513,1.42,14.0
53.734,6.519,1.114,13.0
53.797,6.525,0.807,13.0
53.511,6.491,2.28,3.0
53.626,6.502,1.977,12.0
53.679,6.506,1.67,14.0
53.766,6.514,1.359,14.0
53.83,6.519,1.051,14.0
53.899,6.526,0.744,14.0
53.642,6.495,2.221,3.0
53.728,6.502,1.916,12.0
53.798,6.507,1.61,14.0
53.883,6.514,1.298,15.0
53.961,6.522,0.99,13.0
54.016,6.526,0.682,11.0
53.738,6.491,2.162,2.0
53.869,6.504,1.857,11.0
53.933,6.508,1.55,13.0
54.006,6.514,1.237,13.0
54.102,6.523,0.929,12.0
54.166,6.528,0.619,11.0
53.922,6.496,2.105,5.0
54.047,6.507,1.799,12.0
54.09,6.509,1.49,11.0
54.184,6.517,1.177,14.0
54.264,6.524,0.867,15.0
54.342,6.53,0.557,11.0
54.108,6.499,2.047,11.0
54.21,6.507,1.74,11.0
54.277,6.511,1.431,12.0
54.372,6.519,1.116,14.0
54.45,6.525,0.806,13.0
54.521,6.531,0.495,11.0
54.32,6.502,1.991,11.0
54.421,6.509,1.682,12.0
54.507,6.515,1.373,12.0
54.58,6.52,1.056,15.0
54.676,6.528,0.745,12.0
54.737,6.532,0.431,13.0
54.541,6.503,1.935,11.0
54.647,6.511,1.625,12.0
54.708,6.514,1.314,11.0
54.813,6.522,0.996,14.0
54.883,6.527,0.683,13.0
54.979,6.535,0.37,12.0
54.809,6.507,1.88,10.0
54.889,6.512,1.568,10.0
54.956,6.515,1.255,12.0
55.064,6.523,0.936,12.0
55.162,6.531,0.622,12.0
55.236,6.536,0.307,5.0
55.063,6.507,1.824,11.0
55.151,6.512,1.51,10.0
55.283,6.523,1.198,13.0
55.368,6.528,0.877,12.0
55.487,6.538,0.561,13.0
51.314,6.042,0.225,2.0
55.373,6.511,1.77,8.0
55.494,6.52,1.456,13.0
55.603,6.527,1.14,14.0
55.708,6.534,0.817,12.0
55.786,6.539,0.499,14.0
51.331,6.012,0.165,13.0
55.708,6.515,1.716,10.0
55.81,6.52,1.399,13.0
55.924,6.528,1.081,13.0
56.022,6.534,0.757,13.0
56.125,6.541,0.438,13.0
46.221,5.383,0.095,20.0
56.028,6.514,1.661,12.0
56.168,6.523,1.343,14.0
56.283,6.531,1.024,11.0
56.38,6.536,0.697,14.0
56.455,6.539,0.375,5.0
44.426,5.142,0.041,9.0
56.396,6.515,1.607,10.0
56.549,6.526,1.288,11.0
56.65,6.531,0.966,11.0
56.735,6.535,0.637,7.0
51.371,5.912,0.283,3.0
37.19,4.276,-0.007,8.0
56.812,6.519,1.555,8.0
56.96,6.529,1.233,11.0
57.067,6.535,0.908,11.0
57.171,6.54,0.578,6.0
51.383,5.873,0.225,18.0
37.184,4.246,-0.048,9.0
57.259,6.524,1.503,11.0
57.387,6.531,1.178,10.0
57.492,6.536,0.851,11.0
57.546,6.535,0.517,6.0
51.317,5.822,0.168,6.0
39.301,4.455,-0.095,14.0
57.687,6.523,1.45,7.0
57.817,6.53,1.123,9.0
57.934,6.535,0.794,7.0
58.05,6.541,0.457,6.0
46.675,5.254,0.101,20.0
38.711,4.353,-0.137,15.0
58.166,6.523,1.397,10.0
58.31,6.532,1.068,10.0
58.368,6.531,0.736,6.0
58.492,6.537,0.397,2.0
0.0,0.0,0.0,0.0
37.91,4.227,-0.175,14.0
58.672,6.524,1.346,8.0
58.793,6.529,1.012,10.0
58.893,6.533,0.679,10.0
58.999,6.536,0.337,2.0
44.511,4.926,0.0,18.0
37.592,4.155,-0.214,13.0
59.19,6.524,1.295,6.0
59.273,6.524,0.958,5.0
59.408,6.531,0.622,3.0
59.485,6.531,0.277,0.0
0.0,0.0,0.0,0.0
37.399,4.096,-0.251,13.0
59.748,6.524,1.244,6.0
59.84,6.524,0.905,5.0
59.962,6.529,0.565,2.0
47.826,5.201,0.173,5.0
39.779,4.32,-0.082,13.0
0.0,0.0,0.0,0.0
60.263,6.515,1.192,2.0
60.464,6.527,0.852,4.0
60.685,6.541,0.509,3.0
46.528,5.009,0.12,18.0
38.873,4.179,-0.12,14.0
34.437,3.697,-0.302,7.0
61.002,6.527,1.145,7.0
61.16,6.534,0.799,8.0
61.358,6.545,0.452,7.0
46.212,4.922,0.073,20.0
38.961,4.144,-0.16,19.0
0.0,0.0,0.0,0.0
61.716,6.532,1.096,12.0
61.895,6.541,0.748,11.0
62.056,6.547,0.397,2.0
46.059,4.852,0.027,9.0
38.933,4.095,-0.198,14.0
31.636,3.323,-0.341,9.0
62.413,6.53,1.048,9.0
62.577,6.537,0.695,10.0
62.697,6.539,0.339,1.0
44.867,4.672,-0.016,19.0
0.0,0.0,0.0,0.0
30.764,3.193,-0.36,9.0
63.158,6.531,1.0,11.0
63.322,6.536,0.643,10.0
47.721,4.917,0.213,3.0
44.244,4.551,-0.057,19.0
37.682,3.87,-0.263,10.0
30.044,3.081,-0.38,8.0
63.88,6.524,0.952,8.0
64.026,6.527,0.59,6.0
47.412,4.825,0.168,12.0
0.0,0.0,0.0,0.0
35.722,3.623,-0.282,8.0
29.162,2.953,-0.396,8.0
64.714,6.525,0.906,9.0
64.875,6.528,0.54,4.0
47.149,4.736,0.125,21.0
40.163,4.027,-0.125,15.0
34.583,3.461,-0.304,11.0
28.458,2.843,-0.411,7.0
65.591,6.525,0.86,10.0
65.801,6.533,0.489,3.0
46.841,4.641,0.083,21.0
40.241,3.98,-0.161,15.0
33.416,3.299,-0.323,10.0
0.0,0.0,0.0,0.0
66.589,6.532,0.816,9.0
49.883,4.883,0.329,7.0
46.19,4.512,0.042,20.0
40.122,3.912,-0.194,15.0
31.932,3.108,-0.335,9.0
26.665,2.59,-0.431,7.0
67.53,6.529,0.771,9.0
53.392,5.151,0.307,4.0
45.759,4.406,0.004,20.0
39.528,3.798,-0.223,15.0
31.218,2.993,-0.353,9.0
26.051,2.493,-0.442,6.0
68.561,6.53,0.728,6.0
51.108,4.857,0.253,1.0
45.62,4.326,-0.031,20.0
39.268,3.716,-0.253,14.0
30.561,2.886,-0.37,8.0
25.45,2.398,-0.452,6.0
69.693,6.534,0.685,7.0
47.426,4.437,0.198,4.0
45.702,4.265,-0.067,20.0
0.0,0.0,0.0,0.0
29.971,2.785,-0.385,8.0
25.032,2.321,-0.463,6.0
70.804,6.531,0.643,8.0
47.393,4.362,0.162,21.0
45.475,4.176,-0.1,19.0
35.763,3.276,-0.284,6.0
29.19,2.668,-0.397,8.0
24.739,2.256,-0.476,5.0
71.994,6.532,0.602,6.0
47.077,4.261,0.128,21.0
42.622,3.848,-0.124,7.0
34.743,3.129,-0.3,9.0
28.639,2.573,-0.409,8.0
24.277,2.176,-0.484,5.0
73.28,6.534,0.563,3.0
46.845,4.166,0.095,21.0
40.071,3.555,-0.143,62.0
0.0,0.0,0.0,0.0
27.995,2.471,-0.419,7.0
23.99,2.112,-0.494,8.0
74.491,6.522,0.522,1.0
40.11,3.503,0.055,108.0
40.048,3.488,-0.17,59.0
32.774,2.847,-0.327,10.0
27.403,2.374,-0.428,7.0
23.653,2.044,-0.502,5.0
40.105,3.446,0.255,102.0
40.093,3.436,0.03,72.0
40.002,3.418,-0.195,42.0
32.031,2.73,-0.339,8.0
26.955,2.291,-0.437,7.0
23.711,2.01,-0.518,3.0
40.111,3.38,0.231,130.0
40.111,3.371,0.006,150.0
39.956,3.348,-0.218,25.0
31.768,2.654,-0.355,9.0
26.457,2.204,-0.444,6.0
19.856,1.65,-0.445,2.0
40.097,3.311,0.208,150.0
40.101,3.301,-0.016,128.0
0.0,0.0,0.0,0.0
31.243,2.557,-0.367,9.0
25.969,2.119,-0.451,6.0
19.773,1.609,-0.454,3.0
0.0,0.0,0.0,0.0
40.113,3.233,-0.038,103.0
37.663,3.026,-0.247,3.0
30.861,2.473,-0.378,9.0
25.749,2.057,-0.46,6.0
19.737,1.572,-0.463,6.0
41.899,3.314,0.173,150.0
40.203,3.17,-0.058,95.0
36.981,2.907,-0.261,4.0
30.364,2.379,-0.387,9.0
25.352,1.98,-0.465,6.0
19.723,1.536,-0.473,8.0
43.667,3.377,0.16,83.0
41.921,3.232,-0.08,127.0
36.323,2.791,-0.273,6.0
29.94,2.293,-0.396,8.0
25.079,1.914,-0.472,7.0
19.709,1.499,-0.481,8.0
0.0,0.0,0.0,0.0
0.0,0.0,0.0,0.0
0.0,0.0,0.0,0.0
29.473,2.204,-0.402,8.0
24.986,1.862,-0.48,5.0
19.706,1.463,-0.489,9.0
40.325,2.973,0.113,41.0
40.312,2.962,-0.111,43.0
35.392,2.591,-0.295,7.0
29.139,2.125,-0.409,8.0
24.866,1.807,-0.488,5.0
19.737,1.429,-0.498,6.0
40.537,2.914,0.099,3.0
40.318,2.887,-0.126,43.0
35.302,2.519,-0.307,8.0
28.748,2.044,-0.414,8.0
24.739,1.752,-0.494,5.0
19.824,1.399,-0.506,10.0
41.948,2.938,0.088,8.0
40.322,2.813,-0.139,46.0
0.0,0.0,0.0,0.0
28.611,1.981,-0.421,8.0
24.641,1.699,-0.5,5.0
19.722,1.355,-0.51,9.0
42.208,2.878,0.076,35.0
40.317,2.737,-0.151,45.0
34.547,2.336,-0.322,6.0
28.498,1.92,-0.427,7.0
24.603,1.65,-0.506,5.0
19.719,1.318,-0.515,9.0
44.684,2.962,0.068,12.0
40.32,2.662,-0.162,41.0
33.783,2.221,-0.324,5.0
28.299,1.852,-0.431,7.0
24.713,1.611,-0.514,5.0
19.72,1.28,-0.52,10.0
45.198,2.91,0.058,116.0
40.323,2.584,-0.171,47.0
34.111,2.177,-0.334,11.0
28.258,1.795,-0.437,7.0
24.652,1.559,-0.518,1.0
19.727,1.242,-0.524,11.0
45.181,2.821,0.05,49.0
40.324,2.507,-0.179,47.0
33.904,2.098,-0.338,7.0
28.264,1.74,-0.442,7.0
24.38,1.494,-0.516,1.0
19.724,1.203,-0.527,10.0
45.172,2.733,0.042,44.0
40.319,2.427,-0.185,47.0
33.62,2.014,-0.341,10.0
28.175,1.68,-0.444,7.0
24.375,1.446,-0.519,0.0
19.73,1.165,-0.53,9.0
45.18,2.645,0.037,40.0
40.322,2.348,-0.189,42.0
34.066,1.974,-0.349,8.0
28.217,1.627,-0.448,7.0
24.375,1.398,-0.522,0.0
19.788,1.129,-0.533,8.0
45.181,2.556,0.033,44.0
40.328,2.27,-0.193,42.0
34.183,1.913,-0.352,9.0
28.419,1.583,-0.453,3.0
24.447,1.354,-0.525,1.0
21.049,1.16,-0.568,2.0
45.186,2.466,0.031,41.0
40.324,2.189,-0.194,41.0
33.758,1.822,-0.349,8.0
28.459,1.528,-0.454,6.0
24.394,1.303,-0.524,1.0
20.879,1.108,-0.564,4.0
45.176,2.375,0.031,41.0
40.324,2.108,-0.194,41.0
34.163,1.776,-0.353,6.0
28.589,1.477,-0.456,2.0
23.623,1.213,-0.507,16.0
21.056,1.075,-0.568,1.0
45.186,2.285,0.032,47.0
40.316,2.026,-0.193,39.0
34.445,1.72,-0.355,7.0
23.642,1.173,-0.376,1.0
23.691,1.169,-0.507,42.0
21.163,1.038,-0.57,2.0
23.637,1.147,0.018,39.0
23.636,1.14,-0.111,38.0
23.636,1.133,-0.241,38.0
23.623,1.125,-0.373,41.0
23.609,1.117,-0.503,44.0
21.174,0.995,-0.568,2.0
23.603,1.098,0.02,65.0
23.612,1.091,-0.108,69.0
23.603,1.083,-0.238,69.0
23.611,1.076,-0.37,66.0
23.614,1.07,-0.5,77.0
21.433,0.964,-0.572,2.0
23.617,1.051,0.024,52.0
23.622,1.043,-0.105,41.0
23.622,1.036,-0.235,43.0
23.641,1.03,-0.367,43.0
23.659,1.023,-0.497,36.0
21.5,0.924,-0.57,3.0
45.19,1.92,0.054,13.0
40.319,1.7,-0.172,38.0
35.308,1.477,-0.344,1.0
29.139,1.21,-0.446,5.0
23.661,0.975,-0.492,21.0
21.682,0.887,-0.57,2.0
40.346,1.631,0.057,150.0
40.341,1.618,-0.163,150.0
36.037,1.434,-0.343,1.0
29.539,1.166,-0.446,3.0
25.315,0.991,-0.52,2.0
21.653,0.841,-0.564,0.0
40.732,1.563,0.068,11.0
41.466,1.578,-0.156,2.0
36.311,1.37,-0.335,2.0
29.7,1.111,-0.44,2.0
25.608,0.95,-0.519,1.0
21.756,0.8,-0.56,1.0
44.183,1.605,0.087,2.0
40.118,1.444,-0.139,110.0
40.117,1.431,-0.358,0.0
30.029,1.062,-0.435,1.0
25.889,0.907,-0.516,2.0
22.418,0.778,-0.569,4.0
40.144,1.375,0.093,150.0
40.038,1.358,-0.125,119.0
40.011,1.344,-0.343,0.0
30.311,1.009,-0.428,1.0
26.009,0.857,-0.509,4.0
22.347,0.73,-0.559,0.0
40.137,1.292,0.108,150.0
40.129,1.28,-0.11,150.0
39.919,1.26,-0.327,1.0
31.496,0.984,-0.433,0.0
26.942,0.833,-0.517,6.0
22.783,0.697,-0.561,1.0
40.12,1.211,0.124,150.0
40.13,1.198,-0.093,150.0
0.0,0.0,0.0,0.0
27.398,0.799,-0.364,1.0
26.702,0.771,-0.5,1.0
23.275,0.664,-0.563,0.0
0.0,0.0,0.0,0.0
40.136,1.115,-0.075,162.0
39.937,1.097,-0.291,8.0
32.056,0.87,-0.411,0.0
27.184,0.729,-0.496,1.0
23.626,0.626,-0.56,0.0
45.521,1.187,0.184,5.0
41.944,1.08,-0.058,151.0
39.936,1.015,-0.272,4.0
32.478,0.815,-0.4,1.0
28.402,0.704,-0.504,1.0
24.02,0.587,-0.556,0.0
70.922,1.704,0.323,3.0
45.523,1.079,-0.038,4.0
41.054,0.96,-0.257,2.0
33.44,0.77,-0.394,1.0
28.701,0.652,-0.493,1.0
25.296,0.567,-0.572,1.0
81.473,1.792,0.417,3.0
55.03,1.192,-0.015,1.0
42.532,0.907,-0.242,0.0
33.578,0.705,-0.376,2.0
29.285,0.606,-0.486,0.0
27.935,0.568,-0.615,0.0
113.073,2.257,0.647,5.0
55.199,1.084,0.017,24.0
42.688,0.824,-0.216,0.0
35.983,0.682,-0.38,0.0
31.306,0.584,-0.5,0.0
28.801,0.527,-0.615,0.0
55.16,0.988,0.351,139.0
55.178,0.971,0.053,45.0
44.873,0.775,-0.198,0.0
35.896,0.608,-0.356,0.0
19.635,0.326,-0.3,0.0
29.306,0.477,-0.607,0.0
114.321,1.819,0.805,6.0
0.0,0.0,0.0,0.0
19.686,0.3,-0.073,0.0
19.682,0.293,-0.181,10.0
19.656,0.286,-0.287,15.0
19.674,0.28,-0.393,14.0
19.77,0.274,0.153,16.0
0.0,0.0,0.0,0.0
19.651,0.26,-0.059,10.0
19.639,0.253,-0.166,16.0
19.651,0.247,-0.272,18.0
19.655,0.24,-0.378,17.0
19.763,0.234,0.168,27.0
19.681,0.227,0.061,8.0
19.654,0.22,-0.044,9.0
19.623,0.213,-0.151,17.0
19.647,0.208,-0.257,16.0
19.667,0.201,-0.363,14.0
19.67,0.194,0.182,13.0
19.657,0.188,0.077,13.0
19.624,0.181,-0.028,15.0
19.638,0.175,-0.135,14.0
19.657,0.168,-0.241,8.0
19.71,0.162,-0.347,0.0
19.664,0.155,0.198,17.0
19.645,0.149,0.093,14.0
19.639,0.142,-0.012,14.0
19.675,0.136,-0.119,9.0
0.0,0.0,0.0,0.0
0.0,0.0,0.0,0.0
19.665,0.116,0.215,15.0
19.651,0.11,0.11,12.0
19.686,0.104,0.005,8.0
19.76,0.098,-0.102,5.0
19.764,0.091,-0.208,14.0
19.779,0.085,-0.314,21.0
19.635,0.078,0.232,15.0
19.71,0.072,0.128,17.0
19.752,0.066,0.022,23.0
19.765,0.059,-0.084,26.0
19.763,0.053,-0.19,15.0
19.768,0.047,-0.296,14.0
19.626,0.04,0.25,16.0
19.744,0.034,0.146,10.0
19.77,0.028,0.041,3.0
19.756,0.022,-0.066,3.0
19.803,0.015,-0.172,0.0
0.0,0.0,0.0,0.0
19.635,0.002,0.269,14.0
19.728,-0.003,0.165,4.0
19.702,-0.009,0.06,13.0
19.718,-0.015,-0.046,13.0
19.746,-0.022,-0.152,13.0
19.756,-0.028,-0.257,5.0
19.634,-0.034,0.289,10.0
19.681,-0.04,0.184,13.0
19.7,-0.046,0.079,15.0
19.685,-0.053,-0.026,17.0
19.721,-0.059,-0.131,16.0
19.738,-0.066,-0.237,15.0
19.667,-0.071,0.309,10.0
19.71,-0.078,0.205,16.0
19.711,-0.084,0.1,13.0
19.711,-0.09,-0.005,13.0
19.718,-0.097,-0.11,16.0
19.726,-0.103,-0.216,17.0
19.712,-0.108,0.331,5.0
19.737,-0.115,0.226,4.0
19.773,-0.121,0.122,1.0
19.755,-0.127,0.015,6.0
19.739,-0.133,-0.089,12.0
19.742,-0.139,-0.194,15.0
177.202,-1.306,3.172,20.0
169.457,-1.304,2.135,20.0
160.663,-1.285,1.171,18.0
0.0,0.0,0.0,0.0
19.784,-0.17,-0.067,1.0
19.771,-0.176,-0.172,6.0
19.755,-0.181,0.375,7.0
19.751,-0.187,0.27,0.0
160.661,-1.575,1.351,9.0
0.0,0.0,0.0,0.0
0.0,0.0,0.0,0.0
0.0,0.0,0.0,0.0
19.753,-0.217,0.398,14.0
19.742,-0.223,0.293,10.0
19.745,-0.229,0.188,18.0
19.752,-0.235,0.082,2.0
0.0,0.0,0.0,0.0
0.0,0.0,0.0,0.0
19.778,-0.252,0.422,2.0
19.755,-0.258,0.317,6.0
19.745,-0.264,0.212,25.0
19.745,-0.27,0.106,26.0
0.0,0.0,0.0,0.0
0.0,0.0,0.0,0.0
115.411,-4.481,5.23,19.0
116.855,-4.562,4.685,20.0
116.939,-4.589,4.077,25.0
118.623,-4.679,3.503,10.0
141.722,-5.62,3.445,12.0
162.272,-6.468,3.099,12.0
115.371,-4.622,5.411,19.0
116.632,-4.696,4.86,25.0
117.091,-4.737,4.268,25.0
118.409,-4.814,3.685,20.0
141.582,-5.786,3.669,13.0
0.0,0.0,0.0,0.0
115.198,-4.753,5.587,15.0
116.747,-4.84,5.053,21.0
117.042,-4.874,4.453,21.0
119.77,-5.011,3.919,20.0
140.02,-5.886,3.853,11.0
168.725,-7.125,3.762,6.0
116.838,-4.957,5.856,18.0
117.859,-5.023,5.292,14.0
115.988,-4.966,4.603,19.0
117.295,-5.044,4.032,20.0
118.789,-5.13,3.463,10.0
142.538,-6.182,3.412,23.0
115.939,-5.051,6.002,12.0
117.5,-5.14,5.468,10.0
115.777,-5.085,4.783,27.0
117.447,-5.179,4.228,18.0
118.864,-5.264,3.66,17.0
142.399,-6.332,3.643,21.0
112.878,-5.042,6.03,20.0
114.23,-5.121,5.506,24.0
114.475,-5.153,4.921,13.0
117.456,-5.307,4.424,24.0
116.672,-5.291,3.787,8.0
142.305,-6.48,3.879,17.0
112.794,-5.158,6.214,15.0
114.202,-5.241,5.695,8.0
114.425,-5.271,5.11,19.0
117.486,-5.432,4.623,22.0
116.905,-5.423,3.99,20.0
141.652,-6.596,4.098,20.0
112.643,-5.267,6.396,11.0
109.116,-5.118,5.625,21.0
114.485,-5.389,5.305,21.0
116.839,-5.519,4.794,21.0
117.13,-5.551,4.196,22.0
118.088,-5.614,3.615,11.0
108.547,-5.182,6.347,18.0
109.001,-5.22,5.803,11.0
114.583,-5.504,5.503,24.0
116.27,-5.603,4.965,18.0
117.538,-5.682,4.408,18.0
117.713,-5.709,3.803,19.0
108.512,-5.283,6.528,19.0
112.387,-5.487,6.174,17.0
109.108,-5.343,5.424,20.0
108.681,-5.337,4.826,10.0
117.205,-5.772,4.593,10.0
117.528,-5.805,3.995,24.0
108.821,-5.395,6.73,17.0
108.342,-5.386,6.134,8.0
108.497,-5.409,5.577,23.0
108.307,-5.413,4.991,14.0
117.402,-5.884,4.799,9.0
110.013,-5.529,3.925,17.0
108.801,-5.489,6.914,22.0
108.32,-5.478,6.318,25.0
108.439,-5.497,5.759,11.0
108.273,-5.503,5.176,16.0
108.331,-5.52,4.614,23.0
109.557,-5.596,4.096,27.0
108.343,-5.555,7.072,16.0
108.627,-5.582,6.522,19.0
108.053,-5.566,5.924,17.0
108.443,-5.598,5.368,28.0
108.085,-5.592,4.788,26.0
109.501,-5.679,4.28,15.0
108.249,-5.635,7.251,25.0
108.623,-5.666,6.707,27.0
108.065,-5.649,6.109,20.0
108.069,-5.661,5.535,24.0
108.144,-5.676,4.975,27.0
109.434,-5.756,4.464,17.0
108.364,-5.722,7.444,9.0
108.279,-5.727,6.872,23.0
108.096,-5.729,6.297,21.0
107.897,-5.729,5.712,19.0
108.27,-5.76,5.167,27.0
108.269,-5.77,4.603,26.0
112.834,-6.037,7.947,11.0
108.038,-5.79,7.043,23.0
107.378,-5.765,6.44,20.0
108.048,-5.81,5.904,22.0
108.194,-5.828,5.349,24.0
107.996,-5.828,4.777,34.0
110.847,-6.004,7.998,14.0
111.307,-6.037,7.448,7.0
108.16,-5.876,6.671,23.0
107.938,-5.873,6.084,25.0
108.126,-5.891,5.529,18.0
108.113,-5.9,4.966,26.0
109.429,-5.994,8.083,19.0
112.609,-6.176,7.728,10.0
108.06,-5.935,6.851,23.0
107.228,-5.897,6.227,20.0
107.886,-5.941,5.702,22.0
108.274,-5.971,5.158,29.0
111.176,-6.154,8.403,15.0
108.263,-6.0,7.616,10.0
107.944,-5.988,7.028,17.0
107.35,-5.963,6.419,21.0
108.019,-6.008,5.894,23.0
108.035,-6.016,5.332,23.0
108.947,-6.088,8.422,22.0
109.518,-6.127,7.892,20.0
107.899,-6.042,7.21,6.0
108.06,-6.057,6.645,24.0
107.855,-6.052,6.068,24.0
107.612,-6.045,5.494,23.0
108.647,-6.126,8.585,28.0
108.926,-6.146,8.035,24.0
108.255,-6.113,7.417,16.0
108.017,-6.106,6.826,22.0
107.407,-6.077,6.226,24.0
107.316,-6.076,5.661,24.0
108.456,-6.163,8.754,21.0
109.073,-6.203,8.232,21.0
108.16,-6.156,7.597,18.0
108.693,-6.19,7.053,9.0
107.797,-6.143,6.43,22.0
107.573,-6.134,5.856,18.0
108.568,-6.214,8.946,26.0
108.753,-6.228,8.391,24.0
0.0,0.0,0.0,0.0
108.49,-6.219,7.222,7.0
