X,Y,Z,Reflectivity
11.681,-1.237,-0.904,0.0
10.991,-1.166,-0.911,0.0
15.528,-1.645,-0.849,0.0
14.294,-1.517,-0.86,0.0
13.41,-1.426,-0.879,0.0
12.467,-1.328,-0.887,0.0
11.79,-1.258,-0.903,0.0
11.071,-1.184,-0.909,0.0
15.722,-1.679,-0.848,0.0
14.545,-1.556,-0.863,0.0
13.551,-1.452,-0.878,0.0
12.674,-1.36,-0.891,0.0
11.884,-1.278,-0.901,0.0
11.192,-1.206,-0.909,0.0
15.94,-1.715,-0.846,0.0
14.754,-1.59,-0.863,0.0
13.717,-1.481,-0.877,0.0
12.717,-1.375,-0.884,0.0
11.984,-1.298,-0.898,0.0
11.24,-1.22,-0.904,0.0
16.327,-1.769,-0.853,0.0
15.006,-1.629,-0.865,0.0
13.806,-1.501,-0.871,0.0
12.896,-1.404,-0.885,0.0
12.102,-1.32,-0.896,0.0
11.36,-1.241,-0.903,0.0
16.506,-1.801,-0.848,0.0
15.155,-1.656,-0.86,0.0
13.981,-1.53,-0.869,0.0
13.052,-1.431,-0.884,0.0
12.167,-1.336,-0.89,0.0
11.575,-1.273,-0.91,0.0
16.808,-1.846,-0.848,0.0
15.395,-1.693,-0.86,0.0
14.211,-1.565,-0.871,0.0
13.198,-1.456,-0.881,0.0
12.361,-1.365,-0.893,0.0
11.559,-1.279,-0.898,0.0
16.911,-1.868,-0.837,0.0
15.562,-1.721,-0.855,0.0
14.415,-1.597,-0.87,0.0
13.336,-1.479,-0.878,0.0
12.56,-1.395,-0.895,0.0
11.676,-1.299,-0.895,0.0
17.215,-1.913,-0.836,0.0
15.861,-1.764,-0.856,0.0
14.57,-1.623,-0.865,0.0
13.587,-1.515,-0.881,0.0
12.732,-1.422,-0.895,0.0
11.871,-1.328,-0.899,0.0
17.297,-1.932,-0.823,0.0
16.084,-1.798,-0.852,0.0
14.842,-1.662,-0.866,0.0
13.74,-1.54,-0.878,0.0
12.834,-1.44,-0.889,0.0
12.004,-1.349,-0.897,0.0
17.465,-1.96,-0.814,0.0
16.141,-1.813,-0.839,0.0
15.033,-1.691,-0.862,0.0
13.861,-1.561,-0.871,0.0
13.019,-1.468,-0.889,0.0
12.232,-1.381,-0.901,0.0
17.801,-2.007,-0.811,0.0
16.561,-1.869,-0.844,0.0
15.24,-1.721,-0.858,0.0
14.12,-1.597,-0.873,0.0
13.175,-1.491,-0.886,0.0
12.334,-1.398,-0.896,0.0
18.133,-2.052,-0.807,0.0
16.984,-1.924,-0.847,0.0
15.465,-1.754,-0.855,0.0
14.365,-1.631,-0.873,0.0
13.278,-1.509,-0.878,0.0
12.488,-1.42,-0.894,0.0
18.569,-2.109,-0.807,0.0
17.255,-1.962,-0.843,0.0
15.744,-1.792,-0.853,0.0
14.602,-1.663,-0.871,0.0
13.616,-1.552,-0.886,0.0
12.691,-1.448,-0.894,0.0
18.955,-2.16,-0.803,0.0
17.334,-1.977,-0.827,0.0
16.025,-1.829,-0.851,0.0
14.821,-1.693,-0.868,0.0
13.748,-1.572,-0.879,0.0
12.844,-1.47,-0.891,0.0
19.531,-2.232,-0.806,0.0
17.49,-2.001,-0.815,0.0
16.109,-1.844,-0.838,0.0
15.001,-1.718,-0.862,0.0
13.974,-1.602,-0.878,0.0
13.066,-1.499,-0.891,0.0
19.83,-2.272,-0.796,0.0
17.833,-2.045,-0.812,0.0
16.681,-1.914,-0.849,0.0
15.147,-1.739,-0.853,0.0
14.194,-1.631,-0.876,0.0
13.191,-1.517,-0.885,0.0
20.176,-2.317,-0.787,0.0
18.088,-2.078,-0.803,0.0
16.985,-1.953,-0.845,0.0
15.575,-1.791,-0.86,0.0
14.463,-1.665,-0.876,0.0
13.372,-1.54,-0.882,0.0
20.642,-2.374,-0.782,0.0
18.818,-2.165,-0.814,0.0
17.252,-1.986,-0.838,0.0
15.886,-1.83,-0.859,0.0
14.679,-1.692,-0.872,0.0
13.581,-1.566,-0.88,0.0
21.0,-2.419,-0.771,0.0
0.0,0.0,0.0,0.0
17.375,-2.003,-0.824,0.0
16.144,-1.862,-0.853,0.0
14.95,-1.725,-0.87,0.0
13.851,-1.599,-0.881,0.0
21.588,-2.489,-0.767,0.0
19.642,-2.265,-0.803,0.0
17.713,-2.043,-0.819,0.0
16.337,-1.885,-0.844,0.0
15.122,-1.746,-0.862,0.0
14.07,-1.625,-0.878,0.0
22.19,-2.56,-0.762,0.0
19.882,-2.294,-0.789,0.0
18.156,-2.095,-0.817,0.0
16.777,-1.936,-0.847,0.0
15.394,-1.777,-0.859,0.0
14.32,-1.654,-0.876,0.0
22.566,-2.603,-0.748,0.0
20.399,-2.354,-0.785,0.0
18.592,-2.145,-0.815,0.0
17.067,-1.97,-0.841,0.0
15.783,-1.822,-0.862,0.0
14.617,-1.688,-0.877,0.0
23.19,-2.675,-0.741,0.0
20.781,-2.397,-0.775,0.0
18.972,-2.188,-0.808,0.0
17.296,-1.995,-0.831,0.0
16.029,-1.849,-0.856,0.0
14.836,-1.712,-0.872,0.0
24.464,-2.82,-0.752,0.0
21.331,-2.459,-0.77,0.0
19.465,-2.243,-0.806,0.0
17.498,-2.017,-0.82,0.0
16.16,-1.863,-0.843,0.0
15.031,-1.733,-0.865,0.0
24.643,-2.838,-0.728,1.0
22.044,-2.538,-0.769,0.0
19.863,-2.287,-0.798,0.0
17.954,-2.067,-0.819,0.0
16.548,-1.905,-0.844,0.0
15.314,-1.763,-0.862,0.0
24.811,-2.853,-0.702,1.0
22.525,-2.589,-0.758,0.0
20.26,-2.329,-0.789,0.0
18.243,-2.096,-0.81,0.0
17.005,-1.954,-0.846,0.0
15.684,-1.802,-0.864,0.0
25.627,-2.942,-0.694,0.0
22.925,-2.63,-0.743,0.0
20.785,-2.384,-0.784,0.0
18.732,-2.148,-0.808,0.0
17.265,-1.979,-0.837,0.0
15.99,-1.833,-0.861,0.0
26.392,-3.022,-0.682,0.0
23.667,-2.709,-0.738,0.0
21.272,-2.434,-0.777,0.0
19.41,-2.22,-0.814,0.0
17.439,-1.994,-0.824,0.0
16.242,-1.857,-0.854,0.0
27.616,-3.154,-0.68,0.0
24.251,-2.769,-0.726,0.0
22.025,-2.513,-0.776,0.0
19.736,-2.251,-0.803,0.0
17.761,-2.025,-0.817,0.0
16.551,-1.886,-0.85,0.0
0.0,0.0,0.0,0.0
24.978,-2.842,-0.716,0.0
22.251,-2.531,-0.756,0.0
20.357,-2.314,-0.803,2.0
18.252,-2.074,-0.817,0.0
17.07,-1.939,-0.855,0.0
0.0,0.0,0.0,0.0
25.373,-2.877,-0.696,0.0
22.776,-2.581,-0.746,0.0
20.399,-2.31,-0.779,0.0
18.712,-2.118,-0.814,0.0
17.262,-1.953,-0.843,0.0
29.923,-3.382,-0.624,0.0
26.163,-2.955,-0.685,0.0
23.227,-2.621,-0.732,0.0
21.042,-2.373,-0.777,0.0
19.118,-2.155,-0.808,0.0
17.458,-1.966,-0.831,0.0
0.0,0.0,0.0,0.0
27.747,-3.12,-0.692,0.0
24.2,-2.719,-0.732,0.0
21.587,-2.423,-0.77,0.0
19.888,-2.231,-0.815,0.0
17.479,-1.959,-0.81,0.0
31.921,-3.576,-0.587,0.0
0.0,0.0,0.0,0.0
24.929,-2.787,-0.723,0.0
22.163,-2.475,-0.763,0.0
19.944,-2.226,-0.793,0.0
17.916,-1.998,-0.808,0.0
34.066,-3.796,-0.584,0.0
28.501,-3.172,-0.64,0.0
25.774,-2.866,-0.716,0.0
22.581,-2.508,-0.749,0.0
20.61,-2.287,-0.794,0.0
18.871,-2.092,-0.827,0.0
34.614,-3.835,-0.55,0.0
29.99,-3.319,-0.636,0.0
26.577,-2.938,-0.705,0.0
23.269,-2.57,-0.743,0.0
20.977,-2.314,-0.782,0.0
19.202,-2.116,-0.818,0.0
0.0,0.0,0.0,0.0
30.526,-3.358,-0.61,0.0
26.863,-2.951,-0.68,0.0
23.841,-2.616,-0.733,0.0
21.447,-2.351,-0.773,0.0
19.504,-2.135,-0.807,0.0
0.0,0.0,0.0,0.0
0.0,0.0,0.0,0.0
0.0,0.0,0.0,0.0
24.879,-2.712,-0.734,0.0
22.079,-2.404,-0.769,0.0
19.937,-2.168,-0.801,0.0
39.912,-4.337,-0.489,0.0
0.0,0.0,0.0,0.0
0.0,0.0,0.0,0.0
25.156,-2.722,-0.712,0.0
22.628,-2.445,-0.761,0.0
20.368,-2.198,-0.794,0.0
40.072,-4.323,-0.443,0.0
0.0,0.0,0.0,0.0
0.0,0.0,0.0,0.0
25.747,-2.765,-0.698,0.0
22.957,-2.462,-0.745,0.0
20.712,-2.218,-0.782,0.0
42.156,-4.512,-0.415,0.0
36.494,-3.899,-0.553,0.0
30.653,-3.27,-0.628,0.0
26.462,-2.818,-0.686,0.0
0.0,0.0,0.0,0.0
21.084,-2.239,-0.771,0.0
0.0,0.0,0.0,0.0
36.635,-3.881,-0.513,0.0
0.0,0.0,0.0,0.0
27.272,-2.88,-0.675,0.0
24.433,-2.575,-0.735,0.0
21.722,-2.286,-0.769,0.0
0.0,0.0,0.0,0.0
37.714,-3.96,-0.484,0.0
32.818,-3.44,-0.596,0.0
26.044,-2.725,-0.614,0.0
25.042,-2.616,-0.724,0.0
22.416,-2.337,-0.768,0.0
0.0,0.0,0.0,0.0
0.0,0.0,0.0,0.0
32.473,-3.372,-0.552,0.0
28.986,-3.004,-0.65,0.0
25.98,-2.687,-0.721,0.0
22.761,-2.35,-0.753,0.0
0.0,0.0,0.0,0.0
40.436,-4.164,-0.425,0.0
35.05,-3.603,-0.555,0.0
30.583,-3.137,-0.65,0.0
26.134,-2.676,-0.695,0.0
0.0,0.0,0.0,0.0
0.0,0.0,0.0,0.0
0.0,0.0,0.0,0.0
36.635,-3.726,-0.539,0.0
30.711,-3.117,-0.619,0.0
27.042,-2.739,-0.689,0.0
23.76,-2.402,-0.732,0.0
0.0,0.0,0.0,0.0
0.0,0.0,0.0,0.0
37.563,-3.778,-0.511,0.0
0.0,0.0,0.0,0.0
27.747,-2.779,-0.676,0.0
24.371,-2.435,-0.724,0.0
0.0,0.0,0.0,0.0
47.053,-4.689,-0.338,0.0
39.144,-3.892,-0.49,0.0
32.387,-3.213,-0.582,0.0
28.562,-2.827,-0.666,0.0
25.132,-2.482,-0.72,0.0
0.0,0.0,0.0,0.0
0.0,0.0,0.0,0.0
0.0,0.0,0.0,0.0
0.0,0.0,0.0,0.0
29.398,-2.874,-0.653,0.0
25.723,-2.509,-0.709,0.0
0.0,0.0,0.0,0.0
51.419,-5.001,-0.26,0.0
0.0,0.0,0.0,0.0
0.0,0.0,0.0,0.0
29.883,-2.885,-0.633,0.0
26.377,-2.54,-0.7,0.0
90.332,-8.695,0.118,1.0
0.0,0.0,0.0,0.0
0.0,0.0,0.0,0.0
36.785,-3.513,-0.545,0.0
30.175,-2.874,-0.608,0.0
26.958,-2.561,-0.687,0.0
90.363,-8.58,0.21,14.0
0.0,0.0,0.0,0.0
44.312,-4.184,-0.37,0.0
37.233,-3.506,-0.513,0.0
0.0,0.0,0.0,0.0
27.78,-2.602,-0.68,0.0
90.385,-8.461,0.302,20.0
0.0,0.0,0.0,0.0
47.004,-4.374,-0.345,0.0
0.0,0.0,0.0,0.0
32.484,-3.006,-0.59,0.0
0.0,0.0,0.0,0.0
90.423,-8.339,0.391,23.0
0.0,0.0,0.0,0.0
0.0,0.0,0.0,0.0
39.183,-3.581,-0.463,0.0
0.0,0.0,0.0,0.0
28.508,-2.59,-0.643,0.0
90.35,-8.205,0.478,16.0
0.0,0.0,0.0,0.0
0.0,0.0,0.0,0.0
0.0,0.0,0.0,0.0
35.416,-3.176,-0.575,0.0
29.587,-2.645,-0.639,0.0
90.407,-8.08,0.562,35.0
0.0,0.0,0.0,0.0
0.0,0.0,0.0,0.0
0.0,0.0,0.0,0.0
0.0,0.0,0.0,0.0
30.177,-2.654,-0.625,0.0
90.424,-7.947,0.643,34.0
90.416,-7.92,0.158,4.0
0.0,0.0,0.0,0.0
43.819,-3.812,-0.398,0.0
0.0,0.0,0.0,0.0
31.226,-2.699,-0.619,0.0
90.402,-7.809,0.722,39.0
90.383,-7.78,0.236,13.0
0.0,0.0,0.0,0.0
44.733,-3.824,-0.367,0.0
36.757,-3.131,-0.499,0.0
32.068,-2.722,-0.608,0.0
90.406,-7.67,0.8,39.0
90.413,-7.643,0.313,21.0
0.0,0.0,0.0,0.0
0.0,0.0,0.0,0.0
38.805,-3.244,-0.494,0.0
32.418,-2.7,-0.587,0.0
90.419,-7.528,0.875,49.0
90.426,-7.499,0.389,64.0
0.0,0.0,0.0,0.0
0.0,0.0,0.0,0.0
38.91,-3.191,-0.464,0.0
34.187,-2.793,-0.592,0.0
100.058,-8.168,1.048,15.0
100.042,-8.134,0.51,11.0
0.0,0.0,0.0,0.0
0.0,0.0,0.0,0.0
41.485,-3.334,-0.463,0.0
33.515,-2.683,-0.554,0.0
100.088,-8.007,1.126,15.0
100.069,-7.972,0.587,12.0
0.0,0.0,0.0,0.0
0.0,0.0,0.0,0.0
41.581,-3.273,-0.432,0.0
33.717,-2.643,-0.532,0.0
100.105,-7.842,1.2,14.0
100.097,-7.808,0.66,12.0
0.0,0.0,0.0,0.0
0.0,0.0,0.0,0.0
41.963,-3.232,-0.406,0.0
0.0,0.0,0.0,0.0
100.096,-7.669,1.272,12.0
100.102,-7.636,0.732,12.0
98.987,-7.518,0.189,2.0
0.0,0.0,0.0,0.0
0.0,0.0,0.0,0.0
36.913,-2.767,-0.531,0.0
100.111,-7.498,1.34,9.0
100.098,-7.464,0.799,14.0
98.916,-7.342,0.255,8.0
0.0,0.0,0.0,0.0
0.0,0.0,0.0,0.0
36.929,-2.705,-0.507,0.0
100.071,-7.321,1.405,8.0
100.102,-7.289,0.863,12.0
98.916,-7.169,0.317,12.0
0.0,0.0,0.0,0.0
0.0,0.0,0.0,0.0
37.092,-2.651,-0.486,0.0
100.146,-7.148,1.467,7.0
100.053,-7.106,0.924,11.0
99.042,-7.0,0.379,13.0
0.0,0.0,0.0,0.0
0.0,0.0,0.0,0.0
0.0,0.0,0.0,0.0
100.079,-6.962,1.526,6.0
100.112,-6.928,0.984,7.0
99.542,-6.853,0.439,9.0
0.0,0.0,0.0,0.0
0.0,0.0,0.0,0.0
39.501,-2.679,-0.472,0.0
0.0,0.0,0.0,0.0
0.0,0.0,0.0,0.0
99.606,-6.674,0.494,8.0
0.0,0.0,0.0,0.0
0.0,0.0,0.0,0.0
39.946,-2.635,-0.456,0.0
106.027,-6.983,1.732,7.0
125.222,-8.201,1.365,14.0
108.981,-7.097,0.597,2.0
0.0,0.0,0.0,0.0
0.0,0.0,0.0,0.0
0.0,0.0,0.0,0.0
125.244,-8.013,2.108,30.0
125.334,-7.973,1.427,10.0
108.909,-6.889,0.648,2.0
0.0,0.0,0.0,0.0
0.0,0.0,0.0,0.0
42.342,-2.633,-0.442,0.0
148.352,-9.207,2.564,18.0
148.501,-9.164,1.759,8.0
0.0,0.0,0.0,0.0
0.0,0.0,0.0,0.0
0.0,0.0,0.0,0.0
41.748,-2.516,-0.418,0.0
148.56,-8.935,2.63,24.0
149.824,-8.957,1.836,17.0
149.903,-8.907,1.021,3.0
0.0,0.0,0.0,0.0
0.0,0.0,0.0,0.0
42.46,-2.477,-0.409,0.0
149.527,-8.703,2.706,19.0
140.717,-8.138,1.778,11.0
140.73,-8.087,1.011,12.0
0.0,0.0,0.0,0.0
0.0,0.0,0.0,0.0
0.0,0.0,0.0,0.0
140.705,-7.913,2.595,27.0
101.612,-5.677,1.319,5.0
101.488,-5.633,0.763,152.0
101.475,-5.594,0.199,3.0
0.0,0.0,0.0,0.0
0.0,0.0,0.0,0.0
0.0,0.0,0.0,0.0
101.531,-5.473,1.349,10.0
0.0,0.0,0.0,0.0
0.0,0.0,0.0,0.0
0.0,0.0,0.0,0.0
0.0,0.0,0.0,0.0
104.02,-5.438,1.98,1.0
0.0,0.0,0.0,0.0
101.544,-5.233,0.822,2.0
0.0,0.0,0.0,0.0
0.0,0.0,0.0,0.0
0.0,0.0,0.0,0.0
0.0,0.0,0.0,0.0
0.0,0.0,0.0,0.0
101.535,-5.029,0.845,150.0
0.0,0.0,0.0,0.0
0.0,0.0,0.0,0.0
45.631,-2.209,-0.374,0.0
0.0,0.0,0.0,0.0
0.0,0.0,0.0,0.0
101.57,-4.826,0.866,151.0
0.0,0.0,0.0,0.0
0.0,0.0,0.0,0.0
0.0,0.0,0.0,0.0
0.0,0.0,0.0,0.0
0.0,0.0,0.0,0.0
101.581,-4.619,0.881,1.0
0.0,0.0,0.0,0.0
0.0,0.0,0.0,0.0
45.665,-2.026,-0.36,0.0
0.0,0.0,0.0,0.0
101.525,-4.447,1.451,34.0
0.0,0.0,0.0,0.0
0.0,0.0,0.0,0.0
0.0,0.0,0.0,0.0
0.0,0.0,0.0,0.0
0.0,0.0,0.0,0.0
101.556,-4.24,1.461,97.0
101.505,-4.199,0.902,150.0
0.0,0.0,0.0,0.0
0.0,0.0,0.0,0.0
0.0,0.0,0.0,0.0
162.251,-6.498,3.236,19.0
0.0,0.0,0.0,0.0
0.0,0.0,0.0,0.0
0.0,0.0,0.0,0.0
0.0,0.0,0.0,0.0
0.0,0.0,0.0,0.0
162.233,-6.161,3.239,17.0
162.03,-6.091,2.342,16.0
162.357,-6.045,1.452,6.0
0.0,0.0,0.0,0.0
0.0,0.0,0.0,0.0
0.0,0.0,0.0,0.0
162.224,-5.821,3.237,16.0
162.225,-5.759,2.341,17.0
162.208,-5.697,1.446,6.0
0.0,0.0,0.0,0.0
0.0,0.0,0.0,0.0
0.0,0.0,0.0,0.0
162.282,-5.481,3.228,21.0
162.161,-5.419,2.331,23.0
162.04,-5.353,1.434,5.0
0.0,0.0,0.0,0.0
0.0,0.0,0.0,0.0
0.0,0.0,0.0,0.0
162.418,-5.146,3.216,3.0
161.975,-5.07,2.312,23.0
0.0,0.0,0.0,0.0
0.0,0.0,0.0,0.0
0.0,0.0,0.0,0.0
0.0,0.0,0.0,0.0
167.928,-4.97,3.303,12.0
161.84,-4.732,2.288,21.0
0.0,0.0,0.0,0.0
0.0,0.0,0.0,0.0
0.0,0.0,0.0,0.0
0.0,0.0,0.0,0.0
168.274,-4.627,3.282,4.0
161.936,-4.393,2.261,17.0
162.052,-4.336,1.365,6.0
0.0,0.0,0.0,0.0
0.0,0.0,0.0,0.0
0.0,0.0,0.0,0.0
170.407,-4.331,3.289,7.0
161.904,-4.055,2.227,17.0
160.825,-3.969,1.32,4.0
0.0,0.0,0.0,0.0
0.0,0.0,0.0,0.0
0.0,0.0,0.0,0.0
170.37,-3.972,3.247,12.0
0.0,0.0,0.0,0.0
100.059,-2.259,0.795,1.0
0.0,0.0,0.0,0.0
0.0,0.0,0.0,0.0
0.0,0.0,0.0,0.0
170.247,-3.61,3.197,6.0
99.925,-2.082,1.321,16.0
99.811,-2.044,0.764,9.0
0.0,0.0,0.0,0.0
0.0,0.0,0.0,0.0
0.0,0.0,0.0,0.0
19.777,0.269,0.165,6.0
0.0,0.0,0.0,0.0
19.703,0.28,-0.057,0.0
19.692,0.286,-0.17,2.0
19.672,0.292,-0.281,6.0
29.624,0.449,-0.591,0.0
114.281,1.776,0.849,4.0
55.214,0.875,0.098,10.0
0.0,0.0,0.0,0.0
35.979,0.592,-0.346,0.0
0.0,0.0,0.0,0.0
28.776,0.492,-0.602,0.0
55.178,0.963,0.357,73.0
55.161,0.979,0.045,56.0
43.405,0.784,-0.209,0.0
35.574,0.653,-0.376,0.0
29.724,0.555,-0.482,0.0
28.24,0.535,-0.618,0.0
112.971,2.184,0.62,3.0
55.096,1.081,-0.009,17.0
41.841,0.833,-0.243,1.0
33.295,0.673,-0.385,3.0
29.264,0.6,-0.504,3.0
26.467,0.551,-0.606,3.0
81.302,1.724,0.363,3.0
52.495,1.129,-0.062,1.0
40.632,0.886,-0.278,1.0
32.692,0.722,-0.412,0.0
28.603,0.64,-0.523,0.0
24.081,0.546,-0.577,0.0
45.552,1.05,0.155,0.0
0.0,0.0,0.0,0.0
38.576,0.912,-0.305,3.0
31.781,0.761,-0.435,0.0
26.325,0.638,-0.51,0.0
22.899,0.561,-0.573,0.0
0.0,0.0,0.0,0.0
0.0,0.0,0.0,0.0
36.955,0.94,-0.333,3.0
30.089,0.774,-0.445,1.0
25.891,0.674,-0.53,2.0
21.998,0.579,-0.575,0.0
40.145,1.07,0.049,158.0
40.104,1.08,-0.178,150.0
36.452,0.992,-0.369,2.0
29.364,0.808,-0.467,1.0
25.188,0.699,-0.543,1.0
21.68,0.608,-0.591,0.0
40.06,1.139,0.003,52.0
40.02,1.149,-0.224,44.0
40.158,1.164,-0.452,1.0
27.491,0.804,-0.468,9.0
24.192,0.714,-0.55,0.0
20.813,0.62,-0.591,1.0
40.127,1.21,-0.042,150.0
39.98,1.216,-0.269,18.0
40.131,1.232,-0.499,2.0
27.67,0.857,-0.504,2.0
23.484,0.733,-0.561,0.0
20.36,0.641,-0.602,0.0
40.125,1.278,-0.09,150.0
39.852,1.28,-0.316,3.0
40.137,1.3,-0.546,1.0
26.366,0.861,-0.511,1.0
22.431,0.738,-0.563,0.0
19.884,0.66,-0.612,1.0
40.132,1.345,-0.138,150.0
40.17,1.358,-0.367,2.0
29.867,1.017,-0.443,1.0
25.537,0.876,-0.527,1.0
21.686,0.75,-0.571,1.0
19.516,0.68,-0.625,3.0
40.061,1.41,-0.188,71.0
40.152,1.424,-0.417,1.0
28.985,1.035,-0.466,2.0
24.612,0.885,-0.538,1.0
21.304,0.772,-0.588,2.0
18.862,0.688,-0.628,3.0
39.976,1.472,-0.238,2.0
32.855,1.218,-0.383,0.0
27.695,1.034,-0.481,6.0
23.631,0.888,-0.547,5.0
20.593,0.779,-0.594,1.0
18.426,0.702,-0.637,3.0
40.04,1.539,-0.291,5.0
32.025,1.238,-0.415,0.0
27.177,1.058,-0.507,7.0
23.362,0.915,-0.571,5.0
19.857,0.783,-0.599,2.0
18.0,0.714,-0.646,3.0
36.758,1.47,-0.315,1.0
29.693,1.195,-0.424,1.0
23.683,0.959,-0.473,10.0
21.974,0.895,-0.567,1.0
19.504,0.799,-0.614,2.0
17.72,0.73,-0.66,2.0
23.656,0.982,-0.234,3.0
23.65,0.988,-0.37,24.0
23.673,0.995,-0.505,32.0
21.214,0.896,-0.576,3.0
18.822,0.8,-0.619,3.0
17.308,0.74,-0.668,2.0
23.635,1.017,-0.266,49.0
23.629,1.023,-0.401,41.0
23.627,1.028,-0.537,33.0
20.672,0.904,-0.59,1.0
18.42,0.81,-0.631,3.0
17.043,0.754,-0.681,3.0
23.625,1.052,-0.299,79.0
23.632,1.058,-0.434,90.0
23.375,1.051,-0.563,11.0
19.786,0.894,-0.592,2.0
18.037,0.82,-0.643,2.0
16.888,0.771,-0.699,3.0
23.615,1.085,-0.332,64.0
23.623,1.091,-0.467,53.0
0.0,0.0,0.0,0.0
19.393,0.904,-0.607,3.0
17.674,0.828,-0.655,2.0
16.72,0.787,-0.715,1.0
23.643,1.12,-0.366,38.0
23.649,1.125,-0.501,28.0
21.175,1.012,-0.57,1.0
18.759,0.901,-0.614,3.0
17.244,0.831,-0.663,1.0
16.545,0.801,-0.731,1.0
23.67,1.153,-0.4,1.0
23.709,1.16,-0.536,37.0
20.625,1.013,-0.585,0.0
18.346,0.905,-0.627,3.0
17.014,0.843,-0.679,2.0
16.345,0.814,-0.746,2.0
26.495,1.326,-0.487,1.0
23.395,1.176,-0.563,5.0
19.794,0.999,-0.59,2.0
18.052,0.915,-0.643,2.0
16.85,0.857,-0.697,2.0
16.197,0.828,-0.763,1.0
25.281,1.298,-0.501,1.0
21.691,1.118,-0.555,0.0
19.213,0.994,-0.601,3.0
17.589,0.914,-0.653,0.0
16.711,0.872,-0.716,2.0
16.0,0.838,-0.778,3.0
24.34,1.28,-0.519,2.0
20.894,1.103,-0.565,5.0
18.714,0.992,-0.613,3.0
17.165,0.913,-0.663,1.0
16.485,0.88,-0.731,2.0
15.915,0.853,-0.797,1.0
23.444,1.262,-0.535,0.0
20.233,1.093,-0.578,2.0
18.288,0.991,-0.627,2.0
16.974,0.923,-0.681,2.0
16.292,0.89,-0.748,1.0
15.439,0.846,-0.797,0.0
19.8,1.089,-0.482,6.0
19.693,1.087,-0.592,3.0
17.932,0.993,-0.642,2.0
16.81,0.934,-0.7,1.0
16.086,0.897,-0.763,1.0
15.049,0.842,-0.8,0.0
19.761,1.11,-0.511,10.0
19.078,1.075,-0.603,3.0
17.45,0.986,-0.652,1.0
16.624,0.943,-0.718,1.0
15.967,0.908,-0.782,4.0
14.677,0.838,-0.803,0.0
19.734,1.13,-0.541,8.0
18.555,1.066,-0.615,3.0
17.113,0.986,-0.666,1.0
16.366,0.946,-0.732,1.0
15.821,0.917,-0.799,0.0
14.305,0.832,-0.805,0.0
19.704,1.15,-0.571,12.0
18.203,1.065,-0.632,2.0
16.907,0.992,-0.684,1.0
16.221,0.955,-0.751,1.0
15.224,0.899,-0.793,0.0
13.948,0.826,-0.806,0.0
19.472,1.156,-0.594,6.0
17.757,1.057,-0.644,1.0
16.762,1.001,-0.704,1.0
16.014,0.959,-0.767,2.0
14.876,0.893,-0.798,0.0
13.774,0.829,-0.818,0.0
18.832,1.137,-0.604,3.0
17.3,1.047,-0.655,1.0
16.551,1.004,-0.722,1.0
15.935,0.97,-0.788,1.0
14.491,0.884,-0.8,0.0
13.384,0.819,-0.816,0.0
18.375,1.127,-0.619,3.0
17.022,1.046,-0.671,1.0
16.292,1.004,-0.736,1.0
15.358,0.949,-0.784,0.0
14.139,0.876,-0.803,0.0
13.123,0.815,-0.821,0.0
18.004,1.12,-0.635,2.0
16.823,1.049,-0.69,1.0
16.092,1.006,-0.753,2.0
15.003,0.94,-0.79,0.0
13.816,0.868,-0.807,0.0
12.884,0.812,-0.827,0.0
17.504,1.105,-0.645,1.0
16.653,1.053,-0.71,1.0
15.977,1.013,-0.773,1.0
14.64,0.93,-0.794,0.0
13.701,0.873,-0.822,0.0
12.65,0.807,-0.832,0.0
17.154,1.097,-0.66,1.0
16.426,1.052,-0.726,1.0
15.55,0.998,-0.777,0.0
14.354,0.924,-0.802,0.0
13.277,0.856,-0.818,0.0
12.427,0.803,-0.838,0.0
16.907,1.094,-0.677,1.0
16.197,1.05,-0.742,1.0
15.223,0.989,-0.785,0.0
13.926,0.907,-0.8,0.0
13.01,0.849,-0.823,0.0
12.28,0.803,-0.847,0.0
16.762,1.097,-0.698,2.0
16.006,1.05,-0.759,1.0
14.796,0.972,-0.787,0.0
13.596,0.895,-0.803,0.0
12.691,0.837,-0.823,0.0
12.014,0.794,-0.848,0.0
16.539,1.094,-0.715,1.0
15.802,1.047,-0.774,0.0
14.521,0.964,-0.796,0.0
13.357,0.889,-0.81,0.0
12.606,0.84,-0.838,0.0
11.754,0.785,-0.849,0.0
16.296,1.089,-0.731,1.0
15.388,1.03,-0.779,0.0
14.032,0.941,-0.791,0.0
13.142,0.883,-0.818,0.0
12.364,0.832,-0.841,0.0
11.523,0.777,-0.851,0.0
16.087,1.085,-0.747,1.0
14.949,1.01,-0.78,0.0
13.745,0.93,-0.797,0.0
12.864,0.872,-0.822,0.0
12.172,0.826,-0.848,0.0
11.392,0.775,-0.859,0.0
15.946,1.085,-0.766,3.0
14.53,0.99,-0.782,0.0
13.421,0.916,-0.8,0.0
12.672,0.866,-0.829,0.0
11.891,0.814,-0.847,0.0
11.223,0.769,-0.865,0.0
15.661,1.073,-0.777,0.0
14.299,0.982,-0.792,0.0
13.215,0.909,-0.809,0.0
12.459,0.858,-0.835,0.0
11.652,0.803,-0.849,0.0
10.977,0.758,-0.863,0.0
15.262,1.054,-0.782,0.0
14.152,0.978,-0.807,0.0
13.034,0.902,-0.818,0.0
12.263,0.85,-0.842,0.0
11.502,0.798,-0.856,0.0
10.797,0.751,-0.866,0.0
14.859,1.033,-0.785,0.0
13.586,0.945,-0.796,0.0
12.793,0.891,-0.823,0.0
12.069,0.842,-0.848,0.0
11.271,0.787,-0.857,0.0
10.595,0.741,-0.867,0.0
14.508,1.014,-0.789,0.0
13.299,0.931,-0.8,0.0
12.591,0.882,-0.83,0.0
11.762,0.825,-0.845,0.0
11.074,0.778,-0.86,0.0
10.453,0.735,-0.872,0.0
14.277,1.003,-0.799,0.0
13.094,0.921,-0.809,0.0
12.33,0.868,-0.833,0.0
11.555,0.815,-0.848,0.0
10.886,0.768,-0.863,0.0
10.306,0.728,-0.876,0.0
13.871,0.979,-0.798,0.0
12.915,0.912,-0.818,0.0
12.163,0.86,-0.84,0.0
11.459,0.811,-0.859,0.0
10.714,0.759,-0.866,0.0
10.196,0.723,-0.883,0.0
13.531,0.959,-0.8,0.0
12.712,0.901,-0.825,0.0
11.901,0.845,-0.841,0.0
11.22,0.797,-0.859,0.0
10.512,0.748,-0.866,0.0
10.052,0.716,-0.886,0.0
13.282,0.944,-0.806,0.0
12.471,0.887,-0.828,0.0
11.714,0.834,-0.846,0.0
10.957,0.781,-0.856,0.0
10.381,0.741,-0.871,0.0
9.898,0.707,-0.888,0.0
13.079,0.932,-0.813,0.0
12.263,0.875,-0.833,0.0
11.512,0.822,-0.849,0.0
10.898,0.779,-0.868,0.0
10.269,0.734,-0.877,0.0
9.766,0.699,-0.891,0.0
12.881,0.92,-0.82,0.0
12.099,0.865,-0.84,0.0
11.368,0.813,-0.855,0.0
10.637,0.761,-0.863,0.0
10.146,0.727,-0.882,0.0
9.63,0.691,-0.893,0.0
12.66,0.906,-0.825,0.0
11.914,0.853,-0.846,0.0
11.164,0.8,-0.857,0.0
10.461,0.75,-0.865,0.0
10.011,0.718,-0.885,0.0
9.486,0.681,-0.894,0.0
12.457,0.892,-0.831,0.0
11.631,0.833,-0.843,0.0
10.961,0.786,-0.858,0.0
10.295,0.738,-0.866,0.0
9.868,0.708,-0.888,0.0
9.331,0.67,-0.894,0.0
12.277,0.88,-0.837,0.0
11.495,0.824,-0.85,0.0
10.758,0.771,-0.858,0.0
10.192,0.731,-0.873,0.0
9.792,0.703,-0.895,0.0
9.219,0.662,-0.896,0.0
12.072,0.865,-0.841,0.0
11.306,0.81,-0.853,0.0
10.623,0.762,-0.863,0.0
10.125,0.726,-0.882,0.0
9.629,0.691,-0.895,0.0
9.134,0.656,-0.902,0.0
11.867,0.849,-0.844,0.0
11.144,0.798,-0.856,0.0
10.481,0.751,-0.866,0.0
9.97,0.714,-0.883,0.0
9.469,0.679,-0.893,0.0
8.974,0.644,-0.899,0.0
11.569,0.827,-0.839,0.0
11.001,0.786,-0.861,0.0
10.39,0.743,-0.874,0.0
9.877,0.707,-0.889,0.0
9.334,0.668,-0.894,0.0
8.831,0.632,-0.897,0.0
11.502,0.821,-0.85,0.0
10.756,0.767,-0.857,0.0
10.203,0.728,-0.872,0.0
9.734,0.695,-0.889,0.0
9.227,0.659,-0.897,0.0
8.727,0.623,-0.899,0.0
11.287,0.803,-0.85,0.0
10.623,0.756,-0.861,0.0
10.168,0.724,-0.883,0.0
9.607,0.684,-0.891,0.0
9.13,0.65,-0.9,0.0
8.622,0.614,-0.9,0.0
11.136,0.79,-0.854,0.0
10.455,0.742,-0.862,0.0
10.01,0.71,-0.883,0.0
9.482,0.673,-0.892,0.0
8.978,0.637,-0.897,0.0
8.525,0.605,-0.901,0.0
11.017,0.779,-0.859,0.0
10.391,0.735,-0.871,0.0
9.89,0.699,-0.886,0.0
9.388,0.664,-0.896,0.0
8.873,0.627,-0.899,0.0
8.452,0.598,-0.905,0.0
10.883,0.766,-0.864,0.0
10.263,0.722,-0.874,0.0
9.813,0.691,-0.892,0.0
9.242,0.65,-0.895,0.0
8.782,0.618,-0.901,0.0
8.336,0.587,-0.904,0.0
10.676,0.748,-0.861,0.0
10.146,0.711,-0.877,0.0
9.611,0.673,-0.886,0.0
9.168,0.642,-0.899,0.0
8.722,0.611,-0.906,0.0
8.228,0.576,-0.903,0.0
10.504,0.732,-0.86,0.0
10.05,0.7,-0.881,0.0
9.547,0.665,-0.892,0.0
9.065,0.631,-0.9,0.0
8.571,0.597,-0.901,0.0
8.167,0.569,-0.906,0.0
10.433,0.723,-0.867,0.0
9.94,0.689,-0.884,0.0
9.44,0.654,-0.894,0.0
8.938,0.619,-0.899,0.0
8.45,0.585,-0.899,0.0
8.072,0.559,-0.906,0.0
10.289,0.709,-0.868,0.0
9.876,0.68,-0.89,0.0
9.358,0.644,-0.897,0.0
8.835,0.608,-0.899,0.0
8.412,0.578,-0.905,0.0
8.031,0.552,-0.911,0.0
10.229,0.7,-0.875,0.0
9.702,0.663,-0.886,0.0
9.288,0.635,-0.902,0.0
8.773,0.599,-0.903,0.0
8.287,0.566,-0.901,0.0
7.982,0.545,-0.915,0.0
10.119,0.687,-0.877,0.0
9.633,0.654,-0.891,0.0
9.139,0.62,-0.898,0.0
8.694,0.589,-0.905,0.0
8.231,0.557,-0.905,0.0
7.904,0.535,-0.915,0.0
10.02,0.675,-0.88,0.0
9.542,0.642,-0.893,0.0
9.055,0.609,-0.9,0.0
8.549,0.574,-0.9,0.0
8.199,0.551,-0.91,0.0
7.843,0.526,-0.916,0.0
9.973,0.666,-0.887,0.0
9.421,0.628,-0.892,0.0
8.939,0.596,-0.898,0.0
8.49,0.565,-0.903,0.0
8.1,0.539,-0.908,0.0
7.81,0.519,-0.921,0.0
9.833,0.65,-0.885,0.0
9.342,0.617,-0.894,0.0
8.87,0.586,-0.9,0.0
8.382,0.553,-0.9,0.0
8.036,0.53,-0.91,0.0
7.793,0.513,-0.927,0.0
9.732,0.637,-0.886,0.0
9.263,0.606,-0.896,0.0
8.821,0.577,-0.904,0.0
8.349,0.545,-0.905,0.0
8.004,0.522,-0.914,0.0
7.725,0.504,-0.927,0.0
9.686,0.628,-0.891,0.0
9.179,0.594,-0.897,0.0
8.707,0.563,-0.901,0.0
8.271,0.534,-0.905,0.0
7.958,0.514,-0.917,0.0
7.7,0.497,-0.932,0.0
9.6,0.615,-0.893,0.0
9.097,0.582,-0.898,0.0
8.662,0.554,-0.905,0.0
8.197,0.524,-0.905,0.0
7.898,0.504,-0.917,0.0
7.588,0.484,-0.925,0.0
9.537,0.604,-0.896,0.0
9.067,0.574,-0.904,0.0
8.567,0.542,-0.903,0.0
8.134,0.514,-0.905,0.0
7.826,0.494,-0.916,0.0
7.592,0.478,-0.933,0.0
9.456,0.592,-0.897,0.0
8.956,0.56,-0.901,0.0
8.507,0.531,-0.904,0.0
8.098,0.505,-0.908,0.0
7.81,0.486,-0.921,0.0
7.532,0.468,-0.932,0.0
9.378,0.579,-0.897,0.0
8.89,0.549,-0.902,0.0
8.458,0.521,-0.906,0.0
8.066,0.496,-0.912,0.0
7.767,0.477,-0.923,0.0
7.463,0.458,-0.93,0.0
9.306,0.567,-0.898,0.0
8.818,0.537,-0.901,0.0
8.398,0.51,-0.907,0.0
8.018,0.487,-0.913,0.0
7.746,0.469,-0.927,0.0
7.442,0.45,-0.933,0.0
9.261,0.557,-0.901,0.0
8.757,0.526,-0.902,0.0
8.335,0.499,-0.906,0.0
7.966,0.477,-0.913,0.0
7.706,0.46,-0.928,0.0
7.406,0.442,-0.934,0.0
9.167,0.543,-0.899,0.0
8.691,0.514,-0.902,0.0
8.309,0.49,-0.91,0.0
7.925,0.467,-0.914,0.0
7.675,0.452,-0.93,0.0
7.39,0.434,-0.938,0.0
9.091,0.53,-0.898,0.0
8.691,0.506,-0.908,0.0
8.239,0.479,-0.908,0.0
7.921,0.459,-0.919,0.0
7.622,0.441,-0.928,0.0
7.334,0.424,-0.936,0.0
9.081,0.521,-0.903,0.0
8.646,0.495,-0.909,0.0
8.171,0.467,-0.906,0.0
7.841,0.447,-0.915,0.0
7.616,0.434,-0.933,0.0
7.287,0.414,-0.934,0.0
9.051,0.511,-0.905,0.0
8.586,0.484,-0.908,0.0
8.144,0.458,-0.908,0.0
7.792,0.437,-0.914,0.0
7.553,0.423,-0.929,0.0
7.254,0.405,-0.934,0.0
8.977,0.498,-0.903,0.0
8.559,0.474,-0.91,0.0
8.156,0.45,-0.914,0.0
7.819,0.431,-0.922,0.0
7.536,0.414,-0.932,0.0
7.235,0.397,-0.936,0.0
8.914,0.486,-0.902,0.0
8.504,0.462,-0.909,0.0
8.13,0.441,-0.915,0.0
7.795,0.422,-0.923,0.0
7.521,0.406,-0.934,0.0
7.242,0.39,-0.941,0.0
8.911,0.476,-0.906,0.0
8.485,0.452,-0.911,0.0
8.076,0.43,-0.913,0.0
7.772,0.412,-0.924,0.0
7.485,0.396,-0.933,0.0
7.243,0.383,-0.944,0.0
8.851,0.464,-0.904,0.0
8.455,0.442,-0.912,0.0
8.06,0.42,-0.915,0.0
7.723,0.402,-0.922,0.0
7.481,0.388,-0.936,0.0
7.24,0.375,-0.947,0.0
8.861,0.455,-0.909,0.0
8.43,0.432,-0.912,0.0
8.012,0.409,-0.913,0.0
7.694,0.392,-0.921,0.0
7.442,0.378,-0.934,0.0
7.226,0.366,-0.948,0.0
8.812,0.443,-0.907,0.0
8.417,0.422,-0.914,0.0
8.021,0.401,-0.917,0.0
7.713,0.385,-0.926,0.0
7.454,0.371,-0.938,0.0
7.196,0.357,-0.947,0.0
8.8,0.433,-0.909,0.0
8.376,0.411,-0.912,0.0
7.993,0.391,-0.916,0.0
7.718,0.376,-0.929,0.0
7.411,0.36,-0.935,0.0
7.18,0.348,-0.947,0.0
8.794,0.423,-0.911,0.0
8.341,0.4,-0.911,0.0
7.999,0.382,-0.919,0.0
7.674,0.366,-0.926,0.0
7.39,0.351,-0.934,0.0
7.182,0.34,-0.949,0.0
8.789,0.413,-0.912,0.0
8.326,0.39,-0.911,0.0
7.99,0.373,-0.92,0.0
7.666,0.357,-0.927,0.0
7.414,0.344,-0.939,0.0
7.18,0.332,-0.95,0.0
8.778,0.403,-0.913,0.0
8.335,0.381,-0.914,0.0
7.988,0.364,-0.921,0.0
7.671,0.348,-0.929,0.0
7.391,0.334,-0.937,0.0
7.141,0.322,-0.946,0.0
8.779,0.393,-0.914,0.0
8.331,0.371,-0.915,0.0
7.963,0.354,-0.919,0.0
7.677,0.34,-0.931,0.0
7.376,0.325,-0.936,0.0
7.154,0.314,-0.949,0.0
8.763,0.382,-0.914,0.0
8.291,0.36,-0.911,0.0
7.999,0.346,-0.924,0.0
7.648,0.329,-0.928,0.0
7.385,0.317,-0.938,0.0
7.15,0.306,-0.949,0.0
8.783,0.372,-0.916,0.0
8.295,0.35,-0.912,0.0
7.959,0.335,-0.92,0.0
7.67,0.321,-0.931,0.0
7.387,0.308,-0.938,0.0
7.139,0.297,-0.947,0.0
8.733,0.36,-0.911,0.0
8.338,0.342,-0.917,0.0
7.976,0.326,-0.922,0.0
7.662,0.312,-0.93,0.0
7.385,0.299,-0.938,0.0
7.138,0.288,-0.947,0.0
8.775,0.352,-0.915,0.0
8.334,0.332,-0.916,0.0
7.982,0.317,-0.922,0.0
7.655,0.302,-0.929,0.0
7.415,0.292,-0.941,0.0
7.13,0.279,-0.946,0.0
8.757,0.34,-0.913,0.0
8.363,0.323,-0.919,0.0
7.994,0.308,-0.923,0.0
7.684,0.294,-0.932,0.0
7.391,0.282,-0.938,0.0
7.136,0.271,-0.946,0.0
8.775,0.33,-0.914,0.0
8.353,0.313,-0.917,0.0
7.989,0.298,-0.922,0.0
7.721,0.286,-0.935,0.0
7.397,0.273,-0.937,0.0
7.155,0.263,-0.947,0.0
8.81,0.321,-0.916,0.0
8.374,0.304,-0.917,0.0
8.02,0.289,-0.924,0.0
7.699,0.276,-0.931,0.0
7.431,0.265,-0.94,0.0
7.153,0.254,-0.945,0.0
8.796,0.31,-0.913,0.0
8.397,0.294,-0.918,0.0
8.009,0.279,-0.921,0.0
7.716,0.268,-0.931,0.0
7.434,0.257,-0.939,0.0
7.208,0.247,-0.951,0.0
8.806,0.3,-0.912,0.0
8.412,0.285,-0.918,0.0
8.048,0.271,-0.923,0.0
7.756,0.26,-0.934,0.0
7.46,0.248,-0.94,0.0
7.192,0.238,-0.947,0.0
8.88,0.291,-0.917,0.0
8.456,0.276,-0.92,0.0
8.074,0.262,-0.923,0.0
7.761,0.25,-0.932,0.0
7.459,0.239,-0.937,0.0
7.213,0.23,-0.947,0.0
8.905,0.281,-0.916,0.0
8.486,0.267,-0.92,0.0
8.122,0.254,-0.926,0.0
7.793,0.242,-0.933,0.0
7.506,0.231,-0.94,0.0
7.249,0.222,-0.949,0.0
8.931,0.271,-0.915,0.0
8.515,0.257,-0.92,0.0
8.159,0.245,-0.927,0.0
7.787,0.232,-0.929,0.0
7.53,0.223,-0.94,0.0
7.255,0.213,-0.947,0.0
8.952,0.261,-0.914,0.0
8.549,0.248,-0.92,0.0
8.158,0.235,-0.923,0.0
7.828,0.224,-0.93,0.0
7.547,0.214,-0.939,0.0
7.274,0.205,-0.946,0.0
8.989,0.252,-0.913,0.0
8.59,0.239,-0.92,0.0
8.222,0.227,-0.926,0.0
7.902,0.216,-0.935,0.0
7.58,0.206,-0.939,0.0
7.292,0.197,-0.944,0.0
9.022,0.242,-0.912,0.0
8.63,0.229,-0.92,0.0
8.246,0.217,-0.924,0.0
7.891,0.207,-0.929,0.0
7.612,0.198,-0.939,0.0
7.313,0.188,-0.943,0.0
9.088,0.232,-0.913,0.0
8.641,0.219,-0.916,0.0
8.294,0.209,-0.925,0.0
7.907,0.197,-0.926,0.0
7.67,0.19,-0.941,0.0
7.332,0.18,-0.941,0.0
9.128,0.223,-0.912,1.0
8.692,0.21,-0.916,0.0
8.361,0.201,-0.927,0.0
8.025,0.191,-0.935,0.0
7.696,0.181,-0.939,0.0
7.373,0.172,-0.941,0.0
9.144,0.212,-0.907,0.0
8.782,0.202,-0.919,0.0
8.401,0.191,-0.926,0.0
8.036,0.181,-0.931,0.0
7.719,0.173,-0.937,0.0
7.423,0.165,-0.942,0.0
9.127,0.201,-0.899,0.0
8.858,0.193,-0.921,0.0
8.439,0.182,-0.924,0.0
8.104,0.173,-0.933,0.0
7.77,0.165,-0.937,0.0
7.459,0.157,-0.941,0.0
9.336,0.194,-0.912,0.0
8.916,0.184,-0.92,0.0
8.484,0.173,-0.922,0.0
8.144,0.165,-0.931,0.0
7.781,0.156,-0.932,0.0
7.525,0.149,-0.943,0.0
9.407,0.185,-0.912,0.0
8.971,0.175,-0.919,0.0
8.565,0.165,-0.924,0.0
8.179,0.156,-0.928,0.0
7.855,0.148,-0.935,0.0
7.594,0.142,-0.946,0.0
9.468,0.175,-0.91,0.0
9.004,0.165,-0.915,0.0
8.641,0.156,-0.925,0.0
8.271,0.148,-0.932,0.0
7.929,0.14,-0.937,0.0
7.638,0.134,-0.944,0.0
9.537,0.166,-0.908,0.0
9.103,0.156,-0.916,0.0
8.717,0.148,-0.925,0.0
8.293,0.139,-0.926,0.0
8.015,0.133,-0.939,0.0
7.671,0.125,-0.941,0.0
9.623,0.156,-0.907,0.0
9.206,0.148,-0.918,0.0
8.786,0.139,-0.924,0.0
8.356,0.131,-0.926,0.0
8.043,0.124,-0.935,0.0
7.713,0.117,-0.939,0.0
9.687,0.147,-0.904,0.0
9.304,0.139,-0.919,0.0
8.834,0.13,-0.921,0.0
8.451,0.123,-0.928,0.0
8.123,0.116,-0.936,0.0
7.774,0.11,-0.939,0.0
9.821,0.138,-0.907,0.0
9.434,0.131,-0.922,0.0
8.921,0.122,-0.921,0.0
8.56,0.115,-0.931,0.0
8.15,0.108,-0.931,0.0
7.854,0.102,-0.94,0.0
9.901,0.128,-0.904,0.0
9.443,0.12,-0.913,0.0
8.972,0.113,-0.916,0.0
8.612,0.106,-0.927,0.0
8.246,0.1,-0.933,0.0
7.899,0.095,-0.937,0.0
9.976,0.119,-0.9,0.0
9.537,0.111,-0.912,0.0
9.062,0.104,-0.915,0.0
8.678,0.098,-0.925,0.0
8.309,0.092,-0.931,0.0
7.98,0.087,-0.937,0.0
10.153,0.11,-0.904,0.0
9.701,0.103,-0.916,0.0
9.205,0.096,-0.919,0.0
8.805,0.09,-0.928,0.0
8.393,0.084,-0.93,0.0
8.084,0.08,-0.94,0.0
10.264,0.101,-0.902,0.0
9.828,0.094,-0.917,0.0
9.319,0.088,-0.92,0.0
8.855,0.082,-0.923,0.0
8.477,0.077,-0.929,0.0
8.143,0.072,-0.937,0.0
10.412,0.092,-0.903,0.0
9.862,0.085,-0.908,0.0
9.411,0.079,-0.917,0.0
8.935,0.073,-0.92,0.0
8.583,0.069,-0.93,0.0
8.198,0.064,-0.933,0.0
10.572,0.082,-0.904,0.0
10.038,0.076,-0.912,0.0
9.53,0.071,-0.917,0.0
9.078,0.066,-0.923,0.0
8.662,0.061,-0.928,0.0
8.308,0.057,-0.935,0.0
10.677,0.073,-0.899,0.0
10.107,0.067,-0.905,0.0
9.602,0.062,-0.911,0.0
9.16,0.057,-0.92,0.0
8.755,0.053,-0.926,0.0
8.373,0.049,-0.931,0.0
10.838,0.064,-0.898,0.0
10.265,0.058,-0.906,0.0
9.703,0.054,-0.908,0.0
9.321,0.05,-0.923,0.0
8.883,0.046,-0.928,0.0
8.491,0.042,-0.932,0.0
10.992,0.055,-0.896,0.0
10.412,0.05,-0.904,0.0
9.889,0.045,-0.912,0.0
9.386,0.041,-0.917,0.0
8.961,0.038,-0.923,0.0
8.585,0.035,-0.931,0.0
11.163,0.045,-0.894,0.0
10.553,0.041,-0.902,0.0
10.038,0.037,-0.912,0.0
9.547,0.034,-0.919,0.0
9.075,0.03,-0.922,0.0
8.701,0.028,-0.931,0.0
11.312,0.036,-0.89,0.0
10.724,0.032,-0.901,0.0
10.172,0.029,-0.909,0.0
9.614,0.026,-0.911,0.0
9.193,0.023,-0.921,0.0
8.796,0.02,-0.928,0.0
11.518,0.027,-0.89,0.0
10.906,0.023,-0.9,0.0
10.327,0.02,-0.907,0.0
9.8,0.018,-0.914,0.0
9.341,0.015,-0.921,0.0
8.911,0.013,-0.927,0.0
11.679,0.017,-0.884,0.0
11.068,0.015,-0.897,0.0
10.487,0.012,-0.906,0.0
9.955,0.01,-0.914,0.0
9.471,0.008,-0.92,0.0
9.039,0.006,-0.926,0.0
11.886,0.008,-0.882,0.0
11.262,0.006,-0.895,0.0
10.673,0.004,-0.905,0.0
10.115,0.002,-0.913,0.0
9.618,0.0,-0.919,0.0
9.148,0.0,-0.923,0.0
12.079,0.0,-0.877,0.0
11.443,-0.002,-0.892,0.0
10.831,-0.003,-0.901,0.0
10.275,-0.005,-0.911,0.0
9.737,-0.006,-0.915,0.0
9.318,-0.007,-0.925,0.0
12.348,-0.009,-0.877,0.0
11.666,-0.011,-0.89,0.0
11.024,-0.012,-0.9,0.0
10.424,-0.013,-0.907,0.0
9.9,-0.013,-0.914,0.0
9.438,-0.014,-0.922,0.0
12.569,-0.018,-0.873,0.0
11.84,-0.019,-0.885,0.0
11.204,-0.02,-0.896,0.0
10.611,-0.02,-0.906,0.0
10.088,-0.021,-0.915,0.0
9.635,-0.021,-0.925,0.0
12.789,-0.028,-0.867,0.0
12.039,-0.028,-0.879,0.0
11.384,-0.028,-0.892,0.0
10.782,-0.028,-0.902,0.0
10.25,-0.028,-0.912,0.0
9.708,-0.028,-0.915,0.0
13.06,-0.037,-0.863,0.0
12.302,-0.036,-0.878,0.0
11.595,-0.036,-0.889,0.0
10.981,-0.035,-0.901,0.0
10.426,-0.035,-0.91,0.0
9.899,-0.034,-0.916,0.0
13.35,-0.046,-0.86,0.0
12.539,-0.045,-0.873,0.0
11.83,-0.044,-0.886,0.0
11.173,-0.043,-0.897,0.0
10.612,-0.042,-0.908,0.0
10.064,-0.041,-0.914,0.0
13.65,-0.055,-0.855,0.0
12.79,-0.053,-0.869,0.0
12.034,-0.052,-0.881,0.0
11.398,-0.05,-0.895,0.0
10.793,-0.049,-0.904,0.0
10.253,-0.048,-0.913,0.0
13.953,-0.064,-0.85,0.0
13.072,-0.062,-0.865,0.0
12.295,-0.06,-0.878,0.0
11.611,-0.058,-0.891,0.0
11.018,-0.056,-0.904,0.0
10.432,-0.054,-0.91,0.0
14.353,-0.074,-0.849,0.0
13.344,-0.07,-0.859,0.0
12.581,-0.067,-0.876,0.0
11.834,-0.065,-0.887,0.0
11.205,-0.063,-0.898,0.0
10.638,-0.061,-0.909,0.0
14.756,-0.083,-0.845,0.0
13.719,-0.079,-0.858,0.0
12.794,-0.075,-0.867,0.0
12.062,-0.072,-0.882,0.0
11.443,-0.069,-0.896,0.0
10.86,-0.067,-0.908,0.0
15.151,-0.093,-0.84,0.0
14.043,-0.087,-0.852,0.0
13.17,-0.083,-0.868,0.0
12.367,-0.079,-0.881,0.0
11.675,-0.076,-0.893,0.0
11.056,-0.073,-0.903,0.0
15.459,-0.101,-0.829,1.0
14.372,-0.095,-0.845,0.0
13.465,-0.091,-0.862,0.0
12.651,-0.086,-0.877,1.0
11.891,-0.082,-0.887,0.0
11.281,-0.079,-0.901,0.0
15.744,-0.109,-0.815,0.0
14.883,-0.105,-0.848,0.0
13.81,-0.098,-0.858,0.0
12.837,-0.092,-0.866,0.0
12.119,-0.088,-0.881,0.0
11.501,-0.085,-0.896,0.0
16.49,-0.12,-0.822,0.0
15.269,-0.113,-0.841,0.0
14.135,-0.106,-0.852,0.0
13.223,-0.1,-0.867,0.0
12.447,-0.095,-0.881,0.0
11.733,-0.09,-0.892,0.0
17.111,-0.131,-0.82,0.0
15.682,-0.121,-0.833,0.0
14.607,-0.114,-0.852,0.0
13.545,-0.106,-0.862,0.0
12.765,-0.101,-0.879,2.0
11.939,-0.095,-0.884,0.0
17.561,-0.139,-0.808,0.0
15.959,-0.128,-0.817,0.0
14.981,-0.121,-0.845,0.0
13.894,-0.113,-0.857,0.0
12.995,-0.106,-0.869,0.0
12.232,-0.101,-0.882,0.0
18.24,-0.149,-0.804,0.0
16.684,-0.138,-0.822,0.0
15.412,-0.128,-0.839,0.0
14.277,-0.119,-0.853,0.0
13.341,-0.112,-0.866,0.0
12.54,-0.106,-0.879,0.0
19.0,-0.16,-0.8,0.0
17.351,-0.147,-0.82,0.0
15.804,-0.135,-0.829,0.0
14.781,-0.127,-0.854,0.0
13.654,-0.118,-0.859,0.0
12.798,-0.111,-0.872,0.0
19.629,-0.169,-0.787,2.0
17.854,-0.154,-0.809,0.0
16.357,-0.142,-0.826,0.0
15.186,-0.133,-0.847,0.0
14.037,-0.123,-0.855,0.0
13.17,-0.116,-0.871,0.0
19.756,-0.173,-0.753,9.0
18.683,-0.164,-0.809,0.0
16.846,-0.149,-0.817,0.0
15.593,-0.138,-0.838,0.0
14.487,-0.129,-0.854,0.0
13.491,-0.121,-0.865,0.0
19.792,-0.175,-0.715,7.0
19.36,-0.172,-0.8,0.0
17.582,-0.157,-0.817,0.0
15.987,-0.143,-0.827,0.0
14.962,-0.134,-0.851,0.0
13.896,-0.125,-0.863,0.0
21.939,-0.196,-0.748,0.0
19.684,-0.176,-0.773,3.0
18.208,-0.163,-0.809,0.0
16.587,-0.149,-0.824,0.0
15.439,-0.139,-0.847,0.0
14.222,-0.129,-0.854,0.0
19.799,-0.177,-0.635,0.0
19.778,-0.178,-0.736,10.0
18.958,-0.171,-0.804,0.0
17.313,-0.156,-0.825,0.0
15.8,-0.143,-0.835,0.0
14.738,-0.133,-0.855,0.0
19.791,-0.177,-0.594,2.0
19.799,-0.178,-0.697,1.0
19.62,-0.176,-0.792,2.0
17.812,-0.16,-0.813,0.0
16.356,-0.147,-0.831,0.0
15.17,-0.137,-0.849,0.0
19.777,-0.176,-0.554,5.0
22.337,-0.199,-0.741,0.0
19.752,-0.176,-0.757,8.0
18.553,-0.166,-0.809,0.0
16.964,-0.152,-0.827,0.0
15.572,-0.139,-0.84,0.0
19.765,-0.175,-0.513,8.0
19.782,-0.175,-0.615,3.0
19.782,-0.175,-0.717,6.0
19.335,-0.171,-0.803,0.0
17.611,-0.156,-0.822,0.0
16.014,-0.141,-0.83,0.0
19.76,-0.173,-0.472,11.0
19.779,-0.173,-0.574,6.0
19.788,-0.172,-0.676,2.0
19.689,-0.171,-0.777,3.0
18.294,-0.159,-0.816,0.0
16.585,-0.144,-0.825,0.0
19.757,-0.169,-0.431,13.0
19.76,-0.169,-0.533,10.0
19.776,-0.169,-0.635,6.0
19.753,-0.169,-0.738,10.0
18.974,-0.162,-0.807,0.0
17.339,-0.147,-0.827,0.0
19.758,-0.166,-0.39,14.0
19.748,-0.165,-0.492,12.0
19.762,-0.165,-0.594,9.0
19.777,-0.165,-0.699,7.0
19.631,-0.163,-0.794,2.0
17.74,-0.147,-0.81,0.0
19.759,-0.161,-0.349,15.0
19.742,-0.161,-0.451,15.0
19.756,-0.16,-0.553,13.0
19.765,-0.16,-0.657,10.0
19.751,-0.159,-0.758,9.0
18.745,-0.15,-0.817,0.0
19.748,-0.156,-0.308,15.0
19.75,-0.155,-0.41,17.0
19.746,-0.155,-0.512,17.0
19.757,-0.154,-0.616,13.0
19.765,-0.153,-0.718,10.0
19.464,-0.15,-0.807,1.0
19.757,-0.15,-0.267,16.0
19.738,-0.149,-0.369,16.0
19.742,-0.148,-0.47,17.0
19.736,-0.147,-0.574,16.0
19.768,-0.147,-0.677,14.0
19.707,-0.145,-0.777,5.0
19.751,-0.143,-0.227,16.0
19.752,-0.142,-0.328,17.0
19.731,-0.141,-0.43,17.0
19.727,-0.14,-0.533,18.0
19.739,-0.139,-0.635,17.0
19.75,-0.138,-0.737,14.0
19.745,-0.136,-0.185,16.0
19.73,-0.134,-0.287,17.0
19.742,-0.133,-0.389,16.0
19.724,-0.132,-0.492,17.0
19.736,-0.131,-0.594,16.0
19.75,-0.13,-0.696,17.0
19.731,-0.127,-0.144,16.0
19.734,-0.126,-0.246,17.0
19.735,-0.125,-0.348,17.0
19.72,-0.123,-0.451,17.0
19.742,-0.122,-0.553,17.0
19.749,-0.121,-0.656,16.0
19.728,-0.118,-0.104,16.0
19.725,-0.117,-0.205,16.0
19.741,-0.116,-0.307,15.0
19.729,-0.114,-0.41,17.0
19.736,-0.113,-0.512,16.0
19.755,-0.111,-0.615,16.0
19.753,-0.109,-0.063,9.0
19.727,-0.107,-0.164,16.0
19.731,-0.106,-0.266,16.0
19.735,-0.104,-0.37,15.0
19.734,-0.102,-0.471,16.0
19.756,-0.101,-0.574,16.0
19.727,-0.098,-0.022,14.0
19.72,-0.097,-0.123,16.0
19.73,-0.095,-0.225,16.0
19.743,-0.093,-0.329,14.0
19.751,-0.091,-0.431,15.0
19.756,-0.09,-0.533,15.0
19.709,-0.087,0.017,14.0
19.714,-0.085,-0.083,11.0
19.718,-0.083,-0.185,16.0
19.74,-0.082,-0.289,15.0
19.761,-0.08,-0.391,14.0
19.748,-0.078,-0.492,12.0
19.706,-0.075,0.058,14.0
19.708,-0.073,-0.043,16.0
19.718,-0.071,-0.144,16.0
19.735,-0.069,-0.248,14.0
19.763,-0.067,-0.351,12.0
19.767,-0.065,-0.453,6.0
19.707,-0.063,0.098,16.0
19.698,-0.061,-0.003,16.0
19.721,-0.058,-0.104,13.0
19.738,-0.056,-0.208,14.0
19.754,-0.054,-0.31,13.0
19.776,-0.052,-0.413,1.0
19.704,-0.049,0.138,18.0
19.704,-0.047,0.036,16.0
19.711,-0.045,-0.064,15.0
19.733,-0.043,-0.168,13.0
19.753,-0.04,-0.27,8.0
0.0,0.0,0.0,0.0
19.664,-0.035,0.178,12.0
19.692,-0.033,0.076,16.0
19.71,-0.03,-0.024,15.0
19.732,-0.028,-0.128,12.0
19.766,-0.026,-0.23,4.0
0.0,0.0,0.0,0.0
19.638,-0.02,0.217,16.0
19.689,-0.018,0.116,8.0
19.705,-0.015,0.015,13.0
19.751,-0.013,-0.089,6.0
19.789,-0.01,-0.191,1.0
0.0,0.0,0.0,0.0
19.64,-0.005,0.257,14.0
19.744,-0.002,0.156,4.0
19.762,0.0,0.054,5.0
19.745,0.002,-0.049,9.0
19.727,0.005,-0.151,0.0
19.803,0.008,-0.254,0.0
19.63,0.01,0.296,14.0
19.629,0.013,0.194,14.0
19.778,0.016,0.093,2.0
19.746,0.019,-0.01,9.0
19.786,0.021,-0.113,1.0
19.768,0.024,-0.215,4.0
19.624,0.027,0.334,18.0
19.627,0.03,0.233,16.0
19.749,0.033,0.132,15.0
19.731,0.036,0.028,15.0
19.763,0.039,-0.073,19.0
19.765,0.042,-0.175,15.0
19.621,0.044,0.373,14.0
19.612,0.048,0.271,12.0
19.681,0.051,0.17,9.0
19.752,0.054,0.067,44.0
19.754,0.057,-0.035,56.0
19.747,0.06,-0.137,34.0
19.614,0.063,0.411,21.0
19.609,0.066,0.31,13.0
19.623,0.069,0.208,14.0
19.681,0.072,0.105,18.0
19.749,0.076,0.003,42.0
19.769,0.079,-0.099,23.0
19.623,0.082,0.449,29.0
19.603,0.085,0.347,16.0
19.608,0.088,0.246,17.0
19.674,0.092,0.142,12.0
19.673,0.095,0.04,12.0
19.722,0.098,-0.061,4.0
19.604,0.101,0.487,21.0
19.614,0.104,0.385,26.0
19.616,0.108,0.283,14.0
19.652,0.111,0.18,15.0
19.648,0.115,0.078,14.0
19.645,0.118,-0.023,13.0
19.614,0.121,0.524,22.0
19.599,0.124,0.422,17.0
19.606,0.128,0.32,10.0
19.64,0.131,0.216,15.0
19.64,0.135,0.114,15.0
19.638,0.139,0.012,16.0
19.601,0.141,0.56,15.0
19.602,0.145,0.458,13.0
19.616,0.149,0.356,10.0
19.629,0.152,0.252,10.0
19.649,0.156,0.15,14.0
19.645,0.16,0.048,13.0
19.606,0.163,0.596,11.0
19.612,0.166,0.494,11.0
19.633,0.17,0.392,9.0
19.647,0.174,0.288,9.0
19.665,0.178,0.186,13.0
19.672,0.182,0.083,13.0
19.646,0.185,0.633,12.0
19.666,0.189,0.531,9.0
19.676,0.192,0.428,8.0
19.702,0.197,0.324,9.0
19.71,0.2,0.221,10.0
19.697,0.204,0.119,11.0
19.659,0.207,0.668,12.0
19.684,0.211,0.566,10.0
19.696,0.215,0.464,10.0
19.72,0.219,0.359,11.0
19.728,0.224,0.257,12.0
19.755,0.228,0.154,27.0
19.654,0.23,0.703,13.0
19.652,0.234,0.6,12.0
19.669,0.238,0.498,10.0
19.692,0.243,0.394,10.0
19.701,0.247,0.291,12.0
19.748,0.251,0.188,30.0
19.658,0.254,0.738,9.0
19.644,0.258,0.634,15.0
19.661,0.262,0.532,14.0
19.684,0.266,0.427,10.0
19.706,0.271,0.325,13.0
19.737,0.275,0.222,15.0
19.655,0.278,0.771,0.0
19.64,0.282,0.668,12.0
19.655,0.286,0.565,12.0
19.678,0.291,0.461,10.0
19.706,0.295,0.358,12.0
19.741,0.3,0.256,2.0
121.507,1.873,4.977,21.0
19.679,0.307,0.702,5.0
19.675,0.311,0.599,9.0
19.684,0.316,0.494,5.0
19.728,0.321,0.392,1.0
55.199,0.91,0.807,20.0
55.218,0.922,2.354,38.0
55.196,0.933,2.063,47.0
55.183,0.945,1.772,50.0
55.17,0.956,1.476,71.0
55.16,0.968,1.186,74.0
55.163,0.98,0.895,73.0
55.188,0.993,2.442,65.0
55.185,1.005,2.152,61.0
55.184,1.017,1.861,52.0
55.194,1.029,1.565,41.0
55.21,1.042,1.276,26.0
55.201,1.055,0.986,9.0
121.489,2.349,5.574,23.0
121.286,2.372,4.924,21.0
135.201,2.675,4.778,17.0
135.406,2.71,4.059,12.0
163.48,3.309,4.04,4.0
179.254,3.668,3.484,33.0
121.683,2.518,5.775,18.0
121.478,2.542,5.125,22.0
121.261,2.564,4.475,18.0
135.202,2.889,4.262,15.0
163.456,3.532,4.292,6.0
179.193,3.912,3.759,26.0
129.497,2.857,6.346,12.0
114.991,2.565,5.028,9.0
121.142,2.729,4.656,25.0
114.165,2.598,3.773,10.0
98.577,2.267,2.738,101.0
98.591,2.291,2.219,150.0
121.179,2.845,6.123,13.0
128.986,3.059,5.836,12.0
121.324,2.905,4.847,7.0
113.948,2.756,3.939,21.0
99.697,2.434,2.918,9.0
99.699,2.458,2.391,33.0
114.478,2.851,5.956,19.0
45.497,1.143,2.125,1.0
45.493,1.153,1.884,6.0
45.488,1.164,1.637,56.0
0.0,0.0,0.0,0.0
0.0,0.0,0.0,0.0
43.714,1.15,2.336,133.0
0.0,0.0,0.0,0.0
0.0,0.0,0.0,0.0
0.0,0.0,0.0,0.0
41.917,1.143,1.346,126.0
41.929,1.153,1.124,150.0
41.865,1.163,2.297,22.0
40.104,1.123,1.987,80.0
40.105,1.133,1.774,73.0
40.113,1.143,1.557,134.0
40.115,1.153,1.344,135.0
40.124,1.163,1.131,142.0
40.123,1.174,2.257,138.0
40.124,1.184,2.043,110.0
40.124,1.193,1.83,110.0
40.112,1.203,1.612,150.0
40.113,1.213,1.398,150.0
40.116,1.223,1.185,150.0
40.12,1.234,2.311,135.0
40.119,1.243,2.097,111.0
40.12,1.253,1.883,96.0
40.13,1.263,1.665,97.0
40.109,1.273,1.451,150.0
40.106,1.283,1.237,150.0
40.115,1.295,2.364,132.0
40.098,1.304,2.148,76.0
40.105,1.314,1.934,28.0
40.094,1.323,1.716,4.0
40.11,1.334,1.502,1.0
120.714,4.045,3.878,19.0
43.757,1.479,2.634,39.0
120.287,4.096,6.596,12.0
121.086,4.152,5.992,23.0
119.975,4.145,5.285,17.0
120.3,4.185,4.655,19.0
120.734,4.23,4.027,22.0
0.0,0.0,0.0,0.0
135.178,4.811,7.579,27.0
121.031,4.337,6.137,24.0
120.202,4.338,5.44,16.0
120.217,4.368,4.796,19.0
120.634,4.414,4.168,11.0
45.57,1.681,2.854,99.0
121.189,4.501,6.939,18.0
120.986,4.524,6.279,21.0
134.361,5.059,6.239,26.0
120.402,4.564,4.946,6.0
178.706,6.819,6.383,9.0
0.0,0.0,0.0,0.0
121.05,4.688,7.073,19.0
120.823,4.71,6.41,22.0
134.316,5.27,6.391,15.0
179.182,7.077,7.565,20.0
178.7,7.103,6.586,14.0
43.782,1.755,2.843,150.0
120.577,4.864,7.182,17.0
120.731,4.9,6.541,25.0
121.23,4.949,5.902,3.0
179.422,7.372,7.771,18.0
178.667,7.385,6.779,14.0
0.0,0.0,0.0,0.0
120.184,5.04,7.288,18.0
23.614,0.996,1.304,0.0
23.596,1.001,1.174,11.0
23.617,1.008,1.047,31.0
23.614,1.014,0.92,44.0
23.586,1.021,1.582,44.0
23.59,1.027,1.455,45.0
23.587,1.033,1.327,42.0
23.575,1.038,1.197,50.0
23.568,1.044,1.07,61.0
23.572,1.05,0.942,69.0
23.563,1.058,1.604,83.0
23.558,1.064,1.476,78.0
23.552,1.069,1.349,73.0
23.559,1.075,1.219,73.0
23.58,1.082,1.093,77.0
23.567,1.088,0.965,68.0
23.557,1.096,1.627,65.0
23.559,1.102,1.499,53.0
23.569,1.108,1.372,48.0
23.572,1.114,1.242,45.0
23.584,1.12,1.115,42.0
23.603,1.127,0.988,39.0
40.197,1.935,2.813,8.0
45.539,2.203,2.94,5.0
23.587,1.147,1.395,3.0
23.59,1.153,1.264,0.0
23.53,1.156,1.134,0.0
179.75,8.88,7.689,14.0
40.2,2.001,2.849,112.0
0.0,0.0,0.0,0.0
0.0,0.0,0.0,0.0
0.0,0.0,0.0,0.0
0.0,0.0,0.0,0.0
180.198,9.197,7.861,15.0
40.207,2.068,2.884,128.0
0.0,0.0,0.0,0.0
45.565,2.365,2.772,1.0
0.0,0.0,0.0,0.0
0.0,0.0,0.0,0.0
200.296,10.551,8.9,5.0
40.203,2.134,2.917,113.0
43.72,2.331,2.933,62.0
45.543,2.44,2.807,11.0
0.0,0.0,0.0,0.0
0.0,0.0,0.0,0.0
216.271,11.749,9.776,5.0
40.199,2.2,2.947,99.0
41.984,2.308,2.848,150.0
45.548,2.515,2.841,57.0
0.0,0.0,0.0,0.0
0.0,0.0,0.0,0.0
0.0,0.0,0.0,0.0
40.183,2.266,2.975,80.0
0.0,0.0,0.0,0.0
45.57,2.592,2.875,130.0
0.0,0.0,0.0,0.0
0.0,0.0,0.0,0.0
204.583,11.792,9.539,4.0
40.183,2.334,3.004,43.0
0.0,0.0,0.0,0.0
0.0,0.0,0.0,0.0
0.0,0.0,0.0,0.0
0.0,0.0,0.0,0.0
203.528,12.069,9.621,19.0
40.177,2.4,3.029,8.0
41.926,2.515,2.931,2.0
0.0,0.0,0.0,0.0
112.237,6.787,6.603,2.0
204.836,12.437,10.929,5.0
203.585,12.413,9.748,4.0
40.086,2.462,3.047,0.0
40.195,2.478,2.834,95.0
45.519,2.817,2.959,36.0
112.493,6.99,6.684,2.0
112.317,7.006,6.057,4.0
112.27,7.03,5.438,4.0
100.772,6.357,7.716,2.0
40.197,2.545,2.856,106.0
0.0,0.0,0.0,0.0
100.102,6.385,6.001,10.0
99.986,6.401,5.445,23.0
99.978,6.424,4.895,25.0
99.929,6.468,7.703,36.0
40.185,2.61,2.876,110.0
0.0,0.0,0.0,0.0
99.938,6.539,6.04,34.0
99.943,6.563,5.491,32.0
99.953,6.587,4.942,35.0
99.925,6.632,7.75,33.0
40.192,2.676,2.895,118.0
0.0,0.0,0.0,0.0
45.525,3.052,2.772,85.0
99.974,6.728,5.536,33.0
99.954,6.75,4.985,32.0
99.931,6.796,7.794,34.0
40.203,2.742,2.913,103.0
0.0,0.0,0.0,0.0
45.547,3.127,2.792,150.0
99.954,6.886,5.574,23.0
99.983,6.912,5.025,33.0
99.924,6.956,7.833,32.0
40.195,2.807,2.927,115.0
43.699,3.062,2.94,3.0
43.751,3.075,2.697,150.0
45.523,3.21,2.555,36.0
99.979,7.074,5.06,24.0
99.942,7.121,7.869,33.0
40.185,2.871,2.941,131.0
41.975,3.008,2.838,109.0
43.761,3.146,2.712,150.0
45.454,3.278,2.565,150.0
45.46,3.289,2.315,150.0
99.895,7.277,7.896,22.0
40.187,2.936,2.952,116.0
41.962,3.075,2.85,103.0
41.931,3.081,2.611,78.0
43.657,3.218,2.476,8.0
43.659,3.228,2.234,43.0
99.059,7.374,7.855,11.0
40.18,2.999,2.962,118.0
0.0,0.0,0.0,0.0
41.941,3.149,2.621,88.0
43.663,3.287,2.487,147.0
43.675,3.298,2.245,125.0
99.054,7.531,7.877,13.0
40.191,3.063,2.972,110.0
40.165,3.07,2.746,150.0
0.0,0.0,0.0,0.0
41.877,3.219,2.393,10.0
41.876,3.228,2.16,53.0
94.857,7.361,7.56,8.0
40.164,3.124,2.976,68.0
40.168,3.133,2.753,150.0
41.858,3.273,2.631,146.0
41.881,3.284,2.4,123.0
41.885,3.294,2.167,124.0
94.851,7.509,7.573,25.0
40.15,3.186,2.981,12.0
40.141,3.194,2.756,75.0
0.0,0.0,0.0,0.0
40.086,3.206,2.301,6.0
40.068,3.213,2.077,26.0
95.067,7.675,7.599,1.0
40.093,3.244,2.98,94.0
40.076,3.251,2.755,117.0
40.076,3.259,2.527,127.0
40.092,3.268,2.304,132.0
40.083,3.276,2.08,133.0
97.241,7.998,7.779,12.0
40.072,3.303,2.981,74.0
40.085,3.312,2.757,119.0
40.078,3.32,2.529,118.0
40.085,3.328,2.305,110.0
40.083,3.336,2.081,107.0
87.155,7.303,6.973,1.0
40.067,3.364,2.981,71.0
40.072,3.373,2.756,121.0
40.078,3.381,2.528,128.0
40.088,3.39,2.305,114.0
40.088,3.398,2.081,87.0
87.068,7.427,6.964,19.0
87.066,7.443,6.475,31.0
87.046,7.458,5.985,47.0
87.079,7.477,5.491,62.0
87.073,7.494,5.002,123.0
87.074,7.511,4.515,99.0
87.063,7.557,6.959,14.0
87.046,7.571,6.467,15.0
87.073,7.59,5.98,11.0
87.08,7.606,5.483,6.0
87.052,7.62,4.993,6.0
87.133,7.644,4.51,4.0
83.0,7.326,6.625,4.0
82.958,7.337,6.155,3.0
82.95,7.351,5.687,4.0
82.95,7.366,5.213,4.0
82.952,7.382,4.747,5.0
82.92,7.395,4.28,5.0
82.875,7.436,6.603,27.0
82.879,7.451,6.136,38.0
82.896,7.466,5.671,44.0
82.893,7.481,5.195,60.0
82.914,7.498,4.73,113.0
82.913,7.513,4.265,66.0
82.873,7.555,6.588,16.0
82.902,7.572,6.121,27.0
82.902,7.586,5.654,10.0
82.897,7.6,5.179,10.0
82.943,7.619,4.715,8.0
82.917,7.632,4.247,58.0
82.991,7.683,6.578,4.0
82.888,7.687,6.102,144.0
83.107,7.721,5.648,1.0
83.102,7.735,5.171,1.0
86.243,8.042,4.881,3.0
82.914,7.746,4.226,13.0
85.221,8.007,6.732,8.0
82.9,7.803,6.08,150.0
85.083,8.021,5.76,8.0
85.013,8.028,5.266,9.0
84.929,8.035,4.782,9.0
82.989,7.866,4.206,3.0
84.217,8.028,6.628,10.0
82.879,7.913,6.053,26.0
83.844,8.019,5.649,9.0
83.734,8.022,5.16,11.0
83.678,8.03,4.684,9.0
83.314,8.009,4.194,5.0
83.33,8.056,6.529,11.0
82.866,8.023,6.024,27.0
83.016,8.05,5.564,9.0
82.953,8.056,5.083,5.0
82.767,8.052,4.604,2.0
82.768,8.066,4.137,0.0
75.108,7.359,5.857,3.0
75.118,7.37,5.432,3.0
75.1,7.38,5.004,5.0
75.098,7.391,4.572,4.0
75.026,7.395,4.143,4.0
75.093,7.414,3.723,7.0
75.04,7.448,5.821,18.0
75.047,7.458,5.396,22.0
75.062,7.471,4.97,26.0
75.051,7.481,4.537,33.0
75.051,7.492,4.113,40.0
75.054,7.504,3.689,68.0
75.054,7.544,5.788,33.0
75.034,7.551,5.36,34.0
75.03,7.561,4.934,31.0
75.052,7.575,4.502,29.0
75.055,7.586,4.077,31.0
75.06,7.598,3.652,14.0
75.051,7.636,5.752,5.0
75.045,7.645,5.324,5.0
75.075,7.658,4.899,4.0
75.091,7.67,4.466,4.0
75.027,7.675,4.037,40.0
75.094,7.692,3.616,3.0
70.941,7.303,5.399,0.0
70.969,7.315,4.997,1.0
70.946,7.321,4.592,1.0
70.895,7.325,4.179,1.0
70.978,7.344,3.781,2.0
70.991,7.355,3.38,3.0
70.897,7.381,5.357,5.0
70.937,7.393,4.955,6.0
70.882,7.397,4.548,6.0
70.905,7.407,4.14,7.0
70.95,7.422,3.739,8.0
70.893,7.425,3.334,9.0
