X,Y,Z,Reflectivity
19.522,-2.071,-0.795,0.0
17.649,-1.876,-0.816,0.0
16.391,-1.747,-0.847,0.0
14.985,-1.601,-0.858,0.0
13.953,-1.494,-0.876,0.0
13.046,-1.4,-0.89,0.0
19.754,-2.118,-0.793,0.0
18.056,-1.94,-0.823,0.0
16.507,-1.778,-0.843,0.0
15.132,-1.633,-0.857,0.0
14.088,-1.524,-0.875,0.0
13.103,-1.421,-0.886,0.0
19.948,-2.161,-0.788,0.0
18.191,-1.975,-0.818,0.0
16.731,-1.82,-0.844,0.0
15.343,-1.673,-0.859,0.0
14.2,-1.552,-0.873,0.0
13.241,-1.45,-0.886,0.0
20.419,-2.234,-0.793,0.0
18.221,-1.998,-0.807,0.0
16.843,-1.85,-0.837,0.0
15.474,-1.704,-0.856,0.0
14.344,-1.583,-0.871,0.0
13.259,-1.466,-0.878,0.0
20.416,-2.255,-0.778,0.0
18.741,-2.074,-0.816,0.0
16.983,-1.883,-0.832,0.0
15.699,-1.744,-0.857,0.0
14.494,-1.614,-0.87,0.0
13.428,-1.498,-0.879,0.0
20.684,-2.305,-0.773,0.0
18.759,-2.095,-0.804,0.0
17.124,-1.916,-0.827,0.0
15.868,-1.779,-0.854,0.0
14.705,-1.652,-0.872,0.0
13.619,-1.533,-0.882,0.0
20.861,-2.345,-0.764,0.0
19.306,-2.174,-0.812,0.0
17.372,-1.96,-0.825,0.0
16.061,-1.816,-0.852,0.0
14.84,-1.681,-0.868,0.0
13.812,-1.567,-0.883,0.0
21.259,-2.41,-0.762,0.0
19.073,-2.166,-0.788,0.0
17.487,-1.989,-0.817,0.0
16.272,-1.854,-0.85,0.0
14.938,-1.705,-0.862,0.0
13.929,-1.593,-0.879,0.0
21.797,-2.49,-0.764,0.0
19.888,-2.276,-0.805,0.0
17.868,-2.048,-0.82,0.0
16.354,-1.878,-0.841,0.0
15.177,-1.746,-0.863,0.0
14.084,-1.623,-0.877,0.0
22.208,-2.556,-0.76,0.0
19.997,-2.305,-0.793,0.0
18.164,-2.098,-0.818,0.0
16.558,-1.915,-0.837,0.0
15.39,-1.783,-0.862,0.0
14.281,-1.657,-0.877,0.0
22.361,-2.592,-0.746,0.0
20.305,-2.357,-0.787,0.0
18.46,-2.146,-0.816,0.0
16.843,-1.962,-0.837,0.0
15.508,-1.809,-0.855,0.0
14.401,-1.683,-0.872,0.0
23.067,-2.692,-0.749,0.0
20.505,-2.397,-0.777,0.0
18.888,-2.211,-0.817,0.0
17.128,-2.008,-0.836,0.0
15.816,-1.857,-0.857,0.0
14.622,-1.719,-0.872,0.0
23.523,-2.763,-0.742,0.0
20.842,-2.452,-0.77,0.0
19.092,-2.249,-0.809,0.0
17.313,-2.042,-0.829,0.0
16.017,-1.892,-0.853,0.0
14.744,-1.744,-0.865,0.0
23.729,-2.804,-0.726,0.0
21.228,-2.512,-0.765,0.0
19.362,-2.294,-0.802,0.0
17.51,-2.077,-0.822,0.0
16.073,-1.909,-0.841,0.0
15.034,-1.788,-0.868,0.0
24.199,-2.875,-0.718,0.0
21.775,-2.591,-0.763,0.0
19.794,-2.358,-0.801,0.0
17.779,-2.12,-0.817,0.0
16.533,-1.974,-0.849,0.0
15.245,-1.823,-0.865,0.0
25.029,-2.99,-0.718,0.0
22.232,-2.659,-0.757,0.0
19.996,-2.394,-0.789,0.0
18.217,-2.183,-0.819,0.0
16.772,-2.013,-0.844,0.0
15.457,-1.857,-0.862,0.0
25.316,-3.039,-0.701,0.0
22.661,-2.723,-0.749,0.0
20.602,-2.478,-0.792,0.0
18.544,-2.233,-0.815,0.0
17.118,-2.063,-0.845,0.0
15.612,-1.884,-0.854,0.0
26.036,-3.139,-0.694,0.0
23.236,-2.804,-0.745,0.0
20.612,-2.49,-0.771,0.0
18.878,-2.283,-0.81,0.0
17.283,-2.092,-0.835,0.0
16.071,-1.947,-0.863,0.0
0.0,0.0,0.0,0.0
0.0,0.0,0.0,0.0
21.03,-2.55,-0.765,0.0
0.0,0.0,0.0,0.0
17.502,-2.126,-0.827,0.0
16.201,-1.97,-0.853,0.0
27.467,-3.338,-0.675,0.0
23.99,-2.917,-0.719,0.0
21.858,-2.66,-0.772,0.0
19.67,-2.396,-0.803,0.0
17.842,-2.175,-0.824,0.0
16.467,-2.009,-0.849,0.0
27.974,-3.411,-0.658,0.0
0.0,0.0,0.0,0.0
22.096,-2.698,-0.757,0.0
19.957,-2.438,-0.793,0.0
18.295,-2.237,-0.825,0.0
16.728,-2.047,-0.844,0.0
29.037,-3.551,-0.651,0.0
0.0,0.0,0.0,0.0
22.529,-2.758,-0.747,0.0
20.259,-2.482,-0.783,0.0
18.515,-2.27,-0.815,0.0
16.967,-2.082,-0.838,0.0
29.982,-3.676,-0.64,0.0
0.0,0.0,0.0,0.0
23.211,-2.849,-0.744,0.0
20.809,-2.555,-0.781,0.0
19.0,-2.335,-0.815,0.0
17.383,-2.137,-0.839,0.0
29.984,-3.684,-0.607,0.0
0.0,0.0,0.0,0.0
23.8,-2.927,-0.736,0.0
0.0,0.0,0.0,0.0
19.427,-2.392,-0.811,0.0
17.607,-2.169,-0.83,0.0
31.69,-3.901,-0.605,0.0
27.38,-3.371,-0.67,0.0
24.486,-3.016,-0.73,0.0
21.96,-2.706,-0.775,0.0
19.772,-2.438,-0.803,0.0
17.935,-2.212,-0.825,0.0
32.094,-3.956,-0.577,0.0
28.751,-3.545,-0.671,0.0
0.0,0.0,0.0,0.0
22.308,-2.752,-0.762,0.0
20.168,-2.489,-0.797,0.0
0.0,0.0,0.0,0.0
33.743,-4.164,-0.569,0.0
28.887,-3.565,-0.641,0.0
0.0,0.0,0.0,0.0
22.976,-2.837,-0.758,0.0
20.596,-2.544,-0.79,0.0
18.707,-2.312,-0.818,0.0
0.0,0.0,0.0,0.0
29.892,-3.692,-0.629,0.0
26.661,-3.293,-0.704,0.0
23.481,-2.901,-0.748,0.0
21.089,-2.606,-0.785,0.0
19.298,-2.385,-0.822,0.0
0.0,0.0,0.0,0.0
31.948,-3.947,-0.636,0.0
27.142,-3.353,-0.685,0.0
24.026,-2.969,-0.738,0.0
21.387,-2.643,-0.771,0.0
19.612,-2.424,-0.812,0.0
37.106,-4.584,-0.497,0.0
32.103,-3.965,-0.602,0.0
27.522,-3.399,-0.663,0.0
24.276,-2.999,-0.717,0.0
22.0,-2.718,-0.768,0.0
19.946,-2.464,-0.803,0.0
0.0,0.0,0.0,0.0
32.401,-4.0,-0.57,0.0
28.812,-3.557,-0.661,0.0
0.0,0.0,0.0,0.0
22.509,-2.778,-0.759,0.0
20.258,-2.501,-0.792,0.0
40.508,-4.998,-0.449,0.0
33.928,-4.185,-0.557,0.0
0.0,0.0,0.0,0.0
26.307,-3.244,-0.716,0.0
23.456,-2.892,-0.764,0.0
20.818,-2.567,-0.789,0.0
0.0,0.0,0.0,0.0
0.0,0.0,0.0,0.0
30.197,-3.719,-0.622,0.0
0.0,0.0,0.0,0.0
23.711,-2.919,-0.744,0.0
21.117,-2.599,-0.776,0.0
0.0,0.0,0.0,0.0
0.0,0.0,0.0,0.0
29.959,-3.683,-0.582,0.0
27.444,-3.373,-0.682,0.0
24.338,-2.991,-0.735,0.0
21.824,-2.681,-0.776,0.0
46.49,-5.709,-0.352,1.0
38.466,-4.722,-0.497,0.0
32.348,-3.969,-0.59,0.0
28.088,-3.445,-0.666,0.0
0.0,0.0,0.0,0.0
22.305,-2.734,-0.767,0.0
47.763,-5.852,-0.306,2.0
0.0,0.0,0.0,0.0
0.0,0.0,0.0,0.0
0.0,0.0,0.0,0.0
25.863,-3.163,-0.721,0.0
23.02,-2.814,-0.765,0.0
48.283,-5.9,-0.252,0.0
0.0,0.0,0.0,0.0
0.0,0.0,0.0,0.0
30.083,-3.669,-0.642,0.0
26.119,-3.184,-0.697,0.0
23.005,-2.803,-0.737,0.0
0.0,0.0,0.0,0.0
0.0,0.0,0.0,0.0
36.45,-4.434,-0.538,0.0
30.676,-3.729,-0.619,0.0
0.0,0.0,0.0,0.0
23.881,-2.9,-0.738,0.0
0.0,0.0,0.0,0.0
0.0,0.0,0.0,0.0
36.922,-4.475,-0.502,0.0
0.0,0.0,0.0,0.0
28.221,-3.416,-0.688,0.0
24.421,-2.954,-0.726,0.0
0.0,0.0,0.0,0.0
47.485,-5.737,-0.337,0.0
0.0,0.0,0.0,0.0
33.107,-3.993,-0.591,0.0
28.251,-3.405,-0.656,0.0
25.203,-3.035,-0.72,0.0
0.0,0.0,0.0,0.0
47.886,-5.76,-0.284,1.0
40.455,-4.862,-0.456,0.0
33.731,-4.05,-0.564,0.0
29.661,-3.558,-0.654,0.0
25.956,-3.111,-0.712,0.0
74.889,-8.976,0.04,2.0
0.0,0.0,0.0,0.0
40.851,-4.886,-0.414,0.0
34.375,-4.107,-0.536,0.0
30.14,-3.598,-0.631,0.0
26.538,-3.165,-0.697,0.0
74.921,-8.934,0.125,32.0
0.0,0.0,0.0,0.0
0.0,0.0,0.0,0.0
36.915,-4.388,-0.533,0.0
31.318,-3.718,-0.62,0.0
27.204,-3.227,-0.684,0.0
75.343,-8.936,0.211,3.0
0.0,0.0,0.0,0.0
0.0,0.0,0.0,0.0
37.453,-4.426,-0.499,0.0
0.0,0.0,0.0,0.0
27.83,-3.282,-0.669,0.0
83.364,-9.83,0.326,3.0
0.0,0.0,0.0,0.0
0.0,0.0,0.0,0.0
38.628,-4.537,-0.472,0.0
33.792,-3.964,-0.593,0.0
0.0,0.0,0.0,0.0
83.364,-9.768,0.419,46.0
0.0,0.0,0.0,0.0
0.0,0.0,0.0,0.0
40.429,-4.718,-0.449,0.0
34.188,-3.984,-0.563,0.0
29.603,-3.446,-0.646,0.0
83.383,-9.706,0.509,28.0
77.67,-9.027,0.059,8.0
0.0,0.0,0.0,0.0
42.239,-4.895,-0.423,0.0
0.0,0.0,0.0,0.0
30.192,-3.489,-0.626,0.0
83.376,-9.636,0.6,38.0
77.686,-8.964,0.143,27.0
0.0,0.0,0.0,0.0
0.0,0.0,0.0,0.0
36.808,-4.228,-0.527,0.0
32.055,-3.676,-0.63,0.0
83.379,-9.564,0.69,25.0
77.659,-8.893,0.227,1.0
0.0,0.0,0.0,0.0
0.0,0.0,0.0,0.0
38.272,-4.361,-0.506,0.0
32.159,-3.659,-0.598,0.0
83.399,-9.49,0.778,57.0
86.553,-9.831,0.344,8.0
0.0,0.0,0.0,0.0
0.0,0.0,0.0,0.0
38.891,-4.394,-0.474,0.0
0.0,0.0,0.0,0.0
83.388,-9.408,0.866,17.0
83.387,-9.391,0.418,11.0
0.0,0.0,0.0,0.0
0.0,0.0,0.0,0.0
0.0,0.0,0.0,0.0
0.0,0.0,0.0,0.0
83.383,-9.325,0.95,17.0
83.356,-9.304,0.502,27.0
83.8,-9.336,0.056,4.0
0.0,0.0,0.0,0.0
41.958,-4.657,-0.426,0.0
0.0,0.0,0.0,0.0
83.372,-9.238,1.033,11.0
83.356,-9.217,0.586,13.0
83.852,-9.253,0.139,3.0
0.0,0.0,0.0,0.0
0.0,0.0,0.0,0.0
36.926,-4.051,-0.536,0.0
83.368,-9.148,1.116,32.0
83.348,-9.126,0.668,25.0
82.477,-9.011,0.219,4.0
0.0,0.0,0.0,0.0
0.0,0.0,0.0,0.0
36.748,-3.99,-0.498,0.0
83.133,-9.028,1.193,12.0
83.297,-9.026,0.748,60.0
83.347,-9.012,0.301,63.0
0.0,0.0,0.0,0.0
0.0,0.0,0.0,0.0
0.0,0.0,0.0,0.0
83.361,-8.956,1.276,32.0
83.424,-8.942,0.829,11.0
83.804,-8.962,0.381,3.0
0.0,0.0,0.0,0.0
49.009,-5.217,-0.308,0.0
0.0,0.0,0.0,0.0
84.755,-9.005,1.376,3.0
84.964,-9.005,0.922,3.0
85.143,-9.002,0.465,1.0
0.0,0.0,0.0,0.0
0.0,0.0,0.0,0.0
0.0,0.0,0.0,0.0
83.466,-8.764,1.43,4.0
86.084,-9.016,1.011,6.0
86.233,-9.009,0.549,1.0
85.531,-8.914,0.075,1.0
0.0,0.0,0.0,0.0
0.0,0.0,0.0,0.0
86.232,-8.944,1.554,24.0
83.38,-8.626,1.052,8.0
87.093,-8.986,0.63,2.0
82.651,-8.507,0.144,0.0
56.087,-5.758,-0.204,0.0
0.0,0.0,0.0,0.0
87.74,-8.985,1.656,1.0
87.998,-8.987,1.186,3.0
83.418,-8.496,0.675,6.0
100.43,-10.201,0.261,5.0
56.329,-5.707,-0.157,0.0
0.0,0.0,0.0,0.0
88.915,-8.986,1.752,6.0
89.071,-8.975,1.274,14.0
89.09,-8.953,0.794,52.0
89.602,-8.98,0.305,34.0
0.0,0.0,0.0,0.0
0.0,0.0,0.0,0.0
90.234,-8.995,1.85,18.0
90.279,-8.973,1.363,150.0
90.35,-8.954,0.877,65.0
90.371,-8.93,0.38,39.0
0.0,0.0,0.0,0.0
0.0,0.0,0.0,0.0
90.351,-8.879,1.923,39.0
90.261,-8.842,1.433,33.0
90.383,-8.828,0.946,53.0
90.364,-8.801,0.448,30.0
0.0,0.0,0.0,0.0
0.0,0.0,0.0,0.0
90.377,-8.751,1.991,41.0
90.361,-8.721,1.501,36.0
90.196,-8.678,1.01,34.0
90.378,-8.669,0.515,41.0
0.0,0.0,0.0,0.0
0.0,0.0,0.0,0.0
90.369,-8.615,2.055,44.0
90.373,-8.588,1.567,45.0
90.339,-8.556,1.077,14.0
90.393,-8.534,0.578,49.0
90.335,-8.502,0.09,1.0
0.0,0.0,0.0,0.0
90.357,-8.477,2.119,27.0
90.38,-8.451,1.629,45.0
90.362,-8.421,1.139,36.0
90.355,-8.392,0.64,16.0
90.42,-8.371,0.15,5.0
0.0,0.0,0.0,0.0
90.372,-8.339,2.179,18.0
90.387,-8.31,1.689,39.0
90.371,-8.28,1.198,41.0
90.404,-8.254,0.699,39.0
90.374,-8.224,0.209,9.0
0.0,0.0,0.0,0.0
127.518,-11.562,3.156,14.0
90.386,-8.167,1.746,37.0
90.385,-8.137,1.255,35.0
90.391,-8.109,0.755,38.0
90.397,-8.081,0.265,21.0
0.0,0.0,0.0,0.0
127.497,-11.356,3.233,15.0
90.398,-8.022,1.8,43.0
90.398,-7.993,1.309,72.0
90.394,-7.963,0.808,38.0
90.399,-7.934,0.317,28.0
0.0,0.0,0.0,0.0
127.56,-11.152,3.308,14.0
90.41,-7.874,1.852,33.0
90.388,-7.843,1.36,35.0
90.397,-7.814,0.858,33.0
90.423,-7.788,0.366,31.0
0.0,0.0,0.0,0.0
127.562,-10.944,3.375,13.0
90.381,-7.723,1.899,36.0
90.391,-7.693,1.407,57.0
90.416,-7.666,0.905,39.0
90.409,-7.635,0.413,30.0
0.0,0.0,0.0,0.0
127.475,-10.719,3.439,12.0
90.382,-7.568,1.945,37.0
90.397,-7.538,1.452,54.0
90.411,-7.509,0.95,57.0
90.415,-7.479,0.457,35.0
0.0,0.0,0.0,0.0
114.221,-9.406,3.136,10.0
127.499,-10.455,2.804,15.0
100.062,-8.172,1.654,13.0
100.081,-8.14,1.098,15.0
100.041,-8.102,0.551,12.0
0.0,0.0,0.0,0.0
127.471,-10.276,3.555,22.0
127.485,-10.234,2.859,23.0
100.039,-7.996,1.696,13.0
100.073,-7.964,1.14,14.0
100.084,-7.932,0.594,13.0
0.0,0.0,0.0,0.0
127.455,-10.053,3.605,18.0
127.502,-10.011,2.91,27.0
100.094,-7.825,1.736,9.0
100.068,-7.787,1.179,15.0
100.098,-7.756,0.632,13.0
0.0,0.0,0.0,0.0
127.492,-9.829,3.655,12.0
127.461,-9.78,2.956,31.0
100.098,-7.645,1.773,6.0
100.059,-7.607,1.214,12.0
100.074,-7.573,0.667,12.0
0.0,0.0,0.0,0.0
109.081,-8.21,3.164,6.0
0.0,0.0,0.0,0.0
100.008,-7.457,1.804,5.0
100.061,-7.425,1.246,11.0
100.118,-7.394,0.698,12.0
98.877,-7.269,0.148,1.0
109.09,-8.012,3.197,20.0
109.315,-7.989,2.603,10.0
109.409,-7.956,2.005,19.0
100.096,-7.244,1.275,10.0
100.091,-7.208,0.726,13.0
98.86,-7.086,0.176,3.0
109.008,-7.805,3.223,41.0
109.173,-7.776,2.628,52.0
109.353,-7.749,2.032,26.0
100.063,-7.056,1.3,8.0
100.093,-7.022,0.751,8.0
98.92,-6.905,0.198,3.0
109.074,-7.605,3.251,40.0
109.248,-7.577,2.655,22.0
109.496,-7.554,2.059,4.0
100.039,-6.865,1.321,6.0
0.0,0.0,0.0,0.0
99.224,-6.739,0.22,2.0
109.025,-7.395,3.27,40.0
116.999,-7.893,2.866,22.0
117.38,-7.876,2.228,33.0
0.0,0.0,0.0,0.0
99.753,-6.622,0.786,10.0
99.692,-6.583,0.237,8.0
109.887,-7.244,3.313,19.0
116.995,-7.671,2.883,25.0
117.399,-7.655,2.246,40.0
125.212,-8.119,1.694,26.0
125.186,-8.072,1.003,18.0
0.0,0.0,0.0,0.0
117.029,-7.49,3.543,30.0
117.17,-7.457,2.901,28.0
147.877,-9.358,2.845,10.0
147.947,-9.307,2.015,33.0
150.008,-9.384,1.217,7.0
0.0,0.0,0.0,0.0
125.093,-7.766,3.797,8.0
117.346,-7.241,2.914,25.0
148.161,-9.087,2.862,16.0
148.821,-9.073,2.037,20.0
149.893,-9.083,1.224,16.0
0.0,0.0,0.0,0.0
117.418,-7.061,3.569,19.0
149.391,-8.926,3.715,21.0
148.848,-8.841,2.88,24.0
149.056,-8.799,2.044,20.0
149.781,-8.789,1.227,11.0
0.0,0.0,0.0,0.0
117.143,-6.814,3.562,46.0
148.218,-8.566,3.686,16.0
140.778,-8.085,2.723,8.0
140.684,-8.027,1.928,34.0
101.527,-5.756,0.83,15.0
0.0,0.0,0.0,0.0
117.272,-6.59,3.562,21.0
163.355,-9.118,4.057,15.0
140.643,-7.797,2.714,13.0
101.554,-5.594,1.387,36.0
101.466,-5.551,0.824,150.0
0.0,0.0,0.0,0.0
137.914,-7.474,4.179,9.0
140.582,-7.566,3.481,29.0
0.0,0.0,0.0,0.0
101.501,-5.386,1.377,79.0
0.0,0.0,0.0,0.0
0.0,0.0,0.0,0.0
138.815,-7.243,4.192,12.0
140.951,-7.303,3.474,24.0
0.0,0.0,0.0,0.0
0.0,0.0,0.0,0.0
101.535,-5.148,0.802,117.0
101.511,-5.11,0.238,1.0
139.356,-6.991,4.187,11.0
139.419,-6.943,3.415,12.0
0.0,0.0,0.0,0.0
101.492,-4.979,1.347,1.0
101.539,-4.945,0.785,29.0
101.567,-4.908,0.221,2.0
141.026,-6.792,4.211,23.0
139.323,-6.659,3.386,12.0
0.0,0.0,0.0,0.0
0.0,0.0,0.0,0.0
101.53,-4.74,0.764,3.0
0.0,0.0,0.0,0.0
141.571,-6.534,4.196,14.0
163.45,-7.483,3.935,4.0
0.0,0.0,0.0,0.0
101.455,-4.57,1.302,7.0
101.62,-4.541,0.739,2.0
0.0,0.0,0.0,0.0
118.861,-5.247,3.493,10.0
142.562,-6.241,3.394,19.0
0.0,0.0,0.0,0.0
101.542,-4.369,1.275,14.0
101.478,-4.328,0.709,20.0
0.0,0.0,0.0,0.0
141.661,-5.964,4.119,11.0
163.334,-6.815,3.838,6.0
0.0,0.0,0.0,0.0
101.667,-4.167,1.245,1.0
101.665,-4.13,0.677,3.0
0.0,0.0,0.0,0.0
138.553,-5.55,3.982,10.0
0.0,0.0,0.0,0.0
162.265,-6.379,2.85,16.0
0.0,0.0,0.0,0.0
0.0,0.0,0.0,0.0
0.0,0.0,0.0,0.0
141.827,-5.391,4.022,19.0
0.0,0.0,0.0,0.0
162.266,-6.05,2.787,23.0
162.038,-5.983,1.861,16.0
0.0,0.0,0.0,0.0
0.0,0.0,0.0,0.0
163.22,-5.873,4.56,14.0
0.0,0.0,0.0,0.0
162.249,-5.72,2.718,16.0
0.0,0.0,0.0,0.0
0.0,0.0,0.0,0.0
0.0,0.0,0.0,0.0
163.242,-5.542,4.487,19.0
162.378,-5.452,3.553,5.0
162.184,-5.386,2.64,19.0
0.0,0.0,0.0,0.0
0.0,0.0,0.0,0.0
0.0,0.0,0.0,0.0
163.316,-5.21,4.407,18.0
0.0,0.0,0.0,0.0
0.0,0.0,0.0,0.0
147.03,-4.531,1.48,3.0
0.0,0.0,0.0,0.0
0.0,0.0,0.0,0.0
163.341,-4.88,4.321,13.0
167.853,-4.956,3.499,17.0
0.0,0.0,0.0,0.0
146.992,-4.233,1.399,151.0
0.0,0.0,0.0,0.0
0.0,0.0,0.0,0.0
163.249,-4.549,4.226,6.0
168.105,-4.626,3.408,7.0
0.0,0.0,0.0,0.0
147.081,-3.941,1.314,150.0
0.0,0.0,0.0,0.0
0.0,0.0,0.0,0.0
163.366,-4.22,4.129,7.0
170.374,-4.34,3.348,7.0
0.0,0.0,0.0,0.0
147.185,-3.646,1.223,151.0
0.0,0.0,0.0,0.0
0.0,0.0,0.0,0.0
163.32,-3.891,4.023,3.0
170.401,-4.0,3.238,15.0
0.0,0.0,0.0,0.0
147.434,-3.355,1.127,5.0
0.0,0.0,0.0,0.0
0.0,0.0,0.0,0.0
0.0,0.0,0.0,0.0
170.465,-3.658,3.122,8.0
163.591,-3.452,2.074,10.0
0.0,0.0,0.0,0.0
0.0,0.0,0.0,0.0
0.0,0.0,0.0,0.0
171.381,-3.397,3.981,6.0
170.326,-3.317,2.996,7.0
163.195,-3.122,1.951,30.0
160.739,-3.021,1.0,13.0
0.0,0.0,0.0,0.0
0.0,0.0,0.0,0.0
0.0,0.0,0.0,0.0
163.969,-2.868,2.76,4.0
163.023,-2.794,1.824,29.0
19.744,-0.331,0.107,2.0
0.0,0.0,0.0,0.0
0.0,0.0,0.0,0.0
0.0,0.0,0.0,0.0
163.68,-2.539,2.625,13.0
19.752,-0.299,0.205,14.0
19.757,-0.292,0.091,23.0
0.0,0.0,0.0,0.0
0.0,0.0,0.0,0.0
19.789,-0.274,0.412,2.0
19.753,-0.267,0.3,9.0
19.751,-0.26,0.188,26.0
19.75,-0.254,0.074,1.0
0.0,0.0,0.0,0.0
0.0,0.0,0.0,0.0
19.749,-0.235,0.394,13.0
19.752,-0.228,0.282,7.0
19.753,-0.222,0.171,0.0
0.0,0.0,0.0,0.0
0.0,0.0,0.0,0.0
19.758,-0.202,-0.166,0.0
19.769,-0.196,0.377,5.0
169.397,-1.631,2.273,11.0
160.722,-1.493,1.246,14.0
0.0,0.0,0.0,0.0
19.766,-0.17,-0.072,8.0
19.745,-0.164,-0.184,15.0
177.276,-1.419,3.214,20.0
169.825,-1.305,2.117,12.0
160.658,-1.184,1.094,14.0
19.751,-0.139,0.02,8.0
19.72,-0.132,-0.091,14.0
19.725,-0.126,-0.202,17.0
19.698,-0.12,0.338,7.0
19.705,-0.114,0.226,12.0
19.712,-0.107,0.115,13.0
19.705,-0.101,0.001,14.0
19.716,-0.095,-0.11,16.0
19.734,-0.088,-0.222,16.0
19.66,-0.082,0.317,10.0
19.68,-0.076,0.206,14.0
19.694,-0.07,0.094,16.0
19.699,-0.063,-0.018,16.0
19.726,-0.058,-0.13,14.0
19.755,-0.051,-0.243,12.0
19.64,-0.045,0.296,11.0
19.652,-0.039,0.185,11.0
19.694,-0.033,0.074,14.0
19.718,-0.026,-0.039,13.0
19.76,-0.02,-0.152,2.0
0.0,0.0,0.0,0.0
19.635,-0.008,0.275,14.0
19.764,-0.002,0.165,3.0
19.798,0.003,0.052,3.0
19.727,0.01,-0.061,16.0
19.744,0.015,-0.173,7.0
19.759,0.022,-0.286,9.0
19.625,0.028,0.253,15.0
19.743,0.034,0.143,14.0
19.754,0.04,0.03,14.0
19.749,0.046,-0.083,32.0
19.762,0.052,-0.196,45.0
19.774,0.058,-0.308,43.0
19.633,0.063,0.231,16.0
19.683,0.07,0.12,15.0
19.742,0.075,0.008,17.0
19.747,0.082,-0.106,2.0
19.752,0.088,-0.218,0.0
32.549,0.155,-0.545,0.0
19.665,0.099,0.209,16.0
19.652,0.105,0.096,13.0
19.647,0.111,-0.015,11.0
19.677,0.117,-0.128,8.0
0.0,0.0,0.0,0.0
32.127,0.21,-0.576,0.0
19.666,0.135,0.185,16.0
19.639,0.14,0.073,13.0
19.64,0.146,-0.038,16.0
19.643,0.152,-0.152,14.0
19.665,0.157,-0.265,9.0
19.681,0.163,-0.377,13.0
19.671,0.169,0.161,13.0
19.647,0.175,0.048,13.0
19.642,0.18,-0.063,13.0
19.631,0.186,-0.176,16.0
19.65,0.191,-0.289,16.0
19.67,0.197,-0.401,18.0
19.757,0.204,0.137,17.0
19.667,0.209,0.024,10.0
19.639,0.214,-0.087,15.0
19.627,0.219,-0.201,16.0
19.652,0.225,-0.314,14.0
19.671,0.231,-0.426,19.0
19.757,0.238,0.111,12.0
19.704,0.243,-0.001,1.0
19.642,0.247,-0.113,14.0
19.64,0.253,-0.227,16.0
19.663,0.259,-0.339,13.0
19.684,0.264,-0.452,15.0
0.0,0.0,0.0,0.0
52.953,0.742,-0.072,1.0
19.687,0.281,-0.139,2.0
19.659,0.286,-0.253,10.0
19.7,0.292,-0.366,2.0
26.958,0.407,-0.655,1.0
0.0,0.0,0.0,0.0
52.471,0.822,-0.142,3.0
0.0,0.0,0.0,0.0
34.648,0.562,-0.493,0.0
29.33,0.483,-0.585,0.0
25.846,0.433,-0.663,1.0
55.175,0.94,0.09,106.0
45.078,0.78,-0.183,0.0
35.759,0.628,-0.35,0.0
30.954,0.552,-0.483,0.0
28.638,0.518,-0.611,0.0
25.105,0.461,-0.679,1.0
55.177,1.03,0.012,22.0
43.193,0.817,-0.237,0.0
34.948,0.67,-0.391,2.0
0.0,0.0,0.0,0.0
27.495,0.541,-0.625,1.0
24.076,0.48,-0.686,1.0
52.172,1.057,-0.062,1.0
39.755,0.815,-0.275,1.0
32.896,0.683,-0.415,1.0
27.572,0.579,-0.509,0.0
26.141,0.556,-0.632,6.0
23.254,0.5,-0.696,1.0
44.047,0.96,-0.115,0.0
0.0,0.0,0.0,0.0
30.481,0.68,-0.429,1.0
25.589,0.577,-0.51,0.0
23.661,0.539,-0.607,0.0
22.643,0.522,-0.711,4.0
0.0,0.0,0.0,0.0
36.586,0.862,-0.359,3.0
29.591,0.704,-0.46,2.0
25.206,0.606,-0.539,1.0
22.302,0.542,-0.605,1.0
21.853,0.536,-0.718,4.0
0.0,0.0,0.0,0.0
0.0,0.0,0.0,0.0
28.62,0.724,-0.488,1.0
23.981,0.612,-0.549,0.0
21.014,0.541,-0.602,0.0
20.825,0.541,-0.716,4.0
39.942,1.049,-0.283,9.0
31.834,0.844,-0.409,0.0
27.021,0.722,-0.502,1.0
23.026,0.621,-0.562,0.0
20.47,0.557,-0.617,2.0
19.852,0.545,-0.713,2.0
37.016,1.026,-0.32,2.0
27.463,0.767,-0.395,0.0
25.952,0.731,-0.522,2.0
22.036,0.626,-0.572,0.0
19.454,0.557,-0.617,0.0
18.9,0.545,-0.708,1.0
40.151,1.169,-0.41,0.0
27.49,0.806,-0.438,7.0
24.897,0.736,-0.54,1.0
21.253,0.633,-0.585,0.0
19.226,0.577,-0.64,2.0
18.241,0.551,-0.712,1.0
40.106,1.222,-0.472,1.0
27.939,0.857,-0.489,1.0
23.565,0.728,-0.548,1.0
20.304,0.632,-0.591,0.0
18.302,0.573,-0.638,0.0
17.405,0.549,-0.707,0.0
40.123,1.276,-0.536,2.0
26.049,0.833,-0.497,2.0
22.313,0.719,-0.554,0.0
19.731,0.64,-0.606,0.0
18.118,0.591,-0.661,0.0
16.982,0.558,-0.717,0.0
29.584,0.979,-0.443,2.0
25.421,0.846,-0.527,2.0
21.598,0.724,-0.572,2.0
19.213,0.648,-0.621,2.0
17.251,0.585,-0.657,0.0
16.655,0.568,-0.731,0.0
28.442,0.977,-0.472,4.0
23.983,0.828,-0.536,1.0
20.881,0.725,-0.587,2.0
18.568,0.649,-0.631,1.0
17.109,0.601,-0.68,0.0
16.477,0.582,-0.75,0.0
27.102,0.964,-0.494,5.0
22.798,0.815,-0.547,0.0
19.97,0.718,-0.594,3.0
18.222,0.659,-0.649,0.0
16.913,0.615,-0.7,0.0
16.275,0.595,-0.768,1.0
25.707,0.945,-0.512,2.0
21.743,0.803,-0.558,0.0
19.557,0.726,-0.614,3.0
17.451,0.651,-0.651,0.0
16.71,0.627,-0.719,0.0
16.134,0.609,-0.788,1.0
24.181,0.917,-0.522,2.0
21.107,0.804,-0.577,2.0
18.76,0.718,-0.621,3.0
17.203,0.662,-0.67,1.0
16.523,0.639,-0.739,0.0
15.965,0.62,-0.806,1.0
23.563,0.919,-0.548,15.0
20.083,0.787,-0.583,0.0
18.267,0.719,-0.635,3.0
16.996,0.672,-0.691,1.0
16.297,0.648,-0.757,1.0
15.618,0.624,-0.815,0.0
22.131,0.887,-0.552,1.0
19.684,0.793,-0.605,3.0
17.793,0.719,-0.649,3.0
16.782,0.682,-0.711,2.0
16.211,0.661,-0.78,1.0
15.043,0.616,-0.811,0.0
21.294,0.876,-0.568,2.0
18.825,0.777,-0.611,3.0
17.293,0.717,-0.661,2.0
16.577,0.69,-0.731,2.0
15.987,0.669,-0.797,1.0
14.463,0.607,-0.805,0.0
20.63,0.869,-0.585,2.0
18.391,0.778,-0.628,3.0
17.029,0.723,-0.68,2.0
16.37,0.698,-0.75,2.0
15.839,0.678,-0.817,0.0
14.247,0.612,-0.818,0.0
19.753,0.851,-0.595,3.0
17.869,0.773,-0.641,3.0
16.842,0.731,-0.702,2.0
16.18,0.705,-0.769,2.0
15.034,0.657,-0.802,0.0
13.961,0.613,-0.825,0.0
19.044,0.838,-0.606,3.0
17.426,0.769,-0.655,2.0
16.64,0.737,-0.722,1.0
16.007,0.712,-0.789,3.0
14.74,0.658,-0.812,0.0
13.569,0.607,-0.826,0.0
18.482,0.829,-0.62,3.0
17.092,0.769,-0.672,3.0
16.405,0.741,-0.74,1.0
15.896,0.72,-0.811,1.0
14.281,0.649,-0.811,0.0
13.2,0.602,-0.826,0.0
18.034,0.824,-0.637,2.0
16.901,0.775,-0.694,2.0
16.226,0.746,-0.76,2.0
23.638,1.091,-1.247,1.0
23.625,1.094,-1.384,0.0
23.656,1.099,-1.522,0.0
17.492,0.813,-0.648,2.0
16.681,0.778,-0.715,2.0
16.028,0.75,-0.779,2.0
23.617,1.108,-1.288,2.0
23.615,1.112,-1.425,1.0
23.632,1.116,-1.563,1.0
17.124,0.809,-0.664,1.0
16.44,0.779,-0.733,1.0
15.918,0.757,-0.802,2.0
23.627,1.126,-1.33,1.0
23.656,1.131,-1.469,0.0
12.427,0.596,-0.844,0.0
16.932,0.812,-0.687,2.0
16.25,0.782,-0.753,2.0
23.621,1.139,-1.231,1.0
23.605,1.142,-1.37,1.0
23.643,1.147,-1.509,1.0
12.275,0.597,-0.855,0.0
16.059,0.783,-0.772,2.0
23.61,1.157,-1.412,2.0
23.605,1.16,-1.548,1.0
11.931,0.588,-0.852,0.0
16.475,0.812,-0.726,1.0
15.942,0.787,-0.795,2.0
23.608,1.169,-1.314,1.0
23.628,1.173,-1.454,0.0
12.56,0.625,-0.846,0.0
11.71,0.584,-0.857,0.0
16.303,0.813,-0.747,1.0
23.705,1.185,-1.223,0.0
23.611,1.183,-1.355,1.0
23.622,1.186,-1.495,1.0
12.264,0.617,-0.847,0.0
11.533,0.582,-0.864,0.0
16.092,0.811,-0.765,1.0
23.645,1.195,-1.262,1.0
23.619,1.196,-1.397,1.0
23.59,1.197,-1.535,1.0
12.019,0.611,-0.852,0.0
11.309,0.576,-0.867,0.0
15.964,0.813,-0.787,3.0
23.631,1.206,-1.302,0.0
23.651,1.209,-1.441,0.0
12.559,0.643,-0.839,0.0
11.786,0.605,-0.856,0.0
11.058,0.569,-0.867,0.0
15.614,0.802,-0.797,0.0
23.64,1.217,-1.344,1.0
23.617,1.218,-1.479,0.0
12.325,0.637,-0.844,0.0
11.556,0.598,-0.859,0.0
10.892,0.565,-0.873,0.0
15.068,0.781,-0.795,0.0
23.652,1.228,-1.385,1.0
23.66,1.23,-1.523,0.0
12.11,0.631,-0.851,0.0
11.35,0.592,-0.863,0.0
23.655,1.237,-1.938,0.0
14.619,0.763,-0.796,0.0
23.639,1.236,-1.425,0.0
12.689,0.664,-0.838,0.0
11.809,0.619,-0.85,0.0
11.129,0.585,-0.866,0.0
23.619,1.243,-1.975,0.0
23.63,1.242,-1.328,0.0
13.264,0.698,-0.822,0.0
12.383,0.652,-0.839,0.0
11.676,0.616,-0.86,0.0
10.935,0.578,-0.869,0.0
10.391,0.55,-0.887,0.0
23.626,1.248,-1.368,0.0
12.948,0.685,-0.825,0.0
12.208,0.647,-0.848,0.0
11.368,0.603,-0.857,0.0
10.728,0.57,-0.871,0.0
10.219,0.544,-0.889,0.0
13.542,0.719,-0.807,0.0
12.785,0.68,-0.836,0.0
12.009,0.639,-0.855,0.0
11.147,0.594,-0.859,0.0
10.568,0.564,-0.876,0.0
10.103,0.54,-0.897,0.0
13.279,0.708,-0.814,0.0
12.478,0.666,-0.837,0.0
11.653,0.623,-0.849,0.0
11.026,0.59,-0.869,0.0
10.41,0.558,-0.881,0.0
9.917,0.532,-0.897,0.0
12.976,0.694,-0.817,0.0
12.268,0.657,-0.844,0.0
11.4,0.611,-0.85,0.0
10.766,0.578,-0.866,0.0
10.262,0.551,-0.886,0.0
9.771,0.525,-0.9,0.0
12.926,0.693,-0.835,1.0
12.117,0.65,-0.853,0.0
11.264,0.605,-0.858,0.0
10.619,0.571,-0.872,0.0
10.094,0.543,-0.888,0.0
9.58,0.516,-0.898,0.0
12.597,0.677,-0.835,0.0
11.738,0.631,-0.846,0.0
11.056,0.595,-0.861,0.0
23.673,1.275,-1.984,0.0
9.973,0.537,-0.893,0.0
9.463,0.51,-0.903,0.0
12.405,0.667,-0.842,0.0
11.622,0.625,-0.856,0.0
10.871,0.585,-0.864,0.0
10.289,0.554,-0.879,0.0
9.818,0.529,-0.896,0.0
9.328,0.503,-0.905,0.0
12.191,0.656,-0.847,0.0
11.343,0.61,-0.854,0.0
10.743,0.578,-0.871,0.0
10.219,0.551,-0.889,0.0
9.678,0.522,-0.898,0.0
9.199,0.496,-0.908,0.0
11.972,0.644,-0.851,0.0
11.17,0.601,-0.859,0.0
10.545,0.567,-0.872,0.0
10.066,0.542,-0.892,0.0
9.563,0.515,-0.903,0.0
8.995,0.485,-0.902,0.0
11.681,0.627,-0.849,0.0
11.014,0.592,-0.864,0.0
10.434,0.561,-0.879,0.0
9.903,0.532,-0.893,0.0
9.422,0.507,-0.905,0.0
8.898,0.479,-0.906,0.0
11.509,0.617,-0.854,0.0
10.801,0.579,-0.864,0.0
10.254,0.55,-0.88,0.0
9.765,0.524,-0.896,0.0
9.264,0.497,-0.904,0.0
8.754,0.47,-0.905,0.0
11.321,0.605,-0.858,0.0
10.705,0.572,-0.873,0.0
10.165,0.544,-0.888,0.0
9.609,0.514,-0.896,0.0
9.097,0.487,-0.901,0.0
8.676,0.464,-0.91,0.0
11.137,0.593,-0.861,0.0
23.656,1.261,-1.966,0.0
10.031,0.534,-0.891,0.0
9.506,0.507,-0.901,0.0
8.955,0.477,-0.901,0.0
8.53,0.455,-0.908,0.0
10.979,0.582,-0.865,0.0
9.857,0.523,-0.891,0.0
9.362,0.497,-0.901,0.0
8.89,0.472,-0.908,0.0
8.431,0.447,-0.91,0.0
23.631,1.248,-1.897,0.0
10.27,0.542,-0.884,0.0
9.78,0.516,-0.898,0.0
9.268,0.489,-0.906,0.0
8.767,0.463,-0.908,0.0
8.337,0.44,-0.912,0.0
23.638,1.241,-1.932,0.0
10.127,0.531,-0.886,0.0
9.609,0.504,-0.896,0.0
8.685,0.456,-0.912,0.0
8.195,0.43,-0.909,0.0
23.644,1.234,-1.966,0.0
10.0,0.522,-0.889,0.0
9.535,0.497,-0.903,0.0
8.551,0.446,-0.91,0.0
8.143,0.424,-0.914,0.0
9.92,0.514,-0.896,0.0
9.388,0.486,-0.902,0.0
8.869,0.459,-0.905,0.0
8.453,0.437,-0.912,0.0
8.064,0.417,-0.917,0.0
10.247,0.527,-0.88,0.0
9.76,0.501,-0.895,0.0
9.225,0.474,-0.899,0.0
8.781,0.451,-0.908,0.0
8.345,0.428,-0.912,0.0
7.984,0.409,-0.919,0.0
10.185,0.519,-0.889,0.0
9.623,0.49,-0.895,0.0
8.655,0.44,-0.907,0.0
8.242,0.419,-0.911,0.0
7.922,0.403,-0.922,0.0
10.049,0.507,-0.89,0.0
9.519,0.48,-0.898,0.0
8.574,0.432,-0.909,0.0
8.161,0.411,-0.913,0.0
7.85,0.395,-0.924,0.0
9.926,0.496,-0.892,0.0
9.448,0.472,-0.904,0.0
8.909,0.444,-0.903,0.0
8.489,0.423,-0.911,0.0
8.116,0.404,-0.918,0.0
7.756,0.386,-0.923,0.0
9.822,0.486,-0.895,0.0
9.277,0.458,-0.899,0.0
8.808,0.435,-0.904,0.0
8.365,0.412,-0.908,0.0
8.015,0.395,-0.917,0.0
7.733,0.381,-0.93,0.0
9.713,0.475,-0.897,0.0
8.735,0.426,-0.908,0.0
8.276,0.403,-0.909,0.0
7.928,0.386,-0.917,0.0
7.629,0.371,-0.927,0.0
9.587,0.463,-0.897,0.0
8.614,0.415,-0.905,0.0
8.158,0.392,-0.905,0.0
7.892,0.379,-0.922,0.0
7.607,0.365,-0.933,0.0
9.5,0.453,-0.899,0.0
8.986,0.427,-0.903,0.0
8.513,0.405,-0.904,0.0
8.125,0.386,-0.911,0.0
7.849,0.372,-0.926,0.0
7.53,0.356,-0.932,0.0
9.439,0.443,-0.904,0.0
8.909,0.418,-0.905,0.0
8.465,0.396,-0.909,0.0
8.066,0.377,-0.913,0.0
7.812,0.365,-0.93,0.0
7.486,0.349,-0.935,0.0
9.324,0.432,-0.903,0.0
8.812,0.407,-0.904,0.0
8.392,0.387,-0.91,0.0
8.009,0.369,-0.916,0.0
7.711,0.355,-0.926,0.0
7.436,0.341,-0.937,0.0
9.259,0.422,-0.907,0.0
8.789,0.4,-0.911,0.0
8.271,0.376,-0.906,0.0
7.953,0.36,-0.918,0.0
7.648,0.346,-0.927,0.0
7.357,0.332,-0.934,0.0
9.119,0.409,-0.902,0.0
8.662,0.387,-0.907,0.0
8.225,0.367,-0.909,0.0
7.907,0.352,-0.92,0.0
7.654,0.34,-0.935,0.0
7.339,0.326,-0.939,0.0
9.051,0.398,-0.905,0.0
8.579,0.377,-0.907,0.0
8.174,0.358,-0.911,0.0
7.829,0.343,-0.919,0.0
7.558,0.33,-0.931,0.0
7.272,0.317,-0.938,0.0
8.969,0.388,-0.905,0.0
8.511,0.367,-0.908,0.0
8.14,0.35,-0.915,0.0
7.803,0.335,-0.923,0.0
7.521,0.322,-0.933,0.0
7.254,0.31,-0.942,0.0
8.892,0.377,-0.905,0.0
8.467,0.358,-0.911,0.0
8.079,0.341,-0.916,0.0
7.752,0.326,-0.924,0.0
7.49,0.314,-0.936,0.0
7.23,0.303,-0.946,0.0
8.833,0.367,-0.907,0.0
8.399,0.348,-0.911,0.0
8.029,0.332,-0.917,0.0
7.75,0.319,-0.93,0.0
7.436,0.306,-0.936,0.0
7.209,0.296,-0.949,0.0
8.801,0.358,-0.911,0.0
8.358,0.339,-0.913,0.0
7.977,0.322,-0.917,0.0
7.697,0.31,-0.93,0.0
7.407,0.298,-0.938,0.0
7.153,0.287,-0.947,0.0
8.739,0.347,-0.911,0.0
8.28,0.328,-0.911,0.0
7.957,0.314,-0.921,0.0
7.628,0.3,-0.928,0.0
7.363,0.289,-0.938,0.0
7.123,0.279,-0.949,0.0
8.682,0.337,-0.912,0.0
8.254,0.319,-0.914,0.0
7.914,0.305,-0.922,0.0
7.609,0.293,-0.931,0.0
7.295,0.28,-0.935,0.0
7.074,0.27,-0.947,0.0
8.64,0.327,-0.914,0.0
8.21,0.31,-0.915,0.0
7.912,0.298,-0.927,0.0
7.562,0.284,-0.931,0.0
7.285,0.272,-0.939,0.0
7.055,0.263,-0.95,0.0
8.568,0.316,-0.912,0.0
8.188,0.301,-0.918,0.0
7.836,0.287,-0.924,0.0
7.544,0.275,-0.933,0.0
7.253,0.264,-0.939,0.0
7.003,0.254,-0.947,0.0
8.503,0.305,-0.91,0.0
8.113,0.29,-0.915,0.0
7.804,0.278,-0.925,0.0
7.497,0.266,-0.932,0.0
7.246,0.256,-0.943,0.0
6.989,0.246,-0.949,0.0
8.505,0.297,-0.915,0.0
8.093,0.281,-0.917,0.0
7.777,0.269,-0.926,0.0
7.472,0.258,-0.933,0.0
7.217,0.248,-0.943,0.0
6.945,0.238,-0.947,0.0
8.445,0.286,-0.913,0.0
8.084,0.273,-0.92,0.0
7.766,0.261,-0.929,0.0
7.461,0.25,-0.936,0.0
7.209,0.24,-0.945,0.0
6.934,0.23,-0.949,0.0
8.431,0.277,-0.916,0.0
8.072,0.264,-0.923,0.0
7.75,0.253,-0.93,0.0
7.448,0.242,-0.937,0.0
7.213,0.233,-0.949,0.0
6.903,0.222,-0.948,0.0
8.4,0.267,-0.916,0.0
8.021,0.254,-0.921,0.0
7.712,0.243,-0.929,0.0
7.42,0.233,-0.937,0.0
7.181,0.224,-0.948,0.0
6.9,0.214,-0.951,0.0
8.377,0.258,-0.917,0.0
8.017,0.245,-0.923,0.0
7.711,0.235,-0.932,0.0
7.412,0.225,-0.939,0.0
7.163,0.216,-0.948,0.0
6.89,0.207,-0.952,0.0
8.337,0.247,-0.916,0.0
7.996,0.236,-0.924,0.0
7.695,0.226,-0.933,0.0
7.402,0.216,-0.94,0.0
7.159,0.208,-0.95,0.0
6.863,0.198,-0.95,0.0
8.305,0.238,-0.915,0.0
8.002,0.228,-0.927,0.0
7.665,0.217,-0.931,0.0
7.395,0.208,-0.941,0.0
7.141,0.2,-0.95,0.0
6.848,0.19,-0.95,0.0
8.298,0.228,-0.916,0.0
7.999,0.219,-0.929,0.0
7.671,0.208,-0.934,0.0
7.385,0.2,-0.942,0.0
7.135,0.192,-0.951,0.0
6.859,0.183,-0.953,0.0
8.31,0.219,-0.919,0.0
8.0,0.21,-0.93,0.0
7.634,0.199,-0.931,0.0
7.378,0.191,-0.943,0.0
7.124,0.183,-0.951,0.0
6.836,0.175,-0.952,0.0
8.286,0.209,-0.918,0.0
7.982,0.2,-0.93,0.0
7.664,0.191,-0.936,0.0
7.336,0.182,-0.939,0.0
7.128,0.175,-0.952,0.0
6.835,0.167,-0.952,0.0
8.298,0.2,-0.921,0.0
7.986,0.191,-0.931,0.0
7.637,0.182,-0.934,0.0
7.33,0.173,-0.939,0.0
7.078,0.166,-0.947,0.0
6.82,0.159,-0.951,0.0
8.252,0.19,-0.916,0.0
7.974,0.182,-0.93,0.0
7.659,0.173,-0.937,0.0
7.347,0.165,-0.941,0.0
7.087,0.158,-0.948,0.0
6.8,0.15,-0.948,0.0
8.284,0.181,-0.92,0.0
7.953,0.172,-0.928,0.0
7.653,0.164,-0.937,0.0
7.341,0.156,-0.941,0.0
7.125,0.151,-0.953,0.0
6.824,0.143,-0.952,0.0
8.316,0.172,-0.924,0.0
7.976,0.164,-0.931,0.0
7.652,0.156,-0.936,0.0
7.351,0.148,-0.942,0.0
7.093,0.142,-0.949,0.0
6.837,0.135,-0.953,0.0
8.292,0.162,-0.921,0.0
7.978,0.154,-0.931,0.0
7.667,0.147,-0.937,0.0
7.354,0.14,-0.941,0.0
7.084,0.133,-0.947,0.0
6.827,0.127,-0.951,0.0
8.312,0.153,-0.922,0.0
7.978,0.145,-0.93,0.0
7.669,0.138,-0.937,0.0
7.367,0.131,-0.942,0.0
7.093,0.125,-0.947,0.0
6.828,0.119,-0.951,0.0
8.339,0.144,-0.924,0.0
8.009,0.137,-0.932,0.0
7.67,0.129,-0.936,0.0
7.355,0.123,-0.939,0.0
7.114,0.117,-0.949,0.0
6.85,0.112,-0.952,0.0
8.351,0.134,-0.924,0.0
8.016,0.127,-0.931,0.0
7.69,0.121,-0.937,0.0
7.398,0.115,-0.943,0.0
7.116,0.109,-0.947,0.0
6.863,0.104,-0.953,0.0
8.363,0.125,-0.923,0.0
8.033,0.119,-0.931,0.0
7.703,0.112,-0.936,0.0
7.373,0.106,-0.938,0.0
7.113,0.101,-0.945,0.0
6.872,0.096,-0.952,0.0
8.387,0.116,-0.923,0.0
8.046,0.11,-0.931,0.0
7.725,0.104,-0.937,0.0
7.393,0.098,-0.939,0.0
7.147,0.093,-0.947,0.0
6.869,0.088,-0.949,0.0
8.419,0.107,-0.924,0.0
8.07,0.1,-0.931,0.0
7.729,0.095,-0.934,0.0
7.415,0.089,-0.939,0.0
7.168,0.085,-0.948,0.0
6.898,0.081,-0.951,0.0
8.424,0.097,-0.921,0.0
8.104,0.092,-0.931,0.0
7.76,0.086,-0.935,0.0
7.453,0.081,-0.94,0.0
7.196,0.077,-0.948,0.0
6.909,0.073,-0.949,0.0
8.483,0.088,-0.924,0.0
8.118,0.083,-0.93,0.0
7.802,0.078,-0.937,0.0
7.459,0.073,-0.938,0.0
7.226,0.069,-0.949,0.0
6.97,0.065,-0.955,0.0
8.517,0.079,-0.924,0.0
8.137,0.074,-0.928,0.0
7.813,0.069,-0.934,0.0
7.517,0.065,-0.942,0.0
7.243,0.061,-0.948,0.0
6.973,0.057,-0.951,0.0
8.539,0.069,-0.922,0.0
8.172,0.065,-0.928,0.0
7.852,0.06,-0.935,0.0
7.564,0.057,-0.943,0.0
7.28,0.053,-0.948,0.0
6.998,0.05,-0.951,0.0
8.55,0.06,-0.918,0.0
8.21,0.056,-0.927,0.0
7.875,0.052,-0.933,0.0
7.576,0.048,-0.94,0.0
7.278,0.045,-0.944,0.0
7.035,0.042,-0.952,0.0
8.627,0.051,-0.921,0.0
8.265,0.047,-0.928,0.0
7.922,0.043,-0.934,0.0
7.619,0.04,-0.941,0.0
7.319,0.037,-0.945,0.0
7.067,0.034,-0.951,0.0
8.7,0.042,-0.924,0.0
8.3,0.038,-0.927,0.0
7.961,0.035,-0.933,0.0
7.66,0.032,-0.941,0.0
7.344,0.029,-0.943,0.0
7.09,0.027,-0.95,0.0
8.726,0.032,-0.92,0.0
8.348,0.029,-0.927,0.0
8.016,0.027,-0.934,0.0
7.691,0.024,-0.939,0.0
7.421,0.022,-0.947,0.0
7.134,0.019,-0.95,0.0
8.802,0.023,-0.922,0.0
8.411,0.02,-0.927,0.0
8.061,0.018,-0.933,0.0
7.735,0.016,-0.939,0.0
7.474,0.014,-0.948,0.0
7.156,0.012,-0.948,0.0
8.827,0.014,-0.918,0.0
8.459,0.012,-0.926,0.0
8.101,0.01,-0.931,0.0
7.799,0.008,-0.94,0.0
7.488,0.006,-0.944,0.0
7.181,0.004,-0.945,0.0
8.886,0.005,-0.917,0.0
8.522,0.003,-0.926,0.0
8.141,0.001,-0.929,0.0
7.855,0.0,-0.94,0.0
7.518,-0.001,-0.941,0.0
7.246,-0.002,-0.947,0.0
9.005,-0.004,-0.921,0.0
8.57,-0.005,-0.924,0.0
8.222,-0.006,-0.931,0.0
7.892,-0.008,-0.938,0.0
7.546,-0.009,-0.938,0.0
7.295,-0.01,-0.947,0.0
9.059,-0.013,-0.919,0.0
8.656,-0.014,-0.925,0.0
8.268,-0.015,-0.929,0.0
7.945,-0.016,-0.937,0.0
7.612,-0.017,-0.939,0.0
7.327,-0.017,-0.944,0.0
9.123,-0.022,-0.916,0.0
8.753,-0.023,-0.927,0.0
8.358,-0.023,-0.931,0.0
7.997,-0.024,-0.935,0.0
7.696,-0.024,-0.942,0.0
7.392,-0.025,-0.945,0.0
9.242,-0.032,-0.919,0.0
8.805,-0.032,-0.924,0.0
8.417,-0.032,-0.929,0.0
8.04,-0.032,-0.932,0.0
7.739,-0.032,-0.939,0.0
7.465,-0.032,-0.947,0.0
9.343,-0.041,-0.92,0.0
8.854,-0.04,-0.92,0.0
8.47,-0.04,-0.926,0.0
8.158,-0.04,-0.937,0.0
7.828,-0.04,-0.942,0.0
7.516,-0.04,-0.945,0.0
9.422,-0.05,-0.917,0.0
8.963,-0.049,-0.921,0.0
8.589,-0.049,-0.929,0.0
8.192,-0.048,-0.932,0.0
7.894,-0.048,-0.941,0.0
7.557,-0.047,-0.942,0.0
9.511,-0.059,-0.915,0.0
9.009,-0.058,-0.916,0.0
8.656,-0.057,-0.927,0.0
8.269,-0.056,-0.931,0.0
7.949,-0.055,-0.938,0.0
7.652,-0.055,-0.945,0.0
9.616,-0.069,-0.915,0.0
9.145,-0.067,-0.919,0.0
8.762,-0.066,-0.928,0.0
8.368,-0.064,-0.932,0.0
8.006,-0.063,-0.935,0.0
7.706,-0.062,-0.942,0.0
9.744,-0.078,-0.915,0.0
9.229,-0.076,-0.917,0.0
8.825,-0.074,-0.924,0.0
8.442,-0.072,-0.93,0.0
8.097,-0.071,-0.936,0.0
7.779,-0.069,-0.942,0.0
9.836,-0.088,-0.912,0.0
9.366,-0.085,-0.919,0.0
8.885,-0.082,-0.919,0.0
8.486,-0.08,-0.925,0.0
8.171,-0.078,-0.935,0.0
7.858,-0.077,-0.941,0.0
9.951,-0.097,-0.91,0.0
9.481,-0.094,-0.918,0.0
8.997,-0.091,-0.919,0.0
8.607,-0.088,-0.927,0.0
8.221,-0.085,-0.93,0.0
7.932,-0.084,-0.94,0.0
10.091,-0.106,-0.91,0.0
9.588,-0.103,-0.916,0.0
9.17,-0.1,-0.925,0.0
8.738,-0.096,-0.929,0.0
8.368,-0.094,-0.935,0.0
8.015,-0.091,-0.939,0.0
10.211,-0.116,-0.907,0.0
9.721,-0.112,-0.915,0.0
9.24,-0.108,-0.92,0.0
8.814,-0.104,-0.925,0.0
8.457,-0.101,-0.933,0.0
8.109,-0.098,-0.939,0.0
10.331,-0.125,-0.903,0.0
9.852,-0.121,-0.914,0.0
9.392,-0.116,-0.922,0.0
8.87,-0.111,-0.919,0.0
8.517,-0.108,-0.928,0.0
8.164,-0.105,-0.934,0.0
10.466,-0.134,-0.9,0.0
9.983,-0.129,-0.912,0.0
9.509,-0.125,-0.92,0.0
8.998,-0.119,-0.919,0.0
8.636,-0.116,-0.929,0.0
8.283,-0.112,-0.935,0.0
10.654,-0.144,-0.902,0.0
10.098,-0.138,-0.908,0.0
9.63,-0.133,-0.918,0.0
9.171,-0.128,-0.924,0.0
8.792,-0.124,-0.933,0.0
8.372,-0.119,-0.933,0.0
10.825,-0.153,-0.9,0.0
10.263,-0.147,-0.908,0.0
9.771,-0.141,-0.917,0.0
9.28,-0.135,-0.921,0.0
8.84,-0.13,-0.925,0.0
8.49,-0.126,-0.934,0.0
10.97,-0.162,-0.896,0.0
10.418,-0.156,-0.906,0.0
9.903,-0.149,-0.914,0.0
9.398,-0.143,-0.919,0.0
8.942,-0.137,-0.922,0.0
8.575,-0.133,-0.93,0.0
11.149,-0.172,-0.894,0.0
10.566,-0.164,-0.903,0.0
10.01,-0.157,-0.909,0.0
9.566,-0.151,-0.92,0.0
9.144,-0.146,-0.928,0.0
8.72,-0.14,-0.932,0.0
11.356,-0.182,-0.893,0.0
10.761,-0.174,-0.903,0.0
10.18,-0.165,-0.908,0.0
9.712,-0.159,-0.919,0.0
9.216,-0.152,-0.921,0.0
8.826,-0.147,-0.929,0.0
11.491,-0.19,-0.885,0.0
10.905,-0.182,-0.898,0.0
10.361,-0.174,-0.908,0.0
9.844,-0.167,-0.916,0.0
9.407,-0.16,-0.925,0.0
8.945,-0.154,-0.927,0.0
11.769,-0.201,-0.888,0.0
11.12,-0.191,-0.898,0.0
10.542,-0.182,-0.907,0.0
10.009,-0.174,-0.915,0.0
9.543,-0.167,-0.923,0.0
9.066,-0.16,-0.925,0.0
11.938,-0.21,-0.881,0.0
11.305,-0.2,-0.894,0.0
10.712,-0.191,-0.903,0.0
10.161,-0.182,-0.912,0.0
9.686,-0.174,-0.92,0.0
9.22,-0.167,-0.925,0.0
12.151,-0.219,-0.876,0.0
11.493,-0.208,-0.89,0.0
10.874,-0.198,-0.899,0.0
10.349,-0.19,-0.911,0.0
9.827,-0.181,-0.917,0.0
9.37,-0.174,-0.924,0.0
12.413,-0.229,-0.874,0.0
11.77,-0.218,-0.891,0.0
11.08,-0.206,-0.897,0.0
10.52,-0.197,-0.908,0.0
10.0,-0.188,-0.916,0.0
9.528,-0.18,-0.923,0.0
12.693,-0.239,-0.873,0.0
11.969,-0.226,-0.886,0.0
11.284,-0.214,-0.894,0.0
10.694,-0.204,-0.905,0.0
10.183,-0.195,-0.915,0.0
9.682,-0.187,-0.921,0.0
12.929,-0.248,-0.866,0.0
12.155,-0.234,-0.878,0.0
11.518,-0.223,-0.893,0.0
10.865,-0.211,-0.9,0.0
10.331,-0.202,-0.91,0.0
9.819,-0.192,-0.917,0.0
13.219,-0.258,-0.863,0.0
12.37,-0.242,-0.872,0.0
11.756,-0.231,-0.89,0.0
11.107,-0.219,-0.9,0.0
10.532,-0.209,-0.909,0.0
10.021,-0.199,-0.918,0.0
13.475,-0.266,-0.855,0.0
12.679,-0.252,-0.871,0.0
11.979,-0.239,-0.885,0.0
11.307,-0.226,-0.896,0.0
10.743,-0.216,-0.908,0.0
10.206,-0.206,-0.916,0.0
13.933,-0.279,-0.859,0.0
12.878,-0.259,-0.862,0.0
12.183,-0.245,-0.879,0.0
11.529,-0.233,-0.893,0.0
10.89,-0.221,-0.901,0.0
10.346,-0.211,-0.91,0.0
14.239,-0.288,-0.852,1.0
13.313,-0.27,-0.866,0.0
12.417,-0.253,-0.873,0.0
11.766,-0.24,-0.89,0.0
11.126,-0.228,-0.899,0.0
10.555,-0.217,-0.909,0.0
14.606,-0.298,-0.847,0.0
13.559,-0.277,-0.857,0.0
12.752,-0.261,-0.872,0.0
12.016,-0.247,-0.886,0.0
11.375,-0.235,-0.898,0.0
10.772,-0.223,-0.907,0.0
15.074,-0.31,-0.846,0.0
14.016,-0.289,-0.86,0.0
12.997,-0.268,-0.865,0.0
12.155,-0.251,-0.873,0.0
11.604,-0.241,-0.894,0.0
10.96,-0.228,-0.902,0.0
15.512,-0.32,-0.842,0.0
14.294,-0.296,-0.85,0.0
13.389,-0.277,-0.866,0.0
12.594,-0.261,-0.881,0.0
11.817,-0.246,-0.888,0.0
11.2,-0.233,-0.9,0.0
15.862,-0.328,-0.83,0.0
14.75,-0.306,-0.849,0.0
13.637,-0.283,-0.856,0.0
12.807,-0.266,-0.871,0.0
12.143,-0.253,-0.89,0.0
11.44,-0.239,-0.898,0.0
16.423,-0.34,-0.828,0.0
15.147,-0.314,-0.843,0.0
14.151,-0.294,-0.861,0.0
13.135,-0.273,-0.868,0.0
12.294,-0.256,-0.877,0.0
11.674,-0.243,-0.894,0.0
16.995,-0.352,-0.825,0.0
15.598,-0.323,-0.838,0.0
14.44,-0.3,-0.85,0.0
13.448,-0.279,-0.863,0.0
12.698,-0.264,-0.881,0.0
11.913,-0.248,-0.889,0.0
17.485,-0.361,-0.815,0.0
16.125,-0.333,-0.835,0.0
14.948,-0.309,-0.852,0.0
13.803,-0.286,-0.859,0.0
12.918,-0.267,-0.872,0.0
12.192,-0.252,-0.886,0.0
18.135,-0.373,-0.81,0.0
16.583,-0.341,-0.827,0.0
15.345,-0.316,-0.844,0.0
14.219,-0.293,-0.858,0.0
13.289,-0.273,-0.87,0.0
12.451,-0.256,-0.88,0.0
18.84,-0.385,-0.805,0.0
17.161,-0.351,-0.822,0.0
15.712,-0.321,-0.834,0.0
14.59,-0.298,-0.851,0.0
13.587,-0.277,-0.863,0.0
12.792,-0.261,-0.879,0.0
19.434,-0.394,-0.792,0.0
21.755,-0.441,-0.999,0.0
16.34,-0.331,-0.835,0.0
15.054,-0.305,-0.848,0.0
14.107,-0.285,-0.868,0.0
13.023,-0.263,-0.869,0.0
20.039,-0.402,-0.777,0.0
18.423,-0.369,-0.81,0.0
16.784,-0.336,-0.824,0.0
15.534,-0.311,-0.845,0.0
14.282,-0.285,-0.851,0.0
13.323,-0.266,-0.863,0.0
20.847,-0.413,-0.767,0.0
19.091,-0.378,-0.801,0.0
17.362,-0.343,-0.818,0.0
15.949,-0.315,-0.836,0.0
14.812,-0.292,-0.853,0.0
13.742,-0.27,-0.863,0.0
21.637,-0.423,-0.753,5.0
19.712,-0.384,-0.788,0.0
18.089,-0.352,-0.816,0.0
16.495,-0.321,-0.831,0.0
15.292,-0.297,-0.85,0.0
14.186,-0.275,-0.862,1.0
21.706,-0.417,-0.712,4.0
20.339,-0.39,-0.772,0.0
18.702,-0.358,-0.807,0.0
17.009,-0.325,-0.824,0.0
15.694,-0.299,-0.841,0.0
14.572,-0.277,-0.856,0.0
21.736,-0.41,-0.67,4.0
21.373,-0.402,-0.769,1.0
19.393,-0.364,-0.798,0.0
17.554,-0.328,-0.815,0.0
16.212,-0.302,-0.836,0.0
15.042,-0.28,-0.854,0.0
21.72,-0.401,-0.627,10.0
21.693,-0.399,-0.738,4.0
20.005,-0.367,-0.783,0.0
18.293,-0.334,-0.813,0.0
16.795,-0.306,-0.833,0.0
15.447,-0.28,-0.846,0.0
25.811,-0.465,-0.693,0.0
21.882,-0.393,-0.7,1.0
20.635,-0.369,-0.767,0.0
18.991,-0.338,-0.806,0.0
17.232,-0.306,-0.82,0.0
15.86,-0.28,-0.837,0.0
0.0,0.0,0.0,0.0
23.903,-0.417,-0.717,0.0
21.587,-0.375,-0.759,2.0
19.612,-0.34,-0.793,0.0
17.961,-0.31,-0.819,0.0
16.463,-0.283,-0.836,0.0
0.0,0.0,0.0,0.0
25.121,-0.425,-0.703,0.0
22.133,-0.373,-0.734,1.0
20.241,-0.339,-0.778,0.0
18.698,-0.312,-0.815,0.0
16.996,-0.282,-0.829,0.0
29.907,-0.492,-0.623,0.0
26.01,-0.426,-0.677,0.0
23.183,-0.377,-0.722,0.0
20.941,-0.339,-0.763,0.0
19.28,-0.31,-0.802,1.0
17.476,-0.28,-0.817,0.0
30.885,-0.49,-0.582,0.0
27.686,-0.436,-0.665,0.0
24.618,-0.386,-0.718,0.0
21.856,-0.34,-0.753,0.0
19.833,-0.307,-0.785,0.0
18.26,-0.281,-0.817,0.0
33.121,-0.504,-0.559,0.0
29.234,-0.442,-0.644,0.0
25.537,-0.384,-0.694,0.0
22.629,-0.338,-0.734,0.0
20.09,-0.298,-0.755,1.0
18.956,-0.279,-0.811,1.0
34.954,-0.509,-0.52,0.0
30.478,-0.44,-0.611,0.0
26.691,-0.383,-0.673,0.0
23.564,-0.335,-0.718,0.0
21.362,-0.301,-0.761,0.0
19.523,-0.273,-0.796,1.0
0.0,0.0,0.0,0.0
31.644,-0.435,-0.572,0.0
0.0,0.0,0.0,0.0
24.875,-0.336,-0.709,0.0
22.264,-0.298,-0.749,0.0
19.803,-0.262,-0.769,4.0
0.0,0.0,0.0,0.0
0.0,0.0,0.0,0.0
29.462,-0.379,-0.627,0.0
25.927,-0.33,-0.688,0.0
23.041,-0.29,-0.73,0.0
19.855,-0.248,-0.732,2.0
0.0,0.0,0.0,0.0
0.0,0.0,0.0,0.0
30.567,-0.368,-0.59,0.0
26.798,-0.319,-0.658,0.0
24.244,-0.286,-0.721,0.0
21.7,-0.253,-0.758,0.0
0.0,0.0,0.0,0.0
0.0,0.0,0.0,0.0
32.312,-0.363,-0.561,0.0
28.253,-0.313,-0.639,0.0
25.307,-0.277,-0.703,0.0
22.54,-0.243,-0.743,1.0
0.0,0.0,0.0,0.0
0.0,0.0,0.0,0.0
19.929,-0.206,-0.307,0.0
19.719,-0.201,-0.407,0.0
26.246,-0.264,-0.678,0.0
23.324,-0.231,-0.723,0.0
0.0,0.0,0.0,0.0
19.793,-0.189,-0.164,1.0
19.77,-0.186,-0.266,7.0
19.756,-0.183,-0.37,10.0
19.76,-0.18,-0.472,9.0
19.769,-0.177,-0.575,5.0
0.0,0.0,0.0,0.0
19.77,-0.171,-0.126,8.0
19.747,-0.168,-0.228,12.0
19.749,-0.164,-0.332,13.0
19.739,-0.161,-0.434,15.0
19.752,-0.158,-0.537,17.0
19.836,-0.155,0.013,0.0
19.745,-0.151,-0.088,11.0
19.735,-0.148,-0.19,14.0
19.723,-0.145,-0.294,16.0
19.74,-0.142,-0.397,17.0
19.732,-0.138,-0.499,17.0
19.789,-0.135,0.051,3.0
19.776,-0.132,-0.051,9.0
19.724,-0.128,-0.153,15.0
19.726,-0.125,-0.257,17.0
19.744,-0.121,-0.36,17.0
19.74,-0.118,-0.462,17.0
19.755,-0.114,0.088,9.0
19.721,-0.111,-0.013,11.0
19.716,-0.107,-0.116,15.0
19.715,-0.104,-0.22,16.0
19.748,-0.1,-0.323,15.0
19.744,-0.097,-0.425,16.0
19.719,-0.093,0.124,15.0
19.714,-0.089,0.022,12.0
19.706,-0.086,-0.079,10.0
19.707,-0.082,-0.184,16.0
19.749,-0.079,-0.286,14.0
19.766,-0.075,-0.389,14.0
19.701,-0.071,0.16,16.0
19.707,-0.068,0.058,14.0
19.714,-0.064,-0.043,16.0
19.708,-0.06,-0.147,15.0
19.746,-0.056,-0.25,15.0
19.765,-0.053,-0.353,4.0
19.663,-0.049,0.196,15.0
19.697,-0.045,0.094,16.0
19.699,-0.041,-0.007,17.0
19.725,-0.037,-0.111,11.0
19.759,-0.033,-0.214,11.0
34.934,-0.052,-0.56,0.0
19.64,-0.025,0.232,14.0
19.691,-0.021,0.131,7.0
19.706,-0.017,0.028,14.0
19.727,-0.013,-0.075,8.0
19.762,-0.01,-0.178,1.0
0.0,0.0,0.0,0.0
19.625,-0.002,0.267,14.0
19.704,0.001,0.166,7.0
19.797,0.005,0.063,3.0
19.744,0.01,-0.041,10.0
19.788,0.014,-0.144,1.0
19.785,0.018,-0.247,1.0
19.622,0.022,0.302,16.0
19.644,0.026,0.2,15.0
19.737,0.03,0.098,15.0
19.726,0.034,-0.006,15.0
19.751,0.038,-0.109,10.0
19.778,0.043,-0.212,21.0
19.621,0.046,0.336,14.0
19.618,0.05,0.233,15.0
19.712,0.055,0.132,15.0
19.743,0.059,0.027,28.0
19.759,0.063,-0.075,42.0
19.763,0.068,-0.178,64.0
19.618,0.071,0.369,23.0
19.599,0.076,0.267,14.0
19.656,0.08,0.165,10.0
19.677,0.085,0.06,15.0
19.737,0.089,-0.042,8.0
19.781,0.094,-0.145,0.0
19.62,0.097,0.403,27.0
19.613,0.102,0.3,16.0
19.646,0.106,0.198,13.0
19.644,0.111,0.093,14.0
19.643,0.115,-0.009,13.0
19.681,0.12,-0.112,8.0
19.603,0.124,0.435,17.0
19.605,0.128,0.333,11.0
19.638,0.133,0.23,11.0
19.636,0.137,0.125,14.0
19.639,0.142,0.022,17.0
19.652,0.146,-0.079,10.0
19.614,0.151,0.467,12.0
19.62,0.155,0.365,10.0
19.628,0.16,0.262,10.0
19.65,0.165,0.158,13.0
19.654,0.17,0.055,13.0
19.639,0.174,-0.047,15.0
19.646,0.179,0.5,10.0
19.654,0.183,0.397,10.0
19.678,0.188,0.295,9.0
19.67,0.193,0.189,10.0
19.677,0.198,0.086,12.0
19.656,0.202,-0.016,15.0
19.713,0.208,0.533,11.0
19.719,0.212,0.43,10.0
19.728,0.217,0.327,10.0
19.735,0.222,0.221,19.0
19.775,0.227,0.118,23.0
19.692,0.231,0.014,6.0
19.667,0.236,0.563,13.0
19.685,0.241,0.46,10.0
19.689,0.246,0.356,12.0
19.718,0.251,0.251,12.0
19.769,0.256,0.148,25.0
84.895,1.123,0.19,3.0
19.648,0.264,0.592,15.0
19.669,0.27,0.49,14.0
19.684,0.275,0.386,13.0
19.714,0.28,0.281,13.0
19.769,0.286,0.178,3.0
0.0,0.0,0.0,0.0
19.666,0.294,0.623,13.0
19.67,0.299,0.519,11.0
19.695,0.305,0.416,8.0
19.735,0.31,0.311,1.0
163.203,2.61,1.713,22.0
55.174,0.896,0.288,5.0
55.216,0.912,1.831,15.0
55.195,0.925,1.539,28.0
55.183,0.939,1.247,51.0
55.167,0.953,0.95,74.0
55.162,0.967,0.659,74.0
55.163,0.982,0.368,72.0
55.189,0.998,1.911,67.0
55.181,1.011,1.618,49.0
55.189,1.025,1.326,39.0
55.19,1.04,1.029,26.0
55.194,1.054,0.738,10.0
55.193,1.068,0.446,1.0
135.165,2.656,4.871,20.0
135.513,2.699,4.166,15.0
163.551,3.3,4.164,4.0
179.308,3.663,3.596,39.0
163.458,3.382,2.413,19.0
162.322,3.402,1.538,10.0
121.241,2.577,4.538,17.0
114.127,2.454,3.665,9.0
134.753,2.934,3.614,8.0
179.189,3.95,3.839,23.0
128.945,2.877,2.08,9.0
71.087,1.604,0.769,2.0
121.235,2.773,4.702,20.0
114.272,2.644,3.826,16.0
98.639,2.308,2.778,48.0
98.865,2.339,2.25,93.0
98.889,2.368,1.726,55.0
70.936,1.717,0.862,16.0
113.587,2.785,4.556,19.0
113.958,2.824,3.964,13.0
115.423,2.89,3.402,11.0
138.767,3.513,3.339,14.0
45.494,1.163,0.852,11.0
0.0,0.0,0.0,0.0
43.728,1.144,1.81,105.0
0.0,0.0,0.0,0.0
0.0,0.0,0.0,0.0
0.0,0.0,0.0,0.0
41.908,1.141,0.838,90.0
0.0,0.0,0.0,0.0
0.0,0.0,0.0,0.0
40.108,1.127,1.496,85.0
40.118,1.139,1.283,118.0
40.119,1.149,1.065,150.0
40.123,1.16,0.851,150.0
40.114,1.171,0.637,150.0
40.126,1.184,1.76,115.0
40.115,1.195,1.545,150.0
40.117,1.206,1.331,149.0
40.11,1.216,1.112,150.0
40.117,1.227,0.898,150.0
40.114,1.238,0.684,150.0
40.131,1.252,1.807,95.0
40.127,1.262,1.592,113.0
40.114,1.273,1.377,150.0
40.122,1.284,1.158,150.0
40.131,1.295,0.944,150.0
40.121,1.305,0.729,150.0
40.101,1.319,1.851,5.0
120.196,3.986,4.904,8.0
120.363,4.023,4.265,18.0
121.032,4.078,3.628,20.0
121.47,4.127,2.991,8.0
162.401,5.564,3.132,3.0
120.556,4.174,5.697,14.0
114.702,4.001,4.805,11.0
120.453,4.235,4.4,18.0
121.049,4.288,3.759,20.0
44.931,1.604,1.154,2.0
45.025,1.62,0.916,34.0
121.241,4.407,5.859,12.0
120.092,4.397,5.158,20.0
120.384,4.442,4.524,12.0
162.524,6.04,5.217,11.0
42.627,1.596,1.139,84.0
42.002,1.584,0.897,72.0
121.025,4.611,5.974,16.0
120.25,4.614,5.287,3.0
178.553,6.901,6.891,16.0
162.815,6.338,5.392,6.0
40.382,1.583,1.12,150.0
40.381,1.594,0.903,100.0
121.023,4.824,6.094,14.0
180.131,7.229,8.099,17.0
178.775,7.223,7.073,16.0
183.365,7.458,6.249,7.0
45.227,1.852,1.297,6.0
100.521,4.146,2.344,13.0
120.92,5.035,6.204,4.0
23.574,0.987,1.082,0.0
23.618,0.996,0.956,2.0
23.587,1.001,0.826,24.0
23.627,1.009,0.699,37.0
23.611,1.015,0.572,46.0
23.589,1.024,1.232,49.0
23.593,1.03,1.104,43.0
23.578,1.036,0.976,47.0
23.573,1.042,0.846,58.0
23.59,1.049,0.719,137.0
23.587,1.056,0.592,150.0
23.577,1.065,1.252,77.0
23.57,1.071,1.124,74.0
23.564,1.077,0.995,64.0
23.575,1.084,0.866,67.0
23.575,1.091,0.739,72.0
23.59,1.098,0.611,64.0
23.571,1.107,1.271,52.0
23.588,1.114,1.144,42.0
23.59,1.121,1.016,39.0
23.608,1.128,0.887,38.0
23.621,1.135,0.759,33.0
23.602,1.141,0.631,15.0
23.596,1.151,1.291,0.0
23.492,1.152,1.158,0.0
179.985,8.878,7.896,14.0
179.728,8.913,6.891,18.0
162.626,8.108,5.351,12.0
45.209,2.266,1.242,13.0
0.0,0.0,0.0,0.0
0.0,0.0,0.0,0.0
180.172,9.208,8.036,10.0
179.845,9.239,7.026,20.0
162.628,8.399,5.469,4.0
45.195,2.346,1.274,11.0
0.0,0.0,0.0,0.0
200.222,10.536,10.16,12.0
200.184,10.589,9.068,20.0
180.232,9.581,7.165,18.0
180.56,9.646,6.194,13.0
45.219,2.428,1.305,7.0
0.0,0.0,0.0,0.0
0.0,0.0,0.0,0.0
0.0,0.0,0.0,0.0
198.775,10.925,8.031,6.0
180.856,9.99,6.322,12.0
163.467,9.073,4.824,15.0
0.0,0.0,0.0,0.0
0.0,0.0,0.0,0.0
0.0,0.0,0.0,0.0
200.483,11.378,8.224,20.0
198.507,11.32,7.058,18.0
163.448,9.364,4.92,17.0
0.0,0.0,0.0,0.0
0.0,0.0,0.0,0.0
203.691,11.875,9.606,10.0
198.8,11.641,8.268,12.0
197.897,11.639,7.149,18.0
163.448,9.658,5.01,13.0
0.0,0.0,0.0,0.0
204.776,12.251,10.89,6.0
203.54,12.23,9.707,20.0
198.397,11.972,8.355,21.0
197.512,11.969,7.237,19.0
163.104,9.928,5.083,7.0
0.0,0.0,0.0,0.0
204.587,12.605,10.983,6.0
0.0,0.0,0.0,0.0
112.41,6.983,4.788,1.0
112.448,7.016,4.174,2.0
112.42,7.044,3.557,5.0
0.0,0.0,0.0,0.0
100.615,6.38,5.447,4.0
100.529,6.4,4.89,7.0
100.235,6.406,4.314,10.0
100.009,6.417,3.756,22.0
99.979,6.442,3.206,31.0
99.956,6.492,6.005,34.0
99.94,6.516,5.454,30.0
99.947,6.542,4.904,35.0
99.944,6.568,4.343,44.0
99.973,6.595,3.795,41.0
99.961,6.621,3.245,35.0
99.939,6.67,6.042,26.0
99.972,6.697,5.493,33.0
99.964,6.72,4.942,36.0
99.946,6.744,4.379,34.0
99.95,6.77,3.829,38.0
99.968,6.797,3.28,38.0
45.563,3.121,2.77,150.0
99.947,6.87,5.525,31.0
99.945,6.895,4.974,36.0
99.944,6.921,4.412,36.0
99.961,6.947,3.861,33.0
99.986,6.975,3.311,37.0
43.768,3.076,2.675,150.0
99.948,7.049,5.556,25.0
99.947,7.074,5.003,22.0
45.466,3.229,2.02,3.0
45.451,3.239,1.768,14.0
45.462,3.251,1.518,84.0
43.768,3.153,2.686,150.0
45.459,3.286,2.538,150.0
45.464,3.297,2.287,150.0
45.463,3.308,2.031,150.0
45.479,3.32,1.78,132.0
45.482,3.331,1.529,150.0
41.954,3.095,2.585,46.0
43.664,3.232,2.447,86.0
43.671,3.243,2.206,95.0
43.68,3.253,1.96,126.0
43.685,3.264,1.718,150.0
43.683,3.275,1.476,146.0
43.614,3.293,2.695,2.0
43.678,3.307,2.456,140.0
43.68,3.318,2.214,139.0
