X,Y,Z,Reflectivity
20.998,-2.469,-0.778,0.0
18.837,-2.218,-0.802,0.0
17.226,-2.032,-0.827,0.0
16.052,-1.896,-0.857,0.0
26.807,-3.164,-0.68,0.0
0.0,0.0,0.0,0.0
21.298,-2.521,-0.77,0.0
19.39,-2.299,-0.808,0.0
17.544,-2.083,-0.826,0.0
16.197,-1.926,-0.85,0.0
27.313,-3.245,-0.668,0.0
24.562,-2.922,-0.733,0.0
21.815,-2.599,-0.769,0.0
0.0,0.0,0.0,0.0
17.757,-2.122,-0.82,0.0
16.581,-1.984,-0.855,0.0
0.0,0.0,0.0,0.0
24.761,-2.964,-0.716,0.0
22.222,-2.664,-0.763,0.0
19.348,-2.322,-0.77,0.0
17.927,-2.155,-0.811,0.0
16.735,-2.014,-0.847,0.0
0.0,0.0,0.0,0.0
25.038,-3.015,-0.7,0.0
22.684,-2.735,-0.756,0.0
20.149,-2.432,-0.783,0.0
18.838,-2.277,-0.834,0.0
17.038,-2.062,-0.846,0.0
29.63,-3.583,-0.64,0.0
25.778,-3.121,-0.696,0.0
23.278,-2.821,-0.754,0.0
20.566,-2.495,-0.779,0.0
18.914,-2.298,-0.818,0.0
17.237,-2.097,-0.839,0.0
29.989,-3.645,-0.618,0.0
26.825,-3.264,-0.697,0.0
23.364,-2.846,-0.733,0.0
21.164,-2.581,-0.78,0.0
19.064,-2.327,-0.806,0.0
17.618,-2.153,-0.839,0.0
30.307,-3.701,-0.594,0.0
27.021,-3.303,-0.675,0.0
23.881,-2.922,-0.725,0.0
21.322,-2.612,-0.764,0.0
19.634,-2.407,-0.809,0.0
17.517,-2.15,-0.816,0.0
32.104,-3.938,-0.596,0.0
27.608,-3.389,-0.661,0.0
24.571,-3.019,-0.72,0.0
21.656,-2.663,-0.753,0.0
0.0,0.0,0.0,0.0
18.121,-2.233,-0.826,0.0
32.458,-3.997,-0.568,0.0
0.0,0.0,0.0,0.0
24.846,-3.065,-0.702,0.0
22.106,-2.729,-0.746,0.0
20.347,-2.514,-0.796,0.0
18.345,-2.269,-0.816,0.0
33.522,-4.143,-0.552,0.0
29.478,-3.646,-0.644,0.0
0.0,0.0,0.0,0.0
23.036,-2.853,-0.753,0.0
20.83,-2.582,-0.793,0.0
18.953,-2.352,-0.823,0.0
0.0,0.0,0.0,0.0
30.226,-3.75,-0.627,0.0
26.633,-3.306,-0.696,0.0
23.894,-2.969,-0.755,0.0
20.933,-2.603,-0.774,0.0
19.114,-2.378,-0.809,0.0
0.0,0.0,0.0,0.0
30.757,-3.826,-0.605,0.0
26.745,-3.329,-0.669,0.0
24.282,-3.025,-0.741,0.0
21.523,-2.683,-0.772,0.0
19.287,-2.406,-0.796,0.0
37.135,-4.629,-0.491,0.0
32.147,-4.009,-0.597,0.0
27.595,-3.443,-0.661,0.0
24.47,-3.055,-0.72,0.0
22.123,-2.763,-0.769,0.0
20.136,-2.517,-0.808,0.0
0.0,0.0,0.0,0.0
0.0,0.0,0.0,0.0
29.218,-3.653,-0.667,0.0
25.495,-3.189,-0.721,0.0
22.035,-2.757,-0.742,0.0
19.252,-2.41,-0.751,0.0
39.667,-4.964,-0.436,0.0
33.975,-4.253,-0.556,0.0
0.0,0.0,0.0,0.0
26.208,-3.283,-0.712,0.0
23.311,-2.921,-0.758,0.0
20.613,-2.584,-0.781,0.0
0.0,0.0,0.0,0.0
0.0,0.0,0.0,0.0
30.137,-3.778,-0.621,0.0
26.652,-3.342,-0.694,0.0
23.834,-2.99,-0.748,0.0
21.516,-2.7,-0.791,0.0
0.0,0.0,0.0,0.0
36.737,-4.609,-0.518,0.0
32.187,-4.039,-0.626,0.0
26.707,-3.352,-0.665,0.0
0.0,0.0,0.0,0.0
21.79,-2.736,-0.776,0.0
46.127,-5.79,-0.352,2.0
38.036,-4.774,-0.493,0.0
32.289,-4.053,-0.592,0.0
27.069,-3.399,-0.644,0.0
0.0,0.0,0.0,0.0
22.084,-2.774,-0.762,0.0
46.818,-5.878,-0.303,1.0
38.185,-4.794,-0.451,0.0
0.0,0.0,0.0,0.0
29.148,-3.66,-0.66,0.0
25.861,-3.247,-0.724,0.0
22.807,-2.864,-0.76,0.0
48.402,-6.076,-0.258,0.0
0.0,0.0,0.0,0.0
0.0,0.0,0.0,0.0
29.752,-3.734,-0.639,0.0
26.352,-3.308,-0.707,0.0
23.549,-2.956,-0.758,0.0
50.553,-6.343,-0.212,0.0
0.0,0.0,0.0,0.0
36.744,-4.609,-0.547,0.0
30.218,-3.79,-0.614,0.0
26.69,-3.347,-0.686,0.0
23.598,-2.959,-0.733,0.0
0.0,0.0,0.0,0.0
46.41,-5.817,-0.39,0.0
36.763,-4.607,-0.505,0.0
32.159,-4.029,-0.617,0.0
27.162,-3.403,-0.666,0.0
23.895,-2.993,-0.714,0.0
0.0,0.0,0.0,0.0
46.819,-5.861,-0.339,1.0
0.0,0.0,0.0,0.0
32.402,-4.054,-0.584,0.0
0.0,0.0,0.0,0.0
0.0,0.0,0.0,0.0
0.0,0.0,0.0,0.0
47.636,-5.953,-0.29,1.0
0.0,0.0,0.0,0.0
33.469,-4.18,-0.565,0.0
29.656,-3.702,-0.659,0.0
26.006,-3.246,-0.717,0.0
0.0,0.0,0.0,0.0
49.22,-6.139,-0.242,0.0
0.0,0.0,0.0,0.0
35.074,-4.371,-0.551,0.0
30.217,-3.764,-0.636,0.0
26.737,-3.329,-0.706,0.0
74.453,-9.269,0.117,1.0
0.0,0.0,0.0,0.0
0.0,0.0,0.0,0.0
36.747,-4.567,-0.535,0.0
30.699,-3.814,-0.611,0.0
27.103,-3.365,-0.684,0.0
74.262,-9.22,0.202,3.0
0.0,0.0,0.0,0.0
46.272,-5.737,-0.368,2.0
37.203,-4.61,-0.499,0.0
32.185,-3.986,-0.603,0.0
0.0,0.0,0.0,0.0
74.308,-9.197,0.288,7.0
0.0,0.0,0.0,0.0
47.601,-5.883,-0.324,3.0
38.667,-4.775,-0.474,0.0
33.028,-4.076,-0.582,0.0
28.642,-3.533,-0.658,0.0
74.324,-9.167,0.373,25.0
74.6,-9.194,-0.025,1.0
48.107,-5.924,-0.273,1.0
0.0,0.0,0.0,0.0
34.01,-4.182,-0.56,0.0
29.849,-3.667,-0.651,0.0
74.324,-9.132,0.457,10.0
74.211,-9.109,0.06,2.0
0.0,0.0,0.0,0.0
41.922,-5.137,-0.419,0.0
0.0,0.0,0.0,0.0
30.21,-3.696,-0.625,0.0
83.341,-10.197,0.606,20.0
74.294,-9.08,0.142,7.0
0.0,0.0,0.0,0.0
40.779,-4.975,-0.362,0.0
36.518,-4.451,-0.52,0.0
30.926,-3.766,-0.606,0.0
83.35,-10.151,0.698,21.0
74.37,-9.047,0.224,3.0
0.0,0.0,0.0,0.0
0.0,0.0,0.0,0.0
37.458,-4.543,-0.492,0.0
32.351,-3.92,-0.598,0.0
83.371,-10.103,0.79,35.0
83.424,-10.097,0.344,32.0
0.0,0.0,0.0,0.0
47.659,-5.755,-0.318,1.0
0.0,0.0,0.0,0.0
32.96,-3.972,-0.573,0.0
83.389,-10.05,0.881,64.0
83.381,-10.036,0.435,42.0
0.0,0.0,0.0,0.0
46.014,-5.525,-0.257,1.0
0.0,0.0,0.0,0.0
0.0,0.0,0.0,0.0
83.369,-9.989,0.972,34.0
83.375,-9.976,0.524,52.0
74.975,-8.96,0.07,8.0
52.163,-6.225,-0.235,0.0
41.856,-4.989,-0.413,0.0
34.697,-4.131,-0.528,0.0
83.369,-9.927,1.061,30.0
83.352,-9.911,0.614,13.0
75.158,-8.924,0.151,6.0
0.0,0.0,0.0,0.0
0.0,0.0,0.0,0.0
0.0,0.0,0.0,0.0
83.385,-9.863,1.15,45.0
83.359,-9.845,0.702,10.0
77.821,-9.177,0.238,1.0
0.0,0.0,0.0,0.0
0.0,0.0,0.0,0.0
0.0,0.0,0.0,0.0
83.349,-9.79,1.235,24.0
83.372,-9.777,0.788,43.0
83.372,-9.762,0.341,33.0
0.0,0.0,0.0,0.0
47.493,-5.544,-0.32,0.0
0.0,0.0,0.0,0.0
83.351,-9.718,1.321,20.0
83.377,-9.704,0.873,38.0
83.398,-9.691,0.425,13.0
0.0,0.0,0.0,0.0
0.0,0.0,0.0,0.0
41.349,-4.782,-0.459,0.0
83.37,-9.644,1.405,22.0
83.391,-9.629,0.957,88.0
83.35,-9.607,0.509,14.0
77.692,-8.94,0.049,9.0
0.0,0.0,0.0,0.0
42.135,-4.832,-0.426,0.0
83.38,-9.565,1.488,24.0
83.369,-9.546,1.039,37.0
83.395,-9.532,0.591,150.0
77.626,-8.857,0.125,2.0
0.0,0.0,0.0,0.0
0.0,0.0,0.0,0.0
83.379,-9.483,1.569,150.0
83.38,-9.464,1.12,32.0
83.391,-9.447,0.671,53.0
86.532,-9.784,0.222,2.0
0.0,0.0,0.0,0.0
0.0,0.0,0.0,0.0
83.371,-9.395,1.648,24.0
83.389,-9.378,1.2,27.0
83.383,-9.358,0.751,18.0
86.448,-9.682,0.305,5.0
0.0,0.0,0.0,0.0
0.0,0.0,0.0,0.0
83.369,-9.304,1.727,31.0
83.357,-9.282,1.278,19.0
83.369,-9.264,0.828,15.0
83.369,-9.245,0.372,8.0
0.0,0.0,0.0,0.0
0.0,0.0,0.0,0.0
83.314,-9.203,1.802,30.0
83.38,-9.19,1.354,21.0
83.368,-9.169,0.905,139.0
83.365,-9.148,0.447,58.0
0.0,0.0,0.0,0.0
0.0,0.0,0.0,0.0
83.32,-9.107,1.878,32.0
83.351,-9.089,1.428,10.0
83.264,-9.059,0.978,27.0
83.28,-9.04,0.52,46.0
83.377,-9.03,0.071,9.0
0.0,0.0,0.0,0.0
83.326,-9.008,1.95,37.0
83.324,-8.986,1.5,53.0
83.347,-8.967,1.049,63.0
83.366,-8.949,0.591,42.0
0.0,0.0,0.0,0.0
0.0,0.0,0.0,0.0
116.355,-12.436,2.82,15.0
84.416,-8.999,1.59,1.0
84.776,-9.015,1.139,3.0
84.883,-9.005,0.674,2.0
85.966,-9.097,0.218,3.0
0.0,0.0,0.0,0.0
116.37,-12.288,2.917,20.0
85.525,-9.007,1.681,2.0
85.776,-9.01,1.223,3.0
85.971,-9.008,0.751,5.0
85.95,-8.983,0.286,10.0
0.0,0.0,0.0,0.0
116.334,-12.132,3.009,29.0
86.213,-8.966,1.762,50.0
86.239,-8.946,1.296,13.0
86.335,-8.932,0.821,9.0
100.286,-10.348,0.412,2.0
0.0,0.0,0.0,0.0
116.355,-11.978,3.099,55.0
87.698,-9.003,1.86,1.0
87.856,-8.993,1.387,3.0
88.073,-8.992,0.905,1.0
100.322,-10.214,0.488,3.0
0.0,0.0,0.0,0.0
116.347,-11.817,3.185,37.0
88.624,-8.975,1.945,3.0
88.973,-8.984,1.47,5.0
89.067,-8.969,0.98,41.0
89.11,-8.948,0.498,15.0
0.0,0.0,0.0,0.0
116.355,-11.652,3.268,36.0
90.174,-9.004,2.043,12.0
90.274,-8.987,1.556,106.0
0.0,0.0,0.0,0.0
90.357,-8.942,0.567,48.0
0.0,0.0,0.0,0.0
116.329,-11.481,3.347,45.0
90.361,-8.89,2.109,27.0
90.313,-8.858,1.617,31.0
90.35,-8.835,1.118,46.0
90.384,-8.811,0.628,22.0
90.373,-8.783,0.137,3.0
147.938,-14.38,4.354,5.0
90.361,-8.756,2.168,38.0
90.368,-8.728,1.677,72.0
90.282,-8.692,1.175,19.0
90.392,-8.677,0.685,50.0
90.366,-8.648,0.194,13.0
147.91,-14.156,4.444,18.0
90.363,-8.62,2.224,15.0
90.383,-8.593,1.732,47.0
90.358,-8.563,1.232,26.0
90.316,-8.531,0.74,32.0
90.394,-8.511,0.249,18.0
148.049,-13.94,4.538,14.0
127.532,-11.968,3.214,28.0
90.389,-8.453,1.786,45.0
90.374,-8.423,1.284,37.0
90.379,-8.397,0.792,18.0
90.372,-8.368,0.3,25.0
114.48,-10.601,3.573,8.0
127.505,-11.765,3.285,29.0
90.392,-8.312,1.835,37.0
90.392,-8.283,1.333,44.0
90.395,-8.255,0.841,37.0
90.289,-8.217,0.348,14.0
148.156,-13.483,4.702,11.0
127.535,-11.565,3.352,27.0
90.391,-8.166,1.882,32.0
90.38,-8.136,1.379,32.0
90.418,-8.11,0.887,46.0
90.408,-8.081,0.394,30.0
108.066,-9.659,3.484,10.0
127.482,-11.353,3.414,13.0
90.387,-8.019,1.926,61.0
90.375,-7.988,1.423,41.0
90.417,-7.963,0.93,36.0
90.41,-7.934,0.436,30.0
108.26,-9.499,3.54,13.0
114.508,-10.008,3.119,13.0
90.411,-7.871,1.968,38.0
90.386,-7.839,1.464,38.0
90.399,-7.811,0.97,34.0
90.419,-7.783,0.476,36.0
114.172,-9.825,3.784,11.0
114.442,-9.808,3.166,13.0
90.387,-7.716,2.005,40.0
90.409,-7.687,1.502,52.0
90.413,-7.658,1.007,36.0
90.408,-7.627,0.513,35.0
114.339,-9.643,3.834,10.0
127.458,-10.706,3.576,6.0
90.386,-7.56,2.041,35.0
90.397,-7.531,1.536,71.0
90.429,-7.503,1.042,92.0
90.423,-7.473,0.546,64.0
111.038,-9.174,3.765,15.0
114.38,-9.411,3.25,8.0
127.48,-10.444,2.922,29.0
100.066,-8.164,1.735,10.0
100.077,-8.131,1.186,13.0
100.066,-8.096,0.638,12.0
108.519,-8.776,3.714,6.0
115.527,-9.303,3.32,10.0
127.49,-10.221,2.963,38.0
100.054,-7.987,1.767,12.0
100.098,-7.957,1.217,14.0
100.06,-7.919,0.668,14.0
108.642,-8.595,3.751,22.0
127.525,-10.043,3.701,4.0
127.515,-9.996,3.0,34.0
100.11,-7.813,1.794,6.0
100.083,-7.777,1.244,12.0
100.048,-7.74,0.694,13.0
108.21,-8.365,3.763,29.0
148.04,-11.393,4.334,12.0
127.444,-9.763,3.029,28.0
100.065,-7.629,1.818,4.0
100.107,-7.598,1.269,11.0
100.097,-7.563,0.718,11.0
108.038,-8.156,3.781,25.0
109.122,-8.199,3.217,9.0
0.0,0.0,0.0,0.0
100.057,-7.447,1.838,3.0
100.091,-7.414,1.287,10.0
100.067,-7.378,0.737,12.0
107.886,-7.947,3.796,18.0
109.187,-8.003,3.239,20.0
109.275,-7.972,2.639,17.0
109.361,-7.939,2.027,25.0
100.073,-7.231,1.304,9.0
100.098,-7.197,0.752,13.0
107.288,-7.707,3.79,25.0
108.984,-7.79,3.249,37.0
109.162,-7.763,2.651,53.0
109.354,-7.739,2.041,28.0
100.078,-7.046,1.316,6.0
100.106,-7.012,0.764,9.0
108.08,-7.563,3.83,21.0
109.073,-7.594,3.263,41.0
109.249,-7.567,2.664,18.0
136.128,-9.379,2.554,3.0
100.187,-6.867,1.326,2.0
0.0,0.0,0.0,0.0
108.592,-7.396,3.857,31.0
109.04,-7.387,3.269,38.0
117.078,-7.89,2.863,20.0
117.385,-7.867,2.209,31.0
0.0,0.0,0.0,0.0
99.771,-6.616,0.775,6.0
108.75,-7.202,3.866,24.0
109.916,-7.238,3.298,11.0
116.962,-7.659,2.862,25.0
117.408,-7.647,2.211,32.0
125.24,-8.111,1.666,28.0
125.205,-8.064,0.972,15.0
108.874,-7.002,3.87,24.0
117.055,-7.485,3.512,32.0
117.13,-7.448,2.865,29.0
147.88,-9.351,2.782,11.0
147.969,-9.302,1.964,26.0
149.98,-9.376,1.161,4.0
109.05,-6.805,3.872,22.0
125.103,-7.759,3.747,6.0
117.356,-7.236,2.864,16.0
148.167,-9.082,2.78,16.0
149.068,-9.082,1.97,21.0
149.857,-9.076,1.149,11.0
109.62,-6.625,3.883,26.0
117.356,-7.05,3.506,24.0
149.419,-8.92,3.633,18.0
148.905,-8.834,2.779,21.0
149.256,-8.8,1.956,20.0
149.608,-8.771,1.131,3.0
109.505,-6.405,3.866,17.0
117.172,-6.809,3.485,35.0
148.308,-8.565,3.587,16.0
140.64,-8.07,2.606,13.0
140.694,-8.023,1.824,28.0
101.451,-5.748,0.751,21.0
109.494,-6.188,3.848,4.0
117.451,-6.594,3.475,10.0
163.322,-9.11,3.922,12.0
140.866,-7.805,2.585,3.0
101.542,-5.59,1.299,23.0
101.455,-5.548,0.733,150.0
109.862,-5.992,3.84,14.0
137.682,-7.459,4.046,20.0
140.622,-7.566,3.348,37.0
0.0,0.0,0.0,0.0
101.498,-5.386,1.275,57.0
0.0,0.0,0.0,0.0
117.176,-6.158,4.068,14.0
138.696,-7.237,4.042,19.0
140.856,-7.297,3.318,11.0
0.0,0.0,0.0,0.0
101.504,-5.186,1.249,1.0
103.267,-5.238,0.695,1.0
117.537,-5.944,4.048,24.0
139.247,-6.988,4.018,19.0
0.0,0.0,0.0,0.0
102.366,-5.062,1.8,1.0
101.517,-4.984,1.219,38.0
0.0,0.0,0.0,0.0
117.899,-5.728,4.024,21.0
150.185,-7.243,4.287,5.0
139.333,-6.669,3.198,10.0
102.08,-4.849,1.763,1.0
101.531,-4.787,1.186,150.0
0.0,0.0,0.0,0.0
116.772,-5.443,3.944,20.0
142.203,-6.576,4.008,13.0
0.0,0.0,0.0,0.0
102.022,-4.643,1.723,1.0
101.492,-4.582,1.147,14.0
102.548,-4.594,0.586,1.0
119.245,-5.319,3.981,17.0
163.116,-7.218,4.533,13.0
142.659,-6.26,3.165,3.0
102.0,-4.438,1.681,1.0
0.0,0.0,0.0,0.0
102.639,-4.391,0.543,2.0
119.81,-5.104,3.949,17.0
139.96,-5.912,3.828,11.0
162.424,-6.801,3.531,4.0
101.504,-4.214,1.628,5.0
0.0,0.0,0.0,0.0
0.0,0.0,0.0,0.0
118.376,-4.805,3.845,11.0
141.878,-5.709,3.813,18.0
162.319,-6.472,3.451,9.0
0.0,0.0,0.0,0.0
0.0,0.0,0.0,0.0
0.0,0.0,0.0,0.0
125.025,-4.824,3.997,13.0
163.265,-6.242,4.303,7.0
162.261,-6.144,3.364,15.0
162.123,-6.083,2.436,13.0
162.193,-6.029,1.526,13.0
0.0,0.0,0.0,0.0
138.846,-5.084,4.364,16.0
163.489,-5.927,4.219,6.0
162.294,-5.824,3.275,15.0
162.16,-5.762,2.345,14.0
162.128,-5.703,1.433,6.0
0.0,0.0,0.0,0.0
140.727,-4.872,4.341,11.0
163.412,-5.597,4.12,17.0
162.243,-5.5,3.178,21.0
162.091,-5.438,2.247,25.0
160.806,-5.338,1.324,4.0
0.0,0.0,0.0,0.0
140.224,-4.573,4.236,19.0
163.36,-5.272,4.016,16.0
162.411,-5.183,3.078,4.0
161.898,-5.108,2.14,24.0
0.0,0.0,0.0,0.0
0.0,0.0,0.0,0.0
140.195,-4.291,4.142,19.0
168.656,-5.102,4.032,5.0
168.969,-5.053,3.087,5.0
89.387,-2.641,1.12,7.0
89.143,-2.604,0.615,1.0
0.0,0.0,0.0,0.0
140.558,-4.021,4.053,14.0
0.0,0.0,0.0,0.0
178.315,-4.979,3.131,6.0
89.305,-2.463,1.055,11.0
89.2,-2.428,0.55,2.0
89.136,-2.397,0.048,1.0
163.267,-4.351,4.588,28.0
0.0,0.0,0.0,0.0
0.0,0.0,0.0,0.0
89.205,-2.284,0.986,14.0
89.489,-2.261,0.484,1.0
0.0,0.0,0.0,0.0
163.29,-4.028,4.461,15.0
0.0,0.0,0.0,0.0
0.0,0.0,0.0,0.0
89.211,-2.109,0.915,171.0
90.413,-2.106,0.416,1.0
89.263,-2.049,-0.092,1.0
163.347,-3.709,4.329,12.0
170.47,-3.811,3.553,4.0
89.228,-1.966,1.355,2.0
89.194,-1.935,0.841,170.0
0.0,0.0,0.0,0.0
0.0,0.0,0.0,0.0
163.404,-3.394,4.193,9.0
170.32,-3.479,3.405,6.0
89.221,-1.793,1.279,49.0
89.192,-1.763,0.764,154.0
0.0,0.0,0.0,0.0
0.0,0.0,0.0,0.0
163.423,-3.078,4.048,6.0
0.0,0.0,0.0,0.0
89.222,-1.619,1.198,61.0
89.129,-1.588,0.683,21.0
0.0,0.0,0.0,0.0
0.0,0.0,0.0,0.0
171.478,-2.897,4.088,5.0
89.526,-1.484,1.627,1.0
89.248,-1.45,1.116,36.0
19.743,-0.314,0.133,13.0
89.375,-1.394,0.095,1.0
0.0,0.0,0.0,0.0
0.0,0.0,0.0,0.0
19.776,-0.29,0.34,1.0
19.752,-0.283,0.227,18.0
19.742,-0.276,0.113,25.0
0.0,0.0,0.0,0.0
0.0,0.0,0.0,0.0
19.778,-0.258,0.432,7.0
19.744,-0.251,0.319,11.0
19.752,-0.245,0.207,18.0
19.722,-0.239,0.093,0.0
0.0,0.0,0.0,0.0
0.0,0.0,0.0,0.0
19.748,-0.221,0.411,11.0
19.766,-0.214,0.299,4.0
0.0,0.0,0.0,0.0
0.0,0.0,0.0,0.0
0.0,0.0,0.0,0.0
19.774,-0.189,-0.151,8.0
19.77,-0.183,0.391,2.0
0.0,0.0,0.0,0.0
160.701,-1.395,1.35,8.0
0.0,0.0,0.0,0.0
19.765,-0.159,-0.06,8.0
19.739,-0.152,-0.172,16.0
177.201,-1.32,3.309,20.0
19.722,-0.14,0.256,0.0
19.768,-0.135,0.144,3.0
19.728,-0.128,0.029,10.0
19.726,-0.122,-0.082,12.0
19.734,-0.116,-0.195,17.0
19.678,-0.11,0.345,9.0
19.696,-0.104,0.233,12.0
19.705,-0.098,0.121,14.0
19.704,-0.092,0.006,14.0
19.706,-0.086,-0.105,16.0
19.742,-0.08,-0.218,15.0
19.654,-0.074,0.321,10.0
19.671,-0.068,0.209,14.0
19.698,-0.062,0.097,16.0
19.694,-0.056,-0.016,16.0
19.736,-0.05,-0.128,13.0
19.767,-0.045,-0.241,5.0
19.629,-0.038,0.297,12.0
19.656,-0.033,0.186,11.0
19.684,-0.027,0.074,12.0
19.725,-0.021,-0.04,11.0
19.78,-0.015,-0.153,0.0
0.0,0.0,0.0,0.0
19.637,-0.004,0.273,14.0
19.769,0.001,0.162,2.0
19.776,0.007,0.05,4.0
19.766,0.013,-0.064,27.0
19.752,0.018,-0.177,13.0
19.758,0.024,-0.29,12.0
19.631,0.03,0.248,15.0
19.747,0.036,0.137,15.0
19.759,0.041,0.024,27.0
19.755,0.047,-0.09,27.0
19.768,0.053,-0.202,45.0
19.768,0.058,-0.315,38.0
19.637,0.064,0.223,16.0
19.683,0.069,0.111,16.0
19.758,0.075,0.0,18.0
19.741,0.081,-0.115,2.0
19.759,0.087,-0.228,0.0
31.295,0.146,-0.541,0.0
27.438,0.778,-0.394,3.0
25.842,0.738,-0.52,2.0
21.879,0.629,-0.566,0.0
19.352,0.56,-0.614,0.0
18.666,0.544,-0.7,0.0
18.289,0.536,-0.792,2.0
27.468,0.811,-0.44,14.0
24.732,0.735,-0.539,1.0
21.027,0.629,-0.58,0.0
19.208,0.578,-0.642,2.0
18.221,0.552,-0.714,1.0
17.682,0.539,-0.796,1.0
27.753,0.851,-0.492,1.0
23.3,0.719,-0.548,0.0
20.298,0.63,-0.594,0.0
18.249,0.57,-0.641,1.0
17.544,0.551,-0.718,0.0
17.24,0.545,-0.805,1.0
25.916,0.824,-0.504,3.0
21.942,0.701,-0.554,0.0
19.701,0.633,-0.611,0.0
17.716,0.573,-0.653,0.0
17.092,0.556,-0.729,0.0
16.794,0.549,-0.814,1.0
24.948,0.82,-0.529,1.0
21.416,0.707,-0.577,2.0
19.15,0.636,-0.627,2.0
17.225,0.575,-0.665,1.0
16.71,0.561,-0.742,0.0
16.227,0.548,-0.814,1.0
23.036,0.781,-0.528,1.0
20.479,0.698,-0.588,1.0
18.346,0.628,-0.633,1.0
17.01,0.585,-0.687,0.0
16.379,0.566,-0.756,0.0
15.737,0.547,-0.817,0.0
22.328,0.779,-0.551,1.0
19.796,0.694,-0.603,3.0
40.169,1.416,-1.456,2.0
16.798,0.595,-0.708,0.0
16.236,0.577,-0.778,1.0
15.118,0.54,-0.812,0.0
21.501,0.771,-0.569,2.0
19.188,0.691,-0.618,2.0
17.26,0.625,-0.656,0.0
16.618,0.604,-0.729,0.0
16.029,0.585,-0.796,1.0
14.763,0.541,-0.819,0.0
20.487,0.753,-0.578,1.0
18.512,0.684,-0.629,3.0
17.074,0.633,-0.679,0.0
16.374,0.61,-0.748,0.0
15.871,0.594,-0.817,1.0
14.396,0.541,-0.824,0.0
19.833,0.747,-0.595,2.0
17.985,0.68,-0.643,2.0
16.849,0.64,-0.7,0.0
16.241,0.619,-0.771,2.0
15.12,0.579,-0.805,0.0
13.974,0.537,-0.825,0.0
19.237,0.741,-0.611,3.0
17.433,0.674,-0.655,2.0
16.621,0.645,-0.721,0.0
16.031,0.624,-0.79,1.0
14.752,0.577,-0.812,0.0
13.63,0.535,-0.829,0.0
18.537,0.729,-0.622,3.0
17.137,0.676,-0.674,2.0
16.409,0.65,-0.741,0.0
15.903,0.632,-0.812,1.0
14.4,0.574,-0.819,0.0
13.296,0.532,-0.833,0.0
18.005,0.722,-0.637,3.0
16.906,0.68,-0.696,2.0
16.257,0.656,-0.763,2.0
15.163,0.614,-0.801,0.0
13.973,0.568,-0.82,0.0
12.977,0.529,-0.837,0.0
17.542,0.716,-0.652,2.0
16.686,0.683,-0.717,2.0
16.058,0.66,-0.783,1.0
14.817,0.61,-0.81,0.0
13.651,0.564,-0.825,0.0
12.771,0.53,-0.846,0.0
17.123,0.711,-0.667,2.0
16.476,0.686,-0.737,2.0
15.931,0.665,-0.805,1.0
14.432,0.604,-0.815,0.0
13.308,0.559,-0.829,0.0
12.46,0.525,-0.848,0.0
16.904,0.713,-0.689,2.0
16.28,0.688,-0.758,2.0
15.334,0.65,-0.803,0.0
14.101,0.599,-0.822,0.0
13.008,0.554,-0.833,0.0
12.266,0.524,-0.857,0.0
16.713,0.715,-0.712,1.0
16.106,0.69,-0.779,2.0
14.774,0.635,-0.8,0.0
13.575,0.585,-0.816,0.0
12.791,0.553,-0.843,0.0
11.975,0.519,-0.859,0.0
16.493,0.714,-0.732,1.0
15.933,0.692,-0.8,2.0
14.355,0.625,-0.804,0.0
13.271,0.579,-0.821,0.0
12.452,0.545,-0.843,0.0
11.714,0.514,-0.861,0.0
16.302,0.715,-0.753,1.0
15.371,0.675,-0.799,0.0
14.078,0.62,-0.813,0.0
13.067,0.577,-0.832,0.0
12.295,0.544,-0.854,0.0
11.464,0.508,-0.863,0.0
16.101,0.714,-0.773,3.0
14.795,0.657,-0.796,0.0
13.769,0.613,-0.82,0.0
12.774,0.57,-0.836,0.0
12.035,0.538,-0.858,0.0
11.269,0.505,-0.869,0.0
15.971,0.715,-0.795,5.0
14.441,0.648,-0.802,0.0
13.405,0.602,-0.822,0.0
12.538,0.565,-0.843,0.0
11.794,0.532,-0.862,0.0
11.024,0.499,-0.87,0.0
23.697,1.071,-1.222,0.0
14.124,0.639,-0.81,0.0
13.125,0.595,-0.829,0.0
12.292,0.558,-0.849,0.0
11.496,0.523,-0.861,0.0
10.838,0.494,-0.875,0.0
23.673,1.078,-1.262,0.0
23.628,1.078,-1.397,0.0
12.87,0.588,-0.835,0.0
12.11,0.554,-0.858,0.0
11.232,0.515,-0.861,0.0
10.651,0.489,-0.879,0.0
23.684,1.086,-1.305,0.0
23.695,1.089,-1.443,0.0
23.648,1.088,-1.578,0.0
11.779,0.543,-0.855,0.0
11.053,0.51,-0.867,0.0
10.483,0.485,-0.883,0.0
14.351,0.662,-0.816,0.0
23.632,1.092,-1.481,0.0
12.353,0.571,-0.846,0.0
11.523,0.534,-0.857,0.0
10.93,0.507,-0.876,0.0
10.334,0.48,-0.889,0.0
23.605,1.095,-1.383,1.0
23.672,1.099,-1.525,0.0
12.172,0.566,-0.855,0.0
11.299,0.526,-0.86,0.0
10.665,0.497,-0.874,0.0
10.212,0.477,-0.896,0.0
23.618,1.1,-1.425,1.0
23.629,1.102,-1.563,1.0
11.887,0.555,-0.855,0.0
11.134,0.52,-0.867,0.0
10.487,0.491,-0.878,0.0
10.004,0.469,-0.896,0.0
23.566,1.101,-1.463,0.0
23.636,1.106,-1.605,0.0
11.668,0.546,-0.86,0.0
10.922,0.512,-0.869,0.0
10.361,0.486,-0.885,0.0
9.861,0.463,-0.9,0.0
23.65,1.108,-1.509,0.0
12.2,0.572,-0.849,0.0
11.332,0.532,-0.854,0.0
10.763,0.505,-0.875,0.0
10.259,0.482,-0.894,0.0
9.678,0.456,-0.9,0.0
23.631,1.109,-1.547,1.0
11.945,0.561,-0.851,0.0
11.141,0.523,-0.859,0.0
10.563,0.497,-0.877,0.0
10.045,0.473,-0.892,0.0
9.541,0.45,-0.903,0.0
23.651,1.111,-1.589,0.0
11.777,0.553,-0.859,0.0
10.979,0.516,-0.865,0.0
10.374,0.488,-0.878,0.0
9.881,0.465,-0.894,0.0
9.419,0.444,-0.908,0.0
12.283,0.577,-0.845,0.0
11.487,0.539,-0.857,0.0
10.84,0.509,-0.872,0.0
10.265,0.483,-0.886,0.0
9.753,0.459,-0.899,0.0
9.237,0.435,-0.905,0.0
12.14,0.569,-0.855,0.0
11.232,0.527,-0.857,0.0
10.673,0.501,-0.876,0.0
10.087,0.474,-0.888,0.0
9.598,0.451,-0.9,0.0
9.086,0.427,-0.905,0.0
11.835,0.554,-0.853,0.0
11.099,0.52,-0.864,0.0
10.496,0.492,-0.878,0.0
9.942,0.466,-0.891,0.0
9.502,0.446,-0.907,0.0
8.945,0.42,-0.906,0.0
11.623,0.543,-0.857,0.0
10.928,0.51,-0.869,0.0
10.406,0.486,-0.888,0.0
9.822,0.459,-0.896,0.0
9.35,0.437,-0.908,0.0
8.828,0.413,-0.908,0.0
11.362,0.529,-0.855,0.0
10.745,0.5,-0.871,0.0
10.219,0.476,-0.888,0.0
9.673,0.45,-0.898,0.0
9.204,0.429,-0.908,0.0
8.738,0.407,-0.913,0.0
11.189,0.519,-0.86,0.0
10.646,0.493,-0.88,0.0
10.053,0.466,-0.889,0.0
9.53,0.442,-0.899,0.0
9.086,0.421,-0.91,0.0
8.609,0.399,-0.913,0.0
11.057,0.51,-0.867,0.0
10.446,0.482,-0.879,0.0
9.914,0.457,-0.892,0.0
9.465,0.436,-0.908,0.0
8.928,0.412,-0.908,0.0
8.477,0.391,-0.912,0.0
10.865,0.498,-0.868,0.0
10.321,0.473,-0.885,0.0
9.787,0.448,-0.896,0.0
9.288,0.425,-0.905,0.0
8.81,0.404,-0.91,0.0
8.409,0.385,-0.917,0.0
10.74,0.489,-0.874,0.0
10.162,0.462,-0.886,0.0
9.671,0.44,-0.9,0.0
9.173,0.417,-0.908,0.0
8.747,0.398,-0.916,0.0
8.29,0.377,-0.917,0.0
10.554,0.477,-0.875,0.0
10.021,0.453,-0.889,0.0
9.5,0.429,-0.898,0.0
9.048,0.408,-0.909,0.0
8.588,0.387,-0.912,0.0
8.206,0.37,-0.92,0.0
10.443,0.468,-0.881,0.0
9.914,0.444,-0.894,0.0
9.405,0.421,-0.902,0.0
8.943,0.4,-0.911,0.0
8.528,0.381,-0.918,0.0
8.104,0.362,-0.92,0.0
10.304,0.457,-0.884,0.0
9.754,0.433,-0.893,0.0
9.314,0.413,-0.907,0.0
8.806,0.39,-0.909,0.0
8.399,0.372,-0.916,0.0
8.024,0.355,-0.922,0.0
10.183,0.447,-0.887,0.0
9.673,0.425,-0.899,0.0
9.16,0.402,-0.905,0.0
8.696,0.381,-0.91,0.0
8.329,0.365,-0.92,0.0
7.949,0.348,-0.925,0.0
10.058,0.437,-0.89,0.0
9.56,0.415,-0.902,0.0
9.067,0.393,-0.908,0.0
8.623,0.374,-0.914,0.0
8.229,0.356,-0.92,0.0
7.869,0.34,-0.926,0.0
9.955,0.428,-0.894,0.0
9.401,0.403,-0.899,0.0
8.937,0.383,-0.906,0.0
8.543,0.366,-0.917,0.0
8.15,0.349,-0.922,0.0
7.784,0.333,-0.926,0.0
9.825,0.417,-0.895,0.0
9.323,0.395,-0.904,0.0
8.858,0.375,-0.91,0.0
8.387,0.354,-0.911,0.0
8.065,0.34,-0.923,0.0
7.721,0.325,-0.929,0.0
9.72,0.407,-0.898,0.0
9.227,0.385,-0.906,0.0
8.752,0.365,-0.91,0.0
8.335,0.347,-0.916,0.0
7.982,0.332,-0.924,0.0
7.659,0.318,-0.931,0.0
9.617,0.396,-0.9,0.0
9.085,0.374,-0.903,0.0
8.691,0.357,-0.914,0.0
8.251,0.339,-0.917,0.0
7.92,0.324,-0.926,0.0
7.594,0.311,-0.932,0.0
9.503,0.386,-0.901,0.0
8.97,0.363,-0.903,0.0
8.544,0.346,-0.909,0.0
8.157,0.329,-0.916,0.0
7.841,0.316,-0.926,0.0
7.555,0.304,-0.937,0.0
9.405,0.375,-0.903,0.0
8.943,0.356,-0.91,0.0
8.485,0.337,-0.913,0.0
8.1,0.322,-0.919,0.0
7.781,0.308,-0.928,0.0
7.492,0.296,-0.937,0.0
9.33,0.366,-0.906,0.0
8.848,0.346,-0.911,0.0
8.425,0.329,-0.916,0.0
8.047,0.314,-0.922,0.0
7.74,0.301,-0.932,0.0
7.398,0.287,-0.934,0.0
9.211,0.354,-0.905,0.0
8.752,0.336,-0.91,0.0
8.345,0.32,-0.916,0.0
7.998,0.306,-0.925,0.0
7.655,0.292,-0.93,0.0
7.338,0.279,-0.934,0.0
9.122,0.344,-0.906,0.0
8.692,0.327,-0.913,0.0
8.257,0.31,-0.915,0.0
7.898,0.296,-0.922,0.0
7.646,0.286,-0.937,0.0
7.34,0.274,-0.942,0.0
9.053,0.334,-0.909,0.0
8.609,0.317,-0.914,0.0
8.216,0.302,-0.919,0.0
7.86,0.288,-0.926,0.0
7.576,0.277,-0.936,0.0
7.288,0.266,-0.943,0.0
8.976,0.324,-0.91,0.0
8.517,0.307,-0.912,0.0
8.16,0.293,-0.921,0.0
7.798,0.28,-0.926,0.0
7.513,0.269,-0.936,0.0
7.248,0.258,-0.945,0.0
8.869,0.313,-0.907,0.0
8.494,0.299,-0.918,0.0
8.107,0.285,-0.923,0.0
7.752,0.271,-0.928,0.0
7.45,0.26,-0.935,0.0
7.211,0.251,-0.947,0.0
8.827,0.304,-0.911,0.0
8.413,0.289,-0.917,0.0
8.046,0.275,-0.923,0.0
7.704,0.263,-0.929,0.0
7.408,0.252,-0.936,0.0
7.16,0.243,-0.947,0.0
8.779,0.295,-0.914,0.0
8.337,0.279,-0.916,0.0
7.955,0.265,-0.92,0.0
7.665,0.255,-0.931,0.0
7.341,0.243,-0.934,0.0
7.127,0.235,-0.948,0.0
8.749,0.286,-0.918,0.0
8.291,0.27,-0.918,0.0
7.962,0.258,-0.927,0.0
7.628,0.246,-0.933,0.0
7.342,0.236,-0.94,0.0
7.095,0.228,-0.95,0.0
8.643,0.274,-0.914,0.0
8.262,0.261,-0.921,0.0
7.914,0.249,-0.928,0.0
7.579,0.238,-0.933,0.0
7.308,0.228,-0.942,0.0
7.048,0.219,-0.949,0.0
8.583,0.264,-0.914,0.0
8.205,0.251,-0.921,0.0
7.892,0.241,-0.931,0.0
7.525,0.229,-0.932,0.0
7.275,0.22,-0.943,0.0
7.037,0.212,-0.953,0.0
8.542,0.255,-0.915,0.0
8.175,0.243,-0.923,0.0
7.818,0.231,-0.928,0.0
7.507,0.221,-0.935,0.0
7.25,0.212,-0.944,0.0
6.989,0.204,-0.951,0.0
8.513,0.246,-0.918,0.0
8.127,0.233,-0.923,0.0
7.767,0.222,-0.927,0.0
7.494,0.213,-0.938,0.0
7.242,0.205,-0.948,0.0
6.976,0.197,-0.954,0.0
8.231,0.085,-0.925,0.0
7.892,0.08,-0.931,0.0
7.607,0.076,-0.94,0.0
7.304,0.071,-0.945,0.0
7.04,0.067,-0.95,0.0
6.809,0.064,-0.958,0.0
8.253,0.076,-0.926,0.0
7.906,0.071,-0.932,0.0
7.595,0.067,-0.938,0.0
7.29,0.063,-0.942,0.0
7.043,0.059,-0.95,0.0
6.794,0.056,-0.954,0.0
8.254,0.066,-0.925,0.0
7.91,0.062,-0.93,0.0
7.626,0.058,-0.94,0.0
7.315,0.055,-0.943,0.0
7.07,0.051,-0.952,0.0
6.787,0.048,-0.952,0.0
8.274,0.057,-0.925,0.0
7.922,0.053,-0.93,0.0
7.604,0.05,-0.935,0.0
7.344,0.046,-0.945,0.0
7.065,0.043,-0.949,0.0
6.834,0.041,-0.956,0.0
8.31,0.048,-0.927,0.0
7.955,0.044,-0.931,0.0
7.647,0.041,-0.938,0.0
7.354,0.038,-0.944,0.0
7.099,0.035,-0.951,0.0
6.843,0.033,-0.956,0.0
8.323,0.039,-0.925,0.0
7.974,0.035,-0.931,0.0
7.667,0.033,-0.938,0.0
7.354,0.03,-0.942,0.0
7.111,0.027,-0.95,0.0
6.872,0.025,-0.957,0.0
8.351,0.029,-0.925,0.0
7.999,0.027,-0.931,0.0
7.695,0.024,-0.938,0.0
7.385,0.022,-0.943,0.0
7.123,0.019,-0.949,0.0
6.862,0.017,-0.953,0.0
8.382,0.02,-0.925,0.0
8.031,0.018,-0.931,0.0
7.705,0.015,-0.936,0.0
7.427,0.013,-0.945,0.0
7.165,0.012,-0.951,0.0
6.884,0.01,-0.953,0.0
8.435,0.011,-0.927,0.0
8.038,0.009,-0.928,0.0
7.735,0.007,-0.936,0.0
7.443,0.005,-0.943,0.0
7.186,0.003,-0.95,0.0
6.897,0.002,-0.951,0.0
8.473,0.002,-0.927,0.0
8.088,0.0,-0.93,0.0
7.77,-0.001,-0.936,0.0
7.463,-0.002,-0.941,0.0
7.209,-0.003,-0.95,0.0
6.911,-0.005,-0.949,0.0
8.507,-0.007,-0.926,0.0
8.126,-0.008,-0.929,0.0
7.799,-0.009,-0.935,0.0
7.507,-0.01,-0.943,0.0
7.227,-0.011,-0.948,0.0
6.984,-0.012,-0.955,0.0
8.543,-0.016,-0.925,0.0
8.18,-0.017,-0.93,0.0
7.831,-0.018,-0.934,0.0
7.532,-0.018,-0.941,0.0
7.25,-0.019,-0.946,0.0
7.007,-0.02,-0.953,0.0
8.594,-0.025,-0.925,0.0
8.222,-0.026,-0.93,0.0
7.855,-0.026,-0.932,0.0
7.573,-0.027,-0.941,0.0
7.295,-0.027,-0.947,0.0
7.047,-0.028,-0.954,0.0
8.641,-0.035,-0.924,0.0
8.275,-0.035,-0.93,0.0
7.928,-0.035,-0.935,0.0
7.621,-0.035,-0.941,0.0
7.315,-0.035,-0.944,0.0
7.065,-0.035,-0.951,0.0
8.683,-0.044,-0.922,0.0
8.334,-0.044,-0.931,0.0
7.985,-0.043,-0.935,0.0
7.662,-0.043,-0.941,0.0
7.377,-0.043,-0.946,0.0
7.135,-0.043,-0.955,0.0
8.767,-0.053,-0.924,0.0
8.39,-0.053,-0.93,0.0
8.012,-0.052,-0.932,0.0
7.719,-0.051,-0.941,0.0
7.417,-0.051,-0.946,0.0
7.161,-0.05,-0.952,0.0
10.516,-0.215,-0.905,0.0
9.984,-0.205,-0.913,0.0
9.506,-0.197,-0.92,0.0
9.062,-0.189,-0.926,0.0
8.633,-0.181,-0.928,0.0
8.304,-0.175,-0.937,0.0
10.666,-0.224,-0.903,0.0
10.14,-0.215,-0.912,0.0
9.637,-0.205,-0.918,0.0
9.186,-0.197,-0.925,0.0
8.771,-0.189,-0.93,0.0
8.385,-0.182,-0.934,0.0
10.864,-0.235,-0.903,0.0
10.288,-0.224,-0.91,0.0
9.785,-0.214,-0.918,0.0
9.305,-0.205,-0.923,0.0
8.877,-0.196,-0.928,0.0
8.508,-0.189,-0.935,0.0
11.03,-0.244,-0.9,0.0
10.441,-0.233,-0.908,0.0
9.9,-0.222,-0.913,0.0
9.459,-0.213,-0.924,0.0
9.004,-0.204,-0.927,0.0
8.621,-0.196,-0.934,0.0
11.187,-0.254,-0.896,0.0
10.607,-0.242,-0.905,0.0
10.07,-0.231,-0.913,0.0
9.574,-0.221,-0.92,0.0
9.132,-0.211,-0.926,0.0
8.737,-0.203,-0.932,0.0
11.348,-0.263,-0.891,0.0
10.774,-0.251,-0.903,0.0
10.231,-0.239,-0.911,0.0
9.732,-0.229,-0.919,0.0
9.248,-0.218,-0.923,0.0
8.874,-0.211,-0.933,0.0
11.584,-0.274,-0.891,0.0
10.97,-0.26,-0.902,0.0
10.419,-0.248,-0.911,0.0
9.872,-0.236,-0.917,0.0
9.424,-0.227,-0.925,0.0
8.964,-0.217,-0.927,0.0
11.75,-0.283,-0.884,0.0
11.169,-0.27,-0.9,0.0
10.575,-0.256,-0.908,0.0
10.036,-0.244,-0.915,0.0
9.551,-0.233,-0.922,0.0
9.073,-0.223,-0.924,0.0
12.012,-0.293,-0.885,0.0
11.355,-0.278,-0.896,0.0
10.746,-0.264,-0.904,0.0
10.201,-0.252,-0.913,0.0
9.718,-0.241,-0.921,0.0
9.26,-0.231,-0.927,0.0
12.177,-0.302,-0.876,0.0
11.552,-0.287,-0.892,0.0
10.957,-0.273,-0.904,0.0
10.397,-0.26,-0.913,0.0
9.872,-0.248,-0.919,0.0
9.412,-0.237,-0.926,0.0
12.429,-0.312,-0.873,0.0
11.758,-0.296,-0.888,0.0
11.156,-0.282,-0.901,0.0
10.54,-0.267,-0.908,0.0
10.052,-0.255,-0.919,0.0
9.559,-0.244,-0.924,0.0
12.667,-0.321,-0.868,0.0
12.017,-0.306,-0.887,0.0
11.344,-0.289,-0.897,0.0
10.74,-0.275,-0.906,0.0
10.202,-0.262,-0.915,0.0
9.713,-0.25,-0.922,0.0
12.92,-0.331,-0.863,0.0
12.247,-0.314,-0.882,0.0
11.551,-0.297,-0.893,0.0
10.938,-0.282,-0.904,0.0
10.407,-0.269,-0.914,0.0
9.879,-0.256,-0.92,0.0
13.253,-0.342,-0.862,0.0
12.44,-0.322,-0.874,0.0
11.758,-0.305,-0.887,0.0
11.152,-0.29,-0.901,0.0
10.548,-0.275,-0.908,0.0
10.044,-0.262,-0.917,0.0
13.614,-0.354,-0.861,0.0
12.724,-0.331,-0.871,0.0
11.96,-0.312,-0.881,0.0
11.368,-0.297,-0.898,0.0
10.795,-0.283,-0.91,0.0
10.228,-0.269,-0.915,0.0
13.94,-0.364,-0.856,0.0
13.018,-0.341,-0.868,0.0
12.281,-0.322,-0.883,0.0
11.6,-0.305,-0.895,0.0
10.974,-0.289,-0.905,0.0
10.413,-0.274,-0.913,0.0
14.339,-0.376,-0.855,0.0
13.336,-0.35,-0.864,0.0
12.458,-0.327,-0.873,0.0
11.76,-0.31,-0.886,0.0
11.217,-0.296,-0.904,0.0
10.601,-0.28,-0.91,0.0
14.711,-0.386,-0.85,0.0
13.672,-0.359,-0.861,0.0
12.718,-0.335,-0.868,0.0
12.0,-0.316,-0.882,0.0
11.38,-0.3,-0.896,0.0
10.844,-0.287,-0.911,0.0
15.077,-0.396,-0.844,0.0
14.049,-0.37,-0.859,0.0
13.047,-0.344,-0.866,0.0
12.292,-0.324,-0.881,0.0
11.674,-0.308,-0.897,0.0
11.032,-0.291,-0.906,0.0
15.506,-0.407,-0.838,0.0
14.404,-0.379,-0.854,0.0
13.39,-0.352,-0.863,0.0
12.516,-0.329,-0.873,0.0
11.834,-0.312,-0.888,0.0
11.262,-0.297,-0.903,0.0
17.786,-0.466,-0.928,0.0
14.831,-0.389,-0.851,0.0
13.73,-0.36,-0.859,0.0
12.806,-0.336,-0.869,0.0
12.142,-0.319,-0.888,0.0
11.453,-0.301,-0.897,0.0
17.633,-0.46,-0.887,0.0
15.202,-0.397,-0.844,0.0
14.193,-0.371,-0.861,0.0
13.174,-0.344,-0.869,0.0
12.388,-0.324,-0.882,0.0
11.737,-0.307,-0.897,0.0
17.203,-0.447,-0.832,0.0
15.585,-0.405,-0.835,0.0
14.542,-0.378,-0.854,0.0
13.509,-0.351,-0.865,0.0
12.586,-0.327,-0.871,0.0
11.967,-0.311,-0.891,0.0
17.677,-0.456,-0.821,1.0
17.818,-0.459,-0.92,0.0
14.926,-0.385,-0.848,0.0
13.838,-0.356,-0.859,0.0
12.887,-0.332,-0.867,0.0
12.219,-0.314,-0.886,0.0
17.797,-0.455,-0.792,3.0
16.877,-0.431,-0.839,0.0
15.319,-0.391,-0.841,0.0
14.266,-0.364,-0.858,0.0
13.31,-0.339,-0.87,0.0
12.476,-0.318,-0.88,0.0
17.841,-0.452,-0.76,2.0
17.321,-0.438,-0.827,0.0
15.788,-0.399,-0.836,0.0
14.671,-0.37,-0.854,0.0
13.674,-0.345,-0.867,0.0
12.703,-0.32,-0.871,0.0
0.0,0.0,0.0,0.0
17.738,-0.443,-0.813,1.0
16.292,-0.406,-0.831,0.0
15.042,-0.375,-0.846,0.0
14.034,-0.349,-0.862,0.0
13.072,-0.325,-0.871,0.0
20.122,-0.497,-0.778,0.0
17.881,-0.441,-0.784,0.0
16.925,-0.416,-0.83,0.0
15.542,-0.382,-0.844,0.0
14.406,-0.353,-0.857,0.0
13.344,-0.327,-0.863,0.0
20.75,-0.505,-0.763,0.0
19.162,-0.465,-0.803,0.0
17.591,-0.426,-0.828,0.0
15.962,-0.386,-0.836,0.0
14.793,-0.357,-0.851,0.0
13.779,-0.332,-0.864,0.0
21.635,-0.517,-0.753,3.0
19.727,-0.47,-0.788,0.0
17.82,-0.424,-0.804,0.0
16.437,-0.39,-0.829,0.0
15.15,-0.359,-0.842,0.0
14.136,-0.334,-0.859,0.0
21.708,-0.509,-0.713,3.0
20.35,-0.476,-0.773,0.0
18.643,-0.435,-0.805,0.0
17.081,-0.397,-0.828,0.0
15.675,-0.363,-0.841,0.0
14.612,-0.338,-0.859,0.0
21.724,-0.499,-0.671,6.0
21.391,-0.49,-0.771,1.0
19.375,-0.442,-0.799,0.0
17.784,-0.404,-0.827,1.0
16.091,-0.365,-0.831,0.0
14.953,-0.338,-0.85,0.0
21.718,-0.487,-0.628,152.0
21.666,-0.484,-0.738,4.0
19.979,-0.445,-0.784,0.0
18.074,-0.401,-0.805,0.0
16.772,-0.371,-0.833,0.0
15.451,-0.34,-0.848,0.0
21.7,-0.474,-0.585,157.0
21.71,-0.473,-0.697,9.0
20.67,-0.448,-0.771,0.0
19.002,-0.41,-0.809,0.0
17.284,-0.372,-0.825,0.0
15.848,-0.339,-0.839,1.0
21.728,-0.462,-0.544,152.0
21.717,-0.459,-0.656,151.0
21.612,-0.455,-0.764,4.0
19.551,-0.41,-0.794,0.0
17.872,-0.373,-0.819,0.0
16.196,-0.336,-0.825,0.0
21.75,-0.448,-0.502,8.0
21.672,-0.444,-0.612,159.0
21.696,-0.443,-0.725,6.0
20.133,-0.409,-0.779,0.0
21.723,-0.439,-0.953,0.0
16.997,-0.341,-0.833,0.0
29.773,-0.593,-0.63,0.0
21.718,-0.43,-0.571,153.0
21.726,-0.428,-0.684,5.0
20.948,-0.411,-0.77,0.0
19.175,-0.374,-0.804,0.0
17.473,-0.338,-0.823,0.0
30.809,-0.592,-0.592,0.0
21.704,-0.414,-0.529,1.0
21.723,-0.412,-0.641,56.0
21.665,-0.408,-0.754,5.0
19.783,-0.371,-0.791,1.0
18.119,-0.337,-0.818,0.0
32.119,-0.592,-0.555,0.0
28.643,-0.525,-0.643,0.0
21.724,-0.395,-0.599,1.0
21.88,-0.395,-0.719,2.0
20.426,-0.366,-0.777,0.0
18.825,-0.335,-0.813,0.0
34.846,-0.615,-0.534,0.0
29.936,-0.524,-0.613,0.0
26.315,-0.457,-0.676,0.0
23.458,-0.405,-0.726,0.0
21.271,-0.364,-0.768,0.0
19.379,-0.329,-0.8,1.0
36.361,-0.611,-0.488,0.0
31.699,-0.528,-0.589,0.0
27.655,-0.457,-0.657,0.0
24.685,-0.405,-0.716,0.0
21.797,-0.354,-0.745,3.0
19.996,-0.322,-0.787,0.0
0.0,0.0,0.0,0.0
0.0,0.0,0.0,0.0
29.196,-0.457,-0.638,0.0
25.611,-0.397,-0.695,0.0
22.701,-0.348,-0.733,0.0
20.306,-0.308,-0.761,0.0
42.474,-0.638,-0.408,0.0
34.927,-0.519,-0.516,0.0
30.167,-0.444,-0.602,0.0
26.511,-0.386,-0.668,0.0
23.853,-0.343,-0.725,0.0
21.298,-0.303,-0.757,0.0
45.14,-0.635,-0.348,0.0
0.0,0.0,0.0,0.0
32.439,-0.446,-0.585,0.0
28.029,-0.381,-0.654,0.0
24.932,-0.335,-0.711,0.0
22.244,-0.295,-0.749,1.0
0.0,0.0,0.0,0.0
40.383,-0.522,-0.444,0.0
0.0,0.0,0.0,0.0
29.504,-0.371,-0.633,0.0
25.873,-0.321,-0.689,0.0
23.035,-0.282,-0.733,0.0
0.0,0.0,0.0,0.0
0.0,0.0,0.0,0.0
36.475,-0.427,-0.522,0.0
0.0,0.0,0.0,0.0
27.089,-0.308,-0.671,0.0
24.196,-0.271,-0.725,0.0
0.0,0.0,0.0,0.0
0.0,0.0,0.0,0.0
0.0,0.0,0.0,0.0
19.773,-0.207,-0.351,0.0
28.24,-0.29,-0.648,0.0
25.184,-0.254,-0.708,0.0
0.0,0.0,0.0,0.0
19.745,-0.192,-0.107,0.0
19.761,-0.188,-0.21,6.0
19.758,-0.185,-0.314,6.0
19.757,-0.181,-0.417,12.0
19.755,-0.177,-0.519,11.0
0.0,0.0,0.0,0.0
19.775,-0.169,-0.071,5.0
19.745,-0.166,-0.174,12.0
19.746,-0.162,-0.278,14.0
19.736,-0.158,-0.381,16.0
19.751,-0.154,-0.484,19.0
91.135,-0.695,0.307,1.0
19.777,-0.146,-0.035,4.0
19.731,-0.142,-0.138,13.0
19.722,-0.138,-0.242,16.0
19.734,-0.135,-0.345,17.0
19.739,-0.131,-0.448,17.0
19.769,-0.127,0.102,4.0
19.739,-0.123,0.0,10.0
19.719,-0.119,-0.103,15.0
19.719,-0.115,-0.207,17.0
19.751,-0.111,-0.311,15.0
19.754,-0.107,-0.413,17.0
19.724,-0.103,0.136,13.0
19.72,-0.098,0.033,12.0
19.721,-0.094,-0.068,9.0
19.702,-0.09,-0.173,16.0
19.745,-0.086,-0.276,15.0
19.764,-0.082,-0.379,13.0
19.705,-0.078,0.17,15.0
19.7,-0.073,0.068,13.0
19.711,-0.069,-0.034,16.0
19.714,-0.065,-0.139,15.0
19.743,-0.061,-0.242,14.0
19.755,-0.057,-0.345,6.0
19.664,-0.052,0.204,15.0
19.693,-0.048,0.102,16.0
19.697,-0.043,0.0,17.0
19.73,-0.039,-0.105,10.0
19.748,-0.035,-0.208,10.0
35.066,-0.055,-0.552,0.0
19.644,-0.026,0.237,14.0
19.695,-0.021,0.135,6.0
19.701,-0.017,0.033,13.0
19.737,-0.013,-0.071,8.0
19.736,-0.008,-0.174,0.0
0.0,0.0,0.0,0.0
19.632,0.0,0.27,14.0
19.693,0.004,0.168,8.0
19.765,0.009,0.066,4.0
19.743,0.013,-0.038,54.0
19.756,0.018,-0.142,1.0
19.749,0.022,-0.245,5.0
19.627,0.027,0.303,16.0
19.64,0.031,0.2,15.0
19.737,0.036,0.098,10.0
19.755,0.041,-0.006,19.0
19.747,0.045,-0.11,14.0
19.749,0.05,-0.213,41.0
19.616,0.054,0.335,14.0
19.625,0.059,0.232,14.0
19.692,0.064,0.13,14.0
19.743,0.069,0.025,43.0
19.762,0.073,-0.078,32.0
19.768,0.078,-0.182,24.0
19.619,0.082,0.366,18.0
19.614,0.087,0.263,17.0
19.664,0.092,0.161,12.0
19.657,0.096,0.055,12.0
19.677,0.101,-0.047,8.0
19.743,0.106,-0.15,0.0
19.613,0.111,0.397,23.0
19.609,0.115,0.294,13.0
19.664,0.121,0.191,17.0
19.635,0.125,0.086,13.0
19.643,0.13,-0.016,15.0
19.661,0.135,-0.119,12.0
19.619,0.14,0.427,13.0
19.621,0.145,0.324,10.0
19.643,0.15,0.222,13.0
19.645,0.155,0.116,12.0
19.633,0.16,0.013,17.0
19.649,0.165,-0.089,13.0
19.63,0.17,0.458,11.0
19.655,0.175,0.355,10.0
19.656,0.18,0.251,9.0
19.673,0.185,0.146,10.0
19.664,0.19,0.042,12.0
19.658,0.195,-0.06,12.0
19.714,0.2,0.489,10.0
19.718,0.206,0.385,12.0
19.723,0.211,0.281,9.0
19.752,0.216,0.176,23.0
19.732,0.221,0.072,5.0
19.664,0.225,-0.031,9.0
19.671,0.23,0.516,12.0
19.693,0.236,0.413,10.0
19.714,0.241,0.31,10.0
19.751,0.247,0.204,27.0
19.754,0.252,0.1,11.0
19.842,0.259,-0.003,0.0
180.279,7.399,8.319,19.0
178.938,7.393,7.29,18.0
23.709,0.986,0.837,0.0
23.57,0.987,0.703,0.0
45.226,1.907,1.105,13.0
23.628,1.003,0.449,33.0
23.612,1.012,1.109,43.0
23.599,1.018,0.981,45.0
23.59,1.025,0.853,41.0
23.582,1.031,0.723,45.0
23.581,1.038,0.595,65.0
23.598,1.045,0.468,150.0
23.58,1.054,1.127,77.0
23.573,1.061,0.999,74.0
23.57,1.067,0.87,69.0
23.579,1.074,0.741,69.0
23.579,1.08,0.613,72.0
23.584,1.087,0.485,70.0
23.568,1.097,1.144,65.0
23.579,1.104,1.017,49.0
23.591,1.112,0.889,40.0
23.605,1.119,0.759,39.0
23.612,1.126,0.631,39.0
23.624,1.133,0.503,39.0
23.603,1.143,1.163,8.0
23.603,1.149,1.034,2.0
23.589,1.155,0.906,0.0
162.641,8.012,5.346,10.0
45.202,2.239,1.24,10.0
45.192,2.251,0.994,1.0
0.0,0.0,0.0,0.0
180.178,9.109,8.022,11.0
179.716,9.136,7.021,18.0
162.603,8.312,5.452,5.0
45.201,2.323,1.269,13.0
204.192,10.55,4.624,5.0
0.0,0.0,0.0,0.0
0.0,0.0,0.0,0.0
180.153,9.486,7.15,20.0
180.53,9.559,6.164,7.0
45.219,2.407,1.297,13.0
45.213,2.419,1.051,10.0
0.0,0.0,0.0,0.0
0.0,0.0,0.0,0.0
181.061,9.872,7.292,11.0
180.725,9.904,6.274,14.0
163.386,8.998,4.781,19.0
45.211,2.502,1.076,1.0
0.0,0.0,0.0,0.0
0.0,0.0,0.0,0.0
200.637,11.312,8.192,10.0
198.617,11.251,7.004,11.0
163.471,9.305,4.87,16.0
0.0,0.0,0.0,0.0
205.948,11.881,10.77,6.0
203.911,11.816,9.544,8.0
198.915,11.578,8.221,8.0
197.941,11.576,7.078,15.0
163.511,9.606,4.951,16.0
45.218,2.669,1.122,123.0
0.0,0.0,0.0,0.0
203.644,12.172,9.627,16.0
198.45,11.916,8.294,20.0
197.558,11.916,7.154,18.0
163.354,9.896,5.019,15.0
163.412,9.945,4.126,5.0
204.727,12.563,10.893,7.0
0.0,0.0,0.0,0.0
198.274,12.271,8.37,6.0
197.657,12.286,7.239,6.0
112.412,7.017,3.5,4.0
112.366,7.043,2.882,7.0
204.477,12.923,10.961,6.0
100.769,6.395,4.847,4.0
100.507,6.405,4.282,7.0
100.176,6.411,3.707,12.0
100.001,6.425,3.15,22.0
45.193,2.916,1.175,58.0
99.945,6.5,5.394,31.0
99.941,6.526,4.843,39.0
99.951,6.553,4.292,40.0
99.972,6.579,3.733,42.0
99.974,6.606,3.183,41.0
44.545,2.955,1.173,78.0
99.961,6.684,5.426,33.0
99.978,6.711,4.876,31.0
99.964,6.735,4.324,33.0
99.962,6.76,3.762,39.0
99.99,6.788,3.212,37.0
43.273,2.948,1.151,80.0
99.955,6.865,5.453,33.0
99.968,6.89,4.902,34.0
99.952,6.913,4.348,31.0
99.962,6.939,3.787,38.0
99.976,6.966,3.236,38.0
41.99,2.937,1.127,108.0
99.971,7.046,5.478,29.0
99.986,7.071,4.926,22.0
45.439,3.224,1.986,3.0
45.464,3.237,1.732,8.0
45.452,3.247,1.48,60.0
40.915,2.934,1.106,91.0
45.47,3.285,2.5,150.0
45.462,3.295,2.248,150.0
45.467,3.307,1.996,150.0
45.465,3.318,1.74,139.0
45.478,3.33,1.489,150.0
45.464,3.341,1.237,76.0
43.66,3.232,2.407,87.0
43.678,3.244,2.166,98.0
43.68,3.255,1.924,134.0
43.677,3.265,1.677,150.0
43.689,3.277,1.435,146.0
43.691,3.288,1.194,125.0
43.675,3.311,2.413,136.0
43.675,3.321,2.17,141.0
43.675,3.331,1.928,150.0
0.0,0.0,0.0,0.0
0.0,0.0,0.0,0.0
43.722,3.368,1.198,3.0
41.885,3.249,2.317,112.0
41.887,3.259,2.085,112.0
41.882,3.269,1.852,142.0
41.885,3.279,1.615,135.0
41.892,3.29,1.382,117.0
41.902,3.301,1.15,115.0
41.892,3.323,2.32,113.0
41.864,3.331,2.085,75.0
0.0,0.0,0.0,0.0
0.0,0.0,0.0,0.0
40.084,3.217,1.323,6.0
40.085,3.227,1.1,49.0
40.092,3.25,2.22,126.0
40.097,3.259,1.996,119.0
40.084,3.267,1.772,150.0
40.085,3.277,1.545,150.0
40.094,3.287,1.322,138.0
40.088,3.296,1.099,150.0
40.098,3.319,2.218,111.0
40.1,3.328,1.994,115.0
40.08,3.335,1.77,134.0
40.094,3.345,1.543,139.0
40.088,3.354,1.319,130.0
40.098,3.364,1.096,150.0
40.095,3.386,2.215,114.0
40.109,3.396,1.991,87.0
40.109,3.405,1.767,87.0
40.081,3.411,1.538,43.0
40.086,3.42,1.314,11.0
40.074,3.429,1.09,2.0
87.082,7.501,4.801,103.0
87.08,7.518,4.313,52.0
87.084,7.538,3.825,47.0
87.089,7.557,3.33,39.0
74.142,6.45,2.421,3.0
74.097,6.463,2.006,8.0
87.119,7.647,4.789,2.0
87.078,7.661,4.299,29.0
83.031,7.322,3.633,3.0
82.912,7.329,3.156,1.0
72.869,6.457,2.366,6.0
72.831,6.47,1.958,8.0
82.933,7.414,4.543,11.0
82.937,7.431,4.077,12.0
82.922,7.447,3.612,16.0
82.923,7.465,3.139,24.0
71.691,6.469,2.312,9.0
71.584,6.474,1.908,11.0
82.911,7.546,4.522,30.0
82.915,7.562,4.056,26.0
82.906,7.578,3.591,19.0
82.927,7.597,3.118,13.0
70.457,6.469,2.254,9.0
70.357,6.474,1.857,10.0
83.039,7.688,4.507,3.0
82.93,7.694,4.034,38.0
82.968,7.713,3.57,2.0
83.079,7.74,3.1,1.0
69.285,6.469,2.196,7.0
69.207,6.476,1.805,8.0
85.439,8.043,4.611,11.0
82.906,7.82,4.007,56.0
85.155,8.048,3.637,9.0
84.911,8.041,3.14,7.0
68.18,6.47,2.138,9.0
68.082,6.475,1.753,10.0
84.386,8.072,4.526,10.0
82.905,7.945,3.979,39.0
84.043,8.071,3.56,9.0
83.629,8.046,3.064,3.0
67.092,6.468,2.08,4.0
67.042,6.477,1.702,6.0
83.252,8.09,4.433,4.0
82.912,8.07,3.947,5.0
75.219,7.336,3.157,1.0
66.103,6.459,2.395,3.0
66.134,6.475,2.024,11.0
66.105,6.485,1.651,11.0
75.092,7.407,3.968,6.0
75.091,7.42,3.544,10.0
75.102,7.434,3.12,9.0
65.288,6.474,2.338,3.0
65.202,6.478,1.967,7.0
65.12,6.482,1.598,6.0
75.072,7.514,3.933,127.0
75.039,7.523,3.508,130.0
75.055,7.537,3.084,150.0
64.382,6.477,2.276,9.0
64.315,6.482,1.911,9.0
64.243,6.486,1.546,9.0
75.076,7.62,3.897,9.0
75.099,7.635,3.474,8.0
75.01,7.638,3.045,4.0
63.478,6.474,2.213,10.0
63.434,6.482,1.852,12.0
63.449,6.495,1.495,12.0
75.117,7.729,3.86,3.0
71.01,7.318,3.248,1.0
71.005,7.329,2.846,1.0
62.672,6.48,2.151,10.0
62.671,6.49,1.797,11.0
62.597,6.493,1.442,9.0
70.892,7.391,3.605,6.0
70.931,7.406,3.205,7.0
70.959,7.42,2.805,5.0
61.866,6.479,2.089,10.0
61.879,6.491,1.739,12.0
61.838,6.498,1.388,13.0
70.894,7.486,3.564,40.0
70.892,7.496,3.161,50.0
70.905,7.508,2.761,29.0
61.094,6.478,2.026,7.0
61.104,6.489,1.681,8.0
61.059,6.495,1.335,8.0
70.877,7.576,3.52,20.0
70.893,7.587,3.119,18.0
60.461,6.48,2.317,0.0
60.381,6.481,1.965,4.0
60.38,6.49,1.623,4.0
60.365,6.498,1.281,3.0
70.945,7.673,3.478,5.0
70.907,7.678,3.074,4.0
59.737,6.478,2.25,4.0
59.768,6.489,1.906,6.0
59.749,6.497,1.567,6.0
59.722,6.503,1.228,6.0
73.548,8.046,3.556,7.0
73.461,8.045,3.134,8.0
59.15,6.486,2.188,4.0
59.079,6.486,1.844,6.0
59.094,6.497,1.509,8.0
59.04,6.5,1.173,9.0
72.948,8.066,3.476,10.0
72.733,8.052,3.052,7.0
58.517,6.486,2.123,6.0
58.505,6.493,1.785,11.0
58.483,6.499,1.451,9.0
58.487,6.508,1.119,10.0
72.386,8.089,3.397,10.0
72.085,8.064,2.973,5.0
57.933,6.488,2.059,8.0
57.94,6.497,1.724,11.0
57.935,6.504,1.395,10.0
57.896,6.508,1.065,7.0
71.787,8.102,3.315,8.0
71.451,8.072,2.893,1.0
57.36,6.488,1.995,11.0
57.399,6.499,1.664,10.0
57.405,6.507,1.338,11.0
57.362,6.511,1.011,10.0
70.951,8.085,3.221,7.0
56.861,6.486,2.257,3.0
56.895,6.496,1.935,7.0
56.874,6.501,1.604,9.0
56.903,6.511,1.281,9.0
56.881,6.516,0.957,9.0
70.178,8.07,3.129,3.0
56.311,6.482,2.189,2.0
56.331,6.49,1.869,10.0
56.346,6.499,1.543,10.0
56.356,6.507,1.222,12.0
56.359,6.514,0.902,13.0
0.0,0.0,0.0,0.0
55.839,6.484,2.125,2.0
55.833,6.489,1.806,12.0
55.888,6.502,1.483,14.0
55.882,6.508,1.165,14.0
55.917,6.518,0.847,12.0
63.198,7.393,2.711,2.0
55.434,6.49,2.061,6.0
55.467,6.5,1.746,7.0
55.456,6.504,1.424,12.0
55.478,6.513,1.109,13.0
55.456,6.517,0.792,13.0
54.948,6.479,2.309,2.0
54.974,6.487,1.996,11.0
54.98,6.493,1.682,11.0
54.976,6.498,1.363,11.0
54.993,6.507,1.049,12.0
54.986,6.512,0.736,13.0
54.584,6.485,2.244,9.0
54.593,6.491,1.932,12.0
54.61,6.498,1.621,13.0
54.604,6.502,1.304,14.0
54.595,6.507,0.992,13.0
54.597,6.513,0.681,11.0
54.173,6.482,2.178,5.0
54.205,6.49,1.868,11.0
54.215,6.496,1.559,13.0
54.222,6.502,1.244,14.0
54.25,6.51,0.936,13.0
54.261,6.517,0.626,11.0
53.86,6.488,2.114,3.0
53.853,6.491,1.806,12.0
53.893,6.5,1.499,14.0
53.901,6.506,1.186,12.0
53.917,6.513,0.879,11.0
53.914,6.518,0.571,11.0
53.532,6.489,2.05,11.0
53.575,6.498,1.745,13.0
53.585,6.503,1.439,12.0
53.591,6.509,1.128,14.0
53.596,6.514,0.821,13.0
53.599,6.519,0.515,13.0
53.231,6.492,1.986,11.0
53.261,6.499,1.682,12.0
53.267,6.503,1.378,11.0
53.281,6.509,1.068,13.0
53.283,6.513,0.764,13.0
53.279,6.518,0.459,12.0
52.948,6.493,1.923,11.0
52.976,6.5,1.62,13.0
53.01,6.507,1.318,12.0
53.022,6.512,1.01,13.0
53.012,6.515,0.706,13.0
53.022,6.521,0.403,11.0
52.689,6.495,1.86,10.0
52.736,6.504,1.559,15.0
52.76,6.51,1.257,14.0
52.753,6.512,0.951,17.0
52.786,6.521,0.649,14.0
52.786,6.525,0.347,10.0
52.457,6.498,1.796,7.0
52.468,6.502,1.497,11.0
52.504,6.509,1.197,13.0
52.537,6.516,0.892,13.0
52.562,6.523,0.591,12.0
52.546,6.525,0.291,9.0
52.209,6.496,1.734,7.0
52.266,6.505,1.436,8.0
52.304,6.512,1.138,12.0
52.332,6.518,0.834,13.0
52.341,6.523,0.534,13.0
42.833,5.341,0.192,9.0
52.058,6.503,1.674,11.0
52.089,6.509,1.377,6.0
52.096,6.512,1.078,11.0
52.12,6.518,0.775,13.0
52.14,6.523,0.477,11.0
18.008,2.254,0.061,7.0
51.88,6.505,1.612,12.0
51.905,6.51,1.316,14.0
51.938,6.516,1.019,14.0
51.937,6.518,0.716,9.0
51.988,6.527,0.419,4.0
17.998,2.26,0.042,15.0
51.705,6.505,1.551,12.0
51.752,6.512,1.255,13.0
51.782,6.517,0.959,13.0
51.808,6.523,0.657,11.0
17.978,2.264,0.125,2.0
18.002,2.268,0.022,17.0
51.564,6.506,1.489,11.0
51.61,6.513,1.195,12.0
51.653,6.52,0.9,10.0
51.654,6.522,0.599,12.0
17.984,2.271,0.105,9.0
18.011,2.275,0.002,13.0
51.449,6.508,1.429,9.0
51.499,6.515,1.135,13.0
51.511,6.518,0.841,12.0
51.575,6.528,0.541,11.0
17.977,2.276,0.085,15.0
18.022,2.282,-0.017,6.0
51.369,6.512,1.37,11.0
51.386,6.515,1.076,12.0
51.43,6.521,0.781,13.0
17.964,2.278,0.168,2.0
17.987,2.281,0.065,17.0
0.0,0.0,0.0,0.0
51.276,6.512,1.31,10.0
51.299,6.516,1.017,12.0
51.375,6.526,0.723,13.0
17.965,2.282,0.148,8.0
17.994,2.286,0.045,14.0
35.767,4.546,-0.114,12.0
51.2,6.512,1.25,10.0
51.263,6.52,0.957,12.0
51.301,6.525,0.663,12.0
17.957,2.284,0.127,13.0
18.001,2.29,0.025,8.0
35.347,4.498,-0.153,19.0
51.149,6.513,1.19,11.0
51.241,6.524,0.899,12.0
51.284,6.53,0.605,5.0
17.976,2.289,0.107,17.0
40.447,5.151,0.009,6.0
34.814,4.434,-0.19,11.0
51.151,6.517,1.133,11.0
51.21,6.525,0.84,12.0
17.962,2.288,0.191,4.0
17.959,2.288,0.086,15.0
0.0,0.0,0.0,0.0
16.558,2.11,-0.109,16.0
51.149,6.519,1.075,11.0
51.21,6.527,0.781,13.0
17.949,2.287,0.171,8.0
17.974,2.29,0.066,13.0
38.343,4.886,-0.077,10.0
16.55,2.109,-0.128,15.0
51.166,6.521,1.017,12.0
51.233,6.529,0.724,11.0
17.95,2.287,0.15,11.0
17.99,2.292,0.045,10.0
35.69,4.547,-0.113,12.0
16.583,2.113,-0.147,15.0
51.178,6.52,0.958,10.0
51.272,6.531,0.666,10.0
17.964,2.288,0.13,14.0
17.998,2.292,0.025,7.0
35.339,4.5,-0.151,19.0
16.565,2.109,-0.166,15.0
51.24,6.523,0.901,12.0
51.308,6.53,0.608,6.0
17.974,2.287,0.11,15.0
40.2,5.115,0.011,3.0
34.883,4.438,-0.189,11.0
16.551,2.105,-0.184,11.0
51.319,6.526,0.844,11.0
17.959,2.283,0.192,2.0
17.99,2.286,0.089,16.0
18.015,2.289,-0.015,2.0
16.571,2.105,-0.109,18.0
16.522,2.099,-0.203,6.0
51.395,6.526,0.786,12.0
17.975,2.281,0.172,2.0
17.986,2.282,0.069,16.0
0.0,0.0,0.0,0.0
32.524,4.125,-0.251,5.0
29.18,3.701,-0.392,8.0
51.51,6.528,0.73,11.0
17.972,2.277,0.151,4.0
17.99,2.278,0.049,15.0
35.832,4.537,-0.111,12.0
32.557,4.121,-0.288,5.0
27.756,3.513,-0.404,7.0
51.633,6.529,0.674,12.0
17.982,2.273,0.131,5.0
18.001,2.274,0.028,15.0
35.563,4.492,-0.15,12.0
16.54,2.088,-0.164,10.0
27.073,3.418,-0.425,7.0
51.799,6.533,0.617,11.0
17.984,2.267,0.111,6.0
18.005,2.269,0.008,14.0
35.076,4.419,-0.187,5.0
30.737,3.871,-0.34,2.0
26.314,3.313,-0.442,2.0
51.942,6.532,0.561,7.0
17.987,2.261,0.091,6.0
18.014,2.263,-0.011,14.0
33.342,4.187,-0.215,10.0
30.206,3.792,-0.367,8.0
17.377,2.181,-0.311,13.0
52.105,6.53,0.506,10.0
18.003,2.255,0.072,6.0
18.018,2.256,-0.031,15.0
33.045,4.135,-0.249,14.0
29.384,3.676,-0.39,8.0
17.2,2.151,-0.326,16.0
52.321,6.533,0.451,13.0
18.01,2.247,0.052,5.0
18.033,2.249,-0.05,15.0
33.01,4.115,-0.285,6.0
28.094,3.501,-0.403,7.0
17.107,2.131,-0.343,17.0
52.556,6.536,0.396,13.0
18.023,2.24,0.032,2.0
18.038,2.24,-0.07,15.0
16.555,2.055,-0.161,3.0
26.854,3.332,-0.415,6.0
17.029,2.112,-0.36,17.0
52.767,6.533,0.34,8.0
18.035,2.231,0.013,2.0
18.042,2.23,-0.089,15.0
0.0,0.0,0.0,0.0
26.199,3.236,-0.433,6.0
16.926,2.089,-0.376,17.0
53.007,6.53,0.286,3.0
18.03,2.22,-0.005,1.0
18.062,2.222,-0.109,16.0
29.924,3.679,-0.354,2.0
25.64,3.151,-0.45,2.0
16.855,2.07,-0.392,15.0
53.316,6.534,0.232,2.0
36.233,4.437,-0.049,7.0
18.063,2.21,-0.127,15.0
18.101,2.213,-0.233,4.0
17.33,2.118,-0.322,14.0
16.787,2.05,-0.408,16.0
46.184,5.628,0.152,8.0
36.254,4.414,-0.087,11.0
18.063,2.198,-0.146,14.0
18.108,2.201,-0.252,7.0
17.261,2.097,-0.339,14.0
16.732,2.031,-0.424,17.0
45.827,5.551,0.104,20.0
37.301,4.514,-0.128,13.0
18.08,2.186,-0.165,11.0
18.102,2.187,-0.27,9.0
17.237,2.081,-0.356,15.0
16.682,2.013,-0.44,16.0
45.13,5.432,0.057,20.0
0.0,0.0,0.0,0.0
18.09,2.173,-0.183,7.0
18.117,2.175,-0.288,12.0
