X,Y,Z,Reflectivity
40.07,1.335,-0.134,73.0
40.107,1.324,-0.358,1.0
40.124,1.307,0.744,150.0
40.122,1.294,0.519,150.0
40.124,1.281,0.295,128.0
40.123,1.268,0.066,150.0
40.076,1.254,-0.157,44.0
36.498,1.13,-0.347,2.0
40.122,1.225,0.721,150.0
40.129,1.212,0.497,117.0
40.124,1.199,0.272,125.0
40.1,1.185,0.044,73.0
40.013,1.17,-0.179,71.0
36.426,1.053,-0.366,2.0
0.0,0.0,0.0,0.0
41.932,1.18,0.497,165.0
41.919,1.166,0.262,150.0
40.138,1.104,0.023,159.0
40.019,1.087,-0.199,65.0
36.703,0.986,-0.387,0.0
0.0,0.0,0.0,0.0
45.496,1.188,0.517,43.0
70.652,1.821,0.408,20.0
0.0,0.0,0.0,0.0
0.0,0.0,0.0,0.0
34.738,0.861,-0.383,1.0
98.841,2.408,1.629,60.0
71.027,1.707,0.774,13.0
70.865,1.68,0.378,2.0
45.513,1.063,-0.015,1.0
43.847,1.009,-0.258,1.0
34.214,0.777,-0.392,1.0
128.846,2.871,2.068,15.0
128.6,2.823,1.349,8.0
83.048,1.796,0.409,3.0
52.369,1.114,-0.038,1.0
41.219,0.863,-0.259,1.0
33.825,0.696,-0.401,3.0
163.241,3.292,2.557,23.0
162.926,3.233,1.646,16.0
55.191,1.076,0.25,24.0
55.117,1.056,-0.061,7.0
41.755,0.786,-0.278,0.0
32.377,0.598,-0.395,0.0
55.174,0.997,0.844,76.0
55.164,0.978,0.538,77.0
55.164,0.958,0.231,49.0
55.132,0.94,-0.079,4.0
41.223,0.689,-0.288,0.0
19.729,0.323,-0.247,0.0
19.749,0.315,0.296,0.0
160.696,2.512,1.518,6.0
0.0,0.0,0.0,0.0
52.962,0.791,-0.092,1.0
19.683,0.287,-0.143,10.0
19.662,0.28,-0.252,16.0
19.726,0.273,0.29,14.0
19.769,0.267,0.181,25.0
84.816,1.115,0.308,5.0
19.667,0.252,-0.039,4.0
19.632,0.244,-0.148,16.0
19.653,0.238,-0.257,19.0
19.742,0.231,0.285,12.0
19.769,0.225,0.176,21.0
19.682,0.217,0.066,11.0
19.651,0.209,-0.043,10.0
19.641,0.203,-0.152,16.0
19.655,0.196,-0.261,16.0
19.665,0.188,0.28,8.0
19.653,0.181,0.171,12.0
19.643,0.175,0.063,13.0
19.64,0.167,-0.047,12.0
19.648,0.16,-0.156,13.0
19.728,0.154,-0.265,0.0
19.633,0.146,0.276,10.0
19.654,0.139,0.168,16.0
19.644,0.133,0.06,13.0
19.659,0.126,-0.05,9.0
19.66,0.119,-0.159,0.0
34.566,0.197,-0.47,0.0
19.621,0.104,0.274,16.0
19.674,0.097,0.166,12.0
19.717,0.091,0.057,18.0
19.759,0.084,-0.052,27.0
19.767,0.077,-0.161,60.0
19.768,0.07,-0.27,59.0
19.623,0.063,0.272,13.0
19.741,0.056,0.165,10.0
19.756,0.049,0.056,19.0
19.748,0.042,-0.054,150.0
19.745,0.035,-0.163,15.0
19.766,0.028,-0.272,2.0
19.63,0.021,0.271,15.0
19.797,0.014,0.164,2.0
19.757,0.007,0.055,5.0
19.741,0.0,-0.055,8.0
19.761,-0.007,-0.163,2.0
19.723,-0.014,-0.272,0.0
19.636,-0.021,0.271,12.0
19.691,-0.028,0.163,11.0
19.701,-0.035,0.055,16.0
19.71,-0.042,-0.055,15.0
19.73,-0.049,-0.163,15.0
19.753,-0.057,-0.272,15.0
19.666,-0.063,0.271,11.0
19.693,-0.07,0.164,15.0
19.711,-0.077,0.055,14.0
19.71,-0.085,-0.054,10.0
19.716,-0.092,-0.162,16.0
19.737,-0.099,-0.271,16.0
19.712,-0.105,0.273,6.0
19.736,-0.113,0.165,8.0
19.764,-0.12,0.057,6.0
19.768,-0.127,-0.052,9.0
19.732,-0.134,-0.161,15.0
19.737,-0.141,-0.269,16.0
169.324,-1.274,2.365,17.0
160.738,-1.267,1.364,14.0
0.0,0.0,0.0,0.0
19.795,-0.17,-0.05,1.0
19.771,-0.177,-0.159,5.0
19.765,-0.184,-0.267,6.0
19.776,-0.19,0.278,1.0
160.65,-1.61,1.386,6.0
0.0,0.0,0.0,0.0
0.0,0.0,0.0,0.0
0.0,0.0,0.0,0.0
0.0,0.0,0.0,0.0
19.753,-0.232,0.281,11.0
19.749,-0.24,0.173,23.0
19.743,-0.247,0.065,0.0
0.0,0.0,0.0,0.0
0.0,0.0,0.0,0.0
0.0,0.0,0.0,0.0
19.766,-0.275,0.286,3.0
19.764,-0.282,0.178,19.0
19.753,-0.289,0.07,3.0
0.0,0.0,0.0,0.0
0.0,0.0,0.0,0.0
0.0,0.0,0.0,0.0
163.554,-2.628,2.408,17.0
143.035,-2.349,1.325,150.0
0.0,0.0,0.0,0.0
0.0,0.0,0.0,0.0
0.0,0.0,0.0,0.0
37.706,-0.674,-0.476,0.0
0.0,0.0,0.0,0.0
142.986,-2.65,1.365,153.0
0.0,0.0,0.0,0.0
0.0,0.0,0.0,0.0
0.0,0.0,0.0,0.0
37.162,-0.742,-0.458,0.0
0.0,0.0,0.0,0.0
142.951,-2.948,1.411,152.0
0.0,0.0,0.0,0.0
0.0,0.0,0.0,0.0
0.0,0.0,0.0,0.0
0.0,0.0,0.0,0.0
0.0,0.0,0.0,0.0
142.926,-3.247,1.462,151.0
0.0,0.0,0.0,0.0
0.0,0.0,0.0,0.0
0.0,0.0,0.0,0.0
38.351,-0.926,-0.445,0.0
0.0,0.0,0.0,0.0
143.018,-3.545,1.519,5.0
0.0,0.0,0.0,0.0
0.0,0.0,0.0,0.0
0.0,0.0,0.0,0.0
0.0,0.0,0.0,0.0
0.0,0.0,0.0,0.0
0.0,0.0,0.0,0.0
0.0,0.0,0.0,0.0
0.0,0.0,0.0,0.0
0.0,0.0,0.0,0.0
0.0,0.0,0.0,0.0
163.987,-4.686,2.778,6.0
162.02,-4.687,1.866,16.0
160.716,-4.705,0.98,10.0
65.08,-1.929,0.038,1.0
0.0,0.0,0.0,0.0
41.805,-1.269,-0.428,0.0
162.333,-4.968,2.83,3.0
161.911,-5.014,1.946,28.0
160.675,-5.034,1.062,12.0
0.0,0.0,0.0,0.0
0.0,0.0,0.0,0.0
0.0,0.0,0.0,0.0
162.219,-5.298,2.915,28.0
161.942,-5.344,2.034,31.0
160.725,-5.362,1.15,13.0
0.0,0.0,0.0,0.0
0.0,0.0,0.0,0.0
0.0,0.0,0.0,0.0
162.222,-5.624,3.006,21.0
162.108,-5.676,2.128,23.0
160.745,-5.685,1.242,14.0
0.0,0.0,0.0,0.0
0.0,0.0,0.0,0.0
0.0,0.0,0.0,0.0
162.253,-5.95,3.105,24.0
162.007,-5.998,2.226,12.0
0.0,0.0,0.0,0.0
0.0,0.0,0.0,0.0
0.0,0.0,0.0,0.0
0.0,0.0,0.0,0.0
162.244,-6.269,3.207,17.0
0.0,0.0,0.0,0.0
0.0,0.0,0.0,0.0
0.0,0.0,0.0,0.0
0.0,0.0,0.0,0.0
0.0,0.0,0.0,0.0
162.442,-6.596,3.319,3.0
101.543,-4.157,1.527,97.0
101.504,-4.19,0.98,3.0
0.0,0.0,0.0,0.0
0.0,0.0,0.0,0.0
0.0,0.0,0.0,0.0
0.0,0.0,0.0,0.0
101.569,-4.354,1.599,2.0
101.583,-4.39,1.053,2.0
102.586,-4.469,0.502,1.0
0.0,0.0,0.0,0.0
0.0,0.0,0.0,0.0
0.0,0.0,0.0,0.0
102.017,-4.567,1.681,1.0
101.492,-4.578,1.126,16.0
0.0,0.0,0.0,0.0
101.592,-4.653,0.027,1.0
0.0,0.0,0.0,0.0
0.0,0.0,0.0,0.0
102.151,-4.766,1.761,2.0
101.546,-4.773,1.206,150.0
102.438,-4.849,0.656,1.0
101.515,-4.839,0.106,5.0
0.0,0.0,0.0,0.0
0.0,0.0,0.0,0.0
102.253,-4.961,1.845,1.0
101.481,-4.959,1.287,5.0
0.0,0.0,0.0,0.0
101.632,-5.035,0.189,2.0
0.0,0.0,0.0,0.0
163.384,-8.176,3.958,3.0
0.0,0.0,0.0,0.0
0.0,0.0,0.0,0.0
0.0,0.0,0.0,0.0
0.0,0.0,0.0,0.0
0.0,0.0,0.0,0.0
140.6,-7.294,3.528,33.0
0.0,0.0,0.0,0.0
101.502,-5.332,1.46,38.0
0.0,0.0,0.0,0.0
0.0,0.0,0.0,0.0
0.0,0.0,0.0,0.0
140.722,-7.554,3.655,28.0
140.681,-7.595,2.901,17.0
101.562,-5.516,1.551,2.0
101.398,-5.539,0.997,2.0
0.0,0.0,0.0,0.0
0.0,0.0,0.0,0.0
119.995,-6.654,3.226,17.0
140.73,-7.849,3.032,10.0
140.72,-7.891,2.28,35.0
140.721,-7.937,1.515,11.0
0.0,0.0,0.0,0.0
0.0,0.0,0.0,0.0
106.771,-10.072,7.279,22.0
110.348,-10.416,6.936,17.0
108.719,-10.268,6.259,28.0
108.103,-10.217,5.642,24.0
108.439,-10.257,5.085,24.0
110.376,-10.448,4.593,10.0
107.402,-10.183,7.473,17.0
107.218,-10.171,6.892,12.0
109.024,-10.348,6.43,19.0
108.297,-10.285,5.803,26.0
108.191,-10.282,5.225,23.0
109.874,-10.448,4.726,18.0
107.573,-10.247,7.637,14.0
107.257,-10.221,7.046,18.0
110.537,-10.538,6.674,21.0
108.74,-10.371,5.979,20.0
108.007,-10.307,5.367,25.0
109.621,-10.467,4.868,22.0
106.671,-10.202,7.723,19.0
106.939,-10.231,7.175,14.0
110.413,-10.568,6.822,21.0
108.818,-10.419,6.136,19.0
108.038,-10.349,5.519,28.0
108.104,-10.359,4.951,13.0
106.694,-10.242,7.874,20.0
106.902,-10.265,7.32,17.0
110.47,-10.609,6.978,21.0
108.718,-10.444,6.28,17.0
108.218,-10.399,5.677,20.0
108.056,-10.387,5.098,21.0
107.325,-10.335,8.07,21.0
107.578,-10.361,7.515,14.0
110.338,-10.628,7.122,6.0
108.72,-10.474,6.43,15.0
108.476,-10.452,5.84,20.0
108.017,-10.411,5.242,23.0
107.291,-10.359,8.215,22.0
107.451,-10.375,7.654,16.0
107.187,-10.35,7.065,11.0
110.894,-10.709,6.709,15.0
108.63,-10.491,5.996,21.0
107.98,-10.43,5.388,22.0
107.121,-10.366,8.347,17.0
106.569,-10.311,7.737,11.0
0.0,0.0,0.0,0.0
110.332,-10.674,6.826,11.0
108.731,-10.52,6.149,18.0
108.026,-10.451,5.537,27.0
107.337,-10.405,8.511,11.0
106.792,-10.35,7.898,12.0
106.907,-10.359,7.337,17.0
110.365,-10.693,6.975,11.0
108.477,-10.509,6.28,19.0
108.171,-10.479,5.687,24.0
107.965,-10.479,8.706,16.0
107.276,-10.409,8.077,18.0
107.475,-10.425,7.52,17.0
110.558,-10.722,7.135,3.0
108.495,-10.521,6.423,16.0
108.299,-10.5,5.836,22.0
47.751,-4.638,3.913,13.0
107.162,-10.406,8.211,19.0
107.54,-10.438,7.666,16.0
107.654,-10.446,7.088,14.0
111.347,-10.801,6.738,5.0
108.628,-10.535,5.995,21.0
47.753,-4.64,3.976,11.0
107.011,-10.393,8.338,16.0
109.674,-10.648,7.96,5.0
0.0,0.0,0.0,0.0
108.105,-10.487,6.682,9.0
108.774,-10.548,6.144,20.0
47.791,-4.643,4.042,5.0
107.417,-10.431,8.51,15.0
106.675,-10.354,7.88,11.0
106.877,-10.369,7.312,18.0
110.377,-10.703,6.963,11.0
108.478,-10.514,6.266,18.0
47.908,-4.652,4.113,15.0
107.896,-10.472,8.686,16.0
107.28,-10.405,8.062,16.0
107.465,-10.417,7.491,15.0
110.402,-10.696,7.105,5.0
108.542,-10.51,6.408,17.0
48.034,-4.66,4.185,8.0
47.775,-4.632,3.907,10.0
107.214,-10.388,8.193,21.0
107.434,-10.401,7.625,15.0
107.444,-10.396,7.051,12.0
110.686,-10.703,6.672,13.0
45.97,-4.454,4.063,32.0
47.978,-4.644,3.983,22.0
107.174,-10.367,8.324,17.0
106.71,-10.314,7.705,13.0
106.767,-10.312,7.139,13.0
110.397,-10.655,6.792,17.0
45.933,-4.442,4.118,34.0
47.939,-4.631,4.04,13.0
107.838,-10.41,8.509,14.0
106.513,-10.273,7.822,17.0
106.905,-10.302,7.279,17.0
110.41,-10.631,6.928,21.0
45.932,-4.432,4.174,14.0
47.864,-4.613,4.092,10.0
108.072,-10.407,8.659,17.0
107.361,-10.329,8.013,21.0
107.747,-10.356,7.464,15.0
110.379,-10.6,7.056,10.0
0.0,0.0,0.0,0.0
48.146,-4.628,4.174,19.0
47.748,-4.584,3.882,4.0
107.186,-10.281,8.128,13.0
107.536,-10.304,7.578,20.0
107.211,-10.262,6.98,16.0
47.694,-4.575,4.448,5.0
48.103,-4.608,4.226,14.0
48.243,-4.616,3.979,18.0
106.039,-10.136,8.165,20.0
106.656,-10.183,7.64,16.0
107.272,-10.231,7.108,14.0
45.506,-4.349,4.297,4.0
45.899,-4.381,4.086,15.0
48.206,-4.595,4.031,21.0
106.073,-10.1,8.288,14.0
106.509,-10.129,7.749,18.0
106.975,-10.162,7.209,16.0
39.318,-3.743,3.757,37.0
0.0,0.0,0.0,0.0
48.29,-4.584,4.092,25.0
108.293,-10.268,8.582,6.0
106.792,-10.112,7.888,16.0
106.904,-10.11,7.321,19.0
39.241,-3.719,3.793,39.0
0.0,0.0,0.0,0.0
48.339,-4.568,4.149,22.0
48.28,-4.556,3.878,4.0
106.07,-9.996,7.949,17.0
107.123,-10.081,7.451,13.0
39.26,-3.702,3.837,36.0
47.547,-4.477,4.39,13.0
48.426,-4.553,4.209,22.0
48.282,-4.533,3.93,18.0
105.979,-9.935,8.055,19.0
107.266,-10.041,7.574,14.0
39.255,-3.682,3.879,27.0
39.311,-3.681,3.671,29.0
48.648,-4.548,4.279,7.0
48.338,-4.512,3.985,20.0
108.231,-10.089,8.338,9.0
106.223,-9.886,7.609,13.0
45.548,-4.248,4.548,5.0
39.263,-3.655,3.707,32.0
0.0,0.0,0.0,0.0
48.402,-4.491,4.039,22.0
108.184,-10.023,8.442,21.0
106.157,-9.82,7.71,23.0
39.321,-3.644,3.965,11.0
39.162,-3.623,3.736,32.0
47.573,-4.394,4.28,33.0
48.375,-4.46,4.084,29.0
108.074,-9.947,8.539,15.0
105.96,-9.736,7.798,20.0
48.696,-4.484,4.958,9.0
39.219,-3.604,3.779,25.0
47.555,-4.362,4.324,34.0
48.357,-4.428,4.129,38.0
107.964,-9.868,8.633,10.0
105.801,-9.653,7.886,15.0
41.215,-3.768,4.236,22.0
39.258,-3.582,3.82,27.0
47.574,-4.332,4.37,17.0
48.266,-4.387,4.166,22.0
108.112,-9.808,8.744,12.0
108.774,-9.851,8.206,19.0
49.189,-4.463,5.101,7.0
39.265,-3.555,3.857,27.0
49.39,-4.463,4.582,9.0
47.583,-4.291,4.149,18.0
48.447,-4.36,3.961,8.0
108.843,-9.777,8.309,17.0
47.733,-4.296,4.992,14.0
39.271,-3.527,3.892,22.0
39.183,-3.512,3.669,5.0
47.59,-4.256,4.192,21.0
107.043,-9.554,8.845,11.0
111.687,-9.949,8.621,11.0
47.726,-4.259,5.033,28.0
48.699,-4.336,4.868,8.0
49.25,-4.376,4.653,5.0
47.477,-4.209,4.222,32.0
106.543,-9.427,8.892,11.0
111.473,-9.842,8.696,21.0
0.0,0.0,0.0,0.0
48.789,-4.306,4.917,10.0
49.218,-4.333,4.69,7.0
47.484,-4.172,4.26,41.0
106.43,-9.33,8.966,7.0
0.0,0.0,0.0,0.0
47.756,-4.185,5.113,18.0
48.827,-4.268,4.959,10.0
49.251,-4.295,4.731,10.0
47.45,-4.128,4.293,41.0
106.413,-9.238,9.046,14.0
109.782,-9.509,8.733,23.0
47.513,-4.123,5.123,13.0
48.887,-4.231,5.002,22.0
48.945,-4.226,4.738,13.0
47.465,-4.088,4.329,23.0
106.438,-9.147,9.125,20.0
109.616,-9.398,8.798,10.0
50.242,-4.315,5.453,11.0
49.056,-4.202,5.054,24.0
48.857,-4.174,4.764,15.0
47.514,-4.049,4.367,25.0
106.765,-9.077,9.227,9.0
106.555,-9.037,8.625,16.0
46.71,-3.968,5.102,4.0
49.113,-4.162,5.093,35.0
48.882,-4.131,4.799,22.0
49.396,-4.164,4.573,10.0
47.578,-4.0,4.143,20.0
106.62,-8.944,8.698,22.0
0.0,0.0,0.0,0.0
49.112,-4.115,5.124,24.0
48.975,-4.092,4.84,11.0
0.0,0.0,0.0,0.0
47.544,-3.952,4.169,13.0
106.745,-8.85,8.773,18.0
105.872,-8.792,11.698,7.0
49.209,-4.075,5.164,35.0
49.028,-4.049,4.874,9.0
49.409,-4.069,4.634,35.0
47.601,-3.909,4.201,9.0
106.711,-8.74,8.832,21.0
107.891,-8.851,11.983,16.0
49.198,-4.023,5.191,23.0
106.068,-8.651,10.604,21.0
49.422,-4.02,4.662,29.0
106.52,-8.639,9.46,18.0
106.829,-8.64,8.899,18.0
106.256,-8.607,11.858,13.0
49.286,-3.98,5.226,28.0
106.265,-8.557,10.678,18.0
49.414,-3.967,4.686,28.0
106.805,-8.551,9.538,18.0
106.876,-8.533,8.955,19.0
106.07,-8.48,11.89,20.0
49.338,-3.933,5.255,34.0
106.305,-8.448,10.733,21.0
49.441,-3.917,4.712,27.0
107.636,-8.503,9.663,15.0
107.072,-8.433,9.02,11.0
106.524,-8.401,11.989,2.0
49.317,-3.877,5.275,23.0
106.279,-8.329,10.777,21.0
49.485,-3.866,4.738,23.0
109.777,-8.549,9.902,8.0
107.057,-8.313,9.063,19.0
107.102,-8.327,12.099,19.0
49.332,-3.823,5.297,22.0
106.299,-8.212,10.822,22.0
49.536,-3.815,4.762,17.0
107.335,-8.24,9.722,17.0
110.115,-8.427,9.364,10.0
106.99,-8.198,12.126,23.0
49.366,-3.77,5.319,23.0
106.121,-8.078,10.842,18.0
49.589,-3.762,4.784,12.0
107.072,-8.098,9.735,17.0
107.323,-8.091,9.161,14.0
106.998,-8.075,12.163,20.0
49.382,-3.714,5.336,15.0
105.975,-7.944,10.86,23.0
49.632,-3.709,4.803,20.0
106.955,-7.966,9.756,21.0
107.093,-7.95,9.173,16.0
107.769,-8.007,12.282,20.0
49.4,-3.658,5.352,7.0
107.382,-7.923,11.034,16.0
49.619,-3.649,4.816,12.0
109.604,-8.034,10.026,16.0
107.1,-7.824,9.2,16.0
107.67,-7.873,12.297,23.0
107.15,-7.807,11.635,23.0
106.589,-7.739,10.976,19.0
106.864,-7.731,10.396,28.0
109.378,-7.886,10.029,18.0
106.937,-7.684,9.208,19.0
0.0,0.0,0.0,0.0
0.0,0.0,0.0,0.0
0.0,0.0,0.0,0.0
126.278,-3.631,10.125,2.0
140.445,-4.01,10.447,16.0
125.291,-3.553,8.595,14.0
0.0,0.0,0.0,0.0
113.888,-3.18,10.324,3.0
0.0,0.0,0.0,0.0
126.37,-3.477,9.974,3.0
0.0,0.0,0.0,0.0
124.971,-3.39,8.417,23.0
0.0,0.0,0.0,0.0
0.0,0.0,0.0,0.0
0.0,0.0,0.0,0.0
0.0,0.0,0.0,0.0
0.0,0.0,0.0,0.0
125.272,-3.246,8.274,22.0
0.0,0.0,0.0,0.0
0.0,0.0,0.0,0.0
0.0,0.0,0.0,0.0
0.0,0.0,0.0,0.0
0.0,0.0,0.0,0.0
125.261,-3.096,8.108,9.0
0.0,0.0,0.0,0.0
0.0,0.0,0.0,0.0
0.0,0.0,0.0,0.0
0.0,0.0,0.0,0.0
0.0,0.0,0.0,0.0
124.435,-2.929,7.885,8.0
114.079,-2.659,10.398,5.0
0.0,0.0,0.0,0.0
0.0,0.0,0.0,0.0
0.0,0.0,0.0,0.0
0.0,0.0,0.0,0.0
124.934,-2.798,7.743,9.0
114.36,-2.533,10.261,1.0
0.0,0.0,0.0,0.0
0.0,0.0,0.0,0.0
0.0,0.0,0.0,0.0
0.0,0.0,0.0,0.0
125.072,-2.66,7.572,15.0
0.0,0.0,0.0,0.0
0.0,0.0,0.0,0.0
0.0,0.0,0.0,0.0
0.0,0.0,0.0,0.0
0.0,0.0,0.0,0.0
0.0,0.0,0.0,0.0
0.0,0.0,0.0,0.0
0.0,0.0,0.0,0.0
0.0,0.0,0.0,0.0
0.0,0.0,0.0,0.0
0.0,0.0,0.0,0.0
0.0,0.0,0.0,0.0
0.0,0.0,0.0,0.0
0.0,0.0,0.0,0.0
0.0,0.0,0.0,0.0
0.0,0.0,0.0,0.0
0.0,0.0,0.0,0.0
0.0,0.0,0.0,0.0
0.0,0.0,0.0,0.0
0.0,0.0,0.0,0.0
0.0,0.0,0.0,0.0
0.0,0.0,0.0,0.0
189.974,-3.254,11.453,14.0
189.943,-3.224,10.35,4.0
0.0,0.0,0.0,0.0
0.0,0.0,0.0,0.0
0.0,0.0,0.0,0.0
190.267,-3.094,12.277,5.0
0.0,0.0,0.0,0.0
0.0,0.0,0.0,0.0
0.0,0.0,0.0,0.0
0.0,0.0,0.0,0.0
0.0,0.0,0.0,0.0
0.0,0.0,0.0,0.0
0.0,0.0,0.0,0.0
0.0,0.0,0.0,0.0
0.0,0.0,0.0,0.0
0.0,0.0,0.0,0.0
0.0,0.0,0.0,0.0
0.0,0.0,0.0,0.0
0.0,0.0,0.0,0.0
0.0,0.0,0.0,0.0
0.0,0.0,0.0,0.0
0.0,0.0,0.0,0.0
0.0,0.0,0.0,0.0
0.0,0.0,0.0,0.0
0.0,0.0,0.0,0.0
0.0,0.0,0.0,0.0
53.786,-0.69,4.059,0.0
0.0,0.0,0.0,0.0
0.0,0.0,0.0,0.0
0.0,0.0,0.0,0.0
0.0,0.0,0.0,0.0
0.0,0.0,0.0,0.0
19.623,-0.032,0.838,5.0
19.65,-0.031,0.724,10.0
19.616,-0.03,0.608,12.0
19.609,-0.029,0.491,12.0
19.613,-0.028,0.376,13.0
19.632,-0.027,0.262,13.0
19.685,-0.025,0.799,9.0
19.643,-0.024,0.682,12.0
19.621,-0.023,0.567,12.0
19.613,-0.022,0.45,14.0
19.615,-0.021,0.335,13.0
19.638,-0.021,0.22,15.0
19.662,-0.019,0.757,10.0
19.624,-0.018,0.641,12.0
19.611,-0.017,0.525,12.0
19.618,-0.016,0.408,12.0
19.618,-0.016,0.294,13.0
19.666,-0.015,0.179,8.0
19.653,-0.013,0.715,13.0
19.614,-0.012,0.599,13.0
19.624,-0.012,0.484,11.0
19.616,-0.011,0.367,13.0
19.629,-0.01,0.253,14.0
19.753,-0.01,0.139,1.0
19.645,-0.008,0.674,13.0
19.619,-0.008,0.558,12.0
19.614,-0.007,0.443,11.0
19.61,-0.007,0.326,13.0
19.638,-0.006,0.211,14.0
19.756,-0.006,0.097,2.0
19.628,-0.004,0.631,13.0
19.612,-0.004,0.515,12.0
19.616,-0.003,0.4,12.0
19.612,-0.003,0.283,13.0
19.746,-0.002,0.17,4.0
19.774,-0.002,0.054,5.0
19.619,-0.001,0.589,13.0
19.618,-0.001,0.474,11.0
19.618,0.0,0.359,12.0
19.608,0.0,0.242,15.0
19.766,0.0,0.128,1.0
19.732,0.0,0.012,9.0
19.619,0.001,0.547,13.0
19.619,0.001,0.432,11.0
19.622,0.001,0.317,13.0
19.631,0.001,0.2,12.0
19.781,0.002,0.086,6.0
19.751,0.002,-0.028,9.0
19.624,0.003,0.505,13.0
19.627,0.003,0.391,12.0
19.619,0.003,0.275,13.0
19.774,0.003,0.16,2.0
19.775,0.003,0.044,5.0
19.769,0.003,-0.071,1.0
19.619,0.004,0.463,12.0
19.617,0.004,0.348,14.0
19.627,0.004,0.233,15.0
19.783,0.004,0.117,2.0
19.744,0.004,0.001,9.0
19.768,0.004,-0.114,0.0
19.622,0.004,0.421,13.0
19.622,0.004,0.306,13.0
19.669,0.004,0.191,8.0
19.775,0.004,0.074,5.0
19.753,0.004,-0.04,9.0
19.823,0.004,-0.157,0.0
19.619,0.004,0.378,14.0
19.623,0.003,0.263,15.0
19.783,0.003,0.149,1.0
19.746,0.003,0.031,6.0
19.789,0.003,-0.084,0.0
19.776,0.003,-0.199,0.0
19.624,0.003,0.336,14.0
19.63,0.002,0.221,15.0
19.794,0.002,0.107,2.0
19.744,0.002,-0.01,9.0
19.731,0.001,-0.126,0.0
19.856,0.001,-0.243,0.0
19.623,0.001,0.293,14.0
19.726,0.0,0.179,4.0
19.786,0.0,0.064,4.0
19.748,0.0,-0.053,3.0
0.0,0.0,0.0,0.0
19.724,0.0,-0.284,0.0
19.63,-0.001,0.251,15.0
19.728,-0.001,0.137,0.0
19.734,-0.002,0.022,10.0
19.746,-0.002,-0.095,1.0
0.0,0.0,0.0,0.0
32.831,-0.006,-0.543,0.0
19.649,-0.004,0.21,15.0
19.746,-0.005,0.095,3.0
19.739,-0.006,-0.02,10.0
19.763,-0.006,-0.138,0.0
0.0,0.0,0.0,0.0
30.213,-0.012,-0.564,0.0
19.782,-0.008,0.169,2.0
19.731,-0.009,0.052,8.0
19.75,-0.01,-0.062,3.0
19.751,-0.011,-0.18,0.0
33.584,-0.02,-0.503,0.0
28.926,-0.018,-0.603,0.0
19.691,-0.013,0.125,2.0
19.719,-0.014,0.01,13.0
19.765,-0.015,-0.105,4.0
0.0,0.0,0.0,0.0
32.329,-0.027,-0.553,0.0
27.744,-0.025,-0.637,0.0
19.703,-0.019,0.084,12.0
19.731,-0.02,-0.031,11.0
19.755,-0.021,-0.146,4.0
0.0,0.0,0.0,0.0
30.704,-0.035,-0.591,1.0
26.289,-0.031,-0.659,0.0
19.718,-0.025,0.042,15.0
19.739,-0.026,-0.072,7.0
19.751,-0.027,-0.188,3.0
0.0,0.0,0.0,0.0
28.859,-0.043,-0.616,0.0
24.946,-0.038,-0.679,0.0
19.716,-0.032,0.0,16.0
19.734,-0.033,-0.114,12.0
19.758,-0.034,-0.23,3.0
0.0,0.0,0.0,0.0
27.45,-0.051,-0.644,0.0
23.733,-0.046,-0.696,0.0
19.729,-0.04,-0.04,15.0
19.751,-0.041,-0.156,13.0
19.768,-0.042,-0.272,2.0
29.869,-0.066,-0.588,0.0
25.931,-0.059,-0.662,0.0
22.786,-0.053,-0.715,0.0
19.742,-0.048,-0.081,13.0
19.757,-0.05,-0.197,14.0
19.768,-0.051,-0.313,2.0
28.509,-0.076,-0.621,0.0
24.456,-0.067,-0.676,0.0
21.872,-0.061,-0.733,0.0
19.729,-0.057,-0.122,15.0
19.745,-0.059,-0.238,14.0
19.769,-0.06,-0.354,2.0
19.747,-0.062,-0.471,0.0
23.338,-0.075,-0.694,0.0
20.634,-0.068,-0.734,0.0
19.741,-0.067,-0.163,16.0
19.757,-0.069,-0.279,14.0
19.77,-0.07,-0.395,6.0
19.751,-0.072,-0.512,2.0
19.791,-0.074,-0.629,0.0
19.743,-0.075,-0.743,2.0
19.737,-0.078,-0.204,16.0
19.756,-0.08,-0.32,14.0
19.75,-0.081,-0.435,11.0
19.752,-0.083,-0.553,9.0
19.764,-0.084,-0.669,4.0
19.63,-0.086,-0.779,2.0
19.742,-0.089,-0.244,16.0
19.757,-0.091,-0.36,13.0
19.746,-0.093,-0.475,13.0
19.749,-0.094,-0.593,13.0
19.745,-0.096,-0.709,8.0
18.864,-0.094,-0.787,0.0
19.754,-0.101,-0.285,15.0
19.738,-0.103,-0.4,16.0
19.744,-0.105,-0.516,14.0
19.736,-0.107,-0.633,15.0
19.707,-0.108,-0.747,7.0
18.276,-0.102,-0.8,0.0
19.754,-0.114,-0.325,15.0
19.734,-0.116,-0.44,16.0
19.743,-0.118,-0.556,16.0
19.729,-0.12,-0.673,15.0
19.576,-0.121,-0.782,1.0
17.498,-0.11,-0.801,0.0
19.743,-0.127,-0.364,17.0
19.725,-0.129,-0.479,16.0
19.743,-0.131,-0.595,16.0
19.725,-0.133,-0.711,14.0
18.832,-0.129,-0.789,1.0
16.907,-0.118,-0.808,0.0
19.736,-0.141,-0.403,18.0
19.741,-0.143,-0.518,18.0
19.741,-0.145,-0.633,16.0
19.713,-0.147,-0.75,7.0
18.209,-0.138,-0.799,0.0
16.304,-0.125,-0.811,0.0
19.745,-0.156,-0.441,19.0
19.74,-0.158,-0.556,16.0
19.743,-0.16,-0.672,11.0
19.505,-0.161,-0.78,2.0
17.494,-0.146,-0.802,0.0
15.738,-0.133,-0.813,0.0
19.755,-0.171,-0.48,14.0
19.765,-0.174,-0.595,8.0
19.756,-0.176,-0.71,9.0
18.847,-0.17,-0.79,0.0
16.88,-0.154,-0.806,0.0
15.512,-0.144,-0.832,0.0
19.777,-0.187,-0.518,2.0
22.456,-0.215,-0.719,1.0
19.717,-0.192,-0.747,6.0
18.164,-0.179,-0.796,0.0
16.396,-0.163,-0.814,0.0
15.048,-0.152,-0.836,0.0
24.549,-0.253,-0.69,0.0
21.598,-0.225,-0.733,0.0
19.54,-0.206,-0.777,2.0
17.554,-0.188,-0.802,0.0
15.798,-0.171,-0.814,0.0
14.712,-0.161,-0.844,0.0
23.071,-0.258,-0.691,0.0
19.809,-0.224,-0.709,4.0
18.868,-0.216,-0.785,0.0
17.017,-0.197,-0.809,0.0
15.534,-0.182,-0.83,0.0
14.254,-0.169,-0.844,0.0
22.466,-0.271,-0.714,1.0
19.75,-0.241,-0.743,5.0
18.286,-0.226,-0.794,0.0
16.498,-0.206,-0.815,0.0
15.06,-0.19,-0.832,0.0
13.943,-0.178,-0.852,0.0
21.704,-0.282,-0.73,0.0
19.628,-0.258,-0.774,1.0
17.722,-0.235,-0.802,0.0
15.972,-0.214,-0.817,0.0
14.763,-0.2,-0.842,0.0
13.634,-0.187,-0.857,0.0
20.063,-0.28,-0.71,0.0
19.001,-0.268,-0.783,0.0
17.113,-0.244,-0.805,0.0
15.568,-0.224,-0.825,0.0
14.28,-0.208,-0.84,0.0
13.268,-0.195,-0.858,0.0
19.914,-0.297,-0.739,3.0
18.405,-0.277,-0.79,0.0
16.629,-0.253,-0.811,0.0
15.281,-0.235,-0.836,0.0
13.992,-0.217,-0.847,0.0
12.988,-0.204,-0.862,0.0
19.698,-0.314,-0.765,0.0
17.853,-0.287,-0.798,0.0
16.216,-0.263,-0.819,0.0
14.896,-0.244,-0.84,0.0
13.725,-0.227,-0.855,0.0
12.733,-0.213,-0.867,0.0
19.252,-0.327,-0.781,1.0
17.324,-0.297,-0.803,0.0
15.792,-0.273,-0.824,0.0
14.449,-0.252,-0.84,0.0
13.358,-0.235,-0.854,0.0
12.476,-0.222,-0.87,0.0
18.738,-0.338,-0.791,0.0
16.801,-0.305,-0.807,0.0
15.388,-0.282,-0.828,0.0
14.137,-0.262,-0.845,0.0
13.162,-0.246,-0.863,0.0
12.249,-0.231,-0.875,0.0
18.146,-0.347,-0.796,0.0
16.369,-0.315,-0.813,0.0
15.067,-0.293,-0.835,0.0
13.905,-0.273,-0.853,0.0
12.859,-0.254,-0.864,0.0
12.055,-0.241,-0.881,0.0
17.688,-0.357,-0.804,0.0
15.941,-0.325,-0.817,0.0
14.7,-0.302,-0.839,0.0
13.559,-0.281,-0.854,0.0
12.633,-0.264,-0.869,0.0
11.822,-0.249,-0.882,0.0
17.237,-0.368,-0.811,0.0
15.645,-0.337,-0.826,0.0
14.269,-0.31,-0.837,0.0
13.269,-0.29,-0.857,0.0
12.204,-0.269,-0.859,0.0
11.646,-0.259,-0.887,0.0
16.599,-0.374,-0.806,0.0
15.293,-0.347,-0.831,0.0
14.078,-0.322,-0.847,0.0
12.934,-0.298,-0.855,0.0
12.162,-0.283,-0.875,0.0
11.416,-0.268,-0.887,0.0
16.254,-0.385,-0.814,0.0
14.955,-0.357,-0.836,0.0
13.743,-0.331,-0.848,0.0
12.814,-0.311,-0.866,0.0
11.961,-0.292,-0.878,0.0
11.289,-0.278,-0.894,0.0
12.414,-0.574,-0.869,0.0
11.697,-0.544,-0.885,0.0
11.032,-0.516,-0.898,0.0
10.373,-0.488,-0.905,0.0
9.839,-0.465,-0.915,0.0
9.32,-0.443,-0.921,0.0
12.323,-0.588,-0.872,0.0
11.615,-0.557,-0.889,0.0
10.935,-0.527,-0.899,0.0
10.332,-0.5,-0.91,0.0
9.779,-0.476,-0.917,0.0
9.269,-0.454,-0.923,0.0
12.197,-0.599,-0.873,0.0
11.58,-0.572,-0.895,0.0
10.841,-0.538,-0.9,0.0
10.268,-0.512,-0.912,0.0
9.726,-0.488,-0.92,0.0
9.212,-0.464,-0.924,0.0
12.117,-0.612,-0.876,0.0
11.382,-0.578,-0.888,0.0
10.686,-0.546,-0.894,0.0
10.152,-0.521,-0.909,0.0
9.626,-0.497,-0.917,0.0
9.152,-0.474,-0.925,0.0
12.057,-0.627,-0.88,0.0
11.286,-0.59,-0.888,0.0
10.652,-0.559,-0.899,0.0
10.098,-0.533,-0.911,0.0
9.577,-0.508,-0.919,0.0
9.099,-0.485,-0.925,0.0
11.98,-0.64,-0.882,0.0
11.256,-0.604,-0.892,0.0
10.64,-0.574,-0.904,0.0
10.026,-0.543,-0.911,0.0
9.527,-0.519,-0.92,0.0
9.075,-0.497,-0.928,0.0
11.914,-0.654,-0.884,0.0
11.192,-0.617,-0.894,0.0
10.58,-0.586,-0.905,0.0
9.94,-0.553,-0.908,0.0
9.467,-0.529,-0.919,0.0
9.027,-0.507,-0.928,0.0
11.813,-0.665,-0.883,0.0
11.15,-0.631,-0.897,0.0
10.503,-0.597,-0.905,0.0
9.94,-0.568,-0.914,0.0
9.423,-0.54,-0.92,0.0
8.994,-0.518,-0.93,0.0
11.761,-0.679,-0.885,0.0
11.157,-0.647,-0.903,0.0
10.416,-0.607,-0.902,0.0
9.89,-0.579,-0.914,0.0
9.398,-0.553,-0.922,0.0
8.946,-0.528,-0.929,0.0
11.707,-0.693,-0.886,0.0
11.119,-0.661,-0.905,0.0
10.38,-0.62,-0.904,0.0
9.842,-0.59,-0.914,0.0
9.347,-0.563,-0.921,0.0
8.924,-0.54,-0.93,0.0
11.697,-0.709,-0.891,0.0
10.996,-0.669,-0.899,0.0
10.385,-0.635,-0.908,0.0
9.834,-0.604,-0.917,0.0
9.316,-0.575,-0.922,0.0
8.878,-0.55,-0.929,0.0
11.626,-0.721,-0.889,0.0
10.993,-0.685,-0.903,0.0
10.393,-0.65,-0.913,0.0
9.781,-0.615,-0.916,0.0
9.284,-0.586,-0.922,0.0
8.843,-0.561,-0.929,0.0
11.607,-0.736,-0.892,0.0
10.937,-0.697,-0.902,0.0
10.305,-0.659,-0.908,0.0
9.76,-0.627,-0.917,0.0
9.271,-0.598,-0.924,0.0
8.807,-0.571,-0.927,0.0
11.563,-0.75,-0.892,0.0
10.884,-0.709,-0.901,0.0
10.294,-0.673,-0.91,0.0
9.726,-0.639,-0.916,0.0
9.257,-0.61,-0.925,0.0
8.807,-0.583,-0.93,0.0
11.446,-0.758,-0.886,0.0
10.773,-0.717,-0.894,0.0
10.317,-0.689,-0.915,0.0
9.705,-0.651,-0.916,0.0
9.248,-0.623,-0.926,0.0
8.794,-0.595,-0.93,0.0
11.461,-0.775,-0.889,0.0
10.847,-0.737,-0.902,0.0
10.182,-0.694,-0.905,0.0
9.684,-0.663,-0.916,0.0
9.24,-0.635,-0.926,0.0
8.786,-0.606,-0.931,0.0
11.445,-0.79,-0.89,0.0
10.839,-0.751,-0.903,0.0
10.206,-0.71,-0.908,0.0
9.688,-0.677,-0.918,0.0
9.22,-0.647,-0.926,0.0
8.784,-0.618,-0.932,0.0
11.443,-0.806,-0.891,0.0
10.827,-0.765,-0.904,0.0
10.196,-0.723,-0.908,0.0
9.711,-0.692,-0.921,0.0
9.215,-0.659,-0.926,0.0
8.785,-0.631,-0.932,0.0
11.444,-0.821,-0.892,0.0
10.774,-0.776,-0.9,0.0
10.17,-0.735,-0.907,0.0
9.72,-0.705,-0.922,0.0
9.257,-0.674,-0.93,0.0
8.765,-0.641,-0.93,0.0
11.482,-0.84,-0.895,0.0
10.763,-0.79,-0.899,0.0
10.235,-0.754,-0.913,0.0
9.725,-0.719,-0.923,0.0
9.237,-0.685,-0.928,0.0
8.789,-0.654,-0.933,0.0
11.476,-0.854,-0.894,0.0
10.799,-0.807,-0.902,0.0
10.291,-0.771,-0.917,0.0
9.659,-0.727,-0.916,0.0
9.255,-0.699,-0.93,0.0
8.802,-0.667,-0.934,0.0
11.464,-0.868,-0.893,0.0
10.797,-0.821,-0.901,0.0
10.177,-0.776,-0.906,0.0
9.666,-0.74,-0.916,0.0
9.246,-0.71,-0.928,0.0
8.78,-0.677,-0.931,0.0
11.518,-0.887,-0.896,0.0
10.83,-0.837,-0.903,0.0
10.204,-0.791,-0.908,0.0
9.661,-0.752,-0.914,0.0
9.258,-0.723,-0.928,0.0
8.803,-0.69,-0.932,0.0
11.539,-0.904,-0.896,0.0
10.856,-0.853,-0.903,0.0
10.233,-0.807,-0.909,0.0
9.697,-0.767,-0.916,0.0
9.267,-0.736,-0.927,0.0
8.822,-0.703,-0.932,0.0
11.476,-0.913,-0.889,0.0
10.86,-0.867,-0.901,0.0
10.328,-0.827,-0.915,0.0
9.677,-0.778,-0.912,0.0
9.285,-0.749,-0.927,0.0
8.845,-0.716,-0.933,0.0
11.544,-0.933,-0.891,0.0
10.874,-0.882,-0.9,0.0
10.317,-0.839,-0.911,0.0
9.726,-0.794,-0.914,0.0
9.291,-0.761,-0.925,0.0
8.87,-0.728,-0.933,0.0
11.595,-0.951,-0.892,0.0
10.933,-0.9,-0.902,0.0
10.319,-0.852,-0.909,0.0
9.825,-0.814,-0.921,0.0
9.35,-0.777,-0.928,0.0
8.883,-0.74,-0.932,0.0
11.607,-0.966,-0.89,0.0
10.96,-0.915,-0.901,0.0
10.449,-0.875,-0.917,0.0
9.868,-0.829,-0.922,0.0
9.344,-0.787,-0.925,0.0
8.926,-0.754,-0.933,0.0
11.65,-0.984,-0.889,0.0
11.004,-0.932,-0.9,0.0
10.418,-0.885,-0.91,0.0
9.874,-0.841,-0.919,0.0
9.399,-0.803,-0.927,0.0
8.944,-0.766,-0.932,0.0
11.699,-1.001,-0.888,0.0
11.086,-0.951,-0.903,0.0
10.499,-0.903,-0.913,0.0
9.932,-0.857,-0.92,0.0
9.426,-0.816,-0.925,0.0
9.003,-0.782,-0.934,0.0
11.807,-1.024,-0.891,0.0
11.104,-0.965,-0.899,0.0
10.531,-0.918,-0.911,0.0
9.94,-0.869,-0.916,0.0
9.44,-0.828,-0.922,0.0
9.015,-0.792,-0.931,0.0
11.845,-1.04,-0.889,0.0
11.183,-0.984,-0.901,0.0
10.642,-0.939,-0.916,0.0
10.026,-0.887,-0.919,0.0
9.512,-0.844,-0.925,0.0
9.087,-0.809,-0.934,0.0
11.927,-1.06,-0.889,0.0
11.238,-1.001,-0.899,0.0
10.668,-0.953,-0.912,0.0
10.1,-0.905,-0.921,0.0
9.543,-0.857,-0.923,0.0
9.128,-0.822,-0.933,0.0
12.018,-1.081,-0.889,0.0
11.354,-1.024,-0.902,0.0
10.718,-0.969,-0.911,0.0
10.128,-0.918,-0.918,0.0
9.652,-0.877,-0.928,0.0
9.183,-0.836,-0.934,0.0
12.102,-1.101,-0.888,0.0
11.398,-1.039,-0.899,0.0
10.795,-0.986,-0.911,0.0
10.158,-0.93,-0.914,0.0
9.693,-0.89,-0.926,0.0
9.255,-0.852,-0.935,0.0
12.245,-1.126,-0.891,0.0
11.515,-1.061,-0.901,0.0
10.846,-1.002,-0.909,0.0
10.237,-0.948,-0.915,0.0
9.752,-0.905,-0.925,0.0
9.28,-0.863,-0.932,0.0
12.292,-1.142,-0.887,0.0
11.551,-1.075,-0.897,0.0
10.899,-1.017,-0.906,0.0
10.262,-0.96,-0.91,0.0
9.812,-0.92,-0.924,0.0
9.317,-0.875,-0.929,0.0
12.298,-1.154,-0.879,0.0
11.576,-1.088,-0.891,0.0
10.985,-1.035,-0.905,0.0
10.446,-0.986,-0.919,0.0
9.886,-0.935,-0.924,0.0
9.375,-0.889,-0.928,0.0
12.423,-1.176,-0.879,0.0
11.713,-1.111,-0.893,0.0
11.028,-1.049,-0.901,0.0
10.519,-1.002,-0.918,0.0
9.925,-0.948,-0.921,0.0
9.468,-0.906,-0.93,0.0
12.637,-1.208,-0.885,0.0
11.814,-1.131,-0.892,0.0
11.133,-1.068,-0.901,0.0
10.583,-1.017,-0.916,0.0
10.023,-0.966,-0.922,0.0
9.571,-0.924,-0.933,0.0
12.662,-1.22,-0.877,0.0
11.929,-1.152,-0.891,0.0
11.209,-1.085,-0.898,0.0
10.651,-1.033,-0.913,0.0
10.106,-0.982,-0.921,0.0
9.6,-0.935,-0.928,0.0
12.856,-1.249,-0.88,0.0
12.075,-1.176,-0.892,0.0
11.304,-1.103,-0.897,0.0
10.761,-1.052,-0.914,0.0
10.212,-1.0,-0.923,0.0
9.685,-0.95,-0.928,0.0
13.077,-1.281,-0.884,0.0
12.201,-1.197,-0.891,0.0
11.423,-1.123,-0.897,0.0
10.846,-1.068,-0.911,0.0
10.234,-1.01,-0.916,0.0
9.746,-0.963,-0.925,0.0
13.189,-1.301,-0.88,0.0
12.201,-1.206,-0.881,0.0
11.594,-1.148,-0.9,0.0
10.898,-1.081,-0.906,0.0
10.308,-1.024,-0.913,0.0
9.869,-0.982,-0.928,0.0
13.313,-1.323,-0.876,0.0
12.46,-1.24,-0.888,0.0
11.735,-1.17,-0.9,0.0
11.013,-1.1,-0.905,0.0
10.499,-1.05,-0.92,0.0
9.958,-0.998,-0.927,0.0
13.417,-1.342,-0.871,0.0
12.611,-1.263,-0.887,0.0
11.883,-1.192,-0.9,0.0
11.134,-1.119,-0.905,0.0
10.58,-1.065,-0.917,0.0
10.032,-1.011,-0.924,0.0
13.632,-1.372,-0.872,0.0
12.765,-1.286,-0.885,0.0
11.922,-1.203,-0.891,0.0
11.245,-1.137,-0.903,0.0
10.703,-1.084,-0.917,0.0
10.107,-1.025,-0.921,0.0
13.847,-1.402,-0.872,0.0
12.912,-1.309,-0.883,0.0
11.974,-1.215,-0.883,0.0
11.365,-1.155,-0.901,0.0
10.781,-1.097,-0.913,0.0
10.174,-1.037,-0.917,0.0
14.035,-1.428,-0.87,0.0
13.078,-1.332,-0.881,0.0
12.016,-1.226,-0.874,0.0
11.504,-1.175,-0.9,0.0
10.853,-1.11,-0.908,0.0
10.319,-1.057,-0.919,0.0
14.267,-1.459,-0.869,0.0
13.24,-1.356,-0.878,0.0
12.129,-1.243,-0.87,0.0
11.605,-1.191,-0.896,0.0
11.002,-1.131,-0.909,0.0
10.477,-1.078,-0.922,0.0
14.434,-1.483,-0.864,0.0
13.362,-1.374,-0.872,0.0
12.578,-1.295,-0.888,0.0
11.836,-1.22,-0.901,0.0
11.135,-1.149,-0.908,0.0
10.578,-1.093,-0.92,0.0
14.649,-1.511,-0.861,0.0
13.627,-1.407,-0.874,0.0
12.842,-1.327,-0.893,0.0
11.949,-1.236,-0.897,0.0
11.27,-1.167,-0.906,0.0
10.68,-1.107,-0.917,0.0
14.972,-1.55,-0.864,0.0
13.899,-1.44,-0.877,0.0
12.926,-1.34,-0.885,0.0
12.065,-1.252,-0.892,0.0
11.286,-1.173,-0.895,0.0
10.799,-1.123,-0.915,0.0
15.23,-1.582,-0.862,0.0
14.071,-1.462,-0.871,0.0
12.957,-1.348,-0.872,0.0
12.265,-1.277,-0.893,0.0
11.496,-1.198,-0.899,0.0
10.908,-1.138,-0.911,0.0
15.351,-1.599,-0.851,0.0
14.334,-1.494,-0.871,0.0
13.22,-1.379,-0.874,0.0
12.53,-1.308,-0.897,0.0
11.648,-1.217,-0.897,0.0
11.037,-1.154,-0.909,0.0
15.648,-1.634,-0.849,0.0
14.531,-1.518,-0.866,0.0
13.468,-1.408,-0.875,0.0
12.644,-1.323,-0.891,0.0
11.855,-1.241,-0.899,0.0
11.166,-1.17,-0.907,0.0
16.015,-1.676,-0.85,0.0
14.766,-1.546,-0.863,0.0
13.776,-1.443,-0.879,0.0
12.855,-1.347,-0.89,0.0
12.072,-1.266,-0.901,0.0
11.222,-1.178,-0.897,0.0
16.217,-1.699,-0.842,0.0
15.183,-1.592,-0.869,0.0
13.945,-1.463,-0.873,0.0
12.934,-1.357,-0.88,0.0
12.147,-1.276,-0.892,0.0
11.386,-1.196,-0.897,0.0
16.554,-1.737,-0.839,0.0
15.304,-1.606,-0.857,0.0
14.204,-1.491,-0.872,0.0
13.226,-1.389,-0.884,0.0
12.443,-1.308,-0.898,0.0
11.549,-1.214,-0.895,0.0
16.824,-1.766,-0.832,0.0
15.524,-1.63,-0.851,0.0
14.439,-1.517,-0.868,0.0
13.364,-1.405,-0.877,0.0
12.586,-1.323,-0.893,0.0
11.806,-1.242,-0.901,0.0
17.121,-1.798,-0.826,0.0
15.858,-1.666,-0.849,0.0
14.686,-1.543,-0.865,0.0
13.666,-1.436,-0.879,0.0
12.767,-1.342,-0.89,0.0
11.99,-1.261,-0.899,0.0
17.645,-1.853,-0.829,0.0
16.209,-1.703,-0.848,0.0
15.084,-1.585,-0.869,0.0
13.95,-1.466,-0.88,0.0
12.961,-1.362,-0.886,0.0
12.149,-1.277,-0.896,0.0
17.947,-1.884,-0.82,0.0
16.508,-1.733,-0.842,0.0
15.28,-1.604,-0.861,0.0
14.179,-1.489,-0.876,0.0
13.123,-1.378,-0.88,0.0
12.379,-1.3,-0.897,0.0
18.056,-1.894,-0.802,0.0
16.734,-1.755,-0.832,0.0
15.376,-1.613,-0.846,0.0
14.419,-1.512,-0.872,0.0
13.372,-1.403,-0.88,0.0
12.568,-1.318,-0.894,0.0
18.847,-1.974,-0.813,0.0
17.049,-1.785,-0.826,0.0
15.934,-1.669,-0.857,0.0
14.547,-1.523,-0.861,0.0
13.656,-1.43,-0.881,0.0
12.825,-1.343,-0.896,0.0
19.14,-2.001,-0.801,0.0
17.406,-1.82,-0.82,0.0
16.203,-1.693,-0.85,0.0
14.981,-1.565,-0.867,0.0
13.918,-1.454,-0.879,0.0
12.92,-1.35,-0.885,0.0
19.739,-2.059,-0.8,0.0
17.885,-1.865,-0.82,0.0
16.528,-1.723,-0.845,0.0
15.29,-1.594,-0.865,0.0
14.164,-1.476,-0.876,0.0
13.09,-1.364,-0.88,0.0
20.118,-2.094,-0.789,0.0
18.255,-1.899,-0.813,0.0
16.879,-1.755,-0.841,0.0
15.405,-1.601,-0.851,0.0
14.397,-1.496,-0.872,0.0
13.341,-1.386,-0.879,0.0
20.356,-2.112,-0.772,0.0
18.505,-1.919,-0.8,0.0
17.043,-1.766,-0.827,0.0
15.937,-1.651,-0.859,0.0
14.65,-1.517,-0.868,0.0
13.631,-1.411,-0.88,0.0
21.145,-2.186,-0.774,0.0
0.0,0.0,0.0,0.0
17.494,-1.806,-0.825,0.0
16.254,-1.677,-0.855,0.0
14.995,-1.547,-0.868,0.0
13.918,-1.435,-0.88,0.0
21.378,-2.201,-0.754,0.0
19.648,-2.022,-0.797,0.0
17.939,-1.845,-0.823,0.0
16.54,-1.7,-0.848,0.0
15.217,-1.563,-0.861,0.0
14.221,-1.46,-0.88,0.0
22.151,-2.271,-0.752,0.0
20.178,-2.067,-0.791,0.0
18.277,-1.871,-0.814,0.0
16.679,-1.706,-0.833,0.0
15.492,-1.583,-0.856,0.0
14.426,-1.473,-0.873,0.0
22.522,-2.298,-0.734,0.0
20.45,-2.084,-0.775,0.0
18.877,-1.922,-0.816,0.0
17.038,-1.734,-0.828,0.0
15.967,-1.623,-0.861,0.0
14.698,-1.493,-0.87,0.0
23.748,-2.41,-0.743,0.0
20.951,-2.124,-0.766,0.0
19.245,-1.949,-0.806,0.0
17.527,-1.773,-0.828,0.0
16.221,-1.64,-0.853,0.0
15.014,-1.516,-0.869,0.0
23.968,-2.418,-0.718,0.0
21.846,-2.201,-0.77,0.0
19.661,-1.979,-0.797,0.0
17.886,-1.799,-0.821,0.0
16.472,-1.655,-0.844,0.0
15.226,-1.528,-0.861,0.0
25.161,-2.522,-0.72,0.0
22.153,-2.218,-0.751,0.0
20.233,-2.023,-0.793,0.0
18.04,-1.802,-0.804,0.0
16.826,-1.679,-0.84,0.0
15.64,-1.559,-0.863,0.0
25.644,-2.553,-0.7,0.0
22.807,-2.268,-0.743,0.0
20.615,-2.047,-0.781,0.0
18.753,-1.86,-0.812,0.0
17.143,-1.698,-0.833,0.0
15.991,-1.582,-0.862,0.0
26.588,-2.628,-0.691,0.0
23.543,-2.324,-0.736,0.0
20.927,-2.063,-0.765,0.0
19.156,-1.886,-0.804,0.0
17.544,-1.725,-0.829,0.0
16.227,-1.593,-0.853,0.0
27.484,-2.696,-0.678,0.0
24.301,-2.38,-0.728,0.0
21.912,-2.143,-0.772,0.0
0.0,0.0,0.0,0.0
17.772,-1.733,-0.817,0.0
16.559,-1.613,-0.849,0.0
28.08,-2.732,-0.656,0.0
24.729,-2.402,-0.708,0.0
22.259,-2.158,-0.756,0.0
19.789,-1.916,-0.779,0.0
18.58,-1.796,-0.83,0.0
16.748,-1.617,-0.836,0.0
29.026,-2.799,-0.64,0.0
25.662,-2.47,-0.702,0.0
22.891,-2.2,-0.747,0.0
20.444,-1.961,-0.778,0.0
19.108,-1.83,-0.828,0.0
17.319,-1.656,-0.843,0.0
29.795,-2.846,-0.619,0.0
26.53,-2.53,-0.691,0.0
23.559,-2.242,-0.739,0.0
20.945,-1.99,-0.77,0.0
19.21,-1.822,-0.808,0.0
17.495,-1.657,-0.829,0.0
30.925,-2.925,-0.602,0.0
26.916,-2.541,-0.667,0.0
24.149,-2.276,-0.726,0.0
21.58,-2.03,-0.766,0.0
19.528,-1.833,-0.796,0.0
17.736,-1.662,-0.817,0.0
0.0,0.0,0.0,0.0
27.928,-2.609,-0.657,0.0
0.0,0.0,0.0,0.0
21.773,-2.026,-0.745,0.0
20.108,-1.867,-0.795,0.0
18.354,-1.701,-0.823,0.0
0.0,0.0,0.0,0.0
0.0,0.0,0.0,0.0
0.0,0.0,0.0,0.0
22.663,-2.085,-0.747,0.0
20.364,-1.869,-0.779,0.0
18.716,-1.714,-0.815,0.0
0.0,0.0,0.0,0.0
0.0,0.0,0.0,0.0
26.425,-2.407,-0.695,0.0
23.663,-2.151,-0.75,0.0
20.905,-1.896,-0.774,0.0
19.285,-1.745,-0.816,0.0
0.0,0.0,0.0,0.0
0.0,0.0,0.0,0.0
26.781,-2.41,-0.671,0.0
24.077,-2.161,-0.734,0.0
21.598,-1.934,-0.773,0.0
19.587,-1.75,-0.805,0.0
37.218,-3.322,-0.493,0.0
0.0,0.0,0.0,0.0
0.0,0.0,0.0,0.0
24.568,-2.177,-0.718,0.0
22.151,-1.958,-0.766,0.0
20.075,-1.77,-0.8,0.0
38.763,-3.414,-0.467,0.0
32.806,-2.882,-0.569,0.0
29.021,-2.543,-0.657,0.0
25.539,-2.231,-0.716,1.0
22.483,-1.96,-0.75,0.0
20.315,-1.766,-0.786,0.0
0.0,0.0,0.0,0.0
0.0,0.0,0.0,0.0
29.664,-2.562,-0.636,0.0
25.919,-2.232,-0.696,0.0
22.993,-1.975,-0.74,0.0
20.677,-1.771,-0.775,0.0
41.762,-3.574,-0.404,0.0
35.296,-3.011,-0.528,0.0
30.241,-2.573,-0.613,0.0
26.86,-2.279,-0.69,0.0
23.489,-1.987,-0.728,0.0
21.302,-1.797,-0.774,0.0
0.0,0.0,0.0,0.0
36.906,-3.101,-0.51,0.0
0.0,0.0,0.0,0.0
0.0,0.0,0.0,0.0
24.468,-2.037,-0.731,0.0
21.792,-1.809,-0.767,0.0
0.0,0.0,0.0,0.0
38.622,-3.193,-0.49,0.0
32.866,-2.708,-0.592,0.0
27.979,-2.298,-0.655,0.0
25.27,-2.07,-0.726,0.0
22.145,-1.808,-0.754,0.0
50.136,-4.089,-0.314,0.0
0.0,0.0,0.0,0.0
32.995,-2.673,-0.557,0.0
28.922,-2.335,-0.646,0.0
25.87,-2.082,-0.715,0.0
22.788,-1.828,-0.752,0.0
0.0,0.0,0.0,0.0
41.578,-3.321,-0.437,0.0
0.0,0.0,0.0,0.0
30.043,-2.383,-0.638,0.0
26.18,-2.069,-0.696,0.0
23.24,-1.831,-0.741,0.0
0.0,0.0,0.0,0.0
42.134,-3.303,-0.397,0.0
0.0,0.0,0.0,0.0
0.0,0.0,0.0,0.0
26.489,-2.054,-0.675,0.0
0.0,0.0,0.0,0.0
0.0,0.0,0.0,0.0
0.0,0.0,0.0,0.0
0.0,0.0,0.0,0.0
0.0,0.0,0.0,0.0
28.089,-2.136,-0.687,0.0
24.405,-1.849,-0.727,0.0
0.0,0.0,0.0,0.0
0.0,0.0,0.0,0.0
38.648,-2.902,-0.49,0.0
32.71,-2.446,-0.592,0.0
27.954,-2.082,-0.655,0.0
24.963,-1.853,-0.719,0.0
0.0,0.0,0.0,0.0
0.0,0.0,0.0,0.0
39.763,-2.923,-0.465,0.0
0.0,0.0,0.0,0.0
29.245,-2.132,-0.657,0.0
25.332,-1.84,-0.704,0.0
64.585,-4.683,-0.002,0.0
0.0,0.0,0.0,0.0
40.576,-2.918,-0.434,0.0
33.361,-2.389,-0.539,0.0
29.708,-2.118,-0.638,0.0
25.617,-1.819,-0.688,0.0
0.0,0.0,0.0,0.0
0.0,0.0,0.0,0.0
0.0,0.0,0.0,0.0
35.452,-2.481,-0.539,0.0
0.0,0.0,0.0,0.0
26.608,-1.846,-0.69,0.0
0.0,0.0,0.0,0.0
0.0,0.0,0.0,0.0
0.0,0.0,0.0,0.0
0.0,0.0,0.0,0.0
0.0,0.0,0.0,0.0
0.0,0.0,0.0,0.0
99.287,-6.71,0.272,4.0
0.0,0.0,0.0,0.0
0.0,0.0,0.0,0.0
37.074,-2.469,-0.497,0.0
31.792,-2.107,-0.596,0.0
27.403,-1.807,-0.661,0.0
99.682,-6.563,0.361,17.0
0.0,0.0,0.0,0.0
0.0,0.0,0.0,0.0
0.0,0.0,0.0,0.0
32.757,-2.114,-0.586,0.0
28.19,-1.81,-0.656,0.0
108.634,-6.964,0.485,2.0
0.0,0.0,0.0,0.0
0.0,0.0,0.0,0.0
40.256,-2.54,-0.471,0.0
33.073,-2.076,-0.565,0.0
0.0,0.0,0.0,0.0
108.756,-6.78,0.574,4.0
0.0,0.0,0.0,0.0
0.0,0.0,0.0,0.0
40.563,-2.488,-0.443,0.0
0.0,0.0,0.0,0.0
29.242,-1.774,-0.633,1.0
109.625,-6.635,0.665,2.0
0.0,0.0,0.0,0.0
0.0,0.0,0.0,0.0
42.268,-2.515,-0.429,0.0
0.0,0.0,0.0,0.0
30.225,-1.778,-0.631,0.0
0.0,0.0,0.0,0.0
0.0,0.0,0.0,0.0
0.0,0.0,0.0,0.0
0.0,0.0,0.0,0.0
36.146,-2.072,-0.534,0.0
30.331,-1.728,-0.611,0.0
101.462,-5.766,0.767,6.0
0.0,0.0,0.0,0.0
0.0,0.0,0.0,0.0
0.0,0.0,0.0,0.0
36.426,-2.02,-0.513,0.0
30.638,-1.689,-0.596,0.0
101.486,-5.579,0.837,151.0
0.0,0.0,0.0,0.0
0.0,0.0,0.0,0.0
0.0,0.0,0.0,0.0
37.328,-1.999,-0.5,0.0
32.105,-1.708,-0.603,0.0
0.0,0.0,0.0,0.0
0.0,0.0,0.0,0.0
0.0,0.0,0.0,0.0
0.0,0.0,0.0,0.0
0.0,0.0,0.0,0.0
32.257,-1.655,-0.586,0.0
101.514,-5.191,0.968,51.0
103.267,-5.245,0.427,1.0
0.0,0.0,0.0,0.0
0.0,0.0,0.0,0.0
0.0,0.0,0.0,0.0
34.232,-1.69,-0.601,0.0
101.531,-4.996,1.029,159.0
0.0,0.0,0.0,0.0
101.515,-4.923,-0.068,1.0
0.0,0.0,0.0,0.0
40.148,-1.918,-0.465,0.0
32.726,-1.552,-0.556,0.0
101.546,-4.797,1.086,159.0
102.657,-4.813,0.542,1.0
0.0,0.0,0.0,0.0
51.001,-2.354,-0.287,0.0
0.0,0.0,0.0,0.0
34.503,-1.568,-0.568,0.0
101.513,-4.596,1.139,11.0
0.0,0.0,0.0,0.0
0.0,0.0,0.0,0.0
0.0,0.0,0.0,0.0
0.0,0.0,0.0,0.0
0.0,0.0,0.0,0.0
101.531,-4.394,1.19,4.0
101.595,-4.359,0.639,2.0
0.0,0.0,0.0,0.0
0.0,0.0,0.0,0.0
42.812,-1.79,-0.431,0.0
0.0,0.0,0.0,0.0
101.715,-4.195,1.238,2.0
101.493,-4.15,0.685,61.0
0.0,0.0,0.0,0.0
52.788,-2.12,-0.222,0.0
0.0,0.0,0.0,0.0
34.925,-1.377,-0.526,0.0
0.0,0.0,0.0,0.0
0.0,0.0,0.0,0.0
0.0,0.0,0.0,0.0
0.0,0.0,0.0,0.0
45.179,-1.706,-0.417,0.0
0.0,0.0,0.0,0.0
162.057,-6.026,2.104,25.0
160.818,-5.921,1.213,12.0
0.0,0.0,0.0,0.0
0.0,0.0,0.0,0.0
0.0,0.0,0.0,0.0
0.0,0.0,0.0,0.0
162.192,-5.698,2.163,16.0
160.718,-5.587,1.267,10.0
0.0,0.0,0.0,0.0
0.0,0.0,0.0,0.0
0.0,0.0,0.0,0.0
37.36,-1.243,-0.523,0.0
162.03,-5.357,2.212,30.0
160.771,-5.254,1.318,4.0
0.0,0.0,0.0,0.0
0.0,0.0,0.0,0.0
0.0,0.0,0.0,0.0
37.014,-1.155,-0.508,0.0
161.915,-5.015,2.255,28.0
160.62,-4.917,1.36,4.0
0.0,0.0,0.0,0.0
0.0,0.0,0.0,0.0
0.0,0.0,0.0,0.0
36.946,-1.076,-0.497,0.0
161.887,-4.679,2.294,21.0
0.0,0.0,0.0,0.0
0.0,0.0,0.0,0.0
0.0,0.0,0.0,0.0
0.0,0.0,0.0,0.0
0.0,0.0,0.0,0.0
161.934,-4.337,2.328,11.0
0.0,0.0,0.0,0.0
0.0,0.0,0.0,0.0
0.0,0.0,0.0,0.0
0.0,0.0,0.0,0.0
0.0,0.0,0.0,0.0
0.0,0.0,0.0,0.0
143.013,-3.475,1.297,151.0
0.0,0.0,0.0,0.0
0.0,0.0,0.0,0.0
0.0,0.0,0.0,0.0
0.0,0.0,0.0,0.0
0.0,0.0,0.0,0.0
142.975,-3.166,1.315,84.0
0.0,0.0,0.0,0.0
0.0,0.0,0.0,0.0
0.0,0.0,0.0,0.0
0.0,0.0,0.0,0.0
0.0,0.0,0.0,0.0
143.027,-2.863,1.328,154.0
0.0,0.0,0.0,0.0
0.0,0.0,0.0,0.0
0.0,0.0,0.0,0.0
37.665,-0.698,-0.481,0.0
170.294,-3.109,2.526,4.0
143.077,-2.56,1.335,21.0
0.0,0.0,0.0,0.0
0.0,0.0,0.0,0.0
0.0,0.0,0.0,0.0
0.0,0.0,0.0,0.0
163.535,-2.639,2.429,21.0
19.761,-0.311,0.184,8.0
19.742,-0.303,0.075,11.0
0.0,0.0,0.0,0.0
0.0,0.0,0.0,0.0
0.0,0.0,0.0,0.0
19.755,-0.276,0.293,7.0
19.744,-0.268,0.184,28.0
19.743,-0.261,0.075,3.0
0.0,0.0,0.0,0.0
0.0,0.0,0.0,0.0
38.158,-0.463,-0.489,0.0
19.748,-0.233,0.291,9.0
19.769,-0.226,0.183,2.0
0.0,0.0,0.0,0.0
0.0,0.0,0.0,0.0
0.0,0.0,0.0,0.0
19.779,-0.197,-0.255,8.0
170.406,-1.65,2.502,12.0
168.864,-1.572,1.547,8.0
0.0,0.0,0.0,0.0
19.79,-0.17,-0.039,0.0
19.735,-0.162,-0.148,14.0
19.733,-0.155,-0.257,17.0
169.368,-1.278,2.465,6.0
19.756,-0.141,0.178,2.0
19.755,-0.134,0.069,6.0
19.737,-0.127,-0.042,10.0
19.721,-0.12,-0.151,16.0
19.74,-0.113,-0.26,17.0
19.681,-0.106,0.283,9.0
19.718,-0.099,0.174,14.0
19.707,-0.092,0.065,14.0
19.708,-0.085,-0.045,16.0
19.72,-0.078,-0.154,17.0
19.75,-0.071,-0.264,15.0
19.653,-0.064,0.278,10.0
19.689,-0.057,0.17,13.0
19.7,-0.05,0.061,15.0
19.709,-0.043,-0.05,15.0
19.741,-0.035,-0.159,12.0
34.339,-0.05,-0.467,0.0
19.628,-0.022,0.273,13.0
19.714,-0.015,0.165,6.0
19.756,-0.008,0.056,5.0
19.746,-0.001,-0.055,7.0
19.798,0.005,-0.165,1.0
19.772,0.012,-0.274,2.0
19.626,0.019,0.268,14.0
19.749,0.026,0.16,17.0
19.751,0.033,0.05,17.0
19.742,0.04,-0.061,41.0
19.765,0.047,-0.171,27.0
19.775,0.054,-0.28,59.0
19.623,0.061,0.261,14.0
19.68,0.068,0.153,12.0
19.715,0.076,0.043,16.0
19.744,0.083,-0.067,3.0
19.729,0.089,-0.177,0.0
34.358,0.168,-0.5,0.0
19.631,0.103,0.254,12.0
19.656,0.11,0.145,15.0
19.641,0.117,0.036,13.0
19.653,0.124,-0.074,9.0
19.667,0.13,-0.184,6.0
19.6,0.137,-0.292,0.0
19.648,0.145,0.247,11.0
19.66,0.151,0.138,12.0
19.64,0.158,0.028,15.0
19.627,0.165,-0.082,14.0
19.637,0.172,-0.192,15.0
19.654,0.179,-0.301,16.0
19.707,0.186,0.239,9.0
19.692,0.193,0.129,10.0
19.656,0.2,0.019,12.0
19.629,0.206,-0.091,16.0
19.639,0.213,-0.201,17.0
19.661,0.22,-0.311,18.0
19.768,0.229,0.231,24.0
19.77,0.235,0.12,19.0
19.726,0.242,0.01,1.0
19.66,0.247,-0.101,14.0
19.648,0.254,-0.21,15.0
19.671,0.261,-0.32,13.0
19.755,0.27,0.221,14.0
19.804,0.277,0.111,0.0
55.107,0.79,0.001,1.0
19.675,0.289,-0.111,0.0
19.698,0.295,-0.221,1.0
19.666,0.302,-0.331,0.0
55.162,0.869,0.587,2.0
55.204,0.888,0.279,25.0
55.152,0.905,-0.029,25.0
41.926,0.702,-0.26,1.0
0.0,0.0,0.0,0.0
32.039,0.557,-0.557,0.0
55.174,0.982,0.556,68.0
55.172,1.0,0.247,46.0
55.125,1.018,-0.061,13.0
41.028,0.771,-0.279,1.0
35.035,0.67,-0.434,0.0
28.476,0.554,-0.512,0.0
162.651,3.229,1.54,15.0
83.818,1.692,0.324,1.0
52.24,1.071,-0.09,1.0
39.831,0.83,-0.296,2.0
32.386,0.685,-0.422,1.0
28.026,0.602,-0.522,0.0
70.923,1.553,0.626,6.0
77.758,1.727,0.25,1.0
45.554,1.026,-0.108,1.0
38.683,0.884,-0.312,2.0
31.687,0.734,-0.434,1.0
26.744,0.628,-0.516,0.0
70.704,1.69,0.576,23.0
45.514,1.102,0.115,150.0
0.0,0.0,0.0,0.0
35.28,0.877,-0.309,1.0
30.528,0.768,-0.439,1.0
26.267,0.669,-0.525,1.0
0.0,0.0,0.0,0.0
0.0,0.0,0.0,0.0
40.144,1.064,-0.152,154.0
36.767,0.986,-0.349,2.0
30.057,0.816,-0.454,1.0
25.864,0.71,-0.536,4.0
41.923,1.168,0.28,158.0
40.074,1.13,0.043,62.0
40.025,1.141,-0.182,67.0
0.0,0.0,0.0,0.0
27.449,0.799,-0.436,10.0
25.215,0.742,-0.542,1.0
40.132,1.198,0.237,123.0
40.123,1.21,0.011,150.0
40.012,1.219,-0.213,39.0
40.192,1.237,-0.444,1.0
28.647,0.89,-0.478,2.0
24.706,0.775,-0.551,2.0
40.127,1.275,0.205,147.0
40.139,1.288,-0.02,150.0
40.02,1.296,-0.246,37.0
40.123,1.312,-0.476,2.0
28.02,0.924,-0.49,2.0
23.837,0.793,-0.552,1.0
63.947,2.155,0.273,18.0
40.132,1.364,-0.054,150.0
39.991,1.371,-0.28,12.0
40.132,1.388,-0.511,1.0
27.387,0.956,-0.503,3.0
23.416,0.824,-0.562,1.0
44.989,1.601,0.152,7.0
40.126,1.44,-0.089,9.0
39.41,1.426,-0.31,2.0
30.829,1.124,-0.42,1.0
26.685,0.981,-0.514,5.0
22.945,0.85,-0.571,1.0
40.889,1.532,0.101,9.0
40.409,1.526,-0.127,15.0
37.044,1.409,-0.325,1.0
29.972,1.149,-0.435,1.0
25.98,1.003,-0.524,5.0
22.052,0.858,-0.569,1.0
40.348,1.586,0.063,150.0
40.347,1.597,-0.164,103.0
35.738,1.425,-0.348,1.0
29.177,1.172,-0.452,3.0
23.655,0.957,-0.5,26.0
21.521,0.877,-0.576,2.0
45.18,1.859,0.027,54.0
40.318,1.67,-0.203,13.0
23.637,0.985,-0.253,15.0
23.659,0.993,-0.389,30.0
23.655,1.0,-0.523,32.0
21.08,0.896,-0.585,3.0
23.63,1.015,-0.009,47.0
23.623,1.021,-0.142,41.0
23.619,1.027,-0.276,46.0
23.613,1.033,-0.412,49.0
23.62,1.04,-0.546,98.0
20.622,0.914,-0.594,1.0
23.611,1.056,-0.033,75.0
23.607,1.062,-0.167,70.0
23.603,1.068,-0.3,70.0
23.619,1.075,-0.437,66.0
0.0,0.0,0.0,0.0
19.944,0.918,-0.595,1.0
23.614,1.097,-0.058,58.0
23.619,1.103,-0.191,45.0
23.628,1.11,-0.326,39.0
23.643,1.117,-0.462,33.0
0.0,0.0,0.0,0.0
19.59,0.936,-0.605,2.0
40.341,1.943,-0.142,7.0
23.644,1.145,-0.217,8.0
23.647,1.151,-0.351,2.0
23.694,1.159,-0.489,39.0
21.48,1.057,-0.565,1.0
19.145,0.947,-0.612,3.0
40.324,2.01,-0.186,44.0
34.239,1.715,-0.352,6.0
28.641,1.442,-0.457,1.0
23.617,1.195,-0.513,16.0
20.954,1.066,-0.575,1.0
18.722,0.957,-0.62,3.0
40.296,2.076,-0.232,26.0
32.974,1.707,-0.377,7.0
27.817,1.447,-0.476,1.0
23.778,1.243,-0.544,1.0
20.639,1.084,-0.59,6.0
18.397,0.971,-0.63,3.0
39.753,2.113,-0.275,15.0
31.482,1.681,-0.396,7.0
26.461,1.419,-0.483,2.0
22.639,1.22,-0.545,1.0
19.871,1.076,-0.591,2.0
18.117,0.985,-0.642,2.0
36.469,1.997,-0.295,4.0
30.243,1.663,-0.416,5.0
25.614,1.414,-0.498,1.0
19.739,1.095,-0.498,9.0
19.561,1.09,-0.605,3.0
17.834,0.998,-0.653,2.0
35.043,1.974,-0.325,8.0
29.081,1.645,-0.436,6.0
24.645,1.4,-0.509,0.0
19.732,1.125,-0.522,11.0
18.984,1.087,-0.611,3.0
17.391,1.0,-0.658,1.0
33.576,1.942,-0.353,11.0
28.103,1.632,-0.455,7.0
24.047,1.402,-0.526,0.0
19.716,1.154,-0.546,10.0
18.539,1.089,-0.619,3.0
17.142,1.011,-0.67,1.0
31.904,1.893,-0.375,9.0
27.069,1.612,-0.472,7.0
19.868,1.188,-0.46,2.0
19.701,1.182,-0.57,11.0
18.291,1.102,-0.634,3.0
16.959,1.025,-0.684,1.0
30.386,1.848,-0.395,9.0
26.188,1.598,-0.49,6.0
19.744,1.209,-0.482,9.0
19.593,1.204,-0.592,8.0
17.927,1.106,-0.644,2.0
16.796,1.04,-0.699,1.0
29.126,1.812,-0.416,8.0
25.331,1.582,-0.506,5.0
19.74,1.237,-0.507,11.0
19.187,1.206,-0.605,3.0
17.54,1.107,-0.653,1.0
16.653,1.054,-0.715,1.0
27.887,1.774,-0.435,7.0
24.518,1.565,-0.522,3.0
19.719,1.263,-0.533,9.0
18.638,1.197,-0.612,3.0
17.246,1.112,-0.665,1.0
16.476,1.066,-0.729,1.0
26.802,1.741,-0.453,7.0
19.964,1.301,-0.452,1.0
19.704,1.288,-0.558,9.0
18.291,1.2,-0.625,2.0
17.018,1.12,-0.679,1.0
16.265,1.074,-0.742,1.0
25.835,1.713,-0.472,6.0
19.752,1.313,-0.474,7.0
19.676,1.312,-0.584,9.0
17.989,1.203,-0.639,2.0
16.839,1.13,-0.694,1.0
16.077,1.082,-0.755,1.0
24.979,1.688,-0.49,6.0
19.725,1.336,-0.499,9.0
19.274,1.31,-0.598,3.0
17.51,1.193,-0.646,1.0
16.687,1.141,-0.711,1.0
15.937,1.093,-0.77,3.0
24.168,1.663,-0.508,5.0
19.718,1.361,-0.527,9.0
18.66,1.291,-0.605,3.0
17.258,1.198,-0.66,2.0
16.464,1.146,-0.724,1.0
15.72,1.097,-0.782,0.0
23.59,1.652,-0.528,1.0
19.708,1.384,-0.554,10.0
18.349,1.292,-0.621,3.0
16.998,1.2,-0.674,1.0
16.253,1.15,-0.738,1.0
15.309,1.086,-0.783,0.0
19.888,1.416,-0.473,3.0
19.671,1.404,-0.58,9.0
17.947,1.284,-0.632,2.0
16.817,1.206,-0.69,1.0
16.036,1.153,-0.751,2.0
14.936,1.077,-0.785,0.0
19.723,1.426,-0.497,8.0
19.273,1.397,-0.596,3.0
17.531,1.274,-0.643,2.0
16.641,1.212,-0.707,1.0
15.956,1.165,-0.77,1.0
14.455,1.058,-0.78,0.0
19.701,1.446,-0.524,9.0
18.644,1.372,-0.603,3.0
17.292,1.275,-0.659,2.0
16.441,1.215,-0.722,1.0
15.589,1.155,-0.774,0.0
14.221,1.056,-0.788,0.0
19.703,1.467,-0.553,12.0
18.342,1.368,-0.62,2.0
17.004,1.271,-0.672,1.0
16.228,1.216,-0.736,1.0
15.156,1.138,-0.775,0.0
14.065,1.059,-0.8,0.0
19.638,1.482,-0.579,8.0
17.945,1.357,-0.632,2.0
16.803,1.273,-0.688,1.0
16.007,1.215,-0.749,1.0
14.884,1.132,-0.782,0.0
13.762,1.049,-0.802,0.0
19.072,1.457,-0.59,3.0
17.537,1.342,-0.643,1.0
16.616,1.274,-0.705,2.0
15.9,1.222,-0.767,1.0
13.495,1.041,-0.807,0.0
18.638,1.441,-0.604,3.0
17.243,1.336,-0.657,1.0
16.433,1.275,-0.721,1.0
15.387,1.196,-0.765,0.0
14.263,1.111,-0.791,0.0
13.309,1.039,-0.815,0.0
18.271,1.429,-0.618,1.0
16.962,1.329,-0.672,1.0
16.185,1.27,-0.734,1.0
15.084,1.186,-0.772,0.0
14.109,1.111,-0.804,0.0
12.972,1.024,-0.814,0.0
17.767,1.404,-0.627,1.0
16.767,1.327,-0.688,1.0
16.009,1.27,-0.749,2.0
14.825,1.178,-0.781,0.0
13.709,1.091,-0.801,0.0
12.711,1.013,-0.816,0.0
17.499,1.397,-0.644,2.0
16.577,1.325,-0.705,1.0
15.865,1.27,-0.766,0.0
14.42,1.157,-0.781,0.0
13.455,1.081,-0.806,0.0
12.536,1.009,-0.823,0.0
17.201,1.386,-0.658,2.0
16.344,1.319,-0.719,1.0
15.336,1.239,-0.763,0.0
14.148,1.145,-0.787,0.0
13.212,1.071,-0.811,0.0
12.351,1.003,-0.829,0.0
16.952,1.378,-0.674,2.0
16.099,1.31,-0.732,1.0
15.056,1.227,-0.771,0.0
13.886,1.134,-0.793,0.0
12.924,1.057,-0.812,0.0
12.135,0.994,-0.833,0.0
16.747,1.372,-0.69,1.0
15.96,1.309,-0.75,2.0
14.771,1.214,-0.779,0.0
13.579,1.117,-0.795,0.0
12.756,1.051,-0.821,0.0
