X,Y,Z,Reflectivity
83.355,-10.517,1.106,56.0
83.363,-10.511,0.651,59.0
74.986,-9.449,0.183,10.0
0.0,0.0,0.0,0.0
83.331,-10.499,2.091,10.0
83.362,-10.494,1.645,28.0
83.364,-10.486,1.197,21.0
83.367,-10.478,0.741,111.0
75.578,-9.493,0.267,5.0
0.0,0.0,0.0,0.0
86.267,-10.833,2.259,11.0
83.343,-10.456,1.735,34.0
83.364,-10.45,1.287,31.0
83.354,-10.44,0.831,36.0
79.648,-9.968,0.367,2.0
0.0,0.0,0.0,0.0
116.284,-14.548,3.17,25.0
83.331,-10.415,1.825,39.0
83.368,-10.41,1.377,22.0
83.365,-10.4,0.921,18.0
83.344,-10.389,0.473,13.0
0.0,0.0,0.0,0.0
116.255,-14.486,3.294,30.0
83.261,-10.363,1.912,36.0
83.377,-10.367,1.467,58.0
83.359,-10.355,1.01,12.0
83.373,-10.346,0.563,21.0
74.289,-9.211,0.102,3.0
116.234,-14.419,3.417,23.0
83.283,-10.319,2.001,29.0
83.369,-10.318,1.554,62.0
83.349,-10.305,1.098,35.0
74.411,-9.191,0.579,9.0
74.287,-9.166,0.179,23.0
147.92,-18.263,4.501,14.0
83.299,-10.271,2.086,12.0
83.375,-10.268,1.64,66.0
83.364,-10.255,1.183,46.0
83.356,-10.243,0.736,14.0
74.332,-9.124,0.256,18.0
147.931,-18.168,4.654,20.0
116.298,-14.265,3.032,23.0
83.364,-10.212,1.726,50.0
83.356,-10.198,1.269,17.0
83.368,-10.188,0.82,13.0
74.37,-9.077,0.331,4.0
147.803,-18.051,4.802,21.0
116.296,-14.184,3.15,43.0
83.31,-10.147,1.808,31.0
83.37,-10.141,1.352,18.0
83.338,-10.124,0.902,19.0
83.377,-10.116,0.454,28.0
148.195,-17.991,4.962,23.0
116.285,-14.096,3.267,34.0
83.28,-10.081,1.89,45.0
83.348,-10.075,1.434,19.0
83.361,-10.062,0.985,39.0
83.367,-10.05,0.537,42.0
148.391,-17.9,5.113,21.0
116.285,-14.006,3.38,25.0
83.282,-10.015,1.971,43.0
83.399,-10.015,1.515,32.0
83.364,-9.996,1.066,36.0
83.396,-9.986,0.617,35.0
148.341,-17.774,5.252,22.0
116.286,-13.911,3.49,12.0
83.281,-9.947,2.05,31.0
83.366,-9.941,1.594,27.0
83.362,-9.925,1.143,33.0
83.365,-9.91,0.696,14.0
148.63,-17.682,5.404,21.0
148.243,-17.605,4.589,22.0
83.348,-9.882,2.129,11.0
83.334,-9.864,1.67,20.0
83.355,-9.85,1.221,24.0
83.376,-9.838,0.772,13.0
148.627,-17.548,5.54,23.0
147.955,-17.437,4.715,23.0
116.317,-13.685,3.077,30.0
83.317,-9.785,1.746,35.0
83.386,-9.776,1.298,52.0
83.385,-9.759,0.847,141.0
148.578,-17.402,5.673,25.0
148.007,-17.303,4.849,22.0
116.297,-13.57,3.182,35.0
83.308,-9.703,1.82,43.0
83.371,-9.693,1.371,26.0
83.365,-9.675,0.921,150.0
148.274,-17.222,5.791,22.0
148.16,-17.175,4.983,23.0
116.3,-13.455,3.282,34.0
83.296,-9.619,1.891,43.0
83.376,-9.61,1.442,26.0
83.377,-9.592,0.991,44.0
148.286,-17.072,5.919,25.0
148.529,-17.065,5.123,22.0
116.275,-13.332,3.38,25.0
83.345,-9.537,1.962,35.0
83.381,-9.523,1.513,80.0
83.374,-9.504,1.06,40.0
148.242,-16.91,6.039,11.0
148.755,-16.933,5.253,21.0
116.249,-13.206,3.473,14.0
83.338,-9.447,2.03,31.0
83.377,-9.433,1.579,41.0
83.362,-9.412,1.127,17.0
0.0,0.0,0.0,0.0
148.798,-16.776,5.372,22.0
148.025,-16.652,4.54,20.0
83.319,-9.353,2.095,11.0
83.349,-9.336,1.644,28.0
83.367,-9.318,1.192,13.0
111.002,-12.417,4.696,2.0
148.739,-16.6,5.485,21.0
148.004,-16.48,4.653,23.0
116.285,-12.919,3.013,32.0
83.357,-9.24,1.707,26.0
83.396,-9.224,1.256,23.0
110.362,-12.216,4.753,6.0
148.216,-16.366,5.577,27.0
147.941,-16.298,4.762,26.0
116.301,-12.783,3.099,41.0
83.325,-9.137,1.767,32.0
83.372,-9.121,1.316,11.0
110.426,-12.089,4.836,19.0
148.165,-16.181,5.681,26.0
108.832,-11.856,3.581,20.0
116.345,-12.643,3.183,37.0
83.316,-9.033,1.826,33.0
83.308,-9.01,1.373,28.0
110.522,-11.963,4.916,22.0
148.298,-16.01,5.79,18.0
108.781,-11.714,3.654,19.0
116.303,-12.493,3.261,35.0
83.47,-8.943,1.886,7.0
84.149,-8.994,1.444,3.0
110.637,-11.834,4.996,25.0
111.643,-11.91,4.431,15.0
108.729,-11.569,3.723,18.0
116.318,-12.343,3.338,34.0
84.749,-8.97,1.969,3.0
83.389,-8.805,1.484,10.0
110.656,-11.692,5.066,14.0
149.095,-15.71,6.012,12.0
108.789,-11.431,3.793,16.0
116.272,-12.185,3.408,25.0
86.072,-8.996,2.053,12.0
86.211,-8.988,1.586,96.0
110.626,-11.541,5.132,11.0
111.294,-11.577,4.554,8.0
108.78,-11.284,3.857,17.0
116.311,-12.032,3.477,18.0
116.343,-12.003,2.842,18.0
87.532,-9.006,1.661,1.0
108.838,-11.206,5.112,22.0
38.525,-3.954,1.598,0.0
108.743,-11.13,3.917,10.0
148.26,-15.132,4.515,15.0
116.366,-11.842,2.908,26.0
88.524,-8.983,1.728,3.0
108.86,-11.054,5.172,13.0
111.124,-11.25,4.671,9.0
108.616,-10.963,3.97,17.0
148.05,-14.899,4.586,21.0
116.343,-11.675,2.968,32.0
89.085,-8.913,1.785,12.0
107.977,-10.81,5.185,23.0
109.0,-10.878,4.636,15.0
108.701,-10.814,4.028,17.0
108.128,-10.725,3.403,14.0
116.351,-11.506,3.024,81.0
90.347,-8.908,1.854,33.0
107.932,-10.647,5.235,24.0
109.637,-10.78,4.716,21.0
108.462,-10.631,4.069,21.0
148.138,-14.475,4.73,23.0
116.34,-11.332,3.077,3.0
90.345,-8.773,1.894,39.0
107.957,-10.488,5.284,23.0
109.748,-10.627,4.769,22.0
108.735,-10.495,4.126,21.0
147.929,-14.232,4.787,18.0
127.517,-12.229,3.426,14.0
90.359,-8.638,1.931,40.0
108.048,-10.333,5.333,24.0
109.81,-10.466,4.816,14.0
108.452,-10.302,4.159,24.0
148.227,-14.034,4.855,17.0
113.825,-10.741,3.102,8.0
90.364,-8.5,1.966,34.0
109.049,-10.262,5.423,20.0
107.764,-10.106,4.764,11.0
108.276,-10.118,4.191,19.0
108.196,-10.076,3.581,6.0
127.523,-11.836,3.52,7.0
90.37,-8.359,1.997,36.0
108.724,-10.059,5.443,21.0
107.739,-9.932,4.801,22.0
108.763,-9.991,4.246,27.0
108.157,-9.9,3.615,24.0
108.052,-9.855,3.017,11.0
90.368,-8.214,2.026,32.0
108.647,-9.878,5.473,23.0
107.835,-9.768,4.836,25.0
108.086,-9.755,4.252,24.0
108.046,-9.716,3.643,25.0
108.056,-9.683,3.047,11.0
90.373,-8.069,2.051,45.0
108.925,-9.727,5.516,15.0
107.754,-9.586,4.861,27.0
108.101,-9.58,4.279,23.0
108.279,-9.561,3.678,26.0
114.423,-10.067,3.254,8.0
90.378,-7.922,2.072,30.0
107.251,-9.402,5.456,23.0
107.713,-9.406,4.883,24.0
108.156,-9.407,4.305,25.0
108.721,-9.421,3.716,17.0
116.625,-10.068,3.341,7.0
90.388,-7.774,2.091,31.0
107.185,-9.219,5.473,27.0
107.917,-9.243,4.913,31.0
108.098,-9.222,4.322,21.0
109.94,-9.343,3.777,16.0
114.385,-9.683,3.296,19.0
90.383,-7.621,2.105,21.0
107.093,-9.031,5.486,26.0
107.844,-9.056,4.926,29.0
108.689,-9.09,4.361,17.0
110.86,-9.235,3.823,24.0
114.554,-9.504,3.316,7.0
90.391,-7.468,2.116,40.0
107.138,-8.852,5.5,22.0
107.583,-8.852,4.926,25.0
108.229,-8.867,4.354,16.0
109.248,-8.914,3.779,3.0
148.454,-12.064,4.312,5.0
127.486,-10.316,2.996,33.0
107.567,-8.702,5.531,21.0
107.572,-8.665,4.933,23.0
109.003,-8.742,4.393,20.0
108.858,-8.694,3.771,22.0
115.639,-9.196,3.365,16.0
127.516,-10.097,3.004,31.0
107.987,-8.547,5.557,20.0
108.45,-8.546,4.977,20.0
108.042,-8.476,4.358,20.0
108.328,-8.461,3.756,22.0
148.303,-11.532,4.318,5.0
127.511,-9.872,3.004,62.0
108.466,-8.393,5.582,27.0
108.592,-8.364,4.984,23.0
107.273,-8.225,4.325,19.0
108.208,-8.259,3.75,30.0
148.211,-11.262,4.313,18.0
0.0,0.0,0.0,0.0
108.005,-8.166,5.554,22.0
108.474,-8.164,4.973,19.0
108.081,-8.095,4.353,20.0
108.027,-8.053,3.738,25.0
109.074,-8.094,3.167,13.0
0.0,0.0,0.0,0.0
107.833,-7.96,5.537,26.0
109.149,-8.018,4.996,27.0
107.504,-7.859,4.32,23.0
108.816,-7.917,3.755,23.0
109.068,-7.897,3.155,26.0
109.226,-7.872,2.552,41.0
107.788,-7.762,5.522,29.0
108.323,-7.762,4.944,17.0
107.526,-7.666,4.307,25.0
107.101,-7.598,3.682,28.0
109.049,-7.699,3.14,44.0
109.237,-7.674,2.536,44.0
107.669,-7.556,5.499,24.0
108.494,-7.576,4.935,23.0
107.625,-7.477,4.293,24.0
108.39,-7.493,3.706,23.0
109.08,-7.502,3.122,48.0
148.089,-10.135,3.411,12.0
107.28,-7.333,5.458,17.0
107.961,-7.341,4.888,27.0
107.965,-7.304,4.284,25.0
109.47,-7.368,3.72,22.0
109.881,-7.356,3.119,10.0
117.068,-7.799,2.67,28.0
107.24,-7.134,5.431,25.0
108.018,-7.148,4.865,24.0
109.352,-7.197,4.312,21.0
108.899,-7.129,3.673,28.0
124.923,-8.136,3.515,13.0
117.109,-7.587,2.64,29.0
107.409,-6.949,5.41,26.0
107.853,-6.938,4.827,30.0
108.885,-6.966,4.263,23.0
109.905,-6.992,3.675,28.0
117.406,-7.429,3.268,23.0
117.323,-7.384,2.609,12.0
107.54,-6.757,5.383,35.0
107.787,-6.734,4.789,26.0
108.968,-6.769,4.231,28.0
109.934,-6.791,3.64,21.0
117.237,-7.201,3.224,36.0
148.765,-9.086,3.256,13.0
107.478,-6.553,5.342,22.0
107.727,-6.53,4.748,23.0
109.301,-6.587,4.202,23.0
117.712,-7.052,3.852,11.0
117.359,-6.99,3.183,21.0
148.988,-8.823,3.204,22.0
107.789,-6.37,5.313,25.0
107.505,-6.316,4.695,30.0
109.178,-6.375,4.153,27.0
117.446,-6.816,3.795,27.0
119.697,-6.904,3.195,25.0
147.474,-8.455,3.108,16.0
108.108,-6.184,5.282,32.0
107.644,-6.119,4.652,26.0
109.116,-6.164,4.101,23.0
117.084,-6.573,3.73,27.0
120.084,-6.703,3.15,15.0
140.706,-7.805,2.9,25.0
108.166,-5.984,5.232,31.0
108.184,-5.948,4.624,26.0
109.344,-5.973,4.057,28.0
117.149,-6.358,3.674,23.0
140.741,-7.591,3.621,25.0
0.0,0.0,0.0,0.0
108.204,-5.784,5.178,28.0
108.639,-5.77,4.587,17.0
109.757,-5.79,4.014,25.0
117.77,-6.171,3.631,12.0
140.902,-7.334,3.549,21.0
0.0,0.0,0.0,0.0
108.203,-5.578,5.118,18.0
109.858,-5.625,4.575,15.0
109.961,-5.592,3.958,19.0
125.574,-6.344,3.799,15.0
139.431,-6.997,3.432,15.0
0.0,0.0,0.0,0.0
115.921,-5.758,5.413,2.0
116.341,-5.738,4.775,22.0
117.626,-5.761,4.162,20.0
140.978,-6.858,4.178,24.0
139.298,-6.728,3.341,11.0
0.0,0.0,0.0,0.0
114.414,-5.47,5.27,21.0
117.427,-5.572,4.743,17.0
116.759,-5.5,4.056,21.0
141.937,-6.637,4.113,11.0
0.0,0.0,0.0,0.0
0.0,0.0,0.0,0.0
114.361,-5.252,5.19,17.0
117.222,-5.343,4.655,21.0
116.68,-5.279,3.973,14.0
142.056,-6.379,4.019,9.0
142.722,-6.36,3.23,5.0
101.909,-4.507,1.729,1.0
116.972,-5.151,5.224,15.0
117.398,-5.131,4.577,21.0
119.532,-5.183,3.983,22.0
139.976,-6.023,3.858,13.0
0.0,0.0,0.0,0.0
101.547,-4.301,1.648,113.0
116.715,-4.922,5.124,21.0
116.88,-4.89,4.468,24.0
124.734,-5.176,4.061,10.0
141.532,-5.826,3.79,25.0
162.357,-6.63,3.429,9.0
0.0,0.0,0.0,0.0
116.764,-4.705,5.033,24.0
117.304,-4.688,4.39,21.0
118.378,-4.691,3.758,7.0
142.289,-5.592,3.695,26.0
162.203,-6.321,3.292,13.0
162.093,-6.265,2.372,7.0
117.13,-4.502,4.951,20.0
117.399,-4.474,4.295,16.0
138.579,-5.237,4.283,19.0
163.402,-6.122,4.106,4.0
162.264,-6.025,3.155,19.0
162.113,-5.966,2.232,24.0
117.478,-4.299,4.864,21.0
138.16,-5.01,4.934,12.0
139.977,-5.029,4.202,18.0
163.434,-5.821,3.962,13.0
162.268,-5.726,3.011,19.0
162.061,-5.665,2.086,20.0
116.833,-4.059,4.73,21.0
117.558,-4.046,4.09,8.0
140.312,-4.784,4.083,14.0
163.289,-5.515,3.806,11.0
162.211,-5.427,2.859,25.0
161.906,-5.366,1.933,31.0
116.645,-3.839,4.612,11.0
139.543,-4.547,4.721,19.0
163.272,-5.269,4.595,15.0
0.0,0.0,0.0,0.0
162.247,-5.13,2.701,4.0
161.95,-5.072,1.776,13.0
118.912,-3.697,4.584,19.0
139.8,-4.301,4.592,14.0
163.254,-4.971,4.432,17.0
167.868,-5.057,3.583,17.0
163.888,-4.886,2.565,29.0
162.112,-4.781,1.613,13.0
118.683,-3.474,4.454,22.0
142.965,-4.14,4.549,11.0
163.443,-4.682,4.269,8.0
167.813,-4.755,3.409,14.0
161.994,-4.54,2.368,14.0
161.901,-4.488,1.444,13.0
139.902,-3.845,5.103,18.0
140.649,-3.821,4.326,9.0
163.535,-4.393,4.098,4.0
170.398,-4.525,3.281,5.0
161.933,-4.25,2.193,26.0
160.77,-4.169,1.26,5.0
140.267,-3.604,4.963,24.0
163.263,-4.145,4.843,9.0
0.0,0.0,0.0,0.0
170.427,-4.22,3.09,6.0
161.911,-3.961,2.012,11.0
0.0,0.0,0.0,0.0
140.44,-3.361,4.811,16.0
163.325,-3.858,4.66,33.0
171.384,-3.995,3.909,4.0
170.409,-3.921,2.896,6.0
131.214,-2.98,1.481,26.0
0.0,0.0,0.0,0.0
162.543,-3.604,5.378,7.0
163.226,-3.57,4.467,17.0
0.0,0.0,0.0,0.0
0.0,0.0,0.0,0.0
131.112,-2.749,1.324,28.0
0.0,0.0,0.0,0.0
162.6,-3.319,5.183,58.0
163.386,-3.285,4.272,16.0
170.378,-3.375,3.478,7.0
0.0,0.0,0.0,0.0
131.11,-2.52,1.163,152.0
0.0,0.0,0.0,0.0
162.972,-3.044,4.992,18.0
163.494,-3.007,4.073,5.0
170.238,-3.082,3.265,13.0
131.133,-2.335,1.75,10.0
131.092,-2.298,1.0,103.0
0.0,0.0,0.0,0.0
163.292,-2.773,4.796,17.0
171.467,-2.864,4.055,5.0
173.526,-2.847,3.108,13.0
131.147,-2.115,1.585,27.0
19.74,-0.312,0.125,16.0
0.0,0.0,0.0,0.0
163.282,-2.501,4.587,41.0
0.0,0.0,0.0,0.0
19.78,-0.291,0.328,1.0
19.762,-0.285,0.212,24.0
19.749,-0.279,0.099,22.0
0.0,0.0,0.0,0.0
163.336,-2.227,4.369,22.0
19.765,-0.264,0.415,5.0
19.738,-0.258,0.301,10.0
19.758,-0.253,0.186,22.0
19.719,-0.247,0.073,0.0
0.0,0.0,0.0,0.0
19.772,-0.237,0.502,8.0
19.736,-0.231,0.388,11.0
19.747,-0.226,0.274,6.0
0.0,0.0,0.0,0.0
0.0,0.0,0.0,0.0
0.0,0.0,0.0,0.0
19.751,-0.204,0.473,9.0
19.769,-0.199,0.36,4.0
169.666,-1.669,2.123,7.0
160.725,-1.539,1.071,13.0
0.0,0.0,0.0,0.0
19.764,-0.178,-0.095,9.0
19.778,-0.173,0.446,5.0
177.05,-1.506,2.979,6.0
169.577,-1.399,1.88,4.0
160.697,-1.282,0.84,4.0
19.76,-0.152,-0.01,5.0
19.739,-0.147,-0.123,15.0
19.714,-0.142,0.416,0.0
19.738,-0.136,0.303,0.0
19.736,-0.131,0.189,8.0
19.738,-0.126,0.074,8.0
19.729,-0.121,-0.039,10.0
19.726,-0.116,-0.152,17.0
19.67,-0.111,0.386,9.0
19.685,-0.105,0.273,8.0
19.705,-0.1,0.16,13.0
19.693,-0.095,0.044,14.0
19.72,-0.09,-0.068,11.0
19.729,-0.086,-0.182,16.0
19.652,-0.08,0.356,10.0
19.659,-0.075,0.242,12.0
19.697,-0.07,0.13,15.0
19.692,-0.066,0.014,16.0
19.719,-0.061,-0.098,14.0
19.752,-0.056,-0.212,14.0
19.636,-0.051,0.325,11.0
19.651,-0.046,0.212,15.0
19.692,-0.041,0.099,15.0
19.695,-0.036,-0.015,15.0
19.749,-0.031,-0.129,10.0
19.782,-0.027,-0.243,0.0
19.633,-0.022,0.295,13.0
19.673,-0.017,0.182,9.0
19.747,-0.012,0.068,5.0
19.747,-0.007,-0.046,8.0
19.673,-0.002,-0.16,0.0
19.762,0.001,-0.274,0.0
19.636,0.006,0.263,14.0
19.738,0.011,0.15,13.0
19.755,0.016,0.037,9.0
19.735,0.021,-0.079,10.0
19.751,0.025,-0.192,10.0
19.769,0.03,-0.307,16.0
19.633,0.034,0.231,15.0
19.748,0.039,0.118,11.0
19.753,0.044,0.004,76.0
19.752,0.048,-0.111,35.0
19.767,0.053,-0.225,32.0
19.768,0.058,-0.339,48.0
19.648,0.062,0.199,14.0
19.713,0.066,0.086,18.0
19.768,0.071,-0.027,19.0
19.754,0.075,-0.143,10.0
19.759,0.08,-0.257,2.0
19.796,0.084,-0.372,0.0
19.677,0.089,0.166,13.0
19.664,0.093,0.053,10.0
19.693,0.098,-0.06,4.0
0.0,0.0,0.0,0.0
35.388,0.191,-0.521,0.0
0.0,0.0,0.0,0.0
19.653,0.115,0.133,15.0
19.643,0.119,0.019,14.0
19.663,0.123,-0.093,10.0
19.66,0.128,-0.209,0.0
32.411,0.218,-0.532,0.0
28.105,0.195,-0.624,0.0
19.648,0.14,0.099,13.0
19.642,0.145,-0.013,18.0
19.643,0.149,-0.127,12.0
19.657,0.153,-0.242,8.0
19.673,0.157,-0.356,8.0
19.691,0.161,-0.471,7.0
19.658,0.165,0.065,13.0
19.657,0.17,-0.047,11.0
19.644,0.173,-0.161,15.0
19.64,0.177,-0.276,16.0
19.654,0.182,-0.39,17.0
19.674,0.186,-0.505,15.0
19.673,0.19,0.031,13.0
19.632,0.193,-0.081,16.0
19.64,0.197,-0.195,15.0
19.649,0.201,-0.311,14.0
19.668,0.206,-0.425,21.0
19.687,0.21,-0.54,20.0
19.674,0.213,-0.003,9.0
19.636,0.217,-0.116,16.0
19.642,0.221,-0.23,16.0
19.63,0.225,-0.345,15.0
19.675,0.229,-0.46,19.0
19.674,0.233,-0.574,16.0
19.676,0.236,-0.037,5.0
19.649,0.24,-0.151,15.0
19.648,0.244,-0.265,16.0
19.655,0.247,-0.38,15.0
19.679,0.251,-0.495,16.0
19.699,0.256,-0.61,7.0
19.701,0.259,-0.073,10.0
19.663,0.262,-0.187,14.0
19.67,0.266,-0.301,13.0
19.675,0.27,-0.416,11.0
19.7,0.274,-0.531,2.0
22.029,0.31,-0.722,0.0
19.711,0.281,-0.108,2.0
19.692,0.284,-0.222,9.0
19.675,0.288,-0.336,3.0
19.695,0.291,-0.453,0.0
24.387,0.365,-0.702,0.0
21.059,0.319,-0.729,0.0
0.0,0.0,0.0,0.0
36.044,0.559,-0.474,2.0
30.081,0.472,-0.57,0.0
26.219,0.416,-0.651,1.0
22.642,0.363,-0.694,0.0
20.504,0.332,-0.747,2.0
35.989,0.589,-0.331,0.0
34.078,0.564,-0.512,0.0
28.663,0.479,-0.597,0.0
25.287,0.427,-0.675,1.0
21.684,0.37,-0.705,0.0
19.873,0.342,-0.761,3.0
34.346,0.597,-0.381,0.0
31.958,0.561,-0.539,0.0
27.439,0.486,-0.622,1.0
24.178,0.432,-0.691,0.0
21.177,0.382,-0.728,1.0
19.264,0.351,-0.774,0.0
32.126,0.589,-0.416,0.0
29.956,0.554,-0.562,0.0
26.571,0.496,-0.653,1.0
22.691,0.427,-0.691,0.0
20.648,0.392,-0.749,1.0
18.757,0.359,-0.789,1.0
30.132,0.581,-0.447,0.0
28.511,0.553,-0.588,0.0
25.444,0.498,-0.673,0.0
21.686,0.428,-0.701,0.0
19.897,0.395,-0.759,1.0
17.912,0.359,-0.787,0.0
28.727,0.579,-0.481,0.0
27.135,0.551,-0.611,2.0
23.915,0.489,-0.678,0.0
21.151,0.436,-0.724,3.0
18.847,0.391,-0.755,0.0
17.501,0.366,-0.803,0.0
26.83,0.563,-0.5,0.0
26.237,0.555,-0.641,6.0
23.158,0.493,-0.7,3.0
20.699,0.443,-0.748,1.0
18.621,0.401,-0.781,0.0
16.995,0.369,-0.811,0.0
25.377,0.553,-0.52,0.0
25.143,0.552,-0.662,1.0
22.008,0.486,-0.707,4.0
19.672,0.437,-0.748,0.0
17.859,0.399,-0.783,0.0
16.389,0.368,-0.814,0.0
24.612,0.555,-0.552,0.0
23.843,0.541,-0.673,1.0
21.31,0.487,-0.725,2.0
19.147,0.44,-0.765,0.0
17.469,0.404,-0.799,1.0
15.919,0.37,-0.821,0.0
23.361,0.544,-0.568,0.0
22.957,0.538,-0.692,3.0
20.727,0.488,-0.746,2.0
18.507,0.439,-0.775,0.0
16.991,0.405,-0.811,0.0
15.381,0.368,-0.823,0.0
22.554,0.541,-0.593,0.0
22.051,0.532,-0.707,3.0
19.665,0.477,-0.745,0.0
17.939,0.437,-0.786,0.0
16.357,0.401,-0.812,0.0
14.922,0.367,-0.827,0.0
22.039,0.543,-0.621,1.0
21.14,0.524,-0.718,4.0
19.2,0.478,-0.764,0.0
17.388,0.435,-0.795,0.0
15.87,0.399,-0.818,0.0
14.462,0.365,-0.83,0.0
21.499,0.543,-0.647,3.0
20.608,0.523,-0.74,2.0
18.401,0.469,-0.768,0.0
16.922,0.433,-0.806,0.0
15.341,0.395,-0.82,0.0
14.182,0.366,-0.841,0.0
0.0,0.0,0.0,0.0
19.617,0.509,-0.743,0.0
18.022,0.47,-0.787,1.0
16.355,0.428,-0.811,0.0
14.885,0.391,-0.825,0.0
13.779,0.364,-0.844,1.0
20.72,0.547,-0.704,3.0
19.124,0.507,-0.761,2.0
17.461,0.464,-0.796,0.0
15.887,0.424,-0.819,0.0
14.408,0.386,-0.826,0.0
13.591,0.366,-0.859,0.0
20.306,0.546,-0.729,3.0
18.348,0.495,-0.765,0.0
16.966,0.46,-0.806,0.0
15.222,0.414,-0.814,0.0
14.171,0.387,-0.84,0.0
13.044,0.357,-0.849,0.0
19.755,0.54,-0.747,3.0
17.982,0.494,-0.785,2.0
16.457,0.453,-0.814,0.0
14.819,0.409,-0.821,0.0
13.789,0.382,-0.844,0.0
12.714,0.354,-0.853,0.0
19.258,0.535,-0.766,3.0
17.368,0.484,-0.792,0.0
15.849,0.443,-0.815,0.0
14.411,0.404,-0.826,0.0
13.368,0.376,-0.844,0.0
12.496,0.352,-0.862,0.0
18.367,0.517,-0.766,0.0
16.943,0.478,-0.805,0.0
15.244,0.432,-0.813,0.0
14.151,0.402,-0.838,0.0
12.997,0.37,-0.846,0.0
12.191,0.348,-0.864,0.0
18.002,0.513,-0.784,2.0
16.351,0.467,-0.808,0.0
14.823,0.425,-0.818,0.0
13.79,0.396,-0.843,0.0
12.711,0.366,-0.851,0.0
11.935,0.345,-0.869,0.0
17.343,0.499,-0.789,0.0
15.777,0.455,-0.809,0.0
14.394,0.417,-0.822,0.0
13.212,0.383,-0.833,0.0
12.521,0.364,-0.863,0.0
11.685,0.341,-0.873,0.0
16.906,0.491,-0.801,0.0
15.223,0.443,-0.81,0.0
14.077,0.411,-0.831,0.0
13.001,0.38,-0.845,0.0
12.167,0.357,-0.861,0.0
11.387,0.335,-0.873,0.0
16.416,0.481,-0.809,0.0
14.8,0.434,-0.815,0.0
13.736,0.404,-0.837,0.0
12.731,0.375,-0.851,0.0
11.978,0.354,-0.871,0.0
11.175,0.33,-0.878,0.0
15.797,0.466,-0.808,0.0
14.497,0.428,-0.826,0.0
13.234,0.391,-0.831,0.0
12.479,0.37,-0.858,0.0
11.642,0.346,-0.868,0.0
10.947,0.325,-0.881,0.0
15.303,0.453,-0.812,0.0
14.138,0.419,-0.832,0.0
13.008,0.386,-0.841,0.0
12.137,0.361,-0.857,0.0
11.374,0.339,-0.87,0.0
10.724,0.32,-0.883,0.0
14.828,0.441,-0.814,0.0
13.806,0.411,-0.838,0.0
12.773,0.381,-0.85,0.0
11.977,0.357,-0.868,0.0
11.209,0.335,-0.878,0.0
10.536,0.315,-0.887,0.0
14.535,0.433,-0.825,0.0
13.387,0.399,-0.837,0.0
12.536,0.374,-0.857,0.0
11.652,0.348,-0.866,0.0
10.94,0.327,-0.877,0.0
10.342,0.31,-0.89,0.0
14.161,0.422,-0.829,0.0
13.084,0.391,-0.842,0.0
12.193,0.364,-0.856,0.0
11.416,0.341,-0.869,0.0
10.756,0.322,-0.882,0.0
10.22,0.306,-0.898,0.0
13.822,0.412,-0.835,0.0
12.815,0.382,-0.849,0.0
12.016,0.359,-0.866,0.0
11.204,0.335,-0.874,0.0
10.569,0.316,-0.886,0.0
10.043,0.301,-0.901,0.0
13.337,0.397,-0.829,0.0
12.591,0.375,-0.856,0.0
11.732,0.35,-0.866,0.0
10.969,0.327,-0.875,0.0
10.42,0.311,-0.892,0.0
9.833,0.294,-0.899,0.0
13.147,0.39,-0.841,0.0
12.288,0.365,-0.858,0.0
11.453,0.34,-0.866,0.0
10.74,0.319,-0.876,0.0
10.273,0.305,-0.898,0.0
9.713,0.289,-0.906,0.0
12.851,0.38,-0.845,0.0
12.038,0.356,-0.862,0.0
11.229,0.332,-0.869,0.0
10.639,0.315,-0.887,0.0
10.079,0.298,-0.899,0.0
9.539,0.282,-0.907,0.0
12.596,0.37,-0.85,0.0
11.802,0.347,-0.865,0.0
11.043,0.325,-0.874,0.0
10.419,0.306,-0.886,0.0
9.885,0.291,-0.899,0.0
9.431,0.277,-0.913,0.0
12.362,0.361,-0.856,0.0
11.555,0.337,-0.867,0.0
10.797,0.315,-0.873,0.0
10.26,0.299,-0.891,0.0
9.723,0.284,-0.901,0.0
9.257,0.27,-0.912,0.0
12.118,0.351,-0.86,0.0
11.311,0.327,-0.868,0.0
10.697,0.309,-0.883,0.0
10.116,0.293,-0.896,0.0
9.59,0.277,-0.905,0.0
9.11,0.263,-0.913,0.0
11.913,0.342,-0.865,0.0
11.136,0.319,-0.873,0.0
10.493,0.301,-0.884,0.0
9.942,0.285,-0.897,0.0
9.497,0.272,-0.912,0.0
8.988,0.257,-0.916,0.0
11.724,0.333,-0.871,0.0
10.97,0.311,-0.879,0.0
10.357,0.293,-0.89,0.0
9.786,0.277,-0.899,0.0
9.328,0.264,-0.911,0.0
8.857,0.25,-0.917,0.0
11.434,0.32,-0.868,0.0
10.755,0.301,-0.879,0.0
10.219,0.286,-0.895,0.0
9.666,0.27,-0.904,0.0
9.178,0.256,-0.912,0.0
8.747,0.244,-0.92,0.0
11.217,0.31,-0.87,0.0
10.64,0.294,-0.887,0.0
10.017,0.276,-0.893,0.0
9.524,0.262,-0.906,0.0
9.063,0.249,-0.915,0.0
8.589,0.236,-0.917,0.0
11.055,0.301,-0.875,0.0
10.423,0.284,-0.885,0.0
9.886,0.269,-0.897,0.0
9.409,0.255,-0.91,0.0
8.948,0.243,-0.918,0.0
8.508,0.23,-0.922,0.0
10.88,0.291,-0.878,0.0
10.305,0.276,-0.892,0.0
9.728,0.26,-0.898,0.0
9.277,0.247,-0.912,0.0
8.81,0.235,-0.917,0.0
8.404,0.223,-0.924,0.0
10.73,0.282,-0.882,0.0
10.173,0.267,-0.896,0.0
9.617,0.252,-0.903,0.0
9.113,0.239,-0.909,0.0
8.695,0.227,-0.919,0.0
8.282,0.216,-0.923,0.0
10.58,0.273,-0.886,0.0
9.983,0.257,-0.894,0.0
9.499,0.244,-0.906,0.0
9.021,0.231,-0.914,0.0
8.58,0.22,-0.919,0.0
8.219,0.21,-0.929,0.0
10.404,0.263,-0.887,0.0
9.899,0.249,-0.901,0.0
9.37,0.236,-0.907,0.0
8.927,0.224,-0.917,0.0
8.509,0.213,-0.924,0.0
8.129,0.203,-0.93,0.0
10.287,0.254,-0.891,0.0
9.716,0.239,-0.898,0.0
9.234,0.227,-0.908,0.0
8.819,0.216,-0.919,0.0
8.393,0.205,-0.924,0.0
8.052,0.196,-0.933,0.0
10.143,0.244,-0.893,0.0
9.619,0.231,-0.903,0.0
9.106,0.218,-0.908,0.0
8.691,0.208,-0.918,0.0
8.284,0.197,-0.923,0.0
7.941,0.189,-0.931,0.0
9.991,0.234,-0.894,0.0
9.529,0.223,-0.908,0.0
9.075,0.211,-0.917,0.0
8.595,0.2,-0.92,0.0
8.228,0.191,-0.928,0.0
7.859,0.181,-0.933,0.0
9.903,0.226,-0.899,0.0
9.407,0.214,-0.909,0.0
8.975,0.203,-0.919,0.0
8.527,0.192,-0.924,0.0
8.142,0.183,-0.93,0.0
7.789,0.174,-0.935,0.0
9.746,0.215,-0.898,0.0
9.186,0.202,-0.9,0.0
8.835,0.194,-0.917,0.0
8.418,0.184,-0.923,0.0
8.054,0.175,-0.93,0.0
7.711,0.167,-0.936,0.0
9.663,0.206,-0.903,0.0
9.137,0.194,-0.907,0.0
8.73,0.185,-0.917,0.0
8.306,0.175,-0.921,0.0
7.98,0.168,-0.932,0.0
7.659,0.16,-0.939,0.0
9.576,0.197,-0.907,0.0
9.078,0.186,-0.912,0.0
8.629,0.176,-0.917,0.0
8.253,0.168,-0.926,0.0
7.892,0.16,-0.931,0.0
7.583,0.153,-0.939,0.0
9.489,0.188,-0.91,0.0
9.033,0.178,-0.918,0.0
8.571,0.168,-0.921,0.0
8.191,0.16,-0.929,0.0
7.83,0.152,-0.933,0.0
7.523,0.146,-0.941,0.0
9.363,0.178,-0.909,0.0
8.882,0.168,-0.913,0.0
8.496,0.16,-0.923,0.0
8.099,0.152,-0.928,0.0
7.773,0.145,-0.936,0.0
7.472,0.138,-0.943,0.0
9.274,0.169,-0.911,0.0
8.804,0.159,-0.915,0.0
8.399,0.151,-0.922,0.0
8.032,0.144,-0.929,0.0
7.723,0.137,-0.938,0.0
7.391,0.131,-0.941,0.0
9.162,0.159,-0.91,0.0
8.727,0.151,-0.917,0.0
8.342,0.143,-0.925,0.0
7.953,0.135,-0.929,0.0
7.669,0.13,-0.94,0.0
7.338,0.123,-0.942,0.0
9.084,0.15,-0.912,0.0
8.664,0.142,-0.92,0.0
8.265,0.134,-0.925,0.0
7.916,0.128,-0.933,0.0
7.579,0.121,-0.937,0.0
7.291,0.116,-0.944,0.0
9.026,0.141,-0.915,0.0
8.585,0.133,-0.92,0.0
8.218,0.126,-0.928,0.0
7.872,0.12,-0.935,0.0
7.529,0.114,-0.938,0.0
7.238,0.109,-0.944,0.0
8.927,0.131,-0.914,0.0
8.538,0.124,-0.923,0.0
8.123,0.117,-0.925,0.0
7.789,0.112,-0.933,0.0
7.475,0.106,-0.939,0.0
7.207,0.101,-0.947,0.0
8.864,0.122,-0.916,0.0
8.495,0.116,-0.927,0.0
8.064,0.109,-0.926,0.0
7.72,0.103,-0.932,0.0
7.427,0.098,-0.94,0.0
7.148,0.094,-0.946,0.0
8.806,0.113,-0.918,0.0
8.396,0.106,-0.923,0.0
8.036,0.101,-0.93,0.0
7.681,0.095,-0.934,0.0
7.396,0.091,-0.942,0.0
7.139,0.087,-0.951,0.0
8.708,0.103,-0.915,0.0
8.342,0.097,-0.924,0.0
7.963,0.092,-0.928,0.0
7.632,0.087,-0.935,0.0
7.346,0.083,-0.942,0.0
7.076,0.079,-0.949,0.0
8.693,0.094,-0.921,0.0
8.283,0.089,-0.925,0.0
7.933,0.084,-0.931,0.0
7.585,0.079,-0.935,0.0
7.315,0.075,-0.944,0.0
7.05,0.071,-0.951,0.0
8.603,0.084,-0.918,0.0
8.258,0.08,-0.928,0.0
7.883,0.075,-0.932,0.0
7.551,0.071,-0.937,0.0
7.287,0.067,-0.946,0.0
7.021,0.064,-0.952,0.0
8.555,0.075,-0.919,0.0
8.212,0.071,-0.929,0.0
7.848,0.067,-0.933,0.0
7.517,0.063,-0.938,0.0
7.256,0.059,-0.947,0.0
6.992,0.056,-0.953,0.0
8.532,0.066,-0.922,0.0
8.154,0.062,-0.928,0.0
7.812,0.058,-0.934,0.0
7.466,0.054,-0.936,0.0
7.208,0.051,-0.946,0.0
6.945,0.049,-0.951,0.0
8.5,0.057,-0.924,0.0
8.124,0.053,-0.93,0.0
7.786,0.05,-0.936,0.0
7.436,0.046,-0.937,0.0
7.191,0.044,-0.948,0.0
6.93,0.041,-0.954,0.0
8.46,0.048,-0.925,0.0
8.087,0.044,-0.93,0.0
7.754,0.041,-0.937,0.0
7.413,0.038,-0.939,0.0
7.148,0.036,-0.946,0.0
6.881,0.033,-0.951,0.0
8.407,0.038,-0.924,0.0
8.054,0.035,-0.931,0.0
7.721,0.033,-0.937,0.0
7.403,0.03,-0.942,0.0
7.135,0.028,-0.949,0.0
6.837,0.026,-0.948,0.0
8.382,0.029,-0.926,0.0
8.013,0.027,-0.931,0.0
7.682,0.024,-0.936,0.0
7.362,0.022,-0.94,0.0
7.115,0.02,-0.949,0.0
6.865,0.018,-0.956,0.0
8.341,0.02,-0.925,0.0
7.989,0.018,-0.931,0.0
7.66,0.016,-0.937,0.0
7.359,0.014,-0.943,0.0
7.105,0.012,-0.951,0.0
6.813,0.01,-0.951,0.0
8.322,0.011,-0.926,0.0
7.946,0.009,-0.93,0.0
7.64,0.007,-0.938,0.0
7.333,0.006,-0.943,0.0
7.08,0.004,-0.951,0.0
6.807,0.003,-0.953,0.0
8.29,0.001,-0.926,0.0
7.964,0.0,-0.935,0.0
7.636,0.0,-0.94,0.0
7.332,-0.002,-0.945,0.0
7.095,-0.003,-0.955,0.0
6.785,-0.004,-0.952,0.0
8.272,-0.007,-0.927,0.0
7.918,-0.008,-0.932,0.0
7.62,-0.009,-0.94,0.0
7.326,-0.01,-0.947,0.0
7.034,-0.011,-0.949,0.0
6.781,-0.012,-0.954,0.0
8.253,-0.016,-0.927,0.0
7.922,-0.017,-0.935,0.0
7.601,-0.018,-0.94,0.0
7.28,-0.018,-0.943,0.0
7.033,-0.019,-0.951,0.0
6.79,-0.019,-0.957,0.0
8.245,-0.025,-0.928,0.0
7.907,-0.026,-0.935,0.0
7.586,-0.026,-0.94,0.0
7.274,-0.026,-0.944,0.0
7.024,-0.027,-0.951,0.0
6.772,-0.027,-0.956,0.0
8.253,-0.035,-0.931,0.0
7.892,-0.035,-0.935,0.0
7.551,-0.035,-0.937,0.0
7.267,-0.035,-0.944,0.0
7.027,-0.035,-0.953,0.0
6.77,-0.035,-0.957,0.0
8.212,-0.044,-0.927,0.0
7.878,-0.044,-0.934,0.0
7.547,-0.043,-0.938,0.0
7.27,-0.043,-0.945,0.0
7.018,-0.043,-0.952,0.0
6.77,-0.043,-0.957,0.0
8.21,-0.053,-0.928,0.0
7.863,-0.053,-0.933,0.0
7.563,-0.052,-0.94,0.0
7.242,-0.051,-0.942,0.0
7.004,-0.051,-0.951,0.0
6.774,-0.05,-0.958,0.0
8.205,-0.062,-0.928,0.0
7.871,-0.061,-0.934,0.0
7.534,-0.06,-0.937,0.0
7.283,-0.06,-0.948,0.0
7.008,-0.059,-0.952,0.0
6.762,-0.058,-0.957,0.0
7.883,-0.071,-0.936,0.0
7.547,-0.069,-0.938,0.0
7.253,-0.068,-0.944,0.0
6.959,-0.066,-0.945,0.0
6.785,-0.066,-0.96,0.0
8.207,-0.081,-0.928,0.0
7.877,-0.08,-0.935,0.0
7.565,-0.078,-0.94,0.0
7.277,-0.076,-0.946,0.0
7.042,-0.075,-0.956,0.0
6.767,-0.074,-0.957,0.0
8.216,-0.091,-0.928,0.0
7.878,-0.088,-0.934,0.0
7.551,-0.086,-0.938,0.0
7.292,-0.085,-0.947,0.0
7.016,-0.083,-0.951,0.0
6.775,-0.081,-0.957,0.0
8.232,-0.1,-0.929,0.0
7.891,-0.097,-0.934,0.0
7.574,-0.095,-0.939,0.0
7.267,-0.093,-0.943,0.0
6.996,-0.091,-0.947,0.0
6.769,-0.089,-0.955,0.0
8.237,-0.109,-0.928,0.0
7.915,-0.107,-0.936,0.0
7.565,-0.103,-0.937,0.0
7.293,-0.101,-0.945,0.0
7.028,-0.099,-0.95,0.0
6.748,-0.096,-0.951,0.0
8.264,-0.119,-0.929,0.0
7.928,-0.116,-0.936,0.0
7.601,-0.112,-0.94,0.0
7.296,-0.109,-0.944,0.0
7.054,-0.107,-0.952,0.0
6.777,-0.104,-0.953,0.0
8.275,-0.128,-0.928,0.0
7.95,-0.125,-0.936,0.0
7.59,-0.121,-0.936,0.0
7.303,-0.118,-0.942,0.0
7.092,-0.116,-0.955,0.0
6.819,-0.113,-0.957,0.0
8.286,-0.138,-0.927,0.0
7.942,-0.133,-0.932,0.0
7.608,-0.129,-0.936,0.0
7.317,-0.126,-0.942,0.0
7.101,-0.124,-0.954,0.0
6.832,-0.12,-0.956,0.0
8.321,-0.147,-0.928,0.0
7.954,-0.142,-0.931,0.0
7.682,-0.139,-0.942,0.0
7.34,-0.134,-0.942,0.0
7.088,-0.131,-0.949,0.0
6.846,-0.128,-0.955,0.0
8.332,-0.156,-0.925,0.0
7.996,-0.152,-0.933,0.0
7.679,-0.147,-0.938,0.0
7.386,-0.143,-0.945,0.0
7.139,-0.14,-0.953,0.0
6.829,-0.135,-0.95,0.0
8.38,-0.166,-0.927,0.0
8.039,-0.161,-0.934,0.0
7.711,-0.156,-0.939,0.0
7.4,-0.151,-0.943,0.0
7.145,-0.147,-0.95,0.0
6.903,-0.144,-0.957,0.0
8.398,-0.175,-0.925,0.0
8.089,-0.17,-0.936,0.0
7.751,-0.165,-0.94,0.0
7.44,-0.16,-0.944,0.0
7.172,-0.155,-0.95,0.0
6.898,-0.151,-0.952,0.0
8.448,-0.185,-0.926,0.0
8.105,-0.179,-0.933,0.0
7.77,-0.173,-0.938,0.0
7.468,-0.168,-0.943,0.0
7.203,-0.164,-0.95,0.0
6.928,-0.159,-0.952,0.0
8.484,-0.195,-0.925,0.0
8.143,-0.188,-0.933,0.0
7.808,-0.182,-0.938,0.0
7.49,-0.176,-0.942,0.0
7.217,-0.171,-0.947,0.0
6.97,-0.167,-0.954,0.0
8.542,-0.204,-0.926,0.0
8.192,-0.198,-0.933,0.0
7.84,-0.191,-0.936,0.0
7.482,-0.184,-0.936,0.0
7.255,-0.179,-0.948,0.0
7.005,-0.175,-0.954,0.0
8.594,-0.214,-0.926,0.0
8.227,-0.207,-0.932,0.0
7.885,-0.2,-0.936,0.0
7.522,-0.192,-0.936,0.0
7.292,-0.188,-0.947,0.0
7.038,-0.182,-0.953,0.0
8.655,-0.224,-0.926,0.0
8.261,-0.216,-0.93,0.0
7.945,-0.209,-0.938,0.0
7.603,-0.201,-0.94,0.0
7.31,-0.195,-0.944,0.0
7.092,-0.191,-0.955,0.0
8.7,-0.234,-0.925,0.0
8.33,-0.225,-0.931,0.0
7.987,-0.218,-0.936,0.0
7.667,-0.21,-0.942,0.0
7.369,-0.204,-0.946,0.0
7.119,-0.198,-0.953,0.0
8.774,-0.244,-0.926,0.0
8.39,-0.235,-0.931,0.0
8.034,-0.226,-0.935,0.0
7.684,-0.218,-0.938,0.0
7.42,-0.212,-0.947,0.0
7.15,-0.205,-0.952,0.0
8.84,-0.254,-0.925,0.0
8.433,-0.244,-0.929,0.0
8.097,-0.235,-0.936,0.0
7.752,-0.227,-0.94,0.0
7.459,-0.22,-0.945,0.0
7.202,-0.213,-0.952,0.0
8.899,-0.264,-0.924,0.0
8.495,-0.253,-0.928,0.0
8.158,-0.245,-0.936,0.0
7.816,-0.236,-0.94,0.0
7.494,-0.227,-0.943,0.0
7.258,-0.222,-0.953,0.0
8.958,-0.273,-0.922,0.0
8.57,-0.263,-0.928,0.0
8.196,-0.253,-0.932,0.0
7.865,-0.244,-0.939,0.0
7.542,-0.235,-0.942,0.0
7.305,-0.229,-0.952,0.0
9.048,-0.283,-0.922,0.0
8.64,-0.272,-0.928,0.0
8.269,-0.262,-0.933,0.0
7.912,-0.252,-0.937,0.0
7.64,-0.245,-0.946,0.0
7.322,-0.236,-0.947,0.0
9.116,-0.293,-0.92,0.0
8.734,-0.282,-0.929,0.0
8.357,-0.272,-0.934,0.0
7.971,-0.261,-0.935,0.0
7.698,-0.253,-0.945,0.0
7.388,-0.244,-0.948,0.0
9.229,-0.304,-0.922,0.0
8.778,-0.291,-0.925,0.0
8.402,-0.28,-0.931,0.0
8.018,-0.268,-0.932,0.0
7.751,-0.261,-0.944,0.0
7.44,-0.252,-0.946,0.0
9.334,-0.315,-0.923,0.0
8.916,-0.302,-0.929,0.0
8.448,-0.288,-0.926,0.0
8.119,-0.278,-0.935,0.0
7.792,-0.268,-0.94,0.0
7.514,-0.26,-0.948,0.0
9.426,-0.325,-0.921,0.0
8.974,-0.311,-0.926,0.0
8.584,-0.299,-0.932,0.0
8.187,-0.286,-0.934,0.0
7.852,-0.276,-0.938,0.0
7.577,-0.268,-0.947,0.0
9.508,-0.335,-0.919,0.0
9.034,-0.319,-0.921,0.0
8.661,-0.308,-0.93,0.0
8.288,-0.296,-0.936,0.0
7.941,-0.285,-0.94,0.0
7.644,-0.275,-0.946,0.0
9.602,-0.345,-0.916,0.0
9.19,-0.331,-0.926,0.0
8.725,-0.316,-0.927,0.0
8.357,-0.304,-0.933,0.0
8.011,-0.293,-0.938,0.0
7.711,-0.283,-0.945,0.0
9.714,-0.355,-0.915,0.0
9.267,-0.34,-0.923,0.0
8.849,-0.326,-0.929,0.0
8.443,-0.313,-0.933,0.0
8.096,-0.301,-0.938,0.0
7.775,-0.29,-0.943,0.0
9.857,-0.367,-0.916,0.0
9.397,-0.351,-0.924,0.0
8.912,-0.334,-0.924,0.0
8.564,-0.323,-0.935,0.0
8.175,-0.309,-0.937,0.0
7.829,-0.297,-0.939,0.0
9.97,-0.377,-0.914,0.0
9.488,-0.36,-0.921,0.0
9.001,-0.343,-0.922,0.0
8.63,-0.33,-0.931,0.0
8.279,-0.318,-0.938,0.0
7.943,-0.306,-0.943,0.0
10.067,-0.387,-0.91,0.0
9.59,-0.37,-0.918,0.0
9.153,-0.354,-0.925,0.0
8.733,-0.339,-0.931,0.0
8.338,-0.325,-0.933,0.0
8.032,-0.314,-0.942,0.0
10.205,-0.397,-0.909,0.0
9.709,-0.379,-0.916,0.0
9.279,-0.364,-0.925,0.0
8.834,-0.347,-0.929,0.0
8.452,-0.334,-0.934,0.0
8.085,-0.32,-0.937,0.0
13.728,-0.588,-0.856,0.0
12.871,-0.551,-0.87,0.0
12.125,-0.519,-0.883,0.0
11.384,-0.488,-0.89,0.0
10.885,-0.467,-0.908,0.0
10.315,-0.442,-0.914,0.0
14.221,-0.607,-0.862,0.0
13.099,-0.559,-0.862,0.0
12.361,-0.528,-0.878,0.0
11.605,-0.496,-0.887,0.0
11.033,-0.471,-0.901,0.0
10.497,-0.449,-0.912,0.0
14.517,-0.618,-0.855,0.0
13.44,-0.572,-0.861,0.0
12.593,-0.536,-0.873,0.0
11.891,-0.506,-0.888,0.0
11.295,-0.48,-0.902,0.0
10.686,-0.454,-0.909,0.0
14.93,-0.632,-0.852,0.0
13.887,-0.588,-0.865,0.0
12.881,-0.545,-0.87,0.0
12.128,-0.513,-0.883,0.0
11.39,-0.482,-0.889,0.0
10.894,-0.461,-0.908,0.0
15.337,-0.646,-0.848,0.0
14.24,-0.6,-0.862,0.0
13.022,-0.548,-0.856,0.0
12.387,-0.521,-0.88,0.0
11.707,-0.492,-0.893,0.0
11.1,-0.467,-0.905,0.0
15.685,-0.656,-0.839,0.0
14.558,-0.609,-0.855,0.0
13.43,-0.561,-0.859,0.0
12.632,-0.528,-0.875,0.0
11.968,-0.499,-0.891,0.0
11.279,-0.471,-0.899,0.0
16.198,-0.673,-0.838,0.0
15.01,-0.623,-0.854,0.0
13.849,-0.574,-0.86,0.0
12.89,-0.534,-0.869,0.0
12.167,-0.504,-0.884,0.0
11.479,-0.475,-0.894,0.0
16.594,-0.683,-0.828,0.0
15.365,-0.632,-0.847,0.0
14.262,-0.586,-0.86,0.0
13.059,-0.536,-0.857,0.0
12.407,-0.509,-0.879,0.0
11.721,-0.48,-0.891,0.0
16.917,-0.69,-0.814,0.0
15.624,-0.636,-0.833,0.0
14.607,-0.594,-0.855,0.0
13.441,-0.546,-0.858,0.0
12.669,-0.514,-0.874,0.0
12.039,-0.488,-0.894,0.0
17.697,-0.714,-0.819,0.0
16.241,-0.654,-0.836,0.0
15.054,-0.606,-0.853,0.0
13.915,-0.559,-0.863,0.0
12.951,-0.519,-0.87,0.0
12.251,-0.491,-0.887,0.0
18.174,-0.725,-0.808,0.0
16.789,-0.668,-0.834,0.0
15.371,-0.611,-0.843,0.0
14.296,-0.567,-0.86,0.0
13.221,-0.524,-0.864,0.0
12.498,-0.494,-0.882,0.0
18.927,-0.745,-0.807,0.0
17.125,-0.673,-0.819,0.0
15.805,-0.62,-0.838,0.0
14.665,-0.574,-0.855,0.0
13.589,-0.531,-0.863,0.0
12.725,-0.496,-0.875,0.0
19.432,-0.754,-0.793,0.0
17.811,-0.689,-0.819,0.0
16.306,-0.63,-0.835,0.0
15.145,-0.584,-0.855,0.0
14.068,-0.541,-0.868,0.0
13.003,-0.499,-0.87,0.0
20.066,-0.766,-0.782,0.0
18.285,-0.697,-0.808,0.0
16.785,-0.638,-0.829,0.0
15.54,-0.589,-0.849,0.0
14.408,-0.545,-0.862,0.0
13.352,-0.504,-0.868,0.0
20.615,-0.774,-0.766,0.0
19.065,-0.714,-0.807,0.0
17.368,-0.649,-0.825,0.0
15.881,-0.592,-0.839,0.0
14.771,-0.549,-0.857,0.0
13.757,-0.51,-0.87,0.0
21.419,-0.79,-0.757,0.0
19.531,-0.718,-0.791,0.0
17.917,-0.657,-0.819,0.0
16.406,-0.6,-0.837,0.0
15.136,-0.552,-0.851,0.0
14.14,-0.514,-0.868,0.0
22.153,-0.801,-0.742,0.0
20.17,-0.727,-0.78,0.0
18.477,-0.664,-0.811,0.0
16.869,-0.604,-0.829,0.0
15.638,-0.558,-0.85,0.0
14.486,-0.516,-0.863,0.0
23.072,-0.817,-0.731,0.0
20.736,-0.731,-0.765,0.0
19.14,-0.673,-0.805,0.0
17.472,-0.612,-0.827,1.0
16.019,-0.559,-0.842,0.0
14.841,-0.516,-0.857,0.0
24.076,-0.833,-0.719,0.0
21.599,-0.745,-0.757,0.0
19.666,-0.676,-0.791,0.0
17.824,-0.61,-0.812,1.0
16.556,-0.564,-0.84,0.0
15.271,-0.518,-0.854,0.0
24.928,-0.842,-0.699,0.0
22.313,-0.75,-0.742,0.0
20.283,-0.679,-0.779,0.0
18.502,-0.617,-0.809,0.0
17.089,-0.568,-0.836,0.0
15.669,-0.518,-0.848,0.0
26.193,-0.861,-0.687,0.0
23.157,-0.758,-0.727,4.0
17.804,-0.58,-0.652,1.0
17.839,-0.579,-0.747,1.0
17.679,-0.571,-0.832,1.0
16.063,-0.517,-0.84,0.0
26.968,-0.862,-0.659,0.0
24.374,-0.775,-0.722,0.0
17.793,-0.563,-0.619,6.0
17.809,-0.561,-0.714,94.0
17.785,-0.558,-0.805,2.0
17.607,-0.549,-0.889,1.0
0.0,0.0,0.0,0.0
24.973,-0.77,-0.695,0.0
17.818,-0.547,-0.588,1.0
17.758,-0.542,-0.68,158.0
17.796,-0.541,-0.774,5.0
17.674,-0.534,-0.86,2.0
29.77,-0.894,-0.62,0.0
26.13,-0.78,-0.68,0.0
17.818,-0.529,-0.556,2.0
17.77,-0.524,-0.649,161.0
17.781,-0.522,-0.741,9.0
17.718,-0.517,-0.831,1.0
31.513,-0.914,-0.601,0.0
26.64,-0.767,-0.646,0.0
24.441,-0.7,-0.719,0.0
17.815,-0.507,-0.619,151.0
17.787,-0.503,-0.71,151.0
17.767,-0.499,-0.802,5.0
32.033,-0.894,-0.554,0.0
28.823,-0.799,-0.648,0.0
25.213,-0.694,-0.697,0.0
17.816,-0.487,-0.587,2.0
17.794,-0.484,-0.679,153.0
17.778,-0.48,-0.771,11.0
0.0,0.0,0.0,0.0
30.213,-0.804,-0.626,0.0
26.402,-0.698,-0.684,0.0
23.411,-0.614,-0.731,0.0
17.812,-0.464,-0.649,41.0
17.808,-0.46,-0.741,3.0
37.238,-0.956,-0.514,0.0
31.252,-0.796,-0.594,0.0
27.617,-0.698,-0.668,0.0
24.384,-0.611,-0.719,0.0
21.635,-0.538,-0.751,1.0
19.86,-0.49,-0.792,1.0
0.0,0.0,0.0,0.0
32.093,-0.78,-0.555,0.0
29.089,-0.701,-0.654,0.0
21.718,-0.519,-0.603,5.0
21.714,-0.514,-0.716,3.0
20.396,-0.479,-0.779,0.0
0.0,0.0,0.0,0.0
0.0,0.0,0.0,0.0
29.83,-0.682,-0.62,0.0
21.728,-0.492,-0.567,152.0
21.698,-0.487,-0.679,10.0
21.18,-0.471,-0.773,1.0
0.0,0.0,0.0,0.0
0.0,0.0,0.0,0.0
31.696,-0.685,-0.605,0.0
21.724,-0.465,-0.53,70.0
21.689,-0.459,-0.642,156.0
21.653,-0.454,-0.754,7.0
0.0,0.0,0.0,0.0
0.0,0.0,0.0,0.0
31.915,-0.649,-0.557,0.0
21.738,-0.437,-0.495,2.0
21.715,-0.432,-0.607,154.0
21.701,-0.427,-0.72,4.0
0.0,0.0,0.0,0.0
0.0,0.0,0.0,0.0
33.667,-0.64,-0.532,0.0
29.856,-0.56,-0.63,0.0
21.695,-0.402,-0.571,1.0
21.741,-0.398,-0.686,0.0
0.0,0.0,0.0,0.0
0.0,0.0,0.0,0.0
0.0,0.0,0.0,0.0
30.992,-0.539,-0.604,0.0
26.94,-0.463,-0.666,0.0
24.26,-0.411,-0.726,0.0
0.0,0.0,0.0,0.0
0.0,0.0,0.0,0.0
0.0,0.0,0.0,0.0
31.886,-0.51,-0.57,0.0
28.219,-0.445,-0.652,0.0
24.968,-0.388,-0.708,0.0
0.0,0.0,0.0,0.0
0.0,0.0,0.0,0.0
41.033,-0.608,-0.45,0.0
33.66,-0.491,-0.549,0.0
29.57,-0.424,-0.637,0.0
25.833,-0.364,-0.691,0.0
0.0,0.0,0.0,0.0
0.0,0.0,0.0,0.0
0.0,0.0,0.0,0.0
0.0,0.0,0.0,0.0
30.827,-0.397,-0.616,1.0
26.556,-0.336,-0.67,0.0
0.0,0.0,0.0,0.0
0.0,0.0,0.0,0.0
0.0,0.0,0.0,0.0
0.0,0.0,0.0,0.0
31.868,-0.363,-0.588,0.0
28.01,-0.312,-0.664,0.0
0.0,0.0,0.0,0.0
0.0,0.0,0.0,0.0
0.0,0.0,0.0,0.0
19.791,-0.2,-0.231,0.0
19.77,-0.195,-0.335,2.0
19.764,-0.19,-0.438,8.0
160.821,-1.509,0.901,8.0
0.0,0.0,0.0,0.0
19.768,-0.175,-0.096,6.0
19.753,-0.169,-0.202,12.0
19.741,-0.164,-0.305,14.0
19.744,-0.159,-0.409,16.0
160.738,-1.26,1.136,18.0
19.802,-0.149,0.036,0.0
19.761,-0.144,-0.067,9.0
19.713,-0.138,-0.173,16.0
19.739,-0.133,-0.276,17.0
19.745,-0.128,-0.38,17.0
19.744,-0.123,0.168,9.0
19.737,-0.118,0.064,9.0
19.725,-0.112,-0.039,11.0
19.71,-0.107,-0.144,16.0
19.732,-0.102,-0.248,16.0
19.752,-0.097,-0.353,14.0
19.711,-0.091,0.195,17.0
19.707,-0.086,0.092,13.0
19.698,-0.08,-0.011,15.0
19.703,-0.075,-0.117,16.0
19.73,-0.07,-0.221,15.0
19.756,-0.065,-0.325,14.0
19.663,-0.059,0.222,15.0
19.694,-0.054,0.119,17.0
19.7,-0.048,0.015,16.0
19.733,-0.043,-0.09,12.0
19.749,-0.038,-0.194,13.0
19.783,-0.032,-0.299,0.0
19.634,-0.026,0.249,13.0
19.698,-0.021,0.146,5.0
19.698,-0.016,0.042,10.0
19.73,-0.01,-0.063,9.0
19.781,-0.005,-0.168,0.0
0.0,0.0,0.0,0.0
19.632,0.005,0.275,14.0
19.686,0.011,0.172,6.0
19.766,0.017,0.068,7.0
19.744,0.022,-0.037,66.0
19.751,0.028,-0.142,10.0
19.764,0.034,-0.246,14.0
19.619,0.039,0.3,13.0
19.638,0.045,0.197,13.0
19.745,0.051,0.094,39.0
19.747,0.057,-0.012,41.0
19.765,0.062,-0.116,69.0
19.762,0.068,-0.221,38.0
19.614,0.073,0.326,17.0
19.621,0.079,0.222,16.0
19.678,0.085,0.118,12.0
19.676,0.09,0.012,9.0
19.705,0.096,-0.091,1.0
41.89,0.217,-0.417,0.0
19.613,0.107,0.35,18.0
19.612,0.113,0.246,10.0
19.647,0.119,0.142,15.0
19.63,0.124,0.036,14.0
19.651,0.13,-0.067,10.0
19.672,0.136,-0.171,9.0
19.624,0.142,0.374,12.0
19.631,0.148,0.27,10.0
19.658,0.154,0.166,13.0
19.635,0.16,0.06,12.0
19.636,0.165,-0.044,15.0
19.639,0.171,-0.148,15.0
19.661,0.178,0.398,11.0
19.684,0.183,0.294,9.0
19.671,0.189,0.189,10.0
19.67,0.195,0.082,12.0
19.652,0.201,-0.021,13.0
19.634,0.207,-0.125,17.0
19.72,0.214,0.422,11.0
19.721,0.22,0.317,10.0
19.751,0.226,0.212,23.0
19.74,0.232,0.105,19.0
19.699,0.237,0.0,4.0
19.651,0.242,-0.103,15.0
19.685,0.249,0.443,11.0
19.707,0.256,0.339,13.0
19.719,0.262,0.234,14.0
19.774,0.268,0.127,6.0
0.0,0.0,0.0,0.0
19.707,0.28,-0.082,2.0
19.702,0.286,0.465,12.0
19.718,0.293,0.36,11.0
19.767,0.3,0.256,1.0
160.69,2.488,1.211,12.0
55.221,0.871,0.121,0.0
52.447,0.843,-0.164,4.0
55.206,0.907,1.363,19.0
55.181,0.924,1.068,48.0
55.174,0.94,0.773,67.0
55.16,0.957,0.472,78.0
55.166,0.974,0.178,73.0
55.116,0.99,-0.116,7.0
55.201,1.011,1.419,50.0
55.203,1.028,1.124,30.0
55.211,1.045,0.829,14.0
162.896,3.134,1.558,18.0
0.0,0.0,0.0,0.0
55.112,1.094,-0.062,16.0
163.478,3.307,4.366,3.0
179.287,3.681,3.827,26.0
163.664,3.41,2.616,12.0
128.625,2.718,1.354,19.0
113.087,2.425,0.585,8.0
55.941,1.217,-0.01,1.0
138.76,3.07,3.836,57.0
179.187,4.021,3.993,15.0
179.188,4.075,3.032,7.0
71.04,1.637,0.813,8.0
70.856,1.655,0.431,9.0
0.0,0.0,0.0,0.0
99.652,2.397,2.846,48.0
99.675,2.427,2.311,48.0
128.92,3.179,2.296,5.0
70.813,1.767,0.874,23.0
70.649,1.784,0.491,23.0
0.0,0.0,0.0,0.0
0.0,0.0,0.0,0.0
43.716,1.148,1.051,73.0
0.0,0.0,0.0,0.0
0.0,0.0,0.0,0.0
41.945,1.141,0.327,150.0
0.0,0.0,0.0,0.0
41.867,1.169,1.267,30.0
40.136,1.133,0.998,113.0
40.127,1.145,0.782,130.0
40.111,1.157,0.562,150.0
40.127,1.17,0.346,132.0
40.127,1.182,0.129,149.0
40.131,1.199,1.247,148.0
40.114,1.21,1.029,150.0
40.126,1.223,0.813,150.0
40.118,1.235,0.593,150.0
40.132,1.247,0.376,118.0
40.12,1.259,0.16,141.0
40.116,1.276,1.277,150.0
40.123,1.288,1.06,150.0
40.121,1.301,0.843,150.0
40.117,1.313,0.622,122.0
40.11,1.325,0.405,37.0
40.121,1.338,0.189,4.0
120.884,4.084,3.935,21.0
121.313,4.135,3.292,9.0
162.587,5.592,3.533,4.0
162.195,5.628,2.63,10.0
70.928,2.483,0.766,25.0
73.176,2.584,0.395,4.0
120.821,4.321,4.016,13.0
44.557,1.607,1.239,38.0
44.117,1.604,0.988,84.0
43.612,1.599,0.736,78.0
43.579,1.612,0.499,126.0
43.41,1.618,0.262,151.0
162.545,6.134,5.508,7.0
41.524,1.579,1.181,57.0
41.522,1.591,0.956,97.0
40.465,1.563,0.708,124.0
40.406,1.574,0.488,150.0
40.385,1.585,0.268,150.0
178.996,7.108,6.174,13.0
40.359,1.614,1.172,21.0
40.358,1.627,0.953,3.0
100.454,4.081,1.817,10.0
100.542,4.116,1.273,14.0
63.952,2.637,0.462,2.0
23.59,0.983,0.827,0.0
23.619,0.991,0.699,2.0
45.203,1.911,1.092,10.0
23.627,1.006,0.44,38.0
23.615,1.013,0.311,44.0
23.614,1.02,0.183,47.0
23.599,1.03,0.839,45.0
23.586,1.036,0.71,61.0
23.593,1.044,0.582,152.0
23.587,1.051,0.451,93.0
23.592,1.058,0.323,74.0
23.6,1.066,0.194,69.0
23.585,1.076,0.851,72.0
23.581,1.083,0.722,68.0
23.579,1.09,0.593,70.0
23.587,1.097,0.462,58.0
23.592,1.105,0.333,48.0
23.609,1.112,0.205,40.0
23.61,1.124,0.862,40.0
23.624,1.132,0.734,35.0
23.6,1.137,0.604,17.0
23.608,1.145,0.473,7.0
23.653,1.154,0.344,1.0
23.635,1.16,0.215,0.0
179.209,8.887,6.62,7.0
0.0,0.0,0.0,0.0
45.198,2.267,1.174,58.0
45.2,2.281,0.923,94.0
45.224,2.296,0.676,13.0
99.829,5.099,0.946,12.0
180.154,9.289,6.721,21.0
162.786,8.442,5.181,9.0
45.192,2.356,1.19,1.0
45.24,2.371,0.939,0.0
45.217,2.383,0.691,3.0
45.206,2.396,0.443,71.0
180.876,9.679,6.808,17.0
162.694,8.753,5.231,8.0
45.194,2.445,1.205,3.0
0.0,0.0,0.0,0.0
99.563,5.443,1.552,2.0
119.949,6.594,1.212,10.0
180.832,10.033,6.86,15.0
162.654,9.071,5.277,15.0
45.197,2.533,1.217,35.0
45.189,2.546,0.964,1.0
45.264,2.564,0.717,0.0
99.694,5.677,1.033,9.0
198.437,11.404,7.579,18.0
162.588,9.387,5.314,11.0
45.197,2.622,1.228,5.0
45.194,2.635,0.975,3.0
45.215,2.649,0.726,13.0
45.213,2.662,0.478,150.0
197.461,11.73,7.583,11.0
162.637,9.708,5.35,12.0
45.181,2.709,1.237,5.0
134.487,8.102,2.927,34.0
113.596,6.876,1.847,1.0
99.749,6.067,1.073,10.0
197.636,12.124,7.623,18.0
162.6,10.02,5.375,9.0
45.188,2.797,1.244,48.0
45.21,2.811,0.991,10.0
112.415,7.021,1.844,11.0
99.769,6.259,1.087,8.0
197.871,12.518,7.659,5.0
100.787,6.404,3.344,4.0
45.194,2.884,1.25,8.0
45.152,2.893,0.994,1.0
45.201,2.909,0.746,4.0
45.208,2.922,0.496,50.0
99.948,6.516,3.878,35.0
99.963,6.544,3.326,39.0
45.041,2.96,1.249,48.0
44.909,2.964,0.992,116.0
44.753,2.966,0.741,136.0
44.592,2.967,0.492,112.0
99.962,6.707,3.884,32.0
99.979,6.735,3.331,38.0
43.567,2.946,1.21,67.0
43.452,2.95,0.962,85.0
41.221,2.809,0.684,3.0
41.514,2.841,0.459,39.0
99.979,6.897,3.886,34.0
99.98,6.922,3.332,37.0
42.036,2.921,1.167,116.0
41.132,2.869,0.91,89.0
41.988,2.94,0.696,119.0
41.822,2.94,0.462,117.0
99.953,7.082,3.883,22.0
45.453,3.231,1.513,4.0
41.06,2.93,1.139,72.0
40.743,2.917,0.9,95.0
40.827,2.934,0.675,121.0
40.429,2.916,0.444,100.0
45.473,3.305,1.764,150.0
45.48,3.317,1.511,150.0
40.374,2.955,1.117,117.0
45.475,3.34,1.001,85.0
0.0,0.0,0.0,0.0
45.476,3.364,0.496,7.0
43.676,3.255,1.69,150.0
43.688,3.266,1.447,141.0
43.697,3.278,1.204,132.0
43.693,3.289,0.956,135.0
43.698,3.301,0.713,135.0
43.706,3.312,0.47,123.0
43.688,3.336,1.685,147.0
0.0,0.0,0.0,0.0
0.0,0.0,0.0,0.0
41.875,3.228,0.91,6.0
41.901,3.24,0.677,62.0
41.896,3.251,0.444,150.0
41.893,3.274,1.608,137.0
41.908,3.285,1.375,122.0
41.895,3.294,1.141,116.0
41.909,3.305,0.903,119.0
41.899,3.315,0.669,118.0
41.909,3.327,0.435,116.0
0.0,0.0,0.0,0.0
40.106,3.215,1.307,5.0
40.076,3.223,1.082,29.0
40.099,3.234,0.854,93.0
40.105,3.245,0.631,148.0
40.104,3.255,0.407,103.0
40.097,3.277,1.521,150.0
40.095,3.286,1.296,132.0
40.091,3.295,1.072,150.0
40.092,3.305,0.844,138.0
40.102,3.315,0.62,109.0
40.105,3.325,0.396,107.0
40.088,3.346,1.509,136.0
40.101,3.357,1.285,130.0
40.095,3.365,1.06,150.0
40.101,3.375,0.832,104.0
40.105,3.385,0.608,111.0
40.1,3.394,0.383,103.0
40.089,3.415,1.496,10.0
40.062,3.422,1.271,4.0
75.421,6.459,1.97,7.0
75.315,6.468,1.538,8.0
75.137,6.47,1.113,6.0
75.024,6.478,0.691,8.0
87.097,7.569,3.221,21.0
74.062,6.452,2.322,3.0
73.957,6.459,1.904,8.0
73.823,6.464,1.479,13.0
73.786,6.477,1.065,15.0
73.665,6.484,0.65,13.0
83.021,7.353,3.038,3.0
72.813,6.465,2.255,7.0
72.687,6.47,1.842,7.0
72.551,6.473,1.424,9.0
72.47,6.482,1.017,9.0
72.381,6.49,0.608,7.0
82.928,7.481,2.999,37.0
71.524,6.468,2.184,9.0
71.433,6.475,1.78,10.0
71.32,6.48,1.368,10.0
71.209,6.485,0.967,10.0
71.101,6.491,0.566,8.0
82.944,7.618,2.961,3.0
70.264,6.467,2.113,9.0
70.215,6.477,1.717,10.0
70.146,6.485,1.313,11.0
70.01,6.488,0.917,11.0
69.943,6.497,0.523,3.0
69.178,6.463,2.436,4.0
69.125,6.471,2.045,8.0
69.022,6.475,1.653,11.0
68.943,6.482,1.256,11.0
68.86,6.489,0.867,8.0
68.69,6.488,0.479,2.0
68.012,6.46,2.36,6.0
67.949,6.468,1.974,9.0
67.922,6.478,1.591,7.0
67.856,6.485,1.2,8.0
67.73,6.487,0.816,9.0
67.653,6.494,0.434,2.0
66.955,6.462,2.286,5.0
66.879,6.467,1.906,7.0
66.848,6.478,1.528,7.0
66.8,6.486,1.143,8.0
66.752,6.495,0.766,9.0
49.882,4.863,0.291,7.0
65.992,6.469,2.215,9.0
66.011,6.482,1.842,8.0
65.917,6.486,1.468,8.0
65.828,6.489,1.088,10.0
65.724,6.491,0.715,7.0
49.888,4.937,0.261,6.0
65.025,6.468,2.143,6.0
65.01,6.479,1.775,7.0
64.935,6.484,1.405,8.0
64.87,6.49,1.031,8.0
64.795,6.494,0.663,9.0
56.355,5.659,0.259,4.0
64.165,6.475,2.073,8.0
64.121,6.482,1.709,9.0
64.079,6.489,1.345,8.0
64.005,6.493,0.975,7.0
63.925,6.497,0.613,7.0
49.691,5.06,0.195,4.0
63.32,6.479,2.003,10.0
63.307,6.488,1.644,13.0
63.266,6.495,1.285,9.0
63.208,6.5,0.92,9.0
63.179,6.509,0.562,11.0
47.587,4.911,0.154,7.0
62.513,6.483,1.934,6.0
62.485,6.49,1.578,7.0
62.484,6.5,1.225,7.0
62.432,6.506,0.863,9.0
62.358,6.51,0.509,7.0
46.788,4.893,0.117,18.0
61.71,6.483,1.863,12.0
61.714,6.493,1.513,13.0
61.686,6.5,1.163,11.0
61.662,6.508,0.807,13.0
61.65,6.517,0.457,10.0
46.571,4.931,0.081,19.0
60.974,6.485,1.795,7.0
60.927,6.489,1.448,7.0
60.915,6.497,1.102,7.0
60.885,6.504,0.75,8.0
60.917,6.517,0.405,3.0
45.913,4.92,0.045,20.0
60.28,6.487,1.728,4.0
60.186,6.486,1.383,5.0
60.18,6.494,1.041,3.0
60.131,6.499,0.693,3.0
59.989,6.493,0.351,2.0
45.217,4.902,0.008,20.0
59.623,6.49,1.661,6.0
59.604,6.497,1.321,6.0
59.558,6.501,0.982,5.0
59.489,6.502,0.636,5.0
59.519,6.514,0.299,1.0
44.191,4.844,-0.028,18.0
58.965,6.49,1.593,10.0
58.975,6.499,1.258,10.0
58.962,6.506,0.922,12.0
58.944,6.512,0.581,10.0
58.901,6.516,0.246,1.0
0.0,0.0,0.0,0.0
58.436,6.499,1.529,8.0
58.407,6.503,1.195,11.0
58.386,6.509,0.863,6.0
58.385,6.517,0.525,5.0
47.317,5.288,0.156,2.0
42.382,4.743,-0.1,17.0
57.884,6.502,1.464,9.0
57.856,6.506,1.133,9.0
57.851,6.513,0.804,7.0
57.835,6.519,0.468,5.0
46.572,5.256,0.112,13.0
38.886,4.394,-0.127,15.0
57.343,6.503,1.398,11.0
57.335,6.509,1.071,10.0
57.36,6.52,0.745,10.0
57.335,6.524,0.412,5.0
46.126,5.255,0.068,18.0
37.158,4.238,-0.155,26.0
56.824,6.504,1.333,9.0
56.854,6.514,1.009,10.0
56.815,6.516,0.685,6.0
56.767,6.518,0.356,3.0
37.166,4.272,0.021,4.0
36.486,4.199,-0.187,12.0
56.33,6.504,1.268,11.0
56.361,6.514,0.948,13.0
56.356,6.519,0.625,14.0
56.322,6.522,0.299,3.0
43.808,5.078,-0.016,19.0
35.738,4.148,-0.217,17.0
55.9,6.508,1.205,14.0
55.915,6.515,0.886,13.0
55.912,6.521,0.567,13.0
51.328,5.992,0.223,7.0
42.607,4.979,-0.057,17.0
35.329,4.133,-0.249,15.0
55.481,6.51,1.141,14.0
55.462,6.513,0.825,13.0
55.478,6.52,0.508,13.0
51.318,6.037,0.172,10.0
38.596,4.545,-0.09,13.0
34.498,4.067,-0.278,11.0
55.021,6.504,1.077,12.0
55.044,6.512,0.763,12.0
55.049,6.518,0.449,15.0
46.133,5.467,0.108,15.0
38.085,4.517,-0.127,16.0
33.505,3.978,-0.303,10.0
54.643,6.505,1.014,12.0
54.684,6.515,0.703,12.0
54.667,6.517,0.39,12.0
45.418,5.42,0.06,20.0
36.924,4.41,-0.161,15.0
33.318,3.983,-0.336,3.0
54.313,6.509,0.952,13.0
54.34,6.517,0.642,14.0
54.334,6.521,0.331,5.0
44.568,5.353,0.012,19.0
35.424,4.258,-0.192,12.0
18.101,2.177,-0.201,14.0
53.992,6.511,0.89,12.0
53.988,6.514,0.581,10.0
53.98,6.518,0.272,2.0
40.421,4.885,-0.031,8.0
34.846,4.214,-0.226,5.0
18.105,2.191,-0.221,15.0
53.711,6.515,0.827,13.0
53.692,6.517,0.52,14.0
53.708,6.523,0.213,2.0
40.403,4.91,-0.074,3.0
18.063,2.197,-0.136,15.0
18.113,2.204,-0.24,7.0
53.409,6.514,0.765,11.0
53.399,6.516,0.46,11.0
46.364,5.661,0.133,8.0
36.23,4.426,-0.105,5.0
18.068,2.209,-0.156,14.0
28.148,3.444,-0.404,7.0
53.142,6.514,0.704,13.0
53.175,6.522,0.399,12.0
0.0,0.0,0.0,0.0
18.039,2.215,-0.072,12.0
17.881,2.197,-0.174,10.0
27.041,3.325,-0.418,7.0
52.931,6.519,0.643,12.0
52.927,6.521,0.34,8.0
17.999,2.218,0.012,0.0
18.028,2.223,-0.092,15.0
31.122,3.841,-0.337,2.0
26.23,3.239,-0.434,6.0
52.701,6.518,0.582,10.0
52.719,6.523,0.28,4.0
18.024,2.231,-0.007,8.0
18.049,2.235,-0.112,11.0
30.45,3.773,-0.364,8.0
17.443,2.163,-0.308,9.0
52.534,6.523,0.521,10.0
42.802,5.316,0.18,2.0
18.022,2.239,-0.027,15.0
33.182,4.125,-0.244,5.0
29.326,3.648,-0.383,8.0
