X,Y,Z,Reflectivity
11.881,-0.164,-0.879,0.0
11.149,-0.155,-0.891,0.0
10.551,-0.149,-0.904,0.0
9.943,-0.141,-0.91,0.0
13.356,-0.193,-0.853,0.0
12.407,-0.182,-0.864,0.0
11.69,-0.173,-0.882,0.0
10.972,-0.164,-0.893,0.0
10.373,-0.156,-0.905,0.0
9.799,-0.149,-0.912,0.0
13.032,-0.202,-0.852,0.0
12.212,-0.191,-0.869,0.0
11.489,-0.181,-0.884,0.0
10.826,-0.173,-0.897,0.0
10.207,-0.164,-0.906,0.0
9.664,-0.157,-0.914,0.0
12.83,-0.212,-0.857,0.0
12.02,-0.2,-0.873,0.0
11.299,-0.19,-0.886,0.0
10.664,-0.181,-0.9,0.0
10.082,-0.173,-0.909,0.0
9.56,-0.165,-0.918,0.0
12.639,-0.222,-0.863,0.0
11.878,-0.211,-0.88,0.0
11.154,-0.2,-0.891,0.0
10.52,-0.19,-0.903,0.0
9.944,-0.181,-0.911,0.0
9.414,-0.173,-0.918,0.0
12.421,-0.232,-0.866,0.0
11.702,-0.22,-0.883,0.0
10.987,-0.209,-0.893,0.0
10.352,-0.198,-0.903,0.0
9.8,-0.189,-0.912,0.0
9.247,-0.18,-0.914,0.0
12.279,-0.242,-0.872,0.0
11.507,-0.229,-0.884,0.0
10.847,-0.218,-0.896,0.0
10.242,-0.207,-0.907,0.0
9.699,-0.198,-0.915,0.0
9.196,-0.189,-0.922,0.0
12.077,-0.252,-0.874,0.0
11.323,-0.238,-0.885,0.0
10.708,-0.227,-0.899,0.0
10.111,-0.216,-0.909,0.0
9.573,-0.206,-0.916,0.0
9.091,-0.197,-0.923,0.0
11.887,-0.261,-0.876,0.0
11.168,-0.247,-0.887,0.0
10.552,-0.236,-0.9,0.0
9.981,-0.225,-0.91,0.0
9.467,-0.215,-0.918,0.0
8.943,-0.205,-0.919,0.0
11.746,-0.272,-0.88,0.0
11.034,-0.257,-0.891,0.0
10.424,-0.245,-0.902,0.0
9.859,-0.233,-0.911,0.0
9.364,-0.223,-0.92,0.0
8.854,-0.213,-0.921,0.0
11.609,-0.282,-0.884,0.0
10.908,-0.267,-0.894,0.0
10.32,-0.254,-0.905,0.0
9.742,-0.242,-0.912,0.0
9.279,-0.232,-0.922,0.0
8.778,-0.221,-0.924,0.0
11.483,-0.292,-0.888,0.0
10.788,-0.277,-0.896,0.0
10.221,-0.264,-0.908,0.0
9.651,-0.251,-0.915,0.0
9.145,-0.24,-0.92,0.0
8.707,-0.23,-0.926,0.0
11.309,-0.302,-0.887,0.0
10.671,-0.287,-0.899,0.0
10.101,-0.273,-0.909,0.0
9.563,-0.26,-0.917,0.0
9.079,-0.249,-0.923,0.0
8.615,-0.238,-0.926,0.0
11.149,-0.311,-0.887,0.0
10.549,-0.296,-0.9,0.0
9.994,-0.282,-0.91,0.0
9.469,-0.27,-0.918,0.0
8.949,-0.257,-0.92,0.0
8.54,-0.247,-0.927,0.0
11.04,-0.321,-0.89,0.0
10.477,-0.307,-0.905,0.0
9.907,-0.292,-0.913,0.0
9.39,-0.279,-0.921,0.0
8.885,-0.266,-0.922,0.0
8.491,-0.256,-0.931,0.0
10.921,-0.331,-0.891,0.0
10.329,-0.315,-0.902,0.0
9.792,-0.301,-0.912,0.0
9.303,-0.288,-0.921,0.0
8.816,-0.275,-0.924,0.0
8.424,-0.264,-0.932,0.0
10.833,-0.342,-0.895,0.0
10.255,-0.326,-0.906,0.0
9.703,-0.31,-0.913,0.0
9.187,-0.296,-0.919,0.0
8.772,-0.284,-0.928,0.0
8.363,-0.273,-0.933,0.0
10.731,-0.353,-0.896,0.0
10.148,-0.336,-0.906,0.0
9.607,-0.32,-0.913,0.0
9.139,-0.306,-0.922,0.0
8.696,-0.293,-0.928,0.0
8.304,-0.282,-0.934,0.0
10.65,-0.363,-0.899,0.0
10.057,-0.345,-0.907,0.0
9.57,-0.331,-0.918,0.0
9.082,-0.316,-0.924,0.0
8.65,-0.303,-0.93,0.0
8.25,-0.29,-0.935,0.0
10.557,-0.374,-0.9,0.0
10.004,-0.356,-0.91,0.0
9.473,-0.339,-0.916,0.0
9.016,-0.325,-0.925,0.0
8.598,-0.312,-0.932,0.0
8.208,-0.3,-0.937,0.0
10.472,-0.384,-0.901,0.0
9.945,-0.367,-0.913,0.0
9.41,-0.349,-0.918,0.0
8.96,-0.335,-0.926,0.0
8.538,-0.321,-0.932,0.0
8.143,-0.308,-0.936,0.0
10.414,-0.396,-0.904,0.0
9.872,-0.377,-0.914,0.0
9.354,-0.36,-0.92,0.0
8.902,-0.344,-0.927,0.0
8.456,-0.329,-0.929,0.0
8.092,-0.317,-0.936,0.0
10.331,-0.406,-0.904,0.0
9.791,-0.387,-0.913,0.0
9.301,-0.37,-0.921,0.0
8.833,-0.353,-0.926,0.0
8.435,-0.339,-0.933,0.0
8.064,-0.326,-0.938,0.0
10.26,-0.417,-0.905,0.0
9.744,-0.398,-0.915,0.0
9.255,-0.38,-0.922,0.0
8.784,-0.363,-0.927,0.0
8.394,-0.349,-0.934,0.0
8.015,-0.335,-0.938,0.0
10.209,-0.428,-0.907,0.0
9.672,-0.408,-0.915,0.0
9.186,-0.389,-0.921,0.0
8.733,-0.372,-0.927,0.0
8.344,-0.358,-0.933,0.0
7.971,-0.343,-0.938,0.0
10.602,-0.849,-0.901,0.0
10.106,-0.811,-0.914,0.0
9.617,-0.774,-0.922,0.0
9.148,-0.738,-0.928,0.0
8.758,-0.708,-0.937,0.0
8.325,-0.675,-0.936,0.0
10.706,-0.866,-0.901,0.0
10.164,-0.824,-0.911,0.0
9.696,-0.788,-0.922,0.0
9.226,-0.751,-0.929,0.0
8.811,-0.719,-0.935,0.0
8.368,-0.685,-0.934,0.0
10.873,-0.888,-0.906,0.0
10.234,-0.838,-0.909,0.0
9.763,-0.801,-0.92,0.0
9.266,-0.762,-0.925,0.0
8.874,-0.731,-0.934,0.0
8.471,-0.699,-0.938,0.0
10.97,-0.904,-0.905,0.0
10.356,-0.855,-0.91,0.0
9.869,-0.817,-0.921,0.0
9.369,-0.777,-0.927,0.0
8.949,-0.744,-0.934,0.0
8.544,-0.712,-0.938,0.0
11.08,-0.921,-0.904,0.0
10.456,-0.871,-0.909,0.0
9.986,-0.833,-0.923,0.0
9.439,-0.789,-0.925,0.0
9.021,-0.756,-0.933,0.0
8.605,-0.723,-0.937,0.0
11.168,-0.936,-0.9,0.0
10.58,-0.888,-0.91,0.0
10.034,-0.844,-0.918,0.0
9.495,-0.8,-0.921,0.0
9.078,-0.767,-0.93,0.0
8.66,-0.733,-0.935,0.0
11.256,-0.951,-0.897,0.0
10.663,-0.902,-0.907,0.0
10.112,-0.857,-0.915,0.0
9.561,-0.812,-0.918,0.0
9.19,-0.782,-0.932,0.0
8.751,-0.746,-0.935,0.0
11.478,-0.976,-0.903,0.0
10.865,-0.926,-0.913,0.0
10.217,-0.872,-0.914,0.0
9.696,-0.829,-0.921,0.0
9.277,-0.794,-0.932,0.0
8.832,-0.758,-0.935,0.0
11.541,-0.988,-0.896,0.0
10.856,-0.931,-0.901,0.0
10.344,-0.888,-0.915,0.0
9.797,-0.843,-0.92,0.0
9.371,-0.808,-0.931,0.0
8.919,-0.77,-0.935,0.0
11.65,-1.004,-0.892,0.0
11.01,-0.95,-0.902,0.0
10.425,-0.901,-0.911,0.0
9.921,-0.859,-0.921,0.0
9.436,-0.818,-0.927,0.0
8.985,-0.78,-0.932,0.0
11.83,-1.025,-0.893,0.0
11.141,-0.967,-0.901,0.0
10.519,-0.914,-0.907,0.0
10.072,-0.876,-0.924,0.0
9.488,-0.827,-0.922,0.0
9.09,-0.793,-0.932,0.0
12.033,-1.048,-0.895,0.0
11.288,-0.984,-0.9,0.0
10.627,-0.928,-0.905,0.0
10.15,-0.888,-0.92,0.0
9.62,-0.843,-0.924,0.0
9.227,-0.809,-0.936,0.0
12.134,-1.062,-0.889,0.0
11.439,-1.002,-0.899,0.0
10.838,-0.951,-0.91,0.0
10.206,-0.897,-0.913,0.0
9.737,-0.857,-0.924,0.0
9.325,-0.821,-0.935,0.0
12.259,-1.078,-0.884,0.0
11.585,-1.02,-0.897,0.0
10.956,-0.965,-0.907,0.0
10.349,-0.913,-0.914,0.0
9.833,-0.869,-0.921,0.0
9.403,-0.832,-0.931,0.0
12.375,-1.092,-0.877,0.0
11.742,-1.037,-0.895,0.0
11.034,-0.976,-0.9,0.0
10.445,-0.925,-0.909,0.0
10.007,-0.887,-0.925,0.0
9.484,-0.842,-0.928,0.0
12.601,-1.116,-0.878,0.0
11.919,-1.056,-0.894,0.0
11.176,-0.992,-0.898,0.0
10.621,-0.943,-0.912,0.0
10.125,-0.9,-0.924,0.0
9.597,-0.854,-0.927,0.0
12.8,-1.137,-0.876,0.0
12.077,-1.074,-0.891,0.0
11.395,-1.014,-0.902,0.0
10.756,-0.958,-0.91,0.0
10.201,-0.909,-0.918,0.0
9.71,-0.866,-0.926,0.0
13.051,-1.162,-0.877,0.0
12.251,-1.092,-0.889,0.0
11.48,-1.024,-0.894,0.0
10.914,-0.974,-0.91,0.0
10.316,-0.921,-0.915,0.0
9.809,-0.877,-0.923,0.0
13.22,-1.179,-0.872,0.0
12.397,-1.107,-0.883,0.0
11.715,-1.047,-0.897,0.0
10.999,-0.983,-0.902,0.0
10.39,-0.93,-0.908,0.0
9.989,-0.894,-0.927,0.0
13.506,-1.207,-0.873,0.0
12.515,-1.119,-0.876,0.0
11.865,-1.061,-0.893,0.0
11.188,-1.002,-0.903,0.0
10.637,-0.953,-0.916,0.0
10.118,-0.907,-0.925,0.0
13.734,-1.229,-0.87,0.0
12.724,-1.139,-0.874,0.0
12.092,-1.083,-0.895,0.0
11.405,-1.022,-0.906,0.0
10.79,-0.967,-0.915,0.0
10.198,-0.915,-0.919,0.0
13.992,-1.252,-0.868,0.0
12.966,-1.161,-0.873,0.0
12.228,-1.095,-0.888,0.0
11.51,-1.032,-0.899,0.0
10.845,-0.972,-0.905,0.0
10.364,-0.93,-0.92,0.0
14.267,-1.277,-0.866,0.0
13.219,-1.184,-0.872,0.0
12.388,-1.11,-0.883,0.0
11.728,-1.051,-0.9,0.0
11.053,-0.991,-0.907,0.0
10.437,-0.936,-0.912,0.0
14.572,-1.304,-0.864,0.0
13.532,-1.211,-0.874,0.0
12.539,-1.123,-0.877,0.0
11.897,-1.065,-0.896,0.0
11.218,-1.005,-0.905,0.0
10.665,-0.956,-0.917,0.0
14.778,-1.321,-0.856,0.0
13.759,-1.23,-0.87,0.0
12.833,-1.148,-0.88,0.0
12.064,-1.079,-0.892,0.0
11.408,-1.021,-0.904,0.0
10.764,-0.963,-0.911,0.0
15.115,-1.35,-0.855,0.0
14.081,-1.258,-0.871,0.0
13.092,-1.169,-0.879,0.0
12.264,-1.095,-0.89,0.0
11.603,-1.036,-0.904,0.0
10.918,-0.975,-0.908,0.0
15.319,-1.366,-0.845,0.0
14.359,-1.28,-0.868,0.0
13.332,-1.188,-0.876,0.0
12.432,-1.108,-0.885,0.0
11.796,-1.051,-0.902,0.0
11.054,-0.985,-0.904,0.0
15.743,-1.4,-0.846,0.0
14.639,-1.302,-0.864,0.0
13.59,-1.208,-0.874,0.0
12.654,-1.125,-0.882,0.0
11.977,-1.065,-0.899,0.0
11.277,-1.002,-0.906,0.0
16.203,-1.437,-0.848,0.0
14.891,-1.321,-0.858,0.0
13.862,-1.229,-0.872,0.0
12.806,-1.135,-0.875,0.0
12.153,-1.077,-0.895,0.0
11.463,-1.015,-0.905,0.0
16.51,-1.46,-0.841,0.0
15.201,-1.344,-0.854,0.0
14.141,-1.249,-0.869,0.0
13.153,-1.162,-0.88,0.0
12.324,-1.088,-0.889,0.0
11.586,-1.023,-0.898,0.0
16.835,-1.483,-0.833,0.0
15.539,-1.368,-0.851,0.0
14.422,-1.269,-0.866,0.0
13.387,-1.177,-0.876,0.0
12.491,-1.098,-0.883,0.0
11.824,-1.039,-0.899,0.0
17.182,-1.507,-0.825,0.0
15.907,-1.394,-0.848,0.0
14.768,-1.294,-0.865,0.0
13.657,-1.196,-0.874,0.0
12.656,-1.107,-0.877,0.0
12.02,-1.051,-0.896,0.0
0.0,0.0,0.0,0.0
24.529,-1.826,-0.707,0.0
22.4,-1.663,-0.763,0.0
20.021,-1.482,-0.789,0.0
18.281,-1.35,-0.817,0.0
16.842,-1.24,-0.842,0.0
0.0,0.0,0.0,0.0
24.486,-1.794,-0.672,0.0
22.621,-1.653,-0.74,0.0
20.535,-1.496,-0.782,0.0
18.819,-1.367,-0.815,0.0
17.216,-1.247,-0.837,0.0
30.181,-2.183,-0.628,0.0
26.83,-1.934,-0.699,0.0
23.699,-1.703,-0.743,0.0
21.005,-1.505,-0.771,0.0
19.308,-1.379,-0.811,0.0
17.476,-1.245,-0.826,0.0
30.568,-2.173,-0.595,0.0
27.151,-1.924,-0.671,0.0
24.185,-1.708,-0.725,0.0
21.492,-1.513,-0.76,0.0
19.647,-1.379,-0.798,0.0
17.945,-1.255,-0.824,0.0
32.422,-2.264,-0.587,0.0
28.616,-1.991,-0.669,0.0
24.836,-1.723,-0.712,0.0
22.094,-1.527,-0.752,0.0
20.206,-1.392,-0.794,0.0
18.336,-1.259,-0.818,0.0
33.146,-2.272,-0.557,0.0
28.873,-1.972,-0.638,1.0
25.231,-1.717,-0.69,0.0
22.599,-1.532,-0.74,0.0
20.576,-1.39,-0.782,0.0
18.802,-1.266,-0.814,0.0
36.115,-2.427,-0.56,0.0
29.55,-1.978,-0.614,0.0
0.0,0.0,0.0,0.0
23.717,-1.576,-0.746,0.0
20.996,-1.39,-0.771,0.0
19.309,-1.274,-0.811,0.0
36.163,-2.38,-0.514,0.0
30.888,-2.025,-0.602,0.0
0.0,0.0,0.0,0.0
23.926,-1.557,-0.722,0.0
21.398,-1.387,-0.759,0.0
19.742,-1.275,-0.804,0.0
37.414,-2.41,-0.485,0.0
32.594,-2.091,-0.595,0.0
28.429,-1.816,-0.669,0.0
24.742,-1.574,-0.715,0.0
22.293,-1.413,-0.762,0.0
20.181,-1.274,-0.797,0.0
0.0,0.0,0.0,0.0
32.839,-2.059,-0.558,0.0
29.439,-1.838,-0.656,0.0
25.108,-1.561,-0.695,0.0
22.676,-1.404,-0.747,0.0
20.567,-1.268,-0.787,0.0
41.856,-2.574,-0.439,0.0
34.677,-2.123,-0.547,0.0
29.757,-1.813,-0.627,0.0
26.294,-1.595,-0.695,0.0
23.288,-1.406,-0.739,0.0
20.951,-1.26,-0.776,0.0
0.0,0.0,0.0,0.0
35.728,-2.132,-0.52,0.0
0.0,0.0,0.0,0.0
0.0,0.0,0.0,0.0
24.135,-1.42,-0.737,0.0
21.474,-1.257,-0.77,0.0
0.0,0.0,0.0,0.0
37.975,-2.208,-0.508,0.0
0.0,0.0,0.0,0.0
27.597,-1.588,-0.664,0.0
24.66,-1.412,-0.724,0.0
21.916,-1.249,-0.76,0.0
0.0,0.0,0.0,0.0
38.408,-2.172,-0.47,0.0
32.459,-1.827,-0.57,0.0
28.621,-1.602,-0.657,0.0
25.313,-1.41,-0.715,0.0
22.481,-1.246,-0.755,0.0
0.0,0.0,0.0,0.0
0.0,0.0,0.0,0.0
0.0,0.0,0.0,0.0
29.282,-1.592,-0.639,0.0
25.644,-1.387,-0.696,0.0
23.038,-1.239,-0.748,0.0
0.0,0.0,0.0,0.0
0.0,0.0,0.0,0.0
35.548,-1.885,-0.545,0.0
30.007,-1.582,-0.623,0.0
26.899,-1.41,-0.701,0.0
23.535,-1.226,-0.738,0.0
0.0,0.0,0.0,0.0
0.0,0.0,0.0,0.0
36.019,-1.849,-0.513,0.0
30.962,-1.58,-0.609,0.0
27.068,-1.372,-0.676,0.0
24.186,-1.219,-0.733,0.0
0.0,0.0,0.0,0.0
0.0,0.0,0.0,0.0
37.547,-1.862,-0.496,0.0
31.668,-1.561,-0.589,0.0
27.612,-1.353,-0.661,0.0
24.555,-1.195,-0.718,0.0
0.0,0.0,0.0,0.0
0.0,0.0,0.0,0.0
0.0,0.0,0.0,0.0
32.084,-1.525,-0.565,0.0
28.525,-1.347,-0.654,0.0
24.749,-1.16,-0.699,0.0
0.0,0.0,0.0,0.0
0.0,0.0,0.0,0.0
40.135,-1.849,-0.448,0.0
0.0,0.0,0.0,0.0
29.468,-1.339,-0.646,0.0
25.511,-1.151,-0.695,0.0
0.0,0.0,0.0,0.0
0.0,0.0,0.0,0.0
0.0,0.0,0.0,0.0
34.452,-1.514,-0.539,0.0
29.942,-1.306,-0.628,0.0
26.596,-1.152,-0.7,0.0
0.0,0.0,0.0,0.0
0.0,0.0,0.0,0.0
0.0,0.0,0.0,0.0
35.565,-1.498,-0.523,0.0
30.095,-1.258,-0.603,0.0
26.376,-1.094,-0.669,0.0
0.0,0.0,0.0,0.0
0.0,0.0,0.0,0.0
0.0,0.0,0.0,0.0
0.0,0.0,0.0,0.0
30.435,-1.215,-0.583,0.0
27.643,-1.095,-0.677,0.0
0.0,0.0,0.0,0.0
0.0,0.0,0.0,0.0
0.0,0.0,0.0,0.0
0.0,0.0,0.0,0.0
31.024,-1.181,-0.567,0.0
0.0,0.0,0.0,0.0
0.0,0.0,0.0,0.0
0.0,0.0,0.0,0.0
0.0,0.0,0.0,0.0
0.0,0.0,0.0,0.0
32.097,-1.161,-0.56,0.0
29.017,-1.039,-0.662,0.0
160.628,-5.719,0.785,3.0
0.0,0.0,0.0,0.0
0.0,0.0,0.0,0.0
0.0,0.0,0.0,0.0
0.0,0.0,0.0,0.0
0.0,0.0,0.0,0.0
160.58,-5.407,0.914,7.0
0.0,0.0,0.0,0.0
0.0,0.0,0.0,0.0
0.0,0.0,0.0,0.0
0.0,0.0,0.0,0.0
29.732,-0.95,-0.631,0.0
160.747,-5.101,1.036,12.0
0.0,0.0,0.0,0.0
0.0,0.0,0.0,0.0
0.0,0.0,0.0,0.0
35.02,-1.062,-0.53,0.0
30.099,-0.902,-0.617,0.0
160.669,-4.78,1.153,13.0
0.0,0.0,0.0,0.0
0.0,0.0,0.0,0.0
0.0,0.0,0.0,0.0
0.0,0.0,0.0,0.0
31.046,-0.869,-0.615,0.0
160.706,-4.459,1.266,11.0
0.0,0.0,0.0,0.0
0.0,0.0,0.0,0.0
45.751,-1.221,-0.383,0.0
37.324,-0.983,-0.513,0.0
31.397,-0.816,-0.601,0.0
162.103,-4.172,1.384,3.0
0.0,0.0,0.0,0.0
0.0,0.0,0.0,0.0
0.0,0.0,0.0,0.0
0.0,0.0,0.0,0.0
31.753,-0.761,-0.587,0.0
120.449,-2.859,1.104,6.0
0.0,0.0,0.0,0.0
0.0,0.0,0.0,0.0
0.0,0.0,0.0,0.0
0.0,0.0,0.0,0.0
0.0,0.0,0.0,0.0
120.368,-2.611,1.174,151.0
0.0,0.0,0.0,0.0
0.0,0.0,0.0,0.0
0.0,0.0,0.0,0.0
0.0,0.0,0.0,0.0
0.0,0.0,0.0,0.0
120.33,-2.362,1.242,98.0
0.0,0.0,0.0,0.0
0.0,0.0,0.0,0.0
0.0,0.0,0.0,0.0
0.0,0.0,0.0,0.0
32.689,-0.582,-0.549,0.0
120.343,-2.111,1.305,151.0
19.718,-0.338,0.107,0.0
0.0,0.0,0.0,0.0
0.0,0.0,0.0,0.0
42.533,-0.686,-0.464,0.0
33.267,-0.524,-0.543,0.0
19.775,-0.305,0.224,3.0
19.756,-0.298,0.116,25.0
0.0,0.0,0.0,0.0
0.0,0.0,0.0,0.0
0.0,0.0,0.0,0.0
32.383,-0.443,-0.514,0.0
19.747,-0.264,0.232,18.0
19.747,-0.257,0.125,18.0
0.0,0.0,0.0,0.0
0.0,0.0,0.0,0.0
0.0,0.0,0.0,0.0
0.0,0.0,0.0,0.0
19.772,-0.222,0.241,2.0
0.0,0.0,0.0,0.0
0.0,0.0,0.0,0.0
0.0,0.0,0.0,0.0
19.778,-0.194,-0.19,6.0
19.762,-0.186,-0.297,11.0
169.574,-1.549,2.134,17.0
160.737,-1.409,1.148,14.0
0.0,0.0,0.0,0.0
19.755,-0.159,-0.075,9.0
19.741,-0.152,-0.183,15.0
19.737,-0.144,-0.29,17.0
19.737,-0.138,0.255,0.0
19.759,-0.131,0.147,5.0
19.737,-0.124,0.04,10.0
19.733,-0.117,-0.069,9.0
19.72,-0.109,-0.176,16.0
19.749,-0.102,-0.284,16.0
19.683,-0.096,0.26,10.0
19.689,-0.088,0.153,14.0
19.702,-0.081,0.045,14.0
19.71,-0.074,-0.063,15.0
19.724,-0.067,-0.171,15.0
19.757,-0.06,-0.279,14.0
19.646,-0.053,0.265,10.0
19.682,-0.047,0.158,11.0
19.692,-0.04,0.05,14.0
19.715,-0.032,-0.058,12.0
19.748,-0.025,-0.166,5.0
37.232,-0.035,-0.517,0.0
19.623,-0.011,0.269,14.0
19.742,-0.004,0.163,4.0
19.787,0.002,0.055,4.0
19.74,0.009,-0.054,151.0
19.754,0.016,-0.162,5.0
19.754,0.023,-0.27,11.0
19.637,0.03,0.273,13.0
19.737,0.037,0.166,13.0
19.76,0.044,0.058,40.0
19.752,0.052,-0.051,52.0
19.776,0.059,-0.159,67.0
19.775,0.066,-0.267,34.0
19.617,0.072,0.276,16.0
19.666,0.079,0.169,12.0
19.675,0.086,0.061,12.0
19.692,0.094,-0.048,6.0
19.739,0.101,-0.156,0.0
36.55,0.2,-0.49,0.0
19.623,0.114,0.278,13.0
19.662,0.121,0.171,16.0
19.641,0.128,0.063,13.0
19.628,0.135,-0.046,15.0
19.648,0.143,-0.154,12.0
19.687,0.15,-0.262,5.0
19.646,0.157,0.28,11.0
19.668,0.164,0.172,12.0
19.652,0.171,0.064,13.0
19.638,0.177,-0.045,12.0
19.634,0.184,-0.152,16.0
19.652,0.191,-0.261,17.0
19.741,0.2,0.282,9.0
19.756,0.207,0.174,19.0
19.696,0.213,0.065,5.0
19.673,0.22,-0.044,7.0
19.638,0.226,-0.152,17.0
19.658,0.234,-0.26,17.0
19.731,0.242,0.282,13.0
19.767,0.25,0.174,26.0
84.893,1.104,0.281,7.0
19.682,0.262,-0.044,1.0
19.681,0.269,-0.153,11.0
19.674,0.276,-0.261,15.0
19.746,0.285,0.282,7.0
160.648,2.378,1.411,6.0
0.0,0.0,0.0,0.0
52.445,0.812,-0.122,5.0
40.02,0.634,-0.314,0.0
34.856,0.563,-0.465,0.0
55.177,0.915,0.785,51.0
55.164,0.933,0.48,82.0
55.161,0.952,0.176,78.0
52.312,0.921,-0.126,4.0
39.642,0.711,-0.314,1.0
32.264,0.59,-0.434,0.0
55.211,1.033,0.779,16.0
55.153,1.05,0.474,1.0
0.0,0.0,0.0,0.0
52.29,1.032,-0.133,1.0
38.766,0.778,-0.313,1.0
32.897,0.671,-0.447,2.0
128.695,2.682,1.798,9.0
113.859,2.412,0.961,6.0
79.366,1.708,0.231,4.0
50.674,1.107,-0.137,0.0
38.582,0.856,-0.318,1.0
31.887,0.718,-0.439,0.0
128.685,2.954,1.775,10.0
70.836,1.649,0.585,13.0
45.581,1.077,0.124,24.0
0.0,0.0,0.0,0.0
0.0,0.0,0.0,0.0
31.56,0.777,-0.441,1.0
45.504,1.14,0.617,5.0
45.503,1.156,0.365,16.0
45.527,1.172,0.113,3.0
40.139,1.047,-0.126,155.0
39.878,1.053,-0.346,1.0
31.085,0.831,-0.442,1.0
41.934,1.14,0.558,154.0
0.0,0.0,0.0,0.0
0.0,0.0,0.0,0.0
40.019,1.127,-0.137,76.0
37.299,1.063,-0.334,2.0
27.431,0.79,-0.398,5.0
40.125,1.175,0.522,150.0
40.132,1.188,0.3,116.0
40.118,1.2,0.077,150.0
40.097,1.212,-0.149,78.0
37.213,1.138,-0.345,2.0
30.305,0.936,-0.449,1.0
40.126,1.258,0.509,150.0
40.126,1.27,0.286,140.0
40.125,1.283,0.063,150.0
40.128,1.296,-0.163,150.0
36.307,1.184,-0.349,1.0
30.141,0.993,-0.458,2.0
70.933,2.369,0.875,14.0
70.997,2.395,0.481,20.0
40.122,1.366,0.048,150.0
40.121,1.378,-0.178,115.0
40.152,1.393,-0.402,1.0
29.546,1.035,-0.461,2.0
45.074,1.599,0.538,8.0
45.176,1.617,0.287,133.0
43.115,1.557,0.034,2.0
42.609,1.552,-0.207,3.0
35.594,1.307,-0.371,1.0
29.299,1.085,-0.469,6.0
0.0,0.0,0.0,0.0
41.797,1.58,0.247,96.0
40.334,1.538,0.014,150.0
40.31,1.55,-0.214,74.0
40.451,1.567,-0.441,0.0
28.844,1.127,-0.475,3.0
40.39,1.597,0.445,150.0
40.392,1.609,0.22,155.0
40.339,1.619,-0.005,150.0
40.307,1.631,-0.234,66.0
33.411,1.362,-0.381,1.0
28.31,1.163,-0.481,3.0
23.644,0.983,0.248,1.0
23.632,0.989,0.116,21.0
23.641,0.997,-0.015,36.0
23.636,1.004,-0.149,43.0
23.634,1.011,-0.282,48.0
23.632,1.018,-0.414,45.0
23.605,1.028,0.235,49.0
23.603,1.035,0.103,57.0
23.596,1.042,-0.028,63.0
23.606,1.05,-0.163,64.0
23.609,1.057,-0.295,71.0
23.613,1.064,-0.427,78.0
23.607,1.075,0.222,72.0
23.603,1.082,0.089,63.0
23.606,1.089,-0.042,59.0
23.61,1.096,-0.177,55.0
23.616,1.103,-0.309,44.0
23.644,1.112,-0.442,34.0
23.634,1.123,0.207,38.0
23.639,1.129,0.075,37.0
40.32,1.938,-0.097,3.0
23.631,1.143,-0.191,10.0
23.658,1.151,-0.324,2.0
23.694,1.16,-0.458,3.0
79.524,3.932,0.648,6.0
45.173,2.246,0.115,58.0
40.322,2.016,-0.123,50.0
36.067,1.814,-0.316,3.0
30.018,1.518,-0.431,2.0
25.498,1.297,-0.51,2.0
65.913,3.383,0.493,1.0
45.178,2.332,0.084,42.0
40.321,2.092,-0.151,41.0
35.389,1.846,-0.334,7.0
29.18,1.531,-0.44,3.0
25.229,1.331,-0.522,2.0
45.231,2.407,0.306,70.0
45.18,2.416,0.052,46.0
40.327,2.168,-0.179,43.0
34.579,1.869,-0.351,9.0
28.773,1.562,-0.454,3.0
24.602,1.343,-0.527,1.0
58.082,3.198,0.351,2.0
45.181,2.5,0.019,40.0
40.321,2.242,-0.209,40.0
33.733,1.885,-0.368,7.0
28.233,1.586,-0.467,3.0
24.249,1.369,-0.538,1.0
45.163,2.571,0.238,6.0
45.185,2.584,-0.015,13.0
40.307,2.316,-0.241,29.0
32.48,1.874,-0.38,10.0
27.566,1.599,-0.478,7.0
20.06,1.169,-0.461,0.0
45.203,2.655,0.202,56.0
40.329,2.379,-0.046,33.0
0.0,0.0,0.0,0.0
31.442,1.871,-0.393,9.0
26.923,1.609,-0.489,6.0
19.824,1.19,-0.472,3.0
45.181,2.734,0.165,41.0
40.325,2.45,-0.08,46.0
37.283,2.275,-0.284,3.0
30.407,1.863,-0.406,8.0
26.125,1.608,-0.496,6.0
19.751,1.221,-0.487,9.0
45.173,2.813,0.126,47.0
40.324,2.521,-0.114,46.0
36.107,2.266,-0.306,10.0
29.591,1.865,-0.421,8.0
25.451,1.611,-0.506,6.0
19.734,1.254,-0.504,12.0
45.178,2.891,0.086,150.0
40.324,2.591,-0.15,44.0
0.0,0.0,0.0,0.0
28.756,1.862,-0.435,8.0
24.756,1.609,-0.514,5.0
19.73,1.287,-0.521,10.0
44.352,2.914,0.044,7.0
40.323,2.659,-0.187,42.0
33.407,2.211,-0.344,7.0
27.836,1.849,-0.447,7.0
24.175,1.612,-0.524,5.0
19.725,1.32,-0.54,9.0
40.331,2.716,0.002,8.0
40.282,2.722,-0.225,35.0
32.152,2.181,-0.361,9.0
26.907,1.831,-0.457,7.0
23.789,1.625,-0.539,1.0
19.712,1.351,-0.558,9.0
40.326,2.782,-0.036,27.0
0.0,0.0,0.0,0.0
31.162,2.164,-0.38,9.0
26.025,1.814,-0.468,6.0
19.993,1.398,-0.472,3.0
19.707,1.383,-0.577,12.0
40.324,2.847,-0.076,44.0
36.848,2.61,-0.278,6.0
30.315,2.154,-0.4,8.0
25.377,1.809,-0.482,6.0
19.773,1.414,-0.487,4.0
19.631,1.409,-0.595,7.0
40.331,2.911,-0.116,45.0
35.477,2.568,-0.304,9.0
29.133,2.116,-0.414,8.0
24.757,1.803,-0.495,6.0
19.702,1.44,-0.506,9.0
19.214,1.409,-0.602,3.0
40.322,2.973,-0.158,46.0
34.172,2.526,-0.328,11.0
28.087,2.083,-0.429,7.0
24.15,1.796,-0.508,5.0
19.703,1.47,-0.527,8.0
18.723,1.401,-0.607,3.0
41.792,3.144,-0.209,20.0
32.691,2.466,-0.349,10.0
27.157,2.054,-0.444,7.0
23.806,1.806,-0.527,4.0
19.709,1.499,-0.548,9.0
18.468,1.409,-0.619,3.0
38.83,2.978,-0.236,4.0
31.503,2.423,-0.37,9.0
26.104,2.013,-0.455,6.0
19.774,1.529,-0.459,3.0
19.704,1.528,-0.57,10.0
18.201,1.415,-0.63,2.0
36.841,2.879,-0.265,5.0
30.319,2.375,-0.39,8.0
25.3,1.987,-0.469,6.0
19.701,1.551,-0.48,8.0
19.643,1.551,-0.59,6.0
17.817,1.411,-0.637,1.0
35.412,2.817,-0.295,9.0
29.045,2.316,-0.407,8.0
24.586,1.965,-0.484,5.0
19.708,1.579,-0.502,9.0
19.119,1.536,-0.596,3.0
17.549,1.414,-0.647,1.0
32.717,2.648,-0.31,2.0
28.013,2.272,-0.425,7.0
23.553,1.915,-0.491,5.0
19.713,1.606,-0.525,8.0
18.816,1.537,-0.609,5.0
17.355,1.421,-0.66,2.0
32.298,2.656,-0.343,10.0
26.947,2.221,-0.44,7.0
23.703,1.958,-0.522,1.0
19.475,1.613,-0.542,10.0
18.457,1.532,-0.619,2.0
17.106,1.423,-0.671,1.0
31.008,2.59,-0.366,9.0
25.674,2.149,-0.45,6.0
19.73,1.655,-0.458,5.0
19.042,1.601,-0.553,13.0
18.171,1.531,-0.631,2.0
16.92,1.429,-0.684,1.0
29.618,2.511,-0.386,8.0
24.984,2.123,-0.468,6.0
19.711,1.678,-0.482,9.0
18.904,1.613,-0.571,10.0
17.762,1.519,-0.639,2.0
16.739,1.435,-0.697,1.0
28.648,2.464,-0.408,8.0
24.3,2.094,-0.484,5.0
19.709,1.702,-0.505,8.0
18.928,1.638,-0.595,14.0
17.471,1.515,-0.649,2.0
16.538,1.437,-0.709,1.0
27.431,2.391,-0.424,7.0
23.587,2.06,-0.499,6.0
20.209,1.768,-0.543,4.0
18.89,1.656,-0.618,11.0
17.274,1.517,-0.664,2.0
16.393,1.443,-0.724,1.0
26.17,2.311,-0.438,6.0
22.818,2.019,-0.512,5.0
20.053,1.777,-0.564,4.0
18.713,1.662,-0.636,3.0
17.003,1.513,-0.675,1.0
16.119,1.437,-0.732,1.0
25.23,2.256,-0.454,6.0
22.088,1.978,-0.523,4.0
19.336,1.734,-0.568,6.0
18.057,1.623,-0.636,3.0
16.802,1.513,-0.688,1.0
15.959,1.439,-0.745,1.0
24.602,2.225,-0.473,6.0
21.403,1.939,-0.534,7.0
18.959,1.721,-0.582,16.0
17.738,1.613,-0.648,2.0
16.607,1.512,-0.702,1.0
15.829,1.444,-0.759,0.0
23.823,2.179,-0.49,5.0
20.738,1.9,-0.545,5.0
18.752,1.721,-0.6,11.0
17.403,1.599,-0.658,0.0
16.403,1.51,-0.714,1.0
15.368,1.417,-0.757,0.0
22.956,2.122,-0.501,8.0
19.696,1.823,-0.543,4.0
18.153,1.683,-0.604,13.0
17.064,1.584,-0.667,0.0
16.163,1.503,-0.725,1.0
15.144,1.411,-0.766,0.0
22.181,2.071,-0.513,6.0
18.871,1.764,-0.545,16.0
17.873,1.673,-0.618,15.0
16.823,1.577,-0.68,1.0
15.948,1.498,-0.736,4.0
14.888,1.4,-0.773,0.0
21.572,2.033,-0.528,6.0
18.464,1.742,-0.557,16.0
17.755,1.678,-0.638,16.0
16.678,1.578,-0.696,2.0
15.924,1.509,-0.756,2.0
14.549,1.381,-0.774,0.0
21.113,2.007,-0.544,6.0
18.214,1.734,-0.574,16.0
17.605,1.678,-0.656,14.0
16.487,1.574,-0.71,2.0
15.512,1.483,-0.757,0.0
14.306,1.369,-0.781,0.0
18.741,1.797,-0.508,14.0
17.992,1.727,-0.591,14.0
17.475,1.68,-0.674,9.0
16.225,1.561,-0.721,2.0
15.138,1.459,-0.759,0.0
14.005,1.351,-0.783,0.0
18.339,1.772,-0.522,17.0
17.8,1.722,-0.608,22.0
17.245,1.67,-0.688,10.0
15.943,1.546,-0.73,6.0
14.867,1.444,-0.766,0.0
13.695,1.332,-0.784,0.0
18.151,1.767,-0.541,20.0
17.609,1.716,-0.626,15.0
16.989,1.658,-0.701,2.0
15.938,1.557,-0.751,5.0
14.519,1.42,-0.768,0.0
13.544,1.326,-0.794,0.0
17.877,1.752,-0.557,16.0
17.451,1.712,-0.644,14.0
16.531,1.624,-0.705,1.0
15.589,1.533,-0.756,0.0
14.423,1.42,-0.782,0.0
13.305,1.311,-0.798,0.0
17.699,1.746,-0.575,19.0
17.32,1.71,-0.662,10.0
16.116,1.593,-0.709,1.0
15.133,1.497,-0.754,0.0
14.216,1.408,-0.79,0.0
12.935,1.283,-0.794,0.0
17.58,1.744,-0.595,19.0
17.086,1.697,-0.677,12.0
15.978,1.588,-0.724,4.0
14.935,1.486,-0.765,0.0
13.793,1.374,-0.785,0.0
12.869,1.283,-0.807,0.0
17.438,1.74,-0.614,17.0
16.925,1.69,-0.693,15.0
15.918,1.591,-0.743,2.0
14.652,1.466,-0.77,0.0
13.556,1.357,-0.79,0.0
12.728,1.276,-0.816,0.0
17.364,1.741,-0.635,16.0
16.592,1.665,-0.702,8.0
15.834,1.59,-0.761,0.0
14.481,1.455,-0.781,0.0
13.3,1.338,-0.793,0.0
12.518,1.26,-0.819,0.0
17.161,1.728,-0.651,11.0
16.289,1.641,-0.711,5.0
15.249,1.538,-0.753,1.0
17.641,1.78,-0.975,0.0
13.141,1.327,-0.802,0.0
12.315,1.245,-0.822,0.0
16.976,1.716,-0.666,14.0
16.027,1.621,-0.721,6.0
15.043,1.523,-0.763,0.0
13.856,1.404,-0.784,0.0
12.897,1.308,-0.804,0.0
12.136,1.231,-0.827,0.0
16.895,1.714,-0.686,13.0
15.964,1.62,-0.74,5.0
14.659,1.489,-0.763,0.0
13.537,1.376,-0.784,0.0
12.681,1.29,-0.808,0.0
11.882,1.21,-0.826,0.0
16.8,1.709,-0.704,11.0
15.781,1.607,-0.752,0.0
14.415,1.469,-0.77,0.0
13.307,1.357,-0.789,0.0
12.532,1.278,-0.815,0.0
11.738,1.198,-0.831,0.0
16.412,1.674,-0.71,7.0
15.246,1.556,-0.747,0.0
17.625,1.8,-0.965,0.0
13.104,1.339,-0.794,0.0
12.399,1.268,-0.823,0.0
11.558,1.183,-0.834,0.0
16.026,1.638,-0.715,11.0
14.983,1.533,-0.754,0.0
13.886,1.421,-0.779,0.0
12.996,1.331,-0.805,0.0
12.16,1.246,-0.823,0.0
11.35,1.164,-0.834,0.0
15.975,1.636,-0.733,8.0
14.697,1.506,-0.759,0.0
13.647,1.399,-0.783,0.0
12.801,1.313,-0.81,0.0
11.981,1.229,-0.827,0.0
11.198,1.15,-0.837,0.0
15.895,1.63,-0.75,1.0
17.764,1.822,-0.94,0.0
13.43,1.378,-0.788,0.0
12.536,1.287,-0.809,0.0
11.77,1.209,-0.828,0.0
11.061,1.137,-0.842,0.0
15.374,1.578,-0.745,0.0
17.718,1.819,-0.961,0.0
13.216,1.357,-0.793,0.0
12.411,1.275,-0.817,0.0
11.596,1.192,-0.83,0.0
10.882,1.119,-0.842,0.0
15.078,1.548,-0.75,0.0
14.083,1.446,-0.782,0.0
13.051,1.341,-0.799,0.0
12.266,1.26,-0.823,0.0
11.455,1.177,-0.835,0.0
10.721,1.102,-0.843,0.0
14.846,1.524,-0.757,0.0
13.685,1.405,-0.777,0.0
12.856,1.32,-0.804,0.0
12.06,1.239,-0.825,0.0
11.313,1.163,-0.839,0.0
10.61,1.091,-0.848,0.0
14.599,1.498,-0.763,0.0
13.567,1.392,-0.787,0.0
12.709,1.304,-0.811,0.0
11.846,1.216,-0.825,0.0
11.167,1.147,-0.842,0.0
10.418,1.07,-0.846,0.0
17.685,1.813,-0.947,0.0
13.283,1.362,-0.787,0.0
12.499,1.282,-0.813,0.0
11.727,1.203,-0.831,0.0
10.991,1.127,-0.843,0.0
10.344,1.061,-0.853,0.0
14.029,1.436,-0.768,0.0
13.107,1.342,-0.793,0.0
12.342,1.264,-0.818,0.0
11.525,1.18,-0.831,0.0
10.797,1.106,-0.841,0.0
10.193,1.044,-0.853,0.0
13.945,1.425,-0.78,0.0
12.983,1.327,-0.801,0.0
12.165,1.243,-0.82,0.0
11.269,1.152,-0.826,0.0
10.596,1.083,-0.838,0.0
10.131,1.036,-0.86,0.0
13.639,1.391,-0.779,0.0
12.783,1.304,-0.804,0.0
11.956,1.219,-0.821,0.0
11.256,1.148,-0.838,0.0
10.549,1.076,-0.847,0.0
9.983,1.018,-0.859,0.0
13.49,1.372,-0.787,0.0
12.625,1.284,-0.809,0.0
11.815,1.202,-0.825,0.0
11.022,1.121,-0.834,0.0
10.396,1.057,-0.846,0.0
9.946,1.012,-0.867,0.0
13.23,1.342,-0.786,0.0
12.471,1.265,-0.813,0.0
11.688,1.185,-0.829,0.0
10.929,1.108,-0.839,0.0
10.321,1.046,-0.852,0.0
9.866,1.0,-0.871,0.0
13.176,1.332,-0.798,0.0
12.329,1.246,-0.818,0.0
11.507,1.163,-0.829,0.0
10.768,1.088,-0.839,0.0
10.192,1.029,-0.853,0.0
9.756,0.985,-0.873,0.0
12.956,1.305,-0.799,0.0
12.212,1.229,-0.823,0.0
11.347,1.142,-0.83,0.0
10.652,1.072,-0.842,0.0
10.167,1.023,-0.862,0.0
9.646,0.97,-0.874,0.0
12.825,1.286,-0.805,0.0
12.073,1.21,-0.827,0.0
11.229,1.125,-0.834,0.0
10.567,1.058,-0.846,0.0
10.062,1.008,-0.864,0.0
9.594,0.961,-0.879,0.0
12.721,1.269,-0.812,0.0
11.9,1.187,-0.828,0.0
11.102,1.107,-0.836,0.0
10.481,1.045,-0.851,0.0
9.954,0.992,-0.865,0.0
9.478,0.944,-0.878,0.0
12.568,1.248,-0.815,0.0
11.696,1.161,-0.826,0.0
11.068,1.098,-0.845,0.0
10.361,1.027,-0.852,0.0
9.912,0.983,-0.872,0.0
9.421,0.934,-0.883,0.0
12.444,1.229,-0.82,0.0
11.53,1.138,-0.825,0.0
10.931,1.078,-0.845,0.0
10.226,1.008,-0.851,0.0
9.813,0.967,-0.873,0.0
9.305,0.917,-0.881,0.0
12.323,1.21,-0.824,0.0
11.435,1.122,-0.83,0.0
10.801,1.059,-0.846,0.0
10.212,1.001,-0.859,0.0
9.727,0.953,-0.875,0.0
9.267,0.907,-0.887,0.0
12.158,1.186,-0.824,0.0
11.274,1.099,-0.829,0.0
10.714,1.044,-0.849,0.0
10.13,0.986,-0.862,0.0
9.649,0.939,-0.877,0.0
9.234,0.898,-0.892,0.0
11.978,1.16,-0.823,0.0
11.27,1.091,-0.839,0.0
10.576,1.023,-0.848,0.0
10.022,0.969,-0.862,0.0
9.586,0.926,-0.88,0.0
9.096,0.879,-0.887,0.0
11.859,1.141,-0.826,0.0
11.175,1.074,-0.842,0.0
10.47,1.006,-0.849,0.0
9.965,0.957,-0.866,0.0
9.484,0.91,-0.879,0.0
9.0,0.863,-0.886,0.0
11.809,1.127,-0.832,0.0
11.066,1.056,-0.843,0.0
10.389,0.99,-0.851,0.0
9.894,0.942,-0.868,0.0
9.408,0.895,-0.88,0.0
8.912,0.848,-0.885,0.0
11.689,1.107,-0.834,0.0
10.936,1.035,-0.843,0.0
10.343,0.978,-0.856,0.0
9.835,0.929,-0.871,0.0
9.356,0.883,-0.883,0.0
11.513,1.081,-0.83,0.0
10.902,1.023,-0.849,0.0
10.27,0.963,-0.858,0.0
9.787,0.917,-0.875,0.0
9.312,0.871,-0.886,0.0
11.455,1.066,-0.835,0.0
10.765,1.001,-0.846,0.0
10.215,0.949,-0.862,0.0
9.706,0.901,-0.875,0.0
9.227,0.855,-0.885,0.0
8.744,0.81,-0.889,0.0
11.385,1.05,-0.839,0.0
10.681,0.984,-0.848,0.0
10.14,0.933,-0.863,0.0
9.633,0.885,-0.876,0.0
8.681,0.796,-0.889,0.0
11.291,1.031,-0.84,0.0
10.615,0.968,-0.85,0.0
10.091,0.919,-0.866,0.0
9.628,0.876,-0.882,0.0
8.609,0.782,-0.887,0.0
11.211,1.013,-0.841,0.0
10.526,0.95,-0.85,0.0
10.044,0.906,-0.868,0.0
9.589,0.863,-0.885,0.0
9.028,0.812,-0.885,0.0
8.583,0.771,-0.89,0.0
11.217,1.003,-0.849,0.0
10.485,0.936,-0.853,0.0
10.03,0.894,-0.873,0.0
9.547,0.85,-0.887,0.0
8.522,0.757,-0.889,0.0
11.081,0.98,-0.845,0.0
10.454,0.923,-0.857,0.0
9.991,0.881,-0.876,0.0
9.477,0.835,-0.886,0.0
8.468,0.744,-0.889,0.0
11.018,0.963,-0.847,0.0
10.377,0.905,-0.857,0.0
9.948,0.867,-0.878,0.0
9.431,0.821,-0.887,0.0
8.489,0.737,-0.895,0.0
11.0,0.95,-0.851,0.0
10.32,0.89,-0.857,0.0
9.911,0.853,-0.88,0.0
9.371,0.806,-0.886,0.0
8.408,0.721,-0.891,0.0
10.957,0.934,-0.853,0.0
10.325,0.879,-0.863,0.0
9.877,0.84,-0.881,0.0
9.336,0.792,-0.887,0.0
8.372,0.709,-0.891,0.0
10.901,0.918,-0.854,0.0
10.273,0.864,-0.863,0.0
9.828,0.825,-0.881,0.0
9.339,0.783,-0.892,0.0
8.791,0.736,-0.889,0.0
8.393,0.701,-0.897,0.0
10.834,0.9,-0.853,0.0
10.238,0.849,-0.864,0.0
9.832,0.814,-0.886,0.0
9.26,0.765,-0.888,0.0
8.746,0.722,-0.888,0.0
8.363,0.689,-0.897,0.0
10.77,0.882,-0.852,0.0
10.231,0.837,-0.867,0.0
9.758,0.797,-0.882,0.0
9.254,0.754,-0.89,0.0
8.783,0.715,-0.895,0.0
8.358,0.679,-0.899,0.0
10.762,0.869,-0.855,0.0
10.175,0.82,-0.866,0.0
9.767,0.786,-0.886,0.0
8.767,0.703,-0.896,0.0
8.312,0.665,-0.897,0.0
10.689,0.85,-0.852,0.0
10.159,0.807,-0.867,0.0
9.73,0.771,-0.886,0.0
8.71,0.688,-0.893,0.0
8.333,0.657,-0.901,0.0
10.659,0.835,-0.853,0.0
10.173,0.796,-0.871,0.0
9.713,0.758,-0.887,0.0
8.727,0.678,-0.896,0.0
8.3,0.644,-0.9,0.0
10.686,0.824,-0.857,0.0
10.154,0.781,-0.872,0.0
9.701,0.745,-0.887,0.0
9.222,0.707,-0.897,0.0
8.711,0.666,-0.896,0.0
8.301,0.634,-0.901,0.0
10.662,0.809,-0.857,0.0
10.17,0.77,-0.875,0.0
9.661,0.73,-0.885,0.0
9.229,0.696,-0.899,0.0
8.67,0.652,-0.893,0.0
8.31,0.624,-0.903,0.0
10.634,0.793,-0.856,0.0
10.181,0.758,-0.877,0.0
9.695,0.72,-0.89,0.0
9.104,0.675,-0.888,0.0
8.676,0.641,-0.895,0.0
8.327,0.614,-0.906,0.0
10.59,0.776,-0.853,0.0
10.174,0.744,-0.877,0.0
9.702,0.708,-0.891,0.0
9.167,0.667,-0.894,0.0
8.713,0.633,-0.899,0.0
8.269,0.599,-0.9,0.0
10.625,0.765,-0.857,0.0
10.145,0.729,-0.875,0.0
9.678,0.693,-0.889,0.0
9.226,0.659,-0.9,0.0
8.701,0.62,-0.898,0.0
8.282,0.589,-0.902,0.0
10.695,0.756,-0.862,0.0
10.161,0.716,-0.876,0.0
9.686,0.681,-0.89,0.0
9.2,0.645,-0.898,0.0
8.731,0.611,-0.901,0.0
8.288,0.579,-0.902,0.0
10.651,0.739,-0.858,0.0
10.145,0.702,-0.874,0.0
9.736,0.672,-0.894,0.0
9.265,0.637,-0.903,0.0
8.748,0.6,-0.902,0.0
8.357,0.572,-0.909,0.0
10.685,0.727,-0.86,0.0
10.2,0.692,-0.878,0.0
9.731,0.658,-0.892,0.0
9.217,0.622,-0.898,0.0
8.791,0.591,-0.906,0.0
8.306,0.557,-0.902,0.0
10.66,0.71,-0.857,0.0
10.179,0.676,-0.875,0.0
9.752,0.646,-0.893,0.0
9.33,0.616,-0.907,0.0
8.781,0.579,-0.903,0.0
8.374,0.55,-0.908,0.0
10.719,0.7,-0.86,0.0
10.232,0.666,-0.878,0.0
9.769,0.634,-0.892,0.0
9.276,0.6,-0.9,0.0
8.821,0.569,-0.905,0.0
8.377,0.539,-0.907,0.0
10.769,0.688,-0.861,0.0
10.247,0.653,-0.877,0.0
9.807,0.623,-0.894,0.0
9.324,0.59,-0.903,0.0
8.793,0.555,-0.9,0.0
8.419,0.53,-0.909,0.0
10.836,0.677,-0.864,0.0
10.307,0.642,-0.879,0.0
9.815,0.61,-0.892,0.0
9.338,0.578,-0.901,0.0
8.837,0.545,-0.902,0.0
8.44,0.519,-0.909,0.0
10.836,0.662,-0.861,0.0
10.327,0.629,-0.877,0.0
9.888,0.6,-0.895,0.0
9.42,0.57,-0.906,0.0
8.93,0.538,-0.909,0.0
8.466,0.509,-0.909,0.0
10.825,0.646,-0.856,0.0
10.379,0.617,-0.878,0.0
9.909,0.587,-0.893,0.0
9.456,0.559,-0.906,0.0
8.965,0.528,-0.909,0.0
8.492,0.498,-0.908,0.0
10.922,0.637,-0.859,0.0
10.401,0.604,-0.876,0.0
9.963,0.576,-0.894,0.0
9.467,0.546,-0.903,0.0
9.024,0.519,-0.911,0.0
8.516,0.488,-0.907,0.0
11.013,0.626,-0.862,0.0
10.401,0.589,-0.871,0.0
9.957,0.562,-0.889,0.0
9.52,0.535,-0.904,0.0
9.062,0.508,-0.911,0.0
8.62,0.481,-0.914,0.0
11.065,0.614,-0.86,0.0
10.469,0.578,-0.872,0.0
10.002,0.55,-0.888,0.0
9.563,0.524,-0.903,0.0
9.152,0.5,-0.915,0.0
8.605,0.468,-0.908,0.0
11.1,0.6,-0.857,0.0
10.526,0.567,-0.871,0.0
10.063,0.539,-0.888,0.0
9.614,0.513,-0.903,0.0
9.15,0.487,-0.91,0.0
8.698,0.461,-0.913,0.0
11.221,0.591,-0.86,0.0
23.633,1.239,-1.942,0.0
10.144,0.529,-0.889,0.0
9.685,0.503,-0.903,0.0
9.217,0.477,-0.911,0.0
8.736,0.45,-0.911,0.0
11.341,0.581,-0.862,0.0
23.617,1.205,-1.926,0.0
10.192,0.517,-0.887,0.0
9.687,0.49,-0.897,0.0
9.245,0.465,-0.907,0.0
8.796,0.441,-0.912,0.0
11.404,0.568,-0.86,0.0
10.763,0.533,-0.87,0.0
10.263,0.506,-0.886,0.0
9.751,0.479,-0.897,0.0
9.321,0.456,-0.908,0.0
8.851,0.431,-0.911,0.0
11.5,0.556,-0.859,0.0
10.853,0.523,-0.87,0.0
10.359,0.496,-0.887,0.0
9.849,0.47,-0.898,0.0
9.394,0.446,-0.909,0.0
8.946,0.423,-0.914,0.0
11.628,0.546,-0.86,0.0
10.957,0.512,-0.87,0.0
10.406,0.484,-0.883,0.0
9.943,0.46,-0.899,0.0
9.452,0.436,-0.907,0.0
9.017,0.413,-0.915,0.0
11.724,0.534,-0.857,0.0
11.031,0.5,-0.867,0.0
10.487,0.473,-0.881,0.0
9.996,0.449,-0.896,0.0
9.592,0.428,-0.912,0.0
9.092,0.404,-0.915,0.0
11.867,0.524,-0.858,0.0
11.182,0.491,-0.869,0.0
10.571,0.462,-0.88,0.0
10.074,0.438,-0.894,0.0
9.652,0.417,-0.91,0.0
9.142,0.393,-0.912,0.0
11.967,0.512,-0.855,0.0
11.348,0.483,-0.872,0.0
10.678,0.452,-0.879,0.0
10.195,0.429,-0.896,0.0
9.693,0.406,-0.905,0.0
9.253,0.385,-0.914,0.0
12.204,0.505,-0.86,0.0
11.335,0.466,-0.861,0.0
10.756,0.44,-0.875,0.0
10.276,0.418,-0.893,0.0
9.77,0.395,-0.902,0.0
9.327,0.375,-0.913,0.0
12.262,0.49,-0.853,0.0
11.552,0.459,-0.866,0.0
10.913,0.431,-0.877,0.0
10.366,0.407,-0.891,0.0
9.872,0.386,-0.902,0.0
9.434,0.367,-0.913,0.0
12.477,0.482,-0.855,0.0
11.732,0.45,-0.868,0.0
11.059,0.422,-0.878,0.0
10.477,0.397,-0.889,0.0
9.995,0.377,-0.903,0.0
9.5,0.356,-0.91,0.0
12.565,0.468,-0.848,0.0
11.9,0.44,-0.867,0.0
11.158,0.41,-0.874,0.0
10.627,0.388,-0.891,0.0
10.117,0.368,-0.903,0.0
9.618,0.347,-0.911,0.0
12.643,0.454,-0.84,0.0
12.009,0.428,-0.862,0.0
11.373,0.403,-0.878,0.0
10.707,0.377,-0.886,0.0
10.231,0.358,-0.902,0.0
9.731,0.338,-0.91,0.0
12.935,0.447,-0.845,0.0
12.174,0.418,-0.861,0.0
11.493,0.392,-0.874,0.0
10.842,0.367,-0.884,0.0
10.328,0.348,-0.898,0.0
9.784,0.327,-0.904,0.0
13.236,0.44,-0.849,0.0
12.299,0.406,-0.855,0.0
11.571,0.379,-0.867,0.0
10.994,0.358,-0.884,0.0
10.409,0.337,-0.893,0.0
9.925,0.319,-0.905,0.0
13.403,0.428,-0.844,0.0
12.453,0.395,-0.851,0.0
11.747,0.37,-0.866,0.0
11.133,0.348,-0.881,0.0
10.561,0.328,-0.893,0.0
10.019,0.309,-0.901,0.0
13.744,0.421,-0.848,0.0
12.728,0.387,-0.853,0.0
11.941,0.361,-0.865,0.0
11.246,0.337,-0.876,0.0
10.702,0.318,-0.891,0.0
10.148,0.3,-0.9,0.0
13.917,0.409,-0.841,0.0
12.899,0.376,-0.849,0.0
12.144,0.351,-0.864,0.0
11.334,0.325,-0.868,0.0
10.843,0.309,-0.889,0.0
10.304,0.291,-0.9,0.0
14.193,0.399,-0.839,0.0
13.133,0.366,-0.847,0.0
12.393,0.343,-0.865,0.0
11.597,0.318,-0.873,0.0
11.003,0.3,-0.887,0.0
10.375,0.28,-0.892,0.0
14.396,0.387,-0.832,0.0
13.459,0.359,-0.849,0.0
12.593,0.333,-0.862,0.0
11.82,0.31,-0.873,0.0
11.15,0.29,-0.883,0.0
10.591,0.273,-0.896,0.0
14.717,0.377,-0.83,0.0
13.709,0.348,-0.846,0.0
12.745,0.321,-0.854,0.0
11.985,0.299,-0.868,0.0
11.376,0.282,-0.885,0.0
10.752,0.264,-0.894,0.0
14.998,0.366,-0.824,0.0
14.064,0.341,-0.847,1.0
12.937,0.31,-0.848,0.0
12.301,0.293,-0.873,0.0
11.542,0.272,-0.881,0.0
10.962,0.256,-0.895,0.0
15.311,0.356,-0.819,0.0
14.274,0.329,-0.839,1.0
13.334,0.304,-0.855,1.0
12.477,0.282,-0.867,0.0
11.784,0.264,-0.882,0.0
11.114,0.247,-0.891,0.0
15.688,0.346,-0.816,0.0
14.601,0.319,-0.836,0.0
13.609,0.295,-0.852,1.0
12.686,0.272,-0.863,0.0
12.036,0.256,-0.882,0.0
11.241,0.237,-0.884,0.0
16.008,0.335,-0.808,0.0
14.894,0.309,-0.83,0.0
13.946,0.287,-0.851,1.0
12.91,0.263,-0.858,0.0
12.227,0.246,-0.877,0.0
11.45,0.228,-0.882,0.0
16.605,0.329,-0.812,0.0
15.193,0.298,-0.823,0.0
14.248,0.277,-0.847,1.0
13.279,0.255,-0.861,1.0
12.414,0.236,-0.871,0.0
11.756,0.222,-0.887,0.0
17.157,0.322,-0.812,0.0
15.56,0.289,-0.818,0.0
14.53,0.267,-0.841,1.0
13.546,0.246,-0.857,1.0
12.652,0.227,-0.867,0.0
11.996,0.213,-0.886,1.0
17.585,0.311,-0.803,0.0
15.824,0.277,-0.806,0.0
14.876,0.257,-0.836,0.0
13.823,0.236,-0.852,1.0
12.93,0.219,-0.865,0.0
12.162,0.204,-0.878,1.0
17.969,0.299,-0.792,0.0
16.589,0.273,-0.818,2.0
15.137,0.246,-0.826,0.0
14.175,0.228,-0.849,1.0
13.23,0.21,-0.863,1.0
12.434,0.195,-0.876,0.0
18.672,0.292,-0.791,0.0
16.873,0.26,-0.803,0.0
15.596,0.238,-0.824,0.0
14.535,0.219,-0.846,0.0
13.521,0.201,-0.858,1.0
12.694,0.187,-0.872,0.0
19.372,0.283,-0.787,1.0
17.566,0.254,-0.806,0.0
15.888,0.227,-0.812,0.0
14.879,0.21,-0.84,0.0
13.818,0.192,-0.853,0.0
12.952,0.178,-0.868,1.0
19.566,0.267,-0.761,4.0
18.1,0.244,-0.799,0.0
16.526,0.22,-0.816,0.0
15.298,0.201,-0.837,0.0
14.179,0.184,-0.85,0.0
13.184,0.169,-0.86,1.0
19.627,0.25,-0.728,7.0
18.752,0.235,-0.794,0.0
17.137,0.212,-0.815,0.0
15.641,0.191,-0.828,0.0
14.576,0.176,-0.847,0.0
13.516,0.161,-0.857,1.0
19.674,0.232,-0.695,16.0
19.468,0.227,-0.789,1.0
17.669,0.203,-0.808,0.0
15.939,0.18,-0.814,0.0
14.921,0.166,-0.84,0.0
13.865,0.152,-0.853,0.0
19.669,0.215,-0.659,18.0
19.618,0.212,-0.759,3.0
18.222,0.194,-0.8,0.0
16.419,0.172,-0.809,0.0
15.32,0.158,-0.835,1.0
14.241,0.145,-0.85,0.0
19.688,0.199,-0.623,14.0
19.682,0.196,-0.726,6.0
19.002,0.186,-0.8,0.0
17.069,0.165,-0.809,0.0
15.65,0.148,-0.823,0.0
14.659,0.137,-0.848,0.0
19.704,0.183,-0.587,7.0
19.73,0.18,-0.69,2.0
19.488,0.175,-0.783,1.0
17.801,0.157,-0.81,0.0
16.169,0.141,-0.82,0.0
15.088,0.129,-0.844,0.0
19.814,0.011,0.093,2.0
19.744,0.01,-0.008,9.0
19.793,0.009,-0.11,0.0
0.0,0.0,0.0,0.0
19.818,0.008,-0.316,0.0
29.778,0.011,-0.627,0.0
19.775,0.007,0.135,1.0
19.753,0.006,0.033,6.0
19.754,0.006,-0.067,4.0
19.761,0.005,-0.171,0.0
0.0,0.0,0.0,0.0
30.951,0.007,-0.586,0.0
19.687,0.004,0.177,10.0
19.755,0.003,0.076,3.0
19.727,0.003,-0.025,10.0
19.785,0.003,-0.128,1.0
0.0,0.0,0.0,0.0
0.0,0.0,0.0,0.0
19.644,0.002,0.219,16.0
19.693,0.001,0.118,1.0
19.738,0.001,0.017,9.0
19.747,0.001,-0.086,2.0
19.751,0.0,-0.187,0.0
0.0,0.0,0.0,0.0
19.631,0.0,0.26,13.0
19.737,0.0,0.16,5.0
19.734,0.0,0.059,6.0
19.733,0.0,-0.044,10.0
19.774,0.0,-0.145,1.0
0.0,0.0,0.0,0.0
19.63,0.0,0.303,14.0
19.64,0.0,0.202,14.0
19.697,0.0,0.101,2.0
19.72,0.0,-0.001,11.0
19.774,0.0,-0.103,2.0
42.11,0.0,-0.437,0.0
19.636,0.0,0.345,13.0
19.636,0.0,0.244,13.0
19.78,0.0,0.144,2.0
19.73,0.0,0.04,7.0
19.747,0.0,-0.061,9.0
19.762,0.0,-0.162,0.0
19.623,0.0,0.386,14.0
19.621,0.0,0.285,13.0
19.654,0.0,0.185,12.0
19.729,0.0,0.082,3.0
19.729,0.001,-0.018,12.0
19.765,0.001,-0.12,2.0
19.632,0.001,0.429,13.0
19.621,0.001,0.327,12.0
19.636,0.002,0.227,14.0
19.749,0.002,0.125,1.0
19.735,0.003,0.023,8.0
19.756,0.003,-0.077,4.0
19.622,0.003,0.471,13.0
19.618,0.004,0.37,14.0
19.622,0.004,0.269,13.0
19.68,0.005,0.167,9.0
19.782,0.005,0.065,3.0
19.744,0.006,-0.035,9.0
19.613,0.006,0.513,13.0
19.623,0.007,0.412,11.0
19.619,0.007,0.311,13.0
19.62,0.008,0.208,15.0
19.778,0.009,0.108,1.0
19.737,0.009,0.006,8.0
19.625,0.009,0.555,13.0
19.619,0.01,0.454,12.0
19.612,0.011,0.353,13.0
19.615,0.012,0.25,13.0
19.779,0.013,0.15,3.0
19.766,0.014,0.048,6.0
19.622,0.014,0.597,13.0
19.614,0.015,0.495,12.0
19.621,0.016,0.394,12.0
19.613,0.017,0.291,13.0
19.64,0.018,0.19,14.0
19.781,0.019,0.09,2.0
19.629,0.019,0.638,13.0
19.602,0.02,0.536,12.0
19.612,0.021,0.436,11.0
19.6,0.022,0.333,16.0
19.623,0.023,0.232,15.0
19.732,0.024,0.131,15.0
19.636,0.024,0.68,13.0
19.612,0.026,0.578,13.0
19.605,0.027,0.477,13.0
19.616,0.028,0.374,14.0
19.618,0.029,0.273,14.0
19.698,0.031,0.173,15.0
19.64,0.031,0.722,13.0
19.616,0.032,0.62,11.0
19.601,0.034,0.518,12.0
19.604,0.035,0.415,12.0
19.617,0.036,0.314,16.0
19.626,0.038,0.213,16.0
19.667,0.038,0.764,21.0
19.614,0.04,0.661,11.0
19.605,0.041,0.559,13.0
19.604,0.043,0.456,13.0
19.614,0.044,0.355,14.0
19.627,0.046,0.254,12.0
19.632,0.046,0.804,18.0
19.639,0.048,0.702,11.0
19.603,0.049,0.6,12.0
19.601,0.051,0.496,12.0
19.603,0.053,0.395,13.0
19.616,0.054,0.294,13.0
19.594,0.054,0.842,22.0
19.64,0.056,0.743,13.0
19.608,0.058,0.64,12.0
19.597,0.06,0.537,13.0
19.607,0.062,0.436,16.0
19.614,0.063,0.335,15.0
19.58,0.064,0.882,26.0
19.655,0.066,0.784,19.0
19.621,0.068,0.681,11.0
19.591,0.069,0.577,13.0
19.612,0.071,0.476,21.0
19.613,0.073,0.374,21.0
19.577,0.074,0.922,25.0
19.612,0.076,0.822,10.0
19.631,0.078,0.721,10.0
19.598,0.08,0.617,12.0
19.593,0.082,0.515,17.0
19.604,0.084,0.414,23.0
19.582,0.084,0.962,23.0
19.578,0.086,0.86,16.0
19.651,0.089,0.761,14.0
19.609,0.091,0.656,12.0
19.599,0.093,0.554,15.0
19.612,0.095,0.453,24.0
19.571,0.095,1.001,10.0
19.576,0.098,0.899,16.0
19.659,0.1,0.801,13.0
19.621,0.102,0.696,11.0
19.597,0.105,0.593,13.0
19.606,0.107,0.492,18.0
19.632,0.108,1.043,2.0
19.594,0.11,0.939,15.0
19.652,0.112,0.839,4.0
19.627,0.115,0.735,10.0
19.609,0.117,0.632,12.0
19.604,0.119,0.53,21.0
0.0,0.0,0.0,0.0
19.624,0.123,0.979,8.0
19.629,0.125,0.877,3.0
19.665,0.128,0.774,5.0
19.615,0.13,0.671,12.0
19.595,0.133,0.568,16.0
113.977,0.78,6.505,43.0
19.641,0.137,1.018,0.0
19.621,0.139,0.915,2.0
113.99,0.825,4.714,41.0
19.63,0.144,0.709,9.0
19.6,0.147,0.606,14.0
113.956,0.86,6.724,5.0
114.084,0.877,6.136,3.0
0.0,0.0,0.0,0.0
0.0,0.0,0.0,0.0
19.652,0.159,0.747,7.0
19.605,0.161,0.643,12.0
0.0,0.0,0.0,0.0
0.0,0.0,0.0,0.0
0.0,0.0,0.0,0.0
187.46,1.636,8.463,8.0
19.677,0.174,0.785,0.0
19.625,0.177,0.681,9.0
0.0,0.0,0.0,0.0
122.002,1.124,7.023,13.0
0.0,0.0,0.0,0.0
0.0,0.0,0.0,0.0
186.615,1.804,7.799,15.0
19.658,0.193,0.719,9.0
0.0,0.0,0.0,0.0
121.926,1.223,7.246,24.0
0.0,0.0,0.0,0.0
0.0,0.0,0.0,0.0
186.281,1.956,8.128,15.0
19.695,0.209,0.756,2.0
0.0,0.0,0.0,0.0
121.9,1.325,7.467,11.0
122.043,1.346,6.837,13.0
0.0,0.0,0.0,0.0
186.465,2.116,8.471,6.0
185.611,2.137,7.463,12.0
0.0,0.0,0.0,0.0
0.0,0.0,0.0,0.0
121.733,1.449,7.036,21.0
122.017,1.472,6.401,11.0
84.806,1.038,4.004,27.0
84.819,1.052,3.56,40.0
84.826,1.058,5.946,9.0
84.824,1.072,5.499,40.0
84.816,1.086,5.052,49.0
84.807,1.101,4.599,52.0
84.821,1.115,4.154,42.0
84.835,1.13,3.711,25.0
84.823,1.137,6.096,40.0
84.802,1.151,5.647,20.0
121.366,1.668,7.444,13.0
121.93,1.697,6.823,18.0
122.222,1.722,6.197,25.0
121.639,1.735,5.527,19.0
0.0,0.0,0.0,0.0
129.415,1.879,8.84,11.0
135.372,1.99,8.532,6.0
121.717,1.811,7.018,25.0
121.991,1.836,6.391,20.0
121.423,1.85,5.722,22.0
0.0,0.0,0.0,0.0
129.249,2.003,9.046,25.0
129.43,2.029,8.375,19.0
121.483,1.927,7.207,15.0
121.919,1.957,6.591,24.0
121.612,1.974,5.934,21.0
55.336,0.904,4.258,0.0
55.223,0.912,3.957,2.0
55.227,0.922,3.665,22.0
55.213,0.932,3.366,29.0
55.2,0.942,3.074,51.0
55.196,0.952,2.783,61.0
55.222,0.959,4.34,71.0
55.194,0.969,4.045,75.0
55.196,0.979,3.753,75.0
55.187,0.989,3.454,71.0
55.185,0.999,3.162,67.0
55.188,1.01,2.87,55.0
55.218,1.017,4.428,22.0
55.207,1.027,4.135,15.0
55.211,1.038,3.842,4.0
129.149,2.453,8.289,12.0
0.0,0.0,0.0,0.0
121.834,2.362,6.529,17.0
0.0,0.0,0.0,0.0
129.25,2.546,9.883,25.0
129.286,2.571,9.196,21.0
129.394,2.598,8.504,19.0
129.399,2.624,7.818,13.0
121.788,2.493,6.712,14.0
0.0,0.0,0.0,0.0
129.349,2.69,10.087,12.0
127.344,2.673,9.253,20.0
129.401,2.742,8.7,11.0
129.401,2.768,8.013,21.0
129.625,2.799,7.34,17.0
0.0,0.0,0.0,0.0
0.0,0.0,0.0,0.0
127.138,2.813,9.428,9.0
127.051,2.837,8.732,25.0
133.959,3.019,8.494,16.0
133.553,3.037,7.758,23.0
0.0,0.0,0.0,0.0
0.0,0.0,0.0,0.0
127.4,2.967,9.633,2.0
127.212,2.989,8.928,20.0
121.59,2.883,7.887,24.0
133.81,3.2,7.967,26.0
0.0,0.0,0.0,0.0
0.0,0.0,0.0,0.0
0.0,0.0,0.0,0.0
127.118,3.138,9.101,24.0
121.479,3.023,8.049,19.0
45.473,1.141,2.77,16.0
0.0,0.0,0.0,0.0
0.0,0.0,0.0,0.0
0.0,0.0,0.0,0.0
127.175,3.293,9.283,24.0
43.668,1.14,2.954,88.0
43.693,1.149,2.722,150.0
0.0,0.0,0.0,0.0
0.0,0.0,0.0,0.0
0.0,0.0,0.0,0.0
127.663,3.461,9.489,13.0
0.0,0.0,0.0,0.0
0.0,0.0,0.0,0.0
0.0,0.0,0.0,0.0
0.0,0.0,0.0,0.0
0.0,0.0,0.0,0.0
40.072,1.136,3.031,0.0
40.113,1.146,2.818,91.0
40.112,1.154,2.604,150.0
0.0,0.0,0.0,0.0
0.0,0.0,0.0,0.0
0.0,0.0,0.0,0.0
0.0,0.0,0.0,0.0
40.111,1.196,2.869,105.0
40.111,1.204,2.654,150.0
0.0,0.0,0.0,0.0
0.0,0.0,0.0,0.0
0.0,0.0,0.0,0.0
0.0,0.0,0.0,0.0
40.111,1.247,2.917,124.0
40.1,1.255,2.701,150.0
0.0,0.0,0.0,0.0
0.0,0.0,0.0,0.0
0.0,0.0,0.0,0.0
0.0,0.0,0.0,0.0
40.097,1.298,2.963,38.0
40.102,1.306,2.748,53.0
0.0,0.0,0.0,0.0
0.0,0.0,0.0,0.0
0.0,0.0,0.0,0.0
0.0,0.0,0.0,0.0
40.142,1.351,3.012,9.0
40.199,1.362,2.8,109.0
0.0,0.0,0.0,0.0
0.0,0.0,0.0,0.0
0.0,0.0,0.0,0.0
0.0,0.0,0.0,0.0
0.0,0.0,0.0,0.0
40.207,1.414,2.843,121.0
0.0,0.0,0.0,0.0
0.0,0.0,0.0,0.0
0.0,0.0,0.0,0.0
0.0,0.0,0.0,0.0
0.0,0.0,0.0,0.0
40.208,1.467,2.886,150.0
0.0,0.0,0.0,0.0
0.0,0.0,0.0,0.0
0.0,0.0,0.0,0.0
0.0,0.0,0.0,0.0
0.0,0.0,0.0,0.0
40.195,1.521,2.925,117.0
0.0,0.0,0.0,0.0
0.0,0.0,0.0,0.0
0.0,0.0,0.0,0.0
0.0,0.0,0.0,0.0
0.0,0.0,0.0,0.0
40.201,1.575,2.964,83.0
0.0,0.0,0.0,0.0
0.0,0.0,0.0,0.0
0.0,0.0,0.0,0.0
0.0,0.0,0.0,0.0
0.0,0.0,0.0,0.0
40.195,1.63,3.001,12.0
0.0,0.0,0.0,0.0
0.0,0.0,0.0,0.0
0.0,0.0,0.0,0.0
0.0,0.0,0.0,0.0
0.0,0.0,0.0,0.0
23.641,0.99,1.786,0.0
23.576,0.995,2.448,0.0
23.57,0.999,2.318,0.0
23.552,1.003,2.187,1.0
23.563,1.009,2.057,18.0
23.573,1.014,1.929,32.0
23.577,1.02,1.8,40.0
23.563,1.026,2.467,41.0
23.555,1.031,2.336,40.0
23.556,1.035,2.207,40.0
23.552,1.041,2.075,47.0
23.544,1.045,1.945,61.0
23.551,1.051,1.817,69.0
23.533,1.057,2.482,77.0
23.529,1.062,2.352,72.0
23.541,1.067,2.224,72.0
23.53,1.072,2.091,70.0
23.545,1.078,1.963,71.0
23.546,1.083,1.835,69.0
23.537,1.09,2.5,73.0
23.525,1.094,2.369,59.0
23.531,1.099,2.24,54.0
23.543,1.105,2.109,47.0
23.541,1.11,1.98,45.0
23.557,1.116,1.852,45.0
23.564,1.124,2.52,44.0
23.546,1.128,2.388,26.0
23.551,1.133,2.258,16.0
23.547,1.138,2.126,9.0
23.567,1.144,1.998,3.0
23.601,1.151,1.871,0.0
0.0,0.0,0.0,0.0
0.0,0.0,0.0,0.0
0.0,0.0,0.0,0.0
0.0,0.0,0.0,0.0
0.0,0.0,0.0,0.0
0.0,0.0,0.0,0.0
0.0,0.0,0.0,0.0
0.0,0.0,0.0,0.0
0.0,0.0,0.0,0.0
0.0,0.0,0.0,0.0
0.0,0.0,0.0,0.0
0.0,0.0,0.0,0.0
0.0,0.0,0.0,0.0
0.0,0.0,0.0,0.0
0.0,0.0,0.0,0.0
0.0,0.0,0.0,0.0
0.0,0.0,0.0,0.0
0.0,0.0,0.0,0.0
0.0,0.0,0.0,0.0
0.0,0.0,0.0,0.0
0.0,0.0,0.0,0.0
0.0,0.0,0.0,0.0
0.0,0.0,0.0,0.0
0.0,0.0,0.0,0.0
0.0,0.0,0.0,0.0
0.0,0.0,0.0,0.0
0.0,0.0,0.0,0.0
0.0,0.0,0.0,0.0
0.0,0.0,0.0,0.0
0.0,0.0,0.0,0.0
0.0,0.0,0.0,0.0
0.0,0.0,0.0,0.0
0.0,0.0,0.0,0.0
0.0,0.0,0.0,0.0
0.0,0.0,0.0,0.0
0.0,0.0,0.0,0.0
0.0,0.0,0.0,0.0
0.0,0.0,0.0,0.0
0.0,0.0,0.0,0.0
0.0,0.0,0.0,0.0
0.0,0.0,0.0,0.0
0.0,0.0,0.0,0.0
0.0,0.0,0.0,0.0
0.0,0.0,0.0,0.0
0.0,0.0,0.0,0.0
0.0,0.0,0.0,0.0
0.0,0.0,0.0,0.0
0.0,0.0,0.0,0.0
0.0,0.0,0.0,0.0
0.0,0.0,0.0,0.0
0.0,0.0,0.0,0.0
0.0,0.0,0.0,0.0
0.0,0.0,0.0,0.0
0.0,0.0,0.0,0.0
0.0,0.0,0.0,0.0
0.0,0.0,0.0,0.0
0.0,0.0,0.0,0.0
0.0,0.0,0.0,0.0
0.0,0.0,0.0,0.0
100.469,6.33,11.236,9.0
100.319,6.339,10.655,8.0
100.126,6.346,10.072,9.0
100.026,6.357,9.492,15.0
99.953,6.372,8.925,22.0
99.944,6.39,8.366,25.0
99.873,6.428,11.187,35.0
99.904,6.448,10.628,36.0
99.909,6.466,10.066,34.0
99.916,6.485,9.496,38.0
99.919,6.503,8.937,35.0
99.932,6.523,8.379,34.0
99.883,6.564,11.2,35.0
99.891,6.582,10.638,37.0
99.896,6.599,10.077,37.0
99.913,6.617,9.506,41.0
99.927,6.636,8.947,34.0
99.951,6.656,8.39,34.0
99.89,6.697,11.209,36.0
99.902,6.715,10.647,37.0
99.906,6.731,10.084,36.0
99.914,6.749,9.512,40.0
99.924,6.766,8.953,35.0
99.922,6.784,8.392,41.0
99.89,6.828,11.213,36.0
99.918,6.845,10.652,33.0
99.907,6.861,10.087,35.0
99.899,6.878,9.513,36.0
99.902,6.896,8.951,35.0
99.946,6.916,8.394,36.0
99.895,6.958,11.214,31.0
99.909,6.974,10.65,37.0
99.908,6.99,10.085,36.0
99.891,7.006,9.509,37.0
99.921,7.024,8.95,36.0
99.934,7.043,8.39,35.0
99.894,7.086,11.209,34.0
99.899,7.102,10.643,34.0
99.926,7.119,10.081,34.0
99.904,7.134,9.504,41.0
99.932,7.153,8.943,38.0
99.923,7.168,8.38,33.0
99.896,7.213,11.2,32.0
99.916,7.23,10.635,35.0
99.914,7.245,10.069,32.0
99.917,7.261,9.494,27.0
99.934,7.279,8.932,16.0
99.863,7.289,8.364,14.0
98.971,7.27,11.083,4.0
99.059,7.292,10.53,5.0
98.974,7.3,9.96,5.0
99.035,7.32,9.395,6.0
99.045,7.336,8.837,8.0
99.071,7.353,8.28,9.0
99.003,7.395,11.069,46.0
99.002,7.408,10.506,54.0
99.017,7.425,9.945,55.0
99.005,7.438,9.373,59.0
99.031,7.455,8.815,51.0
99.026,7.47,8.256,44.0
99.023,7.516,11.05,16.0
98.931,7.523,10.476,4.0
99.057,7.547,9.927,2.0
99.183,7.571,9.366,1.0
99.046,7.575,8.793,15.0
94.928,7.274,7.891,1.0
94.826,7.312,10.556,6.0
94.85,7.327,10.018,7.0
94.801,7.335,9.474,8.0
94.83,7.351,8.929,9.0
94.856,7.366,8.393,10.0
94.868,7.381,7.858,12.0
94.815,7.422,10.527,46.0
94.803,7.433,9.984,53.0
94.821,7.447,9.446,50.0
94.818,7.459,8.898,49.0
94.819,7.473,8.359,43.0
94.836,7.487,7.824,41.0
94.851,7.534,10.498,7.0
94.817,7.543,9.953,8.0
94.794,7.554,9.41,6.0
94.775,7.565,8.859,5.0
94.865,7.584,8.329,5.0
94.82,7.594,7.787,4.0
98.404,7.929,10.853,1.0
98.586,7.954,10.31,1.0
98.459,7.956,9.735,5.0
98.701,7.988,9.186,5.0
98.763,8.005,8.631,5.0
98.612,8.007,8.058,6.0
