X,Y,Z,Reflectivity
13.241,-1.031,-0.866,0.0
12.425,-0.971,-0.882,0.0
11.698,-0.917,-0.897,0.0
10.977,-0.864,-0.904,0.0
10.384,-0.821,-0.913,0.0
14.313,-1.131,-0.857,0.0
13.241,-1.05,-0.867,0.0
12.421,-0.989,-0.883,0.0
11.633,-0.93,-0.893,0.0
10.969,-0.88,-0.904,0.0
10.38,-0.836,-0.914,0.0
14.316,-1.153,-0.858,0.0
13.28,-1.073,-0.87,0.0
12.421,-1.007,-0.883,0.0
11.59,-0.943,-0.89,0.0
10.959,-0.895,-0.903,0.0
10.405,-0.853,-0.916,0.0
14.322,-1.174,-0.858,0.0
13.267,-1.091,-0.869,0.0
12.382,-1.022,-0.88,0.0
11.607,-0.962,-0.892,0.0
10.964,-0.912,-0.904,0.0
10.421,-0.87,-0.917,0.0
14.313,-1.194,-0.857,0.0
13.247,-1.109,-0.867,0.0
12.427,-1.044,-0.883,0.0
11.65,-0.982,-0.894,0.0
10.973,-0.928,-0.904,0.0
10.435,-0.886,-0.918,0.0
14.341,-1.217,-0.858,0.0
13.174,-1.122,-0.862,0.0
12.387,-1.058,-0.879,0.0
11.609,-0.995,-0.89,0.0
10.936,-0.941,-0.9,0.0
10.447,-0.902,-0.918,0.0
14.37,-1.24,-0.858,0.0
13.236,-1.145,-0.864,0.0
12.438,-1.08,-0.881,0.0
11.632,-1.013,-0.89,0.0
11.062,-0.967,-0.909,0.0
10.428,-0.915,-0.915,0.0
14.414,-1.264,-0.859,0.0
13.264,-1.166,-0.864,0.0
12.446,-1.098,-0.88,0.0
11.679,-1.034,-0.892,0.0
11.051,-0.981,-0.906,0.0
10.451,-0.931,-0.915,0.0
14.455,-1.287,-0.859,0.0
13.332,-1.191,-0.866,0.0
12.442,-1.114,-0.877,0.0
11.747,-1.056,-0.895,0.0
11.051,-0.996,-0.903,0.0
10.464,-0.946,-0.914,0.0
14.491,-1.31,-0.857,0.0
13.393,-1.214,-0.867,0.0
12.553,-1.141,-0.882,0.0
11.746,-1.071,-0.892,0.0
11.051,-1.011,-0.9,0.0
10.55,-0.968,-0.918,0.0
14.523,-1.332,-0.855,0.0
13.536,-1.245,-0.872,0.0
12.621,-1.164,-0.883,0.0
11.594,-1.073,-0.877,0.0
11.102,-1.03,-0.901,0.0
10.575,-0.984,-0.917,0.0
14.654,-1.363,-0.859,0.0
13.522,-1.261,-0.867,0.0
12.633,-1.182,-0.88,0.0
11.894,-1.116,-0.896,0.0
11.129,-1.047,-0.9,0.0
10.571,-0.998,-0.913,0.0
14.731,-1.389,-0.858,0.0
13.54,-1.28,-0.864,0.0
12.694,-1.204,-0.88,0.0
11.97,-1.138,-0.897,0.0
11.201,-1.068,-0.901,0.0
10.606,-1.014,-0.912,0.0
14.795,-1.414,-0.856,0.0
13.745,-1.317,-0.871,0.0
12.692,-1.219,-0.875,0.0
11.932,-1.149,-0.889,0.0
11.198,-1.082,-0.897,0.0
10.65,-1.032,-0.912,0.0
14.9,-1.442,-0.856,0.0
13.852,-1.344,-0.872,0.0
12.863,-1.251,-0.881,0.0
12.073,-1.177,-0.895,0.0
11.212,-1.097,-0.893,0.0
10.75,-1.054,-0.916,0.0
15.083,-1.477,-0.86,0.0
13.948,-1.37,-0.872,0.0
12.877,-1.268,-0.876,0.0
12.086,-1.193,-0.89,0.0
11.274,-1.116,-0.892,0.0
10.794,-1.071,-0.914,0.0
15.025,-1.489,-0.849,0.0
14.013,-1.393,-0.869,0.0
12.996,-1.295,-0.877,0.0
12.126,-1.211,-0.887,0.0
11.411,-1.143,-0.897,0.0
10.828,-1.087,-0.911,0.0
15.206,-1.525,-0.851,0.0
14.163,-1.424,-0.871,0.0
13.141,-1.324,-0.88,0.0
12.271,-1.239,-0.891,0.0
11.482,-1.163,-0.896,0.0
10.868,-1.103,-0.909,0.0
15.333,-1.555,-0.85,0.0
14.238,-1.447,-0.867,0.0
13.238,-1.348,-0.879,0.0
12.387,-1.265,-0.892,0.0
11.563,-1.183,-0.896,0.0
10.905,-1.119,-0.905,0.0
15.417,-1.58,-0.845,0.0
14.333,-1.472,-0.864,0.0
13.26,-1.365,-0.872,0.0
12.373,-1.276,-0.883,0.0
11.665,-1.206,-0.897,0.0
11.02,-1.142,-0.908,0.0
15.677,-1.623,-0.85,0.0
14.383,-1.492,-0.858,0.0
13.386,-1.391,-0.872,0.0
12.416,-1.293,-0.878,0.0
11.775,-1.229,-0.898,0.0
11.047,-1.156,-0.903,0.0
15.885,-1.66,-0.851,0.0
14.62,-1.531,-0.863,0.0
13.613,-1.429,-0.878,0.0
12.624,-1.328,-0.884,0.0
11.836,-1.247,-0.894,0.0
11.14,-1.177,-0.903,0.0
15.968,-1.685,-0.844,0.0
14.797,-1.564,-0.863,0.0
13.749,-1.456,-0.877,0.0
12.708,-1.349,-0.881,0.0
12.012,-1.278,-0.899,0.0
11.198,-1.194,-0.899,0.0
16.283,-1.733,-0.849,0.0
14.957,-1.595,-0.861,0.0
13.872,-1.482,-0.875,0.0
12.871,-1.378,-0.883,0.0
12.015,-1.289,-0.89,0.0
11.104,-1.194,-0.883,0.0
16.381,-1.759,-0.842,0.0
15.105,-1.625,-0.858,0.0
14.041,-1.513,-0.874,0.0
13.096,-1.414,-0.888,0.0
12.164,-1.316,-0.892,0.0
11.343,-1.229,-0.893,0.0
16.604,-1.797,-0.84,0.0
15.319,-1.661,-0.859,0.0
14.16,-1.538,-0.871,0.0
13.204,-1.437,-0.885,0.0
12.305,-1.341,-0.892,0.0
11.444,-1.25,-0.892,0.0
16.815,-1.834,-0.838,0.0
15.429,-1.686,-0.852,0.0
14.317,-1.567,-0.869,0.0
13.236,-1.451,-0.876,0.0
12.598,-1.384,-0.903,0.0
11.528,-1.268,-0.889,0.0
16.919,-1.859,-0.828,0.0
15.606,-1.717,-0.849,0.0
14.465,-1.594,-0.865,0.0
13.394,-1.479,-0.875,0.0
12.699,-1.405,-0.899,0.0
11.774,-1.305,-0.898,0.0
17.149,-1.898,-0.825,0.0
15.9,-1.762,-0.851,0.0
14.617,-1.622,-0.862,0.0
13.596,-1.511,-0.877,0.0
12.719,-1.416,-0.889,0.0
11.949,-1.333,-0.9,0.0
17.357,-1.933,-0.82,0.0
16.094,-1.795,-0.847,0.0
14.872,-1.661,-0.863,0.0
13.783,-1.542,-0.876,0.0
12.744,-1.428,-0.879,3.0
12.077,-1.355,-0.899,0.0
17.634,-1.976,-0.816,0.0
16.4,-1.84,-0.848,0.0
15.088,-1.695,-0.862,0.0
13.977,-1.573,-0.875,0.0
12.938,-1.458,-0.88,0.0
12.215,-1.379,-0.897,0.0
0.0,0.0,0.0,0.0
16.56,-1.869,-0.841,0.0
15.319,-1.731,-0.86,0.0
14.178,-1.604,-0.874,0.0
13.079,-1.482,-0.878,0.0
12.384,-1.405,-0.898,0.0
18.382,-2.083,-0.816,0.0
16.77,-1.902,-0.835,0.0
15.566,-1.768,-0.859,0.0
14.355,-1.633,-0.871,0.0
13.384,-1.524,-0.885,0.0
12.492,-1.424,-0.893,0.0
18.635,-2.122,-0.809,0.0
16.909,-1.928,-0.825,0.0
15.772,-1.8,-0.855,0.0
14.504,-1.657,-0.866,0.0
13.56,-1.551,-0.883,0.0
12.696,-1.454,-0.895,0.0
19.044,-2.179,-0.807,0.0
17.308,-1.982,-0.827,0.0
15.971,-1.831,-0.849,0.0
14.759,-1.694,-0.866,0.0
13.732,-1.578,-0.88,0.0
12.853,-1.478,-0.893,0.0
19.028,-2.186,-0.787,0.0
17.572,-2.021,-0.821,0.0
16.278,-1.874,-0.848,0.0
14.983,-1.727,-0.863,0.0
13.9,-1.603,-0.876,0.0
12.968,-1.497,-0.887,0.0
19.779,-2.281,-0.797,0.0
17.967,-2.074,-0.821,0.0
16.374,-1.892,-0.836,0.0
15.17,-1.754,-0.858,0.0
14.135,-1.636,-0.875,0.0
13.179,-1.527,-0.887,0.0
20.18,-2.335,-0.792,0.0
18.58,-2.152,-0.829,0.0
16.648,-1.93,-0.832,0.0
15.547,-1.804,-0.862,0.0
14.331,-1.664,-0.872,0.0
13.441,-1.562,-0.89,0.0
20.704,-2.403,-0.79,0.0
18.78,-2.182,-0.817,0.0
17.034,-1.98,-0.833,0.0
15.741,-1.831,-0.856,0.0
14.507,-1.689,-0.867,0.0
13.598,-1.585,-0.886,0.0
21.059,-2.451,-0.78,0.0
18.923,-2.204,-0.802,0.0
17.382,-2.026,-0.83,0.0
16.006,-1.867,-0.852,0.0
14.802,-1.728,-0.868,0.0
13.741,-1.605,-0.879,0.0
21.172,-2.47,-0.761,0.0
19.11,-2.231,-0.789,0.0
17.557,-2.05,-0.819,0.0
16.333,-1.909,-0.851,0.0
15.111,-1.767,-0.869,0.0
13.963,-1.634,-0.878,0.0
21.865,-2.556,-0.761,0.0
19.755,-2.31,-0.793,0.0
18.076,-2.115,-0.823,0.0
16.523,-1.934,-0.842,0.0
15.272,-1.789,-0.861,0.0
14.19,-1.663,-0.876,0.0
22.528,-2.637,-0.759,0.0
20.21,-2.367,-0.789,0.0
18.62,-2.181,-0.826,0.0
16.875,-1.978,-0.841,0.0
15.662,-1.836,-0.865,0.0
14.387,-1.688,-0.871,0.0
22.93,-2.687,-0.745,0.0
20.834,-2.442,-0.789,0.0
18.881,-2.214,-0.816,0.0
17.285,-2.028,-0.841,0.0
15.83,-1.858,-0.855,0.0
14.68,-1.723,-0.872,0.0
23.498,-2.756,-0.736,0.0
0.0,0.0,0.0,0.0
19.095,-2.241,-0.802,0.0
17.471,-2.05,-0.829,0.0
16.18,-1.9,-0.855,0.0
15.006,-1.762,-0.873,0.0
24.131,-2.831,-0.727,0.0
21.775,-2.555,-0.773,0.0
19.509,-2.29,-0.796,0.0
17.781,-2.087,-0.823,0.0
16.475,-1.934,-0.85,0.0
15.159,-1.78,-0.864,0.0
24.771,-2.906,-0.717,0.0
22.336,-2.621,-0.766,0.0
0.0,0.0,0.0,0.0
18.362,-2.155,-0.828,0.0
16.822,-1.974,-0.848,0.0
15.482,-1.817,-0.863,0.0
25.435,-2.983,-0.706,0.0
22.823,-2.676,-0.755,0.0
20.543,-2.409,-0.789,0.0
18.731,-2.197,-0.821,0.0
17.079,-2.003,-0.84,0.0
15.85,-1.859,-0.865,0.0
0.0,0.0,0.0,0.0
23.186,-2.717,-0.739,0.0
20.904,-2.449,-0.778,0.0
18.92,-2.216,-0.807,0.0
17.437,-2.043,-0.837,0.0
16.116,-1.888,-0.86,0.0
27.168,-3.18,-0.688,0.0
24.271,-2.84,-0.744,0.0
21.286,-2.49,-0.766,0.0
19.272,-2.254,-0.798,0.0
17.611,-2.06,-0.824,0.0
16.356,-1.913,-0.852,0.0
27.521,-3.216,-0.664,0.0
24.679,-2.883,-0.727,0.0
22.007,-2.57,-0.765,0.0
19.811,-2.313,-0.797,0.0
18.052,-2.107,-0.822,0.0
16.643,-1.942,-0.847,0.0
28.995,-3.381,-0.664,0.0
25.5,-2.973,-0.72,0.0
22.662,-2.641,-0.76,0.0
20.207,-2.354,-0.788,0.0
18.715,-2.179,-0.83,0.0
16.937,-1.972,-0.841,0.0
29.572,-3.44,-0.641,0.0
25.735,-2.993,-0.695,0.0
23.042,-2.678,-0.745,0.0
21.06,-2.447,-0.795,0.0
18.875,-2.192,-0.813,0.0
17.379,-2.018,-0.842,0.0
30.557,-3.545,-0.625,0.0
27.065,-3.138,-0.698,0.0
23.605,-2.735,-0.734,0.0
21.152,-2.45,-0.773,0.0
19.352,-2.24,-0.81,0.0
17.566,-2.033,-0.829,0.0
31.437,-3.635,-0.604,0.0
27.378,-3.164,-0.672,0.0
24.339,-2.811,-0.727,0.0
21.889,-2.526,-0.773,0.0
19.708,-2.273,-0.801,0.0
18.019,-2.078,-0.828,0.0
30.187,-3.478,-0.544,1.0
0.0,0.0,0.0,0.0
25.062,-2.884,-0.718,0.0
22.463,-2.583,-0.766,0.0
20.256,-2.327,-0.798,0.0
18.452,-2.119,-0.826,0.0
33.281,-3.819,-0.559,0.0
29.176,-3.345,-0.645,0.0
25.696,-2.944,-0.705,0.0
22.994,-2.632,-0.755,0.0
20.43,-2.337,-0.78,0.0
18.705,-2.138,-0.814,0.0
0.0,0.0,0.0,0.0
30.182,-3.445,-0.63,0.0
26.756,-3.051,-0.701,0.0
23.866,-2.719,-0.755,0.0
21.268,-2.421,-0.786,0.0
19.283,-2.194,-0.816,0.0
36.511,-4.151,-0.524,0.0
31.133,-3.536,-0.612,0.0
26.969,-3.06,-0.674,1.0
24.117,-2.734,-0.734,0.0
21.73,-2.461,-0.777,0.0
19.449,-2.201,-0.799,0.0
37.085,-4.194,-0.487,0.0
0.0,0.0,0.0,0.0
28.152,-3.177,-0.669,0.0
24.797,-2.796,-0.724,0.0
22.314,-2.513,-0.771,0.0
20.003,-2.25,-0.797,0.0
109.336,-7.727,1.957,13.0
100.091,-7.038,1.247,7.0
100.104,-7.003,0.704,9.0
0.0,0.0,0.0,0.0
0.0,0.0,0.0,0.0
0.0,0.0,0.0,0.0
100.085,-6.888,1.841,1.0
100.093,-6.854,1.297,3.0
0.0,0.0,0.0,0.0
0.0,0.0,0.0,0.0
0.0,0.0,0.0,0.0
0.0,0.0,0.0,0.0
117.392,-7.86,2.215,30.0
0.0,0.0,0.0,0.0
99.723,-6.605,0.795,6.0
99.721,-6.57,0.242,8.0
0.0,0.0,0.0,0.0
42.813,-2.79,-0.362,0.0
117.401,-7.641,2.265,34.0
125.228,-8.104,1.734,27.0
125.18,-8.055,1.051,20.0
0.0,0.0,0.0,0.0
0.0,0.0,0.0,0.0
0.0,0.0,0.0,0.0
147.953,-9.343,2.915,15.0
148.03,-9.294,2.108,26.0
150.006,-9.364,1.318,13.0
108.493,-6.734,0.35,2.0
0.0,0.0,0.0,0.0
0.0,0.0,0.0,0.0
148.19,-9.075,2.972,15.0
148.842,-9.062,2.173,24.0
149.919,-9.072,1.37,15.0
109.15,-6.565,0.39,1.0
0.0,0.0,0.0,0.0
0.0,0.0,0.0,0.0
148.878,-8.829,3.035,21.0
149.154,-8.789,2.225,23.0
149.9,-8.777,1.416,11.0
0.0,0.0,0.0,0.0
0.0,0.0,0.0,0.0
0.0,0.0,0.0,0.0
147.502,-8.457,3.05,13.0
140.713,-8.016,2.139,35.0
0.0,0.0,0.0,0.0
0.0,0.0,0.0,0.0
0.0,0.0,0.0,0.0
0.0,0.0,0.0,0.0
140.694,-7.787,2.945,29.0
0.0,0.0,0.0,0.0
0.0,0.0,0.0,0.0
0.0,0.0,0.0,0.0
0.0,0.0,0.0,0.0
0.0,0.0,0.0,0.0
140.69,-7.507,2.976,3.0
0.0,0.0,0.0,0.0
101.478,-5.339,1.033,17.0
102.837,-5.372,0.473,1.0
0.0,0.0,0.0,0.0
0.0,0.0,0.0,0.0
0.0,0.0,0.0,0.0
0.0,0.0,0.0,0.0
101.535,-5.138,1.051,156.0
103.159,-5.182,0.491,4.0
101.492,-5.06,-0.073,1.0
0.0,0.0,0.0,0.0
0.0,0.0,0.0,0.0
0.0,0.0,0.0,0.0
101.536,-4.932,1.064,168.0
102.589,-4.944,0.501,3.0
101.622,-4.861,-0.061,1.0
0.0,0.0,0.0,0.0
0.0,0.0,0.0,0.0
0.0,0.0,0.0,0.0
101.535,-4.725,1.074,151.0
0.0,0.0,0.0,0.0
0.0,0.0,0.0,0.0
0.0,0.0,0.0,0.0
0.0,0.0,0.0,0.0
0.0,0.0,0.0,0.0
101.426,-4.51,1.079,14.0
102.547,-4.523,0.516,1.0
0.0,0.0,0.0,0.0
0.0,0.0,0.0,0.0
168.943,-7.293,3.664,4.0
101.537,-4.346,1.642,133.0
0.0,0.0,0.0,0.0
0.0,0.0,0.0,0.0
0.0,0.0,0.0,0.0
0.0,0.0,0.0,0.0
162.431,-6.677,3.522,8.0
0.0,0.0,0.0,0.0
0.0,0.0,0.0,0.0
0.0,0.0,0.0,0.0
0.0,0.0,0.0,0.0
48.353,-1.897,-0.29,0.0
162.418,-6.339,3.515,4.0
0.0,0.0,0.0,0.0
0.0,0.0,0.0,0.0
0.0,0.0,0.0,0.0
0.0,0.0,0.0,0.0
0.0,0.0,0.0,0.0
0.0,0.0,0.0,0.0
162.223,-5.937,2.6,17.0
152.028,-5.507,1.596,150.0
0.0,0.0,0.0,0.0
0.0,0.0,0.0,0.0
0.0,0.0,0.0,0.0
162.417,-5.661,3.482,3.0
162.17,-5.594,2.579,16.0
152.333,-5.197,1.579,22.0
0.0,0.0,0.0,0.0
0.0,0.0,0.0,0.0
0.0,0.0,0.0,0.0
162.377,-5.321,3.456,12.0
162.197,-5.257,2.553,16.0
161.992,-5.189,1.652,16.0
0.0,0.0,0.0,0.0
0.0,0.0,0.0,0.0
0.0,0.0,0.0,0.0
168.107,-5.156,3.545,7.0
163.752,-4.96,2.544,15.0
162.042,-4.849,1.618,13.0
0.0,0.0,0.0,0.0
0.0,0.0,0.0,0.0
0.0,0.0,0.0,0.0
167.816,-4.791,3.499,17.0
162.039,-4.565,2.478,6.0
161.936,-4.502,1.576,18.0
0.0,0.0,0.0,0.0
0.0,0.0,0.0,0.0
0.0,0.0,0.0,0.0
168.157,-4.445,3.459,10.0
162.005,-4.225,2.432,8.0
162.147,-4.168,1.533,19.0
0.0,0.0,0.0,0.0
0.0,0.0,0.0,0.0
0.0,0.0,0.0,0.0
170.427,-4.149,3.453,5.0
163.268,-3.913,2.399,6.0
162.023,-3.824,1.479,16.0
0.0,0.0,0.0,0.0
0.0,0.0,0.0,0.0
0.0,0.0,0.0,0.0
170.347,-3.792,3.392,10.0
169.91,-3.721,2.438,7.0
160.703,-3.461,1.41,4.0
0.0,0.0,0.0,0.0
0.0,0.0,0.0,0.0
0.0,0.0,0.0,0.0
170.289,-3.432,3.325,6.0
163.387,-3.233,2.279,25.0
163.339,-3.172,1.367,10.0
0.0,0.0,0.0,0.0
0.0,0.0,0.0,0.0
0.0,0.0,0.0,0.0
170.346,-3.079,3.254,12.0
163.212,-2.89,2.207,29.0
160.764,-2.787,1.276,10.0
0.0,0.0,0.0,0.0
0.0,0.0,0.0,0.0
42.6,-0.692,-0.379,0.0
173.607,-2.769,3.235,13.0
163.185,-2.545,2.129,19.0
19.753,-0.301,0.147,23.0
19.758,-0.294,0.035,0.0
0.0,0.0,0.0,0.0
42.387,-0.601,-0.398,0.0
19.774,-0.274,0.358,5.0
19.74,-0.266,0.247,15.0
19.757,-0.26,0.137,19.0
0.0,0.0,0.0,0.0
0.0,0.0,0.0,0.0
0.0,0.0,0.0,0.0
19.757,-0.233,0.347,11.0
19.758,-0.226,0.237,3.0
160.598,-1.781,1.028,9.0
0.0,0.0,0.0,0.0
0.0,0.0,0.0,0.0
19.782,-0.198,-0.207,5.0
19.766,-0.192,0.336,1.0
169.414,-1.589,1.935,15.0
160.717,-1.45,0.934,14.0
0.0,0.0,0.0,0.0
19.745,-0.164,-0.108,12.0
19.751,-0.157,-0.219,16.0
0.0,0.0,0.0,0.0
19.719,-0.144,0.213,0.0
19.77,-0.137,0.102,3.0
19.733,-0.13,-0.01,10.0
19.712,-0.123,-0.12,17.0
19.74,-0.116,-0.231,17.0
19.685,-0.109,0.31,9.0
19.714,-0.103,0.199,16.0
19.707,-0.096,0.089,13.0
19.703,-0.089,-0.023,16.0
19.714,-0.082,-0.134,16.0
19.746,-0.076,-0.245,15.0
19.658,-0.069,0.296,10.0
19.682,-0.062,0.186,13.0
19.689,-0.056,0.075,15.0
19.699,-0.049,-0.037,16.0
19.736,-0.043,-0.148,13.0
19.765,-0.036,-0.259,1.0
19.626,-0.029,0.281,13.0
19.686,-0.023,0.171,7.0
19.734,-0.016,0.061,7.0
19.744,-0.01,-0.051,8.0
19.803,-0.003,-0.163,0.0
19.773,0.002,-0.274,0.0
19.629,0.009,0.267,15.0
19.753,0.016,0.157,13.0
19.77,0.022,0.046,22.0
19.761,0.029,-0.066,24.0
19.761,0.035,-0.178,15.0
19.775,0.042,-0.289,55.0
19.624,0.048,0.251,14.0
19.697,0.055,0.141,16.0
19.752,0.062,0.03,38.0
19.763,0.068,-0.082,22.0
19.764,0.075,-0.194,12.0
19.772,0.081,-0.305,1.0
19.638,0.087,0.235,15.0
19.653,0.094,0.124,12.0
19.658,0.1,0.013,11.0
19.697,0.107,-0.099,6.0
39.171,0.226,-0.418,0.0
0.0,0.0,0.0,0.0
19.672,0.126,0.218,18.0
19.639,0.133,0.107,14.0
19.64,0.139,-0.003,17.0
19.644,0.145,-0.115,13.0
19.655,0.152,-0.227,9.0
19.677,0.159,-0.338,6.0
19.667,0.165,0.201,13.0
19.658,0.172,0.089,12.0
19.642,0.178,-0.02,13.0
19.626,0.184,-0.133,16.0
19.644,0.19,-0.245,16.0
19.652,0.196,-0.356,15.0
19.775,0.205,0.183,21.0
19.706,0.21,0.071,6.0
19.664,0.216,-0.039,7.0
19.631,0.222,-0.152,16.0
19.644,0.228,-0.263,18.0
19.661,0.235,-0.375,17.0
19.771,0.243,0.164,27.0
84.843,1.069,0.227,1.0
19.676,0.254,-0.058,7.0
19.652,0.26,-0.171,14.0
19.661,0.266,-0.283,15.0
19.687,0.272,-0.394,13.0
19.805,0.281,0.145,0.0
0.0,0.0,0.0,0.0
46.668,0.69,-0.185,2.0
19.686,0.297,-0.191,0.0
19.666,0.303,-0.302,1.0
28.887,0.454,-0.608,0.0
55.202,0.887,0.349,24.0
55.18,0.904,0.036,40.0
45.007,0.75,-0.225,1.0
35.637,0.605,-0.384,0.0
32.173,0.556,-0.529,0.0
28.023,0.493,-0.62,0.0
55.169,0.989,0.29,62.0
55.126,1.005,-0.022,21.0
42.183,0.782,-0.256,1.0
55.202,1.04,-0.654,0.0
28.871,0.552,-0.506,0.0
27.472,0.533,-0.637,1.0
86.424,1.71,0.36,1.0
55.012,1.103,-0.081,1.0
39.033,0.794,-0.279,1.0
32.901,0.679,-0.425,2.0
27.585,0.577,-0.513,0.0
26.186,0.556,-0.636,6.0
79.351,1.713,0.243,1.0
47.951,1.048,-0.125,0.0
38.247,0.847,-0.316,2.0
30.668,0.688,-0.431,0.0
26.01,0.591,-0.513,0.0
23.351,0.537,-0.593,1.0
45.573,1.065,0.087,30.0
0.0,0.0,0.0,0.0
36.727,0.879,-0.346,3.0
29.961,0.725,-0.456,1.0
25.425,0.623,-0.531,1.0
22.167,0.549,-0.589,0.0
0.0,0.0,0.0,0.0
40.132,1.019,-0.197,70.0
0.0,0.0,0.0,0.0
29.115,0.755,-0.477,2.0
25.163,0.659,-0.555,0.0
21.285,0.564,-0.591,0.0
40.141,1.078,-0.017,160.0
40.053,1.086,-0.245,28.0
40.188,1.1,-0.474,1.0
28.158,0.779,-0.495,1.0
23.876,0.667,-0.556,0.0
20.753,0.585,-0.601,2.0
40.075,1.144,-0.066,50.0
39.884,1.149,-0.292,12.0
27.387,0.796,-0.357,2.0
27.297,0.801,-0.514,7.0
22.838,0.676,-0.56,1.0
20.245,0.605,-0.612,1.0
40.123,1.212,-0.116,108.0
37.529,1.144,-0.322,2.0
30.251,0.93,-0.432,0.0
25.93,0.804,-0.52,6.0
21.936,0.685,-0.565,1.0
19.455,0.613,-0.612,0.0
40.116,1.278,-0.166,127.0
40.171,1.29,-0.396,2.0
29.267,0.947,-0.455,2.0
25.114,0.819,-0.536,1.0
21.509,0.707,-0.582,2.0
19.236,0.637,-0.63,2.0
40.036,1.34,-0.218,63.0
34.871,1.176,-0.389,0.0
28.358,0.963,-0.478,2.0
23.986,0.821,-0.544,1.0
20.907,0.721,-0.593,2.0
18.682,0.649,-0.637,2.0
39.971,1.402,-0.271,12.0
40.181,1.419,-0.502,0.0
27.318,0.972,-0.497,3.0
23.133,0.829,-0.555,1.0
20.056,0.723,-0.596,3.0
18.335,0.666,-0.65,1.0
0.0,0.0,0.0,0.0
30.113,1.111,-0.417,1.0
26.288,0.976,-0.514,3.0
22.176,0.829,-0.563,0.0
19.71,0.742,-0.613,3.0
17.882,0.677,-0.658,2.0
35.806,1.367,-0.341,0.0
29.347,1.127,-0.447,3.0
23.892,0.923,-0.5,5.0
21.402,0.832,-0.573,1.0
19.149,0.749,-0.622,3.0
17.398,0.685,-0.665,2.0
33.495,1.329,-0.366,1.0
28.163,1.124,-0.468,6.0
23.616,0.948,-0.528,27.0
20.865,0.843,-0.588,1.0
18.55,0.753,-0.629,3.0
17.1,0.699,-0.678,2.0
23.712,0.976,-0.292,0.0
27.42,1.134,-0.495,2.0
23.442,0.975,-0.557,9.0
20.044,0.839,-0.593,2.0
18.169,0.764,-0.642,3.0
16.929,0.716,-0.695,2.0
23.646,1.007,-0.325,49.0
23.645,1.012,-0.461,40.0
22.429,0.965,-0.565,4.0
19.575,0.847,-0.608,2.0
17.73,0.771,-0.652,4.0
16.772,0.733,-0.713,1.0
23.618,1.039,-0.36,64.0
23.625,1.044,-0.495,76.0
21.431,0.952,-0.572,3.0
18.917,0.845,-0.615,3.0
17.308,0.777,-0.662,5.0
16.605,0.749,-0.73,2.0
23.622,1.071,-0.395,70.0
23.609,1.076,-0.53,32.0
23.642,1.082,-0.666,0.0
18.455,0.849,-0.628,3.0
17.071,0.789,-0.678,2.0
16.405,0.762,-0.746,2.0
23.623,1.103,-0.43,44.0
23.29,1.092,-0.558,5.0
19.823,0.934,-0.588,2.0
18.086,0.856,-0.642,3.0
16.907,0.804,-0.698,2.0
16.254,0.776,-0.764,2.0
23.672,1.136,-0.467,31.0
21.845,1.053,-0.556,1.0
19.295,0.934,-0.602,2.0
17.675,0.859,-0.655,1.0
16.733,0.817,-0.716,1.0
16.05,0.787,-0.779,2.0
23.7,1.167,-0.503,50.0
21.069,1.042,-0.568,1.0
18.758,0.931,-0.614,3.0
17.212,0.858,-0.664,1.0
16.52,0.827,-0.732,1.0
15.962,0.802,-0.799,2.0
23.598,1.191,-0.538,64.0
20.269,1.027,-0.578,1.0
18.322,0.932,-0.628,3.0
16.991,0.867,-0.682,2.0
16.329,0.837,-0.749,1.0
15.539,0.799,-0.802,0.0
22.478,1.161,-0.547,0.0
19.715,1.022,-0.593,2.0
17.968,0.935,-0.644,1.0
16.831,0.879,-0.702,2.0
16.129,0.845,-0.765,1.0
15.072,0.793,-0.802,0.0
21.174,1.118,-0.549,2.0
19.034,1.008,-0.603,3.0
17.444,0.927,-0.653,0.0
16.626,0.887,-0.719,1.0
15.982,0.856,-0.784,3.0
14.572,0.783,-0.799,0.0
20.747,1.118,-0.57,3.0
18.549,1.003,-0.617,3.0
17.099,0.928,-0.667,2.0
16.399,0.893,-0.735,1.0
15.877,0.867,-0.804,0.0
14.31,0.784,-0.807,0.0
19.967,1.098,-0.581,3.0
18.154,1.001,-0.633,3.0
16.909,0.935,-0.687,2.0
16.22,0.9,-0.754,1.0
15.184,0.845,-0.793,0.0
13.967,0.78,-0.81,0.0
19.477,1.091,-0.598,3.0
17.787,0.999,-0.648,1.0
16.748,0.943,-0.707,1.0
16.029,0.905,-0.77,2.0
14.842,0.841,-0.799,0.0
13.732,0.78,-0.818,0.0
18.804,1.071,-0.607,3.0
17.262,0.986,-0.657,1.0
16.532,0.947,-0.724,1.0
15.944,0.916,-0.792,1.0
14.52,0.837,-0.805,0.0
13.477,0.779,-0.825,0.0
18.353,1.063,-0.622,2.0
17.019,0.988,-0.675,2.0
16.299,0.949,-0.74,1.0
15.403,0.899,-0.79,0.0
14.118,0.826,-0.805,0.0
13.2,0.775,-0.829,0.0
18.033,1.06,-0.64,1.0
16.818,0.991,-0.694,2.0
16.091,0.951,-0.756,1.0
15.083,0.894,-0.798,0.0
13.827,0.821,-0.811,0.0
12.96,0.772,-0.835,0.0
17.463,1.042,-0.648,1.0
16.642,0.995,-0.713,1.0
15.988,0.958,-0.777,2.0
14.756,0.887,-0.804,0.0
13.539,0.816,-0.816,0.0
12.627,0.763,-0.834,0.0
17.114,1.035,-0.663,1.0
16.393,0.994,-0.729,1.0
15.582,0.947,-0.783,0.0
14.365,0.875,-0.806,0.0
13.245,0.809,-0.82,0.0
12.434,0.761,-0.842,0.0
16.917,1.036,-0.683,1.0
16.17,0.993,-0.746,1.0
15.121,0.93,-0.785,0.0
14.021,0.865,-0.81,0.0
13.034,0.806,-0.828,0.0
12.209,0.756,-0.847,0.0
16.731,1.037,-0.703,1.0
16.014,0.995,-0.765,1.0
14.771,0.92,-0.791,0.0
13.587,0.848,-0.807,0.0
12.768,0.798,-0.833,0.0
12.018,0.753,-0.853,0.0
16.498,1.034,-0.72,1.0
15.826,0.994,-0.782,0.0
14.464,0.91,-0.798,0.0
13.413,0.846,-0.819,0.0
12.536,0.792,-0.838,0.0
11.651,0.738,-0.846,0.0
16.269,1.031,-0.736,1.0
15.311,0.972,-0.781,0.0
14.137,0.899,-0.803,0.0
13.131,0.837,-0.823,0.0
12.269,0.783,-0.84,0.0
11.516,0.736,-0.855,0.0
16.071,1.028,-0.754,1.0
14.927,0.957,-0.786,0.0
13.829,0.888,-0.808,0.0
12.845,0.826,-0.826,0.0
12.074,0.778,-0.847,0.0
11.317,0.73,-0.859,0.0
15.905,1.026,-0.772,0.0
14.633,0.946,-0.795,0.0
13.415,0.868,-0.806,0.0
12.551,0.814,-0.828,0.0
11.866,0.771,-0.851,0.0
11.109,0.723,-0.862,0.0
15.443,1.005,-0.775,0.0
14.271,0.93,-0.798,0.0
13.201,0.862,-0.815,0.0
12.422,0.812,-0.84,0.0
11.63,0.761,-0.854,0.0
10.921,0.716,-0.865,0.0
15.196,0.996,-0.787,0.0
13.993,0.918,-0.805,0.0
12.974,0.853,-0.822,0.0
12.105,0.797,-0.838,0.0
11.477,0.757,-0.861,0.0
10.695,0.706,-0.864,0.0
14.671,0.968,-0.784,0.0
13.612,0.899,-0.805,0.0
12.759,0.844,-0.829,0.0
11.945,0.791,-0.846,0.0
11.25,0.746,-0.862,0.0
10.531,0.7,-0.868,0.0
14.563,0.967,-0.801,0.0
13.355,0.888,-0.812,0.0
12.538,0.834,-0.835,0.0
11.742,0.782,-0.851,0.0
10.983,0.733,-0.859,0.0
10.388,0.694,-0.873,0.0
14.326,0.956,-0.811,0.0
13.039,0.871,-0.813,0.0
12.293,0.822,-0.838,0.0
11.532,0.772,-0.854,0.0
10.808,0.725,-0.863,0.0
10.227,0.687,-0.876,0.0
13.727,0.921,-0.799,0.0
12.913,0.867,-0.826,0.0
12.054,0.81,-0.841,0.0
11.357,0.764,-0.859,0.0
10.592,0.713,-0.863,0.0
10.151,0.685,-0.886,0.0
13.462,0.906,-0.805,0.0
12.572,0.847,-0.824,0.0
11.872,0.801,-0.847,0.0
11.038,0.746,-0.853,0.0
10.45,0.707,-0.868,0.0
9.976,0.675,-0.887,0.0
13.219,0.893,-0.812,0.0
12.385,0.837,-0.832,0.0
11.59,0.784,-0.846,0.0
10.879,0.737,-0.858,0.0
10.288,0.698,-0.871,0.0
9.844,0.668,-0.891,0.0
12.988,0.88,-0.818,0.0
12.237,0.83,-0.841,0.0
11.52,0.782,-0.858,0.0
10.684,0.726,-0.859,0.0
10.192,0.693,-0.879,0.0
9.709,0.661,-0.894,0.0
12.794,0.869,-0.825,0.0
11.981,0.814,-0.842,0.0
11.208,0.762,-0.853,0.0
10.491,0.714,-0.86,0.0
10.067,0.686,-0.884,0.0
9.557,0.652,-0.894,0.0
12.577,0.855,-0.83,0.0
11.746,0.799,-0.844,0.0
11.013,0.75,-0.855,0.0
10.343,0.705,-0.864,0.0
9.935,0.677,-0.887,0.0
9.448,0.645,-0.899,0.0
12.347,0.84,-0.834,0.0
11.594,0.79,-0.85,0.0
10.806,0.736,-0.855,0.0
10.288,0.702,-0.875,0.0
9.818,0.67,-0.892,0.0
9.304,0.635,-0.899,0.0
12.209,0.831,-0.843,0.0
11.463,0.781,-0.858,0.0
10.699,0.729,-0.863,0.0
10.143,0.692,-0.878,0.0
9.67,0.66,-0.893,0.0
9.176,0.626,-0.901,0.0
11.951,0.813,-0.843,0.0
11.157,0.76,-0.852,0.0
10.483,0.714,-0.861,0.0
10.019,0.683,-0.882,0.0
9.529,0.65,-0.895,0.0
9.018,0.615,-0.899,0.0
11.692,0.795,-0.842,0.0
11.02,0.75,-0.858,0.0
10.386,0.707,-0.868,0.0
9.891,0.673,-0.885,0.0
9.408,0.641,-0.897,0.0
8.887,0.606,-0.899,0.0
11.563,0.785,-0.85,0.0
10.801,0.734,-0.856,0.0
10.26,0.697,-0.873,0.0
9.782,0.665,-0.89,0.0
9.333,0.635,-0.903,0.0
8.813,0.599,-0.904,0.0
11.47,0.777,-0.86,0.0
10.645,0.721,-0.859,0.0
10.169,0.689,-0.88,0.0
9.635,0.653,-0.89,0.0
9.178,0.622,-0.901,0.0
8.62,0.585,-0.897,0.0
11.113,0.751,-0.848,0.0
10.513,0.711,-0.863,0.0
10.028,0.678,-0.882,0.0
9.544,0.645,-0.895,0.0
9.057,0.612,-0.902,0.0
8.571,0.58,-0.904,0.0
10.994,0.741,-0.855,0.0
10.341,0.697,-0.864,0.0
9.905,0.667,-0.885,0.0
9.388,0.632,-0.894,0.0
8.941,0.602,-0.903,0.0
8.457,0.57,-0.903,0.0
10.836,0.727,-0.857,0.0
10.287,0.69,-0.873,0.0
9.812,0.658,-0.89,0.0
9.291,0.623,-0.897,0.0
8.771,0.588,-0.898,0.0
8.374,0.562,-0.906,0.0
10.69,0.714,-0.86,0.0
10.198,0.681,-0.879,0.0
9.689,0.647,-0.891,0.0
9.143,0.611,-0.895,0.0
8.678,0.579,-0.9,0.0
8.295,0.554,-0.908,0.0
10.526,0.7,-0.86,0.0
10.092,0.671,-0.883,0.0
9.584,0.637,-0.894,0.0
9.057,0.602,-0.898,0.0
8.612,0.572,-0.904,0.0
8.202,0.545,-0.909,0.0
10.402,0.688,-0.864,0.0
9.969,0.659,-0.885,0.0
9.467,0.625,-0.896,0.0
8.979,0.593,-0.902,0.0
8.481,0.56,-0.901,0.0
8.086,0.534,-0.907,0.0
10.317,0.678,-0.87,0.0
9.767,0.641,-0.88,0.0
9.291,0.61,-0.891,0.0
8.828,0.579,-0.898,0.0
8.414,0.552,-0.905,0.0
8.037,0.527,-0.911,0.0
10.227,0.667,-0.875,0.0
9.738,0.635,-0.889,0.0
9.187,0.599,-0.892,0.0
8.731,0.569,-0.899,0.0
8.332,0.543,-0.906,0.0
7.988,0.52,-0.915,0.0
10.139,0.657,-0.879,0.0
9.645,0.625,-0.892,0.0
9.124,0.591,-0.897,0.0
8.636,0.558,-0.9,0.0
8.282,0.535,-0.911,0.0
7.906,0.511,-0.915,0.0
10.061,0.647,-0.884,0.0
9.542,0.613,-0.894,0.0
9.054,0.581,-0.901,0.0
8.562,0.549,-0.902,0.0
8.161,0.523,-0.907,0.0
7.832,0.502,-0.916,0.0
9.968,0.635,-0.888,0.0
9.439,0.601,-0.895,0.0
8.907,0.567,-0.896,0.0
8.488,0.54,-0.904,0.0
8.102,0.515,-0.91,0.0
7.814,0.496,-0.923,0.0
9.871,0.623,-0.89,0.0
9.363,0.591,-0.898,0.0
8.859,0.558,-0.901,0.0
8.424,0.531,-0.907,0.0
8.03,0.505,-0.911,0.0
7.762,0.488,-0.925,0.0
9.744,0.609,-0.889,0.0
9.224,0.576,-0.895,0.0
8.788,0.548,-0.903,0.0
8.292,0.517,-0.901,0.0
7.998,0.498,-0.916,0.0
7.72,0.48,-0.929,0.0
9.663,0.598,-0.892,0.0
9.194,0.568,-0.902,0.0
8.721,0.539,-0.906,0.0
8.286,0.511,-0.909,0.0
7.963,0.491,-0.92,0.0
7.666,0.472,-0.93,0.0
9.581,0.586,-0.894,0.0
9.106,0.557,-0.902,0.0
8.621,0.526,-0.904,0.0
8.197,0.5,-0.908,0.0
7.869,0.479,-0.917,0.0
7.574,0.461,-0.926,0.0
9.527,0.576,-0.899,0.0
9.016,0.545,-0.902,0.0
8.519,0.514,-0.902,0.0
8.153,0.491,-0.911,0.0
7.85,0.473,-0.922,0.0
7.546,0.454,-0.93,0.0
9.421,0.563,-0.897,0.0
8.927,0.533,-0.902,0.0
8.441,0.503,-0.901,0.0
8.086,0.481,-0.911,0.0
7.759,0.461,-0.919,0.0
7.523,0.447,-0.935,0.0
9.37,0.553,-0.901,0.0
8.844,0.521,-0.901,0.0
8.441,0.497,-0.909,0.0
8.056,0.473,-0.915,0.0
7.742,0.454,-0.924,0.0
7.474,0.438,-0.935,0.0
9.257,0.539,-0.898,0.0
8.784,0.51,-0.903,0.0
8.364,0.485,-0.908,0.0
7.996,0.463,-0.915,0.0
7.721,0.447,-0.928,0.0
7.415,0.428,-0.934,0.0
9.202,0.528,-0.901,0.0
8.78,0.503,-0.91,0.0
8.279,0.474,-0.906,0.0
7.944,0.454,-0.915,0.0
7.672,0.437,-0.928,0.0
7.356,0.419,-0.933,0.0
9.151,0.517,-0.903,0.0
8.667,0.489,-0.905,0.0
8.25,0.465,-0.909,0.0
7.914,0.445,-0.918,0.0
7.63,0.428,-0.929,0.0
7.32,0.41,-0.934,0.0
9.08,0.506,-0.903,0.0
8.634,0.48,-0.908,0.0
8.198,0.455,-0.909,0.0
7.876,0.436,-0.92,0.0
7.599,0.42,-0.931,0.0
7.284,0.402,-0.935,0.0
9.031,0.495,-0.905,0.0
8.607,0.47,-0.911,0.0
8.15,0.445,-0.91,0.0
7.828,0.426,-0.92,0.0
7.558,0.411,-0.931,0.0
7.239,0.393,-0.934,0.0
8.959,0.482,-0.904,0.0
8.541,0.459,-0.91,0.0
8.13,0.436,-0.913,0.0
7.797,0.417,-0.921,0.0
7.504,0.401,-0.93,0.0
7.235,0.385,-0.938,0.0
8.902,0.471,-0.904,0.0
8.489,0.448,-0.91,0.0
8.09,0.426,-0.914,0.0
7.767,0.408,-0.923,0.0
7.496,0.393,-0.933,0.0
7.234,0.379,-0.943,0.0
8.875,0.461,-0.906,0.0
8.478,0.439,-0.914,0.0
8.039,0.416,-0.913,0.0
7.708,0.398,-0.92,0.0
7.443,0.383,-0.931,0.0
7.212,0.37,-0.944,0.0
8.785,0.448,-0.902,0.0
8.414,0.428,-0.912,0.0
8.03,0.407,-0.916,0.0
7.751,0.392,-0.929,0.0
7.446,0.376,-0.936,0.0
7.205,0.363,-0.947,0.0
8.802,0.44,-0.908,0.0
8.355,0.416,-0.91,0.0
8.007,0.398,-0.917,0.0
7.675,0.381,-0.924,0.0
7.4,0.366,-0.933,0.0
7.194,0.355,-0.949,0.0
8.826,0.432,-0.915,0.0
8.321,0.406,-0.91,0.0
8.009,0.39,-0.921,0.0
7.641,0.371,-0.924,0.0
7.395,0.358,-0.936,0.0
7.178,0.346,-0.95,0.0
8.732,0.418,-0.909,0.0
8.272,0.395,-0.908,0.0
7.976,0.38,-0.921,0.0
7.628,0.362,-0.925,0.0
7.369,0.349,-0.936,0.0
7.152,0.338,-0.949,0.0
8.704,0.408,-0.909,0.0
8.261,0.386,-0.91,0.0
7.931,0.369,-0.919,0.0
7.627,0.354,-0.928,0.0
7.349,0.34,-0.936,0.0
7.125,0.328,-0.949,0.0
8.692,0.397,-0.911,0.0
8.282,0.377,-0.915,0.0
7.937,0.361,-0.922,0.0
7.591,0.344,-0.926,0.0
7.354,0.332,-0.939,0.0
7.111,0.32,-0.949,0.0
8.695,0.388,-0.914,0.0
8.282,0.368,-0.918,0.0
7.935,0.352,-0.924,0.0
7.579,0.335,-0.927,0.0
7.33,0.323,-0.938,0.0
7.094,0.311,-0.949,0.0
8.641,0.376,-0.911,0.0
8.245,0.357,-0.916,0.0
7.909,0.342,-0.923,0.0
7.582,0.326,-0.929,0.0
7.301,0.313,-0.936,0.0
7.064,0.302,-0.946,0.0
8.614,0.365,-0.91,0.0
8.252,0.348,-0.918,0.0
7.899,0.332,-0.924,0.0
7.617,0.319,-0.935,0.0
7.315,0.305,-0.939,0.0
7.067,0.294,-0.948,0.0
8.606,0.355,-0.91,0.0
8.196,0.337,-0.913,0.0
7.878,0.322,-0.923,0.0
7.585,0.309,-0.932,0.0
7.269,0.295,-0.935,0.0
7.07,0.286,-0.949,0.0
8.647,0.347,-0.916,0.0
8.236,0.329,-0.919,0.0
7.884,0.314,-0.924,0.0
7.581,0.3,-0.932,0.0
7.304,0.288,-0.94,0.0
7.072,0.278,-0.95,0.0
8.633,0.336,-0.915,0.0
8.231,0.319,-0.919,0.0
7.934,0.306,-0.931,0.0
7.58,0.291,-0.933,0.0
7.307,0.28,-0.941,0.0
7.054,0.269,-0.948,0.0
8.607,0.325,-0.913,0.0
8.255,0.311,-0.922,0.0
7.893,0.296,-0.926,0.0
7.57,0.282,-0.932,0.0
7.307,0.271,-0.941,0.0
7.076,0.261,-0.951,0.0
8.62,0.316,-0.914,0.0
8.253,0.301,-0.921,0.0
7.897,0.286,-0.926,0.0
7.564,0.273,-0.931,0.0
7.297,0.262,-0.939,0.0
7.051,0.252,-0.947,0.0
8.629,0.306,-0.914,0.0
8.249,0.291,-0.92,0.0
7.911,0.278,-0.927,0.0
7.594,0.265,-0.934,0.0
7.332,0.255,-0.943,0.0
7.093,0.245,-0.952,0.0
8.653,0.297,-0.916,0.0
8.272,0.282,-0.922,0.0
7.931,0.269,-0.929,0.0
7.623,0.257,-0.936,0.0
7.328,0.246,-0.941,0.0
7.106,0.237,-0.953,0.0
8.67,0.287,-0.917,0.0
8.264,0.272,-0.92,0.0
7.936,0.26,-0.928,0.0
7.629,0.248,-0.936,0.0
7.333,0.237,-0.941,0.0
7.118,0.229,-0.953,0.0
8.652,0.276,-0.913,0.0
8.27,0.262,-0.919,0.0
7.965,0.251,-0.93,0.0
7.617,0.238,-0.933,0.0
7.342,0.229,-0.94,0.0
7.123,0.22,-0.952,0.0
8.705,0.267,-0.917,0.0
8.304,0.253,-0.921,0.0
7.985,0.242,-0.93,0.0
7.646,0.23,-0.934,0.0
7.37,0.221,-0.942,0.0
7.135,0.212,-0.952,0.0
8.716,0.257,-0.915,0.0
8.345,0.245,-0.923,0.0
7.991,0.233,-0.928,0.0
7.643,0.221,-0.931,0.0
7.382,0.212,-0.941,0.0
7.136,0.204,-0.95,0.0
8.754,0.248,-0.916,0.0
8.368,0.235,-0.923,0.0
8.02,0.224,-0.929,0.0
7.676,0.213,-0.933,0.0
7.414,0.204,-0.942,0.0
7.148,0.195,-0.949,0.0
8.77,0.238,-0.915,0.0
8.359,0.225,-0.918,0.0
8.035,0.215,-0.927,0.0
7.703,0.204,-0.933,0.0
7.435,0.196,-0.942,0.0
7.147,0.187,-0.946,0.0
8.82,0.228,-0.916,0.0
8.416,0.216,-0.921,0.0
8.072,0.206,-0.928,0.0
7.74,0.196,-0.934,0.0
7.461,0.188,-0.942,0.0
7.175,0.179,-0.946,0.0
8.878,0.219,-0.918,0.0
8.461,0.207,-0.922,0.0
8.116,0.197,-0.929,0.0
7.738,0.187,-0.93,0.0
7.491,0.179,-0.942,0.0
7.206,0.171,-0.946,0.0
8.928,0.21,-0.919,0.0
8.501,0.198,-0.922,0.0
8.151,0.189,-0.929,0.0
7.807,0.179,-0.934,0.0
7.501,0.17,-0.939,0.0
7.22,0.163,-0.944,0.0
9.0,0.201,-0.921,0.0
8.525,0.189,-0.92,0.0
8.19,0.18,-0.929,0.0
7.838,0.17,-0.933,0.0
7.518,0.162,-0.937,0.0
7.271,0.155,-0.947,0.0
9.018,0.191,-0.918,0.0
8.608,0.18,-0.923,0.0
8.217,0.171,-0.927,0.0
7.892,0.162,-0.935,0.0
7.564,0.154,-0.938,0.0
7.281,0.147,-0.943,0.0
9.084,0.182,-0.918,0.0
8.606,0.17,-0.917,0.0
8.277,0.162,-0.928,0.0
7.904,0.153,-0.931,0.0
7.633,0.147,-0.941,0.0
7.317,0.139,-0.943,0.0
9.117,0.172,-0.915,0.0
8.686,0.162,-0.92,0.0
8.321,0.153,-0.927,0.0
7.979,0.145,-0.934,0.0
7.688,0.139,-0.942,0.0
7.383,0.132,-0.946,0.0
9.147,0.162,-0.912,0.0
8.741,0.153,-0.919,0.0
8.389,0.145,-0.928,0.0
8.023,0.137,-0.933,0.0
7.71,0.13,-0.939,0.0
7.422,0.124,-0.945,0.0
9.23,0.153,-0.913,0.0
8.823,0.144,-0.921,0.0
8.409,0.136,-0.924,0.0
8.058,0.128,-0.93,0.0
7.745,0.122,-0.937,0.0
7.431,0.115,-0.94,0.0
9.364,0.144,-0.918,0.0
8.889,0.135,-0.92,0.0
8.5,0.128,-0.927,0.0
8.125,0.12,-0.931,0.0
7.804,0.114,-0.937,0.0
7.482,0.108,-0.94,0.0
9.464,0.135,-0.92,0.0
8.935,0.126,-0.917,0.0
8.558,0.119,-0.925,0.0
8.209,0.112,-0.934,0.0
7.873,0.106,-0.939,0.0
7.52,0.1,-0.938,0.0
9.501,0.125,-0.915,0.0
9.056,0.117,-0.921,0.0
8.606,0.11,-0.923,0.0
8.21,0.103,-0.926,0.0
7.913,0.098,-0.936,0.0
7.601,0.092,-0.941,0.0
9.549,0.115,-0.91,0.0
9.11,0.108,-0.918,0.0
8.716,0.102,-0.926,0.0
8.286,0.095,-0.926,0.0
7.946,0.09,-0.932,0.0
7.697,0.085,-0.945,0.0
9.646,0.106,-0.91,0.0
9.166,0.099,-0.915,0.0
8.755,0.093,-0.921,0.0
8.363,0.087,-0.926,0.0
8.034,0.082,-0.934,0.0
7.722,0.077,-0.94,0.0
9.785,0.097,-0.913,0.0
9.264,0.09,-0.915,0.0
8.861,0.084,-0.923,0.0
8.49,0.079,-0.931,0.0
8.101,0.074,-0.933,0.0
7.798,0.07,-0.941,0.0
9.864,0.088,-0.91,0.0
9.424,0.082,-0.92,0.0
8.932,0.076,-0.921,0.0
8.539,0.071,-0.927,0.0
8.178,0.066,-0.933,0.0
7.855,0.062,-0.939,0.0
9.958,0.078,-0.907,0.0
9.479,0.073,-0.915,0.0
9.049,0.068,-0.923,0.0
8.637,0.063,-0.928,0.0
8.268,0.059,-0.933,0.0
7.937,0.055,-0.939,0.0
10.084,0.069,-0.907,0.0
9.554,0.064,-0.911,0.0
9.106,0.059,-0.918,0.0
8.747,0.055,-0.93,0.0
8.333,0.051,-0.931,0.0
7.998,0.047,-0.937,0.0
10.221,0.06,-0.908,0.0
9.709,0.055,-0.914,0.0
9.211,0.05,-0.917,0.0
8.81,0.047,-0.926,0.0
8.404,0.043,-0.928,0.0
8.061,0.04,-0.934,0.0
10.345,0.051,-0.906,0.0
9.82,0.046,-0.912,0.0
9.358,0.042,-0.92,0.0
8.911,0.038,-0.925,0.0
8.534,0.035,-0.932,0.0
8.162,0.032,-0.935,0.0
10.462,0.041,-0.903,0.0
9.931,0.037,-0.91,0.0
9.439,0.034,-0.916,0.0
8.995,0.03,-0.922,0.0
8.602,0.028,-0.928,0.0
8.246,0.025,-0.934,0.0
10.625,0.032,-0.903,0.0
10.065,0.029,-0.909,0.0
9.554,0.025,-0.914,0.0
9.14,0.023,-0.925,0.0
8.686,0.02,-0.926,0.0
8.324,0.018,-0.932,0.0
10.751,0.023,-0.899,0.0
10.214,0.02,-0.909,0.0
9.642,0.017,-0.91,0.0
9.239,0.015,-0.922,0.0
8.826,0.012,-0.928,0.0
8.44,0.01,-0.933,0.0
10.901,0.014,-0.897,0.0
10.348,0.011,-0.906,0.0
9.825,0.009,-0.913,0.0
9.399,0.007,-0.925,0.0
8.928,0.005,-0.926,0.0
8.552,0.003,-0.933,0.0
11.072,0.004,-0.895,0.0
10.483,0.002,-0.903,0.0
9.963,0.0,-0.912,0.0
9.475,0.0,-0.919,0.0
9.027,-0.002,-0.924,0.0
8.653,-0.003,-0.932,0.0
11.255,-0.004,-0.894,0.0
10.676,-0.005,-0.905,0.0
10.115,-0.007,-0.911,0.0
9.608,-0.008,-0.917,0.0
9.193,-0.009,-0.927,0.0
8.721,-0.01,-0.926,0.0
11.426,-0.013,-0.891,0.0
10.809,-0.014,-0.9,0.0
10.265,-0.015,-0.909,0.0
9.736,-0.016,-0.915,0.0
9.319,-0.017,-0.926,0.0
8.865,-0.017,-0.928,0.0
11.63,-0.022,-0.889,0.0
10.993,-0.023,-0.898,0.0
10.409,-0.023,-0.906,0.0
9.888,-0.024,-0.914,0.0
9.41,-0.024,-0.92,0.0
9.009,-0.024,-0.929,0.0
11.821,-0.032,-0.885,0.0
11.176,-0.032,-0.896,0.0
10.603,-0.031,-0.906,0.0
10.037,-0.031,-0.912,0.0
9.568,-0.031,-0.92,0.0
9.112,-0.031,-0.925,0.0
11.963,-0.041,-0.877,0.0
11.373,-0.04,-0.894,0.0
10.758,-0.04,-0.902,0.0
10.221,-0.039,-0.912,0.0
9.7,-0.039,-0.917,0.0
9.269,-0.038,-0.926,0.0
12.269,-0.05,-0.879,0.0
11.585,-0.049,-0.891,0.0
10.916,-0.048,-0.898,0.0
10.364,-0.047,-0.908,0.0
9.876,-0.046,-0.918,0.0
9.4,-0.045,-0.924,0.0
12.493,-0.059,-0.875,0.0
11.755,-0.057,-0.885,0.0
11.125,-0.056,-0.897,0.0
10.546,-0.054,-0.907,0.0
10.015,-0.053,-0.914,0.0
9.581,-0.052,-0.925,0.0
12.729,-0.068,-0.87,0.0
11.984,-0.066,-0.882,0.0
11.33,-0.064,-0.894,0.0
10.736,-0.062,-0.905,0.0
10.184,-0.06,-0.912,0.0
9.667,-0.058,-0.917,0.0
13.013,-0.078,-0.868,0.0
12.092,-0.074,-0.87,1.0
11.538,-0.072,-0.891,0.0
10.914,-0.069,-0.901,0.0
10.382,-0.067,-0.912,0.0
9.838,-0.065,-0.916,0.0
13.225,-0.087,-0.859,0.0
12.495,-0.083,-0.877,0.0
11.763,-0.08,-0.888,0.0
11.114,-0.077,-0.898,0.0
10.538,-0.074,-0.907,0.0
10.041,-0.072,-0.918,0.0
13.596,-0.096,-0.86,0.0
12.739,-0.092,-0.872,0.0
11.972,-0.088,-0.882,0.0
11.347,-0.084,-0.897,0.0
10.731,-0.081,-0.905,0.0
10.2,-0.078,-0.914,0.0
13.844,-0.105,-0.85,0.0
13.024,-0.1,-0.868,0.0
12.229,-0.096,-0.879,0.0
11.594,-0.092,-0.896,0.0
10.933,-0.088,-0.902,0.0
10.4,-0.085,-0.913,0.0
14.252,-0.115,-0.85,0.0
13.298,-0.109,-0.863,0.0
12.519,-0.104,-0.878,0.0
11.792,-0.099,-0.89,0.0
11.181,-0.095,-0.902,0.0
10.56,-0.091,-0.907,0.0
14.627,-0.124,-0.846,0.0
13.604,-0.117,-0.858,0.0
12.789,-0.111,-0.873,0.0
12.019,-0.106,-0.885,0.0
11.403,-0.101,-0.899,0.0
10.81,-0.097,-0.909,0.0
15.037,-0.134,-0.842,0.0
13.955,-0.126,-0.854,0.0
12.998,-0.118,-0.863,0.0
12.247,-0.112,-0.879,0.0
11.583,-0.107,-0.892,0.0
11.002,-0.103,-0.905,0.0
15.439,-0.143,-0.836,0.0
14.356,-0.134,-0.852,0.0
13.364,-0.126,-0.862,0.0
12.567,-0.12,-0.878,0.0
11.848,-0.114,-0.89,0.0
11.204,-0.109,-0.9,0.0
15.84,-0.152,-0.828,0.0
14.728,-0.143,-0.846,0.0
13.724,-0.134,-0.86,0.0
12.83,-0.126,-0.872,0.0
12.095,-0.12,-0.885,0.0
11.481,-0.115,-0.9,0.0
16.423,-0.163,-0.827,0.0
15.207,-0.152,-0.844,0.0
14.085,-0.142,-0.855,0.0
13.104,-0.133,-0.865,0.0
12.321,-0.126,-0.878,0.0
11.646,-0.119,-0.891,0.0
16.833,-0.171,-0.815,0.0
15.605,-0.16,-0.836,0.0
14.52,-0.15,-0.854,0.0
13.469,-0.14,-0.863,0.0
12.683,-0.132,-0.879,0.0
11.948,-0.125,-0.891,0.0
17.526,-0.182,-0.815,0.0
16.112,-0.168,-0.832,0.0
14.875,-0.156,-0.846,0.0
13.824,-0.146,-0.859,0.0
12.923,-0.137,-0.87,0.0
12.166,-0.13,-0.883,0.0
18.173,-0.192,-0.809,0.0
16.6,-0.177,-0.825,0.0
15.307,-0.164,-0.841,0.0
14.179,-0.152,-0.853,0.0
13.277,-0.143,-0.868,0.0
12.463,-0.135,-0.88,0.0
18.855,-0.203,-0.803,0.0
17.152,-0.185,-0.819,0.0
15.726,-0.17,-0.833,0.0
14.641,-0.159,-0.852,0.0
13.625,-0.149,-0.864,0.0
12.794,-0.14,-0.878,0.0
19.494,-0.212,-0.791,2.0
17.65,-0.192,-0.808,0.0
16.287,-0.178,-0.83,0.0
14.991,-0.164,-0.843,0.0
13.978,-0.154,-0.858,0.0
13.058,-0.144,-0.87,0.0
19.738,-0.216,-0.762,6.0
18.497,-0.203,-0.809,0.0
16.836,-0.185,-0.824,0.0
15.529,-0.171,-0.842,0.0
14.438,-0.16,-0.857,0.0
13.412,-0.149,-0.866,0.0
19.824,-0.218,-0.725,5.0
19.12,-0.21,-0.798,1.0
17.391,-0.192,-0.816,0.0
15.957,-0.176,-0.833,0.0
14.854,-0.164,-0.852,0.0
13.803,-0.153,-0.864,0.0
21.669,-0.238,-0.749,0.0
19.624,-0.216,-0.78,3.0
18.06,-0.199,-0.811,0.0
16.539,-0.182,-0.83,0.0
15.319,-0.169,-0.848,0.0
14.177,-0.157,-0.858,0.0
22.498,-0.246,-0.732,1.0
19.782,-0.217,-0.746,8.0
18.802,-0.206,-0.806,0.0
17.13,-0.188,-0.825,0.0
15.735,-0.173,-0.839,0.0
14.638,-0.161,-0.856,0.0
23.388,-0.254,-0.713,0.0
19.892,-0.216,-0.709,0.0
19.491,-0.212,-0.796,2.0
17.614,-0.192,-0.812,0.0
16.266,-0.177,-0.834,0.0
15.01,-0.163,-0.847,0.0
24.738,-0.266,-0.704,0.0
22.166,-0.238,-0.745,0.0
19.741,-0.212,-0.765,6.0
18.436,-0.198,-0.812,0.0
16.772,-0.18,-0.825,0.0
15.534,-0.167,-0.844,0.0
25.773,-0.274,-0.681,0.0
22.873,-0.243,-0.722,0.0
19.794,-0.21,-0.727,5.0
19.092,-0.202,-0.801,1.0
17.447,-0.184,-0.822,0.0
15.977,-0.168,-0.836,0.0
27.489,-0.287,-0.669,0.0
24.205,-0.252,-0.714,0.0
21.709,-0.226,-0.753,0.0
19.63,-0.204,-0.784,3.0
18.075,-0.187,-0.815,0.0
16.517,-0.171,-0.83,0.0
28.94,-0.296,-0.645,0.0
25.298,-0.258,-0.694,0.0
22.503,-0.229,-0.734,0.0
19.77,-0.2,-0.749,9.0
18.786,-0.19,-0.808,0.0
16.611,-0.167,-0.8,0.0
19.799,-0.197,-0.401,0.0
26.311,-0.261,-0.667,0.0
23.498,-0.232,-0.717,0.0
19.805,-0.195,-0.708,1.0
19.502,-0.191,-0.798,2.0
17.771,-0.173,-0.819,0.0
19.784,-0.191,-0.359,6.0
19.785,-0.19,-0.461,2.0
24.782,-0.237,-0.705,0.0
22.187,-0.211,-0.748,0.0
19.74,-0.187,-0.767,6.0
18.458,-0.174,-0.813,0.0
19.788,-0.184,-0.318,2.0
19.776,-0.183,-0.42,8.0
19.765,-0.182,-0.521,3.0
22.881,-0.209,-0.724,0.0
19.773,-0.18,-0.727,7.0
19.14,-0.173,-0.803,1.0
19.768,-0.176,-0.277,10.0
19.766,-0.175,-0.379,12.0
19.759,-0.174,-0.48,9.0
19.771,-0.173,-0.585,5.0
19.781,-0.172,-0.687,2.0
19.668,-0.17,-0.785,3.0
19.764,-0.168,-0.236,13.0
19.759,-0.167,-0.338,13.0
19.75,-0.165,-0.439,13.0
19.753,-0.164,-0.543,11.0
19.767,-0.163,-0.645,9.0
19.765,-0.162,-0.747,11.0
19.758,-0.159,-0.195,14.0
19.748,-0.158,-0.297,14.0
19.74,-0.156,-0.398,16.0
19.731,-0.155,-0.502,17.0
19.754,-0.153,-0.604,14.0
19.769,-0.152,-0.706,12.0
19.757,-0.149,-0.154,14.0
19.739,-0.148,-0.256,16.0
19.74,-0.146,-0.357,16.0
19.715,-0.144,-0.461,18.0
19.741,-0.143,-0.563,17.0
19.763,-0.141,-0.665,16.0
19.742,-0.139,-0.113,13.0
19.734,-0.137,-0.215,16.0
19.735,-0.135,-0.317,16.0
19.727,-0.133,-0.42,17.0
19.73,-0.132,-0.522,16.0
19.756,-0.13,-0.624,17.0
19.759,-0.127,-0.073,11.0
19.733,-0.126,-0.174,16.0
19.728,-0.124,-0.276,16.0
19.726,-0.122,-0.38,17.0
19.731,-0.12,-0.481,17.0
19.749,-0.118,-0.584,16.0
19.739,-0.115,-0.032,11.0
19.71,-0.113,-0.133,16.0
19.728,-0.111,-0.235,16.0
19.736,-0.109,-0.339,15.0
19.739,-0.107,-0.441,16.0
19.755,-0.105,-0.543,16.0
19.724,-0.103,0.007,13.0
19.716,-0.1,-0.093,13.0
19.726,-0.098,-0.195,16.0
19.737,-0.096,-0.299,15.0
19.745,-0.094,-0.401,16.0
19.751,-0.092,-0.503,14.0
19.719,-0.089,0.047,14.0
19.711,-0.087,-0.054,13.0
19.716,-0.085,-0.155,17.0
19.737,-0.083,-0.259,15.0
19.752,-0.08,-0.361,13.0
19.763,-0.078,-0.463,14.0
19.724,-0.075,0.087,14.0
19.7,-0.073,-0.013,16.0
19.715,-0.07,-0.115,15.0
19.735,-0.068,-0.219,15.0
19.753,-0.066,-0.322,15.0
19.776,-0.063,-0.424,7.0
19.706,-0.06,0.127,17.0
19.697,-0.058,0.025,15.0
19.722,-0.055,-0.076,13.0
19.728,-0.053,-0.18,15.0
19.757,-0.05,-0.282,14.0
19.82,-0.048,-0.386,1.0
19.687,-0.045,0.166,13.0
19.695,-0.042,0.064,15.0
19.706,-0.039,-0.036,16.0
19.726,-0.037,-0.141,13.0
19.749,-0.034,-0.243,9.0
0.0,0.0,0.0,0.0
19.653,-0.029,0.205,16.0
19.69,-0.026,0.103,13.0
19.709,-0.023,0.002,15.0
19.751,-0.02,-0.101,8.0
19.773,-0.017,-0.204,2.0
0.0,0.0,0.0,0.0
19.637,-0.012,0.243,14.0
19.737,-0.009,0.142,3.0
19.725,-0.006,0.04,8.0
19.74,-0.003,-0.063,9.0
19.793,0.0,-0.165,0.0
37.199,0.004,-0.504,0.0
19.631,0.005,0.282,14.0
19.657,0.008,0.18,11.0
19.771,0.011,0.079,3.0
19.744,0.014,-0.024,9.0
19.753,0.017,-0.127,1.0
19.775,0.02,-0.229,1.0
19.623,0.023,0.32,17.0
19.633,0.026,0.218,16.0
19.738,0.029,0.117,16.0
19.727,0.033,0.013,17.0
19.732,0.036,-0.088,17.0
19.752,0.039,-0.191,10.0
19.613,0.042,0.357,15.0
19.628,0.045,0.256,12.0
19.731,0.049,0.155,12.0
19.734,0.052,0.05,15.0
19.755,0.055,-0.051,150.0
19.756,0.058,-0.154,29.0
19.604,0.061,0.394,18.0
19.608,0.065,0.293,12.0
19.632,0.068,0.191,14.0
19.691,0.072,0.088,19.0
19.757,0.075,-0.013,47.0
19.769,0.079,-0.116,23.0
19.616,0.082,0.432,27.0
19.608,0.085,0.33,16.0
19.62,0.088,0.228,16.0
19.658,0.092,0.125,12.0
19.682,0.096,0.022,10.0
19.722,0.1,-0.079,2.0
19.617,0.102,0.469,22.0
19.608,0.106,0.367,24.0
19.6,0.109,0.265,13.0
19.654,0.113,0.161,15.0
19.651,0.117,0.059,13.0
19.656,0.121,-0.042,12.0
19.601,0.124,0.505,17.0
19.609,0.128,0.403,13.0
19.604,0.131,0.301,10.0
19.648,0.135,0.198,18.0
19.637,0.139,0.095,15.0
19.641,0.143,-0.006,17.0
19.604,0.146,0.541,13.0
19.608,0.15,0.439,12.0
19.62,0.153,0.337,10.0
19.635,0.157,0.233,12.0
19.654,0.161,0.131,14.0
19.643,0.165,0.028,15.0
19.615,0.169,0.577,10.0
19.62,0.172,0.474,10.0
19.646,0.177,0.373,9.0
19.652,0.18,0.268,8.0
19.663,0.185,0.166,13.0
19.667,0.189,0.063,13.0
19.675,0.192,0.614,10.0
19.695,0.196,0.511,10.0
19.71,0.201,0.409,10.0
19.722,0.205,0.304,9.0
19.738,0.209,0.201,16.0
19.744,0.213,0.098,13.0
19.662,0.216,0.647,13.0
19.677,0.22,0.545,10.0
19.704,0.224,0.443,9.0
19.714,0.228,0.338,10.0
19.738,0.233,0.235,15.0
19.769,0.237,0.132,26.0
19.643,0.24,0.681,15.0
19.653,0.244,0.578,12.0
19.677,0.248,0.476,11.0
19.674,0.252,0.371,12.0
19.722,0.257,0.268,12.0
19.758,0.262,0.165,25.0
19.65,0.265,0.714,12.0
19.647,0.269,0.611,15.0
19.664,0.273,0.508,14.0
19.675,0.277,0.403,12.0
19.713,0.282,0.301,13.0
19.748,0.287,0.198,5.0
19.688,0.291,0.749,1.0
19.645,0.294,0.644,12.0
19.666,0.299,0.541,12.0
19.698,0.304,0.437,9.0
19.724,0.308,0.334,2.0
163.342,2.595,1.914,25.0
121.418,1.954,4.82,9.0
19.677,0.321,0.677,2.0
55.213,0.913,1.611,15.0
55.195,0.925,1.315,26.0
55.179,0.937,1.025,53.0
55.162,0.949,0.734,61.0
55.189,0.962,2.28,75.0
55.182,0.974,1.989,72.0
55.174,0.987,1.698,75.0
55.162,0.999,1.403,72.0
55.17,1.012,1.113,58.0
55.181,1.025,0.823,50.0
55.211,1.037,2.368,15.0
55.21,1.05,2.078,3.0
135.303,2.605,4.378,16.0
163.267,3.18,4.406,10.0
179.368,3.536,3.897,19.0
179.317,3.578,2.953,8.0
121.413,2.451,5.398,25.0
121.248,2.476,4.751,20.0
135.185,2.793,4.585,18.0
134.804,2.815,3.846,26.0
185.733,3.924,4.321,4.0
179.245,3.83,3.226,22.0
115.133,2.489,5.298,13.0
121.267,2.649,4.937,16.0
121.186,2.676,4.294,9.0
135.295,3.021,4.067,11.0
138.762,3.131,3.438,31.0
179.184,4.084,3.492,36.0
129.271,2.98,6.142,8.0
121.359,2.827,5.124,10.0
121.093,2.85,4.473,25.0
115.234,2.74,3.635,6.0
99.09,2.38,2.601,19.0
99.469,2.413,2.086,93.0
121.047,2.969,5.931,20.0
128.807,3.191,5.629,5.0
113.592,2.841,4.362,20.0
45.494,1.149,1.501,1.0
45.493,1.16,1.26,7.0
45.493,1.171,1.02,56.0
43.702,1.137,2.204,41.0
43.705,1.147,1.972,98.0
0.0,0.0,0.0,0.0
0.0,0.0,0.0,0.0
0.0,0.0,0.0,0.0
41.908,1.141,0.998,55.0
0.0,0.0,0.0,0.0
0.0,0.0,0.0,0.0
41.872,1.172,1.725,27.0
40.122,1.133,1.436,94.0
40.119,1.143,1.222,121.0
40.112,1.153,1.009,150.0
40.114,1.164,2.135,117.0
40.123,1.175,1.921,113.0
40.117,1.185,1.707,122.0
40.112,1.195,1.49,150.0
40.122,1.205,1.277,150.0
40.115,1.215,1.064,150.0
40.118,1.226,2.188,115.0
40.127,1.237,1.975,109.0
40.141,1.247,1.762,89.0
40.115,1.257,1.543,138.0
40.115,1.267,1.329,150.0
40.116,1.277,1.115,150.0
40.118,1.289,2.24,129.0
40.112,1.298,2.025,106.0
40.122,1.309,1.812,81.0
40.094,1.318,1.592,24.0
40.109,1.329,1.379,5.0
121.189,4.047,3.522,18.0
120.115,4.049,6.861,17.0
121.182,4.114,6.272,13.0
120.39,4.118,5.588,15.0
120.317,4.145,4.929,13.0
120.541,4.184,4.293,17.0
121.171,4.237,3.669,12.0
136.813,4.828,7.982,8.0
135.388,4.812,7.174,14.0
121.055,4.334,5.766,14.0
119.986,4.326,5.06,21.0
120.439,4.373,4.435,16.0
162.605,5.945,5.116,11.0
135.925,5.013,8.091,9.0
121.127,4.499,6.561,17.0
121.095,4.529,5.91,12.0
120.179,4.524,5.207,18.0
178.584,6.77,6.781,10.0
162.599,6.207,5.304,12.0
45.52,1.752,2.762,2.0
120.878,4.685,6.685,17.0
120.955,4.719,6.04,19.0
179.514,7.049,7.982,14.0
178.563,7.058,6.98,18.0
178.984,7.121,6.036,11.0
45.563,1.828,2.816,16.0
120.793,4.878,6.813,22.0
121.089,4.92,6.178,19.0
179.988,7.36,8.198,13.0
178.977,7.365,7.19,17.0
0.0,0.0,0.0,0.0
45.568,1.903,2.865,74.0
120.941,5.082,6.952,15.0
23.591,0.997,1.228,1.0
23.589,1.003,1.099,21.0
23.609,1.01,0.973,36.0
23.602,1.016,0.845,47.0
23.594,1.024,1.507,49.0
23.589,1.03,1.38,45.0
23.587,1.036,1.252,44.0
23.578,1.041,1.122,54.0
23.578,1.047,0.995,71.0
23.576,1.053,0.868,66.0
23.57,1.062,1.53,76.0
23.56,1.067,1.401,82.0
23.555,1.073,1.274,73.0
23.569,1.08,1.145,70.0
23.571,1.086,1.017,69.0
23.567,1.092,0.89,67.0
23.563,1.101,1.552,54.0
23.569,1.107,1.424,49.0
23.573,1.113,1.296,45.0
23.591,1.12,1.167,43.0
23.604,1.126,1.04,41.0
23.614,1.133,0.913,37.0
41.958,2.03,2.801,31.0
45.551,2.215,2.794,6.0
23.599,1.153,1.319,0.0
23.668,1.162,1.192,0.0
179.779,8.88,8.083,12.0
179.591,8.916,7.103,16.0
41.957,2.1,2.838,31.0
45.561,2.292,2.834,83.0
0.0,0.0,0.0,0.0
0.0,0.0,0.0,0.0
0.0,0.0,0.0,0.0
179.91,9.236,7.265,21.0
0.0,0.0,0.0,0.0
45.542,2.367,2.87,98.0
0.0,0.0,0.0,0.0
0.0,0.0,0.0,0.0
200.234,10.562,9.333,14.0
180.456,9.564,7.431,16.0
0.0,0.0,0.0,0.0
0.0,0.0,0.0,0.0
0.0,0.0,0.0,0.0
0.0,0.0,0.0,0.0
0.0,0.0,0.0,0.0
200.5,10.967,8.407,5.0
40.184,2.215,2.814,94.0
0.0,0.0,0.0,0.0
0.0,0.0,0.0,0.0
0.0,0.0,0.0,0.0
206.08,11.564,9.911,5.0
0.0,0.0,0.0,0.0
40.193,2.283,2.843,119.0
43.771,2.497,2.857,115.0
0.0,0.0,0.0,0.0
0.0,0.0,0.0,0.0
203.464,11.763,9.923,7.0
204.057,11.848,8.839,7.0
40.199,2.352,2.87,127.0
0.0,0.0,0.0,0.0
0.0,0.0,0.0,0.0
0.0,0.0,0.0,0.0
203.242,12.091,10.041,7.0
198.428,11.856,8.719,4.0
40.192,2.419,2.895,131.0
43.764,2.644,2.912,150.0
112.284,6.812,6.856,3.0
112.28,6.839,6.229,1.0
204.358,12.498,10.217,6.0
198.756,12.206,8.849,16.0
40.196,2.486,2.919,134.0
41.989,2.608,2.818,113.0
45.551,2.84,2.807,18.0
112.296,7.03,6.293,4.0
112.342,7.061,5.679,2.0
199.777,12.608,9.005,6.0
40.193,2.555,2.941,123.0
41.969,2.677,2.839,133.0
45.53,2.916,2.83,56.0
99.944,6.424,5.652,29.0
99.957,6.448,5.104,32.0
99.95,6.473,4.555,33.0
40.193,2.622,2.961,103.0
41.982,2.748,2.861,136.0
45.547,2.992,2.853,49.0
99.947,6.591,5.699,38.0
99.936,6.615,5.149,38.0
99.94,6.64,4.6,34.0
40.177,2.688,2.978,61.0
0.0,0.0,0.0,0.0
45.522,3.067,2.871,76.0
99.93,6.756,5.742,21.0
99.945,6.781,5.192,33.0
99.973,6.808,4.643,32.0
40.179,2.755,2.995,50.0
0.0,0.0,0.0,0.0
0.0,0.0,0.0,0.0
45.55,3.156,2.635,150.0
99.964,6.949,5.232,35.0
99.969,6.974,4.682,33.0
40.175,2.823,3.01,32.0
0.0,0.0,0.0,0.0
43.751,3.094,2.793,150.0
0.0,0.0,0.0,0.0
45.444,3.234,2.394,14.0
45.447,3.245,2.143,81.0
40.171,2.889,3.023,24.0
0.0,0.0,0.0,0.0
43.692,3.162,2.803,4.0
0.0,0.0,0.0,0.0
45.463,3.311,2.408,150.0
45.462,3.321,2.157,150.0
40.152,2.954,3.033,22.0
41.878,3.09,2.931,4.0
41.962,3.105,2.703,104.0
43.654,3.24,2.566,95.0
43.679,3.252,2.325,105.0
43.675,3.261,2.083,120.0
99.041,7.448,7.507,41.0
40.171,3.029,2.821,101.0
0.0,0.0,0.0,0.0
43.662,3.312,2.576,150.0
43.679,3.323,2.335,125.0
43.669,3.332,2.092,126.0
40.09,3.08,3.047,8.0
40.169,3.095,2.829,101.0
40.169,3.103,2.605,134.0
41.881,3.245,2.479,117.0
41.888,3.254,2.246,113.0
41.888,3.264,2.014,100.0
94.84,7.44,7.224,42.0
40.152,3.158,2.834,79.0
40.17,3.168,2.611,145.0
41.878,3.312,2.484,115.0
41.883,3.321,2.252,113.0
41.866,3.329,2.018,73.0
40.081,3.208,3.057,6.0
40.097,3.218,2.835,89.0
40.09,3.225,2.61,95.0
40.08,3.233,2.382,118.0
40.091,3.242,2.159,111.0
40.093,3.251,1.936,106.0
40.077,3.271,3.061,5.0
40.076,3.279,2.836,81.0
40.088,3.288,2.613,119.0
40.087,3.296,2.384,131.0
40.085,3.305,2.161,115.0
40.089,3.313,1.938,132.0
40.099,3.336,3.064,5.0
40.079,3.342,2.838,83.0
40.083,3.351,2.613,117.0
40.079,3.358,2.385,125.0
40.087,3.368,2.161,112.0
40.1,3.377,1.939,99.0
40.103,3.399,3.064,3.0
40.057,3.403,2.835,11.0
87.062,7.414,5.675,10.0
87.074,7.432,5.18,15.0
87.06,7.448,4.692,23.0
87.081,7.469,4.207,36.0
87.053,7.513,6.648,41.0
87.061,7.529,6.159,35.0
87.05,7.545,5.67,25.0
87.038,7.561,5.172,18.0
87.064,7.581,4.686,14.0
87.066,7.599,4.199,135.0
87.024,7.642,6.638,1.0
87.028,7.658,6.149,4.0
83.129,7.331,5.407,1.0
82.849,7.322,4.914,3.0
82.957,7.347,4.456,3.0
82.928,7.361,3.991,4.0
82.9,7.404,6.314,12.0
82.878,7.417,5.845,14.0
82.904,7.435,5.38,19.0
82.916,7.451,4.907,26.0
82.924,7.467,4.442,33.0
