X,Y,Z,Reflectivity
40.185,3.092,2.882,125.0
40.172,3.1,2.657,150.0
41.885,3.241,2.537,121.0
41.882,3.25,2.3,109.0
41.889,3.26,2.068,112.0
41.885,3.269,1.835,143.0
40.183,3.158,2.888,113.0
40.174,3.165,2.663,150.0
41.892,3.309,2.544,122.0
41.894,3.319,2.307,120.0
41.867,3.326,2.072,78.0
41.894,3.338,1.84,113.0
71.019,7.354,4.862,2.0
70.96,7.358,4.454,3.0
70.988,7.37,4.054,3.0
70.938,7.376,3.642,4.0
70.959,7.389,3.241,4.0
70.945,7.398,2.839,6.0
70.883,7.428,4.815,10.0
70.895,7.439,4.413,11.0
70.897,7.448,4.01,15.0
70.89,7.457,3.601,19.0
70.884,7.468,3.198,24.0
70.894,7.479,2.797,18.0
70.872,7.513,4.774,105.0
70.861,7.52,4.37,107.0
70.871,7.531,3.968,89.0
70.857,7.538,3.558,59.0
70.883,7.551,3.157,72.0
70.895,7.563,2.755,14.0
70.879,7.597,4.732,11.0
70.861,7.603,4.328,9.0
70.896,7.616,3.926,9.0
70.885,7.624,3.516,10.0
70.941,7.64,3.116,8.0
60.02,6.472,2.296,0.0
70.96,7.687,4.693,2.0
70.93,7.692,4.286,3.0
70.976,7.705,3.886,3.0
70.952,7.711,3.473,4.0
70.975,7.723,3.071,1.0
59.555,6.488,2.239,2.0
73.794,8.075,4.832,9.0
73.766,8.08,4.409,10.0
73.51,8.06,3.975,9.0
73.299,8.045,3.54,9.0
73.301,8.055,3.122,9.0
58.978,6.489,2.177,4.0
72.97,8.063,4.728,9.0
73.081,8.083,4.317,11.0
73.013,8.084,3.897,11.0
72.832,8.072,3.466,10.0
72.604,8.055,3.042,6.0
58.427,6.489,2.115,4.0
72.195,8.052,4.625,5.0
72.387,8.081,4.224,8.0
72.462,8.097,3.815,11.0
72.353,8.093,3.389,10.0
72.05,8.067,2.965,5.0
57.887,6.488,2.053,8.0
71.529,8.049,4.529,6.0
71.542,8.057,4.121,3.0
71.779,8.091,3.725,6.0
71.85,8.106,3.312,9.0
71.42,8.065,2.886,2.0
57.409,6.49,1.993,9.0
71.086,8.068,4.445,9.0
70.842,8.047,4.025,8.0
70.893,8.059,3.624,3.0
71.073,8.086,3.22,5.0
57.03,6.494,2.258,3.0
56.959,6.492,1.931,9.0
70.689,8.088,4.364,11.0
70.469,8.069,3.947,9.0
70.304,8.056,3.536,4.0
70.503,8.085,3.137,5.0
56.521,6.487,2.192,5.0
56.537,6.495,1.871,8.0
70.185,8.092,4.275,8.0
70.141,8.093,3.87,7.0
69.947,8.076,3.46,7.0
69.698,8.053,3.043,3.0
56.113,6.489,2.13,4.0
56.124,6.495,1.81,12.0
63.263,7.348,3.799,1.0
63.209,7.346,3.434,3.0
63.255,7.356,3.074,1.0
63.209,7.356,2.705,1.0
55.711,6.488,2.066,4.0
55.746,6.498,1.749,11.0
63.205,7.392,3.74,3.0
63.169,7.392,3.377,5.0
63.149,7.394,3.013,4.0
55.359,6.486,2.319,2.0
55.406,6.496,2.005,5.0
55.385,6.499,1.688,7.0
63.146,7.434,3.679,8.0
63.138,7.437,3.317,9.0
63.133,7.44,2.955,8.0
54.994,6.485,2.254,5.0
55.036,6.494,1.941,12.0
55.031,6.498,1.627,9.0
63.113,7.476,3.618,18.0
63.111,7.479,3.256,22.0
63.127,7.485,2.896,25.0
54.675,6.487,2.189,12.0
54.719,6.496,1.879,12.0
54.714,6.499,1.565,11.0
63.114,7.52,3.558,84.0
63.098,7.521,3.195,87.0
63.101,7.525,2.834,97.0
54.429,6.494,2.128,7.0
54.405,6.495,1.815,12.0
54.45,6.504,1.506,11.0
63.11,7.56,3.497,53.0
63.104,7.562,3.135,71.0
63.11,7.565,2.774,40.0
54.11,6.49,2.062,8.0
54.141,6.497,1.754,12.0
54.138,6.5,1.445,11.0
63.096,7.596,3.434,20.0
63.106,7.6,3.072,18.0
63.142,7.606,2.713,6.0
53.86,6.491,1.999,10.0
53.9,6.499,1.693,12.0
53.925,6.505,1.386,11.0
63.102,7.631,3.371,10.0
63.12,7.636,3.01,9.0
53.598,6.486,2.248,2.0
53.645,6.494,1.938,15.0
53.67,6.499,1.632,14.0
53.709,6.507,1.326,12.0
63.105,7.664,3.308,6.0
63.153,7.672,2.947,6.0
53.381,6.486,2.185,5.0
53.455,6.497,1.877,7.0
53.47,6.502,1.571,13.0
53.503,6.509,1.265,12.0
63.214,7.707,3.247,4.0
63.151,7.701,2.881,4.0
53.209,6.49,2.122,5.0
53.272,6.5,1.814,13.0
53.294,6.504,1.51,12.0
53.313,6.509,1.205,12.0
63.142,7.725,3.177,2.0
63.184,7.731,2.817,2.0
53.057,6.493,2.061,13.0
53.074,6.497,1.752,14.0
53.14,6.507,1.449,12.0
53.158,6.512,1.145,12.0
63.217,7.759,3.113,1.0
52.837,6.485,2.298,1.0
52.911,6.495,1.998,14.0
52.966,6.503,1.691,13.0
52.979,6.507,1.387,11.0
53.022,6.514,1.085,11.0
65.73,8.089,3.165,3.0
52.712,6.488,2.235,1.0
52.782,6.497,1.935,11.0
52.831,6.504,1.629,13.0
52.873,6.511,1.327,13.0
52.899,6.515,1.024,12.0
65.464,8.076,3.08,6.0
52.649,6.495,2.174,2.0
52.682,6.5,1.874,10.0
52.721,6.505,1.567,15.0
52.767,6.512,1.266,14.0
52.791,6.516,0.964,14.0
65.275,8.069,2.998,8.0
52.517,6.492,2.11,3.0
52.587,6.501,1.811,9.0
52.623,6.505,1.505,14.0
52.671,6.512,1.205,13.0
52.731,6.521,0.903,14.0
65.217,8.075,2.922,6.0
52.469,6.496,2.05,4.0
52.525,6.503,1.75,10.0
52.569,6.509,1.445,11.0
52.615,6.515,1.145,14.0
52.664,6.522,0.844,14.0
65.225,8.086,2.849,1.0
52.407,6.496,1.988,5.0
52.481,6.505,1.69,10.0
52.531,6.511,1.385,12.0
52.576,6.517,1.085,14.0
52.635,6.525,0.784,12.0
52.36,6.497,2.228,1.0
52.395,6.5,1.929,8.0
52.457,6.507,1.629,10.0
52.484,6.51,1.324,12.0
52.561,6.52,1.024,13.0
52.602,6.525,0.723,12.0
52.282,6.491,2.165,2.0
52.401,6.504,1.869,8.0
52.439,6.508,1.568,10.0
52.505,6.515,1.264,14.0
52.548,6.52,0.964,13.0
52.591,6.526,0.663,13.0
52.295,6.493,2.104,2.0
52.376,6.502,1.806,7.0
52.438,6.508,1.508,12.0
52.498,6.515,1.203,13.0
52.572,6.523,0.903,14.0
52.596,6.526,0.603,12.0
52.357,6.499,2.047,4.0
52.422,6.506,1.747,9.0
52.48,6.512,1.448,12.0
52.536,6.517,1.143,13.0
52.593,6.524,0.843,13.0
52.634,6.528,0.541,10.0
52.393,6.5,1.987,6.0
52.46,6.506,1.688,10.0
52.541,6.515,1.388,12.0
52.569,6.517,1.083,14.0
52.644,6.525,0.782,13.0
52.671,6.527,0.481,11.0
52.458,6.502,1.928,8.0
52.519,6.507,1.629,11.0
52.612,6.516,1.33,13.0
52.676,6.523,1.023,14.0
52.712,6.526,0.721,14.0
52.753,6.53,0.42,12.0
52.551,6.505,1.87,7.0
52.629,6.512,1.571,14.0
52.677,6.515,1.27,12.0
52.748,6.522,0.963,16.0
52.805,6.527,0.662,14.0
52.839,6.53,0.359,11.0
52.639,6.504,1.812,10.0
52.723,6.512,1.512,13.0
52.792,6.518,1.211,14.0
52.841,6.521,0.903,15.0
52.906,6.528,0.601,12.0
52.966,6.533,0.298,5.0
52.756,6.505,1.754,12.0
52.842,6.513,1.453,14.0
52.903,6.517,1.152,12.0
52.962,6.522,0.844,13.0
53.051,6.53,0.541,13.0
53.075,6.531,0.237,2.0
52.909,6.508,1.697,12.0
53.008,6.516,1.396,14.0
53.058,6.519,1.093,11.0
53.141,6.527,0.784,13.0
53.19,6.53,0.48,12.0
46.548,5.713,0.154,4.0
53.068,6.508,1.64,12.0
53.16,6.516,1.337,14.0
53.227,6.521,1.034,13.0
53.286,6.525,0.725,12.0
53.338,6.528,0.419,11.0
46.333,5.669,0.099,20.0
53.271,6.512,1.584,12.0
53.345,6.517,1.28,13.0
53.4,6.52,0.976,12.0
53.482,6.527,0.666,13.0
53.54,6.531,0.359,15.0
44.624,5.441,0.044,7.0
53.472,6.513,1.529,12.0
53.552,6.518,1.224,12.0
53.619,6.523,0.918,12.0
53.736,6.533,0.606,13.0
53.752,6.531,0.298,4.0
40.427,4.91,-0.006,9.0
53.699,6.514,1.472,12.0
53.797,6.521,1.167,13.0
53.881,6.527,0.86,14.0
53.95,6.532,0.547,11.0
53.93,6.526,0.238,1.0
36.262,4.385,-0.047,5.0
53.935,6.514,1.418,12.0
54.029,6.52,1.11,14.0
54.128,6.528,0.802,12.0
54.165,6.528,0.488,10.0
46.294,5.576,0.151,4.0
38.293,4.609,-0.093,14.0
54.189,6.513,1.363,12.0
54.31,6.522,1.054,13.0
54.389,6.527,0.744,13.0
54.508,6.537,0.428,11.0
45.878,5.498,0.098,19.0
37.583,4.501,-0.134,14.0
54.533,6.52,1.309,12.0
54.603,6.523,0.998,12.0
54.697,6.529,0.686,11.0
54.796,6.535,0.368,12.0
45.108,5.376,0.045,19.0
35.895,4.275,-0.168,12.0
54.847,6.521,1.254,11.0
54.913,6.523,0.942,14.0
55.047,6.533,0.63,12.0
55.12,6.537,0.31,5.0
0.0,0.0,0.0,0.0
35.319,4.182,-0.205,13.0
55.175,6.52,1.201,13.0
55.301,6.529,0.887,13.0
55.441,6.54,0.573,14.0
51.343,6.051,0.231,3.0
42.398,4.993,-0.05,15.0
35.214,4.144,-0.243,16.0
0.0,0.0,0.0,0.0
0.0,0.0,0.0,0.0
109.112,-5.601,10.542,20.0
108.986,-5.585,9.94,17.0
109.116,-5.581,9.371,11.0
111.494,-5.693,8.985,11.0
0.0,0.0,0.0,0.0
0.0,0.0,0.0,0.0
109.301,-5.579,10.723,15.0
108.892,-5.548,10.092,18.0
111.172,-5.653,9.712,15.0
111.663,-5.668,9.162,20.0
0.0,0.0,0.0,0.0
0.0,0.0,0.0,0.0
109.165,-5.538,10.869,14.0
109.033,-5.52,10.263,9.0
111.589,-5.637,9.909,16.0
111.481,-5.62,9.307,21.0
0.0,0.0,0.0,0.0
0.0,0.0,0.0,0.0
109.284,-5.504,11.038,2.0
109.059,-5.481,10.421,17.0
111.86,-5.609,10.093,17.0
111.468,-5.578,9.464,23.0
0.0,0.0,0.0,0.0
0.0,0.0,0.0,0.0
0.0,0.0,0.0,0.0
109.085,-5.438,10.578,8.0
111.923,-5.566,10.254,19.0
111.525,-5.535,9.622,25.0
0.0,0.0,0.0,0.0
0.0,0.0,0.0,0.0
0.0,0.0,0.0,0.0
0.0,0.0,0.0,0.0
111.988,-5.522,10.412,14.0
111.5,-5.483,9.771,23.0
0.0,0.0,0.0,0.0
0.0,0.0,0.0,0.0
0.0,0.0,0.0,0.0
0.0,0.0,0.0,0.0
111.983,-5.468,10.559,6.0
111.567,-5.433,9.923,22.0
0.0,0.0,0.0,0.0
0.0,0.0,0.0,0.0
0.0,0.0,0.0,0.0
0.0,0.0,0.0,0.0
126.64,-6.119,12.105,2.0
111.822,-5.388,10.09,22.0
0.0,0.0,0.0,0.0
0.0,0.0,0.0,0.0
0.0,0.0,0.0,0.0
0.0,0.0,0.0,0.0
0.0,0.0,0.0,0.0
112.126,-5.342,10.259,21.0
0.0,0.0,0.0,0.0
0.0,0.0,0.0,0.0
0.0,0.0,0.0,0.0
0.0,0.0,0.0,0.0
0.0,0.0,0.0,0.0
112.188,-5.28,10.401,12.0
0.0,0.0,0.0,0.0
0.0,0.0,0.0,0.0
0.0,0.0,0.0,0.0
0.0,0.0,0.0,0.0
0.0,0.0,0.0,0.0
126.57,-5.881,11.885,8.0
0.0,0.0,0.0,0.0
0.0,0.0,0.0,0.0
0.0,0.0,0.0,0.0
0.0,0.0,0.0,0.0
0.0,0.0,0.0,0.0
0.0,0.0,0.0,0.0
0.0,0.0,0.0,0.0
0.0,0.0,0.0,0.0
0.0,0.0,0.0,0.0
0.0,0.0,0.0,0.0
0.0,0.0,0.0,0.0
0.0,0.0,0.0,0.0
0.0,0.0,0.0,0.0
0.0,0.0,0.0,0.0
0.0,0.0,0.0,0.0
0.0,0.0,0.0,0.0
0.0,0.0,0.0,0.0
0.0,0.0,0.0,0.0
0.0,0.0,0.0,0.0
0.0,0.0,0.0,0.0
0.0,0.0,0.0,0.0
0.0,0.0,0.0,0.0
0.0,0.0,0.0,0.0
0.0,0.0,0.0,0.0
0.0,0.0,0.0,0.0
0.0,0.0,0.0,0.0
0.0,0.0,0.0,0.0
0.0,0.0,0.0,0.0
0.0,0.0,0.0,0.0
0.0,0.0,0.0,0.0
0.0,0.0,0.0,0.0
55.191,0.414,6.631,2.0
0.0,0.0,0.0,0.0
0.0,0.0,0.0,0.0
0.0,0.0,0.0,0.0
0.0,0.0,0.0,0.0
0.0,0.0,0.0,0.0
0.0,0.0,0.0,0.0
0.0,0.0,0.0,0.0
0.0,0.0,0.0,0.0
0.0,0.0,0.0,0.0
0.0,0.0,0.0,0.0
0.0,0.0,0.0,0.0
0.0,0.0,0.0,0.0
0.0,0.0,0.0,0.0
0.0,0.0,0.0,0.0
0.0,0.0,0.0,0.0
0.0,0.0,0.0,0.0
55.214,0.556,6.762,7.0
0.0,0.0,0.0,0.0
0.0,0.0,0.0,0.0
0.0,0.0,0.0,0.0
0.0,0.0,0.0,0.0
0.0,0.0,0.0,0.0
55.224,0.603,6.695,22.0
0.0,0.0,0.0,0.0
0.0,0.0,0.0,0.0
0.0,0.0,0.0,0.0
0.0,0.0,0.0,0.0
0.0,0.0,0.0,0.0
55.234,0.648,6.626,45.0
0.0,0.0,0.0,0.0
0.0,0.0,0.0,0.0
0.0,0.0,0.0,0.0
0.0,0.0,0.0,0.0
0.0,0.0,0.0,0.0
55.237,0.692,6.553,40.0
0.0,0.0,0.0,0.0
0.0,0.0,0.0,0.0
0.0,0.0,0.0,0.0
0.0,0.0,0.0,0.0
0.0,0.0,0.0,0.0
55.245,0.735,6.48,27.0
0.0,0.0,0.0,0.0
0.0,0.0,0.0,0.0
0.0,0.0,0.0,0.0
0.0,0.0,0.0,0.0
0.0,0.0,0.0,0.0
55.232,0.775,6.402,20.0
0.0,0.0,0.0,0.0
0.0,0.0,0.0,0.0
0.0,0.0,0.0,0.0
0.0,0.0,0.0,0.0
0.0,0.0,0.0,0.0
55.242,0.815,6.326,16.0
0.0,0.0,0.0,0.0
0.0,0.0,0.0,0.0
0.0,0.0,0.0,0.0
0.0,0.0,0.0,0.0
0.0,0.0,0.0,0.0
55.242,0.853,6.246,16.0
0.0,0.0,0.0,0.0
0.0,0.0,0.0,0.0
0.0,0.0,0.0,0.0
0.0,0.0,0.0,0.0
0.0,0.0,0.0,0.0
55.239,0.889,6.163,21.0
55.197,0.892,5.835,1.0
55.263,0.897,5.52,2.0
55.233,0.9,5.188,5.0
55.241,0.904,4.868,14.0
55.232,0.907,4.546,19.0
55.235,0.924,6.079,62.0
55.228,0.927,5.755,52.0
55.23,0.93,5.432,56.0
55.217,0.933,5.103,60.0
55.208,0.936,4.78,69.0
55.209,0.94,4.46,67.0
55.228,0.956,5.994,71.0
55.22,0.959,5.669,68.0
55.211,0.962,5.346,70.0
55.208,0.965,5.017,71.0
55.2,0.968,4.695,70.0
55.198,0.971,4.374,69.0
55.23,0.987,5.907,38.0
55.233,0.99,5.584,33.0
55.219,0.993,5.259,34.0
55.216,0.995,4.931,32.0
55.212,0.998,4.609,34.0
55.222,1.001,4.288,34.0
55.4,1.02,5.837,0.0
0.0,0.0,0.0,0.0
55.28,1.022,5.176,0.0
55.139,1.023,4.836,0.0
55.139,1.025,4.514,0.0
129.439,2.412,9.845,20.0
0.0,0.0,0.0,0.0
0.0,0.0,0.0,0.0
0.0,0.0,0.0,0.0
0.0,0.0,0.0,0.0
0.0,0.0,0.0,0.0
129.5,2.474,9.638,23.0
0.0,0.0,0.0,0.0
0.0,0.0,0.0,0.0
0.0,0.0,0.0,0.0
0.0,0.0,0.0,0.0
129.325,2.523,10.165,13.0
129.402,2.529,9.418,24.0
0.0,0.0,0.0,0.0
0.0,0.0,0.0,0.0
0.0,0.0,0.0,0.0
0.0,0.0,0.0,0.0
129.306,2.576,9.946,24.0
129.271,2.579,9.191,18.0
0.0,0.0,0.0,0.0
0.0,0.0,0.0,0.0
0.0,0.0,0.0,0.0
0.0,0.0,0.0,0.0
129.511,2.63,9.737,24.0
129.377,2.63,8.973,19.0
0.0,0.0,0.0,0.0
0.0,0.0,0.0,0.0
0.0,0.0,0.0,0.0
129.402,2.669,10.259,6.0
127.381,2.63,9.355,14.0
129.323,2.673,8.742,19.0
0.0,0.0,0.0,0.0
0.0,0.0,0.0,0.0
0.0,0.0,0.0,0.0
129.337,2.709,10.025,13.0
127.234,2.666,9.12,22.0
136.497,2.861,8.989,7.0
0.0,0.0,0.0,0.0
0.0,0.0,0.0,0.0
0.0,0.0,0.0,0.0
129.588,2.749,9.814,8.0
127.153,2.699,8.889,18.0
129.278,2.745,8.283,11.0
0.0,0.0,0.0,0.0
0.0,0.0,0.0,0.0
0.0,0.0,0.0,0.0
127.22,2.73,9.405,18.0
127.248,2.731,8.664,20.0
129.519,2.781,8.065,23.0
0.0,0.0,0.0,0.0
0.0,0.0,0.0,0.0
0.0,0.0,0.0,0.0
127.154,2.754,9.171,24.0
136.465,2.955,9.047,10.0
129.514,2.805,7.829,13.0
0.0,0.0,0.0,0.0
0.0,0.0,0.0,0.0
0.0,0.0,0.0,0.0
127.074,2.774,8.932,23.0
134.324,2.93,8.659,12.0
133.502,2.913,7.828,13.0
0.0,0.0,0.0,0.0
0.0,0.0,0.0,0.0
127.144,2.793,9.457,17.0
127.169,2.793,8.703,24.0
129.502,2.842,8.107,19.0
129.552,2.841,7.356,20.0
0.0,0.0,0.0,0.0
0.0,0.0,0.0,0.0
127.143,2.806,9.219,24.0
136.458,3.01,9.085,10.0
129.518,2.854,7.866,13.0
129.58,2.853,7.114,8.0
0.0,0.0,0.0,0.0
0.0,0.0,0.0,0.0
127.093,2.813,8.975,22.0
134.173,2.966,8.677,21.0
133.543,2.948,7.857,17.0
129.404,2.855,6.861,12.0
0.0,0.0,0.0,0.0
127.149,2.82,9.482,14.0
127.124,2.817,8.736,23.0
129.54,2.866,8.132,15.0
129.586,2.863,7.379,20.0
129.408,2.855,6.614,21.0
0.0,0.0,0.0,0.0
127.172,2.82,9.239,24.0
136.295,3.017,9.105,8.0
133.404,2.949,8.119,10.0
129.652,2.861,7.134,9.0
129.474,2.853,6.369,8.0
0.0,0.0,0.0,0.0
127.131,2.813,8.991,23.0
134.231,2.964,8.708,18.0
133.524,2.943,7.869,16.0
129.347,2.846,6.868,10.0
121.664,2.672,5.752,14.0
127.112,2.807,9.488,16.0
127.142,2.802,8.747,23.0
129.518,2.848,8.152,15.0
129.589,2.843,7.387,19.0
129.365,2.832,6.619,19.0
115.028,2.514,5.216,14.0
127.158,2.793,9.245,24.0
136.369,2.988,9.118,10.0
129.488,2.831,7.9,15.0
121.77,2.655,6.705,11.0
114.414,2.489,5.631,6.0
121.607,2.64,5.278,7.0
127.104,2.771,8.993,22.0
134.311,2.922,8.717,11.0
133.511,2.896,7.885,10.0
129.427,2.799,6.875,10.0
121.656,2.624,5.752,14.0
121.235,2.609,5.026,19.0
127.228,2.749,8.752,21.0
129.462,2.789,8.148,20.0
129.611,2.784,7.402,18.0
129.349,2.77,6.618,19.0
115.121,2.459,5.219,13.0
121.232,2.582,4.791,16.0
136.464,2.916,9.12,8.0
129.493,2.759,7.898,15.0
121.784,2.586,6.716,14.0
114.402,2.421,5.629,12.0
121.526,2.565,5.271,22.0
121.22,2.55,4.552,15.0
129.161,2.725,8.377,12.0
129.532,2.724,7.645,11.0
121.84,2.553,6.479,10.0
121.564,2.537,5.742,19.0
121.305,2.523,5.021,21.0
135.2,2.803,4.811,14.0
129.423,2.69,8.137,20.0
129.495,2.68,7.385,9.0
129.208,2.665,6.614,9.0
121.496,2.496,5.498,21.0
121.212,2.48,4.778,18.0
135.201,2.757,4.544,21.0
129.481,2.645,7.885,11.0
121.811,2.478,6.704,21.0
121.743,2.466,5.99,21.0
121.412,2.45,5.254,26.0
135.145,2.715,5.06,10.0
135.496,2.711,4.283,20.0
129.578,2.596,7.631,5.0
133.857,2.67,7.101,6.0
121.522,2.413,5.738,25.0
121.271,2.397,5.006,22.0
135.223,2.661,4.795,20.0
135.045,2.645,4.002,16.0
122.019,2.392,6.944,22.0
121.694,2.374,6.215,22.0
121.374,2.356,5.491,24.0
121.253,2.343,4.766,13.0
135.239,2.6,4.527,16.0
55.192,1.056,1.525,2.0
121.789,2.331,6.689,14.0
121.69,2.316,5.973,20.0
121.279,2.296,5.243,19.0
55.187,1.039,2.058,12.0
55.196,1.034,1.738,23.0
55.209,1.028,1.416,39.0
55.22,1.028,2.922,18.0
55.201,1.022,2.598,38.0
55.193,1.016,2.276,47.0
55.183,1.01,1.948,51.0
55.185,1.004,1.627,55.0
55.166,0.998,1.305,64.0
55.19,0.997,2.81,57.0
55.177,0.991,2.488,56.0
55.182,0.985,2.166,70.0
55.166,0.979,1.839,73.0
55.175,0.972,1.517,72.0
55.17,0.966,1.196,68.0
55.186,0.964,2.7,70.0
55.177,0.958,2.378,73.0
55.177,0.952,2.056,64.0
55.181,0.945,1.729,56.0
55.181,0.939,1.408,54.0
55.184,0.933,1.086,49.0
55.193,0.93,2.591,47.0
55.213,0.924,2.269,42.0
55.202,0.917,1.947,23.0
55.212,0.91,1.621,17.0
55.198,0.904,1.299,7.0
55.19,0.897,0.978,7.0
121.529,1.968,5.463,17.0
135.42,2.176,5.298,9.0
19.674,0.313,0.655,6.0
19.682,0.311,0.538,7.0
19.702,0.309,0.424,7.0
19.75,0.307,0.31,1.0
121.475,1.881,5.219,26.0
19.681,0.302,0.731,5.0
19.664,0.299,0.615,10.0
19.678,0.297,0.499,9.0
19.703,0.294,0.385,11.0
19.737,0.292,0.271,4.0
121.81,1.796,4.993,4.0
19.641,0.286,0.69,11.0
19.653,0.284,0.576,12.0
19.694,0.282,0.461,10.0
19.702,0.279,0.346,13.0
19.743,0.277,0.233,12.0
19.671,0.274,0.767,2.0
19.651,0.271,0.652,14.0
19.653,0.269,0.538,14.0
19.676,0.266,0.422,10.0
19.718,0.264,0.308,13.0
19.752,0.262,0.194,23.0
19.647,0.258,0.728,12.0
19.654,0.255,0.614,14.0
19.658,0.252,0.5,12.0
19.689,0.25,0.384,11.0
19.721,0.247,0.27,12.0
19.76,0.245,0.155,26.0
19.644,0.241,0.69,16.0
19.653,0.238,0.576,12.0
19.675,0.236,0.462,9.0
19.708,0.233,0.346,10.0
19.753,0.23,0.232,23.0
19.761,0.227,0.117,16.0
19.655,0.224,0.652,14.0
19.689,0.221,0.539,10.0
19.72,0.218,0.425,10.0
19.723,0.215,0.308,10.0
19.771,0.213,0.194,19.0
19.693,0.209,0.079,11.0
19.69,0.206,0.615,10.0
19.707,0.203,0.501,10.0
19.705,0.2,0.387,10.0
19.709,0.197,0.27,7.0
19.681,0.193,0.156,11.0
19.655,0.19,0.041,13.0
19.668,0.187,0.577,9.0
19.659,0.184,0.463,10.0
19.655,0.18,0.348,10.0
19.649,0.177,0.232,10.0
19.66,0.174,0.118,11.0
19.632,0.17,0.004,17.0
19.615,0.167,0.539,12.0
19.627,0.164,0.425,10.0
19.62,0.16,0.311,10.0
19.659,0.157,0.195,13.0
19.648,0.154,0.081,13.0
19.644,0.15,-0.032,16.0
19.607,0.147,0.501,13.0
19.619,0.143,0.388,10.0
19.617,0.14,0.274,10.0
19.648,0.137,0.158,14.0
19.639,0.133,0.044,15.0
19.665,0.129,-0.069,9.0
19.615,0.126,0.465,15.0
19.606,0.122,0.351,11.0
19.646,0.119,0.238,12.0
19.637,0.115,0.122,14.0
19.651,0.112,0.008,12.0
19.7,0.108,-0.105,2.0
19.614,0.104,0.429,30.0
19.608,0.101,0.315,16.0
19.649,0.097,0.202,10.0
19.669,0.094,0.086,12.0
19.737,0.09,-0.027,7.0
19.762,0.087,-0.142,5.0
19.613,0.082,0.393,20.0
19.614,0.078,0.279,15.0
19.66,0.075,0.166,10.0
19.737,0.071,0.05,32.0
19.769,0.068,-0.063,59.0
19.764,0.064,-0.178,48.0
19.611,0.06,0.358,15.0
19.624,0.056,0.244,14.0
19.744,0.052,0.131,26.0
19.739,0.048,0.015,17.0
19.745,0.044,-0.099,16.0
19.75,0.04,-0.213,23.0
19.614,0.036,0.323,14.0
19.652,0.032,0.209,13.0
19.729,0.028,0.096,16.0
19.751,0.024,-0.019,65.0
19.752,0.02,-0.134,2.0
19.793,0.016,-0.249,1.0
19.624,0.012,0.288,14.0
19.757,0.008,0.176,3.0
19.799,0.004,0.061,4.0
19.746,0.0,-0.054,3.0
19.792,-0.003,-0.169,0.0
34.988,-0.014,-0.501,0.0
19.645,-0.012,0.254,15.0
19.684,-0.016,0.141,4.0
19.711,-0.02,0.027,14.0
19.737,-0.024,-0.088,9.0
19.766,-0.028,-0.203,5.0
0.0,0.0,0.0,0.0
19.657,-0.037,0.221,15.0
19.703,-0.041,0.107,16.0
19.707,-0.046,-0.006,16.0
19.723,-0.05,-0.122,14.0
19.755,-0.054,-0.236,15.0
19.779,-0.059,-0.351,2.0
19.706,-0.063,0.188,17.0
19.699,-0.067,0.074,14.0
19.719,-0.072,-0.039,14.0
19.708,-0.076,-0.155,16.0
19.744,-0.08,-0.269,14.0
19.76,-0.085,-0.384,14.0
19.709,-0.089,0.155,14.0
19.713,-0.093,0.041,12.0
19.718,-0.098,-0.072,11.0
19.714,-0.102,-0.188,17.0
19.747,-0.107,-0.302,15.0
19.743,-0.112,-0.416,17.0
19.759,-0.116,0.123,8.0
19.73,-0.12,0.009,10.0
19.722,-0.125,-0.104,15.0
19.721,-0.13,-0.22,16.0
19.73,-0.134,-0.334,17.0
19.733,-0.139,-0.448,17.0
0.0,0.0,0.0,0.0
19.782,-0.149,-0.022,3.0
19.742,-0.153,-0.136,13.0
19.736,-0.157,-0.252,14.0
19.74,-0.162,-0.366,15.0
19.754,-0.167,-0.48,14.0
0.0,0.0,0.0,0.0
19.785,-0.177,-0.053,2.0
19.77,-0.181,-0.167,8.0
19.762,-0.186,-0.283,6.0
19.766,-0.191,-0.397,8.0
25.863,-0.256,-0.67,0.0
0.0,0.0,0.0,0.0
0.0,0.0,0.0,0.0
0.0,0.0,0.0,0.0
0.0,0.0,0.0,0.0
28.671,-0.32,-0.622,0.0
24.957,-0.284,-0.685,0.0
0.0,0.0,0.0,0.0
0.0,0.0,0.0,0.0
37.715,-0.457,-0.436,0.0
31.319,-0.387,-0.546,0.0
27.678,-0.349,-0.642,0.0
24.409,-0.314,-0.707,0.0
0.0,0.0,0.0,0.0
0.0,0.0,0.0,0.0
0.0,0.0,0.0,0.0
30.433,-0.423,-0.577,0.0
26.324,-0.372,-0.65,0.0
23.028,-0.332,-0.702,0.0
19.843,-0.29,-0.06,0.0
42.413,-0.632,-0.373,0.0
0.0,0.0,0.0,0.0
29.711,-0.458,-0.607,0.0
25.668,-0.402,-0.672,0.0
22.451,-0.358,-0.717,0.0
0.0,0.0,0.0,0.0
0.0,0.0,0.0,0.0
32.283,-0.54,-0.517,0.0
28.291,-0.481,-0.619,0.0
24.962,-0.431,-0.689,0.0
21.752,-0.381,-0.726,2.0
0.0,0.0,0.0,0.0
0.0,0.0,0.0,0.0
31.977,-0.585,-0.557,0.0
27.314,-0.507,-0.636,0.0
21.71,-0.409,-0.63,22.0
21.588,-0.412,-0.751,4.0
0.0,0.0,0.0,0.0
35.822,-0.703,-0.468,0.0
30.823,-0.613,-0.579,0.0
21.726,-0.438,-0.535,152.0
21.704,-0.444,-0.66,21.0
20.928,-0.433,-0.757,1.0
42.287,-0.887,-0.367,0.0
34.881,-0.741,-0.503,0.0
29.63,-0.638,-0.597,1.0
21.665,-0.472,-0.563,158.0
21.701,-0.479,-0.689,7.0
20.379,-0.455,-0.764,0.0
0.0,0.0,0.0,0.0
33.212,-0.759,-0.522,0.0
28.262,-0.654,-0.607,0.0
21.736,-0.509,-0.593,44.0
21.679,-0.514,-0.716,6.0
19.929,-0.478,-0.773,0.0
0.0,0.0,0.0,0.0
31.913,-0.782,-0.543,0.0
27.867,-0.691,-0.634,0.0
24.51,-0.615,-0.701,0.0
21.639,-0.549,-0.743,0.0
17.813,-0.457,-0.714,2.0
37.287,-0.966,-0.467,0.0
31.483,-0.824,-0.575,0.0
0.0,0.0,0.0,0.0
23.613,-0.631,-0.704,0.0
17.788,-0.481,-0.632,154.0
17.787,-0.486,-0.735,13.0
35.185,-0.97,-0.484,0.0
29.724,-0.828,-0.579,0.0
25.847,-0.728,-0.652,0.0
17.799,-0.506,-0.552,9.0
17.766,-0.51,-0.653,161.0
17.779,-0.516,-0.756,9.0
34.203,-1.001,-0.511,0.0
29.433,-0.87,-0.608,0.0
25.404,-0.758,-0.67,0.0
17.82,-0.537,-0.574,3.0
17.756,-0.54,-0.673,157.0
17.788,-0.547,-0.777,2.0
33.149,-1.026,-0.533,0.0
29.1,-0.91,-0.634,0.0
24.949,-0.787,-0.686,0.0
17.766,-0.566,-0.592,0.0
17.801,-0.572,-0.695,4.0
17.794,-0.577,-0.797,1.0
32.168,-1.051,-0.553,0.0
27.549,-0.908,-0.631,0.0
24.339,-0.81,-0.696,0.0
21.48,-0.721,-0.74,0.0
19.451,-0.659,-0.781,1.0
17.756,-0.607,-0.815,1.0
31.247,-1.075,-0.571,0.0
27.201,-0.944,-0.652,0.0
23.449,-0.821,-0.696,0.0
20.959,-0.74,-0.744,0.0
19.244,-0.686,-0.793,0.0
17.351,-0.624,-0.814,0.0
30.392,-1.099,-0.587,0.0
26.353,-0.961,-0.659,0.0
23.28,-0.856,-0.715,0.0
20.551,-0.762,-0.751,0.0
18.828,-0.704,-0.795,0.0
17.104,-0.645,-0.82,0.0
29.342,-1.112,-0.596,0.0
25.632,-0.98,-0.667,0.0
22.798,-0.878,-0.723,0.0
20.332,-0.79,-0.763,0.0
18.516,-0.725,-0.8,0.0
16.727,-0.66,-0.818,0.0
28.678,-1.138,-0.61,0.0
24.998,-0.999,-0.674,0.0
22.499,-0.907,-0.735,0.0
20.108,-0.816,-0.773,0.0
18.205,-0.745,-0.804,0.0
16.522,-0.682,-0.824,0.0
28.02,-1.162,-0.622,0.0
24.773,-1.035,-0.691,0.0
21.73,-0.914,-0.73,0.0
19.716,-0.836,-0.776,0.0
17.931,-0.766,-0.808,0.0
16.264,-0.7,-0.826,0.0
27.291,-1.18,-0.63,0.0
24.316,-1.059,-0.7,0.0
21.463,-0.941,-0.739,0.0
19.452,-0.859,-0.783,0.0
17.663,-0.786,-0.811,0.0
16.057,-0.72,-0.829,0.0
27.101,-1.22,-0.649,0.0
23.823,-1.08,-0.705,0.0
21.131,-0.964,-0.746,0.0
19.213,-0.883,-0.789,0.0
17.465,-0.808,-0.817,0.0
15.851,-0.739,-0.831,0.0
26.665,-1.248,-0.66,0.0
23.429,-1.104,-0.713,0.0
20.867,-0.99,-0.753,0.0
19.061,-0.91,-0.798,0.0
17.225,-0.828,-0.819,0.0
15.753,-0.763,-0.839,0.0
26.082,-1.268,-0.666,1.0
22.983,-1.125,-0.717,0.0
20.615,-1.015,-0.76,0.0
18.683,-0.926,-0.796,0.0
17.058,-0.851,-0.824,0.0
15.509,-0.779,-0.837,0.0
0.0,0.0,0.0,0.0
22.856,-1.16,-0.729,0.0
20.442,-1.044,-0.768,0.0
18.446,-0.948,-0.799,0.0
16.842,-0.871,-0.826,0.0
15.427,-0.803,-0.844,0.0
25.102,-1.311,-0.676,0.0
22.505,-1.183,-0.734,0.0
20.218,-1.069,-0.773,0.0
18.213,-0.969,-0.802,0.0
16.703,-0.894,-0.83,0.0
15.253,-0.822,-0.844,0.0
24.74,-1.337,-0.683,0.0
22.089,-1.201,-0.734,0.0
19.949,-1.091,-0.776,0.0
18.075,-0.994,-0.807,0.0
16.539,-0.915,-0.832,0.0
15.085,-0.84,-0.844,0.0
24.486,-1.367,-0.69,0.0
22.032,-1.237,-0.745,0.0
19.89,-1.124,-0.785,0.0
17.935,-1.019,-0.811,0.0
16.361,-0.935,-0.833,0.0
14.946,-0.859,-0.845,0.0
24.193,-1.394,-0.696,0.0
21.535,-1.248,-0.741,0.0
19.66,-1.146,-0.787,0.0
17.708,-1.038,-0.811,0.0
16.202,-0.955,-0.834,0.0
14.877,-0.882,-0.849,0.0
23.866,-1.418,-0.699,0.0
21.428,-1.281,-0.748,0.0
19.511,-1.173,-0.792,0.0
17.562,-1.062,-0.813,0.0
16.154,-0.982,-0.839,0.0
14.797,-0.905,-0.852,0.0
23.677,-1.45,-0.705,0.0
21.122,-1.301,-0.748,0.0
19.259,-1.192,-0.79,0.0
17.544,-1.092,-0.821,0.0
16.026,-1.003,-0.84,0.0
14.74,-0.928,-0.856,0.0
23.46,-1.479,-0.709,0.0
21.022,-1.332,-0.754,0.0
19.169,-1.221,-0.795,0.0
17.338,-1.11,-0.819,0.0
15.89,-1.023,-0.84,0.0
14.664,-0.949,-0.858,0.0
23.165,-1.502,-0.71,0.0
20.878,-1.361,-0.757,0.0
18.987,-1.244,-0.795,0.0
17.241,-1.135,-0.821,0.0
15.83,-1.048,-0.843,0.0
14.579,-0.97,-0.858,0.0
23.368,-1.556,-0.724,0.0
20.774,-1.39,-0.761,0.0
18.905,-1.272,-0.798,0.0
17.071,-1.154,-0.818,0.0
15.698,-1.066,-0.841,0.0
14.501,-0.99,-0.858,0.0
22.953,-1.569,-0.719,0.0
20.662,-1.42,-0.763,0.0
18.799,-1.298,-0.8,0.0
17.163,-1.191,-0.828,0.0
15.603,-1.088,-0.841,0.0
14.46,-1.013,-0.86,0.0
22.855,-1.603,-0.722,0.0
20.516,-1.446,-0.763,0.0
18.805,-1.332,-0.805,0.0
16.886,-1.201,-0.819,0.0
15.582,-1.114,-0.843,0.0
14.418,-1.036,-0.861,0.0
22.792,-1.639,-0.726,0.0
20.447,-1.477,-0.766,0.0
18.571,-1.348,-0.799,0.0
16.816,-1.226,-0.82,0.0
15.564,-1.14,-0.846,0.0
14.336,-1.055,-0.86,0.0
22.403,-1.65,-0.718,0.0
20.454,-1.513,-0.77,0.0
18.662,-1.387,-0.807,0.0
16.794,-1.254,-0.822,0.0
15.486,-1.161,-0.844,0.0
14.258,-1.074,-0.857,0.0
22.389,-1.688,-0.721,0.0
20.252,-1.534,-0.765,0.0
18.594,-1.414,-0.807,0.0
16.837,-1.286,-0.826,0.0
15.47,-1.187,-0.846,0.0
14.273,-1.1,-0.86,0.0
22.512,-1.736,-0.728,0.0
20.373,-1.578,-0.773,0.0
18.526,-1.441,-0.806,0.0
16.846,-1.316,-0.828,0.0
15.492,-1.216,-0.849,0.0
14.263,-1.124,-0.861,0.0
22.494,-1.774,-0.729,0.0
20.373,-1.613,-0.774,0.0
18.494,-1.47,-0.806,0.0
16.908,-1.35,-0.833,0.0
15.47,-1.24,-0.848,0.0
14.294,-1.151,-0.863,0.0
22.824,-1.839,-0.741,0.0
20.244,-1.637,-0.77,0.0
18.507,-1.503,-0.807,0.0
16.931,-1.38,-0.834,0.0
15.349,-1.257,-0.842,0.0
14.297,-1.176,-0.864,0.0
22.61,-1.859,-0.734,0.0
20.181,-1.666,-0.767,0.0
18.641,-1.545,-0.813,0.0
16.81,-1.399,-0.828,0.0
15.419,-1.288,-0.845,0.0
14.286,-1.198,-0.863,0.0
22.694,-1.904,-0.736,0.0
20.166,-1.698,-0.766,0.0
0.0,0.0,0.0,0.0
16.894,-1.434,-0.831,0.0
15.463,-1.318,-0.847,0.0
14.23,-1.217,-0.859,0.0
22.912,-1.96,-0.742,0.0
20.197,-1.734,-0.766,0.0
18.456,-1.59,-0.802,0.0
17.198,-1.488,-0.845,0.0
15.411,-1.338,-0.842,0.0
14.219,-1.239,-0.856,0.0
23.028,-2.007,-0.743,0.0
20.56,-1.799,-0.777,0.0
18.782,-1.649,-0.814,0.0
16.956,-1.494,-0.83,0.0
15.552,-1.376,-0.848,0.0
14.252,-1.265,-0.856,0.0
0.0,0.0,0.0,0.0
20.491,-1.825,-0.771,0.0
18.813,-1.681,-0.812,0.0
16.971,-1.522,-0.828,0.0
15.669,-1.411,-0.851,0.0
14.358,-1.297,-0.86,0.0
23.106,-2.087,-0.737,0.0
20.458,-1.854,-0.766,0.0
18.853,-1.714,-0.81,0.0
17.07,-1.558,-0.83,0.0
15.652,-1.433,-0.847,0.0
14.333,-1.317,-0.855,0.0
0.0,0.0,0.0,0.0
20.491,-1.889,-0.762,0.0
18.841,-1.743,-0.805,0.0
17.126,-1.589,-0.828,0.0
15.832,-1.474,-0.853,0.0
14.557,-1.36,-0.865,0.0
23.246,-2.172,-0.73,0.0
20.871,-1.956,-0.771,0.0
19.09,-1.795,-0.81,0.0
17.294,-1.632,-0.831,0.0
15.825,-1.498,-0.848,0.0
14.532,-1.38,-0.859,0.0
23.503,-2.231,-0.732,0.0
20.877,-1.988,-0.765,0.0
19.09,-1.824,-0.804,0.0
17.289,-1.657,-0.826,0.0
15.857,-1.525,-0.845,0.0
14.664,-1.415,-0.862,0.0
23.6,-2.276,-0.727,0.0
21.069,-2.038,-0.764,0.0
19.085,-1.852,-0.798,0.0
17.375,-1.691,-0.824,0.0
16.106,-1.572,-0.852,0.0
14.625,-1.432,-0.855,0.0
23.908,-2.34,-0.727,0.0
21.278,-2.089,-0.764,0.0
19.299,-1.9,-0.799,0.0
17.418,-1.72,-0.819,0.0
16.126,-1.598,-0.847,0.0
14.788,-1.47,-0.858,0.0
23.958,-2.38,-0.719,0.0
21.399,-2.131,-0.76,0.0
19.607,-1.959,-0.804,0.0
17.592,-1.763,-0.82,0.0
16.201,-1.628,-0.844,0.0
14.882,-1.5,-0.857,0.0
24.369,-2.455,-0.72,0.0
21.437,-2.166,-0.751,0.0
19.653,-1.991,-0.797,0.0
17.843,-1.813,-0.823,0.0
16.363,-1.667,-0.845,0.0
15.015,-1.534,-0.858,0.0
24.44,-2.495,-0.711,0.0
21.967,-2.249,-0.759,0.0
19.672,-2.02,-0.788,0.0
17.713,-1.824,-0.808,0.0
16.468,-1.7,-0.842,0.0
15.145,-1.568,-0.857,0.0
24.581,-2.543,-0.703,0.0
22.086,-2.291,-0.752,0.0
19.773,-2.057,-0.782,0.0
17.915,-1.868,-0.808,0.0
16.719,-1.748,-0.846,0.0
15.275,-1.601,-0.857,0.0
25.113,-2.631,-0.705,0.0
22.356,-2.348,-0.749,0.0
20.155,-2.123,-0.786,0.0
18.174,-1.919,-0.81,0.0
16.802,-1.779,-0.841,0.0
15.449,-1.64,-0.858,0.0
25.425,-2.697,-0.699,0.0
0.0,0.0,0.0,0.0
20.402,-2.174,-0.783,0.0
18.697,-1.998,-0.822,0.0
16.929,-1.813,-0.837,0.0
15.662,-1.682,-0.86,0.0
25.924,-2.782,-0.697,0.0
23.213,-2.497,-0.751,0.0
20.484,-2.209,-0.774,0.0
18.755,-2.027,-0.813,0.0
17.192,-1.863,-0.839,0.0
15.855,-1.722,-0.861,0.0
26.016,-2.824,-0.682,0.0
23.251,-2.53,-0.737,0.0
20.839,-2.273,-0.774,0.0
18.857,-2.061,-0.805,0.0
17.236,-1.889,-0.83,0.0
15.99,-1.756,-0.857,0.0
26.703,-2.931,-0.683,0.0
23.641,-2.6,-0.733,0.0
21.248,-2.343,-0.775,0.0
18.918,-2.09,-0.794,0.0
17.439,-1.931,-0.828,0.0
16.154,-1.793,-0.855,0.0
26.798,-2.972,-0.667,0.0
23.909,-2.657,-0.725,0.0
21.363,-2.38,-0.764,0.0
19.252,-2.149,-0.795,0.0
17.65,-1.975,-0.825,0.0
16.26,-1.823,-0.849,0.0
27.569,-3.089,-0.666,0.0
24.757,-2.779,-0.732,0.0
21.625,-2.433,-0.757,0.0
0.0,0.0,0.0,0.0
17.776,-2.008,-0.818,0.0
16.445,-1.862,-0.846,0.0
28.516,-3.225,-0.668,0.0
24.797,-2.81,-0.715,0.0
22.005,-2.499,-0.754,0.0
19.841,-2.258,-0.79,0.0
17.985,-2.051,-0.813,0.0
16.692,-1.907,-0.846,0.0
0.0,0.0,0.0,0.0
25.125,-2.874,-0.705,0.0
22.554,-2.585,-0.755,0.0
20.123,-2.31,-0.785,0.0
18.378,-2.114,-0.817,0.0
16.928,-1.951,-0.844,0.0
29.388,-3.385,-0.641,0.0
0.0,0.0,0.0,0.0
22.999,-2.659,-0.751,0.0
0.0,0.0,0.0,0.0
18.5,-2.146,-0.807,0.0
17.091,-1.987,-0.838,0.0
29.935,-3.477,-0.629,0.0
26.415,-3.073,-0.698,0.0
23.233,-2.708,-0.739,0.0
20.883,-2.438,-0.78,0.0
18.792,-2.198,-0.803,0.0
17.169,-2.012,-0.827,0.0
30.454,-3.566,-0.613,0.0
26.817,-3.145,-0.685,0.0
23.343,-2.742,-0.722,0.0
21.13,-2.486,-0.771,0.0
19.47,-2.295,-0.816,0.0
17.557,-2.073,-0.83,0.0
31.029,-3.661,-0.598,0.0
27.108,-3.203,-0.669,0.0
24.242,-2.869,-0.729,0.0
21.714,-2.574,-0.773,0.0
19.448,-2.309,-0.797,0.0
17.728,-2.108,-0.823,0.0
31.819,-3.781,-0.585,0.0
0.0,0.0,0.0,0.0
24.567,-2.928,-0.717,0.0
22.078,-2.635,-0.765,0.0
19.802,-2.367,-0.794,0.0
18.058,-2.162,-0.822,0.0
0.0,0.0,0.0,0.0
0.0,0.0,0.0,0.0
25.104,-3.012,-0.709,0.0
22.319,-2.682,-0.753,0.0
20.45,-2.461,-0.8,0.0
18.321,-2.208,-0.816,0.0
34.042,-4.099,-0.562,0.0
29.796,-3.593,-0.653,0.0
26.013,-3.141,-0.71,0.0
23.002,-2.781,-0.754,0.0
20.823,-2.521,-0.795,0.0
18.755,-2.274,-0.817,0.0
34.137,-4.136,-0.531,0.0
29.909,-3.628,-0.626,0.0
26.458,-3.213,-0.696,0.0
23.405,-2.846,-0.744,0.0
21.213,-2.583,-0.789,2.0
19.041,-2.322,-0.811,0.0
0.0,0.0,0.0,0.0
30.383,-3.706,-0.606,0.0
26.787,-3.271,-0.679,0.0
23.826,-2.913,-0.734,0.0
21.381,-2.617,-0.774,0.0
19.329,-2.369,-0.804,0.0
0.0,0.0,0.0,0.0
32.25,-3.955,-0.611,0.0
27.874,-3.422,-0.678,4.0
24.443,-3.004,-0.728,0.0
21.904,-2.695,-0.771,0.0
19.599,-2.414,-0.795,0.0
38.978,-4.798,-0.489,0.0
32.345,-3.986,-0.579,0.0
27.864,-3.437,-0.649,0.0
25.017,-3.089,-0.72,0.0
22.098,-2.731,-0.755,0.0
19.812,-2.451,-0.783,0.0
39.669,-4.905,-0.457,0.0
33.649,-4.165,-0.568,0.0
0.0,0.0,0.0,0.0
0.0,0.0,0.0,0.0
23.001,-2.855,-0.762,0.0
20.659,-2.567,-0.795,0.0
0.0,0.0,0.0,0.0
34.18,-4.248,-0.541,0.0
29.878,-3.716,-0.634,0.0
0.0,0.0,0.0,0.0
23.402,-2.916,-0.75,0.0
21.0,-2.619,-0.786,0.0
0.0,0.0,0.0,0.0
35.826,-4.469,-0.529,0.0
0.0,0.0,0.0,0.0
27.074,-3.382,-0.693,0.0
24.021,-3.003,-0.744,0.0
21.343,-2.671,-0.776,0.0
0.0,0.0,0.0,0.0
37.154,-4.65,-0.509,0.0
32.231,-4.037,-0.614,0.0
0.0,0.0,0.0,0.0
24.699,-3.098,-0.738,0.0
21.771,-2.733,-0.768,0.0
46.579,-5.844,-0.337,2.0
37.809,-4.746,-0.476,0.0
32.506,-4.083,-0.583,1.0
28.52,-3.584,-0.668,0.0
25.426,-3.198,-0.732,0.0
21.904,-2.757,-0.748,0.0
47.111,-5.926,-0.29,1.0
38.973,-4.905,-0.448,0.0
0.0,0.0,0.0,0.0
29.243,-3.684,-0.653,0.0
25.689,-3.238,-0.711,0.0
0.0,0.0,0.0,0.0
0.0,0.0,0.0,0.0
0.0,0.0,0.0,0.0
0.0,0.0,0.0,0.0
30.139,-3.805,-0.64,0.0
0.0,0.0,0.0,0.0
23.489,-2.968,-0.75,0.0
51.583,-6.516,-0.203,0.0
43.233,-5.463,-0.401,0.0
36.583,-4.624,-0.536,0.0
30.468,-3.853,-0.613,0.0
26.822,-3.393,-0.683,0.0
24.112,-3.052,-0.743,0.0
40.697,-5.149,-0.114,0.0
44.953,-5.689,-0.367,1.0
37.205,-4.709,-0.503,0.0
32.125,-4.068,-0.61,0.0
27.886,-3.532,-0.679,0.0
24.782,-3.14,-0.736,0.0
0.0,0.0,0.0,0.0
46.726,-5.92,-0.329,1.0
0.0,0.0,0.0,0.0
32.619,-4.134,-0.582,0.0
28.655,-3.633,-0.665,0.0
25.24,-3.201,-0.721,0.0
0.0,0.0,0.0,0.0
47.902,-6.073,-0.282,1.0
0.0,0.0,0.0,0.0
0.0,0.0,0.0,0.0
29.464,-3.737,-0.65,0.0
25.986,-3.297,-0.712,0.0
75.307,-9.551,0.043,1.0
0.0,0.0,0.0,0.0
42.904,-5.442,-0.434,0.0
0.0,0.0,0.0,0.0
30.533,-3.873,-0.639,0.0
26.602,-3.375,-0.699,0.0
83.384,-10.063,1.632,32.0
83.37,-10.048,1.183,30.0
83.376,-10.035,0.735,40.0
83.41,-10.025,0.28,8.0
0.0,0.0,0.0,0.0
46.769,-5.606,-0.345,1.0
83.389,-10.0,1.718,131.0
83.362,-9.981,1.27,16.0
83.385,-9.97,0.822,23.0
83.323,-9.948,0.365,11.0
0.0,0.0,0.0,0.0
47.414,-5.645,-0.301,0.0
83.317,-9.923,1.802,34.0
83.372,-9.914,1.354,24.0
83.374,-9.899,0.906,42.0
83.362,-9.883,0.449,27.0
75.539,-8.942,0.001,2.0
0.0,0.0,0.0,0.0
83.3,-9.85,1.885,41.0
83.369,-9.842,1.437,23.0
83.371,-9.826,0.989,18.0
83.368,-9.81,0.532,19.0
77.673,-9.125,0.078,4.0
0.0,0.0,0.0,0.0
83.302,-9.775,1.966,40.0
83.37,-9.766,1.519,25.0
83.386,-9.751,1.07,124.0
83.382,-9.734,0.613,47.0
77.688,-9.054,0.153,7.0
0.0,0.0,0.0,0.0
83.318,-9.699,2.046,30.0
83.379,-9.688,1.599,53.0
83.357,-9.669,1.149,30.0
83.391,-9.655,0.692,41.0
77.713,-8.983,0.227,8.0
0.0,0.0,0.0,0.0
83.348,-9.622,2.125,21.0
83.383,-9.607,1.677,24.0
83.369,-9.587,1.228,54.0
83.372,-9.569,0.77,15.0
83.364,-9.551,0.32,13.0
0.0,0.0,0.0,0.0
116.317,-13.31,3.073,28.0
83.341,-9.517,1.752,34.0
83.382,-9.503,1.303,70.0
83.388,-9.485,0.845,32.0
83.365,-9.464,0.396,13.0
0.0,0.0,0.0,0.0
116.317,-13.186,3.179,38.0
83.312,-9.424,1.827,38.0
83.399,-9.414,1.379,20.0
83.37,-9.391,0.92,16.0
83.362,-9.372,0.471,16.0
0.0,0.0,0.0,0.0
116.293,-13.054,3.282,37.0
83.324,-9.332,1.901,35.0
83.367,-9.316,1.452,14.0
83.345,-9.295,0.993,21.0
83.369,-9.277,0.543,13.0
83.885,-9.316,0.094,11.0
116.32,-12.924,3.383,28.0
83.341,-9.239,1.972,32.0
83.399,-9.225,1.523,16.0
83.351,-9.199,1.063,13.0
83.384,-9.182,0.612,86.0
83.724,-9.2,0.162,2.0
116.277,-12.783,3.477,19.0
83.327,-9.139,2.041,18.0
83.384,-9.123,1.591,13.0
83.354,-9.099,1.131,27.0
82.874,-9.027,0.676,28.0
83.377,-9.061,0.229,22.0
147.838,-16.073,4.541,15.0
83.296,-9.033,2.108,21.0
83.302,-9.012,1.656,11.0
83.341,-8.994,1.198,67.0
83.322,-8.97,0.747,150.0
83.358,-8.953,0.295,33.0
147.875,-15.891,4.659,26.0
116.342,-12.471,3.033,47.0
83.346,-8.911,1.722,4.0
84.455,-9.007,1.279,3.0
84.729,-9.013,0.824,2.0
85.901,-9.115,0.37,1.0
148.232,-15.738,4.783,19.0
116.345,-12.319,3.123,41.0
85.306,-9.008,1.827,3.0
85.368,-8.992,1.356,1.0
85.774,-9.012,0.897,4.0
83.913,-8.794,0.423,1.0
148.475,-15.566,4.899,15.0
116.319,-12.162,3.205,39.0
86.183,-8.986,1.907,25.0
86.213,-8.965,1.431,56.0
86.241,-8.945,0.963,35.0
86.391,-8.938,0.496,5.0
108.817,-11.263,3.665,19.0
116.333,-12.007,3.286,38.0
86.35,-8.887,1.969,3.0
87.749,-9.007,1.516,2.0
87.935,-9.0,1.041,3.0
88.098,-8.993,0.564,3.0
108.814,-11.113,3.738,23.0
116.354,-11.847,3.364,28.0
116.301,-11.807,2.729,6.0
88.888,-8.998,1.593,4.0
89.042,-8.988,1.112,13.0
89.081,-8.966,0.629,17.0
108.589,-10.934,3.8,26.0
116.342,-11.679,3.437,24.0
89.107,-8.918,2.148,1.0
90.218,-9.003,1.674,36.0
90.271,-8.982,1.183,110.0
90.319,-8.96,0.693,89.0
108.23,-10.741,3.853,19.0
116.311,-11.506,3.507,16.0
116.338,-11.473,2.875,43.0
90.366,-8.885,1.731,30.0
90.366,-8.857,1.238,34.0
90.366,-8.831,0.746,22.0
108.412,-10.598,3.924,21.0
148.125,-14.433,4.551,18.0
117.897,-11.45,2.979,5.0
90.355,-8.747,1.782,71.0
90.26,-8.71,1.288,25.0
90.382,-8.695,0.796,53.0
108.409,-10.433,3.982,22.0
147.881,-14.184,4.625,24.0
127.507,-12.19,3.291,28.0
90.371,-8.61,1.83,49.0
90.368,-8.583,1.337,30.0
90.28,-8.547,0.842,16.0
108.207,-10.248,4.031,23.0
114.331,-10.791,3.633,7.0
127.525,-11.993,3.356,26.0
90.372,-8.471,1.875,46.0
90.392,-8.444,1.382,37.0
90.377,-8.415,0.887,20.0
108.933,-10.146,4.111,18.0
114.341,-10.611,3.689,6.0
127.474,-11.787,3.415,20.0
90.361,-8.327,1.917,35.0
90.393,-8.301,1.424,40.0
90.386,-8.272,0.929,33.0
108.886,-9.967,4.157,20.0
108.07,-9.856,3.535,11.0
127.494,-11.584,3.472,23.0
90.377,-8.182,1.957,35.0
90.394,-8.154,1.462,35.0
90.392,-8.124,0.967,44.0
107.987,-9.707,4.169,30.0
108.083,-9.678,3.58,20.0
127.494,-11.374,3.523,9.0
90.37,-8.033,1.993,71.0
90.385,-8.004,1.498,33.0
90.406,-7.977,1.003,42.0
108.136,-9.542,4.217,25.0
108.301,-9.519,3.628,24.0
114.523,-10.027,3.207,9.0
90.388,-7.885,2.026,36.0
90.385,-7.855,1.53,36.0
90.409,-7.828,1.034,36.0
108.262,-9.373,4.259,25.0
114.249,-9.851,3.866,5.0
114.556,-9.838,3.247,12.0
90.39,-7.732,2.055,40.0
90.397,-7.703,1.56,41.0
90.4,-7.673,1.063,34.0
108.135,-9.176,4.287,20.0
110.594,-9.348,3.776,14.0
114.549,-9.642,3.281,6.0
90.409,-7.579,2.083,32.0
90.403,-7.549,1.586,60.0
90.428,-7.52,1.089,35.0
108.753,-9.042,4.342,20.0
110.871,-9.178,3.816,17.0
114.401,-9.432,3.307,6.0
127.485,-10.466,2.971,31.0
116.52,-9.526,2.073,11.0
100.061,-8.148,1.23,13.0
108.872,-8.863,4.373,23.0
108.574,-8.8,3.763,10.0
115.704,-9.337,3.372,12.0
127.487,-10.243,2.999,35.0
100.117,-8.009,1.804,6.0
100.096,-7.972,1.252,12.0
108.711,-8.656,4.389,22.0
108.668,-8.614,3.787,26.0
115.789,-9.139,3.397,10.0
127.499,-10.018,3.024,31.0
119.437,-9.343,2.173,3.0
100.108,-7.798,1.27,13.0
107.917,-8.401,4.375,22.0
108.281,-8.39,3.791,29.0
148.097,-11.422,4.367,11.0
127.465,-9.787,3.042,32.0
127.449,-9.741,2.338,6.0
100.094,-7.615,1.283,10.0
107.212,-8.15,4.36,17.0
108.068,-8.177,3.797,26.0
109.044,-8.213,3.228,6.0
0.0,0.0,0.0,0.0
125.198,-9.342,2.31,2.0
100.093,-7.434,1.293,10.0
107.579,-7.985,4.384,21.0
108.015,-7.978,3.805,17.0
109.147,-8.023,3.24,18.0
109.279,-7.993,2.628,9.0
109.407,-7.964,2.026,22.0
100.093,-7.251,1.3,8.0
107.561,-7.785,4.39,24.0
107.304,-7.728,3.785,23.0
108.976,-7.81,3.239,43.0
109.182,-7.786,2.629,50.0
109.353,-7.76,2.028,26.0
100.09,-7.067,1.302,8.0
107.623,-7.59,4.394,23.0
108.211,-7.592,3.817,21.0
109.065,-7.614,3.243,37.0
109.216,-7.585,2.63,23.0
109.436,-7.56,2.028,6.0
100.026,-6.876,1.3,8.0
107.604,-7.388,4.391,26.0
108.592,-7.416,3.828,28.0
109.049,-7.406,3.238,36.0
117.007,-7.906,2.814,19.0
117.41,-7.892,2.171,25.0
0.0,0.0,0.0,0.0
108.12,-7.22,4.406,25.0
108.826,-7.227,3.829,23.0
109.929,-7.259,3.256,18.0
116.937,-7.68,2.802,27.0
117.39,-7.668,2.161,29.0
125.209,-8.134,1.609,30.0
109.232,-7.085,4.44,20.0
108.913,-7.024,3.82,22.0
117.055,-7.507,3.455,27.0
117.15,-7.47,2.794,29.0
125.287,-7.945,2.29,16.0
147.94,-9.331,1.883,34.0
108.497,-6.832,4.395,23.0
109.282,-6.841,3.817,22.0
117.358,-7.304,3.446,10.0
117.363,-7.261,2.78,12.0
148.269,-9.121,2.686,17.0
149.124,-9.123,1.873,21.0
108.952,-6.653,4.394,27.0
109.782,-6.665,3.815,23.0
117.309,-7.078,3.422,25.0
149.189,-8.947,3.505,16.0
148.678,-8.864,2.664,23.0
149.598,-8.867,1.848,18.0
107.807,-6.377,4.324,19.0
117.139,-6.886,4.045,21.0
117.214,-6.848,3.393,25.0
149.423,-8.675,3.476,19.0
140.75,-8.121,2.488,10.0
140.717,-8.07,1.703,21.0
108.096,-6.186,4.308,17.0
118.062,-6.712,4.045,8.0
148.544,-8.39,4.259,7.0
150.0,-8.418,3.448,9.0
140.642,-7.843,2.447,4.0
101.735,-5.637,1.202,1.0
108.928,-6.021,4.309,21.0
117.012,-6.424,3.974,21.0
137.483,-7.499,3.9,12.0
140.677,-7.622,3.189,33.0
102.157,-5.498,1.745,1.0
101.465,-5.424,1.166,3.0
109.214,-5.823,4.283,18.0
117.175,-6.206,3.94,18.0
138.047,-7.262,3.868,15.0
140.668,-7.348,3.139,7.0
101.981,-5.291,1.706,1.0
101.534,-5.231,1.13,11.0
109.46,-5.623,4.252,21.0
117.442,-5.989,3.903,23.0
139.286,-7.053,3.849,18.0
0.0,0.0,0.0,0.0
102.049,-5.094,1.665,3.0
101.544,-5.032,1.088,152.0
117.431,-5.801,4.513,15.0
117.859,-5.779,3.867,21.0
139.099,-6.772,3.784,11.0
0.0,0.0,0.0,0.0
0.0,0.0,0.0,0.0
101.536,-4.835,1.043,153.0
117.171,-5.56,4.45,23.0
140.808,-6.632,4.556,12.0
150.565,-7.036,4.026,10.0
0.0,0.0,0.0,0.0
0.0,0.0,0.0,0.0
101.346,-4.628,0.993,3.0
117.469,-5.344,4.402,27.0
118.799,-5.362,3.785,11.0
142.33,-6.373,3.734,19.0
0.0,0.0,0.0,0.0
101.547,-4.476,1.513,19.0
0.0,0.0,0.0,0.0
117.497,-5.115,4.341,22.0
118.995,-5.139,3.727,19.0
142.539,-6.105,3.662,3.0
0.0,0.0,0.0,0.0
101.528,-4.275,1.455,150.0
101.498,-4.24,0.885,150.0
117.194,-4.873,4.263,19.0
118.569,-4.887,3.644,22.0
141.609,-5.787,3.556,19.0
162.223,-6.573,3.143,15.0
0.0,0.0,0.0,0.0
0.0,0.0,0.0,0.0
117.002,-4.636,4.184,23.0
141.511,-5.556,4.262,5.0
141.624,-5.511,3.467,11.0
162.23,-6.256,3.042,24.0
162.065,-6.194,2.125,4.0
0.0,0.0,0.0,0.0
138.331,-5.208,4.856,16.0
140.127,-5.228,4.129,15.0
141.629,-5.236,3.374,4.0
162.196,-5.94,2.933,23.0
162.115,-5.881,2.017,23.0
160.693,-5.776,1.093,13.0
138.199,-4.938,4.757,19.0
163.195,-5.772,4.696,13.0
163.314,-5.72,3.777,11.0
162.171,-5.625,2.818,21.0
161.995,-5.562,1.9,22.0
160.705,-5.465,0.979,6.0
138.716,-4.685,4.674,18.0
163.203,-5.455,4.576,18.0
162.966,-5.393,3.649,4.0
162.199,-5.311,2.698,24.0
161.902,-5.247,1.778,20.0
160.681,-5.15,0.856,3.0
139.646,-4.445,4.599,16.0
163.302,-5.141,4.453,15.0
0.0,0.0,0.0,0.0
163.573,-5.036,2.592,6.0
161.912,-4.932,1.651,11.0
0.0,0.0,0.0,0.0
139.893,-4.18,4.493,9.0
163.325,-4.826,4.321,12.0
167.783,-4.9,3.488,15.0
0.0,0.0,0.0,0.0
90.994,-2.596,0.852,8.0
0.0,0.0,0.0,0.0
140.833,-3.939,4.405,2.0
163.416,-4.516,4.185,6.0
168.045,-4.588,3.352,7.0
90.953,-2.453,1.289,15.0
90.884,-2.422,0.774,150.0
0.0,0.0,0.0,0.0
140.688,-3.668,4.278,10.0
163.318,-4.202,4.039,6.0
0.0,0.0,0.0,0.0
90.88,-2.278,1.208,16.0
90.748,-2.245,0.691,9.0
0.0,0.0,0.0,0.0
163.441,-3.947,4.82,17.0
171.615,-4.087,4.086,6.0
90.992,-2.136,1.649,1.0
90.828,-2.103,1.121,35.0
90.745,-2.071,0.606,13.0
90.816,-2.044,0.091,1.0
163.296,-3.633,4.659,24.0
0.0,0.0,0.0,0.0
91.164,-1.969,1.565,3.0
90.813,-1.931,1.034,150.0
91.456,-1.916,0.521,1.0
90.794,-1.873,0.002,3.0
163.338,-3.326,4.498,29.0
0.0,0.0,0.0,0.0
91.345,-1.801,1.477,1.0
90.804,-1.762,0.943,168.0
91.643,-1.749,0.431,3.0
90.877,-1.705,-0.089,1.0
163.42,-3.025,4.335,16.0
170.327,-3.097,3.548,6.0
90.985,-1.625,1.377,7.0
90.769,-1.591,0.848,14.0
0.0,0.0,0.0,0.0
0.0,0.0,0.0,0.0
163.362,-2.718,4.158,6.0
0.0,0.0,0.0,0.0
90.837,-1.454,1.277,17.0
90.821,-1.425,0.751,72.0
19.749,-0.303,0.05,1.0
0.0,0.0,0.0,0.0
0.0,0.0,0.0,0.0
19.783,-0.286,0.369,1.0
19.742,-0.28,0.256,9.0
19.741,-0.273,0.141,28.0
0.0,0.0,0.0,0.0
0.0,0.0,0.0,0.0
19.778,-0.256,0.459,6.0
19.752,-0.25,0.346,11.0
19.751,-0.244,0.233,11.0
19.724,-0.237,0.118,0.0
0.0,0.0,0.0,0.0
0.0,0.0,0.0,0.0
19.751,-0.22,0.435,11.0
19.753,-0.215,0.323,6.0
0.0,0.0,0.0,0.0
0.0,0.0,0.0,0.0
0.0,0.0,0.0,0.0
19.78,-0.191,-0.129,6.0
19.761,-0.185,0.412,5.0
0.0,0.0,0.0,0.0
0.0,0.0,0.0,0.0
0.0,0.0,0.0,0.0
19.788,-0.162,-0.04,3.0
19.745,-0.156,-0.153,14.0
177.212,-1.353,3.483,20.0
170.385,-1.25,2.375,7.0
19.761,-0.139,0.162,2.0
19.736,-0.133,0.047,8.0
19.742,-0.127,-0.065,9.0
19.731,-0.121,-0.177,16.0
19.682,-0.115,0.362,8.0
19.696,-0.11,0.249,9.0
19.704,-0.104,0.137,13.0
19.701,-0.099,0.022,13.0
19.717,-0.093,-0.09,13.0
19.735,-0.087,-0.203,16.0
19.652,-0.082,0.336,10.0
19.663,-0.076,0.224,14.0
19.695,-0.071,0.111,15.0
19.698,-0.065,-0.002,16.0
19.716,-0.06,-0.115,14.0
19.763,-0.054,-0.228,14.0
19.635,-0.048,0.31,10.0
19.654,-0.043,0.198,14.0
19.698,-0.037,0.085,14.0
19.709,-0.032,-0.029,13.0
19.746,-0.026,-0.142,6.0
37.96,-0.041,-0.49,0.0
19.636,-0.015,0.283,14.0
19.727,-0.01,0.172,6.0
19.785,-0.004,0.059,4.0
19.737,0.0,-0.056,8.0
19.784,0.005,-0.169,1.0
19.763,0.011,-0.282,2.0
19.635,0.016,0.256,15.0
19.737,0.022,0.144,14.0
19.742,0.027,0.031,13.0
19.752,0.033,-0.083,15.0
19.758,0.038,-0.196,14.0
19.763,0.043,-0.31,31.0
19.628,0.048,0.228,15.0
19.718,0.054,0.116,18.0
19.762,0.059,0.003,69.0
19.766,0.064,-0.111,30.0
19.76,0.07,-0.224,14.0
19.773,0.075,-0.338,6.0
19.659,0.08,0.201,12.0
19.677,0.085,0.088,11.0
19.683,0.09,-0.024,7.0
19.618,0.095,-0.139,0.0
0.0,0.0,0.0,0.0
30.742,0.165,-0.57,0.0
19.662,0.111,0.172,16.0
19.647,0.116,0.059,13.0
19.654,0.121,-0.053,9.0
19.673,0.126,-0.168,6.0
0.0,0.0,0.0,0.0
30.286,0.21,-0.607,0.0
19.662,0.141,0.143,14.0
19.644,0.146,0.03,18.0
19.628,0.151,-0.082,12.0
19.641,0.156,-0.197,13.0
19.664,0.161,-0.31,9.0
19.67,0.166,-0.423,15.0
19.673,0.172,0.113,12.0
19.646,0.176,0.0,14.0
19.633,0.181,-0.112,16.0
19.628,0.186,-0.227,16.0
19.645,0.191,-0.34,14.0
19.658,0.196,-0.453,23.0
19.703,0.201,0.083,10.0
19.665,0.206,-0.029,9.0
19.636,0.21,-0.142,16.0
19.629,0.215,-0.257,18.0
19.641,0.22,-0.37,17.0
19.667,0.225,-0.484,20.0
19.698,0.23,0.052,0.0
19.652,0.234,-0.06,12.0
19.641,0.239,-0.173,15.0
19.635,0.243,-0.288,16.0
19.661,0.249,-0.402,16.0
19.673,0.253,-0.515,14.0
0.0,0.0,0.0,0.0
19.702,0.263,-0.091,10.0
19.662,0.267,-0.205,13.0
19.677,0.272,-0.32,10.0
19.684,0.277,-0.433,6.0
24.784,0.354,-0.688,0.0
55.049,0.8,-0.028,2.0
19.694,0.29,-0.123,0.0
19.696,0.295,-0.236,2.0
19.767,0.301,-0.353,0.0
27.285,0.421,-0.645,0.0
23.732,0.372,-0.698,0.0
52.431,0.834,-0.112,3.0
0.0,0.0,0.0,0.0
34.429,0.563,-0.47,0.0
29.772,0.493,-0.581,0.0
26.127,0.439,-0.661,1.0
22.711,0.387,-0.705,0.0
47.447,0.819,-0.18,0.0
35.797,0.626,-0.342,0.0
31.418,0.556,-0.481,0.0
0.0,0.0,0.0,0.0
24.957,0.452,-0.672,0.0
21.843,0.4,-0.714,0.0
42.129,0.782,-0.23,2.0
55.198,1.036,-0.619,0.0
29.249,0.555,-0.497,0.0
27.353,0.525,-0.625,0.0
23.934,0.464,-0.685,0.0
21.113,0.414,-0.726,2.0
38.926,0.772,-0.278,1.0
32.669,0.655,-0.421,0.0
27.639,0.559,-0.516,0.0
26.588,0.543,-0.652,6.0
22.706,0.469,-0.688,0.0
20.841,0.435,-0.752,2.0
36.969,0.779,-0.326,3.0
29.404,0.625,-0.429,0.0
25.447,0.546,-0.518,0.0
25.328,0.549,-0.665,1.0
22.05,0.482,-0.706,1.0
19.547,0.432,-0.739,0.0
34.642,0.772,-0.366,2.0
29.29,0.658,-0.478,1.0
25.016,0.567,-0.553,0.0
23.806,0.544,-0.666,0.0
21.625,0.498,-0.73,4.0
19.41,0.451,-0.767,1.0
32.321,0.758,-0.397,0.0
27.789,0.657,-0.502,1.0
23.401,0.557,-0.557,0.0
22.657,0.544,-0.673,3.0
20.839,0.504,-0.739,4.0
18.868,0.46,-0.778,0.0
30.802,0.757,-0.432,1.0
26.197,0.648,-0.518,0.0
22.415,0.559,-0.573,0.0
21.71,0.546,-0.683,4.0
20.397,0.516,-0.759,0.0
18.23,0.465,-0.784,0.0
29.226,0.75,-0.461,2.0
25.225,0.652,-0.543,1.0
21.321,0.555,-0.583,0.0
20.863,0.547,-0.693,1.0
19.308,0.51,-0.753,0.0
17.799,0.473,-0.797,1.0
27.76,0.742,-0.487,1.0
23.829,0.641,-0.556,0.0
20.725,0.561,-0.603,3.0
20.021,0.546,-0.7,1.0
19.042,0.522,-0.776,1.0
17.236,0.476,-0.803,0.0
26.142,0.725,-0.505,2.0
22.237,0.621,-0.558,0.0
19.908,0.559,-0.615,0.0
19.315,0.546,-0.71,1.0
18.313,0.521,-0.779,2.0
16.816,0.481,-0.813,1.0
25.133,0.722,-0.531,1.0
21.592,0.624,-0.581,0.0
19.255,0.56,-0.629,1.0
18.716,0.547,-0.722,0.0
17.953,0.528,-0.797,0.0
16.247,0.48,-0.815,0.0
23.588,0.7,-0.541,0.0
20.719,0.619,-0.595,1.0
18.342,0.55,-0.633,0.0
18.342,0.553,-0.741,1.0
17.35,0.526,-0.801,0.0
15.82,0.482,-0.823,0.0
22.402,0.686,-0.554,0.0
19.948,0.614,-0.609,1.0
18.165,0.562,-0.66,0.0
17.953,0.558,-0.758,1.0
16.821,0.525,-0.808,0.0
15.05,0.472,-0.81,0.0
21.559,0.679,-0.573,2.0
19.256,0.609,-0.623,2.0
17.393,0.553,-0.663,0.0
17.408,0.556,-0.767,1.0
16.301,0.523,-0.812,0.0
14.746,0.475,-0.821,0.0
20.689,0.669,-0.587,0.0
18.344,0.595,-0.627,0.0
17.148,0.559,-0.685,1.0
17.022,0.557,-0.781,1.0
15.734,0.517,-0.813,0.0
14.442,0.477,-0.83,0.0
19.838,0.657,-0.6,0.0
18.049,0.6,-0.65,0.0
16.905,0.565,-0.707,0.0
16.719,0.561,-0.798,1.0
15.199,0.512,-0.813,0.0
14.028,0.474,-0.832,0.0
19.2,0.651,-0.616,2.0
17.271,0.587,-0.654,0.0
16.647,0.568,-0.727,0.0
16.253,0.557,-0.806,1.0
14.754,0.508,-0.817,0.0
13.603,0.47,-0.832,0.0
18.391,0.636,-0.624,1.0
17.063,0.592,-0.678,0.0
16.411,0.572,-0.747,0.0
15.839,0.554,-0.814,0.0
14.345,0.504,-0.821,0.0
13.352,0.471,-0.842,0.0
18.048,0.637,-0.645,0.0
16.87,0.597,-0.701,0.0
16.259,0.578,-0.77,1.0
15.221,0.543,-0.811,0.0
13.951,0.499,-0.824,0.0
12.958,0.465,-0.841,0.0
17.288,0.621,-0.65,0.0
16.641,0.6,-0.722,0.0
16.063,0.581,-0.79,0.0
13.571,0.494,-0.827,0.0
12.676,0.463,-0.846,0.0
17.091,0.624,-0.675,0.0
16.408,0.601,-0.743,0.0
15.904,0.584,-0.812,1.0
14.3,0.527,-0.815,0.0
13.339,0.493,-0.838,0.0
12.387,0.459,-0.85,0.0
16.853,0.625,-0.697,0.0
16.25,0.604,-0.766,2.0
15.14,0.565,-0.802,0.0
13.894,0.52,-0.818,0.0
12.951,0.486,-0.838,0.0
12.172,0.458,-0.858,0.0
16.629,0.625,-0.718,0.0
16.071,0.606,-0.787,1.0
14.875,0.563,-0.815,0.0
13.514,0.512,-0.82,0.0
12.66,0.481,-0.842,0.0
11.954,0.456,-0.865,0.0
16.437,0.626,-0.74,0.0
15.905,0.607,-0.809,1.0
14.303,0.548,-0.81,0.0
13.378,0.513,-0.837,0.0
12.4,0.477,-0.848,0.0
11.676,0.45,-0.867,0.0
16.253,0.626,-0.762,1.0
15.253,0.589,-0.804,0.0
13.897,0.538,-0.813,0.0
13.014,0.505,-0.838,0.0
12.254,0.477,-0.861,0.0
11.425,0.445,-0.869,0.0
16.06,0.625,-0.783,1.0
14.804,0.577,-0.807,0.0
13.629,0.533,-0.823,0.0
12.718,0.498,-0.843,0.0
11.929,0.468,-0.86,0.0
11.146,0.439,-0.869,0.0
15.919,0.625,-0.805,1.0
14.365,0.566,-0.81,0.0
13.358,0.527,-0.831,0.0
12.419,0.491,-0.846,0.0
11.7,0.463,-0.865,0.0
10.995,0.436,-0.877,0.0
15.37,0.609,-0.805,0.0
14.114,0.56,-0.822,0.0
13.032,0.518,-0.834,0.0
12.244,0.488,-0.856,0.0
11.448,0.457,-0.867,0.0
10.798,0.432,-0.881,0.0
14.836,0.592,-0.804,0.0
13.738,0.549,-0.825,0.0
12.814,0.513,-0.844,0.0
11.976,0.48,-0.859,0.0
11.237,0.451,-0.872,0.0
10.611,0.427,-0.885,0.0
14.421,0.578,-0.808,0.0
13.273,0.533,-0.821,0.0
12.488,0.503,-0.845,0.0
11.8,0.476,-0.868,0.0
10.992,0.444,-0.873,0.0
10.465,0.423,-0.892,0.0
14.173,0.571,-0.819,0.0
13.076,0.528,-0.832,0.0
12.25,0.495,-0.851,0.0
11.466,0.464,-0.864,0.0
10.785,0.437,-0.876,0.0
10.269,0.417,-0.894,0.0
13.709,0.555,-0.817,0.0
12.885,0.522,-0.843,0.0
11.986,0.486,-0.854,0.0
11.229,0.456,-0.866,0.0
10.629,0.432,-0.882,0.0
10.084,0.411,-0.896,0.0
13.373,0.543,-0.821,0.0
12.534,0.509,-0.842,0.0
11.801,0.48,-0.861,0.0
10.991,0.447,-0.867,0.0
10.468,0.427,-0.887,0.0
9.945,0.406,-0.901,0.0
13.145,0.534,-0.83,0.0
12.259,0.499,-0.845,0.0
11.548,0.47,-0.863,0.0
