X,Y,Z,Reflectivity
129.457,2.502,9.868,24.0
129.153,2.491,9.088,20.0
129.179,2.488,8.335,18.0
133.393,2.565,7.815,8.0
121.966,2.341,6.432,15.0
121.505,2.329,5.699,22.0
129.553,2.501,9.623,24.0
129.21,2.489,8.841,18.0
129.214,2.484,8.086,7.0
121.922,2.341,6.903,21.0
121.646,2.33,6.178,21.0
121.353,2.32,5.456,21.0
129.249,2.487,9.347,22.0
129.257,2.482,8.591,19.0
133.472,2.557,8.09,7.0
121.742,2.327,6.654,18.0
121.679,2.322,5.941,20.0
121.316,2.309,5.216,20.0
129.153,2.473,9.084,19.0
129.179,2.467,8.328,15.0
122.027,2.325,7.153,3.0
121.952,2.318,6.423,13.0
121.516,2.304,5.692,20.0
55.213,1.044,2.264,3.0
129.176,2.456,8.829,18.0
129.263,2.451,8.077,4.0
121.945,2.305,6.907,20.0
121.669,2.294,6.17,18.0
55.19,1.037,2.477,5.0
55.204,1.035,2.155,12.0
129.18,2.433,8.574,18.0
55.234,1.037,3.342,1.0
55.22,1.033,3.019,5.0
55.2,1.03,2.689,16.0
55.212,1.027,2.368,23.0
55.19,1.023,2.045,36.0
55.189,1.027,3.552,6.0
55.227,1.025,3.232,16.0
55.211,1.021,2.908,25.0
55.2,1.017,2.579,42.0
55.199,1.014,2.258,49.0
55.193,1.01,1.936,50.0
55.218,1.014,3.444,38.0
55.197,1.01,3.119,46.0
55.199,1.006,2.796,49.0
55.189,1.002,2.468,53.0
55.169,0.998,2.146,57.0
55.172,0.994,1.824,62.0
55.198,0.998,3.331,56.0
55.192,0.993,3.008,58.0
55.182,0.989,2.684,61.0
55.175,0.985,2.356,68.0
55.178,0.981,2.035,70.0
55.171,0.977,1.712,69.0
55.194,0.979,3.219,72.0
55.184,0.975,2.897,71.0
55.189,0.97,2.574,70.0
55.184,0.966,2.247,71.0
55.164,0.961,1.924,69.0
55.18,0.957,1.603,67.0
55.189,0.959,3.11,73.0
55.192,0.954,2.787,71.0
55.175,0.949,2.463,69.0
55.178,0.944,2.135,64.0
55.186,0.94,1.814,53.0
55.182,0.935,1.492,53.0
55.198,0.936,2.998,59.0
55.193,0.931,2.674,47.0
55.198,0.927,2.353,45.0
55.203,0.922,2.026,38.0
55.19,0.916,1.703,22.0
55.196,0.912,1.382,18.0
55.226,0.912,2.888,23.0
55.204,0.906,2.564,20.0
55.196,0.901,2.241,10.0
19.673,0.319,0.682,2.0
19.692,0.317,0.568,3.0
19.72,0.316,0.454,4.0
121.647,1.951,6.118,22.0
121.506,1.936,5.4,22.0
19.64,0.311,0.758,0.0
19.65,0.309,0.641,8.0
19.693,0.307,0.528,8.0
19.71,0.306,0.414,8.0
121.375,1.882,5.857,23.0
121.488,1.872,5.154,26.0
19.661,0.3,0.719,6.0
19.659,0.298,0.602,10.0
19.691,0.297,0.488,9.0
19.707,0.295,0.374,11.0
121.563,1.817,5.622,25.0
121.81,1.807,4.923,3.0
19.637,0.289,0.679,10.0
19.657,0.287,0.563,12.0
19.697,0.285,0.449,10.0
19.713,0.283,0.334,13.0
121.587,1.744,5.378,23.0
19.67,0.279,0.755,5.0
19.649,0.277,0.639,14.0
19.656,0.275,0.523,14.0
19.69,0.273,0.409,13.0
19.725,0.271,0.295,13.0
186.681,2.558,7.884,6.0
19.646,0.266,0.715,12.0
19.65,0.264,0.6,12.0
19.661,0.262,0.484,11.0
19.697,0.26,0.37,13.0
19.731,0.258,0.256,14.0
84.817,1.105,3.413,21.0
19.638,0.253,0.675,15.0
19.659,0.251,0.561,13.0
19.688,0.249,0.446,10.0
19.706,0.246,0.332,11.0
19.75,0.244,0.217,28.0
19.651,0.242,0.751,10.0
19.647,0.239,0.636,13.0
19.664,0.236,0.522,10.0
19.693,0.234,0.406,10.0
19.724,0.232,0.292,11.0
19.756,0.23,0.178,26.0
19.643,0.227,0.712,13.0
19.647,0.224,0.597,10.0
19.684,0.222,0.484,9.0
19.719,0.219,0.368,10.0
19.741,0.217,0.253,14.0
19.759,0.214,0.138,17.0
19.662,0.211,0.673,12.0
19.708,0.209,0.56,10.0
19.725,0.206,0.445,10.0
19.72,0.203,0.328,9.0
19.722,0.201,0.214,14.0
19.679,0.197,0.099,13.0
19.678,0.195,0.635,10.0
19.7,0.192,0.521,9.0
19.682,0.189,0.406,9.0
19.666,0.186,0.289,8.0
19.667,0.183,0.175,11.0
19.654,0.18,0.06,13.0
19.641,0.178,0.595,9.0
19.623,0.174,0.481,10.0
19.645,0.172,0.367,9.0
19.641,0.168,0.25,11.0
19.658,0.166,0.136,11.0
19.658,0.163,0.022,18.0
19.604,0.159,0.556,12.0
19.618,0.156,0.442,10.0
19.625,0.153,0.328,10.0
19.654,0.151,0.212,16.0
19.638,0.147,0.098,12.0
19.64,0.144,-0.015,17.0
19.608,0.141,0.518,15.0
19.609,0.138,0.404,12.0
19.621,0.135,0.29,10.0
19.653,0.132,0.175,14.0
19.649,0.129,0.061,13.0
19.669,0.126,-0.052,9.0
19.611,0.122,0.481,16.0
19.608,0.119,0.367,13.0
19.617,0.116,0.253,10.0
19.633,0.113,0.137,13.0
19.656,0.11,0.023,12.0
19.696,0.107,-0.09,2.0
19.609,0.103,0.444,32.0
19.613,0.1,0.331,17.0
19.645,0.097,0.217,10.0
19.661,0.093,0.101,12.0
19.725,0.09,-0.012,8.0
19.762,0.087,-0.127,4.0
19.622,0.083,0.408,23.0
19.612,0.079,0.293,15.0
19.651,0.076,0.18,10.0
19.729,0.073,0.064,28.0
19.764,0.069,-0.05,49.0
19.764,0.066,-0.164,62.0
19.614,0.062,0.371,18.0
19.62,0.058,0.257,13.0
19.719,0.055,0.144,15.0
19.753,0.051,0.027,38.0
19.752,0.048,-0.086,13.0
19.767,0.044,-0.201,21.0
19.619,0.04,0.335,14.0
19.638,0.036,0.221,14.0
19.748,0.033,0.108,10.0
19.748,0.029,-0.008,24.0
19.756,0.025,-0.123,7.0
19.775,0.022,-0.238,2.0
19.631,0.018,0.299,15.0
19.723,0.014,0.186,5.0
19.791,0.01,0.072,3.0
19.738,0.006,-0.044,6.0
0.0,0.0,0.0,0.0
35.824,-0.001,-0.496,0.0
19.632,-0.004,0.263,14.0
19.729,-0.008,0.151,2.0
19.714,-0.012,0.036,11.0
19.756,-0.016,-0.079,6.0
19.766,-0.02,-0.194,2.0
33.517,-0.041,-0.524,0.0
19.652,-0.028,0.229,16.0
19.705,-0.032,0.116,15.0
19.706,-0.036,0.001,16.0
19.725,-0.04,-0.114,13.0
19.751,-0.044,-0.229,12.0
19.803,-0.048,-0.344,0.0
19.687,-0.052,0.195,14.0
19.705,-0.056,0.081,15.0
19.714,-0.06,-0.033,16.0
19.715,-0.064,-0.149,16.0
19.752,-0.068,-0.263,14.0
19.773,-0.073,-0.378,12.0
19.703,-0.077,0.161,16.0
19.707,-0.081,0.047,14.0
19.707,-0.085,-0.066,11.0
19.711,-0.089,-0.183,16.0
19.751,-0.093,-0.297,15.0
19.746,-0.098,-0.412,16.0
19.729,-0.102,0.127,12.0
19.718,-0.106,0.013,12.0
19.709,-0.11,-0.1,16.0
19.714,-0.115,-0.216,16.0
19.742,-0.119,-0.331,16.0
19.738,-0.124,-0.445,17.0
19.777,-0.128,0.094,4.0
19.759,-0.132,-0.019,8.0
19.727,-0.137,-0.133,16.0
19.718,-0.141,-0.249,16.0
19.736,-0.145,-0.364,17.0
19.747,-0.15,-0.478,19.0
0.0,0.0,0.0,0.0
19.777,-0.159,-0.052,8.0
19.741,-0.163,-0.166,13.0
19.744,-0.168,-0.282,12.0
19.754,-0.172,-0.397,13.0
19.757,-0.177,-0.511,9.0
0.0,0.0,0.0,0.0
19.767,-0.186,-0.084,0.0
19.775,-0.191,-0.199,4.0
19.764,-0.195,-0.315,1.0
19.728,-0.2,-0.428,0.0
24.931,-0.258,-0.686,0.0
0.0,0.0,0.0,0.0
0.0,0.0,0.0,0.0
38.514,-0.426,-0.45,0.0
32.59,-0.368,-0.572,0.0
27.2,-0.314,-0.634,0.0
24.027,-0.283,-0.699,0.0
0.0,0.0,0.0,0.0
0.0,0.0,0.0,0.0
36.766,-0.459,-0.487,0.0
30.067,-0.383,-0.575,0.0
26.381,-0.343,-0.657,0.0
23.075,-0.305,-0.708,0.0
0.0,0.0,0.0,0.0
0.0,0.0,0.0,0.0
35.112,-0.491,-0.52,0.0
29.343,-0.417,-0.607,0.0
25.451,-0.368,-0.673,0.0
22.453,-0.33,-0.724,1.0
0.0,0.0,0.0,0.0
0.0,0.0,0.0,0.0
33.146,-0.512,-0.541,0.0
28.059,-0.441,-0.623,0.0
24.677,-0.394,-0.69,0.0
21.735,-0.352,-0.733,2.0
0.0,0.0,0.0,0.0
36.702,-0.613,-0.443,0.0
30.252,-0.513,-0.539,0.0
0.0,0.0,0.0,0.0
23.921,-0.418,-0.705,0.0
21.301,-0.377,-0.75,1.0
0.0,0.0,0.0,0.0
35.457,-0.646,-0.48,0.0
30.262,-0.559,-0.584,0.0
21.721,-0.407,-0.546,7.0
21.722,-0.413,-0.671,4.0
20.536,-0.396,-0.753,1.0
0.0,0.0,0.0,0.0
33.547,-0.663,-0.502,0.0
21.767,-0.436,-0.451,0.0
21.676,-0.44,-0.576,158.0
21.702,-0.446,-0.702,8.0
20.14,-0.419,-0.767,1.0
41.143,-0.867,-0.437,0.0
32.172,-0.687,-0.527,0.0
21.739,-0.469,-0.481,5.0
21.697,-0.474,-0.607,155.0
21.66,-0.479,-0.731,5.0
19.754,-0.443,-0.78,0.0
0.0,0.0,0.0,0.0
31.68,-0.726,-0.562,0.0
21.715,-0.503,-0.51,0.0
21.719,-0.51,-0.637,7.0
21.518,-0.511,-0.755,2.0
19.309,-0.463,-0.789,0.0
35.048,-0.85,-0.467,0.0
30.148,-0.739,-0.575,0.0
26.442,-0.656,-0.656,0.0
22.945,-0.575,-0.704,0.0
17.812,-0.451,-0.648,3.0
17.809,-0.456,-0.751,4.0
29.381,-0.76,-0.43,0.0
29.593,-0.774,-0.603,0.0
25.653,-0.678,-0.67,0.0
17.8,-0.475,-0.569,0.0
17.793,-0.48,-0.671,153.0
17.775,-0.485,-0.772,6.0
33.965,-0.934,-0.54,0.0
28.944,-0.804,-0.626,0.0
24.99,-0.702,-0.684,0.0
17.804,-0.505,-0.591,65.0
17.783,-0.509,-0.693,152.0
17.772,-0.514,-0.794,4.0
31.294,-0.913,-0.536,0.0
27.178,-0.8,-0.621,0.0
24.448,-0.727,-0.699,0.0
17.77,-0.533,-0.612,155.0
17.793,-0.539,-0.715,50.0
17.737,-0.543,-0.814,1.0
31.144,-0.96,-0.571,0.0
26.731,-0.831,-0.643,0.0
23.682,-0.744,-0.706,0.0
17.813,-0.564,-0.635,39.0
17.833,-0.57,-0.737,2.0
17.587,-0.568,-0.828,0.0
30.099,-0.978,-0.587,0.0
26.304,-0.863,-0.663,0.0
23.163,-0.766,-0.717,0.0
20.457,-0.683,-0.752,0.0
18.822,-0.634,-0.8,0.0
16.986,-0.577,-0.819,0.0
29.707,-1.016,-0.613,0.0
25.34,-0.874,-0.668,0.0
22.516,-0.783,-0.722,0.0
20.12,-0.706,-0.762,0.0
18.314,-0.648,-0.799,0.0
16.693,-0.596,-0.824,0.0
28.59,-1.026,-0.621,0.0
24.967,-0.904,-0.685,0.0
21.917,-0.8,-0.726,0.0
19.842,-0.73,-0.773,0.0
18.016,-0.668,-0.805,0.0
16.271,-0.608,-0.82,0.0
28.406,-1.068,-0.647,0.0
24.435,-0.926,-0.696,0.0
21.586,-0.825,-0.738,0.0
19.536,-0.752,-0.781,0.0
17.78,-0.69,-0.813,0.0
16.083,-0.629,-0.827,0.0
27.117,-1.067,-0.645,0.0
23.792,-0.943,-0.701,0.0
21.239,-0.848,-0.747,0.0
19.225,-0.774,-0.788,0.0
17.376,-0.705,-0.812,0.0
15.925,-0.651,-0.835,0.0
26.23,-1.077,-0.649,0.0
23.338,-0.966,-0.711,0.0
20.745,-0.865,-0.75,0.0
18.949,-0.796,-0.795,0.0
17.236,-0.729,-0.822,0.0
15.658,-0.667,-0.836,0.0
25.757,-1.103,-0.662,0.0
22.963,-0.99,-0.721,0.0
20.484,-0.89,-0.759,0.0
18.605,-0.814,-0.798,0.0
16.987,-0.748,-0.825,0.0
15.507,-0.688,-0.842,0.0
25.38,-1.131,-0.675,0.0
22.342,-1.003,-0.721,0.0
20.19,-0.913,-0.767,0.0
18.32,-0.834,-0.802,0.0
16.613,-0.762,-0.822,0.0
15.307,-0.707,-0.845,0.0
24.598,-1.14,-0.676,0.0
21.979,-1.026,-0.729,0.0
19.912,-0.935,-0.773,0.0
18.169,-0.859,-0.811,0.0
16.399,-0.781,-0.825,0.0
15.055,-0.721,-0.843,0.0
24.177,-1.163,-0.684,0.0
21.687,-1.05,-0.736,0.0
19.626,-0.956,-0.778,0.0
17.93,-0.879,-0.814,0.0
16.185,-0.799,-0.827,0.0
14.925,-0.742,-0.848,0.0
23.955,-1.195,-0.696,0.0
21.403,-1.074,-0.743,0.0
19.478,-0.983,-0.787,0.0
17.571,-0.893,-0.811,0.0
16.064,-0.822,-0.833,0.0
14.769,-0.76,-0.85,0.0
23.668,-1.222,-0.705,0.0
21.105,-1.097,-0.748,0.0
19.235,-1.006,-0.791,0.0
17.36,-0.913,-0.814,0.0
15.937,-0.843,-0.838,0.0
14.67,-0.781,-0.855,0.0
23.21,-1.24,-0.708,0.0
20.85,-1.12,-0.754,0.0
19.099,-1.032,-0.799,0.0
17.226,-0.937,-0.82,0.0
15.671,-0.857,-0.835,0.0
14.534,-0.8,-0.857,0.0
23.197,-1.281,-0.723,0.0
20.507,-1.138,-0.755,0.0
18.704,-1.045,-0.794,0.0
17.085,-0.96,-0.824,0.0
15.556,-0.879,-0.839,0.0
14.389,-0.818,-0.857,0.0
22.802,-1.299,-0.725,0.0
20.44,-1.171,-0.765,0.0
18.565,-1.07,-0.8,0.0
16.857,-0.977,-0.823,0.0
15.329,-0.894,-0.836,0.0
14.354,-0.842,-0.864,0.0
23.804,-2.59,-0.713,0.0
21.467,-2.341,-0.76,0.0
19.454,-2.126,-0.795,0.0
17.619,-1.93,-0.818,0.0
16.24,-1.783,-0.843,0.0
15.087,-1.661,-0.865,0.0
24.475,-2.691,-0.717,0.0
22.214,-2.448,-0.772,0.0
19.633,-2.168,-0.789,0.0
17.78,-1.968,-0.813,0.0
16.385,-1.818,-0.839,0.0
15.22,-1.692,-0.862,0.0
24.894,-2.766,-0.712,0.0
22.091,-2.459,-0.752,0.0
19.789,-2.208,-0.781,0.0
17.956,-2.007,-0.808,0.0
16.592,-1.859,-0.838,0.0
15.457,-1.735,-0.865,0.0
25.37,-2.846,-0.707,0.0
22.269,-2.503,-0.742,0.0
0.0,0.0,0.0,0.0
18.335,-2.069,-0.812,0.0
16.884,-1.909,-0.84,0.0
15.561,-1.764,-0.859,0.0
25.93,-2.936,-0.704,0.0
22.749,-2.581,-0.741,0.0
20.54,-2.335,-0.78,0.0
18.719,-2.132,-0.815,0.0
16.911,-1.93,-0.828,0.0
15.711,-1.797,-0.855,0.0
26.301,-3.005,-0.693,0.0
0.0,0.0,0.0,0.0
20.816,-2.387,-0.774,0.0
19.063,-2.19,-0.815,0.0
17.222,-1.982,-0.829,0.0
15.903,-1.834,-0.852,0.0
27.152,-3.129,-0.694,0.0
23.704,-2.736,-0.734,0.0
21.196,-2.451,-0.771,0.0
19.146,-2.218,-0.802,0.0
17.331,-2.011,-0.82,0.0
16.112,-1.873,-0.85,0.0
27.213,-3.161,-0.673,0.0
23.782,-2.767,-0.717,0.0
21.67,-2.526,-0.77,0.0
19.283,-2.251,-0.792,0.0
17.528,-2.05,-0.815,0.0
16.515,-1.935,-0.857,0.0
0.0,0.0,0.0,0.0
24.519,-2.875,-0.718,0.0
21.968,-2.58,-0.762,0.0
19.776,-2.326,-0.795,0.0
17.791,-2.096,-0.812,0.0
16.648,-1.965,-0.85,0.0
28.34,-3.342,-0.652,0.0
25.165,-2.972,-0.715,0.0
22.313,-2.639,-0.755,0.0
19.888,-2.356,-0.782,0.0
18.242,-2.164,-0.816,0.0
16.86,-2.004,-0.846,0.0
28.964,-3.439,-0.641,1.0
25.676,-3.053,-0.707,0.0
22.249,-2.649,-0.732,0.0
20.185,-2.407,-0.776,0.0
18.643,-2.226,-0.817,0.0
16.929,-2.025,-0.834,0.0
29.432,-3.517,-0.624,0.0
26.035,-3.116,-0.692,0.0
23.311,-2.794,-0.745,0.0
20.583,-2.47,-0.771,0.0
18.865,-2.267,-0.809,0.0
17.268,-2.078,-0.834,0.0
0.0,0.0,0.0,0.0
26.704,-3.215,-0.685,0.0
23.987,-2.892,-0.744,0.0
0.0,0.0,0.0,0.0
19.085,-2.307,-0.8,0.0
17.515,-2.12,-0.829,0.0
31.759,-3.842,-0.612,1.0
27.702,-3.355,-0.683,0.0
24.014,-2.912,-0.721,1.0
21.601,-2.622,-0.768,0.0
19.525,-2.373,-0.799,0.0
17.94,-2.184,-0.831,0.0
31.782,-3.866,-0.581,0.0
0.0,0.0,0.0,0.0
24.769,-3.019,-0.72,0.0
21.814,-2.662,-0.754,0.0
19.772,-2.416,-0.79,0.0
18.007,-2.203,-0.816,1.0
0.0,0.0,0.0,0.0
28.551,-3.493,-0.647,0.0
0.0,0.0,0.0,0.0
0.0,0.0,0.0,0.0
20.356,-2.499,-0.792,0.0
18.417,-2.263,-0.816,0.0
33.91,-4.164,-0.552,0.0
0.0,0.0,0.0,0.0
26.178,-3.221,-0.708,0.0
23.271,-2.866,-0.757,0.0
0.0,0.0,0.0,0.0
18.711,-2.309,-0.81,0.0
0.0,0.0,0.0,0.0
30.272,-3.737,-0.624,0.0
26.291,-3.248,-0.683,0.0
23.703,-2.931,-0.746,0.0
21.178,-2.621,-0.78,0.0
19.165,-2.375,-0.809,0.0
0.0,0.0,0.0,0.0
32.064,-3.973,-0.627,0.0
0.0,0.0,0.0,0.0
24.079,-2.989,-0.732,0.0
21.746,-2.701,-0.779,0.0
19.587,-2.435,-0.807,0.0
36.937,-4.589,-0.486,0.0
32.036,-3.983,-0.593,0.0
27.419,-3.412,-0.655,0.0
0.0,0.0,0.0,0.0
22.012,-2.743,-0.764,0.0
19.815,-2.471,-0.794,0.0
0.0,0.0,0.0,0.0
32.667,-4.074,-0.57,0.0
28.713,-3.583,-0.655,0.0
25.897,-3.234,-0.732,0.0
22.533,-2.816,-0.758,0.0
20.244,-2.532,-0.79,0.0
0.0,0.0,0.0,0.0
0.0,0.0,0.0,0.0
29.857,-3.736,-0.648,0.0
25.865,-3.238,-0.703,0.0
23.263,-2.915,-0.757,0.0
20.773,-2.604,-0.787,0.0
0.0,0.0,0.0,0.0
0.0,0.0,0.0,0.0
30.266,-3.796,-0.624,0.0
26.493,-3.324,-0.691,0.0
0.0,0.0,0.0,0.0
21.184,-2.661,-0.78,0.0
45.683,-5.736,-0.401,0.0
36.729,-4.613,-0.519,0.0
32.15,-4.04,-0.627,0.0
26.927,-3.385,-0.672,0.0
0.0,0.0,0.0,0.0
21.734,-2.735,-0.775,0.0
46.127,-5.801,-0.354,2.0
37.622,-4.733,-0.49,0.0
32.278,-4.062,-0.593,0.0
27.941,-3.518,-0.666,0.0
24.985,-3.147,-0.729,0.0
22.07,-2.781,-0.763,0.0
47.02,-5.922,-0.308,2.0
0.0,0.0,0.0,0.0
0.0,0.0,0.0,0.0
0.0,0.0,0.0,0.0
25.776,-3.249,-0.724,0.0
0.0,0.0,0.0,0.0
48.454,-6.108,-0.262,0.0
40.975,-5.166,-0.441,0.0
0.0,0.0,0.0,0.0
29.861,-3.766,-0.644,0.0
26.15,-3.299,-0.704,0.0
0.0,0.0,0.0,0.0
0.0,0.0,0.0,0.0
0.0,0.0,0.0,0.0
0.0,0.0,0.0,0.0
30.309,-3.824,-0.619,0.0
26.715,-3.371,-0.689,0.0
23.944,-3.022,-0.746,0.0
0.0,0.0,0.0,0.0
0.0,0.0,0.0,0.0
36.642,-4.623,-0.507,0.0
32.052,-4.044,-0.618,0.0
27.435,-3.461,-0.676,0.0
24.11,-3.042,-0.723,0.0
0.0,0.0,0.0,0.0
46.811,-5.904,-0.344,2.0
38.51,-4.857,-0.488,0.0
32.496,-4.098,-0.589,0.0
0.0,0.0,0.0,0.0
25.555,-3.223,-0.737,0.0
0.0,0.0,0.0,0.0
47.276,-5.959,-0.293,2.0
0.0,0.0,0.0,0.0
33.775,-4.256,-0.574,0.0
29.69,-3.741,-0.663,0.0
25.934,-3.267,-0.718,0.0
74.955,-9.442,0.022,3.0
48.492,-6.107,-0.245,0.0
41.95,-5.281,-0.436,0.0
0.0,0.0,0.0,0.0
30.289,-3.812,-0.642,0.0
26.248,-3.303,-0.697,0.0
74.827,-9.414,0.107,10.0
0.0,0.0,0.0,0.0
0.0,0.0,0.0,0.0
0.0,0.0,0.0,0.0
32.212,-4.047,-0.645,0.0
27.016,-3.394,-0.686,0.0
74.917,-9.41,0.194,12.0
0.0,0.0,0.0,0.0
46.464,-5.831,-0.376,2.0
36.995,-4.641,-0.5,1.0
32.353,-4.057,-0.611,2.0
27.986,-3.508,-0.678,0.0
75.826,-9.505,0.284,8.0
0.0,0.0,0.0,0.0
46.44,-5.815,-0.322,1.0
36.567,-4.577,-0.453,0.0
32.438,-4.058,-0.575,0.0
0.0,0.0,0.0,0.0
79.74,-9.972,0.389,2.0
0.0,0.0,0.0,0.0
48.126,-6.011,-0.279,0.0
0.0,0.0,0.0,0.0
34.127,-4.258,-0.566,0.0
29.597,-3.691,-0.65,0.0
83.371,-10.397,0.502,13.0
0.0,0.0,0.0,0.0
0.0,0.0,0.0,0.0
0.0,0.0,0.0,0.0
0.0,0.0,0.0,0.0
30.386,-3.777,-0.632,0.0
83.363,-10.363,0.597,26.0
74.285,-9.228,0.134,2.0
0.0,0.0,0.0,0.0
44.166,-5.478,-0.397,0.0
0.0,0.0,0.0,0.0
32.038,-3.969,-0.631,0.0
74.451,-9.223,0.617,10.0
74.292,-9.195,0.218,6.0
0.0,0.0,0.0,0.0
46.278,-5.719,-0.364,1.0
0.0,0.0,0.0,0.0
32.239,-3.978,-0.599,0.0
83.365,-10.287,0.784,11.0
74.322,-9.162,0.301,30.0
0.0,0.0,0.0,0.0
48.026,-5.91,-0.324,1.0
0.0,0.0,0.0,0.0
0.0,0.0,0.0,0.0
83.354,-10.242,0.876,13.0
74.339,-9.125,0.383,15.0
0.0,0.0,0.0,0.0
48.195,-5.904,-0.272,1.0
41.188,-5.041,-0.453,0.0
34.966,-4.276,-0.572,0.0
83.374,-10.196,0.968,11.0
83.353,-10.182,0.523,14.0
74.19,-9.053,0.068,2.0
0.0,0.0,0.0,0.0
0.0,0.0,0.0,0.0
0.0,0.0,0.0,0.0
83.363,-10.143,1.061,11.0
83.348,-10.129,0.613,36.0
74.296,-9.019,0.149,3.0
0.0,0.0,0.0,0.0
43.418,-5.259,-0.382,0.0
0.0,0.0,0.0,0.0
83.385,-10.09,1.152,17.0
83.37,-10.076,0.704,46.0
75.837,-9.154,0.234,9.0
0.0,0.0,0.0,0.0
0.0,0.0,0.0,0.0
0.0,0.0,0.0,0.0
83.357,-10.028,1.239,25.0
83.378,-10.017,0.793,35.0
83.369,-10.002,0.346,17.0
0.0,0.0,0.0,0.0
0.0,0.0,0.0,0.0
0.0,0.0,0.0,0.0
83.386,-9.968,1.329,24.0
83.364,-9.951,0.88,24.0
83.356,-9.937,0.433,14.0
0.0,0.0,0.0,0.0
0.0,0.0,0.0,0.0
40.53,-4.812,-0.445,0.0
83.38,-9.902,1.414,28.0
83.368,-9.885,0.967,79.0
83.366,-9.87,0.52,27.0
75.536,-8.93,0.057,3.0
0.0,0.0,0.0,0.0
0.0,0.0,0.0,0.0
83.379,-9.832,1.5,18.0
83.34,-9.812,1.052,20.0
83.36,-9.798,0.604,23.0
77.659,-9.114,0.137,6.0
55.411,-6.493,-0.199,0.0
44.081,-5.158,-0.395,0.0
83.374,-9.759,1.583,26.0
83.385,-9.743,1.136,59.0
83.382,-9.727,0.687,49.0
77.6,-9.037,0.214,2.0
0.0,0.0,0.0,0.0
0.0,0.0,0.0,0.0
83.373,-9.682,1.666,53.0
83.391,-9.667,1.218,29.0
83.373,-9.648,0.769,52.0
83.488,-9.644,0.313,4.0
0.0,0.0,0.0,0.0
0.0,0.0,0.0,0.0
83.348,-9.599,1.746,28.0
83.364,-9.583,1.298,46.0
83.358,-9.564,0.85,20.0
83.369,-9.548,0.392,37.0
0.0,0.0,0.0,0.0
50.182,-5.727,-0.303,1.0
83.325,-9.512,1.826,37.0
83.388,-9.501,1.377,66.0
83.37,-9.48,0.928,25.0
83.371,-9.462,0.472,28.0
0.0,0.0,0.0,0.0
0.0,0.0,0.0,0.0
83.312,-9.424,1.903,35.0
83.378,-9.412,1.455,24.0
83.38,-9.393,1.005,19.0
83.361,-9.372,0.548,17.0
83.712,-9.393,0.1,3.0
0.0,0.0,0.0,0.0
83.329,-9.335,1.98,29.0
83.401,-9.323,1.532,20.0
83.368,-9.3,1.082,19.0
83.354,-9.279,0.623,15.0
83.882,-9.318,0.175,25.0
0.0,0.0,0.0,0.0
83.341,-9.242,2.055,21.0
83.385,-9.226,1.606,17.0
83.369,-9.204,1.155,13.0
83.367,-9.184,0.697,39.0
83.65,-9.195,0.248,6.0
0.0,0.0,0.0,0.0
116.352,-12.768,2.97,20.0
83.362,-9.126,1.678,18.0
83.36,-9.106,1.227,12.0
82.954,-9.041,0.765,32.0
83.349,-9.063,0.318,16.0
0.0,0.0,0.0,0.0
116.333,-12.627,3.067,27.0
83.333,-9.023,1.746,24.0
83.328,-9.001,1.295,53.0
83.328,-8.98,0.837,84.0
83.348,-8.961,0.387,58.0
0.0,0.0,0.0,0.0
116.34,-12.483,3.163,51.0
83.468,-8.934,1.817,6.0
84.33,-9.004,1.38,3.0
84.495,-9.0,0.917,3.0
84.584,-8.987,0.46,2.0
0.0,0.0,0.0,0.0
116.341,-12.336,3.255,37.0
85.073,-8.997,1.919,4.0
83.306,-8.787,1.428,7.0
85.573,-9.003,0.996,3.0
83.958,-8.811,0.522,1.0
85.291,-8.928,0.069,3.0
116.32,-12.181,3.343,36.0
86.147,-8.997,2.01,11.0
86.214,-8.979,1.544,98.0
86.219,-8.956,1.068,49.0
86.279,-8.939,0.601,11.0
0.0,0.0,0.0,0.0
116.327,-12.024,3.431,26.0
86.296,-8.894,2.077,9.0
87.314,-8.974,1.628,1.0
87.653,-8.985,1.15,2.0
87.983,-8.994,0.677,2.0
100.469,-10.242,0.229,2.0
116.316,-11.861,3.514,17.0
116.351,-11.831,2.883,20.0
88.708,-8.994,1.717,5.0
88.931,-8.991,1.229,4.0
89.08,-8.981,0.748,21.0
89.107,-8.958,0.265,28.0
148.105,-14.894,4.576,20.0
116.376,-11.669,2.963,27.0
89.191,-8.916,1.786,9.0
90.284,-8.998,1.309,106.0
90.296,-8.974,0.819,107.0
90.348,-8.953,0.328,29.0
148.157,-14.685,4.675,15.0
116.37,-11.498,3.039,80.0
90.356,-8.901,1.868,38.0
90.332,-8.871,1.367,34.0
90.357,-8.846,0.876,35.0
90.361,-8.821,0.385,19.0
148.125,-14.464,4.766,20.0
0.0,0.0,0.0,0.0
90.362,-8.767,1.924,48.0
90.358,-8.738,1.423,29.0
90.315,-8.706,0.931,58.0
90.377,-8.686,0.439,43.0
147.88,-14.215,4.848,14.0
127.481,-12.213,3.484,18.0
90.367,-8.629,1.977,46.0
90.371,-8.601,1.475,43.0
0.0,0.0,0.0,0.0
90.389,-8.548,0.491,96.0
148.26,-14.022,4.944,18.0
113.972,-10.742,3.178,7.0
90.384,-8.491,2.027,36.0
90.383,-8.462,1.525,41.0
90.388,-8.435,1.033,33.0
90.391,-8.407,0.54,25.0
108.145,-10.059,3.663,17.0
108.072,-10.016,3.07,7.0
90.371,-8.347,2.074,34.0
90.387,-8.32,1.571,38.0
90.373,-8.289,1.078,42.0
90.414,-8.266,0.585,24.0
108.129,-9.885,3.717,29.0
108.024,-9.84,3.122,14.0
90.381,-8.203,2.119,23.0
90.374,-8.172,1.616,38.0
90.384,-8.144,1.122,37.0
90.402,-8.116,0.629,34.0
108.075,-9.704,3.766,26.0
116.887,-10.455,3.434,7.0
90.363,-8.053,2.159,30.0
90.392,-8.025,1.657,35.0
90.383,-7.995,1.162,106.0
90.422,-7.969,0.668,35.0
108.304,-9.544,3.821,32.0
114.466,-10.047,3.411,11.0
127.526,-11.152,3.102,17.0
90.372,-7.872,1.694,31.0
90.396,-7.845,1.199,39.0
90.405,-7.816,0.706,32.0
108.227,-9.356,3.861,23.0
116.757,-10.053,3.525,11.0
127.516,-10.937,3.152,12.0
90.384,-7.721,1.729,30.0
90.415,-7.693,1.234,57.0
90.416,-7.663,0.739,42.0
108.644,-9.205,3.916,18.0
114.387,-9.653,3.496,12.0
127.489,-10.715,3.196,20.0
90.399,-7.565,1.761,52.0
90.409,-7.536,1.266,36.0
90.419,-7.507,0.77,150.0
109.923,-9.124,3.999,23.0
148.336,-12.261,4.581,8.0
127.501,-10.495,3.237,26.0
116.477,-9.547,2.305,36.0
100.097,-8.17,1.431,13.0
100.037,-8.131,0.882,15.0
109.057,-8.861,3.999,20.0
116.248,-9.405,3.623,9.0
127.515,-10.272,3.274,28.0
117.394,-9.415,2.356,12.0
100.055,-7.99,1.458,11.0
100.079,-7.959,0.909,14.0
108.535,-8.627,4.008,23.0
115.889,-9.171,3.641,16.0
127.483,-10.045,3.304,28.0
119.318,-9.36,2.423,14.0
100.062,-7.814,1.481,11.0
100.077,-7.781,0.932,18.0
108.102,-8.4,4.016,25.0
108.317,-8.378,3.427,10.0
127.496,-9.815,3.331,44.0
127.45,-9.768,2.615,12.0
100.122,-7.639,1.502,10.0
100.093,-7.601,0.95,14.0
107.705,-8.175,4.021,27.0
108.6,-8.203,3.455,11.0
130.228,-9.788,3.425,2.0
124.153,-9.287,2.568,6.0
100.129,-7.455,1.519,8.0
100.09,-7.418,0.966,13.0
107.746,-7.979,4.039,28.0
108.929,-8.026,3.481,35.0
133.282,-9.772,3.524,17.0
109.424,-7.984,2.278,19.0
100.07,-7.267,1.531,7.0
100.072,-7.233,0.978,11.0
107.509,-7.763,4.042,28.0
108.922,-7.824,3.492,24.0
109.106,-7.799,2.895,47.0
109.279,-7.772,2.285,48.0
100.049,-7.079,1.539,7.0
100.065,-7.046,0.986,9.0
107.967,-7.595,4.067,17.0
109.321,-7.649,3.513,24.0
109.12,-7.595,2.902,45.0
109.387,-7.575,2.293,11.0
100.082,-6.895,1.544,5.0
100.032,-6.855,0.99,4.0
108.05,-7.396,4.073,22.0
109.397,-7.449,3.518,21.0
117.571,-7.962,3.13,11.0
117.404,-7.909,2.462,25.0
0.0,0.0,0.0,0.0
0.0,0.0,0.0,0.0
109.053,-7.259,4.111,21.0
108.953,-7.213,3.503,30.0
117.09,-7.71,3.115,16.0
117.301,-7.68,2.458,43.0
117.522,-7.654,1.812,20.0
125.221,-8.11,1.236,39.0
108.847,-7.039,4.099,23.0
110.154,-7.083,3.537,15.0
117.105,-7.486,3.109,26.0
125.239,-7.963,2.617,8.0
147.935,-9.353,2.271,19.0
147.982,-9.302,1.451,12.0
108.917,-6.835,4.093,23.0
109.967,-6.859,3.52,10.0
117.248,-7.271,3.103,38.0
148.46,-9.151,3.088,20.0
148.735,-9.115,2.267,20.0
149.935,-9.137,1.454,15.0
109.24,-6.644,4.092,28.0
117.529,-7.105,3.748,18.0
117.32,-7.048,3.088,15.0
148.831,-8.887,3.076,23.0
149.147,-8.853,2.252,21.0
149.972,-8.848,1.431,15.0
109.195,-6.429,4.073,32.0
117.158,-6.855,3.717,43.0
148.241,-8.622,3.878,13.0
149.242,-8.625,3.058,15.0
140.749,-8.084,2.1,29.0
140.737,-8.033,1.318,12.0
109.138,-6.215,4.05,21.0
117.114,-6.626,3.692,30.0
163.38,-9.184,4.241,12.0
140.663,-7.855,2.852,24.0
0.0,0.0,0.0,0.0
101.449,-5.592,0.926,11.0
109.176,-6.003,4.025,22.0
117.2,-6.401,3.666,20.0
140.661,-7.63,3.615,29.0
0.0,0.0,0.0,0.0
101.513,-5.433,1.466,18.0
0.0,0.0,0.0,0.0
109.686,-5.815,4.013,24.0
117.899,-6.207,3.655,10.0
140.59,-7.351,3.573,19.0
0.0,0.0,0.0,0.0
0.0,0.0,0.0,0.0
101.518,-5.199,0.869,25.0
110.0,-5.615,3.99,21.0
125.769,-6.375,3.859,9.0
139.389,-7.014,3.497,12.0
0.0,0.0,0.0,0.0
0.0,0.0,0.0,0.0
101.536,-5.002,0.835,150.0
117.607,-5.775,4.226,19.0
141.014,-6.872,4.277,14.0
139.405,-6.742,3.447,7.0
0.0,0.0,0.0,0.0
0.0,0.0,0.0,0.0
101.525,-4.801,0.796,68.0
116.811,-5.504,4.15,24.0
140.891,-6.588,4.217,13.0
163.361,-7.579,3.974,9.0
0.0,0.0,0.0,0.0
101.427,-4.632,1.32,4.0
0.0,0.0,0.0,0.0
119.287,-5.384,4.187,6.0
118.864,-5.321,3.505,11.0
142.516,-6.329,3.402,18.0
0.0,0.0,0.0,0.0
101.552,-4.437,1.276,23.0
101.645,-4.404,0.707,1.0
117.384,-5.064,4.064,7.0
118.859,-5.086,3.448,7.0
142.641,-6.052,3.337,4.0
0.0,0.0,0.0,0.0
101.662,-4.241,1.227,5.0
101.487,-4.197,0.655,150.0
124.877,-5.141,4.26,12.0
142.051,-5.798,4.048,11.0
163.202,-6.602,3.733,4.0
162.304,-6.508,2.784,4.0
0.0,0.0,0.0,0.0
0.0,0.0,0.0,0.0
116.837,-4.581,3.922,17.0
142.331,-5.53,3.977,12.0
0.0,0.0,0.0,0.0
104.971,-4.002,1.741,4.0
162.145,-6.127,1.779,7.0
160.759,-6.018,0.86,5.0
138.372,-5.149,4.563,25.0
141.65,-5.22,3.873,9.0
0.0,0.0,0.0,0.0
162.239,-5.867,2.594,16.0
162.103,-5.807,1.68,21.0
160.595,-5.696,0.761,4.0
138.385,-4.878,4.477,11.0
163.384,-5.702,4.366,17.0
162.402,-5.611,3.424,6.0
162.234,-5.548,2.49,21.0
161.984,-5.482,1.573,20.0
0.0,0.0,0.0,0.0
140.337,-4.67,4.447,6.0
163.349,-5.377,4.254,17.0
162.257,-5.286,3.312,12.0
162.102,-5.224,2.378,14.0
162.127,-5.167,1.463,6.0
0.0,0.0,0.0,0.0
139.933,-4.379,4.335,21.0
163.382,-5.058,4.14,9.0
167.965,-5.14,3.307,5.0
161.876,-4.897,2.257,23.0
0.0,0.0,0.0,0.0
0.0,0.0,0.0,0.0
140.556,-4.122,4.25,18.0
0.0,0.0,0.0,0.0
178.193,-5.104,3.374,7.0
161.839,-4.58,2.134,25.0
160.696,-4.494,1.211,6.0
0.0,0.0,0.0,0.0
163.307,-4.471,4.811,39.0
0.0,0.0,0.0,0.0
170.453,-4.549,3.092,5.0
161.94,-4.267,2.007,4.0
0.0,0.0,0.0,0.0
0.0,0.0,0.0,0.0
163.29,-4.152,4.676,19.0
0.0,0.0,0.0,0.0
170.304,-4.214,2.949,5.0
95.526,-2.331,1.103,8.0
95.451,-2.298,0.563,1.0
0.0,0.0,0.0,0.0
163.234,-3.834,4.535,25.0
0.0,0.0,0.0,0.0
0.0,0.0,0.0,0.0
95.413,-2.145,1.019,150.0
95.485,-2.115,0.479,1.0
0.0,0.0,0.0,0.0
163.283,-3.521,4.391,16.0
170.382,-3.617,3.616,5.0
0.0,0.0,0.0,0.0
95.414,-1.962,0.933,83.0
0.0,0.0,0.0,0.0
0.0,0.0,0.0,0.0
163.401,-3.212,4.244,15.0
170.404,-3.292,3.458,5.0
95.46,-1.814,1.396,9.0
95.417,-1.782,0.844,160.0
0.0,0.0,0.0,0.0
0.0,0.0,0.0,0.0
163.388,-2.9,4.086,3.0
0.0,0.0,0.0,0.0
95.427,-1.631,1.302,54.0
95.374,-1.599,0.75,150.0
0.0,0.0,0.0,0.0
0.0,0.0,0.0,0.0
171.621,-2.722,4.12,5.0
0.0,0.0,0.0,0.0
19.755,-0.3,0.249,2.0
19.748,-0.293,0.135,28.0
0.0,0.0,0.0,0.0
0.0,0.0,0.0,0.0
19.782,-0.276,0.454,0.0
19.759,-0.269,0.341,7.0
19.753,-0.263,0.229,18.0
19.738,-0.257,0.114,12.0
95.374,-1.213,0.011,1.0
0.0,0.0,0.0,0.0
19.762,-0.239,0.432,9.0
19.739,-0.233,0.32,9.0
95.447,-1.096,1.003,150.0
0.0,0.0,0.0,0.0
0.0,0.0,0.0,0.0
0.0,0.0,0.0,0.0
19.751,-0.202,0.41,8.0
19.768,-0.196,0.298,0.0
95.494,-0.922,0.898,4.0
0.0,0.0,0.0,0.0
19.796,-0.179,-0.041,1.0
19.75,-0.172,-0.153,13.0
177.266,-1.499,3.486,17.0
169.158,-1.377,2.361,4.0
0.0,0.0,0.0,0.0
19.772,-0.148,0.048,3.0
19.761,-0.142,-0.064,10.0
19.727,-0.136,-0.176,17.0
19.706,-0.13,0.364,2.0
19.714,-0.124,0.251,7.0
19.721,-0.118,0.139,11.0
19.719,-0.112,0.025,12.0
19.711,-0.106,-0.087,13.0
19.731,-0.1,-0.2,17.0
19.666,-0.094,0.339,10.0
19.68,-0.089,0.227,13.0
19.704,-0.083,0.115,14.0
19.7,-0.077,0.0,16.0
19.717,-0.071,-0.111,15.0
19.746,-0.066,-0.224,15.0
19.648,-0.06,0.315,11.0
19.658,-0.054,0.203,14.0
19.691,-0.049,0.091,16.0
19.702,-0.043,-0.023,16.0
19.748,-0.037,-0.136,13.0
19.743,-0.031,-0.248,0.0
19.632,-0.025,0.29,13.0
19.678,-0.02,0.178,8.0
19.732,-0.014,0.066,5.0
19.753,-0.009,-0.048,8.0
19.901,-0.003,-0.162,0.0
19.777,0.001,-0.274,0.0
19.636,0.007,0.265,15.0
19.762,0.012,0.153,9.0
19.749,0.018,0.04,15.0
19.731,0.024,-0.073,16.0
19.756,0.029,-0.186,13.0
19.761,0.035,-0.3,16.0
19.632,0.04,0.239,16.0
19.721,0.046,0.127,16.0
19.75,0.051,0.014,47.0
19.76,0.057,-0.1,61.0
19.777,0.062,-0.213,30.0
19.766,0.068,-0.326,16.0
19.637,0.073,0.212,14.0
19.681,0.078,0.1,13.0
19.716,0.084,-0.011,7.0
19.678,0.089,-0.126,0.0
0.0,0.0,0.0,0.0
0.0,0.0,0.0,0.0
19.665,0.105,0.186,16.0
19.642,0.111,0.073,12.0
19.649,0.116,-0.039,10.0
19.68,0.121,-0.154,6.0
0.0,0.0,0.0,0.0
30.404,0.204,-0.586,0.0
19.663,0.137,0.158,16.0
19.639,0.142,0.045,16.0
19.641,0.148,-0.067,10.0
19.641,0.153,-0.181,13.0
19.678,0.158,-0.294,7.0
19.68,0.164,-0.407,14.0
19.667,0.169,0.13,12.0
19.644,0.174,0.017,13.0
19.626,0.178,-0.094,15.0
19.635,0.184,-0.209,15.0
19.653,0.189,-0.322,15.0
19.672,0.194,-0.435,22.0
19.72,0.2,0.101,10.0
19.651,0.204,-0.011,11.0
19.63,0.209,-0.123,16.0
19.63,0.214,-0.238,17.0
19.646,0.219,-0.351,16.0
19.671,0.225,-0.464,21.0
19.723,0.23,0.072,0.0
19.665,0.235,-0.04,5.0
19.648,0.239,-0.153,15.0
19.634,0.244,-0.267,17.0
19.659,0.249,-0.381,15.0
19.685,0.255,-0.494,15.0
0.0,0.0,0.0,0.0
19.699,0.265,-0.07,7.0
19.661,0.27,-0.183,12.0
19.658,0.274,-0.298,12.0
19.687,0.28,-0.411,6.0
25.377,0.367,-0.677,0.0
55.176,0.813,0.034,2.0
44.88,0.671,-0.229,2.0
19.696,0.299,-0.214,0.0
19.676,0.304,-0.328,0.0
27.707,0.434,-0.622,0.0
24.336,0.387,-0.687,0.0
55.15,0.892,-0.051,9.0
40.655,0.667,-0.271,0.0
33.959,0.565,-0.421,0.0
0.0,0.0,0.0,0.0
27.233,0.466,-0.654,1.0
23.295,0.404,-0.694,1.0
13.916,0.611,-0.819,0.0
12.806,0.563,-0.828,0.0
12.023,0.529,-0.847,0.0
11.288,0.497,-0.862,0.0
10.709,0.472,-0.88,0.0
10.162,0.449,-0.895,0.0
13.568,0.598,-0.822,0.0
12.603,0.556,-0.837,0.0
11.829,0.522,-0.854,0.0
11.06,0.489,-0.864,0.0
10.504,0.465,-0.882,0.0
9.973,0.442,-0.896,0.0
13.229,0.584,-0.825,0.0
12.338,0.546,-0.841,0.0
11.683,0.517,-0.864,0.0
10.897,0.483,-0.87,0.0
10.361,0.46,-0.888,0.0
9.816,0.436,-0.898,0.0
12.847,0.569,-0.823,0.0
12.163,0.539,-0.85,0.0
11.447,0.508,-0.866,0.0
10.755,0.477,-0.877,0.0
10.202,0.453,-0.892,0.0
9.66,0.43,-0.901,0.0
12.627,0.559,-0.83,0.0
11.934,0.529,-0.854,0.0
11.207,0.497,-0.867,0.0
10.578,0.47,-0.881,0.0
10.035,0.446,-0.894,0.0
9.524,0.424,-0.904,0.0
12.452,0.552,-0.84,0.0
11.733,0.52,-0.859,0.0
11.03,0.489,-0.872,0.0
10.402,0.462,-0.884,0.0
9.901,0.44,-0.899,0.0
9.364,0.416,-0.905,0.0
12.262,0.543,-0.847,0.0
11.523,0.511,-0.863,0.0
10.856,0.481,-0.876,0.0
10.262,0.455,-0.889,0.0
9.746,0.433,-0.901,0.0
9.25,0.411,-0.91,0.0
11.979,0.53,-0.848,0.0
11.279,0.499,-0.864,0.0
10.653,0.471,-0.878,0.0
10.122,0.448,-0.894,0.0
9.572,0.424,-0.901,0.0
9.072,0.402,-0.907,0.0
11.787,0.52,-0.854,0.0
11.066,0.488,-0.866,0.0
10.443,0.461,-0.878,0.0
9.927,0.438,-0.893,0.0
9.453,0.418,-0.905,0.0
8.946,0.395,-0.909,0.0
11.657,0.512,-0.863,0.0
10.889,0.479,-0.869,0.0
10.363,0.456,-0.888,0.0
9.827,0.432,-0.9,0.0
9.369,0.412,-0.913,0.0
8.847,0.389,-0.914,0.0
11.377,0.498,-0.861,0.0
10.752,0.471,-0.876,0.0
10.204,0.447,-0.89,0.0
9.653,0.423,-0.9,0.0
9.152,0.401,-0.906,0.0
8.709,0.381,-0.913,0.0
11.188,0.487,-0.864,0.0
10.598,0.462,-0.88,0.0
10.039,0.437,-0.892,0.0
9.527,0.415,-0.903,0.0
9.063,0.395,-0.912,0.0
8.607,0.375,-0.916,0.0
11.006,0.476,-0.867,0.0
10.439,0.452,-0.883,0.0
9.933,0.43,-0.898,0.0
9.391,0.406,-0.905,0.0
8.942,0.387,-0.913,0.0
8.474,0.367,-0.915,0.0
10.883,0.468,-0.874,0.0
10.337,0.444,-0.89,0.0
9.796,0.421,-0.901,0.0
9.272,0.398,-0.907,0.0
8.8,0.378,-0.912,0.0
8.376,0.36,-0.917,0.0
10.726,0.458,-0.878,0.0
10.164,0.434,-0.891,0.0
9.634,0.411,-0.9,0.0
9.11,0.388,-0.905,0.0
8.694,0.37,-0.914,0.0
8.277,0.353,-0.919,0.0
10.55,0.446,-0.879,0.0
10.005,0.423,-0.891,0.0
9.521,0.402,-0.904,0.0
9.044,0.382,-0.912,0.0
8.609,0.363,-0.918,0.0
8.151,0.344,-0.917,0.0
12.15,-0.332,-0.879,0.0
11.513,-0.316,-0.893,0.0
10.897,-0.3,-0.903,0.0
10.339,-0.285,-0.912,0.0
9.821,-0.272,-0.918,0.0
9.374,-0.26,-0.926,0.0
12.4,-0.342,-0.876,0.0
11.686,-0.324,-0.887,0.0
11.09,-0.308,-0.9,0.0
10.515,-0.293,-0.909,0.0
10.014,-0.28,-0.919,0.0
9.535,-0.267,-0.925,0.0
17.808,-0.496,-1.227,0.0
11.898,-0.332,-0.882,0.0
11.278,-0.316,-0.895,0.0
10.725,-0.301,-0.909,0.0
10.181,-0.287,-0.916,0.0
9.689,-0.273,-0.923,0.0
17.78,-0.499,-1.194,0.0
12.171,-0.342,-0.881,0.0
11.493,-0.324,-0.892,0.0
10.916,-0.309,-0.906,0.0
10.343,-0.293,-0.913,0.0
9.837,-0.279,-0.92,0.0
17.791,-0.503,-1.163,1.0
12.425,-0.352,-0.877,0.0
11.751,-0.333,-0.891,0.0
11.108,-0.316,-0.902,0.0
10.54,-0.3,-0.911,0.0
10.019,-0.286,-0.919,0.0
17.793,-0.505,-1.132,1.0
17.783,-0.506,-1.225,0.0
11.897,-0.339,-0.881,0.0
11.308,-0.323,-0.898,0.0
10.788,-0.308,-0.913,0.0
10.184,-0.292,-0.916,0.0
17.805,-0.507,-1.101,0.0
17.792,-0.508,-1.193,1.0
12.16,-0.347,-0.879,0.0
11.515,-0.33,-0.894,0.0
10.92,-0.313,-0.905,0.0
10.372,-0.298,-0.914,0.0
14.25,-0.407,-0.855,0.0
17.783,-0.508,-1.16,1.0
12.451,-0.356,-0.877,0.0
11.768,-0.337,-0.892,0.0
11.141,-0.32,-0.903,0.0
10.559,-0.303,-0.911,0.0
14.573,-0.416,-0.848,0.0
17.811,-0.51,-1.13,1.0
17.808,-0.51,-1.222,0.0
11.982,-0.343,-0.886,0.0
11.335,-0.325,-0.897,0.0
10.821,-0.311,-0.913,0.0
14.985,-0.428,-0.845,0.0
17.801,-0.509,-1.096,0.0
17.78,-0.509,-1.188,1.0
12.298,-0.352,-0.887,0.0
11.638,-0.333,-0.9,0.0
10.983,-0.315,-0.907,0.0
17.808,-0.508,-0.971,0.0
14.369,-0.41,-0.858,0.0
17.786,-0.508,-1.155,1.0
12.431,-0.355,-0.873,0.0
11.792,-0.337,-0.889,0.0
11.189,-0.32,-0.902,0.0
17.8,-0.506,-0.937,1.0
14.688,-0.417,-0.849,0.0
17.778,-0.505,-1.12,1.0
17.78,-0.506,-1.215,0.0
12.033,-0.342,-0.885,0.0
11.42,-0.325,-0.899,0.0
0.0,0.0,0.0,0.0
17.855,-0.505,-0.999,0.0
14.008,-0.396,-0.856,0.0
17.783,-0.503,-1.182,1.0
12.318,-0.348,-0.882,0.0
11.65,-0.329,-0.895,0.0
17.72,-0.498,-0.866,2.0
17.802,-0.5,-0.962,0.0
14.45,-0.406,-0.856,0.0
17.777,-0.499,-1.147,0.0
17.777,-0.499,-1.24,0.0
11.894,-0.334,-0.891,0.0
17.707,-0.494,-0.831,1.0
0.0,0.0,0.0,0.0
14.838,-0.413,-0.85,0.0
13.831,-0.385,-0.866,0.0
17.782,-0.495,-1.206,0.0
12.168,-0.338,-0.888,0.0
17.787,-0.492,-0.801,3.0
17.71,-0.489,-0.889,2.0
17.811,-0.492,-0.987,0.0
14.136,-0.39,-0.858,0.0
17.786,-0.49,-1.172,0.0
12.352,-0.34,-0.878,0.0
17.782,-0.486,-0.766,10.0
17.61,-0.481,-0.85,0.0
17.784,-0.486,-0.951,0.0
14.533,-0.396,-0.854,0.0
17.794,-0.485,-1.138,0.0
12.635,-0.344,-0.874,0.0
17.788,-0.481,-0.733,13.0
17.696,-0.478,-0.82,1.0
17.73,-0.478,-0.914,2.0
14.946,-0.402,-0.85,0.0
13.897,-0.373,-0.862,0.0
17.778,-0.477,-1.195,0.0
17.809,-0.475,-0.699,150.0
17.78,-0.473,-0.79,5.0
17.57,-0.467,-0.872,0.0
15.415,-0.409,-0.846,0.0
14.324,-0.379,-0.861,0.0
13.379,-0.354,-0.873,0.0
17.812,-0.468,-0.665,151.0
17.796,-0.466,-0.756,8.0
17.509,-0.458,-0.835,0.0
17.805,-0.465,-0.943,0.0
14.705,-0.383,-0.855,0.0
13.691,-0.356,-0.867,0.0
17.812,-0.46,-0.631,8.0
17.809,-0.459,-0.722,3.0
17.774,-0.456,-0.813,2.0
17.708,-0.454,-0.903,0.0
15.144,-0.387,-0.851,0.0
14.133,-0.36,-0.867,0.0
21.881,-0.554,-0.732,0.0
17.813,-0.45,-0.688,3.0
17.829,-0.449,-0.78,2.0
17.031,-0.428,-0.835,0.0
15.56,-0.39,-0.844,0.0
14.451,-0.361,-0.859,0.0
23.013,-0.571,-0.725,0.0
20.722,-0.512,-0.76,0.0
0.0,0.0,0.0,0.0
17.622,-0.433,-0.83,0.0
15.96,-0.391,-0.835,0.0
14.895,-0.363,-0.856,0.0
21.788,-0.528,-0.644,0.0
21.645,-0.523,-0.752,3.0
19.829,-0.477,-0.791,0.0
17.852,-0.428,-0.806,0.0
16.613,-0.397,-0.836,0.0
15.358,-0.365,-0.853,0.0
21.735,-0.513,-0.6,13.0
21.721,-0.511,-0.712,4.0
20.378,-0.478,-0.773,0.0
18.666,-0.436,-0.807,0.0
17.172,-0.399,-0.831,0.0
15.731,-0.364,-0.843,0.0
21.748,-0.5,-0.559,94.0
21.72,-0.497,-0.67,7.0
21.415,-0.488,-0.771,1.0
19.433,-0.441,-0.802,0.0
17.758,-0.401,-0.825,1.0
16.251,-0.365,-0.839,0.0
21.752,-0.485,-0.516,3.0
21.711,-0.482,-0.627,153.0
21.686,-0.479,-0.739,5.0
19.995,-0.439,-0.786,1.0
21.759,-0.475,-0.968,0.0
16.702,-0.363,-0.83,0.0
21.741,-0.469,-0.474,2.0
21.665,-0.465,-0.584,161.0
21.714,-0.463,-0.697,11.0
20.619,-0.437,-0.771,0.0
21.763,-0.459,-0.927,0.0
17.368,-0.364,-0.829,0.0
30.187,-0.628,-0.6,0.0
21.722,-0.449,-0.544,153.0
21.717,-0.446,-0.656,152.0
21.592,-0.441,-0.766,3.0
19.64,-0.399,-0.799,0.0
21.727,-0.439,-0.996,0.0
31.838,-0.637,-0.572,0.0
21.764,-0.433,-0.503,2.0
21.712,-0.429,-0.614,154.0
21.697,-0.426,-0.729,4.0
20.201,-0.394,-0.783,1.0
18.492,-0.358,-0.812,0.0
33.447,-0.641,-0.537,0.0
29.43,-0.56,-0.624,0.0
21.737,-0.411,-0.573,23.0
21.729,-0.407,-0.688,3.0
20.856,-0.388,-0.768,0.0
19.123,-0.353,-0.803,0.0
37.775,-0.691,-0.535,0.0
30.97,-0.562,-0.598,0.0
27.309,-0.492,-0.668,0.0
24.271,-0.433,-0.722,0.0
21.645,-0.383,-0.756,3.0
19.797,-0.348,-0.794,0.0
38.816,-0.675,-0.476,0.0
32.785,-0.565,-0.571,0.0
28.849,-0.493,-0.652,0.0
25.277,-0.428,-0.704,0.0
22.19,-0.372,-0.734,1.0
20.394,-0.339,-0.78,0.0
41.039,-0.674,-0.425,0.0
0.0,0.0,0.0,0.0
29.65,-0.478,-0.615,0.0
26.201,-0.418,-0.681,0.0
23.133,-0.365,-0.721,0.0
20.913,-0.327,-0.761,1.0
0.0,0.0,0.0,0.0
36.74,-0.562,-0.503,0.0
30.637,-0.463,-0.578,0.0
0.0,0.0,0.0,0.0
24.417,-0.361,-0.716,0.0
21.832,-0.319,-0.754,0.0
0.0,0.0,0.0,0.0
39.976,-0.57,-0.473,0.0
32.92,-0.464,-0.56,0.0
28.927,-0.403,-0.645,0.0
25.475,-0.35,-0.7,0.0
22.571,-0.306,-0.738,0.0
0.0,0.0,0.0,0.0
42.096,-0.556,-0.421,0.0
35.392,-0.461,-0.538,0.0
30.023,-0.386,-0.615,0.0
26.346,-0.334,-0.676,0.0
23.49,-0.293,-0.725,0.0
0.0,0.0,0.0,0.0
0.0,0.0,0.0,0.0
0.0,0.0,0.0,0.0
0.0,0.0,0.0,0.0
27.687,-0.32,-0.661,0.0
24.715,-0.281,-0.718,0.0
95.449,-1.066,-0.113,1.0
0.0,0.0,0.0,0.0
0.0,0.0,0.0,0.0
0.0,0.0,0.0,0.0
29.271,-0.305,-0.646,0.0
25.595,-0.261,-0.697,0.0
0.0,0.0,0.0,0.0
0.0,0.0,0.0,0.0
19.773,-0.19,-0.193,3.0
19.768,-0.186,-0.298,7.0
19.747,-0.182,-0.4,12.0
19.746,-0.178,-0.503,11.0
0.0,0.0,0.0,0.0
19.804,-0.17,-0.056,2.0
19.757,-0.166,-0.158,11.0
19.742,-0.162,-0.263,13.0
19.74,-0.158,-0.365,16.0
19.748,-0.154,-0.468,19.0
0.0,0.0,0.0,0.0
19.779,-0.146,-0.021,4.0
19.735,-0.141,-0.123,13.0
19.711,-0.137,-0.228,16.0
19.743,-0.133,-0.331,16.0
19.743,-0.129,-0.434,17.0
19.772,-0.125,0.116,4.0
19.733,-0.121,0.013,9.0
19.718,-0.116,-0.089,11.0
19.711,-0.112,-0.194,16.0
19.748,-0.108,-0.297,15.0
19.753,-0.104,-0.4,16.0
19.727,-0.099,0.149,15.0
19.715,-0.095,0.046,14.0
19.712,-0.091,-0.055,12.0
19.713,-0.086,-0.16,17.0
19.739,-0.082,-0.263,15.0
19.758,-0.078,-0.367,12.0
19.704,-0.073,0.182,16.0
19.698,-0.069,0.08,15.0
19.698,-0.065,-0.022,16.0
19.706,-0.06,-0.127,15.0
19.745,-0.056,-0.23,15.0
19.752,-0.051,-0.333,4.0
19.662,-0.047,0.215,15.0
19.693,-0.042,0.113,17.0
19.7,-0.038,0.01,16.0
19.727,-0.033,-0.094,10.0
19.75,-0.029,-0.198,8.0
35.276,-0.043,-0.538,0.0
19.639,-0.019,0.247,13.0
19.729,-0.015,0.146,3.0
19.717,-0.01,0.042,9.0
19.731,-0.005,-0.062,9.0
19.77,-0.001,-0.165,0.0
19.895,0.003,-0.271,0.0
19.619,0.008,0.279,14.0
19.664,0.012,0.177,9.0
19.765,0.017,0.075,7.0
19.736,0.022,-0.03,29.0
19.756,0.026,-0.133,13.0
19.757,0.031,-0.237,15.0
19.622,0.036,0.311,15.0
19.632,0.041,0.208,15.0
19.744,0.046,0.106,14.0
19.755,0.051,0.001,61.0
19.765,0.056,-0.102,36.0
19.764,0.061,-0.205,47.0
19.614,0.065,0.342,17.0
19.617,0.07,0.239,15.0
19.676,0.075,0.137,12.0
19.742,0.08,0.032,23.0
19.746,0.085,-0.071,8.0
19.763,0.09,-0.175,1.0
19.614,0.094,0.372,27.0
19.614,0.099,0.269,16.0
19.655,0.104,0.167,14.0
19.644,0.109,0.062,13.0
19.652,0.114,-0.041,10.0
19.681,0.119,-0.144,5.0
19.612,0.124,0.402,15.0
19.608,0.129,0.299,11.0
19.664,0.134,0.196,17.0
19.63,0.139,0.091,14.0
19.632,0.144,-0.012,17.0
19.643,0.149,-0.115,13.0
19.619,0.154,0.431,11.0
19.629,0.159,0.328,10.0
19.642,0.164,0.225,13.0
19.652,0.169,0.12,11.0
19.639,0.174,0.016,15.0
19.642,0.18,-0.086,15.0
19.663,0.185,0.461,10.0
19.676,0.19,0.358,10.0
19.715,0.196,0.255,8.0
19.702,0.201,0.149,11.0
19.665,0.206,0.045,12.0
19.659,0.211,-0.058,9.0
19.706,0.217,0.491,10.0
19.718,0.222,0.387,11.0
19.73,0.228,0.283,10.0
19.758,0.233,0.177,27.0
19.765,0.238,0.073,2.0
19.698,0.243,-0.03,2.0
19.67,0.248,0.517,14.0
19.681,0.254,0.414,10.0
19.7,0.259,0.31,12.0
19.752,0.265,0.204,23.0
19.782,0.271,0.1,2.0
0.0,0.0,0.0,0.0
19.67,0.28,0.544,15.0
19.694,0.286,0.441,10.0
19.71,0.291,0.337,10.0
19.731,0.297,0.231,1.0
114.385,1.757,0.736,2.0
55.209,0.863,0.063,0.0
19.675,0.313,0.571,6.0
19.715,0.319,0.468,2.0
55.194,0.909,1.018,33.0
55.173,0.924,0.72,50.0
55.175,0.939,0.427,66.0
55.173,0.954,0.135,133.0
55.192,0.972,1.675,73.0
55.175,0.987,1.382,72.0
55.162,1.001,1.089,62.0
55.178,1.017,0.791,50.0
55.189,1.032,0.498,44.0
55.196,1.048,0.205,21.0
135.371,2.614,4.283,16.0
163.32,3.198,4.299,6.0
179.292,3.56,3.767,29.0
163.726,3.297,2.554,12.0
162.711,3.322,1.674,23.0
113.029,2.34,0.563,6.0
135.26,2.845,4.449,15.0
134.679,2.869,3.712,15.0
179.247,3.867,3.987,13.0
179.213,3.918,3.016,7.0
128.687,2.849,1.481,21.0
113.208,2.538,0.7,12.0
114.192,2.599,3.894,19.0
98.588,2.271,2.836,80.0
98.922,2.307,2.319,94.0
98.823,2.332,1.781,15.0
70.987,1.696,0.901,9.0
70.695,1.708,0.52,22.0
113.892,2.791,4.018,21.0
115.301,2.858,3.453,6.0
138.783,3.478,3.414,20.0
45.492,1.153,0.872,1.0
0.0,0.0,0.0,0.0
0.0,0.0,0.0,0.0
43.715,1.148,1.592,143.0
0.0,0.0,0.0,0.0
0.0,0.0,0.0,0.0
0.0,0.0,0.0,0.0
41.923,1.148,0.626,154.0
0.0,0.0,0.0,0.0
40.109,1.125,1.505,85.0
40.129,1.137,1.291,115.0
40.115,1.148,1.076,150.0
40.117,1.16,0.858,150.0
40.12,1.171,0.643,150.0
40.122,1.183,0.429,130.0
40.109,1.197,1.548,150.0
40.122,1.209,1.334,150.0
40.108,1.22,1.119,150.0
40.117,1.232,0.9,150.0
40.118,1.243,0.685,150.0
40.12,1.255,0.47,150.0
40.127,1.27,1.59,116.0
40.121,1.281,1.375,150.0
40.109,1.292,1.159,150.0
40.122,1.304,0.94,150.0
40.113,1.315,0.725,150.0
40.11,1.326,0.51,40.0
120.253,4.023,4.886,16.0
120.398,4.061,4.245,19.0
121.084,4.12,3.619,17.0
163.183,5.6,3.984,6.0
162.363,5.619,3.091,4.0
161.99,5.654,2.215,22.0
120.111,4.239,4.997,11.0
120.428,4.284,4.361,20.0
121.116,4.343,3.734,8.0
44.603,1.612,1.13,86.0
44.191,1.609,0.882,74.0
43.643,1.602,0.636,75.0
120.217,4.462,5.112,21.0
120.428,4.503,4.47,7.0
162.657,6.13,5.162,12.0
41.779,1.586,1.096,87.0
41.324,1.581,0.862,79.0
41.446,1.597,0.641,150.0
179.424,6.99,7.788,13.0
178.623,7.011,6.789,10.0
162.557,6.425,5.299,8.0
40.371,1.607,1.094,120.0
40.374,1.619,0.876,52.0
40.369,1.63,0.658,5.0
179.739,7.336,7.953,19.0
178.687,7.345,6.941,16.0
162.581,6.73,5.436,4.0
45.189,1.883,1.262,14.0
23.622,0.991,0.532,1.0
45.197,1.909,0.774,5.0
23.614,1.007,1.064,37.0
23.608,1.013,0.935,42.0
23.606,1.02,0.807,44.0
23.604,1.027,0.677,46.0
23.592,1.033,0.549,53.0
23.593,1.04,0.422,63.0
23.58,1.049,1.08,70.0
23.576,1.056,0.952,72.0
23.572,1.062,0.824,68.0
23.582,1.069,0.694,74.0
23.585,1.076,0.566,74.0
23.583,1.083,0.438,68.0
23.574,1.093,1.097,74.0
23.585,1.1,0.969,54.0
23.582,1.106,0.841,46.0
23.6,1.114,0.711,40.0
23.612,1.121,0.583,38.0
23.617,1.128,0.455,42.0
23.592,1.137,1.114,17.0
23.607,1.144,0.986,4.0
23.587,1.15,0.857,1.0
163.259,8.009,5.029,7.0
163.439,8.063,4.146,6.0
45.221,2.243,0.901,0.0
0.0,0.0,0.0,0.0
179.533,9.04,7.617,15.0
180.511,9.14,6.675,8.0
162.859,8.29,5.118,16.0
45.154,2.311,1.173,0.0
207.585,10.688,4.265,5.0
0.0,0.0,0.0,0.0
214.275,11.191,9.219,7.0
180.383,9.47,6.777,19.0
162.688,8.587,5.209,12.0
45.199,2.399,1.2,78.0
45.207,2.412,0.954,50.0
0.0,0.0,0.0,0.0
204.542,11.067,8.917,6.0
180.758,9.83,6.891,18.0
162.523,8.884,5.292,6.0
45.195,2.483,1.225,9.0
45.249,2.498,0.979,0.0
0.0,0.0,0.0,0.0
0.0,0.0,0.0,0.0
198.919,11.188,7.685,17.0
162.638,9.191,5.378,14.0
45.199,2.566,1.247,10.0
0.0,0.0,0.0,0.0
203.075,11.688,10.169,6.0
203.835,11.786,9.09,7.0
0.0,0.0,0.0,0.0
162.561,9.488,5.451,7.0
45.201,2.65,1.268,16.0
45.212,2.664,1.021,150.0
206.055,12.245,10.41,7.0
203.838,12.169,9.179,8.0
0.0,0.0,0.0,0.0
197.746,11.912,6.716,9.0
45.191,2.734,1.286,7.0
133.419,8.109,3.068,25.0
204.347,12.522,10.407,6.0
198.683,12.229,9.026,11.0
197.753,12.223,7.898,12.0
0.0,0.0,0.0,0.0
45.185,2.817,1.303,6.0
112.433,7.04,2.627,15.0
204.038,12.878,10.466,7.0
0.0,0.0,0.0,0.0
100.704,6.41,4.057,6.0
100.357,6.415,3.481,10.0
99.998,6.419,2.919,23.0
45.197,2.914,1.07,39.0
99.937,6.494,5.159,31.0
99.962,6.522,4.61,37.0
99.968,6.548,4.059,39.0
99.956,6.574,3.497,34.0
99.98,6.602,2.948,35.0
44.623,2.958,1.07,83.0
99.959,6.68,5.189,35.0
99.977,6.707,4.638,34.0
99.967,6.732,4.086,38.0
99.966,6.758,3.525,37.0
99.989,6.785,2.974,30.0
43.303,2.95,1.049,81.0
99.956,6.864,5.214,33.0
99.94,6.887,4.66,32.0
99.965,6.913,4.109,34.0
99.966,6.939,3.547,36.0
41.982,2.925,1.257,20.0
41.989,2.936,1.026,113.0
99.961,7.045,5.235,35.0
99.966,7.07,4.682,24.0
45.459,3.226,1.877,3.0
45.453,3.237,1.621,8.0
45.474,3.251,1.37,28.0
40.892,2.933,1.006,113.0
45.471,3.287,2.388,150.0
45.46,3.297,2.136,150.0
45.469,3.308,1.884,150.0
45.474,3.32,1.628,150.0
45.488,3.333,1.377,100.0
45.475,3.343,1.125,90.0
43.669,3.234,2.299,85.0
43.682,3.245,2.058,120.0
43.686,3.256,1.815,150.0
43.676,3.266,1.568,150.0
43.682,3.277,1.327,150.0
43.698,3.29,1.085,124.0
43.682,3.313,2.304,134.0
43.671,3.323,2.061,135.0
43.67,3.333,1.818,150.0
43.686,3.345,1.572,114.0
0.0,0.0,0.0,0.0
41.898,3.229,1.042,5.0
41.886,3.251,2.211,121.0
41.878,3.26,1.977,88.0
41.898,3.271,1.745,150.0
41.887,3.281,1.508,129.0
41.905,3.292,1.276,117.0
41.897,3.302,1.043,115.0
41.889,3.324,2.212,108.0
41.861,3.332,1.977,72.0
0.0,0.0,0.0,0.0
0.0,0.0,0.0,0.0
40.102,3.221,1.22,8.0
40.083,3.229,0.996,67.0
40.091,3.252,2.115,132.0
40.09,3.261,1.891,131.0
40.08,3.269,1.668,150.0
40.088,3.279,1.441,148.0
40.102,3.29,1.217,142.0
40.1,3.299,0.994,150.0
40.095,3.322,2.113,116.0
40.084,3.329,1.888,136.0
40.083,3.338,1.664,150.0
40.102,3.349,1.437,139.0
40.093,3.358,1.214,150.0
40.096,3.367,0.99,118.0
40.096,3.39,2.108,107.0
40.094,3.398,1.884,97.0
40.078,3.406,1.659,68.0
40.069,3.414,1.431,26.0
40.095,3.425,1.208,6.0
75.433,6.463,1.852,8.0
87.086,7.51,4.567,86.0
87.07,7.526,4.079,60.0
87.086,7.547,3.592,48.0
87.085,7.565,3.097,31.0
74.167,6.459,2.222,5.0
74.048,6.466,1.805,9.0
87.187,7.663,4.557,1.0
82.931,7.306,3.869,2.0
83.065,7.336,3.409,1.0
82.919,7.341,2.931,1.0
72.867,6.468,2.168,8.0
72.739,6.473,1.757,8.0
82.913,7.424,4.314,13.0
82.95,7.444,3.851,14.0
82.919,7.458,3.385,24.0
82.929,7.477,2.912,16.0
71.603,6.471,2.112,10.0
71.513,6.478,1.71,10.0
82.917,7.558,4.293,37.0
82.924,7.575,3.827,18.0
82.931,7.593,3.362,12.0
82.952,7.611,2.89,2.0
70.386,6.473,2.057,10.0
70.309,6.481,1.66,10.0
82.91,7.689,4.268,33.0
82.985,7.713,3.805,4.0
82.899,7.72,3.335,1.0
69.254,6.464,2.39,5.0
69.185,6.471,1.999,7.0
69.088,6.476,1.609,10.0
82.97,7.824,4.244,5.0
82.889,7.833,3.773,4.0
85.319,8.079,3.403,10.0
68.099,6.462,2.326,6.0
68.061,6.472,1.943,10.0
67.985,6.478,1.559,8.0
83.43,7.996,4.236,6.0
83.167,7.986,3.755,7.0
83.804,8.063,3.312,7.0
67.089,6.468,2.266,5.0
66.997,6.472,1.886,6.0
66.958,6.482,1.509,6.0
82.719,8.052,4.167,1.0
75.126,7.327,3.361,1.0
75.078,7.336,2.935,0.0
66.107,6.471,2.206,9.0
66.072,6.48,1.833,10.0
66.01,6.487,1.459,10.0
75.106,7.422,3.751,8.0
75.114,7.435,3.327,10.0
74.991,7.436,2.899,2.0
65.186,6.476,2.146,4.0
65.104,6.481,1.776,7.0
65.038,6.486,1.408,7.0
75.058,7.526,3.713,104.0
75.06,7.539,3.29,118.0
74.836,7.53,2.857,1.0
64.265,6.478,2.084,8.0
64.195,6.482,1.72,9.0
64.151,6.49,1.357,10.0
75.088,7.637,3.677,8.0
75.092,7.649,3.252,6.0
63.486,6.478,2.391,2.0
63.389,6.479,2.023,10.0
63.373,6.489,1.665,14.0
63.344,6.498,1.306,10.0
70.986,7.319,3.438,2.0
70.932,7.325,3.034,1.0
62.633,6.478,2.325,10.0
62.581,6.483,1.962,7.0
62.551,6.491,1.608,8.0
62.507,6.498,1.254,8.0
70.91,7.408,3.394,7.0
70.918,7.42,2.992,8.0
61.783,6.475,2.257,10.0
61.76,6.482,1.901,12.0
61.779,6.494,1.551,12.0
61.763,6.503,1.202,12.0
70.9,7.502,3.352,93.0
70.893,7.512,2.948,150.0
61.055,6.479,2.193,5.0
61.019,6.485,1.84,6.0
60.992,6.492,1.494,6.0
60.953,6.498,1.148,7.0
70.863,7.59,3.305,16.0
70.909,7.605,2.904,11.0
60.298,6.476,2.128,1.0
60.294,6.484,1.78,4.0
60.277,6.492,1.438,4.0
60.191,6.493,1.095,3.0
70.956,7.689,3.263,3.0
71.007,7.704,2.861,1.0
59.692,6.485,2.067,5.0
59.68,6.493,1.722,7.0
59.645,6.498,1.382,5.0
59.558,6.498,1.043,5.0
73.801,8.089,3.343,10.0
59.106,6.485,2.341,1.0
59.025,6.486,2.002,6.0
58.988,6.49,1.66,8.0
58.988,6.499,1.325,9.0
58.957,6.504,0.99,9.0
72.989,8.087,3.253,9.0
58.424,6.481,2.271,2.0
58.438,6.491,1.94,7.0
58.4,6.495,1.601,8.0
58.381,6.501,1.269,9.0
58.362,6.508,0.936,7.0
72.076,8.07,3.159,5.0
57.835,6.483,2.205,5.0
57.862,6.494,1.877,7.0
57.85,6.5,1.542,8.0
57.874,6.511,1.213,7.0
57.807,6.511,0.884,6.0
71.175,8.05,3.063,3.0
57.297,6.487,2.14,12.0
57.295,6.494,1.814,11.0
57.302,6.502,1.482,11.0
57.316,6.511,1.156,10.0
57.281,6.516,0.83,8.0
70.604,8.062,2.983,7.0
56.736,6.485,2.073,2.0
56.748,6.493,1.75,8.0
56.754,6.501,1.422,8.0
56.786,6.512,1.099,11.0
56.774,6.518,0.776,11.0
56.254,6.482,2.33,1.0
56.245,6.487,2.009,12.0
56.274,6.497,1.69,11.0
56.278,6.504,1.363,12.0
56.298,6.513,1.043,12.0
56.278,6.518,0.723,12.0
55.785,6.484,2.264,4.0
55.79,6.49,1.946,15.0
55.8,6.498,1.628,12.0
55.828,6.507,1.305,14.0
55.828,6.514,0.987,12.0
55.814,6.519,0.668,13.0
55.322,6.484,2.197,8.0
55.343,6.492,1.882,8.0
55.345,6.498,1.565,11.0
55.369,6.507,1.245,14.0
55.355,6.511,0.93,14.0
55.364,6.519,0.614,13.0
54.895,6.485,2.131,11.0
54.944,6.496,1.819,10.0
54.889,6.495,1.504,9.0
54.921,6.504,1.186,13.0
54.911,6.509,0.873,15.0
54.927,6.517,0.56,12.0
54.54,6.491,2.067,13.0
54.526,6.494,1.756,13.0
54.547,6.502,1.445,13.0
54.518,6.504,1.127,14.0
54.538,6.512,0.816,13.0
54.527,6.517,0.505,11.0
54.116,6.487,2.0,11.0
54.132,6.493,1.692,12.0
54.161,6.501,1.384,12.0
54.164,6.506,1.069,12.0
54.167,6.512,0.759,12.0
54.168,6.518,0.451,10.0
53.791,6.491,1.937,11.0
53.805,6.497,1.63,13.0
53.835,6.505,1.323,13.0
53.867,6.513,1.011,12.0
53.858,6.517,0.704,14.0
53.809,6.517,0.396,9.0
53.461,6.492,1.874,7.0
53.489,6.499,1.569,12.0
53.509,6.506,1.263,14.0
53.505,6.51,0.952,12.0
53.515,6.516,0.646,13.0
53.509,6.52,0.34,13.0
53.159,6.494,1.81,12.0
53.211,6.504,1.507,12.0
53.205,6.507,1.202,13.0
53.207,6.511,0.893,13.0
53.227,6.518,0.589,13.0
53.185,6.517,0.285,5.0
52.891,6.497,1.747,12.0
52.917,6.503,1.446,13.0
52.928,6.508,1.143,14.0
52.939,6.513,0.835,13.0
