X,Y,Z,Reflectivity
36.713,-2.668,-0.517,0.0
31.185,-2.257,-0.608,0.0
27.435,-1.977,-0.681,0.0
24.188,-1.737,-0.73,0.0
0.0,0.0,0.0,0.0
46.858,-3.345,-0.362,0.0
37.342,-2.655,-0.488,0.0
0.0,0.0,0.0,0.0
28.134,-1.983,-0.67,0.0
24.63,-1.729,-0.718,0.0
0.0,0.0,0.0,0.0
0.0,0.0,0.0,0.0
38.71,-2.69,-0.467,0.0
0.0,0.0,0.0,0.0
28.346,-1.953,-0.648,0.0
25.065,-1.72,-0.707,0.0
0.0,0.0,0.0,0.0
0.0,0.0,0.0,0.0
0.0,0.0,0.0,0.0
34.027,-2.299,-0.563,0.0
28.117,-1.891,-0.615,0.0
25.513,-1.708,-0.695,0.0
0.0,0.0,0.0,0.0
0.0,0.0,0.0,0.0
0.0,0.0,0.0,0.0
34.401,-2.267,-0.537,0.0
29.668,-1.946,-0.621,0.0
25.753,-1.681,-0.677,0.0
0.0,0.0,0.0,0.0
0.0,0.0,0.0,0.0
0.0,0.0,0.0,0.0
0.0,0.0,0.0,0.0
30.292,-1.935,-0.607,0.0
27.008,-1.717,-0.686,0.0
0.0,0.0,0.0,0.0
0.0,0.0,0.0,0.0
0.0,0.0,0.0,0.0
36.958,-2.308,-0.51,0.0
0.0,0.0,0.0,0.0
0.0,0.0,0.0,0.0
108.42,-6.689,0.349,2.0
0.0,0.0,0.0,0.0
0.0,0.0,0.0,0.0
38.594,-2.343,-0.499,0.0
32.335,-1.952,-0.592,0.0
27.68,-1.663,-0.655,0.0
109.44,-6.559,0.444,1.0
0.0,0.0,0.0,0.0
0.0,0.0,0.0,0.0
38.189,-2.25,-0.463,0.0
32.544,-1.907,-0.569,0.0
28.31,-1.65,-0.647,0.0
0.0,0.0,0.0,0.0
0.0,0.0,0.0,0.0
0.0,0.0,0.0,0.0
0.0,0.0,0.0,0.0
0.0,0.0,0.0,0.0
29.413,-1.66,-0.649,0.0
0.0,0.0,0.0,0.0
0.0,0.0,0.0,0.0
0.0,0.0,0.0,0.0
0.0,0.0,0.0,0.0
0.0,0.0,0.0,0.0
0.0,0.0,0.0,0.0
101.473,-5.525,0.651,52.0
0.0,0.0,0.0,0.0
0.0,0.0,0.0,0.0
43.235,-2.309,-0.424,0.0
34.854,-1.85,-0.529,0.0
30.293,-1.598,-0.623,0.0
0.0,0.0,0.0,0.0
0.0,0.0,0.0,0.0
0.0,0.0,0.0,0.0
0.0,0.0,0.0,0.0
0.0,0.0,0.0,0.0
30.552,-1.553,-0.607,0.0
101.53,-5.144,0.795,17.0
101.46,-5.106,0.247,1.0
0.0,0.0,0.0,0.0
0.0,0.0,0.0,0.0
0.0,0.0,0.0,0.0
31.156,-1.524,-0.598,0.0
101.57,-4.951,0.862,150.0
0.0,0.0,0.0,0.0
0.0,0.0,0.0,0.0
47.664,-2.273,-0.371,0.0
37.726,-1.785,-0.497,0.0
0.0,0.0,0.0,0.0
101.529,-4.752,0.925,151.0
0.0,0.0,0.0,0.0
0.0,0.0,0.0,0.0
0.0,0.0,0.0,0.0
38.151,-1.732,-0.48,0.0
32.042,-1.443,-0.576,0.0
101.492,-4.553,0.985,8.0
102.406,-4.556,0.44,1.0
0.0,0.0,0.0,0.0
0.0,0.0,0.0,0.0
0.0,0.0,0.0,0.0
32.472,-1.398,-0.566,0.0
101.537,-4.354,1.042,1.0
102.454,-4.355,0.497,1.0
0.0,0.0,0.0,0.0
0.0,0.0,0.0,0.0
0.0,0.0,0.0,0.0
34.049,-1.399,-0.575,0.0
0.0,0.0,0.0,0.0
0.0,0.0,0.0,0.0
0.0,0.0,0.0,0.0
0.0,0.0,0.0,0.0
0.0,0.0,0.0,0.0
0.0,0.0,0.0,0.0
0.0,0.0,0.0,0.0
0.0,0.0,0.0,0.0
0.0,0.0,0.0,0.0
0.0,0.0,0.0,0.0
0.0,0.0,0.0,0.0
33.649,-1.246,-0.536,0.0
162.057,-5.968,1.901,21.0
160.723,-5.858,1.013,16.0
0.0,0.0,0.0,0.0
0.0,0.0,0.0,0.0
0.0,0.0,0.0,0.0
0.0,0.0,0.0,0.0
161.99,-5.633,1.969,24.0
160.696,-5.527,1.08,14.0
0.0,0.0,0.0,0.0
0.0,0.0,0.0,0.0
42.372,-1.411,-0.41,0.0
34.451,-1.134,-0.521,0.0
161.947,-5.294,2.031,23.0
160.694,-5.193,1.141,11.0
0.0,0.0,0.0,0.0
0.0,0.0,0.0,0.0
0.0,0.0,0.0,0.0
35.64,-1.099,-0.526,0.0
161.849,-4.951,2.086,25.0
160.71,-4.855,1.196,11.0
0.0,0.0,0.0,0.0
0.0,0.0,0.0,0.0
0.0,0.0,0.0,0.0
0.0,0.0,0.0,0.0
161.822,-4.61,2.137,24.0
160.668,-4.516,1.245,11.0
0.0,0.0,0.0,0.0
0.0,0.0,0.0,0.0
0.0,0.0,0.0,0.0
0.0,0.0,0.0,0.0
161.894,-4.269,2.182,27.0
0.0,0.0,0.0,0.0
0.0,0.0,0.0,0.0
0.0,0.0,0.0,0.0
0.0,0.0,0.0,0.0
35.287,-0.866,-0.491,0.0
161.951,-3.932,2.221,14.0
130.098,-3.109,1.073,7.0
0.0,0.0,0.0,0.0
0.0,0.0,0.0,0.0
0.0,0.0,0.0,0.0
0.0,0.0,0.0,0.0
0.0,0.0,0.0,0.0
130.023,-2.835,1.097,150.0
0.0,0.0,0.0,0.0
0.0,0.0,0.0,0.0
45.513,-0.941,-0.367,0.0
36.424,-0.74,-0.493,0.0
0.0,0.0,0.0,0.0
130.02,-2.557,1.118,151.0
0.0,0.0,0.0,0.0
0.0,0.0,0.0,0.0
0.0,0.0,0.0,0.0
36.714,-0.667,-0.492,0.0
0.0,0.0,0.0,0.0
130.002,-2.277,1.134,152.0
0.0,0.0,0.0,0.0
0.0,0.0,0.0,0.0
0.0,0.0,0.0,0.0
0.0,0.0,0.0,0.0
0.0,0.0,0.0,0.0
19.754,-0.303,0.173,15.0
19.751,-0.296,0.065,9.0
0.0,0.0,0.0,0.0
45.432,-0.649,-0.353,0.0
0.0,0.0,0.0,0.0
19.755,-0.268,0.283,9.0
19.758,-0.261,0.174,27.0
19.774,-0.254,0.066,0.0
0.0,0.0,0.0,0.0
0.0,0.0,0.0,0.0
0.0,0.0,0.0,0.0
19.748,-0.226,0.283,8.0
19.775,-0.219,0.175,0.0
0.0,0.0,0.0,0.0
0.0,0.0,0.0,0.0
19.807,-0.198,-0.153,1.0
19.76,-0.19,-0.262,12.0
169.236,-1.578,2.425,6.0
160.747,-1.44,1.418,4.0
0.0,0.0,0.0,0.0
19.789,-0.162,-0.045,2.0
19.743,-0.155,-0.154,14.0
19.743,-0.148,-0.262,17.0
0.0,0.0,0.0,0.0
19.737,-0.134,0.172,6.0
19.732,-0.127,0.063,9.0
19.724,-0.12,-0.046,10.0
19.721,-0.113,-0.155,16.0
19.745,-0.106,-0.264,16.0
19.678,-0.098,0.278,10.0
19.705,-0.092,0.17,14.0
19.701,-0.085,0.061,13.0
19.699,-0.078,-0.049,15.0
19.726,-0.071,-0.158,16.0
19.757,-0.063,-0.267,14.0
19.647,-0.056,0.275,10.0
19.675,-0.049,0.167,10.0
19.708,-0.042,0.058,15.0
19.71,-0.035,-0.052,14.0
19.755,-0.029,-0.161,7.0
0.0,0.0,0.0,0.0
19.635,-0.014,0.272,13.0
19.737,-0.008,0.164,5.0
19.795,-0.001,0.055,6.0
19.76,0.005,-0.056,150.0
19.771,0.012,-0.165,2.0
19.757,0.019,-0.274,15.0
19.623,0.026,0.267,14.0
19.746,0.033,0.16,15.0
19.744,0.04,0.05,14.0
19.744,0.047,-0.06,34.0
19.756,0.054,-0.169,58.0
19.77,0.061,-0.279,52.0
19.621,0.068,0.263,16.0
19.678,0.075,0.154,13.0
19.676,0.082,0.045,12.0
19.72,0.089,-0.065,2.0
19.639,0.096,-0.174,0.0
35.012,0.183,-0.505,0.0
19.634,0.11,0.257,12.0
19.656,0.117,0.148,16.0
19.642,0.124,0.039,14.0
19.655,0.131,-0.071,10.0
19.668,0.138,-0.18,9.0
19.729,0.145,-0.29,1.0
19.651,0.152,0.251,12.0
19.664,0.159,0.142,13.0
19.647,0.165,0.033,14.0
19.631,0.172,-0.078,14.0
19.639,0.179,-0.187,16.0
19.658,0.186,-0.296,16.0
19.738,0.194,0.245,10.0
19.738,0.201,0.135,15.0
19.668,0.207,0.025,10.0
19.632,0.214,-0.085,15.0
19.636,0.221,-0.194,17.0
19.66,0.227,-0.304,19.0
19.745,0.236,0.237,19.0
19.764,0.243,0.127,19.0
19.773,0.25,0.017,0.0
19.669,0.255,-0.093,11.0
19.656,0.262,-0.203,14.0
19.67,0.269,-0.312,14.0
19.759,0.278,0.229,6.0
112.962,1.628,0.681,2.0
55.241,0.814,0.025,1.0
44.909,0.677,-0.234,2.0
36.037,0.556,-0.388,0.0
0.0,0.0,0.0,0.0
55.206,0.892,0.614,38.0
55.187,0.91,0.306,49.0
55.157,0.928,-0.001,58.0
42.743,0.733,-0.243,0.0
35.558,0.621,-0.401,0.0
31.003,0.552,-0.522,0.0
55.195,1.006,0.587,45.0
55.207,1.024,0.279,28.0
55.186,1.042,-0.029,24.0
41.539,0.798,-0.258,1.0
34.103,0.666,-0.402,6.0
28.868,0.573,-0.502,0.0
162.493,3.294,1.641,19.0
83.372,1.717,0.376,5.0
52.296,1.094,-0.056,1.0
41.114,0.874,-0.278,1.0
33.075,0.714,-0.408,1.0
28.436,0.623,-0.51,1.0
70.924,1.583,0.675,9.0
76.306,1.728,0.3,3.0
45.527,1.046,-0.075,16.0
40.078,0.934,-0.294,2.0
32.526,0.768,-0.421,1.0
27.667,0.662,-0.513,1.0
70.751,1.724,0.63,26.0
43.78,1.081,0.145,49.0
0.0,0.0,0.0,0.0
39.803,1.008,-0.317,8.0
31.917,0.818,-0.433,0.0
26.847,0.697,-0.515,1.0
0.0,0.0,0.0,0.0
43.785,1.169,0.117,100.0
40.143,1.084,-0.117,158.0
37.367,1.021,-0.323,2.0
27.394,0.757,-0.39,0.0
26.289,0.735,-0.522,2.0
0.0,0.0,0.0,0.0
40.145,1.153,0.079,88.0
40.129,1.165,-0.145,150.0
36.751,1.078,-0.343,2.0
27.438,0.814,-0.41,4.0
25.83,0.774,-0.531,6.0
40.138,1.22,0.276,119.0
40.136,1.232,0.05,150.0
40.123,1.244,-0.174,112.0
40.191,1.258,-0.404,1.0
29.392,0.93,-0.461,1.0
25.554,0.816,-0.544,6.0
40.129,1.299,0.246,150.0
40.052,1.308,0.02,58.0
40.035,1.32,-0.204,96.0
40.115,1.335,-0.434,0.0
28.979,0.973,-0.477,3.0
24.788,0.84,-0.547,1.0
73.306,2.515,0.392,2.0
40.136,1.388,-0.01,150.0
40.007,1.396,-0.235,35.0
40.124,1.413,-0.466,2.0
28.128,0.999,-0.485,1.0
24.27,0.869,-0.555,1.0
44.692,1.619,0.202,153.0
42.631,1.558,-0.046,2.0
39.91,1.47,-0.268,2.0
32.111,1.192,-0.4,0.0
27.534,1.03,-0.498,6.0
23.576,0.889,-0.559,5.0
0.0,0.0,0.0,0.0
40.351,1.551,-0.078,158.0
40.024,1.55,-0.303,4.0
31.494,1.229,-0.419,0.0
27.06,1.064,-0.513,6.0
23.359,0.926,-0.574,6.0
40.359,1.616,0.113,140.0
40.339,1.627,-0.113,150.0
39.644,1.61,-0.335,0.0
30.131,1.232,-0.428,1.0
23.682,0.975,-0.47,15.0
22.251,0.923,-0.567,1.0
23.634,0.99,0.045,26.0
23.649,0.997,-0.088,37.0
23.639,1.003,-0.221,40.0
23.638,1.01,-0.357,46.0
23.647,1.017,-0.491,38.0
21.745,0.941,-0.574,2.0
23.612,1.032,0.023,55.0
23.606,1.038,-0.11,65.0
23.601,1.044,-0.243,62.0
23.61,1.051,-0.379,64.0
23.618,1.058,-0.513,61.0
23.638,1.066,-0.647,1.0
25.311,1.778,-0.475,6.0
19.997,1.409,-0.49,9.0
19.609,1.385,-0.592,6.0
17.824,1.263,-0.642,2.0
16.768,1.191,-0.7,1.0
15.978,1.138,-0.759,1.0
24.525,1.754,-0.494,5.0
19.745,1.415,-0.51,6.0
19.001,1.365,-0.6,3.0
17.415,1.255,-0.651,2.0
16.595,1.199,-0.715,1.0
15.925,1.154,-0.778,1.0
23.944,1.741,-0.514,5.0
19.707,1.436,-0.536,9.0
18.565,1.357,-0.611,3.0
17.225,1.262,-0.668,2.0
16.391,1.204,-0.729,1.0
15.483,1.14,-0.778,0.0
19.843,1.466,-0.454,3.0
19.708,1.459,-0.563,11.0
18.215,1.352,-0.625,2.0
16.927,1.259,-0.679,1.0
16.136,1.203,-0.74,1.0
15.144,1.132,-0.781,0.0
19.721,1.479,-0.478,9.0
19.582,1.472,-0.587,5.0
17.83,1.344,-0.637,1.0
16.774,1.267,-0.697,1.0
15.987,1.21,-0.756,2.0
14.923,1.132,-0.791,0.0
19.717,1.5,-0.505,9.0
18.979,1.447,-0.595,3.0
17.447,1.333,-0.647,1.0
16.586,1.27,-0.712,1.0
15.825,1.215,-0.77,0.0
14.458,1.112,-0.787,0.0
19.717,1.521,-0.533,9.0
18.565,1.435,-0.608,3.0
17.184,1.331,-0.662,1.0
16.39,1.272,-0.727,1.0
15.35,1.194,-0.769,0.0
14.249,1.111,-0.796,0.0
19.709,1.54,-0.561,9.0
18.192,1.424,-0.622,1.0
16.931,1.328,-0.676,1.0
16.118,1.267,-0.738,1.0
14.976,1.179,-0.772,0.0
19.564,1.548,-0.585,4.0
17.704,1.403,-0.631,1.0
16.745,1.329,-0.693,1.0
15.974,1.271,-0.754,2.0
14.755,1.176,-0.781,0.0
13.691,1.093,-0.804,0.0
18.947,1.516,-0.593,3.0
17.436,1.398,-0.646,2.0
16.53,1.327,-0.707,1.0
15.738,1.266,-0.765,0.0
14.477,1.167,-0.787,0.0
13.422,1.084,-0.807,0.0
18.533,1.499,-0.607,2.0
17.163,1.391,-0.661,2.0
16.333,1.326,-0.723,1.0
15.243,1.239,-0.764,0.0
14.132,1.151,-0.789,0.0
13.248,1.081,-0.816,0.0
18.097,1.479,-0.619,1.0
16.936,1.386,-0.677,1.0
16.089,1.319,-0.735,1.0
15.069,1.238,-0.777,0.0
12.951,1.067,-0.817,0.0
17.765,1.466,-0.633,2.0
16.728,1.383,-0.693,1.0
15.949,1.32,-0.752,2.0
14.661,1.215,-0.777,0.0
13.695,1.137,-0.805,0.0
12.782,1.063,-0.825,0.0
17.437,1.452,-0.647,2.0
16.506,1.377,-0.707,2.0
15.628,1.305,-0.759,0.0
14.357,1.201,-0.782,0.0
13.368,1.12,-0.805,0.0
12.546,1.053,-0.828,0.0
17.159,1.441,-0.662,1.0
16.325,1.373,-0.723,2.0
15.21,1.281,-0.761,0.0
13.968,1.178,-0.781,0.0
13.145,1.11,-0.811,0.0
12.395,1.048,-0.836,0.0
16.904,1.431,-0.677,1.0
16.045,1.36,-0.734,1.0
15.033,1.276,-0.775,0.0
13.808,1.173,-0.793,0.0
12.876,1.096,-0.813,0.0
12.169,1.037,-0.839,0.0
16.677,1.422,-0.692,1.0
15.934,1.36,-0.753,2.0
13.582,1.163,-0.799,0.0
12.688,1.087,-0.82,0.0
11.911,1.022,-0.839,0.0
16.464,1.414,-0.707,1.0
15.508,1.333,-0.755,0.0
14.355,1.235,-0.782,0.0
13.373,1.152,-0.807,0.0
12.494,1.078,-0.826,0.0
11.788,1.018,-0.847,0.0
16.265,1.405,-0.722,1.0
15.151,1.31,-0.76,0.0
13.178,1.142,-0.814,0.0
12.356,1.072,-0.835,0.0
11.436,0.993,-0.839,0.0
16.009,1.391,-0.734,1.0
14.965,1.301,-0.772,0.0
12.869,1.121,-0.814,0.0
12.125,1.058,-0.837,0.0
11.264,0.984,-0.843,0.0
15.896,1.388,-0.752,1.0
14.72,1.287,-0.781,0.0
13.621,1.192,-0.801,0.0
12.659,1.109,-0.819,0.0
11.915,1.045,-0.84,0.0
11.12,0.976,-0.848,0.0
15.433,1.354,-0.753,0.0
14.311,1.256,-0.78,0.0
13.358,1.174,-0.805,0.0
12.518,1.101,-0.828,0.0
11.701,1.03,-0.842,0.0
10.893,0.96,-0.847,0.0
15.106,1.331,-0.758,0.0
13.137,1.159,-0.811,0.0
12.305,1.087,-0.832,0.0
11.5,1.016,-0.844,0.0
10.751,0.951,-0.851,0.0
14.969,1.323,-0.773,1.0
12.855,1.138,-0.812,0.0
12.078,1.07,-0.834,0.0
11.321,1.004,-0.847,0.0
10.584,0.939,-0.853,0.0
13.553,1.202,-0.797,0.0
12.655,1.124,-0.817,0.0
11.973,1.064,-0.844,0.0
11.119,0.989,-0.848,0.0
10.432,0.928,-0.856,0.0
14.321,1.273,-0.78,0.0
13.366,1.189,-0.805,0.0
12.497,1.112,-0.825,0.0
11.664,1.039,-0.838,0.0
10.906,0.972,-0.847,0.0
10.317,0.92,-0.861,0.0
13.137,1.171,-0.809,0.0
12.258,1.093,-0.826,0.0
11.464,1.023,-0.84,0.0
10.752,0.96,-0.85,0.0
10.191,0.911,-0.865,0.0
12.86,1.148,-0.81,0.0
12.084,1.079,-0.831,0.0
11.328,1.012,-0.846,0.0
10.531,0.942,-0.847,0.0
10.09,0.903,-0.87,0.0
13.609,1.215,-0.798,0.0
12.649,1.13,-0.814,0.0
11.935,1.067,-0.837,0.0
11.163,0.998,-0.849,0.0
10.444,0.934,-0.854,0.0
9.95,0.891,-0.872,0.0
13.396,1.197,-0.804,0.0
12.524,1.12,-0.824,0.0
11.613,1.039,-0.831,0.0
10.921,0.977,-0.845,0.0
10.312,0.923,-0.858,0.0
9.843,0.882,-0.876,0.0
13.168,1.177,-0.808,0.0
12.277,1.097,-0.824,0.0
11.491,1.028,-0.837,0.0
10.768,0.963,-0.848,0.0
10.22,0.915,-0.864,0.0
9.733,0.871,-0.879,0.0
12.903,1.153,-0.809,0.0
12.145,1.085,-0.831,0.0
11.355,1.015,-0.843,0.0
10.563,0.945,-0.846,0.0
10.12,0.905,-0.869,0.0
9.635,0.862,-0.883,0.0
12.696,1.133,-0.812,0.0
11.976,1.069,-0.835,0.0
11.161,0.997,-0.843,0.0
10.487,0.937,-0.854,0.0
9.979,0.892,-0.87,0.0
9.522,0.851,-0.885,0.0
12.577,1.121,-0.821,0.0
11.767,1.049,-0.836,0.0
11.0,0.981,-0.845,0.0
10.343,0.923,-0.855,0.0
9.906,0.884,-0.877,0.0
9.38,0.837,-0.884,0.0
12.399,1.103,-0.825,0.0
11.511,1.025,-0.832,0.0
10.766,0.958,-0.841,0.0
10.24,0.912,-0.86,0.0
9.811,0.874,-0.881,0.0
9.29,0.827,-0.888,0.0
12.168,1.08,-0.825,0.0
11.428,1.015,-0.841,0.0
10.687,0.949,-0.848,0.0
10.152,0.902,-0.865,0.0
9.672,0.859,-0.88,0.0
9.165,0.814,-0.887,0.0
12.073,1.069,-0.834,0.0
11.265,0.997,-0.843,0.0
10.556,0.935,-0.851,0.0
10.044,0.889,-0.869,0.0
9.583,0.849,-0.884,0.0
9.1,0.806,-0.892,0.0
11.883,1.049,-0.835,0.0
11.129,0.982,-0.846,0.0
10.43,0.921,-0.853,0.0
9.918,0.875,-0.87,0.0
9.49,0.838,-0.887,0.0
8.977,0.792,-0.891,0.0
11.728,1.032,-0.839,0.0
10.918,0.96,-0.843,0.0
10.348,0.91,-0.859,0.0
9.812,0.863,-0.872,0.0
9.349,0.822,-0.885,0.0
8.859,0.779,-0.89,0.0
11.533,1.01,-0.838,0.0
10.782,0.944,-0.846,0.0
10.245,0.897,-0.863,0.0
9.73,0.852,-0.876,0.0
9.237,0.809,-0.885,0.0
8.747,0.766,-0.889,0.0
11.39,0.993,-0.841,0.0
10.664,0.93,-0.849,0.0
10.161,0.886,-0.867,0.0
9.662,0.842,-0.881,0.0
9.169,0.799,-0.889,0.0
8.702,0.758,-0.894,0.0
11.246,0.976,-0.843,0.0
10.513,0.912,-0.848,0.0
10.039,0.87,-0.868,0.0
9.56,0.829,-0.883,0.0
9.045,0.784,-0.887,0.0
8.595,0.745,-0.893,0.0
11.134,0.961,-0.847,0.0
10.403,0.897,-0.851,0.0
9.949,0.858,-0.871,0.0
9.513,0.82,-0.889,0.0
8.972,0.773,-0.89,0.0
8.486,0.731,-0.891,0.0
10.972,0.941,-0.846,0.0
10.29,0.882,-0.853,0.0
9.872,0.846,-0.875,0.0
9.396,0.805,-0.888,0.0
8.871,0.76,-0.89,0.0
8.457,0.724,-0.897,0.0
10.839,0.924,-0.847,0.0
10.233,0.872,-0.859,0.0
9.819,0.836,-0.881,0.0
9.28,0.79,-0.887,0.0
8.784,0.747,-0.89,0.0
8.384,0.713,-0.898,0.0
10.767,0.911,-0.853,0.0
10.18,0.861,-0.865,0.0
9.74,0.823,-0.883,0.0
9.152,0.773,-0.884,0.0
8.738,0.738,-0.894,0.0
8.269,0.698,-0.894,0.0
10.582,0.889,-0.849,0.0
10.15,0.852,-0.872,0.0
9.607,0.806,-0.881,0.0
9.131,0.766,-0.891,0.0
8.647,0.725,-0.893,0.0
8.234,0.69,-0.898,0.0
10.528,0.878,-0.854,0.0
10.103,0.842,-0.878,0.0
9.541,0.794,-0.884,0.0
9.026,0.751,-0.889,0.0
8.555,0.711,-0.892,0.0
8.218,0.683,-0.904,0.0
10.46,0.865,-0.858,0.0
9.985,0.825,-0.877,0.0
9.493,0.783,-0.888,0.0
8.917,0.735,-0.886,0.0
8.501,0.701,-0.894,0.0
8.111,0.668,-0.9,0.0
10.313,0.845,-0.856,0.0
9.891,0.81,-0.877,0.0
9.365,0.766,-0.884,0.0
8.864,0.725,-0.889,0.0
8.456,0.691,-0.897,0.0
8.054,0.657,-0.901,0.0
10.237,0.831,-0.858,0.0
9.793,0.794,-0.877,0.0
9.316,0.755,-0.888,0.0
8.847,0.716,-0.895,0.0
8.436,0.682,-0.902,0.0
8.026,0.649,-0.904,0.0
10.232,0.823,-0.866,0.0
9.712,0.78,-0.878,0.0
9.227,0.74,-0.887,0.0
8.73,0.7,-0.89,0.0
8.376,0.671,-0.902,0.0
7.996,0.64,-0.907,0.0
10.116,0.805,-0.864,0.0
9.663,0.768,-0.881,0.0
9.159,0.727,-0.887,0.0
8.655,0.687,-0.889,0.0
8.303,0.658,-0.901,0.0
7.985,0.632,-0.912,0.0
10.083,0.794,-0.869,0.0
9.63,0.757,-0.885,0.0
9.093,0.714,-0.888,0.0
8.664,0.68,-0.896,0.0
8.276,0.649,-0.904,0.0
7.94,0.622,-0.913,0.0
10.028,0.781,-0.871,0.0
9.538,0.742,-0.883,0.0
9.091,0.706,-0.894,0.0
8.638,0.67,-0.9,0.0
8.213,0.636,-0.903,0.0
7.891,0.611,-0.913,0.0
9.986,0.769,-0.875,0.0
9.497,0.73,-0.886,0.0
8.925,0.685,-0.884,0.0
8.503,0.652,-0.891,0.0
8.193,0.627,-0.906,0.0
7.863,0.601,-0.915,0.0
9.954,0.757,-0.878,0.0
9.459,0.718,-0.888,0.0
8.982,0.681,-0.895,0.0
8.468,0.641,-0.893,0.0
8.166,0.617,-0.908,0.0
7.859,0.593,-0.919,0.0
9.879,0.741,-0.878,0.0
9.425,0.706,-0.891,0.0
8.893,0.666,-0.891,0.0
8.514,0.636,-0.903,0.0
8.08,0.603,-0.903,0.0
7.8,0.581,-0.917,0.0
9.849,0.73,-0.881,0.0
9.415,0.696,-0.895,0.0
8.843,0.653,-0.891,0.0
8.413,0.62,-0.897,0.0
8.058,0.593,-0.905,0.0
7.795,0.573,-0.92,0.0
9.819,0.717,-0.883,0.0
9.349,0.682,-0.894,0.0
8.829,0.643,-0.895,0.0
8.388,0.61,-0.899,0.0
8.041,0.584,-0.907,0.0
7.77,0.563,-0.921,0.0
9.762,0.703,-0.883,0.0
9.283,0.667,-0.892,0.0
8.798,0.632,-0.896,0.0
8.365,0.599,-0.9,0.0
8.025,0.574,-0.909,0.0
7.794,0.557,-0.928,0.0
9.717,0.69,-0.883,0.0
9.289,0.658,-0.897,0.0
8.778,0.621,-0.897,0.0
8.364,0.59,-0.904,0.0
7.98,0.562,-0.908,0.0
7.743,0.545,-0.925,0.0
9.694,0.678,-0.885,0.0
9.212,0.643,-0.893,0.0
8.772,0.611,-0.9,0.0
8.345,0.58,-0.905,0.0
8.013,0.556,-0.915,0.0
7.726,0.535,-0.926,0.0
9.647,0.664,-0.884,0.0
9.207,0.632,-0.896,0.0
8.744,0.599,-0.901,0.0
8.303,0.568,-0.903,0.0
7.981,0.544,-0.914,0.0
7.695,0.524,-0.925,0.0
9.642,0.652,-0.887,0.0
9.162,0.618,-0.895,0.0
8.735,0.588,-0.902,0.0
8.253,0.555,-0.9,0.0
7.987,0.536,-0.917,0.0
7.717,0.517,-0.93,0.0
9.598,0.638,-0.885,0.0
9.151,0.607,-0.896,0.0
8.685,0.575,-0.9,0.0
8.265,0.546,-0.904,0.0
7.979,0.526,-0.918,0.0
7.676,0.505,-0.927,0.0
9.592,0.627,-0.887,0.0
9.119,0.595,-0.895,0.0
8.695,0.566,-0.903,0.0
8.255,0.536,-0.905,0.0
7.953,0.515,-0.917,0.0
7.67,0.496,-0.928,0.0
9.58,0.615,-0.888,0.0
9.166,0.587,-0.901,0.0
8.698,0.555,-0.904,0.0
8.267,0.527,-0.907,0.0
7.962,0.506,-0.919,0.0
7.654,0.485,-0.927,0.0
9.593,0.604,-0.891,0.0
9.09,0.571,-0.895,0.0
8.705,0.545,-0.906,0.0
8.252,0.516,-0.907,0.0
7.952,0.496,-0.919,0.0
7.677,0.478,-0.931,0.0
9.6,0.593,-0.892,0.0
9.114,0.561,-0.899,0.0
8.69,0.534,-0.906,0.0
8.269,0.507,-0.909,0.0
7.946,0.486,-0.919,0.0
7.659,0.467,-0.929,0.0
9.625,0.583,-0.895,0.0
9.098,0.549,-0.897,0.0
8.705,0.524,-0.908,0.0
8.263,0.496,-0.909,0.0
7.965,0.477,-0.921,0.0
7.67,0.458,-0.931,0.0
9.593,0.569,-0.893,0.0
9.114,0.539,-0.899,0.0
8.689,0.512,-0.906,0.0
8.256,0.485,-0.908,0.0
7.941,0.466,-0.919,0.0
7.67,0.448,-0.931,0.0
9.622,0.559,-0.895,0.0
9.15,0.53,-0.903,0.0
8.719,0.503,-0.909,0.0
8.256,0.475,-0.908,0.0
7.944,0.456,-0.919,0.0
7.669,0.439,-0.93,0.0
9.619,0.547,-0.894,0.0
9.144,0.518,-0.901,0.0
8.689,0.49,-0.905,0.0
8.291,0.467,-0.911,0.0
7.966,0.447,-0.92,0.0
7.684,0.43,-0.931,0.0
9.623,0.535,-0.894,0.0
9.179,0.508,-0.904,0.0
8.701,0.48,-0.905,0.0
8.318,0.457,-0.913,0.0
7.994,0.438,-0.923,0.0
7.681,0.42,-0.93,0.0
9.677,0.525,-0.897,0.0
9.172,0.496,-0.902,0.0
8.742,0.471,-0.908,0.0
8.302,0.446,-0.91,0.0
7.985,0.427,-0.92,0.0
7.706,0.411,-0.931,0.0
9.702,0.514,-0.897,0.0
9.198,0.486,-0.902,0.0
8.757,0.461,-0.908,0.0
8.358,0.438,-0.914,0.0
8.036,0.42,-0.924,0.0
7.687,0.4,-0.927,0.0
9.717,0.502,-0.897,0.0
9.254,0.476,-0.905,0.0
8.791,0.451,-0.909,0.0
8.373,0.428,-0.914,0.0
8.016,0.408,-0.92,0.0
7.724,0.392,-0.929,0.0
9.734,0.49,-0.895,0.0
9.299,0.467,-0.907,0.0
8.806,0.44,-0.908,0.0
8.402,0.419,-0.914,0.0
8.045,0.399,-0.92,0.0
7.725,0.382,-0.927,0.0
9.763,0.479,-0.895,0.0
9.312,0.455,-0.905,0.0
8.839,0.43,-0.908,0.0
8.416,0.408,-0.913,0.0
8.063,0.389,-0.919,0.0
7.77,0.374,-0.93,0.0
9.821,0.469,-0.896,0.0
9.338,0.444,-0.904,0.0
8.877,0.421,-0.909,0.0
8.458,0.399,-0.914,0.0
8.114,0.381,-0.922,0.0
7.77,0.364,-0.926,0.0
9.854,0.458,-0.895,0.0
9.374,0.434,-0.903,0.0
8.918,0.411,-0.909,0.0
8.49,0.389,-0.913,0.0
8.141,0.372,-0.921,0.0
7.793,0.354,-0.925,0.0
9.908,0.447,-0.895,0.0
9.445,0.425,-0.906,0.0
8.983,0.402,-0.911,0.0
8.541,0.381,-0.915,0.0
8.174,0.363,-0.921,0.0
7.849,0.347,-0.928,0.0
9.924,0.435,-0.892,0.0
9.459,0.413,-0.902,0.0
9.037,0.393,-0.912,0.0
8.602,0.372,-0.917,0.0
8.223,0.354,-0.922,0.0
7.899,0.338,-0.929,0.0
9.993,0.425,-0.892,0.0
9.531,0.404,-0.904,0.0
9.039,0.381,-0.907,0.0
8.617,0.361,-0.913,0.0
8.276,0.345,-0.923,0.0
7.918,0.329,-0.927,0.0
10.044,0.414,-0.891,0.0
9.594,0.394,-0.904,0.0
9.104,0.372,-0.908,0.0
8.683,0.353,-0.915,0.0
8.274,0.334,-0.917,0.0
7.964,0.32,-0.927,0.0
10.116,0.404,-0.891,0.0
9.625,0.382,-0.9,0.0
9.165,0.362,-0.908,0.0
8.727,0.343,-0.913,0.0
8.383,0.328,-0.924,0.0
8.014,0.312,-0.927,0.0
10.257,0.396,-0.896,0.0
9.718,0.373,-0.902,0.0
9.218,0.352,-0.907,0.0
8.785,0.334,-0.913,0.0
8.408,0.318,-0.92,0.0
8.032,0.302,-0.924,0.0
10.272,0.383,-0.89,0.0
9.79,0.363,-0.902,0.0
9.339,0.345,-0.911,0.0
8.899,0.327,-0.918,0.0
8.514,0.311,-0.925,0.0
8.105,0.294,-0.926,0.0
10.37,0.374,-0.89,0.0
9.851,0.353,-0.899,0.0
9.38,0.334,-0.908,0.0
8.921,0.316,-0.913,0.0
8.52,0.3,-0.919,0.0
8.175,0.286,-0.927,0.0
10.404,0.362,-0.885,0.0
9.917,0.343,-0.897,0.0
9.449,0.324,-0.907,0.0
9.002,0.307,-0.914,0.0
8.623,0.292,-0.923,0.0
8.25,0.278,-0.928,0.0
10.509,0.352,-0.885,0.0
10.044,0.334,-0.9,0.0
9.565,0.316,-0.909,0.0
9.075,0.298,-0.913,0.0
8.67,0.283,-0.92,0.0
8.297,0.269,-0.926,0.0
10.626,0.342,-0.885,0.0
10.103,0.323,-0.896,0.0
9.612,0.306,-0.905,0.0
9.176,0.29,-0.915,0.0
8.765,0.275,-0.922,0.0
8.36,0.26,-0.925,0.0
10.751,0.333,-0.885,0.0
10.171,0.313,-0.892,0.0
9.688,0.296,-0.903,0.0
9.265,0.281,-0.915,0.0
8.802,0.265,-0.917,0.0
8.432,0.252,-0.925,0.0
10.845,0.322,-0.882,0.0
10.269,0.303,-0.891,0.0
9.69,0.284,-0.893,0.0
9.4,0.273,-0.918,0.0
8.927,0.258,-0.921,0.0
8.51,0.244,-0.924,0.0
10.998,0.313,-0.883,0.0
10.394,0.294,-0.891,0.0
9.9,0.278,-0.902,0.0
9.446,0.263,-0.913,0.0
8.992,0.248,-0.918,0.0
8.603,0.236,-0.925,0.0
11.156,0.304,-0.884,0.0
10.542,0.285,-0.892,0.0
10.023,0.269,-0.902,0.0
9.548,0.254,-0.912,0.0
9.081,0.24,-0.917,0.0
8.675,0.227,-0.923,0.0
11.294,0.294,-0.882,0.0
10.72,0.277,-0.895,0.0
10.093,0.259,-0.897,0.0
9.619,0.245,-0.908,0.0
9.18,0.232,-0.916,0.0
8.76,0.219,-0.922,0.0
11.394,0.283,-0.877,0.0
10.864,0.268,-0.895,0.0
10.234,0.25,-0.898,0.0
9.723,0.236,-0.906,0.0
9.191,0.221,-0.907,0.0
8.878,0.212,-0.924,0.0
11.604,0.275,-0.879,0.0
10.916,0.256,-0.886,0.0
10.369,0.241,-0.897,0.0
9.853,0.227,-0.907,0.0
9.372,0.214,-0.913,0.0
8.992,0.204,-0.925,0.0
11.704,0.264,-0.872,0.0
11.078,0.247,-0.885,0.0
10.48,0.232,-0.893,0.0
9.935,0.218,-0.902,0.0
9.543,0.207,-0.917,0.0
9.064,0.195,-0.92,0.0
11.991,0.256,-0.878,0.0
11.234,0.238,-0.883,0.0
10.666,0.224,-0.896,0.0
10.065,0.209,-0.9,0.0
9.6,0.198,-0.91,0.0
9.209,0.188,-0.923,0.0
12.177,0.247,-0.876,0.0
11.361,0.228,-0.878,0.0
10.763,0.214,-0.889,0.0
10.234,0.201,-0.901,0.0
9.743,0.19,-0.911,0.0
9.277,0.179,-0.917,0.0
12.332,0.236,-0.87,0.0
11.546,0.219,-0.877,0.0
10.974,0.206,-0.892,0.0
10.36,0.192,-0.898,0.0
9.871,0.181,-0.909,0.0
9.398,0.171,-0.916,0.0
12.516,0.226,-0.866,0.0
11.844,0.212,-0.883,0.0
11.191,0.198,-0.894,0.0
10.559,0.185,-0.901,0.0
9.999,0.173,-0.907,0.0
9.511,0.163,-0.913,0.0
12.755,0.217,-0.864,0.0
12.039,0.202,-0.88,1.0
11.333,0.188,-0.889,0.0
10.75,0.177,-0.902,0.0
10.197,0.166,-0.91,0.0
9.684,0.155,-0.916,0.0
13.013,0.208,-0.863,1.0
12.194,0.192,-0.873,1.0
11.534,0.18,-0.888,0.0
10.9,0.168,-0.898,0.0
10.294,0.157,-0.903,0.0
9.821,0.148,-0.914,0.0
13.204,0.197,-0.856,1.0
12.45,0.184,-0.873,0.0
11.738,0.171,-0.885,0.0
11.028,0.159,-0.892,0.0
10.527,0.15,-0.907,0.0
9.989,0.14,-0.914,0.0
13.515,0.189,-0.855,1.0
12.676,0.175,-0.869,1.0
11.94,0.162,-0.882,1.0
11.269,0.151,-0.894,0.0
10.646,0.141,-0.901,0.0
10.103,0.132,-0.909,0.0
13.761,0.179,-0.849,0.0
12.906,0.165,-0.865,1.0
12.135,0.153,-0.877,1.0
11.471,0.143,-0.892,0.0
10.857,0.133,-0.901,0.0
10.266,0.124,-0.907,0.0
14.087,0.17,-0.847,0.0
13.097,0.156,-0.857,1.0
12.397,0.145,-0.877,0.0
11.691,0.135,-0.89,0.0
11.046,0.125,-0.899,0.0
10.465,0.117,-0.907,0.0
14.476,0.161,-0.847,0.0
13.429,0.147,-0.857,1.0
12.61,0.136,-0.871,0.0
11.872,0.126,-0.884,1.0
11.227,0.117,-0.895,0.0
10.631,0.109,-0.904,0.0
14.802,0.152,-0.842,0.0
13.709,0.138,-0.852,0.0
12.883,0.128,-0.869,0.0
12.113,0.118,-0.882,0.0
11.437,0.11,-0.893,0.0
10.841,0.102,-0.904,0.0
15.225,0.143,-0.841,1.0
14.052,0.13,-0.85,0.0
13.143,0.119,-0.864,0.0
12.362,0.11,-0.879,0.0
11.681,0.102,-0.892,0.0
11.019,0.095,-0.9,0.0
15.523,0.133,-0.83,0.0
14.429,0.121,-0.848,0.0
13.416,0.111,-0.859,1.0
12.608,0.102,-0.875,1.0
11.905,0.094,-0.889,1.0
11.232,0.087,-0.898,0.0
15.711,0.122,-0.813,0.0
14.796,0.112,-0.843,0.0
13.719,0.102,-0.854,0.0
12.86,0.094,-0.869,0.0
12.114,0.086,-0.883,0.0
11.446,0.08,-0.894,0.0
16.394,0.114,-0.82,0.0
15.257,0.104,-0.843,0.0
14.065,0.094,-0.85,0.0
13.133,0.086,-0.864,0.0
12.389,0.079,-0.88,0.0
11.692,0.073,-0.892,0.0
16.972,0.106,-0.818,0.0
15.536,0.095,-0.83,0.0
14.429,0.086,-0.847,0.0
13.45,0.078,-0.861,0.0
12.625,0.072,-0.874,1.0
11.928,0.066,-0.889,0.0
17.296,0.096,-0.803,0.0
15.901,0.086,-0.821,0.0
14.879,0.078,-0.846,0.0
13.754,0.07,-0.855,0.0
12.877,0.064,-0.868,0.0
12.142,0.059,-0.882,0.0
18.043,0.087,-0.804,0.0
16.542,0.078,-0.823,0.0
15.25,0.07,-0.839,0.0
14.136,0.063,-0.853,0.0
13.199,0.057,-0.865,0.0
12.441,0.052,-0.88,0.0
18.702,0.078,-0.799,0.0
17.049,0.069,-0.816,0.0
15.64,0.061,-0.831,0.0
14.5,0.055,-0.847,0.0
13.563,0.05,-0.863,0.0
12.735,0.045,-0.877,1.0
19.53,0.07,-0.797,1.0
17.475,0.06,-0.804,0.0
16.176,0.054,-0.828,0.0
15.015,0.048,-0.848,0.0
13.864,0.043,-0.856,0.0
13.003,0.038,-0.87,0.0
19.76,0.059,-0.768,15.0
18.224,0.052,-0.803,0.0
16.742,0.046,-0.825,0.0
15.387,0.04,-0.84,0.0
14.249,0.036,-0.852,0.0
13.289,0.032,-0.864,1.0
19.778,0.048,-0.731,9.0
18.94,0.044,-0.798,0.0
17.163,0.038,-0.813,0.0
15.767,0.033,-0.83,0.0
14.71,0.029,-0.851,0.0
13.65,0.026,-0.861,0.0
19.875,0.038,-0.696,0.0
19.681,0.035,-0.791,2.0
17.823,0.03,-0.809,0.0
16.394,0.026,-0.83,0.0
15.143,0.022,-0.846,0.0
14.014,0.019,-0.856,0.0
19.784,0.028,-0.653,2.0
19.776,0.026,-0.755,3.0
18.464,0.022,-0.801,0.0
16.721,0.019,-0.814,0.0
15.521,0.016,-0.836,0.0
14.43,0.013,-0.852,0.0
19.808,0.019,-0.614,1.0
20.377,0.018,-0.737,0.0
19.256,0.015,-0.797,0.0
17.355,0.012,-0.81,0.0
16.063,0.01,-0.833,0.0
14.932,0.008,-0.851,0.0
23.409,0.013,-0.679,1.0
21.53,0.01,-0.735,0.0
19.738,0.007,-0.777,2.0
18.247,0.005,-0.814,0.0
16.494,0.003,-0.821,0.0
15.368,0.002,-0.845,0.0
25.395,0.004,-0.685,0.0
22.918,0.002,-0.736,0.0
19.853,0.0,-0.741,0.0
18.732,0.0,-0.798,0.0
17.108,-0.002,-0.817,0.0
15.755,-0.003,-0.834,0.0
26.396,-0.004,-0.658,0.0
23.594,-0.005,-0.71,0.0
21.145,-0.006,-0.745,0.0
19.641,-0.007,-0.796,1.0
17.533,-0.007,-0.801,0.0
16.349,-0.008,-0.832,0.0
28.222,-0.013,-0.646,0.0
24.797,-0.013,-0.695,0.0
21.788,-0.013,-0.723,0.0
19.762,-0.013,-0.76,2.0
18.513,-0.013,-0.807,0.0
16.81,-0.013,-0.82,0.0
29.354,-0.022,-0.61,0.0
25.715,-0.02,-0.667,0.0
23.132,-0.02,-0.72,0.0
20.829,-0.019,-0.758,0.0
19.261,-0.018,-0.8,0.0
17.401,-0.017,-0.813,0.0
31.191,-0.031,-0.584,0.0
0.0,0.0,0.0,0.0
24.346,-0.026,-0.707,0.0
21.702,-0.024,-0.744,0.0
19.728,-0.023,-0.778,2.0
18.198,-0.022,-0.812,0.0
0.0,0.0,0.0,0.0
28.776,-0.035,-0.627,0.0
25.427,-0.032,-0.685,0.0
22.795,-0.03,-0.734,0.0
19.949,-0.027,-0.746,0.0
18.843,-0.026,-0.802,0.0
19.78,-0.026,-0.288,0.0
29.916,-0.041,-0.589,0.0
0.0,0.0,0.0,0.0
23.76,-0.034,-0.716,0.0
21.446,-0.032,-0.756,0.0
19.693,-0.03,-0.796,2.0
19.766,-0.029,-0.246,5.0
32.366,-0.049,-0.57,0.0
28.415,-0.043,-0.646,0.0
24.9,-0.039,-0.697,0.0
22.199,-0.035,-0.736,0.0
19.786,-0.032,-0.758,1.0
19.76,-0.031,-0.204,13.0
19.768,-0.031,-0.306,0.0
29.783,-0.048,-0.614,0.0
26.105,-0.042,-0.676,0.0
23.248,-0.038,-0.721,0.0
20.906,-0.035,-0.756,0.0
19.747,-0.032,-0.162,14.0
19.749,-0.032,-0.264,5.0
31.204,-0.051,-0.577,0.0
27.92,-0.046,-0.663,0.0
24.396,-0.041,-0.705,0.0
21.746,-0.036,-0.74,0.0
19.742,-0.032,-0.12,13.0
19.756,-0.032,-0.221,11.0
19.767,-0.032,-0.323,0.0
29.098,-0.048,-0.628,0.0
25.527,-0.042,-0.683,0.0
22.968,-0.038,-0.732,0.0
19.738,-0.032,-0.077,12.0
19.743,-0.032,-0.179,13.0
19.762,-0.032,-0.281,2.0
0.0,0.0,0.0,0.0
27.224,-0.044,-0.67,0.0
24.023,-0.038,-0.715,0.0
19.725,-0.03,-0.035,16.0
19.737,-0.03,-0.137,13.0
19.757,-0.03,-0.239,7.0
32.352,-0.05,-0.561,0.0
28.617,-0.043,-0.643,0.0
25.176,-0.038,-0.695,0.0
19.711,-0.029,0.006,17.0
19.735,-0.028,-0.095,10.0
19.748,-0.028,-0.196,10.0
19.746,-0.028,-0.3,0.0
29.81,-0.041,-0.606,0.0
26.32,-0.036,-0.67,0.0
19.714,-0.026,0.048,16.0
19.717,-0.025,-0.052,14.0
19.742,-0.025,-0.154,13.0
19.742,-0.025,-0.257,2.0
0.0,0.0,0.0,0.0
28.002,-0.034,-0.653,0.0
19.694,-0.022,0.09,15.0
19.711,-0.022,-0.01,15.0
19.734,-0.021,-0.111,10.0
19.761,-0.021,-0.215,3.0
32.983,-0.034,-0.529,0.0
29.474,-0.029,-0.624,0.0
19.694,-0.018,0.133,9.0
19.714,-0.018,0.031,15.0
19.732,-0.017,-0.069,10.0
19.74,-0.016,-0.172,6.0
0.0,0.0,0.0,0.0
31.151,-0.023,-0.593,0.0
19.671,-0.013,0.174,10.0
19.699,-0.013,0.073,12.0
19.72,-0.012,-0.027,13.0
19.748,-0.011,-0.131,8.0
19.748,-0.01,-0.232,0.0
32.649,-0.015,-0.552,0.0
19.642,-0.008,0.216,16.0
19.696,-0.007,0.116,3.0
19.715,-0.006,0.014,11.0
19.75,-0.005,-0.088,3.0
19.748,-0.004,-0.19,0.0
35.279,-0.005,-0.522,0.0
19.634,-0.001,0.258,13.0
19.753,0.0,0.158,4.0
19.75,0.0,0.056,5.0
19.732,0.001,-0.047,10.0
19.811,0.002,-0.149,0.0
0.0,0.0,0.0,0.0
19.632,0.005,0.3,14.0
19.631,0.006,0.198,15.0
19.785,0.007,0.098,1.0
19.739,0.009,-0.005,9.0
19.783,0.01,-0.107,0.0
19.79,0.011,-0.209,0.0
19.619,0.012,0.34,15.0
19.629,0.014,0.24,14.0
19.769,0.015,0.139,1.0
19.772,0.017,0.036,3.0
19.74,0.018,-0.065,150.0
19.798,0.02,-0.167,1.0
19.619,0.021,0.382,14.0
19.624,0.022,0.281,14.0
19.662,0.024,0.18,9.0
19.751,0.026,0.077,8.0
19.748,0.027,-0.024,18.0
19.756,0.029,-0.126,5.0
19.614,0.03,0.423,13.0
19.616,0.032,0.322,16.0
19.625,0.033,0.221,16.0
19.734,0.035,0.118,14.0
19.74,0.037,0.016,13.0
19.739,0.039,-0.084,54.0
19.618,0.04,0.464,14.0
19.614,0.042,0.363,15.0
19.615,0.044,0.262,11.0
19.724,0.046,0.159,14.0
19.757,0.048,0.058,16.0
19.754,0.05,-0.044,55.0
19.611,0.051,0.504,13.0
19.607,0.053,0.403,13.0
19.609,0.055,0.302,12.0
19.625,0.057,0.199,14.0
19.744,0.059,0.098,19.0
19.753,0.061,-0.002,31.0
19.606,0.062,0.545,14.0
19.606,0.064,0.444,18.0
19.615,0.066,0.343,18.0
19.605,0.068,0.239,14.0
19.683,0.071,0.138,11.0
19.747,0.073,0.037,43.0
19.603,0.074,0.585,15.0
19.608,0.076,0.484,24.0
19.603,0.078,0.382,23.0
19.597,0.081,0.279,15.0
19.639,0.083,0.179,12.0
19.694,0.086,0.077,16.0
19.609,0.087,0.625,13.0
19.603,0.089,0.524,17.0
19.607,0.092,0.423,24.0
19.615,0.094,0.319,23.0
19.621,0.096,0.218,15.0
19.666,0.099,0.117,12.0
19.619,0.1,0.665,13.0
19.586,0.103,0.563,15.0
19.619,0.105,0.462,22.0
19.614,0.108,0.359,24.0
19.607,0.11,0.257,13.0
19.657,0.113,0.156,14.0
19.625,0.114,0.705,11.0
19.592,0.117,0.602,14.0
19.595,0.119,0.501,16.0
19.588,0.122,0.397,17.0
19.615,0.125,0.296,12.0
19.665,0.128,0.195,17.0
19.647,0.129,0.745,9.0
19.602,0.132,0.642,12.0
19.598,0.134,0.54,17.0
19.602,0.137,0.436,13.0
19.614,0.14,0.335,11.0
19.634,0.143,0.234,13.0
19.678,0.145,0.785,2.0
19.614,0.147,0.68,10.0
19.595,0.15,0.578,12.0
19.595,0.153,0.474,12.0
19.615,0.156,0.373,11.0
19.632,0.159,0.272,11.0
186.522,1.532,7.811,14.0
19.635,0.164,0.719,9.0
19.601,0.166,0.616,10.0
19.601,0.169,0.513,11.0
19.62,0.172,0.411,10.0
19.648,0.176,0.31,8.0
186.845,1.693,8.184,11.0
19.656,0.181,0.758,5.0
19.626,0.183,0.655,9.0
19.65,0.187,0.552,9.0
19.662,0.19,0.449,10.0
19.672,0.193,0.348,10.0
0.0,0.0,0.0,0.0
19.726,0.199,0.799,0.0
19.656,0.201,0.693,10.0
19.666,0.204,0.589,9.0
19.707,0.208,0.488,11.0
19.733,0.212,0.386,13.0
0.0,0.0,0.0,0.0
185.859,2.049,7.879,19.0
19.669,0.22,0.731,8.0
19.648,0.223,0.625,12.0
19.674,0.226,0.524,11.0
19.705,0.23,0.422,11.0
122.538,1.447,6.063,9.0
84.846,1.016,3.755,12.0
84.812,1.03,3.31,17.0
19.632,0.241,0.661,15.0
19.654,0.245,0.56,13.0
19.681,0.249,0.458,11.0
84.826,1.084,4.353,47.0
84.817,1.098,3.908,52.0
84.829,1.113,3.465,46.0
19.631,0.261,0.697,13.0
19.649,0.265,0.595,15.0
19.666,0.268,0.493,14.0
122.131,1.684,6.49,18.0
121.759,1.701,5.833,22.0
121.635,1.72,5.19,17.0
19.659,0.281,0.733,5.0
19.65,0.285,0.63,14.0
19.669,0.289,0.528,14.0
121.891,1.807,6.697,26.0
121.988,1.83,6.061,22.0
121.488,1.845,5.4,25.0
121.6,1.87,4.756,4.0
19.646,0.305,0.665,8.0
19.679,0.31,0.563,10.0
122.001,1.939,6.919,26.0
121.879,1.959,6.272,20.0
121.401,1.973,5.608,20.0
55.213,0.907,2.255,5.0
55.2,0.918,1.965,21.0
55.199,0.928,1.675,22.0
55.211,0.937,3.226,45.0
55.199,0.947,2.935,59.0
55.188,0.957,2.644,67.0
55.181,0.968,2.348,74.0
55.175,0.979,2.059,73.0
55.179,0.989,1.769,71.0
55.202,0.998,3.32,66.0
55.196,1.009,3.029,56.0
55.198,1.019,2.738,47.0
55.207,1.031,2.442,43.0
55.214,1.042,2.153,20.0
55.186,1.052,1.861,6.0
129.246,2.485,7.992,7.0
122.048,2.372,6.902,17.0
121.614,2.388,6.237,17.0
121.459,2.409,5.577,25.0
121.289,2.429,4.929,23.0
135.139,2.734,4.78,18.0
129.236,2.635,8.201,13.0
129.5,2.667,7.534,10.0
121.889,2.535,6.449,19.0
121.688,2.556,5.784,18.0
121.515,2.578,5.136,23.0
121.322,2.599,4.488,20.0
136.551,2.95,8.891,8.0
129.459,2.822,7.743,13.0
121.768,2.68,6.64,10.0
129.418,2.875,6.358,14.0
114.833,2.575,5.036,15.0
121.198,2.743,4.675,22.0
127.133,2.9,8.48,13.0
133.391,3.07,8.189,21.0
133.782,3.109,7.505,12.0
129.499,3.036,6.566,13.0
128.986,3.052,5.859,12.0
121.279,2.896,4.867,11.0
121.392,2.92,8.286,17.0
121.403,2.946,7.642,19.0
133.915,3.278,7.718,17.0
114.511,2.828,5.982,12.0
114.63,2.856,5.381,6.0
45.472,1.142,1.894,1.0
121.471,3.075,8.476,18.0
0.0,0.0,0.0,0.0
0.0,0.0,0.0,0.0
0.0,0.0,0.0,0.0
43.7,1.144,2.116,61.0
43.712,1.154,1.885,136.0
41.84,1.113,2.981,3.0
41.89,1.123,2.762,29.0
41.899,1.132,2.539,89.0
41.903,1.142,2.312,113.0
0.0,0.0,0.0,0.0
0.0,0.0,0.0,0.0
40.098,1.119,2.916,80.0
40.118,1.128,2.703,147.0
40.112,1.137,2.489,138.0
40.111,1.145,2.271,150.0
40.117,1.154,2.057,130.0
40.124,1.164,1.845,120.0
40.102,1.172,2.973,80.0
40.113,1.181,2.759,132.0
40.106,1.19,2.544,118.0
40.11,1.199,2.327,138.0
40.128,1.208,2.114,114.0
40.123,1.217,1.9,105.0
40.103,1.226,3.028,4.0
40.122,1.235,2.815,115.0
40.116,1.244,2.6,139.0
40.119,1.253,2.382,114.0
40.127,1.262,2.168,108.0
40.122,1.271,1.954,91.0
0.0,0.0,0.0,0.0
40.118,1.289,2.868,108.0
40.12,1.298,2.653,114.0
40.089,1.307,2.432,46.0
40.104,1.316,2.219,8.0
40.12,1.326,2.005,1.0
0.0,0.0,0.0,0.0
40.204,1.348,2.927,143.0
40.195,1.357,2.71,150.0
0.0,0.0,0.0,0.0
120.224,4.114,6.807,12.0
121.186,4.175,6.213,21.0
0.0,0.0,0.0,0.0
40.16,1.403,2.975,47.0
40.19,1.413,2.76,116.0
40.196,1.422,2.541,102.0
135.136,4.813,7.818,10.0
121.046,4.338,6.353,16.0
0.0,0.0,0.0,0.0
40.129,1.458,3.021,9.0
40.192,1.47,2.81,119.0
45.554,1.676,2.934,5.0
135.91,5.033,8.026,13.0
121.088,4.512,6.5,17.0
0.0,0.0,0.0,0.0
0.0,0.0,0.0,0.0
40.203,1.527,2.858,150.0
0.0,0.0,0.0,0.0
135.652,5.216,8.167,11.0
120.855,4.675,6.626,18.0
0.0,0.0,0.0,0.0
0.0,0.0,0.0,0.0
40.203,1.584,2.903,150.0
43.737,1.734,2.918,56.0
45.572,1.817,2.794,16.0
120.833,4.847,6.759,24.0
0.0,0.0,0.0,0.0
0.0,0.0,0.0,0.0
40.199,1.642,2.947,150.0
0.0,0.0,0.0,0.0
45.539,1.882,2.841,60.0
120.902,5.025,6.891,20.0
23.498,0.983,2.002,0.0
23.548,0.991,1.878,0.0
40.173,1.7,2.987,33.0
41.958,1.785,2.888,3.0
45.58,1.95,2.891,6.0
23.605,1.015,1.369,39.0
23.576,1.021,2.033,41.0
23.575,1.026,1.905,42.0
23.571,1.032,1.777,41.0
23.559,1.037,1.645,42.0
23.559,1.042,1.518,55.0
23.564,1.048,1.391,64.0
23.55,1.055,2.055,75.0
23.545,1.06,1.926,75.0
23.54,1.066,1.797,71.0
23.553,1.072,1.668,72.0
23.559,1.077,1.54,71.0
23.562,1.083,1.413,73.0
41.922,1.175,0.437,154.0
0.0,0.0,0.0,0.0
40.143,1.098,-0.022,162.0
39.997,1.081,-0.246,44.0
33.047,0.882,-0.385,1.0
28.441,0.749,-0.488,2.0
70.84,1.836,0.741,25.0
70.605,1.806,0.35,23.0
0.0,0.0,0.0,0.0
41.44,1.032,-0.253,7.0
33.631,0.826,-0.39,1.0
29.046,0.704,-0.497,1.0
70.965,1.69,0.746,9.0
76.575,1.797,0.385,3.0
45.514,1.053,-0.02,0.0
41.368,0.943,-0.25,1.0
34.484,0.774,-0.397,1.0
29.2,0.646,-0.497,7.0
128.615,2.793,1.366,10.0
83.489,1.784,0.428,5.0
55.047,1.158,-0.019,3.0
41.375,0.856,-0.245,1.0
34.083,0.693,-0.388,4.0
29.088,0.582,-0.491,0.0
55.214,1.081,0.593,15.0
55.186,1.061,0.291,40.0
55.123,1.041,-0.01,25.0
42.348,0.786,-0.244,1.0
34.405,0.626,-0.387,0.0
32.237,0.576,-0.539,0.0
55.186,0.963,0.603,55.0
55.201,0.945,0.301,36.0
55.198,0.926,0.0,26.0
44.28,0.728,-0.247,2.0
19.684,0.316,-0.217,0.0
19.682,0.31,-0.325,2.0
19.758,0.303,0.22,1.0
19.811,0.297,0.112,0.0
56.954,0.834,0.012,1.0
19.682,0.281,-0.105,10.0
19.657,0.274,-0.212,16.0
19.675,0.267,-0.32,12.0
19.748,0.26,0.224,28.0
19.761,0.254,0.117,16.0
19.693,0.246,0.009,7.0
19.632,0.239,-0.099,16.0
19.644,0.232,-0.206,17.0
19.652,0.226,-0.314,15.0
19.749,0.219,0.23,18.0
19.686,0.211,0.122,9.0
19.647,0.204,0.015,13.0
19.625,0.197,-0.093,16.0
19.645,0.19,-0.2,15.0
19.669,0.184,-0.308,11.0
19.656,0.176,0.235,14.0
19.65,0.169,0.128,12.0
19.643,0.162,0.021,18.0
19.644,0.155,-0.086,12.0
19.69,0.149,-0.194,3.0
32.67,0.236,-0.5,0.0
19.648,0.134,0.242,13.0
19.65,0.128,0.136,14.0
19.642,0.121,0.029,12.0
19.7,0.114,-0.079,2.0
19.741,0.108,-0.187,0.0
19.761,0.101,-0.294,0.0
19.621,0.093,0.25,17.0
19.676,0.087,0.144,14.0
19.75,0.08,0.037,40.0
19.765,0.073,-0.071,64.0
19.765,0.066,-0.178,32.0
19.767,0.059,-0.286,44.0
19.622,0.052,0.259,15.0
19.742,0.045,0.153,15.0
19.719,0.038,0.046,21.0
19.738,0.032,-0.062,26.0
19.778,0.025,-0.169,1.0
19.748,0.018,-0.276,0.0
19.635,0.011,0.268,14.0
19.79,0.004,0.163,3.0
19.721,-0.002,0.055,9.0
19.724,-0.008,-0.052,10.0
19.743,-0.015,-0.159,9.0
19.767,-0.022,-0.267,1.0
19.643,-0.029,0.278,10.0
19.682,-0.036,0.172,12.0
19.689,-0.043,0.066,15.0
19.706,-0.049,-0.042,17.0
19.731,-0.056,-0.149,16.0
19.752,-0.063,-0.256,15.0
19.672,-0.07,0.289,10.0
19.709,-0.077,0.183,14.0
19.716,-0.084,0.077,13.0
19.707,-0.09,-0.031,13.0
19.711,-0.097,-0.137,16.0
19.741,-0.104,-0.244,17.0
140.258,-5.105,4.09,17.0
141.674,-5.2,3.38,3.0
162.273,-6.006,3.009,21.0
162.089,-6.048,2.131,4.0
0.0,0.0,0.0,0.0
0.0,0.0,0.0,0.0
141.669,-5.404,4.291,12.0
141.776,-5.45,3.543,20.0
162.227,-6.286,3.195,17.0
0.0,0.0,0.0,0.0
0.0,0.0,0.0,0.0
0.0,0.0,0.0,0.0
118.402,-4.718,3.723,21.0
141.546,-5.683,3.701,25.0
162.392,-6.567,3.387,5.0
101.527,-4.136,1.569,36.0
0.0,0.0,0.0,0.0
0.0,0.0,0.0,0.0
119.882,-4.978,3.911,19.0
139.897,-5.849,3.822,12.0
0.0,0.0,0.0,0.0
0.0,0.0,0.0,0.0
101.526,-4.334,1.153,1.0
0.0,0.0,0.0,0.0
119.4,-5.155,4.039,21.0
118.799,-5.163,3.39,3.0
142.53,-6.236,3.314,11.0
0.0,0.0,0.0,0.0
101.505,-4.498,1.277,14.0
0.0,0.0,0.0,0.0
116.884,-5.236,4.098,22.0
141.289,-6.368,4.206,12.0
163.374,-7.407,3.999,5.0
0.0,0.0,0.0,0.0
0.0,0.0,0.0,0.0
101.536,-4.69,0.868,150.0
116.93,-5.424,4.246,25.0
140.913,-6.574,4.372,20.0
150.471,-7.061,3.873,8.0
0.0,0.0,0.0,0.0
0.0,0.0,0.0,0.0
101.54,-4.848,0.996,153.0
117.441,-5.63,4.413,20.0
117.893,-5.681,3.807,22.0
139.222,-6.747,3.762,15.0
0.0,0.0,0.0,0.0
102.129,-5.005,1.673,1.0
101.546,-5.003,1.127,151.0
109.497,-5.416,4.257,14.0
117.577,-5.845,3.951,24.0
139.28,-6.962,3.946,19.0
0.0,0.0,0.0,0.0
0.0,0.0,0.0,0.0
0.0,0.0,0.0,0.0
116.965,-5.963,4.705,12.0
117.239,-6.005,4.097,12.0
138.865,-7.149,4.121,16.0
140.621,-7.277,3.419,24.0
0.0,0.0,0.0,0.0
101.526,-5.305,1.4,69.0
109.478,-5.741,4.551,18.0
109.656,-5.778,3.981,23.0
117.286,-6.208,3.64,14.0
140.645,-7.48,3.609,25.0
140.722,-7.519,2.87,7.0
0.0,0.0,0.0,0.0
108.184,-5.826,4.643,24.0
109.079,-5.901,4.108,27.0
117.041,-6.359,3.791,24.0
120.172,-6.559,3.248,4.0
140.72,-7.715,3.063,13.0
0.0,0.0,0.0,0.0
107.854,-5.958,4.778,24.0
108.848,-6.039,4.249,17.0
117.877,-6.566,3.981,8.0
119.869,-6.706,3.406,6.0
147.423,-8.283,3.414,34.0
140.7,-7.94,2.52,23.0
107.603,-6.089,4.917,24.0
107.984,-6.135,4.366,22.0
117.714,-6.716,4.14,12.0
117.16,-6.71,3.493,42.0
148.783,-8.556,3.655,17.0
149.041,-8.607,2.879,22.0
107.396,-6.219,5.061,24.0
107.848,-6.269,4.514,24.0
109.24,-6.374,3.997,29.0
117.203,-6.864,3.661,24.0
149.444,-8.786,3.883,14.0
148.805,-8.783,3.087,19.0
107.284,-6.351,5.209,26.0
107.729,-6.399,4.663,22.0
109.294,-6.516,4.157,27.0
117.592,-7.036,3.842,13.0
117.291,-7.043,3.218,37.0
117.548,-7.085,2.609,7.0
107.423,-6.493,5.371,22.0
107.751,-6.533,4.82,23.0
108.965,-6.63,4.301,27.0
109.864,-6.708,3.749,23.0
117.288,-7.186,3.388,19.0
117.339,-7.213,2.775,17.0
107.37,-6.619,5.525,32.0
107.405,-6.642,4.962,24.0
108.299,-6.72,4.435,23.0
108.99,-6.783,3.88,23.0
124.996,-7.805,3.794,13.0
117.19,-7.34,2.943,36.0
107.323,-6.741,5.681,30.0
107.644,-6.782,5.133,28.0
107.942,-6.822,4.58,26.0
108.71,-6.892,4.032,31.0
110.173,-7.005,3.508,14.0
117.002,-7.462,3.113,18.0
107.588,-6.881,5.857,22.0
107.417,-6.888,5.282,30.0
108.029,-6.947,4.744,37.0
109.261,-7.047,4.216,23.0
108.932,-7.046,3.631,28.0
116.939,-7.586,3.286,11.0
106.769,-6.944,5.972,21.0
107.299,-6.998,5.438,27.0
107.921,-7.056,4.904,24.0
108.334,-7.103,4.342,19.0
109.227,-7.181,3.807,20.0
109.64,-7.228,3.247,21.0
107.089,-7.079,6.154,15.0
106.959,-7.087,5.585,24.0
107.668,-7.152,5.056,23.0
107.808,-7.18,4.486,29.0
108.779,-7.262,3.956,23.0
109.074,-7.301,3.396,34.0
107.039,-7.183,6.313,33.0
107.063,-7.201,5.751,23.0
107.469,-7.245,5.208,26.0
107.864,-7.289,4.651,19.0
108.006,-7.315,4.091,22.0
109.138,-7.41,3.562,20.0
106.852,-7.272,6.463,25.0
107.14,-7.308,5.918,20.0
107.563,-7.353,5.376,21.0
108.186,-7.413,4.829,22.0
107.701,-7.395,4.243,25.0
108.359,-7.457,3.702,19.0
106.942,-7.379,6.634,15.0
107.193,-7.41,6.086,24.0
107.616,-7.455,5.544,23.0
108.134,-7.507,4.993,27.0
107.673,-7.489,4.406,23.0
107.4,-7.486,3.833,21.0
107.624,-7.521,6.842,15.0
107.211,-7.505,6.251,20.0
107.563,-7.544,5.707,22.0
107.902,-7.583,5.147,26.0
108.482,-7.639,4.607,22.0
107.47,-7.581,4.0,23.0
107.667,-7.614,7.01,17.0
107.505,-7.615,6.434,14.0
107.51,-7.629,5.87,20.0
107.831,-7.666,5.31,28.0
107.226,-7.637,4.719,7.0
107.534,-7.672,4.169,26.0
110.505,-7.904,7.367,18.0
107.792,-7.722,6.618,15.0
107.567,-7.719,6.04,23.0
107.81,-7.748,5.477,32.0
109.247,-7.864,4.976,8.0
107.482,-7.751,4.333,22.0
105.302,-7.612,7.185,18.0
109.113,-7.899,6.87,10.0
107.886,-7.822,6.226,21.0
107.778,-7.825,5.642,23.0
108.465,-7.887,5.109,21.0
107.354,-7.818,4.494,23.0
104.944,-7.662,7.323,21.0
107.729,-7.875,6.951,8.0
108.012,-7.906,6.401,22.0
107.739,-7.897,5.807,25.0
108.046,-7.93,5.257,27.0
107.139,-7.875,4.652,16.0
109.818,-8.092,7.834,11.0
105.623,-7.791,6.978,17.0
107.992,-7.976,6.567,23.0
107.974,-7.985,5.988,24.0
108.075,-8.002,5.427,24.0
109.143,-8.092,4.909,15.0
104.871,-7.794,7.646,7.0
105.609,-7.857,7.144,21.0
107.874,-8.034,6.728,21.0
108.207,-8.067,6.17,16.0
107.935,-8.056,5.588,19.0
108.488,-8.107,5.048,21.0
106.402,-7.971,7.925,12.0
105.572,-7.917,7.307,14.0
107.963,-8.104,6.904,11.0
108.227,-8.131,6.341,21.0
108.151,-8.133,5.769,17.0
108.47,-8.166,5.216,23.0
104.829,-7.911,7.972,16.0
106.748,-8.062,7.555,13.0
105.66,-7.987,6.921,11.0
108.206,-8.186,6.508,20.0
108.383,-8.206,5.948,18.0
108.323,-8.209,5.377,27.0
104.847,-7.966,8.136,16.0
106.405,-8.089,7.694,22.0
105.725,-8.043,7.088,16.0
106.379,-8.099,6.561,10.0
108.473,-8.263,6.12,21.0
108.222,-8.251,5.538,23.0
108.516,-8.294,8.589,3.0
106.286,-8.127,7.851,16.0
111.269,-8.514,7.631,8.0
106.309,-8.139,6.72,21.0
108.658,-8.323,6.297,14.0
108.544,-8.32,5.719,21.0
110.155,-8.464,8.887,3.0
108.751,-8.36,8.199,4.0
106.407,-8.184,7.46,10.0
106.204,-8.172,6.875,18.0
106.714,-8.215,6.346,14.0
108.562,-8.362,5.884,20.0
107.211,-8.279,8.813,21.0
108.137,-8.352,8.317,12.0
106.36,-8.218,7.619,32.0
105.995,-8.193,7.022,13.0
106.434,-8.229,6.491,8.0
108.116,-8.363,6.024,17.0
107.553,-8.341,9.005,16.0
107.503,-8.338,8.432,20.0
106.276,-8.245,7.774,23.0
104.853,-8.137,7.105,16.0
106.329,-8.254,6.645,16.0
108.354,-8.412,6.202,15.0
107.057,-8.333,9.128,20.0
107.525,-8.371,8.597,17.0
106.348,-8.28,7.941,20.0
104.814,-8.161,7.263,16.0
106.193,-8.27,6.797,21.0
106.729,-8.313,6.269,16.0
107.132,-8.365,9.296,18.0
109.094,-8.518,8.888,16.0
107.465,-8.391,8.186,16.0
106.387,-8.306,7.53,24.0
0.0,0.0,0.0,0.0
106.595,-8.324,6.419,15.0
106.924,-8.372,9.438,14.0
107.976,-8.452,8.958,10.0
107.789,-8.436,8.372,10.0
106.2,-8.311,7.676,30.0
104.873,-8.207,7.025,18.0
106.521,-8.335,6.572,18.0
107.654,-8.446,9.664,13.0
107.337,-8.419,9.065,13.0
0.0,0.0,0.0,0.0
106.228,-8.327,7.835,29.0
104.813,-8.215,7.177,23.0
106.429,-8.34,6.724,19.0
107.196,-8.423,9.782,13.0
107.148,-8.415,9.209,19.0
108.458,-8.515,8.744,14.0
106.362,-8.348,8.0,16.0
106.636,-8.366,7.456,11.0
0.0,0.0,0.0,0.0
49.435,-3.888,4.583,3.0
106.998,-8.41,9.35,20.0
108.036,-8.488,8.867,8.0
107.465,-8.44,8.238,15.0
106.323,-8.346,7.586,26.0
104.894,-8.231,6.929,20.0
49.383,-3.885,4.649,17.0
107.168,-8.427,9.519,17.0
107.933,-8.482,9.012,10.0
109.667,-8.613,8.563,7.0
106.225,-8.339,7.731,30.0
104.822,-8.224,7.074,22.0
49.348,-3.882,4.717,35.0
107.658,-8.463,9.717,16.0
107.228,-8.424,9.107,15.0
0.0,0.0,0.0,0.0
106.294,-8.339,7.886,22.0
104.801,-8.217,7.22,18.0
49.39,-3.883,4.791,16.0
106.896,-8.396,9.799,14.0
107.128,-8.408,9.249,20.0
109.449,-8.584,8.856,5.0
106.347,-8.335,8.038,11.0
106.472,-8.338,7.483,16.0
49.451,-3.883,4.866,6.0
49.382,-3.874,4.596,4.0
106.918,-8.38,9.379,16.0
108.28,-8.479,8.91,17.0
107.722,-8.429,8.289,12.0
106.252,-8.307,7.612,31.0
105.905,-8.302,10.567,21.0
49.351,-3.864,4.66,20.0
107.397,-8.401,9.567,10.0
107.891,-8.432,9.024,13.0
107.516,-8.394,8.42,15.0
106.238,-8.288,7.753,24.0
106.097,-8.298,10.731,15.0
49.355,-3.856,4.727,37.0
109.772,-8.567,9.926,8.0
107.059,-8.346,9.098,20.0
107.472,-8.368,8.56,21.0
106.346,-8.273,7.902,18.0
106.173,-8.281,10.881,17.0
49.402,-3.848,4.798,23.0
107.198,-8.341,9.836,12.0
107.051,-8.319,9.239,19.0
107.338,-8.331,8.691,20.0
106.594,-8.264,8.062,15.0
106.055,-8.245,11.01,16.0
49.456,-3.84,4.868,17.0
49.458,-3.834,4.603,3.0
107.12,-8.294,9.385,13.0
107.248,-8.294,8.822,21.0
108.322,-8.366,8.332,12.0
49.234,-3.812,5.175,8.0
106.406,-8.228,10.611,18.0
49.438,-3.818,4.664,12.0
107.373,-8.279,9.543,15.0
107.35,-8.267,8.966,15.0
108.451,-8.341,8.477,11.0
49.244,-3.797,5.238,16.0
106.757,-8.219,10.78,18.0
49.402,-3.797,4.722,29.0
107.356,-8.24,9.675,17.0
110.114,-8.44,9.333,6.0
104.747,-8.017,8.316,9.0
49.225,-3.777,5.297,20.0
106.522,-8.161,10.888,21.0
49.405,-3.778,4.783,19.0
107.169,-8.184,9.788,19.0
108.796,-8.296,9.351,5.0
104.616,-7.964,8.431,15.0
49.244,-3.758,5.358,16.0
106.132,-8.087,10.975,19.0
49.402,-3.757,4.842,9.0
107.115,-8.133,9.91,20.0
108.366,-8.215,9.442,17.0
104.553,-7.912,8.549,17.0
49.205,-3.733,5.413,11.0
107.033,-8.107,11.194,16.0
106.707,-8.066,10.584,19.0
107.116,-8.083,10.035,21.0
107.308,-8.083,9.475,21.0
107.336,-8.072,8.899,7.0
107.094,-8.074,11.905,24.0
106.898,-8.043,11.304,19.0
106.623,-8.008,10.696,20.0
107.123,-8.029,10.157,16.0
107.126,-8.015,9.578,22.0
107.142,-8.002,9.002,16.0
107.253,-8.031,12.043,21.0
49.297,-3.683,5.267,11.0
107.254,-7.999,10.878,18.0
49.456,-3.68,4.743,12.0
107.108,-7.956,9.693,15.0
107.112,-7.941,9.116,15.0
107.803,-8.012,12.223,20.0
49.283,-3.655,5.319,14.0
107.103,-7.926,10.979,18.0
49.501,-3.656,4.8,8.0
109.451,-8.066,10.022,11.0
107.116,-7.879,9.229,14.0
107.815,-7.95,12.339,19.0
49.277,-3.625,5.371,5.0
106.677,-7.83,11.047,18.0
49.489,-3.624,4.851,23.0
109.348,-7.992,10.125,22.0
107.279,-7.823,9.354,13.0
107.747,-7.877,12.443,20.0
106.945,-7.8,11.766,23.0
106.824,-7.773,11.171,16.0
49.487,-3.593,4.9,14.0
109.378,-7.923,10.237,21.0
107.047,-7.737,9.439,14.0
107.783,-7.809,12.555,3.0
106.931,-7.728,11.871,24.0
106.717,-7.695,11.264,21.0
106.872,-7.686,10.688,24.0
109.244,-7.839,10.33,14.0
111.499,-7.982,9.939,8.0
0.0,0.0,0.0,0.0
107.522,-7.696,12.04,25.0
106.755,-7.622,11.37,21.0
107.005,-7.621,10.803,19.0
107.96,-7.67,10.311,17.0
108.22,-7.67,9.747,5.0
0.0,0.0,0.0,0.0
107.541,-7.618,12.142,24.0
106.49,-7.524,11.441,23.0
106.778,-7.525,10.877,16.0
106.728,-7.503,10.289,18.0
108.156,-7.583,9.839,8.0
0.0,0.0,0.0,0.0
107.774,-7.553,12.265,17.0
106.536,-7.446,11.54,20.0
106.748,-7.44,10.968,17.0
107.875,-7.498,10.495,18.0
108.054,-7.492,9.922,7.0
0.0,0.0,0.0,0.0
107.887,-7.475,12.371,7.0
107.6,-7.435,11.746,22.0
106.691,-7.352,11.051,16.0
107.978,-7.419,10.594,21.0
111.122,-7.615,10.295,16.0
0.0,0.0,0.0,0.0
0.0,0.0,0.0,0.0
107.715,-7.352,11.847,17.0
106.844,-7.273,11.153,20.0
108.363,-7.355,10.718,19.0
108.184,-7.323,10.108,9.0
0.0,0.0,0.0,0.0
0.0,0.0,0.0,0.0
107.691,-7.26,11.927,2.0
106.745,-7.175,11.224,15.0
108.277,-7.256,10.791,18.0
108.013,-7.217,10.173,18.0
0.0,0.0,0.0,0.0
0.0,0.0,0.0,0.0
0.0,0.0,0.0,0.0
111.58,-7.4,11.815,4.0
107.832,-7.13,10.825,23.0
107.598,-7.093,10.211,19.0
0.0,0.0,0.0,0.0
0.0,0.0,0.0,0.0
0.0,0.0,0.0,0.0
0.0,0.0,0.0,0.0
107.819,-7.031,10.896,10.0
107.56,-6.992,10.279,23.0
0.0,0.0,0.0,0.0
0.0,0.0,0.0,0.0
0.0,0.0,0.0,0.0
0.0,0.0,0.0,0.0
107.801,-6.929,10.963,23.0
107.573,-6.892,10.348,10.0
0.0,0.0,0.0,0.0
0.0,0.0,0.0,0.0
0.0,0.0,0.0,0.0
0.0,0.0,0.0,0.0
107.845,-6.828,11.032,3.0
107.792,-6.802,10.432,16.0
0.0,0.0,0.0,0.0
0.0,0.0,0.0,0.0
0.0,0.0,0.0,0.0
0.0,0.0,0.0,0.0
107.797,-6.719,11.088,1.0
107.806,-6.696,10.493,18.0
0.0,0.0,0.0,0.0
0.0,0.0,0.0,0.0
0.0,0.0,0.0,0.0
0.0,0.0,0.0,0.0
0.0,0.0,0.0,0.0
111.877,-6.836,10.947,5.0
0.0,0.0,0.0,0.0
0.0,0.0,0.0,0.0
0.0,0.0,0.0,0.0
0.0,0.0,0.0,0.0
0.0,0.0,0.0,0.0
0.0,0.0,0.0,0.0
0.0,0.0,0.0,0.0
0.0,0.0,0.0,0.0
0.0,0.0,0.0,0.0
0.0,0.0,0.0,0.0
0.0,0.0,0.0,0.0
0.0,0.0,0.0,0.0
