X,Y,Z,Reflectivity
82.871,7.464,7.279,46.0
82.883,7.476,6.81,62.0
82.887,7.489,6.333,61.0
82.898,7.503,5.865,79.0
82.891,7.515,5.396,49.0
82.853,7.554,7.721,13.0
82.87,7.567,7.252,11.0
82.897,7.581,6.784,11.0
82.886,7.591,6.304,49.0
82.951,7.609,5.84,8.0
82.908,7.619,5.368,7.0
82.932,7.663,7.698,2.0
83.078,7.687,7.239,2.0
82.923,7.684,6.755,5.0
82.862,7.69,6.27,14.0
82.99,7.714,5.81,5.0
83.138,7.74,5.35,1.0
85.853,8.036,7.935,10.0
85.802,8.042,7.442,10.0
85.795,8.052,6.953,4.0
82.902,7.793,6.239,4.0
82.927,7.807,5.771,4.0
85.574,8.069,5.469,10.0
84.414,8.002,7.764,9.0
84.432,8.014,7.284,7.0
83.41,7.927,6.721,10.0
82.977,7.897,6.206,3.0
83.004,7.91,5.738,4.0
84.496,8.064,5.361,9.0
83.546,8.015,7.644,10.0
83.439,8.015,7.158,10.0
83.279,8.009,6.671,11.0
82.962,7.988,6.165,4.0
83.051,8.008,5.699,8.0
83.268,8.039,5.243,8.0
83.054,8.061,7.557,2.0
82.806,8.046,7.061,1.0
0.0,0.0,0.0,0.0
75.216,7.325,5.549,1.0
75.212,7.334,5.122,1.0
75.082,7.332,4.686,1.0
75.102,7.371,6.791,5.0
75.121,7.381,6.363,4.0
75.056,7.383,5.93,5.0
75.027,7.389,5.492,6.0
75.06,7.4,5.068,7.0
75.058,7.409,4.641,8.0
75.035,7.444,6.741,20.0
75.046,7.453,6.313,23.0
75.035,7.459,5.883,24.0
75.025,7.467,5.447,24.0
75.056,7.478,5.022,30.0
75.05,7.487,4.595,29.0
75.031,7.521,6.694,42.0
75.041,7.529,6.265,40.0
75.037,7.536,5.836,45.0
75.031,7.543,5.4,48.0
75.033,7.551,4.973,44.0
75.027,7.559,4.545,35.0
75.035,7.596,6.645,10.0
75.039,7.603,6.215,128.0
75.08,7.615,5.789,8.0
75.03,7.617,5.349,8.0
75.049,7.627,4.923,7.0
75.085,7.639,4.497,7.0
75.122,7.678,6.6,6.0
75.035,7.675,6.163,102.0
75.099,7.688,5.738,3.0
75.111,7.697,5.302,3.0
75.193,7.712,4.879,2.0
75.203,7.721,4.451,2.0
70.961,7.318,6.184,2.0
70.931,7.321,5.774,1.0
70.879,7.321,5.364,2.0
70.975,7.337,4.958,2.0
70.972,7.344,4.553,2.0
70.95,7.348,4.147,2.0
70.945,7.38,6.129,5.0
70.91,7.382,5.718,5.0
70.883,7.384,5.311,5.0
70.866,7.388,4.896,6.0
70.917,7.4,4.495,6.0
70.884,7.402,4.089,5.0
70.864,7.431,6.067,11.0
70.853,7.435,5.658,14.0
70.892,7.444,5.256,16.0
70.884,7.449,4.842,15.0
70.892,7.456,4.437,18.0
70.88,7.461,4.032,19.0
70.863,7.489,6.009,43.0
70.861,7.494,5.601,63.0
70.865,7.499,5.195,80.0
70.859,7.504,4.782,97.0
70.879,7.511,4.378,116.0
70.881,7.517,3.973,126.0
70.854,7.544,5.948,28.0
70.866,7.55,5.542,27.0
70.867,7.554,5.135,27.0
70.861,7.559,4.721,27.0
70.879,7.565,4.317,28.0
70.876,7.57,3.912,24.0
70.869,7.599,5.888,9.0
70.902,7.605,5.483,8.0
70.88,7.607,5.075,9.0
70.883,7.612,4.661,9.0
70.898,7.618,4.256,9.0
70.908,7.625,3.851,9.0
70.908,7.653,5.827,4.0
70.877,7.653,5.417,4.0
70.896,7.658,5.012,5.0
70.919,7.665,4.6,4.0
70.9,7.668,4.192,4.0
70.932,7.675,3.788,4.0
70.97,7.707,5.767,2.0
70.937,7.707,5.356,2.0
70.932,7.709,4.948,2.0
71.031,7.723,4.541,2.0
70.94,7.718,4.128,2.0
71.002,7.728,3.726,2.0
73.804,8.061,5.927,7.0
73.701,8.053,5.494,6.0
73.417,8.025,5.051,6.0
73.468,8.034,4.626,4.0
73.698,8.063,4.217,6.0
73.869,8.085,3.805,7.0
73.494,8.072,5.829,11.0
73.521,8.077,5.408,9.0
73.327,8.058,4.973,10.0
73.182,8.045,4.535,9.0
73.209,8.051,4.118,9.0
73.416,8.077,3.709,9.0
72.984,8.055,5.716,10.0
73.195,8.08,5.311,10.0
73.214,8.085,4.891,11.0
73.044,8.068,4.454,11.0
72.857,8.05,4.025,9.0
72.923,8.061,3.61,7.0
72.444,8.032,5.601,9.0
72.692,8.061,5.201,9.0
72.849,8.08,4.793,10.0
72.916,8.089,4.372,11.0
72.8,8.079,3.947,9.0
72.592,8.059,3.52,9.0
72.265,8.046,5.511,9.0
72.201,8.04,5.091,8.0
72.419,8.066,4.689,8.0
72.62,8.089,4.278,10.0
72.708,8.101,3.866,10.0
72.533,8.084,3.441,10.0
72.22,8.072,5.431,11.0
72.048,8.053,5.003,9.0
72.023,8.051,4.587,4.0
72.246,8.078,4.178,8.0
72.419,8.098,3.773,11.0
72.464,8.106,3.359,10.0
72.094,8.085,5.343,9.0
72.054,8.081,4.925,10.0
71.881,8.062,4.5,7.0
71.766,8.05,4.073,4.0
72.085,8.087,3.677,6.0
72.22,8.104,3.27,9.0
71.84,8.081,5.245,7.0
71.945,8.093,4.838,10.0
71.884,8.086,4.42,8.0
71.708,8.067,3.99,7.0
71.67,8.063,3.577,2.0
71.982,8.1,3.18,5.0
71.456,8.059,5.137,3.0
71.7,8.086,4.741,8.0
71.83,8.1,4.336,9.0
71.737,8.09,3.912,9.0
71.571,8.072,3.492,6.0
71.537,8.069,3.079,2.0
71.218,8.05,5.039,4.0
71.292,8.058,4.633,3.0
71.592,8.091,4.241,8.0
71.703,8.103,3.827,9.0
71.65,8.098,3.413,7.0
71.401,8.07,2.991,4.0
71.252,8.069,4.958,9.0
71.082,8.048,4.537,6.0
71.217,8.063,4.135,4.0
71.545,8.099,3.736,6.0
71.646,8.111,3.329,7.0
71.287,8.07,2.904,2.0
71.334,8.09,4.881,10.0
71.203,8.074,4.461,9.0
70.999,8.049,4.04,7.0
71.259,8.078,3.637,2.0
71.537,8.109,3.241,4.0
57.249,6.489,2.265,2.0
71.248,8.089,4.791,9.0
71.31,8.094,4.384,9.0
71.153,8.074,3.965,9.0
70.985,8.054,3.54,3.0
71.251,8.083,3.145,2.0
57.259,6.495,2.199,6.0
71.023,8.069,4.692,7.0
71.325,8.1,4.301,8.0
71.325,8.098,3.89,8.0
71.213,8.084,3.467,7.0
71.032,8.062,3.05,4.0
57.295,6.502,2.131,11.0
70.815,8.047,4.593,7.0
71.232,8.092,4.209,7.0
71.407,8.109,3.809,7.0
71.364,8.102,3.389,8.0
71.145,8.076,2.969,4.0
57.284,6.501,2.062,12.0
70.917,8.057,4.513,9.0
70.925,8.056,4.104,6.0
71.31,8.096,3.717,4.0
71.475,8.112,3.307,6.0
57.232,6.494,2.319,1.0
57.304,6.501,1.993,12.0
71.154,8.08,4.441,9.0
70.995,8.058,4.022,8.0
71.074,8.064,3.617,2.0
71.427,8.102,3.217,3.0
57.278,6.495,2.251,3.0
57.368,6.503,1.925,10.0
71.414,8.102,4.369,9.0
71.315,8.087,3.952,8.0
71.179,8.068,3.534,3.0
71.246,8.072,3.12,1.0
57.344,6.495,2.182,5.0
57.458,6.506,1.856,10.0
71.477,8.098,4.283,8.0
71.58,8.106,3.877,8.0
71.477,8.09,3.459,7.0
71.316,8.068,3.035,4.0
57.463,6.498,2.115,6.0
57.59,6.511,1.789,9.0
71.506,8.088,4.195,5.0
71.713,8.106,3.794,7.0
71.822,8.114,3.387,9.0
71.563,8.081,2.956,3.0
57.634,6.505,2.049,6.0
57.707,6.511,1.721,8.0
71.36,8.054,4.097,4.0
71.881,8.108,3.712,4.0
71.969,8.113,3.303,9.0
57.614,6.491,2.307,2.0
57.815,6.51,1.983,6.0
57.881,6.515,1.653,9.0
71.726,8.074,4.027,7.0
71.663,8.061,3.611,2.0
72.11,8.106,3.218,7.0
57.829,6.497,2.242,5.0
57.916,6.504,1.913,9.0
58.054,6.516,1.585,10.0
72.125,8.095,3.958,10.0
72.031,8.079,3.538,6.0
72.068,8.077,3.125,5.0
57.987,6.495,2.176,5.0
58.117,6.506,1.847,8.0
58.233,6.515,1.516,11.0
72.502,8.109,3.886,10.0
72.446,8.097,3.467,9.0
72.283,8.072,3.043,7.0
58.235,6.499,2.111,5.0
58.35,6.508,1.78,10.0
58.462,6.516,1.448,9.0
72.759,8.107,3.808,10.0
72.868,8.113,3.394,11.0
72.706,8.088,2.969,4.0
58.492,6.502,2.046,9.0
58.588,6.508,1.714,10.0
58.717,6.518,1.381,8.0
72.919,8.09,3.724,8.0
73.236,8.119,3.319,10.0
58.677,6.499,2.322,2.0
58.776,6.505,1.982,10.0
58.888,6.512,1.648,12.0
58.998,6.52,1.313,9.0
73.013,8.063,3.635,8.0
73.349,8.092,3.231,10.0
58.983,6.501,2.258,4.0
59.071,6.505,1.917,6.0
59.145,6.508,1.58,6.0
59.238,6.514,1.243,5.0
73.461,8.07,3.565,8.0
73.494,8.066,3.144,7.0
59.288,6.501,2.196,3.0
59.366,6.503,1.852,4.0
59.51,6.514,1.516,6.0
59.598,6.518,1.176,6.0
71.123,7.77,3.362,1.0
70.97,7.745,2.947,2.0
59.614,6.499,2.134,3.0
59.768,6.51,1.79,7.0
59.884,6.517,1.45,7.0
59.937,6.517,1.108,6.0
70.899,7.7,3.263,3.0
70.899,7.691,2.855,2.0
59.941,6.495,2.07,8.0
60.11,6.507,1.726,5.0
60.219,6.513,1.382,4.0
60.309,6.517,1.04,2.0
70.911,7.651,3.174,8.0
60.264,6.495,2.352,0.0
60.441,6.507,2.012,4.0
60.571,6.514,1.663,5.0
60.682,6.519,1.319,6.0
60.779,6.523,0.972,6.0
70.886,7.596,3.085,27.0
60.736,6.5,2.295,2.0
60.889,6.509,1.951,5.0
60.979,6.512,1.599,9.0
61.128,6.52,1.253,7.0
61.249,6.526,0.905,10.0
70.903,7.542,2.999,150.0
61.174,6.499,2.236,6.0
61.311,6.505,1.89,9.0
61.474,6.515,1.537,11.0
61.627,6.524,1.188,11.0
61.777,6.533,0.838,11.0
70.906,7.484,2.912,16.0
61.692,6.502,2.18,9.0
61.856,6.511,1.831,10.0
62.009,6.519,1.474,13.0
62.168,6.528,1.123,11.0
62.275,6.532,0.768,10.0
70.988,7.43,2.829,4.0
62.24,6.505,2.124,5.0
62.417,6.514,1.772,7.0
62.54,6.519,1.412,8.0
62.686,6.526,1.055,9.0
62.836,6.533,0.699,12.0
62.671,6.501,2.422,6.0
62.831,6.508,2.068,12.0
62.985,6.515,1.712,11.0
63.144,6.522,1.349,10.0
63.293,6.529,0.991,9.0
63.434,6.535,0.63,11.0
63.258,6.501,2.368,5.0
63.381,6.504,2.01,9.0
63.602,6.517,1.654,11.0
63.703,6.518,1.285,11.0
63.835,6.523,0.924,9.0
63.979,6.528,0.561,6.0
63.921,6.505,2.318,6.0
64.074,6.509,1.956,7.0
64.174,6.51,1.592,9.0
64.306,6.514,1.222,11.0
64.441,6.518,0.857,9.0
64.609,6.526,0.49,5.0
64.608,6.507,2.266,12.0
64.763,6.512,1.902,9.0
64.842,6.51,1.534,8.0
65.063,6.522,1.161,7.0
65.207,6.526,0.792,6.0
49.875,4.984,0.321,1.0
65.246,6.5,2.214,5.0
65.417,6.506,1.846,9.0
65.56,6.51,1.476,9.0
65.8,6.522,1.099,9.0
65.937,6.526,0.726,7.0
49.908,4.932,0.264,9.0
66.034,6.504,2.166,10.0
66.185,6.507,1.793,11.0
66.366,6.514,1.42,9.0
66.579,6.524,1.038,9.0
66.776,6.532,0.66,8.0
0.0,0.0,0.0,0.0
66.754,6.497,2.114,8.0
66.984,6.507,1.74,6.0
67.175,6.514,1.362,6.0
67.37,6.521,0.975,9.0
67.596,6.532,0.592,6.0
47.593,4.591,0.146,21.0
67.671,6.504,2.069,8.0
67.934,6.516,1.69,7.0
68.048,6.516,1.305,10.0
68.243,6.522,0.913,11.0
68.418,6.527,0.525,3.0
46.992,4.475,0.093,21.0
68.599,6.508,2.023,7.0
68.809,6.515,1.637,8.0
69.016,6.521,1.249,9.0
69.182,6.525,0.851,8.0
69.337,6.527,0.459,0.0
46.55,4.374,0.043,20.0
69.548,6.509,1.977,9.0
69.768,6.516,1.587,9.0
69.993,6.523,1.193,10.0
70.187,6.529,0.79,9.0
53.063,4.926,0.295,2.0
46.269,4.287,-0.004,22.0
70.581,6.512,1.933,11.0
70.826,6.521,1.537,11.0
70.998,6.523,1.138,10.0
71.198,6.528,0.729,9.0
48.044,4.396,0.219,3.0
46.118,4.211,-0.051,21.0
71.584,6.509,1.888,10.0
71.857,6.518,1.487,9.0
72.064,6.523,1.082,8.0
72.293,6.528,0.667,8.0
47.561,4.286,0.168,21.0
44.52,4.004,-0.094,2.0
72.722,6.51,1.846,8.0
72.963,6.517,1.437,9.0
73.222,6.525,1.026,8.0
73.454,6.531,0.606,7.0
47.169,4.184,0.121,21.0
40.087,3.548,-0.124,53.0
73.855,6.506,1.803,9.0
74.157,6.516,1.389,9.0
74.334,6.517,0.97,8.0
74.589,6.524,0.543,3.0
40.105,3.499,0.065,109.0
40.063,3.488,-0.162,68.0
75.127,6.508,1.762,8.0
75.369,6.513,1.34,7.0
40.11,3.457,0.486,7.0
40.077,3.446,0.254,70.0
40.084,3.438,0.027,55.0
40.012,3.424,-0.199,45.0
40.116,3.415,0.904,110.0
40.108,3.405,0.676,109.0
40.099,3.395,0.449,110.0
40.103,3.387,0.218,147.0
40.099,3.378,-0.009,150.0
39.899,3.353,-0.234,17.0
40.115,3.353,0.867,109.0
40.115,3.344,0.64,111.0
40.103,3.334,0.413,119.0
40.097,3.325,0.182,150.0
40.113,3.318,-0.044,113.0
38.711,3.193,-0.261,14.0
40.094,3.289,0.832,150.0
40.098,3.279,0.605,126.0
40.1,3.271,0.378,150.0
40.071,3.259,0.147,33.0
40.078,3.251,-0.078,57.0
36.68,2.967,-0.279,7.0
41.907,3.371,0.834,107.0
41.911,3.361,0.597,115.0
41.915,3.352,0.36,124.0
0.0,0.0,0.0,0.0
40.072,3.185,-0.112,37.0
35.617,2.823,-0.3,11.0
41.901,3.301,0.799,127.0
41.909,3.292,0.563,128.0
41.894,3.281,0.326,143.0
41.869,3.27,0.085,41.0
41.726,3.249,-0.15,55.0
33.698,2.616,-0.311,2.0
43.704,3.372,0.799,132.0
43.704,3.361,0.552,138.0
43.695,3.35,0.306,150.0
41.906,3.202,0.053,132.0
41.79,3.184,-0.182,35.0
33.179,2.52,-0.332,8.0
43.7,3.297,0.766,138.0
43.7,3.286,0.519,144.0
43.69,3.274,0.273,80.0
40.316,3.012,0.02,44.0
40.301,3.001,-0.206,36.0
32.478,2.411,-0.349,10.0
40.363,2.977,0.677,75.0
40.367,2.966,0.45,72.0
40.379,2.957,0.223,104.0
40.311,2.942,-0.008,50.0
40.099,2.916,-0.233,22.0
31.733,2.3,-0.363,9.0
41.125,2.961,0.661,100.0
41.365,2.967,0.432,131.0
41.547,2.97,0.2,88.0
40.352,2.874,-0.035,33.0
0.0,0.0,0.0,0.0
31.04,2.195,-0.376,9.0
42.046,2.953,0.648,150.0
42.354,2.963,0.414,90.0
42.778,2.982,0.178,31.0
40.316,2.8,-0.062,39.0
37.488,2.594,-0.268,5.0
30.32,2.09,-0.387,8.0
43.625,2.986,0.644,7.0
41.787,2.849,0.382,3.0
42.187,2.865,0.149,11.0
40.323,2.728,-0.087,44.0
36.201,2.439,-0.281,5.0
29.722,1.995,-0.398,8.0
45.045,3.001,0.638,125.0
45.216,3.0,0.386,115.0
45.026,2.975,0.132,19.0
40.321,2.653,-0.111,43.0
35.741,2.342,-0.299,4.0
29.606,1.933,-0.414,8.0
100.125,6.486,1.359,9.0
100.683,6.495,0.803,6.0
45.19,2.903,0.107,121.0
40.318,2.579,-0.134,45.0
35.419,2.255,-0.316,11.0
29.124,1.846,-0.423,8.0
45.218,2.845,0.589,9.0
45.214,2.831,0.336,83.0
45.162,2.815,0.082,48.0
40.316,2.502,-0.155,48.0
34.801,2.15,-0.329,9.0
28.797,1.771,-0.433,8.0
113.038,6.897,1.415,12.0
62.469,3.793,0.432,5.0
45.179,2.731,0.06,47.0
40.316,2.426,-0.175,45.0
33.926,2.031,-0.337,9.0
28.426,1.695,-0.441,7.0
45.23,2.673,0.544,5.0
45.23,2.66,0.292,1.0
45.177,2.644,0.039,44.0
40.328,2.349,-0.194,40.0
33.863,1.963,-0.352,7.0
28.232,1.628,-0.451,7.0
113.668,6.499,1.317,7.0
45.202,2.571,0.271,41.0
45.178,2.556,0.019,38.0
40.309,2.269,-0.211,37.0
33.38,1.869,-0.361,10.0
28.276,1.575,-0.463,3.0
120.035,6.63,1.342,6.0
45.179,2.481,0.253,4.0
45.187,2.469,0.001,29.0
40.298,2.19,-0.226,33.0
33.141,1.791,-0.371,10.0
28.184,1.515,-0.472,4.0
45.231,2.409,0.489,1.0
45.19,2.393,0.236,8.0
45.172,2.378,-0.014,11.0
40.26,2.108,-0.241,24.0
31.933,1.663,-0.369,2.0
27.641,1.431,-0.473,2.0
45.239,2.32,0.473,119.0
45.196,2.303,0.222,39.0
45.205,2.291,-0.029,8.0
40.106,2.02,-0.253,15.0
32.508,1.628,-0.386,3.0
27.465,1.367,-0.478,1.0
23.634,1.164,0.24,3.0
23.627,1.157,0.109,18.0
23.652,1.151,-0.022,36.0
23.647,1.143,-0.156,37.0
23.639,1.136,-0.287,36.0
23.631,1.128,-0.418,37.0
23.6,1.115,0.233,56.0
23.591,1.107,0.102,61.0
23.593,1.1,-0.028,60.0
23.592,1.093,-0.161,66.0
23.61,1.087,-0.292,71.0
23.614,1.08,-0.423,75.0
23.595,1.067,0.228,74.0
23.588,1.06,0.097,62.0
23.598,1.053,-0.033,49.0
23.612,1.047,-0.166,45.0
23.614,1.04,-0.297,47.0
23.636,1.033,-0.428,45.0
23.623,1.021,0.223,42.0
23.642,1.014,0.093,33.0
40.323,1.718,-0.064,9.0
23.638,1.0,-0.17,1.0
23.633,0.992,-0.301,0.0
27.147,1.131,-0.496,7.0
40.387,1.663,0.376,21.0
40.384,1.65,0.152,150.0
40.34,1.635,-0.07,150.0
39.843,1.602,-0.293,6.0
40.618,1.62,-0.524,0.0
27.238,1.078,-0.502,7.0
163.406,-4.262,4.041,3.0
0.0,0.0,0.0,0.0
161.905,-4.326,2.281,20.0
162.161,-4.385,1.407,3.0
0.0,0.0,0.0,0.0
0.0,0.0,0.0,0.0
163.316,-4.56,4.212,4.0
167.759,-4.737,3.435,15.0
163.673,-4.674,2.482,8.0
161.951,-4.674,1.579,6.0
0.0,0.0,0.0,0.0
0.0,0.0,0.0,0.0
163.257,-4.853,4.388,15.0
0.0,0.0,0.0,0.0
162.412,-4.929,2.64,4.0
161.901,-4.965,1.757,14.0
160.708,-4.977,0.892,4.0
0.0,0.0,0.0,0.0
163.204,-5.143,4.568,16.0
163.172,-5.193,3.702,4.0
162.226,-5.21,2.82,24.0
161.945,-5.251,1.94,29.0
160.797,-5.264,1.075,10.0
0.0,0.0,0.0,0.0
140.145,-4.661,4.082,15.0
163.354,-5.482,3.892,16.0
162.222,-5.493,3.007,21.0
162.107,-5.537,2.128,20.0
160.772,-5.541,1.26,7.0
0.0,0.0,0.0,0.0
139.926,-4.893,4.238,14.0
163.389,-5.764,4.085,8.0
162.23,-5.769,3.196,16.0
162.122,-5.814,2.319,21.0
162.307,-5.868,1.463,10.0
0.0,0.0,0.0,0.0
138.379,-5.074,4.357,16.0
163.483,-6.043,4.282,4.0
162.27,-6.045,3.392,9.0
104.98,-3.941,1.629,2.0
0.0,0.0,0.0,0.0
0.0,0.0,0.0,0.0
125.021,-4.792,4.088,13.0
142.479,-5.503,3.906,21.0
162.767,-6.333,3.601,4.0
0.0,0.0,0.0,0.0
0.0,0.0,0.0,0.0
101.759,-4.048,0.631,1.0
124.876,-4.993,4.24,8.0
141.813,-5.711,4.066,13.0
163.392,-6.625,3.822,4.0
0.0,0.0,0.0,0.0
101.534,-4.174,1.293,21.0
101.476,-4.201,0.757,150.0
126.934,-5.281,4.472,7.0
118.866,-4.977,3.56,13.0
142.545,-6.009,3.517,19.0
0.0,0.0,0.0,0.0
101.518,-4.335,1.424,28.0
0.0,0.0,0.0,0.0
117.37,-5.068,4.286,17.0
118.646,-5.154,3.707,21.0
142.394,-6.224,3.697,19.0
0.0,0.0,0.0,0.0
0.0,0.0,0.0,0.0
101.492,-4.519,1.022,2.0
117.509,-5.253,4.445,28.0
116.609,-5.244,3.796,22.0
142.314,-6.437,3.882,17.0
0.0,0.0,0.0,0.0
102.119,-4.673,1.7,1.0
101.555,-4.674,1.156,150.0
117.377,-5.425,4.597,23.0
117.743,-5.472,3.991,20.0
150.396,-7.029,4.305,7.0
139.268,-6.545,3.239,10.0
0.0,0.0,0.0,0.0
101.357,-4.816,1.292,1.0
116.722,-5.568,4.729,21.0
117.744,-5.647,4.151,18.0
140.979,-6.796,4.229,21.0
139.397,-6.756,3.435,10.0
0.0,0.0,0.0,0.0
0.0,0.0,0.0,0.0
110.021,-5.408,4.61,14.0
109.945,-5.431,4.028,9.0
117.789,-5.845,3.695,9.0
140.979,-7.032,3.668,16.0
0.0,0.0,0.0,0.0
0.0,0.0,0.0,0.0
108.395,-5.48,4.693,19.0
109.445,-5.559,4.163,24.0
117.3,-5.987,3.845,22.0
140.245,-7.19,3.846,11.0
140.892,-7.257,3.123,4.0
102.07,-5.282,1.727,1.0
108.754,-7.48,7.518,17.0
107.558,-7.409,6.871,23.0
106.902,-7.374,6.267,21.0
107.357,-7.417,5.72,24.0
107.391,-7.431,5.159,24.0
108.195,-7.499,4.633,25.0
110.657,-7.689,7.825,17.0
107.812,-7.502,7.058,15.0
107.238,-7.472,6.457,15.0
107.252,-7.483,5.884,22.0
107.613,-7.519,5.342,27.0
108.32,-7.579,4.809,26.0
110.565,-7.758,7.997,11.0
109.7,-7.705,7.358,13.0
107.528,-7.562,6.646,17.0
107.215,-7.55,6.054,19.0
107.656,-7.59,5.514,26.0
108.058,-7.628,4.968,28.0
105.049,-7.436,7.764,20.0
109.622,-7.767,7.525,12.0
107.515,-7.626,6.815,16.0
107.317,-7.621,6.228,18.0
107.778,-7.663,5.69,21.0
107.954,-7.683,5.134,32.0
105.046,-7.497,7.932,14.0
104.832,-7.489,7.364,15.0
110.713,-7.917,7.194,10.0
107.746,-7.711,6.425,20.0
107.359,-7.691,5.838,23.0
107.822,-7.733,5.297,28.0
107.434,-7.725,8.282,11.0
104.882,-7.548,7.532,20.0
110.536,-7.96,7.356,22.0
107.868,-7.775,6.599,14.0
107.628,-7.765,6.019,21.0
107.769,-7.781,5.462,28.0
107.585,-7.789,8.462,17.0
105.139,-7.617,7.716,12.0
105.055,-7.616,7.157,18.0
107.641,-7.809,6.756,7.0
107.888,-7.833,6.203,20.0
107.663,-7.823,5.626,24.0
109.787,-7.998,8.809,9.0
104.863,-7.643,7.86,8.0
104.833,-7.646,7.306,23.0
107.603,-7.852,6.921,7.0
107.952,-7.882,6.376,22.0
107.68,-7.868,5.795,24.0
110.339,-8.084,9.025,17.0
109.597,-8.032,8.387,13.0
105.177,-7.712,7.494,16.0
113.705,-8.341,7.492,10.0
107.903,-7.92,6.541,17.0
107.987,-7.929,5.98,27.0
107.153,-7.89,8.935,7.0
109.682,-8.079,8.565,19.0
104.903,-7.728,7.638,18.0
105.206,-7.754,7.095,22.0
107.672,-7.939,6.694,18.0
107.991,-7.964,6.145,17.0
107.131,-7.923,9.098,19.0
109.862,-8.127,8.748,16.0
104.716,-7.747,7.786,26.0
104.834,-7.757,7.23,22.0
107.708,-7.972,6.86,8.0
107.979,-7.994,6.31,20.0
107.36,-7.97,9.282,14.0
114.858,-8.526,9.323,6.0
104.674,-7.771,7.943,19.0
110.439,-8.2,7.786,6.0
105.62,-7.844,6.889,16.0
107.91,-8.014,6.47,29.0
107.467,-8.003,9.457,17.0
107.399,-7.998,8.883,12.0
104.664,-7.794,8.103,7.0
104.77,-7.802,7.548,15.0
105.449,-7.852,7.04,21.0
107.755,-8.024,6.625,24.0
107.066,-7.995,9.586,21.0
107.226,-8.005,9.031,14.0
104.585,-7.807,8.255,9.0
104.749,-7.818,7.703,31.0
105.099,-7.843,7.174,19.0
107.745,-8.04,6.786,16.0
107.023,-8.008,9.744,19.0
107.272,-8.025,9.198,9.0
104.43,-7.809,8.4,13.0
104.634,-7.823,7.852,25.0
106.884,-7.99,7.455,7.0
105.589,-7.891,6.807,6.0
106.871,-8.009,9.89,17.0
108.377,-8.119,9.453,16.0
106.93,-8.006,8.76,11.0
104.675,-7.835,8.01,20.0
106.646,-7.98,7.596,16.0
105.573,-7.897,6.961,25.0
0.0,0.0,0.0,0.0
0.0,0.0,0.0,0.0
0.0,0.0,0.0,0.0
0.0,0.0,0.0,0.0
0.0,0.0,0.0,0.0
0.0,0.0,0.0,0.0
0.0,0.0,0.0,0.0
0.0,0.0,0.0,0.0
0.0,0.0,0.0,0.0
0.0,0.0,0.0,0.0
0.0,0.0,0.0,0.0
0.0,0.0,0.0,0.0
0.0,0.0,0.0,0.0
0.0,0.0,0.0,0.0
0.0,0.0,0.0,0.0
0.0,0.0,0.0,0.0
0.0,0.0,0.0,0.0
0.0,0.0,0.0,0.0
0.0,0.0,0.0,0.0
0.0,0.0,0.0,0.0
0.0,0.0,0.0,0.0
0.0,0.0,0.0,0.0
0.0,0.0,0.0,0.0
0.0,0.0,0.0,0.0
0.0,0.0,0.0,0.0
0.0,0.0,0.0,0.0
0.0,0.0,0.0,0.0
0.0,0.0,0.0,0.0
0.0,0.0,0.0,0.0
0.0,0.0,0.0,0.0
0.0,0.0,0.0,0.0
0.0,0.0,0.0,0.0
0.0,0.0,0.0,0.0
0.0,0.0,0.0,0.0
0.0,0.0,0.0,0.0
0.0,0.0,0.0,0.0
0.0,0.0,0.0,0.0
0.0,0.0,0.0,0.0
0.0,0.0,0.0,0.0
0.0,0.0,0.0,0.0
0.0,0.0,0.0,0.0
0.0,0.0,0.0,0.0
0.0,0.0,0.0,0.0
0.0,0.0,0.0,0.0
0.0,0.0,0.0,0.0
0.0,0.0,0.0,0.0
0.0,0.0,0.0,0.0
0.0,0.0,0.0,0.0
0.0,0.0,0.0,0.0
0.0,0.0,0.0,0.0
0.0,0.0,0.0,0.0
0.0,0.0,0.0,0.0
0.0,0.0,0.0,0.0
0.0,0.0,0.0,0.0
0.0,0.0,0.0,0.0
0.0,0.0,0.0,0.0
0.0,0.0,0.0,0.0
0.0,0.0,0.0,0.0
0.0,0.0,0.0,0.0
0.0,0.0,0.0,0.0
0.0,0.0,0.0,0.0
0.0,0.0,0.0,0.0
0.0,0.0,0.0,0.0
0.0,0.0,0.0,0.0
0.0,0.0,0.0,0.0
0.0,0.0,0.0,0.0
0.0,0.0,0.0,0.0
0.0,0.0,0.0,0.0
0.0,0.0,0.0,0.0
0.0,0.0,0.0,0.0
0.0,0.0,0.0,0.0
0.0,0.0,0.0,0.0
0.0,0.0,0.0,0.0
0.0,0.0,0.0,0.0
0.0,0.0,0.0,0.0
84.606,-0.567,7.586,1.0
0.0,0.0,0.0,0.0
0.0,0.0,0.0,0.0
0.0,0.0,0.0,0.0
0.0,0.0,0.0,0.0
0.0,0.0,0.0,0.0
84.711,-0.491,7.473,3.0
0.0,0.0,0.0,0.0
0.0,0.0,0.0,0.0
0.0,0.0,0.0,0.0
0.0,0.0,0.0,0.0
0.0,0.0,0.0,0.0
0.0,0.0,0.0,0.0
0.0,0.0,0.0,0.0
0.0,0.0,0.0,0.0
0.0,0.0,0.0,0.0
0.0,0.0,0.0,0.0
0.0,0.0,0.0,0.0
0.0,0.0,0.0,0.0
0.0,0.0,0.0,0.0
0.0,0.0,0.0,0.0
0.0,0.0,0.0,0.0
0.0,0.0,0.0,0.0
0.0,0.0,0.0,0.0
0.0,0.0,0.0,0.0
0.0,0.0,0.0,0.0
0.0,0.0,0.0,0.0
0.0,0.0,0.0,0.0
0.0,0.0,0.0,0.0
84.632,-0.211,7.452,6.0
0.0,0.0,0.0,0.0
0.0,0.0,0.0,0.0
0.0,0.0,0.0,0.0
0.0,0.0,0.0,0.0
0.0,0.0,0.0,0.0
84.653,-0.145,7.319,4.0
0.0,0.0,0.0,0.0
0.0,0.0,0.0,0.0
113.853,-0.161,7.841,8.0
0.0,0.0,0.0,0.0
0.0,0.0,0.0,0.0
0.0,0.0,0.0,0.0
0.0,0.0,0.0,0.0
0.0,0.0,0.0,0.0
113.896,-0.076,7.655,4.0
0.0,0.0,0.0,0.0
0.0,0.0,0.0,0.0
0.0,0.0,0.0,0.0
0.0,0.0,0.0,0.0
0.0,0.0,0.0,0.0
0.0,0.0,0.0,0.0
0.0,0.0,0.0,0.0
84.801,0.032,7.406,8.0
0.0,0.0,0.0,0.0
0.0,0.0,0.0,0.0
0.0,0.0,0.0,0.0
0.0,0.0,0.0,0.0
0.0,0.0,0.0,0.0
84.807,0.088,7.262,12.0
0.0,0.0,0.0,0.0
0.0,0.0,0.0,0.0
113.895,0.146,7.743,10.0
0.0,0.0,0.0,0.0
0.0,0.0,0.0,0.0
0.0,0.0,0.0,0.0
0.0,0.0,0.0,0.0
0.0,0.0,0.0,0.0
113.973,0.217,7.551,4.0
0.0,0.0,0.0,0.0
0.0,0.0,0.0,0.0
0.0,0.0,0.0,0.0
0.0,0.0,0.0,0.0
0.0,0.0,0.0,0.0
0.0,0.0,0.0,0.0
0.0,0.0,0.0,0.0
84.793,0.237,7.311,18.0
0.0,0.0,0.0,0.0
0.0,0.0,0.0,0.0
113.861,0.34,7.803,2.0
0.0,0.0,0.0,0.0
139.138,0.434,7.912,4.0
84.782,0.284,7.155,7.0
0.0,0.0,0.0,0.0
0.0,0.0,0.0,0.0
113.942,0.402,7.601,17.0
0.0,0.0,0.0,0.0
19.594,0.071,1.078,1.0
0.0,0.0,0.0,0.0
0.0,0.0,0.0,0.0
0.0,0.0,0.0,0.0
113.894,0.459,7.386,7.0
0.0,0.0,0.0,0.0
19.583,0.081,1.041,7.0
0.0,0.0,0.0,0.0
0.0,0.0,0.0,0.0
0.0,0.0,0.0,0.0
0.0,0.0,0.0,0.0
0.0,0.0,0.0,0.0
19.576,0.089,1.004,10.0
0.0,0.0,0.0,0.0
0.0,0.0,0.0,0.0
0.0,0.0,0.0,0.0
0.0,0.0,0.0,0.0
19.617,0.097,1.084,0.0
19.584,0.098,0.968,11.0
0.0,0.0,0.0,0.0
0.0,0.0,0.0,0.0
113.892,0.604,7.421,26.0
0.0,0.0,0.0,0.0
19.623,0.105,1.047,2.0
19.603,0.106,0.931,15.0
0.0,0.0,0.0,0.0
0.0,0.0,0.0,0.0
113.923,0.646,7.202,25.0
0.0,0.0,0.0,0.0
19.62,0.112,1.008,8.0
19.62,0.113,0.894,8.0
0.0,0.0,0.0,0.0
0.0,0.0,0.0,0.0
113.942,0.684,6.982,22.0
113.909,0.687,6.301,4.0
19.61,0.118,0.97,9.0
19.65,0.119,0.857,0.0
0.0,0.0,0.0,0.0
0.0,0.0,0.0,0.0
113.946,0.719,6.758,33.0
19.649,0.124,1.048,0.0
19.617,0.124,0.932,6.0
19.705,0.125,0.821,0.0
0.0,0.0,0.0,0.0
113.882,0.746,7.196,6.0
113.935,0.748,6.533,44.0
19.635,0.129,1.009,1.0
113.969,0.752,5.192,25.0
19.67,0.13,0.781,6.0
0.0,0.0,0.0,0.0
113.933,0.773,6.975,16.0
113.941,0.774,6.308,32.0
19.633,0.133,0.97,1.0
113.975,0.777,4.965,42.0
19.634,0.134,0.74,9.0
0.0,0.0,0.0,0.0
113.95,0.795,6.747,12.0
113.952,0.796,6.081,18.0
19.627,0.137,0.93,1.0
113.996,0.797,4.737,20.0
19.615,0.137,0.7,10.0
0.0,0.0,0.0,0.0
113.947,0.813,6.517,8.0
113.923,0.813,5.849,8.0
113.96,0.813,5.173,14.0
19.671,0.14,0.777,6.0
19.608,0.14,0.66,12.0
0.0,0.0,0.0,0.0
113.911,0.827,6.284,5.0
113.971,0.827,5.62,6.0
113.916,0.826,4.938,11.0
19.631,0.142,0.736,9.0
19.602,0.141,0.62,13.0
0.0,0.0,0.0,0.0
113.922,0.837,6.05,2.0
114.028,0.836,5.387,3.0
19.692,0.144,0.812,0.0
19.606,0.143,0.694,10.0
19.595,0.143,0.58,13.0
0.0,0.0,0.0,0.0
113.978,0.843,5.82,2.0
113.896,0.84,5.147,5.0
19.662,0.144,0.771,6.0
19.597,0.143,0.654,12.0
19.591,0.143,0.539,13.0
113.938,0.846,6.248,2.0
113.823,0.843,5.574,2.0
114.025,0.841,4.916,6.0
19.621,0.144,0.729,8.0
19.595,0.143,0.613,12.0
19.599,0.143,0.499,13.0
114.062,0.844,6.018,2.0
113.909,0.84,5.344,3.0
19.653,0.144,0.806,1.0
19.597,0.143,0.687,10.0
19.588,0.142,0.573,13.0
19.609,0.142,0.459,13.0
113.935,0.836,5.775,2.0
113.959,0.833,5.109,8.0
19.65,0.143,0.766,7.0
19.595,0.141,0.647,12.0
19.595,0.141,0.532,14.0
19.617,0.14,0.418,12.0
19.675,0.142,0.956,0.0
113.997,0.821,4.875,15.0
19.616,0.14,0.723,9.0
19.589,0.139,0.606,13.0
19.592,0.139,0.491,14.0
19.618,0.138,0.377,12.0
114.002,0.81,5.304,15.0
19.679,0.138,0.8,3.0
19.598,0.137,0.682,10.0
19.587,0.136,0.565,13.0
19.597,0.135,0.45,13.0
19.618,0.135,0.336,11.0
113.976,0.79,5.065,36.0
19.643,0.135,0.757,8.0
19.594,0.134,0.641,12.0
19.586,0.133,0.524,15.0
19.6,0.132,0.41,12.0
19.621,0.131,0.296,11.0
113.998,0.766,4.827,37.0
19.626,0.13,0.716,10.0
19.589,0.129,0.599,15.0
19.583,0.128,0.483,14.0
19.611,0.127,0.369,12.0
19.638,0.126,0.254,10.0
19.672,0.127,0.791,6.0
19.611,0.125,0.673,12.0
19.598,0.124,0.558,17.0
19.591,0.123,0.441,15.0
19.601,0.122,0.327,12.0
19.674,0.121,0.213,17.0
19.643,0.121,0.748,10.0
19.593,0.119,0.631,13.0
19.598,0.118,0.517,16.0
19.591,0.117,0.4,15.0
19.613,0.116,0.286,12.0
19.654,0.115,0.172,15.0
19.624,0.114,0.706,12.0
19.593,0.113,0.59,17.0
19.591,0.111,0.476,17.0
19.589,0.11,0.359,15.0
19.626,0.109,0.245,10.0
19.652,0.108,0.131,14.0
19.605,0.107,0.664,12.0
19.605,0.106,0.55,23.0
19.614,0.104,0.435,27.0
19.605,0.103,0.318,15.0
19.656,0.102,0.204,14.0
19.664,0.1,0.09,13.0
19.598,0.099,0.623,13.0
19.605,0.098,0.509,17.0
19.614,0.096,0.395,27.0
19.594,0.095,0.278,16.0
19.659,0.093,0.164,13.0
19.667,0.092,0.049,11.0
19.6,0.091,0.583,16.0
19.612,0.089,0.468,23.0
19.619,0.087,0.354,22.0
19.61,0.086,0.237,15.0
19.683,0.084,0.123,13.0
19.745,0.083,0.008,15.0
19.598,0.081,0.542,19.0
19.613,0.08,0.427,23.0
19.613,0.078,0.313,17.0
19.638,0.076,0.197,11.0
19.693,0.075,0.082,17.0
19.765,0.073,-0.032,30.0
19.605,0.071,0.501,26.0
19.616,0.069,0.387,18.0
19.61,0.067,0.272,13.0
19.676,0.066,0.156,12.0
19.768,0.064,0.041,63.0
19.761,0.062,-0.073,55.0
19.621,0.06,0.461,25.0
19.605,0.058,0.346,14.0
19.626,0.057,0.232,15.0
19.706,0.055,0.116,17.0
19.745,0.053,0.001,35.0
19.758,0.051,-0.114,64.0
19.613,0.049,0.421,15.0
19.617,0.047,0.306,12.0
19.682,0.045,0.192,10.0
19.736,0.043,0.075,16.0
19.743,0.041,-0.039,62.0
19.763,0.039,-0.155,16.0
19.616,0.037,0.38,15.0
19.629,0.034,0.265,13.0
19.75,0.033,0.152,13.0
19.732,0.03,0.034,13.0
19.743,0.028,-0.08,7.0
19.742,0.026,-0.195,41.0
19.621,0.024,0.34,17.0
19.626,0.021,0.225,16.0
19.753,0.019,0.111,7.0
19.705,0.017,-0.005,14.0
19.779,0.015,-0.12,1.0
19.787,0.012,-0.236,1.0
19.625,0.01,0.3,15.0
19.69,0.008,0.186,6.0
19.782,0.005,0.071,5.0
19.753,0.003,-0.045,5.0
19.697,0.001,-0.16,0.0
0.0,0.0,0.0,0.0
19.641,-0.003,0.261,14.0
19.751,-0.006,0.147,1.0
19.72,-0.008,0.032,10.0
19.736,-0.011,-0.085,2.0
19.701,-0.013,-0.199,0.0
33.191,-0.027,-0.53,0.0
19.647,-0.018,0.221,15.0
19.686,-0.021,0.107,11.0
19.711,-0.024,-0.007,13.0
19.729,-0.026,-0.124,12.0
19.768,-0.029,-0.239,1.0
0.0,0.0,0.0,0.0
19.666,-0.034,0.182,10.0
19.698,-0.037,0.068,15.0
19.714,-0.039,-0.046,13.0
19.739,-0.042,-0.163,13.0
19.768,-0.045,-0.279,5.0
29.583,-0.072,-0.59,0.0
19.706,-0.05,0.144,17.0
19.707,-0.053,0.029,16.0
19.717,-0.056,-0.085,12.0
19.732,-0.059,-0.202,15.0
19.76,-0.062,-0.317,10.0
19.787,-0.065,-0.433,2.0
19.705,-0.068,0.105,16.0
19.711,-0.071,-0.009,16.0
19.709,-0.074,-0.124,16.0
19.737,-0.077,-0.241,14.0
19.765,-0.08,-0.356,13.0
19.759,-0.083,-0.472,12.0
19.72,-0.086,0.067,15.0
19.72,-0.089,-0.047,11.0
19.711,-0.092,-0.162,16.0
19.742,-0.095,-0.279,15.0
19.75,-0.098,-0.395,16.0
19.742,-0.101,-0.509,15.0
19.726,-0.104,0.029,13.0
19.711,-0.107,-0.085,15.0
19.73,-0.111,-0.2,17.0
19.74,-0.114,-0.318,15.0
19.74,-0.117,-0.432,16.0
19.747,-0.12,-0.548,16.0
19.734,-0.123,-0.008,10.0
19.71,-0.126,-0.123,16.0
19.736,-0.13,-0.238,17.0
19.721,-0.133,-0.355,17.0
19.725,-0.136,-0.47,16.0
19.753,-0.14,-0.585,17.0
19.782,-0.144,-0.045,9.0
19.737,-0.146,-0.16,15.0
19.737,-0.15,-0.275,16.0
19.721,-0.153,-0.392,17.0
19.752,-0.157,-0.507,20.0
19.77,-0.16,-0.623,13.0
19.76,-0.164,-0.082,10.0
19.757,-0.167,-0.197,13.0
19.754,-0.17,-0.312,12.0
19.742,-0.173,-0.428,13.0
19.763,-0.177,-0.544,8.0
19.819,-0.181,-0.661,0.0
19.781,-0.185,-0.119,2.0
19.761,-0.188,-0.233,8.0
19.774,-0.192,-0.348,8.0
19.772,-0.195,-0.465,1.0
23.83,-0.239,-0.7,0.0
19.802,-0.202,-0.696,2.0
0.0,0.0,0.0,0.0
35.29,-0.374,-0.48,0.0
29.97,-0.323,-0.582,0.0
25.993,-0.285,-0.659,0.0
22.792,-0.254,-0.71,0.0
19.777,-0.224,-0.731,8.0
0.0,0.0,0.0,0.0
0.0,0.0,0.0,0.0
28.529,-0.34,-0.605,0.0
25.073,-0.304,-0.68,0.0
22.209,-0.273,-0.732,1.0
19.729,-0.246,-0.765,2.0
39.577,-0.503,-0.45,3.0
0.0,0.0,0.0,0.0
27.741,-0.363,-0.638,0.0
24.11,-0.32,-0.696,0.0
21.266,-0.286,-0.738,0.0
19.3,-0.263,-0.782,0.0
0.0,0.0,0.0,0.0
30.192,-0.425,-0.571,1.0
26.382,-0.376,-0.652,0.0
23.073,-0.333,-0.706,0.0
20.026,-0.293,-0.729,1.0
18.231,-0.27,-0.77,2.0
0.0,0.0,0.0,0.0
29.345,-0.448,-0.605,0.0
25.506,-0.394,-0.673,0.0
22.411,-0.351,-0.724,1.0
20.07,-0.318,-0.765,0.0
18.151,-0.292,-0.798,0.0
32.11,-0.523,-0.53,0.0
0.0,0.0,0.0,0.0
24.533,-0.41,-0.689,0.0
21.675,-0.367,-0.737,4.0
19.556,-0.335,-0.778,0.0
17.717,-0.307,-0.808,0.0
30.716,-0.54,-0.558,0.0
26.611,-0.473,-0.637,0.0
23.548,-0.423,-0.701,0.0
20.902,-0.38,-0.745,0.0
19.053,-0.35,-0.79,0.0
17.166,-0.319,-0.811,0.0
29.645,-0.559,-0.587,0.0
21.735,-0.414,-0.556,60.0
21.72,-0.418,-0.682,4.0
20.383,-0.397,-0.76,0.0
18.422,-0.363,-0.794,0.0
16.718,-0.333,-0.817,0.0
21.747,-0.438,-0.465,2.0
21.686,-0.441,-0.589,157.0
21.69,-0.446,-0.715,9.0
19.876,-0.413,-0.772,0.0
17.862,-0.375,-0.798,0.0
16.37,-0.347,-0.826,0.0
21.746,-0.467,-0.499,25.0
21.715,-0.471,-0.624,153.0
21.602,-0.473,-0.746,3.0
19.417,-0.43,-0.785,0.0
17.604,-0.393,-0.814,0.0
15.925,-0.36,-0.829,0.0
21.74,-0.496,-0.533,150.0
21.724,-0.501,-0.658,5.0
20.746,-0.483,-0.749,0.0
18.865,-0.443,-0.792,0.0
16.964,-0.402,-0.81,0.0
15.56,-0.373,-0.833,0.0
21.693,-0.525,-0.565,1.0
22.002,-0.537,-0.7,0.0
20.27,-0.5,-0.762,0.0
17.804,-0.443,-0.774,1.0
16.678,-0.419,-0.821,0.0
15.254,-0.387,-0.84,0.0
25.017,-0.64,-0.688,0.0
21.81,-0.563,-0.726,0.0
17.812,-0.464,-0.696,22.0
17.735,-0.466,-0.797,2.0
0.0,0.0,0.0,0.0
14.947,-0.4,-0.845,0.0
23.95,-0.647,-0.693,0.0
17.816,-0.485,-0.619,153.0
17.779,-0.489,-0.72,14.0
17.662,-0.49,-0.819,1.0
17.784,-0.498,-0.928,2.0
14.595,-0.412,-0.846,0.0
17.826,-0.507,-0.541,7.0
17.76,-0.51,-0.642,161.0
17.788,-0.515,-0.745,8.0
17.742,-0.518,-0.848,3.0
17.812,-0.525,-0.954,0.0
14.361,-0.426,-0.853,0.0
17.826,-0.533,-0.566,6.0
17.758,-0.536,-0.666,160.0
17.79,-0.541,-0.77,3.0
17.713,-0.543,-0.871,3.0
15.248,-0.472,-0.838,0.0
14.013,-0.437,-0.851,0.0
17.815,-0.56,-0.59,4.0
17.815,-0.564,-0.693,110.0
17.767,-0.567,-0.793,2.0
16.331,-0.525,-0.825,0.0
14.97,-0.485,-0.842,0.0
13.797,-0.451,-0.856,0.0
21.52,-0.708,-0.74,0.0
19.428,-0.644,-0.78,0.0
17.695,-0.591,-0.813,0.0
15.944,-0.537,-0.826,0.0
14.678,-0.498,-0.845,0.0
13.492,-0.461,-0.855,0.0
20.858,-0.718,-0.744,0.0
19.055,-0.66,-0.79,0.0
17.329,-0.605,-0.818,0.0
15.702,-0.552,-0.833,0.0
14.448,-0.512,-0.85,0.0
13.166,-0.47,-0.85,0.0
20.44,-0.734,-0.755,0.0
18.586,-0.672,-0.793,0.0
16.89,-0.615,-0.818,0.0
15.384,-0.564,-0.835,0.0
14.171,-0.524,-0.851,0.0
13.033,-0.485,-0.857,0.0
20.125,-0.754,-0.767,0.0
18.156,-0.685,-0.796,0.0
16.525,-0.627,-0.819,0.0
15.16,-0.58,-0.841,0.0
13.976,-0.538,-0.855,0.0
12.89,-0.5,-0.863,0.0
19.795,-0.772,-0.777,0.0
17.904,-0.703,-0.805,0.0
16.277,-0.643,-0.826,0.0
14.897,-0.593,-0.843,0.0
13.709,-0.549,-0.855,0.0
12.74,-0.514,-0.868,0.0
19.389,-0.786,-0.783,0.0
17.689,-0.722,-0.816,0.0
15.975,-0.656,-0.828,0.0
14.67,-0.607,-0.846,0.0
13.508,-0.562,-0.857,0.0
12.557,-0.526,-0.869,0.0
19.015,-0.801,-0.788,0.0
17.335,-0.735,-0.818,0.0
15.708,-0.67,-0.831,0.0
14.525,-0.624,-0.853,0.0
13.3,-0.575,-0.858,0.0
12.42,-0.54,-0.873,0.0
18.696,-0.817,-0.794,0.0
16.884,-0.742,-0.814,0.0
15.47,-0.684,-0.834,0.0
14.264,-0.635,-0.853,0.0
13.062,-0.585,-0.856,0.0
12.298,-0.554,-0.876,0.0
18.305,-0.829,-0.796,0.0
16.684,-0.76,-0.821,0.0
15.315,-0.702,-0.841,0.0
13.988,-0.645,-0.85,0.0
12.977,-0.602,-0.863,0.0
12.184,-0.569,-0.88,0.0
18.033,-0.845,-0.801,0.0
16.556,-0.78,-0.83,0.0
14.99,-0.711,-0.837,0.0
13.675,-0.652,-0.844,0.0
12.802,-0.615,-0.863,0.0
12.047,-0.582,-0.882,0.0
17.723,-0.859,-0.804,0.0
16.253,-0.792,-0.83,0.0
14.815,-0.727,-0.841,0.0
13.696,-0.676,-0.858,0.0
12.66,-0.628,-0.865,0.0
11.949,-0.597,-0.885,0.0
17.52,-0.878,-0.81,0.0
15.997,-0.806,-0.831,0.0
14.677,-0.744,-0.846,0.0
13.526,-0.689,-0.859,0.0
12.556,-0.644,-0.869,0.0
11.855,-0.611,-0.889,0.0
17.327,-0.896,-0.816,0.0
15.76,-0.819,-0.832,0.0
14.489,-0.758,-0.848,0.0
13.368,-0.703,-0.86,0.0
12.455,-0.659,-0.872,0.0
11.589,-0.616,-0.878,0.0
17.116,-0.913,-0.82,0.0
15.557,-0.834,-0.834,0.0
14.418,-0.777,-0.855,0.0
13.155,-0.713,-0.856,0.0
12.379,-0.675,-0.877,0.0
11.672,-0.64,-0.893,0.0
16.964,-0.932,-0.825,0.0
15.416,-0.852,-0.838,0.0
14.22,-0.79,-0.854,0.0
13.107,-0.732,-0.863,0.0
12.289,-0.69,-0.879,0.0
11.563,-0.653,-0.893,0.0
16.754,-0.948,-0.827,0.0
15.237,-0.866,-0.839,0.0
14.091,-0.806,-0.856,0.0
13.027,-0.749,-0.867,0.0
12.19,-0.704,-0.881,0.0
11.494,-0.667,-0.896,0.0
16.468,-0.958,-0.824,0.0
15.035,-0.879,-0.838,0.0
13.966,-0.821,-0.857,0.0
12.905,-0.762,-0.867,0.0
12.138,-0.721,-0.885,0.0
11.407,-0.681,-0.896,0.0
16.363,-0.979,-0.829,0.0
14.941,-0.898,-0.842,0.0
13.844,-0.836,-0.859,0.0
12.806,-0.778,-0.868,0.0
12.01,-0.733,-0.883,0.0
11.334,-0.695,-0.898,0.0
16.167,-0.993,-0.829,0.0
14.777,-0.912,-0.841,0.0
13.798,-0.856,-0.864,0.0
12.773,-0.796,-0.873,0.0
11.974,-0.75,-0.887,0.0
11.295,-0.711,-0.901,0.0
16.011,-1.009,-0.829,0.0
14.711,-0.932,-0.845,0.0
13.658,-0.869,-0.862,0.0
12.662,-0.81,-0.872,0.0
11.927,-0.766,-0.889,0.0
11.189,-0.722,-0.898,0.0
15.892,-1.027,-0.831,0.0
14.692,-0.954,-0.851,0.0
13.573,-0.886,-0.863,0.0
12.604,-0.826,-0.875,0.0
11.868,-0.782,-0.891,0.0
11.165,-0.739,-0.901,0.0
15.713,-1.041,-0.829,0.0
14.632,-0.974,-0.855,0.0
13.505,-0.903,-0.865,0.0
12.491,-0.839,-0.872,0.0
11.838,-0.799,-0.894,0.0
11.141,-0.755,-0.905,0.0
15.799,-1.072,-0.84,0.0
14.481,-0.987,-0.852,0.0
13.462,-0.922,-0.868,0.0
12.439,-0.856,-0.874,0.0
11.771,-0.813,-0.893,0.0
11.116,-0.772,-0.907,0.0
15.669,-1.089,-0.839,0.0
14.38,-1.003,-0.851,0.0
13.343,-0.935,-0.865,0.0
12.448,-0.876,-0.879,0.0
11.758,-0.831,-0.897,0.0
11.095,-0.788,-0.909,0.0
15.479,-1.1,-0.834,0.0
14.324,-1.023,-0.853,0.0
13.344,-0.957,-0.87,0.0
12.404,-0.893,-0.88,0.0
11.686,-0.845,-0.895,0.0
11.036,-0.802,-0.908,0.0
15.432,-1.122,-0.837,0.0
14.254,-1.04,-0.853,0.0
13.169,-0.965,-0.862,0.0
12.405,-0.913,-0.883,0.0
11.634,-0.86,-0.894,0.0
11.027,-0.818,-0.91,0.0
15.374,-1.142,-0.837,0.0
14.239,-1.062,-0.855,0.0
13.138,-0.983,-0.863,0.0
12.345,-0.928,-0.882,0.0
11.635,-0.878,-0.897,0.0
10.977,-0.832,-0.908,0.0
15.473,-1.173,-0.846,0.0
14.199,-1.081,-0.856,0.0
13.089,-1.0,-0.863,0.0
12.317,-0.945,-0.882,0.0
11.623,-0.895,-0.898,0.0
10.961,-0.848,-0.909,0.0
15.338,-1.186,-0.841,0.0
14.227,-1.105,-0.86,0.0
13.117,-1.022,-0.866,0.0
12.303,-0.963,-0.883,0.0
11.577,-0.909,-0.896,0.0
10.93,-0.862,-0.908,0.0
15.44,-1.218,-0.849,0.0
14.136,-1.119,-0.856,0.0
13.141,-1.045,-0.87,0.0
12.289,-0.98,-0.883,0.0
11.657,-0.934,-0.903,0.0
10.927,-0.879,-0.908,0.0
15.304,-1.23,-0.842,0.0
14.115,-1.139,-0.856,0.0
13.081,-1.059,-0.867,0.0
12.271,-0.998,-0.883,0.0
11.544,-0.942,-0.895,0.0
10.96,-0.898,-0.912,0.0
15.217,-1.246,-0.838,0.0
14.152,-1.163,-0.859,0.0
13.008,-1.073,-0.862,0.0
12.285,-1.017,-0.884,0.0
11.592,-0.963,-0.899,0.0
10.947,-0.913,-0.911,0.0
15.332,-1.279,-0.845,0.0
14.158,-1.185,-0.859,0.0
13.048,-1.096,-0.865,0.0
12.314,-1.038,-0.886,0.0
11.626,-0.984,-0.902,0.0
10.914,-0.927,-0.908,0.0
15.35,-1.303,-0.845,0.0
14.167,-1.207,-0.859,0.0
13.112,-1.121,-0.868,0.0
12.294,-1.055,-0.884,0.0
11.544,-0.994,-0.895,0.0
10.975,-0.948,-0.912,0.0
15.407,-1.33,-0.847,0.0
14.188,-1.229,-0.859,0.0
13.098,-1.139,-0.866,0.0
12.326,-1.075,-0.885,0.0
11.56,-1.012,-0.895,0.0
10.994,-0.966,-0.912,0.0
15.416,-1.353,-0.846,0.0
14.218,-1.252,-0.859,0.0
13.116,-1.159,-0.866,0.0
12.403,-1.1,-0.889,0.0
11.604,-1.032,-0.896,0.0
10.969,-0.979,-0.909,0.0
15.585,-1.39,-0.853,0.0
14.27,-1.277,-0.86,0.0
12.992,-1.166,-0.855,0.0
12.314,-1.109,-0.88,0.0
11.612,-1.049,-0.895,0.0
11.019,-0.999,-0.911,0.0
15.518,-1.406,-0.846,0.0
14.293,-1.299,-0.859,0.0
13.321,-1.214,-0.874,0.0
12.424,-1.136,-0.886,0.0
11.669,-1.071,-0.897,0.0
11.022,-1.015,-0.908,0.0
15.596,-1.435,-0.847,0.0
14.328,-1.322,-0.857,0.0
13.304,-1.231,-0.87,0.0
12.427,-1.153,-0.883,0.0
11.752,-1.094,-0.9,0.0
11.018,-1.029,-0.905,0.0
15.736,-1.469,-0.85,0.0
14.45,-1.353,-0.861,0.0
13.328,-1.251,-0.868,0.0
12.454,-1.173,-0.881,0.0
11.824,-1.117,-0.902,0.0
11.092,-1.051,-0.908,0.0
15.759,-1.492,-0.846,0.0
14.581,-1.384,-0.864,0.0
13.476,-1.283,-0.873,0.0
12.485,-1.192,-0.879,0.0
11.86,-1.136,-0.901,0.0
11.126,-1.069,-0.907,0.0
15.792,-1.516,-0.843,0.0
14.573,-1.403,-0.858,0.0
13.602,-1.313,-0.876,0.0
12.547,-1.215,-0.879,0.0
11.878,-1.153,-0.898,0.0
11.114,-1.082,-0.902,0.0
15.828,-1.54,-0.839,0.0
14.658,-1.43,-0.857,0.0
13.671,-1.337,-0.875,0.0
12.597,-1.235,-0.877,0.0
11.974,-1.178,-0.9,0.0
11.185,-1.103,-0.903,0.0
16.064,-1.583,-0.844,0.0
14.756,-1.458,-0.857,0.0
13.799,-1.367,-0.877,0.0
12.75,-1.266,-0.882,0.0
12.011,-1.196,-0.897,0.0
11.26,-1.124,-0.904,0.0
16.19,-1.615,-0.843,0.0
14.848,-1.485,-0.855,0.0
13.845,-1.388,-0.874,0.0
12.778,-1.284,-0.878,0.0
12.103,-1.22,-0.898,0.0
11.352,-1.147,-0.905,0.0
16.271,-1.642,-0.84,0.0
14.961,-1.514,-0.854,0.0
13.837,-1.404,-0.866,0.0
12.929,-1.315,-0.882,0.0
12.129,-1.237,-0.894,0.0
11.471,-1.173,-0.909,0.0
16.398,-1.674,-0.838,0.0
15.157,-1.551,-0.857,0.0
13.944,-1.431,-0.865,0.0
12.967,-1.334,-0.877,0.0
12.18,-1.256,-0.891,0.0
11.539,-1.193,-0.908,0.0
16.419,-1.695,-0.829,0.0
15.232,-1.576,-0.853,0.0
14.07,-1.459,-0.865,0.0
13.064,-1.358,-0.876,0.0
12.291,-1.281,-0.892,0.0
11.569,-1.209,-0.903,0.0
16.69,-1.741,-0.833,0.0
15.482,-1.619,-0.858,0.0
14.267,-1.495,-0.869,0.0
13.246,-1.392,-0.88,0.0
12.382,-1.304,-0.891,0.0
11.685,-1.233,-0.905,0.0
16.969,-1.789,-0.837,0.0
15.529,-1.64,-0.851,0.0
14.319,-1.516,-0.863,0.0
13.299,-1.411,-0.875,0.0
12.524,-1.332,-0.893,0.0
11.776,-1.255,-0.904,0.0
17.123,-1.823,-0.833,0.0
15.697,-1.674,-0.849,0.0
14.474,-1.547,-0.862,0.0
13.479,-1.444,-0.878,0.0
12.58,-1.351,-0.888,0.0
11.883,-1.279,-0.904,0.0
17.326,-1.862,-0.831,0.0
15.756,-1.696,-0.841,0.0
14.647,-1.58,-0.862,0.0
13.519,-1.461,-0.871,0.0
12.723,-1.378,-0.889,0.0
11.931,-1.295,-0.899,0.0
17.403,-1.887,-0.822,0.0
15.928,-1.73,-0.839,0.0
14.887,-1.62,-0.865,0.0
13.678,-1.492,-0.871,0.0
12.822,-1.401,-0.886,0.0
12.081,-1.323,-0.901,0.0
17.557,-1.92,-0.816,0.0
16.246,-1.78,-0.843,0.0
15.034,-1.65,-0.862,0.0
13.845,-1.523,-0.871,0.0
12.891,-1.42,-0.881,0.0
12.164,-1.343,-0.898,0.0
17.753,-1.958,-0.811,0.0
16.409,-1.812,-0.839,0.0
15.167,-1.678,-0.858,0.0
14.014,-1.553,-0.871,0.0
13.131,-1.458,-0.887,0.0
12.276,-1.366,-0.896,0.0
17.988,-1.999,-0.808,0.0
16.693,-1.858,-0.84,0.0
15.366,-1.713,-0.857,0.0
14.179,-1.584,-0.869,0.0
13.232,-1.481,-0.883,0.0
12.343,-1.384,-0.891,0.0
17.896,-2.003,-0.789,0.0
16.908,-1.896,-0.837,0.0
15.602,-1.752,-0.857,0.0
14.361,-1.615,-0.868,0.0
13.386,-1.508,-0.882,0.0
12.545,-1.416,-0.895,0.0
18.326,-2.066,-0.792,0.0
17.022,-1.922,-0.827,0.0
15.769,-1.783,-0.852,0.0
14.567,-1.65,-0.868,0.0
13.507,-1.532,-0.878,0.0
12.672,-1.44,-0.893,0.0
0.0,0.0,0.0,0.0
17.362,-1.973,-0.829,0.0
16.025,-1.824,-0.852,0.0
14.829,-1.69,-0.87,0.0
13.705,-1.564,-0.878,0.0
12.803,-1.464,-0.89,0.0
19.543,-2.232,-0.809,0.0
17.516,-2.003,-0.82,0.0
16.274,-1.863,-0.85,0.0
14.969,-1.716,-0.864,0.0
13.921,-1.598,-0.879,0.0
12.969,-1.491,-0.889,0.0
19.725,-2.266,-0.798,0.0
17.926,-2.062,-0.822,0.0
16.31,-1.878,-0.836,0.0
15.149,-1.747,-0.86,0.0
14.106,-1.629,-0.878,0.0
13.088,-1.513,-0.885,0.0
19.981,-2.307,-0.79,0.0
18.116,-2.095,-0.814,0.0
16.558,-1.917,-0.833,0.0
15.366,-1.781,-0.858,0.0
14.254,-1.654,-0.873,0.0
13.247,-1.539,-0.883,0.0
20.261,-2.352,-0.781,0.0
18.657,-2.168,-0.819,0.0
17.122,-1.992,-0.845,0.0
15.681,-1.826,-0.859,0.0
14.505,-1.691,-0.874,0.0
13.409,-1.566,-0.88,0.0
20.367,-2.375,-0.765,0.0
18.518,-2.162,-0.795,0.0
17.325,-2.024,-0.837,0.0
16.008,-1.873,-0.862,0.0
14.694,-1.721,-0.87,0.0
13.634,-1.598,-0.881,0.0
21.084,-2.469,-0.77,0.0
19.584,-2.296,-0.821,0.0
17.536,-2.058,-0.829,0.0
16.087,-1.89,-0.849,0.0
14.936,-1.756,-0.869,0.0
13.835,-1.628,-0.88,0.0
21.652,-2.546,-0.769,0.0
19.855,-2.336,-0.812,0.0
17.75,-2.09,-0.821,0.0
16.268,-1.918,-0.842,0.0
15.174,-1.791,-0.867,0.0
14.082,-1.663,-0.88,0.0
22.048,-2.601,-0.759,0.0
19.825,-2.341,-0.789,0.0
17.953,-2.122,-0.811,0.0
16.571,-1.96,-0.84,0.0
15.329,-1.815,-0.859,0.0
14.285,-1.693,-0.878,0.0
22.606,-2.676,-0.754,0.0
20.104,-2.381,-0.779,0.0
18.293,-2.168,-0.807,0.0
16.978,-2.014,-0.842,0.0
15.742,-1.869,-0.865,0.0
14.52,-1.725,-0.876,0.0
22.908,-2.719,-0.739,0.0
20.704,-2.459,-0.779,0.0
18.901,-2.246,-0.813,0.0
17.108,-2.035,-0.829,0.0
15.838,-1.885,-0.853,0.0
14.721,-1.753,-0.872,0.0
23.554,-2.802,-0.734,0.0
21.14,-2.517,-0.772,0.0
19.409,-2.312,-0.813,0.0
17.194,-2.049,-0.814,0.0
16.131,-1.924,-0.851,0.0
14.982,-1.788,-0.87,0.0
24.466,-2.917,-0.735,0.0
21.762,-2.596,-0.771,0.0
19.63,-2.343,-0.8,0.0
17.723,-2.116,-0.819,0.0
16.539,-1.976,-0.853,0.0
15.228,-1.82,-0.867,0.0
25.181,-3.007,-0.728,0.0
22.216,-2.654,-0.761,0.0
20.008,-2.391,-0.793,0.0
18.107,-2.165,-0.816,0.0
16.983,-2.031,-0.857,0.0
15.518,-1.857,-0.866,0.0
25.341,-3.03,-0.704,1.0
0.0,0.0,0.0,0.0
20.348,-2.435,-0.783,0.0
18.639,-2.231,-0.819,0.0
17.048,-2.041,-0.84,0.0
15.737,-1.885,-0.86,0.0
25.757,-3.082,-0.686,0.0
23.321,-2.791,-0.746,0.0
20.835,-2.495,-0.778,0.0
18.874,-2.26,-0.808,0.0
17.292,-2.071,-0.832,0.0
15.883,-1.903,-0.85,0.0
26.503,-3.173,-0.675,0.0
0.0,0.0,0.0,0.0
21.221,-2.542,-0.768,0.0
19.474,-2.333,-0.81,0.0
17.632,-2.113,-0.828,0.0
16.254,-1.948,-0.85,0.0
0.0,0.0,0.0,0.0
24.919,-2.984,-0.739,0.0
21.824,-2.614,-0.764,0.0
19.685,-2.358,-0.796,0.0
17.76,-2.128,-0.813,0.0
16.683,-1.999,-0.853,0.0
28.481,-3.41,-0.659,0.0
25.28,-3.027,-0.72,0.0
22.453,-2.688,-0.759,0.0
20.111,-2.408,-0.79,0.0
18.324,-2.194,-0.818,0.0
17.012,-2.037,-0.85,0.0
0.0,0.0,0.0,0.0
25.41,-3.04,-0.694,0.0
22.943,-2.745,-0.749,0.0
20.714,-2.478,-0.789,0.0
18.561,-2.22,-0.806,0.0
17.075,-2.042,-0.833,0.0
30.111,-3.599,-0.625,0.0
26.383,-3.153,-0.689,0.0
23.582,-2.818,-0.741,0.0
21.115,-2.522,-0.779,0.0
19.156,-2.288,-0.809,0.0
17.327,-2.07,-0.824,0.0
0.0,0.0,0.0,0.0
0.0,0.0,0.0,0.0
24.107,-2.876,-0.729,0.0
21.758,-2.595,-0.776,0.0
19.658,-2.344,-0.806,0.0
17.882,-2.132,-0.829,0.0
32.034,-3.817,-0.589,0.0
27.903,-3.323,-0.661,0.0
25.241,-3.005,-0.733,0.0
22.052,-2.625,-0.76,0.0
20.054,-2.386,-0.798,0.0
18.05,-2.147,-0.815,0.0
33.486,-3.981,-0.575,0.0
28.742,-3.415,-0.647,0.0
25.527,-3.032,-0.71,0.0
23.039,-2.735,-0.766,0.0
20.519,-2.435,-0.792,0.0
18.501,-2.195,-0.813,0.0
0.0,0.0,0.0,0.0
29.926,-3.547,-0.637,0.0
25.923,-3.071,-0.69,0.0
23.345,-2.764,-0.748,0.0
21.064,-2.493,-0.788,0.0
0.0,0.0,0.0,0.0
36.118,-4.27,-0.534,0.0
30.702,-3.628,-0.617,0.0
0.0,0.0,0.0,0.0
23.775,-2.806,-0.734,0.0
21.567,-2.544,-0.781,0.0
19.652,-2.317,-0.816,0.0
35.972,-4.239,-0.488,0.0
31.541,-3.714,-0.596,0.0
27.478,-3.233,-0.666,0.0
24.578,-2.89,-0.729,0.0
22.057,-2.592,-0.772,0.0
19.868,-2.334,-0.801,0.0
0.0,0.0,0.0,0.0
0.0,0.0,0.0,0.0
0.0,0.0,0.0,0.0
25.154,-2.946,-0.716,0.0
22.571,-2.642,-0.763,0.0
20.057,-2.346,-0.785,0.0
40.848,-4.775,-0.456,0.0
33.897,-3.959,-0.56,0.0
29.2,-3.407,-0.638,0.0
25.832,-3.012,-0.704,0.0
23.182,-2.701,-0.756,0.0
20.839,-2.426,-0.791,0.0
83.368,-8.492,0.64,3.0
100.293,-10.191,0.233,1.0
55.977,-5.674,-0.17,0.0
0.0,0.0,0.0,0.0
37.034,-3.736,-0.513,0.0
0.0,0.0,0.0,0.0
89.088,-8.963,0.77,29.0
89.137,-8.945,0.292,26.0
0.0,0.0,0.0,0.0
46.562,-4.648,-0.351,0.0
0.0,0.0,0.0,0.0
32.429,-3.221,-0.592,0.0
90.31,-8.969,0.866,106.0
90.351,-8.948,0.382,35.0
0.0,0.0,0.0,0.0
0.0,0.0,0.0,0.0
0.0,0.0,0.0,0.0
0.0,0.0,0.0,0.0
90.366,-8.853,0.95,35.0
90.368,-8.829,0.465,14.0
0.0,0.0,0.0,0.0
0.0,0.0,0.0,0.0
41.608,-4.031,-0.46,0.0
0.0,0.0,0.0,0.0
90.367,-8.73,1.031,41.0
90.376,-8.706,0.546,14.0
0.0,0.0,0.0,0.0
0.0,0.0,0.0,0.0
0.0,0.0,0.0,0.0
0.0,0.0,0.0,0.0
89.04,-8.478,1.094,9.0
90.387,-8.58,0.624,54.0
90.508,-8.566,0.138,2.0
0.0,0.0,0.0,0.0
0.0,0.0,0.0,0.0
36.477,-3.421,-0.536,0.0
90.363,-8.473,1.187,33.0
90.307,-8.441,0.7,22.0
90.382,-8.422,0.214,11.0
0.0,0.0,0.0,0.0
44.105,-4.084,-0.374,0.0
0.0,0.0,0.0,0.0
90.386,-8.342,1.262,44.0
90.389,-8.315,0.775,30.0
90.416,-8.291,0.288,16.0
0.0,0.0,0.0,0.0
0.0,0.0,0.0,0.0
38.944,-3.537,-0.509,0.0
90.392,-8.207,1.334,33.0
90.416,-8.181,0.847,38.0
90.397,-8.152,0.359,16.0
0.0,0.0,0.0,0.0
0.0,0.0,0.0,0.0
0.0,0.0,0.0,0.0
90.389,-8.069,1.403,31.0
90.406,-8.041,0.915,41.0
90.412,-8.015,0.427,36.0
0.0,0.0,0.0,0.0
0.0,0.0,0.0,0.0
40.302,-3.536,-0.466,0.0
90.405,-7.929,1.47,35.0
90.419,-7.901,0.981,38.0
90.418,-7.872,0.494,35.0
0.0,0.0,0.0,0.0
0.0,0.0,0.0,0.0
41.355,-3.561,-0.448,0.0
90.392,-7.782,1.535,39.0
90.402,-7.754,1.046,38.0
90.422,-7.726,0.557,36.0
0.0,0.0,0.0,0.0
0.0,0.0,0.0,0.0
0.0,0.0,0.0,0.0
90.417,-7.635,1.598,43.0
90.408,-7.603,1.109,39.0
90.415,-7.574,0.619,51.0
90.386,-7.542,0.121,9.0
0.0,0.0,0.0,0.0
0.0,0.0,0.0,0.0
90.431,-7.484,1.657,151.0
90.391,-7.451,1.168,27.0
100.02,-8.211,0.75,12.0
0.0,0.0,0.0,0.0
0.0,0.0,0.0,0.0
0.0,0.0,0.0,0.0
116.554,-9.449,2.21,22.0
100.086,-8.08,1.354,12.0
100.073,-8.044,0.811,14.0
99.14,-7.938,0.256,1.0
0.0,0.0,0.0,0.0
0.0,0.0,0.0,0.0
118.388,-9.394,2.315,11.0
100.07,-7.906,1.413,10.0
100.024,-7.87,0.869,14.0
99.761,-7.816,0.315,7.0
0.0,0.0,0.0,0.0
47.243,-3.67,-0.363,0.0
120.201,-9.33,2.417,12.0
100.07,-7.733,1.467,11.0
100.075,-7.7,0.924,14.0
99.354,-7.61,0.367,10.0
0.0,0.0,0.0,0.0
0.0,0.0,0.0,0.0
123.064,-9.336,2.538,7.0
100.068,-7.555,1.52,10.0
100.054,-7.521,0.975,13.0
99.417,-7.439,0.418,12.0
0.0,0.0,0.0,0.0
47.437,-3.517,-0.316,0.0
0.0,0.0,0.0,0.0
100.06,-7.376,1.568,9.0
100.079,-7.343,1.024,10.0
99.829,-7.29,0.467,12.0
0.0,0.0,0.0,0.0
0.0,0.0,0.0,0.0
109.306,-7.899,2.359,29.0
100.099,-7.197,1.614,8.0
100.005,-7.156,1.068,9.0
100.02,-7.121,0.513,9.0
0.0,0.0,0.0,0.0
0.0,0.0,0.0,0.0
109.269,-7.695,2.405,44.0
100.07,-7.011,1.656,6.0
100.126,-6.978,1.111,7.0
100.093,-6.942,0.554,8.0
0.0,0.0,0.0,0.0
0.0,0.0,0.0,0.0
148.195,-10.16,3.32,13.0
100.159,-6.829,1.697,1.0
108.707,-7.372,1.248,6.0
0.0,0.0,0.0,0.0
0.0,0.0,0.0,0.0
0.0,0.0,0.0,0.0
117.154,-7.808,2.667,29.0
117.352,-7.777,2.03,6.0
106.08,-6.992,1.254,18.0
109.18,-7.159,0.683,2.0
0.0,0.0,0.0,0.0
0.0,0.0,0.0,0.0
117.066,-7.58,2.703,28.0
125.223,-8.061,2.206,32.0
125.303,-8.021,1.521,23.0
109.673,-6.981,0.721,1.0
0.0,0.0,0.0,0.0
0.0,0.0,0.0,0.0
117.285,-7.367,2.741,21.0
148.121,-9.251,2.651,17.0
148.173,-9.198,1.84,20.0
150.104,-9.264,1.026,3.0
0.0,0.0,0.0,0.0
0.0,0.0,0.0,0.0
148.943,-9.067,3.519,13.0
148.456,-8.982,2.692,21.0
149.653,-9.0,1.894,21.0
149.9,-8.96,1.06,7.0
0.0,0.0,0.0,0.0
0.0,0.0,0.0,0.0
149.32,-8.798,3.56,19.0
149.161,-8.732,2.737,18.0
149.636,-8.705,1.923,10.0
140.656,-8.132,1.022,10.0
0.0,0.0,0.0,0.0
0.0,0.0,0.0,0.0
147.459,-8.398,3.542,36.0
140.699,-7.961,2.605,28.0
101.587,-5.711,1.323,5.0
101.468,-5.666,0.753,151.0
101.477,-5.63,0.195,1.0
0.0,0.0,0.0,0.0
140.773,-7.74,3.401,10.0
0.0,0.0,0.0,0.0
101.533,-5.507,1.335,12.0
0.0,0.0,0.0,0.0
0.0,0.0,0.0,0.0
0.0,0.0,0.0,0.0
140.603,-7.451,3.411,34.0
0.0,0.0,0.0,0.0
101.521,-5.304,1.344,1.0
0.0,0.0,0.0,0.0
0.0,0.0,0.0,0.0
0.0,0.0,0.0,0.0
140.959,-7.187,3.429,8.0
0.0,0.0,0.0,0.0
0.0,0.0,0.0,0.0
101.511,-5.061,0.78,9.0
0.0,0.0,0.0,0.0
0.0,0.0,0.0,0.0
163.453,-8.003,3.981,6.0
0.0,0.0,0.0,0.0
0.0,0.0,0.0,0.0
101.514,-4.857,0.781,16.0
101.447,-4.816,0.221,1.0
0.0,0.0,0.0,0.0
139.247,-6.535,3.39,5.0
0.0,0.0,0.0,0.0
0.0,0.0,0.0,0.0
101.426,-4.646,0.778,1.0
0.0,0.0,0.0,0.0
0.0,0.0,0.0,0.0
142.524,-6.398,3.464,8.0
0.0,0.0,0.0,0.0
101.505,-4.479,1.344,80.0
101.61,-4.446,0.773,1.0
0.0,0.0,0.0,0.0
0.0,0.0,0.0,0.0
142.567,-6.105,3.452,17.0
0.0,0.0,0.0,0.0
101.562,-4.274,1.335,65.0
101.492,-4.233,0.761,151.0
0.0,0.0,0.0,0.0
0.0,0.0,0.0,0.0
141.696,-5.778,3.414,8.0
162.211,-6.556,3.009,9.0
0.0,0.0,0.0,0.0
0.0,0.0,0.0,0.0
0.0,0.0,0.0,0.0
0.0,0.0,0.0,0.0
141.64,-5.484,3.39,5.0
162.215,-6.222,2.983,23.0
162.181,-6.161,2.082,4.0
0.0,0.0,0.0,0.0
0.0,0.0,0.0,0.0
0.0,0.0,0.0,0.0
141.701,-5.192,3.363,4.0
162.232,-5.885,2.949,16.0
162.071,-5.821,2.047,18.0
160.662,-5.709,1.12,14.0
0.0,0.0,0.0,0.0
0.0,0.0,0.0,0.0
163.305,-5.646,3.837,13.0
162.27,-5.55,2.911,23.0
161.981,-5.483,2.005,29.0
160.646,-5.379,1.079,12.0
0.0,0.0,0.0,0.0
0.0,0.0,0.0,0.0
163.324,-5.312,3.793,6.0
162.233,-5.218,2.865,11.0
161.891,-5.148,1.958,29.0
160.715,-5.051,1.033,12.0
0.0,0.0,0.0,0.0
0.0,0.0,0.0,0.0
168.479,-5.136,3.861,4.0
168.686,-5.078,2.926,5.0
161.902,-4.813,1.906,16.0
160.713,-4.72,0.98,11.0
0.0,0.0,0.0,0.0
0.0,0.0,0.0,0.0
168.106,-4.772,3.793,14.0
178.133,-4.99,3.025,11.0
161.95,-4.48,1.848,20.0
160.775,-4.387,0.922,7.0
0.0,0.0,0.0,0.0
0.0,0.0,0.0,0.0
168.046,-4.417,3.725,6.0
170.484,-4.421,2.828,7.0
161.981,-4.14,1.783,23.0
160.696,-4.048,0.855,4.0
0.0,0.0,0.0,0.0
0.0,0.0,0.0,0.0
0.0,0.0,0.0,0.0
170.42,-4.065,2.753,5.0
99.099,-2.328,1.047,2.0
0.0,0.0,0.0,0.0
0.0,0.0,0.0,0.0
0.0,0.0,0.0,0.0
0.0,0.0,0.0,0.0
0.0,0.0,0.0,0.0
99.142,-2.125,1.0,151.0
0.0,0.0,0.0,0.0
0.0,0.0,0.0,0.0
0.0,0.0,0.0,0.0
170.253,-3.419,3.537,6.0
0.0,0.0,0.0,0.0
99.059,-1.918,0.949,9.0
0.0,0.0,0.0,0.0
0.0,0.0,0.0,0.0
0.0,0.0,0.0,0.0
170.282,-3.069,3.445,7.0
99.136,-1.75,1.45,5.0
99.086,-1.714,0.894,167.0
0.0,0.0,0.0,0.0
0.0,0.0,0.0,0.0
0.0,0.0,0.0,0.0
