X,Y,Z,Reflectivity
9.833,-0.98,-0.923,0.0
13.241,-1.317,-0.869,0.0
12.46,-1.242,-0.886,0.0
11.729,-1.171,-0.897,0.0
11.01,-1.101,-0.904,0.0
10.469,-1.049,-0.916,0.0
9.853,-0.989,-0.916,0.0
13.486,-1.352,-0.874,0.0
12.573,-1.262,-0.883,0.0
11.869,-1.194,-0.898,0.0
11.082,-1.116,-0.9,0.0
10.567,-1.066,-0.915,0.0
10.013,-1.012,-0.922,0.0
13.648,-1.378,-0.872,0.0
12.68,-1.282,-0.879,0.0
11.973,-1.212,-0.895,0.0
11.189,-1.135,-0.898,0.0
10.673,-1.084,-0.915,0.0
10.109,-1.029,-0.922,0.0
13.794,-1.402,-0.869,0.0
12.914,-1.314,-0.883,0.0
12.114,-1.235,-0.894,0.0
11.415,-1.165,-0.906,0.0
10.744,-1.099,-0.911,0.0
10.182,-1.043,-0.919,0.0
13.999,-1.431,-0.869,0.0
13.068,-1.338,-0.882,0.0
12.198,-1.251,-0.889,0.0
11.497,-1.181,-0.901,0.0
10.873,-1.118,-0.911,0.0
10.302,-1.061,-0.919,0.0
14.195,-1.46,-0.867,0.0
13.246,-1.364,-0.881,0.0
12.33,-1.272,-0.886,0.0
11.651,-1.203,-0.902,0.0
10.995,-1.137,-0.911,0.0
10.42,-1.079,-0.92,0.0
14.407,-1.49,-0.866,0.0
13.383,-1.386,-0.876,0.0
12.538,-1.3,-0.889,0.0
11.852,-1.231,-0.905,0.0
11.077,-1.152,-0.906,0.0
10.54,-1.097,-0.92,0.0
14.63,-1.521,-0.864,0.0
13.566,-1.412,-0.875,0.0
12.735,-1.327,-0.89,0.0
11.903,-1.242,-0.897,0.0
11.132,-1.163,-0.899,0.0
10.617,-1.11,-0.915,0.0
14.914,-1.557,-0.866,0.0
13.715,-1.434,-0.87,0.0
12.889,-1.349,-0.887,0.0
12.071,-1.265,-0.897,0.0
11.258,-1.181,-0.897,0.0
10.696,-1.123,-0.91,0.0
15.044,-1.578,-0.857,0.0
14.008,-1.471,-0.873,0.0
13.028,-1.369,-0.882,0.0
12.17,-1.28,-0.891,0.0
11.39,-1.2,-0.895,0.0
10.846,-1.144,-0.911,0.0
15.247,-1.605,-0.852,0.0
14.199,-1.496,-0.87,0.0
13.155,-1.387,-0.877,0.0
12.343,-1.303,-0.89,0.0
11.552,-1.221,-0.895,0.0
10.935,-1.157,-0.907,0.0
15.518,-1.639,-0.85,0.0
14.427,-1.525,-0.868,0.0
13.392,-1.417,-0.877,0.0
12.513,-1.325,-0.888,0.0
11.827,-1.254,-0.903,0.0
10.952,-1.162,-0.896,0.0
15.87,-1.681,-0.851,0.0
14.693,-1.558,-0.867,0.0
13.608,-1.444,-0.876,0.0
12.67,-1.346,-0.885,0.0
12.017,-1.277,-0.904,0.0
10.784,-1.147,-0.869,0.0
16.151,-1.716,-0.848,0.0
14.931,-1.587,-0.864,0.0
13.831,-1.471,-0.874,0.0
12.9,-1.373,-0.886,0.0
12.12,-1.291,-0.897,0.0
11.068,-1.18,-0.879,0.0
16.485,-1.755,-0.846,0.0
15.128,-1.611,-0.858,0.0
14.048,-1.497,-0.871,0.0
13.047,-1.392,-0.881,0.0
12.251,-1.308,-0.893,0.0
11.512,-1.23,-0.901,0.0
16.732,-1.784,-0.839,0.0
15.261,-1.628,-0.847,0.0
14.346,-1.532,-0.873,0.0
13.327,-1.424,-0.883,0.0
12.475,-1.333,-0.894,0.0
11.628,-1.244,-0.896,0.0
17.065,-1.822,-0.835,0.0
15.742,-1.682,-0.854,0.0
14.513,-1.551,-0.865,0.0
13.526,-1.446,-0.88,0.0
12.711,-1.36,-0.895,0.0
11.92,-1.276,-0.903,0.0
17.408,-1.861,-0.831,0.0
16.054,-1.717,-0.852,0.0
14.838,-1.587,-0.866,0.0
13.795,-1.476,-0.881,0.0
12.894,-1.38,-0.892,0.0
12.056,-1.291,-0.899,0.0
17.495,-1.871,-0.813,0.0
16.301,-1.744,-0.845,0.0
15.038,-1.609,-0.859,0.0
13.984,-1.497,-0.875,0.0
13.026,-1.395,-0.885,0.0
12.208,-1.308,-0.895,0.0
17.761,-1.9,-0.804,0.0
16.74,-1.791,-0.847,0.0
15.383,-1.646,-0.86,0.0
14.254,-1.526,-0.875,0.0
13.272,-1.421,-0.885,0.0
12.471,-1.336,-0.898,0.0
18.682,-1.998,-0.822,0.0
16.968,-1.815,-0.837,0.0
15.647,-1.673,-0.855,0.0
14.457,-1.546,-0.869,0.0
13.423,-1.436,-0.878,0.0
12.686,-1.358,-0.898,0.0
18.911,-2.021,-0.808,0.0
17.357,-1.855,-0.834,0.0
16.059,-1.716,-0.857,0.0
14.754,-1.577,-0.868,0.0
13.708,-1.465,-0.879,0.0
12.857,-1.374,-0.893,0.0
19.211,-2.051,-0.797,0.0
17.484,-1.866,-0.818,0.0
16.28,-1.737,-0.848,0.0
15.029,-1.604,-0.865,0.0
13.989,-1.493,-0.88,0.0
13.004,-1.388,-0.887,0.0
19.765,-2.107,-0.794,0.0
17.959,-1.914,-0.817,0.0
16.659,-1.775,-0.847,0.0
15.235,-1.623,-0.857,0.0
14.214,-1.514,-0.875,0.0
13.215,-1.408,-0.884,0.0
20.035,-2.131,-0.78,0.0
18.672,-1.986,-0.826,0.0
16.888,-1.796,-0.837,0.0
15.689,-1.668,-0.862,0.0
14.453,-1.536,-0.871,0.0
13.524,-1.437,-0.887,0.0
20.674,-2.194,-0.778,0.0
18.923,-2.007,-0.812,0.0
17.314,-1.836,-0.835,0.0
15.925,-1.688,-0.854,0.0
14.798,-1.568,-0.873,0.0
13.661,-1.447,-0.878,0.0
21.035,-2.226,-0.764,0.0
19.408,-2.053,-0.808,0.0
17.46,-1.846,-0.819,0.0
16.256,-1.718,-0.851,0.0
14.997,-1.584,-0.865,0.0
13.981,-1.476,-0.88,0.0
21.821,-2.301,-0.764,0.0
19.711,-2.078,-0.795,0.0
17.774,-1.873,-0.811,0.0
16.67,-1.755,-0.851,0.0
15.258,-1.606,-0.86,0.0
14.213,-1.495,-0.876,0.0
22.076,-2.32,-0.744,0.0
20.262,-2.128,-0.79,0.0
18.362,-1.927,-0.813,0.0
16.859,-1.768,-0.838,0.0
15.569,-1.632,-0.857,0.0
14.419,-1.511,-0.87,0.0
23.139,-2.421,-0.749,0.0
20.653,-2.16,-0.778,0.0
18.897,-1.974,-0.813,0.0
17.292,-1.806,-0.837,0.0
15.948,-1.664,-0.857,0.0
14.791,-1.542,-0.873,0.0
23.616,-2.46,-0.734,0.0
21.387,-2.226,-0.778,0.0
19.385,-2.016,-0.808,0.0
17.584,-1.827,-0.828,0.0
16.335,-1.696,-0.856,0.0
14.99,-1.555,-0.865,0.0
24.462,-2.535,-0.728,0.0
21.765,-2.254,-0.763,0.0
19.581,-2.026,-0.791,0.0
17.722,-1.832,-0.811,0.0
16.57,-1.711,-0.846,0.0
15.272,-1.576,-0.861,0.0
25.035,-2.58,-0.713,0.0
22.309,-2.297,-0.753,0.0
20.101,-2.068,-0.785,0.0
18.385,-1.889,-0.817,0.0
16.915,-1.736,-0.842,0.0
15.602,-1.6,-0.859,0.0
25.871,-2.651,-0.703,0.0
22.734,-2.327,-0.738,0.0
21.088,-2.156,-0.796,0.0
18.857,-1.925,-0.814,0.0
17.217,-1.756,-0.834,0.0
15.978,-1.628,-0.859,0.0
25.953,-2.642,-0.671,0.0
23.774,-2.417,-0.74,0.0
21.151,-2.148,-0.771,0.0
19.518,-1.979,-0.817,0.0
17.672,-1.79,-0.833,0.0
16.261,-1.645,-0.853,0.0
27.344,-2.764,-0.671,0.0
24.293,-2.452,-0.725,0.0
21.882,-2.206,-0.769,0.0
19.948,-2.008,-0.808,0.0
17.782,-1.788,-0.815,0.0
16.5,-1.657,-0.844,0.0
28.203,-2.829,-0.655,0.0
24.903,-2.495,-0.71,0.0
22.524,-2.253,-0.761,0.0
20.058,-2.004,-0.786,0.0
18.375,-1.833,-0.818,0.0
17.088,-1.702,-0.851,0.0
29.389,-2.925,-0.644,0.0
25.616,-2.546,-0.697,0.0
22.834,-2.265,-0.743,0.0
20.653,-2.046,-0.783,0.0
18.807,-1.86,-0.813,0.0
17.328,-1.712,-0.841,0.0
0.0,0.0,0.0,0.0
27.087,-2.669,-0.702,0.0
23.659,-2.327,-0.739,0.0
0.0,0.0,0.0,0.0
19.464,-1.908,-0.816,0.0
17.579,-1.721,-0.831,0.0
31.001,-3.032,-0.6,0.0
27.309,-2.666,-0.673,0.0
23.896,-2.329,-0.716,0.0
21.812,-2.122,-0.771,0.0
19.772,-1.92,-0.804,0.0
17.804,-1.726,-0.819,0.0
32.374,-3.137,-0.586,0.0
28.144,-2.722,-0.659,0.0
24.571,-2.372,-0.705,0.0
22.135,-2.133,-0.755,0.0
20.031,-1.926,-0.789,0.0
18.391,-1.766,-0.822,0.0
33.891,-3.251,-0.571,0.0
28.96,-2.772,-0.641,0.0
25.788,-2.464,-0.708,0.0
22.773,-2.171,-0.748,0.0
20.526,-1.953,-0.783,0.0
19.014,-1.806,-0.826,0.0
0.0,0.0,0.0,0.0
0.0,0.0,0.0,0.0
26.197,-2.476,-0.687,0.0
23.608,-2.227,-0.746,0.0
20.929,-1.97,-0.773,0.0
19.323,-1.815,-0.816,0.0
0.0,0.0,0.0,0.0
30.746,-2.88,-0.605,0.0
26.993,-2.522,-0.674,0.0
23.827,-2.222,-0.724,0.0
21.735,-2.023,-0.776,0.0
19.629,-1.823,-0.805,0.0
0.0,0.0,0.0,0.0
0.0,0.0,0.0,0.0
27.961,-2.582,-0.665,0.0
24.512,-2.258,-0.715,0.0
22.169,-2.038,-0.764,0.0
19.837,-1.819,-0.79,0.0
38.964,-3.571,-0.466,0.0
0.0,0.0,0.0,0.0
28.478,-2.597,-0.643,0.0
25.48,-2.318,-0.712,0.0
22.607,-2.052,-0.752,0.0
20.485,-1.855,-0.791,0.0
39.916,-3.611,-0.43,1.0
0.0,0.0,0.0,0.0
29.668,-2.67,-0.634,0.0
25.939,-2.329,-0.695,0.0
23.198,-2.077,-0.745,0.0
20.956,-1.872,-0.784,0.0
109.153,-7.087,0.684,3.0
0.0,0.0,0.0,0.0
0.0,0.0,0.0,0.0
0.0,0.0,0.0,0.0
34.602,-2.2,-0.53,0.0
29.968,-1.896,-0.62,0.0
125.383,-7.919,0.882,2.0
0.0,0.0,0.0,0.0
0.0,0.0,0.0,0.0
0.0,0.0,0.0,0.0
0.0,0.0,0.0,0.0
30.851,-1.897,-0.616,1.0
149.844,-9.193,1.164,11.0
0.0,0.0,0.0,0.0
0.0,0.0,0.0,0.0
0.0,0.0,0.0,0.0
36.859,-2.21,-0.511,0.0
31.58,-1.883,-0.608,0.0
149.912,-8.92,1.271,16.0
0.0,0.0,0.0,0.0
0.0,0.0,0.0,0.0
0.0,0.0,0.0,0.0
0.0,0.0,0.0,0.0
31.188,-1.802,-0.579,0.0
140.757,-8.117,1.288,19.0
0.0,0.0,0.0,0.0
0.0,0.0,0.0,0.0
0.0,0.0,0.0,0.0
38.084,-2.142,-0.477,0.0
32.24,-1.803,-0.578,0.0
0.0,0.0,0.0,0.0
0.0,0.0,0.0,0.0
0.0,0.0,0.0,0.0
0.0,0.0,0.0,0.0
0.0,0.0,0.0,0.0
0.0,0.0,0.0,0.0
0.0,0.0,0.0,0.0
102.634,-5.49,0.513,1.0
0.0,0.0,0.0,0.0
0.0,0.0,0.0,0.0
0.0,0.0,0.0,0.0
34.009,-1.772,-0.569,0.0
101.517,-5.272,1.114,1.0
102.987,-5.312,0.573,2.0
0.0,0.0,0.0,0.0
49.588,-2.522,-0.265,0.0
0.0,0.0,0.0,0.0
34.329,-1.721,-0.555,0.0
101.566,-5.077,1.17,150.0
103.28,-5.125,0.631,1.0
101.616,-5.006,0.07,3.0
0.0,0.0,0.0,0.0
0.0,0.0,0.0,0.0
0.0,0.0,0.0,0.0
101.559,-4.879,1.221,78.0
0.0,0.0,0.0,0.0
101.532,-4.804,0.12,1.0
0.0,0.0,0.0,0.0
0.0,0.0,0.0,0.0
34.95,-1.615,-0.53,0.0
101.508,-4.673,1.269,3.0
101.458,-4.634,0.718,2.0
0.0,0.0,0.0,0.0
0.0,0.0,0.0,0.0
45.128,-2.012,-0.42,0.0
0.0,0.0,0.0,0.0
101.519,-4.472,1.314,72.0
101.511,-4.434,0.762,4.0
0.0,0.0,0.0,0.0
0.0,0.0,0.0,0.0
0.0,0.0,0.0,0.0
35.866,-1.514,-0.514,0.0
101.545,-4.269,1.356,139.0
101.477,-4.228,0.802,151.0
0.0,0.0,0.0,0.0
0.0,0.0,0.0,0.0
0.0,0.0,0.0,0.0
35.488,-1.426,-0.495,0.0
0.0,0.0,0.0,0.0
0.0,0.0,0.0,0.0
0.0,0.0,0.0,0.0
0.0,0.0,0.0,0.0
0.0,0.0,0.0,0.0
0.0,0.0,0.0,0.0
162.069,-6.15,2.278,11.0
0.0,0.0,0.0,0.0
0.0,0.0,0.0,0.0
0.0,0.0,0.0,0.0
45.667,-1.665,-0.358,0.0
37.733,-1.362,-0.502,0.0
162.092,-5.815,2.327,20.0
162.209,-5.758,1.444,6.0
0.0,0.0,0.0,0.0
0.0,0.0,0.0,0.0
0.0,0.0,0.0,0.0
37.4,-1.273,-0.487,0.0
162.218,-5.484,2.372,22.0
161.972,-5.414,1.483,15.0
0.0,0.0,0.0,0.0
0.0,0.0,0.0,0.0
45.052,-1.456,-0.33,0.0
38.238,-1.222,-0.489,0.0
162.188,-5.143,2.407,15.0
162.139,-5.081,1.52,4.0
0.0,0.0,0.0,0.0
0.0,0.0,0.0,0.0
0.0,0.0,0.0,0.0
0.0,0.0,0.0,0.0
163.844,-4.856,2.463,17.0
162.132,-4.743,1.549,14.0
0.0,0.0,0.0,0.0
0.0,0.0,0.0,0.0
0.0,0.0,0.0,0.0
38.034,-1.056,-0.473,0.0
162.062,-4.462,2.461,7.0
162.05,-4.402,1.572,17.0
0.0,0.0,0.0,0.0
0.0,0.0,0.0,0.0
0.0,0.0,0.0,0.0
38.113,-0.979,-0.47,0.0
170.464,-4.334,2.608,5.0
0.0,0.0,0.0,0.0
0.0,0.0,0.0,0.0
0.0,0.0,0.0,0.0
24.092,-0.576,-0.162,0.0
0.0,0.0,0.0,0.0
0.0,0.0,0.0,0.0
122.978,-2.818,1.215,150.0
0.0,0.0,0.0,0.0
0.0,0.0,0.0,0.0
0.0,0.0,0.0,0.0
38.253,-0.819,-0.466,0.0
0.0,0.0,0.0,0.0
122.933,-2.555,1.219,24.0
0.0,0.0,0.0,0.0
0.0,0.0,0.0,0.0
0.0,0.0,0.0,0.0
37.601,-0.725,-0.458,0.0
123.4,-2.346,1.903,1.0
122.934,-2.292,1.219,154.0
0.0,0.0,0.0,0.0
0.0,0.0,0.0,0.0
0.0,0.0,0.0,0.0
0.0,0.0,0.0,0.0
0.0,0.0,0.0,0.0
122.949,-2.03,1.214,152.0
19.741,-0.318,0.086,8.0
0.0,0.0,0.0,0.0
0.0,0.0,0.0,0.0
0.0,0.0,0.0,0.0
19.782,-0.291,0.302,2.0
19.747,-0.283,0.193,26.0
19.74,-0.276,0.084,16.0
0.0,0.0,0.0,0.0
0.0,0.0,0.0,0.0
0.0,0.0,0.0,0.0
19.74,-0.248,0.3,12.0
19.754,-0.241,0.191,15.0
0.0,0.0,0.0,0.0
26.64,-0.305,-0.039,0.0
0.0,0.0,0.0,0.0
19.791,-0.212,-0.247,0.0
19.773,-0.206,0.297,2.0
164.067,-1.65,1.562,10.0
0.0,0.0,0.0,0.0
19.903,-0.185,-0.032,0.0
19.76,-0.177,-0.141,12.0
19.756,-0.17,-0.251,15.0
169.149,-1.402,2.515,8.0
165.334,-1.309,1.543,9.0
19.771,-0.149,0.075,0.0
19.756,-0.142,-0.036,8.0
19.72,-0.135,-0.145,16.0
19.736,-0.127,-0.255,17.0
19.714,-0.121,0.288,5.0
19.726,-0.114,0.179,14.0
19.71,-0.106,0.07,12.0
19.705,-0.099,-0.041,14.0
19.723,-0.092,-0.15,17.0
19.659,-0.078,0.282,10.0
19.7,-0.071,0.174,16.0
19.692,-0.064,0.064,14.0
19.7,-0.057,-0.046,16.0
19.734,-0.05,-0.156,14.0
19.769,-0.044,-0.266,2.0
19.629,-0.036,0.276,12.0
19.674,-0.029,0.167,8.0
19.7,-0.023,0.058,9.0
19.731,-0.016,-0.052,10.0
19.693,-0.009,-0.162,0.0
19.752,-0.002,-0.272,0.0
19.629,0.004,0.269,15.0
19.739,0.011,0.161,7.0
19.749,0.018,0.051,15.0
19.749,0.025,-0.059,150.0
19.763,0.032,-0.169,16.0
19.773,0.039,-0.279,13.0
19.623,0.046,0.262,13.0
19.682,0.053,0.153,13.0
19.745,0.06,0.044,40.0
19.766,0.067,-0.067,26.0
19.76,0.074,-0.177,16.0
19.774,0.081,-0.287,1.0
19.623,0.087,0.254,16.0
19.653,0.094,0.145,13.0
19.65,0.101,0.035,11.0
19.679,0.108,-0.075,6.0
19.719,0.115,-0.185,0.0
32.509,0.201,-0.487,0.0
19.644,0.128,0.246,12.0
19.653,0.135,0.136,14.0
19.645,0.142,0.026,17.0
19.636,0.149,-0.084,12.0
19.646,0.156,-0.194,13.0
19.674,0.163,-0.304,9.0
19.664,0.17,0.236,11.0
19.673,0.176,0.127,10.0
19.655,0.183,0.017,12.0
19.621,0.189,-0.094,16.0
19.632,0.196,-0.203,16.0
19.659,0.203,-0.314,16.0
19.772,0.211,0.227,22.0
19.773,0.218,0.117,18.0
19.684,0.224,0.006,8.0
19.637,0.23,-0.104,15.0
19.648,0.237,-0.214,17.0
19.677,0.244,-0.324,14.0
19.769,0.253,0.217,25.0
19.803,0.259,0.106,2.0
57.201,0.77,-0.011,2.0
19.697,0.271,-0.116,6.0
19.682,0.278,-0.226,12.0
19.673,0.284,-0.336,5.0
163.409,2.429,1.697,17.0
113.679,1.727,0.544,2.0
55.178,0.856,-0.044,15.0
0.0,0.0,0.0,0.0
34.962,0.566,-0.423,0.0
31.931,0.528,-0.565,0.0
55.173,0.933,0.538,68.0
55.164,0.951,0.229,81.0
55.104,0.968,-0.079,10.0
40.192,0.72,-0.287,1.0
32.313,0.589,-0.412,0.0
29.619,0.549,-0.544,0.0
55.172,1.045,0.502,1.0
0.0,0.0,0.0,0.0
55.038,1.078,-0.116,1.0
38.63,0.769,-0.302,1.0
33.003,0.667,-0.443,2.0
27.098,0.557,-0.516,0.0
113.84,2.386,0.956,8.0
0.0,0.0,0.0,0.0
0.0,0.0,0.0,0.0
38.309,0.84,-0.327,2.0
31.022,0.69,-0.439,1.0
26.467,0.598,-0.523,0.0
70.813,1.627,0.543,9.0
45.558,1.061,0.093,8.0
0.0,0.0,0.0,0.0
36.813,0.88,-0.341,2.0
30.241,0.733,-0.45,1.0
25.781,0.633,-0.529,0.0
70.644,1.763,0.488,22.0
0.0,0.0,0.0,0.0
40.135,1.026,-0.174,150.0
0.0,0.0,0.0,0.0
29.553,0.775,-0.463,2.0
25.691,0.682,-0.547,5.0
43.689,1.176,0.267,73.0
40.138,1.093,0.019,159.0
40.071,1.103,-0.205,66.0
34.35,0.956,-0.373,1.0
28.868,0.813,-0.476,2.0
24.936,0.71,-0.552,1.0
40.132,1.158,0.212,120.0
40.137,1.171,-0.014,150.0
40.026,1.18,-0.239,41.0
40.168,1.196,-0.47,2.0
27.525,0.828,-0.477,7.0
24.362,0.74,-0.56,0.0
40.136,1.236,0.177,132.0
40.136,1.248,-0.048,150.0
39.999,1.256,-0.274,19.0
40.145,1.272,-0.505,3.0
27.597,0.883,-0.503,2.0
23.705,0.765,-0.566,0.0
40.134,1.312,0.141,150.0
40.086,1.322,-0.084,88.0
0.0,0.0,0.0,0.0
31.616,1.062,-0.426,1.0
26.933,0.912,-0.515,2.0
22.518,0.769,-0.558,2.0
40.133,1.388,0.104,150.0
40.12,1.399,-0.122,137.0
37.175,1.307,-0.323,1.0
30.15,1.069,-0.435,1.0
26.219,0.937,-0.526,3.0
21.982,0.792,-0.566,0.0
42.662,1.555,0.07,2.0
42.32,1.555,-0.169,2.0
36.308,1.344,-0.35,3.0
29.513,1.101,-0.455,3.0
25.016,0.941,-0.527,1.0
21.48,0.814,-0.574,2.0
40.348,1.545,0.026,150.0
40.346,1.556,-0.201,102.0
40.433,1.571,-0.43,0.0
28.648,1.121,-0.47,3.0
23.687,0.934,-0.523,24.0
21.086,0.837,-0.585,1.0
40.341,1.618,-0.014,150.0
40.285,1.627,-0.242,46.0
33.395,1.357,-0.39,1.0
27.768,1.136,-0.484,7.0
23.54,0.97,-0.544,24.0
20.723,0.859,-0.596,2.0
40.331,1.689,-0.056,4.0
23.65,0.996,-0.166,36.0
23.64,1.003,-0.301,42.0
23.648,1.009,-0.437,40.0
23.261,0.999,-0.562,10.0
19.996,0.865,-0.596,2.0
23.62,1.03,-0.058,50.0
23.61,1.036,-0.192,61.0
23.6,1.042,-0.325,63.0
23.622,1.049,-0.462,91.0
0.0,0.0,0.0,0.0
19.674,0.884,-0.608,3.0
23.614,1.07,-0.084,67.0
23.609,1.076,-0.217,62.0
23.613,1.083,-0.351,60.0
23.624,1.09,-0.488,52.0
23.667,1.098,-0.624,1.0
19.144,0.893,-0.613,3.0
23.631,1.111,-0.11,41.0
23.64,1.117,-0.244,37.0
23.647,1.124,-0.378,34.0
23.615,1.128,-0.515,27.0
21.077,1.013,-0.579,2.0
18.687,0.903,-0.62,3.0
40.291,1.962,-0.234,23.0
33.279,1.628,-0.382,4.0
27.495,1.352,-0.472,1.0
23.702,1.172,-0.544,34.0
20.413,1.014,-0.584,1.0
18.385,0.918,-0.631,3.0
39.349,1.98,-0.275,15.0
31.665,1.601,-0.401,5.0
26.685,1.355,-0.489,1.0
23.343,1.192,-0.563,12.0
19.907,1.021,-0.594,2.0
18.129,0.934,-0.644,3.0
36.14,1.876,-0.295,3.0
30.406,1.585,-0.421,4.0
25.63,1.343,-0.501,1.0
21.819,1.148,-0.553,0.0
19.492,1.031,-0.605,3.0
17.762,0.943,-0.652,1.0
35.359,1.891,-0.332,9.0
29.102,1.563,-0.438,4.0
24.9,1.343,-0.517,1.0
21.372,1.158,-0.567,2.0
18.963,1.032,-0.612,3.0
17.364,0.949,-0.659,1.0
33.775,1.858,-0.358,10.0
28.251,1.56,-0.461,3.0
24.185,1.341,-0.532,0.0
19.924,1.109,-0.554,7.0
18.561,1.038,-0.622,3.0
17.143,0.963,-0.672,2.0
31.856,1.8,-0.379,9.0
27.258,1.546,-0.479,6.0
19.888,1.133,-0.463,2.0
19.722,1.128,-0.573,8.0
18.215,1.046,-0.634,2.0
16.969,0.978,-0.687,2.0
30.273,1.756,-0.399,9.0
26.064,1.517,-0.492,1.0
19.75,1.154,-0.485,9.0
19.612,1.15,-0.596,9.0
17.939,1.056,-0.648,1.0
16.805,0.993,-0.703,2.0
13.169,1.108,-0.803,0.0
12.319,1.037,-0.822,0.0
11.532,0.971,-0.836,0.0
10.872,0.916,-0.852,0.0
10.275,0.866,-0.865,0.0
9.799,0.827,-0.882,0.0
13.005,1.095,-0.811,0.0
12.21,1.028,-0.832,0.0
11.367,0.958,-0.84,0.0
10.688,0.901,-0.853,0.0
10.158,0.857,-0.869,0.0
9.686,0.818,-0.885,0.0
12.865,1.083,-0.82,0.0
11.96,1.008,-0.832,0.0
11.226,0.946,-0.845,0.0
10.548,0.889,-0.856,0.0
10.097,0.852,-0.878,0.0
9.583,0.809,-0.889,0.0
12.569,1.058,-0.819,0.0
11.778,0.992,-0.835,0.0
11.047,0.931,-0.847,0.0
10.417,0.878,-0.86,0.0
9.924,0.837,-0.877,0.0
9.468,0.799,-0.891,0.0
12.403,1.044,-0.825,0.0
11.643,0.98,-0.841,0.0
10.924,0.92,-0.852,0.0
10.321,0.869,-0.866,0.0
9.808,0.826,-0.88,0.0
9.291,0.783,-0.887,0.0
12.229,1.028,-0.829,0.0
11.39,0.957,-0.838,0.0
10.814,0.909,-0.858,0.0
10.118,0.851,-0.863,0.0
9.703,0.816,-0.883,0.0
9.186,0.773,-0.89,0.0
12.02,1.009,-0.831,0.0
11.256,0.945,-0.843,0.0
10.593,0.889,-0.855,0.0
10.101,0.848,-0.875,0.0
9.567,0.803,-0.884,0.0
11.852,0.992,-0.835,0.0
11.116,0.931,-0.848,0.0
10.5,0.879,-0.861,0.0
9.985,0.836,-0.878,0.0
9.484,0.794,-0.889,0.0
11.682,0.975,-0.838,0.0
10.989,0.917,-0.852,0.0
10.351,0.864,-0.862,0.0
9.845,0.822,-0.878,0.0
9.346,0.78,-0.887,0.0
8.854,0.739,-0.892,0.0
11.504,0.957,-0.84,0.0
10.83,0.901,-0.853,0.0
10.23,0.851,-0.865,0.0
9.744,0.811,-0.881,0.0
9.241,0.769,-0.889,0.0
8.748,0.728,-0.892,0.0
11.329,0.939,-0.841,0.0
10.64,0.882,-0.851,0.0
10.121,0.839,-0.868,0.0
9.641,0.799,-0.884,0.0
9.125,0.756,-0.889,0.0
8.631,0.715,-0.891,0.0
11.21,0.926,-0.846,0.0
10.546,0.871,-0.856,0.0
10.048,0.83,-0.874,0.0
9.517,0.786,-0.884,0.0
9.031,0.745,-0.891,0.0
8.572,0.707,-0.895,0.0
11.122,0.914,-0.852,0.0
10.484,0.862,-0.864,0.0
9.928,0.816,-0.875,0.0
9.468,0.778,-0.89,0.0
8.959,0.736,-0.894,0.0
8.491,0.697,-0.897,0.0
10.93,0.894,-0.85,0.0
10.325,0.844,-0.863,0.0
9.866,0.806,-0.881,0.0
9.322,0.762,-0.887,0.0
8.859,0.724,-0.895,0.0
8.404,0.686,-0.897,0.0
10.814,0.879,-0.854,0.0
10.197,0.829,-0.864,0.0
9.705,0.789,-0.878,0.0
9.222,0.749,-0.888,0.0
8.778,0.713,-0.896,0.0
8.346,0.678,-0.901,0.0
10.666,0.862,-0.854,0.0
10.127,0.818,-0.869,0.0
9.675,0.781,-0.886,0.0
9.148,0.738,-0.891,0.0
8.727,0.704,-0.901,0.0
8.261,0.666,-0.901,0.0
10.545,0.847,-0.855,0.0
10.058,0.807,-0.874,0.0
9.573,0.768,-0.887,0.0
8.555,0.686,-0.892,0.0
8.21,0.658,-0.904,0.0
10.415,0.83,-0.856,0.0
9.965,0.794,-0.876,0.0
9.51,0.757,-0.891,0.0
8.957,0.713,-0.892,0.0
8.512,0.677,-0.897,0.0
8.145,0.648,-0.905,0.0
10.348,0.819,-0.861,0.0
9.878,0.781,-0.879,0.0
9.406,0.743,-0.891,0.0
8.427,0.665,-0.896,0.0
8.063,0.636,-0.904,0.0
10.261,0.806,-0.864,0.0
9.814,0.77,-0.883,0.0
9.327,0.731,-0.892,0.0
8.804,0.69,-0.894,0.0
8.397,0.657,-0.901,0.0
8.023,0.628,-0.907,0.0
10.188,0.793,-0.867,0.0
9.706,0.755,-0.882,0.0
9.224,0.717,-0.891,0.0
8.738,0.679,-0.896,0.0
8.33,0.646,-0.902,0.0
7.963,0.617,-0.908,0.0
10.124,0.781,-0.871,0.0
9.651,0.744,-0.886,0.0
9.127,0.703,-0.89,0.0
8.699,0.669,-0.9,0.0
8.267,0.635,-0.903,0.0
7.932,0.609,-0.912,0.0
10.061,0.769,-0.875,0.0
9.582,0.731,-0.888,0.0
8.6,0.655,-0.897,0.0
8.218,0.625,-0.904,0.0
7.896,0.6,-0.915,0.0
10.001,0.757,-0.878,0.0
9.57,0.723,-0.895,0.0
8.977,0.678,-0.891,0.0
8.513,0.642,-0.895,0.0
8.155,0.614,-0.904,0.0
7.871,0.592,-0.918,0.0
9.953,0.745,-0.882,0.0
9.477,0.708,-0.894,0.0
8.967,0.669,-0.898,0.0
8.518,0.635,-0.903,0.0
8.1,0.603,-0.905,0.0
7.843,0.584,-0.921,0.0
9.855,0.729,-0.881,0.0
9.422,0.697,-0.896,0.0
8.911,0.658,-0.899,0.0
8.413,0.62,-0.898,0.0
8.052,0.593,-0.906,0.0
7.784,0.573,-0.92,0.0
9.782,0.716,-0.882,0.0
9.293,0.679,-0.891,0.0
8.862,0.647,-0.901,0.0
8.353,0.609,-0.898,0.0
8.006,0.583,-0.906,0.0
7.768,0.565,-0.924,0.0
9.744,0.704,-0.886,0.0
9.259,0.668,-0.894,0.0
8.844,0.638,-0.905,0.0
8.348,0.601,-0.903,0.0
8.003,0.575,-0.912,0.0
7.724,0.555,-0.924,0.0
9.702,0.693,-0.888,0.0
9.171,0.654,-0.892,0.0
8.787,0.625,-0.905,0.0
8.314,0.591,-0.905,0.0
7.939,0.563,-0.91,0.0
7.704,0.546,-0.927,0.0
9.646,0.679,-0.889,0.0
9.079,0.638,-0.889,0.0
8.741,0.614,-0.906,0.0
8.247,0.578,-0.903,0.0
7.942,0.556,-0.915,0.0
7.691,0.538,-0.93,0.0
9.594,0.667,-0.89,0.0
9.084,0.63,-0.895,0.0
8.646,0.599,-0.901,0.0
8.239,0.57,-0.907,0.0
7.936,0.548,-0.919,0.0
7.613,0.525,-0.925,0.0
9.54,0.653,-0.891,0.0
9.035,0.618,-0.895,0.0
8.607,0.587,-0.902,0.0
8.159,0.556,-0.902,0.0
7.896,0.537,-0.918,0.0
7.606,0.517,-0.928,0.0
9.515,0.642,-0.893,0.0
8.998,0.606,-0.896,0.0
8.563,0.576,-0.901,0.0
8.156,0.547,-0.906,0.0
7.879,0.528,-0.92,0.0
7.599,0.508,-0.931,0.0
9.479,0.63,-0.895,0.0
9.038,0.599,-0.904,0.0
8.551,0.566,-0.904,0.0
8.157,0.539,-0.91,0.0
7.837,0.517,-0.919,0.0
7.574,0.499,-0.932,0.0
9.431,0.617,-0.894,0.0
8.981,0.586,-0.902,0.0
8.529,0.555,-0.906,0.0
8.094,0.526,-0.906,0.0
7.814,0.507,-0.92,0.0
7.555,0.489,-0.933,0.0
9.411,0.605,-0.896,0.0
8.958,0.575,-0.904,0.0
8.446,0.541,-0.9,0.0
8.078,0.516,-0.908,0.0
7.819,0.499,-0.923,0.0
7.52,0.479,-0.931,0.0
9.39,0.594,-0.897,0.0
8.891,0.561,-0.9,0.0
8.49,0.534,-0.908,0.0
8.089,0.508,-0.912,0.0
7.778,0.487,-0.921,0.0
7.499,0.469,-0.931,0.0
9.371,0.582,-0.898,0.0
8.847,0.548,-0.898,0.0
8.49,0.525,-0.91,0.0
8.061,0.497,-0.911,0.0
7.777,0.479,-0.923,0.0
7.499,0.461,-0.933,0.0
9.344,0.57,-0.898,0.0
8.824,0.537,-0.898,0.0
8.5,0.516,-0.914,0.0
8.045,0.487,-0.911,0.0
7.786,0.47,-0.926,0.0
7.489,0.451,-0.934,0.0
9.327,0.558,-0.899,0.0
8.848,0.528,-0.903,0.0
8.457,0.503,-0.911,0.0
8.02,0.476,-0.91,0.0
7.784,0.461,-0.928,0.0
7.454,0.44,-0.931,0.0
9.305,0.546,-0.899,0.0
8.785,0.514,-0.898,0.0
8.452,0.493,-0.912,0.0
8.065,0.469,-0.916,0.0
7.766,0.451,-0.927,0.0
7.483,0.433,-0.935,0.0
9.343,0.537,-0.904,0.0
8.78,0.503,-0.899,0.0
8.395,0.48,-0.907,0.0
8.031,0.458,-0.914,0.0
7.751,0.441,-0.926,0.0
7.457,0.423,-0.933,0.0
9.34,0.526,-0.904,0.0
8.865,0.497,-0.908,0.0
8.381,0.469,-0.906,0.0
8.059,0.449,-0.917,0.0
7.774,0.432,-0.929,0.0
7.467,0.414,-0.935,0.0
9.332,0.514,-0.904,0.0
8.853,0.486,-0.907,0.0
8.407,0.46,-0.909,0.0
8.033,0.438,-0.915,0.0
7.755,0.422,-0.927,0.0
7.454,0.404,-0.933,0.0
9.315,0.502,-0.902,0.0
8.806,0.473,-0.902,0.0
8.47,0.453,-0.916,0.0
8.04,0.429,-0.915,0.0
7.753,0.412,-0.927,0.0
7.455,0.395,-0.933,0.0
9.307,0.49,-0.901,0.0
8.416,0.44,-0.909,0.0
8.046,0.419,-0.916,0.0
7.76,0.403,-0.927,0.0
7.465,0.386,-0.934,0.0
9.316,0.478,-0.901,0.0
8.853,0.453,-0.906,0.0
8.43,0.43,-0.91,0.0
8.028,0.408,-0.913,0.0
7.779,0.394,-0.928,0.0
7.481,0.377,-0.935,0.0
9.368,0.469,-0.905,0.0
8.887,0.444,-0.908,0.0
8.439,0.42,-0.91,0.0
8.034,0.398,-0.912,0.0
7.794,0.385,-0.929,0.0
7.482,0.368,-0.934,0.0
9.369,0.458,-0.904,0.0
8.894,0.433,-0.907,0.0
8.471,0.411,-0.912,0.0
8.067,0.39,-0.914,0.0
7.81,0.376,-0.929,0.0
7.501,0.359,-0.935,0.0
9.394,0.447,-0.904,0.0
8.909,0.422,-0.907,0.0
8.495,0.401,-0.912,0.0
8.091,0.38,-0.915,0.0
7.805,0.366,-0.927,0.0
7.509,0.35,-0.934,0.0
9.42,0.436,-0.904,0.0
8.896,0.41,-0.903,0.0
8.541,0.392,-0.915,0.0
8.14,0.372,-0.918,0.0
7.824,0.356,-0.927,0.0
7.548,0.342,-0.936,0.0
9.414,0.424,-0.901,0.0
8.966,0.402,-0.908,0.0
8.574,0.383,-0.916,0.0
8.158,0.363,-0.918,0.0
7.862,0.348,-0.928,0.0
7.568,0.334,-0.936,0.0
9.458,0.414,-0.901,0.0
8.992,0.392,-0.907,0.0
8.564,0.371,-0.911,0.0
8.185,0.354,-0.918,0.0
7.874,0.339,-0.927,0.0
7.582,0.325,-0.935,0.0
9.506,0.404,-0.902,0.0
9.054,0.383,-0.91,0.0
8.615,0.363,-0.913,0.0
8.225,0.345,-0.919,0.0
7.935,0.331,-0.931,0.0
7.603,0.316,-0.934,0.0
9.554,0.394,-0.903,0.0
9.102,0.373,-0.91,0.0
8.67,0.354,-0.915,0.0
8.296,0.337,-0.923,0.0
7.953,0.321,-0.929,0.0
7.636,0.307,-0.934,0.0
9.591,0.383,-0.901,0.0
9.162,0.364,-0.912,0.0
8.715,0.344,-0.915,0.0
8.302,0.327,-0.919,0.0
7.976,0.312,-0.927,0.0
7.657,0.298,-0.933,0.0
9.663,0.374,-0.903,0.0
9.223,0.355,-0.913,0.0
8.791,0.336,-0.919,0.0
8.373,0.319,-0.922,0.0
8.005,0.303,-0.926,0.0
7.708,0.29,-0.935,0.0
9.703,0.363,-0.901,0.0
9.232,0.343,-0.908,0.0
8.785,0.325,-0.913,0.0
8.382,0.308,-0.918,0.0
8.075,0.295,-0.929,0.0
7.747,0.282,-0.935,0.0
9.77,0.353,-0.901,0.0
9.303,0.334,-0.909,0.0
8.818,0.315,-0.911,0.0
8.426,0.299,-0.918,0.0
8.089,0.286,-0.926,0.0
7.787,0.273,-0.934,0.0
9.823,0.342,-0.9,0.0
9.374,0.325,-0.91,0.0
8.895,0.306,-0.913,0.0
8.538,0.292,-0.924,0.0
8.157,0.278,-0.928,0.0
7.826,0.265,-0.933,0.0
9.862,0.332,-0.896,0.0
9.419,0.315,-0.908,0.0
8.985,0.298,-0.915,0.0
8.604,0.284,-0.925,0.0
8.196,0.269,-0.926,0.0
7.88,0.257,-0.934,0.0
9.963,0.322,-0.898,0.0
9.522,0.306,-0.91,0.0
9.027,0.288,-0.913,0.0
8.634,0.274,-0.921,0.0
8.252,0.26,-0.926,0.0
7.942,0.249,-0.935,0.0
10.046,0.312,-0.898,0.0
9.589,0.296,-0.909,0.0
9.083,0.279,-0.911,0.0
8.694,0.265,-0.92,0.0
8.341,0.253,-0.929,0.0
7.994,0.24,-0.934,0.0
10.143,0.303,-0.898,0.0
9.653,0.286,-0.907,0.0
9.187,0.271,-0.913,0.0
8.747,0.256,-0.918,0.0
8.381,0.243,-0.926,0.0
8.024,0.231,-0.931,0.0
10.268,0.294,-0.9,0.0
9.743,0.277,-0.907,0.0
9.251,0.261,-0.911,0.0
8.829,0.247,-0.919,0.0
8.46,0.235,-0.927,0.0
8.101,0.223,-0.932,0.0
10.321,0.283,-0.895,0.0
9.814,0.267,-0.904,0.0
9.334,0.252,-0.911,0.0
8.92,0.239,-0.92,0.0
8.507,0.226,-0.924,0.0
8.119,0.214,-0.926,0.0
10.383,0.272,-0.89,0.0
9.899,0.257,-0.902,0.0
9.466,0.244,-0.914,0.0
8.969,0.23,-0.916,0.0
8.591,0.218,-0.924,0.0
8.229,0.207,-0.931,0.0
10.491,0.263,-0.889,0.0
9.996,0.248,-0.901,0.0
9.531,0.235,-0.911,0.0
9.088,0.222,-0.919,0.0
8.675,0.21,-0.924,0.0
8.289,0.199,-0.929,0.0
10.649,0.254,-0.891,0.0
10.068,0.238,-0.897,0.0
9.617,0.225,-0.909,0.0
9.118,0.212,-0.912,0.0
8.759,0.202,-0.924,0.0
8.362,0.191,-0.928,0.0
10.758,0.244,-0.889,0.0
10.229,0.23,-0.9,0.0
9.734,0.217,-0.909,0.0
9.124,0.201,-0.903,0.0
8.858,0.194,-0.924,0.0
8.462,0.183,-0.929,0.0
10.884,0.234,-0.887,0.0
10.333,0.221,-0.897,0.0
9.823,0.208,-0.906,0.0
9.366,0.196,-0.915,0.0
8.924,0.185,-0.921,0.0
8.539,0.175,-0.927,0.0
11.042,0.225,-0.886,0.0
10.43,0.211,-0.894,0.0
9.94,0.199,-0.905,0.0
9.44,0.187,-0.911,0.0
9.061,0.178,-0.924,0.0
8.614,0.167,-0.925,0.0
11.217,0.216,-0.887,0.0
10.62,0.203,-0.897,0.0
10.102,0.191,-0.907,0.0
9.573,0.179,-0.913,0.0
9.146,0.169,-0.921,0.0
8.714,0.159,-0.925,0.0
11.398,0.207,-0.887,0.0
10.752,0.193,-0.894,0.0
10.15,0.181,-0.899,0.0
9.67,0.17,-0.909,0.0
9.273,0.161,-0.922,0.0
8.829,0.152,-0.926,0.0
11.496,0.197,-0.88,0.0
10.891,0.184,-0.892,0.0
10.303,0.172,-0.899,0.0
9.808,0.162,-0.91,0.0
9.393,0.153,-0.922,0.0
8.916,0.144,-0.923,0.0
11.731,0.188,-0.882,0.0
11.078,0.176,-0.893,0.0
10.483,0.164,-0.901,0.0
9.982,0.154,-0.912,0.0
9.466,0.144,-0.916,0.0
9.054,0.136,-0.925,0.0
11.942,0.179,-0.882,1.0
11.208,0.166,-0.888,0.0
10.647,0.155,-0.9,1.0
10.101,0.146,-0.909,0.0
9.57,0.136,-0.913,0.0
9.184,0.129,-0.925,0.0
12.108,0.169,-0.877,2.0
11.402,0.157,-0.887,0.0
10.783,0.147,-0.896,0.0
10.215,0.137,-0.905,0.0
9.74,0.129,-0.915,0.0
9.263,0.121,-0.92,0.0
12.279,0.159,-0.872,1.0
11.641,0.149,-0.889,1.0
10.968,0.138,-0.896,0.0
10.388,0.129,-0.905,0.0
9.873,0.121,-0.913,0.0
9.421,0.114,-0.921,0.0
12.527,0.15,-0.871,0.0
11.766,0.139,-0.881,2.0
11.114,0.129,-0.891,0.0
10.573,0.121,-0.905,0.0
9.98,0.113,-0.908,0.0
9.502,0.105,-0.915,0.0
12.757,0.141,-0.868,1.0
11.988,0.13,-0.879,1.0
11.326,0.121,-0.891,0.0
10.707,0.113,-0.9,0.0
10.172,0.105,-0.91,0.0
9.695,0.099,-0.919,0.0
12.992,0.132,-0.864,0.0
12.206,0.122,-0.877,1.0
11.535,0.113,-0.889,0.0
10.91,0.105,-0.9,0.0
10.333,0.097,-0.908,0.0
9.837,0.091,-0.916,0.0
13.255,0.122,-0.861,1.0
12.435,0.113,-0.873,0.0
11.725,0.104,-0.886,0.0
11.087,0.097,-0.897,0.0
10.518,0.09,-0.907,0.0
10.007,0.084,-0.916,0.0
13.495,0.113,-0.855,0.0
12.671,0.104,-0.869,0.0
11.944,0.096,-0.883,0.0
11.302,0.089,-0.896,0.0
10.693,0.082,-0.904,0.0
10.146,0.076,-0.912,0.0
13.8,0.104,-0.851,0.0
12.927,0.095,-0.866,0.0
12.171,0.087,-0.879,0.0
11.488,0.081,-0.892,0.0
10.869,0.074,-0.901,0.0
10.308,0.069,-0.909,0.0
14.1,0.094,-0.846,0.0
13.207,0.086,-0.863,0.0
12.398,0.079,-0.875,0.0
11.715,0.073,-0.89,0.0
11.076,0.067,-0.9,0.0
10.492,0.062,-0.908,0.0
14.472,0.085,-0.844,0.0
13.481,0.077,-0.858,1.0
12.662,0.071,-0.872,1.0
11.934,0.065,-0.886,0.0
11.286,0.06,-0.897,0.0
10.69,0.055,-0.906,0.0
14.834,0.076,-0.84,0.0
13.791,0.069,-0.853,0.0
12.909,0.062,-0.867,0.0
12.171,0.057,-0.882,0.0
11.494,0.052,-0.894,0.0
10.871,0.048,-0.903,0.0
15.218,0.067,-0.835,0.0
14.116,0.06,-0.849,0.0
13.19,0.054,-0.862,0.0
12.416,0.049,-0.878,0.0
11.697,0.045,-0.889,0.0
11.07,0.041,-0.899,0.0
15.61,0.058,-0.829,0.0
14.482,0.051,-0.845,0.0
13.494,0.046,-0.858,0.0
12.655,0.041,-0.872,0.0
11.943,0.038,-0.886,0.0
11.312,0.034,-0.899,0.0
15.939,0.048,-0.818,0.0
14.918,0.043,-0.844,0.0
13.759,0.038,-0.85,0.0
12.922,0.034,-0.867,1.0
12.224,0.03,-0.884,0.0
11.533,0.027,-0.895,0.0
16.472,0.039,-0.815,0.0
15.293,0.034,-0.837,0.0
14.217,0.03,-0.852,0.0
13.245,0.026,-0.864,0.0
12.452,0.023,-0.878,0.0
11.766,0.02,-0.891,0.0
17.015,0.03,-0.81,0.0
15.678,0.026,-0.828,0.0
14.58,0.022,-0.847,0.0
13.578,0.019,-0.861,0.0
12.724,0.016,-0.873,0.0
12.001,0.014,-0.886,0.0
17.736,0.021,-0.812,0.0
15.98,0.017,-0.814,0.0
15.028,0.014,-0.844,0.0
13.882,0.012,-0.854,0.0
13.011,0.009,-0.868,0.0
12.287,0.008,-0.884,0.0
18.174,0.012,-0.797,0.0
16.657,0.009,-0.817,0.0
15.415,0.007,-0.837,0.0
14.292,0.005,-0.852,0.0
13.328,0.003,-0.864,0.0
12.518,0.001,-0.877,0.0
18.941,0.003,-0.795,0.0
17.235,0.001,-0.813,0.0
15.744,0.0,-0.824,0.0
14.618,-0.002,-0.843,0.0
13.696,-0.003,-0.861,0.0
12.81,-0.004,-0.872,0.0
19.645,-0.006,-0.786,2.0
17.779,-0.007,-0.803,0.0
16.285,-0.008,-0.821,0.0
15.128,-0.009,-0.843,0.0
14.026,-0.009,-0.854,0.0
13.125,-0.01,-0.868,0.0
19.789,-0.014,-0.753,2.0
18.59,-0.015,-0.804,0.0
16.812,-0.015,-0.814,0.0
15.58,-0.015,-0.837,0.0
14.417,-0.016,-0.849,0.0
13.475,-0.016,-0.864,0.0
20.694,-0.023,-0.747,0.0
19.217,-0.023,-0.793,0.0
17.543,-0.023,-0.815,0.0
15.832,-0.022,-0.819,0.0
14.935,-0.022,-0.85,0.0
13.825,-0.021,-0.859,0.0
21.484,-0.032,-0.732,0.0
19.718,-0.031,-0.774,2.0
18.242,-0.03,-0.81,0.0
16.562,-0.029,-0.823,0.0
15.318,-0.028,-0.841,0.0
14.22,-0.027,-0.854,0.0
22.702,-0.042,-0.728,0.0
19.863,-0.038,-0.739,0.0
18.781,-0.037,-0.796,0.0
17.046,-0.035,-0.813,0.0
15.725,-0.033,-0.831,0.0
14.674,-0.032,-0.852,0.0
23.734,-0.051,-0.712,0.0
21.164,-0.047,-0.745,0.0
19.655,-0.045,-0.793,1.0
17.795,-0.042,-0.812,0.0
16.363,-0.039,-0.831,0.0
15.143,-0.037,-0.848,0.0
24.901,-0.06,-0.697,0.0
22.39,-0.056,-0.742,0.0
19.754,-0.05,-0.757,2.0
18.577,-0.048,-0.809,0.0
16.74,-0.044,-0.816,0.0
15.521,-0.042,-0.837,0.0
26.056,-0.069,-0.676,0.0
23.066,-0.062,-0.717,0.0
20.807,-0.057,-0.754,0.0
19.217,-0.054,-0.798,0.0
17.459,-0.05,-0.815,0.0
16.005,-0.046,-0.83,0.0
19.775,-0.056,-0.472,1.0
19.737,-0.057,-0.573,0.0
21.336,-0.062,-0.73,0.0
19.715,-0.058,-0.778,2.0
18.073,-0.054,-0.807,0.0
16.631,-0.051,-0.828,0.0
19.781,-0.059,-0.431,2.0
19.755,-0.06,-0.533,0.0
22.676,-0.07,-0.728,0.0
19.89,-0.062,-0.743,0.0
18.864,-0.059,-0.802,0.0
16.965,-0.054,-0.809,0.0
19.777,-0.062,-0.389,7.0
19.763,-0.062,-0.491,2.0
19.77,-0.063,-0.593,0.0
19.947,-0.064,-0.703,0.0
19.647,-0.063,-0.794,1.0
17.776,-0.058,-0.81,0.0
19.764,-0.063,-0.348,10.0
19.784,-0.064,-0.451,4.0
19.762,-0.064,-0.552,2.0
19.831,-0.065,-0.658,0.0
19.798,-0.065,-0.759,2.0
18.609,-0.061,-0.809,0.0
19.771,-0.064,-0.306,16.0
19.766,-0.064,-0.408,8.0
19.762,-0.065,-0.51,2.0
19.758,-0.065,-0.613,0.0
19.9,-0.066,-0.721,0.0
19.371,-0.064,-0.801,0.0
19.766,-0.064,-0.264,15.0
19.777,-0.064,-0.366,10.0
19.771,-0.064,-0.468,3.0
19.768,-0.065,-0.572,2.0
19.768,-0.065,-0.674,0.0
19.723,-0.065,-0.774,2.0
19.747,-0.063,-0.222,15.0
19.756,-0.063,-0.324,15.0
19.768,-0.064,-0.426,5.0
19.781,-0.064,-0.53,2.0
19.816,-0.064,-0.633,0.0
19.908,-0.064,-0.739,0.0
19.741,-0.062,-0.181,15.0
19.758,-0.062,-0.282,14.0
19.776,-0.062,-0.385,7.0
19.76,-0.062,-0.488,2.0
19.809,-0.062,-0.591,0.0
21.248,-0.066,-0.743,0.0
121.993,2.352,6.868,17.0
121.641,2.371,6.208,19.0
121.474,2.392,5.559,23.0
121.312,2.414,4.902,24.0
135.166,2.718,4.751,18.0
135.381,2.75,4.045,19.0
129.471,2.654,7.504,10.0
121.852,2.524,6.42,12.0
121.699,2.545,5.768,14.0
121.437,2.566,5.104,23.0
121.227,2.587,4.456,19.0
135.188,2.914,4.257,11.0
133.611,2.906,7.96,9.0
121.859,2.675,6.615,11.0
129.487,2.869,6.345,14.0
114.952,2.572,5.014,9.0
121.186,2.738,4.647,23.0
114.189,2.604,3.776,11.0
133.387,3.069,8.157,25.0
133.851,3.107,7.477,11.0
129.534,3.036,6.551,12.0
128.942,3.05,5.827,13.0
121.31,2.895,4.839,8.0
113.963,2.745,3.944,20.0
121.44,2.95,7.616,22.0
134.237,3.29,7.708,18.0
114.51,2.832,5.967,16.0
129.062,3.22,6.029,11.0
121.423,3.055,5.028,8.0
45.489,1.155,1.643,3.0
0.0,0.0,0.0,0.0
0.0,0.0,0.0,0.0
43.704,1.138,2.343,41.0
43.69,1.147,2.106,87.0
43.712,1.157,1.875,150.0
0.0,0.0,0.0,0.0
41.897,1.128,2.753,72.0
41.904,1.137,2.531,115.0
0.0,0.0,0.0,0.0
0.0,0.0,0.0,0.0
0.0,0.0,0.0,0.0
41.9,1.175,1.635,32.0
40.111,1.134,2.694,150.0
40.111,1.143,2.48,147.0
40.101,1.152,2.266,150.0
40.112,1.161,2.049,126.0
40.115,1.17,1.836,121.0
40.106,1.179,1.622,150.0
40.12,1.189,2.752,150.0
40.121,1.198,2.537,118.0
40.109,1.207,2.322,130.0
40.124,1.217,2.106,114.0
40.118,1.226,1.891,107.0
40.13,1.235,1.678,97.0
40.115,1.245,2.807,128.0
40.121,1.254,2.592,149.0
40.121,1.263,2.378,111.0
40.111,1.272,2.159,107.0
40.119,1.282,1.946,101.0
40.124,1.291,1.732,101.0
40.097,1.3,2.859,49.0
40.154,1.311,2.648,47.0
0.0,0.0,0.0,0.0
120.181,3.981,6.628,24.0
121.197,4.043,6.037,19.0
120.143,4.036,5.342,17.0
40.213,1.361,2.92,150.0
40.206,1.37,2.704,150.0
0.0,0.0,0.0,0.0
120.201,4.152,6.782,6.0
121.15,4.215,6.189,22.0
120.183,4.209,5.496,16.0
40.188,1.418,2.969,66.0
40.19,1.427,2.753,150.0
45.592,1.63,2.879,44.0
135.141,4.864,7.794,12.0
121.077,4.387,6.334,17.0
134.308,4.899,6.308,11.0
40.109,1.474,3.013,12.0
40.206,1.487,2.804,113.0
43.81,1.63,2.82,122.0
121.349,4.545,7.146,15.0
121.004,4.561,6.476,21.0
134.293,5.095,6.467,13.0
0.0,0.0,0.0,0.0
40.212,1.546,2.852,144.0
0.0,0.0,0.0,0.0
135.725,5.284,8.152,10.0
120.824,4.732,6.607,21.0
121.055,4.77,5.969,14.0
0.0,0.0,0.0,0.0
40.202,1.605,2.898,150.0
0.0,0.0,0.0,0.0
45.538,1.84,2.786,11.0
120.881,4.914,6.746,22.0
121.007,4.947,6.102,18.0
0.0,0.0,0.0,0.0
40.208,1.665,2.942,150.0
0.0,0.0,0.0,0.0
45.554,1.908,2.836,54.0
121.056,5.101,6.886,13.0
23.605,1.0,1.215,2.0
23.581,1.006,1.878,14.0
40.209,1.725,2.985,3.0
23.588,1.018,1.623,36.0
23.584,1.023,1.493,44.0
23.586,1.029,1.366,46.0
23.582,1.034,1.238,47.0
23.563,1.041,1.901,53.0
23.553,1.046,1.773,65.0
23.544,1.052,1.644,74.0
23.565,1.058,1.516,71.0
23.562,1.064,1.388,75.0
23.564,1.069,1.261,74.0
23.548,1.076,1.924,73.0
23.549,1.082,1.796,74.0
23.542,1.087,1.667,71.0
23.552,1.093,1.538,67.0
23.556,1.099,1.41,62.0
23.559,1.105,1.283,55.0
23.562,1.113,1.947,47.0
23.566,1.119,1.819,41.0
23.583,1.125,1.692,39.0
23.592,1.131,1.563,38.0
23.575,1.136,1.433,21.0
23.585,1.142,1.306,11.0
23.572,1.15,1.97,0.0
23.66,1.16,1.848,0.0
40.198,1.98,2.921,120.0
41.965,2.077,2.816,110.0
45.548,2.265,2.809,56.0
0.0,0.0,0.0,0.0
0.0,0.0,0.0,0.0
0.0,0.0,0.0,0.0
40.193,2.041,2.955,104.0
0.0,0.0,0.0,0.0
45.542,2.334,2.847,79.0
0.0,0.0,0.0,0.0
0.0,0.0,0.0,0.0
0.0,0.0,0.0,0.0
40.183,2.102,2.986,42.0
0.0,0.0,0.0,0.0
0.0,0.0,0.0,0.0
200.263,10.626,11.588,6.0
0.0,0.0,0.0,0.0
0.0,0.0,0.0,0.0
40.181,2.165,3.017,11.0
40.17,2.174,2.793,84.0
0.0,0.0,0.0,0.0
0.0,0.0,0.0,0.0
0.0,0.0,0.0,0.0
0.0,0.0,0.0,0.0
40.096,2.223,3.04,0.0
40.201,2.237,2.824,110.0
43.751,2.446,2.834,115.0
0.0,0.0,0.0,0.0
0.0,0.0,0.0,0.0
0.0,0.0,0.0,0.0
0.0,0.0,0.0,0.0
40.182,2.299,2.85,120.0
0.0,0.0,0.0,0.0
0.0,0.0,0.0,0.0
0.0,0.0,0.0,0.0
0.0,0.0,0.0,0.0
0.0,0.0,0.0,0.0
40.208,2.364,2.877,119.0
0.0,0.0,0.0,0.0
45.569,2.7,2.761,0.0
0.0,0.0,0.0,0.0
0.0,0.0,0.0,0.0
0.0,0.0,0.0,0.0
40.184,2.424,2.899,133.0
0.0,0.0,0.0,0.0
45.521,2.768,2.784,3.0
0.0,0.0,0.0,0.0
0.0,0.0,0.0,0.0
0.0,0.0,0.0,0.0
40.189,2.487,2.922,127.0
41.976,2.607,2.821,144.0
45.551,2.84,2.81,28.0
0.0,0.0,0.0,0.0
100.628,6.342,8.49,1.0
100.718,6.369,7.941,5.0
40.176,2.549,2.941,110.0
41.977,2.673,2.841,143.0
45.543,2.91,2.832,70.0
99.92,6.43,9.033,36.0
99.927,6.453,8.48,33.0
99.94,6.476,7.926,34.0
40.193,2.612,2.961,99.0
0.0,0.0,0.0,0.0
45.542,2.98,2.852,73.0
99.913,6.585,9.076,34.0
99.924,6.606,8.523,39.0
99.919,6.628,7.968,34.0
40.156,2.672,2.975,52.0
0.0,0.0,0.0,0.0
45.529,3.05,2.87,53.0
99.912,6.739,9.117,34.0
99.922,6.761,8.561,35.0
99.932,6.782,8.007,34.0
40.161,2.734,2.991,42.0
0.0,0.0,0.0,0.0
0.0,0.0,0.0,0.0
99.899,6.891,9.151,35.0
99.927,6.914,8.597,37.0
99.91,6.934,8.039,33.0
40.169,2.796,3.005,24.0
0.0,0.0,0.0,0.0
43.756,3.064,2.788,137.0
99.922,7.045,9.184,36.0
99.899,7.064,8.625,37.0
99.927,7.086,8.071,36.0
99.914,7.106,7.503,20.0
0.0,0.0,0.0,0.0
43.765,3.131,2.8,141.0
99.929,7.198,9.212,33.0
99.921,7.216,8.652,37.0
99.909,7.236,8.094,34.0
40.133,2.915,3.023,14.0
41.928,3.053,2.925,4.0
41.953,3.064,2.694,101.0
99.137,7.289,9.161,3.0
99.098,7.306,8.604,5.0
99.086,7.324,8.048,5.0
40.11,2.972,3.03,15.0
40.158,2.984,2.809,92.0
41.961,3.127,2.702,103.0
99.019,7.427,9.169,54.0
99.032,7.447,8.614,56.0
99.014,7.464,8.059,56.0
99.033,7.484,7.497,35.0
40.16,3.043,2.816,104.0
41.954,3.188,2.708,31.0
0.0,0.0,0.0,0.0
94.841,7.271,8.262,2.0
94.92,7.295,7.737,3.0
40.1,3.089,3.04,8.0
40.169,3.103,2.821,90.0
40.165,3.11,2.596,129.0
94.813,7.39,8.801,22.0
94.856,7.41,8.272,29.0
94.853,7.428,7.74,34.0
94.86,7.446,7.2,46.0
40.179,3.161,2.824,83.0
40.175,3.169,2.599,145.0
94.808,7.528,8.805,12.0
94.84,7.547,8.275,10.0
94.876,7.568,7.746,6.0
40.069,3.203,3.042,6.0
40.06,3.21,2.817,68.0
40.082,3.22,2.594,90.0
98.674,7.977,9.166,4.0
98.705,7.997,8.614,5.0
98.614,8.006,8.05,6.0
40.07,3.26,3.042,11.0
40.09,3.269,2.819,94.0
40.09,3.276,2.594,114.0
97.215,7.996,9.028,8.0
96.929,7.988,8.455,9.0
96.644,7.982,7.885,9.0
40.063,3.316,3.039,11.0
40.092,3.326,2.816,86.0
40.081,3.332,2.591,104.0
87.168,7.292,8.089,1.0
86.969,7.29,7.579,1.0
87.057,7.312,7.096,3.0
40.073,3.373,3.036,15.0
40.086,3.381,2.812,91.0
40.08,3.387,2.587,106.0
87.044,7.401,8.067,14.0
87.07,7.418,7.577,15.0
87.047,7.429,7.084,19.0
87.038,7.444,6.585,31.0
87.071,7.461,6.097,47.0
87.053,7.475,5.606,56.0
87.042,7.519,8.053,23.0
87.032,7.532,7.56,20.0
87.019,7.544,7.068,18.0
87.03,7.56,6.569,15.0
87.067,7.578,6.08,18.0
87.096,7.595,5.593,10.0
0.0,0.0,0.0,0.0
83.15,7.307,7.206,1.0
82.971,7.304,6.722,2.0
83.051,7.324,6.251,2.0
82.993,7.332,5.778,3.0
82.997,7.346,5.311,3.0
82.877,7.378,7.633,8.0
82.904,7.393,7.165,9.0
82.884,7.404,6.695,12.0
82.909,7.418,6.219,14.0
82.89,7.43,5.75,19.0
82.914,7.446,5.284,23.0
82.879,7.485,7.611,48.0
82.87,7.497,7.139,58.0
82.88,7.51,6.67,45.0
82.881,7.523,6.193,40.0
82.892,7.537,5.725,32.0
82.891,7.55,5.257,21.0
82.92,7.595,7.588,7.0
82.935,7.608,7.118,7.0
82.903,7.617,6.645,7.0
82.869,7.625,6.165,79.0
82.927,7.643,5.7,4.0
82.984,7.662,5.235,4.0
86.188,8.002,7.857,0.0
86.148,8.011,7.363,1.0
83.028,7.732,6.625,4.0
82.866,7.728,6.134,150.0
86.087,8.042,5.884,4.0
86.179,8.063,5.403,8.0
85.077,8.004,7.722,10.0
84.931,8.002,7.225,11.0
84.88,8.008,6.738,7.0
82.872,7.83,6.1,150.0
84.763,8.022,5.758,8.0
84.822,8.039,5.282,9.0
84.308,8.034,7.615,10.0
84.028,8.018,7.111,11.0
83.866,8.013,6.62,10.0
82.901,7.931,6.065,14.0
83.747,8.024,5.652,9.0
83.625,8.024,5.17,10.0
83.425,8.047,7.497,10.0
83.395,8.054,7.018,10.0
83.304,8.056,6.536,10.0
82.854,8.023,6.021,26.0
83.073,8.055,5.565,10.0
82.938,8.053,5.086,5.0
75.126,7.332,6.713,3.0
75.126,7.341,6.284,2.0
75.071,7.344,5.852,3.0
75.128,7.358,5.421,3.0
75.085,7.364,4.991,4.0
75.116,7.376,4.568,3.0
75.061,7.408,6.667,9.0
75.079,7.418,6.24,9.0
75.047,7.423,5.809,9.0
75.039,7.431,5.373,11.0
75.06,7.443,4.948,12.0
75.059,7.452,4.522,14.0
75.029,7.486,6.621,47.0
75.028,7.493,6.192,58.0
75.029,7.502,5.764,72.0
75.029,7.511,5.328,97.0
75.046,7.521,4.903,101.0
75.047,7.53,4.476,103.0
75.016,7.564,6.574,17.0
75.041,7.573,6.147,41.0
75.037,7.581,5.718,12.0
75.022,7.587,5.281,13.0
75.039,7.597,4.855,12.0
75.032,7.605,4.428,10.0
75.068,7.645,6.53,6.0
75.08,7.654,6.101,150.0
75.068,7.66,5.671,4.0
75.077,7.668,5.235,4.0
75.048,7.673,4.806,3.0
75.13,7.69,4.384,3.0
71.025,7.304,6.129,0.0
75.032,7.722,6.046,17.0
0.0,0.0,0.0,0.0
71.048,7.325,4.905,0.0
70.905,7.318,4.491,1.0
70.979,7.333,4.092,1.0
70.928,7.36,6.071,3.0
70.915,7.365,5.663,4.0
70.889,7.368,5.256,4.0
70.932,7.379,4.847,4.0
70.94,7.387,4.442,4.0
70.948,7.394,4.039,4.0
70.871,7.419,6.014,9.0
70.889,7.426,5.609,10.0
70.867,7.429,5.202,12.0
70.891,7.438,4.791,11.0
70.896,7.445,4.387,13.0
70.894,7.451,3.982,15.0
70.852,7.479,5.958,32.0
70.857,7.484,5.552,39.0
70.879,7.492,5.148,48.0
70.868,7.496,4.735,61.0
70.867,7.502,4.329,87.0
70.876,7.51,3.925,121.0
67.345,6.503,1.92,9.0
67.559,6.511,1.542,8.0
67.782,6.521,1.161,8.0
67.963,6.526,0.77,9.0
53.634,5.14,0.303,6.0
45.774,4.38,-0.001,20.0
68.307,6.51,1.876,7.0
68.497,6.515,1.492,8.0
68.734,6.525,1.105,8.0
68.916,6.53,0.71,7.0
47.088,4.453,0.217,1.0
45.638,4.308,-0.048,20.0
69.25,6.511,1.832,8.0
69.488,6.519,1.443,11.0
69.708,6.526,1.05,9.0
69.947,6.535,0.649,6.0
47.362,4.416,0.17,11.0
45.594,4.243,-0.095,20.0
70.29,6.514,1.787,10.0
70.501,6.519,1.392,11.0
70.746,6.528,0.995,10.0
70.926,6.53,0.587,7.0
47.175,4.335,0.122,20.0
41.965,3.848,-0.128,14.0
71.335,6.513,1.743,9.0
71.575,6.52,1.343,10.0
71.819,6.528,0.94,9.0
71.972,6.528,0.526,4.0
46.733,4.229,0.076,20.0
42.55,3.843,-0.171,8.0
72.448,6.513,1.701,9.0
72.663,6.517,1.294,8.0
72.895,6.523,0.884,9.0
54.807,4.894,0.349,5.0
46.546,4.147,0.032,29.0
40.057,3.561,-0.199,39.0
73.578,6.509,1.659,10.0
73.806,6.513,1.245,12.0
74.065,6.521,0.829,8.0
53.48,4.697,0.29,5.0
40.109,3.514,-0.009,99.0
0.0,0.0,0.0,0.0
74.844,6.51,1.618,10.0
75.092,6.515,1.198,6.0
75.338,6.519,0.775,7.0
40.089,3.461,0.181,6.0
40.013,3.446,-0.045,54.0
36.603,3.145,-0.248,1.0
40.105,3.427,0.831,103.0
40.111,3.419,0.604,117.0
40.119,3.411,0.377,108.0
40.102,3.401,0.146,150.0
40.11,3.393,-0.08,130.0
36.468,3.077,-0.279,7.0
40.105,3.366,0.796,108.0
40.106,3.357,0.57,107.0
40.108,3.348,0.343,119.0
40.104,3.339,0.112,150.0
40.121,3.332,-0.114,100.0
35.402,2.932,-0.3,6.0
40.093,3.302,0.762,150.0
40.106,3.294,0.536,119.0
40.1,3.284,0.309,116.0
40.019,3.269,0.079,56.0
40.023,3.26,-0.146,32.0
0.0,0.0,0.0,0.0
0.0,0.0,0.0,0.0
0.0,0.0,0.0,0.0
41.913,3.365,0.29,126.0
40.119,3.212,0.047,94.0
40.004,3.193,-0.178,32.0
32.567,2.592,-0.329,6.0
41.902,3.315,0.73,125.0
41.915,3.305,0.494,118.0
41.913,3.296,0.257,138.0
41.161,3.226,0.016,49.0
41.759,3.264,-0.218,12.0
32.07,2.499,-0.348,9.0
0.0,0.0,0.0,0.0
43.706,3.374,0.482,125.0
43.706,3.364,0.236,147.0
41.901,3.215,-0.013,142.0
41.763,3.195,-0.249,2.0
31.598,2.409,-0.366,9.0
43.7,3.311,0.697,133.0
43.705,3.3,0.45,134.0
43.703,3.289,0.204,132.0
40.332,3.026,-0.042,27.0
0.0,0.0,0.0,0.0
30.811,2.296,-0.379,9.0
45.482,3.367,0.693,68.0
40.368,2.978,0.388,73.0
40.352,2.967,0.161,60.0
40.308,2.953,-0.069,44.0
36.986,2.701,-0.272,6.0
30.348,2.209,-0.394,8.0
40.965,2.961,0.597,140.0
41.161,2.965,0.368,115.0
41.3,2.964,0.137,16.0
40.316,2.883,-0.096,44.0
36.377,2.592,-0.291,9.0
29.699,2.109,-0.404,8.0
41.959,2.959,0.584,135.0
42.1,2.957,0.35,150.0
42.001,2.94,0.113,3.0
40.32,2.811,-0.121,43.0
35.405,2.46,-0.304,6.0
29.13,2.016,-0.414,8.0
41.512,2.853,0.553,28.0
41.889,2.867,0.323,3.0
42.197,2.877,0.089,40.0
40.321,2.738,-0.144,42.0
34.96,2.365,-0.321,6.0
28.674,1.932,-0.424,7.0
44.818,2.998,0.571,138.0
45.1,3.004,0.322,135.0
44.598,2.958,0.069,7.0
40.318,2.664,-0.167,43.0
33.749,2.221,-0.329,4.0
28.354,1.858,-0.435,7.0
45.212,2.94,0.552,3.0
53.981,3.496,0.357,1.0
45.18,2.913,0.046,135.0
40.322,2.589,-0.188,52.0
32.354,2.069,-0.332,3.0
27.974,1.781,-0.444,7.0
99.738,6.3,1.168,8.0
45.223,2.843,0.276,28.0
45.173,2.828,0.023,43.0
40.307,2.512,-0.208,40.0
32.843,2.038,-0.353,10.0
27.77,1.716,-0.454,7.0
99.729,6.11,1.12,13.0
45.192,2.756,0.255,6.0
45.171,2.742,0.002,27.0
40.288,2.434,-0.226,33.0
32.732,1.968,-0.367,10.0
27.567,1.65,-0.463,7.0
45.229,2.684,0.488,22.0
45.189,2.668,0.235,12.0
45.194,2.656,-0.016,10.0
40.187,2.35,-0.243,23.0
32.083,1.867,-0.373,9.0
27.479,1.591,-0.472,7.0
99.67,5.721,1.035,13.0
45.187,2.58,0.217,17.0
45.211,2.569,-0.034,5.0
39.963,2.259,-0.257,15.0
31.954,1.797,-0.384,9.0
27.101,1.516,-0.476,1.0
120.017,6.654,1.201,2.0
45.183,2.492,0.2,24.0
40.314,2.212,-0.045,33.0
39.782,2.17,-0.27,15.0
31.721,1.722,-0.392,8.0
26.959,1.455,-0.483,1.0
45.217,2.418,0.437,3.0
45.176,2.403,0.185,33.0
40.326,2.133,-0.058,37.0
0.0,0.0,0.0,0.0
31.584,1.652,-0.4,9.0
26.769,1.392,-0.488,1.0
45.221,2.329,0.424,16.0
45.18,2.313,0.172,57.0
40.319,2.052,-0.07,50.0
0.0,0.0,0.0,0.0
31.721,1.596,-0.41,3.0
26.763,1.338,-0.495,1.0
23.618,1.169,0.215,1.0
45.178,2.223,0.16,16.0
23.624,1.155,-0.047,23.0
23.639,1.148,-0.18,37.0
23.631,1.141,-0.311,37.0
23.646,1.135,-0.443,33.0
23.607,1.121,0.209,48.0
23.606,1.114,0.078,56.0
23.593,1.106,-0.052,61.0
23.603,1.099,-0.185,63.0
23.608,1.092,-0.316,69.0
23.615,1.085,-0.447,73.0
23.599,1.073,0.205,75.0
23.602,1.065,0.074,68.0
23.6,1.058,-0.056,60.0
23.61,1.051,-0.189,50.0
23.624,1.045,-0.32,46.0
23.63,1.037,-0.451,42.0
23.632,1.026,0.201,48.0
23.637,1.018,0.07,38.0
40.32,1.725,-0.101,3.0
23.645,1.004,-0.192,6.0
30.529,1.286,-0.417,1.0
26.753,1.119,-0.514,1.0
40.377,1.67,0.339,22.0
40.356,1.656,0.116,109.0
40.331,1.642,-0.106,150.0
39.647,1.602,-0.327,0.0
30.196,1.21,-0.416,1.0
26.654,1.06,-0.514,6.0
40.694,1.599,0.339,150.0
40.342,1.572,0.113,102.0
40.39,1.562,-0.109,17.0
36.853,1.413,-0.306,1.0
30.219,1.149,-0.418,1.0
26.49,0.999,-0.512,5.0
43.799,1.631,0.363,185.0
43.141,1.593,0.119,2.0
40.117,1.468,-0.109,59.0
39.948,1.449,-0.333,1.0
30.336,1.091,-0.42,1.0
26.537,0.945,-0.513,3.0
71.039,2.498,0.588,16.0
40.136,1.399,0.111,114.0
40.13,1.385,-0.109,150.0
39.957,1.366,-0.332,1.0
30.565,1.035,-0.422,1.0
26.343,0.884,-0.509,2.0
40.125,1.327,0.333,150.0
40.124,1.314,0.113,150.0
40.112,1.301,-0.107,150.0
39.967,1.283,-0.33,1.0
40.153,1.276,-0.553,1.0
26.078,0.82,-0.502,1.0
40.128,1.244,0.336,126.0
40.124,1.23,0.116,150.0
40.111,1.216,-0.104,150.0
39.838,1.195,-0.326,1.0
27.407,0.813,-0.375,3.0
26.525,0.778,-0.508,3.0
0.0,0.0,0.0,0.0
0.0,0.0,0.0,0.0
40.136,1.132,-0.099,158.0
0.0,0.0,0.0,0.0
31.808,0.877,-0.43,1.0
26.611,0.724,-0.506,1.0
0.0,0.0,0.0,0.0
41.927,1.109,0.132,150.0
0.0,0.0,0.0,0.0
0.0,0.0,0.0,0.0
31.723,0.808,-0.424,1.0
27.159,0.682,-0.512,0.0
70.752,1.748,0.623,23.0
45.57,1.11,0.152,6.0
0.0,0.0,0.0,0.0
38.686,0.916,-0.297,2.0
0.0,0.0,0.0,0.0
27.44,0.631,-0.511,0.0
70.871,1.6,0.64,2.0
79.566,1.77,0.284,1.0
52.214,1.144,-0.098,0.0
38.817,0.837,-0.289,1.0
33.064,0.701,-0.427,3.0
27.678,0.578,-0.508,0.0
162.623,3.331,1.511,4.0
55.106,1.109,0.211,0.0
55.122,1.092,-0.089,3.0
39.743,0.774,-0.285,1.0
32.422,0.62,-0.409,0.0
31.115,0.584,-0.562,0.0
55.172,1.013,0.529,75.0
55.16,0.994,0.228,101.0
55.146,0.975,-0.072,7.0
40.755,0.707,-0.279,0.0
34.856,0.593,-0.429,0.0
29.051,0.484,-0.516,0.0
163.46,2.658,1.622,16.0
0.0,0.0,0.0,0.0
55.141,0.859,-0.053,1.0
19.712,0.3,-0.128,2.0
19.667,0.292,-0.235,14.0
19.672,0.286,-0.342,12.0
19.777,0.279,0.203,20.0
19.775,0.272,0.096,1.0
19.674,0.264,-0.011,0.0
19.649,0.258,-0.12,15.0
19.64,0.251,-0.226,16.0
19.653,0.244,-0.333,15.0
19.767,0.238,0.211,27.0
19.754,0.231,0.104,10.0
19.644,0.223,-0.003,12.0
19.623,0.216,-0.111,16.0
19.647,0.21,-0.218,15.0
19.659,0.203,-0.325,15.0
19.677,0.196,0.219,13.0
19.664,0.189,0.112,11.0
19.642,0.182,0.005,16.0
19.627,0.175,-0.102,14.0
19.665,0.169,-0.209,10.0
19.679,0.162,-0.316,0.0
19.664,0.155,0.228,17.0
19.64,0.148,0.121,14.0
19.636,0.141,0.015,15.0
19.668,0.135,-0.092,9.0
40.273,0.262,-0.408,0.0
31.919,0.197,-0.496,0.0
19.64,0.114,0.238,13.0
19.658,0.107,0.132,12.0
19.694,0.101,0.026,9.0
19.752,0.094,-0.082,10.0
19.773,0.088,-0.189,25.0
19.776,0.081,-0.296,31.0
19.621,0.073,0.249,16.0
19.717,0.066,0.144,15.0
19.748,0.06,0.037,17.0
19.755,0.053,-0.071,28.0
19.756,0.046,-0.177,9.0
19.754,0.039,-0.284,14.0
19.62,0.032,0.26,16.0
19.769,0.026,0.156,3.0
19.785,0.019,0.049,3.0
19.762,0.012,-0.059,4.0
19.772,0.005,-0.165,0.0
0.0,0.0,0.0,0.0
19.63,-0.007,0.273,13.0
19.688,-0.014,0.168,8.0
19.7,-0.021,0.062,15.0
19.71,-0.028,-0.046,15.0
19.733,-0.034,-0.152,14.0
19.756,-0.041,-0.259,14.0
19.655,-0.047,0.286,10.0
19.698,-0.054,0.181,16.0
19.699,-0.061,0.075,14.0
19.7,-0.067,-0.032,16.0
19.722,-0.074,-0.138,17.0
19.744,-0.081,-0.245,16.0
19.674,-0.087,0.3,10.0
19.719,-0.094,0.195,15.0
19.732,-0.101,0.089,10.0
19.721,-0.108,-0.018,12.0
19.722,-0.114,-0.124,16.0
19.743,-0.121,-0.23,17.0
169.407,-1.099,2.716,4.0
165.458,-1.127,1.763,8.0
160.736,-1.15,0.85,5.0
19.767,-0.148,-0.003,0.0
19.758,-0.154,-0.109,11.0
19.762,-0.161,-0.215,13.0
19.754,-0.167,0.331,0.0
169.253,-1.49,1.935,7.0
160.644,-1.47,0.975,6.0
0.0,0.0,0.0,0.0
0.0,0.0,0.0,0.0
42.231,-0.428,-0.427,0.0
19.752,-0.206,0.347,8.0
19.753,-0.212,0.241,5.0
19.77,-0.219,0.135,1.0
0.0,0.0,0.0,0.0
0.0,0.0,0.0,0.0
0.0,0.0,0.0,0.0
19.752,-0.245,0.364,8.0
19.743,-0.251,0.258,11.0
19.745,-0.258,0.152,28.0
19.73,-0.264,0.045,0.0
0.0,0.0,0.0,0.0
0.0,0.0,0.0,0.0
173.369,-2.491,3.347,3.0
19.927,-0.292,0.278,0.0
19.758,-0.296,0.17,8.0
19.759,-0.303,0.062,0.0
0.0,0.0,0.0,0.0
