X,Y,Z,Reflectivity
9.312,0.786,-0.889,0.0
8.845,0.747,-0.895,0.0
8.386,0.708,-0.898,0.0
10.79,0.907,-0.854,0.0
10.19,0.856,-0.865,0.0
9.756,0.819,-0.884,0.0
9.204,0.772,-0.888,0.0
8.715,0.731,-0.891,0.0
8.314,0.697,-0.898,0.0
10.691,0.892,-0.857,0.0
10.122,0.844,-0.869,0.0
9.659,0.805,-0.885,0.0
9.127,0.76,-0.89,0.0
8.634,0.719,-0.892,0.0
8.268,0.688,-0.902,0.0
10.609,0.878,-0.861,0.0
10.03,0.83,-0.871,0.0
9.576,0.792,-0.887,0.0
9.032,0.746,-0.89,0.0
8.631,0.713,-0.9,0.0
8.199,0.677,-0.902,0.0
10.451,0.858,-0.858,0.0
9.963,0.818,-0.875,0.0
9.456,0.776,-0.885,0.0
8.925,0.731,-0.888,0.0
8.505,0.697,-0.895,0.0
8.141,0.666,-0.904,0.0
10.397,0.847,-0.863,0.0
9.939,0.809,-0.882,0.0
9.397,0.764,-0.888,0.0
8.896,0.723,-0.893,0.0
8.464,0.687,-0.898,0.0
8.084,0.656,-0.905,0.0
10.339,0.835,-0.868,0.0
9.839,0.793,-0.882,0.0
9.308,0.75,-0.888,0.0
8.813,0.71,-0.892,0.0
8.411,0.677,-0.9,0.0
8.03,0.645,-0.905,0.0
10.25,0.82,-0.869,0.0
9.765,0.78,-0.884,0.0
8.75,0.698,-0.893,0.0
8.376,0.667,-0.903,0.0
8.016,0.638,-0.911,0.0
10.186,0.806,-0.872,0.0
9.658,0.764,-0.882,0.0
9.206,0.727,-0.894,0.0
8.679,0.685,-0.893,0.0
8.326,0.656,-0.905,0.0
7.969,0.628,-0.912,0.0
10.092,0.791,-0.872,0.0
9.614,0.752,-0.885,0.0
9.158,0.716,-0.896,0.0
8.626,0.674,-0.894,0.0
8.242,0.643,-0.902,0.0
7.936,0.618,-0.914,0.0
10.049,0.779,-0.876,0.0
9.549,0.739,-0.887,0.0
9.069,0.701,-0.894,0.0
8.603,0.664,-0.898,0.0
8.221,0.634,-0.906,0.0
7.883,0.607,-0.914,0.0
10.009,0.767,-0.879,0.0
9.539,0.73,-0.892,0.0
9.059,0.692,-0.899,0.0
8.571,0.654,-0.901,0.0
8.174,0.623,-0.906,0.0
7.838,0.597,-0.914,0.0
9.917,0.751,-0.878,0.0
9.445,0.714,-0.89,0.0
8.992,0.679,-0.899,0.0
8.491,0.64,-0.898,0.0
8.121,0.612,-0.906,0.0
7.84,0.59,-0.919,0.0
9.931,0.743,-0.885,0.0
9.408,0.703,-0.892,0.0
8.902,0.664,-0.895,0.0
8.446,0.629,-0.899,0.0
8.069,0.6,-0.905,0.0
7.818,0.581,-0.922,0.0
9.843,0.727,-0.883,0.0
9.355,0.69,-0.893,0.0
8.839,0.651,-0.894,0.0
8.438,0.62,-0.903,0.0
8.058,0.591,-0.908,0.0
7.797,0.571,-0.924,0.0
9.808,0.714,-0.886,0.0
9.331,0.678,-0.896,0.0
8.832,0.641,-0.898,0.0
8.355,0.606,-0.899,0.0
8.023,0.581,-0.909,0.0
7.746,0.56,-0.922,0.0
9.753,0.7,-0.886,0.0
9.325,0.668,-0.9,0.0
8.736,0.625,-0.893,0.0
8.37,0.598,-0.904,0.0
8.002,0.571,-0.91,0.0
7.735,0.551,-0.924,0.0
9.706,0.687,-0.886,0.0
9.311,0.658,-0.903,0.0
8.748,0.617,-0.898,0.0
8.292,0.584,-0.9,0.0
7.957,0.559,-0.909,0.0
7.713,0.541,-0.925,0.0
9.703,0.677,-0.891,0.0
9.259,0.644,-0.902,0.0
8.736,0.607,-0.901,0.0
8.264,0.573,-0.9,0.0
7.955,0.551,-0.912,0.0
7.717,0.533,-0.929,0.0
9.68,0.665,-0.892,0.0
9.184,0.629,-0.899,0.0
8.692,0.594,-0.9,0.0
8.276,0.565,-0.905,0.0
7.96,0.542,-0.916,0.0
7.667,0.521,-0.926,0.0
9.601,0.649,-0.889,0.0
9.158,0.617,-0.899,0.0
8.649,0.582,-0.899,0.0
8.22,0.552,-0.901,0.0
7.954,0.533,-0.918,0.0
7.67,0.513,-0.929,0.0
9.563,0.635,-0.888,0.0
9.133,0.605,-0.9,0.0
8.703,0.576,-0.907,0.0
8.268,0.546,-0.909,0.0
7.91,0.521,-0.915,0.0
7.637,0.502,-0.927,0.0
9.585,0.626,-0.893,0.0
9.109,0.593,-0.9,0.0
8.651,0.562,-0.904,0.0
8.235,0.534,-0.908,0.0
7.913,0.512,-0.917,0.0
7.631,0.493,-0.928,0.0
84.784,8.042,7.954,11.0
84.757,8.049,7.468,10.0
84.751,8.058,6.985,10.0
84.654,8.059,6.486,9.0
82.895,7.902,5.88,47.0
84.502,8.067,5.514,10.0
83.568,8.018,7.797,6.0
83.6,8.03,7.322,7.0
83.635,8.043,6.848,10.0
83.764,8.065,6.373,9.0
82.888,7.991,5.835,22.0
83.612,8.071,5.41,10.0
82.871,8.041,7.685,1.0
75.226,7.306,6.546,2.0
75.133,7.305,6.109,0.0
75.338,7.333,5.688,1.0
75.088,7.317,5.242,1.0
75.098,7.327,4.816,1.0
75.131,7.368,6.922,4.0
75.105,7.373,6.49,6.0
75.058,7.376,6.057,4.0
75.085,7.387,5.623,4.0
75.07,7.393,5.194,6.0
75.137,7.408,4.772,6.0
75.034,7.434,6.866,16.0
75.043,7.442,6.437,17.0
75.032,7.448,6.007,18.0
75.034,7.456,5.571,20.0
75.053,7.466,5.144,23.0
75.052,7.474,4.717,23.0
75.025,7.506,6.815,58.0
75.031,7.513,6.386,54.0
75.031,7.52,5.957,56.0
75.044,7.528,5.522,69.0
75.045,7.536,5.094,75.0
75.042,7.543,4.666,66.0
75.006,7.575,6.761,12.0
75.028,7.583,6.334,16.0
75.027,7.589,5.904,10.0
75.06,7.6,5.469,10.0
75.043,7.605,5.039,10.0
75.042,7.612,4.612,10.0
75.121,7.655,6.717,4.0
75.031,7.651,6.278,8.0
75.074,7.661,5.852,7.0
75.056,7.666,5.413,3.0
75.115,7.679,4.988,3.0
75.073,7.682,4.558,3.0
75.032,7.711,6.652,1.0
75.085,7.722,6.226,1.0
75.077,7.726,5.795,0.0
71.065,7.319,5.071,0.0
71.001,7.319,4.661,1.0
70.992,7.324,4.256,0.0
70.913,7.347,6.23,4.0
70.907,7.351,5.823,3.0
70.903,7.356,5.416,3.0
70.918,7.362,5.004,3.0
70.982,7.374,4.603,3.0
70.86,7.368,4.19,3.0
70.905,7.403,6.173,6.0
70.857,7.402,5.761,7.0
70.903,7.411,5.358,8.0
70.874,7.413,4.943,8.0
70.899,7.421,4.539,8.0
70.902,7.427,4.134,9.0
70.857,7.452,6.108,18.0
70.87,7.458,5.701,20.0
70.864,7.461,5.294,25.0
70.88,7.467,4.882,24.0
70.887,7.473,4.477,26.0
70.89,7.478,4.072,26.0
70.863,7.505,6.046,81.0
70.866,7.508,5.639,91.0
70.856,7.511,5.231,97.0
70.86,7.516,4.818,107.0
70.864,7.52,4.413,118.0
70.879,7.527,4.008,111.0
70.855,7.552,5.981,23.0
70.865,7.557,5.574,25.0
70.867,7.56,5.167,25.0
70.874,7.564,4.755,26.0
70.861,7.568,4.347,24.0
70.875,7.574,3.942,24.0
70.865,7.6,5.916,9.0
70.857,7.602,5.507,9.0
70.863,7.605,5.101,8.0
70.878,7.61,4.688,9.0
70.915,7.618,4.284,9.0
70.877,7.618,3.875,9.0
70.906,7.648,5.851,5.0
70.92,7.652,5.444,4.0
70.894,7.651,5.035,4.0
70.912,7.656,4.621,5.0
70.931,7.662,4.216,5.0
70.904,7.662,3.809,5.0
70.943,7.693,5.784,2.0
70.9,7.69,5.373,2.0
70.971,7.699,4.97,2.0
70.916,7.696,4.551,3.0
70.947,7.703,4.147,3.0
70.998,7.711,3.743,2.0
71.007,7.737,5.718,0.0
71.035,7.742,5.311,0.0
71.193,7.761,4.913,0.0
71.072,7.75,4.49,1.0
71.029,7.748,4.08,0.0
70.965,7.744,3.669,1.0
73.777,8.075,5.865,9.0
73.745,8.073,5.438,8.0
73.536,8.052,4.999,9.0
73.354,8.034,4.558,8.0
73.482,8.05,4.144,8.0
73.778,8.085,3.738,6.0
73.383,8.066,5.757,9.0
73.514,8.081,5.343,9.0
73.493,8.079,4.919,10.0
73.323,8.062,4.479,11.0
73.173,8.048,4.049,10.0
73.242,8.058,3.633,7.0
72.847,8.036,5.637,8.0
73.139,8.069,5.238,9.0
73.273,8.085,4.825,10.0
73.268,8.085,4.396,12.0
73.132,8.072,3.968,10.0
72.968,8.055,3.541,8.0
72.641,8.041,5.54,9.0
72.626,8.039,5.121,9.0
72.935,8.073,4.723,9.0
73.099,8.092,4.305,11.0
73.125,8.096,3.888,10.0
72.981,8.082,3.461,9.0
72.645,8.065,5.46,10.0
72.473,8.045,5.029,10.0
72.47,8.045,4.612,8.0
72.711,8.072,4.202,8.0
72.985,8.103,3.799,10.0
72.974,8.103,3.38,11.0
72.587,8.078,5.374,10.0
72.59,8.078,4.955,10.0
72.364,8.053,4.523,9.0
72.331,8.049,4.098,7.0
72.68,8.088,3.7,9.0
72.837,8.107,3.29,9.0
72.43,8.079,5.278,11.0
72.544,8.09,4.869,10.0
72.488,8.083,4.447,10.0
72.328,8.065,4.014,9.0
72.336,8.066,3.599,6.0
72.541,8.089,3.193,8.0
72.195,8.066,5.177,6.0
72.362,8.083,4.772,10.0
72.514,8.099,4.364,10.0
72.425,8.088,3.935,9.0
72.239,8.067,3.51,7.0
72.222,8.066,3.093,7.0
71.893,8.044,5.069,6.0
72.14,8.069,4.671,6.0
72.397,8.096,4.271,10.0
72.5,8.107,3.853,10.0
72.393,8.094,3.431,9.0
72.189,8.07,3.007,7.0
72.022,8.066,4.993,9.0
71.896,8.049,4.57,4.0
72.149,8.075,4.171,5.0
72.349,8.096,3.758,10.0
72.458,8.107,3.348,9.0
72.197,8.077,2.921,2.0
72.201,8.09,4.918,11.0
72.064,8.072,4.493,8.0
71.9,8.051,4.069,4.0
72.213,8.084,3.664,6.0
72.396,8.103,3.257,9.0
57.967,6.487,2.275,3.0
72.207,8.092,4.83,11.0
72.238,8.092,4.416,10.0
72.127,8.077,3.993,9.0
72.066,8.068,3.568,5.0
72.228,8.084,3.162,7.0
58.026,6.493,2.207,3.0
72.173,8.086,4.739,8.0
72.336,8.1,4.333,10.0
72.351,8.099,3.918,10.0
72.247,8.085,3.488,9.0
72.139,8.07,3.069,7.0
58.067,6.494,2.137,4.0
71.944,8.055,4.635,3.0
72.318,8.093,4.243,9.0
72.466,8.106,3.834,11.0
72.46,8.102,3.41,10.0
72.257,8.077,2.986,6.0
58.146,6.498,2.069,6.0
106.265,-8.184,10.822,23.0
49.468,-3.805,4.772,14.0
109.761,-8.434,10.001,8.0
107.019,-8.214,9.168,24.0
104.486,-8.011,8.392,21.0
104.752,-8.023,7.856,11.0
106.134,-8.151,10.95,22.0
49.459,-3.793,4.837,21.0
106.519,-8.16,9.846,13.0
107.288,-8.209,9.333,21.0
104.457,-7.983,8.528,13.0
104.786,-7.998,7.996,20.0
105.883,-8.104,11.064,21.0
49.467,-3.78,4.903,19.0
106.391,-8.12,9.974,17.0
107.282,-8.178,9.471,20.0
107.102,-8.154,8.882,11.0
104.704,-7.961,8.123,24.0
105.871,-8.071,11.2,22.0
49.503,-3.768,4.969,16.0
106.486,-8.094,10.118,16.0
107.251,-8.141,9.604,18.0
109.982,-8.337,9.258,10.0
104.598,-7.918,8.245,28.0
105.862,-8.034,11.332,20.0
106.3,-8.055,10.806,18.0
106.434,-8.052,10.247,19.0
107.199,-8.099,9.733,17.0
107.227,-8.088,9.16,9.0
104.428,-7.865,8.361,26.0
49.419,-3.732,5.352,12.0
107.023,-8.068,11.012,20.0
49.524,-3.727,4.828,7.0
107.026,-8.043,9.847,15.0
108.746,-8.159,9.421,7.0
104.403,-7.821,8.485,16.0
49.38,-3.709,5.407,14.0
106.732,-8.002,11.11,18.0
49.506,-3.705,4.886,9.0
106.793,-7.978,9.954,20.0
107.425,-8.012,9.435,17.0
107.506,-8.005,8.864,9.0
49.385,-3.686,5.467,11.0
106.238,-7.915,11.185,18.0
49.54,-3.684,4.948,19.0
106.405,-7.898,10.043,24.0
107.17,-7.941,9.537,19.0
107.238,-7.932,8.965,12.0
106.983,-7.934,11.968,24.0
106.224,-7.862,11.307,21.0
49.543,-3.659,5.005,19.0
106.633,-7.86,10.186,19.0
107.046,-7.877,9.647,16.0
107.071,-7.864,9.073,13.0
106.984,-7.877,12.089,23.0
106.147,-7.799,11.418,26.0
106.024,-7.774,10.83,19.0
106.568,-7.797,10.297,17.0
109.659,-8.008,10.004,8.0
107.098,-7.806,9.191,13.0
107.294,-7.84,12.242,10.0
106.375,-7.756,11.558,21.0
106.532,-7.751,10.996,17.0
106.647,-7.743,10.419,21.0
109.34,-7.921,10.09,17.0
107.099,-7.743,9.304,11.0
107.742,-7.808,12.408,17.0
107.019,-7.739,11.741,21.0
107.051,-7.724,11.161,18.0
106.735,-7.684,10.537,23.0
109.323,-7.853,10.2,19.0
107.288,-7.691,9.429,11.0
107.7,-7.738,12.514,10.0
106.936,-7.665,11.842,21.0
106.955,-7.649,11.26,20.0
106.845,-7.623,10.656,23.0
109.346,-7.784,10.311,17.0
109.846,-7.801,9.764,4.0
0.0,0.0,0.0,0.0
107.106,-7.606,11.967,21.0
107.248,-7.598,11.397,19.0
106.74,-7.542,10.751,20.0
106.815,-7.53,10.177,9.0
109.754,-7.72,9.86,11.0
0.0,0.0,0.0,0.0
107.479,-7.558,12.111,23.0
107.439,-7.536,11.519,20.0
106.769,-7.47,10.854,17.0
106.75,-7.45,10.271,14.0
109.556,-7.626,9.945,4.0
0.0,0.0,0.0,0.0
107.475,-7.479,12.21,24.0
107.834,-7.483,11.661,18.0
106.57,-7.376,10.931,21.0
106.769,-7.371,10.369,15.0
108.059,-7.441,9.906,16.0
0.0,0.0,0.0,0.0
107.605,-7.405,12.322,7.0
107.736,-7.394,11.746,19.0
106.494,-7.289,11.017,18.0
108.468,-7.404,10.628,19.0
108.022,-7.353,9.995,18.0
0.0,0.0,0.0,0.0
0.0,0.0,0.0,0.0
107.742,-7.309,11.838,25.0
106.392,-7.197,11.095,23.0
108.041,-7.287,10.676,22.0
111.013,-7.467,10.363,6.0
0.0,0.0,0.0,0.0
0.0,0.0,0.0,0.0
107.688,-7.215,11.92,10.0
106.369,-7.106,11.179,21.0
106.789,-7.114,10.637,11.0
111.011,-7.374,10.45,9.0
0.0,0.0,0.0,0.0
0.0,0.0,0.0,0.0
0.0,0.0,0.0,0.0
111.55,-7.356,11.809,8.0
106.796,-7.022,10.718,12.0
107.931,-7.075,10.241,15.0
0.0,0.0,0.0,0.0
0.0,0.0,0.0,0.0
0.0,0.0,0.0,0.0
0.0,0.0,0.0,0.0
107.797,-6.994,10.895,19.0
107.561,-6.956,10.282,21.0
0.0,0.0,0.0,0.0
0.0,0.0,0.0,0.0
0.0,0.0,0.0,0.0
0.0,0.0,0.0,0.0
107.696,-6.888,10.959,15.0
107.608,-6.861,10.358,23.0
0.0,0.0,0.0,0.0
0.0,0.0,0.0,0.0
0.0,0.0,0.0,0.0
0.0,0.0,0.0,0.0
107.655,-6.783,11.024,23.0
107.832,-6.773,10.448,17.0
0.0,0.0,0.0,0.0
0.0,0.0,0.0,0.0
0.0,0.0,0.0,0.0
0.0,0.0,0.0,0.0
107.636,-6.679,11.086,6.0
107.656,-6.657,10.495,17.0
0.0,0.0,0.0,0.0
0.0,0.0,0.0,0.0
0.0,0.0,0.0,0.0
0.0,0.0,0.0,0.0
0.0,0.0,0.0,0.0
107.752,-6.557,10.563,15.0
0.0,0.0,0.0,0.0
0.0,0.0,0.0,0.0
0.0,0.0,0.0,0.0
0.0,0.0,0.0,0.0
0.0,0.0,0.0,0.0
107.876,-6.456,10.631,9.0
0.0,0.0,0.0,0.0
0.0,0.0,0.0,0.0
0.0,0.0,0.0,0.0
0.0,0.0,0.0,0.0
0.0,0.0,0.0,0.0
0.0,0.0,0.0,0.0
0.0,0.0,0.0,0.0
0.0,0.0,0.0,0.0
0.0,0.0,0.0,0.0
0.0,0.0,0.0,0.0
0.0,0.0,0.0,0.0
0.0,0.0,0.0,0.0
0.0,0.0,0.0,0.0
0.0,0.0,0.0,0.0
0.0,0.0,0.0,0.0
0.0,0.0,0.0,0.0
0.0,0.0,0.0,0.0
0.0,0.0,0.0,0.0
0.0,0.0,0.0,0.0
0.0,0.0,0.0,0.0
0.0,0.0,0.0,0.0
0.0,0.0,0.0,0.0
0.0,0.0,0.0,0.0
0.0,0.0,0.0,0.0
0.0,0.0,0.0,0.0
0.0,0.0,0.0,0.0
0.0,0.0,0.0,0.0
0.0,0.0,0.0,0.0
0.0,0.0,0.0,0.0
0.0,0.0,0.0,0.0
0.0,0.0,0.0,0.0
0.0,0.0,0.0,0.0
0.0,0.0,0.0,0.0
0.0,0.0,0.0,0.0
0.0,0.0,0.0,0.0
109.082,-5.818,10.988,1.0
0.0,0.0,0.0,0.0
0.0,0.0,0.0,0.0
0.0,0.0,0.0,0.0
0.0,0.0,0.0,0.0
0.0,0.0,0.0,0.0
0.0,0.0,0.0,0.0
0.0,0.0,0.0,0.0
0.0,0.0,0.0,0.0
0.0,0.0,0.0,0.0
0.0,0.0,0.0,0.0
0.0,0.0,0.0,0.0
0.0,0.0,0.0,0.0
0.0,0.0,0.0,0.0
0.0,0.0,0.0,0.0
0.0,0.0,0.0,0.0
0.0,0.0,0.0,0.0
0.0,0.0,0.0,0.0
0.0,0.0,0.0,0.0
0.0,0.0,0.0,0.0
0.0,0.0,0.0,0.0
0.0,0.0,0.0,0.0
0.0,0.0,0.0,0.0
0.0,0.0,0.0,0.0
0.0,0.0,0.0,0.0
0.0,0.0,0.0,0.0
0.0,0.0,0.0,0.0
0.0,0.0,0.0,0.0
0.0,0.0,0.0,0.0
0.0,0.0,0.0,0.0
0.0,0.0,0.0,0.0
0.0,0.0,0.0,0.0
0.0,0.0,0.0,0.0
0.0,0.0,0.0,0.0
0.0,0.0,0.0,0.0
0.0,0.0,0.0,0.0
0.0,0.0,0.0,0.0
0.0,0.0,0.0,0.0
0.0,0.0,0.0,0.0
0.0,0.0,0.0,0.0
0.0,0.0,0.0,0.0
0.0,0.0,0.0,0.0
0.0,0.0,0.0,0.0
0.0,0.0,0.0,0.0
0.0,0.0,0.0,0.0
0.0,0.0,0.0,0.0
0.0,0.0,0.0,0.0
0.0,0.0,0.0,0.0
0.0,0.0,0.0,0.0
0.0,0.0,0.0,0.0
0.0,0.0,0.0,0.0
0.0,0.0,0.0,0.0
0.0,0.0,0.0,0.0
0.0,0.0,0.0,0.0
0.0,0.0,0.0,0.0
0.0,0.0,0.0,0.0
0.0,0.0,0.0,0.0
0.0,0.0,0.0,0.0
0.0,0.0,0.0,0.0
0.0,0.0,0.0,0.0
0.0,0.0,0.0,0.0
0.0,0.0,0.0,0.0
0.0,0.0,0.0,0.0
0.0,0.0,0.0,0.0
0.0,0.0,0.0,0.0
0.0,0.0,0.0,0.0
114.191,-2.365,10.348,2.0
0.0,0.0,0.0,0.0
0.0,0.0,0.0,0.0
0.0,0.0,0.0,0.0
0.0,0.0,0.0,0.0
0.0,0.0,0.0,0.0
114.058,-2.233,10.222,4.0
0.0,0.0,0.0,0.0
0.0,0.0,0.0,0.0
0.0,0.0,0.0,0.0
0.0,0.0,0.0,0.0
0.0,0.0,0.0,0.0
0.0,0.0,0.0,0.0
0.0,0.0,0.0,0.0
0.0,0.0,0.0,0.0
0.0,0.0,0.0,0.0
0.0,0.0,0.0,0.0
0.0,0.0,0.0,0.0
0.0,0.0,0.0,0.0
0.0,0.0,0.0,0.0
0.0,0.0,0.0,0.0
0.0,0.0,0.0,0.0
0.0,0.0,0.0,0.0
0.0,0.0,0.0,0.0
0.0,0.0,0.0,0.0
0.0,0.0,0.0,0.0
0.0,0.0,0.0,0.0
0.0,0.0,0.0,0.0
0.0,0.0,0.0,0.0
0.0,0.0,0.0,0.0
0.0,0.0,0.0,0.0
19.616,0.062,0.496,22.0
19.61,0.061,0.381,17.0
19.605,0.059,0.266,12.0
19.684,0.058,0.15,13.0
19.753,0.056,0.036,29.0
19.746,0.054,-0.079,41.0
19.604,0.053,0.455,16.0
19.609,0.051,0.34,12.0
19.619,0.049,0.225,14.0
19.743,0.048,0.109,14.0
19.76,0.046,-0.005,28.0
19.756,0.044,-0.12,13.0
19.611,0.042,0.414,13.0
19.608,0.04,0.299,11.0
19.714,0.039,0.186,13.0
19.741,0.037,0.069,15.0
19.744,0.035,-0.046,42.0
19.751,0.033,-0.161,9.0
19.619,0.031,0.374,17.0
19.62,0.029,0.259,14.0
19.736,0.027,0.145,17.0
19.726,0.025,0.028,17.0
19.76,0.024,-0.086,6.0
19.754,0.021,-0.202,6.0
19.618,0.019,0.333,17.0
19.633,0.017,0.219,15.0
19.764,0.015,0.105,6.0
19.747,0.013,-0.011,70.0
19.776,0.011,-0.127,1.0
19.781,0.009,-0.243,0.0
19.622,0.007,0.293,13.0
19.738,0.005,0.18,4.0
19.784,0.003,0.065,4.0
19.737,0.0,-0.052,3.0
19.725,-0.001,-0.167,0.0
34.75,-0.006,-0.498,0.0
19.641,-0.005,0.253,15.0
19.695,-0.008,0.139,2.0
19.722,-0.01,0.024,10.0
19.769,-0.012,-0.092,3.0
19.677,-0.015,-0.207,0.0
32.39,-0.028,-0.53,0.0
19.65,-0.02,0.213,14.0
19.692,-0.022,0.099,13.0
19.707,-0.024,-0.015,13.0
19.746,-0.027,-0.133,11.0
19.732,-0.029,-0.248,0.0
0.0,0.0,0.0,0.0
19.671,-0.034,0.174,10.0
19.708,-0.037,0.059,15.0
19.725,-0.039,-0.055,11.0
19.742,-0.042,-0.173,13.0
19.769,-0.045,-0.288,3.0
29.654,-0.071,-0.605,0.0
19.7,-0.05,0.135,17.0
19.705,-0.052,0.02,16.0
19.714,-0.055,-0.094,13.0
19.728,-0.058,-0.212,14.0
19.755,-0.06,-0.327,7.0
19.779,-0.063,-0.443,1.0
19.708,-0.066,0.095,16.0
19.711,-0.069,-0.018,16.0
19.721,-0.071,-0.133,15.0
19.738,-0.074,-0.251,14.0
19.767,-0.077,-0.366,12.0
19.757,-0.08,-0.481,9.0
19.708,-0.083,0.057,15.0
19.718,-0.085,-0.057,10.0
19.727,-0.088,-0.172,16.0
19.74,-0.091,-0.289,14.0
19.743,-0.094,-0.405,15.0
19.751,-0.097,-0.52,15.0
19.725,-0.1,0.018,14.0
19.715,-0.103,-0.096,16.0
19.725,-0.106,-0.211,16.0
19.732,-0.109,-0.327,14.0
19.732,-0.112,-0.443,16.0
19.748,-0.115,-0.558,16.0
19.735,-0.118,-0.018,10.0
19.721,-0.121,-0.133,17.0
19.723,-0.124,-0.248,16.0
19.729,-0.127,-0.365,17.0
19.73,-0.13,-0.48,16.0
19.746,-0.133,-0.596,16.0
19.747,-0.137,-0.056,10.0
19.726,-0.14,-0.171,16.0
19.733,-0.143,-0.286,16.0
19.713,-0.146,-0.402,18.0
19.737,-0.149,-0.518,17.0
19.748,-0.152,-0.633,15.0
19.751,-0.156,-0.093,12.0
19.739,-0.159,-0.208,15.0
19.74,-0.162,-0.323,14.0
19.731,-0.165,-0.44,15.0
19.751,-0.169,-0.555,11.0
19.773,-0.172,-0.671,7.0
19.766,-0.176,-0.13,9.0
19.768,-0.179,-0.245,12.0
19.752,-0.183,-0.36,12.0
19.753,-0.186,-0.477,6.0
23.549,-0.226,-0.706,0.0
19.784,-0.193,-0.708,6.0
19.804,-0.197,-0.167,0.0
19.77,-0.2,-0.282,1.0
19.77,-0.203,-0.397,0.0
25.727,-0.269,-0.669,0.0
22.551,-0.24,-0.717,0.0
19.764,-0.214,-0.744,8.0
0.0,0.0,0.0,0.0
33.097,-0.371,-0.533,0.0
28.464,-0.324,-0.624,0.0
24.729,-0.286,-0.688,0.0
21.849,-0.257,-0.735,0.0
19.638,-0.234,-0.775,2.0
0.0,0.0,0.0,0.0
30.703,-0.378,-0.549,0.0
27.124,-0.339,-0.643,0.0
23.578,-0.299,-0.698,0.0
19.9,-0.256,-0.705,1.0
19.181,-0.25,-0.791,1.0
35.016,-0.464,-0.485,0.0
29.968,-0.403,-0.589,0.0
26.059,-0.355,-0.664,0.0
22.658,-0.313,-0.711,0.0
19.819,-0.278,-0.737,3.0
18.578,-0.264,-0.799,0.0
32.406,-0.467,-0.505,0.0
28.378,-0.415,-0.607,0.0
25.043,-0.37,-0.681,0.0
21.749,-0.326,-0.72,1.0
19.797,-0.3,-0.771,1.0
17.968,-0.276,-0.804,0.0
31.335,-0.489,-0.543,0.0
27.535,-0.435,-0.636,0.0
24.161,-0.386,-0.699,0.0
21.383,-0.346,-0.745,1.0
19.266,-0.316,-0.783,0.0
17.375,-0.288,-0.807,0.0
30.501,-0.513,-0.58,0.0
26.028,-0.443,-0.646,0.0
23.133,-0.398,-0.708,0.0
20.557,-0.358,-0.751,0.0
18.832,-0.332,-0.797,0.0
16.978,-0.302,-0.817,0.0
29.355,-0.53,-0.607,0.0
21.747,-0.397,-0.576,1.0
21.718,-0.401,-0.701,3.0
20.069,-0.374,-0.766,0.0
18.244,-0.344,-0.803,0.0
16.45,-0.314,-0.819,0.0
27.716,-0.535,-0.619,0.0
21.729,-0.424,-0.611,152.0
21.647,-0.427,-0.734,4.0
19.575,-0.39,-0.779,0.0
21.694,-0.437,-0.99,0.0
16.017,-0.326,-0.824,0.0
21.738,-0.448,-0.52,151.0
21.711,-0.452,-0.645,150.0
21.13,-0.444,-0.75,1.0
21.729,-0.461,-0.9,0.0
17.094,-0.366,-0.807,0.0
15.614,-0.338,-0.828,0.0
21.699,-0.475,-0.553,157.0
21.713,-0.48,-0.679,8.0
20.455,-0.457,-0.758,0.0
21.721,-0.49,-0.933,0.0
16.707,-0.38,-0.815,0.0
15.368,-0.353,-0.839,0.0
21.731,-0.505,-0.588,150.0
21.657,-0.508,-0.711,10.0
19.908,-0.471,-0.769,0.0
17.825,-0.426,-0.793,1.0
16.381,-0.395,-0.824,0.0
14.916,-0.363,-0.837,0.0
24.35,-0.599,-0.696,0.0
21.537,-0.534,-0.739,1.0
0.0,0.0,0.0,0.0
17.653,-0.446,-0.812,0.0
15.938,-0.406,-0.826,0.0
14.647,-0.377,-0.844,0.0
23.365,-0.606,-0.701,0.0
17.817,-0.466,-0.638,151.0
17.801,-0.47,-0.74,9.0
17.447,-0.465,-0.828,0.0
17.833,-0.479,-0.95,0.0
14.369,-0.389,-0.849,0.0
17.828,-0.487,-0.561,1.0
17.796,-0.491,-0.663,153.0
17.776,-0.494,-0.765,6.0
17.708,-0.497,-0.866,3.0
17.849,-0.505,-0.976,0.0
17.8,-0.508,-1.077,0.0
17.817,-0.512,-0.586,150.0
17.791,-0.516,-0.688,153.0
17.78,-0.52,-0.79,4.0
17.542,-0.517,-0.883,5.0
14.971,-0.445,-0.84,0.0
17.812,-0.534,-1.102,1.0
17.801,-0.537,-0.609,154.0
17.779,-0.541,-0.711,34.0
17.723,-0.543,-0.811,1.0
17.765,-0.549,-0.918,0.0
14.681,-0.457,-0.843,0.0
13.578,-0.426,-0.859,0.0
17.823,-0.564,-0.634,150.0
17.832,-0.568,-0.737,2.0
17.409,-0.559,-0.82,0.0
15.66,-0.507,-0.83,0.0
14.438,-0.471,-0.849,0.0
13.234,-0.435,-0.854,0.0
20.446,-0.677,-0.754,0.0
18.59,-0.62,-0.793,0.0
16.885,-0.567,-0.817,0.0
15.403,-0.521,-0.836,0.0
14.164,-0.483,-0.851,0.0
13.024,-0.447,-0.858,0.0
20.083,-0.694,-0.766,0.0
17.845,-0.622,-0.784,1.0
16.501,-0.579,-0.82,0.0
15.1,-0.534,-0.839,0.0
13.934,-0.496,-0.855,0.0
12.82,-0.46,-0.86,0.0
19.593,-0.707,-0.772,0.0
17.743,-0.645,-0.801,0.0
16.168,-0.592,-0.823,0.0
14.769,-0.544,-0.839,0.0
13.554,-0.503,-0.848,0.0
12.684,-0.474,-0.867,0.0
19.381,-0.729,-0.787,0.0
17.404,-0.659,-0.807,0.0
15.938,-0.608,-0.831,0.0
14.625,-0.562,-0.848,0.0
13.296,-0.514,-0.848,0.0
12.528,-0.488,-0.871,0.0
18.864,-0.739,-0.788,0.0
17.114,-0.674,-0.813,0.0
15.605,-0.619,-0.831,0.0
14.393,-0.575,-0.851,0.0
13.103,-0.527,-0.85,0.0
12.38,-0.501,-0.875,0.0
18.467,-0.752,-0.793,0.0
16.674,-0.683,-0.811,0.0
15.345,-0.633,-0.835,0.0
14.145,-0.587,-0.852,0.0
13.069,-0.546,-0.863,0.0
12.23,-0.514,-0.878,0.0
18.135,-0.767,-0.798,0.0
16.501,-0.702,-0.821,0.0
15.088,-0.646,-0.837,0.0
13.88,-0.598,-0.851,0.0
12.881,-0.558,-0.864,0.0
12.092,-0.528,-0.881,0.0
17.858,-0.782,-0.804,0.0
16.231,-0.716,-0.824,0.0
14.836,-0.658,-0.838,0.0
13.57,-0.606,-0.846,0.0
12.685,-0.57,-0.864,0.0
12.01,-0.543,-0.887,0.0
17.488,-0.794,-0.805,0.0
15.965,-0.729,-0.826,0.0
14.661,-0.674,-0.843,0.0
13.436,-0.621,-0.851,0.0
12.577,-0.585,-0.869,0.0
11.875,-0.556,-0.889,0.0
17.286,-0.812,-0.813,0.0
15.785,-0.746,-0.832,0.0
14.524,-0.69,-0.849,0.0
13.123,-0.627,-0.843,0.0
12.482,-0.6,-0.874,0.0
11.751,-0.568,-0.89,0.0
17.12,-0.831,-0.82,0.0
15.621,-0.763,-0.838,0.0
14.361,-0.705,-0.852,0.0
13.022,-0.643,-0.849,0.0
12.344,-0.613,-0.875,0.0
11.624,-0.581,-0.891,0.0
16.769,-0.841,-0.818,0.0
15.362,-0.775,-0.838,0.0
14.214,-0.721,-0.856,0.0
13.023,-0.664,-0.86,0.0
12.222,-0.627,-0.877,0.0
11.506,-0.593,-0.892,0.0
16.554,-0.856,-0.822,0.0
15.154,-0.788,-0.839,0.0
13.982,-0.731,-0.854,0.0
12.885,-0.678,-0.862,0.0
12.142,-0.642,-0.882,0.0
11.395,-0.606,-0.893,0.0
16.375,-0.873,-0.826,0.0
15.03,-0.806,-0.844,0.0
13.832,-0.746,-0.855,0.0
12.797,-0.694,-0.866,0.0
12.06,-0.657,-0.885,0.0
11.315,-0.62,-0.895,0.0
16.123,-0.886,-0.826,0.0
14.865,-0.821,-0.846,0.0
13.505,-0.75,-0.845,0.0
12.69,-0.708,-0.868,0.0
11.957,-0.671,-0.886,0.0
11.263,-0.635,-0.899,0.0
16.015,-0.905,-0.831,0.0
14.747,-0.838,-0.849,0.0
13.462,-0.769,-0.852,0.0
12.575,-0.722,-0.869,0.0
11.87,-0.685,-0.888,0.0
11.183,-0.649,-0.9,0.0
15.796,-0.918,-0.83,0.0
14.66,-0.856,-0.854,0.0
13.323,-0.782,-0.852,0.0
12.502,-0.738,-0.872,0.0
11.787,-0.699,-0.889,0.0
11.089,-0.661,-0.9,0.0
15.699,-0.938,-0.835,0.0
14.464,-0.868,-0.852,0.0
13.235,-0.798,-0.855,0.0
12.452,-0.755,-0.876,0.0
11.743,-0.715,-0.893,0.0
11.059,-0.677,-0.904,0.0
15.592,-0.956,-0.839,0.0
14.358,-0.885,-0.854,0.0
13.16,-0.815,-0.857,0.0
12.392,-0.771,-0.879,0.0
11.663,-0.73,-0.894,0.0
11.002,-0.691,-0.906,0.0
15.463,-0.973,-0.84,0.0
14.295,-0.904,-0.858,0.0
13.095,-0.832,-0.86,0.0
12.33,-0.787,-0.881,0.0
11.603,-0.744,-0.895,0.0
10.924,-0.704,-0.905,0.0
15.331,-0.99,-0.841,0.0
14.085,-0.913,-0.852,0.0
12.966,-0.845,-0.858,0.0
12.258,-0.802,-0.882,0.0
11.569,-0.761,-0.898,0.0
10.84,-0.716,-0.903,0.0
15.24,-1.008,-0.843,0.0
14.002,-0.93,-0.854,0.0
12.927,-0.863,-0.861,0.0
12.194,-0.817,-0.883,0.0
11.413,-0.769,-0.891,0.0
10.766,-0.728,-0.902,0.0
15.117,-1.024,-0.843,0.0
13.989,-0.952,-0.859,0.0
12.811,-0.875,-0.859,0.0
12.164,-0.835,-0.885,0.0
11.455,-0.79,-0.899,0.0
10.756,-0.745,-0.905,0.0
14.959,-1.037,-0.839,0.0
13.922,-0.969,-0.86,0.0
12.789,-0.894,-0.862,0.0
12.099,-0.85,-0.885,0.0
11.377,-0.803,-0.897,0.0
10.778,-0.764,-0.911,0.0
14.94,-1.059,-0.843,0.0
13.819,-0.984,-0.858,0.0
12.761,-0.912,-0.864,0.0
12.069,-0.866,-0.887,0.0
11.348,-0.818,-0.898,0.0
10.744,-0.778,-0.911,0.0
14.949,-1.083,-0.848,0.0
13.795,-1.004,-0.86,0.0
12.769,-0.933,-0.868,0.0
11.994,-0.88,-0.885,0.0
11.344,-0.836,-0.901,0.0
10.711,-0.792,-0.911,0.0
14.886,-1.102,-0.848,0.0
13.79,-1.025,-0.863,0.0
12.785,-0.954,-0.872,0.0
11.995,-0.898,-0.887,0.0
11.315,-0.851,-0.901,0.0
10.685,-0.807,-0.911,0.0
14.817,-1.119,-0.848,0.0
13.721,-1.04,-0.862,0.0
12.729,-0.969,-0.871,0.0
11.996,-0.917,-0.89,0.0
11.253,-0.864,-0.898,0.0
10.716,-0.826,-0.916,0.0
14.772,-1.138,-0.847,0.0
13.725,-1.062,-0.864,0.0
12.733,-0.989,-0.873,0.0
11.984,-0.934,-0.891,0.0
11.224,-0.879,-0.897,0.0
10.691,-0.84,-0.915,0.0
14.78,-1.162,-0.85,0.0
13.751,-1.085,-0.868,0.0
12.716,-1.007,-0.874,0.0
11.963,-0.951,-0.89,0.0
11.221,-0.895,-0.898,0.0
10.717,-0.858,-0.918,0.0
14.676,-1.176,-0.845,0.0
13.699,-1.101,-0.865,0.0
12.7,-1.025,-0.873,0.0
11.951,-0.968,-0.89,0.0
11.26,-0.915,-0.902,0.0
10.659,-0.87,-0.914,0.0
14.767,-1.205,-0.851,0.0
13.759,-1.127,-0.87,0.0
12.814,-1.053,-0.882,0.0
11.965,-0.987,-0.891,0.0
11.31,-0.936,-0.906,0.0
10.622,-0.883,-0.911,0.0
14.776,-1.228,-0.851,0.0
13.745,-1.146,-0.869,0.0
12.74,-1.066,-0.876,0.0
11.962,-1.004,-0.891,0.0
11.258,-0.949,-0.902,0.0
10.681,-0.903,-0.915,0.0
14.774,-1.249,-0.851,0.0
13.721,-1.164,-0.866,0.0
12.821,-1.091,-0.881,0.0
11.95,-1.021,-0.889,0.0
11.25,-0.964,-0.9,0.0
10.678,-0.918,-0.914,0.0
14.715,-1.265,-0.846,0.0
13.746,-1.186,-0.867,0.0
12.773,-1.105,-0.877,0.0
11.952,-1.038,-0.888,0.0
11.248,-0.98,-0.899,0.0
10.646,-0.931,-0.91,0.0
14.767,-1.29,-0.847,0.0
13.748,-1.205,-0.865,0.0
12.815,-1.127,-0.878,0.0
11.995,-1.059,-0.89,0.0
11.286,-0.999,-0.9,0.0
10.745,-0.955,-0.917,0.0
14.913,-1.324,-0.853,0.0
13.765,-1.226,-0.864,0.0
12.821,-1.146,-0.876,0.0
12.019,-1.077,-0.889,0.0
11.306,-1.017,-0.9,0.0
10.741,-0.969,-0.915,0.0
14.91,-1.344,-0.85,0.0
13.776,-1.246,-0.862,0.0
12.853,-1.166,-0.876,0.0
12.07,-1.099,-0.89,0.0
11.318,-1.033,-0.898,0.0
10.726,-0.982,-0.911,0.0
15.021,-1.375,-0.853,0.0
13.834,-1.27,-0.862,0.0
12.948,-1.192,-0.879,0.0
12.075,-1.115,-0.888,0.0
11.356,-1.052,-0.898,0.0
10.813,-1.005,-0.915,0.0
15.018,-1.394,-0.849,0.0
13.841,-1.289,-0.859,0.0
12.962,-1.211,-0.876,0.0
12.174,-1.14,-0.891,0.0
11.41,-1.072,-0.899,0.0
10.805,-1.018,-0.911,0.0
15.156,-1.427,-0.852,0.0
13.985,-1.32,-0.863,0.0
13.059,-1.237,-0.878,0.0
12.219,-1.16,-0.891,0.0
11.484,-1.094,-0.901,0.0
10.862,-1.038,-0.912,0.0
15.29,-1.459,-0.854,0.0
14.023,-1.342,-0.86,0.0
13.034,-1.251,-0.872,0.0
12.25,-1.179,-0.888,0.0
11.502,-1.11,-0.898,0.0
10.88,-1.053,-0.909,0.0
15.335,-1.483,-0.85,0.0
14.088,-1.366,-0.859,0.0
13.064,-1.27,-0.868,0.0
12.281,-1.197,-0.886,0.0
11.589,-1.133,-0.9,0.0
10.901,-1.068,-0.907,0.0
15.477,-1.515,-0.852,0.0
14.256,-1.399,-0.863,0.0
13.159,-1.295,-0.869,0.0
12.386,-1.222,-0.888,0.0
11.734,-1.161,-0.906,0.0
10.945,-1.086,-0.905,0.0
15.618,-1.548,-0.852,0.0
14.413,-1.432,-0.866,0.0
13.319,-1.327,-0.873,0.0
12.504,-1.249,-0.89,0.0
11.715,-1.173,-0.899,0.0
11.05,-1.109,-0.908,0.0
15.772,-1.582,-0.853,0.0
14.475,-1.455,-0.862,0.0
13.446,-1.355,-0.875,0.0
12.515,-1.264,-0.884,0.0
11.818,-1.197,-0.9,0.0
11.088,-1.126,-0.906,0.0
15.82,-1.605,-0.847,0.0
14.498,-1.474,-0.856,0.0
13.598,-1.386,-0.877,0.0
12.651,-1.293,-0.887,0.0
11.884,-1.217,-0.899,0.0
11.157,-1.145,-0.905,0.0
15.897,-1.63,-0.842,0.0
14.663,-1.507,-0.857,0.0
13.685,-1.41,-0.875,0.0
12.78,-1.32,-0.888,0.0
11.926,-1.234,-0.895,0.0
11.191,-1.161,-0.901,0.0
16.021,-1.66,-0.839,0.0
14.925,-1.55,-0.863,0.0
13.723,-1.428,-0.869,0.0
12.818,-1.337,-0.883,0.0
12.06,-1.261,-0.897,0.0
11.257,-1.18,-0.899,0.0
16.289,-1.705,-0.843,0.0
15.002,-1.574,-0.858,0.0
13.85,-1.456,-0.868,0.0
12.99,-1.369,-0.887,0.0
12.186,-1.287,-0.898,0.0
11.339,-1.2,-0.898,0.0
15.508,-1.639,-0.792,0.0
15.109,-1.6,-0.854,0.0
13.966,-1.482,-0.866,0.0
13.06,-1.389,-0.882,0.0
12.217,-1.302,-0.892,0.0
11.414,-1.219,-0.896,0.0
16.597,-1.771,-0.836,0.0
15.299,-1.636,-0.854,0.0
14.158,-1.517,-0.867,0.0
13.114,-1.408,-0.876,0.0
12.325,-1.326,-0.891,0.0
11.571,-1.247,-0.9,0.0
16.728,-1.801,-0.83,0.0
15.535,-1.675,-0.856,0.0
14.29,-1.544,-0.865,0.0
13.27,-1.437,-0.877,0.0
12.424,-1.348,-0.889,0.0
11.684,-1.27,-0.9,0.0
17.058,-1.852,-0.834,0.0
15.83,-1.722,-0.86,0.0
14.47,-1.577,-0.865,0.0
13.374,-1.46,-0.873,0.0
12.543,-1.372,-0.888,0.0
11.853,-1.299,-0.903,0.0
17.173,-1.88,-0.826,0.0
15.894,-1.743,-0.851,0.0
14.593,-1.603,-0.86,0.0
13.574,-1.494,-0.876,0.0
12.719,-1.402,-0.89,0.0
11.923,-1.317,-0.899,0.0
17.368,-1.915,-0.821,0.0
15.988,-1.766,-0.843,0.0
14.753,-1.632,-0.858,0.0
13.767,-1.526,-0.877,0.0
12.941,-1.437,-0.894,0.0
12.034,-1.339,-0.897,0.0
17.473,-1.941,-0.811,0.0
16.262,-1.809,-0.843,0.0
15.024,-1.674,-0.861,0.0
13.91,-1.553,-0.874,0.0
13.02,-1.456,-0.889,0.0
12.165,-1.363,-0.897,0.0
17.791,-1.99,-0.811,0.0
16.493,-1.848,-0.841,0.0
15.218,-1.707,-0.858,0.0
14.053,-1.579,-0.87,0.0
13.119,-1.477,-0.884,0.0
12.307,-1.387,-0.896,0.0
18.03,-2.03,-0.806,0.0
16.767,-1.89,-0.84,0.0
15.414,-1.74,-0.855,0.0
14.218,-1.608,-0.868,0.0
13.298,-1.506,-0.884,0.0
12.449,-1.412,-0.895,0.0
18.673,-2.115,-0.817,0.0
16.964,-1.924,-0.834,0.0
15.732,-1.787,-0.859,0.0
14.453,-1.644,-0.868,0.0
13.433,-1.53,-0.88,0.0
12.61,-1.438,-0.894,0.0
18.869,-2.149,-0.808,0.0
17.242,-1.967,-0.831,0.0
15.908,-1.817,-0.853,0.0
14.676,-1.678,-0.868,0.0
13.64,-1.562,-0.88,0.0
12.716,-1.458,-0.89,0.0
19.111,-2.189,-0.8,0.0
17.611,-2.019,-0.832,0.0
16.114,-1.85,-0.848,0.0
14.889,-1.711,-0.866,0.0
13.795,-1.588,-0.877,0.0
12.89,-1.485,-0.889,0.0
19.402,-2.233,-0.793,0.0
17.673,-2.036,-0.817,0.0
16.281,-1.878,-0.841,0.0
15.189,-1.754,-0.868,0.0
13.949,-1.613,-0.872,0.0
13.069,-1.513,-0.888,0.0
19.588,-2.265,-0.781,0.0
18.079,-2.092,-0.818,0.0
16.658,-1.93,-0.843,0.0
15.358,-1.781,-0.862,0.0
14.251,-1.655,-0.877,0.0
13.248,-1.54,-0.887,0.0
20.229,-2.349,-0.786,0.0
18.38,-2.136,-0.812,0.0
16.711,-1.944,-0.829,0.0
15.546,-1.81,-0.856,0.0
14.458,-1.685,-0.874,0.0
13.422,-1.566,-0.884,0.0
20.494,-2.388,-0.774,0.0
18.868,-2.201,-0.814,0.0
17.164,-2.004,-0.833,0.0
15.833,-1.85,-0.855,0.0
14.667,-1.715,-0.871,0.0
13.595,-1.592,-0.881,0.0
21.083,-2.465,-0.774,0.0
19.077,-2.232,-0.803,0.0
17.322,-2.029,-0.822,0.0
16.099,-1.887,-0.853,0.0
14.855,-1.743,-0.867,0.0
13.788,-1.619,-0.879,0.0
21.514,-2.523,-0.767,0.0
19.502,-2.289,-0.8,0.0
17.684,-2.077,-0.82,0.0
16.294,-1.915,-0.845,0.0
15.212,-1.789,-0.871,0.0
14.05,-1.654,-0.88,0.0
21.898,-2.575,-0.757,0.0
19.82,-2.332,-0.791,0.0
18.116,-2.133,-0.82,0.0
16.615,-1.958,-0.843,0.0
15.45,-1.822,-0.867,0.0
14.226,-1.679,-0.875,0.0
22.64,-2.668,-0.757,0.0
20.32,-2.396,-0.788,0.0
18.603,-2.195,-0.821,0.0
16.945,-2.0,-0.841,0.0
15.695,-1.854,-0.863,0.0
14.529,-1.717,-0.877,0.0
23.303,-2.752,-0.753,0.0
20.815,-2.459,-0.784,0.0
18.821,-2.225,-0.81,0.0
17.103,-2.023,-0.829,0.0
15.869,-1.878,-0.854,0.0
14.736,-1.744,-0.873,0.0
23.63,-2.795,-0.736,0.0
21.268,-2.516,-0.777,0.0
19.094,-2.26,-0.8,0.0
17.539,-2.077,-0.83,0.0
16.103,-1.908,-0.849,0.0
15.019,-1.78,-0.872,0.0
24.259,-2.872,-0.728,0.0
21.652,-2.564,-0.766,0.0
19.677,-2.331,-0.801,0.0
17.717,-2.1,-0.818,0.0
16.397,-1.944,-0.845,0.0
15.238,-1.807,-0.867,0.0
24.742,-2.931,-0.714,0.0
22.077,-2.616,-0.755,0.0
20.104,-2.383,-0.795,0.0
18.08,-2.144,-0.813,0.0
16.74,-1.985,-0.843,0.0
15.556,-1.846,-0.867,0.0
25.734,-3.05,-0.712,0.0
0.0,0.0,0.0,0.0
20.468,-2.427,-0.785,0.0
18.664,-2.213,-0.818,0.0
17.041,-2.021,-0.838,0.0
15.781,-1.872,-0.86,0.0
26.266,-3.113,-0.696,0.0
23.372,-2.77,-0.744,0.0
21.025,-2.492,-0.782,0.0
19.009,-2.253,-0.81,0.0
17.301,-2.051,-0.83,0.0
16.035,-1.901,-0.855,0.0
26.985,-3.197,-0.683,0.0
0.0,0.0,0.0,0.0
21.405,-2.536,-0.77,0.0
0.0,0.0,0.0,0.0
17.74,-2.102,-0.83,0.0
16.261,-1.926,-0.847,0.0
27.681,-3.277,-0.668,0.0
24.574,-2.909,-0.723,0.0
21.973,-2.6,-0.764,0.0
19.909,-2.356,-0.801,0.0
18.234,-2.158,-0.831,0.0
16.499,-1.952,-0.84,0.0
28.469,-3.366,-0.652,0.0
0.0,0.0,0.0,0.0
22.464,-2.655,-0.754,0.0
20.243,-2.392,-0.79,0.0
18.529,-2.189,-0.822,0.0
16.945,-2.002,-0.842,0.0
29.831,-3.521,-0.647,0.0
25.784,-3.043,-0.697,0.0
23.126,-2.728,-0.749,0.0
20.619,-2.432,-0.779,0.0
18.773,-2.214,-0.81,0.0
17.178,-2.025,-0.833,0.0
30.355,-3.576,-0.622,0.0
26.598,-3.132,-0.687,0.0
23.899,-2.813,-0.745,0.0
21.266,-2.503,-0.778,0.0
19.302,-2.271,-0.809,0.0
17.314,-2.036,-0.819,0.0
31.06,-3.651,-0.599,0.0
27.751,-3.26,-0.683,0.0
24.27,-2.85,-0.727,0.0
21.736,-2.551,-0.769,0.0
19.765,-2.319,-0.805,0.0
17.837,-2.092,-0.822,0.0
32.479,-3.807,-0.587,1.0
28.05,-3.286,-0.656,0.0
24.966,-2.923,-0.717,0.0
22.215,-2.599,-0.759,0.0
20.089,-2.35,-0.793,0.0
18.346,-2.145,-0.822,0.0
0.0,0.0,0.0,0.0
29.339,-3.426,-0.651,0.0
25.904,-3.023,-0.713,0.0
23.182,-2.703,-0.764,0.0
20.677,-2.41,-0.791,0.0
18.83,-2.193,-0.821,0.0
0.0,0.0,0.0,0.0
30.09,-3.5,-0.631,0.0
26.903,-3.127,-0.707,0.0
23.663,-2.749,-0.751,0.0
21.138,-2.454,-0.783,0.0
19.239,-2.232,-0.815,0.0
36.329,-4.212,-0.524,0.0
0.0,0.0,0.0,0.0
27.209,-3.15,-0.682,0.0
23.949,-2.77,-0.731,0.0
21.627,-2.5,-0.775,0.0
19.501,-2.252,-0.803,0.0
0.0,0.0,0.0,0.0
32.187,-3.712,-0.597,0.0
27.659,-3.187,-0.66,0.0
24.56,-2.828,-0.719,0.0
22.025,-2.533,-0.762,0.0
20.003,-2.299,-0.799,0.0
0.0,0.0,0.0,0.0
32.912,-3.777,-0.57,0.0
0.0,0.0,0.0,0.0
25.444,-2.914,-0.715,0.0
21.984,-2.516,-0.735,0.0
20.52,-2.346,-0.795,0.0
40.823,-4.665,-0.441,0.0
33.68,-3.845,-0.543,0.0
29.417,-3.354,-0.631,0.0
26.102,-2.973,-0.702,0.0
0.0,0.0,0.0,0.0
20.776,-2.362,-0.78,0.0
0.0,0.0,0.0,0.0
36.489,-4.141,-0.545,0.0
0.0,0.0,0.0,0.0
26.728,-3.026,-0.687,0.0
24.122,-2.728,-0.748,0.0
21.362,-2.414,-0.777,0.0
0.0,0.0,0.0,0.0
37.373,-4.216,-0.514,0.0
32.307,-3.639,-0.617,0.0
27.619,-3.108,-0.677,0.0
24.346,-2.736,-0.727,0.0
21.922,-2.461,-0.771,0.0
0.0,0.0,0.0,0.0
38.468,-4.311,-0.484,0.0
32.531,-3.64,-0.583,0.0
28.398,-3.174,-0.663,0.0
25.229,-2.816,-0.723,0.0
22.422,-2.499,-0.763,0.0
0.0,0.0,0.0,0.0
0.0,0.0,0.0,0.0
0.0,0.0,0.0,0.0
29.745,-3.3,-0.66,0.0
26.342,-2.919,-0.725,1.0
23.118,-2.558,-0.76,0.0
90.385,-8.303,1.027,34.0
90.396,-8.277,0.541,13.0
0.0,0.0,0.0,0.0
0.0,0.0,0.0,0.0
41.596,-3.772,-0.426,0.0
35.005,-3.164,-0.547,0.0
90.37,-8.167,1.104,37.0
90.398,-8.141,0.617,41.0
90.275,-8.103,0.13,2.0
0.0,0.0,0.0,0.0
43.196,-3.852,-0.407,0.0
35.32,-3.139,-0.523,0.0
90.393,-8.031,1.176,68.0
90.408,-8.005,0.689,35.0
90.425,-7.978,0.202,12.0
0.0,0.0,0.0,0.0
44.536,-3.903,-0.384,0.0
0.0,0.0,0.0,0.0
90.384,-7.89,1.247,34.0
90.412,-7.864,0.76,34.0
90.398,-7.835,0.271,20.0
0.0,0.0,0.0,0.0
0.0,0.0,0.0,0.0
0.0,0.0,0.0,0.0
90.404,-7.749,1.315,45.0
90.419,-7.721,0.828,35.0
90.44,-7.694,0.339,28.0
0.0,0.0,0.0,0.0
0.0,0.0,0.0,0.0
38.784,-3.263,-0.486,0.0
90.417,-7.605,1.381,57.0
90.41,-7.575,0.892,59.0
90.413,-7.545,0.404,31.0
0.0,0.0,0.0,0.0
0.0,0.0,0.0,0.0
39.005,-3.218,-0.462,0.0
90.415,-7.455,1.444,55.0
100.061,-8.218,1.057,12.0
100.021,-8.182,0.515,9.0
0.0,0.0,0.0,0.0
0.0,0.0,0.0,0.0
41.513,-3.356,-0.463,0.0
100.071,-8.084,1.664,15.0
100.074,-8.05,1.123,14.0
100.035,-8.012,0.581,12.0
0.0,0.0,0.0,0.0
0.0,0.0,0.0,0.0
41.588,-3.29,-0.437,0.0
100.069,-7.912,1.729,13.0
100.11,-7.881,1.187,12.0
100.067,-7.843,0.644,14.0
0.0,0.0,0.0,0.0
0.0,0.0,0.0,0.0
41.971,-3.248,-0.415,0.0
100.077,-7.738,1.789,8.0
100.084,-7.705,1.247,11.0
100.06,-7.668,0.704,12.0
0.0,0.0,0.0,0.0
0.0,0.0,0.0,0.0
0.0,0.0,0.0,0.0
100.027,-7.557,1.846,4.0
100.107,-7.528,1.304,11.0
100.069,-7.49,0.761,11.0
98.849,-7.365,0.204,3.0
0.0,0.0,0.0,0.0
0.0,0.0,0.0,0.0
126.193,-9.307,2.398,2.0
100.044,-7.343,1.357,8.0
100.102,-7.313,0.814,13.0
98.874,-7.19,0.256,5.0
0.0,0.0,0.0,0.0
0.0,0.0,0.0,0.0
109.351,-7.867,2.133,41.0
100.066,-7.163,1.408,8.0
100.077,-7.129,0.864,10.0
99.005,-7.018,0.306,10.0
0.0,0.0,0.0,0.0
0.0,0.0,0.0,0.0
109.331,-7.666,2.185,34.0
100.076,-6.98,1.455,6.0
100.077,-6.944,0.91,7.0
99.159,-6.845,0.351,8.0
0.0,0.0,0.0,0.0
0.0,0.0,0.0,0.0
148.31,-10.122,3.029,5.0
0.0,0.0,0.0,0.0
0.0,0.0,0.0,0.0
99.524,-6.686,0.394,8.0
0.0,0.0,0.0,0.0
0.0,0.0,0.0,0.0
117.348,-7.789,2.444,40.0
106.062,-7.001,1.631,11.0
106.074,-6.963,1.052,12.0
99.712,-6.509,0.435,14.0
0.0,0.0,0.0,0.0
0.0,0.0,0.0,0.0
117.319,-7.563,2.487,33.0
125.264,-8.029,1.972,31.0
125.328,-7.989,1.288,16.0
108.819,-6.897,0.513,2.0
0.0,0.0,0.0,0.0
0.0,0.0,0.0,0.0
148.139,-9.267,3.191,15.0
148.821,-9.255,2.391,18.0
149.836,-9.265,1.588,10.0
108.903,-6.695,0.547,3.0
0.0,0.0,0.0,0.0
0.0,0.0,0.0,0.0
148.57,-9.008,3.244,15.0
148.675,-8.96,2.432,23.0
150.085,-8.99,1.634,15.0
109.708,-6.531,0.583,1.0
0.0,0.0,0.0,0.0
0.0,0.0,0.0,0.0
149.327,-8.761,3.301,21.0
149.361,-8.706,2.483,18.0
140.716,-8.151,1.568,17.0
0.0,0.0,0.0,0.0
0.0,0.0,0.0,0.0
0.0,0.0,0.0,0.0
147.515,-8.363,3.294,17.0
140.652,-7.923,2.369,18.0
0.0,0.0,0.0,0.0
101.45,-5.638,0.585,150.0
58.18,-3.212,0.016,1.0
0.0,0.0,0.0,0.0
140.679,-7.695,3.168,29.0
0.0,0.0,0.0,0.0
101.559,-5.478,1.172,1.0
102.365,-5.485,0.609,2.0
0.0,0.0,0.0,0.0
0.0,0.0,0.0,0.0
140.703,-7.414,3.191,15.0
0.0,0.0,0.0,0.0
101.552,-5.275,1.186,1.0
102.913,-5.308,0.626,1.0
0.0,0.0,0.0,0.0
0.0,0.0,0.0,0.0
0.0,0.0,0.0,0.0
102.277,-5.147,1.768,2.0
101.532,-5.071,1.197,150.0
0.0,0.0,0.0,0.0
0.0,0.0,0.0,0.0
0.0,0.0,0.0,0.0
0.0,0.0,0.0,0.0
0.0,0.0,0.0,0.0
101.53,-4.865,1.203,150.0
102.465,-4.873,0.64,2.0
0.0,0.0,0.0,0.0
0.0,0.0,0.0,0.0
0.0,0.0,0.0,0.0
102.131,-4.725,1.777,1.0
101.452,-4.655,1.206,4.0
0.0,0.0,0.0,0.0
0.0,0.0,0.0,0.0
0.0,0.0,0.0,0.0
142.598,-6.357,3.269,6.0
0.0,0.0,0.0,0.0
101.521,-4.448,1.206,14.0
0.0,0.0,0.0,0.0
0.0,0.0,0.0,0.0
0.0,0.0,0.0,0.0
142.638,-6.064,3.265,2.0
0.0,0.0,0.0,0.0
101.56,-4.241,1.202,5.0
101.488,-4.199,0.63,150.0
0.0,0.0,0.0,0.0
0.0,0.0,0.0,0.0
163.137,-6.598,3.722,3.0
162.114,-6.496,2.803,5.0
0.0,0.0,0.0,0.0
0.0,0.0,0.0,0.0
0.0,0.0,0.0,0.0
0.0,0.0,0.0,0.0
0.0,0.0,0.0,0.0
162.139,-6.164,2.784,11.0
162.043,-6.098,1.885,14.0
160.736,-5.99,0.963,9.0
0.0,0.0,0.0,0.0
0.0,0.0,0.0,0.0
0.0,0.0,0.0,0.0
162.146,-5.828,2.76,15.0
162.128,-5.766,1.86,20.0
160.661,-5.655,0.936,11.0
0.0,0.0,0.0,0.0
0.0,0.0,0.0,0.0
0.0,0.0,0.0,0.0
162.229,-5.495,2.73,18.0
162.021,-5.426,1.827,24.0
160.763,-5.323,0.905,6.0
0.0,0.0,0.0,0.0
0.0,0.0,0.0,0.0
0.0,0.0,0.0,0.0
162.255,-5.153,2.693,6.0
161.906,-5.082,1.787,14.0
0.0,0.0,0.0,0.0
0.0,0.0,0.0,0.0
49.819,-1.509,-0.285,0.0
167.839,-5.043,3.673,14.0
163.916,-4.865,2.677,15.0
162.082,-4.749,1.745,13.0
0.0,0.0,0.0,0.0
0.0,0.0,0.0,0.0
0.0,0.0,0.0,0.0
168.035,-4.697,3.627,13.0
0.0,0.0,0.0,0.0
93.132,-2.535,0.974,4.0
93.08,-2.5,0.446,1.0
0.0,0.0,0.0,0.0
0.0,0.0,0.0,0.0
168.212,-4.351,3.575,7.0
0.0,0.0,0.0,0.0
93.04,-2.337,0.94,151.0
0.0,0.0,0.0,0.0
0.0,0.0,0.0,0.0
0.0,0.0,0.0,0.0
170.447,-4.054,3.558,3.0
0.0,0.0,0.0,0.0
93.004,-2.144,0.903,12.0
0.0,0.0,0.0,0.0
0.0,0.0,0.0,0.0
0.0,0.0,0.0,0.0
170.412,-3.699,3.487,5.0
93.078,-1.985,1.384,4.0
92.991,-1.949,0.864,179.0
0.0,0.0,0.0,0.0
0.0,0.0,0.0,0.0
0.0,0.0,0.0,0.0
170.276,-3.338,3.406,6.0
93.014,-1.791,1.341,12.0
92.99,-1.756,0.821,173.0
0.0,0.0,0.0,0.0
0.0,0.0,0.0,0.0
0.0,0.0,0.0,0.0
0.0,0.0,0.0,0.0
93.013,-1.597,1.295,52.0
92.981,-1.565,0.775,150.0
19.753,-0.325,0.052,0.0
0.0,0.0,0.0,0.0
0.0,0.0,0.0,0.0
0.0,0.0,0.0,0.0
19.757,-0.298,0.264,2.0
19.749,-0.291,0.153,28.0
19.742,-0.284,0.041,0.0
0.0,0.0,0.0,0.0
0.0,0.0,0.0,0.0
19.761,-0.264,0.364,8.0
19.735,-0.257,0.253,12.0
19.736,-0.25,0.142,12.0
0.0,0.0,0.0,0.0
0.0,0.0,0.0,0.0
42.647,-0.496,-0.413,0.0
19.742,-0.224,0.352,9.0
19.758,-0.217,0.241,1.0
92.879,-0.988,0.613,1.0
0.0,0.0,0.0,0.0
19.763,-0.196,-0.093,0.0
19.773,-0.189,-0.204,10.0
19.743,-0.183,0.339,0.0
94.917,-0.85,1.099,1.0
0.0,0.0,0.0,0.0
19.754,-0.163,0.004,0.0
19.733,-0.156,-0.105,13.0
19.738,-0.149,-0.216,16.0
19.773,-0.143,0.326,0.0
19.761,-0.136,0.215,3.0
19.746,-0.129,0.104,7.0
19.721,-0.122,-0.008,12.0
19.712,-0.116,-0.119,16.0
19.739,-0.109,-0.23,17.0
19.681,-0.103,0.311,10.0
19.708,-0.096,0.2,16.0
19.704,-0.089,0.089,12.0
19.697,-0.082,-0.023,16.0
19.717,-0.076,-0.133,16.0
19.752,-0.069,-0.245,15.0
19.651,-0.063,0.295,10.0
19.67,-0.056,0.185,12.0
19.697,-0.049,0.074,15.0
19.707,-0.043,-0.038,16.0
19.746,-0.036,-0.149,12.0
19.768,-0.029,-0.26,0.0
19.631,-0.023,0.28,14.0
19.708,-0.016,0.17,6.0
19.751,-0.01,0.059,4.0
19.746,-0.003,-0.053,6.0
19.776,0.002,-0.165,0.0
19.784,0.009,-0.277,2.0
20.771,1.076,-0.574,3.0
18.523,0.963,-0.618,3.0
17.073,0.89,-0.668,1.0
16.386,0.858,-0.737,1.0
15.844,0.832,-0.804,0.0
14.386,0.758,-0.813,0.0
20.08,1.061,-0.586,3.0
18.144,0.962,-0.634,3.0
16.901,0.899,-0.688,2.0
16.199,0.864,-0.754,1.0
15.123,0.81,-0.792,0.0
13.981,0.751,-0.813,0.0
19.373,1.044,-0.597,3.0
17.649,0.954,-0.646,1.0
16.749,0.908,-0.709,1.0
16.011,0.87,-0.772,2.0
14.783,0.806,-0.798,0.0
13.893,0.76,-0.83,0.0
18.762,1.029,-0.609,3.0
17.23,0.948,-0.658,1.0
16.476,0.909,-0.724,1.0
15.922,0.881,-0.793,1.0
14.498,0.804,-0.806,0.0
13.3,0.74,-0.816,0.0
18.306,1.021,-0.624,3.0
16.988,0.95,-0.677,2.0
16.264,0.912,-0.742,1.0
15.213,0.856,-0.783,0.0
14.186,0.8,-0.812,0.0
12.975,0.734,-0.818,0.0
17.896,1.014,-0.639,1.0
16.805,0.955,-0.697,1.0
16.074,0.916,-0.759,2.0
14.937,0.853,-0.793,0.0
13.763,0.788,-0.811,0.0
12.727,0.731,-0.823,0.0
17.365,0.999,-0.649,1.0
16.602,0.957,-0.716,1.0
15.973,0.923,-0.781,3.0
14.563,0.844,-0.798,0.0
13.458,0.782,-0.815,0.0
12.542,0.731,-0.832,0.0
17.049,0.994,-0.665,1.0
16.356,0.956,-0.732,1.0
15.624,0.916,-0.79,0.0
14.282,0.839,-0.806,0.0
13.041,0.768,-0.811,0.0
12.334,0.728,-0.839,0.0
16.872,0.997,-0.686,2.0
16.126,0.955,-0.749,1.0
15.159,0.9,-0.791,0.0
13.876,0.826,-0.806,0.0
12.847,0.766,-0.82,0.0
12.153,0.726,-0.846,0.0
16.681,0.998,-0.706,1.0
15.994,0.959,-0.769,3.0
14.825,0.891,-0.798,0.0
13.552,0.816,-0.809,0.0
12.585,0.759,-0.825,0.0
11.924,0.721,-0.85,0.0
16.435,0.994,-0.722,1.0
15.781,0.957,-0.785,0.0
14.423,0.876,-0.801,0.0
13.209,0.804,-0.811,0.0
12.426,0.758,-0.835,0.0
11.689,0.714,-0.853,0.0
16.241,0.993,-0.741,1.0
15.228,0.933,-0.782,0.0
14.047,0.862,-0.803,0.0
12.902,0.793,-0.813,0.0
12.191,0.751,-0.839,0.0
11.503,0.71,-0.858,0.0
16.067,0.992,-0.759,2.0
14.902,0.922,-0.79,0.0
13.585,0.842,-0.799,0.0
12.629,0.784,-0.817,0.0
12.004,0.747,-0.846,0.0
11.261,0.702,-0.859,0.0
15.905,0.991,-0.778,0.0
14.481,0.904,-0.792,0.0
13.306,0.832,-0.804,0.0
12.539,0.785,-0.832,0.0
11.75,0.737,-0.848,0.0
11.07,0.696,-0.863,0.0
15.4,0.968,-0.778,0.0
14.194,0.893,-0.799,0.0
13.1,0.826,-0.813,0.0
12.319,0.778,-0.838,0.0
11.606,0.734,-0.856,0.0
10.861,0.688,-0.864,0.0
15.081,0.955,-0.787,0.0
13.868,0.879,-0.804,0.0
12.724,0.808,-0.811,0.0
12.118,0.77,-0.844,0.0
11.339,0.722,-0.855,0.0
10.7,0.682,-0.869,0.0
14.775,0.942,-0.795,0.0
13.426,0.857,-0.8,0.0
12.55,0.802,-0.82,0.0
11.831,0.757,-0.843,0.0
11.126,0.713,-0.858,0.0
10.572,0.679,-0.876,0.0
14.301,0.917,-0.793,0.0
13.215,0.848,-0.809,0.0
12.378,0.796,-0.829,0.0
11.722,0.755,-0.855,0.0
10.933,0.705,-0.861,0.0
10.371,0.669,-0.876,0.0
13.912,0.897,-0.794,0.0
12.892,0.832,-0.81,0.0
12.295,0.794,-0.844,0.0
11.428,0.739,-0.852,0.0
10.764,0.697,-0.864,0.0
10.216,0.663,-0.88,0.0
13.652,0.884,-0.801,0.0
12.718,0.825,-0.82,0.0
11.987,0.778,-0.842,0.0
11.257,0.732,-0.857,0.0
10.623,0.691,-0.87,0.0
10.099,0.658,-0.886,0.0
13.298,0.865,-0.802,0.0
12.47,0.812,-0.824,0.0
11.743,0.765,-0.844,0.0
11.037,0.72,-0.858,0.0
10.451,0.683,-0.873,0.0
9.958,0.651,-0.89,0.0
13.106,0.855,-0.811,0.0
12.317,0.805,-0.833,0.0
11.556,0.756,-0.849,0.0
10.857,0.71,-0.861,0.0
10.279,0.673,-0.875,0.0
9.799,0.643,-0.891,0.0
12.77,0.836,-0.81,0.0
12.118,0.794,-0.839,0.0
11.394,0.747,-0.855,0.0
10.698,0.702,-0.866,0.0
10.166,0.668,-0.881,0.0
9.679,0.636,-0.896,0.0
12.614,0.827,-0.82,0.0
11.945,0.784,-0.845,0.0
11.196,0.735,-0.857,0.0
10.533,0.692,-0.869,0.0
10.062,0.662,-0.888,0.0
9.529,0.627,-0.897,0.0
12.443,0.817,-0.828,0.0
11.772,0.774,-0.851,0.0
11.026,0.725,-0.861,0.0
10.388,0.684,-0.873,0.0
9.912,0.653,-0.89,0.0
9.418,0.621,-0.901,0.0
12.262,0.806,-0.835,0.0
11.519,0.758,-0.851,0.0
10.804,0.711,-0.861,0.0
10.225,0.673,-0.875,0.0
9.766,0.644,-0.893,0.0
9.267,0.611,-0.901,0.0
12.031,0.791,-0.838,0.0
11.342,0.746,-0.855,0.0
10.644,0.7,-0.864,0.0
10.114,0.666,-0.881,0.0
9.615,0.633,-0.893,0.0
9.142,0.603,-0.903,0.0
11.88,0.781,-0.845,0.0
11.113,0.731,-0.855,0.0
10.489,0.69,-0.867,0.0
9.982,0.657,-0.884,0.0
9.507,0.626,-0.898,0.0
8.994,0.592,-0.901,0.0
11.605,0.762,-0.843,0.0
10.972,0.721,-0.86,0.0
10.369,0.681,-0.873,0.0
9.872,0.649,-0.889,0.0
9.436,0.62,-0.905,0.0
8.91,0.586,-0.906,0.0
11.498,0.754,-0.852,0.0
10.825,0.71,-0.864,0.0
10.221,0.67,-0.875,0.0
9.777,0.641,-0.895,0.0
9.252,0.607,-0.901,0.0
8.754,0.575,-0.903,0.0
11.277,0.737,-0.852,0.0
10.678,0.698,-0.868,0.0
10.142,0.664,-0.883,0.0
9.573,0.626,-0.89,0.0
9.134,0.598,-0.902,0.0
8.649,0.566,-0.905,0.0
11.107,0.724,-0.855,0.0
10.505,0.685,-0.869,0.0
9.998,0.652,-0.885,0.0
9.524,0.621,-0.899,0.0
8.966,0.585,-0.899,0.0
8.555,0.558,-0.907,0.0
10.976,0.713,-0.86,0.0
10.379,0.675,-0.873,0.0
9.869,0.641,-0.887,0.0
9.417,0.612,-0.902,0.0
8.914,0.579,-0.906,0.0
8.447,0.549,-0.908,0.0
10.816,0.7,-0.862,0.0
10.242,0.663,-0.876,0.0
9.753,0.631,-0.89,0.0
9.259,0.599,-0.9,0.0
8.806,0.57,-0.907,0.0
8.337,0.54,-0.907,0.0
10.682,0.688,-0.866,0.0
10.103,0.651,-0.878,0.0
9.633,0.62,-0.893,0.0
9.13,0.588,-0.9,0.0
8.663,0.558,-0.904,0.0
8.218,0.529,-0.905,0.0
10.6,0.679,-0.874,0.0
9.995,0.64,-0.882,0.0
9.467,0.606,-0.89,0.0
9.014,0.577,-0.9,0.0
8.546,0.547,-0.903,0.0
8.149,0.522,-0.909,0.0
10.36,0.66,-0.867,0.0
9.898,0.63,-0.886,0.0
9.42,0.6,-0.898,0.0
8.914,0.567,-0.902,0.0
8.477,0.539,-0.907,0.0
8.089,0.515,-0.913,0.0
10.302,0.652,-0.876,0.0
9.803,0.62,-0.89,0.0
9.31,0.589,-0.899,0.0
8.774,0.555,-0.899,0.0
8.36,0.528,-0.905,0.0
8.004,0.506,-0.913,0.0
10.172,0.639,-0.877,0.0
9.657,0.607,-0.889,0.0
9.196,0.577,-0.9,0.0
8.678,0.545,-0.9,0.0
8.288,0.52,-0.908,0.0
7.967,0.5,-0.919,0.0
10.064,0.628,-0.88,0.0
9.575,0.597,-0.893,0.0
9.073,0.565,-0.898,0.0
8.62,0.537,-0.904,0.0
8.224,0.512,-0.911,0.0
7.895,0.491,-0.92,0.0
10.002,0.619,-0.887,0.0
9.481,0.586,-0.895,0.0
8.973,0.554,-0.899,0.0
8.55,0.528,-0.907,0.0
8.124,0.501,-0.909,0.0
7.829,0.483,-0.922,0.0
9.899,0.607,-0.889,0.0
9.387,0.575,-0.897,0.0
8.855,0.542,-0.898,0.0
8.451,0.517,-0.906,0.0
8.096,0.495,-0.915,0.0
7.762,0.474,-0.923,0.0
9.795,0.595,-0.891,0.0
9.3,0.564,-0.899,0.0
8.811,0.534,-0.903,0.0
8.333,0.505,-0.903,0.0
8.007,0.485,-0.914,0.0
7.727,0.467,-0.927,0.0
9.692,0.583,-0.892,0.0
9.171,0.551,-0.897,0.0
8.694,0.522,-0.9,0.0
8.262,0.495,-0.904,0.0
7.973,0.477,-0.919,0.0
7.69,0.46,-0.931,0.0
9.621,0.572,-0.896,0.0
9.108,0.541,-0.9,0.0
8.635,0.512,-0.903,0.0
8.187,0.485,-0.905,0.0
7.899,0.468,-0.919,0.0
7.626,0.451,-0.931,0.0
9.534,0.561,-0.897,0.0
9.003,0.529,-0.899,0.0
8.59,0.504,-0.908,0.0
8.153,0.478,-0.909,0.0
7.849,0.459,-0.921,0.0
7.566,0.442,-0.932,0.0
9.439,0.548,-0.898,0.0
8.93,0.518,-0.901,0.0
8.498,0.492,-0.906,0.0
8.086,0.468,-0.91,0.0
7.789,0.45,-0.921,0.0
7.508,0.433,-0.932,0.0
9.338,0.535,-0.897,0.0
8.874,0.508,-0.904,0.0
8.403,0.481,-0.904,0.0
8.031,0.459,-0.911,0.0
7.758,0.442,-0.925,0.0
7.481,0.426,-0.936,0.0
9.263,0.524,-0.899,0.0
8.812,0.498,-0.905,0.0
8.41,0.474,-0.913,0.0
8.026,0.452,-0.918,0.0
7.716,0.434,-0.927,0.0
7.434,0.418,-0.936,0.0
9.179,0.512,-0.899,0.0
8.7,0.484,-0.902,0.0
8.309,0.462,-0.909,0.0
7.92,0.44,-0.913,0.0
7.686,0.426,-0.93,0.0
7.366,0.408,-0.934,0.0
9.119,0.501,-0.9,0.0
8.702,0.477,-0.909,0.0
8.252,0.452,-0.91,0.0
7.889,0.431,-0.916,0.0
7.622,0.416,-0.929,0.0
7.333,0.4,-0.936,0.0
9.08,0.491,-0.904,0.0
8.604,0.465,-0.906,0.0
8.238,0.444,-0.915,0.0
7.861,0.423,-0.919,0.0
7.609,0.409,-0.933,0.0
7.278,0.39,-0.935,0.0
8.994,0.479,-0.902,0.0
8.581,0.456,-0.91,0.0
8.156,0.432,-0.912,0.0
7.848,0.415,-0.923,0.0
7.535,0.398,-0.93,0.0
7.248,0.382,-0.937,0.0
8.922,0.467,-0.902,0.0
8.535,0.446,-0.911,0.0
8.113,0.423,-0.913,0.0
7.761,0.404,-0.919,0.0
7.462,0.387,-0.926,0.0
7.243,0.375,-0.941,0.0
8.885,0.457,-0.904,0.0
8.506,0.436,-0.914,0.0
8.063,0.413,-0.913,0.0
7.745,0.396,-0.922,0.0
7.479,0.381,-0.933,0.0
7.233,0.368,-0.944,0.0
8.841,0.446,-0.905,0.0
8.426,0.424,-0.911,0.0
8.061,0.405,-0.918,0.0
7.752,0.389,-0.928,0.0
7.462,0.373,-0.936,0.0
7.213,0.36,-0.946,0.0
8.784,0.435,-0.905,0.0
8.426,0.416,-0.916,0.0
8.015,0.395,-0.917,0.0
7.661,0.376,-0.922,0.0
7.441,0.365,-0.938,0.0
7.184,0.351,-0.947,0.0
8.755,0.425,-0.907,0.0
8.3,0.402,-0.907,0.0
7.978,0.385,-0.918,0.0
7.678,0.37,-0.928,0.0
7.418,0.356,-0.939,0.0
7.158,0.343,-0.947,0.0
8.752,0.416,-0.911,0.0
8.275,0.392,-0.909,0.0
7.969,0.376,-0.921,0.0
7.66,0.361,-0.93,0.0
7.405,0.348,-0.941,0.0
7.145,0.335,-0.949,0.0
8.731,0.406,-0.913,0.0
8.303,0.385,-0.916,0.0
7.95,0.367,-0.922,0.0
7.593,0.35,-0.925,0.0
7.377,0.339,-0.941,0.0
7.111,0.326,-0.948,0.0
8.699,0.395,-0.914,0.0
8.273,0.375,-0.916,0.0
7.937,0.358,-0.924,0.0
7.604,0.342,-0.93,0.0
7.317,0.328,-0.936,0.0
7.093,0.317,-0.949,0.0
8.641,0.384,-0.911,0.0
8.217,0.363,-0.913,0.0
7.907,0.349,-0.924,0.0
7.6,0.334,-0.932,0.0
7.294,0.319,-0.936,0.0
7.075,0.309,-0.949,0.0
8.624,0.373,-0.912,0.0
8.246,0.356,-0.919,0.0
7.883,0.339,-0.924,0.0
7.561,0.324,-0.93,0.0
7.293,0.311,-0.939,0.0
7.074,0.301,-0.951,0.0
8.602,0.363,-0.913,0.0
8.16,0.343,-0.912,0.0
7.875,0.33,-0.925,0.0
7.564,0.316,-0.932,0.0
7.268,0.302,-0.937,0.0
7.048,0.292,-0.949,0.0
8.572,0.352,-0.912,0.0
8.192,0.335,-0.918,0.0
7.87,0.321,-0.927,0.0
7.565,0.307,-0.934,0.0
7.273,0.294,-0.94,0.0
7.032,0.284,-0.949,0.0
8.595,0.344,-0.916,0.0
8.166,0.325,-0.917,0.0
7.872,0.312,-0.928,0.0
7.521,0.297,-0.931,0.0
7.275,0.286,-0.942,0.0
7.015,0.275,-0.948,0.0
8.583,0.334,-0.916,0.0
8.232,0.319,-0.926,0.0
7.874,0.303,-0.93,0.0
7.515,0.288,-0.931,0.0
7.262,0.278,-0.941,0.0
7.013,0.267,-0.949,0.0
8.552,0.323,-0.914,0.0
8.194,0.308,-0.922,0.0
7.858,0.294,-0.929,0.0
7.495,0.279,-0.929,0.0
7.287,0.27,-0.945,0.0
7.015,0.259,-0.95,0.0
8.539,0.312,-0.914,0.0
8.182,0.298,-0.922,0.0
7.872,0.285,-0.931,0.0
7.504,0.271,-0.931,0.0
7.279,0.261,-0.944,0.0
6.988,0.25,-0.946,0.0
8.584,0.304,-0.919,0.0
8.205,0.289,-0.925,0.0
7.851,0.275,-0.929,0.0
7.522,0.262,-0.933,0.0
7.293,0.253,-0.946,0.0
6.998,0.242,-0.948,0.0
8.581,0.294,-0.919,0.0
8.181,0.279,-0.922,0.0
7.847,0.266,-0.928,0.0
