X,Y,Z,Reflectivity
15.988,1.586,-0.728,6.0
14.756,1.465,-0.757,0.0
13.745,1.365,-0.784,0.0
12.811,1.273,-0.806,0.0
11.996,1.193,-0.824,0.0
11.194,1.114,-0.833,0.0
15.883,1.579,-0.745,2.0
14.406,1.433,-0.758,0.0
13.517,1.345,-0.789,0.0
12.676,1.262,-0.814,0.0
11.792,1.175,-0.826,0.0
11.113,1.108,-0.843,0.0
15.593,1.553,-0.752,0.0
14.263,1.421,-0.77,0.0
13.226,1.319,-0.79,0.0
12.506,1.248,-0.82,0.0
11.684,1.166,-0.834,0.0
10.956,1.094,-0.845,0.0
15.148,1.511,-0.75,0.0
14.106,1.408,-0.78,0.0
13.126,1.31,-0.801,1.0
12.243,1.223,-0.819,0.0
11.559,1.155,-0.84,0.0
10.793,1.079,-0.847,0.0
14.773,1.475,-0.751,0.0
13.7,1.368,-0.776,0.0
12.975,1.296,-0.809,0.0
12.089,1.208,-0.825,0.0
11.237,1.124,-0.832,0.0
10.624,1.063,-0.848,0.0
14.571,1.456,-0.76,0.0
13.596,1.359,-0.787,0.0
12.737,1.273,-0.811,0.0
11.821,1.182,-0.822,0.0
11.131,1.113,-0.838,0.0
10.506,1.051,-0.852,0.0
14.321,1.431,-0.766,0.0
13.301,1.329,-0.788,0.0
12.594,1.259,-0.818,0.0
11.698,1.17,-0.828,0.0
11.087,1.109,-0.849,0.0
10.355,1.036,-0.853,0.0
14.183,1.416,-0.776,0.0
13.117,1.31,-0.793,0.0
12.374,1.236,-0.82,0.0
11.587,1.158,-0.836,0.0
10.847,1.084,-0.845,0.0
10.229,1.023,-0.856,0.0
13.895,1.386,-0.778,0.0
13.078,1.305,-0.808,0.0
12.137,1.211,-0.819,0.0
11.29,1.127,-0.828,0.0
10.703,1.069,-0.847,0.0
10.161,1.015,-0.863,0.0
13.658,1.361,-0.782,0.0
12.798,1.275,-0.806,0.0
11.953,1.191,-0.822,0.0
11.178,1.114,-0.834,0.0
10.601,1.057,-0.852,0.0
10.037,1.001,-0.865,0.0
13.54,1.347,-0.792,0.0
12.663,1.26,-0.813,0.0
11.792,1.173,-0.825,0.0
11.055,1.1,-0.838,0.0
10.445,1.039,-0.852,0.0
9.936,0.989,-0.868,0.0
13.331,1.323,-0.795,0.0
12.469,1.238,-0.816,0.0
11.68,1.159,-0.831,0.0
10.912,1.083,-0.841,0.0
10.367,1.029,-0.859,0.0
9.818,0.975,-0.87,0.0
13.08,1.295,-0.796,0.0
12.31,1.219,-0.82,0.0
11.533,1.142,-0.835,0.0
10.762,1.065,-0.842,0.0
10.236,1.013,-0.86,0.0
9.755,0.966,-0.876,0.0
12.913,1.275,-0.801,0.0
12.189,1.203,-0.826,0.0
11.374,1.123,-0.836,0.0
10.619,1.048,-0.843,0.0
10.155,1.002,-0.865,0.0
9.666,0.954,-0.879,0.0
12.808,1.26,-0.809,0.0
11.919,1.172,-0.821,0.0
11.18,1.1,-0.835,0.0
10.557,1.038,-0.85,0.0
10.058,0.989,-0.868,0.0
9.565,0.941,-0.881,0.0
12.671,1.242,-0.814,0.0
11.832,1.159,-0.828,0.0
11.154,1.093,-0.845,0.0
10.391,1.018,-0.848,0.0
9.963,0.976,-0.871,0.0
9.493,0.93,-0.885,0.0
12.519,1.222,-0.818,0.0
11.708,1.142,-0.833,0.0
10.948,1.068,-0.842,0.0
10.318,1.006,-0.854,0.0
9.896,0.965,-0.876,0.0
9.356,0.912,-0.882,0.0
12.376,1.202,-0.822,0.0
11.56,1.123,-0.834,0.0
10.824,1.051,-0.843,0.0
10.235,0.993,-0.858,0.0
9.762,0.947,-0.874,0.0
9.261,0.898,-0.883,0.0
12.241,1.183,-0.826,0.0
11.317,1.093,-0.829,0.0
10.664,1.03,-0.842,0.0
10.137,0.979,-0.86,0.0
9.701,0.936,-0.879,0.0
9.198,0.888,-0.886,0.0
12.046,1.158,-0.825,0.0
11.298,1.086,-0.839,0.0
10.629,1.021,-0.85,0.0
10.068,0.966,-0.864,0.0
9.62,0.923,-0.881,0.0
9.078,0.871,-0.884,0.0
11.967,1.144,-0.832,0.0
11.186,1.068,-0.842,0.0
10.476,1.0,-0.848,0.0
10.018,0.956,-0.87,0.0
9.553,0.911,-0.885,0.0
8.99,0.857,-0.884,0.0
11.826,1.123,-0.834,0.0
11.087,1.052,-0.845,0.0
10.42,0.988,-0.854,0.0
9.897,0.938,-0.869,0.0
9.479,0.898,-0.887,0.0
8.904,0.843,-0.884,0.0
11.644,1.098,-0.832,0.0
10.921,1.029,-0.842,0.0
10.342,0.974,-0.857,0.0
9.866,0.929,-0.875,0.0
9.37,0.881,-0.885,0.0
11.438,1.071,-0.827,0.0
10.848,1.015,-0.847,0.0
10.267,0.96,-0.86,0.0
9.775,0.913,-0.876,0.0
9.261,0.865,-0.884,0.0
8.793,0.821,-0.89,0.0
17.171,0.269,-0.812,0.0
15.688,0.243,-0.824,0.0
14.574,0.223,-0.842,1.0
13.581,0.206,-0.858,1.0
12.717,0.19,-0.87,0.0
12.012,0.177,-0.886,1.0
17.639,0.259,-0.804,0.0
16.091,0.234,-0.818,0.0
14.865,0.213,-0.834,0.0
13.84,0.196,-0.85,0.0
13.001,0.182,-0.867,0.0
12.192,0.168,-0.878,1.0
18.24,0.251,-0.8,0.0
16.617,0.225,-0.816,0.0
15.357,0.206,-0.835,0.0
14.22,0.188,-0.849,0.0
13.232,0.173,-0.86,0.0
12.509,0.161,-0.879,1.0
18.58,0.238,-0.783,0.0
17.199,0.217,-0.814,0.0
15.702,0.196,-0.826,0.0
14.614,0.18,-0.847,0.0
13.571,0.164,-0.857,1.0
12.752,0.152,-0.873,1.0
19.456,0.231,-0.785,2.0
17.702,0.208,-0.807,0.0
16.093,0.186,-0.818,0.0
14.996,0.171,-0.842,0.0
13.885,0.156,-0.853,0.0
12.988,0.144,-0.865,1.0
19.632,0.216,-0.757,5.0
18.32,0.199,-0.802,0.0
16.699,0.179,-0.818,0.0
15.331,0.161,-0.833,0.0
14.298,0.148,-0.852,0.0
13.337,0.136,-0.864,0.0
19.703,0.201,-0.724,7.0
19.0,0.19,-0.797,0.0
17.287,0.171,-0.816,0.0
15.718,0.153,-0.825,0.0
14.686,0.14,-0.848,0.0
13.661,0.129,-0.86,0.0
19.714,0.185,-0.688,4.0
19.508,0.18,-0.783,1.0
17.732,0.161,-0.804,0.0
16.218,0.145,-0.822,0.0
15.108,0.133,-0.844,0.0
13.996,0.121,-0.855,0.0
22.236,0.191,-0.735,0.0
19.735,0.167,-0.755,1.0
18.449,0.153,-0.802,0.0
16.858,0.137,-0.822,0.0
15.542,0.124,-0.839,1.0
14.406,0.113,-0.853,0.0
22.929,0.18,-0.714,0.0
20.758,0.16,-0.755,0.0
19.043,0.144,-0.791,0.0
17.399,0.129,-0.815,0.0
15.67,0.114,-0.816,0.0
14.783,0.106,-0.847,0.0
23.598,0.168,-0.69,0.0
21.225,0.148,-0.731,0.0
19.629,0.134,-0.778,1.0
17.96,0.121,-0.807,0.0
16.515,0.109,-0.828,0.0
15.255,0.098,-0.844,0.0
25.139,0.162,-0.686,0.0
22.405,0.141,-0.728,0.0
19.807,0.122,-0.746,1.0
18.587,0.112,-0.799,0.0
17.076,0.101,-0.822,0.0
15.654,0.091,-0.835,0.0
26.364,0.152,-0.668,0.0
23.29,0.131,-0.711,0.0
20.855,0.115,-0.744,0.0
19.302,0.104,-0.791,1.0
17.634,0.093,-0.814,0.0
16.115,0.083,-0.828,0.0
19.797,0.102,-0.462,0.0
19.777,0.099,-0.564,0.0
19.777,0.097,-0.667,0.0
19.722,0.094,-0.769,3.0
18.33,0.086,-0.81,0.0
16.669,0.076,-0.823,0.0
19.778,0.09,-0.422,10.0
19.782,0.088,-0.525,10.0
19.788,0.086,-0.627,11.0
19.777,0.083,-0.731,7.0
19.037,0.078,-0.803,0.0
17.213,0.069,-0.815,0.0
19.788,0.079,-0.383,33.0
19.787,0.077,-0.485,37.0
19.795,0.075,-0.588,24.0
19.797,0.073,-0.692,25.0
19.75,0.071,-0.793,5.0
18.024,0.063,-0.817,0.0
19.779,0.069,-0.342,36.0
19.785,0.067,-0.445,34.0
19.779,0.065,-0.547,25.0
19.769,0.063,-0.651,18.0
19.761,0.061,-0.753,15.0
18.491,0.055,-0.8,0.0
19.766,0.059,-0.301,38.0
19.771,0.057,-0.404,37.0
19.78,0.055,-0.506,28.0
19.772,0.054,-0.61,10.0
19.776,0.052,-0.712,6.0
19.492,0.05,-0.803,2.0
19.769,0.05,-0.261,16.0
19.771,0.048,-0.363,13.0
19.773,0.047,-0.465,12.0
19.77,0.045,-0.569,14.0
19.796,0.044,-0.672,4.0
19.776,0.042,-0.773,9.0
19.761,0.042,-0.22,17.0
19.768,0.04,-0.322,14.0
19.768,0.039,-0.424,9.0
19.755,0.037,-0.527,10.0
19.773,0.036,-0.63,9.0
19.786,0.035,-0.732,2.0
19.757,0.034,-0.178,13.0
19.763,0.033,-0.28,15.0
19.766,0.032,-0.382,10.0
19.76,0.03,-0.487,14.0
19.772,0.029,-0.589,9.0
19.801,0.028,-0.692,0.0
19.762,0.028,-0.137,3.0
19.777,0.026,-0.239,2.0
19.774,0.025,-0.341,2.0
19.778,0.024,-0.445,1.0
19.777,0.023,-0.547,2.0
19.784,0.022,-0.649,1.0
19.776,0.022,-0.096,1.0
19.764,0.02,-0.198,1.0
19.752,0.019,-0.299,1.0
19.775,0.018,-0.403,1.0
19.772,0.017,-0.505,1.0
19.795,0.016,-0.608,1.0
19.759,0.016,-0.054,11.0
19.777,0.015,-0.156,0.0
19.756,0.014,-0.257,0.0
19.791,0.013,-0.362,0.0
19.796,0.012,-0.464,0.0
19.806,0.012,-0.566,0.0
19.75,0.012,-0.012,10.0
19.761,0.011,-0.113,0.0
19.887,0.01,-0.217,0.0
33.798,0.016,-0.546,0.0
29.35,0.013,-0.625,0.0
25.876,0.01,-0.684,0.0
19.747,0.008,0.029,8.0
19.754,0.007,-0.071,3.0
19.702,0.006,-0.173,0.0
36.498,0.011,-0.511,0.0
0.0,0.0,0.0,0.0
27.544,0.007,-0.669,0.0
19.769,0.005,0.072,4.0
19.742,0.004,-0.029,11.0
19.769,0.003,-0.13,1.0
0.0,0.0,0.0,0.0
34.099,0.005,-0.579,0.0
28.841,0.003,-0.638,0.0
19.709,0.002,0.114,1.0
19.728,0.002,0.013,11.0
19.759,0.001,-0.088,2.0
19.741,0.001,-0.191,0.0
34.944,0.002,-0.518,0.0
29.94,0.001,-0.597,0.0
19.767,0.0,0.157,3.0
19.734,0.0,0.055,6.0
19.735,0.0,-0.045,11.0
19.756,0.0,-0.149,1.0
0.0,0.0,0.0,0.0
31.796,0.0,-0.566,0.0
19.648,0.0,0.199,15.0
19.699,0.0,0.098,2.0
19.722,0.0,-0.003,12.0
19.758,0.0,-0.106,2.0
19.671,0.0,-0.207,0.0
34.842,0.0,-0.545,0.0
19.644,0.0,0.241,15.0
19.771,0.0,0.141,2.0
19.727,0.0,0.039,8.0
19.732,0.0,-0.063,9.0
19.755,0.0,-0.165,0.0
36.559,0.0,-0.493,0.0
19.628,0.0,0.283,14.0
19.65,0.0,0.182,11.0
19.7,0.0,0.082,3.0
19.721,0.001,-0.021,13.0
19.774,0.001,-0.122,2.0
0.0,0.0,0.0,0.0
19.623,0.001,0.325,14.0
19.632,0.002,0.224,15.0
19.723,0.002,0.124,1.0
19.717,0.002,0.021,9.0
19.76,0.003,-0.08,4.0
19.859,0.003,-0.183,0.0
19.619,0.003,0.368,14.0
19.626,0.004,0.267,12.0
19.697,0.004,0.166,8.0
19.757,0.005,0.063,3.0
19.741,0.005,-0.037,10.0
19.78,0.006,-0.139,0.0
19.632,0.006,0.41,12.0
19.624,0.007,0.309,13.0
19.631,0.007,0.208,15.0
19.749,0.008,0.106,1.0
19.74,0.009,0.004,10.0
19.773,0.009,-0.097,0.0
19.622,0.01,0.452,13.0
19.619,0.01,0.351,13.0
19.621,0.011,0.25,13.0
19.769,0.012,0.148,3.0
19.785,0.013,0.046,5.0
19.75,0.014,-0.055,9.0
19.619,0.014,0.494,13.0
19.618,0.015,0.393,12.0
19.612,0.016,0.291,14.0
19.627,0.017,0.189,13.0
19.767,0.018,0.088,4.0
19.752,0.019,-0.013,9.0
19.615,0.019,0.535,14.0
19.615,0.02,0.434,12.0
19.613,0.021,0.333,16.0
19.612,0.022,0.23,15.0
19.748,0.023,0.13,10.0
19.777,0.024,0.028,4.0
19.618,0.025,0.577,14.0
19.615,0.026,0.476,14.0
19.608,0.027,0.374,15.0
19.614,0.028,0.271,14.0
19.696,0.029,0.171,15.0
19.755,0.031,0.07,12.0
19.615,0.031,0.618,13.0
19.612,0.032,0.517,14.0
19.6,0.034,0.416,12.0
19.608,0.035,0.313,16.0
19.629,0.036,0.212,16.0
19.751,0.038,0.111,14.0
19.631,0.038,0.66,13.0
19.601,0.04,0.558,14.0
19.599,0.041,0.457,13.0
19.597,0.042,0.354,15.0
19.614,0.044,0.253,12.0
19.742,0.046,0.153,15.0
19.639,0.046,0.702,12.0
19.608,0.048,0.599,12.0
19.607,0.049,0.498,12.0
19.602,0.051,0.395,13.0
19.608,0.052,0.294,13.0
19.633,0.054,0.193,14.0
19.645,0.055,0.743,14.0
19.61,0.056,0.64,12.0
19.594,0.058,0.538,13.0
19.59,0.06,0.435,16.0
19.605,0.061,0.334,14.0
19.617,0.063,0.233,14.0
19.662,0.064,0.784,22.0
19.621,0.066,0.681,11.0
19.593,0.067,0.579,13.0
19.611,0.069,0.476,21.0
19.62,0.071,0.375,23.0
19.607,0.073,0.273,13.0
19.623,0.074,0.823,11.0
19.631,0.076,0.722,11.0
19.604,0.078,0.619,12.0
19.581,0.08,0.515,17.0
19.612,0.082,0.415,26.0
19.614,0.084,0.313,16.0
19.589,0.084,0.862,18.0
19.644,0.087,0.762,15.0
19.611,0.089,0.659,10.0
19.581,0.091,0.555,15.0
19.614,0.093,0.454,26.0
19.612,0.095,0.353,23.0
19.582,0.096,0.901,18.0
19.663,0.098,0.803,15.0
19.606,0.1,0.698,10.0
19.593,0.102,0.594,14.0
19.593,0.104,0.493,18.0
19.613,0.107,0.392,26.0
19.593,0.108,0.941,15.0
19.647,0.11,0.841,6.0
19.641,0.113,0.739,10.0
19.591,0.115,0.633,12.0
19.607,0.117,0.532,23.0
19.605,0.119,0.43,22.0
19.613,0.12,0.98,9.0
19.625,0.123,0.879,6.0
19.672,0.126,0.779,6.0
19.602,0.128,0.672,11.0
19.593,0.13,0.57,17.0
19.602,0.133,0.469,15.0
19.649,0.134,1.021,1.0
19.628,0.136,0.918,4.0
114.003,0.809,4.738,49.0
19.614,0.141,0.711,9.0
19.596,0.144,0.608,14.0
19.602,0.146,0.507,15.0
113.955,0.859,6.143,7.0
113.952,0.874,5.548,3.0
187.265,1.463,8.144,8.0
19.635,0.156,0.749,7.0
19.597,0.158,0.646,12.0
19.607,0.161,0.544,12.0
0.0,0.0,0.0,0.0
0.0,0.0,0.0,0.0
187.211,1.604,8.5,7.0
19.629,0.171,0.787,0.0
19.611,0.173,0.684,10.0
19.619,0.176,0.582,9.0
122.009,1.105,7.045,17.0
0.0,0.0,0.0,0.0
0.0,0.0,0.0,0.0
186.608,1.774,7.839,15.0
19.65,0.189,0.723,9.0
19.666,0.193,0.621,10.0
121.967,1.205,7.277,25.0
0.0,0.0,0.0,0.0
0.0,0.0,0.0,0.0
186.319,1.926,8.175,15.0
19.691,0.206,0.761,2.0
19.66,0.209,0.657,11.0
122.003,1.307,7.505,11.0
122.029,1.327,6.868,12.0
0.0,0.0,0.0,0.0
0.0,0.0,0.0,0.0
185.682,2.108,7.52,17.0
19.639,0.226,0.692,13.0
0.0,0.0,0.0,0.0
121.755,1.43,7.075,20.0
122.019,1.453,6.452,13.0
84.819,1.024,4.031,11.0
84.821,1.038,3.588,36.0
19.647,0.243,0.728,10.0
84.813,1.059,5.527,17.0
84.816,1.072,5.081,41.0
84.805,1.087,4.636,55.0
84.797,1.101,4.183,48.0
84.823,1.116,3.739,47.0
19.679,0.262,0.764,1.0
84.796,1.138,5.679,35.0
84.833,1.153,5.235,13.0
121.887,1.678,6.883,16.0
122.174,1.702,6.244,23.0
121.601,1.716,5.577,21.0
121.696,1.739,4.944,6.0
129.371,1.86,8.892,12.0
135.462,1.971,8.597,6.0
121.716,1.793,7.085,25.0
121.969,1.818,6.447,19.0
121.433,1.832,5.779,22.0
121.465,1.854,5.144,24.0
129.26,1.987,9.11,27.0
129.424,2.013,8.44,16.0
121.473,1.911,7.28,20.0
121.978,1.941,6.656,24.0
121.642,1.957,5.996,20.0
121.579,1.979,5.355,18.0
129.348,2.119,9.336,12.0
55.227,0.915,3.694,6.0
55.23,0.925,3.403,28.0
55.208,0.934,3.104,42.0
55.199,0.945,2.813,52.0
55.2,0.955,2.523,65.0
55.212,0.961,4.077,73.0
55.2,0.972,3.784,73.0
55.188,0.982,3.492,75.0
55.184,0.992,3.194,73.0
55.181,1.003,2.903,66.0
55.189,1.014,2.613,51.0
55.22,1.021,4.169,23.0
55.229,1.031,3.877,14.0
55.216,1.042,3.584,4.0
55.214,1.052,3.286,0.0
121.813,2.345,6.604,16.0
121.758,2.368,5.959,23.0
129.255,2.531,9.968,23.0
129.386,2.559,9.292,24.0
129.357,2.584,8.604,23.0
129.349,2.609,7.904,14.0
121.94,2.484,6.806,9.0
121.537,2.5,6.142,10.0
163.65,-2.565,2.655,16.0
163.113,-2.616,1.762,29.0
19.782,-0.324,0.106,0.0
0.0,0.0,0.0,0.0
0.0,0.0,0.0,0.0
0.0,0.0,0.0,0.0
163.988,-2.912,2.739,3.0
163.214,-2.956,1.842,30.0
160.674,-2.968,0.944,17.0
0.0,0.0,0.0,0.0
0.0,0.0,0.0,0.0
0.0,0.0,0.0,0.0
170.327,-3.374,2.932,6.0
163.663,-3.301,1.932,11.0
160.671,-3.299,1.028,10.0
0.0,0.0,0.0,0.0
0.0,0.0,0.0,0.0
0.0,0.0,0.0,0.0
170.346,-3.727,3.027,6.0
162.108,-3.603,2.004,21.0
0.0,0.0,0.0,0.0
0.0,0.0,0.0,0.0
0.0,0.0,0.0,0.0
0.0,0.0,0.0,0.0
170.449,-4.076,3.128,9.0
162.117,-3.933,2.1,4.0
0.0,0.0,0.0,0.0
0.0,0.0,0.0,0.0
0.0,0.0,0.0,0.0
0.0,0.0,0.0,0.0
170.539,-4.427,3.237,5.0
0.0,0.0,0.0,0.0
148.594,-3.959,1.217,150.0
0.0,0.0,0.0,0.0
0.0,0.0,0.0,0.0
45.163,-1.251,-0.364,0.0
178.137,-4.979,3.496,4.0
0.0,0.0,0.0,0.0
148.495,-4.254,1.316,104.0
0.0,0.0,0.0,0.0
0.0,0.0,0.0,0.0
0.0,0.0,0.0,0.0
0.0,0.0,0.0,0.0
0.0,0.0,0.0,0.0
148.424,-4.546,1.419,151.0
0.0,0.0,0.0,0.0
0.0,0.0,0.0,0.0
0.0,0.0,0.0,0.0
162.309,-5.18,3.415,13.0
162.177,-5.232,2.541,12.0
148.572,-4.844,1.529,3.0
0.0,0.0,0.0,0.0
0.0,0.0,0.0,0.0
0.0,0.0,0.0,0.0
162.408,-5.5,3.54,3.0
162.217,-5.549,2.665,14.0
0.0,0.0,0.0,0.0
0.0,0.0,0.0,0.0
0.0,0.0,0.0,0.0
0.0,0.0,0.0,0.0
0.0,0.0,0.0,0.0
162.188,-5.861,2.793,25.0
0.0,0.0,0.0,0.0
0.0,0.0,0.0,0.0
0.0,0.0,0.0,0.0
0.0,0.0,0.0,0.0
0.0,0.0,0.0,0.0
162.333,-6.179,2.93,17.0
0.0,0.0,0.0,0.0
0.0,0.0,0.0,0.0
0.0,0.0,0.0,0.0
0.0,0.0,0.0,0.0
141.763,-5.614,3.439,9.0
162.251,-6.48,3.068,4.0
101.616,-4.091,1.377,6.0
101.512,-4.12,0.822,151.0
101.53,-4.155,0.279,2.0
0.0,0.0,0.0,0.0
163.436,-6.775,4.107,8.0
0.0,0.0,0.0,0.0
101.534,-4.274,1.465,150.0
0.0,0.0,0.0,0.0
0.0,0.0,0.0,0.0
0.0,0.0,0.0,0.0
142.459,-6.167,3.709,19.0
0.0,0.0,0.0,0.0
0.0,0.0,0.0,0.0
101.481,-4.491,1.006,7.0
0.0,0.0,0.0,0.0
0.0,0.0,0.0,0.0
142.342,-6.42,3.84,25.0
0.0,0.0,0.0,0.0
102.224,-4.676,1.667,1.0
101.541,-4.676,1.103,152.0
102.651,-4.76,0.568,2.0
101.563,-4.742,0.021,2.0
47.486,-4.275,4.38,18.0
48.044,-4.321,4.174,22.0
48.419,-4.352,3.947,3.0
108.877,-9.779,8.283,21.0
106.422,-9.552,7.529,20.0
107.418,-9.635,7.026,18.0
47.458,-4.266,4.439,7.0
47.559,-4.271,4.193,18.0
48.38,-4.341,4.007,13.0
108.698,-9.746,8.41,15.0
106.361,-9.529,7.661,14.0
107.118,-9.589,7.144,20.0
39.16,-3.513,3.714,10.0
47.483,-4.256,4.248,24.0
48.315,-4.326,4.063,22.0
108.466,-9.704,8.53,12.0
108.718,-9.718,7.968,16.0
106.806,-9.539,7.258,20.0
39.19,-3.507,3.766,36.0
47.418,-4.239,4.302,35.0
48.396,-4.322,4.13,22.0
107.852,-9.624,8.616,8.0
108.861,-9.703,8.114,18.0
106.626,-9.495,7.377,25.0
39.216,-3.5,3.818,33.0
47.415,-4.227,4.36,30.0
48.432,-4.312,4.193,4.0
107.326,-9.546,8.706,14.0
109.018,-9.686,8.259,13.0
106.537,-9.456,7.501,19.0
39.25,-3.491,3.869,29.0
47.483,-4.219,4.424,15.0
47.858,-4.246,4.202,22.0
48.37,-4.287,3.981,9.0
111.605,-9.88,8.587,13.0
106.424,-9.41,7.618,8.0
48.594,-4.307,4.848,5.0
39.247,-3.473,3.703,13.0
47.493,-4.197,4.226,33.0
106.897,-9.436,8.926,7.0
111.502,-9.83,8.711,19.0
109.09,-9.606,7.936,11.0
48.694,-4.297,4.916,8.0
39.241,-3.458,3.749,10.0
47.449,-4.175,4.277,42.0
106.414,-9.351,9.008,10.0
111.284,-9.765,8.821,12.0
109.283,-9.577,8.076,19.0
48.818,-4.288,4.984,13.0
39.179,-3.436,3.788,14.0
47.458,-4.156,4.332,45.0
106.572,-9.318,9.142,17.0
109.574,-9.566,8.81,7.0
109.198,-9.52,8.192,14.0
48.904,-4.273,5.048,25.0
39.232,-3.422,3.837,25.0
47.442,-4.132,4.383,30.0
106.751,-9.283,9.276,13.0
109.542,-9.511,8.926,13.0
109.1,-9.459,8.302,10.0
48.524,-4.216,5.062,25.0
39.186,-3.399,3.875,26.0
47.449,-4.109,4.435,15.0
47.485,-4.105,4.177,22.0
107.033,-9.238,8.836,10.0
109.512,-9.437,8.45,11.0
49.359,-4.263,5.202,23.0
48.829,-4.209,4.881,7.0
49.276,-4.24,4.657,7.0
47.479,-4.078,4.225,38.0
106.656,-9.146,8.915,16.0
109.631,-9.386,8.572,10.0
49.212,-4.223,5.237,7.0
48.852,-4.183,4.933,23.0
49.104,-4.197,4.692,20.0
47.497,-4.052,4.275,40.0
106.544,-9.074,9.014,24.0
106.817,-9.08,8.46,13.0
50.055,-4.264,5.378,3.0
48.807,-4.15,4.978,28.0
48.977,-4.156,4.729,8.0
47.555,-4.028,4.328,27.0
106.799,-9.029,9.14,20.0
106.788,-9.011,8.56,20.0
50.446,-4.266,5.469,1.0
48.84,-4.121,5.028,30.0
48.844,-4.113,4.762,19.0
47.523,-3.994,4.37,18.0
47.535,-3.987,4.113,4.0
106.739,-8.936,8.657,22.0
46.762,-3.922,5.115,3.0
48.963,-4.098,5.088,28.0
48.832,-4.079,4.807,22.0
47.5,-3.959,4.412,21.0
106.585,-8.866,9.32,17.0
106.797,-8.866,8.759,22.0
105.843,-8.805,11.674,9.0
49.16,-4.08,5.153,22.0
48.96,-4.055,4.864,12.0
0.0,0.0,0.0,0.0
47.528,-3.918,4.198,4.0
106.758,-8.784,8.849,19.0
105.953,-8.736,11.78,2.0
49.145,-4.042,5.194,31.0
48.967,-4.018,4.907,10.0
49.382,-4.042,4.674,23.0
47.549,-3.884,4.241,9.0
106.655,-8.693,8.932,24.0
105.974,-8.654,11.874,2.0
49.206,-4.009,5.242,22.0
48.99,-3.981,4.951,11.0
49.377,-4.003,4.714,20.0
106.547,-8.619,9.59,16.0
106.633,-8.607,9.015,23.0
105.993,-8.572,11.961,12.0
49.262,-3.974,5.288,23.0
49.291,-3.966,5.02,12.0
49.416,-3.966,4.757,21.0
106.386,-8.518,9.66,15.0
106.594,-8.515,9.095,23.0
108.206,-8.66,12.296,7.0
49.311,-3.936,5.332,22.0
49.418,-3.935,5.071,9.0
49.457,-3.927,4.798,9.0
106.409,-8.429,9.741,17.0
106.933,-8.45,9.203,17.0
0.0,0.0,0.0,0.0
49.325,-3.894,5.369,13.0
49.347,-3.885,5.1,11.0
105.875,-8.314,10.349,23.0
49.479,-3.876,4.564,4.0
106.975,-8.358,9.282,17.0
0.0,0.0,0.0,0.0
49.346,-3.851,5.406,11.0
49.311,-3.838,5.13,3.0
105.83,-8.215,10.417,21.0
49.49,-3.831,4.599,5.0
107.182,-8.276,9.371,13.0
0.0,0.0,0.0,0.0
106.914,-8.245,11.785,18.0
49.338,-3.794,5.166,4.0
105.918,-8.123,10.494,18.0
49.495,-3.785,4.631,8.0
107.218,-8.177,9.443,21.0
0.0,0.0,0.0,0.0
107.115,-8.158,11.874,24.0
106.222,-8.066,11.187,17.0
106.631,-8.074,10.63,19.0
49.568,-3.742,4.668,6.0
107.197,-8.071,9.504,18.0
48.612,-3.665,5.687,0.0
107.066,-8.048,11.932,23.0
49.38,-3.701,5.229,12.0
106.73,-7.975,10.701,22.0
107.014,-7.973,10.138,17.0
107.152,-7.96,9.56,19.0
47.393,-3.526,5.571,0.0
107.004,-7.937,11.983,24.0
106.897,-7.905,11.376,20.0
107.032,-7.89,10.787,17.0
49.582,-3.643,4.723,11.0
107.371,-7.868,9.634,9.0
0.0,0.0,0.0,0.0
107.678,-7.876,12.113,22.0
106.765,-7.785,11.416,22.0
106.787,-7.761,10.815,19.0
106.965,-7.75,10.24,18.0
109.008,-7.874,9.832,18.0
0.0,0.0,0.0,0.0
107.629,-7.759,12.157,21.0
107.059,-7.693,11.496,22.0
106.619,-7.636,10.845,20.0
106.882,-7.631,10.279,12.0
109.224,-7.773,9.899,11.0
0.0,0.0,0.0,0.0
107.562,-7.638,12.196,24.0
107.465,-7.606,11.585,18.0
106.527,-7.516,10.879,15.0
106.762,-7.506,10.31,16.0
108.016,-7.571,9.831,16.0
0.0,0.0,0.0,0.0
107.474,-7.515,12.227,23.0
107.368,-7.481,11.615,18.0
106.573,-7.4,10.923,18.0
106.848,-7.394,10.357,15.0
108.124,-7.457,9.88,12.0
0.0,0.0,0.0,0.0
107.793,-7.416,12.3,13.0
106.604,-7.308,11.568,11.0
106.546,-7.279,10.955,16.0
107.774,-7.337,10.481,17.0
107.847,-7.317,9.887,3.0
0.0,0.0,0.0,0.0
0.0,0.0,0.0,0.0
107.5,-7.247,11.696,17.0
106.774,-7.172,11.009,19.0
107.838,-7.218,10.516,18.0
106.25,-7.086,9.77,6.0
0.0,0.0,0.0,0.0
0.0,0.0,0.0,0.0
0.0,0.0,0.0,0.0
106.756,-7.047,11.033,18.0
107.722,-7.085,10.53,19.0
106.409,-6.973,9.808,13.0
0.0,0.0,0.0,0.0
0.0,0.0,0.0,0.0
0.0,0.0,0.0,0.0
111.382,-7.22,11.533,8.0
107.796,-6.961,10.558,27.0
106.467,-6.851,9.833,10.0
0.0,0.0,0.0,0.0
0.0,0.0,0.0,0.0
0.0,0.0,0.0,0.0
107.628,-6.848,11.161,14.0
107.832,-6.836,10.577,20.0
111.104,-7.016,10.276,21.0
0.0,0.0,0.0,0.0
0.0,0.0,0.0,0.0
0.0,0.0,0.0,0.0
0.0,0.0,0.0,0.0
107.675,-6.692,10.573,16.0
111.166,-6.884,10.293,23.0
0.0,0.0,0.0,0.0
0.0,0.0,0.0,0.0
0.0,0.0,0.0,0.0
0.0,0.0,0.0,0.0
107.726,-6.562,10.585,13.0
111.78,-6.783,10.356,17.0
0.0,0.0,0.0,0.0
0.0,0.0,0.0,0.0
0.0,0.0,0.0,0.0
0.0,0.0,0.0,0.0
0.0,0.0,0.0,0.0
109.346,-6.498,10.132,23.0
0.0,0.0,0.0,0.0
0.0,0.0,0.0,0.0
0.0,0.0,0.0,0.0
0.0,0.0,0.0,0.0
0.0,0.0,0.0,0.0
109.265,-6.358,10.12,18.0
0.0,0.0,0.0,0.0
0.0,0.0,0.0,0.0
0.0,0.0,0.0,0.0
0.0,0.0,0.0,0.0
0.0,0.0,0.0,0.0
108.826,-6.195,10.071,28.0
0.0,0.0,0.0,0.0
0.0,0.0,0.0,0.0
0.0,0.0,0.0,0.0
0.0,0.0,0.0,0.0
0.0,0.0,0.0,0.0
108.932,-6.064,10.067,24.0
0.0,0.0,0.0,0.0
0.0,0.0,0.0,0.0
0.0,0.0,0.0,0.0
0.0,0.0,0.0,0.0
0.0,0.0,0.0,0.0
109.243,-5.94,10.077,27.0
0.0,0.0,0.0,0.0
0.0,0.0,0.0,0.0
0.0,0.0,0.0,0.0
0.0,0.0,0.0,0.0
109.08,-5.817,10.656,14.0
109.315,-5.802,10.06,22.0
0.0,0.0,0.0,0.0
0.0,0.0,0.0,0.0
0.0,0.0,0.0,0.0
0.0,0.0,0.0,0.0
109.456,-5.693,10.664,21.0
109.087,-5.648,10.01,22.0
0.0,0.0,0.0,0.0
0.0,0.0,0.0,0.0
0.0,0.0,0.0,0.0
0.0,0.0,0.0,0.0
109.576,-5.557,10.643,15.0
109.238,-5.514,9.991,10.0
0.0,0.0,0.0,0.0
0.0,0.0,0.0,0.0
0.0,0.0,0.0,0.0
0.0,0.0,0.0,0.0
109.443,-5.409,10.593,1.0
112.116,-5.514,10.215,23.0
0.0,0.0,0.0,0.0
0.0,0.0,0.0,0.0
0.0,0.0,0.0,0.0
0.0,0.0,0.0,0.0
0.0,0.0,0.0,0.0
112.066,-5.367,10.168,17.0
0.0,0.0,0.0,0.0
0.0,0.0,0.0,0.0
0.0,0.0,0.0,0.0
0.0,0.0,0.0,0.0
0.0,0.0,0.0,0.0
116.473,-5.425,10.516,7.0
0.0,0.0,0.0,0.0
0.0,0.0,0.0,0.0
0.0,0.0,0.0,0.0
0.0,0.0,0.0,0.0
0.0,0.0,0.0,0.0
116.498,-5.273,10.462,14.0
0.0,0.0,0.0,0.0
0.0,0.0,0.0,0.0
0.0,0.0,0.0,0.0
0.0,0.0,0.0,0.0
0.0,0.0,0.0,0.0
116.534,-5.121,10.404,1.0
0.0,0.0,0.0,0.0
0.0,0.0,0.0,0.0
0.0,0.0,0.0,0.0
0.0,0.0,0.0,0.0
0.0,0.0,0.0,0.0
124.507,-5.308,11.045,2.0
0.0,0.0,0.0,0.0
0.0,0.0,0.0,0.0
0.0,0.0,0.0,0.0
0.0,0.0,0.0,0.0
0.0,0.0,0.0,0.0
124.25,-5.134,10.946,18.0
0.0,0.0,0.0,0.0
0.0,0.0,0.0,0.0
0.0,0.0,0.0,0.0
0.0,0.0,0.0,0.0
0.0,0.0,0.0,0.0
124.183,-4.971,10.858,26.0
0.0,0.0,0.0,0.0
0.0,0.0,0.0,0.0
0.0,0.0,0.0,0.0
0.0,0.0,0.0,0.0
0.0,0.0,0.0,0.0
124.498,-4.822,10.798,28.0
0.0,0.0,0.0,0.0
0.0,0.0,0.0,0.0
0.0,0.0,0.0,0.0
0.0,0.0,0.0,0.0
0.0,0.0,0.0,0.0
114.977,-4.303,9.886,1.0
0.0,0.0,0.0,0.0
0.0,0.0,0.0,0.0
0.0,0.0,0.0,0.0
0.0,0.0,0.0,0.0
113.566,-4.128,10.326,7.0
126.246,-4.562,10.755,23.0
0.0,0.0,0.0,0.0
0.0,0.0,0.0,0.0
0.0,0.0,0.0,0.0
0.0,0.0,0.0,0.0
113.814,-3.989,10.254,5.0
115.433,-4.022,9.737,17.0
0.0,0.0,0.0,0.0
0.0,0.0,0.0,0.0
0.0,0.0,0.0,0.0
0.0,0.0,0.0,0.0
0.0,0.0,0.0,0.0
116.203,-3.9,9.699,26.0
0.0,0.0,0.0,0.0
0.0,0.0,0.0,0.0
0.0,0.0,0.0,0.0
0.0,0.0,0.0,0.0
126.335,-4.106,11.155,9.0
126.142,-4.074,10.413,21.0
0.0,0.0,0.0,0.0
0.0,0.0,0.0,0.0
0.0,0.0,0.0,0.0
0.0,0.0,0.0,0.0
0.0,0.0,0.0,0.0
140.642,-4.364,11.475,16.0
0.0,0.0,0.0,0.0
0.0,0.0,0.0,0.0
0.0,0.0,0.0,0.0
0.0,0.0,0.0,0.0
0.0,0.0,0.0,0.0
140.642,-4.187,11.332,5.0
0.0,0.0,0.0,0.0
0.0,0.0,0.0,0.0
0.0,0.0,0.0,0.0
113.711,-3.29,10.355,3.0
0.0,0.0,0.0,0.0
126.163,-3.601,10.032,11.0
0.0,0.0,0.0,0.0
0.0,0.0,0.0,0.0
0.0,0.0,0.0,0.0
113.906,-3.156,10.249,3.0
0.0,0.0,0.0,0.0
126.402,-3.454,9.914,2.0
0.0,0.0,0.0,0.0
0.0,0.0,0.0,0.0
0.0,0.0,0.0,0.0
0.0,0.0,0.0,0.0
0.0,0.0,0.0,0.0
0.0,0.0,0.0,0.0
0.0,0.0,0.0,0.0
0.0,0.0,0.0,0.0
0.0,0.0,0.0,0.0
0.0,0.0,0.0,0.0
0.0,0.0,0.0,0.0
0.0,0.0,0.0,0.0
0.0,0.0,0.0,0.0
0.0,0.0,0.0,0.0
0.0,0.0,0.0,0.0
0.0,0.0,0.0,0.0
0.0,0.0,0.0,0.0
0.0,0.0,0.0,0.0
0.0,0.0,0.0,0.0
0.0,0.0,0.0,0.0
114.123,-2.641,10.407,4.0
0.0,0.0,0.0,0.0
0.0,0.0,0.0,0.0
0.0,0.0,0.0,0.0
0.0,0.0,0.0,0.0
0.0,0.0,0.0,0.0
114.11,-2.509,10.259,3.0
0.0,0.0,0.0,0.0
0.0,0.0,0.0,0.0
0.0,0.0,0.0,0.0
0.0,0.0,0.0,0.0
0.0,0.0,0.0,0.0
0.0,0.0,0.0,0.0
0.0,0.0,0.0,0.0
0.0,0.0,0.0,0.0
0.0,0.0,0.0,0.0
0.0,0.0,0.0,0.0
0.0,0.0,0.0,0.0
0.0,0.0,0.0,0.0
0.0,0.0,0.0,0.0
0.0,0.0,0.0,0.0
0.0,0.0,0.0,0.0
0.0,0.0,0.0,0.0
0.0,0.0,0.0,0.0
0.0,0.0,0.0,0.0
0.0,0.0,0.0,0.0
0.0,0.0,0.0,0.0
0.0,0.0,0.0,0.0
0.0,0.0,0.0,0.0
0.0,0.0,0.0,0.0
0.0,0.0,0.0,0.0
0.0,0.0,0.0,0.0
0.0,0.0,0.0,0.0
0.0,0.0,0.0,0.0
0.0,0.0,0.0,0.0
0.0,0.0,0.0,0.0
0.0,0.0,0.0,0.0
0.0,0.0,0.0,0.0
0.0,0.0,0.0,0.0
0.0,0.0,0.0,0.0
0.0,0.0,0.0,0.0
0.0,0.0,0.0,0.0
0.0,0.0,0.0,0.0
0.0,0.0,0.0,0.0
0.0,0.0,0.0,0.0
0.0,0.0,0.0,0.0
0.0,0.0,0.0,0.0
0.0,0.0,0.0,0.0
0.0,0.0,0.0,0.0
0.0,0.0,0.0,0.0
0.0,0.0,0.0,0.0
0.0,0.0,0.0,0.0
0.0,0.0,0.0,0.0
0.0,0.0,0.0,0.0
0.0,0.0,0.0,0.0
0.0,0.0,0.0,0.0
0.0,0.0,0.0,0.0
0.0,0.0,0.0,0.0
0.0,0.0,0.0,0.0
0.0,0.0,0.0,0.0
0.0,0.0,0.0,0.0
0.0,0.0,0.0,0.0
0.0,0.0,0.0,0.0
0.0,0.0,0.0,0.0
0.0,0.0,0.0,0.0
0.0,0.0,0.0,0.0
0.0,0.0,0.0,0.0
0.0,0.0,0.0,0.0
0.0,0.0,0.0,0.0
0.0,0.0,0.0,0.0
0.0,0.0,0.0,0.0
0.0,0.0,0.0,0.0
0.0,0.0,0.0,0.0
0.0,0.0,0.0,0.0
0.0,0.0,0.0,0.0
0.0,0.0,0.0,0.0
0.0,0.0,0.0,0.0
0.0,0.0,0.0,0.0
0.0,0.0,0.0,0.0
0.0,0.0,0.0,0.0
0.0,0.0,0.0,0.0
0.0,0.0,0.0,0.0
0.0,0.0,0.0,0.0
0.0,0.0,0.0,0.0
0.0,0.0,0.0,0.0
0.0,0.0,0.0,0.0
0.0,0.0,0.0,0.0
0.0,0.0,0.0,0.0
0.0,0.0,0.0,0.0
0.0,0.0,0.0,0.0
0.0,0.0,0.0,0.0
0.0,0.0,0.0,0.0
0.0,0.0,0.0,0.0
0.0,0.0,0.0,0.0
0.0,0.0,0.0,0.0
0.0,0.0,0.0,0.0
0.0,0.0,0.0,0.0
0.0,0.0,0.0,0.0
0.0,0.0,0.0,0.0
0.0,0.0,0.0,0.0
0.0,0.0,0.0,0.0
113.784,-0.768,8.044,2.0
0.0,0.0,0.0,0.0
0.0,0.0,0.0,0.0
0.0,0.0,0.0,0.0
186.234,-1.182,8.798,4.0
0.0,0.0,0.0,0.0
0.0,0.0,0.0,0.0
0.0,0.0,0.0,0.0
0.0,0.0,0.0,0.0
0.0,0.0,0.0,0.0
186.434,-1.051,8.47,18.0
0.0,0.0,0.0,0.0
0.0,0.0,0.0,0.0
0.0,0.0,0.0,0.0
0.0,0.0,0.0,0.0
0.0,0.0,0.0,0.0
184.788,-0.916,8.054,7.0
0.0,0.0,0.0,0.0
0.0,0.0,0.0,0.0
0.0,0.0,0.0,0.0
0.0,0.0,0.0,0.0
0.0,0.0,0.0,0.0
184.789,-0.796,7.705,17.0
113.686,-0.465,7.861,2.0
0.0,0.0,0.0,0.0
0.0,0.0,0.0,0.0
19.613,-0.075,1.009,1.0
185.002,-0.696,8.439,13.0
19.701,-0.072,0.784,2.0
0.0,0.0,0.0,0.0
0.0,0.0,0.0,0.0
0.0,0.0,0.0,0.0
19.593,-0.063,0.971,8.0
19.643,-0.062,0.859,0.0
19.694,-0.061,0.746,9.0
0.0,0.0,0.0,0.0
0.0,0.0,0.0,0.0
19.608,-0.054,1.051,2.0
19.583,-0.052,0.932,13.0
19.625,-0.051,0.82,0.0
19.654,-0.05,0.706,11.0
0.0,0.0,0.0,0.0
138.77,-0.318,7.98,3.0
19.588,-0.043,1.011,9.0
19.579,-0.042,0.894,15.0
19.702,-0.041,0.784,5.0
19.652,-0.039,0.667,13.0
0.0,0.0,0.0,0.0
19.617,-0.035,1.089,0.0
19.572,-0.033,0.972,16.0
19.592,-0.032,0.856,14.0
19.663,-0.031,0.744,9.0
19.631,-0.03,0.628,13.0
0.0,0.0,0.0,0.0
19.591,-0.025,1.048,6.0
19.571,-0.024,0.933,18.0
19.643,-0.023,0.819,6.0
19.65,-0.022,0.704,13.0
19.626,-0.021,0.589,13.0
139.017,-0.13,7.977,4.0
19.558,-0.017,1.007,15.0
19.57,-0.016,0.893,16.0
19.655,-0.015,0.78,11.0
19.63,-0.014,0.664,13.0
19.62,-0.013,0.549,13.0
19.607,-0.01,1.085,1.0
19.569,-0.009,0.968,19.0
19.584,-0.008,0.854,17.0
19.646,-0.007,0.74,11.0
19.613,-0.006,0.624,13.0
19.616,-0.005,0.509,13.0
19.566,-0.003,1.043,8.0
19.561,-0.002,0.928,18.0
19.628,-0.001,0.816,16.0
19.629,0.0,0.699,12.0
19.606,0.0,0.584,13.0
19.619,0.0,0.469,12.0
19.566,0.003,1.003,21.0
19.561,0.004,0.888,18.0
19.654,0.004,0.776,16.0
19.617,0.005,0.658,13.0
19.617,0.006,0.544,13.0
19.612,0.006,0.429,13.0
19.565,0.009,0.962,23.0
19.584,0.009,0.848,23.0
19.641,0.01,0.735,12.0
19.604,0.011,0.618,13.0
19.61,0.011,0.503,13.0
19.615,0.012,0.388,14.0
19.568,0.014,0.922,23.0
19.639,0.014,0.81,18.0
19.63,0.015,0.694,11.0
19.6,0.015,0.577,13.0
19.613,0.016,0.462,13.0
19.618,0.016,0.348,17.0
19.577,0.018,0.882,26.0
19.643,0.019,0.769,16.0
19.614,0.019,0.653,11.0
19.599,0.02,0.536,13.0
19.609,0.02,0.422,12.0
19.62,0.02,0.307,15.0
19.608,0.022,0.842,23.0
19.639,0.022,0.728,12.0
19.606,0.023,0.612,12.0
19.597,0.023,0.495,14.0
19.613,0.023,0.381,15.0
19.624,0.023,0.266,14.0
19.651,0.025,0.802,24.0
19.624,0.025,0.686,11.0
19.603,0.025,0.57,13.0
19.599,0.026,0.453,12.0
19.615,0.026,0.339,17.0
19.627,0.026,0.224,16.0
19.653,0.027,0.761,14.0
19.624,0.027,0.644,11.0
19.598,0.027,0.528,12.0
19.605,0.028,0.412,12.0
19.616,0.028,0.297,13.0
19.723,0.028,0.183,18.0
19.636,0.029,0.718,12.0
19.612,0.029,0.602,13.0
19.6,0.029,0.487,13.0
19.598,0.029,0.37,16.0
19.622,0.029,0.256,14.0
19.746,0.029,0.141,14.0
19.619,0.03,0.675,12.0
19.6,0.03,0.56,13.0
19.601,0.029,0.445,12.0
19.61,0.029,0.328,15.0
19.625,0.029,0.214,15.0
19.754,0.029,0.1,12.0
19.61,0.03,0.633,12.0
19.602,0.03,0.518,13.0
19.601,0.029,0.403,12.0
19.614,0.029,0.287,12.0
19.728,0.029,0.173,17.0
19.733,0.029,0.057,14.0
19.616,0.029,0.592,14.0
19.611,0.029,0.476,13.0
19.606,0.028,0.361,16.0
19.611,0.028,0.245,15.0
19.743,0.028,0.131,12.0
19.748,0.028,0.015,16.0
19.608,0.028,0.549,13.0
19.607,0.027,0.434,11.0
19.61,0.027,0.32,14.0
19.659,0.026,0.204,14.0
19.746,0.026,0.089,14.0
19.743,0.026,-0.025,60.0
19.612,0.026,0.508,15.0
19.614,0.025,0.393,14.0
19.619,0.024,0.278,13.0
19.745,0.024,0.163,23.0
19.737,0.023,0.047,15.0
19.745,0.023,-0.067,17.0
19.609,0.023,0.466,13.0
19.613,0.022,0.351,17.0
19.625,0.021,0.236,16.0
19.745,0.021,0.12,9.0
19.733,0.02,0.005,13.0
19.762,0.019,-0.11,2.0
19.614,0.019,0.424,13.0
19.618,0.018,0.309,14.0
19.682,0.018,0.195,11.0
19.752,0.017,0.078,7.0
19.741,0.016,-0.036,79.0
19.768,0.015,-0.152,2.0
19.621,0.015,0.382,16.0
19.622,0.014,0.267,14.0
19.754,0.013,0.153,5.0
19.761,0.012,0.036,5.0
19.759,0.011,-0.079,2.0
19.783,0.01,-0.195,1.0
19.63,0.01,0.34,16.0
19.636,0.009,0.226,16.0
19.775,0.008,0.111,4.0
19.745,0.007,-0.005,10.0
19.768,0.006,-0.121,1.0
19.772,0.005,-0.237,0.0
19.621,0.004,0.298,14.0
19.711,0.003,0.185,6.0
19.79,0.002,0.069,4.0
19.754,0.0,-0.048,6.0
0.0,0.0,0.0,0.0
34.689,-0.002,-0.49,0.0
19.631,-0.002,0.257,15.0
19.733,-0.003,0.143,1.0
19.729,-0.004,0.027,9.0
19.761,-0.005,-0.089,2.0
39.94,-0.014,-0.414,0.0
0.0,0.0,0.0,0.0
19.643,-0.009,0.216,15.0
19.703,-0.01,0.101,4.0
19.734,-0.012,-0.013,12.0
19.748,-0.013,-0.131,3.0
0.0,0.0,0.0,0.0
30.461,-0.025,-0.559,0.0
19.726,-0.017,0.175,5.0
19.705,-0.019,0.059,13.0
19.733,-0.02,-0.055,8.0
19.757,-0.021,-0.173,3.0
35.068,-0.041,-0.512,0.0
29.637,-0.037,-0.607,0.0
19.691,-0.026,0.133,10.0
19.709,-0.028,0.018,15.0
19.735,-0.029,-0.097,10.0
19.759,-0.031,-0.215,3.0
0.0,0.0,0.0,0.0
28.075,-0.048,-0.634,0.0
19.705,-0.035,0.092,16.0
19.71,-0.037,-0.022,15.0
19.742,-0.039,-0.138,13.0
19.76,-0.04,-0.256,4.0
30.205,-0.064,-0.567,0.0
26.374,-0.058,-0.65,0.0
19.704,-0.046,0.051,17.0
19.735,-0.047,-0.063,12.0
19.738,-0.049,-0.179,13.0
19.761,-0.051,-0.297,6.0
29.071,-0.078,-0.607,0.0
25.307,-0.07,-0.676,0.0
19.712,-0.057,0.01,17.0
19.726,-0.058,-0.104,15.0
19.745,-0.06,-0.22,14.0
19.755,-0.062,-0.337,6.0
19.766,-0.064,-0.453,2.0
19.777,-0.066,-0.569,0.0
19.718,-0.068,-0.03,16.0
19.727,-0.07,-0.145,16.0
19.753,-0.072,-0.261,14.0
19.756,-0.074,-0.378,11.0
19.765,-0.076,-0.494,7.0
19.767,-0.078,-0.61,2.0
19.726,-0.081,-0.07,13.0
19.729,-0.083,-0.185,16.0
19.752,-0.085,-0.301,14.0
19.742,-0.087,-0.418,14.0
19.75,-0.089,-0.534,13.0
19.759,-0.091,-0.65,11.0
19.718,-0.094,-0.11,17.0
19.74,-0.096,-0.225,16.0
19.742,-0.098,-0.341,13.0
19.725,-0.1,-0.458,14.0
19.752,-0.102,-0.574,15.0
19.741,-0.104,-0.689,12.0
19.729,-0.107,-0.15,17.0
19.741,-0.11,-0.265,15.0
19.745,-0.112,-0.38,16.0
19.731,-0.114,-0.498,15.0
19.746,-0.116,-0.613,15.0
19.737,-0.119,-0.729,15.0
19.732,-0.122,-0.189,17.0
19.746,-0.124,-0.305,15.0
19.729,-0.126,-0.419,16.0
19.72,-0.129,-0.536,17.0
19.737,-0.131,-0.652,17.0
19.67,-0.133,-0.765,4.0
19.744,-0.137,-0.228,17.0
19.743,-0.139,-0.343,17.0
19.721,-0.141,-0.458,17.0
19.728,-0.144,-0.575,16.0
19.751,-0.146,-0.691,15.0
19.251,-0.145,-0.786,1.0
19.744,-0.152,-0.266,17.0
19.735,-0.155,-0.381,17.0
19.739,-0.157,-0.497,18.0
19.754,-0.16,-0.614,12.0
19.753,-0.162,-0.73,11.0
18.593,-0.155,-0.796,0.0
19.756,-0.169,-0.305,13.0
19.747,-0.171,-0.42,13.0
19.755,-0.174,-0.535,9.0
19.767,-0.176,-0.653,3.0
19.665,-0.178,-0.764,3.0
17.953,-0.165,-0.803,0.0
19.772,-0.186,-0.343,12.0
19.775,-0.188,-0.458,5.0
24.061,-0.233,-0.698,0.0
19.795,-0.194,-0.692,2.0
19.243,-0.191,-0.785,2.0
17.385,-0.175,-0.811,0.0
19.783,-0.203,-0.381,0.0
26.149,-0.273,-0.656,0.0
22.818,-0.241,-0.705,0.0
19.768,-0.212,-0.728,9.0
18.605,-0.202,-0.794,0.0
16.813,-0.185,-0.816,0.0
29.107,-0.326,-0.615,0.0
25.1,-0.285,-0.676,0.0
22.179,-0.255,-0.727,1.0
19.649,-0.229,-0.761,3.0
17.996,-0.212,-0.802,0.0
16.176,-0.193,-0.815,0.0
27.463,-0.334,-0.631,0.0
24.243,-0.299,-0.698,0.0
21.174,-0.264,-0.733,0.0
19.254,-0.243,-0.781,0.0
17.409,-0.222,-0.807,0.0
15.824,-0.204,-0.826,0.0
26.222,-0.344,-0.65,0.0
22.979,-0.305,-0.703,0.0
19.843,-0.267,-0.723,3.0
18.598,-0.253,-0.788,0.0
16.9,-0.232,-0.814,0.0
15.458,-0.215,-0.835,0.0
25.266,-0.357,-0.671,0.0
22.347,-0.319,-0.724,0.0
19.827,-0.287,-0.758,2.0
18.101,-0.264,-0.799,0.0
16.428,-0.243,-0.821,0.0
15.012,-0.224,-0.838,0.0
24.063,-0.365,-0.682,0.0
21.452,-0.329,-0.733,0.0
19.404,-0.301,-0.776,1.0
17.464,-0.273,-0.802,0.0
16.006,-0.253,-0.828,0.0
14.642,-0.234,-0.843,0.0
23.243,-0.377,-0.699,0.0
20.737,-0.34,-0.744,0.0
18.904,-0.313,-0.789,0.0
17.033,-0.285,-0.812,0.0
15.548,-0.263,-0.831,0.0
14.247,-0.243,-0.845,0.0
22.237,-0.385,-0.707,1.0
20.2,-0.353,-0.759,0.0
18.337,-0.324,-0.796,0.0
16.613,-0.296,-0.82,0.0
15.171,-0.273,-0.837,0.0
13.949,-0.254,-0.851,0.0
21.688,-0.4,-0.726,4.0
19.602,-0.365,-0.77,0.0
17.791,-0.334,-0.802,0.0
16.034,-0.304,-0.818,0.0
14.848,-0.284,-0.844,0.0
13.617,-0.263,-0.853,0.0
21.357,-0.418,-0.75,1.0
19.135,-0.378,-0.783,0.0
17.356,-0.346,-0.811,0.0
15.702,-0.316,-0.827,0.0
14.308,-0.291,-0.837,0.0
13.353,-0.274,-0.859,0.0
20.456,-0.424,-0.752,1.0
18.608,-0.389,-0.792,0.0
16.732,-0.353,-0.809,0.0
15.332,-0.327,-0.832,0.0
14.158,-0.304,-0.851,0.0
13.048,-0.283,-0.86,0.0
19.92,-0.437,-0.764,0.0
17.964,-0.397,-0.793,0.0
16.417,-0.366,-0.82,0.0
14.972,-0.337,-0.837,0.0
13.847,-0.314,-0.854,0.0
12.788,-0.293,-0.863,0.0
19.456,-0.45,-0.777,0.0
17.712,-0.413,-0.81,0.0
16.037,-0.378,-0.826,0.0
14.704,-0.349,-0.844,0.0
13.53,-0.324,-0.856,0.0
12.501,-0.302,-0.864,0.0
18.967,-0.462,-0.786,0.0
17.225,-0.423,-0.814,0.0
15.653,-0.388,-0.831,0.0
14.262,-0.356,-0.841,0.0
13.146,-0.331,-0.851,0.0
12.306,-0.313,-0.869,0.0
17.809,-0.457,-0.765,4.0
17.022,-0.44,-0.83,0.0
15.275,-0.398,-0.833,0.0
14.064,-0.369,-0.85,0.0
17.825,-0.472,-1.181,0.0
12.145,-0.324,-0.875,0.0
17.756,-0.478,-0.789,2.0
0.0,0.0,0.0,0.0
15.031,-0.411,-0.842,0.0
17.787,-0.49,-1.101,0.0
17.806,-0.495,-1.206,0.0
12.016,-0.336,-0.884,0.0
17.668,-0.499,-0.81,3.0
0.0,0.0,0.0,0.0
14.631,-0.419,-0.84,0.0
17.79,-0.513,-1.126,1.0
12.596,-0.366,-0.871,0.0
11.8,-0.346,-0.884,0.0
17.716,-0.523,-0.837,1.0
17.804,-0.53,-0.944,0.0
14.404,-0.432,-0.847,0.0
17.784,-0.537,-1.151,0.0
12.406,-0.377,-0.875,0.0
11.642,-0.357,-0.888,0.0
17.601,-0.543,-0.855,1.0
15.379,-0.478,-0.836,0.0
14.123,-0.442,-0.849,0.0
12.838,-0.405,-0.848,0.0
12.209,-0.388,-0.877,0.0
11.458,-0.366,-0.89,0.0
16.474,-0.531,-0.822,0.0
15.017,-0.487,-0.836,0.0
13.886,-0.453,-0.853,0.0
12.835,-0.422,-0.864,0.0
12.098,-0.401,-0.885,0.0
11.24,-0.375,-0.887,0.0
16.1,-0.541,-0.824,0.0
14.799,-0.5,-0.843,0.0
13.534,-0.46,-0.849,0.0
12.634,-0.433,-0.867,0.0
11.808,-0.407,-0.878,0.0
11.136,-0.387,-0.893,0.0
15.791,-0.552,-0.828,0.0
14.475,-0.509,-0.842,0.0
13.274,-0.47,-0.849,0.0
12.43,-0.443,-0.868,0.0
11.748,-0.421,-0.888,0.0
10.989,-0.397,-0.894,0.0
15.515,-0.564,-0.832,0.0
14.221,-0.52,-0.844,0.0
13.22,-0.487,-0.861,0.0
12.285,-0.455,-0.872,0.0
11.549,-0.431,-0.887,0.0
10.869,-0.408,-0.898,0.0
15.269,-0.577,-0.837,0.0
13.997,-0.532,-0.848,0.0
12.916,-0.494,-0.857,0.0
12.15,-0.468,-0.877,0.0
11.427,-0.443,-0.891,0.0
10.793,-0.421,-0.904,0.0
14.999,-0.588,-0.839,0.0
13.81,-0.545,-0.852,0.0
12.827,-0.509,-0.865,0.0
12.065,-0.482,-0.885,0.0
11.242,-0.452,-0.889,0.0
10.647,-0.43,-0.904,0.0
14.752,-0.599,-0.841,0.0
13.575,-0.555,-0.852,0.0
12.634,-0.519,-0.866,0.0
11.915,-0.493,-0.886,0.0
11.155,-0.464,-0.894,0.0
10.547,-0.442,-0.906,0.0
14.56,-0.613,-0.846,0.0
13.36,-0.566,-0.853,0.0
12.495,-0.532,-0.869,0.0
11.762,-0.504,-0.887,0.0
10.978,-0.473,-0.891,0.0
10.433,-0.452,-0.907,0.0
14.285,-0.622,-0.844,0.0
13.176,-0.577,-0.854,0.0
12.378,-0.545,-0.873,0.0
11.637,-0.516,-0.889,0.0
10.856,-0.484,-0.892,0.0
10.32,-0.463,-0.908,0.0
14.107,-0.635,-0.847,0.0
13.036,-0.59,-0.858,0.0
12.277,-0.559,-0.878,0.0
11.476,-0.526,-0.888,0.0
10.884,-0.501,-0.905,0.0
10.242,-0.475,-0.911,0.0
13.954,-0.649,-0.851,0.0
12.946,-0.605,-0.864,0.0
12.138,-0.571,-0.88,0.0
11.351,-0.537,-0.889,0.0
10.722,-0.51,-0.901,0.0
10.136,-0.485,-0.91,0.0
13.669,-0.656,-0.846,0.0
12.768,-0.616,-0.863,0.0
12.033,-0.584,-0.882,0.0
11.276,-0.55,-0.893,0.0
10.659,-0.523,-0.905,0.0
10.081,-0.497,-0.914,0.0
13.627,-0.674,-0.855,0.0
12.651,-0.629,-0.866,0.0
11.945,-0.597,-0.886,0.0
11.153,-0.561,-0.892,0.0
10.573,-0.534,-0.907,0.0
9.984,-0.507,-0.913,0.0
13.502,-0.688,-0.858,0.0
12.507,-0.641,-0.866,0.0
11.801,-0.608,-0.885,0.0
11.059,-0.573,-0.894,0.0
10.516,-0.547,-0.91,0.0
9.91,-0.518,-0.914,0.0
13.348,-0.7,-0.858,0.0
12.45,-0.657,-0.871,0.0
11.712,-0.621,-0.887,0.0
10.978,-0.585,-0.895,0.0
10.411,-0.557,-0.909,0.0
9.847,-0.53,-0.916,0.0
13.187,-0.712,-0.857,0.0
12.368,-0.671,-0.875,0.0
11.678,-0.636,-0.892,0.0
10.961,-0.6,-0.901,0.0
10.37,-0.571,-0.912,0.0
9.786,-0.541,-0.917,0.0
13.087,-0.726,-0.859,0.0
12.243,-0.682,-0.874,0.0
11.578,-0.648,-0.892,0.0
10.886,-0.612,-0.902,0.0
10.29,-0.582,-0.912,0.0
9.717,-0.552,-0.917,0.0
13.001,-0.74,-0.862,0.0
12.18,-0.697,-0.877,0.0
11.468,-0.659,-0.891,0.0
10.76,-0.622,-0.899,0.0
10.234,-0.594,-0.913,0.0
9.667,-0.564,-0.918,0.0
12.927,-0.756,-0.865,0.0
12.099,-0.711,-0.878,0.0
11.338,-0.669,-0.887,0.0
10.739,-0.637,-0.903,0.0
10.15,-0.605,-0.911,0.0
9.604,-0.575,-0.917,0.0
12.83,-0.769,-0.865,0.0
12.038,-0.725,-0.88,0.0
11.315,-0.685,-0.892,0.0
10.655,-0.648,-0.901,0.0
10.083,-0.616,-0.911,0.0
9.566,-0.587,-0.919,0.0
12.756,-0.784,-0.867,0.0
11.942,-0.737,-0.879,0.0
11.281,-0.7,-0.895,0.0
10.644,-0.663,-0.906,0.0
10.024,-0.627,-0.91,0.0
9.528,-0.599,-0.919,0.0
12.679,-0.798,-0.867,0.0
11.97,-0.757,-0.887,0.0
11.223,-0.713,-0.895,0.0
10.519,-0.671,-0.9,0.0
10.033,-0.643,-0.915,0.0
9.516,-0.612,-0.922,0.0
12.659,-0.815,-0.871,0.0
11.881,-0.769,-0.885,0.0
11.173,-0.726,-0.895,0.0
10.564,-0.689,-0.908,0.0
9.979,-0.654,-0.914,0.0
9.475,-0.624,-0.922,0.0
12.587,-0.829,-0.871,0.0
11.873,-0.786,-0.889,0.0
11.134,-0.74,-0.896,0.0
10.512,-0.702,-0.907,0.0
9.938,-0.666,-0.914,0.0
9.439,-0.635,-0.922,0.0
12.515,-0.843,-0.87,0.0
11.859,-0.802,-0.891,0.0
11.16,-0.758,-0.902,0.0
10.492,-0.716,-0.908,0.0
9.907,-0.679,-0.914,0.0
9.422,-0.648,-0.923,0.0
12.458,-0.858,-0.87,0.0
11.825,-0.817,-0.892,0.0
11.133,-0.773,-0.903,0.0
10.449,-0.728,-0.907,0.0
9.934,-0.695,-0.919,0.0
9.402,-0.661,-0.923,0.0
12.462,-0.876,-0.873,0.0
11.826,-0.835,-0.895,0.0
11.103,-0.787,-0.903,0.0
10.36,-0.737,-0.902,0.0
9.917,-0.708,-0.92,0.0
9.377,-0.673,-0.923,0.0
12.452,-0.893,-0.875,0.0
11.78,-0.848,-0.894,0.0
11.075,-0.801,-0.903,0.0
10.391,-0.754,-0.907,0.0
9.913,-0.722,-0.921,0.0
9.356,-0.684,-0.922,0.0
12.42,-0.909,-0.874,0.0
11.758,-0.863,-0.894,0.0
11.062,-0.815,-0.903,0.0
10.389,-0.769,-0.908,0.0
9.893,-0.735,-0.92,0.0
9.352,-0.698,-0.923,0.0
12.43,-0.927,-0.877,0.0
11.724,-0.878,-0.893,0.0
11.044,-0.83,-0.903,0.0
10.365,-0.782,-0.907,0.0
9.875,-0.748,-0.92,0.0
9.333,-0.709,-0.922,0.0
12.433,-0.945,-0.878,0.0
11.753,-0.897,-0.896,0.0
11.051,-0.846,-0.904,0.0
10.414,-0.8,-0.911,0.0
9.846,-0.76,-0.917,0.0
9.367,-0.725,-0.925,0.0
12.405,-0.96,-0.876,0.0
11.767,-0.914,-0.897,0.0
11.074,-0.863,-0.906,0.0
10.443,-0.817,-0.914,0.0
9.891,-0.777,-0.921,0.0
9.371,-0.739,-0.926,0.0
12.426,-0.979,-0.877,0.0
11.815,-0.934,-0.9,0.0
11.055,-0.877,-0.904,0.0
10.434,-0.831,-0.913,0.0
9.915,-0.792,-0.923,0.0
9.372,-0.752,-0.925,0.0
12.434,-0.997,-0.877,0.0
11.717,-0.942,-0.892,0.0
10.971,-0.885,-0.897,0.0
10.41,-0.843,-0.91,0.0
9.895,-0.804,-0.921,0.0
9.371,-0.764,-0.924,0.0
12.434,-1.013,-0.876,0.0
11.831,-0.967,-0.899,0.0
11.014,-0.903,-0.899,0.0
10.371,-0.854,-0.905,0.0
9.914,-0.819,-0.921,0.0
9.397,-0.779,-0.926,0.0
12.456,-1.032,-0.876,0.0
11.727,-0.974,-0.89,0.0
11.089,-0.924,-0.903,0.0
10.404,-0.87,-0.907,0.0
9.882,-0.829,-0.916,0.0
9.42,-0.793,-0.926,0.0
12.447,-1.047,-0.873,0.0
11.831,-0.998,-0.896,0.0
11.132,-0.942,-0.904,0.0
10.425,-0.885,-0.906,0.0
9.892,-0.843,-0.915,0.0
9.467,-0.809,-0.929,0.0
12.547,-1.072,-0.877,0.0
11.82,-1.013,-0.892,0.0
11.082,-0.952,-0.898,0.0
10.497,-0.905,-0.91,0.0
9.956,-0.861,-0.919,0.0
9.488,-0.823,-0.929,0.0
12.573,-1.09,-0.876,0.0
11.867,-1.032,-0.892,0.0
11.132,-0.971,-0.899,0.0
10.556,-0.923,-0.912,0.0
9.978,-0.875,-0.918,0.0
9.507,-0.837,-0.927,0.0
12.675,-1.114,-0.879,0.0
11.963,-1.055,-0.896,0.0
11.126,-0.984,-0.895,0.0
10.565,-0.937,-0.909,0.0
10.001,-0.89,-0.917,0.0
9.54,-0.851,-0.927,0.0
12.71,-1.133,-0.877,0.0
11.976,-1.071,-0.893,0.0
11.243,-1.008,-0.9,0.0
10.585,-0.952,-0.907,0.0
10.077,-0.909,-0.92,0.0
9.599,-0.868,-0.93,0.0
12.821,-1.158,-0.88,0.0
12.026,-1.089,-0.892,0.0
11.317,-1.028,-0.902,0.0
10.712,-0.976,-0.914,0.0
10.118,-0.924,-0.919,0.0
9.625,-0.882,-0.928,0.0
12.821,-1.173,-0.875,0.0
12.117,-1.112,-0.893,0.0
11.355,-1.045,-0.9,0.0
10.72,-0.989,-0.91,0.0
10.149,-0.939,-0.918,0.0
9.641,-0.894,-0.925,0.0
12.947,-1.2,-0.877,0.0
12.183,-1.132,-0.893,0.0
11.468,-1.068,-0.903,0.0
10.8,-1.008,-0.912,0.0
10.21,-0.956,-0.918,0.0
9.706,-0.911,-0.927,0.0
13.028,-1.221,-0.876,0.0
12.237,-1.15,-0.891,0.0
11.488,-1.082,-0.899,0.0
10.822,-1.022,-0.908,0.0
10.25,-0.971,-0.916,0.0
9.742,-0.925,-0.925,0.0
13.138,-1.246,-0.877,0.0
12.253,-1.165,-0.885,0.0
11.656,-1.111,-0.906,0.0
10.894,-1.041,-0.908,0.0
10.303,-0.987,-0.916,0.0
9.769,-0.938,-0.922,0.0
13.119,-1.258,-0.868,0.0
12.329,-1.185,-0.884,0.0
11.682,-1.126,-0.901,0.0
10.942,-1.057,-0.906,0.0
10.328,-1.0,-0.912,0.0
9.851,-0.956,-0.924,0.0
13.237,-1.283,-0.868,0.0
12.34,-1.199,-0.877,0.0
11.804,-1.149,-0.904,0.0
11.017,-1.075,-0.905,0.0
10.394,-1.017,-0.911,0.0
9.893,-0.97,-0.922,0.0
13.366,-1.309,-0.868,0.0
12.485,-1.225,-0.879,0.0
11.803,-1.161,-0.896,0.0
11.068,-1.091,-0.902,0.0
10.553,-1.043,-0.918,0.0
9.963,-0.987,-0.922,0.0
13.616,-1.346,-0.875,0.0
12.642,-1.253,-0.882,0.0
11.854,-1.177,-0.892,0.0
11.193,-1.114,-0.904,0.0
10.616,-1.059,-0.916,0.0
10.094,-1.009,-0.927,0.0
13.727,-1.37,-0.873,0.0
12.854,-1.285,-0.888,0.0
11.939,-1.197,-0.89,0.0
11.292,-1.134,-0.904,0.0
10.692,-1.076,-0.915,0.0
10.132,-1.022,-0.923,0.0
13.853,-1.395,-0.871,0.0
12.884,-1.3,-0.88,0.0
12.052,-1.219,-0.889,0.0
11.424,-1.157,-0.906,0.0
10.772,-1.093,-0.914,0.0
10.184,-1.036,-0.919,0.0
14.029,-1.425,-0.871,0.0
12.973,-1.32,-0.876,0.0
12.128,-1.236,-0.885,0.0
11.495,-1.174,-0.903,0.0
10.855,-1.111,-0.912,0.0
10.265,-1.053,-0.919,0.0
14.166,-1.451,-0.868,0.0
13.141,-1.348,-0.877,0.0
12.248,-1.259,-0.884,0.0
11.577,-1.192,-0.9,0.0
10.943,-1.129,-0.91,0.0
10.381,-1.073,-0.92,0.0
14.285,-1.474,-0.864,0.0
13.361,-1.381,-0.881,0.0
12.396,-1.284,-0.884,0.0
11.726,-1.216,-0.901,0.0
11.053,-1.149,-0.91,0.0
10.447,-1.088,-0.917,0.0
14.44,-1.501,-0.861,0.0
13.416,-1.397,-0.872,0.0
12.619,-1.316,-0.889,0.0
11.804,-1.233,-0.897,0.0
11.128,-1.165,-0.906,0.0
10.545,-1.106,-0.916,0.0
14.635,-1.532,-0.859,0.0
13.674,-1.434,-0.877,0.0
12.734,-1.337,-0.886,0.0
11.979,-1.26,-0.9,0.0
11.203,-1.18,-0.902,0.0
10.632,-1.122,-0.914,0.0
14.879,-1.568,-0.86,0.0
13.892,-1.466,-0.878,0.0
12.871,-1.36,-0.884,0.0
12.04,-1.274,-0.893,0.0
11.341,-1.202,-0.903,0.0
10.754,-1.142,-0.915,0.0
15.092,-1.6,-0.859,0.0
14.034,-1.49,-0.874,0.0
13.048,-1.387,-0.883,0.0
12.28,-1.307,-0.899,0.0
11.469,-1.223,-0.902,0.0
10.837,-1.157,-0.911,0.0
15.321,-1.633,-0.857,0.0
14.167,-1.512,-0.869,0.0
13.224,-1.413,-0.882,0.0
12.475,-1.335,-0.901,0.0
11.599,-1.243,-0.901,0.0
10.944,-1.175,-0.909,0.0
15.617,-1.674,-0.858,0.0
14.312,-1.536,-0.863,0.0
13.356,-1.435,-0.878,0.0
12.55,-1.35,-0.894,0.0
11.764,-1.267,-0.902,0.0
11.081,-1.195,-0.909,0.0
15.774,-1.699,-0.851,0.0
14.466,-1.56,-0.858,0.0
13.547,-1.462,-0.877,0.0
12.654,-1.367,-0.889,0.0
11.928,-1.291,-0.902,0.0
11.215,-1.215,-0.909,0.0
16.086,-1.74,-0.851,0.0
14.795,-1.602,-0.862,0.0
13.758,-1.491,-0.876,0.0
12.839,-1.393,-0.888,0.0
12.055,-1.31,-0.899,0.0
11.316,-1.231,-0.905,0.0
16.277,-1.768,-0.844,0.0
15.114,-1.643,-0.865,0.0
13.97,-1.52,-0.875,0.0
13.016,-1.418,-0.886,0.0
12.239,-1.335,-0.899,0.0
11.451,-1.25,-0.903,0.0
16.425,-1.791,-0.834,0.0
15.278,-1.667,-0.858,0.0
14.178,-1.549,-0.872,0.0
13.133,-1.436,-0.88,0.0
12.378,-1.355,-0.896,0.0
11.617,-1.273,-0.904,0.0
16.849,-1.843,-0.837,0.0
15.509,-1.698,-0.854,0.0
14.374,-1.575,-0.868,0.0
13.349,-1.464,-0.88,0.0
12.505,-1.372,-0.891,0.0
11.753,-1.291,-0.901,0.0
17.135,-1.88,-0.832,0.0
15.773,-1.731,-0.851,0.0
14.561,-1.6,-0.863,0.0
13.575,-1.492,-0.879,0.0
12.754,-1.403,-0.895,0.0
11.921,-1.313,-0.9,0.0
17.367,-1.91,-0.824,0.0
16.046,-1.766,-0.847,0.0
14.919,-1.643,-0.868,0.0
13.836,-1.525,-0.88,0.0
12.86,-1.418,-0.887,0.0
12.077,-1.333,-0.898,0.0
17.62,-1.942,-0.816,0.0
16.357,-1.804,-0.845,0.0
15.173,-1.674,-0.865,0.0
14.026,-1.548,-0.876,0.0
13.088,-1.446,-0.888,0.0
12.178,-1.346,-0.891,0.0
17.971,-1.984,-0.811,0.0
16.617,-1.835,-0.839,0.0
15.402,-1.702,-0.86,0.0
14.266,-1.577,-0.874,0.0
13.205,-1.461,-0.88,0.0
12.438,-1.377,-0.896,0.0
18.614,-2.058,-0.818,0.0
16.992,-1.879,-0.837,0.0
15.668,-1.733,-0.856,0.0
14.446,-1.599,-0.868,0.0
13.479,-1.493,-0.882,0.0
12.639,-1.4,-0.895,0.0
18.855,-2.086,-0.806,0.0
17.272,-1.911,-0.83,0.0
15.921,-1.763,-0.85,0.0
14.681,-1.626,-0.864,0.0
13.719,-1.52,-0.881,0.0
12.849,-1.424,-0.894,0.0
19.078,-2.112,-0.792,0.0
17.467,-1.934,-0.818,0.0
16.223,-1.797,-0.847,0.0
15.022,-1.664,-0.866,0.0
14.007,-1.552,-0.882,0.0
13.052,-1.447,-0.892,0.0
0.0,0.0,0.0,0.0
17.868,-1.978,-0.815,0.0
16.447,-1.821,-0.838,0.0
15.259,-1.69,-0.861,0.0
14.21,-1.574,-0.877,0.0
13.193,-1.462,-0.885,0.0
20.143,-2.229,-0.787,0.0
18.355,-2.031,-0.815,0.0
17.018,-1.884,-0.846,0.0
15.511,-1.717,-0.856,0.0
14.409,-1.595,-0.872,0.0
13.396,-1.483,-0.882,0.0
20.635,-2.282,-0.78,0.0
18.81,-2.08,-0.812,0.0
17.131,-1.894,-0.83,0.0
15.858,-1.754,-0.855,0.0
14.682,-1.624,-0.87,0.0
13.65,-1.51,-0.882,0.0
21.03,-2.323,-0.769,0.0
18.941,-2.092,-0.793,0.0
17.393,-1.921,-0.821,0.0
16.215,-1.791,-0.854,0.0
15.041,-1.661,-0.872,0.0
13.882,-1.533,-0.879,0.0
21.676,-2.391,-0.765,0.0
0.0,0.0,0.0,0.0
17.792,-1.961,-0.818,0.0
16.446,-1.813,-0.845,0.0
15.26,-1.682,-0.865,0.0
14.183,-1.563,-0.88,0.0
22.207,-2.445,-0.756,0.0
20.059,-2.207,-0.789,0.0
18.261,-2.009,-0.816,0.0
16.889,-1.858,-0.846,0.0
15.461,-1.7,-0.857,0.0
14.392,-1.582,-0.874,0.0
22.94,-2.519,-0.752,0.0
20.656,-2.267,-0.787,0.0
18.724,-2.055,-0.813,0.0
17.038,-1.869,-0.832,0.0
15.855,-1.739,-0.859,0.0
14.622,-1.603,-0.87,0.0
23.577,-2.582,-0.743,0.0
20.924,-2.29,-0.77,0.0
18.968,-2.075,-0.799,0.0
17.229,-1.884,-0.819,0.0
16.117,-1.762,-0.852,0.0
14.98,-1.637,-0.872,0.0
24.063,-2.627,-0.727,0.0
21.597,-2.356,-0.767,0.0
19.598,-2.137,-0.8,0.0
17.612,-1.919,-0.815,0.0
16.369,-1.783,-0.844,0.0
15.253,-1.661,-0.868,0.0
24.789,-2.696,-0.717,0.0
22.227,-2.416,-0.761,0.0
20.157,-2.189,-0.797,0.0
18.576,-2.016,-0.836,0.0
16.711,-1.813,-0.841,0.0
15.522,-1.683,-0.864,0.0
25.257,-2.736,-0.699,0.0
22.429,-2.428,-0.74,0.0
20.465,-2.213,-0.783,0.0
18.691,-2.02,-0.817,0.0
17.081,-1.845,-0.837,0.0
15.846,-1.71,-0.861,0.0
0.0,0.0,0.0,0.0
23.351,-2.516,-0.74,0.0
21.255,-2.288,-0.787,0.0
19.107,-2.055,-0.811,0.0
17.438,-1.874,-0.832,0.0
16.147,-1.734,-0.857,0.0
27.047,-2.902,-0.679,0.0
23.755,-2.547,-0.723,0.0
21.836,-2.339,-0.78,2.0
19.602,-2.097,-0.806,0.0
17.394,-1.86,-0.808,0.0
16.361,-1.748,-0.847,0.0
28.029,-2.991,-0.668,0.0
24.628,-2.626,-0.718,0.0
21.9,-2.332,-0.754,0.0
20.049,-2.133,-0.799,0.0
18.372,-1.953,-0.83,0.0
16.56,-1.758,-0.836,0.0
0.0,0.0,0.0,0.0
25.102,-2.66,-0.699,0.0
22.263,-2.357,-0.738,0.0
20.312,-2.148,-0.784,0.0
18.651,-1.97,-0.818,0.0
17.03,-1.797,-0.838,0.0
0.0,0.0,0.0,0.0
26.549,-2.795,-0.705,0.0
23.219,-2.442,-0.74,0.0
20.706,-2.175,-0.772,0.0
19.066,-2.0,-0.812,0.0
17.386,-1.822,-0.833,0.0
30.745,-3.219,-0.615,0.0
27.024,-2.826,-0.684,0.0
23.91,-2.497,-0.732,0.0
21.375,-2.229,-0.77,0.0
19.573,-2.039,-0.809,0.0
17.491,-1.82,-0.816,0.0
0.0,0.0,0.0,0.0
27.761,-2.881,-0.668,0.0
24.732,-2.563,-0.726,0.0
21.913,-2.268,-0.762,0.0
20.034,-2.071,-0.803,0.0
18.298,-1.889,-0.831,0.0
0.0,0.0,0.0,0.0
0.0,0.0,0.0,0.0
25.324,-2.604,-0.712,0.0
22.445,-2.304,-0.752,0.0
20.343,-2.086,-0.79,0.0
18.746,-1.919,-0.827,0.0
34.729,-3.553,-0.564,0.0
0.0,0.0,0.0,0.0
26.329,-2.684,-0.707,0.0
23.091,-2.35,-0.745,0.0
20.831,-2.117,-0.783,0.0
18.96,-1.924,-0.813,0.0
35.175,-3.567,-0.528,0.0
0.0,0.0,0.0,0.0
26.805,-2.709,-0.687,0.0
23.894,-2.41,-0.741,0.0
21.216,-2.137,-0.771,0.0
19.672,-1.978,-0.82,0.0
0.0,0.0,0.0,0.0
31.497,-3.159,-0.601,0.0
27.447,-2.748,-0.67,0.0
24.436,-2.442,-0.729,0.0
21.791,-2.174,-0.766,0.0
19.905,-1.982,-0.806,0.0
0.0,0.0,0.0,0.0
0.0,0.0,0.0,0.0
28.573,-2.832,-0.663,0.0
0.0,0.0,0.0,0.0
22.539,-2.226,-0.765,0.0
