X,Y,Z,Reflectivity
100.03,-7.375,1.872,2.0
100.105,-7.343,1.327,9.0
100.046,-7.303,0.77,12.0
98.835,-7.182,0.221,5.0
0.0,0.0,0.0,0.0
109.203,-7.89,2.683,28.0
109.34,-7.86,2.089,31.0
100.114,-7.161,1.365,8.0
100.088,-7.123,0.807,11.0
98.946,-7.008,0.257,9.0
0.0,0.0,0.0,0.0
109.159,-7.683,2.72,47.0
109.356,-7.657,2.127,30.0
100.084,-6.972,1.4,6.0
100.085,-6.935,0.842,8.0
99.109,-6.833,0.291,7.0
0.0,0.0,0.0,0.0
117.229,-8.032,2.959,9.0
117.472,-8.005,2.322,10.0
0.0,0.0,0.0,0.0
0.0,0.0,0.0,0.0
99.591,-6.68,0.322,6.0
0.0,0.0,0.0,0.0
116.974,-7.795,2.986,20.0
117.374,-7.777,2.352,50.0
106.027,-6.985,1.544,21.0
125.149,-8.201,1.124,9.0
99.75,-6.501,0.349,11.0
0.0,0.0,0.0,0.0
116.982,-7.571,3.016,23.0
117.453,-7.557,2.383,21.0
125.29,-8.016,1.854,31.0
125.261,-7.968,1.154,12.0
108.388,-6.855,0.404,2.0
0.0,0.0,0.0,0.0
117.218,-7.358,3.046,40.0
148.29,-9.254,3.04,17.0
148.623,-9.22,2.23,22.0
149.852,-9.241,1.41,16.0
108.589,-6.655,0.425,5.0
0.0,0.0,0.0,0.0
117.325,-7.134,3.071,27.0
148.632,-8.983,3.072,18.0
148.89,-8.944,2.258,21.0
150.031,-8.958,1.436,15.0
109.45,-6.495,0.445,2.0
0.0,0.0,0.0,0.0
148.775,-8.756,3.915,23.0
149.125,-8.719,3.103,19.0
149.321,-8.676,2.284,15.0
140.726,-8.124,1.363,20.0
0.0,0.0,0.0,0.0
0.0,0.0,0.0,0.0
147.467,-8.387,3.894,18.0
140.693,-7.949,2.941,13.0
0.0,0.0,0.0,0.0
0.0,0.0,0.0,0.0
0.0,0.0,0.0,0.0
0.0,0.0,0.0,0.0
140.751,-7.724,3.726,17.0
140.701,-7.667,2.948,19.0
0.0,0.0,0.0,0.0
0.0,0.0,0.0,0.0
102.463,-5.469,0.441,1.0
0.0,0.0,0.0,0.0
140.465,-7.425,3.722,32.0
0.0,0.0,0.0,0.0
0.0,0.0,0.0,0.0
101.474,-5.25,0.997,8.0
0.0,0.0,0.0,0.0
0.0,0.0,0.0,0.0
139.445,-7.089,3.694,17.0
0.0,0.0,0.0,0.0
0.0,0.0,0.0,0.0
101.531,-5.047,0.995,160.0
0.0,0.0,0.0,0.0
0.0,0.0,0.0,0.0
142.435,-6.949,3.765,7.0
0.0,0.0,0.0,0.0
0.0,0.0,0.0,0.0
101.532,-4.84,0.988,160.0
102.633,-4.853,0.43,1.0
0.0,0.0,0.0,0.0
150.688,-7.045,3.971,10.0
0.0,0.0,0.0,0.0
0.0,0.0,0.0,0.0
101.51,-4.63,0.976,1.0
0.0,0.0,0.0,0.0
0.0,0.0,0.0,0.0
142.436,-6.365,3.734,18.0
0.0,0.0,0.0,0.0
101.523,-4.46,1.535,9.0
101.503,-4.421,0.962,1.0
0.0,0.0,0.0,0.0
0.0,0.0,0.0,0.0
139.99,-5.967,3.646,4.0
0.0,0.0,0.0,0.0
101.528,-4.253,1.517,150.0
101.5,-4.214,0.943,9.0
0.0,0.0,0.0,0.0
0.0,0.0,0.0,0.0
141.669,-5.748,3.661,27.0
162.242,-6.522,3.292,17.0
0.0,0.0,0.0,0.0
0.0,0.0,0.0,0.0
0.0,0.0,0.0,0.0
0.0,0.0,0.0,0.0
141.948,-5.468,3.634,14.0
162.288,-6.19,3.251,17.0
0.0,0.0,0.0,0.0
151.404,-5.662,1.334,150.0
0.0,0.0,0.0,0.0
0.0,0.0,0.0,0.0
141.772,-5.168,3.59,5.0
162.249,-5.855,3.204,16.0
0.0,0.0,0.0,0.0
151.572,-5.357,1.29,150.0
0.0,0.0,0.0,0.0
0.0,0.0,0.0,0.0
163.383,-5.62,4.085,20.0
162.212,-5.519,3.151,24.0
162.068,-5.455,2.244,24.0
151.823,-5.056,1.241,43.0
0.0,0.0,0.0,0.0
0.0,0.0,0.0,0.0
163.366,-5.282,4.025,22.0
162.339,-5.189,3.094,5.0
161.963,-5.116,2.183,30.0
160.606,-5.014,1.252,9.0
0.0,0.0,0.0,0.0
0.0,0.0,0.0,0.0
0.0,0.0,0.0,0.0
168.783,-5.043,3.148,7.0
161.921,-4.779,2.115,30.0
160.657,-4.686,1.186,11.0
0.0,0.0,0.0,0.0
0.0,0.0,0.0,0.0
0.0,0.0,0.0,0.0
178.098,-4.955,3.244,19.0
161.937,-4.447,2.043,25.0
160.655,-4.353,1.112,14.0
0.0,0.0,0.0,0.0
0.0,0.0,0.0,0.0
0.0,0.0,0.0,0.0
170.427,-4.39,3.021,6.0
161.915,-4.113,1.965,31.0
160.686,-4.024,1.034,20.0
0.0,0.0,0.0,0.0
0.0,0.0,0.0,0.0
0.0,0.0,0.0,0.0
170.345,-4.039,2.932,7.0
162.095,-3.784,1.882,23.0
160.737,-3.695,0.95,16.0
0.0,0.0,0.0,0.0
0.0,0.0,0.0,0.0
0.0,0.0,0.0,0.0
170.37,-3.687,2.838,7.0
163.657,-3.482,1.808,9.0
160.633,-3.36,0.857,14.0
0.0,0.0,0.0,0.0
0.0,0.0,0.0,0.0
0.0,0.0,0.0,0.0
0.0,0.0,0.0,0.0
163.254,-3.141,1.706,31.0
160.662,-3.034,0.76,3.0
0.0,0.0,0.0,0.0
0.0,0.0,0.0,0.0
170.455,-3.049,3.587,6.0
163.691,-2.871,2.525,19.0
163.127,-2.805,1.6,28.0
19.755,-0.332,0.08,0.0
0.0,0.0,0.0,0.0
0.0,0.0,0.0,0.0
172.155,-2.729,3.508,3.0
163.407,-2.532,2.411,19.0
19.744,-0.299,0.18,18.0
19.749,-0.292,0.067,9.0
0.0,0.0,0.0,0.0
0.0,0.0,0.0,0.0
19.777,-0.273,0.389,4.0
19.746,-0.266,0.277,10.0
19.743,-0.259,0.166,24.0
19.802,-0.253,0.053,0.0
0.0,0.0,0.0,0.0
0.0,0.0,0.0,0.0
19.746,-0.233,0.374,12.0
19.75,-0.226,0.262,5.0
160.697,-1.791,1.235,6.0
0.0,0.0,0.0,0.0
0.0,0.0,0.0,0.0
19.799,-0.2,-0.184,2.0
19.781,-0.194,0.359,3.0
169.541,-1.607,2.126,18.0
160.742,-1.468,1.108,18.0
0.0,0.0,0.0,0.0
19.756,-0.167,-0.088,11.0
19.75,-0.16,-0.199,15.0
177.231,-1.386,3.077,14.0
165.503,-1.237,1.939,4.0
19.775,-0.141,0.12,1.0
19.736,-0.134,0.006,10.0
19.716,-0.127,-0.104,16.0
19.731,-0.121,-0.216,17.0
19.692,-0.114,0.325,9.0
19.717,-0.108,0.214,15.0
19.707,-0.101,0.102,13.0
19.699,-0.095,-0.01,15.0
19.715,-0.089,-0.121,17.0
19.744,-0.082,-0.233,15.0
19.654,-0.076,0.307,10.0
19.682,-0.069,0.196,14.0
19.698,-0.063,0.085,15.0
19.693,-0.056,-0.027,17.0
19.741,-0.05,-0.139,14.0
19.757,-0.044,-0.251,5.0
19.627,-0.037,0.289,12.0
19.664,-0.031,0.178,9.0
19.686,-0.025,0.067,10.0
19.734,-0.018,-0.046,11.0
19.775,-0.012,-0.158,0.0
19.702,-0.006,-0.269,0.0
19.628,0.0,0.27,15.0
19.769,0.006,0.16,2.0
19.771,0.012,0.048,4.0
19.749,0.018,-0.065,38.0
19.748,0.025,-0.176,9.0
19.771,0.031,-0.289,15.0
19.627,0.037,0.251,15.0
19.75,0.043,0.141,26.0
19.741,0.05,0.029,31.0
19.764,0.056,-0.084,62.0
19.762,0.062,-0.196,40.0
19.774,0.068,-0.308,16.0
19.628,0.074,0.231,16.0
19.667,0.081,0.12,12.0
19.676,0.087,0.009,8.0
19.737,0.093,-0.104,0.0
0.0,0.0,0.0,0.0
32.487,0.174,-0.541,0.0
19.666,0.112,0.211,17.0
19.649,0.118,0.099,14.0
19.642,0.124,-0.011,14.0
19.651,0.13,-0.125,10.0
19.67,0.136,-0.236,0.0
32.145,0.232,-0.569,0.0
19.665,0.148,0.19,15.0
19.65,0.154,0.078,11.0
19.635,0.16,-0.033,15.0
19.636,0.166,-0.146,15.0
19.65,0.172,-0.258,15.0
19.668,0.178,-0.37,15.0
19.692,0.185,0.168,11.0
19.674,0.19,0.056,11.0
19.639,0.196,-0.055,10.0
19.623,0.202,-0.168,17.0
19.64,0.208,-0.28,17.0
19.653,0.214,-0.392,18.0
19.775,0.221,0.146,26.0
19.691,0.226,0.034,3.0
19.642,0.232,-0.077,14.0
19.632,0.237,-0.191,16.0
19.666,0.244,-0.303,15.0
19.671,0.249,-0.415,16.0
19.785,0.257,0.123,8.0
57.166,0.761,0.031,1.0
19.7,0.268,-0.101,9.0
19.666,0.273,-0.214,13.0
19.683,0.279,-0.327,9.0
19.696,0.285,-0.439,2.0
113.698,1.682,0.574,2.0
55.091,0.831,-0.035,9.0
44.367,0.681,-0.281,1.0
35.977,0.562,-0.436,2.0
31.065,0.495,-0.553,0.0
27.322,0.442,-0.642,1.0
55.171,0.912,0.21,52.0
52.47,0.881,-0.097,5.0
40.037,0.684,-0.302,1.0
32.488,0.564,-0.434,0.0
29.928,0.528,-0.57,0.0
26.689,0.478,-0.66,1.0
55.181,1.007,0.142,37.0
47.842,0.886,-0.149,1.0
36.958,0.694,-0.326,1.0
30.671,0.585,-0.448,0.0
28.394,0.549,-0.577,0.0
26.049,0.511,-0.678,0.0
55.175,1.1,0.071,1.0
44.953,0.908,-0.198,0.0
0.0,0.0,0.0,0.0
29.308,0.608,-0.466,4.0
25.84,0.543,-0.559,1.0
25.226,0.537,-0.69,2.0
54.678,1.182,-0.001,1.0
43.809,0.959,-0.251,1.0
34.47,0.763,-0.394,1.0
28.851,0.647,-0.497,1.0
24.402,0.553,-0.56,0.0
23.525,0.54,-0.674,1.0
0.0,0.0,0.0,0.0
39.995,0.94,-0.282,2.0
32.116,0.763,-0.41,0.0
27.542,0.662,-0.512,1.0
23.237,0.564,-0.565,0.0
22.133,0.543,-0.664,2.0
0.0,0.0,0.0,0.0
37.132,0.933,-0.313,2.0
30.376,0.771,-0.429,0.0
26.027,0.667,-0.519,1.0
22.387,0.58,-0.575,0.0
20.595,0.539,-0.647,0.0
40.112,1.061,-0.164,150.0
36.634,0.978,-0.359,4.0
29.482,0.795,-0.458,1.0
25.463,0.692,-0.544,3.0
21.703,0.596,-0.587,0.0
19.533,0.541,-0.64,0.0
40.023,1.121,-0.22,43.0
34.442,0.973,-0.386,1.0
28.471,0.811,-0.482,1.0
23.986,0.689,-0.546,0.0
20.778,0.602,-0.592,1.0
19.158,0.56,-0.656,0.0
39.94,1.179,-0.277,14.0
40.152,1.196,-0.509,2.0
27.4,0.822,-0.504,7.0
22.985,0.695,-0.557,0.0
20.242,0.617,-0.606,2.0
18.287,0.562,-0.652,1.0
39.991,1.241,-0.336,1.0
40.095,1.254,-0.567,1.0
25.919,0.816,-0.515,4.0
21.851,0.693,-0.561,0.0
19.442,0.621,-0.611,0.0
17.771,0.572,-0.66,0.0
40.14,1.304,-0.396,2.0
29.119,0.953,-0.454,2.0
25.007,0.824,-0.534,1.0
21.429,0.711,-0.582,2.0
19.199,0.642,-0.632,2.0
17.234,0.58,-0.666,1.0
40.12,1.361,-0.457,4.0
27.981,0.955,-0.479,4.0
23.806,0.818,-0.544,1.0
20.653,0.714,-0.592,3.0
18.404,0.641,-0.634,2.0
17.059,0.598,-0.685,0.0
31.614,1.116,-0.408,0.0
26.938,0.957,-0.502,3.0
22.527,0.805,-0.549,0.0
19.905,0.716,-0.601,3.0
18.141,0.656,-0.652,0.0
16.88,0.615,-0.704,0.0
29.82,1.093,-0.43,2.0
25.715,0.948,-0.519,2.0
21.66,0.803,-0.561,0.0
19.472,0.727,-0.618,3.0
17.51,0.657,-0.657,1.0
16.688,0.63,-0.722,0.0
28.787,1.094,-0.46,3.0
24.179,0.923,-0.525,3.0
21.065,0.809,-0.579,1.0
18.73,0.723,-0.624,3.0
17.219,0.669,-0.673,2.0
16.512,0.645,-0.74,0.0
27.536,1.082,-0.483,7.0
23.556,0.93,-0.549,19.0
20.174,0.801,-0.586,1.0
18.287,0.73,-0.638,3.0
16.988,0.681,-0.69,2.0
16.306,0.657,-0.757,1.0
26.664,1.081,-0.51,1.0
22.619,0.921,-0.563,3.0
19.71,0.807,-0.604,2.0
17.832,0.733,-0.65,3.0
16.813,0.695,-0.71,2.0
16.219,0.674,-0.779,2.0
23.682,0.989,-0.491,36.0
21.396,0.897,-0.567,3.0
18.989,0.8,-0.612,3.0
17.405,0.737,-0.663,2.0
16.607,0.706,-0.728,1.0
16.037,0.685,-0.796,3.0
23.657,1.016,-0.529,31.0
20.761,0.895,-0.583,2.0
18.462,0.799,-0.625,3.0
17.052,0.742,-0.677,2.0
16.403,0.717,-0.746,1.0
15.913,0.698,-0.816,1.0
23.272,1.026,-0.558,13.0
19.784,0.875,-0.588,2.0
18.018,0.801,-0.639,2.0
16.869,0.753,-0.697,2.0
16.236,0.727,-0.765,2.0
23.659,1.065,-1.251,0.0
23.608,1.066,-0.604,1.0
19.31,0.876,-0.606,3.0
17.504,0.797,-0.65,2.0
16.693,0.763,-0.718,2.0
16.058,0.737,-0.783,2.0
23.623,1.089,-1.289,1.0
20.971,0.97,-0.572,2.0
18.652,0.866,-0.616,3.0
17.172,0.8,-0.666,2.0
16.47,0.77,-0.736,2.0
15.956,0.749,-0.805,2.0
23.611,1.113,-1.328,1.0
19.962,0.944,-0.578,1.0
18.228,0.865,-0.632,3.0
16.966,0.808,-0.686,2.0
16.284,0.778,-0.754,2.0
23.639,1.134,-1.232,2.0
23.626,1.137,-1.368,1.0
19.543,0.943,-0.598,2.0
17.806,0.862,-0.647,2.0
16.776,0.815,-0.707,1.0
16.086,0.784,-0.772,2.0
23.601,1.155,-1.27,1.0
23.631,1.16,-1.408,2.0
18.838,0.927,-0.608,3.0
17.275,0.853,-0.657,1.0
16.564,0.82,-0.726,1.0
15.97,0.793,-0.794,2.0
23.613,1.177,-1.31,1.0
23.608,1.181,-1.447,1.0
18.355,0.92,-0.623,3.0
17.015,0.855,-0.676,2.0
16.332,0.823,-0.743,1.0
23.649,1.196,-1.215,1.0
23.606,1.198,-1.35,1.0
23.598,1.201,-1.486,0.0
17.964,0.916,-0.641,1.0
16.842,0.861,-0.698,2.0
16.165,0.829,-0.763,1.0
23.63,1.215,-1.254,0.0
23.619,1.218,-1.391,2.0
23.627,1.222,-1.528,1.0
17.397,0.901,-0.65,0.0
16.653,0.865,-0.718,1.0
15.993,0.833,-0.782,4.0
14.566,0.761,-0.798,0.0
23.669,1.24,-1.434,0.0
23.664,1.243,-1.571,0.0
17.067,0.898,-0.666,1.0
16.404,0.865,-0.735,1.0
15.893,0.84,-0.804,0.0
14.15,0.75,-0.799,0.0
13.28,0.706,-0.827,0.0
12.422,0.662,-0.845,0.0
16.898,0.901,-0.688,2.0
16.21,0.867,-0.754,1.0
15.136,0.811,-0.791,0.0
14.019,0.753,-0.815,0.0
13.023,0.701,-0.833,0.0
12.225,0.66,-0.853,0.0
16.729,0.904,-0.71,1.0
16.011,0.867,-0.772,3.0
14.703,0.798,-0.794,0.0
13.659,0.743,-0.818,0.0
12.686,0.692,-0.833,0.0
11.951,0.653,-0.854,0.0
16.471,0.901,-0.727,1.0
15.919,0.873,-0.795,1.0
14.436,0.793,-0.804,0.0
13.38,0.737,-0.824,0.0
12.514,0.691,-0.843,0.0
11.745,0.65,-0.86,0.0
16.258,0.9,-0.745,1.0
15.268,0.846,-0.788,0.0
14.116,0.784,-0.81,0.0
13.051,0.726,-0.826,0.0
12.325,0.687,-0.851,0.0
11.379,0.636,-0.852,0.0
16.051,0.897,-0.763,2.0
14.888,0.834,-0.794,0.0
13.765,0.772,-0.813,0.0
12.769,0.718,-0.83,0.0
12.033,0.678,-0.852,0.0
11.278,0.637,-0.864,0.0
15.961,0.901,-0.785,2.0
14.568,0.824,-0.801,0.0
13.418,0.76,-0.816,0.0
12.593,0.715,-0.84,0.0
11.776,0.67,-0.853,0.0
11.015,0.627,-0.862,0.0
15.426,0.878,-0.785,0.0
14.218,0.811,-0.806,0.0
13.187,0.753,-0.824,0.0
12.355,0.707,-0.845,0.0
11.627,0.667,-0.862,0.0
10.874,0.624,-0.869,0.0
14.93,0.857,-0.785,0.0
13.826,0.795,-0.807,0.0
12.934,0.744,-0.83,0.0
12.093,0.697,-0.847,0.0
11.348,0.655,-0.861,0.0
10.625,0.615,-0.868,0.0
14.756,0.853,-0.8,0.0
13.541,0.784,-0.813,0.0
12.676,0.735,-0.834,0.0
11.764,0.683,-0.844,0.0
11.137,0.648,-0.864,0.0
10.474,0.61,-0.873,0.0
14.356,0.835,-0.803,0.0
13.312,0.775,-0.821,0.0
12.355,0.721,-0.834,0.0
11.585,0.677,-0.85,0.0
10.934,0.64,-0.866,0.0
10.336,0.606,-0.879,0.0
13.924,0.814,-0.802,0.0
13.054,0.764,-0.827,0.0
12.182,0.714,-0.843,0.0
11.439,0.672,-0.859,0.0
10.778,0.634,-0.872,0.0
10.146,0.597,-0.88,0.0
13.697,0.805,-0.811,0.0
12.791,0.753,-0.832,0.0
12.034,0.709,-0.852,0.0
11.293,0.666,-0.866,0.0
10.588,0.625,-0.874,0.0
10.024,0.593,-0.886,0.0
13.368,0.789,-0.814,0.0
12.576,0.743,-0.839,0.0
11.724,0.694,-0.85,0.0
11.019,0.653,-0.864,0.0
10.401,0.617,-0.876,0.0
9.902,0.588,-0.891,0.0
13.204,0.782,-0.825,0.0
12.066,0.715,-0.824,0.0
11.497,0.682,-0.852,0.0
10.822,0.643,-0.866,0.0
10.209,0.607,-0.876,0.0
9.694,0.577,-0.888,0.0
12.905,0.767,-0.828,0.0
12.074,0.718,-0.844,0.0
11.359,0.676,-0.86,0.0
10.608,0.632,-0.866,0.0
9.978,0.595,-0.872,0.0
9.644,0.576,-0.9,0.0
12.655,0.753,-0.832,0.0
11.861,0.706,-0.849,0.0
11.098,0.662,-0.858,0.0
10.47,0.625,-0.872,0.0
9.976,0.596,-0.889,0.0
9.57,0.572,-0.908,0.0
12.459,0.743,-0.839,0.0
11.647,0.695,-0.852,0.0
10.903,0.651,-0.861,0.0
10.329,0.617,-0.876,0.0
9.746,0.583,-0.884,0.0
9.387,0.562,-0.906,0.0
12.189,0.727,-0.84,0.0
11.453,0.683,-0.856,0.0
10.778,0.644,-0.868,0.0
10.149,0.606,-0.877,0.0
9.68,0.579,-0.893,0.0
9.223,0.552,-0.905,0.0
12.042,0.718,-0.849,0.0
11.285,0.673,-0.861,0.0
10.613,0.634,-0.871,0.0
10.036,0.599,-0.883,0.0
9.635,0.576,-0.904,0.0
9.056,0.542,-0.902,0.0
11.786,0.702,-0.849,0.0
11.082,0.661,-0.863,0.0
10.421,0.622,-0.872,0.0
9.961,0.594,-0.892,0.0
9.497,0.567,-0.906,0.0
8.927,0.533,-0.903,0.0
11.557,0.688,-0.85,0.0
10.889,0.648,-0.864,0.0
10.289,0.613,-0.876,0.0
9.695,0.578,-0.883,0.0
9.331,0.556,-0.904,0.0
8.802,0.525,-0.904,0.0
11.454,0.68,-0.86,0.0
10.689,0.635,-0.864,0.0
10.155,0.604,-0.88,0.0
9.667,0.575,-0.895,0.0
9.206,0.547,-0.906,0.0
8.688,0.517,-0.906,0.0
11.233,0.665,-0.86,0.0
10.541,0.624,-0.868,0.0
10.065,0.596,-0.887,0.0
9.605,0.569,-0.904,0.0
9.047,0.536,-0.904,0.0
8.603,0.51,-0.909,0.0
11.057,0.653,-0.863,0.0
10.435,0.616,-0.875,0.0
9.908,0.585,-0.888,0.0
9.473,0.559,-0.905,0.0
8.897,0.526,-0.902,0.0
8.475,0.501,-0.908,0.0
10.84,0.638,-0.862,0.0
10.302,0.606,-0.878,0.0
9.729,0.572,-0.886,0.0
9.301,0.547,-0.902,0.0
8.789,0.517,-0.903,0.0
8.362,0.492,-0.908,0.0
8.455,0.286,-0.92,0.0
8.1,0.273,-0.927,0.0
7.754,0.26,-0.931,0.0
7.443,0.248,-0.937,0.0
7.21,0.239,-0.949,0.0
6.929,0.229,-0.952,0.0
8.413,0.275,-0.917,0.0
8.071,0.263,-0.925,0.0
7.779,0.252,-0.936,0.0
7.433,0.24,-0.937,0.0
7.183,0.23,-0.947,0.0
6.918,0.221,-0.951,0.0
8.434,0.266,-0.92,0.0
8.087,0.254,-0.928,0.0
7.739,0.242,-0.932,0.0
7.423,0.231,-0.937,0.0
7.188,0.222,-0.948,0.0
6.911,0.213,-0.951,0.0
8.416,0.256,-0.92,0.0
8.05,0.244,-0.925,0.0
7.72,0.233,-0.931,0.0
7.416,0.222,-0.937,0.0
7.173,0.214,-0.947,0.0
6.907,0.204,-0.951,0.0
8.424,0.247,-0.921,0.0
8.038,0.234,-0.924,0.0
7.716,0.224,-0.931,0.0
7.406,0.213,-0.936,0.0
7.172,0.205,-0.947,0.0
6.924,0.197,-0.954,0.0
8.396,0.236,-0.918,0.0
8.066,0.226,-0.927,0.0
7.747,0.215,-0.934,0.0
7.415,0.205,-0.937,0.0
7.169,0.197,-0.947,0.0
6.908,0.188,-0.951,0.0
8.4,0.227,-0.918,0.0
8.079,0.217,-0.929,0.0
7.757,0.207,-0.935,0.0
7.422,0.196,-0.938,0.0
7.155,0.188,-0.944,0.0
6.919,0.181,-0.953,0.0
8.446,0.218,-0.923,0.0
8.095,0.208,-0.93,0.0
7.745,0.197,-0.933,0.0
7.413,0.188,-0.936,0.0
7.169,0.18,-0.946,0.0
6.938,0.173,-0.954,0.0
8.429,0.208,-0.92,0.0
8.081,0.198,-0.927,0.0
7.765,0.189,-0.935,0.0
7.426,0.179,-0.937,0.0
7.165,0.172,-0.944,0.0
6.943,0.165,-0.954,0.0
8.453,0.199,-0.921,0.0
8.08,0.189,-0.926,0.0
7.757,0.18,-0.932,0.0
7.45,0.171,-0.938,0.0
7.198,0.164,-0.947,0.0
6.932,0.157,-0.951,0.0
8.5,0.19,-0.925,0.0
8.102,0.18,-0.927,0.0
7.769,0.171,-0.932,0.0
7.453,0.162,-0.937,0.0
7.229,0.156,-0.949,0.0
6.957,0.149,-0.953,0.0
8.491,0.18,-0.921,0.0
8.127,0.171,-0.927,0.0
7.8,0.162,-0.934,0.0
7.477,0.154,-0.938,0.0
7.259,0.148,-0.951,0.0
6.956,0.141,-0.951,0.0
8.51,0.17,-0.921,0.0
8.147,0.161,-0.927,0.0
7.836,0.154,-0.936,0.0
7.471,0.145,-0.935,0.0
7.227,0.139,-0.945,0.0
6.989,0.133,-0.953,0.0
8.555,0.161,-0.923,0.0
8.184,0.153,-0.929,0.0
7.855,0.145,-0.935,0.0
7.521,0.137,-0.938,0.0
7.256,0.131,-0.946,0.0
6.985,0.125,-0.95,0.0
8.554,0.151,-0.919,0.0
8.239,0.144,-0.931,0.0
7.862,0.136,-0.933,0.0
7.539,0.129,-0.937,0.0
7.27,0.123,-0.944,0.0
7.009,0.117,-0.95,0.0
8.629,0.142,-0.924,0.0
8.257,0.135,-0.93,0.0
7.898,0.127,-0.933,0.0
7.562,0.12,-0.936,0.0
7.279,0.114,-0.942,0.0
7.051,0.109,-0.952,0.0
8.648,0.133,-0.922,0.0
8.283,0.126,-0.929,0.0
7.93,0.119,-0.933,0.0
7.586,0.112,-0.936,0.0
7.296,0.106,-0.941,0.0
7.08,0.102,-0.952,0.0
8.676,0.123,-0.92,0.0
8.299,0.116,-0.926,0.0
7.963,0.11,-0.933,0.0
7.657,0.104,-0.94,0.0
7.351,0.099,-0.944,0.0
7.109,0.094,-0.952,0.0
8.735,0.114,-0.921,0.0
8.347,0.108,-0.927,0.0
7.976,0.101,-0.929,0.0
7.656,0.095,-0.935,0.0
7.397,0.091,-0.945,0.0
7.105,0.086,-0.947,0.0
8.777,0.105,-0.92,0.0
8.391,0.099,-0.926,0.0
8.018,0.093,-0.929,0.0
7.708,0.088,-0.937,0.0
7.411,0.083,-0.942,0.0
7.147,0.078,-0.948,0.0
8.844,0.096,-0.922,0.0
8.421,0.089,-0.924,0.0
8.083,0.084,-0.932,0.0
7.76,0.079,-0.938,0.0
7.473,0.075,-0.945,0.0
7.179,0.071,-0.947,0.0
8.868,0.086,-0.918,0.0
8.483,0.081,-0.925,0.0
8.126,0.076,-0.931,0.0
7.791,0.071,-0.936,0.0
7.508,0.067,-0.944,0.0
7.245,0.063,-0.951,0.0
8.928,0.077,-0.918,0.0
8.568,0.072,-0.927,0.0
8.146,0.067,-0.927,0.0
7.845,0.063,-0.936,0.0
7.535,0.059,-0.941,0.0
7.266,0.055,-0.947,0.0
9.025,0.068,-0.92,0.0
8.626,0.063,-0.927,0.0
8.253,0.059,-0.932,0.0
7.9,0.055,-0.936,0.0
7.584,0.051,-0.941,0.0
7.298,0.048,-0.946,0.0
9.081,0.059,-0.918,0.0
8.681,0.054,-0.925,0.0
8.3,0.05,-0.93,0.0
7.939,0.046,-0.934,0.0
7.643,0.043,-0.941,0.0
7.359,0.04,-0.947,0.0
9.119,0.049,-0.914,0.0
8.749,0.045,-0.925,0.0
8.344,0.042,-0.928,0.0
8.007,0.038,-0.935,0.0
7.684,0.035,-0.939,0.0
7.374,0.032,-0.942,0.0
9.233,0.04,-0.917,0.0
8.826,0.037,-0.925,0.0
8.434,0.033,-0.93,0.0
8.069,0.03,-0.935,0.0
7.751,0.027,-0.94,0.0
7.437,0.025,-0.943,0.0
9.34,0.031,-0.919,0.0
8.909,0.028,-0.925,0.0
8.509,0.025,-0.93,0.0
8.107,0.022,-0.931,0.0
7.821,0.02,-0.941,0.0
7.516,0.017,-0.945,0.0
9.397,0.021,-0.915,0.0
8.936,0.019,-0.919,0.0
8.588,0.016,-0.93,0.0
8.169,0.014,-0.93,0.0
7.895,0.012,-0.942,0.0
7.574,0.01,-0.945,0.0
9.491,0.012,-0.914,0.0
9.041,0.01,-0.92,0.0
8.656,0.008,-0.928,0.0
8.279,0.006,-0.933,0.0
7.944,0.004,-0.939,0.0
7.642,0.003,-0.945,0.0
9.602,0.003,-0.915,0.0
9.144,0.001,-0.92,0.0
8.725,0.0,-0.926,0.0
8.217,-0.001,-0.917,0.0
8.014,-0.003,-0.938,0.0
7.702,-0.004,-0.943,0.0
9.694,-0.005,-0.913,0.0
9.22,-0.007,-0.918,0.0
8.803,-0.008,-0.924,0.0
8.347,-0.009,-0.922,0.0
8.086,-0.01,-0.937,0.0
7.761,-0.011,-0.942,0.0
9.782,-0.015,-0.909,0.0
9.347,-0.016,-0.919,0.0
8.905,-0.017,-0.924,0.0
8.497,-0.017,-0.928,0.0
8.125,-0.018,-0.932,0.0
7.825,-0.019,-0.94,0.0
9.934,-0.024,-0.911,0.0
9.456,-0.025,-0.918,0.0
8.965,-0.025,-0.919,0.0
8.631,-0.026,-0.932,0.0
8.227,-0.026,-0.933,0.0
7.895,-0.026,-0.938,0.0
10.04,-0.033,-0.909,0.0
9.577,-0.034,-0.918,0.0
9.127,-0.033,-0.924,0.0
8.663,-0.033,-0.925,0.0
8.348,-0.034,-0.936,0.0
7.984,-0.033,-0.939,0.0
10.186,-0.043,-0.909,0.0
9.671,-0.042,-0.915,0.0
9.213,-0.042,-0.921,0.0
8.813,-0.041,-0.929,0.0
8.402,-0.041,-0.931,0.0
8.053,-0.041,-0.936,0.0
10.314,-0.052,-0.907,0.0
9.784,-0.051,-0.913,0.0
9.267,-0.05,-0.914,0.0
8.901,-0.049,-0.927,0.0
8.514,-0.049,-0.932,0.0
8.159,-0.048,-0.937,0.0
10.445,-0.061,-0.904,0.0
9.949,-0.06,-0.914,0.0
9.456,-0.059,-0.92,0.0
9.014,-0.057,-0.926,0.0
8.586,-0.056,-0.928,0.0
8.261,-0.055,-0.938,0.0
10.592,-0.071,-0.902,0.0
10.069,-0.069,-0.911,0.0
9.579,-0.067,-0.918,0.0
9.137,-0.065,-0.926,0.0
8.765,-0.064,-0.935,0.0
8.337,-0.062,-0.934,0.0
10.76,-0.08,-0.901,0.0
10.189,-0.077,-0.908,0.0
9.695,-0.075,-0.915,0.0
9.205,-0.073,-0.919,0.0
8.838,-0.071,-0.93,0.0
8.443,-0.069,-0.934,0.0
10.91,-0.089,-0.898,0.0
10.356,-0.086,-0.908,0.0
9.829,-0.083,-0.914,0.0
9.355,-0.081,-0.921,0.0
8.925,-0.078,-0.926,0.0
8.539,-0.076,-0.932,0.0
11.101,-0.099,-0.897,0.0
10.507,-0.095,-0.905,0.0
9.971,-0.092,-0.912,0.0
9.492,-0.088,-0.92,0.0
9.082,-0.086,-0.929,0.0
8.667,-0.083,-0.933,0.0
11.262,-0.108,-0.893,0.0
10.686,-0.104,-0.904,0.0
10.144,-0.1,-0.912,0.0
9.633,-0.096,-0.919,0.0
9.168,-0.093,-0.923,0.0
8.761,-0.09,-0.929,0.0
11.45,-0.117,-0.891,0.0
10.821,-0.112,-0.899,0.0
10.267,-0.108,-0.907,0.0
9.786,-0.104,-0.918,0.0
9.33,-0.101,-0.925,0.0
8.883,-0.097,-0.928,0.0
11.618,-0.126,-0.885,0.0
11.043,-0.121,-0.9,0.0
10.447,-0.116,-0.907,0.0
9.92,-0.112,-0.914,0.0
9.479,-0.108,-0.924,0.0
9.037,-0.104,-0.929,0.0
11.852,-0.136,-0.884,0.0
11.206,-0.13,-0.895,0.0
10.64,-0.125,-0.906,0.0
10.086,-0.119,-0.913,0.0
9.646,-0.115,-0.925,0.0
9.14,-0.111,-0.925,0.0
12.087,-0.145,-0.882,0.0
11.427,-0.139,-0.894,0.0
10.805,-0.133,-0.902,0.0
10.256,-0.127,-0.912,0.0
9.749,-0.122,-0.918,0.0
9.281,-0.117,-0.923,0.0
12.281,-0.154,-0.875,0.0
11.593,-0.147,-0.887,0.0
10.985,-0.141,-0.899,0.0
10.41,-0.134,-0.908,0.0
9.903,-0.129,-0.916,0.0
9.46,-0.124,-0.925,0.0
12.604,-0.165,-0.877,0.0
11.807,-0.156,-0.884,0.0
11.18,-0.148,-0.896,0.0
10.605,-0.142,-0.907,0.0
10.103,-0.136,-0.917,0.0
9.61,-0.131,-0.923,0.0
12.817,-0.173,-0.87,0.0
12.038,-0.164,-0.88,0.0
11.395,-0.157,-0.893,0.0
10.796,-0.15,-0.904,0.0
10.232,-0.143,-0.911,0.0
9.752,-0.137,-0.92,0.0
13.047,-0.182,-0.863,0.0
12.319,-0.173,-0.88,0.0
11.561,-0.164,-0.886,0.0
10.963,-0.156,-0.899,0.0
10.446,-0.15,-0.911,0.0
9.924,-0.143,-0.918,0.0
13.361,-0.192,-0.861,0.0
12.57,-0.182,-0.875,0.0
11.815,-0.172,-0.885,0.0
11.186,-0.164,-0.897,0.0
10.611,-0.156,-0.907,0.0
10.096,-0.15,-0.916,0.0
13.668,-0.201,-0.856,0.0
12.887,-0.191,-0.874,0.0
12.085,-0.18,-0.883,0.0
11.415,-0.171,-0.895,0.0
10.839,-0.164,-0.907,0.0
10.262,-0.156,-0.912,0.0
14.015,-0.211,-0.852,0.0
13.149,-0.199,-0.868,0.0
12.351,-0.188,-0.88,0.0
11.59,-0.177,-0.887,0.0
11.026,-0.17,-0.902,0.0
10.469,-0.162,-0.911,0.0
14.367,-0.221,-0.847,0.0
13.4,-0.207,-0.86,0.0
12.582,-0.195,-0.873,0.0
11.903,-0.186,-0.889,0.0
11.239,-0.176,-0.899,0.0
10.651,-0.168,-0.907,0.0
14.832,-0.232,-0.847,0.0
13.711,-0.215,-0.855,0.0
12.902,-0.203,-0.871,0.0
12.096,-0.191,-0.881,0.0
11.455,-0.182,-0.895,0.0
10.897,-0.174,-0.908,0.0
15.2,-0.241,-0.84,0.0
14.128,-0.225,-0.854,0.0
13.198,-0.211,-0.867,0.0
12.372,-0.198,-0.878,0.0
11.699,-0.188,-0.891,0.0
11.073,-0.179,-0.902,0.0
15.678,-0.251,-0.837,0.0
14.549,-0.234,-0.852,0.0
13.477,-0.218,-0.859,0.0
12.658,-0.205,-0.874,0.0
11.927,-0.194,-0.886,0.0
11.298,-0.184,-0.898,0.0
16.073,-0.26,-0.827,0.0
14.924,-0.242,-0.845,0.0
13.854,-0.226,-0.857,0.0
12.976,-0.212,-0.871,0.0
12.203,-0.2,-0.883,0.0
11.521,-0.189,-0.894,0.0
16.714,-0.273,-0.828,0.0
15.399,-0.252,-0.843,0.0
14.236,-0.233,-0.853,0.0
13.265,-0.218,-0.865,0.0
12.495,-0.206,-0.88,0.0
11.783,-0.194,-0.891,0.0
17.119,-0.281,-0.815,0.0
15.809,-0.26,-0.835,0.0
14.707,-0.242,-0.853,0.0
13.648,-0.225,-0.864,0.0
12.81,-0.212,-0.877,0.0
12.022,-0.199,-0.886,0.0
17.759,-0.292,-0.811,0.0
16.35,-0.269,-0.831,0.0
15.088,-0.249,-0.846,0.0
13.995,-0.231,-0.859,0.0
13.111,-0.217,-0.872,0.0
12.331,-0.204,-0.885,0.0
18.493,-0.304,-0.809,0.0
16.88,-0.278,-0.826,0.0
15.548,-0.256,-0.841,0.0
14.323,-0.236,-0.85,0.0
13.385,-0.221,-0.864,0.0
12.611,-0.208,-0.88,0.0
19.039,-0.312,-0.795,0.0
17.297,-0.284,-0.812,0.0
16.003,-0.263,-0.834,0.0
14.843,-0.244,-0.852,0.0
13.767,-0.226,-0.861,0.0
12.919,-0.212,-0.875,0.0
19.693,-0.321,-0.783,0.0
17.981,-0.294,-0.808,0.0
16.573,-0.271,-0.83,0.0
15.25,-0.249,-0.845,0.0
14.163,-0.231,-0.858,0.0
13.226,-0.216,-0.87,0.0
20.387,-0.33,-0.77,0.0
18.74,-0.304,-0.805,0.0
17.022,-0.276,-0.819,0.0
15.7,-0.254,-0.838,0.0
14.615,-0.237,-0.856,0.0
13.572,-0.22,-0.865,0.0
21.166,-0.34,-0.758,0.0
19.366,-0.311,-0.793,0.0
17.657,-0.283,-0.814,0.0
16.217,-0.26,-0.833,0.0
15.019,-0.241,-0.85,0.0
13.932,-0.223,-0.86,0.0
21.865,-0.347,-0.738,2.0
19.991,-0.317,-0.778,0.0
18.381,-0.291,-0.811,0.0
16.812,-0.266,-0.83,0.0
15.492,-0.245,-0.845,0.0
14.304,-0.226,-0.854,0.0
22.849,-0.357,-0.726,0.0
20.658,-0.323,-0.763,0.0
19.022,-0.297,-0.801,0.0
17.349,-0.27,-0.822,0.0
15.899,-0.247,-0.835,0.0
14.818,-0.23,-0.855,0.0
23.97,-0.369,-0.714,0.0
21.584,-0.331,-0.754,0.0
19.669,-0.301,-0.788,0.0
17.915,-0.274,-0.813,0.0
16.534,-0.252,-0.835,0.0
15.227,-0.232,-0.848,0.0
25.142,-0.379,-0.698,0.0
22.421,-0.337,-0.738,0.0
20.132,-0.302,-0.767,0.0
18.669,-0.279,-0.809,0.0
16.999,-0.254,-0.825,0.0
15.667,-0.233,-0.841,0.0
26.11,-0.385,-0.672,0.0
23.397,-0.344,-0.723,0.0
20.921,-0.306,-0.755,0.0
19.271,-0.281,-0.796,1.0
17.651,-0.257,-0.82,0.0
16.285,-0.236,-0.841,0.0
27.666,-0.397,-0.656,0.0
24.631,-0.352,-0.711,0.0
21.994,-0.313,-0.748,0.0
19.85,-0.282,-0.78,2.0
18.268,-0.258,-0.812,0.0
16.725,-0.235,-0.83,0.0
28.732,-0.4,-0.623,0.0
25.709,-0.357,-0.69,0.0
22.755,-0.314,-0.728,0.0
19.913,-0.274,-0.742,2.0
19.023,-0.26,-0.807,1.0
17.323,-0.236,-0.824,0.0
30.347,-0.409,-0.596,0.0
26.687,-0.358,-0.662,0.0
24.031,-0.32,-0.72,0.0
21.528,-0.286,-0.758,0.0
19.66,-0.259,-0.794,1.0
17.799,-0.234,-0.811,0.0
32.356,-0.42,-0.571,0.0
0.0,0.0,0.0,0.0
25.186,-0.323,-0.703,0.0
22.261,-0.284,-0.739,1.0
19.799,-0.251,-0.759,5.0
18.682,-0.235,-0.813,0.0
35.126,-0.437,-0.548,0.0
29.546,-0.365,-0.613,0.0
26.207,-0.322,-0.679,0.0
23.213,-0.283,-0.723,0.0
19.869,-0.24,-0.722,0.0
19.34,-0.232,-0.802,1.0
35.12,-0.417,-0.477,0.0
0.0,0.0,0.0,0.0
27.7,-0.324,-0.662,0.0
24.488,-0.284,-0.714,0.0
21.934,-0.252,-0.753,1.0
19.684,-0.224,-0.777,5.0
0.0,0.0,0.0,0.0
33.267,-0.372,-0.557,0.0
28.974,-0.321,-0.634,0.0
25.605,-0.281,-0.695,0.0
22.715,-0.247,-0.734,0.0
19.784,-0.213,-0.741,8.0
42.444,-0.45,-0.405,0.0
35.365,-0.372,-0.52,0.0
30.283,-0.315,-0.601,0.0
26.564,-0.273,-0.667,0.0
23.787,-0.242,-0.72,0.0
19.833,-0.2,-0.703,0.0
19.72,-0.196,-0.149,0.0
19.802,-0.194,-0.251,2.0
19.772,-0.192,-0.353,5.0
19.762,-0.189,-0.457,3.0
24.959,-0.236,-0.706,0.0
22.376,-0.209,-0.748,0.0
19.788,-0.182,-0.109,1.0
19.775,-0.179,-0.211,9.0
19.765,-0.177,-0.313,8.0
19.751,-0.174,-0.417,11.0
19.757,-0.172,-0.519,10.0
19.771,-0.17,-0.622,8.0
19.781,-0.167,-0.07,6.0
19.758,-0.164,-0.172,12.0
19.74,-0.161,-0.274,13.0
19.734,-0.159,-0.378,15.0
19.742,-0.156,-0.48,17.0
19.756,-0.154,-0.582,16.0
19.797,-0.151,-0.031,1.0
19.747,-0.148,-0.133,13.0
19.737,-0.145,-0.235,16.0
19.73,-0.143,-0.339,17.0
19.738,-0.14,-0.441,17.0
19.745,-0.137,-0.543,17.0
19.752,-0.134,0.007,7.0
19.726,-0.131,-0.094,13.0
19.728,-0.129,-0.196,16.0
19.726,-0.126,-0.3,16.0
19.74,-0.123,-0.403,17.0
19.735,-0.12,-0.505,16.0
19.741,-0.117,0.045,10.0
19.743,-0.114,-0.056,9.0
19.716,-0.111,-0.158,16.0
19.725,-0.108,-0.262,16.0
19.742,-0.106,-0.364,15.0
19.741,-0.103,-0.467,16.0
19.731,-0.099,0.083,12.0
19.714,-0.096,-0.018,13.0
19.719,-0.093,-0.12,16.0
19.717,-0.09,-0.224,16.0
19.763,-0.087,-0.326,15.0
19.75,-0.084,-0.429,14.0
19.711,-0.081,0.121,15.0
19.703,-0.078,0.019,14.0
19.717,-0.074,-0.082,11.0
19.722,-0.071,-0.186,16.0
19.748,-0.068,-0.288,14.0
19.778,-0.065,-0.391,9.0
19.697,-0.062,0.159,17.0
19.704,-0.058,0.057,14.0
19.712,-0.055,-0.044,17.0
19.712,-0.052,-0.148,14.0
19.754,-0.049,-0.251,15.0
19.775,-0.045,-0.353,1.0
19.656,-0.041,0.196,15.0
19.693,-0.038,0.095,17.0
19.703,-0.035,-0.007,16.0
19.732,-0.031,-0.111,10.0
19.748,-0.028,-0.213,7.0
0.0,0.0,0.0,0.0
19.641,-0.021,0.233,15.0
19.689,-0.017,0.132,4.0
19.698,-0.014,0.03,13.0
19.731,-0.01,-0.074,8.0
19.749,-0.007,-0.176,1.0
36.132,-0.006,-0.51,0.0
19.626,0.0,0.27,14.0
19.687,0.003,0.168,8.0
19.789,0.007,0.067,4.0
19.741,0.01,-0.037,9.0
19.787,0.014,-0.14,1.0
19.778,0.018,-0.243,1.0
19.627,0.021,0.306,17.0
19.631,0.025,0.204,16.0
19.748,0.029,0.103,16.0
19.733,0.032,-0.001,16.0
19.745,0.036,-0.104,9.0
19.761,0.04,-0.206,16.0
19.62,0.044,0.342,16.0
19.619,0.047,0.24,13.0
19.735,0.051,0.139,13.0
19.743,0.055,0.034,38.0
19.753,0.059,-0.068,36.0
19.762,0.063,-0.17,53.0
19.617,0.067,0.377,22.0
19.621,0.07,0.275,13.0
19.642,0.074,0.173,12.0
19.683,0.079,0.069,18.0
19.742,0.083,-0.032,18.0
19.764,0.087,-0.135,5.0
19.617,0.09,0.412,26.0
19.612,0.094,0.31,21.0
19.635,0.098,0.208,12.0
19.653,0.102,0.104,12.0
19.65,0.107,0.002,11.0
19.697,0.111,-0.1,4.0
19.613,0.115,0.447,24.0
19.609,0.119,0.345,14.0
19.616,0.123,0.242,10.0
19.648,0.127,0.138,15.0
19.643,0.131,0.036,14.0
19.649,0.135,-0.066,11.0
19.606,0.139,0.481,15.0
19.606,0.144,0.379,12.0
19.625,0.148,0.277,10.0
19.654,0.152,0.172,14.0
19.641,0.157,0.07,12.0
19.644,0.161,-0.032,20.0
19.617,0.165,0.515,12.0
19.638,0.169,0.413,10.0
19.645,0.174,0.31,8.0
19.645,0.178,0.205,11.0
19.666,0.182,0.103,12.0
19.649,0.187,0.0,14.0
19.681,0.192,0.55,10.0
19.701,0.196,0.448,9.0
19.712,0.201,0.345,9.0
19.728,0.205,0.24,9.0
19.732,0.21,0.136,16.0
19.677,0.214,0.033,12.0
19.678,0.218,0.583,10.0
19.696,0.223,0.48,10.0
19.712,0.227,0.377,10.0
19.733,0.232,0.272,12.0
19.765,0.237,0.169,29.0
84.84,1.038,0.283,15.0
19.656,0.245,0.614,15.0
19.659,0.249,0.511,13.0
19.676,0.254,0.408,10.0
19.699,0.259,0.304,12.0
19.752,0.264,0.2,25.0
19.787,0.269,0.097,3.0
19.651,0.272,0.646,15.0
19.657,0.277,0.542,14.0
19.687,0.282,0.44,10.0
19.695,0.287,0.335,13.0
19.748,0.292,0.232,3.0
160.692,2.419,1.046,8.0
19.649,0.3,0.677,9.0
19.674,0.305,0.574,10.0
19.704,0.31,0.471,7.0
19.721,0.315,0.366,2.0
55.196,0.897,0.734,5.0
55.194,0.91,0.444,34.0
55.208,0.924,1.988,43.0
55.188,0.937,1.696,40.0
55.165,0.95,1.405,70.0
55.168,0.963,1.108,77.0
55.154,0.977,0.818,76.0
55.161,0.991,0.528,71.0
55.195,1.006,2.072,54.0
55.199,1.019,1.781,46.0
55.206,1.032,1.489,37.0
55.191,1.046,1.192,19.0
55.217,1.06,0.902,4.0
162.919,3.169,1.801,27.0
121.214,2.389,4.73,18.0
135.216,2.699,4.561,21.0
134.828,2.725,3.836,18.0
185.826,3.803,4.288,8.0
179.358,3.715,3.191,23.0
128.683,2.698,1.61,18.0
121.253,2.576,4.909,19.0
121.257,2.605,4.267,8.0
135.099,2.936,4.038,19.0
135.233,2.973,3.314,11.0
179.205,3.985,3.443,34.0
128.706,2.895,1.793,30.0
121.352,2.764,5.086,12.0
121.043,2.787,4.431,22.0
114.047,2.655,3.571,4.0
98.708,2.322,2.556,83.0
98.887,2.352,2.038,88.0
98.916,2.378,1.515,51.0
129.012,3.139,5.587,5.0
113.61,2.794,4.316,24.0
121.61,3.021,3.974,8.0
115.438,2.898,3.149,12.0
45.478,1.153,0.999,1.0
45.511,1.165,0.758,11.0
0.0,0.0,0.0,0.0
43.698,1.143,1.719,77.0
0.0,0.0,0.0,0.0
0.0,0.0,0.0,0.0
0.0,0.0,0.0,0.0
43.696,1.188,0.785,46.0
0.0,0.0,0.0,0.0
0.0,0.0,0.0,0.0
41.864,1.173,1.479,32.0
40.12,1.134,1.2,94.0
40.116,1.145,0.986,150.0
40.114,1.155,0.773,150.0
40.115,1.168,1.896,124.0
40.12,1.178,1.682,137.0
40.11,1.188,1.468,136.0
40.115,1.199,1.251,150.0
40.113,1.209,1.036,150.0
40.119,1.22,0.823,150.0
40.12,1.233,1.946,108.0
40.125,1.243,1.732,91.0
40.11,1.254,1.518,141.0
40.11,1.264,1.3,150.0
40.12,1.275,1.085,150.0
40.117,1.285,0.871,150.0
40.124,1.299,1.996,110.0
40.104,1.309,1.78,64.0
40.104,1.32,1.566,12.0
40.094,1.33,1.347,3.0
121.216,4.054,3.426,17.0
40.107,1.352,0.919,0.0
121.14,4.125,6.169,21.0
120.317,4.129,5.483,16.0
120.328,4.161,4.839,19.0
120.62,4.203,4.192,21.0
121.174,4.254,3.563,7.0
163.365,5.78,3.931,7.0
121.044,4.325,6.303,22.0
120.352,4.332,5.622,16.0
120.098,4.354,4.966,22.0
120.503,4.402,4.325,17.0
163.27,6.009,4.985,4.0
0.0,0.0,0.0,0.0
121.057,4.532,6.44,23.0
134.348,5.064,6.425,16.0
120.306,4.566,5.106,13.0
178.618,6.827,6.604,10.0
162.666,6.26,5.141,13.0
40.4,1.566,1.06,150.0
120.895,4.729,6.56,22.0
134.326,5.291,6.566,12.0
179.256,7.109,7.798,16.0
178.569,7.128,6.788,16.0
162.537,6.531,5.305,10.0
45.209,1.829,1.233,11.0
120.792,4.932,6.679,22.0
121.133,4.977,6.044,9.0
179.372,7.417,7.984,11.0
178.75,7.44,6.976,14.0
23.59,0.988,0.793,0.0
23.613,0.995,0.667,4.0
23.608,1.004,1.329,22.0
23.6,1.01,1.2,36.0
23.6,1.016,1.073,41.0
23.594,1.022,0.943,45.0
23.591,1.028,0.816,43.0
23.589,1.034,0.688,52.0
23.57,1.043,1.349,61.0
23.572,1.049,1.221,70.0
23.565,1.055,1.093,73.0
23.574,1.061,0.964,74.0
23.576,1.068,0.837,68.0
23.575,1.074,0.71,70.0
23.576,1.084,1.371,79.0
23.573,1.09,1.243,76.0
23.568,1.096,1.115,64.0
23.57,1.102,0.985,51.0
23.588,1.11,0.858,46.0
23.599,1.117,0.731,41.0
23.585,1.125,1.392,44.0
23.61,1.133,1.265,35.0
23.579,1.138,1.136,17.0
23.594,1.145,1.006,6.0
23.6,1.151,0.878,1.0
162.606,7.978,5.175,7.0
0.0,0.0,0.0,0.0
0.0,0.0,0.0,0.0
0.0,0.0,0.0,0.0
180.173,9.056,7.83,14.0
179.64,9.078,6.833,15.0
162.576,8.26,5.303,13.0
0.0,0.0,0.0,0.0
0.0,0.0,0.0,0.0
0.0,0.0,0.0,0.0
213.993,11.129,9.466,6.0
179.973,9.406,6.982,20.0
162.597,8.542,5.425,7.0
45.546,2.413,2.797,5.0
0.0,0.0,0.0,0.0
0.0,0.0,0.0,0.0
0.0,0.0,0.0,0.0
181.049,9.778,7.153,16.0
180.701,9.806,6.157,9.0
45.545,2.492,2.829,34.0
0.0,0.0,0.0,0.0
0.0,0.0,0.0,0.0
0.0,0.0,0.0,0.0
0.0,0.0,0.0,0.0
0.0,0.0,0.0,0.0
45.55,2.572,2.86,96.0
0.0,0.0,0.0,0.0
206.009,11.738,10.682,6.0
204.482,11.705,9.466,5.0
200.664,11.537,8.192,9.0
198.308,11.455,7.015,17.0
0.0,0.0,0.0,0.0
0.0,0.0,0.0,0.0
0.0,0.0,0.0,0.0
203.772,12.018,9.556,9.0
198.435,11.756,8.222,18.0
197.883,11.773,7.116,18.0
0.0,0.0,0.0,0.0
0.0,0.0,0.0,0.0
204.821,12.384,10.863,8.0
203.734,12.371,9.669,7.0
198.529,12.104,8.334,17.0
197.518,12.095,7.211,19.0
0.0,0.0,0.0,0.0
112.312,6.959,6.634,2.0
112.429,6.993,6.022,3.0
112.267,7.012,5.387,5.0
112.395,7.05,4.777,4.0
112.277,7.071,4.157,2.0
43.755,2.777,2.847,120.0
100.229,6.386,5.97,12.0
99.969,6.394,5.405,19.0
99.949,6.418,4.845,26.0
99.966,6.445,4.296,33.0
99.962,6.47,3.747,37.0
43.771,2.854,2.868,150.0
99.934,6.542,5.999,32.0
99.955,6.567,5.449,36.0
99.951,6.592,4.889,34.0
99.96,6.618,4.34,43.0
99.963,6.643,3.79,36.0
0.0,0.0,0.0,0.0
45.562,3.061,2.754,150.0
99.938,6.74,5.489,35.0
99.941,6.765,4.928,37.0
99.952,6.79,4.378,35.0
99.965,6.817,3.829,35.0
0.0,0.0,0.0,0.0
0.0,0.0,0.0,0.0
99.952,6.916,5.527,31.0
99.955,6.94,4.965,35.0
99.966,6.965,4.415,34.0
99.974,6.991,3.863,35.0
0.0,0.0,0.0,0.0
43.769,3.093,2.676,143.0
45.499,3.226,2.531,7.0
45.45,3.233,2.272,11.0
45.444,3.244,2.021,74.0
45.464,3.257,1.771,150.0
43.692,3.153,2.927,4.0
0.0,0.0,0.0,0.0
45.456,3.301,2.541,150.0
45.456,3.311,2.285,150.0
45.462,3.322,2.034,150.0
45.465,3.334,1.783,117.0
41.96,3.099,2.822,102.0
41.955,3.108,2.588,94.0
43.673,3.245,2.452,96.0
43.678,3.256,2.205,122.0
43.689,3.266,1.964,126.0
43.674,3.276,1.722,150.0
40.174,3.034,2.71,150.0
41.966,3.179,2.597,100.0
43.67,3.318,2.46,136.0
43.681,3.329,2.214,130.0
43.685,3.339,1.972,130.0
0.0,0.0,0.0,0.0
40.175,3.102,2.717,150.0
0.0,0.0,0.0,0.0
41.883,3.252,2.366,104.0
41.883,3.262,2.13,120.0
41.896,3.272,1.897,116.0
41.881,3.281,1.664,138.0
40.172,3.169,2.722,150.0
41.879,3.313,2.605,125.0
41.884,3.322,2.371,112.0
41.853,3.329,2.133,84.0
0.0,0.0,0.0,0.0
0.0,0.0,0.0,0.0
40.077,3.228,2.72,150.0
40.091,3.237,2.497,119.0
40.095,3.246,2.273,118.0
40.091,3.255,2.046,124.0
40.084,3.263,1.822,150.0
40.092,3.273,1.6,150.0
40.081,3.294,2.722,150.0
40.083,3.302,2.498,133.0
40.087,3.311,2.275,118.0
40.084,3.32,2.047,113.0
40.087,3.329,1.823,147.0
40.089,3.338,1.6,150.0
40.083,3.359,2.723,150.0
40.092,3.368,2.499,123.0
40.097,3.377,2.275,116.0
40.094,3.385,2.047,98.0
40.101,3.394,1.823,111.0
40.094,3.402,1.6,114.0
87.067,7.436,5.913,23.0
87.08,7.454,5.425,31.0
87.071,7.471,4.937,54.0
87.072,7.49,4.442,113.0
87.08,7.509,3.955,127.0
87.093,7.529,3.47,108.0
87.044,7.572,5.905,11.0
87.071,7.592,5.419,8.0
87.08,7.61,4.93,7.0
87.064,7.627,4.433,10.0
87.155,7.653,3.951,4.0
87.03,7.66,3.459,1.0
82.941,7.346,5.618,4.0
82.968,7.364,5.154,5.0
82.973,7.38,4.689,4.0
82.937,7.393,4.213,7.0
82.936,7.41,3.749,9.0
82.927,7.427,3.284,10.0
82.91,7.472,5.604,51.0
82.91,7.487,5.137,92.0
82.898,7.502,4.671,113.0
82.908,7.519,4.198,75.0
82.916,7.536,3.733,69.0
82.917,7.553,3.269,47.0
82.906,7.598,5.588,8.0
82.929,7.614,5.123,9.0
82.918,7.629,4.656,6.0
82.903,7.643,4.181,59.0
83.01,7.669,3.72,4.0
83.022,7.687,3.255,3.0
85.877,7.998,5.77,3.0
85.876,8.013,5.285,4.0
85.861,8.027,4.801,8.0
82.903,7.766,4.161,45.0
85.667,8.042,3.819,4.0
85.715,8.063,3.339,10.0
84.744,8.018,5.671,10.0
84.632,8.023,5.186,9.0
84.482,8.024,4.701,10.0
82.926,7.891,4.139,7.0
84.227,8.03,3.731,6.0
84.311,8.054,3.261,9.0
83.729,8.044,5.578,10.0
83.562,8.042,5.096,10.0
83.372,8.038,4.614,10.0
82.94,8.011,4.113,7.0
83.06,8.038,3.652,8.0
83.006,8.048,3.183,6.0
75.089,7.321,4.977,1.0
75.034,7.328,4.55,2.0
75.123,7.35,4.131,2.0
75.153,7.366,3.701,3.0
75.146,7.378,3.278,4.0
74.936,7.371,2.846,1.0
75.095,7.428,4.95,10.0
75.057,7.437,4.523,11.0
75.06,7.449,4.098,13.0
75.058,7.462,3.667,18.0
75.063,7.475,3.244,21.0
74.94,7.476,2.816,1.0
75.049,7.527,4.916,89.0
75.052,7.539,4.492,71.0
75.043,7.55,4.066,45.0
75.047,7.563,3.635,33.0
75.058,7.577,3.212,31.0
64.028,6.474,2.378,2.0
75.108,7.635,4.887,7.0
75.09,7.645,4.46,6.0
75.071,7.653,4.034,45.0
75.116,7.67,3.604,6.0
75.16,7.687,3.181,4.0
63.226,6.477,2.319,5.0
71.032,7.314,4.588,0.0
71.016,7.322,4.184,1.0
71.042,7.335,3.783,1.0
70.995,7.341,3.371,3.0
70.971,7.35,2.969,2.0
62.491,6.481,2.261,8.0
70.9,7.391,4.543,5.0
70.88,7.398,4.14,6.0
70.926,7.414,3.74,7.0
70.917,7.423,3.331,8.0
70.912,7.433,2.929,9.0
61.69,6.476,2.199,8.0
70.874,7.477,4.503,32.0
70.89,7.488,4.102,44.0
70.864,7.495,3.697,79.0
70.876,7.506,3.289,110.0
70.899,7.52,2.889,150.0
61.02,6.481,2.141,4.0
70.878,7.564,4.463,24.0
70.879,7.573,4.06,22.0
70.868,7.581,3.657,19.0
70.894,7.593,3.249,18.0
70.888,7.603,2.847,9.0
60.375,6.484,2.082,2.0
70.923,7.653,4.423,5.0
70.901,7.659,4.018,4.0
70.967,7.676,3.618,5.0
70.905,7.678,3.205,4.0
59.696,6.472,2.36,1.0
59.81,6.493,2.025,7.0
73.512,8.016,4.538,1.0
73.532,8.028,4.12,3.0
73.796,8.065,3.716,2.0
73.885,8.084,3.292,8.0
59.162,6.481,2.301,2.0
59.162,6.489,1.965,4.0
73.181,8.062,4.469,10.0
72.929,8.042,4.038,9.0
72.886,8.046,3.621,8.0
73.136,8.083,3.21,9.0
58.619,6.486,2.24,2.0
58.593,6.491,1.906,9.0
72.661,8.084,4.386,11.0
72.453,8.069,3.961,10.0
72.239,8.053,3.538,7.0
72.234,8.06,3.12,7.0
58.032,6.483,2.176,4.0
58.054,6.493,1.847,10.0
72.036,8.09,4.297,9.0
71.993,8.092,3.884,9.0
71.748,8.072,3.462,7.0
71.575,8.061,3.038,3.0
57.596,6.494,2.116,5.0
57.578,6.498,1.789,9.0
71.292,8.079,4.198,7.0
71.383,8.096,3.796,7.0
71.282,8.092,3.385,7.0
70.952,8.062,2.958,6.0
57.072,6.491,2.054,4.0
57.064,6.497,1.728,10.0
70.467,8.055,4.095,6.0
70.658,8.083,3.703,8.0
70.754,8.1,3.304,11.0
70.469,8.075,2.881,2.0
56.547,6.486,1.99,9.0
56.597,6.498,1.669,11.0
69.888,8.054,4.005,6.0
69.867,8.058,3.604,2.0
70.179,8.101,3.219,6.0
56.135,6.485,2.249,5.0
56.146,6.492,1.929,11.0
56.151,6.499,1.609,11.0
63.2,7.341,3.569,1.0
63.225,7.349,3.208,2.0
63.215,7.354,2.846,1.0
55.695,6.484,2.184,4.0
55.742,6.495,1.868,13.0
55.746,6.501,1.55,11.0
63.167,7.393,3.511,6.0
63.171,7.397,3.151,4.0
63.168,7.402,2.789,4.0
55.335,6.489,2.122,9.0
55.366,6.498,1.807,8.0
55.358,6.502,1.491,11.0
63.116,7.438,3.453,12.0
63.135,7.445,3.093,9.0
63.108,7.447,2.731,7.0
54.958,6.49,2.058,13.0
54.971,6.496,1.745,11.0
54.981,6.502,1.431,10.0
63.105,7.487,3.396,25.0
63.102,7.49,3.034,27.0
63.121,7.497,2.673,6.0
54.635,6.494,1.996,13.0
54.628,6.497,1.683,12.0
54.632,6.503,1.371,13.0
63.1,7.534,3.335,150.0
63.102,7.537,2.975,150.0
54.293,6.488,2.249,3.0
54.291,6.492,1.932,12.0
54.307,6.498,1.623,12.0
54.332,6.506,1.313,12.0
63.104,7.578,3.276,26.0
63.117,7.583,2.915,31.0
53.981,6.489,2.183,2.0
53.988,6.493,1.87,12.0
54.024,6.501,1.562,12.0
54.03,6.506,1.253,13.0
63.096,7.619,3.215,12.0
63.1,7.622,2.853,11.0
53.651,6.484,2.118,4.0
53.71,6.494,1.808,12.0
53.75,6.502,1.502,12.0
53.783,6.51,1.196,13.0
63.149,7.664,3.155,7.0
63.147,7.667,2.793,4.0
53.453,6.492,2.058,10.0
53.47,6.497,1.747,12.0
53.491,6.503,1.442,11.0
53.519,6.51,1.136,11.0
63.177,7.704,3.093,3.0
53.244,6.494,2.301,1.0
53.231,6.495,1.996,11.0
53.256,6.501,1.686,12.0
53.27,6.505,1.381,12.0
53.277,6.509,1.077,12.0
63.201,7.74,3.03,2.0
52.976,6.489,2.235,2.0
53.014,6.496,1.933,11.0
53.052,6.503,1.625,13.0
53.077,6.509,1.322,14.0
53.089,6.513,1.018,13.0
63.178,7.768,2.963,0.0
52.796,6.493,2.173,3.0
52.809,6.496,1.871,9.0
52.826,6.5,1.563,13.0
52.875,6.509,1.262,13.0
52.888,6.513,0.959,12.0
65.382,8.068,2.997,7.0
52.595,6.491,2.109,4.0
52.657,6.5,1.809,12.0
52.69,6.506,1.503,13.0
52.729,6.513,1.202,12.0
52.753,6.518,0.901,13.0
65.258,8.079,2.922,6.0
52.475,6.497,2.047,4.0
52.502,6.502,1.747,9.0
52.53,6.507,1.441,10.0
52.57,6.513,1.142,13.0
52.605,6.52,0.841,12.0
65.052,8.076,2.841,1.0
52.326,6.497,1.985,6.0
52.387,6.505,1.687,9.0
52.418,6.51,1.382,12.0
52.44,6.515,1.082,13.0
52.485,6.522,0.782,12.0
52.122,6.487,2.22,2.0
52.206,6.498,1.923,5.0
52.258,6.505,1.625,7.0
52.295,6.51,1.321,11.0
52.345,6.518,1.022,13.0
52.363,6.522,0.723,12.0
52.057,6.492,2.159,3.0
52.089,6.497,1.861,6.0
52.158,6.505,1.565,11.0
52.207,6.512,1.261,11.0
52.259,6.52,0.963,10.0
52.295,6.526,0.664,13.0
52.001,6.497,2.099,6.0
52.056,6.503,1.803,9.0
52.108,6.51,1.505,10.0
52.15,6.516,1.202,13.0
52.163,6.518,0.903,12.0
52.207,6.525,0.605,12.0
51.964,6.501,2.039,11.0
52.006,6.506,1.742,10.0
52.034,6.509,1.444,10.0
52.086,6.516,1.141,13.0
52.128,6.522,0.843,14.0
52.151,6.525,0.545,12.0
51.931,6.503,1.978,11.0
51.971,6.508,1.681,10.0
51.995,6.51,1.383,11.0
52.053,6.517,1.081,12.0
52.096,6.523,0.783,12.0
52.119,6.526,0.485,10.0
51.892,6.503,1.917,9.0
51.933,6.507,1.621,11.0
51.998,6.514,1.324,10.0
52.047,6.52,1.022,13.0
52.069,6.523,0.724,11.0
52.123,6.53,0.426,8.0
51.906,6.506,1.859,9.0
51.945,6.51,1.562,11.0
52.005,6.516,1.265,11.0
52.048,6.521,0.962,11.0
52.08,6.525,0.664,12.0
52.141,6.532,0.365,9.0
51.904,6.505,1.798,11.0
51.969,6.512,1.502,12.0
52.014,6.516,1.205,12.0
52.052,6.52,0.902,10.0
52.12,6.528,0.604,14.0
52.168,6.533,0.306,7.0
51.95,6.508,1.74,11.0
51.998,6.512,1.443,12.0
52.063,6.518,1.146,12.0
52.108,6.523,0.842,14.0
52.151,6.527,0.544,13.0
18.006,2.253,0.084,1.0
52.005,6.509,1.681,10.0
52.049,6.513,1.384,7.0
52.124,6.52,1.087,12.0
52.162,6.523,0.783,12.0
52.213,6.528,0.485,11.0
42.828,5.354,0.152,3.0
52.084,6.511,1.624,10.0
52.129,6.514,1.326,10.0
52.2,6.521,1.028,9.0
52.27,6.528,0.724,13.0
52.319,6.532,0.425,12.0
17.998,2.247,0.043,7.0
52.159,6.51,1.565,10.0
52.237,6.517,1.267,12.0
52.304,6.523,0.969,10.0
52.377,6.53,0.665,13.0
52.437,6.536,0.365,14.0
18.01,2.244,0.022,8.0
52.285,6.512,1.508,10.0
52.368,6.52,1.21,14.0
52.443,6.527,0.911,15.0
52.497,6.531,0.606,13.0
52.534,6.534,0.305,10.0
18.013,2.239,0.001,9.0
52.414,6.513,1.452,12.0
52.494,6.52,1.153,13.0
52.56,6.525,0.853,12.0
52.636,6.532,0.547,12.0
52.671,6.534,0.245,2.0
18.026,2.235,-0.019,10.0
52.578,6.516,1.396,11.0
52.644,6.52,1.096,12.0
52.732,6.528,0.795,13.0
52.77,6.53,0.488,10.0
42.833,5.298,0.151,3.0
18.033,2.23,-0.039,12.0
52.738,6.515,1.339,12.0
52.825,6.522,1.039,14.0
52.884,6.526,0.736,12.0
52.965,6.533,0.429,12.0
46.464,5.728,0.11,5.0
18.05,2.224,-0.06,12.0
52.947,6.518,1.284,12.0
53.022,6.523,0.982,13.0
53.087,6.528,0.679,13.0
53.149,6.532,0.37,13.0
0.0,0.0,0.0,0.0
18.045,2.215,-0.08,12.0
53.156,6.519,1.229,13.0
53.224,6.523,0.926,14.0
53.315,6.53,0.622,12.0
53.358,6.532,0.311,4.0
0.0,0.0,0.0,0.0
18.062,2.209,-0.101,11.0
53.393,6.52,1.175,11.0
53.451,6.523,0.87,13.0
53.548,6.53,0.564,15.0
53.643,6.538,0.253,4.0
40.381,4.919,-0.039,9.0
18.071,2.2,-0.121,12.0
53.648,6.521,1.12,14.0
53.757,6.529,0.815,14.0
53.827,6.533,0.507,12.0
46.032,5.583,0.166,1.0
36.27,4.396,-0.076,10.0
18.078,2.19,-0.141,11.0
53.927,6.522,1.066,13.0
54.017,6.528,0.758,11.0
54.123,6.535,0.451,9.0
46.213,5.576,0.116,20.0
37.846,4.564,-0.121,14.0
18.091,2.18,-0.161,6.0
54.228,6.523,1.012,13.0
54.336,6.53,0.703,14.0
54.434,6.537,0.393,8.0
45.336,5.44,0.064,20.0
36.859,4.42,-0.159,15.0
33.317,3.992,-0.334,3.0
54.555,6.524,0.959,14.0
54.65,6.529,0.648,11.0
54.74,6.534,0.336,7.0
44.268,5.28,0.014,19.0
35.36,4.214,-0.19,12.0
18.133,2.159,-0.201,1.0
54.913,6.526,0.906,13.0
55.031,6.534,0.593,13.0
55.1,6.536,0.279,2.0
42.353,5.019,-0.031,12.0
35.045,4.15,-0.226,22.0
30.554,3.615,-0.372,8.0
55.332,6.532,0.853,12.0
55.45,6.539,0.538,14.0
51.331,6.047,0.205,7.0
42.199,4.967,-0.076,5.0
35.08,4.126,-0.263,11.0
29.488,3.465,-0.39,8.0
55.778,6.538,0.802,12.0
55.851,6.54,0.484,11.0
51.337,6.005,0.151,9.0
38.4,4.487,-0.109,17.0
33.848,3.952,-0.29,9.0
28.239,3.294,-0.403,7.0
56.181,6.536,0.749,13.0
56.3,6.542,0.429,11.0
0.0,0.0,0.0,0.0
0.0,0.0,0.0,0.0
32.944,3.817,-0.316,9.0
27.27,3.156,-0.417,7.0
56.641,6.537,0.696,9.0
56.7,6.537,0.374,3.0
37.187,4.282,0.033,6.0
36.608,4.211,-0.179,13.0
31.692,3.642,-0.336,9.0
26.418,3.033,-0.43,4.0
57.151,6.542,0.646,6.0
51.405,5.877,0.288,9.0
37.172,4.244,-0.003,11.0
36.424,4.154,-0.214,12.0
30.652,3.492,-0.355,8.0
25.844,2.941,-0.447,2.0
57.653,6.542,0.595,8.0
51.398,5.825,0.238,3.0
42.817,4.846,-0.045,17.0
36.482,4.124,-0.25,9.0
30.067,3.395,-0.378,8.0
18.166,2.049,-0.332,8.0
58.202,6.543,0.544,8.0
47.262,5.306,0.173,3.0
42.24,4.736,-0.085,14.0
35.188,3.941,-0.275,8.0
28.977,3.241,-0.391,7.0
18.046,2.016,-0.346,9.0
58.721,6.539,0.494,5.0
46.7,5.192,0.127,15.0
38.947,4.325,-0.115,14.0
34.286,3.802,-0.3,11.0
28.204,3.124,-0.407,7.0
24.2,2.677,-0.487,2.0
59.244,6.531,0.444,2.0
46.201,5.085,0.083,20.0
38.203,4.199,-0.148,14.0
33.088,3.632,-0.32,10.0
27.272,2.99,-0.418,7.0
23.952,2.622,-0.504,1.0
59.851,6.529,0.395,1.0
45.361,4.941,0.041,21.0
38.04,4.137,-0.181,16.0
31.93,3.468,-0.336,9.0
26.102,2.831,-0.423,6.0
18.077,1.958,-0.396,13.0
60.522,6.53,0.346,0.0
42.153,4.541,0.001,12.0
38.291,4.119,-0.215,14.0
30.941,3.323,-0.353,9.0
25.54,2.739,-0.436,6.0
18.055,1.934,-0.411,13.0
61.43,6.553,0.299,0.0
42.125,4.486,-0.034,32.0
0.0,0.0,0.0,0.0
30.376,3.225,-0.372,9.0
25.052,2.656,-0.449,6.0
18.052,1.911,-0.426,14.0
47.201,4.975,0.19,3.0
42.258,4.447,-0.069,5.0
0.0,0.0,0.0,0.0
29.486,3.092,-0.385,8.0
24.77,2.594,-0.464,8.0
18.041,1.886,-0.44,14.0
47.372,4.931,0.152,22.0
39.907,4.146,-0.098,9.0
0.0,0.0,0.0,0.0
28.798,2.982,-0.4,8.0
24.409,2.523,-0.477,8.0
18.194,1.878,-0.459,14.0
46.94,4.823,0.114,22.0
40.038,4.106,-0.129,15.0
33.353,3.414,-0.296,2.0
28.266,2.888,-0.414,7.0
23.943,2.442,-0.486,5.0
18.342,1.868,-0.476,18.0
46.414,4.705,0.077,21.0
40.051,4.052,-0.159,19.0
33.281,3.361,-0.32,6.0
27.303,2.752,-0.42,7.0
23.466,2.361,-0.494,5.0
18.345,1.843,-0.49,17.0
45.97,4.595,0.043,21.0
39.857,3.976,-0.187,15.0
31.944,3.181,-0.33,8.0
26.593,2.643,-0.428,7.0
23.085,2.29,-0.502,5.0
18.338,1.815,-0.503,16.0
45.523,4.485,0.011,21.0
39.455,3.879,-0.213,14.0
31.459,3.087,-0.347,9.0
25.963,2.542,-0.436,6.0
22.586,2.207,-0.507,4.0
18.387,1.794,-0.516,16.0
45.135,4.38,-0.019,20.0
0.0,0.0,0.0,0.0
30.881,2.984,-0.361,9.0
25.581,2.466,-0.446,6.0
22.197,2.136,-0.512,7.0
18.589,1.785,-0.534,18.0
45.176,4.315,-0.048,20.0
37.799,3.603,-0.253,4.0
30.194,2.872,-0.372,8.0
25.186,2.39,-0.455,6.0
21.955,2.079,-0.521,6.0
18.856,1.782,-0.554,18.0
45.28,4.256,-0.076,20.0
36.298,3.403,-0.265,4.0
29.739,2.782,-0.385,8.0
24.905,2.324,-0.465,6.0
21.766,2.027,-0.529,8.0
18.959,1.762,-0.568,13.0
45.569,4.211,-0.103,16.0
35.866,3.306,-0.283,6.0
29.046,2.671,-0.392,8.0
24.599,2.257,-0.473,5.0
21.51,1.969,-0.535,5.0
18.982,1.734,-0.579,14.0
42.337,3.845,-0.119,10.0
35.106,3.18,-0.296,9.0
28.621,2.586,-0.402,8.0
24.232,2.184,-0.479,5.0
21.272,1.913,-0.54,5.0
18.948,1.7,-0.588,16.0
40.192,3.584,-0.134,13.0
34.333,3.054,-0.307,11.0
28.259,2.507,-0.411,7.0
24.124,2.135,-0.489,5.0
20.715,1.829,-0.536,4.0
18.95,1.669,-0.597,16.0
40.048,3.506,-0.153,67.0
33.505,2.925,-0.316,10.0
27.87,2.426,-0.419,7.0
23.788,2.066,-0.493,5.0
19.667,1.703,-0.518,9.0
18.869,1.63,-0.603,8.0
40.037,3.437,-0.171,49.0
32.145,2.752,-0.317,2.0
27.528,2.35,-0.426,7.0
23.766,2.023,-0.503,5.0
19.214,1.631,-0.515,10.0
18.704,1.584,-0.606,6.0
39.997,3.365,-0.188,38.0
32.555,2.731,-0.335,7.0
27.32,2.285,-0.434,7.0
23.802,1.986,-0.514,3.0
19.704,1.639,-0.536,10.0
18.71,1.552,-0.613,3.0
39.936,3.292,-0.202,24.0
32.131,2.64,-0.342,10.0
26.821,2.197,-0.436,7.0
23.664,1.933,-0.519,2.0
19.71,1.605,-0.543,10.0
18.482,1.501,-0.613,2.0
39.812,3.212,-0.215,15.0
31.943,2.569,-0.352,9.0
26.506,2.125,-0.44,6.0
23.639,1.889,-0.527,1.0
19.703,1.57,-0.549,9.0
18.447,1.466,-0.617,2.0
39.732,3.135,-0.228,15.0
31.453,2.473,-0.356,9.0
26.404,2.07,-0.446,6.0
19.856,1.552,-0.448,2.0
19.71,1.535,-0.555,10.0
18.377,1.427,-0.62,2.0
0.0,0.0,0.0,0.0
31.341,2.409,-0.363,9.0
26.242,2.01,-0.45,6.0
19.819,1.513,-0.452,3.0
19.697,1.499,-0.559,10.0
18.323,1.389,-0.623,2.0
0.0,0.0,0.0,0.0
31.029,2.328,-0.367,9.0
26.075,1.949,-0.453,6.0
19.814,1.476,-0.457,3.0
19.7,1.463,-0.564,11.0
18.303,1.355,-0.626,2.0
0.0,0.0,0.0,0.0
31.109,2.277,-0.374,9.0
26.003,1.896,-0.457,6.0
19.815,1.44,-0.46,3.0
19.701,1.427,-0.568,10.0
18.246,1.316,-0.627,2.0
0.0,0.0,0.0,0.0
30.882,2.203,-0.376,9.0
26.039,1.851,-0.462,6.0
19.987,1.415,-0.467,3.0
19.704,1.39,-0.57,11.0
18.245,1.282,-0.63,3.0
0.0,0.0,0.0,0.0
30.842,2.143,-0.379,9.0
26.096,1.806,-0.466,6.0
19.76,1.362,-0.464,3.0
19.685,1.352,-0.572,10.0
18.206,1.245,-0.63,2.0
40.065,2.719,-0.275,1.0
30.582,2.067,-0.379,9.0
26.121,1.758,-0.468,6.0
19.785,1.326,-0.466,3.0
19.684,1.314,-0.573,10.0
18.215,1.211,-0.631,2.0
37.848,2.497,-0.262,6.0
