X,Y,Z,Reflectivity
105.866,-9.751,7.97,13.0
106.758,-9.823,7.463,14.0
39.267,-3.62,3.852,28.0
47.554,-4.378,4.407,5.0
48.202,-4.432,4.207,22.0
107.697,-9.889,8.808,10.0
108.149,-9.918,8.263,14.0
106.458,-9.751,7.56,19.0
39.294,-3.606,3.899,22.0
45.633,-4.182,4.28,12.0
47.687,-4.363,4.215,32.0
48.441,-4.426,4.015,20.0
108.455,-9.897,8.404,18.0
106.226,-9.681,7.659,15.0
48.702,-4.447,4.886,5.0
45.579,-4.156,4.325,8.0
47.552,-4.328,4.255,46.0
48.385,-4.397,4.063,32.0
108.449,-9.842,8.522,10.0
106.13,-9.618,7.768,17.0
41.148,-3.737,4.172,21.0
45.618,-4.136,4.378,9.0
47.561,-4.305,4.307,39.0
48.359,-4.37,4.112,39.0
111.747,-10.083,8.898,7.0
108.82,-9.803,8.077,16.0
48.962,-4.42,5.016,9.0
39.194,-3.532,3.802,31.0
47.565,-4.279,4.356,21.0
48.333,-4.341,4.159,22.0
107.528,-9.641,8.671,11.0
108.875,-9.746,8.19,15.0
49.031,-4.398,5.073,11.0
39.222,-3.512,3.844,27.0
47.498,-4.245,4.397,9.0
47.99,-4.282,4.177,6.0
107.264,-9.554,8.755,11.0
111.698,-9.93,8.513,6.0
49.182,-4.381,5.138,30.0
39.246,-3.49,3.885,29.0
45.607,-4.048,4.267,9.0
47.6,-4.216,4.189,20.0
107.105,-9.47,8.846,13.0
111.365,-9.83,8.593,19.0
107.699,-7.947,12.502,10.0
106.867,-7.859,11.807,24.0
106.868,-7.832,11.211,20.0
106.795,-7.8,10.597,29.0
109.301,-7.958,10.236,23.0
107.559,-7.806,9.475,9.0
107.575,-7.814,12.525,1.0
107.312,-7.769,11.892,22.0
106.961,-7.716,11.254,19.0
106.858,-7.682,10.636,23.0
109.346,-7.835,10.274,9.0
106.782,-7.627,9.439,13.0
0.0,0.0,0.0,0.0
107.895,-7.686,11.987,25.0
106.497,-7.56,11.235,23.0
106.774,-7.552,10.657,15.0
111.432,-7.855,10.499,9.0
106.726,-7.498,9.461,21.0
0.0,0.0,0.0,0.0
107.705,-7.544,11.993,18.0
106.409,-7.427,11.251,20.0
106.738,-7.424,10.676,9.0
108.092,-7.491,10.208,14.0
106.722,-7.37,9.483,19.0
0.0,0.0,0.0,0.0
107.666,-7.413,12.01,7.0
106.321,-7.293,11.262,23.0
108.937,-7.446,10.917,9.0
110.893,-7.553,10.492,12.0
106.589,-7.234,9.489,17.0
0.0,0.0,0.0,0.0
0.0,0.0,0.0,0.0
111.608,-7.52,11.839,3.0
111.268,-7.469,11.167,9.0
108.159,-7.233,10.248,10.0
106.574,-7.101,9.502,13.0
0.0,0.0,0.0,0.0
0.0,0.0,0.0,0.0
0.0,0.0,0.0,0.0
107.706,-7.097,10.82,22.0
107.777,-7.075,10.221,19.0
110.881,-7.251,9.895,9.0
0.0,0.0,0.0,0.0
0.0,0.0,0.0,0.0
0.0,0.0,0.0,0.0
107.71,-6.962,10.826,13.0
107.545,-6.925,10.205,20.0
107.494,-6.896,9.596,9.0
0.0,0.0,0.0,0.0
0.0,0.0,0.0,0.0
0.0,0.0,0.0,0.0
107.835,-6.834,10.839,13.0
107.512,-6.786,10.202,10.0
107.114,-6.735,9.562,12.0
0.0,0.0,0.0,0.0
0.0,0.0,0.0,0.0
0.0,0.0,0.0,0.0
107.91,-6.701,10.844,23.0
109.302,-6.76,10.367,20.0
107.136,-6.599,9.559,10.0
0.0,0.0,0.0,0.0
0.0,0.0,0.0,0.0
0.0,0.0,0.0,0.0
107.912,-6.561,10.835,8.0
109.249,-6.614,10.353,24.0
109.134,-6.58,9.727,7.0
0.0,0.0,0.0,0.0
0.0,0.0,0.0,0.0
0.0,0.0,0.0,0.0
0.0,0.0,0.0,0.0
108.755,-6.443,10.292,15.0
107.381,-6.335,9.556,19.0
0.0,0.0,0.0,0.0
0.0,0.0,0.0,0.0
0.0,0.0,0.0,0.0
0.0,0.0,0.0,0.0
108.898,-6.307,10.287,21.0
107.34,-6.191,9.533,21.0
0.0,0.0,0.0,0.0
0.0,0.0,0.0,0.0
0.0,0.0,0.0,0.0
109.199,-6.211,10.909,7.0
109.204,-6.182,10.292,24.0
108.775,-6.132,9.636,19.0
0.0,0.0,0.0,0.0
0.0,0.0,0.0,0.0
0.0,0.0,0.0,0.0
109.354,-6.074,10.897,17.0
109.306,-6.044,10.273,20.0
108.569,-5.977,9.588,24.0
0.0,0.0,0.0,0.0
0.0,0.0,0.0,0.0
0.0,0.0,0.0,0.0
109.492,-5.937,10.878,17.0
109.106,-5.888,10.22,22.0
108.502,-5.828,9.549,30.0
0.0,0.0,0.0,0.0
0.0,0.0,0.0,0.0
0.0,0.0,0.0,0.0
126.33,-4.002,11.049,10.0
126.186,-3.972,10.308,13.0
125.845,-3.935,9.555,23.0
0.0,0.0,0.0,0.0
0.0,0.0,0.0,0.0
0.0,0.0,0.0,0.0
0.0,0.0,0.0,0.0
140.467,-4.243,11.321,7.0
126.066,-3.783,9.433,22.0
0.0,0.0,0.0,0.0
0.0,0.0,0.0,0.0
113.754,-3.341,10.368,3.0
0.0,0.0,0.0,0.0
140.522,-4.072,11.168,6.0
140.369,-4.039,10.344,10.0
0.0,0.0,0.0,0.0
0.0,0.0,0.0,0.0
113.832,-3.204,10.244,3.0
0.0,0.0,0.0,0.0
126.343,-3.505,9.891,9.0
0.0,0.0,0.0,0.0
0.0,0.0,0.0,0.0
0.0,0.0,0.0,0.0
0.0,0.0,0.0,0.0
0.0,0.0,0.0,0.0
0.0,0.0,0.0,0.0
0.0,0.0,0.0,0.0
0.0,0.0,0.0,0.0
0.0,0.0,0.0,0.0
0.0,0.0,0.0,0.0
13.674,-0.348,1.116,0.0
0.0,0.0,0.0,0.0
0.0,0.0,0.0,0.0
0.0,0.0,0.0,0.0
0.0,0.0,0.0,0.0
0.0,0.0,0.0,0.0
0.0,0.0,0.0,0.0
0.0,0.0,0.0,0.0
0.0,0.0,0.0,0.0
0.0,0.0,0.0,0.0
114.061,-2.686,10.354,6.0
0.0,0.0,0.0,0.0
0.0,0.0,0.0,0.0
0.0,0.0,0.0,0.0
0.0,0.0,0.0,0.0
0.0,0.0,0.0,0.0
0.0,0.0,0.0,0.0
0.0,0.0,0.0,0.0
0.0,0.0,0.0,0.0
0.0,0.0,0.0,0.0
0.0,0.0,0.0,0.0
0.0,0.0,0.0,0.0
0.0,0.0,0.0,0.0
0.0,0.0,0.0,0.0
0.0,0.0,0.0,0.0
0.0,0.0,0.0,0.0
0.0,0.0,0.0,0.0
0.0,0.0,0.0,0.0
0.0,0.0,0.0,0.0
0.0,0.0,0.0,0.0
0.0,0.0,0.0,0.0
0.0,0.0,0.0,0.0
0.0,0.0,0.0,0.0
114.21,-2.193,10.392,6.0
0.0,0.0,0.0,0.0
0.0,0.0,0.0,0.0
0.0,0.0,0.0,0.0
0.0,0.0,0.0,0.0
0.0,0.0,0.0,0.0
0.0,0.0,0.0,0.0
0.0,0.0,0.0,0.0
0.0,0.0,0.0,0.0
0.0,0.0,0.0,0.0
0.0,0.0,0.0,0.0
189.997,-3.294,11.453,18.0
0.0,0.0,0.0,0.0
0.0,0.0,0.0,0.0
0.0,0.0,0.0,0.0
0.0,0.0,0.0,0.0
190.017,-3.129,12.266,4.0
0.0,0.0,0.0,0.0
0.0,0.0,0.0,0.0
0.0,0.0,0.0,0.0
0.0,0.0,0.0,0.0
0.0,0.0,0.0,0.0
0.0,0.0,0.0,0.0
0.0,0.0,0.0,0.0
0.0,0.0,0.0,0.0
0.0,0.0,0.0,0.0
0.0,0.0,0.0,0.0
0.0,0.0,0.0,0.0
0.0,0.0,0.0,0.0
0.0,0.0,0.0,0.0
0.0,0.0,0.0,0.0
0.0,0.0,0.0,0.0
0.0,0.0,0.0,0.0
0.0,0.0,0.0,0.0
0.0,0.0,0.0,0.0
0.0,0.0,0.0,0.0
0.0,0.0,0.0,0.0
0.0,0.0,0.0,0.0
0.0,0.0,0.0,0.0
0.0,0.0,0.0,0.0
0.0,0.0,0.0,0.0
0.0,0.0,0.0,0.0
0.0,0.0,0.0,0.0
0.0,0.0,0.0,0.0
0.0,0.0,0.0,0.0
0.0,0.0,0.0,0.0
0.0,0.0,0.0,0.0
0.0,0.0,0.0,0.0
0.0,0.0,0.0,0.0
0.0,0.0,0.0,0.0
0.0,0.0,0.0,0.0
0.0,0.0,0.0,0.0
0.0,0.0,0.0,0.0
0.0,0.0,0.0,0.0
0.0,0.0,0.0,0.0
0.0,0.0,0.0,0.0
0.0,0.0,0.0,0.0
0.0,0.0,0.0,0.0
0.0,0.0,0.0,0.0
0.0,0.0,0.0,0.0
0.0,0.0,0.0,0.0
0.0,0.0,0.0,0.0
0.0,0.0,0.0,0.0
0.0,0.0,0.0,0.0
0.0,0.0,0.0,0.0
0.0,0.0,0.0,0.0
0.0,0.0,0.0,0.0
0.0,0.0,0.0,0.0
0.0,0.0,0.0,0.0
0.0,0.0,0.0,0.0
0.0,0.0,0.0,0.0
184.67,-1.516,8.036,18.0
0.0,0.0,0.0,0.0
0.0,0.0,0.0,0.0
0.0,0.0,0.0,0.0
0.0,0.0,0.0,0.0
0.0,0.0,0.0,0.0
184.519,-1.374,7.69,22.0
0.0,0.0,0.0,0.0
0.0,0.0,0.0,0.0
0.0,0.0,0.0,0.0
0.0,0.0,0.0,0.0
184.777,-1.26,8.435,11.0
184.259,-1.239,7.336,17.0
0.0,0.0,0.0,0.0
0.0,0.0,0.0,0.0
0.0,0.0,0.0,0.0
0.0,0.0,0.0,0.0
184.88,-1.132,8.093,14.0
19.693,-0.118,0.747,5.0
0.0,0.0,0.0,0.0
0.0,0.0,0.0,0.0
0.0,0.0,0.0,0.0
186.135,-1.033,8.886,4.0
184.706,-1.009,7.739,22.0
19.676,-0.105,0.709,9.0
0.0,0.0,0.0,0.0
0.0,0.0,0.0,0.0
0.0,0.0,0.0,0.0
186.217,-0.914,8.529,17.0
19.725,-0.095,0.788,1.0
19.655,-0.093,0.67,13.0
0.0,0.0,0.0,0.0
0.0,0.0,0.0,0.0
0.0,0.0,0.0,0.0
184.765,-0.793,8.101,22.0
19.679,-0.082,0.747,8.0
19.641,-0.081,0.631,13.0
0.0,0.0,0.0,0.0
0.0,0.0,0.0,0.0
19.622,-0.074,0.938,0.0
184.711,-0.686,7.733,19.0
19.667,-0.071,0.708,10.0
19.642,-0.07,0.592,14.0
0.0,0.0,0.0,0.0
19.616,-0.065,1.013,3.0
19.607,-0.063,0.898,4.0
19.719,-0.062,0.786,3.0
19.651,-0.06,0.668,13.0
19.633,-0.059,0.553,13.0
0.0,0.0,0.0,0.0
19.607,-0.054,0.974,14.0
19.617,-0.053,0.859,4.0
19.671,-0.052,0.744,9.0
19.627,-0.051,0.628,13.0
19.625,-0.049,0.513,13.0
19.607,-0.046,1.049,5.0
19.585,-0.045,0.933,15.0
19.7,-0.044,0.823,0.0
19.641,-0.043,0.704,11.0
19.628,-0.041,0.589,14.0
19.628,-0.04,0.474,13.0
19.588,-0.037,1.008,13.0
19.585,-0.036,0.893,16.0
19.693,-0.035,0.783,6.0
19.625,-0.034,0.663,12.0
19.622,-0.033,0.549,13.0
19.629,-0.032,0.434,14.0
19.579,-0.029,0.968,17.0
19.599,-0.028,0.854,14.0
19.647,-0.027,0.741,10.0
19.62,-0.026,0.623,13.0
19.613,-0.025,0.508,12.0
19.623,-0.024,0.393,13.0
19.581,-0.022,0.928,20.0
19.67,-0.021,0.816,9.0
19.651,-0.02,0.7,12.0
19.61,-0.019,0.582,13.0
19.611,-0.018,0.467,12.0
19.619,-0.017,0.353,13.0
19.572,-0.015,0.886,18.0
19.664,-0.014,0.775,10.0
19.621,-0.013,0.659,11.0
19.609,-0.013,0.541,13.0
19.618,-0.012,0.427,12.0
19.624,-0.011,0.312,14.0
19.604,-0.009,0.847,18.0
19.65,-0.008,0.734,11.0
19.615,-0.007,0.617,12.0
19.606,-0.007,0.5,12.0
19.62,-0.006,0.385,13.0
19.634,-0.005,0.271,14.0
19.654,-0.003,0.807,17.0
19.633,-0.003,0.691,12.0
19.607,-0.002,0.576,12.0
19.61,-0.002,0.459,11.0
19.607,-0.001,0.343,14.0
19.639,-0.001,0.229,16.0
19.659,0.0,0.766,13.0
19.621,0.001,0.649,12.0
19.614,0.001,0.534,13.0
19.61,0.002,0.417,12.0
19.616,0.002,0.302,13.0
19.665,0.003,0.188,9.0
19.644,0.004,0.723,13.0
19.608,0.005,0.607,12.0
19.608,0.005,0.492,12.0
19.604,0.005,0.375,13.0
19.617,0.006,0.26,14.0
19.79,0.006,0.146,1.0
19.638,0.007,0.681,13.0
19.607,0.008,0.565,12.0
19.611,0.008,0.45,11.0
19.617,0.008,0.333,14.0
19.628,0.008,0.219,15.0
19.791,0.009,0.105,2.0
19.619,0.01,0.638,12.0
19.612,0.01,0.524,13.0
19.608,0.01,0.409,12.0
19.611,0.01,0.292,14.0
19.713,0.01,0.178,5.0
19.78,0.011,0.062,5.0
19.624,0.011,0.597,13.0
19.612,0.011,0.481,13.0
19.607,0.011,0.367,15.0
19.609,0.012,0.25,15.0
19.766,0.012,0.136,5.0
19.758,0.012,0.02,6.0
19.619,0.012,0.555,14.0
19.612,0.012,0.44,12.0
19.614,0.012,0.325,15.0
19.627,0.012,0.208,13.0
19.763,0.012,0.094,6.0
19.752,0.012,-0.021,73.0
19.616,0.013,0.512,14.0
19.604,0.012,0.397,13.0
19.625,0.012,0.283,14.0
19.754,0.012,0.167,3.0
19.779,0.012,0.051,4.0
19.737,0.012,-0.063,34.0
19.619,0.012,0.471,13.0
19.621,0.012,0.356,16.0
19.625,0.011,0.241,15.0
19.762,0.011,0.125,2.0
19.753,0.011,0.009,7.0
19.778,0.011,-0.106,1.0
19.621,0.011,0.429,12.0
19.618,0.01,0.313,14.0
19.645,0.01,0.199,10.0
19.771,0.01,0.082,5.0
19.762,0.009,-0.032,151.0
19.782,0.009,-0.148,1.0
19.621,0.009,0.387,14.0
19.628,0.008,0.271,14.0
19.776,0.008,0.158,2.0
19.758,0.007,0.04,4.0
19.76,0.007,-0.075,1.0
19.805,0.006,-0.191,0.0
19.629,0.006,0.344,15.0
19.629,0.005,0.23,16.0
19.773,0.005,0.115,3.0
19.739,0.004,-0.001,8.0
19.773,0.004,-0.117,0.0
19.777,0.003,-0.233,0.0
19.629,0.002,0.302,14.0
19.679,0.002,0.188,7.0
19.806,0.001,0.073,4.0
19.748,0.0,-0.044,6.0
19.699,0.0,-0.159,0.0
35.102,0.0,-0.489,0.0
19.635,-0.001,0.261,15.0
19.776,-0.002,0.147,1.0
19.739,-0.002,0.031,8.0
19.758,-0.003,-0.086,1.0
0.0,0.0,0.0,0.0
32.679,-0.008,-0.526,0.0
19.639,-0.006,0.219,15.0
19.722,-0.007,0.104,2.0
19.739,-0.007,-0.011,10.0
19.763,-0.008,-0.128,1.0
0.0,0.0,0.0,0.0
31.012,-0.016,-0.564,0.0
19.726,-0.011,0.178,6.0
19.734,-0.012,0.062,8.0
19.738,-0.013,-0.052,7.0
19.783,-0.014,-0.17,0.0
35.051,-0.028,-0.507,0.0
29.537,-0.025,-0.6,0.0
19.704,-0.018,0.136,4.0
19.717,-0.019,0.02,13.0
19.754,-0.02,-0.094,7.0
19.747,-0.021,-0.212,0.0
33.002,-0.038,-0.548,0.0
28.145,-0.034,-0.632,0.0
19.7,-0.025,0.093,14.0
19.717,-0.026,-0.021,13.0
19.753,-0.028,-0.137,9.0
19.732,-0.029,-0.254,0.0
30.634,-0.047,-0.574,0.0
26.54,-0.042,-0.653,0.0
19.714,-0.033,0.052,16.0
19.734,-0.034,-0.062,10.0
19.742,-0.036,-0.178,9.0
34.983,-0.066,-0.524,0.0
29.249,-0.057,-0.61,0.0
25.36,-0.051,-0.677,0.0
19.716,-0.042,0.01,17.0
19.727,-0.043,-0.104,13.0
19.759,-0.045,-0.22,10.0
19.721,-0.046,-0.337,0.0
27.719,-0.067,-0.636,0.0
24.052,-0.06,-0.693,0.0
19.724,-0.051,-0.03,17.0
19.737,-0.052,-0.145,14.0
19.756,-0.054,-0.261,10.0
19.753,-0.056,-0.379,0.0
26.25,-0.076,-0.657,0.0
22.998,-0.068,-0.71,0.0
19.732,-0.061,-0.071,14.0
19.737,-0.063,-0.187,15.0
19.756,-0.064,-0.302,11.0
19.774,-0.066,-0.42,2.0
19.821,-0.068,-0.537,0.0
22.054,-0.078,-0.727,0.0
19.725,-0.072,-0.112,17.0
19.741,-0.074,-0.227,15.0
19.767,-0.075,-0.343,10.0
19.752,-0.077,-0.46,6.0
19.756,-0.079,-0.576,3.0
19.795,-0.081,-0.693,1.0
19.732,-0.083,-0.152,17.0
19.748,-0.085,-0.268,14.0
19.76,-0.087,-0.384,13.0
19.753,-0.089,-0.501,12.0
19.761,-0.091,-0.617,8.0
19.741,-0.092,-0.732,6.0
19.738,-0.095,-0.192,17.0
19.751,-0.097,-0.307,14.0
19.741,-0.099,-0.423,15.0
19.738,-0.101,-0.54,15.0
19.748,-0.103,-0.656,13.0
19.679,-0.105,-0.769,2.0
19.737,-0.108,-0.232,17.0
19.748,-0.11,-0.347,15.0
19.727,-0.112,-0.462,14.0
19.737,-0.114,-0.58,15.0
19.728,-0.116,-0.695,15.0
19.195,-0.115,-0.789,0.0
19.745,-0.122,-0.271,17.0
19.742,-0.124,-0.386,17.0
19.727,-0.126,-0.501,15.0
19.731,-0.128,-0.619,15.0
19.732,-0.13,-0.734,12.0
18.528,-0.124,-0.798,0.0
19.74,-0.136,-0.31,17.0
19.728,-0.138,-0.425,17.0
19.731,-0.14,-0.54,17.0
19.726,-0.142,-0.657,17.0
19.645,-0.144,-0.77,3.0
17.774,-0.132,-0.8,0.0
19.745,-0.15,-0.349,18.0
19.741,-0.153,-0.464,18.0
19.74,-0.155,-0.579,15.0
19.753,-0.157,-0.697,12.0
19.117,-0.155,-0.786,1.0
17.287,-0.142,-0.812,0.0
19.753,-0.166,-0.387,16.0
19.738,-0.168,-0.502,14.0
19.764,-0.171,-0.618,9.0
19.74,-0.173,-0.735,9.0
18.496,-0.164,-0.797,0.0
16.675,-0.15,-0.816,0.0
19.756,-0.182,-0.426,12.0
19.767,-0.185,-0.541,5.0
21.977,-0.208,-0.73,0.0
19.625,-0.188,-0.768,3.0
17.846,-0.173,-0.803,0.0
16.115,-0.159,-0.819,0.0
19.769,-0.199,-0.463,1.0
23.617,-0.24,-0.691,0.0
19.798,-0.204,-0.694,2.0
19.137,-0.2,-0.785,0.0
17.222,-0.182,-0.807,0.0
15.691,-0.168,-0.827,0.0
25.975,-0.284,-0.657,0.0
22.736,-0.252,-0.708,0.0
19.772,-0.221,-0.731,9.0
18.51,-0.21,-0.794,0.0
16.621,-0.191,-0.81,0.0
15.332,-0.178,-0.837,0.0
24.923,-0.295,-0.676,0.0
22.046,-0.264,-0.727,0.0
19.684,-0.239,-0.764,3.0
17.847,-0.219,-0.799,0.0
16.212,-0.201,-0.82,0.0
14.925,-0.187,-0.842,0.0
23.814,-0.304,-0.69,0.0
0.0,0.0,0.0,0.0
19.208,-0.251,-0.78,0.0
17.28,-0.228,-0.804,0.0
15.74,-0.21,-0.824,0.0
14.402,-0.194,-0.838,0.0
22.826,-0.313,-0.702,0.0
19.832,-0.275,-0.725,3.0
18.66,-0.262,-0.791,0.0
16.754,-0.238,-0.81,0.0
15.365,-0.22,-0.832,0.0
14.118,-0.204,-0.847,0.0
22.261,-0.328,-0.724,1.0
19.836,-0.295,-0.761,2.0
17.99,-0.27,-0.794,0.0
16.261,-0.247,-0.815,0.0
15.035,-0.231,-0.841,0.0
13.813,-0.214,-0.853,0.0
21.376,-0.336,-0.732,0.0
19.321,-0.307,-0.774,0.0
17.459,-0.28,-0.801,0.0
15.742,-0.255,-0.816,0.0
14.514,-0.238,-0.837,0.0
13.489,-0.223,-0.856,0.0
20.673,-0.347,-0.744,0.0
18.864,-0.319,-0.788,0.0
16.954,-0.29,-0.807,0.0
15.517,-0.268,-0.831,0.0
14.272,-0.249,-0.847,0.0
13.229,-0.233,-0.862,0.0
20.147,-0.359,-0.759,0.0
18.214,-0.328,-0.792,0.0
16.466,-0.299,-0.811,0.0
15.173,-0.278,-0.837,0.0
13.882,-0.257,-0.847,0.0
12.902,-0.241,-0.863,0.0
19.602,-0.371,-0.771,1.0
17.751,-0.339,-0.801,0.0
16.168,-0.312,-0.824,0.0
14.815,-0.288,-0.842,0.0
13.606,-0.267,-0.853,0.0
12.595,-0.249,-0.863,0.0
19.099,-0.383,-0.782,0.0
17.22,-0.348,-0.805,0.0
15.707,-0.32,-0.825,0.0
14.253,-0.293,-0.833,0.0
13.378,-0.278,-0.86,0.0
12.396,-0.26,-0.869,0.0
18.596,-0.394,-0.791,0.0
16.848,-0.36,-0.814,0.0
15.315,-0.33,-0.829,0.0
14.176,-0.308,-0.851,0.0
13.019,-0.285,-0.858,0.0
12.142,-0.268,-0.871,0.0
17.887,-0.4,-0.789,0.0
16.421,-0.37,-0.819,0.0
15.053,-0.342,-0.839,0.0
13.768,-0.316,-0.848,0.0
12.687,-0.293,-0.855,0.0
11.983,-0.279,-0.878,0.0
17.707,-0.417,-0.808,1.0
15.942,-0.379,-0.82,0.0
14.745,-0.353,-0.844,0.0
13.455,-0.325,-0.85,0.0
12.581,-0.306,-0.868,0.0
11.807,-0.29,-0.883,0.0
17.257,-0.427,-0.813,0.0
15.64,-0.39,-0.828,0.0
14.247,-0.359,-0.837,0.0
13.327,-0.338,-0.861,0.0
12.356,-0.316,-0.871,0.0
11.611,-0.299,-0.886,0.0
17.34,-0.451,-0.843,0.0
15.283,-0.401,-0.831,0.0
14.098,-0.372,-0.849,0.0
13.021,-0.346,-0.86,0.0
12.227,-0.328,-0.879,0.0
11.471,-0.31,-0.892,0.0
0.0,0.0,0.0,0.0
15.041,-0.413,-0.839,0.0
17.8,-0.493,-1.097,0.0
17.768,-0.495,-1.199,0.0
11.971,-0.336,-0.878,0.0
11.252,-0.318,-0.89,0.0
17.79,-0.508,-0.915,1.0
17.821,-0.512,-1.019,0.0
17.793,-0.515,-1.121,2.0
17.729,-0.517,-1.221,0.0
11.804,-0.347,-0.882,0.0
11.099,-0.328,-0.893,0.0
15.687,-0.468,-0.828,0.0
14.389,-0.432,-0.842,0.0
17.796,-0.538,-1.145,1.0
12.428,-0.379,-0.873,0.0
11.657,-0.358,-0.886,0.0
10.98,-0.339,-0.899,0.0
15.382,-0.479,-0.832,0.0
14.126,-0.443,-0.846,0.0
12.943,-0.409,-0.85,0.0
12.213,-0.388,-0.874,0.0
11.471,-0.367,-0.887,0.0
10.827,-0.349,-0.9,0.0
15.1,-0.49,-0.836,0.0
13.908,-0.454,-0.85,0.0
12.851,-0.423,-0.86,0.0
12.083,-0.4,-0.88,0.0
11.332,-0.378,-0.891,0.0
10.704,-0.359,-0.903,0.0
14.889,-0.503,-0.843,0.0
13.542,-0.461,-0.845,0.0
12.666,-0.434,-0.863,0.0
11.847,-0.408,-0.877,0.0
11.212,-0.389,-0.895,0.0
10.585,-0.37,-0.906,0.0
14.528,-0.511,-0.84,0.0
13.34,-0.472,-0.848,0.0
12.54,-0.446,-0.87,0.0
11.735,-0.42,-0.883,0.0
11.086,-0.4,-0.898,0.0
10.434,-0.379,-0.906,0.0
14.269,-0.521,-0.842,0.0
13.138,-0.483,-0.851,0.0
12.341,-0.456,-0.87,0.0
11.571,-0.431,-0.884,0.0
10.916,-0.409,-0.897,0.0
10.318,-0.389,-0.908,0.0
14.153,-0.537,-0.851,0.0
13.001,-0.496,-0.857,0.0
12.228,-0.469,-0.876,0.0
11.451,-0.442,-0.888,0.0
10.807,-0.42,-0.9,0.0
10.223,-0.4,-0.911,0.0
13.829,-0.544,-0.847,0.0
12.904,-0.51,-0.864,0.0
12.096,-0.481,-0.88,0.0
11.244,-0.45,-0.884,0.0
10.697,-0.431,-0.903,0.0
10.114,-0.41,-0.912,0.0
13.584,-0.553,-0.846,0.0
12.673,-0.519,-0.862,0.0
11.985,-0.494,-0.884,0.0
11.13,-0.461,-0.886,0.0
10.562,-0.441,-0.902,0.0
10.013,-0.42,-0.913,0.0
13.415,-0.565,-0.849,0.0
12.567,-0.533,-0.868,0.0
11.803,-0.503,-0.883,0.0
11.078,-0.475,-0.894,0.0
10.501,-0.453,-0.907,0.0
9.919,-0.431,-0.914,0.0
13.22,-0.576,-0.85,0.0
12.436,-0.545,-0.871,0.0
11.666,-0.514,-0.884,0.0
10.936,-0.485,-0.893,0.0
10.382,-0.463,-0.907,0.0
9.83,-0.441,-0.916,0.0
13.098,-0.59,-0.854,0.0
12.288,-0.556,-0.872,0.0
11.625,-0.529,-0.891,0.0
10.855,-0.497,-0.896,0.0
10.29,-0.474,-0.908,0.0
9.767,-0.452,-0.918,0.0
12.962,-0.602,-0.857,0.0
12.167,-0.568,-0.874,0.0
11.42,-0.537,-0.886,0.0
10.704,-0.506,-0.893,0.0
10.193,-0.484,-0.909,0.0
9.674,-0.462,-0.918,0.0
12.861,-0.616,-0.861,0.0
12.063,-0.581,-0.876,0.0
11.319,-0.548,-0.887,0.0
10.647,-0.518,-0.897,0.0
10.099,-0.494,-0.909,0.0
9.601,-0.473,-0.919,0.0
12.732,-0.629,-0.862,0.0
12.0,-0.596,-0.881,0.0
11.235,-0.561,-0.89,0.0
10.614,-0.532,-0.902,0.0
10.055,-0.507,-0.913,0.0
9.535,-0.483,-0.92,0.0
12.598,-0.64,-0.863,0.0
11.901,-0.608,-0.883,0.0
11.151,-0.573,-0.891,0.0
10.552,-0.545,-0.905,0.0
9.991,-0.519,-0.914,0.0
9.484,-0.495,-0.922,0.0
12.525,-0.655,-0.867,0.0
11.782,-0.619,-0.883,0.0
11.046,-0.583,-0.891,0.0
10.446,-0.554,-0.903,0.0
9.939,-0.53,-0.916,0.0
9.409,-0.505,-0.921,0.0
12.433,-0.668,-0.869,0.0
11.732,-0.634,-0.887,0.0
11.015,-0.598,-0.895,0.0
10.391,-0.567,-0.905,0.0
9.882,-0.542,-0.917,0.0
9.394,-0.518,-0.926,0.0
12.369,-0.683,-0.872,0.0
11.652,-0.647,-0.888,0.0
11.005,-0.614,-0.901,0.0
10.308,-0.577,-0.904,0.0
9.805,-0.552,-0.916,0.0
9.317,-0.527,-0.924,0.0
12.303,-0.697,-0.875,0.0
11.605,-0.661,-0.891,0.0
10.882,-0.623,-0.898,0.0
10.261,-0.59,-0.906,0.0
9.749,-0.563,-0.916,0.0
9.276,-0.538,-0.925,0.0
12.262,-0.713,-0.878,0.0
11.528,-0.673,-0.891,0.0
10.816,-0.635,-0.898,0.0
10.247,-0.604,-0.91,0.0
9.716,-0.575,-0.918,0.0
9.248,-0.55,-0.927,0.0
12.18,-0.726,-0.879,0.0
11.484,-0.687,-0.894,0.0
10.762,-0.647,-0.899,0.0
10.196,-0.616,-0.91,0.0
9.674,-0.587,-0.919,0.0
9.193,-0.56,-0.926,0.0
12.117,-0.74,-0.88,0.0
11.375,-0.697,-0.89,0.0
10.702,-0.659,-0.898,0.0
10.163,-0.629,-0.912,0.0
9.64,-0.599,-0.92,0.0
9.163,-0.572,-0.927,0.0
12.038,-0.752,-0.879,0.0
11.324,-0.711,-0.891,0.0
10.62,-0.669,-0.896,0.0
10.105,-0.64,-0.911,0.0
9.611,-0.611,-0.921,0.0
9.149,-0.584,-0.929,0.0
12.022,-0.769,-0.882,0.0
11.224,-0.721,-0.887,0.0
10.644,-0.686,-0.902,0.0
10.083,-0.653,-0.912,0.0
9.545,-0.621,-0.918,0.0
9.113,-0.595,-0.928,0.0
11.965,-0.782,-0.882,0.0
11.218,-0.736,-0.89,0.0
10.623,-0.7,-0.903,0.0
10.064,-0.666,-0.914,0.0
9.53,-0.633,-0.919,0.0
9.101,-0.607,-0.93,0.0
11.954,-0.798,-0.884,0.0
11.205,-0.751,-0.892,0.0
10.574,-0.712,-0.902,0.0
10.03,-0.678,-0.913,0.0
9.503,-0.645,-0.919,0.0
9.041,-0.616,-0.926,0.0
11.938,-0.814,-0.886,0.0
11.203,-0.767,-0.895,0.0
10.573,-0.727,-0.904,0.0
9.995,-0.69,-0.912,0.0
9.488,-0.658,-0.92,0.0
9.057,-0.63,-0.929,0.0
11.913,-0.829,-0.887,0.0
11.209,-0.783,-0.897,0.0
10.53,-0.739,-0.902,0.0
10.021,-0.706,-0.916,0.0
9.458,-0.669,-0.918,0.0
9.017,-0.64,-0.927,0.0
11.899,-0.845,-0.888,0.0
11.157,-0.795,-0.895,0.0
10.469,-0.749,-0.899,0.0
9.989,-0.718,-0.915,0.0
9.486,-0.684,-0.922,0.0
8.983,-0.65,-0.924,0.0
11.841,-0.858,-0.884,0.0
11.159,-0.811,-0.896,0.0
10.532,-0.768,-0.905,0.0
9.994,-0.732,-0.916,0.0
9.443,-0.694,-0.919,0.0
9.016,-0.665,-0.928,0.0
11.835,-0.873,-0.885,0.0
11.153,-0.826,-0.896,0.0
10.531,-0.783,-0.906,0.0
10.0,-0.746,-0.917,0.0
9.448,-0.707,-0.92,0.0
9.013,-0.677,-0.928,0.0
11.836,-0.889,-0.885,0.0
11.11,-0.838,-0.893,0.0
10.572,-0.8,-0.909,0.0
9.976,-0.758,-0.915,0.0
9.458,-0.721,-0.921,0.0
9.028,-0.691,-0.93,0.0
11.923,-0.912,-0.892,0.0
11.146,-0.856,-0.896,0.0
10.474,-0.807,-0.9,0.0
9.947,-0.769,-0.912,0.0
9.5,-0.737,-0.924,0.0
9.012,-0.702,-0.928,0.0
11.918,-0.928,-0.891,0.0
11.183,-0.873,-0.898,0.0
10.468,-0.82,-0.899,0.0
10.005,-0.787,-0.916,0.0
9.495,-0.749,-0.923,0.0
8.995,-0.712,-0.925,0.0
11.923,-0.944,-0.89,0.0
11.158,-0.886,-0.895,0.0
10.574,-0.843,-0.907,0.0
9.969,-0.797,-0.912,0.0
9.5,-0.762,-0.922,0.0
9.054,-0.729,-0.93,0.0
11.958,-0.962,-0.891,0.0
11.114,-0.897,-0.89,0.0
10.582,-0.857,-0.906,0.0
9.975,-0.81,-0.911,0.0
9.512,-0.775,-0.922,0.0
9.073,-0.742,-0.93,0.0
11.944,-0.976,-0.887,0.0
11.146,-0.914,-0.89,0.0
10.634,-0.875,-0.908,0.0
10.052,-0.829,-0.916,0.0
9.555,-0.791,-0.924,0.0
9.065,-0.753,-0.927,0.0
11.931,-0.99,-0.884,0.0
11.177,-0.931,-0.89,0.0
10.651,-0.89,-0.907,0.0
10.031,-0.84,-0.911,0.0
9.602,-0.807,-0.926,0.0
9.132,-0.77,-0.932,0.0
11.989,-1.01,-0.885,0.0
11.243,-0.95,-0.892,0.0
10.705,-0.907,-0.909,0.0
10.113,-0.86,-0.916,0.0
9.621,-0.82,-0.925,0.0
9.115,-0.78,-0.927,0.0
11.981,-1.024,-0.881,0.0
11.362,-0.974,-0.898,0.0
10.666,-0.917,-0.902,0.0
10.143,-0.874,-0.915,0.0
9.652,-0.835,-0.925,0.0
9.179,-0.796,-0.931,0.0
12.086,-1.047,-0.884,0.0
11.314,-0.983,-0.89,0.0
10.685,-0.931,-0.9,0.0
10.148,-0.887,-0.912,0.0
9.655,-0.846,-0.921,0.0
9.244,-0.813,-0.934,0.0
12.162,-1.068,-0.885,0.0
11.445,-1.008,-0.896,0.0
10.781,-0.952,-0.904,0.0
10.226,-0.906,-0.915,0.0
9.737,-0.865,-0.925,0.0
9.233,-0.822,-0.929,0.0
12.153,-1.081,-0.879,0.0
11.467,-1.023,-0.893,0.0
10.873,-0.973,-0.907,0.0
10.262,-0.92,-0.913,0.0
9.765,-0.878,-0.924,0.0
9.281,-0.837,-0.929,0.0
12.232,-1.102,-0.879,0.0
11.532,-1.042,-0.892,0.0
10.868,-0.984,-0.901,0.0
10.345,-0.939,-0.916,0.0
9.826,-0.895,-0.924,0.0
9.359,-0.854,-0.932,0.0
12.328,-1.124,-0.88,0.0
11.54,-1.055,-0.887,0.0
10.976,-1.006,-0.905,0.0
10.379,-0.953,-0.914,0.0
9.886,-0.911,-0.925,0.0
9.381,-0.866,-0.93,0.0
12.357,-1.14,-0.876,0.0
11.658,-1.078,-0.89,0.0
11.023,-1.021,-0.902,0.0
10.42,-0.968,-0.911,0.0
9.905,-0.923,-0.921,0.0
9.469,-0.884,-0.933,0.0
12.446,-1.161,-0.875,0.0
11.705,-1.094,-0.887,0.0
11.082,-1.038,-0.901,0.0
10.529,-0.989,-0.915,0.0
9.961,-0.938,-0.92,0.0
9.504,-0.897,-0.931,0.0
12.553,-1.183,-0.875,0.0
11.828,-1.117,-0.889,0.0
11.133,-1.054,-0.898,0.0
10.571,-1.003,-0.912,0.0
10.033,-0.954,-0.921,0.0
9.54,-0.91,-0.928,0.0
12.671,-1.207,-0.875,0.0
11.898,-1.136,-0.887,0.0
11.328,-1.084,-0.906,0.0
10.662,-1.022,-0.913,0.0
10.134,-0.974,-0.923,0.0
9.583,-0.923,-0.926,0.0
12.821,-1.233,-0.877,0.0
12.029,-1.159,-0.888,0.0
11.367,-1.098,-0.902,0.0
10.705,-1.036,-0.909,0.0
10.142,-0.984,-0.917,0.0
9.655,-0.939,-0.926,0.0
12.947,-1.257,-0.876,0.0
12.117,-1.179,-0.886,0.0
11.362,-1.108,-0.893,0.0
10.807,-1.056,-0.909,0.0
10.189,-0.997,-0.913,0.0
9.738,-0.955,-0.926,0.0
13.099,-1.283,-0.876,0.0
12.125,-1.19,-0.877,0.0
11.501,-1.131,-0.895,0.0
10.883,-1.072,-0.908,0.0
10.34,-1.021,-0.919,0.0
9.79,-0.969,-0.924,0.0
13.189,-1.303,-0.872,0.0
12.124,-1.2,-0.868,0.0
11.584,-1.149,-0.892,0.0
10.94,-1.087,-0.904,0.0
10.41,-1.036,-0.917,0.0
9.877,-0.985,-0.924,0.0
13.356,-1.33,-0.873,0.0
12.401,-1.237,-0.878,0.0
11.71,-1.171,-0.893,0.0
11.074,-1.109,-0.906,0.0
10.502,-1.054,-0.916,0.0
9.972,-1.003,-0.924,0.0
13.497,-1.355,-0.871,0.0
12.43,-1.25,-0.869,0.0
11.775,-1.186,-0.888,0.0
11.181,-1.128,-0.905,0.0
10.589,-1.07,-0.915,0.0
10.039,-1.017,-0.922,0.0
13.626,-1.378,-0.867,0.0
12.62,-1.278,-0.872,0.0
11.908,-1.208,-0.887,0.0
11.258,-1.144,-0.901,0.0
10.693,-1.089,-0.914,0.0
10.119,-1.032,-0.92,0.0
13.9,-1.415,-0.872,0.0
12.839,-1.309,-0.875,0.0
12.057,-1.231,-0.887,0.0
11.354,-1.161,-0.898,0.0
10.757,-1.102,-0.91,0.0
10.212,-1.048,-0.919,0.0
14.026,-1.437,-0.867,0.0
13.021,-1.336,-0.876,0.0
12.168,-1.251,-0.884,0.0
11.399,-1.173,-0.891,0.0
10.871,-1.121,-0.909,0.0
10.277,-1.061,-0.915,0.0
14.24,-1.468,-0.867,0.0
13.264,-1.369,-0.879,0.0
12.283,-1.27,-0.881,0.0
11.55,-1.196,-0.892,0.0
10.999,-1.141,-0.909,0.0
10.454,-1.086,-0.921,0.0
14.439,-1.497,-0.865,0.0
13.428,-1.394,-0.877,0.0
12.326,-1.281,-0.872,0.0
11.734,-1.222,-0.895,0.0
11.095,-1.157,-0.906,0.0
10.541,-1.1,-0.918,0.0
14.628,-1.525,-0.862,0.0
13.627,-1.422,-0.876,0.0
12.543,-1.311,-0.874,0.0
11.815,-1.236,-0.889,0.0
11.156,-1.169,-0.9,0.0
10.644,-1.117,-0.916,0.0
14.843,-1.555,-0.859,0.0
13.849,-1.452,-0.876,0.0
12.701,-1.333,-0.872,0.0
12.011,-1.263,-0.891,0.0
11.339,-1.193,-0.902,0.0
10.754,-1.133,-0.914,0.0
15.128,-1.592,-0.86,0.0
14.005,-1.475,-0.872,0.0
12.946,-1.365,-0.875,0.0
12.144,-1.282,-0.888,0.0
11.428,-1.208,-0.897,0.0
10.84,-1.147,-0.91,0.0
15.405,-1.627,-0.859,0.0
14.201,-1.502,-0.868,0.0
13.197,-1.397,-0.878,0.0
12.265,-1.3,-0.883,0.0
11.569,-1.227,-0.896,0.0
10.967,-1.165,-0.908,0.0
15.638,-1.658,-0.855,0.0
14.427,-1.531,-0.867,0.0
13.369,-1.42,-0.875,0.0
12.456,-1.324,-0.883,0.0
11.706,-1.246,-0.893,0.0
11.121,-1.185,-0.909,0.0
15.806,-1.681,-0.847,0.0
14.682,-1.563,-0.865,0.0
13.648,-1.454,-0.878,0.0
12.581,-1.342,-0.878,0.0
11.895,-1.27,-0.894,0.0
11.221,-1.199,-0.904,0.0
16.131,-1.721,-0.846,0.0
14.889,-1.589,-0.861,0.0
13.855,-1.48,-0.875,0.0
12.818,-1.371,-0.88,0.0
11.978,-1.282,-0.887,0.0
11.379,-1.219,-0.903,0.0
16.498,-1.764,-0.846,0.0
15.174,-1.624,-0.86,0.0
14.056,-1.505,-0.872,0.0
13.094,-1.403,-0.884,0.0
12.136,-1.301,-0.884,0.0
11.494,-1.234,-0.899,0.0
16.846,-1.805,-0.845,0.0
15.352,-1.646,-0.852,0.0
14.349,-1.539,-0.873,0.0
13.252,-1.423,-0.879,0.0
12.309,-1.322,-0.882,0.0
11.581,-1.245,-0.892,0.0
17.099,-1.835,-0.837,0.0
15.746,-1.691,-0.855,0.0
14.533,-1.561,-0.867,0.0
13.557,-1.457,-0.882,0.0
12.509,-1.345,-0.881,0.0
11.811,-1.271,-0.895,0.0
17.291,-1.858,-0.826,0.0
16.138,-1.735,-0.857,0.0
14.747,-1.586,-0.862,0.0
13.729,-1.477,-0.877,0.0
12.703,-1.367,-0.88,0.0
12.042,-1.297,-0.898,0.0
17.523,-1.885,-0.815,0.0
16.369,-1.761,-0.849,0.0
15.064,-1.621,-0.862,0.0
13.997,-1.507,-0.877,0.0
13.053,-1.406,-0.888,0.0
12.094,-1.303,-0.887,0.0
27.371,-2.797,-0.677,0.0
24.1,-2.46,-0.724,0.0
21.674,-2.209,-0.766,0.0
19.707,-2.006,-0.803,0.0
17.801,-1.81,-0.819,0.0
16.52,-1.678,-0.848,0.0
0.0,0.0,0.0,0.0
25.05,-2.538,-0.72,0.0
22.07,-2.233,-0.751,0.0
20.475,-2.069,-0.808,0.0
18.305,-1.848,-0.819,0.0
16.777,-1.691,-0.84,0.0
29.34,-2.955,-0.65,0.0
25.71,-2.585,-0.706,0.0
22.827,-2.292,-0.748,0.0
20.561,-2.062,-0.784,0.0
18.808,-1.883,-0.817,0.0
17.137,-1.713,-0.836,0.0
29.848,-2.982,-0.623,0.0
26.577,-2.651,-0.695,0.0
23.655,-2.355,-0.744,0.0
20.962,-2.084,-0.773,0.0
19.339,-1.92,-0.815,0.0
17.421,-1.727,-0.827,0.0
29.774,-2.949,-0.583,0.0
27.284,-2.697,-0.679,0.0
23.781,-2.347,-0.718,0.0
21.744,-2.143,-0.774,0.0
19.644,-1.932,-0.803,0.0
17.719,-1.74,-0.818,0.0
31.915,-3.132,-0.584,0.0
0.0,0.0,0.0,0.0
24.826,-2.428,-0.717,0.0
22.203,-2.167,-0.762,0.0
19.987,-1.947,-0.792,0.0
18.297,-1.78,-0.822,0.0
0.0,0.0,0.0,0.0
29.117,-2.824,-0.651,0.0
25.314,-2.451,-0.7,0.0
22.34,-2.159,-0.738,0.0
20.576,-1.985,-0.789,0.0
18.857,-1.816,-0.823,0.0
0.0,0.0,0.0,0.0
29.592,-2.841,-0.624,0.0
26.6,-2.549,-0.702,0.0
23.458,-2.243,-0.746,0.0
21.071,-2.011,-0.782,0.0
19.2,-1.829,-0.814,0.0
0.0,0.0,0.0,0.0
31.295,-2.972,-0.621,0.0
26.524,-2.514,-0.667,0.0
24.169,-2.286,-0.739,0.0
21.468,-2.026,-0.77,0.0
19.5,-1.836,-0.803,0.0
37.423,-3.521,-0.498,0.0
0.0,0.0,0.0,0.0
27.611,-2.587,-0.661,0.0
24.671,-2.306,-0.724,0.0
21.97,-2.049,-0.761,0.0
19.8,-1.843,-0.791,0.0
39.177,-3.643,-0.475,0.0
0.0,0.0,0.0,0.0
0.0,0.0,0.0,0.0
0.0,0.0,0.0,0.0
22.55,-2.077,-0.754,0.0
20.193,-1.856,-0.783,0.0
40.653,-3.734,-0.444,0.0
34.031,-3.118,-0.552,0.0
29.586,-2.704,-0.637,0.0
26.111,-2.381,-0.704,0.0
23.21,-2.111,-0.749,0.0
20.848,-1.892,-0.783,0.0
42.144,-3.821,-0.411,0.0
0.0,0.0,0.0,0.0
30.14,-2.718,-0.614,0.0
26.655,-2.398,-0.687,0.0
23.547,-2.113,-0.732,0.0
21.399,-1.915,-0.779,0.0
0.0,0.0,0.0,0.0
0.0,0.0,0.0,0.0
0.0,0.0,0.0,0.0
27.301,-2.422,-0.672,0.0
24.246,-2.145,-0.726,0.0
21.718,-1.916,-0.766,0.0
0.0,0.0,0.0,0.0
38.668,-3.399,-0.493,0.0
0.0,0.0,0.0,0.0
0.0,0.0,0.0,0.0
24.794,-2.161,-0.714,0.0
22.329,-1.941,-0.762,0.0
0.0,0.0,0.0,0.0
39.332,-3.406,-0.458,1.0
33.297,-2.875,-0.564,0.0
0.0,0.0,0.0,0.0
0.0,0.0,0.0,0.0
22.566,-1.931,-0.745,0.0
0.0,0.0,0.0,0.0
0.0,0.0,0.0,0.0
35.092,-2.982,-0.556,0.0
29.822,-2.526,-0.635,0.0
26.215,-2.214,-0.698,0.0
23.35,-1.966,-0.746,0.0
0.0,0.0,0.0,0.0
0.0,0.0,0.0,0.0
35.191,-2.942,-0.52,0.0
30.412,-2.534,-0.615,0.0
26.902,-2.235,-0.687,0.0
23.954,-1.983,-0.74,0.0
0.0,0.0,0.0,0.0
0.0,0.0,0.0,0.0
0.0,0.0,0.0,0.0
0.0,0.0,0.0,0.0
27.51,-2.246,-0.674,0.0
24.418,-1.986,-0.728,0.0
0.0,0.0,0.0,0.0
0.0,0.0,0.0,0.0
38.922,-3.141,-0.494,0.0
0.0,0.0,0.0,0.0
28.226,-2.262,-0.662,0.0
24.905,-1.989,-0.717,0.0
0.0,0.0,0.0,0.0
0.0,0.0,0.0,0.0
40.153,-3.18,-0.469,0.0
33.742,-2.663,-0.578,0.0
0.0,0.0,0.0,0.0
25.635,-2.009,-0.713,0.0
0.0,0.0,0.0,0.0
0.0,0.0,0.0,0.0
41.632,-3.234,-0.446,1.0
34.555,-2.674,-0.558,0.0
29.632,-2.284,-0.637,0.0
26.094,-2.004,-0.7,0.0
0.0,0.0,0.0,0.0
0.0,0.0,0.0,0.0
0.0,0.0,0.0,0.0
0.0,0.0,0.0,0.0
0.0,0.0,0.0,0.0
26.486,-1.992,-0.686,0.0
98.827,-7.426,0.185,1.0
0.0,0.0,0.0,0.0
0.0,0.0,0.0,0.0
35.185,-2.611,-0.502,0.0
31.116,-2.3,-0.61,0.0
27.275,-2.008,-0.681,0.0
98.885,-7.269,0.276,8.0
0.0,0.0,0.0,0.0
0.0,0.0,0.0,0.0
36.913,-2.679,-0.493,0.0
0.0,0.0,0.0,0.0
27.549,-1.983,-0.663,0.0
98.958,-7.112,0.364,13.0
0.0,0.0,0.0,0.0
0.0,0.0,0.0,0.0
38.548,-2.733,-0.481,0.0
32.922,-2.324,-0.587,0.0
28.524,-2.005,-0.662,0.0
99.194,-6.962,0.451,13.0
0.0,0.0,0.0,0.0
0.0,0.0,0.0,0.0
40.281,-2.788,-0.468,0.0
33.629,-2.317,-0.572,0.0
29.362,-2.013,-0.657,0.0
99.945,-6.845,0.538,3.0
0.0,0.0,0.0,0.0
0.0,0.0,0.0,0.0
41.518,-2.802,-0.449,0.0
34.053,-2.287,-0.551,0.0
29.157,-1.949,-0.628,0.0
99.716,-6.653,0.618,3.0
0.0,0.0,0.0,0.0
0.0,0.0,0.0,0.0
42.174,-2.772,-0.422,0.0
35.607,-2.328,-0.548,0.0
30.051,-1.955,-0.624,0.0
125.168,-8.131,0.873,2.0
0.0,0.0,0.0,0.0
0.0,0.0,0.0,0.0
0.0,0.0,0.0,0.0
36.911,-2.348,-0.54,0.0
30.45,-1.927,-0.609,0.0
125.292,-7.916,0.967,7.0
0.0,0.0,0.0,0.0
0.0,0.0,0.0,0.0
0.0,0.0,0.0,0.0
0.0,0.0,0.0,0.0
30.654,-1.885,-0.591,0.0
149.856,-9.195,1.265,19.0
0.0,0.0,0.0,0.0
0.0,0.0,0.0,0.0
0.0,0.0,0.0,0.0
37.779,-2.265,-0.499,0.0
32.571,-1.942,-0.606,0.0
150.016,-8.924,1.37,18.0
0.0,0.0,0.0,0.0
0.0,0.0,0.0,0.0
0.0,0.0,0.0,0.0
38.879,-2.258,-0.487,0.0
0.0,0.0,0.0,0.0
140.751,-8.109,1.378,19.0
0.0,0.0,0.0,0.0
0.0,0.0,0.0,0.0
0.0,0.0,0.0,0.0
39.567,-2.224,-0.471,0.0
32.643,-1.823,-0.565,0.0
0.0,0.0,0.0,0.0
0.0,0.0,0.0,0.0
0.0,0.0,0.0,0.0
0.0,0.0,0.0,0.0
0.0,0.0,0.0,0.0
0.0,0.0,0.0,0.0
0.0,0.0,0.0,0.0
102.328,-5.467,0.572,2.0
0.0,0.0,0.0,0.0
0.0,0.0,0.0,0.0
40.789,-2.135,-0.438,0.0
0.0,0.0,0.0,0.0
0.0,0.0,0.0,0.0
0.0,0.0,0.0,0.0
0.0,0.0,0.0,0.0
0.0,0.0,0.0,0.0
42.989,-2.167,-0.438,0.0
0.0,0.0,0.0,0.0
101.541,-5.066,1.226,44.0
0.0,0.0,0.0,0.0
101.474,-4.989,0.125,3.0
0.0,0.0,0.0,0.0
0.0,0.0,0.0,0.0
34.764,-1.672,-0.526,0.0
101.569,-4.866,1.277,5.0
0.0,0.0,0.0,0.0
101.469,-4.789,0.173,3.0
0.0,0.0,0.0,0.0
0.0,0.0,0.0,0.0
0.0,0.0,0.0,0.0
101.472,-4.657,1.321,2.0
0.0,0.0,0.0,0.0
0.0,0.0,0.0,0.0
0.0,0.0,0.0,0.0
45.224,-2.009,-0.398,0.0
35.315,-1.556,-0.502,0.0
101.509,-4.453,1.365,62.0
101.459,-4.413,0.812,1.0
0.0,0.0,0.0,0.0
0.0,0.0,0.0,0.0
0.0,0.0,0.0,0.0
35.375,-1.487,-0.49,0.0
101.552,-4.25,1.404,126.0
101.496,-4.209,0.851,151.0
0.0,0.0,0.0,0.0
0.0,0.0,0.0,0.0
0.0,0.0,0.0,0.0
0.0,0.0,0.0,0.0
0.0,0.0,0.0,0.0
0.0,0.0,0.0,0.0
0.0,0.0,0.0,0.0
0.0,0.0,0.0,0.0
46.623,-1.787,-0.36,0.0
37.832,-1.436,-0.498,0.0
162.089,-6.117,2.348,14.0
162.243,-6.065,1.465,4.0
0.0,0.0,0.0,0.0
0.0,0.0,0.0,0.0
0.0,0.0,0.0,0.0
0.0,0.0,0.0,0.0
162.201,-5.789,2.393,16.0
162.254,-5.73,1.508,6.0
0.0,0.0,0.0,0.0
0.0,0.0,0.0,0.0
0.0,0.0,0.0,0.0
38.457,-1.301,-0.486,0.0
162.228,-5.453,2.432,22.0
161.902,-5.38,1.542,17.0
0.0,0.0,0.0,0.0
0.0,0.0,0.0,0.0
0.0,0.0,0.0,0.0
38.829,-1.233,-0.483,0.0
162.217,-5.114,2.465,15.0
162.11,-5.048,1.576,4.0
0.0,0.0,0.0,0.0
0.0,0.0,0.0,0.0
0.0,0.0,0.0,0.0
38.681,-1.147,-0.475,0.0
163.838,-4.821,2.516,14.0
162.072,-4.709,1.601,15.0
0.0,0.0,0.0,0.0
0.0,0.0,0.0,0.0
0.0,0.0,0.0,0.0
0.0,0.0,0.0,0.0
0.0,0.0,0.0,0.0
162.071,-4.365,1.621,24.0
0.0,0.0,0.0,0.0
0.0,0.0,0.0,0.0
0.0,0.0,0.0,0.0
0.0,0.0,0.0,0.0
170.416,-4.296,2.654,5.0
0.0,0.0,0.0,0.0
0.0,0.0,0.0,0.0
0.0,0.0,0.0,0.0
0.0,0.0,0.0,0.0
0.0,0.0,0.0,0.0
170.261,-3.926,2.661,5.0
139.308,-3.159,1.411,150.0
0.0,0.0,0.0,0.0
0.0,0.0,0.0,0.0
0.0,0.0,0.0,0.0
38.656,-0.82,-0.462,0.0
0.0,0.0,0.0,0.0
139.265,-2.864,1.411,65.0
0.0,0.0,0.0,0.0
0.0,0.0,0.0,0.0
0.0,0.0,0.0,0.0
37.82,-0.722,-0.453,0.0
0.0,0.0,0.0,0.0
139.252,-2.567,1.407,152.0
0.0,0.0,0.0,0.0
0.0,0.0,0.0,0.0
0.0,0.0,0.0,0.0
0.0,0.0,0.0,0.0
0.0,0.0,0.0,0.0
139.304,-2.271,1.399,14.0
19.737,-0.314,0.089,12.0
0.0,0.0,0.0,0.0
0.0,0.0,0.0,0.0
0.0,0.0,0.0,0.0
19.783,-0.287,0.305,3.0
19.746,-0.279,0.196,28.0
19.744,-0.272,0.087,15.0
0.0,0.0,0.0,0.0
49.447,-0.646,-0.333,1.0
0.0,0.0,0.0,0.0
19.745,-0.244,0.302,12.0
19.754,-0.237,0.193,11.0
0.0,0.0,0.0,0.0
0.0,0.0,0.0,0.0
0.0,0.0,0.0,0.0
19.799,-0.209,-0.246,0.0
19.76,-0.202,0.299,1.0
164.141,-1.623,1.578,9.0
0.0,0.0,0.0,0.0
19.804,-0.181,-0.03,0.0
19.755,-0.173,-0.14,12.0
19.743,-0.166,-0.249,16.0
169.338,-1.374,2.53,12.0
165.346,-1.28,1.554,12.0
19.789,-0.146,0.076,1.0
19.74,-0.138,-0.035,9.0
19.716,-0.131,-0.144,16.0
19.738,-0.124,-0.254,17.0
19.709,-0.117,0.289,7.0
19.722,-0.111,0.18,15.0
19.716,-0.103,0.07,13.0
19.706,-0.096,-0.04,14.0
19.716,-0.089,-0.149,17.0
19.74,-0.082,-0.259,15.0
19.66,-0.075,0.283,10.0
19.695,-0.068,0.174,16.0
19.697,-0.061,0.064,14.0
19.706,-0.054,-0.046,17.0
19.736,-0.047,-0.156,14.0
19.759,-0.04,-0.266,1.0
19.64,-0.033,0.276,12.0
19.671,-0.026,0.167,7.0
19.715,-0.019,0.058,8.0
19.737,-0.012,-0.053,9.0
19.879,-0.005,-0.164,0.0
19.767,0.001,-0.273,0.0
19.638,0.008,0.269,15.0
19.74,0.015,0.16,11.0
19.755,0.022,0.051,21.0
19.74,0.029,-0.06,34.0
19.758,0.035,-0.17,16.0
19.774,0.042,-0.28,69.0
19.624,0.049,0.261,13.0
19.678,0.056,0.152,12.0
19.739,0.063,0.043,31.0
19.744,0.07,-0.068,19.0
19.757,0.077,-0.178,9.0
19.747,0.084,-0.288,0.0
19.624,0.09,0.253,16.0
19.659,0.097,0.143,13.0
19.647,0.104,0.034,12.0
19.677,0.111,-0.077,7.0
19.702,0.118,-0.187,0.0
33.512,0.212,-0.505,0.0
19.646,0.131,0.244,13.0
19.65,0.138,0.134,13.0
19.646,0.145,0.024,18.0
19.628,0.152,-0.086,13.0
19.655,0.158,-0.196,14.0
19.662,0.165,-0.306,12.0
19.67,0.173,0.234,11.0
19.675,0.179,0.124,10.0
19.658,0.186,0.014,13.0
19.619,0.192,-0.096,16.0
19.634,0.199,-0.206,17.0
19.662,0.206,-0.316,15.0
19.772,0.214,0.224,24.0
19.761,0.221,0.114,18.0
19.685,0.227,0.003,7.0
19.637,0.233,-0.108,15.0
19.646,0.24,-0.218,17.0
19.679,0.247,-0.328,13.0
19.761,0.255,0.213,26.0
19.795,0.262,0.102,1.0
57.167,0.776,-0.022,2.0
19.705,0.274,-0.12,4.0
19.686,0.28,-0.23,11.0
19.691,0.287,-0.34,2.0
163.391,2.448,1.663,17.0
0.0,0.0,0.0,0.0
55.207,0.864,-0.056,15.0
40.849,0.652,-0.274,0.0
33.944,0.553,-0.418,0.0
31.268,0.52,-0.561,0.0
55.177,0.939,0.525,74.0
55.162,0.957,0.216,71.0
55.102,0.974,-0.092,5.0
39.77,0.715,-0.293,1.0
32.374,0.593,-0.42,0.0
29.566,0.551,-0.55,1.0
55.245,1.051,0.489,0.0
0.0,0.0,0.0,0.0
52.229,1.027,-0.123,0.0
38.684,0.773,-0.312,2.0
32.735,0.665,-0.448,1.0
26.793,0.553,-0.517,0.0
113.656,2.392,0.924,11.0
0.0,0.0,0.0,0.0
47.748,1.035,-0.148,0.0
36.984,0.814,-0.326,1.0
30.454,0.68,-0.439,1.0
25.626,0.58,-0.514,0.0
70.819,1.632,0.522,10.0
45.559,1.064,0.079,17.0
43.821,1.037,-0.169,41.0
36.747,0.881,-0.352,3.0
30.012,0.729,-0.456,1.0
25.444,0.626,-0.53,1.0
70.77,1.77,0.466,21.0
41.934,1.062,0.04,155.0
40.113,1.029,-0.187,150.0
36.333,0.943,-0.377,3.0
29.309,0.77,-0.469,2.0
25.501,0.678,-0.552,2.0
0.0,0.0,0.0,0.0
40.141,1.096,0.005,159.0
40.059,1.105,-0.22,55.0
40.174,1.121,-0.451,0.0
28.697,0.809,-0.484,1.0
24.561,0.7,-0.552,1.0
40.129,1.16,0.197,122.0
40.132,1.172,-0.028,150.0
40.033,1.181,-0.254,32.0
40.194,1.198,-0.486,1.0
27.524,0.829,-0.488,7.0
23.661,0.72,-0.553,0.0
40.135,1.237,0.162,142.0
40.132,1.249,-0.064,150.0
39.945,1.255,-0.289,9.0
40.156,1.273,-0.521,2.0
27.38,0.876,-0.51,2.0
23.109,0.746,-0.561,0.0
40.119,1.312,0.125,150.0
40.065,1.322,-0.1,92.0
39.955,1.33,-0.325,2.0
30.748,1.032,-0.427,1.0
26.309,0.891,-0.514,2.0
22.465,0.768,-0.566,3.0
40.135,1.387,0.087,150.0
40.116,1.398,-0.138,83.0
40.0,1.406,-0.364,0.0
29.849,1.058,-0.443,1.0
25.591,0.914,-0.525,2.0
21.693,0.781,-0.567,1.0
42.747,1.555,0.052,2.0
42.287,1.551,-0.187,3.0
36.252,1.34,-0.365,2.0
29.226,1.088,-0.463,4.0
24.776,0.93,-0.532,1.0
21.283,0.805,-0.578,1.0
25.581,1.617,-0.491,6.0
19.726,1.251,-0.492,10.0
19.477,1.239,-0.597,3.0
17.652,1.126,-0.644,1.0
16.769,1.073,-0.707,2.0
16.022,1.028,-0.768,1.0
24.692,1.592,-0.508,5.0
19.726,1.275,-0.519,9.0
18.902,1.226,-0.605,3.0
17.34,1.128,-0.656,1.0
16.544,1.079,-0.721,1.0
15.806,1.034,-0.78,0.0
24.09,1.583,-0.53,1.0
19.703,1.298,-0.546,9.0
18.435,1.218,-0.616,3.0
17.078,1.131,-0.67,1.0
16.322,1.085,-0.734,1.0
15.441,1.029,-0.783,0.0
19.803,1.324,-0.463,5.0
19.683,1.32,-0.573,10.0
18.121,1.219,-0.632,2.0
16.879,1.138,-0.687,1.0
16.1,1.089,-0.747,1.0
15.137,1.027,-0.79,0.0
19.736,1.343,-0.49,10.0
19.384,1.322,-0.592,3.0
17.64,1.207,-0.64,1.0
16.727,1.147,-0.705,1.0
15.974,1.098,-0.765,3.0
14.729,1.016,-0.79,0.0
19.731,1.365,-0.518,8.0
18.764,1.301,-0.601,3.0
17.335,1.205,-0.654,1.0
16.509,1.15,-0.72,1.0
15.788,1.103,-0.779,0.0
14.478,1.014,-0.797,0.0
19.712,1.385,-0.547,11.0
18.423,1.297,-0.617,3.0
17.07,1.205,-0.669,2.0
16.294,1.153,-0.734,1.0
15.425,1.094,-0.784,0.0
14.093,1.002,-0.797,0.0
19.648,1.4,-0.574,9.0
18.008,1.287,-0.629,2.0
16.854,1.207,-0.686,1.0
16.059,1.152,-0.747,1.0
14.97,1.077,-0.782,0.0
13.808,0.996,-0.801,0.0
19.287,1.394,-0.591,3.0
17.579,1.273,-0.64,2.0
16.688,1.211,-0.704,1.0
15.956,1.161,-0.766,2.0
14.646,1.068,-0.787,0.0
13.717,1.002,-0.817,0.0
18.666,1.367,-0.6,3.0
17.318,1.271,-0.656,2.0
16.461,1.21,-0.719,1.0
15.578,1.148,-0.771,0.0
14.367,1.061,-0.794,0.0
13.291,0.984,-0.811,0.0
18.343,1.36,-0.617,2.0
17.023,1.265,-0.671,1.0
16.233,1.208,-0.733,1.0
15.187,1.133,-0.775,0.0
14.114,1.055,-0.801,0.0
13.053,0.978,-0.816,0.0
17.931,1.345,-0.63,2.0
16.802,1.263,-0.687,1.0
16.02,1.206,-0.747,2.0
14.888,1.123,-0.782,0.0
13.701,1.036,-0.798,0.0
12.805,0.97,-0.82,0.0
17.499,1.327,-0.641,1.0
16.621,1.263,-0.705,1.0
15.881,1.209,-0.765,1.0
14.619,1.115,-0.79,0.0
13.57,1.037,-0.811,0.0
12.538,0.96,-0.822,0.0
17.218,1.32,-0.657,1.0
16.421,1.261,-0.721,1.0
15.47,1.19,-0.768,0.0
14.137,1.089,-0.785,0.0
13.223,1.02,-0.811,0.0
12.383,0.957,-0.831,0.0
16.965,1.313,-0.673,1.0
16.146,1.252,-0.733,1.0
15.262,1.185,-0.781,0.0
13.959,1.085,-0.796,0.0
12.959,1.009,-0.814,0.0
12.075,0.942,-0.828,0.0
16.747,1.308,-0.69,1.0
15.978,1.25,-0.75,1.0
14.755,1.156,-0.778,0.0
13.711,1.075,-0.803,0.0
12.829,1.008,-0.825,0.0
11.849,0.932,-0.831,0.0
16.525,1.301,-0.705,1.0
15.749,1.242,-0.763,0.0
14.517,1.146,-0.787,0.0
13.365,1.057,-0.803,0.0
12.489,0.989,-0.822,0.0
11.717,0.929,-0.839,0.0
16.331,1.296,-0.722,1.0
15.252,1.212,-0.762,0.0
13.017,1.037,-0.801,0.0
12.255,0.978,-0.825,0.0
11.624,0.929,-0.85,0.0
16.079,1.285,-0.735,1.0
15.007,1.201,-0.772,0.0
12.811,1.028,-0.808,0.0
12.056,0.969,-0.83,0.0
11.395,0.917,-0.85,0.0
15.971,1.285,-0.754,2.0
14.722,1.186,-0.779,0.0
12.653,1.021,-0.817,0.0
11.809,0.955,-0.831,0.0
11.177,0.905,-0.851,0.0
15.695,1.27,-0.764,0.0
14.426,1.169,-0.785,0.0
13.283,1.077,-0.8,0.0
12.421,1.009,-0.821,0.0
11.721,0.953,-0.842,0.0
11.046,0.899,-0.858,0.0
15.249,1.241,-0.765,0.0
14.126,1.151,-0.79,0.0
13.038,1.063,-0.804,0.0
12.264,1.001,-0.829,0.0
11.589,0.947,-0.85,0.0
10.816,0.885,-0.856,0.0
14.985,1.225,-0.774,0.0
13.783,1.128,-0.792,0.0
12.844,1.052,-0.812,0.0
12.087,0.991,-0.835,0.0
11.354,0.932,-0.85,0.0
10.62,0.873,-0.856,0.0
14.709,1.208,-0.782,0.0
13.521,1.111,-0.796,0.0
12.656,1.041,-0.819,0.0
11.788,0.971,-0.832,0.0
11.184,0.922,-0.854,0.0
10.45,0.862,-0.858,0.0
14.324,1.181,-0.782,0.0
13.286,1.096,-0.802,0.0
12.459,1.029,-0.824,0.0
11.661,0.964,-0.84,0.0
10.972,0.908,-0.854,0.0
10.32,0.854,-0.863,0.0
13.012,1.077,-0.805,0.0
12.203,1.011,-0.825,0.0
11.526,0.955,-0.847,0.0
10.759,0.893,-0.853,0.0
10.211,0.848,-0.869,0.0
12.835,1.065,-0.812,0.0
12.028,0.999,-0.831,0.0
11.295,0.938,-0.847,0.0
10.596,0.881,-0.856,0.0
10.096,0.84,-0.874,0.0
13.495,1.121,-0.796,0.0
12.628,1.05,-0.818,0.0
11.804,0.982,-0.833,0.0
11.125,0.926,-0.85,0.0
10.505,0.875,-0.864,0.0
9.976,0.832,-0.878,0.0
13.282,1.106,-0.803,0.0
12.39,1.032,-0.82,0.0
11.678,0.973,-0.84,0.0
10.921,0.911,-0.85,0.0
10.341,0.863,-0.865,0.0
9.857,0.823,-0.882,0.0
12.961,1.08,-0.802,0.0
12.221,1.019,-0.826,0.0
11.427,0.953,-0.839,0.0
10.791,0.901,-0.856,0.0
10.204,0.852,-0.868,0.0
9.736,0.814,-0.885,0.0
12.846,1.071,-0.813,0.0
11.98,0.999,-0.827,0.0
11.323,0.945,-0.847,0.0
10.619,0.887,-0.857,0.0
10.088,0.843,-0.872,0.0
9.642,0.806,-0.89,0.0
12.673,1.057,-0.819,0.0
11.852,0.989,-0.835,0.0
11.117,0.928,-0.847,0.0
10.434,0.871,-0.856,0.0
9.988,0.834,-0.878,0.0
9.536,0.797,-0.893,0.0
12.397,1.033,-0.819,0.0
11.672,0.973,-0.838,0.0
10.99,0.917,-0.852,0.0
10.269,0.857,-0.857,0.0
9.883,0.825,-0.882,0.0
9.374,0.783,-0.891,0.0
12.24,1.019,-0.825,0.0
11.417,0.951,-0.835,0.0
10.789,0.899,-0.852,0.0
10.223,0.852,-0.867,0.0
9.746,0.813,-0.883,0.0
9.193,0.767,-0.886,0.0
12.117,1.008,-0.833,0.0
11.309,0.941,-0.843,0.0
10.634,0.885,-0.854,0.0
10.09,0.84,-0.869,0.0
9.624,0.801,-0.885,0.0
9.075,0.756,-0.887,0.0
11.853,0.984,-0.83,0.0
11.191,0.929,-0.848,0.0
10.515,0.873,-0.858,0.0
10.018,0.832,-0.876,0.0
9.576,0.795,-0.893,0.0
8.914,0.741,-0.883,0.0
11.702,0.969,-0.835,0.0
11.04,0.914,-0.851,0.0
10.33,0.856,-0.856,0.0
9.906,0.82,-0.879,0.0
9.453,0.783,-0.894,0.0
8.85,0.733,-0.888,0.0
11.575,0.956,-0.841,0.0
10.871,0.898,-0.852,0.0
10.264,0.848,-0.864,0.0
9.787,0.808,-0.881,0.0
9.321,0.77,-0.893,0.0
8.744,0.722,-0.889,0.0
11.397,0.938,-0.842,0.0
10.702,0.881,-0.852,0.0
10.117,0.832,-0.864,0.0
9.642,0.793,-0.88,0.0
9.187,0.756,-0.892,0.0
8.611,0.708,-0.886,0.0
11.257,0.923,-0.846,0.0
10.609,0.87,-0.858,0.0
10.109,0.828,-0.876,0.0
9.608,0.787,-0.889,0.0
9.019,0.739,-0.887,0.0
8.532,0.699,-0.888,0.0
11.113,0.907,-0.848,0.0
10.386,0.847,-0.853,0.0
9.985,0.815,-0.877,0.0
9.538,0.778,-0.894,0.0
8.893,0.725,-0.885,0.0
8.464,0.69,-0.891,0.0
10.987,0.893,-0.852,0.0
10.329,0.839,-0.86,0.0
9.882,0.802,-0.88,0.0
9.414,0.764,-0.894,0.0
8.812,0.715,-0.887,0.0
8.412,0.683,-0.896,0.0
10.853,0.877,-0.854,0.0
10.266,0.829,-0.867,0.0
9.748,0.787,-0.879,0.0
9.279,0.749,-0.892,0.0
8.742,0.705,-0.89,0.0
8.325,0.672,-0.896,0.0
10.734,0.862,-0.857,0.0
10.155,0.815,-0.869,0.0
9.651,0.775,-0.881,0.0
9.104,0.73,-0.885,0.0
8.665,0.695,-0.892,0.0
8.274,0.663,-0.9,0.0
10.555,0.843,-0.854,0.0
10.088,0.805,-0.874,0.0
9.596,0.765,-0.887,0.0
9.003,0.718,-0.885,0.0
8.535,0.68,-0.888,0.0
8.186,0.652,-0.899,0.0
10.456,0.829,-0.857,0.0
10.001,0.792,-0.877,0.0
9.546,0.756,-0.893,0.0
8.902,0.705,-0.885,0.0
8.494,0.672,-0.893,0.0
8.134,0.643,-0.902,0.0
10.377,0.817,-0.862,0.0
9.896,0.778,-0.879,0.0
9.426,0.741,-0.891,0.0
8.888,0.698,-0.893,0.0
8.458,0.664,-0.898,0.0
8.073,0.634,-0.904,0.0
10.342,0.808,-0.869,0.0
9.813,0.766,-0.881,0.0
9.313,0.726,-0.89,0.0
8.747,0.682,-0.887,0.0
8.384,0.653,-0.899,0.0
8.005,0.623,-0.904,0.0
10.24,0.793,-0.871,0.0
9.726,0.753,-0.883,0.0
9.214,0.712,-0.89,0.0
8.659,0.669,-0.887,0.0
8.28,0.639,-0.896,0.0
7.972,0.615,-0.909,0.0
10.142,0.778,-0.872,0.0
9.684,0.743,-0.888,0.0
9.093,0.697,-0.886,0.0
8.614,0.66,-0.89,0.0
8.267,0.632,-0.902,0.0
7.937,0.607,-0.912,0.0
10.09,0.767,-0.877,0.0
9.615,0.731,-0.891,0.0
8.996,0.683,-0.885,0.0
8.567,0.65,-0.893,0.0
8.195,0.621,-0.902,0.0
7.909,0.599,-0.916,0.0
10.041,0.756,-0.881,0.0
9.51,0.715,-0.889,0.0
8.928,0.671,-0.886,0.0
8.493,0.638,-0.893,0.0
8.169,0.613,-0.906,0.0
7.858,0.589,-0.917,0.0
9.911,0.739,-0.879,0.0
9.404,0.7,-0.887,0.0
8.85,0.658,-0.886,0.0
8.44,0.627,-0.894,0.0
8.098,0.601,-0.905,0.0
7.83,0.581,-0.92,0.0
9.865,0.727,-0.882,0.0
9.393,0.692,-0.894,0.0
8.812,0.648,-0.889,0.0
8.402,0.617,-0.897,0.0
8.036,0.59,-0.904,0.0
7.795,0.571,-0.922,0.0
9.812,0.715,-0.885,0.0
9.228,0.672,-0.885,0.0
8.753,0.636,-0.89,0.0
8.355,0.607,-0.898,0.0
8.013,0.581,-0.908,0.0
7.74,0.561,-0.922,0.0
9.712,0.699,-0.884,0.0
9.236,0.664,-0.893,0.0
8.696,0.625,-0.891,0.0
8.327,0.597,-0.901,0.0
7.969,0.571,-0.909,0.0
7.736,0.554,-0.927,0.0
9.706,0.691,-0.89,0.0
9.129,0.648,-0.889,0.0
8.656,0.614,-0.893,0.0
8.259,0.585,-0.9,0.0
7.945,0.562,-0.911,0.0
7.696,0.544,-0.927,0.0
9.632,0.676,-0.889,0.0
9.03,0.633,-0.885,0.0
8.555,0.599,-0.888,0.0
8.172,0.571,-0.896,0.0
7.909,0.552,-0.912,0.0
7.643,0.533,-0.926,0.0
9.61,0.666,-0.893,0.0
9.028,0.624,-0.891,0.0
8.558,0.591,-0.893,0.0
8.184,0.564,-0.902,0.0
7.893,0.543,-0.915,0.0
7.629,0.524,-0.929,0.0
9.548,0.652,-0.893,0.0
8.977,0.612,-0.891,0.0
8.555,0.582,-0.898,0.0
8.139,0.553,-0.902,0.0
7.893,0.536,-0.92,0.0
7.601,0.515,-0.93,0.0
9.463,0.637,-0.891,0.0
8.928,0.6,-0.891,0.0
8.479,0.569,-0.895,0.0
8.101,0.542,-0.902,0.0
7.844,0.524,-0.918,0.0
7.583,0.506,-0.931,0.0
9.469,0.628,-0.896,0.0
8.871,0.587,-0.89,0.0
8.466,0.559,-0.898,0.0
8.095,0.534,-0.905,0.0
7.827,0.515,-0.92,0.0
7.539,0.495,-0.929,0.0
9.408,0.614,-0.895,0.0
8.81,0.574,-0.888,0.0
8.466,0.55,-0.901,0.0
8.062,0.523,-0.905,0.0
7.791,0.504,-0.919,0.0
7.53,0.487,-0.932,0.0
9.394,0.603,-0.897,0.0
8.781,0.562,-0.888,0.0
8.421,0.538,-0.9,0.0
8.044,0.513,-0.906,0.0
7.791,0.496,-0.923,0.0
7.499,0.476,-0.931,0.0
9.313,0.588,-0.893,0.0
8.757,0.551,-0.889,0.0
8.42,0.529,-0.903,0.0
8.036,0.504,-0.909,0.0
7.78,0.487,-0.924,0.0
7.485,0.467,-0.932,0.0
9.255,0.574,-0.891,0.0
8.764,0.542,-0.893,0.0
8.41,0.519,-0.905,0.0
8.042,0.495,-0.912,0.0
7.763,0.477,-0.924,0.0
7.479,0.459,-0.933,0.0
9.236,0.562,-0.892,0.0
8.725,0.53,-0.892,0.0
8.389,0.508,-0.905,0.0
8.01,0.484,-0.911,0.0
7.772,0.469,-0.928,0.0
7.471,0.449,-0.934,0.0
9.23,0.552,-0.893,0.0
8.713,0.519,-0.893,0.0
8.341,0.496,-0.902,0.0
7.98,0.473,-0.909,0.0
7.729,0.457,-0.924,0.0
7.463,0.44,-0.935,0.0
9.206,0.54,-0.893,0.0
8.777,0.513,-0.901,0.0
8.357,0.487,-0.905,0.0
7.987,0.464,-0.911,0.0
7.743,0.449,-0.928,0.0
7.445,0.431,-0.934,0.0
9.228,0.53,-0.897,0.0
8.774,0.503,-0.902,0.0
8.346,0.477,-0.905,0.0
7.998,0.456,-0.914,0.0
7.733,0.439,-0.927,0.0
7.434,0.421,-0.934,0.0
9.237,0.52,-0.899,0.0
8.792,0.493,-0.905,0.0
8.31,0.465,-0.902,0.0
8.002,0.446,-0.915,0.0
7.716,0.429,-0.926,0.0
7.444,0.413,-0.936,0.0
9.223,0.508,-0.898,0.0
8.785,0.482,-0.905,0.0
8.377,0.458,-0.91,0.0
8.013,0.437,-0.917,0.0
7.742,0.421,-0.93,0.0
7.429,0.403,-0.934,0.0
9.264,0.499,-0.903,0.0
8.753,0.47,-0.902,0.0
8.354,0.447,-0.908,0.0
7.989,0.426,-0.914,0.0
7.45,0.395,-0.937,0.0
9.214,0.485,-0.898,0.0
8.778,0.461,-0.905,0.0
8.332,0.436,-0.905,0.0
8.021,0.418,-0.918,0.0
7.746,0.402,-0.93,0.0
7.442,0.385,-0.936,0.0
9.232,0.475,-0.899,0.0
8.809,0.451,-0.907,0.0
8.39,0.428,-0.911,0.0
8.032,0.409,-0.918,0.0
7.738,0.392,-0.928,0.0
7.45,0.376,-0.936,0.0
9.218,0.462,-0.897,0.0
8.801,0.44,-0.905,0.0
8.396,0.418,-0.911,0.0
8.034,0.399,-0.918,0.0
7.736,0.382,-0.927,0.0
7.466,0.368,-0.937,0.0
9.256,0.453,-0.899,0.0
8.815,0.43,-0.906,0.0
8.387,0.407,-0.909,0.0
8.023,0.388,-0.915,0.0
7.724,0.372,-0.924,0.0
7.449,0.358,-0.934,0.0
9.269,0.442,-0.899,0.0
8.846,0.42,-0.907,0.0
8.439,0.399,-0.913,0.0
8.065,0.38,-0.918,0.0
7.777,0.365,-0.929,0.0
7.49,0.35,-0.937,0.0
9.332,0.433,-0.903,0.0
8.843,0.409,-0.905,0.0
8.461,0.389,-0.913,0.0
8.105,0.371,-0.921,0.0
7.797,0.356,-0.929,0.0
7.503,0.341,-0.937,0.0
9.337,0.421,-0.901,0.0
8.87,0.399,-0.905,0.0
8.503,0.38,-0.915,0.0
8.1,0.361,-0.918,0.0
7.807,0.346,-0.928,0.0
7.513,0.332,-0.935,0.0
9.38,0.411,-0.902,0.0
8.945,0.391,-0.91,0.0
8.516,0.37,-0.913,0.0
8.096,0.35,-0.914,0.0
7.811,0.337,-0.926,0.0
7.551,0.324,-0.937,0.0
9.391,0.4,-0.899,0.0
8.916,0.378,-0.903,0.0
8.55,0.361,-0.914,0.0
8.12,0.341,-0.914,0.0
7.872,0.329,-0.93,0.0
7.562,0.315,-0.936,0.0
9.446,0.39,-0.901,0.0
8.965,0.369,-0.905,0.0
8.594,0.352,-0.915,0.0
8.21,0.334,-0.92,0.0
7.875,0.319,-0.927,0.0
7.596,0.306,-0.936,0.0
9.504,0.381,-0.902,0.0
9.054,0.361,-0.909,0.0
8.62,0.342,-0.914,0.0
8.268,0.326,-0.923,0.0
7.928,0.311,-0.929,0.0
7.626,0.298,-0.936,0.0
9.539,0.37,-0.9,0.0
9.065,0.35,-0.906,0.0
8.681,0.333,-0.915,0.0
8.317,0.318,-0.924,0.0
7.945,0.302,-0.927,0.0
7.647,0.289,-0.935,0.0
9.57,0.359,-0.898,0.0
9.107,0.34,-0.905,0.0
8.697,0.323,-0.912,0.0
8.323,0.307,-0.92,0.0
7.978,0.293,-0.926,0.0
7.718,0.282,-0.939,0.0
9.614,0.348,-0.897,0.0
9.225,0.332,-0.911,0.0
8.769,0.314,-0.914,0.0
8.348,0.297,-0.918,0.0
8.036,0.285,-0.928,0.0
7.694,0.271,-0.931,0.0
9.703,0.339,-0.899,0.0
9.212,0.32,-0.904,0.0
8.818,0.305,-0.914,0.0
8.437,0.29,-0.922,0.0
8.082,0.276,-0.928,0.0
7.764,0.264,-0.934,0.0
9.775,0.33,-0.899,0.0
