X,Y,Z,Reflectivity
107.379,-8.472,5.989,19.0
107.662,-8.495,9.028,10.0
107.738,-8.467,8.427,8.0
106.203,-8.314,7.709,29.0
105.958,-8.262,7.085,15.0
106.422,-8.266,6.518,9.0
108.181,-8.371,6.02,22.0
107.369,-8.307,8.989,19.0
104.89,-8.081,8.189,9.0
106.34,-8.161,7.703,22.0
105.74,-8.081,7.054,20.0
108.152,-8.233,6.607,9.0
108.332,-8.215,6.01,17.0
104.711,-7.939,8.748,16.0
104.869,-7.917,8.169,20.0
106.428,-8.001,7.689,17.0
105.6,-7.905,7.023,23.0
107.891,-8.043,6.568,22.0
107.964,-8.016,5.967,24.0
104.651,-7.767,8.72,21.0
104.827,-7.746,8.141,20.0
105.142,-7.736,7.572,17.0
110.775,-8.117,7.342,11.0
107.833,-7.869,6.539,16.0
107.562,-7.816,5.917,25.0
110.532,-8.028,9.18,3.0
107.471,-7.772,8.318,19.0
104.866,-7.551,7.523,20.0
110.444,-7.917,7.288,16.0
107.66,-7.685,6.498,17.0
107.403,-7.635,5.876,26.0
106.57,-7.573,8.818,15.0
105.21,-7.442,8.11,18.0
110.681,-7.794,7.905,16.0
107.688,-7.549,7.071,22.0
106.984,-7.467,6.421,15.0
107.346,-7.46,5.836,22.0
106.638,-7.405,8.787,26.0
105.095,-7.265,8.063,27.0
108.814,-7.488,7.732,9.0
107.72,-7.379,7.034,23.0
106.999,-7.296,6.382,30.0
107.095,-7.27,5.783,26.0
106.89,-7.25,8.766,21.0
107.961,-7.289,8.241,10.0
107.156,-7.2,7.571,18.0
107.84,-7.213,6.997,20.0
107.242,-7.141,6.351,15.0
106.917,-7.087,5.728,26.0
107.053,-7.09,8.733,23.0
111.534,-7.351,8.464,8.0
106.997,-7.018,7.512,23.0
107.623,-7.027,6.935,24.0
108.315,-7.037,6.365,17.0
107.407,-6.947,5.704,23.0
107.342,-6.935,8.705,18.0
108.593,-6.981,8.188,9.0
107.034,-6.847,7.462,24.0
107.798,-6.863,6.893,23.0
107.833,-6.832,6.283,23.0
107.396,-6.773,5.649,32.0
107.609,-6.778,8.672,19.0
108.963,-6.829,8.159,17.0
107.061,-6.677,7.407,24.0
108.198,-6.715,6.861,25.0
107.842,-6.66,6.225,23.0
107.246,-6.592,5.583,30.0
107.763,-6.614,8.624,24.0
108.975,-6.654,8.099,14.0
107.364,-6.522,7.367,20.0
108.274,-6.545,6.803,23.0
107.353,-6.456,6.135,19.0
107.934,-6.459,5.555,32.0
110.188,-6.583,8.751,14.0
108.797,-6.467,8.019,18.0
108.083,-6.392,7.35,25.0
108.314,-6.372,6.739,29.0
107.452,-6.289,6.073,25.0
107.882,-6.282,5.484,17.0
108.626,-6.314,8.558,15.0
108.817,-6.291,7.95,25.0
108.583,-6.244,7.313,15.0
108.147,-6.187,6.657,25.0
107.726,-6.13,6.017,26.0
107.943,-6.112,5.415,26.0
108.777,-6.145,8.493,22.0
109.357,-6.144,7.914,21.0
111.158,-6.212,7.409,9.0
107.761,-5.989,6.556,28.0
107.966,-5.968,5.953,24.0
108.149,-5.947,5.348,24.0
109.277,-5.995,8.453,12.0
109.387,-5.967,7.835,8.0
108.144,-5.867,7.127,23.0
107.392,-5.794,6.454,20.0
107.985,-5.793,5.873,22.0
108.334,-5.781,5.274,27.0
112.886,-6.008,8.643,22.0
112.904,-5.975,7.999,10.0
108.292,-5.699,7.052,26.0
108.488,-5.677,6.433,26.0
107.931,-5.617,5.785,12.0
108.265,-5.602,5.184,18.0
113.073,-5.835,8.566,20.0
112.85,-5.789,7.903,11.0
108.815,-5.551,6.996,15.0
108.299,-5.493,6.332,26.0
108.415,-5.467,5.719,14.0
109.687,-5.501,5.161,9.0
113.031,-5.652,8.467,11.0
115.023,-5.717,7.956,17.0
112.631,-5.565,7.145,10.0
108.475,-5.328,6.249,13.0
108.829,-5.315,5.647,24.0
114.61,-5.564,5.292,12.0
112.502,-5.443,8.326,7.0
114.887,-5.525,7.842,21.0
112.858,-5.394,7.057,25.0
112.534,-5.347,6.38,16.0
109.149,-5.156,5.563,14.0
114.369,-5.371,5.176,24.0
115.647,-5.411,8.451,16.0
115.647,-5.377,7.786,16.0
113.105,-5.227,6.966,13.0
112.686,-5.175,6.282,11.0
118.464,-5.406,5.925,13.0
114.331,-5.186,5.063,14.0
114.999,-5.196,8.291,26.0
116.096,-5.212,7.702,22.0
115.193,-5.139,6.98,19.0
115.227,-5.107,6.309,8.0
117.044,-5.156,5.737,10.0
116.298,-5.092,5.034,19.0
115.04,-5.017,8.178,21.0
115.04,-4.983,7.515,16.0
114.678,-4.935,6.831,26.0
114.683,-4.902,6.16,23.0
114.779,-4.876,5.508,20.0
116.649,-4.924,4.929,20.0
120.556,-5.066,8.442,5.0
114.703,-4.787,7.371,22.0
114.091,-4.729,6.674,26.0
114.485,-4.714,6.027,23.0
115.316,-4.718,5.41,18.0
116.765,-4.745,4.807,23.0
115.651,-4.677,7.97,20.0
115.024,-4.619,7.263,14.0
114.095,-4.551,6.549,22.0
115.109,-4.561,5.933,20.0
115.227,-4.534,5.276,30.0
117.266,-4.583,4.697,25.0
115.659,-4.498,7.84,24.0
114.661,-4.427,7.11,21.0
114.782,-4.401,6.457,17.0
114.914,-4.376,5.791,25.0
117.292,-4.434,5.236,9.0
118.172,-4.436,4.595,22.0
115.866,-4.327,7.718,26.0
114.588,-4.249,6.971,25.0
114.394,-4.212,6.301,24.0
115.873,-4.235,5.703,22.0
117.322,-4.255,5.097,22.0
118.509,-4.268,4.467,8.0
117.047,-4.191,7.653,20.0
114.607,-4.072,6.832,20.0
114.384,-4.035,6.159,25.0
115.759,-4.052,5.553,22.0
117.709,-4.09,4.968,23.0
117.599,-4.056,4.288,19.0
117.094,-4.014,7.51,24.0
114.279,-3.887,6.668,19.0
114.456,-3.863,6.017,20.0
0.0,0.0,0.0,0.0
116.732,-3.881,4.78,22.0
117.53,-3.878,4.137,16.0
114.594,-3.756,7.202,13.0
115.596,-3.76,6.597,23.0
115.916,-3.741,5.947,18.0
117.125,-3.75,5.32,11.0
119.005,-3.78,4.718,10.0
139.587,-4.399,4.73,16.0
115.698,-3.621,7.118,26.0
115.375,-3.581,6.431,28.0
117.239,-3.61,5.857,22.0
124.842,-3.812,5.502,4.0
118.845,-3.599,4.551,22.0
143.084,-4.299,4.656,5.0
115.566,-3.446,6.952,24.0
115.871,-3.425,6.299,12.0
117.305,-3.438,5.698,23.0
117.375,-3.411,5.011,21.0
118.634,-3.419,4.38,18.0
140.437,-4.015,4.375,6.0
115.884,-3.286,6.81,24.0
141.086,-3.966,7.473,18.0
117.398,-3.272,5.538,16.0
117.44,-3.244,4.849,13.0
140.022,-3.836,4.973,12.0
163.243,-4.434,4.856,15.0
115.712,-3.116,6.633,21.0
124.471,-3.322,6.415,10.0
139.314,-3.685,6.373,3.0
139.771,-3.665,5.571,18.0
140.27,-3.644,4.78,10.0
163.232,-4.204,4.62,20.0
124.424,-3.175,6.951,26.0
191.98,-4.855,9.615,7.0
138.935,-3.48,6.152,11.0
139.824,-3.47,5.367,12.0
162.568,-3.998,5.301,20.0
163.267,-3.977,4.379,18.0
124.337,-3.001,6.761,19.0
140.781,-3.366,6.84,9.0
143.758,-3.403,6.15,8.0
140.417,-3.293,5.18,21.0
162.671,-3.777,5.058,20.0
163.349,-3.756,4.135,5.0
142.271,-3.239,7.519,12.0
140.738,-3.171,6.62,10.0
190.238,-4.245,7.848,14.0
140.413,-3.101,4.964,12.0
163.459,-3.575,4.832,15.0
0.0,0.0,0.0,0.0
0.0,0.0,0.0,0.0
191.587,-4.063,8.716,22.0
190.447,-3.997,7.561,18.0
162.598,-3.378,5.496,14.0
163.32,-3.355,4.572,38.0
0.0,0.0,0.0,0.0
0.0,0.0,0.0,0.0
191.071,-3.8,8.388,23.0
190.408,-3.747,7.256,22.0
162.616,-3.166,5.237,42.0
163.366,-3.145,4.313,16.0
170.341,-3.242,3.51,8.0
0.0,0.0,0.0,0.0
191.743,-3.564,8.106,14.0
190.622,-3.504,6.952,20.0
163.12,-2.965,4.988,7.0
163.421,-2.936,4.048,6.0
170.211,-3.023,3.23,9.0
189.993,-3.331,8.823,23.0
189.987,-3.291,7.719,23.0
190.082,-3.254,6.618,20.0
163.233,-2.762,4.721,20.0
171.329,-2.863,3.96,3.0
173.547,-2.866,3.005,5.0
193.204,-3.149,8.652,20.0
191.569,-3.082,7.463,22.0
162.583,-2.582,5.388,45.0
163.269,-2.561,4.446,23.0
0.0,0.0,0.0,0.0
110.717,-1.693,1.73,2.0
193.001,-2.908,8.311,21.0
192.011,-2.854,7.15,20.0
162.609,-2.386,5.111,35.0
163.419,-2.366,4.171,15.0
19.781,-0.282,0.389,1.0
19.749,-0.278,0.274,8.0
192.714,-2.674,7.965,13.0
191.726,-2.622,6.807,17.0
163.389,-2.204,4.853,31.0
19.759,-0.262,0.47,2.0
19.748,-0.258,0.354,9.0
19.746,-0.255,0.24,14.0
185.898,-2.361,7.355,19.0
162.539,-2.034,5.485,24.0
19.775,-0.243,0.552,3.0
19.732,-0.239,0.434,8.0
19.745,-0.236,0.319,10.0
19.756,-0.232,0.205,8.0
186.026,-2.151,7.027,18.0
19.779,-0.225,0.632,4.0
19.763,-0.221,0.516,9.0
19.731,-0.217,0.398,10.0
19.76,-0.213,0.284,2.0
110.355,-1.175,0.947,150.0
19.795,-0.206,0.711,0.0
19.74,-0.202,0.594,10.0
19.746,-0.199,0.48,9.0
19.753,-0.195,0.363,3.0
110.451,-1.075,1.388,79.0
110.349,-1.054,0.744,3.0
19.771,-0.185,0.674,2.0
19.749,-0.181,0.558,7.0
19.764,-0.178,0.444,6.0
0.0,0.0,0.0,0.0
110.409,-0.958,1.185,150.0
0.0,0.0,0.0,0.0
19.748,-0.164,0.637,9.0
19.762,-0.161,0.522,5.0
177.186,-1.414,3.652,20.0
169.31,-1.324,2.489,6.0
110.555,-0.846,0.982,2.0
19.787,-0.148,0.06,2.0
19.763,-0.144,0.601,4.0
19.749,-0.141,0.485,2.0
19.728,-0.137,0.369,0.0
19.737,-0.134,0.252,2.0
19.774,-0.131,0.138,6.0
19.744,-0.128,0.023,10.0
19.667,-0.124,0.56,9.0
19.677,-0.121,0.445,8.0
19.701,-0.118,0.331,7.0
19.713,-0.115,0.215,12.0
19.726,-0.112,0.1,11.0
19.719,-0.109,-0.014,14.0
19.655,-0.105,0.521,11.0
19.654,-0.102,0.407,9.0
19.661,-0.099,0.293,9.0
19.704,-0.096,0.177,13.0
19.703,-0.093,0.062,14.0
19.718,-0.09,-0.052,13.0
19.65,-0.087,0.483,12.0
19.647,-0.084,0.369,9.0
19.658,-0.081,0.254,10.0
19.691,-0.078,0.138,15.0
19.703,-0.075,0.023,15.0
19.731,-0.073,-0.091,14.0
19.636,-0.069,0.445,12.0
19.65,-0.066,0.33,10.0
19.659,-0.064,0.216,14.0
19.687,-0.061,0.099,16.0
19.697,-0.058,-0.014,16.0
19.734,-0.056,-0.129,14.0
19.638,-0.052,0.406,11.0
19.632,-0.05,0.291,10.0
19.659,-0.047,0.177,10.0
19.692,-0.044,0.06,15.0
19.725,-0.042,-0.054,13.0
19.748,-0.039,-0.169,12.0
19.624,-0.036,0.367,12.0
19.642,-0.034,0.253,13.0
19.679,-0.031,0.138,9.0
19.697,-0.028,0.021,14.0
19.747,-0.026,-0.093,8.0
19.772,-0.024,-0.208,0.0
19.634,-0.021,0.328,14.0
19.637,-0.018,0.213,14.0
19.704,-0.016,0.099,4.0
19.731,-0.013,-0.018,12.0
19.775,-0.011,-0.133,0.0
36.261,-0.016,-0.456,0.0
19.64,-0.006,0.288,14.0
19.744,-0.003,0.174,4.0
19.791,-0.001,0.059,4.0
19.744,0.0,-0.058,3.0
19.779,0.003,-0.173,0.0
19.773,0.005,-0.288,1.0
19.636,0.007,0.248,16.0
19.752,0.01,0.134,5.0
19.741,0.012,0.019,14.0
19.765,0.014,-0.097,2.0
19.762,0.016,-0.213,6.0
19.772,0.019,-0.329,19.0
19.664,0.02,0.209,15.0
19.742,0.023,0.094,14.0
19.742,0.025,-0.02,52.0
19.747,0.027,-0.137,9.0
19.767,0.029,-0.253,10.0
19.775,0.031,-0.368,12.0
19.751,0.033,0.169,16.0
19.758,0.035,0.054,18.0
19.766,0.037,-0.061,37.0
19.761,0.039,-0.178,13.0
19.771,0.042,-0.294,14.0
19.777,0.044,-0.409,42.0
19.75,0.045,0.129,36.0
19.758,0.047,0.013,33.0
19.751,0.049,-0.101,30.0
19.758,0.051,-0.219,26.0
19.781,0.053,-0.334,32.0
19.777,0.055,-0.45,51.0
19.748,0.057,0.087,31.0
19.774,0.058,-0.027,71.0
19.767,0.06,-0.142,63.0
19.769,0.062,-0.26,41.0
19.773,0.064,-0.375,33.0
19.785,0.066,-0.491,24.0
19.755,0.067,0.047,42.0
19.772,0.069,-0.068,25.0
19.778,0.071,-0.183,24.0
19.762,0.072,-0.301,13.0
19.783,0.074,-0.416,13.0
19.784,0.076,-0.532,6.0
19.758,0.077,0.006,21.0
19.763,0.079,-0.109,7.0
19.774,0.08,-0.224,3.0
19.757,0.082,-0.342,2.0
19.807,0.084,-0.459,1.0
19.809,0.085,-0.574,0.0
19.753,0.086,-0.035,5.0
19.757,0.088,-0.15,0.0
19.786,0.089,-0.266,0.0
19.781,0.091,-0.384,0.0
26.086,0.122,-0.658,0.0
23.064,0.109,-0.717,0.0
19.726,0.094,-0.076,1.0
41.024,0.199,-0.398,0.0
32.743,0.162,-0.509,0.0
28.427,0.142,-0.611,0.0
24.962,0.127,-0.683,0.0
21.334,0.11,-0.708,0.0
19.702,0.102,-0.117,0.0
0.0,0.0,0.0,0.0
0.0,0.0,0.0,0.0
26.904,0.145,-0.635,0.0
23.595,0.128,-0.695,0.0
21.082,0.116,-0.744,0.0
19.768,0.109,-0.16,0.0
0.0,0.0,0.0,0.0
0.0,0.0,0.0,0.0
25.683,0.147,-0.661,0.0
22.601,0.13,-0.714,1.0
19.809,0.115,-0.741,1.0
0.0,0.0,0.0,0.0
0.0,0.0,0.0,0.0
28.057,0.167,-0.614,0.0
24.578,0.148,-0.684,0.0
21.547,0.131,-0.726,0.0
19.585,0.12,-0.774,1.0
0.0,0.0,0.0,0.0
30.914,0.19,-0.561,0.0
26.762,0.166,-0.641,0.0
23.004,0.144,-0.688,0.0
20.841,0.131,-0.745,0.0
18.796,0.119,-0.782,0.0
0.0,0.0,0.0,0.0
29.444,0.188,-0.595,0.0
25.62,0.165,-0.668,0.0
22.366,0.145,-0.716,0.0
19.701,0.128,-0.746,1.0
18.252,0.12,-0.798,0.0
0.0,0.0,0.0,0.0
27.838,0.183,-0.621,0.0
24.506,0.162,-0.69,0.0
21.36,0.142,-0.728,0.0
19.455,0.13,-0.777,0.0
17.609,0.118,-0.806,0.0
30.522,0.204,-0.566,0.0
26.34,0.177,-0.642,0.0
23.038,0.156,-0.696,0.0
20.207,0.137,-0.731,0.0
18.665,0.127,-0.785,0.0
16.91,0.116,-0.81,0.0
0.0,0.0,0.0,0.0
25.306,0.173,-0.67,0.0
21.903,0.15,-0.708,0.0
19.657,0.136,-0.753,1.0
17.994,0.124,-0.794,0.0
16.129,0.112,-0.806,0.0
27.572,0.19,-0.626,0.0
24.169,0.167,-0.69,0.0
21.096,0.146,-0.726,0.0
19.312,0.134,-0.779,0.0
17.386,0.121,-0.803,0.0
15.67,0.11,-0.816,1.0
26.137,0.181,-0.648,0.0
22.76,0.158,-0.697,0.0
19.882,0.138,-0.725,0.0
18.573,0.13,-0.788,0.0
16.775,0.117,-0.81,0.0
15.412,0.108,-0.835,1.0
25.138,0.174,-0.675,0.0
21.828,0.152,-0.714,0.0
19.641,0.137,-0.757,1.0
17.84,0.124,-0.794,0.0
16.066,0.112,-0.809,0.0
14.907,0.104,-0.838,0.0
23.669,0.163,-0.685,0.0
21.007,0.145,-0.731,0.0
19.103,0.132,-0.776,0.0
17.211,0.119,-0.802,0.0
15.613,0.108,-0.819,1.0
14.464,0.1,-0.843,0.0
22.713,0.155,-0.704,0.0
19.778,0.135,-0.728,0.0
18.511,0.127,-0.79,0.0
16.383,0.112,-0.797,0.0
15.316,0.105,-0.834,0.0
14.016,0.096,-0.846,0.0
21.726,0.146,-0.717,0.0
19.621,0.132,-0.762,1.0
17.748,0.119,-0.793,0.0
15.952,0.107,-0.808,0.0
14.834,0.1,-0.838,0.0
13.649,0.092,-0.851,0.0
20.851,0.137,-0.73,0.0
18.99,0.125,-0.776,0.0
17.209,0.113,-0.804,0.0
15.576,0.102,-0.82,2.0
14.41,0.094,-0.843,0.0
13.28,0.087,-0.855,0.0
19.784,0.127,-0.733,0.0
18.506,0.118,-0.793,0.0
16.536,0.105,-0.805,0.0
15.196,0.097,-0.831,0.0
13.968,0.089,-0.845,0.0
12.959,0.082,-0.86,0.0
19.62,0.121,-0.766,1.0
17.695,0.109,-0.794,0.0
15.881,0.098,-0.805,0.0
14.753,0.09,-0.836,0.0
13.605,0.083,-0.851,0.0
12.681,0.077,-0.867,0.0
18.82,0.112,-0.772,0.0
17.042,0.101,-0.798,0.0
15.573,0.092,-0.821,0.0
14.364,0.084,-0.842,0.0
13.279,0.077,-0.856,0.0
12.394,0.072,-0.872,0.0
18.377,0.104,-0.79,0.0
16.476,0.092,-0.804,0.0
15.131,0.084,-0.827,0.0
13.928,0.077,-0.844,0.0
12.923,0.071,-0.859,0.0
12.103,0.066,-0.875,0.0
17.685,0.094,-0.795,0.0
15.869,0.084,-0.806,0.0
14.825,0.078,-0.839,0.0
13.568,0.071,-0.849,0.0
12.666,0.065,-0.867,1.0
11.857,0.061,-0.881,0.0
17.044,0.084,-0.799,0.0
15.556,0.076,-0.82,0.0
14.373,0.07,-0.842,0.0
13.256,0.064,-0.855,0.0
12.378,0.059,-0.871,0.0
11.612,0.055,-0.885,0.0
16.489,0.075,-0.804,0.0
15.186,0.069,-0.829,0.0
13.957,0.062,-0.844,0.0
12.945,0.057,-0.86,0.0
12.09,0.053,-0.873,0.0
11.387,0.049,-0.89,0.0
15.953,0.066,-0.808,0.0
14.756,0.06,-0.833,0.0
13.607,0.055,-0.848,0.0
12.689,0.05,-0.866,1.0
11.86,0.047,-0.879,0.0
11.141,0.043,-0.891,0.0
15.542,0.057,-0.816,0.0
14.4,0.052,-0.84,0.0
13.284,0.047,-0.853,0.0
12.384,0.043,-0.869,0.0
11.64,0.04,-0.885,0.0
10.915,0.037,-0.894,0.0
15.226,0.048,-0.828,0.0
13.977,0.043,-0.841,0.0
12.992,0.04,-0.858,0.0
12.126,0.036,-0.873,0.0
11.409,0.033,-0.888,0.0
10.736,0.031,-0.899,0.0
14.866,0.039,-0.835,0.0
13.662,0.035,-0.847,0.0
12.716,0.032,-0.863,0.0
11.917,0.029,-0.879,0.0
11.194,0.027,-0.892,0.0
10.536,0.024,-0.901,0.0
14.409,0.03,-0.835,0.0
13.356,0.027,-0.852,0.0
12.466,0.024,-0.868,0.0
11.679,0.022,-0.883,0.0
10.961,0.02,-0.893,0.0
10.357,0.018,-0.904,0.0
14.044,0.021,-0.839,0.0
13.069,0.018,-0.857,0.0
12.223,0.016,-0.873,0.0
11.453,0.014,-0.886,0.0
10.791,0.013,-0.898,0.0
10.188,0.011,-0.908,0.0
13.713,0.012,-0.844,0.0
12.765,0.01,-0.86,0.0
11.943,0.008,-0.874,0.0
11.214,0.007,-0.887,0.0
10.584,0.006,-0.899,0.0
10.012,0.004,-0.909,0.0
13.43,0.003,-0.849,0.0
12.53,0.001,-0.865,0.0
11.73,0.0,-0.879,0.0
11.04,0.0,-0.893,0.0
10.436,-0.001,-0.905,0.0
9.821,-0.001,-0.909,0.0
13.162,-0.005,-0.855,0.0
12.289,-0.006,-0.87,0.0
11.548,-0.007,-0.885,0.0
10.846,-0.007,-0.895,0.0
10.259,-0.008,-0.907,0.0
9.665,-0.008,-0.911,0.0
12.888,-0.015,-0.859,0.0
12.092,-0.015,-0.876,0.0
11.325,-0.015,-0.886,0.0
10.659,-0.015,-0.898,0.0
10.075,-0.015,-0.907,0.0
9.502,-0.015,-0.911,0.0
12.656,-0.024,-0.864,0.0
11.839,-0.023,-0.877,0.0
11.132,-0.023,-0.889,0.0
10.483,-0.023,-0.9,0.0
9.934,-0.023,-0.911,0.0
9.415,-0.022,-0.918,0.0
12.416,-0.033,-0.867,0.0
11.649,-0.032,-0.882,0.0
10.927,-0.031,-0.891,0.0
10.343,-0.031,-0.904,0.0
9.732,-0.03,-0.908,0.0
9.242,-0.029,-0.916,0.0
12.196,-0.042,-0.871,0.0
11.44,-0.041,-0.884,0.0
10.758,-0.039,-0.894,0.0
10.179,-0.038,-0.906,0.0
9.617,-0.037,-0.912,0.0
9.121,-0.036,-0.919,0.0
11.985,-0.051,-0.875,0.0
11.291,-0.05,-0.89,0.0
10.609,-0.048,-0.898,0.0
10.032,-0.046,-0.908,0.0
9.478,-0.045,-0.914,0.0
9.009,-0.044,-0.921,0.0
11.784,-0.061,-0.878,0.0
11.1,-0.058,-0.892,0.0
10.473,-0.056,-0.902,0.0
9.888,-0.054,-0.91,0.0
9.313,-0.052,-0.912,0.0
8.884,-0.051,-0.922,0.0
11.607,-0.07,-0.882,0.0
10.911,-0.067,-0.892,0.0
10.307,-0.065,-0.903,0.0
9.746,-0.062,-0.912,0.0
9.262,-0.06,-0.92,0.0
8.79,-0.058,-0.925,0.0
11.422,-0.079,-0.884,0.0
10.77,-0.076,-0.896,0.0
10.169,-0.073,-0.905,0.0
9.63,-0.07,-0.915,0.0
9.073,-0.068,-0.915,0.0
8.709,-0.066,-0.929,0.0
11.25,-0.089,-0.887,0.0
10.624,-0.085,-0.899,0.0
10.046,-0.082,-0.909,0.0
9.455,-0.078,-0.911,0.0
9.03,-0.076,-0.923,0.0
8.584,-0.073,-0.928,0.0
11.114,-0.098,-0.891,0.0
10.46,-0.094,-0.9,0.0
9.893,-0.09,-0.908,0.0
9.315,-0.086,-0.91,0.0
8.897,-0.083,-0.922,0.0
8.475,-0.081,-0.927,0.0
10.946,-0.107,-0.893,0.0
10.314,-0.102,-0.901,0.0
9.78,-0.099,-0.911,0.0
9.262,-0.095,-0.918,0.0
8.802,-0.091,-0.923,0.0
8.406,-0.088,-0.931,0.0
10.804,-0.116,-0.895,0.0
10.211,-0.112,-0.905,0.0
9.641,-0.107,-0.911,0.0
9.12,-0.102,-0.915,0.0
8.74,-0.099,-0.928,0.0
8.302,-0.096,-0.93,0.0
10.664,-0.126,-0.897,0.0
10.089,-0.121,-0.907,0.0
9.51,-0.115,-0.91,0.0
9.067,-0.111,-0.921,0.0
8.637,-0.107,-0.928,0.0
8.25,-0.104,-0.934,0.0
10.528,-0.135,-0.898,0.0
9.954,-0.129,-0.907,0.0
9.415,-0.124,-0.913,0.0
8.955,-0.119,-0.921,0.0
8.561,-0.115,-0.93,0.0
8.138,-0.111,-0.932,0.0
10.403,-0.145,-0.9,0.0
9.854,-0.138,-0.909,0.0
9.331,-0.133,-0.915,0.0
8.877,-0.128,-0.923,0.0
8.473,-0.123,-0.93,0.0
8.058,-0.118,-0.932,0.0
10.304,-0.154,-0.903,0.0
9.738,-0.147,-0.91,0.0
9.235,-0.141,-0.916,0.0
8.802,-0.136,-0.925,0.0
8.364,-0.131,-0.928,0.0
8.012,-0.126,-0.935,0.0
10.183,-0.163,-0.904,0.0
9.635,-0.156,-0.911,0.0
9.166,-0.15,-0.92,0.0
8.68,-0.144,-0.922,0.0
8.311,-0.139,-0.931,0.0
7.942,-0.134,-0.936,0.0
10.094,-0.173,-0.907,0.0
9.553,-0.166,-0.913,0.0
9.111,-0.159,-0.924,0.0
8.621,-0.152,-0.925,0.0
8.222,-0.147,-0.93,0.0
7.883,-0.142,-0.937,0.0
9.992,-0.183,-0.908,0.0
9.501,-0.175,-0.918,0.0
8.98,-0.167,-0.919,0.0
8.566,-0.161,-0.927,0.0
8.19,-0.156,-0.934,0.0
7.84,-0.15,-0.94,0.0
9.89,-0.192,-0.908,0.0
9.356,-0.183,-0.913,0.0
8.913,-0.176,-0.921,0.0
8.487,-0.169,-0.927,0.0
8.127,-0.164,-0.935,0.0
7.753,-0.158,-0.937,0.0
9.83,-0.202,-0.912,0.0
9.286,-0.193,-0.915,0.0
8.874,-0.186,-0.925,0.0
8.428,-0.178,-0.929,0.0
8.075,-0.172,-0.936,0.0
7.71,-0.166,-0.939,0.0
9.732,-0.211,-0.912,0.0
9.212,-0.202,-0.916,0.0
8.734,-0.193,-0.919,0.0
8.402,-0.187,-0.933,0.0
8.018,-0.18,-0.937,0.0
7.67,-0.174,-0.941,0.0
9.656,-0.221,-0.913,0.0
9.162,-0.212,-0.919,0.0
8.691,-0.202,-0.921,0.0
8.299,-0.195,-0.929,0.0
7.949,-0.188,-0.935,0.0
7.636,-0.182,-0.943,0.0
9.6,-0.231,-0.915,0.0
9.103,-0.221,-0.92,0.0
8.645,-0.212,-0.923,0.0
8.271,-0.204,-0.932,0.0
7.888,-0.196,-0.934,0.0
7.62,-0.191,-0.947,0.0
9.54,-0.241,-0.917,0.0
9.036,-0.23,-0.92,0.0
8.593,-0.221,-0.924,0.0
8.2,-0.212,-0.93,0.0
7.896,-0.206,-0.941,0.0
7.538,-0.198,-0.942,0.0
9.463,-0.251,-0.916,0.0
8.969,-0.239,-0.92,0.0
8.566,-0.23,-0.928,0.0
8.149,-0.221,-0.93,0.0
7.84,-0.214,-0.94,0.0
7.534,-0.207,-0.947,0.0
9.401,-0.26,-0.917,0.0
8.939,-0.25,-0.923,0.0
8.507,-0.239,-0.927,0.0
8.109,-0.23,-0.931,0.0
7.769,-0.222,-0.937,0.0
7.477,-0.215,-0.945,0.0
9.353,-0.271,-0.918,0.0
8.904,-0.259,-0.925,0.0
8.475,-0.249,-0.929,0.0
8.07,-0.238,-0.932,0.0
7.761,-0.231,-0.941,0.0
7.435,-0.223,-0.944,0.0
9.294,-0.28,-0.918,0.0
8.85,-0.269,-0.924,0.0
8.427,-0.257,-0.928,0.0
8.065,-0.248,-0.936,0.0
7.695,-0.238,-0.937,0.0
7.396,-0.231,-0.943,0.0
9.262,-0.29,-0.919,0.0
8.812,-0.278,-0.925,0.0
8.42,-0.268,-0.932,0.0
8.015,-0.256,-0.934,0.0
7.677,-0.247,-0.939,0.0
7.369,-0.239,-0.943,0.0
9.212,-0.3,-0.919,0.0
8.795,-0.288,-0.928,0.0
8.367,-0.276,-0.93,0.0
7.967,-0.265,-0.932,0.0
7.691,-0.257,-0.944,0.0
7.348,-0.247,-0.944,0.0
9.202,-0.311,-0.922,0.0
8.767,-0.298,-0.929,0.0
8.337,-0.285,-0.931,0.0
7.949,-0.274,-0.934,0.0
7.629,-0.265,-0.94,0.0
7.344,-0.256,-0.947,0.0
9.149,-0.321,-0.921,0.0
8.716,-0.307,-0.927,0.0
8.313,-0.295,-0.931,0.0
7.927,-0.283,-0.934,0.0
7.637,-0.274,-0.944,0.0
7.306,-0.264,-0.945,0.0
9.115,-0.331,-0.921,0.0
8.688,-0.317,-0.927,0.0
8.28,-0.304,-0.93,0.0
7.927,-0.293,-0.937,0.0
7.607,-0.283,-0.942,0.0
7.306,-0.273,-0.947,0.0
9.044,-0.339,-0.916,0.0
8.687,-0.328,-0.929,0.0
8.281,-0.314,-0.933,0.0
7.915,-0.302,-0.938,0.0
7.565,-0.291,-0.939,0.0
7.302,-0.282,-0.949,0.0
9.066,-0.351,-0.921,0.0
8.633,-0.336,-0.926,0.0
8.261,-0.324,-0.933,0.0
7.915,-0.312,-0.94,0.0
7.551,-0.299,-0.94,0.0
7.296,-0.291,-0.95,0.0
9.046,-0.362,-0.921,0.0
8.622,-0.347,-0.927,0.0
8.255,-0.334,-0.934,0.0
7.87,-0.32,-0.936,0.0
7.6,-0.311,-0.947,0.0
7.283,-0.299,-0.949,0.0
9.02,-0.372,-0.92,0.0
8.601,-0.356,-0.926,0.0
8.233,-0.343,-0.933,0.0
7.855,-0.329,-0.935,0.0
7.563,-0.318,-0.944,0.0
7.282,-0.308,-0.95,0.0
9.031,-0.383,-0.922,0.0
8.607,-0.367,-0.928,0.0
8.223,-0.352,-0.933,0.0
7.837,-0.338,-0.934,0.0
7.556,-0.327,-0.944,0.0
7.255,-0.316,-0.947,0.0
9.007,-0.393,-0.921,0.0
8.597,-0.377,-0.927,0.0
8.219,-0.362,-0.933,0.0
7.853,-0.348,-0.937,0.0
7.562,-0.337,-0.945,0.0
7.268,-0.325,-0.949,0.0
9.02,-0.404,-0.923,0.0
8.584,-0.387,-0.926,0.0
8.197,-0.371,-0.931,0.0
7.821,-0.356,-0.933,0.0
7.574,-0.346,-0.946,0.0
7.278,-0.334,-0.951,0.0
9.021,-0.415,-0.923,0.0
8.624,-0.399,-0.93,0.0
8.201,-0.381,-0.931,0.0
7.868,-0.367,-0.938,0.0
7.549,-0.354,-0.943,0.0
7.281,-0.343,-0.951,0.0
9.014,-0.425,-0.922,0.0
8.636,-0.409,-0.931,0.0
8.206,-0.391,-0.931,0.0
7.841,-0.375,-0.935,0.0
7.568,-0.364,-0.945,0.0
7.283,-0.352,-0.95,0.0
9.047,-0.438,-0.924,0.0
8.607,-0.418,-0.927,0.0
8.217,-0.401,-0.931,0.0
7.834,-0.384,-0.933,0.0
7.578,-0.373,-0.945,0.0
7.274,-0.36,-0.948,0.0
9.048,-0.448,-0.923,0.0
8.615,-0.429,-0.927,0.0
8.249,-0.412,-0.934,0.0
7.929,-0.398,-0.943,0.0
7.592,-0.383,-0.946,0.0
7.3,-0.37,-0.95,0.0
9.064,-0.459,-0.923,0.0
8.637,-0.44,-0.928,0.0
8.273,-0.423,-0.935,0.0
7.832,-0.402,-0.93,0.0
7.607,-0.392,-0.946,0.0
7.297,-0.378,-0.948,0.0
9.081,-0.471,-0.923,0.0
8.674,-0.451,-0.93,0.0
8.278,-0.433,-0.933,0.0
7.891,-0.414,-0.935,0.0
7.642,-0.403,-0.948,0.0
7.322,-0.388,-0.95,0.0
9.108,-0.482,-0.923,0.0
8.691,-0.462,-0.929,0.0
8.313,-0.443,-0.935,0.0
7.926,-0.425,-0.937,0.0
7.603,-0.409,-0.941,0.0
7.307,-0.395,-0.945,0.0
9.124,-0.493,-0.922,0.0
8.708,-0.472,-0.928,0.0
8.335,-0.454,-0.935,0.0
7.92,-0.433,-0.933,0.0
7.654,-0.42,-0.945,0.0
7.353,-0.405,-0.949,0.0
9.159,-0.505,-0.922,0.0
8.752,-0.484,-0.93,0.0
8.352,-0.464,-0.934,0.0
7.987,-0.445,-0.938,0.0
7.662,-0.429,-0.943,0.0
7.355,-0.413,-0.946,0.0
9.183,-0.516,-0.921,0.0
8.779,-0.495,-0.929,0.0
8.354,-0.473,-0.93,0.0
8.01,-0.455,-0.937,0.0
7.71,-0.44,-0.945,0.0
7.361,-0.422,-0.944,0.0
9.234,-0.528,-0.922,0.0
8.812,-0.506,-0.928,0.0
8.39,-0.484,-0.931,0.0
8.048,-0.466,-0.938,0.0
7.735,-0.449,-0.945,0.0
7.446,-0.434,-0.951,0.0
9.283,-0.541,-0.922,0.0
8.867,-0.518,-0.93,0.0
8.448,-0.496,-0.933,0.0
8.075,-0.475,-0.937,0.0
7.73,-0.457,-0.94,0.0
7.442,-0.442,-0.947,0.0
9.35,-0.554,-0.924,0.0
8.898,-0.529,-0.928,0.0
8.448,-0.504,-0.928,0.0
8.122,-0.486,-0.938,0.0
7.786,-0.468,-0.943,0.0
7.483,-0.451,-0.948,0.0
9.383,-0.565,-0.922,0.0
8.914,-0.539,-0.925,0.0
8.514,-0.516,-0.931,0.0
8.154,-0.496,-0.937,0.0
7.83,-0.478,-0.943,0.0
7.532,-0.461,-0.949,0.0
9.444,-0.578,-0.922,0.0
8.996,-0.552,-0.928,0.0
8.562,-0.527,-0.93,0.0
8.178,-0.505,-0.935,0.0
7.858,-0.487,-0.942,0.0
7.558,-0.47,-0.948,0.0
9.482,-0.589,-0.92,0.0
9.045,-0.564,-0.927,0.0
8.603,-0.538,-0.929,0.0
8.232,-0.516,-0.935,0.0
7.908,-0.497,-0.942,0.0
7.567,-0.478,-0.944,0.0
9.554,-0.602,-0.92,0.0
9.08,-0.574,-0.925,0.0
8.681,-0.55,-0.932,0.0
8.273,-0.526,-0.934,0.0
7.945,-0.507,-0.941,0.0
7.659,-0.49,-0.95,0.0
9.613,-0.614,-0.919,0.0
9.156,-0.587,-0.926,0.0
8.756,-0.563,-0.933,0.0
8.312,-0.536,-0.932,0.0
7.999,-0.517,-0.941,0.0
7.666,-0.497,-0.945,0.0
9.686,-0.627,-0.919,0.0
9.216,-0.599,-0.925,0.0
8.812,-0.574,-0.932,0.0
8.394,-0.548,-0.935,0.0
8.038,-0.527,-0.94,0.0
7.747,-0.509,-0.948,0.0
9.759,-0.64,-0.918,0.0
9.298,-0.612,-0.925,0.0
8.852,-0.584,-0.929,0.0
8.416,-0.557,-0.931,0.0
8.117,-0.539,-0.942,0.0
7.756,-0.516,-0.943,0.0
9.833,-0.653,-0.917,0.0
9.366,-0.624,-0.924,0.0
8.93,-0.596,-0.93,0.0
8.482,-0.568,-0.931,0.0
8.156,-0.548,-0.94,0.0
7.819,-0.526,-0.944,0.0
9.881,-0.664,-0.913,0.0
9.433,-0.635,-0.923,0.0
8.983,-0.607,-0.928,0.0
8.601,-0.582,-0.936,0.0
8.247,-0.56,-0.943,0.0
7.86,-0.535,-0.942,0.0
9.998,-0.679,-0.914,0.0
9.532,-0.649,-0.924,0.0
9.062,-0.619,-0.927,0.0
8.638,-0.591,-0.932,0.0
8.255,-0.566,-0.936,0.0
7.902,-0.544,-0.939,0.0
10.071,-0.691,-0.912,0.0
9.592,-0.66,-0.92,0.0
9.12,-0.629,-0.924,0.0
8.746,-0.605,-0.935,0.0
8.361,-0.58,-0.94,0.0
7.966,-0.554,-0.939,0.0
10.197,-0.707,-0.913,0.0
9.721,-0.676,-0.923,0.0
9.234,-0.643,-0.927,0.0
8.801,-0.614,-0.932,0.0
8.431,-0.59,-0.939,0.0
8.025,-0.563,-0.937,0.0
10.296,-0.721,-0.911,0.0
9.787,-0.686,-0.919,0.0
9.301,-0.654,-0.924,0.0
8.862,-0.624,-0.929,0.0
8.481,-0.599,-0.936,0.0
8.143,-0.576,-0.943,0.0
10.37,-0.732,-0.907,0.0
9.879,-0.699,-0.918,0.0
9.395,-0.666,-0.923,0.0
8.954,-0.636,-0.93,0.0
8.546,-0.609,-0.934,0.0
8.181,-0.584,-0.938,0.0
10.504,-0.748,-0.908,0.0
9.994,-0.713,-0.917,0.0
9.449,-0.675,-0.918,0.0
9.028,-0.647,-0.927,0.0
8.611,-0.618,-0.931,0.0
8.266,-0.595,-0.939,0.0
10.695,-0.767,-0.912,0.0
10.044,-0.722,-0.911,0.0
9.586,-0.69,-0.921,0.0
9.151,-0.66,-0.93,0.0
8.737,-0.632,-0.935,0.0
8.334,-0.604,-0.937,0.0
10.83,-0.783,-0.912,0.0
10.219,-0.74,-0.915,0.0
9.734,-0.706,-0.924,0.0
9.27,-0.674,-0.931,0.0
8.821,-0.642,-0.934,0.0
8.371,-0.61,-0.931,0.0
10.856,-0.79,-0.901,0.0
10.326,-0.752,-0.913,0.0
9.814,-0.716,-0.92,0.0
9.355,-0.684,-0.929,0.0
8.937,-0.655,-0.935,0.0
8.506,-0.624,-0.936,0.0
11.064,-0.81,-0.905,0.0
10.458,-0.767,-0.912,0.0
9.924,-0.729,-0.918,0.0
9.433,-0.694,-0.925,0.0
9.022,-0.665,-0.933,0.0
8.591,-0.634,-0.935,0.0
11.214,-0.825,-0.904,0.0
10.548,-0.777,-0.907,0.0
9.983,-0.737,-0.912,0.0
9.502,-0.702,-0.92,0.0
9.107,-0.674,-0.931,0.0
8.699,-0.645,-0.936,0.0
11.323,-0.837,-0.899,0.0
10.728,-0.795,-0.909,0.0
10.134,-0.752,-0.913,0.0
9.672,-0.718,-0.924,0.0
9.206,-0.685,-0.929,0.0
8.804,-0.656,-0.936,0.0
11.463,-0.852,-0.895,0.0
10.823,-0.805,-0.903,0.0
10.277,-0.766,-0.913,0.0
9.779,-0.729,-0.922,0.0
9.321,-0.696,-0.929,0.0
8.884,-0.664,-0.933,0.0
11.623,-0.867,-0.893,0.0
11.028,-0.824,-0.906,0.0
10.351,-0.774,-0.906,0.0
9.905,-0.741,-0.921,0.0
9.461,-0.709,-0.93,0.0
8.997,-0.675,-0.933,0.0
11.842,-0.886,-0.894,0.0
11.143,-0.835,-0.901,0.0
10.564,-0.792,-0.91,0.0
9.998,-0.751,-0.916,0.0
9.55,-0.718,-0.926,0.0
9.105,-0.685,-0.932,0.0
11.997,-0.901,-0.89,0.0
11.303,-0.849,-0.899,0.0
10.736,-0.807,-0.911,0.0
10.125,-0.762,-0.914,0.0
9.688,-0.73,-0.926,0.0
9.199,-0.694,-0.929,0.0
12.232,-0.921,-0.891,0.0
11.479,-0.864,-0.897,0.0
10.824,-0.816,-0.903,0.0
10.246,-0.773,-0.911,0.0
9.833,-0.742,-0.927,0.0
9.332,-0.705,-0.929,0.0
12.38,-0.933,-0.885,0.0
11.69,-0.882,-0.897,0.0
11.0,-0.83,-0.903,0.0
10.416,-0.787,-0.911,0.0
9.922,-0.75,-0.921,0.0
9.424,-0.713,-0.925,0.0
12.58,-0.95,-0.881,0.0
11.888,-0.898,-0.896,0.0
11.244,-0.85,-0.907,0.0
10.612,-0.803,-0.913,0.0
10.011,-0.758,-0.915,0.0
9.577,-0.725,-0.926,0.0
12.75,-0.963,-0.875,0.0
12.048,-0.911,-0.891,0.0
11.367,-0.86,-0.901,0.0
10.741,-0.813,-0.909,0.0
10.132,-0.767,-0.912,0.0
9.706,-0.735,-0.925,0.0
13.01,-0.983,-0.874,0.0
12.252,-0.926,-0.888,0.0
11.479,-0.868,-0.893,0.0
10.858,-0.821,-0.903,0.0
10.292,-0.779,-0.911,0.0
9.857,-0.746,-0.925,0.0
13.241,-1.0,-0.871,0.0
12.434,-0.939,-0.883,0.0
11.775,-0.89,-0.899,0.0
11.075,-0.837,-0.905,0.0
10.439,-0.789,-0.909,0.0
9.989,-0.756,-0.923,0.0
13.541,-1.022,-0.87,0.0
12.628,-0.953,-0.878,0.0
11.92,-0.9,-0.892,0.0
11.29,-0.853,-0.906,0.0
10.66,-0.805,-0.912,0.0
10.096,-0.763,-0.917,0.0
13.868,-1.045,-0.871,0.0
12.884,-0.971,-0.877,0.0
12.142,-0.915,-0.891,0.0
11.41,-0.86,-0.899,0.0
10.808,-0.815,-0.908,0.0
10.206,-0.769,-0.912,0.0
14.064,-1.058,-0.862,0.0
13.141,-0.988,-0.875,0.0
12.323,-0.927,-0.885,0.0
11.725,-0.882,-0.906,0.0
11.011,-0.828,-0.909,0.0
10.386,-0.781,-0.912,0.0
14.399,-1.08,-0.861,0.0
13.385,-1.004,-0.871,0.0
12.545,-0.941,-0.882,0.0
11.847,-0.888,-0.897,0.0
11.18,-0.838,-0.906,0.0
10.608,-0.795,-0.915,0.0
14.694,-1.099,-0.856,0.0
13.738,-1.027,-0.873,0.0
12.782,-0.955,-0.879,0.0
12.026,-0.898,-0.892,0.0
11.372,-0.85,-0.904,0.0
10.779,-0.805,-0.913,0.0
14.955,-1.114,-0.848,0.0
13.988,-1.042,-0.867,0.0
12.933,-0.963,-0.87,0.0
12.275,-0.913,-0.891,0.0
11.569,-0.861,-0.901,0.0
10.917,-0.812,-0.908,0.0
15.401,-1.142,-0.85,0.0
14.237,-1.055,-0.86,0.0
13.351,-0.989,-0.877,0.0
12.474,-0.924,-0.886,0.0
11.799,-0.873,-0.901,0.0
11.159,-0.826,-0.911,0.0
15.59,-1.151,-0.836,0.0
14.588,-1.076,-0.859,0.0
13.641,-1.005,-0.875,0.0
12.736,-0.938,-0.885,0.0
11.964,-0.881,-0.895,0.0
11.311,-0.832,-0.906,0.0
16.202,-1.189,-0.844,0.0
14.876,-1.091,-0.853,0.0
13.893,-1.018,-0.869,0.0
12.813,-0.938,-0.871,0.0
12.23,-0.895,-0.895,0.0
11.489,-0.84,-0.902,0.0
16.615,-1.212,-0.84,0.0
15.226,-1.11,-0.849,0.0
14.173,-1.032,-0.865,0.0
13.217,-0.962,-0.877,0.0
12.437,-0.904,-0.891,0.0
11.716,-0.851,-0.901,0.0
17.026,-1.234,-0.834,0.0
15.54,-1.125,-0.843,0.0
14.518,-1.05,-0.863,0.0
13.511,-0.976,-0.876,0.0
12.589,-0.908,-0.882,0.0
11.926,-0.86,-0.898,0.0
17.238,-1.24,-0.817,0.0
16.079,-1.155,-0.846,0.0
14.826,-1.064,-0.858,0.0
13.83,-0.991,-0.875,0.0
12.8,-0.916,-0.877,0.0
12.13,-0.867,-0.895,0.0
17.97,-1.282,-0.824,0.0
16.435,-1.171,-0.84,0.0
15.122,-1.076,-0.852,0.0
14.033,-0.997,-0.865,0.0
13.071,-0.928,-0.875,0.0
12.333,-0.874,-0.89,0.0
18.497,-1.308,-0.819,0.0
16.811,-1.187,-0.832,0.0
15.449,-1.089,-0.846,0.0
14.403,-1.014,-0.866,0.0
13.329,-0.937,-0.871,0.0
12.473,-0.876,-0.881,0.0
18.987,-1.33,-0.811,0.0
17.25,-1.207,-0.827,0.0
15.934,-1.113,-0.847,0.0
14.736,-1.028,-0.862,0.0
13.787,-0.96,-0.879,0.0
12.748,-0.886,-0.88,0.0
19.391,-1.345,-0.798,0.0
17.749,-1.229,-0.823,0.0
16.393,-1.133,-0.846,0.0
15.009,-1.036,-0.855,0.0
13.993,-0.964,-0.87,0.0
12.994,-0.894,-0.876,0.0
19.929,-1.367,-0.788,0.0
18.227,-1.248,-0.816,0.0
16.807,-1.149,-0.841,0.0
15.31,-1.045,-0.848,0.0
14.302,-0.974,-0.867,0.0
13.304,-0.904,-0.876,0.0
20.48,-1.389,-0.778,0.0
18.761,-1.27,-0.811,0.0
17.049,-1.151,-0.826,0.0
15.762,-1.062,-0.848,0.0
14.662,-0.986,-0.866,0.0
13.663,-0.917,-0.878,0.0
23.596,1.067,0.414,76.0
23.596,1.074,0.283,73.0
23.585,1.081,0.152,63.0
23.594,1.089,0.019,63.0
23.6,1.096,-0.111,59.0
23.609,1.104,-0.242,46.0
23.608,1.115,0.409,41.0
23.625,1.123,0.278,38.0
23.646,1.132,0.147,36.0
45.173,2.176,0.025,6.0
40.32,1.954,-0.201,25.0
23.645,1.153,-0.249,1.0
45.242,2.229,0.771,0.0
45.187,2.24,0.519,1.0
62.282,3.107,0.369,6.0
45.171,2.267,0.012,48.0
40.319,2.035,-0.213,48.0
34.163,1.735,-0.37,7.0
131.577,6.749,2.202,3.0
99.791,5.149,1.114,43.0
57.853,3.002,0.323,3.0
45.178,2.357,-0.003,37.0
40.321,2.116,-0.227,48.0
33.465,1.766,-0.375,10.0
45.216,2.409,0.74,43.0
45.194,2.421,0.488,3.0
45.211,2.435,0.236,3.0
45.178,2.446,-0.019,28.0
40.315,2.195,-0.242,36.0
0.0,0.0,0.0,0.0
45.182,2.496,0.722,1.0
45.194,2.51,0.47,5.0
45.205,2.524,0.218,49.0
45.179,2.535,-0.038,11.0
40.205,2.267,-0.258,25.0
32.305,1.831,-0.387,9.0
99.643,5.699,1.551,7.0
99.631,5.727,0.994,15.0
45.182,2.61,0.198,12.0
45.196,2.624,-0.058,4.0
40.199,2.346,-0.276,15.0
31.512,1.848,-0.393,9.0
45.224,2.675,0.683,88.0
45.216,2.687,0.43,11.0
45.187,2.697,0.177,28.0
40.312,2.417,-0.071,38.0
40.326,2.43,-0.296,3.0
30.977,1.876,-0.401,9.0
99.762,6.091,1.457,10.0
45.236,2.774,0.407,2.0
45.172,2.783,0.154,41.0
40.325,2.495,-0.091,46.0
36.733,2.283,-0.289,4.0
30.328,1.894,-0.409,8.0
99.771,6.281,1.405,10.0
100.609,6.362,0.853,11.0
45.183,2.869,0.129,150.0
40.31,2.571,-0.114,41.0
36.115,2.313,-0.304,6.0
29.817,1.918,-0.418,8.0
45.222,2.931,0.611,116.0
45.214,2.943,0.357,90.0
44.974,2.94,0.103,18.0
40.321,2.647,-0.137,39.0
35.513,2.34,-0.32,7.0
29.218,1.934,-0.427,8.0
44.329,2.956,0.572,100.0
44.272,2.963,0.323,87.0
42.197,2.835,0.071,31.0
40.322,2.72,-0.162,43.0
34.459,2.333,-0.332,7.0
28.606,1.945,-0.436,7.0
41.508,2.843,0.51,77.0
42.826,2.944,0.286,80.0
42.096,2.905,0.044,11.0
40.32,2.793,-0.187,49.0
0.0,0.0,0.0,0.0
28.041,1.957,-0.446,7.0
41.813,2.939,0.486,130.0
41.766,2.945,0.251,135.0
40.709,2.881,0.016,6.0
40.288,2.862,-0.214,53.0
32.615,2.325,-0.357,9.0
27.209,1.946,-0.451,7.0
40.439,2.913,0.443,125.0
40.394,2.92,0.215,108.0
40.322,2.924,-0.011,48.0
40.221,2.927,-0.242,25.0
31.8,2.322,-0.37,9.0
26.705,1.957,-0.461,7.0
0.0,0.0,0.0,0.0
43.711,3.235,0.201,5.0
40.329,2.995,-0.041,33.0
39.529,2.945,-0.267,15.0
30.965,2.315,-0.383,9.0
25.953,1.946,-0.468,6.0
43.712,3.299,0.414,134.0
43.711,3.309,0.168,122.0
41.91,3.183,-0.074,88.0
0.0,0.0,0.0,0.0
30.389,2.322,-0.399,8.0
25.402,1.947,-0.477,6.0
41.901,3.233,0.365,7.0
41.875,3.24,0.128,41.0
0.0,0.0,0.0,0.0
36.186,2.817,-0.3,9.0
29.392,2.295,-0.41,8.0
24.853,1.947,-0.487,6.0
41.917,3.304,0.331,131.0
40.122,3.171,0.091,100.0
40.085,3.177,-0.135,46.0
35.1,2.79,-0.32,11.0
28.651,2.284,-0.423,7.0
24.318,1.944,-0.496,5.0
40.103,3.225,0.284,6.0
40.081,3.232,0.057,23.0
40.018,3.236,-0.168,43.0
32.687,2.651,-0.325,2.0
27.893,2.268,-0.436,7.0
24.043,1.961,-0.512,5.0
40.099,3.289,0.249,150.0
40.105,3.297,0.022,150.0
40.028,3.3,-0.203,44.0
32.44,2.682,-0.352,10.0
27.144,2.25,-0.448,7.0
23.762,1.975,-0.527,2.0
40.117,3.353,0.214,138.0
40.104,3.36,-0.012,150.0
39.933,3.354,-0.239,22.0
31.52,2.654,-0.37,9.0
25.933,2.189,-0.451,6.0
19.763,1.673,-0.456,3.0
40.115,3.413,0.177,116.0
40.079,3.418,-0.049,54.0
27.91,2.386,-0.192,0.0
30.37,2.603,-0.384,8.0
25.396,2.182,-0.465,6.0
19.71,1.697,-0.473,8.0
40.125,3.473,0.14,39.0
40.115,3.481,-0.086,96.0
36.178,3.146,-0.283,5.0
29.472,2.569,-0.401,8.0
24.822,2.169,-0.479,9.0
21.689,1.9,-0.541,9.0
47.086,4.145,0.119,22.0
40.118,3.54,-0.125,52.0
34.826,3.079,-0.307,11.0
28.594,2.534,-0.417,8.0
24.23,2.152,-0.491,5.0
21.159,1.884,-0.549,6.0
46.712,4.178,0.072,21.0
42.561,3.815,-0.175,7.0
33.633,3.021,-0.329,9.0
27.514,2.477,-0.428,7.0
23.637,2.133,-0.502,5.0
20.696,1.872,-0.557,8.0
46.51,4.224,0.025,21.0
40.148,3.654,-0.206,15.0
32.007,2.919,-0.346,9.0
26.631,2.434,-0.442,8.0
22.985,2.105,-0.512,5.0
20.047,1.84,-0.56,7.0
46.125,4.252,-0.022,25.0
0.0,0.0,0.0,0.0
31.152,2.883,-0.369,9.0
25.645,2.378,-0.452,6.0
22.289,2.071,-0.52,6.0
18.945,1.764,-0.549,13.0
45.428,4.247,-0.069,20.0
36.346,3.404,-0.262,4.0
29.841,2.8,-0.385,8.0
24.966,2.347,-0.467,6.0
21.769,2.051,-0.531,6.0
18.539,1.75,-0.558,16.0
44.051,4.175,-0.115,20.0
35.459,3.366,-0.294,7.0
28.812,2.74,-0.403,8.0
24.394,2.324,-0.482,5.0
21.367,2.04,-0.544,7.0
18.231,1.744,-0.568,17.0
40.405,3.879,-0.149,10.0
33.866,3.256,-0.317,5.0
27.851,2.683,-0.419,7.0
23.736,2.29,-0.495,5.0
20.966,2.026,-0.557,1.0
18.065,1.749,-0.583,18.0
40.122,3.899,-0.192,15.0
31.721,3.088,-0.332,8.0
26.638,2.597,-0.431,6.0
22.966,2.243,-0.505,5.0
18.398,1.8,-0.509,17.0
17.741,1.739,-0.592,18.0
39.189,3.854,-0.232,15.0
31.223,3.075,-0.362,9.0
25.751,2.54,-0.446,6.0
22.28,2.201,-0.515,5.0
18.139,1.795,-0.523,19.0
17.566,1.741,-0.607,18.0
0.0,0.0,0.0,0.0
29.858,2.974,-0.381,8.0
24.954,2.489,-0.461,6.0
21.824,2.18,-0.53,4.0
17.787,1.78,-0.533,19.0
17.382,1.742,-0.621,18.0
35.048,3.523,-0.288,4.0
28.793,2.898,-0.401,8.0
24.386,2.458,-0.478,5.0
18.352,1.853,-0.467,13.0
17.67,1.787,-0.55,18.0
17.262,1.748,-0.636,16.0
33.056,3.357,-0.311,7.0
27.763,2.823,-0.419,7.0
23.72,2.415,-0.493,5.0
18.013,1.837,-0.479,16.0
17.514,1.788,-0.566,17.0
17.019,1.741,-0.647,14.0
32.019,3.283,-0.338,10.0
26.419,2.712,-0.43,6.0
22.959,2.36,-0.505,5.0
17.782,1.831,-0.494,18.0
17.338,1.787,-0.581,17.0
16.81,1.735,-0.66,13.0
30.54,3.161,-0.359,9.0
25.194,2.611,-0.44,10.0
22.488,2.333,-0.522,1.0
17.661,1.834,-0.512,19.0
17.183,1.787,-0.597,16.0
16.697,1.739,-0.676,12.0
29.51,3.08,-0.383,8.0
24.725,2.584,-0.462,5.0
17.999,1.883,-0.439,14.0
17.544,1.838,-0.53,17.0
16.89,1.771,-0.607,14.0
16.564,1.74,-0.69,12.0
28.174,2.965,-0.399,7.0
23.932,2.521,-0.476,5.0
17.742,1.871,-0.454,18.0
17.294,1.826,-0.544,14.0
16.74,1.77,-0.622,13.0
16.367,1.733,-0.702,12.0
27.149,2.88,-0.418,7.0
23.406,2.485,-0.495,3.0
17.654,1.876,-0.474,17.0
17.137,1.823,-0.56,14.0
16.668,1.775,-0.64,18.0
16.176,1.725,-0.714,10.0
25.706,2.746,-0.428,6.0
18.061,1.931,-0.404,12.0
17.554,1.879,-0.493,16.0
17.035,1.825,-0.578,16.0
16.604,1.781,-0.658,16.0
15.985,1.717,-0.726,11.0
24.881,2.676,-0.445,6.0
17.754,1.911,-0.419,15.0
17.369,1.872,-0.51,14.0
16.847,1.817,-0.593,15.0
16.395,1.77,-0.671,13.0
16.009,1.73,-0.747,6.0
24.403,2.641,-0.467,5.0
17.637,1.91,-0.438,16.0
17.211,1.866,-0.526,14.0
16.654,1.807,-0.607,13.0
16.291,1.77,-0.687,13.0
16.361,1.779,-0.784,2.0
23.954,2.608,-0.488,2.0
17.543,1.911,-0.458,17.0
17.102,1.865,-0.544,14.0
16.623,1.814,-0.626,15.0
16.155,1.765,-0.701,12.0
0.0,0.0,0.0,0.0
17.808,1.949,-0.385,15.0
17.446,1.911,-0.477,17.0
16.905,1.853,-0.559,13.0
16.482,1.808,-0.642,15.0
16.044,1.762,-0.716,13.0
17.318,1.904,-0.873,2.0
17.659,1.942,-0.404,20.0
17.256,1.899,-0.494,17.0
16.743,1.844,-0.575,13.0
16.343,1.802,-0.657,15.0
15.932,1.758,-0.732,10.0
17.259,1.906,-0.892,2.0
17.573,1.942,-0.424,19.0
17.136,1.895,-0.512,17.0
16.653,1.843,-0.593,13.0
16.251,1.799,-0.674,15.0
16.029,1.776,-0.757,3.0
17.089,1.895,-0.905,2.0
17.415,1.932,-0.442,15.0
17.022,1.89,-0.53,17.0
16.535,1.837,-0.61,14.0
16.17,1.798,-0.691,15.0
16.233,1.806,-0.787,2.0
16.999,1.893,-0.922,1.0
17.336,1.93,-0.462,17.0
16.841,1.876,-0.545,14.0
16.41,1.829,-0.626,16.0
16.043,1.79,-0.706,14.0
0.0,0.0,0.0,0.0
17.049,1.905,-0.946,1.0
17.216,1.923,-0.48,18.0
16.715,1.868,-0.562,15.0
16.344,1.828,-0.644,16.0
15.906,1.78,-0.72,11.0
16.961,1.899,-0.865,2.0
17.284,1.937,-0.981,0.0
17.1,1.916,-0.499,17.0
16.609,1.862,-0.58,16.0
16.279,1.826,-0.662,15.0
15.954,1.79,-0.742,5.0
16.984,1.907,-0.888,2.0
13.458,1.512,-0.781,0.0
16.991,1.908,-0.517,16.0
16.501,1.854,-0.597,16.0
16.169,1.818,-0.678,13.0
16.126,1.814,-0.77,2.0
16.835,1.894,-0.901,1.0
13.335,1.501,-0.79,0.0
16.838,1.895,-0.534,15.0
16.411,1.848,-0.614,16.0
16.062,1.809,-0.693,13.0
16.342,1.841,-0.801,2.0
16.838,1.898,-0.922,2.0
13.195,1.488,-0.798,0.0
16.714,1.884,-0.55,17.0
16.339,1.842,-0.632,18.0
15.974,1.802,-0.709,13.0
0.0,0.0,0.0,0.0
17.027,1.922,-0.954,1.0
12.897,1.457,-0.797,0.0
16.613,1.875,-0.568,18.0
16.303,1.84,-0.651,16.0
15.914,1.797,-0.727,10.0
16.797,1.898,-0.865,2.0
17.278,1.953,-0.989,0.0
12.741,1.44,-0.803,0.0
16.521,1.866,-0.585,17.0
16.232,1.834,-0.668,14.0
16.061,1.815,-0.753,3.0
16.771,1.896,-0.884,2.0
13.345,1.509,-0.781,0.0
12.541,1.419,-0.806,0.0
16.431,1.857,-0.602,17.0
16.111,1.821,-0.682,13.0
16.22,1.833,-0.78,2.0
16.773,1.896,-0.905,2.0
13.281,1.502,-0.793,0.0
12.469,1.411,-0.816,0.0
16.356,1.848,-0.619,18.0
16.057,1.815,-0.7,14.0
16.444,1.859,-0.811,2.0
16.856,1.906,-0.93,1.0
13.109,1.482,-0.799,0.0
12.188,1.379,-0.813,0.0
16.334,1.845,-0.638,18.0
15.943,1.801,-0.714,12.0
0.0,0.0,0.0,0.0
17.159,1.939,-0.967,0.0
12.847,1.452,-0.798,0.0
11.995,1.356,-0.814,0.0
16.293,1.839,-0.655,17.0
15.937,1.799,-0.732,7.0
16.847,1.902,-0.871,2.0
17.365,1.96,-1.0,0.0
12.737,1.438,-0.807,0.0
11.817,1.334,-0.816,0.0
16.216,1.828,-0.671,16.0
16.117,1.817,-0.76,2.0
16.817,1.896,-0.889,2.0
13.344,1.504,-0.784,0.0
12.542,1.414,-0.809,0.0
11.663,1.315,-0.819,0.0
16.12,1.814,-0.686,16.0
16.229,1.826,-0.784,2.0
16.85,1.896,-0.911,2.0
13.222,1.488,-0.792,0.0
12.407,1.396,-0.815,0.0
11.629,1.309,-0.831,0.0
16.034,1.801,-0.701,16.0
0.0,0.0,0.0,0.0
16.995,1.908,-0.938,1.0
12.957,1.455,-0.791,0.0
12.258,1.376,-0.819,0.0
11.416,1.282,-0.828,0.0
15.969,1.789,-0.716,14.0
16.953,1.899,-0.857,2.0
17.264,1.934,-0.972,0.0
12.889,1.444,-0.801,0.0
12.041,1.349,-0.818,0.0
11.254,1.26,-0.829,0.0
15.932,1.78,-0.732,7.0
17.105,1.911,-0.884,2.0
13.586,1.518,-0.78,0.0
12.741,1.423,-0.806,0.0
11.881,1.327,-0.82,0.0
11.154,1.246,-0.834,0.0
16.048,1.788,-0.755,2.0
17.034,1.897,-0.899,2.0
13.402,1.492,-0.784,0.0
12.621,1.405,-0.812,0.0
11.71,1.303,-0.821,0.0
10.952,1.219,-0.831,0.0
16.201,1.798,-0.779,2.0
17.054,1.893,-0.918,1.0
13.315,1.477,-0.793,0.0
12.451,1.381,-0.814,0.0
11.562,1.282,-0.823,0.0
10.848,1.203,-0.834,0.0
0.0,0.0,0.0,0.0
17.185,1.899,-0.943,1.0
13.083,1.445,-0.793,0.0
12.223,1.35,-0.812,0.0
11.395,1.258,-0.823,0.0
10.704,1.182,-0.834,0.0
17.34,1.909,-0.87,2.0
17.447,1.92,-0.976,0.0
12.966,1.426,-0.799,0.0
12.074,1.328,-0.815,0.0
11.346,1.247,-0.831,0.0
10.625,1.168,-0.839,0.0
17.44,1.911,-0.893,1.0
13.643,1.494,-0.777,0.0
12.865,1.408,-0.806,0.0
11.955,1.308,-0.819,0.0
11.119,1.216,-0.825,0.0
10.577,1.157,-0.846,0.0
17.411,1.898,-0.909,0.0
13.477,1.468,-0.78,0.0
12.688,1.382,-0.807,0.0
11.77,1.281,-0.818,0.0
11.017,1.199,-0.829,0.0
10.446,1.136,-0.846,0.0
17.303,1.876,-0.92,0.0
13.38,1.45,-0.787,0.0
12.601,1.365,-0.814,0.0
11.656,1.262,-0.821,0.0
10.927,1.182,-0.832,0.0
10.346,1.119,-0.848,0.0
17.284,1.863,-0.935,0.0
13.259,1.428,-0.793,0.0
12.401,1.335,-0.813,0.0
11.65,1.253,-0.831,0.0
10.801,1.161,-0.833,0.0
10.28,1.105,-0.852,0.0
13.982,1.497,-0.769,0.0
13.128,1.405,-0.797,0.0
12.264,1.312,-0.815,0.0
11.436,1.222,-0.826,0.0
10.74,1.147,-0.838,0.0
10.223,1.092,-0.856,0.0
17.607,1.873,-0.984,0.0
13.013,1.383,-0.802,0.0
12.204,1.296,-0.821,0.0
11.266,1.196,-0.824,0.0
10.639,1.129,-0.839,0.0
10.131,1.074,-0.857,0.0
13.604,1.437,-0.772,0.0
12.852,1.356,-0.803,0.0
12.031,1.269,-0.82,0.0
11.187,1.179,-0.828,0.0
10.577,1.114,-0.843,0.0
10.087,1.062,-0.862,0.0
13.584,1.424,-0.782,0.0
12.732,1.334,-0.806,0.0
11.945,1.25,-0.824,0.0
11.087,1.159,-0.829,0.0
10.446,1.092,-0.841,0.0
9.993,1.044,-0.862,0.0
13.47,1.401,-0.786,0.0
12.633,1.313,-0.809,0.0
11.781,1.223,-0.822,0.0
11.007,1.142,-0.832,0.0
10.387,1.077,-0.845,0.0
9.959,1.032,-0.867,0.0
13.338,1.376,-0.789,0.0
12.549,1.293,-0.814,0.0
11.698,1.204,-0.825,0.0
10.966,1.128,-0.837,0.0
10.386,1.067,-0.853,0.0
9.909,1.018,-0.87,0.0
13.281,1.358,-0.795,0.0
12.458,1.272,-0.817,0.0
11.616,1.185,-0.828,0.0
10.893,1.11,-0.84,0.0
10.308,1.05,-0.854,0.0
9.803,0.998,-0.868,0.0
13.117,1.329,-0.795,0.0
12.342,1.249,-0.818,0.0
11.553,1.168,-0.832,0.0
10.851,1.096,-0.844,0.0
10.259,1.035,-0.857,0.0
9.746,0.983,-0.87,0.0
13.03,1.308,-0.798,0.0
12.23,1.226,-0.819,0.0
11.484,1.15,-0.834,0.0
10.773,1.077,-0.845,0.0
10.186,1.018,-0.857,0.0
9.722,0.97,-0.874,0.0
12.927,1.284,-0.8,0.0
12.152,1.206,-0.822,0.0
11.351,1.125,-0.832,0.0
10.714,1.061,-0.847,0.0
10.141,1.003,-0.86,0.0
9.629,0.951,-0.872,0.0
12.824,1.261,-0.802,0.0
12.086,1.187,-0.824,0.0
11.281,1.106,-0.834,0.0
10.651,1.043,-0.849,0.0
10.107,0.989,-0.863,0.0
9.645,0.943,-0.879,0.0
12.777,1.242,-0.806,0.0
12.034,1.169,-0.828,0.0
11.224,1.089,-0.836,0.0
10.542,1.021,-0.846,0.0
10.082,0.975,-0.867,0.0
9.601,0.928,-0.88,0.0
12.702,1.221,-0.809,0.0
11.893,1.142,-0.824,0.0
11.192,1.073,-0.839,0.0
10.545,1.01,-0.852,0.0
10.054,0.961,-0.87,0.0
9.576,0.915,-0.883,0.0
12.709,1.208,-0.815,0.0
11.843,1.124,-0.827,0.0
11.179,1.059,-0.844,0.0
10.486,0.992,-0.852,0.0
10.014,0.946,-0.871,0.0
9.548,0.901,-0.885,0.0
12.684,1.191,-0.82,0.0
11.758,1.102,-0.826,0.0
11.134,1.042,-0.846,0.0
10.434,0.975,-0.853,0.0
9.993,0.932,-0.874,0.0
9.507,0.886,-0.885,0.0
12.593,1.167,-0.819,0.0
11.776,1.09,-0.833,0.0
11.047,1.021,-0.844,0.0
10.413,0.961,-0.855,0.0
9.977,0.919,-0.876,0.0
9.525,0.876,-0.891,0.0
12.585,1.151,-0.824,0.0
11.735,1.072,-0.834,0.0
11.055,1.008,-0.849,0.0
10.396,0.947,-0.858,0.0
9.905,0.9,-0.874,0.0
9.491,0.861,-0.891,0.0
12.523,1.13,-0.824,0.0
11.668,1.051,-0.834,0.0
11.002,0.99,-0.848,0.0
10.36,0.93,-0.859,0.0
9.903,0.888,-0.877,0.0
9.416,0.843,-0.887,0.0
12.517,1.114,-0.828,0.0
11.622,1.033,-0.834,0.0
10.968,0.973,-0.849,0.0
10.395,0.92,-0.865,0.0
9.858,0.871,-0.876,0.0
9.433,0.832,-0.891,0.0
12.538,1.1,-0.832,0.0
11.587,1.015,-0.835,0.0
10.937,0.956,-0.849,0.0
10.369,0.905,-0.865,0.0
9.856,0.858,-0.878,0.0
9.418,0.819,-0.892,0.0
12.426,1.074,-0.828,0.0
11.603,1.001,-0.838,0.0
10.922,0.94,-0.851,0.0
10.308,0.886,-0.862,0.0
9.866,0.846,-0.881,0.0
9.337,0.8,-0.887,0.0
12.405,1.056,-0.829,0.0
11.587,0.984,-0.84,0.0
10.946,0.928,-0.855,0.0
10.272,0.869,-0.861,0.0
9.882,0.835,-0.884,0.0
9.387,0.791,-0.893,0.0
12.333,1.033,-0.826,0.0
11.544,0.965,-0.838,0.0
10.905,0.91,-0.853,0.0
10.298,0.857,-0.865,0.0
9.889,0.822,-0.886,0.0
9.363,0.777,-0.892,0.0
12.385,1.021,-0.831,0.0
11.518,0.947,-0.838,0.0
10.91,0.896,-0.855,0.0
10.299,0.843,-0.866,0.0
9.871,0.807,-0.885,0.0
9.377,0.765,-0.894,0.0
12.371,1.003,-0.831,0.0
11.555,0.935,-0.841,0.0
10.888,0.879,-0.854,0.0
10.303,0.83,-0.867,0.0
9.876,0.794,-0.886,0.0
9.333,0.748,-0.89,0.0
12.368,0.985,-0.831,0.0
11.502,0.914,-0.837,0.0
10.872,0.862,-0.853,0.0
10.308,0.815,-0.867,0.0
9.889,0.78,-0.888,0.0
9.342,0.736,-0.891,0.0
12.376,0.968,-0.832,0.0
11.545,0.901,-0.84,0.0
10.966,0.854,-0.86,0.0
10.327,0.802,-0.869,0.0
9.915,0.768,-0.89,0.0
9.332,0.722,-0.89,0.0
12.353,0.949,-0.83,0.0
11.619,0.89,-0.845,0.0
10.944,0.837,-0.857,0.0
10.354,0.789,-0.87,0.0
9.897,0.753,-0.887,0.0
9.415,0.714,-0.897,0.0
12.434,0.937,-0.834,0.0
11.659,0.877,-0.847,0.0
10.94,0.82,-0.856,0.0
10.31,0.771,-0.865,0.0
9.732,0.726,-0.871,0.0
9.463,0.704,-0.9,0.0
12.435,0.92,-0.832,0.0
11.592,0.855,-0.84,0.0
11.035,0.812,-0.862,0.0
10.375,0.761,-0.869,0.0
9.686,0.709,-0.865,2.0
9.475,0.691,-0.9,0.0
12.513,0.907,-0.835,0.0
11.582,0.837,-0.838,0.0
10.988,0.792,-0.856,0.0
10.387,0.747,-0.868,0.0
9.717,0.696,-0.866,0.0
9.444,0.675,-0.895,0.0
12.518,0.889,-0.833,0.0
11.67,0.826,-0.841,0.0
11.034,0.779,-0.857,0.0
10.457,0.736,-0.871,0.0
9.967,0.7,-0.886,0.0
9.503,0.665,-0.898,0.0
12.56,0.873,-0.833,0.0
11.717,0.812,-0.842,0.0
11.077,0.765,-0.857,0.0
10.476,0.722,-0.87,0.0
9.985,0.686,-0.885,1.0
9.515,0.652,-0.896,0.0
12.552,0.854,-0.828,0.0
11.781,0.799,-0.842,0.0
11.087,0.749,-0.854,0.0
10.512,0.708,-0.869,0.0
10.043,0.675,-0.886,0.0
9.562,0.64,-0.897,0.0
12.641,0.841,-0.83,0.0
11.902,0.789,-0.847,0.0
11.157,0.737,-0.856,0.0
10.512,0.692,-0.865,0.0
10.059,0.66,-0.884,0.0
9.61,0.629,-0.898,0.0
12.697,0.826,-0.828,0.0
12.009,0.778,-0.85,0.0
11.247,0.726,-0.858,0.0
10.559,0.679,-0.865,0.0
10.159,0.652,-0.888,0.0
9.669,0.618,-0.899,0.0
12.717,0.807,-0.824,0.0
11.967,0.757,-0.841,0.0
11.281,0.711,-0.855,0.0
10.682,0.671,-0.87,0.0
10.175,0.637,-0.885,0.0
9.73,0.607,-0.9,0.0
12.825,0.795,-0.825,0.0
12.121,0.748,-0.846,0.0
11.304,0.695,-0.852,0.0
10.679,0.655,-0.865,0.0
10.233,0.625,-0.885,0.0
9.758,0.594,-0.898,0.0
12.933,0.782,-0.825,0.0
12.18,0.733,-0.844,0.0
11.431,0.686,-0.855,0.0
10.804,0.646,-0.869,0.0
10.272,0.611,-0.883,0.0
9.803,0.581,-0.896,0.0
13.07,0.77,-0.826,0.0
12.273,0.72,-0.843,0.0
11.501,0.672,-0.853,0.0
10.969,0.638,-0.875,0.0
10.322,0.599,-0.881,0.0
9.843,0.569,-0.894,0.0
13.141,0.754,-0.823,0.0
12.401,0.709,-0.844,0.0
11.602,0.66,-0.854,0.0
11.021,0.625,-0.873,0.0
10.397,0.587,-0.88,0.0
9.93,0.558,-0.896,0.0
13.224,0.739,-0.82,0.0
12.431,0.691,-0.838,0.0
11.7,0.648,-0.853,0.0
11.095,0.612,-0.871,0.0
10.465,0.575,-0.879,0.0
9.972,0.545,-0.892,0.0
13.383,0.727,-0.82,0.0
12.682,0.686,-0.846,0.0
11.836,0.637,-0.854,0.0
11.154,0.598,-0.867,0.0
10.518,0.561,-0.876,0.0
10.042,0.534,-0.891,0.0
23.687,1.25,-1.434,0.0
23.625,1.241,-1.559,1.0
11.95,0.625,-0.854,0.0
11.164,0.581,-0.86,0.0
23.609,1.224,-1.948,0.0
10.153,0.524,-0.893,0.0
23.619,1.211,-1.411,2.0
23.638,1.206,-1.541,2.0
12.042,0.611,-0.851,0.0
11.295,0.571,-0.861,0.0
23.642,1.19,-1.932,0.0
10.22,0.512,-0.891,0.0
23.602,1.174,-1.391,2.0
23.639,1.17,-1.522,1.0
12.134,0.598,-0.847,0.0
11.432,0.56,-0.861,0.0
10.823,0.528,-0.875,0.0
10.315,0.501,-0.89,0.0
23.628,1.14,-1.372,0.0
23.646,1.135,-1.502,0.0
12.274,0.586,-0.846,0.0
11.617,0.552,-0.865,0.0
10.949,0.518,-0.875,0.0
10.329,0.486,-0.882,0.0
23.629,1.104,-1.351,0.0
13.401,0.623,-0.839,0.0
12.371,0.572,-0.841,0.0
11.784,0.542,-0.867,0.0
11.084,0.507,-0.875,0.0
10.494,0.478,-0.886,0.0
14.393,0.651,-0.809,0.0
13.414,0.603,-0.827,0.0
12.576,0.563,-0.843,0.0
11.834,0.527,-0.859,0.0
11.123,0.492,-0.868,0.0
10.561,0.465,-0.881,0.0
14.736,0.644,-0.814,0.0
13.651,0.594,-0.828,0.0
12.699,0.549,-0.839,0.0
11.953,0.514,-0.855,0.0
11.278,0.483,-0.868,0.0
10.694,0.455,-0.881,0.0
14.981,0.633,-0.812,0.0
13.92,0.585,-0.83,0.0
12.955,0.541,-0.842,0.0
12.115,0.503,-0.854,0.0
11.429,0.472,-0.868,0.0
10.818,0.444,-0.88,0.0
15.205,0.62,-0.808,0.0
14.025,0.568,-0.821,0.0
13.169,0.531,-0.842,0.0
12.314,0.493,-0.855,0.0
11.542,0.46,-0.864,0.0
10.941,0.433,-0.878,0.0
15.704,0.617,-0.817,0.0
14.401,0.563,-0.827,0.0
13.399,0.52,-0.841,0.0
12.409,0.479,-0.847,0.0
11.692,0.448,-0.861,0.0
11.102,0.423,-0.878,0.0
15.95,0.604,-0.812,1.0
13.582,0.508,-0.837,0.0
12.622,0.469,-0.847,0.0
11.926,0.44,-0.864,0.0
11.234,0.412,-0.875,0.0
16.058,0.585,-0.798,1.0
14.812,0.536,-0.816,0.0
12.83,0.458,-0.845,0.0
12.082,0.428,-0.861,0.0
11.355,0.4,-0.87,0.0
16.452,0.575,-0.798,1.0
14.145,0.488,-0.837,0.0
13.162,0.451,-0.851,0.0
12.217,0.416,-0.855,0.0
11.527,0.39,-0.869,0.0
16.944,0.569,-0.8,1.0
15.417,0.514,-0.811,0.0
14.395,0.476,-0.834,0.0
13.347,0.439,-0.846,0.0
12.455,0.407,-0.856,0.0
11.699,0.379,-0.867,0.0
17.593,0.566,-0.808,1.0
16.018,0.512,-0.821,0.0
14.688,0.466,-0.831,0.0
13.701,0.431,-0.85,0.0
12.702,0.397,-0.856,0.0
11.945,0.371,-0.869,0.0
17.809,0.549,-0.794,1.0
16.29,0.498,-0.813,0.0
