X,Y,Z,Reflectivity
16.721,-2.019,-0.844,0.0
0.0,0.0,0.0,0.0
25.892,-3.125,-0.72,0.0
0.0,0.0,0.0,0.0
20.395,-2.462,-0.787,0.0
18.395,-2.221,-0.808,0.0
16.986,-2.051,-0.838,0.0
29.935,-3.612,-0.637,0.0
0.0,0.0,0.0,0.0
23.63,-2.851,-0.756,0.0
21.048,-2.54,-0.788,0.0
19.293,-2.328,-0.825,0.0
17.478,-2.109,-0.841,0.0
30.393,-3.665,-0.611,0.0
27.069,-3.264,-0.689,0.0
23.989,-2.892,-0.738,0.0
21.172,-2.553,-0.767,0.0
19.503,-2.351,-0.811,0.0
17.592,-2.121,-0.826,0.0
0.0,0.0,0.0,0.0
27.455,-3.307,-0.666,0.0
0.0,0.0,0.0,0.0
21.658,-2.608,-0.759,0.0
19.639,-2.365,-0.793,0.0
17.94,-2.16,-0.82,0.0
0.0,0.0,0.0,0.0
0.0,0.0,0.0,0.0
25.326,-3.046,-0.719,0.0
22.63,-2.721,-0.766,0.0
20.117,-2.418,-0.788,0.0
18.543,-2.229,-0.826,0.0
34.52,-4.147,-0.571,0.0
0.0,0.0,0.0,0.0
25.978,-3.119,-0.707,0.0
23.094,-2.772,-0.754,0.0
21.08,-2.529,-0.801,0.0
18.855,-2.262,-0.817,0.0
35.318,-4.234,-0.542,0.0
30.279,-3.628,-0.627,0.0
26.335,-3.154,-0.686,0.0
23.583,-2.824,-0.742,0.0
21.224,-2.54,-0.781,0.0
19.329,-2.313,-0.815,0.0
0.0,0.0,0.0,0.0
0.0,0.0,0.0,0.0
27.539,-3.29,-0.684,0.0
24.279,-2.899,-0.735,0.0
21.792,-2.601,-0.776,0.0
19.636,-2.343,-0.804,0.0
0.0,0.0,0.0,0.0
32.41,-3.863,-0.593,0.0
28.131,-3.351,-0.664,0.0
0.0,0.0,0.0,0.0
22.257,-2.648,-0.765,0.0
19.909,-2.368,-0.791,0.0
39.775,-4.728,-0.468,0.0
0.0,0.0,0.0,0.0
28.333,-3.363,-0.635,0.0
0.0,0.0,0.0,0.0
22.953,-2.721,-0.762,0.0
20.684,-2.451,-0.797,0.0
41.447,-4.909,-0.437,0.0
34.534,-4.086,-0.549,0.0
0.0,0.0,0.0,0.0
26.142,-3.089,-0.697,0.0
23.889,-2.821,-0.764,0.0
21.053,-2.484,-0.786,0.0
41.59,-4.905,-0.389,0.0
0.0,0.0,0.0,0.0
0.0,0.0,0.0,0.0
27.446,-3.229,-0.699,0.0
23.876,-2.807,-0.735,0.0
21.388,-2.512,-0.773,0.0
44.41,-5.215,-0.363,0.0
0.0,0.0,0.0,0.0
0.0,0.0,0.0,0.0
27.777,-3.252,-0.674,0.0
0.0,0.0,0.0,0.0
21.908,-2.561,-0.766,0.0
0.0,0.0,0.0,0.0
0.0,0.0,0.0,0.0
0.0,0.0,0.0,0.0
28.597,-3.331,-0.661,0.0
25.553,-2.974,-0.727,0.0
22.337,-2.597,-0.754,0.0
48.616,-5.651,-0.284,1.0
40.732,-4.729,-0.455,0.0
0.0,0.0,0.0,0.0
29.637,-3.434,-0.65,0.0
26.201,-3.032,-0.715,0.0
23.168,-2.679,-0.755,0.0
0.0,0.0,0.0,0.0
41.708,-4.815,-0.417,0.0
0.0,0.0,0.0,0.0
29.944,-3.448,-0.622,0.0
26.404,-3.037,-0.689,0.0
23.529,-2.703,-0.74,0.0
0.0,0.0,0.0,0.0
0.0,0.0,0.0,0.0
36.763,-4.212,-0.521,0.0
31.089,-3.557,-0.609,0.0
27.483,-3.141,-0.685,0.0
24.658,-2.814,-0.747,0.0
0.0,0.0,0.0,0.0
45.105,-5.14,-0.346,0.0
0.0,0.0,0.0,0.0
32.447,-3.687,-0.599,0.0
28.228,-3.204,-0.671,0.0
25.039,-2.838,-0.729,0.0
0.0,0.0,0.0,0.0
0.0,0.0,0.0,0.0
39.943,-4.513,-0.474,0.0
0.0,0.0,0.0,0.0
28.528,-3.214,-0.646,0.0
26.027,-2.928,-0.729,0.0
0.0,0.0,0.0,0.0
0.0,0.0,0.0,0.0
0.0,0.0,0.0,0.0
0.0,0.0,0.0,0.0
0.0,0.0,0.0,0.0
0.0,0.0,0.0,0.0
83.836,-9.357,0.086,9.0
0.0,0.0,0.0,0.0
0.0,0.0,0.0,0.0
35.871,-3.983,-0.541,0.0
30.065,-3.333,-0.614,0.0
26.548,-2.939,-0.684,0.0
83.881,-9.285,0.178,8.0
0.0,0.0,0.0,0.0
0.0,0.0,0.0,0.0
37.79,-4.161,-0.529,0.0
0.0,0.0,0.0,0.0
27.656,-3.035,-0.683,0.0
83.659,-9.18,0.267,4.0
0.0,0.0,0.0,0.0
0.0,0.0,0.0,0.0
38.546,-4.206,-0.498,0.0
32.692,-3.561,-0.598,0.0
28.559,-3.105,-0.675,0.0
83.282,-9.054,0.356,17.0
0.0,0.0,0.0,0.0
0.0,0.0,0.0,0.0
40.431,-4.37,-0.48,0.0
33.095,-3.57,-0.57,0.0
28.944,-3.116,-0.653,0.0
83.351,-8.974,0.443,140.0
0.0,0.0,0.0,0.0
0.0,0.0,0.0,0.0
41.689,-4.461,-0.451,0.0
34.69,-3.704,-0.561,0.0
29.633,-3.158,-0.638,0.0
84.375,-8.992,0.537,3.0
0.0,0.0,0.0,0.0
0.0,0.0,0.0,0.0
0.0,0.0,0.0,0.0
0.0,0.0,0.0,0.0
30.267,-3.191,-0.621,0.0
85.246,-8.989,0.629,3.0
85.295,-8.973,0.172,5.0
0.0,0.0,0.0,0.0
42.861,-4.489,-0.377,0.0
36.828,-3.849,-0.521,0.0
0.0,0.0,0.0,0.0
86.248,-8.993,0.721,46.0
0.0,0.0,0.0,0.0
0.0,0.0,0.0,0.0
46.08,-4.771,-0.359,0.0
0.0,0.0,0.0,0.0
0.0,0.0,0.0,0.0
87.093,-8.976,0.814,3.0
100.335,-10.315,0.4,5.0
0.0,0.0,0.0,0.0
0.0,0.0,0.0,0.0
0.0,0.0,0.0,0.0
0.0,0.0,0.0,0.0
88.221,-8.982,0.909,1.0
100.392,-10.195,0.495,2.0
0.0,0.0,0.0,0.0
0.0,0.0,0.0,0.0
41.424,-4.174,-0.466,0.0
0.0,0.0,0.0,0.0
89.09,-8.954,1.003,53.0
89.136,-8.935,0.523,13.0
0.0,0.0,0.0,0.0
0.0,0.0,0.0,0.0
42.17,-4.194,-0.436,0.0
0.0,0.0,0.0,0.0
90.299,-8.956,1.098,29.0
90.366,-8.938,0.613,54.0
0.0,0.0,0.0,0.0
0.0,0.0,0.0,0.0
44.133,-4.329,-0.416,0.0
0.0,0.0,0.0,0.0
90.367,-8.839,1.179,35.0
90.374,-8.815,0.694,32.0
90.347,-8.786,0.208,7.0
0.0,0.0,0.0,0.0
0.0,0.0,0.0,0.0
0.0,0.0,0.0,0.0
90.258,-8.702,1.257,23.0
90.374,-8.686,0.772,61.0
90.39,-8.662,0.285,150.0
0.0,0.0,0.0,0.0
0.0,0.0,0.0,0.0
0.0,0.0,0.0,0.0
90.377,-8.583,1.333,32.0
90.288,-8.548,0.846,18.0
90.375,-8.53,0.36,47.0
0.0,0.0,0.0,0.0
0.0,0.0,0.0,0.0
39.326,-3.678,-0.483,0.0
90.37,-8.45,1.407,37.0
90.384,-8.425,0.92,20.0
90.375,-8.397,0.432,32.0
0.0,0.0,0.0,0.0
0.0,0.0,0.0,0.0
0.0,0.0,0.0,0.0
90.376,-8.315,1.478,37.0
90.382,-8.288,0.99,34.0
90.351,-8.258,0.503,12.0
0.0,0.0,0.0,0.0
0.0,0.0,0.0,0.0
41.775,-3.78,-0.448,0.0
90.389,-8.178,1.547,32.0
90.373,-8.148,1.058,38.0
90.405,-8.123,0.57,38.0
0.0,0.0,0.0,0.0
0.0,0.0,0.0,0.0
0.0,0.0,0.0,0.0
90.385,-8.035,1.612,31.0
90.406,-8.009,1.124,76.0
90.414,-7.982,0.635,38.0
90.381,-7.95,0.136,4.0
0.0,0.0,0.0,0.0
0.0,0.0,0.0,0.0
90.373,-7.89,1.675,33.0
90.394,-7.862,1.186,37.0
90.408,-7.835,0.697,36.0
90.397,-7.806,0.198,11.0
0.0,0.0,0.0,0.0
0.0,0.0,0.0,0.0
90.393,-7.745,1.737,31.0
90.39,-7.715,1.246,54.0
90.427,-7.69,0.757,37.0
90.387,-7.656,0.258,16.0
0.0,0.0,0.0,0.0
0.0,0.0,0.0,0.0
90.391,-7.594,1.794,35.0
90.416,-7.567,1.305,47.0
90.407,-7.536,0.814,57.0
90.421,-7.507,0.314,68.0
0.0,0.0,0.0,0.0
0.0,0.0,0.0,0.0
90.41,-7.444,1.85,111.0
100.087,-8.206,1.504,11.0
100.07,-8.172,0.961,15.0
99.969,-8.13,0.407,8.0
0.0,0.0,0.0,0.0
0.0,0.0,0.0,0.0
12.268,0.75,-0.839,0.0
11.531,0.705,-0.855,0.0
10.859,0.665,-0.868,0.0
10.239,0.627,-0.879,0.0
9.776,0.599,-0.896,0.0
9.243,0.567,-0.901,0.0
12.043,0.736,-0.842,0.0
11.35,0.694,-0.859,0.0
10.688,0.654,-0.871,0.0
10.134,0.621,-0.886,0.0
9.607,0.589,-0.896,0.0
9.127,0.56,-0.904,0.0
11.859,0.725,-0.847,0.0
11.139,0.681,-0.86,0.0
10.453,0.639,-0.868,0.0
9.97,0.61,-0.887,0.0
9.473,0.58,-0.898,0.0
8.993,0.551,-0.905,0.0
11.646,0.711,-0.85,0.0
10.975,0.67,-0.864,0.0
10.353,0.633,-0.875,0.0
9.825,0.601,-0.889,0.0
9.329,0.571,-0.898,0.0
8.853,0.542,-0.904,0.0
11.438,0.697,-0.852,0.0
10.743,0.655,-0.862,0.0
10.263,0.626,-0.883,0.0
9.739,0.594,-0.896,0.0
9.258,0.565,-0.905,0.0
8.767,0.535,-0.908,0.0
11.305,0.687,-0.859,0.0
10.618,0.646,-0.868,0.0
10.135,0.617,-0.887,0.0
9.582,0.583,-0.895,0.0
9.097,0.554,-0.903,0.0
8.659,0.527,-0.91,0.0
11.131,0.675,-0.862,0.0
10.458,0.634,-0.87,0.0
9.978,0.605,-0.888,0.0
9.522,0.577,-0.904,0.0
8.983,0.545,-0.905,0.0
8.522,0.517,-0.908,0.0
10.947,0.661,-0.863,0.0
10.348,0.625,-0.876,0.0
9.824,0.593,-0.888,0.0
9.341,0.564,-0.9,0.0
8.84,0.534,-0.903,0.0
8.428,0.509,-0.91,0.0
10.787,0.649,-0.866,0.0
10.266,0.617,-0.883,0.0
9.742,0.586,-0.895,0.0
9.223,0.555,-0.901,0.0
8.756,0.526,-0.907,0.0
8.32,0.5,-0.91,0.0
10.599,0.634,-0.865,0.0
10.098,0.604,-0.883,0.0
9.619,0.576,-0.897,0.0
9.086,0.543,-0.901,0.0
8.674,0.519,-0.91,0.0
8.217,0.491,-0.91,0.0
10.53,0.627,-0.874,0.0
9.983,0.594,-0.886,0.0
9.503,0.565,-0.899,0.0
8.99,0.535,-0.903,0.0
8.548,0.508,-0.909,0.0
8.146,0.484,-0.913,0.0
10.376,0.614,-0.875,0.0
9.842,0.582,-0.887,0.0
9.382,0.554,-0.9,0.0
8.876,0.524,-0.904,0.0
8.435,0.498,-0.908,0.0
8.059,0.476,-0.914,0.0
10.254,0.602,-0.878,0.0
9.762,0.573,-0.893,0.0
9.233,0.542,-0.898,0.0
8.801,0.516,-0.908,0.0
8.371,0.491,-0.912,0.0
8.004,0.469,-0.919,0.0
10.142,0.591,-0.882,0.0
9.668,0.563,-0.896,0.0
9.164,0.534,-0.903,0.0
8.699,0.506,-0.908,0.0
8.272,0.481,-0.912,0.0
7.945,0.462,-0.922,0.0
10.05,0.581,-0.886,0.0
9.525,0.55,-0.895,0.0
9.03,0.521,-0.901,0.0
8.594,0.496,-0.908,0.0
8.176,0.472,-0.911,0.0
7.838,0.452,-0.919,0.0
9.935,0.569,-0.888,0.0
9.449,0.541,-0.899,0.0
8.914,0.51,-0.9,0.0
8.524,0.487,-0.911,0.0
8.124,0.464,-0.915,0.0
7.79,0.445,-0.923,0.0
55.196,0.933,2.038,49.0
55.174,0.946,1.746,56.0
55.172,0.959,1.455,73.0
55.166,0.971,1.158,71.0
55.162,0.985,0.868,74.0
55.163,0.998,0.577,69.0
55.202,1.013,2.122,51.0
55.197,1.026,1.831,42.0
55.192,1.04,1.54,22.0
55.185,1.053,1.243,6.0
179.407,3.469,3.096,17.0
162.893,3.19,1.953,29.0
121.301,2.406,4.847,17.0
135.151,2.715,4.687,18.0
135.084,2.747,3.971,21.0
0.0,0.0,0.0,0.0
179.305,3.735,3.359,29.0
162.996,3.436,2.194,15.0
121.338,2.591,5.029,18.0
121.251,2.62,4.384,17.0
135.169,2.955,4.173,14.0
138.762,3.067,3.535,37.0
179.201,4.006,3.619,36.0
128.717,2.911,1.92,24.0
121.239,2.776,5.202,4.0
121.135,2.804,4.556,21.0
115.305,2.698,3.725,11.0
98.764,2.335,2.658,62.0
98.934,2.364,2.138,64.0
99.267,2.397,1.619,94.0
128.916,3.149,5.712,8.0
113.582,2.804,4.43,21.0
45.464,1.134,1.532,0.0
115.442,2.909,3.266,18.0
45.503,1.158,1.046,4.0
0.0,0.0,0.0,0.0
43.717,1.136,1.996,22.0
43.72,1.147,1.764,118.0
0.0,0.0,0.0,0.0
0.0,0.0,0.0,0.0
0.0,0.0,0.0,0.0
41.9,1.142,0.797,55.0
0.0,0.0,0.0,0.0
0.0,0.0,0.0,0.0
40.106,1.126,1.458,49.0
40.133,1.137,1.241,108.0
40.115,1.147,1.028,150.0
40.123,1.158,0.815,150.0
40.122,1.17,1.939,118.0
40.119,1.181,1.725,120.0
40.106,1.19,1.51,150.0
40.11,1.201,1.293,147.0
40.114,1.211,1.079,150.0
40.119,1.222,0.865,150.0
40.119,1.235,1.989,114.0
40.141,1.245,1.776,89.0
40.117,1.255,1.561,126.0
40.106,1.265,1.342,146.0
40.119,1.276,1.128,150.0
40.12,1.286,0.914,150.0
40.116,1.299,2.038,111.0
40.102,1.309,1.823,68.0
40.099,1.319,1.608,10.0
40.113,1.33,1.39,3.0
121.148,4.05,3.552,19.0
121.451,4.093,2.913,7.0
121.211,4.125,6.304,10.0
120.404,4.129,5.616,16.0
120.202,4.153,4.963,9.0
120.454,4.194,4.317,18.0
121.13,4.25,3.694,12.0
163.39,5.779,4.111,9.0
135.416,4.837,7.203,12.0
121.229,4.36,5.796,12.0
120.022,4.349,5.096,23.0
120.392,4.394,4.454,17.0
162.673,5.979,5.145,11.0
43.625,1.615,1.146,108.0
121.044,4.524,6.573,20.0
121.061,4.555,5.922,12.0
120.194,4.555,5.235,15.0
178.474,6.811,6.798,16.0
162.534,6.245,5.317,13.0
40.404,1.563,1.105,150.0
120.85,4.721,6.694,20.0
121.002,4.757,6.05,15.0
180.04,7.125,8.033,18.0
178.484,7.111,6.987,20.0
179.152,7.184,6.048,5.0
45.214,1.825,1.283,7.0
120.841,4.923,6.819,22.0
121.027,4.963,6.178,13.0
180.068,7.432,8.22,16.0
178.961,7.433,7.188,13.0
23.626,0.987,0.821,0.0
23.611,0.993,0.694,1.0
83.715,8.008,5.712,7.0
83.754,8.026,5.243,10.0
83.717,8.037,4.767,9.0
83.849,8.064,4.294,8.0
82.968,7.994,3.782,9.0
83.742,8.084,3.346,8.0
82.885,8.047,5.629,5.0
82.703,8.042,5.15,2.0
82.708,8.057,4.682,1.0
75.13,7.331,3.822,1.0
75.207,7.351,3.403,2.0
75.171,7.361,2.977,1.0
75.094,7.394,5.073,6.0
75.098,7.407,4.649,6.0
75.061,7.415,4.223,8.0
75.049,7.427,3.79,9.0
75.077,7.443,3.368,11.0
75.059,7.455,2.944,3.0
75.047,7.493,5.041,42.0
75.04,7.504,4.615,76.0
75.054,7.517,4.191,119.0
75.047,7.528,3.759,117.0
75.046,7.541,3.335,111.0
74.971,7.547,2.909,4.0
75.055,7.596,5.008,12.0
75.063,7.607,4.584,10.0
75.054,7.618,4.158,90.0
75.08,7.632,3.727,9.0
75.076,7.644,3.303,6.0
75.052,7.654,2.878,1.0
75.162,7.705,4.981,3.0
75.157,7.716,4.554,2.0
75.046,7.716,4.122,33.0
71.017,7.312,3.491,2.0
71.08,7.33,3.092,0.0
62.709,6.477,2.373,5.0
70.915,7.361,4.664,3.0
70.924,7.372,4.262,4.0
70.933,7.384,3.859,4.0
70.899,7.391,3.448,7.0
70.961,7.408,3.05,6.0
61.961,6.478,2.313,8.0
70.87,7.446,4.623,17.0
70.888,7.458,4.221,21.0
70.901,7.469,3.819,26.0
70.899,7.479,3.41,30.0
70.885,7.487,3.008,34.0
61.232,6.477,2.251,6.0
70.876,7.533,4.583,68.0
70.875,7.543,4.18,43.0
70.866,7.551,3.776,36.0
70.883,7.562,3.368,34.0
70.892,7.573,2.967,26.0
60.574,6.48,2.192,3.0
70.884,7.618,4.541,8.0
70.899,7.629,4.138,7.0
70.866,7.634,3.734,6.0
70.887,7.646,3.324,6.0
70.907,7.658,2.923,5.0
59.908,6.478,2.13,5.0
70.961,7.709,4.501,2.0
70.902,7.71,4.094,2.0
70.952,7.725,3.693,2.0
71.003,7.739,3.285,1.0
71.096,7.759,2.885,0.0
59.346,6.485,2.072,3.0
73.181,8.032,4.594,9.0
73.35,8.059,4.186,9.0
73.54,8.088,3.779,10.0
73.48,8.091,3.35,11.0
73.223,8.072,2.922,3.0
58.824,6.492,2.013,11.0
72.578,8.045,4.506,10.0
72.44,8.037,4.085,8.0
72.688,8.073,3.684,8.0
72.824,8.097,3.269,10.0
58.199,6.478,2.281,2.0
58.237,6.49,1.952,8.0
72.176,8.077,4.428,10.0
71.915,8.055,4.002,7.0
71.868,8.058,3.59,2.0
72.044,8.086,3.181,6.0
57.751,6.488,2.221,4.0
57.763,6.496,1.893,6.0
71.652,8.091,4.343,9.0
71.494,8.081,3.924,8.0
71.212,8.056,3.503,4.0
71.076,8.048,3.084,2.0
57.27,6.491,2.159,7.0
57.273,6.498,1.833,11.0
70.987,8.086,4.248,10.0
70.984,8.092,3.842,9.0
70.758,8.073,3.426,10.0
70.563,8.058,3.006,8.0
56.73,6.484,2.094,1.0
56.778,6.496,1.772,7.0
70.192,8.062,4.142,4.0
70.488,8.102,3.757,8.0
70.44,8.102,3.353,11.0
70.155,8.076,2.932,3.0
56.32,6.49,2.032,10.0
56.347,6.499,1.712,11.0
69.588,8.055,4.05,1.0
69.924,8.1,3.669,1.0
70.047,8.12,3.275,2.0
55.947,6.491,2.29,4.0
55.905,6.491,1.97,10.0
55.923,6.499,1.652,12.0
63.198,7.371,3.623,3.0
63.16,7.371,3.259,3.0
63.169,7.378,2.898,3.0
55.505,6.487,2.224,9.0
55.534,6.495,1.908,11.0
55.544,6.502,1.592,11.0
63.141,7.416,3.565,6.0
63.168,7.424,3.204,6.0
63.166,7.428,2.843,6.0
55.144,6.489,2.161,11.0
55.151,6.495,1.846,12.0
55.161,6.501,1.532,10.0
63.101,7.461,3.505,17.0
63.137,7.469,3.146,16.0
63.128,7.472,2.784,16.0
54.802,6.491,2.098,12.0
54.802,6.495,1.785,12.0
54.809,6.5,1.473,11.0
63.118,7.509,3.448,42.0
63.106,7.512,3.085,49.0
63.128,7.519,2.725,29.0
54.472,6.492,2.034,12.0
54.495,6.498,1.724,12.0
54.501,6.503,1.412,12.0
63.111,7.553,3.387,89.0
63.101,7.556,3.025,97.0
63.106,7.56,2.664,9.0
54.169,6.493,1.971,12.0
54.176,6.497,1.661,12.0
54.17,6.501,1.351,12.0
63.101,7.594,3.325,20.0
63.112,7.598,2.964,22.0
53.842,6.485,2.22,1.0
53.883,6.493,1.908,10.0
53.909,6.5,1.6,13.0
53.926,6.506,1.293,13.0
63.114,7.635,3.263,8.0
63.127,7.639,2.902,8.0
53.564,6.484,2.155,6.0
53.638,6.496,1.845,12.0
53.671,6.503,1.539,14.0
53.689,6.509,1.233,13.0
63.123,7.672,3.2,5.0
63.097,7.671,2.837,5.0
53.384,6.493,2.094,9.0
53.4,6.497,1.783,10.0
53.424,6.503,1.479,12.0
53.451,6.509,1.174,12.0
63.153,7.709,3.137,4.0
63.146,7.71,2.774,2.0
53.158,6.493,2.031,11.0
53.198,6.5,1.722,13.0
53.226,6.506,1.418,12.0
53.25,6.512,1.114,11.0
63.266,7.754,3.077,2.0
52.934,6.489,2.271,2.0
52.965,6.494,1.969,12.0
53.009,6.502,1.661,13.0
53.035,6.507,1.358,13.0
53.083,6.516,1.055,12.0
65.674,8.078,3.125,1.0
52.76,6.491,2.207,2.0
52.789,6.495,1.906,10.0
52.844,6.504,1.599,12.0
52.862,6.508,1.298,14.0
52.904,6.516,0.996,12.0
65.385,8.068,3.041,7.0
52.636,6.496,2.146,2.0
52.622,6.495,1.843,10.0
52.704,6.507,1.539,14.0
52.726,6.512,1.237,13.0
52.756,6.517,0.936,14.0
65.189,8.067,2.962,8.0
52.478,6.495,2.083,4.0
52.534,6.503,1.783,10.0
52.563,6.507,1.477,11.0
52.6,6.513,1.177,13.0
52.616,6.517,0.876,12.0
65.115,8.078,2.886,4.0
52.36,6.496,2.02,4.0
52.406,6.502,1.721,9.0
52.441,6.508,1.416,12.0
52.507,6.517,1.117,13.0
52.535,6.522,0.817,12.0
52.234,6.494,2.257,2.0
52.25,6.496,1.958,7.0
52.296,6.502,1.659,8.0
52.354,6.51,1.355,13.0
52.423,6.519,1.057,13.0
52.464,6.526,0.757,12.0
52.15,6.495,2.195,3.0
52.204,6.501,1.897,5.0
52.241,6.506,1.598,8.0
52.303,6.514,1.296,13.0
52.354,6.521,0.997,13.0
52.378,6.525,0.697,11.0
52.073,6.494,2.133,4.0
52.144,6.502,1.837,7.0
52.202,6.509,1.538,10.0
52.232,6.513,1.235,11.0
52.279,6.519,0.936,11.0
52.316,6.525,0.637,13.0
51.999,6.491,2.071,6.0
52.086,6.501,1.774,11.0
52.162,6.51,1.478,8.0
52.216,6.517,1.175,12.0
52.247,6.521,0.876,11.0
52.292,6.527,0.577,12.0
52.042,6.501,2.012,9.0
52.104,6.507,1.715,12.0
52.161,6.514,1.418,7.0
52.191,6.517,1.114,12.0
52.24,6.523,0.815,11.0
52.288,6.529,0.517,13.0
52.054,6.504,1.953,10.0
52.082,6.506,1.655,10.0
52.154,6.514,1.358,8.0
52.191,6.518,1.054,12.0
52.25,6.525,0.756,11.0
52.296,6.53,0.457,11.0
52.049,6.502,1.893,8.0
52.129,6.511,1.596,11.0
52.169,6.515,1.299,11.0
52.244,6.523,0.995,10.0
52.298,6.529,0.696,12.0
52.331,6.533,0.397,13.0
52.096,6.505,1.835,9.0
52.151,6.51,1.537,10.0
52.21,6.516,1.239,11.0
52.276,6.523,0.936,11.0
52.336,6.529,0.636,13.0
52.377,6.534,0.337,11.0
52.144,6.506,1.776,10.0
52.21,6.512,1.478,8.0
52.282,6.519,1.18,11.0
52.346,6.525,0.876,15.0
52.396,6.53,0.576,13.0
52.439,6.534,0.276,5.0
52.21,6.506,1.716,9.0
52.299,6.514,1.42,10.0
52.367,6.521,1.121,13.0
52.427,6.526,0.816,14.0
52.486,6.532,0.515,12.0
42.826,5.329,0.175,3.0
52.335,6.511,1.66,8.0
52.4,6.516,1.362,13.0
52.453,6.52,1.062,13.0
52.529,6.527,0.757,13.0
52.574,6.531,0.456,13.0
42.736,5.308,0.125,4.0
52.424,6.509,1.602,10.0
52.505,6.516,1.303,13.0
52.589,6.523,1.003,13.0
52.634,6.527,0.697,15.0
52.698,6.532,0.396,11.0
18.029,2.234,0.032,1.0
52.568,6.511,1.545,12.0
52.652,6.518,1.246,12.0
52.716,6.523,0.944,14.0
52.779,6.528,0.638,14.0
52.829,6.532,0.336,10.0
18.025,2.228,0.011,1.0
52.735,6.514,1.489,13.0
52.792,6.517,1.188,14.0
52.863,6.523,0.887,13.0
52.947,6.53,0.579,14.0
53.022,6.537,0.275,3.0
18.05,2.224,-0.009,1.0
52.905,6.514,1.433,13.0
52.98,6.52,1.131,13.0
53.031,6.522,0.828,13.0
53.12,6.53,0.52,12.0
46.626,5.729,0.189,3.0
36.222,4.449,-0.06,5.0
53.102,6.516,1.377,12.0
53.19,6.523,1.074,12.0
53.255,6.527,0.771,13.0
53.311,6.53,0.461,13.0
46.349,5.675,0.135,6.0
36.241,4.435,-0.101,5.0
53.315,6.517,1.322,12.0
53.399,6.522,1.018,11.0
53.466,6.527,0.713,12.0
53.558,6.534,0.402,16.0
45.811,5.586,0.082,20.0
0.0,0.0,0.0,0.0
53.556,6.518,1.268,13.0
53.649,6.525,0.962,14.0
53.739,6.531,0.656,13.0
53.76,6.53,0.343,7.0
40.434,4.908,0.026,4.0
35.84,4.348,-0.181,12.0
53.82,6.52,1.213,12.0
53.923,6.527,0.906,13.0
53.997,6.531,0.598,10.0
54.046,6.533,0.284,2.0
40.349,4.874,-0.018,4.0
35.057,4.232,-0.217,12.0
54.091,6.519,1.157,12.0
54.2,6.527,0.849,12.0
54.279,6.531,0.54,9.0
54.318,6.531,0.224,1.0
38.667,4.646,-0.061,6.0
34.552,4.149,-0.252,14.0
54.427,6.523,1.104,12.0
54.5,6.527,0.794,14.0
54.605,6.534,0.483,13.0
51.309,6.135,0.155,7.0
38.314,4.578,-0.102,13.0
33.848,4.041,-0.284,11.0
54.748,6.524,1.051,12.0
54.844,6.529,0.739,12.0
54.956,6.537,0.426,14.0
45.771,5.44,0.088,20.0
0.0,0.0,0.0,0.0
33.275,3.948,-0.315,10.0
55.115,6.526,0.998,12.0
55.219,6.532,0.684,12.0
55.323,6.538,0.369,10.0
45.037,5.318,0.038,20.0
35.725,4.215,-0.173,12.0
32.238,3.801,-0.34,10.0
55.541,6.533,0.946,12.0
55.665,6.541,0.63,12.0
55.756,6.545,0.312,3.0
0.0,0.0,0.0,0.0
35.474,4.157,-0.209,17.0
30.754,3.601,-0.357,9.0
55.949,6.535,0.894,12.0
56.068,6.542,0.576,13.0
56.141,6.544,0.256,1.0
42.712,4.973,-0.053,17.0
35.595,4.141,-0.247,11.0
30.014,3.489,-0.379,8.0
56.389,6.537,0.843,11.0
56.495,6.542,0.522,11.0
46.587,5.389,0.164,4.0
38.6,4.46,-0.088,11.0
35.217,4.065,-0.281,9.0
28.826,3.324,-0.394,8.0
56.868,6.54,0.791,10.0
56.984,6.546,0.467,8.0
46.213,5.303,0.115,20.0
37.186,4.262,-0.122,83.0
34.312,3.929,-0.309,9.0
28.002,3.203,-0.412,7.0
57.356,6.541,0.739,11.0
57.452,6.544,0.413,4.0
46.327,5.27,0.069,11.0
37.599,4.273,-0.162,14.0
30.995,3.518,-0.31,2.0
26.788,3.038,-0.421,6.0
57.834,6.538,0.688,6.0
57.988,6.546,0.359,2.0
42.906,4.838,0.021,10.0
37.021,4.17,-0.195,13.0
30.983,3.485,-0.34,6.0
26.039,2.926,-0.434,6.0
58.372,6.538,0.637,5.0
58.51,6.544,0.306,0.0
43.691,4.88,-0.02,19.0
37.1,4.139,-0.232,13.0
30.593,3.409,-0.366,8.0
25.448,2.832,-0.449,6.0
58.92,6.535,0.587,8.0
59.033,6.538,0.251,0.0
42.17,4.664,-0.059,17.0
36.539,4.036,-0.263,9.0
29.623,3.268,-0.382,8.0
24.754,2.727,-0.46,5.0
59.493,6.532,0.537,3.0
47.071,5.16,0.157,7.0
42.07,4.606,-0.099,3.0
34.918,3.817,-0.284,8.0
28.809,3.145,-0.398,7.0
24.39,2.659,-0.476,6.0
60.023,6.52,0.486,1.0
46.407,5.033,0.112,20.0
38.985,4.222,-0.127,14.0
34.126,3.69,-0.308,6.0
28.026,3.026,-0.413,7.0
24.086,2.597,-0.492,5.0
60.904,6.542,0.438,3.0
45.831,4.915,0.07,20.0
38.717,4.146,-0.161,18.0
32.741,3.501,-0.325,10.0
0.0,0.0,0.0,0.0
23.396,2.494,-0.498,3.0
61.706,6.552,0.39,2.0
46.082,4.885,0.03,5.0
38.835,4.11,-0.194,14.0
31.606,3.34,-0.341,9.0
26.158,2.76,-0.43,6.0
22.996,2.423,-0.509,2.0
62.356,6.542,0.342,1.0
44.933,4.706,-0.007,19.0
38.614,4.037,-0.225,13.0
30.791,3.214,-0.357,9.0
25.341,2.641,-0.438,6.0
22.559,2.347,-0.518,3.0
52.838,5.474,0.247,3.0
44.312,4.582,-0.044,19.0
0.0,0.0,0.0,0.0
30.15,3.107,-0.374,9.0
24.976,2.569,-0.451,6.0
22.169,2.277,-0.527,2.0
47.454,4.852,0.184,9.0
43.837,4.474,-0.077,18.0
35.871,3.654,-0.267,4.0
29.341,2.984,-0.387,8.0
24.692,2.506,-0.466,5.0
21.858,2.215,-0.536,1.0
47.288,4.77,0.147,21.0
44.196,4.449,-0.112,6.0
34.986,3.515,-0.287,5.0
28.833,2.892,-0.402,8.0
24.126,2.415,-0.473,5.0
21.511,2.15,-0.543,5.0
47.074,4.682,0.111,22.0
40.301,4.0,-0.132,10.0
34.246,3.393,-0.306,11.0
28.234,2.792,-0.414,7.0
23.897,2.358,-0.486,5.0
21.264,2.095,-0.552,1.0
46.647,4.572,0.077,22.0
40.383,3.95,-0.16,15.0
33.571,3.277,-0.323,10.0
27.509,2.679,-0.423,7.0
23.526,2.287,-0.495,5.0
20.897,2.027,-0.558,0.0
46.225,4.462,0.045,21.0
40.098,3.862,-0.187,15.0
31.528,3.03,-0.325,4.0
26.631,2.554,-0.427,7.0
23.186,2.219,-0.503,5.0
18.876,1.803,-0.516,16.0
45.949,4.366,0.014,21.0
39.946,3.787,-0.212,15.0
31.393,2.969,-0.344,8.0
26.144,2.468,-0.436,6.0
22.825,2.15,-0.509,5.0
18.947,1.781,-0.53,11.0
46.051,4.304,-0.014,20.0
0.0,0.0,0.0,0.0
31.111,2.894,-0.36,9.0
25.775,2.393,-0.446,6.0
22.431,2.078,-0.514,6.0
19.577,1.809,-0.559,6.0
46.021,4.23,-0.041,24.0
37.472,3.436,-0.244,3.0
30.368,2.778,-0.369,8.0
25.383,2.316,-0.453,6.0
22.206,2.022,-0.522,4.0
19.415,1.763,-0.566,6.0
45.893,4.144,-0.066,20.0
36.759,3.311,-0.26,4.0
29.732,2.671,-0.378,8.0
25.024,2.243,-0.461,6.0
21.972,1.964,-0.528,4.0
19.215,1.714,-0.57,7.0
40.097,3.555,-0.08,76.0
36.097,3.192,-0.274,6.0
29.554,2.607,-0.39,8.0
24.832,2.185,-0.47,8.0
21.815,1.914,-0.536,3.0
19.067,1.669,-0.575,9.0
40.115,3.49,-0.1,100.0
35.501,3.081,-0.287,12.0
29.184,2.526,-0.4,8.0
24.604,2.124,-0.478,5.0
19.701,1.696,-0.493,9.0
18.831,1.617,-0.577,11.0
40.086,3.42,-0.118,80.0
34.651,2.949,-0.296,7.0
28.469,2.416,-0.403,7.0
24.303,2.056,-0.483,5.0
19.699,1.662,-0.502,9.0
18.84,1.585,-0.586,13.0
40.052,3.349,-0.135,54.0
34.367,2.865,-0.309,9.0
28.382,2.359,-0.414,7.0
24.231,2.008,-0.491,5.0
19.696,1.628,-0.51,8.0
18.939,1.561,-0.596,9.0
40.003,3.275,-0.151,62.0
32.665,2.666,-0.306,2.0
28.098,2.286,-0.421,7.0
23.995,1.947,-0.496,5.0
19.702,1.593,-0.517,8.0
18.818,1.518,-0.599,3.0
40.051,3.209,-0.166,40.0
33.251,2.656,-0.324,7.0
27.625,2.199,-0.423,7.0
23.937,1.9,-0.503,5.0
19.709,1.559,-0.524,8.0
18.72,1.476,-0.603,4.0
0.0,0.0,0.0,0.0
33.023,2.578,-0.332,10.0
27.632,2.151,-0.432,7.0
23.923,1.856,-0.51,5.0
19.705,1.524,-0.53,8.0
18.679,1.44,-0.607,3.0
41.785,3.199,-0.199,22.0
32.829,2.504,-0.339,10.0
27.398,2.083,-0.436,7.0
23.845,1.807,-0.515,5.0
19.719,1.489,-0.536,9.0
18.621,1.402,-0.61,4.0
40.259,3.009,-0.202,31.0
32.502,2.42,-0.344,10.0
27.219,2.02,-0.44,7.0
23.823,1.762,-0.52,4.0
19.7,1.452,-0.54,9.0
18.578,1.364,-0.612,3.0
40.251,2.935,-0.211,27.0
32.108,2.332,-0.347,9.0
26.879,1.945,-0.44,7.0
23.785,1.715,-0.524,2.0
19.709,1.416,-0.544,10.0
18.512,1.325,-0.614,3.0
40.116,2.851,-0.218,40.0
31.935,2.261,-0.351,9.0
27.013,1.905,-0.447,7.0
23.615,1.659,-0.524,5.0
19.7,1.379,-0.547,9.0
18.506,1.29,-0.616,4.0
40.074,2.772,-0.223,23.0
31.975,2.203,-0.355,9.0
27.015,1.854,-0.45,7.0
23.781,1.625,-0.531,2.0
19.711,1.342,-0.549,10.0
18.47,1.252,-0.617,3.0
40.145,2.7,-0.228,27.0
31.902,2.137,-0.358,9.0
27.08,1.806,-0.454,7.0
20.013,1.329,-0.448,0.0
19.712,1.304,-0.551,9.0
18.468,1.217,-0.619,3.0
40.184,2.626,-0.231,19.0
31.967,2.08,-0.361,9.0
27.172,1.761,-0.457,7.0
19.953,1.287,-0.448,0.0
19.707,1.266,-0.552,9.0
18.472,1.182,-0.62,3.0
40.192,2.55,-0.233,26.0
32.093,2.027,-0.363,9.0
27.225,1.712,-0.459,7.0
19.991,1.251,-0.449,0.0
19.708,1.228,-0.552,10.0
18.471,1.146,-0.62,3.0
0.0,0.0,0.0,0.0
32.168,1.969,-0.364,9.0
27.473,1.674,-0.462,7.0
20.01,1.213,-0.449,0.0
19.714,1.19,-0.552,10.0
18.461,1.109,-0.618,3.0
40.261,2.398,-0.231,25.0
32.357,1.917,-0.364,10.0
27.663,1.631,-0.464,6.0
20.108,1.18,-0.45,0.0
19.712,1.151,-0.55,8.0
18.563,1.079,-0.621,3.0
40.26,2.319,-0.228,25.0
32.551,1.865,-0.364,10.0
27.57,1.571,-0.46,2.0
24.037,1.363,-0.536,0.0
19.946,1.125,-0.554,7.0
18.569,1.042,-0.619,3.0
45.544,1.082,0.072,1.0
44.054,1.033,-0.167,5.0
36.727,0.849,-0.337,2.0
29.887,0.682,-0.438,0.0
25.748,0.579,-0.516,0.0
26.064,0.578,-0.663,6.0
65.287,1.422,0.154,0.0
48.483,1.04,-0.146,1.0
38.526,0.814,-0.323,2.0
31.55,0.657,-0.437,0.0
28.055,0.575,-0.539,0.0
26.699,0.539,-0.657,2.0
55.201,1.093,0.175,7.0
52.355,1.021,-0.114,2.0
39.466,0.757,-0.298,1.0
32.559,0.614,-0.424,0.0
31.499,0.584,-0.579,0.0
27.291,0.497,-0.648,1.0
55.172,0.986,0.221,138.0
55.116,0.967,-0.074,7.0
42.187,0.726,-0.282,0.0
35.572,0.601,-0.432,1.0
29.248,0.485,-0.512,0.0
27.649,0.45,-0.633,0.0
0.0,0.0,0.0,0.0
55.131,0.86,-0.024,4.0
19.718,0.301,-0.114,1.0
19.659,0.294,-0.221,13.0
19.671,0.288,-0.327,13.0
19.677,0.282,-0.432,15.0
19.788,0.277,0.115,5.0
19.704,0.269,0.009,0.0
19.648,0.262,-0.095,14.0
19.632,0.256,-0.202,16.0
19.659,0.25,-0.308,16.0
19.667,0.244,-0.413,20.0
19.779,0.239,0.133,24.0
19.665,0.231,0.028,10.0
19.634,0.224,-0.076,15.0
19.636,0.218,-0.183,16.0
19.648,0.212,-0.288,16.0
19.665,0.206,-0.394,17.0
19.686,0.2,0.152,11.0
19.651,0.193,0.047,13.0
19.646,0.187,-0.057,12.0
19.643,0.181,-0.163,14.0
19.674,0.175,-0.269,8.0
19.692,0.169,-0.374,2.0
19.666,0.162,0.172,15.0
19.638,0.156,0.067,14.0
19.642,0.15,-0.036,14.0
19.673,0.144,-0.143,9.0
36.328,0.255,-0.458,0.0
31.239,0.21,-0.56,0.0
19.666,0.125,0.193,17.0
19.658,0.119,0.088,13.0
19.67,0.114,-0.015,8.0
19.712,0.108,-0.122,0.0
19.762,0.102,-0.228,0.0
19.766,0.096,-0.333,4.0
19.639,0.089,0.214,15.0
19.695,0.083,0.11,18.0
19.762,0.078,0.005,68.0
19.766,0.072,-0.101,52.0
19.767,0.065,-0.206,26.0
19.771,0.06,-0.311,22.0
19.631,0.053,0.236,16.0
19.742,0.047,0.133,12.0
19.764,0.041,0.028,16.0
19.739,0.035,-0.078,9.0
19.781,0.03,-0.183,2.0
19.777,0.024,-0.288,1.0
19.631,0.017,0.259,14.0
19.795,0.012,0.156,2.0
19.751,0.006,0.051,5.0
19.733,0.0,-0.055,9.0
19.759,-0.005,-0.16,2.0
37.327,-0.021,-0.5,0.0
19.639,-0.017,0.282,12.0
19.66,-0.023,0.178,11.0
19.706,-0.028,0.074,15.0
19.703,-0.034,-0.031,16.0
19.723,-0.04,-0.135,14.0
19.748,-0.046,-0.24,15.0
19.656,-0.052,0.306,10.0
19.688,-0.058,0.203,14.0
19.695,-0.063,0.099,14.0
19.691,-0.069,-0.007,16.0
19.715,-0.075,-0.111,16.0
19.734,-0.081,-0.215,16.0
19.676,-0.086,0.331,9.0
19.709,-0.092,0.228,13.0
19.724,-0.098,0.124,10.0
19.714,-0.103,0.017,10.0
19.717,-0.109,-0.086,12.0
19.726,-0.115,-0.19,16.0
19.73,-0.12,0.357,0.0
19.621,-0.125,0.252,0.0
19.773,-0.132,0.149,0.0
19.706,-0.137,0.043,0.0
19.774,-0.143,-0.06,7.0
19.749,-0.149,-0.165,13.0
19.77,-0.154,0.384,0.0
0.0,0.0,0.0,0.0
97.151,-0.814,0.863,6.0
0.0,0.0,0.0,0.0
0.0,0.0,0.0,0.0
19.819,-0.183,-0.139,0.0
19.754,-0.187,0.41,8.0
19.761,-0.193,0.306,3.0
96.933,-0.974,0.992,151.0
0.0,0.0,0.0,0.0
96.887,-1.028,-0.038,1.0
0.0,0.0,0.0,0.0
19.757,-0.22,0.437,9.0
19.746,-0.225,0.332,11.0
19.742,-0.23,0.228,14.0
19.744,-0.236,0.123,12.0
0.0,0.0,0.0,0.0
0.0,0.0,0.0,0.0
19.792,-0.252,0.465,1.0
19.76,-0.257,0.36,3.0
19.745,-0.262,0.256,8.0
19.741,-0.268,0.15,28.0
19.761,-0.273,0.047,1.0
0.0,0.0,0.0,0.0
163.429,-2.347,4.074,7.0
0.0,0.0,0.0,0.0
96.932,-1.444,1.398,10.0
96.893,-1.47,0.879,152.0
19.746,-0.304,0.075,2.0
0.0,0.0,0.0,0.0
163.35,-2.605,4.309,10.0
0.0,0.0,0.0,0.0
97.273,-1.601,1.544,1.0
96.915,-1.621,1.021,158.0
97.686,-1.66,0.516,1.0
0.0,0.0,0.0,0.0
163.331,-2.857,4.549,36.0
171.22,-3.04,3.871,4.0
0.0,0.0,0.0,0.0
96.915,-1.769,1.164,41.0
96.883,-1.794,0.656,10.0
0.0,0.0,0.0,0.0
163.436,-3.107,4.795,27.0
171.481,-3.302,4.132,6.0
170.211,-3.323,3.212,4.0
96.944,-1.916,1.311,14.0
96.904,-1.939,0.803,44.0
0.0,0.0,0.0,0.0
162.802,-3.337,5.024,12.0
163.385,-3.39,4.186,5.0
170.367,-3.574,3.472,4.0
97.109,-2.061,1.46,1.0
96.963,-2.081,0.951,151.0
0.0,0.0,0.0,0.0
162.571,-3.566,5.264,22.0
163.284,-3.62,4.432,16.0
0.0,0.0,0.0,0.0
170.558,-3.864,2.829,4.0
97.059,-2.223,1.103,8.0
0.0,0.0,0.0,0.0
140.327,-3.277,4.761,14.0
163.385,-3.852,4.688,17.0
0.0,0.0,0.0,0.0
170.401,-4.098,3.091,6.0
0.0,0.0,0.0,0.0
96.882,-2.375,0.746,1.0
140.276,-3.47,4.98,23.0
140.738,-3.512,4.26,5.0
163.367,-4.115,4.092,7.0
168.112,-4.273,3.315,4.0
161.946,-4.152,2.347,13.0
162.043,-4.192,1.504,15.0
139.913,-3.65,5.19,19.0
143.344,-3.772,4.568,12.0
163.318,-4.333,4.352,23.0
168.227,-4.501,3.589,10.0
178.154,-4.808,2.872,7.0
161.928,-4.406,1.766,16.0
119.218,-3.268,4.615,20.0
143.115,-3.954,4.792,21.0
163.179,-4.544,4.613,16.0
0.0,0.0,0.0,0.0
178.16,-5.038,3.162,8.0
161.859,-4.613,2.03,23.0
139.466,-4.003,5.627,13.0
118.572,-3.428,4.165,18.0
140.187,-4.082,4.192,17.0
163.302,-4.789,4.016,5.0
168.5,-4.976,3.265,5.0
161.959,-4.818,2.296,18.0
116.797,-3.498,4.904,19.0
118.459,-3.572,4.356,25.0
139.795,-4.244,4.411,18.0
163.314,-4.992,4.287,14.0
0.0,0.0,0.0,0.0
162.229,-5.024,2.569,5.0
117.908,-3.676,5.148,21.0
118.961,-3.731,4.572,13.0
139.439,-4.401,4.632,17.0
140.178,-4.452,3.913,15.0
163.322,-5.218,3.708,9.0
162.294,-5.218,2.842,27.0
117.064,-3.787,5.306,25.0
116.649,-3.797,4.68,16.0
117.627,-3.85,4.107,16.0
140.314,-4.62,4.155,19.0
163.383,-5.411,3.989,18.0
162.208,-5.404,3.118,20.0
115.884,-3.883,5.451,22.0
117.528,-3.96,4.917,22.0
117.599,-3.984,4.307,12.0
0.0,0.0,0.0,0.0
163.317,-5.592,4.266,18.0
162.323,-5.589,3.398,4.0
115.76,-4.009,5.645,19.0
117.292,-4.081,5.107,20.0
123.752,-4.328,4.745,10.0
138.267,-4.86,4.567,24.0
141.649,-5.003,3.943,6.0
0.0,0.0,0.0,0.0
116.379,-4.155,5.875,21.0
117.199,-4.205,5.307,17.0
117.69,-4.242,4.716,21.0
117.598,-4.258,4.089,11.0
140.146,-5.098,4.144,16.0
141.764,-5.181,3.457,2.0
114.873,-4.22,5.999,18.0
115.643,-4.267,5.436,16.0
117.066,-4.339,4.894,22.0
117.345,-4.368,4.284,17.0
138.292,-5.171,4.331,11.0
142.513,-5.351,3.722,9.0
114.804,-4.334,6.196,22.0
114.952,-4.357,5.606,15.0
116.84,-4.446,5.09,12.0
117.208,-4.478,4.484,24.0
116.802,-4.48,3.861,15.0
142.37,-5.482,3.966,9.0
114.436,-4.429,6.377,24.0
115.517,-4.488,5.836,20.0
115.389,-4.5,5.229,20.0
116.836,-4.573,4.675,21.0
116.914,-4.593,4.07,24.0
118.678,-4.679,3.515,15.0
114.183,-4.525,6.564,25.0
114.671,-4.56,5.996,20.0
115.327,-4.602,5.429,19.0
116.728,-4.674,4.877,27.0
116.921,-4.698,4.278,26.0
118.349,-4.771,3.715,19.0
113.998,-4.619,6.756,26.0
114.758,-4.665,6.204,23.0
115.172,-4.696,5.626,22.0
116.783,-4.777,5.085,22.0
116.739,-4.789,4.476,22.0
124.836,-5.138,4.139,14.0
114.551,-4.737,6.991,22.0
114.781,-4.76,6.407,26.0
114.501,-4.762,5.795,17.0
117.661,-4.908,5.33,18.0
115.814,-4.844,4.644,25.0
117.495,-4.93,4.102,10.0
114.693,-4.835,7.202,24.0
112.889,-4.771,6.5,12.0
114.755,-4.863,6.01,20.0
114.23,-4.854,5.376,14.0
116.114,-4.946,4.862,23.0
117.51,-5.02,4.311,22.0
116.623,-5.005,7.532,10.0
114.859,-4.942,6.82,25.0
115.281,-4.971,6.245,14.0
117.038,-5.06,5.719,12.0
116.547,-5.051,5.09,11.0
116.795,-5.073,4.493,19.0
115.844,-5.056,7.689,18.0
115.199,-5.039,7.045,20.0
112.815,-4.946,6.312,17.0
118.655,-5.214,6.01,9.0
117.37,-5.168,5.335,13.0
115.748,-5.108,4.661,25.0
114.83,-5.091,7.829,21.0
115.7,-5.14,7.285,14.0
115.126,-5.124,6.649,16.0
112.696,-5.026,5.91,12.0
114.245,-5.106,5.398,17.0
116.11,-5.198,4.882,13.0
114.618,-5.155,8.02,28.0
113.092,-5.096,7.324,11.0
115.949,-5.234,6.905,13.0
112.705,-5.096,6.112,12.0
114.176,-5.172,5.598,13.0
114.377,-5.191,5.014,17.0
115.211,-5.252,8.269,21.0
115.733,-5.284,7.703,17.0
113.071,-5.17,6.935,18.0
112.605,-5.157,6.309,16.0
117.874,-5.406,5.99,14.0
114.369,-5.254,5.216,22.0
115.995,-5.352,8.532,12.0
115.069,-5.316,7.862,17.0
112.889,-5.223,7.124,20.0
115.552,-5.354,6.678,13.0
109.315,-5.072,5.749,16.0
114.18,-5.305,5.411,25.0
115.812,-5.404,8.726,14.0
114.514,-5.35,8.03,21.0
112.764,-5.275,7.318,11.0
108.451,-5.079,6.462,20.0
112.358,-5.268,6.11,21.0
114.356,-5.368,5.623,16.0
113.681,-5.36,8.769,17.0
118.522,-5.593,8.523,4.0
114.744,-5.42,7.651,19.0
112.632,-5.326,6.912,15.0
112.439,-5.323,6.313,19.0
108.854,-5.157,5.546,24.0
113.64,-5.407,8.969,21.0
109.304,-5.205,8.054,6.0
114.951,-5.478,7.868,22.0
112.741,-5.377,7.116,20.0
108.491,-5.178,6.282,15.0
109.177,-5.216,5.754,13.0
111.593,-5.354,9.003,10.0
112.917,-5.421,8.519,21.0
115.1,-5.528,8.081,21.0
116.187,-5.585,7.539,8.0
108.467,-5.217,6.473,16.0
112.363,-5.409,6.12,21.0
111.612,-5.395,9.204,10.0
113.486,-5.487,8.763,24.0
109.355,-5.29,7.871,14.0
114.76,-5.553,7.648,10.0
112.502,-5.447,6.911,18.0
112.417,-5.446,6.319,11.0
111.461,-5.423,9.386,24.0
113.266,-5.511,8.943,18.0
109.312,-5.321,8.058,16.0
114.928,-5.596,7.86,22.0
108.846,-5.301,6.874,10.0
108.462,-5.284,6.284,20.0
111.362,-5.448,9.573,22.0
111.625,-5.461,9.008,17.0
113.022,-5.53,8.528,18.0
114.87,-5.621,8.055,6.0
116.215,-5.688,7.542,15.0
108.445,-5.308,6.47,20.0
111.499,-5.481,9.777,22.0
116.401,-5.721,9.595,9.0
113.366,-5.571,8.75,23.0
109.28,-5.37,7.85,19.0
111.457,-5.477,7.424,17.0
112.343,-5.52,6.895,14.0
111.705,-5.512,9.989,20.0
111.534,-5.502,9.387,21.0
0.0,0.0,0.0,0.0
109.241,-5.387,8.037,11.0
115.11,-5.675,7.864,11.0
108.845,-5.366,6.866,11.0
111.736,-5.53,10.182,19.0
111.509,-5.517,9.575,23.0
111.752,-5.527,9.007,13.0
113.067,-5.589,8.507,22.0
112.788,-5.574,7.894,5.0
116.392,-5.751,7.537,18.0
111.924,-5.551,10.39,19.0
111.55,-5.53,9.766,23.0
111.607,-5.53,9.184,8.0
113.338,-5.613,8.719,22.0
109.241,-5.407,7.83,19.0
111.464,-5.514,7.405,11.0
125.755,-6.247,11.885,11.0
111.78,-5.548,9.975,22.0
111.516,-5.532,9.363,20.0
112.844,-5.593,8.868,21.0
109.319,-5.415,8.017,13.0
115.303,-5.708,7.851,10.0
109.038,-5.42,10.488,7.0
111.709,-5.548,10.155,19.0
111.511,-5.533,9.549,22.0
111.571,-5.532,8.956,16.0
113.031,-5.599,8.477,19.0
112.826,-5.584,7.87,7.0
0.0,0.0,0.0,0.0
0.0,0.0,0.0,0.0
0.0,0.0,0.0,0.0
30.574,-0.442,-0.567,0.0
26.543,-0.39,-0.645,0.0
23.415,-0.351,-0.704,0.0
0.0,0.0,0.0,0.0
42.582,-0.66,-0.357,0.0
34.92,-0.551,-0.493,0.0
29.706,-0.476,-0.593,0.0
25.911,-0.422,-0.667,0.0
22.703,-0.376,-0.715,0.0
0.0,0.0,0.0,0.0
0.0,0.0,0.0,0.0
33.599,-0.584,-0.522,0.0
0.0,0.0,0.0,0.0
21.714,-0.389,-0.589,0.0
21.73,-0.395,-0.714,2.0
0.0,0.0,0.0,0.0
38.964,-0.729,-0.434,0.0
0.0,0.0,0.0,0.0
21.731,-0.419,-0.494,0.0
21.72,-0.425,-0.618,151.0
21.638,-0.429,-0.74,7.0
0.0,0.0,0.0,0.0
36.639,-0.746,-0.457,0.0
0.0,0.0,0.0,0.0
21.729,-0.454,-0.523,151.0
21.719,-0.461,-0.647,150.0
21.323,-0.458,-0.758,1.0
0.0,0.0,0.0,0.0
35.307,-0.777,-0.487,0.0
30.049,-0.67,-0.586,0.0
21.726,-0.49,-0.551,152.0
21.721,-0.496,-0.675,4.0
20.591,-0.477,-0.758,0.0
42.326,-0.99,-0.394,2.0
33.088,-0.784,-0.498,0.0
28.562,-0.684,-0.593,0.0
21.708,-0.526,-0.577,0.0
22.201,-0.545,-0.718,0.0
20.153,-0.5,-0.767,0.0
0.0,0.0,0.0,0.0
32.392,-0.821,-0.527,0.0
28.561,-0.733,-0.628,0.0
24.694,-0.641,-0.687,0.0
17.805,-0.467,-0.597,2.0
17.811,-0.472,-0.7,57.0
0.0,0.0,0.0,0.0
31.79,-0.86,-0.555,0.0
27.575,-0.754,-0.639,0.0
17.844,-0.493,-0.517,0.0
17.78,-0.497,-0.617,154.0
17.785,-0.502,-0.719,21.0
0.0,0.0,0.0,0.0
30.595,-0.88,-0.569,0.0
26.543,-0.771,-0.645,0.0
17.82,-0.523,-0.537,3.0
17.767,-0.527,-0.637,161.0
17.783,-0.533,-0.739,6.0
35.295,-1.065,-0.495,0.0
29.752,-0.907,-0.587,0.0
26.479,-0.815,-0.673,0.0
22.723,-0.706,-0.71,0.0
17.803,-0.559,-0.658,151.0
17.796,-0.564,-0.76,2.0
33.565,-1.072,-0.508,0.0
29.158,-0.94,-0.607,0.0
25.509,-0.83,-0.677,0.0
22.39,-0.735,-0.724,0.0
20.201,-0.669,-0.769,0.0
18.05,-0.604,-0.79,0.0
32.67,-1.101,-0.528,0.0
28.925,-0.983,-0.633,0.0
24.885,-0.854,-0.686,0.0
21.917,-0.759,-0.732,0.0
19.829,-0.692,-0.775,0.0
17.86,-0.629,-0.8,1.0
31.875,-1.13,-0.548,0.0
28.093,-1.005,-0.643,0.0
24.384,-0.879,-0.697,0.0
21.438,-0.78,-0.737,0.0
19.577,-0.718,-0.785,0.0
17.779,-0.658,-0.814,0.0
31.242,-1.163,-0.568,0.0
27.387,-1.028,-0.653,0.0
23.791,-0.9,-0.703,0.0
21.078,-0.804,-0.745,0.0
19.241,-0.74,-0.79,0.0
17.418,-0.676,-0.814,0.0
30.417,-1.186,-0.581,0.0
26.433,-1.039,-0.656,0.0
23.533,-0.933,-0.717,0.0
20.722,-0.828,-0.752,0.0
18.988,-0.765,-0.797,0.0
17.072,-0.693,-0.814,0.0
83.358,-10.406,1.328,20.0
83.379,-10.399,0.882,18.0
83.399,-10.393,0.435,6.0
0.0,0.0,0.0,0.0
48.454,-6.028,-0.271,0.0
0.0,0.0,0.0,0.0
83.374,-10.367,1.421,58.0
83.352,-10.354,0.973,12.0
83.352,-10.344,0.526,15.0
74.313,-9.214,0.063,2.0
50.66,-6.276,-0.228,0.0
0.0,0.0,0.0,0.0
83.366,-10.322,1.51,40.0
83.368,-10.311,1.062,28.0
74.403,-9.193,0.55,10.0
74.313,-9.173,0.143,25.0
0.0,0.0,0.0,0.0
0.0,0.0,0.0,0.0
83.378,-10.275,1.601,43.0
83.358,-10.26,1.153,22.0
83.356,-10.249,0.705,13.0
74.281,-9.123,0.223,12.0
0.0,0.0,0.0,0.0
47.461,-5.817,-0.366,2.0
83.401,-10.226,1.69,150.0
83.35,-10.206,1.242,17.0
83.375,-10.198,0.793,13.0
74.302,-9.077,0.301,9.0
0.0,0.0,0.0,0.0
47.752,-5.82,-0.318,1.0
83.325,-10.16,1.776,26.0
83.382,-10.154,1.329,17.0
83.352,-10.138,0.88,10.0
83.401,-10.131,0.425,15.0
0.0,0.0,0.0,0.0
0.0,0.0,0.0,0.0
83.289,-10.097,1.861,38.0
83.369,-10.092,1.415,13.0
83.379,-10.079,0.968,32.0
83.372,-10.065,0.511,63.0
75.009,-9.044,0.056,6.0
0.0,0.0,0.0,0.0
83.288,-10.034,1.947,44.0
83.386,-10.031,1.5,27.0
83.364,-10.013,1.052,52.0
83.367,-10.0,0.595,44.0
75.065,-8.992,0.131,9.0
0.0,0.0,0.0,0.0
83.29,-9.967,2.031,39.0
83.377,-9.962,1.583,22.0
83.362,-9.946,1.135,19.0
83.356,-9.93,0.678,15.0
74.899,-8.909,0.206,8.0
0.0,0.0,0.0,0.0
83.299,-9.898,2.113,23.0
83.387,-9.893,1.666,18.0
83.376,-9.876,1.217,33.0
83.323,-9.854,0.759,12.0
83.373,-9.844,0.311,6.0
0.0,0.0,0.0,0.0
116.34,-13.721,3.065,25.0
83.347,-9.813,1.747,29.0
83.383,-9.8,1.298,48.0
83.367,-9.782,0.841,47.0
83.367,-9.766,0.392,51.0
0.0,0.0,0.0,0.0
116.298,-13.608,3.176,34.0
83.31,-9.73,1.826,46.0
83.359,-9.718,1.377,28.0
83.377,-9.704,0.919,55.0
83.367,-9.686,0.47,27.0
77.693,-9.011,0.019,9.0
116.314,-13.498,3.285,38.0
83.3,-9.648,1.902,40.0
83.382,-9.64,1.454,24.0
83.383,-9.622,0.996,125.0
83.381,-9.604,0.546,19.0
77.689,-8.933,0.091,11.0
116.298,-13.38,3.389,27.0
83.303,-9.564,1.978,36.0
83.393,-9.555,1.53,41.0
83.383,-9.536,1.071,40.0
83.377,-9.517,0.621,150.0
86.422,-9.846,0.178,1.0
116.279,-13.255,3.492,16.0
83.341,-9.48,2.053,28.0
83.379,-9.465,1.604,150.0
83.404,-9.448,1.145,18.0
83.391,-9.428,0.694,20.0
86.519,-9.763,0.253,6.0
148.088,-16.719,4.577,19.0
116.333,-13.105,2.967,19.0
83.372,-9.371,1.675,34.0
83.384,-9.353,1.217,20.0
83.374,-9.333,0.765,23.0
86.377,-9.65,0.326,5.0
147.998,-16.543,4.7,27.0
116.292,-12.969,3.063,30.0
83.333,-9.272,1.744,33.0
83.404,-9.259,1.286,24.0
83.394,-9.238,0.835,12.0
83.361,-9.215,0.384,14.0
148.052,-16.374,4.824,21.0
116.343,-12.837,3.159,45.0
83.332,-9.173,1.813,35.0
83.377,-9.157,1.354,13.0
83.38,-9.137,0.902,150.0
82.726,-9.045,0.447,16.0
108.848,-11.907,3.634,15.0
116.334,-12.695,3.252,35.0
83.317,-9.069,1.877,29.0
83.302,-9.047,1.417,8.0
83.327,-9.029,0.966,51.0
83.328,-9.007,0.515,87.0
108.819,-11.769,3.717,21.0
116.301,-12.547,3.34,32.0
83.342,-8.968,1.941,37.0
83.373,-8.949,1.481,14.0
83.802,-8.974,1.035,4.0
84.234,-8.998,0.584,2.0
108.805,-11.629,3.796,15.0
116.291,-12.396,3.427,24.0
116.334,-12.369,2.795,9.0
83.322,-8.836,1.541,4.0
85.109,-9.002,1.112,3.0
85.218,-8.992,0.652,3.0
108.78,-11.484,3.873,20.0
116.304,-12.244,3.508,12.0
116.354,-12.217,2.879,9.0
86.091,-9.015,1.653,8.0
86.208,-9.003,1.187,31.0
86.233,-8.982,0.719,71.0
108.794,-11.339,3.949,16.0
148.432,-15.427,4.579,16.0
116.323,-12.055,2.955,33.0
86.821,-8.973,1.726,2.0
87.193,-8.986,1.259,1.0
87.422,-8.985,0.787,1.0
149.521,-15.376,5.525,14.0
148.437,-15.22,4.678,17.0
116.364,-11.897,3.032,42.0
88.177,-8.99,1.808,3.0
88.37,-8.985,1.331,1.0
88.744,-8.997,0.854,3.0
148.419,-15.055,5.576,7.0
148.069,-14.974,4.757,24.0
116.368,-11.733,3.104,41.0
89.045,-8.951,1.881,50.0
89.088,-8.93,1.397,28.0
90.113,-9.006,0.922,55.0
108.832,-10.881,4.155,17.0
108.123,-10.777,3.537,24.0
116.371,-11.562,3.173,37.0
90.313,-8.945,1.961,64.0
90.294,-8.917,1.468,13.0
90.298,-8.89,0.976,4.0
108.883,-10.724,4.219,19.0
148.209,-14.551,4.934,20.0
116.32,-11.384,3.236,27.0
90.341,-8.813,2.011,41.0
90.36,-8.787,1.518,35.0
90.376,-8.762,1.026,44.0
108.741,-10.546,4.272,21.0
108.845,-10.522,3.68,16.0
119.174,-11.482,3.377,24.0
90.357,-8.677,2.059,56.0
90.37,-8.65,1.565,52.0
89.074,-8.499,1.055,10.0
108.776,-10.383,4.328,18.0
148.233,-14.101,5.086,21.0
147.87,-14.018,4.264,17.0
90.335,-8.534,2.101,30.0
90.374,-8.51,1.609,46.0
90.37,-8.482,1.114,32.0
108.664,-10.202,4.374,22.0
148.216,-13.866,5.155,13.0
108.041,-10.072,3.166,14.0
90.357,-8.394,2.143,25.0
90.372,-8.368,1.649,43.0
90.398,-8.341,1.154,42.0
108.456,-10.01,4.413,24.0
108.131,-9.943,3.806,18.0
108.081,-9.903,3.212,19.0
90.349,-8.249,2.18,13.0
90.389,-8.223,1.686,38.0
90.389,-8.196,1.191,32.0
108.413,-9.83,4.455,24.0
108.094,-9.764,3.848,29.0
109.632,-9.867,3.3,7.0
127.499,-11.432,3.125,16.0
90.401,-8.076,1.721,46.0
90.377,-8.045,1.224,63.0
8.448,0.151,-0.92,0.0
8.095,0.143,-0.928,0.0
7.755,0.136,-0.933,0.0
7.455,0.13,-0.941,0.0
7.186,0.124,-0.948,0.0
6.878,0.118,-0.947,0.0
8.426,0.142,-0.922,0.0
8.074,0.135,-0.93,0.0
7.736,0.128,-0.936,0.0
7.411,0.121,-0.94,0.0
7.147,0.116,-0.947,0.0
6.873,0.111,-0.951,0.0
8.412,0.133,-0.926,0.0
8.051,0.126,-0.932,0.0
7.69,0.119,-0.934,0.0
7.375,0.113,-0.939,0.0
7.147,0.108,-0.951,0.0
6.841,0.103,-0.95,0.0
8.382,0.124,-0.927,0.0
7.996,0.117,-0.93,0.0
7.669,0.111,-0.936,0.0
7.384,0.105,-0.944,0.0
7.088,0.1,-0.947,0.0
6.832,0.095,-0.952,0.0
8.306,0.113,-0.923,0.0
7.953,0.107,-0.929,0.0
7.652,0.102,-0.937,0.0
7.338,0.097,-0.942,0.0
7.098,0.092,-0.952,0.0
6.834,0.088,-0.956,0.0
8.277,0.104,-0.923,0.0
7.931,0.099,-0.93,0.0
7.636,0.094,-0.939,0.0
7.341,0.089,-0.945,0.0
7.043,0.084,-0.947,0.0
6.809,0.08,-0.955,0.0
8.245,0.095,-0.923,0.0
7.932,0.09,-0.933,0.0
7.612,0.085,-0.939,0.0
7.293,0.08,-0.942,0.0
7.043,0.076,-0.95,0.0
6.793,0.072,-0.955,0.0
8.249,0.086,-0.926,0.0
7.909,0.081,-0.933,0.0
7.583,0.076,-0.938,0.0
7.281,0.072,-0.943,0.0
7.054,0.068,-0.953,0.0
6.801,0.065,-0.958,0.0
8.235,0.076,-0.927,0.0
7.909,0.072,-0.935,0.0
7.575,0.068,-0.939,0.0
7.285,0.064,-0.945,0.0
6.991,0.06,-0.947,0.0
6.728,0.057,-0.95,0.0
8.222,0.067,-0.927,0.0
7.882,0.063,-0.934,0.0
7.561,0.059,-0.939,0.0
7.236,0.055,-0.94,0.0
7.021,0.052,-0.953,0.0
6.78,0.049,-0.959,0.0
8.205,0.058,-0.927,0.0
7.878,0.054,-0.935,0.0
7.549,0.051,-0.939,0.0
7.254,0.047,-0.944,0.0
7.013,0.044,-0.953,0.0
6.741,0.041,-0.954,0.0
8.19,0.049,-0.927,0.0
7.875,0.045,-0.936,0.0
7.527,0.042,-0.937,0.0
7.244,0.039,-0.944,0.0
6.986,0.036,-0.95,0.0
6.743,0.034,-0.955,0.0
8.184,0.039,-0.927,0.0
7.841,0.036,-0.933,0.0
7.513,0.033,-0.936,0.0
7.225,0.031,-0.942,0.0
6.985,0.028,-0.951,0.0
6.738,0.026,-0.955,0.0
8.199,0.03,-0.929,0.0
7.835,0.027,-0.932,0.0
7.544,0.025,-0.94,0.0
7.214,0.022,-0.941,0.0
6.986,0.02,-0.951,0.0
6.748,0.018,-0.957,0.0
8.201,0.021,-0.93,0.0
7.848,0.018,-0.934,0.0
7.514,0.016,-0.937,0.0
7.223,0.014,-0.942,0.0
7.016,0.013,-0.955,0.0
6.732,0.011,-0.955,0.0
8.188,0.011,-0.928,0.0
7.859,0.01,-0.935,0.0
7.521,0.008,-0.937,0.0
7.239,0.006,-0.944,0.0
6.99,0.004,-0.951,0.0
6.747,0.003,-0.956,0.0
8.712,-0.146,-0.924,0.0
8.331,-0.142,-0.929,0.0
8.004,-0.138,-0.936,0.0
7.659,-0.133,-0.939,0.0
7.37,-0.129,-0.944,0.0
7.101,-0.126,-0.949,0.0
8.775,-0.156,-0.923,0.0
8.383,-0.151,-0.928,0.0
8.029,-0.146,-0.932,0.0
7.72,-0.142,-0.94,0.0
7.403,-0.137,-0.942,0.0
7.154,-0.134,-0.95,0.0
8.849,-0.166,-0.923,0.0
8.463,-0.16,-0.929,0.0
8.107,-0.155,-0.934,0.0
7.791,-0.15,-0.941,0.0
7.477,-0.146,-0.945,0.0
7.173,-0.141,-0.946,0.0
8.92,-0.175,-0.922,0.0
8.534,-0.169,-0.929,0.0
8.17,-0.164,-0.934,0.0
7.841,-0.158,-0.94,0.0
7.551,-0.154,-0.947,0.0
7.266,-0.15,-0.951,0.0
8.981,-0.185,-0.92,0.0
8.604,-0.178,-0.928,0.0
8.234,-0.172,-0.933,0.0
7.882,-0.166,-0.937,0.0
7.615,-0.162,-0.947,0.0
7.293,-0.157,-0.947,0.0
9.09,-0.195,-0.922,0.0
8.672,-0.187,-0.927,0.0
8.286,-0.181,-0.931,0.0
7.929,-0.174,-0.935,0.0
7.66,-0.17,-0.945,0.0
7.347,-0.164,-0.946,0.0
9.194,-0.205,-0.923,0.0
8.732,-0.196,-0.924,0.0
8.376,-0.19,-0.932,0.0
8.006,-0.183,-0.935,0.0
7.726,-0.178,-0.945,0.0
7.435,-0.172,-0.95,0.0
9.266,-0.214,-0.921,0.0
8.833,-0.206,-0.925,0.0
8.426,-0.198,-0.928,0.0
8.101,-0.192,-0.937,0.0
7.776,-0.185,-0.942,0.0
7.458,-0.179,-0.944,0.0
9.363,-0.224,-0.92,0.0
8.922,-0.215,-0.925,0.0
8.51,-0.207,-0.928,0.0
8.161,-0.2,-0.935,0.0
7.813,-0.192,-0.938,0.0
7.545,-0.187,-0.947,0.0
9.446,-0.234,-0.917,0.0
9.017,-0.225,-0.924,0.0
8.626,-0.216,-0.931,0.0
8.235,-0.208,-0.934,0.0
7.924,-0.201,-0.942,0.0
7.621,-0.195,-0.947,0.0
9.569,-0.244,-0.918,0.0
9.115,-0.234,-0.923,0.0
8.698,-0.225,-0.928,0.0
8.325,-0.216,-0.934,0.0
8.002,-0.209,-0.941,0.0
7.704,-0.203,-0.948,0.0
9.674,-0.254,-0.916,0.0
9.19,-0.242,-0.92,0.0
8.777,-0.233,-0.926,0.0
8.415,-0.225,-0.934,0.0
8.058,-0.216,-0.938,0.0
7.758,-0.21,-0.945,0.0
9.785,-0.263,-0.915,0.0
9.319,-0.252,-0.921,0.0
8.877,-0.242,-0.925,0.0
8.483,-0.232,-0.931,0.0
8.147,-0.224,-0.938,0.0
7.809,-0.216,-0.941,0.0
9.92,-0.274,-0.915,0.0
9.457,-0.262,-0.923,0.0
8.978,-0.251,-0.924,0.0
8.59,-0.241,-0.931,0.0
8.232,-0.232,-0.937,0.0
7.92,-0.225,-0.944,0.0
10.039,-0.284,-0.912,0.0
9.544,-0.271,-0.918,0.0
9.126,-0.26,-0.927,0.0
8.707,-0.25,-0.932,0.0
8.321,-0.24,-0.936,0.0
7.988,-0.231,-0.941,0.0
10.182,-0.294,-0.912,0.0
9.681,-0.281,-0.918,0.0
9.231,-0.269,-0.925,0.0
8.776,-0.257,-0.927,0.0
8.435,-0.248,-0.937,0.0
8.067,-0.239,-0.939,0.0
13.807,-0.473,-0.862,0.0
12.808,-0.439,-0.866,0.0
12.134,-0.416,-0.884,0.0
11.444,-0.393,-0.895,0.0
10.847,-0.373,-0.905,0.0
10.331,-0.355,-0.916,0.0
14.107,-0.483,-0.856,0.0
12.996,-0.445,-0.856,0.0
12.345,-0.423,-0.878,0.0
11.676,-0.401,-0.892,0.0
11.127,-0.382,-0.909,0.0
10.483,-0.36,-0.911,0.0
14.498,-0.496,-0.853,0.0
13.381,-0.458,-0.857,0.0
12.617,-0.432,-0.874,0.0
11.913,-0.408,-0.889,0.0
11.278,-0.386,-0.9,0.0
10.702,-0.367,-0.91,0.0
14.881,-0.508,-0.849,0.0
13.739,-0.469,-0.855,0.0
12.843,-0.438,-0.866,0.0
12.196,-0.416,-0.887,0.0
11.501,-0.393,-0.897,0.0
10.915,-0.373,-0.908,0.0
15.269,-0.519,-0.843,0.0
14.202,-0.482,-0.858,0.0
13.108,-0.445,-0.86,0.0
12.392,-0.421,-0.879,0.0
11.724,-0.398,-0.893,0.0
11.155,-0.379,-0.908,0.0
15.767,-0.533,-0.841,0.0
14.565,-0.492,-0.853,0.0
13.485,-0.456,-0.86,0.0
12.659,-0.428,-0.874,0.0
11.97,-0.404,-0.889,0.0
11.322,-0.382,-0.9,0.0
16.154,-0.543,-0.832,0.0
14.979,-0.503,-0.849,0.0
13.968,-0.469,-0.864,0.0
12.869,-0.432,-0.865,0.0
12.231,-0.41,-0.885,0.0
11.51,-0.386,-0.893,0.0
16.62,-0.554,-0.825,0.0
15.402,-0.513,-0.844,0.0
14.31,-0.476,-0.859,0.0
13.178,-0.439,-0.861,0.0
12.511,-0.416,-0.882,0.0
11.666,-0.388,-0.884,0.0
17.461,-0.577,-0.834,0.0
15.741,-0.52,-0.833,0.0
14.68,-0.484,-0.853,0.0
13.597,-0.448,-0.862,0.0
12.733,-0.419,-0.874,0.0
12.068,-0.397,-0.891,0.0
17.77,-0.582,-0.815,1.0
16.28,-0.532,-0.831,0.0
15.072,-0.492,-0.848,0.0
14.041,-0.458,-0.864,0.0
12.95,-0.422,-0.864,0.0
12.293,-0.4,-0.884,0.0
17.872,-0.578,-0.786,1.0
17.086,-0.552,-0.84,0.0
15.515,-0.5,-0.843,0.0
14.46,-0.466,-0.862,0.0
13.385,-0.431,-0.868,0.0
12.534,-0.403,-0.878,0.0
17.829,-0.57,-0.751,2.0
17.701,-0.565,-0.837,0.0
15.947,-0.508,-0.837,0.0
14.767,-0.469,-0.853,0.0
13.724,-0.435,-0.864,0.0
12.819,-0.406,-0.874,0.0
17.8,-0.561,-0.716,21.0
17.752,-0.558,-0.806,2.0
17.64,-0.553,-0.892,0.0
15.142,-0.474,-0.846,0.0
14.061,-0.439,-0.859,0.0
17.756,-0.554,-1.177,0.0
17.805,-0.552,-0.683,153.0
17.798,-0.551,-0.775,3.0
17.67,-0.546,-0.861,0.0
17.818,-0.549,-0.962,0.0
14.541,-0.447,-0.861,0.0
17.789,-0.546,-1.146,0.0
17.778,-0.542,-0.648,155.0
17.802,-0.541,-0.741,4.0
17.71,-0.537,-0.829,1.0
0.0,0.0,0.0,0.0
14.922,-0.45,-0.855,0.0
17.808,-0.536,-1.113,1.0
17.821,-0.533,-0.616,152.0
17.807,-0.531,-0.708,152.0
17.793,-0.529,-0.799,3.0
17.702,-0.525,-0.889,6.0
17.813,-0.527,-0.987,0.0
14.232,-0.42,-0.862,0.0
17.819,-0.522,-0.582,14.0
17.758,-0.519,-0.672,164.0
17.777,-0.518,-0.765,8.0
17.729,-0.515,-0.856,1.0
17.79,-0.515,-0.952,2.0
14.621,-0.422,-0.858,0.0
17.825,-0.511,-0.549,5.0
17.762,-0.508,-0.639,159.0
17.786,-0.506,-0.731,14.0
17.721,-0.503,-0.822,2.0
0.0,0.0,0.0,0.0
15.014,-0.423,-0.852,0.0
24.622,-0.689,-0.711,0.0
17.811,-0.496,-0.606,150.0
17.794,-0.494,-0.698,152.0
17.786,-0.492,-0.791,5.0
17.572,-0.484,-0.873,2.0
17.829,-0.489,-0.978,0.0
25.651,-0.699,-0.692,0.0
17.832,-0.484,-0.573,1.0
17.796,-0.481,-0.664,154.0
17.768,-0.478,-0.757,11.0
17.602,-0.471,-0.841,0.0
17.82,-0.475,-0.944,0.0
26.511,-0.702,-0.665,0.0
23.533,-0.62,-0.712,0.0
17.805,-0.467,-0.631,55.0
17.791,-0.465,-0.724,8.0
17.769,-0.462,-0.816,2.0
17.68,-0.457,-0.903,0.0
28.241,-0.726,-0.656,0.0
24.891,-0.636,-0.707,0.0
21.931,-0.558,-0.736,0.0
17.804,-0.45,-0.692,3.0
17.842,-0.449,-0.786,2.0
16.899,-0.423,-0.832,0.0
0.0,0.0,0.0,0.0
25.871,-0.639,-0.686,0.0
22.957,-0.564,-0.728,0.0
20.711,-0.506,-0.766,0.0
19.206,-0.466,-0.81,0.0
17.589,-0.425,-0.832,0.0
31.342,-0.751,-0.61,0.0
21.798,-0.519,-0.537,0.0
21.73,-0.514,-0.648,6.0
21.62,-0.509,-0.759,6.0
19.737,-0.461,-0.795,0.0
17.866,-0.415,-0.812,1.0
32.126,-0.74,-0.565,0.0
28.894,-0.661,-0.658,0.0
21.717,-0.494,-0.607,154.0
21.699,-0.49,-0.721,4.0
