X,Y,Z,Reflectivity
75.04,7.574,5.382,25.0
75.033,7.571,4.942,39.0
75.052,7.571,4.511,41.0
75.049,7.57,4.078,35.0
75.035,7.584,6.154,40.0
75.023,7.58,5.72,16.0
75.05,7.58,5.288,22.0
75.021,7.575,4.846,31.0
75.037,7.574,4.416,35.0
75.039,7.573,3.984,31.0
75.044,7.588,6.061,24.0
75.041,7.584,5.626,15.0
75.032,7.581,5.192,21.0
75.04,7.578,4.753,31.0
75.066,7.579,4.323,38.0
75.054,7.576,3.89,31.0
75.017,7.585,5.962,14.0
75.06,7.585,5.532,17.0
75.045,7.581,5.098,23.0
75.043,7.577,4.657,33.0
75.057,7.577,4.226,34.0
75.051,7.573,3.795,35.0
75.044,7.584,5.868,16.0
75.029,7.579,5.433,21.0
75.051,7.577,5.001,29.0
75.033,7.572,4.559,37.0
75.054,7.571,4.129,35.0
75.028,7.566,3.696,40.0
75.041,7.577,5.769,19.0
75.047,7.573,5.335,26.0
75.04,7.569,4.902,41.0
75.026,7.563,4.461,50.0
75.044,7.561,4.03,52.0
75.048,7.559,3.598,67.0
75.047,7.568,5.669,26.0
75.035,7.562,5.234,35.0
75.039,7.557,4.801,53.0
75.035,7.553,4.361,80.0
75.035,7.549,3.929,93.0
75.059,7.548,3.499,116.0
75.044,7.554,5.569,37.0
75.038,7.548,5.136,62.0
75.037,7.543,4.703,89.0
75.043,7.539,4.263,111.0
75.052,7.536,3.832,125.0
75.051,7.532,3.401,111.0
75.034,7.537,5.469,78.0
75.049,7.532,5.036,94.0
75.041,7.526,4.602,96.0
75.055,7.523,4.163,93.0
75.048,7.517,3.731,45.0
75.054,7.513,3.3,34.0
75.043,7.517,5.368,84.0
75.042,7.511,4.935,42.0
75.036,7.504,4.502,38.0
75.053,7.501,4.062,35.0
75.064,7.497,3.631,28.0
75.077,7.493,3.2,21.0
75.056,7.495,5.268,32.0
75.051,7.488,4.833,23.0
75.052,7.482,4.4,21.0
75.045,7.475,3.96,17.0
75.059,7.471,3.529,18.0
75.063,7.467,3.098,10.0
75.045,7.467,5.163,18.0
75.022,7.458,4.728,11.0
75.049,7.453,4.297,9.0
75.063,7.449,3.858,9.0
75.099,7.446,3.429,9.0
75.036,7.435,2.995,3.0
75.06,7.438,5.062,9.0
75.05,7.43,4.628,7.0
75.085,7.426,4.197,6.0
75.076,7.418,3.757,6.0
75.11,7.416,3.327,4.0
74.949,7.394,2.889,0.0
75.143,7.412,4.965,5.0
75.092,7.399,4.528,3.0
75.171,7.4,4.099,4.0
75.163,7.392,3.659,5.0
75.116,7.381,3.225,3.0
66.173,6.496,2.46,0.0
75.127,7.374,4.86,3.0
75.067,7.36,4.423,2.0
75.175,7.362,3.997,1.0
75.062,7.344,3.551,3.0
83.255,8.138,3.46,2.0
66.373,6.481,2.377,5.0
82.719,8.074,5.237,1.0
82.764,8.07,4.763,3.0
82.836,8.067,4.29,5.0
82.905,8.065,3.808,7.0
83.338,8.099,3.35,7.0
66.82,6.487,2.302,6.0
83.054,8.059,5.144,10.0
83.173,8.06,4.673,8.0
82.983,8.033,4.184,6.0
83.263,8.05,3.712,9.0
83.607,8.075,3.247,6.0
67.308,6.494,2.227,6.0
83.915,8.09,5.083,9.0
83.955,8.083,4.601,9.0
82.904,7.972,4.067,27.0
84.05,8.073,3.632,9.0
84.091,8.067,3.152,6.0
67.772,6.495,2.151,9.0
84.57,8.097,5.008,11.0
84.717,8.1,4.529,9.0
82.904,7.916,3.955,41.0
85.036,8.109,3.559,9.0
68.035,6.48,2.457,2.0
68.291,6.497,2.074,7.0
85.062,8.083,4.921,9.0
82.901,7.866,4.319,2.0
82.95,7.86,3.844,5.0
85.684,8.109,3.47,11.0
68.64,6.487,2.386,4.0
68.86,6.5,1.999,7.0
85.483,8.058,4.828,10.0
82.901,7.803,4.205,40.0
85.884,8.072,3.864,4.0
86.033,8.076,3.368,5.0
69.284,6.494,2.315,6.0
69.431,6.499,1.922,9.0
83.171,7.773,4.585,1.0
82.933,7.739,4.095,49.0
83.025,7.736,3.624,3.0
82.963,7.719,3.136,3.0
69.912,6.496,2.241,9.0
70.056,6.5,1.845,11.0
82.936,7.681,4.461,5.0
82.956,7.672,3.985,8.0
82.913,7.655,3.507,7.0
82.937,7.646,3.024,7.0
70.6,6.499,2.17,9.0
70.772,6.505,1.77,11.0
82.909,7.606,4.349,42.0
82.909,7.594,3.873,27.0
82.928,7.583,3.398,56.0
82.904,7.568,2.913,30.0
71.338,6.503,2.098,9.0
71.495,6.507,1.693,9.0
82.903,7.528,4.237,111.0
82.911,7.516,3.762,49.0
82.917,7.504,3.286,26.0
71.887,6.494,2.43,7.0
72.062,6.499,2.023,8.0
72.272,6.508,1.616,8.0
82.924,7.45,4.129,11.0
82.953,7.438,3.654,8.0
83.019,7.431,3.182,5.0
72.668,6.493,2.361,6.0
72.861,6.499,1.95,7.0
73.082,6.508,1.538,10.0
83.007,7.374,4.024,2.0
82.956,7.354,3.546,2.0
87.22,7.718,3.228,1.0
73.477,6.489,2.291,8.0
73.71,6.498,1.877,9.0
73.872,6.502,1.459,13.0
87.132,7.647,4.11,13.0
87.089,7.628,3.609,15.0
87.083,7.613,3.109,18.0
74.379,6.49,2.223,8.0
74.619,6.498,1.803,9.0
74.809,6.502,1.381,9.0
87.093,7.548,3.995,110.0
87.081,7.531,3.497,122.0
87.081,7.517,2.998,16.0
75.394,6.495,2.157,7.0
40.077,3.445,0.917,5.0
40.078,3.439,0.689,46.0
40.087,3.428,1.788,27.0
40.097,3.422,1.558,99.0
40.091,3.414,1.329,138.0
40.09,3.407,1.096,150.0
40.104,3.401,0.867,103.0
40.102,3.394,0.638,107.0
40.09,3.381,1.737,144.0
40.107,3.375,1.508,118.0
40.099,3.367,1.279,128.0
40.09,3.359,1.045,150.0
40.106,3.353,0.817,103.0
40.096,3.345,0.588,104.0
40.083,3.332,1.686,150.0
40.095,3.325,1.458,134.0
40.088,3.316,1.228,128.0
40.089,3.309,0.996,150.0
40.092,3.302,0.767,150.0
40.098,3.295,0.538,128.0
40.099,3.283,1.638,150.0
40.106,3.275,1.409,120.0
40.099,3.267,1.18,125.0
40.1,3.26,0.947,118.0
40.083,3.25,0.718,51.0
40.103,3.245,0.49,8.0
41.884,3.376,1.66,2.0
0.0,0.0,0.0,0.0
41.891,3.359,1.182,109.0
41.89,3.35,0.939,108.0
41.907,3.344,0.701,116.0
41.898,3.335,0.462,117.0
41.887,3.32,1.61,145.0
41.896,3.312,1.372,116.0
41.896,3.303,1.133,113.0
41.9,3.295,0.89,122.0
41.906,3.287,0.652,122.0
41.898,3.278,0.413,150.0
41.9,3.264,1.562,121.0
41.884,3.254,1.322,40.0
0.0,0.0,0.0,0.0
0.0,0.0,0.0,0.0
43.695,3.366,0.629,123.0
43.704,3.359,0.38,126.0
43.68,3.341,1.578,150.0
43.696,3.333,1.33,150.0
43.703,3.324,1.081,132.0
43.698,3.314,0.827,136.0
43.694,3.304,0.579,129.0
43.69,3.295,0.33,147.0
43.688,3.279,1.528,141.0
43.693,3.269,1.28,120.0
43.663,3.258,1.03,43.0
0.0,0.0,0.0,0.0
45.489,3.374,0.552,143.0
45.482,3.364,0.293,46.0
45.477,3.347,1.541,150.0
40.376,2.962,1.138,120.0
40.371,2.953,0.909,79.0
40.355,2.942,0.675,78.0
40.423,2.938,0.446,121.0
40.617,2.943,0.218,150.0
45.494,3.28,1.492,116.0
41.085,2.952,1.114,75.0
40.834,2.925,0.875,79.0
41.424,2.958,0.648,81.0
41.736,2.97,0.416,150.0
41.907,2.973,0.18,99.0
99.975,7.053,3.171,31.0
42.01,2.953,1.094,121.0
41.119,2.881,0.837,75.0
42.299,2.954,0.617,66.0
42.64,2.968,0.38,79.0
42.835,2.972,0.139,9.0
99.957,6.894,3.067,28.0
43.256,2.973,1.081,77.0
43.517,2.98,0.841,74.0
43.621,2.977,0.591,12.0
41.864,2.846,0.33,3.0
42.189,2.859,0.093,13.0
44.137,2.973,1.309,19.0
44.391,2.978,1.064,89.0
44.751,2.991,0.819,133.0
45.017,2.999,0.565,137.0
45.126,2.995,0.31,94.0
44.752,2.959,0.054,17.0
45.205,2.97,1.295,62.0
45.214,2.959,1.039,127.0
45.192,2.946,0.783,72.0
45.199,2.936,0.522,3.0
45.225,2.926,0.267,5.0
45.16,2.91,0.011,81.0
45.194,2.893,1.251,3.0
112.385,7.167,2.475,14.0
112.43,7.14,1.84,18.0
99.664,6.305,1.057,10.0
45.167,2.846,0.223,16.0
45.188,2.835,-0.031,8.0
45.205,2.817,1.209,81.0
45.194,2.805,0.952,5.0
99.642,6.157,1.537,9.0
99.565,6.126,0.963,8.0
45.169,2.767,0.182,36.0
40.325,2.461,-0.065,40.0
163.393,9.9,4.22,3.0
111.994,6.756,2.26,19.0
45.197,2.715,0.656,4.0
45.213,2.704,0.397,150.0
45.171,2.689,0.141,47.0
40.323,2.39,-0.1,41.0
45.231,2.661,1.128,3.0
45.282,2.652,0.874,0.0
113.578,6.623,1.551,10.0
57.002,3.308,0.451,3.0
45.17,2.609,0.102,47.0
40.324,2.318,-0.135,39.0
45.265,2.583,1.09,1.0
45.199,2.566,0.833,16.0
45.211,2.554,0.579,84.0
45.189,2.54,0.319,2.0
45.17,2.527,0.064,45.0
40.328,2.246,-0.169,41.0
199.922,11.043,4.651,5.0
0.0,0.0,0.0,0.0
122.347,6.69,1.467,5.0
62.633,3.408,0.392,7.0
45.178,2.446,0.028,44.0
40.317,2.171,-0.201,51.0
45.204,2.414,1.015,7.0
45.216,2.402,0.761,1.0
99.912,5.281,1.12,13.0
45.147,2.373,0.247,3.0
45.181,2.362,-0.006,26.0
40.299,2.096,-0.232,31.0
45.244,2.332,0.982,1.0
45.213,2.318,0.727,44.0
45.233,2.306,0.472,131.0
45.179,2.29,0.214,24.0
45.196,2.278,-0.04,5.0
40.027,2.007,-0.26,15.0
23.767,1.18,0.498,0.0
23.635,1.167,0.362,1.0
23.618,1.159,0.229,9.0
23.616,1.152,0.094,24.0
23.649,1.147,-0.037,38.0
23.644,1.14,-0.17,37.0
23.605,1.127,0.478,43.0
23.604,1.12,0.345,44.0
23.591,1.112,0.213,53.0
23.594,1.106,0.078,59.0
23.605,1.1,-0.053,63.0
23.612,1.093,-0.186,68.0
23.597,1.082,0.462,77.0
23.59,1.074,0.33,73.0
23.602,1.068,0.198,85.0
23.59,1.06,0.063,65.0
23.602,1.054,-0.068,58.0
23.609,1.047,-0.201,49.0
23.616,1.037,0.448,45.0
23.621,1.03,0.315,42.0
23.633,1.024,0.183,41.0
23.638,1.017,0.048,37.0
23.644,1.01,-0.083,28.0
23.642,1.003,-0.215,10.0
162.262,6.812,2.982,12.0
100.554,4.191,1.285,12.0
62.052,2.567,0.445,6.0
40.337,1.656,0.06,150.0
40.34,1.644,-0.165,150.0
35.496,1.436,-0.344,1.0
40.391,1.615,0.719,150.0
40.394,1.603,0.493,150.0
40.458,1.593,0.267,150.0
40.34,1.576,0.037,150.0
40.415,1.566,-0.188,8.0
34.638,1.331,-0.354,1.0
0.0,0.0,0.0,0.0
43.581,1.642,0.509,133.0
43.875,1.639,0.267,155.0
42.895,1.589,0.017,2.0
40.056,1.472,-0.206,8.0
40.153,1.463,-0.431,1.0
162.246,5.84,2.721,60.0
70.959,2.531,0.794,24.0
67.286,2.378,0.377,3.0
40.124,1.405,-0.002,150.0
40.026,1.39,-0.225,64.0
40.195,1.382,-0.451,2.0
70.93,2.407,1.156,8.0
40.103,1.348,0.43,53.0
40.122,1.335,0.206,150.0
40.128,1.323,-0.02,150.0
40.04,1.308,-0.243,36.0
40.172,1.299,-0.468,3.0
40.128,1.28,0.637,150.0
40.127,1.267,0.413,114.0
40.125,1.254,0.19,116.0
40.123,1.24,-0.037,150.0
40.024,1.225,-0.259,27.0
40.182,1.216,-0.484,2.0
40.123,1.197,0.621,150.0
40.12,1.183,0.397,138.0
40.121,1.171,0.174,150.0
40.119,1.157,-0.052,115.0
39.978,1.14,-0.274,14.0
40.134,1.132,-0.498,1.0
41.923,1.164,0.633,114.0
0.0,0.0,0.0,0.0
0.0,0.0,0.0,0.0
40.144,1.075,-0.066,159.0
39.889,1.055,-0.287,12.0
31.921,0.833,-0.407,0.0
45.518,1.169,0.673,2.0
70.743,1.794,0.654,30.0
0.0,0.0,0.0,0.0
0.0,0.0,0.0,0.0
38.637,0.941,-0.289,1.0
32.231,0.774,-0.42,0.0
128.649,3.036,1.866,21.0
70.871,1.648,0.635,13.0
78.108,1.791,0.267,2.0
0.0,0.0,0.0,0.0
38.605,0.859,-0.299,2.0
31.872,0.699,-0.423,0.0
128.654,2.767,1.835,13.0
114.025,2.412,0.994,8.0
0.0,0.0,0.0,0.0
49.273,1.008,-0.12,0.0
38.626,0.777,-0.308,2.0
55.231,1.093,-0.746,0.0
55.203,1.07,0.775,23.0
55.178,1.051,0.469,50.0
55.158,1.031,0.164,63.0
52.446,0.963,-0.138,1.0
39.843,0.718,-0.325,0.0
32.886,0.581,-0.45,0.0
55.191,0.953,0.765,50.0
55.2,0.935,0.46,26.0
55.133,0.914,0.155,1.0
52.406,0.851,-0.146,2.0
19.636,0.312,-0.163,0.0
19.677,0.306,-0.272,9.0
19.747,0.299,0.271,6.0
19.776,0.292,0.162,1.0
0.0,0.0,0.0,0.0
19.684,0.278,-0.057,8.0
19.653,0.271,-0.165,15.0
19.654,0.264,-0.274,17.0
19.73,0.257,0.268,14.0
19.766,0.25,0.16,27.0
19.666,0.243,0.051,2.0
19.635,0.235,-0.059,12.0
19.634,0.228,-0.167,17.0
19.647,0.222,-0.275,18.0
19.743,0.215,0.267,10.0
19.688,0.207,0.158,10.0
19.657,0.2,0.05,12.0
19.636,0.193,-0.06,13.0
19.641,0.186,-0.168,15.0
19.656,0.179,-0.276,10.0
19.652,0.171,0.266,12.0
19.656,0.165,0.157,15.0
19.639,0.158,0.049,16.0
19.642,0.151,-0.06,10.0
19.68,0.144,-0.168,6.0
0.0,0.0,0.0,0.0
19.637,0.13,0.265,12.0
19.654,0.123,0.158,15.0
19.655,0.116,0.05,11.0
19.704,0.109,-0.059,2.0
19.741,0.102,-0.168,0.0
19.768,0.095,-0.277,3.0
19.625,0.087,0.266,16.0
19.67,0.08,0.159,11.0
19.768,0.074,0.051,100.0
19.756,0.067,-0.058,33.0
19.77,0.06,-0.167,55.0
19.768,0.053,-0.275,14.0
19.629,0.045,0.268,14.0
19.771,0.038,0.161,21.0
19.774,0.031,0.053,5.0
19.759,0.024,-0.056,150.0
19.789,0.017,-0.165,0.0
19.638,0.01,-0.271,0.0
19.625,0.003,0.27,14.0
19.735,-0.003,0.164,3.0
19.703,-0.01,0.056,13.0
19.714,-0.017,-0.053,12.0
19.746,-0.024,-0.161,13.0
19.766,-0.031,-0.27,5.0
19.644,-0.038,0.274,10.0
19.697,-0.045,0.167,17.0
19.702,-0.052,0.059,15.0
19.709,-0.06,-0.05,15.0
19.718,-0.067,-0.158,16.0
19.747,-0.074,-0.266,16.0
19.674,-0.08,0.278,10.0
19.71,-0.087,0.171,14.0
19.716,-0.094,0.063,12.0
19.724,-0.101,-0.046,9.0
19.714,-0.108,-0.153,16.0
19.739,-0.115,-0.261,17.0
170.221,-1.052,2.447,10.0
160.639,-1.053,1.433,9.0
19.718,-0.136,0.068,0.0
19.787,-0.143,-0.041,3.0
19.741,-0.15,-0.148,13.0
19.753,-0.157,-0.256,14.0
169.268,-1.407,2.479,12.0
168.583,-1.461,1.55,6.0
0.0,0.0,0.0,0.0
0.0,0.0,0.0,0.0
0.0,0.0,0.0,0.0
37.563,-0.379,-0.476,0.0
19.774,-0.206,0.295,7.0
19.756,-0.213,0.187,3.0
0.0,0.0,0.0,0.0
0.0,0.0,0.0,0.0
0.0,0.0,0.0,0.0
0.0,0.0,0.0,0.0
19.734,-0.247,0.301,10.0
19.757,-0.254,0.194,30.0
19.742,-0.261,0.087,14.0
0.0,0.0,0.0,0.0
0.0,0.0,0.0,0.0
0.0,0.0,0.0,0.0
163.498,-2.392,2.563,18.0
19.761,-0.296,0.202,5.0
19.75,-0.303,0.095,7.0
0.0,0.0,0.0,0.0
0.0,0.0,0.0,0.0
0.0,0.0,0.0,0.0
163.731,-2.735,2.634,15.0
163.132,-2.783,1.739,25.0
160.738,-2.799,0.842,4.0
0.0,0.0,0.0,0.0
0.0,0.0,0.0,0.0
0.0,0.0,0.0,0.0
170.5,-3.199,2.819,4.0
163.397,-3.123,1.816,26.0
160.656,-3.13,0.915,13.0
0.0,0.0,0.0,0.0
0.0,0.0,0.0,0.0
0.0,0.0,0.0,0.0
170.349,-3.548,2.9,5.0
169.326,-3.586,1.965,6.0
160.706,-3.462,0.995,12.0
0.0,0.0,0.0,0.0
0.0,0.0,0.0,0.0
0.0,0.0,0.0,0.0
170.305,-3.898,2.988,6.0
161.998,-3.767,1.966,30.0
160.719,-3.792,1.081,22.0
0.0,0.0,0.0,0.0
0.0,0.0,0.0,0.0
0.0,0.0,0.0,0.0
170.45,-4.249,3.085,6.0
161.87,-4.09,2.055,33.0
160.684,-4.118,1.173,12.0
0.0,0.0,0.0,0.0
0.0,0.0,0.0,0.0
0.0,0.0,0.0,0.0
178.196,-4.801,3.33,16.0
161.881,-4.418,2.152,22.0
150.163,-4.152,1.186,3.0
0.0,0.0,0.0,0.0
0.0,0.0,0.0,0.0
0.0,0.0,0.0,0.0
168.096,-4.868,3.247,8.0
0.0,0.0,0.0,0.0
150.12,-4.455,1.282,150.0
0.0,0.0,0.0,0.0
0.0,0.0,0.0,0.0
0.0,0.0,0.0,0.0
162.298,-5.027,3.243,3.0
0.0,0.0,0.0,0.0
149.98,-4.748,1.382,151.0
0.0,0.0,0.0,0.0
0.0,0.0,0.0,0.0
0.0,0.0,0.0,0.0
162.255,-5.347,3.355,16.0
162.213,-5.401,2.481,6.0
149.856,-5.041,1.487,151.0
0.0,0.0,0.0,0.0
0.0,0.0,0.0,0.0
0.0,0.0,0.0,0.0
162.335,-5.665,3.474,6.0
162.225,-5.715,2.6,12.0
149.876,-5.332,1.597,23.0
0.0,0.0,0.0,0.0
0.0,0.0,0.0,0.0
0.0,0.0,0.0,0.0
162.487,-5.985,3.601,4.0
104.95,-3.899,1.762,3.0
0.0,0.0,0.0,0.0
0.0,0.0,0.0,0.0
0.0,0.0,0.0,0.0
50.842,-1.958,-0.242,0.0
0.0,0.0,0.0,0.0
162.259,-6.342,2.854,12.0
0.0,0.0,0.0,0.0
101.496,-4.034,0.686,3.0
0.0,0.0,0.0,0.0
0.0,0.0,0.0,0.0
163.486,-6.643,3.886,3.0
0.0,0.0,0.0,0.0
101.539,-4.192,1.325,21.0
101.465,-4.224,0.771,150.0
0.0,0.0,0.0,0.0
0.0,0.0,0.0,0.0
142.632,-6.062,3.512,18.0
0.0,0.0,0.0,0.0
101.519,-4.382,1.413,64.0
101.531,-4.417,0.861,3.0
0.0,0.0,0.0,0.0
0.0,0.0,0.0,0.0
142.447,-6.32,3.635,13.0
0.0,0.0,0.0,0.0
0.0,0.0,0.0,0.0
101.525,-4.603,0.952,88.0
0.0,0.0,0.0,0.0
0.0,0.0,0.0,0.0
150.688,-6.959,3.982,12.0
0.0,0.0,0.0,0.0
0.0,0.0,0.0,0.0
101.54,-4.785,1.046,166.0
102.518,-4.864,0.508,3.0
101.564,-4.853,-0.037,2.0
139.223,-6.679,3.81,11.0
0.0,0.0,0.0,0.0
102.16,-4.965,1.705,2.0
101.549,-4.968,1.143,152.0
103.239,-5.082,0.611,5.0
101.602,-5.035,0.061,4.0
108.182,-7.992,5.11,20.0
107.313,-7.949,4.501,21.0
107.792,-8.008,3.953,22.0
148.291,-11.05,4.641,9.0
129.584,-9.684,3.371,2.0
123.418,-9.249,2.562,2.0
108.363,-8.136,5.264,24.0
108.899,-8.199,4.715,17.0
107.431,-8.109,4.085,26.0
108.297,-8.197,3.535,24.0
127.468,-9.675,3.49,22.0
127.492,-9.704,2.819,29.0
108.333,-8.26,5.41,23.0
108.562,-8.299,4.849,33.0
107.872,-8.268,4.249,22.0
108.181,-8.313,3.68,23.0
148.223,-11.419,4.261,8.0
127.519,-9.85,2.994,33.0
108.492,-8.396,5.568,23.0
108.353,-8.404,4.988,15.0
108.076,-8.403,4.404,19.0
108.667,-8.47,3.845,19.0
115.964,-9.06,3.493,15.0
127.533,-9.989,3.17,28.0
107.885,-8.465,5.685,19.0
107.871,-8.482,5.115,18.0
108.057,-8.516,4.553,36.0
108.605,-8.58,3.993,20.0
115.862,-9.175,3.65,13.0
127.512,-10.12,3.347,30.0
107.917,-8.581,5.839,24.0
107.619,-8.575,5.254,25.0
107.732,-8.603,4.692,20.0
109.293,-8.746,4.173,23.0
108.83,-8.729,3.583,8.0
127.483,-10.247,3.525,12.0
107.046,-8.619,5.942,20.0
107.329,-8.659,5.392,25.0
107.444,-8.686,4.83,28.0
108.896,-8.822,4.311,20.0
114.281,-9.276,3.923,2.0
118.256,-9.619,3.438,7.0
109.308,-8.907,6.223,13.0
107.134,-8.747,5.534,28.0
107.548,-8.796,4.989,24.0
108.328,-8.877,4.443,17.0
109.958,-9.028,3.931,24.0
148.14,-12.188,4.517,12.0
109.227,-9.001,6.375,21.0
107.077,-8.84,5.685,24.0
107.719,-8.909,5.151,23.0
108.555,-8.994,4.608,20.0
109.07,-9.054,4.056,18.0
114.343,-9.508,3.65,10.0
107.408,-8.947,6.423,8.0
108.463,-9.048,5.913,21.0
0.0,0.0,0.0,0.0
107.919,-9.033,4.735,25.0
108.546,-9.1,4.191,19.0
110.787,-9.304,3.693,10.0
105.399,-8.867,6.453,20.0
108.099,-9.107,6.047,21.0
107.081,-9.035,5.425,24.0
107.829,-9.112,4.884,31.0
107.959,-9.137,4.321,24.0
109.791,-9.307,3.817,18.0
109.555,-9.304,6.865,15.0
107.632,-9.153,6.177,10.0
107.06,-9.116,5.58,11.0
107.652,-9.18,5.031,21.0
108.001,-9.223,4.478,29.0
108.344,-9.265,3.922,20.0
109.338,-9.367,7.011,21.0
105.313,-9.034,6.197,21.0
108.331,-9.305,5.801,16.0
107.297,-9.227,5.17,34.0
107.926,-9.294,4.632,23.0
108.221,-9.332,4.074,28.0
106.926,-9.237,7.012,15.0
105.336,-9.109,6.351,15.0
107.483,-9.306,5.912,19.0
107.175,-9.29,5.318,22.0
107.725,-9.348,4.78,23.0
108.169,-9.399,4.229,25.0
107.061,-9.32,7.176,26.0
107.944,-9.406,6.664,9.0
105.364,-9.19,5.949,13.0
107.175,-9.358,5.474,13.0
107.496,-9.397,4.924,26.0
108.04,-9.455,4.38,22.0
106.897,-9.372,7.322,22.0
106.621,-9.356,6.738,16.0
108.992,-9.573,6.311,9.0
108.36,-9.526,5.692,19.0
107.522,-9.461,5.081,21.0
107.516,-9.471,4.514,27.0
106.622,-9.409,7.456,24.0
106.793,-9.431,6.903,16.0
105.148,-9.294,6.24,6.0
108.753,-9.621,5.87,19.0
108.274,-9.586,5.273,17.0
107.706,-9.544,4.677,24.0
106.508,-9.456,7.603,16.0
107.087,-9.514,7.078,18.0
110.007,-9.78,6.689,13.0
108.769,-9.677,6.027,23.0
108.777,-9.684,5.454,18.0
107.745,-9.6,4.834,26.0
108.593,-9.694,7.909,9.0
107.042,-9.561,7.229,21.0
109.757,-9.81,6.832,21.0
108.875,-9.736,6.191,20.0
109.09,-9.762,5.627,20.0
108.222,-9.691,5.011,18.0
108.7,-9.753,8.075,16.0
106.634,-9.571,7.357,23.0
109.191,-9.805,6.955,11.0
108.825,-9.778,6.346,22.0
108.938,-9.793,5.778,21.0
108.425,-9.752,5.178,11.0
108.612,-9.788,8.226,19.0
106.457,-9.597,7.499,22.0
107.497,-9.695,7.002,9.0
0.0,0.0,0.0,0.0
108.761,-9.817,5.922,23.0
108.577,-9.805,5.339,12.0
108.601,-9.826,8.381,18.0
106.287,-9.619,7.639,16.0
107.368,-9.719,7.147,18.0
109.836,-9.945,6.718,14.0
108.923,-9.866,6.085,23.0
108.737,-9.852,5.5,25.0
108.25,-9.828,8.509,17.0
106.057,-9.63,7.772,21.0
106.893,-9.707,7.267,9.0
107.661,-9.779,6.736,18.0
108.964,-9.899,6.241,19.0
108.795,-9.886,5.656,24.0
107.916,-9.827,8.635,12.0
108.598,-9.888,8.112,10.0
106.742,-9.72,7.405,18.0
107.647,-9.804,6.887,11.0
109.198,-9.945,6.408,14.0
108.719,-9.903,5.804,23.0
107.796,-9.84,8.777,13.0
108.416,-9.895,8.25,16.0
106.518,-9.721,7.54,16.0
107.475,-9.809,7.026,17.0
109.27,-9.972,6.564,17.0
108.75,-9.925,5.956,25.0
48.351,-4.422,4.004,4.0
108.096,-9.884,8.375,20.0
106.119,-9.702,7.658,23.0
107.31,-9.81,7.163,17.0
109.718,-10.03,6.741,9.0
108.899,-9.953,6.114,21.0
48.391,-4.432,4.075,22.0
108.064,-9.895,8.523,18.0
105.951,-9.7,7.792,22.0
106.869,-9.781,7.282,16.0
107.692,-9.855,6.765,15.0
108.904,-9.964,6.262,18.0
48.321,-4.43,4.135,29.0
107.889,-9.888,8.658,13.0
105.825,-9.696,7.928,8.0
106.899,-9.791,7.428,18.0
107.66,-9.857,6.91,16.0
108.979,-9.976,6.415,16.0
48.24,-4.425,4.194,23.0
107.649,-9.87,8.784,17.0
108.546,-9.948,8.278,13.0
106.32,-9.74,7.53,15.0
107.509,-9.845,7.043,18.0
109.306,-10.007,6.579,17.0
47.877,-4.392,4.227,22.0
48.411,-4.438,4.015,5.0
108.155,-9.911,8.392,19.0
106.118,-9.719,7.657,24.0
107.243,-9.818,7.166,16.0
109.814,-10.049,6.754,11.0
47.554,-4.361,4.261,40.0
48.378,-4.433,4.076,22.0
108.114,-9.901,8.532,18.0
105.94,-9.697,7.783,22.0
106.763,-9.766,7.275,10.0
107.661,-9.843,6.762,18.0
47.544,-4.356,4.323,42.0
48.307,-4.422,4.133,24.0
107.872,-9.869,8.652,13.0
108.554,-9.925,8.116,7.0
106.76,-9.753,7.413,15.0
107.651,-9.829,6.9,11.0
47.563,-4.352,4.386,14.0
48.167,-4.403,4.184,24.0
107.738,-9.841,8.781,14.0
108.276,-9.883,8.235,17.0
106.517,-9.715,7.531,17.0
107.451,-9.793,7.024,16.0
45.644,-4.169,4.268,17.0
47.724,-4.355,4.206,32.0
48.358,-4.409,4.002,4.0
108.122,-9.848,8.359,20.0
106.125,-9.658,7.636,20.0
107.338,-9.761,7.15,17.0
45.671,-4.162,4.328,11.0
47.551,-4.329,4.25,44.0
48.38,-4.4,4.065,11.0
108.251,-9.835,8.503,18.0
106.07,-9.628,7.764,20.0
106.771,-9.682,7.245,15.0
39.214,-3.564,3.765,11.0
47.549,-4.316,4.309,34.0
48.335,-4.383,4.12,22.0
108.079,-9.79,8.623,9.0
108.137,-9.785,8.047,14.0
106.563,-9.633,7.359,25.0
39.234,-3.554,3.815,25.0
47.554,-4.303,4.367,20.0
48.172,-4.353,4.165,22.0
108.147,-9.763,8.757,12.0
108.713,-9.802,8.219,21.0
106.475,-9.591,7.478,21.0
39.269,-3.545,3.864,30.0
49.361,-4.45,4.591,9.0
47.823,-4.305,4.19,22.0
48.468,-4.358,3.981,4.0
108.853,-9.776,8.356,16.0
106.411,-9.545,7.598,18.0
39.303,-3.533,3.914,16.0
49.363,-4.432,4.649,8.0
47.525,-4.26,4.219,21.0
48.402,-4.333,4.031,10.0
108.544,-9.705,8.456,16.0
108.602,-9.698,7.877,15.0
39.262,-3.514,3.955,28.0
39.182,-3.501,3.734,24.0
47.463,-4.235,4.267,31.0
48.37,-4.309,4.083,27.0
108.355,-9.641,8.562,9.0
108.703,-9.659,8.005,20.0
48.742,-4.34,4.964,20.0
39.22,-3.487,3.782,34.0
47.451,-4.212,4.318,33.0
48.385,-4.288,4.137,9.0
107.538,-9.517,8.616,9.0
108.917,-9.625,8.14,15.0
48.864,-4.328,5.03,35.0
45.56,-4.028,4.443,5.0
47.487,-4.191,4.374,32.0
106.416,-9.378,9.215,19.0
107.275,-9.439,8.709,17.0
109.128,-9.588,8.27,17.0
48.857,-4.302,5.081,23.0
39.253,-3.45,3.869,22.0
47.49,-4.166,4.424,17.0
109.868,-9.623,9.627,14.0
107.237,-9.377,8.816,12.0
111.504,-9.734,8.565,7.0
48.537,-4.247,5.098,25.0
39.22,-3.425,3.907,33.0
49.342,-4.301,4.646,14.0
47.506,-4.133,4.211,18.0
106.925,-9.287,8.899,6.0
111.325,-9.653,8.662,5.0
47.812,-4.155,5.07,16.0
39.172,-3.397,3.941,30.0
49.325,-4.27,4.693,15.0
47.488,-4.103,4.256,43.0
106.423,-9.178,8.96,16.0
109.9,-9.462,8.657,17.0
49.365,-4.259,5.283,6.0
48.826,-4.204,4.959,17.0
49.292,-4.235,4.738,6.0
47.49,-4.072,4.301,36.0
106.518,-9.117,9.068,20.0
106.79,-9.123,8.512,15.0
50.186,-4.296,5.419,6.0
48.807,-4.169,5.003,26.0
39.263,-3.347,3.81,6.0
47.519,-4.042,4.348,32.0
106.771,-9.065,9.188,15.0
106.661,-9.038,8.599,16.0
46.773,-3.971,5.093,5.0
48.825,-4.136,5.05,31.0
48.85,-4.129,4.785,18.0
47.532,-4.009,4.391,18.0
47.583,-4.005,4.137,11.0
106.635,-8.958,8.69,22.0
46.813,-3.94,5.139,11.0
48.93,-4.109,5.103,28.0
48.866,-4.094,4.829,21.0
49.325,-4.123,4.6,5.0
47.579,-3.969,4.177,9.0
106.716,-8.883,8.787,22.0
105.892,-8.831,11.716,6.0
49.098,-4.085,5.162,23.0
48.91,-4.06,4.874,11.0
49.331,-4.085,4.641,39.0
47.545,-3.928,4.213,15.0
106.665,-8.794,8.87,18.0
106.047,-8.76,11.82,1.0
49.151,-4.05,5.207,33.0
48.951,-4.024,4.917,19.0
49.375,-4.049,4.684,23.0
47.577,-3.892,4.253,14.0
106.667,-8.705,8.954,25.0
106.001,-8.669,11.897,12.0
49.223,-4.015,5.253,25.0
48.996,-3.986,4.959,13.0
49.379,-4.007,4.722,23.0
47.607,-3.854,4.292,3.0
106.652,-8.614,9.031,22.0
106.046,-8.581,11.982,6.0
49.289,-3.977,5.297,24.0
49.32,-3.969,5.029,3.0
49.379,-3.963,4.758,35.0
106.348,-8.515,9.664,20.0
106.612,-8.514,9.104,22.0
108.161,-8.655,12.298,11.0
49.306,-3.934,5.333,36.0
105.988,-8.434,10.881,22.0
49.409,-3.921,4.795,19.0
106.41,-8.423,9.742,18.0
106.933,-8.443,9.202,18.0
0.0,0.0,0.0,0.0
49.314,-3.889,5.367,22.0
106.237,-8.355,10.976,19.0
49.466,-3.879,4.832,18.0
106.586,-8.337,9.826,18.0
107.041,-8.35,9.28,16.0
0.0,0.0,0.0,0.0
49.324,-3.843,5.4,23.0
106.66,-8.286,11.086,19.0
49.509,-3.835,4.867,8.0
106.605,-8.235,9.892,16.0
107.267,-8.263,9.364,19.0
0.0,0.0,0.0,0.0
49.349,-3.796,5.431,6.0
106.119,-8.139,11.092,20.0
49.515,-3.786,4.896,8.0
106.624,-8.13,9.955,20.0
107.239,-8.154,9.421,17.0
0.0,0.0,0.0,0.0
49.349,-3.746,5.459,5.0
106.79,-8.084,11.219,17.0
49.554,-3.739,4.926,5.0
106.611,-8.022,10.009,22.0
107.221,-8.045,9.474,18.0
0.0,0.0,0.0,0.0
106.988,-8.012,11.889,21.0
107.176,-8.002,11.314,18.0
49.563,-3.689,4.952,10.0
107.133,-7.95,10.11,19.0
107.225,-7.932,9.526,16.0
0.0,0.0,0.0,0.0
107.025,-7.903,11.943,23.0
106.71,-7.853,11.314,23.0
106.91,-7.844,10.73,19.0
107.191,-7.84,10.164,21.0
108.732,-7.928,9.707,3.0
0.0,0.0,0.0,0.0
107.657,-7.833,12.061,23.0
106.779,-7.744,11.366,21.0
106.758,-7.718,10.758,24.0
106.793,-7.695,10.169,7.0
108.934,-7.824,9.769,17.0
0.0,0.0,0.0,0.0
107.259,-7.687,12.057,22.0
107.24,-7.658,11.457,19.0
106.657,-7.592,10.788,20.0
106.751,-7.574,10.203,15.0
111.252,-7.866,10.017,7.0
0.0,0.0,0.0,0.0
107.434,-7.579,12.114,26.0
107.333,-7.545,11.502,17.0
106.69,-7.474,10.827,16.0
106.717,-7.45,10.235,20.0
106.704,-7.425,9.64,7.0
0.0,0.0,0.0,0.0
107.547,-7.464,12.16,21.0
106.511,-7.365,11.446,22.0
106.758,-7.356,10.865,17.0
107.683,-7.394,10.358,12.0
106.544,-7.291,9.655,15.0
0.0,0.0,0.0,0.0
107.788,-7.355,12.216,16.0
106.51,-7.242,11.473,21.0
106.703,-7.229,10.886,17.0
107.788,-7.277,10.393,12.0
106.402,-7.158,9.666,16.0
0.0,0.0,0.0,0.0
0.0,0.0,0.0,0.0
107.75,-7.2,11.63,2.0
106.777,-7.108,10.915,21.0
107.847,-7.154,10.42,15.0
106.415,-7.033,9.688,15.0
0.0,0.0,0.0,0.0
0.0,0.0,0.0,0.0
0.0,0.0,0.0,0.0
111.483,-7.286,11.415,7.0
107.719,-7.013,10.426,23.0
106.47,-6.906,9.709,19.0
0.0,0.0,0.0,0.0
0.0,0.0,0.0,0.0
0.0,0.0,0.0,0.0
107.712,-6.909,11.041,11.0
107.742,-6.884,10.44,21.0
111.235,-7.081,10.155,16.0
0.0,0.0,0.0,0.0
0.0,0.0,0.0,0.0
0.0,0.0,0.0,0.0
107.693,-6.777,11.047,25.0
107.752,-6.753,10.448,19.0
111.226,-6.944,10.16,24.0
0.0,0.0,0.0,0.0
0.0,0.0,0.0,0.0
0.0,0.0,0.0,0.0
0.0,0.0,0.0,0.0
107.688,-6.614,10.444,18.0
111.317,-6.81,10.17,7.0
0.0,0.0,0.0,0.0
0.0,0.0,0.0,0.0
0.0,0.0,0.0,0.0
108.008,-6.525,11.081,1.0
111.988,-6.736,10.859,11.0
109.276,-6.547,9.981,20.0
0.0,0.0,0.0,0.0
0.0,0.0,0.0,0.0
0.0,0.0,0.0,0.0
0.0,0.0,0.0,0.0
0.0,0.0,0.0,0.0
109.294,-6.41,9.975,16.0
0.0,0.0,0.0,0.0
0.0,0.0,0.0,0.0
0.0,0.0,0.0,0.0
0.0,0.0,0.0,0.0
109.664,-6.318,10.614,4.0
0.0,0.0,0.0,0.0
0.0,0.0,0.0,0.0
0.0,0.0,0.0,0.0
0.0,0.0,0.0,0.0
0.0,0.0,0.0,0.0
125.299,-7.058,12.109,4.0
109.011,-6.114,9.919,24.0
0.0,0.0,0.0,0.0
0.0,0.0,0.0,0.0
0.0,0.0,0.0,0.0
0.0,0.0,0.0,0.0
109.103,-6.005,10.521,16.0
109.129,-5.979,9.907,25.0
0.0,0.0,0.0,0.0
0.0,0.0,0.0,0.0
0.0,0.0,0.0,0.0
0.0,0.0,0.0,0.0
109.092,-5.862,10.494,26.0
109.156,-5.838,9.882,26.0
0.0,0.0,0.0,0.0
0.0,0.0,0.0,0.0
0.0,0.0,0.0,0.0
0.0,0.0,0.0,0.0
109.474,-5.738,10.499,23.0
109.232,-5.699,9.857,20.0
0.0,0.0,0.0,0.0
0.0,0.0,0.0,0.0
0.0,0.0,0.0,0.0
0.0,0.0,0.0,0.0
109.389,-5.589,10.455,22.0
111.954,-5.694,10.064,10.0
0.0,0.0,0.0,0.0
0.0,0.0,0.0,0.0
0.0,0.0,0.0,0.0
0.0,0.0,0.0,0.0
109.562,-5.453,10.429,1.0
111.826,-5.539,10.01,23.0
0.0,0.0,0.0,0.0
0.0,0.0,0.0,0.0
0.0,0.0,0.0,0.0
0.0,0.0,0.0,0.0
126.491,-6.129,11.988,14.0
111.579,-5.379,9.94,26.0
0.0,0.0,0.0,0.0
0.0,0.0,0.0,0.0
0.0,0.0,0.0,0.0
0.0,0.0,0.0,0.0
126.514,-5.964,11.931,13.0
111.66,-5.237,9.895,20.0
0.0,0.0,0.0,0.0
0.0,0.0,0.0,0.0
0.0,0.0,0.0,0.0
0.0,0.0,0.0,0.0
0.0,0.0,0.0,0.0
111.602,-5.086,9.831,12.0
0.0,0.0,0.0,0.0
0.0,0.0,0.0,0.0
0.0,0.0,0.0,0.0
0.0,0.0,0.0,0.0
113.294,-5.039,10.563,6.0
123.972,-5.484,10.851,8.0
0.0,0.0,0.0,0.0
0.0,0.0,0.0,0.0
0.0,0.0,0.0,0.0
0.0,0.0,0.0,0.0
0.0,0.0,0.0,0.0
124.33,-5.335,10.806,11.0
0.0,0.0,0.0,0.0
0.0,0.0,0.0,0.0
0.0,0.0,0.0,0.0
0.0,0.0,0.0,0.0
0.0,0.0,0.0,0.0
124.096,-5.159,10.705,27.0
0.0,0.0,0.0,0.0
0.0,0.0,0.0,0.0
0.0,0.0,0.0,0.0
0.0,0.0,0.0,0.0
113.549,-4.597,10.365,2.0
124.268,-5.002,10.632,24.0
0.0,0.0,0.0,0.0
0.0,0.0,0.0,0.0
0.0,0.0,0.0,0.0
0.0,0.0,0.0,0.0
113.654,-4.453,10.292,4.0
124.352,-4.845,10.549,27.0
0.0,0.0,0.0,0.0
0.0,0.0,0.0,0.0
0.0,0.0,0.0,0.0
0.0,0.0,0.0,0.0
113.693,-4.307,10.208,2.0
115.095,-4.334,9.674,18.0
0.0,0.0,0.0,0.0
0.0,0.0,0.0,0.0
0.0,0.0,0.0,0.0
0.0,0.0,0.0,0.0
0.0,0.0,0.0,0.0
115.088,-4.184,9.577,27.0
0.0,0.0,0.0,0.0
0.0,0.0,0.0,0.0
0.0,0.0,0.0,0.0
0.0,0.0,0.0,0.0
0.0,0.0,0.0,0.0
115.894,-4.062,9.544,21.0
0.0,0.0,0.0,0.0
0.0,0.0,0.0,0.0
0.0,0.0,0.0,0.0
113.704,-3.887,10.567,26.0
126.287,-4.29,11.009,13.0
116.15,-3.922,9.458,23.0
0.0,0.0,0.0,0.0
0.0,0.0,0.0,0.0
0.0,0.0,0.0,0.0
113.64,-3.74,10.454,3.0
126.33,-4.13,10.892,16.0
126.005,-4.093,10.14,23.0
0.0,0.0,0.0,0.0
0.0,0.0,0.0,0.0
0.0,0.0,0.0,0.0
113.796,-3.599,10.356,5.0
116.193,-3.652,9.903,22.0
125.747,-3.926,9.992,16.0
0.0,0.0,0.0,0.0
0.0,0.0,0.0,0.0
0.0,0.0,0.0,0.0
113.935,-3.46,10.25,2.0
126.554,-3.816,10.655,9.0
126.201,-3.781,9.897,16.0
0.0,0.0,0.0,0.0
0.0,0.0,0.0,0.0
0.0,0.0,0.0,0.0
0.0,0.0,0.0,0.0
0.0,0.0,0.0,0.0
126.231,-3.625,9.762,22.0
0.0,0.0,0.0,0.0
0.0,0.0,0.0,0.0
0.0,0.0,0.0,0.0
0.0,0.0,0.0,0.0
0.0,0.0,0.0,0.0
0.0,0.0,0.0,0.0
0.0,0.0,0.0,0.0
0.0,0.0,0.0,0.0
0.0,0.0,0.0,0.0
0.0,0.0,0.0,0.0
0.0,0.0,0.0,0.0
0.0,0.0,0.0,0.0
0.0,0.0,0.0,0.0
0.0,0.0,0.0,0.0
113.909,-2.924,10.404,5.0
0.0,0.0,0.0,0.0
0.0,0.0,0.0,0.0
0.0,0.0,0.0,0.0
0.0,0.0,0.0,0.0
0.0,0.0,0.0,0.0
114.088,-2.792,10.28,3.0
0.0,0.0,0.0,0.0
0.0,0.0,0.0,0.0
0.0,0.0,0.0,0.0
0.0,0.0,0.0,0.0
0.0,0.0,0.0,0.0
0.0,0.0,0.0,0.0
0.0,0.0,0.0,0.0
0.0,0.0,0.0,0.0
0.0,0.0,0.0,0.0
0.0,0.0,0.0,0.0
0.0,0.0,0.0,0.0
0.0,0.0,0.0,0.0
0.0,0.0,0.0,0.0
0.0,0.0,0.0,0.0
0.0,0.0,0.0,0.0
0.0,0.0,0.0,0.0
0.0,0.0,0.0,0.0
0.0,0.0,0.0,0.0
0.0,0.0,0.0,0.0
0.0,0.0,0.0,0.0
0.0,0.0,0.0,0.0
0.0,0.0,0.0,0.0
114.161,-2.291,10.349,3.0
0.0,0.0,0.0,0.0
0.0,0.0,0.0,0.0
0.0,0.0,0.0,0.0
0.0,0.0,0.0,0.0
0.0,0.0,0.0,0.0
0.0,0.0,0.0,0.0
0.0,0.0,0.0,0.0
0.0,0.0,0.0,0.0
0.0,0.0,0.0,0.0
0.0,0.0,0.0,0.0
0.0,0.0,0.0,0.0
0.0,0.0,0.0,0.0
0.0,0.0,0.0,0.0
0.0,0.0,0.0,0.0
0.0,0.0,0.0,0.0
0.0,0.0,0.0,0.0
0.0,0.0,0.0,0.0
0.0,0.0,0.0,0.0
0.0,0.0,0.0,0.0
0.0,0.0,0.0,0.0
0.0,0.0,0.0,0.0
190.107,-3.088,11.965,7.0
0.0,0.0,0.0,0.0
0.0,0.0,0.0,0.0
0.0,0.0,0.0,0.0
0.0,0.0,0.0,0.0
0.0,0.0,0.0,0.0
0.0,0.0,0.0,0.0
0.0,0.0,0.0,0.0
0.0,0.0,0.0,0.0
0.0,0.0,0.0,0.0
0.0,0.0,0.0,0.0
0.0,0.0,0.0,0.0
0.0,0.0,0.0,0.0
0.0,0.0,0.0,0.0
0.0,0.0,0.0,0.0
0.0,0.0,0.0,0.0
0.0,0.0,0.0,0.0
0.0,0.0,0.0,0.0
0.0,0.0,0.0,0.0
0.0,0.0,0.0,0.0
0.0,0.0,0.0,0.0
0.0,0.0,0.0,0.0
0.0,0.0,0.0,0.0
0.0,0.0,0.0,0.0
0.0,0.0,0.0,0.0
0.0,0.0,0.0,0.0
0.0,0.0,0.0,0.0
0.0,0.0,0.0,0.0
0.0,0.0,0.0,0.0
0.0,0.0,0.0,0.0
0.0,0.0,0.0,0.0
0.0,0.0,0.0,0.0
0.0,0.0,0.0,0.0
0.0,0.0,0.0,0.0
0.0,0.0,0.0,0.0
0.0,0.0,0.0,0.0
0.0,0.0,0.0,0.0
0.0,0.0,0.0,0.0
0.0,0.0,0.0,0.0
0.0,0.0,0.0,0.0
0.0,0.0,0.0,0.0
0.0,0.0,0.0,0.0
0.0,0.0,0.0,0.0
0.0,0.0,0.0,0.0
0.0,0.0,0.0,0.0
0.0,0.0,0.0,0.0
0.0,0.0,0.0,0.0
0.0,0.0,0.0,0.0
0.0,0.0,0.0,0.0
0.0,0.0,0.0,0.0
0.0,0.0,0.0,0.0
0.0,0.0,0.0,0.0
0.0,0.0,0.0,0.0
0.0,0.0,0.0,0.0
0.0,0.0,0.0,0.0
0.0,0.0,0.0,0.0
0.0,0.0,0.0,0.0
0.0,0.0,0.0,0.0
0.0,0.0,0.0,0.0
0.0,0.0,0.0,0.0
0.0,0.0,0.0,0.0
0.0,0.0,0.0,0.0
0.0,0.0,0.0,0.0
0.0,0.0,0.0,0.0
0.0,0.0,0.0,0.0
0.0,0.0,0.0,0.0
184.779,-1.212,8.214,15.0
0.0,0.0,0.0,0.0
0.0,0.0,0.0,0.0
0.0,0.0,0.0,0.0
0.0,0.0,0.0,0.0
0.0,0.0,0.0,0.0
184.679,-1.081,7.869,18.0
0.0,0.0,0.0,0.0
0.0,0.0,0.0,0.0
0.0,0.0,0.0,0.0
0.0,0.0,0.0,0.0
186.31,-0.983,8.678,14.0
19.738,-0.102,0.804,0.0
0.0,0.0,0.0,0.0
0.0,0.0,0.0,0.0
0.0,0.0,0.0,0.0
0.0,0.0,0.0,0.0
184.99,-0.854,8.266,7.0
19.707,-0.089,0.765,6.0
0.0,0.0,0.0,0.0
0.0,0.0,0.0,0.0
0.0,0.0,0.0,0.0
19.682,-0.08,0.956,0.0
184.71,-0.739,7.896,21.0
19.678,-0.077,0.726,9.0
0.0,0.0,0.0,0.0
0.0,0.0,0.0,0.0
19.614,-0.07,1.032,0.0
19.614,-0.068,0.915,2.0
19.713,-0.067,0.804,0.0
19.66,-0.065,0.687,13.0
0.0,0.0,0.0,0.0
0.0,0.0,0.0,0.0
19.591,-0.059,0.993,8.0
19.605,-0.057,0.876,6.0
19.682,-0.056,0.765,7.0
19.643,-0.055,0.648,14.0
0.0,0.0,0.0,0.0
19.602,-0.05,1.069,0.0
19.585,-0.048,0.953,15.0
19.627,-0.047,0.839,1.0
19.652,-0.046,0.725,10.0
19.637,-0.045,0.609,13.0
138.879,-0.294,8.118,2.0
19.595,-0.04,1.03,7.0
19.587,-0.039,0.915,16.0
19.71,-0.038,0.803,3.0
19.638,-0.036,0.686,12.0
19.626,-0.035,0.57,14.0
0.0,0.0,0.0,0.0
19.572,-0.031,0.989,17.0
19.588,-0.03,0.875,16.0
19.68,-0.029,0.763,8.0
19.628,-0.028,0.646,13.0
19.62,-0.027,0.531,13.0
19.601,-0.023,1.066,4.0
19.574,-0.022,0.95,18.0
19.611,-0.021,0.837,10.0
19.648,-0.02,0.721,11.0
19.621,-0.019,0.606,13.0
19.61,-0.019,0.491,13.0
19.568,-0.016,1.025,10.0
19.563,-0.015,0.91,17.0
19.657,-0.014,0.799,13.0
19.632,-0.013,0.681,12.0
19.613,-0.012,0.566,13.0
19.623,-0.011,0.451,13.0
19.563,-0.008,0.984,22.0
19.573,-0.008,0.87,18.0
19.657,-0.007,0.759,10.0
19.625,-0.006,0.64,12.0
19.613,-0.005,0.526,13.0
19.619,-0.005,0.411,13.0
19.564,-0.002,0.944,20.0
19.61,-0.001,0.831,17.0
19.638,-0.001,0.718,12.0
19.617,0.0,0.6,12.0
19.612,0.0,0.485,12.0
19.613,0.0,0.37,13.0
19.565,0.003,0.904,20.0
19.661,0.003,0.793,18.0
19.625,0.004,0.676,12.0
19.611,0.004,0.559,13.0
19.609,0.005,0.444,12.0
19.616,0.005,0.33,15.0
19.597,0.008,0.864,25.0
19.638,0.008,0.751,12.0
19.615,0.009,0.635,11.0
19.6,0.009,0.518,13.0
19.613,0.009,0.403,13.0
19.624,0.01,0.288,15.0
19.629,0.012,0.824,18.0
19.632,0.012,0.709,12.0
19.605,0.013,0.593,13.0
19.602,0.013,0.477,13.0
19.614,0.013,0.362,16.0
19.624,0.014,0.247,16.0
19.662,0.015,0.784,19.0
19.622,0.016,0.668,11.0
19.612,0.016,0.552,13.0
19.602,0.016,0.435,12.0
19.611,0.016,0.321,16.0
19.637,0.017,0.206,14.0
19.646,0.018,0.742,13.0
19.606,0.018,0.625,12.0
19.604,0.019,0.511,13.0
19.6,0.019,0.394,14.0
19.619,0.019,0.279,14.0
19.749,0.019,0.166,13.0
19.636,0.02,0.7,12.0
19.61,0.02,0.584,12.0
19.605,0.02,0.469,12.0
19.601,0.02,0.352,17.0
19.619,0.021,0.238,16.0
19.746,0.021,0.124,13.0
19.624,0.022,0.658,13.0
19.611,0.022,0.543,13.0
19.607,0.022,0.428,12.0
19.608,0.022,0.311,14.0
19.678,0.022,0.197,15.0
19.748,0.021,0.082,13.0
19.614,0.022,0.616,13.0
19.611,0.022,0.501,14.0
19.606,0.022,0.386,14.0
19.612,0.022,0.27,13.0
19.736,0.022,0.156,17.0
19.749,0.022,0.04,14.0
19.616,0.022,0.575,13.0
19.603,0.022,0.459,13.0
19.603,0.022,0.344,16.0
19.619,0.021,0.228,16.0
19.742,0.021,0.114,12.0
19.733,0.021,-0.001,14.0
19.613,0.021,0.533,14.0
19.613,0.021,0.418,12.0
19.615,0.021,0.303,14.0
19.701,0.02,0.187,15.0
19.756,0.02,0.072,9.0
19.736,0.02,-0.042,101.0
19.618,0.02,0.491,14.0
19.618,0.019,0.376,17.0
19.62,0.019,0.261,14.0
19.758,0.019,0.145,7.0
19.745,0.018,0.03,9.0
19.769,0.018,-0.085,1.0
19.613,0.017,0.449,13.0
19.614,0.017,0.334,16.0
19.631,0.016,0.219,15.0
19.742,0.016,0.103,8.0
19.753,0.015,-0.011,21.0
19.777,0.015,-0.127,2.0
19.621,0.014,0.407,14.0
19.624,0.014,0.292,14.0
19.747,0.013,0.179,4.0
19.782,0.013,0.061,4.0
19.744,0.012,-0.054,150.0
19.759,0.011,-0.169,1.0
19.623,0.011,0.366,16.0
19.627,0.01,0.251,16.0
19.764,0.009,0.137,2.0
19.747,0.008,0.019,8.0
19.775,0.008,-0.096,0.0
19.767,0.007,-0.212,0.0
19.623,0.006,0.323,15.0
19.636,0.005,0.209,13.0
19.776,0.004,0.094,4.0
19.745,0.004,-0.023,8.0
19.761,0.003,-0.138,0.0
19.689,0.002,-0.253,0.0
19.63,0.001,0.281,15.0
19.784,0.0,0.168,2.0
19.762,0.0,0.052,5.0
19.765,-0.001,-0.065,2.0
0.0,0.0,0.0,0.0
33.412,-0.006,-0.502,0.0
19.638,-0.004,0.239,16.0
19.711,-0.005,0.125,1.0
19.738,-0.006,0.01,11.0
19.764,-0.007,-0.107,2.0
0.0,0.0,0.0,0.0
32.058,-0.016,-0.549,0.0
19.655,-0.011,0.198,12.0
19.719,-0.012,0.083,7.0
19.734,-0.013,-0.031,10.0
19.737,-0.014,-0.149,2.0
37.806,-0.03,-0.507,0.0
30.006,-0.026,-0.578,0.0
19.699,-0.018,0.157,3.0
19.709,-0.02,0.041,13.0
19.758,-0.021,-0.073,7.0
19.756,-0.022,-0.191,2.0
0.0,0.0,0.0,0.0
28.894,-0.037,-0.618,0.0
19.699,-0.027,0.115,13.0
19.713,-0.028,0.0,14.0
19.748,-0.029,-0.115,12.0
19.754,-0.031,-0.232,2.0
0.0,0.0,0.0,0.0
27.115,-0.046,-0.636,0.0
19.71,-0.035,0.074,16.0
19.719,-0.037,-0.04,14.0
19.743,-0.038,-0.156,13.0
19.753,-0.04,-0.273,2.0
29.992,-0.063,-0.591,0.0
26.068,-0.057,-0.666,0.0
19.716,-0.045,0.033,18.0
19.734,-0.047,-0.081,11.0
19.735,-0.048,-0.196,13.0
19.757,-0.05,-0.314,2.0
28.532,-0.075,-0.622,0.0
24.88,-0.067,-0.687,0.0
19.714,-0.055,-0.007,17.0
19.72,-0.057,-0.122,14.0
19.749,-0.059,-0.237,14.0
19.778,-0.06,-0.355,3.0
19.753,-0.062,-0.47,0.0
23.52,-0.076,-0.698,0.0
19.728,-0.066,-0.047,15.0
19.73,-0.068,-0.162,15.0
19.752,-0.07,-0.278,14.0
19.757,-0.072,-0.396,9.0
19.768,-0.074,-0.511,3.0
19.768,-0.075,-0.627,1.0
19.719,-0.078,-0.087,16.0
19.744,-0.08,-0.203,15.0
19.748,-0.082,-0.318,13.0
19.74,-0.084,-0.436,13.0
19.757,-0.086,-0.552,12.0
19.764,-0.088,-0.668,8.0
19.724,-0.09,-0.128,17.0
19.737,-0.092,-0.243,15.0
19.75,-0.095,-0.359,13.0
19.738,-0.096,-0.476,14.0
19.758,-0.099,-0.592,14.0
19.744,-0.101,-0.707,10.0
19.732,-0.104,-0.168,16.0
19.739,-0.106,-0.283,15.0
19.741,-0.108,-0.398,16.0
19.727,-0.11,-0.516,15.0
19.754,-0.112,-0.632,15.0
19.728,-0.114,-0.747,9.0
19.732,-0.117,-0.207,17.0
19.744,-0.12,-0.323,15.0
19.731,-0.122,-0.438,16.0
19.729,-0.124,-0.555,16.0
19.74,-0.126,-0.671,17.0
19.584,-0.128,-0.78,2.0
19.735,-0.132,-0.246,17.0
19.736,-0.134,-0.362,17.0
19.727,-0.136,-0.477,16.0
19.735,-0.139,-0.594,17.0
19.742,-0.141,-0.71,14.0
18.943,-0.138,-0.792,1.0
19.748,-0.147,-0.285,17.0
19.736,-0.149,-0.4,18.0
19.744,-0.152,-0.516,17.0
19.75,-0.154,-0.634,14.0
19.725,-0.156,-0.748,7.0
18.371,-0.148,-0.804,0.0
19.759,-0.163,-0.324,16.0
19.744,-0.165,-0.439,15.0
19.751,-0.168,-0.554,10.0
19.775,-0.17,-0.672,7.0
19.547,-0.171,-0.779,2.0
17.521,-0.155,-0.801,0.0
19.767,-0.179,-0.362,14.0
19.759,-0.182,-0.477,8.0
19.797,-0.185,-0.593,1.0
19.772,-0.187,-0.71,7.0
18.925,-0.181,-0.79,1.0
17.033,-0.166,-0.811,0.0
19.786,-0.196,-0.4,4.0
25.675,-0.258,-0.668,0.0
22.474,-0.229,-0.716,1.0
19.747,-0.204,-0.746,7.0
18.356,-0.192,-0.801,0.0
16.522,-0.175,-0.817,0.0
28.332,-0.306,-0.625,0.0
24.567,-0.269,-0.685,0.0
21.677,-0.24,-0.731,0.0
19.564,-0.22,-0.776,2.0
17.708,-0.201,-0.806,0.0
16.013,-0.184,-0.822,0.0
26.713,-0.313,-0.639,0.0
23.524,-0.279,-0.7,0.0
19.881,-0.239,-0.707,2.0
18.97,-0.231,-0.788,0.0
17.204,-0.212,-0.814,0.0
15.589,-0.194,-0.829,0.0
25.708,-0.326,-0.662,0.0
22.564,-0.289,-0.712,0.0
19.805,-0.257,-0.741,4.0
18.413,-0.242,-0.798,0.0
16.546,-0.22,-0.814,0.0
15.188,-0.204,-0.835,0.0
24.7,-0.337,-0.681,0.0
21.848,-0.302,-0.729,0.0
19.682,-0.275,-0.772,1.0
17.761,-0.251,-0.802,0.0
16.111,-0.23,-0.821,0.0
14.871,-0.215,-0.845,0.0
23.598,-0.346,-0.692,0.0
20.881,-0.31,-0.734,0.0
19.139,-0.287,-0.785,0.0
17.207,-0.261,-0.807,0.0
15.596,-0.239,-0.823,0.0
14.471,-0.224,-0.848,0.0
22.691,-0.356,-0.706,0.0
20.389,-0.324,-0.753,0.0
18.614,-0.299,-0.796,0.0
16.733,-0.271,-0.815,0.0
15.336,-0.251,-0.836,0.0
14.044,-0.232,-0.847,0.0
21.809,-0.366,-0.716,3.0
19.852,-0.336,-0.768,0.0
17.835,-0.305,-0.793,0.0
16.192,-0.28,-0.816,0.0
14.908,-0.26,-0.838,0.0
13.746,-0.242,-0.853,0.0
21.507,-0.384,-0.743,1.0
19.336,-0.349,-0.78,0.0
17.476,-0.318,-0.807,0.0
15.801,-0.291,-0.823,0.0
14.567,-0.27,-0.844,0.0
13.399,-0.251,-0.854,0.0
20.623,-0.391,-0.747,0.0
18.812,-0.36,-0.79,0.0
16.879,-0.326,-0.807,0.0
15.455,-0.302,-0.831,0.0
14.235,-0.28,-0.848,1.0
13.205,-0.263,-0.864,0.0
20.119,-0.405,-0.762,0.0
18.226,-0.37,-0.795,0.0
16.559,-0.339,-0.819,0.0
15.098,-0.312,-0.836,0.0
13.981,-0.292,-0.856,0.0
12.864,-0.271,-0.862,0.0
19.612,-0.418,-0.774,0.0
17.747,-0.381,-0.803,0.0
16.101,-0.349,-0.822,0.0
14.791,-0.323,-0.843,0.0
13.628,-0.301,-0.856,0.0
12.65,-0.281,-0.868,0.0
19.105,-0.43,-0.784,0.0
17.311,-0.392,-0.811,0.0
15.661,-0.358,-0.825,0.0
14.263,-0.329,-0.835,0.0
13.327,-0.31,-0.858,0.0
12.405,-0.291,-0.871,0.0
18.504,-0.438,-0.788,0.0
16.833,-0.402,-0.814,0.0
15.316,-0.369,-0.83,0.0
14.083,-0.342,-0.846,0.0
13.061,-0.32,-0.861,0.0
12.181,-0.301,-0.874,0.0
17.832,-0.444,-0.786,1.0
16.375,-0.411,-0.817,0.0
15.012,-0.38,-0.836,0.0
13.828,-0.353,-0.851,0.0
12.821,-0.33,-0.864,0.0
11.957,-0.31,-0.875,0.0
17.727,-0.464,-0.807,1.0
16.039,-0.423,-0.824,0.0
14.731,-0.392,-0.842,0.0
13.604,-0.364,-0.858,0.0
12.567,-0.339,-0.865,0.0
11.75,-0.32,-0.877,0.0
17.528,-0.481,-0.824,1.0
17.808,-0.493,-0.94,0.0
14.364,-0.4,-0.842,0.0
17.78,-0.5,-1.147,0.0
12.406,-0.351,-0.872,0.0
11.561,-0.33,-0.88,0.0
17.682,-0.508,-0.856,3.0
17.824,-0.516,-0.966,0.0
14.116,-0.412,-0.847,0.0
17.791,-0.523,-1.172,0.0
12.244,-0.363,-0.878,0.0
11.409,-0.34,-0.884,0.0
17.623,-0.53,-0.878,4.0
14.987,-0.454,-0.833,0.0
17.786,-0.543,-1.092,0.0
12.749,-0.392,-0.857,0.0
12.049,-0.373,-0.88,0.0
11.294,-0.352,-0.891,0.0
17.769,-0.558,-0.909,0.0
14.803,-0.468,-0.842,0.0
13.559,-0.432,-0.85,0.0
12.595,-0.404,-0.864,0.0
11.848,-0.383,-0.881,0.0
11.146,-0.363,-0.894,0.0
15.809,-0.518,-0.829,0.0
14.518,-0.479,-0.845,0.0
13.41,-0.445,-0.858,0.0
12.47,-0.417,-0.871,0.0
11.627,-0.391,-0.879,0.0
11.011,-0.373,-0.897,0.0
15.494,-0.528,-0.831,0.0
14.253,-0.489,-0.847,0.0
13.23,-0.457,-0.863,0.0
12.298,-0.428,-0.874,0.0
11.511,-0.403,-0.885,0.0
10.801,-0.381,-0.893,0.0
15.161,-0.538,-0.832,0.0
13.947,-0.498,-0.846,0.0
12.919,-0.464,-0.858,0.0
12.18,-0.441,-0.881,0.0
11.314,-0.412,-0.883,0.0
10.7,-0.392,-0.897,0.0
14.915,-0.55,-0.836,0.0
13.796,-0.512,-0.853,0.0
12.732,-0.476,-0.861,0.0
12.061,-0.453,-0.886,0.0
11.164,-0.422,-0.885,0.0
10.652,-0.405,-0.906,0.0
14.661,-0.561,-0.839,0.0
13.477,-0.519,-0.848,0.0
12.621,-0.489,-0.867,0.0
11.865,-0.463,-0.885,0.0
11.111,-0.436,-0.893,0.0
10.461,-0.413,-0.901,0.0
14.517,-0.576,-0.847,0.0
13.347,-0.533,-0.855,0.0
12.398,-0.498,-0.866,0.0
11.634,-0.47,-0.881,0.0
10.974,-0.446,-0.894,0.0
10.378,-0.425,-0.906,0.0
14.263,-0.587,-0.847,0.0
13.129,-0.543,-0.855,0.0
12.326,-0.513,-0.874,0.0
11.399,-0.477,-0.875,0.0
10.908,-0.459,-0.9,0.0
10.288,-0.436,-0.908,0.0
14.043,-0.598,-0.848,0.0
12.955,-0.555,-0.857,0.0
12.145,-0.523,-0.873,0.0
11.458,-0.496,-0.891,0.0
10.813,-0.471,-0.903,0.0
10.173,-0.446,-0.909,0.0
13.962,-0.615,-0.857,0.0
12.878,-0.57,-0.865,0.0
12.087,-0.538,-0.881,0.0
11.253,-0.504,-0.886,0.0
10.647,-0.48,-0.9,0.0
10.068,-0.456,-0.909,0.0
13.59,-0.618,-0.847,0.0
12.716,-0.582,-0.866,0.0
11.974,-0.551,-0.884,0.0
11.18,-0.517,-0.891,0.0
10.554,-0.491,-0.902,0.0
10.011,-0.468,-0.913,0.0
13.493,-0.634,-0.853,0.0
12.556,-0.593,-0.866,0.0
11.882,-0.564,-0.888,0.0
11.084,-0.529,-0.893,0.0
10.464,-0.502,-0.903,0.0
9.907,-0.478,-0.912,0.0
13.327,-0.645,-0.854,0.0
12.467,-0.607,-0.871,0.0
11.674,-0.571,-0.882,0.0
10.993,-0.541,-0.895,0.0
10.371,-0.513,-0.904,0.0
9.825,-0.489,-0.913,0.0
13.146,-0.656,-0.853,0.0
12.35,-0.62,-0.872,0.0
11.598,-0.585,-0.886,0.0
10.901,-0.553,-0.896,0.0
10.308,-0.525,-0.906,0.0
9.758,-0.5,-0.914,0.0
13.07,-0.672,-0.859,0.0
12.2,-0.63,-0.871,0.0
11.517,-0.598,-0.888,0.0
10.798,-0.563,-0.896,0.0
10.215,-0.536,-0.906,0.0
9.709,-0.512,-0.917,0.0
12.951,-0.685,-0.86,0.0
12.117,-0.644,-0.874,0.0
11.408,-0.609,-0.888,0.0
10.765,-0.578,-0.901,0.0
10.187,-0.549,-0.911,0.0
9.663,-0.524,-0.919,0.0
12.827,-0.697,-0.861,0.0
12.093,-0.66,-0.88,0.0
11.35,-0.623,-0.891,0.0
10.633,-0.586,-0.897,0.0
10.118,-0.561,-0.911,0.0
9.577,-0.533,-0.917,0.0
12.756,-0.712,-0.864,0.0
12.016,-0.674,-0.882,0.0
11.261,-0.635,-0.891,0.0
10.574,-0.599,-0.898,0.0
10.061,-0.573,-0.912,0.0
9.537,-0.545,-0.919,0.0
12.673,-0.726,-0.866,0.0
11.933,-0.687,-0.883,0.0
11.22,-0.649,-0.895,0.0
10.57,-0.614,-0.904,0.0
10.017,-0.585,-0.914,0.0
9.493,-0.557,-0.921,0.0
12.592,-0.74,-0.868,0.0
11.842,-0.699,-0.883,0.0
11.142,-0.661,-0.894,0.0
10.486,-0.625,-0.903,0.0
9.945,-0.595,-0.913,0.0
9.438,-0.568,-0.92,0.0
12.537,-0.755,-0.87,0.0
11.784,-0.713,-0.885,0.0
11.124,-0.676,-0.899,0.0
10.421,-0.636,-0.902,0.0
9.747,-0.598,-0.899,1.0
9.396,-0.579,-0.921,0.0
12.477,-0.77,-0.872,0.0
11.713,-0.726,-0.885,0.0
11.081,-0.69,-0.9,0.0
10.384,-0.65,-0.904,0.0
9.812,-0.617,-0.91,0.0
9.395,-0.593,-0.925,0.0
12.44,-0.786,-0.875,0.0
11.712,-0.744,-0.89,0.0
11.004,-0.702,-0.899,0.0
10.381,-0.665,-0.908,0.0
9.833,-0.633,-0.916,0.0
9.386,-0.607,-0.928,0.0
12.394,-0.802,-0.877,0.0
11.678,-0.759,-0.892,0.0
10.921,-0.712,-0.896,0.0
10.343,-0.678,-0.908,0.0
9.778,-0.643,-0.914,0.0
9.347,-0.618,-0.927,0.0
12.365,-0.818,-0.879,0.0
11.567,-0.768,-0.887,0.0
10.91,-0.728,-0.899,0.0
10.294,-0.689,-0.907,0.0
9.733,-0.655,-0.913,0.0
9.304,-0.629,-0.926,0.0
12.325,-0.833,-0.879,0.0
11.547,-0.784,-0.889,0.0
10.882,-0.742,-0.899,0.0
10.257,-0.702,-0.907,0.0
9.755,-0.67,-0.918,0.0
9.295,-0.641,-0.927,0.0
12.289,-0.848,-0.88,0.0
11.562,-0.801,-0.893,0.0
10.895,-0.758,-0.903,0.0
10.202,-0.713,-0.904,0.0
9.701,-0.681,-0.915,0.0
9.281,-0.654,-0.928,0.0
12.228,-0.862,-0.878,0.0
11.504,-0.814,-0.891,0.0
10.808,-0.768,-0.898,0.0
10.165,-0.725,-0.903,0.0
9.712,-0.695,-0.918,0.0
9.281,-0.667,-0.93,0.0
12.233,-0.879,-0.881,0.0
11.533,-0.832,-0.895,0.0
10.803,-0.782,-0.899,0.0
10.178,-0.74,-0.906,0.0
9.686,-0.707,-0.917,0.0
9.256,-0.678,-0.928,0.0
12.266,-0.899,-0.885,0.0
11.509,-0.847,-0.895,0.0
10.82,-0.799,-0.902,0.0
10.188,-0.755,-0.908,0.0
9.718,-0.723,-0.921,0.0
9.251,-0.691,-0.929,0.0
12.227,-0.913,-0.883,0.0
11.469,-0.86,-0.892,0.0
10.79,-0.812,-0.9,0.0
10.183,-0.769,-0.908,0.0
9.675,-0.733,-0.917,0.0
9.221,-0.702,-0.926,0.0
12.216,-0.929,-0.883,0.0
11.478,-0.876,-0.894,0.0
10.815,-0.829,-0.903,0.0
10.218,-0.786,-0.911,0.0
9.717,-0.75,-0.921,0.0
9.23,-0.715,-0.927,0.0
12.183,-0.944,-0.88,0.0
11.385,-0.885,-0.886,0.0
10.853,-0.847,-0.906,0.0
10.229,-0.801,-0.912,0.0
9.701,-0.762,-0.919,0.0
9.222,-0.727,-0.926,0.0
12.225,-0.964,-0.883,0.0
11.384,-0.9,-0.886,0.0
10.864,-0.862,-0.906,0.0
10.276,-0.818,-0.916,0.0
9.72,-0.777,-0.92,0.0
9.244,-0.741,-0.927,0.0
12.259,-0.983,-0.884,0.0
11.348,-0.913,-0.882,0.0
10.864,-0.877,-0.905,0.0
10.164,-0.823,-0.904,0.0
9.728,-0.79,-0.92,0.0
9.262,-0.755,-0.928,0.0
12.258,-0.999,-0.883,0.0
11.381,-0.93,-0.883,0.0
10.897,-0.894,-0.906,0.0
10.241,-0.843,-0.91,0.0
9.767,-0.806,-0.922,0.0
9.311,-0.771,-0.932,0.0
12.278,-1.016,-0.882,0.0
11.521,-0.957,-0.892,0.0
10.912,-0.909,-0.905,0.0
10.236,-0.856,-0.907,0.0
9.768,-0.819,-0.921,0.0
9.31,-0.783,-0.93,0.0
12.34,-1.038,-0.884,0.0
11.55,-0.974,-0.891,0.0
10.905,-0.923,-0.902,0.0
10.324,-0.876,-0.913,0.0
9.812,-0.835,-0.922,0.0
9.334,-0.797,-0.93,0.0
12.351,-1.054,-0.882,0.0
11.618,-0.994,-0.894,0.0
11.006,-0.945,-0.908,0.0
10.384,-0.894,-0.915,0.0
9.842,-0.85,-0.922,0.0
9.33,-0.809,-0.926,0.0
12.391,-1.073,-0.881,0.0
11.641,-1.011,-0.892,0.0
11.031,-0.961,-0.907,0.0
10.393,-0.908,-0.913,0.0
9.879,-0.865,-0.923,0.0
9.358,-0.822,-0.926,0.0
12.442,-1.092,-0.88,0.0
11.674,-1.028,-0.891,0.0
11.047,-0.975,-0.904,0.0
10.365,-0.918,-0.907,0.0
9.896,-0.879,-0.921,0.0
9.402,-0.838,-0.927,0.0
12.384,-1.102,-0.872,0.0
11.784,-1.051,-0.895,0.0
11.099,-0.993,-0.904,0.0
10.463,-0.939,-0.911,0.0
9.932,-0.894,-0.92,0.0
9.443,-0.852,-0.927,0.0
12.516,-1.128,-0.876,0.0
11.821,-1.068,-0.893,0.0
11.166,-1.012,-0.905,0.0
10.519,-0.956,-0.912,0.0
9.979,-0.909,-0.92,0.0
9.491,-0.867,-0.928,0.0
12.638,-1.154,-0.879,0.0
11.9,-1.089,-0.893,0.0
11.188,-1.027,-0.902,0.0
10.536,-0.969,-0.908,0.0
9.998,-0.922,-0.917,0.0
9.546,-0.883,-0.929,0.0
12.675,-1.171,-0.875,0.0
12.013,-1.113,-0.896,0.0
11.295,-1.049,-0.905,0.0
10.632,-0.99,-0.911,0.0
10.08,-0.941,-0.92,0.0
9.601,-0.899,-0.929,0.0
12.711,-1.188,-0.871,0.0
12.044,-1.128,-0.892,0.0
11.266,-1.058,-0.896,0.0
10.701,-1.008,-0.911,0.0
10.16,-0.959,-0.921,0.0
9.6,-0.909,-0.924,0.0
12.864,-1.216,-0.875,0.0
12.127,-1.149,-0.891,0.0
11.426,-1.085,-0.903,0.0
10.802,-1.028,-0.914,0.0
10.184,-0.972,-0.918,0.0
9.694,-0.928,-0.927,0.0
13.085,-1.25,-0.882,0.0
12.171,-1.166,-0.887,0.0
11.535,-1.107,-0.904,0.0
10.834,-1.042,-0.91,0.0
10.237,-0.987,-0.916,0.0
9.749,-0.942,-0.926,0.0
13.073,-1.262,-0.873,0.0
12.195,-1.18,-0.881,0.0
11.578,-1.123,-0.9,0.0
10.875,-1.057,-0.906,0.0
10.369,-1.01,-0.921,0.0
9.795,-0.956,-0.924,0.0
13.208,-1.288,-0.874,0.0
12.332,-1.205,-0.883,0.0
11.712,-1.147,-0.903,0.0
10.957,-1.075,-0.906,0.0
10.423,-1.025,-0.919,0.0
9.881,-0.974,-0.925,0.0
13.371,-1.316,-0.875,0.0
12.43,-1.226,-0.881,0.0
11.762,-1.163,-0.899,0.0
11.009,-1.09,-0.902,0.0
10.53,-1.045,-0.921,0.0
9.925,-0.987,-0.922,0.0
13.492,-1.34,-0.873,0.0
12.569,-1.251,-0.882,0.0
11.869,-1.184,-0.898,0.0
11.096,-1.109,-0.901,0.0
10.596,-1.061,-0.919,0.0
10.009,-1.004,-0.923,0.0
13.635,-1.366,-0.872,0.0
12.698,-1.275,-0.881,0.0
12.003,-1.207,-0.899,0.0
11.204,-1.129,-0.901,0.0
10.672,-1.078,-0.917,0.0
10.09,-1.021,-0.922,0.0
13.776,-1.392,-0.87,0.0
12.813,-1.297,-0.879,0.0
12.139,-1.231,-0.899,0.0
11.357,-1.154,-0.904,0.0
10.73,-1.092,-0.913,0.0
10.167,-1.037,-0.921,0.0
13.972,-1.423,-0.871,0.0
13.008,-1.327,-0.882,0.0
12.118,-1.239,-0.887,0.0
11.448,-1.172,-0.902,0.0
10.787,-1.107,-0.909,0.0
10.244,-1.053,-0.919,0.0
14.141,-1.451,-0.87,0.0
13.177,-1.355,-0.882,0.0
12.273,-1.264,-0.888,0.0
11.616,-1.198,-0.905,0.0
10.861,-1.122,-0.905,0.0
10.393,-1.076,-0.923,0.0
14.279,-1.476,-0.866,0.0
13.249,-1.371,-0.875,0.0
12.422,-1.288,-0.888,0.0
11.726,-1.218,-0.903,0.0
11.022,-1.146,-0.909,0.0
10.46,-1.09,-0.919,0.0
14.44,-1.502,-0.862,0.0
13.401,-1.396,-0.873,0.0
12.632,-1.318,-0.891,0.0
11.824,-1.236,-0.9,0.0
11.145,-1.167,-0.908,0.0
10.529,-1.104,-0.916,0.0
14.698,-1.539,-0.864,0.0
13.627,-1.428,-0.875,0.0
12.684,-1.332,-0.883,0.0
11.989,-1.261,-0.901,0.0
11.221,-1.182,-0.904,0.0
10.658,-1.124,-0.917,0.0
14.813,-1.56,-0.857,0.0
13.841,-1.459,-0.875,0.0
12.89,-1.361,-0.885,0.0
12.039,-1.273,-0.893,0.0
11.302,-1.197,-0.899,0.0
10.745,-1.139,-0.913,0.0
15.037,-1.592,-0.855,0.0
14.041,-1.488,-0.874,0.0
12.977,-1.377,-0.878,0.0
12.214,-1.298,-0.893,0.0
11.48,-1.222,-0.902,0.0
10.859,-1.157,-0.912,0.0
15.345,-1.633,-0.857,0.0
14.22,-1.515,-0.871,0.0
13.15,-1.403,-0.876,0.0
12.385,-1.323,-0.893,0.0
11.611,-1.242,-0.9,0.0
10.969,-1.174,-0.91,0.0
15.546,-1.662,-0.852,0.0
14.371,-1.538,-0.865,0.0
13.435,-1.439,-0.881,0.0
12.474,-1.338,-0.887,0.0
11.847,-1.272,-0.906,0.0
11.093,-1.193,-0.909,0.0
15.792,-1.695,-0.849,0.0
14.605,-1.569,-0.864,0.0
13.592,-1.462,-0.877,0.0
12.695,-1.367,-0.889,0.0
11.947,-1.288,-0.901,0.0
11.17,-1.206,-0.903,0.0
16.136,-1.739,-0.85,0.0
14.865,-1.603,-0.863,0.0
13.846,-1.495,-0.878,0.0
12.905,-1.395,-0.889,0.0
12.113,-1.31,-0.9,0.0
