X,Y,Z,Reflectivity
0.0,0.0,0.0,0.0
0.0,0.0,0.0,0.0
0.0,0.0,0.0,0.0
34.339,-3.356,-0.539,0.0
90.363,-8.83,1.1,38.0
90.335,-8.801,0.615,21.0
0.0,0.0,0.0,0.0
0.0,0.0,0.0,0.0
0.0,0.0,0.0,0.0
36.088,-3.476,-0.534,0.0
90.332,-8.701,1.178,16.0
90.389,-8.681,0.693,52.0
90.39,-8.655,0.206,16.0
0.0,0.0,0.0,0.0
0.0,0.0,0.0,0.0
0.0,0.0,0.0,0.0
90.369,-8.575,1.256,22.0
90.332,-8.545,0.768,33.0
90.386,-8.525,0.282,20.0
0.0,0.0,0.0,0.0
0.0,0.0,0.0,0.0
38.637,-3.611,-0.507,0.0
90.371,-8.445,1.33,34.0
90.368,-8.416,0.843,16.0
90.393,-8.392,0.356,26.0
0.0,0.0,0.0,0.0
0.0,0.0,0.0,0.0
38.842,-3.572,-0.479,0.0
90.376,-8.308,1.402,36.0
90.386,-8.282,0.916,32.0
90.273,-8.244,0.427,13.0
0.0,0.0,0.0,0.0
0.0,0.0,0.0,0.0
38.645,-3.495,-0.446,0.0
90.387,-8.172,1.472,32.0
90.384,-8.143,0.984,43.0
90.405,-8.116,0.496,33.0
0.0,0.0,0.0,0.0
0.0,0.0,0.0,0.0
41.033,-3.646,-0.443,0.0
90.389,-8.031,1.539,31.0
90.405,-8.003,1.051,51.0
90.401,-7.974,0.562,37.0
0.0,0.0,0.0,0.0
0.0,0.0,0.0,0.0
0.0,0.0,0.0,0.0
90.378,-7.886,1.604,31.0
90.386,-7.857,1.115,39.0
90.403,-7.83,0.626,36.0
90.376,-7.798,0.128,4.0
0.0,0.0,0.0,0.0
0.0,0.0,0.0,0.0
90.395,-7.741,1.665,33.0
90.421,-7.713,1.177,47.0
90.407,-7.682,0.687,40.0
90.406,-7.653,0.188,12.0
0.0,0.0,0.0,0.0
0.0,0.0,0.0,0.0
90.407,-7.591,1.726,42.0
90.414,-7.562,1.235,42.0
90.419,-7.532,0.745,69.0
90.423,-7.504,0.246,69.0
0.0,0.0,0.0,0.0
0.0,0.0,0.0,0.0
90.406,-7.441,1.781,150.0
100.032,-8.198,1.428,9.0
99.989,-8.162,0.885,15.0
99.916,-8.123,0.333,6.0
0.0,0.0,0.0,0.0
0.0,0.0,0.0,0.0
116.68,-9.401,2.369,11.0
100.106,-8.033,1.489,11.0
100.046,-7.993,0.945,13.0
99.973,-7.954,0.39,7.0
0.0,0.0,0.0,0.0
0.0,0.0,0.0,0.0
119.055,-9.387,2.483,10.0
100.123,-7.86,1.544,12.0
100.027,-7.819,0.999,16.0
99.979,-7.781,0.445,9.0
0.0,0.0,0.0,0.0
0.0,0.0,0.0,0.0
127.491,-9.828,2.726,23.0
100.081,-7.679,1.596,9.0
100.099,-7.646,1.051,13.0
100.017,-7.606,0.496,13.0
0.0,0.0,0.0,0.0
49.177,-3.706,-0.291,0.0
123.847,-9.324,2.709,2.0
100.095,-7.502,1.645,8.0
100.08,-7.465,1.099,11.0
100.036,-7.426,0.544,10.0
0.0,0.0,0.0,0.0
0.0,0.0,0.0,0.0
133.317,-9.796,2.979,8.0
100.05,-7.315,1.69,7.0
100.092,-7.284,1.145,10.0
100.058,-7.245,0.589,10.0
0.0,0.0,0.0,0.0
0.0,0.0,0.0,0.0
109.251,-7.826,2.488,46.0
100.059,-7.132,1.732,6.0
100.105,-7.099,1.186,8.0
100.054,-7.059,0.63,10.0
0.0,0.0,0.0,0.0
0.0,0.0,0.0,0.0
109.249,-7.625,2.53,34.0
109.492,-7.602,1.937,7.0
100.036,-6.91,1.223,6.0
100.139,-6.881,0.668,5.0
0.0,0.0,0.0,0.0
0.0,0.0,0.0,0.0
117.016,-7.948,2.751,12.0
117.422,-7.932,2.119,12.0
0.0,0.0,0.0,0.0
0.0,0.0,0.0,0.0
0.0,0.0,0.0,0.0
0.0,0.0,0.0,0.0
116.967,-7.722,2.788,28.0
117.399,-7.709,2.156,28.0
125.225,-8.176,1.614,24.0
125.121,-8.123,0.915,8.0
0.0,0.0,0.0,0.0
0.0,0.0,0.0,0.0
117.121,-7.505,2.825,31.0
125.238,-7.979,2.335,30.0
147.923,-9.371,1.947,30.0
125.209,-7.887,0.949,5.0
0.0,0.0,0.0,0.0
0.0,0.0,0.0,0.0
117.326,-7.292,2.859,19.0
148.02,-9.146,2.795,19.0
148.477,-9.119,1.989,15.0
149.923,-9.152,1.171,13.0
0.0,0.0,0.0,0.0
0.0,0.0,0.0,0.0
149.227,-8.984,3.668,18.0
148.627,-8.892,2.837,20.0
149.45,-8.888,2.033,20.0
149.84,-8.856,1.199,12.0
0.0,0.0,0.0,0.0
0.0,0.0,0.0,0.0
148.828,-8.667,3.685,20.0
149.267,-8.637,2.875,19.0
140.764,-8.095,1.938,22.0
140.663,-8.036,1.149,12.0
0.0,0.0,0.0,0.0
0.0,0.0,0.0,0.0
163.392,-9.193,4.069,14.0
140.66,-7.861,2.728,25.0
101.511,-5.636,1.409,5.0
101.476,-5.596,0.841,152.0
0.0,0.0,0.0,0.0
0.0,0.0,0.0,0.0
140.675,-7.635,3.517,28.0
0.0,0.0,0.0,0.0
101.482,-5.432,1.418,22.0
0.0,0.0,0.0,0.0
0.0,0.0,0.0,0.0
0.0,0.0,0.0,0.0
140.679,-7.353,3.525,21.0
103.919,-5.393,2.031,1.0
0.0,0.0,0.0,0.0
101.526,-5.195,0.854,17.0
0.0,0.0,0.0,0.0
0.0,0.0,0.0,0.0
139.44,-7.008,3.498,15.0
0.0,0.0,0.0,0.0
0.0,0.0,0.0,0.0
101.533,-4.989,0.855,150.0
0.0,0.0,0.0,0.0
0.0,0.0,0.0,0.0
163.384,-7.881,4.097,8.0
0.0,0.0,0.0,0.0
0.0,0.0,0.0,0.0
101.558,-4.784,0.852,150.0
0.0,0.0,0.0,0.0
0.0,0.0,0.0,0.0
163.352,-7.545,4.088,10.0
0.0,0.0,0.0,0.0
0.0,0.0,0.0,0.0
0.0,0.0,0.0,0.0
0.0,0.0,0.0,0.0
0.0,0.0,0.0,0.0
142.532,-6.293,3.555,24.0
0.0,0.0,0.0,0.0
101.515,-4.407,1.407,30.0
101.479,-4.368,0.834,5.0
0.0,0.0,0.0,0.0
0.0,0.0,0.0,0.0
163.374,-6.88,4.054,6.0
0.0,0.0,0.0,0.0
101.542,-4.2,1.393,8.0
101.449,-4.158,0.82,69.0
0.0,0.0,0.0,0.0
0.0,0.0,0.0,0.0
141.703,-5.678,3.493,15.0
162.25,-6.439,3.099,22.0
0.0,0.0,0.0,0.0
0.0,0.0,0.0,0.0
0.0,0.0,0.0,0.0
0.0,0.0,0.0,0.0
141.834,-5.391,3.468,2.0
162.233,-6.105,3.065,22.0
162.037,-6.036,2.161,20.0
160.747,-5.93,1.235,11.0
0.0,0.0,0.0,0.0
0.0,0.0,0.0,0.0
163.369,-5.869,3.955,8.0
162.237,-5.768,3.026,18.0
162.119,-5.705,2.121,18.0
160.69,-5.594,1.193,13.0
0.0,0.0,0.0,0.0
0.0,0.0,0.0,0.0
163.304,-5.528,3.908,15.0
162.199,-5.429,2.978,32.0
161.97,-5.36,2.072,29.0
160.702,-5.259,1.145,12.0
0.0,0.0,0.0,0.0
0.0,0.0,0.0,0.0
163.346,-5.189,3.857,10.0
165.546,-5.199,2.986,12.0
161.81,-5.021,2.017,23.0
160.658,-4.925,1.091,13.0
0.0,0.0,0.0,0.0
0.0,0.0,0.0,0.0
167.861,-4.986,3.904,5.0
178.196,-5.226,3.15,6.0
161.913,-4.689,1.959,17.0
160.696,-4.596,1.031,14.0
0.0,0.0,0.0,0.0
0.0,0.0,0.0,0.0
168.311,-4.649,3.847,4.0
0.0,0.0,0.0,0.0
161.991,-4.355,1.894,22.0
160.698,-4.261,0.965,13.0
0.0,0.0,0.0,0.0
51.077,-1.318,-0.263,0.0
0.0,0.0,0.0,0.0
170.389,-4.289,2.869,5.0
161.964,-4.017,1.821,21.0
0.0,0.0,0.0,0.0
0.0,0.0,0.0,0.0
0.0,0.0,0.0,0.0
0.0,0.0,0.0,0.0
170.335,-3.933,2.786,7.0
114.025,-2.592,1.227,3.0
0.0,0.0,0.0,0.0
0.0,0.0,0.0,0.0
0.0,0.0,0.0,0.0
0.0,0.0,0.0,0.0
0.0,0.0,0.0,0.0
114.029,-2.358,1.168,151.0
0.0,0.0,0.0,0.0
0.0,0.0,0.0,0.0
0.0,0.0,0.0,0.0
170.449,-3.292,3.561,5.0
0.0,0.0,0.0,0.0
113.982,-2.121,1.104,19.0
0.0,0.0,0.0,0.0
0.0,0.0,0.0,0.0
0.0,0.0,0.0,0.0
0.0,0.0,0.0,0.0
0.0,0.0,0.0,0.0
114.001,-1.887,1.036,153.0
19.748,-0.319,0.066,1.0
0.0,0.0,0.0,0.0
0.0,0.0,0.0,0.0
0.0,0.0,0.0,0.0
19.775,-0.293,0.278,3.0
19.749,-0.286,0.167,28.0
19.755,-0.28,0.054,2.0
0.0,0.0,0.0,0.0
0.0,0.0,0.0,0.0
19.757,-0.26,0.376,8.0
19.73,-0.252,0.264,10.0
19.738,-0.245,0.153,10.0
0.0,0.0,0.0,0.0
0.0,0.0,0.0,0.0
0.0,0.0,0.0,0.0
19.753,-0.219,0.362,9.0
114.206,-1.232,1.451,48.0
114.107,-1.191,0.808,2.0
0.0,0.0,0.0,0.0
19.791,-0.193,-0.084,0.0
19.768,-0.185,-0.195,11.0
19.772,-0.18,0.348,0.0
0.0,0.0,0.0,0.0
0.0,0.0,0.0,0.0
19.766,-0.16,0.012,1.0
19.736,-0.153,-0.099,13.0
19.731,-0.146,-0.21,17.0
19.675,-0.139,0.331,0.0
19.74,-0.133,0.221,5.0
19.752,-0.126,0.109,8.0
19.716,-0.12,-0.003,12.0
19.713,-0.113,-0.114,16.0
19.733,-0.106,-0.225,17.0
19.675,-0.1,0.315,10.0
19.704,-0.093,0.204,15.0
19.702,-0.087,0.093,13.0
19.699,-0.08,-0.019,16.0
19.716,-0.074,-0.13,16.0
19.749,-0.067,-0.242,15.0
19.641,-0.061,0.298,11.0
19.665,-0.054,0.187,12.0
19.695,-0.048,0.076,15.0
19.697,-0.041,-0.036,15.0
19.743,-0.035,-0.148,12.0
19.751,-0.028,-0.259,0.0
19.629,-0.022,0.28,14.0
19.715,-0.015,0.17,5.0
19.757,-0.009,0.059,4.0
19.738,-0.003,-0.054,7.0
19.78,0.003,-0.165,0.0
19.765,0.009,-0.277,2.0
19.626,0.016,0.263,15.0
19.742,0.022,0.153,17.0
19.744,0.028,0.041,13.0
19.775,0.035,-0.072,36.0
19.762,0.041,-0.184,38.0
19.76,0.048,-0.296,28.0
19.616,0.054,0.244,15.0
19.689,0.06,0.133,14.0
19.743,0.067,0.022,31.0
19.75,0.073,-0.091,13.0
19.762,0.079,-0.203,2.0
19.737,0.086,-0.314,0.0
19.644,0.092,0.225,12.0
19.657,0.098,0.114,12.0
19.654,0.104,0.003,11.0
19.674,0.11,-0.11,7.0
0.0,0.0,0.0,0.0
32.28,0.201,-0.546,0.0
19.668,0.129,0.206,18.0
19.643,0.135,0.094,13.0
19.641,0.141,-0.016,17.0
19.65,0.147,-0.13,12.0
19.671,0.153,-0.241,9.0
19.664,0.159,-0.353,9.0
19.673,0.166,0.185,13.0
19.661,0.172,0.074,12.0
19.647,0.178,-0.037,12.0
19.633,0.184,-0.15,16.0
19.646,0.19,-0.262,16.0
19.652,0.196,-0.374,15.0
19.754,0.203,0.165,19.0
19.687,0.209,0.053,9.0
19.633,0.214,-0.058,10.0
19.624,0.22,-0.171,17.0
19.65,0.226,-0.283,18.0
19.664,0.232,-0.395,16.0
19.779,0.24,0.143,25.0
19.704,0.245,0.031,0.0
19.66,0.25,-0.08,11.0
19.652,0.256,-0.194,15.0
19.663,0.262,-0.305,13.0
19.684,0.268,-0.418,13.0
19.746,0.276,0.121,0.0
55.135,0.787,0.024,0.0
19.713,0.287,-0.103,0.0
19.68,0.292,-0.217,2.0
19.657,0.297,-0.328,1.0
27.897,0.43,-0.624,0.0
55.248,0.871,0.274,2.0
55.165,0.886,-0.039,17.0
42.266,0.691,-0.27,0.0
33.885,0.564,-0.413,0.0
31.093,0.526,-0.556,0.0
27.21,0.469,-0.641,1.0
55.172,0.968,0.208,68.0
52.343,0.933,-0.1,2.0
39.781,0.721,-0.302,1.0
31.897,0.586,-0.427,0.0
29.574,0.552,-0.564,0.0
26.746,0.507,-0.663,2.0
0.0,0.0,0.0,0.0
47.718,0.934,-0.149,0.0
0.0,0.0,0.0,0.0
30.816,0.621,-0.451,0.0
26.469,0.54,-0.538,0.0
26.139,0.541,-0.68,6.0
0.0,0.0,0.0,0.0
44.05,0.938,-0.193,1.0
0.0,0.0,0.0,0.0
29.481,0.644,-0.468,1.0
25.342,0.56,-0.547,0.0
24.301,0.544,-0.663,1.0
45.51,1.033,0.001,2.0
41.434,0.952,-0.235,1.0
34.099,0.792,-0.387,1.0
28.789,0.677,-0.494,1.0
24.036,0.572,-0.55,0.0
22.455,0.54,-0.642,1.0
0.0,0.0,0.0,0.0
39.938,0.984,-0.278,7.0
32.1,0.799,-0.406,0.0
27.283,0.686,-0.504,1.0
23.021,0.585,-0.557,0.0
20.981,0.539,-0.627,1.0
40.141,1.044,-0.104,155.0
37.273,0.979,-0.309,2.0
30.997,0.822,-0.434,1.0
26.132,0.7,-0.518,3.0
22.268,0.602,-0.568,0.0
20.078,0.548,-0.627,1.0
40.13,1.108,-0.158,100.0
36.584,1.02,-0.353,3.0
27.409,0.771,-0.421,0.0
25.342,0.719,-0.537,1.0
21.691,0.621,-0.583,0.0
19.266,0.556,-0.628,1.0
40.06,1.17,-0.213,56.0
40.165,1.183,-0.443,2.0
27.467,0.815,-0.46,17.0
24.475,0.733,-0.552,0.0
20.736,0.626,-0.587,1.0
19.08,0.581,-0.649,1.0
39.984,1.23,-0.269,16.0
40.155,1.245,-0.5,2.0
27.515,0.86,-0.5,2.0
22.997,0.724,-0.552,0.0
20.209,0.641,-0.6,0.0
18.222,0.583,-0.646,0.0
39.988,1.291,-0.326,2.0
30.338,0.986,-0.42,1.0
26.062,0.853,-0.51,2.0
22.104,0.729,-0.562,1.0
19.746,0.656,-0.615,1.0
40.175,1.345,-1.482,1.0
40.122,1.354,-0.385,2.0
29.311,0.996,-0.449,2.0
25.154,0.861,-0.529,1.0
21.419,0.738,-0.575,2.0
19.237,0.667,-0.627,2.0
17.261,0.603,-0.661,0.0
40.124,1.412,-0.443,1.0
28.126,0.996,-0.471,1.0
24.217,0.863,-0.544,1.0
20.88,0.749,-0.591,1.0
18.602,0.671,-0.634,3.0
17.088,0.621,-0.68,1.0
31.85,1.166,-0.399,0.0
27.187,1.001,-0.496,7.0
23.359,0.865,-0.56,2.0
19.949,0.744,-0.595,2.0
18.149,0.68,-0.645,3.0
16.925,0.638,-0.699,0.0
30.015,1.141,-0.421,1.0
26.172,1.0,-0.517,4.0
22.031,0.847,-0.562,1.0
19.569,0.756,-0.613,2.0
17.733,0.689,-0.657,2.0
16.716,0.654,-0.716,0.0
28.917,1.138,-0.449,3.0
23.724,0.938,-0.505,18.0
21.156,0.841,-0.572,1.0
18.886,0.755,-0.62,3.0
17.261,0.694,-0.666,2.0
16.558,0.669,-0.734,1.0
27.766,1.129,-0.474,6.0
23.57,0.963,-0.538,37.0
20.595,0.846,-0.588,2.0
18.407,0.76,-0.633,4.0
17.02,0.706,-0.683,2.0
16.368,0.683,-0.751,2.0
23.664,0.992,-0.441,32.0
23.114,0.974,-0.563,5.0
19.809,0.839,-0.597,2.0
17.9,0.762,-0.644,3.0
16.859,0.721,-0.704,2.0
16.212,0.696,-0.77,1.0
23.639,1.021,-0.478,40.0
21.657,0.94,-0.562,2.0
19.259,0.839,-0.611,2.0
17.565,0.769,-0.66,2.0
16.655,0.733,-0.721,1.0
16.043,0.709,-0.787,4.0
23.633,1.049,-0.515,76.0
23.637,1.054,-0.651,1.0
18.599,0.833,-0.619,3.0
17.162,0.772,-0.672,3.0
16.462,0.743,-0.739,1.0
15.935,0.723,-0.807,3.0
23.445,1.068,-0.548,15.0
20.003,0.915,-0.582,1.0
18.199,0.836,-0.635,3.0
16.929,0.781,-0.689,2.0
16.281,0.754,-0.757,2.0
23.644,1.1,-1.236,1.0
0.0,0.0,0.0,0.0
19.512,0.914,-0.6,3.0
17.769,0.836,-0.648,2.0
16.749,0.791,-0.709,2.0
16.1,0.763,-0.775,2.0
23.615,1.124,-1.273,2.0
21.183,1.012,-0.564,1.0
18.819,0.902,-0.609,3.0
17.27,0.831,-0.658,1.0
16.535,0.799,-0.727,1.0
15.966,0.774,-0.794,3.0
23.624,1.15,-1.312,1.0
20.409,0.996,-0.576,0.0
18.376,0.9,-0.624,3.0
17.01,0.836,-0.676,2.0
16.324,0.805,-0.745,2.0
23.667,1.172,-1.216,1.0
23.647,1.175,-1.352,1.0
19.722,0.983,-0.589,2.0
17.945,0.897,-0.639,1.0
16.839,0.845,-0.697,2.0
16.138,0.812,-0.763,1.0
23.661,1.195,-1.255,0.0
23.627,1.198,-1.39,1.0
19.026,0.967,-0.599,3.0
17.437,0.889,-0.65,0.0
16.658,0.852,-0.717,1.0
15.975,0.82,-0.781,3.0
14.652,0.754,-0.801,0.0
23.625,1.22,-1.429,0.0
18.525,0.959,-0.615,3.0
17.077,0.887,-0.665,2.0
16.405,0.854,-0.733,1.0
15.863,0.828,-0.802,1.0
23.667,1.24,-1.334,0.0
13.231,0.695,-0.822,0.0
18.148,0.956,-0.632,2.0
16.895,0.892,-0.686,2.0
16.218,0.859,-0.752,1.0
15.27,0.811,-0.798,0.0
13.81,0.736,-0.801,0.0
12.96,0.692,-0.827,0.0
17.677,0.946,-0.645,1.0
16.729,0.898,-0.707,1.0
16.023,0.862,-0.77,2.0
14.619,0.789,-0.788,0.0
13.608,0.736,-0.813,0.0
12.833,0.696,-0.841,0.0
17.191,0.934,-0.656,1.0
16.476,0.897,-0.724,1.0
15.932,0.87,-0.792,1.0
13.978,0.765,-0.777,0.0
13.309,0.731,-0.817,0.0
12.52,0.689,-0.841,0.0
16.965,0.935,-0.676,2.0
16.267,0.899,-0.742,1.0
15.322,0.848,-0.788,0.0
13.945,0.774,-0.799,0.0
13.1,0.729,-0.826,0.0
12.316,0.687,-0.848,0.0
16.791,0.938,-0.698,1.0
16.057,0.899,-0.76,2.0
14.952,0.839,-0.794,0.0
13.668,0.769,-0.806,0.0
12.874,0.726,-0.834,0.0
12.104,0.684,-0.854,0.0
16.558,0.936,-0.716,1.0
15.928,0.903,-0.781,3.0
14.208,0.807,-0.778,0.0
13.437,0.765,-0.815,0.0
12.594,0.718,-0.837,0.0
11.899,0.68,-0.86,0.0
16.311,0.933,-0.733,1.0
15.556,0.892,-0.789,0.0
14.048,0.807,-0.793,0.0
13.173,0.758,-0.821,0.0
12.385,0.714,-0.844,0.0
11.547,0.667,-0.854,0.0
16.121,0.932,-0.751,1.0
14.971,0.867,-0.784,0.0
13.803,0.801,-0.803,0.0
12.948,0.753,-0.829,0.0
12.167,0.709,-0.85,0.0
11.38,0.664,-0.861,0.0
15.992,0.933,-0.772,4.0
14.631,0.855,-0.791,0.0
13.5,0.791,-0.808,0.0
12.651,0.742,-0.831,0.0
11.936,0.702,-0.854,0.0
11.158,0.657,-0.862,0.0
15.797,0.93,-0.789,0.0
14.092,0.831,-0.785,0.0
13.222,0.781,-0.813,0.0
12.382,0.733,-0.834,0.0
11.659,0.691,-0.853,0.0
10.891,0.647,-0.86,0.0
15.24,0.905,-0.786,0.0
13.918,0.828,-0.798,0.0
12.988,0.774,-0.82,0.0
12.185,0.727,-0.841,0.0
11.408,0.682,-0.854,0.0
10.746,0.643,-0.867,0.0
14.752,0.882,-0.786,0.0
13.67,0.819,-0.807,0.0
12.819,0.769,-0.831,0.0
12.039,0.723,-0.851,0.0
11.284,0.679,-0.863,0.0
10.581,0.638,-0.871,0.0
14.421,0.868,-0.792,0.0
13.341,0.804,-0.81,0.0
12.629,0.763,-0.84,0.0
11.724,0.709,-0.849,0.0
11.069,0.67,-0.866,0.0
10.362,0.628,-0.87,0.0
14.1,0.854,-0.798,0.0
13.176,0.799,-0.822,0.0
12.34,0.749,-0.841,0.0
11.476,0.698,-0.85,0.0
10.822,0.659,-0.864,0.0
10.236,0.624,-0.877,0.0
13.81,0.841,-0.804,0.0
12.928,0.788,-0.827,0.0
12.085,0.738,-0.843,0.0
11.337,0.693,-0.858,0.0
10.604,0.649,-0.864,0.0
10.13,0.621,-0.885,0.0
13.457,0.823,-0.805,0.0
12.697,0.778,-0.833,0.0
11.854,0.727,-0.847,0.0
11.095,0.681,-0.858,0.0
10.49,0.645,-0.872,0.0
9.992,0.615,-0.889,0.0
13.224,0.812,-0.813,0.0
12.404,0.762,-0.834,0.0
11.675,0.718,-0.853,0.0
10.932,0.673,-0.863,0.0
10.329,0.637,-0.875,0.0
9.874,0.609,-0.894,0.0
12.989,0.8,-0.819,0.0
12.164,0.75,-0.838,0.0
11.421,0.705,-0.853,0.0
10.691,0.66,-0.861,0.0
10.163,0.628,-0.878,0.0
9.703,0.601,-0.895,0.0
12.842,0.793,-0.831,0.0
12.034,0.744,-0.848,0.0
11.331,0.701,-0.864,0.0
10.495,0.65,-0.862,0.0
10.097,0.626,-0.888,0.0
9.57,0.593,-0.898,0.0
12.537,0.775,-0.831,0.0
11.768,0.728,-0.848,0.0
11.028,0.683,-0.858,0.0
10.416,0.646,-0.872,0.0
9.966,0.618,-0.893,0.0
9.419,0.585,-0.899,0.0
12.315,0.763,-0.835,0.0
11.581,0.718,-0.853,0.0
10.734,0.666,-0.852,0.0
10.259,0.637,-0.875,0.0
9.775,0.607,-0.891,0.0
9.295,0.578,-0.901,0.0
12.194,0.755,-0.846,0.0
11.42,0.708,-0.858,0.0
10.645,0.66,-0.862,0.0
10.149,0.63,-0.882,0.0
9.68,0.601,-0.897,0.0
9.128,0.567,-0.899,0.0
11.984,0.742,-0.85,0.0
11.178,0.693,-0.858,0.0
10.517,0.652,-0.868,0.0
10.056,0.624,-0.889,0.0
9.536,0.592,-0.899,0.0
8.973,0.557,-0.898,0.0
11.687,0.723,-0.847,0.0
10.95,0.678,-0.857,0.0
10.355,0.641,-0.87,0.0
9.902,0.613,-0.891,0.0
9.376,0.581,-0.898,0.0
8.9,0.552,-0.904,0.0
11.592,0.716,-0.857,0.0
10.804,0.668,-0.862,0.0
10.262,0.634,-0.878,0.0
9.759,0.604,-0.892,0.0
9.253,0.573,-0.9,0.0
8.769,0.543,-0.904,0.0
11.299,0.697,-0.852,0.0
10.61,0.654,-0.862,0.0
10.141,0.626,-0.882,0.0
9.634,0.594,-0.895,0.0
9.094,0.561,-0.898,0.0
8.608,0.531,-0.9,0.0
11.146,0.685,-0.857,0.0
10.472,0.644,-0.866,0.0
10.062,0.619,-0.89,0.0
9.53,0.586,-0.899,0.0
8.963,0.551,-0.898,0.0
8.562,0.527,-0.908,0.0
10.948,0.671,-0.858,0.0
10.332,0.633,-0.869,0.0
9.896,0.607,-0.89,0.0
9.351,0.573,-0.896,0.0
8.899,0.545,-0.904,0.0
8.415,0.516,-0.904,0.0
10.794,0.659,-0.861,0.0
10.25,0.626,-0.877,0.0
9.782,0.597,-0.893,0.0
9.259,0.565,-0.9,0.0
8.767,0.535,-0.903,0.0
8.331,0.508,-0.907,0.0
10.662,0.648,-0.865,0.0
10.149,0.616,-0.882,0.0
9.672,0.587,-0.897,0.0
9.141,0.555,-0.902,0.0
8.682,0.527,-0.907,0.0
8.257,0.501,-0.91,0.0
10.514,0.635,-0.868,0.0
10.08,0.609,-0.89,0.0
9.543,0.576,-0.898,0.0
9.003,0.544,-0.9,0.0
8.544,0.516,-0.904,0.0
8.167,0.493,-0.912,0.0
10.384,0.624,-0.871,0.0
9.93,0.596,-0.89,0.0
9.42,0.565,-0.899,0.0
8.881,0.533,-0.9,0.0
8.431,0.506,-0.903,0.0
8.097,0.486,-0.915,0.0
10.279,0.613,-0.875,0.0
9.808,0.585,-0.892,0.0
9.265,0.552,-0.896,0.0
8.801,0.525,-0.903,0.0
8.376,0.499,-0.908,0.0
8.012,0.477,-0.916,0.0
10.198,0.604,-0.882,0.0
9.703,0.575,-0.895,0.0
9.159,0.542,-0.898,0.0
8.655,0.512,-0.899,0.0
8.289,0.49,-0.91,0.0
7.93,0.469,-0.916,0.0
10.087,0.593,-0.885,0.0
9.608,0.564,-0.898,0.0
9.029,0.53,-0.896,0.0
8.589,0.504,-0.903,0.0
8.196,0.48,-0.91,0.0
7.892,0.462,-0.922,0.0
9.98,0.581,-0.888,0.0
9.492,0.553,-0.899,0.0
8.94,0.52,-0.899,0.0
8.562,0.498,-0.911,0.0
8.154,0.474,-0.915,0.0
7.82,0.454,-0.923,0.0
9.854,0.569,-0.888,0.0
9.368,0.54,-0.899,0.0
8.844,0.51,-0.899,0.0
8.462,0.487,-0.911,0.0
8.062,0.464,-0.914,0.0
7.781,0.447,-0.928,0.0
9.761,0.558,-0.891,0.0
9.207,0.526,-0.894,0.0
8.747,0.499,-0.9,0.0
8.377,0.478,-0.911,0.0
7.996,0.455,-0.916,0.0
7.715,0.439,-0.929,0.0
9.701,0.549,-0.897,0.0
9.215,0.521,-0.905,0.0
8.676,0.49,-0.902,0.0
8.277,0.467,-0.91,0.0
7.951,0.448,-0.92,0.0
7.652,0.431,-0.93,0.0
9.59,0.536,-0.897,0.0
9.069,0.507,-0.901,0.0
8.63,0.482,-0.907,0.0
8.225,0.458,-0.913,0.0
7.918,0.441,-0.925,0.0
7.55,0.42,-0.926,0.0
9.474,0.524,-0.896,0.0
9.028,0.498,-0.906,0.0
8.545,0.471,-0.907,0.0
8.165,0.45,-0.915,0.0
7.822,0.43,-0.922,0.0
7.546,0.415,-0.933,0.0
9.404,0.513,-0.899,0.0
8.917,0.486,-0.904,0.0
8.506,0.463,-0.912,0.0
8.1,0.44,-0.916,0.0
7.782,0.423,-0.925,0.0
7.47,0.405,-0.931,0.0
9.349,0.503,-0.904,0.0
8.88,0.478,-0.909,0.0
8.433,0.453,-0.912,0.0
8.037,0.431,-0.917,0.0
7.71,0.413,-0.924,0.0
7.447,0.398,-0.936,0.0
9.231,0.49,-0.901,0.0
8.751,0.464,-0.904,0.0
8.331,0.441,-0.909,0.0
7.96,0.421,-0.915,0.0
7.682,0.405,-0.928,0.0
7.406,0.39,-0.938,0.0
8.698,0.454,-0.907,0.0
8.249,0.43,-0.908,0.0
7.933,0.413,-0.92,0.0
7.689,0.4,-0.936,0.0
7.333,0.38,-0.935,0.0
8.676,0.446,-0.913,0.0
8.209,0.421,-0.911,0.0
7.874,0.403,-0.92,0.0
7.585,0.388,-0.93,0.0
7.303,0.373,-0.938,0.0
8.579,0.434,-0.91,0.0
8.183,0.413,-0.915,0.0
7.843,0.395,-0.923,0.0
7.576,0.381,-0.935,0.0
7.258,0.364,-0.938,0.0
8.509,0.423,-0.909,0.0
8.13,0.403,-0.915,0.0
7.79,0.386,-0.923,0.0
7.494,0.37,-0.931,0.0
7.248,0.357,-0.942,0.0
8.86,0.434,-0.902,0.0
8.461,0.413,-0.91,0.0
8.089,0.394,-0.917,0.0
7.738,0.376,-0.922,0.0
7.494,0.364,-0.937,0.0
7.244,0.351,-0.947,0.0
8.821,0.424,-0.905,0.0
8.41,0.403,-0.911,0.0
8.049,0.385,-0.918,0.0
7.684,0.367,-0.921,0.0
7.446,0.354,-0.936,0.0
7.218,0.343,-0.949,0.0
8.808,0.415,-0.91,0.0
8.362,0.393,-0.911,0.0
7.996,0.375,-0.917,0.0
7.683,0.359,-0.927,0.0
7.424,0.346,-0.938,0.0
7.153,0.333,-0.945,0.0
8.762,0.404,-0.911,0.0
8.322,0.383,-0.913,0.0
7.958,0.365,-0.918,0.0
7.649,0.35,-0.927,0.0
7.376,0.337,-0.937,0.0
7.122,0.324,-0.946,0.0
8.685,0.392,-0.908,0.0
8.284,0.373,-0.913,0.0
7.956,0.357,-0.923,0.0
7.625,0.342,-0.929,0.0
7.344,0.328,-0.937,0.0
7.102,0.316,-0.947,0.0
8.627,0.381,-0.907,0.0
8.272,0.364,-0.917,0.0
7.909,0.347,-0.922,0.0
7.578,0.332,-0.927,0.0
7.339,0.32,-0.94,0.0
7.082,0.308,-0.948,0.0
8.607,0.372,-0.909,0.0
8.203,0.353,-0.913,0.0
7.881,0.338,-0.923,0.0
7.567,0.324,-0.93,0.0
7.311,0.312,-0.941,0.0
7.073,0.301,-0.951,0.0
8.577,0.362,-0.91,0.0
8.169,0.343,-0.913,0.0
7.864,0.329,-0.924,0.0
7.551,0.315,-0.931,0.0
7.254,0.302,-0.936,0.0
7.022,0.291,-0.947,0.0
8.572,0.352,-0.913,0.0
8.142,0.334,-0.914,0.0
7.857,0.321,-0.927,0.0
7.527,0.306,-0.932,0.0
7.276,0.295,-0.942,0.0
7.023,0.284,-0.95,0.0
8.56,0.343,-0.916,0.0
8.133,0.325,-0.916,0.0
7.832,0.311,-0.927,0.0
7.53,0.298,-0.935,0.0
7.255,0.286,-0.942,0.0
7.001,0.275,-0.949,0.0
8.496,0.331,-0.912,0.0
8.144,0.316,-0.92,0.0
7.813,0.302,-0.927,0.0
7.532,0.29,-0.938,0.0
7.259,0.279,-0.945,0.0
6.98,0.267,-0.949,0.0
8.488,0.322,-0.914,0.0
8.099,0.306,-0.918,0.0
7.77,0.292,-0.924,0.0
7.49,0.28,-0.935,0.0
7.249,0.27,-0.946,0.0
6.988,0.259,-0.952,0.0
8.472,0.312,-0.914,0.0
8.111,0.297,-0.921,0.0
7.808,0.285,-0.931,0.0
7.467,0.271,-0.934,0.0
7.236,0.262,-0.946,0.0
6.956,0.25,-0.949,0.0
8.46,0.302,-0.915,0.0
8.105,0.288,-0.922,0.0
7.751,0.274,-0.926,0.0
7.486,0.264,-0.937,0.0
7.223,0.253,-0.946,0.0
6.947,0.242,-0.949,0.0
8.446,0.292,-0.915,0.0
8.065,0.277,-0.919,0.0
7.775,0.266,-0.93,0.0
7.451,0.254,-0.934,0.0
7.213,0.244,-0.945,0.0
6.969,0.235,-0.953,0.0
8.464,0.283,-0.918,0.0
8.063,0.268,-0.92,0.0
7.745,0.256,-0.927,0.0
7.458,0.246,-0.936,0.0
7.22,0.236,-0.947,0.0
6.95,0.226,-0.951,0.0
8.458,0.273,-0.918,0.0
8.105,0.26,-0.925,0.0
7.784,0.249,-0.932,0.0
7.477,0.238,-0.939,0.0
7.197,0.227,-0.944,0.0
6.945,0.218,-0.951,0.0
8.474,0.264,-0.92,0.0
8.08,0.25,-0.922,0.0
7.773,0.239,-0.931,0.0
7.449,0.228,-0.935,0.0
7.213,0.219,-0.947,0.0
6.966,0.211,-0.954,0.0
8.444,0.253,-0.916,0.0
8.081,0.241,-0.922,0.0
7.766,0.23,-0.93,0.0
7.471,0.22,-0.938,0.0
7.218,0.211,-0.947,0.0
6.973,0.203,-0.955,0.0
8.489,0.245,-0.921,0.0
8.107,0.232,-0.925,0.0
7.746,0.22,-0.927,0.0
7.468,0.211,-0.937,0.0
7.21,0.203,-0.945,0.0
6.982,0.195,-0.955,0.0
8.478,0.234,-0.919,0.0
8.126,0.223,-0.926,0.0
7.781,0.212,-0.931,0.0
7.496,0.203,-0.94,0.0
7.229,0.195,-0.947,0.0
6.972,0.186,-0.953,0.0
8.481,0.225,-0.918,0.0
8.117,0.213,-0.924,0.0
7.794,0.203,-0.931,0.0
7.511,0.195,-0.94,0.0
7.242,0.186,-0.947,0.0
6.996,0.179,-0.955,0.0
8.497,0.215,-0.918,0.0
8.148,0.205,-0.926,0.0
7.838,0.195,-0.935,0.0
7.506,0.186,-0.938,0.0
7.254,0.178,-0.947,0.0
6.981,0.17,-0.951,0.0
8.531,0.206,-0.92,0.0
8.158,0.195,-0.925,0.0
7.868,0.187,-0.936,0.0
7.508,0.177,-0.936,0.0
7.286,0.17,-0.949,0.0
7.031,0.163,-0.956,0.0
8.554,0.196,-0.92,0.0
8.227,0.187,-0.93,0.0
7.842,0.177,-0.931,0.0
7.523,0.168,-0.936,0.0
7.275,0.161,-0.946,0.0
7.024,0.154,-0.953,0.0
8.588,0.187,-0.921,0.0
8.208,0.177,-0.926,0.0
7.838,0.168,-0.928,0.0
7.506,0.159,-0.931,0.0
7.292,0.153,-0.945,0.0
7.042,0.146,-0.952,0.0
8.607,0.177,-0.919,0.0
8.301,0.169,-0.933,0.0
7.912,0.16,-0.933,0.0
7.55,0.151,-0.934,0.0
7.292,0.145,-0.942,0.0
7.044,0.138,-0.95,0.0
8.662,0.168,-0.922,0.0
8.319,0.16,-0.931,0.0
7.961,0.151,-0.936,0.0
7.602,0.143,-0.937,0.0
7.327,0.136,-0.943,0.0
7.078,0.13,-0.951,0.0
8.691,0.159,-0.921,0.0
8.286,0.15,-0.924,0.0
7.931,0.142,-0.928,0.0
7.603,0.134,-0.933,0.0
7.365,0.129,-0.945,0.0
7.107,0.123,-0.951,0.0
8.718,0.149,-0.919,0.0
8.357,0.141,-0.927,0.0
8.014,0.134,-0.934,0.0
7.674,0.127,-0.937,0.0
7.39,0.12,-0.944,0.0
7.137,0.115,-0.951,0.0
8.761,0.14,-0.919,0.0
8.408,0.132,-0.928,0.0
8.04,0.125,-0.932,0.0
7.72,0.118,-0.939,0.0
7.42,0.112,-0.943,0.0
7.156,0.107,-0.95,0.0
8.792,0.13,-0.917,0.0
8.459,0.123,-0.929,0.0
8.094,0.116,-0.933,0.0
7.748,0.11,-0.937,0.0
7.453,0.104,-0.943,0.0
7.196,0.099,-0.95,0.0
8.856,0.121,-0.918,0.0
8.483,0.114,-0.926,0.0
8.109,0.107,-0.93,0.0
7.79,0.102,-0.937,0.0
7.464,0.096,-0.939,0.0
7.203,0.091,-0.946,0.0
8.95,0.112,-0.921,0.0
8.508,0.105,-0.923,0.0
8.137,0.099,-0.927,0.0
7.815,0.093,-0.934,0.0
7.495,0.088,-0.938,0.0
7.243,0.084,-0.946,0.0
9.03,0.103,-0.923,0.0
8.566,0.096,-0.922,0.0
8.201,0.09,-0.928,0.0
7.888,0.085,-0.937,0.0
7.548,0.08,-0.938,0.0
7.269,0.076,-0.944,0.0
9.087,0.094,-0.922,0.0
8.627,0.087,-0.922,0.0
8.272,0.082,-0.93,0.0
7.918,0.077,-0.934,0.0
7.616,0.072,-0.941,0.0
7.343,0.068,-0.948,0.0
9.135,0.084,-0.919,0.0
8.681,0.078,-0.921,0.0
8.341,0.074,-0.931,0.0
7.966,0.069,-0.933,0.0
7.699,0.065,-0.944,0.0
7.387,0.061,-0.947,0.0
9.196,0.075,-0.917,0.0
8.748,0.069,-0.92,0.0
8.378,0.065,-0.927,0.0
8.026,0.061,-0.933,0.0
7.7,0.057,-0.938,0.0
7.422,0.053,-0.945,0.0
9.269,0.066,-0.916,0.0
8.819,0.06,-0.92,0.0
8.446,0.056,-0.927,0.0
8.057,0.052,-0.929,0.0
7.793,0.049,-0.941,0.0
7.462,0.045,-0.942,0.0
9.357,0.056,-0.916,0.0
8.937,0.052,-0.923,0.0
8.51,0.048,-0.926,0.0
8.156,0.044,-0.933,0.0
7.837,0.041,-0.939,0.0
7.524,0.038,-0.943,0.0
9.392,0.047,-0.91,0.0
9.004,0.043,-0.921,0.0
8.568,0.039,-0.923,0.0
8.247,0.036,-0.935,0.0
7.921,0.033,-0.941,0.0
7.582,0.03,-0.942,0.0
9.554,0.038,-0.916,0.0
9.116,0.034,-0.923,0.0
8.689,0.031,-0.927,0.0
8.296,0.028,-0.931,0.0
7.991,0.025,-0.941,0.0
7.62,0.023,-0.939,0.0
9.627,0.028,-0.913,0.0
9.167,0.025,-0.919,0.0
8.735,0.022,-0.923,0.0
8.369,0.02,-0.93,0.0
8.071,0.018,-0.941,0.0
7.714,0.015,-0.942,0.0
9.701,0.019,-0.909,0.0
9.251,0.017,-0.917,0.0
8.799,0.014,-0.92,0.0
8.465,0.012,-0.932,0.0
8.118,0.01,-0.937,0.0
7.767,0.008,-0.939,0.0
9.824,0.01,-0.909,0.0
9.39,0.008,-0.92,0.0
8.933,0.006,-0.923,0.0
8.493,0.004,-0.925,0.0
8.203,0.002,-0.937,0.0
7.86,0.001,-0.941,0.0
9.975,0.001,-0.911,0.0
9.441,0.0,-0.913,0.0
9.045,-0.002,-0.924,0.0
8.633,-0.003,-0.929,0.0
8.266,-0.005,-0.934,0.0
7.926,-0.006,-0.939,0.0
10.095,-0.008,-0.91,0.0
9.582,-0.009,-0.915,0.0
9.115,-0.01,-0.92,0.0
8.733,-0.011,-0.929,0.0
8.341,-0.012,-0.932,0.0
7.991,-0.013,-0.937,0.0
10.21,-0.017,-0.907,0.0
9.66,-0.018,-0.91,0.0
9.215,-0.018,-0.918,0.0
8.827,-0.019,-0.928,0.0
8.444,-0.02,-0.933,0.0
8.093,-0.02,-0.938,0.0
10.329,-0.026,-0.904,0.0
9.853,-0.027,-0.915,0.0
9.341,-0.027,-0.918,0.0
8.92,-0.027,-0.926,0.0
8.541,-0.027,-0.932,0.0
8.175,-0.028,-0.936,0.0
10.46,-0.035,-0.902,0.0
9.972,-0.035,-0.913,0.0
9.469,-0.035,-0.918,0.0
9.047,-0.035,-0.926,0.0
8.631,-0.035,-0.93,0.0
8.271,-0.035,-0.936,0.0
10.633,-0.045,-0.902,0.0
10.084,-0.044,-0.91,0.0
9.538,-0.043,-0.911,0.0
9.111,-0.043,-0.92,0.0
8.759,-0.043,-0.932,0.0
8.356,-0.042,-0.934,0.0
10.754,-0.054,-0.897,0.0
10.24,-0.053,-0.909,0.0
9.743,-0.052,-0.917,0.0
9.234,-0.051,-0.919,0.0
8.835,-0.05,-0.927,0.0
8.479,-0.049,-0.935,0.0
10.941,-0.063,-0.897,0.0
10.384,-0.062,-0.907,0.0
9.87,-0.06,-0.915,0.0
9.409,-0.059,-0.923,0.0
8.958,-0.057,-0.927,0.0
8.55,-0.056,-0.93,0.0
11.114,-0.072,-0.895,0.0
10.543,-0.07,-0.905,0.0
10.0,-0.068,-0.912,0.0
9.529,-0.067,-0.92,0.0
9.064,-0.065,-0.924,0.0
8.66,-0.063,-0.929,0.0
11.297,-0.082,-0.893,0.0
10.708,-0.079,-0.903,0.0
10.141,-0.076,-0.909,0.0
9.657,-0.074,-0.918,0.0
9.18,-0.072,-0.921,0.0
8.783,-0.07,-0.929,0.0
11.48,-0.091,-0.889,0.0
10.851,-0.088,-0.898,0.0
10.31,-0.085,-0.908,0.0
9.806,-0.082,-0.917,0.0
9.362,-0.08,-0.925,0.0
8.917,-0.077,-0.928,0.0
11.684,-0.101,-0.887,0.0
11.061,-0.097,-0.898,0.0
10.473,-0.093,-0.906,0.0
9.939,-0.09,-0.913,0.0
9.48,-0.087,-0.922,0.0
9.055,-0.084,-0.928,0.0
11.904,-0.11,-0.885,0.0
11.234,-0.105,-0.894,0.0
10.639,-0.101,-0.903,0.0
10.123,-0.097,-0.914,0.0
9.601,-0.094,-0.918,0.0
9.17,-0.091,-0.925,0.0
12.095,-0.119,-0.879,0.0
11.422,-0.114,-0.89,0.0
10.846,-0.109,-0.903,0.0
10.27,-0.105,-0.91,0.0
9.792,-0.101,-0.92,0.0
9.319,-0.098,-0.925,0.0
12.359,-0.129,-0.878,0.0
11.635,-0.122,-0.887,0.0
11.03,-0.117,-0.899,0.0
10.46,-0.113,-0.909,0.0
9.935,-0.108,-0.916,0.0
9.414,-0.104,-0.918,0.0
12.569,-0.137,-0.871,0.0
11.858,-0.131,-0.884,0.0
11.198,-0.125,-0.894,0.0
10.624,-0.12,-0.905,0.0
10.11,-0.115,-0.915,0.0
9.623,-0.111,-0.922,0.0
12.833,-0.147,-0.868,0.0
12.097,-0.14,-0.882,0.0
11.416,-0.133,-0.892,0.0
10.828,-0.127,-0.904,0.0
10.269,-0.122,-0.912,0.0
9.787,-0.117,-0.92,0.0
13.096,-0.156,-0.863,0.0
12.318,-0.148,-0.876,0.0
11.629,-0.141,-0.888,0.0
11.006,-0.135,-0.9,0.0
10.458,-0.129,-0.91,0.0
9.924,-0.123,-0.916,0.0
13.416,-0.166,-0.86,0.0
12.593,-0.157,-0.873,0.0
11.84,-0.149,-0.883,0.0
11.203,-0.142,-0.896,0.0
10.654,-0.136,-0.908,0.0
10.103,-0.13,-0.914,0.0
13.765,-0.176,-0.858,0.0
12.895,-0.166,-0.871,0.0
12.105,-0.157,-0.881,0.0
11.462,-0.149,-0.896,0.0
10.822,-0.142,-0.903,0.0
10.302,-0.136,-0.913,0.0
14.112,-0.185,-0.854,0.0
13.134,-0.174,-0.864,0.0
12.344,-0.164,-0.876,0.0
11.669,-0.156,-0.891,0.0
11.06,-0.149,-0.902,0.0
10.486,-0.142,-0.911,0.0
14.338,-0.193,-0.842,0.0
13.496,-0.183,-0.863,0.0
12.633,-0.172,-0.874,0.0
11.911,-0.163,-0.887,0.0
11.282,-0.156,-0.899,0.0
10.669,-0.148,-0.906,0.0
14.919,-0.205,-0.848,0.0
13.809,-0.191,-0.857,0.0
12.908,-0.18,-0.869,0.0
12.117,-0.169,-0.88,0.0
11.517,-0.162,-0.896,0.0
10.9,-0.154,-0.906,0.0
15.218,-0.214,-0.837,0.0
14.18,-0.2,-0.854,0.0
13.208,-0.187,-0.864,0.0
12.405,-0.177,-0.877,0.0
11.721,-0.168,-0.89,0.0
11.112,-0.16,-0.902,0.0
15.655,-0.223,-0.831,0.0
14.556,-0.208,-0.849,0.0
13.567,-0.195,-0.861,0.0
12.682,-0.183,-0.873,0.0
12.04,-0.175,-0.892,0.0
11.348,-0.165,-0.899,0.0
16.126,-0.233,-0.826,0.0
15.026,-0.218,-0.847,0.0
13.922,-0.203,-0.858,0.0
13.026,-0.19,-0.871,0.0
12.171,-0.178,-0.878,0.0
11.6,-0.171,-0.897,0.0
16.712,-0.244,-0.824,0.0
15.465,-0.227,-0.843,0.0
14.292,-0.21,-0.853,0.0
13.327,-0.196,-0.866,0.0
12.506,-0.185,-0.878,0.0
11.784,-0.175,-0.888,0.0
17.243,-0.254,-0.816,0.0
15.838,-0.234,-0.832,0.0
14.734,-0.218,-0.85,0.0
13.684,-0.203,-0.862,0.0
12.829,-0.191,-0.875,0.0
12.086,-0.18,-0.887,0.0
17.899,-0.265,-0.812,0.0
16.312,-0.242,-0.825,0.0
15.134,-0.225,-0.844,0.0
14.025,-0.209,-0.856,0.0
13.143,-0.196,-0.87,0.0
12.305,-0.184,-0.879,0.0
18.624,-0.276,-0.809,0.0
16.903,-0.251,-0.821,0.0
15.611,-0.233,-0.839,0.0
14.383,-0.215,-0.849,0.0
13.482,-0.201,-0.866,0.0
12.62,-0.189,-0.876,0.0
19.215,-0.285,-0.796,1.0
17.524,-0.261,-0.817,0.0
16.049,-0.239,-0.831,0.0
14.884,-0.222,-0.849,0.0
13.851,-0.207,-0.862,0.0
12.943,-0.193,-0.873,0.0
19.752,-0.293,-0.779,1.0
18.127,-0.269,-0.809,0.0
16.606,-0.246,-0.827,0.0
15.381,-0.228,-0.847,0.0
14.237,-0.211,-0.858,0.0
13.267,-0.197,-0.868,0.0
20.008,-0.295,-0.749,1.0
18.892,-0.279,-0.805,0.0
17.144,-0.253,-0.819,0.0
15.761,-0.233,-0.836,0.0
14.632,-0.216,-0.852,0.0
13.624,-0.201,-0.864,0.0
21.245,-0.311,-0.753,0.0
19.504,-0.285,-0.792,1.0
17.795,-0.26,-0.814,0.0
16.192,-0.237,-0.826,0.0
15.096,-0.221,-0.848,0.0
13.997,-0.205,-0.859,0.0
22.055,-0.32,-0.736,0.0
19.871,-0.288,-0.766,3.0
18.567,-0.269,-0.812,0.0
16.869,-0.244,-0.826,0.0
15.544,-0.224,-0.842,0.0
14.418,-0.208,-0.856,0.0
22.94,-0.328,-0.72,0.0
20.244,-0.289,-0.74,0.0
19.157,-0.273,-0.799,1.0
17.483,-0.249,-0.821,0.0
15.984,-0.227,-0.833,0.0
14.916,-0.212,-0.855,0.0
24.323,-0.342,-0.714,0.0
21.675,-0.304,-0.748,0.0
19.766,-0.277,-0.784,1.0
18.086,-0.253,-0.813,0.0
16.575,-0.231,-0.831,0.0
15.334,-0.214,-0.848,0.0
25.343,-0.35,-0.693,0.0
22.579,-0.311,-0.734,0.0
19.84,-0.273,-0.747,3.0
18.881,-0.259,-0.81,0.0
17.106,-0.234,-0.823,0.0
15.694,-0.214,-0.836,0.0
26.472,-0.358,-0.67,0.0
23.565,-0.317,-0.718,0.0
21.278,-0.286,-0.758,0.0
19.444,-0.26,-0.795,1.0
17.753,-0.237,-0.817,0.0
16.237,-0.216,-0.831,0.0
0.0,0.0,0.0,0.0
24.926,-0.327,-0.708,0.0
22.232,-0.291,-0.746,0.0
19.799,-0.258,-0.769,3.0
18.487,-0.24,-0.813,0.0
16.845,-0.218,-0.828,0.0
29.434,-0.376,-0.624,0.0
25.966,-0.331,-0.685,0.0
23.044,-0.292,-0.727,0.0
19.841,-0.25,-0.73,2.0
19.138,-0.24,-0.803,1.0
17.451,-0.218,-0.822,0.0
30.629,-0.379,-0.587,0.0
26.97,-0.332,-0.656,0.0
24.276,-0.297,-0.716,0.0
21.636,-0.264,-0.752,0.0
19.685,-0.238,-0.785,3.0
18.125,-0.218,-0.817,0.0
0.0,0.0,0.0,0.0
28.866,-0.342,-0.643,0.0
25.506,-0.3,-0.7,0.0
22.547,-0.264,-0.737,0.0
19.778,-0.23,-0.749,6.0
18.895,-0.218,-0.813,0.0
35.216,-0.402,-0.531,0.0
30.074,-0.341,-0.609,0.0
26.428,-0.298,-0.671,0.0
23.359,-0.261,-0.716,0.0
20.081,-0.223,-0.719,0.0
19.5,-0.215,-0.799,3.0
0.0,0.0,0.0,0.0
31.875,-0.344,-0.58,0.0
28.043,-0.301,-0.655,0.0
24.923,-0.265,-0.713,0.0
22.222,-0.234,-0.75,0.0
19.733,-0.206,-0.768,7.0
0.0,0.0,0.0,0.0
34.033,-0.348,-0.55,0.0
29.295,-0.297,-0.625,0.0
25.918,-0.26,-0.689,0.0
23.011,-0.229,-0.73,0.0
19.781,-0.195,-0.73,7.0
19.833,-0.192,-0.179,0.0
19.774,-0.19,-0.28,5.0
19.771,-0.188,-0.382,8.0
19.764,-0.186,-0.486,3.0
24.324,-0.226,-0.723,0.0
21.745,-0.2,-0.758,0.0
19.786,-0.179,-0.138,4.0
19.761,-0.177,-0.24,11.0
19.753,-0.175,-0.341,10.0
19.743,-0.172,-0.445,11.0
19.755,-0.17,-0.547,9.0
19.773,-0.168,-0.65,7.0
19.773,-0.165,-0.098,9.0
19.75,-0.163,-0.199,13.0
19.743,-0.161,-0.301,13.0
19.735,-0.158,-0.405,15.0
19.743,-0.156,-0.507,17.0
19.747,-0.154,-0.609,13.0
19.79,-0.151,-0.058,6.0
19.736,-0.148,-0.16,14.0
19.741,-0.146,-0.261,16.0
19.723,-0.143,-0.365,16.0
19.724,-0.141,-0.467,17.0
19.739,-0.139,-0.569,17.0
19.758,-0.136,-0.018,7.0
19.728,-0.133,-0.12,15.0
19.726,-0.131,-0.222,16.0
19.731,-0.128,-0.326,16.0
19.735,-0.126,-0.428,17.0
19.729,-0.123,-0.53,16.0
19.742,-0.12,0.02,9.0
19.727,-0.118,-0.081,10.0
19.719,-0.115,-0.183,16.0
19.733,-0.112,-0.287,16.0
19.736,-0.11,-0.389,16.0
19.742,-0.107,-0.492,16.0
19.732,-0.104,0.059,12.0
19.723,-0.101,-0.043,12.0
19.713,-0.098,-0.144,17.0
19.716,-0.095,-0.248,16.0
19.749,-0.093,-0.351,14.0
19.743,-0.09,-0.453,15.0
19.72,-0.087,0.097,15.0
19.709,-0.084,-0.004,15.0
19.714,-0.081,-0.105,15.0
19.713,-0.078,-0.209,16.0
19.757,-0.075,-0.312,14.0
19.764,-0.072,-0.414,13.0
19.705,-0.069,0.136,16.0
19.709,-0.066,0.034,15.0
19.71,-0.063,-0.067,15.0
19.717,-0.06,-0.171,15.0
19.752,-0.057,-0.273,14.0
19.78,-0.054,-0.376,2.0
19.688,-0.05,0.174,14.0
19.707,-0.047,0.072,15.0
19.712,-0.044,-0.029,16.0
19.723,-0.041,-0.133,13.0
19.75,-0.038,-0.235,12.0
19.701,-0.034,-0.337,0.0
19.651,-0.031,0.211,16.0
19.69,-0.028,0.11,13.0
19.705,-0.025,0.008,15.0
19.744,-0.021,-0.096,8.0
19.755,-0.018,-0.198,2.0
34.76,-0.026,-0.529,0.0
19.634,-0.011,0.248,14.0
19.739,-0.008,0.147,3.0
19.739,-0.005,0.045,7.0
19.736,-0.001,-0.058,9.0
19.708,0.001,-0.16,0.0
37.06,0.009,-0.495,0.0
19.625,0.008,0.285,14.0
19.643,0.011,0.183,12.0
19.784,0.015,0.082,3.0
19.715,0.018,-0.022,17.0
19.766,0.022,-0.124,2.0
19.761,0.026,-0.227,6.0
19.624,0.029,0.321,17.0
19.633,0.032,0.22,16.0
19.734,0.036,0.119,11.0
19.734,0.04,0.014,17.0
19.762,0.044,-0.088,22.0
19.766,0.047,-0.19,15.0
19.615,0.051,0.358,14.0
19.627,0.054,0.256,12.0
19.672,0.058,0.154,10.0
19.745,0.062,0.05,34.0
19.771,0.066,-0.051,64.0
19.767,0.07,-0.154,55.0
19.622,0.073,0.394,27.0
19.615,0.077,0.292,14.0
19.63,0.08,0.19,12.0
19.675,0.084,0.086,15.0
19.739,0.089,-0.015,13.0
19.764,0.093,-0.118,1.0
19.619,0.096,0.43,30.0
19.621,0.1,0.328,19.0
19.622,0.104,0.225,11.0
19.642,0.108,0.121,13.0
19.649,0.112,0.019,13.0
19.68,0.116,-0.083,6.0
19.6,0.119,0.464,18.0
19.605,0.123,0.362,12.0
19.621,0.127,0.26,10.0
19.642,0.132,0.156,15.0
19.639,0.136,0.054,13.0
19.642,0.14,-0.048,14.0
19.603,0.143,0.499,15.0
19.607,0.147,0.397,11.0
19.625,0.152,0.295,11.0
19.655,0.156,0.19,15.0
19.65,0.16,0.088,12.0
19.642,0.164,-0.014,20.0
19.615,0.168,0.533,12.0
19.625,0.172,0.431,10.0
19.649,0.177,0.329,9.0
19.657,0.181,0.224,10.0
19.667,0.185,0.122,11.0
19.654,0.189,0.019,13.0
19.692,0.194,0.569,10.0
19.698,0.198,0.466,9.0
19.721,0.203,0.363,10.0
19.735,0.207,0.259,9.0
19.742,0.212,0.155,17.0
19.681,0.215,0.052,9.0
19.674,0.22,0.602,10.0
19.687,0.224,0.499,10.0
19.699,0.229,0.396,10.0
19.718,0.233,0.291,11.0
19.748,0.238,0.188,26.0
19.753,0.242,0.085,9.0
19.653,0.245,0.634,15.0
19.656,0.25,0.531,13.0
19.681,0.255,0.428,10.0
19.698,0.259,0.323,13.0
19.728,0.264,0.22,17.0
19.78,0.27,0.117,8.0
19.645,0.272,0.666,14.0
19.651,0.277,0.563,13.0
19.681,0.282,0.46,11.0
19.703,0.287,0.355,13.0
19.73,0.292,0.252,5.0
160.7,2.416,1.212,11.0
19.664,0.3,0.698,8.0
19.668,0.305,0.594,10.0
19.688,0.309,0.491,8.0
19.717,0.314,0.386,3.0
55.217,0.894,0.793,2.0
55.196,0.907,0.503,20.0
55.211,0.921,2.047,42.0
55.192,0.933,1.755,30.0
55.177,0.946,1.464,62.0
55.153,0.959,1.168,69.0
55.165,0.972,0.877,73.0
55.168,0.985,0.587,70.0
55.191,1.0,2.131,66.0
55.193,1.013,1.84,52.0
55.189,1.026,1.549,44.0
55.196,1.04,1.253,28.0
55.217,1.053,0.962,11.0
162.873,3.148,1.981,22.0
121.302,2.376,4.87,19.0
135.233,2.681,4.714,18.0
135.137,2.712,3.997,18.0
185.583,3.769,4.491,5.0
179.297,3.685,3.392,28.0
163.044,3.392,2.225,20.0
121.427,2.558,5.054,22.0
121.249,2.583,4.406,12.0
135.213,2.915,4.199,16.0
135.092,2.946,3.467,3.0
179.229,3.952,3.652,36.0
128.942,2.876,1.947,20.0
115.088,2.597,4.957,4.0
121.15,2.764,4.577,24.0
114.986,2.652,3.736,14.0
98.592,2.299,2.672,71.0
98.845,2.33,2.155,90.0
98.845,2.355,1.633,113.0
128.93,3.108,5.739,7.0
113.566,2.765,4.452,15.0
114.034,2.805,3.865,12.0
115.447,2.87,3.29,19.0
138.752,3.484,3.219,14.0
45.522,1.154,0.815,1.0
0.0,0.0,0.0,0.0
0.0,0.0,0.0,0.0
43.712,1.143,1.542,35.0
43.719,1.154,1.305,140.0
0.0,0.0,0.0,0.0
0.0,0.0,0.0,0.0
41.912,1.141,1.981,117.0
41.914,1.151,1.757,150.0
0.0,0.0,0.0,0.0
0.0,0.0,0.0,0.0
40.107,1.133,1.038,84.0
40.126,1.144,0.825,113.0
40.114,1.156,1.949,131.0
40.118,1.166,1.735,128.0
40.1,1.176,1.521,143.0
40.113,1.187,1.304,148.0
40.117,1.197,1.09,150.0
40.12,1.208,0.877,150.0
40.116,1.22,2.0,118.0
40.116,1.23,1.786,99.0
40.121,1.241,1.572,122.0
40.113,1.251,1.354,141.0
40.117,1.261,1.14,150.0
40.122,1.272,0.927,150.0
40.123,1.285,2.051,105.0
40.121,1.295,1.836,130.0
40.124,1.306,1.622,108.0
40.09,1.315,1.402,75.0
40.105,1.325,1.188,10.0
40.13,1.337,0.975,2.0
128.207,4.314,6.708,5.0
120.287,4.078,5.649,14.0
120.045,4.102,4.996,9.0
120.318,4.143,4.351,18.0
121.025,4.198,3.729,16.0
163.413,5.713,4.163,10.0
135.46,4.781,7.248,19.0
121.04,4.303,5.826,12.0
120.105,4.302,5.138,18.0
120.339,4.342,4.491,17.0
162.601,5.908,5.196,10.0
43.73,1.6,1.163,99.0
121.175,4.477,6.62,12.0
121.012,4.502,5.961,15.0
120.156,4.501,5.273,17.0
178.643,6.739,6.863,10.0
162.603,6.178,5.375,9.0
41.275,1.579,1.143,67.0
120.947,4.67,6.741,17.0
120.865,4.698,6.085,19.0
180.238,7.052,8.106,8.0
178.648,7.035,7.054,18.0
178.937,7.095,6.105,13.0
40.371,1.611,1.161,68.0
120.785,4.867,6.86,24.0
121.008,4.908,6.221,17.0
180.629,7.372,8.312,8.0
178.926,7.351,7.254,19.0
0.0,0.0,0.0,0.0
163.457,6.8,4.867,14.0
120.761,5.07,6.983,13.0
23.617,0.997,1.238,1.0
23.601,1.003,1.109,21.0
23.62,1.01,0.981,35.0
23.602,1.015,0.853,44.0
23.604,1.021,0.726,47.0
23.587,1.03,1.387,46.0
23.574,1.036,1.259,47.0
23.574,1.042,1.131,56.0
23.571,1.048,1.002,69.0
23.577,1.054,0.874,69.0
23.584,1.061,0.747,100.0
23.568,1.069,1.408,78.0
23.569,1.075,1.28,76.0
23.563,1.081,1.152,70.0
23.569,1.088,1.023,68.0
23.576,1.094,0.896,70.0
23.576,1.1,0.768,59.0
23.576,1.11,1.43,50.0
23.588,1.116,1.302,42.0
23.6,1.123,1.175,40.0
23.607,1.129,1.045,39.0
23.6,1.136,0.917,26.0
23.597,1.141,0.789,13.0
45.555,2.223,2.802,11.0
23.551,1.155,1.321,0.0
0.0,0.0,0.0,0.0
179.871,8.922,8.12,12.0
179.644,8.959,7.136,21.0
179.668,9.007,6.162,4.0
45.553,2.303,2.84,78.0
0.0,0.0,0.0,0.0
0.0,0.0,0.0,0.0
0.0,0.0,0.0,0.0
179.988,9.284,7.29,18.0
180.692,9.369,6.339,10.0
45.546,2.38,2.876,92.0
200.097,10.512,11.545,18.0
200.182,10.566,10.458,23.0
200.2,10.618,9.349,25.0
181.174,9.657,7.474,9.0
180.524,9.669,6.467,18.0
0.0,0.0,0.0,0.0
0.0,0.0,0.0,0.0
0.0,0.0,0.0,0.0
0.0,0.0,0.0,0.0
200.841,11.052,8.43,9.0
180.637,9.991,6.6,17.0
0.0,0.0,0.0,0.0
0.0,0.0,0.0,0.0
0.0,0.0,0.0,0.0
0.0,0.0,0.0,0.0
200.626,11.391,8.556,5.0
198.613,11.328,7.388,19.0
43.753,2.515,2.855,120.0
0.0,0.0,0.0,0.0
0.0,0.0,0.0,0.0
203.6,11.858,9.925,7.0
203.813,11.924,8.822,9.0
199.607,11.731,7.551,8.0
0.0,0.0,0.0,0.0
0.0,0.0,0.0,0.0
0.0,0.0,0.0,0.0
203.36,12.203,10.037,7.0
198.469,11.959,8.708,5.0
197.537,11.952,7.587,18.0
0.0,0.0,0.0,0.0
45.579,2.79,2.779,1.0
112.102,6.891,6.22,3.0
0.0,0.0,0.0,0.0
0.0,0.0,0.0,0.0
112.195,6.983,4.37,2.0
0.0,0.0,0.0,0.0
45.548,2.868,2.802,12.0
0.0,0.0,0.0,0.0
100.896,6.404,5.088,3.0
100.475,6.402,4.515,6.0
100.211,6.41,3.954,10.0
43.718,2.818,2.951,47.0
99.926,6.466,6.195,22.0
99.937,6.49,5.646,35.0
99.95,6.516,5.087,35.0
99.988,6.543,4.539,37.0
99.974,6.567,3.99,35.0
41.98,2.778,2.853,147.0
45.541,3.024,2.844,21.0
99.933,6.66,5.69,34.0
99.955,6.686,5.131,36.0
99.955,6.71,4.58,38.0
99.969,6.737,4.031,36.0
0.0,0.0,0.0,0.0
45.522,3.101,2.861,88.0
45.542,3.113,2.611,97.0
99.96,6.857,5.17,39.0
99.983,6.883,4.619,35.0
99.973,6.907,4.068,33.0
0.0,0.0,0.0,0.0
43.764,3.056,2.767,150.0
45.544,3.191,2.627,133.0
99.947,7.027,5.203,36.0
99.966,7.052,4.653,34.0
99.959,7.075,4.101,28.0
0.0,0.0,0.0,0.0
43.758,3.13,2.78,150.0
45.453,3.262,2.636,138.0
45.464,3.273,2.381,150.0
45.472,3.284,2.13,150.0
45.464,3.295,1.879,150.0
0.0,0.0,0.0,0.0
41.968,3.073,2.678,104.0
0.0,0.0,0.0,0.0
0.0,0.0,0.0,0.0
43.665,3.227,2.056,35.0
43.683,3.239,1.816,108.0
0.0,0.0,0.0,0.0
41.966,3.143,2.688,103.0
43.661,3.279,2.554,150.0
43.684,3.291,2.309,134.0
43.678,3.301,2.066,135.0
43.671,3.311,1.824,150.0
40.168,3.067,2.805,135.0
40.162,3.075,2.581,87.0
41.869,3.215,2.457,9.0
41.857,3.224,2.22,41.0
41.873,3.235,1.988,83.0
41.894,3.246,1.757,150.0
40.169,3.134,2.811,103.0
40.173,3.143,2.588,133.0
41.886,3.286,2.465,119.0
41.88,3.295,2.228,150.0
41.87,3.304,1.994,77.0
41.881,3.314,1.762,150.0
40.114,3.196,2.812,29.0
40.128,3.206,2.59,14.0
40.068,3.21,2.362,35.0
40.055,3.218,2.134,76.0
40.092,3.23,1.913,92.0
40.093,3.238,1.691,140.0
40.085,3.26,2.814,104.0
40.088,3.268,2.59,117.0
40.081,3.276,2.366,134.0
40.084,3.285,2.138,118.0
40.083,3.294,1.915,133.0
40.084,3.303,1.692,150.0
40.088,3.325,2.816,101.0
40.08,3.332,2.591,114.0
40.088,3.341,2.367,117.0
40.084,3.349,2.139,114.0
40.095,3.359,1.916,112.0
40.084,3.367,1.692,140.0
40.065,3.387,2.814,80.0
40.069,3.395,2.59,58.0
40.064,3.403,2.365,24.0
40.066,3.411,2.137,7.0
87.081,7.432,4.159,12.0
87.096,7.453,3.674,22.0
87.063,7.498,6.112,64.0
87.054,7.514,5.623,59.0
87.058,7.532,5.135,44.0
87.066,7.551,4.64,33.0
87.082,7.57,4.154,44.0
87.084,7.588,3.668,18.0
87.067,7.635,6.106,14.0
0.0,0.0,0.0,0.0
83.035,7.313,4.891,1.0
82.939,7.321,4.412,2.0
82.952,7.338,3.948,3.0
82.954,7.356,3.484,3.0
82.931,7.399,5.805,11.0
82.932,7.414,5.34,11.0
82.909,7.429,4.873,14.0
82.927,7.446,4.4,20.0
82.905,7.46,3.934,24.0
82.914,7.477,3.47,33.0
82.902,7.522,5.79,38.0
82.893,7.536,5.323,27.0
82.903,7.552,4.858,24.0
82.918,7.57,4.385,28.0
82.934,7.587,3.92,14.0
82.917,7.602,3.455,11.0
82.996,7.655,5.781,5.0
82.974,7.668,5.312,3.0
82.938,7.68,4.843,3.0
82.958,7.697,4.369,4.0
82.998,7.717,3.905,11.0
82.943,7.728,3.437,1.0
85.975,8.057,5.968,4.0
85.884,8.064,5.478,10.0
85.801,8.071,4.988,10.0
85.601,8.068,4.487,4.0
82.911,7.829,3.88,28.0
85.432,8.084,3.517,11.0
82.992,7.899,5.738,4.0
84.576,8.063,5.371,9.0
84.423,8.064,4.885,10.0
17.226,1.648,0.898,1.0
82.923,7.949,3.856,27.0
84.193,8.087,3.442,9.0
82.946,8.013,5.709,10.0
83.021,8.034,5.245,7.0
83.025,8.048,4.777,9.0
83.109,8.07,4.304,6.0
82.914,8.066,3.827,5.0
83.232,8.111,3.374,2.0
75.093,7.359,5.144,4.0
75.094,7.371,4.718,3.0
75.078,7.382,4.293,4.0
75.083,7.395,3.862,5.0
75.103,7.41,3.439,9.0
75.113,7.424,3.016,4.0
75.056,7.459,5.112,24.0
75.061,7.472,4.687,24.0
75.058,7.483,4.262,37.0
75.047,7.494,3.83,42.0
75.06,7.508,3.407,77.0
75.065,7.522,2.984,79.0
75.03,7.558,5.078,27.0
75.049,7.572,4.654,23.0
75.055,7.584,4.229,37.0
75.028,7.593,3.796,15.0
75.059,7.608,3.373,11.0
74.982,7.613,2.946,3.0
75.075,7.662,5.047,4.0
75.104,7.676,4.623,3.0
75.044,7.681,4.194,27.0
75.094,7.697,3.765,3.0
75.16,7.716,3.343,3.0
62.825,6.46,2.439,0.0
70.984,7.336,4.737,2.0
70.974,7.345,4.334,2.0
70.972,7.355,3.931,2.0
70.955,7.364,3.52,6.0
70.919,7.371,3.118,4.0
62.222,6.477,2.383,2.0
70.881,7.416,4.693,9.0
70.876,7.424,4.29,9.0
70.879,7.435,3.888,11.0
70.898,7.447,3.48,16.0
70.913,7.459,3.079,17.0
61.512,6.479,2.322,3.0
70.881,7.503,4.654,117.0
70.88,7.511,4.251,127.0
70.874,7.52,3.847,126.0
70.872,7.53,3.439,118.0
70.882,7.54,3.037,108.0
60.775,6.474,2.26,2.0
70.889,7.588,4.613,14.0
70.898,7.597,4.21,13.0
70.904,7.607,3.807,10.0
70.893,7.615,3.397,11.0
70.91,7.627,2.995,8.0
60.191,6.482,2.201,0.0
70.941,7.675,4.573,3.0
70.935,7.683,4.168,3.0
70.955,7.694,3.765,2.0
70.932,7.7,3.354,3.0
70.996,7.717,2.954,2.0
59.593,6.485,2.141,2.0
73.556,8.041,4.694,7.0
73.813,8.077,4.29,9.0
73.832,8.088,3.869,10.0
73.681,8.081,3.436,10.0
73.37,8.056,3.004,8.0
59.009,6.487,2.081,9.0
72.746,8.032,4.592,7.0
72.963,8.064,4.19,8.0
73.124,8.09,3.782,10.0
73.109,8.098,3.358,10.0
72.802,8.072,2.929,4.0
58.469,6.491,2.02,9.0
72.216,8.051,4.507,8.0
72.11,8.047,4.089,5.0
72.347,8.081,3.689,8.0
72.408,8.095,3.273,10.0
57.949,6.486,2.289,2.0
57.94,6.492,1.959,10.0
71.744,8.072,4.424,9.0
71.55,8.056,4.004,6.0
71.407,8.048,3.588,2.0
71.698,8.088,3.187,3.0
57.507,6.493,2.229,2.0
57.435,6.492,1.899,11.0
71.273,8.088,4.341,9.0
71.118,8.078,3.925,9.0
70.82,8.051,3.504,7.0
70.766,8.051,3.091,4.0
57.032,6.495,2.166,2.0
56.981,6.495,1.84,11.0
70.669,8.087,4.247,10.0
70.702,8.097,3.846,10.0
70.499,8.08,3.432,9.0
70.308,8.065,3.014,6.0
56.505,6.488,2.1,7.0
56.543,6.498,1.779,14.0
69.909,8.064,4.144,3.0
70.171,8.1,3.758,5.0
70.127,8.101,3.355,8.0
69.845,8.075,2.936,4.0
56.07,6.488,2.037,8.0
56.105,6.498,1.718,11.0
63.23,7.349,3.695,1.0
63.241,7.355,3.334,2.0
63.154,7.35,2.968,1.0
55.677,6.484,2.293,3.0
55.678,6.489,1.975,9.0
55.733,6.501,1.659,10.0
63.143,7.391,3.635,4.0
63.17,7.398,3.275,4.0
63.174,7.404,2.914,5.0
55.307,6.486,2.229,7.0
55.316,6.492,1.914,7.0
55.355,6.502,1.599,11.0
63.122,7.439,3.577,9.0
63.135,7.444,3.217,9.0
63.149,7.45,2.856,10.0
54.956,6.488,2.165,9.0
54.971,6.494,1.851,11.0
54.991,6.502,1.538,9.0
63.103,7.484,3.517,24.0
63.109,7.489,3.156,24.0
63.111,7.493,2.795,28.0
54.639,6.491,2.101,14.0
54.651,6.497,1.789,14.0
54.676,6.504,1.478,11.0
63.112,7.53,3.458,94.0
63.103,7.532,3.097,150.0
63.101,7.536,2.735,113.0
54.287,6.487,2.036,10.0
54.331,6.496,1.728,12.0
54.354,6.503,1.418,11.0
63.106,7.571,3.397,30.0
63.104,7.574,3.035,38.0
63.139,7.582,2.675,5.0
54.032,6.491,1.975,13.0
54.068,6.499,1.667,11.0
54.072,6.504,1.358,12.0
63.095,7.61,3.335,15.0
63.102,7.614,2.973,14.0
53.764,6.489,2.225,1.0
53.761,6.492,1.912,11.0
53.799,6.5,1.605,12.0
53.839,6.508,1.298,13.0
63.1,7.647,3.271,7.0
63.121,7.652,2.911,7.0
53.527,6.491,2.162,6.0
53.537,6.495,1.85,11.0
53.579,6.503,1.545,11.0
53.584,6.507,1.238,13.0
63.14,7.686,3.209,5.0
63.176,7.692,2.849,4.0
53.288,6.491,2.097,8.0
53.328,6.498,1.788,11.0
53.353,6.504,1.483,12.0
53.381,6.51,1.179,13.0
63.199,7.725,3.148,3.0
63.148,7.72,2.782,2.0
53.102,6.494,2.035,13.0
53.131,6.499,1.726,12.0
53.179,6.508,1.423,12.0
53.196,6.512,1.119,12.0
63.211,7.755,3.08,1.0
52.844,6.484,2.272,1.0
52.913,6.494,1.972,13.0
52.952,6.501,1.664,12.0
52.986,6.507,1.362,12.0
53.02,6.513,1.059,10.0
65.639,8.079,3.13,3.0
52.725,6.49,2.211,2.0
52.762,6.496,1.91,11.0
52.793,6.502,1.603,12.0
52.85,6.51,1.302,13.0
52.858,6.514,1.0,13.0
65.391,8.072,3.048,7.0
52.561,6.489,2.147,2.0
52.634,6.499,1.849,11.0
52.693,6.508,1.543,13.0
52.732,6.514,1.242,14.0
52.754,6.518,0.941,14.0
65.207,8.071,2.967,8.0
52.471,6.495,2.086,3.0
52.523,6.502,1.787,9.0
52.565,6.508,1.482,11.0
52.596,6.513,1.181,13.0
52.65,6.521,0.881,13.0
65.16,8.082,2.894,3.0
52.369,6.496,2.025,4.0
52.434,6.504,1.726,9.0
52.463,6.508,1.421,12.0
52.52,6.517,1.121,13.0
52.558,6.523,0.821,12.0
52.239,6.491,2.261,1.0
52.292,6.498,1.963,7.0
52.352,6.505,1.664,9.0
52.397,6.511,1.36,12.0
52.438,6.517,1.061,13.0
52.482,6.524,0.761,11.0
52.175,6.493,2.199,2.0
52.242,6.501,1.902,5.0
52.303,6.508,1.604,8.0
52.353,6.515,1.3,14.0
52.397,6.521,1.0,13.0
52.438,6.527,0.7,11.0
52.147,6.497,2.139,3.0
52.219,6.505,1.842,5.0
52.226,6.505,1.542,9.0
52.304,6.515,1.239,13.0
52.35,6.521,0.94,13.0
52.391,6.526,0.64,10.0
52.094,6.495,2.077,4.0
52.167,6.503,1.781,8.0
52.249,6.512,1.483,9.0
52.304,6.519,1.179,14.0
52.355,6.525,0.88,12.0
52.377,6.528,0.58,12.0
52.128,6.501,2.018,8.0
52.174,6.506,1.72,10.0
52.23,6.512,1.422,8.0
52.308,6.521,1.118,13.0
52.347,6.525,0.819,13.0
52.372,6.528,0.52,11.0
52.139,6.502,1.959,8.0
52.199,6.508,1.661,9.0
52.254,6.514,1.362,10.0
52.29,6.517,1.058,12.0
52.366,6.526,0.759,12.0
52.4,6.53,0.459,12.0
52.159,6.502,1.898,5.0
52.206,6.506,1.601,9.0
52.291,6.515,1.303,11.0
52.36,6.523,0.999,13.0
52.4,6.527,0.699,12.0
52.446,6.532,0.399,12.0
52.222,6.505,1.841,6.0
52.28,6.51,1.542,9.0
52.356,6.518,1.244,15.0
52.415,6.523,0.94,14.0
52.478,6.53,0.64,12.0
52.496,6.531,0.339,13.0
52.294,6.506,1.782,7.0
52.369,6.513,1.484,11.0
52.436,6.519,1.185,14.0
52.492,6.525,0.88,13.0
52.538,6.529,0.579,11.0
52.587,6.534,0.279,6.0
52.369,6.506,1.724,9.0
52.447,6.513,1.425,12.0
52.524,6.52,1.126,13.0
52.576,6.524,0.821,13.0
52.629,6.529,0.519,11.0
42.77,5.305,0.177,1.0
52.489,6.508,1.666,11.0
52.565,6.515,1.367,12.0
52.621,6.519,1.067,13.0
52.695,6.526,0.761,14.0
52.764,6.532,0.459,9.0
42.771,5.294,0.127,5.0
52.624,6.51,1.61,13.0
52.682,6.514,1.309,13.0
52.774,6.523,1.009,14.0
52.82,6.526,0.701,15.0
52.887,6.532,0.399,13.0
42.814,5.286,0.077,3.0
52.76,6.51,1.552,12.0
52.844,6.516,1.252,14.0
52.928,6.523,0.95,12.0
52.983,6.528,0.642,12.0
53.042,6.532,0.339,10.0
44.548,5.484,0.029,9.0
52.946,6.513,1.496,12.0
53.013,6.517,1.195,13.0
53.091,6.523,0.892,12.0
53.165,6.529,0.583,14.0
53.24,6.535,0.279,4.0
41.947,5.147,-0.02,5.0
53.147,6.515,1.441,12.0
53.219,6.519,1.137,12.0
