X,Y,Z,Reflectivity
30.364,-0.668,-0.6,0.0
21.714,-0.484,-0.556,154.0
21.712,-0.49,-0.681,5.0
20.465,-0.468,-0.759,0.0
0.0,0.0,0.0,0.0
33.136,-0.775,-0.507,0.0
0.0,0.0,0.0,0.0
21.713,-0.52,-0.584,2.0
21.799,-0.528,-0.711,2.0
20.041,-0.491,-0.769,0.0
0.0,0.0,0.0,0.0
32.879,-0.824,-0.545,0.0
28.389,-0.719,-0.633,0.0
24.859,-0.637,-0.699,0.0
17.793,-0.461,-0.602,1.0
17.805,-0.467,-0.705,18.0
37.023,-0.979,-0.446,0.0
31.749,-0.848,-0.564,0.0
26.887,-0.726,-0.632,0.0
17.835,-0.487,-0.523,0.0
17.785,-0.491,-0.623,154.0
17.788,-0.496,-0.726,16.0
0.0,0.0,0.0,0.0
31.5,-0.896,-0.597,0.0
26.732,-0.768,-0.66,0.0
17.8,-0.517,-0.543,6.0
17.764,-0.521,-0.644,166.0
17.782,-0.527,-0.746,7.0
0.0,0.0,0.0,0.0
0.0,0.0,0.0,0.0
25.513,-0.778,-0.659,0.0
17.819,-0.548,-0.564,0.0
17.792,-0.553,-0.665,153.0
17.788,-0.558,-0.767,3.0
0.0,0.0,0.0,0.0
28.537,-0.911,-0.606,0.0
25.107,-0.809,-0.676,0.0
22.288,-0.725,-0.73,0.0
17.824,-0.585,-0.686,0.0
17.944,-0.595,-0.793,0.0
32.504,-1.085,-0.54,0.0
27.973,-0.942,-0.624,0.0
24.551,-0.834,-0.688,0.0
21.862,-0.749,-0.739,0.0
19.714,-0.682,-0.779,0.0
17.787,-0.621,-0.805,1.0
30.964,-1.087,-0.546,0.0
0.0,0.0,0.0,0.0
23.901,-0.854,-0.694,0.0
21.317,-0.768,-0.743,0.0
19.349,-0.703,-0.785,0.0
17.577,-0.644,-0.813,0.0
30.742,-1.134,-0.573,0.0
26.818,-0.997,-0.653,0.0
23.598,-0.885,-0.709,0.0
20.846,-0.788,-0.747,0.0
19.075,-0.727,-0.792,0.0
17.332,-0.666,-0.819,0.0
30.049,-1.162,-0.589,0.0
26.076,-1.016,-0.66,0.0
22.991,-0.903,-0.713,0.0
20.513,-0.813,-0.755,0.0
18.642,-0.744,-0.792,0.0
17.048,-0.686,-0.822,0.0
29.578,-1.197,-0.608,0.0
25.639,-1.045,-0.672,0.0
22.655,-0.931,-0.723,0.0
20.302,-0.84,-0.766,0.0
18.372,-0.766,-0.797,0.0
16.829,-0.708,-0.826,0.0
29.062,-1.228,-0.623,0.0
25.047,-1.066,-0.679,0.0
22.369,-0.959,-0.734,0.0
19.994,-0.863,-0.771,0.0
18.12,-0.789,-0.802,0.0
16.582,-0.727,-0.828,0.0
0.0,0.0,0.0,0.0
24.66,-1.094,-0.689,0.0
21.905,-0.979,-0.737,0.0
19.665,-0.885,-0.775,0.0
17.949,-0.813,-0.809,0.0
16.346,-0.746,-0.83,0.0
27.594,-1.265,-0.637,0.0
24.556,-1.133,-0.706,0.0
21.544,-1.001,-0.742,0.0
19.577,-0.916,-0.787,0.0
17.794,-0.838,-0.816,0.0
16.163,-0.767,-0.834,0.0
27.036,-1.288,-0.645,0.0
23.643,-1.134,-0.698,0.0
21.211,-1.024,-0.746,0.0
19.277,-0.937,-0.79,0.0
17.572,-0.86,-0.82,0.0
15.929,-0.785,-0.833,0.0
26.885,-1.329,-0.661,0.0
23.555,-1.172,-0.712,0.0
20.945,-1.049,-0.752,0.0
18.941,-0.955,-0.789,0.0
17.224,-0.875,-0.816,0.0
15.772,-0.806,-0.836,0.0
26.492,-1.358,-0.67,0.0
23.076,-1.19,-0.714,0.0
20.775,-1.078,-0.76,0.0
18.765,-0.98,-0.795,0.0
17.152,-0.902,-0.824,0.0
15.634,-0.827,-0.839,0.0
25.833,-1.371,-0.67,0.0
22.868,-1.221,-0.722,0.0
20.557,-1.104,-0.765,0.0
18.523,-1.001,-0.796,0.0
17.009,-0.925,-0.827,0.0
15.516,-0.849,-0.843,0.0
25.534,-1.401,-0.678,0.0
22.565,-1.245,-0.726,0.0
20.337,-1.129,-0.769,0.0
18.317,-1.023,-0.798,0.0
16.774,-0.943,-0.826,0.0
15.413,-0.871,-0.846,0.0
25.025,-1.419,-0.678,0.0
22.407,-1.277,-0.734,0.0
20.055,-1.15,-0.77,0.0
18.165,-1.048,-0.802,0.0
16.665,-0.967,-0.83,0.0
15.245,-0.89,-0.845,0.0
25.148,-1.471,-0.695,0.0
22.156,-1.303,-0.737,0.0
19.926,-1.179,-0.775,0.0
18.038,-1.073,-0.805,0.0
16.596,-0.993,-0.835,0.0
15.211,-0.915,-0.851,0.0
0.0,0.0,0.0,0.0
21.875,-1.327,-0.739,0.0
19.792,-1.207,-0.78,0.0
17.909,-1.098,-0.808,0.0
16.393,-1.011,-0.832,0.0
15.049,-0.933,-0.849,0.0
24.011,-1.492,-0.687,1.0
21.715,-1.356,-0.743,0.0
19.648,-1.233,-0.783,0.0
17.843,-1.126,-0.813,0.0
16.247,-1.031,-0.832,0.0
14.981,-0.956,-0.851,0.0
24.213,-1.547,-0.702,0.0
21.584,-1.387,-0.747,0.0
19.479,-1.258,-0.784,0.0
17.828,-1.157,-0.819,0.0
16.239,-1.06,-0.838,0.0
14.893,-0.977,-0.852,0.0
24.139,-1.586,-0.709,0.0
21.331,-1.409,-0.746,0.0
19.413,-1.288,-0.788,0.0
17.517,-1.169,-0.811,0.0
16.194,-1.086,-0.841,0.0
14.765,-0.995,-0.85,0.0
23.495,-1.586,-0.698,0.0
21.243,-1.441,-0.75,0.0
19.232,-1.311,-0.787,0.0
17.459,-1.196,-0.814,0.0
16.04,-1.104,-0.838,0.0
14.703,-1.017,-0.851,0.0
23.744,-1.645,-0.712,0.0
21.198,-1.476,-0.754,0.0
19.296,-1.35,-0.795,0.0
17.431,-1.225,-0.817,0.0
16.015,-1.131,-0.841,0.0
14.677,-1.042,-0.853,0.0
23.525,-1.671,-0.711,0.0
21.123,-1.508,-0.757,0.0
19.239,-1.38,-0.797,0.0
17.267,-1.244,-0.814,0.0
15.83,-1.146,-0.835,0.0
14.672,-1.067,-0.856,0.0
23.625,-1.72,-0.719,0.0
21.018,-1.537,-0.757,0.0
19.246,-1.414,-0.801,0.0
17.444,-1.287,-0.825,0.0
15.887,-1.178,-0.841,0.0
14.614,-1.089,-0.855,0.0
23.408,-1.745,-0.716,0.0
20.949,-1.568,-0.758,0.0
18.913,-1.422,-0.79,0.0
17.237,-1.302,-0.818,0.0
15.865,-1.204,-0.842,0.0
14.595,-1.112,-0.856,0.0
23.16,-1.766,-0.712,0.0
21.013,-1.609,-0.763,0.0
18.962,-1.459,-0.794,0.0
17.153,-1.325,-0.816,0.0
15.84,-1.229,-0.842,0.0
14.573,-1.136,-0.856,0.0
23.844,-1.859,-0.735,0.0
20.498,-1.605,-0.746,0.0
19.088,-1.501,-0.801,0.0
17.247,-1.362,-0.822,0.0
15.907,-1.262,-0.847,0.0
14.565,-1.161,-0.857,0.0
23.486,-1.872,-0.725,0.0
20.82,-1.666,-0.759,0.0
18.982,-1.526,-0.797,0.0
17.339,-1.399,-0.827,0.0
15.749,-1.276,-0.839,0.0
14.607,-1.189,-0.859,0.0
23.125,-1.882,-0.714,0.0
20.92,-1.71,-0.763,0.0
18.971,-1.556,-0.797,0.0
17.164,-1.414,-0.818,0.0
15.778,-1.305,-0.84,0.0
14.655,-1.217,-0.862,0.0
23.423,-1.946,-0.723,0.0
20.764,-1.732,-0.756,0.0
19.119,-1.601,-0.802,0.0
17.182,-1.444,-0.818,0.0
15.865,-1.339,-0.844,0.0
14.629,-1.24,-0.859,0.0
23.598,-2.0,-0.727,0.0
20.961,-1.783,-0.762,0.0
19.161,-1.636,-0.803,0.0
17.275,-1.481,-0.821,0.0
15.921,-1.37,-0.845,0.0
14.648,-1.265,-0.859,0.0
23.587,-2.038,-0.724,0.0
20.868,-1.809,-0.756,0.0
19.185,-1.669,-0.801,0.0
17.295,-1.511,-0.82,0.0
15.996,-1.403,-0.847,0.0
14.651,-1.289,-0.857,0.0
0.0,0.0,0.0,0.0
20.908,-1.846,-0.754,0.0
19.324,-1.713,-0.804,0.0
17.364,-1.545,-0.82,0.0
16.118,-1.439,-0.851,0.0
14.705,-1.318,-0.858,0.0
23.403,-2.097,-0.711,0.0
21.298,-1.915,-0.764,0.0
19.145,-1.727,-0.793,0.0
17.453,-1.58,-0.821,0.0
16.172,-1.47,-0.85,0.0
14.798,-1.35,-0.86,0.0
23.757,-2.166,-0.716,0.0
21.206,-1.94,-0.756,0.0
19.425,-1.783,-0.8,0.0
17.399,-1.603,-0.814,0.0
16.149,-1.493,-0.845,0.0
14.816,-1.374,-0.857,0.0
23.999,-2.225,-0.717,0.0
21.479,-1.998,-0.76,0.0
19.547,-1.825,-0.8,0.0
17.473,-1.637,-0.813,0.0
16.32,-1.534,-0.85,0.0
14.852,-1.4,-0.855,0.0
23.821,-2.245,-0.705,0.0
0.0,0.0,0.0,0.0
19.515,-1.851,-0.793,0.0
17.568,-1.672,-0.812,0.0
16.336,-1.56,-0.845,0.0
15.035,-1.441,-0.861,0.0
24.259,-2.323,-0.71,0.0
21.656,-2.081,-0.753,0.0
19.942,-1.922,-0.803,0.0
17.687,-1.71,-0.811,0.0
16.363,-1.587,-0.841,0.0
15.104,-1.47,-0.859,0.0
24.448,-2.378,-0.707,0.0
21.893,-2.136,-0.753,0.0
20.096,-1.967,-0.802,0.0
17.863,-1.753,-0.813,0.0
16.45,-1.62,-0.839,0.0
15.165,-1.498,-0.857,0.0
24.695,-2.438,-0.704,0.0
22.087,-2.187,-0.751,0.0
19.941,-1.98,-0.787,0.0
17.995,-1.793,-0.811,0.0
16.846,-1.683,-0.852,0.0
15.3,-1.533,-0.858,0.0
25.069,-2.511,-0.704,0.0
22.229,-2.233,-0.746,0.0
20.026,-2.017,-0.782,0.0
18.118,-1.831,-0.808,0.0
16.886,-1.711,-0.846,0.0
15.455,-1.571,-0.859,0.0
25.281,-2.568,-0.698,0.0
22.309,-2.272,-0.738,0.0
0.0,0.0,0.0,0.0
0.0,0.0,0.0,0.0
16.759,-1.721,-0.832,0.0
15.401,-1.586,-0.849,0.0
25.638,-2.639,-0.694,0.0
22.461,-2.318,-0.731,0.0
20.348,-2.106,-0.774,0.0
18.335,-1.903,-0.799,0.0
16.965,-1.765,-0.833,0.0
15.56,-1.624,-0.849,0.0
26.176,-2.73,-0.695,0.0
22.852,-2.389,-0.732,0.0
20.582,-2.157,-0.772,0.0
0.0,0.0,0.0,0.0
17.122,-1.804,-0.831,0.0
15.709,-1.66,-0.849,0.0
0.0,0.0,0.0,0.0
23.257,-2.462,-0.731,0.0
20.818,-2.209,-0.768,0.0
0.0,0.0,0.0,0.0
17.279,-1.843,-0.829,0.0
15.969,-1.708,-0.853,0.0
26.595,-2.842,-0.675,0.0
23.938,-2.564,-0.739,0.0
21.502,-2.309,-0.781,0.0
19.139,-2.06,-0.801,0.0
17.431,-1.881,-0.825,0.0
16.122,-1.744,-0.851,0.0
26.748,-2.892,-0.662,0.0
24.022,-2.603,-0.726,0.0
21.418,-2.326,-0.764,0.0
19.501,-2.123,-0.804,0.0
17.533,-1.914,-0.818,0.0
16.234,-1.776,-0.846,0.0
27.496,-3.006,-0.663,0.0
24.432,-2.677,-0.722,0.0
21.749,-2.389,-0.761,0.0
19.661,-2.164,-0.797,0.0
17.913,-1.976,-0.824,0.0
16.464,-1.821,-0.847,0.0
28.06,-3.101,-0.657,0.0
24.909,-2.759,-0.719,0.0
22.264,-2.471,-0.763,0.0
19.777,-2.2,-0.788,0.0
17.929,-1.999,-0.812,0.0
16.551,-1.849,-0.84,0.0
0.0,0.0,0.0,0.0
25.441,-2.846,-0.716,0.0
22.426,-2.514,-0.753,0.0
19.941,-2.241,-0.78,0.0
18.416,-2.074,-0.82,0.0
16.774,-1.893,-0.839,0.0
28.691,-3.235,-0.63,0.0
25.48,-2.879,-0.698,0.0
22.78,-2.579,-0.748,0.0
20.475,-2.323,-0.785,0.0
18.684,-2.124,-0.818,0.0
16.983,-1.935,-0.836,0.0
29.425,-3.349,-0.623,0.0
0.0,0.0,0.0,0.0
23.133,-2.643,-0.741,0.0
20.73,-2.373,-0.779,0.0
18.775,-2.154,-0.807,0.0
17.202,-1.978,-0.833,0.0
30.239,-3.474,-0.616,0.0
26.704,-3.073,-0.689,0.0
23.537,-2.713,-0.735,0.0
21.127,-2.44,-0.776,0.0
19.494,-2.256,-0.822,0.0
17.351,-2.012,-0.826,0.0
0.0,0.0,0.0,0.0
0.0,0.0,0.0,0.0
0.0,0.0,0.0,0.0
21.381,-2.49,-0.768,0.0
19.468,-2.272,-0.805,0.0
17.644,-2.063,-0.825,0.0
32.101,-3.75,-0.601,0.0
0.0,0.0,0.0,0.0
24.351,-2.854,-0.719,0.0
21.896,-2.571,-0.767,0.0
19.664,-2.313,-0.796,0.0
17.894,-2.108,-0.821,0.0
0.0,0.0,0.0,0.0
28.334,-3.341,-0.659,0.0
0.0,0.0,0.0,0.0
22.25,-2.632,-0.76,0.0
20.161,-2.389,-0.798,0.0
18.152,-2.155,-0.816,0.0
0.0,0.0,0.0,0.0
28.751,-3.415,-0.643,0.0
0.0,0.0,0.0,0.0
22.635,-2.697,-0.752,0.0
20.436,-2.439,-0.79,0.0
18.537,-2.216,-0.817,0.0
0.0,0.0,0.0,0.0
29.902,-3.577,-0.641,0.0
26.125,-3.13,-0.701,0.0
23.634,-2.836,-0.764,0.0
20.737,-2.492,-0.782,0.0
0.0,0.0,0.0,0.0
0.0,0.0,0.0,0.0
31.007,-3.734,-0.635,0.0
26.483,-3.193,-0.685,0.0
23.286,-2.812,-0.731,0.0
21.21,-2.565,-0.78,0.0
19.18,-2.323,-0.809,0.0
0.0,0.0,0.0,0.0
0.0,0.0,0.0,0.0
0.0,0.0,0.0,0.0
0.0,0.0,0.0,0.0
21.205,-2.579,-0.759,0.0
19.477,-2.372,-0.802,0.0
38.546,-4.692,-0.508,0.0
0.0,0.0,0.0,0.0
27.996,-3.415,-0.671,0.0
24.714,-3.019,-0.727,0.0
22.137,-2.707,-0.771,0.0
0.0,0.0,0.0,0.0
38.607,-4.725,-0.471,1.0
0.0,0.0,0.0,0.0
28.415,-3.485,-0.652,0.0
24.968,-3.066,-0.71,0.0
22.358,-2.749,-0.756,0.0
20.328,-2.502,-0.797,0.0
40.474,-4.979,-0.452,0.0
0.0,0.0,0.0,0.0
29.403,-3.624,-0.645,0.0
0.0,0.0,0.0,0.0
23.118,-2.856,-0.758,0.0
20.517,-2.537,-0.783,0.0
41.919,-5.181,-0.425,0.0
0.0,0.0,0.0,0.0
29.772,-3.686,-0.622,0.0
27.34,-3.389,-0.721,0.0
23.768,-2.949,-0.755,0.0
21.045,-2.614,-0.782,0.0
0.0,0.0,0.0,0.0
0.0,0.0,0.0,0.0
30.441,-3.785,-0.604,0.0
27.216,-3.387,-0.689,0.0
24.668,-3.073,-0.757,0.0
21.468,-2.677,-0.774,0.0
0.0,0.0,0.0,0.0
37.455,-4.671,-0.502,0.0
32.206,-4.02,-0.605,0.0
27.614,-3.45,-0.67,0.0
24.796,-3.1,-0.735,0.0
22.009,-2.754,-0.77,0.0
46.678,-5.838,-0.325,1.0
0.0,0.0,0.0,0.0
32.334,-4.05,-0.573,0.0
28.758,-3.605,-0.667,0.0
0.0,0.0,0.0,0.0
22.435,-2.817,-0.761,0.0
48.356,-6.068,-0.285,0.0
40.441,-5.078,-0.455,0.0
33.766,-4.242,-0.561,0.0
29.403,-3.697,-0.649,0.0
25.659,-3.228,-0.705,0.0
22.953,-2.89,-0.753,0.0
0.0,0.0,0.0,0.0
42.042,-5.293,-0.427,0.0
34.252,-4.315,-0.532,0.0
30.344,-3.825,-0.637,0.0
26.874,-3.39,-0.708,0.0
23.742,-2.996,-0.753,0.0
0.0,0.0,0.0,0.0
43.569,-5.499,-0.395,0.0
0.0,0.0,0.0,0.0
30.729,-3.882,-0.611,0.0
27.153,-3.432,-0.686,0.0
24.152,-3.055,-0.739,0.0
0.0,0.0,0.0,0.0
45.37,-5.738,-0.361,1.0
37.816,-4.784,-0.503,0.0
0.0,0.0,0.0,0.0
28.237,-3.576,-0.681,0.0
24.997,-3.167,-0.737,0.0
0.0,0.0,0.0,0.0
47.245,-5.985,-0.323,2.0
38.382,-4.864,-0.467,0.0
32.761,-4.153,-0.578,0.0
0.0,0.0,0.0,0.0
25.414,-3.224,-0.72,0.0
0.0,0.0,0.0,0.0
47.909,-6.077,-0.273,1.0
39.639,-5.029,-0.438,0.0
0.0,0.0,0.0,0.0
29.673,-3.767,-0.648,0.0
25.896,-3.288,-0.705,0.0
75.046,-9.527,0.058,4.0
0.0,0.0,0.0,0.0
0.0,0.0,0.0,0.0
35.197,-4.47,-0.541,0.0
30.464,-3.87,-0.631,0.0
26.819,-3.408,-0.699,0.0
74.961,-9.523,0.144,8.0
0.0,0.0,0.0,0.0
44.853,-5.699,-0.393,1.0
0.0,0.0,0.0,0.0
31.78,-4.038,-0.622,0.0
0.0,0.0,0.0,0.0
74.849,-9.511,0.229,8.0
0.0,0.0,0.0,0.0
46.479,-5.906,-0.354,1.0
38.454,-4.886,-0.503,0.0
32.379,-4.114,-0.597,0.0
0.0,0.0,0.0,0.0
75.424,-9.583,0.317,4.0
0.0,0.0,0.0,0.0
47.54,-6.039,-0.308,1.0
0.0,0.0,0.0,0.0
33.419,-4.245,-0.577,0.0
29.451,-3.741,-0.667,0.0
77.226,-9.808,0.413,5.0
0.0,0.0,0.0,0.0
0.0,0.0,0.0,0.0
40.437,-5.133,-0.436,0.0
33.973,-4.312,-0.548,0.0
30.047,-3.813,-0.646,0.0
80.23,-10.181,0.521,3.0
75.037,-9.519,0.086,5.0
0.0,0.0,0.0,0.0
44.758,-5.675,-0.432,0.0
0.0,0.0,0.0,0.0
30.319,-3.843,-0.617,0.0
83.371,-10.567,0.636,11.0
74.908,-9.491,0.171,8.0
0.0,0.0,0.0,0.0
45.134,-5.714,-0.384,1.0
37.632,-4.763,-0.521,0.0
0.0,0.0,0.0,0.0
83.348,-10.547,0.732,35.0
74.892,-9.473,0.258,7.0
0.0,0.0,0.0,0.0
46.793,-5.914,-0.344,1.0
38.627,-4.88,-0.491,0.0
32.594,-4.116,-0.589,0.0
83.382,-10.531,0.826,103.0
78.228,-9.875,0.357,3.0
0.0,0.0,0.0,0.0
47.925,-6.044,-0.299,1.0
39.511,-4.98,-0.458,0.0
33.538,-4.226,-0.568,0.0
83.386,-10.507,0.92,150.0
78.607,-9.899,0.447,4.0
74.91,-9.428,0.024,4.0
0.0,0.0,0.0,0.0
0.0,0.0,0.0,0.0
0.0,0.0,0.0,0.0
83.376,-10.478,1.014,106.0
83.308,-10.462,0.567,13.0
74.959,-9.407,0.109,14.0
0.0,0.0,0.0,0.0
0.0,0.0,0.0,0.0
0.0,0.0,0.0,0.0
83.381,-10.447,1.107,28.0
83.355,-10.436,0.66,18.0
74.863,-9.365,0.192,6.0
0.0,0.0,0.0,0.0
45.999,-5.746,-0.378,0.0
37.529,-4.685,-0.51,0.0
83.374,-10.41,1.2,23.0
83.372,-10.401,0.753,21.0
74.347,-9.267,0.274,1.0
0.0,0.0,0.0,0.0
46.841,-5.829,-0.334,1.0
38.303,-4.763,-0.478,0.0
83.355,-10.368,1.292,28.0
83.369,-10.36,0.845,22.0
83.401,-10.355,0.399,3.0
0.0,0.0,0.0,0.0
47.906,-5.937,-0.289,1.0
40.623,-5.03,-0.462,0.0
83.373,-10.327,1.383,39.0
83.345,-10.313,0.935,13.0
74.374,-9.193,0.436,9.0
74.405,-9.188,0.03,7.0
0.0,0.0,0.0,0.0
0.0,0.0,0.0,0.0
83.374,-10.279,1.474,35.0
83.347,-10.265,1.027,20.0
83.381,-10.258,0.58,10.0
74.274,-9.128,0.11,7.0
0.0,0.0,0.0,0.0
0.0,0.0,0.0,0.0
83.392,-10.231,1.564,150.0
83.365,-10.215,1.117,18.0
83.354,-10.201,0.669,13.0
74.29,-9.082,0.19,12.0
0.0,0.0,0.0,0.0
44.082,-5.377,-0.36,0.0
83.37,-10.173,1.652,31.0
83.376,-10.16,1.206,15.0
83.385,-10.149,0.758,19.0
74.217,-9.022,0.269,1.0
0.0,0.0,0.0,0.0
47.51,-5.762,-0.337,0.0
83.37,-10.114,1.741,22.0
83.371,-10.1,1.293,17.0
83.376,-10.087,0.846,64.0
83.384,-10.075,0.389,66.0
0.0,0.0,0.0,0.0
48.06,-5.792,-0.292,0.0
83.334,-10.048,1.827,50.0
83.378,-10.038,1.379,25.0
83.378,-10.024,0.931,59.0
83.367,-10.009,0.475,40.0
75.062,-8.999,0.024,6.0
0.0,0.0,0.0,0.0
83.291,-9.976,1.91,40.0
83.378,-9.972,1.464,38.0
83.364,-9.955,1.016,30.0
83.355,-9.939,0.559,23.0
74.927,-8.921,0.099,19.0
52.205,-6.207,-0.21,0.0
83.282,-9.906,1.994,43.0
83.368,-9.9,1.548,25.0
83.361,-9.883,1.099,115.0
83.345,-9.866,0.642,17.0
75.757,-8.954,0.176,1.0
43.642,-5.151,-0.133,0.0
83.287,-9.834,2.075,27.0
83.383,-9.829,1.629,14.0
83.36,-9.81,1.18,20.0
83.364,-9.794,0.723,30.0
83.411,-9.783,0.274,8.0
0.0,0.0,0.0,0.0
83.308,-9.76,2.157,12.0
83.367,-9.749,1.709,27.0
83.382,-9.734,1.26,24.0
83.375,-9.716,0.803,55.0
83.41,-9.704,0.354,28.0
0.0,0.0,0.0,0.0
116.313,-13.516,3.122,30.0
83.348,-9.667,1.788,55.0
83.376,-9.652,1.338,21.0
83.388,-9.636,0.88,73.0
83.351,-9.615,0.432,13.0
77.694,-8.946,-0.016,3.0
116.3,-13.398,3.229,50.0
83.322,-9.58,1.864,43.0
83.365,-9.566,1.415,21.0
83.388,-9.55,0.957,22.0
83.394,-9.533,0.507,150.0
77.669,-8.863,0.054,2.0
116.298,-13.277,3.334,31.0
83.302,-9.49,1.938,38.0
83.388,-9.481,1.49,126.0
83.374,-9.46,1.031,29.0
83.388,-9.443,0.581,39.0
83.482,-9.436,0.131,1.0
116.299,-13.152,3.437,23.0
83.339,-9.404,2.012,28.0
83.383,-9.39,1.562,31.0
83.39,-9.371,1.103,31.0
83.367,-9.349,0.653,13.0
83.841,-9.383,0.204,13.0
147.926,-16.564,4.499,14.0
83.354,-9.313,2.083,14.0
83.374,-9.294,1.632,26.0
83.383,-9.275,1.174,20.0
83.386,-9.256,0.723,11.0
86.4,-9.57,0.282,8.0
148.016,-16.403,4.624,21.0
116.306,-12.858,3.004,26.0
83.342,-9.193,1.702,27.0
83.361,-9.174,1.242,14.0
83.389,-9.156,0.792,100.0
83.244,-9.121,0.34,7.0
147.845,-16.207,4.739,20.0
116.312,-12.72,3.097,34.0
83.321,-9.09,1.768,32.0
83.295,-9.066,1.308,12.0
83.186,-9.033,0.855,30.0
83.331,-9.028,0.406,49.0
108.934,-11.809,3.576,17.0
116.325,-12.578,3.188,34.0
83.32,-8.987,1.832,39.0
83.328,-8.966,1.372,48.0
83.382,-8.95,0.921,21.0
83.572,-8.95,0.47,5.0
108.869,-11.664,3.657,16.0
116.327,-12.431,3.275,59.0
84.338,-8.989,1.918,4.0
84.843,-9.02,1.46,3.0
85.001,-9.015,1.001,3.0
85.017,-8.994,0.541,3.0
108.825,-11.518,3.735,29.0
116.333,-12.28,3.36,31.0
85.258,-8.975,1.999,6.0
86.045,-9.034,1.543,2.0
86.08,-9.014,1.076,7.0
86.164,-8.999,0.609,10.0
108.815,-11.37,3.812,22.0
116.334,-12.123,3.443,22.0
86.203,-8.958,2.082,19.0
86.223,-8.935,1.605,12.0
83.407,-8.621,1.099,7.0
87.186,-8.987,0.676,3.0
108.849,-11.226,3.885,17.0
116.371,-11.968,3.521,12.0
116.347,-11.931,2.887,21.0
88.001,-8.998,1.696,1.0
88.115,-8.985,1.219,2.0
83.432,-8.484,0.7,4.0
108.789,-11.068,3.953,14.0
148.103,-15.024,4.575,22.0
116.335,-11.766,2.96,27.0
89.003,-8.975,1.771,11.0
89.061,-8.956,1.287,25.0
89.142,-8.937,0.804,30.0
108.599,-10.893,4.013,21.0
148.103,-14.81,4.665,20.0
116.344,-11.599,3.03,47.0
90.243,-8.969,1.849,42.0
90.298,-8.948,1.358,48.0
90.361,-8.928,0.867,36.0
108.525,-10.726,4.074,19.0
148.175,-14.599,4.753,25.0
116.319,-11.426,3.096,48.0
90.359,-8.848,1.902,42.0
90.337,-8.818,1.409,26.0
90.376,-8.795,0.918,58.0
108.65,-10.576,4.139,20.0
147.958,-14.356,4.827,17.0
119.064,-11.515,3.233,9.0
90.365,-8.711,1.952,47.0
90.375,-8.684,1.458,39.0
0.0,0.0,0.0,0.0
108.692,-10.414,4.197,22.0
147.997,-14.133,4.905,15.0
127.464,-12.132,3.527,14.0
90.363,-8.571,1.997,42.0
90.386,-8.546,1.504,39.0
90.35,-8.515,1.009,27.0
108.417,-10.219,4.239,24.0
148.298,-13.929,4.986,9.0
108.035,-10.112,3.042,12.0
90.352,-8.428,2.04,37.0
90.379,-8.402,1.545,43.0
90.385,-8.375,1.052,38.0
108.472,-10.054,4.29,22.0
108.154,-9.988,3.685,20.0
108.096,-9.947,3.091,12.0
90.365,-8.286,2.079,34.0
90.395,-8.261,1.585,36.0
90.366,-8.23,1.089,34.0
108.395,-9.874,4.333,21.0
108.068,-9.808,3.727,31.0
116.902,-10.571,3.389,11.0
90.348,-8.139,2.115,22.0
90.395,-8.114,1.621,33.0
90.398,-8.086,1.125,44.0
108.077,-9.667,4.362,29.0
108.336,-9.653,3.777,18.0
114.335,-10.149,3.359,11.0
90.379,-7.993,2.149,63.0
90.383,-7.964,1.653,33.0
90.404,-7.936,1.158,44.0
108.027,-9.483,4.398,23.0
108.382,-9.477,3.816,22.0
116.584,-10.156,3.464,7.0
90.334,-7.839,2.178,12.0
90.397,-7.814,1.683,33.0
90.404,-7.786,1.187,38.0
107.972,-9.298,4.43,31.0
108.32,-9.29,3.847,10.0
114.424,-9.776,3.435,8.0
114.352,-9.731,2.791,15.0
90.401,-7.663,1.71,39.0
90.406,-7.634,1.213,41.0
108.778,-9.183,4.493,21.0
110.707,-9.306,3.962,16.0
116.783,-9.778,3.537,7.0
127.524,-10.633,3.147,26.0
90.396,-7.507,1.732,150.0
90.414,-7.479,1.236,37.0
108.677,-8.987,4.515,18.0
109.929,-9.053,3.961,18.0
148.459,-12.173,4.531,12.0
127.488,-10.409,3.175,30.0
116.525,-9.474,2.259,31.0
100.068,-8.103,1.389,11.0
108.467,-8.78,4.529,22.0
108.993,-8.783,3.949,20.0
115.557,-9.271,3.549,18.0
127.474,-10.182,3.198,37.0
118.129,-9.396,2.313,9.0
100.064,-7.924,1.407,10.0
108.088,-8.556,4.532,30.0
108.529,-8.552,3.95,24.0
116.039,-9.103,3.583,15.0
127.498,-9.956,3.219,30.0
120.171,-9.343,2.37,11.0
100.105,-7.748,1.421,9.0
108.418,-8.388,4.56,11.0
108.223,-8.333,3.953,22.0
117.669,-9.02,3.648,9.0
127.437,-9.723,3.233,11.0
123.038,-9.344,2.441,10.0
100.106,-7.568,1.432,9.0
108.479,-8.195,4.573,14.0
107.89,-8.112,3.951,23.0
148.136,-11.084,4.604,14.0
0.0,0.0,0.0,0.0
125.875,-9.331,2.506,6.0
100.095,-7.385,1.439,9.0
107.174,-7.9,4.524,25.0
107.718,-7.901,3.95,23.0
108.964,-7.954,3.392,42.0
109.26,-7.937,2.784,19.0
109.367,-7.906,2.18,35.0
100.076,-7.201,1.441,8.0
107.543,-7.73,4.542,20.0
107.434,-7.683,3.941,29.0
109.101,-7.764,3.397,21.0
109.129,-7.727,2.781,55.0
109.338,-7.703,2.179,39.0
100.076,-7.014,1.44,5.0
107.885,-7.554,4.555,27.0
107.97,-7.52,3.958,25.0
109.127,-7.56,3.394,26.0
109.323,-7.535,2.781,19.0
148.097,-10.157,2.946,4.0
0.0,0.0,0.0,0.0
107.686,-7.338,4.539,27.0
108.605,-7.361,3.974,24.0
109.039,-7.352,3.383,42.0
117.105,-7.853,2.971,19.0
117.385,-7.83,2.325,49.0
106.0,-7.034,1.511,5.0
108.081,-7.161,4.546,36.0
108.739,-7.164,3.968,23.0
109.627,-7.182,3.389,14.0
116.978,-7.622,2.954,24.0
117.422,-7.609,2.312,34.0
125.238,-8.07,1.769,30.0
108.18,-6.96,4.535,24.0
108.768,-6.959,3.953,25.0
117.038,-7.447,3.601,26.0
117.186,-7.414,2.94,35.0
148.022,-9.313,2.891,17.0
148.197,-9.272,2.069,22.0
108.298,-6.763,4.521,36.0
109.059,-6.771,3.944,20.0
119.877,-7.4,3.666,10.0
117.371,-7.203,2.923,22.0
148.179,-9.041,2.865,19.0
148.934,-9.035,2.049,21.0
107.83,-6.528,4.478,27.0
109.377,-6.581,3.931,26.0
117.38,-7.021,3.563,22.0
149.381,-8.881,3.685,20.0
148.924,-8.8,2.842,26.0
149.11,-8.757,2.014,23.0
107.841,-6.319,4.45,28.0
109.54,-6.378,3.908,20.0
117.16,-6.78,3.525,35.0
147.566,-8.486,3.599,20.0
140.677,-8.04,2.646,17.0
140.674,-7.99,1.86,14.0
107.706,-6.103,4.413,28.0
109.347,-6.155,3.868,8.0
117.475,-6.571,3.498,14.0
163.331,-9.077,3.933,12.0
140.632,-7.764,2.6,3.0
101.569,-5.572,1.309,16.0
0.0,0.0,0.0,0.0
109.837,-5.972,3.848,13.0
137.777,-7.441,4.056,17.0
140.615,-7.544,3.337,37.0
0.0,0.0,0.0,0.0
101.495,-5.375,1.273,47.0
109.569,-5.786,4.412,13.0
117.247,-6.148,4.063,14.0
138.916,-7.235,4.036,16.0
140.888,-7.287,3.289,8.0
0.0,0.0,0.0,0.0
101.487,-5.177,1.231,2.0
117.481,-5.974,4.682,11.0
117.338,-5.925,4.017,24.0
139.376,-6.987,3.989,12.0
176.55,-8.792,4.045,4.0
102.16,-5.05,1.767,2.0
101.543,-4.983,1.187,150.0
117.218,-5.735,4.619,20.0
117.911,-5.726,3.983,22.0
150.354,-7.247,4.233,6.0
139.303,-6.665,3.127,5.0
102.168,-4.853,1.719,1.0
101.534,-4.787,1.138,151.0
117.313,-5.511,4.565,24.0
116.945,-5.452,3.892,18.0
142.314,-6.586,3.937,17.0
0.0,0.0,0.0,0.0
101.791,-4.639,1.661,1.0
101.47,-4.59,1.086,8.0
117.608,-5.298,4.514,21.0
119.038,-5.319,3.898,18.0
163.197,-7.235,4.425,10.0
0.0,0.0,0.0,0.0
101.717,-4.438,1.603,2.0
0.0,0.0,0.0,0.0
117.431,-5.061,4.44,22.0
119.789,-5.121,3.854,23.0
139.874,-5.931,3.712,11.0
0.0,0.0,0.0,0.0
101.527,-4.234,1.54,59.0
0.0,0.0,0.0,0.0
116.981,-4.815,4.352,28.0
118.349,-4.828,3.735,21.0
141.66,-5.73,3.671,25.0
162.259,-6.506,3.273,18.0
0.0,0.0,0.0,0.0
0.0,0.0,0.0,0.0
117.292,-4.598,4.287,21.0
124.765,-4.846,3.855,9.0
141.932,-5.462,3.583,12.0
162.146,-6.186,3.163,23.0
162.071,-6.127,2.247,13.0
0.0,0.0,0.0,0.0
117.629,-4.382,4.218,17.0
140.072,-5.168,4.23,10.0
141.855,-5.186,3.483,9.0
162.23,-5.875,3.051,18.0
162.05,-5.814,2.132,21.0
160.73,-5.712,1.207,13.0
138.205,-4.882,4.856,21.0
140.071,-4.898,4.128,18.0
163.387,-5.658,3.891,16.0
162.197,-5.56,2.929,26.0
161.99,-5.5,2.011,31.0
160.69,-5.401,1.086,11.0
138.255,-4.615,4.75,14.0
140.236,-4.632,4.024,19.0
163.336,-5.339,3.763,7.0
162.221,-5.248,2.803,16.0
161.915,-5.181,1.88,29.0
160.707,-5.091,0.958,11.0
139.678,-4.393,4.687,24.0
140.362,-4.367,3.914,11.0
0.0,0.0,0.0,0.0
168.377,-5.126,2.772,4.0
161.978,-4.878,1.749,18.0
160.715,-4.784,0.825,4.0
142.893,-4.22,4.674,11.0
163.224,-4.767,4.414,16.0
167.697,-4.84,3.584,17.0
163.472,-4.666,2.552,7.0
161.948,-4.569,1.61,17.0
0.0,0.0,0.0,0.0
162.667,-4.495,5.178,3.0
163.298,-4.459,4.273,6.0
168.16,-4.535,3.445,8.0
161.968,-4.313,2.382,15.0
0.0,0.0,0.0,0.0
0.0,0.0,0.0,0.0
162.66,-4.188,5.03,13.0
163.347,-4.151,4.123,8.0
170.413,-4.276,3.335,11.0
0.0,0.0,0.0,0.0
141.484,-3.458,1.147,11.0
0.0,0.0,0.0,0.0
163.43,-3.901,4.899,17.0
0.0,0.0,0.0,0.0
170.339,-3.955,3.17,11.0
141.375,-3.237,1.813,8.0
141.394,-3.192,1.011,13.0
0.0,0.0,0.0,0.0
163.349,-3.594,4.735,24.0
0.0,0.0,0.0,0.0
170.253,-3.636,2.999,10.0
141.397,-2.975,1.673,40.0
0.0,0.0,0.0,0.0
0.0,0.0,0.0,0.0
163.285,-3.289,4.567,39.0
0.0,0.0,0.0,0.0
170.288,-3.319,2.823,4.0
141.403,-2.713,1.526,150.0
0.0,0.0,0.0,0.0
0.0,0.0,0.0,0.0
163.378,-2.99,4.397,30.0
170.41,-3.066,3.616,6.0
164.106,-2.901,2.548,6.0
141.426,-2.456,1.376,150.0
19.735,-0.336,0.079,0.0
0.0,0.0,0.0,0.0
163.445,-2.693,4.221,6.0
0.0,0.0,0.0,0.0
163.46,-2.591,2.357,7.0
19.733,-0.306,0.17,15.0
19.742,-0.3,0.057,3.0
0.0,0.0,0.0,0.0
163.404,-2.394,4.034,6.0
19.783,-0.284,0.375,1.0
19.741,-0.277,0.262,9.0
19.747,-0.271,0.147,27.0
0.0,0.0,0.0,0.0
0.0,0.0,0.0,0.0
19.774,-0.254,0.465,7.0
19.742,-0.247,0.351,11.0
19.747,-0.241,0.239,8.0
19.733,-0.235,0.124,0.0
0.0,0.0,0.0,0.0
0.0,0.0,0.0,0.0
19.755,-0.218,0.441,10.0
19.756,-0.212,0.328,6.0
163.972,-1.717,1.788,15.0
0.0,0.0,0.0,0.0
0.0,0.0,0.0,0.0
19.773,-0.189,-0.125,6.0
19.758,-0.183,0.416,5.0
169.381,-1.523,2.603,5.0
165.313,-1.438,1.595,6.0
0.0,0.0,0.0,0.0
19.771,-0.16,-0.037,2.0
19.739,-0.154,-0.149,15.0
177.219,-1.339,3.515,22.0
0.0,0.0,0.0,0.0
19.758,-0.137,0.165,3.0
19.736,-0.131,0.05,9.0
19.75,-0.126,-0.062,8.0
19.721,-0.12,-0.175,16.0
19.688,-0.114,0.364,8.0
19.695,-0.109,0.252,9.0
19.702,-0.103,0.139,13.0
19.706,-0.098,0.024,13.0
19.707,-0.092,-0.087,13.0
19.733,-0.086,-0.2,16.0
19.654,-0.081,0.338,10.0
19.675,-0.075,0.225,14.0
19.697,-0.07,0.113,15.0
19.688,-0.064,-0.001,16.0
19.725,-0.059,-0.114,14.0
19.765,-0.053,-0.227,13.0
19.646,-0.047,0.311,11.0
19.651,-0.042,0.198,14.0
19.691,-0.037,0.086,14.0
19.705,-0.031,-0.028,13.0
19.758,-0.026,-0.141,6.0
0.0,0.0,0.0,0.0
19.627,-0.015,0.284,14.0
19.727,-0.01,0.172,6.0
19.791,-0.004,0.059,4.0
19.742,0.0,-0.055,8.0
19.764,0.005,-0.169,1.0
19.763,0.01,-0.282,2.0
19.63,0.016,0.256,16.0
19.749,0.021,0.144,16.0
19.745,0.027,0.031,13.0
19.748,0.032,-0.084,16.0
19.751,0.037,-0.197,15.0
19.761,0.043,-0.311,36.0
19.637,0.048,0.227,15.0
19.722,0.053,0.115,19.0
19.763,0.058,0.002,66.0
19.76,0.064,-0.112,32.0
19.763,0.069,-0.226,16.0
19.772,0.074,-0.34,8.0
19.648,0.079,0.199,11.0
19.671,0.084,0.086,12.0
19.685,0.089,-0.026,6.0
19.526,0.093,-0.14,0.0
0.0,0.0,0.0,0.0
30.661,0.163,-0.573,0.0
19.66,0.109,0.169,16.0
19.642,0.114,0.056,13.0
19.668,0.12,-0.056,9.0
19.667,0.124,-0.171,4.0
33.372,0.22,-0.482,0.0
29.836,0.204,-0.603,0.0
19.652,0.139,0.139,14.0
19.648,0.144,0.026,18.0
19.633,0.149,-0.086,13.0
19.653,0.154,-0.201,12.0
19.669,0.159,-0.314,7.0
19.68,0.164,-0.428,14.0
19.671,0.169,0.109,12.0
19.64,0.173,-0.003,14.0
19.634,0.178,-0.116,15.0
19.638,0.183,-0.231,15.0
19.653,0.188,-0.344,14.0
19.665,0.193,-0.458,21.0
19.699,0.198,0.078,12.0
19.669,0.203,-0.034,9.0
19.632,0.207,-0.147,16.0
19.63,0.212,-0.262,17.0
19.639,0.216,-0.375,16.0
19.677,0.221,-0.489,20.0
19.686,0.226,0.047,2.0
19.649,0.23,-0.065,14.0
19.644,0.235,-0.178,16.0
19.639,0.239,-0.293,15.0
19.658,0.244,-0.407,16.0
19.681,0.249,-0.521,15.0
57.76,0.746,0.044,0.0
19.685,0.259,-0.098,11.0
19.653,0.263,-0.211,14.0
19.663,0.267,-0.326,12.0
19.685,0.272,-0.44,10.0
24.58,0.345,-0.691,0.0
52.856,0.755,-0.044,1.0
19.703,0.285,-0.13,1.0
19.683,0.29,-0.243,5.0
19.684,0.294,-0.358,0.0
26.77,0.406,-0.642,1.0
23.24,0.358,-0.692,0.0
52.445,0.82,-0.131,2.0
37.429,0.593,-0.309,0.0
35.238,0.566,-0.494,0.0
29.343,0.478,-0.584,0.0
25.714,0.424,-0.66,1.0
22.756,0.38,-0.715,0.0
45.073,0.763,-0.188,1.0
35.634,0.611,-0.354,0.0
32.114,0.558,-0.504,0.0
28.241,0.496,-0.609,0.0
24.837,0.442,-0.679,0.0
21.582,0.388,-0.715,0.0
41.777,0.761,-0.245,1.0
35.293,0.65,-0.411,0.0
29.575,0.551,-0.515,0.0
27.244,0.513,-0.634,2.0
23.783,0.453,-0.691,1.0
21.003,0.404,-0.731,3.0
38.662,0.752,-0.293,2.0
31.869,0.626,-0.425,0.0
27.565,0.547,-0.527,0.0
26.437,0.53,-0.661,4.0
22.753,0.461,-0.7,0.0
20.657,0.423,-0.755,2.0
36.634,0.757,-0.341,2.0
29.389,0.613,-0.443,1.0
25.659,0.54,-0.535,0.0
25.287,0.538,-0.676,2.0
21.906,0.47,-0.712,4.0
19.599,0.424,-0.751,1.0
34.012,0.743,-0.376,1.0
28.747,0.633,-0.484,1.0
24.768,0.55,-0.56,0.0
23.874,0.535,-0.68,1.0
21.196,0.479,-0.727,4.0
18.863,0.43,-0.756,1.0
31.722,0.729,-0.407,0.0
26.649,0.617,-0.496,0.0
23.197,0.541,-0.565,0.0
22.889,0.539,-0.693,5.0
0.0,0.0,0.0,0.0
18.344,0.438,-0.767,0.0
30.141,0.725,-0.439,1.0
25.331,0.614,-0.516,0.0
22.295,0.545,-0.583,0.0
22.06,0.543,-0.707,4.0
18.737,0.465,-0.709,0.0
17.976,0.449,-0.784,0.0
28.693,0.721,-0.47,1.0
24.041,0.609,-0.533,0.0
21.284,0.543,-0.595,0.0
0.0,0.0,0.0,0.0
19.128,0.494,-0.758,1.0
17.566,0.457,-0.798,1.0
26.768,0.701,-0.487,1.0
23.135,0.609,-0.554,0.0
20.583,0.546,-0.612,1.0
20.416,0.545,-0.728,4.0
18.497,0.497,-0.766,0.0
16.991,0.459,-0.803,0.0
25.887,0.703,-0.518,5.0
21.942,0.6,-0.565,0.0
19.8,0.544,-0.625,0.0
19.659,0.544,-0.736,3.0
17.962,0.5,-0.777,1.0
16.622,0.465,-0.815,1.0
24.613,0.692,-0.537,1.0
20.863,0.59,-0.575,0.0
19.158,0.545,-0.639,1.0
19.02,0.544,-0.747,3.0
17.603,0.506,-0.793,2.0
16.131,0.466,-0.82,0.0
23.352,0.678,-0.551,0.0
20.499,0.598,-0.603,0.0
18.462,0.541,-0.65,0.0
18.539,0.546,-0.762,3.0
17.141,0.508,-0.804,1.0
15.341,0.457,-0.809,0.0
22.068,0.66,-0.562,1.0
19.359,0.582,-0.605,0.0
18.189,0.549,-0.674,0.0
18.123,0.55,-0.778,2.0
16.644,0.507,-0.811,1.0
15.037,0.461,-0.82,0.0
21.143,0.65,-0.577,0.0
19.131,0.591,-0.633,2.0
17.869,0.554,-0.695,0.0
17.649,0.55,-0.79,2.0
16.226,0.508,-0.821,0.0
14.604,0.459,-0.823,0.0
20.107,0.634,-0.586,0.0
18.248,0.578,-0.637,1.0
17.265,0.549,-0.703,1.0
17.121,0.547,-0.798,2.0
15.274,0.49,-0.801,0.0
14.248,0.459,-0.83,0.0
19.337,0.624,-0.599,0.0
17.515,0.568,-0.644,0.0
17.06,0.555,-0.726,0.0
16.706,0.546,-0.81,1.0
15.0,0.492,-0.814,0.0
14.007,0.462,-0.842,0.0
19.115,0.631,-0.627,2.0
17.212,0.57,-0.665,1.0
16.869,0.561,-0.749,0.0
16.185,0.54,-0.815,1.0
14.608,0.49,-0.82,0.0
13.461,0.453,-0.834,0.0
18.29,0.616,-0.634,1.0
17.011,0.575,-0.689,0.0
16.62,0.564,-0.769,0.0
15.354,0.523,-0.802,0.0
14.248,0.487,-0.826,0.0
13.179,0.452,-0.841,0.0
40.16,1.379,-1.468,2.0
16.749,0.577,-0.71,0.0
16.348,0.565,-0.787,1.0
14.662,0.508,-0.793,0.0
13.865,0.483,-0.83,0.0
12.849,0.449,-0.844,0.0
17.203,0.601,-0.661,1.0
16.582,0.581,-0.733,0.0
16.1,0.566,-0.805,1.0
14.477,0.51,-0.81,0.0
13.589,0.481,-0.839,0.0
12.593,0.447,-0.851,0.0
16.977,0.602,-0.684,0.0
16.344,0.582,-0.753,0.0
15.742,0.562,-0.817,0.0
14.316,0.513,-0.827,0.0
13.163,0.473,-0.837,0.0
12.28,0.442,-0.853,0.0
16.758,0.603,-0.706,0.0
16.206,0.585,-0.777,1.0
15.067,0.546,-0.81,0.0
13.831,0.502,-0.825,0.0
12.899,0.47,-0.845,0.0
11.985,0.438,-0.854,0.0
16.55,0.604,-0.728,0.0
16.005,0.585,-0.797,1.0
14.604,0.536,-0.812,0.0
13.617,0.501,-0.838,0.0
12.591,0.464,-0.848,0.0
11.773,0.435,-0.861,0.0
16.346,0.604,-0.749,1.0
15.764,0.584,-0.814,0.0
14.228,0.528,-0.817,0.0
13.172,0.49,-0.834,0.0
12.262,0.457,-0.848,0.0
11.534,0.431,-0.865,0.0
16.221,0.606,-0.773,1.0
15.04,0.563,-0.804,0.0
13.998,0.525,-0.83,0.0
12.877,0.484,-0.84,0.0
11.965,0.451,-0.85,0.0
11.277,0.426,-0.867,0.0
16.019,0.604,-0.793,1.0
14.626,0.552,-0.809,0.0
13.537,0.512,-0.827,0.0
12.505,0.474,-0.838,0.0
11.811,0.449,-0.861,0.0
11.03,0.42,-0.868,0.0
15.766,0.599,-0.809,0.0
14.341,0.546,-0.819,0.0
13.285,0.507,-0.836,0.0
12.268,0.469,-0.845,0.0
11.595,0.444,-0.866,0.0
10.926,0.419,-0.88,0.0
15.081,0.577,-0.802,0.0
13.977,0.536,-0.824,0.0
12.916,0.496,-0.837,0.0
12.026,0.463,-0.85,0.0
11.283,0.435,-0.863,0.0
10.671,0.412,-0.879,0.0
14.681,0.566,-0.807,0.0
13.663,0.527,-0.83,0.0
12.593,0.487,-0.839,0.0
11.884,0.46,-0.862,0.0
11.062,0.429,-0.867,0.0
10.51,0.408,-0.885,0.0
14.351,0.556,-0.815,0.0
13.253,0.514,-0.83,0.0
12.35,0.48,-0.845,0.0
11.495,0.447,-0.855,0.0
10.894,0.424,-0.873,0.0
10.318,0.403,-0.888,0.0
13.96,0.543,-0.818,0.0
12.986,0.506,-0.836,0.0
12.1,0.472,-0.849,0.0
11.275,0.44,-0.858,0.0
10.721,0.419,-0.879,0.0
10.182,0.399,-0.894,0.0
13.685,0.534,-0.826,0.0
12.722,0.497,-0.842,0.0
12.017,0.47,-0.865,0.0
11.111,0.435,-0.866,0.0
10.534,0.413,-0.882,0.0
10.054,0.395,-0.901,0.0
13.333,0.521,-0.829,0.0
12.43,0.486,-0.845,0.0
11.658,0.457,-0.86,0.0
10.891,0.427,-0.868,0.0
10.417,0.409,-0.891,0.0
9.881,0.388,-0.903,0.0
13.068,0.511,-0.835,0.0
12.104,0.474,-0.843,0.0
11.373,0.446,-0.859,0.0
10.74,0.421,-0.874,0.0
10.213,0.401,-0.891,0.0
9.686,0.381,-0.902,0.0
12.813,0.501,-0.841,0.0
12.033,0.471,-0.859,0.0
11.156,0.437,-0.862,0.0
10.593,0.415,-0.881,0.0
10.09,0.396,-0.898,0.0
9.517,0.374,-0.903,0.0
12.507,0.489,-0.842,0.0
11.786,0.461,-0.862,0.0
10.965,0.429,-0.866,0.0
10.41,0.408,-0.884,0.0
9.916,0.389,-0.9,0.0
9.41,0.369,-0.909,0.0
12.173,0.475,-0.84,0.0
11.441,0.446,-0.856,0.0
10.832,0.423,-0.874,0.0
10.246,0.4,-0.887,0.0
9.771,0.382,-0.903,0.0
9.271,0.363,-0.911,0.0
12.07,0.47,-0.853,2.0
11.245,0.438,-0.86,0.0
10.684,0.416,-0.88,0.0
10.149,0.395,-0.896,0.0
9.582,0.373,-0.902,0.0
9.091,0.354,-0.909,0.0
11.978,0.464,-0.867,0.0
11.07,0.429,-0.866,0.0
10.48,0.406,-0.88,0.0
9.94,0.385,-0.894,0.0
9.435,0.366,-0.904,0.0
8.927,0.346,-0.907,0.0
11.581,0.447,-0.857,0.0
10.934,0.422,-0.873,0.0
10.366,0.4,-0.888,0.0
9.826,0.379,-0.9,0.0
9.336,0.36,-0.91,0.0
8.808,0.34,-0.91,0.0
11.339,0.435,-0.858,0.0
10.685,0.41,-0.87,0.0
10.197,0.391,-0.89,0.0
9.661,0.37,-0.9,0.0
9.178,0.352,-0.909,0.0
8.693,0.333,-0.912,0.0
11.217,0.427,-0.867,0.0
10.606,0.404,-0.881,0.0
10.112,0.385,-0.899,0.0
9.515,0.362,-0.902,0.0
8.964,0.341,-0.902,0.0
8.556,0.325,-0.911,0.0
10.959,0.414,-0.864,0.0
10.438,0.394,-0.883,0.0
9.91,0.374,-0.896,0.0
9.395,0.354,-0.905,0.0
8.879,0.335,-0.907,0.0
8.496,0.32,-0.918,0.0
10.814,0.405,-0.869,0.0
10.306,0.386,-0.888,0.0
9.795,0.366,-0.901,0.0
9.245,0.346,-0.905,0.0
8.796,0.329,-0.913,0.0
8.403,0.314,-0.921,0.0
10.678,0.396,-0.875,0.0
10.2,0.378,-0.895,0.0
9.6,0.355,-0.898,0.0
9.137,0.338,-0.909,0.0
8.623,0.319,-0.908,0.0
8.259,0.305,-0.918,0.0
10.564,0.387,-0.881,0.0
10.056,0.368,-0.897,0.0
9.499,0.348,-0.903,0.0
8.971,0.328,-0.906,0.0
8.566,0.313,-0.915,0.0
8.166,0.298,-0.92,0.0
10.408,0.377,-0.883,0.0
9.861,0.357,-0.894,0.0
9.365,0.339,-0.904,0.0
8.901,0.321,-0.911,0.0
8.494,0.306,-0.919,0.0
8.089,0.292,-0.923,0.0
10.29,0.368,-0.888,0.0
9.788,0.35,-0.901,0.0
9.248,0.33,-0.906,0.0
8.764,0.312,-0.91,0.0
8.355,0.297,-0.916,0.0
8.011,0.285,-0.925,0.0
10.161,0.358,-0.891,0.0
9.62,0.339,-0.9,0.0
9.105,0.32,-0.904,0.0
8.704,0.306,-0.916,0.0
8.271,0.29,-0.919,0.0
7.941,0.278,-0.929,0.0
10.074,0.35,-0.898,0.0
9.513,0.33,-0.903,0.0
8.994,0.311,-0.906,0.0
8.561,0.296,-0.913,0.0
8.205,0.283,-0.923,0.0
7.86,0.271,-0.93,0.0
9.89,0.338,-0.895,0.0
9.415,0.321,-0.906,0.0
8.902,0.303,-0.909,0.0
8.472,0.288,-0.915,0.0
8.119,0.275,-0.924,0.0
7.781,0.263,-0.931,0.0
9.789,0.328,-0.898,0.0
9.254,0.31,-0.903,0.0
8.79,0.294,-0.909,0.0
8.349,0.278,-0.912,0.0
8.053,0.268,-0.927,0.0
7.733,0.257,-0.935,0.0
9.684,0.319,-0.901,0.0
9.192,0.302,-0.909,0.0
8.721,0.286,-0.913,0.0
8.306,0.272,-0.918,0.0
7.958,0.26,-0.926,0.0
7.655,0.249,-0.936,0.0
9.535,0.308,-0.899,0.0
9.043,0.291,-0.905,0.0
8.631,0.277,-0.914,0.0
8.234,0.264,-0.921,0.0
7.899,0.252,-0.929,0.0
7.559,0.241,-0.933,0.0
9.426,0.298,-0.9,0.0
8.956,0.282,-0.907,0.0
8.534,0.268,-0.914,0.0
8.155,0.255,-0.922,0.0
7.833,0.245,-0.931,0.0
7.502,0.234,-0.935,0.0
9.322,0.288,-0.901,0.0
8.874,0.273,-0.909,0.0
8.46,0.26,-0.916,0.0
8.109,0.248,-0.926,0.0
7.764,0.237,-0.932,0.0
7.44,0.226,-0.936,0.0
9.222,0.278,-0.902,0.0
8.781,0.264,-0.91,0.0
8.418,0.252,-0.921,0.0
8.033,0.24,-0.926,0.0
7.707,0.229,-0.934,0.0
7.413,0.22,-0.941,0.0
9.139,0.268,-0.904,0.0
8.709,0.255,-0.912,0.0
8.334,0.243,-0.921,0.0
7.953,0.231,-0.926,0.0
7.599,0.22,-0.929,0.0
7.366,0.213,-0.943,0.0
9.05,0.258,-0.905,0.0
8.659,0.246,-0.916,0.0
8.266,0.234,-0.922,0.0
7.896,0.223,-0.928,0.0
7.595,0.214,-0.936,0.0
7.299,0.205,-0.942,0.0
9.027,0.25,-0.912,0.0
8.574,0.237,-0.916,0.0
8.184,0.225,-0.922,0.0
7.855,0.215,-0.931,0.0
7.557,0.206,-0.94,0.0
7.264,0.198,-0.945,0.0
8.917,0.24,-0.91,0.0
8.521,0.228,-0.919,0.0
8.143,0.217,-0.925,0.0
7.786,0.207,-0.931,0.0
7.49,0.198,-0.939,0.0
7.212,0.19,-0.946,0.0
8.825,0.229,-0.909,0.0
8.465,0.219,-0.921,0.0
8.094,0.209,-0.927,0.0
7.745,0.199,-0.933,0.0
7.441,0.19,-0.94,0.0
7.175,0.183,-0.948,0.0
8.766,0.22,-0.911,0.0
8.41,0.21,-0.923,0.0
8.048,0.2,-0.929,0.0
7.685,0.19,-0.933,0.0
7.417,0.183,-0.943,0.0
7.141,0.175,-0.95,0.0
8.748,0.212,-0.917,0.0
8.331,0.201,-0.921,0.0
8.034,0.193,-0.935,0.0
7.61,0.181,-0.93,0.0
7.369,0.175,-0.943,0.0
7.102,0.168,-0.951,0.0
8.666,0.202,-0.916,0.0
8.276,0.192,-0.922,0.0
7.96,0.183,-0.933,0.0
7.595,0.174,-0.935,0.0
7.319,0.167,-0.943,0.0
7.07,0.16,-0.952,0.0
8.586,0.192,-0.914,0.0
8.228,0.183,-0.923,0.0
7.92,0.175,-0.934,0.0
7.579,0.166,-0.939,0.0
7.259,0.158,-0.941,0.0
7.017,0.152,-0.95,0.0
8.554,0.183,-0.917,0.0
8.155,0.173,-0.921,0.0
7.812,0.165,-0.927,0.0
7.53,0.158,-0.938,0.0
7.246,0.151,-0.945,0.0
6.975,0.144,-0.95,0.0
8.512,0.173,-0.919,0.0
8.152,0.165,-0.927,0.0
7.783,0.156,-0.93,0.0
7.489,0.149,-0.938,0.0
7.227,0.143,-0.947,0.0
6.946,0.137,-0.951,0.0
8.46,0.164,-0.919,0.0
8.103,0.156,-0.927,0.0
7.741,0.148,-0.93,0.0
7.425,0.141,-0.935,0.0
7.205,0.135,-0.949,0.0
6.927,0.129,-0.952,0.0
8.455,0.155,-0.924,0.0
8.077,0.147,-0.929,0.0
7.742,0.14,-0.935,0.0
7.413,0.133,-0.938,0.0
7.161,0.127,-0.948,0.0
6.914,0.122,-0.955,0.0
8.394,0.145,-0.922,0.0
8.047,0.138,-0.93,0.0
7.727,0.131,-0.937,0.0
7.389,0.125,-0.939,0.0
7.098,0.119,-0.943,0.0
6.86,0.114,-0.951,0.0
8.365,0.136,-0.923,0.0
8.022,0.129,-0.931,0.0
7.662,0.122,-0.933,0.0
7.326,0.116,-0.935,0.0
7.082,0.111,-0.945,0.0
6.835,0.106,-0.951,0.0
8.308,0.126,-0.921,0.0
8.004,0.12,-0.933,0.0
7.667,0.114,-0.938,0.0
7.333,0.108,-0.94,0.0
7.068,0.103,-0.946,0.0
6.834,0.098,-0.954,0.0
8.279,0.117,-0.922,0.0
7.993,0.112,-0.935,0.0
7.632,0.105,-0.937,0.0
7.311,0.1,-0.94,0.0
7.049,0.095,-0.947,0.0
6.804,0.091,-0.953,0.0
8.263,0.108,-0.923,0.0
7.957,0.102,-0.934,0.0
7.657,0.097,-0.943,0.0
7.303,0.091,-0.942,0.0
7.037,0.087,-0.948,0.0
6.778,0.083,-0.952,0.0
8.265,0.099,-0.927,0.0
7.911,0.093,-0.932,0.0
7.592,0.088,-0.938,0.0
7.271,0.083,-0.94,0.0
7.047,0.079,-0.952,0.0
6.773,0.075,-0.953,0.0
8.237,0.089,-0.926,0.0
7.897,0.084,-0.933,0.0
7.564,0.079,-0.936,0.0
7.267,0.075,-0.942,0.0
7.028,0.071,-0.951,0.0
6.747,0.067,-0.952,0.0
8.225,0.08,-0.927,0.0
7.879,0.075,-0.933,0.0
7.556,0.071,-0.937,0.0
7.247,0.067,-0.941,0.0
7.011,0.063,-0.95,0.0
6.729,0.059,-0.951,0.0
8.213,0.071,-0.927,0.0
7.87,0.066,-0.933,0.0
7.535,0.062,-0.936,0.0
7.247,0.058,-0.943,0.0
7.013,0.055,-0.952,0.0
6.753,0.052,-0.955,0.0
8.218,0.061,-0.929,0.0
7.828,0.057,-0.93,0.0
7.538,0.054,-0.938,0.0
7.242,0.05,-0.943,0.0
7.011,0.047,-0.953,0.0
6.743,0.044,-0.955,0.0
8.207,0.052,-0.929,0.0
7.845,0.048,-0.933,0.0
7.535,0.045,-0.938,0.0
7.23,0.042,-0.942,0.0
7.01,0.039,-0.953,0.0
6.739,0.037,-0.955,0.0
8.208,0.043,-0.93,0.0
7.846,0.039,-0.933,0.0
7.518,0.036,-0.937,0.0
7.22,0.034,-0.941,0.0
6.989,0.031,-0.951,0.0
6.759,0.029,-0.958,0.0
8.194,0.033,-0.929,0.0
7.844,0.031,-0.933,0.0
7.536,0.028,-0.939,0.0
7.231,0.025,-0.943,0.0
7.031,0.023,-0.957,0.0
6.744,0.021,-0.956,0.0
8.19,0.024,-0.928,0.0
7.845,0.022,-0.933,0.0
7.533,0.019,-0.939,0.0
7.238,0.017,-0.944,0.0
6.995,0.015,-0.952,0.0
6.731,0.013,-0.954,0.0
8.189,0.015,-0.928,0.0
7.869,0.013,-0.936,0.0
7.505,0.011,-0.935,0.0
7.233,0.009,-0.942,0.0
7.003,0.007,-0.952,0.0
6.769,0.006,-0.959,0.0
8.221,0.006,-0.931,0.0
7.864,0.004,-0.934,0.0
7.535,0.002,-0.938,0.0
7.258,0.001,-0.945,0.0
7.018,0.0,-0.953,0.0
6.761,-0.001,-0.957,0.0
8.223,-0.003,-0.93,0.0
7.869,-0.004,-0.934,0.0
7.551,-0.005,-0.938,0.0
7.27,-0.007,-0.945,0.0
7.019,-0.008,-0.952,0.0
6.773,-0.009,-0.957,0.0
8.233,-0.012,-0.929,0.0
7.877,-0.013,-0.933,0.0
7.584,-0.014,-0.941,0.0
7.262,-0.015,-0.943,0.0
7.033,-0.016,-0.952,0.0
6.792,-0.016,-0.958,0.0
8.24,-0.021,-0.928,0.0
7.915,-0.022,-0.936,0.0
7.592,-0.022,-0.94,0.0
7.291,-0.023,-0.944,0.0
7.018,-0.024,-0.949,0.0
6.788,-0.024,-0.956,0.0
8.26,-0.031,-0.928,0.0
7.94,-0.031,-0.936,0.0
7.6,-0.031,-0.939,0.0
7.281,-0.031,-0.941,0.0
7.062,-0.032,-0.952,0.0
6.786,-0.032,-0.953,0.0
8.273,-0.04,-0.927,0.0
7.963,-0.04,-0.936,0.0
7.599,-0.04,-0.936,0.0
7.318,-0.039,-0.943,0.0
7.056,-0.039,-0.949,0.0
6.778,-0.039,-0.95,0.0
8.317,-0.049,-0.928,0.0
7.974,-0.049,-0.934,0.0
7.645,-0.048,-0.938,0.0
7.351,-0.048,-0.944,0.0
7.094,-0.048,-0.951,0.0
6.811,-0.047,-0.951,0.0
8.332,-0.059,-0.927,0.0
7.988,-0.058,-0.933,0.0
7.687,-0.057,-0.94,0.0
7.338,-0.056,-0.939,0.0
7.107,-0.055,-0.949,0.0
6.864,-0.055,-0.955,0.0
8.361,-0.068,-0.926,0.0
8.04,-0.067,-0.935,0.0
7.684,-0.065,-0.936,0.0
7.381,-0.064,-0.941,0.0
7.101,-0.063,-0.945,0.0
6.858,-0.062,-0.951,0.0
8.414,-0.077,-0.927,0.0
8.05,-0.075,-0.932,0.0
7.744,-0.074,-0.939,0.0
7.421,-0.072,-0.942,0.0
7.141,-0.071,-0.946,0.0
6.896,-0.07,-0.953,0.0
8.453,-0.086,-0.927,0.0
8.095,-0.084,-0.933,0.0
7.771,-0.083,-0.938,0.0
7.502,-0.081,-0.948,0.0
7.189,-0.079,-0.949,0.0
6.932,-0.078,-0.953,0.0
8.483,-0.096,-0.925,0.0
8.119,-0.093,-0.93,0.0
7.79,-0.091,-0.936,0.0
7.497,-0.089,-0.943,0.0
7.244,-0.087,-0.951,0.0
6.974,-0.086,-0.955,0.0
8.51,-0.105,-0.923,0.0
8.188,-0.102,-0.933,0.0
7.804,-0.099,-0.932,0.0
7.495,-0.097,-0.938,0.0
7.237,-0.095,-0.945,0.0
6.955,-0.092,-0.947,0.0
8.606,-0.115,-0.927,0.0
8.231,-0.111,-0.932,0.0
7.892,-0.108,-0.937,0.0
7.56,-0.105,-0.94,0.0
7.283,-0.103,-0.946,0.0
7.027,-0.101,-0.952,0.0
8.659,-0.124,-0.927,0.0
8.264,-0.12,-0.93,0.0
7.916,-0.117,-0.934,0.0
7.642,-0.114,-0.945,0.0
7.327,-0.111,-0.946,0.0
7.07,-0.108,-0.952,0.0
8.707,-0.134,-0.925,0.0
8.334,-0.129,-0.931,0.0
7.983,-0.126,-0.936,0.0
7.695,-0.122,-0.945,0.0
7.371,-0.119,-0.946,0.0
7.105,-0.116,-0.951,0.0
8.764,-0.143,-0.924,0.0
8.4,-0.139,-0.932,0.0
8.017,-0.134,-0.933,0.0
7.716,-0.13,-0.941,0.0
7.406,-0.126,-0.944,0.0
7.156,-0.124,-0.952,0.0
8.843,-0.153,-0.925,0.0
8.447,-0.147,-0.929,0.0
8.06,-0.142,-0.931,0.0
7.761,-0.138,-0.94,0.0
7.474,-0.135,-0.946,0.0
7.203,-0.131,-0.951,0.0
8.887,-0.162,-0.921,0.0
8.496,-0.156,-0.927,0.0
8.115,-0.151,-0.93,0.0
7.821,-0.147,-0.94,0.0
7.528,-0.143,-0.946,0.0
7.254,-0.139,-0.951,0.0
8.931,-0.171,-0.917,0.0
8.562,-0.165,-0.926,0.0
8.178,-0.159,-0.929,0.0
7.852,-0.154,-0.936,0.0
7.601,-0.151,-0.948,0.0
7.283,-0.146,-0.948,0.0
9.009,-0.18,-0.917,0.0
8.646,-0.175,-0.927,0.0
8.251,-0.168,-0.929,0.0
7.901,-0.162,-0.934,0.0
7.644,-0.158,-0.945,0.0
7.346,-0.154,-0.949,0.0
9.066,-0.189,-0.913,0.0
8.735,-0.184,-0.927,0.0
8.346,-0.177,-0.931,0.0
7.981,-0.171,-0.935,0.0
7.688,-0.166,-0.943,0.0
7.389,-0.161,-0.946,0.0
9.193,-0.2,-0.916,0.0
8.795,-0.193,-0.924,0.0
8.416,-0.186,-0.93,0.0
8.076,-0.18,-0.937,0.0
7.776,-0.174,-0.945,0.0
7.416,-0.168,-0.942,0.0
9.364,-0.211,-0.923,0.0
8.887,-0.202,-0.924,0.0
8.481,-0.194,-0.928,0.0
8.14,-0.188,-0.936,0.0
7.819,-0.182,-0.941,0.0
7.507,-0.176,-0.945,0.0
9.445,-0.221,-0.921,0.0
8.986,-0.211,-0.924,0.0
8.547,-0.203,-0.925,0.0
8.202,-0.196,-0.933,0.0
7.886,-0.189,-0.94,0.0
7.593,-0.184,-0.947,0.0
9.524,-0.23,-0.917,0.0
9.076,-0.221,-0.923,0.0
8.658,-0.212,-0.927,0.0
8.278,-0.204,-0.932,0.0
7.963,-0.197,-0.94,0.0
7.677,-0.192,-0.948,0.0
9.629,-0.24,-0.916,0.0
9.149,-0.229,-0.919,0.0
8.743,-0.22,-0.926,0.0
8.383,-0.213,-0.933,0.0
8.05,-0.205,-0.94,0.0
7.736,-0.199,-0.945,0.0
9.736,-0.249,-0.914,0.0
9.29,-0.239,-0.922,0.0
8.826,-0.229,-0.923,0.0
8.477,-0.221,-0.933,0.0
8.123,-0.213,-0.938,0.0
7.774,-0.205,-0.94,0.0
9.86,-0.259,-0.913,0.0
9.403,-0.249,-0.921,0.0
8.954,-0.238,-0.925,0.0
8.54,-0.228,-0.929,0.0
8.189,-0.22,-0.935,0.0
7.895,-0.214,-0.944,0.0
9.973,-0.269,-0.91,0.0
9.511,-0.258,-0.919,0.0
9.054,-0.247,-0.923,0.0
8.678,-0.238,-0.932,0.0
8.286,-0.228,-0.935,0.0
7.952,-0.22,-0.94,0.0
10.142,-0.28,-0.912,0.0
9.648,-0.268,-0.919,0.0
9.174,-0.256,-0.923,0.0
8.741,-0.245,-0.927,0.0
8.391,-0.236,-0.935,0.0
8.049,-0.228,-0.94,0.0
10.282,-0.29,-0.91,0.0
9.775,-0.277,-0.918,0.0
9.288,-0.265,-0.921,0.0
8.845,-0.253,-0.926,0.0
8.477,-0.244,-0.933,0.0
8.13,-0.235,-0.938,0.0
10.412,-0.3,-0.907,0.0
9.891,-0.286,-0.915,0.0
9.393,-0.273,-0.918,0.0
8.967,-0.262,-0.926,0.0
8.582,-0.252,-0.932,0.0
8.23,-0.242,-0.938,0.0
10.562,-0.31,-0.905,0.0
10.033,-0.296,-0.913,0.0
9.535,-0.282,-0.919,0.0
9.122,-0.271,-0.928,0.0
8.731,-0.261,-0.935,0.0
8.335,-0.25,-0.937,0.0
10.734,-0.32,-0.904,0.0
10.177,-0.305,-0.911,0.0
9.684,-0.291,-0.919,0.0
9.206,-0.278,-0.923,0.0
8.78,-0.266,-0.927,0.0
8.423,-0.257,-0.935,0.0
10.89,-0.33,-0.901,0.0
10.355,-0.315,-0.912,0.0
9.831,-0.3,-0.918,0.0
9.339,-0.286,-0.922,0.0
8.898,-0.274,-0.926,0.0
8.531,-0.264,-0.934,0.0
11.079,-0.341,-0.9,0.0
10.505,-0.324,-0.909,0.0
10.005,-0.31,-0.919,0.0
9.466,-0.294,-0.92,0.0
9.034,-0.282,-0.926,0.0
8.673,-0.272,-0.935,0.0
11.294,-0.352,-0.9,0.0
10.645,-0.333,-0.904,0.0
10.112,-0.317,-0.913,0.0
9.599,-0.302,-0.918,0.0
9.201,-0.291,-0.929,0.0
8.776,-0.278,-0.933,0.0
11.427,-0.361,-0.892,0.0
10.817,-0.342,-0.902,0.0
10.281,-0.326,-0.911,0.0
9.792,-0.312,-0.921,0.0
9.326,-0.298,-0.926,0.0
8.855,-0.284,-0.927,0.0
11.655,-0.372,-0.891,0.0
11.008,-0.352,-0.9,0.0
10.478,-0.336,-0.912,0.0
9.942,-0.32,-0.919,0.0
9.453,-0.305,-0.924,0.0
9.019,-0.292,-0.929,0.0
11.86,-0.382,-0.888,0.0
11.235,-0.363,-0.9,0.0
10.629,-0.344,-0.907,0.0
10.102,-0.328,-0.917,0.0
9.607,-0.313,-0.923,0.0
9.173,-0.299,-0.93,0.0
12.089,-0.393,-0.885,0.0
11.391,-0.371,-0.894,0.0
10.747,-0.351,-0.9,0.0
10.241,-0.335,-0.912,0.0
9.772,-0.32,-0.922,0.0
9.294,-0.306,-0.926,0.0
12.338,-0.404,-0.882,0.0
11.614,-0.381,-0.892,0.0
10.976,-0.361,-0.9,0.0
10.454,-0.344,-0.913,0.0
9.937,-0.328,-0.921,0.0
9.433,-0.312,-0.924,0.0
12.521,-0.412,-0.874,0.0
11.815,-0.39,-0.887,0.0
11.207,-0.37,-0.9,0.0
10.582,-0.35,-0.907,0.0
10.075,-0.334,-0.916,0.0
9.596,-0.319,-0.923,0.0
12.79,-0.423,-0.871,0.0
12.032,-0.399,-0.883,0.0
11.408,-0.379,-0.896,0.0
10.771,-0.358,-0.904,0.0
10.277,-0.342,-0.917,0.0
9.756,-0.325,-0.922,0.0
13.061,-0.434,-0.867,0.0
12.305,-0.409,-0.881,0.0
11.653,-0.388,-0.896,0.0
10.945,-0.365,-0.9,0.0
10.457,-0.349,-0.915,0.0
9.945,-0.333,-0.922,0.0
13.34,-0.444,-0.862,0.0
12.546,-0.418,-0.877,0.0
11.795,-0.394,-0.886,0.0
11.202,-0.374,-0.901,0.0
10.594,-0.354,-0.908,0.0
10.094,-0.338,-0.918,0.0
13.72,-0.457,-0.863,0.0
12.794,-0.427,-0.871,0.0
12.122,-0.405,-0.889,0.0
11.411,-0.382,-0.898,0.0
10.774,-0.361,-0.904,0.0
10.287,-0.345,-0.917,0.0
13.937,-0.465,-0.852,0.0
13.034,-0.435,-0.865,0.0
12.328,-0.412,-0.882,0.0
11.646,-0.389,-0.895,0.0
10.966,-0.367,-0.9,0.0
10.489,-0.351,-0.916,0.0
14.321,-0.477,-0.849,0.0
13.382,-0.446,-0.863,0.0
12.578,-0.42,-0.877,0.0
11.841,-0.395,-0.889,0.0
11.224,-0.375,-0.901,0.0
10.619,-0.355,-0.908,0.0
14.858,-0.494,-0.854,0.0
13.739,-0.457,-0.861,0.0
12.82,-0.427,-0.871,0.0
12.111,-0.403,-0.887,0.0
11.471,-0.382,-0.9,0.0
10.807,-0.36,-0.904,0.0
15.194,-0.504,-0.846,0.0
14.019,-0.465,-0.853,0.0
13.082,-0.434,-0.864,0.0
12.325,-0.409,-0.88,0.0
11.675,-0.387,-0.894,0.0
11.04,-0.366,-0.903,0.0
15.625,-0.516,-0.841,0.0
14.361,-0.474,-0.848,0.0
13.492,-0.445,-0.866,0.0
12.617,-0.416,-0.877,0.0
11.911,-0.393,-0.89,0.0
11.277,-0.372,-0.902,0.0
16.056,-0.527,-0.835,0.0
14.9,-0.489,-0.852,0.0
13.787,-0.452,-0.86,0.0
12.852,-0.421,-0.87,0.0
12.182,-0.399,-0.888,0.0
11.519,-0.377,-0.9,0.0
16.518,-0.538,-0.828,0.0
15.319,-0.499,-0.847,0.0
14.204,-0.462,-0.859,0.0
13.177,-0.429,-0.867,0.0
12.444,-0.405,-0.884,0.0
11.697,-0.38,-0.891,0.0
17.2,-0.556,-0.83,0.0
15.73,-0.508,-0.84,0.0
14.5,-0.468,-0.85,0.0
13.493,-0.435,-0.862,0.0
12.638,-0.407,-0.873,0.0
12.039,-0.388,-0.895,0.0
17.725,-0.568,-0.821,1.0
16.225,-0.519,-0.836,0.0
15.002,-0.479,-0.851,0.0
13.819,-0.441,-0.857,0.0
12.928,-0.412,-0.869,0.0
12.235,-0.39,-0.886,0.0
17.797,-0.564,-0.791,2.0
16.942,-0.536,-0.841,0.0
15.429,-0.487,-0.846,0.0
14.278,-0.45,-0.858,0.0
13.315,-0.42,-0.87,0.0
12.495,-0.393,-0.881,0.0
17.817,-0.558,-0.758,3.0
17.548,-0.548,-0.838,0.0
15.798,-0.493,-0.836,0.0
14.71,-0.458,-0.856,0.0
13.562,-0.422,-0.86,0.0
12.712,-0.395,-0.872,0.0
17.785,-0.549,-0.723,35.0
17.754,-0.547,-0.814,2.0
0.0,0.0,0.0,0.0
15.112,-0.464,-0.851,0.0
17.826,-0.546,-1.096,0.0
17.797,-0.544,-1.187,0.0
17.77,-0.54,-0.689,156.0
17.789,-0.54,-0.782,4.0
17.642,-0.534,-0.867,2.0
15.59,-0.471,-0.848,0.0
14.354,-0.433,-0.856,0.0
17.801,-0.535,-1.153,0.0
17.766,-0.531,-0.655,159.0
17.789,-0.531,-0.748,7.0
17.672,-0.526,-0.834,1.0
0.0,0.0,0.0,0.0
14.876,-0.44,-0.858,0.0
17.795,-0.526,-1.119,2.0
17.78,-0.522,-0.621,155.0
17.811,-0.521,-0.714,151.0
17.781,-0.519,-0.806,4.0
17.502,-0.51,-0.885,2.0
15.245,-0.442,-0.85,0.0
17.804,-0.515,-1.085,0.0
17.828,-0.513,-0.589,19.0
17.753,-0.509,-0.678,158.0
17.773,-0.508,-0.771,8.0
17.73,-0.505,-0.863,2.0
15.743,-0.447,-0.848,0.0
17.798,-0.504,-1.051,0.0
17.82,-0.502,-0.555,5.0
17.757,-0.498,-0.645,157.0
17.78,-0.497,-0.738,13.0
17.688,-0.493,-0.827,2.0
0.0,0.0,0.0,0.0
14.975,-0.414,-0.856,0.0
24.512,-0.674,-0.717,0.0
17.817,-0.488,-0.613,150.0
17.801,-0.485,-0.705,150.0
17.775,-0.483,-0.798,3.0
17.717,-0.48,-0.887,2.0
15.364,-0.414,-0.849,0.0
25.479,-0.682,-0.697,0.0
17.824,-0.475,-0.58,0.0
17.804,-0.473,-0.671,152.0
17.784,-0.47,-0.764,9.0
17.546,-0.462,-0.845,0.0
15.8,-0.414,-0.843,0.0
26.577,-0.692,-0.677,0.0
23.362,-0.606,-0.716,0.0
17.809,-0.46,-0.638,9.0
17.809,-0.457,-0.732,2.0
17.736,-0.453,-0.821,1.0
16.281,-0.414,-0.838,0.0
28.14,-0.711,-0.664,0.0
24.662,-0.62,-0.709,0.0
21.884,-0.547,-0.742,1.0
20.024,-0.498,-0.785,0.0
17.98,-0.445,-0.798,2.0
16.797,-0.414,-0.832,0.0
19.796,-0.128,0.133,2.0
19.746,-0.123,0.029,9.0
19.742,-0.118,-0.073,8.0
19.709,-0.113,-0.178,16.0
