X,Y,Z,Reflectivity
184.7,-1.443,8.27,19.0
0.0,0.0,0.0,0.0
0.0,0.0,0.0,0.0
0.0,0.0,0.0,0.0
47.152,-0.342,2.575,0.0
0.0,0.0,0.0,0.0
184.568,-1.302,7.926,19.0
113.697,-0.778,8.008,1.0
0.0,0.0,0.0,0.0
0.0,0.0,0.0,0.0
0.0,0.0,0.0,0.0
186.309,-1.199,8.741,6.0
184.515,-1.169,7.579,19.0
0.0,0.0,0.0,0.0
0.0,0.0,0.0,0.0
0.0,0.0,0.0,0.0
0.0,0.0,0.0,0.0
186.519,-1.073,8.404,12.0
19.717,-0.111,0.773,2.0
0.0,0.0,0.0,0.0
0.0,0.0,0.0,0.0
0.0,0.0,0.0,0.0
0.0,0.0,0.0,0.0
184.771,-0.94,7.973,14.0
19.683,-0.098,0.734,9.0
0.0,0.0,0.0,0.0
0.0,0.0,0.0,0.0
0.0,0.0,0.0,0.0
0.0,0.0,0.0,0.0
184.828,-0.824,7.618,15.0
19.664,-0.086,0.695,11.0
0.0,0.0,0.0,0.0
0.0,0.0,0.0,0.0
19.62,-0.079,1.002,0.0
184.959,-0.729,8.348,18.0
19.703,-0.076,0.774,5.0
19.655,-0.074,0.657,13.0
0.0,0.0,0.0,0.0
0.0,0.0,0.0,0.0
19.601,-0.067,0.962,5.0
184.71,-0.624,7.972,18.0
19.671,-0.064,0.734,9.0
19.639,-0.063,0.618,14.0
0.0,0.0,0.0,0.0
19.607,-0.058,1.039,2.0
19.597,-0.057,0.923,10.0
19.69,-0.056,0.811,0.0
19.657,-0.054,0.694,12.0
19.635,-0.053,0.579,13.0
0.0,0.0,0.0,0.0
19.586,-0.048,0.998,12.0
19.594,-0.047,0.884,13.0
19.676,-0.046,0.771,6.0
19.635,-0.044,0.654,13.0
19.622,-0.043,0.539,13.0
19.621,-0.04,1.076,1.0
19.58,-0.039,0.958,16.0
19.608,-0.038,0.845,7.0
19.65,-0.036,0.729,10.0
19.632,-0.035,0.614,13.0
19.626,-0.034,0.499,13.0
19.585,-0.031,1.034,8.0
19.582,-0.03,0.918,17.0
19.679,-0.029,0.808,6.0
19.64,-0.028,0.689,12.0
19.618,-0.027,0.573,13.0
19.623,-0.026,0.459,14.0
19.572,-0.023,0.993,18.0
19.577,-0.022,0.878,17.0
19.659,-0.021,0.767,9.0
19.62,-0.02,0.648,12.0
19.612,-0.019,0.533,13.0
19.619,-0.018,0.418,13.0
19.566,-0.016,0.952,21.0
19.601,-0.015,0.839,14.0
19.643,-0.014,0.725,11.0
19.615,-0.013,0.607,12.0
19.613,-0.012,0.492,12.0
19.615,-0.012,0.378,13.0
19.558,-0.009,0.911,18.0
19.663,-0.008,0.8,15.0
19.628,-0.008,0.684,11.0
19.605,-0.007,0.566,12.0
19.616,-0.006,0.452,12.0
19.619,-0.006,0.337,14.0
19.581,-0.003,0.871,20.0
19.65,-0.003,0.759,11.0
19.615,-0.002,0.643,11.0
19.607,-0.001,0.526,13.0
19.616,-0.001,0.411,12.0
19.619,0.0,0.296,13.0
19.608,0.001,0.831,18.0
19.637,0.001,0.717,12.0
19.608,0.002,0.602,12.0
19.601,0.002,0.485,12.0
19.622,0.003,0.37,14.0
19.615,0.003,0.255,15.0
19.672,0.005,0.793,20.0
19.635,0.006,0.676,12.0
19.614,0.006,0.56,12.0
19.604,0.007,0.443,12.0
19.612,0.007,0.328,15.0
19.631,0.007,0.214,16.0
19.647,0.009,0.75,13.0
19.615,0.009,0.634,11.0
19.603,0.01,0.519,12.0
19.612,0.01,0.402,12.0
19.621,0.01,0.287,14.0
19.731,0.011,0.173,4.0
19.641,0.012,0.708,13.0
19.611,0.012,0.592,12.0
19.604,0.012,0.477,12.0
19.597,0.013,0.36,16.0
19.622,0.013,0.246,15.0
19.751,0.013,0.132,14.0
19.634,0.014,0.666,12.0
19.616,0.014,0.551,13.0
19.613,0.014,0.436,12.0
19.607,0.015,0.319,15.0
19.625,0.015,0.204,13.0
19.759,0.015,0.09,7.0
19.611,0.016,0.624,12.0
19.611,0.016,0.509,14.0
19.601,0.016,0.394,13.0
19.611,0.016,0.277,14.0
19.736,0.016,0.163,10.0
19.777,0.016,0.048,4.0
19.616,0.017,0.582,13.0
19.613,0.016,0.467,13.0
19.606,0.016,0.352,16.0
19.616,0.016,0.235,16.0
19.735,0.016,0.121,10.0
19.743,0.016,0.006,25.0
19.613,0.017,0.54,14.0
19.615,0.016,0.425,12.0
19.611,0.016,0.31,15.0
19.66,0.016,0.194,9.0
19.759,0.016,0.079,8.0
19.756,0.016,-0.036,75.0
19.62,0.016,0.498,14.0
19.616,0.016,0.383,15.0
19.619,0.015,0.268,13.0
19.735,0.015,0.152,16.0
19.763,0.015,0.036,6.0
19.763,0.014,-0.078,2.0
19.614,0.014,0.456,13.0
19.613,0.014,0.34,16.0
19.626,0.014,0.226,16.0
19.75,0.013,0.11,6.0
19.738,0.013,-0.005,13.0
19.78,0.012,-0.121,1.0
19.62,0.012,0.414,13.0
19.616,0.012,0.299,14.0
19.697,0.011,0.184,6.0
19.777,0.011,0.067,5.0
19.742,0.01,-0.047,151.0
19.784,0.01,-0.163,0.0
19.629,0.009,0.372,16.0
19.628,0.009,0.257,15.0
19.784,0.008,0.143,2.0
19.747,0.008,0.025,7.0
19.785,0.007,-0.09,0.0
19.76,0.006,-0.205,0.0
19.623,0.006,0.33,15.0
19.636,0.005,0.215,15.0
19.802,0.004,0.101,3.0
19.75,0.004,-0.016,8.0
19.753,0.003,-0.131,0.0
19.801,0.002,-0.248,0.0
19.64,0.001,0.289,13.0
19.764,0.001,0.174,3.0
19.794,0.0,0.059,4.0
19.758,0.0,-0.058,2.0
0.0,0.0,0.0,0.0
0.0,0.0,0.0,0.0
19.641,-0.003,0.246,15.0
19.725,-0.004,0.132,1.0
19.726,-0.005,0.017,10.0
19.764,-0.005,-0.1,1.0
39.853,-0.013,-0.435,0.0
32.516,-0.012,-0.545,0.0
19.649,-0.008,0.205,13.0
19.734,-0.01,0.09,5.0
19.736,-0.011,-0.024,11.0
19.777,-0.012,-0.142,1.0
0.0,0.0,0.0,0.0
29.965,-0.021,-0.566,0.0
19.735,-0.015,0.164,3.0
19.714,-0.016,0.049,10.0
19.756,-0.017,-0.066,5.0
19.742,-0.019,-0.184,1.0
33.695,-0.034,-0.511,0.0
28.925,-0.031,-0.608,0.0
19.694,-0.022,0.122,9.0
19.71,-0.024,0.007,14.0
19.739,-0.025,-0.108,10.0
19.743,-0.026,-0.225,0.0
0.0,0.0,0.0,0.0
27.874,-0.041,-0.645,0.0
19.709,-0.03,0.081,15.0
19.721,-0.032,-0.034,14.0
19.743,-0.033,-0.149,11.0
19.738,-0.034,-0.267,0.0
29.981,-0.055,-0.581,0.0
26.193,-0.05,-0.661,0.0
19.709,-0.039,0.039,17.0
19.742,-0.041,-0.075,10.0
19.75,-0.042,-0.191,13.0
19.786,-0.044,-0.309,0.0
28.724,-0.066,-0.617,0.0
25.182,-0.06,-0.688,0.0
19.712,-0.049,-0.001,17.0
19.719,-0.05,-0.116,14.0
19.746,-0.052,-0.232,13.0
19.742,-0.053,-0.349,1.0
27.324,-0.076,-0.644,0.0
23.732,-0.068,-0.698,0.0
19.722,-0.059,-0.042,16.0
19.727,-0.061,-0.157,15.0
19.76,-0.062,-0.273,14.0
19.767,-0.064,-0.391,3.0
19.757,-0.066,-0.506,0.0
22.553,-0.077,-0.71,0.0
19.729,-0.07,-0.083,14.0
19.739,-0.072,-0.198,15.0
19.75,-0.073,-0.313,13.0
19.764,-0.075,-0.431,8.0
19.777,-0.077,-0.547,4.0
19.785,-0.079,-0.663,1.0
19.726,-0.081,-0.123,17.0
19.75,-0.083,-0.238,15.0
19.752,-0.085,-0.353,12.0
19.743,-0.087,-0.471,12.0
19.759,-0.089,-0.587,10.0
19.763,-0.091,-0.702,7.0
19.726,-0.093,-0.162,17.0
19.746,-0.095,-0.278,15.0
19.748,-0.097,-0.393,15.0
19.744,-0.099,-0.511,15.0
19.754,-0.101,-0.627,15.0
19.738,-0.103,-0.742,8.0
19.74,-0.106,-0.203,17.0
19.75,-0.108,-0.318,14.0
19.735,-0.11,-0.433,16.0
19.736,-0.113,-0.551,15.0
19.746,-0.115,-0.666,14.0
19.65,-0.116,-0.778,2.0
19.736,-0.12,-0.242,17.0
19.743,-0.122,-0.358,17.0
19.736,-0.124,-0.473,16.0
19.735,-0.126,-0.59,16.0
19.734,-0.129,-0.706,16.0
19.107,-0.127,-0.795,0.0
19.739,-0.134,-0.282,17.0
19.729,-0.137,-0.397,17.0
19.729,-0.139,-0.512,16.0
19.731,-0.141,-0.629,17.0
19.723,-0.143,-0.744,9.0
18.302,-0.135,-0.798,0.0
19.744,-0.149,-0.32,17.0
19.726,-0.151,-0.435,18.0
19.742,-0.154,-0.551,16.0
19.747,-0.156,-0.669,14.0
19.6,-0.158,-0.778,2.0
17.599,-0.144,-0.802,0.0
19.746,-0.165,-0.359,16.0
19.741,-0.167,-0.474,14.0
19.762,-0.17,-0.59,9.0
19.764,-0.172,-0.707,9.0
18.924,-0.168,-0.788,1.0
17.12,-0.154,-0.813,0.0
19.758,-0.181,-0.397,12.0
19.764,-0.184,-0.512,6.0
22.538,-0.213,-0.716,0.0
19.732,-0.189,-0.744,7.0
18.402,-0.178,-0.801,0.0
16.576,-0.163,-0.819,0.0
19.777,-0.198,-0.435,2.0
24.708,-0.251,-0.687,0.0
21.683,-0.223,-0.729,0.0
19.593,-0.204,-0.776,2.0
17.617,-0.186,-0.8,0.0
16.092,-0.172,-0.825,0.0
26.685,-0.291,-0.637,0.0
23.375,-0.258,-0.694,0.0
19.804,-0.221,-0.703,3.0
18.964,-0.215,-0.786,0.0
17.072,-0.196,-0.807,0.0
15.665,-0.182,-0.832,0.0
25.688,-0.304,-0.661,1.0
22.582,-0.27,-0.712,1.0
19.785,-0.24,-0.74,6.0
18.447,-0.226,-0.799,0.0
16.643,-0.206,-0.818,0.0
15.196,-0.191,-0.836,0.0
24.725,-0.316,-0.682,0.0
21.872,-0.283,-0.73,0.0
19.71,-0.258,-0.773,1.0
17.698,-0.234,-0.799,0.0
16.039,-0.214,-0.818,0.0
14.793,-0.2,-0.841,0.0
23.747,-0.326,-0.698,0.0
20.256,-0.281,-0.713,0.0
19.135,-0.269,-0.785,0.0
17.155,-0.244,-0.805,0.0
15.729,-0.226,-0.83,0.0
14.321,-0.208,-0.839,0.0
22.648,-0.334,-0.705,1.0
19.897,-0.296,-0.736,3.0
18.567,-0.28,-0.794,0.0
16.735,-0.255,-0.815,0.0
15.218,-0.234,-0.83,0.0
14.056,-0.218,-0.849,0.0
22.017,-0.347,-0.724,0.0
19.819,-0.316,-0.767,0.0
17.978,-0.289,-0.8,0.0
16.149,-0.262,-0.815,0.0
14.874,-0.244,-0.837,0.0
13.738,-0.228,-0.853,0.0
21.455,-0.361,-0.743,1.0
19.328,-0.328,-0.781,0.0
17.339,-0.298,-0.802,0.0
15.784,-0.273,-0.823,0.0
14.561,-0.255,-0.844,0.0
13.417,-0.237,-0.857,0.0
20.574,-0.368,-0.747,0.0
18.752,-0.339,-0.79,0.0
16.949,-0.309,-0.812,0.0
15.46,-0.285,-0.833,0.0
14.182,-0.264,-0.846,0.0
13.103,-0.246,-0.858,0.0
20.052,-0.381,-0.762,1.0
18.245,-0.35,-0.799,0.0
16.496,-0.32,-0.818,0.0
15.037,-0.294,-0.835,0.0
13.996,-0.276,-0.858,0.0
12.886,-0.256,-0.865,0.0
19.575,-0.394,-0.775,0.0
17.576,-0.357,-0.798,0.0
15.928,-0.326,-0.816,0.0
14.725,-0.304,-0.841,0.0
13.566,-0.283,-0.854,0.0
12.616,-0.265,-0.868,0.0
21.765,-0.463,-0.896,0.0
17.235,-0.37,-0.81,0.0
15.636,-0.338,-0.825,0.0
14.361,-0.314,-0.843,0.0
13.311,-0.293,-0.859,0.0
12.348,-0.274,-0.869,0.0
18.28,-0.41,-0.781,0.0
16.743,-0.379,-0.813,0.0
15.335,-0.35,-0.833,0.0
14.062,-0.324,-0.847,0.0
13.036,-0.303,-0.861,0.0
12.19,-0.285,-0.877,0.0
17.824,-0.422,-0.789,1.0
16.184,-0.386,-0.811,0.0
14.982,-0.36,-0.837,0.0
13.772,-0.334,-0.851,0.0
12.752,-0.312,-0.862,0.0
11.971,-0.295,-0.879,0.0
17.7,-0.441,-0.81,1.0
15.856,-0.398,-0.818,0.0
14.614,-0.369,-0.838,0.0
13.578,-0.346,-0.859,0.0
12.508,-0.321,-0.864,0.0
11.797,-0.305,-0.884,0.0
17.255,-0.451,-0.815,0.0
15.646,-0.412,-0.83,0.0
14.394,-0.382,-0.847,0.0
13.259,-0.355,-0.858,0.0
12.348,-0.333,-0.871,0.0
11.644,-0.316,-0.889,0.0
17.646,-0.483,-0.859,3.0
15.299,-0.422,-0.833,0.0
17.808,-0.495,-1.074,0.0
17.774,-0.498,-1.176,0.0
12.093,-0.341,-0.87,0.0
11.447,-0.326,-0.891,0.0
17.595,-0.505,-0.882,6.0
14.962,-0.433,-0.836,0.0
17.79,-0.518,-1.098,1.0
17.756,-0.521,-1.2,0.0
11.931,-0.353,-0.876,0.0
11.28,-0.336,-0.893,0.0
0.0,0.0,0.0,0.0
14.654,-0.443,-0.839,0.0
17.801,-0.542,-1.122,0.0
12.536,-0.384,-0.864,0.0
11.83,-0.365,-0.884,0.0
11.126,-0.346,-0.896,0.0
15.662,-0.49,-0.827,0.0
14.467,-0.456,-0.847,0.0
13.253,-0.421,-0.853,0.0
12.412,-0.397,-0.872,0.0
11.658,-0.375,-0.886,0.0
10.994,-0.356,-0.9,0.0
15.382,-0.502,-0.832,0.0
14.19,-0.466,-0.849,0.0
12.983,-0.43,-0.852,0.0
12.252,-0.408,-0.876,0.0
11.539,-0.387,-0.892,0.0
10.826,-0.366,-0.9,0.0
15.085,-0.513,-0.835,0.0
13.914,-0.476,-0.85,0.0
12.824,-0.442,-0.858,0.0
12.065,-0.418,-0.878,0.0
11.305,-0.395,-0.888,0.0
10.721,-0.377,-0.904,0.0
14.744,-0.522,-0.834,0.0
13.64,-0.486,-0.85,0.0
12.651,-0.453,-0.861,0.0
11.914,-0.43,-0.881,0.0
11.217,-0.407,-0.895,0.0
10.588,-0.387,-0.906,0.0
14.6,-0.537,-0.843,0.0
13.406,-0.496,-0.851,0.0
12.533,-0.467,-0.868,0.0
11.76,-0.441,-0.884,0.0
11.097,-0.419,-0.898,0.0
10.483,-0.398,-0.909,0.0
14.363,-0.548,-0.846,0.0
13.233,-0.508,-0.855,0.0
12.417,-0.48,-0.874,0.0
11.618,-0.452,-0.886,0.0
10.929,-0.428,-0.897,0.0
10.319,-0.406,-0.906,0.0
14.121,-0.559,-0.847,0.0
13.029,-0.519,-0.856,0.0
12.199,-0.489,-0.872,0.0
11.425,-0.46,-0.884,0.0
10.841,-0.44,-0.901,0.0
10.249,-0.418,-0.911,0.0
13.938,-0.571,-0.85,0.0
12.882,-0.531,-0.86,0.0
12.095,-0.502,-0.877,0.0
11.317,-0.472,-0.887,0.0
10.742,-0.451,-0.904,0.0
10.147,-0.429,-0.913,0.0
13.806,-0.586,-0.856,0.0
12.718,-0.543,-0.862,0.0
12.01,-0.515,-0.883,0.0
11.237,-0.485,-0.892,0.0
10.63,-0.462,-0.905,0.0
10.078,-0.44,-0.916,0.0
13.493,-0.592,-0.85,0.0
12.589,-0.555,-0.865,0.0
11.852,-0.526,-0.883,0.0
11.163,-0.498,-0.897,0.0
10.512,-0.472,-0.905,0.0
9.971,-0.45,-0.916,0.0
13.269,-0.601,-0.848,0.0
12.457,-0.568,-0.868,0.0
11.763,-0.539,-0.887,0.0
11.045,-0.509,-0.898,0.0
10.44,-0.484,-0.908,0.0
9.884,-0.461,-0.917,0.0
13.125,-0.614,-0.851,0.0
12.334,-0.58,-0.87,0.0
11.643,-0.55,-0.888,0.0
10.937,-0.52,-0.898,0.0
10.359,-0.495,-0.91,0.0
9.803,-0.471,-0.918,0.0
13.048,-0.629,-0.857,0.0
12.233,-0.593,-0.873,0.0
11.511,-0.561,-0.888,0.0
10.848,-0.532,-0.9,0.0
10.248,-0.505,-0.909,0.0
9.722,-0.482,-0.919,0.0
12.933,-0.643,-0.86,0.0
12.151,-0.607,-0.878,0.0
11.412,-0.573,-0.889,0.0
10.712,-0.541,-0.897,0.0
10.183,-0.517,-0.911,0.0
9.634,-0.491,-0.918,0.0
12.79,-0.654,-0.86,0.0
12.076,-0.621,-0.881,0.0
11.318,-0.585,-0.891,0.0
10.639,-0.553,-0.899,0.0
10.081,-0.526,-0.91,0.0
9.574,-0.503,-0.919,0.0
12.681,-0.667,-0.862,0.0
11.986,-0.634,-0.883,0.0
11.236,-0.597,-0.892,0.0
10.591,-0.566,-0.903,0.0
10.037,-0.539,-0.913,0.0
9.518,-0.514,-0.92,0.0
12.613,-0.682,-0.866,0.0
11.885,-0.646,-0.884,0.0
11.19,-0.612,-0.896,0.0
10.538,-0.579,-0.905,0.0
9.983,-0.551,-0.915,0.0
9.455,-0.524,-0.92,0.0
12.515,-0.696,-0.867,0.0
11.829,-0.661,-0.887,0.0
11.125,-0.624,-0.898,0.0
10.486,-0.591,-0.907,0.0
9.94,-0.563,-0.917,0.0
9.416,-0.536,-0.922,0.0
12.481,-0.712,-0.872,0.0
11.737,-0.673,-0.887,0.0
11.053,-0.637,-0.898,0.0
10.438,-0.604,-0.909,0.0
9.871,-0.574,-0.916,0.0
9.39,-0.549,-0.925,0.0
12.407,-0.726,-0.874,0.0
11.696,-0.688,-0.89,0.0
10.988,-0.649,-0.899,0.0
10.399,-0.617,-0.911,0.0
9.83,-0.586,-0.917,0.0
9.343,-0.56,-0.925,0.0
12.341,-0.741,-0.876,0.0
11.627,-0.701,-0.891,0.0
10.883,-0.659,-0.896,0.0
10.327,-0.628,-0.91,0.0
9.807,-0.599,-0.92,0.0
9.285,-0.57,-0.924,0.0
12.264,-0.754,-0.876,0.0
11.576,-0.715,-0.892,0.0
10.868,-0.674,-0.899,0.0
10.238,-0.638,-0.907,0.0
9.753,-0.61,-0.919,0.0
9.256,-0.582,-0.925,0.0
12.239,-0.77,-0.879,0.0
11.525,-0.728,-0.893,0.0
10.841,-0.688,-0.902,0.0
10.136,-0.646,-0.901,0.0
9.704,-0.622,-0.918,0.0
9.226,-0.594,-0.926,0.0
12.222,-0.787,-0.883,0.0
11.403,-0.738,-0.888,0.0
10.773,-0.7,-0.9,0.0
10.207,-0.666,-0.912,0.0
9.677,-0.634,-0.919,0.0
9.199,-0.605,-0.926,0.0
12.166,-0.801,-0.882,0.0
11.387,-0.753,-0.89,0.0
10.742,-0.714,-0.901,0.0
10.192,-0.68,-0.913,0.0
9.688,-0.649,-0.923,0.0
9.197,-0.619,-0.929,0.0
12.132,-0.817,-0.884,0.0
11.344,-0.767,-0.89,0.0
10.685,-0.725,-0.899,0.0
10.135,-0.691,-0.911,0.0
9.661,-0.661,-0.923,0.0
9.181,-0.631,-0.929,0.0
12.078,-0.83,-0.883,0.0
11.291,-0.779,-0.889,0.0
10.702,-0.741,-0.903,0.0
10.128,-0.704,-0.913,0.0
9.621,-0.672,-0.921,0.0
9.139,-0.641,-0.927,0.0
12.064,-0.847,-0.884,0.0
11.305,-0.796,-0.892,0.0
10.716,-0.758,-0.906,0.0
10.121,-0.718,-0.914,0.0
9.605,-0.685,-0.922,0.0
9.102,-0.651,-0.925,0.0
12.063,-0.864,-0.886,0.0
11.304,-0.812,-0.894,0.0
10.661,-0.769,-0.903,0.0
10.055,-0.728,-0.909,0.0
9.583,-0.697,-0.921,0.0
9.105,-0.664,-0.926,0.0
12.064,-0.88,-0.887,0.0
11.293,-0.827,-0.894,0.0
10.708,-0.787,-0.908,0.0
10.033,-0.741,-0.908,0.0
9.56,-0.708,-0.919,0.0
9.104,-0.677,-0.927,0.0
12.047,-0.896,-0.887,0.0
11.302,-0.844,-0.895,0.0
10.687,-0.801,-0.907,0.0
10.082,-0.758,-0.913,0.0
9.586,-0.724,-0.922,0.0
9.078,-0.688,-0.925,0.0
12.013,-0.91,-0.885,0.0
11.336,-0.862,-0.898,0.0
10.662,-0.814,-0.905,0.0
10.085,-0.772,-0.913,0.0
9.604,-0.738,-0.924,0.0
9.06,-0.699,-0.923,0.0
12.085,-0.932,-0.89,0.0
11.304,-0.875,-0.896,0.0
10.652,-0.827,-0.904,0.0
10.095,-0.787,-0.914,0.0
9.582,-0.749,-0.921,0.0
9.091,-0.714,-0.925,0.0
12.085,-0.948,-0.889,0.0
11.272,-0.887,-0.892,0.0
10.73,-0.848,-0.909,0.0
10.095,-0.8,-0.913,0.0
9.579,-0.762,-0.92,0.0
9.136,-0.729,-0.929,0.0
12.099,-0.965,-0.889,0.0
11.31,-0.905,-0.894,0.0
10.74,-0.863,-0.909,0.0
10.136,-0.817,-0.916,0.0
9.558,-0.773,-0.917,0.0
9.17,-0.744,-0.931,0.0
12.12,-0.983,-0.889,0.0
11.318,-0.921,-0.893,0.0
10.773,-0.879,-0.91,0.0
10.158,-0.832,-0.916,0.0
9.618,-0.79,-0.921,0.0
9.162,-0.755,-0.929,0.0
12.114,-0.998,-0.886,0.0
11.368,-0.939,-0.895,0.0
10.754,-0.891,-0.906,0.0
10.178,-0.846,-0.916,0.0
9.626,-0.803,-0.92,0.0
9.178,-0.768,-0.928,0.0
12.16,-1.017,-0.887,0.0
11.461,-0.962,-0.9,0.0
10.771,-0.906,-0.905,0.0
10.188,-0.86,-0.914,0.0
9.661,-0.818,-0.921,0.0
9.204,-0.782,-0.929,0.0
12.182,-1.034,-0.885,0.0
11.477,-0.977,-0.898,0.0
10.859,-0.927,-0.91,0.0
10.199,-0.874,-0.912,0.0
9.679,-0.832,-0.92,0.0
9.255,-0.798,-0.931,0.0
12.247,-1.055,-0.886,0.0
11.468,-0.99,-0.894,0.0
10.866,-0.941,-0.907,0.0
10.247,-0.89,-0.913,0.0
9.717,-0.847,-0.92,0.0
9.273,-0.81,-0.93,0.0
12.321,-1.076,-0.887,0.0
11.554,-1.012,-0.896,0.0
10.945,-0.961,-0.91,0.0
10.256,-0.903,-0.91,0.0
9.757,-0.862,-0.92,0.0
9.296,-0.823,-0.929,0.0
12.339,-1.092,-0.884,0.0
11.57,-1.026,-0.893,0.0
10.948,-0.974,-0.906,0.0
10.323,-0.921,-0.912,0.0
9.825,-0.879,-0.923,0.0
9.386,-0.842,-0.934,0.0
12.41,-1.112,-0.884,0.0
11.599,-1.042,-0.89,0.0
10.944,-0.986,-0.901,0.0
10.392,-0.939,-0.914,0.0
9.869,-0.894,-0.922,0.0
9.419,-0.856,-0.933,0.0
12.472,-1.132,-0.883,0.0
11.716,-1.066,-0.894,0.0
11.008,-1.004,-0.901,0.0
10.449,-0.956,-0.914,0.0
9.932,-0.911,-0.923,0.0
9.437,-0.868,-0.93,0.0
12.514,-1.149,-0.88,0.0
11.838,-1.09,-0.897,0.0
11.148,-1.029,-0.907,0.0
10.471,-0.969,-0.91,0.0
10.018,-0.929,-0.926,0.0
9.481,-0.882,-0.929,0.0
12.534,-1.165,-0.874,0.0
11.944,-1.113,-0.899,0.0
11.169,-1.043,-0.902,0.0
10.579,-0.99,-0.914,0.0
10.038,-0.942,-0.922,0.0
9.528,-0.896,-0.928,0.0
12.673,-1.191,-0.877,0.0
11.995,-1.13,-0.896,0.0
11.216,-1.059,-0.899,0.0
10.646,-1.007,-0.913,0.0
10.075,-0.956,-0.92,0.0
9.612,-0.914,-0.931,0.0
12.783,-1.214,-0.877,0.0
12.09,-1.151,-0.896,0.0
11.289,-1.077,-0.898,0.0
10.714,-1.025,-0.912,0.0
10.137,-0.972,-0.919,0.0
9.667,-0.929,-0.93,0.0
12.874,-1.235,-0.875,0.0
12.153,-1.168,-0.892,0.0
11.382,-1.097,-0.898,0.0
10.801,-1.043,-0.913,0.0
10.237,-0.991,-0.921,0.0
9.713,-0.942,-0.928,0.0
12.986,-1.258,-0.874,0.0
12.236,-1.188,-0.89,0.0
11.512,-1.12,-0.901,0.0
10.859,-1.059,-0.91,0.0
10.268,-1.003,-0.917,0.0
9.793,-0.959,-0.928,0.0
13.008,-1.272,-0.866,0.0
12.274,-1.203,-0.884,0.0
11.603,-1.139,-0.899,0.0
10.923,-1.075,-0.908,0.0
10.381,-1.024,-0.92,0.0
9.855,-0.974,-0.927,0.0
13.202,-1.303,-0.869,0.0
12.39,-1.225,-0.883,0.0
11.678,-1.157,-0.897,0.0
10.972,-1.089,-0.903,0.0
10.451,-1.04,-0.918,0.0
9.906,-0.988,-0.924,0.0
13.357,-1.329,-0.869,0.0
12.461,-1.243,-0.879,0.0
11.834,-1.182,-0.899,0.0
11.098,-1.111,-0.905,0.0
10.601,-1.063,-0.923,0.0
10.008,-1.006,-0.926,0.0
13.557,-1.361,-0.872,0.0
12.572,-1.264,-0.877,0.0
11.904,-1.199,-0.895,0.0
11.143,-1.124,-0.899,0.0
10.642,-1.076,-0.917,0.0
10.069,-1.02,-0.923,0.0
13.713,-1.387,-0.87,0.0
12.796,-1.296,-0.881,0.0
12.018,-1.22,-0.893,0.0
11.255,-1.144,-0.899,0.0
10.731,-1.093,-0.916,0.0
10.151,-1.036,-0.922,0.0
13.808,-1.407,-0.864,0.0
12.915,-1.318,-0.879,0.0
12.118,-1.239,-0.89,0.0
11.358,-1.163,-0.897,0.0
10.802,-1.108,-0.912,0.0
10.222,-1.05,-0.919,0.0
13.96,-1.432,-0.861,0.0
13.072,-1.343,-0.877,0.0
12.2,-1.256,-0.885,0.0
11.531,-1.189,-0.9,0.0
10.861,-1.121,-0.907,0.0
10.354,-1.071,-0.921,0.0
14.316,-1.478,-0.87,0.0
13.27,-1.372,-0.878,0.0
12.474,-1.292,-0.893,0.0
11.667,-1.21,-0.9,0.0
11.007,-1.144,-0.909,0.0
10.498,-1.093,-0.924,0.0
14.474,-1.504,-0.866,0.0
13.416,-1.396,-0.875,0.0
12.469,-1.299,-0.881,0.0
11.783,-1.23,-0.898,0.0
11.135,-1.164,-0.909,0.0
10.568,-1.106,-0.92,0.0
14.627,-1.528,-0.861,0.0
13.591,-1.422,-0.874,0.0
12.721,-1.333,-0.886,0.0
12.011,-1.26,-0.903,0.0
11.233,-1.18,-0.906,0.0
10.672,-1.123,-0.918,0.0
14.821,-1.557,-0.858,0.0
13.76,-1.447,-0.871,0.0
12.924,-1.361,-0.888,0.0
12.092,-1.275,-0.897,0.0
11.324,-1.196,-0.901,0.0
10.774,-1.139,-0.916,0.0
15.103,-1.594,-0.859,0.0
13.925,-1.472,-0.867,0.0
13.041,-1.38,-0.882,0.0
12.196,-1.292,-0.892,0.0
11.51,-1.221,-0.904,0.0
10.852,-1.153,-0.911,0.0
15.271,-1.619,-0.853,0.0
14.204,-1.508,-0.87,0.0
13.192,-1.402,-0.879,0.0
12.396,-1.319,-0.894,0.0
11.66,-1.242,-0.904,0.0
10.966,-1.169,-0.909,0.0
15.559,-1.657,-0.852,0.0
14.336,-1.528,-0.862,0.0
13.458,-1.436,-0.882,0.0
12.557,-1.341,-0.892,0.0
11.812,-1.263,-0.902,0.0
11.119,-1.19,-0.91,0.0
15.665,-1.674,-0.841,0.0
14.689,-1.571,-0.867,0.0
13.587,-1.455,-0.875,0.0
12.699,-1.361,-0.888,0.0
11.944,-1.281,-0.899,0.0
11.186,-1.201,-0.902,0.0
16.082,-1.724,-0.845,0.0
14.87,-1.596,-0.861,0.0
13.727,-1.474,-0.869,0.0
12.901,-1.387,-0.887,0.0
12.098,-1.302,-0.897,0.0
11.312,-1.218,-0.9,0.0
16.435,-1.767,-0.846,0.0
15.138,-1.629,-0.86,0.0
13.978,-1.505,-0.869,0.0
13.058,-1.407,-0.883,0.0
12.261,-1.322,-0.895,0.0
11.452,-1.236,-0.898,0.0
16.723,-1.803,-0.841,0.0
15.493,-1.671,-0.862,0.0
14.277,-1.541,-0.871,0.0
13.271,-1.433,-0.882,0.0
12.562,-1.358,-0.903,0.0
11.657,-1.261,-0.9,0.0
16.916,-1.827,-0.832,0.0
15.666,-1.693,-0.854,0.0
14.482,-1.566,-0.867,0.0
13.42,-1.452,-0.877,0.0
12.637,-1.368,-0.893,0.0
11.869,-1.286,-0.903,0.0
17.237,-1.865,-0.827,0.0
16.001,-1.732,-0.853,0.0
14.778,-1.601,-0.867,0.0
13.639,-1.478,-0.875,0.0
12.836,-1.392,-0.892,0.0
12.048,-1.307,-0.902,0.0
17.428,-1.888,-0.815,0.0
16.291,-1.766,-0.849,0.0
14.918,-1.617,-0.857,0.0
13.927,-1.511,-0.876,0.0
13.009,-1.412,-0.888,0.0
12.177,-1.322,-0.896,0.0
17.845,-1.935,-0.813,0.0
16.558,-1.796,-0.843,0.0
15.292,-1.659,-0.86,0.0
14.179,-1.539,-0.875,0.0
13.256,-1.439,-0.889,0.0
12.426,-1.35,-0.899,0.0
18.593,-2.017,-0.824,0.0
16.942,-1.838,-0.841,0.0
15.629,-1.696,-0.86,0.0
14.309,-1.553,-0.865,0.0
13.379,-1.453,-0.88,0.0
12.595,-1.368,-0.896,0.0
18.66,-2.024,-0.804,0.0
17.159,-1.862,-0.831,0.0
15.909,-1.726,-0.855,0.0
14.679,-1.593,-0.869,0.0
13.615,-1.478,-0.879,0.0
12.76,-1.386,-0.892,0.0
19.371,-2.1,-0.811,0.0
17.383,-1.885,-0.82,0.0
16.176,-1.754,-0.849,0.0
14.921,-1.618,-0.864,0.0
13.854,-1.503,-0.877,0.0
12.941,-1.404,-0.888,0.0
19.54,-2.117,-0.793,0.0
17.769,-1.925,-0.816,0.0
16.511,-1.789,-0.846,0.0
15.203,-1.647,-0.862,0.0
14.088,-1.526,-0.873,0.0
13.192,-1.429,-0.889,0.0
20.128,-2.178,-0.791,0.0
18.331,-1.984,-0.818,0.0
16.897,-1.828,-0.844,0.0
15.5,-1.677,-0.858,0.0
14.291,-1.546,-0.868,0.0
13.339,-1.443,-0.881,0.0
20.463,-2.211,-0.779,0.0
18.701,-2.02,-0.811,0.0
17.009,-1.837,-0.828,0.0
15.84,-1.71,-0.857,0.0
14.689,-1.586,-0.873,0.0
13.577,-1.466,-0.879,0.0
21.135,-2.279,-0.777,0.0
19.372,-2.088,-0.815,0.0
17.372,-1.872,-0.823,0.0
16.096,-1.734,-0.85,0.0
14.934,-1.608,-0.868,0.0
13.818,-1.488,-0.877,0.0
21.722,-2.336,-0.771,0.0
19.625,-2.11,-0.801,0.0
17.703,-1.903,-0.816,0.0
16.45,-1.767,-0.847,0.0
15.235,-1.636,-0.866,0.0
14.122,-1.516,-0.878,0.0
22.197,-2.38,-0.759,0.0
20.181,-2.163,-0.797,0.0
18.479,-1.98,-0.828,0.0
16.763,-1.795,-0.842,0.0
15.516,-1.661,-0.862,0.0
14.35,-1.535,-0.873,0.0
22.945,-2.452,-0.754,0.0
20.407,-2.18,-0.779,0.0
18.829,-2.01,-0.819,0.0
17.087,-1.823,-0.836,0.0
15.732,-1.678,-0.853,0.0
14.652,-1.562,-0.873,0.0
23.477,-2.5,-0.741,0.0
21.19,-2.255,-0.782,0.0
19.037,-2.024,-0.803,0.0
17.465,-1.856,-0.831,0.0
16.034,-1.703,-0.848,0.0
14.935,-1.585,-0.87,0.0
24.169,-2.563,-0.732,0.0
21.565,-2.285,-0.767,0.0
19.556,-2.07,-0.8,0.0
17.721,-1.875,-0.82,0.0
16.402,-1.734,-0.847,0.0
15.181,-1.604,-0.864,0.0
24.721,-2.609,-0.717,0.0
22.008,-2.321,-0.755,0.0
20.007,-2.108,-0.792,0.0
17.669,-1.86,-0.795,0.0
16.818,-1.769,-0.846,0.0
15.55,-1.634,-0.865,0.0
25.736,-2.702,-0.712,0.0
22.425,-2.352,-0.739,0.0
20.542,-2.153,-0.786,0.0
18.779,-1.966,-0.82,0.0
17.029,-1.781,-0.834,0.0
15.833,-1.655,-0.86,0.0
26.19,-2.735,-0.691,0.0
23.648,-2.467,-0.749,0.0
20.808,-2.168,-0.77,0.0
19.25,-2.004,-0.816,0.0
17.454,-1.815,-0.833,0.0
16.149,-1.678,-0.856,0.0
26.856,-2.787,-0.674,0.0
23.862,-2.474,-0.725,0.0
21.714,-2.248,-0.775,0.0
19.515,-2.018,-0.802,0.0
17.656,-1.824,-0.819,0.0
16.497,-1.703,-0.853,0.0
27.753,-2.862,-0.661,0.0
24.922,-2.567,-0.725,0.0
22.146,-2.278,-0.762,0.0
19.817,-2.036,-0.789,0.0
18.03,-1.85,-0.814,0.0
16.697,-1.711,-0.842,0.0
28.973,-2.967,-0.652,0.0
25.633,-2.621,-0.713,0.0
22.548,-2.302,-0.746,0.0
20.466,-2.087,-0.788,0.0
18.792,-1.914,-0.823,0.0
17.028,-1.732,-0.837,0.0
29.525,-3.0,-0.627,0.0
25.985,-2.637,-0.689,0.0
23.333,-2.364,-0.742,0.0
20.922,-2.117,-0.779,0.0
19.165,-1.936,-0.815,0.0
17.376,-1.753,-0.831,0.0
30.799,-3.105,-0.614,0.0
27.088,-2.727,-0.684,0.0
23.89,-2.401,-0.73,0.0
21.487,-2.156,-0.773,0.0
19.642,-1.968,-0.811,0.0
17.735,-1.775,-0.826,0.0
0.0,0.0,0.0,0.0
0.0,0.0,0.0,0.0
24.748,-2.466,-0.725,0.0
21.951,-2.184,-0.762,0.0
20.01,-1.987,-0.8,0.0
18.201,-1.805,-0.825,0.0
0.0,0.0,0.0,0.0
28.447,-2.813,-0.647,0.0
25.351,-2.503,-0.711,0.0
22.538,-2.221,-0.754,0.0
20.529,-2.02,-0.796,0.0
18.727,-1.839,-0.825,0.0
0.0,0.0,0.0,0.0
0.0,0.0,0.0,0.0
26.055,-2.548,-0.698,0.0
22.942,-2.239,-0.739,0.0
20.655,-2.012,-0.775,0.0
19.13,-1.86,-0.819,0.0
0.0,0.0,0.0,0.0
29.744,-2.884,-0.602,0.0
0.0,0.0,0.0,0.0
23.815,-2.3,-0.737,0.0
21.332,-2.057,-0.774,0.0
19.452,-1.872,-0.809,0.0
37.558,-3.611,-0.516,0.0
0.0,0.0,0.0,0.0
27.417,-2.625,-0.667,0.0
23.779,-2.272,-0.707,0.0
22.005,-2.098,-0.771,0.0
19.82,-1.886,-0.8,0.0
0.0,0.0,0.0,0.0
0.0,0.0,0.0,0.0
28.217,-2.671,-0.653,0.0
25.118,-2.373,-0.717,0.0
22.283,-2.1,-0.754,0.0
20.349,-1.914,-0.797,0.0
0.0,0.0,0.0,0.0
0.0,0.0,0.0,0.0
29.119,-2.724,-0.638,0.0
25.791,-2.407,-0.705,0.0
23.077,-2.149,-0.754,0.0
20.639,-1.918,-0.784,0.0
0.0,0.0,0.0,0.0
0.0,0.0,0.0,0.0
29.863,-2.759,-0.62,0.0
26.464,-2.439,-0.693,0.0
23.364,-2.148,-0.736,0.0
21.256,-1.95,-0.782,0.0
0.0,0.0,0.0,0.0
0.0,0.0,0.0,0.0
31.339,-2.857,-0.614,0.0
27.543,-2.505,-0.689,0.0
24.129,-2.189,-0.732,0.0
21.619,-1.956,-0.771,0.0
0.0,0.0,0.0,0.0
0.0,0.0,0.0,0.0
0.0,0.0,0.0,0.0
0.0,0.0,0.0,0.0
25.074,-2.244,-0.732,0.0
22.31,-1.991,-0.77,0.0
0.0,0.0,0.0,0.0
39.828,-3.541,-0.478,0.0
32.745,-2.903,-0.567,0.0
0.0,0.0,0.0,0.0
25.419,-2.241,-0.714,0.0
22.495,-1.978,-0.751,0.0
0.0,0.0,0.0,0.0
40.301,-3.531,-0.439,0.0
0.0,0.0,0.0,0.0
29.462,-2.566,-0.638,0.0
0.0,0.0,0.0,0.0
23.211,-2.01,-0.75,0.0
0.0,0.0,0.0,0.0
0.0,0.0,0.0,0.0
0.0,0.0,0.0,0.0
0.0,0.0,0.0,0.0
27.105,-2.317,-0.702,0.0
23.646,-2.015,-0.738,0.0
0.0,0.0,0.0,0.0
0.0,0.0,0.0,0.0
0.0,0.0,0.0,0.0
30.963,-2.611,-0.604,0.0
27.112,-2.279,-0.673,0.0
24.185,-2.027,-0.73,0.0
0.0,0.0,0.0,0.0
0.0,0.0,0.0,0.0
38.888,-3.235,-0.506,0.0
32.749,-2.715,-0.605,0.0
27.618,-2.283,-0.657,0.0
24.868,-2.048,-0.725,0.0
0.0,0.0,0.0,0.0
0.0,0.0,0.0,0.0
0.0,0.0,0.0,0.0
32.796,-2.671,-0.572,0.0
29.036,-2.357,-0.661,0.0
25.335,-2.049,-0.712,0.0
0.0,0.0,0.0,0.0
0.0,0.0,0.0,0.0
41.472,-3.327,-0.456,0.0
33.369,-2.668,-0.549,0.0
29.24,-2.329,-0.637,0.0
25.556,-2.028,-0.693,0.0
0.0,0.0,0.0,0.0
0.0,0.0,0.0,0.0
41.813,-3.29,-0.419,0.0
35.221,-2.761,-0.545,0.0
30.403,-2.375,-0.633,0.0
26.435,-2.057,-0.692,0.0
0.0,0.0,0.0,0.0
0.0,0.0,0.0,0.0
0.0,0.0,0.0,0.0
36.717,-2.821,-0.533,0.0
30.953,-2.369,-0.615,0.0
27.114,-2.067,-0.684,0.0
98.916,-7.533,0.251,5.0
0.0,0.0,0.0,0.0
0.0,0.0,0.0,0.0
38.277,-2.879,-0.52,0.0
32.083,-2.403,-0.608,0.0
27.411,-2.045,-0.666,0.0
98.932,-7.373,0.342,9.0
0.0,0.0,0.0,0.0
0.0,0.0,0.0,0.0
0.0,0.0,0.0,0.0
0.0,0.0,0.0,0.0
27.526,-2.008,-0.645,0.0
98.985,-7.214,0.429,12.0
64.351,-4.67,-0.065,0.0
0.0,0.0,0.0,0.0
0.0,0.0,0.0,0.0
33.312,-2.386,-0.573,0.0
28.865,-2.058,-0.651,0.0
99.981,-7.119,0.518,9.0
0.0,0.0,0.0,0.0
0.0,0.0,0.0,0.0
0.0,0.0,0.0,0.0
0.0,0.0,0.0,0.0
29.436,-2.049,-0.64,0.0
100.112,-6.958,0.601,8.0
0.0,0.0,0.0,0.0
0.0,0.0,0.0,0.0
41.26,-2.827,-0.421,0.0
0.0,0.0,0.0,0.0
29.945,-2.032,-0.627,0.0
0.0,0.0,0.0,0.0
0.0,0.0,0.0,0.0
0.0,0.0,0.0,0.0
0.0,0.0,0.0,0.0
36.11,-2.399,-0.534,0.0
30.156,-1.994,-0.608,0.0
99.771,-6.586,0.755,3.0
99.746,-6.55,0.218,3.0
0.0,0.0,0.0,0.0
0.0,0.0,0.0,0.0
37.333,-2.414,-0.524,0.0
31.115,-2.001,-0.604,0.0
125.205,-8.041,1.04,15.0
0.0,0.0,0.0,0.0
0.0,0.0,0.0,0.0
0.0,0.0,0.0,0.0
37.24,-2.341,-0.496,0.0
0.0,0.0,0.0,0.0
149.933,-9.357,1.351,12.0
108.609,-6.741,0.393,5.0
0.0,0.0,0.0,0.0
0.0,0.0,0.0,0.0
0.0,0.0,0.0,0.0
0.0,0.0,0.0,0.0
149.91,-9.08,1.452,16.0
109.431,-6.59,0.469,2.0
0.0,0.0,0.0,0.0
48.227,-2.87,-0.318,0.0
38.39,-2.271,-0.46,0.0
33.098,-1.947,-0.576,0.0
150.082,-8.81,1.55,11.0
0.0,0.0,0.0,0.0
0.0,0.0,0.0,0.0
0.0,0.0,0.0,0.0
40.254,-2.306,-0.458,0.0
33.131,-1.887,-0.556,0.0
140.676,-7.993,1.538,8.0
0.0,0.0,0.0,0.0
0.0,0.0,0.0,0.0
0.0,0.0,0.0,0.0
0.0,0.0,0.0,0.0
0.0,0.0,0.0,0.0
0.0,0.0,0.0,0.0
101.481,-5.535,0.619,39.0
0.0,0.0,0.0,0.0
0.0,0.0,0.0,0.0
0.0,0.0,0.0,0.0
0.0,0.0,0.0,0.0
101.518,-5.375,1.224,34.0
102.509,-5.39,0.681,2.0
0.0,0.0,0.0,0.0
0.0,0.0,0.0,0.0
37.89,-1.951,-0.367,0.0
35.641,-1.823,-0.539,0.0
101.569,-5.179,1.277,1.0
0.0,0.0,0.0,0.0
0.0,0.0,0.0,0.0
0.0,0.0,0.0,0.0
42.953,-2.128,-0.396,0.0
36.453,-1.793,-0.534,0.0
0.0,0.0,0.0,0.0
101.51,-4.938,0.774,6.0
101.545,-4.902,0.223,1.0
0.0,0.0,0.0,0.0
0.0,0.0,0.0,0.0
0.0,0.0,0.0,0.0
0.0,0.0,0.0,0.0
101.533,-4.736,0.819,150.0
0.0,0.0,0.0,0.0
0.0,0.0,0.0,0.0
45.149,-2.057,-0.376,0.0
0.0,0.0,0.0,0.0
101.403,-4.563,1.41,4.0
0.0,0.0,0.0,0.0
0.0,0.0,0.0,0.0
0.0,0.0,0.0,0.0
0.0,0.0,0.0,0.0
37.655,-1.625,-0.504,0.0
101.526,-4.363,1.45,74.0
101.463,-4.321,0.896,14.0
0.0,0.0,0.0,0.0
0.0,0.0,0.0,0.0
0.0,0.0,0.0,0.0
37.333,-1.535,-0.487,0.0
101.568,-4.157,1.484,3.0
0.0,0.0,0.0,0.0
0.0,0.0,0.0,0.0
0.0,0.0,0.0,0.0
0.0,0.0,0.0,0.0
0.0,0.0,0.0,0.0
162.135,-6.302,2.418,8.0
0.0,0.0,0.0,0.0
0.0,0.0,0.0,0.0
0.0,0.0,0.0,0.0
0.0,0.0,0.0,0.0
38.292,-1.418,-0.478,0.0
162.158,-5.968,2.461,16.0
162.296,-5.912,1.576,15.0
0.0,0.0,0.0,0.0
0.0,0.0,0.0,0.0
0.0,0.0,0.0,0.0
0.0,0.0,0.0,0.0
162.213,-5.629,2.498,15.0
161.94,-5.559,1.608,20.0
0.0,0.0,0.0,0.0
0.0,0.0,0.0,0.0
0.0,0.0,0.0,0.0
0.0,0.0,0.0,0.0
162.186,-5.29,2.529,21.0
161.995,-5.222,1.638,13.0
0.0,0.0,0.0,0.0
0.0,0.0,0.0,0.0
0.0,0.0,0.0,0.0
0.0,0.0,0.0,0.0
163.723,-4.995,2.578,7.0
162.065,-4.885,1.663,15.0
17.616,-0.524,0.084,0.0
0.0,0.0,0.0,0.0
0.0,0.0,0.0,0.0
0.0,0.0,0.0,0.0
0.0,0.0,0.0,0.0
161.952,-4.539,1.679,13.0
0.0,0.0,0.0,0.0
0.0,0.0,0.0,0.0
0.0,0.0,0.0,0.0
0.0,0.0,0.0,0.0
170.392,-4.477,2.715,6.0
94.611,-2.451,0.987,8.0
0.0,0.0,0.0,0.0
0.0,0.0,0.0,0.0
0.0,0.0,0.0,0.0
0.0,0.0,0.0,0.0
0.0,0.0,0.0,0.0
94.492,-2.247,0.989,150.0
94.764,-2.217,0.471,1.0
0.0,0.0,0.0,0.0
0.0,0.0,0.0,0.0
40.238,-0.897,-0.468,0.0
0.0,0.0,0.0,0.0
94.462,-2.046,0.989,12.0
0.0,0.0,0.0,0.0
0.0,0.0,0.0,0.0
0.0,0.0,0.0,0.0
0.0,0.0,0.0,0.0
0.0,0.0,0.0,0.0
94.439,-1.844,0.984,171.0
95.539,-1.83,0.469,1.0
0.0,0.0,0.0,0.0
0.0,0.0,0.0,0.0
0.0,0.0,0.0,0.0
94.785,-1.683,1.504,1.0
94.428,-1.641,0.977,177.0
19.772,-0.336,0.095,0.0
62.613,-1.042,-0.049,0.0
0.0,0.0,0.0,0.0
0.0,0.0,0.0,0.0
94.687,-1.478,1.492,2.0
19.749,-0.301,0.202,13.0
19.757,-0.293,0.092,23.0
0.0,0.0,0.0,0.0
0.0,0.0,0.0,0.0
0.0,0.0,0.0,0.0
19.752,-0.266,0.308,9.0
19.752,-0.259,0.199,26.0
19.761,-0.251,0.089,2.0
0.0,0.0,0.0,0.0
0.0,0.0,0.0,0.0
38.779,-0.452,-0.471,0.0
19.753,-0.224,0.304,8.0
94.589,-1.037,0.934,10.0
94.208,-0.999,0.409,1.0
0.0,0.0,0.0,0.0
19.799,-0.195,-0.135,2.0
19.763,-0.188,-0.244,13.0
170.802,-1.571,2.595,4.0
94.67,-0.836,0.913,1.0
0.0,0.0,0.0,0.0
19.791,-0.16,-0.03,2.0
19.73,-0.153,-0.139,14.0
19.743,-0.146,-0.249,17.0
19.742,-0.139,0.294,0.0
19.744,-0.132,0.185,8.0
19.735,-0.125,0.075,9.0
19.722,-0.118,-0.035,12.0
19.717,-0.111,-0.145,17.0
19.734,-0.104,-0.254,16.0
19.674,-0.097,0.287,10.0
19.704,-0.09,0.178,14.0
19.698,-0.083,0.069,13.0
19.691,-0.076,-0.042,17.0
19.717,-0.068,-0.151,15.0
19.75,-0.062,-0.261,15.0
19.643,-0.055,0.28,10.0
19.666,-0.048,0.171,10.0
19.699,-0.041,0.062,14.0
19.712,-0.034,-0.049,13.0
19.752,-0.027,-0.158,6.0
0.0,0.0,0.0,0.0
19.63,-0.013,0.273,13.0
19.745,-0.006,0.165,4.0
19.785,0.0,0.055,5.0
19.739,0.006,-0.056,151.0
19.755,0.013,-0.166,3.0
19.756,0.02,-0.276,9.0
19.626,0.027,0.265,13.0
19.745,0.034,0.156,15.0
19.757,0.041,0.046,15.0
19.752,0.047,-0.065,25.0
19.767,0.054,-0.175,56.0
19.762,0.062,-0.285,41.0
19.62,0.068,0.256,16.0
19.68,0.075,0.147,14.0
19.684,0.082,0.037,10.0
19.697,0.089,-0.074,2.0
19.788,0.096,-0.184,0.0
35.403,0.185,-0.528,0.0
19.633,0.109,0.247,10.0
19.661,0.117,0.137,15.0
19.637,0.123,0.027,15.0
19.648,0.13,-0.083,11.0
19.673,0.137,-0.193,8.0
19.718,0.144,-0.304,1.0
19.65,0.151,0.237,14.0
19.657,0.158,0.127,11.0
19.638,0.164,0.017,15.0
19.623,0.17,-0.094,15.0
19.645,0.177,-0.204,15.0
19.653,0.184,-0.314,16.0
19.734,0.193,0.226,14.0
19.721,0.199,0.116,12.0
19.661,0.205,0.006,11.0
19.621,0.211,-0.105,16.0
19.639,0.218,-0.215,17.0
19.662,0.225,-0.325,14.0
19.759,0.233,0.215,27.0
19.762,0.24,0.105,10.0
19.676,0.245,-0.005,0.0
19.654,0.252,-0.117,14.0
19.655,0.258,-0.227,15.0
19.671,0.265,-0.338,13.0
19.764,0.274,0.203,9.0
0.0,0.0,0.0,0.0
55.123,0.799,-0.05,2.0
19.766,0.293,-0.13,0.0
19.683,0.298,-0.24,1.0
32.132,0.498,-0.573,0.0
55.205,0.877,0.531,8.0
55.194,0.894,0.222,35.0
55.156,0.912,-0.087,6.0
40.646,0.686,-0.296,1.0
32.695,0.562,-0.422,0.0
31.576,0.553,-0.584,0.0
55.174,0.988,0.493,64.0
55.173,1.006,0.183,36.0
52.345,0.972,-0.12,1.0
39.606,0.748,-0.317,1.0
55.175,1.06,-0.752,1.0
28.112,0.549,-0.541,0.0
113.931,2.271,0.934,9.0
0.0,0.0,0.0,0.0
48.471,0.996,-0.147,0.0
38.318,0.799,-0.335,4.0
31.616,0.669,-0.454,1.0
25.716,0.553,-0.514,0.0
113.369,2.483,0.843,14.0
0.0,0.0,0.0,0.0
44.013,0.992,-0.167,3.0
36.673,0.837,-0.349,2.0
30.164,0.698,-0.457,2.0
25.446,0.597,-0.529,0.0
70.89,1.691,0.471,12.0
0.0,0.0,0.0,0.0
0.0,0.0,0.0,0.0
35.183,0.872,-0.363,5.0
29.512,0.74,-0.471,1.0
25.433,0.646,-0.549,1.0
0.0,0.0,0.0,0.0
40.175,1.048,0.007,157.0
40.026,1.057,-0.217,45.0
40.245,1.075,-0.449,0.0
28.829,0.779,-0.484,1.0
24.786,0.677,-0.556,1.0
0.0,0.0,0.0,0.0
40.13,1.124,-0.026,107.0
40.044,1.134,-0.252,39.0
40.147,1.149,-0.483,0.0
27.612,0.798,-0.488,5.0
23.949,0.7,-0.559,1.0
40.127,1.189,0.163,134.0
40.138,1.2,-0.062,150.0
39.965,1.208,-0.288,10.0
40.159,1.226,-0.52,1.0
27.564,0.849,-0.512,1.0
23.078,0.718,-0.559,0.0
40.132,1.264,0.126,150.0
40.124,1.275,-0.099,150.0
39.794,1.277,-0.324,4.0
40.139,1.3,-0.557,2.0
26.306,0.859,-0.514,1.0
22.441,0.74,-0.565,1.0
40.13,1.339,0.088,150.0
40.136,1.351,-0.138,150.0
40.125,1.363,-0.365,1.0
29.918,1.024,-0.444,1.0
25.682,0.887,-0.527,1.0
21.854,0.761,-0.572,1.0
40.135,1.413,0.048,19.0
40.115,1.425,-0.178,123.0
35.558,1.273,-0.359,1.0
29.206,1.054,-0.463,3.0
24.784,0.901,-0.533,1.0
21.415,0.785,-0.582,1.0
41.458,1.536,0.007,2.0
41.141,1.536,-0.225,3.0
33.378,1.255,-0.371,0.0
28.356,1.074,-0.479,3.0
23.899,0.912,-0.539,4.0
21.022,0.808,-0.593,1.0
40.338,1.566,-0.034,155.0
40.25,1.574,-0.262,20.0
40.406,1.591,-0.492,0.0
27.542,1.092,-0.494,7.0
23.553,0.94,-0.556,18.0
20.255,0.814,-0.593,1.0
40.339,1.637,-0.077,150.0
39.619,1.619,-0.3,3.0
30.553,1.256,-0.405,0.0
23.691,0.98,-0.45,4.0
23.126,0.963,-0.571,5.0
19.899,0.834,-0.604,2.0
23.649,1.0,-0.071,43.0
23.639,1.006,-0.205,42.0
23.631,1.012,-0.339,43.0
23.636,1.019,-0.476,39.0
22.012,0.955,-0.568,2.0
19.533,0.853,-0.615,2.0
23.615,1.039,-0.097,64.0
23.613,1.045,-0.231,67.0
23.608,1.051,-0.365,68.0
23.607,1.057,-0.502,63.0
23.64,1.065,-0.637,1.0
19.002,0.861,-0.62,3.0
23.614,1.079,-0.124,67.0
23.61,1.085,-0.259,60.0
23.613,1.091,-0.393,55.0
23.635,1.098,-0.53,38.0
20.927,0.977,-0.588,2.0
18.556,0.872,-0.627,3.0
23.636,1.119,-0.152,39.0
23.649,1.125,-0.287,36.0
23.664,1.132,-0.422,32.0
23.515,1.131,-0.555,12.0
20.038,0.969,-0.587,0.0
18.226,0.886,-0.638,3.0
37.492,1.836,-0.287,4.0
30.705,1.511,-0.41,1.0
23.715,1.173,-0.451,0.0
23.249,1.155,-0.577,1.0
19.673,0.983,-0.601,2.0
17.909,0.899,-0.649,2.0
35.801,1.81,-0.318,8.0
29.436,1.495,-0.429,2.0
25.214,1.287,-0.511,1.0
21.606,1.108,-0.563,0.0
19.166,0.988,-0.609,3.0
17.527,0.907,-0.657,1.0
34.131,1.779,-0.346,9.0
28.598,1.497,-0.453,6.0
24.409,1.284,-0.526,1.0
20.855,1.102,-0.57,4.0
18.7,0.992,-0.618,3.0
17.153,0.914,-0.665,1.0
31.937,1.713,-0.365,3.0
27.441,1.478,-0.469,2.0
23.512,1.272,-0.536,0.0
20.347,1.105,-0.582,1.0
18.313,0.999,-0.629,3.0
16.993,0.931,-0.68,2.0
31.158,1.718,-0.396,9.0
26.471,1.466,-0.488,1.0
19.772,1.099,-0.477,5.0
19.896,1.11,-0.595,3.0
18.053,1.012,-0.643,2.0
16.834,0.947,-0.696,2.0
29.516,1.67,-0.414,8.0
25.393,1.443,-0.501,0.0
19.739,1.126,-0.502,12.0
19.343,1.107,-0.604,3.0
17.649,1.014,-0.652,1.0
16.702,0.963,-0.713,1.0
28.593,1.658,-0.439,8.0
24.534,1.428,-0.517,0.0
19.726,1.153,-0.528,10.0
18.804,1.103,-0.613,3.0
17.258,1.016,-0.661,1.0
16.56,0.979,-0.729,1.0
27.464,1.631,-0.459,7.0
20.027,1.193,-0.449,0.0
19.716,1.179,-0.555,9.0
18.354,1.101,-0.623,3.0
17.045,1.026,-0.676,1.0
16.31,0.986,-0.74,1.0
26.471,1.608,-0.479,6.0
19.782,1.205,-0.471,6.0
19.69,1.204,-0.581,9.0
18.08,1.109,-0.639,2.0
16.863,1.038,-0.692,1.0
16.135,0.997,-0.755,1.0
25.612,1.589,-0.498,6.0
19.736,1.228,-0.497,11.0
19.507,1.218,-0.603,3.0
17.578,1.101,-0.646,1.0
16.718,1.051,-0.71,1.0
15.986,1.008,-0.77,1.0
24.618,1.558,-0.513,2.0
19.732,1.253,-0.524,9.0
18.79,1.196,-0.607,3.0
17.316,1.106,-0.66,1.0
16.534,1.06,-0.725,1.0
15.76,1.013,-0.782,0.0
20.012,1.291,-0.446,1.0
19.715,1.276,-0.552,9.0
18.373,1.193,-0.62,3.0
17.029,1.109,-0.673,1.0
16.288,1.063,-0.738,1.0
15.364,1.006,-0.784,0.0
19.776,1.3,-0.468,6.0
19.687,1.297,-0.579,10.0
18.014,1.19,-0.633,3.0
16.838,1.116,-0.69,1.0
16.11,1.071,-0.753,1.0
14.906,0.993,-0.782,0.0
19.743,1.32,-0.496,11.0
19.355,1.298,-0.597,3.0
17.557,1.18,-0.642,2.0
16.692,1.125,-0.708,1.0
15.96,1.079,-0.769,3.0
14.542,0.986,-0.784,0.0
19.726,1.341,-0.524,9.0
18.695,1.274,-0.604,3.0
17.279,1.181,-0.658,2.0
16.462,1.128,-0.723,1.0
15.722,1.08,-0.78,1.0
14.39,0.991,-0.797,0.0
19.719,1.362,-0.553,9.0
18.328,1.269,-0.619,3.0
17.017,1.181,-0.672,1.0
16.242,1.13,-0.737,1.0
15.235,1.062,-0.779,0.0
14.138,0.988,-0.804,0.0
19.682,1.38,-0.581,10.0
17.973,1.263,-0.634,2.0
16.825,1.185,-0.69,2.0
16.004,1.129,-0.749,1.0
14.866,1.052,-0.782,0.0
13.758,0.976,-0.803,0.0
19.212,1.366,-0.595,3.0
17.514,1.248,-0.643,1.0
16.647,1.188,-0.707,1.0
15.914,1.139,-0.769,1.0
14.699,1.054,-0.795,0.0
13.352,0.96,-0.799,0.0
18.61,1.34,-0.604,3.0
17.245,1.245,-0.659,2.0
16.441,1.189,-0.723,1.0
15.5,1.124,-0.772,0.0
14.281,1.037,-0.794,0.0
13.187,0.96,-0.809,0.0
13.652,1.116,-0.792,0.0
12.743,1.042,-0.813,0.0
12.015,0.983,-0.836,0.0
11.201,0.917,-0.845,0.0
10.548,0.865,-0.857,0.0
10.064,0.826,-0.876,0.0
13.395,1.097,-0.797,0.0
12.522,1.026,-0.817,0.0
11.862,0.973,-0.843,0.0
11.031,0.905,-0.848,0.0
10.442,0.857,-0.864,0.0
9.961,0.819,-0.882,0.0
13.303,1.091,-0.811,0.0
12.394,1.017,-0.827,0.0
11.502,0.945,-0.834,0.0
10.977,0.902,-0.86,0.0
10.299,0.847,-0.867,0.0
9.844,0.81,-0.886,0.0
12.87,1.057,-0.803,0.0
12.224,1.004,-0.833,0.0
11.392,0.937,-0.842,0.0
10.191,0.839,-0.872,0.0
9.697,0.799,-0.886,0.0
12.702,1.044,-0.81,0.0
12.041,0.99,-0.838,0.0
11.243,0.925,-0.847,0.0
10.119,0.833,-0.88,0.0
9.57,0.788,-0.888,0.0
12.572,1.033,-0.82,0.0
11.792,0.97,-0.837,0.0
11.082,0.912,-0.85,0.0
10.424,0.858,-0.861,0.0
9.959,0.82,-0.881,0.0
9.454,0.779,-0.891,0.0
12.406,1.019,-0.826,0.0
11.549,0.949,-0.835,0.0
10.932,0.899,-0.854,0.0
10.313,0.848,-0.866,0.0
9.794,0.806,-0.879,0.0
9.311,0.766,-0.89,0.0
12.225,1.004,-0.831,0.0
11.376,0.934,-0.838,0.0
10.711,0.88,-0.851,0.0
10.156,0.834,-0.867,0.0
9.705,0.798,-0.885,0.0
9.189,0.756,-0.891,0.0
12.05,0.988,-0.835,0.0
11.254,0.923,-0.845,0.0
10.594,0.869,-0.856,0.0
10.105,0.829,-0.876,0.0
9.639,0.791,-0.892,0.0
9.119,0.748,-0.896,0.0
11.867,0.971,-0.838,0.0
11.098,0.908,-0.848,0.0
10.474,0.857,-0.86,0.0
9.928,0.813,-0.874,0.0
9.482,0.776,-0.89,0.0
8.916,0.73,-0.888,0.0
11.62,0.949,-0.836,0.0
10.99,0.897,-0.854,0.0
10.309,0.842,-0.86,0.0
9.871,0.806,-0.882,0.0
9.429,0.77,-0.897,0.0
8.841,0.722,-0.892,0.0
11.449,0.932,-0.838,0.0
10.887,0.886,-0.86,0.0
10.251,0.834,-0.869,0.0
9.739,0.793,-0.883,0.0
9.243,0.752,-0.891,0.0
8.744,0.712,-0.894,0.0
11.291,0.916,-0.841,0.0
10.687,0.867,-0.857,0.0
10.124,0.821,-0.871,0.0
9.652,0.783,-0.887,0.0
9.113,0.739,-0.89,0.0
8.684,0.704,-0.899,0.0
11.176,0.903,-0.846,0.0
10.499,0.848,-0.856,0.0
10.044,0.811,-0.876,0.0
9.55,0.771,-0.889,0.0
9.087,0.734,-0.899,0.0
8.559,0.691,-0.896,0.0
11.094,0.892,-0.854,0.0
10.432,0.839,-0.863,0.0
9.962,0.801,-0.881,0.0
9.382,0.754,-0.885,0.0
8.915,0.717,-0.893,0.0
8.472,0.681,-0.897,0.0
10.907,0.873,-0.852,0.0
10.285,0.823,-0.863,0.0
9.868,0.789,-0.885,0.0
9.305,0.744,-0.889,0.0
8.812,0.705,-0.893,0.0
8.414,0.673,-0.902,0.0
10.23,0.814,-0.87,0.0
9.746,0.775,-0.885,0.0
9.221,0.733,-0.892,0.0
8.757,0.696,-0.897,0.0
8.342,0.663,-0.903,0.0
10.127,0.801,-0.873,0.0
9.618,0.761,-0.884,0.0
9.089,0.718,-0.889,0.0
8.693,0.687,-0.901,0.0
8.249,0.652,-0.903,0.0
10.496,0.825,-0.856,0.0
10.009,0.787,-0.874,0.0
9.593,0.754,-0.893,0.0
9.026,0.709,-0.893,0.0
8.597,0.675,-0.9,0.0
8.202,0.644,-0.907,0.0
10.43,0.815,-0.862,0.0
9.975,0.779,-0.882,0.0
9.409,0.734,-0.886,0.0
8.484,0.661,-0.898,0.0
8.121,0.633,-0.906,0.0
10.367,0.804,-0.868,0.0
9.904,0.767,-0.886,0.0
9.376,0.726,-0.893,0.0
8.406,0.65,-0.898,0.0
8.045,0.622,-0.906,0.0
10.23,0.787,-0.867,0.0
9.773,0.751,-0.884,0.0
9.222,0.708,-0.887,0.0
8.761,0.672,-0.894,0.0
8.35,0.64,-0.901,0.0
7.987,0.612,-0.908,0.0
10.16,0.775,-0.871,0.0
9.658,0.736,-0.883,0.0
9.163,0.698,-0.891,0.0
8.676,0.66,-0.894,0.0
8.289,0.63,-0.902,0.0
7.973,0.606,-0.914,0.0
10.115,0.765,-0.877,0.0
9.626,0.727,-0.889,0.0
9.119,0.688,-0.895,0.0
8.651,0.652,-0.9,0.0
8.222,0.619,-0.903,0.0
7.917,0.596,-0.915,0.0
10.013,0.75,-0.877,0.0
9.531,0.713,-0.889,0.0
9.038,0.676,-0.895,0.0
8.648,0.646,-0.907,0.0
8.205,0.612,-0.908,0.0
7.87,0.587,-0.917,0.0
9.964,0.739,-0.882,0.0
9.485,0.703,-0.894,0.0
8.983,0.665,-0.898,0.0
8.536,0.631,-0.903,0.0
8.148,0.602,-0.909,0.0
7.849,0.579,-0.921,0.0
9.875,0.725,-0.882,0.0
9.388,0.688,-0.892,0.0
8.874,0.65,-0.894,0.0
8.434,0.617,-0.9,0.0
8.057,0.589,-0.906,0.0
7.815,0.571,-0.924,0.0
9.799,0.711,-0.883,0.0
9.299,0.674,-0.892,0.0
8.882,0.643,-0.903,0.0
8.407,0.608,-0.903,0.0
8.044,0.581,-0.911,0.0
7.765,0.56,-0.924,0.0
9.703,0.696,-0.882,0.0
9.253,0.663,-0.894,0.0
8.833,0.632,-0.904,0.0
8.339,0.596,-0.903,0.0
7.979,0.57,-0.91,0.0
7.731,0.551,-0.926,0.0
9.686,0.687,-0.888,0.0
9.214,0.652,-0.897,0.0
8.712,0.616,-0.899,0.0
8.309,0.586,-0.905,0.0
7.984,0.563,-0.916,0.0
7.715,0.543,-0.93,0.0
9.665,0.677,-0.893,0.0
9.109,0.637,-0.894,0.0
8.654,0.604,-0.899,0.0
8.236,0.574,-0.903,0.0
7.917,0.551,-0.914,0.0
7.644,0.531,-0.926,0.0
9.598,0.663,-0.893,0.0
9.088,0.627,-0.898,0.0
8.653,0.596,-0.904,0.0
8.207,0.564,-0.906,0.0
7.897,0.542,-0.917,0.0
7.611,0.522,-0.927,0.0
9.538,0.65,-0.894,0.0
9.039,0.615,-0.898,0.0
8.599,0.584,-0.904,0.0
8.138,0.552,-0.903,0.0
7.861,0.532,-0.917,0.0
7.583,0.513,-0.929,0.0
9.469,0.636,-0.893,0.0
8.988,0.603,-0.899,0.0
8.565,0.573,-0.905,0.0
8.157,0.545,-0.91,0.0
7.828,0.522,-0.918,0.0
7.561,0.504,-0.93,0.0
9.416,0.623,-0.893,0.0
8.924,0.59,-0.897,0.0
8.517,0.562,-0.905,0.0
8.085,0.532,-0.906,0.0
7.805,0.513,-0.919,0.0
7.531,0.494,-0.93,0.0
9.424,0.614,-0.899,0.0
8.925,0.581,-0.902,0.0
8.496,0.552,-0.907,0.0
8.054,0.522,-0.907,0.0
7.794,0.504,-0.922,0.0
7.492,0.484,-0.929,0.0
9.384,0.602,-0.899,0.0
8.922,0.571,-0.906,0.0
8.459,0.54,-0.907,0.0
8.083,0.515,-0.914,0.0
7.79,0.496,-0.925,0.0
7.5,0.476,-0.934,0.0
9.345,0.589,-0.9,0.0
8.833,0.556,-0.901,0.0
8.399,0.527,-0.904,0.0
8.015,0.502,-0.909,0.0
7.772,0.486,-0.926,0.0
7.485,0.467,-0.935,0.0
9.324,0.578,-0.901,0.0
8.874,0.549,-0.908,0.0
8.412,0.519,-0.909,0.0
8.01,0.493,-0.912,0.0
7.751,0.476,-0.926,0.0
7.45,0.457,-0.933,0.0
9.261,0.564,-0.898,0.0
8.787,0.534,-0.902,0.0
8.383,0.508,-0.908,0.0
8.001,0.484,-0.913,0.0
7.743,0.467,-0.928,0.0
7.442,0.448,-0.935,0.0
9.227,0.552,-0.898,0.0
8.83,0.527,-0.909,0.0
8.377,0.498,-0.91,0.0
7.98,0.474,-0.913,0.0
7.745,0.458,-0.931,0.0
7.418,0.438,-0.934,0.0
9.216,0.541,-0.899,0.0
8.782,0.514,-0.907,0.0
8.347,0.487,-0.909,0.0
7.987,0.465,-0.916,0.0
7.734,0.449,-0.931,0.0
7.423,0.43,-0.936,0.0
9.226,0.531,-0.902,0.0
8.805,0.505,-0.911,0.0
8.319,0.476,-0.908,0.0
7.997,0.456,-0.919,0.0
7.711,0.439,-0.93,0.0
7.415,0.421,-0.936,0.0
9.183,0.517,-0.9,0.0
8.716,0.49,-0.903,0.0
8.34,0.467,-0.911,0.0
7.982,0.446,-0.918,0.0
7.711,0.43,-0.931,0.0
7.401,0.411,-0.936,0.0
9.178,0.506,-0.9,0.0
8.768,0.482,-0.91,0.0
8.317,0.456,-0.91,0.0
7.996,0.437,-0.921,0.0
7.706,0.42,-0.931,0.0
7.414,0.403,-0.938,0.0
9.2,0.496,-0.903,0.0
8.763,0.471,-0.91,0.0
8.329,0.447,-0.912,0.0
7.995,0.427,-0.921,0.0
7.676,0.409,-0.928,0.0
7.401,0.393,-0.937,0.0
9.166,0.484,-0.9,0.0
8.735,0.459,-0.907,0.0
8.289,0.434,-0.908,0.0
7.957,0.416,-0.917,0.0
7.684,0.4,-0.929,0.0
7.395,0.384,-0.936,0.0
9.189,0.474,-0.903,0.0
8.741,0.449,-0.908,0.0
8.327,0.426,-0.912,0.0
7.985,0.407,-0.92,0.0
7.687,0.391,-0.929,0.0
7.422,0.376,-0.939,0.0
9.179,0.462,-0.901,0.0
8.796,0.441,-0.913,0.0
8.38,0.419,-0.917,0.0
7.994,0.398,-0.92,0.0
7.705,0.382,-0.931,0.0
7.405,0.366,-0.936,0.0
9.236,0.453,-0.906,0.0
8.787,0.43,-0.911,0.0
8.348,0.406,-0.913,0.0
7.953,0.386,-0.915,0.0
7.719,0.373,-0.932,0.0
7.423,0.358,-0.938,0.0
9.221,0.441,-0.903,0.0
8.826,0.421,-0.914,0.0
8.346,0.396,-0.911,0.0
8.04,0.38,-0.924,0.0
7.712,0.363,-0.929,0.0
7.42,0.348,-0.936,0.0
9.259,0.431,-0.905,0.0
8.822,0.409,-0.912,0.0
8.364,0.386,-0.911,0.0
8.03,0.37,-0.921,0.0
7.745,0.355,-0.932,0.0
7.44,0.34,-0.937,0.0
9.3,0.421,-0.907,0.0
8.831,0.399,-0.911,0.0
8.434,0.379,-0.917,0.0
8.013,0.359,-0.917,0.0
7.73,0.345,-0.928,0.0
7.462,0.331,-0.938,0.0
9.34,0.412,-0.909,0.0
8.894,0.39,-0.915,0.0
8.454,0.369,-0.917,0.0
8.062,0.351,-0.92,0.0
7.779,0.337,-0.931,0.0
7.486,0.323,-0.938,0.0
9.328,0.399,-0.904,0.0
8.894,0.379,-0.912,0.0
8.477,0.36,-0.916,0.0
8.082,0.341,-0.92,0.0
7.791,0.327,-0.93,0.0
7.484,0.313,-0.935,0.0
9.378,0.39,-0.906,0.0
8.915,0.369,-0.911,0.0
8.525,0.351,-0.918,0.0
8.12,0.333,-0.921,0.0
7.825,0.319,-0.931,0.0
7.513,0.305,-0.936,0.0
9.401,0.379,-0.904,0.0
8.978,0.36,-0.913,0.0
8.503,0.339,-0.912,0.0
8.166,0.324,-0.922,0.0
7.836,0.309,-0.929,0.0
7.555,0.297,-0.938,0.0
9.477,0.37,-0.907,0.0
9.025,0.35,-0.914,0.0
8.556,0.33,-0.914,0.0
8.187,0.315,-0.921,0.0
7.875,0.301,-0.93,0.0
7.566,0.288,-0.935,0.0
9.504,0.359,-0.905,0.0
9.067,0.341,-0.914,0.0
8.647,0.323,-0.919,0.0
8.255,0.307,-0.924,0.0
7.92,0.293,-0.931,0.0
7.605,0.28,-0.936,0.0
9.552,0.349,-0.905,0.0
9.084,0.33,-0.91,0.0
8.682,0.313,-0.918,0.0
8.323,0.299,-0.927,0.0
7.939,0.283,-0.928,0.0
7.654,0.272,-0.938,0.0
9.612,0.339,-0.905,0.0
9.127,0.32,-0.909,0.0
8.683,0.303,-0.913,0.0
8.323,0.288,-0.922,0.0
7.997,0.275,-0.93,0.0
7.697,0.263,-0.938,0.0
9.651,0.328,-0.902,0.0
9.232,0.312,-0.914,0.0
8.742,0.294,-0.913,0.0
8.36,0.279,-0.921,0.0
8.047,0.267,-0.931,0.0
7.721,0.255,-0.936,0.0
9.738,0.319,-0.904,0.0
9.226,0.3,-0.907,0.0
8.858,0.286,-0.919,0.0
8.409,0.27,-0.92,0.0
8.074,0.258,-0.928,0.0
7.758,0.246,-0.935,0.0
9.784,0.308,-0.901,0.0
9.307,0.291,-0.908,0.0
8.867,0.276,-0.914,0.0
8.512,0.263,-0.925,0.0
8.114,0.249,-0.926,0.0
7.819,0.238,-0.936,0.0
9.886,0.299,-0.903,0.0
9.416,0.283,-0.911,0.0
8.966,0.268,-0.917,0.0
8.534,0.253,-0.921,0.0
8.184,0.241,-0.928,0.0
7.854,0.23,-0.934,0.0
9.92,0.288,-0.898,0.0
9.479,0.273,-0.91,0.0
9.012,0.258,-0.914,0.0
8.626,0.245,-0.923,0.0
8.26,0.233,-0.93,0.0
7.895,0.221,-0.932,0.0
10.054,0.28,-0.902,0.0
9.543,0.264,-0.908,0.0
9.043,0.248,-0.91,0.0
8.696,0.237,-0.923,0.0
8.361,0.226,-0.934,0.0
7.951,0.213,-0.932,0.0
10.123,0.27,-0.899,0.0
9.602,0.254,-0.905,0.0
9.193,0.241,-0.916,0.0
8.792,0.229,-0.925,0.0
8.385,0.216,-0.929,0.0
8.009,0.205,-0.931,0.0
10.234,0.26,-0.899,0.0
9.711,0.245,-0.906,0.0
9.243,0.231,-0.913,0.0
8.821,0.219,-0.92,0.0
8.457,0.208,-0.928,0.0
8.099,0.198,-0.933,0.0
10.318,0.25,-0.897,0.0
9.805,0.236,-0.905,0.0
9.293,0.222,-0.908,0.0
8.923,0.211,-0.922,0.0
8.535,0.2,-0.928,0.0
8.137,0.189,-0.929,0.0
10.452,0.241,-0.898,0.0
9.887,0.226,-0.902,0.0
9.431,0.214,-0.912,0.0
9.053,0.203,-0.926,0.0
8.61,0.192,-0.927,0.0
8.219,0.181,-0.93,0.0
10.614,0.233,-0.9,0.0
10.024,0.218,-0.904,0.0
9.514,0.205,-0.91,0.0
9.098,0.194,-0.92,0.0
8.648,0.182,-0.922,0.0
8.287,0.173,-0.928,0.0
10.715,0.223,-0.897,0.0
10.109,0.208,-0.901,0.0
9.625,0.196,-0.91,0.0
9.198,0.185,-0.92,0.0
8.714,0.174,-0.919,0.0
8.376,0.166,-0.929,0.0
10.754,0.211,-0.888,0.0
10.234,0.199,-0.9,0.0
9.711,0.187,-0.907,0.0
9.269,0.177,-0.917,0.0
8.861,0.167,-0.924,0.0
8.5,0.159,-0.933,0.0
10.939,0.203,-0.891,0.0
10.409,0.191,-0.903,0.0
9.845,0.179,-0.907,0.0
9.406,0.169,-0.919,0.0
8.951,0.159,-0.923,0.0
8.581,0.151,-0.931,0.0
11.108,0.194,-0.891,0.0
10.509,0.181,-0.899,0.0
9.972,0.17,-0.907,0.0
9.499,0.16,-0.916,0.0
9.037,0.15,-0.92,0.0
8.638,0.142,-0.926,0.0
11.206,0.183,-0.884,0.0
10.705,0.173,-0.902,0.0
10.131,0.162,-0.908,0.0
9.543,0.151,-0.908,0.0
9.146,0.143,-0.919,0.0
8.742,0.134,-0.926,0.0
11.341,0.174,-0.88,0.0
10.835,0.164,-0.899,0.0
10.265,0.153,-0.907,0.0
9.73,0.143,-0.913,0.0
9.289,0.135,-0.921,0.0
8.811,0.126,-0.922,0.0
11.608,0.166,-0.886,0.0
10.96,0.154,-0.895,0.0
10.356,0.144,-0.901,0.0
9.85,0.135,-0.911,0.0
9.445,0.128,-0.924,0.0
8.983,0.12,-0.927,0.0
11.76,0.156,-0.881,2.0
11.107,0.145,-0.892,0.0
10.556,0.136,-0.904,0.0
9.983,0.127,-0.909,0.0
9.501,0.119,-0.916,0.0
9.064,0.112,-0.923,0.0
11.921,0.146,-0.876,1.0
11.298,0.136,-0.891,0.0
10.698,0.127,-0.901,0.0
10.12,0.118,-0.907,0.0
9.651,0.111,-0.917,0.0
9.172,0.104,-0.92,0.0
12.158,0.137,-0.876,1.0
11.496,0.128,-0.89,0.0
10.872,0.119,-0.899,0.0
10.289,0.111,-0.907,0.0
9.804,0.103,-0.917,0.0
9.357,0.097,-0.925,0.0
12.355,0.128,-0.872,0.0
11.647,0.118,-0.884,1.0
11.012,0.11,-0.895,0.0
10.426,0.102,-0.904,0.0
9.881,0.095,-0.909,0.0
9.447,0.089,-0.92,0.0
12.602,0.119,-0.871,0.0
11.871,0.11,-0.883,0.0
11.209,0.102,-0.893,0.0
10.639,0.094,-0.906,0.0
10.099,0.088,-0.913,0.0
9.559,0.082,-0.916,0.0
12.836,0.109,-0.867,0.0
12.05,0.1,-0.878,0.0
11.396,0.093,-0.891,0.0
10.799,0.086,-0.902,0.0
10.245,0.08,-0.91,0.0
9.741,0.074,-0.917,0.0
13.088,0.1,-0.863,0.0
12.309,0.092,-0.877,0.0
11.612,0.085,-0.889,0.0
10.971,0.078,-0.899,0.0
