X,Y,Z,Reflectivity
149.109,-8.765,3.222,18.0
149.313,-8.724,2.396,19.0
140.751,-8.174,1.474,16.0
109.077,-6.32,4.169,31.0
117.585,-6.77,3.839,23.0
119.746,-6.85,3.241,19.0
147.48,-8.382,3.155,20.0
140.687,-7.945,2.225,13.0
0.0,0.0,0.0,0.0
109.039,-6.102,4.141,23.0
117.035,-6.507,3.792,27.0
148.166,-8.182,3.973,4.0
140.704,-7.72,2.973,32.0
0.0,0.0,0.0,0.0
0.0,0.0,0.0,0.0
109.31,-5.904,4.121,24.0
117.223,-6.29,3.764,24.0
140.464,-7.485,3.725,26.0
0.0,0.0,0.0,0.0
0.0,0.0,0.0,0.0
101.435,-5.295,0.98,2.0
109.482,-5.698,4.093,23.0
117.672,-6.081,3.74,19.0
140.962,-7.234,3.692,30.0
0.0,0.0,0.0,0.0
0.0,0.0,0.0,0.0
101.532,-5.102,0.946,152.0
117.581,-5.89,4.353,15.0
117.461,-5.84,3.69,5.0
139.295,-6.877,3.597,13.0
0.0,0.0,0.0,0.0
0.0,0.0,0.0,0.0
101.534,-4.903,0.906,152.0
117.177,-5.638,4.292,25.0
140.915,-6.73,4.37,12.0
150.681,-7.141,3.828,5.0
0.0,0.0,0.0,0.0
0.0,0.0,0.0,0.0
101.515,-4.702,0.862,117.0
117.257,-5.411,4.242,18.0
118.88,-5.442,3.634,10.0
142.417,-6.469,3.554,12.0
0.0,0.0,0.0,0.0
101.51,-4.537,1.384,44.0
101.477,-4.501,0.815,3.0
117.296,-5.18,4.188,23.0
118.749,-5.2,3.572,16.0
142.568,-6.193,3.488,24.0
0.0,0.0,0.0,0.0
101.542,-4.338,1.334,132.0
101.471,-4.3,0.763,150.0
127.033,-5.358,4.469,14.0
118.834,-4.969,3.513,17.0
141.715,-5.874,3.392,5.0
0.0,0.0,0.0,0.0
101.516,-4.135,1.278,2.0
0.0,0.0,0.0,0.0
116.942,-4.7,4.049,25.0
138.57,-5.519,4.017,9.0
141.716,-5.596,3.312,6.0
162.196,-6.346,2.861,15.0
0.0,0.0,0.0,0.0
0.0,0.0,0.0,0.0
138.487,-5.294,4.713,22.0
141.85,-5.373,4.028,17.0
0.0,0.0,0.0,0.0
162.183,-6.03,2.762,24.0
150.47,-5.541,1.715,38.0
160.754,-5.863,0.927,6.0
138.263,-5.014,4.618,31.0
163.203,-5.86,4.53,15.0
163.129,-5.8,3.608,4.0
162.14,-5.711,2.657,14.0
150.572,-5.252,1.618,150.0
160.858,-5.552,0.822,4.0
138.564,-4.753,4.535,15.0
163.311,-5.546,4.423,21.0
162.271,-5.453,3.478,11.0
162.189,-5.396,2.546,16.0
150.727,-4.963,1.516,151.0
0.0,0.0,0.0,0.0
138.258,-4.473,4.427,11.0
163.38,-5.229,4.308,20.0
162.538,-5.147,3.368,4.0
162.141,-5.078,2.428,14.0
150.914,-4.676,1.408,81.0
0.0,0.0,0.0,0.0
139.821,-4.25,4.372,17.0
163.466,-4.914,4.188,9.0
168.003,-4.991,3.354,15.0
161.822,-4.751,2.299,21.0
160.648,-4.664,1.376,3.0
0.0,0.0,0.0,0.0
140.583,-4.0,4.285,16.0
163.353,-4.591,4.054,4.0
178.088,-4.945,3.413,7.0
161.92,-4.441,2.171,28.0
160.64,-4.351,1.245,10.0
0.0,0.0,0.0,0.0
140.83,-3.733,4.177,10.0
0.0,0.0,0.0,0.0
170.351,-4.4,3.122,5.0
161.906,-4.13,2.036,31.0
160.693,-4.044,1.11,15.0
0.0,0.0,0.0,0.0
163.315,-4.015,4.703,20.0
171.421,-4.156,3.964,6.0
170.526,-4.076,2.977,5.0
162.034,-3.82,1.894,26.0
160.733,-3.738,0.969,15.0
0.0,0.0,0.0,0.0
163.267,-3.699,4.554,25.0
0.0,0.0,0.0,0.0
170.458,-3.749,2.821,5.0
169.377,-3.67,1.826,4.0
160.762,-3.432,0.822,7.0
0.0,0.0,0.0,0.0
163.328,-3.391,4.404,23.0
170.289,-3.482,3.627,4.0
163.806,-3.296,2.559,5.0
163.328,-3.232,1.607,24.0
0.0,0.0,0.0,0.0
0.0,0.0,0.0,0.0
163.42,-3.086,4.25,16.0
170.376,-3.161,3.462,9.0
163.392,-2.978,2.392,27.0
163.221,-2.922,1.445,16.0
0.0,0.0,0.0,0.0
0.0,0.0,0.0,0.0
163.501,-2.779,4.087,3.0
173.75,-2.896,3.355,5.0
163.208,-2.667,2.223,30.0
19.75,-0.316,0.154,9.0
19.73,-0.309,0.042,0.0
0.0,0.0,0.0,0.0
0.0,0.0,0.0,0.0
19.708,-0.291,0.359,0.0
19.739,-0.286,0.248,9.0
19.746,-0.279,0.133,30.0
0.0,0.0,0.0,0.0
0.0,0.0,0.0,0.0
19.783,-0.262,0.452,5.0
19.754,-0.255,0.339,9.0
19.737,-0.249,0.226,15.0
19.754,-0.243,0.112,2.0
0.0,0.0,0.0,0.0
0.0,0.0,0.0,0.0
19.746,-0.225,0.429,11.0
19.752,-0.219,0.317,7.0
163.972,-1.774,1.701,15.0
0.0,0.0,0.0,0.0
0.0,0.0,0.0,0.0
19.805,-0.196,-0.134,1.0
19.764,-0.19,0.407,6.0
169.021,-1.575,2.523,7.0
168.69,-1.519,1.555,4.0
0.0,0.0,0.0,0.0
19.786,-0.166,-0.044,2.0
19.741,-0.159,-0.157,14.0
177.254,-1.387,3.449,24.0
169.529,-1.276,2.331,8.0
19.738,-0.142,0.158,0.0
19.754,-0.137,0.044,7.0
19.736,-0.13,-0.068,10.0
19.729,-0.124,-0.18,17.0
19.68,-0.119,0.359,8.0
19.692,-0.113,0.247,10.0
19.711,-0.107,0.134,13.0
19.7,-0.101,0.02,13.0
19.711,-0.096,-0.092,14.0
19.731,-0.09,-0.205,16.0
19.658,-0.084,0.334,10.0
19.681,-0.078,0.222,14.0
19.7,-0.073,0.11,16.0
19.698,-0.067,-0.004,16.0
19.723,-0.061,-0.117,14.0
19.759,-0.056,-0.23,15.0
19.633,-0.05,0.309,11.0
19.649,-0.044,0.196,13.0
19.685,-0.038,0.084,14.0
19.708,-0.033,-0.029,14.0
19.747,-0.027,-0.142,8.0
0.0,0.0,0.0,0.0
19.626,-0.016,0.283,14.0
19.734,-0.01,0.171,6.0
19.788,-0.005,0.059,3.0
19.743,0.0,-0.055,8.0
19.785,0.005,-0.169,1.0
19.766,0.011,-0.282,2.0
19.632,0.017,0.257,15.0
19.754,0.022,0.145,15.0
19.745,0.028,0.032,13.0
19.739,0.033,-0.082,17.0
19.755,0.039,-0.195,15.0
19.763,0.044,-0.308,21.0
19.631,0.049,0.23,16.0
19.708,0.055,0.118,18.0
19.755,0.061,0.005,56.0
19.754,0.066,-0.109,26.0
19.766,0.071,-0.222,13.0
19.762,0.077,-0.336,4.0
19.665,0.082,0.203,12.0
19.673,0.087,0.09,12.0
19.673,0.093,-0.022,7.0
19.655,0.098,-0.136,0.0
0.0,0.0,0.0,0.0
29.695,0.164,-0.546,0.0
19.658,0.114,0.175,16.0
19.643,0.119,0.062,13.0
19.65,0.124,-0.049,10.0
19.666,0.129,-0.164,8.0
19.708,0.135,-0.278,0.0
29.822,0.212,-0.591,0.0
19.654,0.145,0.147,14.0
19.644,0.15,0.034,17.0
19.637,0.155,-0.078,13.0
19.645,0.16,-0.193,14.0
19.669,0.166,-0.306,10.0
19.67,0.171,-0.419,16.0
19.672,0.176,0.118,11.0
19.647,0.181,0.005,13.0
19.63,0.186,-0.107,16.0
19.635,0.191,-0.222,15.0
19.649,0.196,-0.335,14.0
19.672,0.201,-0.448,23.0
19.717,0.207,0.088,7.0
19.663,0.211,-0.024,8.0
19.635,0.216,-0.136,16.0
19.624,0.221,-0.251,17.0
19.645,0.226,-0.364,16.0
19.677,0.231,-0.478,20.0
84.839,1.019,0.254,2.0
19.657,0.241,-0.054,9.0
19.649,0.245,-0.166,15.0
19.639,0.25,-0.281,16.0
19.659,0.255,-0.395,15.0
19.684,0.261,-0.509,14.0
0.0,0.0,0.0,0.0
19.705,0.27,-0.084,5.0
19.667,0.275,-0.197,11.0
19.674,0.279,-0.312,10.0
19.698,0.284,-0.426,3.0
24.944,0.366,-0.683,1.0
55.106,0.823,-0.005,6.0
44.914,0.681,-0.263,1.0
36.029,0.555,-0.418,1.0
26.576,0.415,-0.464,0.0
27.377,0.435,-0.635,1.0
23.975,0.386,-0.695,1.0
52.466,0.859,-0.089,5.0
40.631,0.674,-0.302,0.0
33.006,0.555,-0.436,1.0
29.809,0.508,-0.568,0.0
26.602,0.46,-0.66,1.0
22.945,0.401,-0.701,1.0
47.799,0.848,-0.157,0.0
36.068,0.648,-0.326,0.0
30.768,0.559,-0.455,0.0
29.337,0.54,-0.606,0.0
25.364,0.473,-0.67,0.0
22.373,0.422,-0.72,0.0
44.118,0.842,-0.217,0.0
34.462,0.666,-0.368,2.0
29.485,0.576,-0.484,0.0
27.562,0.544,-0.615,1.0
24.215,0.484,-0.679,1.0
21.517,0.434,-0.728,2.0
40.275,0.822,-0.265,1.0
33.016,0.681,-0.407,2.0
27.697,0.577,-0.501,2.0
26.271,0.553,-0.63,6.0
23.17,0.493,-0.689,1.0
20.93,0.45,-0.743,3.0
0.0,0.0,0.0,0.0
0.0,0.0,0.0,0.0
25.856,0.572,-0.511,0.0
24.169,0.54,-0.62,1.0
22.561,0.509,-0.709,4.0
0.0,0.0,0.0,0.0
0.0,0.0,0.0,0.0
29.577,0.685,-0.464,2.0
25.298,0.592,-0.543,1.0
22.803,0.538,-0.623,1.0
21.772,0.518,-0.721,4.0
19.45,0.467,-0.756,0.0
33.356,0.807,-0.388,1.0
28.346,0.691,-0.493,1.0
23.456,0.577,-0.544,0.0
21.87,0.542,-0.635,1.0
20.896,0.522,-0.728,3.0
19.083,0.481,-0.775,2.0
31.151,0.791,-0.416,1.0
26.558,0.679,-0.508,1.0
22.609,0.582,-0.563,0.0
20.933,0.543,-0.644,1.0
20.459,0.535,-0.748,3.0
18.527,0.488,-0.784,1.0
29.671,0.787,-0.447,1.0
25.684,0.686,-0.536,2.0
21.721,0.584,-0.578,0.0
20.046,0.543,-0.651,0.0
19.713,0.538,-0.755,3.0
17.998,0.494,-0.793,2.0
28.405,0.785,-0.478,1.0
24.033,0.669,-0.543,0.0
20.772,0.582,-0.589,2.0
19.199,0.541,-0.658,0.0
19.146,0.543,-0.767,3.0
17.448,0.498,-0.8,0.0
26.717,0.767,-0.497,2.0
22.894,0.661,-0.558,0.0
20.192,0.587,-0.608,0.0
18.612,0.544,-0.67,0.0
18.525,0.545,-0.774,3.0
16.951,0.502,-0.807,0.0
25.772,0.767,-0.524,6.0
21.838,0.653,-0.57,1.0
19.321,0.581,-0.616,1.0
18.182,0.55,-0.687,1.0
18.054,0.549,-0.787,2.0
16.44,0.503,-0.812,0.0
24.54,0.755,-0.543,1.0
20.791,0.643,-0.58,0.0
18.97,0.59,-0.639,0.0
17.609,0.55,-0.697,0.0
17.671,0.555,-0.802,2.0
15.987,0.505,-0.818,0.0
22.826,0.724,-0.546,0.0
20.068,0.64,-0.596,0.0
18.214,0.583,-0.646,0.0
17.175,0.553,-0.71,0.0
17.0,0.55,-0.802,1.0
15.347,0.499,-0.813,0.0
21.661,0.707,-0.557,1.0
19.324,0.634,-0.608,1.0
17.433,0.574,-0.65,0.0
16.934,0.561,-0.731,0.0
16.671,0.555,-0.816,1.0
14.929,0.499,-0.818,0.0
21.127,0.708,-0.581,2.0
18.942,0.638,-0.631,2.0
17.157,0.58,-0.671,1.0
16.607,0.564,-0.747,0.0
16.155,0.551,-0.82,1.0
14.502,0.497,-0.82,0.0
20.179,0.694,-0.591,3.0
18.267,0.631,-0.641,1.0
16.953,0.588,-0.693,0.0
16.314,0.568,-0.763,0.0
14.257,0.5,-0.832,0.0
19.623,0.69,-0.611,3.0
40.161,1.419,-1.483,2.0
16.748,0.594,-0.715,0.0
16.18,0.576,-0.787,1.0
18.786,0.675,-0.619,2.0
17.181,0.62,-0.666,1.0
16.515,0.598,-0.736,0.0
15.961,0.58,-0.805,1.0
13.408,0.491,-0.832,0.0
18.322,0.672,-0.637,2.0
16.938,0.623,-0.687,0.0
16.3,0.602,-0.756,1.0
14.166,0.527,-0.823,0.0
13.185,0.492,-0.842,0.0
17.62,0.658,-0.645,0.0
16.749,0.628,-0.71,0.0
16.212,0.61,-0.782,1.0
14.889,0.562,-0.805,0.0
13.593,0.515,-0.814,0.0
12.893,0.49,-0.847,0.0
17.222,0.655,-0.662,1.0
16.547,0.631,-0.732,0.0
15.975,0.611,-0.799,1.0
14.451,0.555,-0.808,0.0
13.405,0.516,-0.828,0.0
12.544,0.485,-0.848,0.0
16.964,0.655,-0.683,0.0
16.307,0.632,-0.751,1.0
15.693,0.61,-0.814,0.0
14.173,0.552,-0.819,0.0
13.224,0.517,-0.841,0.0
12.252,0.48,-0.851,0.0
16.778,0.658,-0.706,0.0
16.205,0.637,-0.776,1.0
14.914,0.588,-0.801,0.0
13.678,0.541,-0.815,0.0
12.866,0.51,-0.842,0.0
11.996,0.477,-0.855,0.0
16.54,0.657,-0.727,0.0
15.978,0.637,-0.795,2.0
14.549,0.581,-0.808,0.0
13.451,0.539,-0.826,0.0
12.531,0.503,-0.843,0.0
11.866,0.478,-0.867,0.0
16.313,0.656,-0.746,1.0
15.702,0.633,-0.809,0.0
14.209,0.574,-0.815,0.0
13.187,0.534,-0.834,0.0
12.342,0.501,-0.853,0.0
11.621,0.473,-0.871,0.0
16.236,0.661,-0.772,1.0
14.942,0.609,-0.797,0.0
13.89,0.568,-0.822,0.0
12.975,0.531,-0.845,0.0
11.998,0.493,-0.851,0.0
11.352,0.467,-0.871,0.0
15.987,0.657,-0.79,1.0
14.6,0.601,-0.806,0.0
13.547,0.559,-0.826,0.0
12.611,0.521,-0.844,0.0
11.785,0.488,-0.857,0.0
11.119,0.462,-0.873,0.0
15.825,0.656,-0.81,0.0
14.193,0.589,-0.809,0.0
13.192,0.549,-0.828,0.0
12.305,0.513,-0.845,0.0
11.627,0.486,-0.867,0.0
10.923,0.457,-0.878,0.0
15.032,0.628,-0.797,0.0
13.863,0.58,-0.815,0.0
12.967,0.544,-0.838,0.0
12.004,0.504,-0.846,0.0
11.396,0.48,-0.87,0.0
10.687,0.451,-0.878,0.0
14.629,0.615,-0.801,0.0
13.585,0.572,-0.823,0.0
12.711,0.536,-0.844,0.0
11.856,0.501,-0.857,0.0
11.126,0.471,-0.869,0.0
10.534,0.447,-0.884,0.0
14.383,0.609,-0.813,0.0
13.297,0.564,-0.829,0.0
12.398,0.526,-0.845,0.0
11.639,0.495,-0.862,0.0
10.985,0.468,-0.878,0.0
10.348,0.441,-0.887,0.0
13.955,0.593,-0.814,0.0
13.004,0.554,-0.834,0.0
12.196,0.52,-0.853,0.0
11.451,0.489,-0.868,0.0
10.758,0.46,-0.879,0.0
10.197,0.437,-0.892,0.0
13.637,0.582,-0.819,0.0
12.758,0.545,-0.84,0.0
11.917,0.51,-0.854,0.0
11.217,0.481,-0.871,0.0
10.533,0.452,-0.879,0.0
10.038,0.431,-0.896,0.0
13.41,0.574,-0.829,0.0
12.442,0.533,-0.841,0.0
11.684,0.501,-0.858,0.0
11.008,0.473,-0.874,0.0
10.416,0.448,-0.887,0.0
9.853,0.424,-0.897,0.0
13.135,0.563,-0.835,0.0
12.243,0.526,-0.849,0.0
11.524,0.495,-0.866,0.0
10.781,0.464,-0.874,0.0
10.275,0.443,-0.893,0.0
9.728,0.42,-0.903,0.0
12.864,0.553,-0.84,0.0
11.995,0.516,-0.853,0.0
11.256,0.484,-0.866,0.0
10.59,0.456,-0.877,0.0
10.047,0.433,-0.891,0.0
9.601,0.414,-0.907,0.0
12.541,0.539,-0.84,0.0
11.784,0.506,-0.858,0.0
11.075,0.476,-0.871,0.0
10.413,0.448,-0.88,0.0
9.901,0.427,-0.895,0.0
9.425,0.406,-0.907,0.0
12.324,0.529,-0.846,0.0
11.592,0.498,-0.864,0.0
10.859,0.467,-0.872,0.0
10.282,0.442,-0.887,0.0
9.777,0.421,-0.9,0.0
9.273,0.399,-0.908,0.0
12.097,0.518,-0.851,0.0
11.371,0.488,-0.866,0.0
10.715,0.46,-0.878,0.0
10.123,0.434,-0.89,0.0
9.66,0.415,-0.905,0.0
9.152,0.393,-0.911,0.0
11.85,0.507,-0.853,0.0
11.138,0.476,-0.867,0.0
10.487,0.449,-0.877,0.0
10.007,0.428,-0.896,0.0
9.485,0.406,-0.905,0.0
8.983,0.385,-0.909,0.0
11.665,0.497,-0.859,0.0
10.939,0.466,-0.869,0.0
10.373,0.442,-0.884,0.0
9.815,0.418,-0.895,0.0
9.372,0.4,-0.909,0.0
8.877,0.379,-0.913,0.0
11.474,0.487,-0.864,0.0
10.777,0.457,-0.874,0.0
10.229,0.434,-0.889,0.0
9.697,0.411,-0.9,0.0
9.258,0.393,-0.913,0.0
8.735,0.371,-0.913,0.0
11.276,0.476,-0.867,0.0
10.646,0.449,-0.88,0.0
10.088,0.426,-0.892,0.0
9.556,0.403,-0.902,0.0
9.058,0.382,-0.908,0.0
8.627,0.364,-0.915,0.0
11.054,0.464,-0.867,0.0
10.424,0.437,-0.878,0.0
9.968,0.418,-0.897,0.0
9.416,0.395,-0.903,0.0
8.947,0.375,-0.911,0.0
8.507,0.356,-0.915,0.0
10.905,0.454,-0.872,0.0
10.318,0.43,-0.885,0.0
9.79,0.407,-0.896,0.0
9.289,0.386,-0.905,0.0
8.854,0.368,-0.915,0.0
8.394,0.349,-0.916,0.0
10.764,0.445,-0.877,0.0
10.202,0.421,-0.89,0.0
9.689,0.4,-0.902,0.0
9.177,0.379,-0.908,0.0
8.74,0.36,-0.916,0.0
8.284,0.342,-0.917,0.0
10.592,0.434,-0.878,0.0
10.069,0.412,-0.893,0.0
9.537,0.39,-0.902,0.0
9.02,0.369,-0.906,0.0
8.637,0.353,-0.918,0.0
8.188,0.334,-0.918,0.0
10.451,0.424,-0.882,0.0
9.904,0.401,-0.893,0.0
9.436,0.382,-0.906,0.0
8.952,0.362,-0.912,0.0
8.514,0.344,-0.917,0.0
8.093,0.327,-0.919,0.0
10.298,0.413,-0.884,0.0
9.766,0.391,-0.895,0.0
9.304,0.373,-0.907,0.0
8.824,0.353,-0.912,0.0
8.383,0.335,-0.915,0.0
8.027,0.321,-0.923,0.0
10.207,0.405,-0.891,0.0
9.661,0.383,-0.899,0.0
9.213,0.364,-0.911,0.0
8.727,0.345,-0.914,0.0
8.338,0.329,-0.922,0.0
7.966,0.314,-0.928,0.0
10.085,0.395,-0.894,0.0
9.584,0.375,-0.905,0.0
9.039,0.353,-0.906,0.0
8.648,0.337,-0.918,0.0
8.231,0.321,-0.922,0.0
7.857,0.306,-0.926,0.0
9.934,0.383,-0.894,0.0
9.432,0.364,-0.903,0.0
8.95,0.345,-0.909,0.0
8.527,0.328,-0.917,0.0
8.106,0.311,-0.919,0.0
7.777,0.298,-0.927,0.0
9.791,0.372,-0.894,0.0
9.367,0.356,-0.909,0.0
8.847,0.336,-0.91,0.0
8.411,0.319,-0.915,0.0
8.032,0.304,-0.921,0.0
7.719,0.291,-0.93,0.0
9.689,0.363,-0.897,0.0
9.259,0.346,-0.911,0.0
8.788,0.328,-0.915,0.0
8.327,0.31,-0.917,0.0
7.966,0.296,-0.923,0.0
7.653,0.284,-0.931,0.0
9.646,0.355,-0.905,0.0
9.097,0.334,-0.906,0.0
8.662,0.318,-0.913,0.0
8.262,0.303,-0.92,0.0
7.93,0.29,-0.929,0.0
7.584,0.277,-0.933,0.0
9.485,0.343,-0.901,0.0
9.063,0.327,-0.914,0.0
8.558,0.308,-0.913,0.0
8.157,0.293,-0.918,0.0
7.859,0.282,-0.93,0.0
7.537,0.27,-0.936,0.0
9.421,0.334,-0.907,0.0
8.939,0.316,-0.912,0.0
8.502,0.3,-0.917,0.0
8.078,0.285,-0.919,0.0
7.777,0.274,-0.93,0.0
7.476,0.262,-0.937,0.0
9.304,0.323,-0.906,0.0
8.831,0.306,-0.911,0.0
8.416,0.291,-0.917,0.0
8.03,0.277,-0.922,0.0
7.742,0.266,-0.934,0.0
7.423,0.255,-0.939,0.0
9.188,0.312,-0.905,0.0
8.766,0.297,-0.914,0.0
8.314,0.281,-0.915,0.0
7.951,0.268,-0.922,0.0
7.666,0.258,-0.934,0.0
7.353,0.247,-0.938,0.0
9.139,0.304,-0.91,0.0
8.689,0.288,-0.915,0.0
8.279,0.274,-0.92,0.0
7.908,0.261,-0.926,0.0
7.619,0.25,-0.936,0.0
7.295,0.239,-0.939,0.0
9.013,0.292,-0.907,0.0
8.59,0.278,-0.914,0.0
8.237,0.266,-0.924,0.0
7.833,0.252,-0.925,0.0
7.553,0.242,-0.936,0.0
7.259,0.232,-0.941,0.0
8.977,0.284,-0.912,0.0
8.538,0.269,-0.917,0.0
8.126,0.255,-0.92,0.0
7.792,0.244,-0.928,0.0
7.487,0.234,-0.935,0.0
7.214,0.224,-0.943,0.0
8.871,0.273,-0.91,0.0
8.483,0.26,-0.919,0.0
8.114,0.248,-0.926,0.0
7.759,0.236,-0.931,0.0
7.452,0.226,-0.937,0.0
7.185,0.217,-0.946,0.0
8.82,0.264,-0.913,0.0
8.404,0.25,-0.918,0.0
8.046,0.239,-0.926,0.0
7.681,0.227,-0.929,0.0
7.409,0.218,-0.939,0.0
7.156,0.21,-0.948,0.0
8.799,0.255,-0.919,0.0
8.351,0.241,-0.92,0.0
7.987,0.23,-0.926,0.0
7.635,0.219,-0.93,0.0
7.378,0.211,-0.941,0.0
7.112,0.202,-0.949,0.0
8.701,0.245,-0.916,0.0
8.299,0.232,-0.921,0.0
7.906,0.22,-0.923,0.0
7.607,0.211,-0.933,0.0
7.311,0.202,-0.939,0.0
7.081,0.195,-0.95,0.0
8.629,0.234,-0.915,0.0
8.226,0.222,-0.92,0.0
7.907,0.213,-0.93,0.0
7.58,0.203,-0.936,0.0
7.28,0.194,-0.941,0.0
7.04,0.187,-0.95,0.0
8.58,0.225,-0.916,0.0
8.201,0.214,-0.923,0.0
7.868,0.204,-0.931,0.0
7.539,0.195,-0.936,0.0
7.255,0.187,-0.943,0.0
7.019,0.18,-0.953,0.0
8.529,0.215,-0.917,0.0
8.147,0.205,-0.923,0.0
7.811,0.195,-0.93,0.0
7.512,0.187,-0.938,0.0
7.254,0.179,-0.948,0.0
6.976,0.171,-0.952,0.0
8.471,0.206,-0.917,0.0
8.118,0.196,-0.925,0.0
7.796,0.187,-0.933,0.0
7.478,0.178,-0.939,0.0
7.218,0.171,-0.948,0.0
6.946,0.164,-0.952,0.0
8.467,0.197,-0.922,0.0
8.072,0.187,-0.925,0.0
7.753,0.178,-0.933,0.0
7.44,0.17,-0.939,0.0
7.179,0.163,-0.947,0.0
6.93,0.156,-0.954,0.0
8.404,0.187,-0.92,0.0
8.051,0.178,-0.927,0.0
7.693,0.169,-0.93,0.0
7.423,0.162,-0.941,0.0
7.169,0.155,-0.95,0.0
6.894,0.148,-0.953,0.0
8.363,0.177,-0.92,0.0
8.011,0.169,-0.927,0.0
7.687,0.161,-0.933,0.0
7.394,0.153,-0.941,0.0
7.123,0.147,-0.948,0.0
6.856,0.14,-0.952,0.0
8.322,0.168,-0.92,0.0
7.98,0.16,-0.927,0.0
7.647,0.152,-0.932,0.0
7.325,0.144,-0.936,0.0
7.123,0.139,-0.951,0.0
6.841,0.132,-0.953,0.0
8.306,0.158,-0.922,0.0
7.958,0.151,-0.928,0.0
7.622,0.143,-0.933,0.0
7.326,0.136,-0.939,0.0
7.083,0.131,-0.949,0.0
6.824,0.125,-0.953,0.0
8.298,0.149,-0.924,0.0
7.949,0.142,-0.931,0.0
7.596,0.134,-0.933,0.0
7.288,0.128,-0.937,0.0
7.069,0.123,-0.95,0.0
6.826,0.117,-0.956,0.0
8.276,0.14,-0.925,0.0
7.945,0.133,-0.933,0.0
7.595,0.126,-0.935,0.0
7.282,0.119,-0.939,0.0
7.046,0.114,-0.949,0.0
6.791,0.109,-0.954,0.0
8.214,0.13,-0.921,0.0
7.916,0.124,-0.932,0.0
7.591,0.117,-0.937,0.0
7.232,0.111,-0.935,0.0
7.034,0.106,-0.949,0.0
6.771,0.101,-0.953,0.0
8.234,0.121,-0.925,0.0
7.92,0.115,-0.935,0.0
7.571,0.109,-0.937,0.0
7.257,0.103,-0.94,0.0
7.045,0.099,-0.953,0.0
6.768,0.094,-0.954,0.0
8.201,0.112,-0.923,0.0
7.908,0.106,-0.935,0.0
7.582,0.1,-0.94,0.0
7.25,0.095,-0.941,0.0
7.035,0.091,-0.953,0.0
6.756,0.086,-0.954,0.0
8.166,0.102,-0.921,0.0
7.879,0.097,-0.933,0.0
7.536,0.091,-0.935,0.0
7.22,0.086,-0.938,0.0
7.013,0.083,-0.951,0.0
6.769,0.078,-0.956,0.0
8.165,0.093,-0.922,0.0
7.868,0.088,-0.933,0.0
7.555,0.083,-0.939,0.0
7.254,0.078,-0.943,0.0
7.024,0.075,-0.953,0.0
6.764,0.071,-0.956,0.0
8.165,0.084,-0.923,0.0
7.86,0.079,-0.933,0.0
7.541,0.074,-0.937,0.0
7.228,0.07,-0.94,0.0
7.021,0.067,-0.953,0.0
6.764,0.063,-0.957,0.0
8.185,0.075,-0.925,0.0
7.868,0.07,-0.934,0.0
7.54,0.066,-0.938,0.0
7.24,0.062,-0.942,0.0
7.014,0.059,-0.952,0.0
6.755,0.055,-0.956,0.0
8.174,0.065,-0.924,0.0
7.843,0.061,-0.931,0.0
7.526,0.057,-0.936,0.0
7.24,0.054,-0.942,0.0
7.028,0.051,-0.954,0.0
6.735,0.047,-0.953,0.0
8.206,0.056,-0.927,0.0
7.853,0.052,-0.932,0.0
7.553,0.049,-0.939,0.0
7.232,0.045,-0.94,0.0
7.02,0.043,-0.953,0.0
6.754,0.04,-0.955,0.0
8.187,0.047,-0.925,0.0
7.866,0.043,-0.932,0.0
7.569,0.04,-0.94,0.0
7.257,0.037,-0.943,0.0
7.021,0.035,-0.952,0.0
6.76,0.032,-0.955,0.0
8.853,-0.111,-0.925,0.0
8.416,-0.107,-0.925,0.0
8.083,-0.104,-0.933,0.0
7.768,-0.102,-0.94,0.0
7.491,-0.099,-0.947,0.0
7.198,-0.097,-0.95,0.0
8.938,-0.12,-0.925,0.0
8.505,-0.116,-0.927,0.0
8.16,-0.113,-0.934,0.0
7.772,-0.109,-0.933,0.0
7.516,-0.107,-0.943,0.0
7.237,-0.104,-0.948,0.0
8.994,-0.13,-0.923,0.0
8.598,-0.125,-0.929,0.0
8.182,-0.121,-0.929,0.0
7.841,-0.117,-0.934,0.0
7.568,-0.115,-0.943,0.0
7.3,-0.112,-0.949,0.0
9.059,-0.139,-0.921,0.0
8.66,-0.134,-0.927,0.0
8.267,-0.13,-0.93,0.0
7.951,-0.126,-0.939,0.0
7.628,-0.122,-0.942,0.0
7.339,-0.119,-0.947,0.0
9.131,-0.148,-0.919,0.0
8.746,-0.143,-0.928,0.0
8.361,-0.139,-0.932,0.0
8.022,-0.134,-0.939,0.0
7.699,-0.13,-0.943,0.0
7.396,-0.127,-0.946,0.0
9.226,-0.158,-0.919,0.0
8.812,-0.152,-0.925,0.0
8.429,-0.147,-0.931,0.0
8.057,-0.142,-0.934,0.0
7.762,-0.138,-0.942,0.0
7.452,-0.134,-0.945,0.0
9.374,-0.168,-0.923,0.0
8.906,-0.161,-0.925,0.0
8.468,-0.155,-0.926,0.0
8.121,-0.15,-0.933,0.0
7.807,-0.146,-0.939,0.0
7.524,-0.142,-0.946,0.0
9.442,-0.178,-0.919,0.0
9.005,-0.171,-0.925,0.0
8.577,-0.164,-0.928,0.0
8.208,-0.159,-0.933,0.0
7.883,-0.154,-0.939,0.0
7.58,-0.149,-0.944,0.0
9.569,-0.188,-0.92,0.0
9.085,-0.18,-0.923,0.0
8.689,-0.173,-0.929,0.0
8.303,-0.167,-0.934,0.0
7.965,-0.161,-0.939,0.0
7.656,-0.157,-0.944,0.0
9.645,-0.197,-0.916,0.0
9.166,-0.188,-0.92,0.0
8.733,-0.181,-0.923,0.0
8.39,-0.175,-0.933,0.0
8.067,-0.17,-0.941,0.0
7.73,-0.164,-0.944,0.0
9.776,-0.207,-0.916,0.0
9.28,-0.198,-0.92,0.0
8.858,-0.19,-0.925,0.0
8.463,-0.183,-0.931,0.0
8.143,-0.177,-0.939,0.0
7.773,-0.171,-0.939,0.0
9.89,-0.216,-0.914,0.0
9.419,-0.207,-0.921,0.0
8.971,-0.199,-0.926,0.0
8.562,-0.191,-0.93,0.0
8.212,-0.185,-0.937,0.0
7.86,-0.178,-0.939,0.0
9.994,-0.226,-0.911,0.0
9.559,-0.217,-0.922,0.0
9.076,-0.208,-0.924,0.0
8.661,-0.199,-0.93,0.0
8.305,-0.193,-0.936,0.0
7.97,-0.186,-0.941,0.0
10.146,-0.236,-0.911,0.0
9.62,-0.225,-0.915,0.0
9.196,-0.216,-0.924,0.0
8.738,-0.207,-0.926,0.0
8.395,-0.2,-0.935,0.0
8.034,-0.193,-0.938,0.0
10.266,-0.245,-0.908,0.0
9.752,-0.234,-0.914,0.0
9.331,-0.226,-0.925,0.0
8.858,-0.215,-0.926,0.0
8.48,-0.207,-0.932,0.0
8.157,-0.201,-0.94,0.0
10.377,-0.254,-0.903,0.0
9.901,-0.244,-0.914,0.0
9.443,-0.234,-0.922,0.0
9.001,-0.224,-0.928,0.0
8.598,-0.215,-0.933,0.0
8.209,-0.207,-0.934,0.0
14.441,-0.43,-0.852,0.0
17.782,-0.53,-1.141,1.0
12.525,-0.374,-0.869,0.0
11.932,-0.356,-0.891,0.0
11.242,-0.336,-0.899,0.0
10.698,-0.32,-0.911,0.0
14.875,-0.443,-0.85,0.0
17.805,-0.531,-1.11,1.0
17.78,-0.53,-1.201,0.0
12.213,-0.364,-0.89,0.0
11.474,-0.343,-0.896,0.0
10.826,-0.323,-0.902,0.0
15.251,-0.453,-0.843,0.0
14.105,-0.419,-0.853,0.0
17.792,-0.529,-1.169,1.0
12.378,-0.368,-0.879,0.0
11.712,-0.349,-0.893,0.0
11.068,-0.33,-0.901,0.0
17.81,-0.528,-0.952,0.0
14.549,-0.431,-0.853,0.0
17.787,-0.527,-1.136,2.0
17.761,-0.527,-1.228,0.0
11.929,-0.354,-0.887,0.0
11.327,-0.336,-0.901,0.0
0.0,0.0,0.0,0.0
14.968,-0.441,-0.849,0.0
17.801,-0.525,-1.103,1.0
17.789,-0.525,-1.197,0.0
12.241,-0.361,-0.887,0.0
11.569,-0.341,-0.899,0.0
17.686,-0.518,-0.879,6.0
17.818,-0.522,-0.978,0.0
14.251,-0.417,-0.856,0.0
17.771,-0.52,-1.161,1.0
12.481,-0.365,-0.881,0.0
11.759,-0.344,-0.891,0.0
17.666,-0.514,-0.844,1.0
17.787,-0.517,-0.942,0.0
14.688,-0.427,-0.854,0.0
17.784,-0.517,-1.129,2.0
17.773,-0.516,-1.221,0.0
11.944,-0.346,-0.882,0.0
17.743,-0.512,-0.814,1.0
0.0,0.0,0.0,0.0
15.094,-0.435,-0.849,0.0
17.779,-0.512,-1.094,0.0
17.793,-0.511,-1.187,0.0
12.304,-0.353,-0.885,0.0
17.795,-0.508,-0.782,8.0
17.744,-0.506,-0.872,3.0
17.819,-0.507,-0.968,0.0
14.388,-0.409,-0.858,0.0
17.795,-0.506,-1.153,1.0
12.518,-0.355,-0.876,0.0
17.789,-0.502,-0.748,10.0
17.663,-0.497,-0.834,1.0
17.785,-0.5,-0.932,0.0
14.847,-0.417,-0.856,0.0
17.794,-0.499,-1.119,1.0
17.799,-0.498,-1.211,0.0
17.794,-0.495,-0.714,66.0
17.757,-0.493,-0.804,4.0
17.653,-0.49,-0.891,2.0
15.174,-0.42,-0.846,0.0
14.142,-0.391,-0.861,0.0
17.796,-0.491,-1.176,0.0
17.805,-0.488,-0.68,152.0
17.783,-0.486,-0.771,10.0
17.546,-0.479,-0.851,1.0
15.72,-0.428,-0.846,0.0
14.543,-0.395,-0.858,0.0
17.802,-0.483,-1.142,0.0
17.808,-0.48,-0.645,153.0
17.784,-0.478,-0.737,12.0
17.685,-0.474,-0.824,1.0
17.751,-0.475,-0.921,0.0
14.952,-0.399,-0.853,0.0
13.843,-0.369,-0.862,0.0
17.818,-0.472,-0.612,16.0
17.805,-0.47,-0.703,150.0
17.785,-0.468,-0.795,4.0
17.188,-0.451,-0.859,0.0
15.385,-0.403,-0.848,0.0
14.233,-0.372,-0.859,0.0
22.686,-0.589,-0.735,0.0
17.809,-0.461,-0.669,150.0
17.811,-0.459,-0.762,5.0
17.373,-0.447,-0.835,0.0
15.833,-0.406,-0.843,0.0
14.76,-0.377,-0.862,0.0
23.369,-0.593,-0.713,0.0
17.814,-0.45,-0.635,0.0
17.802,-0.448,-0.727,0.0
17.755,-0.446,-0.819,1.0
16.372,-0.41,-0.839,0.0
15.107,-0.377,-0.853,0.0
24.671,-0.611,-0.705,0.0
21.797,-0.538,-0.735,1.0
20.3,-0.499,-0.789,0.0
18.031,-0.441,-0.796,0.0
16.816,-0.41,-0.83,0.0
15.514,-0.377,-0.846,0.0
21.696,-0.523,-0.578,1.0
21.774,-0.523,-0.692,1.0
20.617,-0.493,-0.762,2.0
19.083,-0.454,-0.806,0.0
17.488,-0.415,-0.83,0.0
15.995,-0.378,-0.842,0.0
21.698,-0.508,-0.536,0.0
21.714,-0.507,-0.649,12.0
21.601,-0.501,-0.758,7.0
19.636,-0.454,-0.792,0.0
17.832,-0.41,-0.812,1.0
16.479,-0.377,-0.836,0.0
21.774,-0.494,-0.497,0.0
21.714,-0.491,-0.608,154.0
21.696,-0.488,-0.719,5.0
20.265,-0.453,-0.779,0.0
18.631,-0.414,-0.812,0.0
17.059,-0.377,-0.832,0.0
21.801,-0.478,-0.456,0.0
21.698,-0.473,-0.565,156.0
21.698,-0.47,-0.677,13.0
21.196,-0.457,-0.774,1.0
19.222,-0.412,-0.801,0.0
17.624,-0.376,-0.826,0.0
30.673,-0.648,-0.582,0.0
21.728,-0.456,-0.525,87.0
21.683,-0.453,-0.636,156.0
21.66,-0.449,-0.749,8.0
19.834,-0.409,-0.789,0.0
18.199,-0.373,-0.818,0.0
32.587,-0.661,-0.557,2.0
21.729,-0.438,-0.484,2.0
21.701,-0.434,-0.595,156.0
21.706,-0.431,-0.71,4.0
20.478,-0.404,-0.776,0.0
18.869,-0.37,-0.813,0.0
35.07,-0.681,-0.533,0.0
30.003,-0.578,-0.611,0.0
21.711,-0.415,-0.554,21.0
21.716,-0.412,-0.669,7.0
21.493,-0.405,-0.774,2.0
19.453,-0.364,-0.801,0.0
37.696,-0.698,-0.502,2.0
0.0,0.0,0.0,0.0
27.635,-0.503,-0.654,0.0
21.661,-0.391,-0.627,0.0
21.731,-0.389,-0.742,4.0
20.038,-0.356,-0.788,0.0
0.0,0.0,0.0,0.0
33.285,-0.579,-0.554,0.0
29.127,-0.502,-0.635,0.0
25.621,-0.438,-0.694,0.0
22.712,-0.384,-0.733,0.0
20.582,-0.345,-0.771,0.0
42.597,-0.706,-0.409,0.0
0.0,0.0,0.0,0.0
30.201,-0.491,-0.603,0.0
0.0,0.0,0.0,0.0
23.771,-0.378,-0.723,0.0
21.431,-0.337,-0.763,0.0
0.0,0.0,0.0,0.0
0.0,0.0,0.0,0.0
31.532,-0.48,-0.572,0.0
0.0,0.0,0.0,0.0
24.973,-0.371,-0.714,0.0
22.26,-0.327,-0.752,1.0
0.0,0.0,0.0,0.0
0.0,0.0,0.0,0.0
0.0,0.0,0.0,0.0
29.365,-0.409,-0.633,0.0
25.917,-0.357,-0.693,0.0
22.989,-0.312,-0.735,0.0
0.0,0.0,0.0,0.0
43.889,-0.579,-0.407,0.0
36.247,-0.472,-0.525,0.0
30.103,-0.386,-0.595,0.0
26.935,-0.341,-0.672,0.0
24.041,-0.3,-0.725,0.0
0.0,0.0,0.0,0.0
0.0,0.0,0.0,0.0
0.0,0.0,0.0,0.0
32.312,-0.377,-0.58,0.0
28.183,-0.324,-0.653,0.0
24.975,-0.282,-0.708,0.0
0.0,0.0,0.0,0.0
0.0,0.0,0.0,0.0
0.0,0.0,0.0,0.0
33.426,-0.351,-0.541,0.0
29.364,-0.302,-0.628,0.0
25.995,-0.262,-0.691,0.0
0.0,0.0,0.0,0.0
0.0,0.0,0.0,0.0
19.785,-0.188,-0.18,3.0
19.758,-0.183,-0.285,9.0
19.756,-0.179,-0.387,13.0
19.757,-0.175,-0.49,12.0
0.0,0.0,0.0,0.0
19.792,-0.167,-0.043,0.0
19.756,-0.163,-0.146,11.0
19.749,-0.158,-0.25,14.0
19.741,-0.154,-0.353,16.0
19.755,-0.15,-0.456,19.0
160.704,-1.19,0.763,3.0
19.76,-0.142,-0.009,4.0
19.721,-0.137,-0.111,13.0
19.715,-0.133,-0.216,15.0
19.741,-0.129,-0.319,16.0
19.739,-0.125,-0.422,17.0
19.759,-0.12,0.127,6.0
19.725,-0.116,0.024,10.0
19.73,-0.112,-0.078,9.0
19.705,-0.107,-0.182,16.0
19.736,-0.103,-0.286,15.0
19.755,-0.099,-0.389,15.0
19.718,-0.094,0.16,14.0
19.714,-0.09,0.057,14.0
19.715,-0.085,-0.045,14.0
19.704,-0.081,-0.149,17.0
19.742,-0.076,-0.253,15.0
19.762,-0.072,-0.356,12.0
19.703,-0.067,0.193,15.0
19.709,-0.063,0.09,16.0
19.709,-0.058,-0.012,15.0
19.716,-0.054,-0.117,14.0
19.745,-0.05,-0.221,14.0
19.763,-0.045,-0.324,2.0
19.651,-0.04,0.224,15.0
19.696,-0.036,0.122,13.0
19.704,-0.031,0.019,15.0
19.741,-0.026,-0.085,9.0
19.755,-0.022,-0.189,5.0
35.053,-0.031,-0.519,0.0
19.63,-0.012,0.256,14.0
19.753,-0.008,0.154,3.0
19.751,-0.003,0.051,5.0
19.741,0.001,-0.054,8.0
19.678,0.005,-0.157,0.0
19.795,0.01,-0.261,0.0
19.622,0.015,0.287,16.0
19.657,0.02,0.184,11.0
19.748,0.025,0.082,11.0
19.731,0.029,-0.022,17.0
19.746,0.034,-0.126,9.0
19.763,0.039,-0.23,24.0
19.623,0.044,0.318,13.0
19.626,0.049,0.215,15.0
19.731,0.054,0.113,18.0
19.751,0.059,0.007,37.0
19.766,0.064,-0.095,63.0
19.762,0.069,-0.199,56.0
19.605,0.073,0.348,17.0
19.616,0.078,0.245,16.0
19.67,0.083,0.142,13.0
19.677,0.088,0.037,13.0
19.731,0.093,-0.065,3.0
19.668,0.098,-0.169,0.0
19.62,0.103,0.378,25.0
19.607,0.108,0.275,13.0
19.649,0.113,0.172,15.0
19.637,0.118,0.067,13.0
19.646,0.123,-0.036,13.0
19.663,0.129,-0.139,9.0
19.61,0.134,0.407,13.0
19.623,0.139,0.304,11.0
19.658,0.144,0.201,16.0
19.634,0.149,0.096,12.0
19.655,0.154,-0.007,21.0
19.642,0.16,-0.11,14.0
19.641,0.165,0.436,11.0
19.653,0.17,0.333,9.0
19.647,0.175,0.23,10.0
19.658,0.181,0.124,11.0
19.649,0.186,0.021,13.0
19.647,0.191,-0.082,14.0
19.701,0.197,0.466,10.0
19.724,0.202,0.363,11.0
19.736,0.208,0.259,9.0
19.74,0.213,0.153,19.0
19.688,0.218,0.049,8.0
19.675,0.223,-0.054,8.0
19.685,0.229,0.494,11.0
19.7,0.234,0.39,11.0
19.717,0.24,0.286,12.0
19.76,0.246,0.18,29.0
19.761,0.251,0.076,2.0
19.709,0.256,-0.027,0.0
19.667,0.261,0.52,16.0
19.689,0.267,0.417,11.0
19.703,0.272,0.313,13.0
19.748,0.278,0.207,12.0
19.79,0.284,0.103,0.0
61.572,0.902,-0.004,0.0
19.677,0.294,0.547,13.0
19.708,0.3,0.443,10.0
19.714,0.305,0.339,3.0
163.274,2.576,1.93,27.0
55.208,0.886,0.36,1.0
55.201,0.902,0.068,20.0
55.196,0.918,1.607,21.0
55.182,0.934,1.314,52.0
55.167,0.948,1.021,73.0
55.151,0.963,0.722,76.0
55.16,0.979,0.43,76.0
55.165,0.994,0.138,68.0
55.197,1.013,1.678,47.0
55.198,1.028,1.385,41.0
55.218,1.044,1.092,17.0
55.184,1.058,0.792,3.0
162.911,3.171,1.475,16.0
86.887,1.715,0.325,3.0
135.392,2.718,4.285,21.0
163.508,3.328,4.305,4.0
179.255,3.698,3.766,28.0
163.694,3.424,2.552,13.0
128.653,2.726,1.32,19.0
113.038,2.428,0.56,6.0
114.239,2.493,3.754,16.0
138.744,3.065,3.819,64.0
179.176,4.01,3.978,14.0
179.228,4.063,3.007,7.0
71.069,1.631,0.814,5.0
70.802,1.645,0.434,7.0
114.123,2.69,3.883,16.0
98.96,2.361,2.84,12.0
99.626,2.405,2.328,94.0
99.609,2.433,1.785,16.0
70.82,1.749,0.892,14.0
70.674,1.766,0.513,28.0
45.504,1.153,1.6,11.0
45.492,1.165,1.357,85.0
0.0,0.0,0.0,0.0
45.492,1.191,0.866,4.0
0.0,0.0,0.0,0.0
0.0,0.0,0.0,0.0
41.905,1.137,1.52,150.0
41.919,1.149,1.296,150.0
0.0,0.0,0.0,0.0
0.0,0.0,0.0,0.0
0.0,0.0,0.0,0.0
0.0,0.0,0.0,0.0
40.117,1.161,1.498,135.0
40.118,1.172,1.283,150.0
40.112,1.183,1.068,150.0
40.117,1.195,0.849,150.0
40.127,1.207,0.634,150.0
40.124,1.219,0.42,119.0
40.123,1.233,1.539,140.0
40.117,1.244,1.324,140.0
40.111,1.255,1.108,150.0
40.127,1.268,0.889,150.0
40.112,1.279,0.674,150.0
40.12,1.291,0.459,150.0
40.134,1.307,1.58,94.0
40.116,1.317,1.363,31.0
40.075,1.328,1.147,3.0
40.115,1.34,0.928,1.0
281.508,9.491,5.003,33.0
70.913,2.411,0.879,6.0
120.338,4.139,4.852,20.0
120.634,4.183,4.214,21.0
121.176,4.236,3.581,9.0
163.264,5.755,3.93,6.0
162.294,5.769,3.034,44.0
45.117,1.617,0.601,19.0
120.146,4.353,4.954,18.0
120.573,4.404,4.322,17.0
163.387,6.014,4.976,6.0
43.346,1.608,1.082,92.0
42.736,1.597,0.836,67.0
42.03,1.583,0.596,150.0
120.31,4.583,5.068,8.0
178.644,6.858,6.562,12.0
40.386,1.561,1.265,2.0
40.38,1.572,1.043,123.0
40.383,1.584,0.825,107.0
40.386,1.596,0.607,150.0
179.46,7.168,7.71,19.0
178.838,7.195,6.717,16.0
162.688,6.59,5.229,14.0
45.189,1.843,1.204,9.0
100.476,4.129,2.134,10.0
162.275,6.716,2.571,11.0
75.117,7.387,3.651,6.0
75.124,7.402,3.228,5.0
65.453,6.46,2.443,1.0
65.46,6.473,2.067,8.0
65.434,6.484,1.698,10.0
65.377,6.49,1.328,9.0
75.07,7.493,3.614,39.0
75.063,7.505,3.19,52.0
64.649,6.475,2.382,3.0
64.605,6.481,2.01,9.0
64.516,6.485,1.643,10.0
64.421,6.487,1.278,9.0
75.069,7.6,3.576,16.0
75.068,7.613,3.152,11.0
63.734,6.474,2.316,5.0
63.676,6.479,1.948,8.0
63.644,6.487,1.587,10.0
63.615,6.497,1.228,12.0
75.127,7.712,3.539,4.0
75.113,7.723,3.113,1.0
62.881,6.476,2.25,9.0
62.871,6.486,1.888,11.0
62.832,6.492,1.532,11.0
62.804,6.501,1.177,12.0
70.94,7.38,3.301,4.0
70.968,7.394,2.901,5.0
62.065,6.477,2.185,9.0
62.07,6.488,1.828,12.0
62.055,6.497,1.476,13.0
62.028,6.505,1.125,12.0
70.9,7.472,3.257,24.0
70.903,7.483,2.855,29.0
61.288,6.478,2.12,6.0
61.256,6.485,1.766,10.0
61.233,6.492,1.419,11.0
61.221,6.501,1.072,10.0
70.88,7.563,3.211,30.0
70.855,7.571,2.808,11.0
60.576,6.482,2.057,5.0
60.598,6.494,1.708,5.0
60.562,6.5,1.364,4.0
60.477,6.501,1.019,3.0
70.923,7.659,3.166,5.0
59.809,6.467,2.33,2.0
59.875,6.483,1.993,11.0
59.853,6.49,1.647,10.0
59.821,6.495,1.307,7.0
59.808,6.504,0.967,4.0
73.876,8.069,3.247,3.0
59.254,6.481,2.268,2.0
59.261,6.49,1.931,3.0
59.239,6.496,1.588,5.0
59.188,6.499,1.252,6.0
59.147,6.504,0.915,8.0
73.013,8.063,3.157,7.0
58.633,6.483,2.202,3.0
58.597,6.487,1.867,8.0
58.608,6.497,1.529,9.0
58.591,6.503,1.196,9.0
58.59,6.512,0.863,7.0
72.155,8.054,3.066,7.0
58.048,6.486,2.136,5.0
58.009,6.49,1.805,12.0
58.03,6.5,1.47,10.0
58.027,6.508,1.14,10.0
57.992,6.512,0.81,9.0
71.508,8.063,2.983,5.0
57.458,6.485,2.07,7.0
57.469,6.494,1.743,9.0
57.471,6.501,1.411,10.0
57.497,6.512,1.085,10.0
57.468,6.517,0.757,11.0
57.034,6.493,2.334,2.0
56.941,6.489,2.006,8.0
56.937,6.496,1.681,11.0
56.956,6.505,1.352,11.0
56.98,6.515,1.029,11.0
56.963,6.521,0.704,10.0
56.465,6.489,2.264,3.0
56.411,6.489,1.94,7.0
56.415,6.496,1.619,9.0
56.429,6.504,1.292,11.0
56.456,6.514,0.972,12.0
56.429,6.518,0.65,12.0
55.929,6.484,2.195,6.0
55.923,6.49,1.876,12.0
55.935,6.497,1.558,13.0
55.976,6.509,1.234,14.0
55.989,6.517,0.915,13.0
55.987,6.524,0.596,13.0
55.475,6.487,2.129,8.0
55.526,6.498,1.814,10.0
55.51,6.502,1.497,12.0
55.541,6.512,1.175,14.0
55.535,6.518,0.859,14.0
55.511,6.521,0.542,13.0
55.038,6.488,2.063,11.0
55.04,6.493,1.749,10.0
55.028,6.497,1.434,8.0
55.047,6.505,1.115,13.0
55.042,6.511,0.801,13.0
55.059,6.519,0.488,14.0
54.644,6.49,1.998,12.0
54.654,6.496,1.687,12.0
54.638,6.499,1.374,14.0
54.626,6.504,1.056,13.0
54.663,6.514,0.745,13.0
54.649,6.518,0.433,12.0
54.215,6.486,1.932,10.0
54.258,6.496,1.624,15.0
54.288,6.504,1.314,14.0
54.265,6.506,0.998,14.0
54.296,6.516,0.689,13.0
54.285,6.52,0.379,10.0
53.902,6.493,1.87,10.0
53.907,6.497,1.562,15.0
53.929,6.505,1.254,14.0
53.936,6.51,0.94,14.0
53.959,6.518,0.633,11.0
53.941,6.522,0.325,5.0
53.554,6.492,1.805,10.0
53.586,6.5,1.5,12.0
53.627,6.509,1.195,13.0
53.628,6.514,0.883,14.0
53.623,6.519,0.576,14.0
53.611,6.522,0.27,8.0
53.262,6.496,1.743,12.0
53.275,6.502,1.438,12.0
53.299,6.508,1.134,12.0
53.316,6.515,0.825,12.0
53.302,6.517,0.52,13.0
53.353,6.528,0.216,2.0
52.969,6.497,1.68,12.0
53.002,6.504,1.378,13.0
53.018,6.51,1.075,12.0
53.013,6.513,0.767,13.0
53.038,6.52,0.464,11.0
42.886,5.276,0.129,2.0
52.716,6.5,1.618,13.0
52.746,6.507,1.317,13.0
52.75,6.511,1.015,14.0
52.785,6.519,0.709,17.0
52.79,6.523,0.407,13.0
42.791,5.291,0.085,5.0
52.481,6.503,1.557,11.0
52.502,6.508,1.256,13.0
52.529,6.515,0.956,12.0
52.559,6.522,0.651,13.0
52.538,6.523,0.35,14.0
18.017,2.238,0.016,6.0
52.253,6.504,1.494,9.0
52.283,6.511,1.196,12.0
52.307,6.516,0.897,12.0
52.328,6.522,0.592,13.0
52.335,6.526,0.292,8.0
18.012,2.247,-0.002,14.0
52.031,6.504,1.432,9.0
52.095,6.514,1.136,12.0
52.112,6.518,0.837,13.0
52.116,6.522,0.534,12.0
17.997,2.253,0.081,3.0
18.029,2.258,-0.021,17.0
51.891,6.511,1.373,13.0
51.911,6.515,1.076,13.0
51.935,6.52,0.779,9.0
51.934,6.522,0.476,5.0
17.989,2.26,0.062,12.0
18.026,2.266,-0.041,10.0
51.709,6.51,1.312,12.0
51.771,6.519,1.017,13.0
51.768,6.52,0.72,13.0
17.988,2.266,0.145,0.0
17.994,2.268,0.042,15.0
35.847,4.52,-0.12,6.0
51.588,6.514,1.253,11.0
51.605,6.518,0.957,10.0
51.629,6.522,0.661,14.0
17.963,2.27,0.125,6.0
17.994,2.274,0.022,14.0
35.522,4.492,-0.158,12.0
51.437,6.512,1.193,11.0
51.502,6.521,0.899,12.0
51.516,6.524,0.604,11.0
17.956,2.274,0.105,14.0
18.007,2.282,0.003,9.0
35.134,4.454,-0.195,11.0
51.343,6.515,1.133,10.0
51.382,6.521,0.839,13.0
17.953,2.278,0.19,1.0
17.964,2.28,0.085,16.0
0.0,0.0,0.0,0.0
16.565,2.104,-0.11,17.0
51.261,6.517,1.073,11.0
51.312,6.524,0.781,13.0
17.963,2.284,0.17,5.0
17.972,2.285,0.065,15.0
38.308,4.873,-0.079,7.0
16.541,2.105,-0.129,13.0
51.182,6.517,1.015,12.0
51.248,6.526,0.722,13.0
17.957,2.286,0.15,12.0
17.984,2.29,0.045,11.0
35.705,4.548,-0.114,12.0
16.577,2.112,-0.148,15.0
51.162,6.522,0.957,9.0
51.238,6.532,0.665,6.0
17.965,2.29,0.13,15.0
17.989,2.293,0.025,6.0
35.27,4.497,-0.152,21.0
16.565,2.112,-0.166,17.0
51.127,6.523,0.898,8.0
17.957,2.291,0.212,2.0
17.97,2.292,0.109,15.0
40.64,5.185,0.011,14.0
34.663,4.423,-0.189,12.0
16.555,2.112,-0.185,12.0
51.112,6.524,0.84,10.0
17.942,2.29,0.191,7.0
17.975,2.294,0.089,14.0
0.0,0.0,0.0,0.0
34.013,4.341,-0.224,3.0
16.544,2.111,-0.204,11.0
51.136,6.528,0.782,10.0
17.945,2.29,0.171,10.0
17.976,2.294,0.068,13.0
38.471,4.91,-0.077,9.0
16.534,2.11,-0.128,15.0
16.572,2.115,-0.223,10.0
51.158,6.529,0.723,8.0
17.961,2.291,0.151,14.0
17.99,2.295,0.048,9.0
35.67,4.55,-0.112,12.0
16.572,2.114,-0.147,15.0
16.611,2.119,-0.242,12.0
51.211,6.531,0.666,6.0
17.975,2.292,0.13,16.0
17.997,2.294,0.027,6.0
35.276,4.497,-0.151,19.0
16.566,2.111,-0.166,16.0
16.615,2.117,-0.261,17.0
17.949,2.286,0.213,1.0
17.983,2.29,0.11,16.0
40.411,5.146,0.016,5.0
34.836,4.435,-0.188,12.0
16.542,2.106,-0.184,11.0
16.64,2.118,-0.281,21.0
17.956,2.284,0.192,2.0
17.991,2.288,0.09,16.0
0.0,0.0,0.0,0.0
16.565,2.106,-0.108,17.0
16.512,2.099,-0.203,6.0
16.959,2.155,-0.305,17.0
17.976,2.283,0.172,4.0
17.999,2.285,0.069,16.0
0.0,0.0,0.0,0.0
32.511,4.125,-0.249,5.0
29.152,3.698,-0.391,8.0
17.113,2.17,-0.328,16.0
17.976,2.278,0.152,5.0
17.996,2.279,0.049,16.0
35.813,4.535,-0.106,10.0
32.536,4.119,-0.287,5.0
27.721,3.509,-0.403,7.0
17.002,2.151,-0.344,16.0
17.99,2.274,0.132,5.0
18.002,2.274,0.029,15.0
35.62,4.499,-0.145,12.0
16.524,2.086,-0.164,10.0
27.088,3.419,-0.423,7.0
16.914,2.134,-0.361,15.0
17.988,2.267,0.112,6.0
18.009,2.269,0.009,15.0
35.104,4.421,-0.182,6.0
30.707,3.866,-0.338,4.0
26.297,3.309,-0.44,2.0
16.772,2.11,-0.377,14.0
17.999,2.261,0.092,6.0
18.016,2.262,-0.01,15.0
33.399,4.192,-0.209,10.0
30.164,3.785,-0.365,8.0
17.372,2.179,-0.31,12.0
16.655,2.088,-0.392,16.0
17.999,2.253,0.073,5.0
18.029,2.255,-0.029,16.0
33.1,4.139,-0.244,10.0
29.279,3.66,-0.387,8.0
17.21,2.15,-0.325,16.0
16.582,2.071,-0.409,17.0
18.029,2.248,0.053,4.0
18.038,2.247,-0.049,15.0
33.049,4.116,-0.279,4.0
28.07,3.494,-0.401,7.0
17.098,2.127,-0.342,18.0
16.547,2.058,-0.425,16.0
18.026,2.238,0.034,2.0
18.047,2.239,-0.068,15.0
0.0,0.0,0.0,0.0
26.835,3.325,-0.411,7.0
17.04,2.11,-0.359,17.0
16.523,2.045,-0.442,17.0
18.043,2.229,0.015,1.0
18.053,2.229,-0.087,16.0
0.0,0.0,0.0,0.0
26.209,3.232,-0.429,6.0
16.954,2.089,-0.374,18.0
16.477,2.03,-0.458,17.0
41.949,5.157,-0.006,4.0
18.064,2.219,-0.106,16.0
18.085,2.22,-0.209,5.0
25.619,3.143,-0.446,3.0
16.88,2.069,-0.39,15.0
16.445,2.015,-0.474,16.0
40.175,4.912,-0.047,4.0
18.065,2.207,-0.124,15.0
18.094,2.209,-0.228,7.0
17.362,2.118,-0.32,12.0
16.812,2.049,-0.405,17.0
16.419,2.0,-0.49,16.0
38.105,4.631,-0.083,3.0
18.083,2.196,-0.142,13.0
18.11,2.197,-0.246,10.0
17.302,2.098,-0.336,14.0
16.755,2.03,-0.421,17.0
16.4,1.986,-0.506,16.0
37.538,4.534,-0.119,14.0
18.083,2.182,-0.16,8.0
18.118,2.184,-0.264,12.0
17.242,2.077,-0.351,14.0
16.706,2.011,-0.436,16.0
16.387,1.971,-0.521,16.0
36.748,4.409,-0.152,15.0
33.282,3.989,-0.328,3.0
18.121,2.17,-0.282,13.0
17.18,2.056,-0.367,15.0
16.69,1.995,-0.452,15.0
16.394,1.958,-0.538,17.0
35.363,4.212,-0.181,13.0
18.116,2.156,-0.196,1.0
18.14,2.157,-0.299,15.0
17.172,2.04,-0.383,15.0
16.678,1.979,-0.467,17.0
16.401,1.945,-0.553,16.0
35.128,4.153,-0.213,21.0
30.474,3.599,-0.358,8.0
18.108,2.137,-0.316,15.0
17.134,2.02,-0.398,14.0
16.664,1.963,-0.482,16.0
16.38,1.928,-0.568,17.0
35.269,4.137,-0.245,11.0
29.654,3.475,-0.376,8.0
17.981,2.105,-0.33,15.0
17.068,1.996,-0.412,14.0
16.679,1.949,-0.498,16.0
16.362,1.91,-0.582,17.0
34.811,4.05,-0.274,11.0
28.755,3.342,-0.39,8.0
17.847,2.072,-0.343,15.0
17.112,1.984,-0.428,15.0
16.702,1.935,-0.513,17.0
16.352,1.893,-0.596,17.0
32.657,3.766,-0.285,1.0
28.076,3.234,-0.405,7.0
17.712,2.038,-0.356,15.0
17.113,1.967,-0.443,16.0
16.703,1.918,-0.528,15.0
16.342,1.875,-0.609,17.0
32.648,3.732,-0.313,7.0
27.203,3.105,-0.415,7.0
17.613,2.008,-0.369,15.0
17.115,1.949,-0.458,15.0
16.713,1.901,-0.542,14.0
16.349,1.858,-0.623,16.0
31.01,3.511,-0.323,6.0
26.474,2.993,-0.426,6.0
17.604,1.988,-0.383,15.0
17.162,1.936,-0.473,15.0
16.718,1.883,-0.556,15.0
16.35,1.84,-0.636,17.0
30.949,3.469,-0.347,9.0
25.732,2.88,-0.434,6.0
17.613,1.969,-0.397,18.0
17.225,1.923,-0.488,17.0
16.728,1.865,-0.569,15.0
16.359,1.822,-0.65,15.0
30.141,3.343,-0.361,8.0
25.32,2.805,-0.447,6.0
17.63,1.95,-0.411,18.0
17.236,1.904,-0.502,18.0
16.731,1.846,-0.582,14.0
16.338,1.8,-0.661,15.0
29.402,3.226,-0.374,8.0
24.72,2.709,-0.455,9.0
17.623,1.928,-0.424,19.0
17.245,1.884,-0.515,17.0
16.738,1.827,-0.595,12.0
16.358,1.783,-0.674,14.0
28.976,3.144,-0.39,8.0
24.426,2.646,-0.467,5.0
17.681,1.913,-0.438,16.0
17.281,1.867,-0.528,16.0
16.76,1.808,-0.607,15.0
16.391,1.766,-0.687,13.0
28.286,3.033,-0.4,8.0
24.035,2.573,-0.476,5.0
17.702,1.892,-0.451,19.0
17.248,1.841,-0.539,12.0
16.733,1.783,-0.618,12.0
16.39,1.744,-0.698,12.0
27.556,2.919,-0.408,7.0
23.613,2.497,-0.484,5.0
17.731,1.872,-0.463,19.0
17.341,1.828,-0.553,16.0
16.787,1.767,-0.631,15.0
16.424,1.726,-0.71,10.0
26.753,2.798,-0.414,7.0
23.326,2.436,-0.492,5.0
17.771,1.852,-0.476,16.0
17.368,1.808,-0.565,19.0
16.855,1.751,-0.643,13.0
16.282,1.689,-0.714,8.0
26.398,2.725,-0.424,7.0
22.985,2.369,-0.499,5.0
17.847,1.836,-0.488,19.0
17.411,1.788,-0.576,16.0
16.946,1.737,-0.657,13.0
16.137,1.652,-0.717,7.0
25.75,2.622,-0.428,6.0
22.744,2.312,-0.507,5.0
17.988,1.825,-0.502,16.0
17.447,1.767,-0.587,17.0
17.025,1.721,-0.669,11.0
16.042,1.619,-0.721,3.0
25.497,2.56,-0.438,6.0
22.307,2.236,-0.509,4.0
17.934,1.794,-0.51,17.0
17.537,1.751,-0.6,17.0
17.1,1.704,-0.681,13.0
15.997,1.592,-0.728,5.0
25.259,2.5,-0.447,6.0
22.068,2.179,-0.515,4.0
18.174,1.791,-0.526,16.0
17.634,1.735,-0.612,16.0
17.101,1.679,-0.69,11.0
15.954,1.564,-0.733,7.0
24.947,2.432,-0.453,8.0
21.864,2.127,-0.52,5.0
18.246,1.771,-0.537,16.0
17.764,1.721,-0.625,26.0
16.905,1.634,-0.69,0.0
15.939,1.538,-0.74,7.0
24.784,2.378,-0.462,6.0
21.621,2.07,-0.524,7.0
18.418,1.76,-0.55,16.0
17.772,1.694,-0.632,19.0
16.744,1.593,-0.69,2.0
15.925,1.512,-0.746,5.0
24.579,2.32,-0.468,6.0
21.55,2.03,-0.531,5.0
18.675,1.755,-0.565,16.0
17.745,1.664,-0.638,14.0
16.685,1.561,-0.694,1.0
15.919,1.487,-0.752,6.0
24.356,2.261,-0.473,5.0
21.28,1.971,-0.532,4.0
18.949,1.751,-0.581,12.0
17.759,1.637,-0.645,4.0
16.646,1.531,-0.698,1.0
15.877,1.457,-0.756,1.0
24.237,2.211,-0.479,5.0
21.174,1.927,-0.537,8.0
18.958,1.722,-0.587,21.0
17.551,1.59,-0.644,2.0
16.61,1.501,-0.702,2.0
15.79,1.424,-0.756,0.0
24.072,2.157,-0.483,5.0
21.082,1.885,-0.541,4.0
18.966,1.691,-0.593,19.0
17.528,1.559,-0.648,2.0
16.579,1.471,-0.706,1.0
15.815,1.4,-0.762,0.0
23.967,2.108,-0.487,10.0
20.166,1.769,-0.523,3.0
18.961,1.659,-0.598,14.0
17.42,1.521,-0.648,2.0
16.548,1.441,-0.708,1.0
15.755,1.369,-0.763,0.0
23.806,2.055,-0.49,5.0
19.469,1.676,-0.509,8.0
18.833,1.617,-0.598,8.0
17.414,1.491,-0.652,2.0
16.52,1.411,-0.711,2.0
15.716,1.339,-0.764,0.0
23.913,2.024,-0.497,5.0
19.564,1.651,-0.515,8.0
18.791,1.581,-0.6,7.0
17.392,1.459,-0.654,2.0
16.505,1.381,-0.713,1.0
15.746,1.314,-0.768,0.0
23.979,1.988,-0.502,5.0
19.709,1.63,-0.522,8.0
18.838,1.553,-0.604,5.0
17.36,1.427,-0.655,2.0
16.468,1.35,-0.713,1.0
15.707,1.284,-0.768,0.0
23.832,1.936,-0.502,5.0
19.706,1.595,-0.524,9.0
18.659,1.506,-0.6,3.0
17.359,1.397,-0.657,2.0
16.481,1.322,-0.716,1.0
15.737,1.259,-0.771,0.0
23.85,1.895,-0.504,5.0
19.705,1.561,-0.526,8.0
18.681,1.475,-0.602,3.0
17.332,1.365,-0.657,1.0
16.511,1.296,-0.718,1.0
15.709,1.229,-0.771,0.0
23.916,1.859,-0.507,5.0
19.715,1.527,-0.527,8.0
18.707,1.444,-0.604,3.0
17.322,1.333,-0.657,1.0
16.515,1.267,-0.718,1.0
15.805,1.209,-0.776,0.0
23.947,1.818,-0.507,5.0
19.704,1.491,-0.527,8.0
18.664,1.408,-0.603,3.0
17.335,1.303,-0.658,2.0
16.506,1.237,-0.718,1.0
15.795,1.18,-0.775,0.0
24.036,1.783,-0.509,5.0
19.707,1.457,-0.526,8.0
18.704,1.377,-0.603,3.0
17.338,1.272,-0.657,2.0
16.532,1.209,-0.718,1.0
15.882,1.158,-0.778,0.0
24.024,1.738,-0.507,5.0
19.746,1.424,-0.526,7.0
18.722,1.345,-0.602,3.0
17.358,1.242,-0.656,2.0
16.569,1.182,-0.718,1.0
15.941,1.133,-0.779,1.0
24.114,1.701,-0.506,5.0
19.723,1.386,-0.523,9.0
18.799,1.316,-0.602,3.0
17.362,1.211,-0.654,2.0
16.572,1.152,-0.716,1.0
15.883,1.1,-0.774,2.0
24.301,1.67,-0.507,5.0
19.724,1.35,-0.52,9.0
18.928,1.291,-0.603,3.0
17.436,1.184,-0.654,2.0
16.624,1.125,-0.715,1.0
15.959,1.076,-0.775,1.0
24.463,1.636,-0.505,5.0
19.714,1.313,-0.516,9.0
19.037,1.263,-0.603,3.0
17.48,1.155,-0.652,1.0
16.677,1.097,-0.714,1.0
15.998,1.049,-0.773,1.0
24.811,1.613,-0.507,6.0
19.726,1.277,-0.511,10.0
19.135,1.234,-0.601,3.0
17.535,1.126,-0.649,2.0
16.722,1.069,-0.711,2.0
16.03,1.021,-0.77,2.0
25.147,1.588,-0.507,3.0
19.733,1.241,-0.506,12.0
19.295,1.208,-0.601,3.0
17.633,1.099,-0.648,2.0
16.761,1.04,-0.708,1.0
16.047,0.992,-0.766,2.0
25.173,1.543,-0.5,1.0
19.742,1.205,-0.5,13.0
19.501,1.185,-0.601,4.0
17.824,1.078,-0.649,1.0
16.792,1.011,-0.704,1.0
16.077,0.964,-0.762,1.0
25.444,1.512,-0.497,1.0
19.742,1.168,-0.493,11.0
19.592,1.153,-0.597,7.0
17.935,1.051,-0.646,1.0
16.84,0.982,-0.7,2.0
16.139,0.937,-0.759,1.0
25.761,1.483,-0.493,1.0
19.748,1.131,-0.486,10.0
19.817,1.129,-0.596,3.0
18.018,1.022,-0.642,1.0
16.895,0.953,-0.695,2.0
16.217,0.911,-0.756,1.0
26.125,1.454,-0.488,1.0
19.884,1.101,-0.48,1.0
19.865,1.095,-0.589,2.0
18.108,0.993,-0.637,3.0
16.947,0.924,-0.689,2.0
16.306,0.885,-0.752,1.0
26.585,1.43,-0.485,1.0
22.656,1.212,-0.537,1.0
20.332,1.082,-0.593,3.0
18.257,0.966,-0.634,3.0
16.986,0.894,-0.682,2.0
16.371,0.858,-0.747,1.0
27.092,1.406,-0.48,2.0
23.59,1.217,-0.547,37.0
20.344,1.044,-0.582,1.0
18.367,0.937,-0.628,3.0
17.066,0.866,-0.676,2.0
16.431,0.829,-0.741,1.0
27.378,1.369,-0.471,1.0
23.702,1.178,-0.536,38.0
20.703,1.023,-0.581,1.0
18.524,0.91,-0.623,3.0
17.159,0.838,-0.67,2.0
16.523,0.803,-0.735,1.0
23.643,1.138,-0.393,39.0
23.614,1.129,-0.52,28.0
20.955,0.996,-0.576,1.0
18.735,0.885,-0.618,3.0
17.303,0.813,-0.665,4.0
16.617,0.776,-0.729,2.0
23.624,1.093,-0.378,73.0
23.612,1.085,-0.505,41.0
23.629,1.079,-0.634,1.0
18.96,0.86,-0.614,3.0
17.514,0.789,-0.662,2.0
16.69,0.748,-0.721,1.0
23.626,1.048,-0.362,49.0
23.645,1.042,-0.49,39.0
21.704,0.95,-0.568,2.0
19.353,0.842,-0.613,2.0
17.71,0.765,-0.657,4.0
16.805,0.721,-0.715,1.0
23.659,1.005,-0.346,11.0
23.671,0.998,-0.474,27.0
22.104,0.926,-0.562,1.0
19.682,0.819,-0.609,3.0
17.875,0.738,-0.65,3.0
16.885,0.693,-0.706,2.0
30.123,1.223,-0.418,1.0
26.574,1.071,-0.512,5.0
23.233,0.929,-0.573,4.0
19.826,0.787,-0.598,2.0
18.12,0.714,-0.645,3.0
16.966,0.664,-0.695,0.0
31.044,1.202,-0.407,1.0
27.057,1.04,-0.5,7.0
23.441,0.894,-0.56,5.0
20.074,0.759,-0.59,2.0
18.434,0.692,-0.641,3.0
17.075,0.636,-0.686,0.0
32.121,1.183,-0.394,0.0
27.539,1.006,-0.487,3.0
23.793,0.863,-0.548,1.0
20.818,0.749,-0.594,2.0
18.728,0.668,-0.636,2.0
17.2,0.608,-0.676,1.0
40.117,1.404,-0.458,3.0
28.494,0.988,-0.479,3.0
24.556,0.844,-0.544,1.0
21.269,0.725,-0.588,3.0
19.187,0.648,-0.634,3.0
17.298,0.579,-0.664,0.0
40.148,1.329,-0.422,3.0
29.042,0.953,-0.462,2.0
25.406,0.826,-0.54,3.0
21.607,0.696,-0.578,2.0
19.312,0.617,-0.62,1.0
18.106,0.573,-0.679,0.0
0.0,0.0,0.0,0.0
27.466,0.85,-0.41,6.0
25.862,0.793,-0.525,6.0
22.11,0.672,-0.57,1.0
19.799,0.596,-0.616,0.0
18.82,0.561,-0.687,0.0
37.219,1.095,-0.321,3.0
27.399,0.798,-0.383,0.0
26.451,0.762,-0.511,1.0
22.786,0.65,-0.565,0.0
20.434,0.577,-0.616,1.0
20.15,0.563,-0.715,1.0
0.0,0.0,0.0,0.0
40.133,1.096,-0.52,0.0
27.069,0.731,-0.495,1.0
22.918,0.612,-0.544,0.0
21.32,0.563,-0.62,0.0
21.187,0.554,-0.73,4.0
41.798,1.078,-0.275,4.0
32.999,0.841,-0.393,1.0
28.648,0.722,-0.494,2.0
24.392,0.608,-0.553,0.0
22.729,0.56,-0.637,1.0
21.811,0.531,-0.728,3.0
45.439,1.091,-0.25,1.0
34.535,0.819,-0.374,2.0
29.553,0.692,-0.478,2.0
25.303,0.585,-0.546,1.0
25.027,0.571,-0.674,2.0
22.131,0.499,-0.714,2.0
43.988,0.977,-0.193,1.0
36.582,0.802,-0.355,2.0
29.42,0.637,-0.442,0.0
26.668,0.569,-0.546,0.0
26.247,0.552,-0.677,3.0
22.646,0.47,-0.705,1.0
48.032,0.982,-0.155,1.0
0.0,0.0,0.0,0.0
55.206,1.097,-0.766,1.0
29.668,0.581,-0.572,0.0
27.051,0.522,-0.666,1.0
23.054,0.438,-0.69,1.0
52.307,0.978,-0.108,3.0
39.93,0.735,-0.294,1.0
32.901,0.596,-0.417,0.0
0.0,0.0,0.0,0.0
27.389,0.48,-0.641,1.0
24.278,0.419,-0.697,1.0
55.162,0.935,-0.046,14.0
44.417,0.741,-0.273,1.0
36.082,0.591,-0.413,1.0
19.676,0.317,-0.331,1.0
19.715,0.312,-0.436,0.0
25.007,0.388,-0.687,1.0
55.271,0.841,0.022,0.0
19.714,0.294,-0.096,3.0
19.667,0.288,-0.2,13.0
19.659,0.282,-0.306,13.0
19.662,0.277,-0.41,15.0
19.677,0.272,-0.515,15.0
19.809,0.267,0.033,0.0
19.654,0.26,-0.07,13.0
19.638,0.254,-0.174,16.0
19.635,0.249,-0.28,18.0
19.646,0.243,-0.384,17.0
19.671,0.238,-0.489,21.0
19.704,0.233,0.059,7.0
19.671,0.227,-0.044,9.0
19.637,0.221,-0.148,17.0
19.631,0.216,-0.254,16.0
19.651,0.211,-0.358,14.0
19.669,0.206,-0.462,19.0
19.674,0.2,0.085,14.0
19.636,0.194,-0.017,14.0
19.639,0.189,-0.121,15.0
19.648,0.184,-0.227,14.0
19.663,0.178,-0.331,7.0
19.685,0.173,-0.435,5.0
19.658,0.167,0.113,13.0
19.64,0.162,0.009,18.0
19.638,0.157,-0.094,11.0
19.679,0.152,-0.199,3.0
33.913,0.253,-0.523,0.0
29.787,0.214,-0.616,0.0
19.664,0.136,0.14,16.0
19.641,0.13,0.037,14.0
19.677,0.125,-0.066,7.0
0.0,0.0,0.0,0.0
0.0,0.0,0.0,0.0
0.0,0.0,0.0,0.0
19.676,0.105,0.169,14.0
19.682,0.1,0.065,13.0
19.753,0.095,-0.038,13.0
19.751,0.09,-0.143,17.0
19.778,0.085,-0.248,24.0
19.772,0.079,-0.351,36.0
19.639,0.074,0.197,15.0
19.736,0.069,0.094,24.0
19.749,0.064,-0.008,47.0
19.747,0.059,-0.114,15.0
19.766,0.054,-0.218,21.0
19.774,0.049,-0.322,16.0
19.628,0.043,0.226,17.0
19.736,0.039,0.124,19.0
19.744,0.034,0.02,8.0
19.738,0.028,-0.084,2.0
19.804,0.024,-0.189,1.0
19.744,0.019,-0.292,0.0
19.635,0.014,0.256,15.0
19.794,0.009,0.154,2.0
19.732,0.004,0.05,6.0
19.729,0.0,-0.054,10.0
19.762,-0.005,-0.158,4.0
19.798,-0.01,-0.262,0.0
19.638,-0.014,0.286,13.0
19.649,-0.019,0.184,12.0
19.689,-0.024,0.081,16.0
19.697,-0.029,-0.023,16.0
19.732,-0.034,-0.126,14.0
19.761,-0.039,-0.23,15.0
19.643,-0.043,0.317,11.0
