X,Y,Z,Reflectivity
19.617,0.042,0.628,12.0
0.0,0.0,0.0,0.0
19.558,0.046,1.046,9.0
19.568,0.046,0.932,24.0
19.618,0.047,0.818,16.0
19.627,0.047,0.703,11.0
19.608,0.048,0.587,14.0
139.167,0.363,7.978,7.0
19.556,0.051,1.006,16.0
19.582,0.051,0.893,24.0
19.628,0.052,0.777,18.0
19.61,0.052,0.662,12.0
19.598,0.053,0.547,14.0
19.601,0.055,1.083,2.0
19.584,0.056,0.967,21.0
19.59,0.056,0.852,16.0
19.621,0.057,0.737,11.0
19.601,0.057,0.621,12.0
19.606,0.057,0.507,16.0
19.573,0.059,1.041,10.0
19.578,0.06,0.926,24.0
19.631,0.06,0.814,15.0
19.614,0.06,0.696,11.0
19.607,0.06,0.581,14.0
19.612,0.061,0.466,26.0
19.564,0.063,1.0,17.0
19.591,0.063,0.886,22.0
19.648,0.063,0.774,15.0
19.597,0.063,0.655,11.0
19.6,0.063,0.54,14.0
19.608,0.063,0.426,22.0
19.574,0.065,0.959,24.0
19.594,0.065,0.845,11.0
19.63,0.065,0.732,10.0
19.585,0.065,0.614,12.0
19.603,0.065,0.5,23.0
19.613,0.065,0.385,21.0
19.587,0.067,0.919,25.0
19.646,0.067,0.806,17.0
19.621,0.067,0.691,11.0
19.604,0.067,0.573,14.0
19.611,0.067,0.458,28.0
19.601,0.067,0.344,16.0
19.591,0.068,0.878,21.0
19.639,0.068,0.765,12.0
19.611,0.068,0.649,11.0
19.602,0.068,0.532,16.0
19.612,0.067,0.417,25.0
19.614,0.067,0.303,14.0
19.627,0.069,0.838,10.0
19.626,0.068,0.723,11.0
19.604,0.068,0.607,13.0
19.61,0.068,0.491,25.0
19.627,0.067,0.376,19.0
19.612,0.067,0.262,15.0
19.654,0.068,0.798,19.0
19.621,0.068,0.682,11.0
19.597,0.067,0.566,13.0
19.604,0.067,0.45,27.0
19.611,0.067,0.335,15.0
19.63,0.066,0.22,15.0
19.636,0.067,0.755,10.0
19.609,0.067,0.639,11.0
19.592,0.066,0.524,16.0
19.61,0.066,0.408,25.0
19.608,0.065,0.293,13.0
19.65,0.065,0.179,12.0
19.634,0.065,0.713,12.0
19.592,0.064,0.597,13.0
19.62,0.064,0.483,24.0
19.597,0.063,0.366,17.0
19.622,0.063,0.252,14.0
19.69,0.062,0.137,14.0
19.624,0.063,0.672,12.0
19.596,0.062,0.556,14.0
19.614,0.061,0.441,22.0
19.611,0.06,0.324,13.0
19.63,0.06,0.21,14.0
19.727,0.059,0.095,23.0
19.61,0.059,0.629,12.0
19.599,0.058,0.514,16.0
19.613,0.058,0.399,17.0
19.607,0.057,0.282,11.0
19.668,0.056,0.168,11.0
19.742,0.055,0.053,33.0
19.601,0.055,0.587,14.0
19.601,0.054,0.472,17.0
19.608,0.053,0.357,13.0
19.612,0.052,0.241,14.0
19.712,0.052,0.126,16.0
19.739,0.051,0.011,35.0
19.607,0.05,0.545,14.0
19.606,0.049,0.431,14.0
19.613,0.048,0.316,12.0
19.638,0.047,0.199,10.0
19.745,0.046,0.085,15.0
19.735,0.045,-0.03,44.0
19.604,0.045,0.503,13.0
19.608,0.043,0.389,12.0
19.609,0.042,0.274,12.0
19.745,0.042,0.158,14.0
19.745,0.04,0.043,16.0
19.762,0.039,-0.072,21.0
19.615,0.038,0.462,13.0
19.626,0.037,0.347,14.0
19.621,0.036,0.232,14.0
19.748,0.035,0.117,10.0
19.741,0.034,0.001,41.0
19.756,0.032,-0.114,9.0
19.613,0.031,0.421,13.0
19.618,0.03,0.306,12.0
19.708,0.029,0.192,15.0
19.722,0.027,0.074,16.0
19.757,0.026,-0.04,76.0
19.747,0.025,-0.156,17.0
19.62,0.023,0.379,17.0
19.62,0.022,0.264,14.0
19.756,0.021,0.151,9.0
19.737,0.019,0.033,9.0
19.774,0.018,-0.082,1.0
19.777,0.016,-0.197,2.0
19.62,0.015,0.338,16.0
19.629,0.013,0.223,15.0
19.783,0.012,0.109,3.0
19.75,0.01,-0.008,12.0
19.779,0.009,-0.123,1.0
19.766,0.007,-0.239,0.0
19.628,0.006,0.297,14.0
19.727,0.004,0.183,5.0
19.802,0.002,0.068,4.0
19.751,0.001,-0.049,5.0
19.704,0.0,-0.164,0.0
0.0,0.0,0.0,0.0
19.633,-0.003,0.255,14.0
19.744,-0.005,0.142,1.0
19.724,-0.007,0.026,10.0
19.762,-0.009,-0.09,2.0
19.776,-0.01,-0.206,0.0
32.052,-0.02,-0.522,0.0
19.652,-0.014,0.215,14.0
19.693,-0.016,0.1,6.0
19.723,-0.018,-0.014,12.0
19.752,-0.02,-0.132,7.0
19.801,-0.022,-0.248,0.0
30.607,-0.037,-0.562,0.0
19.695,-0.026,0.174,8.0
19.708,-0.028,0.059,14.0
19.732,-0.029,-0.055,10.0
19.751,-0.031,-0.172,9.0
19.795,-0.034,-0.288,0.0
29.423,-0.053,-0.601,0.0
19.7,-0.038,0.134,15.0
19.709,-0.04,0.019,17.0
19.735,-0.042,-0.095,12.0
19.745,-0.044,-0.213,13.0
19.767,-0.046,-0.329,0.0
28.181,-0.069,-0.633,0.0
19.713,-0.051,0.094,16.0
19.714,-0.053,-0.02,17.0
19.727,-0.055,-0.136,14.0
19.753,-0.057,-0.253,14.0
19.788,-0.059,-0.369,3.0
19.779,-0.062,-0.485,0.0
19.714,-0.064,0.054,16.0
19.724,-0.066,-0.06,12.0
19.733,-0.069,-0.176,14.0
19.754,-0.071,-0.293,14.0
19.767,-0.073,-0.409,10.0
19.764,-0.076,-0.524,5.0
19.718,-0.078,0.014,16.0
19.717,-0.081,-0.1,15.0
19.736,-0.083,-0.215,15.0
19.749,-0.085,-0.333,13.0
19.76,-0.088,-0.448,14.0
19.768,-0.09,-0.564,14.0
19.728,-0.093,-0.024,14.0
19.718,-0.096,-0.139,17.0
19.733,-0.098,-0.255,15.0
19.741,-0.101,-0.372,15.0
19.74,-0.103,-0.487,15.0
19.767,-0.106,-0.603,16.0
19.732,-0.109,-0.063,10.0
19.732,-0.111,-0.178,16.0
19.746,-0.114,-0.294,15.0
19.727,-0.116,-0.41,17.0
19.743,-0.119,-0.526,16.0
19.754,-0.122,-0.642,16.0
19.735,-0.125,-0.102,16.0
19.723,-0.127,-0.217,16.0
19.737,-0.13,-0.332,16.0
19.726,-0.133,-0.449,16.0
19.74,-0.135,-0.564,17.0
19.752,-0.138,-0.68,17.0
19.735,-0.142,-0.14,16.0
19.737,-0.144,-0.255,17.0
19.739,-0.147,-0.37,17.0
19.728,-0.15,-0.487,17.0
19.753,-0.153,-0.603,15.0
19.762,-0.156,-0.719,10.0
19.75,-0.159,-0.179,15.0
19.741,-0.162,-0.293,14.0
19.741,-0.165,-0.408,14.0
19.753,-0.168,-0.526,11.0
19.779,-0.171,-0.642,7.0
19.721,-0.174,-0.756,6.0
19.773,-0.178,-0.217,13.0
19.769,-0.181,-0.332,11.0
19.758,-0.183,-0.447,8.0
19.786,-0.187,-0.565,0.0
19.832,-0.19,-0.682,0.0
19.458,-0.19,-0.782,2.0
19.793,-0.197,-0.254,2.0
19.798,-0.2,-0.37,2.0
26.585,-0.273,-0.651,0.0
23.05,-0.24,-0.701,0.0
19.791,-0.209,-0.718,8.0
18.899,-0.203,-0.796,0.0
34.842,-0.381,-0.513,0.0
29.302,-0.325,-0.602,0.0
25.525,-0.287,-0.673,0.0
22.364,-0.255,-0.722,0.0
19.716,-0.228,-0.752,6.0
18.261,-0.214,-0.803,0.0
0.0,0.0,0.0,0.0
27.35,-0.331,-0.612,0.0
24.542,-0.301,-0.693,0.0
21.516,-0.268,-0.735,0.0
19.503,-0.246,-0.78,1.0
17.466,-0.223,-0.8,0.0
30.707,-0.399,-0.565,0.0
26.562,-0.35,-0.643,0.0
23.303,-0.311,-0.7,0.0
19.864,-0.268,-0.714,1.0
18.973,-0.259,-0.792,0.0
17.144,-0.237,-0.816,0.0
29.721,-0.418,-0.6,1.0
25.635,-0.365,-0.666,0.0
22.553,-0.325,-0.717,0.0
19.874,-0.29,-0.75,3.0
18.347,-0.271,-0.799,0.0
16.552,-0.247,-0.817,0.0
0.0,0.0,0.0,0.0
24.861,-0.381,-0.69,0.0
21.877,-0.339,-0.734,0.0
19.576,-0.307,-0.773,1.0
17.726,-0.281,-0.803,0.0
16.067,-0.258,-0.822,0.0
26.988,-0.44,-0.639,0.0
23.713,-0.391,-0.699,0.0
21.106,-0.351,-0.745,0.0
19.043,-0.321,-0.785,0.0
17.203,-0.293,-0.809,0.0
15.68,-0.27,-0.829,0.0
26.151,-0.456,-0.663,0.0
22.662,-0.399,-0.707,0.0
20.355,-0.362,-0.753,0.0
18.526,-0.333,-0.795,0.0
16.703,-0.304,-0.814,0.0
15.338,-0.282,-0.837,0.0
21.729,-0.404,-0.588,12.0
21.693,-0.408,-0.713,6.0
19.838,-0.377,-0.767,0.0
17.905,-0.344,-0.798,0.0
16.221,-0.315,-0.818,0.0
14.979,-0.293,-0.842,0.0
21.724,-0.431,-0.624,151.0
21.606,-0.432,-0.746,3.0
19.352,-0.391,-0.78,0.0
17.449,-0.356,-0.807,0.0
15.865,-0.327,-0.826,0.0
14.532,-0.302,-0.841,0.0
21.719,-0.457,-0.659,15.0
21.094,-0.448,-0.762,1.0
18.867,-0.405,-0.791,0.0
17.022,-0.369,-0.814,0.0
15.496,-0.339,-0.831,0.0
14.248,-0.314,-0.847,0.0
21.718,-0.484,-0.693,6.0
20.159,-0.454,-0.76,0.0
18.074,-0.411,-0.787,0.0
16.524,-0.379,-0.817,0.0
15.178,-0.351,-0.839,0.0
13.943,-0.325,-0.851,0.0
21.66,-0.511,-0.725,8.0
19.653,-0.468,-0.772,0.0
17.766,-0.427,-0.801,1.0
16.09,-0.39,-0.82,0.0
14.853,-0.363,-0.844,0.0
13.623,-0.336,-0.853,0.0
21.265,-0.529,-0.745,0.0
18.087,-0.454,-0.738,1.0
17.508,-0.443,-0.816,0.0
15.707,-0.401,-0.825,0.0
14.471,-0.373,-0.844,0.0
13.39,-0.348,-0.858,0.0
17.813,-0.467,-0.65,151.0
17.784,-0.47,-0.752,9.0
17.462,-0.465,-0.84,0.0
15.402,-0.414,-0.831,0.0
14.213,-0.385,-0.85,0.0
17.839,-0.487,-1.17,0.0
17.806,-0.49,-0.676,152.0
17.776,-0.493,-0.777,4.0
17.6,-0.492,-0.872,2.0
15.099,-0.426,-0.837,0.0
13.948,-0.397,-0.854,1.0
17.783,-0.51,-1.192,0.0
17.799,-0.514,-0.701,150.0
17.749,-0.517,-0.802,2.0
0.0,0.0,0.0,0.0
14.799,-0.438,-0.841,0.0
17.802,-0.531,-1.115,1.0
17.8,-0.535,-1.218,0.0
17.797,-0.539,-0.726,6.0
17.646,-0.538,-0.821,0.0
17.785,-0.547,-0.93,0.0
14.5,-0.449,-0.844,0.0
13.357,-0.417,-0.855,0.0
12.436,-0.391,-0.868,0.0
17.811,-0.564,-0.75,3.0
17.153,-0.547,-0.821,0.0
15.546,-0.499,-0.834,0.0
14.294,-0.463,-0.851,0.0
13.017,-0.424,-0.85,0.0
12.266,-0.403,-0.872,0.0
18.06,-0.597,-0.784,0.0
16.605,-0.553,-0.817,0.0
15.203,-0.51,-0.836,0.0
14.01,-0.473,-0.852,0.0
12.881,-0.438,-0.858,0.0
12.109,-0.415,-0.877,0.0
17.795,-0.614,-0.795,1.0
16.255,-0.564,-0.82,0.0
14.913,-0.521,-0.838,0.0
13.702,-0.482,-0.851,0.0
12.733,-0.452,-0.864,0.0
11.943,-0.427,-0.88,0.0
17.582,-0.632,-0.808,0.0
15.921,-0.576,-0.823,0.0
14.688,-0.535,-0.844,0.0
13.541,-0.497,-0.858,0.0
12.553,-0.463,-0.868,0.0
11.762,-0.437,-0.881,0.0
17.243,-0.645,-0.813,0.0
15.677,-0.59,-0.829,0.0
14.432,-0.547,-0.847,0.0
13.218,-0.504,-0.853,0.0
12.366,-0.475,-0.869,0.0
11.61,-0.449,-0.883,0.0
16.921,-0.658,-0.818,0.0
15.414,-0.603,-0.833,0.0
14.254,-0.561,-0.853,0.0
13.013,-0.516,-0.855,0.0
12.229,-0.488,-0.874,0.0
11.495,-0.462,-0.888,0.0
16.503,-0.666,-0.816,0.0
15.184,-0.617,-0.838,0.0
13.907,-0.568,-0.848,0.0
12.87,-0.529,-0.86,0.0
12.088,-0.5,-0.877,0.0
11.396,-0.475,-0.893,0.0
16.314,-0.683,-0.824,0.0
14.896,-0.627,-0.838,0.0
13.704,-0.58,-0.85,0.0
12.668,-0.54,-0.86,0.0
11.985,-0.514,-0.883,0.0
11.203,-0.484,-0.89,0.0
16.02,-0.695,-0.826,0.0
14.691,-0.641,-0.842,0.0
13.403,-0.588,-0.845,0.0
12.553,-0.554,-0.865,0.0
11.83,-0.525,-0.883,0.0
11.112,-0.497,-0.894,0.0
15.798,-0.709,-0.831,0.0
14.542,-0.656,-0.848,0.0
13.342,-0.606,-0.855,0.0
12.402,-0.566,-0.867,0.0
11.733,-0.539,-0.888,0.0
11.011,-0.509,-0.897,0.0
15.53,-0.72,-0.832,0.0
14.397,-0.672,-0.853,0.0
13.113,-0.615,-0.853,0.0
12.277,-0.579,-0.87,0.0
11.681,-0.554,-0.895,0.0
10.873,-0.519,-0.896,0.0
15.345,-0.735,-0.836,0.0
14.204,-0.684,-0.855,0.0
12.934,-0.627,-0.853,0.0
12.162,-0.593,-0.873,0.0
11.448,-0.561,-0.887,0.0
10.806,-0.533,-0.9,0.0
15.148,-0.749,-0.839,0.0
13.871,-0.69,-0.847,0.0
12.726,-0.636,-0.85,0.0
12.079,-0.607,-0.877,0.0
11.298,-0.571,-0.886,0.0
10.749,-0.546,-0.904,0.0
14.973,-0.764,-0.842,0.0
13.778,-0.706,-0.853,0.0
12.677,-0.653,-0.858,0.0
12.008,-0.622,-0.882,0.0
11.275,-0.588,-0.893,0.0
10.677,-0.56,-0.907,0.0
14.779,-0.777,-0.843,0.0
13.439,-0.71,-0.843,0.0
12.611,-0.67,-0.863,0.0
11.896,-0.635,-0.883,0.0
11.224,-0.602,-0.898,0.0
10.568,-0.57,-0.906,0.0
14.681,-0.794,-0.848,0.0
13.222,-0.719,-0.839,0.0
12.513,-0.684,-0.866,0.0
11.843,-0.651,-0.888,0.0
11.122,-0.614,-0.898,0.0
10.486,-0.582,-0.907,0.0
14.538,-0.809,-0.85,0.0
13.331,-0.746,-0.856,0.0
12.478,-0.701,-0.872,0.0
11.691,-0.66,-0.885,0.0
11.073,-0.629,-0.902,0.0
10.421,-0.595,-0.908,0.0
14.424,-0.825,-0.853,0.0
13.216,-0.76,-0.857,0.0
12.342,-0.713,-0.871,0.0
11.654,-0.676,-0.89,0.0
10.972,-0.64,-0.9,0.0
10.364,-0.608,-0.91,0.0
14.235,-0.836,-0.851,0.0
13.132,-0.775,-0.86,0.0
12.282,-0.728,-0.874,0.0
11.598,-0.691,-0.893,0.0
10.917,-0.654,-0.903,0.0
10.307,-0.62,-0.911,0.0
14.163,-0.854,-0.855,0.0
13.059,-0.791,-0.863,0.0
12.247,-0.745,-0.879,0.0
11.518,-0.704,-0.893,0.0
10.773,-0.662,-0.897,0.0
10.218,-0.631,-0.909,0.0
14.038,-0.868,-0.855,0.0
12.996,-0.807,-0.866,0.0
12.143,-0.758,-0.878,0.0
11.478,-0.72,-0.896,0.0
10.796,-0.68,-0.904,0.0
10.206,-0.646,-0.913,0.0
13.882,-0.88,-0.853,0.0
12.94,-0.824,-0.868,0.0
12.099,-0.774,-0.88,0.0
11.385,-0.731,-0.894,0.0
10.686,-0.69,-0.9,0.0
10.15,-0.658,-0.913,0.0
13.835,-0.898,-0.856,0.0
12.786,-0.834,-0.864,0.0
12.034,-0.788,-0.881,0.0
11.306,-0.744,-0.893,0.0
10.672,-0.705,-0.904,0.0
10.104,-0.671,-0.913,0.0
13.751,-0.914,-0.857,0.0
12.815,-0.855,-0.871,0.0
12.012,-0.805,-0.884,0.0
11.269,-0.759,-0.895,0.0
10.603,-0.717,-0.902,0.0
10.083,-0.685,-0.915,0.0
13.589,-0.924,-0.852,0.0
12.788,-0.873,-0.874,0.0
11.972,-0.821,-0.886,0.0
11.254,-0.775,-0.898,0.0
10.596,-0.733,-0.905,0.0
10.044,-0.697,-0.915,0.0
13.631,-0.947,-0.859,0.0
12.7,-0.886,-0.872,0.0
11.955,-0.838,-0.888,0.0
11.219,-0.789,-0.898,0.0
10.542,-0.745,-0.904,0.0
10.031,-0.712,-0.917,0.0
13.597,-0.965,-0.861,0.0
12.625,-0.9,-0.871,0.0
11.85,-0.848,-0.884,0.0
11.188,-0.804,-0.899,0.0
10.607,-0.766,-0.912,0.0
10.004,-0.725,-0.917,0.0
13.595,-0.986,-0.864,0.0
12.6,-0.917,-0.872,0.0
11.817,-0.864,-0.884,0.0
11.172,-0.82,-0.9,0.0
10.537,-0.776,-0.909,0.0
9.991,-0.739,-0.918,0.0
13.596,-1.006,-0.867,0.0
12.569,-0.934,-0.872,0.0
11.853,-0.884,-0.889,0.0
11.118,-0.832,-0.898,0.0
10.557,-0.794,-0.912,0.0
10.004,-0.755,-0.921,0.0
13.572,-1.024,-0.868,0.0
12.533,-0.949,-0.872,0.0
11.815,-0.899,-0.888,0.0
11.097,-0.847,-0.898,0.0
10.477,-0.803,-0.907,0.0
9.985,-0.768,-0.92,0.0
13.526,-1.041,-0.866,0.0
12.513,-0.966,-0.872,0.0
11.78,-0.913,-0.887,0.0
11.082,-0.862,-0.898,0.0
10.463,-0.817,-0.906,0.0
9.973,-0.782,-0.92,0.0
13.512,-1.059,-0.867,0.0
12.509,-0.984,-0.872,0.0
11.73,-0.926,-0.884,0.0
11.071,-0.877,-0.897,0.0
10.495,-0.835,-0.91,0.0
9.984,-0.797,-0.922,0.0
13.498,-1.078,-0.866,0.0
12.512,-1.002,-0.873,0.0
11.819,-0.95,-0.891,0.0
11.027,-0.89,-0.894,0.0
10.552,-0.855,-0.915,0.0
9.965,-0.81,-0.92,0.0
13.555,-1.102,-0.87,0.0
12.574,-1.025,-0.877,0.0
11.845,-0.969,-0.893,0.0
11.008,-0.904,-0.892,0.0
10.551,-0.87,-0.914,0.0
9.972,-0.825,-0.92,0.0
13.561,-1.121,-0.87,0.0
12.575,-1.043,-0.877,0.0
11.745,-0.978,-0.884,0.0
11.05,-0.923,-0.895,0.0
10.513,-0.881,-0.91,0.0
10.005,-0.842,-0.922,0.0
13.542,-1.139,-0.867,0.0
12.548,-1.059,-0.873,0.0
11.835,-1.002,-0.89,0.0
11.086,-0.941,-0.897,0.0
10.505,-0.895,-0.908,0.0
10.002,-0.855,-0.921,0.0
13.614,-1.163,-0.87,0.0
12.529,-1.074,-0.871,0.0
11.882,-1.022,-0.892,0.0
11.108,-0.959,-0.897,0.0
10.509,-0.91,-0.907,0.0
10.002,-0.869,-0.919,0.0
13.609,-1.181,-0.868,0.0
12.551,-1.093,-0.87,0.0
11.906,-1.04,-0.891,0.0
11.083,-0.971,-0.893,0.0
10.543,-0.927,-0.908,0.0
10.036,-0.885,-0.92,0.0
13.661,-1.204,-0.868,0.0
12.539,-1.108,-0.866,0.0
11.943,-1.059,-0.891,0.0
11.204,-0.997,-0.9,0.0
10.616,-0.947,-0.912,0.0
10.082,-0.902,-0.922,0.0
13.768,-1.231,-0.871,0.0
12.703,-1.14,-0.874,0.0
11.972,-1.077,-0.89,0.0
11.232,-1.014,-0.899,0.0
10.669,-0.966,-0.913,0.0
10.134,-0.92,-0.924,0.0
13.731,-1.246,-0.865,0.0
12.858,-1.17,-0.881,0.0
11.956,-1.091,-0.886,0.0
11.223,-1.027,-0.895,0.0
10.736,-0.985,-0.916,0.0
10.148,-0.934,-0.922,0.0
13.787,-1.268,-0.864,0.0
12.828,-1.183,-0.875,0.0
12.046,-1.114,-0.888,0.0
11.286,-1.047,-0.896,0.0
10.73,-0.998,-0.912,0.0
10.213,-0.953,-0.924,0.0
13.877,-1.294,-0.865,0.0
12.865,-1.203,-0.873,0.0
12.095,-1.134,-0.887,0.0
11.349,-1.067,-0.897,0.0
10.77,-1.015,-0.911,0.0
10.213,-0.965,-0.92,0.0
13.931,-1.315,-0.863,0.0
12.897,-1.221,-0.87,0.0
12.172,-1.155,-0.888,0.0
11.452,-1.09,-0.9,0.0
10.815,-1.032,-0.91,0.0
10.241,-0.98,-0.918,0.0
14.096,-1.348,-0.867,0.0
12.963,-1.243,-0.868,0.0
12.207,-1.173,-0.885,0.0
11.418,-1.1,-0.892,0.0
10.852,-1.049,-0.908,0.0
10.271,-0.995,-0.916,0.0
14.152,-1.369,-0.863,0.0
13.141,-1.275,-0.874,0.0
12.217,-1.188,-0.88,0.0
11.585,-1.13,-0.899,0.0
10.931,-1.069,-0.909,0.0
10.345,-1.014,-0.918,0.0
14.263,-1.396,-0.863,0.0
13.296,-1.305,-0.877,0.0
12.249,-1.205,-0.876,0.0
11.611,-1.145,-0.895,0.0
10.966,-1.084,-0.906,0.0
10.426,-1.034,-0.919,0.0
14.337,-1.419,-0.86,0.0
13.415,-1.331,-0.878,0.0
12.319,-1.225,-0.874,0.0
11.725,-1.169,-0.897,0.0
11.019,-1.101,-0.904,0.0
10.519,-1.054,-0.921,0.0
14.451,-1.446,-0.858,0.0
13.426,-1.346,-0.871,0.0
12.523,-1.259,-0.881,0.0
11.792,-1.188,-0.896,0.0
11.112,-1.122,-0.905,0.0
10.527,-1.066,-0.915,0.0
14.574,-1.474,-0.856,0.0
13.56,-1.374,-0.871,0.0
12.671,-1.287,-0.883,0.0
11.892,-1.21,-0.895,0.0
11.165,-1.139,-0.902,0.0
10.619,-1.086,-0.916,0.0
14.701,-1.501,-0.854,0.0
13.721,-1.404,-0.872,0.0
12.704,-1.303,-0.877,0.0
11.965,-1.23,-0.893,0.0
11.247,-1.158,-0.901,0.0
10.683,-1.103,-0.914,0.0
14.876,-1.534,-0.854,0.0
13.847,-1.43,-0.871,0.0
12.876,-1.333,-0.88,0.0
12.107,-1.256,-0.895,0.0
11.318,-1.177,-0.899,0.0
10.722,-1.117,-0.91,0.0
15.087,-1.57,-0.856,0.0
14.042,-1.464,-0.873,0.0
12.956,-1.353,-0.876,0.0
12.078,-1.264,-0.884,0.0
11.493,-1.205,-0.904,0.0
10.794,-1.134,-0.908,0.0
15.241,-1.599,-0.853,0.0
14.149,-1.488,-0.869,0.0
13.117,-1.382,-0.877,0.0
12.224,-1.29,-0.885,0.0
11.544,-1.221,-0.899,0.0
10.864,-1.151,-0.906,0.0
15.427,-1.632,-0.852,0.0
14.248,-1.51,-0.864,0.0
13.279,-1.41,-0.878,0.0
12.404,-1.32,-0.889,0.0
11.65,-1.242,-0.898,0.0
10.979,-1.173,-0.906,0.0
15.623,-1.666,-0.85,0.0
14.458,-1.545,-0.865,0.0
13.405,-1.435,-0.875,0.0
12.453,-1.335,-0.882,0.0
11.801,-1.268,-0.9,0.0
11.148,-1.2,-0.911,0.0
15.875,-1.706,-0.85,0.0
14.656,-1.577,-0.865,0.0
13.592,-1.465,-0.876,0.0
12.565,-1.357,-0.879,0.0
11.856,-1.283,-0.894,0.0
11.216,-1.215,-0.907,0.0
16.165,-1.749,-0.852,0.0
14.868,-1.611,-0.864,0.0
13.774,-1.495,-0.875,0.0
12.821,-1.394,-0.886,0.0
11.949,-1.301,-0.89,0.0
11.345,-1.238,-0.907,0.0
16.252,-1.771,-0.842,0.0
15.029,-1.64,-0.86,0.0
13.876,-1.516,-0.869,0.0
12.923,-1.414,-0.881,0.0
12.129,-1.329,-0.893,0.0
11.456,-1.258,-0.905,0.0
16.457,-1.804,-0.838,0.0
15.194,-1.668,-0.856,0.0
14.089,-1.549,-0.87,0.0
13.153,-1.448,-0.884,0.0
12.317,-1.358,-0.895,0.0
11.536,-1.274,-0.901,0.0
16.661,-1.837,-0.832,0.0
15.319,-1.691,-0.848,0.0
14.276,-1.578,-0.868,0.0
13.317,-1.474,-0.883,0.0
12.471,-1.383,-0.894,0.0
11.665,-1.295,-0.9,0.0
16.982,-1.883,-0.832,0.0
15.622,-1.734,-0.85,0.0
14.512,-1.613,-0.868,0.0
13.453,-1.497,-0.879,0.0
12.591,-1.403,-0.89,0.0
11.809,-1.318,-0.899,0.0
17.107,-1.906,-0.821,0.0
15.655,-1.747,-0.836,0.0
14.743,-1.647,-0.867,0.0
13.633,-1.525,-0.877,0.0
12.766,-1.429,-0.89,0.0
11.894,-1.334,-0.893,0.0
17.557,-1.966,-0.825,0.0
16.194,-1.815,-0.848,0.0
15.017,-1.685,-0.868,0.0
13.797,-1.55,-0.873,0.0
12.918,-1.453,-0.887,0.0
12.016,-1.353,-0.89,0.0
17.746,-1.996,-0.816,0.0
16.369,-1.843,-0.84,0.0
15.175,-1.71,-0.861,0.0
14.016,-1.581,-0.872,0.0
13.078,-1.477,-0.884,0.0
12.214,-1.381,-0.892,0.0
18.152,-2.049,-0.815,0.0
16.474,-1.861,-0.828,0.0
15.393,-1.741,-0.857,0.0
14.298,-1.619,-0.875,0.0
13.348,-1.513,-0.888,0.0
12.36,-1.402,-0.889,0.0
18.425,-2.087,-0.808,0.0
16.842,-1.91,-0.829,0.0
15.652,-1.776,-0.854,0.0
14.413,-1.637,-0.866,0.0
13.566,-1.542,-0.888,0.0
12.656,-1.44,-0.897,0.0
18.673,-2.122,-0.798,0.0
17.237,-1.96,-0.83,0.0
15.973,-1.818,-0.854,0.0
14.714,-1.676,-0.868,0.0
13.701,-1.562,-0.882,0.0
12.793,-1.46,-0.892,0.0
19.366,-2.207,-0.807,0.0
17.51,-1.997,-0.823,0.0
16.239,-1.853,-0.851,0.0
14.933,-1.705,-0.864,0.0
13.851,-1.583,-0.876,0.0
12.98,-1.485,-0.891,0.0
19.695,-2.25,-0.799,0.0
17.958,-2.053,-0.824,0.0
16.432,-1.879,-0.842,0.0
15.18,-1.737,-0.861,0.0
14.144,-1.62,-0.878,0.0
13.13,-1.505,-0.886,0.0
20.082,-2.299,-0.791,0.0
18.222,-2.086,-0.816,0.0
16.705,-1.914,-0.837,0.0
15.421,-1.768,-0.857,0.0
14.287,-1.639,-0.871,0.0
13.426,-1.541,-0.89,0.0
20.417,-2.34,-0.781,0.0
18.449,-2.116,-0.804,0.0
16.963,-1.946,-0.83,0.0
15.714,-1.804,-0.855,0.0
14.533,-1.669,-0.869,0.0
13.613,-1.564,-0.887,0.0
20.996,-2.41,-0.779,0.0
19.092,-2.192,-0.81,0.0
17.335,-1.991,-0.828,0.0
15.995,-1.838,-0.852,0.0
14.811,-1.702,-0.868,0.0
13.772,-1.584,-0.881,0.0
21.334,-2.45,-0.766,0.0
19.537,-2.245,-0.806,0.0
17.497,-2.011,-0.815,0.0
16.253,-1.868,-0.846,0.0
15.142,-1.741,-0.869,0.0
14.058,-1.617,-0.882,0.0
21.853,-2.511,-0.759,0.0
19.895,-2.286,-0.797,0.0
18.212,-2.093,-0.827,0.0
16.518,-1.899,-0.84,0.0
15.337,-1.764,-0.862,0.0
14.168,-1.63,-0.872,0.0
22.326,-2.565,-0.748,0.0
20.144,-2.315,-0.783,0.0
18.548,-2.132,-0.82,0.0
16.828,-1.934,-0.835,0.0
15.701,-1.805,-0.863,0.0
14.409,-1.657,-0.869,0.0
23.094,-2.653,-0.746,0.0
20.769,-2.385,-0.782,0.0
0.0,0.0,0.0,0.0
17.117,-1.966,-0.829,0.0
15.907,-1.827,-0.855,0.0
14.75,-1.695,-0.872,0.0
23.496,-2.697,-0.73,0.0
21.244,-2.438,-0.774,0.0
19.455,-2.233,-0.812,0.0
17.474,-2.005,-0.825,0.0
16.187,-1.857,-0.851,0.0
15.047,-1.727,-0.871,0.0
24.161,-2.77,-0.722,0.0
21.653,-2.482,-0.762,0.0
19.862,-2.276,-0.805,0.0
17.958,-2.058,-0.826,0.0
16.371,-1.876,-0.84,0.0
15.265,-1.749,-0.865,0.0
0.0,0.0,0.0,0.0
22.174,-2.537,-0.754,0.0
20.157,-2.306,-0.793,0.0
18.287,-2.092,-0.818,0.0
16.753,-1.916,-0.839,0.0
15.54,-1.777,-0.861,0.0
25.563,-2.92,-0.701,0.0
23.1,-2.638,-0.756,0.0
20.431,-2.332,-0.778,0.0
18.956,-2.163,-0.825,0.0
17.151,-1.957,-0.838,0.0
15.85,-1.808,-0.859,0.0
26.24,-2.991,-0.688,0.0
23.381,-2.664,-0.737,0.0
21.131,-2.406,-0.779,0.0
0.0,0.0,0.0,0.0
17.543,-1.996,-0.835,0.0
16.148,-1.837,-0.855,0.0
0.0,0.0,0.0,0.0
24.142,-2.742,-0.731,0.0
21.586,-2.451,-0.769,0.0
19.658,-2.231,-0.807,0.0
17.855,-2.025,-0.828,0.0
16.392,-1.859,-0.847,0.0
0.0,0.0,0.0,0.0
24.576,-2.782,-0.713,0.0
22.114,-2.502,-0.76,0.0
19.947,-2.256,-0.793,0.0
18.38,-2.077,-0.829,0.0
16.767,-1.894,-0.846,0.0
28.694,-3.239,-0.645,0.0
0.0,0.0,0.0,0.0
22.889,-2.58,-0.758,0.0
20.48,-2.307,-0.79,0.0
18.63,-2.097,-0.817,0.0
16.875,-1.899,-0.83,0.0
29.82,-3.353,-0.633,0.0
26.431,-2.969,-0.702,1.0
23.135,-2.597,-0.737,0.0
20.924,-2.347,-0.781,0.0
19.182,-2.15,-0.818,0.0
17.464,-1.956,-0.838,0.0
0.0,0.0,0.0,0.0
26.655,-2.981,-0.675,0.0
23.598,-2.637,-0.723,0.0
21.415,-2.391,-0.772,0.0
19.737,-2.202,-0.817,0.0
17.54,-1.955,-0.82,0.0
32.294,-3.597,-0.606,0.0
27.923,-3.108,-0.673,0.0
0.0,0.0,0.0,0.0
22.064,-2.451,-0.769,0.0
19.906,-2.209,-0.799,0.0
18.011,-1.997,-0.819,0.0
31.978,-3.543,-0.561,0.0
28.739,-3.181,-0.657,0.0
25.52,-2.822,-0.719,0.0
22.539,-2.49,-0.757,0.0
20.299,-2.24,-0.79,0.0
18.738,-2.066,-0.829,0.0
33.814,-3.725,-0.551,0.0
29.221,-3.215,-0.631,0.0
26.389,-2.9,-0.71,0.0
23.26,-2.554,-0.753,0.0
20.763,-2.277,-0.782,0.0
19.271,-2.111,-0.828,0.0
0.0,0.0,0.0,0.0
30.31,-3.314,-0.618,0.0
26.467,-2.89,-0.68,0.0
23.722,-2.588,-0.738,0.0
21.181,-2.308,-0.772,0.0
19.551,-2.127,-0.816,0.0
36.493,-3.969,-0.505,0.0
31.362,-3.406,-0.601,0.0
28.168,-3.055,-0.689,0.0
23.875,-2.586,-0.714,0.0
21.765,-2.355,-0.767,0.0
19.833,-2.143,-0.804,0.0
0.0,0.0,0.0,0.0
32.66,-3.522,-0.586,1.0
28.37,-3.055,-0.66,0.0
0.0,0.0,0.0,0.0
22.451,-2.411,-0.763,0.0
20.149,-2.161,-0.792,0.0
40.184,-4.307,-0.459,0.0
0.0,0.0,0.0,0.0
29.25,-3.125,-0.645,0.0
26.247,-2.8,-0.721,0.0
22.948,-2.444,-0.752,0.0
20.682,-2.2,-0.788,0.0
42.433,-4.511,-0.434,0.0
0.0,0.0,0.0,0.0
30.79,-3.263,-0.642,0.0
26.626,-2.817,-0.7,0.0
23.773,-2.511,-0.751,0.0
21.141,-2.23,-0.781,0.0
0.0,0.0,0.0,0.0
36.663,-3.858,-0.526,0.0
31.326,-3.291,-0.616,0.0
27.366,-2.87,-0.687,0.0
23.837,-2.495,-0.725,0.0
21.642,-2.262,-0.774,0.0
0.0,0.0,0.0,0.0
0.0,0.0,0.0,0.0
32.791,-3.413,-0.607,0.0
28.322,-2.942,-0.678,0.0
23.692,-2.457,-0.693,0.0
22.405,-2.319,-0.775,0.0
0.0,0.0,0.0,0.0
0.0,0.0,0.0,0.0
32.719,-3.372,-0.568,0.0
28.823,-2.965,-0.656,0.0
0.0,0.0,0.0,0.0
22.683,-2.325,-0.758,0.0
0.0,0.0,0.0,0.0
0.0,0.0,0.0,0.0
0.0,0.0,0.0,0.0
29.475,-3.001,-0.638,0.0
0.0,0.0,0.0,0.0
23.375,-2.371,-0.755,0.0
0.0,0.0,0.0,0.0
42.562,-4.306,-0.415,0.0
0.0,0.0,0.0,0.0
30.066,-3.028,-0.616,0.0
26.701,-2.684,-0.69,0.0
23.68,-2.375,-0.738,0.0
0.0,0.0,0.0,0.0
0.0,0.0,0.0,0.0
0.0,0.0,0.0,0.0
31.281,-3.116,-0.607,0.0
27.525,-2.735,-0.681,0.0
23.996,-2.379,-0.722,0.0
0.0,0.0,0.0,0.0
0.0,0.0,0.0,0.0
0.0,0.0,0.0,0.0
32.184,-3.168,-0.59,0.0
0.0,0.0,0.0,0.0
23.98,-2.349,-0.695,0.0
0.0,0.0,0.0,0.0
0.0,0.0,0.0,0.0
0.0,0.0,0.0,0.0
33.284,-3.235,-0.574,0.0
28.845,-2.797,-0.651,0.0
25.815,-2.497,-0.721,0.0
0.0,0.0,0.0,0.0
0.0,0.0,0.0,0.0
41.854,-4.026,-0.45,0.0
0.0,0.0,0.0,0.0
29.311,-2.805,-0.631,0.0
26.142,-2.496,-0.703,0.0
0.0,0.0,0.0,0.0
0.0,0.0,0.0,0.0
0.0,0.0,0.0,0.0
0.0,0.0,0.0,0.0
30.201,-2.851,-0.619,0.0
26.482,-2.493,-0.685,0.0
90.39,-8.508,0.179,5.0
0.0,0.0,0.0,0.0
0.0,0.0,0.0,0.0
35.973,-3.358,-0.509,0.0
31.715,-2.952,-0.619,0.0
0.0,0.0,0.0,0.0
90.388,-8.388,0.268,16.0
0.0,0.0,0.0,0.0
0.0,0.0,0.0,0.0
38.794,-3.568,-0.511,0.0
32.034,-2.938,-0.593,0.0
28.507,-2.607,-0.681,0.0
90.363,-8.26,0.356,15.0
0.0,0.0,0.0,0.0
0.0,0.0,0.0,0.0
39.504,-3.578,-0.482,0.0
0.0,0.0,0.0,0.0
28.759,-2.589,-0.659,0.0
90.39,-8.134,0.443,28.0
0.0,0.0,0.0,0.0
0.0,0.0,0.0,0.0
0.0,0.0,0.0,0.0
0.0,0.0,0.0,0.0
29.093,-2.577,-0.639,0.0
90.398,-8.003,0.527,36.0
0.0,0.0,0.0,0.0
0.0,0.0,0.0,0.0
0.0,0.0,0.0,0.0
35.72,-3.121,-0.561,0.0
29.44,-2.564,-0.62,0.0
90.409,-7.87,0.609,37.0
90.377,-7.84,0.124,2.0
0.0,0.0,0.0,0.0
0.0,0.0,0.0,0.0
35.762,-3.071,-0.53,0.0
0.0,0.0,0.0,0.0
90.421,-7.733,0.689,36.0
90.421,-7.705,0.204,11.0
0.0,0.0,0.0,0.0
0.0,0.0,0.0,0.0
36.137,-3.046,-0.504,0.0
31.155,-2.618,-0.602,0.0
90.399,-7.59,0.767,49.0
90.397,-7.562,0.28,29.0
0.0,0.0,0.0,0.0
0.0,0.0,0.0,0.0
37.301,-3.086,-0.489,0.0
32.362,-2.668,-0.598,0.0
90.427,-7.449,0.842,46.0
99.935,-8.2,0.393,6.0
0.0,0.0,0.0,0.0
0.0,0.0,0.0,0.0
0.0,0.0,0.0,0.0
32.682,-2.641,-0.578,0.0
100.071,-8.081,1.012,16.0
100.08,-8.049,0.474,9.0
0.0,0.0,0.0,0.0
48.624,-3.879,-0.298,0.0
41.447,-3.294,-0.477,0.0
33.787,-2.675,-0.571,0.0
100.083,-7.916,1.09,16.0
100.071,-7.883,0.55,11.0
0.0,0.0,0.0,0.0
0.0,0.0,0.0,0.0
41.743,-3.248,-0.449,1.0
34.144,-2.646,-0.551,0.0
100.11,-7.751,1.164,12.0
100.075,-7.715,0.624,14.0
0.0,0.0,0.0,0.0
0.0,0.0,0.0,0.0
41.659,-3.17,-0.418,0.0
34.436,-2.61,-0.531,0.0
100.13,-7.581,1.236,11.0
100.094,-7.544,0.695,12.0
0.0,0.0,0.0,0.0
0.0,0.0,0.0,0.0
0.0,0.0,0.0,0.0
35.723,-2.645,-0.526,0.0
100.08,-7.402,1.304,10.0
100.111,-7.37,0.763,11.0
98.848,-7.245,0.22,4.0
0.0,0.0,0.0,0.0
0.0,0.0,0.0,0.0
0.0,0.0,0.0,0.0
100.075,-7.226,1.369,8.0
100.106,-7.193,0.828,12.0
98.883,-7.073,0.283,8.0
0.0,0.0,0.0,0.0
0.0,0.0,0.0,0.0
37.167,-2.621,-0.5,0.0
100.071,-7.048,1.43,7.0
100.047,-7.01,0.889,8.0
99.052,-6.907,0.344,10.0
0.0,0.0,0.0,0.0
0.0,0.0,0.0,0.0
37.645,-2.587,-0.484,0.0
100.018,-6.863,1.489,6.0
108.74,-7.424,1.03,7.0
99.233,-6.741,0.402,5.0
0.0,0.0,0.0,0.0
0.0,0.0,0.0,0.0
0.0,0.0,0.0,0.0
0.0,0.0,0.0,0.0
0.0,0.0,0.0,0.0
99.709,-6.59,0.457,16.0
0.0,0.0,0.0,0.0
0.0,0.0,0.0,0.0
0.0,0.0,0.0,0.0
117.531,-7.632,1.876,13.0
125.244,-8.089,1.32,39.0
108.824,-6.99,0.555,2.0
0.0,0.0,0.0,0.0
0.0,0.0,0.0,0.0
0.0,0.0,0.0,0.0
147.894,-9.325,2.434,13.0
147.96,-9.276,1.63,17.0
109.041,-6.798,0.608,2.0
0.0,0.0,0.0,0.0
0.0,0.0,0.0,0.0
40.611,-2.488,-0.439,0.0
148.552,-9.084,2.513,22.0
149.865,-9.111,1.719,17.0
109.709,-6.629,0.661,1.0
0.0,0.0,0.0,0.0
0.0,0.0,0.0,0.0
0.0,0.0,0.0,0.0
148.733,-8.811,2.578,22.0
149.711,-8.815,1.779,15.0
0.0,0.0,0.0,0.0
0.0,0.0,0.0,0.0
0.0,0.0,0.0,0.0
42.956,-2.467,-0.429,0.0
140.734,-8.064,2.494,21.0
140.682,-8.008,1.726,22.0
101.477,-5.739,0.691,19.0
0.0,0.0,0.0,0.0
0.0,0.0,0.0,0.0
0.0,0.0,0.0,0.0
0.0,0.0,0.0,0.0
101.558,-5.582,1.281,18.0
101.442,-5.538,0.726,112.0
0.0,0.0,0.0,0.0
0.0,0.0,0.0,0.0
0.0,0.0,0.0,0.0
0.0,0.0,0.0,0.0
101.515,-5.38,1.312,66.0
0.0,0.0,0.0,0.0
0.0,0.0,0.0,0.0
0.0,0.0,0.0,0.0
0.0,0.0,0.0,0.0
103.873,-5.335,1.939,1.0
0.0,0.0,0.0,0.0
101.52,-5.138,0.785,7.0
101.545,-5.101,0.219,1.0
0.0,0.0,0.0,0.0
0.0,0.0,0.0,0.0
0.0,0.0,0.0,0.0
101.548,-4.972,1.364,1.0
101.525,-4.931,0.808,143.0
0.0,0.0,0.0,0.0
0.0,0.0,0.0,0.0
44.964,-2.135,-0.385,0.0
0.0,0.0,0.0,0.0
0.0,0.0,0.0,0.0
101.522,-4.726,0.828,150.0
0.0,0.0,0.0,0.0
0.0,0.0,0.0,0.0
0.0,0.0,0.0,0.0
0.0,0.0,0.0,0.0
101.457,-4.555,1.401,5.0
0.0,0.0,0.0,0.0
0.0,0.0,0.0,0.0
0.0,0.0,0.0,0.0
0.0,0.0,0.0,0.0
0.0,0.0,0.0,0.0
101.531,-4.348,1.415,150.0
101.469,-4.309,0.857,69.0
0.0,0.0,0.0,0.0
0.0,0.0,0.0,0.0
45.528,-1.882,-0.37,0.0
162.225,-6.674,3.168,6.0
101.594,-4.142,1.425,4.0
0.0,0.0,0.0,0.0
0.0,0.0,0.0,0.0
0.0,0.0,0.0,0.0
45.617,-1.792,-0.368,0.0
162.22,-6.341,3.178,17.0
162.009,-6.27,2.282,12.0
0.0,0.0,0.0,0.0
0.0,0.0,0.0,0.0
0.0,0.0,0.0,0.0
0.0,0.0,0.0,0.0
162.234,-6.001,3.181,16.0
162.158,-5.939,2.286,19.0
162.258,-5.883,1.393,9.0
0.0,0.0,0.0,0.0
0.0,0.0,0.0,0.0
0.0,0.0,0.0,0.0
162.204,-5.664,3.178,14.0
162.161,-5.603,2.283,21.0
162.185,-5.542,1.388,4.0
0.0,0.0,0.0,0.0
0.0,0.0,0.0,0.0
48.465,-1.602,-0.392,0.0
162.197,-5.324,3.169,20.0
161.983,-5.255,2.27,24.0
0.0,0.0,0.0,0.0
0.0,0.0,0.0,0.0
0.0,0.0,0.0,0.0
46.401,-1.437,-0.379,0.0
0.0,0.0,0.0,0.0
161.891,-4.911,2.254,24.0
160.759,-4.819,1.349,4.0
0.0,0.0,0.0,0.0
0.0,0.0,0.0,0.0
0.0,0.0,0.0,0.0
178.274,-5.102,3.445,5.0
161.898,-4.571,2.232,24.0
160.762,-4.48,1.326,11.0
0.0,0.0,0.0,0.0
0.0,0.0,0.0,0.0
44.693,-1.195,-0.377,1.0
170.473,-4.516,3.265,3.0
161.948,-4.232,2.205,20.0
160.784,-4.143,1.298,3.0
0.0,0.0,0.0,0.0
0.0,0.0,0.0,0.0
0.0,0.0,0.0,0.0
170.545,-4.159,3.231,8.0
162.02,-3.892,2.171,10.0
0.0,0.0,0.0,0.0
0.0,0.0,0.0,0.0
0.0,0.0,0.0,0.0
0.0,0.0,0.0,0.0
170.266,-3.794,3.185,6.0
117.342,-2.57,1.543,150.0
117.274,-2.524,0.891,18.0
0.0,0.0,0.0,0.0
0.0,0.0,0.0,0.0
0.0,0.0,0.0,0.0
170.342,-3.433,3.138,7.0
117.263,-2.32,1.508,24.0
117.158,-2.274,0.856,10.0
0.0,0.0,0.0,0.0
0.0,0.0,0.0,0.0
0.0,0.0,0.0,0.0
170.227,-3.068,3.081,11.0
117.271,-2.071,1.47,64.0
117.181,-2.026,0.817,14.0
0.0,0.0,0.0,0.0
0.0,0.0,0.0,0.0
42.655,-0.69,-0.418,0.0
173.481,-2.758,3.077,5.0
19.788,-0.307,0.24,2.0
19.743,-0.299,0.13,25.0
0.0,0.0,0.0,0.0
0.0,0.0,0.0,0.0
0.0,0.0,0.0,0.0
19.764,-0.272,0.342,7.0
19.751,-0.265,0.232,18.0
19.742,-0.257,0.122,15.0
0.0,0.0,0.0,0.0
0.0,0.0,0.0,0.0
0.0,0.0,0.0,0.0
19.745,-0.23,0.334,9.0
19.756,-0.223,0.223,2.0
0.0,0.0,0.0,0.0
0.0,0.0,0.0,0.0
19.695,-0.202,-0.108,0.0
19.779,-0.195,-0.219,7.0
19.799,-0.189,0.325,0.0
0.0,0.0,0.0,0.0
0.0,0.0,0.0,0.0
19.786,-0.168,-0.008,0.0
19.745,-0.161,-0.118,13.0
19.745,-0.154,-0.228,16.0
169.375,-1.268,2.698,5.0
19.752,-0.14,0.204,2.0
19.759,-0.133,0.093,5.0
19.725,-0.126,-0.018,11.0
19.722,-0.119,-0.128,16.0
19.741,-0.113,-0.239,17.0
19.691,-0.106,0.302,10.0
19.714,-0.099,0.192,16.0
19.704,-0.092,0.082,13.0
19.696,-0.085,-0.029,16.0
19.714,-0.079,-0.139,16.0
19.747,-0.072,-0.25,15.0
19.651,-0.065,0.29,10.0
19.68,-0.058,0.181,12.0
19.698,-0.051,0.07,15.0
19.698,-0.045,-0.041,16.0
19.747,-0.038,-0.152,13.0
19.773,-0.031,-0.263,0.0
19.627,-0.024,0.278,14.0
19.701,-0.018,0.169,6.0
19.751,-0.011,0.058,4.0
19.744,-0.004,-0.053,7.0
19.773,0.002,-0.165,0.0
19.77,0.009,-0.275,1.0
19.633,0.015,0.265,14.0
19.75,0.022,0.156,18.0
19.749,0.028,0.045,15.0
19.751,0.035,-0.067,60.0
19.77,0.042,-0.178,57.0
19.764,0.049,-0.289,39.0
19.624,0.055,0.252,14.0
19.691,0.062,0.142,12.0
19.749,0.069,0.031,27.0
19.763,0.075,-0.081,10.0
19.757,0.082,-0.192,2.0
19.747,0.088,-0.303,0.0
19.638,0.094,0.238,13.0
19.649,0.101,0.127,13.0
19.646,0.108,0.017,13.0
19.664,0.114,-0.095,9.0
19.69,0.121,-0.206,0.0
31.732,0.206,-0.51,0.0
19.666,0.134,0.223,16.0
19.643,0.141,0.112,12.0
19.649,0.147,0.002,19.0
19.635,0.154,-0.11,14.0
19.646,0.16,-0.22,14.0
19.666,0.167,-0.331,13.0
19.663,0.174,0.207,13.0
19.666,0.18,0.097,12.0
19.646,0.186,-0.013,13.0
19.621,0.192,-0.126,17.0
19.64,0.199,-0.236,16.0
19.653,0.206,-0.347,15.0
19.767,0.214,0.192,26.0
19.759,0.22,0.081,2.0
19.687,0.225,-0.029,5.0
19.629,0.231,-0.142,16.0
19.64,0.238,-0.253,17.0
19.662,0.244,-0.364,16.0
19.77,0.252,0.175,24.0
84.863,1.112,0.275,3.0
19.71,0.264,-0.047,1.0
19.683,0.27,-0.16,10.0
19.67,0.276,-0.271,14.0
19.688,0.283,-0.382,5.0
160.732,2.368,1.285,13.0
0.0,0.0,0.0,0.0
52.409,0.805,-0.172,1.0
37.314,0.584,-0.337,0.0
35.529,0.568,-0.521,1.0
29.648,0.483,-0.603,0.0
55.181,0.92,0.389,64.0
55.151,0.936,0.078,97.0
47.567,0.822,-0.201,0.0
35.871,0.631,-0.358,0.0
31.017,0.555,-0.485,0.0
28.771,0.523,-0.612,0.0
55.207,1.025,0.337,22.0
55.229,1.043,0.024,26.0
43.359,0.832,-0.225,0.0
34.115,0.665,-0.373,4.0
29.308,0.58,-0.487,0.0
27.397,0.55,-0.61,1.0
83.558,1.709,0.428,4.0
55.097,1.144,-0.029,0.0
41.32,0.87,-0.256,1.0
34.119,0.729,-0.408,1.0
28.611,0.62,-0.504,1.0
24.831,0.545,-0.578,0.0
76.649,1.713,0.312,2.0
45.56,1.032,-0.072,2.0
40.173,0.922,-0.291,2.0
32.046,0.744,-0.416,0.0
27.098,0.637,-0.506,0.0
23.283,0.554,-0.566,0.0
0.0,0.0,0.0,0.0
43.648,1.068,-0.114,3.0
39.866,0.988,-0.331,2.0
30.916,0.775,-0.435,1.0
26.351,0.668,-0.52,1.0
22.452,0.576,-0.57,0.0
0.0,0.0,0.0,0.0
40.136,1.055,-0.149,151.0
36.781,0.978,-0.345,3.0
29.923,0.804,-0.453,1.0
25.787,0.7,-0.537,5.0
21.788,0.598,-0.577,0.0
40.14,1.116,0.033,150.0
40.025,1.124,-0.193,73.0
34.787,0.987,-0.365,1.0
27.734,0.794,-0.451,4.0
24.958,0.722,-0.548,1.0
21.345,0.623,-0.59,1.0
40.126,1.186,-0.012,150.0
40.04,1.195,-0.239,40.0
40.19,1.211,-0.468,2.0
27.923,0.849,-0.487,5.0
24.14,0.741,-0.558,0.0
20.582,0.637,-0.593,0.0
40.129,1.257,-0.059,150.0
39.93,1.261,-0.285,10.0
40.138,1.279,-0.515,3.0
27.26,0.876,-0.507,2.0
22.806,0.739,-0.554,0.0
20.186,0.66,-0.605,0.0
40.075,1.324,-0.107,105.0
39.943,1.33,-0.333,1.0
30.249,1.015,-0.424,1.0
26.07,0.882,-0.517,2.0
22.315,0.761,-0.569,4.0
19.765,0.679,-0.617,3.0
40.087,1.392,-0.155,42.0
40.12,1.404,-0.384,0.0
29.471,1.039,-0.45,2.0
25.083,0.891,-0.528,1.0
21.474,0.768,-0.574,2.0
19.331,0.697,-0.627,3.0
42.388,1.543,-0.218,2.0
34.4,1.261,-0.373,0.0
28.66,1.058,-0.474,2.0
23.981,0.891,-0.535,2.0
21.071,0.789,-0.591,1.0
18.679,0.704,-0.63,3.0
40.1,1.525,-0.257,6.0
33.205,1.271,-0.402,0.0
27.557,1.062,-0.491,6.0
23.607,0.916,-0.557,13.0
20.098,0.785,-0.589,0.0
18.297,0.719,-0.641,3.0
39.461,1.564,-0.304,3.0
30.738,1.226,-0.412,0.0
26.737,1.073,-0.511,6.0
22.815,0.921,-0.568,5.0
19.778,0.803,-0.606,2.0
17.904,0.732,-0.651,3.0
23.636,0.974,-0.213,0.0
23.678,0.981,-0.349,2.0
23.68,0.987,-0.484,32.0
21.598,0.906,-0.567,2.0
19.26,0.812,-0.616,2.0
17.598,0.747,-0.663,2.0
23.64,1.01,-0.245,47.0
23.643,1.016,-0.38,41.0
23.64,1.021,-0.515,33.0
21.035,0.914,-0.581,2.0
18.689,0.817,-0.623,3.0
17.179,0.755,-0.671,2.0
23.628,1.045,-0.277,70.0
23.615,1.05,-0.412,68.0
23.619,1.056,-0.547,41.0
23.649,1.063,-0.686,1.0
18.324,0.828,-0.636,3.0
17.017,0.773,-0.688,2.0
23.622,1.08,-0.31,68.0
23.62,1.085,-0.445,60.0
23.244,1.073,-0.571,5.0
19.699,0.914,-0.599,2.0
17.939,0.837,-0.648,2.0
16.83,0.789,-0.704,2.0
23.64,1.115,-0.344,38.0
23.658,1.121,-0.48,32.0
21.487,1.023,-0.558,0.0
19.092,0.913,-0.607,3.0
17.512,0.841,-0.657,2.0
16.669,0.805,-0.721,1.0
23.643,1.148,-0.378,3.0
23.697,1.156,-0.514,47.0
21.049,1.031,-0.577,3.0
18.638,0.917,-0.62,3.0
17.147,0.848,-0.668,1.0
16.456,0.817,-0.736,1.0
26.951,1.345,-0.469,1.0
23.573,1.182,-0.545,17.0
20.087,1.011,-0.579,1.0
18.252,0.922,-0.633,2.0
16.959,0.861,-0.685,2.0
16.304,0.831,-0.752,1.0
26.017,1.333,-0.49,1.0
22.398,1.152,-0.55,0.0
19.655,1.015,-0.595,2.0
17.925,0.929,-0.648,1.0
16.803,0.875,-0.704,2.0
16.087,0.841,-0.766,1.0
24.931,1.31,-0.507,1.0
21.17,1.116,-0.552,1.0
19.022,1.007,-0.605,3.0
17.403,0.925,-0.655,0.0
16.611,0.886,-0.72,1.0
15.964,0.855,-0.784,3.0
24.075,1.295,-0.525,1.0
20.706,1.118,-0.57,2.0
18.554,1.005,-0.617,3.0
17.085,0.929,-0.668,2.0
16.407,0.895,-0.736,1.0
15.821,0.866,-0.801,0.0
19.901,1.094,-0.464,2.0
19.982,1.103,-0.581,3.0
18.155,1.005,-0.632,3.0
16.905,0.939,-0.687,2.0
16.223,0.905,-0.752,1.0
15.241,0.853,-0.794,0.0
19.744,1.109,-0.49,11.0
19.602,1.105,-0.599,3.0
17.791,1.006,-0.646,1.0
16.735,0.949,-0.705,1.0
16.026,0.912,-0.768,2.0
14.85,0.848,-0.797,0.0
19.738,1.131,-0.52,10.0
18.88,1.085,-0.606,3.0
17.299,0.997,-0.655,1.0
16.537,0.957,-0.722,1.0
15.95,0.925,-0.789,2.0
14.622,0.851,-0.807,0.0
19.729,1.152,-0.55,10.0
18.374,1.076,-0.618,3.0
17.033,1.001,-0.671,1.0
16.317,0.962,-0.738,1.0
15.511,0.917,-0.791,0.0
14.224,0.843,-0.807,0.0
19.705,1.172,-0.58,11.0
18.116,1.08,-0.637,2.0
16.862,1.008,-0.69,1.0
16.095,0.965,-0.753,1.0
15.131,0.91,-0.795,0.0
13.998,0.844,-0.816,0.0
19.265,1.165,-0.597,3.0
17.587,1.067,-0.646,1.0
16.676,1.014,-0.709,1.0
15.993,0.975,-0.773,2.0
14.92,0.912,-0.807,0.0
13.623,0.835,-0.816,0.0
18.674,1.148,-0.608,3.0
17.234,1.062,-0.661,1.0
16.446,1.016,-0.725,1.0
15.737,0.975,-0.786,0.0
14.411,0.895,-0.803,0.0
13.342,0.831,-0.82,0.0
18.301,1.142,-0.625,3.0
16.968,1.061,-0.677,1.0
16.239,1.018,-0.741,1.0
15.172,0.954,-0.781,0.0
14.055,0.886,-0.805,0.0
13.103,0.828,-0.826,0.0
17.811,1.127,-0.636,1.0
16.779,1.064,-0.696,2.0
16.052,1.021,-0.758,2.0
15.045,0.959,-0.799,0.0
13.831,0.884,-0.814,0.0
12.747,0.816,-0.824,0.0
17.41,1.117,-0.649,1.0
16.588,1.066,-0.714,1.0
15.876,1.023,-0.775,0.0
14.514,0.937,-0.794,0.0
13.452,0.871,-0.813,0.0
12.583,0.816,-0.834,0.0
17.098,1.111,-0.665,1.0
16.33,1.063,-0.729,1.0
15.451,1.008,-0.779,0.0
14.242,0.931,-0.802,0.0
13.237,0.867,-0.822,0.0
12.407,0.815,-0.842,0.0
16.853,1.108,-0.683,1.0
16.12,1.062,-0.746,1.0
15.182,1.002,-0.79,0.0
13.97,0.924,-0.809,0.0
12.875,0.853,-0.82,0.0
12.037,0.799,-0.836,0.0
16.682,1.109,-0.702,1.0
15.973,1.064,-0.764,2.0
14.687,0.98,-0.787,0.0
13.669,0.914,-0.813,0.0
12.647,0.847,-0.826,0.0
11.95,0.802,-0.849,0.0
16.451,1.105,-0.719,1.0
15.709,1.057,-0.777,0.0
14.424,0.972,-0.796,0.0
13.243,0.894,-0.809,0.0
12.473,0.844,-0.834,0.0
11.797,0.8,-0.857,0.0
16.211,1.099,-0.734,1.0
15.269,1.037,-0.779,0.0
14.081,0.958,-0.8,0.0
13.013,0.887,-0.816,0.0
12.273,0.838,-0.84,0.0
11.507,0.787,-0.854,0.0
16.029,1.097,-0.751,2.0
14.896,1.021,-0.784,0.0
13.734,0.943,-0.802,0.0
12.803,0.88,-0.823,0.0
12.098,0.833,-0.848,0.0
11.283,0.778,-0.856,0.0
15.869,1.095,-0.769,1.0
14.671,1.013,-0.796,0.0
13.454,0.931,-0.808,0.0
12.561,0.87,-0.828,0.0
11.879,0.824,-0.852,0.0
11.08,0.77,-0.859,0.0
15.525,1.079,-0.778,0.0
14.428,1.004,-0.806,0.0
13.161,0.917,-0.811,0.0
12.372,0.864,-0.835,0.0
11.565,0.808,-0.848,0.0
10.851,0.76,-0.858,0.0
15.109,1.057,-0.781,0.0
13.969,0.979,-0.802,0.0
12.971,0.91,-0.82,0.0
12.106,0.851,-0.836,0.0
11.353,0.799,-0.85,0.0
10.703,0.754,-0.864,0.0
14.741,1.038,-0.785,0.0
13.613,0.96,-0.804,0.0
12.663,0.894,-0.821,0.0
11.892,0.841,-0.841,0.0
11.206,0.793,-0.857,0.0
10.55,0.748,-0.868,0.0
14.527,1.029,-0.797,0.0
13.242,0.939,-0.803,0.0
12.505,0.888,-0.83,0.0
11.649,0.828,-0.842,0.0
10.989,0.782,-0.858,0.0
10.362,0.738,-0.869,0.0
14.156,1.007,-0.799,0.0
13.076,0.931,-0.813,0.0
12.341,0.88,-0.839,0.0
11.477,0.819,-0.848,0.0
10.809,0.773,-0.861,0.0
10.255,0.734,-0.876,0.0
13.856,0.99,-0.803,0.0
12.876,0.921,-0.821,0.0
12.082,0.865,-0.84,0.0
11.269,0.808,-0.85,0.0
10.642,0.764,-0.864,0.0
10.123,0.727,-0.881,0.0
13.451,0.965,-0.801,0.0
12.642,0.908,-0.826,0.0
11.86,0.852,-0.843,0.0
11.081,0.797,-0.853,0.0
10.453,0.753,-0.865,0.0
9.954,0.717,-0.882,0.0
13.172,0.948,-0.804,0.0
12.449,0.896,-0.832,0.0
11.633,0.838,-0.845,0.0
10.966,0.791,-0.861,0.0
10.306,0.744,-0.869,0.0
9.863,0.713,-0.889,0.0
12.983,0.937,-0.813,0.0
12.232,0.883,-0.836,0.0
11.478,0.829,-0.851,0.0
10.665,0.771,-0.854,0.0
10.195,0.738,-0.875,0.0
9.747,0.706,-0.893,0.0
12.816,0.926,-0.822,0.0
11.982,0.866,-0.837,0.0
11.32,0.819,-0.857,0.0
10.599,0.768,-0.864,0.0
10.082,0.731,-0.881,0.0
9.589,0.695,-0.893,0.0
12.562,0.909,-0.824,0.0
11.79,0.854,-0.842,0.0
11.024,0.799,-0.851,0.0
10.408,0.755,-0.864,0.0
9.954,0.722,-0.884,0.0
9.499,0.69,-0.899,0.0
12.393,0.897,-0.831,0.0
11.558,0.837,-0.842,0.0
10.882,0.789,-0.856,0.0
10.306,0.747,-0.871,0.0
9.837,0.714,-0.889,0.0
9.349,0.679,-0.899,0.0
12.225,0.885,-0.838,0.0
11.407,0.826,-0.848,0.0
10.698,0.776,-0.857,0.0
10.132,0.735,-0.871,0.0
9.681,0.703,-0.889,0.0
9.198,0.668,-0.898,0.0
11.943,0.865,-0.836,0.0
11.169,0.809,-0.846,0.0
10.558,0.765,-0.861,0.0
10.051,0.728,-0.879,0.0
9.54,0.692,-0.89,0.0
9.038,0.656,-0.895,0.0
11.82,0.855,-0.844,0.0
11.05,0.799,-0.853,0.0
10.433,0.755,-0.866,0.0
9.949,0.72,-0.884,0.0
9.481,0.687,-0.898,0.0
8.94,0.648,-0.899,0.0
11.579,0.836,-0.844,0.0
10.795,0.78,-0.849,0.0
10.285,0.743,-0.868,0.0
9.819,0.71,-0.887,0.0
9.372,0.678,-0.901,0.0
8.816,0.638,-0.898,0.0
11.433,0.824,-0.849,0.0
10.762,0.776,-0.861,0.0
10.185,0.734,-0.874,0.0
9.723,0.701,-0.892,0.0
9.179,0.662,-0.895,0.0
8.675,0.626,-0.896,0.0
11.247,0.808,-0.851,0.0
10.557,0.759,-0.859,0.0
10.061,0.723,-0.877,0.0
9.576,0.688,-0.891,0.0
9.098,0.654,-0.9,0.0
8.594,0.618,-0.9,0.0
11.099,0.795,-0.854,0.0
10.468,0.75,-0.866,0.0
9.91,0.71,-0.877,0.0
9.48,0.679,-0.895,0.0
8.929,0.64,-0.895,0.0
8.495,0.609,-0.901,0.0
10.853,0.775,-0.85,0.0
10.334,0.738,-0.869,0.0
9.836,0.702,-0.884,0.0
9.342,0.667,-0.894,0.0
8.853,0.632,-0.899,0.0
8.391,0.599,-0.901,0.0
10.811,0.768,-0.861,0.0
10.212,0.726,-0.872,0.0
9.782,0.695,-0.892,0.0
9.196,0.653,-0.893,0.0
8.77,0.623,-0.902,0.0
8.34,0.592,-0.906,0.0
10.658,0.754,-0.862,0.0
10.106,0.715,-0.876,0.0
9.589,0.678,-0.887,0.0
9.15,0.647,-0.9,0.0
8.626,0.61,-0.898,0.0
8.232,0.582,-0.905,0.0
10.48,0.737,-0.861,0.0
10.005,0.703,-0.88,0.0
9.537,0.67,-0.894,0.0
8.941,0.628,-0.891,0.0
8.552,0.601,-0.901,0.0
8.171,0.574,-0.909,0.0
10.413,0.728,-0.868,0.0
9.919,0.693,-0.884,0.0
9.421,0.658,-0.894,0.0
8.944,0.625,-0.902,0.0
8.467,0.591,-0.903,0.0
8.097,0.565,-0.91,0.0
10.33,0.718,-0.874,0.0
9.797,0.68,-0.885,0.0
9.348,0.649,-0.899,0.0
8.8,0.61,-0.898,0.0
8.384,0.581,-0.904,0.0
8.0,0.555,-0.909,0.0
10.157,0.701,-0.871,0.0
9.688,0.668,-0.887,0.0
9.289,0.64,-0.904,0.0
8.733,0.601,-0.901,0.0
8.314,0.572,-0.906,0.0
7.952,0.547,-0.913,0.0
10.089,0.691,-0.877,0.0
9.633,0.659,-0.892,0.0
9.132,0.624,-0.899,0.0
8.634,0.59,-0.901,0.0
8.245,0.563,-0.908,0.0
7.89,0.538,-0.915,0.0
9.995,0.679,-0.88,0.0
9.513,0.645,-0.892,0.0
9.041,0.613,-0.9,0.0
8.547,0.579,-0.901,0.0
8.199,0.555,-0.912,0.0
7.827,0.53,-0.916,0.0
8.82,0.313,-0.911,0.0
8.399,0.297,-0.914,0.0
8.08,0.284,-0.925,0.0
7.732,0.27,-0.929,0.0
7.461,0.259,-0.938,0.0
7.228,0.25,-0.95,0.0
8.862,0.304,-0.913,0.0
8.456,0.289,-0.918,0.0
8.075,0.274,-0.922,0.0
7.776,0.262,-0.932,0.0
7.493,0.251,-0.94,0.0
7.234,0.241,-0.948,0.0
8.894,0.294,-0.913,0.0
8.492,0.279,-0.919,0.0
8.097,0.265,-0.921,0.0
7.789,0.253,-0.931,0.0
7.51,0.243,-0.94,0.0
7.245,0.233,-0.947,0.0
8.925,0.284,-0.913,0.0
8.523,0.27,-0.919,0.0
8.162,0.257,-0.926,0.0
7.801,0.244,-0.929,0.0
7.518,0.234,-0.938,0.0
7.237,0.224,-0.943,0.0
8.943,0.274,-0.911,0.0
8.532,0.26,-0.917,0.0
8.213,0.249,-0.928,0.0
7.869,0.237,-0.934,0.0
7.563,0.226,-0.94,0.0
7.272,0.216,-0.944,0.0
8.994,0.265,-0.912,0.0
8.566,0.251,-0.916,0.0
8.199,0.238,-0.923,0.0
7.905,0.228,-0.934,0.0
7.594,0.218,-0.94,0.0
7.301,0.208,-0.944,0.0
9.047,0.256,-0.913,0.0
8.652,0.243,-0.921,0.0
8.236,0.229,-0.923,0.0
7.908,0.219,-0.931,0.0
7.592,0.209,-0.936,0.0
7.302,0.199,-0.941,0.0
9.072,0.245,-0.911,0.0
8.662,0.233,-0.917,0.0
8.278,0.221,-0.923,0.0
7.935,0.21,-0.929,0.0
7.614,0.2,-0.934,0.0
7.35,0.191,-0.942,0.0
9.134,0.236,-0.912,0.0
8.746,0.224,-0.921,0.0
8.336,0.212,-0.924,0.0
7.976,0.201,-0.929,0.0
7.662,0.192,-0.935,0.0
7.361,0.183,-0.939,0.0
9.158,0.226,-0.908,1.0
8.77,0.214,-0.918,0.0
8.391,0.203,-0.925,0.0
8.024,0.193,-0.929,0.0
7.747,0.185,-0.94,0.0
7.415,0.175,-0.941,0.0
9.158,0.215,-0.902,1.0
8.83,0.205,-0.918,0.0
8.451,0.195,-0.925,0.0
8.111,0.185,-0.934,0.0
7.774,0.176,-0.938,0.0
7.479,0.168,-0.944,0.0
9.232,0.206,-0.903,0.0
8.91,0.197,-0.92,0.0
8.501,0.186,-0.925,0.0
8.162,0.177,-0.934,0.0
7.843,0.168,-0.94,0.0
7.505,0.16,-0.941,0.0
9.416,0.199,-0.913,0.0
8.955,0.187,-0.918,0.0
8.532,0.177,-0.921,0.0
8.213,0.168,-0.933,0.0
7.887,0.16,-0.939,0.0
7.538,0.151,-0.939,0.0
9.467,0.189,-0.911,0.0
9.03,0.178,-0.918,0.0
8.618,0.168,-0.923,0.0
8.262,0.16,-0.932,0.0
7.938,0.152,-0.939,0.0
7.596,0.144,-0.94,0.0
9.532,0.179,-0.909,0.0
9.062,0.169,-0.914,0.0
8.687,0.16,-0.923,0.0
8.302,0.151,-0.929,0.0
7.976,0.143,-0.936,0.0
7.668,0.136,-0.942,0.0
9.608,0.17,-0.907,0.0
9.147,0.16,-0.914,0.0
8.743,0.151,-0.921,0.0
8.338,0.142,-0.925,0.0
8.063,0.136,-0.939,0.0
7.685,0.128,-0.937,0.0
114.426,2.459,5.601,14.0
121.842,2.646,5.321,8.0
121.149,2.659,4.65,21.0
114.218,2.533,3.77,18.0
134.925,3.022,3.74,14.0
179.197,4.055,4.022,4.0
129.577,2.962,6.54,21.0
114.239,2.637,5.16,13.0
121.355,2.83,4.841,10.0
114.069,2.687,3.936,18.0
98.817,2.351,2.888,16.0
99.122,2.381,2.373,30.0
120.908,2.935,6.285,10.0
128.92,3.159,6.019,12.0
121.32,3.001,5.021,8.0
113.749,2.84,4.094,17.0
45.498,1.146,1.396,1.0
45.529,1.158,1.156,3.0
0.0,0.0,0.0,0.0
0.0,0.0,0.0,0.0
43.7,1.144,1.872,69.0
43.715,1.155,1.637,150.0
0.0,0.0,0.0,0.0
0.0,0.0,0.0,0.0
41.915,1.138,2.301,116.0
0.0,0.0,0.0,0.0
0.0,0.0,0.0,0.0
0.0,0.0,0.0,0.0
41.905,1.178,1.406,28.0
40.125,1.138,1.134,101.0
40.105,1.148,2.259,150.0
40.112,1.158,2.045,129.0
40.124,1.167,1.832,117.0
40.106,1.177,1.614,150.0
40.113,1.187,1.401,145.0
40.112,1.197,1.188,150.0
40.122,1.208,2.314,139.0
40.12,1.218,2.101,110.0
40.12,1.227,1.887,109.0
40.124,1.237,1.669,108.0
40.11,1.247,1.455,150.0
40.118,1.257,1.242,146.0
40.132,1.269,2.369,111.0
40.128,1.278,2.154,107.0
40.12,1.288,1.94,107.0
40.112,1.297,1.721,104.0
40.114,1.307,1.507,140.0
40.128,1.318,1.294,77.0
43.772,1.451,2.641,71.0
120.215,4.015,6.611,20.0
121.142,4.076,6.015,22.0
120.019,4.067,5.305,19.0
120.261,4.106,4.674,20.0
120.768,4.153,4.049,22.0
0.0,0.0,0.0,0.0
135.309,4.726,7.611,16.0
121.061,4.259,6.162,27.0
120.183,4.257,5.46,18.0
120.163,4.287,4.817,21.0
120.598,4.332,4.19,20.0
45.59,1.652,2.864,102.0
135.161,4.931,7.767,13.0
121.114,4.449,6.31,24.0
134.348,4.967,6.265,26.0
120.174,4.474,4.961,15.0
178.564,6.692,6.416,7.0
0.0,0.0,0.0,0.0
121.275,4.615,7.112,22.0
120.843,4.628,6.438,22.0
134.414,5.18,6.425,19.0
179.427,6.961,7.614,5.0
178.744,6.981,6.627,14.0
0.0,0.0,0.0,0.0
121.043,4.795,7.236,21.0
120.904,4.821,6.578,25.0
121.102,4.859,5.926,12.0
179.836,7.263,7.834,18.0
178.737,7.262,6.825,16.0
0.0,0.0,0.0,0.0
45.549,1.878,2.774,2.0
120.789,5.009,6.705,16.0
23.575,0.983,1.179,0.0
23.61,0.991,1.053,0.0
23.622,0.997,0.927,2.0
41.984,1.787,2.828,12.0
23.607,1.011,1.462,30.0
23.602,1.017,1.335,39.0
23.578,1.021,1.204,46.0
23.586,1.028,1.077,46.0
23.579,1.033,0.95,44.0
23.565,1.041,1.612,45.0
23.562,1.047,1.484,62.0
23.56,1.052,1.356,70.0
23.56,1.058,1.227,73.0
23.565,1.065,1.1,72.0
23.57,1.071,0.973,71.0
23.568,1.079,1.635,79.0
23.564,1.085,1.507,74.0
23.556,1.091,1.379,72.0
23.563,1.097,1.25,67.0
23.569,1.103,1.123,58.0
23.581,1.11,0.996,47.0
23.568,1.118,1.658,44.0
23.588,1.125,1.531,41.0
23.595,1.131,1.404,37.0
23.573,1.136,1.272,22.0
23.586,1.142,1.145,11.0
23.606,1.149,1.018,2.0
40.205,1.973,2.866,115.0
0.0,0.0,0.0,0.0
0.0,0.0,0.0,0.0
0.0,0.0,0.0,0.0
0.0,0.0,0.0,0.0
180.204,9.071,7.934,14.0
40.202,2.039,2.9,139.0
0.0,0.0,0.0,0.0
45.564,2.334,2.791,6.0
0.0,0.0,0.0,0.0
0.0,0.0,0.0,0.0
0.0,0.0,0.0,0.0
40.2,2.105,2.934,107.0
0.0,0.0,0.0,0.0
45.548,2.407,2.827,32.0
200.189,10.629,11.315,11.0
200.246,10.684,10.23,6.0
0.0,0.0,0.0,0.0
40.194,2.171,2.965,91.0
0.0,0.0,0.0,0.0
45.545,2.482,2.862,71.0
0.0,0.0,0.0,0.0
0.0,0.0,0.0,0.0
0.0,0.0,0.0,0.0
40.178,2.237,2.994,41.0
0.0,0.0,0.0,0.0
0.0,0.0,0.0,0.0
0.0,0.0,0.0,0.0
0.0,0.0,0.0,0.0
0.0,0.0,0.0,0.0
40.179,2.303,3.023,10.0
40.181,2.312,2.802,87.0
0.0,0.0,0.0,0.0
0.0,0.0,0.0,0.0
0.0,0.0,0.0,0.0
203.653,11.92,9.728,16.0
40.181,2.369,3.049,1.0
40.184,2.379,2.829,90.0
45.489,2.704,2.953,2.0
0.0,0.0,0.0,0.0
0.0,0.0,0.0,0.0
203.35,12.239,9.84,19.0
0.0,0.0,0.0,0.0
40.193,2.446,2.854,108.0
0.0,0.0,0.0,0.0
0.0,0.0,0.0,0.0
112.382,6.921,6.119,1.0
203.909,12.609,9.987,7.0
0.0,0.0,0.0,0.0
40.202,2.513,2.878,113.0
0.0,0.0,0.0,0.0
0.0,0.0,0.0,0.0
0.0,0.0,0.0,0.0
100.72,6.394,4.987,4.0
99.918,6.389,7.759,26.0
40.194,2.579,2.899,114.0
0.0,0.0,0.0,0.0
99.917,6.46,6.096,30.0
99.94,6.484,5.548,32.0
99.969,6.511,5.0,34.0
99.939,6.555,7.81,33.0
40.196,2.646,2.919,109.0
43.728,2.888,2.934,69.0
99.917,6.623,6.144,24.0
99.952,6.649,5.595,34.0
99.958,6.673,5.045,35.0
99.94,6.72,7.856,32.0
40.186,2.711,2.936,84.0
41.999,2.843,2.836,127.0
45.544,3.093,2.82,145.0
99.925,6.81,5.636,25.0
99.957,6.836,5.086,33.0
99.933,6.882,7.896,34.0
40.185,2.776,2.952,83.0
41.989,2.91,2.852,119.0
43.775,3.044,2.727,150.0
45.528,3.176,2.584,82.0
99.976,6.998,5.124,33.0
99.924,7.044,7.932,34.0
40.187,2.841,2.967,106.0
0.0,0.0,0.0,0.0
43.754,3.113,2.741,150.0
45.427,3.242,2.594,95.0
45.459,3.255,2.345,150.0
99.93,7.206,7.965,34.0
40.2,2.907,2.981,96.0
0.0,0.0,0.0,0.0
43.719,3.181,2.752,2.0
0.0,0.0,0.0,0.0
45.457,3.328,2.358,150.0
99.069,7.304,7.925,4.0
40.158,2.969,2.988,78.0
0.0,0.0,0.0,0.0
41.972,3.121,2.652,96.0
43.673,3.257,2.518,121.0
43.68,3.268,2.276,114.0
99.021,7.458,7.945,52.0
40.155,3.032,2.998,61.0
40.157,3.041,2.774,142.0
0.0,0.0,0.0,0.0
43.669,3.326,2.527,150.0
43.671,3.336,2.285,102.0
94.882,7.297,7.632,4.0
40.135,3.095,3.004,44.0
40.155,3.104,2.781,115.0
41.838,3.243,2.661,2.0
41.887,3.256,2.431,110.0
41.886,3.265,2.198,125.0
94.857,7.445,7.644,52.0
40.138,3.158,3.01,44.0
40.168,3.168,2.788,114.0
40.177,3.178,2.56,90.0
41.874,3.321,2.435,103.0
41.88,3.33,2.203,97.0
94.908,7.598,7.66,4.0
40.064,3.215,3.009,54.0
40.085,3.225,2.786,95.0
40.091,3.233,2.559,108.0
40.087,3.241,2.335,122.0
40.087,3.25,2.112,120.0
97.751,7.977,7.896,10.0
40.061,3.277,3.011,45.0
40.087,3.287,2.789,105.0
40.084,3.295,2.56,139.0
40.086,3.303,2.337,123.0
40.074,3.31,2.113,117.0
96.209,7.998,7.775,8.0
40.072,3.339,3.013,45.0
40.09,3.348,2.79,108.0
40.08,3.355,2.56,119.0
40.088,3.363,2.337,120.0
40.084,3.371,2.113,102.0
87.093,7.372,7.037,6.0
40.082,3.4,3.013,10.0
40.066,3.406,2.787,15.0
87.089,7.421,5.562,11.0
87.049,7.434,5.072,16.0
87.088,7.454,4.588,27.0
87.041,7.496,7.029,48.0
87.068,7.515,6.541,50.0
87.058,7.529,6.052,42.0
87.048,7.546,5.554,28.0
87.048,7.562,5.065,20.0
87.089,7.582,4.58,14.0
87.131,7.633,7.029,1.0
87.071,7.643,6.533,1.0
