X,Y,Z,Reflectivity
39.83,-1.856,-0.434,0.0
32.439,-1.523,-0.536,0.0
28.764,-1.362,-0.635,0.0
25.663,-1.225,-0.709,0.0
101.478,-4.862,0.004,1.0
0.0,0.0,0.0,0.0
0.0,0.0,0.0,0.0
32.611,-1.598,-0.543,0.0
29.016,-1.433,-0.644,0.0
25.684,-1.278,-0.712,0.0
0.0,0.0,0.0,0.0
0.0,0.0,0.0,0.0
0.0,0.0,0.0,0.0
0.0,0.0,0.0,0.0
28.933,-1.487,-0.645,0.0
0.0,0.0,0.0,0.0
0.0,0.0,0.0,0.0
0.0,0.0,0.0,0.0
39.91,-2.101,-0.446,0.0
32.147,-1.705,-0.54,0.0
0.0,0.0,0.0,0.0
25.162,-1.353,-0.701,0.0
0.0,0.0,0.0,0.0
0.0,0.0,0.0,0.0
0.0,0.0,0.0,0.0
32.541,-1.79,-0.547,0.0
29.023,-1.608,-0.648,0.0
25.235,-1.407,-0.703,0.0
0.0,0.0,0.0,0.0
0.0,0.0,0.0,0.0
40.097,-2.272,-0.448,0.0
32.676,-1.863,-0.549,0.0
0.0,0.0,0.0,0.0
24.766,-1.431,-0.689,0.0
0.0,0.0,0.0,0.0
0.0,0.0,0.0,0.0
0.0,0.0,0.0,0.0
32.404,-1.911,-0.542,0.0
0.0,0.0,0.0,0.0
25.407,-1.517,-0.705,0.0
0.0,0.0,0.0,0.0
0.0,0.0,0.0,0.0
40.586,-2.459,-0.447,0.0
33.503,-2.042,-0.557,1.0
28.728,-1.761,-0.636,0.0
25.316,-1.562,-0.7,0.0
0.0,0.0,0.0,0.0
0.0,0.0,0.0,0.0
40.112,-2.508,-0.437,0.0
0.0,0.0,0.0,0.0
28.431,-1.798,-0.625,0.0
25.229,-1.605,-0.693,0.0
0.0,0.0,0.0,0.0
0.0,0.0,0.0,0.0
0.0,0.0,0.0,0.0
33.426,-2.166,-0.545,0.0
28.902,-1.884,-0.63,0.0
25.273,-1.657,-0.69,0.0
0.0,0.0,0.0,0.0
0.0,0.0,0.0,0.0
0.0,0.0,0.0,0.0
33.353,-2.226,-0.537,0.0
28.75,-1.929,-0.621,0.0
25.507,-1.721,-0.691,0.0
0.0,0.0,0.0,0.0
0.0,0.0,0.0,0.0
0.0,0.0,0.0,0.0
33.318,-2.287,-0.528,0.0
29.046,-2.004,-0.62,0.0
25.502,-1.769,-0.684,0.0
0.0,0.0,0.0,0.0
0.0,0.0,0.0,0.0
41.623,-2.921,-0.416,0.0
0.0,0.0,0.0,0.0
29.217,-2.07,-0.615,0.0
25.316,-1.803,-0.671,0.0
0.0,0.0,0.0,0.0
0.0,0.0,0.0,0.0
41.906,-3.018,-0.406,0.0
34.758,-2.515,-0.53,0.0
29.625,-2.155,-0.614,0.0
25.887,-1.892,-0.678,0.0
0.0,0.0,0.0,0.0
0.0,0.0,0.0,0.0
41.966,-3.099,-0.392,0.0
0.0,0.0,0.0,0.0
30.047,-2.24,-0.612,0.0
26.796,-2.007,-0.692,0.0
0.0,0.0,0.0,0.0
0.0,0.0,0.0,0.0
0.0,0.0,0.0,0.0
36.32,-2.76,-0.527,0.0
30.192,-2.305,-0.603,0.0
0.0,0.0,0.0,0.0
0.0,0.0,0.0,0.0
0.0,0.0,0.0,0.0
44.996,-3.484,-0.384,0.0
0.0,0.0,0.0,0.0
30.459,-2.38,-0.595,0.0
26.781,-2.102,-0.669,0.0
0.0,0.0,0.0,0.0
0.0,0.0,0.0,0.0
0.0,0.0,0.0,0.0
0.0,0.0,0.0,0.0
30.134,-2.407,-0.575,0.0
27.325,-2.192,-0.67,0.0
100.008,-8.031,0.327,1.0
0.0,0.0,0.0,0.0
0.0,0.0,0.0,0.0
36.446,-2.963,-0.479,0.0
31.717,-2.589,-0.59,0.0
27.701,-2.271,-0.666,0.0
90.39,-7.413,0.34,18.0
0.0,0.0,0.0,0.0
0.0,0.0,0.0,0.0
38.835,-3.223,-0.49,0.0
32.528,-2.71,-0.588,0.0
27.839,-2.329,-0.654,0.0
90.418,-7.569,0.389,25.0
0.0,0.0,0.0,0.0
0.0,0.0,0.0,0.0
0.0,0.0,0.0,0.0
32.824,-2.79,-0.575,0.0
28.351,-2.419,-0.65,0.0
90.42,-7.719,0.441,28.0
0.0,0.0,0.0,0.0
0.0,0.0,0.0,0.0
39.653,-3.423,-0.456,1.0
32.912,-2.852,-0.557,0.0
0.0,0.0,0.0,0.0
90.415,-7.869,0.495,42.0
0.0,0.0,0.0,0.0
0.0,0.0,0.0,0.0
41.232,-3.628,-0.448,0.0
0.0,0.0,0.0,0.0
29.242,-2.592,-0.635,0.0
90.403,-8.014,0.553,35.0
0.0,0.0,0.0,0.0
0.0,0.0,0.0,0.0
41.542,-3.722,-0.425,0.0
0.0,0.0,0.0,0.0
0.0,0.0,0.0,0.0
90.397,-8.159,0.613,34.0
0.0,0.0,0.0,0.0
0.0,0.0,0.0,0.0
0.0,0.0,0.0,0.0
0.0,0.0,0.0,0.0
30.45,-2.795,-0.62,0.0
90.352,-8.296,0.676,17.0
90.378,-8.326,0.187,4.0
0.0,0.0,0.0,0.0
0.0,0.0,0.0,0.0
0.0,0.0,0.0,0.0
30.571,-2.853,-0.601,0.0
90.371,-8.436,0.741,24.0
90.388,-8.464,0.253,12.0
0.0,0.0,0.0,0.0
45.246,-4.264,-0.366,0.0
37.12,-3.509,-0.501,0.0
0.0,0.0,0.0,0.0
90.404,-8.574,0.809,46.0
90.381,-8.598,0.321,140.0
0.0,0.0,0.0,0.0
0.0,0.0,0.0,0.0
37.677,-3.617,-0.479,0.0
31.852,-3.067,-0.577,0.0
90.385,-8.704,0.88,65.0
90.377,-8.729,0.391,32.0
0.0,0.0,0.0,0.0
0.0,0.0,0.0,0.0
0.0,0.0,0.0,0.0
32.493,-3.175,-0.564,0.0
90.342,-8.829,0.951,15.0
90.372,-8.857,0.464,32.0
0.0,0.0,0.0,0.0
0.0,0.0,0.0,0.0
0.0,0.0,0.0,0.0
0.0,0.0,0.0,0.0
90.28,-8.948,1.025,147.0
90.253,-8.969,0.538,50.0
41.043,-4.09,0.023,1.0
0.0,0.0,0.0,0.0
41.628,-4.171,-0.428,0.0
0.0,0.0,0.0,0.0
89.052,-8.947,1.087,13.0
83.379,-8.399,0.569,5.0
0.0,0.0,0.0,0.0
0.0,0.0,0.0,0.0
0.0,0.0,0.0,0.0
36.436,-3.708,-0.539,0.0
87.962,-8.954,1.15,2.0
87.636,-8.943,0.674,2.0
0.0,0.0,0.0,0.0
56.052,-5.748,-0.176,0.0
0.0,0.0,0.0,0.0
37.026,-3.817,-0.515,0.0
83.37,-8.594,1.166,4.0
86.25,-8.912,0.742,40.0
83.925,-8.691,0.271,1.0
0.0,0.0,0.0,0.0
0.0,0.0,0.0,0.0
0.0,0.0,0.0,0.0
83.313,-8.692,1.241,4.0
85.813,-8.973,0.818,3.0
86.184,-9.033,0.358,1.0
0.0,0.0,0.0,0.0
0.0,0.0,0.0,0.0
38.541,-4.068,-0.464,0.0
85.018,-8.974,1.347,3.0
84.686,-8.957,0.887,3.0
84.479,-8.955,0.431,4.0
0.0,0.0,0.0,0.0
0.0,0.0,0.0,0.0
0.0,0.0,0.0,0.0
83.513,-8.913,1.404,6.0
83.358,-8.915,0.954,31.0
83.35,-8.933,0.507,74.0
83.245,-8.942,0.053,3.0
0.0,0.0,0.0,0.0
0.0,0.0,0.0,0.0
83.253,-8.98,1.483,6.0
83.258,-8.999,1.037,31.0
83.171,-9.008,0.59,30.0
83.592,-9.071,0.136,3.0
0.0,0.0,0.0,0.0
0.0,0.0,0.0,0.0
83.39,-9.087,1.569,12.0
83.385,-9.103,1.123,35.0
83.351,-9.117,0.675,34.0
83.776,-9.181,0.221,4.0
0.0,0.0,0.0,0.0
0.0,0.0,0.0,0.0
83.378,-9.174,1.655,18.0
83.381,-9.191,1.208,24.0
83.385,-9.208,0.762,11.0
83.785,-9.269,0.308,12.0
0.0,0.0,0.0,0.0
46.265,-5.138,-0.324,0.0
83.367,-9.258,1.742,30.0
83.386,-9.276,1.296,16.0
83.386,-9.291,0.849,21.0
83.331,-9.302,0.394,10.0
0.0,0.0,0.0,0.0
0.0,0.0,0.0,0.0
83.34,-9.337,1.83,42.0
83.376,-9.355,1.385,19.0
83.391,-9.372,0.939,19.0
83.372,-9.385,0.484,13.0
0.0,0.0,0.0,0.0
0.0,0.0,0.0,0.0
83.307,-9.411,1.919,34.0
83.378,-9.433,1.475,36.0
83.381,-9.447,1.03,32.0
83.378,-9.462,0.574,140.0
77.756,-8.838,0.12,1.0
52.198,-5.943,-0.198,0.0
83.309,-9.485,2.012,30.0
83.392,-9.508,1.567,66.0
83.392,-9.522,1.12,40.0
83.386,-9.535,0.667,34.0
77.705,-8.898,0.205,3.0
0.0,0.0,0.0,0.0
49.652,-5.122,3.663,21.0
107.501,-11.06,7.338,15.0
107.518,-11.033,6.747,13.0
107.767,-11.03,6.159,24.0
108.747,-11.102,5.616,25.0
109.008,-11.1,5.032,18.0
49.876,-5.084,3.705,27.0
107.627,-10.941,7.401,17.0
108.136,-10.963,6.839,12.0
107.923,-10.912,6.221,24.0
108.836,-10.975,5.674,24.0
108.09,-10.871,5.041,8.0
49.984,-5.033,3.737,4.0
107.753,-10.819,7.46,15.0
109.908,-11.005,7.002,8.0
107.989,-10.783,6.274,23.0
108.904,-10.844,5.727,22.0
108.047,-10.73,5.087,12.0
107.157,-10.652,8.058,9.0
107.391,-10.644,7.481,18.0
110.283,-10.899,7.074,10.0
108.195,-10.663,6.33,23.0
108.241,-10.638,5.736,19.0
107.975,-10.582,5.127,26.0
107.179,-10.514,8.103,15.0
107.484,-10.512,7.53,19.0
110.446,-10.77,7.127,3.0
108.645,-10.563,6.399,16.0
108.531,-10.522,5.792,20.0
108.015,-10.443,5.169,20.0
107.123,-10.366,8.138,18.0
107.516,-10.372,7.571,17.0
107.164,-10.306,6.953,15.0
110.509,-10.595,6.548,19.0
108.464,-10.368,5.827,24.0
108.227,-10.314,5.216,21.0
106.07,-10.117,8.094,21.0
107.403,-10.213,7.598,15.0
107.223,-10.163,6.99,23.0
108.773,-10.278,6.479,14.0
108.775,-10.247,5.876,19.0
109.116,-10.248,5.291,25.0
106.113,-9.975,8.128,6.0
107.148,-10.04,7.611,16.0
107.479,-10.038,7.037,19.0
109.196,-10.167,6.533,19.0
108.778,-10.095,5.905,19.0
108.832,-10.07,5.304,18.0
108.416,-10.038,8.332,16.0
106.311,-9.81,7.578,18.0
107.426,-9.881,7.059,18.0
109.339,-10.024,6.567,15.0
108.724,-9.936,5.926,24.0
108.728,-9.904,5.324,10.0
108.687,-9.908,8.376,17.0
106.415,-9.668,7.607,17.0
107.414,-9.726,7.08,17.0
110.023,-9.928,6.629,19.0
108.81,-9.787,5.952,23.0
108.481,-9.725,5.331,21.0
110.181,-9.884,8.51,18.0
106.416,-9.513,7.625,13.0
106.991,-9.53,7.07,25.0
110.136,-9.776,6.653,12.0
108.874,-9.631,5.971,10.0
107.258,-9.457,5.287,19.0
0.0,0.0,0.0,0.0
106.582,-9.369,7.651,10.0
106.932,-9.366,7.079,23.0
107.921,-9.42,6.532,8.0
107.432,-9.345,5.903,19.0
107.206,-9.294,5.294,24.0
111.386,-9.661,8.629,5.0
109.205,-9.437,7.849,15.0
109.237,-9.405,7.241,8.0
105.279,-9.031,6.38,9.0
107.794,-9.215,5.931,20.0
107.127,-9.125,5.297,19.0
0.0,0.0,0.0,0.0
104.369,-8.861,7.506,5.0
104.657,-8.852,6.941,20.0
105.369,-8.88,6.389,17.0
108.724,-9.13,5.985,24.0
107.619,-9.005,5.323,20.0
108.331,-9.067,8.4,16.0
111.426,-9.29,8.015,14.0
104.767,-8.702,6.949,17.0
105.547,-8.733,6.4,20.0
107.073,-8.827,5.893,16.0
107.2,-8.804,5.301,30.0
107.909,-8.864,8.365,14.0
109.597,-8.967,7.88,5.0
104.831,-8.543,6.949,14.0
105.756,-8.586,6.407,21.0
107.092,-8.661,5.889,21.0
107.44,-8.655,5.308,28.0
107.532,-8.664,8.328,15.0
106.621,-8.556,7.658,20.0
104.848,-8.38,6.942,22.0
108.687,-8.653,6.575,8.0
107.416,-8.518,5.896,29.0
108.284,-8.553,5.339,27.0
107.715,-8.507,8.331,12.0
106.19,-8.353,7.615,26.0
106.15,-8.315,7.015,18.0
106.556,-8.313,6.432,12.0
108.294,-8.415,5.93,24.0
108.474,-8.395,5.332,24.0
108.447,-8.391,8.371,10.0
106.554,-8.21,7.625,23.0
105.772,-8.116,6.973,15.0
108.172,-8.265,6.512,18.0
108.35,-8.244,5.914,18.0
108.175,-8.198,5.298,24.0
104.71,-7.934,8.063,26.0
106.761,-8.055,7.619,17.0
105.588,-7.933,6.94,19.0
107.94,-8.076,6.475,27.0
107.877,-8.037,5.866,23.0
107.99,-8.011,5.265,32.0
104.671,-7.763,8.036,20.0
105.173,-7.766,7.48,14.0
113.67,-8.356,7.443,9.0
107.895,-7.898,6.446,23.0
107.473,-7.834,5.816,21.0
107.966,-7.835,5.236,31.0
107.288,-7.782,8.207,22.0
104.854,-7.572,7.428,22.0
110.574,-7.95,7.209,7.0
107.451,-7.69,6.388,11.0
107.475,-7.658,5.784,18.0
107.624,-7.636,5.186,23.0
105.066,-7.449,8.004,22.0
110.425,-7.793,7.788,17.0
107.601,-7.559,6.98,23.0
106.915,-7.476,6.32,22.0
107.243,-7.466,5.734,23.0
107.488,-7.449,5.141,23.0
104.988,-7.269,7.96,25.0
108.998,-7.511,7.647,8.0
107.849,-7.397,6.955,20.0
107.02,-7.307,6.286,31.0
106.939,-7.267,5.677,29.0
107.463,-7.27,5.099,31.0
108.089,-7.306,8.152,15.0
107.007,-7.198,7.463,22.0
107.836,-7.219,6.911,25.0
108.294,-7.216,6.316,19.0
107.012,-7.098,5.636,23.0
107.704,-7.11,5.065,33.0
111.814,-7.372,8.384,11.0
106.993,-7.019,7.415,24.0
107.75,-7.035,6.856,25.0
108.096,-7.024,6.255,26.0
107.357,-6.941,5.604,26.0
107.642,-6.926,5.01,29.0
108.846,-6.995,8.109,16.0
106.866,-6.833,7.354,29.0
107.838,-6.861,6.808,18.0
107.7,-6.818,6.178,24.0
107.362,-6.763,5.55,33.0
107.286,-6.725,4.939,30.0
109.086,-6.828,8.068,19.0
107.048,-6.666,7.309,22.0
108.329,-6.71,6.781,20.0
107.472,-6.624,6.106,20.0
107.42,-6.587,5.493,23.0
107.486,-6.557,4.888,27.0
109.353,-6.66,8.026,12.0
107.531,-6.513,7.279,21.0
108.213,-6.52,6.709,21.0
107.394,-6.437,6.037,35.0
108.042,-6.442,5.461,27.0
107.44,-6.374,4.821,35.0
0.0,0.0,0.0,0.0
108.41,-6.385,7.272,15.0
108.168,-6.338,6.64,24.0
107.647,-6.272,5.984,20.0
107.972,-6.258,5.389,25.0
107.61,-6.205,4.76,27.0
109.247,-6.287,7.879,21.0
107.959,-6.178,7.171,8.0
107.784,-6.135,6.545,19.0
108.067,-6.117,5.935,23.0
108.106,-6.086,5.323,28.0
107.888,-6.041,4.699,28.0
110.719,-6.185,7.908,19.0
107.965,-5.996,7.094,21.0
107.258,-5.924,6.436,20.0
108.022,-5.933,5.856,22.0
108.259,-5.912,5.252,28.0
108.125,-5.871,4.63,24.0
112.889,-6.115,7.979,5.0
108.212,-5.828,7.03,24.0
108.157,-5.791,6.409,19.0
107.924,-5.745,5.768,14.0
108.204,-5.727,5.167,27.0
108.372,-5.704,4.558,14.0
108.369,-5.688,7.575,14.0
108.761,-5.676,6.981,7.0
108.284,-5.618,6.331,26.0
108.433,-5.592,5.71,13.0
108.185,-5.548,5.08,20.0
117.279,-5.979,4.839,10.0
108.348,-5.506,7.485,14.0
108.847,-5.499,6.896,20.0
108.48,-5.448,6.253,20.0
108.537,-5.417,5.625,25.0
116.845,-5.796,5.388,17.0
116.577,-5.75,4.712,20.0
115.053,-5.656,7.849,21.0
112.754,-5.507,7.046,26.0
112.593,-5.466,6.391,12.0
108.966,-5.257,5.552,23.0
116.506,-5.587,5.27,11.0
117.463,-5.598,4.642,19.0
115.025,-5.463,7.744,18.0
113.186,-5.341,6.97,16.0
112.714,-5.284,6.295,18.0
114.227,-5.321,5.714,12.0
114.466,-5.298,5.071,13.0
117.397,-5.401,4.531,27.0
116.184,-5.325,7.711,21.0
115.963,-5.279,7.03,9.0
113.075,-5.115,6.208,15.0
114.303,-5.135,5.608,19.0
115.992,-5.178,5.027,14.0
117.456,-5.211,4.42,22.0
116.599,-5.152,7.625,24.0
115.027,-5.049,6.862,23.0
115.388,-5.032,6.221,20.0
114.224,-4.947,5.492,18.0
116.391,-5.009,4.93,26.0
117.432,-5.019,4.302,26.0
114.831,-4.887,7.392,24.0
114.679,-4.846,6.722,23.0
114.593,-4.809,6.06,22.0
114.371,-4.768,5.381,18.0
116.589,-4.826,4.816,26.0
117.03,-4.812,4.165,23.0
114.843,-4.7,7.271,23.0
114.385,-4.647,6.584,27.0
114.529,-4.621,5.934,20.0
115.403,-4.623,5.305,22.0
117.065,-4.656,4.71,28.0
116.93,-4.617,4.033,24.0
115.116,-4.523,7.16,19.0
114.501,-4.466,6.463,23.0
115.205,-4.462,5.841,21.0
115.385,-4.436,5.175,19.0
117.338,-4.478,4.588,24.0
138.462,-5.246,4.621,25.0
114.772,-4.325,7.008,25.0
114.497,-4.282,6.331,22.0
115.581,-4.289,5.726,19.0
117.293,-4.321,5.125,23.0
123.849,-4.528,4.7,19.0
138.417,-5.022,4.457,24.0
114.746,-4.139,6.87,20.0
114.445,-4.097,6.192,28.0
115.79,-4.112,5.599,22.0
117.691,-4.146,5.0,23.0
117.705,-4.115,4.324,18.0
140.731,-4.883,4.362,6.0
114.58,-3.951,6.721,25.0
114.495,-3.917,6.055,24.0
115.877,-3.933,5.461,15.0
116.757,-3.932,4.819,24.0
117.732,-3.933,4.181,16.0
140.305,-4.65,4.176,21.0
115.594,-3.807,6.637,23.0
115.739,-3.778,5.976,19.0
117.317,-3.799,5.381,16.0
116.71,-3.748,4.669,11.0
139.61,-4.447,4.782,19.0
140.286,-4.432,3.998,18.0
115.698,-3.63,6.492,30.0
117.268,-3.647,5.904,10.0
117.104,-3.61,5.219,8.0
119.072,-3.639,4.608,21.0
142.791,-4.328,4.703,5.0
163.216,-4.904,4.437,17.0
115.011,-3.431,6.301,22.0
117.482,-3.473,5.757,24.0
117.239,-3.436,5.07,16.0
118.876,-3.454,4.443,26.0
142.974,-4.117,4.518,7.0
163.43,-4.666,4.225,8.0
141.066,-3.995,7.538,14.0
117.562,-3.298,5.601,25.0
117.647,-3.271,4.926,20.0
140.055,-3.858,5.042,18.0
140.798,-3.844,4.257,15.0
0.0,0.0,0.0,0.0
124.446,-3.337,6.475,11.0
124.626,-3.311,5.765,10.0
139.956,-3.683,5.665,22.0
140.276,-3.656,4.853,8.0
163.334,-4.218,4.709,15.0
171.494,-4.385,3.955,4.0
141.744,-3.591,7.173,2.0
139.086,-3.492,6.236,9.0
143.343,-3.562,5.597,10.0
162.543,-3.999,5.39,13.0
163.293,-3.976,4.471,23.0
0.0,0.0,0.0,0.0
140.934,-3.366,6.927,10.0
143.839,-3.401,6.238,3.0
140.311,-3.284,5.274,26.0
162.581,-3.765,5.153,31.0
163.441,-3.745,4.235,10.0
170.361,-3.864,3.433,6.0
192.44,-4.32,9.172,21.0
190.392,-4.229,7.972,19.0
140.531,-3.088,5.071,17.0
163.268,-3.549,4.931,10.0
0.0,0.0,0.0,0.0
170.279,-3.622,3.175,11.0
191.775,-4.036,8.85,19.0
190.337,-3.96,7.68,23.0
190.415,-3.918,6.582,21.0
163.303,-3.322,4.682,34.0
171.556,-3.449,3.926,4.0
170.268,-3.385,2.914,6.0
191.497,-3.764,8.541,21.0
190.475,-3.699,7.389,22.0
162.608,-3.12,5.365,28.0
163.322,-3.097,4.428,34.0
170.273,-3.191,3.631,6.0
163.574,-3.03,2.543,14.0
191.931,-3.511,8.256,17.0
191.073,-3.451,7.11,17.0
162.619,-2.901,5.109,20.0
163.296,-2.876,4.168,6.0
170.24,-2.961,3.36,6.0
163.292,-2.804,2.277,32.0
192.7,-3.266,7.979,8.0
191.279,-3.199,6.809,9.0
163.315,-2.694,4.866,6.0
171.386,-2.789,4.094,4.0
173.519,-2.785,3.139,13.0
163.104,-2.584,2.008,22.0
191.767,-2.994,7.621,25.0
162.611,-2.503,5.517,25.0
163.278,-2.477,4.592,42.0
0.0,0.0,0.0,0.0
19.763,-0.291,0.324,1.0
19.746,-0.287,0.209,24.0
192.082,-2.748,7.308,17.0
162.593,-2.291,5.241,72.0
163.422,-2.269,4.321,20.0
19.771,-0.27,0.406,3.0
19.746,-0.265,0.291,10.0
19.751,-0.261,0.176,28.0
185.898,-2.423,6.756,18.0
163.167,-2.093,4.983,20.0
19.766,-0.249,0.488,6.0
19.743,-0.245,0.371,10.0
19.739,-0.241,0.257,8.0
19.771,-0.237,0.142,2.0
185.875,-2.191,6.432,11.0
19.774,-0.229,0.569,7.0
19.748,-0.224,0.453,10.0
19.736,-0.22,0.337,8.0
19.731,-0.216,0.222,0.0
160.83,-1.735,0.879,3.0
19.778,-0.209,0.649,6.0
19.752,-0.205,0.534,13.0
19.747,-0.201,0.419,8.0
19.743,-0.197,0.302,0.0
164.019,-1.606,1.56,6.0
0.0,0.0,0.0,0.0
19.75,-0.185,0.613,9.0
19.754,-0.181,0.498,7.0
19.77,-0.178,0.384,1.0
169.423,-1.493,2.292,19.0
160.724,-1.386,1.241,14.0
0.0,0.0,0.0,0.0
19.761,-0.162,0.578,6.0
19.767,-0.159,0.463,2.0
177.23,-1.394,3.126,16.0
169.631,-1.303,1.989,6.0
160.671,-1.204,0.949,8.0
19.753,-0.144,0.002,8.0
19.756,-0.14,0.542,2.0
19.695,-0.136,0.425,2.0
19.73,-0.133,0.312,1.0
19.723,-0.129,0.195,8.0
19.743,-0.126,0.08,9.0
19.731,-0.122,-0.034,11.0
19.668,-0.118,0.503,10.0
19.681,-0.115,0.389,8.0
19.693,-0.111,0.274,7.0
19.709,-0.108,0.158,13.0
19.717,-0.104,0.043,13.0
19.721,-0.101,-0.07,11.0
19.652,-0.097,0.466,10.0
19.668,-0.094,0.352,9.0
19.683,-0.09,0.237,12.0
19.699,-0.087,0.121,14.0
19.703,-0.084,0.006,15.0
19.719,-0.081,-0.107,16.0
19.637,-0.077,0.429,11.0
19.65,-0.073,0.314,10.0
19.677,-0.07,0.2,14.0
19.695,-0.067,0.084,15.0
19.713,-0.064,-0.03,16.0
19.732,-0.061,-0.145,15.0
19.633,-0.057,0.391,10.0
19.645,-0.054,0.277,10.0
19.691,-0.051,0.163,12.0
19.69,-0.048,0.046,16.0
19.733,-0.045,-0.067,11.0
19.754,-0.042,-0.183,13.0
19.626,-0.038,0.353,12.0
19.64,-0.035,0.239,14.0
19.686,-0.032,0.125,10.0
19.708,-0.029,0.009,14.0
19.743,-0.026,-0.106,10.0
19.746,-0.023,-0.221,0.0
19.634,-0.02,0.315,15.0
19.645,-0.017,0.201,13.0
19.722,-0.014,0.087,5.0
19.732,-0.011,-0.029,11.0
19.798,-0.009,-0.144,0.0
0.0,0.0,0.0,0.0
19.63,-0.002,0.277,15.0
19.787,0.0,0.164,2.0
19.787,0.002,0.049,3.0
19.742,0.005,-0.067,2.0
19.781,0.008,-0.183,1.0
19.768,0.011,-0.298,2.0
19.637,0.013,0.239,17.0
19.764,0.016,0.125,8.0
19.736,0.019,0.01,17.0
19.746,0.022,-0.106,14.0
19.747,0.024,-0.221,12.0
19.766,0.027,-0.337,11.0
19.689,0.029,0.2,14.0
19.764,0.032,0.086,16.0
19.747,0.035,-0.028,47.0
19.747,0.037,-0.145,16.0
19.765,0.04,-0.261,13.0
19.767,0.043,-0.376,40.0
19.734,0.045,0.162,17.0
19.765,0.048,0.047,23.0
19.753,0.05,-0.068,46.0
19.765,0.053,-0.185,39.0
19.773,0.055,-0.3,36.0
19.778,0.058,-0.416,45.0
19.716,0.06,0.122,18.0
19.757,0.062,0.007,57.0
19.772,0.065,-0.107,32.0
19.765,0.067,-0.224,22.0
19.769,0.07,-0.34,17.0
19.779,0.072,-0.456,14.0
19.701,0.074,0.082,18.0
19.753,0.077,-0.032,13.0
19.76,0.079,-0.147,7.0
19.774,0.081,-0.264,2.0
19.764,0.084,-0.38,1.0
19.731,0.086,-0.494,0.0
19.68,0.087,0.042,9.0
19.732,0.09,-0.072,1.0
19.755,0.092,-0.187,0.0
34.275,0.164,-0.529,0.0
28.743,0.141,-0.611,0.0
24.943,0.125,-0.676,0.0
19.658,0.1,0.002,10.0
19.722,0.103,-0.112,1.0
0.0,0.0,0.0,0.0
31.572,0.171,-0.551,0.0
27.179,0.15,-0.634,0.0
23.983,0.135,-0.699,0.0
19.664,0.112,-0.037,10.0
19.67,0.114,-0.152,1.0
0.0,0.0,0.0,0.0
29.793,0.179,-0.582,0.0
26.031,0.159,-0.66,0.0
22.684,0.141,-0.708,0.0
19.669,0.123,-0.078,10.0
19.68,0.125,-0.193,0.0
0.0,0.0,0.0,0.0
28.481,0.187,-0.615,0.0
25.194,0.168,-0.691,0.0
21.837,0.148,-0.727,0.0
19.674,0.134,-0.119,10.0
19.763,0.137,-0.235,0.0
30.775,0.216,-0.545,0.0
26.978,0.191,-0.638,0.0
23.592,0.17,-0.696,0.0
20.948,0.152,-0.74,0.0
19.674,0.144,-0.159,11.0
19.722,0.146,-0.275,1.0
19.733,0.148,-0.39,0.0
25.788,0.195,-0.663,0.0
22.567,0.173,-0.712,0.0
19.819,0.154,-0.741,1.0
19.672,0.153,-0.2,10.0
19.704,0.155,-0.315,2.0
19.694,0.156,-0.43,3.0
19.685,0.158,-0.547,0.0
19.808,0.16,-0.666,0.0
19.571,0.16,-0.773,1.0
19.67,0.161,-0.241,10.0
19.671,0.163,-0.356,10.0
19.682,0.164,-0.471,6.0
19.708,0.166,-0.589,2.0
19.742,0.168,-0.705,1.0
18.898,0.162,-0.786,0.0
19.667,0.169,-0.282,11.0
19.677,0.17,-0.397,15.0
19.674,0.172,-0.512,9.0
19.695,0.173,-0.629,6.0
19.672,0.174,-0.744,3.0
18.116,0.162,-0.791,0.0
19.665,0.176,-0.322,15.0
19.673,0.177,-0.437,15.0
19.674,0.178,-0.553,10.0
19.686,0.18,-0.67,8.0
19.494,0.179,-0.778,1.0
17.419,0.161,-0.797,0.0
19.669,0.182,-0.364,17.0
19.666,0.183,-0.479,14.0
19.683,0.184,-0.594,11.0
19.679,0.185,-0.711,6.0
18.751,0.178,-0.787,0.0
16.909,0.161,-0.809,0.0
19.687,0.187,-0.405,21.0
19.672,0.188,-0.52,14.0
19.676,0.189,-0.635,12.0
19.646,0.19,-0.751,3.0
18.045,0.176,-0.795,0.0
16.207,0.159,-0.809,0.0
19.684,0.192,-0.446,20.0
19.674,0.193,-0.56,15.0
19.68,0.194,-0.676,12.0
19.358,0.192,-0.78,1.0
17.351,0.173,-0.8,0.0
15.762,0.157,-0.819,0.0
19.664,0.195,-0.486,17.0
19.676,0.196,-0.601,16.0
19.674,0.197,-0.716,6.0
18.589,0.187,-0.787,0.0
16.809,0.17,-0.81,0.0
15.322,0.156,-0.828,0.0
19.671,0.199,-0.527,17.0
19.672,0.199,-0.642,16.0
19.606,0.199,-0.754,2.0
17.953,0.183,-0.797,0.0
15.943,0.163,-0.801,0.0
14.915,0.153,-0.837,0.0
19.683,0.201,-0.567,17.0
19.676,0.202,-0.682,14.0
19.298,0.198,-0.782,0.0
17.281,0.178,-0.803,0.0
15.662,0.162,-0.82,0.0
14.481,0.15,-0.843,0.0
19.684,0.203,-0.608,18.0
19.666,0.203,-0.722,7.0
18.489,0.191,-0.787,0.0
16.595,0.172,-0.805,0.0
15.273,0.159,-0.83,0.0
14.015,0.146,-0.844,0.0
19.68,0.203,-0.648,17.0
19.57,0.203,-0.758,2.0
17.734,0.184,-0.791,0.0
15.871,0.165,-0.802,0.0
14.821,0.154,-0.836,0.0
13.666,0.143,-0.851,0.0
19.681,0.203,-0.688,13.0
19.161,0.198,-0.781,0.0
17.207,0.178,-0.802,0.0
15.631,0.162,-0.822,0.0
14.393,0.15,-0.841,0.0
13.302,0.139,-0.855,0.0
19.665,0.203,-0.727,7.0
18.373,0.189,-0.786,0.0
16.634,0.172,-0.809,0.0
15.206,0.157,-0.83,0.0
13.976,0.145,-0.845,0.0
12.981,0.134,-0.861,1.0
19.554,0.2,-0.762,2.0
17.672,0.181,-0.792,0.0
15.868,0.162,-0.804,0.0
14.753,0.151,-0.835,0.0
13.607,0.139,-0.85,0.0
12.699,0.13,-0.867,0.0
19.048,0.193,-0.78,0.0
17.115,0.173,-0.801,0.0
15.556,0.157,-0.819,0.0
14.34,0.145,-0.84,0.0
13.277,0.134,-0.855,0.0
12.382,0.125,-0.87,0.0
18.221,0.182,-0.782,0.0
16.579,0.165,-0.808,0.0
15.211,0.152,-0.83,0.0
13.916,0.139,-0.843,0.0
12.964,0.129,-0.861,1.0
12.121,0.12,-0.876,0.0
17.611,0.172,-0.791,0.0
15.877,0.155,-0.805,0.0
14.728,0.144,-0.833,0.0
13.587,0.132,-0.85,0.0
12.667,0.123,-0.866,0.0
11.865,0.115,-0.881,0.0
17.109,0.164,-0.801,0.0
15.478,0.148,-0.815,0.0
14.332,0.137,-0.839,0.0
13.26,0.126,-0.855,0.0
12.394,0.118,-0.872,0.0
11.597,0.11,-0.884,0.0
16.556,0.154,-0.807,0.0
15.215,0.141,-0.831,0.0
13.94,0.129,-0.842,0.0
12.965,0.12,-0.861,0.0
12.091,0.111,-0.874,0.0
11.393,0.105,-0.89,0.0
15.833,0.143,-0.802,0.0
14.741,0.132,-0.833,0.0
13.609,0.122,-0.849,0.0
12.663,0.113,-0.865,0.0
11.84,0.105,-0.878,1.0
11.141,0.099,-0.892,0.0
15.523,0.135,-0.816,0.0
14.381,0.124,-0.84,0.0
13.283,0.115,-0.854,0.0
12.387,0.106,-0.87,0.0
11.637,0.1,-0.885,0.0
10.925,0.093,-0.895,0.0
15.235,0.127,-0.83,0.0
13.977,0.116,-0.843,0.0
12.983,0.107,-0.858,0.0
12.122,0.1,-0.874,0.0
11.401,0.093,-0.889,0.0
10.713,0.087,-0.898,0.0
14.728,0.117,-0.829,0.0
13.619,0.107,-0.846,0.0
12.701,0.1,-0.863,0.0
11.873,0.093,-0.878,0.0
11.154,0.087,-0.89,0.0
10.522,0.081,-0.901,0.0
14.428,0.108,-0.839,0.0
13.303,0.099,-0.851,0.0
12.415,0.092,-0.867,0.0
11.671,0.086,-0.884,0.0
10.958,0.08,-0.894,0.0
10.305,0.075,-0.901,0.0
14.018,0.099,-0.84,0.0
13.022,0.091,-0.857,0.0
12.178,0.084,-0.872,0.0
11.438,0.079,-0.887,0.0
10.74,0.073,-0.896,0.0
10.145,0.069,-0.906,0.0
13.69,0.089,-0.845,0.0
12.758,0.083,-0.862,0.0
11.95,0.077,-0.877,0.0
11.211,0.071,-0.89,0.0
10.553,0.066,-0.899,0.0
9.966,0.062,-0.908,0.0
13.376,0.08,-0.85,0.0
12.48,0.074,-0.865,0.0
11.73,0.069,-0.882,0.0
11.01,0.064,-0.893,0.0
10.361,0.059,-0.901,0.0
9.831,0.056,-0.913,0.0
13.093,0.071,-0.854,0.0
12.253,0.066,-0.871,0.0
11.518,0.061,-0.886,0.0
10.832,0.057,-0.897,0.0
10.207,0.053,-0.905,0.0
9.608,0.049,-0.909,0.0
12.83,0.062,-0.859,0.0
12.017,0.057,-0.874,0.0
11.286,0.053,-0.887,0.0
10.621,0.049,-0.898,0.0
10.036,0.046,-0.907,0.0
9.497,0.042,-0.914,0.0
12.583,0.053,-0.864,0.0
11.796,0.049,-0.878,0.0
11.087,0.045,-0.89,0.0
10.447,0.042,-0.901,0.0
9.864,0.038,-0.908,0.0
9.374,0.036,-0.918,0.0
12.367,0.044,-0.869,0.0
11.586,0.04,-0.882,0.0
10.898,0.037,-0.893,0.0
10.257,0.034,-0.901,0.0
9.709,0.031,-0.91,0.0
9.216,0.029,-0.918,0.0
12.139,0.035,-0.873,0.0
11.399,0.032,-0.886,0.0
10.714,0.029,-0.895,0.0
10.119,0.026,-0.906,0.0
9.54,0.024,-0.91,0.0
9.093,0.022,-0.92,0.0
11.905,0.026,-0.875,0.0
11.214,0.023,-0.889,0.0
10.551,0.021,-0.898,0.0
9.957,0.019,-0.907,0.0
9.453,0.017,-0.916,0.0
8.988,0.015,-0.924,0.0
11.742,0.017,-0.881,0.0
11.001,0.014,-0.89,0.0
10.381,0.013,-0.9,0.0
9.842,0.011,-0.912,0.0
9.285,0.009,-0.915,0.0
8.814,0.008,-0.92,0.0
11.534,0.007,-0.884,0.0
10.86,0.006,-0.895,0.0
10.233,0.004,-0.903,0.0
9.651,0.003,-0.909,0.0
9.173,0.002,-0.917,0.0
8.726,0.001,-0.924,0.0
11.33,-0.001,-0.885,0.0
10.656,-0.002,-0.894,0.0
10.076,-0.003,-0.904,0.0
9.541,-0.004,-0.913,0.0
9.063,-0.004,-0.92,0.0
8.541,-0.005,-0.917,0.0
11.177,-0.01,-0.889,0.0
10.503,-0.011,-0.897,0.0
9.936,-0.011,-0.906,0.0
9.413,-0.012,-0.914,0.0
8.986,-0.012,-0.925,0.0
8.515,-0.012,-0.927,0.0
10.998,-0.019,-0.891,0.0
10.379,-0.019,-0.901,0.0
9.822,-0.019,-0.91,0.0
9.243,-0.019,-0.911,0.0
8.819,-0.02,-0.921,0.0
8.411,-0.02,-0.927,0.0
10.836,-0.029,-0.893,0.0
10.23,-0.028,-0.902,0.0
9.66,-0.028,-0.908,0.0
9.174,-0.027,-0.917,0.0
8.732,-0.027,-0.924,0.0
8.323,-0.027,-0.929,0.0
10.692,-0.038,-0.896,0.0
10.093,-0.037,-0.904,0.0
9.611,-0.036,-0.917,0.0
9.08,-0.035,-0.92,0.0
8.659,-0.035,-0.928,0.0
8.21,-0.034,-0.928,0.0
10.548,-0.047,-0.898,0.0
9.97,-0.046,-0.906,0.0
9.408,-0.044,-0.91,0.0
8.972,-0.043,-0.921,0.0
8.558,-0.043,-0.928,0.0
8.163,-0.042,-0.933,0.0
10.421,-0.056,-0.9,0.0
9.862,-0.055,-0.909,0.0
9.337,-0.053,-0.915,0.0
8.85,-0.051,-0.919,0.0
8.471,-0.05,-0.93,0.0
8.085,-0.049,-0.934,0.0
10.277,-0.065,-0.901,0.0
9.728,-0.063,-0.909,0.0
9.224,-0.061,-0.915,0.0
8.79,-0.06,-0.924,0.0
8.365,-0.058,-0.928,0.0
8.016,-0.057,-0.936,0.0
10.184,-0.075,-0.905,0.0
9.645,-0.072,-0.913,0.0
9.134,-0.07,-0.918,0.0
8.666,-0.068,-0.922,0.0
8.289,-0.066,-0.93,0.0
7.936,-0.064,-0.937,0.0
10.051,-0.084,-0.905,0.0
9.538,-0.081,-0.914,0.0
9.015,-0.078,-0.916,0.0
8.615,-0.076,-0.926,0.0
8.221,-0.074,-0.932,0.0
7.865,-0.072,-0.937,0.0
9.937,-0.093,-0.906,0.0
9.453,-0.09,-0.916,0.0
8.912,-0.086,-0.916,0.0
8.534,-0.084,-0.927,0.0
8.162,-0.082,-0.934,0.0
7.782,-0.079,-0.936,0.0
9.825,-0.103,-0.907,0.0
9.321,-0.099,-0.914,0.0
8.83,-0.095,-0.917,0.0
8.439,-0.092,-0.926,0.0
8.097,-0.09,-0.935,0.0
7.719,-0.087,-0.937,0.0
9.737,-0.112,-0.909,0.0
9.228,-0.108,-0.914,0.0
8.776,-0.104,-0.92,0.0
8.389,-0.101,-0.929,0.0
8.015,-0.097,-0.934,0.0
7.685,-0.095,-0.941,0.0
9.672,-0.122,-0.912,0.0
9.124,-0.116,-0.913,0.0
8.697,-0.112,-0.921,0.0
8.312,-0.109,-0.929,0.0
7.974,-0.106,-0.938,0.0
7.621,-0.102,-0.94,0.0
9.568,-0.131,-0.912,0.0
9.073,-0.126,-0.917,0.0
8.642,-0.121,-0.923,0.0
8.234,-0.117,-0.928,0.0
7.903,-0.113,-0.937,0.0
7.57,-0.11,-0.941,0.0
9.497,-0.14,-0.914,0.0
9.024,-0.135,-0.92,0.0
8.581,-0.13,-0.925,0.0
8.17,-0.125,-0.928,0.0
7.826,-0.121,-0.935,0.0
7.528,-0.118,-0.943,0.0
9.419,-0.15,-0.915,0.0
8.933,-0.144,-0.919,0.0
8.501,-0.138,-0.924,0.0
8.136,-0.134,-0.932,0.0
7.8,-0.13,-0.938,0.0
7.483,-0.126,-0.944,0.0
9.328,-0.159,-0.914,0.0
8.873,-0.153,-0.92,0.0
8.467,-0.147,-0.927,0.0
8.11,-0.143,-0.936,0.0
7.739,-0.138,-0.937,0.0
7.406,-0.133,-0.94,0.0
9.273,-0.169,-0.916,0.0
8.836,-0.162,-0.924,0.0
8.409,-0.156,-0.927,0.0
8.029,-0.15,-0.932,0.0
7.702,-0.146,-0.939,0.0
7.404,-0.142,-0.946,0.0
9.216,-0.178,-0.917,0.0
8.745,-0.171,-0.921,0.0
8.372,-0.165,-0.929,0.0
7.985,-0.159,-0.933,0.0
7.648,-0.154,-0.938,0.0
7.356,-0.149,-0.945,0.0
9.133,-0.187,-0.915,0.0
8.701,-0.18,-0.922,0.0
8.348,-0.174,-0.933,0.0
7.941,-0.167,-0.934,0.0
7.625,-0.162,-0.94,0.0
7.311,-0.157,-0.944,0.0
9.095,-0.197,-0.918,0.0
8.598,-0.188,-0.917,0.0
8.268,-0.182,-0.929,0.0
7.92,-0.176,-0.936,0.0
7.606,-0.171,-0.943,0.0
7.28,-0.165,-0.945,0.0
9.058,-0.207,-0.92,0.0
8.595,-0.198,-0.922,0.0
8.221,-0.191,-0.929,0.0
7.866,-0.184,-0.935,0.0
7.563,-0.179,-0.942,0.0
7.255,-0.173,-0.946,0.0
9.026,-0.217,-0.922,0.0
8.559,-0.208,-0.923,0.0
8.192,-0.2,-0.93,0.0
7.855,-0.194,-0.938,0.0
7.545,-0.188,-0.944,0.0
7.231,-0.181,-0.947,0.0
8.969,-0.226,-0.921,0.0
8.522,-0.217,-0.923,0.0
8.174,-0.21,-0.932,0.0
7.793,-0.202,-0.935,0.0
7.523,-0.196,-0.945,0.0
7.202,-0.189,-0.946,0.0
8.913,-0.236,-0.919,0.0
8.495,-0.226,-0.925,0.0
8.126,-0.218,-0.931,0.0
7.783,-0.211,-0.937,0.0
7.497,-0.204,-0.946,0.0
7.217,-0.198,-0.952,0.0
8.881,-0.245,-0.92,0.0
8.455,-0.235,-0.924,0.0
8.112,-0.228,-0.933,0.0
7.752,-0.219,-0.937,0.0
7.459,-0.212,-0.944,0.0
7.177,-0.206,-0.949,0.0
8.876,-0.256,-0.923,0.0
8.448,-0.245,-0.927,0.0
8.094,-0.237,-0.934,0.0
7.727,-0.228,-0.937,0.0
7.436,-0.221,-0.944,0.0
7.163,-0.214,-0.95,0.0
8.864,-0.266,-0.925,0.0
8.442,-0.255,-0.929,0.0
8.044,-0.245,-0.931,0.0
7.723,-0.237,-0.939,0.0
7.427,-0.23,-0.945,0.0
7.128,-0.222,-0.948,0.0
8.84,-0.276,-0.925,0.0
8.423,-0.265,-0.929,0.0
8.049,-0.255,-0.934,0.0
7.698,-0.246,-0.938,0.0
7.423,-0.238,-0.947,0.0
7.133,-0.231,-0.95,0.0
8.813,-0.286,-0.925,0.0
8.384,-0.274,-0.927,0.0
8.01,-0.263,-0.931,0.0
7.688,-0.254,-0.938,0.0
7.414,-0.247,-0.947,0.0
7.151,-0.24,-0.954,0.0
8.805,-0.296,-0.926,0.0
8.394,-0.284,-0.93,0.0
8.032,-0.274,-0.935,0.0
7.675,-0.263,-0.938,0.0
7.41,-0.256,-0.948,0.0
7.056,-0.245,-0.943,0.0
8.794,-0.306,-0.926,0.0
8.337,-0.292,-0.925,0.0
8.033,-0.283,-0.937,0.0
7.685,-0.273,-0.941,0.0
7.361,-0.263,-0.943,0.0
7.073,-0.254,-0.946,0.0
8.75,-0.315,-0.922,0.0
8.345,-0.302,-0.927,0.0
8.002,-0.292,-0.934,0.0
7.659,-0.281,-0.938,0.0
7.385,-0.272,-0.947,0.0
7.11,-0.264,-0.952,0.0
8.754,-0.326,-0.923,0.0
8.362,-0.313,-0.929,0.0
7.989,-0.301,-0.933,0.0
7.679,-0.291,-0.941,0.0
7.386,-0.281,-0.947,0.0
7.095,-0.272,-0.95,0.0
8.755,-0.336,-0.924,0.0
8.346,-0.322,-0.928,0.0
7.992,-0.31,-0.933,0.0
7.668,-0.299,-0.94,0.0
7.394,-0.29,-0.948,0.0
7.122,-0.281,-0.954,0.0
8.755,-0.346,-0.924,0.0
8.355,-0.332,-0.929,0.0
8.01,-0.32,-0.935,0.0
7.685,-0.309,-0.942,0.0
7.359,-0.298,-0.943,0.0
7.117,-0.289,-0.953,0.0
8.75,-0.356,-0.923,0.0
8.358,-0.342,-0.928,0.0
8.012,-0.33,-0.935,0.0
7.707,-0.319,-0.944,0.0
7.387,-0.307,-0.946,0.0
7.08,-0.296,-0.947,0.0
8.759,-0.367,-0.923,0.0
8.36,-0.352,-0.928,0.0
8.028,-0.34,-0.936,0.0
7.683,-0.327,-0.94,0.0
7.396,-0.316,-0.946,0.0
7.117,-0.306,-0.951,0.0
8.772,-0.377,-0.923,0.0
8.383,-0.362,-0.929,0.0
8.06,-0.35,-0.938,0.0
7.706,-0.336,-0.941,0.0
7.396,-0.325,-0.945,0.0
7.115,-0.314,-0.949,0.0
8.782,-0.388,-0.922,0.0
8.408,-0.373,-0.93,0.0
8.063,-0.359,-0.937,0.0
7.682,-0.344,-0.937,0.0
7.407,-0.333,-0.945,0.0
7.115,-0.322,-0.948,0.0
8.796,-0.398,-0.922,0.0
8.477,-0.385,-0.936,0.0
8.051,-0.368,-0.934,0.0
7.728,-0.355,-0.94,0.0
7.435,-0.343,-0.946,0.0
7.159,-0.332,-0.951,0.0
8.813,-0.408,-0.921,0.0
8.481,-0.395,-0.933,0.0
8.079,-0.378,-0.934,0.0
7.724,-0.363,-0.937,0.0
7.445,-0.352,-0.945,0.0
7.185,-0.341,-0.953,0.0
8.858,-0.42,-0.923,0.0
8.492,-0.405,-0.932,0.0
8.101,-0.388,-0.934,0.0
7.766,-0.373,-0.94,0.0
7.47,-0.361,-0.946,0.0
7.173,-0.348,-0.948,0.0
8.886,-0.431,-0.922,0.0
8.506,-0.414,-0.93,0.0
8.13,-0.398,-0.934,0.0
7.802,-0.383,-0.941,0.0
7.496,-0.37,-0.946,0.0
7.213,-0.358,-0.951,0.0
8.936,-0.443,-0.924,0.0
8.537,-0.425,-0.93,0.0
8.162,-0.408,-0.935,0.0
7.818,-0.393,-0.939,0.0
7.537,-0.38,-0.948,0.0
7.237,-0.367,-0.95,0.0
8.969,-0.454,-0.923,0.0
8.575,-0.436,-0.93,0.0
8.197,-0.418,-0.935,0.0
7.836,-0.401,-0.938,0.0
7.558,-0.389,-0.947,0.0
7.267,-0.375,-0.951,0.0
9.02,-0.466,-0.924,0.0
8.631,-0.447,-0.932,0.0
8.213,-0.427,-0.932,0.0
7.905,-0.413,-0.942,0.0
7.617,-0.4,-0.95,0.0
7.294,-0.384,-0.95,0.0
9.078,-0.478,-0.925,0.0
8.638,-0.456,-0.928,0.0
8.269,-0.439,-0.934,0.0
7.896,-0.42,-0.936,0.0
7.625,-0.408,-0.947,0.0
7.318,-0.393,-0.949,0.0
9.129,-0.489,-0.925,0.0
8.679,-0.467,-0.927,0.0
8.32,-0.449,-0.935,0.0
7.969,-0.432,-0.94,0.0
7.655,-0.417,-0.946,0.0
7.355,-0.402,-0.949,0.0
9.177,-0.501,-0.924,0.0
8.775,-0.481,-0.932,0.0
8.367,-0.46,-0.935,0.0
7.994,-0.441,-0.938,0.0
7.692,-0.426,-0.945,0.0
7.383,-0.41,-0.948,0.0
9.228,-0.512,-0.923,0.0
8.794,-0.49,-0.928,0.0
8.397,-0.469,-0.932,0.0
8.054,-0.452,-0.939,0.0
7.726,-0.435,-0.944,0.0
7.409,-0.419,-0.946,0.0
9.286,-0.524,-0.922,0.0
8.847,-0.501,-0.927,0.0
8.456,-0.48,-0.933,0.0
8.088,-0.461,-0.938,0.0
7.75,-0.443,-0.941,0.0
7.499,-0.43,-0.952,0.0
9.363,-0.536,-0.923,0.0
8.916,-0.513,-0.928,0.0
8.506,-0.491,-0.932,0.0
8.152,-0.472,-0.939,0.0
7.817,-0.454,-0.943,0.0
7.549,-0.44,-0.952,0.0
9.419,-0.548,-0.921,0.0
8.968,-0.523,-0.926,0.0
8.56,-0.501,-0.931,0.0
8.191,-0.481,-0.937,0.0
7.876,-0.464,-0.944,0.0
7.588,-0.448,-0.951,0.0
9.48,-0.559,-0.92,0.0
9.044,-0.535,-0.927,0.0
8.611,-0.511,-0.929,0.0
8.271,-0.492,-0.939,0.0
7.896,-0.472,-0.94,0.0
7.62,-0.456,-0.949,0.0
9.541,-0.57,-0.917,0.0
9.111,-0.546,-0.926,0.0
8.665,-0.521,-0.928,0.0
8.306,-0.501,-0.936,0.0
7.981,-0.483,-0.943,0.0
7.653,-0.465,-0.946,0.0
9.652,-0.584,-0.919,0.0
9.207,-0.559,-0.927,0.0
8.786,-0.535,-0.933,0.0
8.381,-0.512,-0.936,0.0
8.034,-0.492,-0.942,0.0
7.683,-0.472,-0.943,0.0
9.769,-0.599,-0.921,0.0
9.282,-0.571,-0.926,0.0
8.794,-0.542,-0.925,0.0
8.444,-0.522,-0.935,0.0
8.083,-0.501,-0.939,0.0
7.764,-0.483,-0.945,0.0
9.827,-0.61,-0.917,0.0
9.361,-0.582,-0.925,0.0
8.934,-0.557,-0.931,0.0
8.529,-0.533,-0.936,0.0
8.185,-0.513,-0.943,0.0
7.793,-0.49,-0.94,0.0
9.914,-0.622,-0.916,0.0
9.444,-0.594,-0.923,0.0
8.985,-0.566,-0.927,0.0
8.587,-0.543,-0.934,0.0
8.217,-0.521,-0.938,0.0
7.888,-0.501,-0.944,0.0
9.982,-0.633,-0.912,0.0
9.48,-0.602,-0.917,0.0
9.062,-0.577,-0.926,0.0
8.674,-0.554,-0.934,0.0
8.301,-0.531,-0.939,0.0
7.956,-0.511,-0.943,0.0
10.077,-0.645,-0.91,0.0
9.641,-0.619,-0.922,0.0
9.165,-0.589,-0.926,0.0
8.723,-0.562,-0.93,0.0
8.39,-0.542,-0.94,0.0
8.004,-0.518,-0.94,0.0
10.211,-0.66,-0.91,0.0
9.718,-0.629,-0.919,0.0
9.259,-0.601,-0.925,0.0
8.852,-0.576,-0.933,0.0
8.456,-0.551,-0.937,0.0
8.093,-0.529,-0.941,0.0
10.346,-0.674,-0.911,0.0
9.87,-0.645,-0.922,0.0
9.342,-0.611,-0.923,0.0
8.928,-0.586,-0.931,0.0
8.529,-0.561,-0.936,0.0
8.193,-0.54,-0.943,0.0
10.486,-0.689,-0.911,0.0
9.938,-0.654,-0.917,0.0
9.45,-0.623,-0.923,0.0
9.011,-0.596,-0.929,0.0
8.643,-0.572,-0.938,0.0
8.224,-0.546,-0.937,0.0
10.662,-0.706,-0.914,0.0
10.051,-0.666,-0.915,0.0
9.567,-0.636,-0.922,0.0
9.118,-0.607,-0.929,0.0
8.71,-0.581,-0.935,0.0
8.315,-0.556,-0.937,0.0
10.703,-0.713,-0.904,0.0
10.144,-0.677,-0.911,0.0
9.711,-0.65,-0.924,0.0
9.259,-0.62,-0.932,0.0
8.806,-0.591,-0.934,0.0
8.409,-0.566,-0.937,0.0
10.831,-0.726,-0.901,0.0
10.283,-0.691,-0.911,0.0
9.792,-0.659,-0.92,0.0
9.342,-0.63,-0.928,0.0
8.898,-0.601,-0.932,0.0
8.511,-0.576,-0.937,0.0
11.02,-0.743,-0.903,0.0
10.466,-0.707,-0.913,0.0
9.936,-0.672,-0.92,0.0
9.424,-0.639,-0.924,0.0
9.021,-0.612,-0.933,0.0
8.603,-0.585,-0.936,0.0
11.177,-0.758,-0.901,0.0
10.633,-0.722,-0.914,0.0
10.044,-0.683,-0.917,0.0
9.518,-0.648,-0.921,0.0
9.115,-0.622,-0.931,0.0
8.684,-0.593,-0.933,0.0
11.291,-0.769,-0.895,0.0
10.654,-0.727,-0.902,0.0
10.162,-0.694,-0.914,0.0
9.707,-0.664,-0.926,0.0
9.252,-0.634,-0.932,0.0
8.793,-0.603,-0.933,0.0
11.44,-0.782,-0.892,0.0
10.927,-0.748,-0.91,0.0
10.218,-0.7,-0.905,0.0
9.801,-0.673,-0.922,0.0
9.346,-0.642,-0.929,0.0
8.878,-0.611,-0.93,0.0
11.711,-0.804,-0.897,0.0
11.09,-0.762,-0.908,0.0
10.373,-0.713,-0.905,0.0
9.916,-0.683,-0.919,0.0
9.453,-0.652,-0.926,0.0
9.036,-0.624,-0.934,0.0
11.888,-0.818,-0.894,0.0
11.197,-0.771,-0.901,0.0
10.548,-0.727,-0.905,0.0
10.076,-0.695,-0.919,0.0
9.592,-0.663,-0.926,0.0
9.161,-0.634,-0.934,0.0
12.052,-0.831,-0.889,0.0
11.348,-0.783,-0.897,0.0
10.737,-0.742,-0.906,0.0
10.161,-0.703,-0.912,0.0
9.704,-0.672,-0.923,0.0
9.301,-0.644,-0.934,0.0
12.229,-0.845,-0.884,0.0
11.553,-0.799,-0.897,0.0
10.974,-0.759,-0.91,0.0
10.343,-0.716,-0.914,0.0
9.843,-0.682,-0.922,0.0
9.389,-0.651,-0.929,0.0
12.437,-0.86,-0.881,0.0
11.779,-0.815,-0.897,0.0
11.133,-0.771,-0.907,0.0
10.429,-0.723,-0.906,0.0
10.014,-0.694,-0.923,0.0
9.506,-0.66,-0.927,0.0
12.656,-0.876,-0.878,0.0
11.984,-0.829,-0.895,0.0
11.262,-0.78,-0.901,0.0
10.766,-0.746,-0.919,0.0
10.162,-0.705,-0.922,0.0
9.65,-0.669,-0.926,0.0
12.893,-0.892,-0.875,0.0
12.121,-0.839,-0.887,0.0
11.475,-0.794,-0.9,0.0
10.789,-0.747,-0.905,0.0
10.237,-0.709,-0.913,0.0
9.79,-0.679,-0.925,0.0
13.088,-0.905,-0.869,0.0
12.336,-0.853,-0.884,0.0
11.695,-0.809,-0.9,0.0
11.026,-0.763,-0.908,0.0
10.51,-0.727,-0.921,0.0
9.921,-0.687,-0.922,0.0
13.454,-0.929,-0.873,0.0
12.533,-0.865,-0.879,0.0
11.906,-0.822,-0.898,0.0
11.198,-0.774,-0.905,0.0
10.619,-0.734,-0.914,0.0
10.065,-0.696,-0.92,0.0
13.713,-0.945,-0.868,0.0
12.869,-0.887,-0.883,0.0
12.059,-0.831,-0.891,0.0
11.367,-0.783,-0.901,0.0
10.825,-0.746,-0.915,0.0
10.168,-0.701,-0.913,0.0
13.991,-0.962,-0.864,0.0
13.005,-0.894,-0.872,0.0
12.303,-0.845,-0.889,0.0
11.539,-0.793,-0.896,0.0
11.034,-0.758,-0.915,0.0
10.405,-0.715,-0.918,0.0
14.295,-0.98,-0.861,0.0
13.344,-0.914,-0.874,0.0
12.476,-0.854,-0.882,0.0
11.836,-0.81,-0.901,0.0
11.127,-0.762,-0.905,0.0
10.564,-0.723,-0.915,0.0
14.623,-0.998,-0.857,0.0
13.697,-0.935,-0.875,0.0
12.732,-0.869,-0.88,0.0
11.991,-0.818,-0.893,0.0
11.301,-0.77,-0.901,0.0
10.657,-0.726,-0.906,0.0
14.916,-1.014,-0.851,0.0
13.91,-0.945,-0.866,0.0
12.919,-0.877,-0.873,0.0
12.23,-0.83,-0.891,0.0
11.522,-0.782,-0.901,0.0
10.868,-0.737,-0.907,0.0
15.329,-1.037,-0.85,0.0
14.201,-0.96,-0.862,0.0
13.241,-0.894,-0.873,0.0
12.419,-0.838,-0.886,0.0
11.764,-0.794,-0.901,0.0
11.132,-0.751,-0.911,0.0
15.671,-1.054,-0.844,0.0
14.529,-0.976,-0.859,0.0
13.574,-0.911,-0.873,0.0
12.638,-0.848,-0.881,0.0
11.961,-0.802,-0.897,0.0
11.237,-0.753,-0.901,0.0
16.154,-1.079,-0.844,0.0
14.861,-0.992,-0.854,0.0
13.831,-0.922,-0.867,0.0
12.819,-0.854,-0.873,0.0
12.23,-0.814,-0.897,0.0
11.458,-0.762,-0.9,0.0
16.479,-1.093,-0.834,0.0
15.271,-1.012,-0.853,0.0
14.195,-0.94,-0.867,0.0
13.14,-0.869,-0.873,0.0
12.396,-0.819,-0.889,0.0
11.758,-0.776,-0.905,0.0
17.034,-1.121,-0.835,0.0
15.617,-1.027,-0.847,0.0
14.488,-0.951,-0.862,0.0
13.453,-0.882,-0.872,0.0
12.608,-0.826,-0.883,0.0
11.907,-0.779,-0.897,0.0
17.367,-1.133,-0.823,0.0
16.081,-1.048,-0.846,0.0
14.74,-0.96,-0.853,0.0
13.712,-0.892,-0.867,0.0
12.816,-0.832,-0.877,0.0
12.124,-0.786,-0.894,0.0
17.953,-1.161,-0.822,0.0
16.466,-1.063,-0.84,0.0
15.226,-0.982,-0.856,0.0
14.089,-0.907,-0.868,0.0
12.984,-0.835,-0.868,0.0
12.373,-0.795,-0.892,0.0
18.393,-1.178,-0.812,0.0
16.786,-1.073,-0.829,0.0
15.586,-0.995,-0.851,0.0
14.438,-0.92,-0.866,0.0
13.402,-0.853,-0.874,0.0
12.578,-0.799,-0.886,0.0
19.01,-1.204,-0.809,0.0
17.265,-1.092,-0.825,0.0
15.97,-1.008,-0.846,0.0
14.719,-0.928,-0.859,0.0
13.701,-0.862,-0.871,0.0
12.858,-0.808,-0.885,0.0
19.492,-1.221,-0.798,0.0
17.768,-1.111,-0.82,0.0
16.432,-1.025,-0.844,0.0
15.122,-0.942,-0.857,0.0
13.993,-0.87,-0.867,0.0
13.082,-0.812,-0.879,0.0
20.015,-1.238,-0.787,0.0
18.282,-1.129,-0.814,0.0
16.847,-1.038,-0.838,0.0
15.451,-0.95,-0.851,0.0
14.322,-0.879,-0.864,0.0
13.255,-0.812,-0.869,0.0
20.598,-1.258,-0.776,0.0
18.929,-1.153,-0.812,0.0
17.247,-1.048,-0.83,0.0
15.769,-0.957,-0.843,0.0
14.655,-0.887,-0.86,0.0
13.534,-0.817,-0.865,0.0
21.05,-1.268,-0.759,0.0
19.374,-1.164,-0.8,0.0
17.704,-1.061,-0.824,0.0
16.228,-0.97,-0.841,0.0
15.063,-0.898,-0.86,0.0
13.888,-0.826,-0.865,0.0
21.868,-1.297,-0.754,0.0
19.958,-1.181,-0.792,0.0
18.178,-1.073,-0.816,0.0
16.794,-0.989,-0.843,0.0
15.393,-0.904,-0.854,0.0
14.348,-0.84,-0.871,0.0
22.521,-1.315,-0.74,0.0
20.503,-1.194,-0.781,0.0
18.715,-1.087,-0.81,0.0
17.122,-0.992,-0.833,0.0
15.753,-0.91,-0.849,0.0
14.615,-0.842,-0.864,0.0
0.0,0.0,0.0,0.0
20.975,-1.201,-0.765,0.0
19.272,-1.1,-0.804,0.0
17.592,-1.001,-0.828,0.0
16.122,-0.915,-0.843,0.0
14.971,-0.847,-0.861,0.0
24.214,-1.366,-0.719,0.0
21.658,-1.218,-0.756,0.0
19.837,-1.112,-0.796,0.0
17.927,-1.002,-0.815,0.0
16.6,-0.925,-0.842,0.0
15.336,-0.852,-0.858,0.0
24.859,-1.377,-0.699,0.0
22.348,-1.233,-0.745,0.0
20.422,-1.124,-0.788,0.0
18.564,-1.018,-0.815,0.0
17.097,-0.934,-0.84,0.0
15.624,-0.851,-0.85,0.0
0.0,0.0,0.0,0.0
23.124,-1.251,-0.735,0.0
20.776,-1.12,-0.769,0.0
19.036,-1.023,-0.806,0.0
17.459,-0.935,-0.831,0.0
16.02,-0.855,-0.846,0.0
27.17,-1.445,-0.679,0.0
23.924,-1.267,-0.723,0.0
21.291,-1.124,-0.755,0.0
19.661,-1.034,-0.802,0.0
17.856,-0.935,-0.822,0.0
16.429,-0.857,-0.842,0.0
0.0,0.0,0.0,0.0
24.849,-1.287,-0.713,0.0
21.883,-1.129,-0.742,0.0
20.054,-1.031,-0.787,0.0
18.371,-0.94,-0.817,0.0
16.825,-0.858,-0.837,0.0
29.095,-1.478,-0.638,0.0
25.866,-1.309,-0.702,0.0
22.949,-1.156,-0.743,0.0
20.602,-1.034,-0.777,0.0
18.828,-0.941,-0.809,0.0
17.3,-0.861,-0.834,0.0
30.193,-1.497,-0.617,0.0
26.819,-1.324,-0.688,0.0
23.716,-1.165,-0.732,0.0
21.149,-1.035,-0.766,0.0
19.452,-0.947,-0.807,0.0
17.644,-0.855,-0.824,0.0
31.639,-1.528,-0.599,1.0
27.515,-1.323,-0.665,0.0
24.147,-1.155,-0.71,0.0
21.647,-1.031,-0.752,0.0
19.911,-0.944,-0.796,0.0
18.063,-0.852,-0.817,0.0
32.384,-1.522,-0.565,0.0
29.141,-1.363,-0.661,0.0
25.138,-1.169,-0.702,0.0
22.409,-1.037,-0.745,0.0
20.401,-0.94,-0.786,0.0
18.623,-0.853,-0.815,0.0
34.794,-1.589,-0.556,0.0
29.625,-1.345,-0.629,0.0
26.27,-1.186,-0.695,0.0
23.092,-1.038,-0.734,0.0
20.861,-0.932,-0.773,0.0
19.04,-0.846,-0.806,0.0
0.0,0.0,0.0,0.0
30.217,-1.33,-0.598,0.0
27.153,-1.189,-0.679,0.0
23.893,-1.04,-0.726,0.0
21.26,-0.92,-0.757,0.0
19.553,-0.841,-0.799,0.0
37.844,-1.621,-0.495,0.0
32.268,-1.374,-0.592,0.0
28.168,-1.193,-0.664,0.0
24.992,-1.052,-0.723,0.0
22.01,-0.921,-0.752,0.0
19.999,-0.831,-0.789,0.0
0.0,0.0,0.0,0.0
0.0,0.0,0.0,0.0
29.395,-1.201,-0.652,0.0
25.483,-1.035,-0.701,0.0
22.781,-0.919,-0.747,0.0
20.441,-0.819,-0.777,0.0
0.0,0.0,0.0,0.0
35.149,-1.393,-0.546,0.0
29.897,-1.177,-0.621,0.0
26.407,-1.032,-0.69,0.0
23.423,-0.909,-0.735,0.0
20.997,-0.81,-0.77,0.0
0.0,0.0,0.0,0.0
0.0,0.0,0.0,0.0
0.0,0.0,0.0,0.0
0.0,0.0,0.0,0.0
24.113,-0.899,-0.724,0.0
21.501,-0.796,-0.759,0.0
0.0,0.0,0.0,0.0
0.0,0.0,0.0,0.0
32.146,-1.165,-0.581,0.0
28.373,-1.021,-0.665,0.0
24.914,-0.89,-0.715,0.0
22.17,-0.786,-0.753,0.0
0.0,0.0,0.0,0.0
0.0,0.0,0.0,0.0
33.961,-1.177,-0.569,0.0
28.858,-0.992,-0.638,0.0
25.681,-0.876,-0.703,0.0
22.615,-0.765,-0.739,0.0
0.0,0.0,0.0,0.0
0.0,0.0,0.0,0.0
0.0,0.0,0.0,0.0
30.24,-0.99,-0.63,0.0
26.311,-0.854,-0.687,0.0
23.52,-0.757,-0.738,0.0
0.0,0.0,0.0,0.0
0.0,0.0,0.0,0.0
35.78,-1.123,-0.507,0.0
0.0,0.0,0.0,0.0
0.0,0.0,0.0,0.0
24.054,-0.734,-0.724,0.0
0.0,0.0,0.0,0.0
0.0,0.0,0.0,0.0
0.0,0.0,0.0,0.0
0.0,0.0,0.0,0.0
0.0,0.0,0.0,0.0
24.813,-0.714,-0.716,0.0
0.0,0.0,0.0,0.0
0.0,0.0,0.0,0.0
0.0,0.0,0.0,0.0
32.726,-0.906,-0.559,0.0
28.824,-0.789,-0.645,0.0
25.384,-0.687,-0.703,0.0
0.0,0.0,0.0,0.0
0.0,0.0,0.0,0.0
0.0,0.0,0.0,0.0
0.0,0.0,0.0,0.0
29.232,-0.749,-0.62,0.0
26.082,-0.661,-0.692,0.0
0.0,0.0,0.0,0.0
0.0,0.0,0.0,0.0
0.0,0.0,0.0,0.0
0.0,0.0,0.0,0.0
30.648,-0.732,-0.615,0.0
21.713,-0.512,-0.551,2.0
0.0,0.0,0.0,0.0
0.0,0.0,0.0,0.0
0.0,0.0,0.0,0.0
0.0,0.0,0.0,0.0
31.323,-0.692,-0.593,0.0
21.718,-0.473,-0.527,20.0
0.0,0.0,0.0,0.0
0.0,0.0,0.0,0.0
0.0,0.0,0.0,0.0
0.0,0.0,0.0,0.0
32.495,-0.659,-0.58,0.0
21.76,-0.434,-0.504,0.0
0.0,0.0,0.0,0.0
0.0,0.0,0.0,0.0
0.0,0.0,0.0,0.0
0.0,0.0,0.0,0.0
33.449,-0.616,-0.561,0.0
0.0,0.0,0.0,0.0
160.712,-2.869,0.903,11.0
0.0,0.0,0.0,0.0
0.0,0.0,0.0,0.0
42.545,-0.718,-0.444,0.0
34.141,-0.566,-0.538,0.0
29.839,-0.485,-0.629,0.0
19.761,-0.316,0.131,8.0
0.0,0.0,0.0,0.0
0.0,0.0,0.0,0.0
0.0,0.0,0.0,0.0
36.302,-0.534,-0.536,0.0
30.35,-0.436,-0.61,0.0
19.748,-0.278,0.15,32.0
19.743,-0.272,0.045,0.0
0.0,0.0,0.0,0.0
0.0,0.0,0.0,0.0
0.0,0.0,0.0,0.0
0.0,0.0,0.0,0.0
19.756,-0.24,0.169,15.0
0.0,0.0,0.0,0.0
0.0,0.0,0.0,0.0
0.0,0.0,0.0,0.0
0.0,0.0,0.0,0.0
19.824,-0.209,-0.36,0.0
164.047,-1.684,1.561,15.0
0.0,0.0,0.0,0.0
0.0,0.0,0.0,0.0
19.777,-0.183,-0.13,5.0
19.757,-0.176,-0.236,13.0
19.755,-0.17,-0.342,14.0
165.386,-1.372,1.723,6.0
160.814,-1.281,0.815,4.0
19.76,-0.15,-0.005,2.0
19.729,-0.144,-0.113,13.0
19.729,-0.137,-0.218,16.0
19.746,-0.131,-0.324,16.0
19.734,-0.125,0.222,7.0
19.74,-0.118,0.116,9.0
19.717,-0.112,0.01,10.0
19.708,-0.105,-0.096,13.0
19.72,-0.099,-0.202,16.0
19.758,-0.092,-0.308,15.0
19.675,-0.086,0.237,12.0
19.699,-0.08,0.132,15.0
19.698,-0.073,0.026,16.0
19.717,-0.067,-0.08,13.0
19.731,-0.06,-0.186,15.0
19.76,-0.053,-0.293,11.0
19.638,-0.046,0.253,11.0
19.681,-0.04,0.148,10.0
19.703,-0.033,0.042,15.0
19.72,-0.026,-0.065,11.0
19.763,-0.02,-0.171,3.0
0.0,0.0,0.0,0.0
19.633,-0.007,0.268,14.0
19.731,0.0,0.163,5.0
19.773,0.006,0.057,3.0
19.74,0.012,-0.05,62.0
19.774,0.019,-0.157,6.0
19.757,0.026,-0.263,9.0
19.617,0.032,0.282,13.0
19.696,0.039,0.177,12.0
19.756,0.046,0.071,27.0
19.743,0.053,-0.036,54.0
19.764,0.059,-0.143,57.0
19.768,0.066,-0.249,28.0
19.618,0.072,0.295,16.0
19.648,0.079,0.19,11.0
19.682,0.086,0.084,13.0
19.679,0.093,-0.023,7.0
19.713,0.099,-0.13,0.0
0.0,0.0,0.0,0.0
19.615,0.112,0.308,14.0
19.666,0.119,0.203,17.0
19.639,0.126,0.096,14.0
19.631,0.132,-0.011,15.0
19.648,0.139,-0.117,13.0
19.671,0.146,-0.223,7.0
19.643,0.153,0.321,11.0
19.658,0.16,0.215,14.0
19.654,0.167,0.108,11.0
19.628,0.173,0.0,15.0
19.632,0.18,-0.105,16.0
19.643,0.186,-0.211,16.0
19.719,0.195,0.333,9.0
19.73,0.201,0.227,15.0
19.745,0.208,0.12,16.0
19.659,0.214,0.011,10.0
19.632,0.22,-0.094,16.0
19.645,0.227,-0.201,18.0
19.722,0.235,0.344,12.0
19.733,0.242,0.237,17.0
19.772,0.249,0.131,19.0
0.0,0.0,0.0,0.0
19.687,0.262,-0.084,11.0
19.668,0.268,-0.191,14.0
19.71,0.276,0.354,14.0
19.749,0.284,0.247,6.0
160.764,2.366,1.145,9.0
0.0,0.0,0.0,0.0
52.424,0.807,-0.2,1.0
37.534,0.59,-0.347,0.0
55.206,0.891,1.018,17.0
55.187,0.91,0.718,46.0
55.166,0.928,0.418,61.0
55.143,0.946,0.113,112.0
52.352,0.916,-0.177,2.0
39.401,0.703,-0.347,1.0
55.179,1.007,1.042,47.0
55.199,1.026,0.742,37.0
55.202,1.045,0.441,10.0
55.201,1.063,0.136,0.0
49.143,0.963,-0.146,1.0
38.695,0.771,-0.325,1.0
179.311,3.652,3.457,28.0
163.092,3.376,2.256,15.0
122.332,2.573,1.025,6.0
81.336,1.738,0.23,1.0
50.589,1.098,-0.131,0.0
38.844,0.855,-0.313,2.0
179.179,4.023,3.518,29.0
128.647,2.929,1.824,26.0
70.853,1.637,0.618,8.0
70.968,1.663,0.225,5.0
0.0,0.0,0.0,0.0
40.32,0.971,-0.312,6.0
129.175,3.167,2.576,6.0
45.503,1.131,0.659,1.0
70.82,1.783,0.639,29.0
0.0,0.0,0.0,0.0
40.184,1.038,-0.08,157.0
39.999,1.047,-0.298,27.0
0.0,0.0,0.0,0.0
0.0,0.0,0.0,0.0
41.935,1.143,0.389,157.0
0.0,0.0,0.0,0.0
40.129,1.121,-0.07,150.0
40.008,1.13,-0.288,23.0
40.124,1.151,0.821,150.0
40.121,1.164,0.601,150.0
40.128,1.177,0.381,124.0
40.122,1.19,0.158,129.0
40.126,1.203,-0.061,150.0
39.982,1.213,-0.28,27.0
40.129,1.235,0.829,150.0
40.123,1.248,0.609,150.0
40.125,1.262,0.389,116.0
40.12,1.275,0.165,150.0
40.128,1.288,-0.054,150.0
40.033,1.298,-0.273,34.0
40.118,1.32,0.836,17.0
70.977,2.358,1.09,9.0
71.071,2.384,0.701,9.0
64.013,2.168,0.273,10.0
40.129,1.372,-0.048,150.0
39.998,1.381,-0.268,28.0
162.292,5.68,3.403,26.0
162.181,5.729,2.51,47.0
71.22,2.539,0.711,19.0
45.112,1.623,0.198,150.0
43.001,1.56,-0.047,2.0
39.99,1.464,-0.264,2.0
43.081,1.597,0.907,70.0
42.449,1.587,0.66,141.0
41.894,1.58,0.421,91.0
41.936,1.595,0.186,101.0
40.343,1.547,-0.042,151.0
40.305,1.559,-0.264,40.0
40.39,1.582,0.853,108.0
40.39,1.595,0.63,150.0
40.388,1.608,0.408,154.0
40.373,1.62,0.181,41.0
40.335,1.631,-0.041,150.0
40.282,1.642,-0.263,27.0
162.286,6.695,3.429,8.0
23.63,0.982,0.369,0.0
23.624,0.989,0.238,13.0
23.634,0.997,0.105,35.0
23.63,1.004,-0.024,45.0
23.627,1.012,-0.154,46.0
23.607,1.023,0.498,45.0
23.604,1.03,0.367,42.0
23.594,1.037,0.237,58.0
23.589,1.044,0.104,66.0
23.607,1.052,-0.025,71.0
23.603,1.059,-0.156,68.0
23.588,1.07,0.496,74.0
23.594,1.078,0.366,70.0
23.589,1.085,0.235,66.0
23.587,1.092,0.102,62.0
23.602,1.1,-0.027,51.0
23.612,1.108,-0.158,46.0
23.612,1.12,0.494,40.0
23.632,1.128,0.364,39.0
23.622,1.135,0.233,25.0
45.173,2.184,0.191,5.0
45.196,2.2,-0.058,5.0
40.155,1.966,-0.274,15.0
45.249,2.239,0.941,0.0
45.218,2.251,0.69,2.0
45.223,2.265,0.439,12.0
45.195,2.277,0.184,68.0
45.223,2.292,-0.065,3.0
40.071,2.043,-0.28,15.0
0.0,0.0,0.0,0.0
131.332,6.802,1.982,2.0
99.753,5.197,0.952,9.0
45.168,2.366,0.175,22.0
40.329,2.125,-0.066,30.0
39.99,2.119,-0.288,25.0
45.19,2.417,0.923,3.0
99.711,5.363,1.483,11.0
99.17,5.364,0.924,2.0
45.177,2.456,0.165,30.0
40.317,2.204,-0.076,36.0
0.0,0.0,0.0,0.0
45.218,2.509,0.912,10.0
45.212,2.522,0.661,93.0
45.208,2.535,0.409,48.0
45.171,2.546,0.153,43.0
40.331,2.284,-0.087,42.0
38.724,2.205,-0.299,10.0
167.895,9.646,3.34,5.0
99.754,5.759,1.43,9.0
99.436,5.77,0.871,8.0
45.165,2.634,0.139,38.0
40.322,2.363,-0.099,41.0
0.0,0.0,0.0,0.0
111.983,6.654,2.192,35.0
99.804,5.959,1.398,9.0
80.546,4.831,0.679,1.0
45.168,2.722,0.124,48.0
40.326,2.442,-0.113,48.0
36.562,2.224,-0.306,4.0
45.19,2.772,0.868,4.0
45.203,2.786,0.617,52.0
45.214,2.799,0.364,97.0
45.178,2.809,0.107,47.0
40.317,2.518,-0.128,45.0
36.165,2.269,-0.317,12.0
112.418,7.113,2.117,6.0
100.275,6.371,1.329,11.0
100.725,6.427,0.773,7.0
45.18,2.895,0.089,150.0
40.319,2.595,-0.145,44.0
35.614,2.302,-0.327,11.0
45.218,2.947,0.833,129.0
45.215,2.959,0.579,123.0
45.195,2.969,0.327,122.0
44.103,2.909,0.068,11.0
40.326,2.671,-0.163,39.0
0.0,0.0,0.0,0.0
43.783,2.934,0.786,84.0
43.676,2.939,0.54,62.0
41.882,2.83,0.283,3.0
42.214,2.863,0.045,20.0
40.319,2.745,-0.182,48.0
34.176,2.337,-0.346,11.0
41.371,2.85,0.722,5.0
41.74,2.886,0.495,150.0
42.326,2.938,0.264,113.0
41.615,2.899,0.023,8.0
40.316,2.82,-0.203,57.0
32.532,2.284,-0.346,5.0
41.46,2.932,0.702,80.0
41.364,2.936,0.468,150.0
41.215,2.936,0.235,113.0
40.345,2.884,0.0,10.0
40.246,2.888,-0.225,60.0
32.321,2.328,-0.362,10.0
40.371,2.928,0.661,77.0
40.374,2.938,0.435,75.0
40.386,2.949,0.208,80.0
40.317,2.955,-0.022,44.0
40.075,2.947,-0.247,22.0
31.692,2.339,-0.373,9.0
43.702,3.248,0.69,150.0
43.711,3.259,0.444,134.0
43.703,3.269,0.199,150.0
41.96,3.15,-0.048,120.0
0.0,0.0,0.0,0.0
31.188,2.357,-0.387,9.0
43.701,3.325,0.662,130.0
43.701,3.335,0.417,129.0
0.0,0.0,0.0,0.0
41.912,3.219,-0.075,146.0
37.18,2.865,-0.276,3.0
