X,Y,Z,Reflectivity
94.132,-11.26,4.513,8.0
151.49,-18.117,6.45,5.0
148.301,-17.731,5.505,22.0
148.369,-17.736,4.715,20.0
116.306,-13.9,3.074,33.0
0.0,0.0,0.0,0.0
94.138,-11.258,4.622,15.0
94.613,-11.31,4.14,4.0
148.308,-17.723,5.68,23.0
148.382,-17.727,4.887,19.0
116.309,-13.892,3.209,37.0
0.0,0.0,0.0,0.0
94.257,-11.264,4.739,14.0
94.457,-11.283,4.241,7.0
148.287,-17.705,5.851,19.0
148.35,-17.706,5.057,22.0
116.275,-13.873,3.342,28.0
0.0,0.0,0.0,0.0
94.43,-11.272,4.857,14.0
94.444,-11.268,4.35,4.0
148.19,-17.672,6.017,13.0
148.366,-17.684,5.229,21.0
116.253,-13.851,3.475,11.0
0.0,0.0,0.0,0.0
94.429,-11.255,4.965,12.0
94.294,-11.232,4.451,5.0
151.479,-18.034,6.322,3.0
148.586,-17.681,5.403,18.0
148.409,-17.65,4.603,20.0
49.681,-5.915,2.935,1.0
94.451,-11.237,5.073,4.0
94.284,-11.209,4.557,17.0
0.0,0.0,0.0,0.0
148.78,-17.666,5.579,18.0
148.476,-17.619,4.772,20.0
49.438,-5.873,2.976,10.0
0.0,0.0,0.0,0.0
94.273,-11.183,4.66,15.0
0.0,0.0,0.0,0.0
148.598,-17.602,5.733,23.0
148.566,-17.586,4.935,17.0
49.397,-5.854,3.027,20.0
0.0,0.0,0.0,0.0
94.268,-11.152,4.762,5.0
0.0,0.0,0.0,0.0
148.433,-17.533,5.886,25.0
148.45,-17.522,5.09,20.0
49.363,-5.833,3.079,31.0
0.0,0.0,0.0,0.0
0.0,0.0,0.0,0.0
94.256,-11.107,4.346,3.0
148.46,-17.479,6.048,12.0
148.409,-17.458,5.249,21.0
49.546,-5.835,3.144,24.0
0.0,0.0,0.0,0.0
0.0,0.0,0.0,0.0
94.24,-11.065,4.446,8.0
148.492,-17.42,6.206,4.0
148.53,-17.408,5.41,27.0
49.574,-5.817,3.198,24.0
107.93,-12.651,6.38,10.0
0.0,0.0,0.0,0.0
94.263,-11.025,4.546,12.0
0.0,0.0,0.0,0.0
148.447,-17.327,5.56,21.0
49.426,-5.776,3.24,24.0
49.563,-5.785,2.98,5.0
0.0,0.0,0.0,0.0
94.268,-10.978,4.642,5.0
0.0,0.0,0.0,0.0
148.258,-17.229,5.701,27.0
49.544,-5.765,3.297,24.0
49.542,-5.757,3.029,7.0
0.0,0.0,0.0,0.0
108.13,-12.534,5.433,7.0
0.0,0.0,0.0,0.0
148.225,-17.143,5.847,24.0
49.614,-5.745,3.351,25.0
107.784,-12.464,6.698,23.0
0.0,0.0,0.0,0.0
108.147,-12.473,5.539,22.0
111.256,-12.815,5.098,1.0
148.301,-17.061,5.995,14.0
49.637,-5.718,3.402,25.0
107.781,-12.398,6.803,15.0
107.427,-12.339,6.199,5.0
108.174,-12.407,5.646,14.0
111.121,-12.729,5.198,14.0
0.0,0.0,0.0,0.0
49.042,-5.618,3.408,23.0
49.376,-5.647,3.163,23.0
107.599,-12.288,6.311,11.0
0.0,0.0,0.0,0.0
110.85,-12.622,5.29,8.0
0.0,0.0,0.0,0.0
48.748,-5.55,3.433,32.0
49.119,-5.584,3.192,23.0
107.439,-12.195,6.399,11.0
0.0,0.0,0.0,0.0
109.01,-12.335,5.3,22.0
0.0,0.0,0.0,0.0
48.718,-5.512,3.474,41.0
49.1,-5.546,3.235,13.0
49.171,-5.545,2.972,18.0
49.274,-5.547,2.706,1.0
108.67,-12.215,5.378,20.0
110.891,-12.445,4.888,13.0
48.804,-5.484,3.524,33.0
50.124,-5.623,3.346,23.0
49.186,-5.508,3.016,19.0
49.306,-5.512,2.75,16.0
108.182,-12.074,5.447,19.0
110.657,-12.33,4.971,18.0
49.116,-5.48,3.588,31.0
48.898,-5.446,3.305,9.0
49.161,-5.465,3.055,13.0
49.285,-5.469,2.79,32.0
108.026,-11.967,5.528,19.0
110.656,-12.238,5.061,18.0
49.237,-5.453,3.637,27.0
48.975,-5.413,3.351,5.0
107.837,-11.896,6.791,18.0
49.288,-5.427,2.83,20.0
107.953,-11.866,5.611,7.0
107.825,-11.83,5.018,18.0
49.273,-5.413,3.679,28.0
48.988,-5.371,3.39,23.0
48.705,-5.33,3.105,4.0
49.415,-5.397,2.875,10.0
108.962,-11.878,5.748,10.0
107.774,-11.727,5.098,22.0
49.228,-5.363,3.714,28.0
49.31,-5.361,3.45,23.0
48.678,-5.281,3.14,19.0
49.48,-5.358,2.916,17.0
109.22,-11.803,5.842,21.0
107.887,-11.637,5.183,22.0
48.797,-5.27,3.717,18.0
49.351,-5.319,3.489,39.0
48.634,-5.23,3.172,38.0
107.563,-11.544,6.417,22.0
109.235,-11.7,5.92,19.0
107.84,-11.527,5.256,21.0
48.705,-5.213,3.745,13.0
49.521,-5.288,3.536,23.0
48.726,-5.192,3.212,17.0
107.532,-11.433,6.49,22.0
108.95,-11.558,5.98,24.0
107.934,-11.427,5.333,12.0
48.593,-5.151,3.769,27.0
49.47,-5.231,3.566,22.0
48.693,-5.137,3.243,19.0
107.449,-11.312,6.555,19.0
108.882,-11.437,6.048,7.0
110.553,-11.588,5.535,9.0
48.64,-5.104,3.804,36.0
49.584,-5.191,3.605,25.0
48.704,-5.087,3.274,13.0
107.326,-11.184,6.615,21.0
107.069,-11.132,6.012,13.0
110.247,-11.436,5.587,17.0
48.25,-5.011,3.803,25.0
49.428,-5.121,3.624,25.0
49.498,-5.116,3.357,9.0
48.841,-5.036,3.039,8.0
107.309,-11.038,6.089,17.0
108.927,-11.178,5.583,22.0
48.036,-4.936,3.814,17.0
49.889,-5.113,3.686,23.0
107.573,-10.998,7.357,17.0
107.495,-10.963,6.748,10.0
107.839,-10.971,6.177,20.0
108.818,-11.044,5.636,25.0
48.123,-4.89,3.847,5.0
49.932,-5.06,3.716,8.0
107.759,-10.893,7.426,16.0
108.19,-10.909,6.848,11.0
107.928,-10.854,6.239,23.0
108.892,-10.925,5.695,22.0
45.642,-4.584,3.672,5.0
48.117,-4.82,3.605,3.0
107.657,-10.755,7.472,16.0
109.995,-10.959,7.017,13.0
108.045,-10.736,6.297,28.0
108.92,-10.795,5.749,18.0
45.653,-4.529,3.695,16.0
107.276,-10.614,8.089,17.0
107.409,-10.598,7.505,20.0
110.286,-10.851,7.086,6.0
108.283,-10.625,6.36,20.0
108.162,-10.586,5.758,22.0
107.479,-8.067,8.934,15.0
109.826,-8.208,8.508,15.0
105.019,-7.817,7.542,7.0
105.637,-7.829,6.981,11.0
108.025,-7.974,6.53,19.0
107.853,-7.928,5.913,26.0
110.059,-8.088,9.122,20.0
107.635,-7.875,8.312,13.0
104.863,-7.639,7.505,22.0
110.542,-8.018,7.276,21.0
107.808,-7.786,6.488,18.0
107.427,-7.727,5.861,33.0
107.988,-7.764,8.919,6.0
104.995,-7.516,8.078,20.0
110.337,-7.863,7.864,20.0
107.857,-7.652,7.066,18.0
107.4,-7.588,6.43,13.0
107.373,-7.553,5.824,22.0
106.566,-7.491,8.767,28.0
104.921,-7.341,8.036,24.0
110.751,-7.715,7.855,12.0
107.612,-7.464,7.014,22.0
106.887,-7.38,6.362,27.0
107.165,-7.368,5.773,23.0
106.649,-7.326,8.735,25.0
107.829,-7.373,8.219,19.0
108.83,-7.407,7.678,11.0
107.903,-7.311,6.991,20.0
107.037,-7.22,6.329,23.0
106.887,-7.178,5.716,31.0
106.868,-7.169,8.708,24.0
107.808,-7.197,8.172,15.0
107.043,-7.114,7.506,23.0
107.974,-7.141,6.948,29.0
108.243,-7.126,6.354,21.0
107.046,-7.015,5.678,24.0
107.224,-7.019,8.688,23.0
112.022,-7.298,8.441,9.0
107.071,-6.943,7.459,28.0
107.718,-6.951,6.881,28.0
108.127,-6.944,6.294,23.0
107.332,-6.86,5.64,32.0
107.575,-6.868,8.663,20.0
108.708,-6.905,8.135,15.0
107.019,-6.765,7.401,25.0
107.953,-6.792,6.841,20.0
107.733,-6.745,6.215,28.0
107.293,-6.684,5.582,31.0
107.611,-6.694,8.607,27.0
108.956,-6.744,8.095,19.0
107.248,-6.605,7.357,22.0
108.196,-6.629,6.795,22.0
107.929,-6.58,6.165,24.0
107.424,-6.518,5.527,28.0
107.917,-6.536,8.569,24.0
109.043,-6.57,8.036,12.0
107.655,-6.454,7.32,22.0
108.217,-6.454,6.732,22.0
107.345,-6.369,6.067,26.0
107.766,-6.362,5.478,29.0
108.661,-6.404,8.559,13.0
108.678,-6.37,7.941,21.0
108.301,-6.314,7.295,12.0
108.185,-6.276,6.659,23.0
107.435,-6.199,6.002,23.0
107.79,-6.187,5.409,30.0
108.688,-6.226,8.489,22.0
109.094,-6.216,7.896,24.0
107.923,-6.117,7.196,7.0
108.073,-6.093,6.579,24.0
108.084,-6.062,5.963,28.0
108.008,-6.025,5.345,28.0
109.032,-6.069,8.439,11.0
109.585,-6.066,7.854,18.0
107.997,-5.946,7.123,18.0
108.059,-5.918,6.5,19.0
108.037,-5.884,5.882,19.0
108.298,-5.866,5.279,29.0
109.407,-5.912,8.386,11.0
113.007,-6.072,8.014,10.0
108.14,-5.777,7.05,26.0
108.332,-5.756,6.433,18.0
107.976,-5.706,5.795,16.0
108.345,-5.694,5.197,25.0
113.073,-5.926,8.576,24.0
112.912,-5.883,7.917,11.0
108.428,-5.616,6.981,6.0
108.345,-5.581,6.345,30.0
108.438,-5.553,5.731,11.0
108.401,-5.52,5.11,17.0
112.966,-5.736,8.473,14.0
108.332,-5.468,7.504,15.0
108.824,-5.461,6.914,13.0
108.399,-5.409,6.256,21.0
108.567,-5.385,5.645,21.0
114.68,-5.655,5.307,7.0
109.45,-5.379,8.112,11.0
114.858,-5.612,7.855,23.0
112.726,-5.474,7.062,23.0
112.545,-5.432,6.394,24.0
108.959,-5.229,5.568,23.0
114.476,-5.462,5.195,18.0
118.672,-5.642,8.687,5.0
115.4,-5.453,7.786,20.0
113.214,-5.318,6.988,9.0
112.711,-5.262,6.3,21.0
118.128,-5.483,5.927,15.0
114.449,-5.279,5.087,20.0
114.998,-5.285,8.31,23.0
116.102,-5.302,7.722,20.0
115.617,-5.246,7.025,12.0
112.874,-5.09,6.2,10.0
117.146,-5.249,5.763,8.0
116.378,-5.183,5.059,16.0
114.755,-5.09,8.177,24.0
116.489,-5.134,7.631,19.0
114.909,-5.031,6.867,23.0
115.029,-5.005,6.201,20.0
116.915,-5.054,5.633,18.0
116.388,-4.999,4.94,24.0
114.802,-4.909,8.061,19.0
114.688,-4.872,7.392,25.0
114.498,-4.833,6.722,23.0
114.443,-4.798,6.049,25.0
115.136,-4.796,5.426,12.0
116.568,-4.825,4.825,28.0
115.666,-4.766,7.998,13.0
114.86,-4.7,7.281,21.0
114.267,-4.644,6.585,28.0
114.596,-4.625,5.933,18.0
115.39,-4.627,5.311,21.0
116.993,-4.659,4.714,22.0
115.748,-4.586,7.874,25.0
115.016,-4.526,7.161,17.0
114.289,-4.467,6.457,23.0
115.248,-4.474,5.837,23.0
115.339,-4.446,5.178,16.0
117.238,-4.487,4.589,26.0
115.872,-4.413,7.749,25.0
114.682,-4.336,7.008,26.0
114.497,-4.298,6.336,25.0
115.487,-4.304,5.713,19.0
117.157,-4.336,5.123,25.0
123.817,-4.549,4.702,11.0
116.593,-4.259,7.657,22.0
114.684,-4.159,6.871,20.0
114.387,-4.119,6.193,25.0
115.795,-4.14,5.591,25.0
117.446,-4.167,4.994,22.0
117.654,-4.144,4.325,14.0
114.421,-4.007,7.374,13.0
114.423,-3.976,6.714,22.0
114.414,-3.946,6.053,24.0
115.839,-3.965,5.448,22.0
116.996,-3.973,4.828,24.0
117.612,-3.964,4.177,18.0
116.583,-3.905,7.366,22.0
0.0,0.0,0.0,0.0
115.991,-3.825,5.988,21.0
117.159,-3.834,5.361,23.0
116.612,-3.786,4.662,17.0
139.62,-4.499,4.78,17.0
114.696,-3.67,7.097,23.0
115.706,-3.672,6.49,26.0
115.922,-3.649,5.831,19.0
117.179,-3.66,5.207,12.0
118.989,-3.686,4.6,18.0
139.807,-4.297,4.599,17.0
115.658,-3.53,7.002,26.0
114.813,-3.475,6.286,21.0
117.277,-3.52,5.742,22.0
123.79,-3.684,5.332,10.0
118.85,-3.507,4.432,24.0
142.938,-4.183,4.507,7.0
115.818,-3.364,6.85,24.0
140.886,-4.058,7.517,8.0
117.289,-3.35,5.58,29.0
117.56,-3.328,4.901,15.0
140.16,-3.934,5.033,17.0
140.717,-3.917,4.242,13.0
115.973,-3.201,6.696,23.0
124.327,-3.401,6.457,10.0
117.601,-3.188,5.426,12.0
139.823,-3.758,5.63,17.0
143.583,-3.825,4.952,7.0
163.182,-4.308,4.684,15.0
124.548,-3.261,7.011,21.0
124.532,-3.231,6.289,8.0
139.029,-3.574,6.215,5.0
139.68,-3.557,5.42,16.0
162.568,-4.101,5.369,19.0
163.299,-4.083,4.45,18.0
124.507,-3.084,6.823,21.0
140.851,-3.455,6.901,9.0
143.829,-3.496,6.215,3.0
140.489,-3.383,5.243,21.0
162.626,-3.879,5.13,34.0
163.348,-3.859,4.208,11.0
124.448,-2.912,6.633,10.0
192.404,-4.457,9.138,15.0
143.687,-3.295,5.992,14.0
140.529,-3.19,5.031,22.0
163.314,-3.672,4.901,12.0
0.0,0.0,0.0,0.0
0.0,0.0,0.0,0.0
192.142,-4.188,8.827,12.0
190.39,-4.108,7.642,19.0
190.298,-4.065,6.518,17.0
163.343,-3.452,4.648,32.0
171.583,-3.589,3.889,3.0
0.0,0.0,0.0,0.0
191.304,-3.917,8.488,18.0
190.297,-3.853,7.338,21.0
162.586,-3.258,5.312,81.0
163.336,-3.237,4.389,31.0
170.459,-3.341,3.592,4.0
0.0,0.0,0.0,0.0
191.308,-3.667,8.182,19.0
190.44,-3.61,7.039,22.0
162.707,-3.05,5.056,24.0
163.369,-3.028,4.128,12.0
170.226,-3.118,3.314,13.0
192.458,-3.482,9.033,17.0
189.963,-3.397,7.812,9.0
190.026,-3.356,6.71,27.0
163.285,-2.851,4.802,18.0
171.56,-2.96,4.05,5.0
0.0,0.0,0.0,0.0
193.111,-3.25,8.743,16.0
191.204,-3.177,7.544,22.0
162.584,-2.669,5.47,31.0
163.206,-2.646,4.527,25.0
0.0,0.0,0.0,0.0
169.76,-2.684,2.738,6.0
192.963,-3.009,8.41,25.0
191.737,-2.95,7.241,21.0
162.598,-2.468,5.192,51.0
163.366,-2.447,4.252,16.0
0.0,0.0,0.0,0.0
19.763,-0.288,0.285,5.0
192.962,-2.774,8.076,18.0
191.822,-2.719,6.911,22.0
163.366,-2.283,4.936,23.0
19.739,-0.272,0.479,0.0
19.759,-0.268,0.365,6.0
19.75,-0.264,0.25,15.0
186.034,-2.453,7.46,17.0
162.532,-2.111,5.57,15.0
19.82,-0.253,0.564,0.0
19.758,-0.249,0.445,7.0
19.736,-0.245,0.33,12.0
19.753,-0.241,0.215,17.0
185.9,-2.235,7.122,23.0
19.793,-0.234,0.643,0.0
19.762,-0.23,0.527,8.0
19.743,-0.226,0.41,11.0
19.749,-0.223,0.295,7.0
19.757,-0.219,0.18,0.0
185.121,-2.018,6.761,19.0
19.769,-0.212,0.607,8.0
19.743,-0.208,0.491,10.0
19.748,-0.204,0.374,7.0
19.826,-0.202,0.26,0.0
160.746,-1.609,1.18,16.0
19.79,-0.194,0.687,2.0
19.75,-0.19,0.57,8.0
19.756,-0.186,0.455,7.0
19.776,-0.183,0.338,0.0
169.369,-1.543,1.917,9.0
160.79,-1.437,0.885,5.0
19.744,-0.172,0.648,15.0
19.758,-0.169,0.534,7.0
19.76,-0.166,0.419,1.0
169.233,-1.394,2.589,12.0
165.359,-1.333,1.566,13.0
19.598,-0.154,0.071,0.0
19.74,-0.152,0.612,2.0
19.774,-0.149,0.497,3.0
177.218,-1.307,3.43,20.0
0.0,0.0,0.0,0.0
19.758,-0.139,0.15,0.0
19.743,-0.135,0.035,8.0
19.705,-0.132,0.573,7.0
19.682,-0.128,0.458,6.0
19.697,-0.125,0.343,5.0
19.716,-0.122,0.227,9.0
19.739,-0.119,0.112,10.0
19.721,-0.116,-0.002,13.0
19.653,-0.112,0.534,12.0
19.668,-0.109,0.42,9.0
19.675,-0.106,0.305,9.0
19.711,-0.103,0.189,15.0
19.714,-0.1,0.074,13.0
19.724,-0.097,-0.039,14.0
19.652,-0.094,0.496,11.0
19.652,-0.091,0.382,9.0
19.658,-0.088,0.267,10.0
19.691,-0.085,0.151,15.0
19.704,-0.082,0.036,15.0
19.726,-0.079,-0.078,12.0
19.649,-0.076,0.458,12.0
19.646,-0.073,0.343,10.0
19.661,-0.07,0.229,13.0
19.689,-0.067,0.113,15.0
19.703,-0.065,-0.001,16.0
19.726,-0.062,-0.116,15.0
19.636,-0.059,0.419,12.0
19.643,-0.056,0.305,10.0
19.658,-0.053,0.19,11.0
19.692,-0.051,0.074,15.0
19.711,-0.048,-0.04,15.0
19.747,-0.045,-0.155,14.0
19.629,-0.042,0.38,12.0
19.631,-0.04,0.266,11.0
19.674,-0.037,0.152,9.0
19.693,-0.034,0.035,15.0
19.752,-0.032,-0.079,8.0
19.754,-0.029,-0.194,2.0
19.63,-0.026,0.341,13.0
19.638,-0.024,0.227,15.0
19.683,-0.021,0.112,5.0
19.719,-0.019,-0.004,13.0
19.767,-0.016,-0.119,3.0
0.0,0.0,0.0,0.0
19.631,-0.011,0.302,14.0
19.68,-0.009,0.187,10.0
19.783,-0.006,0.073,3.0
19.748,-0.004,-0.043,7.0
19.775,-0.001,-0.159,0.0
19.754,0.0,-0.274,0.0
19.633,0.002,0.262,15.0
19.794,0.005,0.149,1.0
19.761,0.007,0.033,5.0
19.758,0.009,-0.083,1.0
19.766,0.012,-0.199,2.0
19.768,0.014,-0.314,2.0
19.643,0.016,0.222,17.0
19.753,0.018,0.108,12.0
19.745,0.021,-0.006,23.0
19.743,0.023,-0.124,10.0
19.76,0.025,-0.239,10.0
19.761,0.027,-0.355,9.0
19.735,0.029,0.183,17.0
19.762,0.032,0.068,14.0
19.731,0.034,-0.047,51.0
19.75,0.036,-0.164,14.0
19.763,0.038,-0.28,13.0
19.775,0.04,-0.396,11.0
19.756,0.042,0.142,11.0
19.773,0.044,0.027,37.0
19.743,0.046,-0.088,64.0
19.773,0.048,-0.205,24.0
19.773,0.05,-0.321,21.0
19.767,0.052,-0.436,36.0
19.746,0.054,0.101,25.0
19.756,0.055,-0.013,55.0
19.768,0.057,-0.129,54.0
19.778,0.059,-0.246,55.0
19.778,0.061,-0.362,45.0
19.785,0.063,-0.477,32.0
19.744,0.064,0.061,35.0
19.769,0.066,-0.054,28.0
19.771,0.068,-0.169,30.0
19.756,0.07,-0.287,18.0
19.779,0.072,-0.403,15.0
19.767,0.074,-0.518,9.0
19.768,0.075,0.019,25.0
19.763,0.077,-0.095,12.0
19.757,0.078,-0.21,7.0
19.774,0.08,-0.328,3.0
19.775,0.082,-0.444,2.0
19.777,0.083,-0.56,0.0
19.734,0.084,-0.021,7.0
19.744,0.086,-0.136,1.0
19.794,0.088,-0.252,0.0
19.719,0.089,-0.369,0.0
26.434,0.122,-0.649,0.0
23.298,0.109,-0.708,0.0
19.712,0.093,-0.062,1.0
19.647,0.094,-0.176,0.0
34.175,0.167,-0.507,0.0
28.986,0.143,-0.602,0.0
25.138,0.126,-0.669,0.0
22.218,0.113,-0.722,0.0
19.706,0.101,-0.103,1.0
0.0,0.0,0.0,0.0
30.465,0.16,-0.515,0.0
27.592,0.147,-0.631,0.0
23.674,0.128,-0.68,0.0
21.328,0.117,-0.737,0.0
19.689,0.108,-0.145,0.0
36.444,0.203,-0.481,0.0
30.009,0.169,-0.571,0.0
26.094,0.148,-0.652,0.0
23.052,0.133,-0.711,0.0
19.982,0.116,-0.733,0.0
0.0,0.0,0.0,0.0
0.0,0.0,0.0,0.0
0.0,0.0,0.0,0.0
24.943,0.15,-0.675,0.0
21.851,0.132,-0.719,0.0
19.645,0.12,-0.762,1.0
0.0,0.0,0.0,0.0
31.114,0.192,-0.541,0.0
27.07,0.168,-0.629,0.0
23.434,0.147,-0.684,0.0
20.936,0.132,-0.733,0.0
19.127,0.122,-0.782,0.0
34.119,0.217,-0.466,0.0
29.56,0.19,-0.576,0.0
25.898,0.167,-0.656,0.0
22.723,0.148,-0.711,0.0
19.798,0.13,-0.735,0.0
18.449,0.122,-0.793,0.0
0.0,0.0,0.0,0.0
28.283,0.188,-0.611,0.0
24.722,0.165,-0.678,0.0
21.597,0.145,-0.721,0.0
19.581,0.132,-0.768,1.0
17.756,0.121,-0.8,0.0
30.775,0.208,-0.548,0.0
26.717,0.182,-0.632,0.0
23.376,0.16,-0.69,0.0
20.752,0.143,-0.736,0.0
18.931,0.131,-0.782,0.0
17.08,0.119,-0.806,0.0
29.314,0.202,-0.583,0.0
25.5,0.177,-0.657,0.0
22.637,0.158,-0.715,0.0
19.722,0.138,-0.74,1.0
18.251,0.128,-0.792,0.0
16.463,0.116,-0.811,0.0
27.995,0.196,-0.615,0.0
24.487,0.172,-0.681,0.0
21.545,0.152,-0.726,0.0
19.495,0.138,-0.772,1.0
17.658,0.125,-0.803,0.0
15.753,0.112,-0.809,0.0
26.494,0.187,-0.638,0.0
23.235,0.165,-0.695,0.0
20.575,0.146,-0.736,0.0
18.828,0.134,-0.785,0.0
17.0,0.122,-0.809,0.0
15.531,0.111,-0.83,2.0
25.319,0.18,-0.662,0.0
22.248,0.158,-0.712,0.0
19.652,0.14,-0.743,1.0
18.1,0.129,-0.792,0.0
16.3,0.117,-0.809,0.0
15.061,0.108,-0.836,0.0
24.072,0.17,-0.679,0.0
21.282,0.151,-0.724,0.0
19.335,0.137,-0.771,1.0
17.46,0.124,-0.8,0.0
15.64,0.111,-0.809,0.0
14.613,0.104,-0.841,0.0
23.038,0.162,-0.697,0.0
20.04,0.141,-0.723,0.0
18.698,0.132,-0.784,0.0
16.888,0.119,-0.809,0.0
15.49,0.109,-0.833,1.0
14.151,0.1,-0.844,0.0
22.1,0.153,-0.714,0.0
19.632,0.136,-0.749,2.0
18.03,0.125,-0.793,0.0
16.224,0.113,-0.81,0.0
14.983,0.104,-0.836,0.0
13.742,0.095,-0.848,0.0
21.141,0.144,-0.726,0.0
19.284,0.131,-0.775,0.0
17.369,0.118,-0.799,0.0
15.615,0.106,-0.811,0.0
14.531,0.099,-0.84,0.0
13.41,0.091,-0.854,0.0
19.92,0.133,-0.724,0.0
18.605,0.124,-0.785,0.0
16.69,0.111,-0.802,0.0
15.436,0.102,-0.834,1.0
14.068,0.093,-0.842,0.0
13.061,0.086,-0.858,1.0
12.731,-0.017,-0.862,1.0
11.923,-0.017,-0.877,0.0
11.201,-0.017,-0.889,0.0
10.548,-0.017,-0.9,0.0
9.94,-0.017,-0.906,0.0
9.382,-0.017,-0.91,0.0
12.51,-0.026,-0.868,0.0
11.725,-0.025,-0.881,0.0
11.035,-0.025,-0.894,0.0
10.389,-0.025,-0.903,0.0
9.842,-0.024,-0.913,0.0
9.288,-0.024,-0.916,0.0
12.265,-0.035,-0.87,0.0
11.515,-0.034,-0.884,0.0
10.825,-0.033,-0.894,0.0
10.212,-0.032,-0.904,0.0
9.654,-0.032,-0.911,0.0
9.207,-0.031,-0.923,0.0
12.038,-0.044,-0.873,0.0
11.314,-0.043,-0.886,0.0
10.644,-0.041,-0.896,0.0
10.073,-0.04,-0.907,0.0
9.523,-0.039,-0.914,0.0
9.041,-0.038,-0.92,0.0
11.849,-0.054,-0.877,0.0
11.142,-0.052,-0.89,0.0
10.517,-0.05,-0.901,0.0
9.903,-0.048,-0.907,0.0
9.411,-0.047,-0.917,0.0
8.9,-0.045,-0.919,0.0
11.67,-0.063,-0.881,0.0
10.963,-0.06,-0.892,0.0
10.343,-0.058,-0.901,0.0
9.793,-0.056,-0.911,0.0
9.292,-0.054,-0.919,0.0
8.789,-0.053,-0.921,0.0
11.49,-0.072,-0.884,0.0
10.798,-0.069,-0.894,0.0
10.2,-0.066,-0.904,0.0
9.626,-0.064,-0.91,0.0
9.134,-0.062,-0.917,0.0
8.689,-0.06,-0.923,0.0
11.307,-0.081,-0.886,0.0
10.649,-0.078,-0.897,0.0
10.074,-0.075,-0.907,0.0
9.503,-0.072,-0.912,0.0
9.06,-0.07,-0.922,0.0
8.602,-0.067,-0.926,0.0
11.128,-0.09,-0.888,0.0
10.496,-0.087,-0.898,0.0
9.915,-0.083,-0.906,0.0
9.35,-0.08,-0.91,0.0
8.932,-0.077,-0.921,0.0
8.514,-0.075,-0.928,0.0
10.989,-0.1,-0.891,0.0
10.35,-0.095,-0.9,0.0
9.82,-0.092,-0.911,0.0
9.314,-0.088,-0.919,0.0
8.791,-0.085,-0.919,0.0
8.394,-0.082,-0.926,0.0
10.853,-0.109,-0.895,0.0
10.242,-0.105,-0.904,0.0
9.675,-0.1,-0.91,0.0
9.145,-0.096,-0.914,0.0
8.723,-0.093,-0.923,0.0
8.334,-0.09,-0.93,0.0
10.698,-0.118,-0.896,0.0
10.12,-0.114,-0.906,0.0
9.582,-0.109,-0.913,0.0
9.074,-0.105,-0.919,0.0
8.632,-0.101,-0.924,0.0
8.256,-0.098,-0.932,0.0
10.562,-0.128,-0.897,0.0
9.995,-0.122,-0.907,0.0
9.45,-0.117,-0.912,0.0
8.971,-0.113,-0.919,0.0
8.536,-0.108,-0.924,0.0
8.162,-0.105,-0.931,0.0
10.423,-0.137,-0.898,0.0
9.882,-0.131,-0.909,0.0
9.353,-0.126,-0.914,0.0
8.871,-0.121,-0.92,0.0
8.46,-0.117,-0.926,0.0
8.081,-0.113,-0.932,0.0
10.312,-0.147,-0.901,0.0
9.787,-0.141,-0.911,0.0
9.253,-0.134,-0.915,0.0
8.761,-0.129,-0.918,0.0
8.385,-0.125,-0.928,0.0
8.015,-0.12,-0.933,0.0
10.214,-0.156,-0.903,0.0
9.654,-0.149,-0.91,0.0
9.172,-0.143,-0.917,0.0
8.738,-0.138,-0.926,0.0
8.312,-0.133,-0.929,0.0
7.968,-0.128,-0.937,0.0
10.119,-0.166,-0.906,0.0
9.577,-0.159,-0.913,0.0
9.095,-0.152,-0.919,0.0
8.625,-0.146,-0.923,0.0
8.26,-0.141,-0.932,0.0
7.915,-0.137,-0.939,0.0
10.012,-0.175,-0.907,0.0
9.501,-0.168,-0.915,0.0
9.012,-0.161,-0.92,0.0
8.552,-0.154,-0.924,0.0
8.161,-0.148,-0.929,0.0
7.827,-0.144,-0.936,0.0
9.887,-0.184,-0.905,0.0
9.418,-0.177,-0.917,0.0
8.903,-0.169,-0.918,0.0
8.511,-0.163,-0.928,0.0
8.122,-0.157,-0.932,0.0
7.781,-0.152,-0.938,0.0
9.802,-0.194,-0.907,0.0
9.299,-0.185,-0.914,0.0
8.823,-0.178,-0.918,0.0
8.432,-0.171,-0.927,0.0
8.071,-0.165,-0.934,0.0
7.713,-0.159,-0.937,0.0
9.718,-0.203,-0.908,0.0
9.191,-0.194,-0.912,0.0
8.753,-0.186,-0.919,0.0
8.373,-0.18,-0.928,0.0
8.029,-0.174,-0.936,0.0
7.667,-0.168,-0.939,0.0
9.663,-0.213,-0.911,0.0
9.124,-0.203,-0.913,0.0
8.706,-0.196,-0.921,0.0
8.322,-0.189,-0.93,0.0
7.98,-0.182,-0.938,0.0
7.63,-0.176,-0.941,0.0
9.588,-0.223,-0.912,0.0
9.085,-0.213,-0.917,0.0
8.646,-0.205,-0.922,0.0
8.239,-0.197,-0.927,0.0
7.923,-0.191,-0.937,0.0
7.571,-0.184,-0.94,0.0
9.528,-0.233,-0.914,0.0
8.969,-0.221,-0.912,0.0
8.582,-0.213,-0.922,0.0
8.181,-0.205,-0.927,0.0
7.861,-0.198,-0.936,0.0
7.56,-0.192,-0.944,0.0
9.454,-0.243,-0.914,0.0
8.946,-0.231,-0.916,0.0
8.573,-0.223,-0.927,0.0
8.153,-0.214,-0.93,0.0
7.799,-0.206,-0.934,0.0
7.52,-0.201,-0.944,0.0
9.406,-0.253,-0.916,0.0
8.9,-0.241,-0.918,0.0
8.502,-0.232,-0.925,0.0
8.117,-0.223,-0.931,0.0
7.817,-0.216,-0.942,0.0
7.483,-0.209,-0.945,0.0
9.347,-0.262,-0.916,0.0
8.853,-0.25,-0.919,0.0
8.437,-0.24,-0.924,0.0
8.073,-0.232,-0.931,0.0
7.764,-0.224,-0.94,0.0
7.44,-0.217,-0.944,0.0
9.283,-0.272,-0.916,0.0
8.809,-0.26,-0.919,0.0
8.422,-0.25,-0.927,0.0
8.05,-0.241,-0.933,0.0
7.747,-0.233,-0.943,0.0
7.406,-0.225,-0.944,0.0
9.23,-0.282,-0.916,0.0
8.758,-0.269,-0.919,0.0
8.42,-0.261,-0.932,0.0
8.039,-0.25,-0.936,0.0
7.689,-0.241,-0.94,0.0
7.384,-0.233,-0.945,0.0
9.191,-0.292,-0.917,0.0
8.716,-0.279,-0.919,0.0
8.378,-0.27,-0.931,0.0
7.989,-0.259,-0.935,0.0
7.687,-0.251,-0.943,0.0
7.359,-0.242,-0.945,0.0
9.181,-0.303,-0.92,0.0
8.704,-0.289,-0.922,0.0
8.337,-0.278,-0.931,0.0
7.969,-0.268,-0.936,0.0
7.655,-0.259,-0.943,0.0
7.338,-0.25,-0.946,0.0
9.143,-0.313,-0.92,0.0
8.672,-0.299,-0.922,0.0
8.303,-0.288,-0.93,0.0
7.948,-0.277,-0.937,0.0
7.603,-0.267,-0.94,0.0
7.307,-0.258,-0.945,0.0
9.131,-0.324,-0.922,0.0
8.65,-0.308,-0.923,0.0
8.284,-0.297,-0.931,0.0
7.923,-0.286,-0.937,0.0
7.604,-0.276,-0.942,0.0
7.28,-0.266,-0.944,0.0
9.055,-0.332,-0.918,0.0
8.641,-0.319,-0.925,0.0
8.274,-0.307,-0.933,0.0
7.915,-0.295,-0.938,0.0
7.587,-0.285,-0.943,0.0
7.294,-0.276,-0.948,0.0
9.049,-0.343,-0.92,0.0
8.621,-0.328,-0.925,0.0
8.242,-0.316,-0.931,0.0
7.896,-0.304,-0.938,0.0
7.579,-0.294,-0.944,0.0
7.281,-0.284,-0.948,0.0
9.012,-0.352,-0.918,0.0
8.596,-0.338,-0.925,0.0
8.241,-0.326,-0.933,0.0
7.857,-0.313,-0.935,0.0
7.555,-0.302,-0.942,0.0
7.272,-0.293,-0.948,0.0
9.014,-0.364,-0.92,0.0
8.59,-0.348,-0.926,0.0
8.232,-0.336,-0.934,0.0
7.84,-0.322,-0.935,0.0
7.537,-0.311,-0.941,0.0
7.271,-0.301,-0.95,0.0
9.016,-0.375,-0.922,0.0
8.569,-0.358,-0.925,0.0
8.221,-0.345,-0.934,0.0
7.848,-0.331,-0.937,0.0
7.548,-0.321,-0.944,0.0
7.295,-0.311,-0.954,0.0
8.983,-0.384,-0.92,0.0
8.571,-0.368,-0.926,0.0
8.185,-0.354,-0.93,0.0
7.821,-0.34,-0.934,0.0
7.557,-0.33,-0.945,0.0
7.279,-0.32,-0.952,0.0
8.978,-0.395,-0.92,0.0
8.55,-0.378,-0.924,0.0
8.197,-0.364,-0.932,0.0
7.842,-0.35,-0.937,0.0
7.533,-0.338,-0.943,0.0
7.258,-0.327,-0.949,0.0
8.978,-0.405,-0.92,0.0
8.533,-0.387,-0.922,0.0
8.197,-0.374,-0.932,0.0
7.871,-0.361,-0.94,0.0
7.553,-0.348,-0.945,0.0
7.266,-0.336,-0.95,0.0
8.989,-0.417,-0.921,0.0
8.591,-0.4,-0.928,0.0
8.232,-0.385,-0.936,0.0
7.862,-0.37,-0.939,0.0
7.553,-0.357,-0.945,0.0
7.271,-0.345,-0.951,0.0
9.005,-0.428,-0.922,0.0
8.601,-0.411,-0.929,0.0
8.226,-0.395,-0.934,0.0
7.866,-0.379,-0.939,0.0
7.572,-0.367,-0.946,0.0
7.254,-0.353,-0.948,0.0
9.027,-0.439,-0.923,0.0
8.63,-0.422,-0.931,0.0
8.219,-0.404,-0.932,0.0
7.828,-0.386,-0.933,0.0
7.615,-0.378,-0.95,0.0
7.273,-0.362,-0.949,0.0
9.034,-0.45,-0.922,0.0
8.617,-0.431,-0.928,0.0
8.222,-0.413,-0.931,0.0
7.875,-0.398,-0.937,0.0
7.612,-0.386,-0.949,0.0
7.305,-0.372,-0.952,0.0
9.057,-0.462,-0.923,0.0
8.639,-0.442,-0.928,0.0
8.237,-0.423,-0.931,0.0
7.868,-0.406,-0.934,0.0
7.617,-0.395,-0.947,0.0
7.326,-0.382,-0.952,0.0
9.09,-0.474,-0.924,0.0
8.644,-0.452,-0.927,0.0
8.273,-0.435,-0.933,0.0
7.91,-0.417,-0.937,0.0
7.617,-0.404,-0.945,0.0
7.314,-0.389,-0.949,0.0
9.127,-0.486,-0.925,0.0
8.678,-0.464,-0.928,0.0
8.27,-0.444,-0.93,0.0
7.935,-0.428,-0.938,0.0
7.643,-0.414,-0.946,0.0
7.325,-0.398,-0.948,0.0
9.139,-0.496,-0.923,0.0
8.714,-0.475,-0.928,0.0
8.318,-0.455,-0.933,0.0
7.94,-0.437,-0.935,0.0
7.647,-0.422,-0.944,0.0
7.342,-0.407,-0.947,0.0
9.151,-0.507,-0.921,0.0
8.745,-0.486,-0.928,0.0
8.337,-0.465,-0.931,0.0
7.935,-0.445,-0.932,0.0
7.693,-0.433,-0.946,0.0
7.385,-0.417,-0.95,0.0
9.207,-0.52,-0.922,0.0
8.771,-0.497,-0.927,0.0
8.351,-0.475,-0.929,0.0
7.978,-0.455,-0.933,0.0
7.726,-0.443,-0.947,0.0
7.399,-0.426,-0.948,0.0
9.248,-0.531,-0.922,0.0
8.841,-0.51,-0.931,0.0
8.42,-0.487,-0.933,0.0
8.042,-0.467,-0.937,0.0
7.734,-0.451,-0.944,0.0
7.432,-0.435,-0.948,0.0
9.302,-0.544,-0.923,0.0
8.847,-0.519,-0.927,0.0
8.47,-0.499,-0.934,0.0
8.062,-0.477,-0.935,0.0
7.768,-0.461,-0.944,0.0
7.483,-0.446,-0.951,0.0
9.339,-0.555,-0.922,0.0
8.884,-0.53,-0.926,0.0
8.491,-0.509,-0.932,0.0
8.155,-0.49,-0.941,0.0
7.801,-0.471,-0.943,0.0
7.512,-0.455,-0.95,0.0
9.386,-0.567,-0.921,0.0
8.941,-0.542,-0.926,0.0
8.537,-0.519,-0.932,0.0
8.185,-0.5,-0.939,0.0
7.832,-0.48,-0.942,0.0
7.532,-0.463,-0.948,0.0
9.443,-0.58,-0.92,0.0
9.008,-0.555,-0.927,0.0
8.582,-0.53,-0.931,0.0
8.188,-0.508,-0.934,0.0
7.851,-0.488,-0.939,0.0
7.6,-0.474,-0.951,0.0
9.512,-0.593,-0.921,0.0
9.037,-0.565,-0.924,0.0
8.611,-0.54,-0.928,0.0
8.208,-0.516,-0.931,0.0
7.907,-0.499,-0.94,0.0
7.616,-0.482,-0.948,0.0
9.581,-0.606,-0.921,0.0
9.116,-0.578,-0.926,0.0
8.665,-0.551,-0.928,0.0
8.292,-0.529,-0.934,0.0
7.969,-0.51,-0.942,0.0
7.661,-0.492,-0.948,0.0
9.624,-0.617,-0.918,0.0
9.167,-0.589,-0.924,0.0
8.764,-0.565,-0.932,0.0
8.383,-0.542,-0.938,0.0
7.972,-0.517,-0.936,0.0
7.702,-0.501,-0.947,0.0
9.707,-0.63,-0.918,0.0
9.251,-0.602,-0.925,0.0
8.854,-0.578,-0.934,0.0
8.393,-0.55,-0.932,0.0
8.059,-0.529,-0.939,0.0
7.726,-0.509,-0.943,0.0
9.783,-0.643,-0.917,0.0
9.315,-0.614,-0.924,0.0
8.884,-0.587,-0.93,0.0
8.478,-0.562,-0.935,0.0
8.143,-0.541,-0.942,0.0
7.763,-0.518,-0.941,0.0
9.892,-0.658,-0.919,0.0
9.396,-0.627,-0.924,0.0
8.954,-0.599,-0.929,0.0
8.538,-0.573,-0.934,0.0
8.178,-0.55,-0.939,0.0
7.823,-0.528,-0.941,0.0
9.976,-0.671,-0.918,0.0
9.492,-0.64,-0.925,0.0
9.02,-0.61,-0.928,0.0
8.592,-0.583,-0.932,0.0
8.264,-0.562,-0.941,0.0
7.877,-0.537,-0.94,0.0
10.029,-0.682,-0.913,0.0
9.576,-0.653,-0.924,0.0
9.082,-0.621,-0.926,0.0
8.66,-0.593,-0.931,0.0
8.286,-0.569,-0.936,0.0
7.922,-0.546,-0.938,0.0
10.099,-0.694,-0.91,0.0
9.625,-0.663,-0.919,0.0
9.146,-0.631,-0.923,0.0
8.734,-0.605,-0.93,0.0
8.356,-0.58,-0.935,0.0
7.996,-0.556,-0.939,0.0
10.176,-0.706,-0.907,0.0
9.706,-0.675,-0.917,0.0
9.265,-0.646,-0.926,0.0
8.84,-0.618,-0.932,0.0
8.432,-0.591,-0.935,0.0
8.096,-0.568,-0.942,0.0
10.267,-0.719,-0.904,0.0
9.85,-0.691,-0.921,0.0
9.347,-0.657,-0.924,0.0
8.918,-0.628,-0.931,0.0
8.496,-0.6,-0.933,0.0
8.14,-0.576,-0.938,0.0
10.449,-0.738,-0.909,0.0
9.916,-0.702,-0.916,0.0
9.443,-0.67,-0.924,0.0
9.02,-0.641,-0.932,0.0
8.61,-0.613,-0.936,0.0
8.253,-0.589,-0.942,0.0
10.592,-0.754,-0.91,0.0
9.972,-0.711,-0.911,0.0
9.544,-0.682,-0.923,0.0
9.067,-0.649,-0.927,0.0
8.703,-0.624,-0.937,0.0
8.285,-0.596,-0.937,0.0
10.73,-0.77,-0.91,0.0
10.107,-0.726,-0.911,0.0
9.64,-0.694,-0.921,0.0
9.172,-0.662,-0.927,0.0
8.751,-0.632,-0.932,0.0
8.359,-0.605,-0.935,0.0
10.837,-0.783,-0.907,0.0
10.214,-0.739,-0.91,0.0
9.756,-0.707,-0.921,0.0
9.306,-0.676,-0.93,0.0
8.855,-0.644,-0.933,0.0
8.46,-0.616,-0.937,0.0
10.985,-0.798,-0.906,0.0
10.295,-0.75,-0.904,0.0
9.851,-0.718,-0.918,0.0
9.365,-0.684,-0.924,0.0
8.967,-0.656,-0.933,0.0
8.554,-0.627,-0.937,0.0
11.096,-0.811,-0.902,0.0
10.49,-0.768,-0.909,0.0
9.952,-0.73,-0.916,0.0
9.492,-0.697,-0.925,0.0
9.042,-0.665,-0.93,0.0
8.661,-0.638,-0.938,0.0
11.21,-0.824,-0.897,0.0
10.656,-0.784,-0.91,0.0
10.111,-0.745,-0.918,0.0
9.583,-0.707,-0.922,0.0
9.134,-0.675,-0.928,0.0
8.744,-0.647,-0.936,0.0
11.371,-0.84,-0.896,0.0
10.833,-0.801,-0.912,0.0
10.139,-0.751,-0.908,0.0
9.754,-0.723,-0.926,0.0
9.282,-0.689,-0.931,0.0
8.852,-0.658,-0.936,0.0
11.597,-0.86,-0.899,0.0
11.025,-0.819,-0.914,0.0
10.338,-0.768,-0.912,0.0
9.822,-0.731,-0.92,0.0
9.323,-0.695,-0.923,0.0
8.95,-0.668,-0.934,0.0
11.735,-0.873,-0.895,0.0
11.075,-0.825,-0.903,0.0
10.485,-0.782,-0.911,0.0
9.95,-0.743,-0.919,0.0
9.508,-0.711,-0.929,0.0
9.033,-0.676,-0.931,0.0
11.932,-0.891,-0.894,0.0
11.159,-0.834,-0.895,0.0
10.677,-0.799,-0.913,0.0
10.042,-0.752,-0.914,0.0
9.627,-0.722,-0.927,0.0
9.171,-0.688,-0.933,0.0
12.128,-0.908,-0.892,0.0
11.321,-0.848,-0.893,0.0
10.888,-0.817,-0.917,0.0
10.266,-0.771,-0.92,0.0
9.729,-0.731,-0.924,0.0
9.291,-0.699,-0.932,0.0
12.297,-0.922,-0.888,0.0
11.633,-0.873,-0.901,0.0
11.033,-0.829,-0.914,0.0
10.299,-0.774,-0.909,0.0
9.858,-0.742,-0.922,0.0
9.381,-0.707,-0.928,0.0
12.464,-0.936,-0.882,0.0
11.771,-0.885,-0.896,0.0
11.089,-0.834,-0.903,0.0
10.506,-0.791,-0.912,0.0
9.96,-0.75,-0.918,0.0
9.558,-0.721,-0.932,0.0
12.669,-0.953,-0.879,0.0
11.982,-0.902,-0.895,0.0
11.153,-0.84,-0.892,0.0
10.778,-0.812,-0.92,0.0
10.071,-0.759,-0.913,0.0
9.637,-0.727,-0.925,0.0
12.887,-0.97,-0.875,0.0
12.173,-0.916,-0.891,0.0
11.403,-0.859,-0.895,0.0
10.968,-0.826,-0.92,0.0
10.266,-0.774,-0.916,0.0
9.761,-0.736,-0.923,0.0
13.081,-0.984,-0.869,0.0
12.37,-0.931,-0.887,0.0
11.645,-0.877,-0.897,0.0
11.047,-0.832,-0.911,0.0
10.301,-0.776,-0.904,0.0
9.927,-0.748,-0.924,0.0
13.457,-1.012,-0.875,0.0
12.546,-0.943,-0.882,0.0
11.859,-0.892,-0.896,0.0
11.104,-0.835,-0.899,0.0
10.62,-0.799,-0.916,0.0
10.008,-0.753,-0.917,0.0
13.687,-1.028,-0.869,0.0
12.766,-0.959,-0.878,0.0
12.038,-0.904,-0.892,0.0
11.285,-0.848,-0.897,0.0
10.858,-0.816,-0.92,0.0
10.183,-0.765,-0.917,0.0
13.914,-1.043,-0.863,0.0
12.974,-0.972,-0.873,0.0
12.295,-0.922,-0.893,0.0
11.582,-0.868,-0.903,0.0
11.038,-0.828,-0.919,0.0
10.329,-0.774,-0.915,0.0
14.282,-1.068,-0.865,0.0
13.24,-0.99,-0.871,0.0
12.465,-0.932,-0.886,0.0
11.714,-0.876,-0.896,0.0
11.069,-0.828,-0.905,0.0
10.564,-0.79,-0.919,0.0
14.516,-1.082,-0.857,0.0
13.566,-1.011,-0.872,0.0
12.681,-0.945,-0.882,0.0
11.946,-0.89,-0.895,0.0
11.17,-0.832,-0.896,0.0
10.707,-0.798,-0.915,0.0
14.885,-1.106,-0.856,0.0
13.85,-1.029,-0.869,0.0
12.841,-0.954,-0.873,0.0
12.198,-0.905,-0.895,0.0
11.483,-0.852,-0.904,0.0
10.993,-0.816,-0.923,0.0
15.243,-1.128,-0.853,0.0
14.135,-1.046,-0.865,0.0
13.115,-0.97,-0.872,0.0
12.388,-0.915,-0.89,0.0
11.758,-0.869,-0.907,0.0
11.063,-0.817,-0.912,0.0
15.612,-1.15,-0.85,0.0
14.454,-1.064,-0.863,0.0
13.444,-0.989,-0.873,0.0
12.577,-0.925,-0.884,0.0
11.911,-0.875,-0.9,0.0
11.186,-0.822,-0.904,0.0
15.977,-1.171,-0.845,0.0
14.771,-1.082,-0.858,0.0
13.776,-1.008,-0.873,0.0
12.746,-0.932,-0.876,0.0
12.07,-0.882,-0.893,0.0
11.415,-0.834,-0.905,0.0
16.331,-1.19,-0.838,0.0
15.035,-1.094,-0.85,0.0
14.023,-1.02,-0.867,0.0
13.013,-0.945,-0.874,0.0
12.332,-0.895,-0.893,0.0
11.639,-0.844,-0.904,0.0
16.882,-1.222,-0.84,0.0
15.458,-1.118,-0.85,0.0
14.355,-1.037,-0.865,0.0
13.264,-0.957,-0.87,0.0
12.522,-0.903,-0.887,0.0
11.862,-0.854,-0.903,0.0
17.171,-1.234,-0.827,0.0
15.83,-1.136,-0.846,0.0
14.661,-1.051,-0.86,0.0
13.681,-0.98,-0.876,0.0
12.734,-0.911,-0.882,0.0
12.049,-0.861,-0.898,0.0
17.6,-1.255,-0.82,0.0
16.216,-1.155,-0.841,0.0
14.97,-1.065,-0.855,0.0
13.953,-0.991,-0.871,0.0
12.92,-0.917,-0.875,0.0
12.242,-0.867,-0.893,0.0
18.123,-1.281,-0.816,0.0
16.724,-1.181,-0.841,0.0
15.376,-1.084,-0.854,0.0
14.23,-1.002,-0.866,0.0
13.215,-0.929,-0.874,0.0
12.435,-0.873,-0.888,0.0
18.652,-1.307,-0.811,0.0
17.185,-1.202,-0.837,0.0
15.745,-1.1,-0.85,0.0
14.528,-1.013,-0.862,0.0
13.567,-0.945,-0.876,0.0
12.677,-0.882,-0.885,0.0
19.017,-1.319,-0.797,0.0
17.482,-1.211,-0.824,0.0
15.957,-1.103,-0.836,0.0
14.834,-1.024,-0.857,0.0
13.832,-0.953,-0.871,0.0
12.933,-0.89,-0.883,0.0
19.792,-1.359,-0.799,0.0
18.024,-1.235,-0.822,0.0
16.658,-1.139,-0.847,0.0
15.188,-1.037,-0.853,0.0
14.089,-0.96,-0.865,0.0
13.123,-0.893,-0.875,0.0
20.239,-1.374,-0.785,0.0
18.519,-1.254,-0.815,0.0
16.91,-1.143,-0.833,0.0
15.478,-1.045,-0.845,0.0
14.463,-0.974,-0.865,0.0
13.486,-0.907,-0.878,0.0
20.741,-1.391,-0.772,0.0
19.044,-1.274,-0.808,0.0
17.442,-1.165,-0.832,0.0
15.956,-1.063,-0.846,0.0
14.804,-0.985,-0.863,0.0
13.66,-0.907,-0.868,0.0
21.311,-1.411,-0.76,0.0
19.367,-1.279,-0.792,0.0
17.913,-1.181,-0.826,0.0
16.461,-1.082,-0.847,0.0
15.106,-0.991,-0.856,0.0
13.995,-0.916,-0.867,0.0
22.002,-1.437,-0.75,0.0
20.051,-1.307,-0.788,0.0
18.35,-1.193,-0.818,0.0
16.852,-1.093,-0.841,0.0
15.393,-0.996,-0.849,0.0
14.397,-0.929,-0.869,0.0
22.75,-1.465,-0.741,0.0
20.674,-1.328,-0.781,0.0
18.818,-1.205,-0.809,0.0
17.229,-1.101,-0.833,0.0
15.923,-1.015,-0.853,0.0
14.669,-0.932,-0.863,0.0
23.243,-1.474,-0.721,0.0
21.095,-1.334,-0.764,0.0
19.375,-1.222,-0.804,0.0
17.668,-1.111,-0.827,0.0
16.24,-1.018,-0.845,0.0
15.001,-0.938,-0.86,0.0
24.545,-1.531,-0.723,0.0
21.832,-1.358,-0.758,0.0
19.78,-1.227,-0.79,0.0
18.126,-1.121,-0.821,0.0
16.6,-1.024,-0.839,0.0
15.312,-0.942,-0.854,0.0
25.194,-1.545,-0.704,0.0
22.458,-1.373,-0.745,0.0
20.394,-1.243,-0.783,0.0
18.661,-1.134,-0.816,0.0
17.102,-1.036,-0.838,0.0
15.741,-0.951,-0.854,0.0
25.875,-1.559,-0.684,0.0
23.049,-1.384,-0.73,0.0
20.978,-1.255,-0.774,0.0
18.995,-1.133,-0.802,0.0
17.455,-1.038,-0.829,0.0
16.066,-0.952,-0.847,0.0
26.874,-1.588,-0.67,1.0
23.799,-1.402,-0.718,0.0
21.478,-1.261,-0.76,0.0
19.564,-1.144,-0.797,0.0
17.931,-1.045,-0.825,0.0
16.489,-0.958,-0.845,0.0
0.0,0.0,0.0,0.0
24.931,-1.439,-0.715,0.0
22.155,-1.274,-0.752,0.0
20.113,-1.153,-0.79,0.0
18.354,-1.048,-0.817,0.0
16.928,-0.963,-0.843,0.0
29.561,-1.677,-0.65,0.0
25.712,-1.453,-0.7,0.0
22.956,-1.292,-0.745,0.0
20.514,-1.15,-0.776,0.0
18.886,-1.055,-0.813,0.0
17.273,-0.961,-0.834,0.0
30.199,-1.676,-0.62,0.0
26.732,-1.477,-0.689,0.0
23.597,-1.298,-0.732,0.0
21.163,-1.16,-0.769,0.0
19.298,-1.053,-0.803,0.0
17.659,-0.96,-0.828,0.0
0.0,0.0,0.0,0.0
0.0,0.0,0.0,0.0
24.441,-1.313,-0.722,0.0
21.791,-1.166,-0.761,0.0
19.821,-1.056,-0.796,0.0
18.128,-0.961,-0.823,0.0
0.0,0.0,0.0,0.0
28.019,-1.474,-0.641,0.0
25.217,-1.32,-0.709,0.0
22.319,-1.164,-0.747,0.0
20.273,-1.052,-0.785,0.0
18.537,-0.958,-0.815,0.0
32.748,-1.686,-0.531,0.0
29.56,-1.515,-0.634,0.0
25.681,-1.31,-0.686,0.0
22.974,-1.166,-0.737,0.0
20.674,-1.044,-0.772,0.0
18.962,-0.953,-0.808,0.0
35.574,-1.783,-0.527,0.0
30.299,-1.51,-0.608,0.0
26.898,-1.334,-0.681,0.0
23.578,-1.164,-0.723,0.0
21.298,-1.046,-0.766,0.0
19.545,-0.955,-0.805,0.0
0.0,0.0,0.0,0.0
31.818,-1.541,-0.595,0.0
0.0,0.0,0.0,0.0
24.523,-1.174,-0.719,0.0
22.007,-1.048,-0.761,1.0
19.997,-0.947,-0.797,0.0
38.058,-1.796,-0.459,0.0
31.955,-1.5,-0.554,0.0
28.491,-1.33,-0.644,0.0
25.027,-1.161,-0.699,0.0
22.646,-1.045,-0.752,0.0
20.447,-0.938,-0.787,0.0
40.576,-1.854,-0.435,0.0
0.0,0.0,0.0,0.0
29.82,-1.346,-0.634,0.0
26.294,-1.18,-0.7,0.0
22.971,-1.025,-0.732,0.0
20.813,-0.923,-0.774,0.0
42.551,-1.88,-0.401,0.0
0.0,0.0,0.0,0.0
30.343,-1.323,-0.605,0.0
27.039,-1.172,-0.685,0.0
23.638,-1.018,-0.723,0.0
21.357,-0.914,-0.766,0.0
45.317,-1.931,-0.368,0.0
0.0,0.0,0.0,0.0
31.672,-1.331,-0.591,0.0
0.0,0.0,0.0,0.0
24.634,-1.022,-0.722,0.0
21.958,-0.905,-0.759,0.0
0.0,0.0,0.0,0.0
0.0,0.0,0.0,0.0
32.798,-1.326,-0.57,0.0
0.0,0.0,0.0,0.0
25.155,-1.002,-0.705,0.0
22.398,-0.886,-0.747,0.0
0.0,0.0,0.0,0.0
0.0,0.0,0.0,0.0
33.392,-1.296,-0.539,0.0
29.496,-1.136,-0.635,0.0
26.147,-0.999,-0.701,0.0
22.864,-0.867,-0.734,0.0
0.0,0.0,0.0,0.0
0.0,0.0,0.0,0.0
33.156,-1.231,-0.495,0.0
29.572,-1.089,-0.601,0.0
26.741,-0.977,-0.685,0.0
23.502,-0.852,-0.726,0.0
0.0,0.0,0.0,0.0
0.0,0.0,0.0,0.0
0.0,0.0,0.0,0.0
31.61,-1.111,-0.605,0.0
0.0,0.0,0.0,0.0
24.335,-0.841,-0.724,0.0
0.0,0.0,0.0,0.0
0.0,0.0,0.0,0.0
37.448,-1.262,-0.471,0.0
31.994,-1.068,-0.575,0.0
28.355,-0.939,-0.66,0.0
25.0,-0.82,-0.715,0.0
0.0,0.0,0.0,0.0
0.0,0.0,0.0,0.0
0.0,0.0,0.0,0.0
0.0,0.0,0.0,0.0
29.118,-0.913,-0.645,0.0
25.623,-0.795,-0.704,0.0
0.0,0.0,0.0,0.0
0.0,0.0,0.0,0.0
0.0,0.0,0.0,0.0
0.0,0.0,0.0,0.0
29.772,-0.88,-0.627,0.0
26.1,-0.763,-0.688,0.0
0.0,0.0,0.0,0.0
0.0,0.0,0.0,0.0
0.0,0.0,0.0,0.0
35.508,-0.996,-0.521,0.0
0.0,0.0,0.0,0.0
26.564,-0.729,-0.672,0.0
0.0,0.0,0.0,0.0
0.0,0.0,0.0,0.0
45.382,-1.206,-0.373,0.0
37.854,-0.994,-0.517,0.0
31.702,-0.822,-0.601,0.0
27.92,-0.715,-0.678,0.0
0.0,0.0,0.0,0.0
0.0,0.0,0.0,0.0
0.0,0.0,0.0,0.0
38.298,-0.934,-0.484,0.0
32.144,-0.774,-0.577,0.0
28.18,-0.669,-0.656,0.0
0.0,0.0,0.0,0.0
0.0,0.0,0.0,0.0
0.0,0.0,0.0,0.0
0.0,0.0,0.0,0.0
33.412,-0.741,-0.567,0.0
21.761,-0.475,-0.485,3.0
0.0,0.0,0.0,0.0
0.0,0.0,0.0,0.0
0.0,0.0,0.0,0.0
0.0,0.0,0.0,0.0
33.64,-0.682,-0.539,0.0
29.221,-0.582,-0.624,0.0
0.0,0.0,0.0,0.0
0.0,0.0,0.0,0.0
0.0,0.0,0.0,0.0
0.0,0.0,0.0,0.0
34.869,-0.64,-0.527,0.0
30.163,-0.543,-0.617,0.0
145.393,-2.581,1.054,25.0
0.0,0.0,0.0,0.0
0.0,0.0,0.0,0.0
0.0,0.0,0.0,0.0
0.0,0.0,0.0,0.0
30.473,-0.49,-0.596,0.0
19.755,-0.312,0.16,8.0
19.741,-0.305,0.054,1.0
0.0,0.0,0.0,0.0
0.0,0.0,0.0,0.0
0.0,0.0,0.0,0.0
31.003,-0.438,-0.581,0.0
19.748,-0.273,0.177,32.0
19.75,-0.266,0.071,7.0
0.0,0.0,0.0,0.0
0.0,0.0,0.0,0.0
0.0,0.0,0.0,0.0
31.803,-0.385,-0.57,0.0
19.762,-0.233,0.193,12.0
0.0,0.0,0.0,0.0
0.0,0.0,0.0,0.0
0.0,0.0,0.0,0.0
19.759,-0.207,-0.232,0.0
19.787,-0.2,-0.339,2.0
163.951,-1.611,1.731,14.0
160.813,-1.525,0.834,8.0
0.0,0.0,0.0,0.0
19.763,-0.174,-0.111,9.0
19.74,-0.167,-0.217,14.0
19.747,-0.16,-0.324,16.0
169.91,-1.327,1.919,6.0
160.558,-1.198,0.95,13.0
19.756,-0.14,0.01,7.0
19.715,-0.133,-0.097,14.0
19.722,-0.127,-0.203,16.0
19.745,-0.12,-0.31,16.0
19.712,-0.113,0.236,10.0
19.711,-0.107,0.13,13.0
19.708,-0.1,0.024,12.0
19.705,-0.093,-0.083,10.0
19.725,-0.086,-0.19,16.0
19.75,-0.08,-0.296,15.0
19.665,-0.073,0.249,12.0
19.697,-0.066,0.143,17.0
19.705,-0.06,0.037,16.0
19.708,-0.053,-0.071,15.0
19.734,-0.046,-0.177,14.0
19.776,-0.039,-0.284,1.0
19.633,-0.033,0.261,12.0
19.699,-0.026,0.155,6.0
19.701,-0.019,0.049,9.0
19.734,-0.012,-0.059,10.0
19.746,-0.006,-0.165,0.0
19.703,0.0,-0.271,0.0
19.63,0.007,0.272,15.0
19.727,0.014,0.167,6.0
19.746,0.02,0.06,13.0
19.747,0.027,-0.047,150.0
19.764,0.034,-0.154,15.0
19.775,0.041,-0.261,13.0
19.624,0.047,0.283,13.0
19.658,0.054,0.177,12.0
19.726,0.061,0.071,25.0
19.754,0.068,-0.037,37.0
19.758,0.075,-0.144,14.0
19.776,0.082,-0.251,2.0
19.605,0.088,0.293,18.0
19.662,0.096,0.188,13.0
19.647,0.102,0.081,13.0
19.649,0.109,-0.027,11.0
19.68,0.116,-0.133,8.0
37.016,0.231,-0.452,0.0
19.619,0.13,0.303,12.0
19.672,0.137,0.197,18.0
19.636,0.144,0.09,13.0
19.63,0.15,-0.017,22.0
19.639,0.157,-0.124,14.0
19.662,0.164,-0.231,15.0
19.664,0.172,0.313,9.0
19.674,0.179,0.206,12.0
19.67,0.185,0.099,11.0
19.647,0.192,-0.009,14.0
19.634,0.198,-0.115,17.0
19.646,0.205,-0.222,17.0
19.734,0.214,0.322,11.0
19.759,0.221,0.215,24.0
19.765,0.228,0.107,18.0
19.684,0.233,-0.001,5.0
19.649,0.24,-0.108,15.0
19.649,0.246,-0.215,17.0
19.712,0.255,0.329,14.0
19.749,0.262,0.222,18.0
19.785,0.27,0.115,2.0
61.644,0.863,0.017,0.0
19.712,0.282,-0.101,2.0
19.676,0.289,-0.208,4.0
19.738,0.297,0.336,4.0
163.24,2.519,1.893,22.0
113.858,1.795,0.7,10.0
55.205,0.89,0.032,26.0
45.114,0.743,-0.219,1.0
35.913,0.604,-0.37,0.0
55.166,0.95,0.957,78.0
55.159,0.969,0.656,73.0
55.167,0.988,0.355,69.0
55.158,1.006,0.048,43.0
45.003,0.836,-0.206,0.0
36.652,0.693,-0.368,1.0
179.442,3.469,3.161,17.0
162.911,3.204,1.98,25.0
113.374,2.27,0.758,16.0
0.0,0.0,0.0,0.0
48.268,0.998,-0.209,0.0
36.725,0.772,-0.36,2.0
179.281,3.849,3.199,17.0
128.705,2.805,1.592,24.0
113.299,2.508,0.781,14.0
62.339,1.401,0.082,0.0
44.088,1.005,-0.183,3.0
36.867,0.853,-0.354,2.0
98.857,2.331,1.782,73.0
70.932,1.695,0.89,18.0
70.695,1.714,0.5,24.0
0.0,0.0,0.0,0.0
0.0,0.0,0.0,0.0
0.0,0.0,0.0,0.0
0.0,0.0,0.0,0.0
0.0,0.0,0.0,0.0
0.0,0.0,0.0,0.0
40.154,1.071,0.065,159.0
40.137,1.085,-0.155,154.0
37.061,1.014,-0.346,3.0
0.0,0.0,0.0,0.0
0.0,0.0,0.0,0.0
40.121,1.142,0.293,150.0
40.121,1.155,0.068,89.0
40.123,1.169,-0.151,150.0
37.362,1.1,-0.346,3.0
40.125,1.2,0.737,150.0
40.114,1.213,0.516,150.0
40.125,1.226,0.295,111.0
40.121,1.239,0.07,150.0
40.122,1.252,-0.149,150.0
40.06,1.264,-0.37,0.0
40.129,1.284,0.738,150.0
40.125,1.297,0.517,150.0
40.118,1.309,0.296,150.0
40.083,1.321,0.071,55.0
40.126,1.336,-0.149,108.0
40.081,1.347,-0.37,1.0
162.515,5.54,2.991,3.0
70.944,2.441,0.914,3.0
71.07,2.468,0.524,7.0
40.101,1.405,0.07,44.0
40.119,1.419,-0.15,150.0
37.653,1.344,-0.349,0.0
44.376,1.604,0.815,77.0
43.77,1.597,0.562,89.0
43.631,1.605,0.319,150.0
41.533,1.541,0.07,2.0
40.619,1.52,-0.155,5.0
36.677,1.384,-0.342,1.0
41.522,1.588,0.759,145.0
40.724,1.569,0.519,150.0
40.411,1.57,0.292,150.0
40.344,1.58,0.065,150.0
40.34,1.593,-0.158,124.0
36.155,1.439,-0.341,1.0
40.415,1.628,0.734,2.0
100.488,4.08,1.27,9.0
63.939,2.616,0.454,4.0
45.173,1.862,0.066,71.0
40.325,1.676,-0.163,18.0
23.636,0.989,-0.226,24.0
23.629,1.001,0.426,39.0
23.621,1.008,0.295,42.0
23.614,1.014,0.164,46.0
23.611,1.022,0.03,41.0
23.603,1.029,-0.099,48.0
23.605,1.037,-0.23,61.0
23.588,1.047,0.42,77.0
23.601,1.055,0.29,76.0
23.586,1.062,0.159,70.0
23.595,1.069,0.026,67.0
23.597,1.077,-0.104,71.0
23.602,1.084,-0.235,61.0
23.6,1.096,0.415,62.0
23.605,1.104,0.284,44.0
23.617,1.112,0.153,38.0
23.627,1.119,0.02,39.0
23.644,1.127,-0.11,37.0
23.655,1.135,-0.242,34.0
23.632,1.146,0.41,3.0
23.661,1.154,0.279,0.0
62.632,3.074,0.39,6.0
45.166,2.231,0.026,49.0
40.321,2.004,-0.2,43.0
33.896,1.695,-0.357,2.0
45.218,2.284,0.771,54.0
45.228,2.298,0.519,6.0
62.753,3.207,0.372,6.0
45.168,2.322,0.012,45.0
40.314,2.084,-0.213,40.0
33.979,1.767,-0.369,8.0
45.223,2.374,0.756,1.0
45.208,2.386,0.504,8.0
45.21,2.4,0.252,56.0
45.177,2.412,-0.003,37.0
40.321,2.164,-0.228,39.0
33.613,1.814,-0.377,8.0
0.0,0.0,0.0,0.0
120.061,6.577,1.294,7.0
45.195,2.489,0.235,2.0
45.18,2.501,-0.021,26.0
40.315,2.244,-0.244,32.0
32.71,1.83,-0.38,6.0
45.211,2.552,0.721,0.0
99.667,5.654,1.033,10.0
45.176,2.576,0.216,8.0
45.176,2.588,-0.04,9.0
40.228,2.316,-0.26,27.0
32.448,1.878,-0.391,9.0
45.199,2.638,0.701,5.0
45.216,2.652,0.449,55.0
45.231,2.666,0.196,136.0
45.208,2.677,-0.061,4.0
39.874,2.372,-0.276,15.0
31.585,1.888,-0.395,9.0
99.777,6.016,1.501,9.0
99.67,6.038,0.942,6.0
45.174,2.749,0.174,31.0
40.311,2.463,-0.073,41.0
36.869,2.264,-0.274,2.0
30.881,1.905,-0.402,9.0
45.2,2.81,0.657,7.0
112.194,7.008,1.003,5.0
45.172,2.834,0.151,38.0
40.319,2.54,-0.094,43.0
36.562,2.313,-0.291,4.0
30.241,1.922,-0.41,8.0
99.861,6.399,1.398,12.0
45.213,2.909,0.379,3.0
45.185,2.92,0.126,102.0
40.322,2.616,-0.117,41.0
35.79,2.332,-0.305,3.0
29.778,1.949,-0.42,8.0
45.003,2.968,0.604,119.0
44.848,2.969,0.35,150.0
43.552,2.895,0.096,4.0
40.322,2.69,-0.141,41.0
35.523,2.38,-0.324,7.0
29.088,1.956,-0.428,8.0
41.516,2.813,0.532,7.0
41.95,2.853,0.302,4.0
42.211,2.882,0.066,16.0
40.323,2.764,-0.166,44.0
34.377,2.366,-0.335,7.0
28.499,1.968,-0.437,8.0
41.92,2.917,0.51,150.0
42.011,2.934,0.275,150.0
41.33,2.897,0.038,7.0
40.308,2.835,-0.192,58.0
32.166,2.271,-0.334,4.0
27.685,1.962,-0.443,7.0
41.133,2.935,0.473,127.0
41.0,2.935,0.241,101.0
40.32,2.897,0.01,44.0
40.293,2.905,-0.22,36.0
32.271,2.335,-0.358,9.0
27.105,1.968,-0.453,7.0
40.363,2.951,0.436,74.0
45.483,3.337,0.235,50.0
40.321,2.968,-0.018,45.0
39.965,2.951,-0.247,15.0
31.555,2.338,-0.372,9.0
26.403,1.963,-0.46,6.0
43.706,3.271,0.44,138.0
43.708,3.282,0.194,144.0
41.914,3.156,-0.049,140.0
0.0,0.0,0.0,0.0
30.923,2.343,-0.388,9.0
25.773,1.959,-0.468,6.0
43.713,3.344,0.408,127.0
0.0,0.0,0.0,0.0
41.92,3.227,-0.081,122.0
36.686,2.833,-0.281,4.0
30.259,2.343,-0.403,8.0
25.193,1.957,-0.477,6.0
41.904,3.276,0.358,126.0
41.875,3.283,0.121,150.0
40.1,3.153,-0.11,52.0
35.504,2.8,-0.301,4.0
29.002,2.294,-0.41,7.0
24.651,1.956,-0.487,5.0
41.907,3.344,0.324,118.0
40.11,3.21,0.083,95.0
40.092,3.218,-0.143,65.0
0.0,0.0,0.0,0.0
28.51,2.301,-0.426,7.0
24.271,1.964,-0.5,5.0
40.117,3.266,0.276,134.0
40.107,3.274,0.049,150.0
40.073,3.28,-0.177,60.0
32.74,2.687,-0.333,10.0
27.664,2.276,-0.437,7.0
23.976,1.978,-0.515,5.0
40.102,3.327,0.241,137.0
40.107,3.337,0.014,150.0
39.995,3.336,-0.211,36.0
31.916,2.669,-0.352,9.0
26.456,2.218,-0.442,6.0
23.662,1.99,-0.529,1.0
40.109,3.391,0.205,145.0
40.126,3.401,-0.021,115.0
0.0,0.0,0.0,0.0
31.032,2.643,-0.371,9.0
25.843,2.207,-0.456,6.0
19.735,1.69,-0.46,5.0
40.143,3.455,0.168,8.0
40.113,3.46,-0.059,106.0
0.0,0.0,0.0,0.0
30.21,2.618,-0.39,9.0
25.202,2.189,-0.468,12.0
22.11,1.926,-0.536,6.0
47.587,4.165,0.154,17.0
40.078,3.516,-0.097,47.0
35.783,3.146,-0.289,4.0
29.182,2.571,-0.404,8.0
24.631,2.175,-0.481,8.0
21.538,1.907,-0.543,5.0
46.953,4.177,0.107,21.0
42.734,3.809,-0.144,5.0
34.562,3.088,-0.313,8.0
28.179,2.523,-0.418,7.0
24.004,2.154,-0.492,5.0
21.06,1.894,-0.552,8.0
46.685,4.218,0.06,21.0
40.242,3.644,-0.176,15.0
33.182,3.01,-0.334,10.0
27.162,2.469,-0.43,7.0
23.508,2.142,-0.506,5.0
20.465,1.869,-0.557,8.0
46.389,4.255,0.012,21.0
40.174,3.692,-0.217,15.0
31.676,2.917,-0.351,9.0
26.417,2.437,-0.445,7.0
22.713,2.1,-0.512,6.0
19.546,1.811,-0.552,3.0
45.918,4.272,-0.034,20.0
0.0,0.0,0.0,0.0
30.774,2.874,-0.373,9.0
25.417,2.379,-0.455,6.0
22.154,2.077,-0.523,6.0
18.881,1.774,-0.553,19.0
44.849,4.231,-0.081,20.0
35.969,3.399,-0.269,2.0
29.587,2.801,-0.39,8.0
24.833,2.355,-0.471,6.0
21.577,2.05,-0.532,7.0
18.338,1.746,-0.556,16.0
43.923,4.198,-0.126,19.0
34.525,3.305,-0.295,2.0
28.514,2.734,-0.406,7.0
24.212,2.326,-0.485,5.0
21.311,2.051,-0.548,4.0
18.149,1.75,-0.571,19.0
40.403,3.91,-0.16,16.0
33.61,3.258,-0.325,10.0
27.523,2.673,-0.422,7.0
23.535,2.289,-0.498,5.0
18.563,1.809,-0.498,8.0
17.895,1.747,-0.582,16.0
0.0,0.0,0.0,0.0
31.781,3.118,-0.342,9.0
26.317,2.586,-0.433,6.0
22.842,2.248,-0.509,5.0
18.154,1.79,-0.508,16.0
17.646,1.743,-0.594,18.0
38.752,3.84,-0.24,14.0
30.842,3.061,-0.367,9.0
25.496,2.534,-0.449,6.0
22.133,2.203,-0.518,4.0
18.013,1.796,-0.524,20.0
17.461,1.744,-0.608,17.0
0.0,0.0,0.0,0.0
29.726,2.982,-0.388,8.0
24.78,2.489,-0.464,5.0
21.787,2.192,-0.535,1.0
17.747,1.788,-0.537,18.0
17.328,1.749,-0.624,18.0
0.0,0.0,0.0,0.0
28.538,2.893,-0.405,7.0
24.191,2.455,-0.482,8.0
18.232,1.853,-0.469,15.0
17.613,1.793,-0.554,17.0
17.148,1.748,-0.637,15.0
0.0,0.0,0.0,0.0
27.221,2.787,-0.419,7.0
23.533,2.412,-0.496,5.0
17.871,1.834,-0.481,16.0
17.427,1.791,-0.568,18.0
16.925,1.742,-0.649,14.0
31.607,3.262,-0.343,9.0
25.961,2.683,-0.43,6.0
22.857,2.365,-0.509,5.0
17.711,1.835,-0.498,18.0
17.281,1.792,-0.584,18.0
16.771,1.742,-0.663,14.0
30.357,3.161,-0.366,9.0
25.132,2.62,-0.446,8.0
18.186,1.898,-0.427,10.0
17.618,1.841,-0.516,18.0
17.097,1.789,-0.599,15.0
16.681,1.748,-0.68,13.0
29.469,3.094,-0.39,8.0
24.526,2.578,-0.465,5.0
17.846,1.878,-0.441,16.0
17.425,1.836,-0.532,15.0
16.83,1.775,-0.61,13.0
16.482,1.741,-0.692,12.0
28.091,2.973,-0.407,7.0
23.733,2.515,-0.479,5.0
17.698,1.877,-0.458,18.0
17.206,1.827,-0.546,12.0
16.692,1.775,-0.625,13.0
16.32,1.737,-0.705,12.0
26.263,2.8,-0.412,4.0
23.473,2.505,-0.503,1.0
17.626,1.883,-0.478,17.0
17.132,1.832,-0.565,16.0
16.655,1.783,-0.644,17.0
16.12,1.728,-0.716,9.0
25.489,2.737,-0.431,6.0
17.931,1.927,-0.406,15.0
17.478,1.88,-0.496,15.0
16.905,1.82,-0.578,14.0
16.555,1.785,-0.661,14.0
15.953,1.722,-0.729,11.0
24.814,2.682,-0.451,8.0
17.686,1.913,-0.422,15.0
17.306,1.874,-0.512,14.0
16.75,1.815,-0.594,12.0
16.343,1.773,-0.673,13.0
16.044,1.742,-0.753,3.0
24.362,2.649,-0.473,5.0
17.598,1.915,-0.442,19.0
17.169,1.87,-0.53,17.0
16.633,1.813,-0.61,13.0
16.262,1.774,-0.69,14.0
16.228,1.773,-0.782,2.0
17.918,1.959,-0.37,9.0
17.494,1.914,-0.461,17.0
17.03,1.865,-0.547,13.0
16.575,1.817,-0.629,15.0
16.104,1.767,-0.704,12.0
0.0,0.0,0.0,0.0
17.725,1.948,-0.388,16.0
17.373,1.911,-0.48,17.0
16.835,1.853,-0.562,13.0
16.425,1.81,-0.644,14.0
15.994,1.763,-0.719,14.0
17.204,1.899,-0.872,0.0
17.63,1.947,-0.408,20.0
17.2,1.901,-0.497,18.0
16.706,1.848,-0.579,14.0
16.316,1.806,-0.66,16.0
15.931,1.765,-0.736,8.0
17.101,1.896,-0.889,1.0
17.518,1.943,-0.428,17.0
17.101,1.898,-0.516,17.0
16.606,1.844,-0.596,13.0
16.228,1.804,-0.677,15.0
16.126,1.794,-0.766,2.0
17.008,1.893,-0.905,1.0
17.395,1.937,-0.447,17.0
16.969,1.891,-0.533,17.0
16.486,1.838,-0.613,15.0
16.125,1.799,-0.693,14.0
16.306,1.82,-0.795,2.0
16.933,1.892,-0.923,1.0
17.28,1.931,-0.465,18.0
16.778,1.876,-0.548,14.0
16.375,1.832,-0.629,16.0
16.016,1.793,-0.709,15.0
0.0,0.0,0.0,0.0
16.999,1.905,-0.948,0.0
17.166,1.924,-0.484,17.0
16.666,1.869,-0.565,15.0
16.32,1.831,-0.647,17.0
15.911,1.786,-0.724,11.0
16.833,1.891,-0.863,1.0
17.375,1.953,-0.991,0.0
17.045,1.916,-0.502,16.0
16.561,1.862,-0.583,16.0
16.273,1.83,-0.666,15.0
16.004,1.801,-0.749,4.0
16.865,1.899,-0.886,2.0
13.42,1.512,-0.782,0.0
16.903,1.904,-0.519,14.0
16.474,1.856,-0.601,16.0
16.145,1.82,-0.681,13.0
16.207,1.828,-0.779,2.0
16.775,1.893,-0.902,1.0
13.258,1.497,-0.79,0.0
16.784,1.894,-0.536,15.0
16.375,1.848,-0.617,17.0
16.036,1.811,-0.697,12.0
16.386,1.851,-0.808,2.0
16.831,1.902,-0.926,1.0
12.991,1.469,-0.79,0.0
16.683,1.885,-0.554,17.0
16.327,1.845,-0.636,17.0
15.957,1.804,-0.713,12.0
0.0,0.0,0.0,0.0
17.176,1.944,-0.967,0.0
12.791,1.448,-0.793,0.0
16.585,1.876,-0.571,18.0
16.296,1.844,-0.654,15.0
15.915,1.801,-0.731,8.0
16.719,1.893,-0.865,2.0
17.431,1.974,-1.003,0.0
12.736,1.443,-0.806,0.0
