X,Y,Z,Reflectivity
40.133,1.095,-0.161,150.0
36.622,0.987,-0.351,3.0
0.0,0.0,0.0,0.0
0.0,0.0,0.0,0.0
70.671,1.829,0.474,20.0
0.0,0.0,0.0,0.0
0.0,0.0,0.0,0.0
36.726,0.915,-0.372,2.0
99.006,2.425,1.718,60.0
71.055,1.717,0.836,19.0
70.846,1.688,0.438,4.0
45.48,1.069,0.023,1.0
43.976,1.019,-0.223,7.0
34.878,0.796,-0.371,1.0
128.858,2.89,2.172,9.0
128.72,2.845,1.452,15.0
86.898,1.892,0.495,2.0
54.765,1.175,0.001,1.0
41.607,0.878,-0.23,1.0
33.62,0.699,-0.373,2.0
163.62,3.335,2.683,17.0
162.833,3.263,1.763,27.0
55.181,1.088,0.29,5.0
55.124,1.068,-0.022,16.0
41.822,0.796,-0.25,2.0
33.466,0.625,-0.386,0.0
55.172,1.009,0.881,76.0
55.166,0.99,0.574,71.0
55.151,0.971,0.266,72.0
55.13,0.952,-0.045,13.0
40.969,0.694,-0.261,0.0
35.85,0.595,-0.428,1.0
19.744,0.319,0.307,0.0
163.433,2.591,1.637,15.0
0.0,0.0,0.0,0.0
55.036,0.834,-0.066,0.0
19.704,0.292,-0.133,5.0
19.664,0.284,-0.242,15.0
19.729,0.277,0.3,14.0
19.763,0.271,0.191,24.0
84.903,1.137,0.349,13.0
19.675,0.256,-0.03,2.0
19.633,0.249,-0.139,16.0
19.658,0.243,-0.248,18.0
19.735,0.236,0.294,13.0
19.766,0.229,0.184,25.0
19.691,0.221,0.074,9.0
19.661,0.214,-0.036,10.0
19.634,0.207,-0.144,16.0
19.648,0.201,-0.254,16.0
19.675,0.193,0.287,8.0
19.661,0.186,0.178,12.0
19.648,0.179,0.069,12.0
19.644,0.173,-0.041,13.0
19.651,0.166,-0.15,14.0
19.701,0.16,-0.259,1.0
19.64,0.152,0.282,11.0
19.658,0.145,0.173,14.0
19.636,0.138,0.064,13.0
19.65,0.131,-0.045,9.0
19.714,0.124,-0.154,0.0
33.418,0.199,-0.447,0.0
19.616,0.109,0.278,16.0
19.673,0.103,0.17,13.0
19.675,0.096,0.061,13.0
19.743,0.089,-0.049,16.0
19.766,0.082,-0.158,38.0
19.766,0.075,-0.268,62.0
19.62,0.068,0.274,13.0
19.704,0.061,0.167,10.0
19.743,0.054,0.058,16.0
19.747,0.047,-0.052,48.0
19.75,0.04,-0.161,10.0
19.761,0.033,-0.27,9.0
19.625,0.025,0.272,15.0
19.783,0.019,0.165,2.0
19.788,0.012,0.056,4.0
19.741,0.005,-0.054,6.0
19.756,-0.001,-0.163,0.0
0.0,0.0,0.0,0.0
19.633,-0.016,0.27,13.0
19.673,-0.023,0.162,9.0
19.701,-0.03,0.054,15.0
19.706,-0.037,-0.056,14.0
19.735,-0.044,-0.165,14.0
19.762,-0.051,-0.274,14.0
19.656,-0.058,0.269,11.0
19.696,-0.065,0.161,16.0
19.705,-0.072,0.053,15.0
19.71,-0.079,-0.057,11.0
19.721,-0.086,-0.165,17.0
19.746,-0.094,-0.274,16.0
19.7,-0.1,0.269,8.0
19.735,-0.107,0.161,10.0
19.745,-0.115,0.053,9.0
19.75,-0.122,-0.057,10.0
19.73,-0.129,-0.165,16.0
19.739,-0.136,-0.274,17.0
169.473,-1.23,2.324,17.0
160.744,-1.226,1.321,18.0
0.0,0.0,0.0,0.0
19.767,-0.165,-0.056,2.0
19.772,-0.172,-0.165,8.0
19.761,-0.179,-0.273,8.0
19.774,-0.186,0.272,0.0
160.681,-1.571,1.33,8.0
0.0,0.0,0.0,0.0
0.0,0.0,0.0,0.0
43.893,-0.476,-0.363,0.0
35.293,-0.396,-0.485,0.0
19.745,-0.228,0.273,10.0
19.75,-0.235,0.165,18.0
19.708,-0.241,0.057,0.0
0.0,0.0,0.0,0.0
0.0,0.0,0.0,0.0
0.0,0.0,0.0,0.0
19.76,-0.27,0.276,6.0
19.755,-0.277,0.168,26.0
19.754,-0.284,0.06,2.0
0.0,0.0,0.0,0.0
0.0,0.0,0.0,0.0
0.0,0.0,0.0,0.0
0.0,0.0,0.0,0.0
137.851,-2.228,1.197,151.0
0.0,0.0,0.0,0.0
0.0,0.0,0.0,0.0
0.0,0.0,0.0,0.0
0.0,0.0,0.0,0.0
0.0,0.0,0.0,0.0
137.855,-2.523,1.226,152.0
0.0,0.0,0.0,0.0
0.0,0.0,0.0,0.0
45.72,-0.887,-0.346,0.0
0.0,0.0,0.0,0.0
0.0,0.0,0.0,0.0
137.852,-2.817,1.261,150.0
0.0,0.0,0.0,0.0
0.0,0.0,0.0,0.0
0.0,0.0,0.0,0.0
37.54,-0.822,-0.479,0.0
0.0,0.0,0.0,0.0
137.926,-3.111,1.301,23.0
0.0,0.0,0.0,0.0
0.0,0.0,0.0,0.0
45.564,-1.077,-0.319,0.0
0.0,0.0,0.0,0.0
162.066,-3.938,2.463,4.0
162.136,-3.996,1.581,16.0
0.0,0.0,0.0,0.0
0.0,0.0,0.0,0.0
0.0,0.0,0.0,0.0
0.0,0.0,0.0,0.0
162.004,-4.273,2.519,9.0
162.04,-4.334,1.638,18.0
0.0,0.0,0.0,0.0
0.0,0.0,0.0,0.0
0.0,0.0,0.0,0.0
0.0,0.0,0.0,0.0
163.808,-4.66,2.61,9.0
162.046,-4.666,1.702,11.0
0.0,0.0,0.0,0.0
0.0,0.0,0.0,0.0
48.169,-1.439,-0.283,0.0
0.0,0.0,0.0,0.0
162.274,-4.95,2.654,4.0
161.937,-4.997,1.77,14.0
160.625,-5.013,0.884,6.0
0.0,0.0,0.0,0.0
0.0,0.0,0.0,0.0
0.0,0.0,0.0,0.0
162.214,-5.278,2.727,21.0
161.978,-5.331,1.846,27.0
160.74,-5.348,0.96,6.0
0.0,0.0,0.0,0.0
0.0,0.0,0.0,0.0
0.0,0.0,0.0,0.0
162.248,-5.61,2.808,16.0
162.029,-5.659,1.927,23.0
160.682,-5.668,1.041,16.0
0.0,0.0,0.0,0.0
0.0,0.0,0.0,0.0
0.0,0.0,0.0,0.0
162.221,-5.933,2.893,23.0
162.123,-5.988,2.014,12.0
0.0,0.0,0.0,0.0
0.0,0.0,0.0,0.0
0.0,0.0,0.0,0.0
0.0,0.0,0.0,0.0
162.239,-6.263,2.985,19.0
0.0,0.0,0.0,0.0
0.0,0.0,0.0,0.0
0.0,0.0,0.0,0.0
0.0,0.0,0.0,0.0
0.0,0.0,0.0,0.0
0.0,0.0,0.0,0.0
101.567,-4.158,1.381,26.0
101.478,-4.189,0.833,150.0
0.0,0.0,0.0,0.0
0.0,0.0,0.0,0.0
0.0,0.0,0.0,0.0
0.0,0.0,0.0,0.0
101.523,-4.354,1.445,44.0
0.0,0.0,0.0,0.0
0.0,0.0,0.0,0.0
0.0,0.0,0.0,0.0
45.444,-2.012,-0.337,0.0
0.0,0.0,0.0,0.0
0.0,0.0,0.0,0.0
101.545,-4.586,0.966,19.0
0.0,0.0,0.0,0.0
0.0,0.0,0.0,0.0
0.0,0.0,0.0,0.0
0.0,0.0,0.0,0.0
0.0,0.0,0.0,0.0
101.536,-4.778,1.037,173.0
102.619,-4.865,0.486,1.0
101.606,-4.853,-0.064,1.0
0.0,0.0,0.0,0.0
0.0,0.0,0.0,0.0
0.0,0.0,0.0,0.0
101.542,-4.973,1.112,167.0
103.228,-5.091,0.566,6.0
101.598,-5.045,0.012,1.0
0.0,0.0,0.0,0.0
0.0,0.0,0.0,0.0
0.0,0.0,0.0,0.0
101.568,-5.165,1.192,2.0
102.568,-5.251,0.642,2.0
0.0,0.0,0.0,0.0
0.0,0.0,0.0,0.0
140.729,-7.323,3.273,24.0
102.234,-5.353,1.829,1.0
101.55,-5.351,1.272,15.0
102.504,-5.435,0.724,1.0
0.0,0.0,0.0,0.0
0.0,0.0,0.0,0.0
140.676,-7.576,3.387,24.0
0.0,0.0,0.0,0.0
101.513,-5.532,1.355,9.0
101.484,-5.565,0.801,153.0
101.461,-5.597,0.257,1.0
0.0,0.0,0.0,0.0
163.373,-9.094,4.073,11.0
140.682,-7.875,2.753,19.0
140.729,-7.924,2.001,34.0
140.666,-7.965,1.233,15.0
0.0,0.0,0.0,0.0
59.269,-3.395,-0.114,0.0
148.358,-8.521,3.829,15.0
149.087,-8.61,3.049,19.0
149.18,-8.664,2.253,20.0
149.981,-8.759,1.449,16.0
109.58,-6.434,0.472,2.0
0.0,0.0,0.0,0.0
117.369,-6.948,3.136,9.0
148.745,-8.853,3.18,20.0
148.703,-8.896,2.384,23.0
149.937,-9.017,1.586,14.0
108.888,-6.581,0.57,2.0
0.0,0.0,0.0,0.0
117.237,-7.142,3.242,41.0
148.053,-9.066,3.304,17.0
148.599,-9.143,2.522,13.0
148.024,-9.155,1.708,14.0
117.126,-7.281,0.727,1.0
0.0,0.0,0.0,0.0
117.396,-7.351,3.361,21.0
117.182,-7.374,2.729,32.0
125.23,-7.918,2.248,36.0
125.288,-7.961,1.568,26.0
125.156,-7.989,0.899,4.0
0.0,0.0,0.0,0.0
124.782,-8.02,3.696,9.0
116.966,-7.552,2.84,24.0
117.4,-7.616,2.224,37.0
106.027,-6.911,1.433,24.0
99.835,-6.536,0.818,4.0
99.706,-6.558,0.285,10.0
109.308,-7.204,3.348,25.0
117.002,-7.745,2.96,21.0
117.409,-7.806,2.344,32.0
0.0,0.0,0.0,0.0
0.0,0.0,0.0,0.0
99.184,-6.682,0.386,6.0
109.173,-7.369,3.457,24.0
117.095,-7.937,3.084,8.0
148.303,-10.096,3.117,11.0
100.034,-6.839,1.56,6.0
100.059,-6.869,1.028,7.0
99.805,-6.881,0.495,8.0
109.346,-7.553,3.579,23.0
109.048,-7.562,2.989,47.0
109.29,-7.609,2.413,47.0
100.077,-6.997,1.668,9.0
100.083,-7.026,1.136,8.0
100.047,-7.051,0.604,10.0
108.92,-7.691,3.684,13.0
109.063,-7.731,3.109,42.0
109.268,-7.777,2.534,44.0
100.101,-7.151,1.779,7.0
100.087,-7.179,1.248,8.0
100.11,-7.209,0.717,11.0
107.2,-7.731,3.746,34.0
109.169,-7.903,3.235,22.0
133.337,-9.688,3.242,16.0
100.087,-7.3,1.892,1.0
100.081,-7.325,1.36,9.0
100.106,-7.355,0.829,13.0
108.164,-7.961,3.903,19.0
148.153,-10.941,4.559,18.0
0.0,0.0,0.0,0.0
124.059,-9.227,2.487,10.0
100.106,-7.471,1.475,8.0
100.057,-7.495,0.944,13.0
107.815,-8.089,4.015,26.0
108.463,-8.165,3.462,4.0
127.557,-9.634,3.395,9.0
127.473,-9.661,2.704,12.0
100.108,-7.613,1.593,11.0
100.056,-7.636,1.062,15.0
107.795,-8.239,4.142,22.0
108.318,-8.305,3.586,14.0
127.51,-9.809,3.546,23.0
127.473,-9.837,2.856,24.0
100.108,-7.75,1.711,9.0
100.102,-7.774,1.181,15.0
108.15,-8.412,4.284,15.0
108.507,-8.466,3.723,24.0
127.435,-9.972,3.696,6.0
127.499,-10.009,3.01,32.0
100.069,-7.88,1.832,6.0
100.069,-7.905,1.302,12.0
108.668,-8.596,4.436,21.0
108.745,-8.627,3.863,21.0
115.605,-9.199,3.494,18.0
127.521,-10.177,3.165,32.0
116.668,-9.338,2.279,15.0
100.092,-8.036,1.426,11.0
108.549,-8.727,4.566,22.0
109.055,-8.792,4.01,21.0
148.613,-12.015,4.677,9.0
127.489,-10.336,3.324,13.0
116.474,-9.47,2.419,30.0
100.066,-8.158,1.55,9.0
107.94,-8.813,4.675,22.0
109.133,-8.934,4.148,24.0
114.334,-9.385,3.741,4.0
127.53,-10.495,3.484,10.0
90.383,-7.458,1.991,37.0
90.403,-7.48,1.514,61.0
107.778,-8.93,4.805,26.0
108.747,-9.033,4.271,15.0
110.924,-9.236,3.769,18.0
114.489,-9.557,3.273,6.0
90.414,-7.567,2.107,25.0
90.402,-7.586,1.629,41.0
107.891,-9.067,4.948,34.0
108.094,-9.104,4.385,21.0
109.905,-9.279,3.876,14.0
114.376,-9.678,3.417,13.0
114.351,-9.7,2.812,10.0
90.411,-7.688,1.745,28.0
107.794,-9.18,5.083,22.0
107.99,-9.216,4.521,30.0
108.663,-9.295,3.974,19.0
116.761,-10.011,3.64,5.0
127.481,-10.956,3.301,23.0
90.385,-7.785,1.864,32.0
107.392,-9.263,5.205,27.0
107.722,-9.311,4.651,23.0
108.235,-9.374,4.1,31.0
109.673,-9.519,3.563,6.0
114.575,-9.967,3.117,12.0
90.413,-7.882,1.982,35.0
107.293,-9.366,5.342,17.0
107.641,-9.415,4.789,24.0
108.251,-9.487,4.243,22.0
108.431,-9.522,3.666,20.0
114.233,-10.052,3.258,10.0
90.394,-7.971,2.101,62.0
109.043,-9.628,5.573,10.0
107.693,-9.527,4.933,26.0
108.061,-9.577,4.379,27.0
108.269,-9.614,3.803,23.0
116.855,-10.396,3.487,6.0
127.533,-11.368,3.133,20.0
108.999,-9.729,5.716,23.0
108.272,-9.68,5.104,16.0
108.292,-9.699,4.532,21.0
108.047,-9.695,3.939,30.0
148.085,-13.31,4.616,14.0
127.519,-11.483,3.302,25.0
108.905,-9.821,5.858,20.0
108.479,-9.799,5.261,8.0
107.802,-9.753,4.657,23.0
108.489,-9.832,4.103,14.0
114.544,-10.398,3.726,8.0
127.501,-11.595,3.475,17.0
108.751,-9.903,5.997,24.0
108.679,-9.912,5.418,15.0
107.771,-9.844,4.803,23.0
108.721,-9.946,4.26,26.0
108.147,-9.909,3.665,23.0
108.102,-9.921,3.094,12.0
108.71,-9.991,6.143,23.0
108.497,-9.985,5.557,21.0
107.918,-9.946,4.956,19.0
108.426,-10.008,4.396,22.0
108.19,-10.0,3.814,12.0
108.069,-10.004,3.24,14.0
108.647,-10.072,6.29,23.0
108.082,-10.033,5.684,21.0
108.486,-10.083,5.132,22.0
108.871,-10.132,4.564,18.0
148.408,-13.831,5.438,6.0
114.338,-10.67,3.585,14.0
108.794,-10.168,6.449,22.0
108.606,-10.162,5.862,17.0
108.93,-10.205,5.303,21.0
109.931,-10.312,4.76,16.0
108.311,-10.172,4.118,23.0
148.218,-13.937,4.852,15.0
110.209,-10.379,6.686,20.0
108.755,-10.252,6.021,22.0
108.185,-10.209,5.416,20.0
109.743,-10.368,4.902,21.0
108.643,-10.275,4.279,21.0
148.217,-14.035,5.054,27.0
110.449,-10.473,6.851,22.0
108.746,-10.322,6.169,28.0
108.043,-10.265,5.558,27.0
0.0,0.0,0.0,0.0
110.328,-10.503,4.497,11.0
108.427,-10.334,3.846,10.0
110.477,-10.546,7.006,20.0
108.922,-10.405,6.33,16.0
108.172,-10.343,5.713,23.0
108.404,-10.374,5.141,20.0
110.042,-10.541,4.637,21.0
108.521,-10.406,4.0,23.0
110.153,-10.578,7.139,6.0
108.808,-10.457,6.474,10.0
108.573,-10.441,5.886,18.0
107.992,-10.394,5.271,24.0
109.75,-10.572,4.776,21.0
108.778,-10.488,4.159,20.0
107.04,-10.336,7.086,15.0
110.359,-10.663,6.72,15.0
108.625,-10.503,6.038,22.0
108.005,-10.449,5.42,27.0
108.323,-10.488,4.863,20.0
108.942,-10.556,4.314,17.0
0.0,0.0,0.0,0.0
108.064,-10.493,6.73,10.0
108.863,-10.577,6.202,18.0
108.105,-10.51,5.574,25.0
108.05,-10.51,5.0,26.0
109.966,-10.704,4.508,24.0
107.27,-10.458,7.398,17.0
110.427,-10.771,7.029,7.0
108.304,-10.568,6.32,15.0
108.205,-10.564,5.729,23.0
107.975,-10.547,5.144,27.0
109.862,-10.737,4.654,22.0
49.712,-4.866,3.497,9.0
107.593,-10.536,6.998,13.0
108.237,-10.603,6.464,18.0
108.814,-10.663,5.911,19.0
108.035,-10.592,5.296,6.0
108.891,-10.681,4.761,22.0
49.706,-4.883,3.565,20.0
108.045,-10.617,7.175,17.0
108.136,-10.629,6.607,16.0
108.07,-10.626,6.017,19.0
108.107,-10.633,5.446,13.0
108.728,-10.698,4.902,24.0
49.685,-4.897,3.631,25.0
108.084,-10.654,7.324,19.0
110.105,-10.855,6.876,12.0
107.884,-10.638,6.152,25.0
108.35,-10.686,5.604,19.0
108.331,-10.687,5.029,9.0
49.723,-4.914,3.701,3.0
49.538,-4.895,3.424,7.0
110.228,-10.894,7.032,16.0
108.009,-10.676,6.305,25.0
108.989,-10.773,5.783,19.0
108.128,-10.69,5.163,6.0
48.08,-4.761,3.644,17.0
49.537,-4.905,3.49,22.0
107.517,-10.647,7.003,14.0
108.123,-10.708,6.456,21.0
108.48,-10.743,5.901,19.0
108.146,-10.711,5.308,22.0
48.099,-4.772,3.709,28.0
49.642,-4.924,3.564,23.0
108.156,-10.727,7.188,19.0
108.355,-10.746,6.614,9.0
107.957,-10.706,6.016,23.0
108.202,-10.73,5.455,22.0
48.12,-4.78,3.775,6.0
49.685,-4.935,3.633,17.0
108.087,-10.732,7.328,21.0
109.884,-10.909,6.853,20.0
107.914,-10.712,6.156,28.0
108.793,-10.798,5.628,23.0
45.723,-4.546,3.648,13.0
48.086,-4.779,3.58,10.0
49.52,-4.921,3.422,11.0
110.054,-10.932,7.008,15.0
108.018,-10.727,6.304,21.0
108.979,-10.821,5.779,21.0
45.711,-4.547,3.707,8.0
48.074,-4.78,3.641,31.0
49.492,-4.919,3.485,22.0
107.498,-10.68,6.985,14.0
108.209,-10.747,6.453,19.0
108.564,-10.779,5.897,17.0
40.51,-4.03,3.338,12.0
48.074,-4.779,3.704,31.0
49.572,-4.926,3.554,22.0
108.171,-10.744,7.167,20.0
108.455,-10.768,6.607,9.0
107.957,-10.714,6.002,24.0
40.5,-4.027,3.389,31.0
48.106,-4.78,3.768,5.0
49.685,-4.934,3.625,16.0
108.086,-10.727,7.299,19.0
109.914,-10.903,6.836,19.0
107.881,-10.697,6.134,30.0
40.45,-4.018,3.437,28.0
45.742,-4.54,3.641,11.0
48.087,-4.77,3.569,5.0
49.5,-4.907,3.404,11.0
110.115,-10.91,6.985,17.0
108.011,-10.695,6.275,25.0
45.978,-4.561,3.963,6.0
45.733,-4.533,3.696,2.0
48.07,-4.761,3.627,16.0
49.558,-4.905,3.469,23.0
110.233,-10.903,7.127,4.0
108.12,-10.687,6.413,23.0
45.932,-4.549,4.016,30.0
40.468,-4.004,3.321,3.0
48.09,-4.754,3.688,18.0
49.68,-4.907,3.539,23.0
108.073,-10.667,7.12,17.0
108.142,-10.666,6.545,17.0
45.926,-4.538,4.072,39.0
40.448,-3.993,3.368,19.0
48.084,-4.742,3.746,6.0
49.69,-4.896,3.599,25.0
108.105,-10.642,7.252,18.0
108.05,-10.628,6.668,16.0
45.992,-4.533,4.133,18.0
40.36,-3.973,3.409,30.0
106.903,-10.514,8.455,14.0
49.745,-4.887,3.661,24.0
107.699,-10.571,7.35,18.0
110.288,-10.815,6.936,9.0
0.0,0.0,0.0,0.0
47.804,-4.692,4.093,15.0
0.0,0.0,0.0,0.0
49.72,-4.869,3.717,10.0
107.519,-10.518,7.46,18.0
110.426,-10.791,7.069,4.0
0.0,0.0,0.0,0.0
47.996,-4.693,4.165,8.0
47.62,-4.651,3.876,5.0
107.23,-10.461,8.139,17.0
49.698,-4.843,3.504,8.0
107.516,-10.466,7.004,11.0
47.784,-4.66,4.459,13.0
46.033,-4.484,4.046,26.0
47.66,-4.636,3.931,11.0
107.268,-10.421,8.261,18.0
49.735,-4.826,3.562,20.0
107.162,-10.385,7.099,16.0
47.777,-4.64,4.511,9.0
46.026,-4.463,4.097,33.0
47.806,-4.629,3.997,11.0
106.752,-10.323,8.337,18.0
49.767,-4.806,3.618,13.0
106.762,-10.297,7.187,15.0
45.731,-4.419,4.368,5.0
45.973,-4.436,4.141,21.0
47.975,-4.622,4.062,16.0
106.024,-10.201,8.393,8.0
107.003,-10.281,7.893,18.0
107.501,-10.314,7.35,17.0
39.247,-3.773,3.79,39.0
0.0,0.0,0.0,0.0
47.977,-4.598,4.112,22.0
107.88,-10.323,8.652,16.0
107.296,-10.252,8.024,15.0
107.682,-10.274,7.472,19.0
39.269,-3.754,3.832,33.0
0.0,0.0,0.0,0.0
48.186,-4.591,4.179,22.0
48.258,-4.591,3.918,4.0
106.273,-10.093,8.055,12.0
107.554,-10.2,7.57,17.0
39.257,-3.73,3.87,33.0
47.681,-4.522,4.441,9.0
48.206,-4.565,4.228,22.0
48.301,-4.566,3.969,13.0
106.273,-10.03,8.157,11.0
107.198,-10.101,7.647,14.0
39.264,-3.707,3.909,24.0
39.31,-3.704,3.699,21.0
48.905,-4.6,4.336,6.0
48.247,-4.53,4.01,36.0
108.0,-10.125,8.39,13.0
106.351,-9.953,7.685,17.0
39.255,-3.681,3.944,26.0
39.256,-3.674,3.73,32.0
46.026,-4.299,4.123,19.0
48.326,-4.506,4.06,32.0
108.253,-10.075,8.508,19.0
106.305,-9.876,7.778,21.0
40.102,-3.733,4.066,18.0
39.143,-3.636,3.755,39.0
0.0,0.0,0.0,0.0
48.364,-4.475,4.107,26.0
107.972,-9.973,8.581,11.0
106.085,-9.779,7.855,20.0
49.18,-4.542,5.03,5.0
39.181,-3.611,3.793,32.0
47.547,-4.373,4.343,31.0
48.328,-4.436,4.146,31.0
107.886,-9.883,8.667,11.0
106.107,-9.701,7.947,12.0
49.142,-4.501,5.069,9.0
39.25,-3.587,3.833,27.0
47.544,-4.336,4.383,11.0
48.303,-4.396,4.184,22.0
48.482,-4.403,3.935,3.0
108.792,-9.86,8.237,15.0
49.12,-4.46,5.107,14.0
39.251,-3.556,3.865,26.0
49.398,-4.465,4.594,4.0
47.601,-4.293,4.161,14.0
48.412,-4.357,3.967,7.0
108.922,-9.783,8.331,12.0
41.24,-3.71,4.32,32.0
39.258,-3.524,3.896,24.0
45.54,-4.078,4.27,5.0
47.632,-4.256,4.2,20.0
106.916,-9.533,8.842,15.0
111.65,-9.933,8.624,16.0
0.0,0.0,0.0,0.0
48.716,-4.331,4.872,7.0
45.608,-4.045,4.31,5.0
47.517,-4.204,4.225,30.0
106.784,-9.426,8.909,13.0
111.401,-9.81,8.685,18.0
47.823,-4.219,5.08,18.0
39.194,-3.449,3.947,23.0
49.236,-4.322,4.687,12.0
47.495,-4.159,4.256,34.0
106.654,-9.318,8.971,11.0
109.936,-9.582,8.645,7.0
49.563,-4.327,5.299,8.0
48.821,-4.251,4.95,5.0
45.563,-3.957,4.368,9.0
47.483,-4.114,4.286,42.0
106.401,-9.196,9.019,22.0
109.806,-9.467,8.705,19.0
50.252,-4.339,5.405,4.0
48.838,-4.206,4.983,17.0
49.014,-4.21,4.73,8.0
47.509,-4.07,4.318,36.0
106.632,-9.112,9.104,17.0
106.758,-9.1,8.528,16.0
50.17,-4.283,5.427,4.0
48.872,-4.161,5.016,22.0
48.887,-4.151,4.746,16.0
47.557,-4.027,4.35,28.0
106.673,-9.01,9.169,26.0
106.776,-8.995,8.59,21.0
105.9,-8.935,11.516,16.0
48.882,-4.113,5.044,34.0
48.866,-4.1,4.772,17.0
47.557,-3.979,4.376,21.0
106.701,-8.903,9.229,19.0
106.858,-8.892,8.654,22.0
105.941,-8.829,11.577,17.0
49.03,-4.074,5.085,29.0
48.952,-4.055,4.806,5.0
47.582,-3.93,4.403,19.0
106.66,-8.787,9.279,18.0
106.774,-8.772,8.7,19.0
106.028,-8.723,11.639,26.0
49.159,-4.032,5.123,33.0
106.336,-8.696,10.491,16.0
49.463,-4.033,4.6,17.0
106.946,-8.694,9.354,17.0
106.872,-8.664,8.756,17.0
106.097,-8.613,11.695,24.0
49.268,-3.987,5.156,31.0
106.701,-8.609,10.573,15.0
0.0,0.0,0.0,0.0
106.607,-8.55,9.37,18.0
106.786,-8.539,8.794,22.0
106.584,-8.534,11.793,21.0
49.386,-3.942,5.189,30.0
106.135,-8.445,10.56,17.0
49.439,-3.921,4.639,20.0
107.272,-8.483,9.469,17.0
107.935,-8.511,8.929,12.0
107.054,-8.451,11.885,21.0
49.248,-3.875,5.192,23.0
106.059,-8.319,10.59,21.0
49.478,-3.868,4.659,19.0
109.267,-8.515,9.683,9.0
107.353,-8.341,8.917,24.0
107.021,-8.325,11.917,23.0
49.312,-3.822,5.215,12.0
106.134,-8.201,10.631,16.0
49.51,-3.813,4.678,14.0
107.209,-8.231,9.533,19.0
110.002,-8.419,9.169,8.0
106.975,-8.195,11.944,26.0
107.215,-8.186,11.37,12.0
106.674,-8.116,10.715,20.0
49.577,-3.759,4.698,9.0
107.163,-8.099,9.557,20.0
107.22,-8.078,8.965,11.0
107.198,-8.084,11.996,23.0
49.384,-3.711,5.249,10.0
106.678,-7.988,10.741,18.0
107.084,-7.991,10.172,19.0
107.22,-7.975,9.585,17.0
110.306,-8.176,9.247,6.0
106.916,-7.932,11.987,21.0
106.771,-7.893,11.37,18.0
106.843,-7.87,10.778,19.0
49.599,-3.64,4.72,7.0
108.888,-7.964,9.754,18.0
110.191,-8.032,9.256,9.0
107.151,-7.816,12.032,25.0
107.285,-7.798,11.442,20.0
106.735,-7.729,10.784,22.0
109.196,-7.879,10.408,16.0
110.264,-7.927,9.892,16.0
107.725,-7.716,9.063,17.0
107.6,-7.712,12.096,25.0
106.794,-7.626,11.402,17.0
106.982,-7.61,10.821,19.0
106.747,-7.566,10.186,9.0
106.777,-7.541,9.59,9.0
107.211,-7.544,9.029,20.0
107.666,-7.581,12.112,11.0
106.455,-7.466,11.374,24.0
106.769,-7.46,10.806,17.0
107.886,-7.509,10.301,20.0
106.683,-7.398,9.587,17.0
107.214,-7.408,9.033,19.0
107.618,-7.437,12.111,2.0
106.396,-7.324,11.371,23.0
106.707,-7.318,10.802,16.0
110.854,-7.572,10.586,18.0
106.514,-7.248,9.573,18.0
106.355,-7.211,8.961,10.0
0.0,0.0,0.0,0.0
0.0,0.0,0.0,0.0
106.763,-7.182,10.806,18.0
108.102,-7.243,10.32,11.0
106.561,-7.112,9.573,16.0
106.554,-7.084,8.974,19.0
0.0,0.0,0.0,0.0
0.0,0.0,0.0,0.0
107.742,-7.105,10.898,14.0
107.663,-7.071,10.271,23.0
110.834,-7.251,9.948,10.0
106.646,-6.949,8.971,22.0
0.0,0.0,0.0,0.0
0.0,0.0,0.0,0.0
107.805,-6.964,10.892,16.0
107.469,-6.914,10.239,25.0
107.499,-6.888,9.635,10.0
106.902,-6.823,8.979,19.0
0.0,0.0,0.0,0.0
0.0,0.0,0.0,0.0
107.877,-6.824,10.882,16.0
109.281,-6.883,10.395,18.0
107.039,-6.714,9.576,6.0
107.162,-6.694,8.982,11.0
0.0,0.0,0.0,0.0
0.0,0.0,0.0,0.0
107.968,-6.683,10.87,15.0
109.313,-6.738,10.374,18.0
107.168,-6.578,9.565,13.0
108.634,-6.641,9.081,23.0
0.0,0.0,0.0,0.0
0.0,0.0,0.0,0.0
0.0,0.0,0.0,0.0
109.078,-6.574,10.325,19.0
107.58,-6.455,9.573,18.0
109.007,-6.512,9.084,14.0
0.0,0.0,0.0,0.0
0.0,0.0,0.0,0.0
0.0,0.0,0.0,0.0
108.931,-6.416,10.279,21.0
107.402,-6.298,9.525,25.0
108.494,-6.335,9.007,24.0
0.0,0.0,0.0,0.0
0.0,0.0,0.0,0.0
109.437,-6.325,10.925,7.0
109.033,-6.273,10.252,25.0
108.51,-6.215,9.586,25.0
108.482,-6.186,8.968,25.0
0.0,0.0,0.0,0.0
0.0,0.0,0.0,0.0
109.215,-6.163,10.861,16.0
109.254,-6.136,10.231,22.0
108.584,-6.07,9.551,23.0
108.496,-6.039,8.927,21.0
0.0,0.0,0.0,0.0
0.0,0.0,0.0,0.0
109.492,-6.026,10.842,20.0
109.03,-5.973,10.163,23.0
108.571,-5.92,9.503,22.0
111.681,-6.061,9.14,8.0
0.0,0.0,0.0,0.0
0.0,0.0,0.0,0.0
109.355,-5.867,10.778,7.0
125.815,-6.717,11.669,12.0
111.858,-5.944,9.736,15.0
108.914,-5.759,8.861,13.0
0.0,0.0,0.0,0.0
0.0,0.0,0.0,0.0
125.905,-6.58,12.345,2.0
112.272,-5.838,10.355,20.0
111.76,-5.784,9.669,25.0
111.703,-5.753,9.029,14.0
0.0,0.0,0.0,0.0
0.0,0.0,0.0,0.0
125.883,-6.405,12.272,9.0
112.456,-5.693,10.309,20.0
111.668,-5.626,9.599,27.0
111.812,-5.604,8.974,16.0
0.0,0.0,0.0,0.0
0.0,0.0,0.0,0.0
0.0,0.0,0.0,0.0
112.526,-5.54,10.248,19.0
111.876,-5.481,9.548,20.0
116.102,-5.659,9.246,18.0
0.0,0.0,0.0,0.0
0.0,0.0,0.0,0.0
126.506,-6.085,12.176,3.0
116.81,-5.59,10.562,10.0
116.525,-5.547,9.869,21.0
115.771,-5.482,9.143,26.0
0.0,0.0,0.0,0.0
0.0,0.0,0.0,0.0
0.0,0.0,0.0,0.0
116.63,-5.42,10.464,20.0
116.869,-5.401,9.817,27.0
115.497,-5.31,9.041,23.0
0.0,0.0,0.0,0.0
0.0,0.0,0.0,0.0
0.0,0.0,0.0,0.0
116.616,-5.257,10.377,13.0
116.766,-5.236,9.722,20.0
114.864,-5.124,8.906,23.0
0.0,0.0,0.0,0.0
0.0,0.0,0.0,0.0
0.0,0.0,0.0,0.0
124.072,-5.424,10.945,5.0
124.46,-5.411,10.264,11.0
115.02,-4.972,8.827,24.0
0.0,0.0,0.0,0.0
0.0,0.0,0.0,0.0
0.0,0.0,0.0,0.0
124.298,-5.262,10.863,15.0
115.288,-4.854,9.412,18.0
115.285,-4.827,8.751,27.0
0.0,0.0,0.0,0.0
0.0,0.0,0.0,0.0
0.0,0.0,0.0,0.0
124.12,-5.086,10.74,25.0
115.027,-4.687,9.291,25.0
115.292,-4.67,8.65,22.0
0.0,0.0,0.0,0.0
0.0,0.0,0.0,0.0
113.561,-4.525,10.389,3.0
124.379,-4.927,10.648,24.0
115.32,-4.541,9.21,26.0
115.398,-4.518,8.552,22.0
0.0,0.0,0.0,0.0
0.0,0.0,0.0,0.0
113.61,-4.374,10.286,5.0
124.374,-4.76,10.53,16.0
115.866,-4.408,9.143,23.0
115.402,-4.364,8.443,25.0
0.0,0.0,0.0,0.0
0.0,0.0,0.0,0.0
113.637,-4.223,10.177,2.0
115.287,-4.258,9.647,31.0
115.375,-4.235,8.989,24.0
115.677,-4.219,8.347,14.0
0.0,0.0,0.0,0.0
0.0,0.0,0.0,0.0
0.0,0.0,0.0,0.0
115.756,-4.121,9.566,23.0
115.078,-4.072,8.846,25.0
124.011,-4.359,8.818,17.0
0.0,0.0,0.0,0.0
113.766,-3.951,10.608,12.0
126.428,-4.362,11.056,2.0
116.321,-3.987,9.487,25.0
116.094,-3.954,8.799,15.0
124.266,-4.204,8.701,25.0
0.0,0.0,0.0,0.0
113.827,-3.803,10.487,12.0
126.362,-4.193,10.91,13.0
126.086,-4.157,10.143,20.0
116.143,-3.804,8.671,18.0
127.269,-4.141,8.767,9.0
0.0,0.0,0.0,0.0
113.785,-3.652,10.351,5.0
116.464,-3.713,9.919,12.0
125.858,-3.986,9.977,18.0
126.022,-3.964,9.261,19.0
118.02,-3.686,7.992,28.0
0.0,0.0,0.0,0.0
113.94,-3.51,10.229,2.0
126.588,-3.873,10.631,20.0
126.113,-3.832,9.847,16.0
140.359,-4.235,10.146,19.0
118.043,-3.538,7.851,19.0
0.0,0.0,0.0,0.0
0.0,0.0,0.0,0.0
0.0,0.0,0.0,0.0
126.15,-3.672,9.691,18.0
141.095,-4.079,10.023,16.0
125.014,-3.589,8.159,18.0
0.0,0.0,0.0,0.0
0.0,0.0,0.0,0.0
0.0,0.0,0.0,0.0
140.337,-3.909,10.602,12.0
141.823,-3.923,9.893,15.0
125.106,-3.435,8.002,11.0
114.004,-3.105,10.464,1.0
0.0,0.0,0.0,0.0
0.0,0.0,0.0,0.0
0.0,0.0,0.0,0.0
125.04,-3.306,8.558,23.0
116.021,-3.045,7.269,10.0
113.997,-2.966,10.31,4.0
0.0,0.0,0.0,0.0
0.0,0.0,0.0,0.0
0.0,0.0,0.0,0.0
125.254,-3.161,8.404,14.0
124.453,-3.118,7.629,27.0
0.0,0.0,0.0,0.0
0.0,0.0,0.0,0.0
0.0,0.0,0.0,0.0
0.0,0.0,0.0,0.0
0.0,0.0,0.0,0.0
124.847,-2.979,7.479,18.0
0.0,0.0,0.0,0.0
0.0,0.0,0.0,0.0
0.0,0.0,0.0,0.0
0.0,0.0,0.0,0.0
0.0,0.0,0.0,0.0
124.242,-2.82,7.264,15.0
0.0,0.0,0.0,0.0
0.0,0.0,0.0,0.0
0.0,0.0,0.0,0.0
0.0,0.0,0.0,0.0
0.0,0.0,0.0,0.0
141.87,-3.058,8.088,10.0
0.0,0.0,0.0,0.0
0.0,0.0,0.0,0.0
0.0,0.0,0.0,0.0
0.0,0.0,0.0,0.0
125.116,-2.579,7.673,2.0
0.0,0.0,0.0,0.0
0.0,0.0,0.0,0.0
0.0,0.0,0.0,0.0
0.0,0.0,0.0,0.0
0.0,0.0,0.0,0.0
0.0,0.0,0.0,0.0
0.0,0.0,0.0,0.0
0.0,0.0,0.0,0.0
0.0,0.0,0.0,0.0
0.0,0.0,0.0,0.0
0.0,0.0,0.0,0.0
0.0,0.0,0.0,0.0
0.0,0.0,0.0,0.0
0.0,0.0,0.0,0.0
0.0,0.0,0.0,0.0
0.0,0.0,0.0,0.0
0.0,0.0,0.0,0.0
189.99,-3.304,10.762,22.0
189.963,-3.273,9.654,14.0
0.0,0.0,0.0,0.0
0.0,0.0,0.0,0.0
0.0,0.0,0.0,0.0
0.0,0.0,0.0,0.0
0.0,0.0,0.0,0.0
0.0,0.0,0.0,0.0
0.0,0.0,0.0,0.0
0.0,0.0,0.0,0.0
190.425,-2.979,12.398,7.0
0.0,0.0,0.0,0.0
0.0,0.0,0.0,0.0
0.0,0.0,0.0,0.0
0.0,0.0,0.0,0.0
0.0,0.0,0.0,0.0
0.0,0.0,0.0,0.0
0.0,0.0,0.0,0.0
0.0,0.0,0.0,0.0
0.0,0.0,0.0,0.0
0.0,0.0,0.0,0.0
0.0,0.0,0.0,0.0
0.0,0.0,0.0,0.0
0.0,0.0,0.0,0.0
0.0,0.0,0.0,0.0
0.0,0.0,0.0,0.0
0.0,0.0,0.0,0.0
0.0,0.0,0.0,0.0
0.0,0.0,0.0,0.0
0.0,0.0,0.0,0.0
0.0,0.0,0.0,0.0
0.0,0.0,0.0,0.0
0.0,0.0,0.0,0.0
0.0,0.0,0.0,0.0
0.0,0.0,0.0,0.0
0.0,0.0,0.0,0.0
0.0,0.0,0.0,0.0
186.385,-2.136,7.561,13.0
0.0,0.0,0.0,0.0
0.0,0.0,0.0,0.0
0.0,0.0,0.0,0.0
0.0,0.0,0.0,0.0
0.0,0.0,0.0,0.0
186.5,-1.977,7.23,4.0
0.0,0.0,0.0,0.0
0.0,0.0,0.0,0.0
0.0,0.0,0.0,0.0
0.0,0.0,0.0,0.0
186.776,-1.848,7.991,5.0
184.273,-1.802,6.81,19.0
0.0,0.0,0.0,0.0
0.0,0.0,0.0,0.0
0.0,0.0,0.0,0.0
0.0,0.0,0.0,0.0
184.09,-1.674,7.535,18.0
19.771,-0.177,0.694,2.0
0.0,0.0,0.0,0.0
0.0,0.0,0.0,0.0
0.0,0.0,0.0,0.0
184.793,-1.558,8.299,11.0
183.989,-1.531,7.19,20.0
19.737,-0.162,0.656,7.0
0.0,0.0,0.0,0.0
0.0,0.0,0.0,0.0
0.0,0.0,0.0,0.0
184.504,-1.418,7.937,21.0
19.783,-0.149,0.735,2.0
19.735,-0.147,0.618,2.0
0.0,0.0,0.0,0.0
0.0,0.0,0.0,0.0
0.0,0.0,0.0,0.0
184.371,-1.284,7.573,21.0
19.727,-0.135,0.695,1.0
19.708,-0.133,0.579,7.0
0.0,0.0,0.0,0.0
0.0,0.0,0.0,0.0
186.358,-1.188,8.404,7.0
19.708,-0.123,0.771,1.0
19.658,-0.121,0.654,9.0
19.651,-0.119,0.539,9.0
0.0,0.0,0.0,0.0
0.0,0.0,0.0,0.0
184.775,-1.057,7.972,18.0
19.675,-0.11,0.731,8.0
19.649,-0.108,0.615,13.0
19.646,-0.107,0.501,12.0
0.0,0.0,0.0,0.0
186.241,-0.965,8.754,17.0
19.623,-0.1,0.807,0.0
19.66,-0.098,0.691,10.0
19.637,-0.096,0.576,13.0
19.651,-0.095,0.461,10.0
0.0,0.0,0.0,0.0
185.15,-0.849,8.33,16.0
19.71,-0.088,0.771,5.0
19.638,-0.086,0.651,13.0
19.636,-0.085,0.536,12.0
19.638,-0.083,0.422,9.0
19.576,-0.08,0.956,0.0
184.775,-0.744,7.942,20.0
19.674,-0.077,0.73,9.0
19.634,-0.076,0.612,13.0
19.63,-0.074,0.497,12.0
19.645,-0.073,0.382,9.0
19.626,-0.07,0.918,1.0
19.729,-0.069,0.807,0.0
19.651,-0.067,0.689,12.0
19.629,-0.066,0.571,13.0
19.634,-0.064,0.457,13.0
19.639,-0.063,0.342,11.0
19.613,-0.06,0.878,3.0
19.691,-0.059,0.766,8.0
19.635,-0.057,0.648,13.0
19.619,-0.056,0.531,12.0
19.635,-0.055,0.417,12.0
19.635,-0.054,0.302,10.0
19.624,-0.051,0.838,0.0
19.664,-0.05,0.724,10.0
19.625,-0.049,0.608,12.0
19.623,-0.047,0.491,12.0
19.624,-0.046,0.376,10.0
19.635,-0.045,0.261,11.0
19.713,-0.043,0.801,2.0
19.647,-0.042,0.683,12.0
19.621,-0.04,0.567,13.0
19.611,-0.039,0.45,12.0
19.626,-0.038,0.335,11.0
19.645,-0.037,0.221,15.0
19.681,-0.035,0.758,9.0
19.628,-0.034,0.641,13.0
19.614,-0.033,0.526,12.0
19.623,-0.032,0.409,12.0
19.626,-0.031,0.294,12.0
19.658,-0.03,0.18,9.0
19.664,-0.028,0.716,12.0
19.625,-0.027,0.6,13.0
19.614,-0.026,0.485,12.0
19.625,-0.026,0.368,12.0
19.622,-0.025,0.253,13.0
19.678,-0.024,0.139,5.0
19.64,-0.022,0.674,13.0
19.619,-0.021,0.558,13.0
19.617,-0.02,0.443,13.0
19.609,-0.02,0.326,13.0
19.637,-0.019,0.212,14.0
19.681,-0.018,0.097,6.0
19.628,-0.017,0.632,13.0
19.615,-0.016,0.517,12.0
19.618,-0.015,0.402,12.0
19.627,-0.014,0.285,13.0
19.721,-0.014,0.171,6.0
19.737,-0.013,0.055,8.0
19.621,-0.012,0.59,13.0
19.616,-0.011,0.475,12.0
19.61,-0.011,0.36,12.0
19.626,-0.01,0.243,14.0
19.719,-0.01,0.129,1.0
19.732,-0.009,0.014,12.0
19.62,-0.008,0.549,13.0
19.627,-0.007,0.434,11.0
19.616,-0.007,0.318,13.0
19.633,-0.006,0.202,14.0
19.768,-0.006,0.087,3.0
19.743,-0.006,-0.027,9.0
19.621,-0.005,0.507,13.0
19.613,-0.004,0.392,13.0
19.619,-0.004,0.277,13.0
19.768,-0.003,0.161,2.0
19.765,-0.003,0.045,6.0
19.777,-0.003,-0.069,1.0
19.626,-0.002,0.465,12.0
19.627,-0.002,0.35,14.0
19.621,-0.001,0.235,15.0
19.778,-0.001,0.119,1.0
19.742,-0.001,0.003,9.0
19.752,-0.001,-0.112,0.0
19.625,0.0,0.423,12.0
19.627,0.0,0.308,13.0
19.663,0.0,0.193,10.0
19.8,0.0,0.076,3.0
19.74,0.0,-0.039,8.0
19.68,0.0,-0.153,0.0
19.625,0.0,0.381,13.0
19.636,0.0,0.266,13.0
19.803,0.0,0.152,1.0
19.742,0.0,0.034,6.0
19.785,0.0,-0.081,0.0
19.774,0.0,-0.197,0.0
19.622,0.0,0.338,13.0
19.64,0.0,0.223,15.0
19.8,0.0,0.109,2.0
19.746,0.0,-0.008,9.0
19.767,0.0,-0.124,0.0
19.698,0.0,-0.239,0.0
19.629,0.0,0.296,14.0
19.719,0.0,0.182,5.0
19.786,0.0,0.066,4.0
19.743,0.0,-0.05,4.0
19.826,0.0,-0.167,0.0
19.744,0.0,-0.282,0.0
19.644,0.0,0.254,15.0
19.755,0.0,0.139,1.0
19.726,-0.001,0.023,9.0
19.752,-0.001,-0.093,0.0
0.0,0.0,0.0,0.0
0.0,0.0,0.0,0.0
19.641,-0.002,0.211,15.0
19.797,-0.002,0.097,2.0
19.741,-0.003,-0.018,9.0
19.698,-0.003,-0.136,0.0
0.0,0.0,0.0,0.0
30.147,-0.006,-0.561,0.0
19.792,-0.005,0.17,3.0
19.756,-0.005,0.054,6.0
19.761,-0.006,-0.061,2.0
42.104,-0.014,-0.381,0.0
34.993,-0.012,-0.521,0.0
29.275,-0.011,-0.608,0.0
19.706,-0.008,0.127,1.0
19.725,-0.009,0.012,11.0
19.773,-0.009,-0.103,2.0
38.122,-0.019,-0.426,0.0
31.712,-0.017,-0.541,0.0
27.326,-0.016,-0.626,0.0
19.74,-0.012,0.085,7.0
19.735,-0.013,-0.03,11.0
19.766,-0.014,-0.145,1.0
0.0,0.0,0.0,0.0
29.974,-0.023,-0.575,0.0
26.092,-0.021,-0.653,0.0
19.715,-0.017,0.043,13.0
19.763,-0.018,-0.072,4.0
19.777,-0.019,-0.188,0.0
34.435,-0.034,-0.533,0.0
28.815,-0.03,-0.614,0.0
25.029,-0.027,-0.68,0.0
19.732,-0.023,0.001,14.0
19.753,-0.024,-0.113,9.0
19.742,-0.024,-0.229,0.0
0.0,0.0,0.0,0.0
26.665,-0.036,-0.625,0.0
23.894,-0.033,-0.7,0.0
19.73,-0.029,-0.04,12.0
19.752,-0.03,-0.155,8.0
19.658,-0.031,-0.27,0.0
29.641,-0.048,-0.584,0.0
25.956,-0.044,-0.663,0.0
22.774,-0.039,-0.715,0.0
19.757,-0.036,-0.081,11.0
19.767,-0.037,-0.197,8.0
19.727,-0.038,-0.312,0.0
28.59,-0.057,-0.623,0.0
24.667,-0.051,-0.682,0.0
21.367,-0.045,-0.716,0.0
19.744,-0.044,-0.123,14.0
19.741,-0.045,-0.238,8.0
30.758,-0.072,-0.551,0.0
26.709,-0.064,-0.637,0.0
23.167,-0.057,-0.689,0.0
20.804,-0.052,-0.74,0.0
19.75,-0.052,-0.164,15.0
19.765,-0.053,-0.28,8.0
19.795,-0.055,-0.396,0.0
25.92,-0.074,-0.673,0.0
22.547,-0.066,-0.717,0.0
19.79,-0.059,-0.745,2.0
19.757,-0.061,-0.205,15.0
19.765,-0.063,-0.321,7.0
19.787,-0.064,-0.436,1.0
19.795,-0.066,-0.554,0.0
21.243,-0.072,-0.72,0.0
19.651,-0.068,-0.781,1.0
19.753,-0.071,-0.245,15.0
19.776,-0.073,-0.361,10.0
19.762,-0.074,-0.477,3.0
19.772,-0.076,-0.594,1.0
19.813,-0.077,-0.712,1.0
18.775,-0.075,-0.784,0.0
19.768,-0.082,-0.286,15.0
19.758,-0.083,-0.401,12.0
19.754,-0.085,-0.516,10.0
19.766,-0.087,-0.634,5.0
19.724,-0.088,-0.749,4.0
18.145,-0.082,-0.795,0.0
19.762,-0.093,-0.325,14.0
19.741,-0.094,-0.44,14.0
19.75,-0.096,-0.556,13.0
19.757,-0.098,-0.674,10.0
19.512,-0.098,-0.78,2.0
17.507,-0.09,-0.802,0.0
19.754,-0.105,-0.365,16.0
19.742,-0.106,-0.48,15.0
19.754,-0.108,-0.596,15.0
19.74,-0.11,-0.713,13.0
18.834,-0.107,-0.791,0.0
16.825,-0.097,-0.805,0.0
19.74,-0.117,-0.404,17.0
19.738,-0.119,-0.519,16.0
19.745,-0.121,-0.635,14.0
19.696,-0.123,-0.751,7.0
17.914,-0.113,-0.788,0.0
16.344,-0.105,-0.815,0.0
19.741,-0.131,-0.444,18.0
19.741,-0.133,-0.559,17.0
19.739,-0.135,-0.674,16.0
19.478,-0.135,-0.781,1.0
17.626,-0.124,-0.81,0.0
15.803,-0.113,-0.819,0.0
19.745,-0.145,-0.482,18.0
19.747,-0.147,-0.598,17.0
19.742,-0.149,-0.713,14.0
18.789,-0.144,-0.791,0.0
16.907,-0.131,-0.81,0.0
15.479,-0.122,-0.833,0.0
19.75,-0.159,-0.521,19.0
19.759,-0.161,-0.636,13.0
19.71,-0.163,-0.75,6.0
18.118,-0.152,-0.797,0.0
16.426,-0.14,-0.819,0.0
15.04,-0.13,-0.838,0.0
19.776,-0.175,-0.559,9.0
19.796,-0.177,-0.675,5.0
19.482,-0.177,-0.778,1.0
17.412,-0.16,-0.799,0.0
15.913,-0.148,-0.823,0.0
14.688,-0.138,-0.846,0.0
23.108,-0.223,-0.697,0.0
19.773,-0.193,-0.712,7.0
18.821,-0.186,-0.787,0.0
17.002,-0.17,-0.812,0.0
15.486,-0.156,-0.83,0.0
14.183,-0.145,-0.843,0.0
22.45,-0.235,-0.719,1.0
19.736,-0.209,-0.747,6.0
18.146,-0.194,-0.793,0.0
16.489,-0.178,-0.818,0.0
15.076,-0.165,-0.836,0.0
13.822,-0.153,-0.847,0.0
21.532,-0.243,-0.729,0.0
19.532,-0.223,-0.775,2.0
17.65,-0.204,-0.803,0.0
15.959,-0.187,-0.821,0.0
14.688,-0.174,-0.841,0.0
13.534,-0.162,-0.855,0.0
19.856,-0.242,-0.708,2.0
18.933,-0.233,-0.785,0.0
17.128,-0.213,-0.81,0.0
15.509,-0.195,-0.826,0.0
14.198,-0.181,-0.839,0.0
13.217,-0.17,-0.858,0.0
19.8,-0.26,-0.742,4.0
18.35,-0.243,-0.794,0.0
16.445,-0.22,-0.808,0.0
15.144,-0.205,-0.834,0.0
13.91,-0.19,-0.847,0.0
12.975,-0.179,-0.866,0.0
19.652,-0.276,-0.771,1.0
17.67,-0.251,-0.796,0.0
16.0,-0.23,-0.814,0.0
14.794,-0.214,-0.84,0.0
13.642,-0.2,-0.854,0.0
12.692,-0.188,-0.869,0.0
19.105,-0.287,-0.782,1.0
17.184,-0.261,-0.804,0.0
15.656,-0.24,-0.823,0.0
14.294,-0.221,-0.836,0.0
13.314,-0.208,-0.857,0.0
12.438,-0.196,-0.873,0.0
18.514,-0.297,-0.789,0.0
16.789,-0.272,-0.814,0.0
15.341,-0.251,-0.833,0.0
14.007,-0.231,-0.843,0.0
13.074,-0.218,-0.864,0.0
12.192,-0.205,-0.876,0.0
17.913,-0.306,-0.794,0.0
16.253,-0.28,-0.815,0.0
14.99,-0.261,-0.839,0.0
13.747,-0.241,-0.851,0.0
12.731,-0.225,-0.862,0.0
11.984,-0.214,-0.882,0.0
17.461,-0.316,-0.803,0.0
15.82,-0.289,-0.819,0.0
14.594,-0.269,-0.841,0.0
13.392,-0.249,-0.851,0.0
12.519,-0.235,-0.868,0.0
11.762,-0.223,-0.885,0.0
16.965,-0.326,-0.808,0.0
15.502,-0.3,-0.828,0.0
14.224,-0.278,-0.842,0.0
13.198,-0.26,-0.86,0.0
12.373,-0.246,-0.878,0.0
11.555,-0.232,-0.888,0.0
16.516,-0.335,-0.812,0.0
15.091,-0.309,-0.83,0.0
13.998,-0.289,-0.851,0.0
12.899,-0.269,-0.861,0.0
11.992,-0.252,-0.87,0.0
11.344,-0.24,-0.889,0.0
16.071,-0.345,-0.816,0.0
14.897,-0.322,-0.842,0.0
13.63,-0.297,-0.85,0.0
12.722,-0.28,-0.869,0.0
11.894,-0.264,-0.881,0.0
11.209,-0.25,-0.896,0.0
15.647,-0.354,-0.818,0.0
14.503,-0.33,-0.842,0.0
13.342,-0.306,-0.852,0.0
12.47,-0.289,-0.87,0.0
11.662,-0.272,-0.882,0.0
10.986,-0.258,-0.895,0.0
15.416,-0.366,-0.828,0.0
14.192,-0.34,-0.845,0.0
13.21,-0.319,-0.863,0.0
12.158,-0.296,-0.866,0.0
11.518,-0.282,-0.888,0.0
10.838,-0.268,-0.899,0.0
15.101,-0.377,-0.833,0.0
13.942,-0.351,-0.85,0.0
12.901,-0.327,-0.862,0.0
11.991,-0.306,-0.872,0.0
11.36,-0.292,-0.892,0.0
10.705,-0.277,-0.903,0.0
14.858,-0.389,-0.841,0.0
13.676,-0.36,-0.853,0.0
12.695,-0.337,-0.866,0.0
11.916,-0.319,-0.883,0.0
11.2,-0.302,-0.895,0.0
10.541,-0.286,-0.904,0.0
14.407,-0.395,-0.835,0.0
17.803,-0.492,-1.135,0.0
12.474,-0.347,-0.868,0.0
11.729,-0.329,-0.885,0.0
11.018,-0.311,-0.895,0.0
10.411,-0.296,-0.907,0.0
14.197,-0.407,-0.842,0.0
17.794,-0.514,-1.159,0.0
12.336,-0.358,-0.875,0.0
11.497,-0.337,-0.883,0.0
10.883,-0.321,-0.899,0.0
10.258,-0.304,-0.907,0.0
17.813,-0.533,-1.08,0.0
17.783,-0.536,-1.181,0.0
12.102,-0.367,-0.874,0.0
11.36,-0.347,-0.887,0.0
10.776,-0.332,-0.904,0.0
10.157,-0.315,-0.911,0.0
13.797,-0.431,-0.854,0.0
12.701,-0.399,-0.859,0.0
11.988,-0.379,-0.881,0.0
11.215,-0.357,-0.89,0.0
10.594,-0.34,-0.902,0.0
10.035,-0.324,-0.913,0.0
13.48,-0.438,-0.851,0.0
12.592,-0.412,-0.867,0.0
11.809,-0.389,-0.882,0.0
11.101,-0.368,-0.894,0.0
10.465,-0.349,-0.904,0.0
9.917,-0.333,-0.914,0.0
13.243,-0.448,-0.851,0.0
12.385,-0.422,-0.868,0.0
11.626,-0.398,-0.882,0.0
10.955,-0.378,-0.895,0.0
10.368,-0.36,-0.907,0.0
9.818,-0.343,-0.916,0.0
13.037,-0.458,-0.853,0.0
12.261,-0.434,-0.873,0.0
11.505,-0.41,-0.886,0.0
10.826,-0.388,-0.897,0.0
10.253,-0.37,-0.909,0.0
9.68,-0.351,-0.914,0.0
12.953,-0.473,-0.862,0.0
12.106,-0.444,-0.875,0.0
11.425,-0.422,-0.892,0.0
10.736,-0.399,-0.901,0.0
10.15,-0.38,-0.911,0.0
9.603,-0.362,-0.917,0.0
12.789,-0.484,-0.865,0.0
11.984,-0.456,-0.879,0.0
11.268,-0.432,-0.892,0.0
10.647,-0.41,-0.905,0.0
10.042,-0.389,-0.912,0.0
9.547,-0.373,-0.922,0.0
12.603,-0.494,-0.865,0.0
11.862,-0.468,-0.882,0.0
11.155,-0.443,-0.894,0.0
10.507,-0.419,-0.904,0.0
9.963,-0.4,-0.915,0.0
9.434,-0.381,-0.92,0.0
12.456,-0.505,-0.867,0.0
11.697,-0.477,-0.882,0.0
11.052,-0.454,-0.896,0.0
10.41,-0.43,-0.905,0.0
9.872,-0.41,-0.916,0.0
9.349,-0.391,-0.921,0.0
12.381,-0.52,-0.874,0.0
11.614,-0.49,-0.886,0.0
10.895,-0.462,-0.894,0.0
10.304,-0.44,-0.906,0.0
9.769,-0.419,-0.915,0.0
9.282,-0.401,-0.923,0.0
12.23,-0.53,-0.874,0.0
11.56,-0.504,-0.892,0.0
10.843,-0.475,-0.899,0.0
10.234,-0.451,-0.909,0.0
9.677,-0.429,-0.915,0.0
9.211,-0.411,-0.924,0.0
12.139,-0.543,-0.878,0.0
11.336,-0.51,-0.885,0.0
10.685,-0.483,-0.895,0.0
10.149,-0.462,-0.91,0.0
9.597,-0.439,-0.915,0.0
9.144,-0.42,-0.925,0.0
12.022,-0.555,-0.879,0.0
11.283,-0.523,-0.89,0.0
10.632,-0.496,-0.899,0.0
10.071,-0.472,-0.911,0.0
9.54,-0.45,-0.918,0.0
9.086,-0.431,-0.926,0.0
11.908,-0.566,-0.88,0.0
11.173,-0.534,-0.89,0.0
10.58,-0.508,-0.903,0.0
10.003,-0.483,-0.912,0.0
9.502,-0.461,-0.921,0.0
9.037,-0.441,-0.928,0.0
11.831,-0.579,-0.883,0.0
11.121,-0.547,-0.894,0.0
10.482,-0.519,-0.902,0.0
9.956,-0.495,-0.915,0.0
9.443,-0.472,-0.922,0.0
9.0,-0.452,-0.931,0.0
11.727,-0.591,-0.883,0.0
11.017,-0.558,-0.893,0.0
10.407,-0.53,-0.903,0.0
9.895,-0.506,-0.916,0.0
9.387,-0.483,-0.923,0.0
8.905,-0.46,-0.927,0.0
11.68,-0.605,-0.887,0.0
10.995,-0.572,-0.898,0.0
10.33,-0.541,-0.903,0.0
9.831,-0.517,-0.916,0.0
9.313,-0.492,-0.921,0.0
8.851,-0.47,-0.926,0.0
11.583,-0.617,-0.887,0.0
10.863,-0.581,-0.894,0.0
10.276,-0.552,-0.904,0.0
9.783,-0.528,-0.918,0.0
9.277,-0.504,-0.923,0.0
8.808,-0.48,-0.927,0.0
11.482,-0.628,-0.886,0.0
10.808,-0.594,-0.895,0.0
10.275,-0.567,-0.909,0.0
9.748,-0.54,-0.919,0.0
9.238,-0.514,-0.924,0.0
8.784,-0.492,-0.929,0.0
11.394,-0.639,-0.885,0.0
10.774,-0.607,-0.898,0.0
10.213,-0.578,-0.909,0.0
9.69,-0.551,-0.919,0.0
9.22,-0.527,-0.927,0.0
8.767,-0.503,-0.932,0.0
11.361,-0.653,-0.887,0.0
10.727,-0.62,-0.899,0.0
10.175,-0.59,-0.91,0.0
9.616,-0.561,-0.916,0.0
9.198,-0.539,-0.929,0.0
8.741,-0.514,-0.933,0.0
11.325,-0.667,-0.889,0.0
10.71,-0.634,-0.902,0.0
10.137,-0.602,-0.911,0.0
9.604,-0.573,-0.919,0.0
9.158,-0.549,-0.928,0.0
8.703,-0.524,-0.932,0.0
11.219,-0.677,-0.885,0.0
10.657,-0.646,-0.901,0.0
10.1,-0.615,-0.912,0.0
9.549,-0.584,-0.917,0.0
9.129,-0.56,-0.929,0.0
8.647,-0.533,-0.929,0.0
11.226,-0.693,-0.89,0.0
10.513,-0.652,-0.893,0.0
10.062,-0.626,-0.911,0.0
9.506,-0.594,-0.916,0.0
9.101,-0.571,-0.929,0.0
8.645,-0.545,-0.931,0.0
11.207,-0.707,-0.891,0.0
10.54,-0.668,-0.898,0.0
10.039,-0.639,-0.912,0.0
9.495,-0.607,-0.917,0.0
9.068,-0.582,-0.928,0.0
8.654,-0.558,-0.935,0.0
11.204,-0.723,-0.894,0.0
10.585,-0.685,-0.904,0.0
10.016,-0.651,-0.912,0.0
9.514,-0.621,-0.921,0.0
9.051,-0.593,-0.928,0.0
8.602,-0.566,-0.931,0.0
11.159,-0.735,-0.893,0.0
10.567,-0.699,-0.905,0.0
10.018,-0.665,-0.914,0.0
9.485,-0.632,-0.92,0.0
9.057,-0.606,-0.93,0.0
8.594,-0.578,-0.931,0.0
11.148,-0.75,-0.894,0.0
10.57,-0.713,-0.907,0.0
9.974,-0.676,-0.912,0.0
9.476,-0.645,-0.921,0.0
9.006,-0.615,-0.926,0.0
8.583,-0.589,-0.931,0.0
11.151,-0.765,-0.895,0.0
10.545,-0.726,-0.906,0.0
9.972,-0.689,-0.913,0.0
9.468,-0.657,-0.921,0.0
9.023,-0.629,-0.929,0.0
8.576,-0.6,-0.931,0.0
11.123,-0.778,-0.894,0.0
10.46,-0.734,-0.899,0.0
9.944,-0.701,-0.911,0.0
9.438,-0.668,-0.919,0.0
9.038,-0.642,-0.931,0.0
8.563,-0.61,-0.93,0.0
11.127,-0.793,-0.894,0.0
10.498,-0.751,-0.903,0.0
9.966,-0.716,-0.913,0.0
9.466,-0.682,-0.921,0.0
9.054,-0.655,-0.932,0.0
8.57,-0.622,-0.931,0.0
11.169,-0.811,-0.898,0.0
10.452,-0.761,-0.899,0.0
9.978,-0.729,-0.914,0.0
9.481,-0.696,-0.922,0.0
9.047,-0.666,-0.931,0.0
8.563,-0.633,-0.93,0.0
11.163,-0.825,-0.896,0.0
10.558,-0.783,-0.907,0.0
9.991,-0.743,-0.914,0.0
9.451,-0.705,-0.919,0.0
9.059,-0.679,-0.932,0.0
8.586,-0.646,-0.931,0.0
11.173,-0.84,-0.896,0.0
10.532,-0.794,-0.904,0.0
9.965,-0.754,-0.911,0.0
9.45,-0.718,-0.918,0.0
9.052,-0.69,-0.93,0.0
8.644,-0.661,-0.936,0.0
11.159,-0.853,-0.893,0.0
10.536,-0.808,-0.902,0.0
10.028,-0.771,-0.915,0.0
9.503,-0.734,-0.921,0.0
9.054,-0.701,-0.928,0.0
8.637,-0.671,-0.934,0.0
11.191,-0.869,-0.894,0.0
10.611,-0.827,-0.907,0.0
10.051,-0.786,-0.915,0.0
9.532,-0.747,-0.922,0.0
9.099,-0.716,-0.931,0.0
8.632,-0.682,-0.932,0.0
11.202,-0.884,-0.892,0.0
10.662,-0.844,-0.909,0.0
10.067,-0.799,-0.914,0.0
9.538,-0.76,-0.92,0.0
9.105,-0.728,-0.929,0.0
8.671,-0.695,-0.934,0.0
11.231,-0.9,-0.892,0.0
10.59,-0.851,-0.9,0.0
10.056,-0.81,-0.91,0.0
9.578,-0.774,-0.921,0.0
9.133,-0.741,-0.93,0.0
8.724,-0.71,-0.937,0.0
11.296,-0.918,-0.893,0.0
10.709,-0.873,-0.906,0.0
10.105,-0.826,-0.911,0.0
9.571,-0.785,-0.918,0.0
9.151,-0.753,-0.928,0.0
8.763,-0.723,-0.938,0.0
11.361,-0.937,-0.895,0.0
10.787,-0.892,-0.909,0.0
10.152,-0.842,-0.912,0.0
9.636,-0.802,-0.92,0.0
9.149,-0.763,-0.925,0.0
8.756,-0.733,-0.934,0.0
11.387,-0.952,-0.892,0.0
10.858,-0.91,-0.911,0.0
10.153,-0.853,-0.908,0.0
9.681,-0.816,-0.921,0.0
9.197,-0.778,-0.926,0.0
8.766,-0.743,-0.931,0.0
11.446,-0.969,-0.892,0.0
10.84,-0.921,-0.905,0.0
10.209,-0.87,-0.909,0.0
9.738,-0.832,-0.922,0.0
9.254,-0.793,-0.927,0.0
8.827,-0.758,-0.933,0.0
11.53,-0.989,-0.893,0.0
10.909,-0.938,-0.905,0.0
10.286,-0.887,-0.911,0.0
9.756,-0.844,-0.919,0.0
9.286,-0.805,-0.926,0.0
8.878,-0.772,-0.934,0.0
11.593,-1.007,-0.892,0.0
10.984,-0.957,-0.906,0.0
10.369,-0.905,-0.913,0.0
9.802,-0.858,-0.918,0.0
9.382,-0.824,-0.93,0.0
8.893,-0.783,-0.931,0.0
11.602,-1.02,-0.887,0.0
11.016,-0.971,-0.903,0.0
10.397,-0.918,-0.909,0.0
9.838,-0.871,-0.916,0.0
9.468,-0.841,-0.934,0.0
8.95,-0.797,-0.932,0.0
11.7,-1.04,-0.888,0.0
11.084,-0.988,-0.902,0.0
10.416,-0.93,-0.905,0.0
9.917,-0.888,-0.917,0.0
9.519,-0.855,-0.933,0.0
9.028,-0.813,-0.935,0.0
11.775,-1.058,-0.886,0.0
11.166,-1.006,-0.902,0.0
10.528,-0.951,-0.908,0.0
9.997,-0.905,-0.918,0.0
9.553,-0.867,-0.93,0.0
9.068,-0.825,-0.933,0.0
11.853,-1.077,-0.884,0.0
11.201,-1.02,-0.897,0.0
10.607,-0.968,-0.908,0.0
10.051,-0.919,-0.916,0.0
9.583,-0.879,-0.926,0.0
9.078,-0.834,-0.928,0.0
11.952,-1.097,-0.884,0.0
11.311,-1.04,-0.898,0.0
10.782,-0.994,-0.915,0.0
10.126,-0.935,-0.916,0.0
9.655,-0.894,-0.926,0.0
9.234,-0.857,-0.937,0.0
12.079,-1.119,-0.884,0.0
11.367,-1.055,-0.894,0.0
10.797,-1.005,-0.908,0.0
10.207,-0.952,-0.916,0.0
9.744,-0.911,-0.928,0.0
9.282,-0.869,-0.935,0.0
12.226,-1.143,-0.886,0.0
11.446,-1.072,-0.892,0.0
10.855,-1.019,-0.905,0.0
10.298,-0.969,-0.916,0.0
9.797,-0.924,-0.925,0.0
9.324,-0.881,-0.932,0.0
12.323,-1.162,-0.883,0.0
11.484,-1.085,-0.886,0.0
10.955,-1.037,-0.905,0.0
10.384,-0.985,-0.915,0.0
9.877,-0.939,-0.925,0.0
9.375,-0.893,-0.929,0.0
12.354,-1.175,-0.876,0.0
11.693,-1.114,-0.892,0.0
11.049,-1.055,-0.903,0.0
10.533,-1.008,-0.92,0.0
9.954,-0.954,-0.923,0.0
9.501,-0.913,-0.933,0.0
12.421,-1.191,-0.87,0.0
11.802,-1.134,-0.89,0.0
11.126,-1.071,-0.9,0.0
10.596,-1.022,-0.916,0.0
9.999,-0.966,-0.919,0.0
9.558,-0.925,-0.931,0.0
12.567,-1.214,-0.869,0.0
11.935,-1.155,-0.89,0.0
11.245,-1.09,-0.9,0.0
10.652,-1.034,-0.911,0.0
10.083,-0.981,-0.918,0.0
9.634,-0.939,-0.929,0.0
12.732,-1.239,-0.869,0.0
12.077,-1.177,-0.89,0.0
11.359,-1.109,-0.898,0.0
10.776,-1.054,-0.912,0.0
10.152,-0.994,-0.914,0.0
9.757,-0.957,-0.932,0.0
12.983,-1.271,-0.874,0.0
12.2,-1.197,-0.887,0.0
11.453,-1.125,-0.895,0.0
10.867,-1.069,-0.909,0.0
10.315,-1.017,-0.919,0.0
9.814,-0.969,-0.928,0.0
13.138,-1.295,-0.872,0.0
12.351,-1.219,-0.886,0.0
11.585,-1.145,-0.894,0.0
10.954,-1.084,-0.906,0.0
10.366,-1.028,-0.913,0.0
9.857,-0.979,-0.922,0.0
13.338,-1.322,-0.872,0.0
12.42,-1.233,-0.879,0.0
11.692,-1.162,-0.89,0.0
11.065,-1.101,-0.904,0.0
10.533,-1.05,-0.917,0.0
9.994,-0.998,-0.925,0.0
13.546,-1.35,-0.871,0.0
12.486,-1.246,-0.871,0.0
11.921,-1.191,-0.896,0.0
11.166,-1.117,-0.9,0.0
10.623,-1.064,-0.914,0.0
10.124,-1.016,-0.926,0.0
13.829,-1.385,-0.875,0.0
12.711,-1.275,-0.873,0.0
12.001,-1.205,-0.889,0.0
11.22,-1.128,-0.893,0.0
10.762,-1.083,-0.915,0.0
10.169,-1.025,-0.919,0.0
14.009,-1.41,-0.872,0.0
12.873,-1.297,-0.87,0.0
12.178,-1.228,-0.889,0.0
11.439,-1.155,-0.898,0.0
10.843,-1.096,-0.91,0.0
10.282,-1.041,-0.918,0.0
14.202,-1.435,-0.868,0.0
13.115,-1.326,-0.872,0.0
12.261,-1.241,-0.882,0.0
11.639,-1.18,-0.901,0.0
10.988,-1.115,-0.909,0.0
10.422,-1.059,-0.919,0.0
14.424,-1.463,-0.866,0.0
13.442,-1.364,-0.879,0.0
12.388,-1.259,-0.877,0.0
11.819,-1.202,-0.901,0.0
11.146,-1.135,-0.91,0.0
10.533,-1.074,-0.917,0.0
14.665,-1.492,-0.864,0.0
13.626,-1.387,-0.876,0.0
12.555,-1.28,-0.874,0.0
11.908,-1.215,-0.894,0.0
11.216,-1.145,-0.903,0.0
10.654,-1.089,-0.915,0.0
14.929,-1.523,-0.862,0.0
13.914,-1.421,-0.878,0.0
12.851,-1.313,-0.88,0.0
11.992,-1.227,-0.886,0.0
11.353,-1.162,-0.9,0.0
10.771,-1.104,-0.912,0.0
15.104,-1.545,-0.854,0.0
14.055,-1.439,-0.87,0.0
13.035,-1.335,-0.877,0.0
12.165,-1.247,-0.885,0.0
11.562,-1.186,-0.903,0.0
10.868,-1.116,-0.907,0.0
15.433,-1.582,-0.854,0.0
14.344,-1.471,-0.871,0.0
13.268,-1.362,-0.877,0.0
12.29,-1.262,-0.879,0.0
11.704,-1.203,-0.9,0.0
11.059,-1.137,-0.909,0.0
15.804,-1.623,-0.856,0.0
14.564,-1.496,-0.867,0.0
13.534,-1.391,-0.878,0.0
12.514,-1.287,-0.88,0.0
11.852,-1.219,-0.897,0.0
11.159,-1.149,-0.904,0.0
16.115,-1.656,-0.853,0.0
14.75,-1.517,-0.859,0.0
13.831,-1.423,-0.88,0.0
12.707,-1.308,-0.877,0.0
11.965,-1.232,-0.89,0.0
11.31,-1.165,-0.902,0.0
16.279,-1.675,-0.841,0.0
15.059,-1.55,-0.858,0.0
13.994,-1.44,-0.872,0.0
12.871,-1.325,-0.872,0.0
12.136,-1.25,-0.888,0.0
11.52,-1.187,-0.904,0.0
16.701,-1.719,-0.842,0.0
15.365,-1.581,-0.857,0.0
14.243,-1.466,-0.87,0.0
13.194,-1.359,-0.878,0.0
12.21,-1.258,-0.877,0.0
11.637,-1.199,-0.898,0.0
16.876,-1.736,-0.829,0.0
15.62,-1.607,-0.851,0.0
14.491,-1.492,-0.866,0.0
13.437,-1.383,-0.876,0.0
12.51,-1.288,-0.883,0.0
11.853,-1.221,-0.9,0.0
17.259,-1.775,-0.826,0.0
16.074,-1.653,-0.855,0.0
14.764,-1.519,-0.864,0.0
13.831,-1.423,-0.884,0.0
12.641,-1.301,-0.876,0.0
11.971,-1.232,-0.893,0.0
17.528,-1.801,-0.816,0.0
16.186,-1.663,-0.84,0.0
15.058,-1.547,-0.861,0.0
13.963,-1.435,-0.874,0.0
12.947,-1.33,-0.88,0.0
12.168,-1.25,-0.892,0.0
17.969,-1.844,-0.813,0.0
16.661,-1.709,-0.843,0.0
15.381,-1.578,-0.86,0.0
14.279,-1.465,-0.875,0.0
13.186,-1.352,-0.879,0.0
12.308,-1.262,-0.886,0.0
18.524,-1.897,-0.814,0.0
16.932,-1.734,-0.834,0.0
15.699,-1.607,-0.857,0.0
14.464,-1.48,-0.868,0.0
13.428,-1.374,-0.877,0.0
12.502,-1.279,-0.883,0.0
18.936,-1.935,-0.807,0.0
17.266,-1.764,-0.828,0.0
16.049,-1.639,-0.855,0.0
14.759,-1.507,-0.866,0.0
13.799,-1.409,-0.883,0.0
12.721,-1.298,-0.882,0.0
19.422,-1.979,-0.802,0.0
17.553,-1.788,-0.818,0.0
16.264,-1.656,-0.844,0.0
15.05,-1.532,-0.863,0.0
13.983,-1.423,-0.876,0.0
12.886,-1.311,-0.876,0.0
19.776,-2.009,-0.79,0.0
17.829,-1.81,-0.807,0.0
16.666,-1.691,-0.843,0.0
15.344,-1.556,-0.859,0.0
14.284,-1.448,-0.875,0.0
13.154,-1.333,-0.876,0.0
20.069,-2.031,-0.775,0.0
18.441,-1.865,-0.81,0.0
16.88,-1.707,-0.831,0.0
15.749,-1.591,-0.86,0.0
14.544,-1.469,-0.872,0.0
13.453,-1.358,-0.878,0.0
21.059,-2.123,-0.785,0.0
0.0,0.0,0.0,0.0
17.245,-1.736,-0.825,0.0
16.006,-1.61,-0.853,0.0
14.835,-1.492,-0.869,0.0
13.815,-1.388,-0.883,0.0
21.353,-2.143,-0.767,0.0
19.723,-1.978,-0.813,0.0
17.652,-1.769,-0.821,0.0
16.362,-1.638,-0.85,0.0
15.117,-1.512,-0.865,0.0
14.024,-1.402,-0.877,0.0
21.983,-2.195,-0.76,0.0
19.979,-1.993,-0.797,0.0
18.145,-1.809,-0.82,0.0
16.607,-1.654,-0.84,0.0
15.37,-1.529,-0.859,0.0
14.335,-1.425,-0.877,0.0
22.327,-2.217,-0.742,0.0
20.118,-1.996,-0.775,0.0
18.638,-1.847,-0.817,0.0
16.878,-1.671,-0.831,0.0
15.763,-1.559,-0.859,0.0
14.586,-1.442,-0.873,0.0
23.157,-2.286,-0.739,0.0
20.827,-2.054,-0.774,0.0
18.967,-1.868,-0.805,0.0
17.465,-1.718,-0.836,0.0
16.003,-1.573,-0.851,0.0
14.829,-1.456,-0.867,0.0
23.952,-2.349,-0.732,0.0
21.514,-2.108,-0.771,0.0
19.44,-1.902,-0.8,0.0
17.464,-1.707,-0.812,0.0
16.416,-1.603,-0.851,0.0
15.177,-1.48,-0.867,0.0
24.53,-2.389,-0.716,0.0
21.992,-2.139,-0.759,0.0
19.849,-1.928,-0.79,0.0
18.107,-1.757,-0.818,0.0
16.736,-1.622,-0.845,0.0
15.389,-1.489,-0.858,0.0
25.552,-2.47,-0.712,0.0
22.446,-2.167,-0.744,0.0
20.314,-1.958,-0.781,0.0
18.593,-1.79,-0.815,0.0
17.057,-1.64,-0.838,0.0
15.622,-1.5,-0.85,0.0
26.258,-2.518,-0.697,0.0
23.325,-2.234,-0.742,0.0
21.084,-2.016,-0.782,0.0
19.029,-1.817,-0.809,0.0
17.508,-1.669,-0.837,0.0
16.101,-1.533,-0.855,0.0
27.02,-2.569,-0.681,0.0
23.965,-2.275,-0.73,0.0
21.507,-2.038,-0.769,0.0
19.658,-1.86,-0.809,0.0
17.843,-1.686,-0.829,0.0
16.514,-1.558,-0.855,0.0
0.0,0.0,0.0,0.0
24.707,-2.324,-0.72,0.0
21.889,-2.055,-0.754,0.0
19.967,-1.872,-0.795,0.0
17.824,-1.668,-0.804,0.0
16.853,-1.575,-0.85,0.0
28.981,-2.705,-0.654,0.0
24.992,-2.328,-0.696,0.0
22.304,-2.074,-0.739,0.0
20.201,-1.875,-0.778,0.0
18.489,-1.713,-0.81,0.0
17.149,-1.586,-0.842,0.0
0.0,0.0,0.0,0.0
0.0,0.0,0.0,0.0
23.089,-2.125,-0.735,0.0
20.805,-1.911,-0.775,0.0
19.181,-1.759,-0.816,0.0
17.341,-1.587,-0.829,0.0
30.917,-2.826,-0.617,0.0
26.828,-2.447,-0.678,0.0
0.0,0.0,0.0,0.0
21.447,-1.948,-0.771,0.0
19.669,-1.783,-0.811,0.0
17.854,-1.616,-0.831,0.0
0.0,0.0,0.0,0.0
27.018,-2.437,-0.648,0.0
24.518,-2.206,-0.717,0.0
21.999,-1.976,-0.763,0.0
19.985,-1.791,-0.799,0.0
18.165,-1.624,-0.822,0.0
33.117,-2.958,-0.576,0.0
29.152,-2.598,-0.662,0.0
24.94,-2.217,-0.698,0.0
22.22,-1.971,-0.742,0.0
20.453,-1.81,-0.791,0.0
18.327,-1.618,-0.806,0.0
34.358,-3.03,-0.555,0.0
29.884,-2.629,-0.64,0.0
25.995,-2.281,-0.695,0.0
23.216,-2.033,-0.746,0.0
21.014,-1.836,-0.787,0.0
19.082,-1.663,-0.815,0.0
0.0,0.0,0.0,0.0
0.0,0.0,0.0,0.0
26.873,-2.327,-0.685,0.0
23.565,-2.035,-0.727,0.0
21.291,-1.834,-0.77,0.0
19.727,-1.695,-0.818,0.0
0.0,0.0,0.0,0.0
31.49,-2.696,-0.597,0.0
