X,Y,Z,Reflectivity
41.566,2.951,1.097,76.0
41.073,2.909,0.85,101.0
99.953,7.054,4.804,35.0
99.962,7.034,4.231,34.0
99.971,7.014,3.658,35.0
41.983,2.937,1.291,13.0
42.26,2.949,1.058,76.0
41.022,2.854,0.793,33.0
99.964,6.93,4.668,32.0
99.95,6.908,4.095,39.0
99.972,6.889,3.524,36.0
43.182,2.967,1.27,29.0
43.356,2.97,1.028,84.0
43.567,2.976,0.784,65.0
99.966,6.8,4.534,33.0
99.97,6.778,3.961,35.0
99.994,6.76,3.39,36.0
43.91,2.959,1.233,56.0
44.246,2.972,0.989,86.0
44.598,2.988,0.743,116.0
99.969,6.667,4.401,41.0
99.979,6.646,3.829,36.0
99.966,6.623,3.256,37.0
45.111,2.979,1.207,100.0
45.203,2.976,0.951,126.0
45.196,2.966,0.694,92.0
99.961,6.529,4.269,31.0
99.956,6.508,3.698,36.0
99.982,6.488,3.128,29.0
45.17,2.922,1.151,3.0
45.144,2.91,0.892,1.0
99.89,6.418,1.405,10.0
100.756,6.441,4.173,3.0
196.842,12.541,7.03,9.0
45.179,2.868,1.355,3.0
112.389,7.11,2.72,9.0
112.402,7.087,2.078,79.0
45.204,2.84,0.578,5.0
197.816,12.362,7.942,5.0
162.764,10.134,5.606,5.0
45.187,2.803,1.298,15.0
132.462,8.187,3.038,32.0
99.372,6.12,1.713,2.0
99.703,6.117,1.15,8.0
197.502,12.052,7.681,20.0
162.565,9.881,5.396,10.0
45.201,2.737,1.242,2.0
111.998,6.757,2.43,11.0
45.186,2.715,0.723,3.0
45.217,2.707,0.466,84.0
197.756,11.77,7.451,22.0
163.267,9.68,5.221,10.0
45.202,2.669,1.188,18.0
45.169,2.656,0.925,3.0
99.766,5.844,1.476,12.0
99.479,5.804,0.906,9.0
198.389,11.507,7.238,20.0
163.495,9.442,5.033,18.0
0.0,0.0,0.0,0.0
167.906,9.614,3.239,5.0
45.157,2.574,0.614,1.0
45.21,2.567,0.358,24.0
0.0,0.0,0.0,0.0
45.196,2.538,1.337,11.0
45.236,2.529,1.081,1.0
45.18,2.515,0.818,0.0
120.043,6.653,1.493,10.0
66.925,3.693,0.452,6.0
162.658,8.917,5.552,7.0
45.191,2.465,1.285,10.0
200.204,10.872,4.556,17.0
45.212,2.444,0.767,13.0
45.21,2.432,0.51,91.0
45.207,2.421,0.254,14.0
162.579,8.645,5.364,9.0
45.165,2.39,1.233,3.0
0.0,0.0,0.0,0.0
0.0,0.0,0.0,0.0
99.761,5.202,1.015,36.0
45.185,2.344,0.203,19.0
163.296,8.411,5.205,13.0
45.215,2.317,1.184,10.0
45.216,2.305,0.928,98.0
45.21,2.293,0.666,33.0
45.223,2.281,0.41,1.0
45.179,2.268,0.154,59.0
163.386,8.14,5.032,16.0
23.618,1.17,0.593,0.0
23.621,1.163,0.459,2.0
23.611,1.157,0.323,10.0
23.625,1.151,0.189,22.0
23.639,1.146,0.055,36.0
23.616,1.135,0.702,40.0
23.605,1.128,0.568,39.0
23.601,1.122,0.434,43.0
23.591,1.115,0.298,50.0
23.588,1.108,0.164,60.0
23.599,1.103,0.03,62.0
23.589,1.093,0.677,73.0
23.589,1.086,0.543,72.0
23.583,1.079,0.409,72.0
23.585,1.073,0.273,70.0
23.599,1.067,0.14,73.0
23.594,1.06,0.007,68.0
23.593,1.05,0.653,77.0
23.593,1.044,0.519,45.0
23.604,1.038,0.386,40.0
23.614,1.031,0.25,44.0
23.617,1.025,0.117,47.0
23.631,1.019,-0.016,43.0
45.214,1.932,1.208,10.0
23.642,1.003,0.498,2.0
23.606,0.995,0.363,0.0
100.514,4.209,0.971,6.0
45.195,1.88,0.181,32.0
40.335,1.666,-0.065,150.0
40.383,1.651,1.04,2.0
40.36,1.639,0.812,47.0
40.383,1.627,0.584,132.0
40.381,1.615,0.352,150.0
40.346,1.602,0.124,150.0
40.345,1.59,-0.103,152.0
40.864,1.594,1.015,131.0
41.462,1.605,0.796,91.0
41.827,1.607,0.567,86.0
43.153,1.646,0.337,150.0
41.342,1.565,0.09,2.0
42.177,1.584,-0.145,1.0
43.651,1.621,1.046,93.0
44.426,1.637,0.814,76.0
45.12,1.649,0.572,150.0
44.921,1.628,0.312,19.0
40.117,1.442,0.052,28.0
40.051,1.428,-0.172,41.0
162.752,5.736,3.762,3.0
70.87,2.477,1.239,0.0
70.838,2.454,0.839,10.0
71.053,2.44,0.435,8.0
40.126,1.366,0.019,151.0
40.021,1.35,-0.205,73.0
40.127,1.337,0.894,117.0
40.114,1.324,0.668,150.0
40.119,1.312,0.443,140.0
40.114,1.3,0.213,150.0
40.131,1.288,-0.012,150.0
40.022,1.273,-0.237,36.0
40.126,1.26,0.863,150.0
40.118,1.247,0.637,150.0
40.119,1.234,0.412,113.0
40.125,1.222,0.182,118.0
40.116,1.209,-0.042,150.0
39.999,1.194,-0.267,21.0
40.12,1.181,0.833,150.0
40.122,1.168,0.607,150.0
0.0,0.0,0.0,0.0
41.932,1.195,0.159,159.0
40.131,1.131,-0.072,156.0
0.0,0.0,0.0,0.0
0.0,0.0,0.0,0.0
0.0,0.0,0.0,0.0
45.499,1.22,0.401,28.0
45.47,1.204,0.141,48.0
0.0,0.0,0.0,0.0
0.0,0.0,0.0,0.0
138.774,3.53,2.685,5.0
70.82,1.779,0.973,9.0
70.721,1.754,0.575,25.0
0.0,0.0,0.0,0.0
0.0,0.0,0.0,0.0
36.806,0.877,-0.323,2.0
179.129,4.197,3.349,18.0
128.693,2.972,1.685,15.0
113.302,2.579,0.848,13.0
58.843,1.32,0.105,0.0
43.962,0.972,-0.167,0.0
36.621,0.798,-0.344,2.0
179.215,3.831,3.239,11.0
128.824,2.71,1.606,12.0
113.285,2.347,0.779,16.0
55.137,1.124,0.065,5.0
44.454,0.891,-0.195,0.0
35.233,0.695,-0.352,2.0
55.207,1.067,0.965,23.0
55.191,1.049,0.656,45.0
55.163,1.029,0.348,67.0
55.141,1.011,0.034,52.0
42.775,0.77,-0.212,0.0
35.634,0.629,-0.376,0.0
55.187,0.952,0.934,53.0
55.193,0.935,0.626,32.0
55.226,0.917,0.318,2.0
55.197,0.898,0.004,19.0
44.882,0.715,-0.246,1.0
19.685,0.307,-0.218,2.0
19.735,0.3,0.324,10.0
19.757,0.293,0.214,4.0
19.837,0.288,0.104,0.0
57.165,0.811,-0.023,1.0
19.664,0.272,-0.117,13.0
19.648,0.265,-0.227,16.0
19.715,0.258,0.314,12.0
19.754,0.252,0.205,28.0
19.775,0.246,0.095,3.0
19.676,0.238,-0.017,7.0
19.635,0.23,-0.126,16.0
19.645,0.224,-0.235,18.0
19.753,0.217,0.306,10.0
19.726,0.21,0.196,14.0
19.664,0.203,0.086,12.0
19.645,0.196,-0.025,13.0
19.634,0.19,-0.134,15.0
19.654,0.183,-0.244,16.0
19.639,0.175,0.296,10.0
19.659,0.169,0.187,13.0
19.643,0.162,0.078,13.0
19.622,0.155,-0.032,16.0
19.66,0.148,-0.142,10.0
0.0,0.0,0.0,0.0
19.613,0.133,0.289,12.0
19.661,0.127,0.18,15.0
19.648,0.12,0.071,12.0
19.66,0.113,-0.039,7.0
19.71,0.107,-0.149,0.0
19.765,0.1,-0.259,0.0
19.625,0.092,0.282,24.0
19.669,0.085,0.174,11.0
19.741,0.078,0.065,27.0
19.758,0.072,-0.046,58.0
19.761,0.065,-0.155,32.0
19.778,0.058,-0.265,64.0
19.623,0.05,0.277,13.0
19.743,0.044,0.169,16.0
19.728,0.037,0.059,25.0
19.733,0.03,-0.051,73.0
19.759,0.023,-0.161,1.0
19.773,0.016,-0.27,0.0
19.633,0.009,0.272,14.0
19.786,0.002,0.164,3.0
19.714,-0.004,0.054,9.0
19.729,-0.011,-0.056,9.0
19.75,-0.018,-0.165,8.0
19.773,-0.026,-0.275,0.0
19.648,-0.032,0.268,11.0
19.693,-0.039,0.159,15.0
19.7,-0.046,0.05,16.0
19.707,-0.053,-0.06,14.0
19.73,-0.06,-0.169,15.0
19.756,-0.068,-0.278,14.0
19.672,-0.074,0.264,11.0
19.709,-0.082,0.156,14.0
19.705,-0.088,0.047,13.0
19.712,-0.095,-0.063,9.0
19.718,-0.103,-0.172,16.0
19.732,-0.11,-0.281,16.0
19.72,-0.117,0.262,2.0
19.779,-0.124,0.154,0.0
19.771,-0.132,0.044,3.0
19.752,-0.139,-0.066,10.0
19.743,-0.146,-0.175,14.0
19.755,-0.153,-0.284,15.0
169.627,-1.374,2.239,6.0
0.0,0.0,0.0,0.0
0.0,0.0,0.0,0.0
19.785,-0.182,-0.068,0.0
19.797,-0.189,-0.177,0.0
19.784,-0.196,-0.286,0.0
19.766,-0.202,0.259,2.0
90.913,-0.964,0.693,2.0
0.0,0.0,0.0,0.0
0.0,0.0,0.0,0.0
0.0,0.0,0.0,0.0
0.0,0.0,0.0,0.0
19.749,-0.244,0.258,14.0
19.757,-0.251,0.15,26.0
0.0,0.0,0.0,0.0
0.0,0.0,0.0,0.0
19.623,-0.271,-0.176,0.0
35.247,-0.5,-0.511,0.0
19.772,-0.286,0.259,2.0
19.745,-0.293,0.15,16.0
0.0,0.0,0.0,0.0
0.0,0.0,0.0,0.0
42.625,-0.681,-0.382,0.0
35.042,-0.572,-0.507,0.0
91.215,-1.517,1.199,49.0
91.118,-1.55,0.697,26.0
91.157,-1.584,0.197,1.0
0.0,0.0,0.0,0.0
0.0,0.0,0.0,0.0
35.118,-0.649,-0.505,0.0
91.216,-1.712,1.206,62.0
91.108,-1.742,0.705,35.0
0.0,0.0,0.0,0.0
0.0,0.0,0.0,0.0
0.0,0.0,0.0,0.0
35.039,-0.721,-0.5,0.0
91.23,-1.905,1.217,49.0
91.134,-1.935,0.716,57.0
0.0,0.0,0.0,0.0
0.0,0.0,0.0,0.0
43.376,-0.968,-0.375,0.0
35.753,-0.811,-0.505,0.0
91.229,-2.095,1.231,29.0
91.131,-2.126,0.731,10.0
0.0,0.0,0.0,0.0
0.0,0.0,0.0,0.0
0.0,0.0,0.0,0.0
35.517,-0.88,-0.495,0.0
91.322,-2.289,1.249,18.0
91.222,-2.32,0.749,150.0
0.0,0.0,0.0,0.0
0.0,0.0,0.0,0.0
0.0,0.0,0.0,0.0
0.0,0.0,0.0,0.0
91.464,-2.487,1.272,9.0
91.48,-2.52,0.773,2.0
0.0,0.0,0.0,0.0
0.0,0.0,0.0,0.0
0.0,0.0,0.0,0.0
0.0,0.0,0.0,0.0
161.909,-4.739,2.295,22.0
0.0,0.0,0.0,0.0
0.0,0.0,0.0,0.0
0.0,0.0,0.0,0.0
0.0,0.0,0.0,0.0
37.139,-1.155,-0.489,0.0
162.03,-5.081,2.345,19.0
0.0,0.0,0.0,0.0
0.0,0.0,0.0,0.0
0.0,0.0,0.0,0.0
0.0,0.0,0.0,0.0
0.0,0.0,0.0,0.0
162.194,-5.422,2.403,21.0
162.023,-5.475,1.518,10.0
0.0,0.0,0.0,0.0
0.0,0.0,0.0,0.0
0.0,0.0,0.0,0.0
37.808,-1.332,-0.472,0.0
162.116,-5.75,2.462,15.0
162.209,-5.812,1.581,16.0
0.0,0.0,0.0,0.0
0.0,0.0,0.0,0.0
0.0,0.0,0.0,0.0
39.166,-1.46,-0.473,0.0
104.986,-3.939,1.636,2.0
0.0,0.0,0.0,0.0
0.0,0.0,0.0,0.0
0.0,0.0,0.0,0.0
0.0,0.0,0.0,0.0
0.0,0.0,0.0,0.0
0.0,0.0,0.0,0.0
0.0,0.0,0.0,0.0
0.0,0.0,0.0,0.0
0.0,0.0,0.0,0.0
0.0,0.0,0.0,0.0
40.448,-1.672,-0.451,0.0
101.542,-4.219,1.677,150.0
0.0,0.0,0.0,0.0
102.529,-4.335,0.582,3.0
0.0,0.0,0.0,0.0
0.0,0.0,0.0,0.0
0.0,0.0,0.0,0.0
102.001,-4.443,1.737,1.0
101.437,-4.454,1.178,16.0
0.0,0.0,0.0,0.0
0.0,0.0,0.0,0.0
0.0,0.0,0.0,0.0
42.587,-1.931,-0.431,0.0
102.106,-4.65,1.795,2.0
101.53,-4.66,1.236,150.0
0.0,0.0,0.0,0.0
0.0,0.0,0.0,0.0
0.0,0.0,0.0,0.0
0.0,0.0,0.0,0.0
0.0,0.0,0.0,0.0
101.534,-4.859,1.295,9.0
101.477,-4.892,0.747,2.0
101.624,-4.934,0.189,1.0
0.0,0.0,0.0,0.0
42.855,-2.111,-0.382,0.0
0.0,0.0,0.0,0.0
0.0,0.0,0.0,0.0
101.633,-5.095,0.811,1.0
0.0,0.0,0.0,0.0
0.0,0.0,0.0,0.0
0.0,0.0,0.0,0.0
104.003,-5.342,2.021,1.0
101.549,-5.251,1.425,13.0
0.0,0.0,0.0,0.0
0.0,0.0,0.0,0.0
0.0,0.0,0.0,0.0
0.0,0.0,0.0,0.0
0.0,0.0,0.0,0.0
101.595,-5.446,1.496,8.0
101.516,-5.475,0.948,8.0
0.0,0.0,0.0,0.0
0.0,0.0,0.0,0.0
0.0,0.0,0.0,0.0
140.721,-7.76,2.93,23.0
0.0,0.0,0.0,0.0
0.0,0.0,0.0,0.0
0.0,0.0,0.0,0.0
0.0,0.0,0.0,0.0
0.0,0.0,0.0,0.0
149.64,-8.527,3.227,12.0
149.384,-8.56,2.418,16.0
140.697,-8.109,1.521,8.0
0.0,0.0,0.0,0.0
0.0,0.0,0.0,0.0
0.0,0.0,0.0,0.0
149.075,-8.762,3.329,18.0
148.763,-8.793,2.523,20.0
149.992,-8.916,1.739,19.0
109.699,-6.556,0.671,2.0
0.0,0.0,0.0,0.0
0.0,0.0,0.0,0.0
148.733,-9.008,3.441,11.0
148.416,-9.038,2.637,19.0
148.24,-9.075,1.838,15.0
0.0,0.0,0.0,0.0
0.0,0.0,0.0,0.0
0.0,0.0,0.0,0.0
117.246,-7.307,2.809,26.0
125.29,-7.849,2.33,14.0
125.327,-7.892,1.659,17.0
125.143,-7.92,0.973,7.0
0.0,0.0,0.0,0.0
0.0,0.0,0.0,0.0
117.043,-7.5,2.905,23.0
117.376,-7.558,2.285,34.0
117.53,-7.605,1.659,8.0
117.6,-7.647,1.018,3.0
99.704,-6.514,0.329,13.0
0.0,0.0,0.0,0.0
116.912,-7.693,3.007,19.0
117.383,-7.76,2.391,39.0
0.0,0.0,0.0,0.0
0.0,0.0,0.0,0.0
99.254,-6.654,0.418,4.0
0.0,0.0,0.0,0.0
117.058,-7.899,3.118,10.0
148.283,-10.052,3.157,15.0
100.069,-6.815,1.595,5.0
100.09,-6.846,1.051,7.0
99.841,-6.86,0.515,9.0
0.0,0.0,0.0,0.0
109.089,-7.542,3.009,46.0
109.267,-7.587,2.431,45.0
100.087,-6.981,1.692,8.0
100.12,-7.013,1.147,9.0
100.095,-7.041,0.613,9.0
0.0,0.0,0.0,0.0
109.069,-7.718,3.114,44.0
109.242,-7.762,2.536,47.0
109.384,-7.804,1.955,9.0
100.071,-7.17,1.245,9.0
100.126,-7.205,0.712,11.0
0.0,0.0,0.0,0.0
109.115,-7.896,3.225,22.0
133.295,-9.684,3.229,15.0
99.978,-7.292,1.888,2.0
100.063,-7.327,1.346,8.0
100.124,-7.362,0.815,13.0
98.875,-7.3,0.277,6.0
148.228,-10.959,4.533,16.0
0.0,0.0,0.0,0.0
123.925,-9.231,2.468,13.0
100.055,-7.48,1.449,9.0
100.038,-7.508,0.916,12.0
99.229,-7.476,0.38,9.0
148.284,-11.187,4.689,12.0
127.457,-9.651,3.352,12.0
127.513,-9.69,2.673,14.0
100.049,-7.63,1.555,9.0
100.086,-7.662,1.023,17.0
100.006,-7.684,0.49,11.0
108.249,-8.329,3.539,17.0
127.519,-9.845,3.49,27.0
119.476,-9.256,2.633,19.0
100.072,-7.78,1.662,12.0
100.078,-7.807,1.13,14.0
100.025,-7.831,0.597,13.0
108.485,-8.505,3.664,19.0
127.421,-10.021,3.625,13.0
127.496,-10.061,2.949,32.0
100.12,-7.928,1.774,10.0
100.071,-7.949,1.241,12.0
100.069,-7.976,0.708,13.0
108.547,-8.662,3.787,14.0
115.773,-9.268,3.423,10.0
127.502,-10.24,3.092,32.0
116.532,-9.389,2.194,22.0
100.046,-8.086,1.352,11.0
100.046,-8.113,0.821,16.0
109.64,-8.902,3.949,17.0
148.531,-12.098,4.561,9.0
127.493,-10.414,3.237,27.0
90.401,-7.407,1.806,150.0
90.414,-7.431,1.325,49.0
90.416,-7.454,0.846,101.0
109.826,-9.066,4.083,26.0
116.696,-9.659,3.717,5.0
127.499,-10.585,3.384,15.0
90.394,-7.527,1.91,33.0
90.402,-7.549,1.43,62.0
90.413,-7.572,0.951,39.0
108.534,-9.101,4.162,23.0
114.331,-9.614,3.777,7.0
114.347,-9.641,3.17,22.0
90.4,-7.643,2.017,50.0
90.404,-7.665,1.537,42.0
90.409,-7.688,1.058,35.0
108.574,-9.244,4.293,22.0
114.182,-9.746,3.908,8.0
114.492,-9.799,3.311,8.0
90.391,-7.756,2.125,38.0
90.384,-7.776,1.646,33.0
90.396,-7.799,1.167,36.0
108.108,-9.338,4.405,23.0
108.374,-9.383,3.84,20.0
114.565,-9.944,3.452,9.0
127.501,-11.094,3.152,19.0
90.387,-7.885,1.755,36.0
90.395,-7.906,1.275,65.0
107.909,-9.448,4.528,25.0
108.102,-9.488,3.963,26.0
108.249,-9.524,3.394,4.0
127.503,-11.245,3.308,11.0
90.389,-7.99,1.866,51.0
90.391,-8.01,1.388,31.0
107.639,-9.55,4.651,24.0
108.013,-9.604,4.093,25.0
108.105,-9.633,3.523,10.0
127.508,-11.389,3.467,21.0
90.39,-8.093,1.979,35.0
90.395,-8.112,1.501,29.0
107.761,-9.681,4.791,29.0
108.066,-9.729,4.231,20.0
108.047,-9.747,3.657,21.0
108.023,-9.767,3.074,12.0
90.396,-8.191,2.093,26.0
90.381,-8.208,1.614,34.0
107.887,-9.808,4.933,21.0
108.515,-9.885,4.385,26.0
108.112,-9.869,3.797,19.0
107.979,-9.876,3.208,18.0
127.522,-11.688,3.114,20.0
90.379,-8.301,1.728,36.0
108.077,-9.937,5.08,20.0
108.572,-10.001,4.526,18.0
109.101,-10.069,3.969,11.0
147.968,-13.682,4.586,13.0
127.508,-11.814,3.277,27.0
90.382,-8.391,1.844,43.0
108.793,-10.111,5.254,23.0
109.663,-10.21,4.714,10.0
108.438,-10.115,4.087,16.0
114.279,-10.679,3.691,12.0
127.532,-11.94,3.443,18.0
90.376,-8.476,1.963,38.0
108.858,-10.222,5.4,18.0
109.932,-10.34,4.869,16.0
108.447,-10.217,4.229,22.0
148.222,-13.988,4.98,20.0
147.971,-13.989,4.189,13.0
90.365,-8.557,2.08,40.0
108.031,-10.243,5.501,31.0
109.96,-10.442,5.015,17.0
108.662,-10.333,4.379,16.0
108.557,-10.34,3.79,15.0
147.891,-14.111,4.381,15.0
90.37,-8.637,2.199,26.0
108.114,-10.344,5.647,25.0
108.318,-10.379,5.084,16.0
110.424,-10.596,4.598,17.0
108.361,-10.414,3.926,22.0
148.041,-14.248,4.58,24.0
118.989,-11.469,3.053,11.0
108.282,-10.449,5.8,20.0
108.034,-10.439,5.212,22.0
109.961,-10.64,4.723,22.0
108.566,-10.52,4.077,20.0
148.077,-14.367,4.777,19.0
116.35,-11.305,3.139,15.0
108.368,-10.543,5.949,20.0
108.26,-10.544,5.369,19.0
108.996,-10.629,4.826,15.0
108.838,-10.628,4.232,17.0
108.336,-10.593,3.64,10.0
116.341,-11.39,3.295,48.0
0.0,0.0,0.0,0.0
108.105,-10.609,5.505,17.0
108.542,-10.663,4.952,23.0
110.216,-10.84,4.434,19.0
108.218,-10.657,3.78,22.0
116.33,-11.47,3.449,22.0
107.877,-10.649,6.211,26.0
108.715,-10.743,5.683,17.0
108.082,-10.692,5.077,7.0
110.953,-10.986,4.612,20.0
108.64,-10.769,3.94,18.0
148.164,-14.704,4.589,13.0
108.065,-10.738,6.367,21.0
108.998,-10.84,5.844,19.0
108.087,-10.76,5.221,23.0
109.128,-10.873,4.681,11.0
108.796,-10.851,4.093,16.0
148.04,-14.781,4.785,13.0
108.078,-10.804,6.513,23.0
108.28,-10.833,5.95,19.0
108.12,-10.826,5.368,16.0
124.165,-12.444,5.492,7.0
111.499,-11.183,4.341,21.0
108.759,-10.919,3.659,18.0
108.038,-10.86,6.656,18.0
107.959,-10.86,6.076,26.0
108.915,-10.963,5.552,19.0
110.536,-11.135,5.037,22.0
111.286,-11.22,4.481,20.0
108.777,-10.976,3.804,24.0
107.868,-10.899,6.789,10.0
107.935,-10.912,6.22,22.0
108.699,-10.996,5.687,23.0
109.018,-11.035,5.113,19.0
111.117,-11.256,4.622,20.0
108.841,-11.033,3.951,15.0
48.996,-4.973,3.15,2.0
107.674,-10.935,6.35,18.0
108.464,-11.022,5.821,24.0
108.858,-11.068,5.253,28.0
110.77,-11.268,4.758,18.0
149.295,-15.197,5.621,9.0
48.903,-4.985,3.21,12.0
107.567,-10.969,6.488,21.0
108.61,-11.08,5.974,18.0
108.961,-11.122,5.403,23.0
109.29,-11.16,4.84,18.0
149.471,-15.272,5.828,18.0
48.876,-5.001,3.273,17.0
107.543,-11.007,6.632,23.0
0.0,0.0,0.0,0.0
109.022,-11.166,5.552,20.0
108.997,-11.168,4.973,24.0
149.502,-15.326,6.029,4.0
48.869,-5.016,3.339,19.0
107.467,-11.035,6.771,14.0
107.201,-11.01,6.184,22.0
108.695,-11.167,5.682,17.0
108.942,-11.196,5.116,20.0
111.371,-11.448,4.641,8.0
48.884,-5.033,3.406,4.0
48.825,-5.027,3.141,11.0
107.344,-11.055,6.336,20.0
108.085,-11.132,5.795,21.0
109.294,-11.259,5.278,17.0
111.251,-11.464,4.781,9.0
49.77,-5.136,3.534,5.0
48.814,-5.037,3.205,29.0
107.565,-11.102,6.491,20.0
107.948,-11.142,5.929,19.0
113.729,-11.739,5.643,4.0
109.29,-11.283,4.841,19.0
49.775,-5.147,3.6,18.0
48.821,-5.047,3.27,37.0
107.481,-11.112,6.628,21.0
106.988,-11.061,6.016,10.0
110.387,-11.413,5.62,9.0
109.321,-11.303,4.986,19.0
49.77,-5.154,3.665,24.0
48.827,-5.055,3.335,22.0
48.854,-5.057,3.076,4.0
107.069,-11.083,6.161,16.0
108.142,-11.194,5.646,13.0
109.451,-11.328,5.133,15.0
49.88,-5.171,3.738,24.0
49.12,-5.091,3.418,23.0
48.802,-5.056,3.135,19.0
107.639,-11.151,6.331,16.0
107.974,-11.184,5.775,21.0
109.327,-11.323,5.266,7.0
50.042,-5.191,3.815,12.0
49.766,-5.16,3.528,21.0
48.796,-5.058,3.198,38.0
107.762,-11.168,6.477,18.0
107.877,-11.177,5.908,16.0
113.878,-11.796,5.631,3.0
48.799,-5.063,3.783,3.0
49.791,-5.164,3.592,22.0
48.806,-5.059,3.261,41.0
107.479,-11.138,6.597,20.0
107.025,-11.087,5.997,8.0
110.423,-11.436,5.599,9.0
48.47,-5.028,3.819,18.0
49.759,-5.159,3.653,23.0
48.824,-5.06,3.323,25.0
107.375,-11.122,6.724,17.0
107.047,-11.083,6.131,16.0
108.155,-11.194,5.618,13.0
48.218,-4.998,3.859,21.0
49.855,-5.165,3.722,23.0
48.9,-5.063,3.389,16.0
48.814,-5.051,3.117,14.0
107.286,-11.097,6.278,16.0
108.012,-11.166,5.744,20.0
48.098,-4.981,3.909,30.0
49.993,-5.174,3.794,12.0
49.713,-5.141,3.507,5.0
48.815,-5.045,3.177,26.0
107.508,-11.104,6.423,19.0
107.91,-11.138,5.87,20.0
48.087,-4.972,3.967,26.0
106.94,-11.05,8.248,20.0
49.785,-5.14,3.572,15.0
48.81,-5.035,3.236,35.0
107.557,-11.088,6.556,22.0
108.963,-11.226,6.059,5.0
48.096,-4.964,4.027,11.0
48.144,-4.964,3.771,12.0
49.84,-5.135,3.636,21.0
48.852,-5.029,3.297,28.0
107.506,-11.058,6.68,19.0
107.093,-11.007,6.081,17.0
40.443,-4.164,3.434,40.0
48.093,-4.947,3.824,27.0
49.983,-5.136,3.706,15.0
48.85,-5.015,3.354,14.0
107.557,-11.034,6.807,6.0
107.394,-11.008,6.222,23.0
40.416,-4.15,3.478,39.0
48.103,-4.934,3.881,32.0
107.004,-10.965,8.057,12.0
107.894,-11.045,7.533,9.0
48.843,-4.995,3.147,9.0
107.451,-10.978,6.348,22.0
40.42,-4.137,3.525,34.0
48.148,-4.923,3.939,21.0
107.199,-10.948,8.193,17.0
107.936,-11.011,7.657,14.0
48.962,-4.989,3.21,15.0
107.668,-10.961,6.481,18.0
40.515,-4.132,3.579,31.0
48.187,-4.909,3.996,11.0
48.211,-4.905,3.738,13.0
107.668,-10.941,7.758,19.0
48.952,-4.969,3.262,10.0
107.772,-10.928,6.603,16.0
45.84,-4.657,4.099,7.0
40.491,-4.108,3.402,23.0
48.179,-4.881,3.788,22.0
107.334,-10.862,7.848,14.0
107.994,-10.915,7.315,18.0
109.433,-11.048,6.822,19.0
46.042,-4.656,4.168,3.0
40.53,-4.093,3.449,30.0
48.15,-4.856,3.837,12.0
107.015,-10.779,7.938,10.0
107.792,-10.843,7.414,20.0
109.902,-11.041,6.967,10.0
47.808,-4.812,4.377,6.0
40.505,-4.071,3.489,35.0
106.8,-10.718,8.621,14.0
48.196,-4.83,3.625,5.0
107.841,-10.793,7.527,14.0
108.165,-10.81,6.967,9.0
0.0,0.0,0.0,0.0
40.583,-4.057,3.537,20.0
45.745,-4.565,3.739,3.0
48.228,-4.806,3.676,4.0
107.845,-10.732,7.636,16.0
107.718,-10.705,7.044,16.0
0.0,0.0,0.0,0.0
40.506,-4.026,3.571,23.0
47.665,-4.73,3.943,2.0
48.209,-4.776,3.721,11.0
107.911,-10.674,7.747,14.0
108.119,-10.679,7.176,20.0
48.112,-4.761,4.55,23.0
45.896,-4.533,4.091,17.0
45.777,-4.514,3.831,14.0
106.955,-10.53,8.359,18.0
107.597,-10.576,7.825,14.0
108.01,-10.599,7.27,20.0
48.131,-4.732,4.597,20.0
46.022,-4.516,4.145,28.0
45.677,-4.474,3.865,21.0
106.854,-10.449,8.45,10.0
107.318,-10.476,7.904,11.0
107.175,-10.445,7.312,16.0
39.3,-3.837,3.79,37.0
46.086,-4.491,4.192,30.0
40.467,-3.936,3.46,25.0
108.281,-10.512,8.66,21.0
107.103,-10.38,7.983,16.0
107.921,-10.44,7.458,14.0
39.246,-3.804,3.819,40.0
46.066,-4.456,4.231,36.0
40.509,-3.91,3.5,17.0
108.097,-10.416,8.738,18.0
107.402,-10.329,8.097,17.0
107.582,-10.327,7.526,17.0
39.251,-3.774,3.854,36.0
0.0,0.0,0.0,0.0
47.858,-4.583,4.175,22.0
45.754,-4.373,3.737,3.0
106.087,-10.12,8.086,26.0
107.521,-10.238,7.609,12.0
39.235,-3.742,3.884,34.0
46.078,-4.386,4.309,11.0
48.139,-4.572,4.238,22.0
47.747,-4.525,3.938,4.0
106.107,-10.036,8.172,26.0
107.297,-10.129,7.678,16.0
39.201,-3.707,3.912,30.0
39.301,-3.708,3.706,14.0
48.381,-4.555,4.297,22.0
108.039,-10.149,8.994,22.0
106.1,-9.945,8.253,8.0
106.363,-9.95,7.692,15.0
45.477,-4.261,4.573,8.0
39.216,-3.666,3.728,33.0
48.28,-4.503,4.324,24.0
48.382,-4.503,4.063,17.0
108.359,-10.063,8.507,19.0
106.266,-9.848,7.761,22.0
45.53,-4.226,4.611,6.0
49.131,-4.55,4.706,6.0
0.0,0.0,0.0,0.0
48.461,-4.467,4.104,2.0
108.053,-9.937,8.558,13.0
105.984,-9.725,7.814,28.0
45.59,-4.19,4.649,10.0
39.181,-3.592,3.779,27.0
47.549,-4.348,4.325,37.0
48.629,-4.437,4.15,12.0
108.031,-9.834,8.628,12.0
106.136,-9.64,7.894,18.0
45.57,-4.145,4.677,13.0
39.147,-3.551,3.802,29.0
47.554,-4.304,4.356,42.0
48.554,-4.383,4.175,17.0
107.937,-9.721,8.688,12.0
108.862,-9.781,8.164,20.0
45.5,-4.094,4.698,15.0
39.182,-3.516,3.829,34.0
47.462,-4.248,4.376,36.0
48.494,-4.329,4.199,21.0
107.687,-9.59,8.731,11.0
108.986,-9.682,8.237,11.0
49.08,-4.367,5.097,23.0
48.772,-4.328,4.794,10.0
47.498,-4.203,4.406,38.0
106.34,-9.386,9.268,19.0
107.351,-9.451,8.763,12.0
0.0,0.0,0.0,0.0
49.005,-4.31,5.116,27.0
39.195,-3.437,3.874,20.0
47.477,-4.152,4.429,34.0
109.928,-9.587,9.638,9.0
107.288,-9.332,8.814,11.0
109.132,-9.467,8.364,9.0
49.145,-4.269,5.155,24.0
39.176,-3.393,3.892,27.0
47.442,-4.098,4.45,27.0
109.843,-9.462,9.683,6.0
107.087,-9.199,8.848,16.0
109.544,-9.386,8.446,15.0
49.18,-4.219,5.182,35.0
48.828,-4.177,4.873,22.0
47.524,-4.053,4.479,21.0
106.487,-9.056,9.436,11.0
106.528,-9.034,8.849,27.0
108.597,-9.183,8.421,17.0
49.154,-4.162,5.201,31.0
48.869,-4.125,4.898,39.0
47.525,-4.0,4.499,17.0
47.598,-3.994,4.237,5.0
106.568,-8.916,8.895,24.0
108.323,-9.037,8.443,10.0
49.226,-4.111,5.228,25.0
49.015,-4.081,4.932,7.0
47.508,-3.943,4.516,17.0
106.433,-8.808,9.515,18.0
106.699,-8.804,8.945,23.0
108.288,-8.907,8.479,17.0
49.197,-4.051,5.243,38.0
49.051,-4.027,4.953,7.0
0.0,0.0,0.0,0.0
106.372,-8.677,9.545,28.0
106.667,-8.674,8.978,23.0
107.17,-8.689,8.425,12.0
49.291,-4.0,5.268,24.0
106.173,-8.589,10.754,23.0
0.0,0.0,0.0,0.0
106.528,-8.562,9.589,22.0
107.015,-8.574,9.037,19.0
107.257,-8.567,8.461,8.0
49.361,-3.946,5.289,34.0
106.331,-8.473,10.798,18.0
49.381,-3.921,4.738,16.0
106.573,-8.435,9.621,20.0
106.986,-8.44,9.061,16.0
107.199,-8.43,8.482,6.0
49.261,-3.877,5.29,17.0
106.314,-8.339,10.82,19.0
49.429,-3.864,4.754,18.0
107.355,-8.363,9.714,13.0
107.06,-8.313,9.089,17.0
107.51,-8.32,8.528,9.0
49.305,-3.818,5.304,8.0
106.263,-8.201,10.835,24.0
49.469,-3.804,4.766,6.0
109.75,-8.411,9.949,4.0
107.22,-8.19,9.119,7.0
104.648,-7.965,8.317,28.0
49.402,-3.762,5.322,4.0
106.391,-8.074,10.863,20.0
106.451,-8.049,10.271,23.0
107.156,-8.073,9.727,15.0
107.261,-8.053,9.136,14.0
104.56,-7.823,8.321,24.0
106.34,-7.962,11.467,19.0
49.54,-3.695,5.063,4.0
106.44,-7.911,10.279,19.0
106.949,-7.919,9.717,19.0
107.107,-7.902,9.13,15.0
109.804,-8.072,8.745,6.0
106.244,-7.813,11.464,27.0
106.088,-7.772,10.848,17.0
106.789,-7.795,10.318,19.0
109.526,-7.965,9.955,12.0
106.999,-7.753,9.125,14.0
108.318,-7.82,8.63,17.0
106.838,-7.716,11.529,23.0
106.706,-7.677,10.913,19.0
106.864,-7.66,10.325,19.0
109.503,-7.82,9.953,17.0
107.1,-7.619,9.132,17.0
107.168,-7.597,8.536,22.0
107.472,-7.619,11.596,21.0
106.581,-7.527,10.896,19.0
106.791,-7.512,10.314,18.0
109.442,-7.668,9.942,3.0
107.254,-7.485,9.14,22.0
107.004,-7.441,8.517,20.0
107.483,-7.475,11.589,17.0
106.741,-7.394,10.905,19.0
106.826,-7.37,10.309,19.0
106.525,-7.32,9.667,8.0
107.489,-7.358,9.15,18.0
107.095,-7.303,8.513,14.0
106.613,-7.27,11.484,20.0
106.857,-7.256,10.904,12.0
107.827,-7.292,10.392,15.0
106.496,-7.173,9.651,18.0
107.613,-7.219,9.145,20.0
107.391,-7.175,8.521,11.0
106.752,-7.132,11.482,9.0
106.841,-7.108,10.884,22.0
107.786,-7.141,10.37,8.0
106.526,-7.028,9.635,21.0
106.456,-6.995,9.026,18.0
107.448,-7.031,8.505,20.0
0.0,0.0,0.0,0.0
0.0,0.0,0.0,0.0
0.0,0.0,0.0,0.0
124.937,-2.665,7.572,13.0
0.0,0.0,0.0,0.0
192.846,-4.046,9.446,13.0
0.0,0.0,0.0,0.0
0.0,0.0,0.0,0.0
0.0,0.0,0.0,0.0
0.0,0.0,0.0,0.0
0.0,0.0,0.0,0.0
192.963,-3.833,9.149,12.0
0.0,0.0,0.0,0.0
0.0,0.0,0.0,0.0
0.0,0.0,0.0,0.0
0.0,0.0,0.0,0.0
0.0,0.0,0.0,0.0
192.185,-3.607,8.805,22.0
0.0,0.0,0.0,0.0
0.0,0.0,0.0,0.0
0.0,0.0,0.0,0.0
0.0,0.0,0.0,0.0
190.154,-3.397,9.509,4.0
190.035,-3.365,8.398,20.0
0.0,0.0,0.0,0.0
0.0,0.0,0.0,0.0
190.021,-3.257,11.42,13.0
190.036,-3.227,10.294,6.0
190.076,-3.196,9.19,4.0
193.01,-3.216,8.21,15.0
0.0,0.0,0.0,0.0
190.177,-3.094,12.221,9.0
0.0,0.0,0.0,0.0
0.0,0.0,0.0,0.0
0.0,0.0,0.0,0.0
0.0,0.0,0.0,0.0
0.0,0.0,0.0,0.0
0.0,0.0,0.0,0.0
0.0,0.0,0.0,0.0
0.0,0.0,0.0,0.0
193.279,-2.861,8.689,12.0
191.996,-2.813,7.512,20.0
0.0,0.0,0.0,0.0
0.0,0.0,0.0,0.0
0.0,0.0,0.0,0.0
0.0,0.0,0.0,0.0
193.218,-2.673,8.347,8.0
185.905,-2.544,6.949,10.0
0.0,0.0,0.0,0.0
36.167,-0.481,2.135,0.0
0.0,0.0,0.0,0.0
0.0,0.0,0.0,0.0
186.621,-2.406,7.731,4.0
185.938,-2.371,6.62,18.0
0.0,0.0,0.0,0.0
0.0,0.0,0.0,0.0
0.0,0.0,0.0,0.0
0.0,0.0,0.0,0.0
185.96,-2.228,7.369,22.0
162.616,-1.926,5.495,12.0
0.0,0.0,0.0,0.0
0.0,0.0,0.0,0.0
0.0,0.0,0.0,0.0
0.0,0.0,0.0,0.0
0.0,0.0,0.0,0.0
19.763,-0.216,0.631,7.0
0.0,0.0,0.0,0.0
0.0,0.0,0.0,0.0
0.0,0.0,0.0,0.0
0.0,0.0,0.0,0.0
19.785,-0.202,0.711,0.0
19.753,-0.199,0.594,11.0
0.0,0.0,0.0,0.0
0.0,0.0,0.0,0.0
0.0,0.0,0.0,0.0
184.027,-1.755,7.343,19.0
19.763,-0.186,0.673,2.0
19.753,-0.183,0.557,8.0
0.0,0.0,0.0,0.0
0.0,0.0,0.0,0.0
185.042,-1.638,8.131,13.0
183.862,-1.607,6.988,23.0
19.737,-0.17,0.634,15.0
19.758,-0.168,0.52,7.0
0.0,0.0,0.0,0.0
0.0,0.0,0.0,0.0
184.452,-1.491,7.752,21.0
19.771,-0.157,0.713,7.0
19.746,-0.155,0.597,4.0
19.777,-0.153,0.482,2.0
0.0,0.0,0.0,0.0
184.785,-1.377,8.489,8.0
184.238,-1.354,7.386,20.0
19.723,-0.142,0.673,1.0
19.772,-0.141,0.559,4.0
19.717,-0.138,0.443,1.0
0.0,0.0,0.0,0.0
184.568,-1.246,8.122,18.0
19.692,-0.13,0.751,0.0
19.664,-0.128,0.632,7.0
19.673,-0.126,0.518,7.0
19.684,-0.124,0.403,6.0
0.0,0.0,0.0,0.0
184.697,-1.122,7.763,18.0
19.675,-0.117,0.711,8.0
19.646,-0.115,0.594,11.0
19.658,-0.113,0.479,10.0
19.673,-0.111,0.364,8.0
186.3,-1.028,8.55,21.0
19.725,-0.107,0.789,1.0
19.66,-0.104,0.671,11.0
19.646,-0.103,0.554,11.0
19.65,-0.101,0.439,9.0
19.671,-0.099,0.325,9.0
184.65,-0.905,8.099,14.0
19.688,-0.094,0.748,8.0
19.648,-0.092,0.631,12.0
19.631,-0.091,0.514,10.0
19.646,-0.089,0.399,9.0
19.664,-0.087,0.285,10.0
184.748,-0.797,7.728,19.0
19.664,-0.083,0.707,10.0
19.636,-0.081,0.591,12.0
19.63,-0.079,0.474,10.0
19.645,-0.078,0.359,9.0
19.664,-0.077,0.245,13.0
19.72,-0.074,0.784,5.0
19.645,-0.072,0.666,12.0
19.629,-0.071,0.551,12.0
19.627,-0.069,0.434,11.0
19.647,-0.068,0.319,10.0
19.677,-0.066,0.205,15.0
19.679,-0.064,0.743,9.0
19.639,-0.062,0.626,12.0
19.624,-0.061,0.51,11.0
19.626,-0.059,0.394,9.0
19.642,-0.058,0.279,10.0
19.694,-0.057,0.165,15.0
19.658,-0.054,0.701,12.0
19.624,-0.053,0.585,12.0
19.625,-0.052,0.47,11.0
19.617,-0.05,0.353,9.0
19.64,-0.049,0.238,13.0
19.695,-0.048,0.124,17.0
19.64,-0.046,0.659,13.0
19.627,-0.044,0.544,12.0
19.627,-0.043,0.429,12.0
19.622,-0.042,0.312,10.0
19.642,-0.041,0.197,13.0
19.703,-0.04,0.082,16.0
19.634,-0.038,0.618,13.0
19.622,-0.037,0.502,12.0
19.62,-0.035,0.387,12.0
19.624,-0.034,0.271,10.0
19.668,-0.033,0.156,8.0
19.711,-0.032,0.041,15.0
19.627,-0.03,0.576,14.0
19.616,-0.029,0.461,13.0
19.614,-0.028,0.346,12.0
19.631,-0.027,0.229,15.0
19.683,-0.027,0.115,10.0
19.718,-0.026,0.0,14.0
19.619,-0.024,0.535,13.0
19.625,-0.023,0.42,12.0
19.621,-0.022,0.305,13.0
19.642,-0.021,0.188,9.0
19.683,-0.021,0.073,9.0
19.733,-0.02,-0.041,12.0
19.628,-0.018,0.493,12.0
19.616,-0.017,0.378,13.0
19.629,-0.017,0.263,12.0
19.725,-0.016,0.147,2.0
19.72,-0.015,0.032,10.0
19.767,-0.014,-0.083,2.0
19.629,-0.013,0.451,13.0
19.62,-0.012,0.336,13.0
19.63,-0.012,0.221,14.0
19.704,-0.011,0.105,2.0
19.729,-0.01,-0.009,12.0
19.783,-0.01,-0.125,1.0
19.626,-0.009,0.409,13.0
19.622,-0.008,0.294,12.0
19.71,-0.008,0.18,7.0
19.772,-0.007,0.063,4.0
19.763,-0.007,-0.052,6.0
0.0,0.0,0.0,0.0
19.621,-0.005,0.367,14.0
19.63,-0.005,0.252,14.0
19.744,-0.004,0.138,1.0
19.723,-0.004,0.02,10.0
19.758,-0.003,-0.094,0.0
0.0,0.0,0.0,0.0
19.632,-0.002,0.325,14.0
19.638,-0.002,0.21,14.0
19.794,-0.002,0.096,2.0
19.747,-0.001,-0.021,9.0
19.738,-0.001,-0.137,0.0
19.923,-0.001,-0.255,0.0
19.637,0.0,0.283,14.0
19.781,0.0,0.169,2.0
19.772,0.0,0.053,4.0
19.747,0.0,-0.064,2.0
0.0,0.0,0.0,0.0
19.752,0.0,-0.295,0.0
19.642,0.0,0.241,16.0
19.798,0.0,0.127,1.0
19.737,0.001,0.01,8.0
19.81,0.001,-0.106,0.0
19.774,0.001,-0.222,0.0
19.784,0.001,-0.338,0.0
19.66,0.001,0.199,11.0
19.805,0.001,0.084,6.0
19.753,0.001,-0.031,8.0
19.655,0.001,-0.148,0.0
19.751,0.001,-0.264,0.0
19.773,0.001,-0.38,0.0
19.812,0.001,0.158,1.0
19.769,0.001,0.042,6.0
19.782,0.001,-0.073,0.0
19.702,0.001,-0.191,0.0
19.762,0.001,-0.307,0.0
19.792,0.001,-0.423,0.0
19.811,0.0,0.115,2.0
19.754,0.0,0.0,9.0
19.695,0.0,-0.115,0.0
38.282,0.0,-0.452,0.0
31.038,0.0,-0.549,0.0
19.795,0.0,-0.466,0.0
19.797,-0.001,0.073,4.0
19.762,-0.001,-0.042,6.0
19.892,-0.001,-0.159,0.0
19.706,-0.001,-0.275,0.0
29.879,-0.003,-0.592,0.0
25.973,-0.003,-0.667,0.0
19.751,-0.003,0.03,9.0
19.776,-0.003,-0.084,0.0
0.0,0.0,0.0,0.0
33.703,-0.007,-0.542,0.0
28.428,-0.006,-0.624,0.0
24.656,-0.006,-0.686,0.0
19.748,-0.006,-0.011,10.0
19.806,-0.006,-0.127,0.0
36.693,-0.013,-0.45,0.0
30.622,-0.012,-0.558,0.0
26.765,-0.011,-0.644,0.0
23.537,-0.01,-0.705,0.0
19.756,-0.01,-0.053,6.0
19.752,-0.01,-0.168,0.0
34.172,-0.019,-0.492,0.0
29.475,-0.017,-0.6,0.0
25.416,-0.015,-0.666,0.0
22.587,-0.014,-0.724,0.0
19.764,-0.014,-0.095,4.0
0.0,0.0,0.0,0.0
33.191,-0.026,-0.548,0.0
27.996,-0.023,-0.629,0.0
24.439,-0.021,-0.692,0.0
21.507,-0.019,-0.735,0.0
19.77,-0.019,-0.136,4.0
0.0,0.0,0.0,0.0
30.724,-0.033,-0.572,0.0
26.495,-0.029,-0.651,0.0
23.092,-0.026,-0.702,0.0
20.133,-0.024,-0.73,0.0
19.778,-0.025,-0.178,2.0
34.247,-0.046,-0.508,0.0
29.073,-0.04,-0.602,0.0
25.279,-0.036,-0.674,0.0
22.303,-0.033,-0.725,0.0
19.742,-0.03,-0.758,2.0
19.759,-0.032,-0.219,1.0
31.88,-0.053,-0.54,0.0
27.76,-0.048,-0.632,0.0
23.876,-0.042,-0.686,0.0
21.141,-0.038,-0.732,0.0
19.45,-0.036,-0.787,0.0
19.768,-0.039,-0.26,1.0
29.97,-0.062,-0.57,0.0
26.192,-0.055,-0.652,0.0
22.951,-0.05,-0.708,0.0
19.913,-0.044,-0.731,0.0
18.641,-0.042,-0.793,0.0
19.769,-0.048,-0.302,1.0
28.853,-0.071,-0.609,0.0
25.189,-0.064,-0.679,0.0
21.99,-0.057,-0.724,0.0
19.716,-0.052,-0.764,2.0
17.835,-0.048,-0.796,0.0
19.78,-0.056,-0.342,1.0
27.383,-0.08,-0.634,0.0
23.786,-0.071,-0.69,0.0
21.076,-0.064,-0.737,0.0
19.253,-0.06,-0.786,0.0
17.155,-0.054,-0.801,0.0
19.78,-0.066,-0.383,3.0
19.739,-0.067,-0.498,0.0
22.854,-0.079,-0.71,0.0
19.868,-0.07,-0.735,1.0
18.509,-0.067,-0.793,0.0
16.57,-0.061,-0.807,0.0
19.772,-0.076,-0.423,8.0
19.781,-0.078,-0.539,3.0
19.787,-0.079,-0.654,1.0
19.681,-0.08,-0.768,2.0
17.738,-0.074,-0.796,0.0
16.053,-0.068,-0.815,0.0
19.765,-0.087,-0.462,12.0
19.769,-0.088,-0.578,9.0
19.756,-0.09,-0.693,6.0
19.237,-0.089,-0.79,0.0
17.094,-0.081,-0.802,0.0
15.658,-0.075,-0.826,0.0
19.766,-0.098,-0.502,15.0
19.766,-0.1,-0.617,14.0
19.74,-0.102,-0.732,8.0
18.488,-0.097,-0.795,0.0
16.454,-0.087,-0.804,0.0
15.236,-0.082,-0.834,0.0
19.755,-0.11,-0.54,16.0
19.747,-0.112,-0.655,14.0
19.677,-0.114,-0.768,2.0
17.685,-0.104,-0.795,0.0
15.96,-0.095,-0.811,0.0
14.74,-0.089,-0.836,0.0
19.753,-0.123,-0.579,16.0
19.749,-0.125,-0.694,17.0
19.193,-0.123,-0.787,0.0
16.948,-0.111,-0.795,0.0
15.654,-0.104,-0.826,0.0
14.417,-0.097,-0.845,0.0
19.744,-0.137,-0.617,17.0
19.738,-0.139,-0.732,11.0
18.521,-0.132,-0.795,0.0
16.522,-0.119,-0.807,0.0
15.235,-0.112,-0.834,0.0
13.987,-0.104,-0.847,0.0
19.761,-0.151,-0.655,16.0
19.664,-0.152,-0.767,3.0
17.733,-0.139,-0.795,0.0
16.073,-0.128,-0.816,0.0
14.793,-0.119,-0.837,0.0
13.655,-0.112,-0.853,0.0
19.771,-0.166,-0.692,10.0
19.15,-0.163,-0.783,0.0
17.24,-0.148,-0.805,0.0
15.654,-0.136,-0.824,0.0
14.335,-0.127,-0.839,0.0
13.312,-0.119,-0.857,0.0
19.76,-0.181,-0.729,10.0
18.54,-0.172,-0.792,0.0
16.616,-0.156,-0.807,0.0
15.257,-0.145,-0.832,0.0
14.052,-0.135,-0.848,0.0
13.011,-0.127,-0.861,0.0
19.659,-0.196,-0.761,3.0
17.901,-0.181,-0.798,0.0
16.156,-0.165,-0.814,0.0
14.854,-0.154,-0.837,0.0
13.682,-0.143,-0.851,0.0
12.736,-0.135,-0.867,0.0
19.285,-0.209,-0.782,0.0
17.284,-0.189,-0.802,0.0
15.732,-0.174,-0.822,0.0
14.421,-0.162,-0.839,0.0
13.369,-0.152,-0.856,0.0
12.469,-0.143,-0.871,0.0
18.63,-0.218,-0.789,0.0
16.783,-0.199,-0.809,0.0
15.351,-0.184,-0.829,0.0
14.096,-0.17,-0.845,0.0
13.076,-0.16,-0.86,0.0
12.218,-0.151,-0.876,0.0
18.053,-0.227,-0.797,0.0
16.314,-0.208,-0.815,0.0
14.976,-0.193,-0.835,0.0
13.773,-0.179,-0.85,0.0
12.816,-0.168,-0.866,0.0
11.981,-0.159,-0.879,0.0
17.408,-0.235,-0.798,0.0
15.81,-0.216,-0.817,0.0
14.594,-0.202,-0.839,0.0
13.392,-0.187,-0.85,0.0
12.493,-0.176,-0.866,0.0
11.733,-0.167,-0.882,0.0
17.018,-0.246,-0.809,0.0
15.472,-0.226,-0.826,0.0
14.278,-0.211,-0.845,0.0
13.161,-0.196,-0.857,0.0
12.274,-0.185,-0.871,0.0
11.568,-0.176,-0.889,0.0
16.516,-0.255,-0.813,0.0
15.101,-0.236,-0.831,0.0
13.928,-0.219,-0.848,0.0
12.913,-0.205,-0.862,0.0
12.045,-0.193,-0.875,0.0
11.347,-0.184,-0.89,0.0
15.994,-0.263,-0.813,0.0
14.75,-0.245,-0.836,0.0
13.606,-0.228,-0.85,0.0
12.657,-0.214,-0.866,0.0
11.868,-0.203,-0.881,0.0
11.151,-0.192,-0.893,0.0
15.641,-0.274,-0.821,0.0
14.445,-0.255,-0.842,0.0
13.323,-0.237,-0.854,0.0
12.416,-0.223,-0.87,0.0
11.682,-0.212,-0.886,0.0
10.961,-0.201,-0.896,0.0
15.328,-0.284,-0.829,0.0
14.167,-0.265,-0.848,0.0
13.077,-0.247,-0.859,0.0
12.188,-0.232,-0.873,0.0
11.483,-0.221,-0.889,0.0
10.777,-0.209,-0.898,0.0
14.979,-0.294,-0.833,0.0
13.81,-0.273,-0.848,0.0
12.807,-0.256,-0.861,0.0
11.943,-0.241,-0.874,0.0
11.305,-0.23,-0.893,0.0
10.627,-0.218,-0.901,0.0
14.639,-0.304,-0.836,0.0
13.587,-0.284,-0.855,0.0
12.596,-0.266,-0.866,0.0
11.782,-0.25,-0.88,0.0
11.103,-0.238,-0.893,0.0
10.471,-0.226,-0.904,0.0
14.32,-0.313,-0.839,0.0
13.288,-0.293,-0.856,0.0
12.286,-0.273,-0.863,0.0
11.644,-0.261,-0.886,0.0
10.971,-0.248,-0.899,0.0
10.327,-0.235,-0.907,0.0
14.063,-0.324,-0.845,0.0
13.001,-0.302,-0.856,0.0
12.142,-0.284,-0.87,0.0
11.454,-0.27,-0.888,0.0
10.809,-0.257,-0.901,0.0
10.173,-0.244,-0.908,0.0
13.836,-0.335,-0.85,0.0
12.779,-0.311,-0.859,0.0
12.018,-0.295,-0.878,0.0
11.308,-0.28,-0.893,0.0
10.6,-0.264,-0.899,0.0
10.065,-0.253,-0.912,0.0
13.577,-0.345,-0.853,0.0
12.558,-0.321,-0.862,0.0
11.805,-0.304,-0.879,0.0
11.108,-0.288,-0.892,0.0
10.493,-0.274,-0.904,0.0
9.907,-0.261,-0.911,0.0
13.26,-0.353,-0.851,0.0
12.378,-0.332,-0.866,0.0
11.665,-0.315,-0.884,0.0
10.992,-0.299,-0.898,0.0
10.35,-0.283,-0.905,0.0
9.812,-0.271,-0.916,0.0
17.793,-0.495,-1.165,0.0
12.215,-0.342,-0.87,0.0
11.494,-0.324,-0.886,0.0
10.836,-0.308,-0.899,0.0
10.222,-0.293,-0.907,0.0
9.69,-0.279,-0.916,0.0
17.793,-0.517,-1.187,1.0
12.021,-0.352,-0.872,0.0
11.369,-0.335,-0.89,0.0
10.713,-0.318,-0.902,0.0
10.116,-0.302,-0.91,0.0
9.591,-0.289,-0.919,0.0
17.788,-0.539,-1.209,0.0
11.899,-0.363,-0.877,0.0
11.223,-0.345,-0.892,0.0
10.556,-0.326,-0.901,0.0
9.99,-0.311,-0.911,0.0
9.498,-0.298,-0.921,0.0
12.521,-0.395,-0.865,0.0
11.785,-0.375,-0.883,0.0
11.056,-0.354,-0.892,0.0
10.458,-0.337,-0.905,0.0
9.882,-0.32,-0.913,0.0
9.378,-0.306,-0.921,0.0
12.389,-0.407,-0.87,0.0
11.649,-0.385,-0.886,0.0
10.936,-0.364,-0.895,0.0
10.344,-0.346,-0.907,0.0
9.769,-0.329,-0.913,0.0
9.307,-0.316,-0.924,0.0
12.224,-0.418,-0.872,0.0
11.494,-0.395,-0.886,0.0
10.857,-0.376,-0.9,0.0
10.212,-0.356,-0.907,0.0
9.678,-0.339,-0.915,0.0
9.21,-0.325,-0.924,0.0
12.123,-0.43,-0.878,0.0
11.358,-0.405,-0.888,0.0
10.716,-0.385,-0.9,0.0
10.126,-0.366,-0.91,0.0
9.587,-0.349,-0.917,0.0
9.119,-0.334,-0.925,0.0
12.003,-0.442,-0.881,0.0
11.259,-0.417,-0.892,0.0
10.605,-0.395,-0.901,0.0
10.011,-0.375,-0.909,0.0
9.493,-0.358,-0.917,0.0
9.024,-0.342,-0.924,0.0
11.816,-0.451,-0.879,0.0
11.143,-0.427,-0.893,0.0
10.539,-0.407,-0.905,0.0
9.959,-0.387,-0.914,0.0
9.413,-0.368,-0.918,0.0
8.978,-0.353,-0.928,0.0
11.683,-0.461,-0.88,0.0
10.998,-0.437,-0.892,0.0
10.411,-0.416,-0.904,0.0
9.845,-0.395,-0.913,0.0
9.357,-0.378,-0.922,0.0
8.892,-0.361,-0.927,0.0
11.609,-0.474,-0.885,0.0
10.907,-0.448,-0.894,0.0
10.311,-0.426,-0.905,0.0
9.775,-0.406,-0.915,0.0
9.279,-0.388,-0.922,0.0
8.83,-0.371,-0.928,0.0
11.528,-0.486,-0.889,0.0
10.818,-0.459,-0.896,0.0
10.25,-0.437,-0.908,0.0
9.673,-0.415,-0.913,0.0
9.219,-0.398,-0.923,0.0
8.79,-0.381,-0.931,0.0
11.38,-0.496,-0.887,0.0
10.759,-0.471,-0.9,0.0
10.18,-0.448,-0.91,0.0
9.625,-0.426,-0.916,0.0
9.153,-0.407,-0.924,0.0
8.704,-0.39,-0.929,0.0
11.359,-0.51,-0.894,0.0
10.655,-0.481,-0.899,0.0
10.113,-0.459,-0.911,0.0
9.583,-0.437,-0.92,0.0
9.108,-0.418,-0.926,0.0
8.654,-0.399,-0.93,0.0
11.285,-0.522,-0.896,0.0
10.576,-0.492,-0.9,0.0
10.039,-0.469,-0.912,0.0
9.511,-0.447,-0.919,0.0
9.043,-0.427,-0.926,0.0
8.605,-0.409,-0.931,0.0
11.135,-0.531,-0.891,0.0
10.527,-0.504,-0.903,0.0
9.99,-0.481,-0.914,0.0
9.467,-0.458,-0.921,0.0
8.985,-0.437,-0.926,0.0
8.579,-0.42,-0.934,0.0
11.064,-0.543,-0.893,0.0
10.481,-0.517,-0.906,0.0
9.923,-0.492,-0.914,0.0
9.399,-0.468,-0.921,0.0
8.948,-0.448,-0.928,0.0
8.524,-0.429,-0.933,0.0
11.003,-0.555,-0.894,0.0
10.441,-0.529,-0.908,0.0
9.841,-0.501,-0.912,0.0
9.351,-0.479,-0.921,0.0
8.918,-0.459,-0.93,0.0
8.494,-0.439,-0.934,0.0
10.929,-0.566,-0.894,0.0
10.364,-0.539,-0.907,0.0
9.811,-0.513,-0.915,0.0
9.317,-0.49,-0.923,0.0
8.854,-0.468,-0.927,0.0
8.438,-0.448,-0.932,0.0
10.926,-0.581,-0.9,0.0
10.27,-0.549,-0.904,0.0
9.748,-0.523,-0.913,0.0
9.266,-0.5,-0.922,0.0
8.809,-0.477,-0.927,0.0
8.397,-0.457,-0.932,0.0
10.886,-0.594,-0.901,0.0
10.247,-0.562,-0.907,0.0
9.737,-0.536,-0.917,0.0
9.216,-0.51,-0.921,0.0
8.797,-0.489,-0.93,0.0
8.384,-0.468,-0.934,0.0
10.857,-0.608,-0.903,0.0
10.221,-0.575,-0.908,0.0
9.699,-0.548,-0.917,0.0
9.187,-0.521,-0.922,0.0
8.781,-0.5,-0.931,0.0
8.368,-0.479,-0.935,0.0
10.784,-0.618,-0.901,0.0
10.226,-0.589,-0.913,0.0
9.67,-0.559,-0.918,0.0
9.174,-0.533,-0.924,0.0
8.741,-0.51,-0.93,0.0
8.365,-0.49,-0.938,0.0
10.798,-0.634,-0.906,0.0
10.14,-0.598,-0.908,0.0
9.617,-0.569,-0.916,0.0
9.151,-0.544,-0.924,0.0
8.727,-0.521,-0.931,0.0
8.353,-0.501,-0.939,0.0
10.783,-0.647,-0.908,0.0
10.131,-0.611,-0.91,0.0
9.57,-0.58,-0.914,0.0
9.127,-0.555,-0.924,0.0
8.724,-0.533,-0.933,0.0
8.298,-0.509,-0.935,0.0
10.767,-0.661,-0.909,0.0
10.147,-0.626,-0.914,0.0
9.551,-0.591,-0.914,0.0
9.131,-0.568,-0.927,0.0
8.697,-0.543,-0.932,0.0
8.284,-0.519,-0.935,0.0
10.716,-0.672,-0.907,0.0
10.123,-0.638,-0.913,0.0
9.586,-0.606,-0.919,0.0
9.11,-0.579,-0.926,0.0
8.702,-0.555,-0.934,0.0
8.268,-0.529,-0.934,0.0
10.655,-0.683,-0.903,0.0
10.078,-0.648,-0.911,0.0
9.555,-0.617,-0.917,0.0
9.096,-0.59,-0.926,0.0
8.682,-0.565,-0.933,0.0
8.261,-0.54,-0.934,0.0
10.657,-0.697,-0.904,0.0
10.077,-0.661,-0.912,0.0
9.549,-0.629,-0.918,0.0
9.102,-0.602,-0.927,0.0
8.657,-0.575,-0.931,0.0
8.253,-0.55,-0.934,0.0
10.662,-0.711,-0.905,0.0
10.08,-0.675,-0.912,0.0
9.546,-0.641,-0.918,0.0
9.091,-0.613,-0.926,0.0
8.676,-0.588,-0.933,0.0
8.257,-0.561,-0.935,0.0
10.668,-0.725,-0.906,0.0
10.073,-0.687,-0.912,0.0
9.547,-0.654,-0.918,0.0
9.098,-0.625,-0.927,0.0
8.664,-0.598,-0.931,0.0
8.256,-0.572,-0.934,0.0
10.648,-0.737,-0.904,0.0
10.074,-0.7,-0.912,0.0
9.572,-0.668,-0.92,0.0
9.115,-0.638,-0.928,0.0
8.672,-0.61,-0.932,0.0
8.282,-0.584,-0.937,0.0
10.654,-0.751,-0.904,0.0
10.078,-0.713,-0.911,0.0
9.553,-0.678,-0.917,0.0
9.107,-0.649,-0.926,0.0
8.699,-0.622,-0.934,0.0
8.283,-0.595,-0.936,0.0
10.719,-0.769,-0.908,0.0
10.166,-0.732,-0.918,0.0
9.574,-0.692,-0.918,0.0
9.121,-0.662,-0.927,0.0
8.707,-0.634,-0.933,0.0
8.275,-0.604,-0.934,0.0
10.733,-0.784,-0.908,0.0
10.068,-0.737,-0.907,0.0
9.597,-0.705,-0.918,0.0
9.153,-0.675,-0.928,0.0
8.725,-0.646,-0.934,0.0
8.327,-0.619,-0.938,0.0
10.723,-0.796,-0.904,0.0
10.122,-0.754,-0.91,0.0
9.64,-0.72,-0.921,0.0
9.16,-0.687,-0.927,0.0
8.765,-0.659,-0.936,0.0
8.323,-0.628,-0.936,0.0
10.757,-0.811,-0.905,0.0
10.185,-0.771,-0.913,0.0
9.668,-0.734,-0.921,0.0
9.175,-0.699,-0.926,0.0
8.753,-0.669,-0.932,0.0
8.364,-0.641,-0.938,0.0
10.802,-0.827,-0.905,0.0
10.263,-0.789,-0.917,0.0
9.691,-0.747,-0.92,0.0
9.172,-0.709,-0.923,0.0
8.78,-0.681,-0.932,0.0
8.38,-0.652,-0.937,0.0
10.788,-0.839,-0.901,0.0
10.26,-0.8,-0.914,0.0
9.708,-0.76,-0.918,0.0
9.222,-0.724,-0.925,0.0
8.816,-0.694,-0.933,0.0
8.405,-0.664,-0.937,0.0
10.872,-0.858,-0.904,0.0
10.259,-0.812,-0.91,0.0
9.743,-0.773,-0.918,0.0
9.272,-0.738,-0.926,0.0
8.834,-0.705,-0.932,0.0
8.43,-0.675,-0.936,0.0
10.947,-0.876,-0.906,0.0
10.269,-0.824,-0.906,0.0
9.816,-0.79,-0.921,0.0
9.289,-0.75,-0.924,0.0
8.869,-0.718,-0.931,0.0
8.449,-0.686,-0.934,0.0
10.958,-0.889,-0.902,0.0
10.449,-0.85,-0.918,0.0
9.825,-0.801,-0.917,0.0
9.323,-0.763,-0.923,0.0
8.875,-0.728,-0.928,0.0
8.525,-0.701,-0.939,0.0
11.017,-0.905,-0.901,0.0
10.393,-0.856,-0.908,0.0
9.892,-0.817,-0.918,0.0
9.411,-0.78,-0.927,0.0
8.932,-0.742,-0.929,0.0
8.564,-0.713,-0.938,0.0
11.105,-0.924,-0.903,0.0
10.472,-0.874,-0.909,0.0
9.941,-0.832,-0.918,0.0
9.436,-0.791,-0.924,0.0
9.018,-0.758,-0.933,0.0
8.617,-0.727,-0.939,0.0
11.169,-0.941,-0.902,0.0
10.517,-0.888,-0.907,0.0
9.954,-0.843,-0.913,0.0
9.483,-0.805,-0.923,0.0
9.064,-0.771,-0.932,0.0
8.653,-0.738,-0.938,0.0
11.245,-0.958,-0.901,0.0
10.58,-0.904,-0.906,0.0
10.027,-0.858,-0.914,0.0
9.549,-0.82,-0.924,0.0
9.088,-0.782,-0.929,0.0
8.688,-0.75,-0.936,0.0
11.321,-0.975,-0.9,0.0
10.705,-0.924,-0.91,0.0
10.129,-0.877,-0.916,0.0
9.589,-0.832,-0.921,0.0
9.122,-0.794,-0.927,0.0
8.723,-0.761,-0.934,0.0
11.438,-0.996,-0.902,0.0
10.821,-0.944,-0.912,0.0
10.228,-0.895,-0.918,0.0
9.69,-0.85,-0.924,0.0
9.206,-0.809,-0.929,0.0
8.764,-0.772,-0.932,0.0
11.521,-1.013,-0.9,0.0
10.821,-0.954,-0.904,0.0
10.292,-0.909,-0.917,0.0
9.772,-0.865,-0.925,0.0
9.288,-0.824,-0.93,0.0
8.842,-0.787,-0.934,0.0
11.539,-1.025,-0.893,0.0
10.962,-0.976,-0.908,0.0
10.328,-0.921,-0.912,0.0
9.834,-0.879,-0.923,0.0
9.342,-0.837,-0.928,0.0
8.944,-0.803,-0.938,0.0
11.599,-1.04,-0.889,0.0
11.003,-0.988,-0.903,0.0
10.364,-0.933,-0.907,0.0
9.942,-0.897,-0.926,0.0
9.436,-0.853,-0.93,0.0
8.975,-0.813,-0.934,0.0
11.821,-1.069,-0.896,0.0
11.098,-1.006,-0.902,0.0
10.518,-0.955,-0.912,0.0
10.021,-0.912,-0.925,0.0
9.527,-0.869,-0.931,0.0
9.032,-0.825,-0.932,0.0
11.922,-1.087,-0.894,0.0
11.145,-1.018,-0.896,0.0
10.634,-0.974,-0.913,0.0
10.054,-0.922,-0.919,0.0
9.581,-0.881,-0.928,0.0
9.146,-0.842,-0.936,0.0
12.018,-1.105,-0.891,0.0
11.35,-1.046,-0.903,0.0
10.701,-0.988,-0.909,0.0
10.104,-0.934,-0.915,0.0
9.661,-0.895,-0.927,0.0
9.195,-0.853,-0.933,0.0
12.147,-1.125,-0.889,0.0
11.424,-1.06,-0.898,0.0
10.801,-1.004,-0.908,0.0
10.175,-0.948,-0.912,0.0
9.736,-0.908,-0.925,0.0
9.255,-0.865,-0.93,0.0
12.308,-1.148,-0.89,0.0
11.549,-1.079,-0.897,0.0
10.935,-1.024,-0.909,0.0
10.297,-0.966,-0.913,0.0
9.863,-0.927,-0.928,0.0
9.373,-0.882,-0.933,0.0
12.418,-1.167,-0.886,0.0
11.712,-1.102,-0.899,0.0
11.023,-1.039,-0.905,0.0
10.515,-0.992,-0.922,0.0
9.92,-0.938,-0.924,0.0
9.444,-0.894,-0.931,0.0
12.616,-1.193,-0.887,0.0
11.802,-1.117,-0.894,0.0
11.09,-1.051,-0.9,0.0
10.59,-1.005,-0.918,0.0
10.033,-0.954,-0.924,0.0
9.517,-0.906,-0.928,0.0
12.641,-1.202,-0.876,0.0
11.979,-1.14,-0.895,0.0
11.264,-1.074,-0.902,0.0
10.65,-1.017,-0.912,0.0
10.139,-0.969,-0.923,0.0
9.621,-0.921,-0.928,0.0
12.833,-1.227,-0.876,0.0
12.143,-1.162,-0.894,0.0
11.395,-1.092,-0.901,0.0
10.78,-1.035,-0.912,0.0
10.2,-0.98,-0.918,0.0
9.741,-0.937,-0.929,0.0
13.025,-1.251,-0.875,0.0
12.25,-1.178,-0.889,0.0
11.569,-1.114,-0.902,0.0
10.889,-1.05,-0.909,0.0
10.323,-0.997,-0.917,0.0
9.811,-0.949,-0.925,0.0
13.181,-1.272,-0.872,0.0
12.452,-1.203,-0.89,0.0
11.639,-1.126,-0.895,0.0
10.979,-1.063,-0.904,0.0
10.493,-1.017,-0.921,0.0
9.946,-0.965,-0.926,0.0
13.442,-1.302,-0.874,0.0
12.544,-1.217,-0.883,0.0
11.86,-1.151,-0.898,0.0
11.077,-1.077,-0.9,0.0
10.585,-1.03,-0.917,0.0
10.022,-0.976,-0.922,0.0
13.594,-1.322,-0.868,0.0
12.806,-1.246,-0.886,0.0
11.991,-1.168,-0.894,0.0
11.288,-1.101,-0.904,0.0
10.738,-1.048,-0.917,0.0
10.159,-0.993,-0.923,0.0
13.801,-1.346,-0.865,0.0
12.826,-1.252,-0.873,0.0
12.163,-1.189,-0.893,0.0
11.468,-1.122,-0.905,0.0
10.854,-1.063,-0.915,0.0
10.256,-1.005,-0.92,0.0
14.054,-1.375,-0.865,0.0
13.132,-1.286,-0.878,0.0
12.292,-1.204,-0.888,0.0
11.593,-1.137,-0.901,0.0
10.932,-1.073,-0.908,0.0
10.39,-1.021,-0.919,0.0
14.317,-1.404,-0.864,0.0
13.347,-1.31,-0.877,0.0
12.486,-1.226,-0.887,0.0
11.761,-1.156,-0.899,0.0
11.066,-1.088,-0.906,0.0
10.562,-1.04,-0.921,0.0
14.564,-1.431,-0.861,0.0
13.56,-1.333,-0.874,0.0
12.67,-1.246,-0.884,0.0
11.945,-1.176,-0.899,0.0
11.212,-1.104,-0.904,0.0
10.693,-1.054,-0.919,0.0
14.767,-1.453,-0.855,0.0
13.797,-1.358,-0.872,0.0
12.823,-1.263,-0.879,0.0
12.106,-1.193,-0.896,0.0
11.452,-1.129,-0.909,0.0
10.841,-1.07,-0.918,0.0
15.106,-1.488,-0.855,0.0
14.052,-1.385,-0.871,0.0
13.041,-1.286,-0.877,0.0
12.278,-1.211,-0.893,0.0
11.575,-1.142,-0.904,0.0
10.901,-1.076,-0.909,0.0
15.383,-1.516,-0.851,0.0
14.237,-1.404,-0.864,0.0
13.235,-1.305,-0.874,0.0
12.417,-1.225,-0.887,0.0
11.749,-1.16,-0.902,0.0
11.058,-1.092,-0.908,0.0
15.679,-1.546,-0.848,0.0
14.518,-1.432,-0.862,0.0
13.488,-1.33,-0.873,0.0
12.676,-1.251,-0.889,0.0
11.896,-1.174,-0.898,0.0
11.188,-1.104,-0.904,0.0
16.058,-1.583,-0.847,0.0
14.751,-1.454,-0.857,0.0
13.777,-1.358,-0.874,0.0
12.843,-1.266,-0.884,0.0
12.082,-1.192,-0.896,0.0
11.385,-1.123,-0.905,0.0
16.376,-1.613,-0.843,0.0
15.164,-1.494,-0.861,0.0
14.032,-1.382,-0.871,0.0
12.959,-1.277,-0.875,0.0
12.22,-1.204,-0.89,0.0
11.597,-1.143,-0.907,0.0
16.669,-1.64,-0.836,0.0
15.388,-1.514,-0.853,0.0
14.215,-1.398,-0.864,0.0
13.277,-1.306,-0.879,0.0
12.456,-1.225,-0.891,0.0
11.782,-1.159,-0.905,0.0
17.109,-1.68,-0.835,0.0
15.673,-1.539,-0.848,0.0
14.525,-1.426,-0.863,0.0
13.531,-1.329,-0.877,0.0
12.662,-1.243,-0.889,0.0
11.91,-1.169,-0.899,0.0
17.436,-1.709,-0.828,0.0
16.063,-1.574,-0.848,0.0
14.698,-1.44,-0.854,0.0
13.651,-1.337,-0.867,0.0
12.888,-1.262,-0.887,0.0
12.108,-1.186,-0.897,0.0
0.0,0.0,0.0,0.0
16.412,-1.604,-0.844,0.0
15.049,-1.471,-0.853,0.0
14.032,-1.371,-0.872,0.0
13.059,-1.275,-0.881,0.0
12.284,-1.2,-0.894,0.0
18.37,-1.791,-0.822,0.0
16.744,-1.632,-0.838,0.0
15.413,-1.501,-0.853,0.0
14.24,-1.387,-0.865,0.0
13.258,-1.29,-0.876,0.0
12.468,-1.213,-0.89,0.0
18.87,-1.833,-0.819,0.0
17.185,-1.669,-0.837,0.0
15.796,-1.533,-0.853,0.0
14.575,-1.414,-0.866,0.0
13.588,-1.318,-0.879,0.0
12.696,-1.23,-0.889,0.0
19.333,-1.871,-0.813,0.0
17.411,-1.684,-0.824,0.0
16.095,-1.556,-0.847,0.0
14.805,-1.43,-0.859,0.0
13.799,-1.332,-0.874,0.0
12.922,-1.247,-0.887,0.0
19.556,-1.884,-0.795,0.0
17.768,-1.711,-0.816,0.0
16.566,-1.594,-0.848,0.0
15.137,-1.455,-0.857,0.0
13.973,-1.343,-0.865,0.0
13.088,-1.257,-0.88,0.0
20.017,-1.919,-0.786,0.0
0.0,0.0,0.0,0.0
16.794,-1.608,-0.837,0.0
15.478,-1.481,-0.855,0.0
14.322,-1.369,-0.867,0.0
13.38,-1.278,-0.881,0.0
20.529,-1.958,-0.778,0.0
18.931,-1.804,-0.817,0.0
17.244,-1.641,-0.836,0.0
15.858,-1.508,-0.854,0.0
14.579,-1.385,-0.862,0.0
13.617,-1.293,-0.878,0.0
21.151,-2.006,-0.772,0.0
19.25,-1.823,-0.805,0.0
17.459,-1.652,-0.822,0.0
16.239,-1.535,-0.852,0.0
15.009,-1.417,-0.867,0.0
13.845,-1.306,-0.873,0.0
21.584,-2.034,-0.758,0.0
19.729,-1.857,-0.798,0.0
17.979,-1.69,-0.822,0.0
16.635,-1.562,-0.85,0.0
15.241,-1.43,-0.859,0.0
14.125,-1.324,-0.871,0.0
22.394,-2.096,-0.756,0.0
20.039,-1.873,-0.782,0.0
0.0,0.0,0.0,0.0
16.969,-1.582,-0.844,0.0
15.574,-1.45,-0.857,0.0
14.327,-1.333,-0.864,0.0
23.019,-2.138,-0.745,0.0
20.588,-1.91,-0.775,0.0
18.959,-1.757,-0.814,0.0
17.301,-1.601,-0.836,0.0
16.003,-1.479,-0.858,0.0
14.631,-1.35,-0.862,0.0
23.81,-2.195,-0.739,0.0
21.322,-1.962,-0.774,0.0
19.259,-1.77,-0.801,0.0
17.518,-1.608,-0.823,0.0
16.298,-1.494,-0.852,0.0
15.011,-1.374,-0.864,0.0
24.118,-2.204,-0.715,0.0
21.679,-1.978,-0.757,0.0
19.715,-1.796,-0.793,0.0
17.94,-1.632,-0.818,0.0
16.648,-1.512,-0.847,0.0
15.329,-1.39,-0.861,0.0
25.14,-2.277,-0.711,0.0
22.311,-2.017,-0.749,0.0
20.166,-1.82,-0.783,0.0
18.161,-1.637,-0.803,0.0
16.98,-1.528,-0.841,0.0
15.684,-1.409,-0.86,0.0
0.0,0.0,0.0,0.0
23.12,-2.071,-0.745,0.0
20.736,-1.854,-0.777,0.0
19.165,-1.71,-0.822,0.0
17.322,-1.543,-0.834,0.0
15.963,-1.42,-0.853,0.0
26.778,-2.378,-0.685,0.0
23.605,-2.092,-0.728,0.0
21.256,-1.881,-0.768,0.0
19.462,-1.718,-0.808,0.0
17.566,-1.548,-0.822,0.0
16.379,-1.441,-0.853,0.0
27.33,-2.401,-0.662,0.0
24.173,-2.119,-0.713,0.0
21.768,-1.905,-0.757,0.0
19.508,-1.704,-0.784,0.0
18.283,-1.593,-0.831,0.0
16.54,-1.439,-0.839,0.0
0.0,0.0,0.0,0.0
0.0,0.0,0.0,0.0
22.394,-1.937,-0.749,0.0
20.388,-1.76,-0.792,0.0
18.489,-1.593,-0.816,0.0
17.111,-1.471,-0.846,0.0
28.734,-2.467,-0.621,0.0
26.108,-2.236,-0.702,0.0
23.141,-1.978,-0.744,0.0
20.657,-1.761,-0.775,0.0
18.963,-1.613,-0.812,0.0
17.336,-1.472,-0.834,0.0
30.511,-2.587,-0.619,0.0
0.0,0.0,0.0,0.0
23.887,-2.016,-0.737,0.0
21.108,-1.777,-0.765,0.0
19.257,-1.617,-0.8,0.0
17.68,-1.481,-0.828,0.0
30.341,-2.539,-0.576,0.0
27.313,-2.28,-0.663,0.0
24.4,-2.032,-0.721,0.0
21.703,-1.802,-0.758,0.0
19.875,-1.646,-0.8,0.0
18.018,-1.489,-0.82,0.0
32.43,-2.677,-0.574,0.0
27.798,-2.288,-0.639,0.0
0.0,0.0,0.0,0.0
22.408,-1.835,-0.754,0.0
