X,Y,Z,Reflectivity
65.708,6.51,1.563,10.0
65.944,6.523,1.185,8.0
66.09,6.527,0.81,9.0
49.88,4.919,0.327,5.0
66.108,6.498,2.252,9.0
66.293,6.505,1.879,9.0
66.471,6.511,1.504,9.0
66.686,6.521,1.122,8.0
66.846,6.526,0.744,8.0
49.877,4.862,0.27,10.0
66.829,6.492,2.2,6.0
67.108,6.507,1.826,7.0
67.327,6.517,1.449,8.0
67.483,6.521,1.06,10.0
67.617,6.523,0.678,8.0
53.375,5.14,0.23,4.0
67.799,6.506,2.157,8.0
67.974,6.51,1.774,9.0
68.167,6.516,1.391,9.0
68.328,6.519,0.998,9.0
68.534,6.527,0.61,5.0
47.38,4.505,0.152,14.0
68.656,6.503,2.109,8.0
68.919,6.515,1.724,8.0
69.1,6.519,1.334,9.0
69.266,6.523,0.936,9.0
69.489,6.531,0.544,2.0
46.934,4.404,0.1,21.0
69.622,6.506,2.063,9.0
69.873,6.516,1.672,9.0
70.067,6.521,1.278,11.0
70.268,6.527,0.875,9.0
70.417,6.528,0.476,2.0
46.597,4.311,0.05,20.0
70.652,6.511,2.019,9.0
70.851,6.515,1.622,11.0
71.05,6.519,1.222,12.0
71.311,6.53,0.814,9.0
65.871,6.019,0.377,2.0
46.391,4.231,0.001,23.0
71.711,6.511,1.974,10.0
71.915,6.516,1.571,9.0
72.175,6.525,1.166,9.0
72.367,6.527,0.751,9.0
53.173,4.786,0.25,3.0
46.208,4.15,-0.045,20.0
72.788,6.509,1.93,8.0
73.0,6.513,1.521,9.0
73.261,6.522,1.111,10.0
73.502,6.528,0.689,10.0
47.582,4.217,0.176,18.0
40.102,3.546,-0.078,68.0
73.871,6.501,1.886,9.0
74.157,6.511,1.472,8.0
74.41,6.518,1.054,8.0
74.636,6.522,0.627,6.0
40.102,3.496,0.109,75.0
40.112,3.49,-0.117,86.0
75.154,6.506,1.846,8.0
75.403,6.512,1.425,7.0
40.097,3.454,0.53,10.0
40.072,3.443,0.298,75.0
40.091,3.437,0.071,60.0
40.063,3.427,-0.154,62.0
40.116,3.414,0.948,111.0
40.105,3.404,0.72,109.0
40.103,3.395,0.493,106.0
40.101,3.387,0.261,117.0
40.101,3.378,0.034,150.0
39.994,3.361,-0.191,38.0
40.111,3.352,0.911,116.0
40.108,3.343,0.683,113.0
40.102,3.333,0.456,114.0
40.091,3.324,0.225,150.0
40.108,3.316,-0.001,132.0
39.726,3.277,-0.226,15.0
40.098,3.289,0.875,150.0
40.102,3.28,0.648,132.0
40.09,3.27,0.42,150.0
40.089,3.261,0.189,36.0
40.09,3.252,-0.037,55.0
0.0,0.0,0.0,0.0
41.912,3.372,0.877,99.0
41.907,3.361,0.641,110.0
41.912,3.352,0.404,121.0
41.884,3.34,0.162,131.0
40.09,3.188,-0.07,68.0
36.916,2.928,-0.273,5.0
41.899,3.303,0.842,123.0
41.908,3.294,0.606,126.0
41.902,3.284,0.369,148.0
41.87,3.271,0.128,45.0
0.0,0.0,0.0,0.0
35.732,2.775,-0.293,8.0
43.704,3.374,0.843,130.0
43.703,3.363,0.596,126.0
43.703,3.353,0.35,148.0
41.914,3.206,0.095,136.0
41.829,3.189,-0.141,39.0
0.0,0.0,0.0,0.0
43.697,3.301,0.809,138.0
43.693,3.289,0.562,137.0
43.703,3.28,0.316,120.0
40.322,3.016,0.06,40.0
40.319,3.006,-0.167,44.0
33.767,2.509,-0.33,10.0
40.365,2.98,0.716,69.0
40.369,2.97,0.489,75.0
40.383,2.961,0.262,93.0
40.316,2.946,0.03,49.0
40.315,2.936,-0.196,37.0
32.523,2.36,-0.341,10.0
41.073,2.961,0.699,104.0
41.275,2.964,0.47,150.0
41.455,2.967,0.238,89.0
40.495,2.888,0.001,15.0
40.125,2.851,-0.224,42.0
31.912,2.26,-0.358,9.0
42.022,2.955,0.686,123.0
42.219,2.958,0.452,150.0
42.661,2.978,0.216,67.0
40.325,2.804,-0.026,26.0
39.916,2.766,-0.25,15.0
31.276,2.159,-0.371,9.0
43.621,2.99,0.683,6.0
41.694,2.847,0.418,3.0
42.077,2.862,0.186,4.0
40.322,2.732,-0.052,38.0
0.0,0.0,0.0,0.0
30.641,2.06,-0.383,9.0
44.928,2.999,0.675,127.0
45.172,3.002,0.425,130.0
45.122,2.987,0.171,17.0
40.314,2.658,-0.077,41.0
0.0,0.0,0.0,0.0
30.325,1.983,-0.398,8.0
99.826,6.479,1.439,11.0
100.499,6.496,0.885,6.0
45.174,2.907,0.145,148.0
40.318,2.584,-0.1,44.0
36.242,2.313,-0.293,12.0
29.836,1.896,-0.408,8.0
45.218,2.851,0.626,2.0
45.214,2.839,0.373,58.0
45.168,2.823,0.119,47.0
40.322,2.509,-0.123,46.0
35.779,2.217,-0.309,8.0
29.342,1.81,-0.418,8.0
113.103,6.919,1.505,17.0
80.307,4.89,0.62,1.0
45.166,2.738,0.095,47.0
40.324,2.433,-0.144,49.0
35.382,2.125,-0.324,9.0
29.108,1.74,-0.429,8.0
45.23,2.681,0.579,9.0
45.191,2.666,0.326,2.0
45.169,2.651,0.073,45.0
40.32,2.355,-0.163,42.0
34.65,2.014,-0.334,7.0
28.845,1.668,-0.439,7.0
113.682,6.518,1.402,12.0
45.23,2.581,0.305,6.0
45.173,2.564,0.052,45.0
40.322,2.277,-0.182,44.0
34.445,1.935,-0.347,8.0
28.644,1.601,-0.449,5.0
120.227,6.661,1.431,6.0
62.69,3.454,0.396,6.0
45.172,2.476,0.033,42.0
40.318,2.198,-0.198,41.0
33.661,1.825,-0.353,7.0
28.522,1.538,-0.458,6.0
45.24,2.418,0.52,3.0
57.844,3.074,0.342,3.0
45.181,2.388,0.015,36.0
40.316,2.118,-0.214,34.0
33.583,1.755,-0.365,8.0
28.186,1.465,-0.463,2.0
45.233,2.329,0.503,15.0
45.221,2.314,0.251,75.0
45.18,2.298,0.0,31.0
40.297,2.038,-0.228,30.0
33.224,1.671,-0.373,4.0
27.991,1.399,-0.47,1.0
23.626,1.169,0.255,1.0
23.629,1.162,0.123,10.0
23.63,1.155,-0.007,23.0
23.651,1.149,-0.141,37.0
23.646,1.142,-0.272,36.0
23.643,1.134,-0.404,36.0
23.61,1.121,0.248,46.0
23.601,1.113,0.116,61.0
23.597,1.106,-0.014,61.0
23.606,1.099,-0.147,63.0
23.611,1.092,-0.278,73.0
23.612,1.085,-0.409,69.0
23.606,1.073,0.242,78.0
23.599,1.065,0.111,68.0
23.588,1.057,-0.019,61.0
23.606,1.051,-0.153,48.0
23.612,1.044,-0.284,47.0
23.635,1.038,-0.415,44.0
23.631,1.026,0.236,47.0
23.641,1.019,0.105,39.0
23.634,1.011,-0.024,26.0
23.644,1.004,-0.158,6.0
23.643,0.996,-0.289,0.0
27.505,1.151,-0.489,7.0
40.375,1.669,0.397,0.0
45.187,1.854,0.194,4.0
40.343,1.642,-0.049,150.0
40.067,1.619,-0.275,15.0
32.135,1.288,-0.398,1.0
27.435,1.091,-0.491,7.0
40.831,1.604,0.395,150.0
41.031,1.599,0.17,112.0
40.372,1.56,-0.055,30.0
39.838,1.527,-0.278,3.0
31.948,1.215,-0.4,0.0
27.49,1.037,-0.496,6.0
44.181,1.645,0.423,150.0
44.596,1.646,0.18,81.0
40.121,1.468,-0.059,31.0
39.937,1.449,-0.283,10.0
40.139,1.443,-0.506,0.0
27.456,0.978,-0.497,4.0
71.13,2.501,0.675,24.0
63.839,2.224,0.254,20.0
40.123,1.385,-0.061,151.0
39.975,1.367,-0.285,11.0
40.136,1.359,-0.508,1.0
27.441,0.921,-0.498,2.0
40.134,1.328,0.379,141.0
40.133,1.315,0.158,150.0
40.117,1.301,-0.062,150.0
39.942,1.282,-0.286,9.0
40.182,1.276,-0.509,2.0
27.577,0.867,-0.501,1.0
40.119,1.243,0.379,117.0
40.13,1.23,0.158,132.0
40.119,1.216,-0.061,150.0
39.949,1.198,-0.285,10.0
27.413,0.812,-0.346,2.0
27.207,0.798,-0.493,1.0
0.0,0.0,0.0,0.0
0.0,0.0,0.0,0.0
40.142,1.132,-0.06,159.0
39.944,1.113,-0.283,11.0
40.167,1.106,-0.505,0.0
27.481,0.747,-0.496,1.0
0.0,0.0,0.0,0.0
0.0,0.0,0.0,0.0
41.922,1.093,-0.058,158.0
39.899,1.027,-0.278,7.0
32.13,0.816,-0.401,0.0
28.329,0.71,-0.509,1.0
70.828,1.745,0.686,26.0
70.966,1.725,0.298,6.0
0.0,0.0,0.0,0.0
40.305,0.952,-0.276,2.0
34.084,0.793,-0.42,1.0
28.379,0.651,-0.505,1.0
70.842,1.596,0.696,0.0
79.452,1.763,0.346,3.0
52.366,1.145,-0.058,1.0
40.785,0.877,-0.272,1.0
33.221,0.703,-0.404,3.0
28.072,0.584,-0.495,0.0
162.811,3.324,1.632,17.0
88.725,1.781,0.404,1.0
55.14,1.087,-0.05,13.0
41.758,0.809,-0.27,3.0
55.225,1.051,-0.659,0.0
31.306,0.585,-0.545,0.0
55.171,1.007,0.565,72.0
55.163,0.988,0.264,95.0
55.134,0.969,-0.036,18.0
42.348,0.73,-0.263,0.0
35.576,0.601,-0.415,0.0
31.903,0.528,-0.547,0.0
163.301,2.638,1.717,18.0
0.0,0.0,0.0,0.0
55.141,0.852,-0.021,3.0
19.706,0.298,-0.117,2.0
19.668,0.29,-0.224,14.0
19.661,0.283,-0.331,13.0
19.768,0.277,0.213,24.0
19.771,0.271,0.106,3.0
19.7,0.263,-0.001,1.0
19.647,0.255,-0.11,15.0
19.643,0.248,-0.217,17.0
19.66,0.242,-0.324,14.0
19.764,0.236,0.22,26.0
19.747,0.228,0.112,12.0
19.667,0.221,0.005,13.0
19.631,0.213,-0.103,16.0
19.641,0.207,-0.21,16.0
19.66,0.2,-0.317,15.0
19.674,0.193,0.226,12.0
19.666,0.186,0.12,12.0
19.63,0.179,0.013,17.0
19.625,0.172,-0.095,14.0
19.657,0.166,-0.202,10.0
33.961,0.275,-0.534,0.0
19.663,0.151,0.235,16.0
19.64,0.144,0.128,15.0
19.646,0.138,0.021,14.0
19.67,0.131,-0.087,8.0
0.0,0.0,0.0,0.0
33.927,0.203,-0.518,0.0
19.628,0.11,0.243,15.0
19.674,0.103,0.137,11.0
19.711,0.097,0.03,13.0
19.744,0.09,-0.078,17.0
19.774,0.083,-0.185,35.0
19.781,0.077,-0.292,53.0
19.621,0.069,0.253,15.0
19.738,0.062,0.147,19.0
19.747,0.056,0.04,16.0
19.731,0.049,-0.068,17.0
19.753,0.042,-0.174,9.0
19.762,0.035,-0.281,14.0
19.623,0.028,0.263,16.0
19.773,0.021,0.158,2.0
19.771,0.014,0.051,4.0
19.738,0.007,-0.057,6.0
19.759,0.0,-0.164,1.0
36.482,-0.01,-0.5,0.0
19.639,-0.012,0.274,13.0
19.659,-0.019,0.168,9.0
19.694,-0.026,0.062,15.0
19.694,-0.033,-0.045,16.0
19.734,-0.039,-0.152,14.0
19.751,-0.046,-0.259,15.0
19.647,-0.053,0.286,10.0
19.704,-0.06,0.181,16.0
19.703,-0.066,0.074,13.0
19.705,-0.073,-0.033,15.0
19.718,-0.08,-0.139,17.0
19.747,-0.087,-0.246,16.0
19.687,-0.093,0.299,9.0
19.719,-0.1,0.193,13.0
19.734,-0.107,0.087,8.0
19.722,-0.114,-0.02,10.0
19.727,-0.121,-0.126,16.0
19.739,-0.128,-0.233,16.0
169.309,-1.151,2.69,6.0
165.34,-1.18,1.737,11.0
160.724,-1.202,0.823,3.0
0.0,0.0,0.0,0.0
19.77,-0.161,-0.113,9.0
19.777,-0.168,-0.219,12.0
19.763,-0.173,0.327,0.0
164.104,-1.499,1.839,13.0
160.851,-1.526,0.938,6.0
0.0,0.0,0.0,0.0
0.0,0.0,0.0,0.0
0.0,0.0,0.0,0.0
19.748,-0.213,0.342,10.0
19.747,-0.22,0.236,10.0
19.749,-0.227,0.13,4.0
0.0,0.0,0.0,0.0
0.0,0.0,0.0,0.0
0.0,0.0,0.0,0.0
19.765,-0.253,0.357,7.0
19.748,-0.259,0.251,11.0
19.737,-0.266,0.145,28.0
19.733,-0.273,0.037,0.0
0.0,0.0,0.0,0.0
42.315,-0.615,-0.372,0.0
173.504,-2.571,3.282,9.0
163.166,-2.472,2.212,25.0
19.758,-0.305,0.162,2.0
0.0,0.0,0.0,0.0
0.0,0.0,0.0,0.0
45.919,-0.757,-0.365,0.0
170.343,-2.857,3.365,6.0
163.28,-2.794,2.352,30.0
163.244,-2.848,1.478,17.0
0.0,0.0,0.0,0.0
0.0,0.0,0.0,0.0
0.0,0.0,0.0,0.0
170.416,-3.19,3.516,6.0
163.735,-3.119,2.502,13.0
163.457,-3.169,1.625,21.0
0.0,0.0,0.0,0.0
0.0,0.0,0.0,0.0
0.0,0.0,0.0,0.0
170.29,-3.513,3.667,3.0
170.326,-3.571,2.758,6.0
162.294,-3.457,1.762,4.0
160.818,-3.478,0.872,8.0
0.0,0.0,0.0,0.0
0.0,0.0,0.0,0.0
0.0,0.0,0.0,0.0
170.312,-3.895,2.919,7.0
162.019,-3.759,1.914,26.0
160.723,-3.783,1.026,17.0
0.0,0.0,0.0,0.0
0.0,0.0,0.0,0.0
171.565,-4.192,4.023,4.0
170.351,-4.218,3.087,6.0
161.903,-4.059,2.071,15.0
0.0,0.0,0.0,0.0
0.0,0.0,0.0,0.0
0.0,0.0,0.0,0.0
0.0,0.0,0.0,0.0
178.162,-4.743,3.409,5.0
0.0,0.0,0.0,0.0
149.168,-4.069,1.253,150.0
0.0,0.0,0.0,0.0
0.0,0.0,0.0,0.0
163.497,-4.604,4.169,7.0
167.795,-4.779,3.386,13.0
163.985,-4.72,2.437,16.0
149.059,-4.339,1.408,152.0
0.0,0.0,0.0,0.0
0.0,0.0,0.0,0.0
163.335,-4.899,4.34,12.0
0.0,0.0,0.0,0.0
0.0,0.0,0.0,0.0
148.964,-4.606,1.569,150.0
0.0,0.0,0.0,0.0
0.0,0.0,0.0,0.0
163.282,-5.189,4.516,17.0
162.598,-5.217,3.634,5.0
162.229,-5.255,2.766,22.0
148.987,-4.872,1.734,60.0
0.0,0.0,0.0,0.0
0.0,0.0,0.0,0.0
163.179,-5.472,4.696,8.0
163.366,-5.529,3.835,13.0
162.203,-5.537,2.947,21.0
0.0,0.0,0.0,0.0
149.232,-5.186,1.115,3.0
0.0,0.0,0.0,0.0
140.04,-4.94,4.191,18.0
141.943,-5.049,3.495,11.0
162.264,-5.82,3.135,23.0
0.0,0.0,0.0,0.0
0.0,0.0,0.0,0.0
0.0,0.0,0.0,0.0
138.483,-5.12,4.306,17.0
142.073,-5.295,3.665,12.0
162.284,-6.096,3.327,15.0
105.055,-3.976,1.587,2.0
0.0,0.0,0.0,0.0
0.0,0.0,0.0,0.0
124.703,-4.817,4.024,9.0
142.041,-5.527,3.833,23.0
162.289,-6.363,3.522,5.0
0.0,0.0,0.0,0.0
0.0,0.0,0.0,0.0
0.0,0.0,0.0,0.0
124.689,-5.024,4.178,8.0
141.6,-5.745,3.996,18.0
0.0,0.0,0.0,0.0
0.0,0.0,0.0,0.0
101.562,-4.207,1.246,47.0
101.468,-4.233,0.71,59.0
127.045,-5.324,4.416,7.0
141.916,-5.988,4.184,7.0
142.606,-6.057,3.45,19.0
0.0,0.0,0.0,0.0
101.504,-4.369,1.375,54.0
0.0,0.0,0.0,0.0
117.39,-5.108,4.231,21.0
118.865,-5.205,3.657,24.0
142.467,-6.275,3.629,17.0
0.0,0.0,0.0,0.0
101.598,-4.531,1.506,2.0
101.529,-4.556,0.971,4.0
117.52,-5.297,4.387,26.0
118.858,-5.388,3.81,8.0
142.38,-6.491,3.812,13.0
0.0,0.0,0.0,0.0
102.147,-4.713,1.649,1.0
101.548,-4.712,1.105,152.0
117.232,-5.461,4.53,23.0
118.046,-5.531,3.94,15.0
150.404,-7.084,4.226,9.0
139.271,-6.596,3.165,11.0
0.0,0.0,0.0,0.0
101.505,-4.861,1.24,14.0
116.881,-5.619,4.673,21.0
117.89,-5.698,4.091,19.0
140.933,-6.847,4.15,24.0
139.502,-6.814,3.36,7.0
0.0,0.0,0.0,0.0
0.0,0.0,0.0,0.0
110.053,-5.452,4.551,10.0
109.977,-5.476,3.968,16.0
125.512,-6.28,3.867,10.0
140.983,-7.089,3.588,33.0
0.0,0.0,0.0,0.0
0.0,0.0,0.0,0.0
108.374,-5.523,4.63,20.0
109.47,-5.605,4.1,25.0
117.302,-6.035,3.776,20.0
140.373,-7.257,3.768,21.0
140.826,-7.313,3.039,7.0
102.27,-5.336,1.671,1.0
108.076,-5.659,4.768,29.0
109.194,-5.742,4.242,17.0
117.028,-6.182,3.932,23.0
137.669,-7.303,3.887,12.0
140.664,-7.496,3.233,37.0
0.0,0.0,0.0,0.0
108.024,-5.801,4.918,23.0
108.832,-5.869,4.383,19.0
109.825,-5.949,3.846,13.0
117.228,-6.377,3.478,10.0
163.376,-8.926,3.991,13.0
140.641,-7.715,2.697,20.0
108.232,-5.956,5.083,31.0
107.783,-5.956,4.496,21.0
109.12,-6.053,3.979,23.0
117.103,-6.522,3.643,31.0
163.456,-9.141,4.228,7.0
147.465,-8.281,3.042,13.0
108.157,-6.093,5.239,33.0
107.654,-6.087,4.649,27.0
109.06,-6.19,4.136,23.0
117.592,-6.7,3.832,28.0
119.81,-6.851,3.275,17.0
149.608,-8.589,3.307,17.0
107.968,-6.217,5.389,26.0
107.482,-6.212,4.801,26.0
0.0,0.0,0.0,0.0
117.129,-6.817,3.99,22.0
117.29,-6.852,3.381,38.0
149.36,-8.755,3.523,18.0
107.826,-6.34,5.543,30.0
107.331,-6.332,4.953,30.0
107.775,-6.38,4.408,32.0
109.464,-6.503,3.892,25.0
117.429,-6.998,3.56,16.0
149.104,-8.917,3.74,14.0
107.266,-6.432,5.674,22.0
107.291,-6.454,5.111,25.0
108.045,-6.521,4.581,25.0
109.23,-6.614,4.048,29.0
117.677,-7.147,3.744,7.0
117.261,-7.145,3.117,40.0
107.07,-6.543,5.826,28.0
107.32,-6.577,5.276,24.0
107.951,-6.636,4.741,26.0
108.857,-6.712,4.199,27.0
109.86,-6.793,3.662,25.0
117.46,-7.285,3.3,23.0
107.258,-6.672,5.999,19.0
107.417,-6.7,5.443,30.0
107.656,-6.733,4.891,25.0
108.871,-6.829,4.365,18.0
109.537,-6.89,3.818,21.0
117.079,-7.385,3.467,32.0
107.95,-6.828,6.203,18.0
107.275,-6.804,5.601,25.0
107.677,-6.848,5.058,25.0
108.209,-6.899,4.505,24.0
108.78,-6.954,3.959,29.0
120.84,-7.746,3.766,3.0
108.063,-6.946,6.377,18.0
107.244,-6.91,5.766,23.0
107.458,-6.941,5.213,29.0
108.045,-6.995,4.664,35.0
109.108,-7.082,4.139,25.0
108.943,-7.089,3.562,28.0
107.503,-7.013,6.509,18.0
106.819,-6.985,5.907,19.0
107.342,-7.036,5.372,28.0
107.964,-7.093,4.827,30.0
108.356,-7.134,4.276,20.0
109.236,-7.21,3.74,20.0
107.19,-7.095,6.659,20.0
107.059,-7.099,6.087,20.0
107.038,-7.114,5.524,29.0
107.699,-7.173,4.982,25.0
108.061,-7.212,4.434,28.0
108.671,-7.269,3.891,24.0
106.791,-7.163,6.8,18.0
107.056,-7.195,6.255,34.0
106.993,-7.206,5.69,24.0
107.455,-7.25,5.14,26.0
107.909,-7.296,4.596,24.0
108.076,-7.321,4.038,22.0
107.714,-7.316,7.028,21.0
106.963,-7.279,6.417,27.0
107.157,-7.304,5.865,20.0
107.476,-7.34,5.309,20.0
108.068,-7.394,4.771,23.0
107.939,-7.399,4.201,24.0
107.51,-7.389,7.184,18.0
106.759,-7.35,6.572,21.0
107.168,-7.391,6.035,23.0
107.569,-7.43,5.482,23.0
108.071,-7.478,4.942,26.0
107.7,-7.466,4.362,27.0
109.834,-7.635,7.513,12.0
107.486,-7.482,6.787,18.0
107.244,-7.477,6.208,20.0
107.573,-7.511,5.652,22.0
107.595,-7.525,5.09,27.0
108.221,-7.58,4.552,23.0
110.02,-7.727,7.699,18.0
107.65,-7.57,6.967,18.0
107.401,-7.563,6.387,11.0
107.397,-7.574,5.813,17.0
107.811,-7.615,5.269,23.0
108.565,-7.678,4.737,19.0
110.561,-7.84,7.912,18.0
110.432,-7.84,7.321,12.0
107.783,-7.662,6.578,15.0
107.286,-7.636,5.974,24.0
107.781,-7.682,5.437,27.0
108.001,-7.708,4.883,16.0
104.939,-7.509,7.675,26.0
110.788,-7.936,7.52,22.0
107.603,-7.717,6.737,7.0
107.49,-7.717,6.154,21.0
107.94,-7.758,5.614,25.0
108.081,-7.778,5.056,20.0
105.071,-7.581,7.85,15.0
104.938,-7.579,7.288,18.0
110.93,-8.02,7.121,8.0
107.889,-7.807,6.348,24.0
107.564,-7.792,5.764,26.0
107.994,-7.832,5.222,26.0
107.476,-7.815,8.2,14.0
104.909,-7.634,7.451,22.0
113.787,-8.287,7.483,9.0
108.033,-7.875,6.526,15.0
107.902,-7.873,5.952,23.0
107.856,-7.876,5.384,29.0
109.639,-8.028,8.539,15.0
105.191,-7.708,7.637,17.0
105.648,-7.746,7.115,18.0
108.877,-7.989,6.749,17.0
107.954,-7.928,6.124,20.0
107.794,-7.923,5.548,25.0
109.875,-8.097,8.728,16.0
104.945,-7.738,7.783,18.0
104.892,-7.738,7.226,23.0
107.686,-7.95,6.841,10.0
108.096,-7.985,6.3,22.0
107.783,-7.968,5.715,21.0
114.925,-8.518,9.309,6.0
104.744,-7.767,7.932,17.0
104.79,-7.774,7.383,9.0
105.647,-7.841,6.876,7.0
107.937,-8.016,6.456,27.0
108.049,-8.029,5.895,23.0
107.571,-8.014,8.881,9.0
104.655,-7.8,8.086,13.0
106.612,-7.947,7.674,8.0
105.568,-7.873,7.033,28.0
107.809,-8.044,6.614,25.0
108.034,-8.064,6.06,19.0
107.242,-8.026,9.02,10.0
110.853,-8.298,8.737,17.0
104.817,-7.848,7.708,28.0
105.545,-7.904,7.193,19.0
107.775,-8.074,6.777,17.0
108.207,-8.109,6.236,18.0
110.185,-8.28,9.437,6.0
104.546,-7.856,8.4,19.0
104.701,-7.869,7.859,22.0
105.558,-7.934,7.356,7.0
105.572,-7.936,6.8,5.0
108.033,-8.123,6.39,25.0
107.231,-8.085,9.348,7.0
107.097,-8.074,8.77,8.0
104.694,-7.893,8.018,23.0
106.553,-8.034,7.587,22.0
105.632,-7.964,6.964,23.0
107.895,-8.135,6.545,19.0
107.186,-8.104,9.507,22.0
107.146,-8.1,8.936,9.0
104.743,-7.917,8.181,20.0
106.208,-8.027,7.724,26.0
105.661,-7.985,7.125,21.0
106.378,-8.04,6.613,8.0
107.231,-8.125,9.674,14.0
110.192,-8.348,9.357,9.0
104.589,-7.922,8.327,26.0
104.82,-7.938,7.779,12.0
105.532,-7.989,7.276,9.0
107.723,-8.154,6.857,6.0
107.204,-8.138,9.834,18.0
107.204,-8.135,9.264,9.0
104.454,-7.923,8.472,21.0
104.73,-7.941,7.928,18.0
106.714,-8.09,7.514,19.0
105.719,-8.012,6.885,12.0
106.782,-8.114,9.954,21.0
107.222,-8.143,9.424,20.0
104.432,-7.928,8.623,7.0
104.759,-7.95,8.084,24.0
106.417,-8.073,7.648,24.0
105.734,-8.017,7.04,22.0
49.464,-3.761,4.683,8.0
107.199,-8.146,9.579,21.0
110.065,-8.359,9.25,9.0
104.671,-7.945,8.23,27.0
106.072,-8.047,7.777,19.0
105.632,-8.01,7.186,16.0
49.49,-3.763,4.757,18.0
107.278,-8.151,9.741,17.0
107.212,-8.141,9.164,6.0
104.537,-7.932,8.368,29.0
104.798,-7.947,7.832,13.0
106.894,-8.102,7.423,6.0
49.537,-3.764,4.833,15.0
107.111,-8.133,9.879,19.0
107.231,-8.136,9.318,14.0
104.479,-7.921,8.512,18.0
104.723,-7.933,7.975,21.0
106.563,-8.067,7.55,23.0
106.355,-8.074,10.527,18.0
106.562,-8.082,9.977,21.0
107.245,-8.127,9.469,21.0
107.09,-8.108,8.873,10.0
104.753,-7.924,8.123,20.0
106.256,-8.031,7.674,24.0
106.784,-8.093,10.718,21.0
49.472,-3.745,4.701,9.0
107.229,-8.111,9.615,18.0
109.996,-8.311,9.265,10.0
104.688,-7.903,8.26,19.0
104.854,-7.908,7.716,17.0
106.04,-8.02,10.79,22.0
49.503,-3.739,4.771,19.0
107.141,-8.085,9.754,16.0
110.199,-8.307,9.432,6.0
104.506,-7.869,8.387,20.0
104.706,-7.876,7.846,23.0
105.964,-7.993,10.926,27.0
49.494,-3.729,4.837,7.0
107.062,-8.055,9.891,17.0
108.792,-8.176,9.457,10.0
104.498,-7.844,8.526,12.0
104.684,-7.849,7.984,22.0
105.993,-7.969,11.07,17.0
49.591,-3.723,4.913,8.0
106.709,-8.002,10.0,20.0
107.264,-8.032,9.466,19.0
107.328,-8.026,8.899,11.0
104.681,-7.819,8.121,6.0
49.414,-3.701,5.226,4.0
106.802,-7.988,10.721,19.0
49.533,-3.699,4.706,5.0
107.089,-7.988,9.588,22.0
107.151,-7.98,9.02,17.0
110.13,-8.191,8.683,16.0
49.39,-3.683,5.287,13.0
107.032,-7.97,10.88,21.0
49.557,-3.684,4.771,3.0
106.931,-7.938,9.711,22.0
107.14,-7.942,9.156,19.0
109.893,-8.135,8.802,11.0
49.385,-3.665,5.349,5.0
107.132,-7.938,11.026,21.0
49.573,-3.667,4.835,20.0
107.0,-7.903,9.85,23.0
107.371,-7.917,9.309,13.0
110.439,-8.13,8.983,12.0
49.417,-3.648,5.414,7.0
107.028,-7.887,11.148,20.0
49.581,-3.647,4.897,12.0
107.181,-7.87,9.999,17.0
107.295,-7.866,9.432,9.0
110.039,-8.054,9.082,17.0
107.007,-7.852,11.855,23.0
106.818,-7.824,11.255,23.0
106.785,-7.808,10.674,19.0
107.175,-7.821,10.124,22.0
107.545,-7.835,9.58,8.0
109.935,-7.995,9.201,12.0
107.514,-7.839,12.037,24.0
106.748,-7.768,11.373,22.0
106.881,-7.763,10.808,18.0
49.568,-3.593,4.74,4.0
109.183,-7.899,9.852,18.0
107.081,-7.733,9.085,14.0
107.724,-7.801,12.184,21.0
106.84,-7.72,11.504,21.0
106.692,-7.694,10.91,18.0
106.828,-7.689,10.334,23.0
109.385,-7.856,9.992,13.0
107.033,-7.672,9.2,20.0
0.0,0.0,0.0,0.0
0.0,0.0,0.0,0.0
0.0,0.0,0.0,0.0
0.0,0.0,0.0,0.0
0.0,0.0,0.0,0.0
0.0,0.0,0.0,0.0
0.0,0.0,0.0,0.0
0.0,0.0,0.0,0.0
84.624,-0.297,7.445,2.0
0.0,0.0,0.0,0.0
0.0,0.0,0.0,0.0
0.0,0.0,0.0,0.0
0.0,0.0,0.0,0.0
0.0,0.0,0.0,0.0
84.638,-0.231,7.313,4.0
0.0,0.0,0.0,0.0
0.0,0.0,0.0,0.0
113.903,-0.275,7.836,5.0
0.0,0.0,0.0,0.0
0.0,0.0,0.0,0.0
0.0,0.0,0.0,0.0
0.0,0.0,0.0,0.0
0.0,0.0,0.0,0.0
113.92,-0.188,7.651,2.0
0.0,0.0,0.0,0.0
0.0,0.0,0.0,0.0
0.0,0.0,0.0,0.0
0.0,0.0,0.0,0.0
0.0,0.0,0.0,0.0
0.0,0.0,0.0,0.0
0.0,0.0,0.0,0.0
84.806,-0.048,7.403,9.0
0.0,0.0,0.0,0.0
0.0,0.0,0.0,0.0
113.895,-0.035,7.934,5.0
0.0,0.0,0.0,0.0
0.0,0.0,0.0,0.0
84.786,0.01,7.256,4.0
0.0,0.0,0.0,0.0
0.0,0.0,0.0,0.0
113.872,0.042,7.736,11.0
0.0,0.0,0.0,0.0
0.0,0.0,0.0,0.0
0.0,0.0,0.0,0.0
0.0,0.0,0.0,0.0
0.0,0.0,0.0,0.0
0.0,0.0,0.0,0.0
0.0,0.0,0.0,0.0
84.666,0.114,7.444,1.0
0.0,0.0,0.0,0.0
0.0,0.0,0.0,0.0
0.0,0.0,0.0,0.0
0.0,0.0,0.0,0.0
0.0,0.0,0.0,0.0
84.797,0.165,7.305,20.0
0.0,0.0,0.0,0.0
0.0,0.0,0.0,0.0
113.903,0.244,7.798,9.0
0.0,0.0,0.0,0.0
139.017,0.318,7.894,6.0
84.731,0.213,7.145,5.0
0.0,0.0,0.0,0.0
0.0,0.0,0.0,0.0
113.934,0.308,7.593,10.0
0.0,0.0,0.0,0.0
19.606,0.055,1.077,2.0
0.0,0.0,0.0,0.0
0.0,0.0,0.0,0.0
0.0,0.0,0.0,0.0
0.0,0.0,0.0,0.0
0.0,0.0,0.0,0.0
19.571,0.065,1.04,8.0
0.0,0.0,0.0,0.0
0.0,0.0,0.0,0.0
0.0,0.0,0.0,0.0
0.0,0.0,0.0,0.0
0.0,0.0,0.0,0.0
19.564,0.074,1.003,14.0
0.0,0.0,0.0,0.0
0.0,0.0,0.0,0.0
113.941,0.47,7.636,10.0
0.0,0.0,0.0,0.0
19.6,0.082,1.082,0.0
19.583,0.083,0.967,17.0
0.0,0.0,0.0,0.0
0.0,0.0,0.0,0.0
113.954,0.519,7.421,20.0
0.0,0.0,0.0,0.0
19.593,0.09,1.044,6.0
19.583,0.091,0.929,16.0
0.0,0.0,0.0,0.0
0.0,0.0,0.0,0.0
113.965,0.564,7.202,4.0
0.0,0.0,0.0,0.0
19.577,0.098,1.006,9.0
19.591,0.099,0.892,12.0
0.0,0.0,0.0,0.0
0.0,0.0,0.0,0.0
0.0,0.0,0.0,0.0
0.0,0.0,0.0,0.0
19.601,0.105,0.969,13.0
19.659,0.106,0.857,4.0
0.0,0.0,0.0,0.0
113.907,0.638,7.421,19.0
0.0,0.0,0.0,0.0
19.621,0.11,1.046,2.0
19.597,0.111,0.93,14.0
19.697,0.112,0.82,2.0
0.0,0.0,0.0,0.0
113.926,0.671,7.197,36.0
114.132,0.675,6.541,2.0
19.626,0.116,1.008,7.0
19.637,0.116,0.893,5.0
19.665,0.117,0.78,7.0
0.0,0.0,0.0,0.0
113.915,0.7,6.97,32.0
113.998,0.702,6.308,18.0
19.608,0.121,0.968,8.0
113.986,0.706,4.962,19.0
19.637,0.121,0.74,9.0
0.0,0.0,0.0,0.0
113.956,0.725,6.746,44.0
113.99,0.726,6.079,21.0
19.619,0.125,0.929,6.0
19.699,0.125,0.817,1.0
19.618,0.125,0.7,11.0
113.943,0.745,7.181,11.0
113.946,0.746,6.511,45.0
19.654,0.128,1.007,1.0
19.644,0.128,0.89,0.0
19.66,0.129,0.776,7.0
19.611,0.128,0.659,13.0
113.948,0.763,6.95,21.0
113.943,0.762,6.281,42.0
19.62,0.131,0.966,2.0
113.97,0.762,4.935,51.0
19.633,0.131,0.735,9.0
19.601,0.131,0.619,14.0
113.937,0.775,6.715,24.0
113.968,0.775,6.048,26.0
19.632,0.133,0.926,2.0
19.676,0.133,0.811,1.0
19.608,0.133,0.693,10.0
19.596,0.132,0.578,15.0
113.967,0.785,6.48,24.0
19.629,0.134,1.001,0.0
113.947,0.781,5.143,30.0
19.656,0.134,0.77,7.0
19.606,0.134,0.653,13.0
19.599,0.133,0.538,16.0
113.967,0.788,6.245,23.0
19.607,0.135,0.959,1.0
113.999,0.785,4.911,43.0
19.625,0.134,0.728,9.0
19.597,0.134,0.613,14.0
19.599,0.133,0.498,15.0
113.975,0.789,6.012,20.0
19.621,0.135,0.919,1.0
19.696,0.135,0.807,2.0
19.608,0.134,0.687,10.0
19.587,0.133,0.572,15.0
19.611,0.133,0.458,13.0
19.687,0.135,0.997,0.0
113.989,0.781,5.107,38.0
19.646,0.134,0.765,7.0
19.596,0.133,0.646,12.0
19.594,0.132,0.531,16.0
19.612,0.132,0.417,13.0
19.626,0.133,0.953,2.0
113.963,0.772,4.866,45.0
19.625,0.132,0.723,9.0
19.578,0.131,0.605,15.0
19.605,0.13,0.491,15.0
19.612,0.13,0.376,12.0
19.638,0.131,0.912,1.0
19.684,0.131,0.799,3.0
19.612,0.129,0.682,11.0
19.58,0.128,0.564,16.0
19.599,0.128,0.45,13.0
19.617,0.127,0.336,12.0
113.972,0.746,5.06,38.0
19.642,0.127,0.757,9.0
19.597,0.126,0.64,12.0
19.586,0.125,0.523,16.0
19.612,0.124,0.409,13.0
19.625,0.124,0.295,12.0
113.98,0.724,4.822,21.0
19.624,0.123,0.715,10.0
19.588,0.122,0.599,16.0
19.587,0.121,0.482,15.0
19.609,0.12,0.368,13.0
19.627,0.12,0.254,11.0
19.668,0.12,0.79,6.0
19.604,0.119,0.673,12.0
19.608,0.118,0.559,19.0
19.586,0.116,0.442,18.0
19.605,0.116,0.327,12.0
19.663,0.115,0.214,16.0
19.642,0.115,0.748,10.0
19.594,0.113,0.632,13.0
19.588,0.112,0.517,16.0
19.587,0.111,0.4,18.0
19.606,0.11,0.286,13.0
19.658,0.109,0.172,15.0
19.617,0.109,0.706,12.0
19.594,0.107,0.591,17.0
19.612,0.106,0.476,21.0
19.598,0.105,0.36,17.0
19.617,0.104,0.245,12.0
19.652,0.102,0.13,13.0
19.617,0.102,0.665,13.0
19.614,0.101,0.55,21.0
19.609,0.099,0.435,28.0
19.592,0.098,0.318,16.0
19.654,0.097,0.205,12.0
19.658,0.095,0.09,12.0
19.599,0.095,0.624,14.0
19.606,0.093,0.509,18.0
19.618,0.092,0.394,24.0
19.598,0.09,0.278,16.0
19.67,0.089,0.164,12.0
19.68,0.088,0.049,11.0
19.589,0.086,0.582,15.0
19.614,0.085,0.468,26.0
19.608,0.083,0.354,16.0
19.615,0.082,0.237,15.0
19.685,0.081,0.123,14.0
19.76,0.079,0.008,22.0
19.6,0.078,0.542,18.0
19.612,0.076,0.428,24.0
19.607,0.074,0.313,15.0
19.629,0.073,0.197,12.0
19.705,0.071,0.082,21.0
19.756,0.07,-0.032,36.0
19.611,0.068,0.501,26.0
19.611,0.066,0.387,18.0
19.613,0.065,0.272,12.0
19.67,0.063,0.156,11.0
19.755,0.062,0.041,57.0
19.766,0.06,-0.073,56.0
19.613,0.058,0.46,22.0
19.613,0.056,0.346,13.0
19.621,0.054,0.231,14.0
19.716,0.052,0.115,18.0
19.746,0.051,0.0,66.0
19.756,0.049,-0.114,52.0
19.61,0.047,0.42,13.0
19.618,0.045,0.306,12.0
19.685,0.043,0.192,10.0
19.737,0.041,0.075,16.0
19.753,0.039,-0.039,51.0
19.763,0.037,-0.155,14.0
19.613,0.035,0.38,16.0
19.618,0.033,0.265,13.0
19.744,0.031,0.151,13.0
19.717,0.029,0.034,16.0
19.744,0.027,-0.08,11.0
19.774,0.025,-0.196,24.0
19.62,0.022,0.339,17.0
19.63,0.02,0.225,16.0
19.75,0.018,0.111,8.0
19.726,0.016,-0.006,15.0
19.78,0.014,-0.121,1.0
19.784,0.012,-0.237,1.0
19.626,0.009,0.299,15.0
19.707,0.007,0.185,6.0
19.784,0.005,0.071,6.0
19.754,0.002,-0.046,6.0
19.92,0.0,-0.163,0.0
0.0,0.0,0.0,0.0
19.633,-0.004,0.259,14.0
19.731,-0.006,0.145,1.0
19.718,-0.009,0.03,10.0
19.762,-0.011,-0.086,3.0
19.704,-0.013,-0.201,0.0
33.807,-0.028,-0.543,0.0
19.651,-0.018,0.22,15.0
19.696,-0.021,0.106,12.0
19.711,-0.023,-0.009,13.0
19.742,-0.026,-0.126,11.0
19.765,-0.028,-0.241,1.0
31.494,-0.05,-0.569,0.0
19.672,-0.034,0.181,10.0
19.698,-0.036,0.066,15.0
19.715,-0.039,-0.048,13.0
19.737,-0.042,-0.165,13.0
19.77,-0.044,-0.281,5.0
29.533,-0.07,-0.592,0.0
19.703,-0.05,0.142,18.0
19.702,-0.052,0.027,16.0
19.721,-0.055,-0.087,13.0
19.729,-0.058,-0.204,15.0
19.757,-0.061,-0.32,10.0
19.775,-0.063,-0.435,2.0
19.712,-0.066,0.103,16.0
19.713,-0.069,-0.011,16.0
19.722,-0.072,-0.126,16.0
19.732,-0.075,-0.243,15.0
19.764,-0.078,-0.359,12.0
19.746,-0.081,-0.474,12.0
19.709,-0.084,0.064,15.0
19.726,-0.087,-0.049,11.0
19.718,-0.089,-0.164,16.0
19.741,-0.092,-0.281,14.0
19.744,-0.095,-0.397,16.0
19.746,-0.098,-0.512,16.0
19.715,-0.102,0.027,14.0
19.713,-0.104,-0.087,15.0
19.722,-0.108,-0.202,16.0
19.729,-0.111,-0.319,14.0
19.733,-0.114,-0.434,17.0
19.744,-0.117,-0.55,16.0
19.736,-0.12,-0.01,11.0
19.715,-0.123,-0.125,16.0
19.726,-0.126,-0.24,16.0
19.728,-0.13,-0.357,17.0
19.727,-0.133,-0.472,17.0
19.748,-0.136,-0.587,17.0
19.769,-0.14,-0.048,10.0
19.738,-0.143,-0.162,16.0
19.735,-0.146,-0.277,16.0
19.725,-0.149,-0.394,17.0
19.755,-0.152,-0.509,20.0
19.754,-0.156,-0.625,14.0
19.755,-0.159,-0.084,12.0
19.742,-0.163,-0.199,13.0
19.743,-0.166,-0.314,13.0
19.732,-0.169,-0.431,13.0
19.761,-0.173,-0.546,9.0
19.777,-0.176,-0.662,2.0
19.785,-0.18,-0.121,6.0
19.77,-0.184,-0.236,10.0
19.764,-0.187,-0.351,10.0
19.75,-0.19,-0.468,3.0
23.799,-0.233,-0.702,0.0
19.781,-0.197,-0.699,2.0
19.761,-0.201,-0.157,0.0
19.764,-0.205,-0.272,0.0
29.893,-0.315,-0.585,0.0
26.024,-0.279,-0.664,0.0
22.743,-0.248,-0.712,0.0
19.773,-0.219,-0.734,9.0
41.009,-0.463,-0.401,0.0
0.0,0.0,0.0,0.0
28.888,-0.336,-0.617,0.0
24.97,-0.295,-0.682,0.0
22.15,-0.266,-0.733,0.0
19.678,-0.24,-0.766,3.0
0.0,0.0,0.0,0.0
0.0,0.0,0.0,0.0
0.0,0.0,0.0,0.0
24.057,-0.312,-0.699,0.0
21.121,-0.278,-0.737,0.0
19.217,-0.256,-0.782,1.0
34.914,-0.474,-0.465,0.0
30.246,-0.416,-0.578,0.0
26.212,-0.365,-0.653,0.0
23.001,-0.325,-0.709,0.0
19.901,-0.285,-0.729,2.0
18.767,-0.272,-0.797,0.0
33.518,-0.494,-0.504,0.0
29.073,-0.434,-0.606,0.0
25.32,-0.383,-0.675,0.0
22.312,-0.342,-0.726,1.0
19.968,-0.31,-0.766,0.0
18.162,-0.286,-0.802,0.0
32.269,-0.515,-0.54,0.0
26.926,-0.435,-0.607,0.0
24.408,-0.399,-0.692,0.0
21.628,-0.358,-0.741,3.0
19.468,-0.326,-0.78,1.0
17.555,-0.298,-0.805,0.0
30.565,-0.526,-0.563,0.0
26.675,-0.464,-0.646,0.0
23.396,-0.412,-0.702,0.0
20.814,-0.371,-0.748,0.0
19.037,-0.343,-0.794,0.0
17.125,-0.312,-0.814,0.0
29.838,-0.551,-0.599,0.0
21.728,-0.405,-0.562,8.0
21.719,-0.41,-0.687,4.0
20.239,-0.386,-0.76,0.0
18.454,-0.356,-0.8,0.0
16.649,-0.325,-0.818,0.0
15.393,-1.426,-0.849,0.0
14.238,-1.323,-0.864,0.0
13.192,-1.229,-0.873,0.0
12.337,-1.153,-0.887,0.0
11.619,-1.089,-0.899,0.0
10.928,-1.028,-0.907,0.0
15.471,-1.454,-0.848,0.0
14.337,-1.351,-0.865,0.0
13.273,-1.254,-0.875,0.0
12.374,-1.173,-0.885,0.0
11.679,-1.11,-0.9,0.0
10.961,-1.045,-0.906,0.0
15.454,-1.472,-0.842,0.0
14.374,-1.373,-0.863,0.0
13.325,-1.277,-0.873,0.0
12.385,-1.19,-0.882,0.0
11.753,-1.133,-0.902,0.0
11.015,-1.064,-0.906,0.0
15.636,-1.51,-0.846,0.0
14.433,-1.397,-0.861,0.0
13.428,-1.303,-0.875,0.0
12.508,-1.218,-0.886,0.0
11.797,-1.152,-0.9,0.0
11.063,-1.083,-0.906,0.0
15.712,-1.536,-0.844,0.0
14.473,-1.419,-0.857,0.0
13.483,-1.326,-0.873,0.0
12.523,-1.234,-0.881,0.0
11.8,-1.166,-0.895,0.0
11.121,-1.102,-0.906,0.0
15.881,-1.572,-0.846,0.0
14.62,-1.451,-0.859,0.0
13.577,-1.351,-0.873,0.0
12.565,-1.254,-0.878,0.0
11.926,-1.193,-0.9,0.0
11.103,-1.114,-0.899,0.0
15.996,-1.603,-0.845,0.0
14.729,-1.48,-0.859,0.0
13.672,-1.377,-0.872,0.0
12.74,-1.286,-0.884,0.0
11.936,-1.208,-0.894,0.0
11.239,-1.141,-0.904,0.0
16.106,-1.633,-0.842,0.0
14.884,-1.512,-0.86,0.0
13.777,-1.403,-0.872,0.0
12.812,-1.308,-0.882,0.0
12.02,-1.231,-0.894,0.0
11.234,-1.153,-0.897,0.0
16.272,-1.668,-0.842,0.0
14.969,-1.538,-0.857,0.0
13.918,-1.433,-0.873,0.0
12.986,-1.341,-0.887,0.0
12.133,-1.256,-0.895,0.0
11.458,-1.189,-0.909,0.0
16.359,-1.695,-0.837,0.0
15.198,-1.578,-0.861,0.0
14.042,-1.462,-0.872,0.0
13.015,-1.358,-0.881,0.0
12.237,-1.28,-0.896,0.0
11.422,-1.197,-0.899,0.0
16.536,-1.731,-0.836,0.0
15.314,-1.607,-0.858,0.0
14.132,-1.486,-0.869,0.0
13.111,-1.382,-0.879,0.0
12.33,-1.302,-0.894,0.0
11.578,-1.226,-0.904,0.0
16.653,-1.761,-0.831,0.0
15.476,-1.64,-0.857,0.0
14.237,-1.512,-0.866,0.0
13.213,-1.406,-0.877,0.0
12.413,-1.324,-0.892,0.0
11.614,-1.241,-0.898,0.0
16.871,-1.801,-0.83,0.0
15.629,-1.672,-0.854,0.0
14.359,-1.539,-0.863,0.0
13.358,-1.435,-0.877,0.0
12.473,-1.343,-0.888,0.0
11.721,-1.264,-0.898,0.0
17.105,-1.843,-0.83,0.0
15.772,-1.703,-0.851,0.0
14.551,-1.574,-0.864,0.0
13.485,-1.461,-0.876,0.0
12.653,-1.374,-0.891,0.0
11.842,-1.289,-0.899,0.0
17.214,-1.871,-0.822,0.0
15.888,-1.73,-0.845,0.0
14.671,-1.6,-0.86,0.0
13.629,-1.49,-0.875,0.0
12.745,-1.396,-0.888,0.0
12.004,-1.317,-0.902,0.0
17.371,-1.904,-0.816,0.0
16.152,-1.773,-0.847,0.0
14.903,-1.639,-0.862,0.0
13.874,-1.529,-0.88,0.0
12.919,-1.426,-0.89,0.0
12.08,-1.336,-0.898,0.0
17.55,-1.938,-0.811,0.0
16.456,-1.821,-0.849,0.0
15.081,-1.672,-0.86,0.0
13.963,-1.55,-0.874,0.0
13.089,-1.456,-0.891,0.0
12.163,-1.355,-0.894,0.0
17.949,-1.998,-0.814,0.0
16.532,-1.843,-0.839,0.0
15.257,-1.703,-0.858,0.0
14.185,-1.586,-0.876,0.0
13.197,-1.478,-0.887,0.0
12.423,-1.394,-0.902,0.0
18.134,-2.033,-0.807,0.0
16.79,-1.885,-0.838,0.0
15.48,-1.74,-0.857,0.0
14.295,-1.61,-0.87,0.0
13.282,-1.498,-0.881,0.0
12.529,-1.416,-0.899,0.0
18.541,-2.092,-0.809,0.0
16.983,-1.919,-0.833,0.0
15.678,-1.774,-0.854,0.0
14.442,-1.637,-0.866,0.0
13.438,-1.526,-0.879,0.0
12.608,-1.433,-0.893,0.0
19.021,-2.16,-0.813,0.0
17.174,-1.953,-0.827,0.0
15.963,-1.818,-0.855,0.0
14.639,-1.669,-0.865,0.0
13.705,-1.565,-0.884,0.0
12.765,-1.46,-0.892,0.0
19.245,-2.198,-0.804,0.0
17.397,-1.99,-0.821,0.0
16.104,-1.844,-0.847,0.0
14.923,-1.711,-0.867,0.0
13.862,-1.592,-0.881,0.0
12.864,-1.479,-0.887,0.0
19.531,-2.243,-0.798,0.0
17.501,-2.013,-0.809,0.0
16.323,-1.879,-0.843,0.0
15.102,-1.741,-0.863,0.0
14.055,-1.623,-0.879,0.0
13.108,-1.515,-0.891,0.0
19.781,-2.284,-0.789,0.0
17.778,-2.055,-0.805,0.0
16.756,-1.939,-0.849,0.0
15.298,-1.772,-0.859,0.0
14.237,-1.652,-0.876,0.0
13.241,-1.538,-0.887,0.0
20.272,-2.352,-0.788,0.0
17.934,-2.083,-0.794,0.0
16.913,-1.966,-0.84,0.0
15.599,-1.816,-0.86,0.0
14.414,-1.68,-0.873,0.0
13.387,-1.562,-0.883,0.0
20.557,-2.395,-0.779,0.0
18.489,-2.156,-0.8,0.0
17.161,-2.004,-0.835,0.0
15.739,-1.839,-0.852,0.0
14.552,-1.703,-0.866,0.0
13.638,-1.597,-0.885,0.0
21.045,-2.462,-0.775,0.0
19.09,-2.235,-0.806,0.0
17.372,-2.036,-0.827,0.0
16.036,-1.881,-0.851,0.0
14.784,-1.736,-0.865,0.0
13.813,-1.624,-0.882,0.0
21.613,-2.538,-0.774,0.0
19.569,-2.3,-0.805,0.0
17.524,-2.061,-0.815,0.0
16.1,-1.895,-0.837,0.0
15.162,-1.786,-0.87,0.0
14.029,-1.654,-0.881,0.0
22.018,-2.594,-0.764,0.0
19.711,-2.324,-0.79,0.0
17.853,-2.106,-0.811,0.0
16.457,-1.943,-0.838,0.0
15.373,-1.817,-0.866,0.0
14.229,-1.683,-0.878,0.0
22.395,-2.646,-0.753,0.0
20.206,-2.389,-0.788,0.0
18.38,-2.174,-0.815,0.0
16.867,-1.997,-0.841,0.0
15.659,-1.855,-0.865,0.0
14.429,-1.711,-0.874,0.0
23.079,-2.733,-0.751,0.0
20.461,-2.425,-0.775,0.0
18.717,-2.219,-0.809,0.0
17.092,-2.028,-0.833,0.0
15.864,-1.884,-0.858,0.0
14.645,-1.74,-0.871,0.0
23.609,-2.802,-0.742,0.0
20.995,-2.493,-0.772,0.0
18.948,-2.251,-0.798,0.0
17.344,-2.062,-0.825,0.0
16.081,-1.913,-0.852,0.0
14.938,-1.778,-0.871,0.0
23.957,-2.849,-0.725,0.0
21.833,-2.597,-0.778,0.0
19.614,-2.334,-0.804,0.0
17.742,-2.112,-0.824,0.0
16.34,-1.946,-0.846,0.0
15.191,-1.81,-0.868,0.0
24.486,-2.915,-0.713,0.0
22.245,-2.649,-0.767,0.0
19.98,-2.38,-0.796,0.0
18.142,-2.162,-0.822,0.0
16.762,-1.999,-0.849,0.0
15.412,-1.838,-0.863,0.0
25.532,-3.043,-0.714,0.0
22.691,-2.705,-0.756,0.0
20.189,-2.407,-0.78,0.0
0.0,0.0,0.0,0.0
17.04,-2.033,-0.843,0.0
15.721,-1.876,-0.862,0.0
0.0,0.0,0.0,0.0
23.304,-2.779,-0.749,0.0
20.853,-2.487,-0.782,0.0
18.861,-2.25,-0.81,0.0
17.249,-2.059,-0.833,0.0
15.953,-1.904,-0.856,0.0
0.0,0.0,0.0,0.0
23.756,-2.834,-0.735,0.0
21.329,-2.544,-0.774,0.0
19.437,-2.319,-0.812,0.0
17.481,-2.086,-0.823,0.0
16.329,-1.949,-0.857,0.0
28.199,-3.363,-0.69,0.0
0.0,0.0,0.0,0.0
22.109,-2.637,-0.777,0.0
19.718,-2.352,-0.8,0.0
17.978,-2.144,-0.826,0.0
16.527,-1.971,-0.848,0.0
28.439,-3.39,-0.662,0.0
24.888,-2.966,-0.712,0.0
22.476,-2.678,-0.763,0.0
20.069,-2.391,-0.79,0.0
18.337,-2.185,-0.82,0.0
16.834,-2.006,-0.843,0.0
28.606,-3.406,-0.631,0.0
25.746,-3.065,-0.705,0.0
23.08,-2.747,-0.756,0.0
20.303,-2.416,-0.775,0.0
18.705,-2.226,-0.814,0.0
17.098,-2.035,-0.835,0.0
30.321,-3.605,-0.633,0.0
26.606,-3.163,-0.697,0.0
23.637,-2.809,-0.745,0.0
21.153,-2.514,-0.782,0.0
0.0,0.0,0.0,0.0
17.377,-2.064,-0.828,0.0
30.614,-3.634,-0.602,0.0
27.067,-3.212,-0.677,0.0
24.112,-2.86,-0.732,0.0
21.625,-2.565,-0.774,0.0
19.573,-2.321,-0.805,0.0
17.727,-2.101,-0.824,0.0
0.0,0.0,0.0,0.0
0.0,0.0,0.0,0.0
24.689,-2.922,-0.719,0.0
22.238,-2.631,-0.768,0.0
20.032,-2.369,-0.799,0.0
18.186,-2.15,-0.823,0.0
32.8,-3.876,-0.566,0.0
28.563,-3.373,-0.645,0.0
25.507,-3.011,-0.712,0.0
22.619,-2.669,-0.754,0.0
20.501,-2.418,-0.793,0.0
18.786,-2.215,-0.827,0.0
33.821,-3.985,-0.543,0.0
0.0,0.0,0.0,0.0
0.0,0.0,0.0,0.0
23.421,-2.754,-0.752,0.0
20.854,-2.451,-0.781,0.0
18.815,-2.211,-0.805,0.0
0.0,0.0,0.0,0.0
30.822,-3.617,-0.621,0.0
26.986,-3.165,-0.688,0.0
23.607,-2.766,-0.73,0.0
21.657,-2.536,-0.785,0.0
19.545,-2.288,-0.813,0.0
0.0,0.0,0.0,0.0
0.0,0.0,0.0,0.0
27.65,-3.23,-0.672,0.0
24.831,-2.898,-0.738,0.0
21.991,-2.565,-0.771,0.0
19.862,-2.315,-0.802,0.0
38.301,-4.463,-0.476,0.0
33.289,-3.875,-0.591,0.0
0.0,0.0,0.0,0.0
24.888,-2.892,-0.709,0.0
22.71,-2.637,-0.768,0.0
20.301,-2.356,-0.795,0.0
0.0,0.0,0.0,0.0
33.71,-3.906,-0.558,0.0
29.648,-3.432,-0.649,0.0
0.0,0.0,0.0,0.0
23.026,-2.661,-0.752,0.0
20.718,-2.392,-0.787,0.0
41.567,-4.797,-0.417,0.0
0.0,0.0,0.0,0.0
0.0,0.0,0.0,0.0
26.191,-3.013,-0.684,0.0
23.711,-2.725,-0.746,0.0
21.21,-2.435,-0.78,0.0
0.0,0.0,0.0,0.0
0.0,0.0,0.0,0.0
31.464,-3.603,-0.613,0.0
27.454,-3.141,-0.684,0.0
0.0,0.0,0.0,0.0
21.915,-2.502,-0.78,0.0
0.0,0.0,0.0,0.0
38.25,-4.36,-0.496,0.0
33.237,-3.784,-0.608,0.0
0.0,0.0,0.0,0.0
25.013,-2.841,-0.727,0.0
22.217,-2.521,-0.764,0.0
0.0,0.0,0.0,0.0
0.0,0.0,0.0,0.0
34.262,-3.876,-0.587,0.0
0.0,0.0,0.0,0.0
25.687,-2.898,-0.717,0.0
22.894,-2.58,-0.761,0.0
0.0,0.0,0.0,0.0
0.0,0.0,0.0,0.0
35.011,-3.933,-0.559,0.0
0.0,0.0,0.0,0.0
26.265,-2.943,-0.702,0.0
23.339,-2.611,-0.748,0.0
0.0,0.0,0.0,0.0
0.0,0.0,0.0,0.0
0.0,0.0,0.0,0.0
0.0,0.0,0.0,0.0
26.946,-2.996,-0.689,0.0
24.276,-2.695,-0.751,0.0
0.0,0.0,0.0,0.0
0.0,0.0,0.0,0.0
37.332,-4.131,-0.51,0.0
0.0,0.0,0.0,0.0
0.0,0.0,0.0,0.0
24.546,-2.704,-0.731,0.0
0.0,0.0,0.0,0.0
0.0,0.0,0.0,0.0
0.0,0.0,0.0,0.0
0.0,0.0,0.0,0.0
28.683,-3.138,-0.669,1.0
25.18,-2.75,-0.722,0.0
0.0,0.0,0.0,0.0
0.0,0.0,0.0,0.0
0.0,0.0,0.0,0.0
0.0,0.0,0.0,0.0
29.782,-3.23,-0.662,0.0
26.226,-2.839,-0.723,0.0
83.215,-9.008,0.027,0.0
0.0,0.0,0.0,0.0
42.16,-4.547,-0.436,0.0
0.0,0.0,0.0,0.0
0.0,0.0,0.0,0.0
26.476,-2.84,-0.701,0.0
83.409,-8.945,0.117,3.0
0.0,0.0,0.0,0.0
42.357,-4.524,-0.392,0.0
36.649,-3.907,-0.539,0.0
31.129,-3.312,-0.624,0.0
26.863,-2.853,-0.682,0.0
86.034,-9.137,0.213,4.0
0.0,0.0,0.0,0.0
0.0,0.0,0.0,0.0
37.361,-3.943,-0.51,0.0
0.0,0.0,0.0,0.0
0.0,0.0,0.0,0.0
85.487,-8.987,0.301,5.0
0.0,0.0,0.0,0.0
0.0,0.0,0.0,0.0
38.606,-4.032,-0.487,0.0
0.0,0.0,0.0,0.0
28.662,-2.981,-0.668,0.0
86.251,-8.969,0.393,10.0
0.0,0.0,0.0,0.0
0.0,0.0,0.0,0.0
0.0,0.0,0.0,0.0
0.0,0.0,0.0,0.0
0.0,0.0,0.0,0.0
87.228,-8.968,0.487,1.0
0.0,0.0,0.0,0.0
50.572,-5.174,-0.259,0.0
0.0,0.0,0.0,0.0
0.0,0.0,0.0,0.0
30.153,-3.064,-0.642,0.0
83.39,-8.472,0.549,2.0
0.0,0.0,0.0,0.0
0.0,0.0,0.0,0.0
0.0,0.0,0.0,0.0
0.0,0.0,0.0,0.0
0.0,0.0,0.0,0.0
89.104,-8.942,0.673,38.0
90.151,-9.024,0.197,22.0
0.0,0.0,0.0,0.0
0.0,0.0,0.0,0.0
36.878,-3.663,-0.515,0.0
0.0,0.0,0.0,0.0
90.343,-8.951,0.769,70.0
90.373,-8.93,0.283,17.0
0.0,0.0,0.0,0.0
0.0,0.0,0.0,0.0
0.0,0.0,0.0,0.0
32.98,-3.224,-0.607,0.0
90.36,-8.833,0.853,28.0
90.338,-8.806,0.368,17.0
0.0,0.0,0.0,0.0
0.0,0.0,0.0,0.0
38.592,-3.73,-0.468,0.0
33.183,-3.199,-0.58,0.0
90.351,-8.708,0.936,80.0
90.385,-8.687,0.451,37.0
0.0,0.0,0.0,0.0
0.0,0.0,0.0,0.0
0.0,0.0,0.0,0.0
0.0,0.0,0.0,0.0
0.0,0.0,0.0,0.0
90.397,-8.561,0.531,75.0
0.0,0.0,0.0,0.0
0.0,0.0,0.0,0.0
41.6,-3.905,-0.431,0.0
34.724,-3.249,-0.546,0.0
90.371,-8.455,1.093,35.0
90.36,-8.428,0.608,29.0
90.501,-8.415,0.121,1.0
0.0,0.0,0.0,0.0
42.984,-3.971,-0.409,0.0
0.0,0.0,0.0,0.0
90.402,-8.326,1.17,43.0
90.388,-8.297,0.683,26.0
90.381,-8.27,0.197,9.0
0.0,0.0,0.0,0.0
0.0,0.0,0.0,0.0
0.0,0.0,0.0,0.0
90.393,-8.189,1.244,31.0
90.413,-8.163,0.757,40.0
90.401,-8.133,0.269,10.0
0.0,0.0,0.0,0.0
0.0,0.0,0.0,0.0
0.0,0.0,0.0,0.0
90.385,-8.048,1.315,44.0
90.395,-8.022,0.827,37.0
90.382,-7.992,0.34,28.0
0.0,0.0,0.0,0.0
0.0,0.0,0.0,0.0
38.73,-3.389,-0.485,0.0
90.384,-7.907,1.383,39.0
90.425,-7.883,0.896,35.0
90.39,-7.851,0.407,32.0
0.0,0.0,0.0,0.0
0.0,0.0,0.0,0.0
38.99,-3.35,-0.459,0.0
90.396,-7.764,1.449,43.0
90.402,-7.735,0.961,35.0
90.414,-7.706,0.472,35.0
0.0,0.0,0.0,0.0
0.0,0.0,0.0,0.0
0.0,0.0,0.0,0.0
90.405,-7.618,1.513,54.0
90.407,-7.589,1.024,43.0
90.407,-7.56,0.534,40.0
0.0,0.0,0.0,0.0
0.0,0.0,0.0,0.0
41.5,-3.431,-0.432,0.0
90.437,-7.472,1.573,150.0
90.417,-7.439,1.083,19.0
100.023,-8.198,0.657,12.0
0.0,0.0,0.0,0.0
0.0,0.0,0.0,0.0
42.046,-3.405,-0.41,0.0
100.066,-8.099,1.805,8.0
100.075,-8.065,1.263,12.0
100.053,-8.031,0.72,12.0
0.0,0.0,0.0,0.0
0.0,0.0,0.0,0.0
0.0,0.0,0.0,0.0
100.05,-7.926,1.865,6.0
100.101,-7.896,1.323,12.0
100.018,-7.856,0.78,14.0
99.251,-7.762,0.225,1.0
0.0,0.0,0.0,0.0
0.0,0.0,0.0,0.0
120.308,-9.322,2.313,8.0
100.091,-7.721,1.38,9.0
100.1,-7.686,0.837,13.0
99.06,-7.574,0.281,6.0
0.0,0.0,0.0,0.0
0.0,0.0,0.0,0.0
123.174,-9.329,2.434,10.0
100.049,-7.542,1.433,9.0
100.105,-7.512,0.89,14.0
98.978,-7.394,0.332,10.0
0.0,0.0,0.0,0.0
0.0,0.0,0.0,0.0
126.196,-9.332,2.559,6.0
100.099,-7.366,1.485,8.0
100.085,-7.33,0.94,14.0
98.966,-7.214,0.381,13.0
64.603,-4.686,-0.102,0.0
0.0,0.0,0.0,0.0
109.341,-7.887,2.269,38.0
100.081,-7.184,1.531,9.0
100.05,-7.146,0.986,12.0
99.145,-7.047,0.427,15.0
0.0,0.0,0.0,0.0
0.0,0.0,0.0,0.0
109.297,-7.684,2.317,43.0
100.044,-6.996,1.576,7.0
100.126,-6.966,1.031,8.0
99.805,-6.908,0.473,10.0
0.0,0.0,0.0,0.0
0.0,0.0,0.0,0.0
148.299,-10.146,3.206,19.0
0.0,0.0,0.0,0.0
108.803,-7.365,1.164,2.0
99.65,-6.71,0.513,5.0
0.0,0.0,0.0,0.0
0.0,0.0,0.0,0.0
117.298,-7.802,2.579,31.0
105.968,-7.009,1.751,2.0
106.084,-6.98,1.174,19.0
99.786,-6.529,0.549,2.0
0.0,0.0,0.0,0.0
0.0,0.0,0.0,0.0
117.233,-7.574,2.619,34.0
125.244,-8.045,2.113,32.0
125.295,-8.002,1.428,19.0
109.019,-6.922,0.635,3.0
0.0,0.0,0.0,0.0
0.0,0.0,0.0,0.0
117.274,-7.349,2.656,10.0
148.26,-9.234,2.546,17.0
148.521,-9.197,1.738,17.0
109.353,-6.73,0.67,1.0
0.0,0.0,0.0,0.0
0.0,0.0,0.0,0.0
148.927,-9.042,3.413,13.0
148.543,-8.963,2.59,24.0
149.912,-8.989,1.793,20.0
0.0,0.0,0.0,0.0
0.0,0.0,0.0,0.0
0.0,0.0,0.0,0.0
149.132,-8.761,3.452,18.0
149.525,-8.728,2.642,18.0
140.756,-8.165,1.714,12.0
140.686,-8.108,0.927,4.0
0.0,0.0,0.0,0.0
0.0,0.0,0.0,0.0
147.463,-8.372,3.443,29.0
140.696,-7.934,2.512,32.0
101.623,-5.694,1.256,3.0
101.464,-5.648,0.687,151.0
101.485,-5.614,0.13,8.0
0.0,0.0,0.0,0.0
140.713,-7.711,3.307,23.0
0.0,0.0,0.0,0.0
101.574,-5.491,1.271,8.0
102.228,-5.488,0.706,1.0
0.0,0.0,0.0,0.0
0.0,0.0,0.0,0.0
140.682,-7.426,3.325,30.0
0.0,0.0,0.0,0.0
0.0,0.0,0.0,0.0
0.0,0.0,0.0,0.0
0.0,0.0,0.0,0.0
0.0,0.0,0.0,0.0
163.381,-8.294,3.874,6.0
0.0,0.0,0.0,0.0
101.475,-5.077,1.288,2.0
0.0,0.0,0.0,0.0
101.51,-5.004,0.16,5.0
0.0,0.0,0.0,0.0
139.427,-6.799,3.313,9.0
0.0,0.0,0.0,0.0
101.412,-4.868,1.291,2.0
101.494,-4.834,0.722,1.0
101.571,-4.801,0.162,2.0
0.0,0.0,0.0,0.0
139.461,-6.519,3.316,2.0
0.0,0.0,0.0,0.0
101.571,-4.67,1.293,1.0
101.285,-4.618,0.72,1.0
0.0,0.0,0.0,0.0
0.0,0.0,0.0,0.0
142.592,-6.369,3.386,12.0
0.0,0.0,0.0,0.0
101.517,-4.46,1.288,53.0
0.0,0.0,0.0,0.0
0.0,0.0,0.0,0.0
0.0,0.0,0.0,0.0
142.58,-6.078,3.376,7.0
0.0,0.0,0.0,0.0
101.556,-4.253,1.281,15.0
101.476,-4.213,0.708,151.0
0.0,0.0,0.0,0.0
0.0,0.0,0.0,0.0
141.842,-5.755,3.344,3.0
162.208,-6.517,2.926,14.0
0.0,0.0,0.0,0.0
0.0,0.0,0.0,0.0
0.0,0.0,0.0,0.0
0.0,0.0,0.0,0.0
141.784,-5.458,3.323,2.0
162.221,-6.183,2.902,21.0
0.0,0.0,0.0,0.0
0.0,0.0,0.0,0.0
0.0,0.0,0.0,0.0
0.0,0.0,0.0,0.0
141.806,-5.163,3.297,4.0
162.18,-5.843,2.87,15.0
0.0,0.0,0.0,0.0
0.0,0.0,0.0,0.0
0.0,0.0,0.0,0.0
0.0,0.0,0.0,0.0
163.381,-5.608,3.763,8.0
162.225,-5.508,2.835,24.0
149.016,-5.003,1.776,64.0
0.0,0.0,0.0,0.0
0.0,0.0,0.0,0.0
0.0,0.0,0.0,0.0
163.274,-5.262,3.718,3.0
162.305,-5.171,2.794,5.0
149.033,-4.693,1.736,15.0
160.793,-5.003,0.963,4.0
0.0,0.0,0.0,0.0
0.0,0.0,0.0,0.0
167.886,-5.062,3.774,12.0
163.999,-4.886,2.774,5.0
149.193,-4.391,1.693,31.0
160.785,-4.673,0.913,4.0
0.0,0.0,0.0,0.0
0.0,0.0,0.0,0.0
168.112,-4.721,3.723,11.0
178.205,-4.94,2.954,8.0
149.249,-4.083,1.642,3.0
0.0,0.0,0.0,0.0
0.0,0.0,0.0,0.0
0.0,0.0,0.0,0.0
168.254,-4.374,3.664,5.0
170.49,-4.37,2.761,6.0
149.517,-3.78,1.588,11.0
160.635,-4.003,0.794,3.0
0.0,0.0,0.0,0.0
0.0,0.0,0.0,0.0
0.0,0.0,0.0,0.0
170.302,-4.016,2.689,5.0
162.106,-3.764,1.654,23.0
0.0,0.0,0.0,0.0
0.0,0.0,0.0,0.0
0.0,0.0,0.0,0.0
170.392,-3.726,3.565,6.0
170.176,-3.659,2.609,6.0
163.699,-3.461,1.595,4.0
0.0,0.0,0.0,0.0
0.0,0.0,0.0,0.0
0.0,0.0,0.0,0.0
170.346,-3.371,3.481,6.0
163.551,-3.178,2.427,17.0
163.261,-3.116,1.511,24.0
0.0,0.0,0.0,0.0
0.0,0.0,0.0,0.0
0.0,0.0,0.0,0.0
170.333,-3.019,3.392,8.0
163.35,-2.836,2.338,24.0
163.114,-2.774,1.421,13.0
19.649,-0.327,0.059,0.0
0.0,0.0,0.0,0.0
0.0,0.0,0.0,0.0
173.654,-2.72,3.362,3.0
19.751,-0.302,0.271,0.0
19.745,-0.295,0.16,25.0
19.757,-0.288,0.048,1.0
0.0,0.0,0.0,0.0
42.455,-0.59,-0.372,0.0
19.758,-0.268,0.37,7.0
19.749,-0.261,0.259,13.0
19.74,-0.254,0.148,17.0
0.0,0.0,0.0,0.0
0.0,0.0,0.0,0.0
0.0,0.0,0.0,0.0
19.751,-0.228,0.358,10.0
19.76,-0.221,0.247,2.0
160.676,-1.744,1.108,14.0
0.0,0.0,0.0,0.0
0.0,0.0,0.0,0.0
19.779,-0.194,-0.198,7.0
19.766,-0.188,0.345,1.0
169.388,-1.552,2.004,15.0
160.675,-1.415,0.997,16.0
19.754,-0.167,0.009,0.0
19.748,-0.16,-0.101,12.0
19.735,-0.153,-0.212,16.0
0.0,0.0,0.0,0.0
19.757,-0.14,0.219,1.0
19.765,-0.134,0.108,4.0
19.723,-0.126,-0.004,10.0
19.709,-0.119,-0.115,16.0
19.728,-0.113,-0.226,17.0
19.676,-0.107,0.314,9.0
19.71,-0.1,0.204,16.0
19.707,-0.093,0.093,13.0
19.694,-0.087,-0.019,16.0
19.715,-0.08,-0.13,16.0
19.744,-0.074,-0.242,15.0
19.644,-0.067,0.298,10.0
19.678,-0.06,0.188,13.0
19.699,-0.054,0.077,15.0
19.695,-0.047,-0.035,16.0
19.745,-0.041,-0.146,13.0
19.752,-0.034,-0.258,0.0
19.631,-0.028,0.282,13.0
19.684,-0.021,0.172,7.0
19.734,-0.015,0.061,6.0
19.73,-0.008,-0.051,8.0
19.78,-0.002,-0.163,0.0
19.788,0.004,-0.275,1.0
19.631,0.01,0.266,15.0
19.75,0.017,0.156,17.0
19.74,0.023,0.044,16.0
19.748,0.03,-0.068,21.0
19.767,0.036,-0.18,15.0
19.771,0.043,-0.292,58.0
19.623,0.049,0.248,14.0
19.687,0.055,0.138,14.0
19.758,0.062,0.026,36.0
19.764,0.068,-0.086,22.0
19.76,0.075,-0.198,12.0
19.781,0.081,-0.31,1.0
19.631,0.087,0.23,14.0
19.65,0.093,0.119,12.0
19.647,0.1,0.008,10.0
19.682,0.106,-0.104,6.0
40.716,0.233,-0.446,0.0
0.0,0.0,0.0,0.0
19.661,0.125,0.212,19.0
19.645,0.131,0.101,14.0
19.644,0.137,-0.01,17.0
19.646,0.144,-0.123,13.0
19.673,0.15,-0.234,8.0
19.675,0.156,-0.346,7.0
19.667,0.163,0.193,14.0
19.665,0.169,0.081,12.0
19.642,0.175,-0.029,13.0
19.622,0.181,-0.142,16.0
19.645,0.187,-0.254,16.0
19.649,0.193,-0.365,15.0
19.752,0.201,0.173,18.0
19.687,0.206,0.061,9.0
19.651,0.212,-0.049,8.0
19.633,0.217,-0.162,17.0
19.647,0.224,-0.274,18.0
19.649,0.23,-0.385,17.0
19.772,0.238,0.153,28.0
19.782,0.244,0.041,0.0
19.656,0.249,-0.07,10.0
19.651,0.254,-0.183,15.0
19.657,0.26,-0.295,14.0
19.679,0.267,-0.407,14.0
19.787,0.275,0.132,0.0
61.724,0.876,0.062,0.0
19.722,0.286,-0.092,0.0
19.693,0.291,-0.206,2.0
19.693,0.297,-0.317,2.0
28.568,0.44,-0.623,0.0
55.156,0.868,0.306,2.0
55.188,0.885,-0.006,26.0
42.317,0.69,-0.244,0.0
34.635,0.575,-0.4,0.0
32.287,0.545,-0.556,0.0
27.523,0.473,-0.631,1.0
55.172,0.967,0.244,69.0
55.088,0.982,-0.068,9.0
40.251,0.729,-0.279,1.0
55.141,1.015,-0.701,1.0
29.547,0.552,-0.544,1.0
27.012,0.513,-0.651,2.0
0.0,0.0,0.0,0.0
48.895,0.958,-0.118,0.0
38.52,0.766,-0.312,2.0
31.552,0.637,-0.438,0.0
26.729,0.547,-0.524,0.0
26.345,0.547,-0.666,6.0
65.278,1.377,0.134,0.0
0.0,0.0,0.0,0.0
36.803,0.797,-0.343,2.0
29.898,0.656,-0.452,1.0
25.382,0.564,-0.528,0.0
23.833,0.536,-0.632,1.0
45.533,1.039,0.037,2.0
45.297,1.046,-0.22,17.0
36.691,0.858,-0.387,1.0
29.208,0.691,-0.478,2.0
25.003,0.598,-0.551,1.0
22.358,0.541,-0.62,1.0
0.0,0.0,0.0,0.0
0.0,0.0,0.0,0.0
35.073,0.88,-0.414,0.0
28.214,0.715,-0.497,1.0
23.589,0.604,-0.55,0.0
20.98,0.543,-0.609,0.0
40.146,1.052,-0.068,159.0
39.936,1.058,-0.296,7.0
32.025,0.857,-0.42,1.0
26.661,0.72,-0.504,1.0
22.931,0.626,-0.564,0.0
20.431,0.563,-0.62,1.0
40.124,1.119,-0.121,99.0
37.206,1.046,-0.324,2.0
27.429,0.779,-0.395,1.0
25.943,0.743,-0.525,2.0
21.949,0.635,-0.569,0.0
19.409,0.566,-0.614,0.0
40.117,1.183,-0.174,111.0
40.173,1.195,-0.403,0.0
27.478,0.824,-0.433,13.0
25.223,0.762,-0.544,5.0
21.648,0.66,-0.59,0.0
19.234,0.591,-0.634,2.0
40.04,1.243,-0.227,38.0
40.131,1.256,-0.457,3.0
28.181,0.889,-0.482,2.0
24.083,0.766,-0.552,2.0
20.923,0.671,-0.599,0.0
18.526,0.599,-0.636,0.0
39.968,1.303,-0.282,10.0
40.106,1.318,-0.512,1.0
27.244,0.902,-0.504,2.0
22.631,0.755,-0.55,4.0
20.089,0.675,-0.603,2.0
18.259,0.618,-0.653,1.0
40.068,1.368,-0.339,1.0
30.24,1.04,-0.428,1.0
26.02,0.901,-0.517,1.0
21.935,0.765,-0.564,1.0
19.673,0.69,-0.618,3.0
40.167,1.42,-1.493,2.0
40.16,1.431,-0.397,0.0
29.158,1.046,-0.454,3.0
24.759,0.894,-0.528,1.0
21.337,0.775,-0.579,1.0
19.022,0.696,-0.625,3.0
17.234,0.634,-0.665,1.0
33.413,1.24,-0.378,1.0
27.77,1.037,-0.473,3.0
23.652,0.888,-0.538,5.0
20.623,0.779,-0.589,1.0
18.476,0.702,-0.634,3.0
17.081,0.653,-0.684,0.0
31.951,1.231,-0.408,0.0
27.038,1.048,-0.5,7.0
23.401,0.912,-0.567,5.0
19.838,0.778,-0.596,2.0
18.01,0.71,-0.645,3.0
16.928,0.671,-0.703,1.0
29.881,1.193,-0.426,1.0
23.689,0.951,-0.473,4.0
21.928,0.885,-0.564,2.0
19.457,0.789,-0.614,2.0
17.681,0.721,-0.659,2.0
16.73,0.686,-0.72,2.0
28.799,1.189,-0.453,2.0
23.655,0.981,-0.508,27.0
21.162,0.883,-0.576,2.0
18.725,0.785,-0.619,3.0
17.219,0.726,-0.668,2.0
16.532,0.7,-0.736,1.0
23.637,1.007,-0.408,46.0
23.531,1.007,-0.541,22.0
20.445,0.88,-0.587,2.0
18.309,0.792,-0.633,3.0
16.99,0.738,-0.685,2.0
16.352,0.714,-0.753,2.0
23.625,1.037,-0.444,89.0
23.231,1.024,-0.57,5.0
19.699,0.873,-0.596,3.0
17.852,0.795,-0.645,2.0
16.837,0.753,-0.705,2.0
16.184,0.727,-0.771,2.0
23.617,1.066,-0.481,49.0
23.632,1.072,-0.617,1.0
19.182,0.874,-0.611,3.0
17.362,0.794,-0.654,2.0
16.651,0.765,-0.723,2.0
16.019,0.739,-0.788,3.0
23.622,1.095,-0.518,39.0
20.854,0.971,-0.576,2.0
18.591,0.869,-0.621,3.0
17.089,0.802,-0.671,2.0
16.452,0.776,-0.74,1.0
15.918,0.754,-0.808,1.0
23.435,1.115,-0.551,10.0
19.943,0.952,-0.583,1.0
18.187,0.872,-0.636,3.0
16.907,0.814,-0.69,2.0
16.264,0.786,-0.758,2.0
23.632,1.146,-1.238,1.0
21.926,1.068,-0.55,1.0
19.465,0.952,-0.6,3.0
17.714,0.869,-0.648,1.0
16.751,0.825,-0.711,1.0
16.055,0.794,-0.774,2.0
23.603,1.172,-1.275,0.0
21.137,1.053,-0.565,1.0
18.839,0.942,-0.611,3.0
17.241,0.865,-0.659,1.0
16.543,0.833,-0.729,1.0
15.952,0.806,-0.795,3.0
