X,Y,Z,Reflectivity
107.564,-6.459,7.552,29.0
108.043,-6.455,6.959,21.0
107.69,-6.403,6.323,18.0
107.291,-6.348,5.691,31.0
108.377,-6.4,8.778,21.0
108.974,-6.401,8.204,14.0
108.078,-6.315,7.519,24.0
108.28,-6.295,6.906,10.0
107.374,-6.21,6.236,23.0
107.247,-6.171,5.619,24.0
108.536,-6.233,8.719,19.0
108.9,-6.221,8.125,20.0
108.274,-6.152,7.46,21.0
107.926,-6.1,6.809,28.0
107.406,-6.039,6.163,23.0
107.781,-6.029,5.572,22.0
108.513,-6.056,8.64,23.0
109.458,-6.076,8.09,12.0
112.301,-6.2,7.657,19.0
108.17,-5.939,6.746,26.0
107.869,-5.891,6.112,26.0
107.978,-5.866,5.503,27.0
108.696,-5.892,8.574,16.0
109.36,-5.895,7.999,21.0
108.221,-5.801,7.297,16.0
108.447,-5.782,6.681,23.0
107.993,-5.726,6.036,19.0
108.316,-5.713,5.438,29.0
113.49,-5.97,8.863,15.0
109.345,-5.719,7.912,11.0
108.264,-5.63,7.213,25.0
108.706,-5.621,6.61,28.0
108.144,-5.56,5.957,14.0
108.561,-5.551,5.361,24.0
113.359,-5.779,8.757,25.0
111.314,-5.642,7.96,16.0
116.516,-5.872,7.665,17.0
108.475,-5.436,6.503,20.0
112.33,-5.598,6.093,13.0
109.554,-5.426,5.316,16.0
124.24,-3.137,7.096,27.0
141.511,-3.539,7.261,8.0
140.785,-3.488,6.406,10.0
143.391,-3.519,5.679,12.0
140.312,-3.412,4.746,17.0
163.284,-3.935,4.578,30.0
124.718,-2.976,6.933,14.0
140.914,-3.332,7.017,4.0
192.377,-4.504,8.462,6.0
140.203,-3.252,5.34,28.0
162.594,-3.736,5.253,28.0
163.293,-3.717,4.331,14.0
142.225,-3.204,7.688,2.0
192.569,-4.297,9.293,21.0
190.258,-4.202,8.076,14.0
140.498,-3.072,5.134,23.0
162.828,-3.526,5.009,11.0
163.37,-3.501,4.078,4.0
0.0,0.0,0.0,0.0
192.272,-4.035,8.973,23.0
190.367,-3.953,7.78,24.0
190.359,-3.913,6.656,20.0
163.433,-3.326,4.767,24.0
171.446,-3.453,4.01,4.0
0.0,0.0,0.0,0.0
191.373,-3.771,8.626,23.0
190.436,-3.711,7.478,20.0
162.559,-3.133,5.422,23.0
163.304,-3.113,4.499,32.0
0.0,0.0,0.0,0.0
0.0,0.0,0.0,0.0
191.994,-3.536,8.337,20.0
191.018,-3.479,7.185,18.0
162.631,-2.928,5.155,20.0
163.398,-2.908,4.232,10.0
170.421,-3.0,3.426,10.0
189.984,-3.302,9.038,21.0
189.98,-3.263,7.934,18.0
190.128,-3.226,6.834,8.0
163.097,-2.734,4.897,6.0
171.389,-2.838,4.15,5.0
173.564,-2.843,3.199,14.0
193.306,-3.122,8.868,17.0
191.771,-3.059,7.681,18.0
162.583,-2.562,5.568,13.0
163.275,-2.541,4.627,38.0
0.0,0.0,0.0,0.0
163.873,-2.486,2.74,3.0
193.114,-2.887,8.527,17.0
192.003,-2.834,7.36,25.0
162.584,-2.369,5.287,51.0
163.379,-2.349,4.345,27.0
19.795,-0.28,0.411,0.0
19.75,-0.276,0.295,8.0
193.199,-2.662,8.191,16.0
191.75,-2.607,7.016,14.0
162.893,-2.184,5.011,31.0
19.777,-0.261,0.491,2.0
19.755,-0.257,0.376,8.0
19.741,-0.253,0.261,12.0
186.187,-2.354,7.565,20.0
185.926,-2.317,6.474,16.0
19.775,-0.242,0.573,2.0
19.748,-0.238,0.455,8.0
19.737,-0.235,0.34,11.0
19.754,-0.231,0.226,8.0
186.069,-2.145,7.226,23.0
19.782,-0.224,0.653,2.0
19.754,-0.22,0.537,9.0
19.732,-0.217,0.419,10.0
19.764,-0.213,0.305,5.0
164.004,-1.746,1.579,12.0
184.523,-1.926,6.827,20.0
19.753,-0.202,0.615,9.0
19.744,-0.199,0.5,10.0
19.759,-0.196,0.384,6.0
169.825,-1.657,2.312,13.0
160.727,-1.541,1.253,13.0
19.777,-0.185,0.695,2.0
19.744,-0.182,0.579,8.0
19.767,-0.179,0.464,7.0
177.145,-1.574,3.113,14.0
0.0,0.0,0.0,0.0
160.714,-1.375,0.954,10.0
19.751,-0.165,0.657,8.0
19.761,-0.162,0.542,6.0
19.793,-0.159,0.428,0.0
169.181,-1.334,2.659,5.0
165.361,-1.277,1.636,13.0
19.795,-0.149,0.08,0.0
19.745,-0.145,0.62,2.0
19.761,-0.142,0.505,2.0
19.702,-0.139,0.389,0.0
19.679,-0.135,0.271,0.0
19.758,-0.133,0.157,5.0
19.745,-0.13,0.042,9.0
19.679,-0.126,0.58,9.0
19.667,-0.123,0.465,9.0
19.686,-0.12,0.35,7.0
19.708,-0.117,0.234,10.0
19.724,-0.114,0.119,10.0
19.718,-0.111,0.004,13.0
19.642,-0.107,0.541,12.0
19.662,-0.104,0.427,9.0
19.668,-0.102,0.312,9.0
19.704,-0.099,0.196,15.0
19.717,-0.096,0.081,13.0
19.717,-0.093,-0.033,15.0
19.643,-0.09,0.502,11.0
19.66,-0.087,0.388,9.0
19.653,-0.084,0.273,9.0
19.683,-0.081,0.157,15.0
19.696,-0.079,0.042,15.0
19.719,-0.076,-0.072,12.0
19.648,-0.073,0.464,13.0
19.64,-0.07,0.349,10.0
19.649,-0.067,0.235,13.0
19.69,-0.065,0.118,15.0
19.707,-0.062,0.004,16.0
19.73,-0.06,-0.111,14.0
19.64,-0.056,0.425,12.0
19.639,-0.054,0.31,10.0
19.655,-0.051,0.196,11.0
19.69,-0.049,0.079,15.0
19.71,-0.046,-0.035,16.0
19.744,-0.044,-0.15,14.0
19.63,-0.041,0.385,12.0
19.631,-0.038,0.271,10.0
19.678,-0.036,0.157,8.0
19.695,-0.033,0.04,15.0
19.746,-0.031,-0.075,8.0
19.755,-0.029,-0.19,2.0
19.631,-0.026,0.346,13.0
19.643,-0.024,0.231,15.0
19.685,-0.021,0.117,5.0
19.713,-0.019,0.0,13.0
19.764,-0.017,-0.114,3.0
0.0,0.0,0.0,0.0
19.625,-0.012,0.306,13.0
19.663,-0.01,0.192,10.0
19.752,-0.007,0.078,3.0
19.755,-0.005,-0.039,8.0
19.793,-0.003,-0.154,0.0
19.809,-0.001,-0.27,0.0
19.639,0.001,0.267,15.0
19.776,0.003,0.153,1.0
19.764,0.005,0.037,5.0
19.763,0.007,-0.079,2.0
19.79,0.009,-0.195,1.0
19.773,0.012,-0.31,2.0
19.634,0.013,0.226,17.0
19.755,0.016,0.112,8.0
19.733,0.018,-0.002,15.0
19.755,0.02,-0.12,14.0
19.749,0.022,-0.235,16.0
19.766,0.024,-0.351,9.0
19.728,0.026,0.187,17.0
19.751,0.028,0.072,11.0
19.743,0.03,-0.043,44.0
19.751,0.032,-0.16,13.0
19.767,0.034,-0.276,13.0
19.764,0.036,-0.391,13.0
19.758,0.037,0.146,14.0
19.749,0.039,0.031,15.0
19.746,0.041,-0.083,14.0
19.774,0.043,-0.201,26.0
19.768,0.045,-0.316,32.0
19.773,0.046,-0.432,24.0
19.756,0.048,0.105,26.0
19.755,0.05,-0.009,37.0
19.75,0.051,-0.125,28.0
19.766,0.053,-0.242,36.0
19.768,0.055,-0.358,39.0
19.773,0.057,-0.474,63.0
19.77,0.058,0.064,55.0
19.767,0.06,-0.051,54.0
19.768,0.061,-0.166,63.0
19.774,0.063,-0.284,35.0
19.782,0.065,-0.4,29.0
19.793,0.066,-0.516,21.0
19.761,0.067,0.023,41.0
19.772,0.069,-0.092,27.0
19.77,0.07,-0.208,17.0
19.761,0.072,-0.325,15.0
19.774,0.073,-0.441,14.0
19.784,0.075,-0.557,7.0
19.757,0.076,-0.018,18.0
19.761,0.077,-0.134,11.0
19.765,0.079,-0.249,6.0
19.763,0.08,-0.367,3.0
19.762,0.082,-0.482,2.0
19.801,0.083,-0.599,0.0
19.766,0.084,-0.06,2.0
19.775,0.085,-0.175,2.0
19.773,0.086,-0.291,0.0
19.727,0.088,-0.408,0.0
25.24,0.114,-0.669,0.0
22.343,0.102,-0.723,0.0
19.728,0.09,-0.101,0.0
19.723,0.092,-0.216,0.0
19.766,0.093,-0.332,0.0
27.708,0.133,-0.631,0.0
24.144,0.117,-0.691,0.0
0.0,0.0,0.0,0.0
19.712,0.097,-0.143,0.0
0.0,0.0,0.0,0.0
29.792,0.15,-0.564,0.0
26.113,0.133,-0.65,0.0
22.905,0.118,-0.704,0.0
19.879,0.103,-0.727,1.0
41.426,0.215,-0.388,0.0
0.0,0.0,0.0,0.0
28.946,0.154,-0.609,0.0
25.066,0.134,-0.676,0.0
21.888,0.118,-0.719,0.0
19.669,0.107,-0.761,2.0
0.0,0.0,0.0,0.0
31.264,0.172,-0.541,0.0
27.281,0.151,-0.632,0.0
23.558,0.131,-0.686,0.0
20.954,0.118,-0.732,0.0
19.086,0.108,-0.779,0.0
33.891,0.191,-0.46,0.0
29.723,0.169,-0.577,0.0
25.746,0.147,-0.65,0.0
22.523,0.13,-0.703,0.0
19.905,0.116,-0.738,0.0
18.521,0.108,-0.795,0.0
33.436,0.194,-0.523,0.0
28.313,0.166,-0.609,0.0
24.723,0.145,-0.676,0.0
21.891,0.13,-0.729,0.0
19.611,0.117,-0.768,2.0
17.771,0.106,-0.8,0.0
31.223,0.186,-0.554,0.0
26.652,0.159,-0.628,0.0
23.387,0.14,-0.688,0.0
20.803,0.125,-0.736,0.0
18.976,0.115,-0.783,0.0
17.162,0.104,-0.808,0.0
29.673,0.179,-0.588,0.0
25.364,0.154,-0.651,0.0
22.342,0.136,-0.704,0.0
19.75,0.121,-0.74,1.0
18.386,0.113,-0.796,0.0
16.584,0.102,-0.815,0.0
27.947,0.17,-0.612,0.0
24.346,0.149,-0.676,1.0
21.602,0.132,-0.725,0.0
19.501,0.12,-0.771,1.0
17.62,0.109,-0.8,0.0
15.954,0.098,-0.818,0.0
26.671,0.163,-0.639,0.0
23.3,0.142,-0.695,0.0
20.776,0.127,-0.741,0.0
18.762,0.115,-0.781,0.0
17.057,0.105,-0.81,0.0
15.605,0.096,-0.832,1.0
25.293,0.154,-0.659,0.0
22.222,0.135,-0.709,0.0
19.72,0.12,-0.744,1.0
18.237,0.111,-0.797,0.0
16.449,0.1,-0.815,0.0
15.098,0.092,-0.837,0.0
24.305,0.146,-0.683,0.0
21.227,0.128,-0.721,0.0
19.422,0.117,-0.773,1.0
17.445,0.105,-0.798,0.0
15.83,0.095,-0.817,0.0
14.595,0.088,-0.839,0.0
22.999,0.136,-0.694,0.0
20.2,0.12,-0.728,0.0
18.698,0.111,-0.783,0.0
16.876,0.1,-0.807,0.0
15.451,0.091,-0.829,0.0
14.16,0.084,-0.843,0.0
22.147,0.128,-0.713,0.0
19.678,0.114,-0.749,2.0
18.105,0.105,-0.795,0.0
16.348,0.094,-0.815,0.0
14.988,0.086,-0.835,0.0
13.772,0.079,-0.848,0.0
21.066,0.118,-0.721,0.0
19.25,0.108,-0.771,0.0
17.366,0.097,-0.798,0.0
15.739,0.088,-0.817,0.0
14.507,0.081,-0.838,0.0
13.445,0.075,-0.855,0.0
19.915,0.108,-0.722,1.0
18.624,0.1,-0.784,0.0
16.816,0.09,-0.806,0.0
15.44,0.083,-0.832,0.0
14.117,0.075,-0.843,0.0
13.105,0.07,-0.86,0.0
19.687,0.102,-0.753,2.0
17.979,0.092,-0.793,0.0
16.341,0.084,-0.816,0.0
14.915,0.076,-0.834,0.0
13.723,0.07,-0.847,0.0
12.788,0.064,-0.864,0.0
19.203,0.094,-0.773,0.0
17.319,0.084,-0.798,0.0
15.774,0.076,-0.819,0.0
14.506,0.07,-0.839,0.0
13.391,0.064,-0.853,0.0
12.516,0.059,-0.871,0.0
18.548,0.085,-0.783,0.0
16.771,0.076,-0.806,0.0
15.374,0.069,-0.829,0.0
14.085,0.063,-0.843,0.0
13.081,0.058,-0.859,0.0
12.214,0.054,-0.874,0.0
17.944,0.076,-0.792,0.0
16.238,0.068,-0.812,0.0
14.944,0.062,-0.834,0.0
13.722,0.056,-0.848,0.0
12.789,0.052,-0.865,0.0
11.971,0.048,-0.88,0.0
17.267,0.066,-0.795,0.0
15.784,0.06,-0.819,0.0
14.453,0.054,-0.835,0.0
13.37,0.049,-0.852,0.0
12.488,0.046,-0.869,0.0
11.708,0.042,-0.883,0.0
16.794,0.057,-0.805,0.0
15.31,0.051,-0.824,0.0
14.082,0.047,-0.84,0.0
13.074,0.043,-0.858,0.0
12.244,0.039,-0.875,0.0
11.501,0.036,-0.889,0.0
16.255,0.048,-0.811,0.0
14.929,0.043,-0.831,0.0
13.758,0.039,-0.847,0.0
12.778,0.036,-0.862,0.0
11.987,0.033,-0.879,0.0
11.25,0.03,-0.891,0.0
15.827,0.039,-0.819,0.0
14.501,0.035,-0.834,0.0
13.403,0.032,-0.85,0.0
12.522,0.029,-0.868,0.0
11.74,0.026,-0.883,0.0
11.025,0.024,-0.894,0.0
15.291,0.03,-0.819,0.0
14.11,0.027,-0.838,0.0
13.116,0.024,-0.856,0.0
12.254,0.022,-0.872,0.0
11.517,0.019,-0.887,0.0
10.829,0.018,-0.898,0.0
15.004,0.021,-0.831,0.0
13.798,0.018,-0.845,0.0
12.851,0.016,-0.862,0.0
11.991,0.014,-0.875,0.0
11.287,0.013,-0.89,0.0
10.616,0.011,-0.899,0.0
14.529,0.012,-0.831,0.0
13.44,0.01,-0.847,0.0
12.577,0.008,-0.866,0.0
11.775,0.007,-0.881,0.0
11.081,0.006,-0.894,0.0
10.438,0.004,-0.903,0.0
14.135,0.003,-0.833,0.0
13.176,0.001,-0.854,0.0
12.35,0.0,-0.872,0.0
11.556,0.0,-0.885,0.0
10.882,-0.001,-0.897,0.0
10.263,-0.001,-0.906,0.0
13.852,-0.005,-0.841,0.0
12.926,-0.006,-0.86,0.0
12.09,-0.007,-0.875,0.0
11.341,-0.007,-0.888,0.0
10.668,-0.008,-0.898,0.0
10.079,-0.008,-0.908,0.0
13.558,-0.015,-0.847,0.0
12.664,-0.015,-0.865,0.0
11.854,-0.015,-0.879,0.0
11.125,-0.015,-0.891,0.0
10.492,-0.015,-0.902,0.0
9.917,-0.015,-0.91,0.0
13.261,-0.024,-0.851,0.0
12.421,-0.023,-0.869,0.0
11.648,-0.023,-0.883,0.0
10.944,-0.023,-0.895,0.0
10.318,-0.022,-0.904,0.0
9.751,-0.022,-0.912,0.0
13.024,-0.033,-0.858,0.0
12.149,-0.032,-0.871,1.0
11.44,-0.031,-0.886,0.0
10.756,-0.03,-0.897,0.0
10.145,-0.03,-0.906,0.0
9.573,-0.029,-0.911,0.0
12.763,-0.042,-0.861,0.0
11.968,-0.041,-0.877,0.0
11.235,-0.039,-0.889,0.0
10.575,-0.038,-0.899,0.0
10.008,-0.037,-0.91,0.0
9.46,-0.036,-0.915,0.0
12.533,-0.051,-0.865,0.0
11.752,-0.049,-0.88,0.0
11.05,-0.047,-0.892,0.0
10.411,-0.046,-0.902,0.0
9.849,-0.044,-0.911,0.0
9.299,-0.043,-0.915,0.0
12.326,-0.06,-0.871,0.0
11.569,-0.058,-0.885,0.0
10.889,-0.056,-0.896,0.0
10.226,-0.054,-0.902,0.0
9.701,-0.052,-0.912,0.0
9.194,-0.05,-0.919,0.0
12.113,-0.07,-0.874,0.0
11.373,-0.067,-0.887,0.0
10.7,-0.064,-0.897,0.0
10.099,-0.062,-0.906,0.0
9.566,-0.06,-0.914,0.0
9.061,-0.058,-0.919,0.0
11.893,-0.079,-0.876,0.0
11.181,-0.076,-0.889,0.0
10.537,-0.072,-0.899,0.0
9.957,-0.07,-0.908,0.0
9.439,-0.067,-0.916,0.0
8.903,-0.064,-0.916,0.0
11.717,-0.088,-0.881,0.0
11.031,-0.085,-0.893,0.0
10.384,-0.081,-0.901,0.0
9.82,-0.078,-0.91,0.0
9.293,-0.075,-0.916,0.0
8.838,-0.072,-0.923,0.0
11.565,-0.098,-0.886,0.0
10.857,-0.093,-0.895,0.0
10.252,-0.089,-0.904,0.0
9.692,-0.086,-0.912,0.0
9.124,-0.082,-0.912,0.0
8.745,-0.08,-0.925,0.0
11.367,-0.107,-0.887,0.0
10.711,-0.102,-0.898,0.0
10.122,-0.098,-0.907,0.0
9.519,-0.093,-0.909,0.0
9.034,-0.09,-0.916,0.0
8.606,-0.087,-0.923,0.0
11.201,-0.116,-0.889,0.0
10.56,-0.111,-0.899,0.0
9.976,-0.106,-0.907,0.0
9.421,-0.102,-0.913,0.0
8.959,-0.098,-0.92,0.0
8.525,-0.095,-0.925,0.0
11.059,-0.126,-0.892,0.0
10.412,-0.12,-0.901,0.0
9.832,-0.115,-0.907,0.0
9.321,-0.11,-0.915,0.0
8.825,-0.105,-0.918,0.0
8.45,-0.102,-0.928,0.0
10.892,-0.135,-0.893,0.0
10.285,-0.129,-0.903,0.0
9.7,-0.123,-0.908,0.0
9.202,-0.118,-0.916,0.0
8.759,-0.114,-0.922,0.0
8.36,-0.11,-0.929,0.0
10.752,-0.144,-0.895,0.0
10.144,-0.137,-0.903,0.0
9.591,-0.132,-0.909,0.0
9.064,-0.126,-0.913,0.0
8.682,-0.122,-0.925,0.0
8.258,-0.117,-0.928,0.0
10.62,-0.154,-0.897,0.0
9.753,-0.142,-0.88,0.0
9.499,-0.14,-0.912,0.0
9.011,-0.135,-0.918,0.0
8.59,-0.13,-0.926,0.0
8.201,-0.125,-0.931,0.0
10.486,-0.163,-0.898,0.0
9.921,-0.156,-0.907,0.0
9.377,-0.149,-0.911,0.0
8.901,-0.143,-0.918,0.0
8.497,-0.137,-0.925,0.0
8.11,-0.133,-0.93,0.0
10.354,-0.172,-0.898,0.0
9.826,-0.165,-0.909,0.0
9.248,-0.157,-0.909,0.0
8.839,-0.151,-0.921,0.0
8.45,-0.146,-0.93,0.0
8.077,-0.141,-0.936,0.0
10.28,-0.182,-0.903,0.0
9.71,-0.174,-0.909,0.0
9.22,-0.166,-0.917,0.0
8.778,-0.16,-0.924,0.0
8.37,-0.154,-0.93,0.0
8.009,-0.149,-0.937,0.0
10.149,-0.191,-0.903,0.0
9.605,-0.183,-0.909,0.0
9.175,-0.176,-0.922,0.0
8.667,-0.168,-0.922,0.0
8.288,-0.162,-0.93,0.0
7.95,-0.157,-0.938,0.0
10.067,-0.201,-0.905,0.0
9.547,-0.192,-0.914,0.0
9.031,-0.184,-0.917,0.0
8.593,-0.176,-0.923,0.0
8.236,-0.171,-0.932,0.0
7.881,-0.165,-0.938,0.0
9.961,-0.21,-0.906,0.0
9.451,-0.201,-0.914,0.0
8.945,-0.192,-0.916,0.0
8.532,-0.185,-0.924,0.0
8.179,-0.179,-0.933,0.0
7.827,-0.173,-0.939,0.0
9.891,-0.221,-0.909,0.0
9.369,-0.211,-0.915,0.0
8.862,-0.201,-0.916,0.0
8.48,-0.194,-0.926,0.0
8.104,-0.187,-0.932,0.0
7.79,-0.181,-0.941,0.0
9.8,-0.23,-0.909,0.0
9.275,-0.219,-0.913,0.0
8.819,-0.21,-0.919,0.0
8.433,-0.203,-0.929,0.0
8.049,-0.195,-0.933,0.0
7.739,-0.189,-0.942,0.0
9.71,-0.239,-0.909,0.0
9.218,-0.229,-0.916,0.0
8.775,-0.22,-0.922,0.0
8.371,-0.211,-0.929,0.0
7.986,-0.203,-0.932,0.0
7.693,-0.197,-0.943,0.0
9.67,-0.25,-0.913,0.0
9.167,-0.239,-0.918,0.0
8.725,-0.229,-0.924,0.0
8.28,-0.219,-0.925,0.0
7.957,-0.212,-0.935,0.0
7.639,-0.205,-0.942,0.0
9.588,-0.259,-0.912,0.0
9.067,-0.247,-0.915,0.0
8.679,-0.238,-0.926,0.0
8.251,-0.228,-0.928,0.0
7.932,-0.221,-0.938,0.0
7.599,-0.213,-0.943,0.0
9.528,-0.269,-0.914,0.0
9.028,-0.257,-0.917,0.0
8.617,-0.247,-0.925,0.0
8.219,-0.237,-0.93,0.0
7.871,-0.229,-0.936,0.0
7.564,-0.222,-0.944,0.0
9.464,-0.279,-0.914,0.0
8.981,-0.266,-0.918,0.0
8.573,-0.256,-0.926,0.0
8.194,-0.247,-0.933,0.0
7.838,-0.237,-0.938,0.0
7.514,-0.229,-0.942,0.0
9.422,-0.289,-0.916,0.0
8.953,-0.277,-0.921,0.0
8.525,-0.265,-0.926,0.0
8.161,-0.256,-0.934,0.0
7.826,-0.247,-0.941,0.0
7.483,-0.238,-0.943,0.0
9.38,-0.3,-0.917,0.0
8.922,-0.287,-0.923,0.0
8.498,-0.275,-0.928,0.0
8.117,-0.264,-0.934,0.0
7.77,-0.255,-0.938,0.0
7.466,-0.246,-0.945,0.0
9.313,-0.309,-0.916,0.0
8.849,-0.295,-0.92,0.0
8.451,-0.284,-0.927,0.0
8.069,-0.273,-0.932,0.0
7.737,-0.263,-0.938,0.0
7.442,-0.255,-0.946,0.0
9.277,-0.319,-0.917,0.0
8.817,-0.305,-0.921,0.0
8.434,-0.294,-0.93,0.0
8.05,-0.282,-0.934,0.0
7.718,-0.272,-0.94,0.0
7.401,-0.263,-0.944,0.0
9.274,-0.33,-0.92,0.0
8.772,-0.314,-0.921,0.0
8.4,-0.303,-0.929,0.0
8.027,-0.291,-0.935,0.0
7.689,-0.281,-0.94,0.0
7.362,-0.27,-0.942,0.0
9.249,-0.341,-0.922,0.0
8.763,-0.325,-0.923,0.0
8.369,-0.312,-0.929,0.0
8.014,-0.301,-0.936,0.0
7.673,-0.29,-0.941,0.0
7.359,-0.279,-0.944,0.0
9.219,-0.351,-0.922,0.0
8.739,-0.335,-0.924,0.0
8.349,-0.322,-0.93,0.0
7.976,-0.309,-0.935,0.0
7.683,-0.299,-0.944,0.0
7.354,-0.288,-0.946,0.0
9.178,-0.361,-0.921,0.0
8.722,-0.345,-0.925,0.0
8.331,-0.331,-0.93,0.0
7.966,-0.319,-0.936,0.0
7.678,-0.309,-0.946,0.0
7.337,-0.297,-0.946,0.0
9.142,-0.371,-0.92,0.0
8.723,-0.356,-0.927,0.0
8.3,-0.34,-0.929,0.0
7.98,-0.329,-0.94,0.0
7.675,-0.318,-0.947,0.0
7.339,-0.306,-0.948,0.0
9.12,-0.381,-0.92,0.0
8.705,-0.366,-0.927,0.0
8.282,-0.35,-0.929,0.0
7.949,-0.338,-0.937,0.0
7.646,-0.327,-0.945,0.0
7.323,-0.314,-0.947,0.0
9.123,-0.392,-0.922,0.0
8.693,-0.376,-0.927,0.0
8.286,-0.36,-0.931,0.0
7.931,-0.347,-0.937,0.0
7.667,-0.337,-0.949,0.0
7.324,-0.324,-0.948,0.0
9.099,-0.403,-0.92,0.0
8.699,-0.387,-0.929,0.0
8.268,-0.37,-0.93,0.0
7.938,-0.357,-0.938,0.0
7.651,-0.346,-0.948,0.0
7.303,-0.332,-0.946,0.0
9.076,-0.413,-0.919,0.0
8.709,-0.398,-0.931,0.0
8.268,-0.38,-0.93,0.0
7.934,-0.366,-0.938,0.0
7.674,-0.356,-0.951,0.0
7.327,-0.342,-0.95,0.0
9.091,-0.424,-0.921,0.0
8.685,-0.407,-0.928,0.0
8.27,-0.39,-0.931,0.0
7.917,-0.375,-0.937,0.0
7.65,-0.364,-0.948,0.0
7.312,-0.35,-0.948,0.0
9.115,-0.436,-0.923,0.0
8.704,-0.419,-0.93,0.0
8.305,-0.401,-0.934,0.0
7.925,-0.385,-0.937,0.0
7.644,-0.373,-0.947,0.0
7.28,-0.357,-0.943,0.0
9.094,-0.446,-0.921,0.0
8.688,-0.428,-0.928,0.0
8.292,-0.41,-0.933,0.0
7.933,-0.395,-0.938,0.0
7.647,-0.382,-0.947,0.0
7.334,-0.368,-0.95,0.0
9.108,-0.458,-0.921,0.0
8.689,-0.438,-0.927,0.0
8.306,-0.421,-0.933,0.0
7.929,-0.404,-0.936,0.0
7.66,-0.392,-0.948,0.0
7.311,-0.376,-0.946,0.0
9.151,-0.47,-0.924,0.0
8.707,-0.449,-0.928,0.0
8.317,-0.431,-0.933,0.0
7.97,-0.415,-0.94,0.0
7.662,-0.401,-0.947,0.0
7.323,-0.385,-0.946,0.0
9.167,-0.482,-0.924,0.0
8.721,-0.46,-0.928,0.0
8.318,-0.441,-0.932,0.0
7.958,-0.423,-0.937,0.0
7.663,-0.41,-0.945,0.0
7.344,-0.394,-0.947,0.0
9.179,-0.493,-0.923,0.0
8.722,-0.47,-0.926,0.0
8.351,-0.452,-0.933,0.0
7.981,-0.434,-0.937,0.0
7.661,-0.418,-0.943,0.0
7.338,-0.402,-0.944,0.0
9.199,-0.504,-0.923,0.0
8.74,-0.481,-0.926,0.0
8.343,-0.461,-0.93,0.0
7.975,-0.442,-0.934,0.0
7.691,-0.428,-0.944,0.0
7.396,-0.414,-0.95,0.0
9.221,-0.515,-0.922,0.0
8.775,-0.492,-0.926,0.0
8.367,-0.471,-0.93,0.0
8.019,-0.454,-0.937,0.0
7.716,-0.438,-0.945,0.0
7.425,-0.423,-0.951,0.0
9.248,-0.527,-0.922,0.0
8.808,-0.504,-0.927,0.0
8.415,-0.483,-0.932,0.0
8.028,-0.463,-0.935,0.0
7.731,-0.447,-0.944,0.0
7.425,-0.431,-0.948,0.0
9.289,-0.539,-0.922,0.0
8.834,-0.515,-0.926,0.0
8.435,-0.493,-0.931,0.0
8.046,-0.472,-0.934,0.0
7.751,-0.457,-0.943,0.0
7.456,-0.441,-0.948,0.0
9.308,-0.55,-0.92,0.0
8.878,-0.527,-0.926,0.0
8.455,-0.503,-0.929,0.0
8.102,-0.484,-0.936,0.0
7.774,-0.466,-0.942,0.0
7.492,-0.451,-0.949,0.0
9.352,-0.562,-0.92,0.0
8.89,-0.536,-0.923,0.0
8.506,-0.515,-0.931,0.0
8.131,-0.494,-0.936,0.0
7.817,-0.477,-0.943,0.0
7.488,-0.458,-0.945,0.0
9.384,-0.574,-0.918,0.0
8.978,-0.551,-0.928,0.0
8.532,-0.525,-0.929,0.0
8.177,-0.505,-0.936,0.0
7.82,-0.485,-0.939,0.0
7.535,-0.469,-0.947,0.0
9.449,-0.587,-0.919,0.0
9.019,-0.562,-0.927,0.0
8.574,-0.536,-0.928,0.0
8.215,-0.515,-0.936,0.0
7.856,-0.495,-0.938,0.0
7.582,-0.479,-0.948,0.0
9.53,-0.601,-0.921,0.0
9.066,-0.574,-0.926,0.0
8.629,-0.548,-0.929,0.0
8.28,-0.527,-0.938,0.0
7.914,-0.506,-0.94,0.0
7.604,-0.488,-0.946,0.0
9.556,-0.612,-0.917,0.0
9.13,-0.586,-0.927,0.0
8.676,-0.559,-0.928,0.0
8.328,-0.538,-0.938,0.0
7.948,-0.515,-0.939,0.0
7.631,-0.496,-0.944,0.0
9.617,-0.624,-0.917,0.0
9.192,-0.598,-0.927,0.0
8.76,-0.572,-0.931,0.0
8.35,-0.547,-0.935,0.0
7.982,-0.524,-0.937,0.0
7.679,-0.506,-0.944,0.0
9.644,-0.635,-0.912,0.0
9.233,-0.609,-0.924,0.0
8.787,-0.582,-0.928,0.0
8.414,-0.558,-0.935,0.0
8.039,-0.535,-0.938,0.0
7.722,-0.516,-0.944,0.0
9.789,-0.652,-0.919,0.0
9.298,-0.622,-0.924,0.0
8.864,-0.594,-0.929,0.0
8.473,-0.57,-0.935,0.0
8.149,-0.549,-0.944,0.0
7.769,-0.525,-0.943,0.0
9.852,-0.665,-0.917,0.0
9.372,-0.634,-0.923,0.0
8.928,-0.606,-0.928,0.0
8.526,-0.58,-0.934,0.0
8.161,-0.557,-0.939,0.0
7.833,-0.536,-0.944,0.0
9.906,-0.677,-0.914,0.0
9.45,-0.647,-0.923,0.0
9.0,-0.618,-0.928,0.0
8.593,-0.592,-0.934,0.0
8.211,-0.567,-0.938,0.0
7.859,-0.544,-0.941,0.0
9.967,-0.688,-0.911,0.0
9.524,-0.659,-0.922,0.0
9.087,-0.631,-0.929,0.0
8.647,-0.602,-0.932,0.0
8.28,-0.578,-0.938,0.0
7.942,-0.556,-0.943,0.0
10.08,-0.704,-0.912,0.0
9.558,-0.669,-0.917,0.0
9.165,-0.643,-0.929,0.0
8.728,-0.614,-0.933,0.0
8.348,-0.589,-0.938,0.0
7.971,-0.563,-0.939,0.0
10.181,-0.718,-0.911,0.0
9.683,-0.684,-0.919,0.0
9.234,-0.654,-0.927,0.0
8.802,-0.625,-0.932,0.0
8.407,-0.599,-0.936,0.0
8.066,-0.576,-0.942,0.0
10.297,-0.733,-0.912,0.0
9.795,-0.699,-0.92,0.0
9.295,-0.665,-0.924,0.0
8.901,-0.638,-0.934,0.0
8.484,-0.61,-0.936,0.0
8.116,-0.584,-0.94,0.0
10.365,-0.745,-0.907,0.0
9.855,-0.71,-0.916,0.0
9.352,-0.675,-0.92,0.0
8.973,-0.649,-0.932,0.0
8.587,-0.622,-0.939,0.0
8.138,-0.591,-0.934,0.0
10.495,-0.76,-0.908,0.0
9.941,-0.722,-0.914,0.0
9.466,-0.689,-0.921,0.0
9.038,-0.659,-0.93,0.0
8.63,-0.631,-0.934,0.0
8.246,-0.604,-0.938,0.0
10.61,-0.775,-0.907,0.0
10.001,-0.732,-0.909,0.0
9.535,-0.699,-0.918,0.0
9.125,-0.67,-0.928,0.0
8.712,-0.641,-0.934,0.0
8.331,-0.615,-0.938,0.0
10.764,-0.792,-0.908,0.0
10.217,-0.753,-0.917,0.0
9.694,-0.716,-0.922,0.0
9.229,-0.683,-0.929,0.0
8.786,-0.652,-0.932,0.0
8.397,-0.624,-0.936,0.0
10.879,-0.806,-0.905,0.0
10.241,-0.76,-0.907,0.0
9.769,-0.727,-0.918,0.0
9.314,-0.694,-0.926,0.0
8.911,-0.665,-0.934,0.0
8.503,-0.636,-0.938,0.0
11.014,-0.822,-0.904,0.0
10.356,-0.774,-0.905,0.0
9.827,-0.735,-0.912,0.0
9.388,-0.704,-0.923,0.0
8.995,-0.675,-0.933,0.0
8.599,-0.647,-0.938,0.0
11.18,-0.839,-0.904,0.0
10.542,-0.792,-0.909,0.0
9.973,-0.751,-0.914,0.0
9.482,-0.715,-0.92,0.0
9.08,-0.686,-0.93,0.0
8.663,-0.655,-0.935,0.0
11.262,-0.849,-0.897,0.0
10.727,-0.81,-0.912,0.0
10.117,-0.765,-0.914,0.0
9.602,-0.727,-0.92,0.0
9.173,-0.696,-0.929,0.0
8.768,-0.666,-0.935,0.0
11.421,-0.866,-0.896,0.0
10.807,-0.82,-0.905,0.0
10.265,-0.78,-0.915,0.0
9.749,-0.742,-0.922,0.0
9.314,-0.71,-0.931,0.0
8.879,-0.678,-0.935,0.0
11.586,-0.882,-0.894,0.0
11.008,-0.839,-0.908,0.0
10.423,-0.795,-0.916,0.0
9.825,-0.751,-0.917,0.0
9.374,-0.717,-0.925,0.0
8.966,-0.687,-0.933,0.0
11.826,-0.904,-0.897,0.0
11.119,-0.85,-0.903,0.0
10.528,-0.806,-0.911,0.0
9.943,-0.762,-0.915,0.0
9.513,-0.73,-0.926,0.0
9.07,-0.697,-0.932,0.0
11.993,-0.919,-0.894,0.0
11.29,-0.866,-0.902,0.0
10.646,-0.818,-0.908,0.0
10.082,-0.775,-0.914,0.0
9.608,-0.74,-0.923,0.0
9.182,-0.708,-0.931,0.0
12.152,-0.934,-0.89,0.0
11.381,-0.876,-0.894,0.0
10.795,-0.831,-0.906,0.0
10.246,-0.79,-0.915,0.0
9.699,-0.748,-0.918,0.0
9.315,-0.719,-0.932,0.0
12.313,-0.949,-0.885,0.0
11.577,-0.893,-0.894,0.0
10.904,-0.841,-0.9,0.0
10.385,-0.802,-0.914,0.0
9.832,-0.76,-0.917,0.0
9.378,-0.725,-0.925,0.0
12.48,-0.963,-0.88,0.0
11.793,-0.911,-0.894,0.0
11.144,-0.861,-0.904,0.0
10.543,-0.815,-0.913,0.0
10.012,-0.775,-0.92,0.0
9.531,-0.738,-0.927,0.0
12.593,-0.973,-0.871,0.0
11.997,-0.927,-0.893,0.0
11.274,-0.872,-0.899,0.0
10.718,-0.829,-0.913,0.0
10.106,-0.783,-0.915,0.0
9.614,-0.745,-0.921,0.0
12.882,-0.996,-0.873,0.0
12.194,-0.943,-0.891,0.0
11.429,-0.884,-0.896,0.0
10.837,-0.839,-0.908,0.0
10.32,-0.799,-0.919,0.0
9.757,-0.756,-0.921,0.0
13.166,-1.018,-0.873,0.0
12.395,-0.959,-0.888,0.0
11.674,-0.903,-0.898,0.0
10.984,-0.85,-0.904,0.0
10.477,-0.811,-0.918,0.0
9.855,-0.763,-0.916,0.0
13.451,-1.039,-0.872,0.0
12.532,-0.969,-0.879,0.0
11.878,-0.918,-0.896,0.0
11.23,-0.869,-0.908,0.0
10.615,-0.821,-0.915,0.0
10.042,-0.777,-0.919,0.0
13.715,-1.059,-0.87,0.0
12.675,-0.979,-0.871,0.0
12.093,-0.934,-0.895,0.0
11.31,-0.874,-0.898,0.0
10.766,-0.832,-0.912,0.0
10.251,-0.792,-0.922,0.0
13.987,-1.078,-0.866,0.0
13.101,-1.01,-0.88,0.0
12.264,-0.945,-0.889,0.0
11.543,-0.89,-0.899,0.0
10.913,-0.841,-0.908,0.0
10.406,-0.802,-0.921,0.0
14.257,-1.097,-0.862,0.0
13.281,-1.021,-0.873,0.0
12.486,-0.96,-0.887,0.0
11.782,-0.906,-0.9,0.0
11.154,-0.858,-0.911,0.0
10.477,-0.806,-0.911,0.0
14.557,-1.117,-0.858,0.0
13.612,-1.044,-0.874,0.0
12.616,-0.967,-0.877,0.0
11.977,-0.918,-0.897,0.0
11.271,-0.864,-0.903,0.0
10.692,-0.82,-0.913,0.0
14.874,-1.137,-0.854,0.0
13.868,-1.06,-0.869,0.0
12.828,-0.98,-0.872,0.0
12.154,-0.929,-0.891,0.0
11.435,-0.873,-0.899,0.0
10.858,-0.829,-0.911,0.0
15.319,-1.167,-0.857,0.0
14.143,-1.077,-0.865,0.0
13.205,-1.005,-0.877,0.0
12.369,-0.941,-0.888,0.0
11.683,-0.889,-0.901,0.0
11.074,-0.842,-0.912,0.0
15.609,-1.184,-0.849,0.0
14.452,-1.095,-0.862,0.0
13.49,-1.022,-0.876,0.0
12.606,-0.954,-0.886,0.0
11.879,-0.899,-0.897,0.0
11.241,-0.85,-0.908,0.0
16.028,-1.21,-0.847,0.0
14.757,-1.113,-0.857,0.0
13.772,-1.038,-0.873,0.0
12.792,-0.963,-0.879,0.0
12.075,-0.909,-0.893,0.0
11.35,-0.854,-0.9,0.0
16.313,-1.224,-0.837,0.0
15.07,-1.13,-0.852,0.0
14.026,-1.051,-0.867,0.0
13.064,-0.978,-0.878,0.0
12.348,-0.924,-0.895,0.0
11.564,-0.865,-0.899,0.0
16.803,-1.253,-0.836,0.0
15.499,-1.155,-0.852,0.0
14.385,-1.071,-0.867,0.0
13.344,-0.993,-0.876,0.0
12.524,-0.931,-0.888,0.0
11.835,-0.879,-0.901,0.0
17.244,-1.277,-0.831,0.0
15.848,-1.173,-0.847,0.0
14.615,-1.08,-0.858,0.0
13.7,-1.012,-0.878,0.0
12.735,-0.94,-0.883,0.0
12.057,-0.889,-0.899,0.0
17.66,-1.299,-0.824,0.0
16.28,-1.196,-0.845,0.0
14.858,-1.09,-0.849,0.0
13.92,-1.02,-0.87,0.0
12.954,-0.948,-0.878,0.0
12.286,-0.898,-0.897,0.0
18.182,-1.326,-0.82,0.0
16.735,-1.219,-0.842,0.0
15.403,-1.121,-0.856,0.0
14.208,-1.032,-0.866,0.0
13.247,-0.961,-0.877,0.0
12.428,-0.901,-0.888,0.0
18.536,-1.34,-0.807,0.0
17.118,-1.236,-0.835,0.0
15.612,-1.126,-0.844,0.0
14.559,-1.048,-0.864,0.0
13.437,-0.966,-0.869,0.0
12.656,-0.909,-0.885,0.0
19.172,-1.373,-0.805,0.0
17.439,-1.247,-0.824,0.0
16.118,-1.151,-0.846,0.0
14.748,-1.052,-0.853,0.0
13.852,-0.986,-0.874,0.0
12.84,-0.913,-0.878,0.0
19.554,-1.387,-0.791,0.0
17.915,-1.268,-0.819,0.0
16.655,-1.177,-0.848,0.0
15.193,-1.072,-0.855,0.0
14.149,-0.997,-0.871,0.0
13.098,-0.921,-0.875,0.0
20.142,-1.413,-0.784,0.0
18.417,-1.29,-0.813,0.0
16.923,-1.183,-0.836,0.0
15.46,-1.079,-0.846,0.0
14.47,-1.008,-0.868,0.0
13.446,-0.935,-0.877,0.0
20.608,-1.43,-0.77,0.0
18.984,-1.314,-0.809,0.0
17.278,-1.194,-0.827,0.0
15.91,-1.097,-0.846,0.0
14.73,-1.014,-0.861,0.0
13.736,-0.944,-0.875,0.0
21.362,-1.464,-0.765,0.0
19.439,-1.329,-0.798,0.0
17.776,-1.213,-0.823,0.0
16.421,-1.118,-0.848,0.0
15.151,-1.029,-0.862,0.0
13.953,-0.946,-0.867,0.0
21.835,-1.477,-0.748,0.0
20.027,-1.351,-0.791,0.0
18.277,-1.23,-0.817,0.0
16.822,-1.13,-0.842,0.0
15.369,-1.03,-0.85,0.0
14.358,-0.96,-0.87,0.0
22.479,-1.5,-0.736,0.0
20.505,-1.365,-0.778,0.0
18.87,-1.253,-0.815,0.0
17.106,-1.133,-0.83,0.0
15.77,-1.042,-0.848,0.0
14.613,-0.963,-0.863,0.0
23.309,-1.533,-0.727,0.0
21.094,-1.383,-0.769,0.0
19.299,-1.262,-0.804,0.0
17.536,-1.144,-0.824,0.0
16.273,-1.059,-0.85,0.0
14.928,-0.969,-0.858,0.0
24.214,-1.568,-0.719,0.0
21.587,-1.394,-0.754,0.0
19.799,-1.275,-0.795,0.0
18.131,-1.164,-0.825,0.0
16.655,-1.066,-0.845,0.0
15.337,-0.979,-0.859,0.0
25.295,-1.611,-0.712,0.0
22.288,-1.415,-0.744,0.0
20.288,-1.284,-0.784,0.0
18.482,-1.167,-0.813,0.0
17.046,-1.073,-0.839,0.0
15.605,-0.979,-0.85,0.0
25.338,-1.586,-0.675,0.0
23.109,-1.442,-0.737,0.0
20.753,-1.291,-0.771,0.0
19.063,-1.182,-0.81,0.0
17.47,-1.08,-0.834,0.0
15.971,-0.984,-0.846,0.0
0.0,0.0,0.0,0.0
23.898,-1.464,-0.727,0.0
21.33,-1.302,-0.76,0.0
19.546,-1.19,-0.801,0.0
17.854,-1.083,-0.826,0.0
16.453,-0.995,-0.847,0.0
27.741,-1.673,-0.657,0.0
24.541,-1.475,-0.71,0.0
21.962,-1.315,-0.751,0.0
19.925,-1.189,-0.788,0.0
18.247,-1.085,-0.817,0.0
16.801,-0.996,-0.841,0.0
28.695,-1.696,-0.639,0.0
25.386,-1.495,-0.698,0.0
22.597,-1.326,-0.74,0.0
20.556,-1.202,-0.783,0.0
18.8,-1.095,-0.815,0.0
17.226,-1.0,-0.837,0.0
0.0,0.0,0.0,0.0
0.0,0.0,0.0,0.0
23.28,-1.337,-0.728,0.0
21.006,-1.201,-0.769,0.0
19.223,-1.095,-0.805,0.0
17.551,-0.996,-0.827,0.0
31.026,-1.755,-0.601,0.0
26.897,-1.516,-0.662,0.0
24.196,-1.358,-0.722,0.0
21.533,-1.203,-0.758,0.0
19.783,-1.101,-0.8,0.0
18.032,-0.999,-0.824,0.0
0.0,0.0,0.0,0.0
28.083,-1.545,-0.651,0.0
24.858,-1.361,-0.707,0.0
22.205,-1.211,-0.75,0.0
20.27,-1.101,-0.791,0.0
18.494,-1.0,-0.819,0.0
33.349,-1.798,-0.551,0.0
0.0,0.0,0.0,0.0
0.0,0.0,0.0,0.0
22.827,-1.213,-0.739,0.0
20.694,-1.095,-0.779,0.0
18.901,-0.996,-0.811,0.0
0.0,0.0,0.0,0.0
30.312,-1.583,-0.618,0.0
26.656,-1.386,-0.683,0.0
23.375,-1.209,-0.725,0.0
21.248,-1.094,-0.77,0.0
19.329,-0.99,-0.803,0.0
0.0,0.0,0.0,0.0
31.048,-1.577,-0.59,0.0
27.711,-1.4,-0.672,0.0
24.395,-1.226,-0.723,0.0
21.681,-1.084,-0.756,0.0
19.875,-0.989,-0.798,0.0
37.653,-1.867,-0.467,0.0
0.0,0.0,0.0,0.0
27.735,-1.361,-0.636,0.0
24.958,-1.218,-0.706,0.0
22.4,-1.087,-0.752,0.0
20.33,-0.982,-0.789,0.0
39.998,-1.924,-0.443,0.0
33.709,-1.612,-0.551,0.0
29.194,-1.389,-0.631,0.0
25.885,-1.224,-0.699,0.0
23.065,-1.085,-0.744,0.0
20.689,-0.968,-0.777,0.0
0.0,0.0,0.0,0.0
34.7,-1.607,-0.523,0.0
30.887,-1.422,-0.628,0.0
26.512,-1.213,-0.681,0.0
23.525,-1.07,-0.729,0.0
21.192,-0.958,-0.768,0.0
0.0,0.0,0.0,0.0
0.0,0.0,0.0,0.0
0.0,0.0,0.0,0.0
26.58,-1.175,-0.649,0.0
24.289,-1.067,-0.722,0.0
21.688,-0.947,-0.759,0.0
0.0,0.0,0.0,0.0
37.872,-1.635,-0.475,0.0
32.749,-1.405,-0.584,0.0
28.728,-1.224,-0.666,0.0
25.06,-1.06,-0.714,0.0
22.307,-0.938,-0.753,0.0
0.0,0.0,0.0,0.0
0.0,0.0,0.0,0.0
33.005,-1.362,-0.547,0.0
29.348,-1.202,-0.645,0.0
25.699,-1.045,-0.701,0.0
22.903,-0.925,-0.746,0.0
0.0,0.0,0.0,0.0
0.0,0.0,0.0,0.0
34.845,-1.38,-0.536,0.0
30.275,-1.19,-0.629,0.0
26.531,-1.034,-0.691,0.0
23.538,-0.911,-0.738,0.0
0.0,0.0,0.0,0.0
0.0,0.0,0.0,0.0
36.301,-1.375,-0.516,0.0
31.557,-1.186,-0.618,1.0
0.0,0.0,0.0,0.0
24.022,-0.888,-0.725,0.0
0.0,0.0,0.0,0.0
46.149,-1.683,-0.358,0.0
0.0,0.0,0.0,0.0
33.007,-1.183,-0.609,1.0
27.966,-0.994,-0.664,0.0
24.635,-0.868,-0.716,0.0
0.0,0.0,0.0,0.0
0.0,0.0,0.0,0.0
0.0,0.0,0.0,0.0
32.66,-1.114,-0.566,0.0
28.895,-0.977,-0.654,0.0
25.265,-0.846,-0.706,0.0
0.0,0.0,0.0,0.0
0.0,0.0,0.0,0.0
0.0,0.0,0.0,0.0
0.0,0.0,0.0,0.0
29.276,-0.938,-0.631,0.0
25.887,-0.821,-0.696,0.0
0.0,0.0,0.0,0.0
0.0,0.0,0.0,0.0
0.0,0.0,0.0,0.0
35.477,-1.083,-0.539,0.0
30.385,-0.918,-0.623,0.0
26.521,-0.793,-0.685,0.0
0.0,0.0,0.0,0.0
0.0,0.0,0.0,0.0
0.0,0.0,0.0,0.0
35.991,-1.034,-0.51,0.0
31.679,-0.899,-0.617,0.0
0.0,0.0,0.0,0.0
0.0,0.0,0.0,0.0
0.0,0.0,0.0,0.0
0.0,0.0,0.0,0.0
0.0,0.0,0.0,0.0
31.777,-0.843,-0.587,0.0
28.013,-0.734,-0.667,0.0
0.0,0.0,0.0,0.0
0.0,0.0,0.0,0.0
0.0,0.0,0.0,0.0
0.0,0.0,0.0,0.0
0.0,0.0,0.0,0.0
28.622,-0.697,-0.654,0.0
0.0,0.0,0.0,0.0
0.0,0.0,0.0,0.0
0.0,0.0,0.0,0.0
0.0,0.0,0.0,0.0
33.171,-0.756,-0.55,0.0
21.762,-0.488,-0.477,0.0
0.0,0.0,0.0,0.0
0.0,0.0,0.0,0.0
0.0,0.0,0.0,0.0
0.0,0.0,0.0,0.0
35.036,-0.73,-0.549,0.0
29.947,-0.614,-0.63,0.0
143.417,-2.905,0.958,5.0
0.0,0.0,0.0,0.0
0.0,0.0,0.0,0.0
0.0,0.0,0.0,0.0
37.742,-0.713,-0.559,0.0
30.434,-0.565,-0.613,0.0
143.461,-2.627,1.082,9.0
0.0,0.0,0.0,0.0
0.0,0.0,0.0,0.0
0.0,0.0,0.0,0.0
36.136,-0.613,-0.505,0.0
30.75,-0.511,-0.594,0.0
143.617,-2.348,1.202,150.0
19.744,-0.316,0.059,0.0
0.0,0.0,0.0,0.0
0.0,0.0,0.0,0.0
0.0,0.0,0.0,0.0
31.479,-0.461,-0.583,0.0
19.761,-0.284,0.181,27.0
19.732,-0.276,0.074,13.0
0.0,0.0,0.0,0.0
0.0,0.0,0.0,0.0
0.0,0.0,0.0,0.0
32.505,-0.411,-0.577,0.0
19.77,-0.244,0.196,22.0
19.771,-0.237,0.09,0.0
0.0,0.0,0.0,0.0
49.062,-0.556,-0.308,1.0
39.205,-0.431,-0.457,0.0
19.742,-0.21,-0.336,0.0
164.045,-1.7,1.747,16.0
160.807,-1.612,0.847,5.0
0.0,0.0,0.0,0.0
19.768,-0.184,-0.11,3.0
19.762,-0.178,-0.216,12.0
19.745,-0.171,-0.323,13.0
169.462,-1.417,1.921,6.0
160.706,-1.288,0.956,16.0
19.766,-0.151,0.011,2.0
19.727,-0.144,-0.097,13.0
19.735,-0.137,-0.203,16.0
19.74,-0.13,-0.309,16.0
19.74,-0.124,0.236,7.0
19.74,-0.117,0.13,10.0
19.716,-0.11,0.023,11.0
19.705,-0.103,-0.084,10.0
19.713,-0.097,-0.19,16.0
19.744,-0.09,-0.297,15.0
19.669,-0.083,0.248,12.0
19.691,-0.077,0.142,16.0
19.7,-0.07,0.035,15.0
19.71,-0.063,-0.072,16.0
19.723,-0.057,-0.179,14.0
19.764,-0.05,-0.286,7.0
19.638,-0.043,0.259,11.0
19.67,-0.036,0.153,9.0
19.701,-0.029,0.047,14.0
19.721,-0.022,-0.061,10.0
19.776,-0.016,-0.168,1.0
0.0,0.0,0.0,0.0
19.628,-0.002,0.27,15.0
19.737,0.004,0.164,3.0
19.787,0.011,0.058,6.0
19.75,0.017,-0.05,150.0
19.76,0.024,-0.157,13.0
19.76,0.031,-0.265,10.0
19.625,0.038,0.28,12.0
19.677,0.045,0.174,10.0
19.75,0.052,0.067,28.0
19.758,0.059,-0.041,65.0
19.766,0.066,-0.148,34.0
19.776,0.073,-0.255,15.0
19.618,0.079,0.289,21.0
19.664,0.086,0.183,12.0
19.657,0.093,0.076,12.0
19.659,0.1,-0.031,9.0
19.71,0.107,-0.138,2.0
0.0,0.0,0.0,0.0
19.622,0.121,0.298,12.0
19.666,0.128,0.192,18.0
19.638,0.135,0.085,13.0
19.624,0.141,-0.023,17.0
19.64,0.148,-0.13,13.0
19.661,0.155,-0.237,11.0
19.64,0.163,0.306,9.0
19.661,0.169,0.199,12.0
19.664,0.176,0.093,11.0
19.63,0.183,-0.015,14.0
19.637,0.19,-0.122,16.0
19.652,0.197,-0.229,17.0
19.739,0.205,0.315,10.0
19.768,0.212,0.208,22.0
19.758,0.219,0.1,13.0
19.675,0.225,-0.009,9.0
19.642,0.231,-0.116,15.0
19.653,0.238,-0.223,17.0
19.716,0.247,0.321,13.0
19.758,0.254,0.214,25.0
19.792,0.261,0.106,4.0
57.178,0.775,-0.008,2.0
19.716,0.274,-0.11,6.0
19.676,0.28,-0.217,12.0
19.729,0.288,0.327,10.0
19.764,0.296,0.22,0.0
113.963,1.745,0.647,10.0
55.209,0.864,0.006,21.0
44.785,0.716,-0.239,0.0
35.853,0.586,-0.387,1.0
55.178,0.924,0.93,55.0
55.164,0.943,0.628,71.0
55.164,0.962,0.326,77.0
55.158,0.98,0.019,54.0
44.895,0.814,-0.229,0.0
35.824,0.661,-0.379,0.0
55.174,1.042,0.942,4.0
162.883,3.133,1.889,25.0
113.218,2.216,0.694,15.0
55.12,1.096,0.03,3.0
45.16,0.914,-0.222,0.0
0.0,0.0,0.0,0.0
179.288,3.766,3.093,10.0
128.669,2.747,1.515,24.0
113.228,2.457,0.712,16.0
0.0,0.0,0.0,0.0
44.034,0.985,-0.209,9.0
36.624,0.832,-0.375,3.0
98.83,2.289,1.719,2.0
71.029,1.668,0.846,17.0
70.787,1.685,0.454,11.0
0.0,0.0,0.0,0.0
0.0,0.0,0.0,0.0
35.21,0.874,-0.356,2.0
45.511,1.15,0.796,8.0
0.0,0.0,0.0,0.0
0.0,0.0,0.0,0.0
40.229,1.057,0.037,156.0
40.116,1.067,-0.183,150.0
36.682,0.988,-0.369,3.0
0.0,0.0,0.0,0.0
0.0,0.0,0.0,0.0
0.0,0.0,0.0,0.0
40.053,1.136,0.038,60.0
40.037,1.149,-0.181,52.0
36.594,1.062,-0.367,3.0
40.128,1.183,0.706,150.0
40.12,1.196,0.485,130.0
40.131,1.209,0.264,114.0
40.123,1.222,0.039,150.0
40.086,1.234,-0.181,56.0
36.381,1.132,-0.365,1.0
40.126,1.267,0.705,150.0
40.124,1.28,0.484,144.0
40.117,1.293,0.263,150.0
40.078,1.305,0.038,65.0
40.02,1.316,-0.182,150.0
40.153,1.334,-0.404,0.0
0.0,0.0,0.0,0.0
70.9,2.411,0.852,8.0
70.989,2.437,0.462,6.0
40.129,1.391,0.035,150.0
40.086,1.402,-0.185,80.0
40.149,1.418,-0.407,0.0
45.013,1.61,0.786,55.0
44.976,1.624,0.537,150.0
43.856,1.597,0.281,188.0
42.336,1.555,0.033,1.0
41.885,1.553,-0.198,2.0
36.122,1.35,-0.371,2.0
41.738,1.58,0.723,86.0
41.637,1.59,0.491,152.0
40.657,1.565,0.255,150.0
40.346,1.566,0.026,152.0
40.337,1.579,-0.197,150.0
35.411,1.397,-0.369,1.0
40.377,1.612,0.693,60.0
40.372,1.625,0.47,42.0
62.052,2.517,0.378,11.0
45.175,1.846,0.021,48.0
40.304,1.66,-0.204,42.0
23.644,0.981,-0.25,1.0
23.631,0.992,0.401,21.0
23.63,0.999,0.27,35.0
23.626,1.006,0.139,45.0
23.621,1.013,0.006,44.0
23.617,1.021,-0.124,42.0
23.614,1.028,-0.255,49.0
23.595,1.038,0.395,67.0
23.591,1.045,0.264,71.0
23.59,1.052,0.133,71.0
23.594,1.06,0.0,69.0
23.608,1.068,-0.13,72.0
23.612,1.076,-0.262,68.0
23.597,1.086,0.389,74.0
23.604,1.094,0.258,58.0
23.6,1.101,0.127,47.0
23.608,1.108,-0.006,41.0
23.629,1.117,-0.137,40.0
23.646,1.125,-0.269,35.0
23.624,1.135,0.382,23.0
23.622,1.142,0.251,9.0
23.634,1.15,0.119,2.0
45.175,2.212,-0.026,27.0
40.303,1.986,-0.248,28.0
33.441,1.658,-0.392,5.0
45.23,2.266,0.717,68.0
45.241,2.279,0.465,141.0
45.201,2.291,0.213,28.0
45.174,2.303,-0.043,11.0
40.255,2.063,-0.262,23.0
31.917,1.646,-0.386,3.0
99.888,5.201,1.546,1.0
100.167,5.245,0.991,6.0
45.175,2.378,0.195,16.0
45.238,2.395,-0.06,4.0
40.043,2.132,-0.277,15.0
31.901,1.708,-0.398,9.0
99.652,5.386,1.501,9.0
99.271,5.395,0.941,1.0
45.176,2.468,0.176,19.0
40.327,2.215,-0.071,37.0
0.0,0.0,0.0,0.0
31.538,1.751,-0.408,9.0
45.229,2.534,0.661,42.0
45.202,2.544,0.408,4.0
45.17,2.555,0.155,39.0
40.317,2.293,-0.09,41.0
38.294,2.188,-0.299,6.0
30.766,1.767,-0.412,9.0
99.837,5.784,1.412,9.0
45.229,2.633,0.386,2.0
45.177,2.642,0.133,43.0
40.319,2.37,-0.11,44.0
0.0,0.0,0.0,0.0
30.191,1.791,-0.42,8.0
99.783,5.972,1.36,8.0
112.332,6.754,0.903,10.0
45.172,2.728,0.109,47.0
40.326,2.447,-0.131,44.0
35.856,2.186,-0.317,5.0
29.609,1.813,-0.428,8.0
45.215,2.791,0.591,95.0
45.207,2.803,0.338,59.0
45.174,2.813,0.085,45.0
40.326,2.522,-0.154,48.0
35.251,2.215,-0.332,11.0
29.017,1.831,-0.436,8.0
100.52,6.395,1.257,14.0
62.407,3.986,0.43,6.0
45.173,2.898,0.058,150.0
40.322,2.597,-0.178,44.0
33.81,2.187,-0.339,6.0
28.436,1.847,-0.445,7.0
45.219,2.96,0.537,134.0
45.144,2.967,0.283,104.0
44.073,2.908,0.029,9.0
40.315,2.671,-0.203,40.0
33.232,2.21,-0.354,10.0
27.883,1.862,-0.454,7.0
43.715,2.941,0.491,50.0
42.008,2.837,0.236,3.0
42.273,2.866,0.0,4.0
40.202,2.736,-0.229,40.0
32.275,2.205,-0.366,9.0
27.07,1.857,-0.459,7.0
42.235,2.918,0.446,86.0
42.407,2.94,0.209,72.0
40.387,2.81,-0.027,15.0
39.903,2.787,-0.255,29.0
31.604,2.215,-0.38,9.0
26.384,1.856,-0.466,6.0
41.502,2.94,0.409,133.0
41.271,2.934,0.174,58.0
40.318,2.877,-0.056,39.0
40.089,2.87,-0.285,3.0
30.952,2.224,-0.395,9.0
25.78,1.859,-0.474,6.0
40.377,2.931,0.368,78.0
40.347,2.939,0.14,51.0
40.319,2.947,-0.086,41.0
0.0,0.0,0.0,0.0
29.994,2.207,-0.405,8.0
25.232,1.863,-0.483,6.0
43.712,3.249,0.365,122.0
43.63,3.254,0.118,67.0
42.044,3.145,-0.123,102.0
35.583,2.67,-0.308,5.0
29.232,2.201,-0.418,8.0
24.778,1.871,-0.494,10.0
43.708,3.322,0.33,150.0
41.911,3.195,0.08,141.0
41.867,3.201,-0.156,78.0
0.0,0.0,0.0,0.0
28.29,2.176,-0.427,7.0
24.356,1.879,-0.505,5.0
41.919,3.255,0.282,150.0
41.191,3.207,0.045,56.0
40.127,3.133,-0.182,38.0
32.581,2.552,-0.335,5.0
27.429,2.155,-0.437,7.0
23.92,1.885,-0.517,5.0
41.911,3.322,0.247,139.0
40.13,3.19,0.009,92.0
40.003,3.188,-0.216,27.0
32.021,2.56,-0.357,9.0
26.689,2.139,-0.449,6.0
23.622,1.899,-0.531,1.0
40.116,3.244,0.2,116.0
40.018,3.244,-0.025,57.0
39.527,3.213,-0.248,8.0
31.115,2.536,-0.375,9.0
25.927,2.119,-0.459,6.0
19.766,1.62,-0.462,5.0
40.105,3.305,0.164,150.0
40.121,3.315,-0.062,109.0
36.555,3.028,-0.263,2.0
30.233,2.51,-0.392,8.0
25.24,2.101,-0.47,6.0
19.71,1.645,-0.479,8.0
40.119,3.367,0.127,150.0
40.115,3.375,-0.099,115.0
35.671,3.009,-0.29,4.0
29.209,2.47,-0.406,8.0
24.664,2.09,-0.483,8.0
19.71,1.675,-0.498,9.0
40.047,3.421,0.089,51.0
40.002,3.425,-0.137,63.0
34.631,2.972,-0.315,11.0
28.38,2.441,-0.422,7.0
24.084,2.077,-0.495,5.0
19.717,1.704,-0.517,8.0
40.116,3.485,0.05,106.0
40.018,3.485,-0.177,45.0
33.041,2.884,-0.333,10.0
27.314,2.389,-0.433,7.0
23.493,2.06,-0.506,5.0
20.432,1.796,-0.556,6.0
46.492,4.105,0.011,26.0
40.083,3.547,-0.217,15.0
31.762,2.817,-0.352,8.0
26.295,2.337,-0.444,6.0
22.945,2.044,-0.517,5.0
20.082,1.793,-0.567,5.0
46.25,4.147,-0.035,17.0
0.0,0.0,0.0,0.0
0.0,0.0,0.0,0.0
25.5,2.301,-0.456,6.0
22.261,2.013,-0.525,4.0
19.434,1.761,-0.569,4.0
45.718,4.162,-0.082,20.0
36.557,3.334,-0.274,6.0
29.619,2.707,-0.39,8.0
24.861,2.276,-0.471,6.0
21.665,1.988,-0.534,4.0
18.998,1.747,-0.577,12.0
45.523,4.203,-0.13,3.0
34.98,3.236,-0.299,9.0
27.341,2.534,-0.389,7.0
24.261,2.253,-0.486,5.0
0.0,0.0,0.0,0.0
18.555,1.73,-0.583,16.0
40.669,3.806,-0.16,16.0
33.88,3.177,-0.327,8.0
27.632,2.596,-0.424,7.0
23.622,2.223,-0.499,5.0
18.898,1.782,-0.507,8.0
18.191,1.719,-0.592,15.0
39.917,3.786,-0.202,15.0
31.649,3.007,-0.34,9.0
26.401,2.513,-0.434,6.0
22.831,2.177,-0.508,5.0
18.747,1.791,-0.524,17.0
17.937,1.717,-0.604,15.0
38.819,3.728,-0.24,14.0
30.836,2.966,-0.366,9.0
25.551,2.462,-0.449,6.0
22.172,2.14,-0.518,5.0
18.277,1.767,-0.531,16.0
17.769,1.721,-0.618,22.0
0.0,0.0,0.0,0.0
29.681,2.889,-0.386,8.0
24.87,2.424,-0.465,6.0
21.737,2.123,-0.533,4.0
18.137,1.774,-0.548,18.0
17.576,1.722,-0.632,16.0
34.638,3.404,-0.293,9.0
28.749,2.83,-0.407,8.0
24.192,2.385,-0.481,5.0
21.411,2.114,-0.55,1.0
17.764,1.757,-0.558,15.0
17.404,1.724,-0.646,13.0
33.392,3.318,-0.322,11.0
27.288,2.715,-0.419,7.0
23.513,2.343,-0.495,6.0
18.295,1.826,-0.492,16.0
17.616,1.761,-0.574,19.0
17.244,1.727,-0.661,10.0
31.528,3.166,-0.342,9.0
26.08,2.622,-0.432,6.0
22.816,2.297,-0.508,5.0
17.967,1.812,-0.505,16.0
17.43,1.76,-0.589,17.0
17.003,1.72,-0.672,14.0
30.401,3.083,-0.366,9.0
25.225,2.561,-0.448,6.0
22.209,2.258,-0.521,3.0
17.745,1.806,-0.52,17.0
17.3,1.764,-0.606,18.0
16.837,1.719,-0.686,12.0
29.269,2.995,-0.388,8.0
24.625,2.523,-0.467,5.0
18.324,1.88,-0.452,11.0
17.623,1.81,-0.537,18.0
17.039,1.753,-0.617,14.0
16.732,1.724,-0.702,11.0
27.984,2.889,-0.404,7.0
23.966,2.477,-0.483,5.0
17.927,1.855,-0.464,15.0
17.462,1.809,-0.554,18.0
16.858,1.749,-0.631,13.0
16.501,1.714,-0.712,9.0
26.657,2.775,-0.418,7.0
23.234,2.421,-0.497,5.0
17.721,1.849,-0.481,18.0
17.271,1.804,-0.569,18.0
16.73,1.75,-0.647,13.0
16.214,1.698,-0.72,11.0
25.597,2.685,-0.433,6.0
18.247,1.916,-0.413,8.0
17.634,1.854,-0.5,17.0
17.069,1.796,-0.584,14.0
16.678,1.757,-0.666,15.0
15.995,1.688,-0.73,11.0
24.85,2.626,-0.451,6.0
17.9,1.893,-0.427,15.0
17.485,1.851,-0.517,15.0
16.864,1.788,-0.598,13.0
16.531,1.754,-0.681,13.0
16.046,1.705,-0.753,3.0
24.182,2.573,-0.469,5.0
17.716,1.887,-0.445,19.0
17.285,1.843,-0.533,13.0
16.701,1.782,-0.613,13.0
16.351,1.747,-0.694,13.0
16.55,1.77,-0.797,2.0
23.771,2.545,-0.491,3.0
17.632,1.89,-0.465,18.0
17.179,1.843,-0.552,16.0
16.667,1.79,-0.632,18.0
16.203,1.742,-0.708,10.0
17.498,1.883,-0.865,1.0
18.061,1.945,-0.396,14.0
17.494,1.886,-0.484,15.0
17.023,1.837,-0.568,14.0
16.599,1.793,-0.651,16.0
16.003,1.73,-0.719,10.0
17.616,1.906,-0.893,1.0
17.765,1.924,-0.412,17.0
17.332,1.879,-0.501,14.0
16.821,1.825,-0.583,13.0
16.382,1.779,-0.663,13.0
15.944,1.733,-0.737,7.0
17.517,1.905,-0.911,0.0
17.622,1.918,-0.431,20.0
17.219,1.876,-0.52,17.0
16.69,1.819,-0.6,12.0
16.286,1.777,-0.68,14.0
16.183,1.767,-0.769,2.0
17.307,1.891,-0.922,0.0
17.543,1.918,-0.451,20.0
17.126,1.874,-0.538,16.0
16.643,1.822,-0.619,15.0
16.154,1.77,-0.695,13.0
16.56,1.816,-0.808,2.0
17.21,1.889,-0.938,0.0
17.415,1.912,-0.47,19.0
16.922,1.859,-0.554,13.0
16.527,1.817,-0.636,15.0
16.002,1.761,-0.709,12.0
17.231,1.897,-0.862,1.0
17.272,1.903,-0.964,0.0
17.282,1.905,-0.488,20.0
16.754,1.848,-0.569,14.0
16.354,1.804,-0.649,13.0
15.901,1.756,-0.724,12.0
17.215,1.902,-0.883,1.0
17.401,1.924,-0.993,0.0
17.158,1.897,-0.506,19.0
16.659,1.843,-0.587,14.0
16.283,1.803,-0.667,15.0
15.994,1.772,-0.749,3.0
17.125,1.898,-0.901,1.0
13.408,1.487,-0.782,0.0
17.036,1.889,-0.524,20.0
16.564,1.838,-0.605,14.0
16.194,1.798,-0.684,15.0
16.257,1.806,-0.782,2.0
16.999,1.889,-0.916,1.0
13.329,1.482,-0.795,0.0
16.917,1.881,-0.542,16.0
16.471,1.832,-0.622,15.0
16.095,1.791,-0.7,13.0
0.0,0.0,0.0,0.0
17.006,1.894,-0.938,1.0
13.073,1.457,-0.796,0.0
16.767,1.868,-0.558,16.0
16.361,1.823,-0.639,17.0
16.003,1.784,-0.717,14.0
16.903,1.885,-0.856,1.0
17.279,1.928,-0.974,0.0
12.81,1.43,-0.796,0.0
16.656,1.859,-0.576,17.0
16.306,1.82,-0.657,16.0
15.927,1.779,-0.733,7.0
17.06,1.906,-0.885,2.0
13.502,1.509,-0.778,0.0
12.725,1.423,-0.807,0.0
16.558,1.85,-0.593,17.0
16.228,1.814,-0.674,15.0
16.123,1.802,-0.762,2.0
16.968,1.898,-0.902,2.0
13.384,1.497,-0.788,0.0
12.586,1.409,-0.814,0.0
16.479,1.843,-0.61,17.0
16.13,1.804,-0.69,14.0
16.309,1.825,-0.791,2.0
16.902,1.891,-0.919,1.0
13.255,1.484,-0.797,0.0
12.439,1.393,-0.82,0.0
16.386,1.833,-0.627,17.0
16.026,1.793,-0.705,14.0
0.0,0.0,0.0,0.0
16.993,1.902,-0.945,1.0
12.999,1.455,-0.798,0.0
12.215,1.368,-0.82,0.0
16.339,1.828,-0.645,18.0
15.917,1.781,-0.72,12.0
16.956,1.897,-0.864,2.0
17.303,1.937,-0.983,0.0
12.784,1.431,-0.8,0.0
11.959,1.339,-0.817,0.0
16.279,1.82,-0.662,17.0
15.994,1.789,-0.743,4.0
17.007,1.902,-0.887,2.0
13.485,1.508,-0.782,0.0
12.701,1.421,-0.81,0.0
11.791,1.32,-0.82,0.0
16.194,1.81,-0.678,17.0
16.192,1.809,-0.771,2.0
16.937,1.893,-0.904,1.0
13.305,1.487,-0.788,0.0
12.522,1.4,-0.814,0.0
11.673,1.305,-0.826,0.0
16.105,1.797,-0.694,16.0
16.442,1.835,-0.802,2.0
16.967,1.894,-0.925,1.0
13.045,1.456,-0.788,0.0
12.319,1.375,-0.815,0.0
11.49,1.283,-0.826,0.0
16.013,1.784,-0.708,16.0
16.885,1.881,-0.844,1.0
17.123,1.908,-0.954,0.0
12.916,1.439,-0.795,0.0
12.104,1.349,-0.815,0.0
11.343,1.264,-0.829,0.0
15.915,1.77,-0.722,11.0
17.111,1.903,-0.875,2.0
17.395,1.934,-0.989,0.0
12.765,1.419,-0.8,0.0
11.948,1.328,-0.818,0.0
11.189,1.244,-0.83,0.0
16.01,1.776,-0.745,4.0
17.105,1.897,-0.894,1.0
13.52,1.5,-0.784,0.0
12.639,1.402,-0.807,0.0
11.738,1.302,-0.817,0.0
11.074,1.228,-0.834,0.0
16.239,1.797,-0.773,2.0
17.098,1.891,-0.912,1.0
13.329,1.474,-0.788,0.0
12.551,1.388,-0.815,0.0
11.666,1.29,-0.825,0.0
10.986,1.215,-0.84,0.0
0.0,0.0,0.0,0.0
17.104,1.886,-0.932,0.0
13.1,1.444,-0.789,0.0
12.271,1.353,-0.81,0.0
11.469,1.264,-0.823,0.0
10.853,1.196,-0.842,0.0
17.352,1.907,-0.864,1.0
17.425,1.914,-0.968,0.0
12.953,1.423,-0.794,0.0
12.164,1.336,-0.816,0.0
11.394,1.251,-0.83,0.0
10.691,1.174,-0.841,0.0
17.467,1.912,-0.888,0.0
13.748,1.504,-0.778,0.0
12.744,1.394,-0.794,0.0
12.001,1.312,-0.818,0.0
11.297,1.235,-0.835,0.0
10.625,1.162,-0.847,0.0
17.479,1.905,-0.907,0.0
13.559,1.477,-0.781,0.0
12.703,1.383,-0.805,0.0
11.87,1.292,-0.821,0.0
11.165,1.215,-0.837,0.0
10.506,1.143,-0.848,0.0
17.405,1.888,-0.921,0.0
13.346,1.447,-0.782,0.0
12.55,1.36,-0.808,0.0
11.726,1.27,-0.823,0.0
11.035,1.195,-0.838,0.0
10.408,1.127,-0.85,0.0
17.427,1.881,-0.939,0.0
13.278,1.432,-0.792,0.0
12.413,1.338,-0.811,0.0
11.568,1.247,-0.824,0.0
10.966,1.181,-0.844,0.0
10.347,1.114,-0.856,0.0
17.516,1.88,-0.961,0.0
13.12,1.407,-0.795,0.0
12.259,1.314,-0.813,0.0
11.524,1.235,-0.831,0.0
10.801,1.157,-0.841,0.0
10.237,1.096,-0.856,0.0
17.646,1.883,-0.985,0.0
12.962,1.382,-0.798,0.0
12.131,1.293,-0.816,0.0
11.333,1.207,-0.828,0.0
10.704,1.139,-0.844,0.0
10.181,1.083,-0.861,0.0
13.696,1.452,-0.777,0.0
12.838,1.36,-0.802,0.0
11.967,1.267,-0.816,0.0
11.262,1.192,-0.833,0.0
10.576,1.118,-0.843,0.0
10.105,1.068,-0.864,0.0
13.538,1.426,-0.78,0.0
12.679,1.334,-0.803,0.0
11.912,1.253,-0.822,0.0
11.104,1.167,-0.831,0.0
10.59,1.112,-0.854,0.0
10.009,1.051,-0.864,0.0
13.387,1.4,-0.783,0.0
12.612,1.317,-0.81,0.0
11.801,1.232,-0.825,0.0
11.024,1.15,-0.835,0.0
10.432,1.088,-0.85,0.0
9.928,1.034,-0.866,0.0
13.356,1.386,-0.792,0.0
12.495,1.295,-0.812,0.0
11.666,1.208,-0.825,0.0
10.974,1.136,-0.84,0.0
10.39,1.075,-0.855,0.0
9.871,1.02,-0.869,0.0
13.22,1.361,-0.795,0.0
12.426,1.278,-0.818,0.0
11.562,1.188,-0.827,0.0
10.848,1.114,-0.839,0.0
10.33,1.06,-0.858,0.0
9.811,1.006,-0.871,0.0
13.15,1.342,-0.801,0.0
12.294,1.254,-0.819,0.0
11.41,1.162,-0.825,0.0
10.8,1.099,-0.844,0.0
10.235,1.041,-0.858,0.0
9.749,0.991,-0.873,0.0
12.993,1.315,-0.801,0.0
12.249,1.238,-0.825,0.0
11.467,1.158,-0.837,0.0
10.682,1.078,-0.842,0.0
10.207,1.029,-0.863,0.0
9.72,0.979,-0.878,0.0
12.886,1.292,-0.803,0.0
12.099,1.212,-0.823,0.0
11.324,1.133,-0.835,0.0
10.665,1.066,-0.848,0.0
10.145,1.013,-0.865,0.0
9.628,0.961,-0.876,0.0
12.774,1.269,-0.805,0.0
11.967,1.187,-0.822,0.0
11.244,1.114,-0.837,0.0
10.563,1.045,-0.847,0.0
10.085,0.997,-0.867,0.0
9.611,0.95,-0.881,0.0
12.735,1.252,-0.811,0.0
11.86,1.165,-0.822,0.0
11.143,1.093,-0.836,0.0
10.505,1.029,-0.849,0.0
10.055,0.984,-0.87,0.0
9.518,0.931,-0.878,0.0
12.643,1.23,-0.812,0.0
11.763,1.143,-0.823,0.0
11.121,1.079,-0.841,0.0
10.451,1.013,-0.851,0.0
10.019,0.97,-0.873,0.0
9.497,0.919,-0.882,0.0
12.592,1.212,-0.816,0.0
11.725,1.127,-0.827,0.0
11.069,1.063,-0.843,0.0
10.435,1.0,-0.856,0.0
9.963,0.954,-0.874,0.0
9.403,0.899,-0.878,0.0
12.53,1.192,-0.819,0.0
11.715,1.113,-0.832,0.0
11.063,1.05,-0.849,0.0
10.383,0.984,-0.857,0.0
9.941,0.941,-0.877,0.0
9.399,0.889,-0.883,0.0
12.485,1.174,-0.822,0.0
11.679,1.097,-0.835,0.0
10.981,1.03,-0.848,0.0
10.373,0.972,-0.861,0.0
9.876,0.924,-0.876,0.0
9.379,0.876,-0.885,0.0
12.447,1.157,-0.826,0.0
11.597,1.076,-0.835,0.0
10.969,1.016,-0.852,0.0
10.324,0.955,-0.862,0.0
9.827,0.908,-0.876,0.0
9.346,0.862,-0.886,0.0
12.427,1.14,-0.83,0.0
11.564,1.059,-0.838,0.0
10.943,1.001,-0.855,0.0
10.293,0.94,-0.863,0.0
9.832,0.897,-0.881,0.0
9.325,0.849,-0.888,0.0
12.29,1.113,-0.826,0.0
11.518,1.041,-0.839,0.0
10.913,0.985,-0.856,0.0
10.251,0.924,-0.864,0.0
9.781,0.88,-0.88,0.0
9.271,0.833,-0.886,0.0
12.222,1.092,-0.825,0.0
11.465,1.022,-0.839,0.0
10.86,0.967,-0.856,0.0
10.222,0.909,-0.865,0.0
9.781,0.868,-0.883,0.0
9.25,0.82,-0.887,0.0
12.208,1.076,-0.828,0.0
11.425,1.005,-0.839,0.0
10.822,0.95,-0.856,0.0
10.236,0.897,-0.869,0.0
9.735,0.852,-0.881,0.0
9.268,0.809,-0.892,0.0
12.217,1.061,-0.832,0.0
11.358,0.984,-0.838,0.0
10.801,0.934,-0.857,0.0
10.194,0.88,-0.868,0.0
9.767,0.842,-0.887,0.0
9.224,0.794,-0.89,0.0
12.166,1.041,-0.831,0.0
11.342,0.968,-0.839,0.0
10.745,0.916,-0.855,0.0
10.191,0.867,-0.87,0.0
9.739,0.827,-0.886,0.0
9.21,0.78,-0.89,0.0
12.134,1.022,-0.832,0.0
11.318,0.952,-0.839,0.0
10.788,0.905,-0.861,0.0
10.151,0.85,-0.868,0.0
9.709,0.811,-0.885,0.0
9.215,0.769,-0.892,0.0
12.126,1.006,-0.833,0.0
11.35,0.939,-0.843,0.0
10.743,0.887,-0.859,0.0
10.183,0.839,-0.872,0.0
9.727,0.8,-0.888,0.0
9.222,0.757,-0.894,0.0
12.116,0.988,-0.834,0.0
11.367,0.925,-0.846,0.0
10.736,0.872,-0.859,0.0
10.136,0.821,-0.869,0.0
9.726,0.786,-0.889,0.0
9.225,0.744,-0.895,0.0
12.113,0.971,-0.834,0.0
11.326,0.906,-0.844,0.0
10.745,0.858,-0.861,0.0
10.126,0.807,-0.869,0.0
9.732,0.773,-0.89,0.0
9.194,0.729,-0.893,0.0
12.103,0.954,-0.834,0.0
11.38,0.895,-0.848,0.0
10.793,0.847,-0.865,0.0
10.129,0.793,-0.869,0.0
9.699,0.757,-0.887,0.0
