X,Y,Z,Reflectivity
8.671,-0.244,-0.929,0.0
8.262,-0.234,-0.933,0.0
10.596,-0.302,-0.899,0.0
10.029,-0.288,-0.909,0.0
9.499,-0.275,-0.916,0.0
9.021,-0.263,-0.923,0.0
8.594,-0.252,-0.929,0.0
8.205,-0.242,-0.934,0.0
10.485,-0.312,-0.9,0.0
9.935,-0.298,-0.91,0.0
9.421,-0.284,-0.917,0.0
8.926,-0.271,-0.921,0.0
8.518,-0.261,-0.928,0.0
8.143,-0.251,-0.935,0.0
10.398,-0.322,-0.902,0.0
9.838,-0.307,-0.91,0.0
9.375,-0.295,-0.921,0.0
8.852,-0.28,-0.921,0.0
8.451,-0.269,-0.928,0.0
8.078,-0.259,-0.934,0.0
10.329,-0.333,-0.905,0.0
9.783,-0.318,-0.913,0.0
9.29,-0.304,-0.92,0.0
8.82,-0.29,-0.926,0.0
8.407,-0.278,-0.931,0.0
8.051,-0.268,-0.938,0.0
10.252,-0.344,-0.906,0.0
9.684,-0.327,-0.912,0.0
9.185,-0.312,-0.917,0.0
8.746,-0.299,-0.925,0.0
8.359,-0.287,-0.932,0.0
7.999,-0.277,-0.938,0.0
10.16,-0.353,-0.906,0.0
9.642,-0.338,-0.915,0.0
9.133,-0.322,-0.919,0.0
8.714,-0.309,-0.928,0.0
8.318,-0.297,-0.934,0.0
7.936,-0.285,-0.937,0.0
10.093,-0.364,-0.907,0.0
9.561,-0.347,-0.914,0.0
9.097,-0.332,-0.922,0.0
8.655,-0.318,-0.928,0.0
8.241,-0.305,-0.931,0.0
7.917,-0.294,-0.94,0.0
10.064,-0.376,-0.912,0.0
9.515,-0.357,-0.916,0.0
9.016,-0.341,-0.92,0.0
8.59,-0.327,-0.927,0.0
8.215,-0.314,-0.934,0.0
7.834,-0.301,-0.935,0.0
9.961,-0.385,-0.909,0.0
9.458,-0.367,-0.917,0.0
8.97,-0.35,-0.921,0.0
8.561,-0.336,-0.929,0.0
8.188,-0.324,-0.935,0.0
7.822,-0.311,-0.939,0.0
9.925,-0.396,-0.911,0.0
9.426,-0.378,-0.919,0.0
8.949,-0.361,-0.924,0.0
8.528,-0.346,-0.93,0.0
8.158,-0.333,-0.937,0.0
7.791,-0.32,-0.939,0.0
9.867,-0.406,-0.911,0.0
9.38,-0.388,-0.92,0.0
8.903,-0.371,-0.924,0.0
8.474,-0.355,-0.929,0.0
8.141,-0.343,-0.939,0.0
7.815,-0.331,-0.946,0.0
9.81,-0.417,-0.911,0.0
9.314,-0.398,-0.918,0.0
8.857,-0.38,-0.924,0.0
8.467,-0.366,-0.932,0.0
8.072,-0.35,-0.935,0.0
7.738,-0.338,-0.941,0.0
9.785,-0.428,-0.913,0.0
9.281,-0.408,-0.919,0.0
8.824,-0.39,-0.924,0.0
8.414,-0.374,-0.93,0.0
8.049,-0.36,-0.936,0.0
7.729,-0.347,-0.943,0.0
9.745,-0.439,-0.914,0.0
9.258,-0.419,-0.92,0.0
8.789,-0.4,-0.924,0.0
8.384,-0.384,-0.93,0.0
8.035,-0.37,-0.937,0.0
7.706,-0.356,-0.943,0.0
9.718,-0.45,-0.915,0.0
9.254,-0.431,-0.924,0.0
8.787,-0.411,-0.927,0.0
8.38,-0.394,-0.933,0.0
8.026,-0.38,-0.939,0.0
7.684,-0.365,-0.943,0.0
9.673,-0.461,-0.914,0.0
9.229,-0.442,-0.924,0.0
8.766,-0.422,-0.927,0.0
8.347,-0.403,-0.931,0.0
7.992,-0.388,-0.937,0.0
7.674,-0.375,-0.944,0.0
9.67,-0.473,-0.916,0.0
9.179,-0.451,-0.921,0.0
8.729,-0.431,-0.926,0.0
8.325,-0.413,-0.931,0.0
7.975,-0.398,-0.937,0.0
7.674,-0.385,-0.946,0.0
9.644,-0.484,-0.916,0.0
9.157,-0.462,-0.921,0.0
8.727,-0.442,-0.928,0.0
8.302,-0.423,-0.93,0.0
7.964,-0.407,-0.938,0.0
7.675,-0.394,-0.947,0.0
9.606,-0.494,-0.914,0.0
9.168,-0.474,-0.924,0.0
8.7,-0.452,-0.926,0.0
8.322,-0.434,-0.934,0.0
7.953,-0.417,-0.938,0.0
7.64,-0.402,-0.944,0.0
9.601,-0.506,-0.915,0.0
9.141,-0.484,-0.923,0.0
8.696,-0.462,-0.927,0.0
8.298,-0.443,-0.932,0.0
7.974,-0.428,-0.941,0.0
7.639,-0.412,-0.945,0.0
9.6,-0.518,-0.916,0.0
9.14,-0.495,-0.923,0.0
8.7,-0.474,-0.928,0.0
8.305,-0.454,-0.934,0.0
7.978,-0.438,-0.942,0.0
7.638,-0.421,-0.945,0.0
9.593,-0.53,-0.916,0.0
9.136,-0.506,-0.923,0.0
8.707,-0.485,-0.929,0.0
8.278,-0.463,-0.931,0.0
7.981,-0.448,-0.943,0.0
7.632,-0.431,-0.945,0.0
9.594,-0.541,-0.916,0.0
9.138,-0.518,-0.924,0.0
8.708,-0.496,-0.929,0.0
8.29,-0.474,-0.932,0.0
7.974,-0.458,-0.942,0.0
7.618,-0.439,-0.943,0.0
9.612,-0.554,-0.917,0.0
9.139,-0.529,-0.923,0.0
8.708,-0.506,-0.929,0.0
8.295,-0.484,-0.932,0.0
7.978,-0.468,-0.942,0.0
7.638,-0.45,-0.945,0.0
9.617,-0.566,-0.917,0.0
9.162,-0.541,-0.925,0.0
8.71,-0.517,-0.928,0.0
8.323,-0.496,-0.935,0.0
7.972,-0.477,-0.94,0.0
7.656,-0.46,-0.946,0.0
9.638,-0.579,-0.918,0.0
9.175,-0.553,-0.925,0.0
8.727,-0.528,-0.929,0.0
8.323,-0.506,-0.933,0.0
7.965,-0.486,-0.938,0.0
7.67,-0.47,-0.947,0.0
9.652,-0.591,-0.918,0.0
9.179,-0.564,-0.924,0.0
8.744,-0.539,-0.929,0.0
8.326,-0.516,-0.932,0.0
7.958,-0.495,-0.936,0.0
7.701,-0.481,-0.949,0.0
9.671,-0.603,-0.918,0.0
9.202,-0.576,-0.924,0.0
8.762,-0.551,-0.929,0.0
8.349,-0.527,-0.933,0.0
7.997,-0.506,-0.939,0.0
7.676,-0.488,-0.944,0.0
9.708,-0.617,-0.919,0.0
9.218,-0.588,-0.924,0.0
8.776,-0.562,-0.928,0.0
8.37,-0.538,-0.933,0.0
8.009,-0.516,-0.938,0.0
7.682,-0.497,-0.942,0.0
9.727,-0.629,-0.918,0.0
9.23,-0.599,-0.922,0.0
8.819,-0.574,-0.93,0.0
8.426,-0.551,-0.936,0.0
8.035,-0.527,-0.938,0.0
7.721,-0.508,-0.945,0.0
9.75,-0.641,-0.916,0.0
9.273,-0.612,-0.923,0.0
8.839,-0.586,-0.929,0.0
8.427,-0.56,-0.934,0.0
8.078,-0.539,-0.94,0.0
7.721,-0.517,-0.942,0.0
9.764,-0.653,-0.914,0.0
9.302,-0.624,-0.922,0.0
8.866,-0.597,-0.928,0.0
8.436,-0.57,-0.931,0.0
8.096,-0.549,-0.939,0.0
7.755,-0.528,-0.943,0.0
9.799,-0.666,-0.913,0.0
9.366,-0.639,-0.925,0.0
8.911,-0.609,-0.929,0.0
8.462,-0.581,-0.93,0.0
8.141,-0.56,-0.94,0.0
7.763,-0.536,-0.94,0.0
9.862,-0.68,-0.915,0.0
9.395,-0.65,-0.923,0.0
8.943,-0.621,-0.928,0.0
8.536,-0.595,-0.934,0.0
8.195,-0.573,-0.943,0.0
7.805,-0.547,-0.941,0.0
9.903,-0.693,-0.913,0.0
9.45,-0.664,-0.924,0.0
8.995,-0.634,-0.929,0.0
8.567,-0.606,-0.933,0.0
8.205,-0.582,-0.939,0.0
7.821,-0.556,-0.939,0.0
9.945,-0.706,-0.912,0.0
9.482,-0.675,-0.922,0.0
9.026,-0.645,-0.927,0.0
8.607,-0.617,-0.933,0.0
8.187,-0.589,-0.933,0.0
7.911,-0.57,-0.945,0.0
10.003,-0.72,-0.911,0.0
9.547,-0.69,-0.922,0.0
9.065,-0.657,-0.926,0.0
8.675,-0.63,-0.935,0.0
8.286,-0.604,-0.939,0.0
7.883,-0.576,-0.937,0.0
10.056,-0.734,-0.91,0.0
9.576,-0.701,-0.919,0.0
9.097,-0.667,-0.923,0.0
8.697,-0.64,-0.932,0.0
8.307,-0.613,-0.936,0.0
7.939,-0.587,-0.938,0.0
10.167,-0.751,-0.913,0.0
9.633,-0.714,-0.918,0.0
9.182,-0.682,-0.926,0.0
8.77,-0.653,-0.933,0.0
8.367,-0.625,-0.937,0.0
7.986,-0.598,-0.938,0.0
10.243,-0.766,-0.913,0.0
9.74,-0.73,-0.922,0.0
9.238,-0.694,-0.925,0.0
8.826,-0.665,-0.933,0.0
8.383,-0.633,-0.932,0.0
8.039,-0.609,-0.938,0.0
10.342,-0.782,-0.915,0.0
9.795,-0.743,-0.92,0.0
9.303,-0.707,-0.924,0.0
8.866,-0.676,-0.931,0.0
8.477,-0.648,-0.936,0.0
8.073,-0.619,-0.936,0.0
10.399,-0.795,-0.912,0.0
9.922,-0.761,-0.924,0.0
9.385,-0.721,-0.925,0.0
8.917,-0.687,-0.929,0.0
8.535,-0.659,-0.936,0.0
8.166,-0.632,-0.94,0.0
10.46,-0.808,-0.908,0.0
9.897,-0.767,-0.914,0.0
9.438,-0.733,-0.923,0.0
8.97,-0.698,-0.927,0.0
8.592,-0.67,-0.935,0.0
8.2,-0.642,-0.937,0.0
10.597,-0.827,-0.912,0.0
9.969,-0.78,-0.912,0.0
9.519,-0.747,-0.922,0.0
9.05,-0.711,-0.927,0.0
8.637,-0.68,-0.933,0.0
8.28,-0.654,-0.939,0.0
10.637,-0.838,-0.906,0.0
10.075,-0.796,-0.913,0.0
9.583,-0.759,-0.92,0.0
9.148,-0.726,-0.929,0.0
8.753,-0.696,-0.937,0.0
8.338,-0.665,-0.938,0.0
10.749,-0.855,-0.906,0.0
10.148,-0.809,-0.91,0.0
9.677,-0.773,-0.92,0.0
9.223,-0.738,-0.928,0.0
8.803,-0.706,-0.934,0.0
8.412,-0.676,-0.939,0.0
10.884,-0.873,-0.907,0.0
10.252,-0.824,-0.91,0.0
9.775,-0.787,-0.92,0.0
9.326,-0.753,-0.93,0.0
8.877,-0.718,-0.933,0.0
8.446,-0.684,-0.934,0.0
10.974,-0.887,-0.904,0.0
10.35,-0.838,-0.908,0.0
9.904,-0.804,-0.923,0.0
9.401,-0.765,-0.928,0.0
8.958,-0.73,-0.933,0.0
8.567,-0.7,-0.939,0.0
11.055,-0.901,-0.899,0.0
10.505,-0.857,-0.911,0.0
9.984,-0.816,-0.92,0.0
9.454,-0.774,-0.924,0.0
8.984,-0.737,-0.926,0.0
8.638,-0.71,-0.938,0.0
11.176,-0.917,-0.898,0.0
10.608,-0.872,-0.909,0.0
10.045,-0.827,-0.915,0.0
9.541,-0.787,-0.922,0.0
9.113,-0.753,-0.93,0.0
8.729,-0.723,-0.938,0.0
11.298,-0.933,-0.895,0.0
10.693,-0.885,-0.905,0.0
10.161,-0.842,-0.915,0.0
9.638,-0.8,-0.921,0.0
9.21,-0.766,-0.93,0.0
8.801,-0.733,-0.936,0.0
11.472,-0.953,-0.897,0.0
10.838,-0.902,-0.905,0.0
10.241,-0.854,-0.911,0.0
9.793,-0.818,-0.925,0.0
9.296,-0.777,-0.928,0.0
8.859,-0.742,-0.933,0.0
11.619,-0.971,-0.895,0.0
10.977,-0.919,-0.905,0.0
10.368,-0.869,-0.91,0.0
9.871,-0.829,-0.921,0.0
9.403,-0.791,-0.928,0.0
8.973,-0.756,-0.934,0.0
11.723,-0.985,-0.89,0.0
11.133,-0.937,-0.905,0.0
10.557,-0.889,-0.915,0.0
9.939,-0.839,-0.916,0.0
9.537,-0.806,-0.93,0.0
9.04,-0.765,-0.93,0.0
11.943,-1.008,-0.892,0.0
11.21,-0.948,-0.898,0.0
10.619,-0.899,-0.908,0.0
10.078,-0.854,-0.916,0.0
9.597,-0.814,-0.925,0.0
9.155,-0.778,-0.931,0.0
12.095,-1.025,-0.89,0.0
11.334,-0.962,-0.894,0.0
10.725,-0.911,-0.904,0.0
10.166,-0.865,-0.912,0.0
9.722,-0.828,-0.925,0.0
9.239,-0.788,-0.929,0.0
12.294,-1.046,-0.889,0.0
11.543,-0.983,-0.897,0.0
10.934,-0.932,-0.908,0.0
10.345,-0.883,-0.915,0.0
9.869,-0.843,-0.926,0.0
9.373,-0.802,-0.93,0.0
12.394,-1.058,-0.881,0.0
11.67,-0.997,-0.892,0.0
11.064,-0.946,-0.905,0.0
10.468,-0.896,-0.913,0.0
9.936,-0.852,-0.92,0.0
9.504,-0.815,-0.931,0.0
12.509,-1.071,-0.873,0.0
11.84,-1.014,-0.89,0.0
11.205,-0.961,-0.902,0.0
10.544,-0.905,-0.906,0.0
10.061,-0.864,-0.919,0.0
9.57,-0.823,-0.925,0.0
12.741,-1.093,-0.873,0.0
12.081,-1.037,-0.892,0.0
11.414,-0.981,-0.904,0.0
10.715,-0.922,-0.907,0.0
10.16,-0.875,-0.914,0.0
9.703,-0.836,-0.925,0.0
12.912,-1.11,-0.868,0.0
12.296,-1.058,-0.892,0.0
11.492,-0.989,-0.895,0.0
10.857,-0.935,-0.904,0.0
10.341,-0.891,-0.917,0.0
9.835,-0.849,-0.925,0.0
13.193,-1.136,-0.87,0.0
12.419,-1.07,-0.885,0.0
11.7,-1.008,-0.896,0.0
11.032,-0.951,-0.904,0.0
10.429,-0.9,-0.911,0.0
9.97,-0.861,-0.924,0.0
13.515,-1.164,-0.873,0.0
12.5,-1.077,-0.873,0.0
11.857,-1.022,-0.892,0.0
11.249,-0.971,-0.907,0.0
10.579,-0.913,-0.909,0.0
10.08,-0.871,-0.92,0.0
13.827,-1.192,-0.874,0.0
12.764,-1.101,-0.875,0.0
12.077,-1.042,-0.892,0.0
11.376,-0.982,-0.902,0.0
10.752,-0.928,-0.909,0.0
10.187,-0.88,-0.916,0.0
14.047,-1.211,-0.869,0.0
12.924,-1.114,-0.868,0.0
12.296,-1.06,-0.891,0.0
11.528,-0.994,-0.898,0.0
10.933,-0.943,-0.909,0.0
10.313,-0.89,-0.913,0.0
14.345,-1.235,-0.867,0.0
13.146,-1.132,-0.864,0.0
12.388,-1.067,-0.88,0.0
11.709,-1.009,-0.895,0.0
11.077,-0.955,-0.906,0.0
10.433,-0.9,-0.909,0.0
14.588,-1.255,-0.862,0.0
13.53,-1.164,-0.871,0.0
12.559,-1.08,-0.875,0.0
11.946,-1.028,-0.896,0.0
11.276,-0.97,-0.906,0.0
10.672,-0.919,-0.914,0.0
14.937,-1.283,-0.861,0.0
13.924,-1.196,-0.876,0.0
12.82,-1.101,-0.874,0.0
12.148,-1.043,-0.894,0.0
11.48,-0.986,-0.906,0.0
10.807,-0.928,-0.91,0.0
15.207,-1.303,-0.855,0.0
14.108,-1.209,-0.867,0.0
12.947,-1.109,-0.865,0.0
12.335,-1.057,-0.89,0.0
11.643,-0.997,-0.902,0.0
11.007,-0.943,-0.911,0.0
15.566,-1.331,-0.852,0.0
14.46,-1.236,-0.868,0.0
13.422,-1.147,-0.877,0.0
12.465,-1.065,-0.881,0.0
11.812,-1.009,-0.898,0.0
11.135,-0.951,-0.905,0.0
15.933,-1.358,-0.849,0.0
14.681,-1.25,-0.86,0.0
13.696,-1.166,-0.875,0.0
12.742,-1.085,-0.882,0.0
12.027,-1.023,-0.896,0.0
11.335,-0.964,-0.905,0.0
16.28,-1.382,-0.844,0.0
14.984,-1.271,-0.856,0.0
13.986,-1.186,-0.873,0.0
12.827,-1.087,-0.869,0.0
12.275,-1.04,-0.897,0.0
11.518,-0.976,-0.902,0.0
16.459,-1.391,-0.829,0.0
15.385,-1.3,-0.856,0.0
14.313,-1.209,-0.872,0.0
13.102,-1.106,-0.868,0.0
12.394,-1.045,-0.887,0.0
11.668,-0.984,-0.897,0.0
17.154,-1.443,-0.839,0.0
15.787,-1.327,-0.855,0.0
14.525,-1.22,-0.863,0.0
13.475,-1.131,-0.873,0.0
12.606,-1.058,-0.884,0.0
11.888,-0.997,-0.896,0.0
17.353,-1.452,-0.823,0.0
16.035,-1.341,-0.844,0.0
14.85,-1.241,-0.86,0.0
13.826,-1.154,-0.875,0.0
12.827,-1.07,-0.88,0.0
12.155,-1.013,-0.898,0.0
17.697,-1.472,-0.812,0.0
16.51,-1.372,-0.845,0.0
15.17,-1.26,-0.856,0.0
14.135,-1.173,-0.874,0.0
13.024,-1.08,-0.874,0.0
12.329,-1.021,-0.892,0.0
18.269,-1.51,-0.812,0.0
16.914,-1.397,-0.84,0.0
15.619,-1.288,-0.858,0.0
14.428,-1.189,-0.87,0.0
13.303,-1.095,-0.872,0.0
12.502,-1.028,-0.886,0.0
18.943,-1.555,-0.813,0.0
17.201,-1.41,-0.829,0.0
15.868,-1.3,-0.848,0.0
14.664,-1.2,-0.862,0.0
13.678,-1.118,-0.877,0.0
12.719,-1.038,-0.882,0.0
19.297,-1.572,-0.8,0.0
17.837,-1.451,-0.833,0.0
16.285,-1.323,-0.846,0.0
15.02,-1.219,-0.861,0.0
13.983,-1.133,-0.875,0.0
13.007,-1.053,-0.883,0.0
19.805,-1.6,-0.792,0.0
18.002,-1.453,-0.814,0.0
16.679,-1.344,-0.842,0.0
15.386,-1.238,-0.859,0.0
14.168,-1.138,-0.866,0.0
13.259,-1.064,-0.88,0.0
20.194,-1.617,-0.777,0.0
18.593,-1.487,-0.813,0.0
17.117,-1.367,-0.839,0.0
15.715,-1.253,-0.854,0.0
14.542,-1.158,-0.867,0.0
13.566,-1.078,-0.88,0.0
20.837,-1.653,-0.771,0.0
19.075,-1.511,-0.806,0.0
17.366,-1.373,-0.825,0.0
16.072,-1.269,-0.85,0.0
14.822,-1.168,-0.862,0.0
13.868,-1.091,-0.879,0.0
21.502,-1.689,-0.764,0.0
19.513,-1.53,-0.796,0.0
17.83,-1.395,-0.821,0.0
16.387,-1.28,-0.842,0.0
15.205,-1.186,-0.861,0.0
14.091,-1.097,-0.872,0.0
22.004,-1.71,-0.749,0.0
19.975,-1.549,-0.785,0.0
18.508,-1.433,-0.825,0.0
16.844,-1.301,-0.841,0.0
15.502,-1.196,-0.855,0.0
14.425,-1.111,-0.872,0.0
22.617,-1.738,-0.737,0.0
20.479,-1.57,-0.775,0.0
19.072,-1.459,-0.821,0.0
17.186,-1.312,-0.832,0.0
15.791,-1.204,-0.848,0.0
14.685,-1.117,-0.866,0.0
23.599,-1.792,-0.734,0.0
21.036,-1.593,-0.765,0.0
19.278,-1.457,-0.802,0.0
17.478,-1.318,-0.821,0.0
16.241,-1.222,-0.848,0.0
15.06,-1.131,-0.866,0.0
24.183,-1.813,-0.717,0.0
21.736,-1.625,-0.759,0.0
19.84,-1.48,-0.797,0.0
18.058,-1.344,-0.822,0.0
16.629,-1.235,-0.845,0.0
15.226,-1.128,-0.854,0.0
24.897,-1.841,-0.702,0.0
22.304,-1.645,-0.747,0.0
20.301,-1.494,-0.786,0.0
18.557,-1.362,-0.818,0.0
17.139,-1.255,-0.846,0.0
15.692,-1.146,-0.857,0.0
25.997,-1.896,-0.696,0.0
23.516,-1.71,-0.753,0.0
20.753,-1.505,-0.774,0.0
18.957,-1.371,-0.808,0.0
17.313,-1.249,-0.829,0.0
16.083,-1.158,-0.855,0.0
27.084,-1.945,-0.686,0.0
23.97,-1.717,-0.733,0.0
21.212,-1.515,-0.76,0.0
19.413,-1.383,-0.8,0.0
17.852,-1.268,-0.83,0.0
16.329,-1.157,-0.845,0.0
27.584,-1.95,-0.66,0.0
24.336,-1.715,-0.71,0.0
21.941,-1.542,-0.756,0.0
20.055,-1.406,-0.798,0.0
18.314,-1.28,-0.825,0.0
16.743,-1.167,-0.843,0.0
28.706,-1.996,-0.647,0.0
25.175,-1.745,-0.699,0.0
22.505,-1.555,-0.744,0.0
20.488,-1.412,-0.787,0.0
18.64,-1.28,-0.814,0.0
17.035,-1.166,-0.834,0.0
29.85,-2.04,-0.631,0.0
26.29,-1.791,-0.694,0.0
23.609,-1.603,-0.747,0.0
20.889,-1.413,-0.773,0.0
19.056,-1.285,-0.806,0.0
17.348,-1.166,-0.825,0.0
29.988,-2.012,-0.592,0.0
26.967,-1.803,-0.674,0.0
24.114,-1.606,-0.73,0.0
21.349,-1.418,-0.761,0.0
19.702,-1.304,-0.806,0.0
17.903,-1.181,-0.827,0.0
32.423,-2.134,-0.597,0.0
28.02,-1.837,-0.663,0.0
25.239,-1.649,-0.73,0.0
21.883,-1.425,-0.75,0.0
20.088,-1.303,-0.795,0.0
18.403,-1.189,-0.825,0.0
33.287,-2.147,-0.568,0.0
28.989,-1.863,-0.647,0.0
0.0,0.0,0.0,0.0
22.738,-1.45,-0.749,0.0
20.842,-1.324,-0.797,1.0
18.697,-1.183,-0.814,0.0
34.071,-2.152,-0.536,0.0
29.901,-1.881,-0.628,0.0
25.051,-1.569,-0.658,0.0
23.205,-1.448,-0.734,0.0
20.909,-1.3,-0.772,0.0
19.274,-1.193,-0.813,0.0
0.0,0.0,0.0,0.0
30.206,-1.858,-0.595,0.0
26.786,-1.64,-0.669,0.0
23.884,-1.456,-0.725,0.0
21.403,-1.3,-0.762,0.0
19.639,-1.188,-0.803,0.0
37.239,-2.246,-0.489,0.0
31.805,-1.91,-0.585,0.0
0.0,0.0,0.0,0.0
24.336,-1.449,-0.707,0.0
21.951,-1.301,-0.754,0.0
20.076,-1.185,-0.795,1.0
0.0,0.0,0.0,0.0
0.0,0.0,0.0,0.0
29.217,-1.704,-0.655,0.0
0.0,0.0,0.0,0.0
22.699,-1.312,-0.751,0.0
20.512,-1.18,-0.787,0.0
0.0,0.0,0.0,0.0
33.858,-1.933,-0.538,0.0
29.974,-1.703,-0.635,0.0
26.555,-1.502,-0.705,0.0
23.28,-1.31,-0.741,0.0
20.489,-1.147,-0.761,1.0
0.0,0.0,0.0,0.0
36.488,-2.027,-0.536,0.0
30.292,-1.675,-0.605,0.0
0.0,0.0,0.0,0.0
23.805,-1.303,-0.73,0.0
21.247,-1.157,-0.764,0.0
0.0,0.0,0.0,0.0
37.177,-2.008,-0.501,0.0
31.229,-1.677,-0.586,0.0
27.728,-1.481,-0.67,0.0
24.337,-1.293,-0.717,0.0
21.904,-1.158,-0.761,0.0
0.0,0.0,0.0,0.0
0.0,0.0,0.0,0.0
32.842,-1.711,-0.578,0.0
28.423,-1.472,-0.653,0.0
25.177,-1.297,-0.712,0.0
22.361,-1.145,-0.751,0.0
0.0,0.0,0.0,0.0
0.0,0.0,0.0,0.0
0.0,0.0,0.0,0.0
29.292,-1.469,-0.64,0.0
26.856,-1.339,-0.729,0.0
22.856,-1.133,-0.742,0.0
0.0,0.0,0.0,0.0
0.0,0.0,0.0,0.0
0.0,0.0,0.0,0.0
30.24,-1.466,-0.626,0.0
26.767,-1.29,-0.697,0.0
23.594,-1.13,-0.739,0.0
0.0,0.0,0.0,0.0
0.0,0.0,0.0,0.0
0.0,0.0,0.0,0.0
30.84,-1.443,-0.605,0.0
27.141,-1.261,-0.677,0.0
24.117,-1.113,-0.73,0.0
0.0,0.0,0.0,0.0
0.0,0.0,0.0,0.0
37.593,-1.704,-0.493,0.0
31.408,-1.414,-0.582,0.0
28.009,-1.253,-0.668,0.0
24.623,-1.093,-0.718,0.0
0.0,0.0,0.0,0.0
0.0,0.0,0.0,0.0
40.197,-1.752,-0.486,0.0
32.901,-1.423,-0.576,0.0
0.0,0.0,0.0,0.0
24.872,-1.06,-0.7,0.0
0.0,0.0,0.0,0.0
0.0,0.0,0.0,0.0
0.0,0.0,0.0,0.0
0.0,0.0,0.0,0.0
29.329,-1.207,-0.64,0.0
25.308,-1.033,-0.687,0.0
0.0,0.0,0.0,0.0
0.0,0.0,0.0,0.0
41.654,-1.665,-0.42,0.0
0.0,0.0,0.0,0.0
30.144,-1.186,-0.628,0.0
26.581,-1.037,-0.696,0.0
0.0,0.0,0.0,0.0
0.0,0.0,0.0,0.0
0.0,0.0,0.0,0.0
0.0,0.0,0.0,0.0
30.563,-1.147,-0.608,0.0
27.137,-1.009,-0.685,0.0
0.0,0.0,0.0,0.0
0.0,0.0,0.0,0.0
0.0,0.0,0.0,0.0
37.294,-1.342,-0.509,0.0
30.857,-1.1,-0.586,0.0
0.0,0.0,0.0,0.0
0.0,0.0,0.0,0.0
0.0,0.0,0.0,0.0
0.0,0.0,0.0,0.0
0.0,0.0,0.0,0.0
32.348,-1.093,-0.586,0.0
28.213,-0.944,-0.662,0.0
0.0,0.0,0.0,0.0
0.0,0.0,0.0,0.0
0.0,0.0,0.0,0.0
0.0,0.0,0.0,0.0
32.385,-1.033,-0.559,0.0
28.715,-0.906,-0.649,0.0
160.776,-5.04,0.816,3.0
0.0,0.0,0.0,0.0
0.0,0.0,0.0,0.0
0.0,0.0,0.0,0.0
32.997,-0.989,-0.542,0.0
29.447,-0.872,-0.642,0.0
160.723,-4.725,0.947,12.0
0.0,0.0,0.0,0.0
0.0,0.0,0.0,0.0
0.0,0.0,0.0,0.0
0.0,0.0,0.0,0.0
29.165,-0.807,-0.613,0.0
160.694,-4.405,1.074,13.0
0.0,0.0,0.0,0.0
0.0,0.0,0.0,0.0
0.0,0.0,0.0,0.0
0.0,0.0,0.0,0.0
30.661,-0.788,-0.621,0.0
160.778,-4.09,1.195,4.0
0.0,0.0,0.0,0.0
0.0,0.0,0.0,0.0
0.0,0.0,0.0,0.0
0.0,0.0,0.0,0.0
30.933,-0.733,-0.604,0.0
125.233,-2.937,1.02,25.0
0.0,0.0,0.0,0.0
0.0,0.0,0.0,0.0
0.0,0.0,0.0,0.0
0.0,0.0,0.0,0.0
31.342,-0.679,-0.59,0.0
125.185,-2.681,1.106,150.0
0.0,0.0,0.0,0.0
0.0,0.0,0.0,0.0
0.0,0.0,0.0,0.0
37.662,-0.753,-0.482,0.0
31.407,-0.617,-0.571,0.0
125.19,-2.426,1.187,153.0
0.0,0.0,0.0,0.0
0.0,0.0,0.0,0.0
0.0,0.0,0.0,0.0
0.0,0.0,0.0,0.0
32.745,-0.576,-0.575,0.0
125.211,-2.169,1.264,153.0
19.738,-0.335,0.092,0.0
0.0,0.0,0.0,0.0
0.0,0.0,0.0,0.0
0.0,0.0,0.0,0.0
32.354,-0.503,-0.549,0.0
19.755,-0.301,0.211,9.0
19.747,-0.294,0.104,27.0
0.0,0.0,0.0,0.0
0.0,0.0,0.0,0.0
39.912,-0.552,-0.44,0.0
33.166,-0.447,-0.545,0.0
19.76,-0.26,0.221,24.0
19.75,-0.253,0.114,11.0
0.0,0.0,0.0,0.0
0.0,0.0,0.0,0.0
0.0,0.0,0.0,0.0
34.589,-0.394,-0.551,0.0
19.762,-0.218,0.231,2.0
160.782,-1.724,1.015,4.0
0.0,0.0,0.0,0.0
0.0,0.0,0.0,0.0
19.77,-0.19,-0.198,8.0
19.755,-0.183,-0.305,10.0
169.518,-1.523,2.068,19.0
160.761,-1.389,1.089,16.0
0.0,0.0,0.0,0.0
19.736,-0.156,-0.082,10.0
19.73,-0.149,-0.189,16.0
19.749,-0.142,-0.296,17.0
19.753,-0.136,0.249,0.0
19.753,-0.128,0.142,6.0
19.727,-0.121,0.035,10.0
19.728,-0.114,-0.074,8.0
19.726,-0.107,-0.181,16.0
19.751,-0.1,-0.288,15.0
19.677,-0.093,0.256,10.0
19.694,-0.086,0.149,15.0
19.7,-0.079,0.042,15.0
19.707,-0.072,-0.066,15.0
19.735,-0.066,-0.174,15.0
19.757,-0.059,-0.281,14.0
19.64,-0.052,0.263,10.0
19.686,-0.045,0.156,10.0
19.701,-0.038,0.049,15.0
19.72,-0.031,-0.059,12.0
19.76,-0.024,-0.167,5.0
36.119,-0.031,-0.503,0.0
19.631,-0.01,0.269,14.0
19.729,-0.003,0.163,4.0
19.796,0.003,0.055,3.0
19.751,0.01,-0.054,150.0
19.753,0.017,-0.161,6.0
19.761,0.024,-0.269,11.0
19.628,0.031,0.274,13.0
19.726,0.038,0.168,12.0
19.754,0.045,0.061,57.0
19.751,0.052,-0.048,56.0
19.771,0.059,-0.156,66.0
19.769,0.067,-0.264,32.0
19.619,0.073,0.279,16.0
19.666,0.08,0.172,12.0
19.671,0.087,0.065,12.0
19.685,0.094,-0.044,6.0
19.681,0.101,-0.151,0.0
32.794,0.18,-0.432,0.0
19.628,0.115,0.283,13.0
19.661,0.122,0.176,15.0
19.643,0.129,0.069,13.0
19.629,0.136,-0.04,16.0
19.656,0.143,-0.147,12.0
19.677,0.15,-0.255,6.0
19.641,0.157,0.287,11.0
19.66,0.164,0.18,12.0
19.654,0.171,0.072,12.0
19.637,0.177,-0.037,13.0
19.63,0.184,-0.144,17.0
19.653,0.192,-0.252,16.0
19.75,0.2,0.291,10.0
19.766,0.207,0.183,19.0
19.716,0.214,0.075,5.0
19.664,0.22,-0.034,8.0
19.634,0.226,-0.142,16.0
19.66,0.234,-0.25,18.0
19.715,0.242,0.293,12.0
19.759,0.25,0.185,27.0
84.851,1.103,0.33,10.0
19.673,0.263,-0.033,0.0
19.68,0.269,-0.141,10.0
19.665,0.276,-0.249,14.0
19.742,0.285,0.294,8.0
163.355,2.419,1.541,9.0
0.0,0.0,0.0,0.0
55.105,0.855,-0.091,4.0
41.265,0.654,-0.295,0.0
34.775,0.563,-0.44,0.0
55.189,0.916,0.825,54.0
55.164,0.935,0.521,67.0
55.152,0.954,0.217,77.0
55.113,0.972,-0.091,9.0
40.897,0.735,-0.292,1.0
32.326,0.592,-0.409,0.0
55.211,1.035,0.825,13.0
162.863,3.112,1.536,16.0
0.0,0.0,0.0,0.0
55.038,1.089,-0.092,7.0
41.064,0.826,-0.295,1.0
33.117,0.677,-0.42,4.0
163.39,3.413,2.432,16.0
122.259,2.596,1.146,7.0
79.537,1.714,0.306,5.0
53.06,1.162,-0.093,0.0
40.638,0.904,-0.295,2.0
33.899,0.765,-0.433,1.0
128.701,2.964,1.905,23.0
70.937,1.657,0.658,14.0
71.059,1.684,0.266,7.0
0.0,0.0,0.0,0.0
39.96,0.973,-0.295,2.0
32.493,0.802,-0.419,1.0
45.529,1.145,0.668,7.0
45.52,1.159,0.416,147.0
0.0,0.0,0.0,0.0
40.144,1.049,-0.08,160.0
39.972,1.058,-0.301,12.0
40.148,1.076,-0.524,0.0
41.929,1.142,0.608,155.0
0.0,0.0,0.0,0.0
41.931,1.17,0.144,157.0
40.022,1.13,-0.087,73.0
39.888,1.14,-0.308,14.0
27.45,0.793,-0.364,2.0
40.126,1.178,0.574,150.0
40.135,1.191,0.352,114.0
40.112,1.203,0.129,124.0
40.117,1.217,-0.096,150.0
39.92,1.224,-0.317,6.0
40.179,1.245,-0.542,1.0
40.125,1.262,0.564,150.0
40.135,1.275,0.342,132.0
40.113,1.288,0.119,150.0
40.12,1.301,-0.107,95.0
39.906,1.307,-0.328,4.0
40.221,1.331,-0.554,1.0
70.992,2.382,0.979,4.0
71.116,2.409,0.586,24.0
40.104,1.371,0.107,62.0
40.111,1.384,-0.119,150.0
39.923,1.391,-0.34,1.0
30.446,1.07,-0.428,1.0
45.129,1.608,0.608,24.0
45.01,1.618,0.356,154.0
42.919,1.557,0.101,3.0
42.562,1.558,-0.14,2.0
36.642,1.352,-0.324,2.0
30.105,1.121,-0.434,1.0
41.794,1.576,0.548,88.0
41.782,1.588,0.316,133.0
40.338,1.546,0.08,136.0
40.338,1.558,-0.147,151.0
36.432,1.419,-0.336,1.0
29.953,1.176,-0.443,2.0
40.394,1.605,0.515,150.0
40.384,1.617,0.289,157.0
40.339,1.627,0.064,150.0
40.304,1.639,-0.163,78.0
35.574,1.457,-0.342,1.0
29.659,1.224,-0.451,2.0
23.64,0.986,0.291,3.0
23.635,0.994,0.159,27.0
23.638,1.001,0.027,40.0
23.628,1.008,-0.106,43.0
23.629,1.015,-0.238,44.0
23.627,1.022,-0.369,46.0
23.598,1.032,0.28,58.0
23.598,1.039,0.148,62.0
23.597,1.047,0.016,70.0
23.6,1.054,-0.117,68.0
23.609,1.062,-0.249,71.0
23.618,1.069,-0.381,67.0
23.591,1.079,0.268,67.0
23.595,1.086,0.136,60.0
23.603,1.094,0.005,57.0
23.598,1.101,-0.129,49.0
23.62,1.109,-0.261,41.0
23.636,1.117,-0.393,36.0
23.643,1.128,0.256,39.0
23.619,1.134,0.124,23.0
45.183,2.184,-0.014,8.0
40.302,1.96,-0.242,21.0
33.654,1.646,-0.39,5.0
27.839,1.37,-0.479,1.0
45.278,2.251,0.466,1.0
45.192,2.259,0.212,14.0
45.193,2.272,-0.04,9.0
40.056,2.026,-0.264,20.0
31.752,1.615,-0.387,3.0
27.233,1.393,-0.484,1.0
99.78,5.154,0.969,23.0
45.174,2.346,0.185,17.0
40.322,2.105,-0.06,31.0
39.795,2.089,-0.286,15.0
31.71,1.674,-0.406,9.0
26.822,1.424,-0.493,1.0
45.241,2.424,0.411,3.0
45.177,2.433,0.157,39.0
40.315,2.182,-0.085,42.0
37.737,2.053,-0.295,4.0
31.011,1.696,-0.417,8.0
26.295,1.446,-0.501,1.0
45.223,2.508,0.381,3.0
45.184,2.519,0.127,45.0
40.319,2.258,-0.112,43.0
36.139,2.035,-0.307,4.0
29.934,1.694,-0.423,8.0
25.704,1.462,-0.507,1.0
57.001,3.268,0.441,6.0
45.181,2.603,0.096,46.0
40.319,2.334,-0.14,45.0
35.275,2.051,-0.325,9.0
29.335,1.714,-0.435,8.0
25.227,1.481,-0.516,1.0
45.229,2.676,0.317,150.0
45.178,2.686,0.063,46.0
40.324,2.408,-0.17,49.0
0.0,0.0,0.0,0.0
28.485,1.716,-0.443,7.0
24.47,1.481,-0.519,1.0
54.656,3.335,0.342,3.0
45.181,2.769,0.029,44.0
40.325,2.481,-0.201,43.0
33.177,2.05,-0.355,10.0
27.879,1.73,-0.456,7.0
24.292,1.515,-0.534,1.0
45.145,2.835,0.247,4.0
45.184,2.85,-0.006,35.0
40.265,2.55,-0.232,35.0
32.043,2.037,-0.369,9.0
27.222,1.738,-0.467,7.0
20.032,1.284,-0.456,0.0
45.199,2.919,0.211,48.0
40.327,2.615,-0.039,29.0
39.918,2.599,-0.263,15.0
31.174,2.037,-0.384,9.0
26.431,1.734,-0.475,6.0
19.853,1.307,-0.469,3.0
44.675,2.963,0.171,19.0
40.327,2.685,-0.073,41.0
0.0,0.0,0.0,0.0
30.227,2.027,-0.399,8.0
25.748,1.733,-0.485,6.0
19.746,1.334,-0.483,8.0
42.244,2.874,0.125,7.0
40.326,2.753,-0.108,46.0
36.124,2.475,-0.301,6.0
29.421,2.023,-0.414,8.0
25.122,1.734,-0.495,6.0
19.733,1.367,-0.501,10.0
41.601,2.9,0.086,5.0
40.326,2.821,-0.144,45.0
34.95,2.453,-0.322,5.0
28.441,2.003,-0.426,7.0
24.512,1.732,-0.506,5.0
19.907,1.412,-0.523,10.0
40.438,2.886,0.046,4.0
40.315,2.886,-0.181,59.0
32.959,2.367,-0.335,7.0
27.756,2.0,-0.442,7.0
24.085,1.741,-0.52,5.0
19.712,1.43,-0.537,8.0
40.33,2.943,0.008,45.0
40.289,2.949,-0.22,29.0
32.181,2.363,-0.357,9.0
26.799,1.974,-0.452,7.0
23.729,1.753,-0.535,2.0
19.707,1.461,-0.556,10.0
0.0,0.0,0.0,0.0
38.904,2.909,-0.25,6.0
31.172,2.338,-0.377,9.0
25.817,1.942,-0.461,6.0
19.756,1.491,-0.465,4.0
19.699,1.491,-0.575,9.0
41.92,3.191,-0.074,120.0
37.069,2.83,-0.275,6.0
30.169,2.309,-0.395,8.0
25.199,1.935,-0.475,6.0
19.713,1.517,-0.484,9.0
19.571,1.511,-0.591,7.0
40.916,3.176,-0.114,81.0
35.655,2.775,-0.301,9.0
28.963,2.26,-0.409,8.0
24.541,1.921,-0.488,5.0
19.716,1.547,-0.504,9.0
19.166,1.508,-0.599,3.0
40.037,3.167,-0.153,32.0
0.0,0.0,0.0,0.0
27.948,2.223,-0.424,7.0
23.952,1.91,-0.502,5.0
19.71,1.576,-0.525,9.0
18.765,1.504,-0.607,3.0
40.041,3.226,-0.196,20.0
32.216,2.602,-0.341,9.0
27.121,2.196,-0.441,7.0
23.707,1.924,-0.522,2.0
19.708,1.604,-0.546,9.0
18.511,1.51,-0.618,2.0
39.533,3.241,-0.236,15.0
31.572,2.594,-0.368,9.0
26.057,2.146,-0.452,6.0
19.757,1.631,-0.457,3.0
19.538,1.617,-0.563,10.0
18.134,1.505,-0.626,1.0
36.989,3.083,-0.262,5.0
29.976,2.504,-0.383,8.0
25.265,2.115,-0.466,6.0
19.702,1.654,-0.478,8.0
18.907,1.59,-0.566,11.0
17.894,1.509,-0.638,2.0
35.075,2.97,-0.288,6.0
29.077,2.467,-0.404,8.0
24.586,2.091,-0.481,5.0
19.711,1.68,-0.5,9.0
18.883,1.613,-0.587,10.0
17.55,1.503,-0.645,2.0
33.866,2.912,-0.317,11.0
27.94,2.407,-0.42,7.0
23.893,2.063,-0.495,5.0
19.697,1.704,-0.522,8.0
18.946,1.643,-0.611,11.0
17.342,1.507,-0.658,3.0
32.247,2.813,-0.339,10.0
26.827,2.345,-0.435,7.0
23.169,2.029,-0.507,5.0
20.105,1.764,-0.557,5.0
18.874,1.66,-0.631,7.0
17.193,1.515,-0.673,1.0
31.029,2.745,-0.363,9.0
25.745,2.282,-0.448,6.0
22.506,1.999,-0.52,4.0
19.619,1.746,-0.567,3.0
18.422,1.643,-0.638,3.0
16.88,1.508,-0.681,1.0
29.555,2.65,-0.381,8.0
24.978,2.243,-0.465,6.0
21.771,1.959,-0.529,4.0
19.005,1.713,-0.572,10.0
17.87,1.614,-0.64,2.0
16.727,1.514,-0.695,1.0
28.524,2.59,-0.402,8.0
24.318,2.212,-0.482,5.0
21.168,1.928,-0.54,7.0
18.9,1.725,-0.592,15.0
17.708,1.619,-0.656,2.0
16.543,1.515,-0.708,1.0
27.154,2.495,-0.416,21.0
23.503,2.163,-0.495,7.0
20.449,1.886,-0.547,5.0
18.323,1.692,-0.597,11.0
17.433,1.613,-0.668,0.0
16.318,1.513,-0.718,1.0
26.325,2.447,-0.436,7.0
22.745,2.118,-0.507,5.0
19.035,1.775,-0.533,11.0
17.986,1.68,-0.608,12.0
16.97,1.588,-0.671,0.0
16.064,1.506,-0.727,1.0
25.257,2.374,-0.45,6.0
22.014,2.072,-0.518,5.0
18.655,1.759,-0.546,17.0
17.819,1.683,-0.625,19.0
16.781,1.587,-0.685,1.0
15.938,1.51,-0.742,5.0
24.595,2.336,-0.47,6.0
21.459,2.041,-0.533,7.0
18.288,1.742,-0.559,16.0
17.709,1.689,-0.644,20.0
16.59,1.585,-0.698,2.0
15.896,1.521,-0.761,2.0
23.802,2.283,-0.486,5.0
20.997,2.017,-0.548,1.0
18.11,1.742,-0.577,16.0
17.493,1.685,-0.659,15.0
16.412,1.583,-0.713,2.0
15.407,1.489,-0.757,0.0
22.891,2.216,-0.496,5.0
18.488,1.792,-0.507,12.0
17.836,1.731,-0.591,15.0
17.354,1.687,-0.676,17.0
16.182,1.575,-0.724,2.0
15.107,1.473,-0.762,0.0
22.249,2.173,-0.511,5.0
18.207,1.78,-0.523,17.0
17.651,1.728,-0.608,15.0
17.043,1.671,-0.687,11.0
15.955,1.567,-0.734,9.0
14.868,1.462,-0.77,0.0
21.695,2.137,-0.527,8.0
17.943,1.769,-0.539,16.0
17.491,1.727,-0.626,14.0
16.895,1.67,-0.703,11.0
15.91,1.575,-0.753,2.0
14.521,1.439,-0.771,0.0
18.485,1.835,-0.473,9.0
17.69,1.758,-0.555,16.0
17.369,1.728,-0.644,13.0
16.473,1.641,-0.707,5.0
15.557,1.551,-0.757,0.0
14.175,1.415,-0.771,0.0
18.296,1.829,-0.493,20.0
17.6,1.762,-0.575,17.0
17.209,1.724,-0.661,8.0
16.156,1.621,-0.715,2.0
15.141,1.521,-0.757,0.0
13.927,1.4,-0.776,0.0
17.931,1.805,-0.507,17.0
17.389,1.752,-0.591,15.0
16.975,1.712,-0.674,12.0
15.994,1.615,-0.729,4.0
14.903,1.506,-0.765,0.0
13.671,1.384,-0.78,0.0
17.76,1.799,-0.525,18.0
17.316,1.755,-0.611,18.0
16.875,1.712,-0.693,13.0
15.955,1.621,-0.748,3.0
14.635,1.488,-0.77,0.0
13.51,1.375,-0.789,0.0
17.616,1.794,-0.544,18.0
17.123,1.746,-0.627,14.0
16.751,1.709,-0.71,9.0
15.589,1.592,-0.752,0.0
14.344,1.467,-0.774,0.0
13.388,1.37,-0.799,0.0
17.477,1.79,-0.563,17.0
16.943,1.737,-0.643,13.0
16.319,1.674,-0.713,8.0
15.17,1.558,-0.751,0.0
17.706,1.82,-0.979,0.0
13.173,1.355,-0.804,0.0
17.303,1.781,-0.58,19.0
16.818,1.732,-0.66,13.0
16.022,1.651,-0.721,11.0
14.888,1.536,-0.757,0.0
13.775,1.422,-0.78,0.0
12.936,1.337,-0.807,0.0
17.157,1.773,-0.598,16.0
16.736,1.731,-0.679,12.0
15.978,1.654,-0.74,5.0
14.663,1.519,-0.765,0.0
13.529,1.403,-0.784,0.0
12.804,1.329,-0.816,0.0
16.962,1.76,-0.614,16.0
16.658,1.73,-0.698,10.0
15.759,1.637,-0.751,0.0
17.672,1.838,-0.946,0.0
13.448,1.4,-0.797,0.0
12.565,1.309,-0.817,0.0
16.814,1.751,-0.63,14.0
16.377,1.706,-0.708,9.0
17.633,1.838,-0.864,0.0
17.618,1.838,-0.966,0.0
13.301,1.389,-0.806,0.0
12.298,1.285,-0.816,0.0
16.748,1.749,-0.65,15.0
16.13,1.686,-0.719,11.0
14.88,1.556,-0.748,0.0
13.794,1.443,-0.775,0.0
12.993,1.36,-0.805,0.0
12.177,1.276,-0.824,0.0
16.674,1.746,-0.669,13.0
15.973,1.674,-0.733,7.0
14.738,1.545,-0.761,0.0
13.562,1.423,-0.779,0.0
12.808,1.344,-0.81,0.0
11.994,1.26,-0.828,0.0
16.534,1.735,-0.685,11.0
16.1,1.691,-0.76,2.0
14.613,1.535,-0.773,0.0
13.414,1.41,-0.788,0.0
12.605,1.326,-0.814,0.0
11.783,1.24,-0.829,0.0
16.392,1.723,-0.7,12.0
17.604,1.852,-0.853,0.0
17.575,1.849,-0.953,0.0
13.29,1.399,-0.798,0.0
12.443,1.311,-0.819,0.0
11.482,1.21,-0.822,0.0
16.174,1.703,-0.712,12.0
17.748,1.869,-0.883,0.0
17.66,1.861,-0.98,0.0
13.066,1.377,-0.802,0.0
12.24,1.291,-0.822,0.0
11.429,1.206,-0.833,0.0
15.987,1.685,-0.724,11.0
17.743,1.87,-0.905,0.0
13.667,1.441,-0.776,0.0
12.897,1.36,-0.808,0.0
12.047,1.271,-0.824,0.0
11.174,1.179,-0.829,0.0
16.023,1.689,-0.746,3.0
14.675,1.547,-0.767,0.0
13.542,1.428,-0.786,0.0
12.691,1.339,-0.811,0.0
11.872,1.253,-0.827,0.0
11.048,1.166,-0.833,0.0
0.0,0.0,0.0,0.0
17.619,1.858,-0.943,0.0
13.364,1.409,-0.792,0.0
12.505,1.319,-0.815,0.0
11.69,1.234,-0.829,0.0
10.896,1.15,-0.836,0.0
17.714,1.867,-0.869,0.0
17.626,1.858,-0.966,0.0
13.201,1.392,-0.799,0.0
12.334,1.3,-0.819,0.0
11.461,1.209,-0.827,0.0
10.745,1.134,-0.838,0.0
17.747,1.869,-0.892,0.0
17.763,1.871,-0.995,0.0
12.996,1.369,-0.803,0.0
12.132,1.278,-0.82,0.0
11.251,1.185,-0.826,0.0
10.643,1.122,-0.842,0.0
14.746,1.551,-0.759,0.0
13.608,1.431,-0.779,0.0
12.823,1.349,-0.808,0.0
11.925,1.254,-0.821,0.0
11.131,1.171,-0.83,0.0
10.504,1.105,-0.844,0.0
14.62,1.535,-0.77,0.0
13.403,1.407,-0.783,0.0
12.681,1.331,-0.814,0.0
11.841,1.243,-0.829,0.0
11.018,1.157,-0.835,0.0
10.382,1.09,-0.847,0.0
17.607,1.845,-0.949,0.0
13.316,1.395,-0.794,0.0
12.495,1.309,-0.817,0.0
11.69,1.225,-0.833,0.0
10.899,1.142,-0.839,0.0
10.302,1.079,-0.853,0.0
17.63,1.843,-0.97,0.0
13.215,1.381,-0.803,0.0
12.281,1.283,-0.817,0.0
11.463,1.198,-0.83,0.0
10.718,1.12,-0.838,0.0
10.184,1.064,-0.855,0.0
13.744,1.432,-0.772,0.0
12.938,1.348,-0.801,0.0
12.118,1.263,-0.82,0.0
11.37,1.185,-0.836,0.0
10.557,1.1,-0.837,0.0
10.113,1.054,-0.86,0.0
13.577,1.41,-0.778,0.0
12.761,1.325,-0.804,0.0
11.906,1.236,-0.819,0.0
11.081,1.15,-0.827,0.0
10.481,1.088,-0.843,0.0
10.06,1.044,-0.867,0.0
13.431,1.39,-0.784,0.0
12.645,1.308,-0.811,0.0
11.785,1.219,-0.823,0.0
10.981,1.136,-0.831,0.0
10.387,1.074,-0.846,0.0
9.941,1.028,-0.867,0.0
13.38,1.379,-0.796,0.0
12.527,1.291,-0.817,0.0
11.6,1.195,-0.823,0.0
10.864,1.119,-0.834,0.0
10.315,1.062,-0.852,0.0
9.844,1.014,-0.869,0.0
13.181,1.353,-0.798,0.0
12.318,1.263,-0.816,0.0
11.473,1.176,-0.826,0.0
10.795,1.107,-0.84,0.0
10.258,1.051,-0.858,0.0
9.749,0.999,-0.871,0.0
13.015,1.329,-0.801,0.0
12.209,1.246,-0.821,0.0
11.286,1.151,-0.824,0.0
10.639,1.085,-0.839,0.0
10.174,1.037,-0.861,0.0
9.665,0.985,-0.874,0.0
12.872,1.307,-0.805,0.0
12.003,1.218,-0.82,0.0
11.257,1.142,-0.833,0.0
10.543,1.069,-0.842,0.0
10.103,1.024,-0.865,0.0
9.598,0.973,-0.877,0.0
12.778,1.29,-0.812,0.0
11.854,1.196,-0.821,0.0
11.148,1.125,-0.836,0.0
10.428,1.052,-0.843,0.0
10.017,1.01,-0.867,0.0
9.524,0.96,-0.88,0.0
12.636,1.268,-0.815,0.0
11.684,1.172,-0.82,0.0
11.078,1.111,-0.841,0.0
10.369,1.039,-0.848,0.0
9.943,0.996,-0.87,0.0
9.463,0.947,-0.883,0.0
12.531,1.25,-0.82,0.0
11.631,1.159,-0.827,0.0
10.946,1.09,-0.841,0.0
10.291,1.024,-0.851,0.0
9.842,0.979,-0.871,0.0
9.349,0.929,-0.881,0.0
12.332,1.221,-0.818,0.0
11.532,1.141,-0.831,0.0
10.833,1.071,-0.842,0.0
10.223,1.01,-0.855,0.0
9.789,0.967,-0.875,0.0
9.321,0.92,-0.886,0.0
12.26,1.205,-0.823,0.0
11.406,1.12,-0.831,0.0
10.742,1.054,-0.844,0.0
10.18,0.998,-0.86,0.0
9.747,0.955,-0.879,0.0
9.213,0.902,-0.884,0.0
12.16,1.186,-0.827,0.0
11.318,1.103,-0.834,0.0
10.636,1.036,-0.845,0.0
10.083,0.981,-0.86,0.0
9.673,0.94,-0.88,0.0
9.129,0.887,-0.883,0.0
12.001,1.161,-0.826,0.0
11.217,1.084,-0.836,0.0
10.561,1.02,-0.848,0.0
10.061,0.971,-0.866,0.0
9.591,0.925,-0.881,0.0
9.068,0.874,-0.885,0.0
11.928,1.144,-0.83,0.0
11.183,1.071,-0.842,0.0
10.483,1.003,-0.849,0.0
9.981,0.954,-0.867,0.0
9.523,0.91,-0.882,0.0
9.04,0.863,-0.889,0.0
11.744,1.116,-0.826,0.0
11.133,1.057,-0.847,0.0
10.409,0.987,-0.851,0.0
9.966,0.944,-0.873,0.0
9.497,0.899,-0.886,0.0
11.615,1.093,-0.825,0.0
10.976,1.032,-0.842,0.0
10.377,0.975,-0.856,0.0
9.88,0.927,-0.872,0.0
9.409,0.882,-0.884,0.0
11.596,1.081,-0.832,0.0
10.895,1.014,-0.843,0.0
10.316,0.959,-0.858,0.0
9.826,0.913,-0.874,0.0
9.344,0.867,-0.885,0.0
8.844,0.82,-0.888,0.0
11.459,1.057,-0.829,0.0
10.813,0.996,-0.844,0.0
10.257,0.944,-0.859,0.0
9.775,0.898,-0.876,0.0
9.273,0.851,-0.884,0.0
8.71,0.799,-0.88,0.0
11.441,1.044,-0.835,0.0
10.744,0.979,-0.845,0.0
10.174,0.926,-0.858,0.0
9.727,0.884,-0.877,0.0
9.259,0.841,-0.888,0.0
8.747,0.793,-0.889,0.0
11.395,1.028,-0.838,0.0
10.709,0.965,-0.848,0.0
10.189,0.917,-0.865,0.0
9.69,0.871,-0.879,0.0
9.209,0.827,-0.888,0.0
8.689,0.779,-0.888,0.0
11.298,1.007,-0.837,0.0
10.657,0.949,-0.85,0.0
10.104,0.899,-0.863,0.0
9.656,0.858,-0.881,0.0
9.16,0.812,-0.888,0.0
8.725,0.773,-0.896,0.0
11.294,0.995,-0.842,0.0
10.608,0.933,-0.851,0.0
10.135,0.89,-0.871,0.0
9.633,0.845,-0.884,0.0
9.132,0.8,-0.89,0.0
8.64,0.756,-0.891,0.0
11.273,0.981,-0.846,0.0
10.588,0.92,-0.854,0.0
10.061,0.873,-0.869,0.0
9.55,0.827,-0.88,0.0
9.13,0.79,-0.893,0.0
8.655,0.747,-0.896,0.0
11.203,0.962,-0.845,0.0
10.546,0.904,-0.855,0.0
10.057,0.861,-0.873,0.0
9.529,0.814,-0.882,0.0
8.623,0.735,-0.896,0.0
11.144,0.944,-0.845,0.0
10.483,0.887,-0.854,0.0
10.016,0.846,-0.873,0.0
9.53,0.803,-0.886,0.0
9.018,0.759,-0.889,0.0
8.583,0.721,-0.895,0.0
11.168,0.933,-0.851,0.0
10.516,0.877,-0.86,0.0
10.021,0.834,-0.877,0.0
9.461,0.786,-0.882,0.0
9.037,0.75,-0.894,0.0
8.578,0.711,-0.898,0.0
11.134,0.917,-0.852,0.0
10.461,0.86,-0.859,0.0
9.978,0.819,-0.876,0.0
9.448,0.774,-0.884,0.0
8.962,0.733,-0.889,0.0
8.523,0.696,-0.894,0.0
11.05,0.896,-0.848,0.0
10.433,0.845,-0.86,0.0
9.954,0.805,-0.876,0.0
9.452,0.763,-0.887,0.0
9.013,0.726,-0.896,0.0
8.549,0.687,-0.899,0.0
11.077,0.885,-0.853,0.0
10.392,0.829,-0.858,0.0
9.97,0.793,-0.88,0.0
9.447,0.75,-0.888,0.0
8.972,0.711,-0.894,0.0
8.516,0.674,-0.897,0.0
11.044,0.869,-0.852,0.0
10.45,0.82,-0.865,0.0
9.933,0.778,-0.878,0.0
9.473,0.74,-0.892,0.0
8.959,0.699,-0.894,0.0
8.514,0.663,-0.898,0.0
11.024,0.853,-0.852,0.0
10.385,0.802,-0.861,0.0
9.942,0.766,-0.88,0.0
9.434,0.725,-0.889,0.0
9.005,0.691,-0.9,0.0
8.503,0.651,-0.898,0.0
11.055,0.841,-0.856,0.0
10.402,0.789,-0.863,0.0
9.973,0.755,-0.884,0.0
9.474,0.716,-0.894,0.0
8.979,0.677,-0.898,0.0
8.495,0.639,-0.898,0.0
11.019,0.823,-0.853,0.0
10.385,0.774,-0.863,0.0
9.958,0.741,-0.883,0.0
9.487,0.704,-0.896,0.0
8.976,0.665,-0.898,0.0
8.563,0.633,-0.905,0.0
11.025,0.809,-0.854,0.0
10.418,0.763,-0.865,0.0
9.929,0.725,-0.881,0.0
9.494,0.692,-0.896,0.0
9.01,0.655,-0.901,0.0
8.524,0.618,-0.901,0.0
11.06,0.797,-0.856,0.0
10.447,0.751,-0.867,0.0
9.953,0.714,-0.882,0.0
9.494,0.679,-0.896,0.0
8.969,0.64,-0.897,0.0
8.562,0.609,-0.904,0.0
11.08,0.783,-0.857,0.0
10.43,0.735,-0.865,0.0
9.972,0.701,-0.883,0.0
9.475,0.665,-0.893,0.0
8.989,0.629,-0.898,0.0
8.568,0.598,-0.904,0.0
11.134,0.772,-0.86,0.0
10.47,0.724,-0.867,0.0
9.984,0.688,-0.883,0.0
9.492,0.653,-0.893,0.0
9.003,0.617,-0.898,0.0
8.604,0.588,-0.906,0.0
11.152,0.758,-0.86,0.0
10.502,0.711,-0.868,0.0
10.031,0.678,-0.885,0.0
9.508,0.641,-0.893,0.0
9.064,0.609,-0.902,0.0
8.606,0.577,-0.905,0.0
11.168,0.743,-0.859,0.0
10.523,0.698,-0.868,0.0
10.042,0.664,-0.884,0.0
9.518,0.628,-0.892,0.0
9.099,0.599,-0.904,0.0
8.62,0.565,-0.904,0.0
11.218,0.731,-0.86,0.0
10.57,0.687,-0.869,0.0
10.081,0.653,-0.885,0.0
9.613,0.621,-0.898,0.0
9.082,0.585,-0.899,0.0
8.668,0.556,-0.907,0.0
11.225,0.716,-0.857,0.0
10.563,0.671,-0.865,0.0
10.087,0.639,-0.882,0.0
9.619,0.607,-0.896,0.0
9.166,0.577,-0.905,0.0
8.715,0.547,-0.909,0.0
11.324,0.706,-0.861,0.0
10.638,0.661,-0.868,0.0
10.144,0.628,-0.884,0.0
9.691,0.598,-0.899,0.0
9.21,0.566,-0.906,0.0
8.757,0.537,-0.91,0.0
11.389,0.694,-0.862,0.0
10.63,0.645,-0.863,0.0
10.191,0.616,-0.884,0.0
9.676,0.583,-0.894,0.0
9.238,0.555,-0.905,0.0
8.809,0.527,-0.912,0.0
11.422,0.679,-0.859,0.0
10.738,0.636,-0.867,0.0
10.197,0.602,-0.88,0.0
9.708,0.571,-0.893,0.0
9.317,0.546,-0.908,0.0
8.779,0.513,-0.905,0.0
11.483,0.666,-0.859,0.0
10.831,0.626,-0.87,0.0
10.232,0.589,-0.878,0.0
9.786,0.562,-0.895,0.0
9.368,0.536,-0.909,0.0
8.865,0.505,-0.909,0.0
11.518,0.652,-0.855,0.0
10.887,0.614,-0.869,0.0
10.344,0.581,-0.882,0.0
9.822,0.549,-0.893,0.0
9.369,0.522,-0.904,0.0
8.89,0.494,-0.907,0.0
11.636,0.642,-0.858,0.0
10.958,0.602,-0.868,0.0
10.399,0.569,-0.881,0.0
9.892,0.539,-0.894,0.0
9.45,0.513,-0.906,0.0
8.927,0.483,-0.905,0.0
11.761,0.632,-0.86,0.0
11.015,0.589,-0.866,0.0
23.644,1.26,-1.99,0.0
9.944,0.528,-0.892,0.0
9.482,0.501,-0.903,0.0
11.864,0.62,-0.86,0.0
11.109,0.578,-0.866,0.0
23.639,1.226,-1.974,0.0
9.983,0.515,-0.889,0.0
9.567,0.492,-0.905,0.0
11.872,0.604,-0.853,0.0
11.212,0.568,-0.867,0.0
10.59,0.534,-0.877,0.0
10.057,0.505,-0.889,0.0
9.609,0.48,-0.902,0.0
11.939,0.59,-0.849,0.0
11.31,0.556,-0.866,0.0
10.623,0.52,-0.872,0.0
10.167,0.496,-0.891,0.0
9.666,0.469,-0.9,0.0
9.266,0.448,-0.914,0.0
11.963,0.574,-0.842,0.0
11.443,0.546,-0.867,0.0
10.74,0.511,-0.873,0.0
10.234,0.484,-0.889,0.0
9.743,0.459,-0.9,0.0
9.317,0.437,-0.911,0.0
12.249,0.57,-0.852,0.0
11.502,0.533,-0.863,0.0
10.875,0.501,-0.875,0.0
10.323,0.474,-0.888,0.0
9.818,0.448,-0.898,0.0
9.405,0.427,-0.912,0.0
12.376,0.558,-0.85,0.0
11.642,0.523,-0.863,0.0
10.95,0.489,-0.871,0.0
10.369,0.461,-0.883,0.0
9.901,0.438,-0.897,0.0
9.501,0.418,-0.913,0.0
12.443,0.544,-0.844,0.0
11.849,0.515,-0.868,0.0
11.019,0.476,-0.867,0.0
10.443,0.449,-0.879,0.0
10.022,0.429,-0.898,0.0
9.558,0.407,-0.909,0.0
12.654,0.535,-0.846,0.0
11.997,0.504,-0.867,0.0
11.211,0.469,-0.871,0.0
10.536,0.438,-0.877,0.0
10.097,0.418,-0.895,0.0
9.615,0.396,-0.905,0.0
12.864,0.526,-0.847,0.0
12.044,0.489,-0.859,0.0
11.394,0.46,-0.874,0.0
10.757,0.432,-0.885,0.0
10.19,0.407,-0.893,0.0
9.679,0.385,-0.901,0.0
12.936,0.511,-0.839,0.0
12.206,0.479,-0.858,0.0
11.451,0.447,-0.866,0.0
10.837,0.42,-0.88,0.0
10.252,0.395,-0.888,0.0
9.826,0.377,-0.904,0.0
13.091,0.498,-0.835,0.0
12.319,0.466,-0.852,0.0
11.533,0.434,-0.86,0.0
10.938,0.409,-0.876,0.0
10.386,0.386,-0.888,0.0
9.862,0.365,-0.897,0.0
13.411,0.492,-0.841,0.0
12.57,0.459,-0.856,0.0
11.836,0.429,-0.87,0.0
11.093,0.4,-0.876,0.0
10.527,0.377,-0.888,0.0
10.039,0.357,-0.901,0.0
13.533,0.479,-0.833,0.0
12.717,0.447,-0.851,0.0
11.921,0.416,-0.862,0.0
11.217,0.389,-0.873,0.0
10.639,0.367,-0.885,0.0
10.136,0.347,-0.898,0.0
13.812,0.47,-0.834,0.0
12.929,0.437,-0.85,0.0
12.137,0.407,-0.863,0.0
11.368,0.379,-0.871,0.0
10.814,0.358,-0.887,0.0
10.235,0.337,-0.894,0.0
14.057,0.459,-0.832,0.0
13.004,0.422,-0.839,0.0
12.268,0.395,-0.857,0.0
11.505,0.368,-0.867,0.0
10.961,0.348,-0.885,0.0
10.392,0.328,-0.895,0.0
14.302,0.448,-0.828,0.0
13.277,0.413,-0.84,0.0
12.536,0.387,-0.86,0.0
11.76,0.361,-0.871,0.0
11.106,0.338,-0.882,0.0
10.562,0.32,-0.896,0.0
14.648,0.44,-0.829,0.0
13.556,0.405,-0.84,0.0
12.721,0.377,-0.856,0.0
11.926,0.351,-0.868,0.0
11.22,0.327,-0.876,0.0
10.703,0.31,-0.894,0.0
14.903,0.429,-0.824,0.0
13.889,0.397,-0.842,0.0
12.893,0.365,-0.85,0.0
12.133,0.341,-0.866,0.0
11.399,0.318,-0.875,0.0
10.842,0.3,-0.89,0.0
15.216,0.419,-0.821,0.0
14.183,0.387,-0.84,0.0
13.144,0.356,-0.849,0.0
12.354,0.332,-0.865,0.0
11.69,0.312,-0.881,0.0
10.986,0.291,-0.887,0.0
15.673,0.412,-0.823,0.0
14.389,0.375,-0.832,0.0
13.511,0.349,-0.853,0.0
12.592,0.323,-0.864,0.0
11.873,0.302,-0.878,0.0
11.145,0.281,-0.883,0.0
16.054,0.402,-0.82,0.0
14.747,0.366,-0.832,0.0
13.761,0.339,-0.849,0.0
12.763,0.312,-0.857,0.0
12.094,0.293,-0.876,0.0
11.362,0.273,-0.884,0.0
16.339,0.39,-0.811,0.0
15.055,0.356,-0.827,0.0
14.078,0.33,-0.848,1.0
12.966,0.301,-0.851,0.0
12.293,0.283,-0.872,0.0
11.614,0.265,-0.886,0.0
16.846,0.382,-0.811,0.0
15.362,0.345,-0.821,0.0
14.347,0.319,-0.842,1.0
13.403,0.296,-0.859,0.0
12.461,0.272,-0.865,0.0
11.781,0.255,-0.88,0.0
17.294,0.372,-0.806,0.0
15.845,0.338,-0.822,0.0
14.646,0.309,-0.837,0.0
13.672,0.286,-0.855,1.0
12.751,0.264,-0.865,0.0
12.083,0.248,-0.884,0.0
17.748,0.362,-0.799,0.0
16.194,0.327,-0.814,0.0
14.948,0.299,-0.831,0.0
13.975,0.276,-0.852,1.0
13.032,0.255,-0.863,0.0
12.253,0.238,-0.877,0.0
18.046,0.348,-0.783,0.0
16.649,0.317,-0.811,0.0
15.421,0.291,-0.832,0.0
14.332,0.268,-0.85,1.0
13.339,0.246,-0.862,1.0
12.48,0.228,-0.872,0.0
18.723,0.34,-0.782,0.0
17.231,0.31,-0.811,0.0
15.692,0.279,-0.821,0.0
14.596,0.257,-0.842,1.0
13.634,0.237,-0.858,1.0
12.775,0.22,-0.871,0.0
19.425,0.332,-0.779,1.0
17.682,0.299,-0.802,0.0
16.221,0.271,-0.821,0.0
14.957,0.247,-0.837,0.0
13.967,0.228,-0.855,1.0
13.04,0.211,-0.867,1.0
19.609,0.315,-0.753,3.0
18.157,0.288,-0.792,0.0
16.659,0.261,-0.814,0.0
15.351,0.238,-0.832,0.0
14.332,0.219,-0.853,1.0
13.337,0.202,-0.864,1.0
19.659,0.295,-0.72,3.0
18.909,0.281,-0.792,0.0
17.123,0.251,-0.807,0.0
15.711,0.228,-0.824,0.0
14.685,0.21,-0.848,1.0
13.613,0.192,-0.857,0.0
19.673,0.276,-0.687,1.0
19.485,0.27,-0.782,1.0
17.782,0.243,-0.807,0.0
16.086,0.217,-0.816,0.0
15.054,0.201,-0.842,0.0
13.972,0.184,-0.855,0.0
19.693,0.258,-0.652,13.0
19.574,0.253,-0.751,5.0
18.202,0.232,-0.793,0.0
16.733,0.21,-0.818,0.0
15.491,0.192,-0.839,0.0
14.311,0.175,-0.85,0.0
19.671,0.239,-0.616,18.0
19.651,0.236,-0.718,9.0
19.155,0.226,-0.8,0.0
17.191,0.2,-0.81,0.0
15.816,0.182,-0.827,0.0
14.736,0.167,-0.848,0.0
19.677,0.221,-0.58,19.0
19.663,0.218,-0.682,17.0
19.515,0.213,-0.779,2.0
17.773,0.191,-0.804,0.0
16.239,0.172,-0.819,0.0
15.257,0.159,-0.849,0.0
19.679,0.204,-0.543,16.0
19.679,0.201,-0.646,13.0
19.658,0.198,-0.748,5.0
18.461,0.183,-0.8,0.0
16.828,0.164,-0.817,0.0
15.442,0.148,-0.83,0.0
19.687,0.188,-0.507,12.0
19.697,0.185,-0.609,7.0
19.7,0.182,-0.712,2.0
19.138,0.174,-0.793,0.0
17.379,0.155,-0.811,0.0
16.01,0.141,-0.83,0.0
19.695,0.172,-0.469,3.0
19.741,0.169,-0.573,0.0
21.41,0.181,-0.733,0.0
19.607,0.163,-0.775,1.0
17.971,0.147,-0.804,0.0
16.447,0.132,-0.821,0.0
28.238,0.225,-0.619,0.0
25.279,0.198,-0.685,0.0
22.165,0.17,-0.716,0.0
19.81,0.149,-0.744,0.0
18.603,0.138,-0.796,0.0
16.638,0.121,-0.798,0.0
29.683,0.214,-0.593,0.0
26.341,0.187,-0.663,0.0
23.505,0.164,-0.713,0.0
20.971,0.143,-0.748,0.0
19.423,0.13,-0.793,1.0
17.616,0.116,-0.811,0.0
0.0,0.0,0.0,0.0
27.756,0.177,-0.644,0.0
24.762,0.155,-0.703,0.0
21.367,0.131,-0.72,0.0
19.711,0.118,-0.766,2.0
18.262,0.107,-0.804,0.0
33.358,0.195,-0.535,0.0
29.041,0.166,-0.616,0.0
25.694,0.144,-0.678,0.0
0.0,0.0,0.0,0.0
19.858,0.106,-0.731,1.0
18.966,0.099,-0.797,0.0
19.804,0.103,-0.278,0.0
19.776,0.1,-0.38,0.0
19.803,0.098,-0.483,1.0
19.798,0.096,-0.587,2.0
19.796,0.094,-0.689,2.0
19.674,0.091,-0.787,2.0
19.78,0.09,-0.237,9.0
19.771,0.088,-0.34,12.0
19.777,0.086,-0.442,16.0
19.776,0.084,-0.546,14.0
19.777,0.082,-0.649,15.0
19.78,0.08,-0.751,8.0
19.768,0.079,-0.197,40.0
19.782,0.077,-0.299,30.0
19.78,0.075,-0.402,36.0
19.779,0.073,-0.506,39.0
19.793,0.071,-0.608,32.0
19.794,0.069,-0.711,22.0
19.783,0.068,-0.157,57.0
19.778,0.067,-0.259,43.0
19.769,0.065,-0.361,27.0
19.771,0.063,-0.465,43.0
19.766,0.061,-0.566,17.0
19.781,0.059,-0.669,16.0
19.771,0.058,-0.116,60.0
19.78,0.057,-0.218,27.0
19.768,0.055,-0.32,12.0
19.769,0.053,-0.424,10.0
19.772,0.051,-0.526,13.0
19.778,0.05,-0.628,12.0
19.759,0.049,-0.075,34.0
19.767,0.047,-0.176,16.0
19.771,0.046,-0.278,13.0
19.759,0.044,-0.382,9.0
19.767,0.043,-0.484,12.0
19.771,0.041,-0.586,11.0
19.767,0.04,-0.033,80.0
19.746,0.039,-0.135,8.0
19.752,0.037,-0.236,10.0
19.751,0.036,-0.34,12.0
19.771,0.035,-0.443,9.0
19.772,0.033,-0.545,17.0
19.756,0.033,0.007,13.0
19.763,0.031,-0.094,3.0
19.753,0.03,-0.195,5.0
19.767,0.029,-0.299,3.0
19.77,0.027,-0.401,3.0
19.781,0.026,-0.503,2.0
19.788,0.025,0.049,4.0
19.758,0.024,-0.052,54.0
19.793,0.023,-0.154,1.0
19.766,0.022,-0.257,1.0
19.785,0.021,-0.359,1.0
19.771,0.02,-0.461,1.0
19.781,0.019,0.091,5.0
19.758,0.018,-0.01,10.0
19.754,0.017,-0.112,0.0
19.771,0.016,-0.215,0.0
19.79,0.015,-0.317,1.0
19.769,0.014,-0.419,0.0
19.801,0.013,0.133,1.0
19.771,0.012,0.031,5.0
19.753,0.011,-0.069,2.0
19.751,0.011,-0.173,0.0
35.905,0.018,-0.499,0.0
31.144,0.014,-0.593,0.0
19.677,0.008,0.175,9.0
19.782,0.007,0.074,3.0
19.737,0.007,-0.027,10.0
19.755,0.006,-0.13,1.0
0.0,0.0,0.0,0.0
31.989,0.008,-0.541,0.0
19.644,0.004,0.216,16.0
19.718,0.003,0.116,1.0
19.73,0.003,0.015,9.0
19.754,0.002,-0.088,2.0
19.852,0.002,-0.191,0.0
0.0,0.0,0.0,0.0
19.637,0.001,0.258,14.0
19.746,0.0,0.158,4.0
19.724,0.0,0.057,6.0
19.728,0.0,-0.046,11.0
19.774,0.0,-0.147,2.0
0.0,0.0,0.0,0.0
19.628,-0.001,0.301,15.0
19.641,-0.002,0.199,14.0
19.683,-0.002,0.099,3.0
19.715,-0.002,-0.003,13.0
19.76,-0.003,-0.105,3.0
19.757,-0.003,-0.207,0.0
19.63,-0.003,0.343,13.0
19.631,-0.003,0.241,13.0
19.732,-0.004,0.141,3.0
19.718,-0.004,0.038,9.0
19.735,-0.004,-0.062,10.0
19.774,-0.004,-0.164,2.0
19.634,-0.004,0.385,13.0
19.625,-0.005,0.284,13.0
19.651,-0.005,0.183,12.0
19.684,-0.005,0.08,6.0
19.725,-0.005,-0.02,13.0
19.751,-0.005,-0.121,6.0
19.624,-0.005,0.427,14.0
19.628,-0.005,0.326,13.0
19.627,-0.005,0.225,14.0
19.677,-0.005,0.122,2.0
19.714,-0.005,0.021,11.0
19.745,-0.004,-0.079,7.0
19.63,-0.005,0.469,12.0
19.625,-0.005,0.368,13.0
19.627,-0.004,0.267,13.0
19.667,-0.004,0.164,8.0
19.707,-0.004,0.063,7.0
19.732,-0.004,-0.037,13.0
19.619,-0.004,0.51,13.0
19.626,-0.004,0.41,12.0
19.619,-0.003,0.308,14.0
19.627,-0.003,0.206,14.0
19.68,-0.002,0.105,2.0
19.725,-0.002,0.004,12.0
19.625,-0.002,0.553,14.0
19.62,-0.002,0.451,12.0
19.616,-0.001,0.351,12.0
19.627,-0.001,0.248,13.0
19.764,0.0,0.148,3.0
19.734,0.0,0.046,6.0
19.626,0.0,0.595,13.0
19.608,0.0,0.493,12.0
19.614,0.0,0.392,12.0
19.616,0.001,0.289,13.0
19.636,0.002,0.188,14.0
19.731,0.003,0.087,2.0
19.627,0.002,0.636,13.0
19.624,0.003,0.535,13.0
19.614,0.004,0.433,11.0
19.604,0.005,0.33,14.0
19.621,0.005,0.229,14.0
19.789,0.006,0.13,1.0
19.64,0.006,0.678,13.0
19.613,0.007,0.576,12.0
19.611,0.008,0.475,11.0
19.611,0.009,0.372,13.0
19.621,0.01,0.271,13.0
19.664,0.011,0.17,9.0
19.652,0.011,0.72,13.0
19.613,0.012,0.618,12.0
19.608,0.013,0.516,12.0
19.61,0.014,0.413,12.0
19.618,0.015,0.313,14.0
19.631,0.016,0.211,15.0
19.654,0.016,0.762,17.0
19.632,0.017,0.66,12.0
19.611,0.018,0.557,12.0
19.604,0.02,0.454,12.0
19.617,0.021,0.353,14.0
19.627,0.022,0.252,14.0
19.632,0.022,0.802,18.0
19.642,0.023,0.701,12.0
19.606,0.025,0.599,12.0
19.598,0.026,0.495,13.0
19.607,0.027,0.394,13.0
19.625,0.029,0.293,15.0
19.593,0.029,0.841,26.0
19.649,0.03,0.742,13.0
19.61,0.032,0.639,12.0
19.611,0.033,0.536,13.0
19.607,0.035,0.435,12.0
19.62,0.036,0.333,19.0
19.578,0.036,0.881,26.0
19.66,0.038,0.783,22.0
19.615,0.039,0.679,10.0
19.592,0.041,0.575,13.0
19.602,0.043,0.474,13.0
19.613,0.044,0.373,13.0
19.569,0.044,0.921,24.0
19.603,0.046,0.821,16.0
19.637,0.048,0.72,11.0
19.603,0.049,0.616,11.0
19.603,0.051,0.514,13.0
19.607,0.053,0.413,13.0
19.574,0.053,0.961,24.0
19.588,0.055,0.86,24.0
19.646,0.057,0.761,18.0
19.619,0.059,0.656,12.0
19.601,0.061,0.554,14.0
19.601,0.062,0.453,17.0
19.555,0.063,1.0,15.0
19.58,0.065,0.899,25.0
19.63,0.067,0.8,15.0
19.619,0.069,0.696,11.0
19.601,0.071,0.594,13.0
19.604,0.073,0.492,20.0
19.577,0.073,1.041,8.0
19.567,0.075,0.938,23.0
19.583,0.077,0.837,13.0
19.63,0.079,0.735,10.0
19.606,0.081,0.633,12.0
19.601,0.083,0.531,15.0
19.594,0.084,1.08,0.0
19.563,0.086,0.977,16.0
19.586,0.088,0.876,17.0
19.634,0.09,0.774,17.0
19.617,0.093,0.672,12.0
19.597,0.095,0.57,14.0
0.0,0.0,0.0,0.0
19.567,0.097,1.016,8.0
19.576,0.1,0.914,16.0
19.659,0.102,0.814,10.0
19.623,0.105,0.711,10.0
19.598,0.107,0.608,12.0
0.0,0.0,0.0,0.0
19.608,0.11,1.056,0.0
19.594,0.112,0.953,13.0
19.635,0.115,0.851,5.0
19.651,0.117,0.75,8.0
19.608,0.12,0.646,13.0
113.906,0.701,6.951,11.0
0.0,0.0,0.0,0.0
19.63,0.126,0.993,6.0
19.62,0.128,0.888,5.0
19.682,0.131,0.789,3.0
19.614,0.133,0.684,11.0
113.957,0.78,7.174,6.0
113.988,0.795,6.58,44.0
113.932,0.81,5.983,32.0
19.612,0.142,0.925,2.0
113.986,0.842,4.785,27.0
19.632,0.147,0.721,9.0
