X,Y,Z,Reflectivity
0.0,0.0,0.0,0.0
0.0,0.0,0.0,0.0
0.0,0.0,0.0,0.0
0.0,0.0,0.0,0.0
0.0,0.0,0.0,0.0
126.227,-3.656,9.81,26.0
0.0,0.0,0.0,0.0
0.0,0.0,0.0,0.0
0.0,0.0,0.0,0.0
0.0,0.0,0.0,0.0
0.0,0.0,0.0,0.0
0.0,0.0,0.0,0.0
0.0,0.0,0.0,0.0
0.0,0.0,0.0,0.0
0.0,0.0,0.0,0.0
0.0,0.0,0.0,0.0
0.0,0.0,0.0,0.0
0.0,0.0,0.0,0.0
0.0,0.0,0.0,0.0
0.0,0.0,0.0,0.0
113.982,-2.955,10.461,2.0
0.0,0.0,0.0,0.0
0.0,0.0,0.0,0.0
0.0,0.0,0.0,0.0
0.0,0.0,0.0,0.0
0.0,0.0,0.0,0.0
114.118,-2.822,10.333,3.0
0.0,0.0,0.0,0.0
0.0,0.0,0.0,0.0
0.0,0.0,0.0,0.0
0.0,0.0,0.0,0.0
0.0,0.0,0.0,0.0
0.0,0.0,0.0,0.0
0.0,0.0,0.0,0.0
0.0,0.0,0.0,0.0
0.0,0.0,0.0,0.0
0.0,0.0,0.0,0.0
0.0,0.0,0.0,0.0
0.0,0.0,0.0,0.0
0.0,0.0,0.0,0.0
0.0,0.0,0.0,0.0
0.0,0.0,0.0,0.0
0.0,0.0,0.0,0.0
0.0,0.0,0.0,0.0
0.0,0.0,0.0,0.0
0.0,0.0,0.0,0.0
0.0,0.0,0.0,0.0
0.0,0.0,0.0,0.0
0.0,0.0,0.0,0.0
114.107,-2.318,10.398,2.0
0.0,0.0,0.0,0.0
0.0,0.0,0.0,0.0
0.0,0.0,0.0,0.0
0.0,0.0,0.0,0.0
0.0,0.0,0.0,0.0
114.202,-2.197,10.249,3.0
0.0,0.0,0.0,0.0
0.0,0.0,0.0,0.0
0.0,0.0,0.0,0.0
0.0,0.0,0.0,0.0
0.0,0.0,0.0,0.0
0.0,0.0,0.0,0.0
0.0,0.0,0.0,0.0
0.0,0.0,0.0,0.0
0.0,0.0,0.0,0.0
0.0,0.0,0.0,0.0
0.0,0.0,0.0,0.0
0.0,0.0,0.0,0.0
0.0,0.0,0.0,0.0
0.0,0.0,0.0,0.0
0.0,0.0,0.0,0.0
190.143,-3.13,12.064,13.0
0.0,0.0,0.0,0.0
0.0,0.0,0.0,0.0
0.0,0.0,0.0,0.0
0.0,0.0,0.0,0.0
0.0,0.0,0.0,0.0
0.0,0.0,0.0,0.0
0.0,0.0,0.0,0.0
0.0,0.0,0.0,0.0
0.0,0.0,0.0,0.0
0.0,0.0,0.0,0.0
0.0,0.0,0.0,0.0
0.0,0.0,0.0,0.0
0.0,0.0,0.0,0.0
0.0,0.0,0.0,0.0
0.0,0.0,0.0,0.0
0.0,0.0,0.0,0.0
0.0,0.0,0.0,0.0
0.0,0.0,0.0,0.0
0.0,0.0,0.0,0.0
0.0,0.0,0.0,0.0
0.0,0.0,0.0,0.0
0.0,0.0,0.0,0.0
0.0,0.0,0.0,0.0
0.0,0.0,0.0,0.0
0.0,0.0,0.0,0.0
0.0,0.0,0.0,0.0
0.0,0.0,0.0,0.0
0.0,0.0,0.0,0.0
0.0,0.0,0.0,0.0
0.0,0.0,0.0,0.0
0.0,0.0,0.0,0.0
0.0,0.0,0.0,0.0
0.0,0.0,0.0,0.0
0.0,0.0,0.0,0.0
0.0,0.0,0.0,0.0
0.0,0.0,0.0,0.0
0.0,0.0,0.0,0.0
0.0,0.0,0.0,0.0
0.0,0.0,0.0,0.0
0.0,0.0,0.0,0.0
0.0,0.0,0.0,0.0
0.0,0.0,0.0,0.0
0.0,0.0,0.0,0.0
0.0,0.0,0.0,0.0
0.0,0.0,0.0,0.0
0.0,0.0,0.0,0.0
0.0,0.0,0.0,0.0
0.0,0.0,0.0,0.0
0.0,0.0,0.0,0.0
0.0,0.0,0.0,0.0
0.0,0.0,0.0,0.0
0.0,0.0,0.0,0.0
0.0,0.0,0.0,0.0
0.0,0.0,0.0,0.0
0.0,0.0,0.0,0.0
113.748,-0.896,7.997,2.0
0.0,0.0,0.0,0.0
0.0,0.0,0.0,0.0
0.0,0.0,0.0,0.0
0.0,0.0,0.0,0.0
0.0,0.0,0.0,0.0
0.0,0.0,0.0,0.0
0.0,0.0,0.0,0.0
0.0,0.0,0.0,0.0
0.0,0.0,0.0,0.0
184.797,-1.239,8.323,13.0
0.0,0.0,0.0,0.0
0.0,0.0,0.0,0.0
0.0,0.0,0.0,0.0
0.0,0.0,0.0,0.0
0.0,0.0,0.0,0.0
184.711,-1.105,7.975,14.0
113.767,-0.655,8.038,2.0
0.0,0.0,0.0,0.0
0.0,0.0,0.0,0.0
0.0,0.0,0.0,0.0
186.195,-1.004,8.777,13.0
184.645,-0.978,7.629,21.0
0.0,0.0,0.0,0.0
0.0,0.0,0.0,0.0
0.0,0.0,0.0,0.0
0.0,0.0,0.0,0.0
185.998,-0.881,8.418,9.0
19.725,-0.091,0.777,3.0
0.0,0.0,0.0,0.0
0.0,0.0,0.0,0.0
0.0,0.0,0.0,0.0
19.599,-0.082,0.963,0.0
184.768,-0.759,8.008,22.0
19.684,-0.079,0.738,9.0
0.0,0.0,0.0,0.0
0.0,0.0,0.0,0.0
19.583,-0.071,1.042,0.0
19.607,-0.07,0.926,1.0
184.713,-0.649,7.65,17.0
19.672,-0.067,0.699,12.0
0.0,0.0,0.0,0.0
0.0,0.0,0.0,0.0
19.596,-0.06,1.004,6.0
19.605,-0.059,0.888,6.0
19.706,-0.058,0.777,6.0
19.65,-0.056,0.66,13.0
0.0,0.0,0.0,0.0
19.683,-0.051,1.085,0.0
19.588,-0.05,0.965,15.0
19.602,-0.048,0.849,3.0
19.669,-0.047,0.737,9.0
19.638,-0.046,0.621,14.0
0.0,0.0,0.0,0.0
19.598,-0.041,1.042,5.0
19.577,-0.04,0.926,16.0
19.685,-0.039,0.814,1.0
19.655,-0.038,0.697,12.0
19.63,-0.037,0.582,13.0
0.0,0.0,0.0,0.0
19.568,-0.032,1.001,15.0
19.586,-0.031,0.887,16.0
19.676,-0.03,0.774,7.0
19.633,-0.029,0.657,12.0
19.623,-0.028,0.542,13.0
19.608,-0.025,1.078,1.0
19.564,-0.024,0.961,18.0
19.591,-0.023,0.848,14.0
19.654,-0.022,0.733,10.0
19.617,-0.021,0.617,13.0
19.62,-0.02,0.503,13.0
19.58,-0.017,1.037,8.0
19.568,-0.016,0.921,18.0
19.643,-0.015,0.81,10.0
19.632,-0.014,0.692,12.0
19.612,-0.013,0.577,13.0
19.615,-0.012,0.463,13.0
19.573,-0.009,0.996,22.0
19.567,-0.009,0.881,17.0
19.662,-0.008,0.77,12.0
19.62,-0.007,0.652,12.0
19.613,-0.006,0.537,13.0
19.622,-0.005,0.422,12.0
19.574,-0.003,0.956,20.0
19.592,-0.002,0.842,18.0
19.645,-0.001,0.729,12.0
19.604,-0.001,0.611,12.0
19.612,0.0,0.496,13.0
19.615,0.0,0.382,13.0
19.564,0.002,0.915,21.0
19.657,0.003,0.804,18.0
19.629,0.003,0.688,12.0
19.609,0.004,0.57,13.0
19.606,0.004,0.456,12.0
19.612,0.005,0.341,15.0
19.589,0.007,0.875,24.0
19.645,0.008,0.762,13.0
19.608,0.008,0.646,11.0
19.601,0.009,0.529,13.0
19.613,0.009,0.414,13.0
19.622,0.01,0.3,15.0
19.599,0.012,0.834,19.0
19.637,0.012,0.721,12.0
19.615,0.012,0.605,12.0
19.601,0.013,0.488,13.0
19.611,0.013,0.373,15.0
19.622,0.013,0.259,15.0
19.67,0.015,0.796,22.0
19.625,0.016,0.679,11.0
19.603,0.016,0.563,13.0
19.602,0.016,0.447,12.0
19.611,0.016,0.332,17.0
19.635,0.017,0.217,16.0
19.643,0.018,0.754,14.0
19.614,0.018,0.637,11.0
19.604,0.019,0.522,13.0
19.604,0.019,0.405,13.0
19.623,0.019,0.291,14.0
19.718,0.019,0.177,14.0
19.634,0.02,0.711,12.0
19.605,0.021,0.595,12.0
19.607,0.021,0.48,13.0
19.595,0.021,0.363,17.0
19.614,0.021,0.249,15.0
19.746,0.021,0.135,13.0
19.623,0.022,0.669,13.0
19.607,0.022,0.554,13.0
19.609,0.022,0.439,12.0
19.603,0.022,0.322,16.0
19.647,0.022,0.208,15.0
19.749,0.022,0.093,14.0
19.616,0.023,0.627,13.0
19.602,0.023,0.512,14.0
19.602,0.022,0.397,13.0
19.614,0.022,0.28,13.0
19.758,0.022,0.166,20.0
19.739,0.022,0.051,15.0
19.619,0.023,0.585,13.0
19.605,0.022,0.47,13.0
19.608,0.022,0.355,17.0
19.612,0.022,0.238,16.0
19.739,0.022,0.124,15.0
19.748,0.022,0.009,16.0
19.616,0.022,0.543,14.0
19.605,0.022,0.428,12.0
19.612,0.021,0.313,14.0
19.669,0.021,0.197,14.0
19.754,0.021,0.082,11.0
19.742,0.02,-0.033,78.0
19.617,0.02,0.501,14.0
19.614,0.02,0.386,16.0
19.622,0.02,0.271,13.0
19.743,0.019,0.155,9.0
19.761,0.019,0.039,6.0
19.753,0.018,-0.075,2.0
19.613,0.018,0.458,13.0
19.623,0.018,0.344,17.0
19.629,0.017,0.229,16.0
19.737,0.017,0.112,9.0
19.748,0.016,-0.002,17.0
19.766,0.016,-0.118,2.0
19.624,0.015,0.417,13.0
19.631,0.015,0.302,14.0
19.691,0.014,0.187,7.0
19.771,0.014,0.07,5.0
19.745,0.013,-0.044,68.0
19.787,0.012,-0.16,1.0
19.619,0.012,0.374,16.0
19.625,0.011,0.26,15.0
19.775,0.01,0.146,2.0
19.749,0.01,0.028,6.0
19.751,0.009,-0.087,0.0
19.766,0.008,-0.202,0.0
19.622,0.007,0.333,15.0
19.634,0.006,0.218,14.0
19.755,0.006,0.104,3.0
19.745,0.005,-0.013,9.0
19.766,0.004,-0.129,0.0
19.814,0.003,-0.245,0.0
19.636,0.002,0.291,13.0
19.74,0.001,0.177,4.0
19.788,0.0,0.062,4.0
19.749,0.0,-0.055,3.0
0.0,0.0,0.0,0.0
0.0,0.0,0.0,0.0
19.644,-0.003,0.25,15.0
19.727,-0.004,0.135,1.0
19.73,-0.005,0.019,10.0
19.743,-0.006,-0.097,2.0
0.0,0.0,0.0,0.0
32.283,-0.014,-0.537,0.0
19.65,-0.009,0.208,13.0
19.72,-0.01,0.093,5.0
19.726,-0.012,-0.021,12.0
19.759,-0.013,-0.139,2.0
0.0,0.0,0.0,0.0
30.339,-0.024,-0.569,0.0
19.734,-0.017,0.167,4.0
19.706,-0.018,0.052,12.0
19.745,-0.019,-0.063,6.0
19.758,-0.021,-0.181,2.0
33.86,-0.038,-0.508,0.0
29.285,-0.035,-0.611,0.0
19.701,-0.025,0.125,10.0
19.718,-0.026,0.01,14.0
19.737,-0.028,-0.105,10.0
19.752,-0.029,-0.222,2.0
31.701,-0.049,-0.543,0.0
28.001,-0.045,-0.643,0.0
19.714,-0.034,0.084,15.0
19.713,-0.035,-0.03,14.0
19.748,-0.037,-0.146,13.0
19.755,-0.038,-0.263,2.0
30.007,-0.06,-0.576,0.0
26.303,-0.055,-0.659,0.0
19.704,-0.043,0.043,17.0
19.735,-0.045,-0.071,11.0
19.75,-0.046,-0.187,13.0
19.762,-0.048,-0.304,2.0
28.907,-0.072,-0.615,0.0
25.15,-0.065,-0.682,0.0
19.713,-0.053,0.002,17.0
19.734,-0.055,-0.112,14.0
19.749,-0.057,-0.227,14.0
19.78,-0.058,-0.345,2.0
19.812,-0.06,-0.462,0.0
23.887,-0.075,-0.697,0.0
19.718,-0.064,-0.037,17.0
19.734,-0.066,-0.153,15.0
19.744,-0.068,-0.268,14.0
19.762,-0.07,-0.386,7.0
19.756,-0.071,-0.502,2.0
19.805,-0.073,-0.619,0.0
19.724,-0.076,-0.078,14.0
19.736,-0.078,-0.193,15.0
19.748,-0.079,-0.309,14.0
19.755,-0.081,-0.426,12.0
19.769,-0.083,-0.542,10.0
19.764,-0.085,-0.658,5.0
19.724,-0.088,-0.118,17.0
19.745,-0.09,-0.234,15.0
19.759,-0.092,-0.349,12.0
19.74,-0.094,-0.466,13.0
19.76,-0.096,-0.582,15.0
19.748,-0.098,-0.698,9.0
19.72,-0.101,-0.158,17.0
19.739,-0.103,-0.274,15.0
19.736,-0.105,-0.389,16.0
19.729,-0.107,-0.506,15.0
19.756,-0.11,-0.622,15.0
19.73,-0.112,-0.737,11.0
19.73,-0.115,-0.198,17.0
19.744,-0.117,-0.313,15.0
19.732,-0.119,-0.428,16.0
19.734,-0.121,-0.546,16.0
19.735,-0.123,-0.661,15.0
19.664,-0.125,-0.774,2.0
19.743,-0.129,-0.237,17.0
19.737,-0.131,-0.352,17.0
19.728,-0.133,-0.467,16.0
19.731,-0.136,-0.584,16.0
19.741,-0.138,-0.7,15.0
19.043,-0.136,-0.787,1.0
19.742,-0.144,-0.275,17.0
19.739,-0.146,-0.391,17.0
19.73,-0.149,-0.506,17.0
19.738,-0.151,-0.623,15.0
19.735,-0.153,-0.738,10.0
18.421,-0.145,-0.797,0.0
19.75,-0.16,-0.314,17.0
19.74,-0.162,-0.429,18.0
19.742,-0.164,-0.544,13.0
19.759,-0.167,-0.662,9.0
19.639,-0.168,-0.772,3.0
17.842,-0.155,-0.806,0.0
19.763,-0.176,-0.352,14.0
19.747,-0.178,-0.467,10.0
19.757,-0.181,-0.582,4.0
19.766,-0.184,-0.7,5.0
19.051,-0.18,-0.786,1.0
17.087,-0.163,-0.805,0.0
19.775,-0.193,-0.39,7.0
25.866,-0.256,-0.661,0.0
22.634,-0.227,-0.71,1.0
19.756,-0.201,-0.737,8.0
18.514,-0.191,-0.799,0.0
16.479,-0.172,-0.808,0.0
28.558,-0.304,-0.617,0.0
24.802,-0.267,-0.681,0.0
22.009,-0.24,-0.732,0.0
19.619,-0.217,-0.769,3.0
17.812,-0.199,-0.802,0.0
16.193,-0.184,-0.824,0.0
27.304,-0.316,-0.641,0.0
23.72,-0.278,-0.695,0.0
19.856,-0.235,-0.697,0.0
19.143,-0.23,-0.786,1.0
17.142,-0.208,-0.804,0.0
15.687,-0.193,-0.827,0.0
25.975,-0.325,-0.658,0.0
22.684,-0.287,-0.706,0.0
19.793,-0.254,-0.732,5.0
18.511,-0.24,-0.794,0.0
16.741,-0.219,-0.816,0.0
15.32,-0.203,-0.836,0.0
24.981,-0.337,-0.678,0.0
22.077,-0.301,-0.727,0.0
19.77,-0.273,-0.766,1.0
17.896,-0.25,-0.8,0.0
16.24,-0.229,-0.821,0.0
14.896,-0.212,-0.84,0.0
24.099,-0.349,-0.697,0.0
21.189,-0.31,-0.736,0.0
19.224,-0.285,-0.779,0.0
17.283,-0.259,-0.803,0.0
15.78,-0.239,-0.825,0.0
14.486,-0.221,-0.842,0.0
22.709,-0.352,-0.696,0.0
20.531,-0.322,-0.749,0.0
18.67,-0.296,-0.79,0.0
16.786,-0.269,-0.809,0.0
15.445,-0.25,-0.835,0.0
14.037,-0.229,-0.841,0.0
22.043,-0.365,-0.714,2.0
19.991,-0.335,-0.764,0.0
18.17,-0.307,-0.8,0.0
16.401,-0.28,-0.819,0.0
15.049,-0.259,-0.839,0.0
13.84,-0.241,-0.852,0.0
21.621,-0.382,-0.737,2.0
19.415,-0.346,-0.775,1.0
17.532,-0.316,-0.802,0.0
15.875,-0.289,-0.82,0.0
14.685,-0.27,-0.844,0.0
13.518,-0.251,-0.856,0.0
20.815,-0.391,-0.745,0.0
18.956,-0.359,-0.788,0.0
17.146,-0.328,-0.812,0.0
15.53,-0.3,-0.828,0.0
14.285,-0.278,-0.845,0.0
13.198,-0.259,-0.857,0.0
20.207,-0.402,-0.756,0.0
18.325,-0.368,-0.792,0.0
16.611,-0.337,-0.814,0.0
15.163,-0.31,-0.833,0.0
14.069,-0.29,-0.855,0.0
12.949,-0.27,-0.862,0.0
19.659,-0.414,-0.767,1.0
17.843,-0.379,-0.8,0.0
16.145,-0.346,-0.817,0.0
14.835,-0.321,-0.839,0.0
13.675,-0.298,-0.853,0.0
12.724,-0.28,-0.868,0.0
19.25,-0.428,-0.782,0.0
17.485,-0.392,-0.811,0.0
15.788,-0.357,-0.824,0.0
14.535,-0.332,-0.845,0.0
13.431,-0.309,-0.859,0.0
12.407,-0.288,-0.865,0.0
18.726,-0.439,-0.789,0.0
17.013,-0.402,-0.816,0.0
15.464,-0.369,-0.831,0.0
14.198,-0.341,-0.847,0.0
13.067,-0.317,-0.855,0.0
12.189,-0.298,-0.869,0.0
17.894,-0.442,-0.781,1.0
16.434,-0.409,-0.813,0.0
15.141,-0.38,-0.837,0.0
13.992,-0.354,-0.856,0.0
12.819,-0.327,-0.859,0.0
12.137,-0.312,-0.884,0.0
17.733,-0.46,-0.801,1.0
16.11,-0.421,-0.821,0.0
14.823,-0.391,-0.841,0.0
13.627,-0.362,-0.853,0.0
12.645,-0.338,-0.865,0.0
11.849,-0.32,-0.88,0.0
17.57,-0.478,-0.819,1.0
17.794,-0.488,-0.932,0.0
14.465,-0.4,-0.841,0.0
13.402,-0.373,-0.859,0.0
12.48,-0.35,-0.872,0.0
11.731,-0.332,-0.888,0.0
17.722,-0.505,-0.851,3.0
15.404,-0.442,-0.829,0.0
14.251,-0.412,-0.849,0.0
17.778,-0.518,-1.164,0.0
12.327,-0.362,-0.879,0.0
11.555,-0.342,-0.891,0.0
17.583,-0.524,-0.868,4.0
15.131,-0.454,-0.835,0.0
17.821,-0.539,-1.086,0.0
17.76,-0.541,-1.187,0.0
12.104,-0.371,-0.879,0.0
11.405,-0.353,-0.895,0.0
16.222,-0.505,-0.823,0.0
14.877,-0.467,-0.841,0.0
13.628,-0.431,-0.849,0.0
12.726,-0.405,-0.868,0.0
11.938,-0.382,-0.883,0.0
11.233,-0.362,-0.896,0.0
15.872,-0.516,-0.826,0.0
14.587,-0.477,-0.843,0.0
13.293,-0.438,-0.845,0.0
12.503,-0.415,-0.869,0.0
11.787,-0.394,-0.887,0.0
11.048,-0.372,-0.896,0.0
15.568,-0.527,-0.83,0.0
14.322,-0.488,-0.846,0.0
13.121,-0.45,-0.851,0.0
12.343,-0.426,-0.873,0.0
11.606,-0.404,-0.888,0.0
10.886,-0.381,-0.896,0.0
15.318,-0.54,-0.835,0.0
14.087,-0.5,-0.849,0.0
13.033,-0.465,-0.861,0.0
12.173,-0.437,-0.876,0.0
11.457,-0.414,-0.891,0.0
10.786,-0.393,-0.901,0.0
15.053,-0.551,-0.839,0.0
13.84,-0.51,-0.851,0.0
12.812,-0.475,-0.861,0.0
12.08,-0.451,-0.883,0.0
11.323,-0.425,-0.893,0.0
10.684,-0.404,-0.905,0.0
14.789,-0.562,-0.841,0.0
13.539,-0.518,-0.848,0.0
12.677,-0.488,-0.867,0.0
11.948,-0.463,-0.887,0.0
11.141,-0.434,-0.892,0.0
10.531,-0.413,-0.904,0.0
14.564,-0.574,-0.845,0.0
13.387,-0.531,-0.853,0.0
12.514,-0.499,-0.87,0.0
11.729,-0.471,-0.884,0.0
11.02,-0.445,-0.894,0.0
10.403,-0.423,-0.904,0.0
14.34,-0.586,-0.847,0.0
13.143,-0.54,-0.851,0.0
12.358,-0.511,-0.872,0.0
11.61,-0.483,-0.887,0.0
10.954,-0.458,-0.9,0.0
10.342,-0.435,-0.91,0.0
14.091,-0.596,-0.847,0.0
13.053,-0.555,-0.859,0.0
12.208,-0.522,-0.874,0.0
11.452,-0.493,-0.887,0.0
10.818,-0.468,-0.9,0.0
10.264,-0.447,-0.913,0.0
13.903,-0.608,-0.849,0.0
12.958,-0.57,-0.866,0.0
12.121,-0.536,-0.879,0.0
11.355,-0.505,-0.89,0.0
10.734,-0.48,-0.903,0.0
10.17,-0.458,-0.915,0.0
13.625,-0.616,-0.845,0.0
12.747,-0.579,-0.864,0.0
11.983,-0.548,-0.881,0.0
11.287,-0.519,-0.895,0.0
10.606,-0.49,-0.903,0.0
10.058,-0.468,-0.914,0.0
13.486,-0.629,-0.849,0.0
12.621,-0.592,-0.866,0.0
11.849,-0.559,-0.881,0.0
11.135,-0.528,-0.893,0.0
10.484,-0.5,-0.901,0.0
9.983,-0.479,-0.916,0.0
13.351,-0.643,-0.852,0.0
12.506,-0.605,-0.869,0.0
11.816,-0.575,-0.889,0.0
11.006,-0.538,-0.892,0.0
10.414,-0.512,-0.904,0.0
9.907,-0.49,-0.917,0.0
13.207,-0.655,-0.853,0.0
12.384,-0.617,-0.871,0.0
11.662,-0.585,-0.887,0.0
10.907,-0.55,-0.893,0.0
10.395,-0.527,-0.911,0.0
9.823,-0.5,-0.917,0.0
13.105,-0.669,-0.857,0.0
12.282,-0.63,-0.873,0.0
11.584,-0.598,-0.89,0.0
10.902,-0.565,-0.901,0.0
10.251,-0.534,-0.906,0.0
9.744,-0.511,-0.917,0.0
12.97,-0.682,-0.858,0.0
12.243,-0.647,-0.88,0.0
11.515,-0.611,-0.893,0.0
10.821,-0.577,-0.902,0.0
10.209,-0.547,-0.91,0.0
9.696,-0.523,-0.92,0.0
12.867,-0.695,-0.86,0.0
12.091,-0.657,-0.877,0.0
11.385,-0.621,-0.891,0.0
10.677,-0.586,-0.897,0.0
10.126,-0.558,-0.909,0.0
9.629,-0.533,-0.92,0.0
12.808,-0.711,-0.864,0.0
12.016,-0.671,-0.879,0.0
11.366,-0.637,-0.897,0.0
10.653,-0.6,-0.902,0.0
10.045,-0.569,-0.908,0.0
9.55,-0.543,-0.918,0.0
12.712,-0.725,-0.866,0.0
11.937,-0.684,-0.881,0.0
11.309,-0.651,-0.899,0.0
10.556,-0.61,-0.9,0.0
9.997,-0.581,-0.91,0.0
9.495,-0.554,-0.918,0.0
12.634,-0.739,-0.868,0.0
11.896,-0.699,-0.884,0.0
11.203,-0.661,-0.897,0.0
10.548,-0.626,-0.906,0.0
9.982,-0.595,-0.914,0.0
9.46,-0.567,-0.92,0.0
12.541,-0.752,-0.868,0.0
11.835,-0.713,-0.886,0.0
11.136,-0.674,-0.897,0.0
10.434,-0.635,-0.901,0.0
9.921,-0.606,-0.913,0.0
9.43,-0.579,-0.922,0.0
12.49,-0.768,-0.87,0.0
11.813,-0.729,-0.89,0.0
11.138,-0.691,-0.903,0.0
10.441,-0.651,-0.907,0.0
9.87,-0.618,-0.913,0.0
9.403,-0.591,-0.924,0.0
12.479,-0.786,-0.875,0.0
11.738,-0.742,-0.89,0.0
11.083,-0.704,-0.903,0.0
10.396,-0.663,-0.907,0.0
9.845,-0.631,-0.915,0.0
9.365,-0.603,-0.924,0.0
12.427,-0.801,-0.876,0.0
11.699,-0.757,-0.891,0.0
11.054,-0.718,-0.905,0.0
10.35,-0.675,-0.907,0.0
9.822,-0.644,-0.916,0.0
9.351,-0.616,-0.926,0.0
12.376,-0.815,-0.877,0.0
11.64,-0.77,-0.891,0.0
10.956,-0.728,-0.9,0.0
10.326,-0.689,-0.908,0.0
9.792,-0.656,-0.917,0.0
9.318,-0.627,-0.926,0.0
12.364,-0.833,-0.88,0.0
11.656,-0.788,-0.896,0.0
10.938,-0.742,-0.902,0.0
10.302,-0.702,-0.909,0.0
9.739,-0.667,-0.915,0.0
9.303,-0.64,-0.926,0.0
12.302,-0.846,-0.879,0.0
11.608,-0.801,-0.895,0.0
10.983,-0.761,-0.909,0.0
10.234,-0.712,-0.905,0.0
9.745,-0.681,-0.918,0.0
9.285,-0.652,-0.927,0.0
12.257,-0.861,-0.878,0.0
11.497,-0.811,-0.889,0.0
10.815,-0.766,-0.897,0.0
10.248,-0.728,-0.909,0.0
9.768,-0.697,-0.922,0.0
9.262,-0.664,-0.926,0.0
12.166,-0.872,-0.874,0.0
11.534,-0.83,-0.893,0.0
10.838,-0.783,-0.901,0.0
10.289,-0.746,-0.914,0.0
9.733,-0.708,-0.92,0.0
9.26,-0.677,-0.927,0.0
12.258,-0.896,-0.882,0.0
11.505,-0.844,-0.893,0.0
10.885,-0.801,-0.906,0.0
10.242,-0.757,-0.911,0.0
9.728,-0.722,-0.92,0.0
9.241,-0.688,-0.927,0.0
12.232,-0.911,-0.882,0.0
11.34,-0.848,-0.881,0.0
10.856,-0.815,-0.904,0.0
10.27,-0.773,-0.914,0.0
9.69,-0.733,-0.917,0.0
9.262,-0.703,-0.929,0.0
12.188,-0.925,-0.879,0.0
11.332,-0.863,-0.881,0.0
10.923,-0.835,-0.91,0.0
10.182,-0.781,-0.907,0.0
9.695,-0.746,-0.918,0.0
9.204,-0.711,-0.923,0.0
12.254,-0.947,-0.884,0.0
11.492,-0.891,-0.893,0.0
10.743,-0.836,-0.895,0.0
10.224,-0.798,-0.91,0.0
9.698,-0.76,-0.918,0.0
9.215,-0.725,-0.924,0.0
12.251,-0.963,-0.883,0.0
11.484,-0.906,-0.892,0.0
10.856,-0.859,-0.904,0.0
10.27,-0.816,-0.914,0.0
9.716,-0.774,-0.919,0.0
9.25,-0.74,-0.927,0.0
12.263,-0.98,-0.883,0.0
11.459,-0.919,-0.889,0.0
10.891,-0.877,-0.906,0.0
10.259,-0.829,-0.912,0.0
9.706,-0.787,-0.917,0.0
9.289,-0.756,-0.93,0.0
12.259,-0.997,-0.882,0.0
11.438,-0.933,-0.886,0.0
10.886,-0.891,-0.904,0.0
10.332,-0.848,-0.917,0.0
9.711,-0.8,-0.916,0.0
9.256,-0.765,-0.925,0.0
12.319,-1.017,-0.884,0.0
11.522,-0.955,-0.891,0.0
10.883,-0.905,-0.902,0.0
10.27,-0.856,-0.91,0.0
9.708,-0.812,-0.914,0.0
9.263,-0.778,-0.924,0.0
12.3,-1.032,-0.88,0.0
11.577,-0.974,-0.893,0.0
10.961,-0.925,-0.906,0.0
10.334,-0.875,-0.913,0.0
9.846,-0.836,-0.925,0.0
9.343,-0.796,-0.93,0.0
12.321,-1.049,-0.879,0.0
11.577,-0.989,-0.89,0.0
10.955,-0.938,-0.903,0.0
10.35,-0.889,-0.912,0.0
9.775,-0.843,-0.916,0.0
9.367,-0.81,-0.93,0.0
12.343,-1.066,-0.877,0.0
11.723,-1.016,-0.898,0.0
11.023,-0.958,-0.905,0.0
10.424,-0.908,-0.915,0.0
9.894,-0.865,-0.924,0.0
9.402,-0.824,-0.93,0.0
12.42,-1.088,-0.878,0.0
11.74,-1.031,-0.895,0.0
11.019,-0.971,-0.901,0.0
10.495,-0.927,-0.918,0.0
9.958,-0.882,-0.926,0.0
9.426,-0.838,-0.929,0.0
12.459,-1.106,-0.877,0.0
11.779,-1.049,-0.894,0.0
11.086,-0.99,-0.903,0.0
10.504,-0.941,-0.915,0.0
9.973,-0.896,-0.924,0.0
9.464,-0.852,-0.929,0.0
12.522,-1.127,-0.876,0.0
11.878,-1.072,-0.897,0.0
11.117,-1.006,-0.901,0.0
10.49,-0.952,-0.909,0.0
10.008,-0.91,-0.923,0.0
9.51,-0.868,-0.93,0.0
12.616,-1.15,-0.877,0.0
11.936,-1.091,-0.896,0.0
11.198,-1.026,-0.902,0.0
10.546,-0.969,-0.909,0.0
10.018,-0.923,-0.919,0.0
9.523,-0.88,-0.926,0.0
12.641,-1.166,-0.873,0.0
11.977,-1.108,-0.893,0.0
11.236,-1.042,-0.9,0.0
10.617,-0.987,-0.91,0.0
10.092,-0.941,-0.92,0.0
9.597,-0.897,-0.929,0.0
12.809,-1.196,-0.878,0.0
12.028,-1.126,-0.89,0.0
11.268,-1.057,-0.896,0.0
10.677,-1.004,-0.909,0.0
10.118,-0.954,-0.917,0.0
9.659,-0.913,-0.929,0.0
12.963,-1.224,-0.881,0.0
12.107,-1.146,-0.89,0.0
11.381,-1.08,-0.899,0.0
10.748,-1.022,-0.909,0.0
10.171,-0.97,-0.917,0.0
9.72,-0.929,-0.93,0.0
13.008,-1.241,-0.877,0.0
12.192,-1.166,-0.889,0.0
11.449,-1.098,-0.897,0.0
10.808,-1.039,-0.908,0.0
10.231,-0.986,-0.916,0.0
9.738,-0.94,-0.925,0.0
13.061,-1.259,-0.872,0.0
12.295,-1.188,-0.889,0.0
11.577,-1.121,-0.9,0.0
10.898,-1.058,-0.908,0.0
10.294,-1.002,-0.915,0.0
9.786,-0.955,-0.923,0.0
13.276,-1.293,-0.878,0.0
12.343,-1.205,-0.884,0.0
11.72,-1.146,-0.904,0.0
10.95,-1.073,-0.905,0.0
10.413,-1.023,-0.918,0.0
9.896,-0.975,-0.927,0.0
13.296,-1.307,-0.871,0.0
12.455,-1.227,-0.884,0.0
11.766,-1.162,-0.899,0.0
10.999,-1.088,-0.902,0.0
10.493,-1.041,-0.918,0.0
9.977,-0.992,-0.928,0.0
13.48,-1.338,-0.873,0.0
12.599,-1.253,-0.885,0.0
11.873,-1.183,-0.899,0.0
11.116,-1.11,-0.903,0.0
10.594,-1.06,-0.919,0.0
10.015,-1.004,-0.924,0.0
13.591,-1.361,-0.87,0.0
12.673,-1.271,-0.88,0.0
11.958,-1.202,-0.896,0.0
11.181,-1.126,-0.9,0.0
10.666,-1.076,-0.917,0.0
10.117,-1.023,-0.925,0.0
13.797,-1.393,-0.873,0.0
12.819,-1.296,-0.88,0.0
12.067,-1.223,-0.895,0.0
11.325,-1.15,-0.902,0.0
10.689,-1.087,-0.91,0.0
10.156,-1.035,-0.92,0.0
13.925,-1.417,-0.869,0.0
13.005,-1.326,-0.883,0.0
12.174,-1.243,-0.893,0.0
11.414,-1.168,-0.9,0.0
10.821,-1.109,-0.912,0.0
10.262,-1.054,-0.921,0.0
14.122,-1.448,-0.87,0.0
13.05,-1.34,-0.875,0.0
12.226,-1.258,-0.886,0.0
11.59,-1.194,-0.904,0.0
10.865,-1.122,-0.907,0.0
10.367,-1.072,-0.922,0.0
14.254,-1.472,-0.866,0.0
13.181,-1.363,-0.872,0.0
12.389,-1.283,-0.887,0.0
11.66,-1.21,-0.899,0.0
11.026,-1.146,-0.91,0.0
10.449,-1.088,-0.919,0.0
14.383,-1.495,-0.861,0.0
13.401,-1.395,-0.874,0.0
12.574,-1.311,-0.889,0.0
11.8,-1.232,-0.899,0.0
11.115,-1.163,-0.907,0.0
10.527,-1.103,-0.917,0.0
14.587,-1.526,-0.859,0.0
13.609,-1.426,-0.875,0.0
12.648,-1.327,-0.882,0.0
11.941,-1.255,-0.899,0.0
11.219,-1.181,-0.905,0.0
10.652,-1.123,-0.917,0.0
14.836,-1.561,-0.86,0.0
13.832,-1.458,-0.876,0.0
12.808,-1.352,-0.881,0.0
12.024,-1.271,-0.893,0.0
11.276,-1.193,-0.899,0.0
10.727,-1.137,-0.913,0.0
15.103,-1.598,-0.861,0.0
13.951,-1.478,-0.87,0.0
12.992,-1.378,-0.881,0.0
12.176,-1.294,-0.892,0.0
11.418,-1.215,-0.899,0.0
10.837,-1.154,-0.912,0.0
15.328,-1.63,-0.858,0.0
14.143,-1.506,-0.868,0.0
13.229,-1.41,-0.883,0.0
12.349,-1.318,-0.893,0.0
11.637,-1.244,-0.904,0.0
10.92,-1.169,-0.907,0.0
15.459,-1.652,-0.849,0.0
14.322,-1.532,-0.864,0.0
13.4,-1.435,-0.881,0.0
12.435,-1.333,-0.886,0.0
11.755,-1.262,-0.901,0.0
11.061,-1.189,-0.907,0.0
15.73,-1.688,-0.848,0.0
14.567,-1.565,-0.864,0.0
13.552,-1.457,-0.876,0.0
12.633,-1.36,-0.886,0.0
11.981,-1.291,-0.905,0.0
11.166,-1.205,-0.904,0.0
16.112,-1.736,-0.851,0.0
14.78,-1.594,-0.86,0.0
13.807,-1.49,-0.878,0.0
12.837,-1.387,-0.886,0.0
12.033,-1.302,-0.896,0.0
11.314,-1.225,-0.903,0.0
16.322,-1.765,-0.844,0.0
15.092,-1.633,-0.862,0.0
13.968,-1.513,-0.873,0.0
13.005,-1.41,-0.884,0.0
12.191,-1.323,-0.894,0.0
11.438,-1.242,-0.901,0.0
16.515,-1.791,-0.836,0.0
15.371,-1.668,-0.861,0.0
14.171,-1.539,-0.87,0.0
13.232,-1.439,-0.884,0.0
12.335,-1.342,-0.891,0.0
11.64,-1.268,-0.903,0.0
16.956,-1.844,-0.839,0.0
15.566,-1.694,-0.854,0.0
14.391,-1.567,-0.867,0.0
13.335,-1.453,-0.876,0.0
12.487,-1.362,-0.888,0.0
11.816,-1.29,-0.904,0.0
17.218,-1.877,-0.833,0.0
15.85,-1.729,-0.852,0.0
14.652,-1.599,-0.866,0.0
13.642,-1.49,-0.881,0.0
12.692,-1.387,-0.887,0.0
11.995,-1.312,-0.903,0.0
17.412,-1.902,-0.822,0.0
16.132,-1.763,-0.848,0.0
14.902,-1.629,-0.863,0.0
13.863,-1.516,-0.878,0.0
12.915,-1.414,-0.888,0.0
12.092,-1.324,-0.896,0.0
17.779,-1.945,-0.818,0.0
16.38,-1.792,-0.842,0.0
15.152,-1.659,-0.859,0.0
14.071,-1.541,-0.875,0.0
13.133,-1.439,-0.887,0.0
12.291,-1.348,-0.896,0.0
17.851,-1.955,-0.8,0.0
16.854,-1.846,-0.846,0.0
15.46,-1.694,-0.858,0.0
14.287,-1.566,-0.871,0.0
13.268,-1.455,-0.88,0.0
12.398,-1.36,-0.889,0.0
18.708,-2.05,-0.816,0.0
17.058,-1.87,-0.835,0.0
15.75,-1.727,-0.855,0.0
14.554,-1.596,-0.87,0.0
13.583,-1.49,-0.884,0.0
12.661,-1.39,-0.892,0.0
19.006,-2.083,-0.806,0.0
17.291,-1.896,-0.825,0.0
16.023,-1.757,-0.85,0.0
14.843,-1.628,-0.868,0.0
13.825,-1.517,-0.883,0.0
12.873,-1.413,-0.891,0.0
19.561,-2.144,-0.805,0.0
17.719,-1.942,-0.824,0.0
16.237,-1.78,-0.842,0.0
15.089,-1.654,-0.864,0.0
13.981,-1.533,-0.875,0.0
13.063,-1.433,-0.888,0.0
19.976,-2.188,-0.797,0.0
17.876,-1.958,-0.809,0.0
16.656,-1.825,-0.842,0.0
15.347,-1.681,-0.86,0.0
14.228,-1.559,-0.873,0.0
13.229,-1.45,-0.882,0.0
20.218,-2.213,-0.782,0.0
18.36,-2.009,-0.807,0.0
17.005,-1.861,-0.838,0.0
15.688,-1.717,-0.859,0.0
14.497,-1.586,-0.871,0.0
13.557,-1.483,-0.887,0.0
0.0,0.0,0.0,0.0
19.162,-2.094,-0.819,0.0
17.32,-1.892,-0.832,0.0
15.92,-1.739,-0.851,0.0
14.816,-1.618,-0.871,0.0
13.807,-1.508,-0.886,0.0
21.393,-2.334,-0.773,0.0
19.425,-2.119,-0.805,0.0
17.573,-1.916,-0.822,0.0
16.226,-1.769,-0.847,0.0
15.057,-1.641,-0.866,0.0
13.979,-1.523,-0.878,0.0
21.947,-2.389,-0.765,0.0
19.758,-2.15,-0.793,0.0
17.969,-1.955,-0.817,0.0
16.591,-1.804,-0.844,0.0
15.396,-1.674,-0.866,0.0
14.181,-1.541,-0.873,0.0
22.283,-2.419,-0.748,0.0
20.354,-2.209,-0.791,0.0
18.364,-1.992,-0.812,0.0
16.969,-1.84,-0.842,0.0
15.655,-1.697,-0.86,0.0
14.442,-1.565,-0.87,0.0
23.341,-2.526,-0.753,0.0
20.71,-2.24,-0.779,0.0
19.225,-2.079,-0.825,0.0
17.194,-1.858,-0.831,0.0
15.979,-1.726,-0.857,0.0
14.713,-1.589,-0.868,0.0
23.617,-2.547,-0.732,0.0
0.0,0.0,0.0,0.0
19.305,-2.08,-0.804,0.0
17.44,-1.878,-0.82,0.0
16.301,-1.754,-0.853,0.0
15.088,-1.623,-0.87,0.0
24.327,-2.614,-0.723,0.0
21.858,-2.347,-0.765,0.0
19.919,-2.137,-0.803,0.0
17.827,-1.911,-0.815,0.0
16.548,-1.773,-0.845,0.0
15.376,-1.647,-0.867,0.0
24.978,-2.672,-0.71,0.0
22.316,-2.385,-0.753,0.0
20.375,-2.176,-0.795,0.0
18.257,-1.948,-0.811,0.0
16.996,-1.813,-0.846,0.0
15.555,-1.658,-0.857,0.0
26.319,-2.802,-0.714,0.0
23.16,-2.464,-0.751,0.0
20.853,-2.216,-0.787,0.0
18.894,-2.006,-0.815,0.0
17.22,-1.827,-0.835,0.0
16.065,-1.703,-0.864,0.0
26.463,-2.803,-0.684,0.0
23.579,-2.495,-0.734,0.0
0.0,0.0,0.0,0.0
19.2,-2.027,-0.803,0.0
17.458,-1.842,-0.823,0.0
16.283,-1.716,-0.855,0.0
27.017,-2.845,-0.663,0.0
23.927,-2.517,-0.714,0.0
21.784,-2.289,-0.766,0.0
19.791,-2.077,-0.803,0.0
17.837,-1.87,-0.818,0.0
16.574,-1.736,-0.849,0.0
28.534,-2.987,-0.664,0.0
25.198,-2.634,-0.72,0.0
22.211,-2.319,-0.753,0.0
20.099,-2.096,-0.79,0.0
18.279,-1.904,-0.815,0.0
16.893,-1.758,-0.843,0.0
0.0,0.0,0.0,0.0
0.0,0.0,0.0,0.0
22.861,-2.371,-0.745,0.0
20.504,-2.123,-0.779,0.0
18.788,-1.944,-0.814,0.0
17.16,-1.773,-0.834,0.0
0.0,0.0,0.0,0.0
26.32,-2.713,-0.685,0.0
23.699,-2.44,-0.742,0.0
21.083,-2.167,-0.774,0.0
0.0,0.0,0.0,0.0
17.496,-1.794,-0.829,0.0
31.201,-3.197,-0.607,0.0
27.493,-2.812,-0.681,0.0
0.0,0.0,0.0,0.0
21.779,-2.222,-0.772,0.0
19.556,-1.992,-0.798,0.0
17.917,-1.822,-0.826,0.0
0.0,0.0,0.0,0.0
27.911,-2.832,-0.656,0.0
24.818,-2.514,-0.715,0.0
22.212,-2.247,-0.76,0.0
19.976,-2.018,-0.79,0.0
18.292,-1.845,-0.82,0.0
0.0,0.0,0.0,0.0
0.0,0.0,0.0,0.0
0.0,0.0,0.0,0.0
22.99,-2.305,-0.758,0.0
20.526,-2.054,-0.786,0.0
18.717,-1.87,-0.816,0.0
0.0,0.0,0.0,0.0
0.0,0.0,0.0,0.0
26.286,-2.615,-0.692,0.0
23.22,-2.306,-0.737,0.0
20.887,-2.071,-0.774,0.0
19.228,-1.903,-0.815,0.0
0.0,0.0,0.0,0.0
0.0,0.0,0.0,0.0
27.248,-2.685,-0.684,0.0
23.976,-2.358,-0.732,0.0
21.668,-2.127,-0.776,0.0
19.61,-1.922,-0.807,0.0
37.737,-3.695,-0.501,0.0
31.805,-3.108,-0.59,0.0
0.0,0.0,0.0,0.0
24.692,-2.403,-0.723,0.0
22.074,-2.144,-0.764,0.0
20.117,-1.95,-0.803,0.0
0.0,0.0,0.0,0.0
32.812,-3.172,-0.57,0.0
28.639,-2.763,-0.649,0.0
0.0,0.0,0.0,0.0
0.0,0.0,0.0,0.0
20.415,-1.957,-0.791,0.0
0.0,0.0,0.0,0.0
0.0,0.0,0.0,0.0
29.249,-2.79,-0.629,0.0
0.0,0.0,0.0,0.0
23.238,-2.207,-0.749,0.0
20.793,-1.97,-0.781,0.0
42.6,-4.034,-0.413,0.0
0.0,0.0,0.0,0.0
0.0,0.0,0.0,0.0
26.765,-2.517,-0.689,0.0
23.738,-2.227,-0.737,0.0
21.449,-2.008,-0.78,0.0
0.0,0.0,0.0,0.0
38.012,-3.547,-0.527,0.0
32.135,-2.991,-0.616,0.0
0.0,0.0,0.0,0.0
24.357,-2.256,-0.728,0.0
21.716,-2.007,-0.765,0.0
0.0,0.0,0.0,0.0
38.499,-3.546,-0.489,0.0
0.0,0.0,0.0,0.0
27.596,-2.528,-0.647,0.0
25.043,-2.289,-0.721,0.0
22.287,-2.032,-0.76,0.0
0.0,0.0,0.0,0.0
38.939,-3.538,-0.452,0.0
33.001,-2.991,-0.558,0.0
28.919,-2.614,-0.646,0.0
25.538,-2.302,-0.707,0.0
0.0,0.0,0.0,0.0
48.779,-4.383,-0.252,0.0
41.689,-3.734,-0.437,0.0
0.0,0.0,0.0,0.0
29.734,-2.649,-0.632,0.0
26.441,-2.349,-0.702,0.0
23.668,-2.097,-0.755,0.0
0.0,0.0,0.0,0.0
0.0,0.0,0.0,0.0
0.0,0.0,0.0,0.0
0.0,0.0,0.0,0.0
0.0,0.0,0.0,0.0
23.771,-2.074,-0.733,0.0
0.0,0.0,0.0,0.0
0.0,0.0,0.0,0.0
0.0,0.0,0.0,0.0
0.0,0.0,0.0,0.0
0.0,0.0,0.0,0.0
0.0,0.0,0.0,0.0
0.0,0.0,0.0,0.0
0.0,0.0,0.0,0.0
38.34,-3.268,-0.484,0.0
32.923,-2.797,-0.595,0.0
0.0,0.0,0.0,0.0
25.332,-2.139,-0.728,0.0
0.0,0.0,0.0,0.0
0.0,0.0,0.0,0.0
39.171,-3.283,-0.455,0.0
33.808,-2.824,-0.576,0.0
0.0,0.0,0.0,0.0
25.547,-2.12,-0.708,0.0
0.0,0.0,0.0,0.0
0.0,0.0,0.0,0.0
41.544,-3.42,-0.44,0.0
34.473,-2.828,-0.553,0.0
0.0,0.0,0.0,0.0
26.022,-2.12,-0.696,0.0
0.0,0.0,0.0,0.0
0.0,0.0,0.0,0.0
42.197,-3.411,-0.407,0.0
0.0,0.0,0.0,0.0
30.313,-2.433,-0.619,0.0
26.931,-2.153,-0.694,0.0
0.0,0.0,0.0,0.0
0.0,0.0,0.0,0.0
0.0,0.0,0.0,0.0
0.0,0.0,0.0,0.0
30.619,-2.41,-0.597,0.0
27.316,-2.142,-0.679,0.0
99.78,-7.816,0.292,2.0
0.0,0.0,0.0,0.0
0.0,0.0,0.0,0.0
0.0,0.0,0.0,0.0
0.0,0.0,0.0,0.0
27.816,-2.136,-0.665,0.0
99.324,-7.621,0.381,10.0
0.0,0.0,0.0,0.0
0.0,0.0,0.0,0.0
39.082,-2.962,-0.482,0.0
32.552,-2.457,-0.576,0.0
28.195,-2.12,-0.65,0.0
99.864,-7.5,0.471,11.0
0.0,0.0,0.0,0.0
0.0,0.0,0.0,0.0
39.931,-2.961,-0.457,0.0
32.797,-2.421,-0.551,0.0
29.451,-2.165,-0.653,0.0
100.078,-7.351,0.558,11.0
0.0,0.0,0.0,0.0
0.0,0.0,0.0,0.0
41.796,-3.029,-0.443,0.0
0.0,0.0,0.0,0.0
0.0,0.0,0.0,0.0
100.09,-7.182,0.641,10.0
0.0,0.0,0.0,0.0
0.0,0.0,0.0,0.0
0.0,0.0,0.0,0.0
0.0,0.0,0.0,0.0
0.0,0.0,0.0,0.0
100.084,-7.01,0.72,8.0
99.003,-6.902,0.18,1.0
0.0,0.0,0.0,0.0
0.0,0.0,0.0,0.0
36.583,-2.514,-0.527,0.0
31.327,-2.143,-0.619,0.0
99.995,-6.829,0.797,1.0
99.087,-6.733,0.256,3.0
0.0,0.0,0.0,0.0
0.0,0.0,0.0,0.0
37.112,-2.485,-0.507,0.0
31.697,-2.112,-0.603,0.0
0.0,0.0,0.0,0.0
99.668,-6.595,0.331,17.0
0.0,0.0,0.0,0.0
0.0,0.0,0.0,0.0
37.233,-2.426,-0.482,0.0
0.0,0.0,0.0,0.0
125.208,-8.104,1.179,34.0
108.462,-6.982,0.437,2.0
0.0,0.0,0.0,0.0
0.0,0.0,0.0,0.0
0.0,0.0,0.0,0.0
32.952,-2.077,-0.581,0.0
147.944,-9.308,1.493,17.0
108.798,-6.807,0.51,3.0
0.0,0.0,0.0,0.0
0.0,0.0,0.0,0.0
0.0,0.0,0.0,0.0
32.859,-2.01,-0.558,0.0
149.838,-9.15,1.609,16.0
109.422,-6.643,0.584,2.0
0.0,0.0,0.0,0.0
0.0,0.0,0.0,0.0
0.0,0.0,0.0,0.0
0.0,0.0,0.0,0.0
149.987,-8.878,1.701,14.0
0.0,0.0,0.0,0.0
0.0,0.0,0.0,0.0
0.0,0.0,0.0,0.0
0.0,0.0,0.0,0.0
0.0,0.0,0.0,0.0
140.708,-8.059,1.679,15.0
114.854,-6.536,0.749,6.0
0.0,0.0,0.0,0.0
53.557,-3.009,-0.235,0.0
0.0,0.0,0.0,0.0
0.0,0.0,0.0,0.0
101.532,-5.618,1.268,2.0
101.436,-5.575,0.717,151.0
0.0,0.0,0.0,0.0
0.0,0.0,0.0,0.0
0.0,0.0,0.0,0.0
36.594,-1.959,-0.538,0.0
101.512,-5.419,1.32,28.0
0.0,0.0,0.0,0.0
0.0,0.0,0.0,0.0
0.0,0.0,0.0,0.0
44.445,-2.309,-0.391,0.0
0.0,0.0,0.0,0.0
0.0,0.0,0.0,0.0
101.501,-5.184,0.817,6.0
0.0,0.0,0.0,0.0
0.0,0.0,0.0,0.0
0.0,0.0,0.0,0.0
37.229,-1.847,-0.512,0.0
0.0,0.0,0.0,0.0
101.572,-4.987,0.862,150.0
0.0,0.0,0.0,0.0
0.0,0.0,0.0,0.0
0.0,0.0,0.0,0.0
37.969,-1.809,-0.507,0.0
0.0,0.0,0.0,0.0
101.528,-4.783,0.902,151.0
0.0,0.0,0.0,0.0
0.0,0.0,0.0,0.0
0.0,0.0,0.0,0.0
37.776,-1.724,-0.49,0.0
0.0,0.0,0.0,0.0
0.0,0.0,0.0,0.0
0.0,0.0,0.0,0.0
0.0,0.0,0.0,0.0
0.0,0.0,0.0,0.0
38.111,-1.662,-0.481,0.0
19.762,-0.192,0.305,0.0
168.821,-1.582,1.671,14.0
0.0,0.0,0.0,0.0
19.815,-0.171,-0.025,0.0
19.742,-0.163,-0.135,13.0
19.735,-0.156,-0.244,17.0
169.228,-1.289,2.565,12.0
19.745,-0.143,0.189,1.0
19.76,-0.136,0.079,4.0
19.721,-0.129,-0.031,10.0
19.716,-0.122,-0.141,16.0
19.737,-0.115,-0.251,17.0
19.685,-0.108,0.291,9.0
19.715,-0.101,0.182,15.0
19.706,-0.094,0.073,13.0
19.698,-0.087,-0.038,15.0
19.715,-0.08,-0.148,17.0
19.751,-0.073,-0.258,15.0
19.653,-0.066,0.284,10.0
19.688,-0.059,0.175,13.0
19.691,-0.052,0.065,15.0
19.705,-0.045,-0.046,15.0
19.748,-0.038,-0.156,13.0
19.748,-0.031,-0.266,0.0
19.631,-0.024,0.275,14.0
19.713,-0.017,0.167,5.0
19.758,-0.01,0.057,4.0
19.738,-0.004,-0.054,7.0
19.763,0.002,-0.164,0.0
19.778,0.009,-0.275,1.0
19.631,0.016,0.267,15.0
19.752,0.022,0.158,19.0
19.748,0.029,0.048,16.0
19.742,0.037,-0.063,58.0
19.766,0.044,-0.173,68.0
19.762,0.05,-0.284,53.0
19.626,0.057,0.257,14.0
19.669,0.064,0.148,11.0
19.747,0.071,0.038,25.0
19.752,0.078,-0.073,7.0
19.768,0.085,-0.183,0.0
34.662,0.161,-0.516,0.0
19.626,0.098,0.247,13.0
19.655,0.105,0.138,14.0
19.642,0.112,0.028,13.0
19.665,0.119,-0.083,9.0
19.691,0.125,-0.193,2.0
34.116,0.23,-0.526,0.0
19.652,0.139,0.237,14.0
19.652,0.146,0.127,12.0
19.642,0.153,0.017,17.0
19.629,0.159,-0.094,14.0
19.645,0.166,-0.204,15.0
19.654,0.173,-0.314,14.0
19.68,0.18,0.225,10.0
19.683,0.187,0.115,10.0
19.659,0.194,0.005,14.0
19.621,0.2,-0.106,16.0
19.643,0.206,-0.216,17.0
19.65,0.213,-0.326,14.0
19.763,0.222,0.214,27.0
19.763,0.228,0.103,13.0
19.692,0.234,-0.007,3.0
19.649,0.24,-0.119,15.0
19.645,0.247,-0.229,16.0
19.658,0.254,-0.339,13.0
19.757,0.262,0.201,19.0
19.779,0.269,0.09,0.0
52.948,0.738,-0.054,1.0
19.705,0.281,-0.132,2.0
19.679,0.287,-0.243,7.0
19.721,0.294,-0.354,1.0
163.379,2.501,1.551,10.0
55.113,0.861,0.214,0.0
52.503,0.837,-0.09,4.0
39.953,0.65,-0.297,0.0
33.6,0.558,-0.438,0.0
28.995,0.491,-0.541,0.0
55.17,0.955,0.484,73.0
55.161,0.973,0.173,65.0
52.32,0.94,-0.129,1.0
39.469,0.721,-0.323,1.0
31.803,0.591,-0.439,0.0
29.289,0.554,-0.569,0.0
113.937,2.2,0.912,11.0
0.0,0.0,0.0,0.0
48.823,0.974,-0.158,0.0
38.312,0.776,-0.343,3.0
31.271,0.643,-0.456,1.0
26.307,0.549,-0.532,0.0
113.27,2.41,0.817,17.0
0.0,0.0,0.0,0.0
44.088,0.966,-0.178,2.0
36.635,0.814,-0.358,3.0
30.037,0.676,-0.462,2.0
25.347,0.579,-0.533,0.0
70.851,1.646,0.452,8.0
0.0,0.0,0.0,0.0
0.0,0.0,0.0,0.0
36.653,0.886,-0.389,1.0
29.318,0.717,-0.476,1.0
25.172,0.624,-0.551,1.0
70.641,1.779,0.39,12.0
0.0,0.0,0.0,0.0
40.059,1.032,-0.23,56.0
33.949,0.885,-0.389,1.0
28.735,0.758,-0.492,1.0
24.372,0.65,-0.555,1.0
41.931,1.136,0.194,150.0
40.146,1.099,-0.04,160.0
40.013,1.107,-0.265,26.0
40.16,1.124,-0.497,1.0
27.812,0.786,-0.501,1.0
23.603,0.674,-0.559,1.0
40.136,1.163,0.149,139.0
40.131,1.175,-0.077,150.0
0.0,0.0,0.0,0.0
40.165,1.2,-0.535,1.0
27.25,0.822,-0.517,5.0
22.896,0.698,-0.564,0.0
40.12,1.238,0.11,150.0
40.12,1.25,-0.116,150.0
40.039,1.259,-0.342,1.0
40.137,1.274,-0.574,1.0
25.953,0.832,-0.518,5.0
22.114,0.715,-0.566,0.0
40.085,1.312,0.07,71.0
40.048,1.322,-0.155,115.0
40.17,1.338,-0.383,0.0
29.524,0.992,-0.451,2.0
25.373,0.86,-0.532,2.0
21.686,0.741,-0.577,2.0
40.133,1.387,0.03,150.0
40.022,1.394,-0.196,40.0
40.191,1.411,-0.424,1.0
28.825,1.02,-0.47,2.0
24.563,0.876,-0.54,1.0
21.295,0.766,-0.589,3.0
42.804,1.556,-0.012,3.0
42.107,1.542,-0.25,1.0
32.879,1.213,-0.382,1.0
27.736,1.031,-0.482,4.0
23.673,0.887,-0.545,5.0
20.719,0.782,-0.595,1.0
40.342,1.538,-0.054,151.0
40.138,1.541,-0.281,13.0
32.336,1.25,-0.41,1.0
27.219,1.06,-0.502,7.0
23.517,0.922,-0.567,12.0
19.924,0.787,-0.594,1.0
40.336,1.608,-0.098,150.0
39.625,1.59,-0.322,1.0
30.278,1.223,-0.418,1.0
26.63,1.083,-0.521,1.0
22.763,0.932,-0.575,4.0
19.711,0.812,-0.609,2.0
40.32,1.676,-0.144,11.0
23.646,0.989,-0.218,25.0
23.649,0.996,-0.353,37.0
23.658,1.002,-0.49,36.0
21.67,0.924,-0.572,2.0
19.288,0.827,-0.618,3.0
23.624,1.022,-0.111,43.0
23.618,1.027,-0.245,47.0
23.617,1.034,-0.379,50.0
23.615,1.04,-0.516,77.0
23.648,1.047,-0.651,0.0
18.727,0.834,-0.622,3.0
23.618,1.061,-0.139,70.0
23.61,1.066,-0.273,69.0
23.608,1.072,-0.407,67.0
23.56,1.076,-0.543,27.0
23.658,1.087,-0.68,1.0
18.412,0.85,-0.634,3.0
23.619,1.099,-0.167,52.0
23.627,1.105,-0.301,41.0
23.637,1.112,-0.436,35.0
23.31,1.102,-0.565,5.0
19.827,0.942,-0.593,2.0
18.112,0.865,-0.645,3.0
23.644,1.138,-0.196,18.0
23.645,1.144,-0.331,10.0
23.681,1.151,-0.466,24.0
21.763,1.063,-0.555,1.0
19.44,0.955,-0.606,3.0
17.736,0.875,-0.654,1.0
0.0,0.0,0.0,0.0
29.018,1.449,-0.443,2.0
23.755,1.192,-0.497,7.0
21.082,1.063,-0.564,1.0
18.889,0.957,-0.613,3.0
17.322,0.882,-0.661,1.0
33.454,1.714,-0.362,6.0
28.24,1.454,-0.467,1.0
23.8,1.231,-0.529,5.0
20.766,1.078,-0.582,4.0
18.509,0.966,-0.624,3.0
17.082,0.895,-0.674,1.0
31.865,1.681,-0.386,8.0
26.825,1.421,-0.478,1.0
23.019,1.225,-0.542,0.0
20.051,1.071,-0.588,3.0
18.2,0.977,-0.638,3.0
16.924,0.912,-0.69,2.0
30.317,1.644,-0.408,5.0
25.918,1.411,-0.496,2.0
19.808,1.082,-0.492,3.0
19.568,1.074,-0.6,3.0
17.89,0.986,-0.651,2.0
16.804,0.93,-0.707,1.0
29.197,1.625,-0.431,8.0
24.729,1.381,-0.506,1.0
19.752,1.108,-0.517,10.0
18.955,1.067,-0.606,3.0
17.399,0.983,-0.656,1.0
16.619,0.943,-0.722,1.0
28.005,1.597,-0.451,7.0
24.101,1.38,-0.526,0.0
19.717,1.133,-0.543,9.0
18.578,1.071,-0.62,3.0
17.126,0.991,-0.669,1.0
16.419,0.954,-0.736,1.0
27.086,1.582,-0.473,4.0
19.901,1.166,-0.461,2.0
19.709,1.159,-0.57,12.0
18.234,1.076,-0.633,3.0
16.932,1.003,-0.685,1.0
16.238,0.965,-0.75,1.0
26.067,1.557,-0.492,1.0
19.747,1.183,-0.486,12.0
19.607,1.179,-0.594,7.0
17.838,1.076,-0.645,1.0
16.803,1.017,-0.704,1.0
16.056,0.975,-0.764,2.0
24.664,1.505,-0.5,1.0
19.73,1.208,-0.513,10.0
19.063,1.171,-0.605,3.0
17.441,1.075,-0.655,2.0
16.618,1.027,-0.719,1.0
15.949,0.989,-0.782,1.0
24.22,1.508,-0.526,1.0
19.713,1.231,-0.54,9.0
18.529,1.161,-0.614,3.0
17.142,1.077,-0.668,1.0
16.387,1.033,-0.733,1.0
15.555,0.984,-0.785,0.0
19.848,1.26,-0.459,3.0
19.697,1.254,-0.568,10.0
18.233,1.164,-0.631,2.0
16.922,1.084,-0.684,2.0
16.187,1.04,-0.747,1.0
15.202,0.979,-0.789,0.0
19.743,1.277,-0.485,10.0
19.514,1.265,-0.591,4.0
17.762,1.155,-0.64,1.0
16.763,1.093,-0.702,2.0
16.012,1.047,-0.762,1.0
14.759,0.968,-0.787,0.0
19.742,1.299,-0.514,9.0
18.914,1.247,-0.601,3.0
17.415,1.152,-0.653,1.0
16.55,1.098,-0.717,1.0
15.861,1.055,-0.779,1.0
14.52,0.968,-0.796,0.0
19.716,1.319,-0.542,10.0
18.452,1.237,-0.613,3.0
17.123,1.151,-0.667,1.0
16.341,1.101,-0.732,1.0
15.399,1.04,-0.779,0.0
14.166,0.96,-0.798,0.0
19.703,1.338,-0.571,10.0
18.152,1.236,-0.63,1.0
16.9,1.154,-0.683,1.0
16.106,1.102,-0.746,1.0
15.032,1.031,-0.782,0.0
14.074,0.968,-0.813,0.0
19.404,1.338,-0.591,3.0
17.673,1.221,-0.639,1.0
16.726,1.158,-0.701,1.0
15.963,1.108,-0.763,2.0
14.644,1.019,-0.784,0.0
13.672,0.953,-0.81,0.0
18.776,1.312,-0.599,3.0
17.348,1.215,-0.654,2.0
16.497,1.158,-0.716,1.0
15.702,1.105,-0.774,0.0
14.43,1.018,-0.794,0.0
13.43,0.949,-0.817,0.0
18.402,1.304,-0.615,2.0
17.055,1.211,-0.668,1.0
16.28,1.158,-0.731,1.0
15.362,1.095,-0.78,0.0
14.119,1.009,-0.798,0.0
13.09,0.937,-0.816,0.0
17.979,1.29,-0.628,2.0
16.831,1.21,-0.685,1.0
16.014,1.153,-0.744,1.0
14.984,1.081,-0.783,0.0
13.86,1.002,-0.804,0.0
12.89,0.934,-0.823,0.0
17.55,1.274,-0.64,2.0
16.648,1.211,-0.703,1.0
15.957,1.163,-0.765,2.0
14.522,1.06,-0.782,0.0
13.585,0.994,-0.809,0.0
12.677,0.929,-0.828,0.0
17.287,1.269,-0.657,2.0
16.42,1.207,-0.718,1.0
15.474,1.14,-0.766,0.0
14.268,1.053,-0.79,0.0
13.219,0.977,-0.808,0.0
12.439,0.921,-0.832,0.0
16.993,1.26,-0.671,1.0
16.2,1.203,-0.733,1.0
15.244,1.134,-0.778,0.0
13.963,1.041,-0.794,0.0
13.031,0.973,-0.816,0.0
12.233,0.915,-0.837,0.0
16.776,1.256,-0.688,1.0
16.009,1.201,-0.749,2.0
14.872,1.117,-0.782,0.0
13.769,1.036,-0.804,0.0
12.81,0.966,-0.822,0.0
12.052,0.91,-0.843,0.0
16.574,1.252,-0.705,1.0
15.817,1.197,-0.764,0.0
14.491,1.098,-0.784,0.0
13.527,1.027,-0.811,0.0
12.535,0.953,-0.824,0.0
11.889,0.906,-0.85,0.0
16.36,1.247,-0.721,1.0
15.29,1.167,-0.762,0.0
14.151,1.082,-0.787,0.0
13.247,1.014,-0.814,0.0
12.344,0.946,-0.83,0.0
11.566,0.888,-0.845,0.0
16.075,1.235,-0.733,1.0
15.02,1.155,-0.772,0.0
13.904,1.071,-0.795,0.0
12.947,0.999,-0.816,0.0
12.179,0.941,-0.838,0.0
11.365,0.879,-0.848,0.0
15.955,1.234,-0.752,1.0
14.719,1.14,-0.779,0.0
13.752,1.067,-0.807,0.0
12.694,0.986,-0.819,0.0
11.961,0.93,-0.841,0.0
11.207,0.873,-0.853,0.0
15.601,1.215,-0.759,0.0
14.399,1.123,-0.784,0.0
13.456,1.05,-0.81,0.0
12.505,0.977,-0.826,0.0
11.672,0.913,-0.839,0.0
11.07,0.868,-0.86,0.0
15.284,1.197,-0.768,1.0
14.049,1.102,-0.787,0.0
13.176,1.035,-0.814,0.0
12.308,0.968,-0.833,0.0
11.504,0.905,-0.845,0.0
10.892,0.858,-0.863,0.0
15.015,1.183,-0.777,0.0
13.78,1.086,-0.792,0.0
12.891,1.018,-0.816,0.0
12.144,0.96,-0.84,0.0
11.286,0.893,-0.846,0.0
10.684,0.846,-0.863,0.0
14.506,1.148,-0.772,0.0
13.572,1.075,-0.801,0.0
12.642,1.003,-0.819,0.0
12.01,0.953,-0.849,0.0
11.155,0.886,-0.853,0.0
10.543,0.839,-0.867,0.0
14.302,1.137,-0.783,0.0
13.358,1.063,-0.808,0.0
12.468,0.993,-0.827,0.0
11.585,0.923,-0.836,0.0
10.991,0.877,-0.857,0.0
10.362,0.828,-0.868,0.0
13.038,1.041,-0.808,0.0
12.248,0.979,-0.83,0.0
11.413,0.913,-0.841,0.0
10.831,0.867,-0.861,0.0
10.212,0.818,-0.871,0.0
13.739,1.099,-0.793,0.0
12.855,1.03,-0.816,0.0
12.141,0.973,-0.841,0.0
11.271,0.904,-0.847,0.0
10.641,0.854,-0.861,0.0
10.127,0.814,-0.878,0.0
13.56,1.088,-0.803,0.0
12.587,1.011,-0.818,0.0
11.9,0.956,-0.842,0.0
11.109,0.893,-0.851,0.0
10.478,0.843,-0.863,0.0
10.002,0.806,-0.882,0.0
13.284,1.068,-0.806,0.0
12.428,1.0,-0.825,0.0
11.639,0.937,-0.84,0.0
10.912,0.879,-0.852,0.0
10.346,0.834,-0.868,0.0
9.859,0.795,-0.884,0.0
13.063,1.052,-0.811,0.0
12.249,0.987,-0.831,0.0
11.395,0.918,-0.839,0.0
10.756,0.868,-0.855,0.0
10.226,0.825,-0.872,0.0
9.731,0.786,-0.887,0.0
12.86,1.036,-0.817,0.0
12.128,0.978,-0.84,0.0
11.259,0.908,-0.845,0.0
10.594,0.855,-0.858,0.0
10.11,0.817,-0.877,0.0
9.616,0.777,-0.89,0.0
12.578,1.014,-0.817,0.0
11.836,0.955,-0.837,0.0
11.074,0.894,-0.847,0.0
10.453,0.844,-0.861,0.0
9.964,0.805,-0.879,0.0
9.47,0.765,-0.89,0.0
12.444,1.003,-0.826,0.0
11.559,0.932,-0.834,0.0
10.977,0.886,-0.855,0.0
10.374,0.837,-0.869,0.0
9.872,0.797,-0.884,0.0
9.371,0.757,-0.894,0.0
12.264,0.988,-0.831,0.0
11.415,0.92,-0.839,0.0
10.807,0.871,-0.857,0.0
10.197,0.822,-0.869,0.0
9.743,0.786,-0.886,0.0
9.234,0.746,-0.894,0.0
12.129,0.976,-0.838,0.0
11.284,0.909,-0.845,0.0
10.628,0.856,-0.857,0.0
10.084,0.812,-0.873,0.0
9.625,0.776,-0.889,0.0
9.058,0.73,-0.889,0.0
11.913,0.957,-0.839,0.0
11.109,0.893,-0.847,0.0
10.538,0.847,-0.864,0.0
9.969,0.802,-0.876,0.0
9.502,0.764,-0.89,0.0
8.938,0.719,-0.889,0.0
11.658,0.935,-0.837,0.0
10.786,0.865,-0.837,0.0
10.408,0.835,-0.867,0.0
9.88,0.793,-0.882,0.0
9.373,0.752,-0.891,0.0
8.864,0.711,-0.894,0.0
11.458,0.917,-0.838,0.0
10.799,0.864,-0.852,0.0
10.263,0.821,-0.869,0.0
9.764,0.781,-0.884,0.0
9.262,0.741,-0.892,0.0
8.751,0.7,-0.894,0.0
11.274,0.899,-0.839,0.0
10.714,0.854,-0.859,0.0
10.137,0.808,-0.871,0.0
9.645,0.769,-0.886,0.0
9.142,0.729,-0.893,0.0
8.656,0.69,-0.895,0.0
11.176,0.888,-0.846,0.0
10.564,0.839,-0.86,0.0
10.044,0.798,-0.876,0.0
9.536,0.757,-0.888,0.0
9.011,0.716,-0.891,0.0
8.529,0.678,-0.893,0.0
11.032,0.873,-0.849,0.0
10.402,0.823,-0.86,0.0
9.962,0.788,-0.881,0.0
9.449,0.747,-0.891,0.0
8.911,0.705,-0.892,0.0
8.465,0.669,-0.897,0.0
10.779,0.849,-0.842,0.0
10.327,0.813,-0.866,0.0
9.845,0.775,-0.883,0.0
9.261,0.729,-0.885,0.0
8.77,0.69,-0.889,0.0
8.41,0.662,-0.901,0.0
10.41,0.816,-0.826,0.0
10.228,0.801,-0.87,0.0
9.765,0.765,-0.887,0.0
9.209,0.721,-0.891,0.0
8.727,0.683,-0.895,0.0
8.343,0.653,-0.904,0.0
10.694,0.833,-0.861,0.0
10.099,0.787,-0.871,0.0
9.624,0.749,-0.885,0.0
9.119,0.71,-0.893,0.0
8.641,0.672,-0.896,0.0
8.219,0.639,-0.9,0.0
10.514,0.814,-0.858,0.0
10.04,0.777,-0.877,0.0
9.544,0.738,-0.889,0.0
8.565,0.662,-0.898,0.0
8.185,0.633,-0.905,0.0
10.429,0.802,-0.863,0.0
9.954,0.765,-0.881,0.0
9.491,0.729,-0.895,0.0
8.889,0.683,-0.89,0.0
8.485,0.651,-0.899,0.0
8.106,0.622,-0.906,0.0
10.35,0.79,-0.867,0.0
9.896,0.755,-0.886,0.0
9.328,0.712,-0.889,0.0
8.806,0.671,-0.891,0.0
8.416,0.641,-0.9,0.0
8.006,0.61,-0.903,0.0
10.25,0.777,-0.87,0.0
9.768,0.74,-0.885,0.0
9.225,0.698,-0.889,0.0
8.727,0.66,-0.892,0.0
8.396,0.635,-0.907,0.0
7.993,0.604,-0.91,0.0
10.176,0.765,-0.874,0.0
9.694,0.728,-0.888,0.0
9.148,0.687,-0.891,0.0
8.659,0.649,-0.894,0.0
8.301,0.622,-0.905,0.0
7.938,0.595,-0.911,0.0
10.072,0.751,-0.875,0.0
9.621,0.716,-0.891,0.0
9.061,0.674,-0.891,0.0
8.537,0.635,-0.89,0.0
8.232,0.611,-0.906,0.0
7.882,0.585,-0.913,0.0
10.036,0.741,-0.881,0.0
9.497,0.701,-0.889,0.0
8.944,0.659,-0.888,0.0
8.514,0.627,-0.896,0.0
8.128,0.598,-0.902,0.0
7.872,0.579,-0.919,0.0
9.955,0.728,-0.883,0.0
9.405,0.687,-0.889,0.0
8.924,0.651,-0.894,0.0
8.501,0.62,-0.902,0.0
8.079,0.588,-0.904,0.0
7.818,0.569,-0.92,0.0
9.868,0.714,-0.885,0.0
9.345,0.675,-0.891,0.0
8.833,0.638,-0.893,0.0
8.447,0.609,-0.904,0.0
8.059,0.581,-0.909,0.0
7.783,0.56,-0.923,0.0
9.791,0.701,-0.886,0.0
9.291,0.664,-0.894,0.0
8.78,0.627,-0.895,0.0
8.341,0.595,-0.899,0.0
8.0,0.57,-0.909,0.0
7.737,0.551,-0.924,0.0
9.733,0.689,-0.889,0.0
9.19,0.649,-0.892,0.0
8.713,0.615,-0.895,0.0
8.315,0.586,-0.903,0.0
7.978,0.562,-0.913,0.0
7.696,0.541,-0.925,0.0
9.653,0.675,-0.889,0.0
9.147,0.639,-0.895,0.0
8.661,0.604,-0.897,0.0
8.253,0.575,-0.903,0.0
7.945,0.553,-0.915,0.0
7.661,0.532,-0.926,0.0
9.564,0.661,-0.888,0.0
9.05,0.624,-0.892,0.0
8.626,0.594,-0.9,0.0
8.21,0.565,-0.904,0.0
7.898,0.542,-0.915,0.0
7.617,0.522,-0.927,0.0
9.517,0.649,-0.89,0.0
8.992,0.612,-0.892,0.0
8.571,0.583,-0.9,0.0
8.177,0.555,-0.906,0.0
7.877,0.534,-0.918,0.0
7.587,0.513,-0.928,0.0
9.474,0.637,-0.892,0.0
8.988,0.603,-0.898,0.0
8.531,0.572,-0.901,0.0
8.096,0.542,-0.902,0.0
7.834,0.523,-0.918,0.0
7.577,0.506,-0.932,0.0
9.427,0.625,-0.894,0.0
8.93,0.591,-0.898,0.0
8.49,0.561,-0.902,0.0
8.078,0.533,-0.905,0.0
7.833,0.516,-0.923,0.0
7.511,0.494,-0.928,0.0
9.41,0.615,-0.898,0.0
8.879,0.579,-0.898,0.0
8.468,0.551,-0.905,0.0
8.045,0.523,-0.906,0.0
7.796,0.506,-0.923,0.0
7.489,0.485,-0.93,0.0
9.312,0.599,-0.894,0.0
8.804,0.565,-0.895,0.0
8.397,0.538,-0.901,0.0
8.026,0.514,-0.908,0.0
7.788,0.497,-0.926,0.0
7.457,0.475,-0.93,0.0
9.268,0.587,-0.894,0.0
8.795,0.556,-0.898,0.0
8.392,0.529,-0.905,0.0
8.017,0.505,-0.911,0.0
7.755,0.487,-0.926,0.0
7.439,0.466,-0.931,0.0
9.27,0.577,-0.899,0.0
8.776,0.546,-0.901,0.0
8.328,0.517,-0.902,0.0
7.993,0.495,-0.912,0.0
7.74,0.478,-0.928,0.0
7.426,0.458,-0.933,0.0
9.234,0.565,-0.899,0.0
8.762,0.535,-0.903,0.0
8.329,0.508,-0.906,0.0
7.964,0.484,-0.912,0.0
7.72,0.469,-0.928,0.0
7.395,0.448,-0.932,0.0
9.156,0.551,-0.895,0.0
8.699,0.522,-0.9,0.0
8.31,0.498,-0.907,0.0
7.939,0.474,-0.912,0.0
7.684,0.458,-0.927,0.0
7.372,0.438,-0.931,0.0
9.161,0.541,-0.899,0.0
8.668,0.511,-0.899,0.0
8.282,0.487,-0.906,0.0
7.947,0.466,-0.916,0.0
7.675,0.449,-0.928,0.0
7.381,0.431,-0.935,0.0
9.158,0.531,-0.901,0.0
8.681,0.502,-0.903,0.0
8.289,0.478,-0.909,0.0
7.941,0.457,-0.917,0.0
7.644,0.439,-0.926,0.0
7.364,0.422,-0.935,0.0
9.1,0.517,-0.897,0.0
8.637,0.49,-0.901,0.0
8.286,0.468,-0.911,0.0
7.927,0.447,-0.917,0.0
7.687,0.432,-0.933,0.0
7.343,0.412,-0.934,0.0
9.077,0.506,-0.897,0.0
8.614,0.478,-0.9,0.0
8.243,0.457,-0.908,0.0
7.903,0.437,-0.916,0.0
7.647,0.421,-0.93,0.0
7.343,0.403,-0.935,0.0
9.073,0.495,-0.898,0.0
8.648,0.47,-0.905,0.0
8.246,0.447,-0.91,0.0
7.899,0.427,-0.917,0.0
7.636,0.411,-0.93,0.0
7.363,0.396,-0.938,0.0
9.106,0.486,-0.903,0.0
8.61,0.458,-0.902,0.0
8.262,0.438,-0.912,0.0
7.875,0.416,-0.915,0.0
7.624,0.402,-0.929,0.0
7.34,0.386,-0.936,0.0
9.1,0.475,-0.903,0.0
8.66,0.45,-0.908,0.0
8.235,0.427,-0.91,0.0
7.913,0.409,-0.92,0.0
7.623,0.392,-0.929,0.0
7.34,0.377,-0.937,0.0
9.05,0.461,-0.898,0.0
8.671,0.44,-0.909,0.0
8.25,0.417,-0.912,0.0
7.926,0.4,-0.921,0.0
7.64,0.384,-0.931,0.0
7.346,0.368,-0.937,0.0
9.122,0.454,-0.905,0.0
8.627,0.428,-0.905,0.0
8.265,0.408,-0.913,0.0
7.922,0.39,-0.921,0.0
7.628,0.374,-0.93,0.0
7.335,0.359,-0.936,0.0
9.101,0.442,-0.903,0.0
8.626,0.417,-0.904,0.0
8.304,0.4,-0.917,0.0
7.912,0.38,-0.919,0.0
7.646,0.366,-0.931,0.0
7.367,0.351,-0.939,0.0
9.136,0.432,-0.905,0.0
8.665,0.408,-0.907,0.0
8.275,0.389,-0.913,0.0
7.938,0.371,-0.921,0.0
7.657,0.357,-0.932,0.0
7.384,0.343,-0.94,0.0
9.17,0.423,-0.907,0.0
8.729,0.401,-0.912,0.0
8.255,0.377,-0.909,0.0
7.975,0.363,-0.924,0.0
7.678,0.348,-0.933,0.0
7.367,0.333,-0.936,0.0
9.197,0.412,-0.908,0.0
8.738,0.39,-0.912,0.0
8.341,0.371,-0.917,0.0
7.943,0.352,-0.919,0.0
7.691,0.339,-0.933,0.0
7.415,0.326,-0.941,0.0
9.164,0.399,-0.903,0.0
8.772,0.381,-0.913,0.0
8.356,0.361,-0.917,0.0
7.997,0.344,-0.923,0.0
7.73,0.331,-0.935,0.0
7.409,0.316,-0.938,0.0
9.223,0.391,-0.906,0.0
8.749,0.369,-0.908,0.0
8.349,0.35,-0.913,0.0
8.012,0.335,-0.922,0.0
7.745,0.322,-0.935,0.0
7.419,0.307,-0.937,0.0
9.232,0.379,-0.904,0.0
8.777,0.359,-0.908,0.0
8.385,0.341,-0.914,0.0
8.034,0.326,-0.922,0.0
7.757,0.313,-0.933,0.0
7.452,0.299,-0.939,0.0
9.285,0.37,-0.906,0.0
8.858,0.351,-0.913,0.0
8.415,0.332,-0.914,0.0
8.075,0.317,-0.923,0.0
7.749,0.303,-0.929,0.0
7.486,0.291,-0.94,0.0
9.338,0.36,-0.907,0.0
8.892,0.341,-0.913,0.0
8.485,0.324,-0.918,0.0
8.085,0.307,-0.921,0.0
7.812,0.295,-0.933,0.0
7.494,0.282,-0.937,0.0
9.341,0.349,-0.903,0.0
8.939,0.332,-0.913,0.0
8.477,0.313,-0.913,0.0
8.123,0.298,-0.921,0.0
7.849,0.287,-0.934,0.0
7.522,0.273,-0.937,0.0
9.459,0.341,-0.909,0.0
8.932,0.32,-0.908,0.0
8.545,0.305,-0.916,0.0
8.171,0.29,-0.922,0.0
7.859,0.277,-0.931,0.0
7.565,0.265,-0.938,0.0
9.483,0.33,-0.907,0.0
9.019,0.312,-0.912,0.0
8.577,0.295,-0.915,0.0
8.206,0.281,-0.922,0.0
7.912,0.269,-0.932,0.0
7.616,0.258,-0.94,0.0
9.514,0.32,-0.904,0.0
9.051,0.302,-0.91,0.0
8.604,0.285,-0.912,0.0
8.243,0.272,-0.921,0.0
7.929,0.26,-0.929,0.0
7.621,0.248,-0.936,0.0
9.604,0.311,-0.906,0.0
9.141,0.294,-0.913,0.0
8.708,0.278,-0.918,0.0
8.293,0.263,-0.921,0.0
7.975,0.251,-0.929,0.0
7.661,0.24,-0.935,0.0
9.641,0.3,-0.903,0.0
9.184,0.284,-0.911,0.0
8.78,0.269,-0.919,0.0
8.33,0.254,-0.919,0.0
8.038,0.243,-0.931,0.0
7.734,0.233,-0.939,0.0
9.706,0.29,-0.902,0.0
9.262,0.275,-0.912,0.0
8.83,0.26,-0.918,0.0
8.388,0.245,-0.919,0.0
8.067,0.234,-0.928,0.0
7.764,0.224,-0.936,0.0
9.787,0.28,-0.902,0.0
9.29,0.264,-0.907,0.0
8.891,0.251,-0.917,0.0
8.464,0.237,-0.92,0.0
8.101,0.225,-0.926,0.0
7.806,0.216,-0.935,0.0
9.859,0.27,-0.901,0.0
9.364,0.255,-0.907,0.0
8.954,0.242,-0.916,0.0
8.538,0.229,-0.921,0.0
8.18,0.217,-0.928,0.0
7.882,0.208,-0.937,0.0
9.951,0.261,-0.901,0.0
9.439,0.245,-0.906,0.0
9.006,0.232,-0.913,0.0
8.576,0.219,-0.918,0.0
8.222,0.209,-0.925,0.0
7.911,0.199,-0.933,0.0
10.05,0.251,-0.9,0.0
