X,Y,Z,Reflectivity
46.093,-1.488,3.097,25.0
57.007,-1.828,3.501,26.0
65.865,-2.098,3.665,19.0
43.763,-1.384,3.651,44.0
44.468,-1.397,3.451,19.0
45.373,-1.415,3.258,26.0
45.949,-1.423,3.028,22.0
56.966,-1.751,3.425,30.0
66.153,-2.019,3.595,8.0
43.851,-1.329,3.6,45.0
44.706,-1.345,3.41,40.0
45.851,-1.369,3.231,35.0
56.816,-1.684,3.669,22.0
57.098,-1.68,3.356,23.0
66.023,-1.929,3.499,10.0
43.887,-1.273,3.544,32.0
44.654,-1.285,3.345,31.0
46.174,-1.319,3.191,22.0
56.947,-1.615,3.6,31.0
65.628,-1.847,3.768,10.0
81.574,-2.279,4.211,8.0
44.119,-1.222,3.5,35.0
44.889,-1.234,3.3,46.0
46.107,-1.258,3.122,20.0
51.81,-1.402,3.201,13.0
78.612,-2.112,4.402,10.0
74.172,-1.978,3.723,16.0
44.248,-1.169,3.446,19.0
45.065,-1.181,3.248,21.0
62.621,-1.629,4.149,7.0
51.606,-1.331,3.113,7.0
78.763,-2.017,4.295,18.0
81.138,-2.062,3.956,9.0
44.318,-1.116,3.387,39.0
51.429,-1.284,3.63,5.0
51.374,-1.272,3.327,39.0
51.805,-1.273,3.049,4.0
74.283,-1.81,3.941,28.0
81.092,-1.96,3.832,30.0
44.847,-1.074,3.36,17.0
44.946,-1.067,3.105,27.0
51.37,-1.21,3.25,37.0
65.877,-1.539,3.779,1.0
74.352,-1.723,3.833,35.0
81.027,-1.862,3.706,12.0
45.09,-1.025,3.309,12.0
0.0,0.0,0.0,0.0
51.46,-1.151,3.177,25.0
73.84,-1.638,4.121,35.0
74.659,-1.642,3.734,4.0
0.0,0.0,0.0,0.0
51.408,-1.109,3.692,6.0
50.779,-1.086,3.351,25.0
61.197,-1.298,3.682,24.0
74.065,-1.557,4.018,14.0
81.241,-1.692,3.935,9.0
95.497,-1.972,4.071,10.0
0.0,0.0,0.0,0.0
50.716,-1.026,3.265,25.0
61.136,-1.225,3.579,26.0
73.508,-1.46,3.869,17.0
81.684,-1.608,3.824,17.0
106.76,-2.083,4.377,15.0
48.667,-0.938,3.337,23.0
50.339,-0.961,3.158,7.0
61.189,-1.158,3.483,23.0
81.967,-1.537,4.179,14.0
81.704,-1.517,3.691,12.0
106.523,-1.96,4.192,12.0
0.0,0.0,0.0,0.0
60.954,-1.097,3.723,28.0
73.531,-1.31,4.062,10.0
81.319,-1.435,4.01,15.0
95.5,-1.67,4.154,12.0
112.643,-1.95,4.245,13.0
50.11,-0.856,3.268,31.0
61.081,-1.033,3.626,19.0
81.716,-1.369,4.375,28.0
81.115,-1.345,3.863,26.0
112.097,-1.841,4.685,9.0
112.783,-1.834,4.058,6.0
50.622,-0.811,3.214,28.0
61.256,-0.972,3.532,20.0
81.727,-1.284,4.235,10.0
81.31,-1.264,3.732,16.0
112.309,-1.728,4.5,16.0
210.421,-3.206,7.207,9.0
61.55,-0.924,3.8,7.0
73.538,-1.092,4.111,9.0
81.406,-1.195,4.075,10.0
96.182,-1.398,4.245,14.0
106.628,-1.533,4.084,9.0
209.946,-2.987,6.821,5.0
73.747,-1.033,4.422,9.0
60.722,-0.841,3.286,6.0
81.295,-1.114,3.925,8.0
112.046,-1.518,4.745,21.0
190.547,-2.554,6.959,32.0
209.589,-2.777,6.432,9.0
60.695,-0.791,3.53,12.0
60.6,-0.78,3.17,4.0
94.923,-1.209,4.411,14.0
189.756,-2.39,7.694,26.0
210.705,-2.623,7.313,10.0
209.363,-2.577,6.047,21.0
60.525,-0.732,3.41,26.0
81.43,-0.973,4.111,18.0
112.074,-1.324,5.004,9.0
190.494,-2.223,7.373,35.0
210.553,-2.429,6.924,8.0
209.179,-2.383,5.658,12.0
60.54,-0.677,3.298,32.0
81.245,-0.897,3.952,22.0
189.778,-2.07,8.121,63.0
190.56,-2.054,7.023,32.0
210.984,-2.246,6.547,17.0
119.726,-1.259,3.017,150.0
81.255,-0.838,4.277,5.0
85.944,-0.875,4.02,11.0
189.787,-1.907,7.767,110.0
190.582,-1.889,6.666,10.0
119.704,-1.171,3.488,69.0
119.72,-1.156,2.791,150.0
81.148,-0.767,4.115,7.0
80.696,-0.753,3.62,12.0
190.513,-1.753,7.434,28.0
214.666,-1.948,7.099,16.0
119.729,-1.072,3.26,110.0
119.736,-1.057,2.561,79.0
96.023,-0.83,4.685,12.0
104.058,-0.886,4.467,6.0
190.561,-1.598,7.064,34.0
205.788,-1.702,6.406,8.0
119.721,-0.976,3.029,63.0
119.709,-0.962,2.33,26.0
80.861,-0.635,3.789,10.0
95.422,-0.738,3.912,11.0
190.638,-1.453,6.701,15.0
119.715,-0.898,3.496,2.0
194.405,-1.438,4.543,23.0
119.823,-0.873,2.101,33.0
95.469,-0.678,4.286,14.0
190.526,-1.333,7.439,35.0
215.348,-1.482,7.147,9.0
119.787,-0.811,3.262,27.0
119.813,-0.798,2.562,24.0
119.795,-0.785,1.864,20.0
95.382,-0.609,4.093,13.0
190.537,-1.196,7.061,30.0
206.286,-1.273,6.436,8.0
119.858,-0.727,3.026,9.0
119.824,-0.714,2.325,150.0
119.74,-0.701,1.623,13.0
189.796,-1.081,7.762,105.0
190.582,-1.066,6.679,9.0
0.0,0.0,0.0,0.0
119.793,-0.645,2.781,31.0
193.683,-1.024,3.367,17.0
119.68,-0.621,1.38,11.0
190.578,-0.959,7.404,33.0
206.816,-1.022,6.825,22.0
119.768,-0.58,3.251,19.0
119.818,-0.569,2.54,31.0
119.734,-0.558,1.839,3.0
119.724,-0.546,1.138,19.0
190.561,-0.843,7.019,30.0
206.042,-0.892,6.381,17.0
119.792,-0.508,3.009,20.0
193.805,-0.804,3.716,16.0
119.678,-0.486,1.594,11.0
114.388,-0.455,0.855,5.0
117.611,-0.452,4.092,3.0
195.044,-0.732,5.642,9.0
119.825,-0.439,2.764,120.0
113.811,-0.408,1.949,2.0
119.697,-0.419,1.35,17.0
111.005,-0.379,0.602,2.0
117.473,-0.386,3.843,11.0
119.793,-0.385,3.219,24.0
119.834,-0.375,2.517,72.0
119.8,-0.365,1.803,11.0
114.479,-0.34,1.054,150.0
101.438,-0.294,0.341,1.0
70.162,-0.195,2.15,5.0
194.22,-0.526,4.817,15.0
112.814,-0.297,2.137,2.0
119.681,-0.306,1.554,20.0
111.013,-0.276,0.791,11.0
0.0,0.0,0.0,0.0
119.841,-0.276,3.423,11.0
119.838,-0.268,2.722,8.0
112.391,-0.243,1.894,7.0
119.713,-0.251,1.304,15.0
110.38,-0.224,0.557,1.0
0.0,0.0,0.0,0.0
119.83,-0.223,3.17,14.0
114.043,-0.205,2.35,2.0
117.395,-0.203,1.73,11.0
117.314,-0.196,1.03,9.0
98.985,-0.159,0.291,2.0
0.0,0.0,0.0,0.0
117.475,-0.171,2.859,6.0
117.346,-0.164,2.168,11.0
117.41,-0.157,1.482,19.0
110.851,-0.142,0.74,11.0
0.0,0.0,0.0,0.0
52.258,-0.061,-0.263,0.0
114.076,-0.124,2.535,5.0
117.34,-0.122,1.921,22.0
117.356,-0.115,1.234,14.0
0.0,0.0,0.0,0.0
0.0,0.0,0.0,0.0
0.0,0.0,0.0,0.0
117.321,-0.089,2.356,9.0
117.358,-0.084,1.671,11.0
111.129,-0.074,0.931,8.0
95.35,-0.059,0.23,2.0
0.0,0.0,0.0,0.0
44.945,-0.023,-0.416,1.0
117.309,-0.055,2.108,32.0
117.318,-0.05,1.421,10.0
110.58,-0.042,0.691,7.0
0.0,0.0,0.0,0.0
52.201,-0.015,-0.29,0.0
0.0,0.0,0.0,0.0
117.368,-0.025,1.857,13.0
111.208,-0.019,1.108,8.0
95.625,-0.013,0.394,5.0
0.0,0.0,0.0,0.0
45.751,-0.003,-0.351,1.0
0.0,0.0,0.0,0.0
111.057,0.0,1.521,12.0
110.832,0.003,0.868,10.0
0.0,0.0,0.0,0.0
0.0,0.0,0.0,0.0
44.922,0.005,-0.441,1.0
35.272,0.005,-0.553,0.0
111.162,0.02,1.282,14.0
104.186,0.021,0.592,4.0
0.0,0.0,0.0,0.0
0.0,0.0,0.0,0.0
39.69,0.011,-0.476,0.0
32.166,0.01,-0.574,0.0
111.191,0.036,1.044,7.0
95.641,0.033,0.339,4.0
0.0,0.0,0.0,0.0
45.472,0.017,-0.376,3.0
35.996,0.014,-0.509,0.0
30.184,0.012,-0.603,0.0
110.698,0.047,0.801,10.0
0.0,0.0,0.0,0.0
52.131,0.024,-0.233,0.0
42.483,0.02,-0.443,0.0
0.0,0.0,0.0,0.0
27.849,0.014,-0.617,0.0
95.407,0.047,0.484,2.0
0.0,0.0,0.0,0.0
49.544,0.025,-0.328,0.0
38.015,0.02,-0.478,0.0
31.169,0.016,-0.575,0.0
26.566,0.014,-0.645,0.0
92.517,0.049,0.271,1.0
0.0,0.0,0.0,0.0
45.327,0.024,-0.397,2.0
35.639,0.019,-0.524,0.0
29.442,0.016,-0.606,0.0
25.295,0.014,-0.668,0.0
0.0,0.0,0.0,0.0
52.278,0.027,-0.263,0.0
0.0,0.0,0.0,0.0
0.0,0.0,0.0,0.0
0.0,0.0,0.0,0.0
23.685,0.012,-0.676,0.0
0.0,0.0,0.0,0.0
45.808,0.021,-0.329,1.0
0.0,0.0,0.0,0.0
30.87,0.014,-0.586,0.0
26.175,0.011,-0.651,0.0
22.604,0.01,-0.694,0.0
0.0,0.0,0.0,0.0
45.144,0.017,-0.42,2.0
0.0,0.0,0.0,0.0
0.0,0.0,0.0,0.0
25.008,0.008,-0.675,0.0
21.685,0.007,-0.712,0.0
49.778,0.013,-0.279,0.0
40.184,0.01,-0.46,0.0
0.0,0.0,0.0,0.0
0.0,0.0,0.0,0.0
23.413,0.004,-0.682,0.0
20.769,0.004,-0.727,0.0
45.66,0.005,-0.353,2.0
37.01,0.003,-0.503,0.0
30.488,0.002,-0.592,0.0
25.684,0.001,-0.652,0.0
22.307,0.0,-0.697,0.0
19.777,0.0,-0.734,0.0
44.776,-0.003,-0.44,0.0
34.215,-0.003,-0.537,0.0
28.808,-0.003,-0.62,0.0
24.624,-0.003,-0.677,0.0
21.431,-0.003,-0.715,0.0
19.1,-0.003,-0.749,0.0
0.0,0.0,0.0,0.0
31.32,-0.01,-0.556,0.0
26.665,-0.009,-0.63,0.0
23.27,-0.009,-0.688,0.0
20.452,-0.008,-0.725,0.0
18.442,-0.008,-0.762,0.0
0.0,0.0,0.0,0.0
29.682,-0.018,-0.59,0.0
25.567,-0.016,-0.658,0.0
22.247,-0.015,-0.705,0.0
19.646,-0.014,-0.737,0.0
17.705,-0.013,-0.768,0.0
33.406,-0.029,-0.538,0.0
28.03,-0.025,-0.616,0.0
23.842,-0.022,-0.663,0.0
20.855,-0.02,-0.704,0.0
18.969,-0.019,-0.751,0.0
17.143,-0.018,-0.78,0.0
31.038,-0.037,-0.564,0.0
26.567,-0.033,-0.638,0.0
23.039,-0.03,-0.688,0.0
20.255,-0.027,-0.725,0.0
18.197,-0.025,-0.758,0.0
16.692,-0.024,-0.793,0.0
29.237,-0.046,-0.591,0.0
0.0,0.0,0.0,0.0
22.116,-0.037,-0.706,0.0
19.49,-0.033,-0.738,0.0
17.703,-0.031,-0.774,1.0
16.122,-0.029,-0.8,0.0
27.762,-0.055,-0.618,0.0
23.927,-0.049,-0.673,0.0
20.87,-0.044,-0.709,0.0
18.932,-0.041,-0.756,0.0
17.055,-0.038,-0.781,0.0
15.585,-0.035,-0.805,0.0
26.181,-0.064,-0.636,0.0
22.786,-0.057,-0.686,0.0
20.028,-0.051,-0.721,0.0
18.232,-0.048,-0.765,0.0
16.587,-0.044,-0.793,0.0
15.18,-0.041,-0.815,0.0
24.882,-0.072,-0.655,0.0
21.896,-0.065,-0.704,0.0
19.489,-0.059,-0.74,0.0
17.506,-0.054,-0.769,0.0
15.951,-0.051,-0.794,0.0
14.697,-0.048,-0.818,0.0
23.455,-0.08,-0.664,0.0
20.918,-0.073,-0.714,0.0
18.717,-0.067,-0.748,0.0
16.963,-0.062,-0.779,0.0
15.488,-0.057,-0.802,0.0
14.35,-0.054,-0.827,0.0
22.282,-0.088,-0.675,0.0
20.05,-0.081,-0.724,0.0
18.134,-0.075,-0.761,0.0
16.489,-0.069,-0.79,0.0
15.106,-0.065,-0.812,0.0
13.94,-0.061,-0.831,0.0
21.819,-0.099,-0.703,0.0
19.276,-0.089,-0.734,0.0
17.587,-0.083,-0.772,0.0
15.916,-0.076,-0.794,0.0
14.646,-0.071,-0.816,0.0
13.612,-0.068,-0.838,0.0
20.865,-0.108,-0.713,0.0
18.782,-0.099,-0.751,0.0
16.952,-0.09,-0.777,0.0
15.523,-0.084,-0.804,0.0
14.256,-0.079,-0.822,0.0
13.251,-0.074,-0.842,0.0
20.127,-0.117,-0.727,0.0
18.089,-0.107,-0.758,0.0
16.48,-0.099,-0.787,0.0
15.055,-0.092,-0.809,0.0
13.818,-0.085,-0.823,0.0
12.881,-0.081,-0.843,0.0
19.352,-0.126,-0.735,0.0
17.546,-0.116,-0.769,0.0
15.985,-0.107,-0.794,0.0
14.668,-0.1,-0.816,0.0
13.618,-0.094,-0.837,0.0
12.512,-0.087,-0.843,0.0
18.869,-0.136,-0.752,0.0
16.986,-0.124,-0.776,0.0
15.523,-0.115,-0.8,0.0
14.279,-0.107,-0.821,0.0
13.287,-0.101,-0.842,0.0
12.275,-0.095,-0.849,0.0
18.083,-0.144,-0.754,0.0
16.551,-0.133,-0.787,0.0
15.165,-0.124,-0.81,0.0
13.942,-0.115,-0.827,0.0
12.998,-0.109,-0.847,0.0
11.959,-0.101,-0.849,0.0
17.61,-0.154,-0.766,0.0
16.054,-0.142,-0.792,0.0
14.73,-0.132,-0.813,0.0
13.631,-0.123,-0.833,0.0
12.592,-0.115,-0.843,0.0
11.655,-0.108,-0.849,0.0
16.991,-0.162,-0.77,0.0
15.625,-0.151,-0.799,0.0
14.311,-0.14,-0.815,0.0
13.359,-0.132,-0.841,0.0
12.301,-0.123,-0.846,0.0
11.481,-0.116,-0.857,0.0
16.592,-0.172,-0.781,0.0
15.235,-0.16,-0.806,0.0
14.119,-0.15,-0.829,0.0
13.038,-0.14,-0.843,0.0
12.004,-0.13,-0.846,0.0
11.228,-0.123,-0.858,0.0
16.212,-0.182,-0.791,0.0
14.816,-0.168,-0.809,0.0
13.66,-0.157,-0.826,0.0
12.648,-0.147,-0.84,0.0
11.728,-0.137,-0.847,0.0
11.044,-0.131,-0.862,0.0
15.766,-0.191,-0.797,0.0
14.529,-0.178,-0.819,0.0
13.403,-0.166,-0.833,0.0
12.443,-0.155,-0.847,0.0
11.51,-0.145,-0.851,0.0
10.918,-0.139,-0.871,0.0
15.333,-0.2,-0.8,0.0
14.229,-0.187,-0.825,0.0
13.106,-0.174,-0.837,0.0
12.173,-0.163,-0.849,0.0
11.327,-0.154,-0.857,0.0
10.71,-0.147,-0.873,0.0
15.031,-0.21,-0.81,0.0
13.841,-0.195,-0.826,0.0
12.862,-0.183,-0.842,0.0
11.845,-0.17,-0.846,0.0
11.145,-0.162,-0.861,0.0
10.526,-0.154,-0.875,0.0
14.614,-0.218,-0.811,0.0
13.532,-0.204,-0.83,0.0
12.513,-0.19,-0.84,0.0
11.638,-0.179,-0.85,0.0
11.014,-0.171,-0.869,0.0
10.391,-0.163,-0.881,0.0
14.281,-0.228,-0.815,0.0
13.322,-0.214,-0.838,0.0
12.295,-0.2,-0.845,0.0
11.45,-0.188,-0.855,0.0
10.827,-0.179,-0.871,0.0
10.243,-0.171,-0.884,0.0
14.078,-0.239,-0.826,0.0
13.044,-0.223,-0.841,0.0
12.055,-0.208,-0.847,0.0
11.26,-0.196,-0.858,0.0
10.63,-0.187,-0.872,0.0
10.145,-0.18,-0.891,0.0
13.796,-0.248,-0.83,0.0
12.792,-0.232,-0.844,0.0
11.789,-0.216,-0.846,0.0
11.099,-0.205,-0.863,0.0
10.486,-0.195,-0.876,0.0
9.928,-0.187,-0.887,0.0
13.481,-0.257,-0.831,0.0
12.532,-0.241,-0.846,0.0
11.596,-0.225,-0.85,0.0
10.944,-0.214,-0.867,0.0
10.353,-0.204,-0.88,0.0
9.837,-0.196,-0.894,0.0
13.232,-0.267,-0.835,0.0
12.294,-0.25,-0.847,0.0
11.419,-0.234,-0.854,0.0
10.802,-0.223,-0.871,0.0
10.225,-0.213,-0.884,0.0
9.729,-0.205,-0.898,0.0
13.096,-0.279,-0.846,0.0
12.037,-0.258,-0.847,0.0
11.29,-0.244,-0.86,0.0
10.608,-0.231,-0.871,0.0
10.114,-0.222,-0.889,0.0
9.599,-0.213,-0.9,0.0
18.13,-0.407,-1.196,0.0
11.818,-0.267,-0.848,0.0
11.096,-0.253,-0.86,0.0
10.477,-0.24,-0.874,0.0
9.961,-0.23,-0.889,0.0
9.498,-0.221,-0.903,0.0
18.098,-0.427,-1.219,0.0
11.629,-0.276,-0.85,0.0
10.986,-0.263,-0.867,0.0
10.354,-0.25,-0.878,0.0
9.856,-0.239,-0.893,0.0
9.362,-0.229,-0.903,0.0
12.302,-0.304,-0.844,0.0
11.482,-0.286,-0.854,0.0
10.867,-0.273,-0.872,0.0
10.268,-0.26,-0.884,0.0
9.788,-0.249,-0.9,0.0
9.272,-0.238,-0.906,0.0
12.105,-0.314,-0.846,0.0
11.319,-0.295,-0.857,0.0
10.677,-0.281,-0.87,0.0
10.169,-0.269,-0.889,0.0
9.666,-0.258,-0.901,0.0
9.158,-0.246,-0.907,0.0
11.913,-0.323,-0.847,0.0
11.216,-0.306,-0.863,0.0
10.546,-0.29,-0.872,0.0
9.994,-0.277,-0.885,0.0
9.565,-0.267,-0.903,0.0
9.118,-0.256,-0.914,0.0
11.739,-0.333,-0.849,0.0
11.028,-0.315,-0.861,0.0
10.451,-0.3,-0.877,0.0
9.88,-0.286,-0.887,0.0
9.453,-0.275,-0.903,0.0
9.035,-0.265,-0.916,0.0
11.571,-0.342,-0.85,0.0
10.911,-0.325,-0.865,0.0
10.33,-0.31,-0.878,0.0
9.805,-0.296,-0.891,0.0
9.324,-0.283,-0.902,0.0
8.902,-0.272,-0.913,0.0
11.42,-0.352,-0.852,0.0
10.816,-0.335,-0.869,0.0
10.278,-0.321,-0.885,0.0
9.742,-0.306,-0.897,0.0
9.258,-0.293,-0.906,0.0
8.857,-0.282,-0.918,0.0
11.33,-0.363,-0.857,0.0
10.694,-0.345,-0.871,0.0
10.184,-0.331,-0.888,0.0
9.666,-0.316,-0.9,0.0
9.143,-0.301,-0.904,0.0
8.792,-0.291,-0.92,0.0
11.206,-0.374,-0.86,0.0
10.588,-0.355,-0.873,0.0
10.026,-0.339,-0.885,0.0
9.561,-0.325,-0.9,0.0
9.105,-0.312,-0.91,0.0
8.653,-0.298,-0.915,0.0
11.057,-0.383,-0.859,0.0
10.487,-0.366,-0.875,0.0
9.949,-0.349,-0.888,0.0
9.504,-0.335,-0.904,0.0
9.03,-0.321,-0.911,0.0
8.717,-0.312,-0.93,0.0
10.975,-0.394,-0.863,0.0
10.403,-0.376,-0.878,0.0
9.858,-0.359,-0.889,0.0
9.425,-0.345,-0.905,0.0
8.982,-0.331,-0.915,0.0
8.548,-0.317,-0.92,0.0
10.929,-0.407,-0.87,0.0
10.346,-0.388,-0.883,0.0
9.817,-0.37,-0.894,0.0
9.333,-0.354,-0.905,0.0
8.922,-0.34,-0.916,0.0
8.5,-0.326,-0.922,0.0
10.838,-0.418,-0.872,0.0
10.241,-0.397,-0.883,0.0
9.761,-0.381,-0.897,0.0
9.257,-0.363,-0.905,0.0
8.827,-0.348,-0.914,0.0
8.432,-0.335,-0.922,0.0
10.686,-0.426,-0.869,0.0
10.18,-0.408,-0.886,0.0
9.683,-0.391,-0.898,0.0
9.215,-0.374,-0.909,0.0
8.824,-0.36,-0.921,0.0
8.382,-0.344,-0.923,0.0
10.619,-0.438,-0.871,0.0
10.088,-0.418,-0.886,0.0
9.591,-0.4,-0.897,0.0
9.159,-0.384,-0.91,0.0
8.742,-0.369,-0.919,0.0
8.346,-0.354,-0.926,0.0
10.535,-0.448,-0.872,0.0
10.011,-0.428,-0.886,0.0
9.552,-0.411,-0.9,0.0
9.081,-0.393,-0.909,0.0
8.649,-0.376,-0.916,0.0
8.289,-0.363,-0.925,0.0
10.5,-0.461,-0.877,0.0
9.964,-0.44,-0.889,0.0
9.529,-0.423,-0.905,0.0
9.074,-0.405,-0.915,0.0
8.66,-0.388,-0.923,0.0
8.258,-0.373,-0.927,0.0
10.432,-0.472,-0.878,0.0
9.876,-0.449,-0.888,0.0
9.469,-0.433,-0.905,0.0
9.069,-0.417,-0.92,0.0
8.601,-0.398,-0.922,0.0
8.224,-0.382,-0.929,0.0
10.381,-0.484,-0.88,0.0
9.833,-0.461,-0.89,0.0
9.395,-0.442,-0.904,0.0
8.934,-0.423,-0.911,0.0
8.537,-0.406,-0.92,0.0
8.217,-0.393,-0.933,0.0
10.332,-0.495,-0.882,0.0
9.818,-0.473,-0.894,0.0
9.344,-0.452,-0.904,0.0
8.953,-0.436,-0.918,0.0
8.479,-0.415,-0.918,0.0
8.148,-0.401,-0.929,0.0
10.265,-0.506,-0.881,0.0
9.771,-0.484,-0.895,0.0
9.336,-0.465,-0.908,0.0
0.0,0.0,0.0,0.0
8.444,-0.424,-0.919,0.0
8.081,-0.408,-0.925,0.0
10.213,-0.517,-0.882,0.0
9.726,-0.495,-0.895,0.0
9.262,-0.473,-0.905,0.0
0.0,0.0,0.0,0.0
8.463,-0.437,-0.924,0.0
8.076,-0.419,-0.929,0.0
10.186,-0.529,-0.884,0.0
9.688,-0.506,-0.896,0.0
9.168,-0.481,-0.9,0.0
0.0,0.0,0.0,0.0
8.417,-0.446,-0.923,0.0
8.062,-0.429,-0.93,0.0
10.167,-0.542,-0.886,0.0
9.646,-0.516,-0.895,0.0
9.132,-0.491,-0.9,0.0
0.0,0.0,0.0,0.0
8.369,-0.454,-0.921,0.0
8.018,-0.437,-0.928,0.0
10.156,-0.555,-0.889,0.0
9.617,-0.528,-0.896,0.0
9.156,-0.505,-0.905,0.0
0.0,0.0,0.0,0.0
8.381,-0.466,-0.925,0.0
7.998,-0.447,-0.928,0.0
10.095,-0.565,-0.886,0.0
9.619,-0.541,-0.899,0.0
9.143,-0.516,-0.906,0.0
0.0,0.0,0.0,0.0
8.379,-0.477,-0.927,0.0
8.022,-0.459,-0.933,0.0
10.052,-0.576,-0.885,0.0
9.616,-0.553,-0.901,0.0
9.107,-0.526,-0.905,0.0
0.0,0.0,0.0,0.0
8.35,-0.487,-0.926,0.0
8.004,-0.469,-0.933,0.0
10.05,-0.589,-0.887,0.0
9.57,-0.563,-0.899,0.0
9.099,-0.538,-0.906,0.0
0.0,0.0,0.0,0.0
8.354,-0.498,-0.927,0.0
8.0,-0.479,-0.934,0.0
10.043,-0.602,-0.888,0.0
9.588,-0.577,-0.902,0.0
9.138,-0.552,-0.911,0.0
0.0,0.0,0.0,0.0
8.339,-0.508,-0.927,0.0
7.985,-0.489,-0.933,0.0
10.021,-0.613,-0.888,0.0
9.585,-0.589,-0.903,0.0
9.114,-0.562,-0.91,0.0
0.0,0.0,0.0,0.0
8.354,-0.52,-0.929,0.0
7.947,-0.497,-0.929,0.0
10.022,-0.627,-0.888,0.0
9.565,-0.6,-0.902,0.0
9.093,-0.573,-0.908,0.0
0.0,0.0,0.0,0.0
8.341,-0.53,-0.928,0.0
7.946,-0.507,-0.929,0.0
10.054,-0.641,-0.892,0.0
9.55,-0.612,-0.901,0.0
9.087,-0.584,-0.908,0.0
0.0,0.0,0.0,0.0
8.31,-0.538,-0.925,0.0
7.961,-0.518,-0.931,0.0
10.032,-0.653,-0.89,0.0
9.574,-0.625,-0.903,0.0
9.074,-0.595,-0.906,0.0
0.0,0.0,0.0,0.0
8.289,-0.547,-0.922,0.0
7.951,-0.527,-0.93,0.0
10.03,-0.665,-0.889,0.0
9.586,-0.638,-0.903,0.0
9.139,-0.61,-0.912,0.0
0.0,0.0,0.0,0.0
8.289,-0.558,-0.922,0.0
8.007,-0.541,-0.935,0.0
10.054,-0.679,-0.89,0.0
9.558,-0.648,-0.9,0.0
9.105,-0.619,-0.908,0.0
0.0,0.0,0.0,0.0
8.323,-0.57,-0.924,0.0
7.993,-0.55,-0.933,0.0
10.044,-0.691,-0.888,0.0
9.578,-0.661,-0.9,0.0
9.121,-0.632,-0.908,0.0
8.71,-0.605,-0.917,0.0
8.352,-0.582,-0.926,0.0
8.015,-0.561,-0.934,0.0
10.11,-0.707,-0.892,0.0
9.616,-0.675,-0.902,0.0
9.178,-0.647,-0.912,0.0
8.791,-0.622,-0.924,0.0
8.343,-0.592,-0.923,0.0
8.027,-0.572,-0.933,0.0
10.105,-0.719,-0.889,0.0
9.618,-0.687,-0.9,0.0
9.151,-0.656,-0.907,0.0
8.775,-0.631,-0.92,0.0
8.385,-0.605,-0.926,0.0
8.026,-0.581,-0.931,0.0
10.144,-0.734,-0.89,0.0
9.658,-0.701,-0.901,0.0
9.169,-0.668,-0.906,0.0
8.812,-0.644,-0.921,0.0
8.404,-0.616,-0.925,0.0
8.032,-0.591,-0.929,0.0
10.188,-0.748,-0.891,0.0
9.687,-0.714,-0.901,0.0
9.179,-0.679,-0.904,0.0
8.811,-0.654,-0.918,0.0
8.352,-0.622,-0.917,0.0
8.124,-0.607,-0.937,0.0
10.204,-0.761,-0.888,0.0
9.737,-0.729,-0.902,0.0
9.267,-0.696,-0.91,0.0
8.837,-0.665,-0.917,0.0
8.486,-0.641,-0.928,0.0
8.116,-0.615,-0.933,0.0
10.235,-0.775,-0.887,0.0
9.76,-0.741,-0.9,0.0
9.298,-0.708,-0.909,0.0
8.818,-0.674,-0.912,0.0
8.456,-0.648,-0.921,0.0
8.126,-0.625,-0.931,0.0
10.289,-0.79,-0.887,0.0
9.77,-0.752,-0.897,0.0
9.306,-0.719,-0.906,0.0
8.94,-0.693,-0.92,0.0
8.426,-0.655,-0.914,0.0
8.173,-0.637,-0.932,0.0
10.325,-0.804,-0.886,0.0
9.801,-0.765,-0.895,0.0
9.342,-0.731,-0.904,0.0
8.994,-0.706,-0.922,0.0
8.516,-0.67,-0.92,0.0
8.185,-0.647,-0.93,0.0
10.375,-0.818,-0.885,0.0
9.834,-0.778,-0.893,0.0
9.406,-0.746,-0.906,0.0
8.977,-0.714,-0.915,0.0
8.529,-0.68,-0.917,0.0
8.237,-0.659,-0.931,0.0
10.445,-0.834,-0.885,0.0
9.904,-0.793,-0.894,0.0
9.474,-0.761,-0.907,0.0
9.018,-0.726,-0.914,0.0
8.648,-0.698,-0.924,0.0
8.26,-0.669,-0.929,0.0
10.495,-0.849,-0.883,0.0
9.957,-0.807,-0.892,0.0
9.503,-0.773,-0.904,0.0
9.093,-0.741,-0.916,0.0
8.723,-0.713,-0.927,0.0
8.314,-0.681,-0.929,0.0
10.573,-0.865,-0.883,0.0
10.035,-0.823,-0.893,0.0
9.562,-0.786,-0.903,0.0
9.102,-0.751,-0.911,0.0
0.0,0.0,0.0,0.0
8.327,-0.69,-0.925,0.0
10.65,-0.881,-0.882,0.0
10.103,-0.838,-0.892,0.0
9.665,-0.804,-0.907,0.0
9.175,-0.765,-0.912,0.0
8.749,-0.731,-0.918,0.0
8.359,-0.7,-0.923,0.0
10.75,-0.899,-0.883,0.0
10.168,-0.853,-0.891,0.0
9.682,-0.814,-0.901,0.0
9.208,-0.776,-0.909,0.0
8.861,-0.748,-0.923,0.0
8.46,-0.716,-0.928,0.0
10.839,-0.916,-0.882,0.0
10.25,-0.868,-0.891,0.0
9.753,-0.828,-0.901,0.0
9.286,-0.79,-0.909,0.0
8.907,-0.76,-0.921,0.0
8.506,-0.727,-0.927,0.0
10.919,-0.932,-0.881,0.0
10.315,-0.882,-0.888,0.0
9.797,-0.84,-0.897,0.0
9.329,-0.802,-0.906,0.0
8.973,-0.773,-0.921,0.0
8.541,-0.737,-0.923,0.0
11.012,-0.949,-0.879,0.0
10.42,-0.9,-0.889,0.0
9.89,-0.856,-0.897,0.0
9.433,-0.818,-0.909,0.0
8.984,-0.781,-0.914,0.0
8.572,-0.747,-0.919,0.0
11.097,-0.965,-0.877,0.0
10.514,-0.916,-0.888,0.0
9.978,-0.871,-0.897,0.0
9.519,-0.833,-0.909,0.0
9.096,-0.797,-0.918,0.0
8.642,-0.759,-0.92,0.0
11.183,-0.981,-0.874,0.0
10.61,-0.932,-0.887,0.0
10.076,-0.887,-0.897,0.0
9.588,-0.846,-0.907,0.0
9.183,-0.812,-0.918,0.0
8.703,-0.771,-0.918,0.0
11.318,-1.0,-0.874,0.0
10.733,-0.95,-0.887,0.0
10.178,-0.903,-0.897,0.0
9.655,-0.858,-0.904,0.0
9.207,-0.82,-0.912,0.0
8.809,-0.786,-0.921,0.0
11.437,-1.018,-0.873,0.0
10.841,-0.967,-0.886,0.0
10.257,-0.917,-0.894,0.0
9.741,-0.872,-0.903,0.0
9.302,-0.834,-0.913,0.0
8.881,-0.798,-0.92,0.0
11.522,-1.033,-0.868,0.0
10.95,-0.984,-0.884,0.0
10.338,-0.93,-0.891,0.0
9.838,-0.887,-0.902,0.0
9.388,-0.848,-0.912,0.0
8.953,-0.81,-0.919,0.0
11.69,-1.055,-0.869,0.0
11.063,-1.0,-0.883,0.0
10.471,-0.948,-0.892,0.0
9.924,-0.9,-0.9,0.0
9.472,-0.861,-0.911,0.0
8.98,-0.817,-0.912,0.0
11.797,-1.072,-0.865,0.0
11.205,-1.019,-0.883,0.0
10.572,-0.963,-0.89,0.0
10.017,-0.914,-0.898,0.0
9.527,-0.871,-0.906,0.0
9.128,-0.836,-0.918,0.0
11.88,-1.085,-0.859,0.0
11.303,-1.034,-0.878,0.0
10.622,-0.973,-0.883,0.0
10.127,-0.929,-0.898,0.0
9.646,-0.886,-0.907,0.0
9.199,-0.847,-0.915,0.0
12.118,-1.113,-0.863,0.0
11.399,-1.048,-0.874,0.0
10.823,-0.997,-0.888,0.0
10.241,-0.944,-0.896,0.0
9.737,-0.899,-0.905,0.0
9.299,-0.86,-0.914,0.0
12.289,-1.134,-0.862,0.0
11.531,-1.066,-0.871,0.0
10.946,-1.013,-0.886,0.0
10.346,-0.958,-0.894,0.0
9.842,-0.913,-0.904,0.0
9.402,-0.873,-0.914,0.0
12.449,-1.154,-0.859,0.0
11.697,-1.086,-0.87,0.0
11.037,-1.026,-0.88,0.0
10.503,-0.977,-0.895,0.0
9.941,-0.926,-0.901,0.0
9.459,-0.882,-0.908,0.0
12.617,-1.174,-0.856,0.0
11.866,-1.106,-0.869,0.0
11.227,-1.047,-0.883,0.0
10.557,-0.986,-0.888,1.0
10.053,-0.94,-0.899,0.0
9.574,-0.896,-0.908,0.0
12.84,-1.199,-0.857,0.0
11.992,-1.121,-0.864,0.0
11.378,-1.065,-0.881,0.0
10.708,-1.003,-0.888,0.0
10.208,-0.957,-0.901,0.0
9.689,-0.91,-0.908,0.0
13.002,-1.218,-0.852,0.0
12.162,-1.141,-0.862,0.0
11.441,-1.074,-0.872,0.0
10.917,-1.026,-0.892,0.0
10.317,-0.97,-0.898,0.0
9.82,-0.924,-0.908,0.0
13.14,-1.235,-0.845,0.0
12.424,-1.168,-0.865,0.0
11.643,-1.096,-0.873,0.0
10.977,-1.034,-0.883,0.0
10.462,-0.986,-0.898,0.0
9.918,-0.936,-0.904,0.0
13.395,-1.261,-0.845,0.0
12.568,-1.184,-0.86,0.0
11.778,-1.111,-0.868,0.0
11.19,-1.056,-0.886,0.0
10.562,-0.997,-0.893,0.0
10.037,-0.949,-0.902,0.0
13.639,-1.287,-0.843,0.0
12.796,-1.208,-0.859,0.0
11.931,-1.127,-0.865,0.0
11.32,-1.07,-0.882,0.0
10.706,-1.012,-0.891,0.0
10.202,-0.966,-0.904,0.0
13.788,-1.302,-0.834,0.0
12.962,-1.225,-0.854,0.0
12.112,-1.145,-0.862,0.0
11.396,-1.078,-0.873,0.0
10.892,-1.031,-0.893,0.0
10.331,-0.979,-0.902,0.0
14.038,-1.327,-0.832,0.0
13.159,-1.245,-0.85,0.0
12.358,-1.169,-0.864,0.0
11.61,-1.099,-0.874,0.0
10.983,-1.04,-0.886,0.0
10.434,-0.989,-0.898,0.0
14.304,-1.353,-0.829,0.0
13.359,-1.264,-0.845,0.0
12.518,-1.185,-0.858,0.0
11.729,-1.11,-0.868,0.0
11.191,-1.06,-0.888,0.0
10.565,-1.001,-0.895,0.0
14.607,-1.381,-0.827,0.0
13.624,-1.289,-0.844,0.0
12.785,-1.21,-0.86,0.0
11.916,-1.128,-0.866,0.0
11.359,-1.075,-0.886,0.0
10.74,-1.017,-0.895,0.0
14.898,-1.408,-0.824,0.0
13.829,-1.307,-0.838,0.0
12.979,-1.227,-0.856,0.0
12.151,-1.149,-0.867,0.0
11.434,-1.082,-0.877,0.0
10.879,-1.029,-0.892,0.0
15.081,-1.424,-0.814,0.0
14.049,-1.327,-0.832,0.0
13.105,-1.238,-0.846,0.0
12.356,-1.167,-0.865,0.0
11.65,-1.1,-0.877,0.0
10.975,-1.037,-0.885,0.0
15.431,-1.455,-0.812,0.0
14.357,-1.354,-0.831,0.0
13.347,-1.258,-0.844,0.0
12.563,-1.185,-0.862,0.0
11.771,-1.11,-0.87,0.0
11.212,-1.057,-0.889,0.0
15.714,-1.479,-0.805,0.0
14.646,-1.378,-0.828,0.0
13.643,-1.284,-0.843,0.0
12.785,-1.203,-0.859,0.0
12.008,-1.13,-0.871,0.0
11.36,-1.068,-0.884,0.0
15.987,-1.501,-0.797,0.0
14.942,-1.403,-0.824,0.0
13.829,-1.298,-0.836,0.0
13.027,-1.222,-0.858,0.0
12.185,-1.143,-0.867,0.0
11.494,-1.078,-0.879,0.0
16.602,-1.554,-0.805,0.0
15.159,-1.419,-0.815,0.0
14.162,-1.325,-0.836,0.0
13.166,-1.231,-0.849,0.0
12.369,-1.157,-0.863,0.0
11.651,-1.089,-0.875,0.0
16.716,-1.56,-0.787,0.0
15.538,-1.449,-0.813,0.0
14.414,-1.344,-0.831,0.0
13.432,-1.252,-0.847,0.0
12.642,-1.178,-0.864,0.0
11.839,-1.102,-0.872,0.0
17.051,-1.585,-0.779,0.0
15.712,-1.46,-0.801,0.0
14.708,-1.366,-0.827,0.0
13.668,-1.269,-0.842,0.0
12.847,-1.192,-0.86,0.0
12.003,-1.113,-0.867,0.0
17.585,-1.628,-0.778,0.0
16.198,-1.498,-0.803,0.0
14.95,-1.382,-0.82,0.0
13.931,-1.287,-0.839,0.0
13.103,-1.21,-0.858,0.0
12.236,-1.129,-0.867,0.0
17.99,-1.657,-0.771,0.0
16.571,-1.525,-0.798,0.0
15.366,-1.413,-0.821,0.0
14.264,-1.311,-0.839,0.0
13.332,-1.224,-0.854,0.0
12.462,-1.144,-0.865,0.0
18.317,-1.678,-0.759,0.0
16.75,-1.533,-0.783,0.0
15.614,-1.428,-0.812,0.0
14.447,-1.32,-0.829,0.0
13.507,-1.233,-0.847,0.0
12.673,-1.156,-0.861,0.0
18.995,-1.731,-0.76,0.0
17.246,-1.57,-0.781,0.0
15.935,-1.449,-0.806,0.0
14.81,-1.345,-0.829,0.0
13.771,-1.25,-0.844,0.0
12.902,-1.17,-0.859,0.0
19.501,-1.765,-0.753,0.0
17.652,-1.596,-0.775,0.0
16.449,-1.486,-0.809,0.0
15.001,-1.354,-0.819,0.0
14.068,-1.268,-0.842,0.0
13.088,-1.179,-0.853,0.0
20.023,-1.8,-0.745,0.0
17.924,-1.609,-0.761,0.0
16.67,-1.495,-0.796,0.0
15.373,-1.377,-0.817,0.0
14.352,-1.284,-0.838,0.0
13.478,-1.205,-0.859,0.0
20.586,-1.837,-0.737,0.0
18.508,-1.65,-0.76,0.0
17.03,-1.516,-0.789,0.0
15.729,-1.398,-0.813,0.0
14.609,-1.297,-0.833,0.0
13.652,-1.211,-0.85,0.0
21.125,-1.87,-0.727,0.0
19.043,-1.684,-0.755,0.0
17.372,-1.534,-0.781,0.0
16.156,-1.424,-0.813,0.0
14.85,-1.307,-0.825,0.0
13.829,-1.216,-0.842,0.0
21.727,-1.907,-0.717,0.0
19.572,-1.716,-0.749,0.0
17.733,-1.552,-0.772,0.0
16.342,-1.428,-0.799,0.0
15.25,-1.331,-0.826,0.0
13.997,-1.219,-0.832,0.0
22.334,-1.943,-0.705,1.0
20.145,-1.749,-0.742,0.0
18.242,-1.582,-0.768,0.0
16.701,-1.446,-0.793,0.0
15.431,-1.334,-0.814,0.0
14.409,-1.243,-0.837,0.0
22.794,-1.964,-0.688,1.0
20.516,-1.764,-0.727,0.0
18.714,-1.607,-0.762,0.0
17.197,-1.474,-0.793,0.0
15.869,-1.358,-0.815,0.0
14.674,-1.253,-0.831,0.0
23.5,-2.004,-0.677,0.0
21.281,-1.811,-0.725,0.0
19.2,-1.631,-0.755,0.0
17.51,-1.485,-0.783,0.0
16.148,-1.367,-0.807,0.0
14.953,-1.263,-0.826,0.0
24.097,-2.032,-0.66,1.0
21.972,-1.849,-0.717,0.0
19.799,-1.663,-0.751,0.0
17.821,-1.494,-0.772,0.0
16.57,-1.386,-0.805,0.0
15.295,-1.277,-0.824,0.0
25.021,-2.086,-0.651,1.0
22.719,-1.89,-0.71,0.0
20.111,-1.669,-0.735,0.0
18.358,-1.521,-0.769,0.0
16.795,-1.388,-0.793,0.0
15.528,-1.281,-0.815,0.0
25.924,-2.135,-0.639,1.0
22.948,-1.886,-0.686,0.0
20.951,-1.718,-0.737,0.0
18.785,-1.537,-0.762,0.0
17.202,-1.404,-0.788,0.0
15.91,-1.296,-0.813,0.0
26.967,-2.193,-0.627,1.0
24.071,-1.952,-0.687,0.0
21.51,-1.741,-0.727,0.0
19.123,-1.544,-0.749,0.0
17.662,-1.422,-0.785,0.0
16.231,-1.304,-0.808,0.0
28.381,-2.277,-0.622,1.0
0.0,0.0,0.0,0.0
22.091,-1.763,-0.717,1.0
19.902,-1.585,-0.753,0.0
17.904,-1.422,-0.772,0.0
16.618,-1.317,-0.805,0.0
29.53,-2.336,-0.608,1.0
0.0,0.0,0.0,0.0
22.538,-1.773,-0.702,0.0
20.515,-1.609,-0.749,0.0
18.4,-1.44,-0.769,0.0
16.723,-1.305,-0.787,0.0
30.955,-2.412,-0.596,0.0
26.351,-2.048,-0.647,0.0
23.349,-1.809,-0.696,0.0
21.027,-1.625,-0.74,1.0
18.91,-1.457,-0.766,0.0
17.359,-1.334,-0.794,0.0
32.83,-2.519,-0.59,0.0
27.554,-2.107,-0.64,0.0
24.274,-1.851,-0.692,0.0
21.433,-1.63,-0.727,0.0
19.172,-1.454,-0.751,0.0
17.685,-1.337,-0.787,0.0
34.562,-2.608,-0.576,0.0
0.0,0.0,0.0,0.0
25.545,-1.916,-0.695,0.0
21.802,-1.63,-0.711,0.0
19.916,-1.485,-0.755,0.0
17.927,-1.332,-0.774,0.0
38.095,-2.826,-0.586,0.0
0.0,0.0,0.0,0.0
26.247,-1.934,-0.681,0.0
22.6,-1.66,-0.708,0.0
19.733,-1.445,-0.723,0.0
18.268,-1.333,-0.766,0.0
0.0,0.0,0.0,0.0
30.859,-2.241,-0.599,1.0
27.012,-1.954,-0.667,0.0
23.287,-1.679,-0.701,0.0
20.988,-1.508,-0.743,0.0
19.133,-1.37,-0.778,0.0
38.754,-2.77,-0.5,0.0
32.215,-2.295,-0.586,0.0
0.0,0.0,0.0,0.0
23.771,-1.681,-0.686,0.0
21.465,-1.513,-0.733,0.0
19.68,-1.382,-0.776,0.0
0.0,0.0,0.0,0.0
0.0,0.0,0.0,0.0
29.167,-2.029,-0.649,0.0
24.757,-1.716,-0.685,0.0
21.853,-1.509,-0.72,0.0
19.769,-1.36,-0.756,2.0
20.033,-1.375,-0.21,14.0
20.058,-1.371,-0.316,8.0
20.074,-1.367,-0.423,6.0
20.096,-1.363,-0.531,3.0
20.155,-1.362,-0.64,0.0
19.895,-1.339,-0.737,2.0
20.029,-1.346,-0.186,27.0
20.043,-1.341,-0.292,27.0
20.063,-1.337,-0.399,24.0
20.083,-1.332,-0.507,26.0
20.109,-1.329,-0.615,24.0
20.097,-1.322,-0.721,9.0
20.004,-1.314,-0.162,35.0
20.033,-1.31,-0.269,29.0
20.048,-1.305,-0.375,28.0
20.07,-1.301,-0.484,32.0
20.107,-1.298,-0.592,28.0
20.079,-1.291,-0.698,13.0
20.008,-1.283,-0.139,31.0
20.021,-1.278,-0.246,29.0
20.062,-1.275,-0.353,27.0
20.091,-1.271,-0.462,27.0
20.11,-1.267,-0.569,19.0
20.098,-1.26,-0.676,8.0
20.021,-1.252,-0.117,27.0
20.052,-1.248,-0.224,24.0
20.064,-1.243,-0.331,10.0
20.061,-1.237,-0.439,4.0
19.979,-1.226,-0.543,2.0
19.962,-1.219,-0.649,8.0
19.977,-1.217,-0.095,150.0
19.988,-1.212,-0.201,151.0
19.973,-1.205,-0.307,150.0
19.985,-1.2,-0.416,150.0
19.988,-1.194,-0.522,150.0
19.972,-1.187,-0.628,101.0
19.993,-1.186,-0.074,150.0
20.006,-1.18,-0.18,152.0
20.001,-1.174,-0.287,70.0
19.987,-1.167,-0.395,12.0
19.999,-1.162,-0.502,2.0
19.992,-1.155,-0.608,0.0
20.242,-1.167,-0.054,0.0
19.993,-1.146,-0.159,0.0
38.591,-2.201,-0.514,1.0
0.0,0.0,0.0,0.0
27.161,-1.532,-0.653,0.0
23.642,-1.326,-0.695,1.0
20.011,-1.119,-0.033,9.0
49.993,-2.781,-0.349,0.0
0.0,0.0,0.0,0.0
0.0,0.0,0.0,0.0
0.0,0.0,0.0,0.0
23.727,-1.29,-0.674,0.0
19.985,-1.084,-0.013,19.0
20.01,-1.079,-0.12,25.0
20.033,-1.073,-0.227,0.0
19.964,-1.063,-0.334,0.0
20.031,-1.06,-0.442,14.0
20.068,-1.056,-0.55,25.0
19.991,-1.049,0.005,27.0
19.986,-1.042,-0.101,27.0
20.013,-1.037,-0.208,25.0
20.021,-1.031,-0.317,21.0
20.028,-1.025,-0.424,30.0
20.044,-1.019,-0.531,30.0
19.991,-1.013,0.024,18.0
19.971,-1.005,-0.082,29.0
19.982,-1.0,-0.189,29.0
20.004,-0.994,-0.298,23.0
20.022,-0.988,-0.405,27.0
20.062,-0.984,-0.513,22.0
20.036,-0.979,0.042,2.0
20.007,-0.971,-0.064,22.0
19.992,-0.964,-0.171,26.0
20.018,-0.958,-0.28,25.0
20.051,-0.953,-0.388,23.0
20.082,-0.948,-0.496,2.0
0.0,0.0,0.0,0.0
20.029,-0.935,-0.047,2.0
20.015,-0.928,-0.154,8.0
20.001,-0.921,-0.263,15.0
20.009,-0.915,-0.371,0.0
27.232,-1.236,-0.65,0.0
0.0,0.0,0.0,0.0
0.0,0.0,0.0,0.0
0.0,0.0,0.0,0.0
38.721,-1.711,-0.478,0.0
0.0,0.0,0.0,0.0
0.0,0.0,0.0,0.0
0.0,0.0,0.0,0.0
0.0,0.0,0.0,0.0
53.955,-2.301,-0.329,1.0
43.069,-1.822,-0.498,0.0
0.0,0.0,0.0,0.0
28.968,-1.206,-0.646,0.0
138.378,-5.733,0.748,4.0
76.424,-3.14,0.003,0.0
0.0,0.0,0.0,0.0
0.0,0.0,0.0,0.0
0.0,0.0,0.0,0.0
29.084,-1.154,-0.626,0.0
138.376,-5.467,0.852,8.0
0.0,0.0,0.0,0.0
0.0,0.0,0.0,0.0
0.0,0.0,0.0,0.0
0.0,0.0,0.0,0.0
30.034,-1.134,-0.625,0.0
138.496,-5.199,0.952,16.0
0.0,0.0,0.0,0.0
0.0,0.0,0.0,0.0
0.0,0.0,0.0,0.0
37.959,-1.371,-0.559,0.0
30.606,-1.095,-0.616,0.0
138.569,-4.928,1.048,14.0
0.0,0.0,0.0,0.0
0.0,0.0,0.0,0.0
46.669,-1.61,-0.405,0.0
38.059,-1.299,-0.535,0.0
30.962,-1.046,-0.603,0.0
138.62,-4.652,1.139,23.0
0.0,0.0,0.0,0.0
0.0,0.0,0.0,0.0
47.604,-1.547,-0.383,1.0
38.071,-1.223,-0.512,0.0
31.35,-0.996,-0.59,0.0
138.653,-4.374,1.225,22.0
0.0,0.0,0.0,0.0
0.0,0.0,0.0,0.0
47.743,-1.455,-0.356,0.0
41.209,-1.241,-0.529,1.0
0.0,0.0,0.0,0.0
138.444,-4.088,1.304,15.0
0.0,0.0,0.0,0.0
0.0,0.0,0.0,0.0
0.0,0.0,0.0,0.0
0.0,0.0,0.0,0.0
0.0,0.0,0.0,0.0
138.794,-3.816,1.383,17.0
138.707,-3.763,0.632,3.0
0.0,0.0,0.0,0.0
0.0,0.0,0.0,0.0
43.157,-1.123,-0.508,0.0
32.85,-0.843,-0.564,0.0
138.911,-3.53,1.456,10.0
138.849,-3.479,0.703,4.0
0.0,0.0,0.0,0.0
0.0,0.0,0.0,0.0
43.229,-1.036,-0.487,0.0
34.189,-0.807,-0.571,0.0
139.041,-3.248,1.523,2.0
138.929,-3.194,0.769,8.0
0.0,0.0,0.0,0.0
52.592,-1.171,-0.284,0.0
0.0,0.0,0.0,0.0
34.516,-0.743,-0.561,0.0
0.0,0.0,0.0,0.0
138.853,-2.902,0.829,10.0
81.542,-1.675,0.044,1.0
0.0,0.0,0.0,0.0
44.998,-0.892,-0.468,1.0
34.914,-0.679,-0.553,0.0
0.0,0.0,0.0,0.0
138.967,-2.614,0.885,12.0
0.0,0.0,0.0,0.0
0.0,0.0,0.0,0.0
0.0,0.0,0.0,0.0
35.033,-0.608,-0.542,0.0
0.0,0.0,0.0,0.0
139.02,-2.32,0.936,12.0
0.0,0.0,0.0,0.0
0.0,0.0,0.0,0.0
46.649,-0.727,-0.452,0.0
35.138,-0.535,-0.532,0.0
138.878,-2.073,1.737,9.0
138.865,-2.025,0.98,21.0
0.0,0.0,0.0,0.0
0.0,0.0,0.0,0.0
0.0,0.0,0.0,0.0
36.082,-0.473,-0.535,0.0
0.0,0.0,0.0,0.0
139.189,-1.731,1.022,17.0
0.0,0.0,0.0,0.0
0.0,0.0,0.0,0.0
45.428,-0.515,-0.414,0.0
36.078,-0.396,-0.525,0.0
119.756,-1.277,1.564,151.0
119.756,-1.234,0.91,115.0
0.0,0.0,0.0,0.0
0.0,0.0,0.0,0.0
0.0,0.0,0.0,0.0
0.0,0.0,0.0,0.0
119.741,-1.023,1.59,40.0
119.682,-0.979,0.935,12.0
0.0,0.0,0.0,0.0
0.0,0.0,0.0,0.0
0.0,0.0,0.0,0.0
36.871,-0.248,-0.522,0.0
119.731,-0.764,1.612,18.0
119.711,-0.722,0.956,9.0
95.294,-0.54,0.24,1.0
0.0,0.0,0.0,0.0
45.811,-0.226,-0.39,0.0
36.816,-0.168,-0.515,0.0
119.692,-0.508,1.629,6.0
119.726,-0.466,0.973,9.0
101.872,-0.359,0.27,1.0
0.0,0.0,0.0,0.0
46.997,-0.131,-0.395,0.0
0.0,0.0,0.0,0.0
119.765,-0.251,1.643,15.0
117.304,-0.203,0.966,9.0
0.0,0.0,0.0,0.0
0.0,0.0,0.0,0.0
45.524,-0.029,-0.379,1.0
0.0,0.0,0.0,0.0
111.129,0.006,1.532,16.0
111.116,0.046,0.922,9.0
0.0,0.0,0.0,0.0
0.0,0.0,0.0,0.0
45.599,0.068,-0.377,0.0
37.932,0.07,-0.522,0.0
111.168,0.248,1.537,12.0
110.987,0.287,0.924,11.0
91.295,0.267,0.258,1.0
0.0,0.0,0.0,0.0
46.105,0.168,-0.381,0.0
0.0,0.0,0.0,0.0
111.092,0.487,1.535,30.0
110.949,0.525,0.922,15.0
87.789,0.447,0.246,4.0
0.0,0.0,0.0,0.0
45.911,0.266,-0.381,0.0
0.0,0.0,0.0,0.0
111.119,0.728,1.531,6.0
104.852,0.723,0.867,24.0
85.268,0.617,0.235,4.0
0.0,0.0,0.0,0.0
48.575,0.385,-0.406,0.0
0.0,0.0,0.0,0.0
99.184,0.861,1.359,5.0
98.528,0.889,0.806,16.0
85.465,0.801,0.227,2.0
46.708,0.454,-0.137,0.0
46.566,0.469,-0.394,1.0
0.0,0.0,0.0,0.0
98.554,1.066,1.338,30.0
98.456,1.099,0.793,14.0
81.266,0.935,0.206,4.0
0.0,0.0,0.0,0.0
0.0,0.0,0.0,0.0
36.981,0.464,-0.522,0.0
98.547,1.276,1.323,31.0
98.502,1.309,0.778,16.0
80.954,1.104,0.192,3.0
0.0,0.0,0.0,0.0
46.997,0.673,-0.413,0.0
0.0,0.0,0.0,0.0
91.979,1.386,1.218,29.0
91.877,1.415,0.708,21.0
77.488,1.22,0.168,3.0
0.0,0.0,0.0,0.0
45.88,0.754,-0.413,1.0
35.995,0.604,-0.523,0.0
91.891,1.581,1.195,34.0
91.825,1.612,0.686,19.0
73.877,1.323,0.142,4.0
0.0,0.0,0.0,0.0
45.991,0.854,-0.425,0.0
35.962,0.68,-0.532,0.0
119.894,2.319,1.528,9.0
85.332,1.678,0.614,19.0
72.004,1.441,0.118,7.0
0.0,0.0,0.0,0.0
44.639,0.923,-0.426,0.0
35.682,0.75,-0.538,0.0
85.243,1.828,1.06,35.0
85.151,1.855,0.586,15.0
71.816,1.589,0.095,7.0
0.0,0.0,0.0,0.0
44.314,1.01,-0.437,0.0
0.0,0.0,0.0,0.0
85.263,2.009,1.032,30.0
85.078,2.032,0.557,12.0
71.339,1.727,0.07,3.0
55.16,1.354,-0.257,0.0
0.0,0.0,0.0,0.0
35.299,0.889,-0.557,0.0
78.917,2.023,0.925,33.0
78.782,2.045,0.486,14.0
66.194,1.74,0.039,6.0
54.812,1.459,-0.277,0.0
41.318,1.113,-0.439,0.0
34.572,0.943,-0.56,0.0
76.68,2.124,0.868,7.0
78.723,2.207,0.452,9.0
65.077,1.846,0.011,6.0
0.0,0.0,0.0,0.0
0.0,0.0,0.0,0.0
33.893,0.995,-0.564,0.0
78.921,2.352,0.857,15.0
72.182,2.175,0.381,14.0
0.0,0.0,0.0,0.0
0.0,0.0,0.0,0.0
0.0,0.0,0.0,0.0
33.51,1.053,-0.573,0.0
72.413,2.308,0.751,27.0
71.942,2.315,0.345,15.0
62.584,2.034,-0.048,3.0
54.281,1.781,-0.35,0.0
0.0,0.0,0.0,0.0
32.3,1.08,-0.569,0.0
72.348,2.453,0.713,31.0
71.699,2.454,0.306,16.0
59.644,2.059,-0.078,5.0
0.0,0.0,0.0,0.0
38.573,1.356,-0.485,0.0
32.495,1.153,-0.591,0.0
72.378,2.601,0.673,20.0
71.673,2.598,0.266,8.0
58.735,2.147,-0.11,7.0
47.91,1.766,-0.362,0.0
0.0,0.0,0.0,0.0
0.0,0.0,0.0,0.0
119.999,4.553,1.046,15.0
65.813,2.516,0.205,12.0
58.625,2.259,-0.144,1.0
45.052,1.75,-0.368,0.0
37.874,1.482,-0.521,0.0
30.602,1.207,-0.593,0.0
66.164,2.641,0.536,21.0
65.579,2.638,0.163,13.0
55.237,2.238,-0.171,3.0
44.834,1.83,-0.395,1.0
36.422,1.498,-0.525,0.0
30.076,1.245,-0.602,0.0
66.082,2.767,0.492,12.0
65.279,2.753,0.12,11.0
54.11,2.298,-0.203,3.0
44.668,1.91,-0.423,1.0
0.0,0.0,0.0,0.0
29.571,1.282,-0.612,0.0
66.056,2.895,0.446,21.0
65.094,2.871,0.074,7.0
53.099,2.358,-0.237,7.0
43.527,1.946,-0.443,0.0
34.895,1.57,-0.551,0.0
29.03,1.315,-0.621,0.0
66.163,3.027,0.399,11.0
58.875,2.71,0.024,11.0
52.071,2.412,-0.27,6.0
43.554,2.03,-0.475,0.0
33.686,1.58,-0.557,0.0
28.407,1.341,-0.629,0.0
71.463,3.405,0.378,1.0
58.652,2.811,-0.019,13.0
51.059,2.461,-0.304,1.0
40.299,1.955,-0.471,2.0
32.662,1.593,-0.565,0.0
27.483,1.349,-0.63,0.0
66.14,3.275,0.298,3.0
52.398,2.61,-0.058,24.0
50.211,2.515,-0.339,4.0
39.191,1.974,-0.489,0.0
31.889,1.615,-0.577,0.0
27.041,1.377,-0.642,0.0
59.358,3.049,0.219,21.0
51.925,2.681,-0.1,25.0
49.044,2.545,-0.371,1.0
37.389,1.951,-0.497,0.0
0.0,0.0,0.0,0.0
26.577,1.402,-0.653,0.0
59.27,3.153,0.169,16.0
51.347,2.745,-0.143,17.0
45.631,2.452,-0.384,0.0
36.031,1.946,-0.51,0.0
0.0,0.0,0.0,0.0
26.112,1.425,-0.665,0.0
59.207,3.257,0.116,12.0
50.91,2.814,-0.187,12.0
0.0,0.0,0.0,0.0
35.411,1.976,-0.533,0.0
29.538,1.656,-0.611,0.0
25.482,1.436,-0.671,0.0
52.333,2.971,0.055,23.0
47.631,2.717,-0.217,5.0
0.0,0.0,0.0,0.0
0.0,0.0,0.0,0.0
28.816,1.666,-0.623,0.0
24.947,1.449,-0.68,0.0
51.818,3.033,0.007,19.0
46.282,2.72,-0.255,17.0
40.145,2.37,-0.448,0.0
32.821,1.946,-0.555,0.0
27.908,1.662,-0.63,0.0
24.258,1.451,-0.685,0.0
51.547,3.106,-0.042,22.0
45.653,2.761,-0.295,18.0
37.951,2.305,-0.46,0.0
32.005,1.952,-0.572,0.0
27.304,1.672,-0.643,0.0
23.727,1.459,-0.693,0.0
51.237,3.173,-0.092,20.0
45.058,2.801,-0.336,7.0
37.997,2.371,-0.498,0.0
31.107,1.949,-0.587,0.0
26.493,1.666,-0.65,0.0
23.103,1.459,-0.698,0.0
51.208,3.255,-0.143,5.0
44.41,2.834,-0.376,11.0
36.069,2.31,-0.51,0.0
30.061,1.932,-0.598,0.0
25.958,1.675,-0.664,0.0
22.553,1.461,-0.704,0.0
45.547,2.969,-0.175,20.0
43.83,2.867,-0.416,3.0
0.0,0.0,0.0,0.0
29.105,1.918,-0.61,0.0
25.073,1.658,-0.668,0.0
22.155,1.471,-0.716,0.0
44.844,2.995,-0.22,20.0
41.365,2.772,-0.437,1.0
33.588,2.259,-0.546,0.0
28.137,1.899,-0.62,0.0
24.537,1.662,-0.68,0.0
21.583,1.467,-0.721,0.0
44.145,3.018,-0.264,19.0
39.043,2.678,-0.456,0.0
32.821,2.258,-0.569,0.0
27.218,1.879,-0.629,0.0
23.749,1.645,-0.684,0.0
21.182,1.472,-0.73,0.0
42.632,2.979,-0.302,4.0
37.778,2.647,-0.482,1.0
31.229,2.195,-0.576,0.0
26.573,1.874,-0.644,0.0
23.142,1.637,-0.692,0.0
20.537,1.458,-0.731,0.0
41.834,2.986,-0.344,2.0
36.541,2.616,-0.508,1.0
0.0,0.0,0.0,0.0
25.87,1.863,-0.657,0.0
22.636,1.635,-0.703,0.0
20.252,1.467,-0.745,0.0
41.317,3.008,-0.387,3.0
35.037,2.559,-0.528,0.0
29.019,2.125,-0.602,0.0
25.143,1.847,-0.667,0.0
22.148,1.631,-0.714,0.0
19.718,1.457,-0.748,0.0
40.87,3.035,-0.431,8.0
33.377,2.485,-0.542,0.0
28.29,2.112,-0.62,0.0
24.658,1.846,-0.684,0.0
21.626,1.623,-0.723,0.0
19.283,1.452,-0.755,0.0
40.458,3.06,-0.475,2.0
0.0,0.0,0.0,0.0
27.242,2.071,-0.63,0.0
23.712,1.807,-0.686,0.0
21.109,1.613,-0.731,0.0
18.776,1.439,-0.757,0.0
36.606,2.817,-0.474,0.0
31.059,2.396,-0.579,0.0
26.625,2.059,-0.648,0.0
23.004,1.784,-0.693,0.0
20.415,1.587,-0.732,0.0
18.37,1.432,-0.763,0.0
35.688,2.793,-0.506,1.0
29.934,2.348,-0.594,0.0
26.129,2.055,-0.668,0.0
22.577,1.78,-0.708,0.0
20.068,1.586,-0.744,0.0
18.047,1.43,-0.772,0.0
33.927,2.698,-0.523,0.0
28.716,2.289,-0.606,0.0
24.883,1.988,-0.667,0.0
21.797,1.746,-0.711,0.0
19.594,1.573,-0.751,0.0
17.614,1.418,-0.776,0.0
32.874,2.655,-0.548,0.0
27.874,2.256,-0.624,0.0
24.089,1.954,-0.677,0.0
21.344,1.736,-0.724,0.0
18.975,1.546,-0.752,0.0
17.281,1.412,-0.784,0.0
31.518,2.584,-0.566,0.0
26.924,2.212,-0.638,0.0
23.402,1.927,-0.688,0.0
20.628,1.702,-0.726,0.0
18.535,1.532,-0.759,0.0
16.874,1.398,-0.787,0.0
30.134,2.505,-0.58,0.0
26.11,2.175,-0.652,0.0
22.84,1.906,-0.701,0.0
20.116,1.682,-0.734,0.0
18.147,1.521,-0.766,0.0
16.531,1.388,-0.793,0.0
28.654,2.414,-0.589,0.0
25.256,2.132,-0.663,0.0
22.142,1.872,-0.708,0.0
19.615,1.662,-0.741,0.0
17.805,1.512,-0.775,0.0
16.242,1.382,-0.8,0.0
28.027,2.391,-0.613,0.0
24.381,2.084,-0.673,0.0
21.826,1.869,-0.727,0.0
19.087,1.637,-0.747,0.0
17.469,1.501,-0.784,0.0
16.019,1.38,-0.811,0.0
27.128,2.342,-0.629,0.0
23.578,2.039,-0.682,0.0
20.88,1.809,-0.723,0.0
18.609,1.615,-0.753,0.0
16.982,1.477,-0.785,0.0
15.603,1.359,-0.811,0.0
26.287,2.296,-0.646,0.0
22.84,1.998,-0.691,0.0
20.346,1.783,-0.732,0.0
18.159,1.594,-0.76,0.0
16.681,1.467,-0.793,0.0
15.258,1.344,-0.813,0.0
25.427,2.245,-0.658,0.0
22.264,1.969,-0.704,0.0
19.74,1.748,-0.737,0.0
17.882,1.586,-0.772,0.0
16.319,1.45,-0.799,0.0
14.942,1.33,-0.817,0.0
24.431,2.179,-0.666,0.0
21.628,1.932,-0.714,0.0
19.197,1.717,-0.743,0.0
17.432,1.562,-0.777,0.0
15.99,1.435,-0.804,0.0
14.686,1.32,-0.823,0.0
23.58,2.124,-0.675,0.0
20.889,1.884,-0.718,0.0
18.719,1.69,-0.751,0.0
17.073,1.544,-0.784,0.0
15.598,1.413,-0.806,0.0
14.43,1.309,-0.829,0.0
22.932,2.084,-0.688,0.0
20.358,1.853,-0.727,0.0
18.268,1.665,-0.757,0.0
16.627,1.517,-0.787,0.0
15.333,1.401,-0.813,0.0
14.17,1.297,-0.833,0.0
22.329,2.047,-0.701,0.0
19.858,1.822,-0.737,0.0
17.836,1.639,-0.764,0.0
16.284,1.498,-0.793,0.0
14.96,1.378,-0.814,0.0
13.855,1.278,-0.834,0.0
21.511,1.987,-0.704,0.0
19.289,1.784,-0.742,0.0
17.526,1.623,-0.775,0.0
15.964,1.48,-0.8,0.0
14.662,1.361,-0.819,0.0
13.655,1.27,-0.841,0.0
21.077,1.962,-0.719,0.0
18.752,1.747,-0.748,0.0
17.128,1.598,-0.781,0.0
15.576,1.455,-0.802,0.0
14.368,1.344,-0.822,0.0
13.412,1.256,-0.845,0.0
20.471,1.918,-0.727,0.0
18.407,1.727,-0.76,0.0
16.617,1.561,-0.781,0.0
15.278,1.437,-0.808,0.0
14.215,1.338,-0.833,0.0
13.227,1.247,-0.852,0.0
19.82,1.869,-0.732,0.0
17.938,1.694,-0.765,0.0
16.292,1.54,-0.789,0.0
14.972,1.417,-0.812,0.0
13.903,1.317,-0.834,0.0
13.007,1.233,-0.856,0.0
19.396,1.84,-0.743,0.0
17.502,1.662,-0.771,0.0
16.042,1.525,-0.799,0.0
14.673,1.396,-0.816,0.0
13.664,1.301,-0.839,0.0
12.698,1.211,-0.853,0.0
18.796,1.793,-0.746,0.0
17.07,1.63,-0.775,0.0
15.609,1.491,-0.799,0.0
14.434,1.381,-0.823,0.0
13.47,1.29,-0.846,0.0
12.409,1.189,-0.851,0.0
18.39,1.763,-0.755,0.0
16.761,1.608,-0.784,0.0
15.352,1.474,-0.806,0.0
14.115,1.356,-0.824,0.0
13.084,1.258,-0.84,0.0
12.198,1.174,-0.853,0.0
17.943,1.727,-0.761,0.0
16.338,1.574,-0.787,0.0
15.06,1.452,-0.812,0.0
13.867,1.338,-0.829,0.0
12.991,1.255,-0.852,0.0
11.963,1.157,-0.853,0.0
17.554,1.696,-0.769,0.0
16.082,1.555,-0.797,0.0
14.785,1.431,-0.818,0.0
13.676,1.325,-0.836,0.0
12.692,1.23,-0.849,0.0
11.79,1.144,-0.857,0.0
17.111,1.66,-0.773,0.0
15.663,1.52,-0.798,0.0
14.5,1.408,-0.822,0.0
13.472,1.309,-0.842,0.0
12.489,1.215,-0.853,0.0
11.609,1.13,-0.86,0.0
16.777,1.632,-0.781,0.0
15.405,1.499,-0.805,0.0
14.256,1.388,-0.827,0.0
13.157,1.282,-0.841,0.0
12.209,1.191,-0.851,0.0
11.363,1.109,-0.857,0.0
16.455,1.605,-0.788,0.0
15.072,1.471,-0.808,0.0
13.927,1.36,-0.827,0.0
13.0,1.27,-0.848,0.0
11.929,1.166,-0.847,0.0
11.216,1.097,-0.862,0.0
16.146,1.578,-0.795,0.0
14.784,1.445,-0.813,0.0
13.77,1.347,-0.836,0.0
12.754,1.248,-0.85,0.0
11.818,1.157,-0.855,0.0
11.059,1.084,-0.864,0.0
15.72,1.538,-0.795,0.0
14.505,1.42,-0.817,0.0
13.514,1.324,-0.839,0.0
12.512,1.226,-0.85,0.0
11.667,1.144,-0.86,0.0
10.908,1.07,-0.867,0.0
15.495,1.518,-0.804,0.0
14.272,1.399,-0.823,0.0
13.31,1.305,-0.844,0.0
12.367,1.213,-0.857,0.0
11.403,1.119,-0.856,0.0
10.78,1.059,-0.872,0.0
15.166,1.487,-0.807,0.0
13.962,1.369,-0.823,0.0
12.956,1.271,-0.839,0.0
12.047,1.182,-0.851,0.0
11.246,1.104,-0.859,0.0
10.629,1.044,-0.873,0.0
14.912,1.462,-0.813,0.0
13.808,1.355,-0.832,0.0
12.804,1.256,-0.846,0.0
11.874,1.165,-0.854,0.0
11.14,1.094,-0.865,0.0
10.485,1.03,-0.875,0.0
14.636,1.435,-0.817,0.0
13.62,1.336,-0.839,0.0
12.6,1.236,-0.848,0.0
11.759,1.154,-0.861,0.0
10.962,1.076,-0.866,0.0
10.369,1.018,-0.879,0.0
14.377,1.409,-0.821,0.0
13.412,1.314,-0.843,0.0
12.464,1.222,-0.855,0.0
11.496,1.127,-0.856,0.0
10.822,1.061,-0.868,0.0
10.237,1.004,-0.881,0.0
14.102,1.38,-0.823,0.0
13.184,1.291,-0.845,0.0
12.22,1.196,-0.854,0.0
11.293,1.106,-0.855,0.0
10.702,1.048,-0.872,0.0
10.112,0.991,-0.883,0.0
13.926,1.361,-0.83,0.0
12.934,1.264,-0.845,0.0
11.926,1.166,-0.848,0.0
11.195,1.094,-0.862,0.0
10.516,1.028,-0.87,0.0
10.012,0.979,-0.886,0.0
13.719,1.338,-0.835,0.0
12.687,1.237,-0.845,0.0
11.785,1.15,-0.852,0.0
11.022,1.075,-0.862,0.0
10.447,1.019,-0.877,0.0
9.964,0.972,-0.894,0.0
13.502,1.314,-0.838,0.0
12.497,1.216,-0.847,0.0
11.664,1.135,-0.858,0.0
10.883,1.059,-0.864,0.0
10.368,1.009,-0.883,0.0
9.802,0.954,-0.892,0.0
13.255,1.286,-0.838,0.0
12.313,1.195,-0.849,0.0
11.403,1.106,-0.852,0.0
10.797,1.047,-0.87,0.0
10.213,0.991,-0.882,0.0
9.724,0.943,-0.896,0.0
13.008,1.258,-0.837,0.0
12.074,1.168,-0.847,0.0
11.273,1.09,-0.855,0.0
10.629,1.028,-0.869,0.0
10.093,0.976,-0.883,0.0
9.677,0.936,-0.903,0.0
12.931,1.246,-0.847,0.0
11.9,1.146,-0.848,0.0
11.178,1.077,-0.861,0.0
10.532,1.014,-0.873,0.0
9.975,0.961,-0.884,0.0
9.549,0.919,-0.902,0.0
12.752,1.224,-0.85,0.0
11.762,1.128,-0.851,0.0
11.002,1.055,-0.86,0.0
10.407,0.998,-0.874,0.0
9.914,0.951,-0.89,0.0
9.511,0.912,-0.909,0.0
12.399,1.185,-0.84,0.0
11.65,1.112,-0.856,0.0
10.86,1.037,-0.86,0.0
10.307,0.984,-0.877,0.0
9.816,0.937,-0.892,0.0
9.305,0.888,-0.899,0.0
12.353,1.174,-0.85,0.0
11.427,1.086,-0.852,0.0
10.784,1.024,-0.866,0.0
10.264,0.974,-0.884,0.0
9.72,0.923,-0.894,0.0
9.224,0.875,-0.901,0.0
12.137,1.147,-0.848,0.0
11.363,1.074,-0.859,0.0
10.691,1.01,-0.87,0.0
10.194,0.962,-0.889,0.0
9.638,0.91,-0.896,0.0
9.174,0.866,-0.906,0.0
11.929,1.121,-0.845,0.0
11.169,1.049,-0.856,0.0
10.566,0.992,-0.87,0.0
10.058,0.944,-0.887,0.0
9.574,0.898,-0.9,0.0
9.091,0.853,-0.907,0.0
11.836,1.106,-0.85,0.0
11.057,1.032,-0.858,0.0
10.492,0.979,-0.874,0.0
9.902,0.923,-0.883,0.0
9.48,0.884,-0.9,0.0
9.042,0.842,-0.911,0.0
11.715,1.087,-0.853,0.0
10.955,1.016,-0.86,0.0
10.371,0.961,-0.874,0.0
9.82,0.909,-0.885,0.0
9.395,0.87,-0.901,0.0
8.944,0.827,-0.909,0.0
11.599,1.068,-0.855,0.0
10.871,1.001,-0.864,0.0
10.336,0.951,-0.881,0.0
9.831,0.904,-0.895,0.0
9.318,0.856,-0.902,0.0
8.892,0.817,-0.912,0.0
11.425,1.044,-0.853,0.0
10.774,0.984,-0.866,0.0
10.228,0.933,-0.881,0.0
9.723,0.887,-0.894,0.0
9.237,0.842,-0.902,0.0
8.873,0.808,-0.918,0.0
11.297,1.024,-0.853,0.0
10.652,0.965,-0.865,0.0
10.207,0.924,-0.888,0.0
9.619,0.87,-0.893,0.0
9.162,0.828,-0.903,0.0
8.746,0.79,-0.912,0.0
11.242,1.011,-0.858,0.0
10.594,0.952,-0.869,0.0
10.05,0.902,-0.882,0.0
9.565,0.858,-0.896,0.0
9.128,0.818,-0.907,0.0
8.704,0.779,-0.915,0.0
11.131,0.992,-0.859,0.0
10.547,0.939,-0.874,0.0
9.912,0.882,-0.878,0.0
9.565,0.85,-0.903,0.0
9.019,0.801,-0.903,0.0
8.682,0.77,-0.92,0.0
10.993,0.97,-0.857,0.0
10.446,0.921,-0.874,0.0
9.925,0.874,-0.887,0.0
0.0,0.0,0.0,0.0
9.02,0.793,-0.91,0.0
8.623,0.758,-0.92,0.0
10.95,0.957,-0.861,0.0
10.327,0.902,-0.871,0.0
9.896,0.863,-0.891,0.0
0.0,0.0,0.0,0.0
9.036,0.787,-0.919,0.0
8.571,0.745,-0.921,0.0
10.872,0.941,-0.863,0.0
10.289,0.889,-0.875,0.0
9.879,0.853,-0.897,0.0
9.387,0.809,-0.907,0.0
8.895,0.766,-0.91,0.0
8.516,0.733,-0.921,0.0
10.786,0.923,-0.863,0.0
10.256,0.877,-0.879,0.0
9.722,0.83,-0.889,0.0
9.263,0.79,-0.901,0.0
8.868,0.755,-0.913,0.0
8.479,0.721,-0.922,0.0
10.702,0.906,-0.863,0.0
10.193,0.862,-0.88,0.0
9.7,0.819,-0.893,0.0
0.0,0.0,0.0,0.0
8.82,0.743,-0.914,0.0
8.381,0.705,-0.916,0.0
10.647,0.891,-0.865,0.0
10.124,0.846,-0.88,0.0
9.646,0.805,-0.894,0.0
0.0,0.0,0.0,0.0
8.793,0.732,-0.916,0.0
8.345,0.694,-0.917,0.0
10.622,0.878,-0.869,0.0
10.104,0.834,-0.884,0.0
9.649,0.795,-0.899,0.0
0.0,0.0,0.0,0.0
8.724,0.717,-0.914,0.0
8.372,0.687,-0.925,0.0
10.567,0.862,-0.87,0.0
10.098,0.823,-0.889,0.0
9.58,0.78,-0.898,0.0
9.074,0.737,-0.903,0.0
8.716,0.707,-0.917,0.0
8.317,0.674,-0.923,0.0
10.483,0.845,-0.868,0.0
9.997,0.804,-0.885,0.0
9.567,0.768,-0.901,0.0
9.044,0.725,-0.904,0.0
8.72,0.698,-0.922,0.0
8.313,0.665,-0.926,0.0
10.45,0.83,-0.87,0.0
9.988,0.792,-0.888,0.0
9.525,0.754,-0.901,0.0
9.007,0.712,-0.904,0.0
8.706,0.687,-0.924,0.0
8.257,0.651,-0.923,0.0
10.407,0.816,-0.871,0.0
9.947,0.778,-0.888,0.0
9.507,0.742,-0.903,0.0
9.005,0.702,-0.908,0.0
8.634,0.672,-0.919,0.0
8.307,0.645,-0.932,0.0
10.383,0.802,-0.872,0.0
9.889,0.762,-0.887,0.0
9.5,0.731,-0.906,0.0
0.0,0.0,0.0,0.0
8.592,0.659,-0.918,0.0
8.245,0.631,-0.928,0.0
10.364,0.788,-0.874,0.0
9.87,0.749,-0.888,0.0
9.469,0.717,-0.906,0.0
9.022,0.682,-0.915,0.0
8.593,0.649,-0.92,0.0
8.259,0.622,-0.932,0.0
10.337,0.774,-0.875,0.0
9.836,0.735,-0.888,0.0
9.353,0.698,-0.897,0.0
8.912,0.663,-0.906,0.0
8.585,0.638,-0.922,0.0
8.169,0.606,-0.924,0.0
10.332,0.761,-0.877,0.0
9.835,0.723,-0.89,0.0
9.391,0.689,-0.903,0.0
8.953,0.656,-0.912,0.0
8.617,0.63,-0.927,0.0
8.192,0.597,-0.928,0.0
10.278,0.745,-0.874,0.0
9.844,0.712,-0.893,0.0
9.358,0.675,-0.901,0.0
8.938,0.644,-0.912,0.0
8.539,0.614,-0.92,0.0
8.205,0.588,-0.931,0.0
10.293,0.733,-0.877,0.0
9.852,0.7,-0.895,0.0
9.416,0.668,-0.908,0.0
9.006,0.637,-0.921,0.0
8.539,0.603,-0.921,0.0
8.171,0.576,-0.928,0.0
10.293,0.721,-0.878,0.0
9.82,0.686,-0.893,0.0
9.319,0.649,-0.9,0.0
8.948,0.622,-0.916,0.0
8.526,0.591,-0.921,0.0
8.211,0.568,-0.933,0.0
10.261,0.705,-0.876,0.0
9.851,0.676,-0.896,0.0
9.375,0.641,-0.906,0.0
8.899,0.607,-0.911,0.0
8.555,0.582,-0.924,0.0
8.146,0.553,-0.926,0.0
10.268,0.693,-0.877,0.0
9.796,0.659,-0.892,0.0
9.358,0.628,-0.904,0.0
8.942,0.599,-0.915,0.0
8.56,0.571,-0.925,0.0
8.157,0.543,-0.927,0.0
10.305,0.682,-0.88,0.0
9.846,0.65,-0.896,0.0
9.335,0.614,-0.902,0.0
8.991,0.59,-0.92,0.0
8.529,0.558,-0.921,0.0
8.138,0.531,-0.925,0.0
10.292,0.668,-0.878,0.0
9.822,0.635,-0.893,0.0
9.478,0.611,-0.915,0.0
8.937,0.575,-0.914,0.0
8.526,0.547,-0.92,0.0
8.184,0.523,-0.929,0.0
10.291,0.654,-0.877,0.0
9.84,0.623,-0.894,0.0
