X,Y,Z,Reflectivity
41.982,1.88,2.475,16.0
52.988,2.386,2.837,18.0
52.858,2.393,2.545,14.0
40.371,1.842,3.08,46.0
40.694,1.866,2.884,45.0
41.037,1.892,2.686,37.0
41.905,1.942,2.511,16.0
59.467,2.77,3.242,17.0
59.513,2.787,2.922,13.0
40.277,1.9,3.112,45.0
40.821,1.936,2.932,35.0
40.908,1.949,2.716,41.0
41.208,1.974,2.508,18.0
59.451,2.862,3.296,14.0
59.474,2.878,2.976,10.0
40.358,1.968,3.156,38.0
40.62,1.99,2.955,41.0
40.811,2.009,2.747,47.0
40.962,2.026,2.53,42.0
59.861,2.977,3.373,9.0
59.497,2.973,3.029,7.0
40.403,2.034,3.195,40.0
40.658,2.057,2.993,41.0
40.823,2.075,2.783,38.0
41.015,2.095,2.569,42.0
41.706,2.14,2.385,14.0
52.397,2.701,2.712,23.0
40.474,2.102,3.235,46.0
40.564,2.117,3.021,46.0
40.918,2.144,2.823,40.0
40.948,2.156,2.598,44.0
41.488,2.194,2.406,29.0
59.342,3.153,3.119,15.0
40.79,2.183,3.293,37.0
40.439,2.174,3.043,47.0
41.076,2.218,2.867,37.0
40.97,2.222,2.631,42.0
41.06,2.236,2.413,46.0
77.899,4.261,4.153,3.0
40.616,2.238,3.31,25.0
40.509,2.241,3.079,42.0
40.97,2.277,2.889,37.0
41.112,2.295,2.67,39.0
41.387,2.32,2.462,31.0
52.571,2.959,2.841,8.0
40.783,2.312,3.353,34.0
40.627,2.313,3.117,36.0
41.158,2.353,2.932,34.0
41.043,2.356,2.694,34.0
41.247,2.377,2.482,16.0
52.609,3.044,2.878,11.0
40.945,2.387,3.394,47.0
41.323,2.418,3.198,36.0
41.425,2.434,2.978,34.0
42.179,2.488,2.796,17.0
41.632,2.465,2.532,9.0
52.904,3.145,2.927,7.0
41.553,2.488,3.47,42.0
41.333,2.484,3.224,34.0
41.368,2.496,2.999,32.0
42.159,2.553,2.82,32.0
41.666,2.533,2.559,16.0
41.902,2.558,2.344,29.0
41.641,2.56,3.502,43.0
41.647,2.57,3.273,26.0
41.504,2.57,3.033,35.0
42.043,2.613,2.836,10.0
41.494,2.588,2.571,34.0
41.674,2.609,2.354,34.0
42.011,2.649,3.556,15.0
41.842,2.648,3.311,31.0
41.577,2.64,3.06,29.0
41.753,2.661,2.839,24.0
52.25,3.342,3.265,12.0
41.507,2.665,2.365,34.0
45.034,2.911,3.835,5.0
41.91,2.719,3.337,14.0
41.712,2.715,3.091,38.0
41.66,2.72,2.853,23.0
41.455,2.717,2.61,37.0
41.516,2.73,2.385,37.0
41.884,2.774,3.586,43.0
42.511,2.825,3.404,17.0
41.694,2.78,3.108,27.0
41.734,2.792,2.876,29.0
41.687,2.798,2.643,30.0
41.513,2.795,2.402,39.0
41.705,2.828,3.588,40.0
41.875,2.848,3.371,16.0
41.661,2.843,3.122,36.0
41.69,2.854,2.889,28.0
41.726,2.866,2.661,36.0
52.393,3.61,3.052,8.0
41.527,2.881,3.589,40.0
41.732,2.904,3.375,16.0
41.786,2.917,3.147,32.0
41.679,2.918,2.903,16.0
41.584,2.92,2.666,30.0
41.638,2.933,2.439,39.0
41.411,2.937,3.592,40.0
41.572,2.958,3.375,41.0
41.607,2.969,3.146,30.0
41.633,2.98,2.913,21.0
41.577,2.985,2.678,35.0
41.652,2.999,2.453,39.0
41.478,3.007,3.61,40.0
41.566,3.022,3.386,41.0
41.569,3.031,3.155,32.0
45.938,3.359,3.226,7.0
41.863,3.069,2.708,20.0
41.691,3.066,2.465,28.0
41.271,3.055,3.603,40.0
41.603,3.088,3.399,30.0
41.757,3.108,3.179,28.0
41.782,3.119,2.944,31.0
46.014,3.445,2.986,8.0
81.792,6.141,4.854,13.0
41.278,3.12,3.612,44.0
45.128,3.42,3.696,12.0
41.788,3.175,3.189,16.0
45.963,3.502,3.247,6.0
45.938,3.509,2.989,39.0
45.994,3.523,2.737,14.0
41.289,3.183,3.619,36.0
41.602,3.216,3.414,36.0
41.565,3.221,3.179,38.0
41.774,3.246,2.957,24.0
45.912,3.577,2.994,16.0
45.89,3.584,2.737,12.0
41.263,3.244,3.622,45.0
41.522,3.272,3.412,43.0
41.596,3.286,3.185,35.0
41.829,3.313,2.965,13.0
45.913,3.645,2.998,17.0
45.809,3.646,2.736,31.0
119.824,-0.615,1.904,78.0
119.685,-0.652,1.261,16.0
111.046,-0.642,0.575,3.0
0.0,0.0,0.0,0.0
0.0,0.0,0.0,0.0
41.79,-0.283,-0.458,0.0
119.748,-0.846,2.006,20.0
119.666,-0.885,1.365,17.0
114.319,-0.883,0.692,8.0
0.0,0.0,0.0,0.0
53.9,-0.451,-0.255,0.0
0.0,0.0,0.0,0.0
119.748,-1.08,2.115,150.0
119.745,-1.118,1.474,150.0
119.752,-1.158,0.835,135.0
0.0,0.0,0.0,0.0
54.966,-0.568,-0.208,0.0
45.352,-0.483,-0.414,0.0
204.6,-2.239,3.805,6.0
0.0,0.0,0.0,0.0
139.243,-1.615,1.104,22.0
0.0,0.0,0.0,0.0
51.679,-0.633,-0.146,5.0
47.373,-0.596,-0.386,1.0
0.0,0.0,0.0,0.0
139.167,-1.835,1.982,4.0
138.894,-1.873,1.236,16.0
0.0,0.0,0.0,0.0
0.0,0.0,0.0,0.0
49.696,-0.718,-0.356,0.0
194.541,-2.865,4.0,8.0
139.039,-2.093,2.119,11.0
139.025,-2.138,1.379,9.0
113.409,-1.779,0.509,6.0
0.0,0.0,0.0,0.0
50.07,-0.817,-0.307,0.0
206.319,-3.427,4.457,7.0
193.543,-3.275,3.152,14.0
139.091,-2.398,1.526,7.0
138.928,-2.441,0.772,8.0
61.015,-1.091,0.015,0.0
53.965,-0.982,-0.273,0.0
205.858,-3.802,4.668,20.0
193.207,-3.628,3.354,17.0
186.613,-3.564,2.249,5.0
139.007,-2.696,0.922,13.0
62.677,-1.236,0.083,2.0
0.0,0.0,0.0,0.0
205.627,-4.171,4.887,19.0
193.09,-3.978,3.565,13.0
0.0,0.0,0.0,0.0
138.917,-2.948,1.077,17.0
0.0,0.0,0.0,0.0
0.0,0.0,0.0,0.0
118.268,-2.611,2.943,12.0
193.78,-4.339,3.796,7.0
138.825,-3.15,1.983,5.0
138.89,-3.194,1.234,22.0
0.0,0.0,0.0,0.0
0.0,0.0,0.0,0.0
118.198,-2.82,3.078,17.0
0.0,0.0,0.0,0.0
138.753,-3.393,2.143,7.0
138.817,-3.437,1.395,17.0
138.731,-3.479,0.661,2.0
0.0,0.0,0.0,0.0
207.224,-5.306,5.641,5.0
0.0,0.0,0.0,0.0
193.246,-5.063,3.216,5.0
138.871,-3.681,1.563,6.0
138.696,-3.717,0.828,10.0
0.0,0.0,0.0,0.0
0.0,0.0,0.0,0.0
206.082,-5.696,4.773,7.0
0.0,0.0,0.0,0.0
138.336,-3.905,1.728,9.0
138.415,-3.948,0.998,17.0
0.0,0.0,0.0,0.0
205.454,-5.969,6.099,13.0
194.499,-5.704,4.745,21.0
194.379,-5.758,3.716,16.0
138.679,-4.148,1.905,3.0
138.644,-4.188,1.173,21.0
0.0,0.0,0.0,0.0
205.88,-6.325,6.373,5.0
193.97,-6.016,4.981,23.0
194.101,-6.074,3.959,22.0
138.667,-4.377,2.082,8.0
138.63,-4.417,1.352,23.0
0.0,0.0,0.0,0.0
194.882,-6.31,6.285,21.0
0.0,0.0,0.0,0.0
187.395,-6.171,4.067,16.0
187.43,-6.224,3.06,14.0
138.577,-4.64,1.533,9.0
138.55,-4.678,0.803,8.0
41.053,-0.216,4.788,32.0
41.323,-0.212,4.578,16.0
41.229,-0.206,4.328,45.0
41.206,-0.201,4.082,42.0
41.651,-0.197,3.884,44.0
41.332,-0.189,3.614,39.0
41.162,-0.177,4.749,31.0
41.182,-0.172,4.511,24.0
41.266,-0.167,4.279,33.0
41.286,-0.161,4.037,44.0
41.699,-0.157,3.835,40.0
41.429,-0.151,3.57,38.0
41.477,-0.139,4.732,34.0
41.213,-0.133,4.46,24.0
41.249,-0.128,4.224,39.0
41.751,-0.124,4.028,30.0
41.916,-0.119,3.8,34.0
41.5,-0.113,3.522,41.0
41.276,-0.101,4.654,31.0
41.341,-0.096,4.419,30.0
41.39,-0.091,4.183,39.0
41.835,-0.087,3.98,41.0
41.615,-0.081,3.717,41.0
41.488,-0.076,3.465,41.0
41.202,-0.064,4.589,26.0
41.657,-0.06,4.396,38.0
41.303,-0.054,4.117,44.0
42.127,-0.05,3.949,30.0
41.432,-0.044,3.643,41.0
41.497,-0.04,3.408,42.0
41.325,-0.028,4.544,21.0
41.481,-0.023,4.318,39.0
41.364,-0.018,4.064,42.0
42.175,-0.014,3.894,19.0
41.515,-0.009,3.592,46.0
41.559,-0.004,3.354,44.0
41.237,0.006,4.475,31.0
41.392,0.011,4.249,38.0
41.591,0.015,4.027,27.0
42.58,0.02,3.87,18.0
41.494,0.024,3.53,45.0
41.687,0.029,3.304,21.0
41.196,0.04,4.41,35.0
41.337,0.045,4.183,48.0
42.273,0.05,4.03,18.0
41.48,0.053,3.708,26.0
41.421,0.057,3.462,42.0
45.742,0.068,3.557,4.0
41.274,0.073,4.356,36.0
41.35,0.077,4.121,45.0
42.356,0.083,3.974,30.0
41.503,0.086,3.647,45.0
41.552,0.09,3.409,43.0
41.948,0.095,3.198,21.0
41.359,0.105,4.301,41.0
41.321,0.109,4.055,44.0
41.611,0.113,3.839,41.0
41.511,0.117,3.584,41.0
41.744,0.121,3.36,36.0
45.715,0.137,3.414,11.0
41.413,0.136,4.241,44.0
41.538,0.14,4.011,37.0
41.329,0.143,3.748,43.0
41.555,0.147,3.522,40.0
41.772,0.151,3.297,44.0
45.725,0.17,3.342,3.0
41.29,0.164,4.162,44.0
41.662,0.17,3.955,30.0
41.51,0.172,3.698,41.0
41.635,0.176,3.461,45.0
41.866,0.18,3.237,14.0
47.856,0.21,3.421,15.0
41.352,0.193,4.101,39.0
41.566,0.197,3.878,37.0
41.617,0.201,3.638,32.0
41.792,0.205,3.406,49.0
45.761,0.228,3.462,3.0
47.812,0.242,3.338,18.0
41.707,0.222,4.065,21.0
41.43,0.224,3.796,29.0
41.467,0.226,3.556,46.0
41.844,0.232,3.34,20.0
51.467,0.289,3.807,4.0
60.795,0.346,4.143,22.0
41.482,0.246,3.973,40.0
41.515,0.249,3.733,43.0
41.532,0.252,3.491,35.0
41.822,0.257,3.266,16.0
44.902,0.279,3.245,6.0
60.589,0.38,4.025,5.0
41.6,0.272,3.913,44.0
41.342,0.273,3.646,41.0
41.691,0.277,3.432,48.0
41.804,0.28,3.193,15.0
47.639,0.323,3.361,7.0
74.007,0.506,4.789,9.0
17.977,-2.142,-0.547,17.0
16.136,-1.925,-0.578,14.0
14.997,-1.791,-0.617,19.0
13.588,-1.624,-0.634,10.0
12.916,-1.546,-0.672,11.0
12.221,-1.464,-0.702,2.0
18.307,-2.192,-0.538,19.0
16.449,-1.971,-0.572,14.0
15.144,-1.816,-0.608,19.0
13.809,-1.658,-0.63,10.0
12.999,-1.562,-0.663,11.0
12.241,-1.473,-0.691,6.0
18.487,-2.222,-0.524,19.0
16.832,-2.025,-0.568,15.0
15.321,-1.845,-0.599,16.0
13.928,-1.679,-0.621,10.0
13.166,-1.589,-0.658,11.0
12.372,-1.494,-0.685,9.0
18.665,-2.252,-0.51,19.0
17.211,-2.078,-0.563,15.0
15.505,-1.874,-0.59,14.0
14.414,-1.743,-0.628,12.0
13.049,-1.58,-0.638,9.0
12.439,-1.507,-0.676,10.0
19.211,-2.326,-0.504,22.0
17.553,-2.126,-0.555,15.0
15.705,-1.904,-0.581,13.0
14.588,-1.77,-0.619,13.0
13.74,-1.668,-0.657,10.0
12.549,-1.525,-0.668,10.0
19.488,-2.366,-0.491,26.0
17.814,-2.164,-0.544,16.0
15.975,-1.942,-0.574,13.0
14.899,-1.812,-0.617,13.0
13.884,-1.69,-0.649,13.0
12.794,-1.559,-0.667,10.0
19.851,-2.416,-0.478,20.0
18.094,-2.204,-0.533,17.0
16.367,-1.995,-0.57,14.0
15.112,-1.843,-0.609,15.0
14.008,-1.709,-0.639,13.0
13.024,-1.59,-0.664,10.0
20.27,-2.473,-0.466,19.0
18.329,-2.237,-0.519,17.0
16.778,-2.049,-0.565,14.0
15.313,-1.871,-0.6,15.0
14.188,-1.734,-0.632,12.0
13.217,-1.617,-0.66,11.0
20.638,-2.522,-0.451,19.0
18.584,-2.272,-0.506,17.0
17.162,-2.099,-0.559,15.0
15.496,-1.896,-0.589,15.0
14.41,-1.764,-0.625,12.0
13.481,-1.651,-0.658,11.0
21.216,-2.597,-0.44,20.0
18.958,-2.321,-0.494,17.0
17.577,-2.153,-0.553,16.0
15.689,-1.922,-0.579,13.0
14.627,-1.793,-0.618,13.0
13.751,-1.686,-0.655,12.0
21.699,-2.659,-0.425,19.0
19.479,-2.387,-0.486,17.0
17.87,-2.191,-0.541,16.0
16.038,-1.967,-0.573,13.0
14.912,-1.829,-0.613,14.0
13.881,-1.703,-0.645,13.0
22.34,-2.739,-0.412,20.0
19.94,-2.445,-0.474,18.0
18.177,-2.23,-0.53,16.0
16.41,-2.013,-0.568,13.0
15.169,-1.861,-0.606,14.0
14.036,-1.723,-0.636,13.0
23.043,-2.826,-0.399,23.0
20.427,-2.506,-0.463,18.0
18.425,-2.26,-0.516,17.0
16.856,-2.068,-0.564,14.0
15.396,-1.889,-0.597,15.0
14.265,-1.751,-0.63,12.0
23.717,-2.909,-0.383,24.0
20.878,-2.561,-0.448,18.0
18.72,-2.296,-0.502,16.0
17.266,-2.118,-0.557,15.0
15.593,-1.913,-0.587,16.0
14.476,-1.776,-0.622,13.0
24.504,-3.004,-0.367,23.0
21.406,-2.624,-0.435,18.0
19.203,-2.354,-0.493,16.0
17.666,-2.165,-0.55,16.0
15.851,-1.943,-0.578,13.0
14.766,-1.81,-0.617,14.0
25.123,-3.078,-0.347,19.0
22.017,-2.697,-0.421,18.0
19.719,-2.415,-0.483,17.0
18.002,-2.204,-0.539,17.0
16.239,-1.988,-0.573,13.0
15.06,-1.844,-0.612,14.0
0.0,0.0,0.0,0.0
22.76,-2.784,-0.409,23.0
20.189,-2.469,-0.471,17.0
18.285,-2.236,-0.526,17.0
16.698,-2.041,-0.569,14.0
15.308,-1.871,-0.604,15.0
28.814,-3.52,-0.33,32.0
23.428,-2.861,-0.393,22.0
20.743,-2.533,-0.459,18.0
18.569,-2.267,-0.512,17.0
17.386,-2.122,-0.572,17.0
15.497,-1.891,-0.593,16.0
29.919,-3.649,-0.308,21.0
24.296,-2.961,-0.38,21.0
21.37,-2.604,-0.448,19.0
18.999,-2.314,-0.502,19.0
17.588,-2.141,-0.559,16.0
15.814,-1.925,-0.587,15.0
35.337,-4.299,-0.323,3.0
25.1,-3.052,-0.363,19.0
21.956,-2.669,-0.435,22.0
19.493,-2.368,-0.492,21.0
17.913,-2.175,-0.548,16.0
16.235,-1.971,-0.583,14.0
35.776,-4.341,-0.284,12.0
0.0,0.0,0.0,0.0
22.659,-2.746,-0.422,23.0
20.003,-2.423,-0.481,19.0
18.289,-2.214,-0.538,18.0
16.582,-2.006,-0.576,14.0
36.291,-4.39,-0.246,14.0
28.492,-3.444,-0.345,26.0
23.306,-2.815,-0.406,20.0
20.703,-2.499,-0.473,19.0
18.521,-2.235,-0.523,17.0
17.268,-2.082,-0.58,15.0
37.545,-4.526,-0.21,21.0
29.75,-3.584,-0.325,22.0
24.045,-2.894,-0.391,21.0
21.275,-2.559,-0.462,20.0
19.148,-2.301,-0.518,21.0
17.502,-2.102,-0.567,15.0
38.452,-4.617,-0.17,17.0
35.239,-4.228,-0.344,2.0
24.915,-2.987,-0.376,20.0
21.889,-2.622,-0.45,19.0
19.448,-2.328,-0.503,28.0
18.009,-2.154,-0.562,17.0
38.786,-4.638,-0.126,14.0
35.496,-4.24,-0.305,20.0
25.638,-3.06,-0.357,11.0
22.531,-2.686,-0.436,20.0
20.02,-2.385,-0.495,19.0
18.319,-2.18,-0.551,19.0
42.349,-5.04,-0.089,18.0
35.972,-4.277,-0.268,15.0
28.406,-3.374,-0.363,13.0
23.046,-2.734,-0.42,20.0
20.425,-2.421,-0.481,18.0
18.571,-2.199,-0.536,17.0
46.095,-5.458,-0.043,21.0
37.306,-4.412,-0.234,14.0
29.509,-3.486,-0.343,20.0
23.906,-2.821,-0.408,23.0
21.058,-2.482,-0.471,19.0
18.982,-2.235,-0.526,17.0
46.605,-5.488,0.009,21.0
38.318,-4.507,-0.196,19.0
30.918,-3.632,-0.324,9.0
24.476,-2.872,-0.389,18.0
21.752,-2.549,-0.463,18.0
19.418,-2.273,-0.516,18.0
48.443,-5.671,0.064,10.0
38.961,-4.555,-0.156,14.0
35.426,-4.136,-0.331,9.0
25.292,-2.949,-0.374,16.0
22.376,-2.606,-0.45,20.0
19.909,-2.316,-0.507,18.0
51.03,-5.936,0.125,25.0
0.0,0.0,0.0,0.0
35.775,-4.15,-0.294,21.0
28.128,-3.258,-0.384,9.0
22.959,-2.656,-0.436,20.0
20.331,-2.349,-0.495,16.0
51.714,-5.975,0.184,4.0
0.0,0.0,0.0,0.0
36.857,-4.246,-0.262,15.0
29.154,-3.354,-0.366,17.0
23.582,-2.709,-0.422,23.0
21.052,-2.415,-0.489,18.0
75.14,-8.619,0.351,13.0
46.243,-5.296,-0.03,21.0
38.014,-4.346,-0.228,22.0
30.35,-3.465,-0.348,25.0
24.58,-2.802,-0.413,21.0
21.764,-2.477,-0.482,22.0
75.25,-8.566,0.433,15.0
0.0,0.0,0.0,0.0
38.818,-4.404,-0.192,14.0
0.0,0.0,0.0,0.0
25.391,-2.871,-0.399,17.0
22.35,-2.524,-0.471,22.0
75.369,-8.511,0.514,3.0
49.967,-5.633,0.073,22.0
0.0,0.0,0.0,0.0
35.562,-3.995,-0.331,17.0
0.0,0.0,0.0,0.0
22.803,-2.553,-0.456,21.0
85.604,-9.585,0.675,4.0
50.785,-5.675,0.128,7.0
42.319,-4.721,-0.119,17.0
35.96,-4.004,-0.297,14.0
28.619,-3.181,-0.39,23.0
23.697,-2.629,-0.45,22.0
90.798,-10.076,0.811,5.0
63.142,-6.993,0.225,2.0
45.319,-5.009,-0.08,20.0
37.225,-4.107,-0.269,16.0
29.894,-3.292,-0.377,27.0
24.276,-2.668,-0.436,26.0
90.818,-9.983,0.903,6.0
72.026,-7.901,0.331,1.0
46.523,-5.093,-0.035,21.0
38.316,-4.187,-0.238,20.0
0.0,0.0,0.0,0.0
24.622,-2.68,-0.417,19.0
33.132,-3.606,0.362,47.0
33.126,-3.598,0.185,46.0
33.129,-3.591,0.007,41.0
33.116,-3.582,-0.173,27.0
32.19,-3.475,-0.341,21.0
0.0,0.0,0.0,0.0
33.121,-3.568,0.395,86.0
33.117,-3.559,0.217,79.0
33.106,-3.551,0.039,79.0
33.106,-3.543,-0.141,78.0
33.089,-3.533,-0.319,58.0
0.0,0.0,0.0,0.0
33.122,-3.529,0.427,79.0
33.104,-3.519,0.249,83.0
33.102,-3.511,0.071,86.0
33.083,-3.501,-0.109,80.0
33.083,-3.493,-0.287,78.0
29.146,-3.071,-0.409,25.0
33.143,-3.492,0.458,53.0
33.147,-3.484,0.28,67.0
33.122,-3.473,0.102,70.0
33.118,-3.465,-0.078,68.0
33.113,-3.456,-0.256,70.0
30.182,-3.142,-0.396,26.0
119.16,-12.409,1.759,9.0
98.265,-10.207,0.923,5.0
79.125,-8.198,0.317,6.0
46.751,-4.831,-0.068,21.0
38.739,-3.994,-0.265,14.0
30.739,-3.161,-0.375,16.0
104.709,-10.77,1.64,8.0
104.629,-10.733,1.076,10.0
80.834,-8.27,0.396,7.0
47.872,-4.885,-0.027,22.0
41.482,-4.222,-0.247,4.0
35.169,-3.571,-0.399,4.0
135.399,-13.748,2.241,151.0
111.559,-11.297,1.244,9.0
83.815,-8.465,0.483,4.0
48.723,-4.907,0.013,9.0
41.903,-4.209,-0.213,17.0
35.269,-3.533,-0.37,20.0
135.443,-13.572,2.356,142.0
114.567,-11.448,1.374,5.0
84.691,-8.438,0.559,7.0
51.4,-5.107,0.057,9.0
43.571,-4.317,-0.186,18.0
35.996,-3.556,-0.347,12.0
135.498,-13.388,2.468,85.0
114.717,-11.301,1.471,9.0
85.48,-8.396,0.635,9.0
54.886,-5.376,0.106,3.0
44.884,-4.383,-0.155,19.0
37.304,-3.633,-0.33,16.0
135.53,-13.2,2.577,87.0
119.07,-11.56,1.621,10.0
89.305,-8.645,0.733,4.0
72.056,-6.954,0.195,1.0
46.406,-4.465,-0.124,20.0
38.291,-3.673,-0.309,14.0
193.376,-18.554,3.826,16.0
119.082,-11.388,1.712,13.0
110.986,-10.58,0.996,8.0
71.962,-6.839,0.25,3.0
47.835,-4.532,-0.092,21.0
38.712,-3.656,-0.284,14.0
119.276,-11.266,2.45,21.0
119.206,-11.222,1.803,20.0
111.053,-10.421,1.078,13.0
78.651,-7.356,0.331,2.0
48.575,-4.528,-0.058,6.0
40.763,-3.788,-0.269,16.0
135.564,-12.598,2.88,150.0
135.576,-12.557,2.147,151.0
111.517,-10.293,1.162,12.0
84.728,-7.794,0.416,8.0
51.161,-4.691,-0.025,24.0
0.0,0.0,0.0,0.0
135.617,-12.392,2.975,20.0
135.6,-12.348,2.239,150.0
114.655,-10.404,1.273,7.0
84.632,-7.653,0.472,13.0
51.612,-4.651,0.008,6.0
43.921,-3.944,-0.23,19.0
135.638,-12.177,3.066,79.0
119.306,-10.673,2.05,32.0
113.17,-10.088,1.329,7.0
85.872,-7.627,0.534,13.0
55.667,-4.927,0.044,5.0
44.927,-3.962,-0.207,19.0
72.836,-6.422,1.691,6.0
135.694,-11.92,2.416,118.0
119.161,-10.429,1.473,14.0
89.395,-7.794,0.611,3.0
61.944,-5.381,0.087,2.0
0.0,0.0,0.0,0.0
119.232,-10.316,2.842,73.0
126.485,-10.9,2.327,27.0
119.153,-10.229,1.544,17.0
86.62,-7.408,0.643,7.0
67.422,-5.744,0.134,9.0
47.794,-4.056,-0.164,21.0
72.652,-6.163,1.772,6.0
126.479,-10.689,2.398,74.0
119.204,-10.033,1.611,17.0
89.266,-7.483,0.712,1.0
67.73,-5.655,0.171,6.0
49.925,-4.153,-0.144,24.0
119.309,-9.919,2.975,44.0
126.502,-10.473,2.465,94.0
119.213,-9.829,1.673,15.0
108.734,-8.929,0.924,2.0
72.275,-5.91,0.22,7.0
50.13,-4.082,-0.119,24.0
71.619,-5.83,1.821,27.0
126.491,-10.253,2.528,59.0
119.27,-9.627,1.733,16.0
114.246,-9.183,1.025,7.0
81.77,-6.545,0.288,10.0
50.937,-4.06,-0.097,11.0
71.707,-5.712,1.857,20.0
72.558,-5.755,1.483,7.0
67.902,-5.362,1.017,41.0
67.863,-5.335,0.639,73.0
67.855,-5.312,0.269,87.0
51.933,-4.048,-0.076,4.0
67.892,-5.288,1.787,93.0
67.893,-5.264,1.417,76.0
67.879,-5.239,1.046,60.0
67.889,-5.216,0.668,13.0
82.928,-6.342,0.363,11.0
61.142,-4.655,-0.066,1.0
119.375,-9.083,3.191,34.0
72.46,-5.487,1.541,22.0
119.334,-8.993,1.885,31.0
20.029,-1.502,0.204,0.0
20.055,-1.497,0.095,1.0
0.0,0.0,0.0,0.0
71.954,-5.343,1.949,16.0
20.045,-1.481,0.433,3.0
20.011,-1.471,0.323,7.0
20.024,-1.465,0.211,33.0
20.006,-1.457,0.102,12.0
52.035,-3.771,-0.019,1.0
20.014,-1.449,0.549,8.0
20.001,-1.44,0.439,10.0
20.005,-1.433,0.329,11.0
20.038,-1.429,0.218,26.0
20.034,-1.421,0.108,2.0
59.082,-4.172,-0.004,1.0
20.009,-1.411,0.554,12.0
20.008,-1.403,0.444,10.0
20.037,-1.398,0.335,8.0
119.281,-8.283,1.331,15.0
95.521,-6.599,0.542,5.0
20.038,-1.377,0.004,2.0
20.029,-1.375,0.56,9.0
20.052,-1.369,0.45,3.0
119.412,-8.11,2.03,68.0
19.96,-1.348,0.227,12.0
19.981,-1.342,0.118,18.0
19.983,-1.335,0.008,16.0
20.058,-1.338,0.565,12.0
19.955,-1.324,0.453,11.0
19.933,-1.315,0.342,16.0
19.952,-1.309,0.231,28.0
19.979,-1.304,0.122,24.0
19.98,-1.297,0.012,25.0
19.943,-1.292,0.566,23.0
19.926,-1.284,0.456,18.0
19.94,-1.277,0.346,19.0
19.96,-1.271,0.235,28.0
19.986,-1.266,0.125,24.0
20.001,-1.259,0.015,24.0
19.952,-1.254,0.569,26.0
19.935,-1.246,0.458,23.0
19.919,-1.237,0.348,24.0
19.925,-1.23,0.237,19.0
19.989,-1.227,0.127,151.0
19.986,-1.22,0.017,150.0
19.951,-1.216,0.571,24.0
19.928,-1.207,0.46,18.0
19.926,-1.199,0.35,18.0
19.956,-1.194,0.239,33.0
20.003,-1.189,0.129,55.0
20.002,-1.182,0.019,27.0
19.955,-1.177,0.572,22.0
19.947,-1.169,0.462,23.0
19.945,-1.162,0.352,22.0
19.938,-1.154,0.24,18.0
20.05,-1.153,0.13,11.0
20.025,-1.144,0.02,7.0
19.955,-1.138,0.573,25.0
19.961,-1.13,0.463,23.0
19.954,-1.123,0.353,24.0
19.953,-1.115,0.24,19.0
20.005,-1.111,0.13,25.0
19.992,-1.103,0.02,23.0
19.966,-1.099,0.573,24.0
19.977,-1.092,0.463,21.0
19.955,-1.083,0.352,18.0
20.009,-1.079,0.24,29.0
19.988,-1.07,0.13,24.0
19.969,-1.062,0.019,34.0
19.968,-1.059,0.573,19.0
19.967,-1.051,0.462,16.0
19.969,-1.044,0.351,14.0
20.014,-1.039,0.239,27.0
20.003,-1.031,0.128,16.0
19.982,-1.022,0.018,18.0
20.06,-1.023,0.574,18.0
20.116,-1.018,0.464,18.0
20.14,-1.012,0.353,25.0
20.167,-1.006,0.239,26.0
138.131,-6.841,0.875,12.0
20.019,-0.984,0.015,6.0
20.116,-0.985,0.573,27.0
20.138,-0.979,0.462,20.0
20.147,-0.972,0.35,18.0
194.318,-9.306,2.283,8.0
138.185,-6.566,0.856,10.0
0.0,0.0,0.0,0.0
20.116,-0.945,0.57,19.0
20.153,-0.939,0.459,10.0
138.058,-6.385,2.379,23.0
194.75,-8.936,2.254,5.0
138.211,-6.291,0.831,8.0
0.0,0.0,0.0,0.0
20.126,-0.905,0.566,0.0
194.644,-8.68,4.395,13.0
138.083,-6.105,2.349,40.0
138.08,-6.056,1.568,17.0
137.99,-6.002,0.8,11.0
0.0,0.0,0.0,0.0
193.467,-8.306,5.4,19.0
193.78,-8.246,4.329,18.0
138.106,-5.826,2.316,53.0
138.378,-5.787,1.536,9.0
138.343,-5.735,0.767,8.0
81.786,-3.361,-0.001,0.0
193.404,-7.912,5.345,17.0
194.705,-7.891,4.296,6.0
192.958,-7.748,3.182,9.0
138.395,-5.505,1.496,13.0
138.464,-5.46,0.727,4.0
0.0,0.0,0.0,0.0
192.961,-7.499,5.272,15.0
194.273,-7.478,4.225,13.0
193.372,-7.373,3.126,11.0
138.465,-5.227,1.452,9.0
138.464,-5.174,0.679,2.0
0.0,0.0,0.0,0.0
193.125,-7.109,5.209,24.0
193.395,-7.048,4.136,9.0
138.401,-4.993,2.187,4.0
138.549,-4.947,1.402,21.0
0.0,0.0,0.0,0.0
0.0,0.0,0.0,0.0
193.493,-6.725,5.144,15.0
187.441,-6.446,3.935,52.0
138.494,-4.711,2.133,7.0
138.602,-4.664,1.346,25.0
0.0,0.0,0.0,0.0
0.0,0.0,0.0,0.0
193.984,-6.342,5.073,22.0
193.935,-6.27,3.987,21.0
138.582,-4.43,2.073,7.0
138.667,-4.383,1.285,23.0
0.0,0.0,0.0,0.0
0.0,0.0,0.0,0.0
194.118,-5.948,4.986,22.0
194.468,-5.889,3.905,22.0
138.608,-4.146,2.007,9.0
138.436,-4.093,1.216,24.0
0.0,0.0,0.0,0.0
0.0,0.0,0.0,0.0
205.771,-5.888,5.182,6.0
194.873,-5.504,3.814,6.0
138.725,-3.869,1.937,2.0
138.768,-3.82,1.147,22.0
0.0,0.0,0.0,0.0
0.0,0.0,0.0,0.0
205.402,-5.453,5.059,14.0
193.099,-5.059,3.674,6.0
138.784,-3.585,1.861,3.0
138.881,-3.539,1.069,20.0
0.0,0.0,0.0,0.0
0.0,0.0,0.0,0.0
118.114,-2.895,2.841,22.0
193.157,-4.669,3.562,21.0
0.0,0.0,0.0,0.0
138.862,-3.257,0.987,13.0
0.0,0.0,0.0,0.0
53.604,-1.219,-0.22,1.0
0.0,0.0,0.0,0.0
193.125,-4.273,3.44,18.0
0.0,0.0,0.0,0.0
138.902,-2.978,0.899,12.0
0.0,0.0,0.0,0.0
54.274,-1.124,-0.258,0.0
0.0,0.0,0.0,0.0
193.09,-3.881,3.312,14.0
0.0,0.0,0.0,0.0
138.885,-2.696,0.805,10.0
0.0,0.0,0.0,0.0
0.0,0.0,0.0,0.0
206.54,-3.806,4.56,14.0
193.711,-3.503,3.186,13.0
139.225,-2.471,1.507,7.0
139.021,-2.418,0.707,4.0
0.0,0.0,0.0,0.0
0.0,0.0,0.0,0.0
0.0,0.0,0.0,0.0
138.973,-2.235,2.184,4.0
138.987,-2.189,1.402,10.0
138.858,-2.14,0.604,2.0
0.0,0.0,0.0,0.0
0.0,0.0,0.0,0.0
0.0,0.0,0.0,0.0
139.176,-1.961,2.08,9.0
139.128,-1.915,1.295,20.0
0.0,0.0,0.0,0.0
0.0,0.0,0.0,0.0
47.295,-0.602,-0.364,1.0
0.0,0.0,0.0,0.0
139.136,-1.684,1.967,7.0
139.243,-1.637,1.182,20.0
0.0,0.0,0.0,0.0
0.0,0.0,0.0,0.0
45.397,-0.488,-0.387,0.0
119.737,-1.252,2.268,150.0
119.753,-1.211,1.591,150.0
119.75,-1.171,0.914,19.0
0.0,0.0,0.0,0.0
0.0,0.0,0.0,0.0
44.1,-0.387,-0.415,0.0
119.738,-1.017,2.163,62.0
119.695,-0.976,1.485,15.0
113.925,-0.89,0.769,7.0
83.007,-0.621,0.082,0.0
0.0,0.0,0.0,0.0
41.64,-0.284,-0.429,0.0
193.763,-1.265,3.323,16.0
119.651,-0.742,1.375,13.0
110.972,-0.652,0.647,6.0
0.0,0.0,0.0,0.0
53.83,-0.282,-0.3,0.0
0.0,0.0,0.0,0.0
119.826,-0.55,1.941,24.0
119.683,-0.512,1.262,15.0
111.105,-0.44,0.542,2.0
0.0,0.0,0.0,0.0
0.0,0.0,0.0,0.0
41.411,-0.123,-0.506,0.0
114.727,-0.307,1.747,4.0
119.713,-0.282,1.144,8.0
99.492,-0.203,0.387,2.0
0.0,0.0,0.0,0.0
45.625,-0.064,-0.344,0.0
37.508,-0.04,-0.495,0.0
111.093,-0.084,1.578,11.0
111.128,-0.051,0.949,7.0
95.701,-0.014,0.274,5.0
0.0,0.0,0.0,0.0
45.519,0.021,-0.39,1.0
35.579,0.028,-0.506,0.0
111.127,0.123,1.463,22.0
110.802,0.158,0.829,8.0
93.012,0.16,0.169,1.0
0.0,0.0,0.0,0.0
42.881,0.1,-0.413,1.0
0.0,0.0,0.0,0.0
119.766,0.355,1.448,15.0
104.274,0.343,0.667,7.0
0.0,0.0,0.0,0.0
0.0,0.0,0.0,0.0
42.814,0.179,-0.459,1.0
34.006,0.152,-0.558,0.0
111.049,0.534,1.22,25.0
97.872,0.5,0.519,2.0
70.845,0.382,-0.026,0.0
0.0,0.0,0.0,0.0
40.999,0.246,-0.486,0.0
33.314,0.21,-0.584,0.0
104.873,0.695,1.033,17.0
90.607,0.627,0.377,5.0
0.0,0.0,0.0,0.0
48.558,0.365,-0.355,0.0
0.0,0.0,0.0,0.0
31.146,0.252,-0.582,0.0
98.571,0.83,0.855,13.0
84.006,0.732,0.251,4.0
0.0,0.0,0.0,0.0
46.331,0.43,-0.393,0.0
36.278,0.348,-0.514,0.0
30.35,0.3,-0.603,0.0
98.314,1.002,0.735,12.0
80.55,0.844,0.144,4.0
0.0,0.0,0.0,0.0
42.52,0.47,-0.412,1.0
34.44,0.391,-0.53,0.0
29.362,0.341,-0.619,0.0
98.058,1.171,0.614,3.0
78.41,0.959,0.043,1.0
0.0,0.0,0.0,0.0
40.95,0.524,-0.448,1.0
33.095,0.433,-0.551,0.0
28.534,0.381,-0.637,0.0
85.204,1.164,0.426,10.0
0.0,0.0,0.0,0.0
0.0,0.0,0.0,0.0
0.0,0.0,0.0,0.0
32.139,0.475,-0.575,0.0
0.0,0.0,0.0,0.0
81.022,1.246,0.3,7.0
0.0,0.0,0.0,0.0
46.996,0.749,-0.362,0.0
0.0,0.0,0.0,0.0
30.425,0.501,-0.584,0.0
26.45,0.443,-0.659,0.0
73.894,1.261,0.177,4.0
0.0,0.0,0.0,0.0
45.645,0.803,-0.411,1.0
35.847,0.64,-0.531,0.0
29.544,0.535,-0.606,0.0
25.249,0.464,-0.663,0.0
71.623,1.339,0.076,3.0
0.0,0.0,0.0,0.0
0.0,0.0,0.0,0.0
0.0,0.0,0.0,0.0
0.0,0.0,0.0,0.0
24.602,0.493,-0.679,0.0
69.925,1.421,-0.021,2.0
0.0,0.0,0.0,0.0
0.0,0.0,0.0,0.0
31.874,0.672,-0.559,0.0
27.483,0.587,-0.639,0.0
23.885,0.516,-0.692,0.0
0.0,0.0,0.0,0.0
48.817,1.082,-0.361,1.0
37.544,0.842,-0.493,0.0
0.0,0.0,0.0,0.0
26.32,0.604,-0.649,0.0
22.895,0.531,-0.696,0.0
0.0,0.0,0.0,0.0
0.0,0.0,0.0,0.0
36.264,0.87,-0.528,0.0
29.298,0.71,-0.597,0.0
25.501,0.625,-0.666,0.0
22.275,0.551,-0.709,0.0
22.971,1.035,-0.692,0.0
20.361,0.92,-0.73,0.0
18.206,0.826,-0.758,0.0
16.6,0.756,-0.789,0.0
15.15,0.692,-0.807,0.0
14.004,0.642,-0.827,0.0
22.202,1.021,-0.706,0.0
19.735,0.91,-0.741,0.0
17.686,0.819,-0.767,0.0
16.09,0.747,-0.792,0.0
14.896,0.694,-0.819,0.0
13.758,0.643,-0.836,0.0
21.361,1.001,-0.716,0.0
18.993,0.893,-0.746,0.0
17.229,0.813,-0.776,0.0
15.757,0.746,-0.803,0.0
14.475,0.687,-0.821,0.0
13.463,0.641,-0.842,0.0
20.63,0.985,-0.727,0.0
18.41,0.881,-0.755,0.0
16.721,0.803,-0.782,0.0
15.288,0.736,-0.805,0.0
14.179,0.685,-0.829,0.0
13.162,0.638,-0.845,0.0
19.882,0.965,-0.734,0.0
17.855,0.869,-0.762,0.0
16.156,0.789,-0.783,0.0
14.955,0.732,-0.813,0.0
13.839,0.679,-0.833,0.0
12.853,0.633,-0.848,0.0
19.302,0.952,-0.746,0.0
17.452,0.863,-0.775,0.0
15.83,0.785,-0.795,0.0
14.586,0.725,-0.818,0.0
13.565,0.676,-0.84,0.0
12.506,0.625,-0.847,0.0
18.616,0.932,-0.752,0.0
16.969,0.851,-0.783,0.0
15.4,0.775,-0.8,0.0
14.221,0.717,-0.822,0.0
13.196,0.667,-0.84,0.0
12.225,0.62,-0.849,0.0
18.05,0.916,-0.76,0.0
16.6,0.844,-0.795,0.0
15.084,0.769,-0.81,0.0
13.895,0.71,-0.828,0.0
12.955,0.664,-0.847,0.0
11.955,0.614,-0.851,0.0
17.718,0.91,-0.777,0.0
15.948,0.821,-0.791,0.0
14.655,0.757,-0.812,0.0
13.592,0.703,-0.833,0.0
12.644,0.656,-0.848,0.0
11.667,0.607,-0.851,0.0
17.053,0.887,-0.777,0.0
15.619,0.814,-0.802,0.0
14.365,0.75,-0.821,0.0
13.304,0.696,-0.839,0.0
12.363,0.649,-0.851,0.0
11.494,0.604,-0.858,0.0
16.609,0.873,-0.785,0.0
15.22,0.802,-0.808,0.0
14.052,0.742,-0.827,0.0
13.016,0.688,-0.843,0.0
12.034,0.638,-0.849,0.0
11.21,0.595,-0.856,0.0
16.129,0.856,-0.79,0.0
14.717,0.783,-0.806,0.0
13.722,0.731,-0.831,0.0
12.638,0.675,-0.84,0.0
11.758,0.629,-0.85,0.0
11.092,0.595,-0.866,0.0
15.661,0.839,-0.795,0.0
14.494,0.778,-0.819,0.0
13.455,0.724,-0.839,0.0
12.424,0.669,-0.848,0.0
11.541,0.623,-0.854,0.0
10.858,0.587,-0.867,0.0
15.341,0.829,-0.805,0.0
14.225,0.77,-0.828,0.0
13.173,0.714,-0.843,0.0
12.13,0.659,-0.848,0.0
11.311,0.615,-0.857,0.0
10.681,0.582,-0.871,0.0
14.958,0.814,-0.81,0.0
13.8,0.752,-0.827,0.0
12.863,0.702,-0.846,0.0
11.801,0.645,-0.846,0.0
11.091,0.608,-0.859,0.0
10.511,0.577,-0.875,0.0
14.561,0.798,-0.813,0.0
13.508,0.741,-0.833,0.0
12.543,0.689,-0.846,0.0
11.612,0.639,-0.851,0.0
10.928,0.602,-0.865,0.0
10.361,0.572,-0.88,0.0
14.276,0.787,-0.822,0.0
13.292,0.733,-0.842,0.0
12.208,0.675,-0.844,0.0
11.445,0.633,-0.859,0.0
10.722,0.594,-0.867,0.0
10.179,0.565,-0.882,0.0
13.936,0.772,-0.825,0.0
12.993,0.72,-0.845,0.0
11.942,0.663,-0.846,0.0
11.111,0.618,-0.853,0.0
10.589,0.589,-0.874,0.0
10.057,0.561,-0.889,0.0
13.636,0.758,-0.831,0.0
12.719,0.708,-0.848,0.0
11.725,0.654,-0.85,0.0
10.96,0.612,-0.859,0.0
10.417,0.582,-0.877,0.0
9.908,0.554,-0.892,0.0
13.347,0.745,-0.835,0.0
12.346,0.69,-0.844,0.0
11.52,0.644,-0.854,0.0
10.794,0.604,-0.864,0.0
10.307,0.578,-0.885,0.0
9.761,0.548,-0.895,0.0
13.073,0.732,-0.84,0.0
12.047,0.675,-0.843,0.0
11.276,0.632,-0.855,0.0
10.639,0.597,-0.87,0.0
10.109,0.568,-0.885,0.0
9.654,0.543,-0.902,0.0
12.795,0.718,-0.843,0.0
11.789,0.662,-0.845,0.0
11.068,0.622,-0.857,0.0
10.484,0.589,-0.874,0.0
9.972,0.561,-0.89,0.0
9.484,0.534,-0.901,0.0
12.59,0.707,-0.85,0.0
11.616,0.653,-0.851,0.0
10.878,0.612,-0.86,0.0
10.309,0.58,-0.876,0.0
9.879,0.556,-0.897,0.0
9.358,0.528,-0.905,0.0
12.255,0.689,-0.847,0.0
11.399,0.641,-0.854,0.0
10.687,0.601,-0.862,0.0
10.182,0.573,-0.882,0.0
9.694,0.546,-0.896,0.0
9.236,0.521,-0.908,0.0
11.92,0.67,-0.843,0.0
11.209,0.63,-0.857,0.0
10.606,0.596,-0.873,0.0
10.054,0.566,-0.887,0.0
9.599,0.54,-0.903,0.0
9.06,0.51,-0.905,0.0
11.72,0.658,-0.847,0.0
10.947,0.615,-0.855,0.0
10.411,0.585,-0.873,0.0
9.91,0.557,-0.89,0.0
9.454,0.532,-0.904,0.0
9.002,0.506,-0.913,0.0
11.549,0.647,-0.853,0.0
10.822,0.607,-0.862,0.0
10.293,0.577,-0.879,0.0
9.764,0.548,-0.892,0.0
9.3,0.522,-0.904,0.0
8.908,0.5,-0.917,0.0
11.317,0.633,-0.853,0.0
10.679,0.597,-0.867,0.0
10.117,0.566,-0.88,0.0
9.642,0.54,-0.895,0.0
9.224,0.516,-0.91,0.0
8.79,0.492,-0.919,0.0
11.11,0.619,-0.854,0.0
10.568,0.589,-0.874,0.0
10.017,0.559,-0.886,0.0
9.544,0.532,-0.901,0.0
9.08,0.507,-0.91,0.0
8.673,0.484,-0.92,0.0
10.978,0.61,-0.86,0.0
10.356,0.575,-0.871,0.0
9.874,0.548,-0.888,0.0
9.463,0.526,-0.907,0.0
8.974,0.499,-0.912,0.0
8.569,0.476,-0.921,0.0
10.797,0.597,-0.862,0.0
10.277,0.568,-0.88,0.0
9.816,0.543,-0.897,0.0
9.261,0.512,-0.901,0.0
8.85,0.489,-0.913,0.0
8.441,0.467,-0.92,0.0
10.656,0.586,-0.866,0.0
10.144,0.558,-0.883,0.0
9.657,0.531,-0.897,0.0
9.172,0.504,-0.906,0.0
8.759,0.482,-0.916,0.0
8.376,0.461,-0.925,0.0
10.524,0.576,-0.87,0.0
9.991,0.546,-0.884,0.0
9.507,0.52,-0.896,0.0
9.043,0.494,-0.906,0.0
8.691,0.475,-0.921,0.0
8.273,0.452,-0.925,0.0
10.404,0.565,-0.875,0.0
9.913,0.538,-0.891,0.0
9.421,0.512,-0.901,0.0
8.921,0.484,-0.906,0.0
8.552,0.464,-0.918,0.0
8.207,0.445,-0.929,0.0
10.268,0.554,-0.877,0.0
9.795,0.528,-0.893,0.0
9.332,0.503,-0.905,0.0
8.845,0.477,-0.91,0.0
8.46,0.456,-0.92,0.0
8.134,0.438,-0.932,0.0
10.14,0.543,-0.88,0.0
9.737,0.521,-0.901,0.0
9.215,0.493,-0.906,0.0
8.741,0.467,-0.911,0.0
8.393,0.448,-0.924,0.0
8.036,0.429,-0.931,0.0
10.04,0.533,-0.884,0.0
9.562,0.507,-0.897,0.0
9.089,0.482,-0.905,0.0
8.685,0.46,-0.917,0.0
8.299,0.439,-0.924,0.0
7.944,0.42,-0.931,0.0
9.932,0.522,-0.887,0.0
9.482,0.498,-0.902,0.0
9.037,0.474,-0.912,0.0
8.603,0.451,-0.919,0.0
8.244,0.432,-0.928,0.0
7.892,0.413,-0.935,0.0
9.825,0.511,-0.89,0.0
9.352,0.486,-0.901,0.0
8.972,0.466,-0.916,0.0
8.502,0.441,-0.919,0.0
8.152,0.423,-0.928,0.0
7.807,0.405,-0.934,0.0
9.719,0.5,-0.892,0.0
9.323,0.48,-0.91,0.0
8.847,0.455,-0.914,0.0
8.405,0.432,-0.918,0.0
8.107,0.416,-0.933,0.0
7.742,0.397,-0.936,0.0
9.622,0.49,-0.895,0.0
9.223,0.469,-0.911,0.0
8.762,0.445,-0.916,0.0
0.0,0.0,0.0,0.0
7.999,0.406,-0.93,0.0
7.67,0.388,-0.936,0.0
9.538,0.48,-0.898,0.0
9.111,0.457,-0.91,0.0
8.687,0.436,-0.918,0.0
0.0,0.0,0.0,0.0
7.989,0.4,-0.938,0.0
7.63,0.381,-0.94,0.0
9.438,0.468,-0.899,0.0
8.962,0.444,-0.905,0.0
8.645,0.428,-0.923,0.0
0.0,0.0,0.0,0.0
7.85,0.388,-0.93,0.0
7.534,0.371,-0.937,0.0
9.382,0.459,-0.904,0.0
8.892,0.435,-0.908,0.0
8.564,0.418,-0.924,0.0
0.0,0.0,0.0,0.0
7.817,0.38,-0.935,0.0
7.509,0.365,-0.941,0.0
9.28,0.448,-0.903,0.0
8.827,0.425,-0.91,0.0
8.45,0.406,-0.92,0.0
0.0,0.0,0.0,0.0
7.785,0.373,-0.939,0.0
7.454,0.357,-0.942,0.0
9.198,0.437,-0.905,0.0
8.83,0.419,-0.919,0.0
8.398,0.398,-0.923,0.0
0.0,0.0,0.0,0.0
7.665,0.362,-0.932,0.0
7.369,0.347,-0.939,0.0
9.178,0.429,-0.912,0.0
8.678,0.405,-0.912,0.0
8.313,0.387,-0.922,0.0
0.0,0.0,0.0,0.0
7.69,0.357,-0.942,0.0
7.328,0.339,-0.941,0.0
9.043,0.415,-0.907,0.0
8.658,0.397,-0.918,0.0
8.275,0.379,-0.925,0.0
7.884,0.36,-0.928,0.0
7.625,0.347,-0.941,0.0
7.299,0.332,-0.944,0.0
8.955,0.404,-0.906,0.0
8.58,0.386,-0.917,0.0
8.251,0.371,-0.93,0.0
7.818,0.35,-0.927,0.0
7.552,0.338,-0.939,0.0
7.284,0.325,-0.948,0.0
8.882,0.393,-0.906,0.0
8.486,0.375,-0.915,0.0
8.174,0.36,-0.928,0.0
7.807,0.343,-0.932,0.0
7.491,0.329,-0.938,0.0
7.198,0.315,-0.943,0.0
8.857,0.384,-0.911,0.0
8.526,0.369,-0.926,0.0
8.195,0.354,-0.937,0.0
7.813,0.337,-0.939,0.0
7.487,0.322,-0.943,0.0
0.0,0.0,0.0,0.0
8.826,0.375,-0.915,0.0
8.434,0.358,-0.923,0.0
8.055,0.341,-0.927,0.0
7.71,0.325,-0.933,0.0
7.421,0.312,-0.941,0.0
0.0,0.0,0.0,0.0
8.767,0.365,-0.915,0.0
8.386,0.348,-0.924,0.0
8.026,0.332,-0.93,0.0
7.676,0.317,-0.934,0.0
7.397,0.304,-0.943,0.0
0.0,0.0,0.0,0.0
8.681,0.353,-0.912,0.0
8.313,0.337,-0.921,0.0
7.978,0.322,-0.93,0.0
7.591,0.306,-0.929,0.0
7.35,0.295,-0.942,0.0
0.0,0.0,0.0,0.0
8.661,0.344,-0.916,0.0
8.272,0.327,-0.922,0.0
7.937,0.313,-0.93,0.0
7.614,0.299,-0.937,0.0
7.334,0.287,-0.945,0.0
0.0,0.0,0.0,0.0
8.632,0.334,-0.918,0.0
8.281,0.319,-0.928,0.0
7.941,0.305,-0.936,0.0
7.597,0.291,-0.939,0.0
0.0,0.0,0.0,0.0
0.0,0.0,0.0,0.0
8.625,0.325,-0.922,0.0
8.232,0.309,-0.927,0.0
7.911,0.296,-0.936,0.0
7.544,0.281,-0.937,0.0
0.0,0.0,0.0,0.0
0.0,0.0,0.0,0.0
8.502,0.312,-0.914,0.0
8.142,0.298,-0.922,0.0
7.844,0.286,-0.933,0.0
0.0,0.0,0.0,0.0
0.0,0.0,0.0,0.0
0.0,0.0,0.0,0.0
8.51,0.304,-0.919,0.0
8.182,0.291,-0.93,0.0
7.825,0.277,-0.934,0.0
7.513,0.265,-0.941,0.0
0.0,0.0,0.0,0.0
0.0,0.0,0.0,0.0
8.467,0.293,-0.918,0.0
8.096,0.279,-0.924,0.0
7.808,0.268,-0.936,0.0
0.0,0.0,0.0,0.0
0.0,0.0,0.0,0.0
0.0,0.0,0.0,0.0
8.414,0.282,-0.916,0.0
8.166,0.273,-0.935,0.0
7.784,0.259,-0.936,0.0
0.0,0.0,0.0,0.0
0.0,0.0,0.0,0.0
0.0,0.0,0.0,0.0
8.434,0.274,-0.921,0.0
8.103,0.262,-0.931,0.0
7.757,0.25,-0.935,0.0
0.0,0.0,0.0,0.0
0.0,0.0,0.0,0.0
0.0,0.0,0.0,0.0
8.434,0.265,-0.923,0.0
8.072,0.252,-0.93,0.0
0.0,0.0,0.0,0.0
0.0,0.0,0.0,0.0
0.0,0.0,0.0,0.0
0.0,0.0,0.0,0.0
8.379,0.254,-0.92,0.0
8.062,0.243,-0.931,0.0
7.696,0.231,-0.932,0.0
0.0,0.0,0.0,0.0
0.0,0.0,0.0,0.0
0.0,0.0,0.0,0.0
8.375,0.244,-0.921,0.0
8.035,0.233,-0.929,0.0
7.653,0.221,-0.928,0.0
0.0,0.0,0.0,0.0
0.0,0.0,0.0,0.0
0.0,0.0,0.0,0.0
8.377,0.235,-0.923,0.0
8.08,0.225,-0.936,0.0
0.0,0.0,0.0,0.0
0.0,0.0,0.0,0.0
0.0,0.0,0.0,0.0
0.0,0.0,0.0,0.0
8.356,0.225,-0.922,0.0
0.0,0.0,0.0,0.0
7.757,0.206,-0.943,0.0
0.0,0.0,0.0,0.0
0.0,0.0,0.0,0.0
6.809,0.178,-0.945,0.0
8.366,0.216,-0.923,0.0
8.022,0.206,-0.931,0.0
7.668,0.195,-0.933,0.0
0.0,0.0,0.0,0.0
0.0,0.0,0.0,0.0
0.0,0.0,0.0,0.0
8.327,0.205,-0.92,0.0
8.009,0.196,-0.93,0.0
7.736,0.188,-0.942,0.0
0.0,0.0,0.0,0.0
0.0,0.0,0.0,0.0
0.0,0.0,0.0,0.0
8.356,0.196,-0.923,0.0
0.0,0.0,0.0,0.0
0.0,0.0,0.0,0.0
0.0,0.0,0.0,0.0
0.0,0.0,0.0,0.0
0.0,0.0,0.0,0.0
8.352,0.187,-0.922,0.0
7.997,0.177,-0.928,0.0
7.69,0.169,-0.935,0.0
0.0,0.0,0.0,0.0
0.0,0.0,0.0,0.0
0.0,0.0,0.0,0.0
8.375,0.178,-0.923,0.0
8.014,0.168,-0.929,0.0
0.0,0.0,0.0,0.0
0.0,0.0,0.0,0.0
0.0,0.0,0.0,0.0
0.0,0.0,0.0,0.0
8.399,0.168,-0.925,0.0
8.041,0.16,-0.931,0.0
0.0,0.0,0.0,0.0
0.0,0.0,0.0,0.0
0.0,0.0,0.0,0.0
0.0,0.0,0.0,0.0
8.389,0.158,-0.922,0.0
8.025,0.15,-0.927,0.0
7.731,0.143,-0.937,0.0
0.0,0.0,0.0,0.0
0.0,0.0,0.0,0.0
0.0,0.0,0.0,0.0
8.419,0.149,-0.924,0.0
8.001,0.14,-0.922,0.0
7.754,0.134,-0.937,0.0
0.0,0.0,0.0,0.0
0.0,0.0,0.0,0.0
0.0,0.0,0.0,0.0
8.407,0.139,-0.92,0.0
0.0,0.0,0.0,0.0
7.77,0.126,-0.937,0.0
0.0,0.0,0.0,0.0
0.0,0.0,0.0,0.0
6.931,0.108,-0.953,0.0
8.403,0.13,-0.917,0.0
0.0,0.0,0.0,0.0
7.741,0.116,-0.931,0.0
0.0,0.0,0.0,0.0
0.0,0.0,0.0,0.0
6.92,0.1,-0.949,0.0
8.457,0.121,-0.919,0.0
0.0,0.0,0.0,0.0
7.801,0.108,-0.935,0.0
0.0,0.0,0.0,0.0
0.0,0.0,0.0,0.0
0.0,0.0,0.0,0.0
8.493,0.111,-0.92,0.0
8.169,0.105,-0.93,0.0
7.799,0.099,-0.931,0.0
0.0,0.0,0.0,0.0
0.0,0.0,0.0,0.0
6.99,0.085,-0.953,0.0
8.5,0.102,-0.917,0.0
8.106,0.095,-0.919,0.0
7.833,0.091,-0.932,0.0
7.497,0.085,-0.934,0.0
0.0,0.0,0.0,0.0
7.005,0.077,-0.951,0.0
8.565,0.093,-0.919,0.0
8.196,0.087,-0.925,0.0
7.903,0.082,-0.936,0.0
7.583,0.078,-0.941,0.0
0.0,0.0,0.0,0.0
7.013,0.069,-0.948,0.0
8.591,0.083,-0.917,0.0
8.268,0.078,-0.928,0.0
7.902,0.073,-0.931,0.0
7.576,0.069,-0.936,0.0
0.0,0.0,0.0,0.0
0.0,0.0,0.0,0.0
8.715,0.075,-0.925,0.0
8.283,0.069,-0.925,0.0
8.005,0.065,-0.938,0.0
7.632,0.061,-0.938,0.0
0.0,0.0,0.0,0.0
0.0,0.0,0.0,0.0
8.68,0.065,-0.916,0.0
8.352,0.061,-0.927,0.0
7.999,0.056,-0.932,0.0
0.0,0.0,0.0,0.0
0.0,0.0,0.0,0.0
7.109,0.046,-0.948,0.0
8.755,0.056,-0.918,0.0
8.41,0.052,-0.928,0.0
0.0,0.0,0.0,0.0
0.0,0.0,0.0,0.0
0.0,0.0,0.0,0.0
0.0,0.0,0.0,0.0
8.804,0.046,-0.916,0.0
8.411,0.043,-0.922,0.0
8.108,0.04,-0.933,0.0
0.0,0.0,0.0,0.0
0.0,0.0,0.0,0.0
0.0,0.0,0.0,0.0
8.844,0.037,-0.914,0.0
8.442,0.034,-0.919,0.0
8.079,0.031,-0.923,0.0
0.0,0.0,0.0,0.0
7.55,0.026,-0.947,0.0
0.0,0.0,0.0,0.0
8.896,0.028,-0.912,0.0
8.556,0.025,-0.924,0.0
8.194,0.022,-0.93,0.0
0.0,0.0,0.0,0.0
7.594,0.018,-0.946,0.0
7.335,0.016,-0.954,0.0
9.012,0.019,-0.916,0.0
0.0,0.0,0.0,0.0
8.226,0.014,-0.926,0.0
0.0,0.0,0.0,0.0
7.587,0.01,-0.938,0.0
7.339,0.008,-0.948,0.0
9.047,0.01,-0.911,0.0
8.667,0.007,-0.92,0.0
8.27,0.005,-0.923,0.0
0.0,0.0,0.0,0.0
7.647,0.002,-0.938,0.0
7.356,0.001,-0.943,0.0
9.123,0.0,-0.911,0.0
8.736,0.0,-0.919,0.0
8.343,-0.002,-0.924,0.0
0.0,0.0,0.0,0.0
7.667,-0.005,-0.933,0.0
7.408,-0.006,-0.942,0.0
9.178,-0.008,-0.907,0.0
8.775,-0.009,-0.915,0.0
8.429,-0.01,-0.925,0.0
0.0,0.0,0.0,0.0
7.724,-0.012,-0.932,0.0
7.436,-0.013,-0.938,0.0
9.261,-0.017,-0.906,0.0
8.903,-0.018,-0.919,0.0
8.495,-0.019,-0.923,0.0
8.085,-0.019,-0.923,0.0
7.803,-0.02,-0.934,0.0
7.54,-0.021,-0.943,0.0
9.345,-0.026,-0.904,0.0
8.941,-0.026,-0.913,0.0
8.582,-0.027,-0.923,0.0
0.0,0.0,0.0,0.0
7.863,-0.028,-0.932,0.0
7.62,-0.028,-0.945,0.0
9.409,-0.035,-0.9,0.0
9.046,-0.035,-0.914,0.0
8.608,-0.035,-0.916,0.0
8.258,-0.035,-0.925,0.0
7.999,-0.035,-0.939,0.0
7.673,-0.035,-0.943,0.0
9.546,-0.044,-0.902,0.0
9.109,-0.044,-0.91,0.0
8.779,-0.044,-0.924,0.0
8.355,-0.043,-0.926,0.0
8.027,-0.043,-0.933,0.0
7.707,-0.043,-0.938,0.0
9.634,-0.053,-0.899,0.0
9.183,-0.053,-0.906,0.0
8.828,-0.052,-0.919,0.0
8.424,-0.051,-0.923,0.0
8.099,-0.051,-0.931,0.0
7.785,-0.05,-0.938,0.0
9.766,-0.063,-0.899,0.0
9.287,-0.061,-0.905,0.0
8.873,-0.06,-0.913,0.0
8.48,-0.059,-0.919,0.0
8.185,-0.058,-0.931,0.0
7.897,-0.058,-0.941,0.0
9.858,-0.072,-0.895,0.0
9.371,-0.07,-0.901,0.0
9.029,-0.069,-0.917,0.0
0.0,0.0,0.0,0.0
8.266,-0.066,-0.929,0.0
7.95,-0.064,-0.937,0.0
9.934,-0.08,-0.889,0.0
9.531,-0.079,-0.904,0.0
9.084,-0.077,-0.911,0.0
0.0,0.0,0.0,0.0
8.323,-0.073,-0.925,0.0
8.055,-0.072,-0.939,0.0
10.088,-0.09,-0.89,0.0
9.609,-0.087,-0.899,0.0
9.111,-0.084,-0.901,0.0
0.0,0.0,0.0,0.0
8.46,-0.081,-0.929,0.0
8.134,-0.079,-0.937,0.0
10.219,-0.099,-0.887,0.0
9.723,-0.096,-0.896,0.0
9.271,-0.093,-0.904,0.0
8.885,-0.09,-0.915,0.0
8.516,-0.088,-0.923,0.0
8.151,-0.085,-0.927,0.0
10.321,-0.108,-0.882,0.0
9.881,-0.105,-0.897,0.0
9.325,-0.1,-0.896,0.0
9.008,-0.098,-0.915,0.0
8.611,-0.095,-0.921,0.0
8.267,-0.093,-0.928,0.0
10.459,-0.117,-0.879,0.0
9.976,-0.113,-0.891,0.0
9.556,-0.109,-0.905,0.0
9.15,-0.106,-0.916,0.0
8.776,-0.103,-0.925,0.0
8.356,-0.099,-0.926,0.0
10.611,-0.126,-0.876,0.0
10.139,-0.121,-0.891,0.0
9.667,-0.117,-0.901,0.0
9.229,-0.113,-0.91,0.0
8.878,-0.11,-0.923,0.0
8.481,-0.107,-0.927,0.0
10.759,-0.134,-0.872,0.0
10.253,-0.13,-0.886,0.0
9.798,-0.125,-0.898,0.0
9.329,-0.121,-0.906,0.0
8.933,-0.117,-0.915,0.0
8.536,-0.113,-0.92,0.0
10.968,-0.144,-0.872,0.0
10.388,-0.138,-0.881,0.0
9.947,-0.133,-0.896,0.0
9.428,-0.128,-0.901,0.0
9.09,-0.124,-0.917,0.0
8.681,-0.12,-0.922,0.0
11.079,-0.152,-0.864,0.0
10.537,-0.146,-0.877,0.0
10.072,-0.141,-0.892,0.0
9.594,-0.136,-0.901,0.0
9.169,-0.131,-0.91,0.0
8.791,-0.127,-0.92,0.0
11.275,-0.162,-0.861,0.0
10.697,-0.155,-0.873,0.0
10.228,-0.149,-0.889,0.0
9.769,-0.144,-0.902,0.0
9.331,-0.138,-0.911,0.0
8.922,-0.133,-0.919,0.0
11.48,-0.171,-0.858,0.0
10.923,-0.164,-0.874,0.0
10.365,-0.157,-0.884,0.0
9.884,-0.151,-0.896,0.0
9.416,-0.145,-0.904,0.0
9.056,-0.14,-0.917,0.0
11.657,-0.179,-0.852,0.0
11.048,-0.171,-0.866,0.0
10.515,-0.164,-0.88,0.0
10.047,-0.158,-0.895,0.0
9.6,-0.152,-0.906,0.0
9.187,-0.147,-0.915,0.0
11.906,-0.189,-0.851,0.0
11.275,-0.18,-0.865,0.0
10.685,-0.172,-0.876,0.0
10.208,-0.165,-0.892,0.0
9.79,-0.16,-0.907,0.0
9.291,-0.152,-0.91,0.0
12.249,-0.2,-0.854,0.0
11.473,-0.188,-0.86,0.0
10.877,-0.18,-0.873,0.0
10.346,-0.172,-0.886,0.0
9.868,-0.165,-0.897,0.0
9.425,-0.159,-0.906,0.0
12.501,-0.209,-0.85,0.0
11.654,-0.196,-0.854,0.0
11.072,-0.187,-0.869,0.0
10.521,-0.179,-0.882,0.0
10.072,-0.172,-0.898,0.0
9.601,-0.165,-0.906,0.0
12.825,-0.219,-0.85,0.0
11.933,-0.205,-0.853,0.0
11.274,-0.195,-0.865,0.0
10.676,-0.186,-0.876,0.0
10.23,-0.179,-0.894,0.0
9.753,-0.171,-0.903,0.0
13.078,-0.228,-0.844,0.0
12.275,-0.215,-0.856,0.0
11.473,-0.202,-0.86,0.0
10.929,-0.193,-0.878,0.0
10.373,-0.185,-0.888,0.0
9.903,-0.177,-0.899,0.0
13.52,-0.24,-0.848,0.0
12.581,-0.224,-0.855,0.0
11.685,-0.209,-0.855,0.0
11.062,-0.199,-0.868,0.0
10.536,-0.19,-0.882,0.0
10.058,-0.182,-0.895,0.0
13.745,-0.248,-0.836,0.0
12.878,-0.233,-0.851,0.0
11.996,-0.218,-0.855,0.0
11.313,-0.206,-0.867,0.0
10.782,-0.197,-0.883,0.0
10.254,-0.189,-0.893,0.0
14.126,-0.258,-0.834,0.0
13.108,-0.24,-0.842,0.0
12.35,-0.227,-0.858,0.0
11.51,-0.213,-0.861,0.0
10.958,-0.203,-0.877,0.0
10.394,-0.193,-0.886,0.0
14.527,-0.268,-0.831,0.0
13.582,-0.252,-0.847,0.0
12.707,-0.236,-0.859,0.0
11.732,-0.219,-0.856,0.0
11.128,-0.208,-0.87,0.0
10.571,-0.198,-0.881,0.0
14.859,-0.277,-0.822,0.0
13.849,-0.259,-0.838,0.0
12.889,-0.242,-0.847,0.0
12.067,-0.227,-0.857,0.0
11.337,-0.214,-0.864,0.0
10.827,-0.204,-0.882,0.0
15.229,-0.286,-0.814,0.0
14.22,-0.267,-0.833,0.0
13.178,-0.248,-0.841,0.0
12.402,-0.234,-0.857,0.0
11.583,-0.219,-0.861,0.0
11.0,-0.209,-0.875,0.0
15.748,-0.297,-0.811,0.0
14.552,-0.275,-0.825,0.0
13.591,-0.257,-0.841,0.0
12.796,-0.243,-0.86,0.0
11.822,-0.225,-0.856,0.0
11.226,-0.214,-0.871,0.0
16.208,-0.306,-0.804,0.0
14.987,-0.284,-0.821,0.0
13.935,-0.264,-0.835,0.0
12.935,-0.246,-0.844,0.0
12.211,-0.232,-0.86,0.0
11.45,-0.218,-0.866,0.0
16.683,-0.316,-0.795,0.0
15.307,-0.29,-0.809,0.0
14.323,-0.271,-0.831,0.0
13.419,-0.255,-0.85,0.0
12.512,-0.238,-0.857,0.0
11.653,-0.222,-0.859,0.0
17.344,-0.328,-0.793,0.0
15.878,-0.3,-0.808,0.0
14.713,-0.278,-0.825,0.0
13.724,-0.26,-0.842,0.0
12.865,-0.244,-0.856,0.0
11.973,-0.227,-0.859,0.0
18.087,-0.341,-0.792,7.0
16.374,-0.308,-0.801,0.0
15.118,-0.285,-0.818,0.0
14.081,-0.265,-0.837,0.0
13.017,-0.245,-0.841,0.0
12.322,-0.232,-0.86,0.0
18.127,-0.339,-0.758,20.0
16.858,-0.316,-0.792,0.0
15.56,-0.291,-0.812,0.0
14.473,-0.271,-0.831,0.0
13.558,-0.254,-0.849,0.0
12.728,-0.238,-0.863,0.0
18.883,-0.351,-0.752,0.0
17.72,-0.329,-0.798,0.0
16.099,-0.299,-0.808,0.0
14.869,-0.276,-0.825,0.0
13.83,-0.257,-0.839,0.0
12.913,-0.24,-0.85,0.0
19.844,-0.365,-0.752,0.0
18.146,-0.334,-0.781,23.0
16.613,-0.305,-0.801,0.0
15.259,-0.28,-0.816,0.0
14.257,-0.262,-0.836,0.0
13.423,-0.246,-0.857,0.0
20.552,-0.374,-0.738,0.0
18.151,-0.33,-0.745,3.0
17.125,-0.311,-0.792,0.0
15.719,-0.285,-0.81,0.0
14.653,-0.265,-0.83,0.0
13.686,-0.247,-0.847,0.0
21.596,-0.387,-0.732,0.0
19.308,-0.346,-0.755,0.0
18.06,-0.323,-0.799,2.0
16.229,-0.29,-0.804,0.0
15.14,-0.27,-0.828,0.0
13.988,-0.249,-0.837,0.0
22.303,-0.394,-0.712,0.0
20.061,-0.353,-0.744,0.0
18.109,-0.318,-0.765,8.0
16.752,-0.294,-0.796,0.0
15.414,-0.27,-0.812,0.0
14.465,-0.253,-0.837,0.0
23.417,-0.405,-0.701,0.0
20.839,-0.36,-0.731,0.0
18.898,-0.325,-0.76,0.0
17.316,-0.297,-0.788,0.0
16.066,-0.275,-0.814,0.0
14.845,-0.254,-0.829,0.0
24.93,-0.422,-0.695,0.0
21.797,-0.368,-0.72,0.0
19.821,-0.334,-0.758,0.0
18.011,-0.302,-0.783,0.0
16.541,-0.277,-0.805,0.0
15.295,-0.255,-0.823,0.0
0.0,0.0,0.0,0.0
22.065,-0.364,-0.685,0.0
20.127,-0.33,-0.729,0.0
18.467,-0.302,-0.766,0.0
16.854,-0.274,-0.786,0.0
15.727,-0.255,-0.815,0.0
26.951,-0.433,-0.644,0.0
23.842,-0.382,-0.692,0.0
21.567,-0.344,-0.737,0.0
19.251,-0.306,-0.759,0.0
17.697,-0.28,-0.789,0.0
16.316,-0.257,-0.812,0.0
28.624,-0.446,-0.626,0.0
25.036,-0.388,-0.676,0.0
22.323,-0.345,-0.718,0.0
20.059,-0.308,-0.751,0.0
18.217,-0.278,-0.776,0.0
16.768,-0.255,-0.801,0.0
30.743,-0.463,-0.61,0.0
26.327,-0.394,-0.658,0.0
22.638,-0.337,-0.682,0.0
20.819,-0.308,-0.737,0.0
18.915,-0.279,-0.767,0.0
17.321,-0.254,-0.792,0.0
32.265,-0.468,-0.576,0.0
0.0,0.0,0.0,0.0
24.512,-0.351,-0.69,0.0
21.862,-0.311,-0.73,0.0
19.882,-0.281,-0.767,0.0
18.059,-0.253,-0.79,0.0
34.873,-0.484,-0.552,0.0
29.229,-0.403,-0.613,0.0
25.888,-0.355,-0.677,0.0
22.61,-0.307,-0.71,0.0
20.313,-0.274,-0.742,0.0
18.406,-0.247,-0.768,0.0
0.0,0.0,0.0,0.0
31.296,-0.411,-0.593,0.0
0.0,0.0,0.0,0.0
23.681,-0.306,-0.696,0.0
21.193,-0.272,-0.732,0.0
19.228,-0.245,-0.764,0.0
0.0,0.0,0.0,0.0
0.0,0.0,0.0,0.0
28.839,-0.356,-0.639,0.0
24.677,-0.302,-0.676,0.0
22.227,-0.269,-0.724,0.0
19.965,-0.24,-0.753,0.0
0.0,0.0,0.0,0.0
0.0,0.0,0.0,0.0
0.0,0.0,0.0,0.0
26.325,-0.303,-0.67,0.0
23.236,-0.264,-0.711,0.0
20.77,-0.234,-0.743,0.0
47.198,-0.524,-0.372,0.0
0.0,0.0,0.0,0.0
33.085,-0.359,-0.602,0.0
27.449,-0.294,-0.644,0.0
24.221,-0.257,-0.694,0.0
21.476,-0.225,-0.726,0.0
0.0,0.0,0.0,0.0
43.324,-0.441,-0.48,9.0
34.668,-0.348,-0.562,0.0
29.553,-0.293,-0.635,0.0
25.514,-0.249,-0.68,0.0
22.531,-0.217,-0.717,0.0
0.0,0.0,0.0,0.0
0.0,0.0,0.0,0.0
36.955,-0.34,-0.528,0.0
30.845,-0.279,-0.603,0.0
0.0,0.0,0.0,0.0
23.577,-0.207,-0.705,0.0
0.0,0.0,0.0,0.0
0.0,0.0,0.0,0.0
0.0,0.0,0.0,0.0
33.168,-0.271,-0.584,0.0
28.295,-0.227,-0.644,0.0
24.708,-0.195,-0.691,0.0
0.0,0.0,0.0,0.0
0.0,0.0,0.0,0.0
0.0,0.0,0.0,0.0
0.0,0.0,0.0,0.0
29.798,-0.212,-0.621,0.0
25.992,-0.18,-0.676,0.0
0.0,0.0,0.0,0.0
0.0,0.0,0.0,0.0
47.526,-0.307,-0.403,0.0
0.0,0.0,0.0,0.0
31.415,-0.193,-0.595,0.0
27.234,-0.163,-0.657,0.0
0.0,0.0,0.0,0.0
0.0,0.0,0.0,0.0
0.0,0.0,0.0,0.0
40.309,-0.214,-0.478,0.0
0.0,0.0,0.0,0.0
29.072,-0.144,-0.645,0.0
111.071,-0.533,0.63,6.0
0.0,0.0,0.0,0.0
0.0,0.0,0.0,0.0
45.172,-0.193,-0.449,1.0
0.0,0.0,0.0,0.0
30.634,-0.121,-0.623,0.0
119.693,-0.451,0.903,6.0
102.951,-0.37,0.243,2.0
0.0,0.0,0.0,0.0
0.0,0.0,0.0,0.0
38.142,-0.116,-0.507,0.0
0.0,0.0,0.0,0.0
114.467,-0.309,1.075,150.0
102.111,-0.257,0.43,1.0
0.0,0.0,0.0,0.0
0.0,0.0,0.0,0.0
41.169,-0.081,-0.471,0.0
34.904,-0.062,-0.58,0.0
119.702,-0.19,1.347,8.0
110.908,-0.155,0.671,13.0
0.0,0.0,0.0,0.0
0.0,0.0,0.0,0.0
45.04,-0.037,-0.433,2.0
0.0,0.0,0.0,0.0
111.11,-0.05,1.452,12.0
111.206,-0.028,0.876,7.0
95.683,-0.006,0.255,1.0
0.0,0.0,0.0,0.0
0.0,0.0,0.0,0.0
38.317,0.019,-0.499,0.0
111.096,0.078,1.651,11.0
111.221,0.1,1.074,17.0
0.0,0.0,0.0,0.0
0.0,0.0,0.0,0.0
0.0,0.0,0.0,0.0
42.637,0.072,-0.479,1.0
193.697,0.368,3.224,6.0
111.132,0.234,1.272,20.0
110.757,0.255,0.689,5.0
0.0,0.0,0.0,0.0
0.0,0.0,0.0,0.0
44.667,0.13,-0.424,0.0
119.86,0.375,2.206,12.0
119.865,0.399,1.58,20.0
110.971,0.393,0.884,14.0
90.633,0.339,0.24,1.0
0.0,0.0,0.0,0.0
49.834,0.207,-0.387,0.0
111.193,0.487,2.238,10.0
111.133,0.51,1.657,24.0
111.049,0.534,1.076,21.0
90.82,0.456,0.397,3.0
0.0,0.0,0.0,0.0
52.917,0.288,-0.32,0.0
111.056,0.63,2.426,25.0
111.053,0.653,1.844,32.0
111.02,0.677,1.264,8.0
104.766,0.661,0.634,11.0
86.205,0.563,0.071,4.0
0.0,0.0,0.0,0.0
104.85,0.732,2.467,16.0
111.182,0.8,2.033,3.0
100.529,0.746,1.313,2.0
104.769,0.802,0.81,21.0
85.266,0.672,0.214,4.0
0.0,0.0,0.0,0.0
104.714,0.872,2.638,32.0
0.0,0.0,0.0,0.0
104.715,0.921,1.543,16.0
98.682,0.89,0.926,12.0
97.873,0.905,0.406,4.0
0.0,0.0,0.0,0.0
104.736,1.017,2.811,15.0
104.748,1.041,2.262,18.0
98.665,1.004,1.614,27.0
98.602,1.025,1.085,25.0
98.227,1.045,0.567,8.0
80.554,0.876,0.042,3.0
98.667,1.095,2.807,24.0
98.582,1.118,2.287,24.0
98.564,1.141,1.77,31.0
98.53,1.164,1.242,30.0
98.376,1.185,0.723,13.0
81.342,1.0,0.171,3.0
98.508,1.234,2.958,30.0
98.536,1.257,2.441,33.0
98.552,1.282,1.924,30.0
98.518,1.305,1.396,31.0
98.572,1.329,0.878,27.0
85.128,1.169,0.312,9.0
69.774,0.976,2.205,18.0
98.557,1.403,2.597,27.0
98.705,1.428,2.08,19.0
98.592,1.45,1.549,20.0
92.046,1.377,0.962,12.0
91.825,1.396,0.477,8.0
70.098,1.084,2.322,8.0
189.561,2.977,5.282,9.0
91.969,1.467,2.077,14.0
91.908,1.488,1.582,37.0
87.668,1.442,1.048,3.0
91.808,1.533,0.613,23.0
120.569,2.045,4.175,17.0
91.866,1.581,2.697,17.0
91.851,1.604,2.212,37.0
87.549,1.55,1.637,7.0
91.894,1.651,1.234,26.0
91.854,1.673,0.749,26.0
91.753,1.697,3.313,17.0
91.81,1.72,2.829,31.0
91.827,1.744,2.345,10.0
87.152,1.676,1.755,16.0
91.967,1.792,1.367,8.0
119.917,2.368,1.15,8.0
85.444,1.71,3.207,12.0
91.819,1.862,2.961,30.0
85.403,1.753,2.302,11.0
85.329,1.773,1.839,30.0
85.285,1.794,1.387,35.0
85.257,1.815,0.936,36.0
78.862,1.701,3.07,26.0
85.27,1.862,2.868,39.0
85.252,1.884,2.416,35.0
85.241,1.906,1.956,42.0
85.245,1.927,1.504,39.0
85.236,1.949,1.052,33.0
85.292,1.976,3.439,24.0
78.865,1.847,2.76,17.0
85.269,2.019,2.532,29.0
85.25,2.041,2.071,33.0
85.308,2.064,1.619,28.0
85.295,2.086,1.167,28.0
115.805,2.868,4.824,3.0
78.845,1.973,2.864,19.0
78.989,1.997,2.45,11.0
78.97,2.018,2.022,10.0
78.966,2.038,1.603,27.0
78.942,2.059,1.183,3.0
78.813,2.08,3.386,34.0
78.815,2.102,2.967,32.0
78.826,2.122,2.548,34.0
78.815,2.143,2.12,24.0
74.717,2.052,1.612,3.0
78.858,2.187,1.283,29.0
78.86,2.213,3.49,20.0
78.824,2.232,3.068,16.0
78.807,2.252,2.647,25.0
78.849,2.275,2.22,24.0
78.873,2.297,1.801,15.0
78.888,2.318,1.381,27.0
115.978,3.447,5.276,13.0
117.768,3.531,4.729,9.0
78.85,2.385,2.745,24.0
74.094,2.261,2.176,2.0
120.031,3.695,2.886,16.0
120.094,3.729,2.247,8.0
72.503,2.275,3.385,14.0
78.782,2.494,3.257,6.0
72.479,2.314,2.609,3.0
72.502,2.333,2.215,17.0
72.461,2.351,1.826,31.0
72.427,2.37,1.439,36.0
72.387,2.393,3.464,22.0
72.407,2.414,3.077,36.0
72.417,2.433,2.69,41.0
72.395,2.453,2.295,38.0
72.368,2.471,1.906,29.0
72.368,2.491,1.519,34.0
72.348,2.516,3.544,28.0
72.406,2.537,3.158,39.0
72.412,2.556,2.77,35.0
72.412,2.576,2.375,37.0
50.537,1.812,1.387,50.0
