X,Y,Z,Reflectivity
80.486,0.092,3.919,25.0
102.707,0.128,4.466,8.0
60.924,0.075,4.36,4.0
60.6,0.081,4.02,6.0
60.5,0.088,3.698,2.0
81.166,0.128,4.53,9.0
80.848,0.137,4.089,8.0
102.888,0.187,4.669,12.0
45.721,0.082,3.36,6.0
67.863,0.13,4.632,7.0
67.469,0.137,4.252,5.0
73.534,0.159,4.243,9.0
78.653,0.18,4.126,15.0
80.458,0.194,3.802,14.0
45.806,0.11,3.453,8.0
60.903,0.154,4.272,5.0
60.379,0.16,3.918,22.0
67.579,0.188,4.025,5.0
81.375,0.237,4.421,17.0
81.081,0.246,3.981,24.0
41.888,0.126,3.234,34.0
50.339,0.159,3.623,3.0
60.426,0.199,4.032,18.0
67.202,0.23,4.125,12.0
73.783,0.262,4.143,15.0
78.689,0.29,4.007,10.0
41.762,0.154,3.301,46.0
45.735,0.175,3.375,30.0
67.75,0.268,4.644,7.0
60.388,0.247,3.816,7.0
73.443,0.311,4.257,2.0
81.07,0.355,4.274,8.0
41.729,0.183,3.374,46.0
41.883,0.189,3.166,13.0
47.806,0.223,3.363,6.0
60.309,0.29,3.92,18.0
71.768,0.356,4.289,6.0
80.277,0.41,4.376,16.0
41.668,0.213,3.445,50.0
48.086,0.253,3.722,6.0
45.735,0.247,3.299,32.0
60.731,0.337,4.054,20.0
60.169,0.343,3.701,5.0
80.237,0.469,4.514,12.0
41.439,0.243,3.498,48.0
41.731,0.251,3.302,29.0
60.783,0.375,4.49,8.0
47.837,0.302,3.276,21.0
74.136,0.48,4.688,10.0
73.886,0.49,4.283,2.0
41.427,0.275,3.569,46.0
44.729,0.304,3.617,3.0
51.131,0.356,3.864,11.0
64.846,0.462,4.551,4.0
60.589,0.44,3.933,6.0
74.189,0.551,4.425,2.0
41.365,0.308,3.633,39.0
41.601,0.317,3.434,47.0
41.837,0.325,3.232,40.0
44.916,0.357,3.228,18.0
60.555,0.491,4.032,8.0
59.987,0.496,3.678,9.0
41.506,0.344,3.715,38.0
41.52,0.351,3.496,44.0
41.887,0.361,3.305,14.0
44.965,0.395,3.305,14.0
41.562,0.373,2.836,9.0
67.022,0.612,4.218,8.0
41.713,0.382,3.802,37.0
41.514,0.387,3.563,46.0
41.781,0.397,3.364,38.0
41.47,0.401,3.115,9.0
41.585,0.41,2.904,8.0
59.995,0.601,3.873,15.0
41.702,0.42,3.868,33.0
41.415,0.424,3.622,38.0
41.531,0.433,3.411,42.0
41.289,0.437,3.168,39.0
41.525,0.447,2.965,8.0
60.183,0.659,3.979,7.0
40.401,1.157,4.629,41.0
40.744,1.175,4.445,40.0
40.964,1.189,4.244,43.0
41.248,1.206,4.044,46.0
40.679,1.198,3.766,15.0
40.557,1.202,3.533,37.0
40.574,1.212,4.686,47.0
40.577,1.22,4.464,34.0
40.839,1.236,4.268,36.0
41.469,1.264,4.103,17.0
40.593,1.245,3.794,35.0
40.474,1.25,3.562,37.0
40.525,1.261,4.717,46.0
41.389,1.297,4.589,18.0
40.782,1.286,4.297,41.0
40.766,1.293,4.068,44.0
40.711,1.3,3.839,45.0
40.419,1.299,3.591,39.0
40.65,1.316,4.765,45.0
41.573,1.354,4.644,27.0
40.907,1.341,4.344,45.0
40.831,1.347,4.107,41.0
40.623,1.348,3.864,24.0
40.387,1.349,3.62,35.0
40.885,1.376,4.825,26.0
41.702,1.411,4.691,30.0
40.738,1.387,4.358,25.0
40.676,1.393,4.123,42.0
40.53,1.396,3.885,39.0
40.357,1.399,3.647,40.0
41.118,1.436,4.883,26.0
41.821,1.469,4.735,28.0
40.956,1.446,4.411,27.0
40.678,1.445,4.153,38.0
40.394,1.443,3.901,48.0
40.343,1.449,3.674,40.0
40.967,1.483,4.895,41.0
41.473,1.509,4.725,18.0
40.803,1.493,4.422,43.0
40.965,1.507,4.21,23.0
40.519,1.499,3.94,40.0
40.504,1.507,3.716,38.0
40.942,1.534,4.918,40.0
42.631,1.606,4.885,13.0
40.658,1.54,4.433,21.0
40.492,1.542,4.186,38.0
40.559,1.552,3.969,29.0
40.373,1.554,3.728,40.0
40.9,1.585,4.938,20.0
42.588,1.659,4.905,31.0
40.679,1.593,4.459,36.0
40.509,1.595,4.212,42.0
40.453,1.6,3.982,39.0
40.462,1.609,3.76,34.0
44.645,1.788,5.416,5.0
42.614,1.715,4.932,8.0
40.662,1.644,4.48,40.0
40.45,1.644,4.228,41.0
40.427,1.651,4.001,44.0
40.577,1.665,3.792,36.0
44.646,1.846,5.44,3.0
45.295,1.882,5.266,22.0
40.682,1.698,4.503,43.0
40.618,1.703,4.266,26.0
41.222,1.737,4.1,17.0
40.527,1.715,3.807,34.0
41.594,1.774,5.088,8.0
45.273,1.939,5.285,15.0
40.639,1.748,4.517,48.0
40.567,1.753,4.279,41.0
41.45,1.799,4.141,17.0
40.555,1.769,3.827,36.0
41.649,1.83,5.113,37.0
41.756,1.842,4.892,12.0
40.748,1.806,4.546,39.0
40.638,1.809,4.303,23.0
41.018,1.833,4.115,36.0
40.65,1.825,3.852,37.0
41.767,1.889,5.143,35.0
41.79,1.898,4.912,32.0
40.707,1.856,4.557,12.0
40.888,1.872,4.344,16.0
41.058,1.888,4.133,33.0
40.685,1.878,3.869,30.0
41.809,1.945,5.163,35.0
41.76,1.95,4.922,35.0
45.57,2.136,5.116,13.0
40.774,1.919,4.345,40.0
40.879,1.932,4.128,41.0
40.917,1.941,3.903,16.0
41.597,1.988,5.149,36.0
41.726,2.002,4.93,42.0
45.522,2.193,5.123,12.0
41.049,1.984,4.385,16.0
41.096,1.994,4.16,43.0
41.066,2.001,3.928,21.0
41.715,2.047,5.174,23.0
41.765,2.057,4.945,34.0
45.797,2.264,5.164,16.0
40.743,2.022,4.362,44.0
41.412,2.062,4.201,29.0
40.807,2.04,3.912,35.0
41.8,2.104,5.193,32.0
41.637,2.103,4.938,44.0
46.038,2.334,5.2,15.0
40.739,2.072,4.369,34.0
40.847,2.085,4.151,10.0
40.85,2.093,3.923,36.0
41.705,2.153,5.188,36.0
41.67,2.158,4.948,43.0
47.607,2.473,5.384,3.0
40.732,2.123,4.373,39.0
45.548,2.382,4.635,3.0
40.893,2.146,3.932,34.0
41.593,2.199,5.178,28.0
41.699,2.211,4.956,34.0
41.773,2.222,4.728,21.0
40.712,2.172,4.375,32.0
40.94,2.191,4.169,34.0
40.922,2.198,3.938,39.0
44.674,2.417,5.565,3.0
41.631,2.259,4.95,46.0
41.725,2.271,4.725,37.0
40.759,2.225,4.382,25.0
41.005,2.245,4.177,27.0
0.0,0.0,0.0,0.0
41.993,2.325,5.232,30.0
41.64,2.312,4.952,36.0
41.794,2.327,4.733,34.0
40.823,2.279,4.389,33.0
40.919,2.292,4.168,15.0
45.817,2.573,4.409,20.0
44.704,2.529,5.569,3.0
41.667,2.364,4.954,31.0
41.83,2.379,4.736,16.0
40.822,2.329,4.387,31.0
40.793,2.334,4.153,12.0
45.106,2.588,4.338,19.0
41.558,2.401,5.174,7.0
41.616,2.411,4.945,35.0
41.802,2.428,4.73,32.0
40.926,2.384,4.394,30.0
48.192,2.815,4.902,1.0
45.071,2.64,4.33,19.0
41.64,2.456,5.18,5.0
41.647,2.462,4.943,36.0
41.765,2.476,4.72,25.0
40.964,2.435,4.393,27.0
40.835,2.433,4.148,2.0
44.832,2.679,4.301,32.0
41.65,2.506,5.174,17.0
41.782,2.52,4.952,39.0
41.717,2.522,4.707,28.0
40.936,2.481,4.383,17.0
45.483,2.764,4.612,4.0
45.227,2.756,4.33,19.0
41.632,2.554,5.164,32.0
41.679,2.562,4.932,21.0
41.678,2.568,4.694,14.0
52.281,3.229,5.586,19.0
52.321,3.24,5.293,15.0
45.113,2.8,4.309,23.0
41.55,2.597,5.143,38.0
41.703,2.612,4.924,40.0
52.147,3.274,5.86,6.0
52.256,3.288,5.569,23.0
52.293,3.298,5.276,16.0
45.229,2.859,4.308,20.0
41.592,2.647,5.136,34.0
41.5,2.646,4.888,45.0
52.194,3.335,5.849,6.0
52.266,3.346,5.555,18.0
52.326,3.358,5.264,24.0
42.39,2.726,4.024,15.0
41.764,2.704,5.144,36.0
41.566,2.696,4.882,37.0
46.761,3.039,5.225,3.0
46.648,3.038,4.942,14.0
42.24,2.757,4.234,35.0
45.354,2.966,4.289,19.0
41.777,2.75,5.13,42.0
41.626,2.745,4.873,30.0
41.725,2.757,4.646,3.0
46.577,3.083,4.916,8.0
42.21,2.8,4.215,16.0
42.031,2.794,3.958,14.0
41.499,2.777,5.079,15.0
41.609,2.789,4.854,32.0
62.445,4.193,6.927,9.0
46.527,3.13,4.89,12.0
41.98,2.829,4.173,32.0
42.113,2.843,3.947,16.0
41.448,2.817,5.053,43.0
41.538,2.828,4.826,43.0
42.074,2.869,4.647,7.0
46.48,3.176,4.863,12.0
42.054,2.878,4.16,43.0
42.159,2.891,3.931,27.0
41.557,2.867,5.046,25.0
41.548,2.872,4.806,41.0
41.963,2.905,4.614,30.0
46.502,3.224,4.842,5.0
41.632,2.891,4.097,16.0
45.08,3.136,4.18,9.0
41.516,2.906,5.019,34.0
41.572,2.915,4.786,43.0
52.977,3.72,5.796,11.0
53.018,3.729,5.491,6.0
41.43,2.918,4.054,18.0
41.518,2.929,3.826,19.0
41.527,2.948,4.996,22.0
41.624,2.959,4.768,38.0
50.132,3.569,5.455,6.0
46.919,3.345,4.832,5.0
41.267,2.947,4.013,44.0
41.351,2.957,3.786,44.0
46.116,3.318,5.52,11.0
41.578,2.995,4.737,44.0
46.055,3.322,4.982,12.0
41.883,3.026,4.286,6.0
41.454,2.999,4.005,25.0
41.376,2.998,3.761,35.0
42.065,3.066,5.007,17.0
41.584,3.035,4.71,43.0
46.019,3.363,4.948,19.0
46.025,3.367,4.68,15.0
41.35,3.029,3.967,35.0
41.289,3.029,3.725,37.0
41.834,3.087,4.95,26.0
41.559,3.07,4.678,35.0
46.023,3.404,4.916,18.0
41.172,3.049,4.157,23.0
41.318,3.064,3.935,36.0
41.371,3.071,3.703,36.0
41.875,3.127,4.924,34.0
45.231,3.381,5.058,11.0
46.052,3.446,4.885,10.0
41.108,3.08,4.12,30.0
41.236,3.092,3.896,40.0
41.211,3.094,3.658,38.0
41.758,3.153,4.878,31.0
45.247,3.42,5.025,10.0
62.86,4.756,6.619,22.0
41.126,3.115,4.089,31.0
41.206,3.124,3.861,15.0
41.177,3.126,3.622,42.0
41.734,3.186,4.842,36.0
45.248,3.457,4.989,31.0
52.73,4.032,5.509,8.0
41.062,3.143,4.05,33.0
41.151,3.153,3.822,12.0
41.278,3.166,3.597,43.0
41.729,3.218,4.806,29.0
45.246,3.492,4.95,19.0
41.161,3.179,4.266,25.0
41.033,3.172,4.012,36.0
41.148,3.184,3.787,25.0
41.272,3.197,3.562,38.0
45.234,3.523,5.17,3.0
45.248,3.526,4.91,17.0
41.149,3.209,4.228,40.0
41.064,3.205,3.978,31.0
41.243,3.222,3.759,32.0
41.313,3.231,3.528,32.0
45.204,3.553,5.126,22.0
45.246,3.558,4.869,19.0
41.133,3.238,4.188,44.0
41.045,3.233,3.939,45.0
41.245,3.251,3.721,41.0
41.414,3.267,3.498,35.0
45.214,3.585,5.084,29.0
45.25,3.59,4.826,19.0
41.195,3.27,4.155,39.0
41.168,3.27,3.911,39.0
41.283,3.282,3.684,35.0
41.457,3.298,3.462,36.0
45.23,3.616,5.041,34.0
45.287,3.623,4.785,13.0
41.184,3.297,4.113,40.0
41.372,3.314,3.889,29.0
41.254,3.306,3.641,36.0
41.684,3.343,3.439,16.0
45.274,3.648,5.0,17.0
41.136,3.316,4.305,30.0
45.313,3.655,4.48,10.0
41.802,3.373,3.887,20.0
41.26,3.332,3.599,36.0
45.562,3.681,3.713,3.0
50.783,4.122,5.556,9.0
41.131,3.34,4.261,36.0
45.327,3.682,4.434,5.0
41.479,3.371,3.814,25.0
41.258,3.354,3.556,37.0
41.725,3.394,3.356,16.0
50.788,4.15,5.502,11.0
41.152,3.364,4.219,22.0
42.369,3.464,4.099,32.0
41.455,3.391,3.767,35.0
41.345,3.384,3.518,31.0
41.433,3.392,3.287,35.0
47.934,3.942,5.14,8.0
41.291,3.397,4.188,16.0
42.1,3.464,4.026,25.0
41.368,3.405,3.713,41.0
41.246,3.396,3.464,36.0
41.411,3.411,3.24,43.0
47.965,3.967,5.089,16.0
41.361,3.422,4.148,4.0
41.415,3.426,3.914,6.0
41.259,3.414,3.657,41.0
41.257,3.415,3.419,45.0
41.386,3.427,3.191,42.0
48.004,3.992,5.037,18.0
41.281,3.433,4.092,30.0
41.381,3.442,3.863,20.0
41.348,3.439,3.617,16.0
45.588,3.793,3.724,4.0
41.577,3.461,3.157,33.0
63.524,5.308,6.591,9.0
41.245,3.446,4.04,21.0
41.297,3.451,3.806,39.0
41.319,3.453,3.565,23.0
45.627,3.814,3.674,3.0
41.532,3.472,3.105,17.0
63.497,5.329,6.512,11.0
41.255,3.462,3.991,25.0
41.399,3.474,3.766,32.0
41.254,3.462,3.51,38.0
41.398,3.474,3.283,32.0
41.631,3.494,3.062,16.0
41.36,3.484,4.19,10.0
41.387,3.486,3.953,39.0
41.397,3.487,3.714,18.0
41.341,3.482,3.466,39.0
41.466,3.492,3.237,40.0
41.687,3.511,3.014,33.0
41.328,3.493,4.135,29.0
41.325,3.493,3.895,26.0
41.304,3.49,3.654,37.0
41.44,3.501,3.422,36.0
41.439,3.501,3.183,31.0
41.669,3.52,2.96,40.0
41.361,3.506,4.085,29.0
41.332,3.503,3.843,31.0
41.265,3.497,3.597,41.0
41.513,3.517,3.374,31.0
41.454,3.512,3.13,36.0
41.692,3.532,2.908,21.0
41.356,3.514,4.031,20.0
41.339,3.512,3.789,27.0
41.263,3.505,3.543,39.0
41.415,3.517,3.312,36.0
41.483,3.522,3.078,34.0
41.749,3.544,2.857,11.0
41.484,3.532,3.988,24.0
43.188,3.676,3.902,3.0
41.321,3.515,3.493,37.0
41.4,3.521,3.256,35.0
41.608,3.538,3.033,29.0
45.799,3.894,3.074,6.0
41.538,3.541,3.938,34.0
41.444,3.532,3.689,23.0
41.417,3.528,3.446,40.0
41.436,3.528,3.204,32.0
41.594,3.541,2.976,37.0
45.766,3.895,3.01,21.0
41.389,3.532,3.868,38.0
41.36,3.528,3.625,25.0
41.497,3.538,3.397,32.0
41.442,3.531,3.149,29.0
41.662,3.549,2.925,27.0
45.762,3.897,2.949,33.0
41.325,3.528,3.805,42.0
41.278,3.522,3.562,23.0
41.462,3.536,3.337,34.0
41.482,3.536,3.095,31.0
41.682,3.552,2.869,23.0
45.77,3.898,2.887,34.0
43.235,3.691,3.921,3.0
41.37,3.529,3.512,35.0
41.39,3.529,3.274,39.0
41.618,3.547,3.047,30.0
45.833,3.904,3.091,5.0
45.789,3.899,2.824,34.0
41.536,3.544,3.709,17.0
41.431,3.532,3.459,42.0
41.417,3.529,3.218,36.0
41.584,3.541,2.986,37.0
45.76,3.895,3.021,15.0
45.8,3.896,2.76,35.0
41.367,3.526,3.635,31.0
41.486,3.533,3.404,33.0
41.429,3.526,3.16,29.0
41.659,3.543,2.932,25.0
45.762,3.89,2.957,32.0
45.805,3.891,2.696,32.0
41.265,3.511,3.567,36.0
41.455,3.524,3.342,36.0
41.452,3.522,3.102,36.0
41.746,3.544,2.879,13.0
45.766,3.882,2.891,35.0
45.824,3.885,2.631,30.0
41.328,3.509,3.512,40.0
41.409,3.513,3.279,43.0
41.633,3.529,3.056,31.0
45.759,3.876,3.089,4.0
45.766,3.873,2.826,32.0
45.823,3.875,2.565,32.0
41.428,3.509,3.461,42.0
41.444,3.507,3.222,35.0
41.673,3.523,2.998,41.0
45.748,3.864,3.022,25.0
45.775,3.863,2.76,39.0
45.827,3.864,2.499,36.0
41.506,3.504,3.406,29.0
41.443,3.495,3.16,32.0
41.691,3.513,2.938,40.0
45.739,3.85,2.955,37.0
45.795,3.851,2.694,34.0
45.812,3.849,2.431,36.0
41.502,3.491,3.344,26.0
41.426,3.481,3.097,18.0
41.768,3.506,2.881,39.0
45.729,3.835,2.886,35.0
45.792,3.836,2.626,35.0
45.814,3.834,2.363,33.0
41.385,3.466,3.273,37.0
41.702,3.489,3.057,18.0
45.739,3.823,3.088,6.0
45.749,3.819,2.82,39.0
45.789,3.818,2.558,39.0
45.807,3.816,2.295,35.0
41.504,3.46,3.221,38.0
41.635,3.467,2.99,30.0
45.714,3.802,3.019,30.0
45.752,3.801,2.753,42.0
45.797,3.801,2.491,39.0
45.795,3.796,2.227,37.0
41.441,3.436,3.154,40.0
41.688,3.452,2.932,42.0
45.719,3.782,2.951,32.0
45.764,3.781,2.685,37.0
45.792,3.779,2.422,40.0
45.794,3.774,2.159,38.0
41.633,3.432,3.106,38.0
41.714,3.434,2.871,28.0
45.736,3.76,2.883,41.0
45.784,3.759,2.617,38.0
45.791,3.755,2.353,44.0
45.803,3.752,2.09,42.0
41.76,3.42,3.052,36.0
45.694,3.737,3.075,27.0
45.759,3.737,2.815,39.0
45.798,3.736,2.549,40.0
45.793,3.73,2.285,41.0
45.818,3.727,2.023,40.0
41.757,3.396,2.989,37.0
45.717,3.713,3.008,44.0
45.775,3.712,2.748,36.0
45.808,3.71,2.481,40.0
45.814,3.705,2.217,39.0
45.836,3.701,1.955,38.0
45.714,3.69,3.203,3.0
45.747,3.687,2.941,39.0
45.816,3.687,2.681,38.0
45.829,3.682,2.413,37.0
45.854,3.679,2.151,28.0
45.862,3.674,1.887,30.0
45.746,3.663,3.137,16.0
45.81,3.662,2.877,32.0
45.854,3.659,2.616,21.0
45.836,3.652,2.346,28.0
45.89,3.651,2.084,17.0
45.906,3.647,1.821,29.0
45.938,3.646,3.082,11.0
45.835,3.632,2.81,19.0
45.891,3.63,2.549,14.0
45.892,3.624,2.28,26.0
45.97,3.624,2.02,26.0
45.978,3.619,1.755,2.0
45.925,3.611,3.012,15.0
45.895,3.602,2.745,15.0
45.938,3.599,2.483,19.0
45.958,3.594,2.214,17.0
72.357,5.649,3.071,13.0
101.167,7.886,3.713,15.0
45.916,3.574,2.942,15.0
45.958,3.57,2.68,24.0
74.31,5.762,3.905,8.0
71.838,5.561,3.355,10.0
72.455,5.598,2.966,9.0
101.632,7.839,3.578,18.0
45.937,3.537,2.875,30.0
79.466,6.108,4.516,12.0
72.125,5.532,3.683,9.0
71.867,5.503,3.249,10.0
72.123,5.511,2.846,15.0
102.0,7.78,3.439,31.0
81.597,6.213,4.986,10.0
79.568,6.045,4.403,19.0
91.186,6.914,4.52,15.0
71.976,5.446,3.147,24.0
72.3,5.46,2.746,18.0
102.009,7.689,3.289,37.0
74.026,5.569,4.413,12.0
80.899,6.072,4.356,5.0
91.02,6.817,4.377,12.0
71.737,5.361,3.03,18.0
101.937,7.603,3.721,20.0
101.944,7.587,3.136,15.0
0.0,0.0,0.0,0.0
81.092,6.009,4.247,23.0
72.084,5.329,3.36,13.0
71.753,5.293,2.926,17.0
102.036,7.51,3.574,16.0
102.134,7.502,2.992,8.0
73.847,5.411,4.185,7.0
90.891,6.643,4.628,14.0
90.692,6.614,4.095,11.0
71.559,5.206,2.813,21.0
102.088,7.41,3.428,60.0
102.088,7.393,2.842,49.0
80.397,5.807,4.438,17.0
72.482,5.222,3.584,10.0
90.339,6.492,3.948,19.0
93.642,6.713,3.545,3.0
102.096,7.302,3.279,24.0
52.288,3.731,1.38,10.0
80.615,5.735,4.333,26.0
72.225,5.125,3.467,7.0
90.392,6.398,3.82,13.0
52.29,3.691,1.904,19.0
52.245,3.679,1.603,24.0
52.235,3.669,1.304,22.0
52.383,3.668,2.741,20.0
52.294,3.652,2.435,19.0
52.27,3.641,2.134,24.0
52.222,3.628,1.828,17.0
52.196,3.616,1.527,35.0
52.205,3.608,1.229,38.0
52.28,3.601,2.661,19.0
52.241,3.587,2.358,28.0
52.221,3.576,2.058,38.0
52.207,3.565,1.752,15.0
52.192,3.554,1.453,39.0
52.191,3.545,1.155,42.0
52.242,3.535,2.585,32.0
52.224,3.523,2.284,43.0
52.241,3.514,1.985,11.0
52.249,3.504,1.681,8.0
52.218,3.493,1.381,42.0
52.218,3.483,1.083,42.0
52.247,3.471,2.513,46.0
52.251,3.461,2.213,47.0
48.359,3.193,1.771,10.0
47.276,3.113,1.456,52.0
52.299,3.433,1.312,34.0
52.309,3.424,1.013,34.0
52.276,3.407,2.442,35.0
52.338,3.4,2.145,26.0
48.315,3.129,1.704,10.0
47.316,3.055,1.393,57.0
111.126,7.153,2.638,4.0
109.797,7.045,1.979,4.0
52.398,3.347,2.377,15.0
110.96,7.065,4.399,20.0
48.237,3.061,1.636,9.0
47.36,2.995,1.33,52.0
111.084,7.002,2.486,7.0
111.151,6.983,1.852,9.0
111.041,6.943,4.887,27.0
50.236,3.13,1.923,5.0
48.199,2.992,1.569,7.0
47.446,2.935,1.269,36.0
111.082,6.85,2.338,97.0
111.092,6.827,1.704,77.0
115.46,7.06,4.928,23.0
50.167,3.056,1.854,11.0
48.179,2.924,1.505,6.0
47.561,2.876,1.209,25.0
113.626,6.846,2.241,7.0
113.8,6.832,1.595,7.0
115.437,6.893,4.774,40.0
50.141,2.982,1.787,17.0
48.114,2.851,1.44,7.0
47.652,2.813,1.15,34.0
47.565,2.797,0.876,10.0
115.221,6.749,1.465,8.0
118.798,6.919,4.76,12.0
50.014,2.901,1.718,16.0
48.096,2.778,1.377,7.0
47.745,2.747,1.09,33.0
47.615,2.729,0.816,32.0
59.461,3.394,0.68,14.0
119.708,6.794,4.644,28.0
50.048,2.828,1.656,15.0
48.152,2.71,1.318,7.0
47.836,2.681,1.032,30.0
47.675,2.66,0.757,40.0
59.361,3.3,0.605,22.0
50.843,2.808,1.909,3.0
50.07,2.753,1.594,23.0
48.265,2.642,1.261,8.0
47.953,2.614,0.975,25.0
47.789,2.593,0.7,28.0
59.33,3.205,0.532,24.0
59.412,3.188,2.157,10.0
50.044,2.673,1.532,23.0
48.365,2.572,1.205,10.0
48.018,2.541,0.918,39.0
47.915,2.525,0.644,22.0
59.367,3.114,0.461,27.0
50.644,2.639,1.779,20.0
50.024,2.593,1.472,23.0
48.486,2.501,1.15,10.0
48.158,2.472,0.864,18.0
48.035,2.454,0.589,13.0
72.82,3.703,0.479,4.0
50.568,2.552,1.716,33.0
50.046,2.514,1.414,23.0
48.66,2.431,1.098,15.0
48.302,2.401,0.81,17.0
120.055,5.936,1.332,16.0
120.019,5.906,0.651,5.0
50.496,2.466,1.656,40.0
50.06,2.431,1.357,23.0
48.76,2.356,1.045,19.0
48.465,2.328,0.758,15.0
120.028,5.735,1.196,15.0
66.1,3.141,0.284,9.0
50.509,2.381,1.599,47.0
50.043,2.346,1.3,23.0
48.857,2.277,0.992,13.0
66.165,3.067,0.961,12.0
66.157,3.05,0.586,18.0
65.693,3.011,0.209,11.0
50.506,2.295,1.543,60.0
49.968,2.257,1.244,23.0
49.096,2.204,0.943,11.0
66.049,2.948,0.888,28.0
66.045,2.93,0.513,23.0
65.232,2.876,0.137,10.0
50.505,2.207,1.489,61.0
49.871,2.166,1.188,23.0
66.079,2.852,1.199,8.0
66.044,2.832,0.818,30.0
66.046,2.815,0.444,23.0
59.006,2.499,0.063,7.0
50.491,2.118,1.436,57.0
50.273,2.095,1.145,23.0
66.196,2.74,1.133,4.0
66.153,2.72,0.751,27.0
66.086,2.699,0.376,17.0
58.888,2.389,0.002,6.0
50.507,2.028,1.385,56.0
50.339,2.007,1.096,34.0
61.31,2.428,0.988,8.0
119.94,4.716,1.242,16.0
66.037,2.577,0.31,6.0
58.767,2.278,-0.055,14.0
50.505,1.937,1.335,56.0
193.748,7.376,4.028,20.0
63.495,2.399,0.961,4.0
62.759,2.353,0.588,37.0
71.647,2.666,0.267,6.0
58.683,2.166,-0.112,5.0
72.435,2.646,1.846,15.0
72.401,2.623,1.436,26.0
72.369,2.601,1.027,29.0
72.337,2.579,0.611,23.0
65.684,2.322,0.183,6.0
58.956,2.067,-0.167,5.0
72.376,2.509,1.778,32.0
72.358,2.487,1.369,35.0
72.355,2.465,0.96,32.0
72.317,2.443,0.544,29.0
65.468,2.192,0.123,7.0
60.306,2.001,-0.226,1.0
72.473,2.376,1.715,28.0
72.437,2.353,1.305,29.0
72.451,2.332,0.897,30.0
72.375,2.307,0.48,25.0
65.143,2.057,0.065,9.0
55.21,1.727,-0.255,0.0
194.493,6.005,4.434,13.0
78.983,2.414,1.355,20.0
78.927,2.389,0.909,21.0
72.033,2.157,0.417,8.0
64.891,1.923,0.01,5.0
0.0,0.0,0.0,0.0
74.342,2.152,1.632,4.0
78.868,2.258,1.287,32.0
78.873,2.235,0.844,24.0
72.01,2.018,0.358,8.0
64.638,1.791,-0.042,4.0
0.0,0.0,0.0,0.0
78.881,2.13,1.669,24.0
78.909,2.105,1.225,15.0
78.886,2.079,0.781,18.0
71.722,1.869,0.3,9.0
65.891,1.696,-0.094,5.0
0.0,0.0,0.0,0.0
85.327,2.135,1.739,24.0
85.29,2.106,1.259,33.0
85.163,2.077,0.779,23.0
71.971,1.732,0.246,13.0
67.498,1.604,-0.147,2.0
48.827,1.145,-0.38,1.0
85.24,1.964,1.675,35.0
85.251,1.937,1.196,39.0
85.204,1.909,0.717,22.0
71.993,1.59,0.195,11.0
0.0,0.0,0.0,0.0
0.0,0.0,0.0,0.0
85.346,1.796,1.617,26.0
85.424,1.77,1.139,22.0
85.344,1.741,0.659,20.0
77.656,1.558,0.156,1.0
0.0,0.0,0.0,0.0
45.178,0.877,-0.415,0.0
91.878,1.748,1.679,29.0
91.904,1.717,1.164,30.0
91.851,1.685,0.649,13.0
73.24,1.321,0.1,6.0
0.0,0.0,0.0,0.0
41.857,0.726,-0.411,0.0
91.889,1.558,1.62,13.0
91.916,1.53,1.106,5.0
91.755,1.496,0.59,10.0
75.062,1.199,0.055,2.0
0.0,0.0,0.0,0.0
41.589,0.637,-0.434,1.0
98.659,1.472,1.681,25.0
98.646,1.439,1.129,25.0
85.384,1.216,0.499,6.0
0.0,0.0,0.0,0.0
0.0,0.0,0.0,0.0
41.081,0.544,-0.452,0.0
98.539,1.267,1.623,31.0
98.529,1.233,1.072,29.0
85.352,1.04,0.452,11.0
0.0,0.0,0.0,0.0
0.0,0.0,0.0,0.0
40.991,0.457,-0.473,0.0
98.639,1.063,1.572,29.0
98.583,1.029,1.021,22.0
85.404,0.861,0.408,6.0
0.0,0.0,0.0,0.0
47.496,0.446,-0.307,0.0
0.0,0.0,0.0,0.0
99.976,0.868,1.544,3.0
104.765,0.873,1.034,18.0
90.569,0.724,0.389,4.0
0.0,0.0,0.0,0.0
48.681,0.355,-0.338,0.0
0.0,0.0,0.0,0.0
111.067,0.73,1.665,23.0
111.065,0.693,1.046,12.0
87.908,0.517,0.338,1.0
0.0,0.0,0.0,0.0
48.727,0.252,-0.359,0.0
0.0,0.0,0.0,0.0
111.183,0.496,1.62,20.0
111.014,0.458,1.0,15.0
94.696,0.357,0.326,1.0
0.0,0.0,0.0,0.0
0.0,0.0,0.0,0.0
38.008,0.103,-0.507,0.0
111.152,0.262,1.577,18.0
110.981,0.222,0.957,8.0
0.0,0.0,0.0,0.0
0.0,0.0,0.0,0.0
45.673,0.043,-0.371,2.0
0.0,0.0,0.0,0.0
111.1,0.027,1.538,14.0
111.098,-0.013,0.921,8.0
0.0,0.0,0.0,0.0
0.0,0.0,0.0,0.0
45.531,-0.053,-0.385,1.0
0.0,0.0,0.0,0.0
113.972,-0.212,1.543,2.0
114.473,-0.255,0.914,146.0
0.0,0.0,0.0,0.0
0.0,0.0,0.0,0.0
45.246,-0.149,-0.395,1.0
0.0,0.0,0.0,0.0
119.751,-0.477,1.588,15.0
119.714,-0.521,0.924,5.0
95.364,-0.449,0.208,1.0
0.0,0.0,0.0,0.0
46.263,-0.252,-0.416,0.0
0.0,0.0,0.0,0.0
119.714,-0.734,1.56,19.0
113.912,-0.741,0.853,6.0
0.0,0.0,0.0,0.0
0.0,0.0,0.0,0.0
0.0,0.0,0.0,0.0
34.966,-0.278,-0.515,0.0
119.697,-0.99,1.536,21.0
114.38,-0.987,0.835,8.0
0.0,0.0,0.0,0.0
54.94,-0.513,-0.211,0.0
0.0,0.0,0.0,0.0
0.0,0.0,0.0,0.0
119.763,-1.249,1.518,26.0
119.852,-1.291,0.857,9.0
0.0,0.0,0.0,0.0
54.69,-0.63,-0.218,0.0
0.0,0.0,0.0,0.0
35.013,-0.428,-0.526,0.0
0.0,0.0,0.0,0.0
139.05,-1.798,0.978,11.0
0.0,0.0,0.0,0.0
54.964,-0.751,-0.225,0.0
0.0,0.0,0.0,0.0
35.05,-0.504,-0.53,0.0
138.955,-2.042,1.733,2.0
138.795,-2.092,0.965,17.0
0.0,0.0,0.0,0.0
0.0,0.0,0.0,0.0
0.0,0.0,0.0,0.0
34.983,-0.578,-0.531,0.0
0.0,0.0,0.0,0.0
139.033,-2.391,0.962,12.0
0.0,0.0,0.0,0.0
0.0,0.0,0.0,0.0
45.119,-0.826,-0.437,2.0
35.182,-0.657,-0.534,0.0
0.0,0.0,0.0,0.0
138.975,-2.689,0.961,14.0
81.54,-1.607,0.115,1.0
55.298,-1.11,-0.231,0.0
44.747,-0.915,-0.433,2.0
34.447,-0.717,-0.522,0.0
0.0,0.0,0.0,0.0
138.914,-2.982,0.965,12.0
0.0,0.0,0.0,0.0
54.679,-1.214,-0.225,1.0
42.963,-0.969,-0.413,0.0
34.943,-0.801,-0.528,0.0
0.0,0.0,0.0,0.0
138.853,-3.273,0.975,12.0
0.0,0.0,0.0,0.0
55.224,-1.343,-0.223,0.0
43.749,-1.08,-0.417,2.0
35.297,-0.884,-0.53,0.0
0.0,0.0,0.0,0.0
138.814,-3.567,0.99,13.0
0.0,0.0,0.0,0.0
54.899,-1.45,-0.215,1.0
44.686,-1.197,-0.42,1.0
0.0,0.0,0.0,0.0
0.0,0.0,0.0,0.0
138.468,-3.848,1.008,22.0
0.0,0.0,0.0,0.0
55.33,-1.578,-0.208,0.0
44.383,-1.282,-0.41,1.0
34.973,-1.024,-0.514,0.0
0.0,0.0,0.0,0.0
138.615,-4.142,1.034,9.0
0.0,0.0,0.0,0.0
55.797,-1.709,-0.199,0.0
44.497,-1.379,-0.402,0.0
37.854,-1.187,-0.549,0.0
0.0,0.0,0.0,0.0
138.626,-4.434,1.065,14.0
0.0,0.0,0.0,0.0
0.0,0.0,0.0,0.0
44.443,-1.471,-0.391,0.0
38.016,-1.272,-0.541,0.0
0.0,0.0,0.0,0.0
138.553,-4.721,1.1,17.0
0.0,0.0,0.0,0.0
0.0,0.0,0.0,0.0
0.0,0.0,0.0,0.0
37.909,-1.348,-0.529,0.0
0.0,0.0,0.0,0.0
138.522,-5.007,1.141,21.0
0.0,0.0,0.0,0.0
0.0,0.0,0.0,0.0
45.382,-1.69,-0.372,1.0
37.82,-1.422,-0.516,0.0
138.454,-5.24,1.941,2.0
138.441,-5.289,1.186,17.0
0.0,0.0,0.0,0.0
0.0,0.0,0.0,0.0
47.885,-1.882,-0.376,0.0
37.293,-1.48,-0.495,0.0
138.268,-5.517,1.988,9.0
138.39,-5.572,1.237,22.0
0.0,0.0,0.0,0.0
0.0,0.0,0.0,0.0
47.148,-1.95,-0.352,0.0
38.47,-1.605,-0.496,1.0
138.102,-5.791,2.041,61.0
138.069,-5.838,1.29,18.0
0.0,0.0,0.0,0.0
0.0,0.0,0.0,0.0
0.0,0.0,0.0,0.0
38.573,-1.687,-0.481,0.0
138.066,-6.067,2.1,84.0
138.206,-6.12,1.351,14.0
0.0,0.0,0.0,0.0
0.0,0.0,0.0,0.0
20.032,-0.908,-0.132,2.0
20.016,-0.915,-0.24,20.0
138.205,-6.348,2.166,10.0
138.274,-6.4,1.417,23.0
0.0,0.0,0.0,0.0
20.006,-0.94,-0.013,8.0
20.002,-0.947,-0.122,24.0
19.988,-0.953,-0.23,33.0
20.151,-0.964,0.325,18.0
20.178,-0.973,0.217,3.0
20.049,-0.974,0.106,0.0
19.992,-0.978,-0.003,11.0
19.977,-0.985,-0.111,31.0
19.994,-0.992,-0.22,32.0
20.158,-1.004,0.336,27.0
20.137,-1.01,0.227,24.0
20.01,-1.011,0.117,17.0
19.959,-1.015,0.007,18.0
19.984,-1.024,-0.1,27.0
20.017,-1.033,-0.209,26.0
19.972,-1.034,0.344,15.0
20.013,-1.043,0.237,30.0
19.97,-1.047,0.128,19.0
19.973,-1.055,0.019,28.0
20.01,-1.064,-0.089,23.0
20.058,-1.073,-0.197,0.0
19.96,-1.071,0.356,19.0
20.008,-1.081,0.249,27.0
19.99,-1.086,0.141,25.0
19.987,-1.093,0.031,22.0
20.02,-1.102,-0.076,3.0
0.0,0.0,0.0,0.0
19.967,-1.109,0.369,26.0
19.978,-1.117,0.261,28.0
19.992,-1.125,0.154,16.0
20.026,-1.133,0.044,4.0
20.058,-1.142,-0.063,0.0
20.003,-1.146,-0.171,2.0
19.953,-1.146,0.382,25.0
19.985,-1.155,0.275,21.0
20.039,-1.165,0.168,9.0
20.003,-1.17,0.058,32.0
20.006,-1.177,-0.049,150.0
19.989,-1.183,-0.157,151.0
19.942,-1.183,0.396,24.0
19.944,-1.189,0.288,26.0
19.995,-1.199,0.182,151.0
19.986,-1.205,0.072,150.0
19.992,-1.213,-0.035,151.0
20.023,-1.221,-0.142,24.0
19.932,-1.218,0.41,26.0
19.94,-1.225,0.303,25.0
19.981,-1.235,0.196,24.0
19.994,-1.242,0.087,25.0
19.999,-1.249,-0.02,15.0
20.013,-1.257,-0.127,26.0
19.938,-1.254,0.425,22.0
19.935,-1.261,0.318,20.0
19.963,-1.269,0.211,23.0
19.992,-1.278,0.102,25.0
19.989,-1.284,-0.004,17.0
19.991,-1.291,-0.111,34.0
19.936,-1.29,0.441,16.0
19.935,-1.297,0.334,16.0
19.966,-1.305,0.228,26.0
19.978,-1.312,0.118,19.0
19.987,-1.32,0.011,15.0
19.988,-1.326,-0.095,25.0
20.03,-1.331,0.46,6.0
19.996,-1.336,0.352,7.0
19.992,-1.342,0.244,6.0
20.009,-1.349,0.135,9.0
20.006,-1.355,0.028,9.0
20.009,-1.362,-0.078,16.0
20.05,-1.367,0.477,9.0
20.068,-1.375,0.37,4.0
20.058,-1.38,0.262,0.0
102.834,-7.111,0.786,31.0
63.371,-4.401,0.145,2.0
48.739,-3.401,-0.148,0.0
20.002,-1.398,0.494,11.0
20.007,-1.404,0.387,11.0
20.01,-1.411,0.28,11.0
20.033,-1.419,0.171,23.0
82.121,-5.842,0.261,4.0
48.772,-3.484,-0.105,0.0
20.003,-1.431,0.512,10.0
20.011,-1.438,0.405,10.0
20.002,-1.443,0.298,10.0
20.021,-1.451,0.189,32.0
20.043,-1.458,0.082,1.0
48.892,-3.573,-0.06,4.0
20.038,-1.467,0.532,2.0
20.053,-1.473,0.425,0.0
20.065,-1.48,0.318,0.0
20.035,-1.484,0.208,3.0
82.954,-6.17,0.419,10.0
64.543,-4.821,-0.018,0.0
119.361,-8.928,3.283,15.0
72.522,-5.445,1.607,11.0
119.383,-8.999,2.008,150.0
119.206,-9.021,1.356,17.0
84.774,-6.439,0.511,2.0
64.441,-4.914,0.045,3.0
67.915,-5.186,1.934,31.0
67.91,-5.204,1.571,62.0
67.88,-5.221,1.208,78.0
67.859,-5.239,0.838,93.0
67.854,-5.258,0.477,90.0
67.651,-5.262,0.114,21.0
67.902,-5.288,2.002,63.0
67.908,-5.307,1.64,43.0
67.909,-5.326,1.277,30.0
119.223,-9.385,1.595,12.0
109.226,-8.63,0.879,1.0
67.746,-5.371,0.184,16.0
74.81,-5.939,2.284,8.0
72.018,-5.737,1.814,14.0
119.357,-9.541,2.37,39.0
119.243,-9.563,1.72,16.0
114.462,-9.212,1.041,4.0
72.238,-5.834,0.272,8.0
72.753,-5.883,2.298,11.0
119.32,-9.679,3.132,27.0
119.345,-9.713,2.497,94.0
119.273,-9.74,1.848,18.0
114.273,-9.363,1.163,6.0
85.333,-7.016,0.414,4.0
71.958,-5.922,2.351,11.0
72.68,-6.0,1.987,11.0
119.301,-9.881,2.627,7.0
119.306,-9.913,1.98,40.0
119.119,-9.93,1.343,8.0
84.19,-7.04,0.502,10.0
67.925,-5.686,2.294,12.0
72.832,-6.115,2.072,7.0
72.864,-6.135,1.685,15.0
119.31,-10.077,2.113,70.0
119.158,-10.095,1.476,16.0
86.71,-7.369,0.613,8.0
67.917,-5.777,2.37,32.0
103.46,-8.826,3.059,9.0
119.23,-10.199,2.891,22.0
119.247,-10.231,2.246,53.0
119.2,-10.256,1.61,17.0
89.619,-7.734,0.735,3.0
67.953,-5.869,2.448,47.0
74.712,-6.471,2.294,5.0
72.361,-6.284,1.837,9.0
135.686,-11.816,2.711,70.0
135.715,-11.852,1.989,150.0
112.325,-9.836,1.049,4.0
67.965,-5.957,2.527,40.0
104.178,-9.155,3.319,10.0
74.099,-6.529,1.967,7.0
72.812,-6.432,1.538,2.0
135.66,-12.016,2.146,110.0
113.048,-10.04,1.189,8.0
72.293,-6.427,2.773,10.0
74.699,-6.657,2.468,4.0
74.891,-6.691,2.077,10.0
135.626,-12.147,3.026,150.0
135.633,-12.177,2.306,54.0
119.094,-10.72,1.393,7.0
70.812,-6.38,2.8,13.0
104.925,-9.476,3.592,4.0
104.001,-9.415,3.008,8.0
135.551,-12.3,3.186,12.0
126.419,-11.5,2.301,24.0
119.146,-10.864,1.538,14.0
71.015,-6.482,2.895,5.0
72.366,-6.62,2.566,17.0
103.789,-9.516,3.129,7.0
193.624,-17.794,4.789,20.0
135.564,-12.486,2.635,150.0
135.567,-12.515,1.917,150.0
79.921,-7.385,3.356,4.0
70.899,-6.566,2.601,22.0
72.084,-6.689,2.261,5.0
193.424,-17.988,5.023,8.0
119.271,-11.116,2.465,7.0
119.195,-11.134,1.832,18.0
71.043,-6.643,3.072,8.0
78.281,-7.333,2.969,30.0
106.821,-10.028,3.485,3.0
104.581,-9.838,2.847,6.0
193.315,-18.221,4.239,22.0
119.239,-11.263,1.983,16.0
71.102,-6.723,3.164,16.0
78.68,-7.453,3.083,21.0
78.655,-7.465,2.665,13.0
104.349,-9.922,2.973,13.0
191.569,-18.251,4.441,8.0
193.393,-18.461,3.458,15.0
71.111,-6.794,3.254,14.0
78.474,-7.511,3.174,26.0
74.261,-7.121,2.61,19.0
103.621,-9.953,3.082,7.0
78.357,-7.54,1.915,14.0
119.236,-11.496,2.283,24.0
71.189,-6.87,3.348,8.0
78.254,-7.564,3.265,32.0
74.428,-7.206,2.71,13.0
104.512,-10.136,3.241,7.0
78.455,-7.622,2.017,10.0
119.221,-11.601,2.434,23.0
71.249,-6.94,3.441,22.0
78.227,-7.632,3.363,20.0
79.302,-7.749,2.989,14.0
78.836,-7.716,2.546,11.0
119.151,-11.68,3.217,8.0
78.823,-7.739,1.71,12.0
70.863,-6.965,3.515,12.0
77.585,-7.637,3.437,8.0
77.946,-7.683,3.039,7.0
78.971,-7.796,2.653,7.0
73.921,-7.308,2.091,22.0
78.674,-7.789,1.809,13.0
71.111,-7.049,3.62,17.0
71.035,-7.05,3.238,12.0
72.401,-7.195,2.917,13.0
78.447,-7.807,2.736,8.0
73.933,-7.368,2.187,15.0
78.644,-7.848,1.91,22.0
72.367,-7.23,3.778,19.0
74.648,-7.466,3.5,25.0
72.587,-7.269,3.018,15.0
72.228,-7.242,2.613,30.0
78.809,-7.913,2.434,12.0
78.534,-7.896,2.01,19.0
71.487,-7.195,3.827,8.0
74.647,-7.521,3.599,13.0
71.067,-7.169,3.048,10.0
72.301,-7.301,2.711,33.0
78.658,-7.953,2.533,12.0
78.444,-7.941,2.11,18.0
71.44,-7.24,3.918,25.0
72.34,-7.338,3.583,10.0
71.831,-7.295,3.177,38.0
72.653,-7.386,2.821,21.0
74.488,-7.581,2.497,28.0
78.386,-7.986,2.213,18.0
71.345,-7.277,4.007,9.0
72.516,-7.404,3.688,33.0
72.051,-7.362,3.282,35.0
74.793,-7.65,3.003,18.0
74.681,-7.646,2.602,8.0
78.6,-8.056,2.322,24.0
68.893,-7.069,3.962,9.0
71.221,-7.314,3.717,18.0
72.001,-7.4,3.376,11.0
74.783,-7.693,3.101,36.0
72.686,-7.483,2.629,15.0
73.972,-7.623,2.284,21.0
69.064,-7.126,4.063,18.0
71.474,-7.38,3.825,29.0
71.964,-7.436,3.469,35.0
74.741,-7.729,3.198,11.0
78.383,-8.112,2.938,8.0
74.121,-7.676,2.386,13.0
69.01,-7.156,4.151,16.0
71.601,-7.43,3.926,25.0
72.183,-7.494,3.575,31.0
77.89,-8.092,3.436,18.0
74.73,-7.77,2.9,35.0
78.158,-8.132,2.619,18.0
0.0,0.0,0.0,0.0
69.054,-7.197,3.878,23.0
71.901,-7.497,3.656,14.0
72.116,-7.524,3.277,24.0
74.775,-7.807,3.0,33.0
78.039,-8.152,2.717,13.0
69.444,-7.264,4.361,27.0
69.048,-7.225,3.968,29.0
71.424,-7.477,3.725,11.0
71.96,-7.537,3.364,37.0
74.342,-7.79,3.08,22.0
74.95,-7.858,2.707,13.0
69.234,-7.268,4.44,20.0
68.922,-7.238,4.052,21.0
71.698,-7.532,3.833,8.0
71.786,-7.544,3.45,47.0
78.046,-8.205,3.335,10.0
74.935,-7.882,2.805,12.0
33.297,-3.507,2.178,39.0
69.227,-7.293,4.16,12.0
70.516,-7.43,3.862,15.0
69.554,-7.331,3.433,7.0
71.929,-7.584,3.169,15.0
74.639,-7.872,2.892,9.0
33.294,-3.516,2.222,50.0
69.372,-7.328,4.261,29.0
69.984,-7.393,3.926,29.0
69.561,-7.35,3.525,26.0
71.776,-7.586,3.255,47.0
72.709,-7.686,2.912,7.0
33.299,-3.525,2.266,50.0
69.256,-7.332,4.345,9.0
68.87,-7.291,3.953,32.0
69.69,-7.379,3.621,24.0
71.426,-7.564,3.332,36.0
72.387,-7.667,2.992,11.0
33.318,-3.534,2.31,63.0
69.173,-7.337,4.428,11.0
68.942,-7.312,4.046,24.0
69.818,-7.405,3.718,25.0
71.627,-7.597,3.433,19.0
72.302,-7.669,3.081,22.0
33.309,-3.538,2.353,69.0
33.298,-3.536,2.175,34.0
69.332,-7.363,4.158,27.0
69.877,-7.42,3.812,30.0
71.823,-7.626,3.535,9.0
71.906,-7.635,3.157,31.0
33.296,-3.541,2.395,53.0
33.292,-3.539,2.217,49.0
69.274,-7.363,4.243,34.0
69.811,-7.419,3.897,47.0
69.549,-7.39,3.511,19.0
71.67,-7.615,3.237,37.0
33.298,-3.543,2.438,47.0
33.308,-3.543,2.26,53.0
69.152,-7.354,4.323,21.0
69.129,-7.349,3.946,40.0
69.676,-7.406,3.606,27.0
71.537,-7.602,3.32,48.0
33.292,-3.543,2.48,44.0
33.342,-3.547,2.304,61.0
69.147,-7.353,4.409,15.0
69.055,-7.341,4.027,29.0
69.777,-7.416,3.697,26.0
71.706,-7.618,3.417,35.0
33.293,-3.543,2.521,44.0
33.322,-3.544,2.344,62.0
33.29,-3.539,2.164,30.0
69.307,-7.364,4.128,26.0
69.873,-7.422,3.788,29.0
71.942,-7.639,3.516,10.0
33.293,-3.54,2.562,44.0
33.297,-3.539,2.383,55.0
33.285,-3.536,2.204,47.0
69.405,-7.368,4.219,37.0
69.924,-7.42,3.876,37.0
69.556,-7.377,3.485,19.0
33.293,-3.537,2.603,46.0
33.293,-3.535,2.424,54.0
33.293,-3.532,2.245,48.0
69.295,-7.347,4.296,18.0
69.043,-7.316,3.911,30.0
69.603,-7.372,3.57,24.0
33.283,-3.531,2.642,49.0
33.293,-3.529,2.464,54.0
33.3,-3.527,2.286,51.0
69.21,-7.326,4.373,8.0
68.818,-7.28,3.979,29.0
71.616,-7.571,3.758,4.0
33.289,-3.525,2.682,52.0
33.289,-3.522,2.503,54.0
33.303,-3.52,2.325,54.0
33.306,-3.518,2.143,16.0
68.932,-7.275,4.067,17.0
71.553,-7.547,3.838,7.0
33.287,-3.517,2.721,56.0
33.291,-3.514,2.542,56.0
33.299,-3.511,2.364,55.0
33.27,-3.505,2.179,46.0
69.25,-7.29,4.165,22.0
0.0,0.0,0.0,0.0
33.312,-3.51,2.762,61.0
33.289,-3.504,2.58,53.0
33.288,-3.5,2.401,53.0
33.274,-3.495,2.218,49.0
69.407,-7.285,4.253,22.0
69.042,-7.24,3.861,19.0
33.281,-3.496,2.797,54.0
33.289,-3.493,2.618,53.0
33.284,-3.488,2.438,52.0
33.266,-3.483,2.255,51.0
69.605,-7.28,4.343,28.0
69.033,-7.214,3.936,25.0
33.285,-3.484,2.835,53.0
33.276,-3.479,2.654,53.0
33.281,-3.475,2.475,52.0
33.262,-3.469,2.291,51.0
69.287,-7.219,4.399,18.0
68.959,-7.177,4.007,22.0
33.289,-3.471,2.872,52.0
33.275,-3.465,2.69,52.0
33.279,-3.461,2.511,52.0
33.261,-3.455,2.326,50.0
33.267,-3.452,2.147,20.0
69.054,-7.156,4.086,17.0
33.282,-3.455,2.906,54.0
33.273,-3.449,2.725,52.0
33.282,-3.446,2.546,55.0
33.25,-3.438,2.361,50.0
33.268,-3.435,2.182,45.0
69.046,-7.122,4.157,19.0
33.276,-3.438,2.941,53.0
33.278,-3.433,2.76,52.0
33.268,-3.427,2.579,52.0
33.246,-3.42,2.394,47.0
33.268,-3.418,2.216,51.0
69.085,-7.09,4.229,24.0
33.277,-3.421,2.975,53.0
33.27,-3.415,2.793,51.0
33.259,-3.408,2.612,51.0
33.247,-3.402,2.427,49.0
33.262,-3.399,2.249,53.0
69.333,-7.076,4.313,28.0
33.268,-3.401,3.007,52.0
33.263,-3.395,2.825,51.0
33.254,-3.389,2.644,50.0
33.243,-3.382,2.46,48.0
33.253,-3.378,2.28,52.0
69.418,-7.042,4.385,36.0
33.271,-3.381,3.04,52.0
33.263,-3.374,2.858,52.0
33.251,-3.367,2.676,51.0
33.232,-3.36,2.491,48.0
33.249,-3.356,2.312,52.0
69.566,-7.012,4.46,21.0
33.267,-3.359,3.071,52.0
33.261,-3.352,2.889,51.0
33.251,-3.345,2.707,52.0
33.231,-3.338,2.521,49.0
33.248,-3.334,2.342,51.0
33.249,-3.329,2.161,27.0
33.267,-3.336,3.101,53.0
33.254,-3.329,2.918,51.0
33.246,-3.322,2.736,52.0
33.225,-3.314,2.55,53.0
33.247,-3.31,2.371,52.0
33.25,-3.305,2.191,48.0
33.263,-3.312,3.13,55.0
33.248,-3.304,2.947,52.0
33.237,-3.296,2.764,52.0
33.213,-3.288,2.578,52.0
33.232,-3.283,2.399,51.0
33.25,-3.279,2.219,49.0
33.258,-3.286,3.158,52.0
33.253,-3.279,2.976,52.0
33.238,-3.271,2.793,51.0
33.211,-3.262,2.605,52.0
33.224,-3.257,2.426,51.0
33.235,-3.252,2.245,50.0
33.252,-3.259,3.185,53.0
33.24,-3.251,3.002,51.0
33.229,-3.243,2.819,51.0
33.2,-3.234,2.631,53.0
33.216,-3.229,2.451,52.0
33.24,-3.225,2.272,51.0
33.251,-3.231,3.211,53.0
33.239,-3.223,3.027,51.0
33.219,-3.214,2.844,51.0
33.202,-3.206,2.657,52.0
33.219,-3.201,2.477,50.0
33.235,-3.196,2.296,50.0
33.248,-3.203,3.236,56.0
33.233,-3.194,3.052,51.0
33.215,-3.185,2.868,51.0
33.196,-3.176,2.681,52.0
33.207,-3.171,2.5,50.0
33.226,-3.166,2.32,53.0
33.254,-3.173,3.261,61.0
33.227,-3.163,3.075,48.0
33.212,-3.155,2.891,45.0
33.189,-3.145,2.704,43.0
33.202,-3.139,2.523,43.0
33.224,-3.135,2.342,54.0
47.214,-4.462,4.663,23.0
73.71,-6.95,6.872,7.0
75.558,-7.107,6.629,14.0
81.518,-7.649,6.696,7.0
70.973,-6.644,5.44,26.0
70.185,-6.556,4.994,26.0
47.236,-4.419,4.695,27.0
73.629,-6.872,6.912,7.0
74.722,-6.956,6.604,33.0
73.766,-6.85,6.106,27.0
70.973,-6.576,5.484,25.0
70.367,-6.504,5.051,33.0
47.158,-4.365,4.717,14.0
73.597,-6.795,6.955,10.0
74.775,-6.887,6.653,9.0
73.611,-6.762,6.137,10.0
71.067,-6.512,5.534,20.0
70.386,-6.435,5.093,41.0
47.261,-4.327,4.755,6.0
73.636,-6.724,7.001,12.0
73.489,-6.692,6.582,15.0
76.493,-6.947,6.421,5.0
70.893,-6.423,5.559,15.0
70.41,-6.363,5.134,25.0
77.159,-6.982,7.807,3.0
73.852,-6.664,7.063,12.0
73.459,-6.611,6.618,10.0
74.385,-6.677,6.283,22.0
70.83,-6.341,5.592,29.0
70.489,-6.294,5.176,10.0
72.992,-6.526,7.422,13.0
73.386,-6.543,7.055,35.0
80.222,-7.132,7.268,9.0
73.247,-6.494,6.223,17.0
74.556,-6.592,5.922,8.0
70.751,-6.239,5.229,8.0
72.936,-6.441,7.451,34.0
73.863,-6.503,7.135,16.0
79.862,-7.012,7.272,9.0
71.306,-6.242,6.09,14.0
71.028,-6.201,5.673,9.0
71.001,-6.182,5.278,14.0
72.386,-6.311,7.426,7.0
73.817,-6.417,7.162,17.0
73.619,-6.38,6.734,11.0
71.264,-6.158,6.115,9.0
70.559,-6.08,5.663,30.0
73.244,-6.293,5.474,3.0
70.267,-6.045,7.237,14.0
73.417,-6.297,7.152,18.0
0.0,0.0,0.0,0.0
72.198,-6.155,6.223,30.0
70.518,-5.994,5.686,26.0
70.85,-6.004,5.32,25.0
70.333,-5.967,7.269,5.0
73.262,-6.196,7.163,12.0
72.743,-6.134,6.706,14.0
74.59,-6.27,6.454,6.0
73.444,-6.154,5.947,9.0
70.863,-5.92,5.344,18.0
70.301,-5.88,7.288,13.0
73.448,-6.123,7.204,17.0
71.578,-5.948,6.621,9.0
72.922,-6.041,6.331,10.0
73.298,-6.053,5.956,11.0
70.838,-5.832,5.362,9.0
70.389,-5.801,7.316,21.0
73.433,-6.032,7.222,13.0
71.99,-5.894,6.677,14.0
72.963,-5.955,6.353,12.0
73.324,-5.965,5.975,9.0
70.672,-5.73,5.367,8.0
76.279,-6.191,7.947,5.0
70.974,-5.741,6.996,7.0
70.893,-5.715,6.591,7.0
70.695,-5.68,6.17,24.0
73.317,-5.871,5.99,20.0
72.712,-5.804,5.536,12.0
71.33,-5.699,7.445,13.0
71.681,-5.706,7.08,42.0
70.948,-5.628,6.609,7.0
70.641,-5.585,6.178,15.0
73.691,-5.807,6.033,29.0
72.672,-5.708,5.544,12.0
71.29,-5.604,7.451,24.0
71.41,-5.594,7.063,25.0
70.781,-5.525,6.603,21.0
68.009,-5.29,5.956,38.0
68.0,-5.271,5.575,78.0
67.992,-5.253,5.194,75.0
70.517,-5.451,7.379,22.0
71.512,-5.508,7.081,7.0
68.01,-5.22,6.351,74.0
67.996,-5.2,5.961,8.0
73.061,-5.568,5.996,21.0
77.928,-5.918,5.96,18.0
71.115,-5.403,7.446,12.0
71.599,-5.42,7.094,8.0
70.992,-5.355,6.634,23.0
70.922,-5.329,6.221,15.0
72.944,-5.462,5.989,32.0
78.417,-5.851,6.0,8.0
71.492,-5.337,7.488,22.0
68.028,-5.059,6.741,42.0
71.247,-5.277,6.658,10.0
70.774,-5.223,6.209,6.0
72.789,-5.352,5.976,18.0
74.63,-5.467,5.709,7.0
71.845,-5.264,7.523,24.0
78.047,-5.696,7.732,10.0
73.28,-5.327,6.846,11.0
73.328,-5.311,6.429,6.0
72.429,-5.226,5.943,28.0
74.399,-5.348,5.687,22.0
72.009,-5.177,7.536,8.0
72.468,-5.19,7.174,12.0
78.099,-5.571,7.29,13.0
71.257,-5.063,6.242,10.0
72.905,-5.16,5.976,28.0
72.102,-5.084,5.505,18.0
70.782,-4.991,7.4,13.0
69.517,-4.882,6.874,13.0
69.661,-4.873,6.494,12.0
69.393,-4.834,6.07,7.0
72.351,-5.021,5.921,12.0
71.976,-4.975,5.484,22.0
68.071,-4.705,7.107,24.0
69.726,-4.8,6.884,37.0
73.312,-5.026,6.822,12.0
64.399,-4.397,5.622,16.0
72.772,-4.949,5.942,15.0
71.841,-4.866,5.461,8.0
68.078,-4.61,7.094,23.0
70.082,-4.727,6.905,21.0
69.769,-4.685,6.479,17.0
64.357,-4.304,5.605,39.0
0.0,0.0,0.0,0.0
0.0,0.0,0.0,0.0
68.077,-4.513,7.078,10.0
64.105,-4.231,6.301,15.0
64.183,-4.218,5.944,25.0
64.225,-4.203,5.577,41.0
0.0,0.0,0.0,0.0
71.966,-4.671,5.435,9.0
59.394,-3.852,6.158,27.0
64.018,-4.134,6.273,20.0
64.09,-4.121,5.916,39.0
64.016,-4.098,5.539,39.0
70.954,-4.522,5.737,23.0
73.156,-4.644,5.501,16.0
59.323,-3.763,6.132,27.0
59.271,-3.742,5.788,34.0
64.07,-4.028,5.892,39.0
63.871,-3.998,5.505,39.0
63.602,-3.963,5.121,33.0
72.639,-4.507,5.437,9.0
59.526,-3.689,6.131,16.0
59.056,-3.643,5.745,33.0
64.021,-3.932,5.863,33.0
63.555,-3.886,5.452,39.0
63.583,-3.87,5.094,32.0
58.875,-3.568,4.383,21.0
59.507,-3.602,6.104,25.0
59.087,-3.56,5.724,33.0
63.952,-3.835,5.83,39.0
63.418,-3.785,5.413,38.0
63.504,-3.774,5.059,29.0
58.949,-3.487,4.362,19.0
58.544,-3.459,5.979,35.0
58.773,-3.456,5.665,34.0
64.08,-3.75,5.811,11.0
63.338,-3.689,5.376,38.0
63.308,-3.67,5.013,37.0
58.801,-3.394,4.323,22.0
58.414,-3.367,5.936,33.0
58.821,-3.373,5.64,34.0
62.963,-3.593,5.677,37.0
63.153,-3.587,5.328,38.0
62.993,-3.561,4.955,26.0
64.474,-3.627,4.705,29.0
58.237,-3.271,5.886,33.0
0.0,0.0,0.0,0.0
62.468,-3.474,5.598,24.0
63.065,-3.49,5.284,36.0
63.092,-3.475,4.927,17.0
64.272,-3.524,4.653,23.0
58.03,-3.175,5.831,28.0
56.913,-3.098,5.392,31.0
57.04,-3.09,5.077,24.0
58.533,-3.155,4.87,20.0
0.0,0.0,0.0,0.0
63.892,-3.411,4.586,22.0
57.993,-3.089,5.791,33.0
56.759,-3.008,5.341,30.0
56.994,-3.005,5.036,28.0
0.0,0.0,0.0,0.0
56.97,-2.973,4.377,30.0
60.024,-3.118,4.269,25.0
56.646,-2.935,5.618,31.0
56.842,-2.93,5.311,33.0
57.128,-2.93,5.009,23.0
59.028,-3.011,4.832,33.0
56.765,-2.881,4.322,31.0
56.951,-2.876,4.01,10.0
56.618,-2.852,5.575,33.0
56.827,-2.847,5.268,31.0
56.995,-2.84,4.956,18.0
0.0,0.0,0.0,0.0
56.844,-2.803,4.286,30.0
57.013,-2.796,3.972,15.0
56.484,-2.763,5.518,7.0
56.793,-2.763,5.221,16.0
56.91,-2.754,4.905,15.0
44.079,-2.121,3.541,38.0
56.94,-2.725,4.248,27.0
0.0,0.0,0.0,0.0
46.935,-2.227,4.547,35.0
47.372,-2.235,4.316,34.0
44.143,-2.072,3.768,25.0
44.132,-2.059,3.509,27.0
56.808,-2.636,4.191,13.0
59.794,-2.76,4.068,34.0
46.743,-2.15,4.489,34.0
44.365,-2.03,4.004,16.0
44.091,-2.006,3.725,34.0
44.137,-1.996,3.471,36.0
45.796,-2.06,3.338,14.0
58.344,-2.61,3.918,31.0
46.555,-2.074,4.428,36.0
44.265,-1.961,3.955,24.0
44.118,-1.943,3.688,43.0
44.199,-1.935,3.435,27.0
44.459,-1.936,3.2,17.0
57.391,-2.485,3.802,31.0
46.692,-2.014,4.398,27.0
44.214,-1.896,3.909,39.0
44.168,-1.883,3.65,38.0
44.128,-1.87,3.388,42.0
44.281,-1.866,3.145,44.0
57.082,-2.391,3.726,10.0
46.333,-1.932,4.319,31.0
44.265,-1.835,3.87,33.0
44.143,-1.819,3.604,45.0
44.173,-1.809,3.348,42.0
44.408,-1.808,3.11,43.0
57.332,-2.321,3.685,31.0
44.169,-1.78,4.072,22.0
44.388,-1.777,3.835,25.0
44.08,-1.754,3.554,30.0
44.112,-1.745,3.297,43.0
44.345,-1.743,3.059,44.0
57.896,-2.263,3.661,32.0
44.198,-1.719,4.028,47.0
44.421,-1.717,3.791,32.0
44.092,-1.694,3.508,41.0
44.154,-1.686,3.254,41.0
44.334,-1.682,3.011,47.0
58.079,-2.19,3.61,31.0
44.134,-1.655,3.974,38.0
44.139,-1.645,3.718,38.0
44.381,-1.643,3.482,34.0
44.128,-1.623,3.202,47.0
44.5,-1.627,2.973,30.0
0.0,0.0,0.0,0.0
44.172,-1.596,3.927,43.0
44.025,-1.58,3.659,39.0
44.222,-1.577,3.419,41.0
44.194,-1.566,3.157,39.0
0.0,0.0,0.0,0.0
59.919,-2.097,3.589,34.0
43.97,-1.529,3.858,36.0
43.957,-1.518,3.601,44.0
44.312,-1.521,3.374,42.0
46.017,-1.569,3.233,3.0
57.671,-1.953,3.718,13.0
65.921,-2.218,3.869,25.0
43.685,-1.46,3.779,46.0
44.08,-1.463,3.558,45.0
44.081,-1.453,3.302,45.0
45.959,-1.505,3.171,28.0
57.067,-1.856,3.609,19.0
65.967,-2.131,3.79,31.0
43.931,-1.41,3.745,42.0
44.04,-1.403,3.498,38.0
44.472,-1.407,3.275,36.0
56.768,-1.784,3.846,9.0
56.882,-1.775,3.524,30.0
65.634,-2.034,3.687,26.0
43.743,-1.346,3.672,44.0
44.298,-1.353,3.461,28.0
45.728,-1.387,3.307,29.0
56.83,-1.711,3.775,7.0
56.883,-1.701,3.449,30.0
66.025,-1.96,3.622,26.0
43.799,-1.29,3.619,39.0
44.337,-1.297,3.405,36.0
45.769,-1.329,3.249,14.0
56.837,-1.637,3.699,28.0
71.48,-2.044,4.238,12.0
66.013,-1.875,3.532,8.0
43.974,-1.239,3.572,54.0
44.753,-1.251,3.375,40.0
45.818,-1.271,3.188,19.0
51.715,-1.424,3.294,25.0
78.145,-2.136,4.525,10.0
74.198,-2.013,3.867,9.0
43.988,-1.183,3.512,44.0
45.069,-1.203,3.335,29.0
51.528,-1.365,3.514,8.0
51.525,-1.355,3.209,25.0
78.562,-2.05,4.438,12.0
74.123,-1.919,3.758,12.0
43.949,-1.128,3.445,28.0
45.331,-1.154,3.289,20.0
51.5,-1.301,3.438,25.0
51.657,-1.294,3.143,25.0
74.104,-1.842,4.078,32.0
0.0,0.0,0.0,0.0
44.428,-1.085,3.417,32.0
55.449,-1.343,3.941,8.0
51.365,-1.234,3.352,34.0
51.742,-1.233,3.071,8.0
74.05,-1.752,3.965,39.0
80.932,-1.9,3.865,25.0
44.954,-1.044,3.39,14.0
51.552,-1.187,3.587,12.0
51.339,-1.173,3.273,41.0
61.192,-1.386,3.539,8.0
74.548,-1.674,3.878,22.0
82.114,-1.83,3.795,10.0
48.373,-1.067,3.573,5.0
50.923,-1.113,3.464,26.0
51.845,-1.124,3.225,25.0
73.677,-1.583,4.146,19.0
81.934,-1.745,4.134,11.0
95.272,-2.012,4.255,19.0
48.354,-1.01,3.495,18.0
50.124,-1.037,3.33,24.0
61.206,-1.255,3.709,10.0
73.466,-1.494,4.018,19.0
81.563,-1.644,3.986,10.0
95.691,-1.911,4.12,16.0
48.322,-0.954,3.414,42.0
50.755,-0.993,3.29,26.0
61.267,-1.188,3.614,35.0
81.709,-1.57,4.337,17.0
81.645,-1.554,3.858,19.0
106.805,-2.016,4.426,17.0
48.461,-0.903,3.344,36.0
51.039,-0.942,3.224,14.0
61.189,-1.118,3.508,26.0
81.965,-1.485,4.214,16.0
95.048,-1.705,4.333,14.0
106.605,-1.895,4.241,8.0
48.485,-0.85,3.265,18.0
60.911,-1.058,3.745,16.0
61.19,-1.053,3.405,19.0
81.214,-1.384,4.039,16.0
95.471,-1.611,4.192,13.0
106.313,-1.777,4.049,16.0
50.469,-0.831,3.312,9.0
61.095,-0.997,3.653,18.0
61.189,-0.989,3.301,11.0
81.17,-1.298,3.897,22.0
106.513,-1.686,4.494,11.0
190.579,-2.987,6.931,18.0
61.709,-0.953,3.942,8.0
61.293,-0.937,3.558,31.0
81.816,-1.238,4.272,17.0
81.259,-1.216,3.76,13.0
112.316,-1.664,4.542,16.0
190.518,-2.794,6.598,7.0
61.582,-0.889,3.826,18.0
60.78,-0.869,3.422,10.0
81.281,-1.149,4.101,13.0
84.949,-1.188,3.781,6.0
106.686,-1.476,4.126,9.0
210.266,-2.877,6.907,7.0
61.619,-0.829,3.718,7.0
60.759,-0.809,3.31,15.0
81.298,-1.07,3.954,11.0
112.071,-1.458,4.785,17.0
190.482,-2.452,7.025,40.0
209.959,-2.672,6.519,7.0
60.769,-0.76,3.556,4.0
60.608,-0.749,3.193,14.0
95.016,-1.161,4.449,11.0
189.791,-2.294,7.761,19.0
190.698,-2.278,6.687,13.0
209.335,-2.472,6.121,16.0
60.625,-0.703,3.436,19.0
60.528,-0.693,3.077,18.0
112.328,-1.271,5.054,8.0
190.394,-2.13,7.436,32.0
210.573,-2.328,6.998,17.0
119.685,-1.307,3.279,7.0
60.527,-0.648,3.319,30.0
81.26,-0.859,3.98,23.0
95.576,-0.998,4.122,20.0
190.541,-1.964,7.085,41.0
210.775,-2.146,6.608,14.0
119.722,-1.204,3.056,150.0
60.491,-0.596,3.202,5.0
85.903,-0.835,4.045,4.0
189.813,-1.822,7.829,54.0
190.636,-1.806,6.731,19.0
119.707,-1.119,3.527,11.0
119.728,-1.104,2.828,78.0
86.026,-0.777,4.39,9.0
80.665,-0.718,3.645,10.0
190.464,-1.674,7.495,22.0
0.0,0.0,0.0,0.0
119.741,-1.024,3.3,99.0
119.735,-1.009,2.6,79.0
95.998,-0.791,4.715,11.0
95.639,-0.777,4.137,10.0
190.515,-1.524,7.126,39.0
205.452,-1.621,6.466,9.0
119.729,-0.93,3.067,16.0
194.117,-1.486,3.839,20.0
95.951,-0.717,4.524,13.0
95.493,-0.702,3.943,16.0
190.617,-1.381,6.756,11.0
0.0,0.0,0.0,0.0
119.803,-0.842,2.833,45.0
119.842,-0.829,2.135,19.0
95.85,-0.646,4.329,16.0
190.654,-1.265,7.495,23.0
215.496,-1.407,7.214,11.0
119.782,-0.769,3.296,14.0
193.794,-1.224,4.199,20.0
119.818,-0.744,1.896,24.0
95.42,-0.577,4.12,21.0
190.519,-1.132,7.11,33.0
206.639,-1.206,6.501,7.0
119.797,-0.687,3.056,72.0
119.812,-0.675,2.355,74.0
119.748,-0.663,1.655,16.0
189.804,-1.02,7.81,150.0
190.585,-1.006,6.725,9.0
0.0,0.0,0.0,0.0
119.768,-0.609,2.814,6.0
119.834,-0.598,2.114,37.0
119.707,-0.587,1.413,19.0
190.67,-0.906,7.461,24.0
206.621,-0.964,6.877,17.0
119.816,-0.548,3.287,30.0
119.793,-0.536,2.573,13.0
119.83,-0.526,1.872,23.0
119.708,-0.515,1.17,15.0
190.541,-0.792,7.068,26.0
206.165,-0.84,6.44,13.0
119.771,-0.477,3.039,8.0
119.844,-0.467,2.327,21.0
119.746,-0.457,1.626,6.0
114.346,-0.427,0.885,7.0
117.51,-0.423,4.118,14.0
119.821,-0.421,3.496,10.0
119.838,-0.412,2.795,72.0
119.832,-0.403,2.082,75.0
119.653,-0.393,1.38,8.0
110.988,-0.355,0.63,3.0
117.492,-0.362,3.874,19.0
119.775,-0.36,3.246,17.0
119.805,-0.35,2.546,11.0
114.643,-0.327,1.753,4.0
114.457,-0.318,1.08,150.0
101.117,-0.273,0.363,1.0
70.144,-0.182,2.166,15.0
119.824,-0.302,2.998,18.0
119.859,-0.293,2.296,5.0
113.834,-0.27,1.502,2.0
110.91,-0.256,0.814,13.0
0.0,0.0,0.0,0.0
70.125,-0.15,2.017,4.0
119.892,-0.248,2.745,9.0
114.491,-0.23,1.953,7.0
119.671,-0.233,1.329,12.0
110.392,-0.207,0.579,2.0
0.0,0.0,0.0,0.0
117.556,-0.202,3.135,9.0
0.0,0.0,0.0,0.0
111.018,-0.178,1.661,4.0
117.296,-0.181,1.055,12.0
99.041,-0.147,0.31,1.0
0.0,0.0,0.0,0.0
117.458,-0.157,2.881,16.0
114.251,-0.147,2.132,9.0
111.175,-0.137,1.425,7.0
110.846,-0.131,0.761,10.0
0.0,0.0,0.0,0.0
55.112,-0.059,-0.267,0.0
115.104,-0.115,2.579,3.0
111.259,-0.106,1.841,2.0
117.375,-0.106,1.254,13.0
97.713,-0.083,0.461,1.0
46.112,-0.037,-0.052,0.0
0.0,0.0,0.0,0.0
114.225,-0.079,2.314,11.0
111.139,-0.072,1.601,10.0
111.168,-0.067,0.95,8.0
95.514,-0.054,0.248,1.0
0.0,0.0,0.0,0.0
45.034,-0.021,-0.409,2.0
113.202,-0.049,2.054,3.0
111.148,-0.043,1.366,14.0
110.599,-0.039,0.711,8.0
0.0,0.0,0.0,0.0
0.0,0.0,0.0,0.0
0.0,0.0,0.0,0.0
111.128,-0.022,1.778,9.0
111.145,-0.019,1.127,9.0
95.791,-0.013,0.411,2.0
0.0,0.0,0.0,0.0
45.841,-0.003,-0.344,1.0
37.44,-0.001,-0.5,0.0
111.089,-0.001,1.54,14.0
110.855,0.001,0.886,9.0
0.0,0.0,0.0,0.0
0.0,0.0,0.0,0.0
44.995,0.004,-0.434,1.0
35.476,0.004,-0.55,0.0
111.112,0.015,1.302,15.0
104.115,0.017,0.61,5.0
0.0,0.0,0.0,0.0
0.0,0.0,0.0,0.0
39.952,0.009,-0.471,0.0
31.89,0.007,-0.563,0.0
111.177,0.028,1.063,7.0
95.533,0.026,0.353,5.0
0.0,0.0,0.0,0.0
45.594,0.014,-0.369,2.0
0.0,0.0,0.0,0.0
30.177,0.01,-0.598,0.0
110.723,0.037,0.819,9.0
0.0,0.0,0.0,0.0
0.0,0.0,0.0,0.0
0.0,0.0,0.0,0.0
0.0,0.0,0.0,0.0
28.188,0.011,-0.619,0.0
95.648,0.036,0.504,2.0
0.0,0.0,0.0,0.0
0.0,0.0,0.0,0.0
38.181,0.015,-0.472,0.0
31.335,0.012,-0.571,0.0
26.499,0.01,-0.638,0.0
95.532,0.036,0.301,2.0
0.0,0.0,0.0,0.0
45.532,0.017,-0.389,2.0
35.64,0.013,-0.517,0.0
29.815,0.011,-0.607,0.0
25.19,0.009,-0.661,0.0
0.0,0.0,0.0,0.0
0.0,0.0,0.0,0.0
40.577,0.013,-0.434,0.0
0.0,0.0,0.0,0.0
27.718,0.009,-0.624,0.0
0.0,0.0,0.0,0.0
0.0,0.0,0.0,0.0
45.82,0.012,-0.319,0.0
37.703,0.009,-0.484,0.0
30.701,0.007,-0.576,0.0
26.368,0.006,-0.65,0.0
22.541,0.005,-0.688,0.0
0.0,0.0,0.0,0.0
45.021,0.006,-0.41,2.0
35.348,0.005,-0.529,0.0
29.085,0.003,-0.608,0.0
24.784,0.002,-0.663,0.0
21.682,0.002,-0.707,0.0
0.0,0.0,0.0,0.0
39.653,0.0,-0.446,0.0
