X,Y,Z,Reflectivity
11.161,0.488,-0.866,0.0
10.518,0.457,-0.873,0.0
10.063,0.435,-0.891,0.0
9.588,0.413,-0.902,0.0
9.135,0.391,-0.91,0.0
8.766,0.374,-0.921,0.0
11.234,0.476,-0.862,0.0
10.59,0.446,-0.871,0.0
10.141,0.425,-0.889,0.0
9.636,0.402,-0.899,0.0
9.159,0.38,-0.904,0.0
8.818,0.364,-0.919,0.0
11.311,0.464,-0.859,0.0
10.734,0.438,-0.873,0.0
10.173,0.412,-0.883,0.0
9.74,0.393,-0.9,0.0
9.29,0.373,-0.909,0.0
8.862,0.353,-0.916,0.0
11.369,0.451,-0.853,0.0
10.862,0.428,-0.874,0.0
10.258,0.402,-0.881,0.0
9.8,0.382,-0.896,0.0
9.345,0.362,-0.906,0.0
8.943,0.345,-0.916,0.0
11.512,0.441,-0.853,0.0
10.968,0.417,-0.872,0.0
10.367,0.392,-0.881,0.0
9.867,0.371,-0.893,0.0
9.446,0.353,-0.906,0.0
9.013,0.335,-0.914,0.0
11.629,0.43,-0.85,0.0
11.053,0.406,-0.868,0.0
10.419,0.38,-0.875,0.0
9.98,0.362,-0.893,0.0
9.537,0.344,-0.905,0.0
9.068,0.325,-0.91,0.0
11.745,0.418,-0.847,0.0
11.165,0.395,-0.865,1.0
10.563,0.372,-0.876,0.0
10.035,0.351,-0.888,0.0
9.651,0.335,-0.906,0.0
9.147,0.316,-0.908,0.0
11.928,0.409,-0.847,0.0
11.29,0.385,-0.863,0.0
10.733,0.363,-0.878,0.0
10.144,0.341,-0.886,0.0
9.706,0.324,-0.9,0.0
9.279,0.308,-0.911,0.0
12.092,0.399,-0.845,0.0
11.378,0.373,-0.857,0.0
10.86,0.353,-0.877,0.0
10.25,0.331,-0.884,0.0
9.816,0.315,-0.899,0.0
9.347,0.298,-0.907,0.0
12.322,0.391,-0.848,0.0
11.466,0.361,-0.85,0.0
10.963,0.343,-0.872,0.0
10.362,0.322,-0.881,0.0
9.94,0.307,-0.899,0.0
9.459,0.29,-0.907,0.0
12.525,0.381,-0.847,0.0
11.643,0.352,-0.85,0.0
11.103,0.333,-0.87,1.0
10.454,0.311,-0.877,0.0
10.016,0.296,-0.894,0.0
9.55,0.28,-0.904,0.0
12.735,0.372,-0.846,0.0
11.832,0.343,-0.849,0.0
11.228,0.323,-0.866,0.0
10.634,0.303,-0.878,0.0
10.096,0.286,-0.888,0.0
9.664,0.272,-0.903,0.0
13.001,0.363,-0.847,0.0
12.032,0.334,-0.848,0.0
11.368,0.313,-0.862,1.0
10.764,0.294,-0.875,0.0
10.236,0.277,-0.887,0.0
9.779,0.263,-0.9,0.0
13.177,0.352,-0.841,0.0
12.308,0.326,-0.852,0.0
11.441,0.301,-0.853,0.0
10.931,0.285,-0.874,0.0
10.36,0.268,-0.884,0.0
9.897,0.254,-0.898,0.0
13.52,0.345,-0.845,0.0
12.452,0.315,-0.845,0.0
11.633,0.292,-0.851,0.0
11.099,0.276,-0.873,1.0
10.458,0.258,-0.879,0.0
10.025,0.245,-0.896,0.0
13.699,0.333,-0.837,0.0
12.808,0.309,-0.851,0.0
11.808,0.282,-0.848,0.0
11.242,0.266,-0.868,1.0
10.65,0.25,-0.88,0.0
10.127,0.236,-0.891,0.0
13.929,0.322,-0.832,0.0
12.997,0.298,-0.845,0.0
12.079,0.275,-0.85,0.0
11.378,0.256,-0.863,1.0
10.813,0.241,-0.877,0.0
10.265,0.227,-0.888,0.0
14.23,0.313,-0.829,0.0
13.321,0.29,-0.847,0.0
12.325,0.266,-0.849,0.0
11.5,0.246,-0.855,0.0
11.003,0.233,-0.876,0.0
10.404,0.218,-0.884,0.0
14.514,0.303,-0.824,0.0
13.627,0.282,-0.846,0.0
12.536,0.256,-0.845,0.0
11.692,0.237,-0.851,0.0
11.172,0.224,-0.873,0.0
10.525,0.209,-0.879,0.0
14.804,0.293,-0.819,0.0
13.89,0.272,-0.842,0.0
12.925,0.25,-0.852,0.0
11.898,0.228,-0.848,0.0
11.337,0.215,-0.868,0.0
10.75,0.202,-0.881,0.0
15.165,0.283,-0.815,0.0
14.035,0.259,-0.829,0.0
13.16,0.241,-0.846,0.0
12.202,0.221,-0.851,0.0
11.433,0.205,-0.858,0.0
10.901,0.193,-0.876,0.0
15.527,0.274,-0.81,0.0
14.374,0.251,-0.826,0.0
13.428,0.232,-0.843,0.0
12.416,0.212,-0.846,0.0
11.646,0.196,-0.855,0.0
11.141,0.186,-0.877,0.0
15.862,0.263,-0.802,0.0
14.746,0.242,-0.823,0.0
13.731,0.223,-0.839,0.0
12.724,0.204,-0.846,0.0
11.876,0.188,-0.852,0.0
11.29,0.177,-0.87,0.0
16.325,0.254,-0.799,0.0
15.066,0.232,-0.816,0.0
14.058,0.214,-0.836,0.0
13.038,0.196,-0.845,0.0
12.191,0.181,-0.854,0.0
11.418,0.168,-0.861,0.0
16.687,0.244,-0.788,0.0
15.505,0.224,-0.814,0.0
14.375,0.205,-0.83,0.0
13.422,0.189,-0.847,0.0
12.452,0.173,-0.852,0.0
11.628,0.159,-0.857,0.0
17.236,0.235,-0.785,0.0
15.863,0.214,-0.806,0.0
14.702,0.195,-0.824,0.0
13.684,0.18,-0.84,0.0
12.735,0.165,-0.849,0.0
11.847,0.151,-0.852,0.0
17.649,0.224,-0.774,0.0
16.377,0.206,-0.804,0.0
15.107,0.187,-0.82,0.0
14.012,0.171,-0.836,0.0
13.121,0.158,-0.852,0.0
12.219,0.145,-0.858,0.0
18.266,0.216,-0.769,0.0
16.711,0.195,-0.791,0.0
15.363,0.177,-0.807,0.0
14.35,0.163,-0.831,0.0
13.478,0.151,-0.851,0.0
12.463,0.137,-0.852,0.0
18.842,0.206,-0.759,0.0
17.193,0.185,-0.783,0.0
15.882,0.169,-0.806,0.0
14.707,0.154,-0.825,0.0
13.781,0.142,-0.845,0.0
12.895,0.131,-0.858,0.0
19.485,0.197,-0.75,0.0
17.786,0.177,-0.777,0.0
16.439,0.161,-0.804,0.0
15.081,0.146,-0.818,0.0
14.013,0.133,-0.834,0.0
13.175,0.123,-0.853,0.0
20.16,0.188,-0.739,0.0
18.303,0.168,-0.767,0.0
16.817,0.151,-0.792,0.0
15.524,0.137,-0.814,0.0
14.401,0.125,-0.83,0.0
13.488,0.115,-0.848,0.0
20.929,0.178,-0.729,0.0
18.867,0.158,-0.755,0.0
17.394,0.143,-0.787,0.0
15.942,0.129,-0.806,0.0
14.803,0.118,-0.825,0.0
13.763,0.107,-0.839,0.0
21.668,0.168,-0.713,0.0
19.761,0.151,-0.754,0.0
17.938,0.134,-0.777,0.0
16.542,0.122,-0.805,0.0
15.158,0.109,-0.816,0.0
14.169,0.1,-0.837,0.0
22.614,0.16,-0.701,0.0
20.381,0.141,-0.738,0.0
18.585,0.126,-0.77,0.0
16.959,0.113,-0.792,0.0
15.7,0.102,-0.815,0.0
14.504,0.093,-0.829,0.0
23.579,0.15,-0.686,0.0
21.199,0.132,-0.727,0.0
18.972,0.116,-0.749,0.0
17.519,0.105,-0.784,0.0
16.14,0.095,-0.807,0.0
15.02,0.086,-0.829,0.0
24.687,0.141,-0.67,0.0
22.235,0.124,-0.719,0.0
19.817,0.108,-0.743,0.0
18.093,0.097,-0.774,0.0
16.67,0.087,-0.8,0.0
15.373,0.079,-0.818,0.0
26.292,0.134,-0.662,0.0
23.195,0.116,-0.704,0.0
20.575,0.1,-0.731,0.0
18.665,0.089,-0.762,0.0
17.204,0.08,-0.792,0.0
15.915,0.072,-0.815,0.0
27.662,0.125,-0.642,0.0
24.133,0.106,-0.685,0.0
21.516,0.092,-0.722,0.0
19.487,0.081,-0.757,0.0
17.781,0.072,-0.783,0.0
16.4,0.065,-0.807,0.0
28.994,0.115,-0.615,0.0
25.926,0.1,-0.684,0.0
22.438,0.084,-0.708,0.0
20.216,0.074,-0.744,0.0
18.47,0.065,-0.776,0.0
16.862,0.058,-0.796,0.0
0.0,0.0,0.0,0.0
26.685,0.089,-0.649,0.0
23.635,0.076,-0.697,0.0
20.995,0.066,-0.73,0.0
19.083,0.058,-0.762,0.0
17.51,0.052,-0.79,0.0
33.952,0.1,-0.581,0.0
28.609,0.082,-0.637,0.0
24.708,0.068,-0.678,0.0
22.015,0.059,-0.721,0.0
19.826,0.051,-0.751,0.0
18.163,0.045,-0.782,0.0
35.199,0.088,-0.531,0.0
29.867,0.072,-0.605,0.0
26.274,0.061,-0.668,0.0
22.848,0.051,-0.701,0.0
20.624,0.045,-0.739,0.0
18.589,0.039,-0.762,0.0
38.353,0.08,-0.499,0.0
31.754,0.064,-0.577,0.0
27.615,0.053,-0.644,0.0
23.927,0.044,-0.684,0.0
21.45,0.038,-0.724,0.0
19.455,0.033,-0.757,0.0
42.825,0.073,-0.468,1.0
35.172,0.057,-0.565,0.0
29.62,0.046,-0.629,0.0
25.623,0.038,-0.679,0.0
22.515,0.032,-0.712,0.0
20.307,0.028,-0.748,0.0
45.531,0.062,-0.403,2.0
0.0,0.0,0.0,0.0
30.992,0.038,-0.593,0.0
26.787,0.031,-0.653,0.0
23.61,0.026,-0.697,0.0
21.209,0.022,-0.736,0.0
0.0,0.0,0.0,0.0
0.0,0.0,0.0,0.0
32.283,0.03,-0.549,0.0
28.642,0.025,-0.638,0.0
25.001,0.021,-0.686,0.0
21.932,0.017,-0.714,0.0
0.0,0.0,0.0,0.0
45.384,0.033,-0.442,2.0
35.797,0.025,-0.534,0.0
30.468,0.019,-0.614,0.0
26.484,0.016,-0.67,0.0
23.226,0.013,-0.707,0.0
0.0,0.0,0.0,0.0
49.7,0.025,-0.379,0.0
40.101,0.019,-0.512,0.0
32.563,0.014,-0.586,0.0
0.0,0.0,0.0,0.0
24.635,0.008,-0.697,0.0
0.0,0.0,0.0,0.0
55.057,0.018,-0.303,0.0
44.813,0.013,-0.477,0.0
35.577,0.009,-0.565,0.0
0.0,0.0,0.0,0.0
26.113,0.005,-0.684,0.0
0.0,0.0,0.0,0.0
0.0,0.0,0.0,0.0
45.712,0.006,-0.389,2.0
37.785,0.004,-0.519,0.0
0.0,0.0,0.0,0.0
26.797,0.002,-0.644,0.0
0.0,0.0,0.0,0.0
0.0,0.0,0.0,0.0
0.0,0.0,0.0,0.0
40.756,0.001,-0.473,0.0
33.478,0.0,-0.56,0.0
29.233,0.0,-0.639,0.0
110.74,0.0,0.671,10.0
0.0,0.0,0.0,0.0
56.492,-0.001,-0.238,0.0
45.29,-0.001,-0.428,2.0
37.343,-0.001,-0.545,0.0
30.631,-0.001,-0.604,0.0
111.285,-0.005,0.914,7.0
97.32,-0.005,0.297,2.0
0.0,0.0,0.0,0.0
0.0,0.0,0.0,0.0
40.438,-0.002,-0.504,0.0
32.72,-0.002,-0.575,0.0
117.294,-0.006,1.216,11.0
110.456,-0.005,0.578,3.0
0.0,0.0,0.0,0.0
0.0,0.0,0.0,0.0
44.902,-0.001,-0.463,1.0
36.03,-0.001,-0.556,0.0
111.097,-0.002,1.388,13.0
111.109,-0.002,0.817,12.0
95.472,0.0,0.211,1.0
0.0,0.0,0.0,0.0
45.836,0.0,-0.374,0.0
0.0,0.0,0.0,0.0
111.21,0.004,1.629,17.0
117.307,0.006,1.115,11.0
102.924,0.007,0.449,1.0
0.0,0.0,0.0,0.0
0.0,0.0,0.0,0.0
44.66,0.005,-0.497,0.0
112.442,0.016,1.888,23.0
111.146,0.018,1.296,16.0
110.812,0.02,0.723,14.0
0.0,0.0,0.0,0.0
0.0,0.0,0.0,0.0
45.512,0.012,-0.409,2.0
112.614,0.032,2.136,20.0
117.303,0.036,1.621,13.0
111.174,0.038,0.964,6.0
95.755,0.036,0.329,3.0
0.0,0.0,0.0,0.0
49.61,0.022,-0.339,0.0
112.724,0.052,2.381,17.0
117.382,0.058,1.874,15.0
111.136,0.059,1.203,15.0
110.561,0.063,0.617,6.0
0.0,0.0,0.0,0.0
0.0,0.0,0.0,0.0
113.294,0.076,2.632,5.0
117.315,0.084,2.121,15.0
111.146,0.085,1.439,16.0
111.078,0.09,0.855,7.0
95.512,0.082,0.243,3.0
0.0,0.0,0.0,0.0
117.403,0.109,2.976,21.0
112.54,0.11,2.274,9.0
117.349,0.121,1.768,9.0
111.163,0.12,1.09,17.0
103.556,0.118,0.482,7.0
0.0,0.0,0.0,0.0
70.166,0.085,1.927,13.0
112.65,0.143,2.515,11.0
117.407,0.156,2.016,19.0
111.103,0.155,1.324,23.0
110.789,0.161,0.749,11.0
90.015,0.136,0.146,0.0
70.067,0.108,2.073,28.0
117.48,0.189,2.87,8.0
117.446,0.196,2.264,17.0
111.025,0.193,1.557,18.0
111.138,0.201,0.985,10.0
93.664,0.176,0.348,1.0
69.817,0.133,2.212,30.0
70.293,0.139,1.866,7.0
117.419,0.241,2.51,5.0
111.134,0.236,1.793,4.0
111.144,0.244,1.22,21.0
110.632,0.252,0.643,5.0
69.896,0.161,2.363,29.0
70.168,0.167,2.01,13.0
119.831,0.296,2.816,20.0
119.86,0.306,2.187,35.0
111.164,0.293,1.456,14.0
111.066,0.302,0.88,16.0
70.222,0.193,2.522,37.0
69.97,0.198,2.151,39.0
119.825,0.35,3.067,21.0
119.827,0.36,2.436,7.0
119.877,0.371,1.818,12.0
119.737,0.382,1.199,14.0
70.118,0.226,2.664,34.0
69.805,0.231,2.291,23.0
70.099,0.238,1.938,5.0
119.843,0.419,2.681,13.0
119.888,0.431,2.064,150.0
119.763,0.442,1.443,12.0
70.319,0.262,2.816,11.0
69.897,0.267,2.437,25.0
70.174,0.275,2.083,14.0
119.825,0.482,2.926,26.0
119.912,0.494,2.308,11.0
111.217,0.47,1.564,15.0
70.1,0.299,2.949,9.0
70.084,0.306,2.586,10.0
70.173,0.314,2.227,9.0
119.818,0.549,3.168,10.0
111.179,0.521,2.365,10.0
111.137,0.533,1.79,25.0
70.287,0.34,3.101,4.0
70.077,0.347,2.728,7.0
69.986,0.354,2.362,8.0
111.16,0.575,3.164,21.0
111.15,0.588,2.589,22.0
111.087,0.601,2.013,28.0
80.359,0.438,3.708,10.0
70.254,0.391,2.877,3.0
69.811,0.397,2.496,6.0
111.065,0.646,3.385,24.0
111.101,0.659,2.81,28.0
111.076,0.673,2.235,33.0
80.703,0.493,3.885,10.0
104.745,0.653,4.5,16.0
69.978,0.445,2.643,19.0
69.876,0.453,2.269,5.0
111.07,0.734,3.03,33.0
111.084,0.748,2.455,28.0
78.675,0.534,3.945,13.0
70.373,0.486,3.162,7.0
104.774,0.738,4.163,18.0
69.715,0.5,2.401,18.0
104.792,0.766,3.065,20.0
104.813,0.78,2.52,25.0
81.344,0.61,4.237,18.0
80.599,0.615,3.777,11.0
70.066,0.544,2.919,25.0
69.841,0.552,2.54,8.0
104.734,0.843,3.266,18.0
104.741,0.857,2.721,29.0
81.438,0.671,4.4,11.0
78.675,0.66,3.841,7.0
70.018,0.597,3.053,9.0
69.883,0.606,2.676,22.0
69.717,0.614,2.307,16.0
104.687,0.938,2.919,37.0
78.456,0.707,4.388,9.0
78.618,0.72,3.987,4.0
70.305,0.655,3.199,4.0
97.857,0.926,3.932,25.0
104.553,1.005,3.657,20.0
104.661,1.022,3.117,17.0
78.259,0.77,4.527,8.0
81.404,0.813,4.283,14.0
70.369,0.713,3.334,9.0
98.691,1.015,4.151,10.0
98.136,1.025,3.617,28.0
98.736,1.046,3.124,15.0
80.729,0.861,4.819,12.0
81.311,0.88,4.429,10.0
70.445,0.773,3.469,7.0
98.6,1.099,4.331,16.0
98.595,1.115,3.815,19.0
69.828,0.801,2.338,9.0
71.664,0.827,4.412,1.0
74.197,0.868,4.179,2.0
70.51,0.837,3.602,9.0
98.582,1.186,4.51,26.0
98.651,1.203,3.997,18.0
69.851,0.863,2.466,15.0
60.202,0.749,3.816,6.0
78.379,0.989,4.558,9.0
70.579,0.902,3.734,6.0
78.721,1.019,3.745,15.0
98.303,1.29,4.16,20.0
98.304,1.307,3.647,21.0
67.046,0.897,4.371,6.0
80.392,1.09,4.82,16.0
81.309,1.117,4.447,9.0
98.082,1.364,4.841,15.0
98.168,1.383,4.331,27.0
69.902,0.997,2.718,9.0
67.062,0.963,4.493,8.0
74.32,1.08,4.588,6.0
70.605,1.038,3.987,4.0
85.662,1.275,4.379,9.0
78.741,1.186,3.611,20.0
120.36,1.834,4.887,11.0
41.5,0.636,2.851,13.0
74.431,1.155,4.722,12.0
78.571,1.233,4.572,9.0
92.026,1.461,4.861,12.0
85.634,1.375,4.073,5.0
78.729,1.279,3.331,12.0
41.542,0.679,2.926,37.0
41.497,0.686,2.704,13.0
74.379,1.244,4.454,11.0
91.389,1.545,4.981,11.0
85.541,1.462,4.212,12.0
92.235,1.594,4.057,10.0
41.334,0.719,2.981,41.0
41.466,0.729,2.77,35.0
74.333,1.32,4.574,8.0
80.996,1.454,4.549,10.0
91.477,1.659,4.654,21.0
91.525,1.677,4.174,21.0
40.989,0.756,3.023,43.0
67.984,1.268,4.654,10.0
78.233,1.473,4.942,6.0
70.577,1.342,4.078,3.0
82.079,1.577,4.308,7.0
85.469,1.659,4.035,19.0
40.939,0.799,3.085,43.0
40.971,0.808,2.87,34.0
73.677,1.468,4.771,3.0
74.601,1.501,4.429,8.0
82.053,1.668,4.437,13.0
85.319,1.75,4.163,25.0
40.978,0.846,3.153,42.0
41.006,0.854,2.937,40.0
41.408,0.871,2.746,7.0
74.74,1.588,4.554,5.0
81.178,1.741,4.515,7.0
85.267,1.846,4.292,38.0
40.844,0.89,3.206,44.0
40.926,0.9,2.995,41.0
41.364,0.918,2.807,33.0
78.679,1.762,4.914,5.0
80.777,1.825,4.616,2.0
85.319,1.945,4.424,11.0
40.897,0.938,3.273,39.0
40.956,0.948,3.059,34.0
40.994,0.957,2.843,42.0
72.112,1.699,4.612,11.0
78.78,1.873,4.62,6.0
83.439,2.0,4.45,10.0
40.681,0.981,3.316,40.0
40.779,0.992,3.106,48.0
41.214,1.011,2.92,12.0
70.609,1.748,4.62,9.0
78.801,1.967,4.735,9.0
78.854,1.986,4.32,20.0
40.682,1.031,3.376,40.0
40.814,1.043,3.168,36.0
40.882,1.053,2.955,33.0
41.167,1.069,2.752,6.0
71.842,1.881,4.419,34.0
78.77,2.079,4.426,26.0
40.722,1.082,3.437,36.0
40.791,1.092,3.224,45.0
40.859,1.102,3.01,39.0
65.263,1.775,4.454,13.0
70.813,1.941,4.453,15.0
73.189,2.021,4.212,9.0
40.532,1.127,3.477,50.0
40.636,1.139,3.267,49.0
40.993,1.157,3.076,32.0
41.001,1.166,2.853,1.0
78.323,2.245,5.032,11.0
72.059,2.081,4.244,20.0
40.551,1.179,3.533,40.0
40.653,1.19,3.323,44.0
40.871,1.206,3.122,40.0
41.131,1.222,2.917,26.0
65.416,1.958,4.288,20.0
70.779,2.135,4.261,7.0
40.539,1.231,3.585,42.0
40.531,1.239,3.367,42.0
40.973,1.262,3.182,36.0
66.603,2.065,4.809,21.0
79.782,2.491,5.333,13.0
65.575,2.063,4.031,7.0
40.429,1.28,3.627,43.0
40.416,1.288,3.408,45.0
40.766,1.309,3.217,40.0
45.128,1.458,3.314,15.0
66.611,2.167,4.534,24.0
65.602,2.149,4.114,24.0
40.422,1.333,3.676,30.0
40.371,1.34,3.453,47.0
40.731,1.361,3.264,39.0
40.874,1.374,3.051,46.0
66.573,2.254,4.611,15.0
66.388,2.263,4.242,25.0
40.359,1.385,3.719,36.0
40.559,1.4,3.517,35.0
40.58,1.41,3.3,40.0
40.868,1.429,3.099,32.0
40.703,1.433,2.867,28.0
66.514,2.357,4.327,19.0
40.387,1.441,3.768,43.0
40.479,1.453,3.557,41.0
40.509,1.463,3.341,36.0
40.54,1.473,3.12,43.0
40.714,1.488,2.913,42.0
44.926,1.652,2.972,5.0
40.358,1.495,3.811,39.0
40.315,1.502,3.588,34.0
40.879,1.532,3.416,19.0
40.41,1.523,3.154,50.0
40.641,1.541,2.952,39.0
40.994,1.564,2.756,35.0
40.511,1.556,3.869,37.0
40.398,1.56,3.638,47.0
40.605,1.577,3.435,34.0
40.393,1.578,3.194,46.0
40.759,1.601,3.002,41.0
41.097,1.623,2.804,44.0
40.389,1.606,3.898,44.0
40.498,1.62,3.688,27.0
40.573,1.631,3.474,36.0
40.361,1.632,3.232,44.0
40.689,1.654,3.037,43.0
59.296,2.425,4.105,7.0
40.446,1.665,3.944,40.0
40.804,1.689,3.756,16.0
40.573,1.688,3.513,34.0
40.364,1.688,3.271,37.0
40.478,1.702,3.06,42.0
40.682,1.72,2.855,41.0
41.502,1.767,4.086,18.0
40.626,1.738,3.778,26.0
40.432,1.739,3.539,39.0
40.38,1.746,3.31,36.0
40.419,1.756,3.093,39.0
40.685,1.777,2.891,34.0
41.014,1.804,4.075,38.0
40.562,1.793,3.808,43.0
40.312,1.791,3.564,43.0
40.646,1.814,3.367,28.0
40.408,1.812,3.127,39.0
40.639,1.831,2.923,51.0
41.002,1.861,4.109,18.0
40.624,1.853,3.848,39.0
40.368,1.85,3.602,39.0
40.679,1.873,3.403,16.0
40.615,1.879,3.176,32.0
40.553,1.885,2.95,37.0
40.894,1.914,4.132,48.0
40.974,1.927,3.915,30.0
40.25,1.901,3.625,40.0
40.206,1.908,3.396,45.0
40.343,1.923,3.186,33.0
40.627,1.946,2.987,35.0
41.023,1.979,4.177,44.0
41.092,1.99,3.957,16.0
40.346,1.963,3.664,44.0
40.278,1.968,3.432,33.0
40.254,1.976,3.209,38.0
40.578,2.0,3.013,40.0
41.268,2.049,4.231,21.0
40.864,2.037,3.965,35.0
40.487,2.027,3.705,42.0
40.438,2.033,3.474,43.0
40.349,2.038,3.244,38.0
40.594,2.059,3.042,35.0
40.818,2.085,4.214,20.0
40.8,2.093,3.986,45.0
40.388,2.08,3.723,43.0
41.211,2.132,3.568,39.0
40.445,2.101,3.279,45.0
40.545,2.115,3.064,38.0
40.78,2.142,4.236,33.0
40.849,2.154,4.017,26.0
41.198,2.181,3.824,38.0
40.681,2.162,3.547,49.0
40.788,2.176,3.331,30.0
40.508,2.17,3.086,31.0
40.757,2.199,4.258,30.0
40.874,2.213,4.043,18.0
41.074,2.232,3.836,35.0
40.89,2.231,3.588,41.0
40.462,2.216,3.327,25.0
40.521,2.228,3.109,39.0
40.733,2.256,4.278,45.0
45.982,2.555,4.574,9.0
41.292,2.303,3.878,23.0
41.148,2.304,3.633,34.0
40.56,2.279,3.356,35.0
40.524,2.286,3.13,37.0
40.813,2.318,4.307,32.0
45.974,2.62,4.596,14.0
41.295,2.362,3.899,35.0
41.419,2.377,3.676,40.0
40.694,2.344,3.387,47.0
40.581,2.346,3.153,38.0
40.945,2.383,4.34,17.0
45.313,2.647,4.551,8.0
41.289,2.42,3.917,22.0
41.479,2.44,3.7,46.0
40.543,2.393,3.392,27.0
44.791,2.653,3.499,2.0
40.959,2.442,4.359,33.0
48.22,2.885,4.862,2.0
44.745,2.686,4.263,43.0
45.847,2.761,4.108,4.0
41.05,2.481,3.45,41.0
41.259,2.501,3.239,38.0
46.672,2.849,4.985,3.0
47.872,2.931,4.845,1.0
45.236,2.779,4.326,19.0
42.206,2.601,3.797,17.0
41.75,2.581,3.523,38.0
41.761,2.591,3.292,34.0
52.273,3.265,5.6,17.0
52.293,3.275,5.31,14.0
45.437,2.855,4.359,19.0
42.253,2.663,3.814,23.0
41.961,2.653,3.554,32.0
44.202,2.804,3.498,3.0
52.262,3.337,5.614,13.0
52.296,3.349,5.324,25.0
42.577,2.735,4.097,7.0
42.209,2.719,3.821,35.0
41.916,2.708,3.561,22.0
41.907,2.716,3.327,14.0
46.641,3.043,5.021,10.0
53.134,3.476,5.422,3.0
45.478,2.984,4.386,2.0
42.025,2.765,3.814,38.0
41.885,2.764,3.567,36.0
42.0,2.78,3.343,29.0
42.248,2.815,4.557,32.0
42.001,2.806,4.294,2.0
41.919,2.808,4.051,13.0
42.127,2.83,3.83,20.0
41.72,2.81,3.56,41.0
41.93,2.832,3.344,35.0
42.194,2.869,4.557,20.0
46.482,3.169,4.759,10.0
41.795,2.857,4.044,17.0
45.219,3.099,4.118,8.0
41.67,2.863,3.561,36.0
41.878,2.885,3.345,16.0
42.087,2.919,4.55,24.0
46.409,3.227,4.756,14.0
41.549,2.895,4.025,16.0
41.419,2.894,3.775,32.0
41.685,2.92,3.566,32.0
41.536,2.917,3.32,37.0
53.079,3.752,5.743,11.0
46.669,3.307,4.786,5.0
41.718,2.963,4.043,16.0
41.289,2.94,3.765,36.0
41.358,2.951,3.539,38.0
41.545,2.972,3.322,31.0
46.085,3.319,4.987,6.0
41.261,2.978,4.232,2.0
41.387,2.994,4.012,26.0
41.292,2.994,3.765,38.0
41.477,3.015,3.549,39.0
41.479,3.023,3.317,37.0
46.022,3.376,4.98,16.0
46.035,3.384,4.72,10.0
41.331,3.045,4.004,31.0
41.278,3.048,3.762,37.0
41.284,3.055,3.531,39.0
41.709,3.094,3.332,26.0
46.025,3.436,4.977,8.0
46.036,3.444,4.717,7.0
41.092,3.081,3.978,40.0
0.0,0.0,0.0,0.0
41.259,3.106,3.525,46.0
41.871,3.16,3.342,14.0
45.283,3.438,4.892,8.0
41.171,3.132,4.214,28.0
41.049,3.13,3.969,32.0
41.155,3.145,3.743,23.0
41.311,3.163,3.524,40.0
41.605,3.193,3.315,28.0
45.28,3.496,4.885,29.0
41.192,3.187,4.21,30.0
41.137,3.189,3.971,29.0
41.161,3.197,3.736,44.0
41.281,3.213,3.514,41.0
41.558,3.241,3.303,43.0
45.24,3.55,4.872,18.0
41.199,3.238,4.202,46.0
41.207,3.245,3.97,27.0
41.224,3.252,3.734,41.0
41.341,3.268,3.51,36.0
41.642,3.298,3.301,14.0
45.267,3.608,4.864,30.0
45.317,3.618,4.612,4.0
41.837,3.346,4.02,18.0
41.473,3.323,3.745,33.0
41.269,3.313,3.493,39.0
41.636,3.349,3.29,10.0
45.286,3.665,4.854,23.0
45.299,3.672,4.597,17.0
42.362,3.439,4.058,33.0
41.573,3.381,3.742,34.0
41.485,3.38,3.5,16.0
41.534,3.39,3.269,19.0
48.004,3.941,5.13,13.0
41.37,3.402,4.185,4.0
41.349,3.406,3.948,31.0
41.416,3.417,3.715,39.0
41.372,3.419,3.476,28.0
41.457,3.432,3.249,30.0
44.879,4.401,4.299,20.0
43.881,4.305,3.951,16.0
43.976,4.316,3.706,7.0
42.022,4.126,3.296,38.0
42.258,4.152,3.072,16.0
43.168,4.244,2.891,17.0
44.721,4.413,4.242,9.0
43.993,4.343,3.92,24.0
44.003,4.346,3.667,3.0
44.342,4.382,3.436,7.0
42.636,4.215,3.059,8.0
42.915,4.245,2.833,28.0
47.899,4.756,4.497,12.0
43.918,4.362,3.87,13.0
41.988,4.172,3.458,15.0
42.714,4.245,3.268,10.0
42.771,4.253,3.027,15.0
42.902,4.268,2.79,21.0
47.124,4.706,4.377,3.0
43.864,4.381,3.822,12.0
42.066,4.203,3.422,15.0
42.807,4.278,3.232,24.0
0.0,0.0,0.0,0.0
42.871,4.288,2.744,8.0
44.139,4.431,4.054,16.0
43.903,4.408,3.779,17.0
44.198,4.439,3.55,5.0
42.841,4.304,3.189,17.0
42.95,4.316,2.951,17.0
42.864,4.309,2.699,3.0
44.075,4.446,4.002,43.0
43.946,4.434,3.736,9.0
44.247,4.465,3.507,16.0
43.326,4.373,3.18,18.0
43.159,4.357,2.92,34.0
73.393,7.412,4.544,21.0
43.947,4.453,3.943,43.0
44.109,4.469,3.703,23.0
0.0,0.0,0.0,0.0
42.996,4.358,3.11,28.0
43.791,4.439,2.916,19.0
73.293,7.433,4.459,21.0
43.908,4.466,3.891,33.0
44.127,4.489,3.656,42.0
43.114,4.386,3.324,17.0
42.847,4.359,3.052,27.0
0.0,0.0,0.0,0.0
73.258,7.456,4.377,12.0
43.867,4.478,3.839,20.0
44.096,4.502,3.604,35.0
42.833,4.373,3.254,28.0
43.011,4.391,3.016,18.0
44.755,4.57,2.88,30.0
88.491,9.037,5.186,23.0
43.977,4.504,3.798,14.0
44.107,4.516,3.555,42.0
43.016,4.405,3.219,17.0
43.099,4.413,2.972,31.0
44.758,4.583,2.829,3.0
88.415,9.055,5.081,22.0
44.101,4.529,3.757,18.0
44.242,4.543,3.514,32.0
43.68,4.484,3.218,27.0
0.0,0.0,0.0,0.0
58.348,5.99,3.62,10.0
88.311,9.067,4.973,23.0
44.366,4.567,3.728,19.0
44.277,4.557,3.464,27.0
43.453,4.471,3.149,20.0
0.0,0.0,0.0,0.0
73.344,7.546,4.465,7.0
88.18,9.072,4.861,20.0
44.214,4.56,3.662,19.0
44.252,4.563,3.409,15.0
42.913,4.424,3.059,28.0
0.0,0.0,0.0,0.0
73.348,7.56,4.375,8.0
88.107,9.08,4.75,22.0
44.161,4.561,3.603,30.0
49.539,5.115,3.756,6.0
42.921,4.431,3.006,35.0
58.041,5.991,3.724,15.0
88.084,9.09,5.145,23.0
88.023,9.083,4.637,21.0
44.18,4.568,3.55,31.0
44.211,4.57,3.297,29.0
42.958,4.439,2.955,18.0
58.163,6.009,3.66,14.0
88.054,9.095,5.035,21.0
87.956,9.083,4.523,22.0
44.189,4.572,3.495,38.0
43.483,4.497,3.188,20.0
42.921,4.437,2.899,17.0
58.286,6.024,3.594,18.0
88.025,9.096,4.923,19.0
87.898,9.081,4.411,18.0
44.213,4.575,3.441,32.0
42.856,4.433,3.087,32.0
42.897,4.435,2.843,32.0
58.266,6.023,3.52,6.0
87.983,9.092,4.809,20.0
87.914,9.082,4.3,22.0
49.515,5.123,3.79,8.0
42.906,4.437,3.036,34.0
0.0,0.0,0.0,0.0
88.055,9.098,5.207,17.0
87.974,9.087,4.695,21.0
87.94,9.081,4.188,24.0
49.533,5.122,3.727,4.0
42.959,4.439,2.984,29.0
58.059,5.997,3.698,14.0
88.068,9.093,5.094,23.0
87.984,9.08,4.583,21.0
87.929,9.072,4.074,18.0
0.0,0.0,0.0,0.0
42.968,4.435,2.929,14.0
58.319,6.017,3.639,20.0
88.086,9.083,4.981,18.0
88.099,9.08,4.474,19.0
88.004,9.067,3.963,16.0
0.0,0.0,0.0,0.0
0.0,0.0,0.0,0.0
73.318,7.552,4.479,7.0
88.169,9.076,4.87,19.0
88.138,9.068,4.36,20.0
88.1,9.061,3.851,14.0
42.973,4.423,3.064,23.0
0.0,0.0,0.0,0.0
88.282,9.074,5.276,17.0
88.272,9.068,4.758,21.0
88.238,9.059,4.248,18.0
88.16,9.046,3.739,17.0
42.969,4.412,3.006,35.0
44.723,4.589,2.871,9.0
88.391,9.063,5.165,23.0
88.374,9.055,4.646,24.0
88.328,9.045,4.136,21.0
88.296,9.036,3.628,20.0
43.446,4.449,2.982,25.0
58.33,5.968,3.667,9.0
88.494,9.048,5.054,23.0
88.459,9.037,4.534,30.0
88.439,9.029,4.025,21.0
88.409,9.021,3.516,12.0
0.0,0.0,0.0,0.0
73.249,7.47,4.508,11.0
88.546,9.022,4.939,27.0
88.53,9.014,4.42,26.0
88.521,9.006,3.91,18.0
88.556,9.003,3.404,3.0
0.0,0.0,0.0,0.0
73.279,7.445,4.411,17.0
88.541,8.987,4.82,41.0
88.533,8.978,4.301,39.0
88.568,8.975,3.793,27.0
87.308,8.841,3.238,3.0
44.835,4.54,2.897,5.0
88.535,8.956,5.21,33.0
88.544,8.949,4.7,40.0
88.545,8.941,4.182,39.0
88.566,8.935,3.673,36.0
87.413,8.812,3.124,3.0
73.425,7.4,4.644,10.0
88.526,8.913,5.09,33.0
88.538,8.905,4.581,30.0
88.533,8.897,4.061,37.0
88.528,8.888,3.552,28.0
87.66,8.793,3.015,3.0
73.146,7.334,4.528,28.0
88.536,8.868,4.969,31.0
88.533,8.858,4.459,33.0
88.533,8.849,3.942,37.0
88.503,8.837,3.433,12.0
87.856,8.765,2.903,6.0
73.019,7.281,4.421,32.0
73.134,7.283,4.007,18.0
88.517,8.806,4.34,35.0
88.528,8.798,3.824,29.0
88.373,8.773,3.309,4.0
88.071,8.735,2.793,8.0
73.033,7.238,4.324,29.0
73.172,7.243,3.911,23.0
88.515,8.752,4.221,16.0
88.539,8.744,3.704,18.0
88.518,8.733,3.196,3.0
88.382,8.71,2.685,3.0
73.052,7.192,4.226,25.0
88.695,8.722,4.621,10.0
88.702,8.711,4.111,14.0
88.658,8.696,3.591,14.0
88.746,8.696,3.085,11.0
88.72,8.684,2.576,12.0
73.008,7.138,4.125,27.0
90.632,8.849,4.6,16.0
90.628,8.837,4.079,13.0
90.555,8.819,3.547,17.0
89.074,8.665,2.978,12.0
89.102,8.657,2.468,12.0
72.964,7.079,4.025,27.0
91.015,8.818,4.497,15.0
90.99,8.804,3.973,17.0
90.855,8.78,3.437,6.0
89.366,8.626,2.869,12.0
89.452,8.623,2.359,11.0
73.382,7.063,3.95,39.0
91.426,8.786,4.396,15.0
91.359,8.767,3.867,18.0
91.419,8.762,3.336,1.0
89.76,8.591,2.762,12.0
89.832,8.586,2.249,11.0
73.353,6.999,3.851,9.0
91.804,8.747,4.291,12.0
91.75,8.728,3.762,20.0
90.232,8.571,3.173,1.0
90.153,8.551,2.654,12.0
90.259,8.55,2.139,11.0
92.242,8.721,4.719,14.0
92.236,8.706,4.189,10.0
92.211,8.69,3.66,16.0
90.6,8.526,3.066,9.0
90.65,8.518,2.549,11.0
90.665,8.507,2.031,11.0
92.706,8.681,4.622,11.0
92.697,8.665,4.089,16.0
92.622,8.644,3.554,16.0
90.992,8.479,2.961,5.0
91.115,8.477,2.443,11.0
91.117,8.464,1.922,9.0
85.699,7.942,4.159,23.0
93.029,8.606,3.982,16.0
93.025,8.592,3.448,13.0
91.532,8.44,2.859,13.0
91.575,8.43,2.337,10.0
91.606,8.419,1.813,11.0
85.695,7.856,4.047,15.0
93.037,8.514,3.861,31.0
93.026,8.498,3.329,10.0
91.972,8.387,2.754,4.0
92.093,8.384,2.231,4.0
92.072,8.368,1.704,4.0
92.738,8.405,4.262,24.0
93.047,8.418,3.742,21.0
92.773,8.377,3.199,5.0
92.485,8.336,2.652,10.0
92.628,8.334,2.126,8.0
92.665,8.323,1.597,9.0
92.925,8.322,4.151,15.0
93.126,8.323,3.627,15.0
93.165,8.312,3.095,11.0
93.141,8.293,2.552,9.0
93.207,8.284,2.022,14.0
93.2,8.268,1.49,15.0
92.92,8.218,4.035,53.0
93.115,8.218,3.51,50.0
93.101,8.2,2.977,61.0
93.11,8.185,2.436,62.0
93.125,8.17,1.904,64.0
93.137,8.156,1.373,150.0
93.072,8.124,3.925,32.0
93.148,8.113,3.396,26.0
93.144,8.095,2.863,19.0
45.86,3.977,1.143,16.0
45.828,3.966,0.88,18.0
45.81,3.957,0.618,24.0
96.535,8.309,3.952,10.0
45.888,3.941,1.616,16.0
45.829,3.927,1.352,22.0
45.801,3.916,1.085,29.0
45.77,3.905,0.824,31.0
45.771,3.898,0.563,33.0
45.854,3.89,1.822,28.0
45.804,3.877,1.558,28.0
45.794,3.868,1.297,33.0
45.777,3.857,1.031,36.0
45.755,3.848,0.769,41.0
45.752,3.839,0.508,33.0
45.824,3.829,1.766,34.0
45.796,3.818,1.504,40.0
45.781,3.808,1.242,38.0
45.773,3.798,0.976,41.0
45.77,3.789,0.715,38.0
45.761,3.779,0.454,38.0
45.809,3.767,1.711,46.0
45.808,3.758,1.45,42.0
45.801,3.748,1.188,42.0
45.807,3.739,0.923,41.0
45.807,3.73,0.662,44.0
45.797,3.721,0.401,39.0
45.845,3.708,1.659,37.0
45.854,3.699,1.398,38.0
45.866,3.691,1.137,37.0
45.869,3.682,0.872,38.0
45.882,3.673,0.611,38.0
45.877,3.664,0.35,37.0
45.932,3.652,1.61,34.0
98.617,7.819,2.895,7.0
98.685,7.802,2.335,9.0
98.667,7.78,1.763,9.0
98.798,7.769,1.204,9.0
98.801,7.75,0.642,6.0
101.128,7.895,3.432,18.0
99.418,7.74,2.809,5.0
99.457,7.72,2.243,9.0
99.496,7.702,1.668,8.0
99.591,7.689,1.105,10.0
97.5,7.507,0.527,5.0
101.938,7.809,3.347,27.0
100.305,7.661,2.723,7.0
100.355,7.642,2.155,11.0
100.419,7.625,1.575,8.0
100.493,7.609,1.006,11.0
77.909,5.882,0.337,17.0
101.986,7.661,3.24,26.0
101.098,7.57,2.637,6.0
101.25,7.558,2.066,5.0
101.359,7.545,1.483,4.0
101.401,7.525,0.908,5.0
52.189,3.861,0.171,13.0
47.272,3.479,1.452,12.0
102.085,7.489,2.557,13.0
102.218,7.474,1.98,14.0
102.228,7.451,1.39,14.0
52.27,3.798,0.414,18.0
51.974,3.765,0.117,15.0
47.34,3.409,1.405,38.0
47.407,3.403,1.139,59.0
52.268,3.739,0.959,21.0
52.223,3.723,0.656,22.0
52.205,3.71,0.361,20.0
51.815,3.67,0.064,13.0
47.71,3.359,1.368,3.0
47.569,3.338,1.095,17.0
47.546,3.324,0.824,56.0
52.201,3.637,0.604,22.0
52.163,3.622,0.308,23.0
51.657,3.575,0.013,15.0
48.305,3.322,1.338,9.0
47.818,3.276,1.054,12.0
47.813,3.264,0.783,20.0
47.802,3.252,0.507,17.0
52.147,3.535,0.259,11.0
51.41,3.473,-0.035,15.0
48.833,3.278,1.307,10.0
48.204,3.223,1.017,5.0
48.054,3.201,0.742,19.0
48.056,3.189,0.465,10.0
52.15,3.447,0.21,15.0
51.299,3.379,-0.083,10.0
49.252,3.221,1.272,11.0
48.683,3.172,0.982,3.0
48.351,3.138,0.702,9.0
48.342,3.125,0.423,8.0
52.147,3.358,0.162,16.0
51.2,3.284,-0.129,9.0
49.908,3.179,1.244,7.0
49.145,3.117,0.948,12.0
48.673,3.075,0.663,9.0
48.694,3.064,0.384,8.0
52.129,3.266,0.117,20.0
50.918,3.177,-0.172,6.0
50.605,3.135,1.217,19.0
49.708,3.066,0.915,4.0
49.123,3.017,0.628,4.0
49.137,3.005,0.346,4.0
52.064,3.171,0.073,21.0
45.942,2.786,-0.194,19.0
50.779,3.056,1.18,1.0
50.341,3.016,0.885,17.0
49.85,2.973,0.596,10.0
93.914,5.576,0.584,5.0
51.931,3.069,0.03,18.0
46.724,2.749,-0.235,7.0
115.779,6.76,2.597,8.0
50.729,2.948,0.852,2.0
50.428,2.916,0.562,6.0
59.417,3.42,0.323,9.0
51.82,2.969,-0.009,21.0
47.415,2.704,-0.276,10.0
59.457,3.363,1.288,17.0
59.419,3.344,0.952,21.0
59.368,3.325,0.617,2.0
59.305,3.305,0.277,21.0
51.735,2.869,-0.048,19.0
48.146,2.657,-0.316,1.0
59.371,3.248,1.241,28.0
59.352,3.23,0.907,30.0
59.327,3.211,0.573,31.0
59.275,3.193,0.233,18.0
51.763,2.773,-0.086,22.0
41.783,2.227,-0.304,2.0
59.412,3.139,1.199,34.0
59.412,3.122,0.865,32.0
59.389,3.103,0.531,32.0
59.341,3.083,0.192,21.0
51.72,2.672,-0.122,24.0
0.0,0.0,0.0,0.0
124.807,6.356,2.435,150.0
124.813,6.32,1.735,33.0
120.04,6.044,0.994,16.0
59.47,2.976,0.153,15.0
51.851,2.58,-0.157,17.0
43.696,2.161,-0.377,0.0
120.156,5.889,2.265,22.0
120.082,5.85,1.591,12.0
120.043,5.811,0.917,16.0
65.305,3.141,0.126,10.0
52.023,2.487,-0.19,6.0
43.709,2.077,-0.405,1.0
120.123,5.652,2.191,10.0
66.223,3.096,0.837,8.0
66.175,3.074,0.465,12.0
65.046,3.002,0.087,7.0
52.718,2.417,-0.224,12.0
43.894,2.0,-0.432,0.0
66.079,2.979,1.166,9.0
66.068,2.959,0.796,26.0
66.053,2.938,0.426,22.0
64.866,2.865,0.049,7.0
53.764,2.358,-0.259,1.0
0.0,0.0,0.0,0.0
63.392,2.732,1.084,8.0
63.252,2.707,0.728,8.0
66.045,2.806,0.391,25.0
58.89,2.483,0.013,16.0
54.885,2.298,-0.293,1.0
40.652,1.69,-0.444,0.0
120.14,4.937,1.992,23.0
66.204,2.7,0.728,8.0
66.068,2.673,0.358,21.0
0.0,0.0,0.0,0.0
52.893,2.107,-0.309,0.0
40.328,1.594,-0.46,0.0
120.094,4.693,1.934,15.0
119.99,4.65,1.262,18.0
71.827,2.761,0.355,7.0
58.665,2.237,-0.042,13.0
52.876,2.0,-0.333,0.0
0.0,0.0,0.0,0.0
72.443,2.684,1.134,22.0
72.376,2.657,0.73,22.0
71.717,2.611,0.323,10.0
59.338,2.141,-0.068,6.0
47.711,1.707,-0.32,0.0
38.787,1.375,-0.476,0.0
72.359,2.532,1.103,34.0
72.335,2.508,0.7,30.0
71.596,2.46,0.294,13.0
59.876,2.039,-0.092,5.0
0.0,0.0,0.0,0.0
37.676,1.258,-0.477,0.0
72.402,2.386,1.077,33.0
72.363,2.36,0.674,36.0
71.564,2.311,0.269,14.0
61.296,1.96,-0.116,4.0
0.0,0.0,0.0,0.0
37.779,1.183,-0.491,0.0
79.074,2.442,1.149,5.0
78.93,2.411,0.709,12.0
71.529,2.162,0.245,9.0
62.71,1.875,-0.139,5.0
45.613,1.348,-0.354,0.0
37.294,1.09,-0.496,0.0
76.707,2.209,1.092,8.0
78.823,2.243,0.684,10.0
71.526,2.012,0.224,14.0
64.256,1.786,-0.16,2.0
0.0,0.0,0.0,0.0
37.519,1.018,-0.509,0.0
78.907,2.109,1.102,32.0
78.872,2.082,0.665,25.0
71.555,1.864,0.207,13.0
65.872,1.696,-0.18,1.0
0.0,0.0,0.0,0.0
0.0,0.0,0.0,0.0
85.273,2.101,1.172,30.0
85.057,2.067,0.698,21.0
71.797,1.719,0.192,11.0
67.413,1.593,-0.199,0.0
48.713,1.134,-0.413,0.0
36.011,0.826,-0.504,0.0
85.251,1.919,1.155,38.0
85.221,1.891,0.684,21.0
71.967,1.572,0.179,11.0
0.0,0.0,0.0,0.0
0.0,0.0,0.0,0.0
36.356,0.757,-0.515,0.0
87.442,1.785,1.172,13.0
85.498,1.716,0.673,24.0
73.608,1.452,0.173,4.0
57.778,1.12,-0.188,0.0
45.867,0.873,-0.403,1.0
35.808,0.67,-0.512,0.0
90.407,1.654,1.201,3.0
91.817,1.649,0.713,24.0
77.488,1.365,0.174,3.0
0.0,0.0,0.0,0.0
0.0,0.0,0.0,0.0
35.462,0.588,-0.51,0.0
91.948,1.486,1.214,36.0
91.93,1.454,0.707,18.0
80.916,1.252,0.176,2.0
0.0,0.0,0.0,0.0
44.025,0.65,-0.393,0.0
0.0,0.0,0.0,0.0
98.577,1.383,1.297,33.0
98.444,1.347,0.753,16.0
81.073,1.082,0.174,2.0
0.0,0.0,0.0,0.0
43.932,0.556,-0.393,0.0
0.0,0.0,0.0,0.0
98.552,1.173,1.296,33.0
98.299,1.135,0.752,10.0
80.749,0.905,0.174,5.0
0.0,0.0,0.0,0.0
46.388,0.487,-0.414,0.0
36.367,0.369,-0.524,0.0
98.828,0.964,1.303,16.0
98.419,0.925,0.757,14.0
0.0,0.0,0.0,0.0
0.0,0.0,0.0,0.0
46.511,0.388,-0.412,0.0
35.563,0.284,-0.51,0.0
100.682,0.766,1.334,5.0
104.815,0.761,0.814,20.0
86.438,0.597,0.197,5.0
0.0,0.0,0.0,0.0
45.843,0.285,-0.402,0.0
0.0,0.0,0.0,0.0
111.101,0.609,1.484,12.0
110.895,0.57,0.874,8.0
87.812,0.419,0.211,1.0
0.0,0.0,0.0,0.0
0.0,0.0,0.0,0.0
36.443,0.134,-0.514,0.0
119.784,0.399,1.618,11.0
110.945,0.331,0.891,15.0
92.931,0.244,0.238,2.0
0.0,0.0,0.0,0.0
45.499,0.086,-0.385,1.0
0.0,0.0,0.0,0.0
111.142,0.131,1.521,17.0
110.99,0.092,0.912,9.0
95.562,0.044,0.263,2.0
0.0,0.0,0.0,0.0
45.247,-0.011,-0.373,1.0
36.69,-0.021,-0.503,0.0
112.631,-0.107,1.566,14.0
111.144,-0.147,0.939,8.0
100.099,-0.167,0.299,1.0
0.0,0.0,0.0,0.0
45.309,-0.108,-0.363,0.0
0.0,0.0,0.0,0.0
113.319,-0.351,1.605,8.0
119.701,-0.414,1.043,11.0
0.0,0.0,0.0,0.0
0.0,0.0,0.0,0.0
47.641,-0.215,-0.368,0.0
0.0,0.0,0.0,0.0
114.371,-0.597,1.654,2.0
119.704,-0.669,1.079,12.0
0.0,0.0,0.0,0.0
0.0,0.0,0.0,0.0
0.0,0.0,0.0,0.0
38.043,-0.267,-0.489,0.0
119.734,-0.881,1.771,33.0
119.674,-0.923,1.119,19.0
0.0,0.0,0.0,0.0
0.0,0.0,0.0,0.0
0.0,0.0,0.0,0.0
39.587,-0.362,-0.494,0.0
119.759,-1.134,1.816,151.0
119.757,-1.177,1.165,150.0
119.681,-1.218,0.514,2.0
0.0,0.0,0.0,0.0
48.937,-0.533,-0.326,0.0
0.0,0.0,0.0,0.0
139.197,-1.612,2.167,7.0
139.269,-1.66,1.412,17.0
0.0,0.0,0.0,0.0
0.0,0.0,0.0,0.0
0.0,0.0,0.0,0.0
0.0,0.0,0.0,0.0
138.986,-1.898,2.225,7.0
138.928,-1.945,1.47,10.0
138.816,-1.994,0.717,7.0
0.0,0.0,0.0,0.0
0.0,0.0,0.0,0.0
0.0,0.0,0.0,0.0
193.802,-3.049,3.194,8.0
139.173,-2.237,1.54,7.0
139.013,-2.285,0.786,6.0
0.0,0.0,0.0,0.0
0.0,0.0,0.0,0.0
44.926,-0.786,-0.479,0.0
193.245,-3.439,3.284,22.0
139.052,-2.525,1.611,4.0
138.89,-2.569,0.858,12.0
0.0,0.0,0.0,0.0
0.0,0.0,0.0,0.0
44.989,-0.881,-0.455,0.0
193.241,-3.842,3.391,19.0
0.0,0.0,0.0,0.0
138.899,-2.859,0.937,15.0
0.0,0.0,0.0,0.0
0.0,0.0,0.0,0.0
45.223,-0.979,-0.431,0.0
193.318,-4.238,3.505,24.0
0.0,0.0,0.0,0.0
138.892,-3.141,1.019,15.0
0.0,0.0,0.0,0.0
0.0,0.0,0.0,0.0
0.0,0.0,0.0,0.0
193.189,-4.626,3.622,25.0
0.0,0.0,0.0,0.0
138.858,-3.422,1.106,18.0
0.0,0.0,0.0,0.0
0.0,0.0,0.0,0.0
0.0,0.0,0.0,0.0
193.594,-5.026,3.757,5.0
138.628,-3.647,1.943,3.0
138.823,-3.698,1.198,25.0
0.0,0.0,0.0,0.0
0.0,0.0,0.0,0.0
48.039,-1.329,-0.365,1.0
194.932,-5.445,3.914,15.0
138.552,-3.917,2.036,11.0
138.437,-3.962,1.29,22.0
0.0,0.0,0.0,0.0
0.0,0.0,0.0,0.0
0.0,0.0,0.0,0.0
194.522,-5.817,4.046,22.0
138.61,-4.194,2.138,6.0
138.677,-4.243,1.394,21.0
0.0,0.0,0.0,0.0
0.0,0.0,0.0,0.0
0.0,0.0,0.0,0.0
194.013,-6.185,4.182,25.0
193.249,-6.228,3.128,9.0
138.597,-4.512,1.499,16.0
138.636,-4.562,0.743,3.0
0.0,0.0,0.0,0.0
0.0,0.0,0.0,0.0
187.446,-6.34,4.188,21.0
193.197,-6.599,3.28,12.0
138.557,-4.779,1.61,4.0
138.493,-4.825,0.854,10.0
0.0,0.0,0.0,0.0
0.0,0.0,0.0,0.0
193.328,-6.913,4.479,23.0
193.732,-6.99,3.45,9.0
0.0,0.0,0.0,0.0
138.521,-5.093,0.97,17.0
0.0,0.0,0.0,0.0
0.0,0.0,0.0,0.0
192.754,-7.257,4.629,22.0
0.0,0.0,0.0,0.0
0.0,0.0,0.0,0.0
138.426,-5.35,1.089,17.0
0.0,0.0,0.0,0.0
0.0,0.0,0.0,0.0
192.718,-7.618,4.798,23.0
193.585,-7.715,3.784,18.0
138.181,-5.552,1.963,17.0
138.388,-5.605,1.212,23.0
0.0,0.0,0.0,0.0
0.0,0.0,0.0,0.0
192.835,-7.978,4.977,22.0
193.28,-8.06,3.956,22.0
138.097,-5.804,2.089,113.0
138.032,-5.845,1.338,16.0
0.0,0.0,0.0,0.0
0.0,0.0,0.0,0.0
193.466,-8.357,5.175,21.0
194.81,-8.477,4.17,9.0
138.068,-6.053,2.219,123.0
138.242,-6.104,1.472,10.0
138.141,-6.144,0.734,2.0
0.0,0.0,0.0,0.0
20.142,-0.906,0.558,7.0
20.155,-0.913,0.451,3.0
193.378,-8.825,3.299,18.0
194.63,-8.945,2.265,5.0
138.123,-6.393,0.872,9.0
0.0,0.0,0.0,0.0
20.119,-0.941,0.578,24.0
20.151,-0.949,0.471,23.0
20.147,-0.955,0.364,18.0
20.151,-0.961,0.255,3.0
138.17,-6.638,1.014,16.0
20.024,-0.968,0.04,6.0
20.125,-0.977,0.598,26.0
20.125,-0.983,0.491,20.0
20.141,-0.99,0.385,25.0
20.168,-0.997,0.276,26.0
20.136,-1.002,0.168,18.0
20.001,-1.001,0.061,17.0
20.052,-1.007,0.617,15.0
19.997,-1.01,0.509,11.0
19.999,-1.017,0.403,11.0
19.98,-1.022,0.294,14.0
19.996,-1.029,0.189,18.0
19.987,-1.034,0.082,24.0
19.972,-1.037,0.636,19.0
19.966,-1.042,0.53,18.0
19.953,-1.048,0.424,16.0
19.949,-1.054,0.316,16.0
20.003,-1.063,0.211,23.0
19.988,-1.068,0.104,23.0
19.98,-1.071,0.659,19.0
19.975,-1.076,0.553,22.0
19.954,-1.081,0.446,19.0
19.939,-1.086,0.338,18.0
19.991,-1.095,0.233,21.0
20.001,-1.101,0.127,25.0
19.978,-1.103,0.681,18.0
19.964,-1.108,0.575,22.0
19.958,-1.114,0.469,22.0
19.944,-1.119,0.361,22.0
19.963,-1.125,0.256,26.0
20.025,-1.135,0.15,11.0
19.987,-1.136,0.705,18.0
19.966,-1.14,0.598,26.0
19.952,-1.145,0.492,25.0
19.949,-1.15,0.385,22.0
19.941,-1.156,0.279,21.0
20.028,-1.167,0.174,11.0
19.984,-1.167,0.729,18.0
19.957,-1.171,0.622,24.0
19.944,-1.176,0.516,22.0
19.935,-1.181,0.408,23.0
19.95,-1.187,0.303,21.0
19.989,-1.195,0.198,150.0
19.987,-1.198,0.753,16.0
19.959,-1.202,0.646,20.0
19.942,-1.206,0.54,26.0
19.936,-1.211,0.432,22.0
19.941,-1.217,0.327,24.0
19.962,-1.224,0.222,24.0
20.005,-1.229,0.778,12.0
19.951,-1.231,0.671,18.0
19.935,-1.235,0.564,25.0
19.928,-1.24,0.457,20.0
19.923,-1.245,0.351,20.0
19.962,-1.253,0.247,30.0
20.016,-1.259,0.804,9.0
19.95,-1.26,0.695,17.0
19.94,-1.265,0.59,24.0
19.907,-1.268,0.481,18.0
19.923,-1.274,0.377,18.0
19.951,-1.281,0.272,27.0
20.021,-1.288,0.829,2.0
19.963,-1.289,0.721,13.0
19.935,-1.293,0.615,14.0
19.929,-1.297,0.507,14.0
19.938,-1.303,0.402,13.0
19.937,-1.308,0.297,17.0
72.161,-4.746,3.083,11.0
20.029,-1.322,0.749,8.0
20.024,-1.326,0.643,10.0
20.088,-1.335,0.537,12.0
20.053,-1.337,0.431,5.0
20.018,-1.34,0.324,2.0
70.699,-4.745,3.112,18.0
72.171,-4.86,2.795,24.0
20.002,-1.351,0.669,11.0
20.019,-1.357,0.562,8.0
20.054,-1.364,0.457,10.0
119.407,-8.154,2.094,36.0
67.897,-4.646,3.078,61.0
67.9,-4.662,2.719,52.0
19.994,-1.377,0.695,10.0
20.008,-1.382,0.588,8.0
20.003,-1.387,0.482,9.0
20.016,-1.392,0.377,9.0
67.909,-4.735,3.17,55.0
67.903,-4.749,2.811,55.0
67.873,-4.762,2.452,10.0
20.002,-1.407,0.615,9.0
19.995,-1.411,0.509,10.0
20.001,-1.416,0.404,12.0
67.922,-4.821,3.263,65.0
67.918,-4.835,2.904,55.0
67.889,-4.847,2.545,47.0
20.018,-1.433,0.643,7.0
20.005,-1.437,0.537,8.0
20.015,-1.441,0.432,9.0
67.921,-4.903,3.356,62.0
67.918,-4.917,2.997,61.0
67.909,-4.929,2.639,59.0
72.255,-5.259,2.419,14.0
20.059,-1.464,0.566,2.0
20.038,-1.467,0.46,2.0
67.91,-4.982,3.45,66.0
67.923,-4.996,3.092,61.0
67.912,-5.008,2.733,51.0
67.894,-5.019,2.367,35.0
71.616,-5.309,2.12,28.0
72.761,-5.409,1.772,12.0
67.912,-5.058,3.544,38.0
67.925,-5.072,3.186,48.0
67.924,-5.085,2.829,54.0
67.899,-5.096,2.463,38.0
71.834,-5.404,2.228,26.0
72.801,-5.491,1.875,9.0
71.141,-5.376,3.812,9.0
67.938,-5.146,3.283,27.0
0.0,0.0,0.0,0.0
72.104,-5.487,2.717,14.0
67.917,-5.181,2.201,26.0
67.919,-5.194,1.845,47.0
67.964,-5.208,3.739,70.0
67.929,-5.216,3.379,71.0
67.926,-5.228,3.021,86.0
67.908,-5.238,2.656,87.0
67.908,-5.249,2.298,75.0
67.889,-5.26,1.94,84.0
67.958,-5.276,3.837,63.0
67.956,-5.287,3.478,44.0
67.938,-5.297,3.119,41.0
67.931,-5.307,2.754,30.0
67.916,-5.317,2.395,23.0
67.933,-5.33,2.039,8.0
0.0,0.0,0.0,0.0
71.053,-5.596,3.739,27.0
71.193,-5.618,3.371,20.0
72.172,-5.707,3.031,18.0
74.544,-5.905,2.738,3.0
72.611,-5.764,2.285,11.0
71.389,-5.678,4.237,25.0
71.465,-5.695,3.864,18.0
71.406,-5.7,3.485,29.0
71.39,-5.709,3.1,29.0
71.6,-5.736,2.733,10.0
72.454,-5.815,2.384,33.0
71.853,-5.778,4.368,16.0
71.494,-5.758,3.969,25.0
71.286,-5.752,3.582,19.0
67.939,-5.491,3.05,20.0
67.938,-5.501,2.692,48.0
67.91,-5.508,2.334,28.0
71.892,-5.842,4.476,13.0
71.461,-5.816,4.072,12.0
67.933,-5.538,3.512,32.0
67.943,-5.547,3.148,44.0
67.939,-5.555,2.79,45.0
67.923,-5.563,2.432,38.0
71.807,-5.892,4.575,15.0
71.639,-5.887,4.187,24.0
71.317,-5.869,3.792,22.0
67.95,-5.6,3.249,48.0
67.951,-5.608,2.891,53.0
67.95,-5.617,2.534,47.0
70.505,-5.84,4.597,19.0
75.548,-6.265,4.527,14.0
71.378,-5.927,3.901,11.0
67.94,-5.649,3.348,51.0
67.961,-5.659,2.992,49.0
67.948,-5.666,2.633,47.0
70.201,-5.865,4.681,44.0
71.601,-5.988,4.396,17.0
71.396,-5.979,4.007,19.0
67.947,-5.697,3.449,44.0
67.961,-5.705,3.092,60.0
67.959,-5.712,2.735,53.0
70.1,-5.904,4.779,29.0
71.527,-6.03,4.499,23.0
71.374,-6.024,4.112,20.0
67.92,-5.738,3.548,13.0
67.97,-5.749,3.193,52.0
67.97,-5.756,2.835,47.0
70.147,-5.951,4.885,30.0
71.129,-6.041,4.578,17.0
71.572,-6.084,4.228,10.0
71.227,-6.061,3.825,30.0
67.954,-5.788,3.292,47.0
67.965,-5.795,2.935,48.0
69.938,-5.975,4.975,31.0
70.792,-6.053,4.661,31.0
71.589,-6.126,4.335,14.0
70.814,-6.065,3.907,22.0
67.966,-5.826,3.391,56.0
67.964,-5.831,3.034,47.0
70.253,-6.04,5.101,18.0
70.466,-6.062,4.744,19.0
71.787,-6.181,4.453,8.0
70.617,-6.084,4.001,20.0
67.95,-5.859,3.491,30.0
67.97,-5.865,3.134,52.0
70.893,-6.13,5.252,23.0
70.518,-6.101,4.851,11.0
78.142,-6.765,4.962,5.0
70.564,-6.113,4.101,17.0
71.905,-6.233,3.8,11.0
67.969,-5.896,3.234,50.0
70.71,-6.146,5.342,12.0
70.33,-6.116,4.941,21.0
70.517,-6.135,4.581,14.0
71.409,-6.216,4.254,26.0
70.882,-6.174,3.848,18.0
67.96,-5.922,3.331,56.0
70.855,-6.188,5.456,23.0
69.92,-6.108,5.014,23.0
70.628,-6.172,4.69,27.0
71.088,-6.215,4.337,33.0
70.702,-6.184,3.94,29.0
67.966,-5.947,3.43,49.0
70.845,-6.212,5.558,16.0
69.911,-6.132,5.113,11.0
70.522,-6.187,4.785,32.0
71.019,-6.233,4.436,17.0
70.661,-6.203,4.039,18.0
67.986,-5.971,3.528,16.0
74.565,-6.562,5.958,11.0
70.724,-6.225,5.275,11.0
70.536,-6.21,4.887,47.0
71.068,-6.257,4.541,16.0
71.281,-6.278,4.177,17.0
71.257,-6.278,3.799,21.0
71.407,-6.304,5.808,10.0
70.795,-6.25,5.383,27.0
70.428,-6.218,4.98,35.0
70.791,-6.251,4.624,28.0
71.24,-6.291,4.276,22.0
70.917,-6.264,3.882,41.0
74.505,-6.594,6.167,11.0
70.715,-6.259,5.477,32.0
70.338,-6.225,5.075,31.0
70.638,-6.252,4.715,18.0
71.088,-6.291,4.368,14.0
70.755,-6.262,3.973,15.0
74.275,-6.588,6.253,23.0
70.779,-6.277,5.583,27.0
70.498,-6.252,5.186,21.0
70.537,-6.254,4.808,39.0
70.828,-6.279,4.451,20.0
71.318,-6.323,4.104,11.0
74.485,-6.618,6.376,20.0
70.951,-6.302,5.696,11.0
70.545,-6.265,5.288,26.0
70.238,-6.236,4.885,43.0
70.701,-6.276,4.542,33.0
71.411,-6.338,4.208,12.0
74.441,-6.621,6.476,6.0
74.174,-6.595,6.057,8.0
70.71,-6.285,5.398,40.0
70.154,-6.233,4.975,47.0
70.647,-6.275,4.635,11.0
71.125,-6.316,4.289,8.0
76.107,-6.774,6.727,12.0
74.007,-6.584,6.147,14.0
70.768,-6.293,5.5,25.0
70.312,-6.25,5.083,33.0
70.637,-6.276,4.731,16.0
71.08,-6.313,4.383,11.0
76.52,-6.812,6.868,10.0
74.302,-6.611,6.272,25.0
70.841,-6.3,5.602,21.0
70.393,-6.256,5.185,25.0
70.548,-6.267,4.821,36.0
70.864,-6.292,4.466,28.0
73.482,-6.54,6.696,6.0
74.451,-6.621,6.386,18.0
71.046,-6.314,5.714,10.0
70.536,-6.265,5.29,27.0
70.175,-6.229,4.888,34.0
70.67,-6.27,4.547,26.0
73.449,-6.532,6.791,18.0
0.0,0.0,0.0,0.0
74.293,-6.596,6.074,8.0
70.741,-6.276,5.398,40.0
70.165,-6.221,4.98,33.0
70.692,-6.264,4.641,12.0
73.419,-6.52,6.885,23.0
76.159,-6.758,6.733,7.0
74.429,-6.598,6.182,15.0
70.72,-6.264,5.489,31.0
70.389,-6.23,5.088,23.0
70.62,-6.247,4.727,22.0
73.528,-6.518,6.991,30.0
76.432,-6.769,6.857,5.0
0.0,0.0,0.0,0.0
70.917,-6.269,5.596,18.0
70.645,-6.239,5.197,11.0
70.481,-6.22,4.808,39.0
73.625,-6.513,7.095,31.0
80.19,-7.086,7.296,8.0
73.185,-6.46,6.267,17.0
74.527,-6.572,5.975,10.0
70.759,-6.234,5.294,17.0
70.513,-6.206,4.899,45.0
73.682,-6.5,7.194,22.0
73.553,-6.481,6.785,10.0
73.205,-6.443,6.36,8.0
74.39,-6.54,6.056,16.0
70.799,-6.218,5.384,28.0
70.087,-6.149,4.955,19.0
73.348,-6.45,7.252,9.0
73.441,-6.45,6.866,27.0
71.375,-6.261,6.289,10.0
74.502,-6.527,6.157,22.0
70.916,-6.206,5.479,21.0
69.881,-6.109,5.025,22.0
72.961,-6.393,7.302,13.0
73.553,-6.436,6.965,32.0
73.349,-6.41,6.55,10.0
71.414,-6.233,5.986,8.0
70.937,-6.183,5.565,13.0
70.003,-6.095,5.115,10.0
72.801,-6.353,7.373,10.0
73.7,-6.422,7.065,23.0
79.948,-6.956,7.233,10.0
71.343,-6.199,6.063,13.0
71.132,-6.173,5.662,8.0
70.996,-6.153,5.27,17.0
72.449,-6.293,7.422,13.0
73.833,-6.404,7.164,10.0
73.573,-6.371,6.741,11.0
71.347,-6.169,6.145,7.0
71.384,-6.164,5.763,6.0
70.802,-6.106,5.336,8.0
70.605,-6.102,7.314,13.0
73.78,-6.366,7.242,14.0
73.534,-6.335,6.82,12.0
71.528,-6.152,6.241,11.0
71.178,-6.113,5.826,6.0
70.727,-6.066,5.408,10.0
78.246,-6.726,8.192,5.0
70.278,-6.031,6.976,5.0
73.138,-6.265,6.863,15.0
71.446,-6.111,6.31,22.0
71.209,-6.081,5.905,10.0
71.03,-6.055,5.507,22.0
71.851,-6.139,7.6,8.0
70.226,-5.99,7.046,18.0
78.952,-6.722,7.493,10.0
71.505,-6.077,6.392,10.0
72.703,-6.169,6.106,9.0
70.854,-6.002,5.567,16.0
70.788,-6.009,7.562,20.0
70.227,-5.95,7.12,21.0
78.929,-6.675,7.574,4.0
72.051,-6.083,6.515,13.0
72.576,-6.116,6.17,9.0
70.426,-5.924,5.607,27.0
70.737,-5.964,7.63,43.0
70.28,-5.913,7.197,10.0
73.353,-6.16,7.113,8.0
72.893,-6.109,6.665,17.0
74.672,-6.247,6.422,8.0
70.427,-5.881,5.676,30.0
70.705,-5.917,7.698,32.0
70.336,-5.874,7.273,10.0
73.445,-6.121,7.195,30.0
0.0,0.0,0.0,0.0
74.688,-6.2,6.497,7.0
70.46,-5.838,5.746,21.0
70.494,-5.853,7.742,34.0
70.431,-5.835,7.35,29.0
73.215,-6.053,7.241,14.0
71.185,-5.873,6.645,10.0
76.086,-6.263,6.69,5.0
70.524,-5.794,5.818,14.0
70.946,-5.841,7.859,17.0
70.87,-5.823,7.462,34.0
73.136,-5.995,7.301,18.0
71.349,-5.835,6.726,11.0
72.712,-5.934,6.458,9.0
70.515,-5.743,5.88,14.0
70.136,-5.724,7.832,25.0
70.419,-5.733,7.478,12.0
73.129,-5.941,7.365,20.0
71.794,-5.819,6.831,12.0
79.522,-6.431,7.132,7.0
73.315,-5.916,6.176,7.0
70.098,-5.668,7.889,19.0
71.595,-5.775,7.664,23.0
72.93,-5.869,7.407,18.0
71.799,-5.764,6.892,19.0
70.886,-5.678,6.416,5.0
70.561,-5.639,6.002,8.0
70.044,-5.608,7.941,11.0
71.545,-5.714,7.718,35.0
71.681,-5.711,7.338,11.0
71.716,-5.7,6.942,32.0
70.9,-5.621,6.475,21.0
70.658,-5.589,6.067,19.0
70.206,-5.564,8.016,12.0
71.18,-5.626,7.735,28.0
71.677,-5.651,7.395,8.0
71.709,-5.639,6.997,23.0
70.855,-5.558,6.525,16.0
70.641,-5.528,6.118,15.0
70.441,-5.523,8.096,39.0
71.3,-5.575,7.802,25.0
71.382,-5.567,7.417,36.0
71.289,-5.545,7.008,19.0
70.76,-5.489,6.568,25.0
68.005,-5.262,5.94,67.0
70.251,-5.446,8.125,36.0
71.54,-5.531,7.879,26.0
70.522,-5.438,7.377,26.0
71.341,-5.486,7.063,6.0
68.016,-5.215,6.36,66.0
68.022,-5.203,5.987,23.0
69.481,-5.324,8.084,17.0
71.35,-5.451,7.906,33.0
70.557,-5.375,7.429,30.0
71.207,-5.41,7.097,8.0
68.029,-5.154,6.406,22.0
72.13,-5.45,6.395,13.0
69.688,-5.275,8.153,30.0
70.957,-5.355,7.908,25.0
71.024,-5.344,7.523,16.0
74.25,-5.571,7.446,3.0
71.2,-5.326,6.748,16.0
72.728,-5.426,6.492,7.0
69.774,-5.214,8.206,31.0
70.937,-5.285,7.949,33.0
70.838,-5.261,7.545,28.0
68.028,-5.037,6.863,7.0
72.829,-5.377,6.945,7.0
70.967,-5.224,6.376,13.0
69.73,-5.141,8.241,35.0
70.903,-5.211,7.986,34.0
70.954,-5.199,7.597,48.0
68.055,-4.971,6.903,22.0
73.472,-5.351,7.046,11.0
71.058,-5.16,6.422,23.0
70.346,-5.115,8.352,48.0
70.74,-5.127,8.005,25.0
0.0,0.0,0.0,0.0
68.054,-4.902,6.937,32.0
73.371,-5.267,7.073,8.0
71.749,-5.135,6.52,9.0
69.459,-4.979,8.281,33.0
70.547,-5.04,8.017,37.0
70.319,-5.007,7.599,32.0
68.042,-4.829,6.968,31.0
72.545,-5.133,7.027,16.0
72.696,-5.126,6.639,12.0
69.832,-4.931,8.357,40.0
70.43,-4.956,8.035,24.0
71.255,-4.997,7.732,11.0
68.043,-4.755,6.998,30.0
0.0,0.0,0.0,0.0
72.913,-5.063,6.689,22.0
70.048,-4.87,8.412,35.0
69.745,-4.831,7.986,30.0
71.399,-4.929,7.776,17.0
68.048,-4.681,7.025,25.0
69.665,-4.776,6.804,26.0
73.252,-5.005,6.748,24.0
70.096,-4.795,8.444,28.0
69.925,-4.766,8.031,40.0
71.04,-4.825,7.762,13.0
68.038,-4.604,7.047,19.0
69.745,-4.705,6.835,42.0
69.685,-4.684,6.441,15.0
70.643,-4.753,8.533,25.0
70.667,-4.737,8.139,48.0
70.198,-4.688,7.692,11.0
68.061,-4.529,7.07,18.0
63.995,-4.243,6.291,10.0
64.136,-4.237,5.947,20.0
71.383,-4.72,8.643,49.0
70.931,-4.673,8.189,32.0
70.143,-4.604,7.705,21.0
59.507,-3.891,6.197,31.0
64.034,-4.172,6.31,18.0
64.066,-4.159,5.956,35.0
70.264,-4.565,8.524,39.0
71.48,-4.626,8.269,25.0
70.393,-4.538,7.748,31.0
59.448,-3.817,6.204,32.0
59.372,-3.799,5.863,33.0
64.017,-4.081,5.965,34.0
69.857,-4.456,8.489,29.0
70.236,-4.463,8.139,17.0
70.477,-4.461,7.77,28.0
59.486,-3.75,6.218,33.0
59.229,-3.72,5.859,32.0
64.091,-4.009,5.982,35.0
71.895,-4.5,8.747,7.0
70.02,-4.365,8.124,30.0
59.189,-3.675,6.534,33.0
59.568,-3.684,6.235,27.0
59.033,-3.636,5.847,33.0
64.002,-3.927,5.981,27.0
65.435,-4.017,7.969,21.0
70.027,-4.28,8.132,16.0
59.043,-3.594,6.523,33.0
59.17,-3.587,6.198,33.0
59.114,-3.569,5.86,32.0
63.975,-3.848,5.983,23.0
65.203,-3.922,7.945,42.0
59.055,-3.537,6.861,23.0
59.012,-3.519,6.523,33.0
58.827,-3.494,6.165,34.0
58.724,-3.473,5.823,32.0
59.313,-3.494,5.549,22.0
64.927,-3.825,7.913,37.0
58.914,-3.456,6.846,33.0
58.785,-3.434,6.498,33.0
58.234,-3.387,6.103,32.0
58.216,-3.371,5.773,31.0
59.283,-3.419,5.545,31.0
64.766,-3.734,7.891,38.0
58.819,-3.376,6.833,33.0
58.618,-3.351,6.477,33.0
58.185,-3.311,6.095,32.0
58.121,-3.293,5.76,31.0
58.335,-3.292,5.452,32.0
64.743,-3.651,7.885,35.0
58.248,-3.27,6.763,32.0
58.794,-3.286,6.492,33.0
58.198,-3.238,6.091,32.0
58.102,-3.219,5.753,31.0
57.613,-3.178,5.379,32.0
58.095,-3.202,7.068,25.0
52.045,-2.856,6.036,21.0
58.952,-3.22,6.502,34.0
58.368,-3.174,6.101,32.0
57.974,-3.138,5.732,29.0
57.05,-3.075,5.318,31.0
52.182,-2.81,6.341,27.0
52.016,-2.788,6.024,28.0
58.391,-3.114,6.43,21.0
58.813,-3.123,6.137,33.0
57.174,-3.021,5.642,31.0
56.935,-2.995,5.296,30.0
52.14,-2.74,6.325,27.0
52.001,-2.719,6.011,21.0
58.104,-3.024,6.386,24.0
56.698,-2.937,5.903,15.0
56.752,-2.926,5.587,30.0
57.086,-2.929,5.297,31.0
52.125,-2.672,6.31,26.0
51.96,-2.65,5.993,23.0
58.168,-2.952,6.378,9.0
46.925,-2.37,4.873,21.0
56.729,-2.851,5.569,30.0
56.994,-2.851,5.272,30.0
52.173,-2.606,6.3,27.0
51.978,-2.583,5.98,34.0
