X,Y,Z,Reflectivity
0.0,0.0,0.0,0.0
139.001,-2.786,1.038,23.0
0.0,0.0,0.0,0.0
112.915,-2.202,3.305,20.0
205.803,-3.948,4.847,16.0
193.102,-3.646,3.446,24.0
0.0,0.0,0.0,0.0
139.045,-2.54,0.879,13.0
0.0,0.0,0.0,0.0
112.706,-1.995,3.167,21.0
206.536,-3.596,4.625,9.0
193.524,-3.31,3.227,11.0
139.265,-2.34,1.512,4.0
113.479,-1.874,0.585,2.0
0.0,0.0,0.0,0.0
112.752,-1.798,3.034,11.0
205.752,-3.219,4.36,15.0
138.916,-2.132,2.149,13.0
138.785,-2.088,1.339,12.0
127.362,-1.879,0.501,2.0
0.0,0.0,0.0,0.0
206.231,-2.927,5.295,9.0
194.792,-2.707,3.887,6.0
139.166,-1.892,1.98,4.0
139.154,-1.85,1.169,24.0
0.0,0.0,0.0,0.0
0.0,0.0,0.0,0.0
0.0,0.0,0.0,0.0
204.035,-2.483,3.813,6.0
0.0,0.0,0.0,0.0
119.749,-1.387,0.854,9.0
0.0,0.0,0.0,0.0
0.0,0.0,0.0,0.0
119.725,-1.286,2.767,150.0
119.763,-1.253,2.082,151.0
119.748,-1.219,1.396,150.0
119.661,-1.183,0.697,8.0
0.0,0.0,0.0,0.0
0.0,0.0,0.0,0.0
119.738,-1.084,2.609,72.0
119.748,-1.051,1.922,80.0
119.717,-1.017,1.236,18.0
0.0,0.0,0.0,0.0
0.0,0.0,0.0,0.0
0.0,0.0,0.0,0.0
119.769,-0.887,2.449,23.0
119.836,-0.856,1.764,2.0
119.68,-0.822,1.075,15.0
0.0,0.0,0.0,0.0
0.0,0.0,0.0,0.0
46.551,-0.281,-0.386,1.0
119.809,-0.692,2.285,56.0
119.774,-0.661,1.598,7.0
114.238,-0.599,0.869,7.0
0.0,0.0,0.0,0.0
0.0,0.0,0.0,0.0
45.069,-0.2,-0.437,1.0
114.547,-0.479,2.025,14.0
119.666,-0.467,1.427,13.0
111.158,-0.404,0.688,8.0
0.0,0.0,0.0,0.0
0.0,0.0,0.0,0.0
0.0,0.0,0.0,0.0
113.119,-0.292,1.836,8.0
119.757,-0.277,1.256,13.0
103.4,-0.212,0.489,1.0
0.0,0.0,0.0,0.0
48.78,-0.074,-0.334,0.0
0.0,0.0,0.0,0.0
111.07,-0.111,1.639,11.0
111.215,-0.082,1.001,7.0
95.624,-0.046,0.311,1.0
0.0,0.0,0.0,0.0
45.573,0.001,-0.38,2.0
36.036,0.01,-0.508,0.0
111.106,0.061,1.472,19.0
110.747,0.088,0.83,12.0
0.0,0.0,0.0,0.0
0.0,0.0,0.0,0.0
42.877,0.067,-0.423,1.0
34.166,0.062,-0.533,0.0
119.763,0.248,1.403,8.0
104.023,0.242,0.619,9.0
0.0,0.0,0.0,0.0
52.767,0.148,-0.297,0.0
42.806,0.131,-0.488,0.0
33.131,0.11,-0.568,0.0
111.097,0.396,1.129,18.0
94.715,0.36,0.417,2.0
0.0,0.0,0.0,0.0
48.722,0.209,-0.35,0.0
37.989,0.172,-0.492,0.0
0.0,0.0,0.0,0.0
110.947,0.559,0.951,9.0
87.438,0.462,0.245,5.0
0.0,0.0,0.0,0.0
45.82,0.263,-0.403,1.0
35.922,0.215,-0.523,0.0
0.0,0.0,0.0,0.0
104.732,0.677,0.731,10.0
85.481,0.573,0.103,1.0
0.0,0.0,0.0,0.0
42.832,0.307,-0.445,1.0
33.8,0.249,-0.546,0.0
0.0,0.0,0.0,0.0
97.659,0.768,0.524,6.0
0.0,0.0,0.0,0.0
0.0,0.0,0.0,0.0
39.301,0.335,-0.472,0.0
31.986,0.28,-0.568,0.0
27.309,0.245,-0.643,0.0
85.404,0.789,0.317,3.0
0.0,0.0,0.0,0.0
46.53,0.45,-0.363,0.0
0.0,0.0,0.0,0.0
30.568,0.309,-0.594,0.0
26.153,0.271,-0.659,0.0
80.513,0.851,0.166,4.0
0.0,0.0,0.0,0.0
42.46,0.468,-0.402,1.0
34.842,0.391,-0.534,0.0
29.021,0.332,-0.612,0.0
25.361,0.295,-0.681,0.0
9.391,-0.279,-0.902,0.0
9.048,-0.271,-0.918,0.0
8.662,-0.26,-0.926,0.0
8.282,-0.25,-0.931,0.0
7.936,-0.241,-0.935,0.0
7.664,-0.234,-0.944,0.0
9.504,-0.29,-0.902,0.0
9.123,-0.279,-0.914,0.0
8.637,-0.266,-0.912,0.0
8.369,-0.259,-0.93,0.0
8.042,-0.25,-0.937,0.0
7.668,-0.24,-0.935,0.0
9.614,-0.299,-0.9,0.0
9.164,-0.287,-0.907,0.0
8.796,-0.277,-0.918,0.0
8.358,-0.264,-0.918,0.0
8.063,-0.256,-0.929,0.0
7.782,-0.248,-0.939,0.0
9.721,-0.309,-0.898,0.0
9.31,-0.297,-0.91,0.0
8.871,-0.285,-0.914,0.0
0.0,0.0,0.0,0.0
8.2,-0.266,-0.934,0.0
7.866,-0.256,-0.939,0.0
9.828,-0.319,-0.895,0.0
9.346,-0.304,-0.901,0.0
8.984,-0.294,-0.914,0.0
0.0,0.0,0.0,0.0
8.277,-0.273,-0.932,0.0
7.915,-0.262,-0.934,0.0
9.935,-0.328,-0.891,0.0
9.492,-0.315,-0.902,0.0
9.118,-0.304,-0.915,0.0
0.0,0.0,0.0,0.0
8.329,-0.28,-0.926,0.0
8.038,-0.271,-0.937,0.0
10.088,-0.339,-0.891,0.0
9.624,-0.324,-0.901,0.0
9.215,-0.312,-0.912,0.0
8.804,-0.299,-0.919,0.0
8.447,-0.288,-0.927,0.0
8.106,-0.278,-0.933,0.0
10.225,-0.349,-0.888,0.0
9.743,-0.334,-0.898,0.0
9.37,-0.322,-0.914,0.0
8.943,-0.309,-0.921,0.0
8.538,-0.296,-0.925,0.0
8.196,-0.285,-0.932,0.0
10.318,-0.357,-0.882,0.0
9.886,-0.343,-0.897,0.0
9.433,-0.329,-0.906,0.0
9.022,-0.316,-0.916,0.0
8.623,-0.303,-0.922,0.0
8.295,-0.292,-0.931,0.0
10.487,-0.368,-0.881,0.0
10.002,-0.352,-0.893,0.0
9.537,-0.337,-0.902,0.0
9.127,-0.323,-0.913,0.0
8.825,-0.314,-0.93,0.0
8.369,-0.298,-0.927,0.0
10.641,-0.378,-0.878,0.0
10.159,-0.362,-0.892,0.0
9.675,-0.346,-0.901,0.0
9.233,-0.331,-0.909,0.0
8.863,-0.319,-0.92,0.0
8.505,-0.307,-0.929,0.0
10.826,-0.389,-0.877,0.0
10.267,-0.37,-0.886,0.0
9.784,-0.353,-0.896,0.0
9.336,-0.338,-0.905,0.0
9.011,-0.327,-0.922,0.0
8.557,-0.312,-0.921,0.0
10.963,-0.398,-0.871,0.0
10.414,-0.379,-0.882,0.0
9.901,-0.361,-0.891,0.0
9.503,-0.347,-0.907,0.0
9.081,-0.333,-0.915,0.0
8.678,-0.319,-0.92,0.0
11.12,-0.407,-0.866,0.0
10.558,-0.387,-0.878,0.0
10.095,-0.371,-0.892,0.0
9.657,-0.356,-0.906,0.0
9.217,-0.341,-0.913,0.0
8.844,-0.328,-0.924,0.0
11.288,-0.416,-0.861,0.0
10.751,-0.397,-0.876,0.0
10.219,-0.378,-0.887,0.0
9.762,-0.362,-0.9,0.0
9.298,-0.346,-0.906,0.0
8.935,-0.333,-0.918,0.0
11.485,-0.427,-0.857,0.0
10.949,-0.407,-0.875,0.0
10.393,-0.387,-0.885,0.0
9.88,-0.369,-0.894,0.0
9.482,-0.355,-0.909,0.0
9.078,-0.341,-0.918,0.0
83.592,9.145,2.822,3.0
83.479,9.145,2.344,10.0
83.366,9.145,1.867,11.0
83.24,9.143,1.383,11.0
83.155,9.146,0.91,11.0
80.012,8.813,0.422,9.0
83.039,9.183,2.738,8.0
82.961,9.186,2.265,11.0
82.877,9.188,1.79,11.0
82.756,9.187,1.309,12.0
82.644,9.187,0.838,11.0
79.971,8.902,0.357,8.0
82.545,9.226,2.655,10.0
82.495,9.231,2.184,12.0
82.385,9.23,1.711,12.0
82.3,9.232,1.234,12.0
82.188,9.231,0.765,10.0
80.029,9.0,0.29,10.0
82.115,9.271,2.571,12.0
82.045,9.273,2.102,11.0
81.935,9.271,1.632,12.0
81.836,9.27,1.157,11.0
81.765,9.274,0.691,11.0
80.868,9.183,0.223,13.0
81.692,9.311,2.488,12.0
81.598,9.31,2.02,11.0
81.533,9.313,1.554,11.0
81.415,9.31,1.08,11.0
81.326,9.311,0.616,10.0
81.104,9.296,0.152,12.0
81.245,9.345,2.402,12.0
81.202,9.35,1.938,7.0
67.755,7.81,1.231,12.0
67.641,7.805,0.836,14.0
66.403,7.67,0.443,12.0
66.374,7.676,0.065,27.0
66.365,7.7,1.902,16.0
66.358,7.707,1.524,35.0
66.345,7.713,1.144,44.0
66.333,7.719,0.76,58.0
66.35,7.729,0.382,76.0
66.349,7.737,0.004,63.0
66.331,7.76,1.84,70.0
66.321,7.766,1.461,73.0
66.319,7.773,1.083,150.0
66.336,7.782,0.698,60.0
66.344,7.791,0.319,42.0
66.367,7.802,-0.058,24.0
66.333,7.822,1.777,39.0
66.352,7.831,1.398,35.0
66.438,7.848,1.021,24.0
66.521,7.865,0.636,17.0
66.503,7.87,0.256,12.0
66.292,7.854,-0.122,7.0
66.445,7.895,1.714,16.0
66.388,7.894,1.334,16.0
66.301,7.89,0.954,15.0
66.237,7.89,0.568,17.0
66.174,7.889,0.19,10.0
45.774,5.462,-0.129,4.0
66.121,7.912,1.641,18.0
66.043,7.909,1.262,15.0
65.969,7.906,0.883,13.0
65.926,7.907,0.499,17.0
65.88,7.909,0.123,7.0
45.458,5.462,-0.174,13.0
65.822,7.929,1.567,15.0
65.725,7.923,1.189,14.0
65.682,7.924,0.813,15.0
65.625,7.923,0.431,22.0
65.526,7.917,0.056,8.0
42.708,5.165,-0.207,14.0
65.525,7.944,1.493,15.0
65.436,7.938,1.117,15.0
65.377,7.936,0.742,16.0
65.323,7.935,0.362,21.0
65.254,7.933,-0.011,11.0
41.681,5.071,-0.245,17.0
65.246,7.956,1.42,16.0
65.184,7.953,1.045,15.0
65.108,7.949,0.672,17.0
65.054,7.948,0.292,20.0
64.994,7.946,-0.079,8.0
40.515,4.957,-0.281,16.0
64.976,7.967,1.345,16.0
64.962,7.97,0.973,17.0
64.869,7.963,0.601,17.0
64.807,7.96,0.222,15.0
45.797,5.629,-0.104,10.0
39.959,4.915,-0.319,18.0
64.769,7.982,1.272,17.0
64.692,7.976,0.901,17.0
64.64,7.974,0.53,17.0
64.573,7.971,0.153,10.0
45.697,5.644,-0.152,15.0
39.241,4.85,-0.355,23.0
119.771,-0.674,2.599,8.0
119.81,-0.698,1.976,7.0
119.698,-0.721,1.353,17.0
111.035,-0.689,0.666,3.0
0.0,0.0,0.0,0.0
0.0,0.0,0.0,0.0
194.393,-1.319,4.566,11.0
194.649,-1.357,3.56,16.0
119.736,-0.858,1.569,14.0
119.731,-0.88,0.935,13.0
0.0,0.0,0.0,0.0
0.0,0.0,0.0,0.0
119.722,-0.947,3.029,112.0
119.745,-0.969,2.408,82.0
119.75,-0.991,1.787,97.0
119.692,-1.012,1.154,21.0
116.407,-1.005,0.518,1.0
79.095,-0.697,-0.057,0.0
119.717,-1.079,3.251,150.0
119.73,-1.099,2.628,150.0
119.76,-1.12,2.007,150.0
119.729,-1.14,1.373,150.0
119.752,-1.162,0.755,123.0
0.0,0.0,0.0,0.0
210.075,-2.115,6.093,6.0
119.741,-1.226,2.853,16.0
119.732,-1.246,2.23,12.0
119.715,-1.265,1.597,8.0
139.267,-1.496,1.138,21.0
0.0,0.0,0.0,0.0
210.123,-2.331,6.486,8.0
209.084,-2.354,5.372,13.0
0.0,0.0,0.0,0.0
139.16,-1.611,2.119,4.0
139.293,-1.635,1.399,11.0
127.611,-1.517,0.62,1.0
210.246,-2.539,6.883,18.0
209.126,-2.559,5.764,11.0
210.61,-2.608,4.712,9.0
204.245,-2.561,3.491,22.0
0.0,0.0,0.0,0.0
139.108,-1.789,0.942,18.0
190.486,-2.483,6.598,11.0
0.0,0.0,0.0,0.0
0.0,0.0,0.0,0.0
0.0,0.0,0.0,0.0
139.051,-1.895,1.924,8.0
138.841,-1.912,1.203,14.0
190.549,-2.658,6.963,21.0
209.567,-2.954,6.575,11.0
113.142,-1.611,2.963,19.0
206.075,-2.963,4.311,8.0
138.927,-2.017,2.187,2.0
138.903,-2.036,1.469,3.0
106.539,-1.58,4.097,12.0
112.768,-1.688,3.753,3.0
112.562,-1.7,3.164,10.0
205.785,-3.135,4.698,8.0
193.877,-2.98,3.425,6.0
0.0,0.0,0.0,0.0
106.509,-1.671,4.303,12.0
112.774,-1.783,3.971,16.0
112.947,-1.8,3.394,5.0
112.656,-1.81,2.791,13.0
193.972,-3.142,3.805,9.0
139.063,-2.268,2.007,7.0
95.599,-1.576,4.046,11.0
112.7,-1.872,4.187,14.0
112.791,-1.887,3.608,15.0
112.677,-1.899,3.01,23.0
206.514,-3.504,4.448,7.0
193.538,-3.307,3.169,19.0
81.763,-1.411,3.62,9.0
106.525,-1.851,4.165,9.0
112.645,-1.97,3.822,28.0
112.856,-1.986,3.234,20.0
205.985,-3.649,4.839,14.0
193.423,-3.447,3.545,22.0
81.659,-1.47,3.775,30.0
106.738,-1.932,4.382,10.0
112.643,-2.051,4.041,24.0
113.138,-2.072,3.463,15.0
112.806,-2.078,2.871,24.0
193.62,-3.587,3.929,17.0
81.628,-1.526,3.933,11.0
95.836,-1.801,4.121,20.0
190.444,-3.597,7.205,23.0
112.492,-2.135,3.662,24.0
112.746,-2.152,3.089,22.0
205.51,-3.941,4.568,8.0
82.035,-1.587,4.113,24.0
81.572,-1.586,3.668,14.0
189.811,-3.706,7.551,49.0
112.686,-2.211,3.89,19.0
112.705,-2.22,3.307,26.0
205.823,-4.074,4.977,7.0
41.271,2.031,4.182,24.0
40.987,2.016,3.914,36.0
40.239,1.978,3.608,41.0
40.499,1.989,3.391,33.0
40.431,1.985,3.151,36.0
40.661,1.995,2.933,39.0
40.956,2.019,4.084,41.0
40.976,2.019,3.847,35.0
40.48,1.993,3.564,28.0
40.375,1.986,3.316,34.0
40.657,1.999,3.103,27.0
40.694,2.0,2.869,39.0
40.806,2.014,4.002,35.0
40.484,1.996,3.734,43.0
40.689,2.005,3.516,20.0
40.255,1.982,3.24,39.0
40.551,1.995,3.028,41.0
40.799,2.006,2.81,40.0
40.809,2.015,3.935,38.0
40.271,1.986,3.648,41.0
40.594,2.0,3.441,29.0
40.291,1.984,3.176,36.0
40.633,1.999,2.967,38.0
40.852,2.008,2.747,40.0
41.033,2.025,3.888,37.0
40.359,1.99,3.589,36.0
40.428,1.991,3.359,34.0
40.587,1.997,3.132,27.0
40.661,1.999,2.901,40.0
41.001,2.014,2.688,44.0
40.655,2.004,3.784,35.0
40.646,2.001,3.545,18.0
40.314,1.983,3.282,35.0
40.57,1.993,3.062,35.0
40.773,2.001,2.841,40.0
41.001,2.01,2.619,42.0
40.329,1.984,3.685,45.0
40.453,1.987,3.46,31.0
40.244,1.975,3.208,45.0
40.608,1.99,2.997,39.0
40.81,1.997,2.774,40.0
40.957,2.002,2.546,42.0
40.24,1.974,3.608,40.0
40.516,1.984,3.396,37.0
40.446,1.978,3.155,35.0
40.725,1.989,2.935,40.0
40.914,1.996,2.711,43.0
41.164,2.006,2.489,16.0
40.264,1.967,3.54,37.0
40.35,1.968,3.312,34.0
40.525,1.974,3.091,38.0
40.773,1.983,2.868,36.0
41.002,1.992,2.646,48.0
41.73,2.024,2.451,34.0
40.225,1.956,3.467,43.0
40.256,1.954,3.235,39.0
40.559,1.966,3.023,45.0
40.827,1.976,2.801,43.0
40.982,1.98,2.574,39.0
41.729,2.014,2.378,42.0
40.428,1.955,3.413,38.0
40.259,1.944,3.165,46.0
40.776,1.965,2.968,31.0
40.865,1.967,2.732,46.0
40.939,1.967,2.5,38.0
41.768,2.003,2.308,21.0
40.6,1.951,3.357,16.0
40.444,1.94,3.108,36.0
40.828,1.955,2.9,38.0
41.018,1.96,2.671,42.0
41.718,1.991,2.474,16.0
52.846,2.517,2.828,19.0
40.453,1.93,3.273,28.0
40.545,1.931,3.045,33.0
40.753,1.937,2.823,37.0
41.022,1.946,2.598,43.0
41.743,1.976,2.402,30.0
59.482,2.811,3.078,16.0
40.332,1.909,3.191,45.0
40.547,1.915,2.972,35.0
40.857,1.926,2.757,44.0
44.681,2.101,2.751,3.0
41.78,1.961,2.33,34.0
59.507,2.787,2.974,21.0
40.391,1.894,3.124,37.0
40.743,1.906,2.914,38.0
41.011,1.914,2.694,42.0
41.988,1.956,2.511,27.0
59.5,2.766,3.213,7.0
59.59,2.764,2.872,3.0
40.385,1.875,3.052,43.0
40.81,1.89,2.846,41.0
40.973,1.893,2.619,46.0
59.45,2.74,3.449,12.0
53.002,2.437,2.767,5.0
52.655,2.416,2.445,10.0
40.545,1.861,2.991,44.0
40.887,1.872,2.778,46.0
41.076,1.876,2.552,33.0
59.482,2.711,3.345,16.0
65.868,2.994,3.322,12.0
52.625,2.386,2.349,17.0
40.698,1.846,2.93,43.0
41.073,1.858,2.717,34.0
41.888,1.89,2.528,16.0
52.972,2.383,2.884,6.0
65.926,2.959,3.207,14.0
52.587,2.354,2.254,18.0
40.924,1.832,2.872,28.0
41.08,1.834,2.644,40.0
42.122,1.875,2.467,6.0
52.934,2.349,2.787,8.0
66.028,2.922,3.094,15.0
52.536,2.319,2.158,20.0
41.121,1.814,2.812,32.0
41.353,1.819,2.587,35.0
52.954,2.322,3.005,5.0
65.994,2.886,3.357,11.0
65.991,2.878,2.974,10.0
66.035,2.871,2.593,16.0
41.216,1.791,2.745,35.0
42.077,1.822,2.557,38.0
65.826,2.842,3.619,15.0
65.953,2.838,3.237,9.0
65.978,2.831,2.856,12.0
66.021,2.824,2.476,26.0
41.061,1.755,2.661,38.0
44.81,1.909,2.644,10.0
65.891,2.797,3.506,34.0
65.962,2.792,3.121,20.0
65.988,2.783,2.74,22.0
66.028,2.776,2.36,30.0
44.809,1.881,2.824,9.0
65.849,2.755,3.769,33.0
65.829,2.744,3.385,41.0
65.982,2.741,3.004,28.0
66.026,2.734,2.624,31.0
66.073,2.726,2.244,30.0
44.799,1.845,2.743,22.0
65.714,2.696,3.642,41.0
65.85,2.692,3.269,15.0
66.07,2.691,2.891,22.0
66.072,2.681,2.508,26.0
66.17,2.676,2.129,9.0
44.858,1.81,2.667,26.0
65.93,2.65,3.538,27.0
52.833,2.115,2.529,5.0
66.112,2.637,2.776,28.0
66.184,2.629,2.396,14.0
194.887,7.712,5.928,21.0
65.863,2.6,3.8,34.0
78.586,3.089,4.078,7.0
66.177,2.591,3.051,18.0
66.189,2.581,2.662,26.0
190.811,7.411,6.574,21.0
195.197,7.55,5.596,20.0
64.651,2.494,3.617,21.0
66.093,2.538,3.314,34.0
66.173,2.531,2.936,22.0
190.708,7.262,7.34,13.0
210.82,7.992,6.894,10.0
120.061,4.531,3.232,11.0
0.0,0.0,0.0,0.0
66.262,2.481,3.207,27.0
72.526,2.703,3.09,24.0
72.502,2.691,2.664,6.0
72.515,2.678,2.245,20.0
72.48,2.665,1.825,24.0
66.301,2.429,3.478,26.0
72.45,2.641,3.381,29.0
72.474,2.629,2.963,30.0
72.428,2.614,2.534,34.0
72.424,2.602,2.116,33.0
72.399,2.589,1.698,27.0
72.327,2.576,3.668,17.0
72.401,2.565,3.253,38.0
72.407,2.552,2.835,41.0
72.393,2.539,2.41,38.0
72.374,2.525,1.992,32.0
72.369,2.513,1.574,32.0
72.331,2.499,3.545,25.0
72.382,2.487,3.129,37.0
72.399,2.474,2.711,36.0
72.403,2.461,2.286,41.0
72.395,2.447,1.867,36.0
72.384,2.433,1.449,33.0
72.372,2.42,3.422,31.0
72.433,2.409,3.006,35.0
72.451,2.395,2.588,31.0
72.468,2.382,2.163,35.0
72.467,2.367,1.744,33.0
72.449,2.354,1.327,31.0
47.702,-3.899,-0.197,7.0
35.651,-2.925,-0.342,27.0
29.54,-2.434,-0.445,26.0
25.604,-2.118,-0.528,3.0
24.951,-2.073,-0.652,1.0
22.466,-1.874,-0.709,0.0
45.647,-3.81,-0.17,13.0
35.665,-2.989,-0.328,46.0
29.216,-2.458,-0.428,8.0
25.758,-2.176,-0.521,3.0
23.57,-1.999,-0.606,2.0
22.662,-1.93,-0.706,0.0
0.0,0.0,0.0,0.0
35.652,-3.048,-0.313,2.0
29.798,-2.558,-0.424,18.0
25.69,-2.213,-0.508,20.0
22.619,-1.957,-0.571,2.0
22.196,-1.928,-0.682,1.0
47.08,-4.09,-0.135,22.0
41.059,-3.58,-0.341,1.0
29.863,-2.613,-0.411,151.0
25.084,-2.203,-0.485,23.0
22.823,-2.012,-0.565,4.0
20.959,-1.855,-0.633,1.0
47.579,-4.213,-0.112,22.0
39.184,-3.481,-0.306,4.0
29.854,-2.662,-0.396,14.0
25.498,-2.282,-0.479,15.0
22.975,-2.064,-0.557,12.0
20.288,-1.829,-0.603,2.0
48.079,-4.335,-0.089,23.0
37.926,-3.431,-0.276,4.0
29.865,-2.711,-0.38,17.0
27.124,-2.471,-0.495,7.0
22.451,-2.052,-0.532,21.0
20.398,-1.871,-0.595,2.0
0.0,0.0,0.0,0.0
0.0,0.0,0.0,0.0
29.86,-2.758,-0.363,16.0
23.626,-2.19,-0.418,0.0
22.561,-2.098,-0.522,20.0
20.653,-1.927,-0.59,4.0
48.541,-4.53,-0.034,21.0
0.0,0.0,0.0,0.0
29.891,-2.808,-0.346,1.0
23.618,-2.226,-0.404,0.0
22.789,-2.155,-0.514,18.0
20.155,-1.912,-0.564,16.0
48.972,-4.646,-0.004,12.0
41.005,-3.902,-0.226,16.0
35.368,-3.376,-0.387,12.0
29.121,-2.789,-0.48,1.0
23.036,-2.213,-0.505,20.0
19.949,-1.922,-0.545,18.0
0.0,0.0,0.0,0.0
41.964,-4.056,-0.204,17.0
35.472,-3.439,-0.365,18.0
23.699,-2.305,-0.375,1.0
23.164,-2.26,-0.492,24.0
20.395,-1.996,-0.544,18.0
50.759,-4.967,0.062,20.0
42.781,-4.199,-0.179,19.0
35.636,-3.508,-0.342,17.0
23.679,-2.338,-0.358,1.0
23.516,-2.329,-0.483,28.0
20.768,-2.063,-0.539,20.0
51.483,-5.113,0.098,9.0
43.725,-4.355,-0.152,19.0
36.175,-3.613,-0.321,13.0
29.776,-2.982,-0.429,15.0
23.518,-2.362,-0.466,19.0
21.298,-2.145,-0.537,20.0
51.486,-5.186,0.137,2.0
44.467,-4.492,-0.122,19.0
37.09,-3.757,-0.302,16.0
29.951,-3.042,-0.409,22.0
23.547,-2.398,-0.449,27.0
21.446,-2.19,-0.525,23.0
55.047,-5.622,0.188,1.0
45.535,-4.663,-0.089,20.0
38.461,-3.948,-0.284,14.0
30.139,-3.102,-0.388,27.0
23.54,-2.429,-0.43,9.0
21.612,-2.236,-0.512,24.0
33.154,-3.431,0.139,0.0
33.137,-3.438,-0.039,63.0
33.106,-3.443,-0.217,70.0
30.394,-3.169,-0.367,19.0
23.567,-2.464,-0.412,0.0
22.022,-2.308,-0.504,20.0
33.123,-3.471,0.166,74.0
33.093,-3.476,-0.012,78.0
33.095,-3.485,-0.19,79.0
0.0,0.0,0.0,0.0
25.683,-2.718,-0.427,4.0
22.304,-2.366,-0.492,25.0
15.654,0.24,-0.796,0.0
14.46,0.222,-0.82,0.0
13.382,0.205,-0.836,0.0
12.353,0.19,-0.846,0.0
11.467,0.176,-0.852,0.0
10.832,0.166,-0.868,0.0
15.25,0.231,-0.804,0.0
14.072,0.213,-0.824,0.0
13.066,0.198,-0.842,0.0
11.992,0.182,-0.844,0.0
11.297,0.171,-0.861,0.0
10.631,0.161,-0.873,0.0
14.793,0.222,-0.808,0.0
13.784,0.206,-0.833,0.0
12.65,0.189,-0.839,0.0
11.71,0.175,-0.846,0.0
11.144,0.166,-0.87,0.0
10.393,0.155,-0.873,0.0
14.445,0.213,-0.816,0.0
13.461,0.198,-0.839,0.0
12.352,0.182,-0.842,0.0
11.461,0.168,-0.85,0.0
10.843,0.159,-0.867,0.0
10.255,0.15,-0.88,0.0
14.148,0.205,-0.825,0.0
13.055,0.189,-0.838,0.0
12.076,0.174,-0.845,0.0
11.325,0.163,-0.86,0.0
10.671,0.154,-0.873,0.0
10.133,0.146,-0.889,0.0
13.728,0.194,-0.826,0.0
12.617,0.178,-0.833,0.0
11.761,0.166,-0.845,0.0
11.156,0.157,-0.868,0.0
10.429,0.147,-0.873,0.0
9.949,0.14,-0.891,0.0
13.493,0.186,-0.837,0.0
12.365,0.17,-0.839,0.0
11.526,0.158,-0.849,0.0
10.883,0.149,-0.867,0.0
10.318,0.141,-0.882,0.0
9.824,0.134,-0.897,0.0
13.19,0.177,-0.842,0.0
12.139,0.163,-0.845,0.0
11.346,0.152,-0.856,0.0
10.665,0.142,-0.868,0.0
10.161,0.135,-0.887,0.0
9.684,0.128,-0.902,0.0
12.853,0.167,-0.843,0.0
11.765,0.153,-0.84,0.0
11.213,0.145,-0.866,0.0
10.453,0.135,-0.87,0.0
10.004,0.129,-0.891,0.0
9.496,0.122,-0.901,0.0
12.485,0.157,-0.841,0.0
11.584,0.145,-0.847,0.0
10.926,0.136,-0.863,0.0
10.337,0.129,-0.878,0.0
9.834,0.122,-0.893,0.0
9.293,0.115,-0.898,0.0
12.234,0.148,-0.845,0.0
11.396,0.137,-0.853,0.0
10.728,0.129,-0.866,0.0
10.204,0.122,-0.884,0.0
9.756,0.116,-0.902,0.0
9.194,0.109,-0.905,0.0
11.898,0.138,-0.842,0.0
11.269,0.13,-0.863,0.0
10.554,0.121,-0.87,0.0
10.023,0.114,-0.885,0.0
9.592,0.109,-0.904,0.0
9.081,0.103,-0.909,0.0
11.659,0.129,-0.844,0.0
11.059,0.121,-0.865,0.0
10.416,0.114,-0.876,0.0
9.884,0.107,-0.89,0.0
9.398,0.101,-0.901,0.0
8.958,0.096,-0.911,0.0
11.459,0.12,-0.848,0.0
10.837,0.113,-0.865,0.0
10.282,0.106,-0.881,0.0
9.752,0.1,-0.894,0.0
9.249,0.094,-0.902,0.0
8.873,0.09,-0.917,0.0
11.329,0.112,-0.857,0.0
10.648,0.104,-0.867,0.0
10.145,0.099,-0.886,0.0
9.675,0.093,-0.902,0.0
9.153,0.088,-0.907,0.0
8.748,0.083,-0.918,0.0
11.151,0.103,-0.861,0.0
10.477,0.096,-0.87,0.0
9.983,0.091,-0.887,0.0
9.471,0.085,-0.898,0.0
9.083,0.081,-0.914,0.0
8.636,0.076,-0.92,0.0
10.938,0.094,-0.862,0.0
10.351,0.088,-0.876,0.0
9.846,0.083,-0.89,0.0
9.398,0.078,-0.906,0.0
8.949,0.074,-0.915,0.0
8.511,0.069,-0.92,0.0
10.756,0.085,-0.864,0.0
10.213,0.079,-0.879,0.0
9.711,0.075,-0.893,0.0
9.252,0.07,-0.906,0.0
8.81,0.066,-0.914,0.0
8.397,0.062,-0.92,0.0
10.62,0.076,-0.869,0.0
10.094,0.071,-0.884,0.0
9.621,0.067,-0.899,0.0
9.114,0.063,-0.905,0.0
8.731,0.059,-0.918,0.0
8.34,0.056,-0.926,0.0
10.431,0.067,-0.868,0.0
9.96,0.063,-0.887,0.0
9.466,0.059,-0.898,0.0
9.022,0.055,-0.909,0.0
0.0,0.0,0.0,0.0
8.228,0.049,-0.925,0.0
10.346,0.058,-0.876,0.0
9.862,0.054,-0.892,0.0
9.3,0.05,-0.895,0.0
8.897,0.047,-0.909,0.0
8.539,0.044,-0.923,0.0
8.108,0.041,-0.923,0.0
10.236,0.049,-0.881,0.0
9.718,0.046,-0.892,0.0
9.2,0.042,-0.898,0.0
8.822,0.04,-0.914,0.0
8.433,0.037,-0.923,0.0
8.04,0.034,-0.927,0.0
10.082,0.04,-0.881,0.0
9.652,0.037,-0.899,0.0
9.196,0.034,-0.91,0.0
8.745,0.032,-0.918,0.0
8.328,0.029,-0.922,0.0
7.995,0.027,-0.932,0.0
9.979,0.031,-0.885,0.0
9.511,0.029,-0.899,0.0
9.059,0.026,-0.909,0.0
0.0,0.0,0.0,0.0
8.265,0.022,-0.926,0.0
7.909,0.02,-0.933,0.0
9.862,0.022,-0.887,0.0
9.434,0.02,-0.904,0.0
8.917,0.018,-0.906,0.0
0.0,0.0,0.0,0.0
8.185,0.014,-0.928,0.0
7.805,0.013,-0.93,0.0
9.752,0.013,-0.89,0.0
9.31,0.011,-0.903,0.0
8.878,0.01,-0.913,0.0
8.427,0.008,-0.916,0.0
8.08,0.007,-0.926,0.0
7.797,0.005,-0.939,0.0
9.664,0.004,-0.893,0.0
9.211,0.003,-0.905,0.0
8.853,0.001,-0.921,0.0
8.389,0.0,-0.922,0.0
8.07,0.0,-0.934,0.0
7.713,-0.001,-0.938,0.0
9.603,-0.004,-0.899,0.0
9.157,-0.005,-0.91,0.0
8.804,-0.006,-0.926,0.0
8.351,-0.007,-0.928,0.0
7.953,-0.008,-0.93,0.0
7.587,-0.008,-0.931,0.0
9.449,-0.013,-0.895,0.0
9.07,-0.014,-0.911,0.0
8.632,-0.014,-0.917,0.0
0.0,0.0,0.0,0.0
7.943,-0.015,-0.937,0.0
7.586,-0.016,-0.939,0.0
9.359,-0.022,-0.897,0.0
8.979,-0.022,-0.912,0.0
8.543,-0.023,-0.917,0.0
0.0,0.0,0.0,0.0
7.826,-0.023,-0.932,0.0
7.502,-0.023,-0.937,0.0
9.332,-0.031,-0.904,0.0
8.899,-0.031,-0.913,0.0
8.464,-0.031,-0.918,0.0
8.138,-0.031,-0.93,0.0
7.724,-0.03,-0.928,0.0
7.482,-0.031,-0.942,0.0
9.264,-0.04,-0.906,0.0
8.804,-0.04,-0.912,0.0
8.428,-0.039,-0.922,0.0
8.017,-0.039,-0.924,0.0
7.778,-0.039,-0.942,0.0
7.421,-0.038,-0.942,0.0
9.155,-0.05,-0.905,0.0
8.784,-0.049,-0.919,0.0
8.359,-0.048,-0.922,0.0
8.026,-0.047,-0.933,0.0
7.686,-0.046,-0.938,0.0
7.357,-0.045,-0.941,0.0
9.063,-0.059,-0.904,0.0
8.677,-0.057,-0.915,0.0
8.274,-0.056,-0.921,0.0
7.973,-0.055,-0.934,0.0
7.605,-0.054,-0.935,0.0
7.312,-0.053,-0.941,0.0
9.031,-0.068,-0.909,0.0
8.683,-0.067,-0.924,0.0
8.224,-0.065,-0.922,0.0
7.906,-0.063,-0.933,0.0
7.581,-0.062,-0.939,0.0
7.304,-0.061,-0.947,0.0
8.951,-0.077,-0.908,0.0
8.568,-0.075,-0.919,0.0
8.18,-0.073,-0.924,0.0
7.791,-0.071,-0.926,0.0
7.54,-0.07,-0.94,0.0
7.258,-0.069,-0.947,0.0
8.93,-0.087,-0.913,0.0
8.5,-0.084,-0.918,0.0
8.163,-0.082,-0.929,0.0
0.0,0.0,0.0,0.0
7.508,-0.078,-0.942,0.0
7.192,-0.076,-0.944,0.0
8.808,-0.095,-0.907,0.0
8.421,-0.093,-0.916,0.0
8.087,-0.09,-0.926,0.0
7.772,-0.088,-0.935,0.0
7.4,-0.085,-0.933,0.0
7.189,-0.084,-0.948,0.0
8.794,-0.105,-0.912,0.0
8.385,-0.102,-0.918,0.0
8.07,-0.099,-0.93,0.0
0.0,0.0,0.0,0.0
0.0,0.0,0.0,0.0
7.134,-0.092,-0.946,0.0
8.781,-0.115,-0.917,0.0
8.358,-0.111,-0.92,0.0
7.975,-0.107,-0.924,0.0
0.0,0.0,0.0,0.0
0.0,0.0,0.0,0.0
7.088,-0.099,-0.944,0.0
8.687,-0.123,-0.912,0.0
8.311,-0.12,-0.92,0.0
7.966,-0.116,-0.928,0.0
0.0,0.0,0.0,0.0
7.349,-0.11,-0.941,0.0
7.047,-0.107,-0.943,0.0
8.678,-0.133,-0.916,0.0
8.255,-0.128,-0.919,0.0
7.945,-0.125,-0.93,0.0
0.0,0.0,0.0,0.0
7.372,-0.119,-0.948,0.0
7.07,-0.115,-0.95,0.0
8.598,-0.142,-0.912,0.0
8.213,-0.137,-0.918,0.0
7.905,-0.134,-0.929,0.0
0.0,0.0,0.0,0.0
7.256,-0.125,-0.937,0.0
7.067,-0.123,-0.953,0.0
8.583,-0.152,-0.915,0.0
8.235,-0.147,-0.925,0.0
7.882,-0.142,-0.93,0.0
0.0,0.0,0.0,0.0
7.266,-0.134,-0.942,0.0
7.0,-0.131,-0.948,0.0
8.585,-0.162,-0.919,0.0
8.225,-0.156,-0.927,0.0
7.809,-0.15,-0.925,0.0
7.523,-0.146,-0.935,0.0
0.0,0.0,0.0,0.0
6.999,-0.139,-0.95,0.0
8.533,-0.171,-0.917,0.0
8.181,-0.165,-0.926,0.0
7.825,-0.16,-0.93,0.0
0.0,0.0,0.0,0.0
7.244,-0.151,-0.945,0.0
6.956,-0.146,-0.947,0.0
8.512,-0.18,-0.918,0.0
8.167,-0.175,-0.927,0.0
7.84,-0.169,-0.934,0.0
0.0,0.0,0.0,0.0
7.233,-0.159,-0.945,0.0
6.954,-0.154,-0.949,0.0
8.464,-0.189,-0.915,0.0
8.148,-0.184,-0.927,0.0
7.79,-0.177,-0.931,0.0
0.0,0.0,0.0,0.0
7.213,-0.167,-0.945,0.0
0.0,0.0,0.0,0.0
8.659,-0.359,-0.92,0.0
8.271,-0.345,-0.924,0.0
7.986,-0.335,-0.937,0.0
7.65,-0.322,-0.941,0.0
7.356,-0.311,-0.946,0.0
7.043,-0.3,-0.945,0.0
8.723,-0.371,-0.922,0.0
8.283,-0.354,-0.922,0.0
7.99,-0.343,-0.933,0.0
0.0,0.0,0.0,0.0
7.346,-0.318,-0.941,0.0
7.116,-0.31,-0.951,0.0
8.69,-0.378,-0.914,0.0
8.344,-0.365,-0.924,0.0
8.0,-0.351,-0.93,0.0
0.0,0.0,0.0,0.0
7.408,-0.328,-0.944,0.0
7.127,-0.317,-0.948,0.0
8.762,-0.39,-0.916,0.0
8.407,-0.376,-0.926,0.0
8.043,-0.361,-0.93,0.0
7.661,-0.345,-0.929,0.0
7.397,-0.335,-0.938,0.0
7.152,-0.325,-0.947,0.0
8.775,-0.399,-0.912,0.0
8.395,-0.383,-0.919,0.0
8.088,-0.371,-0.93,0.0
0.0,0.0,0.0,0.0
7.496,-0.347,-0.946,0.0
7.214,-0.335,-0.95,0.0
8.851,-0.411,-0.914,0.0
8.496,-0.396,-0.924,0.0
8.084,-0.378,-0.924,0.0
0.0,0.0,0.0,0.0
7.499,-0.354,-0.941,0.0
7.211,-0.342,-0.944,0.0
8.906,-0.421,-0.913,0.0
8.522,-0.405,-0.921,0.0
8.183,-0.39,-0.929,0.0
7.875,-0.377,-0.938,0.0
7.559,-0.363,-0.942,0.0
7.271,-0.351,-0.947,0.0
8.927,-0.43,-0.909,0.0
8.559,-0.414,-0.918,0.0
8.199,-0.398,-0.924,0.0
7.88,-0.384,-0.933,0.0
7.587,-0.372,-0.94,0.0
7.34,-0.361,-0.95,0.0
8.973,-0.44,-0.906,0.0
8.681,-0.428,-0.924,0.0
8.321,-0.412,-0.931,0.0
7.9,-0.392,-0.928,0.0
7.647,-0.381,-0.941,0.0
7.326,-0.367,-0.942,0.0
9.096,-0.454,-0.911,0.0
8.656,-0.434,-0.914,0.0
8.337,-0.419,-0.926,0.0
7.938,-0.401,-0.926,0.0
7.694,-0.39,-0.94,0.0
7.398,-0.376,-0.944,0.0
9.119,-0.463,-0.905,0.0
8.773,-0.447,-0.919,0.0
8.427,-0.431,-0.929,0.0
7.989,-0.41,-0.925,0.0
0.0,0.0,0.0,0.0
7.462,-0.385,-0.946,0.0
9.203,-0.474,-0.905,0.0
8.851,-0.458,-0.919,0.0
8.426,-0.437,-0.921,0.0
8.064,-0.42,-0.926,0.0
0.0,0.0,0.0,0.0
7.517,-0.394,-0.945,0.0
9.309,-0.487,-0.907,0.0
8.931,-0.469,-0.919,0.0
8.478,-0.446,-0.918,0.0
8.164,-0.431,-0.929,0.0
7.849,-0.416,-0.936,0.0
7.55,-0.401,-0.942,0.0
9.375,-0.497,-0.904,0.0
8.963,-0.477,-0.913,0.0
8.564,-0.457,-0.919,0.0
8.201,-0.439,-0.925,0.0
7.908,-0.425,-0.935,0.0
7.583,-0.409,-0.938,0.0
9.419,-0.506,-0.899,0.0
9.053,-0.488,-0.913,0.0
8.668,-0.469,-0.921,0.0
8.257,-0.448,-0.923,0.0
7.979,-0.434,-0.935,0.0
7.62,-0.416,-0.935,0.0
9.584,-0.522,-0.904,0.0
9.094,-0.496,-0.907,0.0
8.746,-0.479,-0.92,0.0
8.382,-0.46,-0.928,0.0
8.027,-0.442,-0.932,0.0
7.742,-0.428,-0.941,0.0
9.654,-0.532,-0.9,0.0
9.193,-0.508,-0.907,0.0
8.838,-0.489,-0.92,0.0
8.439,-0.469,-0.925,0.0
8.111,-0.452,-0.933,0.0
7.814,-0.436,-0.941,0.0
9.762,-0.544,-0.899,0.0
9.341,-0.522,-0.911,0.0
8.902,-0.499,-0.916,0.0
8.513,-0.478,-0.923,0.0
8.193,-0.461,-0.933,0.0
7.818,-0.441,-0.932,0.0
9.816,-0.553,-0.893,0.0
9.392,-0.53,-0.905,0.0
8.993,-0.509,-0.915,0.0
0.0,0.0,0.0,0.0
8.254,-0.469,-0.93,0.0
7.902,-0.45,-0.933,0.0
9.935,-0.565,-0.892,0.0
9.517,-0.542,-0.906,0.0
9.056,-0.517,-0.91,0.0
0.0,0.0,0.0,0.0
8.359,-0.48,-0.931,0.0
8.033,-0.462,-0.939,0.0
10.056,-0.577,-0.891,0.0
9.621,-0.553,-0.904,0.0
9.166,-0.528,-0.91,0.0
0.0,0.0,0.0,0.0
8.387,-0.485,-0.924,0.0
8.062,-0.468,-0.932,0.0
10.172,-0.588,-0.888,0.0
9.733,-0.564,-0.902,0.0
9.295,-0.54,-0.911,0.0
8.881,-0.517,-0.919,0.0
8.476,-0.494,-0.923,0.0
8.147,-0.476,-0.931,0.0
10.277,-0.599,-0.884,0.0
9.799,-0.572,-0.896,0.0
9.394,-0.55,-0.909,0.0
8.973,-0.526,-0.917,0.0
8.58,-0.504,-0.923,0.0
8.235,-0.485,-0.93,0.0
10.422,-0.612,-0.883,0.0
9.9,-0.582,-0.892,0.0
9.475,-0.558,-0.904,0.0
9.027,-0.533,-0.911,0.0
8.713,-0.515,-0.926,0.0
8.343,-0.495,-0.931,0.0
10.563,-0.624,-0.881,0.0
10.058,-0.595,-0.893,0.0
9.637,-0.571,-0.907,0.0
9.159,-0.544,-0.912,0.0
8.777,-0.522,-0.921,0.0
8.373,-0.499,-0.923,0.0
10.706,-0.636,-0.878,0.0
10.179,-0.606,-0.889,0.0
9.712,-0.579,-0.9,0.0
9.287,-0.555,-0.912,0.0
8.917,-0.533,-0.923,0.0
8.471,-0.508,-0.922,0.0
10.894,-0.651,-0.879,0.0
10.329,-0.618,-0.888,0.0
9.799,-0.587,-0.895,0.0
9.385,-0.563,-0.908,0.0
9.001,-0.541,-0.919,0.0
8.567,-0.516,-0.92,0.0
11.004,-0.66,-0.872,0.0
10.465,-0.629,-0.885,0.0
9.947,-0.599,-0.894,0.0
9.479,-0.571,-0.904,0.0
9.102,-0.549,-0.916,0.0
8.672,-0.524,-0.919,0.0
11.145,-0.671,-0.868,0.0
10.649,-0.642,-0.886,0.0
10.134,-0.612,-0.897,0.0
9.637,-0.583,-0.905,0.0
9.202,-0.557,-0.913,0.0
8.858,-0.537,-0.926,0.0
11.315,-0.684,-0.864,0.0
10.794,-0.653,-0.882,0.0
10.229,-0.62,-0.89,0.0
9.724,-0.59,-0.899,0.0
9.347,-0.567,-0.914,0.0
8.935,-0.543,-0.921,0.0
11.528,-0.698,-0.864,0.0
10.938,-0.663,-0.877,0.0
10.364,-0.629,-0.886,0.0
9.877,-0.6,-0.898,0.0
9.46,-0.576,-0.91,0.0
9.068,-0.552,-0.921,0.0
11.709,-0.711,-0.86,0.0
11.076,-0.673,-0.872,0.0
10.537,-0.641,-0.885,0.0
10.023,-0.61,-0.896,0.0
9.564,-0.583,-0.906,0.0
9.131,-0.557,-0.913,0.0
11.941,-0.726,-0.859,0.0
11.222,-0.683,-0.866,0.0
10.726,-0.653,-0.885,0.0
10.181,-0.62,-0.895,0.0
9.682,-0.59,-0.902,0.0
9.268,-0.565,-0.913,0.0
12.185,-0.741,-0.858,0.0
11.465,-0.698,-0.868,0.0
10.863,-0.661,-0.879,0.0
10.299,-0.628,-0.889,0.0
9.839,-0.6,-0.901,0.0
9.433,-0.575,-0.914,0.0
12.392,-0.754,-0.853,0.0
11.659,-0.709,-0.864,0.0
11.025,-0.671,-0.875,0.0
10.472,-0.638,-0.888,0.0
9.973,-0.608,-0.898,0.0
9.528,-0.581,-0.909,0.0
12.66,-0.769,-0.852,0.0
11.889,-0.723,-0.862,0.0
11.179,-0.68,-0.87,0.0
10.659,-0.648,-0.887,0.0
10.133,-0.617,-0.896,0.0
9.64,-0.587,-0.904,0.0
19.939,-1.21,-1.31,0.0
12.1,-0.734,-0.858,0.0
11.398,-0.692,-0.869,0.0
10.826,-0.658,-0.883,0.0
10.258,-0.623,-0.891,0.0
9.793,-0.595,-0.902,0.0
13.26,-0.803,-0.85,0.0
12.346,-0.748,-0.856,0.0
11.584,-0.702,-0.864,0.0
10.978,-0.665,-0.878,0.0
10.418,-0.631,-0.888,0.0
9.932,-0.602,-0.899,0.0
13.505,-0.816,-0.844,0.0
12.557,-0.758,-0.85,0.0
11.813,-0.713,-0.862,0.0
11.128,-0.672,-0.872,0.0
10.621,-0.641,-0.888,0.0
10.092,-0.609,-0.897,0.0
13.71,-0.825,-0.834,0.0
19.982,-1.203,-1.321,0.0
12.061,-0.726,-0.86,0.0
11.331,-0.682,-0.869,0.0
10.815,-0.65,-0.886,0.0
10.254,-0.617,-0.894,0.0
14.13,-0.847,-0.837,0.0
13.219,-0.792,-0.852,0.0
12.304,-0.737,-0.857,0.0
11.531,-0.69,-0.865,0.0
10.945,-0.655,-0.879,0.0
10.407,-0.623,-0.89,0.0
14.425,-0.86,-0.83,0.0
13.412,-0.8,-0.842,0.0
12.504,-0.745,-0.851,0.0
11.787,-0.702,-0.865,0.0
11.112,-0.662,-0.874,0.0
10.584,-0.63,-0.888,0.0
14.754,-0.875,-0.825,0.0
13.694,-0.812,-0.837,0.0
19.979,-1.184,-1.326,0.0
12.035,-0.713,-0.863,0.0
11.315,-0.669,-0.871,0.0
10.769,-0.637,-0.885,0.0
15.092,-0.89,-0.818,0.0
14.076,-0.829,-0.837,0.0
13.159,-0.774,-0.851,0.0
12.286,-0.723,-0.86,0.0
11.531,-0.678,-0.868,0.0
10.917,-0.641,-0.879,0.0
15.504,-0.907,-0.815,0.0
14.43,-0.844,-0.834,0.0
13.411,-0.783,-0.845,0.0
12.444,-0.726,-0.851,0.0
11.755,-0.685,-0.865,0.0
11.089,-0.646,-0.874,0.0
15.861,-0.921,-0.807,0.0
14.726,-0.854,-0.827,0.0
13.704,-0.794,-0.841,0.0
12.799,-0.741,-0.853,0.0
12.008,-0.694,-0.864,0.0
11.304,-0.653,-0.872,0.0
16.297,-0.938,-0.802,0.0
15.089,-0.868,-0.821,0.0
14.017,-0.805,-0.836,0.0
13.152,-0.754,-0.855,0.0
12.262,-0.703,-0.861,0.0
11.526,-0.659,-0.87,0.0
16.75,-0.955,-0.796,0.0
15.442,-0.879,-0.814,0.0
14.344,-0.816,-0.831,0.0
13.434,-0.763,-0.85,0.0
12.454,-0.706,-0.853,0.0
11.713,-0.663,-0.864,0.0
17.241,-0.973,-0.79,0.0
15.864,-0.894,-0.81,0.0
14.639,-0.824,-0.824,0.0
13.626,-0.766,-0.839,0.0
12.809,-0.718,-0.856,0.0
11.987,-0.671,-0.864,0.0
17.591,-0.982,-0.777,0.0
16.263,-0.906,-0.803,0.0
15.025,-0.836,-0.82,0.0
14.0,-0.777,-0.839,0.0
13.106,-0.727,-0.854,0.0
12.246,-0.678,-0.862,0.0
18.306,-1.01,-0.777,0.0
16.704,-0.92,-0.796,0.0
15.395,-0.846,-0.814,0.0
14.348,-0.787,-0.835,0.0
13.419,-0.734,-0.851,0.0
12.464,-0.681,-0.856,0.0
18.611,-1.013,-0.759,0.0
17.158,-0.932,-0.789,0.0
15.805,-0.857,-0.809,0.0
14.611,-0.79,-0.826,0.0
13.681,-0.739,-0.845,0.0
12.759,-0.688,-0.854,0.0
19.573,-1.051,-0.765,0.0
17.46,-0.935,-0.773,0.0
16.289,-0.871,-0.806,0.0
14.991,-0.8,-0.822,0.0
13.959,-0.743,-0.838,0.0
13.09,-0.695,-0.854,0.0
19.879,-1.052,-0.743,2.0
20.079,-1.06,-0.855,0.0
16.656,-0.877,-0.796,0.0
15.416,-0.809,-0.819,0.0
14.326,-0.75,-0.836,0.0
13.408,-0.701,-0.852,0.0
20.026,-1.043,-0.715,8.0
19.928,-1.035,-0.815,0.0
20.053,-1.039,-0.925,0.0
20.084,-1.038,-1.033,0.0
14.602,-0.752,-0.827,0.0
13.698,-0.704,-0.847,0.0
20.05,-1.027,-0.682,13.0
19.763,-1.009,-0.775,0.0
20.09,-1.023,-0.893,0.0
20.053,-1.018,-0.997,0.0
19.992,-1.012,-1.099,0.0
19.996,-1.009,-1.204,0.0
20.082,-1.01,-0.649,19.0
19.847,-0.995,-0.745,2.0
18.152,-0.907,-0.776,0.0
16.652,-0.83,-0.801,0.0
15.404,-0.765,-0.821,0.0
14.288,-0.707,-0.836,0.0
20.083,-0.991,-0.616,9.0
19.952,-0.981,-0.716,6.0
18.747,-0.919,-0.771,0.0
20.018,-0.978,-0.929,0.0
20.07,-0.977,-1.037,0.0
14.612,-0.709,-0.831,0.0
20.082,-0.971,-0.583,2.0
20.03,-0.965,-0.686,1.0
19.487,-0.936,-0.769,0.0
17.477,-0.836,-0.782,0.0
20.065,-0.957,-1.003,0.0
14.933,-0.709,-0.824,0.0
24.62,-1.165,-0.674,0.0
21.991,-1.037,-0.717,0.0
19.779,-0.929,-0.748,2.0
17.961,-0.84,-0.775,0.0
16.617,-0.774,-0.803,0.0
15.248,-0.708,-0.817,0.0
26.087,-1.206,-0.672,0.0
22.843,-1.052,-0.707,0.0
20.637,-0.947,-0.746,0.0
18.412,-0.841,-0.764,0.0
17.036,-0.775,-0.796,0.0
15.7,-0.711,-0.815,0.0
27.025,-1.22,-0.652,0.0
23.621,-1.062,-0.693,0.0
21.172,-0.947,-0.731,0.0
19.098,-0.851,-0.761,0.0
17.542,-0.778,-0.791,0.0
16.056,-0.71,-0.808,0.0
28.322,-1.246,-0.638,0.0
0.0,0.0,0.0,0.0
21.906,-0.955,-0.722,0.0
19.395,-0.842,-0.742,0.0
17.95,-0.776,-0.781,0.0
16.506,-0.71,-0.804,0.0
29.611,-1.268,-0.619,0.0
25.591,-1.091,-0.669,0.0
22.646,-0.961,-0.71,0.0
20.304,-0.857,-0.745,0.0
18.42,-0.774,-0.772,0.0
16.878,-0.706,-0.796,0.0
30.931,-1.287,-0.598,0.0
26.746,-1.107,-0.657,0.0
0.0,0.0,0.0,0.0
20.927,-0.857,-0.734,0.0
18.965,-0.773,-0.765,0.0
17.457,-0.708,-0.795,0.0
32.849,-1.325,-0.583,0.0
28.016,-1.124,-0.644,0.0
24.312,-0.97,-0.686,0.0
21.632,-0.858,-0.725,0.0
19.489,-0.769,-0.755,0.0
17.725,-0.696,-0.78,0.0
0.0,0.0,0.0,0.0
0.0,0.0,0.0,0.0
24.87,-0.96,-0.663,0.0
22.341,-0.857,-0.714,0.0
20.126,-0.768,-0.749,0.0
18.278,-0.693,-0.776,0.0
0.0,0.0,0.0,0.0
0.0,0.0,0.0,0.0
26.361,-0.982,-0.662,0.0
23.186,-0.858,-0.706,0.0
20.899,-0.769,-0.746,0.0
18.758,-0.686,-0.767,0.0
38.169,-1.388,-0.501,0.0
33.004,-1.192,-0.606,0.0
0.0,0.0,0.0,0.0
23.87,-0.85,-0.69,0.0
21.51,-0.761,-0.735,0.0
19.181,-0.674,-0.756,0.0
41.474,-1.45,-0.482,0.0
33.89,-1.176,-0.571,0.0
28.555,-0.984,-0.63,0.0
25.016,-0.856,-0.686,0.0
22.067,-0.75,-0.721,0.0
19.78,-0.667,-0.75,0.0
44.432,-1.49,-0.451,0.0
35.196,-1.172,-0.541,0.0
30.129,-0.995,-0.621,0.0
0.0,0.0,0.0,0.0
22.009,-0.716,-0.687,0.0
20.415,-0.659,-0.744,0.0
47.531,-1.525,-0.413,1.0
38.03,-1.211,-0.53,0.0
31.243,-0.987,-0.599,0.0
26.871,-0.841,-0.659,0.0
23.239,-0.722,-0.692,0.0
21.484,-0.662,-0.752,0.0
47.745,-1.461,-0.346,0.0
41.259,-1.252,-0.516,1.0
0.0,0.0,0.0,0.0
21.893,-0.652,-0.505,2.0
21.901,-0.647,-0.621,94.0
21.818,-0.639,-0.733,10.0
0.0,0.0,0.0,0.0
41.579,-1.198,-0.461,0.0
34.135,-0.974,-0.558,0.0
21.906,-0.619,-0.475,40.0
21.861,-0.612,-0.589,202.0
21.849,-0.606,-0.703,82.0
55.016,-1.514,-0.244,0.0
43.325,-1.18,-0.42,0.0
0.0,0.0,0.0,0.0
21.908,-0.585,-0.444,6.0
21.858,-0.577,-0.559,176.0
21.866,-0.572,-0.674,69.0
0.0,0.0,0.0,0.0
47.404,-1.216,-0.394,0.0
38.071,-0.966,-0.516,0.0
0.0,0.0,0.0,0.0
21.891,-0.543,-0.53,4.0
18.153,-0.445,-0.535,48.0
0.0,0.0,0.0,0.0
0.0,0.0,0.0,0.0
39.689,-0.942,-0.485,0.0
33.537,-0.786,-0.59,0.0
28.243,-0.654,-0.645,0.0
18.155,-0.415,-0.511,22.0
0.0,0.0,0.0,0.0
0.0,0.0,0.0,0.0
0.0,0.0,0.0,0.0
34.269,-0.747,-0.558,0.0
29.164,-0.627,-0.628,0.0
24.888,-0.528,-0.668,0.0
0.0,0.0,0.0,0.0
57.2,-1.183,-0.248,0.0
45.099,-0.92,-0.434,2.0
35.906,-0.722,-0.538,0.0
30.288,-0.6,-0.614,0.0
26.248,-0.512,-0.671,0.0
0.0,0.0,0.0,0.0
0.0,0.0,0.0,0.0
46.027,-0.86,-0.385,1.0
37.482,-0.689,-0.515,0.0
31.233,-0.565,-0.594,0.0
26.858,-0.478,-0.653,0.0
0.0,0.0,0.0,0.0
0.0,0.0,0.0,0.0
50.14,-0.85,-0.357,1.0
0.0,0.0,0.0,0.0
0.0,0.0,0.0,0.0
28.054,-0.451,-0.648,0.0
138.822,-2.195,0.645,6.0
0.0,0.0,0.0,0.0
0.0,0.0,0.0,0.0
0.0,0.0,0.0,0.0
34.192,-0.499,-0.568,0.0
29.141,-0.417,-0.638,0.0
138.82,-1.949,0.81,11.0
0.0,0.0,0.0,0.0
0.0,0.0,0.0,0.0
0.0,0.0,0.0,0.0
0.0,0.0,0.0,0.0
29.837,-0.373,-0.619,0.0
139.25,-1.708,0.972,14.0
0.0,0.0,0.0,0.0
0.0,0.0,0.0,0.0
45.645,-0.517,-0.411,0.0
37.644,-0.415,-0.539,0.0
0.0,0.0,0.0,0.0
119.761,-1.249,0.972,150.0
0.0,0.0,0.0,0.0
0.0,0.0,0.0,0.0
47.307,-0.449,-0.374,0.0
0.0,0.0,0.0,0.0
32.151,-0.285,-0.596,0.0
119.699,-1.028,1.103,20.0
0.0,0.0,0.0,0.0
0.0,0.0,0.0,0.0
0.0,0.0,0.0,0.0
0.0,0.0,0.0,0.0
32.906,-0.23,-0.574,0.0
119.72,-0.803,1.232,16.0
110.95,-0.709,0.551,5.0
0.0,0.0,0.0,0.0
0.0,0.0,0.0,0.0
0.0,0.0,0.0,0.0
35.213,-0.18,-0.578,0.0
119.725,-0.578,1.356,16.0
111.163,-0.5,0.667,6.0
0.0,0.0,0.0,0.0
0.0,0.0,0.0,0.0
45.05,-0.159,-0.454,1.0
35.565,-0.114,-0.548,0.0
119.695,-0.349,1.476,9.0
114.47,-0.297,0.801,78.0
0.0,0.0,0.0,0.0
0.0,0.0,0.0,0.0
45.42,-0.074,-0.413,1.0
0.0,0.0,0.0,0.0
111.242,-0.111,1.479,13.0
117.165,-0.079,0.932,5.0
95.862,-0.033,0.251,1.0
0.0,0.0,0.0,0.0
45.714,0.013,-0.373,0.0
37.838,0.023,-0.511,0.0
111.058,0.105,1.581,14.0
0.0,0.0,0.0,0.0
93.6,0.149,0.332,2.0
0.0,0.0,0.0,0.0
49.838,0.111,-0.361,0.0
0.0,0.0,0.0,0.0
119.863,0.346,1.814,29.0
119.778,0.386,1.172,10.0
94.672,0.335,0.419,3.0
0.0,0.0,0.0,0.0
0.0,0.0,0.0,0.0
42.827,0.194,-0.502,0.0
111.082,0.541,1.778,21.0
111.046,0.578,1.183,4.0
104.505,0.577,0.552,3.0
0.0,0.0,0.0,0.0
0.0,0.0,0.0,0.0
42.88,0.279,-0.467,1.0
0.0,0.0,0.0,0.0
100.322,0.722,1.152,5.0
98.161,0.738,0.599,8.0
84.177,0.662,0.054,2.0
0.0,0.0,0.0,0.0
42.921,0.365,-0.433,0.0
104.73,0.928,1.848,29.0
98.768,0.908,1.212,20.0
98.4,0.936,0.678,16.0
81.481,0.801,0.115,4.0
0.0,0.0,0.0,0.0
46.37,0.487,-0.433,0.0
98.588,1.071,1.814,30.0
98.562,1.102,1.283,33.0
98.379,1.133,0.751,14.0
81.203,0.961,0.174,4.0
0.0,0.0,0.0,0.0
0.0,0.0,0.0,0.0
98.569,1.269,1.885,33.0
98.548,1.302,1.354,28.0
98.533,1.333,0.822,21.0
81.019,1.123,0.231,4.0
0.0,0.0,0.0,0.0
47.206,0.686,-0.374,0.0
119.947,1.789,2.377,24.0
92.003,1.403,1.327,31.0
91.903,1.431,0.829,33.0
84.593,1.346,0.298,4.0
0.0,0.0,0.0,0.0
0.0,0.0,0.0,0.0
91.867,1.558,1.881,38.0
91.868,1.589,1.384,40.0
91.878,1.618,0.887,35.0
84.536,1.517,0.351,11.0
72.221,1.32,-0.089,1.0
0.0,0.0,0.0,0.0
88.345,1.679,1.863,4.0
87.43,1.69,1.37,23.0
85.439,1.68,0.877,8.0
72.176,1.443,0.343,3.0
70.184,1.427,-0.046,3.0
0.0,0.0,0.0,0.0
85.292,1.796,1.848,33.0
85.27,1.824,1.385,40.0
85.246,1.851,0.923,40.0
84.889,1.871,0.45,12.0
68.334,1.528,-0.007,4.0
0.0,0.0,0.0,0.0
85.236,1.971,1.893,33.0
85.252,1.999,1.43,37.0
85.268,2.027,0.968,34.0
85.03,2.049,0.495,10.0
67.018,1.637,0.026,3.0
55.405,1.371,-0.278,0.0
79.015,1.989,1.794,4.0
78.983,2.013,1.364,29.0
78.912,2.036,0.934,36.0
78.816,2.059,0.496,16.0
66.371,1.756,0.057,5.0
0.0,0.0,0.0,0.0
78.844,2.147,1.827,37.0
78.435,2.16,1.39,8.0
76.928,2.144,0.945,5.0
78.828,2.223,0.532,16.0
0.0,0.0,0.0,0.0
62.879,1.816,-0.259,1.0
75.977,2.226,1.793,4.0
74.791,2.216,1.357,6.0
74.332,2.227,0.944,4.0
78.93,2.39,0.564,11.0
71.058,2.175,0.121,9.0
61.451,1.901,-0.229,4.0
119.867,3.761,2.875,4.0
72.499,2.299,1.343,28.0
72.413,2.32,0.947,35.0
72.31,2.339,0.544,32.0
71.312,2.329,0.147,7.0
59.923,1.977,-0.203,6.0
72.392,2.422,1.762,37.0
72.35,2.443,1.365,37.0
72.353,2.466,0.97,38.0
72.332,2.49,0.568,29.0
71.523,2.485,0.171,8.0
58.706,2.058,-0.18,5.0
72.428,2.572,1.785,27.0
72.404,2.593,1.388,25.0
72.432,2.618,0.993,25.0
72.365,2.638,0.589,19.0
65.839,2.422,0.175,8.0
58.185,2.159,-0.163,5.0
120.056,4.511,2.992,14.0
193.721,7.338,3.766,22.0
120.077,4.586,1.677,24.0
119.958,4.62,1.006,19.0
65.848,2.556,0.191,17.0
56.506,2.212,-0.144,4.0
120.107,4.759,3.021,17.0
193.605,7.733,3.809,28.0
120.101,4.834,1.703,26.0
66.114,2.682,0.568,31.0
65.846,2.691,0.205,15.0
58.503,2.41,-0.138,5.0
66.102,2.755,1.676,29.0
64.101,2.691,1.273,8.0
63.107,2.669,0.906,7.0
61.536,2.622,0.54,12.0
65.863,2.827,0.216,11.0
58.416,2.525,-0.128,5.0
63.216,2.764,1.612,11.0
61.601,2.712,1.232,5.0
66.051,2.929,0.958,22.0
66.083,2.95,0.589,22.0
65.914,2.964,0.225,14.0
53.192,2.409,-0.11,6.0
61.185,2.8,1.568,9.0
120.14,5.537,2.417,24.0
120.093,5.572,1.755,8.0
119.994,5.604,1.082,15.0
65.994,3.101,0.231,8.0
58.379,2.762,-0.116,7.0
120.141,5.746,3.089,11.0
120.154,5.784,2.427,11.0
120.12,5.817,1.764,18.0
119.991,5.848,1.089,17.0
65.977,3.235,0.235,6.0
52.309,2.581,-0.101,26.0
120.162,5.99,3.095,16.0
124.805,6.259,2.526,150.0
124.816,6.295,1.837,150.0
59.522,3.02,0.541,13.0
59.398,3.032,0.212,22.0
52.152,2.678,-0.101,25.0
59.427,3.082,1.531,42.0
59.399,3.098,1.202,33.0
59.382,3.115,0.873,35.0
59.339,3.13,0.538,33.0
59.306,3.146,0.211,20.0
51.838,2.766,-0.101,19.0
59.411,3.2,1.528,28.0
59.367,3.216,1.199,30.0
59.363,3.233,0.87,31.0
59.34,3.25,0.535,27.0
59.295,3.264,0.207,16.0
51.564,2.855,-0.104,19.0
59.523,3.327,1.527,2.0
59.492,3.341,1.196,14.0
59.469,3.357,0.867,14.0
59.48,3.375,0.531,5.0
59.36,3.385,0.201,12.0
51.438,2.949,-0.109,21.0
115.715,6.695,2.957,8.0
115.161,6.695,2.303,8.0
114.823,6.709,1.66,8.0
50.757,2.98,0.447,3.0
52.46,3.095,0.171,2.0
51.358,3.045,-0.117,20.0
113.5,6.789,2.884,2.0
113.329,6.81,2.249,6.0
50.646,3.057,0.724,10.0
50.188,3.044,0.434,3.0
52.4,3.193,0.162,20.0
51.269,3.139,-0.125,21.0
111.106,6.862,2.803,35.0
50.547,3.135,0.994,16.0
50.135,3.124,0.707,5.0
49.413,3.093,0.417,5.0
52.254,3.286,0.151,19.0
51.21,3.235,-0.136,16.0
50.678,3.228,1.267,19.0
49.697,3.178,0.966,4.0
49.077,3.152,0.681,10.0
48.851,3.151,0.401,7.0
52.105,3.376,0.137,13.0
51.247,3.334,-0.149,5.0
49.539,3.25,1.226,8.0
49.088,3.234,0.941,15.0
48.463,3.205,0.659,5.0
48.415,3.216,0.384,5.0
52.012,3.469,0.123,16.0
45.993,3.08,-0.147,20.0
48.967,3.305,1.198,9.0
48.309,3.274,0.912,4.0
48.076,3.271,0.64,29.0
48.063,3.283,0.366,10.0
51.971,3.565,0.106,20.0
45.711,3.148,-0.161,19.0
48.277,3.35,1.165,6.0
47.843,3.332,0.887,18.0
47.787,3.341,0.619,19.0
47.711,3.349,0.347,55.0
51.948,3.66,0.088,19.0
45.358,3.208,-0.175,19.0
47.59,3.391,1.131,15.0
47.518,3.398,0.864,61.0
52.319,3.755,0.659,14.0
52.254,3.764,0.36,18.0
51.901,3.752,0.068,12.0
45.166,3.277,-0.192,19.0
47.405,3.465,1.108,12.0
101.801,7.468,1.81,5.0
101.483,7.469,1.237,5.0
101.143,7.471,0.656,4.0
51.944,3.85,0.046,9.0
44.882,3.339,-0.21,19.0
100.705,7.545,2.311,9.0
100.501,7.555,1.743,10.0
100.339,7.569,1.178,9.0
100.122,7.578,0.605,6.0
46.03,3.495,0.02,19.0
44.54,3.393,-0.229,19.0
99.614,7.644,2.239,10.0
99.512,7.661,1.679,7.0
99.264,7.665,1.118,9.0
98.842,7.656,0.55,13.0
45.639,3.546,-0.002,24.0
44.037,3.433,-0.248,18.0
98.644,7.742,2.169,12.0
98.445,7.75,1.611,9.0
45.929,3.626,0.494,35.0
45.838,3.631,0.231,36.0
45.495,3.614,-0.025,30.0
0.0,0.0,0.0,0.0
45.862,3.679,0.984,39.0
45.836,3.688,0.725,44.0
45.812,3.697,0.468,44.0
45.762,3.704,0.206,20.0
45.371,3.683,-0.05,23.0
0.0,0.0,0.0,0.0
45.795,3.752,0.957,44.0
45.786,3.762,0.699,39.0
45.754,3.77,0.441,35.0
45.713,3.778,0.179,22.0
45.27,3.752,-0.076,30.0
40.774,3.389,-0.298,16.0
45.774,3.828,0.929,37.0
45.769,3.838,0.671,37.0
45.748,3.846,0.413,31.0
45.693,3.852,0.151,18.0
45.159,3.818,-0.104,20.0
40.559,3.439,-0.322,16.0
45.809,3.908,0.901,27.0
45.812,3.919,0.643,23.0
45.784,3.926,0.384,19.0
45.703,3.93,0.121,18.0
45.03,3.882,-0.133,18.0
40.337,3.487,-0.347,15.0
93.14,8.098,1.771,65.0
93.147,8.119,1.246,59.0
93.174,8.141,0.72,28.0
45.841,4.015,0.091,15.0
44.742,3.928,-0.162,18.0
40.065,3.527,-0.371,15.0
93.156,8.248,1.708,12.0
92.918,8.246,1.179,11.0
92.774,8.254,0.653,10.0
45.721,4.077,0.059,16.0
44.284,3.958,-0.192,19.0
39.758,3.562,-0.396,7.0
92.27,8.314,1.626,5.0
92.082,8.317,1.102,9.0
91.969,8.325,0.581,10.0
45.705,4.147,0.026,20.0
43.42,3.949,-0.22,18.0
39.613,3.611,-0.425,6.0
91.481,8.384,1.544,10.0
91.353,8.391,1.025,11.0
91.17,8.393,0.507,11.0
45.573,4.204,-0.008,6.0
0.0,0.0,0.0,0.0
39.52,3.663,-0.454,6.0
90.723,8.452,1.46,10.0
90.59,8.457,0.946,11.0
90.422,8.46,0.433,10.0
45.562,4.271,-0.044,12.0
0.0,0.0,0.0,0.0
39.43,3.713,-0.484,8.0
90.017,8.52,1.377,11.0
89.871,8.523,0.866,11.0
89.68,8.522,0.356,9.0
45.486,4.331,-0.081,19.0
40.37,3.852,-0.3,16.0
39.349,3.762,-0.515,6.0
89.314,8.582,1.293,11.0
89.171,8.585,0.785,11.0
89.045,8.59,0.279,9.0
45.126,4.361,-0.118,19.0
39.831,3.857,-0.33,29.0
39.292,3.813,-0.548,2.0
88.601,8.638,1.207,13.0
88.54,8.648,0.704,11.0
88.357,8.646,0.201,12.0
0.0,0.0,0.0,0.0
39.681,3.898,-0.363,17.0
39.296,3.868,-0.582,0.0
87.982,8.698,1.121,11.0
87.889,8.705,0.621,11.0
86.566,8.589,0.121,11.0
43.51,4.325,-0.19,18.0
39.318,3.915,-0.395,11.0
33.949,3.387,-0.533,1.0
87.365,8.754,1.035,11.0
87.232,8.755,0.538,11.0
73.439,7.384,0.036,3.0
42.829,4.314,-0.226,18.0
39.173,3.952,-0.429,7.0
33.522,3.388,-0.557,2.0
86.791,8.809,0.948,12.0
86.683,8.812,0.454,11.0
69.865,7.114,-0.029,3.0
40.68,4.149,-0.252,16.0
39.105,3.995,-0.465,8.0
33.189,3.397,-0.583,0.0
86.206,8.858,0.861,12.0
86.153,8.866,0.37,10.0
52.148,5.375,-0.072,2.0
40.197,4.15,-0.288,16.0
39.049,4.038,-0.502,8.0
30.956,3.206,-0.573,0.0
85.693,8.91,0.773,12.0
85.592,8.913,0.285,11.0
52.238,5.447,-0.122,5.0
39.733,4.15,-0.323,28.0
38.989,4.078,-0.539,5.0
30.421,3.187,-0.594,0.0
84.207,8.855,0.677,45.0
84.174,8.863,0.197,23.0
45.555,4.804,-0.152,7.0
39.45,4.166,-0.36,16.0
38.933,4.118,-0.577,1.0
29.739,3.15,-0.61,1.0
84.177,8.948,0.592,59.0
84.201,8.963,0.113,15.0
45.652,4.865,-0.198,3.0
39.135,4.177,-0.397,14.0
33.573,3.588,-0.532,0.0
28.795,3.082,-0.62,0.0
84.192,9.043,0.506,12.0
75.933,8.166,0.023,4.0
0.0,0.0,0.0,0.0
38.909,4.195,-0.435,8.0
32.226,3.48,-0.544,1.0
27.661,2.991,-0.624,0.0
83.735,9.083,0.416,5.0
70.256,7.63,-0.051,4.0
40.503,4.404,-0.26,16.0
38.864,4.231,-0.475,9.0
31.67,3.453,-0.568,1.0
27.186,2.968,-0.643,0.0
83.34,9.126,0.325,2.0
65.713,7.204,-0.118,7.0
40.092,4.4,-0.301,15.0
38.821,4.266,-0.517,9.0
30.77,3.386,-0.585,1.0
26.428,2.912,-0.653,0.0
81.27,8.979,0.228,10.0
65.741,7.271,-0.19,5.0
39.572,4.382,-0.34,27.0
38.743,4.295,-0.558,2.0
29.615,3.287,-0.595,0.0
25.718,2.858,-0.664,0.0
80.858,9.01,0.139,13.0
45.475,5.072,-0.181,7.0
39.232,4.381,-0.38,15.0
38.749,4.331,-0.6,0.0
28.844,3.228,-0.612,0.0
24.958,2.796,-0.672,0.0
67.189,7.547,0.04,9.0
0.0,0.0,0.0,0.0
38.817,4.369,-0.419,9.0
32.614,3.674,-0.542,0.0
27.981,3.156,-0.625,0.0
24.327,2.747,-0.682,0.0
67.137,7.598,-0.034,9.0
40.974,4.641,-0.254,16.0
38.736,4.392,-0.461,8.0
31.432,3.567,-0.557,0.0
27.164,3.086,-0.637,1.0
23.685,2.694,-0.691,0.0
67.021,7.64,-0.109,18.0
40.164,4.582,-0.295,27.0
38.711,4.42,-0.505,10.0
30.747,3.514,-0.58,1.0
26.441,3.025,-0.65,0.0
23.096,2.645,-0.7,0.0
45.716,5.246,-0.126,5.0
39.522,4.539,-0.335,25.0
38.672,4.445,-0.55,5.0
30.019,3.453,-0.601,1.0
25.757,2.966,-0.663,0.0
22.52,2.596,-0.709,0.0
45.468,5.25,-0.178,6.0
39.175,4.527,-0.378,15.0
38.665,4.472,-0.594,0.0
28.733,3.326,-0.609,0.0
25.01,2.898,-0.673,0.0
21.937,2.544,-0.717,0.0
42.161,4.897,-0.215,17.0
38.753,4.505,-0.419,12.0
32.882,3.825,-0.544,0.0
27.78,3.234,-0.621,1.0
24.219,2.822,-0.681,0.0
21.356,2.49,-0.722,0.0
40.522,4.732,-0.254,23.0
38.633,4.515,-0.463,9.0
31.134,3.641,-0.551,0.0
27.017,3.162,-0.636,1.0
23.616,2.766,-0.691,0.0
20.771,2.435,-0.727,0.0
39.962,4.69,-0.297,46.0
38.621,4.536,-0.508,10.0
30.506,3.585,-0.576,1.0
26.203,3.081,-0.648,0.0
22.99,2.705,-0.7,0.0
20.326,2.394,-0.735,0.0
39.5,4.657,-0.34,29.0
38.602,4.554,-0.554,4.0
30.161,3.56,-0.605,1.0
25.551,3.018,-0.662,0.0
22.422,2.65,-0.709,0.0
19.828,2.345,-0.741,0.0
39.118,4.632,-0.383,15.0
38.539,4.565,-0.599,0.0
28.631,3.394,-0.609,0.0
24.846,2.947,-0.673,0.0
21.807,2.588,-0.716,0.0
19.425,2.307,-0.749,0.0
38.646,4.593,-0.425,8.0
0.0,0.0,0.0,0.0
27.555,3.278,-0.619,0.0
24.08,2.866,-0.681,0.0
21.284,2.535,-0.724,0.0
18.866,2.248,-0.75,0.0
38.587,4.602,-0.47,8.0
30.345,3.62,-0.544,2.0
26.75,3.193,-0.633,0.0
23.335,2.787,-0.688,0.0
20.673,2.47,-0.728,0.0
18.502,2.212,-0.758,0.0
38.571,4.613,-0.516,7.0
30.101,3.602,-0.575,14.0
26.072,3.121,-0.647,0.0
22.791,2.729,-0.699,0.0
20.245,2.426,-0.737,0.0
18.119,2.172,-0.764,0.0
38.554,4.623,-0.561,3.0
29.969,3.595,-0.608,7.0
25.392,3.047,-0.661,0.0
22.151,2.659,-0.706,0.0
19.668,2.362,-0.739,0.0
17.769,2.135,-0.77,0.0
38.655,4.646,-0.608,0.0
29.806,3.583,-0.64,0.0
24.818,2.984,-0.675,0.0
21.647,2.604,-0.715,0.0
19.275,2.32,-0.747,0.0
17.348,2.089,-0.772,0.0
30.06,3.619,-0.509,1.0
27.349,3.294,-0.619,0.0
24.026,2.894,-0.682,0.0
20.98,2.528,-0.718,0.0
18.784,2.264,-0.751,0.0
17.07,2.058,-0.78,0.0
30.016,3.619,-0.544,15.0
26.647,3.213,-0.636,0.0
23.286,2.809,-0.689,0.0
20.542,2.478,-0.728,0.0
18.464,2.228,-0.76,0.0
16.794,2.028,-0.788,0.0
29.961,3.616,-0.578,18.0
25.887,3.125,-0.648,0.0
22.785,2.751,-0.701,0.0
20.182,2.437,-0.739,0.0
18.04,2.179,-0.764,0.0
16.436,1.986,-0.79,0.0
29.889,3.61,-0.612,6.0
25.267,3.052,-0.662,0.0
22.127,2.673,-0.706,0.0
19.538,2.361,-0.738,0.0
17.69,2.138,-0.77,0.0
16.241,1.963,-0.8,0.0
27.918,3.373,-0.604,0.0
24.545,2.965,-0.672,0.0
21.548,2.604,-0.714,0.0
19.127,2.311,-0.745,0.0
17.301,2.091,-0.773,0.0
15.954,1.929,-0.805,0.0
27.186,3.284,-0.62,0.0
23.785,2.873,-0.679,0.0
20.871,2.521,-0.716,0.0
18.635,2.251,-0.748,0.0
16.96,2.049,-0.778,0.0
15.559,1.881,-0.803,0.0
26.441,3.192,-0.634,1.0
23.119,2.791,-0.687,0.0
20.556,2.482,-0.728,0.0
18.335,2.214,-0.757,0.0
16.749,2.023,-0.788,0.0
15.378,1.857,-0.812,0.0
25.709,3.101,-0.646,0.0
22.7,2.738,-0.7,0.0
20.054,2.419,-0.734,0.0
17.944,2.165,-0.761,0.0
16.423,1.981,-0.791,0.0
15.108,1.823,-0.815,0.0
25.124,3.027,-0.66,0.0
22.115,2.664,-0.707,0.0
19.587,2.36,-0.739,0.0
17.668,2.128,-0.77,0.0
16.183,1.949,-0.798,0.0
