X,Y,Z,Reflectivity
0.0,0.0,0.0,0.0
56.741,-2.951,5.747,29.0
56.874,-2.943,5.434,30.0
57.086,-2.938,5.126,31.0
60.026,-3.074,5.04,35.0
56.798,-2.894,4.445,30.0
57.068,-2.893,4.14,24.0
56.701,-2.867,5.704,31.0
56.833,-2.858,5.39,31.0
57.309,-2.867,5.106,31.0
56.899,-2.832,4.737,14.0
56.775,-2.811,4.402,30.0
57.006,-2.808,4.094,32.0
56.502,-2.776,5.642,25.0
56.569,-2.764,5.323,30.0
57.192,-2.779,5.053,23.0
44.136,-2.133,3.642,27.0
56.924,-2.737,4.37,30.0
57.186,-2.735,4.064,15.0
46.794,-2.231,4.636,25.0
47.124,-2.234,4.397,14.0
57.667,-2.719,5.05,30.0
44.101,-2.068,3.604,38.0
57.056,-2.662,4.335,25.0
59.02,-2.739,4.147,9.0
46.719,-2.161,4.591,44.0
47.068,-2.165,4.354,39.0
47.57,-2.175,4.126,5.0
44.116,-2.006,3.568,33.0
44.231,-2.0,3.323,20.0
0.0,0.0,0.0,0.0
46.674,-2.092,4.546,37.0
46.999,-2.095,4.306,3.0
44.207,-1.959,3.795,18.0
56.01,-2.468,4.481,7.0
44.287,-1.94,3.289,43.0
44.406,-1.934,3.042,30.0
46.313,-2.01,4.469,39.0
44.301,-1.911,4.018,40.0
44.329,-1.901,3.765,30.0
55.699,-2.375,4.405,12.0
44.394,-1.883,3.255,33.0
44.488,-1.876,3.007,32.0
46.357,-1.946,4.429,34.0
44.27,-1.848,3.974,19.0
44.377,-1.841,3.727,30.0
44.16,-1.822,3.45,35.0
44.298,-1.817,3.206,40.0
0.0,0.0,0.0,0.0
46.326,-1.881,4.38,35.0
44.275,-1.786,3.93,32.0
44.24,-1.774,3.672,48.0
44.108,-1.759,3.402,38.0
44.299,-1.756,3.162,38.0
44.46,-1.751,2.917,46.0
46.333,-1.816,4.333,34.0
44.166,-1.72,3.875,31.0
44.261,-1.714,3.628,40.0
44.167,-1.699,3.36,45.0
44.275,-1.693,3.113,37.0
0.0,0.0,0.0,0.0
46.458,-1.756,4.295,39.0
44.194,-1.66,3.83,41.0
44.201,-1.65,3.574,41.0
44.235,-1.64,3.317,40.0
44.361,-1.635,3.07,34.0
0.0,0.0,0.0,0.0
46.627,-1.698,4.258,10.0
44.126,-1.596,3.774,24.0
44.174,-1.588,3.522,43.0
44.258,-1.581,3.268,45.0
44.361,-1.574,3.02,46.0
46.29,-1.632,2.885,35.0
44.178,-1.548,3.983,41.0
43.808,-1.526,3.696,41.0
44.396,-1.536,3.488,31.0
44.267,-1.521,3.218,46.0
46.066,-1.573,3.082,45.0
57.0,-1.933,3.484,8.0
44.092,-1.486,3.923,40.0
43.827,-1.467,3.645,45.0
44.652,-1.485,3.454,42.0
44.238,-1.461,3.162,44.0
45.963,-1.508,3.02,35.0
57.038,-1.86,3.418,22.0
43.847,-1.42,3.848,35.0
43.715,-1.406,3.582,46.0
44.613,-1.425,3.397,22.0
0.0,0.0,0.0,0.0
56.731,-1.787,3.657,18.0
57.059,-1.785,3.348,19.0
43.757,-1.359,3.784,49.0
44.12,-1.361,3.558,36.0
44.86,-1.373,3.358,34.0
46.02,-1.399,3.173,20.0
56.867,-1.717,3.591,28.0
65.644,-1.969,3.766,10.0
43.668,-1.299,3.719,46.0
43.931,-1.298,3.485,39.0
45.09,-1.322,3.316,26.0
46.711,-1.36,3.159,24.0
57.215,-1.654,3.538,26.0
65.997,-1.894,3.699,18.0
44.096,-1.255,3.695,34.0
43.961,-1.242,3.428,50.0
45.37,-1.273,3.274,23.0
46.505,-1.295,3.082,21.0
62.572,-1.73,3.784,1.0
78.917,-2.166,4.316,4.0
43.829,-1.192,3.612,35.0
44.717,-1.207,3.425,19.0
45.745,-1.225,3.238,20.0
56.78,-1.51,3.683,14.0
73.794,-1.948,4.359,5.0
80.911,-2.12,4.312,13.0
43.752,-1.136,3.544,44.0
46.724,-1.204,3.512,21.0
51.575,-1.318,3.577,7.0
51.638,-1.31,3.276,25.0
63.434,-1.596,3.656,5.0
74.296,-1.856,3.852,19.0
43.798,-1.083,3.484,40.0
45.016,-1.105,3.318,19.0
51.678,-1.258,3.509,16.0
51.587,-1.246,3.197,37.0
73.699,-1.766,4.14,28.0
74.247,-1.765,3.74,28.0
46.218,-1.088,3.608,6.0
51.532,-1.203,3.722,6.0
51.558,-1.194,3.423,23.0
51.848,-1.191,3.136,36.0
73.766,-1.681,4.034,34.0
80.84,-1.827,3.951,12.0
44.99,-1.006,3.443,30.0
51.49,-1.142,3.64,8.0
50.92,-1.12,3.303,26.0
61.233,-1.335,3.61,31.0
74.42,-1.609,3.955,22.0
81.303,-1.744,3.849,13.0
45.069,-0.956,3.38,31.0
50.557,-1.063,3.496,24.0
51.18,-1.067,3.24,27.0
61.147,-1.263,3.509,25.0
81.992,-1.68,4.23,10.0
81.59,-1.657,3.735,24.0
50.368,-1.011,3.696,5.0
50.333,-1.001,3.401,24.0
0.0,0.0,0.0,0.0
73.497,-1.437,4.101,11.0
81.977,-1.588,4.098,21.0
96.031,-1.843,4.242,16.0
48.627,-0.922,3.489,12.0
0.0,0.0,0.0,0.0
60.936,-1.134,3.661,18.0
74.412,-1.372,4.03,12.0
81.47,-1.488,3.938,10.0
95.663,-1.732,4.068,6.0
48.514,-0.867,3.401,34.0
50.23,-0.889,3.228,34.0
61.147,-1.073,3.574,26.0
81.706,-1.42,4.291,34.0
81.568,-1.404,3.808,10.0
112.178,-1.913,4.585,11.0
48.53,-0.816,3.321,39.0
50.735,-0.845,3.176,25.0
61.167,-1.009,3.471,23.0
81.75,-1.335,4.155,15.0
81.575,-1.319,3.671,12.0
106.537,-1.706,4.174,16.0
48.53,-0.766,3.237,35.0
61.401,-0.959,3.738,5.0
73.308,-1.134,4.035,15.0
81.318,-1.245,3.992,13.0
96.395,-1.461,4.171,11.0
106.57,-1.599,3.992,9.0
48.586,-0.718,3.157,23.0
61.418,-0.898,3.631,25.0
81.693,-1.182,4.353,22.0
81.135,-1.162,3.842,24.0
112.161,-1.59,4.658,11.0
190.57,-2.674,6.807,18.0
48.59,-0.671,3.072,16.0
60.716,-0.829,3.484,17.0
81.39,-1.1,4.195,11.0
94.96,-1.269,4.33,18.0
189.864,-2.511,7.552,33.0
210.42,-2.754,7.145,20.0
61.565,-0.792,3.782,11.0
60.548,-0.77,3.365,34.0
81.406,-1.023,4.048,13.0
112.015,-1.392,4.905,16.0
190.473,-2.34,7.229,41.0
211.549,-2.569,6.794,5.0
60.917,-0.727,3.629,16.0
60.553,-0.714,3.254,32.0
81.201,-0.946,3.889,19.0
104.301,-1.202,4.377,10.0
190.585,-2.17,6.885,23.0
211.236,-2.378,6.4,5.0
60.586,-0.669,3.499,23.0
60.42,-0.659,3.136,4.0
80.785,-0.871,3.721,7.0
189.832,-2.02,7.612,128.0
210.588,-2.215,7.219,5.0
119.719,-1.243,3.405,115.0
60.538,-0.616,3.382,23.0
81.228,-0.817,4.064,11.0
80.811,-0.802,3.57,8.0
190.504,-1.868,7.285,45.0
214.81,-2.08,6.963,8.0
119.72,-1.144,3.181,111.0
60.696,-0.567,3.276,5.0
86.064,-0.794,4.142,9.0
189.744,-1.728,8.024,32.0
190.599,-1.714,6.927,29.0
210.735,-1.87,6.429,10.0
119.722,-1.048,2.954,112.0
81.063,-0.694,4.222,4.0
80.846,-0.682,3.736,16.0
189.851,-1.58,7.663,57.0
190.329,-1.563,6.553,4.0
119.716,-0.969,3.422,46.0
119.735,-0.955,2.722,26.0
81.154,-0.632,4.068,13.0
95.498,-0.733,4.228,10.0
190.528,-1.441,7.32,36.0
215.354,-1.605,6.991,8.0
119.774,-0.879,3.19,15.0
119.8,-0.867,2.491,56.0
80.897,-0.571,3.896,9.0
95.402,-0.662,4.035,15.0
190.542,-1.303,6.946,28.0
215.044,-1.448,6.56,7.0
119.768,-0.794,2.953,17.0
119.816,-0.781,2.253,8.0
95.941,-0.609,4.43,14.0
102.928,-0.643,4.149,7.0
0.0,0.0,0.0,0.0
207.842,-1.257,5.925,10.0
119.808,-0.713,2.717,66.0
0.0,0.0,0.0,0.0
95.431,-0.542,4.215,25.0
190.523,-1.064,7.302,44.0
206.963,-1.137,6.721,7.0
119.757,-0.646,3.175,26.0
119.823,-0.635,2.478,20.0
114.309,-0.595,1.695,7.0
189.798,-0.959,8.003,52.0
190.575,-0.945,6.921,20.0
206.234,-1.005,6.282,15.0
119.807,-0.573,2.937,57.0
114.822,-0.539,2.143,2.0
119.731,-0.551,1.534,8.0
117.393,-0.523,4.712,18.0
206.535,-0.902,7.082,17.0
119.808,-0.513,3.407,8.0
193.851,-0.814,4.357,22.0
114.232,-0.47,1.898,7.0
119.697,-0.483,1.291,16.0
117.454,-0.457,4.474,16.0
206.565,-0.787,6.657,15.0
119.79,-0.447,3.16,21.0
114.708,-0.419,2.344,6.0
113.522,-0.405,1.655,8.0
114.46,-0.4,0.998,14.0
117.468,-0.395,4.233,25.0
70.158,-0.23,2.116,7.0
119.807,-0.384,2.912,24.0
114.007,-0.357,2.094,12.0
119.759,-0.367,1.499,11.0
111.103,-0.332,0.74,11.0
117.454,-0.337,3.987,29.0
194.438,-0.544,5.464,24.0
114.881,-0.313,2.555,6.0
113.239,-0.301,1.844,8.0
114.475,-0.297,1.196,32.0
0.0,0.0,0.0,0.0
70.148,-0.169,2.237,8.0
119.782,-0.281,3.118,26.0
114.079,-0.26,2.301,15.0
112.94,-0.251,1.604,12.0
111.079,-0.24,0.929,8.0
0.0,0.0,0.0,0.0
70.1,-0.14,2.088,9.0
115.302,-0.223,2.759,4.0
113.045,-0.211,2.042,7.0
119.736,-0.217,1.45,7.0
110.641,-0.194,0.691,12.0
0.0,0.0,0.0,0.0
117.502,-0.188,3.25,21.0
114.157,-0.177,2.489,16.0
112.832,-0.169,1.8,10.0
117.365,-0.169,1.173,18.0
98.956,-0.137,0.409,1.0
0.0,0.0,0.0,0.0
117.474,-0.148,3.0,22.0
113.029,-0.137,2.226,7.0
111.397,-0.129,1.542,14.0
111.12,-0.123,0.875,11.0
0.0,0.0,0.0,0.0
0.0,0.0,0.0,0.0
114.281,-0.108,2.677,17.0
112.765,-0.102,1.982,18.0
117.339,-0.101,1.376,11.0
110.555,-0.09,0.639,2.0
0.0,0.0,0.0,0.0
0.0,0.0,0.0,0.0
113.337,-0.076,2.414,9.0
111.156,-0.07,1.715,12.0
117.284,-0.07,1.124,9.0
97.075,-0.054,0.352,2.0
0.0,0.0,0.0,0.0
45.492,-0.022,-0.368,2.0
112.715,-0.049,2.16,18.0
117.32,-0.047,1.56,12.0
110.895,-0.041,0.824,15.0
0.0,0.0,0.0,0.0
0.0,0.0,0.0,0.0
44.739,-0.012,-0.457,0.0
117.342,-0.027,1.996,12.0
111.139,-0.023,1.24,13.0
0.0,0.0,0.0,0.0
0.0,0.0,0.0,0.0
49.781,-0.006,-0.323,0.0
39.592,-0.004,-0.489,0.0
117.346,-0.008,1.744,18.0
111.12,-0.005,0.999,7.0
95.668,-0.002,0.301,3.0
0.0,0.0,0.0,0.0
45.408,0.0,-0.392,2.0
35.551,0.001,-0.515,0.0
111.137,0.005,1.415,17.0
110.736,0.007,0.763,9.0
0.0,0.0,0.0,0.0
0.0,0.0,0.0,0.0
0.0,0.0,0.0,0.0
0.0,0.0,0.0,0.0
111.187,0.015,1.18,12.0
95.619,0.014,0.454,6.0
0.0,0.0,0.0,0.0
0.0,0.0,0.0,0.0
37.471,0.006,-0.484,0.0
31.053,0.005,-0.583,0.0
111.017,0.02,0.938,10.0
95.552,0.018,0.248,1.0
0.0,0.0,0.0,0.0
44.982,0.009,-0.413,2.0
35.598,0.007,-0.536,0.0
28.582,0.006,-0.598,0.0
104.253,0.02,0.658,6.0
73.3,0.014,0.033,0.0
0.0,0.0,0.0,0.0
39.839,0.008,-0.452,0.0
31.852,0.006,-0.548,0.0
27.073,0.005,-0.624,0.0
95.616,0.016,0.398,8.0
0.0,0.0,0.0,0.0
45.756,0.007,-0.345,1.0
0.0,0.0,0.0,0.0
0.0,0.0,0.0,0.0
26.275,0.004,-0.662,0.0
0.0,0.0,0.0,0.0
0.0,0.0,0.0,0.0
44.946,0.004,-0.435,1.0
35.371,0.003,-0.553,0.0
28.564,0.002,-0.614,0.0
24.395,0.001,-0.667,0.0
0.0,0.0,0.0,0.0
49.701,0.0,-0.295,0.0
0.0,0.0,0.0,0.0
32.079,0.0,-0.569,0.0
26.671,-0.001,-0.629,0.0
23.474,-0.001,-0.692,0.0
0.0,0.0,0.0,0.0
45.426,-0.006,-0.366,2.0
35.665,-0.005,-0.496,0.0
0.0,0.0,0.0,0.0
0.0,0.0,0.0,0.0
22.252,-0.004,-0.703,0.0
0.0,0.0,0.0,0.0
0.0,0.0,0.0,0.0
33.404,-0.011,-0.536,0.0
28.252,-0.01,-0.622,0.0
24.169,-0.009,-0.674,0.0
21.289,-0.009,-0.718,0.0
0.0,0.0,0.0,0.0
37.745,-0.02,-0.465,0.0
0.0,0.0,0.0,0.0
26.411,-0.015,-0.637,0.0
23.006,-0.014,-0.69,0.0
20.366,-0.013,-0.73,0.0
44.996,-0.034,-0.386,2.0
35.704,-0.028,-0.515,0.0
29.918,-0.024,-0.607,0.0
25.047,-0.021,-0.657,0.0
22.081,-0.019,-0.708,0.0
19.521,-0.018,-0.741,0.0
0.0,0.0,0.0,0.0
33.174,-0.035,-0.548,0.0
0.0,0.0,0.0,0.0
23.752,-0.027,-0.673,0.0
20.98,-0.025,-0.717,0.0
18.866,-0.023,-0.756,0.0
37.758,-0.051,-0.481,0.0
30.663,-0.042,-0.57,0.0
26.392,-0.038,-0.645,0.0
22.731,-0.033,-0.691,0.0
20.115,-0.03,-0.729,0.0
17.908,-0.028,-0.754,0.0
34.748,-0.059,-0.515,0.0
29.251,-0.051,-0.605,0.0
24.911,-0.045,-0.661,0.0
21.727,-0.04,-0.705,0.0
19.441,-0.037,-0.745,0.0
17.672,-0.034,-0.781,1.0
32.251,-0.067,-0.545,0.0
0.0,0.0,0.0,0.0
23.765,-0.052,-0.679,0.0
20.809,-0.047,-0.719,0.0
18.661,-0.043,-0.754,0.0
16.906,-0.04,-0.782,0.0
30.172,-0.076,-0.572,0.0
26.066,-0.067,-0.646,0.0
22.397,-0.059,-0.686,0.0
20.031,-0.054,-0.733,0.0
18.011,-0.05,-0.764,0.0
16.452,-0.046,-0.794,0.0
28.93,-0.086,-0.607,0.0
24.576,-0.075,-0.659,0.0
21.83,-0.068,-0.713,0.0
19.277,-0.061,-0.744,0.0
17.382,-0.056,-0.773,0.0
15.858,-0.052,-0.798,0.0
0.0,0.0,0.0,0.0
23.648,-0.084,-0.682,0.0
20.692,-0.075,-0.718,0.0
18.606,-0.069,-0.756,0.0
16.852,-0.063,-0.784,0.0
15.427,-0.059,-0.808,0.0
25.672,-0.103,-0.642,0.0
22.153,-0.09,-0.683,0.0
19.957,-0.083,-0.732,0.0
17.925,-0.076,-0.764,0.0
16.327,-0.07,-0.792,0.0
14.979,-0.066,-0.814,0.0
24.565,-0.112,-0.663,0.0
21.576,-0.1,-0.708,0.0
19.127,-0.09,-0.74,0.0
17.316,-0.083,-0.773,0.0
15.824,-0.077,-0.799,0.0
14.554,-0.072,-0.82,0.0
23.4,-0.121,-0.678,0.0
20.758,-0.109,-0.723,0.0
18.578,-0.099,-0.755,0.0
16.807,-0.091,-0.784,0.0
15.391,-0.085,-0.807,0.0
14.13,-0.079,-0.824,0.0
22.41,-0.13,-0.693,0.0
19.872,-0.117,-0.731,0.0
17.976,-0.108,-0.766,0.0
16.266,-0.099,-0.79,0.0
14.892,-0.092,-0.811,0.0
13.787,-0.086,-0.831,0.0
21.439,-0.139,-0.705,0.0
19.22,-0.126,-0.744,0.0
17.322,-0.116,-0.772,0.0
15.731,-0.106,-0.795,0.0
14.535,-0.1,-0.819,0.0
13.487,-0.094,-0.839,0.0
20.668,-0.148,-0.719,0.0
18.559,-0.135,-0.754,0.0
16.77,-0.124,-0.779,0.0
15.335,-0.115,-0.804,0.0
14.193,-0.108,-0.827,0.0
13.175,-0.101,-0.845,0.0
19.907,-0.158,-0.73,0.0
17.857,-0.143,-0.759,0.0
16.388,-0.133,-0.792,0.0
14.967,-0.123,-0.813,0.0
13.79,-0.115,-0.829,0.0
12.816,-0.108,-0.846,0.0
19.29,-0.167,-0.743,0.0
17.382,-0.153,-0.771,0.0
15.812,-0.141,-0.794,0.0
14.587,-0.131,-0.819,0.0
13.539,-0.124,-0.839,0.0
12.484,-0.115,-0.847,0.0
18.519,-0.175,-0.748,0.0
16.906,-0.162,-0.781,0.0
15.423,-0.15,-0.803,0.0
14.188,-0.139,-0.823,0.0
13.243,-0.132,-0.845,0.0
12.197,-0.123,-0.85,0.0
18.0,-0.185,-0.759,0.0
16.413,-0.171,-0.788,0.0
14.999,-0.158,-0.808,0.0
13.846,-0.148,-0.828,0.0
12.916,-0.139,-0.848,0.0
11.843,-0.129,-0.847,0.0
17.441,-0.194,-0.767,0.0
15.918,-0.179,-0.793,0.0
14.64,-0.167,-0.814,0.0
13.522,-0.156,-0.832,0.0
12.521,-0.146,-0.844,0.0
11.614,-0.137,-0.851,0.0
16.995,-0.204,-0.777,0.0
15.479,-0.188,-0.798,0.0
14.366,-0.176,-0.824,0.0
13.26,-0.165,-0.839,0.0
12.266,-0.154,-0.848,0.0
11.423,-0.145,-0.857,0.0
16.574,-0.214,-0.786,0.0
15.143,-0.198,-0.806,0.0
13.98,-0.184,-0.826,0.0
13.031,-0.174,-0.847,0.0
11.974,-0.161,-0.848,0.0
11.24,-0.153,-0.862,0.0
16.069,-0.223,-0.789,0.0
14.636,-0.205,-0.804,0.0
13.636,-0.193,-0.829,0.0
12.629,-0.18,-0.842,0.0
11.684,-0.169,-0.848,0.0
11.027,-0.161,-0.864,0.0
15.739,-0.233,-0.799,0.0
14.451,-0.216,-0.818,0.0
13.437,-0.203,-0.839,0.0
12.392,-0.189,-0.847,0.0
11.509,-0.177,-0.854,0.0
10.914,-0.17,-0.874,0.0
15.347,-0.243,-0.805,0.0
14.175,-0.226,-0.826,0.0
13.107,-0.211,-0.84,0.0
12.102,-0.197,-0.847,0.0
11.352,-0.186,-0.861,0.0
10.685,-0.177,-0.873,0.0
14.994,-0.252,-0.81,0.0
13.822,-0.235,-0.827,0.0
12.916,-0.221,-0.848,0.0
11.815,-0.204,-0.846,0.0
11.115,-0.194,-0.861,0.0
10.525,-0.185,-0.876,0.0
14.634,-0.261,-0.814,0.0
13.565,-0.244,-0.833,0.0
12.487,-0.227,-0.84,0.0
11.595,-0.213,-0.848,0.0
11.0,-0.204,-0.869,0.0
10.381,-0.194,-0.881,0.0
14.337,-0.271,-0.819,0.0
13.271,-0.253,-0.836,0.0
12.329,-0.237,-0.848,0.0
11.441,-0.222,-0.855,0.0
10.823,-0.212,-0.872,0.0
10.241,-0.202,-0.885,0.0
14.049,-0.281,-0.824,0.0
12.991,-0.262,-0.838,0.0
12.07,-0.246,-0.848,0.0
11.273,-0.231,-0.859,0.0
10.642,-0.22,-0.873,0.0
10.115,-0.211,-0.889,0.0
13.76,-0.291,-0.828,0.0
18.109,-0.386,-1.195,0.0
11.807,-0.254,-0.847,0.0
11.11,-0.241,-0.863,0.0
10.493,-0.229,-0.876,0.0
9.965,-0.219,-0.89,0.0
13.55,-0.302,-0.835,0.0
12.498,-0.28,-0.842,0.0
11.595,-0.262,-0.849,0.0
10.947,-0.25,-0.866,0.0
10.366,-0.238,-0.88,0.0
9.844,-0.228,-0.894,0.0
18.142,-0.425,-1.143,0.0
12.285,-0.29,-0.845,0.0
11.434,-0.272,-0.853,0.0
10.807,-0.259,-0.87,0.0
10.25,-0.248,-0.885,0.0
9.71,-0.236,-0.895,0.0
18.115,-0.446,-1.166,1.0
12.093,-0.3,-0.849,0.0
11.301,-0.282,-0.858,0.0
10.652,-0.268,-0.872,0.0
10.125,-0.257,-0.888,0.0
9.637,-0.246,-0.901,0.0
18.109,-0.467,-1.19,0.0
11.847,-0.308,-0.847,0.0
11.135,-0.291,-0.861,0.0
10.504,-0.277,-0.874,0.0
9.98,-0.265,-0.888,0.0
9.523,-0.255,-0.903,0.0
12.609,-0.34,-0.845,0.0
11.669,-0.317,-0.849,0.0
11.0,-0.301,-0.864,0.0
10.393,-0.287,-0.878,0.0
9.84,-0.273,-0.888,0.0
9.412,-0.263,-0.905,0.0
12.381,-0.349,-0.845,0.0
11.513,-0.327,-0.852,0.0
10.897,-0.312,-0.87,0.0
10.302,-0.297,-0.883,0.0
9.767,-0.283,-0.894,0.0
9.315,-0.272,-0.907,0.0
12.15,-0.358,-0.844,0.0
11.372,-0.337,-0.856,0.0
10.76,-0.321,-0.872,0.0
10.154,-0.305,-0.883,0.0
9.672,-0.293,-0.897,0.0
9.199,-0.281,-0.907,0.0
11.963,-0.368,-0.845,0.0
11.246,-0.348,-0.86,0.0
10.627,-0.331,-0.874,0.0
10.059,-0.315,-0.886,0.0
9.618,-0.304,-0.903,0.0
9.144,-0.291,-0.912,0.0
11.814,-0.378,-0.848,0.0
11.097,-0.357,-0.861,0.0
10.508,-0.341,-0.876,0.0
9.948,-0.325,-0.888,0.0
9.508,-0.312,-0.904,0.0
9.027,-0.298,-0.91,0.0
11.631,-0.387,-0.848,0.0
10.993,-0.368,-0.865,0.0
10.421,-0.351,-0.88,0.0
9.842,-0.334,-0.889,0.0
9.437,-0.322,-0.907,0.0
8.929,-0.307,-0.91,0.0
11.506,-0.398,-0.851,0.0
10.899,-0.379,-0.869,0.0
10.307,-0.361,-0.881,0.0
9.748,-0.343,-0.89,0.0
9.334,-0.331,-0.906,0.0
8.857,-0.316,-0.912,0.0
11.395,-0.409,-0.854,0.0
10.79,-0.389,-0.871,0.0
10.229,-0.371,-0.884,0.0
9.71,-0.355,-0.897,0.0
9.224,-0.339,-0.905,0.0
8.802,-0.326,-0.915,0.0
11.263,-0.419,-0.855,0.0
10.652,-0.399,-0.87,0.0
10.137,-0.382,-0.886,0.0
9.645,-0.365,-0.9,0.0
9.118,-0.347,-0.903,0.0
8.794,-0.337,-0.922,0.0
11.147,-0.429,-0.857,0.0
10.596,-0.41,-0.875,0.0
10.037,-0.391,-0.887,0.0
9.572,-0.375,-0.902,0.0
9.082,-0.358,-0.908,0.0
8.719,-0.346,-0.922,0.0
11.051,-0.44,-0.859,0.0
10.513,-0.421,-0.878,0.0
9.967,-0.402,-0.889,0.0
9.52,-0.386,-0.905,0.0
9.049,-0.369,-0.912,0.0
8.596,-0.352,-0.917,0.0
11.009,-0.453,-0.865,0.0
10.417,-0.431,-0.878,0.0
9.874,-0.411,-0.889,0.0
9.387,-0.393,-0.9,0.0
8.999,-0.379,-0.915,0.0
8.536,-0.362,-0.917,0.0
10.909,-0.464,-0.866,0.0
10.326,-0.442,-0.879,0.0
9.826,-0.423,-0.893,0.0
9.31,-0.403,-0.9,0.0
8.962,-0.39,-0.918,0.0
8.545,-0.374,-0.925,0.0
10.848,-0.476,-0.87,0.0
10.278,-0.454,-0.883,0.0
9.779,-0.434,-0.896,0.0
9.297,-0.415,-0.906,0.0
8.868,-0.398,-0.915,0.0
8.466,-0.382,-0.922,0.0
10.746,-0.486,-0.869,0.0
10.208,-0.464,-0.884,0.0
9.696,-0.443,-0.895,0.0
9.224,-0.424,-0.905,0.0
8.81,-0.407,-0.915,0.0
8.42,-0.391,-0.923,0.0
10.677,-0.498,-0.871,0.0
10.137,-0.475,-0.884,0.0
9.637,-0.454,-0.896,0.0
9.163,-0.434,-0.905,0.0
8.804,-0.419,-0.921,0.0
8.384,-0.401,-0.925,0.0
10.6,-0.509,-0.871,0.0
10.107,-0.487,-0.888,0.0
9.615,-0.466,-0.9,0.0
9.164,-0.446,-0.911,0.0
8.718,-0.427,-0.917,0.0
8.334,-0.41,-0.924,0.0
10.553,-0.521,-0.873,0.0
10.03,-0.497,-0.887,0.0
9.573,-0.477,-0.901,0.0
9.094,-0.455,-0.909,0.0
8.629,-0.434,-0.912,0.0
8.321,-0.421,-0.927,0.0
10.515,-0.533,-0.876,0.0
9.996,-0.509,-0.89,0.0
9.498,-0.486,-0.899,0.0
9.074,-0.467,-0.912,0.0
8.648,-0.447,-0.919,0.0
8.279,-0.43,-0.927,0.0
10.454,-0.544,-0.876,0.0
9.91,-0.518,-0.887,0.0
9.483,-0.499,-0.903,0.0
9.034,-0.477,-0.912,0.0
8.641,-0.459,-0.922,0.0
8.238,-0.439,-0.926,0.0
10.396,-0.555,-0.876,0.0
9.903,-0.532,-0.891,0.0
9.484,-0.511,-0.907,0.0
9.034,-0.489,-0.916,0.0
8.611,-0.469,-0.923,0.0
8.202,-0.449,-0.926,0.0
10.391,-0.569,-0.88,0.0
9.873,-0.543,-0.892,0.0
9.361,-0.518,-0.899,0.0
8.972,-0.498,-0.913,0.0
8.652,-0.483,-0.93,0.0
8.197,-0.46,-0.928,0.0
10.329,-0.58,-0.878,0.0
9.792,-0.552,-0.888,0.0
9.373,-0.531,-0.903,0.0
8.976,-0.511,-0.917,0.0
8.562,-0.489,-0.923,0.0
8.19,-0.47,-0.93,0.0
10.317,-0.593,-0.881,0.0
9.792,-0.565,-0.891,0.0
9.309,-0.54,-0.9,0.0
8.959,-0.522,-0.918,0.0
8.534,-0.499,-0.923,0.0
8.169,-0.48,-0.93,0.0
10.304,-0.606,-0.882,0.0
9.773,-0.578,-0.892,0.0
9.338,-0.554,-0.905,0.0
8.91,-0.531,-0.915,0.0
8.539,-0.511,-0.926,0.0
8.157,-0.491,-0.931,0.0
10.289,-0.619,-0.883,0.0
9.777,-0.591,-0.895,0.0
9.34,-0.567,-0.907,0.0
8.886,-0.542,-0.915,0.0
8.535,-0.522,-0.927,0.0
8.121,-0.499,-0.928,0.0
10.261,-0.631,-0.883,0.0
9.748,-0.602,-0.894,0.0
9.322,-0.578,-0.907,0.0
8.909,-0.555,-0.918,0.0
8.528,-0.533,-0.928,0.0
8.117,-0.51,-0.929,0.0
10.257,-0.645,-0.884,0.0
9.756,-0.615,-0.896,0.0
9.311,-0.59,-0.907,0.0
8.886,-0.565,-0.917,0.0
8.445,-0.539,-0.919,0.0
8.126,-0.521,-0.931,0.0
10.246,-0.657,-0.884,0.0
9.722,-0.626,-0.894,0.0
9.3,-0.601,-0.907,0.0
8.903,-0.578,-0.92,0.0
8.442,-0.55,-0.92,0.0
8.112,-0.531,-0.93,0.0
10.276,-0.672,-0.887,0.0
9.74,-0.64,-0.896,0.0
9.267,-0.611,-0.904,0.0
8.864,-0.587,-0.916,0.0
8.514,-0.566,-0.928,0.0
8.11,-0.541,-0.93,0.0
10.255,-0.684,-0.886,0.0
9.75,-0.653,-0.897,0.0
9.263,-0.623,-0.904,0.0
8.846,-0.597,-0.914,0.0
8.492,-0.575,-0.925,0.0
8.112,-0.552,-0.93,0.0
10.244,-0.697,-0.884,0.0
9.77,-0.667,-0.898,0.0
9.308,-0.638,-0.908,0.0
8.857,-0.609,-0.915,0.0
8.487,-0.586,-0.924,0.0
8.111,-0.562,-0.929,0.0
10.249,-0.71,-0.884,0.0
9.74,-0.677,-0.895,0.0
9.295,-0.648,-0.906,0.0
8.909,-0.624,-0.919,0.0
8.474,-0.596,-0.922,0.0
8.133,-0.574,-0.931,0.0
10.275,-0.725,-0.885,0.0
9.75,-0.69,-0.894,0.0
9.302,-0.661,-0.905,0.0
8.895,-0.634,-0.916,0.0
8.521,-0.61,-0.926,0.0
8.164,-0.586,-0.933,0.0
10.289,-0.738,-0.885,0.0
9.786,-0.704,-0.896,0.0
9.302,-0.672,-0.904,0.0
8.928,-0.647,-0.918,0.0
8.479,-0.617,-0.92,0.0
8.132,-0.594,-0.928,0.0
10.304,-0.752,-0.884,0.0
9.816,-0.718,-0.897,0.0
9.358,-0.687,-0.907,0.0
8.911,-0.657,-0.914,0.0
8.572,-0.634,-0.928,0.0
8.174,-0.607,-0.93,0.0
10.312,-0.765,-0.882,0.0
9.828,-0.731,-0.895,0.0
9.374,-0.7,-0.906,0.0
8.941,-0.669,-0.915,0.0
0.0,0.0,0.0,0.0
8.193,-0.618,-0.93,0.0
10.365,-0.781,-0.884,0.0
9.86,-0.745,-0.895,0.0
9.427,-0.715,-0.908,0.0
8.969,-0.682,-0.915,0.0
8.55,-0.652,-0.92,0.0
8.179,-0.626,-0.926,0.0
10.402,-0.795,-0.883,0.0
9.865,-0.757,-0.892,0.0
9.398,-0.723,-0.902,0.0
8.961,-0.692,-0.911,0.0
8.608,-0.667,-0.923,0.0
8.21,-0.638,-0.926,0.0
10.448,-0.811,-0.883,0.0
9.909,-0.771,-0.893,0.0
9.473,-0.739,-0.906,0.0
9.038,-0.708,-0.915,0.0
0.0,0.0,0.0,0.0
8.284,-0.653,-0.931,0.0
10.477,-0.824,-0.881,0.0
9.944,-0.785,-0.892,0.0
9.493,-0.751,-0.904,0.0
9.045,-0.718,-0.912,0.0
8.613,-0.686,-0.917,0.0
8.274,-0.661,-0.927,0.0
10.529,-0.84,-0.881,0.0
9.997,-0.8,-0.892,0.0
9.552,-0.766,-0.905,0.0
9.114,-0.733,-0.915,0.0
8.664,-0.699,-0.918,0.0
8.284,-0.67,-0.924,0.0
10.607,-0.857,-0.883,0.0
10.072,-0.816,-0.894,0.0
9.634,-0.783,-0.908,0.0
9.104,-0.742,-0.909,0.0
8.708,-0.712,-0.918,0.0
8.349,-0.684,-0.927,0.0
10.668,-0.873,-0.882,0.0
10.122,-0.831,-0.893,0.0
9.655,-0.795,-0.905,0.0
9.143,-0.754,-0.908,0.0
8.834,-0.731,-0.926,0.0
8.413,-0.698,-0.929,0.0
10.744,-0.89,-0.882,0.0
10.162,-0.844,-0.89,0.0
9.686,-0.807,-0.902,0.0
9.233,-0.771,-0.912,0.0
8.831,-0.739,-0.921,0.0
8.435,-0.708,-0.926,0.0
10.831,-0.908,-0.883,0.0
10.234,-0.86,-0.89,0.0
9.721,-0.819,-0.899,0.0
9.295,-0.785,-0.912,0.0
8.846,-0.749,-0.917,0.0
8.476,-0.72,-0.925,0.0
10.881,-0.922,-0.88,0.0
10.279,-0.874,-0.888,0.0
9.778,-0.833,-0.898,0.0
9.318,-0.796,-0.908,0.0
8.882,-0.76,-0.915,0.0
8.513,-0.731,-0.924,0.0
10.946,-0.938,-0.878,0.0
10.359,-0.89,-0.888,0.0
9.842,-0.847,-0.897,0.0
9.371,-0.809,-0.907,0.0
8.958,-0.775,-0.916,0.0
8.522,-0.739,-0.918,0.0
11.019,-0.954,-0.876,0.0
10.442,-0.906,-0.887,0.0
9.912,-0.862,-0.896,0.0
9.438,-0.823,-0.906,0.0
9.013,-0.787,-0.915,0.0
8.551,-0.749,-0.915,0.0
11.101,-0.97,-0.874,0.0
10.536,-0.923,-0.887,0.0
9.987,-0.877,-0.896,0.0
9.527,-0.838,-0.908,0.0
9.072,-0.8,-0.914,0.0
8.677,-0.767,-0.922,0.0
11.205,-0.989,-0.874,0.0
10.63,-0.94,-0.887,0.0
10.054,-0.891,-0.894,0.0
9.59,-0.852,-0.906,0.0
9.142,-0.814,-0.914,0.0
8.658,-0.772,-0.913,0.0
11.326,-1.008,-0.874,0.0
10.723,-0.957,-0.886,0.0
10.146,-0.907,-0.894,0.0
9.639,-0.863,-0.903,0.0
9.204,-0.826,-0.912,0.0
8.801,-0.792,-0.921,0.0
11.418,-1.025,-0.872,0.0
10.835,-0.975,-0.886,0.0
10.248,-0.924,-0.894,0.0
9.741,-0.88,-0.904,0.0
9.309,-0.842,-0.915,0.0
8.868,-0.804,-0.92,0.0
11.539,-1.044,-0.871,0.0
10.943,-0.992,-0.885,0.0
10.319,-0.937,-0.891,0.0
9.809,-0.893,-0.901,0.0
9.384,-0.856,-0.913,0.0
8.904,-0.814,-0.915,0.0
11.7,-1.067,-0.872,0.0
11.036,-1.008,-0.883,0.0
10.438,-0.955,-0.891,0.0
9.881,-0.906,-0.899,0.0
9.457,-0.869,-0.912,0.0
9.019,-0.83,-0.919,0.0
11.78,-1.082,-0.867,0.0
11.171,-1.028,-0.883,0.0
10.539,-0.972,-0.89,1.0
9.98,-0.921,-0.898,0.0
9.507,-0.879,-0.907,0.0
9.076,-0.841,-0.915,0.0
11.898,-1.1,-0.864,0.0
11.281,-1.045,-0.881,0.0
10.599,-0.983,-0.885,0.0
10.109,-0.939,-0.9,0.0
9.593,-0.893,-0.906,0.0
9.161,-0.854,-0.915,0.0
12.013,-1.118,-0.861,0.0
11.353,-1.058,-0.875,0.0
10.708,-1.0,-0.883,0.0
10.201,-0.954,-0.898,0.0
9.703,-0.909,-0.906,0.0
9.253,-0.868,-0.915,0.0
12.171,-1.139,-0.86,0.0
11.474,-1.076,-0.872,0.0
10.878,-1.021,-0.886,0.0
10.321,-0.97,-0.897,0.0
9.806,-0.923,-0.906,0.0
9.352,-0.882,-0.914,0.0
12.359,-1.163,-0.86,0.0
11.632,-1.096,-0.872,0.0
10.946,-1.033,-0.88,0.0
10.417,-0.984,-0.895,0.0
9.909,-0.938,-0.904,0.0
9.444,-0.895,-0.913,0.0
12.534,-1.186,-0.859,0.0
11.704,-1.109,-0.865,0.0
11.14,-1.057,-0.883,0.0
10.529,-1.0,-0.893,0.0
10.025,-0.953,-0.904,0.0
9.528,-0.907,-0.911,0.0
12.641,-1.201,-0.852,0.0
11.868,-1.129,-0.864,0.0
11.25,-1.072,-0.879,0.0
10.676,-1.018,-0.893,0.0
10.14,-0.968,-0.903,0.0
9.626,-0.92,-0.909,0.0
12.851,-1.226,-0.852,0.0
12.121,-1.158,-0.868,0.0
11.363,-1.087,-0.875,0.0
10.804,-1.034,-0.891,0.0
10.262,-0.984,-0.902,0.0
9.736,-0.934,-0.908,0.0
13.038,-1.249,-0.849,0.0
12.294,-1.179,-0.867,0.0
11.477,-1.101,-0.871,0.0
10.926,-1.05,-0.889,0.0
10.368,-0.997,-0.899,0.0
9.871,-0.95,-0.909,0.0
13.18,-1.266,-0.843,0.0
12.454,-1.198,-0.863,0.0
11.659,-1.122,-0.871,0.0
11.068,-1.066,-0.887,0.0
10.436,-1.006,-0.892,0.0
9.967,-0.962,-0.906,0.0
13.402,-1.291,-0.841,0.0
12.55,-1.21,-0.855,0.0
11.753,-1.134,-0.864,0.0
11.214,-1.083,-0.885,0.0
10.591,-1.024,-0.893,0.0
10.1,-0.977,-0.906,0.0
13.551,-1.309,-0.834,0.0
12.73,-1.23,-0.852,0.0
11.931,-1.154,-0.862,0.0
11.314,-1.095,-0.879,0.0
10.8,-1.046,-0.897,0.0
10.217,-0.991,-0.904,0.0
13.857,-1.341,-0.836,0.0
12.981,-1.257,-0.852,0.0
12.199,-1.182,-0.866,0.0
11.463,-1.111,-0.877,0.0
10.907,-1.058,-0.892,0.0
10.303,-1.0,-0.898,0.0
14.067,-1.363,-0.831,0.0
13.176,-1.278,-0.849,0.0
12.394,-1.203,-0.865,0.0
11.586,-1.125,-0.871,0.0
10.993,-1.068,-0.886,0.0
10.448,-1.015,-0.898,0.0
14.312,-1.389,-0.828,0.0
13.346,-1.295,-0.843,0.0
12.568,-1.22,-0.86,0.0
11.78,-1.144,-0.871,0.0
11.199,-1.089,-0.888,0.0
10.573,-1.028,-0.895,0.0
14.541,-1.412,-0.822,0.0
13.592,-1.32,-0.841,0.0
12.707,-1.234,-0.854,0.0
11.869,-1.154,-0.862,0.0
11.31,-1.1,-0.882,0.0
10.747,-1.045,-0.895,0.0
14.892,-1.446,-0.823,0.0
13.86,-1.346,-0.839,0.0
12.922,-1.255,-0.851,0.0
12.127,-1.178,-0.865,0.0
11.441,-1.112,-0.877,0.0
10.891,-1.059,-0.893,0.0
15.332,-1.488,-0.827,0.0
13.976,-1.357,-0.828,0.0
13.152,-1.277,-0.849,0.0
12.387,-1.203,-0.867,0.0
11.592,-1.126,-0.873,0.0
10.982,-1.067,-0.886,0.0
15.391,-1.493,-0.81,3.0
14.315,-1.389,-0.829,0.0
13.409,-1.301,-0.848,0.0
12.498,-1.213,-0.858,0.0
11.776,-1.143,-0.871,0.0
11.209,-1.088,-0.889,0.0
15.541,-1.506,-0.797,0.0
14.627,-1.417,-0.827,0.0
13.583,-1.316,-0.84,0.0
12.742,-1.234,-0.857,0.0
11.971,-1.16,-0.869,0.0
11.322,-1.097,-0.882,0.0
16.084,-1.556,-0.803,0.0
14.944,-1.445,-0.825,0.0
13.82,-1.336,-0.836,0.0
12.969,-1.254,-0.855,0.0
12.23,-1.182,-0.872,0.0
11.48,-1.11,-0.879,0.0
16.372,-1.58,-0.795,0.0
15.334,-1.48,-0.826,1.0
14.058,-1.356,-0.832,0.0
13.104,-1.264,-0.846,0.0
12.425,-1.198,-0.868,0.0
11.656,-1.124,-0.877,0.0
16.933,-1.63,-0.799,0.0
15.365,-1.479,-0.807,3.0
14.253,-1.371,-0.824,0.0
13.384,-1.287,-0.846,0.0
12.565,-1.208,-0.861,0.0
11.808,-1.135,-0.872,0.0
17.165,-1.648,-0.787,0.0
15.612,-1.498,-0.798,0.0
14.613,-1.401,-0.824,0.0
13.621,-1.306,-0.842,0.0
12.773,-1.224,-0.857,0.0
11.965,-1.146,-0.867,0.0
17.352,-1.66,-0.771,0.0
16.124,-1.541,-0.802,0.0
15.042,-1.437,-0.828,0.0
13.857,-1.323,-0.837,0.0
13.001,-1.241,-0.855,0.0
12.28,-1.172,-0.873,0.0
17.511,-1.668,-0.754,1.0
16.434,-1.565,-0.795,0.0
15.332,-1.459,-0.823,0.0
14.135,-1.344,-0.835,0.0
13.257,-1.26,-0.853,0.0
12.439,-1.182,-0.867,0.0
17.64,-1.673,-0.736,1.0
16.809,-1.593,-0.79,0.0
15.394,-1.458,-0.805,0.0
14.373,-1.36,-0.829,0.0
13.456,-1.273,-0.847,0.0
12.632,-1.194,-0.862,0.0
17.844,-1.684,-0.719,1.0
17.133,-1.616,-0.781,0.0
15.867,-1.495,-0.807,0.0
14.672,-1.381,-0.826,0.0
13.734,-1.292,-0.846,0.0
12.873,-1.21,-0.861,0.0
18.101,-1.699,-0.705,1.0
17.725,-1.662,-0.784,0.0
16.184,-1.516,-0.801,0.0
14.997,-1.404,-0.823,0.0
13.899,-1.3,-0.836,0.0
13.056,-1.22,-0.855,0.0
18.331,-1.71,-0.688,1.0
18.06,-1.683,-0.773,0.0
16.631,-1.548,-0.8,0.0
15.257,-1.419,-0.816,0.0
14.228,-1.322,-0.836,0.0
13.289,-1.234,-0.852,0.0
18.625,-1.726,-0.673,1.0
18.534,-1.716,-0.768,0.0
16.705,-1.545,-0.78,0.0
15.49,-1.431,-0.807,0.0
14.487,-1.337,-0.831,0.0
13.596,-1.253,-0.852,0.0
19.026,-1.751,-0.661,1.0
18.914,-1.739,-0.757,0.0
17.265,-1.585,-0.782,0.0
15.874,-1.456,-0.804,0.0
14.801,-1.356,-0.828,0.0
13.747,-1.258,-0.842,0.0
19.447,-1.777,-0.648,1.0
19.492,-1.778,-0.753,0.0
17.586,-1.602,-0.772,0.0
16.53,-1.504,-0.815,0.0
15.04,-1.367,-0.821,0.0
14.092,-1.279,-0.843,0.0
19.888,-1.802,-0.635,2.0
19.927,-1.803,-0.742,0.0
17.971,-1.624,-0.764,0.0
16.675,-1.504,-0.798,1.0
15.314,-1.38,-0.814,0.0
14.31,-1.287,-0.837,0.0
20.332,-1.826,-0.621,2.0
20.384,-1.828,-0.73,0.0
18.574,-1.663,-0.764,0.0
16.989,-1.519,-0.79,0.0
15.742,-1.405,-0.815,0.0
14.659,-1.307,-0.836,0.0
20.898,-1.86,-0.61,1.0
20.968,-1.863,-0.722,0.0
19.048,-1.69,-0.757,0.0
17.304,-1.532,-0.781,0.0
16.063,-1.42,-0.81,0.0
14.887,-1.314,-0.829,0.0
21.541,-1.899,-0.599,2.0
21.649,-1.905,-0.716,0.0
19.424,-1.706,-0.745,0.0
17.576,-1.541,-0.769,0.0
16.371,-1.433,-0.802,0.0
15.234,-1.331,-0.827,0.0
22.225,-1.939,-0.588,2.0
22.283,-1.94,-0.707,1.0
19.962,-1.735,-0.738,0.0
18.145,-1.574,-0.769,0.0
16.608,-1.438,-0.791,0.0
15.427,-1.333,-0.817,0.0
22.969,-1.982,-0.576,2.0
22.811,-1.964,-0.692,0.0
20.525,-1.764,-0.731,0.0
0.0,0.0,0.0,0.0
17.172,-1.47,-0.795,0.0
15.821,-1.351,-0.816,0.0
23.724,-2.024,-0.563,3.0
23.578,-2.007,-0.684,0.0
21.282,-1.807,-0.73,0.0
19.134,-1.621,-0.759,0.0
17.543,-1.483,-0.789,0.0
16.143,-1.362,-0.811,0.0
24.55,-2.069,-0.55,3.0
24.356,-2.048,-0.674,0.0
21.684,-1.819,-0.714,0.0
19.534,-1.635,-0.749,0.0
17.838,-1.489,-0.778,0.0
16.56,-1.38,-0.81,0.0
25.56,-2.127,-0.539,3.0
25.329,-2.102,-0.667,0.0
22.687,-1.878,-0.717,0.0
20.203,-1.668,-0.748,0.0
18.166,-1.497,-0.769,0.0
16.824,-1.383,-0.801,0.0
26.527,-2.177,-0.524,4.0
26.403,-2.162,-0.661,1.0
22.88,-1.868,-0.694,0.0
20.82,-1.696,-0.743,0.0
18.715,-1.52,-0.767,0.0
16.998,-1.377,-0.787,0.0
27.704,-2.242,-0.511,2.0
27.613,-2.229,-0.655,0.0
23.573,-1.897,-0.684,0.0
21.199,-1.702,-0.729,0.0
18.976,-1.519,-0.753,0.0
17.571,-1.403,-0.79,0.0
29.111,-2.321,-0.5,2.0
28.7,-2.282,-0.644,0.0
0.0,0.0,0.0,0.0
22.073,-1.745,-0.731,1.0
19.347,-1.525,-0.743,0.0
17.819,-1.401,-0.779,0.0
30.421,-2.388,-0.484,1.0
30.411,-2.38,-0.644,0.0
0.0,0.0,0.0,0.0
22.001,-1.712,-0.701,0.0
20.106,-1.56,-0.747,0.0
18.089,-1.399,-0.768,0.0
32.215,-2.488,-0.471,2.0
0.0,0.0,0.0,0.0
0.0,0.0,0.0,0.0
23.088,-1.766,-0.706,0.0
20.758,-1.583,-0.745,0.0
18.73,-1.424,-0.771,0.0
34.234,-2.599,-0.458,2.0
0.0,0.0,0.0,0.0
27.071,-2.041,-0.649,0.0
23.609,-1.774,-0.693,0.0
21.113,-1.582,-0.732,0.0
19.044,-1.422,-0.761,0.0
36.546,-2.724,-0.445,1.0
0.0,0.0,0.0,0.0
28.102,-2.081,-0.64,0.0
24.463,-1.805,-0.689,1.0
21.731,-1.598,-0.727,0.0
19.667,-1.441,-0.762,1.0
39.905,-2.92,-0.438,1.0
0.0,0.0,0.0,0.0
30.4,-2.208,-0.655,0.0
24.83,-1.797,-0.669,0.0
22.459,-1.62,-0.725,0.0
19.697,-1.416,-0.74,2.0
43.085,-3.091,-0.422,1.0
0.0,0.0,0.0,0.0
30.063,-2.14,-0.613,3.0
26.121,-1.853,-0.673,0.0
22.792,-1.61,-0.708,1.0
20.089,-1.414,-0.731,3.0
47.547,-3.341,-0.41,0.0
0.0,0.0,0.0,0.0
30.605,-2.134,-0.588,0.0
0.0,0.0,0.0,0.0
23.223,-1.606,-0.695,0.0
20.211,-1.393,-0.712,0.0
20.025,-1.377,-0.149,15.0
20.042,-1.372,-0.256,13.0
20.06,-1.368,-0.363,8.0
20.075,-1.363,-0.471,6.0
20.112,-1.36,-0.579,4.0
20.145,-1.357,-0.687,1.0
20.02,-1.346,-0.127,26.0
20.031,-1.341,-0.233,25.0
20.057,-1.337,-0.34,27.0
20.071,-1.332,-0.449,26.0
20.095,-1.328,-0.556,28.0
20.122,-1.324,-0.664,22.0
19.99,-1.312,-0.104,34.0
20.011,-1.308,-0.211,30.0
20.041,-1.304,-0.318,25.0
20.058,-1.299,-0.427,30.0
20.088,-1.295,-0.534,30.0
20.127,-1.292,-0.643,25.0
19.995,-1.281,-0.083,34.0
20.017,-1.276,-0.19,29.0
20.064,-1.273,-0.297,20.0
20.077,-1.268,-0.406,27.0
20.104,-1.263,-0.513,23.0
20.122,-1.259,-0.621,5.0
20.015,-1.249,-0.062,26.0
20.039,-1.245,-0.169,26.0
20.019,-1.237,-0.275,8.0
20.016,-1.231,-0.384,6.0
19.964,-1.222,-0.489,10.0
19.984,-1.217,-0.596,72.0
19.983,-1.214,-0.042,151.0
19.982,-1.208,-0.148,151.0
19.988,-1.202,-0.255,152.0
19.974,-1.195,-0.363,150.0
19.984,-1.19,-0.47,150.0
19.978,-1.183,-0.576,83.0
20.007,-1.182,-0.022,70.0
20.011,-1.176,-0.129,150.0
20.01,-1.17,-0.235,49.0
19.999,-1.163,-0.344,2.0
19.972,-1.155,-0.45,0.0
20.057,-1.153,-0.559,0.0
20.055,-1.151,-0.003,0.0
0.0,0.0,0.0,0.0
0.0,0.0,0.0,0.0
34.336,-1.936,-0.558,0.0
0.0,0.0,0.0,0.0
0.0,0.0,0.0,0.0
20.005,-1.112,0.015,23.0
20.017,-1.107,-0.091,8.0
0.0,0.0,0.0,0.0
0.0,0.0,0.0,0.0
29.595,-1.607,-0.612,0.0
20.044,-1.082,-0.521,0.0
19.98,-1.076,0.034,32.0
19.981,-1.069,-0.072,21.0
20.032,-1.065,-0.18,22.0
20.07,-1.061,-0.289,0.0
20.03,-1.052,-0.396,16.0
20.047,-1.047,-0.504,26.0
19.981,-1.04,0.051,28.0
19.98,-1.033,-0.055,26.0
19.987,-1.027,-0.162,27.0
20.004,-1.021,-0.271,26.0
20.014,-1.015,-0.378,27.0
20.037,-1.009,-0.486,31.0
20.016,-1.005,0.068,17.0
19.978,-0.996,-0.038,20.0
19.987,-0.99,-0.145,29.0
19.985,-0.983,-0.254,31.0
20.014,-0.978,-0.362,25.0
20.06,-0.973,-0.47,23.0
0.0,0.0,0.0,0.0
19.996,-0.96,-0.022,11.0
20.008,-0.954,-0.129,19.0
20.006,-0.947,-0.238,25.0
20.026,-0.941,-0.346,22.0
20.074,-0.936,-0.454,0.0
138.315,-6.429,0.699,2.0
0.0,0.0,0.0,0.0
20.074,-0.919,-0.114,0.0
20.006,-0.909,-0.223,2.0
34.427,-1.552,-0.568,0.0
28.873,-1.292,-0.632,0.0
138.049,-6.154,0.803,8.0
0.0,0.0,0.0,0.0
0.0,0.0,0.0,0.0
43.166,-1.879,-0.449,0.0
0.0,0.0,0.0,0.0
0.0,0.0,0.0,0.0
138.054,-5.89,0.903,17.0
0.0,0.0,0.0,0.0
0.0,0.0,0.0,0.0
47.294,-1.968,-0.458,0.0
0.0,0.0,0.0,0.0
30.37,-1.242,-0.621,0.0
138.461,-5.638,1.002,17.0
0.0,0.0,0.0,0.0
0.0,0.0,0.0,0.0
47.698,-1.892,-0.43,0.0
37.37,-1.47,-0.538,0.0
0.0,0.0,0.0,0.0
138.453,-5.366,1.093,20.0
0.0,0.0,0.0,0.0
0.0,0.0,0.0,0.0
48.281,-1.821,-0.404,0.0
38.124,-1.424,-0.525,0.0
30.978,-1.146,-0.593,0.0
138.566,-5.098,1.181,23.0
0.0,0.0,0.0,0.0
0.0,0.0,0.0,0.0
46.984,-1.679,-0.364,0.0
38.136,-1.349,-0.502,0.0
0.0,0.0,0.0,0.0
138.575,-4.824,1.263,27.0
0.0,0.0,0.0,0.0
0.0,0.0,0.0,0.0
0.0,0.0,0.0,0.0
41.55,-1.387,-0.523,0.0
33.202,-1.096,-0.597,0.0
138.625,-4.544,1.342,26.0
0.0,0.0,0.0,0.0
0.0,0.0,0.0,0.0
50.56,-1.603,-0.336,0.0
41.342,-1.296,-0.498,2.0
33.217,-1.029,-0.58,0.0
138.699,-4.266,1.415,12.0
0.0,0.0,0.0,0.0
0.0,0.0,0.0,0.0
0.0,0.0,0.0,0.0
41.314,-1.211,-0.477,1.0
34.638,-1.003,-0.587,0.0
138.681,-3.982,1.483,10.0
138.382,-3.925,0.73,7.0
0.0,0.0,0.0,0.0
54.94,-1.518,-0.311,0.0
43.45,-1.185,-0.481,0.0
0.0,0.0,0.0,0.0
138.846,-3.701,1.548,3.0
138.767,-3.647,0.795,11.0
0.0,0.0,0.0,0.0
0.0,0.0,0.0,0.0
43.738,-1.102,-0.466,2.0
34.97,-0.869,-0.562,0.0
0.0,0.0,0.0,0.0
138.819,-3.36,0.853,10.0
0.0,0.0,0.0,0.0
54.557,-1.281,-0.263,0.0
0.0,0.0,0.0,0.0
34.809,-0.792,-0.546,0.0
0.0,0.0,0.0,0.0
138.958,-3.074,0.906,13.0
0.0,0.0,0.0,0.0
0.0,0.0,0.0,0.0
44.745,-0.941,-0.442,2.0
0.0,0.0,0.0,0.0
0.0,0.0,0.0,0.0
139.01,-2.785,0.954,20.0
0.0,0.0,0.0,0.0
0.0,0.0,0.0,0.0
45.155,-0.855,-0.432,2.0
0.0,0.0,0.0,0.0
0.0,0.0,0.0,0.0
139.086,-2.492,0.997,16.0
0.0,0.0,0.0,0.0
0.0,0.0,0.0,0.0
46.583,-0.783,-0.432,0.0
36.914,-0.607,-0.544,0.0
0.0,0.0,0.0,0.0
138.828,-2.194,1.033,22.0
0.0,0.0,0.0,0.0
0.0,0.0,0.0,0.0
46.788,-0.688,-0.422,0.0
0.0,0.0,0.0,0.0
0.0,0.0,0.0,0.0
139.123,-1.901,1.068,23.0
0.0,0.0,0.0,0.0
0.0,0.0,0.0,0.0
47.219,-0.593,-0.416,1.0
0.0,0.0,0.0,0.0
139.18,-1.655,1.857,3.0
139.224,-1.605,1.096,22.0
0.0,0.0,0.0,0.0
0.0,0.0,0.0,0.0
0.0,0.0,0.0,0.0
0.0,0.0,0.0,0.0
119.757,-1.169,1.617,150.0
119.701,-1.124,0.961,16.0
0.0,0.0,0.0,0.0
0.0,0.0,0.0,0.0
0.0,0.0,0.0,0.0
37.803,-0.3,-0.528,0.0
119.752,-0.913,1.633,8.0
119.702,-0.868,0.976,12.0
0.0,0.0,0.0,0.0
0.0,0.0,0.0,0.0
46.606,-0.286,-0.391,0.0
37.668,-0.218,-0.522,0.0
114.378,-0.623,1.57,5.0
119.709,-0.609,0.986,13.0
0.0,0.0,0.0,0.0
64.517,-0.282,-0.183,0.0
48.098,-0.192,-0.4,0.0
0.0,0.0,0.0,0.0
113.308,-0.374,1.561,9.0
114.46,-0.335,0.948,150.0
0.0,0.0,0.0,0.0
0.0,0.0,0.0,0.0
45.521,-0.084,-0.377,1.0
0.0,0.0,0.0,0.0
111.142,-0.126,1.533,8.0
117.24,-0.092,0.972,6.0
0.0,0.0,0.0,0.0
0.0,0.0,0.0,0.0
45.781,0.012,-0.38,1.0
0.0,0.0,0.0,0.0
111.097,0.112,1.53,19.0
111.023,0.153,0.918,10.0
93.021,0.16,0.256,2.0
0.0,0.0,0.0,0.0
46.29,0.112,-0.386,0.0
37.731,0.105,-0.523,0.0
119.794,0.378,1.643,24.0
110.931,0.389,0.91,16.0
0.0,0.0,0.0,0.0
0.0,0.0,0.0,0.0
45.803,0.209,-0.386,1.0
0.0,0.0,0.0,0.0
101.45,0.539,1.381,1.0
104.982,0.594,0.85,16.0
86.58,0.519,0.223,4.0
0.0,0.0,0.0,0.0
48.692,0.326,-0.416,0.0
0.0,0.0,0.0,0.0
100.236,0.745,1.351,6.0
104.767,0.816,0.834,13.0
85.292,0.694,0.207,2.0
0.0,0.0,0.0,0.0
46.595,0.411,-0.406,0.0
37.846,0.347,-0.539,0.0
98.664,0.943,1.313,26.0
98.432,0.976,0.766,16.0
80.819,0.828,0.182,4.0
0.0,0.0,0.0,0.0
46.261,0.506,-0.412,1.0
0.0,0.0,0.0,0.0
98.531,1.152,1.291,31.0
98.376,1.184,0.744,14.0
81.07,1.003,0.164,3.0
0.0,0.0,0.0,0.0
43.962,0.573,-0.402,1.0
36.032,0.483,-0.529,0.0
98.637,1.363,1.268,29.0
92.165,1.305,0.674,14.0
0.0,0.0,0.0,0.0
0.0,0.0,0.0,0.0
0.0,0.0,0.0,0.0
34.929,0.542,-0.522,0.0
91.922,1.464,1.156,41.0
91.833,1.494,0.645,20.0
77.453,1.285,0.114,1.0
0.0,0.0,0.0,0.0
45.856,0.793,-0.445,0.0
35.852,0.632,-0.547,0.0
0.0,0.0,0.0,0.0
85.491,1.571,0.573,11.0
71.916,1.345,0.082,4.0
0.0,0.0,0.0,0.0
0.0,0.0,0.0,0.0
0.0,0.0,0.0,0.0
85.383,1.718,1.017,28.0
85.063,1.741,0.54,13.0
70.052,1.456,0.055,7.0
0.0,0.0,0.0,0.0
0.0,0.0,0.0,0.0
35.001,0.763,-0.56,0.0
85.237,1.894,0.981,37.0
84.962,1.917,0.505,12.0
67.614,1.548,0.025,5.0
0.0,0.0,0.0,0.0
42.064,0.99,-0.456,0.0
0.0,0.0,0.0,0.0
85.311,2.072,0.946,27.0
78.839,1.941,0.435,14.0
66.201,1.651,-0.003,6.0
55.253,1.396,-0.316,0.0
41.327,1.058,-0.467,1.0
33.313,0.864,-0.562,0.0
78.884,2.079,0.838,29.0
72.196,1.926,0.365,8.0
64.998,1.754,-0.033,6.0
55.28,1.509,-0.342,0.0
41.467,1.146,-0.488,0.0
33.703,0.942,-0.585,0.0
76.273,2.166,0.773,7.0
71.922,2.065,0.327,11.0
62.83,1.823,-0.064,3.0
50.29,1.475,-0.337,0.0
0.0,0.0,0.0,0.0
32.566,0.976,-0.582,0.0
79.027,2.404,0.759,6.0
71.727,2.205,0.288,12.0
61.493,1.91,-0.096,4.0
0.0,0.0,0.0,0.0
38.286,1.213,-0.492,0.0
31.751,1.017,-0.585,0.0
72.37,2.349,0.654,30.0
71.538,2.344,0.246,11.0
59.928,1.982,-0.128,5.0
0.0,0.0,0.0,0.0
37.371,1.259,-0.502,0.0
30.935,1.052,-0.589,0.0
72.348,2.493,0.61,25.0
71.53,2.487,0.203,7.0
58.602,2.055,-0.161,4.0
46.887,1.658,-0.396,1.0
36.569,1.305,-0.514,0.0
30.278,1.09,-0.595,0.0
72.331,2.636,0.564,17.0
65.634,2.413,0.144,12.0
57.324,2.124,-0.195,2.0
44.733,1.671,-0.407,1.0
35.424,1.334,-0.521,0.0
29.796,1.131,-0.605,0.0
72.352,2.779,0.516,4.0
65.219,2.524,0.099,17.0
55.988,2.184,-0.228,2.0
44.742,1.759,-0.438,1.0
0.0,0.0,0.0,0.0
29.396,1.173,-0.618,0.0
66.098,2.668,0.425,24.0
65.092,2.646,0.053,8.0
54.997,2.252,-0.263,4.0
44.63,1.841,-0.469,0.0
34.27,1.424,-0.552,0.0
28.361,1.187,-0.617,0.0
66.037,2.793,0.376,20.0
58.838,2.505,0.005,10.0
53.751,2.305,-0.297,2.0
0.0,0.0,0.0,0.0
33.193,1.442,-0.56,0.0
0.0,0.0,0.0,0.0
66.037,2.918,0.326,15.0
58.673,2.61,-0.04,13.0
52.762,2.362,-0.333,4.0
0.0,0.0,0.0,0.0
32.615,1.478,-0.576,0.0
27.297,1.245,-0.636,0.0
66.005,3.041,0.273,11.0
58.283,2.702,-0.086,5.0
51.907,2.421,-0.369,0.0
40.141,1.883,-0.515,0.0
0.0,0.0,0.0,0.0
26.934,1.279,-0.649,0.0
65.8,3.154,0.218,10.0
52.147,2.514,-0.121,25.0
0.0,0.0,0.0,0.0
37.66,1.837,-0.516,0.0
30.157,1.48,-0.583,0.0
26.311,1.299,-0.657,0.0
59.442,2.96,0.145,15.0
51.597,2.583,-0.164,16.0
43.731,2.201,-0.386,0.0
35.914,1.817,-0.523,0.0
29.979,1.525,-0.606,0.0
25.774,1.319,-0.666,0.0
59.136,3.051,0.092,20.0
0.0,0.0,0.0,0.0
42.489,2.215,-0.413,2.0
0.0,0.0,0.0,0.0
29.592,1.559,-0.625,0.0
25.286,1.339,-0.677,0.0
52.428,2.799,0.033,11.0
48.615,2.608,-0.243,3.0
42.444,2.288,-0.452,1.0
33.455,1.813,-0.549,0.0
28.256,1.539,-0.623,0.0
24.825,1.358,-0.688,0.0
51.999,2.868,-0.016,25.0
47.807,2.649,-0.285,2.0
40.175,2.236,-0.466,0.0
32.627,1.824,-0.566,0.0
27.581,1.549,-0.635,0.0
23.947,1.352,-0.687,0.0
51.515,2.93,-0.065,19.0
46.952,2.682,-0.325,4.0
0.0,0.0,0.0,0.0
31.605,1.821,-0.579,0.0
26.848,1.554,-0.644,0.0
23.435,1.362,-0.695,0.0
51.192,2.998,-0.116,23.0
46.173,2.715,-0.366,10.0
37.651,2.223,-0.512,0.0
30.537,1.811,-0.591,0.0
26.352,1.57,-0.659,0.0
23.004,1.376,-0.706,0.0
51.057,3.075,-0.168,7.0
45.579,2.756,-0.408,3.0
35.597,2.161,-0.52,0.0
29.519,1.799,-0.602,0.0
25.542,1.563,-0.666,0.0
22.374,1.375,-0.71,0.0
45.624,2.822,-0.198,20.0
42.275,2.625,-0.423,0.0
34.369,2.143,-0.539,0.0
28.545,1.787,-0.613,0.0
24.972,1.569,-0.678,0.0
21.881,1.38,-0.718,0.0
45.159,2.867,-0.245,20.0
39.683,2.529,-0.44,0.0
32.461,2.076,-0.545,0.0
27.804,1.784,-0.627,0.0
24.261,1.563,-0.685,0.0
21.547,1.394,-0.731,0.0
44.318,2.883,-0.289,5.0
38.762,2.531,-0.473,1.0
0.0,0.0,0.0,0.0
26.863,1.766,-0.636,0.0
23.648,1.56,-0.694,0.0
20.874,1.382,-0.731,0.0
43.46,2.894,-0.333,10.0
37.528,2.508,-0.5,0.0
30.781,2.064,-0.585,0.0
26.257,1.766,-0.651,0.0
22.884,1.545,-0.698,0.0
20.454,1.385,-0.74,0.0
42.858,2.919,-0.377,2.0
35.477,2.424,-0.514,0.0
29.758,2.04,-0.601,0.0
25.454,1.751,-0.661,0.0
22.489,1.552,-0.712,0.0
19.805,1.371,-0.74,0.0
42.233,2.939,-0.421,7.0
33.878,2.365,-0.531,0.0
28.678,2.008,-0.612,0.0
24.918,1.75,-0.676,0.0
21.666,1.526,-0.711,0.0
19.496,1.377,-0.751,0.0
41.285,2.932,-0.46,1.0
33.09,2.357,-0.557,0.0
28.126,2.009,-0.634,0.0
24.064,1.724,-0.682,0.0
21.335,1.533,-0.726,0.0
19.0,1.369,-0.755,0.0
37.484,2.714,-0.464,0.0
31.544,2.291,-0.569,0.0
26.846,1.955,-0.638,0.0
23.371,1.706,-0.691,0.0
20.698,1.516,-0.73,0.0
18.523,1.36,-0.759,0.0
36.685,2.706,-0.498,1.0
0.0,0.0,0.0,0.0
25.79,1.912,-0.644,0.0
22.648,1.684,-0.697,0.0
20.263,1.511,-0.74,0.0
18.22,1.363,-0.769,0.0
35.019,2.63,-0.519,0.0
29.221,2.2,-0.6,0.0
25.33,1.912,-0.664,0.0
22.051,1.669,-0.707,0.0
19.781,1.501,-0.747,0.0
17.802,1.354,-0.774,0.0
33.526,2.561,-0.539,0.0
28.179,2.158,-0.614,0.0
24.573,1.886,-0.676,0.0
21.552,1.659,-0.718,0.0
19.263,1.486,-0.752,0.0
17.424,1.348,-0.78,0.0
32.139,2.495,-0.558,0.0
27.57,2.145,-0.636,0.0
23.81,1.857,-0.686,0.0
20.62,1.612,-0.714,0.0
18.742,1.469,-0.756,0.0
17.072,1.341,-0.786,0.0
30.815,2.43,-0.575,0.0
26.443,2.09,-0.645,0.0
22.893,1.813,-0.689,0.0
20.257,1.608,-0.728,0.0
18.373,1.462,-0.765,0.0
16.695,1.331,-0.791,0.0
29.429,2.355,-0.588,0.0
25.447,2.041,-0.654,0.0
22.363,1.797,-0.702,0.0
19.929,1.605,-0.742,0.0
17.971,1.451,-0.772,0.0
16.375,1.325,-0.797,0.0
28.555,2.317,-0.608,0.0
24.765,2.014,-0.669,0.0
21.691,1.768,-0.71,0.0
19.386,1.583,-0.748,0.0
17.524,1.434,-0.776,0.0
16.103,1.321,-0.806,0.0
27.639,2.274,-0.626,0.0
23.981,1.977,-0.68,0.0
21.219,1.752,-0.724,0.0
18.87,1.561,-0.754,0.0
17.188,1.425,-0.785,0.0
15.706,1.305,-0.807,0.0
26.579,2.215,-0.638,0.0
23.114,1.929,-0.687,0.0
20.416,1.707,-0.724,0.0
18.406,1.542,-0.76,0.0
16.734,1.405,-0.787,0.0
15.444,1.299,-0.815,0.0
25.815,2.177,-0.655,0.0
22.322,1.886,-0.694,0.0
20.003,1.693,-0.737,0.0
18.018,1.528,-0.769,0.0
16.464,1.399,-0.797,0.0
15.056,1.281,-0.815,0.0
24.851,2.12,-0.665,0.0
22.017,1.881,-0.715,1.0
19.527,1.671,-0.746,0.0
17.521,1.502,-0.772,0.0
16.145,1.387,-0.804,0.0
14.8,1.274,-0.822,0.0
24.007,2.07,-0.675,0.0
21.122,1.824,-0.715,0.0
18.986,1.642,-0.751,0.0
17.204,1.491,-0.781,0.0
15.72,1.364,-0.804,0.0
14.489,1.26,-0.825,0.0
23.279,2.028,-0.687,0.0
20.619,1.799,-0.727,0.0
18.457,1.613,-0.756,0.0
16.829,1.473,-0.788,0.0
15.447,1.354,-0.812,0.0
14.254,1.252,-0.831,0.0
22.672,1.994,-0.7,0.0
20.107,1.771,-0.736,0.0
18.106,1.597,-0.767,0.0
16.392,1.448,-0.79,0.0
15.145,1.34,-0.817,0.0
13.931,1.234,-0.832,0.0
21.78,1.933,-0.703,0.0
19.543,1.737,-0.743,0.0
17.669,1.573,-0.773,0.0
16.093,1.434,-0.798,0.0
14.798,1.321,-0.819,0.0
13.722,1.227,-0.839,0.0
21.24,1.901,-0.716,0.0
18.908,1.694,-0.745,0.0
17.202,1.544,-0.777,0.0
15.708,1.412,-0.801,0.0
14.427,1.298,-0.819,0.0
13.489,1.216,-0.844,0.0
20.587,1.857,-0.723,0.0
18.551,1.676,-0.758,0.0
16.857,1.525,-0.785,0.0
15.354,1.39,-0.805,0.0
14.256,1.293,-0.829,0.0
13.22,1.2,-0.845,0.0
20.025,1.82,-0.731,0.0
18.031,1.641,-0.762,0.0
16.476,1.501,-0.791,0.0
15.136,1.381,-0.815,0.0
13.921,1.271,-0.83,0.0
13.002,1.189,-0.85,0.0
19.562,1.79,-0.742,0.0
17.633,1.615,-0.77,0.0
16.066,1.473,-0.794,0.0
14.728,1.352,-0.814,0.0
13.726,1.262,-0.838,0.0
12.725,1.171,-0.85,0.0
19.014,1.751,-0.748,0.0
17.264,1.591,-0.778,0.0
15.688,1.448,-0.797,0.0
14.485,1.338,-0.821,0.0
13.475,1.246,-0.841,0.0
12.484,1.156,-0.851,0.0
18.43,1.707,-0.75,0.0
16.936,1.57,-0.787,0.0
15.435,1.432,-0.806,0.0
14.281,1.327,-0.83,1.0
13.273,1.234,-0.847,0.0
12.339,1.149,-0.859,0.0
18.015,1.677,-0.759,0.0
16.515,1.539,-0.791,0.0
15.17,1.415,-0.814,0.0
14.087,1.315,-0.838,0.0
13.002,1.215,-0.848,0.0
12.042,1.127,-0.855,0.0
17.661,1.652,-0.769,0.0
16.165,1.514,-0.797,0.0
14.838,1.391,-0.817,0.0
13.717,1.287,-0.835,0.0
12.79,1.201,-0.853,0.0
11.816,1.111,-0.856,0.0
17.257,1.622,-0.776,0.0
15.739,1.48,-0.798,0.0
14.483,1.363,-0.818,0.0
13.438,1.266,-0.837,0.0
12.537,1.182,-0.854,0.0
11.693,1.103,-0.864,0.0
16.89,1.593,-0.783,0.0
15.499,1.463,-0.807,0.0
14.271,1.348,-0.825,0.0
13.233,1.251,-0.843,0.0
12.333,1.167,-0.857,0.0
11.408,1.08,-0.859,0.0
16.455,1.557,-0.785,0.0
15.163,1.436,-0.811,0.0
14.005,1.327,-0.83,0.0
12.93,1.226,-0.842,0.0
12.081,1.147,-0.856,0.0
11.239,1.067,-0.862,0.0
16.196,1.537,-0.795,0.0
14.884,1.413,-0.816,0.0
13.77,1.308,-0.835,0.0
12.838,1.221,-0.854,0.0
11.863,1.129,-0.857,0.0
11.076,1.055,-0.864,0.0
15.749,1.498,-0.795,0.0
14.565,1.386,-0.819,0.0
13.542,1.29,-0.84,0.0
12.517,1.193,-0.849,0.0
11.7,1.116,-0.862,0.0
10.91,1.041,-0.867,0.0
15.527,1.48,-0.805,0.0
14.269,1.361,-0.822,0.0
13.297,1.269,-0.842,0.0
12.282,1.172,-0.85,0.0
11.433,1.092,-0.857,0.0
10.782,1.03,-0.871,0.0
11.739,1.078,-0.851,0.0
10.985,1.008,-0.859,0.0
10.368,0.951,-0.871,0.0
9.789,0.898,-0.88,0.0
9.477,0.869,-0.906,0.0
9.005,0.825,-0.913,0.0
11.647,1.063,-0.856,0.0
10.863,0.991,-0.861,0.0
10.321,0.941,-0.877,0.0
9.811,0.894,-0.891,0.0
9.405,0.857,-0.909,0.0
8.885,0.809,-0.91,0.0
11.42,1.036,-0.851,0.0
10.793,0.978,-0.866,0.0
10.231,0.926,-0.88,0.0
9.68,0.876,-0.889,0.0
9.295,0.841,-0.907,0.0
8.841,0.8,-0.914,0.0
11.32,1.019,-0.854,0.0
10.676,0.961,-0.867,0.0
10.174,0.915,-0.885,0.0
9.668,0.869,-0.897,0.0
9.198,0.826,-0.906,0.0
8.78,0.788,-0.916,0.0
11.205,1.001,-0.856,0.0
10.58,0.945,-0.869,0.0
10.062,0.898,-0.884,0.0
9.571,0.853,-0.897,0.0
9.156,0.816,-0.911,0.0
8.711,0.776,-0.917,0.0
11.109,0.985,-0.859,0.0
10.467,0.927,-0.869,0.0
9.987,0.884,-0.886,0.0
9.489,0.839,-0.898,0.0
9.099,0.804,-0.913,0.0
8.677,0.766,-0.921,0.0
11.004,0.967,-0.86,0.0
10.433,0.916,-0.875,0.0
9.925,0.871,-0.889,0.0
9.466,0.83,-0.904,0.0
8.999,0.788,-0.911,0.0
8.606,0.754,-0.921,0.0
10.911,0.951,-0.862,0.0
10.344,0.901,-0.876,0.0
9.859,0.857,-0.892,0.0
9.471,0.823,-0.912,0.0
8.95,0.777,-0.913,0.0
8.512,0.739,-0.917,0.0
10.81,0.933,-0.862,0.0
10.24,0.883,-0.875,0.0
9.76,0.841,-0.89,0.0
9.268,0.798,-0.899,0.0
8.919,0.767,-0.917,0.0
8.434,0.725,-0.916,0.0
10.719,0.916,-0.863,0.0
10.197,0.871,-0.88,0.0
9.706,0.828,-0.893,0.0
0.0,0.0,0.0,0.0
8.895,0.757,-0.921,0.0
8.411,0.715,-0.919,0.0
10.669,0.903,-0.867,0.0
10.11,0.855,-0.879,0.0
9.624,0.813,-0.892,0.0
0.0,0.0,0.0,0.0
0.0,0.0,0.0,0.0
8.427,0.709,-0.927,0.0
10.586,0.886,-0.868,0.0
10.083,0.843,-0.884,0.0
9.639,0.805,-0.9,0.0
9.171,0.765,-0.91,0.0
8.703,0.725,-0.913,0.0
8.316,0.692,-0.921,0.0
10.528,0.872,-0.87,0.0
10.013,0.828,-0.884,0.0
9.497,0.784,-0.893,0.0
0.0,0.0,0.0,0.0
8.696,0.716,-0.918,0.0
8.292,0.682,-0.923,0.0
10.454,0.856,-0.87,0.0
9.928,0.811,-0.883,0.0
9.586,0.782,-0.907,0.0
0.0,0.0,0.0,0.0
8.673,0.706,-0.921,0.0
8.294,0.674,-0.928,0.0
10.395,0.841,-0.871,0.0
9.917,0.801,-0.888,0.0
9.504,0.766,-0.905,0.0
0.0,0.0,0.0,0.0
8.629,0.694,-0.921,0.0
8.223,0.66,-0.925,0.0
10.361,0.827,-0.874,0.0
9.872,0.787,-0.889,0.0
9.45,0.752,-0.905,0.0
8.928,0.71,-0.907,0.0
8.629,0.685,-0.926,0.0
8.19,0.649,-0.925,0.0
10.306,0.812,-0.875,0.0
9.799,0.771,-0.887,0.0
9.364,0.736,-0.901,0.0
8.97,0.704,-0.915,0.0
8.524,0.668,-0.919,0.0
8.164,0.638,-0.926,0.0
10.25,0.797,-0.875,0.0
9.721,0.754,-0.885,0.0
0.0,0.0,0.0,0.0
8.881,0.687,-0.91,0.0
8.491,0.656,-0.919,0.0
8.167,0.63,-0.931,0.0
10.231,0.784,-0.877,0.0
9.77,0.748,-0.893,0.0
9.326,0.712,-0.906,0.0
8.945,0.682,-0.921,0.0
8.469,0.645,-0.92,0.0
8.093,0.615,-0.925,0.0
10.208,0.771,-0.879,0.0
9.728,0.734,-0.893,0.0
9.377,0.706,-0.914,0.0
8.886,0.668,-0.918,0.0
8.426,0.632,-0.918,0.0
8.142,0.61,-0.934,0.0
10.156,0.756,-0.878,0.0
9.712,0.721,-0.895,0.0
9.249,0.686,-0.905,0.0
8.836,0.654,-0.916,0.0
8.421,0.622,-0.921,0.0
8.129,0.599,-0.935,0.0
10.15,0.744,-0.881,0.0
9.628,0.704,-0.89,0.0
9.282,0.677,-0.911,0.0
8.844,0.644,-0.919,0.0
8.453,0.614,-0.926,0.0
8.07,0.585,-0.93,0.0
10.144,0.731,-0.883,0.0
9.622,0.692,-0.892,0.0
9.208,0.661,-0.906,0.0
8.817,0.632,-0.918,0.0
8.433,0.603,-0.926,0.0
8.048,0.574,-0.93,0.0
10.138,0.719,-0.885,0.0
9.68,0.685,-0.9,0.0
9.168,0.647,-0.904,0.0
0.0,0.0,0.0,0.0
8.413,0.591,-0.926,0.0
8.054,0.565,-0.932,0.0
10.064,0.701,-0.88,0.0
9.603,0.668,-0.894,0.0
9.121,0.633,-0.901,0.0
8.721,0.604,-0.911,0.0
8.341,0.576,-0.919,0.0
8.039,0.554,-0.931,0.0
10.084,0.691,-0.883,0.0
9.622,0.657,-0.897,0.0
9.192,0.626,-0.909,0.0
0.0,0.0,0.0,0.0
8.348,0.566,-0.921,0.0
8.022,0.543,-0.93,0.0
10.07,0.677,-0.883,0.0
9.583,0.643,-0.894,0.0
9.174,0.614,-0.908,0.0
8.718,0.582,-0.913,0.0
8.389,0.559,-0.926,0.0
8.031,0.533,-0.932,0.0
10.109,0.667,-0.887,0.0
9.545,0.628,-0.891,0.0
9.139,0.6,-0.905,0.0
8.682,0.569,-0.909,0.0
8.402,0.549,-0.927,0.0
8.051,0.525,-0.934,0.0
10.092,0.653,-0.886,0.0
9.603,0.62,-0.897,0.0
9.149,0.589,-0.906,0.0
8.729,0.56,-0.914,0.0
8.329,0.533,-0.919,0.0
8.051,0.514,-0.934,0.0
10.096,0.64,-0.886,0.0
9.655,0.611,-0.901,0.0
9.13,0.576,-0.903,0.0
8.748,0.55,-0.916,0.0
8.418,0.528,-0.928,0.0
8.018,0.502,-0.93,0.0
10.098,0.628,-0.885,0.0
9.628,0.597,-0.898,0.0
9.165,0.566,-0.906,0.0
8.695,0.536,-0.909,0.0
8.43,0.518,-0.929,0.0
8.047,0.493,-0.932,0.0
10.097,0.614,-0.884,0.0
