X,Y,Z,Reflectivity
10.616,0.898,-0.874,0.0
10.086,0.853,-0.889,0.0
13.736,1.16,-0.832,0.0
12.828,1.084,-0.851,0.0
11.835,1.001,-0.853,0.0
11.049,0.935,-0.862,0.0
10.437,0.883,-0.874,0.0
9.921,0.84,-0.888,0.0
13.56,1.146,-0.84,0.0
12.44,1.052,-0.843,0.0
11.631,0.984,-0.855,0.0
10.889,0.922,-0.864,0.0
10.306,0.873,-0.878,0.0
9.732,0.825,-0.885,0.0
13.282,1.123,-0.841,0.0
12.296,1.04,-0.85,0.0
11.375,0.963,-0.852,0.0
10.697,0.906,-0.864,0.0
10.192,0.863,-0.882,0.0
9.7,0.822,-0.896,0.0
13.037,1.102,-0.844,0.0
12.057,1.02,-0.85,0.0
11.246,0.951,-0.857,0.0
10.59,0.896,-0.87,0.0
10.099,0.855,-0.888,0.0
9.57,0.811,-0.897,0.0
12.869,1.088,-0.85,0.0
11.839,1.001,-0.85,0.0
11.092,0.938,-0.861,0.0
10.458,0.884,-0.873,0.0
9.918,0.839,-0.885,0.0
9.47,0.802,-0.9,0.0
12.53,1.058,-0.845,0.0
11.681,0.986,-0.855,0.0
10.916,0.922,-0.862,0.0
10.296,0.87,-0.873,0.0
9.816,0.829,-0.889,0.0
9.378,0.793,-0.904,0.0
12.372,1.043,-0.85,0.0
11.448,0.965,-0.853,0.0
10.768,0.908,-0.864,0.0
10.252,0.864,-0.883,0.0
9.711,0.819,-0.893,0.0
9.289,0.784,-0.908,0.0
12.122,1.02,-0.849,0.0
11.3,0.95,-0.856,0.0
10.637,0.895,-0.868,0.0
10.085,0.848,-0.882,0.0
9.608,0.808,-0.896,0.0
9.134,0.769,-0.905,0.0
11.869,0.996,-0.846,0.0
11.179,0.938,-0.862,0.0
10.504,0.881,-0.87,0.0
9.926,0.833,-0.881,0.0
9.524,0.799,-0.9,0.0
9.051,0.76,-0.908,0.0
11.716,0.98,-0.85,0.0
10.994,0.919,-0.861,0.0
10.381,0.868,-0.873,0.0
9.899,0.828,-0.891,0.0
9.452,0.79,-0.905,0.0
8.972,0.75,-0.911,0.0
11.548,0.962,-0.852,0.0
10.854,0.904,-0.864,0.0
10.282,0.857,-0.878,0.0
9.687,0.807,-0.884,0.0
9.289,0.774,-0.901,0.0
8.862,0.738,-0.911,0.0
11.356,0.943,-0.852,0.0
10.721,0.89,-0.866,0.0
10.197,0.846,-0.883,0.0
9.683,0.803,-0.895,0.0
9.202,0.763,-0.904,0.0
8.798,0.73,-0.915,0.0
11.249,0.929,-0.857,0.0
10.579,0.874,-0.867,0.0
10.102,0.834,-0.886,0.0
9.567,0.79,-0.896,0.0
9.154,0.756,-0.91,0.0
8.728,0.72,-0.918,0.0
11.092,0.912,-0.859,0.0
10.474,0.861,-0.871,0.0
9.964,0.819,-0.886,0.0
9.481,0.779,-0.899,0.0
9.073,0.745,-0.913,0.0
8.672,0.712,-0.923,0.0
10.957,0.896,-0.86,0.0
10.377,0.848,-0.875,0.0
9.889,0.808,-0.89,0.0
0.0,0.0,0.0,0.0
8.965,0.732,-0.912,0.0
8.578,0.7,-0.922,0.0
10.831,0.88,-0.863,0.0
10.268,0.834,-0.877,0.0
9.768,0.793,-0.89,0.0
0.0,0.0,0.0,0.0
8.917,0.724,-0.917,0.0
8.525,0.692,-0.926,0.0
10.719,0.866,-0.865,0.0
10.179,0.822,-0.88,0.0
9.626,0.777,-0.888,0.0
0.0,0.0,0.0,0.0
8.832,0.712,-0.918,0.0
8.396,0.676,-0.921,0.0
10.613,0.851,-0.868,0.0
10.114,0.811,-0.885,0.0
9.632,0.771,-0.898,0.0
9.114,0.73,-0.904,0.0
8.719,0.698,-0.915,0.0
8.37,0.669,-0.927,0.0
10.484,0.835,-0.868,0.0
10.016,0.797,-0.887,0.0
9.501,0.755,-0.896,0.0
9.057,0.719,-0.907,0.0
8.66,0.688,-0.918,0.0
8.306,0.659,-0.928,0.0
72.343,2.558,0.61,24.0
65.764,2.303,0.193,5.0
59.362,2.06,-0.152,8.0
45.451,1.563,-0.371,1.0
37.222,1.268,-0.509,0.0
30.711,1.036,-0.589,0.0
72.311,2.406,0.611,30.0
71.314,2.349,0.211,10.0
60.756,1.982,-0.154,6.0
45.415,1.466,-0.369,0.0
0.0,0.0,0.0,0.0
0.0,0.0,0.0,0.0
78.988,2.463,0.673,9.0
71.256,2.198,0.215,12.0
62.308,1.902,-0.153,5.0
45.573,1.376,-0.367,0.0
37.592,1.123,-0.509,0.0
30.491,0.9,-0.58,0.0
78.86,2.293,0.679,11.0
71.448,2.055,0.223,12.0
57.191,1.626,-0.135,4.0
0.0,0.0,0.0,0.0
37.267,1.034,-0.5,0.0
30.706,0.841,-0.58,0.0
78.877,2.125,0.69,24.0
71.636,1.908,0.233,16.0
65.571,1.724,-0.145,5.0
47.014,1.221,-0.366,0.0
0.0,0.0,0.0,0.0
30.662,0.776,-0.574,0.0
85.193,2.119,0.759,22.0
71.952,1.765,0.247,19.0
67.36,1.63,-0.136,2.0
0.0,0.0,0.0,0.0
0.0,0.0,0.0,0.0
0.0,0.0,0.0,0.0
85.236,1.94,0.777,30.0
72.051,1.615,0.263,10.0
0.0,0.0,0.0,0.0
0.0,0.0,0.0,0.0
0.0,0.0,0.0,0.0
0.0,0.0,0.0,0.0
85.404,1.763,0.8,27.0
78.162,1.587,0.305,8.0
70.607,1.41,-0.109,1.0
48.166,0.945,-0.342,0.0
0.0,0.0,0.0,0.0
32.014,0.606,-0.577,0.0
91.893,1.704,0.886,29.0
84.455,1.536,0.354,8.0
0.0,0.0,0.0,0.0
0.0,0.0,0.0,0.0
41.742,0.717,-0.511,0.0
31.927,0.537,-0.565,0.0
91.913,1.511,0.916,35.0
84.825,1.366,0.383,7.0
0.0,0.0,0.0,0.0
0.0,0.0,0.0,0.0
41.439,0.625,-0.493,0.0
32.888,0.485,-0.57,0.0
98.587,1.415,1.018,28.0
85.271,1.194,0.416,14.0
75.115,1.026,-0.041,1.0
0.0,0.0,0.0,0.0
41.143,0.534,-0.474,0.0
33.637,0.425,-0.57,0.0
98.534,1.206,1.056,30.0
85.535,1.018,0.452,9.0
70.88,0.819,-0.01,0.0
0.0,0.0,0.0,0.0
41.101,0.447,-0.456,0.0
0.0,0.0,0.0,0.0
98.68,1.003,1.1,30.0
97.993,0.963,0.561,9.0
0.0,0.0,0.0,0.0
0.0,0.0,0.0,0.0
42.785,0.377,-0.455,0.0
33.701,0.285,-0.541,0.0
104.811,0.849,1.217,33.0
97.958,0.759,0.607,7.0
85.712,0.635,0.066,1.0
0.0,0.0,0.0,0.0
42.748,0.288,-0.434,0.0
0.0,0.0,0.0,0.0
100.728,0.607,1.22,4.0
104.627,0.595,0.701,8.0
87.993,0.472,0.113,3.0
0.0,0.0,0.0,0.0
42.912,0.2,-0.413,0.0
0.0,0.0,0.0,0.0
119.758,0.474,1.516,15.0
110.767,0.401,0.803,9.0
0.0,0.0,0.0,0.0
0.0,0.0,0.0,0.0
44.83,0.116,-0.406,0.0
36.38,0.081,-0.526,0.0
69.946,-4.741,8.262,36.0
70.044,-4.736,7.891,30.0
71.059,-4.792,7.619,28.0
70.928,-4.772,7.211,12.0
63.982,-4.294,6.158,19.0
69.662,-4.664,6.327,9.0
69.996,-4.697,8.34,21.0
70.226,-4.701,7.983,47.0
71.344,-4.763,7.721,7.0
59.467,-3.96,6.105,7.0
63.989,-4.25,6.222,33.0
64.124,-4.249,5.886,9.0
71.161,-4.727,8.548,45.0
70.873,-4.695,8.126,40.0
70.007,-4.625,7.644,10.0
68.067,-4.484,7.053,9.0
64.021,-4.206,6.286,16.0
64.128,-4.202,5.948,26.0
71.03,-4.666,8.601,47.0
70.957,-4.648,8.203,31.0
70.222,-4.586,7.733,25.0
59.525,-3.877,6.224,34.0
64.037,-4.16,6.346,6.0
64.03,-4.147,5.997,31.0
70.132,-4.554,8.556,33.0
70.067,-4.536,8.163,7.0
70.41,-4.545,7.817,31.0
59.43,-3.825,6.266,31.0
59.505,-3.819,5.949,29.0
63.975,-4.094,6.048,37.0
70.8,-4.541,8.7,28.0
69.951,-4.472,8.211,25.0
70.529,-4.496,7.891,34.0
59.528,-3.783,6.328,13.0
59.486,-3.769,5.998,33.0
64.013,-4.044,6.104,23.0
70.858,-4.486,8.767,37.0
69.857,-4.41,8.258,39.0
70.233,-4.419,7.916,26.0
70.326,-4.411,7.533,17.0
59.331,-3.71,6.03,27.0
59.386,-3.702,5.71,33.0
70.613,-4.411,8.793,9.0
69.794,-4.346,8.306,34.0
58.759,-3.647,6.669,8.0
70.217,-4.344,7.575,17.0
59.388,-3.663,6.081,19.0
59.145,-3.636,5.732,33.0
65.054,-4.008,8.15,42.0
70.471,-4.327,8.439,11.0
58.813,-3.599,6.718,13.0
70.19,-4.281,7.624,15.0
59.628,-3.625,6.149,26.0
59.141,-3.583,5.774,29.0
64.766,-3.931,8.162,41.0
65.346,-3.953,7.872,32.0
58.947,-3.554,6.775,13.0
58.991,-3.544,6.449,33.0
58.961,-3.53,6.121,33.0
58.998,-3.521,5.8,33.0
64.67,-3.866,8.194,36.0
65.206,-3.884,7.9,41.0
58.974,-3.501,6.818,31.0
58.846,-3.481,6.472,31.0
58.727,-3.461,6.135,33.0
58.707,-3.448,5.809,33.0
64.622,-3.802,8.229,10.0
64.905,-3.804,7.905,38.0
58.922,-3.44,6.849,33.0
58.778,-3.419,6.501,33.0
58.25,-3.377,6.121,30.0
58.243,-3.364,5.799,32.0
52.006,-3.008,6.655,26.0
64.672,-3.728,7.915,40.0
58.953,-3.385,6.887,33.0
58.555,-3.349,6.51,33.0
58.363,-3.326,6.166,32.0
58.167,-3.303,5.824,28.0
51.619,-2.935,6.634,34.0
64.66,-3.662,7.949,40.0
58.585,-3.306,6.876,33.0
58.477,-3.286,6.533,33.0
58.404,-3.27,6.201,32.0
58.113,-3.242,5.848,32.0
51.591,-2.881,6.657,31.0
64.649,-3.595,7.981,21.0
58.157,-3.222,6.855,8.0
58.459,-3.226,6.559,7.0
58.691,-3.226,6.26,32.0
58.266,-3.19,5.892,32.0
51.54,-2.825,6.675,38.0
52.141,-2.846,6.461,26.0
52.004,-2.827,6.154,25.0
52.025,-2.817,5.861,26.0
58.938,-3.178,6.312,32.0
58.415,-3.137,5.932,32.0
51.534,-2.77,6.697,42.0
51.833,-2.775,6.445,26.0
51.957,-2.77,6.17,25.0
51.976,-2.76,5.877,25.0
58.573,-3.097,6.296,32.0
0.0,0.0,0.0,0.0
51.542,-2.716,6.718,32.0
52.016,-2.728,6.488,26.0
51.965,-2.714,6.19,22.0
51.999,-2.705,5.898,28.0
58.293,-3.019,6.287,32.0
56.741,-2.926,5.804,23.0
51.322,-2.648,6.707,26.0
52.069,-2.675,6.512,26.0
52.042,-2.661,6.217,29.0
52.008,-2.648,5.916,26.0
58.235,-2.952,6.3,29.0
56.686,-2.861,5.816,13.0
51.206,-2.585,6.708,38.0
52.023,-2.615,6.522,31.0
52.132,-2.608,6.243,26.0
51.999,-2.589,5.93,29.0
58.547,-2.903,6.349,23.0
47.016,-2.32,4.836,24.0
51.207,-2.528,6.722,32.0
51.796,-2.545,6.507,36.0
52.142,-2.549,6.257,27.0
51.987,-2.53,5.941,36.0
58.898,-2.854,6.401,13.0
56.446,-2.722,5.819,11.0
51.303,-2.474,6.745,26.0
51.792,-2.485,6.517,26.0
51.393,-2.454,6.177,41.0
51.927,-2.467,5.944,26.0
52.656,-2.49,5.732,27.0
46.955,-2.21,4.849,35.0
51.177,-2.408,6.737,28.0
51.415,-2.407,6.478,26.0
51.941,-2.42,6.251,27.0
51.904,-2.407,5.949,26.0
0.0,0.0,0.0,0.0
46.917,-2.154,4.851,23.0
51.148,-2.347,6.74,8.0
51.407,-2.347,6.483,25.0
51.6,-2.344,6.216,25.0
51.979,-2.349,5.963,20.0
52.051,-2.341,5.678,19.0
46.911,-2.099,4.854,29.0
44.708,-1.999,5.895,38.0
51.253,-2.28,6.467,25.0
51.376,-2.273,6.192,25.0
51.841,-2.282,5.95,28.0
51.723,-2.265,5.645,16.0
46.958,-2.046,4.861,32.0
44.524,-1.938,5.872,29.0
45.187,-1.956,5.703,33.0
51.463,-2.216,6.203,18.0
57.785,-2.475,6.633,7.0
52.096,-2.22,5.686,22.0
46.957,-1.99,4.86,34.0
44.372,-1.878,5.852,39.0
44.986,-1.894,5.677,30.0
51.284,-2.147,6.181,7.0
51.804,-2.157,5.944,9.0
52.948,-2.193,5.776,8.0
52.548,-2.165,5.436,23.0
44.303,-1.822,5.84,35.0
44.861,-1.834,5.658,30.0
44.994,-1.829,5.419,19.0
44.919,-1.816,5.151,28.0
44.801,-1.802,4.884,28.0
52.614,-2.104,5.438,26.0
44.251,-1.766,5.829,45.0
44.766,-1.776,5.641,19.0
44.851,-1.769,5.396,45.0
44.925,-1.762,5.146,31.0
44.787,-1.747,4.876,26.0
53.041,-2.057,5.475,5.0
44.258,-1.713,5.823,39.0
44.882,-1.726,5.649,29.0
44.889,-1.716,5.394,38.0
44.848,-1.705,5.129,35.0
44.685,-1.689,4.857,37.0
46.802,-1.759,4.822,19.0
44.393,-1.664,5.832,42.0
44.863,-1.671,5.637,28.0
44.965,-1.665,5.393,36.0
44.809,-1.649,5.115,38.0
44.639,-1.633,4.842,33.0
46.79,-1.701,4.81,17.0
44.278,-1.605,5.806,35.0
44.825,-1.615,5.621,35.0
44.708,-1.601,5.351,18.0
44.824,-1.595,5.105,46.0
44.628,-1.578,4.829,42.0
0.0,0.0,0.0,0.0
44.204,-1.548,5.784,41.0
45.13,-1.57,5.646,31.0
44.685,-1.545,5.335,32.0
44.799,-1.539,5.088,40.0
44.587,-1.522,4.81,32.0
45.913,-1.557,4.692,28.0
44.319,-1.497,5.784,35.0
45.03,-1.512,5.618,29.0
44.577,-1.487,5.306,42.0
44.824,-1.485,5.075,27.0
44.186,-1.455,4.751,40.0
44.833,-1.466,4.565,37.0
44.519,-1.45,5.793,32.0
44.669,-1.445,5.556,31.0
44.056,-1.415,5.227,45.0
43.928,-1.402,4.956,19.0
43.981,-1.394,4.711,37.0
44.832,-1.412,4.546,41.0
44.469,-1.394,5.767,43.0
44.469,-1.383,5.512,37.0
43.877,-1.356,5.186,32.0
43.725,-1.342,4.913,47.0
43.721,-1.332,4.663,46.0
44.917,-1.359,4.534,38.0
44.474,-1.339,5.747,36.0
44.483,-1.33,5.492,36.0
43.758,-1.298,5.151,45.0
43.77,-1.29,4.897,37.0
43.755,-1.28,4.645,45.0
45.013,-1.307,4.521,21.0
55.75,-1.61,7.175,6.0
44.617,-1.279,5.485,19.0
43.872,-1.249,5.141,35.0
43.749,-1.236,4.871,37.0
43.859,-1.23,4.632,43.0
44.668,-1.243,4.462,22.0
44.352,-1.227,5.683,32.0
52.945,-1.454,6.478,20.0
44.068,-1.201,5.139,37.0
43.812,-1.185,4.852,39.0
43.779,-1.175,4.598,45.0
0.0,0.0,0.0,0.0
44.432,-1.176,5.666,33.0
51.206,-1.344,6.234,8.0
50.26,-1.309,5.83,9.0
43.74,-1.131,4.817,42.0
43.508,-1.116,4.542,51.0
45.799,-1.165,4.519,29.0
44.522,-1.124,5.649,27.0
44.502,-1.115,5.389,11.0
50.321,-1.25,5.803,9.0
43.4,-1.07,4.751,43.0
43.437,-1.062,4.505,44.0
45.841,-1.112,4.491,4.0
47.991,-1.155,6.055,5.0
50.019,-1.193,6.021,16.0
44.703,-1.057,5.123,19.0
43.305,-1.015,4.709,35.0
43.431,-1.01,4.473,43.0
43.556,-1.004,4.236,43.0
47.956,-1.096,6.015,6.0
50.085,-1.135,5.992,28.0
0.0,0.0,0.0,0.0
43.298,-0.964,4.675,37.0
43.389,-0.958,4.436,44.0
43.514,-0.952,4.198,39.0
47.956,-1.04,5.977,6.0
50.295,-1.08,5.977,10.0
44.058,-0.937,4.981,18.0
43.404,-0.915,4.652,39.0
43.411,-0.908,4.402,41.0
43.471,-0.901,4.159,42.0
44.462,-0.912,5.504,31.0
44.773,-0.909,5.283,14.0
43.895,-0.883,4.926,18.0
43.344,-0.864,4.609,41.0
43.339,-0.856,4.358,40.0
43.49,-0.851,4.123,39.0
48.072,-0.93,5.909,43.0
50.763,-0.972,5.945,7.0
43.795,-0.831,4.875,18.0
43.285,-0.813,4.563,42.0
42.533,-0.791,4.239,22.0
0.0,0.0,0.0,0.0
48.063,-0.874,5.863,7.0
50.24,-0.904,5.837,24.0
43.79,-0.78,4.834,34.0
43.31,-0.764,4.525,36.0
41.845,-0.73,4.131,30.0
41.998,-0.726,3.904,30.0
47.896,-0.816,5.797,7.0
50.25,-0.848,5.79,19.0
43.698,-0.729,4.781,36.0
43.361,-0.716,4.489,41.0
41.928,-0.686,4.098,37.0
41.966,-0.679,3.86,44.0
41.424,-0.66,4.972,19.0
41.282,-0.65,4.715,28.0
43.431,-0.677,4.708,30.0
41.764,-0.643,4.281,28.0
41.832,-0.638,4.046,41.0
41.98,-0.633,3.818,40.0
41.321,-0.612,4.917,43.0
41.277,-0.605,4.671,41.0
0.0,0.0,0.0,0.0
0.0,0.0,0.0,0.0
41.878,-0.593,4.006,42.0
41.92,-0.586,3.768,41.0
41.226,-0.566,4.861,35.0
41.298,-0.56,4.628,24.0
41.674,-0.559,4.429,16.0
41.85,-0.555,4.2,32.0
42.206,-0.552,3.991,38.0
41.874,-0.541,3.718,42.0
41.112,-0.521,4.801,28.0
41.278,-0.516,4.58,33.0
41.481,-0.511,4.361,38.0
43.575,-0.53,4.323,3.0
41.932,-0.504,3.917,43.0
41.778,-0.496,3.661,41.0
41.004,-0.476,4.741,49.0
41.226,-0.472,4.526,40.0
41.548,-0.469,4.319,30.0
41.701,-0.464,4.088,39.0
41.559,-0.456,3.833,41.0
41.73,-0.452,3.607,34.0
41.15,-0.434,4.707,25.0
41.233,-0.429,4.476,45.0
41.387,-0.425,4.252,35.0
41.676,-0.421,4.035,46.0
41.475,-0.413,3.775,47.0
41.621,-0.408,3.547,46.0
41.257,-0.394,4.668,38.0
41.332,-0.388,4.435,42.0
41.5,-0.384,4.211,38.0
41.689,-0.38,3.984,41.0
41.579,-0.373,3.732,39.0
41.657,-0.367,3.497,42.0
41.148,-0.351,4.602,42.0
41.185,-0.346,4.366,42.0
41.639,-0.344,4.171,40.0
41.735,-0.338,3.934,41.0
41.701,-0.332,3.688,39.0
42.119,-0.33,3.481,25.0
41.43,-0.313,4.58,37.0
41.273,-0.306,4.32,37.0
41.66,-0.304,4.118,40.0
41.505,-0.297,3.856,45.0
41.399,-0.29,3.606,43.0
42.087,-0.289,3.421,42.0
41.295,-0.273,4.508,41.0
41.221,-0.267,4.258,40.0
41.84,-0.265,4.078,33.0
41.461,-0.258,3.796,40.0
41.57,-0.253,3.564,41.0
42.378,-0.253,3.387,35.0
41.2,-0.234,4.44,43.0
41.191,-0.229,4.198,38.0
41.846,-0.227,4.021,40.0
41.419,-0.22,3.734,36.0
41.569,-0.215,3.505,38.0
41.881,-0.212,3.289,43.0
41.132,-0.196,4.374,49.0
41.175,-0.192,4.138,42.0
41.734,-0.189,3.95,42.0
41.345,-0.182,3.668,42.0
41.503,-0.178,3.44,42.0
42.104,-0.176,3.246,36.0
41.36,-0.161,4.338,35.0
41.196,-0.155,4.079,49.0
41.64,-0.152,3.879,46.0
41.447,-0.147,3.616,34.0
41.646,-0.143,3.391,43.0
42.222,-0.14,3.192,26.0
41.268,-0.125,4.266,38.0
41.724,-0.122,4.069,37.0
41.933,-0.118,3.844,28.0
41.368,-0.112,3.546,45.0
41.822,-0.108,3.342,38.0
45.938,-0.114,3.403,26.0
41.375,-0.092,4.213,43.0
41.977,-0.088,4.029,42.0
41.754,-0.083,3.763,43.0
41.473,-0.078,3.491,39.0
42.08,-0.075,3.297,38.0
48.532,-0.082,3.521,6.0
41.323,-0.058,4.143,44.0
42.023,-0.055,3.967,17.0
41.407,-0.05,3.667,42.0
41.471,-0.046,3.426,39.0
42.019,-0.042,3.226,42.0
48.438,-0.043,3.437,5.0
41.417,-0.026,4.086,54.0
42.259,-0.023,3.922,27.0
41.512,-0.018,3.609,39.0
41.577,-0.014,3.368,45.0
48.263,-0.012,3.628,5.0
67.526,-0.011,4.683,13.0
41.615,0.004,4.038,43.0
42.635,0.008,3.887,18.0
41.542,0.011,3.544,45.0
41.648,0.015,3.306,36.0
48.594,0.022,3.574,12.0
50.46,0.028,3.417,4.0
42.103,0.034,4.015,25.0
0.0,0.0,0.0,0.0
41.438,0.041,3.466,42.0
45.768,0.049,3.556,8.0
48.689,0.056,3.499,5.0
60.438,0.075,3.992,5.0
42.303,0.063,3.963,36.0
41.488,0.065,3.643,40.0
41.59,0.069,3.409,44.0
45.97,0.08,3.494,8.0
67.908,0.124,4.765,7.0
60.36,0.114,3.885,6.0
41.841,0.09,3.848,32.0
41.525,0.092,3.575,45.0
41.805,0.096,3.354,37.0
45.881,0.109,3.408,15.0
67.496,0.166,4.62,11.0
67.156,0.17,4.205,13.0
41.385,0.115,3.733,46.0
41.548,0.118,3.504,39.0
41.834,0.122,3.283,41.0
45.814,0.137,3.323,15.0
60.396,0.185,4.028,19.0
67.284,0.211,4.095,19.0
41.566,0.14,3.676,36.0
41.55,0.143,3.431,40.0
41.971,0.147,3.22,38.0
45.789,0.163,3.24,3.0
60.289,0.219,3.914,7.0
73.472,0.272,4.341,7.0
41.57,0.164,3.601,45.0
41.821,0.167,3.378,43.0
47.739,0.193,3.576,17.0
60.809,0.25,4.194,25.0
60.216,0.251,3.801,15.0
80.492,0.341,4.611,5.0
41.557,0.185,3.525,47.0
41.733,0.188,3.295,38.0
45.851,0.209,3.351,24.0
66.737,0.309,4.481,10.0
71.806,0.336,4.402,3.0
80.322,0.38,4.455,18.0
41.714,0.207,3.462,50.0
47.937,0.24,3.697,5.0
45.833,0.231,3.266,3.0
60.525,0.309,3.953,7.0
70.743,0.364,4.207,7.0
80.935,0.421,4.34,13.0
41.879,0.227,3.397,47.0
47.744,0.26,3.593,14.0
48.009,0.264,3.332,13.0
67.972,0.377,4.314,4.0
80.38,0.449,4.632,10.0
78.705,0.443,4.077,8.0
41.91,0.244,3.322,12.0
51.47,0.302,3.777,5.0
48.034,0.284,3.243,16.0
74.622,0.444,4.595,9.0
80.402,0.482,4.481,15.0
78.689,0.474,3.926,8.0
41.907,0.261,3.242,29.0
47.873,0.3,3.422,2.0
60.506,0.381,3.971,5.0
73.886,0.467,4.41,5.0
81.335,0.517,4.378,12.0
70.349,0.45,3.375,7.0
47.993,0.316,3.619,12.0
47.86,0.316,3.329,40.0
60.003,0.398,3.822,6.0
80.522,0.537,4.65,9.0
81.249,0.544,4.217,8.0
70.385,0.473,3.241,8.0
44.983,0.31,3.305,13.0
60.54,0.42,4.094,8.0
74.158,0.516,4.58,8.0
80.881,0.564,4.513,15.0
78.709,0.55,3.931,7.0
97.69,0.686,4.309,17.0
47.931,0.345,3.427,5.0
60.234,0.434,3.954,5.0
78.395,0.567,4.686,8.0
81.404,0.59,4.382,17.0
80.662,0.586,3.87,7.0
70.033,0.509,2.951,19.0
47.921,0.356,3.332,20.0
60.001,0.447,3.82,22.0
78.455,0.586,4.535,9.0
81.302,0.608,4.215,16.0
80.553,0.603,3.706,8.0
104.771,0.786,4.207,20.0
60.479,0.463,4.084,6.0
0.0,0.0,0.0,0.0
81.036,0.622,4.523,12.0
78.63,0.604,3.921,10.0
70.028,0.538,3.083,15.0
69.904,0.537,2.669,11.0
60.086,0.47,3.937,9.0
78.305,0.614,4.673,14.0
81.418,0.638,4.382,9.0
80.6,0.631,3.857,11.0
70.053,0.549,2.943,15.0
69.713,0.546,2.522,17.0
59.995,0.478,3.81,18.0
80.665,0.643,4.65,5.0
81.291,0.648,4.21,5.0
97.667,0.778,4.476,9.0
104.78,0.834,4.189,17.0
104.625,0.832,3.573,19.0
78.37,0.633,4.818,7.0
81.367,0.656,4.525,12.0
78.707,0.634,3.915,7.0
70.029,0.563,3.068,18.0
69.89,0.562,2.652,9.0
104.664,0.84,3.361,25.0
78.29,0.637,4.653,17.0
81.419,0.662,4.361,13.0
80.629,0.654,3.846,16.0
97.827,0.792,4.084,15.0
69.69,0.563,2.503,24.0
104.712,0.845,3.148,32.0
78.409,0.64,4.499,8.0
78.638,0.641,4.051,4.0
97.663,0.794,4.458,7.0
69.901,0.567,2.774,7.0
104.629,0.846,3.54,21.0
104.735,0.845,2.931,31.0
81.393,0.664,4.501,15.0
78.668,0.64,3.889,4.0
70.041,0.568,3.052,19.0
69.841,0.564,2.627,9.0
104.662,0.843,3.325,25.0
104.731,0.841,2.715,33.0
81.359,0.659,4.33,12.0
80.595,0.651,3.817,17.0
97.864,0.788,4.061,13.0
69.685,0.558,2.477,23.0
104.718,0.836,3.11,32.0
104.745,0.833,2.499,11.0
78.681,0.631,4.024,10.0
97.646,0.78,4.422,14.0
69.859,0.555,2.755,9.0
104.603,0.828,3.503,26.0
104.72,0.825,2.895,29.0
100.023,0.784,2.18,2.0
80.712,0.637,3.96,4.0
70.027,0.55,3.025,26.0
69.814,0.546,2.607,8.0
104.714,0.814,3.288,23.0
104.728,0.809,2.675,28.0
99.951,0.768,1.969,4.0
80.576,0.623,3.783,12.0
104.78,0.805,4.308,18.0
69.708,0.532,2.457,20.0
104.752,0.795,3.068,29.0
101.594,0.767,2.383,1.0
99.956,0.749,1.761,5.0
97.63,0.735,4.381,22.0
104.757,0.784,4.088,16.0
104.7,0.778,3.472,21.0
104.792,0.773,2.851,30.0
101.088,0.74,2.158,1.0
104.725,0.761,1.623,2.0
70.032,0.51,2.994,21.0
69.766,0.504,2.574,12.0
104.768,0.752,3.253,22.0
104.798,0.746,2.63,19.0
100.206,0.707,1.93,3.0
104.833,0.734,1.405,4.0
70.101,0.491,2.85,9.0
69.805,0.485,2.43,9.0
104.861,0.722,3.037,17.0
111.05,0.758,2.554,7.0
100.291,0.678,1.72,4.0
99.91,0.669,1.131,6.0
70.02,0.469,2.7,14.0
104.812,0.694,3.427,17.0
111.077,0.729,2.984,25.0
111.014,0.721,2.322,4.0
100.273,0.644,1.511,4.0
104.943,0.666,0.967,22.0
0.0,0.0,0.0,0.0
0.0,0.0,0.0,0.0
45.724,-0.21,-0.349,0.0
36.712,-0.174,-0.497,0.0
30.604,-0.15,-0.593,0.0
25.681,-0.13,-0.647,0.0
95.121,-0.5,0.199,1.0
0.0,0.0,0.0,0.0
43.39,-0.242,-0.414,0.0
0.0,0.0,0.0,0.0
29.046,-0.171,-0.618,0.0
24.567,-0.148,-0.666,0.0
49.448,-0.309,0.01,0.0
0.0,0.0,0.0,0.0
40.239,-0.264,-0.459,0.0
32.661,-0.22,-0.566,0.0
0.0,0.0,0.0,0.0
23.553,-0.166,-0.682,0.0
0.0,0.0,0.0,0.0
47.0,-0.349,-0.351,0.0
0.0,0.0,0.0,0.0
30.222,-0.235,-0.58,0.0
26.064,-0.207,-0.652,0.0
22.432,-0.182,-0.692,0.0
0.0,0.0,0.0,0.0
0.0,0.0,0.0,0.0
34.512,-0.299,-0.522,0.0
28.789,-0.254,-0.606,0.0
24.887,-0.224,-0.668,0.0
21.579,-0.198,-0.705,0.0
0.0,0.0,0.0,0.0
0.0,0.0,0.0,0.0
0.0,0.0,0.0,0.0
27.641,-0.274,-0.632,0.0
23.572,-0.238,-0.676,0.0
20.783,-0.214,-0.717,0.0
0.0,0.0,0.0,0.0
0.0,0.0,0.0,0.0
30.979,-0.337,-0.58,0.0
26.416,-0.292,-0.651,0.0
22.756,-0.256,-0.693,0.0
20.18,-0.231,-0.732,0.0
0.0,0.0,0.0,0.0
0.0,0.0,0.0,0.0
0.0,0.0,0.0,0.0
25.004,-0.305,-0.661,0.0
21.864,-0.271,-0.705,0.0
19.504,-0.246,-0.742,0.0
40.401,-0.518,-0.431,0.0
0.0,0.0,0.0,0.0
0.0,0.0,0.0,0.0
23.971,-0.321,-0.676,0.0
21.04,-0.286,-0.715,0.0
18.961,-0.262,-0.755,0.0
0.0,0.0,0.0,0.0
30.945,-0.44,-0.563,0.0
26.61,-0.384,-0.639,0.0
23.061,-0.337,-0.69,0.0
20.186,-0.299,-0.721,0.0
18.291,-0.275,-0.759,0.0
35.277,-0.538,-0.497,0.0
30.123,-0.465,-0.599,0.0
25.44,-0.398,-0.654,0.0
22.17,-0.352,-0.701,0.0
19.854,-0.319,-0.742,0.0
17.818,-0.29,-0.77,0.0
0.0,0.0,0.0,0.0
28.271,-0.472,-0.609,0.0
0.0,0.0,0.0,0.0
21.468,-0.368,-0.714,0.0
19.049,-0.33,-0.744,0.0
17.293,-0.303,-0.776,0.0
31.757,-0.565,-0.553,0.0
26.885,-0.484,-0.624,0.0
0.0,0.0,0.0,0.0
20.612,-0.379,-0.719,0.0
18.146,-0.338,-0.738,7.0
16.884,-0.318,-0.785,0.0
30.329,-0.579,-0.577,0.0
26.072,-0.503,-0.647,0.0
22.564,-0.44,-0.69,0.0
18.139,-0.358,-0.662,0.0
18.102,-0.361,-0.766,14.0
16.557,-0.334,-0.796,0.0
29.232,-0.596,-0.602,0.0
24.867,-0.513,-0.656,0.0
18.166,-0.378,-0.584,150.0
18.138,-0.382,-0.691,23.0
18.068,-0.384,-0.793,2.0
18.143,-0.39,-0.901,12.0
28.394,-0.618,-0.629,0.0
18.154,-0.399,-0.507,8.0
18.093,-0.402,-0.61,160.0
18.119,-0.406,-0.718,64.0
18.118,-0.41,-0.823,5.0
18.139,-0.415,-0.929,37.0
0.0,0.0,0.0,0.0
18.161,-0.424,-0.535,150.0
18.098,-0.427,-0.638,157.0
18.107,-0.431,-0.745,36.0
18.143,-0.436,-0.852,20.0
18.128,-0.44,-0.956,13.0
21.901,-0.537,-0.552,19.0
18.106,-0.448,-0.56,155.0
18.136,-0.453,-0.666,63.0
18.08,-0.456,-0.771,8.0
0.0,0.0,0.0,0.0
18.144,-0.466,-0.983,2.0
21.885,-0.567,-0.583,154.0
21.841,-0.571,-0.708,0.0
18.141,-0.479,-0.693,12.0
17.912,-0.477,-0.789,1.0
21.922,-0.589,-1.093,0.0
14.661,-0.397,-0.816,0.0
21.9,-0.599,-0.614,151.0
21.844,-0.602,-0.739,9.0
21.886,-0.609,-0.867,150.0
21.896,-0.614,-0.995,2.0
21.901,-0.62,-1.122,0.0
14.44,-0.412,-0.824,0.0
21.892,-0.63,-0.644,74.0
21.825,-0.634,-0.768,4.0
21.952,-0.643,-0.899,0.0
16.774,-0.495,-0.786,0.0
15.36,-0.457,-0.808,0.0
14.132,-0.424,-0.825,0.0
21.891,-0.662,-0.674,9.0
19.971,-0.609,-0.73,0.0
17.956,-0.552,-0.76,0.0
16.478,-0.511,-0.794,0.0
15.092,-0.471,-0.814,0.0
13.954,-0.44,-0.834,0.0
21.932,-0.696,-0.704,12.0
19.44,-0.622,-0.736,0.0
17.604,-0.567,-0.768,0.0
16.18,-0.526,-0.801,0.0
14.725,-0.482,-0.814,0.0
13.678,-0.451,-0.835,0.0
21.416,-0.712,-0.715,0.0
19.051,-0.638,-0.746,0.0
17.3,-0.584,-0.777,0.0
15.723,-0.535,-0.798,0.0
14.433,-0.495,-0.816,0.0
13.459,-0.465,-0.839,0.0
20.501,-0.713,-0.711,0.0
18.608,-0.652,-0.752,0.0
16.833,-0.594,-0.777,0.0
15.371,-0.546,-0.8,0.0
14.278,-0.512,-0.825,0.0
13.222,-0.477,-0.84,0.0
20.134,-0.731,-0.722,0.0
18.216,-0.666,-0.758,0.0
16.603,-0.612,-0.787,0.0
15.192,-0.564,-0.809,0.0
14.079,-0.526,-0.831,0.0
13.096,-0.493,-0.848,0.0
19.624,-0.743,-0.727,0.0
17.793,-0.678,-0.762,0.0
16.364,-0.628,-0.794,0.0
14.89,-0.576,-0.81,0.0
13.885,-0.541,-0.835,0.0
12.837,-0.503,-0.846,0.0
19.287,-0.76,-0.737,0.0
17.431,-0.692,-0.766,0.0
16.046,-0.641,-0.797,0.0
14.632,-0.589,-0.813,0.0
13.611,-0.552,-0.834,0.0
12.633,-0.515,-0.847,0.0
18.879,-0.774,-0.742,0.0
17.218,-0.711,-0.776,0.0
15.773,-0.655,-0.801,0.0
14.525,-0.608,-0.822,0.0
13.476,-0.567,-0.84,0.0
12.444,-0.528,-0.848,0.0
18.482,-0.787,-0.746,0.0
16.947,-0.727,-0.781,0.0
15.564,-0.672,-0.807,0.0
14.274,-0.62,-0.823,0.0
13.282,-0.581,-0.842,0.0
12.309,-0.542,-0.851,0.0
18.286,-0.808,-0.757,0.0
16.678,-0.742,-0.786,0.0
15.239,-0.682,-0.805,0.0
14.102,-0.635,-0.828,0.0
13.078,-0.593,-0.843,0.0
12.16,-0.555,-0.853,0.0
17.938,-0.822,-0.76,0.0
16.504,-0.76,-0.794,0.0
15.008,-0.696,-0.808,0.0
13.936,-0.65,-0.831,0.0
20.037,-0.941,-1.31,0.0
12.049,-0.569,-0.857,0.0
17.685,-0.838,-0.766,0.0
20.078,-0.957,-0.985,0.0
14.864,-0.713,-0.814,0.0
13.577,-0.655,-0.822,1.0
20.012,-0.972,-1.327,0.0
11.848,-0.579,-0.854,0.0
17.525,-0.859,-0.775,0.0
20.064,-0.99,-1.002,0.0
14.704,-0.729,-0.818,0.0
13.586,-0.678,-0.835,0.0
19.947,-1.001,-1.341,0.0
11.751,-0.593,-0.857,0.0
20.109,-1.018,-0.907,0.0
20.043,-1.021,-1.018,0.0
14.451,-0.74,-0.816,0.0
13.426,-0.692,-0.837,0.0
12.456,-0.645,-0.847,0.0
11.65,-0.607,-0.859,0.0
16.957,-0.886,-0.778,0.0
20.083,-1.056,-1.037,0.0
14.329,-0.757,-0.821,0.0
13.349,-0.709,-0.843,0.0
12.366,-0.661,-0.851,0.0
11.526,-0.62,-0.859,0.0
16.722,-0.901,-0.781,0.0
15.323,-0.83,-0.803,0.0
14.178,-0.773,-0.824,0.0
13.174,-0.722,-0.842,0.0
12.24,-0.674,-0.852,0.0
11.438,-0.634,-0.862,0.0
16.616,-0.923,-0.788,1.0
15.142,-0.845,-0.805,0.0
14.04,-0.788,-0.826,0.0
13.067,-0.737,-0.844,0.0
12.146,-0.689,-0.854,0.0
11.365,-0.648,-0.864,0.0
16.383,-0.937,-0.789,0.0
15.052,-0.865,-0.81,0.0
13.91,-0.804,-0.828,0.0
13.015,-0.756,-0.85,0.0
12.054,-0.704,-0.856,0.0
11.273,-0.662,-0.865,0.0
16.268,-0.957,-0.794,0.0
14.873,-0.879,-0.81,0.0
13.764,-0.818,-0.828,0.0
19.891,-1.188,-1.312,0.0
11.964,-0.718,-0.857,0.0
11.195,-0.675,-0.866,0.0
16.062,-0.971,-0.794,0.0
14.82,-0.9,-0.816,0.0
13.665,-0.834,-0.83,0.0
19.951,-1.224,-1.328,0.0
11.875,-0.732,-0.858,0.0
11.148,-0.691,-0.869,0.0
16.022,-0.995,-0.801,0.0
14.705,-0.917,-0.818,0.0
13.607,-0.853,-0.834,0.0
12.568,-0.791,-0.843,0.0
11.821,-0.748,-0.86,0.0
11.089,-0.705,-0.87,0.0
20.094,-1.28,-1.015,0.0
14.606,-0.934,-0.82,0.0
13.546,-0.871,-0.838,0.0
12.495,-0.807,-0.845,0.0
11.764,-0.763,-0.862,0.0
11.045,-0.72,-0.872,0.0
20.076,-1.311,-1.024,0.0
14.396,-0.945,-0.816,0.0
13.459,-0.887,-0.839,0.0
12.434,-0.823,-0.846,0.0
11.688,-0.778,-0.862,0.0
11.019,-0.737,-0.875,0.0
15.633,-1.046,-0.804,0.0
14.369,-0.966,-0.82,0.0
13.432,-0.907,-0.843,0.0
12.351,-0.838,-0.846,0.0
11.641,-0.794,-0.864,0.0
10.964,-0.751,-0.875,0.0
15.478,-1.061,-0.803,0.0
14.316,-0.986,-0.823,0.0
13.342,-0.923,-0.842,0.0
12.334,-0.857,-0.85,0.0
11.597,-0.809,-0.865,0.0
10.939,-0.767,-0.878,0.0
15.344,-1.076,-0.801,0.0
14.261,-1.005,-0.825,0.0
13.296,-0.941,-0.844,0.0
12.297,-0.874,-0.851,0.0
11.553,-0.825,-0.865,0.0
10.919,-0.783,-0.88,0.0
15.245,-1.094,-0.801,0.0
14.243,-1.026,-0.829,0.0
13.276,-0.961,-0.847,0.0
12.244,-0.89,-0.852,0.0
11.52,-0.841,-0.866,0.0
10.901,-0.799,-0.881,0.0
15.235,-1.117,-0.805,0.0
14.064,-1.036,-0.822,0.0
13.22,-0.978,-0.847,0.0
12.214,-0.907,-0.853,0.0
11.495,-0.857,-0.867,0.0
10.874,-0.814,-0.882,0.0
15.24,-1.142,-0.809,0.0
14.083,-1.059,-0.826,0.0
13.203,-0.997,-0.849,0.0
12.22,-0.927,-0.856,0.0
11.488,-0.875,-0.869,0.0
10.837,-0.829,-0.881,0.0
15.177,-1.161,-0.808,0.0
14.08,-1.081,-0.829,0.0
13.144,-1.013,-0.848,0.0
12.2,-0.944,-0.857,0.0
11.446,-0.89,-0.868,0.0
10.829,-0.845,-0.882,0.0
15.183,-1.185,-0.811,0.0
14.026,-1.099,-0.828,0.0
13.081,-1.029,-0.845,0.0
12.192,-0.963,-0.858,0.0
11.44,-0.907,-0.869,0.0
10.811,-0.86,-0.882,0.0
15.156,-1.206,-0.811,0.0
14.103,-1.127,-0.834,0.0
13.115,-1.052,-0.849,0.0
12.19,-0.981,-0.859,0.0
11.45,-0.925,-0.871,0.0
10.832,-0.879,-0.885,0.0
15.106,-1.225,-0.81,0.0
13.995,-1.14,-0.828,0.0
13.116,-1.072,-0.85,0.0
12.198,-1.001,-0.86,0.0
11.446,-0.942,-0.871,0.0
10.822,-0.895,-0.884,0.0
15.037,-1.243,-0.807,0.0
14.0,-1.161,-0.829,0.0
13.117,-1.092,-0.85,0.0
12.212,-1.02,-0.861,0.0
11.448,-0.96,-0.871,0.0
10.831,-0.911,-0.885,0.0
15.086,-1.269,-0.809,0.0
14.001,-1.182,-0.829,0.0
13.044,-1.105,-0.845,0.0
12.223,-1.039,-0.861,0.0
11.453,-0.977,-0.871,0.0
10.829,-0.928,-0.884,0.0
15.192,-1.301,-0.814,0.0
13.977,-1.201,-0.827,0.0
13.007,-1.121,-0.842,0.0
12.221,-1.057,-0.86,0.0
11.476,-0.996,-0.872,0.0
10.852,-0.946,-0.885,0.0
15.18,-1.322,-0.812,0.0
14.042,-1.227,-0.829,0.0
13.052,-1.144,-0.843,0.0
12.228,-1.076,-0.86,0.0
11.493,-1.015,-0.872,0.0
10.865,-0.963,-0.885,0.0
15.276,-1.353,-0.815,0.0
14.054,-1.248,-0.828,0.0
13.181,-1.175,-0.85,0.0
12.218,-1.092,-0.857,0.0
11.484,-1.03,-0.87,0.0
10.889,-0.98,-0.885,0.0
15.181,-1.366,-0.808,0.0
14.054,-1.268,-0.826,0.0
13.176,-1.193,-0.847,0.0
12.394,-1.126,-0.867,0.0
11.555,-1.053,-0.873,0.0
10.922,-0.999,-0.886,0.0
15.262,-1.395,-0.809,0.0
14.13,-1.295,-0.827,0.0
13.213,-1.215,-0.847,0.0
12.339,-1.138,-0.86,0.0
11.618,-1.075,-0.875,0.0
10.932,-1.015,-0.884,0.0
15.316,-1.421,-0.808,0.0
14.185,-1.32,-0.827,0.0
13.238,-1.235,-0.845,0.0
12.361,-1.157,-0.859,0.0
11.62,-1.091,-0.872,0.0
10.944,-1.031,-0.882,0.0
15.385,-1.448,-0.807,0.0
14.222,-1.342,-0.825,0.0
13.282,-1.257,-0.844,0.0
12.507,-1.187,-0.865,0.0
11.668,-1.111,-0.872,0.0
10.983,-1.049,-0.882,0.0
15.387,-1.469,-0.802,1.0
14.342,-1.373,-0.827,0.0
13.268,-1.274,-0.838,0.0
12.494,-1.203,-0.86,0.0
11.706,-1.13,-0.87,0.0
11.098,-1.075,-0.887,0.0
15.422,-1.492,-0.799,1.0
14.333,-1.391,-0.821,0.0
13.367,-1.3,-0.84,0.0
12.481,-1.218,-0.854,0.0
11.748,-1.149,-0.869,0.0
11.133,-1.092,-0.885,0.0
15.621,-1.531,-0.803,1.0
14.346,-1.41,-0.816,0.0
13.495,-1.33,-0.842,0.0
12.555,-1.241,-0.854,0.0
11.783,-1.168,-0.867,0.0
11.167,-1.11,-0.883,0.0
15.785,-1.567,-0.804,1.0
14.604,-1.454,-0.824,0.0
13.477,-1.345,-0.835,0.0
12.612,-1.262,-0.852,0.0
11.868,-1.191,-0.868,0.0
11.245,-1.131,-0.884,0.0
15.543,-1.562,-0.785,0.0
14.812,-1.492,-0.829,0.0
13.556,-1.369,-0.833,0.0
12.74,-1.29,-0.855,0.0
11.918,-1.21,-0.865,0.0
11.285,-1.149,-0.882,0.0
15.007,-1.526,-0.75,0.0
14.853,-1.514,-0.824,0.0
13.678,-1.398,-0.834,0.0
12.855,-1.317,-0.856,0.0
12.055,-1.238,-0.869,0.0
11.309,-1.165,-0.877,0.0
14.638,-1.506,-0.724,1.0
14.569,-1.502,-0.8,0.0
14.028,-1.45,-0.847,0.0
12.88,-1.335,-0.85,0.0
12.089,-1.256,-0.864,0.0
11.385,-1.186,-0.877,0.0
14.343,-1.492,-0.701,1.0
14.237,-1.484,-0.774,0.0
14.016,-1.464,-0.839,0.0
12.978,-1.359,-0.849,0.0
12.13,-1.274,-0.86,0.0
11.496,-1.21,-0.878,0.0
14.217,-1.494,-0.686,1.0
13.954,-1.47,-0.75,0.0
13.872,-1.465,-0.821,0.0
13.204,-1.397,-0.856,0.0
12.285,-1.303,-0.863,0.0
11.574,-1.23,-0.877,0.0
14.209,-1.509,-0.677,1.0
13.683,-1.456,-0.727,0.0
13.636,-1.454,-0.799,0.0
13.271,-1.418,-0.851,0.0
12.364,-1.324,-0.861,0.0
11.65,-1.251,-0.875,0.0
14.328,-1.536,-0.673,2.0
13.453,-1.445,-0.705,1.0
13.36,-1.438,-0.773,0.0
13.273,-1.432,-0.842,0.0
12.499,-1.351,-0.861,0.0
11.742,-1.272,-0.874,0.0
14.387,-1.557,-0.666,5.0
13.378,-1.451,-0.692,1.0
13.137,-1.427,-0.751,0.0
13.149,-1.432,-0.825,0.0
12.674,-1.383,-0.864,0.0
11.777,-1.288,-0.868,0.0
14.443,-1.577,-0.658,10.0
13.433,-1.47,-0.685,1.0
12.89,-1.413,-0.727,1.0
12.839,-1.41,-0.796,0.0
12.681,-1.395,-0.855,0.0
11.861,-1.308,-0.865,0.0
14.529,-1.6,-0.651,14.0
13.601,-1.501,-0.683,1.0
12.731,-1.407,-0.709,1.0
12.6,-1.395,-0.771,0.0
12.574,-1.395,-0.838,0.0
12.084,-1.343,-0.872,0.0
14.554,-1.616,-0.64,14.0
13.838,-1.539,-0.684,1.0
12.732,-1.418,-0.699,1.0
12.422,-1.386,-0.75,0.0
12.413,-1.388,-0.818,0.0
12.219,-1.369,-0.871,0.0
14.662,-1.64,-0.633,14.0
13.953,-1.564,-0.678,5.0
12.807,-1.438,-0.692,1.0
12.28,-1.381,-0.732,0.0
12.223,-1.377,-0.795,0.0
12.214,-1.378,-0.861,0.0
14.684,-1.655,-0.622,14.0
13.947,-1.574,-0.666,10.0
12.978,-1.467,-0.69,1.0
12.203,-1.382,-0.717,1.0
12.073,-1.369,-0.775,0.0
12.108,-1.376,-0.843,0.0
15.205,-1.725,-0.631,17.0
13.909,-1.581,-0.652,13.0
13.196,-1.502,-0.69,1.0
12.234,-1.395,-0.708,1.0
11.899,-1.359,-0.753,0.0
11.883,-1.359,-0.816,0.0
15.321,-1.75,-0.622,20.0
13.943,-1.595,-0.641,12.0
13.425,-1.538,-0.69,2.0
12.296,-1.41,-0.7,2.0
11.789,-1.354,-0.735,0.0
11.726,-1.349,-0.795,0.0
15.476,-1.778,-0.614,18.0
13.942,-1.604,-0.629,11.0
13.453,-1.55,-0.679,7.0
12.392,-1.43,-0.694,1.0
11.748,-1.358,-0.722,0.0
11.611,-1.344,-0.776,0.0
15.654,-1.809,-0.607,16.0
14.192,-1.642,-0.627,10.0
13.467,-1.56,-0.667,11.0
12.564,-1.458,-0.692,1.0
11.809,-1.372,-0.714,0.0
11.51,-1.339,-0.758,0.0
15.884,-1.846,-0.6,16.0
14.513,-1.688,-0.627,12.0
13.546,-1.578,-0.658,11.0
12.83,-1.496,-0.694,1.0
11.928,-1.393,-0.71,0.0
11.375,-1.33,-0.738,0.0
16.105,-1.881,-0.593,16.0
14.945,-1.747,-0.631,13.0
13.773,-1.612,-0.655,10.0
13.019,-1.526,-0.691,4.0
12.098,-1.419,-0.708,0.0
11.386,-1.337,-0.728,0.0
16.283,-1.911,-0.583,17.0
15.144,-1.779,-0.624,13.0
13.964,-1.642,-0.651,12.0
13.062,-1.537,-0.68,10.0
12.293,-1.448,-0.707,1.0
11.459,-1.352,-0.72,0.0
16.537,-1.949,-0.575,16.0
15.247,-1.798,-0.612,16.0
14.161,-1.672,-0.645,11.0
13.106,-1.549,-0.669,12.0
12.383,-1.465,-0.699,3.0
11.572,-1.37,-0.715,0.0
16.806,-1.988,-0.567,15.0
15.36,-1.818,-0.601,17.0
14.333,-1.698,-0.637,12.0
13.207,-1.566,-0.66,10.0
12.469,-1.48,-0.69,5.0
11.72,-1.393,-0.712,0.0
17.189,-2.04,-0.562,15.0
15.604,-1.854,-0.594,15.0
14.479,-1.721,-0.629,13.0
13.221,-1.573,-0.647,10.0
12.609,-1.502,-0.684,7.0
11.883,-1.416,-0.709,0.0
17.619,-2.098,-0.557,16.0
15.823,-1.885,-0.585,13.0
14.786,-1.763,-0.626,15.0
13.464,-1.607,-0.644,10.0
12.828,-1.532,-0.682,10.0
12.099,-1.446,-0.709,0.0
18.073,-2.158,-0.551,18.0
16.113,-1.925,-0.578,14.0
14.993,-1.792,-0.618,18.0
13.894,-1.662,-0.649,11.0
12.921,-1.547,-0.673,11.0
12.247,-1.467,-0.704,2.0
18.325,-2.193,-0.539,19.0
16.457,-1.971,-0.572,15.0
15.179,-1.818,-0.609,20.0
14.068,-1.686,-0.641,11.0
13.023,-1.562,-0.663,11.0
12.303,-1.477,-0.693,6.0
18.489,-2.217,-0.523,18.0
16.883,-2.025,-0.568,15.0
15.353,-1.843,-0.598,17.0
13.979,-1.679,-0.621,10.0
13.194,-1.585,-0.657,11.0
12.446,-1.496,-0.687,9.0
18.801,-2.258,-0.51,19.0
17.315,-2.08,-0.562,15.0
15.617,-1.877,-0.591,14.0
14.494,-1.743,-0.628,13.0
13.283,-1.598,-0.646,9.0
12.588,-1.515,-0.68,10.0
19.293,-2.32,-0.502,29.0
17.682,-2.127,-0.554,16.0
15.85,-1.907,-0.582,13.0
14.768,-1.777,-0.622,15.0
13.79,-1.66,-0.655,11.0
12.797,-1.541,-0.677,11.0
19.518,-2.349,-0.485,31.0
18.003,-2.167,-0.543,17.0
16.206,-1.951,-0.576,14.0
15.001,-1.807,-0.615,17.0
13.945,-1.68,-0.646,13.0
12.931,-1.558,-0.669,11.0
20.045,-2.414,-0.475,21.0
18.304,-2.204,-0.531,17.0
16.633,-2.003,-0.572,14.0
15.233,-1.835,-0.607,17.0
14.133,-1.703,-0.639,12.0
13.072,-1.575,-0.661,10.0
20.771,-2.501,-0.467,21.0
18.581,-2.237,-0.518,18.0
17.098,-2.059,-0.568,15.0
15.429,-1.858,-0.596,15.0
14.382,-1.732,-0.633,13.0
13.322,-1.605,-0.657,10.0
21.324,-2.567,-0.455,22.0
18.99,-2.286,-0.507,20.0
17.518,-2.109,-0.561,15.0
15.643,-1.883,-0.586,13.0
14.601,-1.758,-0.625,14.0
13.681,-1.647,-0.659,10.0
21.814,-2.624,-0.44,21.0
19.408,-2.334,-0.495,30.0
17.858,-2.148,-0.551,16.0
15.99,-1.923,-0.58,13.0
14.919,-1.794,-0.621,19.0
13.871,-1.668,-0.652,12.0
22.442,-2.697,-0.426,22.0
19.843,-2.384,-0.482,22.0
18.205,-2.187,-0.54,16.0
16.409,-1.971,-0.576,14.0
15.143,-1.818,-0.612,19.0
14.055,-1.687,-0.643,11.0
23.083,-2.77,-0.41,23.0
20.589,-2.47,-0.476,20.0
18.505,-2.219,-0.527,17.0
16.829,-2.018,-0.57,14.0
15.35,-1.84,-0.602,18.0
14.318,-1.716,-0.638,12.0
23.829,-2.854,-0.395,23.0
21.176,-2.535,-0.464,21.0
18.906,-2.263,-0.516,19.0
17.31,-2.071,-0.566,14.0
15.654,-1.872,-0.595,14.0
14.525,-1.737,-0.63,14.0
24.655,-2.946,-0.379,22.0
21.759,-2.599,-0.451,18.0
19.308,-2.305,-0.503,21.0
17.737,-2.117,-0.558,15.0
16.058,-1.915,-0.591,14.0
14.898,-1.777,-0.628,18.0
25.372,-3.024,-0.36,17.0
22.338,-2.661,-0.436,20.0
19.873,-2.366,-0.494,18.0
18.122,-2.156,-0.549,17.0
16.378,-1.948,-0.583,15.0
15.14,-1.8,-0.62,20.0
0.0,0.0,0.0,0.0
22.945,-2.725,-0.42,20.0
20.4,-2.421,-0.482,18.0
18.441,-2.187,-0.536,17.0
16.699,-1.979,-0.575,14.0
15.307,-1.813,-0.608,18.0
29.227,-3.461,-0.345,24.0
23.692,-2.803,-0.406,22.0
20.954,-2.478,-0.47,19.0
18.838,-2.226,-0.525,16.0
17.188,-2.03,-0.571,15.0
15.622,-1.844,-0.602,15.0
30.308,-3.575,-0.321,21.0
24.495,-2.887,-0.39,18.0
21.648,-2.549,-0.46,17.0
19.292,-2.27,-0.515,17.0
17.667,-2.077,-0.566,15.0
16.04,-1.885,-0.599,14.0
35.265,-4.142,-0.332,5.0
25.225,-2.96,-0.371,18.0
22.247,-2.608,-0.446,18.0
19.847,-2.325,-0.506,16.0
18.033,-2.111,-0.556,21.0
16.36,-1.913,-0.592,16.0
35.666,-4.17,-0.293,22.0
28.038,-3.275,-0.38,2.0
22.849,-2.666,-0.431,20.0
20.371,-2.375,-0.495,17.0
18.298,-2.131,-0.543,19.0
16.679,-1.941,-0.584,15.0
36.67,-4.266,-0.259,14.0
29.071,-3.378,-0.36,16.0
23.333,-2.708,-0.413,22.0
20.926,-2.426,-0.484,18.0
18.9,-2.189,-0.538,25.0
17.105,-1.98,-0.578,15.0
37.888,-4.384,-0.222,22.0
30.392,-3.512,-0.341,27.0
24.332,-2.809,-0.402,17.0
21.49,-2.478,-0.472,19.0
19.272,-2.219,-0.526,28.0
17.532,-2.017,-0.572,15.0
38.765,-4.459,-0.183,15.0
35.261,-4.05,-0.354,1.0
0.0,0.0,0.0,0.0
22.019,-2.523,-0.458,20.0
19.464,-2.228,-0.509,22.0
17.939,-2.051,-0.565,16.0
0.0,0.0,0.0,0.0
35.539,-4.056,-0.316,22.0
0.0,0.0,0.0,0.0
22.565,-2.569,-0.444,22.0
19.98,-2.271,-0.499,20.0
18.332,-2.081,-0.556,17.0
42.592,-4.835,-0.103,18.0
36.063,-4.088,-0.279,13.0
28.831,-3.264,-0.377,24.0
23.32,-2.636,-0.432,20.0
20.968,-2.367,-0.501,18.0
18.82,-2.122,-0.55,25.0
45.6,-5.14,-0.059,21.0
37.475,-4.218,-0.248,19.0
30.02,-3.373,-0.359,25.0
24.36,-2.733,-0.424,21.0
21.642,-2.425,-0.492,19.0
19.061,-2.132,-0.535,25.0
46.134,-5.16,-0.007,21.0
38.539,-4.304,-0.212,14.0
30.884,-3.443,-0.334,9.0
25.256,-2.811,-0.411,20.0
22.259,-2.474,-0.481,20.0
19.592,-2.174,-0.528,21.0
48.194,-5.348,0.045,23.0
0.0,0.0,0.0,0.0
35.5,-3.925,-0.345,2.0
0.0,0.0,0.0,0.0
22.833,-2.516,-0.468,24.0
20.029,-2.204,-0.518,18.0
0.0,0.0,0.0,0.0
42.216,-4.636,-0.139,17.0
35.841,-3.929,-0.31,12.0
28.477,-3.116,-0.401,19.0
23.594,-2.577,-0.458,32.0
20.94,-2.283,-0.519,18.0
33.098,-3.609,0.103,2.0
44.369,-4.829,-0.098,19.0
37.125,-4.033,-0.281,15.0
29.698,-3.22,-0.387,28.0
23.68,-2.563,-0.435,38.0
21.129,-2.282,-0.501,17.0
33.122,-3.578,0.138,62.0
33.11,-3.569,-0.038,50.0
33.105,-3.562,-0.216,44.0
30.489,-3.274,-0.364,21.0
24.809,-2.659,-0.429,16.0
22.158,-2.37,-0.502,22.0
33.111,-3.541,0.172,80.0
33.1,-3.533,-0.004,83.0
33.096,-3.525,-0.181,77.0
32.105,-3.412,-0.351,32.0
0.0,0.0,0.0,0.0
22.628,-2.395,-0.49,19.0
33.11,-3.505,0.206,77.0
33.104,-3.496,0.029,79.0
33.088,-3.487,-0.147,82.0
33.066,-3.477,-0.328,65.0
28.408,-2.981,-0.434,8.0
23.162,-2.426,-0.478,10.0
33.144,-3.471,0.24,46.0
33.145,-3.463,0.062,65.0
33.116,-3.452,-0.114,68.0
33.106,-3.443,-0.295,66.0
29.566,-3.068,-0.422,23.0
23.546,-2.438,-0.462,18.0
87.487,-9.059,0.721,7.0
53.862,-5.563,0.155,2.0
45.305,-4.668,-0.111,20.0
37.712,-3.876,-0.299,14.0
0.0,0.0,0.0,0.0
23.569,-2.411,-0.44,20.0
98.314,-10.058,0.906,5.0
78.853,-8.047,0.304,2.0
46.589,-4.742,-0.07,21.0
38.592,-3.919,-0.269,14.0
30.74,-3.114,-0.379,18.0
23.563,-2.381,-0.417,1.0
111.322,-11.249,1.131,6.0
81.398,-8.204,0.39,4.0
48.072,-4.832,-0.027,22.0
39.13,-3.923,-0.236,14.0
35.069,-3.507,-0.4,10.0
23.598,-2.354,-0.396,0.0
111.536,-11.126,1.237,8.0
84.692,-8.425,0.484,4.0
48.904,-4.852,0.017,5.0
41.565,-4.113,-0.213,16.0
35.413,-3.494,-0.371,16.0
23.721,-2.335,-0.376,6.0
114.709,-11.29,1.375,7.0
85.176,-8.359,0.564,12.0
51.296,-5.02,0.063,7.0
43.725,-4.267,-0.185,19.0
36.05,-3.508,-0.346,12.0
30.116,-2.923,-0.451,2.0
119.024,-11.551,1.532,4.0
85.827,-8.304,0.643,8.0
55.375,-5.343,0.117,1.0
45.112,-4.34,-0.151,20.0
37.44,-3.592,-0.327,15.0
29.682,-2.839,-0.419,7.0
119.088,-11.391,1.634,13.0
89.079,-8.495,0.743,4.0
71.935,-6.839,0.212,2.0
46.893,-4.445,-0.119,21.0
38.407,-3.63,-0.304,14.0
29.854,-2.813,-0.397,4.0
119.152,-11.225,1.734,17.0
111.007,-10.424,1.017,10.0
67.134,-6.284,0.254,1.0
48.117,-4.49,-0.082,22.0
0.0,0.0,0.0,0.0
29.862,-2.77,-0.372,21.0
135.57,-12.572,2.082,151.0
111.398,-10.298,1.11,12.0
71.974,-6.631,0.329,3.0
50.491,-4.637,-0.046,24.0
41.322,-3.783,-0.26,16.0
29.831,-2.722,-0.349,1.0
135.605,-12.371,2.188,150.0
111.882,-10.172,1.201,9.0
84.959,-7.699,0.453,11.0
51.502,-4.651,-0.008,18.0
0.0,0.0,0.0,0.0
29.959,-2.688,-0.328,1.0
135.647,-12.166,2.291,48.0
113.293,-10.124,1.301,10.0
85.608,-7.624,0.52,13.0
0.0,0.0,0.0,0.0
44.499,-3.935,-0.214,18.0
29.871,-2.632,-0.305,0.0
135.686,-11.956,2.39,50.0
119.158,-10.461,1.454,12.0
86.524,-7.568,0.587,9.0
57.892,-5.046,0.074,2.0
0.0,0.0,0.0,0.0
35.673,-3.087,-0.34,2.0
119.255,-10.317,2.183,79.0
119.163,-10.27,1.536,16.0
86.882,-7.46,0.649,8.0
67.471,-5.772,0.132,8.0
47.71,-4.066,-0.164,21.0
35.703,-3.032,-0.316,1.0
126.481,-10.735,2.398,51.0
119.138,-10.07,1.614,17.0
89.449,-7.532,0.727,2.0
67.751,-5.683,0.177,6.0
49.775,-4.159,-0.139,23.0
35.668,-2.969,-0.293,0.0
126.487,-10.524,2.479,61.0
119.2,-9.879,1.69,14.0
108.394,-8.947,0.949,2.0
72.344,-5.947,0.233,3.0
50.404,-4.127,-0.11,24.0
40.647,-3.315,-0.309,6.0
126.515,-10.314,2.555,42.0
119.228,-9.68,1.761,17.0
114.376,-9.248,1.068,7.0
81.689,-6.577,0.311,11.0
51.302,-4.114,-0.082,12.0
40.612,-3.243,-0.285,28.0
126.526,-10.097,2.628,31.0
119.316,-9.482,1.83,21.0
67.874,-5.37,0.672,35.0
67.87,-5.347,0.296,62.0
55.235,-4.333,-0.058,3.0
40.658,-3.176,-0.263,9.0
67.889,-5.299,1.447,88.0
67.875,-5.275,1.077,89.0
67.879,-5.252,0.708,71.0
67.88,-5.229,0.332,41.0
58.623,-4.496,-0.031,5.0
40.648,-3.104,-0.243,8.0
72.453,-5.528,1.581,7.0
119.376,-9.065,1.955,146.0
119.201,-9.011,1.303,16.0
20.054,-1.509,0.107,0.0
64.571,-4.837,-0.003,0.0
45.154,-3.367,-0.248,2.0
72.49,-5.4,1.616,8.0
20.036,-1.485,0.337,2.0
20.022,-1.477,0.228,18.0
19.996,-1.468,0.116,16.0
52.087,-3.807,0.02,0.0
45.095,-3.28,-0.228,1.0
20.018,-1.454,0.455,9.0
20.011,-1.447,0.345,11.0
20.02,-1.44,0.236,34.0
20.012,-1.432,0.125,15.0
59.262,-4.222,0.048,0.0
48.597,-3.445,-0.225,1.0
20.015,-1.417,0.463,10.0
20.021,-1.41,0.354,10.0
20.034,-1.404,0.244,3.0
102.834,-7.173,0.684,17.0
20.106,-1.395,0.024,0.0
20.015,-1.382,-0.085,14.0
20.051,-1.382,0.471,8.0
20.049,-1.375,0.361,0.0
20.011,-1.365,0.251,0.0
19.994,-1.357,0.14,14.0
19.992,-1.35,0.03,17.0
19.988,-1.342,-0.078,24.0
20.031,-1.343,0.477,7.0
19.966,-1.332,0.366,13.0
19.96,-1.324,0.257,24.0
19.98,-1.318,0.146,23.0
19.99,-1.312,0.037,25.0
19.974,-1.304,-0.072,31.0
19.938,-1.299,0.481,17.0
19.931,-1.291,0.372,19.0
19.958,-1.286,0.263,28.0
19.942,-1.277,0.151,19.0
19.988,-1.273,0.042,26.0
20.0,-1.267,-0.066,24.0
19.937,-1.26,0.486,24.0
19.944,-1.254,0.377,23.0
19.944,-1.247,0.268,26.0
19.991,-1.242,0.157,23.0
20.001,-1.235,0.047,24.0
19.992,-1.228,-0.062,150.0
19.938,-1.222,0.491,24.0
19.931,-1.214,0.381,20.0
19.954,-1.208,0.272,26.0
19.986,-1.203,0.161,150.0
19.991,-1.196,0.051,150.0
20.001,-1.189,-0.058,143.0
19.947,-1.183,0.495,24.0
19.937,-1.175,0.385,22.0
19.961,-1.169,0.276,21.0
20.121,-1.171,0.165,5.0
20.086,-1.162,0.055,1.0
0.0,0.0,0.0,0.0
19.959,-1.144,0.498,26.0
19.959,-1.137,0.388,25.0
19.966,-1.13,0.279,25.0
20.001,-1.124,0.167,26.0
19.979,-1.116,0.057,18.0
20.013,-1.111,-0.052,10.0
19.965,-1.105,0.501,23.0
19.961,-1.097,0.391,20.0
19.959,-1.09,0.281,18.0
19.951,-1.082,0.169,19.0
19.975,-1.076,0.059,32.0
19.972,-1.069,-0.05,17.0
19.961,-1.065,0.502,19.0
19.969,-1.058,0.392,15.0
19.988,-1.052,0.282,19.0
19.982,-1.044,0.17,17.0
19.987,-1.037,0.06,21.0
19.968,-1.029,-0.049,25.0
20.001,-1.027,0.504,12.0
20.102,-1.025,0.396,18.0
20.145,-1.019,0.285,24.0
20.139,-1.011,0.172,17.0
20.013,-0.998,0.061,10.0
19.985,-0.989,-0.049,22.0
20.13,-0.993,0.507,24.0
20.137,-0.986,0.396,20.0
20.149,-0.979,0.285,11.0
138.212,-6.666,1.181,23.0
0.0,0.0,0.0,0.0
20.016,-0.95,-0.049,11.0
20.121,-0.952,0.506,16.0
20.145,-0.945,0.396,8.0
138.107,-6.432,1.952,8.0
138.216,-6.385,1.175,19.0
0.0,0.0,0.0,0.0
0.0,0.0,0.0,0.0
20.209,-0.914,0.507,0.0
0.0,0.0,0.0,0.0
138.059,-6.145,1.939,40.0
137.978,-6.091,1.161,23.0
0.0,0.0,0.0,0.0
0.0,0.0,0.0,0.0
193.259,-8.354,4.834,23.0
192.918,-8.268,3.756,23.0
138.122,-5.867,1.923,34.0
138.333,-5.826,1.146,20.0
0.0,0.0,0.0,0.0
0.0,0.0,0.0,0.0
192.834,-7.943,4.795,29.0
193.595,-7.9,3.739,16.0
138.37,-5.594,1.905,3.0
138.418,-5.543,1.123,26.0
0.0,0.0,0.0,0.0
0.0,0.0,0.0,0.0
192.572,-7.53,4.752,26.0
193.715,-7.503,3.704,17.0
0.0,0.0,0.0,0.0
138.494,-5.26,1.096,24.0
0.0,0.0,0.0,0.0
0.0,0.0,0.0,0.0
193.15,-7.152,4.723,24.0
193.658,-7.097,3.658,11.0
0.0,0.0,0.0,0.0
138.564,-4.975,1.062,21.0
0.0,0.0,0.0,0.0
0.0,0.0,0.0,0.0
193.541,-6.763,4.68,22.0
187.479,-6.484,3.491,50.0
0.0,0.0,0.0,0.0
138.606,-4.689,1.024,19.0
0.0,0.0,0.0,0.0
0.0,0.0,0.0,0.0
193.959,-6.375,4.632,23.0
193.428,-6.286,3.541,21.0
0.0,0.0,0.0,0.0
138.625,-4.404,0.98,11.0
0.0,0.0,0.0,0.0
0.0,0.0,0.0,0.0
194.419,-5.99,4.577,22.0
260.183,-7.922,4.674,12.0
0.0,0.0,0.0,0.0
138.427,-4.114,0.929,21.0
0.0,0.0,0.0,0.0
55.095,-1.597,-0.244,0.0
195.002,-5.605,4.517,4.0
194.326,-5.513,3.416,6.0
0.0,0.0,0.0,0.0
138.727,-3.834,0.876,12.0
0.0,0.0,0.0,0.0
54.865,-1.477,-0.265,1.0
0.0,0.0,0.0,0.0
193.401,-5.089,3.319,13.0
0.0,0.0,0.0,0.0
138.802,-3.55,0.816,10.0
0.0,0.0,0.0,0.0
0.0,0.0,0.0,0.0
118.051,-2.903,2.631,4.0
193.018,-4.679,3.224,9.0
138.964,-3.317,1.543,3.0
138.933,-3.267,0.752,4.0
0.0,0.0,0.0,0.0
54.525,-1.243,-0.314,0.0
193.912,-4.369,4.227,4.0
193.278,-4.284,3.13,7.0
138.996,-3.03,1.473,9.0
138.905,-2.98,0.681,5.0
0.0,0.0,0.0,0.0
0.0,0.0,0.0,0.0
193.645,-3.965,4.118,22.0
138.942,-2.794,2.176,3.0
138.981,-2.747,1.399,14.0
0.0,0.0,0.0,0.0
0.0,0.0,0.0,0.0
50.491,-0.944,-0.345,0.0
193.712,-3.567,4.01,20.0
139.073,-2.512,2.099,10.0
139.076,-2.461,1.318,17.0
113.376,-1.966,0.427,5.0
0.0,0.0,0.0,0.0
50.025,-0.833,-0.372,1.0
0.0,0.0,0.0,0.0
139.046,-2.227,2.014,10.0
138.844,-2.174,1.231,19.0
0.0,0.0,0.0,0.0
0.0,0.0,0.0,0.0
46.905,-0.686,-0.378,0.0
0.0,0.0,0.0,0.0
139.024,-1.944,1.923,4.0
139.145,-1.898,1.143,25.0
0.0,0.0,0.0,0.0
0.0,0.0,0.0,0.0
47.187,-0.594,-0.412,1.0
204.266,-2.511,3.835,5.0
0.0,0.0,0.0,0.0
139.225,-1.616,1.048,14.0
0.0,0.0,0.0,0.0
0.0,0.0,0.0,0.0
45.476,-0.48,-0.429,0.0
119.728,-1.228,2.161,150.0
119.747,-1.188,1.488,127.0
119.715,-1.146,0.813,9.0
79.003,-0.729,0.084,0.0
0.0,0.0,0.0,0.0
0.0,0.0,0.0,0.0
119.743,-0.988,2.072,37.0
119.702,-0.947,1.397,17.0
113.875,-0.862,0.687,3.0
0.0,0.0,0.0,0.0
0.0,0.0,0.0,0.0
0.0,0.0,0.0,0.0
115.14,-0.718,1.901,1.0
119.678,-0.705,1.301,17.0
110.937,-0.618,0.581,3.0
0.0,0.0,0.0,0.0
51.101,-0.25,-0.313,0.0
0.0,0.0,0.0,0.0
114.129,-0.485,1.79,8.0
119.75,-0.469,1.203,16.0
102.437,-0.368,0.451,2.0
73.842,-0.24,-0.098,0.0
0.0,0.0,0.0,0.0
39.968,-0.103,-0.504,0.0
112.96,-0.258,1.676,11.0
117.467,-0.229,1.079,14.0
98.796,-0.16,0.349,1.0
0.0,0.0,0.0,0.0
45.754,-0.044,-0.359,0.0
37.58,-0.024,-0.507,0.0
111.052,-0.035,1.547,12.0
111.032,0.0,0.92,7.0
95.464,0.031,0.251,2.0
0.0,0.0,0.0,0.0
45.547,0.043,-0.399,2.0
0.0,0.0,0.0,0.0
111.117,0.179,1.446,21.0
110.765,0.212,0.816,9.0
0.0,0.0,0.0,0.0
0.0,0.0,0.0,0.0
44.487,0.128,-0.431,0.0
35.416,0.113,-0.544,0.0
111.196,0.394,1.34,14.0
104.273,0.402,0.667,8.0
0.0,0.0,0.0,0.0
0.0,0.0,0.0,0.0
42.843,0.206,-0.458,1.0
34.301,0.175,-0.56,0.0
111.101,0.605,1.229,5.0
97.57,0.562,0.526,6.0
0.0,0.0,0.0,0.0
0.0,0.0,0.0,0.0
42.695,0.286,-0.499,0.0
32.529,0.228,-0.565,0.0
104.806,0.768,1.052,29.0
91.147,0.698,0.397,5.0
0.0,0.0,0.0,0.0
48.727,0.403,-0.344,0.0
39.547,0.339,-0.504,0.0
31.834,0.282,-0.586,0.0
98.552,0.909,0.884,16.0
85.396,0.812,0.282,3.0
0.0,0.0,0.0,0.0
46.61,0.472,-0.379,1.0
0.0,0.0,0.0,0.0
30.595,0.328,-0.596,0.0
98.35,1.087,0.776,14.0
81.241,0.923,0.179,2.0
0.0,0.0,0.0,0.0
43.921,0.525,-0.406,1.0
35.131,0.431,-0.524,0.0
29.733,0.373,-0.612,0.0
98.314,1.267,0.665,11.0
77.124,1.017,0.083,1.0
53.543,0.722,-0.246,0.0
43.937,0.605,-0.455,1.0
33.693,0.474,-0.541,0.0
28.984,0.416,-0.63,0.0
85.23,1.253,0.478,10.0
75.237,1.127,-0.005,1.0
0.0,0.0,0.0,0.0
41.599,0.648,-0.48,0.0
33.334,0.528,-0.574,0.0
28.044,0.453,-0.642,0.0
78.362,1.292,0.347,11.0
0.0,0.0,0.0,0.0
0.0,0.0,0.0,0.0
0.0,0.0,0.0,0.0
32.042,0.565,-0.59,0.0
26.946,0.482,-0.65,0.0
77.747,1.417,0.251,4.0
0.0,0.0,0.0,0.0
45.815,0.861,-0.373,0.0
36.22,0.691,-0.505,0.0
0.0,0.0,0.0,0.0
26.269,0.515,-0.665,0.0
72.02,1.438,0.143,7.0
0.0,0.0,0.0,0.0
0.0,0.0,0.0,0.0
35.643,0.741,-0.541,0.0
29.414,0.619,-0.614,0.0
25.441,0.543,-0.676,0.0
69.086,1.497,0.05,2.0
0.0,0.0,0.0,0.0
0.0,0.0,0.0,0.0
33.823,0.76,-0.556,0.0
28.164,0.64,-0.624,0.0
24.572,0.565,-0.685,0.0
67.299,1.571,-0.037,7.0
0.0,0.0,0.0,0.0
0.0,0.0,0.0,0.0
0.0,0.0,0.0,0.0
27.125,0.662,-0.637,0.0
23.806,0.587,-0.694,0.0
65.858,1.645,-0.122,6.0
0.0,0.0,0.0,0.0
37.86,0.965,-0.502,0.0
30.906,0.796,-0.59,0.0
26.478,0.689,-0.656,0.0
22.833,0.6,-0.696,0.0
64.669,1.72,-0.206,0.0
0.0,0.0,0.0,0.0
35.228,0.955,-0.515,0.0
28.666,0.785,-0.586,0.0
25.393,0.701,-0.664,0.0
22.351,0.623,-0.712,0.0
57.153,1.612,-0.261,1.0
0.0,0.0,0.0,0.0
33.483,0.961,-0.535,0.0
28.54,0.826,-0.623,1.0
24.68,0.721,-0.68,0.0
21.698,0.639,-0.721,0.0
49.162,1.463,-0.293,0.0
39.621,1.189,-0.463,0.0
0.0,0.0,0.0,0.0
28.177,0.86,-0.654,1.0
23.803,0.732,-0.689,0.0
20.87,0.647,-0.724,0.0
0.0,0.0,0.0,0.0
0.0,0.0,0.0,0.0
31.431,0.999,-0.591,0.0
26.383,0.844,-0.65,0.0
22.968,0.741,-0.697,0.0
20.311,0.66,-0.733,0.0
45.423,1.49,-0.4,0.0
34.981,1.156,-0.509,0.0
0.0,0.0,0.0,0.0
25.399,0.851,-0.663,0.0
22.37,0.755,-0.712,0.0
19.727,0.67,-0.741,0.0
0.0,0.0,0.0,0.0
34.024,1.174,-0.544,0.0
28.516,0.991,-0.62,0.0
24.399,0.853,-0.672,0.0
21.542,0.758,-0.717,0.0
19.372,0.686,-0.756,0.0
0.0,0.0,0.0,0.0
32.442,1.166,-0.567,0.0
27.3,0.987,-0.634,0.0
23.72,0.863,-0.689,0.0
20.943,0.767,-0.728,0.0
18.729,0.69,-0.759,1.0
37.384,1.387,-0.495,0.0
0.0,0.0,0.0,0.0
26.331,0.989,-0.65,0.0
22.918,0.865,-0.7,0.0
20.241,0.769,-0.734,0.0
18.275,0.698,-0.768,0.0
35.289,1.357,-0.52,0.0
29.778,1.152,-0.61,0.0
25.439,0.989,-0.667,0.0
22.15,0.866,-0.71,0.0
