X,Y,Z,Reflectivity
62.497,4.222,6.925,15.0
46.499,3.143,4.882,12.0
42.064,2.845,4.169,17.0
42.081,2.848,3.928,35.0
41.65,2.82,3.648,30.0
41.565,2.83,4.8,42.0
42.121,2.869,4.62,15.0
46.509,3.17,4.831,4.0
42.095,2.87,4.125,17.0
42.243,2.882,3.896,26.0
41.574,2.838,3.594,42.0
41.62,2.856,4.759,42.0
42.136,2.892,4.573,16.0
41.942,2.88,4.308,35.0
41.922,2.88,4.059,34.0
41.651,2.862,3.792,36.0
41.687,2.867,3.556,36.0
41.745,2.885,4.724,31.0
53.072,3.669,5.697,9.0
41.951,2.901,4.26,37.0
41.934,2.901,4.011,30.0
41.425,2.867,3.723,38.0
41.614,2.881,3.5,40.0
41.936,2.917,4.695,37.0
53.069,3.692,5.633,7.0
41.891,2.916,4.203,16.0
41.875,2.915,3.954,17.0
41.352,2.88,3.666,38.0
41.705,2.905,3.457,28.0
41.95,2.937,4.644,25.0
53.035,3.713,5.563,7.0
41.498,2.905,4.112,12.0
41.638,2.916,3.88,16.0
41.426,2.902,3.621,34.0
41.729,2.924,3.407,24.0
53.06,3.735,5.807,11.0
41.885,2.948,4.34,7.0
41.351,2.911,4.045,28.0
41.487,2.921,3.813,30.0
41.584,2.928,3.581,25.0
41.625,2.931,3.345,32.0
53.073,3.754,5.739,12.0
41.885,2.963,4.285,25.0
41.369,2.926,3.993,42.0
41.469,2.933,3.758,21.0
41.634,2.945,3.531,28.0
41.635,2.946,3.291,28.0
50.177,3.565,5.36,14.0
41.964,2.981,4.238,20.0
41.576,2.953,3.957,16.0
41.405,2.941,3.697,37.0
41.545,2.951,3.469,32.0
41.566,2.953,3.231,38.0
53.059,3.784,5.596,7.0
46.325,3.303,4.617,5.0
41.359,2.949,3.881,37.0
41.426,2.953,3.643,31.0
41.476,2.956,3.408,38.0
41.58,2.964,3.176,26.0
53.032,3.795,5.52,6.0
41.437,2.964,4.072,24.0
41.47,2.966,3.835,25.0
41.375,2.958,3.582,38.0
41.549,2.971,3.356,37.0
41.648,2.977,3.124,35.0
41.851,3.003,4.299,13.0
41.38,2.968,4.01,29.0
41.491,2.975,3.779,16.0
41.463,2.972,3.532,32.0
41.579,2.98,3.301,32.0
41.706,2.988,3.071,29.0
41.889,3.012,4.243,20.0
41.338,2.971,3.947,14.0
41.251,2.964,3.699,33.0
41.426,2.975,3.471,36.0
41.571,2.985,3.243,39.0
41.675,2.991,3.01,39.0
46.262,3.332,4.621,4.0
41.281,2.971,3.883,32.0
41.302,2.972,3.645,38.0
41.448,2.981,3.413,44.0
41.587,2.99,3.184,43.0
45.999,3.306,3.256,3.0
41.74,3.009,4.108,17.0
41.291,2.975,3.823,33.0
41.363,2.979,3.589,31.0
41.525,2.989,3.358,39.0
41.661,2.997,3.128,33.0
46.004,3.308,3.188,4.0
41.503,2.994,4.023,18.0
41.352,2.981,3.768,26.0
41.438,2.985,3.535,26.0
41.569,2.993,3.301,35.0
41.735,3.003,3.073,23.0
41.716,3.0,2.83,34.0
41.3,2.979,3.942,17.0
41.252,2.973,3.697,36.0
41.439,2.984,3.474,36.0
41.565,2.991,3.239,35.0
41.692,2.999,3.008,37.0
41.865,3.009,2.779,25.0
41.271,2.974,3.878,34.0
41.322,2.975,3.642,36.0
41.452,2.982,3.413,42.0
41.593,2.991,3.179,42.0
46.009,3.306,3.251,4.0
41.863,3.006,2.716,25.0
41.351,2.976,3.823,32.0
41.368,2.975,3.584,35.0
41.554,2.986,3.359,39.0
41.697,2.993,3.124,27.0
41.629,2.986,2.878,29.0
41.635,2.984,2.638,21.0
41.397,2.974,3.764,20.0
41.485,2.978,3.531,31.0
41.56,2.98,3.296,32.0
41.665,2.985,3.059,35.0
41.663,2.982,2.818,33.0
41.568,2.973,2.57,37.0
41.291,2.959,3.69,36.0
41.432,2.966,3.462,40.0
41.55,2.972,3.231,36.0
41.673,2.977,2.995,31.0
41.716,2.978,2.757,30.0
41.618,2.968,2.51,34.0
41.398,2.958,3.636,34.0
41.511,2.963,3.405,39.0
41.605,2.966,3.171,17.0
45.993,3.275,3.234,5.0
41.672,2.965,2.689,16.0
41.645,2.96,2.447,34.0
41.412,2.948,3.572,42.0
41.624,2.959,3.349,28.0
41.705,2.962,3.113,18.0
41.528,2.946,2.855,42.0
41.529,2.943,2.615,39.0
41.656,2.948,2.383,7.0
41.633,2.951,3.526,28.0
41.618,2.946,3.283,33.0
41.727,2.95,3.05,30.0
41.593,2.937,2.795,29.0
41.598,2.934,2.555,40.0
52.488,3.698,2.92,10.0
41.775,2.947,3.472,31.0
41.68,2.936,3.222,28.0
52.521,3.695,3.756,8.0
41.511,2.917,2.724,21.0
41.636,2.922,2.491,36.0
52.388,3.672,2.833,16.0
41.705,2.926,3.4,27.0
41.908,2.936,3.174,25.0
41.537,2.905,2.905,27.0
41.602,2.906,2.665,31.0
52.402,3.656,3.054,6.0
52.354,3.648,2.749,21.0
41.926,2.923,3.352,17.0
41.699,2.903,3.092,38.0
41.456,2.882,2.834,43.0
41.675,2.893,2.603,31.0
52.322,3.627,2.966,19.0
52.313,3.621,2.664,19.0
41.724,2.89,3.269,32.0
42.279,2.923,3.067,17.0
41.573,2.87,2.775,38.0
41.546,2.863,2.528,40.0
52.304,3.6,2.881,25.0
52.269,3.592,2.578,19.0
45.986,3.161,3.529,4.0
41.966,2.88,2.977,18.0
41.754,2.86,2.72,38.0
41.619,2.846,2.467,29.0
52.266,3.569,2.797,24.0
52.244,3.562,2.494,29.0
45.995,3.136,3.456,7.0
41.48,2.823,2.876,32.0
41.677,2.831,2.648,17.0
52.283,3.546,3.015,26.0
52.258,3.538,2.711,25.0
52.227,3.53,2.409,42.0
51.202,3.46,3.764,9.0
41.547,2.802,2.813,35.0
41.601,2.8,2.576,38.0
52.264,3.512,2.929,32.0
52.245,3.505,2.627,27.0
52.226,3.497,2.325,43.0
42.044,2.814,3.023,17.0
41.496,2.772,2.744,22.0
52.259,3.484,3.153,13.0
52.243,3.476,2.845,29.0
52.239,3.47,2.543,46.0
52.235,3.463,2.242,46.0
41.832,2.771,2.94,28.0
41.666,2.755,2.687,20.0
52.259,3.448,3.069,8.0
52.243,3.439,2.761,40.0
52.242,3.433,2.459,37.0
52.284,3.429,2.16,40.0
41.583,2.724,2.855,39.0
41.538,2.715,2.612,29.0
41.494,2.706,2.369,38.0
52.248,3.401,2.676,36.0
52.286,3.396,2.377,30.0
52.36,3.394,2.079,21.0
41.463,2.685,2.781,33.0
41.507,2.681,2.544,38.0
52.248,3.367,2.9,25.0
52.288,3.363,2.595,34.0
52.381,3.361,2.298,21.0
49.381,3.162,1.882,13.0
41.441,2.65,2.713,40.0
41.535,2.649,2.479,36.0
52.278,3.327,2.818,35.0
52.383,3.326,2.517,25.0
111.005,7.032,4.695,14.0
48.944,3.093,1.788,22.0
41.432,2.614,2.646,39.0
41.454,2.609,2.408,36.0
52.338,3.285,2.738,26.0
94.447,5.915,4.388,3.0
111.055,6.938,4.521,19.0
48.422,3.017,1.692,18.0
52.368,3.257,3.261,11.0
41.564,2.578,2.348,38.0
53.183,3.29,2.698,12.0
111.007,6.85,4.981,20.0
50.682,3.12,1.982,3.0
48.216,2.96,1.608,11.0
41.732,2.556,2.532,28.0
79.635,4.865,4.372,7.0
53.014,3.23,2.605,8.0
115.429,7.013,4.996,25.0
49.88,3.022,1.871,9.0
47.862,2.892,1.52,10.0
41.629,2.509,2.46,39.0
52.943,3.182,2.823,3.0
52.262,3.132,2.485,3.0
115.442,6.898,4.813,35.0
49.447,2.947,1.777,22.0
47.651,2.831,1.438,17.0
52.722,3.124,3.032,6.0
52.325,3.091,2.707,26.0
52.585,3.096,2.417,7.0
115.479,6.781,4.633,20.0
49.126,2.876,1.688,22.0
47.654,2.781,1.364,38.0
52.68,3.065,2.946,7.0
52.204,3.028,2.619,30.0
52.429,3.032,2.328,8.0
50.819,2.929,1.96,5.0
48.77,2.803,1.6,21.0
47.701,2.733,1.291,42.0
52.625,3.005,2.862,12.0
52.663,2.997,2.56,3.0
119.657,6.788,5.13,26.0
50.742,2.869,1.878,20.0
48.317,2.723,1.511,13.0
47.762,2.683,1.22,46.0
52.716,2.951,2.786,15.0
52.885,2.949,2.49,27.0
119.683,6.653,4.949,28.0
50.394,2.791,1.789,24.0
48.146,2.657,1.432,11.0
47.811,2.63,1.147,45.0
52.876,2.898,2.713,27.0
52.521,2.868,2.393,26.0
59.48,3.236,2.369,26.0
49.642,2.691,1.687,15.0
48.016,2.594,1.356,14.0
47.866,2.576,1.077,44.0
53.158,2.849,2.648,27.0
59.407,3.172,2.617,14.0
59.416,3.16,2.276,33.0
49.289,2.612,1.6,21.0
48.026,2.535,1.284,21.0
47.928,2.521,1.007,42.0
52.646,2.756,2.544,27.0
59.395,3.097,2.528,20.0
59.42,3.086,2.188,23.0
49.11,2.54,1.522,20.0
48.088,2.478,1.214,33.0
47.984,2.462,0.937,47.0
59.366,3.032,2.78,14.0
59.466,3.024,2.443,11.0
50.543,2.559,1.786,23.0
48.952,2.469,1.444,18.0
48.126,2.417,1.144,35.0
48.078,2.404,0.868,32.0
52.933,2.633,2.4,19.0
59.53,2.949,2.358,20.0
50.438,2.487,1.709,32.0
48.802,2.396,1.369,19.0
48.219,2.357,1.076,29.0
48.148,2.343,0.799,31.0
59.53,2.881,2.613,7.0
0.0,0.0,0.0,0.0
50.293,2.411,1.631,23.0
48.582,2.318,1.292,22.0
48.299,2.294,1.008,27.0
48.248,2.281,0.731,1.0
52.538,2.468,2.23,26.0
0.0,0.0,0.0,0.0
50.06,2.329,1.551,23.0
48.537,2.247,1.222,20.0
48.378,2.229,0.941,28.0
66.105,3.031,0.908,19.0
52.748,2.403,2.165,10.0
50.628,2.295,1.788,6.0
49.58,2.236,1.467,8.0
48.584,2.179,1.155,22.0
66.081,2.949,1.193,15.0
66.057,2.933,0.815,25.0
66.03,2.913,2.619,12.0
50.578,2.219,1.716,20.0
49.282,2.15,1.39,8.0
48.651,2.111,1.089,24.0
66.074,2.851,1.101,29.0
66.057,2.834,0.724,26.0
66.019,2.813,2.526,31.0
50.522,2.14,1.644,37.0
49.229,2.073,1.321,13.0
48.753,2.042,1.025,19.0
66.104,2.752,1.012,34.0
66.111,2.737,0.635,28.0
66.066,2.715,2.44,24.0
50.483,2.062,1.575,40.0
49.225,1.998,1.255,14.0
61.353,2.474,1.207,10.0
64.359,2.581,0.899,9.0
63.994,2.55,0.529,11.0
190.74,7.54,6.789,21.0
50.443,1.981,1.507,40.0
49.296,1.923,1.191,15.0
120.075,4.654,2.204,19.0
61.761,2.378,0.781,14.0
72.24,2.763,0.502,9.0
190.727,7.235,6.537,10.0
50.404,1.898,1.439,41.0
120.033,4.489,2.743,10.0
72.47,2.692,1.236,19.0
72.426,2.671,0.822,16.0
72.006,2.638,0.407,14.0
72.429,2.629,2.389,26.0
50.391,1.815,1.374,39.0
72.384,2.59,1.562,29.0
72.343,2.569,1.142,32.0
72.342,2.551,0.73,28.0
71.662,2.509,0.315,15.0
72.379,2.509,2.297,28.0
72.382,2.49,1.885,35.0
72.372,2.471,1.473,35.0
72.364,2.45,1.052,39.0
72.36,2.43,0.64,30.0
71.452,2.382,0.226,8.0
72.48,2.391,2.211,27.0
72.473,2.37,1.797,30.0
72.464,2.35,1.385,30.0
72.45,2.33,0.965,30.0
72.385,2.309,0.552,28.0
71.129,2.249,0.138,4.0
0.0,0.0,0.0,0.0
194.51,6.031,4.592,9.0
78.991,2.427,1.415,10.0
78.932,2.403,0.957,21.0
78.692,2.374,0.507,7.0
64.99,1.943,0.049,7.0
78.855,2.329,2.217,5.0
78.861,2.308,1.769,29.0
78.859,2.286,1.321,28.0
78.873,2.264,0.865,25.0
72.086,2.05,0.381,7.0
64.217,1.808,-0.024,5.0
77.302,2.148,2.085,5.0
74.781,2.056,1.591,6.0
78.872,2.147,1.231,16.0
78.867,2.124,0.775,30.0
71.815,1.913,0.298,12.0
65.327,1.722,-0.099,6.0
78.964,2.054,2.041,16.0
79.04,2.032,1.594,7.0
119.976,3.052,1.739,11.0
79.045,1.987,0.689,8.0
71.809,1.784,0.218,14.0
66.152,1.624,-0.173,0.0
85.259,2.063,2.11,29.0
85.253,2.037,1.626,31.0
85.238,2.011,1.142,36.0
85.154,1.984,0.65,18.0
71.836,1.654,0.141,8.0
0.0,0.0,0.0,0.0
85.245,1.906,2.019,33.0
85.269,1.882,1.536,40.0
85.264,1.856,1.053,38.0
85.007,1.825,0.56,13.0
70.239,1.486,0.064,5.0
0.0,0.0,0.0,0.0
91.965,1.886,2.083,4.0
99.48,2.01,1.69,6.0
119.794,2.385,1.357,10.0
84.882,1.663,0.472,9.0
71.22,1.373,-0.006,3.0
0.0,0.0,0.0,0.0
87.455,1.628,1.893,6.0
87.38,1.6,1.397,41.0
91.86,1.653,0.948,29.0
84.523,1.495,0.386,6.0
71.93,1.251,-0.077,0.0
0.0,0.0,0.0,0.0
91.917,1.536,1.9,35.0
91.904,1.508,1.38,36.0
91.896,1.479,0.861,27.0
81.056,1.279,0.293,7.0
0.0,0.0,0.0,0.0
46.983,0.713,-0.36,0.0
98.826,1.463,1.95,22.0
98.602,1.428,1.389,26.0
98.532,1.397,0.832,16.0
81.039,1.123,0.218,1.0
0.0,0.0,0.0,0.0
43.913,0.58,-0.377,0.0
98.548,1.268,1.855,30.0
98.541,1.236,1.299,27.0
98.186,1.2,0.74,9.0
79.533,0.946,0.143,3.0
0.0,0.0,0.0,0.0
0.0,0.0,0.0,0.0
98.626,1.076,1.771,25.0
98.623,1.044,1.215,30.0
98.206,1.008,0.656,11.0
0.0,0.0,0.0,0.0
54.524,0.523,-0.256,0.0
42.824,0.397,-0.442,0.0
100.033,0.892,1.711,4.0
100.129,0.861,1.149,4.0
97.966,0.811,0.573,8.0
0.0,0.0,0.0,0.0
0.0,0.0,0.0,0.0
42.923,0.312,-0.478,0.0
111.085,0.77,1.811,8.0
110.984,0.733,1.185,4.0
0.0,0.0,0.0,0.0
0.0,0.0,0.0,0.0
0.0,0.0,0.0,0.0
0.0,0.0,0.0,0.0
111.114,0.548,1.726,28.0
111.048,0.511,1.101,18.0
94.638,0.403,0.406,3.0
0.0,0.0,0.0,0.0
49.928,0.179,-0.351,0.0
0.0,0.0,0.0,0.0
111.208,0.324,1.646,11.0
111.076,0.286,1.02,14.0
93.131,0.209,0.332,4.0
0.0,0.0,0.0,0.0
45.675,0.071,-0.354,1.0
0.0,0.0,0.0,0.0
111.145,0.096,1.566,15.0
111.095,0.059,0.942,7.0
0.0,0.0,0.0,0.0
0.0,0.0,0.0,0.0
45.012,-0.022,-0.38,1.0
0.0,0.0,0.0,0.0
114.353,-0.134,1.535,2.0
111.026,-0.169,0.868,14.0
0.0,0.0,0.0,0.0
0.0,0.0,0.0,0.0
45.015,-0.115,-0.409,1.0
0.0,0.0,0.0,0.0
119.666,-0.386,1.531,5.0
111.092,-0.398,0.799,7.0
0.0,0.0,0.0,0.0
0.0,0.0,0.0,0.0
42.616,-0.196,-0.413,0.0
34.589,-0.171,-0.529,0.0
119.719,-0.631,1.462,19.0
110.989,-0.624,0.734,5.0
0.0,0.0,0.0,0.0
0.0,0.0,0.0,0.0
41.284,-0.275,-0.424,0.0
35.087,-0.246,-0.556,0.0
119.721,-0.879,1.395,15.0
114.182,-0.878,0.693,8.0
0.0,0.0,0.0,0.0
0.0,0.0,0.0,0.0
0.0,0.0,0.0,0.0
34.836,-0.317,-0.571,0.0
119.752,-1.13,1.333,150.0
119.737,-1.171,0.664,24.0
0.0,0.0,0.0,0.0
0.0,0.0,0.0,0.0
40.314,-0.437,-0.455,0.0
0.0,0.0,0.0,0.0
139.272,-1.603,1.484,15.0
0.0,0.0,0.0,0.0
0.0,0.0,0.0,0.0
0.0,0.0,0.0,0.0
40.828,-0.528,-0.48,0.0
32.484,-0.431,-0.563,0.0
139.001,-1.889,1.419,13.0
0.0,0.0,0.0,0.0
0.0,0.0,0.0,0.0
49.821,-0.73,-0.329,0.0
0.0,0.0,0.0,0.0
0.0,0.0,0.0,0.0
139.118,-2.181,1.364,11.0
113.513,-1.821,0.48,6.0
0.0,0.0,0.0,0.0
47.275,-0.793,-0.33,0.0
37.678,-0.646,-0.473,0.0
31.692,-0.554,-0.574,0.0
139.039,-2.475,1.311,24.0
0.0,0.0,0.0,0.0
0.0,0.0,0.0,0.0
46.224,-0.872,-0.339,0.0
37.543,-0.722,-0.484,0.0
31.37,-0.615,-0.579,0.0
138.985,-2.767,1.264,25.0
0.0,0.0,0.0,0.0
0.0,0.0,0.0,0.0
0.0,0.0,0.0,0.0
37.514,-0.801,-0.496,0.0
31.085,-0.675,-0.583,0.0
138.907,-3.057,1.223,21.0
0.0,0.0,0.0,0.0
0.0,0.0,0.0,0.0
0.0,0.0,0.0,0.0
37.659,-0.884,-0.508,0.0
30.442,-0.726,-0.579,0.0
138.854,-3.352,1.186,19.0
0.0,0.0,0.0,0.0
0.0,0.0,0.0,0.0
0.0,0.0,0.0,0.0
38.122,-0.976,-0.523,0.0
21.894,-0.569,-0.422,1.0
138.829,-3.644,1.156,19.0
0.0,0.0,0.0,0.0
0.0,0.0,0.0,0.0
44.604,-1.219,-0.374,1.0
37.842,-1.048,-0.527,0.0
21.922,-0.615,-0.426,1.0
138.457,-3.924,1.128,23.0
0.0,0.0,0.0,0.0
0.0,0.0,0.0,0.0
44.398,-1.307,-0.379,1.0
0.0,0.0,0.0,0.0
30.076,-0.908,-0.59,0.0
138.679,-4.222,1.109,14.0
0.0,0.0,0.0,0.0
0.0,0.0,0.0,0.0
47.471,-1.497,-0.411,0.0
0.0,0.0,0.0,0.0
138.626,-4.51,1.095,18.0
0.0,0.0,0.0,0.0
0.0,0.0,0.0,0.0
44.345,-1.491,-0.388,0.0
0.0,0.0,0.0,0.0
30.408,-1.045,-0.602,0.0
138.555,-4.795,1.085,14.0
0.0,0.0,0.0,0.0
57.309,-2.025,-0.183,0.0
45.827,-1.637,-0.404,0.0
0.0,0.0,0.0,0.0
30.311,-1.105,-0.601,0.0
138.506,-5.082,1.08,20.0
94.152,-3.49,0.215,1.0
0.0,0.0,0.0,0.0
0.0,0.0,0.0,0.0
0.0,0.0,0.0,0.0
30.425,-1.173,-0.603,0.0
138.455,-5.367,1.081,13.0
0.0,0.0,0.0,0.0
0.0,0.0,0.0,0.0
0.0,0.0,0.0,0.0
0.0,0.0,0.0,0.0
0.0,0.0,0.0,0.0
138.402,-5.649,1.087,16.0
0.0,0.0,0.0,0.0
0.0,0.0,0.0,0.0
47.193,-1.978,-0.412,0.0
38.258,-1.618,-0.544,0.0
0.0,0.0,0.0,0.0
138.015,-5.917,1.096,28.0
0.0,0.0,0.0,0.0
0.0,0.0,0.0,0.0
44.882,-1.974,-0.387,0.0
19.891,-0.882,-0.281,0.0
30.293,-1.355,-0.594,0.0
138.293,-6.211,1.114,15.0
0.0,0.0,0.0,0.0
20.03,-0.914,-0.058,0.0
19.998,-0.92,-0.169,17.0
20.024,-0.929,-0.28,21.0
20.042,-0.937,-0.39,20.0
138.199,-6.487,1.135,18.0
0.0,0.0,0.0,0.0
20.008,-0.954,-0.054,21.0
19.997,-0.96,-0.166,28.0
20.009,-0.969,-0.276,26.0
20.021,-0.977,-0.386,29.0
20.168,-0.987,0.169,2.0
20.005,-0.987,0.058,15.0
19.97,-0.992,-0.05,26.0
19.981,-1.001,-0.162,29.0
20.025,-1.01,-0.272,24.0
20.025,-1.018,-0.381,28.0
20.027,-1.021,0.173,18.0
19.984,-1.026,0.063,26.0
19.978,-1.033,-0.045,25.0
20.013,-1.043,-0.157,26.0
20.039,-1.051,-0.267,0.0
20.068,-1.06,-0.377,0.0
19.977,-1.059,0.178,23.0
19.985,-1.066,0.068,29.0
19.996,-1.074,-0.04,18.0
20.041,-1.084,-0.151,0.0
0.0,0.0,0.0,0.0
0.0,0.0,0.0,0.0
20.01,-1.1,0.184,27.0
19.991,-1.106,0.075,18.0
20.023,-1.115,-0.033,3.0
50.185,-2.814,-0.364,1.0
38.691,-2.183,-0.492,1.0
19.955,-1.133,-0.362,0.0
20.033,-1.14,0.191,10.0
20.107,-1.152,0.082,2.0
19.992,-1.153,-0.027,1.0
20.013,-1.161,-0.138,151.0
20.013,-1.168,-0.247,150.0
19.996,-1.175,-0.356,150.0
20.006,-1.178,0.198,69.0
19.991,-1.184,0.089,151.0
19.992,-1.192,-0.019,151.0
19.973,-1.198,-0.13,150.0
19.985,-1.205,-0.238,150.0
19.974,-1.212,-0.347,20.0
19.981,-1.215,0.206,151.0
20.002,-1.223,0.097,27.0
20.003,-1.23,-0.01,15.0
20.016,-1.238,-0.121,25.0
20.034,-1.246,-0.23,25.0
20.064,-1.255,-0.34,25.0
19.982,-1.253,0.215,28.0
19.987,-1.26,0.106,26.0
19.985,-1.267,-0.001,18.0
19.999,-1.275,-0.112,31.0
20.015,-1.283,-0.221,30.0
20.041,-1.292,-0.33,28.0
19.962,-1.289,0.224,29.0
19.98,-1.297,0.116,19.0
19.992,-1.305,0.007,15.0
19.995,-1.312,-0.102,29.0
20.016,-1.321,-0.211,28.0
20.047,-1.33,-0.32,29.0
19.96,-1.327,0.234,18.0
19.998,-1.336,0.126,18.0
19.999,-1.343,0.018,12.0
19.978,-1.349,-0.091,19.0
20.017,-1.359,-0.2,17.0
20.067,-1.369,-0.309,4.0
119.318,-8.155,1.47,18.0
95.475,-6.558,0.659,3.0
0.0,0.0,0.0,0.0
19.978,-1.386,-0.08,0.0
0.0,0.0,0.0,0.0
0.0,0.0,0.0,0.0
20.027,-1.405,0.258,16.0
20.024,-1.412,0.149,10.0
59.201,-4.194,0.123,1.0
48.73,-3.469,-0.167,1.0
42.348,-3.029,-0.374,1.0
36.614,-2.632,-0.521,0.0
20.03,-1.441,0.27,24.0
20.017,-1.447,0.162,32.0
82.355,-5.982,0.222,1.0
45.086,-3.29,-0.126,0.0
39.32,-2.882,-0.323,1.0
38.123,-2.808,-0.519,6.0
20.039,-1.477,0.283,2.0
20.048,-1.485,0.175,7.0
81.763,-6.083,0.273,9.0
45.299,-3.386,-0.097,0.0
40.434,-3.035,-0.305,15.0
34.377,-2.592,-0.445,2.0
119.307,-9.006,1.769,20.0
113.742,-8.624,1.072,7.0
67.856,-5.166,0.274,6.0
56.245,-4.301,-0.082,4.0
40.492,-3.11,-0.277,15.0
33.407,-2.576,-0.409,1.0
67.879,-5.241,1.054,98.0
67.866,-5.261,0.688,91.0
67.842,-5.281,0.322,87.0
51.937,-4.059,-0.038,3.0
40.677,-3.193,-0.249,11.0
34.554,-2.724,-0.398,11.0
119.35,-9.415,1.941,23.0
119.212,-9.442,1.297,7.0
82.056,-6.525,0.45,6.0
0.0,0.0,0.0,0.0
40.668,-3.26,-0.218,2.0
35.554,-2.862,-0.382,23.0
119.333,-9.614,2.033,27.0
119.16,-9.637,1.388,13.0
86.123,-6.991,0.54,11.0
61.663,-5.025,0.048,6.0
47.599,-3.894,-0.218,8.0
35.665,-2.929,-0.355,41.0
126.476,-10.396,2.256,80.0
119.175,-9.832,1.484,18.0
87.236,-7.223,0.616,5.0
58.53,-4.864,0.093,2.0
0.0,0.0,0.0,0.0
35.648,-2.984,-0.326,10.0
126.492,-10.599,2.358,77.0
119.232,-10.026,1.583,17.0
86.976,-7.34,0.687,4.0
67.398,-5.708,0.163,9.0
47.695,-4.054,-0.14,14.0
41.77,-3.563,-0.347,1.0
126.47,-10.796,2.467,68.0
119.22,-10.212,1.684,18.0
111.917,-9.619,0.98,2.0
67.507,-5.822,0.222,4.0
0.0,0.0,0.0,0.0
41.65,-3.617,-0.31,14.0
135.707,-11.794,2.765,33.0
135.715,-11.834,2.037,150.0
112.16,-9.811,1.081,6.0
80.353,-7.052,0.335,5.0
50.658,-4.46,-0.059,24.0
41.291,-3.647,-0.27,16.0
126.406,-11.174,2.689,9.0
135.663,-12.031,2.159,98.0
113.012,-10.053,1.192,6.0
83.833,-7.481,0.426,5.0
51.361,-4.598,-0.014,23.0
0.0,0.0,0.0,0.0
135.636,-12.188,3.011,145.0
135.617,-12.223,2.282,124.0
114.7,-10.368,1.315,7.0
85.013,-7.708,0.511,14.0
51.716,-4.704,0.034,5.0
43.993,-4.013,-0.206,19.0
119.274,-10.888,2.76,20.0
135.574,-12.412,2.411,150.0
119.107,-10.935,1.48,8.0
85.656,-7.887,0.597,12.0
54.595,-5.042,0.088,5.0
44.561,-4.128,-0.165,11.0
119.258,-11.054,2.876,88.0
72.722,-6.759,1.365,7.0
119.096,-11.1,1.598,16.0
87.324,-8.162,0.695,7.0
55.455,-5.198,0.144,1.0
46.532,-4.374,-0.126,21.0
193.108,-18.162,4.852,10.0
193.298,-18.228,3.821,21.0
119.101,-11.26,1.717,13.0
110.939,-10.517,0.995,4.0
71.894,-6.834,0.26,4.0
47.772,-4.554,-0.082,22.0
104.368,-9.953,2.728,6.0
119.226,-11.399,2.479,7.0
119.206,-11.427,1.841,17.0
111.09,-10.677,1.11,14.0
79.728,-7.682,0.371,6.0
48.546,-4.69,-0.032,22.0
74.299,-7.181,2.019,6.0
135.541,-13.132,2.959,80.0
135.518,-13.162,2.234,150.0
111.472,-10.854,1.231,14.0
85.012,-8.298,0.485,7.0
0.0,0.0,0.0,0.0
119.188,-11.669,3.366,12.0
78.806,-7.733,1.804,10.0
135.496,-13.327,2.377,81.0
114.472,-11.286,1.387,5.0
84.621,-8.363,0.574,9.0
51.474,-5.099,0.074,7.0
73.909,-7.326,2.166,24.0
78.65,-7.813,1.885,12.0
135.443,-13.484,2.525,132.0
118.996,-11.874,1.572,5.0
87.596,-8.76,0.689,10.0
63.398,-6.354,0.16,1.0
73.957,-7.417,2.249,22.0
78.593,-7.898,1.97,25.0
135.41,-13.635,2.672,102.0
135.407,-13.665,1.936,150.0
87.967,-8.897,0.789,5.0
53.493,-5.422,0.194,1.0
74.355,-7.54,2.344,38.0
78.718,-7.998,2.061,4.0
74.837,-7.619,1.56,8.0
135.356,-13.808,2.086,150.0
104.658,-10.699,1.055,8.0
79.63,-8.157,0.379,10.0
74.233,-7.608,2.423,26.0
78.672,-8.078,2.149,8.0
104.731,-10.775,2.302,9.0
104.599,-10.782,1.731,9.0
104.64,-10.808,1.174,9.0
81.254,-8.408,0.479,0.0
78.209,-8.097,2.642,16.0
78.518,-8.144,2.234,21.0
104.559,-10.864,2.418,11.0
119.182,-12.406,2.108,45.0
33.128,-3.454,0.409,1.0
33.135,-3.461,0.233,59.0
78.055,-8.159,2.727,16.0
78.301,-8.198,2.318,13.0
78.835,-8.267,1.913,21.0
33.147,-3.482,0.624,7.0
33.147,-3.488,0.447,71.0
33.126,-3.492,0.271,70.0
75.027,-7.914,2.708,14.0
78.086,-8.25,2.403,11.0
33.157,-3.508,0.844,27.0
33.151,-3.513,0.663,71.0
33.137,-3.518,0.487,72.0
33.116,-3.521,0.31,83.0
72.368,-7.7,2.698,16.0
33.158,-3.533,1.059,47.0
33.165,-3.539,0.883,72.0
33.127,-3.54,0.702,78.0
33.121,-3.545,0.526,78.0
33.114,-3.55,0.349,78.0
33.181,-3.56,1.277,71.0
33.175,-3.563,1.1,71.0
33.14,-3.565,0.922,80.0
33.132,-3.569,0.742,80.0
33.124,-3.573,0.566,78.0
33.12,-3.578,0.389,71.0
33.168,-3.586,1.316,75.0
33.156,-3.589,1.139,83.0
33.14,-3.591,0.961,80.0
33.142,-3.597,0.782,81.0
33.143,-3.601,0.605,66.0
33.141,-3.606,0.429,42.0
33.159,-3.61,1.355,87.0
33.161,-3.615,1.179,80.0
33.151,-3.618,1.002,79.0
33.123,-3.619,0.821,53.0
33.152,-3.627,0.645,39.0
33.15,-3.632,0.469,2.0
33.168,-3.636,1.396,80.0
33.165,-3.639,1.219,80.0
33.155,-3.642,1.042,49.0
33.16,-3.647,0.862,36.0
33.146,-3.65,0.686,1.0
118.793,-13.098,1.829,19.0
33.165,-3.659,1.437,80.0
33.163,-3.662,1.26,46.0
33.175,-3.667,1.084,30.0
75.108,-8.312,2.048,23.0
75.276,-8.339,1.651,16.0
118.913,-13.189,1.977,25.0
33.19,-3.683,1.479,45.0
33.195,-3.687,1.302,22.0
72.487,-8.06,2.458,11.0
74.918,-8.338,2.135,24.0
75.19,-8.376,1.743,26.0
118.928,-13.262,2.124,24.0
33.203,-3.705,1.521,21.0
72.663,-8.116,2.942,9.0
74.066,-8.279,2.604,23.0
74.52,-8.337,2.216,17.0
74.492,-8.341,1.819,46.0
75.249,-8.433,1.437,22.0
69.64,-7.811,3.277,15.0
72.286,-8.113,3.016,12.0
74.085,-8.321,2.696,30.0
74.538,-8.379,2.309,10.0
74.449,-8.375,1.909,33.0
75.179,-8.464,1.529,23.0
72.486,-8.168,3.501,8.0
74.316,-8.379,3.193,9.0
72.713,-8.204,2.737,8.0
75.404,-8.513,2.429,23.0
74.456,-8.412,2.003,21.0
75.155,-8.497,1.622,24.0
70.772,-8.008,3.507,10.0
72.907,-8.254,3.225,11.0
73.336,-8.307,2.853,19.0
75.123,-8.515,2.515,49.0
74.478,-8.447,2.096,18.0
74.562,-8.462,1.702,27.0
72.215,-8.203,3.67,47.0
73.155,-8.313,3.327,16.0
73.634,-8.371,2.956,23.0
75.093,-8.541,2.607,51.0
74.864,-8.52,2.201,21.0
74.209,-8.45,1.787,27.0
72.323,-8.242,3.766,26.0
73.578,-8.388,3.438,36.0
72.701,-8.291,3.009,8.0
72.87,-8.314,2.62,9.0
75.154,-8.578,2.301,29.0
74.345,-8.489,1.882,27.0
72.356,-8.27,3.857,18.0
73.138,-8.362,3.509,24.0
73.098,-8.36,3.116,12.0
72.892,-8.338,2.711,20.0
75.266,-8.613,2.398,19.0
0.0,0.0,0.0,0.0
72.279,-8.282,3.943,12.0
73.025,-8.369,3.593,33.0
73.333,-8.406,3.217,34.0
73.061,-8.377,2.808,40.0
74.729,-8.57,2.474,11.0
0.0,0.0,0.0,0.0
70.291,-8.072,3.921,7.0
73.098,-8.395,3.688,32.0
73.328,-8.422,3.308,39.0
73.587,-8.453,2.92,25.0
0.0,0.0,0.0,0.0
75.339,-8.657,2.186,13.0
72.128,-8.297,4.113,7.0
73.218,-8.423,3.784,13.0
73.322,-8.434,3.397,31.0
73.196,-8.42,2.994,18.0
72.91,-8.388,2.592,11.0
74.995,-8.629,2.268,9.0
71.929,-8.285,4.191,16.0
72.684,-8.371,3.845,13.0
73.079,-8.416,3.476,27.0
73.186,-8.428,3.083,22.0
72.652,-8.367,2.673,25.0
80.172,-9.233,2.522,7.0
71.881,-8.287,4.276,18.0
72.436,-8.35,3.921,12.0
72.982,-8.411,3.561,37.0
73.147,-8.429,3.171,23.0
72.601,-8.366,2.76,18.0
74.524,-8.587,2.435,8.0
72.416,-8.353,4.397,13.0
71.966,-8.299,3.984,7.0
73.064,-8.424,3.654,29.0
73.259,-8.444,3.264,34.0
72.746,-8.384,2.853,7.0
74.558,-8.592,2.526,10.0
72.632,-8.379,4.498,21.0
70.227,-8.099,3.972,7.0
73.681,-8.495,3.773,16.0
73.327,-8.451,3.355,30.0
73.134,-8.427,2.955,15.0
72.975,-8.407,2.558,7.0
72.542,-8.367,4.579,19.0
0.0,0.0,0.0,0.0
72.925,-8.404,3.821,13.0
73.227,-8.435,3.437,28.0
73.227,-8.433,3.045,20.0
72.75,-8.375,2.636,20.0
72.396,-8.345,4.655,10.0
71.873,-8.28,4.235,19.0
72.499,-8.348,3.883,17.0
72.995,-8.401,3.512,29.0
73.284,-8.431,3.133,32.0
72.66,-8.356,2.717,21.0
33.365,-3.841,2.185,2.0
72.263,-8.315,4.343,14.0
72.338,-8.319,3.959,11.0
73.046,-8.396,3.598,40.0
73.367,-8.429,3.222,32.0
73.25,-8.411,2.825,33.0
74.426,-8.558,4.959,23.0
72.709,-8.354,4.455,11.0
70.343,-8.077,3.932,7.0
72.96,-8.372,3.679,34.0
73.361,-8.413,3.306,42.0
73.383,-8.411,2.914,34.0
74.073,-8.501,5.021,11.0
72.668,-8.333,4.535,13.0
72.023,-8.254,4.107,20.0
72.229,-8.271,3.724,29.0
73.494,-8.41,3.395,46.0
72.712,-8.315,2.969,11.0
77.284,-8.85,5.327,10.0
74.444,-8.518,4.73,9.0
71.984,-8.229,4.186,12.0
72.359,-8.266,3.811,19.0
73.449,-8.383,3.475,27.0
72.967,-8.323,3.06,9.0
76.125,-8.695,5.331,18.0
33.303,-3.8,2.153,2.0
69.709,-7.947,4.13,13.0
72.337,-8.24,3.89,23.0
0.0,0.0,0.0,0.0
73.211,-8.325,3.151,13.0
75.67,-8.617,5.384,15.0
33.328,-3.791,2.191,1.0
69.74,-7.926,4.209,9.0
72.325,-8.211,3.968,28.0
0.0,0.0,0.0,0.0
69.609,-7.889,3.071,9.0
33.239,-3.772,2.4,34.0
33.233,-3.767,2.22,9.0
72.198,-8.176,4.434,15.0
72.423,-8.193,4.05,19.0
70.842,-8.006,3.581,15.0
69.617,-7.86,3.144,24.0
33.247,-3.759,2.436,63.0
33.215,-3.751,2.254,41.0
33.213,-3.746,2.074,33.0
33.218,-3.743,1.892,12.0
70.838,-7.972,3.655,10.0
69.649,-7.831,3.218,20.0
33.223,-3.74,2.469,81.0
33.227,-3.736,2.29,78.0
33.218,-3.73,2.11,62.0
33.187,-3.722,1.925,42.0
33.2,-3.719,1.747,37.0
33.207,-3.716,1.568,23.0
33.216,-3.723,2.503,85.0
33.21,-3.717,2.323,79.0
33.207,-3.711,2.143,73.0
33.203,-3.706,1.959,80.0
33.2,-3.701,1.78,72.0
33.182,-3.695,1.6,49.0
33.235,-3.706,2.538,77.0
33.219,-3.699,2.356,80.0
33.201,-3.692,2.175,74.0
33.197,-3.687,1.991,79.0
33.189,-3.681,1.811,76.0
33.176,-3.675,1.631,78.0
33.243,-3.687,2.57,72.0
33.238,-3.681,2.389,70.0
33.216,-3.673,2.208,66.0
33.196,-3.666,2.023,76.0
33.186,-3.659,1.843,84.0
33.177,-3.654,1.663,78.0
33.249,-3.667,2.603,2.0
33.232,-3.659,2.42,22.0
33.232,-3.653,2.24,56.0
33.214,-3.646,2.055,69.0
33.194,-3.638,1.874,70.0
33.18,-3.631,1.694,68.0
70.844,-7.766,5.611,22.0
70.104,-7.672,5.17,30.0
69.668,-7.611,4.76,26.0
33.206,-3.622,2.085,5.0
33.205,-3.616,1.904,29.0
33.208,-3.611,1.725,63.0
33.32,-3.628,2.669,21.0
33.311,-3.621,2.486,17.0
69.651,-7.559,4.82,16.0
33.316,-3.609,2.121,1.0
70.017,-7.573,4.077,15.0
70.056,-7.565,3.699,29.0
33.308,-3.602,2.697,53.0
33.307,-3.595,2.515,53.0
33.304,-3.588,2.333,42.0
33.294,-3.581,2.148,24.0
69.928,-7.509,4.132,22.0
69.852,-7.487,3.748,23.0
33.303,-3.575,2.725,52.0
33.303,-3.568,2.543,51.0
33.287,-3.56,2.36,44.0
33.285,-3.553,2.175,39.0
70.271,-7.488,4.21,13.0
69.888,-7.434,3.806,29.0
33.291,-3.546,2.751,48.0
33.286,-3.539,2.568,46.0
33.319,-3.535,2.389,63.0
33.276,-3.524,2.201,48.0
69.14,-7.309,4.196,29.0
70.121,-7.398,3.874,18.0
33.291,-3.517,2.777,55.0
33.282,-3.509,2.594,54.0
33.295,-3.503,2.413,54.0
33.264,-3.493,2.225,50.0
69.225,-7.256,4.254,28.0
69.015,-7.22,3.864,5.0
33.276,-3.486,2.801,53.0
33.277,-3.479,2.618,52.0
33.283,-3.472,2.436,52.0
33.26,-3.462,2.249,53.0
69.358,-7.205,4.312,24.0
68.845,-7.138,3.905,26.0
33.282,-3.455,2.826,54.0
33.277,-3.447,2.642,53.0
33.269,-3.439,2.459,50.0
33.248,-3.429,2.272,53.0
69.401,-7.143,4.363,26.0
68.883,-7.075,3.954,14.0
33.272,-3.422,2.848,53.0
33.262,-3.413,2.664,52.0
33.259,-3.405,2.481,48.0
33.245,-3.396,2.295,52.0
69.375,-7.071,4.409,24.0
68.963,-7.014,4.005,15.0
33.263,-3.388,2.869,54.0
33.258,-3.379,2.686,51.0
33.243,-3.37,2.501,46.0
33.239,-3.361,2.315,53.0
69.575,-7.021,4.465,31.0
69.048,-6.952,4.053,17.0
33.258,-3.353,2.889,53.0
33.251,-3.344,2.705,51.0
33.237,-3.334,2.521,49.0
33.236,-3.326,2.335,52.0
69.623,-6.952,4.509,20.0
69.072,-6.881,4.095,12.0
33.245,-3.316,2.908,53.0
33.243,-3.308,2.724,54.0
33.242,-3.299,2.541,53.0
33.225,-3.289,2.353,51.0
33.246,-3.283,2.172,29.0
71.628,-7.057,4.286,35.0
33.243,-3.279,2.926,54.0
33.229,-3.269,2.741,52.0
33.221,-3.26,2.557,52.0
33.208,-3.251,2.369,53.0
33.234,-3.245,2.189,39.0
0.0,0.0,0.0,0.0
33.231,-3.241,2.942,53.0
33.218,-3.231,2.757,51.0
33.224,-3.222,2.574,53.0
33.213,-3.213,2.387,52.0
33.229,-3.206,2.205,46.0
69.876,-6.725,4.252,30.0
33.231,-3.202,2.959,53.0
33.218,-3.192,2.773,52.0
33.218,-3.183,2.59,52.0
33.196,-3.172,2.401,52.0
33.218,-3.166,2.219,48.0
69.9,-6.644,4.285,15.0
33.222,-3.162,2.973,51.0
33.203,-3.151,2.787,36.0
33.199,-3.142,2.602,28.0
33.195,-3.133,2.415,37.0
33.215,-3.126,2.233,43.0
69.865,-6.557,4.311,22.0
74.531,-7.004,6.7,18.0
74.437,-6.974,6.278,10.0
71.177,-6.649,5.608,13.0
70.519,-6.569,5.158,23.0
70.323,-6.532,4.754,28.0
70.496,-6.53,4.376,15.0
74.831,-6.939,6.755,10.0
73.69,-6.813,6.241,31.0
70.984,-6.543,5.618,15.0
70.487,-6.477,5.181,25.0
70.803,-6.487,4.811,39.0
71.349,-6.518,4.453,12.0
77.065,-7.048,6.983,6.0
74.178,-6.763,6.308,9.0
71.208,-6.473,5.659,10.0
70.385,-6.378,5.195,27.0
70.691,-6.388,4.825,18.0
70.88,-6.385,4.445,16.0
73.435,-6.622,6.675,18.0
74.466,-6.694,6.353,20.0
70.883,-6.352,5.653,17.0
70.306,-6.281,5.208,16.0
70.439,-6.274,4.826,40.0
71.17,-6.319,4.482,12.0
80.184,-7.127,7.309,8.0
73.162,-6.481,6.26,11.0
70.974,-6.267,5.677,9.0
70.132,-6.173,5.212,10.0
70.783,-6.211,4.866,18.0
74.941,-6.555,4.735,9.0
79.905,-6.995,7.3,9.0
71.313,-6.221,6.117,9.0
70.943,-6.168,5.689,11.0
70.901,-6.145,5.282,7.0
70.163,-6.061,4.837,31.0
71.594,-6.165,4.537,12.0
77.985,-6.721,7.139,7.0
71.327,-6.125,6.13,25.0
70.457,-6.03,5.661,14.0
70.757,-6.035,5.283,16.0
70.136,-5.963,4.845,29.0
70.902,-6.008,4.503,18.0
72.112,-6.115,6.611,11.0
72.31,-6.111,6.223,9.0
70.936,-5.974,5.708,4.0
70.722,-5.936,5.288,13.0
70.658,-5.91,4.889,16.0
75.76,-6.315,4.82,10.0
71.721,-5.982,6.582,13.0
72.939,-6.062,6.284,10.0
73.113,-6.055,5.889,21.0
70.661,-5.831,5.289,13.0
71.095,-5.847,4.923,26.0
71.996,-5.9,4.584,8.0
78.911,-6.47,7.247,9.0
72.977,-5.962,6.291,6.0
73.179,-5.957,5.897,12.0
70.48,-5.717,5.278,16.0
74.686,-6.036,5.174,9.0
75.996,-6.12,4.84,11.0
70.859,-5.709,6.508,9.0
70.655,-5.671,6.091,13.0
73.214,-5.855,5.9,27.0
78.387,-6.245,5.868,13.0
70.658,-5.608,4.894,27.0
71.952,-5.69,4.581,4.0
70.805,-5.601,6.501,13.0
70.575,-5.562,6.081,24.0
73.168,-5.744,5.893,13.0
67.988,-5.317,5.087,41.0
67.963,-5.295,4.703,75.0
67.951,-5.275,4.322,85.0
68.027,-5.282,6.24,29.0
67.991,-5.258,5.853,79.0
67.996,-5.238,5.47,54.0
67.957,-5.215,5.078,11.0
70.948,-5.425,4.902,28.0
71.749,-5.465,4.555,25.0
70.709,-5.386,6.478,8.0
70.682,-5.362,6.076,12.0
73.098,-5.524,5.871,28.0
74.68,-5.621,5.57,8.0
71.898,-5.391,4.958,8.0
72.23,-5.395,4.575,39.0
70.876,-5.293,6.483,11.0
72.218,-5.372,6.196,7.0
73.096,-5.415,5.859,50.0
72.517,-5.35,5.396,7.0
71.802,-5.276,4.938,17.0
71.888,-5.261,4.54,11.0
71.137,-5.206,6.492,18.0
72.141,-5.257,6.174,20.0
0.0,0.0,0.0,0.0
74.1,-5.354,5.497,8.0
76.422,-5.5,5.238,7.0
75.839,-5.436,4.771,8.0
71.383,-5.116,6.497,8.0
71.988,-5.137,6.143,35.0
72.184,-5.128,5.752,12.0
71.992,-5.094,5.322,8.0
76.395,-5.382,5.216,14.0
71.692,-5.031,4.491,8.0
72.951,-5.116,6.619,21.0
72.267,-5.046,6.146,14.0
72.297,-5.026,5.738,42.0
75.905,-5.254,5.587,11.0
71.623,-4.937,4.867,9.0
71.661,-4.918,4.465,8.0
64.326,-4.411,5.814,10.0
72.224,-4.932,6.117,29.0
73.012,-4.964,5.77,19.0
72.604,-4.914,5.319,13.0
71.827,-4.841,4.855,13.0
71.489,-4.797,4.429,40.0
64.292,-4.311,5.787,25.0
0.0,0.0,0.0,0.0
71.453,-4.748,5.62,38.0
72.283,-4.782,5.267,16.0
71.528,-4.711,4.807,26.0
71.092,-4.662,4.375,30.0
64.285,-4.212,5.76,30.0
64.338,-4.196,5.399,10.0
71.384,-4.635,5.584,48.0
72.068,-4.657,5.22,20.0
71.555,-4.603,4.778,24.0
70.772,-4.532,4.324,31.0
64.062,-4.098,5.71,35.0
63.973,-4.072,5.338,39.0
73.479,-4.655,5.713,9.0
72.072,-4.544,5.186,10.0
71.769,-4.504,4.756,26.0
70.595,-4.411,4.278,29.0
63.842,-3.983,5.658,32.0
63.493,-3.942,5.265,38.0
63.531,-3.926,4.906,13.0
58.683,-3.609,4.192,29.0
58.792,-3.598,3.865,30.0
71.253,-4.34,4.28,28.0
63.626,-3.871,5.604,35.0
63.481,-3.843,5.229,24.0
63.569,-3.83,4.874,15.0
58.527,-3.509,4.147,33.0
58.818,-3.509,3.834,32.0
71.502,-4.246,4.254,35.0
63.418,-3.76,5.549,38.0
63.303,-3.734,5.177,26.0
63.517,-3.728,4.831,19.0
58.591,-3.422,4.116,33.0
58.92,-3.424,3.804,32.0
71.664,-4.144,4.219,13.0
63.027,-3.638,5.475,39.0
62.991,-3.617,5.111,37.0
63.59,-3.634,4.796,11.0
58.766,-3.341,4.091,33.0
58.778,-3.324,3.756,32.0
58.719,-3.305,3.418,24.0
62.908,-3.533,5.422,33.0
62.905,-3.514,5.061,13.0
63.78,-3.544,4.766,38.0
63.459,-3.507,4.373,9.0
58.528,-3.218,3.699,32.0
58.502,-3.201,3.364,28.0
62.676,-3.422,5.357,20.0
58.656,-3.185,4.677,32.0
64.074,-3.461,4.742,33.0
63.413,-3.407,4.324,18.0
58.21,-3.111,3.636,31.0
58.672,-3.119,3.33,32.0
60.31,-3.199,5.109,17.0
57.034,-3.008,4.504,25.0
59.974,-3.146,4.392,13.0
58.623,-3.058,3.952,33.0
58.362,-3.029,3.6,30.0
58.744,-3.033,3.288,30.0
59.664,-3.071,5.006,36.0
56.678,-2.901,4.43,30.0
0.0,0.0,0.0,0.0
58.408,-2.957,3.889,32.0
58.313,-2.935,3.549,31.0
77.604,-3.885,4.28,16.0
50.749,-2.533,4.215,13.0
56.671,-2.812,4.381,30.0
56.972,-2.811,4.077,30.0
58.241,-2.858,3.828,32.0
58.237,-2.841,3.494,30.0
78.769,-3.821,4.274,8.0
44.074,-2.131,3.621,30.0
56.827,-2.731,4.342,15.0
57.392,-2.743,4.055,31.0
58.168,-2.764,3.77,32.0
58.084,-2.744,3.432,34.0
79.365,-3.728,4.234,19.0
44.095,-2.063,3.581,32.0
56.792,-2.642,4.286,14.0
59.477,-2.751,4.147,33.0
58.162,-2.674,3.715,28.0
58.732,-2.685,3.414,34.0
80.564,-3.661,4.222,18.0
44.144,-1.998,3.543,41.0
0.0,0.0,0.0,0.0
58.486,-2.615,4.019,29.0
58.406,-2.596,3.673,11.0
67.293,-2.972,3.845,23.0
80.678,-3.542,4.146,34.0
44.186,-1.932,3.501,27.0
44.391,-1.929,3.261,31.0
57.549,-2.485,3.896,31.0
0.0,0.0,0.0,0.0
59.99,-2.558,3.365,33.0
80.911,-3.43,4.075,28.0
44.043,-1.859,3.443,52.0
44.348,-1.859,3.211,43.0
0.0,0.0,0.0,0.0
57.931,-2.399,3.521,23.0
59.81,-2.461,3.291,33.0
80.998,-3.312,3.992,38.0
44.1,-1.795,3.399,47.0
44.327,-1.792,3.161,29.0
57.035,-2.291,3.738,23.0
59.638,-2.38,3.559,34.0
66.36,-2.631,3.578,12.0
81.252,-3.201,3.914,35.0
44.081,-1.728,3.347,52.0
44.257,-1.723,3.105,46.0
57.499,-2.224,3.703,32.0
59.639,-2.292,3.49,34.0
66.322,-2.531,3.5,8.0
81.223,-3.079,3.818,26.0
44.157,-1.665,3.301,44.0
44.412,-1.663,3.064,37.0
58.225,-2.165,3.68,25.0
66.379,-2.452,3.806,11.0
66.298,-2.433,3.419,23.0
94.188,-3.433,4.315,24.0
44.223,-1.602,3.253,43.0
45.805,-1.648,3.104,38.0
0.0,0.0,0.0,0.0
66.253,-2.351,3.718,42.0
81.195,-2.861,4.088,22.0
94.226,-3.298,4.201,21.0
0.0,0.0,0.0,0.0
57.51,-1.986,3.826,31.0
59.938,-2.055,3.64,18.0
66.399,-2.26,3.643,36.0
81.159,-2.742,3.984,25.0
94.421,-3.168,4.09,15.0
45.851,-1.529,3.256,21.0
57.033,-1.887,3.721,12.0
65.862,-2.164,3.915,19.0
71.681,-2.337,3.839,30.0
81.252,-2.63,3.882,10.0
101.17,-3.25,4.25,20.0
45.873,-1.464,3.197,35.0
56.872,-1.801,3.634,17.0
57.004,-1.791,3.312,14.0
80.317,-2.504,4.194,17.0
81.314,-2.517,3.776,34.0
100.987,-3.102,4.106,12.0
56.818,-1.732,3.882,18.0
56.798,-1.718,3.552,30.0
65.762,-1.974,3.731,9.0
80.561,-2.399,4.095,27.0
81.313,-2.403,3.664,38.0
106.199,-3.115,4.172,16.0
56.739,-1.652,3.798,13.0
56.778,-1.639,3.47,30.0
65.971,-1.889,3.65,23.0
81.592,-2.318,4.033,22.0
94.99,-2.677,4.146,15.0
117.742,-3.293,4.46,14.0
57.122,-1.584,3.742,9.0
71.537,-1.968,4.271,10.0
84.555,-2.307,4.558,11.0
81.223,-2.198,3.899,25.0
101.803,-2.732,4.297,13.0
106.199,-2.826,3.868,11.0
51.601,-1.361,3.305,22.0
65.805,-1.722,3.832,7.0
74.135,-1.923,3.886,16.0
81.744,-2.103,3.804,9.0
96.678,-2.466,3.938,14.0
106.388,-2.691,3.719,6.0
51.618,-1.294,3.229,34.0
73.812,-1.834,4.188,27.0
74.221,-1.828,3.781,28.0
81.68,-1.994,3.678,13.0
96.622,-2.338,3.791,12.0
113.177,-2.715,3.785,14.0
51.72,-1.228,3.155,33.0
73.779,-1.736,4.073,41.0
81.134,-1.893,4.007,11.0
96.028,-2.219,4.175,20.0
106.519,-2.439,4.013,12.0
112.489,-2.551,3.585,24.0
61.238,-1.375,3.64,32.0
74.401,-1.655,3.989,27.0
81.319,-1.792,3.887,16.0
106.472,-2.324,4.461,18.0
113.258,-2.449,4.088,22.0
112.674,-2.413,3.413,26.0
61.161,-1.296,3.538,15.0
81.888,-1.718,4.26,8.0
81.591,-1.696,3.77,19.0
106.654,-2.195,4.297,10.0
112.62,-2.295,3.884,20.0
112.818,-2.276,3.236,19.0
73.732,-1.471,4.144,11.0
81.987,-1.62,4.132,23.0
96.07,-1.878,4.282,18.0
96.798,-1.873,3.741,7.0
112.68,-2.159,3.702,17.0
112.688,-2.138,3.049,26.0
81.497,-1.527,4.446,11.0
81.337,-1.509,3.964,12.0
95.679,-1.756,4.106,9.0
112.782,-2.047,4.172,20.0
113.2,-2.034,3.53,8.0
112.764,-2.005,2.863,20.0
81.697,-1.434,4.319,30.0
85.351,-1.482,4.015,7.0
112.196,-1.927,4.626,14.0
112.767,-1.916,3.982,15.0
112.982,-1.898,3.332,6.0
205.709,-3.418,4.871,7.0
81.856,-1.342,4.188,17.0
81.58,-1.322,3.698,13.0
106.465,-1.706,4.206,18.0
112.757,-1.787,3.788,1.0
112.946,-1.768,3.136,22.0
205.795,-3.185,4.519,8.0
81.304,-1.24,4.018,11.0
96.574,-1.455,4.209,9.0
106.575,-1.587,4.024,8.0
209.696,-3.087,6.676,11.0
206.194,-2.999,5.366,6.0
0.0,0.0,0.0,0.0
81.121,-1.148,3.864,19.0
106.589,-1.489,4.456,11.0
190.557,-2.63,6.858,22.0
209.559,-2.855,6.299,6.0
206.894,-2.784,5.017,9.0
204.28,-2.714,3.764,8.0
94.996,-1.242,4.355,17.0
106.661,-1.376,4.267,8.0
210.471,-2.681,7.197,17.0
209.1,-2.627,5.91,10.0
210.585,-2.611,4.726,11.0
204.214,-2.498,3.393,16.0
95.575,-1.149,4.208,11.0
190.453,-2.257,7.273,41.0
210.928,-2.465,6.823,9.0
209.072,-2.408,5.522,14.0
119.649,-1.359,2.465,5.0
119.737,-1.341,1.77,27.0
189.783,-2.087,8.003,117.0
190.581,-2.066,6.927,21.0
211.088,-2.255,6.441,11.0
119.723,-1.259,2.941,150.0
119.758,-1.241,2.245,151.0
119.751,-1.222,1.549,150.0
189.855,-1.902,7.654,48.0
0.0,0.0,0.0,0.0
119.72,-1.162,3.43,120.0
119.724,-1.143,2.719,137.0
119.743,-1.125,2.022,111.0
119.69,-1.107,1.324,19.0
190.559,-1.724,7.32,47.0
214.659,-1.911,6.993,9.0
119.718,-1.047,3.2,123.0
119.728,-1.031,2.493,88.0
119.747,-1.013,1.794,93.0
119.697,-0.994,1.095,17.0
190.613,-1.55,6.96,23.0
205.456,-1.641,6.303,14.0
119.713,-0.938,2.973,15.0
194.114,-1.494,3.669,22.0
119.708,-0.904,1.565,15.0
119.765,-0.887,0.866,3.0
215.385,-1.559,7.45,6.0
119.781,-0.85,3.444,7.0
119.77,-0.833,2.743,31.0
119.813,-0.817,2.035,20.0
119.715,-0.8,1.335,17.0
111.018,-0.726,0.588,3.0
215.612,-1.375,7.036,8.0
119.827,-0.748,3.212,13.0
119.84,-0.732,2.511,21.0
119.802,-0.715,1.798,51.0
119.701,-0.699,1.1,15.0
95.302,-0.544,0.319,1.0
206.623,-1.146,6.337,6.0
119.792,-0.648,2.973,36.0
119.813,-0.633,2.274,8.0
119.699,-0.617,1.561,16.0
114.325,-0.575,0.823,2.0
95.333,-0.467,0.129,1.0
119.784,-0.568,3.434,15.0
119.803,-0.553,2.735,24.0
119.798,-0.539,2.035,20.0
119.687,-0.523,1.322,12.0
110.864,-0.472,0.578,1.0
0.0,0.0,0.0,0.0
119.795,-0.478,3.196,14.0
119.81,-0.464,2.497,35.0
119.862,-0.449,1.796,80.0
119.718,-0.435,1.085,11.0
101.598,-0.357,0.327,1.0
0.0,0.0,0.0,0.0
119.82,-0.391,2.956,26.0
119.831,-0.377,2.256,40.0
119.848,-0.364,1.556,2.0
111.095,-0.325,0.782,11.0
0.0,0.0,0.0,0.0
0.0,0.0,0.0,0.0
119.824,-0.308,2.711,26.0
0.0,0.0,0.0,0.0
119.705,-0.281,1.31,16.0
0.0,0.0,0.0,0.0
0.0,0.0,0.0,0.0
0.0,0.0,0.0,0.0
115.948,-0.222,2.387,2.0
114.648,-0.207,1.689,6.0
117.364,-0.2,1.045,9.0
99.0,-0.159,0.293,1.0
0.0,0.0,0.0,0.0
45.016,-0.063,-0.392,2.0
114.779,-0.148,2.127,12.0
111.14,-0.132,1.409,7.0
110.897,-0.121,0.758,10.0
0.0,0.0,0.0,0.0
0.0,0.0,0.0,0.0
0.0,0.0,0.0,0.0
114.032,-0.08,1.877,5.0
117.319,-0.072,1.245,12.0
97.383,-0.05,0.464,1.0
0.0,0.0,0.0,0.0
0.0,0.0,0.0,0.0
0.0,0.0,0.0,0.0
111.074,-0.016,1.596,10.0
110.993,-0.007,0.946,6.0
95.646,0.002,0.256,2.0
0.0,0.0,0.0,0.0
45.39,0.008,-0.414,2.0
35.522,0.01,-0.532,0.0
111.156,0.04,1.363,19.0
110.6,0.049,0.708,4.0
73.509,0.039,0.041,0.0
0.0,0.0,0.0,0.0
42.894,0.029,-0.482,0.0
0.0,0.0,0.0,0.0
111.162,0.093,1.128,10.0
0.0,0.0,0.0,0.0
0.0,0.0,0.0,0.0
45.931,0.049,-0.343,0.0
0.0,0.0,0.0,0.0
30.533,0.037,-0.586,0.0
110.812,0.142,0.892,11.0
0.0,0.0,0.0,0.0
0.0,0.0,0.0,0.0
42.826,0.064,-0.411,1.0
35.001,0.054,-0.541,0.0
29.115,0.047,-0.62,0.0
103.69,0.174,0.615,6.0
0.0,0.0,0.0,0.0
52.557,0.095,-0.303,0.0
40.694,0.076,-0.477,0.0
32.224,0.062,-0.566,0.0
27.217,0.054,-0.637,0.0
92.879,0.19,0.353,1.0
0.0,0.0,0.0,0.0
0.0,0.0,0.0,0.0
36.036,0.08,-0.498,0.0
30.451,0.069,-0.599,0.0
25.914,0.061,-0.662,0.0
0.0,0.0,0.0,0.0
0.0,0.0,0.0,0.0
42.901,0.106,-0.429,1.0
34.191,0.087,-0.546,0.0
28.559,0.074,-0.623,0.0
24.407,0.064,-0.675,0.0
0.0,0.0,0.0,0.0
0.0,0.0,0.0,0.0
0.0,0.0,0.0,0.0
31.356,0.088,-0.567,0.0
26.561,0.076,-0.635,0.0
23.34,0.068,-0.695,0.0
0.0,0.0,0.0,0.0
43.04,0.127,-0.361,0.0
35.867,0.108,-0.51,0.0
29.498,0.09,-0.596,0.0
0.0,0.0,0.0,0.0
22.278,0.07,-0.711,0.0
0.0,0.0,0.0,0.0
42.778,0.136,-0.45,0.0
0.0,0.0,0.0,0.0
27.551,0.089,-0.615,0.0
23.879,0.078,-0.673,0.0
21.175,0.07,-0.72,0.0
49.965,0.165,-0.339,0.0
38.162,0.127,-0.481,0.0
0.0,0.0,0.0,0.0
26.27,0.089,-0.642,0.0
0.0,0.0,0.0,0.0
20.199,0.07,-0.73,0.0
42.843,0.147,-0.381,1.0
34.613,0.12,-0.511,0.0
28.998,0.101,-0.598,0.0
24.982,0.088,-0.663,0.0
21.821,0.077,-0.707,0.0
19.477,0.07,-0.745,0.0
40.628,0.144,-0.448,0.0
32.791,0.117,-0.553,0.0
0.0,0.0,0.0,0.0
23.648,0.085,-0.678,0.0
21.029,0.076,-0.726,0.0
18.618,0.068,-0.752,0.0
0.0,0.0,0.0,0.0
30.64,0.111,-0.582,0.0
26.083,0.095,-0.648,0.0
22.439,0.082,-0.691,0.0
19.889,0.073,-0.729,0.0
17.988,0.066,-0.765,0.0
0.0,0.0,0.0,0.0
28.895,0.105,-0.61,0.0
24.627,0.09,-0.664,0.0
21.363,0.078,-0.703,0.0
19.194,0.07,-0.744,0.0
17.441,0.064,-0.778,0.0
0.0,0.0,0.0,0.0
27.32,0.099,-0.634,0.0
23.466,0.085,-0.682,0.0
20.709,0.075,-0.725,0.0
18.538,0.067,-0.758,0.0
16.816,0.061,-0.786,0.0
29.907,0.107,-0.582,0.0
0.0,0.0,0.0,0.0
22.366,0.08,-0.697,0.0
19.687,0.07,-0.731,0.0
17.902,0.064,-0.769,0.0
16.283,0.058,-0.795,0.0
0.0,0.0,0.0,0.0
24.352,0.084,-0.668,0.0
21.364,0.074,-0.711,0.0
18.937,0.066,-0.743,0.0
17.209,0.059,-0.776,0.0
15.691,0.054,-0.799,0.0
26.388,0.088,-0.624,0.0
23.134,0.077,-0.682,0.0
20.641,0.069,-0.729,0.0
18.335,0.061,-0.757,0.0
16.707,0.055,-0.788,0.0
15.244,0.05,-0.808,0.0
0.0,0.0,0.0,0.0
22.174,0.07,-0.699,0.0
19.592,0.062,-0.733,0.0
17.742,0.056,-0.769,0.0
16.173,0.051,-0.796,0.0
14.776,0.046,-0.814,0.0
24.01,0.072,-0.667,0.0
21.147,0.063,-0.711,0.0
18.914,0.056,-0.747,0.0
17.144,0.05,-0.779,0.0
15.621,0.045,-0.801,0.0
14.383,0.041,-0.822,0.0
22.656,0.062,-0.676,0.0
20.372,0.055,-0.726,0.0
18.237,0.049,-0.757,0.0
16.572,0.044,-0.787,0.0
15.159,0.04,-0.808,0.0
13.969,0.036,-0.827,0.0
21.954,0.054,-0.699,0.0
19.424,0.048,-0.732,0.0
17.654,0.043,-0.768,0.0
16.124,0.038,-0.798,0.0
14.757,0.035,-0.817,0.0
13.635,0.032,-0.834,0.0
21.008,0.046,-0.711,0.0
18.683,0.04,-0.742,0.0
17.075,0.036,-0.778,0.0
15.574,0.032,-0.802,0.0
14.335,0.029,-0.822,0.0
13.321,0.026,-0.842,0.0
20.218,0.037,-0.725,0.0
18.332,0.033,-0.764,0.0
16.576,0.029,-0.788,0.0
15.137,0.026,-0.81,0.0
13.96,0.023,-0.828,0.0
12.925,0.021,-0.843,0.0
19.453,0.028,-0.736,0.0
17.628,0.025,-0.77,0.0
16.041,0.022,-0.794,0.0
14.643,0.019,-0.812,0.0
13.598,0.017,-0.834,0.0
12.532,0.015,-0.842,0.0
18.533,0.019,-0.737,0.0
16.952,0.017,-0.773,0.0
15.463,0.014,-0.796,0.0
14.3,0.013,-0.821,0.0
13.297,0.011,-0.841,0.0
12.235,0.009,-0.846,0.0
18.089,0.011,-0.755,0.0
16.496,0.009,-0.785,0.0
15.146,0.007,-0.809,0.0
13.954,0.006,-0.828,0.0
12.863,0.005,-0.839,0.0
11.919,0.003,-0.847,0.0
17.609,0.002,-0.769,0.0
16.145,0.001,-0.799,0.0
14.68,0.0,-0.812,0.0
13.596,0.0,-0.833,0.0
12.542,-0.001,-0.842,0.0
11.64,-0.002,-0.85,0.0
16.98,-0.006,-0.774,0.0
15.527,-0.006,-0.798,0.0
14.34,-0.007,-0.821,0.0
13.263,-0.007,-0.838,0.0
12.25,-0.008,-0.846,0.0
11.445,-0.008,-0.858,0.0
16.55,-0.015,-0.785,0.0
15.174,-0.015,-0.809,0.0
13.972,-0.015,-0.826,0.0
13.059,-0.015,-0.85,0.0
11.908,-0.014,-0.845,0.0
11.233,-0.014,-0.863,0.0
15.939,-0.024,-0.786,0.0
14.715,-0.023,-0.811,0.0
13.595,-0.022,-0.829,0.0
12.579,-0.022,-0.842,0.0
11.657,-0.021,-0.849,0.0
10.992,-0.02,-0.865,0.0
15.584,-0.033,-0.797,0.0
14.335,-0.031,-0.817,0.0
13.319,-0.03,-0.837,0.0
12.282,-0.029,-0.845,0.0
11.446,-0.028,-0.854,0.0
10.813,-0.027,-0.871,0.0
15.189,-0.042,-0.805,0.0
13.991,-0.04,-0.823,0.0
13.051,-0.038,-0.844,0.0
11.984,-0.036,-0.846,0.0
11.27,-0.035,-0.862,0.0
10.599,-0.034,-0.872,0.0
14.778,-0.051,-0.809,0.0
13.683,-0.048,-0.829,0.0
12.714,-0.046,-0.845,0.0
11.709,-0.043,-0.847,0.0
11.039,-0.042,-0.864,0.0
10.413,-0.04,-0.876,0.0
14.433,-0.06,-0.816,0.0
13.386,-0.057,-0.835,0.0
12.363,-0.053,-0.843,0.0
11.495,-0.051,-0.852,0.0
10.85,-0.049,-0.868,0.0
10.282,-0.047,-0.883,0.0
14.121,-0.069,-0.823,0.0
13.045,-0.065,-0.836,0.0
12.093,-0.061,-0.845,0.0
11.304,-0.058,-0.857,0.0
10.665,-0.056,-0.871,0.0
10.138,-0.054,-0.888,0.0
13.835,-0.078,-0.83,0.0
12.777,-0.073,-0.841,0.0
11.786,-0.069,-0.844,0.0
11.07,-0.066,-0.858,0.0
10.494,-0.064,-0.875,0.0
9.979,-0.062,-0.891,0.0
13.58,-0.087,-0.837,0.0
12.443,-0.081,-0.839,0.0
11.564,-0.077,-0.847,0.0
10.94,-0.074,-0.867,0.0
10.35,-0.071,-0.88,0.0
9.826,-0.069,-0.893,0.0
13.249,-0.096,-0.838,0.0
12.227,-0.09,-0.845,0.0
11.398,-0.085,-0.854,0.0
10.738,-0.081,-0.868,0.0
10.237,-0.079,-0.887,0.0
9.663,-0.076,-0.894,0.0
12.985,-0.105,-0.842,0.0
11.959,-0.098,-0.845,0.0
11.162,-0.093,-0.854,0.0
10.564,-0.089,-0.871,0.0
10.068,-0.086,-0.889,0.0
9.602,-0.084,-0.904,0.0
12.609,-0.113,-0.838,0.0
11.704,-0.106,-0.846,0.0
11.005,-0.102,-0.86,0.0
10.415,-0.097,-0.875,0.0
9.911,-0.094,-0.891,0.0
9.425,-0.09,-0.902,0.0
12.369,-0.122,-0.841,0.0
11.522,-0.115,-0.851,0.0
10.91,-0.111,-0.869,0.0
10.298,-0.106,-0.881,0.0
9.79,-0.102,-0.895,0.0
9.326,-0.098,-0.907,0.0
12.127,-0.131,-0.843,0.0
11.295,-0.124,-0.851,0.0
10.689,-0.118,-0.868,0.0
10.165,-0.114,-0.886,0.0
9.678,-0.11,-0.899,0.0
9.215,-0.106,-0.91,0.0
11.866,-0.14,-0.843,0.0
11.149,-0.133,-0.857,0.0
10.575,-0.127,-0.874,0.0
10.021,-0.122,-0.888,0.0
9.606,-0.118,-0.907,0.0
9.113,-0.114,-0.914,0.0
11.651,-0.148,-0.845,0.0
11.055,-0.142,-0.866,0.0
10.411,-0.136,-0.876,0.0
9.915,-0.131,-0.893,0.0
9.432,-0.126,-0.904,0.0
8.98,-0.121,-0.913,0.0
11.497,-0.158,-0.85,0.0
10.906,-0.152,-0.869,0.0
10.295,-0.145,-0.88,0.0
9.767,-0.139,-0.893,0.0
9.304,-0.134,-0.905,0.0
8.842,-0.128,-0.912,0.0
11.352,-0.168,-0.855,0.0
10.726,-0.16,-0.87,0.0
10.162,-0.153,-0.883,0.0
9.662,-0.147,-0.897,0.0
9.214,-0.142,-0.909,0.0
8.741,-0.136,-0.913,0.0
11.16,-0.176,-0.855,0.0
10.574,-0.169,-0.871,0.0
10.047,-0.162,-0.886,0.0
9.515,-0.155,-0.896,0.0
9.135,-0.15,-0.913,0.0
8.699,-0.144,-0.92,0.0
11.039,-0.186,-0.86,0.0
10.434,-0.178,-0.874,0.0
9.907,-0.17,-0.887,0.0
9.429,-0.164,-0.9,0.0
8.995,-0.158,-0.911,0.0
8.571,-0.152,-0.918,0.0
10.916,-0.196,-0.865,0.0
10.341,-0.187,-0.879,0.0
9.804,-0.179,-0.89,0.0
9.347,-0.172,-0.904,0.0
8.959,-0.167,-0.918,0.0
8.499,-0.16,-0.921,0.0
10.785,-0.206,-0.867,0.0
10.24,-0.197,-0.883,0.0
9.736,-0.189,-0.896,0.0
9.256,-0.181,-0.906,0.0
8.767,-0.173,-0.909,0.0
8.436,-0.168,-0.924,0.0
10.646,-0.215,-0.869,0.0
10.132,-0.206,-0.886,0.0
9.598,-0.197,-0.894,0.0
9.147,-0.189,-0.906,0.0
8.703,-0.182,-0.913,0.0
8.344,-0.176,-0.924,0.0
10.511,-0.224,-0.87,0.0
10.003,-0.215,-0.886,0.0
9.542,-0.207,-0.9,0.0
9.067,-0.198,-0.909,0.0
8.655,-0.191,-0.918,0.0
8.258,-0.183,-0.924,0.0
10.421,-0.234,-0.874,0.0
9.908,-0.224,-0.888,0.0
9.427,-0.215,-0.9,0.0
9.001,-0.207,-0.912,0.0
8.517,-0.198,-0.912,0.0
8.224,-0.192,-0.929,0.0
10.332,-0.244,-0.878,0.0
9.859,-0.235,-0.894,0.0
9.301,-0.223,-0.898,0.0
8.933,-0.216,-0.915,0.0
8.471,-0.207,-0.916,0.0
8.137,-0.2,-0.928,0.0
10.263,-0.255,-0.882,0.0
9.757,-0.244,-0.895,0.0
9.261,-0.233,-0.903,0.0
0.0,0.0,0.0,0.0
8.474,-0.217,-0.925,0.0
8.065,-0.208,-0.928,0.0
0.0,0.0,0.0,0.0
111.143,-0.248,0.874,9.0
0.0,0.0,0.0,0.0
0.0,0.0,0.0,0.0
45.118,-0.053,-0.384,1.0
37.471,-0.031,-0.523,0.0
111.075,-0.054,1.522,11.0
111.202,-0.015,0.919,8.0
95.524,0.021,0.27,4.0
0.0,0.0,0.0,0.0
45.85,0.042,-0.373,0.0
0.0,0.0,0.0,0.0
111.141,0.18,1.563,18.0
111.165,0.219,0.959,12.0
92.287,0.214,0.293,1.0
0.0,0.0,0.0,0.0
47.606,0.143,-0.371,0.0
0.0,0.0,0.0,0.0
111.241,0.415,1.601,18.0
111.024,0.453,0.993,17.0
90.859,0.403,0.317,3.0
0.0,0.0,0.0,0.0
0.0,0.0,0.0,0.0
0.0,0.0,0.0,0.0
111.081,0.653,1.632,19.0
104.989,0.655,0.97,17.0
97.185,0.639,0.367,1.0
0.0,0.0,0.0,0.0
48.478,0.352,-0.35,0.0
39.704,0.302,-0.504,0.0
100.173,0.802,1.497,4.0
104.757,0.874,0.993,12.0
91.222,0.794,0.366,5.0
70.599,0.639,-0.108,0.0
48.599,0.456,-0.34,0.0
40.89,0.398,-0.51,0.0
98.589,0.999,1.495,25.0
98.515,1.032,0.955,22.0
85.483,0.925,0.361,10.0
0.0,0.0,0.0,0.0
0.0,0.0,0.0,0.0
40.958,0.486,-0.503,0.0
98.486,1.209,1.511,30.0
98.555,1.244,0.973,26.0
85.256,1.104,0.374,15.0
0.0,0.0,0.0,0.0
0.0,0.0,0.0,0.0
39.668,0.556,-0.481,0.0
98.649,1.422,1.528,20.0
92.043,1.359,0.921,18.0
84.902,1.283,0.384,10.0
74.831,1.158,-0.079,0.0
42.289,0.668,-0.276,0.0
0.0,0.0,0.0,0.0
91.866,1.523,1.433,4.0
91.859,1.555,0.928,28.0
84.672,1.461,0.391,9.0
72.574,1.278,-0.07,3.0
0.0,0.0,0.0,0.0
40.368,0.738,-0.482,0.0
91.945,1.72,1.44,28.0
91.987,1.753,0.935,12.0
84.807,1.646,0.396,5.0
70.431,1.391,-0.065,3.0
0.0,0.0,0.0,0.0
40.341,0.824,-0.48,0.0
85.301,1.778,1.338,34.0
85.277,1.807,0.869,36.0
84.759,1.824,0.397,6.0
68.656,1.501,-0.062,1.0
0.0,0.0,0.0,0.0
40.288,0.908,-0.48,0.0
85.259,1.961,1.337,36.0
85.263,1.988,0.867,30.0
78.787,1.864,0.367,6.0
66.87,1.605,-0.063,3.0
0.0,0.0,0.0,0.0
39.927,0.985,-0.477,0.0
79.005,1.984,1.235,17.0
74.717,1.901,0.756,11.0
71.789,1.85,0.331,8.0
65.124,1.699,-0.065,6.0
0.0,0.0,0.0,0.0
41.189,1.102,-0.496,0.0
78.863,2.146,1.227,34.0
78.851,2.173,0.791,25.0
71.999,2.007,0.325,9.0
63.507,1.792,-0.07,4.0
0.0,0.0,0.0,0.0
39.895,1.153,-0.485,0.0
78.897,2.315,1.218,25.0
78.947,2.341,0.782,16.0
71.875,2.156,0.315,11.0
61.965,1.88,-0.077,4.0
0.0,0.0,0.0,0.0
0.0,0.0,0.0,0.0
13.678,0.54,-0.835,0.0
12.809,0.502,-0.851,0.0
11.826,0.461,-0.85,0.0
11.194,0.434,-0.866,0.0
10.612,0.409,-0.879,0.0
10.105,0.387,-0.891,0.0
13.877,0.528,-0.832,0.0
12.984,0.491,-0.849,0.0
11.992,0.451,-0.849,0.0
11.319,0.423,-0.863,0.0
10.76,0.4,-0.879,0.0
10.203,0.377,-0.888,0.0
14.159,0.519,-0.833,0.0
13.229,0.482,-0.85,0.0
12.214,0.442,-0.85,0.0
11.412,0.411,-0.857,0.0
10.874,0.389,-0.875,0.0
10.332,0.367,-0.888,0.0
14.31,0.505,-0.825,0.0
13.409,0.47,-0.845,0.0
12.367,0.431,-0.846,0.0
11.527,0.399,-0.852,0.0
11.007,0.378,-0.873,1.0
