X,Y,Z,Reflectivity
81.013,-1.854,3.78,29.0
44.927,-1.035,3.355,29.0
44.99,-1.036,3.125,17.0
51.379,-1.183,3.302,33.0
51.823,-1.192,3.056,30.0
73.956,-1.701,3.977,42.0
80.924,-1.861,3.933,10.0
44.823,-1.037,3.434,13.0
51.701,-1.196,3.692,5.0
51.542,-1.191,3.412,23.0
51.639,-1.193,3.145,33.0
73.676,-1.7,4.104,25.0
74.329,-1.714,3.754,30.0
43.819,-1.017,3.441,18.0
44.987,-1.043,3.298,16.0
44.947,-1.041,3.061,28.0
51.454,-1.191,3.231,27.0
51.889,-1.199,2.988,14.0
74.153,-1.712,3.885,32.0
43.557,-1.012,3.504,42.0
44.848,-1.041,3.373,24.0
45.08,-1.045,3.156,17.0
51.39,-1.189,3.325,28.0
51.756,-1.196,3.079,31.0
73.882,-1.705,4.012,35.0
43.678,-1.014,3.597,41.0
47.329,-1.098,3.65,5.0
55.35,-1.281,3.979,5.0
51.591,-1.192,3.435,18.0
51.584,-1.19,3.165,31.0
73.647,-1.696,4.135,19.0
43.744,-1.014,3.684,30.0
43.654,-1.01,3.448,32.0
44.968,-1.038,3.316,19.0
44.925,-1.035,3.074,28.0
51.379,-1.181,3.248,37.0
51.845,-1.19,3.008,18.0
43.725,-1.009,3.765,19.0
43.488,-1.002,3.516,39.0
44.96,-1.033,3.399,19.0
51.719,-1.186,3.635,11.0
51.444,-1.177,3.347,34.0
51.753,-1.181,3.097,30.0
43.305,-0.995,3.808,19.0
43.615,-0.999,3.606,33.0
43.88,-1.002,3.398,14.0
45.083,-1.027,3.251,23.0
51.587,-1.172,3.45,14.0
51.385,-1.164,3.169,34.0
42.88,-0.978,3.849,42.0
43.822,-0.996,3.704,34.0
43.396,-0.983,3.44,43.0
45.019,-1.017,3.328,32.0
44.939,-1.013,3.087,13.0
51.377,-1.154,3.261,33.0
42.86,-0.969,3.926,41.0
43.603,-0.982,3.764,40.0
43.289,-0.972,3.51,41.0
45.015,-1.008,3.409,33.0
51.69,-1.153,3.644,17.0
51.385,-1.142,3.353,30.0
43.123,-0.965,4.027,21.0
43.073,-0.96,3.795,47.0
43.71,-0.971,3.622,37.0
44.194,-0.978,3.425,20.0
51.688,-1.139,3.736,5.0
51.469,-1.13,3.45,15.0
43.692,-0.965,4.158,31.0
42.765,-0.941,3.845,43.0
43.721,-0.958,3.701,34.0
43.054,-0.94,3.414,45.0
45.005,-0.978,3.332,13.0
51.61,-1.117,3.551,15.0
43.556,-0.949,4.223,44.0
42.842,-0.929,3.927,42.0
43.675,-0.943,3.774,40.0
43.181,-0.928,3.499,38.0
45.015,-0.963,3.411,18.0
51.549,-1.098,3.636,6.0
43.44,-0.931,4.288,37.0
43.187,-0.921,4.034,29.0
42.887,-0.911,3.779,50.0
43.196,-0.913,3.574,33.0
44.1,-0.927,3.416,24.0
51.368,-1.075,3.71,10.0
43.341,-0.913,4.352,42.0
43.497,-0.911,4.137,42.0
42.675,-0.89,3.832,42.0
43.125,-0.894,3.641,39.0
43.158,-0.89,3.416,36.0
45.085,-0.925,3.331,31.0
43.45,-0.897,4.436,42.0
43.434,-0.892,4.204,45.0
42.656,-0.871,3.902,40.0
42.72,-0.867,3.678,40.0
42.97,-0.868,3.472,44.0
44.903,-0.902,3.392,23.0
43.354,-0.876,4.498,42.0
43.335,-0.87,4.265,42.0
42.888,-0.856,3.993,28.0
42.686,-0.847,3.744,39.0
42.92,-0.846,3.538,40.0
42.992,-0.843,3.317,39.0
43.504,-0.857,4.585,40.0
43.305,-0.848,4.333,41.0
43.359,-0.844,4.108,31.0
42.728,-0.826,3.817,33.0
42.864,-0.824,3.602,40.0
42.935,-0.82,3.381,43.0
43.324,-0.832,4.636,41.0
43.283,-0.825,4.401,40.0
43.388,-0.821,4.18,42.0
42.025,-0.79,3.821,44.0
42.558,-0.795,3.644,42.0
42.73,-0.792,3.433,35.0
43.258,-0.806,4.697,39.0
43.293,-0.801,4.47,38.0
42.656,-0.784,4.176,26.0
42.086,-0.768,3.892,32.0
42.261,-0.765,3.684,42.0
42.689,-0.767,3.495,40.0
43.536,-0.787,4.795,35.0
43.248,-0.775,4.532,44.0
42.396,-0.754,4.216,18.0
43.964,-0.776,4.133,8.0
42.001,-0.735,3.725,41.0
42.844,-0.744,3.572,41.0
43.945,-0.767,4.906,22.0
43.184,-0.748,4.59,42.0
42.687,-0.733,4.309,32.0
41.77,-0.711,3.989,31.0
41.983,-0.709,3.785,41.0
42.419,-0.71,3.599,43.0
44.014,-0.74,4.979,19.0
43.522,-0.725,4.69,33.0
43.209,-0.714,4.425,45.0
41.914,-0.686,4.064,30.0
41.973,-0.68,3.846,44.0
42.018,-0.675,3.626,44.0
0.0,0.0,0.0,0.0
43.661,-0.698,4.768,39.0
43.354,-0.687,4.502,38.0
41.927,-0.657,4.125,27.0
41.888,-0.65,3.897,42.0
42.016,-0.646,3.684,38.0
41.711,-0.644,4.838,24.0
43.923,-0.671,4.858,24.0
0.0,0.0,0.0,0.0
41.831,-0.626,4.173,32.0
41.819,-0.62,3.948,45.0
41.977,-0.616,3.738,38.0
41.481,-0.611,4.869,34.0
41.275,-0.601,4.622,40.0
0.0,0.0,0.0,0.0
41.909,-0.597,4.238,28.0
41.82,-0.588,4.005,36.0
41.91,-0.583,3.789,44.0
41.297,-0.577,4.904,42.0
41.223,-0.569,4.672,36.0
41.334,-0.563,4.461,40.0
41.726,-0.562,4.275,22.0
41.879,-0.557,4.065,41.0
42.009,-0.552,3.853,35.0
41.406,-0.546,4.971,24.0
41.273,-0.537,4.732,35.0
41.26,-0.53,4.507,33.0
0.0,0.0,0.0,0.0
42.076,-0.526,4.138,26.0
42.115,-0.519,3.916,35.0
41.37,-0.512,5.02,32.0
41.077,-0.501,4.762,30.0
41.283,-0.496,4.562,34.0
41.436,-0.491,4.351,41.0
0.0,0.0,0.0,0.0
42.062,-0.484,3.963,33.0
41.199,-0.475,5.051,23.0
41.026,-0.466,4.807,41.0
41.317,-0.462,4.616,43.0
41.466,-0.456,4.404,38.0
41.541,-0.45,4.188,43.0
41.771,-0.445,3.985,42.0
41.237,-0.44,5.105,33.0
41.035,-0.431,4.857,38.0
41.088,-0.424,4.639,36.0
41.232,-0.418,4.428,42.0
41.405,-0.413,4.222,35.0
41.667,-0.408,4.024,43.0
41.17,-0.403,5.145,37.0
40.98,-0.394,4.898,41.0
41.112,-0.388,4.689,30.0
41.264,-0.382,4.478,42.0
41.288,-0.374,4.257,47.0
41.623,-0.37,4.066,40.0
41.135,-0.366,5.187,37.0
40.943,-0.356,4.939,22.0
41.223,-0.351,4.748,32.0
41.205,-0.344,4.518,35.0
41.297,-0.337,4.303,41.0
41.64,-0.331,4.113,36.0
41.204,-0.328,5.241,38.0
41.149,-0.32,5.009,21.0
40.929,-0.311,4.758,40.0
41.403,-0.306,4.583,25.0
41.28,-0.298,4.345,39.0
41.375,-0.291,4.13,45.0
41.138,-0.289,5.276,42.0
43.241,-0.295,5.308,3.0
40.94,-0.272,4.802,45.0
41.635,-0.268,4.652,33.0
41.113,-0.257,4.369,41.0
41.17,-0.25,4.151,44.0
41.162,-0.249,5.32,41.0
41.043,-0.24,5.08,41.0
41.055,-0.232,4.856,48.0
41.713,-0.227,4.702,32.0
41.188,-0.217,4.417,40.0
41.189,-0.21,4.193,36.0
41.218,-0.208,5.368,27.0
41.054,-0.199,5.12,49.0
41.062,-0.192,4.896,41.0
41.435,-0.185,4.709,16.0
41.181,-0.176,4.455,36.0
41.27,-0.169,4.239,35.0
41.282,-0.167,5.414,37.0
41.176,-0.159,5.173,41.0
41.166,-0.151,4.946,21.0
41.317,-0.144,4.732,16.0
41.143,-0.134,4.487,21.0
41.327,-0.127,4.281,33.0
0.0,0.0,0.0,0.0
41.121,-0.117,5.202,42.0
43.206,-0.115,5.227,2.0
41.267,-0.101,4.761,44.0
41.095,-0.093,4.516,29.0
41.615,-0.086,4.345,28.0
48.081,-0.096,6.388,12.0
45.17,-0.082,5.751,4.0
40.983,-0.066,4.992,43.0
41.173,-0.058,4.784,40.0
41.141,-0.05,4.554,30.0
41.683,-0.043,4.385,31.0
42.203,-0.04,5.641,15.0
41.22,-0.031,5.281,13.0
41.037,-0.023,5.03,32.0
41.164,-0.015,4.814,24.0
41.325,-0.007,4.606,30.0
41.523,0.0,4.399,16.0
42.139,0.004,5.664,41.0
41.333,0.012,5.326,28.0
41.112,0.019,5.07,25.0
40.959,0.027,4.82,40.0
41.406,0.036,4.644,16.0
41.149,0.043,4.389,40.0
42.218,0.049,5.704,34.0
41.783,0.057,5.413,17.0
41.102,0.064,5.097,34.0
40.943,0.072,4.846,34.0
41.09,0.08,4.636,28.0
41.195,0.089,4.421,39.0
42.161,0.095,5.725,50.0
41.878,0.103,5.453,18.0
41.145,0.109,5.129,32.0
41.016,0.117,4.881,31.0
41.503,0.126,4.709,20.0
41.234,0.134,4.451,35.0
42.134,0.141,5.747,41.0
42.42,0.151,5.549,40.0
41.141,0.154,5.153,41.0
40.998,0.162,4.903,40.0
41.136,0.171,4.691,41.0
41.384,0.18,4.491,25.0
42.241,0.189,5.786,33.0
42.375,0.198,5.567,36.0
41.008,0.2,5.159,29.0
40.843,0.207,4.907,36.0
41.244,0.217,4.726,24.0
47.154,0.258,5.142,4.0
42.251,0.237,5.81,38.0
42.337,0.246,5.585,37.0
40.638,0.244,5.133,42.0
40.732,0.252,4.914,43.0
41.28,0.264,4.75,46.0
41.224,0.272,4.515,33.0
42.158,0.284,5.818,41.0
42.288,0.293,5.598,42.0
40.892,0.291,5.184,42.0
40.695,0.298,4.928,42.0
41.227,0.31,4.763,43.0
41.092,0.317,4.518,33.0
42.189,0.332,5.84,43.0
42.232,0.34,5.609,42.0
40.832,0.337,5.194,39.0
40.597,0.343,4.932,41.0
41.133,0.355,4.768,40.0
41.077,0.363,4.533,43.0
41.665,0.375,5.784,24.0
42.026,0.387,5.597,36.0
40.649,0.382,5.186,38.0
40.723,0.391,4.963,42.0
41.01,0.402,4.769,45.0
41.148,0.411,4.555,41.0
41.368,0.42,5.757,40.0
41.491,0.43,5.54,21.0
40.815,0.43,5.22,36.0
40.729,0.437,4.976,40.0
40.864,0.447,4.764,50.0
41.202,0.458,4.573,42.0
40.874,0.462,5.7,50.0
40.602,0.467,5.433,32.0
40.691,0.475,5.216,41.0
40.625,0.482,4.975,46.0
41.009,0.495,4.792,41.0
41.264,0.506,4.591,38.0
41.061,0.511,5.737,35.0
40.575,0.513,5.439,42.0
40.677,0.522,5.223,37.0
40.724,0.53,4.996,48.0
41.011,0.542,4.801,40.0
40.95,0.549,4.564,38.0
41.552,1.309,5.684,36.0
40.707,1.288,5.333,35.0
40.937,1.3,5.128,34.0
40.662,1.297,4.856,30.0
40.912,1.311,4.651,18.0
40.712,1.309,4.396,39.0
41.505,1.349,5.654,34.0
40.599,1.326,5.295,41.0
41.222,1.351,5.139,28.0
40.583,1.335,4.822,42.0
0.0,0.0,0.0,0.0
40.689,1.349,4.368,35.0
41.406,1.387,5.614,22.0
40.621,1.366,5.273,39.0
41.233,1.392,5.114,39.0
41.093,1.392,4.856,19.0
41.789,1.421,4.699,37.0
40.657,1.388,4.339,21.0
44.238,1.526,5.969,6.0
40.783,1.411,5.266,31.0
40.945,1.422,5.051,29.0
41.305,1.439,4.853,28.0
41.068,1.436,4.589,28.0
40.55,1.423,4.299,44.0
40.884,1.45,5.487,18.0
41.071,1.461,5.274,29.0
40.95,1.461,5.022,33.0
41.147,1.473,4.805,12.0
40.754,1.464,4.524,30.0
40.533,1.46,4.267,43.0
40.984,1.491,5.47,24.0
41.265,1.506,5.268,24.0
40.957,1.499,4.992,34.0
41.1,1.509,4.768,7.0
41.212,1.518,4.543,21.0
40.523,1.497,4.235,39.0
40.866,1.525,5.421,40.0
41.466,1.552,5.26,30.0
40.939,1.536,4.957,41.0
42.626,1.604,4.91,16.0
40.752,1.538,4.46,37.0
40.542,1.534,4.204,33.0
40.854,1.561,5.386,40.0
40.876,1.566,5.151,25.0
40.952,1.573,4.924,16.0
42.531,1.638,4.864,36.0
40.623,1.568,4.411,34.0
40.522,1.568,4.167,40.0
40.82,1.595,5.346,37.0
40.892,1.602,5.117,31.0
40.942,1.608,4.886,5.0
42.45,1.671,4.817,39.0
40.581,1.601,4.37,37.0
40.577,1.605,4.136,36.0
40.949,1.635,5.325,35.0
40.973,1.64,5.09,14.0
60.75,2.437,7.194,8.0
40.694,1.636,4.579,26.0
40.613,1.637,4.336,36.0
40.51,1.636,4.092,26.0
40.911,1.667,5.281,34.0
41.32,1.687,5.093,5.0
44.967,1.84,5.282,19.0
40.671,1.668,4.538,41.0
40.614,1.669,4.297,15.0
41.094,1.692,4.111,16.0
44.601,1.854,5.713,13.0
44.461,1.851,5.436,6.0
45.32,1.891,5.278,28.0
40.645,1.699,4.494,43.0
40.492,1.696,4.243,39.0
41.259,1.731,4.085,17.0
44.633,1.889,5.671,5.0
44.669,1.894,5.415,4.0
0.0,0.0,0.0,0.0
40.658,1.73,4.453,39.0
40.516,1.727,4.203,37.0
41.0,1.751,4.017,16.0
41.501,1.787,5.228,25.0
41.579,1.793,4.996,34.0
44.967,1.943,5.142,7.0
40.668,1.76,4.41,37.0
41.091,1.781,4.219,34.0
40.711,1.768,3.945,28.0
41.508,1.817,5.183,13.0
41.612,1.824,4.954,38.0
47.723,2.096,5.404,5.0
45.084,1.983,4.839,4.0
41.007,1.806,4.164,35.0
40.631,1.792,3.891,34.0
41.6,1.85,5.148,25.0
41.769,1.86,4.925,16.0
40.682,1.814,4.56,24.0
43.153,1.927,4.583,6.0
41.141,1.839,4.131,22.0
40.622,1.818,3.844,39.0
40.797,2.079,4.073,42.0
40.782,2.077,3.834,33.0
40.752,2.074,3.594,38.0
40.309,2.05,3.316,44.0
40.558,2.062,3.101,34.0
40.748,2.07,2.879,39.0
40.84,2.084,4.011,45.0
40.469,2.063,3.739,41.0
40.681,2.072,3.521,16.0
40.382,2.056,3.256,37.0
40.581,2.064,3.036,38.0
40.811,2.074,2.817,38.0
40.896,2.087,3.95,35.0
40.38,2.059,3.664,41.0
40.408,2.058,3.432,23.0
40.445,2.058,3.195,31.0
40.672,2.068,2.977,39.0
40.787,2.073,2.748,40.0
40.901,2.086,3.882,34.0
40.796,2.079,3.634,38.0
40.287,2.051,3.354,45.0
40.536,2.062,3.134,30.0
40.68,2.067,2.909,40.0
41.019,2.082,2.696,38.0
40.659,2.071,3.791,36.0
40.585,2.065,3.547,44.0
40.356,2.051,3.292,40.0
40.543,2.059,3.067,39.0
40.848,2.072,2.853,36.0
40.978,2.076,2.625,40.0
40.392,2.053,3.697,43.0
40.515,2.057,3.473,22.0
40.408,2.049,3.228,30.0
40.574,2.055,3.001,45.0
40.784,2.063,2.78,44.0
41.003,2.072,2.557,39.0
40.594,2.057,3.647,54.0
40.309,2.04,3.386,40.0
40.471,2.046,3.164,19.0
40.639,2.051,2.937,42.0
40.886,2.061,2.717,43.0
41.267,2.078,2.503,26.0
40.514,2.046,3.57,50.0
40.316,2.033,3.317,33.0
40.666,2.047,3.109,15.0
40.732,2.048,2.873,40.0
40.996,2.058,2.654,40.0
41.657,2.089,2.455,35.0
40.702,2.045,3.516,47.0
40.284,2.021,3.245,36.0
40.549,2.032,3.03,43.0
40.771,2.039,2.806,42.0
41.027,2.049,2.585,42.0
41.633,2.077,2.382,22.0
40.47,2.023,3.426,37.0
40.342,2.013,3.18,32.0
40.642,2.025,2.967,36.0
40.87,2.033,2.742,42.0
41.059,2.039,2.516,41.0
41.652,2.065,2.311,31.0
40.27,2.0,3.339,39.0
40.46,2.006,3.119,32.0
40.663,2.013,2.898,41.0
40.992,2.025,2.679,46.0
41.488,2.046,2.471,31.0
59.501,2.93,3.199,12.0
40.274,1.986,3.269,37.0
40.562,1.997,3.055,40.0
40.811,2.005,2.837,37.0
40.986,2.01,2.607,41.0
41.719,2.042,2.411,11.0
59.45,2.905,3.092,14.0
40.324,1.973,3.201,44.0
40.732,1.988,2.996,41.0
40.834,1.99,2.766,47.0
40.926,1.99,2.531,44.0
41.644,2.021,2.334,36.0
59.456,2.88,2.988,14.0
40.356,1.957,3.133,41.0
40.845,1.976,2.933,37.0
40.962,1.978,2.703,44.0
41.424,1.995,2.489,32.0
52.697,2.534,2.862,17.0
59.459,2.853,2.884,27.0
40.53,1.946,3.075,32.0
40.757,1.952,2.855,36.0
41.025,1.961,2.635,42.0
41.695,1.988,2.432,26.0
59.487,2.83,3.125,7.0
59.492,2.824,2.78,12.0
40.513,1.924,3.002,36.0
40.84,1.935,2.788,48.0
41.146,1.945,2.571,35.0
59.44,2.803,3.362,15.0
59.483,2.798,3.02,27.0
52.642,2.471,2.368,11.0
40.718,1.911,2.945,45.0
40.996,1.919,2.726,41.0
41.466,1.936,2.516,41.0
52.87,2.462,2.896,23.0
59.588,2.768,2.919,5.0
52.987,2.455,2.289,14.0
40.792,1.89,2.876,39.0
41.003,1.894,2.653,47.0
41.639,1.919,2.452,24.0
52.933,2.432,2.805,23.0
52.598,2.41,2.482,5.0
52.923,2.419,2.192,9.0
40.889,1.868,2.811,30.0
41.14,1.874,2.589,38.0
59.499,2.702,3.398,16.0
65.873,2.983,3.374,6.0
52.632,2.377,2.391,19.0
52.826,2.379,2.094,18.0
41.07,1.848,2.75,48.0
41.811,1.876,2.557,21.0
52.972,2.369,2.932,8.0
65.908,2.939,3.26,19.0
52.506,2.335,2.293,15.0
66.078,2.929,2.503,15.0
41.066,1.818,2.677,48.0
41.759,1.843,2.48,10.0
52.868,2.326,2.833,5.0
65.95,2.892,3.145,20.0
66.015,2.886,2.766,9.0
66.041,2.878,2.385,23.0
41.244,1.795,2.615,17.0
64.966,2.817,3.742,7.0
65.955,2.85,3.416,20.0
52.913,2.278,2.428,24.0
66.0,2.832,2.647,18.0
66.027,2.825,2.267,27.0
41.974,1.792,2.586,39.0
65.536,2.788,3.658,40.0
65.922,2.795,3.298,23.0
65.954,2.786,2.911,13.0
66.006,2.779,2.532,29.0
66.059,2.771,2.152,28.0
65.062,2.724,3.894,30.0
65.475,2.73,3.539,41.0
52.815,2.194,2.549,18.0
65.994,2.731,2.796,17.0
66.053,2.723,2.417,29.0
66.136,2.716,2.038,24.0
65.685,2.691,3.816,36.0
65.4,2.669,3.419,41.0
66.069,2.685,3.071,18.0
66.066,2.674,2.683,25.0
66.159,2.667,2.304,19.0
194.859,7.827,5.663,18.0
65.83,2.636,3.709,38.0
65.013,2.593,3.286,4.0
52.73,2.094,2.36,6.0
66.18,2.617,2.572,25.0
0.0,0.0,0.0,0.0
194.878,7.644,5.325,20.0
72.79,2.846,3.974,9.0
66.13,2.573,3.228,32.0
66.166,2.564,2.847,19.0
190.79,7.361,7.088,24.0
195.478,7.51,6.135,15.0
120.043,4.591,3.074,11.0
66.244,2.524,3.502,20.0
66.255,2.512,3.119,27.0
72.516,2.737,2.995,11.0
190.727,7.165,6.757,20.0
194.537,7.274,5.77,12.0
120.071,4.469,2.868,8.0
66.235,2.455,3.388,28.0
72.504,2.674,3.289,26.0
72.51,2.66,2.87,21.0
72.455,2.646,2.443,29.0
72.452,2.632,2.025,30.0
72.417,2.618,1.606,26.0
72.393,2.606,3.58,18.0
72.411,2.592,3.161,36.0
72.411,2.579,2.743,34.0
72.402,2.565,2.318,39.0
72.383,2.551,1.9,32.0
72.369,2.537,1.482,31.0
72.348,2.524,3.454,34.0
72.39,2.511,3.037,36.0
72.405,2.497,2.62,39.0
72.382,2.483,2.195,35.0
72.379,2.469,1.778,34.0
72.378,2.455,1.361,33.0
72.376,2.442,3.334,30.0
72.431,2.429,2.919,36.0
72.425,2.415,2.501,34.0
72.432,2.401,2.076,37.0
72.414,2.386,1.657,33.0
72.413,2.372,1.241,32.0
72.46,2.359,3.217,30.0
72.532,2.346,2.801,20.0
72.58,2.333,2.384,1.0
119.957,3.832,3.237,17.0
119.928,3.808,2.546,4.0
120.058,3.787,1.857,7.0
118.055,3.7,5.046,12.0
78.818,2.454,2.914,13.0
206.471,6.385,6.444,13.0
74.6,2.291,1.89,7.0
74.179,2.262,1.452,4.0
78.957,2.392,1.092,14.0
117.651,3.539,4.834,9.0
78.844,2.355,2.785,27.0
78.887,2.34,2.333,25.0
75.82,2.232,1.797,4.0
75.128,2.195,1.348,5.0
75.033,2.176,0.914,6.0
78.864,2.271,3.112,12.0
78.803,2.251,2.656,26.0
78.767,2.232,2.2,17.0
77.099,2.168,1.702,1.0
76.949,2.146,1.255,4.0
77.176,2.137,0.816,3.0
78.793,2.163,2.981,28.0
78.837,2.146,2.529,31.0
78.858,2.13,2.076,31.0
78.906,2.113,1.615,34.0
78.884,2.094,1.16,34.0
78.895,2.077,0.708,28.0
78.831,2.057,2.857,27.0
78.966,2.042,2.408,16.0
119.989,3.076,2.969,12.0
119.97,3.049,2.267,13.0
85.366,2.15,1.122,11.0
79.014,1.971,0.585,14.0
78.902,1.948,2.736,18.0
85.281,2.086,2.466,29.0
85.274,2.066,1.976,30.0
85.257,2.045,1.477,33.0
85.25,2.025,0.987,32.0
78.825,1.854,0.46,7.0
85.249,1.984,2.824,29.0
85.231,1.962,2.332,36.0
85.23,1.941,1.842,38.0
85.227,1.921,1.344,40.0
85.248,1.902,0.855,30.0
72.067,1.59,0.309,5.0
85.29,1.86,2.694,31.0
85.302,1.839,2.204,33.0
85.311,1.818,1.714,34.0
85.315,1.797,1.215,32.0
85.287,1.776,0.726,22.0
72.239,1.487,0.201,5.0
91.856,1.867,2.763,29.0
87.072,1.748,2.119,16.0
87.3,1.731,1.624,33.0
87.489,1.713,1.117,32.0
85.442,1.651,0.6,18.0
71.857,1.371,0.093,3.0
91.8,1.727,2.626,27.0
91.802,1.704,2.1,29.0
91.826,1.681,1.573,17.0
91.813,1.658,1.038,16.0
84.771,1.509,0.472,9.0
73.132,1.283,-0.011,3.0
91.862,1.586,2.493,28.0
91.884,1.562,1.967,38.0
91.896,1.538,1.44,42.0
91.883,1.516,0.905,35.0
81.04,1.316,0.334,5.0
0.0,0.0,0.0,0.0
189.55,2.975,4.874,19.0
99.251,1.532,1.984,12.0
92.021,1.396,1.312,8.0
92.157,1.373,0.776,13.0
80.978,1.186,0.219,2.0
50.132,0.72,-0.151,0.0
98.581,1.389,2.396,30.0
98.579,1.363,1.831,27.0
98.546,1.335,1.266,35.0
98.298,1.305,0.69,11.0
78.448,1.021,0.102,1.0
0.0,0.0,0.0,0.0
98.56,1.228,2.259,31.0
98.546,1.2,1.694,32.0
98.516,1.174,1.131,30.0
85.484,0.996,0.484,7.0
78.668,0.894,-0.004,0.0
0.0,0.0,0.0,0.0
98.64,1.065,2.127,28.0
98.636,1.037,1.562,26.0
98.569,1.009,0.998,20.0
85.404,0.852,0.368,4.0
0.0,0.0,0.0,0.0
46.476,0.437,-0.33,0.0
19.993,-1.052,-0.088,24.0
20.046,-1.062,-0.2,3.0
0.0,0.0,0.0,0.0
29.05,-1.56,-0.615,0.0
24.666,-1.334,-0.659,0.0
21.815,-1.188,-0.704,0.0
20.032,-1.094,-0.091,7.0
0.0,0.0,0.0,0.0
0.0,0.0,0.0,0.0
0.0,0.0,0.0,0.0
24.833,-1.391,-0.667,0.0
21.98,-1.24,-0.712,0.0
51.483,-2.912,-0.241,0.0
20.016,-1.139,-0.204,0.0
34.211,-1.96,-0.539,1.0
20.0,-1.153,-0.428,4.0
19.989,-1.16,-0.539,18.0
19.982,-1.166,-0.649,32.0
20.004,-1.17,-0.095,150.0
20.016,-1.178,-0.206,152.0
19.986,-1.184,-0.316,150.0
19.98,-1.191,-0.429,150.0
19.982,-1.198,-0.54,150.0
19.981,-1.206,-0.65,75.0
19.981,-1.208,-0.096,150.0
19.997,-1.216,-0.206,39.0
20.041,-1.226,-0.318,5.0
20.088,-1.237,-0.431,11.0
20.101,-1.245,-0.543,6.0
20.106,-1.253,-0.654,8.0
20.015,-1.249,-0.096,29.0
20.027,-1.257,-0.206,29.0
20.06,-1.267,-0.318,26.0
20.078,-1.275,-0.431,28.0
20.103,-1.284,-0.542,29.0
20.115,-1.292,-0.654,23.0
19.995,-1.287,-0.095,35.0
20.025,-1.296,-0.205,30.0
20.045,-1.305,-0.316,26.0
20.068,-1.313,-0.429,28.0
20.1,-1.323,-0.541,25.0
20.119,-1.331,-0.653,12.0
20.005,-1.326,-0.093,28.0
20.021,-1.334,-0.204,27.0
20.061,-1.344,-0.315,25.0
20.068,-1.351,-0.428,10.0
25.077,-1.698,-0.673,0.0
22.002,-1.498,-0.712,0.0
20.013,-1.364,-0.091,17.0
20.038,-1.373,-0.201,8.0
35.157,-2.422,-0.548,0.0
29.262,-2.026,-0.62,0.0
25.003,-1.74,-0.667,0.0
21.931,-1.534,-0.706,0.0
47.718,-3.343,-0.21,1.0
0.0,0.0,0.0,0.0
35.284,-2.497,-0.544,0.0
30.007,-2.134,-0.63,1.0
24.929,-1.782,-0.661,0.0
22.39,-1.608,-0.717,0.0
45.072,-3.241,-0.19,0.0
40.883,-2.954,-0.397,1.0
0.0,0.0,0.0,0.0
29.45,-2.149,-0.613,0.0
24.885,-1.825,-0.655,0.0
22.358,-1.648,-0.711,0.0
45.13,-3.329,-0.18,9.0
37.355,-2.768,-0.354,2.0
35.748,-2.662,-0.535,0.0
29.202,-2.185,-0.6,0.0
25.757,-1.936,-0.671,0.0
22.348,-1.688,-0.705,0.0
40.646,-3.072,-0.152,0.0
0.0,0.0,0.0,0.0
32.96,-2.514,-0.485,1.0
29.684,-2.274,-0.602,0.0
25.395,-1.955,-0.654,0.0
22.195,-1.716,-0.694,0.0
40.704,-3.15,-0.14,0.0
36.518,-2.839,-0.326,13.0
30.994,-2.42,-0.446,1.0
29.812,-2.338,-0.595,1.0
0.0,0.0,0.0,0.0
22.288,-1.763,-0.689,0.0
50.109,-3.967,-0.156,8.0
40.438,-3.216,-0.347,4.0
32.078,-2.562,-0.451,9.0
27.787,-2.228,-0.545,1.0
27.293,-2.199,-0.685,0.0
22.734,-1.839,-0.695,0.0
49.103,-3.975,-0.135,24.0
35.656,-2.898,-0.292,2.0
30.071,-2.454,-0.411,17.0
26.53,-2.174,-0.51,3.0
25.645,-2.111,-0.634,1.0
23.011,-1.902,-0.694,0.0
0.0,0.0,0.0,0.0
35.712,-2.965,-0.278,0.0
29.908,-2.493,-0.396,7.0
26.783,-2.241,-0.504,2.0
24.108,-2.026,-0.585,2.0
22.988,-1.94,-0.684,0.0
0.0,0.0,0.0,0.0
42.007,-3.559,-0.309,2.0
29.854,-2.54,-0.382,1.0
26.615,-2.273,-0.489,23.0
23.452,-2.01,-0.559,3.0
22.695,-1.953,-0.665,1.0
50.032,-4.308,-0.071,25.0
41.952,-3.625,-0.289,12.0
29.883,-2.592,-0.368,150.0
26.734,-2.328,-0.478,25.0
23.64,-2.066,-0.551,5.0
21.513,-1.887,-0.619,1.0
50.618,-4.443,-0.047,25.0
41.088,-3.619,-0.262,16.0
29.865,-2.64,-0.353,5.0
27.064,-2.401,-0.47,20.0
23.482,-2.091,-0.536,20.0
20.904,-1.868,-0.591,2.0
50.837,-4.545,-0.02,26.0
41.668,-3.738,-0.243,17.0
29.899,-2.692,-0.337,1.0
27.787,-2.51,-0.467,25.0
22.866,-2.073,-0.509,19.0
21.161,-1.925,-0.586,2.0
51.185,-4.658,0.008,26.0
0.0,0.0,0.0,0.0
29.863,-2.736,-0.319,0.0
28.466,-2.617,-0.462,25.0
23.133,-2.134,-0.501,10.0
21.169,-1.96,-0.574,10.0
51.638,-4.781,0.039,19.0
43.224,-4.016,-0.201,18.0
37.165,-3.464,-0.375,3.0
29.297,-2.74,-0.457,11.0
23.427,-2.198,-0.493,13.0
20.916,-1.969,-0.554,19.0
51.773,-4.875,0.071,6.0
43.786,-4.135,-0.176,19.0
36.287,-3.438,-0.343,13.0
29.463,-2.801,-0.441,10.0
23.556,-2.246,-0.481,17.0
20.602,-1.971,-0.532,18.0
51.496,-4.927,0.105,4.0
44.398,-4.261,-0.149,19.0
36.938,-3.556,-0.324,16.0
30.086,-2.905,-0.43,4.0
23.567,-2.283,-0.465,15.0
20.815,-2.023,-0.523,22.0
54.919,-5.337,0.15,3.0
45.236,-4.409,-0.12,20.0
37.463,-3.662,-0.303,16.0
30.169,-2.958,-0.41,19.0
23.552,-2.316,-0.447,13.0
21.125,-2.084,-0.516,21.0
67.724,-6.681,0.234,0.0
46.079,-4.558,-0.09,21.0
38.221,-3.791,-0.281,18.0
30.221,-3.007,-0.389,23.0
23.553,-2.35,-0.43,6.0
21.949,-2.196,-0.52,20.0
79.673,-7.973,0.334,5.0
46.833,-4.699,-0.056,21.0
38.641,-3.888,-0.255,14.0
30.633,-3.091,-0.37,20.0
23.566,-2.385,-0.412,3.0
22.063,-2.239,-0.506,21.0
81.082,-8.227,0.403,10.0
47.578,-4.84,-0.02,22.0
38.949,-3.972,-0.227,14.0
0.0,0.0,0.0,0.0
23.588,-2.419,-0.394,0.0
22.368,-2.3,-0.495,20.0
81.1,-8.338,0.467,5.0
48.282,-4.977,0.018,22.0
33.129,-3.423,-0.166,53.0
0.0,0.0,0.0,0.0
28.115,-2.92,-0.447,1.0
22.817,-2.376,-0.486,21.0
33.148,-3.452,0.218,27.0
33.134,-3.459,0.039,70.0
33.099,-3.463,-0.138,76.0
33.06,-3.468,-0.32,63.0
27.832,-2.927,-0.419,27.0
22.999,-2.425,-0.471,13.0
33.115,-3.491,0.246,78.0
33.11,-3.498,0.067,85.0
33.094,-3.505,-0.11,82.0
33.084,-3.512,-0.292,75.0
28.526,-3.036,-0.405,21.0
23.356,-2.491,-0.457,17.0
33.115,-3.532,0.275,81.0
33.104,-3.539,0.096,81.0
33.112,-3.548,-0.081,55.0
33.103,-3.555,-0.263,35.0
0.0,0.0,0.0,0.0
23.65,-2.552,-0.442,40.0
33.13,-3.574,0.305,73.0
33.136,-3.582,0.127,46.0
45.204,-4.898,-0.069,19.0
37.365,-4.057,-0.263,15.0
29.921,-3.256,-0.371,28.0
23.72,-2.587,-0.422,31.0
33.159,-3.616,0.335,8.0
79.573,-8.695,0.378,2.0
46.361,-5.077,-0.028,21.0
38.144,-4.186,-0.233,21.0
30.363,-3.339,-0.348,18.0
24.939,-2.748,-0.42,21.0
110.517,-12.178,1.223,6.0
83.412,-9.209,0.475,5.0
47.546,-5.26,0.015,23.0
38.683,-4.288,-0.199,14.0
0.0,0.0,0.0,0.0
25.329,-2.819,-0.402,20.0
110.643,-12.314,1.332,8.0
79.012,-8.809,0.526,5.0
48.451,-5.412,0.062,16.0
0.0,0.0,0.0,0.0
35.412,-3.971,-0.338,14.0
27.495,-3.089,-0.41,12.0
75.338,-8.463,0.98,8.0
83.327,-9.377,0.635,1.0
50.143,-5.653,0.113,23.0
0.0,0.0,0.0,0.0
35.631,-4.032,-0.305,26.0
0.0,0.0,0.0,0.0
75.252,-8.53,1.054,26.0
75.272,-8.546,0.65,22.0
51.62,-5.871,0.169,3.0
42.697,-4.865,-0.093,17.0
36.217,-4.133,-0.273,12.0
28.944,-3.309,-0.373,19.0
75.211,-8.599,1.13,30.0
75.226,-8.614,0.727,31.0
75.156,-8.62,0.322,9.0
0.0,0.0,0.0,0.0
37.361,-4.299,-0.243,14.0
29.786,-3.433,-0.354,25.0
75.217,-8.67,1.208,25.0
75.215,-8.683,0.805,32.0
75.208,-8.695,0.401,17.0
46.523,-5.387,-0.005,21.0
38.268,-4.438,-0.209,20.0
30.722,-3.568,-0.333,24.0
75.24,-8.739,1.286,6.0
75.232,-8.75,0.883,27.0
75.201,-8.759,0.48,19.0
46.898,-5.47,0.043,6.0
38.721,-4.523,-0.171,14.0
35.302,-4.13,-0.345,2.0
73.279,-8.573,1.331,15.0
112.382,-13.165,1.439,13.0
75.255,-8.827,0.561,9.0
50.675,-5.952,0.1,25.0
0.0,0.0,0.0,0.0
35.379,-4.167,-0.308,23.0
119.093,-14.028,2.291,17.0
73.129,-8.625,1.015,30.0
89.782,-10.602,0.765,5.0
51.768,-6.121,0.159,14.0
42.44,-5.025,-0.096,17.0
35.971,-4.264,-0.274,15.0
72.98,-8.652,1.484,31.0
73.154,-8.682,1.096,25.0
89.805,-10.671,0.863,7.0
52.892,-6.293,0.221,1.0
0.0,0.0,0.0,0.0
37.146,-4.43,-0.242,14.0
73.327,-8.746,1.572,7.0
73.326,-8.755,1.179,3.0
91.456,-10.931,0.981,5.0
83.492,-9.991,0.441,4.0
46.495,-5.57,-0.003,20.0
38.061,-4.565,-0.205,24.0
73.501,-8.816,1.657,13.0
118.868,-14.271,2.046,15.0
73.28,-8.806,0.868,8.0
84.089,-10.116,0.538,13.0
47.172,-5.68,0.049,13.0
38.629,-4.657,-0.166,14.0
73.188,-8.824,1.732,17.0
73.59,-8.881,1.348,15.0
73.323,-8.856,0.952,4.0
84.93,-10.268,0.639,11.0
49.705,-6.015,0.108,7.0
0.0,0.0,0.0,0.0
72.936,-8.836,1.809,12.0
73.441,-8.904,1.428,8.0
73.271,-8.891,1.033,8.0
90.152,-10.949,0.78,4.0
52.309,-6.358,0.173,13.0
45.431,-5.527,-0.092,7.0
87.493,-10.647,2.269,6.0
73.342,-8.931,1.51,10.0
73.478,-8.954,1.12,16.0
90.429,-11.028,0.885,10.0
63.191,-7.713,0.281,6.0
0.0,0.0,0.0,0.0
76.772,-9.38,2.08,6.0
73.186,-8.947,1.591,22.0
73.579,-9.001,1.206,23.0
73.212,-8.962,0.802,5.0
83.311,-10.206,0.466,10.0
46.412,-5.69,0.012,21.0
76.707,-9.406,2.166,15.0
72.95,-8.95,1.669,25.0
73.636,-9.039,1.291,5.0
73.217,-8.993,0.885,29.0
0.0,0.0,0.0,0.0
47.476,-5.839,0.067,11.0
76.725,-9.439,2.256,16.0
76.728,-9.444,1.846,7.0
76.705,-9.445,1.435,11.0
73.29,-9.03,0.971,27.0
85.529,-10.543,0.676,4.0
50.859,-6.273,0.131,5.0
76.611,-9.452,2.342,16.0
75.142,-9.275,1.895,17.0
76.676,-9.467,1.523,15.0
73.536,-9.084,1.06,21.0
90.816,-11.224,0.825,5.0
52.533,-6.496,0.196,5.0
75.612,-9.353,2.4,11.0
75.239,-9.309,1.985,26.0
76.668,-9.489,1.613,16.0
76.657,-9.491,1.195,9.0
73.192,-9.065,0.75,9.0
66.844,-8.282,0.328,9.0
75.306,-9.334,2.478,22.0
75.285,-9.333,2.074,15.0
76.652,-9.505,1.702,17.0
76.666,-9.509,1.285,22.0
73.232,-9.086,0.836,24.0
83.56,-10.371,0.507,8.0
75.174,-9.334,2.561,28.0
75.636,-9.393,2.172,10.0
76.672,-9.523,1.792,17.0
76.627,-9.519,1.373,26.0
73.25,-9.101,0.921,9.0
85.154,-10.583,0.616,3.0
75.121,-9.34,2.648,35.0
78.954,-9.817,2.359,14.0
0.0,0.0,0.0,0.0
76.649,-9.532,1.464,24.0
76.666,-9.535,1.054,18.0
76.672,-9.538,0.644,7.0
75.216,-9.361,2.739,29.0
78.873,-9.816,2.45,26.0
75.386,-9.382,1.938,18.0
76.638,-9.538,1.552,25.0
76.628,-9.537,1.142,19.0
76.666,-9.542,0.733,9.0
75.369,-9.386,2.833,22.0
78.855,-9.819,2.54,20.0
75.421,-9.39,2.026,14.0
76.659,-9.544,1.642,21.0
76.655,-9.543,1.231,22.0
73.229,-9.116,0.785,13.0
0.0,0.0,0.0,0.0
78.714,-9.803,2.628,8.0
79.25,-9.868,2.22,6.0
76.66,-9.544,1.73,18.0
76.653,-9.542,1.319,25.0
73.244,-9.117,0.869,13.0
73.761,-9.186,2.942,8.0
75.116,-9.352,2.594,24.0
79.064,-9.841,2.307,15.0
76.672,-9.542,1.818,13.0
76.65,-9.537,1.408,24.0
76.641,-9.534,0.998,16.0
75.507,-9.399,3.099,11.0
75.151,-9.351,2.681,31.0
78.918,-9.816,2.393,22.0
75.55,-9.395,1.877,16.0
76.657,-9.53,1.494,23.0
76.662,-9.528,1.085,16.0
75.437,-9.382,3.182,17.0
75.325,-9.364,2.773,26.0
78.893,-9.803,2.481,14.0
75.376,-9.362,1.958,30.0
76.654,-9.518,1.58,22.0
76.672,-9.517,1.171,15.0
0.0,0.0,0.0,0.0
0.0,0.0,0.0,0.0
75.298,-9.343,2.453,17.0
75.329,-9.343,2.041,18.0
76.662,-9.504,1.668,18.0
76.668,-9.5,1.256,16.0
73.96,-9.172,3.286,13.0
73.771,-9.143,2.881,15.0
75.189,-9.313,2.532,36.0
75.214,-9.311,2.122,9.0
76.692,-9.489,1.753,16.0
76.69,-9.484,1.342,15.0
0.0,0.0,0.0,0.0
0.0,0.0,0.0,0.0
75.117,-9.284,2.614,35.0
76.673,-9.47,2.248,16.0
0.0,0.0,0.0,0.0
76.665,-9.458,1.426,13.0
73.916,-9.126,3.447,11.0
75.441,-9.307,3.113,26.0
75.321,-9.285,2.703,31.0
76.659,-9.444,2.332,19.0
75.175,-9.254,1.883,11.0
73.365,-9.026,1.444,7.0
73.79,-9.086,3.522,24.0
75.92,-9.34,3.215,11.0
75.445,-9.274,2.789,33.0
0.0,0.0,0.0,0.0
76.657,-9.408,2.003,14.0
73.294,-8.989,1.521,18.0
0.0,0.0,0.0,0.0
73.984,-9.073,3.213,8.0
73.798,-9.041,2.808,14.0
75.163,-9.201,2.447,22.0
76.716,-9.383,2.086,4.0
73.113,-8.935,1.594,27.0
72.228,-8.835,3.602,14.0
74.028,-9.046,3.293,9.0
73.805,-9.009,2.885,14.0
75.277,-9.18,2.529,29.0
75.043,-9.143,2.119,3.0
72.957,-8.881,1.667,31.0
72.23,-8.801,3.677,10.0
73.875,-8.991,3.363,20.0
75.768,-9.212,3.041,12.0
75.43,-9.161,2.614,18.0
75.012,-9.101,2.194,6.0
72.94,-8.841,1.741,18.0
72.191,-8.759,3.75,7.0
73.463,-8.903,3.419,25.0
0.0,0.0,0.0,0.0
75.331,-9.108,2.686,10.0
75.06,-9.065,2.272,9.0
73.232,-8.835,1.822,8.0
73.729,-8.904,3.905,14.0
73.364,-8.849,3.488,36.0
73.867,-8.899,3.113,16.0
76.811,-9.242,2.815,5.0
74.993,-9.013,2.344,11.0
92.769,-11.137,2.4,11.0
70.147,-8.429,3.784,10.0
73.193,-8.784,3.552,29.0
73.913,-8.858,3.188,29.0
73.463,-8.793,2.764,9.0
75.105,-8.978,2.421,14.0
73.004,-8.716,1.96,18.0
70.089,-8.377,3.849,16.0
72.301,-8.629,3.579,25.0
73.937,-8.812,3.261,28.0
73.223,-8.715,2.826,21.0
75.034,-8.918,2.491,21.0
78.69,-9.341,2.187,6.0
69.937,-8.311,3.907,18.0
72.265,-8.574,3.646,21.0
73.374,-8.693,3.305,46.0
73.296,-8.671,2.897,15.0
74.797,-8.836,2.552,10.0
78.693,-9.284,2.26,7.0
69.99,-8.266,3.975,24.0
72.321,-8.528,3.715,12.0
71.803,-8.454,3.299,8.0
73.111,-8.595,2.956,18.0
74.624,-8.76,2.613,10.0
78.645,-9.218,2.329,9.0
70.209,-8.238,4.051,15.0
70.245,-8.229,3.671,20.0
73.491,-8.596,3.442,21.0
73.053,-8.53,3.018,20.0
72.572,-8.461,2.605,6.0
74.645,-8.69,2.276,7.0
71.341,-8.314,4.178,40.0
72.052,-8.383,3.828,7.0
73.292,-8.512,3.497,35.0
73.29,-8.497,3.092,27.0
72.624,-8.406,2.669,20.0
74.34,-8.591,2.33,8.0
71.72,-8.298,4.262,26.0
70.15,-8.101,3.788,17.0
72.958,-8.41,3.543,33.0
73.261,-8.43,3.152,29.0
72.735,-8.355,2.735,27.0
75.291,-8.634,2.422,19.0
0.0,0.0,0.0,0.0
70.149,-8.038,3.846,9.0
73.013,-8.35,3.606,31.0
73.49,-8.39,3.222,13.0
73.198,-8.341,2.812,42.0
75.215,-8.555,2.481,54.0
72.489,-8.254,4.428,26.0
72.191,-8.204,4.016,22.0
72.186,-8.187,3.623,35.0
72.955,-8.258,3.257,35.0
74.083,-8.37,2.905,32.0
74.453,-8.397,2.514,14.0
33.224,-3.751,2.055,35.0
33.214,-3.742,1.874,24.0
33.218,-3.735,1.692,7.0
69.565,-7.806,3.159,8.0
72.235,-8.09,2.886,19.0
74.185,-8.292,2.561,33.0
33.207,-3.716,2.079,83.0
33.2,-3.707,1.897,80.0
33.193,-3.699,1.715,74.0
33.186,-3.69,1.531,59.0
33.162,-3.679,1.349,44.0
33.17,-3.673,1.169,41.0
33.197,-3.68,2.102,85.0
33.192,-3.671,1.921,82.0
33.182,-3.662,1.739,81.0
33.179,-3.654,1.554,78.0
33.178,-3.646,1.373,76.0
33.159,-3.636,1.192,76.0
33.231,-3.648,2.128,60.0
33.215,-3.638,1.945,69.0
33.196,-3.628,1.762,69.0
33.187,-3.618,1.577,71.0
33.174,-3.609,1.395,73.0
33.159,-3.6,1.214,73.0
70.363,-7.646,4.553,20.0
69.964,-7.585,4.144,23.0
70.26,-7.599,3.776,16.0
33.189,-3.581,1.599,4.0
33.183,-3.572,1.417,18.0
33.172,-3.563,1.235,49.0
33.303,-3.581,2.176,42.0
70.06,-7.515,4.193,10.0
70.035,-7.494,3.808,35.0
72.183,-7.705,3.522,9.0
72.392,-7.709,3.136,28.0
72.457,-7.698,2.743,9.0
33.298,-3.541,2.196,47.0
70.24,-7.45,4.247,18.0
70.013,-7.408,3.848,40.0
69.515,-7.337,3.433,8.0
71.774,-7.557,3.151,16.0
74.923,-7.869,2.879,17.0
33.283,-3.499,2.214,52.0
69.198,-7.256,4.223,22.0
70.207,-7.343,3.898,10.0
69.527,-7.253,3.472,18.0
72.193,-7.512,3.209,20.0
74.766,-7.76,2.914,29.0
33.276,-3.457,2.231,54.0
69.199,-7.17,4.26,30.0
68.947,-7.125,3.864,17.0
71.414,-7.36,3.603,20.0
0.0,0.0,0.0,0.0
74.823,-7.672,2.953,15.0
33.268,-3.414,2.247,55.0
0.0,0.0,0.0,0.0
68.889,-7.031,3.895,27.0
72.269,-7.356,3.681,27.0
72.049,-7.313,3.273,21.0
72.666,-7.356,2.903,22.0
33.267,-3.371,2.263,54.0
69.362,-7.009,4.336,38.0
69.042,-6.956,3.935,12.0
72.005,-7.234,3.7,13.0
74.548,-7.469,3.42,11.0
72.568,-7.251,2.93,27.0
33.257,-3.326,2.277,56.0
69.357,-6.914,4.366,36.0
68.981,-6.857,3.961,17.0
0.0,0.0,0.0,0.0
71.02,-7.019,3.288,10.0
78.191,-7.706,3.189,12.0
33.243,-3.279,2.289,55.0
69.639,-6.847,4.411,28.0
69.753,-6.837,4.033,28.0
70.831,-6.923,3.696,28.0
71.204,-6.939,3.323,16.0
78.332,-7.612,3.224,27.0
33.238,-3.232,2.301,55.0
69.981,-6.784,4.457,29.0
74.178,-7.169,4.314,8.0
71.343,-6.873,3.747,16.0
71.22,-6.84,3.348,5.0
78.089,-7.478,3.24,39.0
33.226,-3.184,2.311,54.0
69.83,-6.67,4.47,39.0
73.728,-7.02,4.311,7.0
71.643,-6.8,3.785,8.0
71.117,-6.729,3.364,21.0
77.733,-7.332,3.248,8.0
33.218,-3.135,2.32,52.0
69.851,-6.571,4.491,29.0
70.301,-6.592,4.13,9.0
71.07,-6.642,3.774,9.0
71.158,-6.63,3.385,12.0
71.149,-6.608,2.99,5.0
70.035,-6.509,4.91,23.0
69.892,-6.474,4.511,27.0
69.751,-6.439,4.114,21.0
70.472,-6.484,3.758,23.0
71.216,-6.531,3.403,8.0
71.174,-6.506,3.007,8.0
70.557,-6.454,4.961,39.0
70.999,-6.471,4.597,11.0
70.023,-6.36,4.144,16.0
70.706,-6.4,3.785,13.0
71.424,-6.444,3.426,9.0
71.147,-6.397,3.019,8.0
70.39,-6.331,4.961,21.0
70.793,-6.345,4.596,19.0
71.415,-6.378,4.238,9.0
70.992,-6.317,3.811,41.0
67.974,-6.028,3.271,49.0
67.984,-6.009,2.894,52.0
70.429,-6.227,4.974,26.0
70.542,-6.214,4.588,23.0
71.424,-6.269,4.248,33.0
71.0,-6.209,3.82,10.0
67.974,-5.923,3.279,57.0
67.97,-5.902,2.901,50.0
70.139,-6.092,4.961,21.0
70.983,-6.143,4.623,48.0
71.613,-6.174,4.265,11.0
71.25,-6.12,3.838,35.0
67.972,-5.817,3.284,54.0
67.966,-5.795,2.905,48.0
70.18,-5.985,4.967,14.0
70.105,-5.956,4.569,46.0
71.55,-6.056,4.264,13.0
71.342,-6.015,3.846,11.0
67.953,-5.708,3.284,56.0
67.948,-5.687,2.906,50.0
74.783,-6.26,5.294,23.0
70.396,-5.869,4.589,12.0
71.693,-5.953,4.273,21.0
71.401,-5.906,3.85,18.0
67.937,-5.599,3.283,43.0
67.943,-5.577,2.904,46.0
70.927,-5.823,5.02,13.0
75.382,-6.164,4.912,10.0
71.67,-5.836,4.269,23.0
71.46,-5.796,3.849,30.0
71.35,-5.765,3.445,23.0
71.426,-5.748,3.05,26.0
74.716,-6.014,5.283,5.0
75.676,-6.066,4.926,11.0
71.434,-5.702,4.249,20.0
71.478,-5.682,3.845,24.0
70.983,-5.62,3.421,38.0
67.932,-5.357,2.894,18.0
70.562,-5.563,4.982,38.0
67.958,-5.336,4.416,28.0
67.951,-5.312,4.034,70.0
67.923,-5.288,3.645,90.0
67.931,-5.267,3.264,77.0
67.936,-5.245,2.885,67.0
67.976,-5.247,4.789,63.0
67.985,-5.226,4.407,15.0
72.008,-5.511,4.264,10.0
71.01,-5.411,3.799,10.0
67.931,-5.154,3.253,46.0
67.919,-5.132,2.872,59.0
71.18,-5.376,5.002,16.0
71.808,-5.399,4.642,49.0
71.231,-5.332,4.203,11.0
71.23,-5.308,3.796,9.0
67.917,-5.04,3.238,72.0
67.924,-5.019,2.857,63.0
71.874,-5.307,5.034,15.0
75.368,-5.54,4.854,8.0
71.265,-5.214,4.188,12.0
71.324,-5.195,3.783,17.0
67.909,-4.924,3.22,64.0
67.92,-4.904,2.839,62.0
71.762,-5.178,5.007,13.0
76.074,-5.462,4.878,8.0
71.299,-5.096,4.17,22.0
71.495,-5.087,3.771,9.0
67.906,-4.81,3.2,63.0
67.903,-4.788,2.818,62.0
76.219,-5.369,5.293,12.0
71.628,-5.022,4.57,9.0
71.649,-5.0,4.167,24.0
67.863,-4.713,3.557,30.0
67.891,-4.693,3.177,49.0
67.899,-4.673,2.795,31.0
75.789,-5.21,5.237,16.0
71.679,-4.903,4.547,11.0
71.068,-4.837,4.107,47.0
70.588,-4.781,3.674,20.0
72.765,-4.905,3.377,8.0
0.0,0.0,0.0,0.0
71.824,-4.813,4.934,11.0
71.757,-4.784,4.524,29.0
70.873,-4.703,4.067,25.0
70.758,-4.671,3.653,14.0
70.831,-4.653,3.257,12.0
20.021,-1.309,0.807,5.0
71.543,-4.671,4.883,19.0
71.11,-4.619,4.451,31.0
70.902,-4.582,4.036,10.0
70.811,-4.554,3.624,23.0
73.387,-4.695,3.341,29.0
20.017,-1.274,0.798,9.0
71.709,-4.559,4.861,30.0
71.057,-4.494,4.413,21.0
70.962,-4.464,4.005,31.0
70.928,-4.439,3.595,9.0
73.327,-4.565,3.301,12.0
20.009,-1.239,0.787,11.0
58.906,-3.642,3.961,23.0
71.36,-4.388,4.394,13.0
70.956,-4.34,3.967,32.0
19.962,-1.214,1.0,18.0
19.989,-1.21,0.889,18.0
20.006,-1.204,0.776,17.0
58.949,-3.543,3.931,34.0
71.124,-4.251,4.339,23.0
19.993,-1.188,1.106,5.0
19.966,-1.18,0.989,26.0
19.973,-1.174,0.876,19.0
20.002,-1.169,0.764,19.0
59.166,-3.453,3.909,24.0
58.901,-3.418,3.557,8.0
19.97,-1.152,1.092,9.0
19.956,-1.145,0.976,21.0
19.984,-1.14,0.864,17.0
20.014,-1.135,0.752,21.0
58.823,-3.33,3.849,33.0
58.67,-3.302,3.504,28.0
19.969,-1.117,1.079,10.0
19.948,-1.11,0.962,20.0
20.027,-1.108,0.852,15.0
20.01,-1.1,0.738,19.0
58.243,-3.196,3.771,28.0
58.727,-3.204,3.467,32.0
19.981,-1.083,1.066,11.0
19.96,-1.076,0.949,17.0
72.029,-3.861,3.016,14.0
19.996,-1.065,0.723,15.0
58.235,-3.095,3.727,33.0
58.542,-3.092,3.413,32.0
20.018,-1.051,1.053,1.0
71.104,-3.71,3.328,25.0
83.718,-4.341,3.442,25.0
20.013,-1.031,0.709,14.0
58.923,-3.028,3.725,34.0
58.631,-2.994,3.372,33.0
79.444,-4.032,4.116,27.0
73.446,-3.704,3.379,15.0
83.863,-4.204,3.381,13.0
20.076,-1.0,0.695,17.0
58.461,-2.904,3.649,30.0
58.307,-2.878,3.306,7.0
80.21,-3.935,4.09,20.0
83.43,-4.066,3.77,33.0
20.104,-0.973,0.794,2.0
20.091,-0.967,0.679,22.0
58.359,-2.799,3.593,27.0
79.977,-3.81,4.466,14.0
80.432,-3.806,4.032,49.0
85.767,-4.033,3.801,7.0
20.122,-0.94,0.777,1.0
20.106,-0.933,0.662,18.0
58.563,-2.708,3.553,33.0
79.085,-3.632,4.345,27.0
80.801,-3.686,3.977,41.0
94.509,-4.283,4.104,19.0
115.755,-5.211,4.365,15.0
20.113,-0.899,0.644,0.0
67.282,-2.997,4.02,13.0
67.184,-2.972,3.629,30.0
80.832,-3.551,3.904,41.0
100.158,-4.37,4.255,8.0
104.289,-4.519,3.834,28.0
194.123,-8.353,6.028,5.0
60.195,-2.578,3.538,23.0
67.307,-2.863,3.57,22.0
80.897,-3.417,3.827,27.0
100.129,-4.198,4.153,23.0
104.245,-4.34,3.729,30.0
193.745,-8.008,5.823,17.0
60.025,-2.469,3.466,35.0
67.249,-2.745,3.498,16.0
81.02,-3.284,3.75,9.0
104.104,-4.188,4.212,10.0
207.091,-8.27,7.193,15.0
193.665,-7.676,5.618,24.0
59.815,-2.358,3.391,30.0
81.187,-3.178,4.137,21.0
94.273,-3.661,4.263,13.0
103.77,-4.001,4.088,26.0
195.0,-7.462,6.565,7.0
193.088,-7.333,5.395,22.0
59.681,-2.254,3.318,23.0
81.207,-3.043,4.05,12.0
94.185,-3.503,4.156,9.0
103.811,-3.83,3.975,10.0
193.818,-7.097,6.312,22.0
192.969,-7.01,5.178,22.0
66.325,-2.395,3.613,33.0
81.144,-2.906,3.954,34.0
99.432,-3.531,4.273,8.0
101.16,-3.564,3.757,16.0
193.525,-6.764,6.078,23.0
187.467,-6.498,4.813,18.0
66.467,-2.289,3.543,28.0
94.339,-3.223,4.487,25.0
101.261,-3.431,4.234,9.0
119.307,-4.008,4.29,27.0
194.666,-6.487,5.885,8.0
193.951,-6.408,4.75,21.0
80.354,-2.637,4.187,11.0
81.403,-2.647,3.772,11.0
101.106,-3.259,4.103,23.0
106.041,-3.388,3.683,9.0
193.963,-6.145,5.625,18.0
194.235,-6.102,4.518,21.0
80.661,-2.515,4.102,36.0
81.284,-2.512,3.666,30.0
101.619,-3.113,3.998,13.0
120.332,-3.652,4.03,18.0
194.085,-5.839,5.386,22.0
194.786,-5.806,4.286,17.0
81.105,-2.4,4.022,17.0
81.423,-2.387,3.569,11.0
106.163,-3.083,4.042,8.0
120.111,-3.456,3.869,20.0
0.0,0.0,0.0,0.0
195.1,-5.509,4.043,16.0
81.026,-2.27,3.913,33.0
101.776,-2.823,4.328,8.0
117.016,-3.215,4.302,14.0
120.317,-3.274,3.72,3.0
205.647,-5.541,5.173,10.0
193.379,-5.159,3.751,4.0
81.604,-2.157,3.83,14.0
101.86,-2.665,4.193,12.0
116.732,-3.024,4.134,13.0
211.006,-5.411,6.235,6.0
205.453,-5.215,4.887,5.0
192.938,-4.847,3.48,19.0
96.881,-2.412,4.415,6.0
96.641,-2.38,3.846,17.0
113.241,-2.76,3.854,19.0
118.021,-2.845,3.324,4.0
118.008,-2.815,2.643,6.0
192.997,-4.556,3.214,15.0
96.072,-2.245,4.243,19.0
96.561,-2.231,3.706,11.0
112.426,-2.569,3.666,24.0
0.0,0.0,0.0,0.0
193.97,-4.333,4.069,9.0
138.854,-3.067,2.112,4.0
106.546,-2.329,4.552,19.0
113.268,-2.447,4.184,21.0
112.708,-2.407,3.513,25.0
113.09,-2.386,2.861,2.0
193.405,-4.034,3.778,24.0
138.834,-2.86,1.91,3.0
106.672,-2.173,4.4,3.0
112.57,-2.265,3.993,19.0
112.987,-2.246,3.355,23.0
205.642,-4.036,4.897,11.0
193.02,-3.742,3.484,25.0
0.0,0.0,0.0,0.0
106.673,-2.017,4.24,17.0
112.652,-2.102,3.826,25.0
112.769,-2.076,3.177,18.0
206.382,-3.751,4.602,16.0
193.554,-3.471,3.197,19.0
139.132,-2.461,1.494,7.0
112.683,-1.967,4.304,12.0
112.768,-1.94,3.654,2.0
112.575,-1.909,2.996,16.0
206.775,-3.459,4.287,5.0
139.054,-2.294,2.081,9.0
138.896,-2.258,1.275,11.0
190.582,-3.054,6.979,23.0
209.658,-3.311,6.464,7.0
0.0,0.0,0.0,0.0
194.578,-2.98,3.727,13.0
138.892,-2.095,1.856,11.0
138.856,-2.061,1.053,21.0
210.731,-3.082,7.38,8.0
206.609,-2.973,6.037,7.0
206.78,-2.928,4.846,8.0
204.183,-2.846,3.585,6.0
139.209,-1.907,1.637,2.0
127.509,-1.717,0.761,7.0
210.366,-2.785,7.021,17.0
209.11,-2.721,5.767,11.0
210.5,-2.691,4.585,11.0
139.287,-1.75,2.215,3.0
139.274,-1.719,1.408,11.0
0.0,0.0,0.0,0.0
210.828,-2.508,6.689,6.0
209.006,-2.441,5.42,17.0
119.705,-1.371,2.411,5.0
119.735,-1.345,1.705,25.0
119.752,-1.319,1.012,87.0
0.0,0.0,0.0,0.0
119.759,-1.267,3.599,10.0
119.721,-1.241,2.903,150.0
119.74,-1.216,2.211,150.0
119.747,-1.19,1.505,150.0
119.745,-1.165,0.811,11.0
78.964,-0.751,0.077,0.0
119.71,-1.113,3.394,36.0
119.748,-1.088,2.7,77.0
119.748,-1.063,2.006,89.0
119.645,-1.037,1.299,18.0
113.443,-0.96,0.574,1.0
0.0,0.0,0.0,0.0
119.727,-0.963,3.189,34.0
119.767,-0.938,2.494,10.0
119.765,-0.913,1.798,17.0
119.674,-0.889,1.092,17.0
0.0,0.0,0.0,0.0
0.0,0.0,0.0,0.0
119.798,-0.815,2.979,24.0
194.229,-1.282,3.703,23.0
119.686,-0.766,1.586,12.0
114.212,-0.708,0.839,8.0
0.0,0.0,0.0,0.0
51.274,-0.297,-0.218,0.0
119.81,-0.671,2.765,49.0
193.42,-1.044,3.34,16.0
119.723,-0.622,1.371,16.0
110.91,-0.555,0.616,2.0
0.0,0.0,0.0,0.0
51.181,-0.236,-0.309,0.0
119.798,-0.53,2.549,10.0
0.0,0.0,0.0,0.0
119.692,-0.483,1.156,16.0
102.889,-0.396,0.386,3.0
0.0,0.0,0.0,0.0
45.403,-0.158,-0.356,0.0
119.834,-0.395,2.334,8.0
119.668,-0.372,1.636,8.0
114.493,-0.335,0.9,150.0
0.0,0.0,0.0,0.0
51.108,-0.13,-0.197,0.0
45.555,-0.107,-0.44,0.0
112.658,-0.245,1.985,7.0
119.762,-0.24,1.416,12.0
110.432,-0.201,0.664,8.0
0.0,0.0,0.0,0.0
0.0,0.0,0.0,0.0
0.0,0.0,0.0,0.0
117.305,-0.13,1.85,11.0
117.313,-0.11,1.17,10.0
97.382,-0.074,0.404,1.0
0.0,0.0,0.0,0.0
45.817,-0.018,-0.346,1.0
0.0,0.0,0.0,0.0
111.109,-0.007,1.544,14.0
110.95,0.01,0.898,8.0
0.0,0.0,0.0,0.0
0.0,0.0,0.0,0.0
45.457,0.027,-0.429,1.0
35.516,0.027,-0.542,0.0
111.135,0.104,1.334,23.0
104.151,0.114,0.646,2.0
0.0,0.0,0.0,0.0
50.764,0.072,-0.28,0.0
0.0,0.0,0.0,0.0
32.579,0.057,-0.559,0.0
111.108,0.213,1.122,14.0
94.606,0.197,0.404,2.0
0.0,0.0,0.0,0.0
0.0,0.0,0.0,0.0
0.0,0.0,0.0,0.0
30.784,0.083,-0.588,0.0
110.858,0.319,0.902,13.0
90.159,0.273,0.21,1.0
0.0,0.0,0.0,0.0
42.823,0.143,-0.403,1.0
0.0,0.0,0.0,0.0
29.39,0.107,-0.618,0.0
104.123,0.394,0.644,6.0
0.0,0.0,0.0,0.0
51.78,0.212,-0.282,0.0
40.416,0.171,-0.459,0.0
32.401,0.142,-0.557,0.0
27.461,0.124,-0.632,0.0
90.829,0.424,0.383,3.0
0.0,0.0,0.0,0.0
48.657,0.241,-0.361,0.0
38.04,0.194,-0.507,0.0
30.686,0.161,-0.588,0.0
26.335,0.142,-0.658,0.0
87.064,0.48,0.195,4.0
0.0,0.0,0.0,0.0
43.006,0.249,-0.404,0.0
0.0,0.0,0.0,0.0
29.122,0.176,-0.616,0.0
24.752,0.153,-0.667,0.0
0.0,0.0,0.0,0.0
51.763,0.333,-0.287,0.0
42.719,0.281,-0.485,0.0
32.512,0.218,-0.562,0.0
27.591,0.188,-0.638,0.0
23.635,0.165,-0.684,0.0
0.0,0.0,0.0,0.0
48.561,0.35,-0.366,1.0
0.0,0.0,0.0,0.0
30.281,0.226,-0.584,0.0
26.258,0.199,-0.659,0.0
22.57,0.174,-0.698,0.0
0.0,0.0,0.0,0.0
42.831,0.339,-0.408,0.0
35.101,0.282,-0.539,0.0
0.0,0.0,0.0,0.0
24.834,0.206,-0.673,0.0
21.705,0.182,-0.715,0.0
0.0,0.0,0.0,0.0
39.656,0.341,-0.457,0.0
32.315,0.282,-0.561,0.0
27.05,0.239,-0.63,0.0
23.59,0.211,-0.687,0.0
20.761,0.188,-0.726,0.0
45.855,0.42,-0.355,1.0
0.0,0.0,0.0,0.0
0.0,0.0,0.0,0.0
26.115,0.248,-0.661,0.0
22.47,0.216,-0.7,0.0
19.95,0.194,-0.738,0.0
42.84,0.419,-0.418,0.0
0.0,0.0,0.0,0.0
28.707,0.286,-0.615,0.0
24.788,0.25,-0.678,0.0
21.549,0.219,-0.715,0.0
19.221,0.198,-0.75,0.0
40.987,0.424,-0.483,0.0
31.474,0.329,-0.554,0.0
26.844,0.283,-0.629,0.0
0.0,0.0,0.0,0.0
20.595,0.221,-0.725,0.0
18.481,0.2,-0.758,0.0
36.247,0.395,-0.5,0.0
30.055,0.33,-0.59,0.0
25.872,0.287,-0.659,0.0
22.459,0.251,-0.705,0.0
19.901,0.224,-0.741,0.0
17.883,0.203,-0.77,0.0
33.081,0.377,-0.524,0.0
28.753,0.33,-0.623,0.0
24.454,0.283,-0.672,0.0
21.377,0.249,-0.715,0.0
19.075,0.224,-0.749,0.0
17.21,0.204,-0.777,0.0
31.772,0.377,-0.568,0.0
26.67,0.319,-0.632,0.0
23.42,0.282,-0.692,0.0
20.507,0.248,-0.728,0.0
18.295,0.223,-0.756,0.0
16.769,0.206,-0.791,0.0
29.385,0.361,-0.586,0.0
25.621,0.317,-0.66,0.0
22.279,0.277,-0.704,0.0
19.527,0.245,-0.733,0.0
17.747,0.224,-0.77,0.0
16.245,0.206,-0.8,0.0
28.256,0.359,-0.621,0.0
23.88,0.305,-0.664,0.0
21.221,0.272,-0.714,0.0
18.857,0.243,-0.747,0.0
17.225,0.224,-0.783,0.0
15.627,0.204,-0.802,0.0
26.529,0.346,-0.637,0.0
22.967,0.301,-0.686,0.0
20.248,0.267,-0.723,0.0
18.254,0.242,-0.76,1.0
16.584,0.221,-0.787,0.0
15.178,0.203,-0.81,0.0
24.854,0.332,-0.648,0.0
21.989,0.295,-0.701,0.0
19.6,0.264,-0.74,0.0
17.656,0.239,-0.771,0.0
16.036,0.218,-0.794,0.0
14.758,0.202,-0.817,0.0
0.0,0.0,0.0,0.0
21.264,0.291,-0.722,0.0
18.654,0.256,-0.742,0.0
17.062,0.236,-0.78,0.0
15.595,0.216,-0.804,0.0
14.433,0.201,-0.828,0.0
22.859,0.317,-0.688,0.0
20.227,0.282,-0.727,0.0
18.239,0.255,-0.762,1.0
16.536,0.232,-0.789,0.0
15.11,0.213,-0.81,0.0
13.995,0.198,-0.832,0.0
21.677,0.305,-0.697,0.0
19.298,0.273,-0.733,0.0
17.594,0.249,-0.771,1.0
15.957,0.227,-0.794,0.0
14.739,0.21,-0.82,0.0
13.631,0.195,-0.838,0.0
20.953,0.298,-0.716,0.0
18.536,0.265,-0.742,0.0
17.048,0.244,-0.781,0.0
15.521,0.223,-0.804,0.0
14.32,0.206,-0.825,0.0
13.275,0.192,-0.843,0.0
20.084,0.288,-0.726,0.0
18.138,0.261,-0.762,1.0
16.514,0.238,-0.79,0.0
15.061,0.218,-0.81,0.0
13.92,0.202,-0.83,0.0
12.891,0.187,-0.844,0.0
19.241,0.278,-0.734,0.0
17.598,0.255,-0.774,2.0
15.908,0.231,-0.793,0.0
14.682,0.213,-0.819,0.0
13.541,0.197,-0.835,0.0
12.538,0.183,-0.846,0.0
18.492,0.268,-0.742,0.0
16.935,0.246,-0.779,0.0
15.46,0.225,-0.801,0.0
14.239,0.207,-0.823,0.0
13.283,0.194,-0.845,0.0
12.203,0.178,-0.848,0.0
17.941,0.26,-0.756,1.0
16.459,0.239,-0.79,0.0
15.012,0.218,-0.808,0.0
13.872,0.202,-0.829,0.0
12.845,0.187,-0.843,0.0
11.843,0.173,-0.846,0.0
17.602,0.255,-0.776,1.0
15.92,0.23,-0.795,0.0
14.734,0.214,-0.822,0.0
13.53,0.196,-0.835,0.0
12.471,0.181,-0.843,0.0
11.581,0.168,-0.85,0.0
16.908,0.244,-0.779,0.0
15.436,0.222,-0.801,0.0
14.271,0.206,-0.824,0.0
13.15,0.19,-0.837,0.0
12.191,0.176,-0.848,0.0
11.387,0.164,-0.859,0.0
16.416,0.235,-0.788,0.0
14.99,0.214,-0.807,0.0
13.784,0.197,-0.823,0.0
12.782,0.183,-0.839,0.0
11.821,0.169,-0.845,0.0
11.219,0.161,-0.868,0.0
15.904,0.225,-0.794,0.0
14.686,0.208,-0.819,0.0
13.532,0.191,-0.834,0.0
12.483,0.177,-0.843,0.0
11.575,0.164,-0.85,0.0
10.966,0.155,-0.869,0.0
15.515,0.217,-0.804,0.0
14.194,0.198,-0.819,0.0
13.199,0.184,-0.839,0.0
12.174,0.17,-0.846,0.0
11.38,0.159,-0.857,0.0
10.69,0.149,-0.868,0.0
14.96,0.206,-0.804,0.0
13.855,0.191,-0.826,0.0
12.798,0.176,-0.838,0.0
11.834,0.162,-0.845,0.0
11.22,0.154,-0.867,0.0
10.516,0.144,-0.874,0.0
14.646,0.198,-0.815,0.0
13.574,0.183,-0.835,0.0
12.498,0.168,-0.841,0.0
11.588,0.156,-0.849,0.0
10.953,0.147,-0.867,0.0
10.343,0.139,-0.879,0.0
14.231,0.188,-0.819,0.0
13.297,0.175,-0.842,0.0
12.227,0.161,-0.846,0.0
11.396,0.15,-0.856,0.0
10.698,0.14,-0.866,0.0
10.201,0.134,-0.886,0.0
13.894,0.179,-0.824,0.0
12.867,0.166,-0.839,0.0
11.888,0.153,-0.844,0.0
11.231,0.144,-0.864,0.0
10.57,0.135,-0.875,0.0
10.016,0.128,-0.888,0.0
13.577,0.17,-0.83,0.0
12.568,0.157,-0.842,0.0
11.626,0.145,-0.847,0.0
11.031,0.137,-0.869,0.0
10.37,0.129,-0.878,0.0
9.885,0.122,-0.895,0.0
13.305,0.162,-0.838,0.0
12.282,0.149,-0.845,0.0
11.417,0.138,-0.852,0.0
10.757,0.129,-0.867,0.0
10.242,0.123,-0.885,0.0
9.744,0.116,-0.899,0.0
13.054,0.153,-0.845,0.0
11.961,0.14,-0.844,0.0
11.294,0.131,-0.863,0.0
10.577,0.123,-0.871,0.0
10.091,0.117,-0.89,0.0
9.63,0.111,-0.906,0.0
12.578,0.142,-0.836,0.0
11.665,0.131,-0.843,0.0
11.11,0.124,-0.868,0.0
10.392,0.116,-0.874,0.0
9.937,0.11,-0.894,0.0
9.388,0.103,-0.899,0.0
12.357,0.133,-0.843,0.0
11.463,0.123,-0.849,0.0
10.841,0.116,-0.866,0.0
10.232,0.109,-0.878,0.0
9.795,0.103,-0.898,0.0
9.307,0.098,-0.908,0.0
12.04,0.123,-0.842,0.0
11.335,0.115,-0.858,0.0
10.65,0.108,-0.869,0.0
10.137,0.102,-0.887,0.0
9.666,0.097,-0.902,0.0
9.188,0.091,-0.912,0.0
11.778,0.114,-0.843,0.0
11.184,0.108,-0.866,0.0
10.471,0.1,-0.872,0.0
9.968,0.095,-0.889,0.0
9.492,0.089,-0.902,0.0
9.034,0.084,-0.912,0.0
11.58,0.105,-0.848,0.0
10.943,0.099,-0.865,0.0
10.329,0.093,-0.877,0.0
9.85,0.087,-0.895,0.0
9.363,0.083,-0.905,0.0
8.916,0.078,-0.914,0.0
11.399,0.097,-0.853,0.0
10.758,0.09,-0.868,0.0
10.193,0.085,-0.882,0.0
9.72,0.08,-0.898,0.0
9.246,0.076,-0.909,0.0
8.819,0.071,-0.919,0.0
11.264,0.088,-0.861,0.0
10.572,0.082,-0.869,0.0
10.045,0.077,-0.885,0.0
9.547,0.072,-0.897,0.0
9.151,0.069,-0.914,0.0
8.739,0.065,-0.924,0.0
11.045,0.079,-0.861,0.0
10.379,0.073,-0.87,0.0
9.94,0.069,-0.891,0.0
9.418,0.065,-0.9,0.0
9.002,0.061,-0.913,0.0
8.568,0.058,-0.919,0.0
10.89,0.07,-0.866,0.0
10.298,0.065,-0.879,0.0
9.798,0.061,-0.893,0.0
9.318,0.057,-0.905,0.0
8.881,0.054,-0.914,0.0
8.421,0.05,-0.916,0.0
10.701,0.061,-0.867,0.0
10.154,0.057,-0.882,0.0
9.686,0.053,-0.897,0.0
9.17,0.05,-0.904,0.0
8.767,0.047,-0.915,0.0
8.352,0.044,-0.921,0.0
10.533,0.052,-0.869,0.0
10.019,0.048,-0.884,0.0
9.553,0.045,-0.899,0.0
9.159,0.042,-0.916,0.0
8.663,0.039,-0.917,0.0
8.261,0.037,-0.923,0.0
10.406,0.043,-0.873,0.0
9.926,0.04,-0.89,0.0
9.424,0.037,-0.9,0.0
8.981,0.034,-0.911,0.0
8.535,0.032,-0.916,0.0
8.232,0.03,-0.931,0.0
10.28,0.034,-0.877,0.0
9.81,0.032,-0.893,0.0
9.282,0.029,-0.899,0.0
8.894,0.027,-0.915,0.0
8.512,0.025,-0.925,0.0
8.137,0.023,-0.932,0.0
10.197,0.025,-0.883,0.0
9.647,0.023,-0.892,0.0
9.204,0.021,-0.904,0.0
8.855,0.019,-0.923,0.0
8.406,0.017,-0.925,0.0
8.04,0.015,-0.931,0.0
10.078,0.016,-0.886,0.0
9.544,0.014,-0.895,0.0
9.107,0.012,-0.907,0.0
8.725,0.011,-0.92,0.0
8.322,0.009,-0.926,0.0
7.902,0.008,-0.926,0.0
9.969,0.007,-0.89,0.0
9.452,0.006,-0.898,0.0
9.034,0.004,-0.911,0.0
0.0,0.0,0.0,0.0
8.181,0.002,-0.921,0.0
7.89,0.001,-0.934,0.0
9.829,-0.001,-0.889,0.0
9.342,-0.002,-0.899,0.0
8.897,-0.003,-0.908,0.0
8.495,-0.004,-0.917,0.0
8.167,-0.005,-0.93,0.0
7.786,-0.006,-0.932,0.0
9.744,-0.01,-0.894,0.0
9.301,-0.011,-0.907,0.0
8.891,-0.011,-0.918,0.0
8.417,-0.012,-0.919,0.0
8.103,-0.012,-0.932,0.0
