X,Y,Z,Reflectivity
0.0,0.0,0.0,0.0
0.0,0.0,0.0,0.0
187.463,-6.278,3.925,86.0
138.566,-4.688,2.156,6.0
138.57,-4.737,1.412,20.0
0.0,0.0,0.0,0.0
0.0,0.0,0.0,0.0
0.0,0.0,0.0,0.0
193.418,-6.854,4.193,6.0
138.375,-4.952,2.256,4.0
138.544,-5.003,1.515,12.0
138.464,-5.049,0.757,4.0
0.0,0.0,0.0,0.0
0.0,0.0,0.0,0.0
194.236,-7.259,4.361,6.0
193.449,-7.295,3.305,14.0
138.521,-5.269,1.623,3.0
138.412,-5.312,0.866,7.0
0.0,0.0,0.0,0.0
0.0,0.0,0.0,0.0
193.204,-7.589,4.493,13.0
193.162,-7.653,3.457,9.0
0.0,0.0,0.0,0.0
138.382,-5.577,0.98,12.0
0.0,0.0,0.0,0.0
0.0,0.0,0.0,0.0
192.743,-7.938,4.644,15.0
192.666,-7.998,3.612,24.0
138.076,-5.777,1.849,9.0
137.989,-5.82,1.096,17.0
0.0,0.0,0.0,0.0
0.0,0.0,0.0,0.0
193.248,-8.32,4.825,23.0
193.046,-8.375,3.788,19.0
138.056,-6.035,1.97,43.0
138.066,-6.079,1.218,13.0
0.0,0.0,0.0,0.0
0.0,0.0,0.0,0.0
20.129,-0.903,0.52,2.0
20.168,-0.911,0.413,0.0
138.048,-6.287,2.095,52.0
138.236,-6.34,1.346,22.0
0.0,0.0,0.0,0.0
20.019,-0.931,-0.018,3.0
20.114,-0.939,0.539,19.0
20.134,-0.947,0.432,18.0
20.154,-0.954,0.324,11.0
20.151,-0.96,0.215,0.0
138.141,-6.632,0.74,2.0
20.007,-0.967,0.0,5.0
20.129,-0.976,0.558,26.0
20.137,-0.983,0.451,20.0
20.147,-0.99,0.344,25.0
20.16,-0.997,0.235,28.0
20.034,-0.997,0.126,9.0
19.993,-1.001,0.02,17.0
20.061,-1.008,0.576,17.0
20.013,-1.012,0.468,11.0
20.004,-1.018,0.361,11.0
20.009,-1.025,0.253,26.0
19.991,-1.03,0.146,17.0
19.977,-1.036,0.04,32.0
19.966,-1.039,0.594,19.0
19.963,-1.044,0.488,18.0
19.95,-1.05,0.381,16.0
19.996,-1.059,0.274,25.0
19.983,-1.064,0.167,22.0
19.982,-1.07,0.061,27.0
19.979,-1.073,0.615,25.0
19.97,-1.079,0.509,20.0
19.959,-1.084,0.402,19.0
19.964,-1.091,0.294,22.0
20.002,-1.099,0.189,24.0
19.999,-1.105,0.082,22.0
19.975,-1.107,0.636,25.0
19.962,-1.112,0.53,24.0
19.953,-1.118,0.424,23.0
19.925,-1.122,0.315,19.0
19.972,-1.13,0.21,14.0
20.108,-1.144,0.105,10.0
19.964,-1.139,0.658,24.0
19.954,-1.144,0.552,23.0
19.946,-1.15,0.446,20.0
19.926,-1.155,0.337,19.0
19.956,-1.162,0.232,13.0
20.017,-1.172,0.127,41.0
19.966,-1.172,0.681,19.0
19.956,-1.177,0.574,22.0
19.93,-1.181,0.468,18.0
19.904,-1.185,0.359,18.0
19.948,-1.193,0.254,32.0
19.983,-1.201,0.149,150.0
48.239,-0.253,3.341,14.0
60.128,-0.309,3.813,21.0
60.614,-0.306,3.489,11.0
77.638,-0.386,4.006,20.0
103.241,-0.504,4.723,7.0
189.821,-0.91,7.578,33.0
48.152,-0.221,3.244,35.0
60.684,-0.273,3.732,7.0
78.576,-0.347,4.374,6.0
103.403,-0.449,5.14,10.0
103.142,-0.438,4.525,9.0
190.572,-0.795,7.248,21.0
60.25,-0.239,3.944,13.0
60.637,-0.236,3.614,21.0
77.801,-0.297,4.182,10.0
81.061,-0.303,3.874,8.0
95.502,-0.349,4.007,13.0
117.455,-0.42,4.241,19.0
60.183,-0.203,3.823,25.0
60.758,-0.201,3.503,25.0
81.708,-0.264,4.232,12.0
80.953,-0.256,3.712,15.0
117.324,-0.363,4.694,25.0
117.453,-0.355,4.012,29.0
60.455,-0.171,3.722,21.0
60.319,-0.167,3.36,28.0
80.942,-0.218,4.034,11.0
95.379,-0.25,4.184,15.0
117.367,-0.3,4.464,28.0
117.448,-0.292,3.78,25.0
60.642,-0.14,3.613,10.0
60.364,-0.135,3.242,15.0
80.839,-0.177,3.869,10.0
117.389,-0.249,4.918,20.0
117.393,-0.241,4.232,25.0
70.147,-0.14,2.119,19.0
60.354,-0.11,3.475,13.0
80.832,-0.143,4.18,11.0
117.432,-0.201,5.386,14.0
117.426,-0.195,4.686,21.0
117.421,-0.187,3.999,22.0
117.475,-0.181,3.314,20.0
60.179,-0.083,3.343,17.0
80.425,-0.106,3.996,18.0
95.352,-0.121,4.179,8.0
190.501,-0.233,7.218,18.0
117.436,-0.137,3.761,25.0
117.442,-0.131,3.076,25.0
77.899,-0.075,4.17,14.0
80.822,-0.074,3.853,12.0
189.815,-0.165,7.939,39.0
117.585,-0.097,4.216,7.0
70.117,-0.054,2.104,12.0
117.437,-0.085,2.838,10.0
80.439,-0.047,4.143,10.0
103.662,-0.057,4.731,5.0
189.909,-0.095,7.555,20.0
70.022,-0.032,2.368,12.0
117.447,-0.05,3.286,22.0
113.96,-0.043,2.522,4.0
80.541,-0.02,3.982,25.0
226.86,-0.048,9.888,13.0
70.162,-0.012,2.647,21.0
70.04,-0.009,2.224,20.0
117.411,-0.011,3.042,25.0
117.358,-0.007,2.356,10.0
80.655,0.004,3.821,9.0
117.757,0.01,4.889,12.0
69.945,0.008,2.493,31.0
70.105,0.011,2.08,17.0
117.344,0.022,2.796,4.0
117.343,0.025,2.109,24.0
102.679,0.034,4.648,8.0
70.152,0.025,2.764,10.0
69.938,0.026,2.347,27.0
117.438,0.048,3.24,19.0
112.61,0.049,2.448,7.0
117.294,0.054,1.864,12.0
70.272,0.039,3.034,8.0
70.042,0.041,2.613,28.0
69.993,0.042,2.201,19.0
117.418,0.074,2.993,16.0
117.388,0.076,2.304,19.0
111.126,0.074,1.531,17.0
117.681,0.089,4.831,23.0
69.893,0.054,2.46,36.0
70.074,0.055,2.055,32.0
112.727,0.091,2.635,7.0
117.354,0.097,2.058,20.0
111.14,0.093,1.296,21.0
70.171,0.064,2.732,11.0
69.96,0.065,2.313,33.0
117.485,0.111,3.198,13.0
117.391,0.112,2.495,19.0
111.036,0.107,1.709,14.0
111.164,0.108,1.06,8.0
15.223,-0.511,-0.807,0.0
14.1,-0.477,-0.829,0.0
13.074,-0.445,-0.844,0.0
12.04,-0.413,-0.848,0.0
11.274,-0.389,-0.86,0.0
10.676,-0.371,-0.876,0.0
14.924,-0.522,-0.81,0.0
13.737,-0.483,-0.825,0.0
12.871,-0.456,-0.847,0.0
11.871,-0.423,-0.851,0.0
11.14,-0.4,-0.863,0.0
10.559,-0.381,-0.879,0.0
14.623,-0.532,-0.811,0.0
13.608,-0.498,-0.833,0.0
12.545,-0.462,-0.84,0.0
11.7,-0.434,-0.853,0.0
11.022,-0.411,-0.867,0.0
10.42,-0.391,-0.88,0.0
14.413,-0.544,-0.816,0.0
13.491,-0.513,-0.842,0.0
12.386,-0.474,-0.844,0.0
11.533,-0.444,-0.854,0.0
10.949,-0.424,-0.874,0.0
10.33,-0.403,-0.884,0.0
14.21,-0.557,-0.82,0.0
13.254,-0.522,-0.842,0.0
12.284,-0.487,-0.851,0.0
11.379,-0.454,-0.855,0.0
10.808,-0.434,-0.874,0.0
10.234,-0.413,-0.887,0.0
14.009,-0.569,-0.824,0.0
13.1,-0.535,-0.846,0.0
12.085,-0.496,-0.85,0.0
11.296,-0.467,-0.86,0.0
10.652,-0.443,-0.873,0.0
10.147,-0.424,-0.89,0.0
13.812,-0.58,-0.827,0.0
12.889,-0.545,-0.845,0.0
11.932,-0.507,-0.851,0.0
11.176,-0.478,-0.863,0.0
10.569,-0.455,-0.877,0.0
10.06,-0.436,-0.893,0.0
13.656,-0.594,-0.831,0.0
12.621,-0.552,-0.84,0.0
11.777,-0.518,-0.852,0.0
11.046,-0.488,-0.864,0.0
10.487,-0.466,-0.88,0.0
9.925,-0.444,-0.89,0.0
13.538,-0.608,-0.837,0.0
12.506,-0.565,-0.845,0.0
11.674,-0.53,-0.855,0.0
10.963,-0.501,-0.867,0.0
10.391,-0.477,-0.882,0.0
9.851,-0.455,-0.893,0.0
13.327,-0.618,-0.836,0.0
12.378,-0.577,-0.847,0.0
11.511,-0.54,-0.854,0.0
10.889,-0.513,-0.871,0.0
10.292,-0.488,-0.883,0.0
9.795,-0.467,-0.897,0.0
13.276,-0.635,-0.844,0.0
12.275,-0.59,-0.851,0.0
11.412,-0.552,-0.856,0.0
10.782,-0.524,-0.872,0.0
10.226,-0.5,-0.886,0.0
9.747,-0.479,-0.901,0.0
20.005,-0.987,-1.289,0.0
12.119,-0.601,-0.85,0.0
11.338,-0.565,-0.86,0.0
10.669,-0.534,-0.872,0.0
10.152,-0.511,-0.888,0.0
9.658,-0.489,-0.9,0.0
20.026,-1.017,-1.306,0.0
11.986,-0.612,-0.85,0.0
11.235,-0.577,-0.861,0.0
10.592,-0.546,-0.874,0.0
10.098,-0.524,-0.891,0.0
9.589,-0.5,-0.901,0.0
20.023,-1.047,-1.321,0.0
11.868,-0.624,-0.851,0.0
11.164,-0.59,-0.864,0.0
10.528,-0.559,-0.876,0.0
10.026,-0.535,-0.892,0.0
9.518,-0.51,-0.901,0.0
12.63,-0.679,-0.842,0.0
11.802,-0.638,-0.854,0.0
11.089,-0.602,-0.866,0.0
10.476,-0.572,-0.879,0.0
9.955,-0.546,-0.892,0.0
9.478,-0.522,-0.904,0.0
12.5,-0.691,-0.842,0.0
11.677,-0.648,-0.853,0.0
11.002,-0.614,-0.866,0.0
10.424,-0.584,-0.881,0.0
9.936,-0.56,-0.897,0.0
9.408,-0.533,-0.903,0.0
12.411,-0.704,-0.843,0.0
11.635,-0.663,-0.857,0.0
10.958,-0.628,-0.869,0.0
10.358,-0.596,-0.882,0.0
9.812,-0.567,-0.892,0.0
9.384,-0.545,-0.906,0.0
12.343,-0.719,-0.846,0.0
11.545,-0.675,-0.857,0.0
10.912,-0.641,-0.872,0.0
10.333,-0.61,-0.886,0.0
9.786,-0.581,-0.895,0.0
9.357,-0.558,-0.909,0.0
12.273,-0.733,-0.848,0.0
11.496,-0.689,-0.859,0.0
10.883,-0.656,-0.875,0.0
10.256,-0.621,-0.884,0.0
9.764,-0.594,-0.898,0.0
9.331,-0.57,-0.911,0.0
12.214,-0.747,-0.849,0.0
11.437,-0.703,-0.86,0.0
10.844,-0.669,-0.877,0.0
10.232,-0.634,-0.887,0.0
9.717,-0.605,-0.898,0.0
9.266,-0.58,-0.909,0.0
12.151,-0.761,-0.851,0.0
11.387,-0.716,-0.862,0.0
10.778,-0.681,-0.877,0.0
10.187,-0.646,-0.887,0.0
9.651,-0.615,-0.896,0.0
9.22,-0.59,-0.908,0.0
12.118,-0.777,-0.853,0.0
11.322,-0.729,-0.861,0.0
10.74,-0.694,-0.878,0.0
10.156,-0.66,-0.889,0.0
9.648,-0.629,-0.899,0.0
9.208,-0.603,-0.911,0.0
12.055,-0.791,-0.853,0.0
11.303,-0.744,-0.864,0.0
10.712,-0.708,-0.879,0.0
10.133,-0.673,-0.89,0.0
9.643,-0.643,-0.902,0.0
9.174,-0.615,-0.91,0.0
12.027,-0.806,-0.855,0.0
11.277,-0.759,-0.865,0.0
10.739,-0.726,-0.885,0.0
10.121,-0.687,-0.892,0.0
9.628,-0.656,-0.903,0.0
9.137,-0.625,-0.909,0.0
11.983,-0.821,-0.855,0.0
11.245,-0.773,-0.866,0.0
10.652,-0.735,-0.88,0.0
10.1,-0.7,-0.893,0.0
9.605,-0.668,-0.904,0.0
9.136,-0.639,-0.911,0.0
11.953,-0.836,-0.856,0.0
11.207,-0.787,-0.865,0.0
10.599,-0.747,-0.878,0.0
10.062,-0.712,-0.892,0.0
9.6,-0.682,-0.905,0.0
9.16,-0.653,-0.916,0.0
11.922,-0.851,-0.856,0.0
11.174,-0.8,-0.865,0.0
10.64,-0.765,-0.884,0.0
10.06,-0.726,-0.893,0.0
9.601,-0.696,-0.907,0.0
9.105,-0.662,-0.911,0.0
11.921,-0.868,-0.857,0.0
11.186,-0.817,-0.867,0.0
10.63,-0.779,-0.884,0.0
10.025,-0.738,-0.891,0.0
9.594,-0.709,-0.907,0.0
9.073,-0.673,-0.909,0.0
11.908,-0.883,-0.858,0.0
11.194,-0.833,-0.869,0.0
10.577,-0.791,-0.881,0.0
10.013,-0.751,-0.891,0.0
9.585,-0.722,-0.907,0.0
9.085,-0.687,-0.911,0.0
11.883,-0.898,-0.857,0.0
11.184,-0.848,-0.869,0.0
10.562,-0.804,-0.88,0.0
10.016,-0.765,-0.892,0.0
9.566,-0.734,-0.905,0.0
9.092,-0.7,-0.912,0.0
11.877,-0.914,-0.856,0.0
11.177,-0.863,-0.868,0.0
10.574,-0.82,-0.881,0.0
10.038,-0.781,-0.894,0.0
9.55,-0.746,-0.904,0.0
9.114,-0.714,-0.914,0.0
11.897,-0.932,-0.857,0.0
11.194,-0.88,-0.869,0.0
10.608,-0.837,-0.883,0.0
10.034,-0.794,-0.893,0.0
9.59,-0.762,-0.907,0.0
9.127,-0.728,-0.915,0.0
11.925,-0.95,-0.859,0.0
11.198,-0.895,-0.869,0.0
10.589,-0.849,-0.881,0.0
10.033,-0.808,-0.892,0.0
9.587,-0.774,-0.906,0.0
9.124,-0.739,-0.913,0.0
11.953,-0.968,-0.86,0.0
11.226,-0.912,-0.87,0.0
10.625,-0.866,-0.883,0.0
10.074,-0.824,-0.894,0.0
9.592,-0.787,-0.905,0.0
9.131,-0.752,-0.913,0.0
12.007,-0.988,-0.862,0.0
11.248,-0.929,-0.87,0.0
10.643,-0.882,-0.882,0.0
10.082,-0.838,-0.893,0.0
9.617,-0.802,-0.906,0.0
9.15,-0.766,-0.913,0.0
12.022,-1.005,-0.86,0.0
11.283,-0.946,-0.87,0.0
10.697,-0.9,-0.885,0.0
10.106,-0.853,-0.893,0.0
9.634,-0.816,-0.905,0.0
9.176,-0.779,-0.914,0.0
12.07,-1.024,-0.861,0.0
11.317,-0.963,-0.87,0.0
10.734,-0.917,-0.885,0.0
10.128,-0.868,-0.892,0.0
9.655,-0.83,-0.905,0.0
9.202,-0.793,-0.914,0.0
12.112,-1.043,-0.861,0.0
11.366,-0.982,-0.871,0.0
10.78,-0.934,-0.886,0.0
10.159,-0.883,-0.892,0.0
9.657,-0.842,-0.902,0.0
9.259,-0.809,-0.917,0.0
12.145,-1.061,-0.859,0.0
11.41,-0.999,-0.871,0.0
10.801,-0.949,-0.884,0.0
10.209,-0.899,-0.893,0.0
9.7,-0.857,-0.903,0.0
9.277,-0.822,-0.915,0.0
12.185,-1.079,-0.858,0.0
11.448,-1.016,-0.869,0.0
10.862,-0.967,-0.885,0.0
10.237,-0.914,-0.892,0.0
9.725,-0.871,-0.901,0.0
9.273,-0.833,-0.911,0.0
12.258,-1.1,-0.858,0.0
11.497,-1.034,-0.869,0.0
10.884,-0.982,-0.883,0.0
10.289,-0.931,-0.892,0.0
9.776,-0.887,-0.902,0.0
9.332,-0.849,-0.913,0.0
12.335,-1.121,-0.859,0.0
11.59,-1.056,-0.871,0.0
10.957,-1.001,-0.884,0.0
10.352,-0.948,-0.893,0.0
9.81,-0.901,-0.901,0.0
9.37,-0.863,-0.912,0.0
12.432,-1.144,-0.859,0.0
11.663,-1.076,-0.871,0.0
10.98,-1.015,-0.88,0.0
10.418,-0.966,-0.894,0.0
9.85,-0.916,-0.899,0.0
9.409,-0.877,-0.911,0.0
12.487,-1.162,-0.857,0.0
11.716,-1.093,-0.869,0.0
11.021,-1.031,-0.878,0.0
10.484,-0.983,-0.894,0.0
9.935,-0.934,-0.902,0.0
9.444,-0.89,-0.91,0.0
12.54,-1.181,-0.854,0.0
11.78,-1.112,-0.867,0.0
11.128,-1.053,-0.88,0.0
10.518,-0.998,-0.891,0.0
9.995,-0.95,-0.902,0.0
9.52,-0.907,-0.912,0.0
12.666,-1.206,-0.855,0.0
11.868,-1.132,-0.867,0.0
11.22,-1.073,-0.881,0.0
10.59,-1.015,-0.891,0.0
10.056,-0.966,-0.901,0.0
9.554,-0.921,-0.909,0.0
12.704,-1.222,-0.85,0.0
11.92,-1.149,-0.863,0.0
11.287,-1.091,-0.879,0.0
10.7,-1.037,-0.893,0.0
10.148,-0.985,-0.903,0.0
9.632,-0.937,-0.91,0.0
12.786,-1.243,-0.847,0.0
12.014,-1.17,-0.862,0.0
11.338,-1.107,-0.876,0.0
10.789,-1.055,-0.894,0.0
10.197,-1.0,-0.901,0.0
9.725,-0.956,-0.912,0.0
12.937,-1.27,-0.849,0.0
12.11,-1.191,-0.861,0.0
11.393,-1.123,-0.872,0.0
10.862,-1.073,-0.892,0.0
10.289,-1.018,-0.901,0.0
9.776,-0.97,-0.91,0.0
13.079,-1.295,-0.849,0.0
12.14,-1.205,-0.854,0.0
11.503,-1.144,-0.872,0.0
10.935,-1.09,-0.89,0.0
10.346,-1.033,-0.899,0.0
9.827,-0.984,-0.908,0.0
13.16,-1.315,-0.844,0.0
12.279,-1.23,-0.855,0.0
11.577,-1.161,-0.869,0.0
10.982,-1.104,-0.886,0.0
10.403,-1.048,-0.896,0.0
9.925,-1.002,-0.909,0.0
13.221,-1.332,-0.838,0.0
12.373,-1.249,-0.852,0.0
11.701,-1.184,-0.869,0.0
11.084,-1.124,-0.885,0.0
10.494,-1.066,-0.895,0.0
9.984,-1.016,-0.906,0.0
13.364,-1.358,-0.836,0.0
12.595,-1.282,-0.857,0.0
11.821,-1.205,-0.868,0.0
11.175,-1.142,-0.883,0.0
10.599,-1.085,-0.895,0.0
10.089,-1.035,-0.907,0.0
13.545,-1.387,-0.836,0.0
12.661,-1.298,-0.851,0.0
11.975,-1.23,-0.869,0.0
11.284,-1.161,-0.882,0.0
10.702,-1.103,-0.895,0.0
10.163,-1.05,-0.905,0.0
13.807,-1.424,-0.841,0.0
12.843,-1.327,-0.852,0.0
12.009,-1.242,-0.861,0.0
11.358,-1.177,-0.878,0.0
10.738,-1.115,-0.888,0.0
10.242,-1.065,-0.903,0.0
13.962,-1.45,-0.838,0.0
13.032,-1.355,-0.852,0.0
12.098,-1.26,-0.857,0.0
11.52,-1.202,-0.88,0.0
10.912,-1.14,-0.892,0.0
10.334,-1.082,-0.901,0.0
14.066,-1.47,-0.831,0.0
13.168,-1.378,-0.849,0.0
12.298,-1.289,-0.859,0.0
11.58,-1.216,-0.873,0.0
11.042,-1.161,-0.893,0.0
10.399,-1.095,-0.897,0.0
13.996,-1.471,-0.813,0.0
13.292,-1.399,-0.844,0.0
12.434,-1.311,-0.857,0.0
11.667,-1.232,-0.869,0.0
11.124,-1.176,-0.889,0.0
10.064,-1.066,-0.858,0.0
13.862,-1.466,-0.792,0.0
13.393,-1.418,-0.838,0.0
12.524,-1.328,-0.851,0.0
11.756,-1.248,-0.863,0.0
11.217,-1.192,-0.885,0.0
9.464,-1.007,-0.798,0.0
13.736,-1.46,-0.771,0.0
13.507,-1.437,-0.831,0.0
12.794,-1.363,-0.856,0.0
11.938,-1.273,-0.865,0.0
11.34,-1.211,-0.883,0.0
10.765,-1.151,-0.896,0.0
13.586,-1.451,-0.749,0.0
13.548,-1.448,-0.82,0.0
13.079,-1.4,-0.862,0.0
12.14,-1.301,-0.867,0.0
11.438,-1.227,-0.879,0.0
10.826,-1.163,-0.89,0.0
13.489,-1.447,-0.73,0.0
13.427,-1.441,-0.799,0.0
13.243,-1.423,-0.859,0.0
12.141,-1.306,-0.854,0.0
11.539,-1.243,-0.874,0.0
11.008,-1.187,-0.894,0.0
13.395,-1.442,-0.71,1.0
13.359,-1.44,-0.78,0.0
13.249,-1.429,-0.845,1.0
12.443,-1.344,-0.862,0.0
11.694,-1.264,-0.873,0.0
11.145,-1.206,-0.892,0.0
13.401,-1.448,-0.696,1.0
13.273,-1.436,-0.761,0.0
13.252,-1.435,-0.831,0.0
12.639,-1.37,-0.862,0.0
11.761,-1.276,-0.865,0.0
11.235,-1.22,-0.887,0.0
13.52,-1.466,-0.687,1.0
13.181,-1.43,-0.741,0.0
13.24,-1.438,-0.815,0.0
12.839,-1.395,-0.861,0.0
11.922,-1.297,-0.864,0.0
11.373,-1.238,-0.885,0.0
13.728,-1.492,-0.683,1.0
13.106,-1.426,-0.722,1.0
13.145,-1.431,-0.794,0.0
12.985,-1.415,-0.856,0.0
12.167,-1.327,-0.867,0.0
11.483,-1.253,-0.88,0.0
14.025,-1.528,-0.681,1.0
13.109,-1.429,-0.707,1.0
13.06,-1.425,-0.774,0.0
13.115,-1.432,-0.849,0.0
12.396,-1.355,-0.869,0.0
11.539,-1.262,-0.871,0.0
14.293,-1.561,-0.678,4.0
13.209,-1.443,-0.697,1.0
13.0,-1.421,-0.755,0.0
13.061,-1.429,-0.83,0.0
12.608,-1.38,-0.869,0.0
11.755,-1.287,-0.874,0.0
14.377,-1.572,-0.665,10.0
13.359,-1.462,-0.689,1.0
12.927,-1.415,-0.736,0.0
12.953,-1.419,-0.808,0.0
12.775,-1.4,-0.865,0.0
11.85,-1.299,-0.866,0.0
14.548,-1.593,-0.655,11.0
13.599,-1.49,-0.685,1.0
12.915,-1.415,-0.72,0.0
12.868,-1.411,-0.787,0.0
12.859,-1.41,-0.856,0.0
12.092,-1.327,-0.87,0.0
14.854,-1.628,-0.651,14.0
13.886,-1.522,-0.683,1.0
12.968,-1.422,-0.707,1.0
12.91,-1.416,-0.774,0.0
12.925,-1.418,-0.844,0.0
12.281,-1.348,-0.868,0.0
14.985,-1.643,-0.639,14.0
14.209,-1.558,-0.682,2.0
13.09,-1.436,-0.698,1.0
12.865,-1.411,-0.756,0.0
12.974,-1.424,-0.832,0.0
12.568,-1.38,-0.873,0.0
15.177,-1.664,-0.628,15.0
14.339,-1.572,-0.67,9.0
13.29,-1.457,-0.692,1.0
12.88,-1.412,-0.741,0.0
12.928,-1.418,-0.813,0.0
12.694,-1.393,-0.866,0.0
15.458,-1.694,-0.621,17.0
14.477,-1.586,-0.659,10.0
13.502,-1.48,-0.686,1.0
12.92,-1.416,-0.727,1.0
12.922,-1.416,-0.796,0.0
12.855,-1.409,-0.861,0.0
15.938,-1.745,-0.62,19.0
14.747,-1.614,-0.652,11.0
13.818,-1.513,-0.685,1.0
12.973,-1.42,-0.713,1.0
12.94,-1.417,-0.781,0.0
12.965,-1.419,-0.851,0.0
16.332,-1.786,-0.615,17.0
14.976,-1.637,-0.644,14.0
14.155,-1.547,-0.684,1.0
13.111,-1.433,-0.704,1.0
13.015,-1.422,-0.769,0.0
13.131,-1.435,-0.846,0.0
16.657,-1.818,-0.606,15.0
14.901,-1.626,-0.621,12.0
14.339,-1.565,-0.674,6.0
13.283,-1.449,-0.697,1.0
13.044,-1.423,-0.754,0.0
13.153,-1.434,-0.83,0.0
17.18,-1.871,-0.603,19.0
15.472,-1.685,-0.625,15.0
14.494,-1.578,-0.663,7.0
13.506,-1.47,-0.691,1.0
13.121,-1.428,-0.741,0.0
13.176,-1.433,-0.815,0.0
17.568,-1.909,-0.594,20.0
15.646,-1.699,-0.612,14.0
14.872,-1.615,-0.661,8.0
13.762,-1.494,-0.687,1.0
13.182,-1.43,-0.728,0.0
13.193,-1.431,-0.799,0.0
17.922,-1.942,-0.583,22.0
16.043,-1.737,-0.607,13.0
15.079,-1.632,-0.651,11.0
14.084,-1.524,-0.684,1.0
13.295,-1.438,-0.717,1.0
13.294,-1.437,-0.787,0.0
18.27,-1.973,-0.571,25.0
16.647,-1.796,-0.609,15.0
15.028,-1.621,-0.629,12.0
14.341,-1.546,-0.678,3.0
13.436,-1.447,-0.707,1.0
13.401,-1.443,-0.777,0.0
18.614,-2.002,-0.558,19.0
17.24,-1.853,-0.608,20.0
15.617,-1.677,-0.634,14.0
14.539,-1.561,-0.669,2.0
13.635,-1.463,-0.7,1.0
13.475,-1.445,-0.763,0.0
19.109,-2.047,-0.548,19.0
17.682,-1.892,-0.601,18.0
15.942,-1.705,-0.627,14.0
15.043,-1.608,-0.673,1.0
13.841,-1.478,-0.692,1.0
13.638,-1.455,-0.755,0.0
19.638,-2.094,-0.538,19.0
17.956,-1.913,-0.587,17.0
16.319,-1.737,-0.62,14.0
15.325,-1.63,-0.665,5.0
14.108,-1.499,-0.688,1.0
13.808,-1.466,-0.747,0.0
20.365,-2.16,-0.532,20.0
18.365,-1.946,-0.577,17.0
16.813,-1.78,-0.617,15.0
15.502,-1.639,-0.653,8.0
14.346,-1.516,-0.681,3.0
13.975,-1.475,-0.738,0.0
20.822,-2.196,-0.517,19.0
18.817,-1.983,-0.567,19.0
17.253,-1.816,-0.611,16.0
15.977,-1.68,-0.653,7.0
14.586,-1.532,-0.673,1.0
14.124,-1.482,-0.727,1.0
21.617,-2.266,-0.509,20.0
19.376,-2.029,-0.559,20.0
17.64,-1.845,-0.602,16.0
16.232,-1.696,-0.642,12.0
14.975,-1.563,-0.672,1.0
14.326,-1.494,-0.719,1.0
22.318,-2.325,-0.497,23.0
19.915,-2.072,-0.549,17.0
18.05,-1.875,-0.593,17.0
16.538,-1.716,-0.633,14.0
15.329,-1.589,-0.668,2.0
14.497,-1.501,-0.709,1.0
22.806,-2.359,-0.479,20.0
20.579,-2.126,-0.541,18.0
18.52,-1.91,-0.585,17.0
16.959,-1.747,-0.628,16.0
15.615,-1.607,-0.661,2.0
14.782,-1.519,-0.704,1.0
23.527,-2.416,-0.464,25.0
21.266,-2.18,-0.532,23.0
18.946,-1.939,-0.575,16.0
17.208,-1.759,-0.615,15.0
16.156,-1.649,-0.663,2.0
15.061,-1.535,-0.698,1.0
23.575,-2.401,-0.436,22.0
21.777,-2.215,-0.518,20.0
19.393,-1.969,-0.564,17.0
17.617,-1.786,-0.608,16.0
16.336,-1.654,-0.65,9.0
15.395,-1.556,-0.694,1.0
23.569,-2.381,-0.406,1.0
22.301,-2.249,-0.502,19.0
19.942,-2.008,-0.555,18.0
18.051,-1.814,-0.6,16.0
16.598,-1.665,-0.64,2.0
15.655,-1.568,-0.687,1.0
29.535,-2.957,-0.472,1.0
23.118,-2.31,-0.492,21.0
20.564,-2.051,-0.547,21.0
18.467,-1.839,-0.591,17.0
17.289,-1.719,-0.645,2.0
15.987,-1.587,-0.682,1.0
29.981,-2.973,-0.442,2.0
23.512,-2.327,-0.472,26.0
20.779,-2.053,-0.527,20.0
18.867,-1.861,-0.581,16.0
17.674,-1.74,-0.638,2.0
16.346,-1.606,-0.677,1.0
30.179,-2.963,-0.409,18.0
23.583,-2.311,-0.444,8.0
21.399,-2.093,-0.517,15.0
19.332,-1.887,-0.572,16.0
18.184,-1.772,-0.634,3.0
16.706,-1.624,-0.671,1.0
30.41,-2.955,-0.375,9.0
23.596,-2.288,-0.416,0.0
22.492,-2.176,-0.516,20.0
19.831,-1.915,-0.562,18.0
18.571,-1.789,-0.625,3.0
17.164,-1.651,-0.669,1.0
35.212,-3.384,-0.392,12.0
29.252,-2.805,-0.481,2.0
23.23,-2.223,-0.506,18.0
20.511,-1.958,-0.557,16.0
18.766,-1.788,-0.61,3.0
17.606,-1.674,-0.666,1.0
36.133,-3.433,-0.36,13.0
29.125,-2.76,-0.445,9.0
23.56,-2.228,-0.485,12.0
21.239,-2.004,-0.552,18.0
19.569,-1.842,-0.613,2.0
18.152,-1.705,-0.665,1.0
37.489,-3.519,-0.33,15.0
29.674,-2.778,-0.419,14.0
23.563,-2.201,-0.458,3.0
21.794,-2.031,-0.542,20.0
20.156,-1.874,-0.608,2.0
18.716,-1.736,-0.664,1.0
38.403,-3.559,-0.294,15.0
29.851,-2.759,-0.387,33.0
27.783,-2.562,-0.508,3.0
22.518,-2.071,-0.534,19.0
20.598,-1.89,-0.598,2.0
19.423,-1.777,-0.667,1.0
0.0,0.0,0.0,0.0
29.884,-2.725,-0.354,3.0
27.82,-2.53,-0.478,27.0
23.032,-2.089,-0.52,20.0
21.203,-1.918,-0.592,2.0
20.104,-1.814,-0.668,1.0
0.0,0.0,0.0,0.0
29.943,-2.693,-0.321,0.0
28.9,-2.592,-0.464,25.0
23.942,-2.141,-0.514,22.0
21.708,-1.936,-0.582,2.0
20.966,-1.865,-0.674,1.0
44.512,-3.956,-0.192,19.0
30.049,-2.663,-0.29,0.0
29.679,-2.622,-0.444,40.0
24.794,-2.184,-0.506,21.0
22.361,-1.964,-0.575,2.0
21.961,-1.924,-0.682,1.0
47.134,-4.126,-0.153,22.0
41.227,-3.597,-0.353,0.0
29.859,-2.598,-0.415,151.0
26.0,-2.255,-0.503,24.0
23.218,-2.008,-0.573,3.0
22.856,-1.971,-0.686,1.0
0.0,0.0,0.0,0.0
42.005,-3.607,-0.316,7.0
29.893,-2.559,-0.384,1.0
27.163,-2.318,-0.497,24.0
23.98,-2.04,-0.566,3.0
23.888,-2.026,-0.692,0.0
51.117,-4.331,-0.059,26.0
43.871,-3.705,-0.285,9.0
35.489,-2.987,-0.419,32.0
28.368,-2.38,-0.489,19.0
24.969,-2.088,-0.564,2.0
25.035,-2.086,-0.7,0.0
56.189,-4.679,-0.007,5.0
45.127,-3.745,-0.247,5.0
35.551,-2.94,-0.384,46.0
29.601,-2.44,-0.481,13.0
26.26,-2.157,-0.567,2.0
26.587,-2.176,-0.716,0.0
61.77,-5.051,0.052,5.0
48.703,-3.968,-0.218,7.0
35.66,-2.895,-0.35,9.0
30.203,-2.443,-0.461,2.0
27.93,-2.251,-0.576,1.0
0.0,0.0,0.0,0.0
67.527,-5.42,0.122,12.0
49.547,-3.961,-0.175,21.0
0.0,0.0,0.0,0.0
31.87,-2.529,-0.457,2.0
29.739,-2.352,-0.585,1.0
26.683,-2.102,-0.668,0.0
67.814,-5.337,0.186,36.0
51.604,-4.045,-0.134,5.0
39.25,-3.065,-0.312,2.0
32.639,-2.539,-0.437,1.0
31.874,-2.47,-0.598,0.0
26.945,-2.08,-0.65,0.0
67.881,-5.235,0.248,36.0
56.986,-4.377,-0.096,2.0
40.235,-3.078,-0.283,16.0
34.272,-2.611,-0.428,2.0
0.0,0.0,0.0,0.0
0.0,0.0,0.0,0.0
82.825,-6.253,0.377,12.0
0.0,0.0,0.0,0.0
40.614,-3.04,-0.25,0.0
36.645,-2.731,-0.426,2.0
33.573,-2.492,-0.57,0.0
28.645,-2.118,-0.64,0.0
20.02,-1.478,0.108,8.0
48.904,-3.595,0.002,2.0
45.109,-3.302,-0.239,34.0
40.644,-2.962,-0.438,1.0
34.77,-2.523,-0.561,0.0
29.793,-2.152,-0.641,0.0
20.027,-1.445,0.125,19.0
59.189,-4.252,0.051,1.0
48.659,-3.479,-0.218,1.0
0.0,0.0,0.0,0.0
0.0,0.0,0.0,0.0
30.226,-2.132,-0.626,0.0
102.811,-7.241,0.725,32.0
63.391,-4.444,0.106,2.0
20.052,-1.399,-0.074,2.0
20.038,-1.391,-0.183,3.0
20.081,-1.387,-0.292,1.0
30.639,-2.108,-0.61,1.0
20.025,-1.375,0.156,0.0
20.017,-1.368,0.049,11.0
19.991,-1.359,-0.058,19.0
20.023,-1.355,-0.168,23.0
20.035,-1.349,-0.276,22.0
20.058,-1.344,-0.384,24.0
20.0,-1.338,0.171,22.0
19.997,-1.331,0.063,20.0
19.981,-1.323,-0.043,19.0
19.996,-1.318,-0.153,31.0
20.026,-1.313,-0.261,31.0
20.05,-1.308,-0.37,28.0
19.97,-1.3,0.185,28.0
19.984,-1.294,0.078,26.0
19.981,-1.287,-0.029,16.0
20.002,-1.282,-0.139,29.0
20.021,-1.276,-0.247,28.0
20.065,-1.273,-0.356,26.0
19.989,-1.266,0.199,28.0
19.99,-1.259,0.091,26.0
20.002,-1.253,-0.016,16.0
20.033,-1.247,-0.126,24.0
20.03,-1.241,-0.234,17.0
20.015,-1.233,-0.342,6.0
19.992,-1.229,0.212,150.0
19.993,-1.222,0.104,150.0
19.981,-1.214,-0.003,151.0
19.985,-1.207,-0.113,150.0
19.985,-1.2,-0.221,151.0
19.982,-1.193,-0.329,150.0
19.987,-1.191,0.224,56.0
19.996,-1.184,0.116,46.0
20.013,-1.179,0.008,20.0
19.998,-1.17,-0.101,18.0
19.999,-1.164,-0.209,2.0
34.224,-1.98,-0.544,0.0
19.967,-1.152,0.236,17.0
20.039,-1.149,0.128,12.0
20.023,-1.141,0.02,8.0
0.0,0.0,0.0,0.0
0.0,0.0,0.0,0.0
35.344,-1.977,-0.542,0.0
19.985,-1.115,0.247,22.0
20.006,-1.109,0.139,24.0
19.983,-1.1,0.03,23.0
20.008,-1.095,-0.079,21.0
20.022,-1.088,-0.188,0.0
38.744,-2.093,-0.574,0.0
19.999,-1.077,0.258,28.0
19.979,-1.069,0.149,22.0
19.98,-1.061,0.041,32.0
19.979,-1.054,-0.069,24.0
19.992,-1.048,-0.177,25.0
20.065,-1.044,-0.287,18.0
20.012,-1.039,0.268,23.0
20.014,-1.032,0.159,17.0
19.982,-1.022,0.05,17.0
19.978,-1.015,-0.059,27.0
19.975,-1.008,-0.168,33.0
19.997,-1.002,-0.277,28.0
20.163,-1.007,0.279,27.0
20.161,-1.0,0.169,3.0
20.032,-0.986,0.059,3.0
19.989,-0.977,-0.051,21.0
19.99,-0.969,-0.159,27.0
19.998,-0.962,-0.268,27.0
20.163,-0.967,0.287,2.0
138.272,-6.582,1.219,25.0
0.0,0.0,0.0,0.0
20.037,-0.939,-0.043,2.0
20.013,-0.93,-0.152,8.0
20.014,-0.923,-0.261,16.0
138.05,-6.345,2.02,64.0
138.259,-6.304,1.271,22.0
0.0,0.0,0.0,0.0
0.0,0.0,0.0,0.0
0.0,0.0,0.0,0.0
38.418,-1.694,-0.487,0.0
138.076,-6.065,2.07,102.0
138.042,-6.011,1.317,16.0
0.0,0.0,0.0,0.0
0.0,0.0,0.0,0.0
51.25,-2.175,-0.354,0.0
0.0,0.0,0.0,0.0
138.133,-5.783,2.113,97.0
138.422,-5.746,1.362,24.0
0.0,0.0,0.0,0.0
0.0,0.0,0.0,0.0
50.413,-2.036,-0.334,0.0
0.0,0.0,0.0,0.0
138.346,-5.509,2.155,7.0
138.448,-5.46,1.4,22.0
0.0,0.0,0.0,0.0
0.0,0.0,0.0,0.0
51.223,-1.963,-0.326,0.0
0.0,0.0,0.0,0.0
138.446,-5.225,2.189,4.0
138.508,-5.175,1.433,12.0
0.0,0.0,0.0,0.0
0.0,0.0,0.0,0.0
51.364,-1.861,-0.316,0.0
41.513,-1.488,-0.483,0.0
138.47,-4.934,2.218,4.0
138.571,-4.886,1.461,14.0
138.612,-4.836,0.702,3.0
0.0,0.0,0.0,0.0
0.0,0.0,0.0,0.0
41.516,-1.402,-0.476,0.0
193.253,-6.486,3.128,8.0
138.627,-4.601,1.483,12.0
52.699,-1.73,0.275,0.0
0.0,0.0,0.0,0.0
0.0,0.0,0.0,0.0
41.536,-1.317,-0.47,1.0
193.68,-6.097,3.159,8.0
138.713,-4.313,1.501,9.0
0.0,0.0,0.0,0.0
0.0,0.0,0.0,0.0
51.633,-1.548,-0.296,0.0
41.252,-1.222,-0.463,2.0
0.0,0.0,0.0,0.0
138.625,-4.019,1.511,8.0
138.491,-3.963,0.749,8.0
0.0,0.0,0.0,0.0
54.883,-1.53,-0.311,0.0
41.486,-1.141,-0.463,0.0
0.0,0.0,0.0,0.0
138.875,-3.731,1.52,5.0
138.765,-3.678,0.756,4.0
0.0,0.0,0.0,0.0
51.643,-1.33,-0.292,0.0
43.434,-1.103,-0.484,1.0
193.164,-4.855,3.18,9.0
138.786,-3.435,1.521,4.0
138.904,-3.387,0.757,4.0
0.0,0.0,0.0,0.0
54.44,-1.287,-0.308,0.0
0.0,0.0,0.0,0.0
193.251,-4.447,3.178,8.0
138.928,-3.144,1.518,3.0
138.919,-3.094,0.753,4.0
0.0,0.0,0.0,0.0
0.0,0.0,0.0,0.0
44.861,-0.949,-0.503,0.0
192.885,-4.029,3.16,15.0
139.001,-2.851,1.51,4.0
138.95,-2.797,0.742,4.0
0.0,0.0,0.0,0.0
0.0,0.0,0.0,0.0
0.0,0.0,0.0,0.0
193.243,-3.621,3.146,9.0
139.186,-2.557,1.498,11.0
139.117,-2.503,0.728,4.0
0.0,0.0,0.0,0.0
55.22,-0.953,-0.326,3.0
41.16,-0.695,-0.47,0.0
193.826,-3.216,3.13,6.0
139.219,-2.257,1.478,9.0
138.764,-2.199,0.705,9.0
0.0,0.0,0.0,0.0
51.227,-0.774,-0.311,0.0
0.0,0.0,0.0,0.0
204.028,-2.95,3.259,7.0
139.262,-1.961,1.453,12.0
127.591,-1.751,0.625,7.0
0.0,0.0,0.0,0.0
0.0,0.0,0.0,0.0
0.0,0.0,0.0,0.0
139.337,-1.717,2.196,2.0
139.319,-1.666,1.424,12.0
0.0,0.0,0.0,0.0
0.0,0.0,0.0,0.0
50.786,-0.552,-0.33,1.0
40.299,-0.423,-0.485,0.0
119.737,-1.219,1.857,150.0
119.733,-1.175,1.192,45.0
0.0,0.0,0.0,0.0
0.0,0.0,0.0,0.0
50.809,-0.443,-0.344,2.0
40.032,-0.334,-0.493,0.0
119.752,-0.963,1.823,30.0
119.705,-0.92,1.157,17.0
110.888,-0.813,0.456,3.0
0.0,0.0,0.0,0.0
50.7,-0.335,-0.359,0.0
0.0,0.0,0.0,0.0
119.84,-0.709,1.785,23.0
119.69,-0.667,1.118,16.0
0.0,0.0,0.0,0.0
0.0,0.0,0.0,0.0
0.0,0.0,0.0,0.0
0.0,0.0,0.0,0.0
113.481,-0.433,1.65,2.0
114.469,-0.397,1.027,17.0
101.583,-0.316,0.346,1.0
0.0,0.0,0.0,0.0
45.478,-0.108,-0.355,0.0
0.0,0.0,0.0,0.0
117.43,-0.199,1.66,8.0
117.282,-0.158,1.005,11.0
0.0,0.0,0.0,0.0
0.0,0.0,0.0,0.0
45.766,-0.013,-0.377,1.0
37.182,0.001,-0.513,0.0
111.15,0.044,1.523,15.0
110.933,0.081,0.902,7.0
0.0,0.0,0.0,0.0
0.0,0.0,0.0,0.0
44.785,0.08,-0.389,0.0
0.0,0.0,0.0,0.0
119.767,0.298,1.585,11.0
110.896,0.316,0.848,11.0
0.0,0.0,0.0,0.0
0.0,0.0,0.0,0.0
45.816,0.177,-0.421,0.0
0.0,0.0,0.0,0.0
111.074,0.508,1.413,29.0
104.801,0.517,0.748,9.0
87.344,0.459,0.135,3.0
0.0,0.0,0.0,0.0
42.886,0.254,-0.416,0.0
35.282,0.221,-0.54,0.0
104.932,0.697,1.278,7.0
104.694,0.73,0.69,6.0
84.334,0.617,0.084,1.0
0.0,0.0,0.0,0.0
42.982,0.344,-0.442,0.0
0.0,0.0,0.0,0.0
98.829,0.861,1.147,14.0
98.157,0.889,0.589,10.0
81.74,0.766,0.033,1.0
0.0,0.0,0.0,0.0
41.079,0.413,-0.447,1.0
33.585,0.348,-0.553,0.0
98.556,1.059,1.083,29.0
85.537,0.949,0.461,6.0
79.066,0.903,-0.016,2.0
50.417,0.593,-0.298,0.0
41.21,0.498,-0.474,0.0
33.051,0.411,-0.566,0.0
98.556,1.261,1.019,28.0
85.293,1.12,0.403,13.0
0.0,0.0,0.0,0.0
50.299,0.693,-0.331,0.0
41.242,0.582,-0.502,0.0
32.321,0.467,-0.575,0.0
91.995,1.364,0.888,24.0
81.014,1.228,0.327,7.0
0.0,0.0,0.0,0.0
47.257,0.746,-0.344,0.0
0.0,0.0,0.0,0.0
31.389,0.516,-0.581,0.0
91.856,1.545,0.821,30.0
84.446,1.448,0.28,3.0
0.0,0.0,0.0,0.0
46.055,0.82,-0.369,0.0
0.0,0.0,0.0,0.0
30.762,0.567,-0.592,0.0
85.605,1.612,0.7,10.0
77.57,1.485,0.199,4.0
0.0,0.0,0.0,0.0
45.007,0.891,-0.395,0.0
0.0,0.0,0.0,0.0
30.345,0.619,-0.608,0.0
85.202,1.771,0.631,15.0
71.837,1.517,0.127,8.0
0.0,0.0,0.0,0.0
44.297,0.963,-0.424,0.0
0.0,0.0,0.0,0.0
29.586,0.662,-0.616,0.0
84.991,1.935,0.559,12.0
67.579,1.56,0.063,3.0
0.0,0.0,0.0,0.0
43.948,1.041,-0.458,0.0
34.535,0.829,-0.554,0.0
28.868,0.702,-0.626,0.0
78.833,1.949,0.451,14.0
66.204,1.656,0.005,6.0
0.0,0.0,0.0,0.0
41.213,1.056,-0.465,1.0
33.427,0.866,-0.565,0.0
28.403,0.745,-0.641,0.0
72.084,1.919,0.349,10.0
64.565,1.739,-0.051,4.0
0.0,0.0,0.0,0.0
39.051,1.076,-0.476,0.0
0.0,0.0,0.0,0.0
28.323,0.797,-0.665,0.0
71.786,2.05,0.28,15.0
62.887,1.815,-0.108,5.0
0.0,0.0,0.0,0.0
0.0,0.0,0.0,0.0
31.351,0.932,-0.588,0.0
26.551,0.798,-0.648,0.0
71.34,2.171,0.211,12.0
61.459,1.889,-0.165,4.0
45.508,1.412,-0.379,0.0
36.82,1.153,-0.519,0.0
30.263,0.956,-0.597,0.0
26.15,0.834,-0.664,0.0
65.581,2.118,0.129,6.0
60.157,1.96,-0.22,1.0
41.364,1.359,-0.385,0.0
0.0,0.0,0.0,0.0
29.384,0.982,-0.609,0.0
25.301,0.853,-0.668,0.0
65.146,2.222,0.063,18.0
54.454,1.873,-0.254,1.0
0.0,0.0,0.0,0.0
0.0,0.0,0.0,0.0
29.08,1.025,-0.633,0.0
24.657,0.876,-0.676,0.0
59.218,2.127,-0.003,6.0
53.022,1.919,-0.302,0.0
40.234,1.467,-0.458,0.0
33.191,1.22,-0.569,0.0
27.913,1.034,-0.637,0.0
23.956,0.894,-0.682,0.0
58.676,2.212,-0.066,8.0
48.718,1.851,-0.331,0.0
0.0,0.0,0.0,0.0
0.0,0.0,0.0,0.0
26.88,1.043,-0.642,0.0
23.482,0.918,-0.694,0.0
56.006,2.211,-0.124,2.0
44.828,1.781,-0.353,0.0
36.345,1.454,-0.493,0.0
30.833,1.242,-0.596,0.0
26.343,1.068,-0.659,0.0
22.944,0.936,-0.704,0.0
54.798,2.257,-0.183,1.0
44.768,1.856,-0.404,1.0
35.35,1.475,-0.519,0.0
29.56,1.241,-0.605,0.0
25.291,1.069,-0.662,0.0
22.486,0.956,-0.716,0.0
53.784,2.308,-0.242,3.0
44.021,1.9,-0.448,0.0
0.0,0.0,0.0,0.0
29.011,1.267,-0.628,0.0
24.985,1.098,-0.682,0.0
21.689,0.959,-0.716,0.0
52.759,2.352,-0.299,6.0
0.0,0.0,0.0,0.0
33.094,1.492,-0.564,0.0
27.675,1.255,-0.632,0.0
24.04,1.096,-0.686,0.0
21.191,0.972,-0.725,0.0
52.136,2.41,-0.358,0.0
38.245,1.777,-0.48,0.0
31.629,1.478,-0.577,0.0
26.78,1.258,-0.644,0.0
23.204,1.096,-0.69,0.0
20.645,0.98,-0.732,0.0
0.0,0.0,0.0,0.0
36.591,1.759,-0.505,0.0
30.258,1.462,-0.589,0.0
26.101,1.268,-0.66,0.0
22.729,1.109,-0.704,0.0
20.156,0.989,-0.739,0.0
43.266,2.138,-0.404,2.0
34.877,1.731,-0.524,0.0
29.346,1.464,-0.608,0.0
24.993,1.252,-0.663,0.0
21.941,1.105,-0.707,0.0
19.598,0.992,-0.743,0.0
42.435,2.162,-0.45,1.0
33.098,1.693,-0.54,0.0
28.11,1.445,-0.618,0.0
24.333,1.256,-0.677,0.0
21.557,1.118,-0.723,0.0
19.195,1.0,-0.753,0.0
0.0,0.0,0.0,0.0
32.203,1.696,-0.567,0.0
27.234,1.441,-0.635,0.0
23.45,1.246,-0.683,0.0
20.869,1.114,-0.727,0.0
18.662,1.0,-0.756,0.0
0.0,0.0,0.0,0.0
30.683,1.661,-0.58,0.0
0.0,0.0,0.0,0.0
22.817,1.245,-0.694,0.0
20.369,1.117,-0.736,0.0
18.33,1.009,-0.767,0.0
35.567,1.969,-0.517,0.0
29.421,1.635,-0.595,0.0
25.423,1.419,-0.66,0.0
22.33,1.251,-0.709,0.0
19.788,1.113,-0.742,0.0
17.932,1.012,-0.775,0.0
33.56,1.905,-0.533,0.0
28.577,1.628,-0.617,0.0
24.908,1.424,-0.68,0.0
21.509,1.234,-0.712,0.0
19.282,1.111,-0.749,0.0
17.397,1.006,-0.775,0.0
32.209,1.872,-0.555,0.0
27.572,1.608,-0.633,0.0
23.848,1.396,-0.684,0.0
21.007,1.234,-0.725,0.0
18.875,1.113,-0.759,0.0
17.141,1.014,-0.788,0.0
30.79,1.831,-0.574,0.0
26.469,1.579,-0.644,0.0
22.999,1.377,-0.692,0.0
20.35,1.222,-0.731,0.0
18.262,1.101,-0.76,0.0
16.659,1.008,-0.789,0.0
29.645,1.801,-0.594,0.0
25.412,1.549,-0.655,0.0
22.319,1.365,-0.703,0.0
19.854,1.218,-0.741,0.0
17.9,1.102,-0.771,0.0
16.288,1.006,-0.795,0.0
28.41,1.762,-0.61,0.0
24.606,1.531,-0.669,0.0
21.595,1.348,-0.711,0.0
19.512,1.222,-0.756,0.0
17.441,1.095,-0.776,0.0
15.978,1.007,-0.802,0.0
27.406,1.733,-0.628,0.0
23.77,1.508,-0.681,0.0
21.13,1.344,-0.726,0.0
18.736,1.196,-0.753,0.0
17.022,1.089,-0.782,0.0
15.618,1.003,-0.807,0.0
26.284,1.694,-0.64,0.0
23.043,1.489,-0.693,0.0
20.306,1.316,-0.727,0.0
18.325,1.191,-0.763,0.0
16.684,1.087,-0.791,0.0
15.247,0.997,-0.81,0.0
25.381,1.665,-0.655,0.0
22.375,1.471,-0.706,0.0
19.698,1.299,-0.735,0.0
17.816,1.178,-0.768,0.0
16.298,1.081,-0.797,0.0
15.0,0.997,-0.819,0.0
24.614,1.642,-0.672,0.0
21.57,1.443,-0.713,0.0
19.253,1.291,-0.747,0.0
17.421,1.171,-0.777,0.0
15.992,1.078,-0.805,0.0
14.613,0.987,-0.82,0.0
23.483,1.591,-0.676,0.0
20.939,1.422,-0.723,0.0
18.704,1.273,-0.753,0.0
16.892,1.153,-0.779,0.0
15.563,1.065,-0.807,0.0
14.327,0.983,-0.825,0.0
22.87,1.573,-0.692,0.0
20.286,1.399,-0.731,0.0
18.101,1.251,-0.756,0.0
16.69,1.156,-0.795,0.0
15.215,1.056,-0.812,0.0
13.977,0.973,-0.826,0.0
22.215,1.55,-0.706,0.0
19.767,1.382,-0.742,0.0
17.835,1.25,-0.771,0.0
16.218,1.139,-0.796,0.0
14.845,1.045,-0.815,0.0
13.743,0.97,-0.833,0.0
21.488,1.519,-0.715,0.0
19.123,1.355,-0.746,0.0
17.333,1.231,-0.776,0.0
15.809,1.125,-0.8,0.0
14.606,1.042,-0.824,0.0
13.545,0.968,-0.842,0.0
20.758,1.486,-0.722,0.0
18.49,1.327,-0.75,0.0
16.898,1.215,-0.782,0.0
15.46,1.114,-0.806,0.0
14.247,1.028,-0.825,0.0
13.221,0.956,-0.842,0.0
20.161,1.461,-0.732,0.0
18.104,1.314,-0.761,0.0
16.454,1.197,-0.787,0.0
15.171,1.106,-0.814,0.0
13.955,1.019,-0.83,0.0
13.012,0.952,-0.848,0.0
19.472,1.427,-0.737,0.0
17.723,1.301,-0.773,0.0
16.188,1.191,-0.799,0.0
14.828,1.093,-0.819,0.0
13.708,1.012,-0.836,0.0
12.764,0.944,-0.852,0.0
19.0,1.407,-0.748,0.0
17.204,1.276,-0.776,0.0
15.771,1.172,-0.803,0.0
14.46,1.076,-0.821,0.0
13.463,1.004,-0.842,0.0
12.527,0.936,-0.856,0.0
18.398,1.376,-0.753,0.0
16.762,1.256,-0.782,0.0
15.365,1.153,-0.806,0.0
14.13,1.062,-0.824,0.0
13.135,0.989,-0.842,0.0
12.212,0.921,-0.853,0.0
17.99,1.358,-0.764,0.0
16.403,1.24,-0.791,0.0
15.071,1.141,-0.813,0.0
13.806,1.047,-0.826,0.0
12.932,0.982,-0.848,0.0
11.936,0.908,-0.852,0.0
17.601,1.34,-0.774,0.0
16.077,1.226,-0.8,0.0
14.683,1.121,-0.815,0.0
13.561,1.037,-0.832,0.0
12.676,0.971,-0.851,0.0
11.741,0.901,-0.856,0.0
17.023,1.306,-0.775,0.0
15.569,1.196,-0.798,0.0
14.304,1.1,-0.816,0.0
13.404,1.033,-0.843,0.0
12.315,0.95,-0.846,0.0
11.456,0.885,-0.853,0.0
16.65,1.287,-0.783,0.0
15.274,1.182,-0.807,0.0
14.066,1.09,-0.824,0.0
13.056,1.013,-0.841,0.0
12.094,0.94,-0.849,0.0
11.317,0.88,-0.86,0.0
16.309,1.269,-0.792,0.0
15.007,1.169,-0.815,0.0
13.751,1.072,-0.826,0.0
12.801,0.999,-0.844,0.0
11.882,0.929,-0.853,0.0
11.137,0.872,-0.864,0.0
15.884,1.243,-0.796,0.0
14.566,1.141,-0.814,0.0
13.6,1.067,-0.838,0.0
12.738,1.0,-0.86,0.0
11.721,0.922,-0.859,0.0
10.937,0.861,-0.865,0.0
15.596,1.227,-0.805,0.0
14.38,1.133,-0.825,0.0
13.305,1.049,-0.84,0.0
12.286,0.97,-0.848,0.0
11.407,0.902,-0.853,0.0
10.812,0.856,-0.872,0.0
15.213,1.203,-0.808,0.0
14.006,1.109,-0.825,0.0
13.057,1.035,-0.844,0.0
12.079,0.958,-0.852,0.0
11.253,0.893,-0.859,0.0
10.629,0.845,-0.873,0.0
14.855,1.18,-0.811,0.0
13.707,1.089,-0.828,0.0
12.83,1.021,-0.849,0.0
11.852,0.944,-0.854,0.0
11.059,0.882,-0.861,0.0
10.458,0.835,-0.874,0.0
14.477,1.154,-0.812,0.0
13.544,1.08,-0.838,0.0
12.549,1.002,-0.849,0.0
11.607,0.928,-0.853,0.0
10.892,0.871,-0.864,0.0
10.354,0.829,-0.881,0.0
14.328,1.146,-0.825,0.0
13.27,1.062,-0.841,0.0
12.23,0.98,-0.846,0.0
11.364,0.911,-0.853,0.0
10.777,0.865,-0.871,0.0
10.228,0.821,-0.886,0.0
13.977,1.121,-0.826,0.0
13.039,1.046,-0.845,0.0
12.057,0.968,-0.852,0.0
11.211,0.901,-0.858,0.0
10.596,0.852,-0.872,0.0
10.115,0.814,-0.891,0.0
13.695,1.1,-0.829,0.0
12.765,1.026,-0.847,0.0
11.814,0.95,-0.852,0.0
11.039,0.889,-0.861,0.0
10.464,0.843,-0.877,0.0
9.965,0.803,-0.893,0.0
13.512,1.087,-0.838,0.0
12.444,1.002,-0.843,0.0
11.608,0.935,-0.854,0.0
10.841,0.874,-0.861,0.0
10.329,0.833,-0.88,0.0
9.83,0.793,-0.895,0.0
13.24,1.067,-0.84,0.0
12.237,0.986,-0.847,0.0
11.392,0.919,-0.854,0.0
10.73,0.866,-0.868,0.0
10.199,0.823,-0.884,0.0
9.736,0.787,-0.9,0.0
13.019,1.049,-0.844,0.0
12.008,0.968,-0.848,0.0
11.246,0.907,-0.859,0.0
10.556,0.852,-0.869,0.0
10.106,0.816,-0.89,0.0
9.568,0.773,-0.898,0.0
12.831,1.034,-0.85,0.0
11.813,0.952,-0.851,0.0
11.031,0.89,-0.858,0.0
10.454,0.843,-0.875,0.0
9.959,0.804,-0.891,0.0
9.495,0.767,-0.905,0.0
12.391,0.998,-0.838,0.0
11.616,0.936,-0.853,0.0
10.899,0.878,-0.863,0.0
10.326,0.833,-0.878,0.0
9.817,0.792,-0.892,0.0
9.39,0.758,-0.908,0.0
12.23,0.984,-0.844,0.0
11.409,0.918,-0.853,0.0
10.73,0.864,-0.864,0.0
10.22,0.823,-0.883,0.0
9.699,0.781,-0.894,0.0
9.217,0.743,-0.904,0.0
12.032,0.967,-0.846,0.0
11.242,0.903,-0.856,0.0
10.624,0.854,-0.87,0.0
10.088,0.811,-0.886,0.0
9.613,0.773,-0.9,0.0
9.131,0.734,-0.908,0.0
11.847,0.95,-0.849,0.0
11.094,0.89,-0.859,0.0
10.453,0.838,-0.87,0.0
9.986,0.801,-0.89,0.0
9.586,0.769,-0.91,0.0
9.038,0.725,-0.91,0.0
11.661,0.933,-0.851,0.0
10.923,0.874,-0.86,0.0
10.335,0.827,-0.874,0.0
9.81,0.785,-0.887,0.0
9.483,0.759,-0.913,0.0
8.96,0.717,-0.914,0.0
11.434,0.912,-0.85,0.0
10.793,0.86,-0.864,0.0
10.23,0.816,-0.878,0.0
9.718,0.775,-0.891,0.0
9.181,0.732,-0.895,0.0
8.851,0.706,-0.915,0.0
11.312,0.899,-0.855,0.0
10.656,0.846,-0.867,0.0
10.119,0.804,-0.882,0.0
9.634,0.765,-0.896,0.0
9.171,0.728,-0.906,0.0
8.73,0.693,-0.913,0.0
11.138,0.881,-0.856,0.0
10.536,0.833,-0.87,0.0
10.026,0.793,-0.886,0.0
9.565,0.756,-0.901,0.0
9.092,0.719,-0.91,0.0
8.704,0.688,-0.921,0.0
10.993,0.866,-0.858,0.0
10.425,0.821,-0.874,0.0
9.927,0.781,-0.889,0.0
9.402,0.74,-0.897,0.0
9.023,0.71,-0.914,0.0
8.608,0.677,-0.921,0.0
10.887,0.853,-0.863,0.0
10.325,0.809,-0.878,0.0
9.877,0.773,-0.896,0.0
0.0,0.0,0.0,0.0
8.892,0.696,-0.911,0.0
8.509,0.666,-0.921,0.0
10.767,0.839,-0.866,0.0
10.209,0.795,-0.88,0.0
9.683,0.754,-0.89,0.0
9.24,0.719,-0.904,0.0
8.88,0.691,-0.92,0.0
8.416,0.655,-0.921,0.0
10.637,0.824,-0.867,0.0
10.142,0.785,-0.885,0.0
9.636,0.746,-0.897,0.0
9.196,0.711,-0.91,0.0
8.736,0.675,-0.915,0.0
8.345,0.645,-0.922,0.0
10.499,0.808,-0.868,0.0
10.006,0.769,-0.885,0.0
9.583,0.736,-0.902,0.0
9.06,0.696,-0.906,0.0
8.677,0.666,-0.918,0.0
8.292,0.636,-0.926,0.0
10.425,0.796,-0.873,0.0
9.964,0.761,-0.892,0.0
9.365,0.714,-0.892,0.0
9.039,0.689,-0.914,0.0
8.619,0.657,-0.921,0.0
8.254,0.629,-0.93,0.0
10.287,0.78,-0.872,0.0
9.825,0.744,-0.889,0.0
9.374,0.71,-0.903,0.0
8.914,0.674,-0.911,0.0
8.539,0.646,-0.922,0.0
8.089,0.611,-0.92,0.0
10.239,0.77,-0.879,0.0
9.753,0.733,-0.893,0.0
9.371,0.703,-0.912,0.0
8.867,0.665,-0.915,0.0
0.0,0.0,0.0,0.0
8.085,0.606,-0.928,0.0
10.164,0.758,-0.882,0.0
9.602,0.715,-0.888,0.0
9.243,0.688,-0.909,0.0
8.759,0.651,-0.912,0.0
8.411,0.625,-0.925,0.0
8.017,0.595,-0.928,0.0
10.102,0.746,-0.886,0.0
9.61,0.709,-0.899,0.0
9.154,0.675,-0.908,0.0
8.678,0.639,-0.912,0.0
8.327,0.613,-0.923,0.0
8.006,0.589,-0.934,0.0
10.008,0.732,-0.888,0.0
9.539,0.697,-0.901,0.0
9.075,0.662,-0.909,0.0
8.619,0.629,-0.914,0.0
8.27,0.603,-0.925,0.0
7.957,0.579,-0.936,0.0
9.922,0.718,-0.889,0.0
9.478,0.685,-0.903,0.0
9.013,0.651,-0.911,0.0
0.0,0.0,0.0,0.0
8.227,0.593,-0.927,0.0
7.869,0.567,-0.932,0.0
9.83,0.704,-0.889,0.0
9.352,0.669,-0.899,0.0
8.93,0.638,-0.91,0.0
8.546,0.61,-0.921,0.0
8.222,0.586,-0.933,0.0
7.812,0.556,-0.932,0.0
9.817,0.695,-0.896,0.0
9.303,0.658,-0.902,0.0
8.846,0.625,-0.909,0.0
0.0,0.0,0.0,0.0
8.155,0.575,-0.932,0.0
7.804,0.549,-0.937,0.0
9.713,0.68,-0.894,0.0
9.197,0.643,-0.899,0.0
8.805,0.614,-0.911,0.0
0.0,0.0,0.0,0.0
8.095,0.563,-0.932,0.0
7.762,0.54,-0.938,0.0
9.648,0.667,-0.895,0.0
9.265,0.639,-0.913,0.0
8.753,0.603,-0.912,0.0
8.402,0.578,-0.925,0.0
8.069,0.555,-0.935,0.0
7.711,0.529,-0.938,0.0
9.632,0.657,-0.901,0.0
9.181,0.625,-0.911,0.0
8.72,0.593,-0.915,0.0
0.0,0.0,0.0,0.0
7.998,0.542,-0.932,0.0
7.655,0.518,-0.936,0.0
9.514,0.64,-0.896,0.0
9.093,0.611,-0.908,0.0
8.663,0.581,-0.915,0.0
0.0,0.0,0.0,0.0
7.989,0.534,-0.936,0.0
7.643,0.51,-0.94,0.0
9.425,0.625,-0.893,0.0
9.034,0.598,-0.908,0.0
8.595,0.568,-0.913,0.0
0.0,0.0,0.0,0.0
7.909,0.521,-0.932,0.0
7.567,0.498,-0.935,0.0
9.471,0.619,-0.903,0.0
9.033,0.59,-0.913,0.0
8.588,0.56,-0.917,0.0
8.198,0.533,-0.923,0.0
7.912,0.514,-0.937,0.0
7.553,0.49,-0.937,0.0
9.382,0.604,-0.9,0.0
8.952,0.575,-0.91,0.0
8.621,0.553,-0.925,0.0
0.0,0.0,0.0,0.0
7.83,0.5,-0.931,0.0
7.53,0.48,-0.939,0.0
9.356,0.593,-0.902,0.0
8.906,0.563,-0.91,0.0
8.533,0.539,-0.92,0.0
0.0,0.0,0.0,0.0
7.843,0.493,-0.936,0.0
7.479,0.469,-0.936,0.0
9.278,0.578,-0.899,0.0
8.891,0.553,-0.912,0.0
8.46,0.525,-0.916,0.0
8.125,0.503,-0.927,0.0
7.756,0.479,-0.93,0.0
7.504,0.463,-0.942,0.0
9.263,0.568,-0.902,0.0
8.867,0.542,-0.914,0.0
8.547,0.521,-0.929,0.0
8.161,0.497,-0.935,0.0
7.825,0.475,-0.941,0.0
7.474,0.453,-0.942,0.0
9.303,0.56,-0.909,0.0
8.877,0.533,-0.918,0.0
8.43,0.505,-0.92,0.0
8.098,0.484,-0.93,0.0
7.789,0.465,-0.939,0.0
7.443,0.443,-0.94,0.0
9.176,0.542,-0.9,0.0
8.801,0.519,-0.913,0.0
8.437,0.496,-0.923,0.0
8.036,0.472,-0.926,0.0
7.765,0.455,-0.939,0.0
7.434,0.434,-0.942,0.0
9.17,0.532,-0.902,0.0
8.826,0.511,-0.918,0.0
8.405,0.485,-0.922,0.0
8.032,0.462,-0.928,0.0
7.74,0.444,-0.938,0.0
7.449,0.427,-0.945,0.0
9.191,0.523,-0.907,0.0
8.761,0.497,-0.914,0.0
0.0,0.0,0.0,0.0
8.029,0.453,-0.929,0.0
7.728,0.435,-0.939,0.0
7.417,0.416,-0.943,0.0
9.155,0.51,-0.905,0.0
8.803,0.489,-0.92,0.0
8.384,0.465,-0.924,0.0
8.078,0.447,-0.937,0.0
7.733,0.426,-0.94,0.0
7.42,0.408,-0.945,0.0
9.123,0.498,-0.903,0.0
8.75,0.476,-0.916,0.0
8.347,0.453,-0.921,0.0
8.022,0.434,-0.931,0.0
7.703,0.416,-0.938,0.0
7.363,0.396,-0.939,0.0
9.183,0.491,-0.91,0.0
8.734,0.465,-0.915,0.0
8.374,0.445,-0.925,0.0
0.0,0.0,0.0,0.0
7.636,0.403,-0.931,0.0
7.413,0.39,-0.946,0.0
9.127,0.477,-0.906,0.0
8.741,0.455,-0.917,0.0
8.388,0.435,-0.927,0.0
8.001,0.414,-0.93,0.0
7.691,0.397,-0.938,0.0
7.433,0.382,-0.949,0.0
9.153,0.467,-0.909,0.0
8.739,0.445,-0.917,0.0
8.38,0.425,-0.926,0.0
0.0,0.0,0.0,0.0
7.686,0.387,-0.937,0.0
7.37,0.37,-0.941,0.0
9.178,0.457,-0.911,0.0
8.786,0.436,-0.922,0.0
8.35,0.413,-0.923,0.0
8.007,0.395,-0.931,0.0
7.717,0.379,-0.941,0.0
7.418,0.363,-0.946,0.0
9.169,0.446,-0.91,0.0
8.73,0.423,-0.915,0.0
8.36,0.403,-0.923,0.0
7.983,0.384,-0.928,0.0
7.705,0.369,-0.939,0.0
7.405,0.353,-0.944,0.0
9.204,0.436,-0.912,0.0
8.77,0.414,-0.918,0.0
8.35,0.393,-0.921,0.0
8.001,0.375,-0.929,0.0
7.69,0.359,-0.936,0.0
7.403,0.344,-0.943,0.0
9.23,0.426,-0.914,0.0
8.791,0.404,-0.919,0.0
8.418,0.385,-0.927,0.0
8.025,0.366,-0.93,0.0
7.711,0.35,-0.937,0.0
7.393,0.334,-0.94,0.0
9.161,0.411,-0.905,0.0
8.81,0.394,-0.92,0.0
8.429,0.375,-0.927,0.0
0.0,0.0,0.0,0.0
7.77,0.343,-0.943,0.0
7.43,0.327,-0.943,0.0
9.182,0.401,-0.905,0.0
8.833,0.384,-0.92,0.0
8.414,0.364,-0.923,0.0
8.025,0.346,-0.926,0.0
7.775,0.334,-0.941,0.0
7.462,0.319,-0.945,0.0
9.233,0.391,-0.907,0.0
8.845,0.373,-0.918,0.0
8.39,0.352,-0.918,0.0
0.0,0.0,0.0,0.0
7.772,0.324,-0.938,0.0
7.476,0.31,-0.945,0.0
9.258,0.381,-0.907,0.0
8.842,0.362,-0.915,0.0
8.42,0.343,-0.919,0.0
0.0,0.0,0.0,0.0
7.769,0.314,-0.935,0.0
7.472,0.3,-0.941,0.0
9.25,0.369,-0.903,0.0
8.869,0.352,-0.915,0.0
8.456,0.334,-0.919,0.0
0.0,0.0,0.0,0.0
7.822,0.306,-0.938,0.0
7.521,0.292,-0.944,0.0
9.318,0.36,-0.905,0.0
8.923,0.343,-0.917,0.0
8.545,0.327,-0.925,0.0
0.0,0.0,0.0,0.0
7.823,0.296,-0.935,0.0
7.548,0.284,-0.944,0.0
9.372,0.35,-0.906,0.0
8.969,0.333,-0.917,0.0
8.516,0.315,-0.918,0.0
0.0,0.0,0.0,0.0
7.874,0.288,-0.937,0.0
7.512,0.273,-0.936,0.0
9.384,0.339,-0.903,0.0
8.965,0.322,-0.912,0.0
8.574,0.306,-0.92,0.0
8.215,0.292,-0.928,0.0
7.943,0.28,-0.941,0.0
7.601,0.267,-0.943,0.0
9.405,0.328,-0.9,0.0
8.98,0.311,-0.909,0.0
8.594,0.296,-0.917,0.0
8.3,0.284,-0.933,0.0
7.908,0.269,-0.932,0.0
7.59,0.257,-0.937,0.0
9.473,0.318,-0.901,0.0
9.025,0.301,-0.908,0.0
8.621,0.286,-0.915,0.0
8.296,0.274,-0.927,0.0
7.961,0.261,-0.934,0.0
7.674,0.25,-0.943,0.0
9.511,0.308,-0.898,0.0
9.098,0.293,-0.909,0.0
8.687,0.278,-0.916,0.0
8.333,0.265,-0.926,0.0
8.003,0.253,-0.933,0.0
7.667,0.24,-0.936,0.0
9.627,0.3,-0.903,0.0
9.171,0.284,-0.91,0.0
8.804,0.27,-0.922,0.0
8.386,0.256,-0.926,0.0
8.055,0.244,-0.933,0.0
7.707,0.232,-0.936,0.0
9.689,0.29,-0.901,0.0
9.189,0.273,-0.905,0.0
8.825,0.26,-0.918,0.0
8.416,0.246,-0.922,0.0
8.093,0.235,-0.932,0.0
7.757,0.224,-0.936,0.0
9.738,0.279,-0.898,0.0
9.278,0.264,-0.907,0.0
8.9,0.251,-0.919,0.0
8.436,0.237,-0.918,0.0
8.151,0.227,-0.932,0.0
7.863,0.217,-0.942,0.0
9.799,0.269,-0.896,0.0
9.346,0.255,-0.906,0.0
8.893,0.24,-0.91,0.0
8.535,0.229,-0.921,0.0
8.191,0.218,-0.929,0.0
7.829,0.207,-0.931,0.0
9.864,0.259,-0.894,0.0
9.409,0.245,-0.904,0.0
8.984,0.232,-0.912,0.0
0.0,0.0,0.0,0.0
8.295,0.211,-0.934,0.0
7.907,0.199,-0.934,0.0
9.94,0.249,-0.892,0.0
9.498,0.236,-0.904,0.0
9.065,0.223,-0.912,0.0
8.713,0.213,-0.925,0.0
8.328,0.202,-0.93,0.0
7.98,0.192,-0.935,0.0
10.043,0.24,-0.891,0.0
9.538,0.226,-0.898,0.0
9.103,0.213,-0.907,0.0
8.796,0.204,-0.925,0.0
8.388,0.193,-0.928,0.0
8.025,0.183,-0.932,0.0
10.121,0.23,-0.888,0.0
9.678,0.218,-0.902,0.0
9.194,0.205,-0.907,0.0
8.823,0.195,-0.919,0.0
8.448,0.185,-0.926,0.0
8.07,0.175,-0.929,0.0
10.236,0.22,-0.888,0.0
9.768,0.208,-0.9,0.0
9.28,0.196,-0.906,0.0
8.839,0.185,-0.911,0.0
8.507,0.176,-0.924,0.0
8.204,0.168,-0.935,0.0
10.294,0.21,-0.882,0.0
9.812,0.198,-0.894,0.0
9.365,0.187,-0.904,0.0
8.916,0.176,-0.91,0.0
8.567,0.168,-0.921,0.0
8.209,0.159,-0.927,0.0
10.391,0.2,-0.879,0.0
9.894,0.188,-0.89,0.0
9.474,0.178,-0.903,0.0
0.0,0.0,0.0,0.0
8.662,0.16,-0.921,0.0
8.334,0.152,-0.931,0.0
10.481,0.19,-0.874,0.0
9.989,0.179,-0.887,0.0
9.609,0.17,-0.905,0.0
9.154,0.16,-0.913,0.0
8.752,0.152,-0.92,0.0
8.381,0.144,-0.927,0.0
10.614,0.181,-0.873,0.0
10.173,0.171,-0.891,0.0
9.654,0.161,-0.898,0.0
9.235,0.152,-0.909,0.0
8.842,0.143,-0.919,0.0
8.453,0.136,-0.924,0.0
10.748,0.171,-0.871,0.0
10.249,0.161,-0.885,0.0
9.817,0.153,-0.901,0.0
9.365,0.144,-0.911,0.0
8.993,0.136,-0.923,0.0
8.545,0.128,-0.923,0.0
10.904,0.162,-0.869,0.0
10.358,0.152,-0.881,0.0
9.918,0.144,-0.897,0.0
9.481,0.136,-0.91,0.0
9.017,0.127,-0.914,0.0
8.603,0.12,-0.918,0.0
11.118,0.154,-0.872,0.0
10.457,0.143,-0.876,0.0
10.019,0.135,-0.893,0.0
9.6,0.127,-0.908,0.0
9.11,0.119,-0.911,0.0
8.765,0.113,-0.924,0.0
11.256,0.144,-0.868,0.0
10.599,0.134,-0.874,0.0
10.102,0.126,-0.887,0.0
9.715,0.119,-0.906,0.0
9.237,0.112,-0.911,0.0
8.776,0.104,-0.913,0.0
11.366,0.134,-0.861,0.0
10.749,0.125,-0.871,0.0
10.252,0.117,-0.886,0.0
9.807,0.11,-0.901,0.0
9.362,0.104,-0.91,0.0
8.96,0.098,-0.919,0.0
11.487,0.125,-0.853,0.0
10.911,0.116,-0.869,0.0
10.383,0.109,-0.882,0.0
9.905,0.102,-0.896,0.0
9.486,0.096,-0.908,0.0
9.098,0.09,-0.92,0.0
11.683,0.116,-0.851,0.0
11.157,0.108,-0.872,0.0
10.487,0.1,-0.876,0.0
10.022,0.094,-0.891,0.0
9.644,0.089,-0.909,0.0
9.161,0.082,-0.913,0.0
11.892,0.107,-0.849,0.0
11.302,0.099,-0.867,0.0
10.661,0.092,-0.874,0.0
10.209,0.086,-0.892,0.0
9.728,0.08,-0.902,0.0
9.304,0.075,-0.913,0.0
12.162,0.098,-0.85,0.0
11.417,0.09,-0.858,0.0
10.82,0.083,-0.87,0.0
10.291,0.078,-0.884,0.0
9.869,0.073,-0.9,0.0
9.393,0.068,-0.907,0.0
12.455,0.089,-0.851,0.0
11.614,0.081,-0.855,0.0
11.038,0.075,-0.871,0.0
10.42,0.07,-0.878,0.0
9.977,0.065,-0.894,0.0
9.621,0.061,-0.913,0.0
12.751,0.081,-0.851,0.0
11.809,0.073,-0.85,0.0
11.284,0.068,-0.872,0.0
10.594,0.062,-0.876,0.0
10.154,0.057,-0.893,0.0
9.703,0.053,-0.905,0.0
12.989,0.071,-0.845,0.0
12.111,0.065,-0.852,0.0
11.382,0.059,-0.861,0.0
10.745,0.054,-0.871,0.0
10.269,0.05,-0.887,0.0
9.864,0.046,-0.904,0.0
13.315,0.063,-0.845,0.0
12.405,0.056,-0.852,0.0
11.578,0.051,-0.856,0.0
10.958,0.046,-0.87,0.0
10.433,0.043,-0.883,0.0
9.989,0.039,-0.899,0.0
13.607,0.054,-0.841,0.0
12.815,0.048,-0.859,0.0
11.798,0.043,-0.853,0.0
11.206,0.039,-0.87,0.0
10.598,0.035,-0.879,0.0
10.146,0.032,-0.895,0.0
13.867,0.044,-0.833,0.0
12.936,0.039,-0.845,0.0
12.072,0.035,-0.852,0.0
11.341,0.031,-0.861,0.0
10.803,0.028,-0.877,0.0
10.267,0.025,-0.888,0.0
14.244,0.035,-0.831,0.0
13.296,0.031,-0.845,0.0
12.389,0.027,-0.853,0.0
11.57,0.024,-0.859,0.0
11.005,0.021,-0.874,0.0
10.42,0.018,-0.883,0.0
14.53,0.026,-0.822,0.0
13.587,0.023,-0.84,0.0
12.664,0.019,-0.849,0.0
11.764,0.016,-0.852,0.0
11.231,0.014,-0.873,0.0
10.611,0.012,-0.88,0.0
14.968,0.017,-0.82,0.0
13.864,0.014,-0.832,0.0
12.89,0.012,-0.841,0.0
12.089,0.009,-0.854,0.0
11.371,0.007,-0.863,0.0
10.789,0.005,-0.875,0.0
15.297,0.008,-0.811,0.0
14.312,0.006,-0.833,0.0
13.38,0.004,-0.849,0.0
12.439,0.002,-0.855,0.0
11.59,0.0,-0.858,0.0
11.036,0.0,-0.875,0.0
15.869,0.0,-0.812,0.0
14.604,-0.001,-0.823,0.0
13.659,-0.003,-0.842,0.0
12.72,-0.004,-0.851,0.0
11.817,-0.005,-0.853,0.0
11.248,-0.006,-0.871,0.0
16.242,-0.008,-0.801,0.0
15.039,-0.01,-0.82,0.0
13.982,-0.01,-0.836,0.0
13.108,-0.011,-0.853,0.0
12.172,-0.012,-0.856,0.0
11.439,-0.012,-0.864,0.0
16.782,-0.018,-0.796,0.0
15.375,-0.018,-0.809,0.0
14.337,-0.018,-0.83,0.0
13.425,-0.018,-0.848,0.0
12.511,-0.018,-0.856,0.0
11.657,-0.018,-0.858,0.0
17.363,-0.027,-0.79,0.0
15.869,-0.026,-0.805,0.0
14.676,-0.025,-0.821,0.0
13.764,-0.025,-0.843,0.0
12.82,-0.025,-0.852,0.0
11.954,-0.024,-0.857,0.0
17.766,-0.035,-0.775,0.0
16.457,-0.034,-0.803,0.0
15.092,-0.033,-0.815,0.0
14.034,-0.032,-0.832,0.0
13.281,-0.031,-0.857,0.0
12.284,-0.03,-0.856,0.0
18.389,-0.044,-0.766,0.0
16.902,-0.042,-0.792,0.0
15.57,-0.04,-0.81,0.0
14.432,-0.039,-0.827,0.0
13.531,-0.037,-0.846,0.0
12.608,-0.036,-0.854,0.0
