X,Y,Z,Reflectivity
8.855,-0.625,-0.916,0.0
0.0,0.0,0.0,0.0
8.11,-0.576,-0.929,0.0
7.837,-0.558,-0.941,0.0
9.752,-0.693,-0.895,0.0
9.328,-0.665,-0.907,0.0
8.9,-0.636,-0.915,0.0
8.562,-0.614,-0.928,0.0
8.167,-0.587,-0.93,0.0
7.839,-0.565,-0.936,0.0
9.808,-0.706,-0.893,0.0
9.343,-0.674,-0.902,0.0
8.946,-0.648,-0.913,0.0
0.0,0.0,0.0,0.0
8.208,-0.598,-0.929,0.0
7.9,-0.577,-0.938,0.0
9.91,-0.722,-0.896,0.0
9.481,-0.693,-0.909,0.0
9.012,-0.66,-0.913,0.0
0.0,0.0,0.0,0.0
8.244,-0.607,-0.927,0.0
7.907,-0.584,-0.933,0.0
9.967,-0.735,-0.893,0.0
9.548,-0.706,-0.908,0.0
9.076,-0.673,-0.913,0.0
0.0,0.0,0.0,0.0
8.284,-0.617,-0.925,0.0
7.959,-0.595,-0.932,0.0
10.043,-0.749,-0.892,0.0
9.576,-0.716,-0.903,0.0
9.152,-0.686,-0.913,0.0
0.0,0.0,0.0,0.0
8.347,-0.629,-0.925,0.0
8.011,-0.605,-0.932,0.0
10.155,-0.765,-0.894,0.0
9.672,-0.731,-0.904,0.0
9.15,-0.693,-0.905,0.0
8.808,-0.669,-0.92,0.0
0.0,0.0,0.0,0.0
8.075,-0.616,-0.932,0.0
10.21,-0.777,-0.89,0.0
9.725,-0.742,-0.901,0.0
9.271,-0.709,-0.909,0.0
8.863,-0.679,-0.918,0.0
0.0,0.0,0.0,0.0
8.09,-0.623,-0.927,0.0
10.298,-0.791,-0.888,0.0
9.781,-0.753,-0.897,0.0
9.335,-0.721,-0.907,0.0
8.89,-0.688,-0.913,0.0
8.558,-0.664,-0.926,0.0
8.191,-0.637,-0.931,0.0
10.379,-0.805,-0.886,0.0
9.882,-0.768,-0.897,0.0
9.435,-0.735,-0.908,0.0
8.944,-0.698,-0.91,0.0
0.0,0.0,0.0,0.0
8.24,-0.646,-0.928,0.0
10.453,-0.818,-0.882,0.0
9.943,-0.78,-0.893,0.0
9.499,-0.746,-0.905,0.0
9.066,-0.714,-0.914,0.0
8.638,-0.681,-0.917,0.0
8.316,-0.657,-0.929,0.0
10.594,-0.836,-0.883,0.0
10.066,-0.795,-0.894,0.0
9.642,-0.763,-0.909,0.0
9.175,-0.728,-0.915,0.0
8.789,-0.699,-0.925,0.0
8.401,-0.669,-0.929,0.0
10.72,-0.852,-0.883,0.0
10.19,-0.811,-0.894,0.0
9.689,-0.773,-0.903,0.0
9.277,-0.741,-0.916,0.0
8.861,-0.71,-0.923,0.0
8.418,-0.675,-0.922,0.0
10.831,-0.867,-0.881,0.0
10.268,-0.823,-0.891,0.0
9.752,-0.783,-0.898,0.0
9.332,-0.751,-0.911,0.0
8.886,-0.716,-0.916,0.0
8.561,-0.691,-0.929,0.0
10.955,-0.883,-0.879,0.0
10.369,-0.837,-0.888,0.0
9.849,-0.796,-0.897,0.0
9.409,-0.762,-0.908,0.0
9.023,-0.732,-0.92,0.0
8.585,-0.698,-0.922,0.0
11.074,-0.898,-0.877,0.0
10.496,-0.852,-0.887,0.0
9.962,-0.81,-0.896,0.0
9.489,-0.773,-0.905,0.0
9.106,-0.743,-0.918,0.0
8.669,-0.708,-0.921,0.0
11.211,-0.914,-0.875,0.0
10.612,-0.866,-0.885,0.0
10.09,-0.825,-0.896,0.0
9.632,-0.789,-0.908,0.0
9.175,-0.753,-0.914,0.0
8.771,-0.72,-0.921,0.0
11.339,-0.929,-0.872,0.0
10.774,-0.884,-0.886,0.0
10.218,-0.84,-0.895,0.0
9.711,-0.799,-0.904,0.0
9.254,-0.763,-0.911,0.0
8.863,-0.731,-0.92,0.0
11.497,-0.947,-0.87,0.0
10.905,-0.899,-0.884,0.0
10.314,-0.851,-0.891,0.0
9.802,-0.81,-0.9,0.0
9.39,-0.777,-0.913,0.0
8.974,-0.744,-0.921,0.0
11.619,-0.961,-0.865,0.0
11.018,-0.912,-0.879,0.0
10.457,-0.867,-0.891,0.0
9.916,-0.823,-0.899,0.0
9.492,-0.789,-0.911,0.0
9.077,-0.755,-0.92,0.0
11.792,-0.979,-0.863,0.0
11.146,-0.926,-0.876,0.0
10.569,-0.879,-0.887,0.0
10.022,-0.834,-0.896,0.0
9.62,-0.802,-0.912,0.0
9.148,-0.763,-0.916,0.0
12.003,-0.999,-0.864,0.0
11.308,-0.942,-0.874,0.0
10.736,-0.896,-0.887,0.0
10.163,-0.849,-0.895,0.0
9.694,-0.81,-0.906,0.0
9.262,-0.775,-0.915,0.0
12.184,-1.017,-0.861,0.0
11.463,-0.958,-0.871,0.0
10.861,-0.908,-0.884,0.0
10.294,-0.862,-0.894,0.0
9.782,-0.82,-0.901,0.0
9.356,-0.785,-0.912,0.0
12.344,-1.033,-0.857,0.0
11.637,-0.974,-0.869,0.0
11.018,-0.923,-0.882,0.0
10.425,-0.874,-0.891,0.0
9.936,-0.834,-0.902,0.0
9.485,-0.797,-0.912,0.0
12.52,-1.049,-0.852,0.0
11.79,-0.989,-0.865,0.0
11.142,-0.935,-0.877,0.0
10.563,-0.887,-0.889,0.0
10.039,-0.844,-0.898,0.0
9.594,-0.807,-0.91,0.0
12.752,-1.07,-0.851,0.0
12.045,-1.011,-0.868,0.0
11.309,-0.95,-0.875,0.0
10.742,-0.903,-0.889,0.0
10.177,-0.856,-0.897,0.0
9.696,-0.816,-0.906,0.0
13.05,-1.096,-0.853,0.0
12.211,-1.026,-0.863,0.0
11.479,-0.965,-0.872,0.0
10.88,-0.915,-0.886,0.0
10.305,-0.867,-0.894,0.0
9.785,-0.824,-0.901,0.0
13.313,-1.118,-0.852,0.0
12.395,-1.042,-0.859,0.0
11.652,-0.98,-0.869,0.0
11.022,-0.927,-0.882,0.0
10.469,-0.881,-0.893,0.0
9.949,-0.837,-0.902,0.0
13.509,-1.135,-0.845,0.0
12.559,-1.055,-0.853,0.0
11.844,-0.995,-0.867,0.0
11.166,-0.938,-0.877,0.0
10.613,-0.892,-0.891,0.0
10.091,-0.849,-0.9,0.0
13.72,-1.151,-0.839,0.0
12.81,-1.075,-0.851,0.0
12.074,-1.014,-0.866,0.0
11.354,-0.953,-0.876,0.0
10.795,-0.906,-0.891,0.0
10.22,-0.859,-0.897,0.0
14.009,-1.174,-0.837,0.0
13.046,-1.093,-0.849,0.0
12.276,-1.029,-0.864,0.0
11.539,-0.967,-0.874,0.0
10.937,-0.917,-0.887,0.0
10.342,-0.867,-0.893,0.0
14.313,-1.198,-0.835,0.0
13.374,-1.119,-0.851,0.0
12.425,-1.039,-0.856,0.0
11.705,-0.979,-0.87,0.0
11.084,-0.927,-0.882,0.0
10.52,-0.88,-0.893,0.0
14.476,-1.208,-0.823,0.0
13.599,-1.135,-0.845,0.0
12.678,-1.058,-0.855,0.0
11.938,-0.996,-0.87,0.0
11.24,-0.938,-0.879,0.0
10.678,-0.891,-0.891,0.0
14.872,-1.238,-0.825,0.0
13.791,-1.148,-0.838,0.0
12.913,-1.074,-0.852,0.0
12.145,-1.01,-0.867,0.0
11.413,-0.949,-0.875,0.0
10.846,-0.902,-0.889,0.0
15.163,-1.258,-0.819,0.0
14.09,-1.168,-0.835,0.0
13.285,-1.101,-0.857,0.0
12.311,-1.02,-0.861,0.0
11.589,-0.96,-0.872,0.0
11.0,-0.911,-0.886,0.0
15.4,-1.273,-0.809,0.0
14.365,-1.187,-0.83,0.0
13.488,-1.113,-0.85,0.0
12.509,-1.032,-0.856,0.0
11.795,-0.973,-0.87,0.0
11.145,-0.919,-0.881,0.0
15.768,-1.297,-0.805,0.0
14.727,-1.211,-0.829,0.0
13.676,-1.124,-0.842,0.0
12.836,-1.054,-0.859,0.0
12.046,-0.989,-0.87,0.0
11.316,-0.928,-0.877,0.0
16.127,-1.32,-0.799,0.0
14.979,-1.225,-0.821,0.0
13.956,-1.141,-0.838,0.0
13.106,-1.071,-0.858,0.0
12.22,-0.998,-0.864,0.0
11.515,-0.939,-0.875,0.0
16.706,-1.36,-0.802,0.0
15.305,-1.245,-0.816,0.0
14.217,-1.155,-0.832,0.0
13.323,-1.082,-0.852,0.0
12.412,-1.007,-0.859,0.0
11.684,-0.947,-0.87,0.0
16.952,-1.372,-0.789,0.0
15.688,-1.268,-0.813,0.0
14.532,-1.174,-0.829,0.0
13.585,-1.096,-0.848,0.0
12.665,-1.021,-0.857,0.0
11.938,-0.962,-0.871,0.0
17.483,-1.405,-0.787,0.0
16.057,-1.289,-0.808,0.0
14.889,-1.194,-0.827,0.0
13.759,-1.102,-0.838,0.0
12.942,-1.036,-0.857,0.0
12.136,-0.97,-0.867,0.0
17.733,-1.415,-0.772,0.0
16.385,-1.306,-0.799,0.0
15.17,-1.207,-0.82,0.0
14.104,-1.121,-0.838,0.0
13.209,-1.049,-0.854,0.0
12.309,-0.976,-0.861,0.0
18.115,-1.434,-0.761,0.0
16.821,-1.33,-0.795,0.0
15.452,-1.22,-0.812,0.0
14.4,-1.135,-0.834,0.0
13.515,-1.064,-0.854,0.0
12.628,-0.993,-0.864,0.0
18.869,-1.481,-0.765,0.0
17.095,-1.34,-0.783,0.0
15.738,-1.232,-0.803,0.0
14.707,-1.149,-0.829,0.0
13.716,-1.071,-0.846,0.0
12.822,-0.999,-0.858,0.0
19.301,-1.501,-0.753,0.0
17.657,-1.371,-0.782,0.0
16.379,-1.27,-0.811,0.0
15.025,-1.163,-0.825,0.0
13.956,-1.079,-0.839,0.0
13.134,-1.014,-0.859,0.0
19.662,-1.515,-0.738,0.0
17.959,-1.381,-0.768,0.0
16.58,-1.273,-0.796,0.0
15.273,-1.171,-0.816,0.0
14.268,-1.092,-0.837,0.0
13.366,-1.021,-0.854,0.0
20.721,-1.58,-0.747,0.0
18.627,-1.417,-0.769,0.0
17.122,-1.3,-0.797,0.0
15.667,-1.188,-0.813,0.0
14.544,-1.101,-0.831,0.0
13.59,-1.027,-0.848,0.0
20.833,-1.57,-0.72,0.0
18.956,-1.426,-0.754,0.0
17.456,-1.311,-0.786,0.0
16.108,-1.207,-0.812,0.0
14.877,-1.113,-0.828,0.0
13.799,-1.03,-0.841,0.0
21.749,-1.621,-0.719,0.0
19.644,-1.461,-0.753,0.0
17.832,-1.323,-0.777,0.0
16.451,-1.218,-0.804,0.0
15.132,-1.118,-0.82,0.0
14.101,-1.04,-0.838,0.0
22.685,-1.669,-0.716,1.0
19.901,-1.461,-0.733,0.0
18.029,-1.321,-0.759,0.0
16.75,-1.224,-0.794,0.0
15.441,-1.126,-0.814,0.0
14.472,-1.053,-0.839,0.0
23.128,-1.68,-0.697,1.0
20.257,-1.468,-0.716,0.0
19.077,-1.379,-0.775,0.0
17.338,-1.25,-0.797,0.0
15.708,-1.13,-0.805,0.0
14.725,-1.057,-0.832,0.0
23.96,-1.716,-0.686,0.0
21.339,-1.524,-0.723,0.0
19.667,-1.401,-0.77,1.0
17.635,-1.253,-0.785,0.0
16.272,-1.154,-0.809,0.0
15.033,-1.063,-0.827,0.0
24.775,-1.748,-0.673,0.0
22.066,-1.553,-0.716,0.0
19.762,-1.387,-0.744,2.0
18.079,-1.265,-0.778,0.0
16.621,-1.16,-0.803,0.0
15.31,-1.066,-0.82,0.0
0.0,0.0,0.0,0.0
23.005,-1.594,-0.713,0.0
20.061,-1.386,-0.727,3.0
18.333,-1.263,-0.762,0.0
16.921,-1.162,-0.793,0.0
15.753,-1.079,-0.821,0.0
20.111,-1.375,-0.489,0.0
23.427,-1.597,-0.693,0.0
20.246,-1.376,-0.705,0.0
19.297,-1.307,-0.775,0.0
20.177,-1.363,-0.917,0.0
15.947,-1.074,-0.809,0.0
20.075,-1.349,-0.46,17.0
20.101,-1.346,-0.566,17.0
20.121,-1.343,-0.672,8.0
19.731,-1.313,-0.765,2.0
20.102,-1.334,-0.885,0.0
20.121,-1.331,-0.992,0.0
20.064,-1.324,-0.431,30.0
20.09,-1.321,-0.537,29.0
20.115,-1.319,-0.644,25.0
19.863,-1.298,-0.742,3.0
20.121,-1.31,-0.858,0.0
16.865,-1.095,-0.808,0.0
20.069,-1.299,-0.403,34.0
20.084,-1.296,-0.509,30.0
20.113,-1.293,-0.616,27.0
20.045,-1.284,-0.721,8.0
20.006,-1.277,-0.825,1.0
20.137,-1.281,-0.937,0.0
20.075,-1.274,-0.376,29.0
20.114,-1.272,-0.482,28.0
20.121,-1.267,-0.588,19.0
20.068,-1.26,-0.694,10.0
19.873,-1.243,-0.792,0.0
17.488,-1.089,-0.79,0.0
20.083,-1.248,-0.348,18.0
20.09,-1.243,-0.454,9.0
19.978,-1.232,-0.557,0.0
20.041,-1.231,-0.666,2.0
19.918,-1.219,-0.767,2.0
17.843,-1.087,-0.781,0.0
19.984,-1.214,-0.32,150.0
19.983,-1.209,-0.425,150.0
19.983,-1.204,-0.53,151.0
19.975,-1.199,-0.637,75.0
19.954,-1.193,-0.742,25.0
20.066,-1.194,-0.852,0.0
19.997,-1.187,-0.293,150.0
19.989,-1.182,-0.398,150.0
19.993,-1.177,-0.504,81.0
19.992,-1.171,-0.611,26.0
19.948,-1.164,-0.715,4.0
18.825,-1.094,-0.774,0.0
20.002,-1.159,-0.267,1.0
20.009,-1.154,-0.373,0.0
19.957,-1.146,-0.477,0.0
23.634,-1.351,-0.692,2.0
21.091,-1.2,-0.729,0.0
19.299,-1.093,-0.769,0.0
0.0,0.0,0.0,0.0
0.0,0.0,0.0,0.0
0.0,0.0,0.0,0.0
24.616,-1.371,-0.689,0.0
0.0,0.0,0.0,0.0
19.847,-1.095,-0.765,1.0
0.0,0.0,0.0,0.0
0.0,0.0,0.0,0.0
29.554,-1.609,-0.631,0.0
20.1,-1.088,-0.537,0.0
20.095,-1.083,-0.643,6.0
19.912,-1.068,-0.743,2.0
20.028,-1.071,-0.191,10.0
20.038,-1.065,-0.297,0.0
20.045,-1.06,-0.403,10.0
20.068,-1.056,-0.512,22.0
20.079,-1.051,-0.618,26.0
20.013,-1.042,-0.722,8.0
19.999,-1.038,-0.167,27.0
20.061,-1.035,-0.273,24.0
20.027,-1.028,-0.379,26.0
20.038,-1.023,-0.487,32.0
20.07,-1.019,-0.594,27.0
20.007,-1.01,-0.698,9.0
19.983,-1.005,-0.142,35.0
19.992,-1.0,-0.248,30.0
20.008,-0.995,-0.355,28.0
20.041,-0.99,-0.463,26.0
20.065,-0.986,-0.57,17.0
20.063,-0.98,-0.676,0.0
19.991,-0.973,-0.119,28.0
19.993,-0.967,-0.225,31.0
20.015,-0.962,-0.331,25.0
20.039,-0.957,-0.44,20.0
20.033,-0.951,-0.546,0.0
22.151,-1.045,-0.721,0.0
20.016,-0.941,-0.096,15.0
20.013,-0.934,-0.202,20.0
20.022,-0.929,-0.308,12.0
20.051,-0.924,-0.417,0.0
25.564,-1.171,-0.667,0.0
22.581,-1.027,-0.709,0.0
0.0,0.0,0.0,0.0
0.0,0.0,0.0,0.0
38.474,-1.719,-0.549,0.0
0.0,0.0,0.0,0.0
26.729,-1.178,-0.668,0.0
23.33,-1.022,-0.707,0.0
0.0,0.0,0.0,0.0
47.075,-2.037,-0.371,0.0
38.387,-1.649,-0.506,0.0
31.758,-1.354,-0.591,0.0
26.971,-1.142,-0.645,0.0
23.781,-0.999,-0.695,0.0
0.0,0.0,0.0,0.0
0.0,0.0,0.0,0.0
0.0,0.0,0.0,0.0
0.0,0.0,0.0,0.0
0.0,0.0,0.0,0.0
24.307,-0.978,-0.685,0.0
0.0,0.0,0.0,0.0
0.0,0.0,0.0,0.0
0.0,0.0,0.0,0.0
0.0,0.0,0.0,0.0
28.938,-1.122,-0.631,0.0
25.033,-0.962,-0.68,0.0
0.0,0.0,0.0,0.0
52.903,-2.007,-0.252,0.0
0.0,0.0,0.0,0.0
0.0,0.0,0.0,0.0
0.0,0.0,0.0,0.0
0.0,0.0,0.0,0.0
0.0,0.0,0.0,0.0
0.0,0.0,0.0,0.0
0.0,0.0,0.0,0.0
0.0,0.0,0.0,0.0
30.928,-1.086,-0.615,0.0
26.474,-0.921,-0.667,0.0
56.638,-1.959,0.141,0.0
0.0,0.0,0.0,0.0
0.0,0.0,0.0,0.0
38.127,-1.28,-0.518,0.0
31.088,-1.034,-0.589,0.0
26.881,-0.885,-0.652,0.0
0.0,0.0,0.0,0.0
0.0,0.0,0.0,0.0
47.7,-1.528,-0.345,0.0
41.483,-1.315,-0.526,0.0
32.621,-1.023,-0.588,0.0
21.901,-0.679,-0.512,0.0
0.0,0.0,0.0,0.0
0.0,0.0,0.0,0.0
50.417,-1.519,-0.321,0.0
41.232,-1.228,-0.487,2.0
0.0,0.0,0.0,0.0
21.909,-0.637,-0.493,20.0
138.468,-4.0,0.719,6.0
0.0,0.0,0.0,0.0
54.572,-1.539,-0.3,0.0
42.646,-1.188,-0.467,2.0
35.089,-0.966,-0.572,0.0
21.912,-0.595,-0.475,70.0
111.075,0.681,1.628,14.0
104.917,0.679,0.965,18.0
85.625,0.586,0.32,2.0
0.0,0.0,0.0,0.0
48.423,0.364,-0.352,0.0
39.79,0.313,-0.507,0.0
100.108,0.828,1.49,3.0
98.731,0.85,0.93,12.0
85.153,0.764,0.336,9.0
70.635,0.659,-0.113,0.0
0.0,0.0,0.0,0.0
39.389,0.394,-0.494,0.0
98.605,1.027,1.487,25.0
98.529,1.061,0.946,20.0
85.408,0.948,0.353,11.0
0.0,0.0,0.0,0.0
0.0,0.0,0.0,0.0
40.988,0.498,-0.508,0.0
98.507,1.237,1.5,29.0
98.543,1.271,0.961,27.0
85.308,1.131,0.364,11.0
0.0,0.0,0.0,0.0
0.0,0.0,0.0,0.0
41.355,0.591,-0.507,0.0
98.79,1.452,1.516,12.0
91.995,1.384,0.907,28.0
84.88,1.305,0.371,6.0
74.608,1.174,-0.09,0.0
0.0,0.0,0.0,0.0
41.656,0.684,-0.507,0.0
87.417,1.472,1.349,32.0
91.882,1.577,0.913,32.0
84.574,1.482,0.375,10.0
72.482,1.294,-0.083,2.0
0.0,0.0,0.0,0.0
0.0,0.0,0.0,0.0
91.97,1.744,1.423,20.0
91.997,1.775,0.917,5.0
84.722,1.664,0.378,4.0
70.241,1.404,-0.079,2.0
0.0,0.0,0.0,0.0
0.0,0.0,0.0,0.0
85.265,1.799,1.319,32.0
85.249,1.828,0.85,35.0
84.756,1.847,0.378,5.0
68.361,1.512,-0.078,2.0
49.06,1.102,-0.326,1.0
39.863,0.909,-0.484,0.0
85.249,1.98,1.316,32.0
85.273,2.01,0.846,27.0
72.155,1.724,0.318,6.0
66.627,1.615,-0.079,2.0
0.0,0.0,0.0,0.0
0.0,0.0,0.0,0.0
78.981,2.001,1.214,25.0
78.904,2.026,0.777,30.0
71.896,1.871,0.311,9.0
64.924,1.712,-0.083,6.0
0.0,0.0,0.0,0.0
39.951,1.08,-0.492,0.0
78.827,2.167,1.203,3.0
78.861,2.194,0.767,24.0
71.971,2.027,0.303,10.0
63.185,1.799,-0.089,3.0
0.0,0.0,0.0,0.0
39.676,1.156,-0.494,0.0
78.939,2.337,1.193,22.0
78.968,2.363,0.756,14.0
71.77,2.171,0.29,11.0
61.718,1.887,-0.097,3.0
0.0,0.0,0.0,0.0
38.59,1.204,-0.488,0.0
72.469,2.296,1.082,28.0
72.406,2.317,0.68,32.0
71.725,2.318,0.276,13.0
60.283,1.968,-0.107,3.0
0.0,0.0,0.0,0.0
0.0,0.0,0.0,0.0
72.353,2.442,1.064,32.0
72.346,2.466,0.663,32.0
71.61,2.464,0.259,14.0
59.128,2.054,-0.119,4.0
46.748,1.639,-0.353,0.0
38.36,1.357,-0.503,0.0
72.406,2.596,1.046,25.0
64.39,2.328,0.573,17.0
71.692,2.615,0.24,6.0
58.51,2.153,-0.134,5.0
47.064,1.747,-0.369,0.0
0.0,0.0,0.0,0.0
62.211,2.358,0.881,9.0
119.976,4.587,1.032,12.0
65.843,2.538,0.2,16.0
56.329,2.189,-0.146,2.0
46.542,1.824,-0.38,0.0
37.942,1.499,-0.52,0.0
120.043,4.8,1.66,12.0
66.124,2.665,0.546,30.0
65.655,2.667,0.177,11.0
54.923,2.248,-0.162,2.0
44.795,1.847,-0.382,1.0
0.0,0.0,0.0,0.0
66.086,2.778,0.889,32.0
66.049,2.797,0.521,26.0
65.489,2.793,0.152,9.0
53.903,2.316,-0.18,2.0
44.481,1.924,-0.396,1.0
36.454,1.589,-0.528,0.0
66.062,2.911,0.862,25.0
66.059,2.931,0.494,20.0
65.292,2.916,0.124,9.0
52.936,2.38,-0.199,14.0
44.254,2.004,-0.413,1.0
35.303,1.609,-0.526,0.0
66.194,3.049,0.835,6.0
120.101,5.568,0.846,9.0
65.28,3.047,0.095,9.0
51.982,2.441,-0.219,6.0
43.707,2.065,-0.428,1.0
34.896,1.659,-0.536,0.0
120.059,5.768,1.459,12.0
120.019,5.801,0.789,10.0
59.159,2.877,0.058,11.0
51.076,2.499,-0.24,3.0
43.267,2.13,-0.445,2.0
34.431,1.705,-0.546,0.0
48.399,2.421,0.563,3.0
59.515,2.994,0.36,3.0
58.91,2.981,0.027,14.0
49.878,2.538,-0.26,3.0
42.496,2.175,-0.459,2.0
33.8,1.74,-0.554,0.0
59.375,3.086,0.659,20.0
59.34,3.101,0.327,27.0
52.409,2.754,-0.004,14.0
48.9,2.584,-0.283,2.0
42.432,2.254,-0.483,1.0
33.756,1.804,-0.573,0.0
59.334,3.2,0.625,17.0
59.316,3.215,0.292,20.0
51.997,2.833,-0.035,25.0
48.034,2.631,-0.306,1.0
0.0,0.0,0.0,0.0
0.0,0.0,0.0,0.0
59.389,3.316,0.589,11.0
59.364,3.331,0.256,16.0
51.603,2.91,-0.066,23.0
47.168,2.673,-0.33,12.0
0.0,0.0,0.0,0.0
31.843,1.823,-0.58,0.0
47.816,2.76,0.443,11.0
59.236,3.435,0.217,5.0
51.352,2.992,-0.099,23.0
46.318,2.711,-0.354,14.0
37.917,2.23,-0.503,1.0
31.182,1.843,-0.589,0.0
113.502,6.763,0.977,6.0
52.4,3.136,0.157,16.0
51.164,3.076,-0.134,21.0
45.659,2.758,-0.381,9.0
37.806,2.293,-0.528,1.0
30.637,1.867,-0.6,0.0
111.134,6.828,0.878,28.0
52.197,3.221,0.119,21.0
50.97,3.158,-0.17,9.0
44.911,2.794,-0.407,3.0
35.692,2.23,-0.524,0.0
30.136,1.891,-0.612,0.0
52.404,3.314,0.375,1.0
51.908,3.297,0.079,15.0
45.642,2.911,-0.186,19.0
44.316,2.838,-0.435,3.0
35.205,2.263,-0.544,0.0
29.193,1.885,-0.615,0.0
52.257,3.399,0.334,22.0
51.733,3.378,0.039,18.0
45.166,2.96,-0.219,20.0
41.142,2.707,-0.436,1.0
33.67,2.224,-0.546,0.0
28.604,1.897,-0.626,0.0
52.187,3.486,0.292,18.0
51.587,3.459,-0.001,17.0
44.606,3.002,-0.253,19.0
41.237,2.786,-0.47,1.0
33.014,2.239,-0.563,0.0
27.735,1.888,-0.629,0.0
52.153,3.574,0.249,15.0
46.094,3.17,-0.039,16.0
43.745,3.02,-0.284,18.0
38.754,2.684,-0.474,0.0
32.187,2.237,-0.575,0.0
27.2,1.898,-0.64,0.0
52.137,3.661,0.205,16.0
45.872,3.232,-0.078,20.0
42.369,2.995,-0.311,5.0
37.584,2.666,-0.492,1.0
30.848,2.196,-0.578,0.0
26.507,1.894,-0.647,0.0
52.086,3.744,0.159,14.0
45.496,3.282,-0.118,19.0
41.545,3.007,-0.342,2.0
36.423,2.644,-0.51,1.0
30.379,2.213,-0.597,0.0
25.964,1.897,-0.657,0.0
52.014,3.824,0.112,14.0
45.145,3.33,-0.158,19.0
40.927,3.028,-0.374,3.0
35.35,2.624,-0.527,0.0
29.422,2.191,-0.605,0.0
25.482,1.904,-0.668,0.0
51.954,3.904,0.063,7.0
44.762,3.374,-0.198,19.0
40.727,3.079,-0.411,4.0
34.146,2.589,-0.541,1.0
28.881,2.196,-0.622,0.0
25.079,1.913,-0.682,0.0
45.782,3.513,0.012,20.0
44.398,3.416,-0.239,18.0
40.468,3.122,-0.448,6.0
33.064,2.558,-0.556,0.0
28.181,2.187,-0.634,0.0
24.371,1.897,-0.686,0.0
45.461,3.558,-0.032,21.0
43.765,3.434,-0.279,6.0
40.122,3.157,-0.483,3.0
31.959,2.522,-0.569,0.0
27.335,2.163,-0.642,0.0
23.778,1.887,-0.693,0.0
45.261,3.61,-0.078,24.0
40.742,3.258,-0.301,15.0
38.559,3.092,-0.503,1.0
31.008,2.493,-0.584,0.0
26.605,2.145,-0.652,0.0
23.099,1.867,-0.697,0.0
45.046,3.66,-0.124,26.0
40.458,3.295,-0.341,14.0
35.389,2.89,-0.499,0.0
29.994,2.456,-0.596,0.0
25.957,2.131,-0.663,0.0
22.67,1.866,-0.708,0.0
44.719,3.698,-0.17,23.0
40.133,3.326,-0.38,6.0
34.424,2.86,-0.522,1.0
29.003,2.415,-0.607,0.0
24.98,2.085,-0.665,0.0
21.962,1.838,-0.71,0.0
43.842,3.687,-0.213,19.0
39.981,3.369,-0.422,11.0
33.417,2.823,-0.542,0.0
28.344,2.4,-0.624,0.0
24.587,2.086,-0.681,0.0
21.818,1.856,-0.729,0.0
0.0,0.0,0.0,0.0
39.88,3.415,-0.465,7.0
32.223,2.765,-0.558,0.0
27.325,2.351,-0.632,0.0
23.871,2.058,-0.688,0.0
21.075,1.821,-0.728,0.0
40.558,3.52,-0.287,29.0
39.777,3.459,-0.508,2.0
31.205,2.719,-0.576,0.0
26.611,2.324,-0.645,0.0
23.228,2.033,-0.695,0.0
20.581,1.805,-0.734,0.0
40.327,3.552,-0.331,16.0
36.285,3.202,-0.504,1.0
30.166,2.668,-0.591,0.0
25.835,2.289,-0.656,0.0
22.776,2.022,-0.708,0.0
20.163,1.794,-0.742,0.0
39.806,3.555,-0.372,9.0
36.051,3.226,-0.542,0.0
29.254,2.623,-0.606,0.0
25.267,2.27,-0.67,0.0
22.24,2.002,-0.717,0.0
19.666,1.774,-0.746,0.0
39.62,3.587,-0.416,7.0
32.791,2.974,-0.531,0.0
28.391,2.579,-0.622,0.0
24.444,2.225,-0.677,0.0
21.511,1.962,-0.719,0.0
19.34,1.767,-0.757,0.0
39.553,3.627,-0.463,6.0
31.931,2.933,-0.555,1.0
27.232,2.506,-0.629,0.0
23.727,2.187,-0.686,0.0
21.098,1.949,-0.73,0.0
18.791,1.739,-0.758,0.0
39.478,3.665,-0.509,2.0
30.891,2.873,-0.575,0.0
26.478,2.466,-0.644,0.0
22.96,2.142,-0.692,0.0
20.504,1.917,-0.735,0.0
18.397,1.723,-0.764,0.0
35.33,3.319,-0.498,1.0
29.921,2.815,-0.593,0.0
25.727,2.424,-0.657,0.0
22.503,2.124,-0.705,0.0
19.917,1.883,-0.738,0.0
17.964,1.701,-0.769,0.0
34.73,3.299,-0.532,1.0
28.82,2.741,-0.606,0.0
24.971,2.379,-0.668,0.0
21.87,2.087,-0.712,0.0
19.534,1.867,-0.748,0.0
17.657,1.69,-0.777,0.0
34.508,3.312,-0.572,0.0
27.662,2.659,-0.616,0.0
24.157,2.325,-0.676,0.0
21.344,2.058,-0.722,0.0
19.109,1.845,-0.755,0.0
17.296,1.673,-0.783,0.0
31.401,3.045,-0.559,1.0
26.946,2.616,-0.634,0.0
23.482,2.283,-0.687,0.0
20.655,2.011,-0.725,0.0
18.64,1.818,-0.761,0.0
16.93,1.653,-0.788,0.0
30.567,2.992,-0.583,0.0
26.152,2.563,-0.648,0.0
22.805,2.238,-0.696,0.0
20.254,1.99,-0.736,0.0
18.137,1.785,-0.763,0.0
16.601,1.636,-0.794,0.0
29.278,2.892,-0.596,0.0
25.256,2.498,-0.658,0.0
22.28,2.206,-0.708,0.0
19.729,1.956,-0.742,0.0
17.827,1.77,-0.773,0.0
16.279,1.619,-0.799,0.0
28.368,2.826,-0.613,0.0
24.613,2.454,-0.673,0.0
21.487,2.145,-0.711,0.0
19.303,1.93,-0.751,0.0
17.389,1.741,-0.776,0.0
15.883,1.592,-0.8,0.0
27.184,2.729,-0.623,0.0
23.658,2.378,-0.678,0.0
20.982,2.111,-0.721,0.0
18.648,1.879,-0.75,0.0
17.086,1.724,-0.785,0.0
15.645,1.58,-0.809,0.0
26.384,2.669,-0.639,0.0
23.219,2.351,-0.695,0.0
20.484,2.077,-0.731,0.0
18.332,1.861,-0.761,0.0
16.643,1.691,-0.786,0.0
15.324,1.559,-0.812,0.0
25.667,2.615,-0.655,0.0
22.485,2.293,-0.702,0.0
19.871,2.028,-0.735,0.0
17.96,1.835,-0.769,0.0
16.343,1.672,-0.793,0.0
15.057,1.542,-0.818,0.0
24.928,2.556,-0.668,0.0
21.696,2.227,-0.706,0.0
19.619,2.015,-0.751,0.0
17.536,1.803,-0.773,0.0
16.003,1.647,-0.798,0.0
14.803,1.525,-0.823,0.0
23.96,2.472,-0.674,0.0
21.219,2.191,-0.718,0.0
18.94,1.957,-0.75,0.0
17.139,1.773,-0.778,0.0
15.652,1.621,-0.801,0.0
14.473,1.5,-0.824,0.0
23.257,2.412,-0.684,0.0
20.505,2.129,-0.721,0.0
18.293,1.901,-0.748,0.0
16.816,1.749,-0.786,0.0
15.4,1.603,-0.808,0.0
14.28,1.488,-0.832,0.0
22.782,2.375,-0.7,0.0
20.146,2.102,-0.735,0.0
18.033,1.883,-0.761,0.0
16.481,1.722,-0.792,0.0
15.116,1.581,-0.813,0.0
14.055,1.472,-0.837,0.0
22.012,2.306,-0.705,0.0
19.653,2.06,-0.742,0.0
17.694,1.856,-0.77,0.0
16.155,1.696,-0.798,0.0
14.857,1.561,-0.819,0.0
13.782,1.449,-0.839,0.0
21.368,2.248,-0.713,0.0
19.139,2.015,-0.748,0.0
17.237,1.815,-0.773,0.0
15.758,1.661,-0.798,0.0
14.545,1.534,-0.821,0.0
13.561,1.432,-0.843,0.0
20.787,2.195,-0.72,0.0
18.517,1.956,-0.748,0.0
16.902,1.787,-0.78,0.0
15.484,1.638,-0.805,0.0
14.345,1.519,-0.828,0.0
13.31,1.41,-0.845,0.0
20.267,2.147,-0.729,0.0
18.254,1.935,-0.761,0.0
16.626,1.763,-0.789,0.0
15.148,1.607,-0.807,0.0
14.072,1.494,-0.831,0.0
13.142,1.397,-0.852,0.0
19.782,2.102,-0.737,0.0
17.807,1.893,-0.765,0.0
16.265,1.73,-0.793,0.0
14.901,1.586,-0.813,0.0
13.858,1.476,-0.836,0.0
12.942,1.379,-0.856,0.0
19.381,2.064,-0.747,0.0
17.443,1.858,-0.773,0.0
15.879,1.693,-0.794,0.0
14.656,1.563,-0.819,0.0
13.654,1.457,-0.842,0.0
12.684,1.354,-0.855,0.0
18.741,2.0,-0.747,0.0
17.0,1.815,-0.775,0.0
15.663,1.673,-0.804,0.0
14.376,1.536,-0.822,0.0
13.368,1.429,-0.841,0.0
12.447,1.332,-0.855,0.0
18.34,1.96,-0.754,0.0
16.719,1.788,-0.783,0.0
15.274,1.634,-0.803,0.0
14.135,1.513,-0.826,0.0
13.205,1.414,-0.848,0.0
12.251,1.312,-0.857,0.0
17.912,1.917,-0.759,0.0
16.423,1.758,-0.79,0.0
15.071,1.614,-0.812,0.0
13.922,1.491,-0.832,0.0
12.988,1.392,-0.851,0.0
12.053,1.292,-0.859,0.0
17.662,1.892,-0.771,0.0
16.057,1.72,-0.793,0.0
14.801,1.586,-0.816,0.0
13.711,1.47,-0.837,0.0
12.855,1.378,-0.858,0.0
11.825,1.269,-0.858,0.0
17.209,1.844,-0.773,0.0
15.816,1.695,-0.801,0.0
14.58,1.563,-0.823,0.0
13.441,1.441,-0.837,0.0
12.434,1.334,-0.846,0.0
11.655,1.25,-0.86,0.0
16.854,1.805,-0.778,0.0
15.498,1.66,-0.804,0.0
14.276,1.53,-0.823,0.0
13.299,1.425,-0.845,0.0
12.351,1.324,-0.856,0.0
11.466,1.23,-0.86,0.0
16.606,1.778,-0.787,0.0
15.219,1.63,-0.808,0.0
14.076,1.507,-0.829,0.0
13.14,1.407,-0.851,0.0
12.151,1.302,-0.857,0.0
11.306,1.212,-0.862,0.0
16.284,1.742,-0.791,0.0
14.937,1.598,-0.812,0.0
13.876,1.485,-0.834,0.0
12.848,1.375,-0.847,0.0
11.884,1.272,-0.852,0.0
11.169,1.196,-0.865,0.0
15.937,1.703,-0.793,0.0
14.698,1.57,-0.816,0.0
13.688,1.462,-0.839,0.0
12.654,1.352,-0.849,0.0
11.798,1.261,-0.86,0.0
11.015,1.177,-0.866,0.0
15.753,1.68,-0.803,0.0
14.421,1.538,-0.818,0.0
13.449,1.434,-0.84,0.0
12.479,1.331,-0.852,0.0
11.608,1.238,-0.86,0.0
10.866,1.159,-0.867,0.0
15.408,1.64,-0.803,0.0
14.239,1.515,-0.824,0.0
13.253,1.41,-0.843,0.0
12.35,1.314,-0.858,0.0
11.487,1.222,-0.864,0.0
10.775,1.147,-0.873,0.0
15.193,1.613,-0.809,0.0
14.068,1.493,-0.83,0.0
13.125,1.393,-0.85,0.0
12.022,1.276,-0.849,0.0
11.293,1.198,-0.862,0.0
10.669,1.132,-0.876,0.0
14.926,1.58,-0.812,0.0
13.872,1.468,-0.834,0.0
12.862,1.361,-0.847,0.0
11.986,1.268,-0.86,0.0
11.124,1.177,-0.862,0.0
10.51,1.112,-0.875,0.0
14.712,1.552,-0.817,0.0
13.672,1.442,-0.837,0.0
12.714,1.341,-0.852,0.0
11.714,1.235,-0.853,0.0
11.039,1.164,-0.867,0.0
10.375,1.094,-0.875,0.0
14.446,1.518,-0.817,0.0
13.46,1.414,-0.839,0.0
12.448,1.308,-0.847,0.0
11.617,1.22,-0.858,0.0
10.89,1.144,-0.867,0.0
10.311,1.083,-0.881,0.0
14.303,1.497,-0.824,0.0
13.307,1.392,-0.843,0.0
12.342,1.291,-0.853,0.0
11.461,1.198,-0.859,0.0
10.829,1.132,-0.874,0.0
10.189,1.065,-0.881,0.0
14.041,1.463,-0.824,0.0
13.112,1.366,-0.845,0.0
12.121,1.262,-0.85,0.0
11.294,1.175,-0.858,0.0
10.711,1.114,-0.876,0.0
10.163,1.057,-0.889,0.0
13.859,1.437,-0.827,0.0
12.921,1.339,-0.845,0.0
12.0,1.243,-0.854,0.0
11.183,1.158,-0.861,0.0
10.596,1.097,-0.877,0.0
10.093,1.044,-0.893,0.0
13.742,1.417,-0.834,0.0
12.751,1.314,-0.847,0.0
11.826,1.218,-0.853,0.0
11.106,1.144,-0.866,0.0
10.438,1.074,-0.874,0.0
9.982,1.027,-0.893,0.0
13.536,1.388,-0.835,0.0
12.619,1.293,-0.85,0.0
11.758,1.204,-0.86,0.0
10.967,1.123,-0.866,0.0
10.364,1.06,-0.878,0.0
9.863,1.009,-0.892,0.0
13.375,1.363,-0.837,0.0
12.444,1.267,-0.85,0.0
11.625,1.183,-0.861,0.0
10.836,1.102,-0.866,0.0
10.245,1.042,-0.877,0.0
9.801,0.996,-0.896,0.0
13.327,1.349,-0.847,0.0
12.302,1.244,-0.852,0.0
11.443,1.157,-0.858,0.0
10.746,1.086,-0.868,0.0
10.234,1.033,-0.886,0.0
9.696,0.979,-0.895,0.0
13.046,1.311,-0.84,0.0
12.152,1.221,-0.852,0.0
11.297,1.134,-0.857,0.0
10.683,1.072,-0.873,0.0
10.116,1.014,-0.884,0.0
9.673,0.969,-0.901,0.0
12.946,1.292,-0.845,0.0
11.924,1.189,-0.846,0.0
11.226,1.118,-0.861,0.0
10.559,1.051,-0.872,0.0
9.992,0.994,-0.882,0.0
9.596,0.954,-0.902,0.0
12.797,1.267,-0.846,0.0
11.849,1.172,-0.851,0.0
11.14,1.101,-0.863,0.0
10.503,1.037,-0.875,0.0
10.009,0.988,-0.892,0.0
9.543,0.941,-0.905,0.0
12.658,1.243,-0.847,0.0
11.783,1.156,-0.855,0.0
11.04,1.082,-0.865,0.0
10.386,1.017,-0.874,0.0
9.934,0.972,-0.893,0.0
9.456,0.925,-0.904,0.0
12.594,1.226,-0.852,0.0
11.692,1.137,-0.858,0.0
10.912,1.06,-0.863,0.0
10.32,1.002,-0.876,0.0
9.881,0.958,-0.895,0.0
9.339,0.905,-0.9,0.0
12.408,1.197,-0.849,0.0
11.567,1.115,-0.857,0.0
10.864,1.046,-0.867,0.0
10.256,0.986,-0.878,0.0
9.778,0.94,-0.893,0.0
9.335,0.896,-0.906,0.0
12.329,1.178,-0.852,0.0
11.418,1.09,-0.854,0.0
10.801,1.03,-0.869,0.0
10.274,0.979,-0.887,0.0
9.705,0.924,-0.893,0.0
9.254,0.88,-0.905,0.0
12.229,1.157,-0.853,0.0
11.334,1.071,-0.855,0.0
10.693,1.009,-0.868,0.0
10.192,0.961,-0.886,0.0
9.613,0.906,-0.891,0.0
9.235,0.869,-0.909,0.0
12.058,1.129,-0.849,0.0
11.256,1.053,-0.856,0.0
10.656,0.995,-0.871,0.0
10.065,0.939,-0.882,0.0
9.657,0.9,-0.901,0.0
9.151,0.852,-0.906,0.0
11.954,1.107,-0.849,0.0
11.189,1.035,-0.858,0.0
10.587,0.978,-0.872,0.0
10.111,0.933,-0.891,0.0
9.61,0.886,-0.902,0.0
9.128,0.84,-0.909,0.0
11.894,1.089,-0.851,0.0
11.124,1.017,-0.859,0.0
10.554,0.964,-0.875,0.0
9.972,0.91,-0.885,0.0
9.579,0.873,-0.905,0.0
9.137,0.831,-0.915,0.0
11.813,1.069,-0.851,0.0
11.106,1.004,-0.863,0.0
10.486,0.947,-0.875,0.0
9.977,0.899,-0.89,0.0
9.484,0.854,-0.9,0.0
9.081,0.817,-0.914,0.0
11.769,1.053,-0.854,0.0
11.006,0.983,-0.861,0.0
10.439,0.931,-0.876,0.0
9.926,0.884,-0.891,0.0
9.477,0.843,-0.904,0.0
9.015,0.801,-0.912,0.0
11.702,1.033,-0.854,0.0
10.941,0.965,-0.861,0.0
10.368,0.913,-0.875,0.0
9.903,0.87,-0.893,0.0
9.428,0.828,-0.904,0.0
9.043,0.793,-0.918,0.0
11.603,1.011,-0.852,0.0
10.904,0.949,-0.862,0.0
10.323,0.897,-0.875,0.0
9.774,0.848,-0.885,0.0
9.442,0.818,-0.909,0.0
8.964,0.775,-0.914,0.0
11.523,0.991,-0.85,0.0
10.904,0.936,-0.866,0.0
10.339,0.886,-0.88,0.0
9.79,0.838,-0.89,0.0
9.38,0.801,-0.906,0.0
8.947,0.763,-0.915,0.0
11.509,0.976,-0.853,0.0
10.819,0.916,-0.863,0.0
10.28,0.869,-0.878,0.0
9.712,0.819,-0.886,0.0
9.383,0.79,-0.909,0.0
8.921,0.75,-0.915,0.0
11.48,0.96,-0.855,0.0
10.799,0.901,-0.865,0.0
10.241,0.853,-0.878,0.0
9.814,0.816,-0.898,0.0
9.384,0.779,-0.912,0.0
8.898,0.737,-0.915,0.0
11.407,0.939,-0.852,0.0
10.803,0.888,-0.868,0.0
10.23,0.839,-0.88,0.0
9.727,0.796,-0.892,0.0
9.345,0.764,-0.91,0.0
8.867,0.723,-0.914,0.0
11.392,0.924,-0.853,0.0
10.736,0.869,-0.865,0.0
10.233,0.826,-0.882,0.0
9.735,0.785,-0.895,0.0
9.353,0.752,-0.913,0.0
8.891,0.714,-0.918,0.0
11.341,0.905,-0.852,0.0
10.72,0.854,-0.865,0.0
10.217,0.812,-0.882,0.0
9.733,0.772,-0.896,0.0
9.277,0.734,-0.907,0.0
8.87,0.701,-0.917,0.0
11.333,0.89,-0.853,0.0
10.735,0.841,-0.868,0.0
10.223,0.799,-0.884,0.0
9.701,0.757,-0.894,0.0
9.221,0.718,-0.902,0.0
8.876,0.69,-0.919,0.0
11.351,0.877,-0.855,0.0
10.736,0.827,-0.869,0.0
10.213,0.785,-0.884,0.0
9.694,0.743,-0.895,0.0
9.289,0.711,-0.91,0.0
8.854,0.676,-0.917,0.0
11.319,0.859,-0.853,0.0
10.7,0.81,-0.866,0.0
10.214,0.771,-0.884,0.0
9.735,0.734,-0.899,0.0
9.258,0.696,-0.907,0.0
8.823,0.662,-0.914,0.0
11.315,0.843,-0.853,0.0
10.759,0.8,-0.871,0.0
10.2,0.757,-0.883,0.0
9.684,0.717,-0.894,0.0
9.306,0.687,-0.911,0.0
8.886,0.654,-0.92,0.0
11.339,0.83,-0.854,0.0
10.719,0.782,-0.867,0.0
10.182,0.741,-0.881,0.0
9.69,0.704,-0.894,0.0
9.289,0.673,-0.909,0.0
8.834,0.638,-0.914,0.0
11.326,0.813,-0.852,0.0
10.762,0.771,-0.87,0.0
10.218,0.73,-0.883,0.0
9.761,0.695,-0.899,0.0
9.279,0.659,-0.907,0.0
8.862,0.628,-0.916,0.0
11.376,0.801,-0.855,0.0
10.757,0.755,-0.868,0.0
10.205,0.715,-0.881,0.0
9.691,0.677,-0.892,0.0
9.297,0.647,-0.907,0.0
8.899,0.618,-0.918,0.0
11.39,0.786,-0.854,0.0
10.805,0.743,-0.87,0.0
10.218,0.701,-0.88,0.0
9.776,0.669,-0.898,0.0
9.353,0.638,-0.911,0.0
8.893,0.605,-0.916,0.0
11.444,0.773,-0.856,0.0
10.784,0.727,-0.866,0.0
10.249,0.688,-0.88,0.0
9.768,0.654,-0.894,0.0
9.335,0.623,-0.907,0.0
8.877,0.591,-0.912,0.0
11.466,0.759,-0.854,0.0
10.793,0.712,-0.864,0.0
10.258,0.674,-0.878,0.0
9.845,0.645,-0.899,0.0
9.39,0.614,-0.91,0.0
8.959,0.584,-0.918,0.0
11.514,0.745,-0.855,0.0
10.823,0.698,-0.863,0.0
10.319,0.663,-0.88,0.0
9.829,0.63,-0.894,0.0
9.402,0.601,-0.908,0.0
9.0,0.573,-0.919,0.0
11.539,0.73,-0.852,0.0
10.881,0.686,-0.864,0.0
10.353,0.651,-0.88,0.0
9.854,0.617,-0.893,0.0
9.407,0.587,-0.905,0.0
8.967,0.558,-0.912,0.0
11.598,0.717,-0.852,0.0
10.93,0.673,-0.864,0.0
10.376,0.637,-0.877,0.0
9.847,0.602,-0.888,0.0
9.443,0.576,-0.904,0.0
9.003,0.547,-0.912,0.0
11.658,0.704,-0.852,0.0
10.99,0.661,-0.864,0.0
10.398,0.623,-0.875,0.0
9.956,0.595,-0.894,0.0
9.496,0.565,-0.905,0.0
9.076,0.538,-0.915,0.0
11.711,0.69,-0.85,0.0
11.059,0.649,-0.864,0.0
10.451,0.611,-0.874,0.0
9.97,0.581,-0.89,0.0
9.574,0.556,-0.908,0.0
9.074,0.525,-0.911,0.0
11.769,0.676,-0.848,0.0
11.074,0.634,-0.859,0.0
10.53,0.6,-0.875,0.0
10.027,0.57,-0.89,0.0
9.57,0.542,-0.902,0.0
9.186,0.518,-0.917,0.0
11.857,0.664,-0.848,0.0
11.154,0.622,-0.859,0.0
10.585,0.588,-0.874,0.0
10.086,0.558,-0.889,0.0
9.634,0.531,-0.902,0.0
9.197,0.505,-0.912,0.0
11.923,0.65,-0.846,0.0
11.17,0.607,-0.854,0.0
10.671,0.577,-0.874,0.0
10.122,0.545,-0.886,0.0
9.722,0.522,-0.904,0.0
9.262,0.495,-0.913,0.0
12.068,0.641,-0.848,0.0
11.281,0.596,-0.855,0.0
10.707,0.564,-0.87,0.0
10.184,0.534,-0.884,0.0
9.741,0.508,-0.899,0.0
9.343,0.485,-0.914,0.0
12.209,0.63,-0.85,0.0
11.421,0.587,-0.857,0.0
10.801,0.553,-0.87,0.0
10.234,0.521,-0.881,0.0
9.819,0.498,-0.9,0.0
9.335,0.471,-0.907,0.0
12.292,0.616,-0.846,0.0
11.541,0.576,-0.858,0.0
10.912,0.542,-0.871,0.0
10.285,0.509,-0.878,0.0
9.886,0.487,-0.898,0.0
9.431,0.462,-0.909,0.0
12.473,0.608,-0.849,0.0
11.625,0.564,-0.855,0.0
11.01,0.531,-0.87,0.0
10.388,0.499,-0.879,0.0
9.926,0.475,-0.894,0.0
9.478,0.451,-0.906,0.0
12.566,0.594,-0.845,0.0
11.698,0.55,-0.851,0.0
11.095,0.519,-0.867,0.0
10.455,0.487,-0.875,0.0
10.01,0.464,-0.893,0.0
9.563,0.441,-0.905,0.0
12.787,0.586,-0.849,0.0
11.824,0.539,-0.85,0.0
11.2,0.508,-0.866,0.0
10.573,0.477,-0.876,0.0
10.101,0.454,-0.892,0.0
9.647,0.431,-0.905,0.0
12.925,0.574,-0.847,0.0
11.949,0.527,-0.848,0.0
11.285,0.496,-0.862,0.0
10.677,0.467,-0.875,0.0
10.136,0.441,-0.886,0.0
9.749,0.422,-0.905,0.0
13.082,0.562,-0.845,0.0
12.135,0.519,-0.849,0.0
11.329,0.481,-0.855,0.0
10.822,0.458,-0.876,0.0
10.23,0.43,-0.884,0.0
9.837,0.412,-0.904,0.0
13.252,0.551,-0.843,0.0
12.283,0.508,-0.848,0.0
11.479,0.472,-0.854,0.0
10.941,0.447,-0.875,0.0
10.349,0.421,-0.884,0.0
9.871,0.399,-0.897,0.0
13.49,0.541,-0.844,0.0
12.464,0.497,-0.847,0.0
11.619,0.461,-0.853,0.0
11.042,0.436,-0.871,0.0
10.425,0.409,-0.879,0.0
9.996,0.39,-0.897,0.0
13.642,0.528,-0.839,0.0
12.632,0.486,-0.845,0.0
11.744,0.449,-0.849,0.0
11.143,0.424,-0.867,1.0
10.522,0.398,-0.876,0.0
10.085,0.379,-0.894,0.0
13.825,0.516,-0.835,0.0
12.98,0.482,-0.854,0.0
11.898,0.439,-0.847,0.0
11.266,0.413,-0.864,0.0
10.722,0.391,-0.88,0.0
10.171,0.368,-0.89,0.0
14.085,0.506,-0.835,0.0
13.111,0.468,-0.847,0.0
12.141,0.431,-0.85,0.0
11.384,0.401,-0.86,0.0
10.845,0.38,-0.877,0.0
10.312,0.359,-0.89,0.0
14.258,0.493,-0.828,0.0
13.27,0.456,-0.842,0.0
12.279,0.419,-0.845,0.0
11.511,0.39,-0.855,0.0
10.968,0.369,-0.874,0.0
10.391,0.348,-0.884,0.0
67.967,-5.698,3.239,59.0
67.982,-5.712,2.88,44.0
67.94,-5.722,2.519,43.0
74.603,-6.297,2.364,6.0
72.501,-6.134,1.914,20.0
119.313,-10.119,2.521,59.0
67.972,-5.772,3.329,58.0
67.989,-5.786,2.97,44.0
67.961,-5.796,2.609,43.0
67.884,-5.802,2.24,5.0
119.22,-10.213,3.305,28.0
119.247,-10.238,2.676,71.0
67.969,-5.844,3.419,56.0
67.979,-5.856,3.059,47.0
67.968,-5.867,2.7,43.0
67.91,-5.875,2.332,35.0
103.706,-8.991,3.014,7.0
119.228,-10.358,2.836,21.0
67.973,-5.914,3.511,34.0
67.984,-5.926,3.152,44.0
67.99,-5.937,2.792,44.0
67.929,-5.943,2.424,44.0
74.65,-6.545,2.269,5.0
119.273,-10.479,2.997,8.0
71.29,-6.272,3.779,12.0
67.986,-5.992,3.244,44.0
67.99,-6.003,2.885,12.0
104.012,-9.201,3.853,7.0
104.506,-9.26,3.32,11.0
74.098,-6.578,1.963,18.0
71.201,-6.33,3.871,40.0
71.304,-6.35,3.5,26.0
71.476,-6.376,3.13,5.0
72.419,-6.471,2.782,7.0
74.707,-6.687,2.475,4.0
74.656,-6.694,2.079,9.0
71.049,-6.38,3.96,30.0
71.376,-6.418,3.6,10.0
71.272,-6.419,3.217,17.0
70.808,-6.387,2.815,17.0
78.723,-7.113,2.714,9.0
104.299,-9.439,3.046,10.0
71.14,-6.448,4.063,30.0
71.235,-6.465,3.691,10.0
71.315,-6.482,3.317,7.0
71.054,-6.467,2.922,4.0
72.393,-6.599,2.595,12.0
103.828,-9.479,3.175,7.0
69.721,-6.375,4.077,28.0
70.818,-6.483,3.767,19.0
71.192,-6.526,3.41,8.0
102.802,-9.438,4.371,9.0
77.689,-7.142,2.892,15.0
78.845,-7.258,2.519,4.0
70.149,-6.467,4.2,19.0
70.328,-6.492,3.838,10.0
71.292,-6.588,3.514,16.0
71.15,-6.584,3.123,24.0
70.922,-6.571,2.739,16.0
78.776,-7.309,2.627,10.0
69.968,-6.501,4.287,17.0
69.677,-6.481,3.9,5.0
70.85,-6.597,3.591,15.0
71.06,-6.625,3.218,12.0
74.629,-6.965,2.986,20.0
78.602,-7.345,2.73,29.0
69.943,-6.546,4.382,24.0
74.171,-6.948,4.254,7.0
70.245,-6.587,3.656,20.0
71.109,-6.674,3.319,9.0
77.757,-7.306,3.218,10.0
78.583,-7.392,2.836,35.0
69.713,-6.567,4.465,35.0
70.34,-6.632,4.131,10.0
73.542,-6.94,3.93,9.0
71.101,-6.716,3.417,19.0
77.672,-7.344,3.323,23.0
78.739,-7.452,2.953,34.0
69.855,-6.622,4.572,19.0
0.0,0.0,0.0,0.0
73.502,-6.978,4.031,8.0
73.155,-6.951,3.618,30.0
77.438,-7.364,3.419,13.0
78.694,-7.491,3.06,22.0
33.225,-3.167,2.221,49.0
69.915,-6.67,4.303,14.0
74.437,-7.106,4.186,4.0
0.0,0.0,0.0,0.0
71.134,-6.801,3.241,12.0
78.448,-7.506,3.159,23.0
33.235,-3.185,2.267,51.0
69.924,-6.704,4.401,24.0
73.944,-7.094,4.261,14.0
71.312,-6.846,3.725,12.0
71.134,-6.833,3.339,3.0
77.978,-7.496,3.248,42.0
47.828,-0.522,3.326,27.0
48.586,-0.525,3.094,11.0
60.689,-0.648,3.509,24.0
60.436,-0.637,3.136,19.0
80.773,-0.842,3.721,11.0
189.81,-1.958,7.639,109.0
48.249,-0.487,3.268,22.0
60.235,-0.6,3.727,15.0
60.597,-0.596,3.395,31.0
81.177,-0.79,4.066,9.0
80.715,-0.775,3.571,9.0
190.527,-1.809,7.322,32.0
48.151,-0.446,3.173,29.0
60.702,-0.556,3.645,3.0
60.745,-0.549,3.291,7.0
96.017,-0.857,4.632,14.0
104.069,-0.917,4.413,5.0
190.582,-1.659,6.97,30.0
60.052,-0.51,3.846,13.0
80.336,-0.673,4.674,9.0
77.86,-0.644,4.074,4.0
80.878,-0.66,3.752,11.0
189.817,-1.53,7.699,53.0
190.627,-1.517,6.622,4.0
60.153,-0.466,3.74,31.0
60.725,-0.464,3.419,17.0
81.202,-0.612,4.097,10.0
80.67,-0.599,3.59,7.0
190.493,-1.395,7.365,31.0
215.427,-1.557,7.072,11.0
60.748,-0.427,3.661,22.0
60.798,-0.421,3.307,8.0
80.977,-0.553,3.931,6.0
95.363,-0.641,4.062,19.0
190.56,-1.263,7.005,31.0
206.154,-1.346,6.373,7.0
60.621,-0.384,3.535,6.0
77.78,-0.485,4.081,13.0
80.9,-0.497,3.77,16.0
102.983,-0.623,4.187,8.0
190.597,-1.135,6.634,8.0
207.885,-1.219,6.023,9.0
60.793,-0.345,3.427,9.0
81.239,-0.453,4.102,8.0
95.613,-0.525,4.27,14.0
190.587,-1.03,7.376,32.0
206.858,-1.1,6.794,9.0
119.792,-0.626,3.236,20.0
77.806,-0.393,4.233,9.0
80.77,-0.401,3.92,10.0
95.548,-0.466,4.079,19.0
190.563,-0.914,6.999,24.0
206.54,-0.974,6.377,12.0
119.833,-0.555,2.999,37.0
77.7,-0.346,4.072,18.0
96.141,-0.421,4.474,10.0
117.34,-0.504,4.772,23.0
190.525,-0.804,6.613,6.0
119.779,-0.496,3.458,3.0
193.493,-0.786,4.454,19.0
81.159,-0.316,4.088,5.0
103.193,-0.394,4.592,9.0
117.374,-0.44,4.535,26.0
206.657,-0.759,6.756,20.0
119.789,-0.432,3.215,40.0
119.83,-0.424,2.516,118.0
80.987,-0.273,3.915,9.0
95.486,-0.316,4.056,15.0
117.408,-0.38,4.298,27.0
205.585,-0.651,6.3,5.0
119.83,-0.372,2.973,23.0
119.83,-0.363,2.271,34.0
80.88,-0.233,3.743,8.0
117.405,-0.331,4.744,23.0
117.412,-0.324,4.056,30.0
193.951,-0.523,5.546,17.0
119.818,-0.316,2.725,10.0
114.677,-0.295,1.937,6.0
95.41,-0.232,4.219,13.0
117.384,-0.279,4.502,27.0
117.445,-0.272,3.816,27.0
119.81,-0.271,3.179,24.0
119.858,-0.264,2.479,8.0
113.67,-0.244,1.686,2.0
95.456,-0.193,4.022,12.0
117.416,-0.231,4.261,24.0
70.101,-0.134,2.133,21.0
193.423,-0.361,4.732,13.0
114.7,-0.208,2.134,8.0
117.442,-0.207,1.499,2.0
117.441,-0.193,4.704,19.0
117.434,-0.187,4.015,22.0
117.502,-0.181,3.329,20.0
116.035,-0.174,2.596,1.0
113.601,-0.165,1.877,3.0
117.415,-0.165,1.252,18.0
117.437,-0.152,4.458,7.0
117.426,-0.147,3.769,23.0
117.447,-0.142,3.08,27.0
114.642,-0.134,2.326,8.0
111.022,-0.126,1.602,8.0
117.243,-0.128,1.005,7.0
117.541,-0.117,4.216,7.0
70.112,-0.067,2.103,10.0
117.443,-0.108,2.834,11.0
113.854,-0.1,2.068,3.0
111.178,-0.094,1.37,13.0
110.784,-0.09,0.717,8.0
70.026,-0.051,2.364,9.0
117.421,-0.081,3.276,24.0
114.663,-0.076,2.529,8.0
111.201,-0.07,1.79,6.0
117.322,-0.071,1.202,11.0
97.453,-0.056,0.428,2.0
70.048,-0.034,2.217,8.0
117.404,-0.055,3.027,24.0
113.928,-0.05,2.271,7.0
111.182,-0.046,1.553,14.0
111.089,-0.043,0.902,10.0
0.0,0.0,0.0,0.0
70.207,-0.021,2.073,13.0
114.875,-0.032,2.718,8.0
112.698,-0.029,2.006,7.0
111.096,-0.026,1.316,14.0
110.504,-0.024,0.661,4.0
0.0,0.0,0.0,0.0
117.421,-0.016,3.213,24.0
114.13,-0.014,2.454,9.0
111.134,-0.012,1.74,9.0
111.119,-0.01,1.077,7.0
95.612,-0.007,0.366,5.0
0.0,0.0,0.0,0.0
117.401,-0.002,2.962,20.0
112.801,-0.001,2.185,6.0
111.151,0.0,1.502,12.0
110.832,0.001,0.837,11.0
0.0,0.0,0.0,0.0
54.981,0.001,-0.229,0.0
114.315,0.007,2.64,10.0
112.5,0.007,1.937,8.0
111.223,0.008,1.263,16.0
104.38,0.008,0.563,2.0
0.0,0.0,0.0,0.0
0.0,0.0,0.0,0.0
113.714,0.012,2.378,3.0
111.102,0.012,1.673,11.0
111.203,0.012,1.023,6.0
95.619,0.01,0.309,5.0
0.0,0.0,0.0,0.0
45.388,0.004,-0.383,2.0
112.681,0.013,2.115,7.0
111.099,0.012,1.434,16.0
110.74,0.011,0.779,10.0
0.0,0.0,0.0,0.0
54.881,0.005,-0.261,0.0
40.268,0.003,-0.428,0.0
111.146,0.009,1.844,7.0
111.123,0.008,1.193,11.0
95.581,0.006,0.467,3.0
0.0,0.0,0.0,0.0
0.0,0.0,0.0,0.0
0.0,0.0,0.0,0.0
111.135,0.002,1.605,11.0
111.054,0.0,0.952,7.0
95.511,-0.001,0.258,2.0
0.0,0.0,0.0,0.0
45.159,-0.002,-0.411,2.0
35.514,-0.002,-0.531,0.0
111.144,-0.009,1.363,15.0
110.548,-0.011,0.707,7.0
0.0,0.0,0.0,0.0
0.0,0.0,0.0,0.0
0.0,0.0,0.0,0.0
31.952,-0.006,-0.547,0.0
117.265,-0.027,1.185,8.0
97.019,-0.024,0.413,1.0
0.0,0.0,0.0,0.0
45.743,-0.014,-0.345,1.0
37.239,-0.012,-0.499,0.0
30.405,-0.011,-0.585,0.0
110.964,-0.045,0.885,12.0
0.0,0.0,0.0,0.0
56.08,-0.026,-0.209,0.0
44.771,-0.022,-0.434,0.0
0.0,0.0,0.0,0.0
0.0,0.0,0.0,0.0
110.385,-0.069,0.643,2.0
0.0,0.0,0.0,0.0
0.0,0.0,0.0,0.0
40.14,-0.029,-0.475,0.0
0.0,0.0,0.0,0.0
26.847,-0.021,-0.632,0.0
0.0,0.0,0.0,0.0
0.0,0.0,0.0,0.0
45.221,-0.043,-0.362,1.0
36.746,-0.037,-0.512,0.0
0.0,0.0,0.0,0.0
25.562,-0.028,-0.656,0.0
0.0,0.0,0.0,0.0
0.0,0.0,0.0,0.0
0.0,0.0,0.0,0.0
0.0,0.0,0.0,0.0
28.248,-0.038,-0.62,0.0
24.108,-0.034,-0.67,0.0
62.812,-0.094,-0.033,0.0
0.0,0.0,0.0,0.0
39.446,-0.063,-0.482,0.0
31.216,-0.051,-0.567,0.0
26.661,-0.045,-0.64,0.0
23.424,-0.041,-0.7,0.0
0.0,0.0,0.0,0.0
45.489,-0.087,-0.385,1.0
35.188,-0.069,-0.503,0.0
29.407,-0.059,-0.596,0.0
0.0,0.0,0.0,0.0
21.95,-0.047,-0.702,0.0
0.0,0.0,0.0,0.0
41.655,-0.096,-0.439,0.0
32.809,-0.078,-0.538,0.0
27.835,-0.068,-0.622,0.0
24.238,-0.06,-0.683,0.0
21.116,-0.054,-0.719,0.0
46.75,-0.126,-0.316,0.0
37.817,-0.104,-0.476,0.0
31.089,-0.087,-0.574,0.0
26.215,-0.076,-0.64,0.0
22.623,-0.067,-0.685,0.0
20.186,-0.061,-0.729,0.0
45.009,-0.142,-0.397,1.0
0.0,0.0,0.0,0.0
28.993,-0.096,-0.595,0.0
25.1,-0.085,-0.665,0.0
22.008,-0.076,-0.712,1.0
19.499,-0.068,-0.744,0.0
0.0,0.0,0.0,0.0
32.329,-0.121,-0.542,0.0
27.337,-0.104,-0.618,0.0
23.86,-0.093,-0.681,0.0
20.936,-0.083,-0.72,0.0
18.589,-0.075,-0.748,0.0
0.0,0.0,0.0,0.0
0.0,0.0,0.0,0.0
26.071,-0.114,-0.643,0.0
22.543,-0.1,-0.69,0.0
20.163,-0.091,-0.735,0.0
17.963,-0.083,-0.76,0.0
35.184,-0.169,-0.527,0.0
29.023,-0.141,-0.605,0.0
24.686,-0.123,-0.658,0.0
21.721,-0.11,-0.708,0.0
19.378,-0.1,-0.746,0.0
17.471,-0.091,-0.774,0.0
0.0,0.0,0.0,0.0
27.236,-0.149,-0.622,0.0
23.572,-0.131,-0.676,0.0
20.791,-0.118,-0.72,0.0
18.604,-0.107,-0.753,0.0
16.877,-0.099,-0.782,0.0
0.0,0.0,0.0,0.0
25.938,-0.159,-0.643,0.0
22.64,-0.141,-0.694,0.0
19.975,-0.126,-0.731,0.0
17.954,-0.115,-0.762,0.0
16.477,-0.107,-0.795,0.0
28.675,-0.192,-0.6,0.0
24.631,-0.168,-0.659,0.0
21.7,-0.15,-0.707,0.0
19.301,-0.135,-0.744,0.0
17.369,-0.124,-0.771,0.0
15.84,-0.114,-0.796,0.0
27.014,-0.2,-0.618,0.0
23.524,-0.177,-0.675,0.0
20.778,-0.158,-0.718,0.0
18.601,-0.144,-0.753,0.0
16.837,-0.132,-0.78,0.0
15.426,-0.123,-0.805,0.0
26.266,-0.214,-0.652,0.0
22.551,-0.186,-0.691,0.0
20.093,-0.168,-0.733,0.0
0.0,0.0,0.0,0.0
16.407,-0.141,-0.792,0.0
14.984,-0.131,-0.811,0.0
24.671,-0.22,-0.659,0.0
21.597,-0.196,-0.703,0.0
19.364,-0.178,-0.743,0.0
17.239,-0.16,-0.764,0.0
15.963,-0.15,-0.801,0.0
14.567,-0.139,-0.816,0.0
23.439,-0.229,-0.671,0.0
20.902,-0.206,-0.72,0.0
18.631,-0.186,-0.751,0.0
16.858,-0.171,-0.78,0.0
15.457,-0.158,-0.805,0.0
14.207,-0.147,-0.823,0.0
22.485,-0.238,-0.686,0.0
20.111,-0.216,-0.731,0.0
17.869,-0.194,-0.754,0.0
16.453,-0.181,-0.792,0.0
15.016,-0.167,-0.81,0.0
13.933,-0.157,-0.833,0.0
21.749,-0.249,-0.704,0.0
19.4,-0.225,-0.741,0.0
17.504,-0.205,-0.77,0.0
15.941,-0.189,-0.796,0.0
14.663,-0.176,-0.818,0.0
13.593,-0.165,-0.838,0.0
20.877,-0.258,-0.713,0.0
18.675,-0.233,-0.747,0.0
16.939,-0.214,-0.776,0.0
15.438,-0.197,-0.799,0.0
14.386,-0.186,-0.829,0.0
13.298,-0.174,-0.844,0.0
20.192,-0.268,-0.726,0.0
18.059,-0.242,-0.754,0.0
16.558,-0.225,-0.788,0.0
15.111,-0.207,-0.809,0.0
14.055,-0.195,-0.835,0.0
12.981,-0.182,-0.847,0.0
19.727,-0.281,-0.744,0.0
17.646,-0.254,-0.768,0.0
16.069,-0.233,-0.793,0.0
14.665,-0.215,-0.811,0.0
13.672,-0.203,-0.836,0.0
12.664,-0.19,-0.848,0.0
18.908,-0.288,-0.746,0.0
17.022,-0.262,-0.771,0.0
15.711,-0.244,-0.803,0.0
14.347,-0.225,-0.818,0.0
13.358,-0.212,-0.84,0.0
12.363,-0.198,-0.849,0.0
18.391,-0.299,-0.757,0.0
16.66,-0.273,-0.783,0.0
15.273,-0.253,-0.806,0.0
14.076,-0.235,-0.827,0.0
13.166,-0.222,-0.85,0.0
12.051,-0.205,-0.848,0.0
18.014,-0.311,-0.772,0.0
16.26,-0.283,-0.791,0.0
14.917,-0.262,-0.812,0.0
13.779,-0.244,-0.832,0.0
12.831,-0.23,-0.85,0.0
11.786,-0.213,-0.849,0.0
17.49,-0.32,-0.778,0.0
15.834,-0.293,-0.796,0.0
14.513,-0.271,-0.814,0.0
13.494,-0.254,-0.837,0.0
12.478,-0.237,-0.847,0.0
11.566,-0.222,-0.852,0.0
16.885,-0.328,-0.778,0.0
15.425,-0.302,-0.801,0.0
14.273,-0.282,-0.824,0.0
13.145,-0.262,-0.836,0.0
12.226,-0.246,-0.849,0.0
11.334,-0.23,-0.853,0.0
18.126,-0.372,-0.864,0.0
15.189,-0.314,-0.812,0.0
13.938,-0.291,-0.826,0.0
18.146,-0.382,-1.184,0.0
11.966,-0.254,-0.85,0.0
11.227,-0.24,-0.863,0.0
18.165,-0.393,-0.894,18.0
18.145,-0.396,-0.999,2.0
13.685,-0.301,-0.833,0.0
18.152,-0.403,-1.212,0.0
11.727,-0.263,-0.851,0.0
11.06,-0.25,-0.867,0.0
18.142,-0.414,-0.921,39.0
18.139,-0.417,-1.026,1.0
18.144,-0.421,-1.132,0.0
12.396,-0.29,-0.846,0.0
11.523,-0.271,-0.854,0.0
10.908,-0.259,-0.872,0.0
18.147,-0.436,-0.948,22.0
18.127,-0.438,-1.052,1.0
18.134,-0.442,-1.158,1.0
12.157,-0.299,-0.848,0.0
11.342,-0.281,-0.857,0.0
10.737,-0.268,-0.874,0.0
18.143,-0.457,-0.974,7.0
18.143,-0.461,-1.08,0.0
18.119,-0.464,-1.183,0.0
11.92,-0.307,-0.849,0.0
11.184,-0.291,-0.861,0.0
10.585,-0.277,-0.877,0.0
18.173,-0.48,-1.002,0.0
13.606,-0.362,-0.829,0.0
12.632,-0.339,-0.843,0.0
11.699,-0.316,-0.85,0.0
11.053,-0.301,-0.867,0.0
10.439,-0.286,-0.88,0.0
14.456,-0.4,-0.817,0.0
13.432,-0.374,-0.837,0.0
12.448,-0.349,-0.847,0.0
11.515,-0.326,-0.852,0.0
10.964,-0.312,-0.875,0.0
10.32,-0.296,-0.884,0.0
14.163,-0.41,-0.819,0.0
13.156,-0.383,-0.837,0.0
12.206,-0.358,-0.847,0.0
11.359,-0.336,-0.856,0.0
10.787,-0.321,-0.875,0.0
10.223,-0.306,-0.889,0.0
13.937,-0.421,-0.824,0.0
13.017,-0.396,-0.845,0.0
11.978,-0.367,-0.847,0.0
11.229,-0.346,-0.861,0.0
10.616,-0.33,-0.875,0.0
10.089,-0.315,-0.89,0.0
13.662,-0.43,-0.826,0.0
12.607,-0.4,-0.835,0.0
11.814,-0.377,-0.851,0.0
11.077,-0.356,-0.863,0.0
10.481,-0.339,-0.877,0.0
9.94,-0.324,-0.89,0.0
13.556,-0.445,-0.836,0.0
12.521,-0.414,-0.844,0.0
11.618,-0.386,-0.851,0.0
10.959,-0.367,-0.867,0.0
10.379,-0.35,-0.881,0.0
9.847,-0.334,-0.893,0.0
13.333,-0.455,-0.838,0.0
12.316,-0.423,-0.845,0.0
11.471,-0.397,-0.853,0.0
10.885,-0.379,-0.874,0.0
10.27,-0.36,-0.884,0.0
9.743,-0.343,-0.895,0.0
13.156,-0.467,-0.842,0.0
12.147,-0.434,-0.848,0.0
11.349,-0.408,-0.857,0.0
10.732,-0.388,-0.874,0.0
10.194,-0.371,-0.889,0.0
9.693,-0.355,-0.902,0.0
12.971,-0.478,-0.845,0.0
11.995,-0.444,-0.85,0.0
11.221,-0.418,-0.86,0.0
10.587,-0.397,-0.874,0.0
10.052,-0.379,-0.888,0.0
9.558,-0.363,-0.899,0.0
12.767,-0.488,-0.845,0.0
11.803,-0.453,-0.849,0.0
11.056,-0.427,-0.859,0.0
10.521,-0.409,-0.879,0.0
9.947,-0.389,-0.889,0.0
9.486,-0.373,-0.903,0.0
12.486,-0.494,-0.84,0.0
11.68,-0.465,-0.852,0.0
11.0,-0.44,-0.866,0.0
10.398,-0.419,-0.88,0.0
9.871,-0.4,-0.892,0.0
9.396,-0.383,-0.904,0.0
12.394,-0.508,-0.846,0.0
11.546,-0.476,-0.854,0.0
10.911,-0.452,-0.87,0.0
10.316,-0.43,-0.883,0.0
9.813,-0.411,-0.897,0.0
9.354,-0.394,-0.909,0.0
12.27,-0.52,-0.849,0.0
11.404,-0.486,-0.854,0.0
10.788,-0.462,-0.87,0.0
10.223,-0.44,-0.885,0.0
9.708,-0.421,-0.896,0.0
9.195,-0.401,-0.902,0.0
12.093,-0.529,-0.848,0.0
11.314,-0.498,-0.858,0.0
10.689,-0.473,-0.872,0.0
10.135,-0.451,-0.886,0.0
9.666,-0.432,-0.901,0.0
9.193,-0.414,-0.91,0.0
11.962,-0.54,-0.849,0.0
11.238,-0.51,-0.862,0.0
10.608,-0.484,-0.874,0.0
10.079,-0.463,-0.89,0.0
9.613,-0.444,-0.904,0.0
9.129,-0.424,-0.911,0.0
11.837,-0.551,-0.85,0.0
11.108,-0.52,-0.861,0.0
10.532,-0.496,-0.877,0.0
10.002,-0.473,-0.891,0.0
9.522,-0.453,-0.903,0.0
9.057,-0.433,-0.911,0.0
11.736,-0.563,-0.851,0.0
11.042,-0.533,-0.864,0.0
10.456,-0.507,-0.878,0.0
9.912,-0.483,-0.89,0.0
9.439,-0.463,-0.902,0.0
9.0,-0.443,-0.912,0.0
11.657,-0.576,-0.854,0.0
10.991,-0.546,-0.868,0.0
10.374,-0.518,-0.879,0.0
9.826,-0.493,-0.89,0.0
9.378,-0.473,-0.903,0.0
8.979,-0.455,-0.916,0.0
11.569,-0.588,-0.856,0.0
10.93,-0.558,-0.871,0.0
10.316,-0.53,-0.881,0.0
9.802,-0.506,-0.894,0.0
9.333,-0.484,-0.905,0.0
8.929,-0.466,-0.917,0.0
11.465,-0.599,-0.856,0.0
10.853,-0.57,-0.872,0.0
10.266,-0.542,-0.883,0.0
9.757,-0.518,-0.896,0.0
9.306,-0.496,-0.908,0.0
8.872,-0.475,-0.917,0.0
11.403,-0.612,-0.858,0.0
10.797,-0.583,-0.874,0.0
10.219,-0.554,-0.885,0.0
9.709,-0.529,-0.898,0.0
9.249,-0.506,-0.908,0.0
8.848,-0.487,-0.92,0.0
11.332,-0.625,-0.859,0.0
10.722,-0.594,-0.874,0.0
10.159,-0.565,-0.886,0.0
9.661,-0.54,-0.899,0.0
9.151,-0.514,-0.904,0.0
8.778,-0.496,-0.917,0.0
11.252,-0.636,-0.859,0.0
10.669,-0.606,-0.875,0.0
10.105,-0.577,-0.886,0.0
9.604,-0.551,-0.898,0.0
9.141,-0.527,-0.907,0.0
8.78,-0.508,-0.922,0.0
11.226,-0.651,-0.862,0.0
10.62,-0.619,-0.876,0.0
10.073,-0.589,-0.888,0.0
9.606,-0.565,-0.903,0.0
9.16,-0.541,-0.913,0.0
8.727,-0.518,-0.92,0.0
11.191,-0.665,-0.865,0.0
10.594,-0.632,-0.878,0.0
10.042,-0.602,-0.89,0.0
9.563,-0.576,-0.903,0.0
9.088,-0.55,-0.91,0.0
8.71,-0.529,-0.921,0.0
11.135,-0.677,-0.865,0.0
10.536,-0.644,-0.878,0.0
10.011,-0.614,-0.891,0.0
9.511,-0.586,-0.901,0.0
9.098,-0.563,-0.914,0.0
8.633,-0.537,-0.916,0.0
11.093,-0.69,-0.865,0.0
10.514,-0.657,-0.879,0.0
9.985,-0.627,-0.892,0.0
9.519,-0.6,-0.905,0.0
9.058,-0.573,-0.913,0.0
8.62,-0.548,-0.918,0.0
11.077,-0.705,-0.867,0.0
10.492,-0.67,-0.881,0.0
9.949,-0.638,-0.891,0.0
9.491,-0.612,-0.905,0.0
9.051,-0.586,-0.915,0.0
8.671,-0.563,-0.925,0.0
11.059,-0.719,-0.869,0.0
10.454,-0.683,-0.88,0.0
9.918,-0.65,-0.891,0.0
9.49,-0.625,-0.907,0.0
9.059,-0.599,-0.917,0.0
8.584,-0.57,-0.918,0.0
11.06,-0.735,-0.871,0.0
10.472,-0.698,-0.884,0.0
9.915,-0.664,-0.893,0.0
9.409,-0.632,-0.901,0.0
9.024,-0.609,-0.916,0.0
8.52,-0.577,-0.913,0.0
11.036,-0.748,-0.871,0.0
10.417,-0.709,-0.881,0.0
9.915,-0.677,-0.894,0.0
9.419,-0.646,-0.904,0.0
9.009,-0.62,-0.915,0.0
8.558,-0.592,-0.918,0.0
11.033,-0.763,-0.872,0.0
10.429,-0.724,-0.883,0.0
9.881,-0.689,-0.892,0.0
9.437,-0.66,-0.906,0.0
9.007,-0.633,-0.916,0.0
8.591,-0.606,-0.922,0.0
11.01,-0.776,-0.871,0.0
10.423,-0.738,-0.883,0.0
9.896,-0.703,-0.894,0.0
9.435,-0.673,-0.907,0.0
8.981,-0.643,-0.914,0.0
8.605,-0.618,-0.924,0.0
11.009,-0.791,-0.872,0.0
10.414,-0.751,-0.883,0.0
9.888,-0.716,-0.894,0.0
9.419,-0.684,-0.905,0.0
8.979,-0.655,-0.914,0.0
8.543,-0.625,-0.918,0.0
