X,Y,Z,Reflectivity
14.707,-0.944,-0.817,0.0
13.626,-0.879,-0.835,0.0
20.008,-1.297,-1.34,0.0
11.865,-0.773,-0.862,0.0
20.115,-1.313,-0.899,0.0
20.079,-1.317,-1.011,0.0
14.545,-0.958,-0.814,0.0
13.574,-0.898,-0.838,0.0
20.022,-1.332,-1.35,0.0
11.789,-0.788,-0.862,0.0
20.095,-1.345,-0.907,0.0
15.79,-1.062,-0.802,0.0
14.502,-0.98,-0.818,0.0
13.49,-0.916,-0.839,0.0
20.014,-1.365,-1.358,0.0
11.728,-0.804,-0.862,0.0
17.151,-1.177,-0.781,0.0
15.737,-1.085,-0.805,0.0
14.444,-1.0,-0.821,0.0
13.451,-0.936,-0.842,0.0
12.489,-0.873,-0.852,0.0
11.664,-0.819,-0.862,0.0
17.039,-1.197,-0.782,0.0
15.559,-1.098,-0.802,0.0
14.34,-1.017,-0.82,0.0
13.404,-0.955,-0.843,0.0
12.342,-0.883,-0.846,0.0
11.646,-0.837,-0.864,0.0
16.821,-1.21,-0.778,0.0
15.507,-1.12,-0.804,0.0
14.329,-1.039,-0.824,0.0
13.341,-0.972,-0.843,0.0
12.371,-0.905,-0.852,0.0
11.606,-0.853,-0.865,0.0
16.934,-1.246,-0.788,0.0
15.439,-1.14,-0.805,0.0
14.305,-1.061,-0.826,0.0
13.276,-0.989,-0.843,0.0
12.361,-0.925,-0.854,0.0
11.578,-0.87,-0.865,0.0
16.722,-1.257,-0.782,0.0
15.394,-1.162,-0.806,0.0
14.266,-1.081,-0.827,0.0
13.287,-1.011,-0.846,0.0
12.34,-0.943,-0.855,0.0
11.542,-0.886,-0.865,0.0
16.712,-1.283,-0.784,0.0
15.339,-1.183,-0.806,0.0
14.218,-1.101,-0.827,0.0
13.2,-1.026,-0.843,0.0
12.284,-0.959,-0.854,0.0
11.556,-0.906,-0.868,0.0
16.643,-1.305,-0.784,1.0
15.339,-1.207,-0.808,0.0
14.215,-1.123,-0.829,0.0
13.2,-1.047,-0.845,0.0
12.304,-0.98,-0.857,0.0
11.544,-0.923,-0.869,0.0
16.695,-1.336,-0.788,0.0
15.314,-1.23,-0.809,0.0
14.163,-1.142,-0.827,0.0
13.18,-1.067,-0.845,0.0
12.282,-0.998,-0.856,0.0
11.516,-0.94,-0.867,0.0
16.689,-1.362,-0.789,0.0
15.281,-1.251,-0.808,0.0
14.178,-1.166,-0.829,0.0
13.266,-1.095,-0.851,0.0
12.303,-1.019,-0.858,0.0
11.534,-0.959,-0.869,0.0
16.591,-1.379,-0.785,0.0
15.304,-1.277,-0.809,0.0
14.221,-1.191,-0.832,0.0
13.211,-1.11,-0.848,0.0
12.324,-1.04,-0.86,0.0
11.543,-0.978,-0.87,0.0
16.649,-1.41,-0.788,0.0
15.223,-1.294,-0.805,0.0
14.147,-1.207,-0.827,0.0
13.199,-1.13,-0.847,0.0
12.332,-1.06,-0.86,0.0
11.564,-0.997,-0.871,0.0
16.512,-1.424,-0.78,0.0
15.339,-1.327,-0.81,0.0
14.134,-1.227,-0.825,0.0
13.206,-1.151,-0.846,0.0
12.319,-1.077,-0.858,0.0
11.567,-1.015,-0.87,0.0
16.655,-1.461,-0.786,0.0
15.382,-1.354,-0.811,0.0
14.153,-1.25,-0.825,0.0
13.235,-1.173,-0.847,0.0
12.33,-1.097,-0.857,0.0
11.605,-1.036,-0.872,0.0
16.725,-1.492,-0.787,0.0
15.425,-1.381,-0.811,0.0
14.128,-1.269,-0.822,0.0
13.242,-1.193,-0.845,0.0
12.432,-1.124,-0.863,0.0
11.648,-1.057,-0.873,0.0
16.699,-1.514,-0.783,1.0
15.352,-1.397,-0.805,0.0
14.101,-1.287,-0.818,0.0
13.249,-1.213,-0.843,0.0
12.477,-1.147,-0.863,0.0
11.694,-1.078,-0.874,0.0
16.728,-1.541,-0.781,0.0
15.417,-1.425,-0.805,0.0
14.239,-1.32,-0.822,0.0
13.268,-1.234,-0.841,0.0
12.494,-1.166,-0.862,0.0
11.691,-1.095,-0.871,0.0
16.802,-1.572,-0.78,1.0
15.525,-1.457,-0.807,0.0
14.283,-1.345,-0.821,0.0
13.342,-1.26,-0.842,0.0
12.485,-1.183,-0.858,0.0
11.725,-1.114,-0.87,0.0
17.063,-1.621,-0.788,0.0
15.403,-1.467,-0.796,0.0
14.368,-1.373,-0.822,0.0
13.402,-1.284,-0.842,0.0
12.592,-1.21,-0.861,0.0
11.74,-1.132,-0.868,0.0
16.914,-1.63,-0.775,0.0
15.45,-1.493,-0.794,1.0
14.444,-1.4,-0.821,0.0
13.39,-1.302,-0.837,0.0
12.584,-1.227,-0.856,0.0
11.773,-1.151,-0.866,0.0
16.418,-1.604,-0.747,0.0
15.718,-1.54,-0.802,1.0
14.438,-1.419,-0.816,0.0
13.464,-1.327,-0.837,0.0
12.633,-1.248,-0.855,0.0
11.841,-1.174,-0.867,0.0
15.933,-1.578,-0.718,1.0
15.807,-1.57,-0.8,0.0
14.714,-1.465,-0.826,0.0
13.532,-1.351,-0.835,0.0
12.666,-1.268,-0.852,0.0
11.972,-1.202,-0.871,0.0
15.533,-1.558,-0.694,1.0
15.504,-1.559,-0.778,0.0
14.792,-1.492,-0.823,0.0
13.682,-1.384,-0.839,0.0
12.706,-1.288,-0.849,0.0
12.025,-1.223,-0.87,0.0
15.229,-1.547,-0.673,1.0
14.94,-1.522,-0.743,0.0
14.792,-1.51,-0.816,0.0
13.793,-1.412,-0.839,0.0
12.928,-1.327,-0.857,0.0
12.083,-1.244,-0.868,0.0
15.145,-1.557,-0.662,1.0
14.549,-1.5,-0.716,1.0
14.498,-1.498,-0.793,0.0
13.946,-1.445,-0.841,0.0
12.964,-1.347,-0.853,0.0
12.1,-1.26,-0.863,0.0
15.298,-1.592,-0.661,2.0
14.278,-1.489,-0.695,1.0
14.203,-1.485,-0.769,1.0
13.981,-1.465,-0.835,0.0
13.088,-1.375,-0.854,0.0
12.188,-1.284,-0.862,0.0
15.393,-1.62,-0.656,5.0
14.189,-1.497,-0.683,1.0
13.873,-1.467,-0.743,0.0
13.778,-1.46,-0.815,0.0
13.2,-1.402,-0.853,0.0
12.283,-1.308,-0.861,0.0
15.4,-1.638,-0.647,11.0
14.24,-1.518,-0.676,1.0
13.572,-1.45,-0.719,0.0
13.471,-1.443,-0.789,0.0
13.239,-1.421,-0.848,0.0
12.351,-1.329,-0.859,0.0
15.394,-1.655,-0.637,15.0
14.335,-1.544,-0.672,3.0
13.364,-1.443,-0.699,1.0
13.199,-1.428,-0.764,0.0
13.238,-1.436,-0.839,1.0
12.52,-1.361,-0.862,0.0
15.361,-1.668,-0.626,16.0
14.388,-1.566,-0.665,8.0
13.353,-1.456,-0.69,1.0
12.944,-1.415,-0.741,0.0
12.982,-1.422,-0.814,0.0
12.673,-1.391,-0.864,0.0
15.477,-1.697,-0.62,17.0
14.457,-1.588,-0.658,12.0
13.441,-1.48,-0.685,1.0
12.746,-1.406,-0.72,1.0
12.666,-1.4,-0.785,0.0
12.623,-1.399,-0.851,0.0
15.762,-1.744,-0.62,21.0
14.458,-1.603,-0.647,13.0
13.625,-1.514,-0.684,1.0
12.63,-1.406,-0.704,1.0
12.441,-1.388,-0.762,0.0
12.418,-1.388,-0.828,0.0
15.892,-1.775,-0.613,26.0
14.492,-1.621,-0.638,13.0
13.838,-1.551,-0.684,2.0
12.681,-1.424,-0.698,1.0
12.259,-1.379,-0.741,0.0
12.213,-1.377,-0.805,0.0
16.059,-1.808,-0.607,20.0
14.521,-1.638,-0.628,12.0
13.862,-1.566,-0.675,8.0
12.801,-1.449,-0.694,0.0
12.102,-1.373,-0.722,0.0
12.065,-1.371,-0.785,0.0
16.255,-1.845,-0.602,18.0
14.725,-1.674,-0.625,12.0
13.818,-1.574,-0.661,12.0
12.977,-1.481,-0.693,1.0
12.111,-1.384,-0.712,0.0
11.838,-1.355,-0.761,0.0
16.362,-1.871,-0.592,18.0
15.171,-1.738,-0.631,17.0
13.809,-1.585,-0.649,13.0
13.173,-1.514,-0.692,1.0
12.174,-1.402,-0.706,0.0
11.685,-1.348,-0.741,0.0
16.517,-1.903,-0.583,17.0
15.293,-1.765,-0.623,17.0
13.943,-1.611,-0.643,12.0
13.297,-1.539,-0.687,4.0
12.287,-1.425,-0.701,1.0
11.612,-1.348,-0.726,0.0
16.672,-1.934,-0.574,16.0
15.41,-1.79,-0.614,16.0
14.019,-1.631,-0.634,10.0
13.31,-1.551,-0.676,10.0
12.373,-1.444,-0.695,2.0
11.629,-1.359,-0.717,0.0
16.915,-1.975,-0.567,15.0
15.495,-1.812,-0.603,16.0
14.373,-1.683,-0.637,11.0
13.319,-1.561,-0.664,11.0
12.498,-1.467,-0.691,2.0
11.733,-1.38,-0.712,0.0
17.25,-2.026,-0.563,16.0
15.618,-1.837,-0.594,14.0
14.462,-1.703,-0.628,11.0
13.281,-1.566,-0.65,9.0
12.696,-1.499,-0.69,4.0
11.874,-1.404,-0.709,0.0
17.63,-2.083,-0.558,16.0
15.824,-1.872,-0.586,13.0
14.669,-1.737,-0.623,12.0
13.453,-1.595,-0.645,9.0
12.878,-1.529,-0.687,9.0
12.058,-1.433,-0.709,0.0
18.051,-2.144,-0.554,19.0
16.082,-1.912,-0.58,14.0
14.976,-1.783,-0.621,17.0
13.844,-1.65,-0.65,11.0
12.917,-1.541,-0.676,11.0
12.211,-1.459,-0.705,1.0
18.274,-2.181,-0.543,19.0
16.334,-1.951,-0.573,14.0
15.119,-1.808,-0.612,19.0
13.997,-1.676,-0.643,11.0
12.959,-1.553,-0.666,11.0
12.251,-1.47,-0.695,5.0
18.424,-2.209,-0.529,19.0
16.692,-2.003,-0.569,14.0
15.266,-1.834,-0.602,17.0
13.92,-1.674,-0.626,10.0
13.077,-1.574,-0.658,11.0
12.361,-1.49,-0.689,9.0
18.585,-2.238,-0.514,18.0
17.095,-2.06,-0.565,15.0
15.447,-1.863,-0.594,15.0
14.002,-1.69,-0.615,10.0
13.333,-1.611,-0.657,11.0
12.419,-1.502,-0.679,10.0
18.867,-2.28,-0.502,19.0
17.445,-2.11,-0.558,15.0
15.613,-1.89,-0.584,13.0
14.516,-1.759,-0.622,13.0
13.222,-1.603,-0.638,9.0
12.515,-1.519,-0.671,10.0
19.38,-2.35,-0.496,27.0
17.727,-2.151,-0.548,16.0
15.878,-1.928,-0.576,13.0
14.788,-1.797,-0.618,13.0
13.848,-1.684,-0.653,12.0
12.634,-1.538,-0.664,11.0
19.672,-2.393,-0.482,21.0
17.997,-2.19,-0.537,17.0
16.209,-1.974,-0.571,13.0
15.036,-1.833,-0.612,14.0
13.946,-1.701,-0.642,13.0
12.946,-1.58,-0.666,10.0
20.085,-2.45,-0.47,18.0
18.233,-2.225,-0.525,17.0
16.603,-2.027,-0.567,14.0
15.234,-1.861,-0.603,15.0
14.096,-1.723,-0.634,12.0
13.151,-1.609,-0.662,11.0
20.479,-2.503,-0.457,18.0
18.463,-2.258,-0.511,18.0
16.993,-2.079,-0.561,14.0
15.426,-1.889,-0.594,15.0
14.31,-1.753,-0.628,12.0
13.375,-1.639,-0.659,11.0
20.967,-2.568,-0.444,20.0
18.767,-2.299,-0.498,17.0
17.395,-2.132,-0.555,15.0
15.609,-1.914,-0.583,15.0
14.507,-1.78,-0.62,13.0
13.645,-1.675,-0.656,12.0
21.476,-2.634,-0.431,19.0
19.249,-2.362,-0.489,17.0
17.739,-2.177,-0.546,16.0
15.87,-1.949,-0.575,13.0
14.782,-1.816,-0.615,13.0
13.831,-1.7,-0.65,12.0
22.07,-2.71,-0.418,20.0
19.669,-2.416,-0.478,18.0
18.047,-2.217,-0.535,16.0
16.238,-1.996,-0.57,13.0
15.063,-1.852,-0.609,14.0
13.95,-1.716,-0.639,13.0
22.661,-2.785,-0.403,22.0
20.177,-2.48,-0.467,19.0
18.311,-2.251,-0.522,17.0
16.623,-2.044,-0.564,14.0
15.297,-1.882,-0.601,14.0
14.131,-1.739,-0.631,12.0
23.423,-2.88,-0.39,23.0
20.62,-2.536,-0.454,19.0
18.57,-2.284,-0.508,17.0
17.031,-2.095,-0.559,14.0
15.498,-1.907,-0.591,15.0
14.374,-1.769,-0.625,12.0
24.041,-2.956,-0.373,21.0
21.087,-2.593,-0.44,18.0
18.94,-2.329,-0.496,16.0
17.486,-2.15,-0.553,15.0
15.704,-1.931,-0.581,13.0
14.595,-1.795,-0.618,13.0
24.93,-3.065,-0.358,25.0
21.768,-2.676,-0.428,19.0
19.448,-2.39,-0.487,17.0
17.828,-2.191,-0.543,16.0
16.04,-1.971,-0.575,13.0
14.903,-1.832,-0.614,13.0
25.349,-3.114,-0.334,15.0
22.406,-2.752,-0.415,19.0
19.928,-2.447,-0.475,18.0
18.147,-2.228,-0.532,16.0
16.441,-2.019,-0.57,13.0
15.169,-1.862,-0.607,14.0
0.0,0.0,0.0,0.0
23.104,-2.834,-0.401,22.0
20.469,-2.511,-0.464,18.0
18.399,-2.256,-0.517,17.0
16.916,-2.074,-0.566,14.0
15.402,-1.888,-0.598,15.0
29.629,-3.631,-0.321,29.0
23.826,-2.918,-0.385,24.0
20.988,-2.57,-0.451,19.0
18.734,-2.293,-0.505,16.0
17.361,-2.125,-0.56,15.0
15.634,-1.913,-0.588,14.0
30.518,-3.733,-0.294,15.0
24.743,-3.025,-0.37,21.0
21.604,-2.64,-0.439,18.0
19.229,-2.349,-0.496,17.0
17.722,-2.164,-0.551,15.0
16.033,-1.957,-0.585,14.0
35.464,-4.328,-0.301,12.0
25.456,-3.105,-0.351,18.0
22.19,-2.705,-0.425,25.0
19.742,-2.406,-0.486,18.0
18.12,-2.207,-0.542,18.0
16.314,-1.986,-0.575,13.0
35.873,-4.367,-0.262,19.0
0.0,0.0,0.0,0.0
22.827,-2.775,-0.41,24.0
20.315,-2.469,-0.475,18.0
18.327,-2.226,-0.527,17.0
16.792,-2.038,-0.572,14.0
37.183,-4.513,-0.227,15.0
29.22,-3.544,-0.335,32.0
23.703,-2.873,-0.398,21.0
20.965,-2.539,-0.466,20.0
18.686,-2.262,-0.515,17.0
17.423,-2.108,-0.573,16.0
38.161,-4.616,-0.189,24.0
30.133,-3.642,-0.31,20.0
24.588,-2.969,-0.384,22.0
21.488,-2.593,-0.452,20.0
19.279,-2.325,-0.509,24.0
17.777,-2.142,-0.564,16.0
38.8,-4.675,-0.147,14.0
35.316,-4.252,-0.322,6.0
25.23,-3.035,-0.365,18.0
22.098,-2.656,-0.44,20.0
19.547,-2.348,-0.493,27.0
18.13,-2.176,-0.555,17.0
41.549,-4.986,-0.109,17.0
35.655,-4.275,-0.284,24.0
0.0,0.0,0.0,0.0
22.8,-2.728,-0.427,19.0
20.246,-2.421,-0.488,19.0
18.421,-2.201,-0.542,18.0
45.909,-5.484,-0.068,7.0
36.603,-4.368,-0.25,13.0
28.921,-3.448,-0.351,11.0
23.398,-2.786,-0.412,20.0
20.753,-2.469,-0.476,19.0
18.708,-2.224,-0.529,16.0
46.285,-5.501,-0.015,21.0
37.792,-4.487,-0.214,24.0
29.972,-3.554,-0.33,21.0
24.244,-2.872,-0.399,22.0
21.445,-2.538,-0.467,19.0
19.123,-2.261,-0.519,17.0
46.793,-5.532,0.037,11.0
38.688,-4.568,-0.175,14.0
35.17,-4.148,-0.347,3.0
25.08,-2.954,-0.384,19.0
21.995,-2.588,-0.454,18.0
19.648,-2.31,-0.511,18.0
0.0,0.0,0.0,0.0
0.0,0.0,0.0,0.0
35.608,-4.175,-0.311,12.0
27.775,-3.252,-0.394,1.0
22.599,-2.643,-0.441,18.0
20.171,-2.356,-0.502,17.0
51.421,-6.007,0.157,24.0
42.433,-4.95,-0.097,17.0
36.044,-4.199,-0.275,14.0
28.562,-3.323,-0.373,8.0
23.065,-2.68,-0.425,19.0
20.635,-2.394,-0.49,18.0
51.589,-5.986,0.215,2.0
45.612,-5.285,-0.053,20.0
37.448,-4.333,-0.244,15.0
29.781,-3.441,-0.356,24.0
23.986,-2.767,-0.415,26.0
21.256,-2.449,-0.482,19.0
75.192,-8.665,0.395,14.0
46.63,-5.365,-0.004,21.0
38.475,-4.42,-0.209,17.0
30.831,-3.536,-0.336,21.0
24.73,-2.832,-0.401,19.0
21.869,-2.501,-0.472,21.0
75.231,-8.605,0.477,19.0
0.0,0.0,0.0,0.0
39.193,-4.468,-0.17,15.0
35.319,-4.02,-0.346,8.0
27.521,-3.127,-0.417,11.0
22.413,-2.543,-0.46,21.0
75.335,-8.548,0.557,20.0
50.246,-5.692,0.103,19.0
0.0,0.0,0.0,0.0
35.586,-4.017,-0.311,23.0
0.0,0.0,0.0,0.0
23.064,-2.595,-0.448,20.0
90.131,-10.142,0.762,12.0
50.244,-5.644,0.156,3.0
42.86,-4.806,-0.096,7.0
36.499,-4.085,-0.281,13.0
29.288,-3.273,-0.383,30.0
23.997,-2.677,-0.442,22.0
90.431,-10.088,0.858,7.0
76.235,-8.488,0.315,5.0
45.802,-5.09,-0.056,20.0
37.733,-4.185,-0.252,21.0
29.996,-3.321,-0.361,19.0
24.729,-2.733,-0.43,21.0
98.253,-10.86,1.032,5.0
83.446,-9.204,0.429,5.0
47.306,-5.207,-0.009,21.0
38.62,-4.243,-0.219,14.0
0.0,0.0,0.0,0.0
25.12,-2.749,-0.412,17.0
33.165,-3.63,0.382,24.0
33.155,-3.621,0.204,5.0
48.452,-5.281,0.038,17.0
0.0,0.0,0.0,0.0
32.801,-3.56,-0.329,16.0
26.643,-2.886,-0.41,17.0
33.13,-3.589,0.414,80.0
33.121,-3.58,0.236,69.0
33.141,-3.574,0.058,61.0
33.086,-3.561,-0.122,48.0
33.089,-3.554,-0.3,42.0
28.565,-3.062,-0.412,16.0
33.114,-3.549,0.446,86.0
33.115,-3.541,0.268,79.0
33.1,-3.531,0.09,82.0
33.096,-3.523,-0.09,82.0
33.08,-3.514,-0.268,81.0
29.596,-3.137,-0.399,26.0
33.143,-3.513,0.477,77.0
33.123,-3.503,0.299,72.0
33.111,-3.493,0.121,71.0
33.089,-3.483,-0.06,75.0
33.085,-3.474,-0.238,78.0
30.382,-3.183,-0.382,20.0
119.151,-12.486,1.826,25.0
33.125,-3.462,0.329,1.0
33.14,-3.455,0.151,9.0
33.109,-3.443,-0.03,42.0
33.128,-3.437,-0.208,59.0
0.0,0.0,0.0,0.0
104.678,-10.837,1.698,14.0
104.657,-10.807,1.133,15.0
83.736,-8.625,0.456,3.0
48.421,-4.974,-0.001,22.0
41.601,-4.263,-0.225,10.0
35.327,-3.611,-0.381,7.0
135.381,-13.84,2.314,150.0
0.0,0.0,0.0,0.0
83.741,-8.515,0.528,8.0
51.183,-5.19,0.042,5.0
42.748,-4.323,-0.194,17.0
35.538,-3.585,-0.353,14.0
135.424,-13.662,2.43,150.0
114.424,-11.512,1.436,8.0
87.599,-8.788,0.627,5.0
51.661,-5.168,0.086,8.0
44.14,-4.404,-0.164,18.0
0.0,0.0,0.0,0.0
135.448,-13.479,2.542,60.0
119.037,-11.812,1.591,10.0
87.797,-8.687,0.7,4.0
67.582,-6.668,0.167,2.0
45.224,-4.449,-0.132,19.0
37.855,-3.714,-0.314,15.0
135.504,-13.294,2.652,57.0
135.523,-13.255,1.92,150.0
89.227,-8.701,0.781,4.0
78.721,-7.654,0.257,7.0
47.094,-4.565,-0.1,21.0
38.571,-3.728,-0.29,14.0
119.219,-11.524,2.426,54.0
119.158,-11.482,1.78,13.0
110.985,-10.661,1.057,11.0
78.222,-7.49,0.314,4.0
48.385,-4.619,-0.066,22.0
0.0,0.0,0.0,0.0
119.236,-11.349,2.514,7.0
119.201,-11.309,1.869,12.0
111.417,-10.537,1.143,16.0
81.61,-7.693,0.388,4.0
0.0,0.0,0.0,0.0
41.662,-3.902,-0.252,17.0
119.272,-11.171,2.602,7.0
135.567,-12.654,2.223,140.0
114.666,-10.667,1.259,4.0
85.007,-7.882,0.464,19.0
51.719,-4.78,0.002,15.0
0.0,0.0,0.0,0.0
119.258,-10.988,2.683,54.0
72.677,-6.672,1.241,10.0
119.082,-10.896,1.387,4.0
85.152,-7.765,0.522,13.0
52.072,-4.732,0.036,3.0
44.427,-4.024,-0.209,19.0
135.613,-12.283,3.139,128.0
135.63,-12.241,2.402,57.0
119.098,-10.711,1.464,11.0
85.772,-7.686,0.581,7.0
55.59,-4.964,0.074,4.0
44.968,-4.002,-0.183,7.0
135.651,-12.07,3.225,31.0
135.652,-12.026,2.487,42.0
119.13,-10.521,1.537,16.0
89.373,-7.865,0.66,3.0
57.922,-5.079,0.112,1.0
47.294,-4.131,-0.164,21.0
119.22,-10.414,2.906,14.0
119.24,-10.375,2.258,59.0
119.189,-10.332,1.608,17.0
89.594,-7.736,0.713,3.0
67.533,-5.81,0.171,5.0
0.0,0.0,0.0,0.0
72.742,-6.232,1.814,12.0
119.306,-10.182,2.327,91.0
119.191,-10.132,1.675,15.0
111.943,-9.478,0.953,5.0
67.854,-5.724,0.208,3.0
50.189,-4.217,-0.118,24.0
72.409,-6.082,1.844,12.0
126.475,-10.579,2.532,31.0
119.247,-9.935,1.738,15.0
112.218,-9.312,1.013,3.0
81.102,-6.704,0.29,7.0
50.934,-4.193,-0.094,24.0
71.777,-5.907,1.863,15.0
119.313,-9.777,2.447,135.0
119.333,-9.739,1.797,27.0
114.495,-9.305,1.088,5.0
81.944,-6.632,0.332,9.0
51.246,-4.13,-0.071,5.0
71.643,-5.771,1.894,22.0
119.331,-9.572,2.502,21.0
119.314,-9.529,1.852,21.0
114.333,-9.093,1.138,11.0
67.877,-5.375,0.305,40.0
55.271,-4.358,-0.052,3.0
67.923,-5.352,1.825,40.0
67.886,-5.326,1.453,74.0
67.88,-5.302,1.082,91.0
67.873,-5.278,0.704,97.0
67.876,-5.255,0.333,68.0
56.932,-4.388,-0.03,5.0
67.929,-5.232,1.852,33.0
72.593,-5.565,1.582,3.0
119.375,-9.109,1.949,150.0
119.235,-9.057,1.283,17.0
84.492,-6.388,0.447,4.0
65.762,-4.949,-0.011,1.0
71.742,-5.395,1.983,10.0
119.365,-8.934,2.645,28.0
119.373,-8.891,1.992,56.0
20.033,-1.485,0.222,12.0
20.005,-1.475,0.112,12.0
48.891,-3.59,0.008,0.0
20.034,-1.469,0.56,4.0
20.023,-1.461,0.45,9.0
20.012,-1.453,0.34,10.0
20.028,-1.447,0.228,40.0
20.014,-1.439,0.119,15.0
59.216,-4.238,0.027,1.0
20.01,-1.43,0.565,10.0
20.002,-1.423,0.455,10.0
20.008,-1.416,0.345,10.0
20.019,-1.41,0.234,7.0
102.811,-7.205,0.639,28.0
0.0,0.0,0.0,0.0
20.014,-1.393,0.57,9.0
20.028,-1.387,0.461,8.0
119.401,-8.228,2.093,37.0
119.327,-8.181,1.425,16.0
20.009,-1.364,0.129,10.0
20.0,-1.357,0.019,15.0
20.076,-1.36,0.577,15.0
20.059,-1.351,0.466,7.0
19.974,-1.338,0.354,10.0
19.97,-1.331,0.242,25.0
19.996,-1.325,0.133,23.0
19.988,-1.318,0.023,24.0
19.959,-1.314,0.577,15.0
19.927,-1.305,0.466,14.0
19.929,-1.297,0.357,18.0
19.964,-1.292,0.245,26.0
19.97,-1.285,0.136,23.0
19.987,-1.279,0.026,25.0
19.951,-1.275,0.58,26.0
19.923,-1.265,0.469,19.0
19.931,-1.259,0.36,20.0
19.959,-1.253,0.248,27.0
19.994,-1.248,0.138,27.0
20.006,-1.242,0.028,23.0
19.947,-1.236,0.582,26.0
19.934,-1.227,0.472,19.0
19.954,-1.221,0.362,21.0
19.947,-1.213,0.25,24.0
19.988,-1.208,0.14,151.0
19.98,-1.201,0.03,150.0
19.953,-1.197,0.584,24.0
19.949,-1.189,0.473,20.0
19.944,-1.181,0.363,22.0
19.92,-1.173,0.251,19.0
20.111,-1.177,0.142,7.0
20.02,-1.164,0.031,0.0
19.963,-1.158,0.585,25.0
19.949,-1.15,0.474,25.0
19.943,-1.142,0.363,19.0
19.957,-1.136,0.251,27.0
20.011,-1.132,0.141,25.0
20.001,-1.124,0.031,21.0
19.958,-1.118,0.584,23.0
19.955,-1.111,0.474,22.0
19.943,-1.103,0.363,18.0
19.979,-1.097,0.251,22.0
19.98,-1.09,0.141,24.0
19.978,-1.083,0.03,29.0
19.976,-1.079,0.584,24.0
19.963,-1.071,0.473,19.0
19.949,-1.063,0.362,15.0
19.992,-1.058,0.25,31.0
19.974,-1.05,0.139,16.0
19.974,-1.042,0.029,28.0
19.971,-1.039,0.582,17.0
19.988,-1.033,0.472,11.0
20.091,-1.031,0.363,16.0
20.125,-1.025,0.25,24.0
20.086,-1.015,0.138,9.0
19.997,-1.004,0.027,16.0
20.13,-1.007,0.585,25.0
20.126,-0.999,0.473,19.0
20.133,-0.992,0.361,24.0
20.154,-0.985,0.248,9.0
138.17,-6.708,0.935,11.0
0.0,0.0,0.0,0.0
20.111,-0.965,0.581,25.0
20.135,-0.958,0.47,17.0
20.156,-0.952,0.358,3.0
194.475,-9.117,2.361,13.0
138.24,-6.427,0.91,12.0
0.0,0.0,0.0,0.0
20.128,-0.925,0.577,12.0
20.188,-0.92,0.467,0.0
138.054,-6.241,2.428,16.0
194.664,-8.729,2.321,12.0
137.96,-6.136,0.879,16.0
0.0,0.0,0.0,0.0
193.295,-8.491,5.505,23.0
193.406,-8.424,4.432,9.0
138.056,-5.961,2.394,26.0
138.373,-5.924,1.616,2.0
138.222,-5.869,0.845,13.0
0.0,0.0,0.0,0.0
193.581,-8.109,5.46,21.0
193.743,-8.044,4.385,18.0
192.659,-7.928,3.287,20.0
138.501,-5.647,1.577,6.0
138.432,-5.595,0.805,9.0
76.605,-3.067,0.018,0.0
193.002,-7.692,5.384,21.0
193.259,-7.631,4.313,18.0
193.314,-7.564,3.237,6.0
138.449,-5.367,1.532,10.0
138.392,-5.314,0.759,8.0
0.0,0.0,0.0,0.0
193.163,-7.307,5.322,21.0
0.0,0.0,0.0,0.0
193.314,-7.171,3.167,7.0
138.498,-5.088,1.482,12.0
138.511,-5.037,0.708,5.0
0.0,0.0,0.0,0.0
193.141,-6.912,5.247,22.0
204.432,-7.242,4.41,25.0
138.461,-4.853,2.213,5.0
138.597,-4.808,1.427,17.0
138.397,-4.75,0.651,2.0
0.0,0.0,0.0,0.0
187.481,-6.324,5.012,12.0
193.953,-6.471,4.1,20.0
138.493,-4.571,2.153,4.0
138.584,-4.524,1.365,27.0
0.0,0.0,0.0,0.0
0.0,0.0,0.0,0.0
194.063,-6.148,5.098,26.0
194.361,-6.088,4.017,17.0
138.644,-4.291,2.088,7.0
138.586,-4.241,1.298,11.0
0.0,0.0,0.0,0.0
0.0,0.0,0.0,0.0
194.187,-5.755,5.003,20.0
194.575,-5.697,3.922,21.0
138.569,-4.006,2.016,10.0
138.466,-3.952,1.224,23.0
0.0,0.0,0.0,0.0
0.0,0.0,0.0,0.0
205.596,-5.677,5.187,12.0
194.947,-5.312,3.823,8.0
138.827,-3.732,1.943,3.0
138.788,-3.682,1.15,23.0
0.0,0.0,0.0,0.0
0.0,0.0,0.0,0.0
118.03,-3.017,2.908,22.0
193.385,-4.876,3.679,13.0
0.0,0.0,0.0,0.0
138.865,-3.402,1.068,17.0
0.0,0.0,0.0,0.0
0.0,0.0,0.0,0.0
118.232,-2.783,2.84,5.0
193.154,-4.478,3.554,20.0
0.0,0.0,0.0,0.0
138.909,-3.123,0.981,17.0
0.0,0.0,0.0,0.0
0.0,0.0,0.0,0.0
205.53,-4.418,4.802,17.0
193.141,-4.082,3.425,20.0
0.0,0.0,0.0,0.0
138.924,-2.84,0.886,13.0
0.0,0.0,0.0,0.0
0.0,0.0,0.0,0.0
205.915,-4.008,4.667,9.0
193.057,-3.689,3.288,20.0
139.139,-2.611,1.586,4.0
138.873,-2.557,0.787,10.0
75.668,-1.368,0.003,0.0
0.0,0.0,0.0,0.0
205.907,-3.598,4.518,5.0
193.744,-3.317,3.158,9.0
139.113,-2.334,1.483,7.0
113.468,-1.864,0.559,6.0
0.0,0.0,0.0,0.0
0.0,0.0,0.0,0.0
205.858,-3.181,4.357,9.0
138.889,-2.099,2.156,10.0
138.926,-2.054,1.374,12.0
127.503,-1.842,0.529,6.0
0.0,0.0,0.0,0.0
0.0,0.0,0.0,0.0
0.0,0.0,0.0,0.0
139.188,-1.827,2.048,7.0
139.204,-1.779,1.262,23.0
0.0,0.0,0.0,0.0
0.0,0.0,0.0,0.0
46.978,-0.553,-0.374,0.0
119.725,-1.375,2.337,6.0
119.749,-1.336,1.661,63.0
119.757,-1.296,0.984,150.0
0.0,0.0,0.0,0.0
0.0,0.0,0.0,0.0
0.0,0.0,0.0,0.0
119.742,-1.141,2.233,101.0
119.72,-1.102,1.556,29.0
119.641,-1.061,0.878,7.0
0.0,0.0,0.0,0.0
0.0,0.0,0.0,0.0
44.887,-0.354,-0.436,0.0
194.302,-1.474,3.447,22.0
119.668,-0.867,1.445,19.0
111.162,-0.769,0.713,4.0
0.0,0.0,0.0,0.0
0.0,0.0,0.0,0.0
0.0,0.0,0.0,0.0
114.794,-0.646,1.927,6.0
119.719,-0.636,1.332,17.0
110.873,-0.554,0.605,3.0
0.0,0.0,0.0,0.0
0.0,0.0,0.0,0.0
40.054,-0.161,-0.465,0.0
113.846,-0.422,1.799,7.0
119.766,-0.406,1.214,13.0
101.758,-0.312,0.454,1.0
0.0,0.0,0.0,0.0
0.0,0.0,0.0,0.0
39.555,-0.083,-0.5,0.0
112.701,-0.204,1.667,7.0
117.302,-0.176,1.07,14.0
98.39,-0.117,0.34,1.0
0.0,0.0,0.0,0.0
45.69,-0.025,-0.365,1.0
37.839,-0.009,-0.517,0.0
111.114,0.007,1.528,14.0
111.0,0.041,0.896,8.0
0.0,0.0,0.0,0.0
0.0,0.0,0.0,0.0
45.364,0.058,-0.41,1.0
35.835,0.057,-0.528,0.0
111.18,0.214,1.409,13.0
110.773,0.246,0.775,7.0
0.0,0.0,0.0,0.0
0.0,0.0,0.0,0.0
42.797,0.134,-0.434,1.0
35.046,0.12,-0.554,0.0
111.14,0.417,1.286,20.0
104.077,0.422,0.612,6.0
0.0,0.0,0.0,0.0
0.0,0.0,0.0,0.0
42.781,0.213,-0.482,0.0
0.0,0.0,0.0,0.0
111.024,0.62,1.157,8.0
97.24,0.573,0.46,2.0
0.0,0.0,0.0,0.0
48.847,0.316,-0.329,0.0
0.0,0.0,0.0,0.0
0.0,0.0,0.0,0.0
104.788,0.774,0.97,26.0
85.296,0.655,0.304,5.0
0.0,0.0,0.0,0.0
46.607,0.385,-0.369,0.0
0.0,0.0,0.0,0.0
30.915,0.273,-0.597,0.0
98.483,0.903,0.793,17.0
81.71,0.772,0.192,3.0
0.0,0.0,0.0,0.0
0.0,0.0,0.0,0.0
35.421,0.365,-0.525,0.0
29.749,0.315,-0.611,0.0
98.098,1.07,0.67,8.0
79.413,0.889,0.089,3.0
0.0,0.0,0.0,0.0
43.856,0.515,-0.454,1.0
33.47,0.403,-0.538,0.0
28.764,0.355,-0.626,0.0
85.412,1.081,0.475,14.0
75.051,0.97,-0.01,1.0
0.0,0.0,0.0,0.0
41.066,0.554,-0.478,0.0
32.515,0.448,-0.564,0.0
27.822,0.391,-0.641,0.0
84.739,1.217,0.361,7.0
0.0,0.0,0.0,0.0
47.026,0.701,-0.335,0.0
0.0,0.0,0.0,0.0
31.648,0.489,-0.59,0.0
26.395,0.415,-0.643,0.0
77.858,1.249,0.23,6.0
0.0,0.0,0.0,0.0
45.944,0.762,-0.389,1.0
36.347,0.612,-0.519,0.0
30.197,0.517,-0.603,0.0
26.018,0.452,-0.669,0.0
72.64,1.285,0.117,6.0
57.761,1.037,-0.236,0.0
46.003,0.838,-0.451,0.0
34.919,0.645,-0.545,0.0
29.057,0.545,-0.62,0.0
25.02,0.475,-0.677,0.0
70.734,1.366,0.018,4.0
0.0,0.0,0.0,0.0
0.0,0.0,0.0,0.0
0.0,0.0,0.0,0.0
27.578,0.561,-0.626,0.0
24.105,0.497,-0.686,0.0
69.418,1.452,-0.079,0.0
48.417,1.025,-0.332,0.0
0.0,0.0,0.0,0.0
0.0,0.0,0.0,0.0
26.615,0.583,-0.642,0.0
23.387,0.519,-0.698,0.0
67.866,1.525,-0.172,0.0
0.0,0.0,0.0,0.0
0.0,0.0,0.0,0.0
29.834,0.693,-0.591,0.0
25.985,0.61,-0.664,0.0
22.483,0.533,-0.703,0.0
9.563,-0.059,-0.898,0.0
9.197,-0.058,-0.913,0.0
8.765,-0.057,-0.917,0.0
8.403,-0.056,-0.926,0.0
8.054,-0.055,-0.931,0.0
7.74,-0.054,-0.937,0.0
9.682,-0.068,-0.897,0.0
9.219,-0.066,-0.904,0.0
8.783,-0.065,-0.908,0.0
8.472,-0.064,-0.923,0.0
8.166,-0.063,-0.934,0.0
7.81,-0.062,-0.935,0.0
9.83,-0.077,-0.899,0.0
9.343,-0.075,-0.904,0.0
8.977,-0.074,-0.917,0.0
8.489,-0.071,-0.914,0.0
8.278,-0.071,-0.936,0.0
7.931,-0.069,-0.94,0.0
9.932,-0.086,-0.895,0.0
9.477,-0.084,-0.905,0.0
9.071,-0.082,-0.915,0.0
0.0,0.0,0.0,0.0
8.295,-0.078,-0.927,0.0
8.01,-0.076,-0.938,0.0
10.048,-0.095,-0.892,0.0
9.587,-0.093,-0.903,0.0
9.135,-0.09,-0.909,0.0
0.0,0.0,0.0,0.0
8.407,-0.085,-0.928,0.0
8.074,-0.083,-0.935,0.0
10.158,-0.104,-0.888,0.0
9.697,-0.101,-0.9,0.0
9.25,-0.098,-0.908,0.0
0.0,0.0,0.0,0.0
8.52,-0.093,-0.929,0.0
8.145,-0.09,-0.931,0.0
10.276,-0.113,-0.884,0.0
9.771,-0.109,-0.893,0.0
9.352,-0.106,-0.905,0.0
8.999,-0.103,-0.92,0.0
8.553,-0.1,-0.92,0.0
8.253,-0.097,-0.932,0.0
10.413,-0.122,-0.881,0.0
9.928,-0.118,-0.893,0.0
9.488,-0.114,-0.904,0.0
9.095,-0.111,-0.916,0.0
8.69,-0.107,-0.922,0.0
8.349,-0.104,-0.93,0.0
10.548,-0.131,-0.877,0.0
10.085,-0.127,-0.892,0.0
9.597,-0.122,-0.9,0.0
9.159,-0.118,-0.909,0.0
8.797,-0.115,-0.92,0.0
8.441,-0.111,-0.928,0.0
10.705,-0.14,-0.874,0.0
10.2,-0.135,-0.887,0.0
9.73,-0.13,-0.898,0.0
9.292,-0.126,-0.908,0.0
8.898,-0.122,-0.917,0.0
8.521,-0.118,-0.924,0.0
10.896,-0.15,-0.873,0.0
10.337,-0.144,-0.883,0.0
9.88,-0.139,-0.897,0.0
9.441,-0.134,-0.908,0.0
9.076,-0.13,-0.921,0.0
8.624,-0.125,-0.921,0.0
11.049,-0.159,-0.868,0.0
10.491,-0.152,-0.88,0.0
10.057,-0.147,-0.897,0.0
9.552,-0.141,-0.904,0.0
9.184,-0.137,-0.918,0.0
8.74,-0.131,-0.92,0.0
11.218,-0.168,-0.864,0.0
10.675,-0.161,-0.879,0.0
10.176,-0.155,-0.891,0.0
9.698,-0.149,-0.902,0.0
9.291,-0.144,-0.914,0.0
8.856,-0.138,-0.918,0.0
11.401,-0.176,-0.86,0.0
10.821,-0.169,-0.873,0.0
10.309,-0.162,-0.886,0.0
9.837,-0.156,-0.899,0.0
9.432,-0.151,-0.912,0.0
8.977,-0.144,-0.916,0.0
11.574,-0.185,-0.854,0.0
10.998,-0.177,-0.87,0.0
10.439,-0.169,-0.881,0.0
9.96,-0.163,-0.894,0.0
9.558,-0.157,-0.908,0.0
9.128,-0.151,-0.916,0.0
11.81,-0.194,-0.852,0.0
11.188,-0.186,-0.866,0.0
10.6,-0.177,-0.876,0.0
10.145,-0.17,-0.893,0.0
9.676,-0.164,-0.903,0.0
9.288,-0.158,-0.916,0.0
65.226,7.991,2.912,12.0
65.18,7.988,2.537,14.0
65.109,7.983,2.161,19.0
65.04,7.978,1.78,17.0
64.988,7.976,1.406,15.0
64.922,7.972,1.033,15.0
65.035,8.005,2.837,13.0
64.978,8.0,2.462,16.0
64.901,7.993,2.088,15.0
64.828,7.988,1.707,17.0
64.782,7.986,1.335,16.0
64.708,7.981,0.963,17.0
64.813,8.011,2.759,15.0
64.771,8.008,2.387,13.0
64.7,8.002,2.014,17.0
64.624,7.995,1.634,17.0
64.604,7.996,1.264,17.0
64.551,7.993,0.894,17.0
64.643,8.02,2.685,14.0
64.558,8.012,2.312,11.0
64.517,8.009,1.94,16.0
64.479,8.007,1.563,21.0
64.437,8.004,1.193,18.0
64.365,7.999,0.823,19.0
64.484,8.028,2.61,16.0
64.425,8.022,2.238,17.0
64.382,8.019,1.867,16.0
64.317,8.013,1.489,18.0
64.275,8.011,1.12,16.0
64.21,8.006,0.751,16.0
64.293,8.03,2.532,13.0
64.281,8.029,2.163,15.0
64.234,8.025,1.793,15.0
64.181,8.02,1.417,18.0
64.129,8.016,1.049,17.0
64.066,8.01,0.681,16.0
64.163,8.035,2.457,16.0
64.156,8.035,2.089,15.0
64.129,8.033,1.72,15.0
64.072,8.027,1.344,18.0
64.011,8.021,0.976,17.0
63.976,8.019,0.61,16.0
64.082,8.044,2.383,14.0
64.044,8.039,2.014,15.0
63.998,8.034,1.645,15.0
63.95,8.03,1.271,18.0
63.911,8.026,0.903,16.0
63.853,8.021,0.537,18.0
63.987,8.048,2.308,14.0
63.945,8.042,1.94,15.0
63.899,8.037,1.572,16.0
63.857,8.033,1.198,18.0
63.835,8.031,0.831,18.0
63.778,8.026,0.466,19.0
63.891,8.048,2.233,15.0
63.86,8.044,1.865,16.0
63.822,8.04,1.498,18.0
63.799,8.037,1.124,18.0
63.767,8.034,0.759,16.0
63.721,8.03,0.394,18.0
63.85,8.053,2.16,16.0
63.791,8.045,1.791,16.0
63.781,8.044,1.425,18.0
63.735,8.038,1.052,17.0
63.698,8.034,0.687,16.0
63.687,8.034,0.322,18.0
63.8,8.054,2.086,16.0
63.758,8.048,1.719,14.0
63.741,8.045,1.353,16.0
63.704,8.04,0.98,17.0
63.678,8.037,0.614,16.0
63.642,8.033,0.249,18.0
63.766,8.053,2.012,15.0
63.741,8.049,1.645,15.0
63.733,8.047,1.279,16.0
63.678,8.04,0.906,18.0
63.658,8.037,0.541,17.0
63.626,8.034,0.176,16.0
63.763,8.054,1.938,16.0
63.727,8.048,1.571,17.0
63.694,8.043,1.205,16.0
63.679,8.04,0.833,16.0
63.655,8.037,0.468,21.0
63.621,8.032,0.104,14.0
63.748,8.05,1.865,16.0
63.739,8.047,1.499,18.0
63.716,8.043,1.132,17.0
63.69,8.038,0.76,16.0
63.661,8.034,0.395,20.0
63.628,8.029,0.03,13.0
63.79,8.051,1.791,16.0
63.754,8.044,1.425,17.0
63.735,8.039,1.06,16.0
63.719,8.036,0.687,17.0
63.708,8.034,0.322,20.0
63.631,8.023,-0.042,6.0
44.207,-1.919,3.76,24.0
44.176,-1.918,3.526,18.0
44.243,-1.921,3.299,48.0
44.514,-1.932,3.082,23.0
58.867,-2.556,3.769,11.0
67.347,-2.924,3.96,13.0
44.261,-1.931,3.843,33.0
44.178,-1.926,3.604,41.0
44.219,-1.928,3.375,33.0
0.0,0.0,0.0,0.0
58.88,-2.567,3.872,32.0
59.509,-2.594,3.603,29.0
44.308,-1.94,3.925,37.0
44.16,-1.933,3.68,39.0
44.217,-1.934,3.453,24.0
44.343,-1.939,3.226,23.0
44.407,-1.942,2.999,21.0
58.927,-2.576,3.672,13.0
44.344,-1.947,4.007,29.0
44.156,-1.938,3.757,21.0
44.156,-1.937,3.526,30.0
44.231,-1.939,3.295,30.0
0.0,0.0,0.0,0.0
58.734,-2.573,3.761,8.0
46.969,-2.066,4.327,11.0
44.25,-1.945,3.843,15.0
44.159,-1.94,3.603,35.0
44.201,-1.94,3.37,43.0
0.0,0.0,0.0,0.0
0.0,0.0,0.0,0.0
46.764,-2.059,4.388,33.0
44.339,-1.951,3.927,31.0
44.161,-1.941,3.679,38.0
44.221,-1.942,3.447,33.0
46.195,-2.027,3.359,5.0
44.412,-1.947,2.996,22.0
46.52,-2.049,4.446,37.0
44.334,-1.95,4.003,28.0
44.16,-1.941,3.755,24.0
44.154,-1.939,3.517,32.0
44.241,-1.941,3.291,31.0
46.143,-2.022,3.191,4.0
46.694,-2.055,4.541,37.0
46.977,-2.065,4.32,10.0
44.234,-1.942,3.835,16.0
44.151,-1.936,3.59,35.0
44.206,-1.936,3.363,36.0
46.173,-2.02,3.27,4.0
46.862,-2.059,4.636,28.0
46.854,-2.056,4.387,32.0
44.297,-1.941,3.914,37.0
44.157,-1.932,3.664,40.0
44.239,-1.933,3.438,20.0
44.349,-1.935,3.214,36.0
46.873,-2.054,4.715,21.0
46.537,-2.036,4.435,29.0
44.341,-1.937,3.991,34.0
44.213,-1.928,3.742,17.0
56.04,-2.44,4.447,6.0
44.258,-1.924,3.278,46.0
47.007,-2.053,4.806,26.0
46.55,-2.029,4.512,25.0
46.892,-2.04,4.297,6.0
44.205,-1.92,3.812,27.0
44.178,-1.916,3.577,39.0
44.229,-1.915,3.347,36.0
46.92,-2.04,4.872,24.0
46.577,-2.021,4.589,31.0
46.69,-2.022,4.352,38.0
44.277,-1.914,3.888,41.0
44.146,-1.905,3.643,41.0
44.244,-1.906,3.417,20.0
46.878,-2.028,4.942,39.0
46.724,-2.017,4.677,41.0
46.376,-1.998,4.396,40.0
44.295,-1.904,3.959,47.0
44.186,-1.896,3.716,40.0
55.834,-2.391,4.401,28.0
46.86,-2.014,5.014,26.0
52.736,-2.262,5.362,7.0
46.351,-1.984,4.466,34.0
44.302,-1.892,4.029,28.0
44.14,-1.881,3.78,39.0
55.653,-2.366,4.471,16.0
52.203,-2.229,5.667,18.0
47.001,-2.001,4.851,21.0
46.556,-1.978,4.558,34.0
46.843,-1.985,4.332,18.0
44.278,-1.872,3.86,39.0
44.287,-1.868,3.626,36.0
51.834,-2.195,5.706,24.0
46.892,-1.98,4.912,37.0
46.591,-1.963,4.632,29.0
46.595,-1.958,4.379,32.0
44.292,-1.857,3.927,38.0
46.563,-1.947,3.881,5.0
42.144,0.116,5.843,37.0
42.299,0.123,5.62,46.0
41.276,0.127,5.247,34.0
41.004,0.133,4.973,41.0
41.215,0.14,4.762,35.0
41.392,0.148,4.546,37.0
42.255,0.162,5.836,21.0
42.415,0.169,5.613,40.0
41.208,0.172,5.216,37.0
40.992,0.177,4.949,36.0
41.29,0.185,4.748,28.0
41.374,0.193,4.521,29.0
42.294,0.209,5.817,33.0
42.379,0.215,5.584,40.0
40.81,0.214,5.142,34.0
43.082,0.233,5.176,3.0
41.296,0.229,4.724,17.0
47.238,0.27,5.133,6.0
42.226,0.253,5.782,42.0
42.419,0.26,5.563,35.0
40.726,0.257,5.105,42.0
41.158,0.266,4.918,35.0
41.257,0.273,4.693,22.0
41.245,0.279,4.455,20.0
42.245,0.298,5.756,35.0
41.691,0.3,5.439,18.0
40.681,0.299,5.072,44.0
40.751,0.306,4.842,45.0
41.11,0.315,4.648,23.0
41.192,0.321,4.421,26.0
41.962,0.339,5.688,38.0
40.819,0.337,5.296,16.0
40.679,0.341,5.043,45.0
40.868,0.349,4.826,45.0
41.217,0.358,4.63,37.0
41.172,0.364,4.388,46.0
41.898,0.382,5.648,48.0
40.744,0.378,5.256,31.0
40.754,0.384,5.021,42.0
40.902,0.391,4.799,43.0
41.266,0.4,4.603,42.0
41.267,0.407,4.366,40.0
41.509,0.421,5.562,26.0
40.767,0.419,5.226,37.0
40.793,0.425,4.993,39.0
40.883,0.432,4.763,46.0
41.134,0.44,4.555,43.0
41.536,0.45,4.361,28.0
40.792,0.454,5.432,26.0
40.786,0.46,5.194,42.0
40.726,0.465,4.95,44.0
41.305,0.477,4.777,37.0
40.825,0.477,4.486,40.0
41.606,0.491,4.332,29.0
40.705,0.494,5.384,40.0
40.795,0.5,5.159,37.0
40.725,0.504,4.914,39.0
41.461,0.519,4.758,42.0
40.673,0.514,4.433,40.0
41.682,0.532,4.302,40.0
40.817,0.534,5.361,29.0
40.913,0.541,5.136,29.0
40.658,0.542,4.867,42.0
41.313,0.556,4.702,37.0
40.713,0.553,4.399,42.0
41.376,0.567,4.232,34.0
40.765,0.572,5.315,30.0
40.68,0.576,5.067,35.0
40.538,0.579,4.813,39.0
40.877,0.588,4.613,37.0
40.651,0.59,4.352,39.0
41.236,0.603,4.177,43.0
40.809,0.61,5.279,29.0
40.533,0.61,5.008,47.0
40.466,0.614,4.764,45.0
40.633,0.622,4.544,37.0
40.881,0.63,4.335,38.0
41.103,0.638,4.121,38.0
41.399,0.656,5.312,18.0
40.589,0.648,4.971,41.0
40.504,0.651,4.725,40.0
40.59,0.657,4.496,39.0
40.811,0.665,4.284,43.0
41.044,0.674,4.071,35.0
41.701,0.698,5.305,34.0
40.591,0.683,4.927,36.0
40.485,0.686,4.679,35.0
40.939,0.698,4.489,46.0
40.929,0.702,4.251,42.0
41.032,0.708,4.025,39.0
40.993,0.721,5.169,20.0
40.834,0.722,4.911,16.0
40.54,0.721,4.64,43.0
40.699,0.728,4.417,40.0
40.917,0.736,4.203,40.0
41.111,0.743,3.986,38.0
23.946,-2.019,-0.579,3.0
23.638,-2.001,-0.702,0.0
20.534,-1.745,-0.724,0.0
18.384,-1.568,-0.752,0.0
16.892,-1.447,-0.784,0.0
15.671,-1.347,-0.814,0.0
23.166,-1.992,-0.557,2.0
22.578,-1.949,-0.667,1.0
20.69,-1.792,-0.726,0.0
18.519,-1.61,-0.754,0.0
17.09,-1.492,-0.79,0.0
15.608,-1.368,-0.808,0.0
23.244,-2.037,-0.554,5.0
21.389,-1.882,-0.628,1.0
20.893,-1.845,-0.729,0.0
18.525,-1.642,-0.75,0.0
17.045,-1.516,-0.784,0.0
15.673,-1.399,-0.808,0.0
23.225,-2.074,-0.548,11.0
20.476,-1.835,-0.596,2.0
20.1,-1.807,-0.696,0.0
18.688,-1.687,-0.752,0.0
16.979,-1.538,-0.777,0.0
15.671,-1.425,-0.804,0.0
22.646,-2.059,-0.529,23.0
20.37,-1.858,-0.588,2.0
19.206,-1.758,-0.66,1.0
18.873,-1.734,-0.754,0.0
17.161,-1.582,-0.78,0.0
15.761,-1.458,-0.804,0.0
22.349,-2.067,-0.515,22.0
20.603,-1.912,-0.588,4.0
18.482,-1.721,-0.629,2.0
18.148,-1.696,-0.72,1.0
17.187,-1.611,-0.776,0.0
15.89,-1.495,-0.805,0.0
22.572,-2.123,-0.512,20.0
20.13,-1.899,-0.567,11.0
18.369,-1.739,-0.619,3.0
17.503,-1.662,-0.688,1.0
17.363,-1.655,-0.778,0.0
16.039,-1.534,-0.807,0.0
22.517,-2.152,-0.503,26.0
19.991,-1.917,-0.556,18.0
18.503,-1.78,-0.616,3.0
16.884,-1.629,-0.657,1.0
16.724,-1.619,-0.743,0.0
16.12,-1.566,-0.804,1.0
22.741,-2.208,-0.499,21.0
19.904,-1.938,-0.546,17.0
18.553,-1.812,-0.61,10.0
16.746,-1.641,-0.644,2.0
16.14,-1.587,-0.71,1.0
16.077,-1.586,-0.795,1.0
22.773,-2.245,-0.489,25.0
20.127,-1.99,-0.543,20.0
18.327,-1.817,-0.594,16.0
16.745,-1.666,-0.637,2.0
15.695,-1.566,-0.683,2.0
15.618,-1.563,-0.765,0.0
22.972,-2.298,-0.483,21.0
20.32,-2.038,-0.538,18.0
18.286,-1.84,-0.584,16.0
16.844,-1.7,-0.632,3.0
15.478,-1.566,-0.666,1.0
15.086,-1.531,-0.731,1.0
23.498,-2.384,-0.482,34.0
20.488,-2.084,-0.532,18.0
18.499,-1.887,-0.581,17.0
16.877,-1.727,-0.624,14.0
15.505,-1.591,-0.659,2.0
14.636,-1.506,-0.702,1.0
0.0,0.0,0.0,0.0
20.836,-2.149,-0.53,20.0
18.636,-1.927,-0.575,17.0
16.916,-1.754,-0.617,16.0
15.602,-1.622,-0.654,2.0
14.375,-1.499,-0.681,3.0
23.372,-2.436,-0.453,5.0
20.86,-2.18,-0.518,19.0
18.729,-1.962,-0.567,18.0
17.016,-1.787,-0.61,16.0
15.669,-1.651,-0.647,7.0
14.374,-1.518,-0.672,3.0
23.409,-2.471,-0.44,3.0
20.998,-2.222,-0.509,19.0
18.812,-1.996,-0.558,18.0
17.184,-1.828,-0.605,15.0
15.658,-1.67,-0.637,13.0
14.481,-1.549,-0.668,1.0
23.748,-2.538,-0.431,25.0
21.236,-2.275,-0.501,18.0
18.917,-2.032,-0.549,17.0
17.368,-1.87,-0.601,18.0
15.616,-1.685,-0.625,15.0
14.595,-1.579,-0.664,5.0
25.964,0.665,-0.652,0.0
22.548,0.58,-0.697,0.0
19.99,0.517,-0.734,0.0
17.869,0.465,-0.762,0.0
16.324,0.427,-0.791,0.0
15.0,0.394,-0.814,0.0
24.651,0.649,-0.666,0.0
21.635,0.573,-0.71,0.0
19.026,0.506,-0.735,0.0
17.468,0.467,-0.778,0.0
15.917,0.427,-0.802,0.0
14.595,0.394,-0.82,0.0
23.583,0.638,-0.682,0.0
20.745,0.563,-0.72,0.0
18.708,0.51,-0.758,0.0
16.762,0.459,-0.779,0.0
15.397,0.424,-0.805,0.0
14.256,0.394,-0.828,0.0
22.426,0.621,-0.692,0.0
19.8,0.551,-0.725,0.0
17.954,0.501,-0.762,0.0
16.254,0.456,-0.786,0.0
15.018,0.423,-0.814,0.0
13.813,0.391,-0.829,0.0
21.512,0.609,-0.704,0.0
19.352,0.55,-0.746,0.0
17.452,0.498,-0.774,0.0
15.979,0.458,-0.803,0.0
14.621,0.421,-0.82,0.0
13.615,0.393,-0.843,0.0
20.871,0.603,-0.723,0.0
18.487,0.536,-0.747,0.0
16.75,0.488,-0.774,0.0
15.401,0.45,-0.803,0.0
14.313,0.42,-0.83,0.0
13.226,0.389,-0.844,0.0
19.933,0.587,-0.728,0.0
18.032,0.533,-0.763,0.0
16.444,0.488,-0.792,0.0
15.015,0.447,-0.812,0.0
13.848,0.413,-0.829,0.0
12.921,0.387,-0.849,0.0
19.312,0.578,-0.742,0.0
17.341,0.521,-0.767,0.0
15.859,0.478,-0.794,0.0
14.543,0.44,-0.814,0.0
13.62,0.413,-0.842,0.0
12.46,0.379,-0.843,0.0
18.566,0.565,-0.749,0.0
16.926,0.516,-0.781,0.0
15.558,0.476,-0.808,0.0
14.211,0.436,-0.823,0.0
13.265,0.408,-0.845,0.0
12.166,0.375,-0.846,0.0
18.059,0.557,-0.763,0.0
16.525,0.511,-0.794,0.0
15.07,0.467,-0.811,0.0
13.854,0.431,-0.828,0.0
12.843,0.4,-0.842,0.0
11.873,0.371,-0.848,0.0
17.463,0.545,-0.77,0.0
15.841,0.496,-0.791,0.0
14.638,0.459,-0.816,0.0
13.57,0.427,-0.837,0.0
12.532,0.395,-0.846,0.0
11.626,0.368,-0.853,0.0
16.915,0.534,-0.778,0.0
15.506,0.49,-0.804,0.0
14.339,0.455,-0.827,0.0
13.238,0.421,-0.842,0.0
12.213,0.389,-0.848,0.0
11.395,0.364,-0.857,0.0
16.482,0.525,-0.79,0.0
15.063,0.481,-0.809,0.0
13.844,0.443,-0.824,0.0
13.015,0.417,-0.852,0.0
11.857,0.381,-0.845,0.0
11.205,0.361,-0.864,0.0
15.958,0.513,-0.795,0.0
14.703,0.473,-0.817,0.0
13.601,0.439,-0.835,0.0
12.467,0.403,-0.84,0.0
11.621,0.376,-0.851,0.0
10.996,0.357,-0.869,0.0
15.377,0.498,-0.794,0.0
14.315,0.464,-0.823,0.0
13.304,0.432,-0.842,0.0
12.205,0.397,-0.845,0.0
11.396,0.371,-0.855,0.0
10.831,0.354,-0.876,0.0
14.995,0.488,-0.803,0.0
13.95,0.455,-0.828,0.0
12.936,0.422,-0.843,0.0
11.873,0.388,-0.844,0.0
11.215,0.367,-0.863,0.0
10.561,0.346,-0.874,0.0
31.535,-0.842,-0.586,0.0
21.856,-0.58,-0.519,163.0
21.885,-0.577,-0.634,150.0
18.155,-0.475,-0.622,151.0
18.138,-0.472,-0.715,21.0
18.038,-0.466,-0.805,2.0
0.0,0.0,0.0,0.0
21.919,-0.559,-0.482,1.0
21.9,-0.554,-0.595,153.0
18.109,-0.455,-0.587,155.0
18.133,-0.452,-0.682,73.0
18.102,-0.449,-0.775,15.0
0.0,0.0,0.0,0.0
30.08,-0.734,-0.607,0.0
21.887,-0.53,-0.555,1.0
18.147,-0.436,-0.556,150.0
18.095,-0.432,-0.649,162.0
18.109,-0.429,-0.743,63.0
0.0,0.0,0.0,0.0
32.092,-0.748,-0.591,0.0
27.493,-0.635,-0.649,0.0
18.152,-0.416,-0.524,62.0
18.105,-0.412,-0.617,168.0
18.122,-0.409,-0.712,63.0
0.0,0.0,0.0,0.0
33.983,-0.753,-0.566,0.0
29.178,-0.641,-0.638,0.0
18.136,-0.395,-0.492,0.0
18.152,-0.392,-0.587,152.0
18.135,-0.388,-0.681,48.0
44.833,-0.95,-0.437,2.0
0.0,0.0,0.0,0.0
30.388,-0.632,-0.612,0.0
26.366,-0.543,-0.671,0.0
23.162,-0.472,-0.71,0.0
18.15,-0.366,-0.651,7.0
46.256,-0.925,-0.371,0.0
0.0,0.0,0.0,0.0
0.0,0.0,0.0,0.0
27.587,-0.534,-0.654,0.0
24.31,-0.466,-0.703,0.0
21.543,-0.408,-0.735,0.0
0.0,0.0,0.0,0.0
0.0,0.0,0.0,0.0
33.903,-0.621,-0.567,0.0
29.058,-0.526,-0.64,0.0
25.131,-0.45,-0.684,0.0
22.151,-0.392,-0.719,0.0
57.525,-1.006,-0.266,0.0
0.0,0.0,0.0,0.0
35.068,-0.598,-0.528,0.0
30.521,-0.514,-0.621,0.0
26.352,-0.438,-0.674,0.0
23.246,-0.381,-0.716,0.0
0.0,0.0,0.0,0.0
46.859,-0.748,-0.383,1.0
0.0,0.0,0.0,0.0
0.0,0.0,0.0,0.0
27.168,-0.415,-0.65,0.0
24.157,-0.364,-0.704,0.0
0.0,0.0,0.0,0.0
0.0,0.0,0.0,0.0
0.0,0.0,0.0,0.0
34.38,-0.487,-0.587,0.0
28.814,-0.401,-0.642,0.0
24.826,-0.34,-0.683,0.0
0.0,0.0,0.0,0.0
0.0,0.0,0.0,0.0
0.0,0.0,0.0,0.0
36.135,-0.462,-0.558,0.0
30.368,-0.381,-0.628,0.0
26.155,-0.322,-0.677,0.0
0.0,0.0,0.0,0.0
0.0,0.0,0.0,0.0
47.185,-0.548,-0.403,0.0
37.48,-0.426,-0.519,0.0
30.829,-0.343,-0.588,0.0
26.983,-0.293,-0.656,0.0
0.0,0.0,0.0,0.0
0.0,0.0,0.0,0.0
0.0,0.0,0.0,0.0
40.016,-0.397,-0.492,0.0
32.627,-0.316,-0.572,0.0
28.244,-0.267,-0.643,0.0
116.235,-1.071,0.586,2.0
79.066,-0.709,-0.015,1.0
0.0,0.0,0.0,0.0
0.0,0.0,0.0,0.0
0.0,0.0,0.0,0.0
29.61,-0.236,-0.629,0.0
114.278,-0.884,0.751,7.0
0.0,0.0,0.0,0.0
0.0,0.0,0.0,0.0
44.99,-0.313,-0.416,0.0
36.837,-0.247,-0.533,0.0
30.918,-0.199,-0.609,0.0
23.939,2.439,-0.67,0.0
21.276,2.163,-0.716,0.0
19.027,1.931,-0.748,0.0
17.281,1.751,-0.778,0.0
15.823,1.601,-0.802,0.0
14.628,1.477,-0.824,0.0
23.731,2.384,-0.676,0.0
21.066,2.113,-0.719,0.0
18.91,1.893,-0.752,0.0
17.128,1.712,-0.779,0.0
15.686,1.565,-0.802,0.0
14.497,1.444,-0.823,0.0
23.494,2.327,-0.68,0.0
20.923,2.068,-0.723,0.0
18.715,1.847,-0.752,0.0
17.06,1.68,-0.783,0.0
15.521,1.526,-0.8,0.0
14.451,1.418,-0.827,0.0
23.393,2.283,-0.686,0.0
20.679,2.014,-0.723,0.0
18.651,1.813,-0.757,0.0
16.922,1.642,-0.784,0.0
15.506,1.502,-0.805,0.0
14.364,1.388,-0.827,0.0
23.296,2.239,-0.692,0.0
20.541,1.97,-0.726,0.0
18.507,1.772,-0.758,0.0
16.823,1.607,-0.785,0.0
15.426,1.471,-0.807,0.0
14.245,1.356,-0.825,0.0
22.889,2.166,-0.687,0.0
20.254,1.913,-0.722,0.0
18.34,1.728,-0.757,0.0
16.742,1.574,-0.786,0.0
15.433,1.448,-0.812,0.0
14.283,1.338,-0.832,0.0
22.798,2.123,-0.691,0.0
20.272,1.883,-0.728,0.0
18.286,1.695,-0.76,0.0
16.601,1.535,-0.785,0.0
15.31,1.413,-0.81,0.0
14.198,1.308,-0.831,0.0
22.689,2.077,-0.694,0.0
20.219,1.847,-0.732,0.0
18.238,1.662,-0.762,0.0
16.588,1.508,-0.788,0.0
15.283,1.387,-0.812,0.0
14.139,1.28,-0.83,0.0
22.62,2.035,-0.697,0.0
20.133,1.807,-0.733,0.0
18.21,1.631,-0.765,0.0
16.522,1.476,-0.788,0.0
15.294,1.363,-0.815,0.0
14.086,1.253,-0.83,0.0
22.314,1.972,-0.692,0.0
20.096,1.772,-0.735,0.0
18.119,1.594,-0.764,0.0
16.487,1.447,-0.789,0.0
15.189,1.33,-0.812,0.0
14.075,1.229,-0.832,0.0
22.232,1.929,-0.693,0.0
20.092,1.739,-0.738,0.0
18.077,1.56,-0.765,0.0
16.403,1.412,-0.788,0.0
15.131,1.3,-0.811,0.0
14.015,1.201,-0.83,0.0
22.43,1.909,-0.701,0.0
19.95,1.694,-0.735,0.0
18.003,1.525,-0.764,0.0
16.517,1.395,-0.795,0.0
15.131,1.275,-0.812,0.0
14.022,1.178,-0.831,0.0
22.323,1.864,-0.7,0.0
19.803,1.648,-0.731,0.0
17.974,1.492,-0.764,0.0
16.402,1.358,-0.79,0.0
15.164,1.252,-0.815,0.0
13.956,1.149,-0.828,0.0
22.278,1.823,-0.699,0.0
19.92,1.625,-0.736,0.0
18.017,1.466,-0.766,0.0
16.417,1.332,-0.791,0.0
15.134,1.224,-0.813,0.0
13.991,1.129,-0.83,0.0
22.31,1.788,-0.7,0.0
20.064,1.603,-0.741,0.0
17.989,1.433,-0.764,0.0
16.437,1.306,-0.791,0.0
15.168,1.201,-0.815,0.0
13.933,1.1,-0.826,0.0
22.353,1.753,-0.7,0.0
19.998,1.563,-0.737,0.0
18.002,1.403,-0.764,0.0
16.449,1.278,-0.791,0.0
15.147,1.174,-0.812,0.0
14.056,1.086,-0.832,0.0
41.145,-0.267,5.291,46.0
41.183,-0.259,5.069,27.0
41.001,-0.25,4.822,41.0
41.727,-0.246,4.675,39.0
41.162,-0.235,4.387,47.0
41.227,-0.228,4.17,39.0
41.183,-0.227,5.336,41.0
41.099,-0.218,5.099,34.0
41.039,-0.21,4.867,42.0
41.715,-0.206,4.714,24.0
41.169,-0.195,4.427,42.0
41.251,-0.188,4.211,38.0
41.253,-0.187,5.384,22.0
41.089,-0.177,5.136,43.0
41.104,-0.169,4.913,31.0
41.323,-0.163,4.708,16.0
41.205,-0.154,4.469,23.0
41.228,-0.146,4.246,37.0
41.28,-0.145,5.426,37.0
41.23,-0.137,5.191,38.0
0.0,0.0,0.0,0.0
41.331,-0.121,4.745,16.0
41.146,-0.112,4.498,26.0
41.483,-0.105,4.308,33.0
0.0,0.0,0.0,0.0
41.177,-0.094,5.22,31.0
43.276,-0.09,5.248,6.0
41.254,-0.078,4.771,27.0
41.119,-0.069,4.529,35.0
41.609,-0.062,4.356,38.0
48.143,-0.069,6.409,9.0
45.189,-0.055,5.766,10.0
41.1,-0.043,5.017,40.0
41.209,-0.035,4.799,43.0
41.385,-0.027,4.591,24.0
41.551,-0.018,4.382,31.0
42.164,-0.016,5.646,40.0
41.23,-0.007,5.293,19.0
41.068,0.0,5.044,30.0
40.994,0.008,4.804,27.0
41.432,0.016,4.627,18.0
41.359,0.025,4.392,43.0
42.329,0.029,5.699,36.0
41.378,0.036,5.341,29.0
41.037,0.044,5.07,40.0
40.948,0.052,4.828,30.0
51.563,0.075,5.795,9.0
41.149,0.069,4.398,41.0
42.204,0.075,5.712,52.0
41.784,0.082,5.422,17.0
41.078,0.089,5.102,41.0
41.005,0.097,4.862,33.0
41.213,0.105,4.659,16.0
41.242,0.113,4.434,37.0
42.135,0.121,5.73,49.0
41.893,0.128,5.463,29.0
41.196,0.134,5.143,35.0
40.996,0.142,4.886,25.0
41.468,0.151,4.712,34.0
41.292,0.158,4.464,40.0
42.173,0.167,5.76,42.0
42.435,0.177,5.559,40.0
40.98,0.178,5.14,39.0
41.033,0.187,4.914,33.0
41.364,0.197,4.724,31.0
47.233,0.234,5.133,6.0
42.294,0.215,5.8,34.0
42.378,0.224,5.575,40.0
40.796,0.224,5.139,34.0
40.935,0.232,4.924,28.0
41.39,0.243,4.749,23.0
41.308,0.251,4.51,34.0
42.192,0.262,5.808,41.0
42.407,0.272,5.6,39.0
40.744,0.269,5.152,40.0
40.805,0.277,4.928,42.0
41.26,0.289,4.753,44.0
41.116,0.296,4.509,37.0
42.185,0.31,5.827,41.0
42.292,0.319,5.604,42.0
40.784,0.315,5.176,40.0
40.659,0.322,4.928,39.0
41.228,0.335,4.767,37.0
41.182,0.342,4.533,36.0
41.939,0.356,5.81,18.0
42.195,0.367,5.608,15.0
40.688,0.361,5.18,44.0
40.671,0.369,4.946,43.0
40.976,0.379,4.754,42.0
41.147,0.389,4.545,42.0
41.398,0.398,5.751,32.0
41.654,0.409,5.552,25.0
40.638,0.406,5.188,39.0
40.79,0.416,4.974,36.0
40.927,0.425,4.762,41.0
41.269,0.436,4.572,39.0
41.312,0.445,5.752,40.0
40.741,0.447,5.443,16.0
40.776,0.455,5.218,39.0
40.782,0.462,4.986,41.0
40.95,0.473,4.777,43.0
41.253,0.484,4.582,37.0
41.0,0.489,5.72,31.0
40.621,0.492,5.438,46.0
40.717,0.502,5.221,29.0
40.631,0.508,4.978,40.0
40.969,0.52,4.789,44.0
41.136,0.529,4.578,29.0
40.831,0.535,5.706,48.0
40.962,0.544,5.493,20.0
0.0,0.0,0.0,0.0
40.58,0.554,4.98,44.0
40.597,0.562,4.754,37.0
40.979,0.575,4.569,32.0
40.804,0.581,5.71,40.0
40.674,0.587,5.461,43.0
41.632,0.609,5.355,26.0
40.61,0.601,4.99,39.0
40.503,0.607,4.749,40.0
40.653,0.617,4.538,33.0
40.678,0.627,5.698,44.0
40.563,0.632,5.452,39.0
41.161,0.649,5.299,26.0
40.57,0.648,4.99,35.0
40.523,0.655,4.756,41.0
40.565,0.663,4.533,39.0
40.583,0.673,5.689,44.0
40.499,0.679,5.446,44.0
41.419,0.702,5.335,34.0
40.529,0.694,4.987,43.0
40.525,0.701,4.758,40.0
40.535,0.709,4.531,37.0
40.877,0.725,5.732,42.0
40.705,0.729,5.476,41.0
40.64,0.735,5.236,41.0
40.922,0.747,5.037,32.0
41.024,0.757,4.817,16.0
40.445,0.753,4.521,46.0
40.63,0.767,5.697,39.0
40.571,0.773,5.457,44.0
40.686,0.782,5.242,37.0
40.389,0.784,4.97,41.0
40.555,0.794,4.761,35.0
40.51,0.8,4.527,39.0
41.029,0.821,5.751,30.0
40.717,0.822,5.475,40.0
40.698,0.829,5.241,39.0
40.425,0.83,4.972,37.0
40.456,0.838,4.746,39.0
40.653,0.849,4.54,35.0
41.117,0.87,5.759,40.0
40.904,0.873,5.496,22.0
40.587,0.872,5.222,39.0
40.416,0.876,4.966,40.0
40.704,0.889,4.77,47.0
40.553,0.892,4.523,44.0
41.104,0.916,5.751,37.0
40.937,0.919,5.494,32.0
40.664,0.92,5.225,42.0
40.359,0.92,4.952,37.0
40.384,0.927,4.726,23.0
40.46,0.936,4.505,45.0
41.122,0.963,5.746,41.0
40.755,0.961,5.462,43.0
40.413,0.96,5.185,40.0
40.503,0.969,4.961,40.0
40.311,0.971,4.708,39.0
40.588,0.984,4.511,38.0
41.094,1.009,5.732,38.0
40.773,1.007,5.454,44.0
40.345,1.003,5.166,41.0
40.424,1.012,4.941,39.0
40.292,1.015,4.696,30.0
40.604,1.029,4.501,32.0
40.879,1.049,5.691,42.0
40.953,1.057,5.466,35.0
40.316,1.047,5.15,38.0
40.338,1.053,4.919,39.0
40.243,1.057,4.678,39.0
40.653,1.074,4.494,32.0
40.884,1.093,5.678,41.0
41.033,1.104,5.463,25.0
40.49,1.095,5.159,44.0
40.279,1.095,4.898,37.0
40.444,1.106,4.687,36.0
40.699,1.119,4.485,39.0
40.743,1.134,5.644,47.0
41.555,1.162,5.517,24.0
40.546,1.14,5.15,38.0
40.295,1.139,4.884,36.0
40.402,1.148,4.666,38.0
40.695,1.162,4.468,37.0
40.865,1.18,5.644,44.0
41.024,1.191,5.429,16.0
40.497,1.182,5.127,39.0
40.66,1.192,4.91,26.0
40.542,1.195,4.664,36.0
40.62,1.203,4.441,38.0
41.145,1.232,5.663,35.0
40.813,1.228,5.382,16.0
40.941,1.238,5.164,26.0
41.049,1.247,4.938,16.0
40.722,1.242,4.665,35.0
40.649,1.246,4.425,33.0
41.311,1.281,5.665,33.0
40.674,1.266,5.343,38.0
40.815,1.276,5.126,37.0
40.7,1.278,4.874,19.0
40.61,1.281,4.631,27.0
40.685,1.289,4.407,35.0
41.587,1.332,5.68,32.0
40.648,1.308,5.317,36.0
40.955,1.323,5.121,35.0
40.637,1.318,4.843,32.0
40.756,1.327,4.624,27.0
40.663,1.33,4.381,30.0
41.368,1.367,5.625,31.0
40.703,1.35,5.299,34.0
41.275,1.374,5.136,34.0
40.751,1.362,4.832,20.0
41.624,1.396,4.697,32.0
40.602,1.367,4.349,35.0
40.719,1.386,5.511,14.0
40.763,1.393,5.281,43.0
41.371,1.418,5.121,16.0
41.313,1.421,4.872,20.0
41.844,1.445,4.694,38.0
40.572,1.406,4.319,33.0
44.265,1.55,5.961,3.0
40.734,1.43,5.249,29.0
40.929,1.443,5.038,35.0
41.128,1.454,4.821,17.0
40.958,1.453,4.566,17.0
40.722,1.45,4.306,35.0
40.943,1.472,5.483,20.0
41.197,1.486,5.279,28.0
40.976,1.483,5.014,33.0
41.142,1.494,4.792,13.0
40.689,1.482,4.505,43.0
40.553,1.482,4.258,42.0
40.947,1.511,5.452,39.0
41.134,1.522,5.239,20.0
40.974,1.521,4.981,36.0
0.0,0.0,0.0,0.0
40.774,1.522,4.483,38.0
40.507,1.517,4.221,42.0
40.867,1.545,5.409,40.0
41.004,1.554,5.189,25.0
40.967,1.557,4.947,32.0
42.608,1.624,4.895,33.0
40.806,1.559,4.453,32.0
40.529,1.553,4.19,33.0
40.79,1.579,5.364,38.0
40.913,1.587,5.143,28.0
40.997,1.594,4.916,12.0
42.563,1.659,4.853,37.0
40.545,1.585,4.39,39.0
40.582,1.59,4.16,33.0
40.897,1.618,5.342,40.0
41.201,1.633,5.143,16.0
44.101,1.752,5.249,1.0
0.0,0.0,0.0,0.0
40.595,1.621,4.359,37.0
40.582,1.624,4.124,34.0
40.936,1.653,5.309,35.0
41.34,1.673,5.122,17.0
60.774,2.465,7.177,5.0
40.653,1.653,4.561,29.0
40.72,1.659,4.334,18.0
40.59,1.657,4.086,22.0
40.942,1.687,5.271,12.0
41.575,1.716,5.11,2.0
66.406,2.747,7.777,10.0
40.659,1.685,4.522,43.0
40.617,1.687,4.283,29.0
41.492,1.727,4.136,18.0
44.639,1.875,5.702,14.0
44.609,1.876,5.438,4.0
45.363,1.912,5.267,12.0
40.65,1.716,4.48,38.0
40.646,1.719,4.245,35.0
41.489,1.759,4.093,17.0
44.624,1.908,5.653,9.0
41.692,1.785,5.039,26.0
41.826,1.794,4.812,5.0
40.647,1.747,4.437,40.0
40.594,1.747,4.196,45.0
40.821,1.76,3.984,24.0
40.804,2.074,4.245,22.0
40.842,2.074,4.011,40.0
40.556,2.06,3.746,39.0
40.352,2.048,3.489,39.0
40.383,2.049,3.256,35.0
40.584,2.059,3.038,35.0
40.876,2.084,4.188,9.0
40.86,2.082,3.948,35.0
40.328,2.054,3.662,38.0
40.47,2.06,3.435,17.0
40.483,2.06,3.201,28.0
40.728,2.071,2.984,34.0
40.823,2.085,4.118,31.0
41.037,2.095,3.9,38.0
40.663,2.075,3.627,39.0
40.285,2.054,3.355,42.0
