X,Y,Z,Reflectivity
48.019,3.379,0.289,11.0
51.785,3.658,0.016,8.0
0.0,0.0,0.0,0.0
41.482,2.951,-0.452,3.0
47.727,3.42,0.796,16.0
47.651,3.427,0.528,47.0
52.239,3.77,0.285,11.0
46.001,3.331,-0.01,17.0
44.605,3.242,-0.26,14.0
41.161,3.002,-0.472,2.0
47.524,3.491,0.766,3.0
101.382,7.474,1.064,4.0
52.373,3.874,0.255,3.0
45.866,3.404,-0.038,20.0
44.406,3.307,-0.286,4.0
40.59,3.033,-0.489,2.0
100.459,7.559,1.558,8.0
100.234,7.567,0.991,11.0
77.901,5.9,0.331,4.0
45.518,3.458,-0.066,19.0
41.071,3.131,-0.29,15.0
40.305,3.082,-0.512,2.0
99.425,7.655,1.478,8.0
99.268,7.667,0.917,9.0
97.075,7.521,0.351,7.0
45.283,3.519,-0.095,19.0
40.815,3.182,-0.315,15.0
38.704,3.027,-0.517,0.0
45.985,3.619,0.653,2.0
45.913,3.624,0.393,36.0
45.811,3.627,0.134,24.0
45.121,3.583,-0.126,22.0
40.579,3.232,-0.342,14.0
35.923,2.87,-0.505,0.0
45.826,3.684,0.618,45.0
45.801,3.692,0.36,37.0
45.729,3.697,0.102,27.0
44.968,3.645,-0.157,24.0
40.401,3.285,-0.369,12.0
35.145,2.866,-0.519,0.0
45.78,3.755,0.585,42.0
45.755,3.763,0.327,37.0
45.617,3.762,0.068,26.0
44.666,3.694,-0.189,22.0
40.122,3.328,-0.396,6.0
34.466,2.866,-0.535,1.0
45.775,3.829,0.55,38.0
45.734,3.836,0.292,28.0
45.568,3.832,0.033,20.0
44.008,3.71,-0.22,19.0
39.978,3.38,-0.426,12.0
33.676,2.855,-0.549,1.0
45.784,3.902,0.515,29.0
45.759,3.91,0.256,17.0
45.451,3.894,-0.002,20.0
0.0,0.0,0.0,0.0
39.865,3.432,-0.456,8.0
32.797,2.831,-0.561,1.0
45.898,3.984,0.479,13.0
45.844,3.99,0.219,17.0
45.407,3.961,-0.039,19.0
41.027,3.587,-0.271,16.0
39.728,3.482,-0.488,7.0
31.966,2.809,-0.573,0.0
93.119,8.226,0.894,13.0
93.007,8.235,0.366,6.0
45.309,4.02,-0.077,19.0
40.59,3.61,-0.303,16.0
39.637,3.534,-0.52,2.0
31.333,2.8,-0.589,0.0
92.296,8.292,0.806,11.0
45.723,4.116,0.14,30.0
45.153,4.074,-0.116,19.0
40.265,3.641,-0.336,16.0
36.065,3.269,-0.506,1.0
30.383,2.761,-0.598,0.0
91.561,8.36,0.718,12.0
91.378,8.361,0.198,6.0
44.58,4.088,-0.155,20.0
39.809,3.658,-0.368,14.0
35.602,3.279,-0.531,2.0
29.281,2.703,-0.603,0.0
90.871,8.428,0.629,10.0
73.505,6.831,0.092,3.0
43.678,4.067,-0.192,18.0
39.502,3.686,-0.402,9.0
35.114,3.284,-0.557,1.0
28.91,2.709,-0.623,0.0
90.19,8.49,0.539,11.0
45.73,4.313,0.013,1.0
42.87,4.052,-0.23,18.0
39.413,3.732,-0.439,10.0
34.568,3.28,-0.581,0.0
27.76,2.639,-0.624,0.0
89.525,8.55,0.449,12.0
45.606,4.363,-0.03,5.0
0.0,0.0,0.0,0.0
39.349,3.779,-0.477,10.0
31.637,3.044,-0.563,1.0
27.128,2.615,-0.637,0.0
88.844,8.603,0.357,13.0
45.595,4.423,-0.075,15.0
40.246,3.91,-0.295,16.0
39.274,3.823,-0.515,7.0
31.141,3.037,-0.585,1.0
26.574,2.597,-0.651,0.0
88.278,8.661,0.266,10.0
45.456,4.467,-0.121,19.0
39.836,3.922,-0.332,20.0
39.218,3.867,-0.554,1.0
30.405,3.004,-0.603,0.0
25.875,2.561,-0.66,0.0
0.0,0.0,0.0,0.0
0.0,0.0,0.0,0.0
39.494,3.937,-0.37,14.0
34.082,3.402,-0.517,0.0
29.128,2.913,-0.608,0.0
25.198,2.524,-0.669,0.0
87.051,8.754,0.083,4.0
43.157,4.347,-0.204,18.0
39.194,3.954,-0.409,8.0
33.584,3.393,-0.545,1.0
28.214,2.855,-0.619,0.0
24.702,2.504,-0.682,0.0
86.451,8.795,-0.01,3.0
40.835,4.16,-0.237,16.0
39.099,3.99,-0.45,8.0
33.228,3.395,-0.575,1.0
27.401,2.804,-0.63,0.0
23.892,2.449,-0.686,0.0
52.141,5.363,-0.063,2.0
40.299,4.15,-0.278,16.0
39.063,4.029,-0.492,9.0
30.997,3.202,-0.57,0.0
26.831,2.776,-0.646,0.0
23.242,2.408,-0.693,0.0
45.585,4.738,-0.105,3.0
39.73,4.135,-0.318,28.0
39.01,4.066,-0.534,5.0
30.284,3.161,-0.591,1.0
25.979,2.715,-0.655,0.0
22.808,2.387,-0.705,0.0
45.554,4.782,-0.155,5.0
39.42,4.144,-0.359,15.0
35.556,3.743,-0.527,2.0
29.296,3.088,-0.605,0.0
25.277,2.668,-0.666,0.0
22.317,2.359,-0.716,0.0
43.043,4.562,-0.195,18.0
39.088,4.148,-0.401,11.0
32.868,3.492,-0.525,0.0
28.299,3.01,-0.616,0.0
24.732,2.634,-0.68,0.0
21.632,2.307,-0.718,0.0
41.459,4.434,-0.235,18.0
38.926,4.167,-0.443,8.0
32.245,3.456,-0.551,1.0
27.375,2.938,-0.627,0.0
23.92,2.57,-0.685,0.0
21.068,2.267,-0.723,0.0
40.269,4.343,-0.275,22.0
38.891,4.199,-0.488,9.0
31.629,3.419,-0.577,1.0
26.684,2.888,-0.642,0.0
23.296,2.524,-0.694,0.0
20.524,2.226,-0.729,0.0
39.606,4.306,-0.316,31.0
38.865,4.23,-0.533,6.0
30.201,3.29,-0.587,1.0
25.985,2.834,-0.656,0.0
22.774,2.487,-0.705,0.0
20.089,2.196,-0.737,0.0
39.326,4.308,-0.361,15.0
38.828,4.258,-0.578,1.0
29.122,3.196,-0.6,1.0
25.172,2.766,-0.665,0.0
22.159,2.437,-0.712,0.0
19.743,2.174,-0.748,0.0
38.96,4.299,-0.403,11.0
33.211,3.668,-0.534,0.0
28.38,3.137,-0.619,0.0
24.533,2.714,-0.677,0.0
21.661,2.399,-0.722,0.0
19.252,2.135,-0.752,0.0
38.8,4.31,-0.448,9.0
31.783,3.533,-0.549,1.0
27.268,3.034,-0.627,0.0
23.761,2.646,-0.685,0.0
21.1,2.352,-0.729,0.0
18.77,2.095,-0.756,0.0
38.761,4.332,-0.494,17.0
31.069,3.475,-0.574,1.0
26.575,2.975,-0.643,0.0
23.135,2.592,-0.695,0.0
20.39,2.287,-0.729,0.0
18.305,2.055,-0.759,0.0
38.714,4.352,-0.54,5.0
29.905,3.364,-0.588,1.0
25.889,2.915,-0.657,0.0
22.626,2.549,-0.707,0.0
20.084,2.265,-0.743,0.0
18.001,2.032,-0.769,0.0
38.722,4.377,-0.588,0.0
28.953,3.275,-0.605,0.0
25.01,2.831,-0.666,0.0
21.846,2.475,-0.709,0.0
19.54,2.215,-0.746,0.0
17.631,2.001,-0.775,0.0
32.724,3.717,-0.537,0.0
27.899,3.171,-0.617,0.0
24.391,2.774,-0.679,0.0
21.323,2.427,-0.718,0.0
19.113,2.177,-0.753,0.0
17.266,1.968,-0.78,0.0
31.307,3.572,-0.551,0.0
27.008,3.084,-0.63,0.0
23.539,2.689,-0.684,0.0
20.75,2.372,-0.724,0.0
18.676,2.137,-0.759,0.0
16.936,1.939,-0.786,0.0
30.558,3.501,-0.576,1.0
26.261,3.01,-0.645,0.0
22.964,2.634,-0.696,0.0
20.255,2.325,-0.732,0.0
18.22,2.093,-0.763,0.0
16.561,1.904,-0.789,0.0
29.348,3.375,-0.589,0.0
25.503,2.934,-0.658,0.0
22.433,2.583,-0.708,0.0
19.703,2.27,-0.737,0.0
17.887,2.062,-0.771,0.0
16.3,1.88,-0.797,0.0
28.384,3.275,-0.605,0.0
24.77,2.859,-0.67,0.0
21.688,2.505,-0.711,0.0
19.404,2.242,-0.749,0.0
17.534,2.027,-0.778,0.0
15.998,1.851,-0.802,0.0
27.428,3.174,-0.618,1.0
23.894,2.766,-0.675,0.0
21.17,2.452,-0.72,0.0
18.805,2.179,-0.749,0.0
17.093,1.982,-0.779,0.0
15.673,1.818,-0.805,0.0
26.585,3.084,-0.632,1.0
23.23,2.696,-0.685,0.0
20.516,2.382,-0.723,0.0
18.442,2.142,-0.758,0.0
16.777,1.95,-0.786,0.0
15.428,1.794,-0.811,0.0
25.953,3.017,-0.649,0.0
22.763,2.647,-0.699,0.0
20.097,2.338,-0.733,0.0
18.085,2.104,-0.765,0.0
16.454,1.916,-0.791,0.0
15.193,1.77,-0.818,0.0
25.176,2.932,-0.66,0.0
22.001,2.562,-0.703,0.0
19.655,2.29,-0.741,0.0
17.676,2.06,-0.769,0.0
16.145,1.882,-0.795,0.0
14.874,1.735,-0.818,0.0
24.445,2.85,-0.67,0.0
21.437,2.5,-0.711,0.0
19.195,2.239,-0.747,0.0
17.309,2.02,-0.774,0.0
15.871,1.853,-0.801,0.0
14.537,1.697,-0.818,0.0
23.822,2.78,-0.682,0.0
20.976,2.448,-0.721,0.0
18.799,2.195,-0.754,0.0
16.941,1.978,-0.779,0.0
15.577,1.819,-0.805,0.0
14.37,1.679,-0.826,0.0
23.08,2.695,-0.689,0.0
20.433,2.386,-0.727,0.0
18.344,2.142,-0.758,0.0
16.717,1.953,-0.788,0.0
15.332,1.791,-0.811,0.0
14.121,1.65,-0.828,0.0
22.55,2.633,-0.699,0.0
19.977,2.333,-0.734,0.0
17.979,2.1,-0.764,0.0
16.374,1.913,-0.792,0.0
15.072,1.761,-0.815,0.0
13.935,1.628,-0.834,0.0
21.832,2.548,-0.703,0.0
19.525,2.279,-0.741,0.0
17.673,2.063,-0.772,0.0
16.024,1.871,-0.793,0.0
14.864,1.736,-0.822,0.0
13.748,1.606,-0.839,0.0
21.371,2.493,-0.713,0.0
19.105,2.229,-0.747,0.0
17.232,2.01,-0.773,0.0
15.77,1.84,-0.799,0.0
14.516,1.694,-0.819,0.0
13.551,1.581,-0.843,0.0
20.923,2.438,-0.723,0.0
18.707,2.18,-0.753,0.0
16.94,1.974,-0.779,0.0
15.498,1.806,-0.804,0.0
14.293,1.666,-0.823,0.0
13.414,1.563,-0.85,0.0
20.354,2.368,-0.727,0.0
18.349,2.135,-0.76,0.0
16.729,1.946,-0.789,0.0
15.271,1.777,-0.81,0.0
14.07,1.637,-0.827,0.0
13.137,1.529,-0.848,0.0
19.876,2.308,-0.732,0.0
17.971,2.087,-0.765,0.0
16.324,1.895,-0.789,0.0
15.007,1.742,-0.813,0.0
13.915,1.616,-0.833,0.0
12.957,1.504,-0.851,0.0
19.496,2.259,-0.74,0.0
17.66,2.046,-0.771,0.0
16.063,1.861,-0.794,0.0
14.806,1.715,-0.818,0.0
13.756,1.593,-0.839,0.0
12.698,1.471,-0.848,0.0
19.032,2.2,-0.743,0.0
17.283,1.997,-0.774,0.0
15.831,1.829,-0.8,0.0
14.542,1.68,-0.819,0.0
13.575,1.568,-0.843,0.0
12.557,1.45,-0.852,0.0
18.661,2.15,-0.749,0.0
16.928,1.95,-0.776,0.0
15.557,1.792,-0.803,0.0
14.308,1.648,-0.822,0.0
13.43,1.546,-0.849,0.0
12.53,1.443,-0.864,0.0
18.28,2.099,-0.753,0.0
16.758,1.924,-0.787,0.0
15.322,1.759,-0.807,0.0
14.169,1.626,-0.829,0.0
13.143,1.508,-0.844,0.0
12.311,1.412,-0.862,0.0
17.972,2.056,-0.76,0.0
16.423,1.878,-0.788,0.0
15.094,1.726,-0.811,0.0
13.939,1.593,-0.83,0.0
12.99,1.485,-0.848,0.0
12.073,1.379,-0.858,0.0
17.702,2.017,-0.766,0.0
16.173,1.842,-0.793,0.0
14.878,1.694,-0.814,0.0
13.786,1.569,-0.835,0.0
12.854,1.463,-0.853,0.0
11.808,1.343,-0.851,0.0
17.42,1.976,-0.772,0.0
15.887,1.801,-0.795,0.0
14.702,1.666,-0.82,0.0
13.629,1.544,-0.84,0.0
12.661,1.434,-0.853,0.0
11.712,1.326,-0.856,0.0
17.127,1.933,-0.776,0.0
15.669,1.768,-0.8,0.0
14.491,1.634,-0.822,0.0
13.511,1.523,-0.846,0.0
12.463,1.404,-0.852,0.0
11.602,1.307,-0.859,0.0
16.845,1.891,-0.78,0.0
15.403,1.728,-0.801,0.0
14.296,1.603,-0.825,0.0
13.237,1.484,-0.841,0.0
12.372,1.386,-0.857,0.0
11.477,1.285,-0.861,0.0
16.688,1.863,-0.788,0.0
15.206,1.696,-0.805,0.0
14.101,1.572,-0.827,0.0
13.115,1.462,-0.846,0.0
12.263,1.366,-0.861,0.0
11.379,1.267,-0.864,0.0
16.402,1.82,-0.79,0.0
15.052,1.669,-0.811,0.0
13.989,1.55,-0.833,0.0
13.005,1.44,-0.851,0.0
12.159,1.346,-0.865,0.0
11.268,1.247,-0.866,0.0
16.086,1.773,-0.789,0.0
14.879,1.639,-0.815,0.0
13.797,1.519,-0.834,0.0
12.897,1.419,-0.855,0.0
11.934,1.312,-0.86,0.0
11.118,1.222,-0.865,0.0
15.916,1.742,-0.794,0.0
14.639,1.601,-0.814,0.0
13.688,1.496,-0.84,0.0
12.701,1.387,-0.853,0.0
11.78,1.286,-0.859,0.0
10.99,1.199,-0.864,0.0
15.792,1.716,-0.802,0.0
14.58,1.583,-0.823,0.0
13.535,1.469,-0.841,0.0
12.56,1.362,-0.854,0.0
11.618,1.259,-0.856,0.0
10.946,1.185,-0.87,0.0
15.502,1.672,-0.799,0.0
14.351,1.547,-0.822,0.0
13.349,1.437,-0.84,0.0
12.351,1.329,-0.849,0.0
11.522,1.239,-0.858,0.0
10.836,1.164,-0.869,0.0
15.385,1.646,-0.805,0.0
14.253,1.524,-0.827,0.0
13.27,1.417,-0.846,0.0
12.337,1.317,-0.858,0.0
11.425,1.218,-0.86,0.0
10.764,1.147,-0.872,0.0
15.147,1.607,-0.804,0.0
14.084,1.493,-0.828,0.0
13.143,1.392,-0.848,0.0
12.181,1.289,-0.856,0.0
11.334,1.198,-0.862,0.0
10.724,1.133,-0.877,0.0
15.036,1.581,-0.809,0.0
13.981,1.469,-0.832,0.0
13.002,1.364,-0.848,0.0
0.0,0.0,0.0,0.0
11.232,1.177,-0.862,0.0
10.592,1.108,-0.873,0.0
14.886,1.551,-0.812,0.0
13.832,1.439,-0.833,0.0
12.911,1.342,-0.851,0.0
11.875,1.233,-0.851,0.0
11.159,1.158,-0.864,0.0
10.555,1.094,-0.877,0.0
14.802,1.527,-0.817,0.0
13.712,1.413,-0.835,0.0
12.844,1.322,-0.855,0.0
11.772,1.21,-0.852,0.0
11.109,1.141,-0.867,0.0
10.462,1.074,-0.876,0.0
14.663,1.498,-0.818,0.0
13.574,1.385,-0.835,0.0
12.606,1.284,-0.847,0.0
11.77,1.198,-0.859,0.0
11.01,1.119,-0.866,0.0
10.406,1.057,-0.878,0.0
14.499,1.465,-0.818,0.0
13.506,1.363,-0.838,0.0
12.505,1.261,-0.847,0.0
11.723,1.18,-0.862,0.0
10.878,1.094,-0.862,0.0
10.363,1.041,-0.88,0.0
14.396,1.439,-0.82,0.0
13.418,1.34,-0.841,0.0
12.494,1.246,-0.854,0.0
11.6,1.155,-0.86,0.0
10.846,1.079,-0.866,0.0
10.33,1.026,-0.883,0.0
14.284,1.412,-0.821,0.0
13.246,1.307,-0.837,0.0
12.332,1.216,-0.849,0.0
11.532,1.135,-0.86,0.0
10.823,1.064,-0.869,0.0
10.279,1.009,-0.884,0.0
14.214,1.388,-0.824,0.0
13.296,1.297,-0.846,0.0
12.288,1.197,-0.852,0.0
11.375,1.106,-0.854,0.0
10.795,1.049,-0.872,0.0
10.207,0.99,-0.883,0.0
14.083,1.359,-0.823,0.0
13.122,1.264,-0.841,0.0
12.251,1.179,-0.855,0.0
11.341,1.089,-0.857,0.0
10.701,1.027,-0.869,0.0
10.198,0.977,-0.886,0.0
14.08,1.342,-0.829,0.0
13.084,1.245,-0.844,0.0
12.129,1.152,-0.851,0.0
11.321,1.074,-0.86,0.0
10.689,1.012,-0.872,0.0
10.132,0.958,-0.884,0.0
14.055,1.322,-0.833,0.0
13.073,1.227,-0.848,0.0
12.103,1.134,-0.854,0.0
11.31,1.058,-0.863,0.0
10.667,0.997,-0.874,0.0
10.106,0.943,-0.886,0.0
13.892,1.289,-0.828,0.0
13.026,1.206,-0.85,0.0
11.971,1.107,-0.849,0.0
11.241,1.038,-0.861,0.0
10.626,0.979,-0.875,0.0
10.096,0.929,-0.888,0.0
13.822,1.264,-0.828,0.0
12.922,1.18,-0.847,0.0
11.995,1.093,-0.854,0.0
11.167,1.016,-0.859,0.0
10.583,0.961,-0.874,0.0
10.086,0.915,-0.89,0.0
13.82,1.246,-0.832,0.0
13.068,1.176,-0.86,0.0
11.925,1.071,-0.852,0.0
11.163,1.001,-0.862,0.0
10.562,0.945,-0.875,0.0
10.027,0.896,-0.887,0.0
13.76,1.222,-0.831,0.0
12.895,1.143,-0.851,0.0
11.891,1.052,-0.852,0.0
11.096,0.98,-0.859,0.0
10.523,0.928,-0.874,0.0
10.016,0.881,-0.888,0.0
13.782,1.205,-0.835,0.0
12.816,1.118,-0.849,0.0
11.889,1.035,-0.854,0.0
11.091,0.964,-0.86,0.0
10.52,0.913,-0.875,0.0
10.029,0.868,-0.891,0.0
13.715,1.18,-0.833,0.0
12.749,1.095,-0.846,0.0
11.838,1.015,-0.852,0.0
11.074,0.947,-0.86,0.0
10.546,0.9,-0.879,0.0
10.03,0.854,-0.892,0.0
13.712,1.161,-0.834,0.0
12.732,1.076,-0.846,0.0
11.808,0.995,-0.851,0.0
11.047,0.929,-0.859,0.0
10.494,0.881,-0.875,0.0
10.024,0.839,-0.893,0.0
13.746,1.144,-0.838,0.0
12.798,1.063,-0.852,0.0
11.816,0.979,-0.852,0.0
11.095,0.917,-0.864,0.0
10.504,0.867,-0.877,0.0
10.025,0.825,-0.893,0.0
13.711,1.122,-0.836,0.0
12.77,1.042,-0.85,0.0
11.855,0.965,-0.855,0.0
11.067,0.899,-0.862,0.0
10.489,0.85,-0.875,0.0
9.991,0.808,-0.89,0.0
13.673,1.099,-0.833,0.0
12.79,1.025,-0.851,0.0
11.829,0.946,-0.853,0.0
11.051,0.881,-0.86,0.0
10.51,0.836,-0.877,0.0
10.002,0.794,-0.891,0.0
13.68,1.079,-0.833,0.0
12.78,1.006,-0.849,0.0
11.826,0.928,-0.852,0.0
11.071,0.867,-0.861,0.0
10.519,0.821,-0.877,0.0
10.01,0.78,-0.89,0.0
13.733,1.063,-0.835,0.0
12.736,0.983,-0.845,0.0
11.85,0.912,-0.853,0.0
11.111,0.853,-0.863,0.0
10.518,0.806,-0.875,0.0
10.038,0.767,-0.891,0.0
13.706,1.041,-0.831,0.0
12.799,0.969,-0.848,0.0
11.861,0.895,-0.852,0.0
11.076,0.834,-0.858,0.0
10.518,0.79,-0.874,0.0
10.001,0.749,-0.887,0.0
13.763,1.024,-0.832,0.0
12.876,0.955,-0.85,0.0
11.885,0.879,-0.851,0.0
11.16,0.823,-0.862,0.0
10.557,0.777,-0.875,0.0
10.084,0.74,-0.892,0.0
13.768,1.004,-0.83,0.0
12.945,0.941,-0.852,0.0
11.899,0.862,-0.849,0.0
11.154,0.806,-0.859,0.0
10.577,0.762,-0.874,0.0
10.106,0.726,-0.891,0.0
13.837,0.988,-0.83,0.0
12.911,0.919,-0.846,0.0
11.953,0.848,-0.85,0.0
11.224,0.794,-0.861,0.0
10.633,0.75,-0.875,0.0
10.122,0.712,-0.889,0.0
13.911,0.972,-0.831,0.0
12.988,0.904,-0.847,0.0
12.028,0.835,-0.851,0.0
11.264,0.779,-0.861,0.0
10.669,0.736,-0.875,0.0
10.174,0.699,-0.891,0.0
13.977,0.955,-0.83,0.0
13.047,0.888,-0.847,0.0
12.116,0.822,-0.853,0.0
11.271,0.762,-0.857,0.0
10.694,0.721,-0.872,0.0
10.169,0.683,-0.886,0.0
14.071,0.939,-0.83,0.0
13.161,0.875,-0.849,0.0
12.142,0.805,-0.85,0.0
11.362,0.75,-0.859,0.0
10.739,0.707,-0.872,0.0
10.185,0.668,-0.883,0.0
14.113,0.92,-0.826,0.0
13.177,0.856,-0.844,0.0
12.235,0.792,-0.851,0.0
11.424,0.737,-0.859,0.0
10.786,0.693,-0.87,0.0
10.264,0.657,-0.885,0.0
14.233,0.905,-0.827,0.0
13.327,0.845,-0.847,0.0
12.283,0.776,-0.848,0.0
11.503,0.724,-0.859,0.0
10.793,0.677,-0.866,0.0
10.309,0.644,-0.884,0.0
14.295,0.887,-0.823,0.0
13.334,0.824,-0.841,0.0
12.324,0.759,-0.845,0.0
11.559,0.709,-0.857,0.0
10.894,0.666,-0.868,0.0
10.35,0.63,-0.882,0.0
14.379,0.87,-0.82,0.0
13.452,0.811,-0.841,0.0
12.4,0.744,-0.843,0.0
11.642,0.696,-0.856,0.0
10.978,0.654,-0.868,0.0
10.389,0.616,-0.879,0.0
14.573,0.858,-0.822,0.0
13.564,0.796,-0.839,0.0
12.56,0.734,-0.846,0.0
11.698,0.681,-0.853,0.0
11.059,0.641,-0.867,0.0
10.467,0.604,-0.878,0.0
14.667,0.841,-0.818,0.0
13.591,0.776,-0.832,0.0
12.777,0.726,-0.852,0.0
11.794,0.668,-0.852,0.0
11.055,0.624,-0.86,0.0
10.58,0.594,-0.881,0.0
14.77,0.824,-0.813,0.0
13.76,0.764,-0.833,0.0
12.98,0.718,-0.857,0.0
11.883,0.654,-0.85,0.0
11.113,0.609,-0.856,0.0
10.59,0.578,-0.874,0.0
14.995,0.812,-0.815,0.0
13.851,0.747,-0.828,0.0
13.031,0.7,-0.85,0.0
12.0,0.641,-0.85,0.0
11.247,0.598,-0.858,0.0
10.659,0.565,-0.871,0.0
15.103,0.794,-0.809,0.0
14.079,0.737,-0.831,0.0
13.112,0.683,-0.845,0.0
12.151,0.63,-0.851,0.0
11.394,0.588,-0.86,0.0
10.758,0.553,-0.871,0.0
15.287,0.78,-0.807,0.0
14.284,0.725,-0.831,0.0
13.311,0.673,-0.847,0.0
12.296,0.618,-0.85,0.0
11.553,0.578,-0.862,0.0
10.902,0.543,-0.873,0.0
44.758,2.635,5.667,12.0
41.457,2.446,5.011,36.0
41.754,2.469,4.809,42.0
41.266,2.446,4.513,4.0
40.89,2.429,4.24,38.0
44.748,2.665,4.386,28.0
44.811,2.688,5.658,20.0
41.466,2.492,4.999,47.0
41.684,2.511,4.786,37.0
46.646,2.816,5.085,5.0
40.887,2.474,4.225,23.0
44.895,2.723,4.384,35.0
44.85,2.739,5.646,23.0
41.613,2.547,5.0,33.0
41.598,2.551,4.76,43.0
46.635,2.866,5.066,10.0
52.313,3.222,5.384,19.0
45.238,2.792,4.399,24.0
44.881,2.79,5.631,21.0
41.843,2.606,5.01,40.0
41.637,2.597,4.747,40.0
52.254,3.267,5.653,10.0
52.297,3.276,5.36,29.0
45.528,2.858,4.407,19.0
41.85,2.645,5.232,23.0
41.713,2.641,4.975,37.0
52.172,3.309,5.923,6.0
52.255,3.321,5.629,13.0
52.285,3.329,5.333,30.0
52.335,3.339,5.04,7.0
41.873,2.69,5.213,25.0
41.601,2.677,4.94,37.0
41.7,2.688,4.713,34.0
52.303,3.377,5.606,12.0
52.434,3.392,5.321,7.0
45.601,2.955,4.367,8.0
41.733,2.723,5.173,35.0
41.521,2.713,4.908,35.0
41.73,2.731,4.693,41.0
46.6,3.055,4.969,14.0
53.178,3.493,5.366,6.0
45.564,2.998,4.338,6.0
41.599,2.755,5.132,37.0
41.504,2.752,4.882,42.0
41.734,2.772,4.668,38.0
46.56,3.098,4.937,8.0
41.982,2.797,4.211,26.0
41.961,2.801,3.969,18.0
41.531,2.79,5.098,23.0
41.539,2.794,4.86,46.0
41.703,2.809,4.639,24.0
46.498,3.137,4.901,12.0
41.938,2.834,4.18,43.0
41.949,2.839,3.941,38.0
41.471,2.824,5.063,42.0
41.533,2.832,4.831,41.0
41.943,2.864,4.637,16.0
46.481,3.179,4.867,11.0
41.959,2.873,4.153,25.0
42.068,2.885,3.923,25.0
41.492,2.864,5.036,40.0
41.616,2.876,4.811,29.0
41.941,2.901,4.607,32.0
46.455,3.218,4.831,8.0
41.895,2.906,4.116,38.0
42.174,2.929,3.903,18.0
41.52,2.902,5.009,36.0
41.684,2.917,4.788,38.0
41.997,2.942,4.582,23.0
52.986,3.716,5.471,6.0
41.718,2.929,4.068,31.0
41.35,2.907,3.795,29.0
41.597,2.942,4.986,38.0
41.654,2.949,4.752,39.0
41.9,2.97,4.538,16.0
46.623,3.309,4.777,6.0
41.885,2.976,4.051,17.0
41.301,2.938,3.758,36.0
46.077,3.298,5.485,3.0
41.636,2.982,4.716,43.0
46.09,3.304,4.954,3.0
46.764,3.356,4.753,4.0
41.672,2.994,3.996,16.0
41.329,2.973,3.726,43.0
46.112,3.336,5.45,4.0
41.663,3.017,4.683,42.0
46.042,3.337,4.909,14.0
41.256,2.993,4.157,46.0
41.511,3.015,3.944,35.0
41.31,3.003,3.688,31.0
41.953,3.067,4.921,27.0
41.612,3.045,4.64,43.0
46.024,3.37,4.866,16.0
41.228,3.022,4.117,21.0
41.249,3.026,3.882,42.0
41.374,3.038,3.656,36.0
103.524,-8.836,3.035,9.0
119.227,-10.207,2.858,29.0
119.256,-10.242,2.222,88.0
119.155,-10.264,1.573,17.0
89.503,-7.734,0.704,4.0
67.642,-5.864,0.171,9.0
103.709,-8.997,3.149,7.0
72.443,-6.303,1.812,8.0
135.69,-11.84,2.67,80.0
135.722,-11.877,1.933,89.0
111.723,-9.807,0.996,1.0
80.282,-7.068,0.288,6.0
103.873,-9.152,3.264,9.0
75.423,-6.664,1.967,22.0
72.727,-6.443,1.509,7.0
135.662,-12.054,2.078,67.0
111.238,-9.912,1.112,6.0
80.775,-7.218,0.376,3.0
104.34,-9.332,3.392,9.0
74.126,-6.647,2.014,8.0
135.634,-12.194,2.962,150.0
135.624,-12.227,2.226,150.0
114.644,-10.364,1.271,6.0
84.981,-7.703,0.489,13.0
72.149,-6.545,2.424,11.0
104.034,-9.462,2.942,8.0
119.246,-10.874,2.737,19.0
126.38,-11.554,2.215,32.0
119.108,-10.917,1.453,8.0
85.693,-7.874,0.589,12.0
78.307,-7.202,2.719,28.0
103.855,-9.575,3.054,9.0
119.246,-11.021,2.871,43.0
135.544,-12.557,2.528,83.0
119.118,-11.063,1.588,17.0
87.292,-8.128,0.699,7.0
78.471,-7.312,2.814,32.0
103.953,-9.709,3.175,13.0
119.259,-11.164,3.007,19.0
119.265,-11.191,2.361,27.0
119.204,-11.212,1.727,19.0
111.063,-10.472,1.018,9.0
78.686,-7.424,2.914,20.0
78.464,-7.419,2.487,11.0
119.259,-11.302,3.145,8.0
119.205,-11.321,2.498,20.0
119.187,-11.345,1.863,12.0
111.153,-10.605,1.147,15.0
74.5,-7.113,2.846,10.0
78.405,-7.502,2.578,21.0
104.477,-10.018,2.88,11.0
119.216,-11.455,2.64,28.0
119.244,-11.482,2.006,100.0
111.908,-10.8,1.288,10.0
78.582,-7.59,3.095,11.0
78.728,-7.618,2.682,35.0
103.807,-10.066,2.985,8.0
135.488,-13.164,3.162,48.0
135.529,-13.196,2.443,85.0
119.104,-11.62,1.515,6.0
78.177,-7.633,3.174,22.0
72.696,-7.111,2.564,15.0
78.917,-7.734,2.365,15.0
78.525,-7.71,1.928,15.0
119.229,-11.73,2.293,49.0
135.495,-13.355,1.887,33.0
71.417,-7.045,2.986,13.0
72.551,-7.17,2.647,11.0
78.53,-7.774,2.448,30.0
78.476,-7.782,2.021,19.0
78.692,-7.818,1.609,23.0
135.467,-13.484,2.053,119.0
78.017,-7.772,3.357,8.0
72.323,-7.217,2.728,34.0
78.568,-7.852,2.546,22.0
78.44,-7.853,2.117,28.0
78.619,-7.885,1.705,10.0
135.415,-13.605,2.218,150.0
71.363,-7.175,3.16,33.0
72.603,-7.311,2.829,21.0
74.332,-7.497,2.502,18.0
78.46,-7.927,2.217,32.0
74.872,-7.576,1.718,20.0
135.394,-13.723,2.389,150.0
72.079,-7.312,3.282,28.0
74.624,-7.58,3.002,6.0
74.549,-7.584,2.603,16.0
78.494,-7.997,2.316,23.0
74.9,-7.643,1.813,10.0
135.373,-13.836,2.559,60.0
71.934,-7.359,3.368,27.0
74.786,-7.66,3.103,33.0
72.73,-7.46,2.632,17.0
73.937,-7.594,2.276,24.0
74.843,-7.697,1.906,10.0
104.528,-10.767,2.109,12.0
72.081,-7.431,3.466,37.0
74.751,-7.716,3.197,18.0
78.353,-8.098,2.935,13.0
74.053,-7.663,2.374,14.0
78.666,-8.151,2.104,21.0
104.467,-10.84,2.24,8.0
0.0,0.0,0.0,0.0
77.891,-8.098,3.432,16.0
74.842,-7.79,2.9,31.0
78.151,-8.144,2.605,19.0
78.392,-8.179,2.196,20.0
104.634,-10.93,2.377,17.0
69.606,-7.278,3.526,17.0
71.816,-7.517,3.255,42.0
74.739,-7.83,2.99,21.0
87.989,-9.229,3.045,10.0
73.777,-7.747,2.162,9.0
78.867,-8.291,1.893,29.0
69.707,-7.335,3.62,18.0
71.449,-7.525,3.331,42.0
72.228,-7.615,2.983,14.0
72.306,-7.63,2.595,23.0
78.106,-8.25,2.389,15.0
33.16,-3.506,0.838,12.0
69.814,-7.39,3.716,16.0
71.533,-7.578,3.427,7.0
72.583,-7.696,3.091,18.0
72.405,-7.684,2.692,10.0
33.16,-3.522,1.057,5.0
33.169,-3.526,0.881,66.0
70.004,-7.451,3.817,34.0
72.57,-7.73,3.571,14.0
72.108,-7.685,3.164,29.0
33.174,-3.538,1.276,3.0
33.158,-3.54,1.099,47.0
33.157,-3.543,0.923,67.0
70.235,-7.512,3.921,21.0
69.891,-7.48,3.529,13.0
74.845,-8.016,3.382,9.0
33.166,-3.555,1.319,39.0
33.181,-3.558,1.143,70.0
33.144,-3.557,0.966,68.0
70.105,-7.533,4.005,9.0
70.0,-7.526,3.627,24.0
33.196,-3.571,1.543,12.0
33.192,-3.572,1.363,70.0
33.161,-3.571,1.185,71.0
33.15,-3.572,1.009,74.0
70.049,-7.558,4.093,26.0
33.233,-3.587,1.765,3.0
33.193,-3.585,1.586,52.0
33.184,-3.586,1.406,72.0
33.164,-3.585,1.229,74.0
33.143,-3.585,1.052,83.0
69.846,-7.564,4.172,13.0
33.209,-3.597,1.807,21.0
33.192,-3.597,1.629,68.0
33.181,-3.597,1.448,70.0
33.152,-3.596,1.271,81.0
33.152,-3.597,1.095,82.0
33.218,-3.609,2.027,3.0
33.206,-3.609,1.849,53.0
33.189,-3.608,1.672,68.0
33.177,-3.607,1.491,74.0
33.159,-3.607,1.314,85.0
33.161,-3.608,1.138,78.0
33.223,-3.62,2.071,16.0
33.207,-3.618,1.892,65.0
33.188,-3.617,1.714,68.0
33.175,-3.617,1.534,76.0
33.164,-3.616,1.357,84.0
33.162,-3.617,1.18,76.0
33.224,-3.628,2.113,35.0
33.211,-3.627,1.935,68.0
33.194,-3.626,1.758,71.0
33.177,-3.624,1.576,79.0
33.166,-3.624,1.399,77.0
33.155,-3.623,1.222,79.0
33.225,-3.636,2.156,45.0
33.223,-3.635,1.978,72.0
33.188,-3.632,1.799,72.0
33.17,-3.63,1.618,80.0
33.169,-3.63,1.441,77.0
33.156,-3.629,1.264,79.0
33.218,-3.641,2.198,47.0
33.212,-3.639,2.02,71.0
33.187,-3.636,1.842,71.0
33.17,-3.634,1.66,82.0
33.171,-3.634,1.483,77.0
33.165,-3.634,1.306,77.0
33.224,-3.645,2.24,54.0
33.224,-3.644,2.063,69.0
33.195,-3.641,1.883,72.0
33.185,-3.639,1.702,80.0
33.172,-3.637,1.525,77.0
33.166,-3.636,1.348,76.0
33.225,-3.648,2.282,52.0
33.226,-3.647,2.104,67.0
33.206,-3.644,1.925,73.0
33.191,-3.641,1.744,78.0
33.169,-3.638,1.565,78.0
33.163,-3.637,1.389,74.0
33.228,-3.649,2.323,42.0
33.214,-3.646,2.145,57.0
33.206,-3.644,1.966,71.0
33.198,-3.642,1.785,77.0
33.169,-3.638,1.607,81.0
33.165,-3.637,1.429,75.0
33.226,-3.649,2.365,22.0
33.223,-3.647,2.187,54.0
33.213,-3.644,2.008,68.0
33.192,-3.64,1.826,74.0
33.177,-3.637,1.648,85.0
33.171,-3.636,1.47,76.0
33.245,-3.649,2.407,6.0
33.215,-3.644,2.227,49.0
33.219,-3.642,2.049,70.0
33.202,-3.639,1.866,70.0
33.178,-3.634,1.688,76.0
33.167,-3.632,1.51,81.0
70.447,-7.726,5.187,11.0
33.22,-3.641,2.267,21.0
33.226,-3.639,2.089,65.0
33.2,-3.634,1.907,69.0
33.185,-3.63,1.728,72.0
33.17,-3.627,1.55,82.0
70.224,-7.691,5.254,15.0
33.229,-3.636,2.307,3.0
33.218,-3.633,2.128,32.0
33.209,-3.629,1.946,70.0
33.216,-3.627,1.769,69.0
33.178,-3.621,1.589,70.0
70.214,-7.676,5.337,13.0
75.486,-8.246,5.331,14.0
33.243,-3.628,2.169,6.0
33.198,-3.621,1.984,46.0
33.206,-3.619,1.807,68.0
33.191,-3.615,1.628,66.0
70.708,-7.714,5.456,12.0
75.52,-8.232,5.42,12.0
70.512,-7.679,4.682,11.0
33.203,-3.613,2.023,6.0
33.204,-3.61,1.844,44.0
33.199,-3.607,1.666,66.0
33.314,-3.625,2.608,4.0
70.191,-7.631,5.117,9.0
70.236,-7.628,4.742,37.0
70.219,-7.619,4.357,8.0
33.212,-3.6,1.882,3.0
33.198,-3.596,1.703,34.0
33.33,-3.616,2.647,46.0
33.316,-3.611,2.466,39.0
33.313,-3.607,2.287,17.0
70.337,-7.607,4.442,16.0
70.077,-7.572,4.049,25.0
70.114,-7.569,3.674,15.0
33.316,-3.602,2.683,51.0
33.32,-3.599,2.503,52.0
33.318,-3.594,2.323,45.0
33.294,-3.588,2.138,19.0
70.001,-7.537,4.12,26.0
70.266,-7.557,3.758,26.0
33.312,-3.588,2.719,54.0
33.318,-3.585,2.539,55.0
33.306,-3.579,2.358,41.0
33.29,-3.573,2.174,44.0
70.045,-7.511,4.197,11.0
70.145,-7.513,3.825,26.0
33.304,-3.573,2.753,53.0
33.306,-3.568,2.573,51.0
33.3,-3.563,2.393,38.0
33.29,-3.558,2.208,50.0
70.2,-7.494,4.278,13.0
70.261,-7.492,3.903,28.0
33.307,-3.557,2.787,52.0
33.303,-3.552,2.607,45.0
33.293,-3.546,2.426,45.0
33.281,-3.54,2.241,49.0
70.234,-7.461,4.351,8.0
70.286,-7.457,3.975,26.0
33.296,-3.538,2.821,51.0
33.292,-3.533,2.639,49.0
33.293,-3.528,2.459,55.0
33.278,-3.521,2.275,50.0
76.404,-8.074,4.809,9.0
70.391,-7.429,4.05,29.0
33.3,-3.52,2.854,56.0
33.296,-3.514,2.672,57.0
33.303,-3.51,2.492,57.0
33.268,-3.5,2.306,50.0
68.998,-7.25,4.41,13.0
0.0,0.0,0.0,0.0
14.729,-0.164,-0.808,0.0
13.604,-0.154,-0.826,0.0
12.694,-0.145,-0.845,0.0
11.679,-0.135,-0.846,0.0
11.022,-0.129,-0.863,0.0
10.438,-0.123,-0.879,0.0
14.493,-0.175,-0.819,0.0
13.39,-0.163,-0.835,0.0
12.402,-0.153,-0.846,0.0
11.496,-0.143,-0.852,0.0
10.889,-0.137,-0.871,0.0
10.296,-0.131,-0.883,0.0
14.105,-0.183,-0.82,0.0
13.107,-0.172,-0.838,0.0
12.155,-0.161,-0.848,0.0
11.333,-0.152,-0.858,0.0
10.703,-0.145,-0.873,0.0
10.14,-0.139,-0.887,0.0
13.835,-0.193,-0.827,0.0
12.858,-0.181,-0.843,0.0
11.829,-0.168,-0.845,0.0
11.139,-0.16,-0.861,0.0
10.504,-0.153,-0.874,0.0
10.031,-0.147,-0.893,0.0
13.626,-0.204,-0.836,0.0
12.589,-0.19,-0.845,0.0
11.63,-0.177,-0.849,0.0
11.002,-0.169,-0.868,0.0
10.386,-0.161,-0.88,0.0
9.856,-0.155,-0.893,0.0
13.355,-0.213,-0.84,0.0
12.309,-0.198,-0.845,0.0
11.464,-0.186,-0.854,0.0
10.839,-0.178,-0.872,0.0
10.26,-0.17,-0.885,0.0
9.762,-0.163,-0.899,0.0
13.081,-0.222,-0.842,0.0
12.063,-0.207,-0.847,0.0
11.286,-0.195,-0.858,0.0
10.648,-0.186,-0.872,0.0
10.137,-0.179,-0.889,0.0
9.611,-0.171,-0.899,0.0
12.801,-0.231,-0.843,0.0
11.82,-0.215,-0.847,0.0
11.087,-0.204,-0.859,0.0
10.5,-0.195,-0.875,0.0
9.988,-0.187,-0.891,0.0
9.481,-0.179,-0.901,0.0
12.512,-0.239,-0.841,0.0
11.61,-0.224,-0.848,0.0
10.964,-0.213,-0.865,0.0
10.355,-0.203,-0.878,0.0
9.875,-0.195,-0.895,0.0
9.37,-0.187,-0.904,0.0
12.319,-0.249,-0.846,0.0
11.47,-0.234,-0.854,0.0
10.862,-0.223,-0.872,0.0
10.216,-0.212,-0.88,0.0
9.752,-0.204,-0.897,0.0
9.272,-0.195,-0.907,0.0
12.078,-0.258,-0.846,0.0
11.296,-0.243,-0.856,0.0
10.684,-0.232,-0.872,0.0
10.154,-0.222,-0.889,0.0
9.636,-0.212,-0.899,0.0
9.159,-0.203,-0.908,0.0
11.87,-0.267,-0.847,0.0
11.154,-0.253,-0.86,0.0
10.531,-0.24,-0.873,0.0
9.997,-0.23,-0.888,0.0
9.529,-0.221,-0.902,0.0
9.093,-0.213,-0.914,0.0
11.657,-0.275,-0.847,0.0
11.017,-0.262,-0.864,0.0
10.399,-0.25,-0.876,0.0
9.878,-0.239,-0.89,0.0
9.419,-0.23,-0.904,0.0
8.947,-0.22,-0.91,0.0
11.506,-0.285,-0.85,0.0
10.932,-0.273,-0.871,0.0
10.322,-0.26,-0.882,0.0
9.81,-0.249,-0.896,0.0
9.318,-0.238,-0.905,0.0
8.888,-0.229,-0.915,0.0
11.394,-0.296,-0.855,0.0
10.786,-0.282,-0.872,0.0
10.21,-0.269,-0.885,0.0
9.684,-0.257,-0.896,0.0
9.216,-0.247,-0.906,0.0
8.779,-0.237,-0.914,0.0
11.259,-0.306,-0.858,0.0
10.629,-0.291,-0.872,0.0
10.12,-0.279,-0.888,0.0
9.627,-0.267,-0.902,0.0
9.203,-0.258,-0.916,0.0
8.712,-0.246,-0.917,0.0
91.884,1.652,1.261,12.0
91.888,1.684,0.753,20.0
73.866,1.378,0.197,4.0
0.0,0.0,0.0,0.0
46.003,0.889,-0.39,0.0
0.0,0.0,0.0,0.0
85.403,1.716,1.157,27.0
85.269,1.743,0.683,24.0
72.123,1.499,0.178,7.0
0.0,0.0,0.0,0.0
0.0,0.0,0.0,0.0
0.0,0.0,0.0,0.0
85.243,1.896,1.135,36.0
85.186,1.924,0.663,25.0
71.814,1.645,0.16,13.0
0.0,0.0,0.0,0.0
0.0,0.0,0.0,0.0
0.0,0.0,0.0,0.0
85.328,2.078,1.115,25.0
78.997,1.949,0.594,23.0
71.442,1.787,0.14,13.0
65.512,1.66,-0.24,0.0
0.0,0.0,0.0,0.0
35.982,0.936,-0.531,0.0
78.883,2.086,1.007,33.0
78.817,2.11,0.569,19.0
71.086,1.926,0.118,8.0
57.177,1.568,-0.227,17.0
0.0,0.0,0.0,0.0
35.626,1.001,-0.538,0.0
76.383,2.179,0.95,9.0
78.831,2.275,0.543,14.0
65.625,1.915,0.087,4.0
0.0,0.0,0.0,0.0
45.633,1.362,-0.451,0.0
35.137,1.06,-0.543,0.0
119.929,3.671,1.448,11.0
72.407,2.239,0.471,26.0
65.339,2.042,0.062,8.0
55.21,1.743,-0.26,0.0
45.581,1.454,-0.468,0.0
34.28,1.105,-0.543,0.0
72.371,2.366,0.845,33.0
72.245,2.383,0.441,28.0
64.909,2.162,0.034,11.0
54.32,1.827,-0.279,3.0
0.0,0.0,0.0,0.0
0.0,0.0,0.0,0.0
72.36,2.513,0.813,32.0
72.073,2.527,0.408,15.0
64.91,2.296,0.005,6.0
54.144,1.932,-0.302,1.0
0.0,0.0,0.0,0.0
33.712,1.224,-0.564,0.0
72.477,2.665,0.78,14.0
71.933,2.668,0.372,10.0
58.765,2.198,-0.023,8.0
52.621,1.985,-0.32,0.0
40.196,1.528,-0.469,0.0
32.626,1.25,-0.563,0.0
119.982,4.656,1.23,17.0
66.033,2.583,0.308,15.0
0.0,0.0,0.0,0.0
48.871,1.942,-0.323,0.0
39.079,1.565,-0.476,0.0
32.595,1.315,-0.58,0.0
66.101,2.697,0.641,28.0
65.976,2.713,0.271,19.0
58.716,2.431,-0.086,10.0
49.075,2.047,-0.351,0.0
38.081,1.6,-0.486,0.0
31.845,1.347,-0.584,0.0
61.143,2.615,0.559,9.0
65.828,2.835,0.233,11.0
58.453,2.534,-0.12,3.0
0.0,0.0,0.0,0.0
38.106,1.676,-0.509,0.0
31.253,1.383,-0.592,0.0
66.097,2.957,0.563,19.0
65.696,2.958,0.192,12.0
53.031,2.403,-0.142,20.0
47.789,2.18,-0.4,2.0
0.0,0.0,0.0,0.0
30.565,1.413,-0.599,0.0
120.078,5.607,0.946,16.0
65.436,3.074,0.148,12.0
52.161,2.466,-0.173,12.0
43.859,2.085,-0.396,0.0
35.937,1.719,-0.526,0.0
29.717,1.431,-0.602,0.0
120.079,5.837,0.865,16.0
59.343,2.902,0.094,15.0
51.575,2.537,-0.207,6.0
42.881,2.121,-0.417,2.0
34.906,1.737,-0.536,0.0
29.36,1.47,-0.616,0.0
12.325,1.188,-0.849,0.0
11.405,1.098,-0.851,0.0
10.84,1.043,-0.871,0.0
10.248,0.986,-0.884,0.0
9.764,0.939,-0.898,0.0
9.233,0.887,-0.903,0.0
12.191,1.167,-0.852,0.0
11.326,1.083,-0.856,0.0
10.703,1.023,-0.871,0.0
10.113,0.966,-0.882,0.0
9.625,0.919,-0.895,0.0
9.202,0.878,-0.908,0.0
12.003,1.141,-0.85,0.0
11.214,1.065,-0.858,0.0
10.579,1.004,-0.87,0.0
10.049,0.953,-0.885,0.0
9.59,0.909,-0.9,0.0
9.131,0.865,-0.91,0.0
11.876,1.121,-0.851,0.0
11.057,1.042,-0.856,0.0
10.529,0.992,-0.875,0.0
10.03,0.944,-0.892,0.0
9.514,0.895,-0.901,0.0
9.086,0.854,-0.913,0.0
11.753,1.1,-0.853,0.0
11.018,1.03,-0.862,0.0
10.42,0.974,-0.875,0.0
9.932,0.927,-0.892,0.0
9.454,0.882,-0.904,0.0
8.963,0.836,-0.908,0.0
11.656,1.082,-0.855,0.0
10.924,1.013,-0.864,0.0
10.323,0.956,-0.876,0.0
9.781,0.906,-0.887,0.0
9.346,0.865,-0.901,0.0
8.91,0.824,-0.91,0.0
11.544,1.062,-0.856,0.0
10.872,0.999,-0.868,0.0
10.296,0.946,-0.881,0.0
9.702,0.89,-0.887,0.0
9.351,0.857,-0.909,0.0
8.838,0.81,-0.91,0.0
11.422,1.041,-0.856,0.0
10.77,0.981,-0.869,0.0
10.229,0.931,-0.883,0.0
9.683,0.88,-0.893,0.0
9.302,0.845,-0.911,0.0
8.771,0.796,-0.909,0.0
11.283,1.019,-0.854,0.0
10.673,0.963,-0.868,0.0
10.155,0.915,-0.884,0.0
9.7,0.873,-0.901,0.0
9.211,0.828,-0.909,0.0
8.765,0.787,-0.915,0.0
11.175,0.999,-0.853,0.0
10.587,0.945,-0.869,0.0
10.118,0.902,-0.888,0.0
9.564,0.852,-0.895,0.0
9.131,0.813,-0.907,0.0
8.759,0.779,-0.92,0.0
11.14,0.985,-0.858,0.0
10.533,0.931,-0.871,0.0
10.046,0.886,-0.888,0.0
0.0,0.0,0.0,0.0
9.115,0.802,-0.911,0.0
8.674,0.763,-0.917,0.0
11.087,0.97,-0.861,0.0
10.469,0.915,-0.872,0.0
9.907,0.864,-0.882,0.0
9.471,0.825,-0.898,0.0
9.049,0.788,-0.91,0.0
8.642,0.751,-0.919,0.0
11.016,0.953,-0.862,0.0
10.408,0.899,-0.873,0.0
9.939,0.857,-0.891,0.0
9.462,0.815,-0.903,0.0
9.025,0.776,-0.913,0.0
8.59,0.738,-0.918,0.0
10.944,0.935,-0.862,0.0
10.379,0.886,-0.877,0.0
9.834,0.838,-0.887,0.0
9.431,0.803,-0.905,0.0
8.973,0.763,-0.912,0.0
8.572,0.728,-0.921,0.0
10.866,0.917,-0.862,0.0
10.33,0.87,-0.878,0.0
9.813,0.826,-0.89,0.0
9.304,0.782,-0.898,0.0
8.954,0.751,-0.915,0.0
8.482,0.711,-0.915,0.0
10.827,0.902,-0.864,0.0
10.282,0.856,-0.879,0.0
9.794,0.814,-0.893,0.0
9.335,0.774,-0.905,0.0
8.868,0.734,-0.91,0.0
8.528,0.705,-0.924,0.0
10.766,0.885,-0.864,0.0
10.237,0.84,-0.879,0.0
9.721,0.797,-0.89,0.0
9.305,0.762,-0.906,0.0
8.862,0.724,-0.913,0.0
8.49,0.693,-0.923,0.0
10.748,0.872,-0.866,0.0
10.202,0.826,-0.88,0.0
9.736,0.787,-0.895,0.0
9.265,0.748,-0.905,0.0
8.833,0.712,-0.913,0.0
8.432,0.678,-0.92,0.0
10.7,0.856,-0.866,0.0
10.189,0.813,-0.883,0.0
9.717,0.774,-0.897,0.0
9.301,0.74,-0.912,0.0
8.827,0.701,-0.916,0.0
8.465,0.671,-0.927,0.0
10.715,0.844,-0.871,0.0
10.14,0.797,-0.881,0.0
9.625,0.755,-0.891,0.0
9.152,0.717,-0.9,0.0
8.839,0.691,-0.92,0.0
8.444,0.659,-0.927,0.0
10.652,0.827,-0.869,0.0
10.139,0.785,-0.884,0.0
9.616,0.743,-0.893,0.0
9.155,0.706,-0.903,0.0
8.724,0.672,-0.91,0.0
8.46,0.65,-0.931,0.0
10.628,0.812,-0.869,0.0
10.106,0.77,-0.884,0.0
9.62,0.732,-0.895,0.0
9.175,0.697,-0.907,0.0
8.788,0.666,-0.918,0.0
8.324,0.629,-0.917,0.0
10.599,0.797,-0.869,0.0
10.142,0.761,-0.889,0.0
9.695,0.726,-0.904,0.0
9.212,0.688,-0.912,0.0
8.724,0.65,-0.913,0.0
8.368,0.622,-0.923,0.0
10.577,0.782,-0.869,0.0
10.121,0.746,-0.888,0.0
9.639,0.709,-0.9,0.0
9.205,0.676,-0.913,0.0
8.725,0.639,-0.914,0.0
8.382,0.613,-0.926,0.0
10.595,0.77,-0.871,0.0
10.108,0.733,-0.888,0.0
9.527,0.689,-0.891,0.0
9.203,0.664,-0.913,0.0
8.754,0.63,-0.918,0.0
8.367,0.601,-0.925,0.0
10.59,0.756,-0.872,0.0
10.072,0.717,-0.886,0.0
9.589,0.681,-0.897,0.0
9.113,0.646,-0.905,0.0
8.721,0.616,-0.915,0.0
8.418,0.594,-0.931,0.0
10.58,0.741,-0.871,0.0
10.114,0.707,-0.889,0.0
9.573,0.667,-0.896,0.0
9.16,0.637,-0.91,0.0
8.687,0.603,-0.911,0.0
8.368,0.579,-0.925,0.0
10.596,0.729,-0.872,0.0
10.117,0.694,-0.889,0.0
9.615,0.658,-0.899,0.0
9.175,0.626,-0.911,0.0
8.726,0.594,-0.915,0.0
8.35,0.567,-0.923,0.0
10.599,0.715,-0.872,0.0
10.101,0.679,-0.887,0.0
9.634,0.646,-0.9,0.0
9.158,0.612,-0.908,0.0
8.733,0.582,-0.915,0.0
8.364,0.556,-0.924,0.0
10.62,0.702,-0.872,0.0
10.124,0.667,-0.888,0.0
9.63,0.633,-0.899,0.0
9.166,0.601,-0.908,0.0
8.778,0.574,-0.919,0.0
8.401,0.547,-0.926,0.0
10.647,0.689,-0.873,0.0
10.108,0.652,-0.885,0.0
9.581,0.617,-0.893,0.0
9.159,0.588,-0.905,0.0
8.808,0.564,-0.92,0.0
8.402,0.536,-0.925,0.0
10.653,0.675,-0.871,0.0
10.106,0.639,-0.883,0.0
9.635,0.607,-0.896,0.0
9.174,0.576,-0.905,0.0
8.806,0.551,-0.918,0.0
8.428,0.526,-0.926,0.0
10.664,0.661,-0.87,0.0
10.134,0.626,-0.883,0.0
9.661,0.595,-0.896,0.0
9.223,0.567,-0.907,0.0
8.814,0.54,-0.916,0.0
8.439,0.515,-0.925,0.0
10.702,0.649,-0.87,0.0
10.189,0.616,-0.885,0.0
9.765,0.588,-0.902,0.0
9.254,0.556,-0.908,0.0
8.84,0.529,-0.916,0.0
8.454,0.504,-0.924,0.0
10.708,0.635,-0.867,0.0
10.21,0.603,-0.883,0.0
9.73,0.573,-0.896,0.0
9.287,0.545,-0.908,0.0
8.87,0.518,-0.916,0.0
8.488,0.494,-0.924,0.0
10.748,0.622,-0.866,0.0
10.222,0.589,-0.88,0.0
9.759,0.561,-0.895,0.0
9.247,0.529,-0.9,0.0
8.902,0.508,-0.916,0.0
8.514,0.484,-0.924,0.0
10.792,0.61,-0.865,0.0
10.269,0.578,-0.88,0.0
9.817,0.55,-0.896,0.0
9.405,0.525,-0.911,0.0
8.921,0.496,-0.914,0.0
8.533,0.473,-0.922,0.0
10.867,0.599,-0.866,0.0
10.335,0.567,-0.881,0.0
9.88,0.54,-0.897,0.0
9.331,0.508,-0.9,0.0
8.966,0.486,-0.914,0.0
8.592,0.464,-0.924,0.0
10.952,0.588,-0.868,0.0
10.36,0.554,-0.878,0.0
9.885,0.526,-0.892,0.0
9.461,0.502,-0.907,0.0
9.028,0.477,-0.916,0.0
8.618,0.454,-0.922,0.0
11.019,0.576,-0.867,0.0
10.412,0.542,-0.877,0.0
9.96,0.516,-0.893,0.0
9.451,0.488,-0.901,0.0
9.039,0.465,-0.912,0.0
8.636,0.442,-0.919,0.0
11.087,0.564,-0.866,0.0
10.46,0.53,-0.874,0.0
10.029,0.506,-0.893,0.0
9.505,0.477,-0.9,0.0
9.079,0.454,-0.91,0.0
8.711,0.434,-0.921,0.0
11.162,0.552,-0.864,0.0
10.552,0.52,-0.875,0.0
10.027,0.492,-0.887,0.0
9.591,0.468,-0.902,0.0
9.178,0.446,-0.914,0.0
8.798,0.426,-0.924,0.0
11.243,0.541,-0.863,0.0
10.574,0.506,-0.87,0.0
10.102,0.481,-0.886,0.0
9.632,0.457,-0.899,0.0
9.291,0.439,-0.918,0.0
8.841,0.415,-0.923,0.0
11.281,0.526,-0.858,0.0
10.661,0.495,-0.869,0.0
10.183,0.471,-0.886,0.0
9.708,0.447,-0.899,0.0
9.341,0.428,-0.916,0.0
8.804,0.401,-0.912,0.0
11.323,0.513,-0.852,0.0
10.77,0.485,-0.87,0.0
10.246,0.459,-0.883,0.0
9.775,0.436,-0.897,0.0
9.324,0.414,-0.907,0.0
8.917,0.394,-0.916,0.0
11.443,0.502,-0.852,0.0
10.902,0.476,-0.871,0.0
10.321,0.448,-0.881,0.0
9.849,0.426,-0.896,0.0
9.388,0.404,-0.905,0.0
8.958,0.383,-0.913,0.0
11.57,0.492,-0.852,0.0
11.015,0.466,-0.871,0.0
10.421,0.438,-0.881,0.0
9.897,0.414,-0.891,0.0
9.482,0.395,-0.906,0.0
9.029,0.374,-0.912,0.0
11.674,0.48,-0.849,0.0
11.099,0.454,-0.867,1.0
10.458,0.425,-0.874,0.0
10.004,0.405,-0.892,0.0
9.552,0.384,-0.904,0.0
9.108,0.365,-0.912,0.0
11.823,0.47,-0.849,0.0
11.196,0.443,-0.865,1.0
10.615,0.417,-0.877,0.0
10.069,0.394,-0.888,0.0
9.652,0.375,-0.904,0.0
9.165,0.354,-0.908,0.0
11.942,0.459,-0.846,0.0
11.314,0.432,-0.863,0.0
10.709,0.406,-0.874,0.0
10.157,0.383,-0.886,0.0
9.715,0.365,-0.9,0.0
9.286,0.346,-0.911,0.0
12.137,0.45,-0.847,0.0
11.389,0.419,-0.857,0.0
10.83,0.397,-0.873,0.0
10.243,0.373,-0.882,0.0
9.825,0.355,-0.9,0.0
9.377,0.337,-0.91,0.0
12.324,0.44,-0.847,0.0
11.525,0.409,-0.855,0.0
10.958,0.387,-0.872,0.0
10.338,0.362,-0.879,0.0
9.923,0.346,-0.898,0.0
9.443,0.327,-0.906,0.0
12.559,0.432,-0.85,0.0
11.641,0.398,-0.85,0.0
11.081,0.376,-0.869,1.0
10.407,0.351,-0.874,0.0
9.996,0.335,-0.893,0.0
9.547,0.318,-0.905,0.0
12.846,0.425,-0.854,0.0
11.83,0.389,-0.851,0.0
11.197,0.366,-0.865,1.0
10.607,0.344,-0.878,0.0
10.089,0.325,-0.89,0.0
9.68,0.31,-0.906,0.0
13.063,0.415,-0.854,0.0
11.993,0.379,-0.848,0.0
11.347,0.356,-0.863,0.0
10.773,0.335,-0.879,0.0
10.25,0.317,-0.891,0.0
9.767,0.3,-0.902,0.0
13.198,0.403,-0.846,0.0
12.2,0.37,-0.848,0.0
11.432,0.344,-0.856,0.0
10.908,0.326,-0.876,0.0
10.324,0.306,-0.885,0.0
9.873,0.29,-0.899,0.0
13.435,0.393,-0.844,0.0
12.508,0.363,-0.853,0.0
11.616,0.335,-0.855,0.0
11.02,0.315,-0.871,0.0
10.406,0.295,-0.879,0.0
10.003,0.282,-0.898,0.0
13.662,0.382,-0.841,0.0
12.674,0.352,-0.848,0.0
11.752,0.324,-0.849,0.0
11.183,0.306,-0.869,0.0
10.575,0.287,-0.879,0.0
10.083,0.271,-0.892,0.0
13.812,0.37,-0.832,0.0
13.003,0.345,-0.853,0.0
11.967,0.315,-0.849,0.0
11.35,0.296,-0.867,1.0
10.736,0.278,-0.877,0.0
10.191,0.262,-0.888,0.0
14.142,0.361,-0.833,0.0
13.227,0.335,-0.849,0.0
12.244,0.308,-0.851,0.0
11.44,0.285,-0.858,0.0
10.909,0.27,-0.876,0.0
10.331,0.253,-0.885,0.0
14.375,0.35,-0.826,0.0
13.414,0.324,-0.842,0.0
12.491,0.299,-0.851,0.0
11.597,0.275,-0.853,0.0
11.088,0.261,-0.875,0.0
10.433,0.243,-0.879,0.0
14.686,0.341,-0.823,0.0
13.635,0.313,-0.837,0.0
12.776,0.291,-0.852,0.0
11.785,0.266,-0.85,0.0
11.246,0.252,-0.871,1.0
10.617,0.235,-0.879,0.0
15.004,0.331,-0.819,0.0
13.867,0.303,-0.83,0.0
13.157,0.285,-0.858,0.0
12.081,0.259,-0.853,0.0
11.388,0.242,-0.865,1.0
10.804,0.227,-0.878,0.0
15.282,0.32,-0.811,0.0
14.232,0.295,-0.831,0.0
13.317,0.273,-0.848,0.0
12.358,0.251,-0.853,0.0
11.495,0.231,-0.855,0.0
11.011,0.219,-0.878,0.0
15.655,0.31,-0.807,0.0
14.571,0.285,-0.828,0.0
13.615,0.264,-0.846,0.0
12.563,0.241,-0.848,0.0
11.732,0.223,-0.854,0.0
11.185,0.211,-0.874,0.0
15.997,0.299,-0.799,0.0
14.815,0.274,-0.818,0.0
13.892,0.255,-0.841,0.0
12.921,0.234,-0.852,0.0
11.972,0.215,-0.852,0.0
11.338,0.201,-0.867,0.0
16.423,0.29,-0.794,0.0
15.208,0.266,-0.815,0.0
14.189,0.245,-0.836,0.0
13.181,0.225,-0.847,0.0
12.275,0.207,-0.854,0.0
11.475,0.192,-0.859,0.0
16.934,0.281,-0.791,0.0
15.59,0.256,-0.81,0.0
14.479,0.235,-0.828,0.0
13.5,0.217,-0.845,0.0
12.549,0.199,-0.852,0.0
11.689,0.183,-0.855,0.0
17.577,0.274,-0.791,1.0
15.914,0.245,-0.8,0.0
14.815,0.226,-0.823,0.0
13.802,0.207,-0.84,0.0
12.963,0.193,-0.858,0.0
11.963,0.176,-0.855,0.0
18.001,0.263,-0.78,0.0
16.478,0.238,-0.8,0.0
15.132,0.216,-0.815,0.0
14.144,0.199,-0.837,0.0
13.227,0.184,-0.852,0.0
12.273,0.168,-0.855,0.0
18.309,0.25,-0.762,0.0
16.831,0.227,-0.788,0.0
15.496,0.206,-0.807,0.0
14.466,0.19,-0.831,0.0
13.543,0.176,-0.849,0.0
12.551,0.16,-0.853,0.0
18.982,0.241,-0.756,0.0
17.318,0.217,-0.781,0.0
16.039,0.199,-0.807,0.0
14.805,0.181,-0.824,0.0
13.781,0.166,-0.839,0.0
13.018,0.155,-0.861,0.0
19.703,0.233,-0.75,0.0
17.862,0.208,-0.773,0.0
16.381,0.188,-0.795,0.0
15.119,0.171,-0.815,0.0
14.141,0.158,-0.836,0.0
13.245,0.146,-0.852,0.0
20.237,0.222,-0.734,0.0
18.404,0.199,-0.764,0.0
16.899,0.18,-0.789,0.0
15.509,0.162,-0.807,0.0
14.5,0.149,-0.83,0.0
13.656,0.139,-0.854,0.0
21.178,0.214,-0.729,0.0
18.953,0.189,-0.751,0.0
17.515,0.171,-0.785,0.0
16.06,0.155,-0.806,0.0
14.886,0.141,-0.825,0.0
13.847,0.129,-0.84,0.0
22.16,0.206,-0.722,0.0
19.825,0.181,-0.749,0.0
17.991,0.162,-0.773,0.0
16.584,0.147,-0.801,0.0
15.248,0.133,-0.816,0.0
14.27,0.122,-0.838,0.0
22.991,0.196,-0.705,0.0
20.45,0.171,-0.734,0.0
18.545,0.152,-0.762,0.0
16.918,0.137,-0.785,0.0
15.806,0.125,-0.816,0.0
14.619,0.114,-0.83,0.0
23.945,0.186,-0.688,0.0
21.299,0.162,-0.723,0.0
19.285,0.144,-0.755,0.0
17.528,0.129,-0.779,0.0
16.209,0.117,-0.805,0.0
15.021,0.106,-0.824,0.0
24.801,0.174,-0.665,0.0
22.328,0.154,-0.715,0.0
20.096,0.136,-0.748,0.0
18.174,0.121,-0.772,0.0
16.728,0.109,-0.798,0.0
15.376,0.098,-0.813,0.0
26.351,0.167,-0.655,0.0
23.239,0.145,-0.699,0.0
20.592,0.125,-0.726,0.0
18.903,0.113,-0.766,0.0
17.224,0.101,-0.788,0.0
15.938,0.091,-0.812,0.0
27.978,0.159,-0.641,0.0
24.154,0.135,-0.679,0.0
21.74,0.119,-0.723,0.0
19.35,0.103,-0.746,0.0
17.864,0.093,-0.782,0.0
16.455,0.084,-0.805,0.0
29.146,0.148,-0.61,0.0
25.795,0.128,-0.673,0.0
22.538,0.109,-0.705,0.0
20.295,0.096,-0.742,0.0
18.551,0.086,-0.774,0.0
16.944,0.076,-0.795,0.0
31.47,0.142,-0.596,0.0
26.835,0.118,-0.647,0.0
0.0,0.0,0.0,0.0
21.103,0.088,-0.729,0.0
19.093,0.078,-0.758,0.0
17.551,0.07,-0.788,0.0
33.214,0.131,-0.562,0.0
28.66,0.11,-0.633,0.0
24.954,0.093,-0.68,0.0
22.001,0.08,-0.715,0.0
19.826,0.07,-0.747,0.0
18.078,0.062,-0.775,0.0
35.54,0.122,-0.529,0.0
30.545,0.102,-0.612,0.0
26.431,0.086,-0.666,0.0
23.215,0.073,-0.707,0.0
20.699,0.063,-0.738,0.0
18.739,0.055,-0.764,0.0
37.98,0.112,-0.487,0.0
0.0,0.0,0.0,0.0
27.619,0.076,-0.639,0.0
24.323,0.065,-0.691,0.0
21.687,0.056,-0.728,0.0
19.512,0.049,-0.756,0.0
42.75,0.107,-0.46,0.0
34.619,0.084,-0.551,0.0
29.542,0.069,-0.622,0.0
25.613,0.058,-0.674,0.0
22.651,0.049,-0.713,0.0
20.401,0.043,-0.747,0.0
45.381,0.095,-0.393,1.0
0.0,0.0,0.0,0.0
31.281,0.061,-0.594,0.0
26.717,0.05,-0.648,0.0
23.552,0.042,-0.692,0.0
21.145,0.036,-0.731,0.0
49.824,0.086,-0.329,0.0
42.829,0.071,-0.503,0.0
0.0,0.0,0.0,0.0
28.639,0.043,-0.634,0.0
25.065,0.036,-0.684,0.0
22.261,0.031,-0.722,0.0
0.0,0.0,0.0,0.0
45.299,0.06,-0.436,1.0
0.0,0.0,0.0,0.0
30.234,0.036,-0.606,0.0
26.415,0.03,-0.665,0.0
23.327,0.025,-0.707,0.0
0.0,0.0,0.0,0.0
0.0,0.0,0.0,0.0
0.0,0.0,0.0,0.0
32.562,0.03,-0.583,0.0
28.256,0.024,-0.652,0.0
0.0,0.0,0.0,0.0
0.0,0.0,0.0,0.0
0.0,0.0,0.0,0.0
45.008,0.033,-0.474,1.0
35.395,0.024,-0.558,0.0
0.0,0.0,0.0,0.0
26.1,0.015,-0.68,0.0
95.647,0.057,0.178,2.0
0.0,0.0,0.0,0.0
45.725,0.023,-0.384,1.0
37.496,0.018,-0.511,0.0
32.173,0.014,-0.604,0.0
27.471,0.011,-0.657,0.0
95.557,0.038,0.383,3.0
0.0,0.0,0.0,0.0
0.0,0.0,0.0,0.0
0.0,0.0,0.0,0.0
33.732,0.009,-0.562,0.0
28.901,0.007,-0.63,0.0
110.734,0.028,0.679,10.0
0.0,0.0,0.0,0.0
0.0,0.0,0.0,0.0
45.301,0.008,-0.426,3.0
36.962,0.005,-0.537,0.0
30.54,0.004,-0.6,0.0
111.297,0.015,0.92,7.0
95.522,0.011,0.299,2.0
0.0,0.0,0.0,0.0
48.387,0.004,-0.35,0.0
40.095,0.002,-0.496,0.0
0.0,0.0,0.0,0.0
117.312,0.006,1.222,11.0
110.469,0.005,0.583,5.0
0.0,0.0,0.0,0.0
0.0,0.0,0.0,0.0
44.983,0.0,-0.46,1.0
36.031,0.0,-0.554,0.0
111.149,0.001,1.396,14.0
111.132,0.001,0.824,14.0
95.388,0.0,0.217,2.0
0.0,0.0,0.0,0.0
45.696,0.0,-0.37,0.0
40.084,0.0,-0.53,0.0
111.143,0.001,1.636,12.0
117.305,0.001,1.124,12.0
103.148,0.001,0.458,2.0
0.0,0.0,0.0,0.0
0.0,0.0,0.0,0.0
44.794,0.001,-0.496,0.0
112.549,0.004,1.898,17.0
111.096,0.006,1.303,14.0
110.841,0.007,0.731,13.0
0.0,0.0,0.0,0.0
0.0,0.0,0.0,0.0
45.496,0.005,-0.406,2.0
112.804,0.012,2.146,19.0
117.29,0.015,1.627,12.0
117.232,0.017,1.024,7.0
97.24,0.016,0.34,1.0
0.0,0.0,0.0,0.0
49.757,0.01,-0.337,0.0
113.725,0.025,2.409,10.0
112.17,0.027,1.798,14.0
111.098,0.03,1.208,14.0
110.559,0.033,0.622,11.0
0.0,0.0,0.0,0.0
0.0,0.0,0.0,0.0
114.087,0.042,2.66,18.0
112.639,0.045,2.046,18.0
117.321,0.051,1.527,16.0
111.078,0.052,0.864,7.0
95.564,0.048,0.252,6.0
0.0,0.0,0.0,0.0
117.398,0.064,2.988,23.0
112.764,0.066,2.29,14.0
117.299,0.074,1.779,10.0
111.164,0.075,1.103,15.0
104.222,0.074,0.498,5.0
73.566,0.056,-0.026,0.0
70.201,0.054,1.937,13.0
113.733,0.093,2.551,8.0
117.36,0.101,2.029,19.0
111.117,0.101,1.339,18.0
110.815,0.107,0.766,8.0
92.429,0.094,0.162,1.0
69.999,0.072,2.081,24.0
117.401,0.127,2.886,15.0
112.599,0.128,2.186,10.0
111.075,0.132,1.573,15.0
111.205,0.139,1.003,12.0
102.945,0.135,0.399,2.0
69.885,0.092,2.227,28.0
70.136,0.097,1.872,9.0
112.665,0.163,2.426,13.0
117.377,0.177,1.912,15.0
111.128,0.175,1.237,23.0
110.664,0.182,0.663,8.0
69.909,0.115,2.375,29.0
70.07,0.121,2.019,31.0
117.493,0.211,2.779,4.0
117.511,0.219,2.162,9.0
111.13,0.215,1.471,17.0
111.129,0.223,0.897,9.0
70.141,0.141,2.529,27.0
69.824,0.146,2.156,34.0
119.846,0.26,3.083,8.0
0.0,0.0,0.0,0.0
119.903,0.279,1.835,19.0
111.152,0.267,1.128,16.0
70.203,0.17,2.677,29.0
69.818,0.175,2.302,34.0
70.25,0.182,1.953,26.0
119.814,0.32,2.701,25.0
119.881,0.33,2.084,20.0
111.237,0.316,1.358,15.0
70.348,0.201,2.829,8.0
70.133,0.207,2.457,40.0
69.983,0.212,2.091,35.0
119.805,0.375,2.948,12.0
193.644,0.624,3.765,6.0
119.832,0.397,1.709,24.0
70.123,0.234,2.964,19.0
70.089,0.24,2.6,31.0
69.792,0.246,2.228,33.0
119.829,0.434,3.193,15.0
119.87,0.446,2.574,84.0
119.878,0.457,1.953,118.0
70.32,0.27,3.116,2.0
70.263,0.277,2.75,18.0
69.886,0.283,2.372,21.0
70.076,0.291,2.009,21.0
119.867,0.51,2.817,7.0
193.35,0.843,3.545,16.0
103.014,0.452,4.773,4.0
70.105,0.315,2.885,6.0
69.931,0.322,2.515,27.0
70.22,0.331,2.155,18.0
119.832,0.578,3.057,15.0
111.14,0.548,2.258,22.0
80.548,0.4,3.894,10.0
70.171,0.356,3.028,4.0
70.037,0.364,2.659,11.0
69.981,0.371,2.286,6.0
111.14,0.603,3.056,22.0
111.107,0.616,2.481,26.0
78.672,0.439,3.961,8.0
80.349,0.458,3.628,4.0
70.13,0.408,2.803,4.0
104.835,0.623,3.636,14.0
111.063,0.674,3.276,25.0
111.082,0.688,2.7,33.0
81.242,0.506,4.252,3.0
80.516,0.512,3.796,7.0
104.814,0.679,4.395,18.0
69.859,0.461,2.559,9.0
104.858,0.706,3.298,11.0
111.068,0.763,2.916,25.0
81.22,0.562,4.411,11.0
78.691,0.554,3.864,7.0
97.652,0.701,4.287,14.0
70.067,0.512,2.703,10.0
69.799,0.519,2.33,7.0
104.791,0.795,2.956,28.0
80.708,0.616,4.539,12.0
81.327,0.632,4.151,12.0
80.583,0.637,3.693,8.0
70.112,0.564,2.84,11.0
69.698,0.57,2.461,21.0
104.682,0.871,3.151,30.0
78.299,0.656,4.554,10.0
81.447,0.693,4.312,14.0
80.592,0.697,3.846,8.0
70.001,0.615,2.967,12.0
69.883,0.624,2.598,18.0
69.767,0.634,2.232,13.0
78.471,0.718,4.712,10.0
81.334,0.755,4.458,9.0
78.697,0.743,3.903,12.0
70.255,0.673,3.11,8.0
97.96,0.953,3.825,33.0
69.654,0.689,2.356,17.0
60.018,0.597,3.715,3.0
78.503,0.792,4.449,11.0
81.497,0.835,4.192,5.0
70.336,0.732,3.244,10.0
98.647,1.042,4.035,16.0
98.248,1.053,3.505,25.0
67.009,0.723,4.272,9.0
80.303,0.878,4.699,19.0
81.373,0.903,4.336,6.0
78.69,0.886,3.772,8.0
70.076,0.8,2.992,16.0
98.432,1.14,3.689,14.0
60.229,0.701,3.949,15.0
74.492,0.88,4.494,6.0
81.205,0.972,4.472,8.0
81.027,0.983,4.029,10.0
98.615,1.213,4.388,26.0
98.553,1.228,3.868,18.0
67.08,0.841,4.519,10.0
74.595,0.948,4.633,1.0
83.007,1.069,4.721,6.0
81.053,1.058,4.175,7.0
78.755,1.041,3.643,9.0
98.234,1.315,4.029,24.0
41.5,0.559,2.869,35.0
74.389,1.014,4.751,5.0
78.45,1.084,4.598,6.0
81.298,1.137,4.329,15.0
98.08,1.388,4.707,12.0
98.182,1.407,4.197,29.0
41.446,0.598,2.937,39.0
67.436,0.984,4.424,3.0
80.459,1.188,4.853,10.0
81.144,1.213,4.46,11.0
98.028,1.483,4.873,12.0
78.762,1.206,3.502,22.0
41.382,0.637,3.003,35.0
41.502,0.646,2.793,19.0
74.353,1.172,4.612,10.0
79.856,1.273,4.524,10.0
85.638,1.381,4.401,5.0
105.323,1.717,4.858,2.0
41.404,0.679,3.075,41.0
41.482,0.688,2.861,11.0
74.331,1.246,4.733,3.0
74.415,1.262,4.339,8.0
73.115,1.253,3.877,1.0
85.549,1.482,4.085,12.0
41.066,0.716,3.117,40.0
41.344,0.728,2.919,40.0
78.834,1.404,5.149,4.0
74.34,1.338,4.456,7.0
70.249,1.278,3.839,1.0
91.46,1.681,4.517,10.0
40.826,0.755,3.165,44.0
41.134,0.769,2.971,16.0
70.503,1.331,4.719,6.0
78.291,1.493,4.818,6.0
81.072,1.562,4.56,11.0
91.454,1.78,4.661,17.0
40.893,0.801,3.236,47.0
40.94,0.809,3.022,43.0
40.972,0.818,2.807,13.0
81.361,1.64,5.133,5.0
74.745,1.522,4.32,4.0
84.559,1.738,4.44,12.0
40.743,0.843,3.287,38.0
40.96,0.856,3.087,41.0
40.918,0.862,2.866,45.0
83.659,1.78,5.407,6.0
74.376,1.598,4.412,5.0
81.509,1.767,4.404,10.0
40.612,0.886,3.339,40.0
40.856,0.899,3.141,42.0
40.981,0.91,2.932,28.0
