X,Y,Z,Reflectivity
19.965,-1.155,0.625,25.0
19.963,-1.16,0.52,22.0
19.914,-1.163,0.411,18.0
19.929,-1.169,0.306,18.0
19.995,-1.179,0.201,78.0
19.993,-1.182,0.756,18.0
19.96,-1.185,0.65,20.0
19.947,-1.189,0.543,23.0
19.907,-1.193,0.435,19.0
19.913,-1.198,0.33,18.0
19.967,-1.207,0.226,37.0
19.999,-1.212,0.781,14.0
19.947,-1.214,0.674,18.0
19.952,-1.22,0.569,25.0
19.936,-1.224,0.461,21.0
19.928,-1.229,0.355,22.0
19.963,-1.236,0.25,25.0
20.02,-1.243,0.807,9.0
19.949,-1.244,0.699,16.0
19.951,-1.249,0.594,24.0
19.909,-1.251,0.485,18.0
19.944,-1.258,0.381,19.0
19.955,-1.265,0.276,26.0
20.047,-1.274,0.834,2.0
19.957,-1.273,0.725,14.0
19.941,-1.276,0.619,19.0
19.912,-1.28,0.511,17.0
19.921,-1.285,0.406,15.0
19.951,-1.292,0.302,19.0
72.187,-4.687,3.099,9.0
19.998,-1.303,0.752,11.0
19.967,-1.306,0.646,11.0
19.972,-1.311,0.539,11.0
19.956,-1.315,0.433,10.0
19.955,-1.32,0.328,11.0
70.685,-4.685,3.126,15.0
72.236,-4.805,2.813,12.0
20.011,-1.335,0.673,10.0
20.066,-1.344,0.567,15.0
20.075,-1.349,0.462,2.0
119.441,-8.056,2.121,100.0
0.0,0.0,0.0,0.0
72.276,-4.901,2.91,15.0
19.995,-1.36,0.699,10.0
20.014,-1.366,0.593,8.0
20.025,-1.371,0.487,9.0
20.036,-1.377,0.382,9.0
67.907,-4.677,3.184,66.0
67.9,-4.691,2.825,54.0
20.023,-1.387,0.727,6.0
19.997,-1.39,0.619,9.0
19.998,-1.395,0.514,10.0
20.011,-1.4,0.409,10.0
67.903,-4.761,3.276,65.0
67.918,-4.777,2.918,55.0
67.884,-4.788,2.559,43.0
20.005,-1.415,0.646,8.0
19.992,-1.418,0.541,10.0
20.007,-1.424,0.436,10.0
67.904,-4.843,3.369,64.0
67.917,-4.858,3.012,60.0
67.906,-4.87,2.653,51.0
20.031,-1.441,0.675,3.0
20.01,-1.443,0.569,7.0
20.013,-1.448,0.464,8.0
67.909,-4.923,3.464,62.0
67.913,-4.937,3.106,57.0
67.933,-4.952,2.749,56.0
67.874,-4.96,2.382,41.0
72.027,-5.278,2.149,10.0
20.082,-1.475,0.493,0.0
67.905,-4.999,3.559,36.0
67.921,-5.013,3.201,68.0
67.928,-5.026,2.844,53.0
67.901,-5.037,2.478,44.0
71.842,-5.343,2.244,12.0
72.799,-5.429,1.892,5.0
71.295,-5.326,3.837,8.0
67.917,-5.086,3.297,43.0
67.918,-5.098,2.939,50.0
67.916,-5.11,2.575,31.0
102.829,-7.756,3.358,17.0
71.808,-5.429,1.967,11.0
71.155,-5.39,3.931,27.0
71.314,-5.414,3.563,14.0
67.944,-5.17,3.037,7.0
67.936,-5.181,2.672,27.0
67.919,-5.192,2.314,43.0
67.918,-5.204,1.957,66.0
67.952,-5.216,3.852,83.0
67.945,-5.227,3.493,72.0
67.916,-5.236,3.134,88.0
67.908,-5.247,2.769,86.0
67.908,-5.257,2.412,75.0
67.902,-5.268,2.055,80.0
67.968,-5.284,3.951,38.0
67.968,-5.294,3.592,36.0
67.95,-5.303,3.233,30.0
67.95,-5.313,2.868,19.0
67.942,-5.323,2.51,10.0
72.567,-5.697,2.3,9.0
71.425,-5.619,4.255,19.0
71.485,-5.633,3.882,20.0
71.201,-5.621,3.491,40.0
71.285,-5.638,3.112,31.0
72.258,-5.726,2.775,5.0
72.267,-5.738,2.396,10.0
71.81,-5.713,4.384,17.0
71.666,-5.711,3.996,11.0
71.154,-5.68,3.593,28.0
71.302,-5.701,3.218,18.0
71.492,-5.726,2.85,24.0
72.095,-5.785,2.495,9.0
72.174,-5.803,4.512,17.0
71.54,-5.761,4.095,23.0
71.391,-5.758,3.71,22.0
67.928,-5.487,3.165,9.0
67.948,-5.497,2.809,43.0
67.929,-5.505,2.451,45.0
72.155,-5.86,4.617,9.0
71.69,-5.829,4.209,35.0
71.277,-5.804,3.809,28.0
67.943,-5.541,3.267,44.0
67.945,-5.55,2.909,42.0
67.939,-5.557,2.551,49.0
71.891,-5.893,4.706,8.0
71.787,-5.892,4.32,31.0
71.453,-5.872,3.924,14.0
67.938,-5.59,3.365,55.0
67.962,-5.6,3.009,51.0
67.94,-5.606,2.651,55.0
70.159,-5.801,4.696,41.0
71.701,-5.935,4.42,13.0
71.388,-5.917,4.025,14.0
67.948,-5.638,3.466,42.0
67.968,-5.647,3.109,45.0
67.967,-5.654,2.752,54.0
70.198,-5.851,4.803,32.0
75.418,-6.293,4.761,4.0
71.454,-5.968,4.133,30.0
67.963,-5.683,3.567,9.0
67.962,-5.689,3.209,60.0
67.969,-5.697,2.851,54.0
70.23,-5.898,4.908,17.0
70.182,-5.899,4.534,35.0
71.548,-6.02,4.245,18.0
71.433,-6.016,3.854,10.0
67.956,-5.729,3.308,59.0
67.969,-5.735,2.95,44.0
70.254,-5.941,5.013,12.0
70.377,-5.956,4.65,40.0
71.574,-6.062,4.351,21.0
71.013,-6.02,3.936,43.0
67.957,-5.766,3.408,50.0
67.973,-5.773,3.051,52.0
70.65,-6.012,5.146,33.0
70.274,-5.985,4.747,36.0
71.592,-6.102,4.457,10.0
71.095,-6.063,4.045,25.0
67.961,-5.801,3.507,27.0
67.973,-5.807,3.15,53.0
70.925,-6.071,5.271,11.0
70.187,-6.012,4.845,12.0
71.752,-6.15,4.573,16.0
71.598,-6.141,4.178,8.0
71.406,-6.128,3.79,17.0
67.972,-5.837,3.25,57.0
70.9,-6.102,5.374,8.0
70.058,-6.032,4.938,19.0
70.798,-6.099,4.616,36.0
71.612,-6.172,4.283,12.0
71.084,-6.13,3.877,34.0
67.956,-5.864,3.348,56.0
70.992,-6.139,5.484,20.0
70.048,-6.06,5.04,38.0
70.603,-6.109,4.707,23.0
71.567,-6.196,4.386,11.0
70.729,-6.126,3.96,20.0
67.961,-5.889,3.447,33.0
70.846,-6.152,5.578,12.0
0.0,0.0,0.0,0.0
70.787,-6.151,4.821,20.0
75.041,-6.522,4.707,6.0
71.02,-6.175,4.079,10.0
67.947,-5.91,3.544,11.0
71.1,-6.198,5.701,11.0
70.814,-6.173,5.302,9.0
70.369,-6.135,4.896,31.0
74.746,-6.519,4.798,10.0
71.432,-6.231,4.207,23.0
71.0,-6.195,3.806,9.0
74.45,-6.51,6.078,18.0
70.785,-6.19,5.403,21.0
70.021,-6.123,4.973,18.0
70.523,-6.168,4.627,30.0
71.201,-6.228,4.295,26.0
70.869,-6.2,3.901,25.0
74.529,-6.535,6.192,17.0
70.828,-6.21,5.508,22.0
69.939,-6.132,5.068,9.0
70.583,-6.188,4.733,28.0
71.026,-6.227,4.387,26.0
70.712,-6.2,3.994,25.0
0.0,0.0,0.0,0.0
74.601,-6.555,5.909,12.0
70.744,-6.215,5.227,8.0
70.411,-6.185,4.821,41.0
71.204,-6.254,4.499,13.0
70.737,-6.213,4.094,16.0
73.174,-6.441,6.289,17.0
74.293,-6.538,5.99,12.0
70.781,-6.227,5.33,19.0
70.526,-6.204,4.929,35.0
70.91,-6.236,4.579,16.0
71.208,-6.261,4.221,26.0
73.235,-6.454,6.396,16.0
74.472,-6.56,6.107,9.0
70.789,-6.234,5.429,30.0
70.182,-6.179,5.001,16.0
70.627,-6.216,4.658,24.0
71.127,-6.258,4.314,27.0
73.253,-6.46,6.5,11.0
74.491,-6.566,6.212,11.0
70.834,-6.241,5.53,21.0
73.356,-6.461,5.329,7.0
70.512,-6.208,4.747,31.0
71.032,-6.251,4.405,17.0
76.515,-6.749,6.895,4.0
73.141,-6.448,6.2,9.0
74.578,-6.571,5.924,9.0
70.647,-6.221,5.228,9.0
70.464,-6.202,4.84,39.0
71.261,-6.27,4.515,11.0
80.067,-7.061,7.323,4.0
73.183,-6.45,6.302,17.0
74.388,-6.551,6.008,11.0
70.755,-6.227,5.33,22.0
70.443,-6.197,4.932,25.0
70.738,-6.219,4.576,19.0
73.525,-6.479,6.824,15.0
73.214,-6.446,6.403,11.0
74.456,-6.551,6.113,15.0
70.833,-6.228,5.43,32.0
69.994,-6.15,4.993,11.0
70.583,-6.197,4.66,26.0
73.51,-6.47,6.92,25.0
73.279,-6.444,6.505,6.0
74.48,-6.544,6.213,10.0
70.779,-6.214,5.518,16.0
73.358,-6.435,5.329,7.0
70.507,-6.18,4.745,30.0
73.747,-6.48,7.039,24.0
79.936,-7.017,7.2,3.0
71.266,-6.249,6.038,8.0
70.978,-6.219,5.626,9.0
70.402,-6.163,5.204,8.0
70.434,-6.16,4.831,29.0
73.88,-6.477,7.146,17.0
73.784,-6.462,6.741,8.0
71.174,-6.226,6.12,15.0
71.406,-6.241,5.75,8.0
70.719,-6.175,5.316,14.0
70.287,-6.132,4.908,24.0
73.894,-6.461,7.241,7.0
73.542,-6.423,6.81,25.0
71.304,-6.221,6.22,10.0
74.443,-6.487,6.088,6.0
70.869,-6.169,5.416,18.0
70.009,-6.088,4.975,30.0
71.167,-6.203,7.062,7.0
73.428,-6.392,6.891,21.0
0.0,0.0,0.0,0.0
71.547,-6.213,5.938,14.0
70.867,-6.147,5.502,14.0
70.159,-6.079,5.071,29.0
71.171,-6.181,7.15,11.0
73.422,-6.368,6.98,19.0
78.133,-6.768,7.007,3.0
71.465,-6.182,6.017,11.0
70.951,-6.13,5.593,16.0
70.892,-6.117,5.208,20.0
72.789,-6.296,7.4,8.0
73.506,-6.349,7.076,16.0
73.511,-6.34,6.68,8.0
0.0,0.0,0.0,0.0
70.923,-6.101,5.674,14.0
70.826,-6.085,5.285,7.0
76.602,-6.596,7.878,8.0
73.726,-6.339,7.183,20.0
73.227,-6.286,6.739,17.0
71.474,-6.127,6.184,12.0
71.06,-6.082,5.766,18.0
73.181,-6.256,5.544,5.0
76.408,-6.546,7.945,11.0
73.704,-6.305,7.264,9.0
73.13,-6.245,6.812,17.0
71.425,-6.09,6.26,24.0
71.105,-6.054,5.848,6.0
71.009,-6.037,5.458,13.0
71.827,-6.12,7.549,9.0
70.225,-5.973,7.0,5.0
79.091,-6.716,7.455,7.0
71.488,-6.06,6.344,14.0
72.999,-6.179,6.084,9.0
70.992,-5.999,5.534,16.0
71.531,-6.059,7.596,16.0
70.231,-5.937,7.077,7.0
71.09,-5.999,6.778,6.0
72.008,-6.067,6.468,12.0
72.956,-6.136,6.158,8.0
70.389,-5.91,5.562,23.0
70.823,-5.96,7.597,33.0
72.949,-6.128,7.428,5.0
71.053,-5.957,6.849,9.0
72.583,-6.074,6.596,15.0
74.634,-6.234,6.378,5.0
70.422,-5.872,5.637,27.0
70.74,-5.911,7.662,33.0
0.0,0.0,0.0,0.0
73.577,-6.124,7.168,16.0
71.881,-5.971,6.605,9.0
0.0,0.0,0.0,0.0
70.401,-5.826,5.706,20.0
70.615,-5.857,7.72,32.0
70.408,-5.828,7.313,22.0
73.28,-6.053,7.212,18.0
71.55,-5.898,6.646,16.0
72.933,-6.001,6.378,7.0
70.469,-5.787,5.78,13.0
70.828,-5.829,7.812,16.0
70.788,-5.813,7.42,25.0
73.205,-5.999,7.274,13.0
71.517,-5.849,6.709,15.0
72.811,-5.942,6.435,9.0
70.518,-5.743,5.849,9.0
70.564,-5.759,7.849,22.0
70.43,-5.735,7.449,12.0
73.151,-5.944,7.337,17.0
71.894,-5.828,6.811,15.0
72.838,-5.892,6.504,7.0
73.31,-5.918,6.147,8.0
70.077,-5.669,7.859,21.0
71.555,-5.775,7.632,21.0
72.96,-5.874,7.383,21.0
71.858,-5.772,6.872,20.0
73.294,-5.875,6.609,7.0
70.568,-5.643,5.979,8.0
70.066,-5.615,7.92,21.0
71.595,-5.724,7.699,30.0
71.716,-5.719,7.319,11.0
71.769,-5.71,6.924,29.0
70.923,-5.629,6.455,21.0
70.582,-5.59,6.039,20.0
72.228,-5.731,8.225,11.0
71.271,-5.641,7.724,33.0
71.629,-5.656,7.369,10.0
71.655,-5.644,6.972,24.0
70.873,-5.568,6.508,9.0
70.647,-5.538,6.101,15.0
70.518,-5.539,8.087,42.0
71.239,-5.58,7.777,27.0
71.395,-5.578,7.402,22.0
71.34,-5.56,6.997,19.0
70.758,-5.501,6.552,31.0
68.005,-5.273,5.925,46.0
70.284,-5.46,8.115,30.0
71.526,-5.542,7.863,27.0
70.552,-5.452,7.367,19.0
71.229,-5.489,7.039,8.0
68.017,-5.228,6.348,44.0
68.008,-5.214,5.975,52.0
69.413,-5.332,8.065,8.0
71.269,-5.46,7.886,31.0
70.529,-5.388,7.415,33.0
81.19,-6.185,8.081,4.0
68.011,-5.168,6.395,36.0
72.064,-5.461,6.381,12.0
69.743,-5.295,8.151,26.0
71.054,-5.379,7.911,21.0
71.565,-5.402,7.572,16.0
71.44,-5.377,7.158,8.0
71.173,-5.342,6.74,14.0
76.421,-5.72,6.817,3.0
69.78,-5.232,8.202,29.0
70.939,-5.303,7.945,25.0
70.687,-5.268,7.526,25.0
71.943,-5.347,7.254,8.0
72.742,-5.39,6.934,4.0
70.951,-5.243,6.373,5.0
69.704,-5.16,8.236,34.0
70.722,-5.219,7.963,33.0
70.664,-5.199,7.565,41.0
68.045,-4.991,6.902,12.0
78.09,-5.712,7.489,8.0
71.031,-5.18,6.421,24.0
70.335,-5.137,8.352,49.0
70.788,-5.154,8.011,30.0
0.0,0.0,0.0,0.0
68.046,-4.924,6.939,26.0
73.261,-5.285,7.066,7.0
0.0,0.0,0.0,0.0
69.582,-5.012,8.3,29.0
70.567,-5.066,8.024,31.0
70.28,-5.03,7.601,31.0
68.046,-4.854,6.974,31.0
73.003,-5.192,7.078,10.0
0.0,0.0,0.0,0.0
69.693,-4.948,8.348,36.0
70.398,-4.98,8.04,19.0
70.374,-4.963,7.645,24.0
68.037,-4.783,7.006,32.0
70.966,-4.972,6.914,20.0
72.948,-5.095,6.703,14.0
69.953,-4.892,8.411,40.0
70.197,-4.892,8.049,33.0
71.525,-4.969,7.802,23.0
68.056,-4.712,7.037,33.0
70.007,-4.831,6.85,46.0
69.625,-4.788,6.427,9.0
70.133,-4.829,8.462,32.0
70.008,-4.803,8.055,40.0
70.904,-4.848,7.763,20.0
68.061,-4.637,7.065,27.0
70.01,-4.754,6.878,46.0
71.411,-4.833,6.619,8.0
70.113,-4.75,8.487,19.0
70.629,-4.768,8.153,39.0
70.172,-4.72,7.708,13.0
68.05,-4.56,7.088,29.0
69.937,-4.67,6.895,7.0
69.927,-4.654,6.505,11.0
0.0,0.0,0.0,0.0
70.859,-4.703,8.203,48.0
70.071,-4.634,7.719,11.0
68.06,-4.485,7.11,17.0
64.092,-4.209,6.338,6.0
64.069,-4.193,5.978,31.0
70.566,-4.621,8.585,49.0
71.163,-4.644,8.258,16.0
70.4,-4.576,7.774,26.0
59.496,-3.853,6.231,24.0
59.56,-3.844,5.905,6.0
64.025,-4.117,5.99,29.0
70.088,-4.51,8.544,37.0
70.212,-4.501,8.164,24.0
70.476,-4.5,7.799,25.0
59.495,-3.784,6.244,29.0
59.281,-3.756,5.89,33.0
64.123,-4.048,6.013,36.0
0.0,0.0,0.0,0.0
70.032,-4.407,8.157,24.0
70.32,-4.407,7.795,20.0
59.513,-3.715,6.257,27.0
59.115,-3.677,5.883,31.0
64.121,-3.973,6.023,23.0
65.486,-4.058,8.008,12.0
69.968,-4.318,8.161,31.0
59.017,-3.628,6.551,33.0
59.188,-3.624,6.231,8.0
59.064,-3.602,5.886,30.0
63.929,-3.884,6.013,15.0
65.09,-3.955,7.967,39.0
70.017,-4.237,8.174,27.0
58.886,-3.549,6.542,33.0
59.211,-3.555,6.239,34.0
59.021,-3.528,5.887,32.0
59.439,-3.539,5.595,23.0
64.997,-3.871,7.96,40.0
59.063,-3.502,6.899,19.0
58.99,-3.484,6.557,33.0
58.587,-3.445,6.176,34.0
58.738,-3.439,5.862,32.0
59.365,-3.462,5.591,28.0
64.82,-3.78,7.94,35.0
59.029,-3.427,6.896,32.0
58.795,-3.398,6.537,33.0
58.37,-3.36,6.154,33.0
58.354,-3.345,5.823,32.0
59.107,-3.374,5.566,33.0
64.739,-3.695,7.929,41.0
58.901,-3.347,6.88,33.0
58.565,-3.313,6.509,32.0
58.438,-3.291,6.158,33.0
58.167,-3.262,5.801,31.0
57.63,-3.218,5.424,32.0
64.757,-3.615,7.928,31.0
51.932,-2.886,6.062,23.0
58.564,-3.239,6.504,32.0
58.427,-3.217,6.153,33.0
58.191,-3.19,5.799,32.0
56.992,-3.11,5.358,28.0
52.113,-2.842,6.375,27.0
51.916,-2.818,6.055,28.0
58.616,-3.167,6.503,32.0
58.843,-3.165,6.189,33.0
58.149,-3.113,5.786,31.0
56.809,-3.028,5.333,30.0
51.919,-2.765,6.343,22.0
51.931,-2.752,6.048,33.0
58.417,-3.081,6.471,20.0
58.981,-3.096,6.193,35.0
56.838,-2.969,5.646,30.0
56.885,-2.959,5.329,31.0
52.001,-2.702,6.342,27.0
51.904,-2.684,6.034,20.0
51.907,-2.671,5.739,22.0
58.252,-2.983,6.103,20.0
56.727,-2.891,5.622,30.0
56.958,-2.889,5.322,30.0
51.971,-2.633,6.326,26.0
51.894,-2.616,6.02,26.0
58.148,-2.917,6.414,7.0
46.844,-2.338,4.896,21.0
56.645,-2.814,5.598,30.0
56.861,-2.811,5.298,31.0
52.221,-2.578,6.341,27.0
51.843,-2.547,5.999,25.0
52.08,-2.545,5.729,25.0
46.783,-2.275,4.875,32.0
56.489,-2.733,5.565,25.0
56.722,-2.73,5.266,30.0
51.547,-2.477,6.242,26.0
51.78,-2.475,5.974,24.0
52.466,-2.495,5.753,26.0
46.833,-2.216,4.863,41.0
46.659,-2.197,4.58,36.0
47.01,-2.202,4.347,33.0
51.449,-2.405,6.211,26.0
51.815,-2.409,5.958,25.0
57.629,-2.666,6.297,15.0
46.805,-2.154,4.842,34.0
46.684,-2.138,4.563,44.0
46.877,-2.135,4.315,40.0
51.428,-2.337,6.186,26.0
51.753,-2.339,5.929,20.0
46.91,-2.109,5.105,18.0
46.789,-2.092,4.819,35.0
46.704,-2.078,4.544,33.0
46.874,-2.074,4.294,4.0
51.325,-2.265,6.15,29.0
51.707,-2.27,5.898,25.0
46.709,-2.039,5.061,10.0
52.53,-2.28,5.385,12.0
46.368,-2.002,4.488,40.0
44.295,-1.902,4.035,33.0
51.306,-2.197,6.121,25.0
51.628,-2.198,5.862,23.0
46.7,-1.977,5.035,22.0
52.622,-2.215,5.366,19.0
46.279,-1.938,4.455,40.0
44.217,-1.841,4.004,27.0
44.968,-1.866,5.339,14.0
51.613,-2.13,5.831,16.0
52.468,-2.153,5.626,26.0
46.834,-1.911,4.749,21.0
46.196,-1.874,4.419,38.0
44.185,-1.782,3.975,41.0
44.928,-1.806,5.307,38.0
44.966,-1.796,5.052,15.0
52.042,-2.067,5.548,27.0
46.632,-1.841,4.699,21.0
46.259,-1.816,4.396,41.0
44.23,-1.727,3.95,42.0
44.885,-1.745,5.273,28.0
44.785,-1.73,5.003,37.0
51.46,-1.976,5.452,28.0
46.427,-1.773,4.647,43.0
46.366,-1.76,4.375,39.0
44.173,-1.667,3.915,31.0
44.93,-1.688,5.246,28.0
44.674,-1.668,4.958,37.0
51.267,-1.903,5.395,11.0
46.672,-1.721,4.638,21.0
46.997,-1.723,4.4,21.0
44.213,-1.611,3.886,41.0
44.823,-1.625,5.2,29.0
44.655,-1.609,4.922,37.0
45.532,-1.631,4.757,22.0
52.513,-1.869,5.178,18.0
46.907,-1.659,4.356,23.0
44.145,-1.552,3.846,34.0
44.809,-1.568,5.164,46.0
44.605,-1.55,4.882,34.0
45.156,-1.559,4.682,22.0
46.729,-1.603,4.57,32.0
46.963,-1.601,4.323,17.0
43.862,-1.486,3.785,36.0
44.735,-1.507,5.118,43.0
44.151,-1.478,4.795,43.0
45.144,-1.501,4.642,25.0
46.61,-1.54,4.519,9.0
44.213,-1.451,4.032,18.0
43.817,-1.429,3.744,42.0
44.121,-1.431,5.009,19.0
44.072,-1.419,4.748,34.0
44.848,-1.435,4.572,37.0
43.608,-1.386,4.189,18.0
44.288,-1.398,4.0,26.0
43.997,-1.38,3.72,38.0
43.76,-1.364,4.928,37.0
43.719,-1.353,4.67,46.0
44.871,-1.379,4.533,33.0
43.641,-1.332,4.152,33.0
43.644,-1.323,3.9,34.0
43.858,-1.321,3.667,46.0
43.668,-1.306,4.875,43.0
43.86,-1.302,4.642,37.0
44.773,-1.32,4.479,21.0
43.553,-1.275,4.101,27.0
43.614,-1.268,3.855,38.0
43.891,-1.267,3.627,41.0
43.749,-1.254,4.841,44.0
43.802,-1.246,4.592,44.0
43.663,-1.234,4.324,22.0
43.554,-1.222,4.057,39.0
43.577,-1.214,3.807,38.0
43.926,-1.215,3.584,42.0
43.785,-1.201,4.799,40.0
43.808,-1.193,4.547,44.0
45.571,-1.232,4.465,10.0
43.452,-1.166,4.001,36.0
43.506,-1.159,3.755,46.0
43.772,-1.157,3.525,38.0
43.66,-1.145,4.737,45.0
43.798,-1.14,4.497,37.0
0.0,0.0,0.0,0.0
43.59,-1.117,3.966,31.0
43.696,-1.112,3.723,22.0
43.793,-1.106,3.479,36.0
43.585,-1.091,4.68,30.0
45.734,-1.136,4.646,5.0
43.831,-1.08,4.197,21.0
43.14,-1.055,3.877,41.0
43.765,-1.063,3.68,38.0
44.099,-1.062,3.453,18.0
43.382,-1.035,4.608,42.0
43.427,-1.027,4.36,47.0
43.539,-1.022,4.118,18.0
43.176,-1.006,3.829,38.0
43.64,-1.008,3.618,35.0
45.376,-1.04,3.499,21.0
43.268,-0.982,4.544,45.0
43.503,-0.979,4.316,34.0
43.083,-0.961,4.023,24.0
43.37,-0.96,3.793,43.0
43.173,-0.947,3.526,37.0
44.996,-0.98,3.415,20.0
43.406,-0.934,4.504,47.0
43.457,-0.928,4.256,42.0
42.699,-0.904,3.934,41.0
42.854,-0.9,3.695,39.0
42.996,-0.895,3.457,45.0
44.984,-0.929,3.357,33.0
43.424,-0.886,4.451,43.0
43.428,-0.878,4.198,45.0
42.409,-0.85,3.852,36.0
42.893,-0.852,3.642,42.0
42.968,-0.846,3.399,45.0
45.172,-0.882,3.312,24.0
43.199,-0.833,4.37,45.0
43.498,-0.831,4.147,39.0
42.233,-0.8,3.78,36.0
42.793,-0.803,3.576,33.0
42.918,-0.798,3.337,42.0
48.537,-0.895,3.493,29.0
41.856,-0.761,4.177,29.0
42.1,-0.759,3.956,19.0
41.993,-0.749,3.701,45.0
42.674,-0.754,3.508,44.0
43.002,-0.754,3.285,45.0
48.445,-0.841,3.42,34.0
41.83,-0.715,4.116,37.0
42.04,-0.712,3.891,41.0
42.181,-0.708,3.658,43.0
42.676,-0.709,3.448,46.0
42.955,-0.707,3.221,41.0
48.43,-0.79,3.35,34.0
41.92,-0.673,4.065,37.0
41.997,-0.667,3.827,43.0
42.465,-0.668,3.621,30.0
42.317,-0.659,3.358,40.0
42.735,-0.659,3.143,30.0
48.436,-0.74,3.28,40.0
41.884,-0.629,3.999,47.0
42.042,-0.625,3.768,38.0
42.822,-0.63,3.589,29.0
42.544,-0.62,3.313,40.0
48.33,-0.697,3.483,8.0
48.417,-0.691,3.208,41.0
42.127,-0.59,3.959,43.0
41.915,-0.581,3.694,46.0
42.926,-0.589,3.533,11.0
42.149,-0.572,3.219,43.0
48.147,-0.647,3.396,26.0
48.479,-0.644,3.137,25.0
42.013,-0.548,3.884,41.0
42.007,-0.541,3.637,32.0
42.439,-0.541,3.427,39.0
42.45,-0.535,3.176,40.0
48.525,-0.605,3.348,22.0
48.524,-0.598,3.065,34.0
41.841,-0.506,3.802,44.0
41.827,-0.499,3.556,37.0
42.176,-0.498,3.339,40.0
42.414,-0.495,3.106,30.0
48.256,-0.556,3.253,22.0
48.489,-0.552,2.986,12.0
41.749,-0.465,3.727,43.0
41.983,-0.462,3.501,36.0
42.16,-0.459,3.27,36.0
42.496,-0.457,3.044,39.0
48.19,-0.512,3.171,40.0
60.864,-0.638,3.65,9.0
41.909,-0.429,3.672,32.0
41.938,-0.424,3.429,42.0
42.038,-0.42,3.191,42.0
45.987,-0.453,3.217,34.0
60.21,-0.586,3.862,7.0
60.612,-0.582,3.535,16.0
41.743,-0.39,3.587,41.0
41.959,-0.387,3.361,45.0
42.148,-0.384,3.129,42.0
48.13,-0.433,3.287,32.0
48.474,-0.43,3.028,21.0
60.742,-0.532,3.441,10.0
41.657,-0.355,3.51,45.0
41.941,-0.352,3.288,47.0
42.689,-0.353,3.097,35.0
48.446,-0.395,3.226,22.0
60.636,-0.488,3.684,12.0
60.739,-0.482,3.337,15.0
42.082,-0.324,3.473,32.0
42.099,-0.319,3.228,44.0
43.18,-0.323,3.059,14.0
48.163,-0.355,3.125,28.0
60.861,-0.441,3.594,16.0
78.023,-0.558,4.153,4.0
42.1,-0.291,3.401,44.0
42.217,-0.287,3.163,47.0
48.284,-0.323,3.335,22.0
48.118,-0.317,3.037,17.0
60.559,-0.393,3.469,5.0
77.874,-0.497,4.007,11.0
42.173,-0.259,3.332,37.0
45.959,-0.278,3.362,14.0
48.236,-0.286,3.246,22.0
60.816,-0.355,3.731,16.0
60.763,-0.349,3.373,6.0
81.272,-0.458,4.036,7.0
42.197,-0.228,3.257,33.0
45.904,-0.244,3.275,27.0
48.136,-0.251,3.152,21.0
60.61,-0.31,3.609,11.0
77.724,-0.391,4.174,10.0
80.839,-0.4,3.87,12.0
42.336,-0.199,3.191,41.0
48.33,-0.223,3.359,31.0
60.21,-0.273,3.833,17.0
60.711,-0.27,3.504,17.0
77.684,-0.339,4.03,22.0
81.126,-0.347,3.736,7.0
45.879,-0.186,3.374,12.0
48.2,-0.191,3.262,26.0
60.306,-0.234,3.728,30.0
60.542,-0.23,3.382,15.0
81.172,-0.302,4.06,6.0
103.121,-0.375,4.556,7.0
48.464,-0.165,3.473,16.0
60.177,-0.201,3.959,9.0
60.555,-0.197,3.629,16.0
60.305,-0.191,3.254,17.0
80.935,-0.25,3.894,8.0
95.378,-0.288,4.033,11.0
48.25,-0.135,3.365,21.0
60.473,-0.165,3.862,15.0
60.721,-0.161,3.523,12.0
77.711,-0.2,4.045,16.0
80.759,-0.202,3.731,13.0
117.38,-0.286,4.738,24.0
48.063,-0.107,3.258,18.0
60.417,-0.131,3.742,12.0
60.224,-0.126,3.377,20.0
80.671,-0.163,4.043,15.0
95.303,-0.186,4.219,13.0
117.385,-0.222,4.511,22.0
60.414,-0.103,3.979,13.0
60.536,-0.099,3.631,7.0
60.22,-0.094,3.259,7.0
80.571,-0.121,3.881,8.0
95.441,-0.137,4.039,11.0
117.385,-0.162,4.281,12.0
60.2,-0.072,3.846,13.0
60.415,-0.068,3.505,13.0
80.788,-0.086,4.214,10.0
103.535,-0.105,4.784,6.0
189.85,-0.182,7.66,32.0
69.947,-0.063,2.413,16.0
60.586,-0.044,3.751,5.0
60.178,-0.04,3.372,16.0
80.469,-0.05,4.037,17.0
103.601,-0.058,4.581,5.0
70.139,-0.036,2.691,22.0
70.03,-0.032,2.278,23.0
60.602,-0.017,3.629,2.0
77.898,-0.019,4.209,30.0
80.652,-0.015,3.885,13.0
189.757,-0.028,8.011,17.0
69.883,-0.006,2.541,34.0
70.033,-0.003,2.138,26.0
73.923,0.007,4.279,9.0
78.046,0.011,4.06,4.0
102.717,0.019,4.741,8.0
70.163,0.016,2.821,6.0
69.886,0.019,2.4,35.0
70.165,0.022,2.0,18.0
77.866,0.036,4.349,6.0
80.46,0.04,4.022,29.0
70.196,0.038,3.097,16.0
70.035,0.04,2.673,21.0
69.827,0.043,2.255,25.0
117.442,0.076,3.107,19.0
78.137,0.061,4.204,24.0
80.558,0.066,3.861,12.0
70.232,0.06,2.955,9.0
70.07,0.062,2.531,24.0
70.059,0.064,2.12,33.0
117.475,0.112,2.867,7.0
80.708,0.087,4.175,9.0
80.699,0.089,3.702,4.0
70.265,0.08,2.811,13.0
69.78,0.081,2.377,33.0
70.283,0.083,1.982,11.0
117.496,0.142,2.627,16.0
80.521,0.107,3.999,21.0
70.248,0.095,3.075,13.0
70.157,0.097,2.661,29.0
69.819,0.098,2.232,31.0
117.526,0.167,3.071,9.0
117.444,0.169,2.382,8.0
80.524,0.125,3.832,12.0
111.217,0.174,4.639,19.0
70.091,0.111,2.513,28.0
70.092,0.112,2.095,15.0
112.427,0.182,2.702,7.0
193.523,0.316,3.52,14.0
70.252,0.122,3.195,8.0
70.153,0.122,2.78,26.0
69.78,0.122,2.355,35.0
194.31,0.344,5.402,18.0
193.941,0.345,4.257,8.0
111.165,0.199,1.789,10.0
70.225,0.132,3.045,7.0
70.097,0.132,2.628,33.0
69.86,0.132,2.211,36.0
119.782,0.227,3.076,8.0
119.871,0.228,2.377,15.0
111.139,0.212,1.554,17.0
70.333,0.139,2.902,8.0
69.982,0.139,2.476,36.0
70.086,0.139,2.069,8.0
119.87,0.238,2.826,16.0
119.856,0.238,2.123,43.0
111.107,0.22,1.317,16.0
70.11,0.144,2.744,27.0
69.773,0.143,2.321,41.0
119.777,0.245,3.283,17.0
119.831,0.245,2.571,27.0
119.826,0.244,1.869,22.0
111.131,0.225,1.084,16.0
70.24,0.146,2.6,38.0
69.987,0.145,2.18,36.0
119.858,0.247,3.032,23.0
119.867,0.246,2.319,56.0
111.2,0.227,1.501,17.0
110.772,0.225,0.846,9.0
69.874,0.145,2.439,35.0
70.19,0.145,2.039,3.0
119.844,0.246,2.78,26.0
119.868,0.244,2.066,35.0
111.185,0.224,1.264,14.0
103.798,0.207,0.572,7.0
69.826,0.142,2.287,37.0
119.816,0.241,3.222,19.0
119.852,0.239,2.521,21.0
119.846,0.236,1.807,15.0
111.151,0.217,1.024,12.0
92.945,0.179,0.314,3.0
69.973,0.136,2.142,20.0
193.684,0.373,4.796,16.0
119.835,0.228,2.265,12.0
111.121,0.208,1.439,21.0
110.7,0.205,0.786,7.0
90.243,0.164,0.113,1.0
194.37,0.357,5.537,18.0
193.962,0.35,4.389,9.0
111.099,0.197,1.864,7.0
111.111,0.193,1.202,16.0
103.448,0.177,0.514,4.0
0.0,0.0,0.0,0.0
119.842,0.201,3.161,6.0
117.401,0.193,2.408,5.0
111.114,0.179,1.63,17.0
111.02,0.174,0.966,10.0
93.108,0.142,0.264,3.0
0.0,0.0,0.0,0.0
117.473,0.174,2.847,7.0
117.444,0.169,2.157,8.0
111.141,0.156,1.391,23.0
110.691,0.15,0.725,4.0
0.0,0.0,0.0,0.0
0.0,0.0,0.0,0.0
117.472,0.147,2.594,16.0
111.01,0.133,1.801,9.0
111.126,0.129,1.152,13.0
0.0,0.0,0.0,0.0
0.0,0.0,0.0,0.0
49.735,0.05,-0.363,0.0
117.409,0.115,2.342,19.0
111.136,0.103,1.565,17.0
110.955,0.097,0.912,10.0
0.0,0.0,0.0,0.0
0.0,0.0,0.0,0.0
45.436,0.032,-0.428,1.0
117.316,0.078,2.088,21.0
111.141,0.068,1.327,18.0
110.573,0.061,0.674,3.0
73.421,0.036,0.009,0.0
49.809,0.021,-0.285,0.0
0.0,0.0,0.0,0.0
117.34,0.038,1.838,10.0
111.187,0.029,1.091,7.0
95.603,0.019,0.379,8.0
0.0,0.0,0.0,0.0
45.749,0.003,-0.358,1.0
36.682,0.0,-0.502,0.0
111.067,-0.005,1.506,14.0
110.798,-0.013,0.853,11.0
0.0,0.0,0.0,0.0
54.827,-0.014,-0.224,0.0
44.815,-0.014,-0.445,0.0
33.917,-0.013,-0.536,0.0
117.357,-0.055,1.343,14.0
0.0,0.0,0.0,0.0
0.0,0.0,0.0,0.0
0.0,0.0,0.0,0.0
0.0,0.0,0.0,0.0
31.252,-0.026,-0.559,0.0
117.22,-0.108,1.096,9.0
0.0,0.0,0.0,0.0
0.0,0.0,0.0,0.0
45.035,-0.052,-0.374,2.0
0.0,0.0,0.0,0.0
30.344,-0.04,-0.607,0.0
110.875,-0.157,0.802,13.0
0.0,0.0,0.0,0.0
0.0,0.0,0.0,0.0
0.0,0.0,0.0,0.0
0.0,0.0,0.0,0.0
28.517,-0.052,-0.63,0.0
100.486,-0.196,0.518,1.0
0.0,0.0,0.0,0.0
0.0,0.0,0.0,0.0
0.0,0.0,0.0,0.0
31.261,-0.072,-0.573,0.0
26.377,-0.063,-0.638,0.0
0.0,0.0,0.0,0.0
0.0,0.0,0.0,0.0
45.019,-0.121,-0.387,1.0
0.0,0.0,0.0,0.0
29.663,-0.085,-0.605,0.0
0.0,0.0,0.0,0.0
0.0,0.0,0.0,0.0
0.0,0.0,0.0,0.0
40.161,-0.133,-0.428,0.0
0.0,0.0,0.0,0.0
27.534,-0.096,-0.618,0.0
24.039,-0.086,-0.68,0.0
0.0,0.0,0.0,0.0
0.0,0.0,0.0,0.0
38.014,-0.15,-0.483,0.0
30.82,-0.125,-0.574,0.0
26.134,-0.109,-0.64,0.0
22.773,-0.097,-0.691,0.0
0.0,0.0,0.0,0.0
45.226,-0.205,-0.402,0.0
35.578,-0.165,-0.524,0.0
29.127,-0.138,-0.602,0.0
24.894,-0.121,-0.66,0.0
21.908,-0.109,-0.709,0.0
0.0,0.0,0.0,0.0
39.84,-0.209,-0.435,0.0
0.0,0.0,0.0,0.0
27.637,-0.151,-0.627,0.0
23.871,-0.133,-0.681,0.0
20.918,-0.119,-0.719,0.0
46.673,-0.273,-0.329,0.0
0.0,0.0,0.0,0.0
30.884,-0.188,-0.578,0.0
25.979,-0.161,-0.64,0.0
22.672,-0.143,-0.691,0.0
20.189,-0.13,-0.733,0.0
45.057,-0.298,-0.405,0.0
35.294,-0.238,-0.524,0.0
28.731,-0.197,-0.594,0.0
24.829,-0.173,-0.661,0.0
21.823,-0.155,-0.708,0.0
19.382,-0.14,-0.742,0.0
0.0,0.0,0.0,0.0
0.0,0.0,0.0,0.0
0.0,0.0,0.0,0.0
0.0,0.0,0.0,0.0
20.946,-0.166,-0.721,0.0
18.769,-0.151,-0.755,0.0
0.0,0.0,0.0,0.0
30.988,-0.26,-0.581,0.0
26.189,-0.223,-0.644,0.0
22.581,-0.195,-0.689,0.0
20.035,-0.176,-0.728,0.0
18.058,-0.161,-0.762,0.0
0.0,0.0,0.0,0.0
29.213,-0.27,-0.603,0.0
24.887,-0.234,-0.659,0.0
21.854,-0.208,-0.709,0.0
19.39,-0.188,-0.742,0.0
17.401,-0.171,-0.768,0.0
32.955,-0.331,-0.552,0.0
27.441,-0.279,-0.619,0.0
23.731,-0.245,-0.674,0.0
20.954,-0.219,-0.719,0.0
18.773,-0.199,-0.754,0.0
16.956,-0.182,-0.78,0.0
30.602,-0.335,-0.57,0.0
0.0,0.0,0.0,0.0
22.728,-0.256,-0.688,0.0
20.279,-0.231,-0.734,0.0
18.161,-0.21,-0.763,0.0
16.482,-0.193,-0.789,0.0
0.0,0.0,0.0,0.0
24.848,-0.3,-0.654,0.0
21.939,-0.268,-0.705,0.0
19.362,-0.24,-0.737,0.0
17.546,-0.22,-0.77,0.0
16.036,-0.204,-0.797,0.0
0.0,0.0,0.0,0.0
23.922,-0.313,-0.673,0.0
20.98,-0.277,-0.712,0.0
18.743,-0.251,-0.747,0.0
17.048,-0.231,-0.779,0.0
15.537,-0.213,-0.801,0.0
26.309,-0.367,-0.634,0.0
22.938,-0.323,-0.686,0.0
20.113,-0.287,-0.719,0.0
18.12,-0.261,-0.755,0.0
16.564,-0.242,-0.787,0.0
15.198,-0.224,-0.811,0.0
25.14,-0.377,-0.651,0.0
22.166,-0.336,-0.702,0.0
19.67,-0.301,-0.738,0.0
17.721,-0.275,-0.77,0.0
16.179,-0.253,-0.797,0.0
14.77,-0.234,-0.814,0.0
24.372,-0.391,-0.673,0.0
21.262,-0.345,-0.711,0.0
19.054,-0.312,-0.748,0.0
17.135,-0.284,-0.774,0.0
15.653,-0.262,-0.798,0.0
14.459,-0.245,-0.822,0.0
23.028,-0.395,-0.676,0.0
20.474,-0.355,-0.719,0.0
18.139,-0.318,-0.743,3.0
16.761,-0.296,-0.786,0.0
15.35,-0.274,-0.809,0.0
14.085,-0.254,-0.824,0.0
22.165,-0.405,-0.687,0.0
19.869,-0.367,-0.731,0.0
18.112,-0.337,-0.772,14.0
16.257,-0.306,-0.789,0.0
15.014,-0.285,-0.816,0.0
13.775,-0.264,-0.829,0.0
21.506,-0.418,-0.702,0.0
18.22,-0.357,-0.701,0.0
17.629,-0.349,-0.781,0.0
15.817,-0.316,-0.794,0.0
14.584,-0.294,-0.817,0.0
13.537,-0.276,-0.837,0.0
18.16,-0.374,-0.623,150.0
18.138,-0.377,-0.727,19.0
17.982,-0.377,-0.825,1.0
18.147,-0.384,-0.94,5.0
14.355,-0.307,-0.827,0.0
18.139,-0.391,-1.151,0.0
18.153,-0.396,-0.652,150.0
18.102,-0.398,-0.755,16.0
18.011,-0.4,-0.856,15.0
18.137,-0.406,-0.969,7.0
18.145,-0.41,-1.075,1.0
18.155,-0.414,-1.181,0.0
18.139,-0.418,-0.68,139.0
18.07,-0.42,-0.782,3.0
18.142,-0.425,-0.89,150.0
18.13,-0.429,-0.997,8.0
18.147,-0.433,-1.103,0.0
18.142,-0.436,-1.209,1.0
18.135,-0.44,-0.707,81.0
18.094,-0.443,-0.811,4.0
18.133,-0.448,-0.918,53.0
18.136,-0.452,-1.025,1.0
13.468,-0.338,-0.839,0.0
12.456,-0.315,-0.849,0.0
18.111,-0.463,-0.734,16.0
18.052,-0.465,-0.836,3.0
18.131,-0.471,-0.945,7.0
18.128,-0.475,-1.052,0.0
13.222,-0.349,-0.844,0.0
12.229,-0.325,-0.852,0.0
18.086,-0.486,-0.759,11.0
21.887,-0.592,-1.046,0.0
15.183,-0.414,-0.813,0.0
13.951,-0.384,-0.83,0.0
12.92,-0.358,-0.843,0.0
11.949,-0.334,-0.849,0.0
17.925,-0.505,-0.779,0.0
21.889,-0.622,-1.078,1.0
14.804,-0.424,-0.814,0.0
13.65,-0.394,-0.831,0.0
12.69,-0.369,-0.847,0.0
11.76,-0.344,-0.853,0.0
17.324,-0.511,-0.777,0.0
15.818,-0.47,-0.801,0.0
14.451,-0.433,-0.815,0.0
13.474,-0.407,-0.84,0.0
12.444,-0.378,-0.847,0.0
11.573,-0.355,-0.855,0.0
16.789,-0.518,-0.776,0.0
15.335,-0.477,-0.797,0.0
14.209,-0.445,-0.821,0.0
13.213,-0.417,-0.841,0.0
12.235,-0.389,-0.85,0.0
11.403,-0.365,-0.858,0.0
16.514,-0.532,-0.785,0.0
15.172,-0.493,-0.809,0.0
13.893,-0.454,-0.821,0.0
12.905,-0.425,-0.839,0.0
12.026,-0.399,-0.851,0.0
11.268,-0.376,-0.863,0.0
16.307,-0.548,-0.797,0.0
14.899,-0.504,-0.814,0.0
13.652,-0.465,-0.824,0.0
12.847,-0.441,-0.851,0.0
11.816,-0.409,-0.852,0.0
11.109,-0.387,-0.865,0.0
15.884,-0.557,-0.796,0.0
14.649,-0.517,-0.818,0.0
13.561,-0.482,-0.836,0.0
12.542,-0.448,-0.847,0.0
11.639,-0.419,-0.853,0.0
10.987,-0.398,-0.869,0.0
15.602,-0.569,-0.801,0.0
14.387,-0.528,-0.821,0.0
13.35,-0.493,-0.839,0.0
12.326,-0.458,-0.847,0.0
11.485,-0.43,-0.856,0.0
10.88,-0.41,-0.874,0.0
15.268,-0.579,-0.802,0.0
14.122,-0.538,-0.823,0.0
13.133,-0.504,-0.841,0.0
12.166,-0.47,-0.85,0.0
11.33,-0.44,-0.857,0.0
10.732,-0.42,-0.874,0.0
15.038,-0.592,-0.807,0.0
13.953,-0.552,-0.829,0.0
13.007,-0.518,-0.848,0.0
11.988,-0.48,-0.851,0.0
11.243,-0.454,-0.863,0.0
10.599,-0.43,-0.875,0.0
14.729,-0.601,-0.806,0.0
13.706,-0.562,-0.829,0.0
12.692,-0.524,-0.841,0.0
11.833,-0.492,-0.853,0.0
11.106,-0.464,-0.865,0.0
10.521,-0.442,-0.88,0.0
14.642,-0.619,-0.817,0.0
13.54,-0.575,-0.833,0.0
12.512,-0.535,-0.842,0.0
11.695,-0.503,-0.856,0.0
11.006,-0.476,-0.868,0.0
10.408,-0.453,-0.881,0.0
14.383,-0.629,-0.817,0.0
13.372,-0.588,-0.836,0.0
12.358,-0.547,-0.844,0.0
11.527,-0.513,-0.855,0.0
10.944,-0.49,-0.874,0.0
10.333,-0.465,-0.885,0.0
14.173,-0.641,-0.819,0.0
13.235,-0.602,-0.841,0.0
12.258,-0.56,-0.849,0.0
11.39,-0.524,-0.856,0.0
10.81,-0.5,-0.874,0.0
10.237,-0.476,-0.887,0.0
14.053,-0.656,-0.825,0.0
13.07,-0.614,-0.842,0.0
12.117,-0.572,-0.851,0.0
11.309,-0.537,-0.86,0.0
10.708,-0.511,-0.876,0.0
10.148,-0.487,-0.888,0.0
13.903,-0.67,-0.829,0.0
12.976,-0.629,-0.848,0.0
11.987,-0.584,-0.852,0.0
11.203,-0.549,-0.862,0.0
10.612,-0.523,-0.877,0.0
10.066,-0.499,-0.89,0.0
13.673,-0.68,-0.827,0.0
12.764,-0.638,-0.845,0.0
11.831,-0.594,-0.851,0.0
11.132,-0.562,-0.866,0.0
10.526,-0.535,-0.879,0.0
9.99,-0.51,-0.892,0.0
13.601,-0.697,-0.834,0.0
12.564,-0.647,-0.842,0.0
11.744,-0.608,-0.854,0.0
11.023,-0.574,-0.866,0.0
10.449,-0.547,-0.881,0.0
9.937,-0.523,-0.895,0.0
13.457,-0.71,-0.835,0.0
12.463,-0.661,-0.845,0.0
11.623,-0.619,-0.854,0.0
10.978,-0.588,-0.871,0.0
10.395,-0.56,-0.884,0.0
9.862,-0.534,-0.895,0.0
13.343,-0.724,-0.838,0.0
12.327,-0.672,-0.844,0.0
11.529,-0.632,-0.856,0.0
10.89,-0.6,-0.871,0.0
10.303,-0.57,-0.883,0.0
9.8,-0.545,-0.897,0.0
13.17,-0.734,-0.836,0.0
12.276,-0.688,-0.849,0.0
11.492,-0.647,-0.86,0.0
10.837,-0.613,-0.874,0.0
10.241,-0.582,-0.885,0.0
9.752,-0.557,-0.898,0.0
13.192,-0.755,-0.846,0.0
12.197,-0.702,-0.851,0.0
11.389,-0.658,-0.86,0.0
10.792,-0.627,-0.877,0.0
10.192,-0.595,-0.887,0.0
9.715,-0.57,-0.901,0.0
13.001,-0.764,-0.841,0.0
12.112,-0.715,-0.853,0.0
11.318,-0.671,-0.861,0.0
10.738,-0.64,-0.879,0.0
10.153,-0.608,-0.889,0.0
9.652,-0.581,-0.901,0.0
20.004,-1.206,-1.306,0.0
12.022,-0.728,-0.853,0.0
11.263,-0.685,-0.863,0.0
10.655,-0.651,-0.878,0.0
10.131,-0.622,-0.893,0.0
9.602,-0.593,-0.901,0.0
20.056,-1.24,-1.32,0.0
11.952,-0.742,-0.854,0.0
11.205,-0.699,-0.864,0.0
10.604,-0.664,-0.879,0.0
10.08,-0.635,-0.893,0.0
9.563,-0.605,-0.902,0.0
20.048,-1.27,-1.329,0.0
11.907,-0.757,-0.856,0.0
11.164,-0.713,-0.866,0.0
10.55,-0.677,-0.88,0.0
10.01,-0.645,-0.891,0.0
9.546,-0.618,-0.905,0.0
20.063,-1.3,-1.338,0.0
11.854,-0.772,-0.858,0.0
11.12,-0.727,-0.867,0.0
10.551,-0.693,-0.884,0.0
9.975,-0.658,-0.892,0.0
9.507,-0.63,-0.905,0.0
12.585,-0.834,-0.844,0.0
11.818,-0.787,-0.859,0.0
11.081,-0.741,-0.868,0.0
10.474,-0.703,-0.881,0.0
9.94,-0.67,-0.893,0.0
9.504,-0.644,-0.908,0.0
12.63,-0.856,-0.851,0.0
11.741,-0.799,-0.858,0.0
11.063,-0.756,-0.871,0.0
10.45,-0.717,-0.883,0.0
9.921,-0.684,-0.894,0.0
9.496,-0.658,-0.91,0.0
12.5,-0.866,-0.846,0.0
11.724,-0.815,-0.86,0.0
11.023,-0.77,-0.871,0.0
10.432,-0.732,-0.884,0.0
9.892,-0.697,-0.894,0.0
9.476,-0.67,-0.91,0.0
12.41,-0.878,-0.843,0.0
11.695,-0.83,-0.861,0.0
11.021,-0.786,-0.873,0.0
10.395,-0.744,-0.883,0.0
9.874,-0.71,-0.895,0.0
9.435,-0.681,-0.909,0.0
12.44,-0.898,-0.848,0.0
11.665,-0.845,-0.861,0.0
10.971,-0.798,-0.871,0.0
10.385,-0.759,-0.884,0.0
9.881,-0.725,-0.897,0.0
9.397,-0.692,-0.907,0.0
12.4,-0.913,-0.847,0.0
11.634,-0.86,-0.86,0.0
10.986,-0.815,-0.874,0.0
10.384,-0.773,-0.886,0.0
9.859,-0.737,-0.897,0.0
9.389,-0.705,-0.907,0.0
12.381,-0.929,-0.848,0.0
11.623,-0.876,-0.861,0.0
10.967,-0.829,-0.874,0.0
10.369,-0.787,-0.886,0.0
9.852,-0.751,-0.897,0.0
9.388,-0.718,-0.908,0.0
12.347,-0.944,-0.846,0.0
11.644,-0.894,-0.863,0.0
10.96,-0.844,-0.874,0.0
10.37,-0.802,-0.886,0.0
9.856,-0.765,-0.898,0.0
9.35,-0.728,-0.905,0.0
12.365,-0.963,-0.848,0.0
11.63,-0.909,-0.863,0.0
10.972,-0.861,-0.875,0.0
10.375,-0.817,-0.887,0.0
9.83,-0.777,-0.896,0.0
9.395,-0.745,-0.909,0.0
12.376,-0.981,-0.849,0.0
11.644,-0.926,-0.864,0.0
10.978,-0.876,-0.876,0.0
10.368,-0.83,-0.886,0.0
9.825,-0.79,-0.895,0.0
9.383,-0.757,-0.908,0.0
12.392,-0.999,-0.849,0.0
11.628,-0.941,-0.862,0.0
10.995,-0.893,-0.877,0.0
10.376,-0.845,-0.886,0.0
9.85,-0.805,-0.897,0.0
9.399,-0.771,-0.908,0.0
12.389,-1.016,-0.848,0.0
11.65,-0.958,-0.863,0.0
10.99,-0.907,-0.875,0.0
10.394,-0.861,-0.887,0.0
9.872,-0.82,-0.898,0.0
9.356,-0.78,-0.903,0.0
12.432,-1.036,-0.85,0.0
11.684,-0.977,-0.864,0.0
11.024,-0.925,-0.876,0.0
10.419,-0.877,-0.887,0.0
9.884,-0.835,-0.897,0.0
9.419,-0.798,-0.908,0.0
12.473,-1.056,-0.85,0.0
11.717,-0.995,-0.864,0.0
11.057,-0.942,-0.877,0.0
10.451,-0.893,-0.888,0.0
9.898,-0.849,-0.896,0.0
9.448,-0.813,-0.909,0.0
12.539,-1.078,-0.852,0.0
11.741,-1.013,-0.863,0.0
11.092,-0.96,-0.877,0.0
10.468,-0.908,-0.887,0.0
9.947,-0.866,-0.899,0.0
9.489,-0.829,-0.91,0.0
12.59,-1.098,-0.853,0.0
11.768,-1.03,-0.862,0.0
11.106,-0.975,-0.876,0.0
10.503,-0.925,-0.888,0.0
9.968,-0.88,-0.898,0.0
9.476,-0.84,-0.906,0.0
12.671,-1.122,-0.855,0.0
11.784,-1.046,-0.86,0.0
11.133,-0.991,-0.874,0.0
10.551,-0.942,-0.888,0.0
9.991,-0.895,-0.897,0.0
9.5,-0.854,-0.906,0.0
12.66,-1.136,-0.85,0.0
11.844,-1.066,-0.861,0.0
11.243,-1.015,-0.879,0.0
10.582,-0.958,-0.887,0.0
10.027,-0.91,-0.896,0.0
9.536,-0.868,-0.906,0.0
12.7,-1.155,-0.848,0.0
11.897,-1.085,-0.86,0.0
11.292,-1.033,-0.879,0.0
10.569,-0.969,-0.882,1.0
10.077,-0.927,-0.897,0.0
9.573,-0.883,-0.905,0.0
12.889,-1.188,-0.855,0.0
11.99,-1.108,-0.862,0.0
11.316,-1.048,-0.876,0.0
10.638,-0.988,-0.883,0.0
10.132,-0.944,-0.898,0.0
9.616,-0.898,-0.905,0.0
12.884,-1.202,-0.849,0.0
12.075,-1.13,-0.863,0.0
11.352,-1.065,-0.874,0.0
10.749,-1.011,-0.888,0.0
10.214,-0.963,-0.9,0.0
9.68,-0.915,-0.907,0.0
12.947,-1.223,-0.848,0.0
12.136,-1.149,-0.861,0.0
11.394,-1.082,-0.871,0.0
10.84,-1.032,-0.89,0.0
10.259,-0.979,-0.899,0.0
9.722,-0.93,-0.906,0.0
13.018,-1.244,-0.845,0.0
12.269,-1.175,-0.864,0.0
11.442,-1.099,-0.869,0.0
10.886,-1.048,-0.888,0.0
10.306,-0.995,-0.897,0.0
9.765,-0.945,-0.904,0.0
13.073,-1.263,-0.842,0.0
12.326,-1.194,-0.861,0.0
11.479,-1.115,-0.865,0.0
10.916,-1.063,-0.884,0.0
10.363,-1.011,-0.896,0.0
9.847,-0.963,-0.906,0.0
13.142,-1.284,-0.839,0.0
12.368,-1.211,-0.857,0.0
11.652,-1.144,-0.871,0.0
10.977,-1.08,-0.882,0.0
10.406,-1.026,-0.894,0.0
9.915,-0.98,-0.906,0.0
13.196,-1.303,-0.834,0.0
12.476,-1.234,-0.857,0.0
11.667,-1.157,-0.865,0.0
11.034,-1.097,-0.88,0.0
10.471,-1.043,-0.892,0.0
9.97,-0.995,-0.905,0.0
13.408,-1.337,-0.839,0.0
12.58,-1.257,-0.856,0.0
11.834,-1.185,-0.87,0.0
11.139,-1.118,-0.881,0.0
10.517,-1.058,-0.889,0.0
10.045,-1.013,-0.905,0.0
13.611,-1.37,-0.842,0.0
12.596,-1.271,-0.848,0.0
11.889,-1.202,-0.865,0.0
11.237,-1.138,-0.881,0.0
10.603,-1.076,-0.889,0.0
10.118,-1.029,-0.904,0.0
13.703,-1.392,-0.838,0.0
12.779,-1.301,-0.851,0.0
12.054,-1.229,-0.869,0.0
11.299,-1.155,-0.877,0.0
10.696,-1.095,-0.889,0.0
10.195,-1.046,-0.903,0.0
13.831,-1.417,-0.835,0.0
12.885,-1.323,-0.848,0.0
12.124,-1.247,-0.864,0.0
11.368,-1.171,-0.874,0.0
10.748,-1.11,-0.885,0.0
10.258,-1.061,-0.901,0.0
14.015,-1.448,-0.836,0.0
12.973,-1.343,-0.844,0.0
12.196,-1.265,-0.86,0.0
11.475,-1.192,-0.873,0.0
10.896,-1.134,-0.888,0.0
10.332,-1.077,-0.899,0.0
14.137,-1.472,-0.832,0.0
13.137,-1.37,-0.844,0.0
12.361,-1.292,-0.861,0.0
11.625,-1.217,-0.875,0.0
11.024,-1.156,-0.89,0.0
10.382,-1.091,-0.894,0.0
14.058,-1.475,-0.815,0.0
13.3,-1.398,-0.843,0.0
12.423,-1.308,-0.855,0.0
11.672,-1.231,-0.868,0.0
11.129,-1.176,-0.888,0.0
10.472,-1.108,-0.893,0.0
13.88,-1.467,-0.793,0.0
13.398,-1.418,-0.838,0.0
12.491,-1.324,-0.849,0.0
11.804,-1.253,-0.868,0.0
11.247,-1.196,-0.888,0.0
10.469,-1.115,-0.883,0.0
13.695,-1.457,-0.77,0.0
13.547,-1.443,-0.835,0.0
12.736,-1.359,-0.854,0.0
11.915,-1.273,-0.865,0.0
11.303,-1.21,-0.882,0.0
10.72,-1.149,-0.895,0.0
13.513,-1.446,-0.747,0.0
13.505,-1.447,-0.82,0.0
12.957,-1.391,-0.857,0.0
12.046,-1.295,-0.863,0.0
11.404,-1.228,-0.879,0.0
10.796,-1.164,-0.891,0.0
13.376,-1.44,-0.727,1.0
13.357,-1.44,-0.798,0.0
13.217,-1.427,-0.861,0.0
12.21,-1.32,-0.863,0.0
11.511,-1.246,-0.876,0.0
10.969,-1.189,-0.894,0.0
13.259,-1.435,-0.708,1.0
13.166,-1.427,-0.774,0.0
13.187,-1.431,-0.846,0.0
12.292,-1.336,-0.857,0.0
11.604,-1.263,-0.872,0.0
11.066,-1.206,-0.891,0.0
13.269,-1.443,-0.695,1.0
13.099,-1.427,-0.757,0.0
13.169,-1.436,-0.832,0.0
12.544,-1.37,-0.862,0.0
11.723,-1.282,-0.869,0.0
11.199,-1.226,-0.89,0.0
13.386,-1.463,-0.688,1.0
12.935,-1.415,-0.734,1.0
12.96,-1.42,-0.805,0.0
12.685,-1.391,-0.858,0.0
11.853,-1.301,-0.866,0.0
11.275,-1.239,-0.885,0.0
13.584,-1.491,-0.684,1.0
12.845,-1.411,-0.716,1.0
12.779,-1.406,-0.781,0.0
12.775,-1.407,-0.851,0.0
12.045,-1.328,-0.867,0.0
11.382,-1.256,-0.881,0.0
13.833,-1.524,-0.682,1.0
12.869,-1.419,-0.703,1.0
12.709,-1.403,-0.763,0.0
12.695,-1.403,-0.832,0.0
12.169,-1.346,-0.863,0.0
11.499,-1.273,-0.878,0.0
14.097,-1.559,-0.679,3.0
12.971,-1.435,-0.695,1.0
12.606,-1.396,-0.743,0.0
12.599,-1.397,-0.812,0.0
12.383,-1.374,-0.864,0.0
11.662,-1.295,-0.877,0.0
14.181,-1.573,-0.668,9.0
13.167,-1.462,-0.691,1.0
12.536,-1.393,-0.725,0.0
12.52,-1.392,-0.793,0.0
12.465,-1.387,-0.856,0.0
11.764,-1.31,-0.871,0.0
14.318,-1.592,-0.658,14.0
13.362,-1.487,-0.686,1.0
12.556,-1.398,-0.712,1.0
12.478,-1.391,-0.776,0.0
12.462,-1.39,-0.842,0.0
11.906,-1.329,-0.868,0.0
14.412,-1.606,-0.646,14.0
13.638,-1.521,-0.685,1.0
12.626,-1.409,-0.702,1.0
12.421,-1.387,-0.758,0.0
12.423,-1.388,-0.825,0.0
12.159,-1.36,-0.873,0.0
14.562,-1.626,-0.636,14.0
13.932,-1.557,-0.683,3.0
12.79,-1.43,-0.696,1.0
12.373,-1.384,-0.741,0.0
12.385,-1.386,-0.808,0.0
12.3,-1.378,-0.869,0.0
14.895,-1.666,-0.634,14.0
14.043,-1.571,-0.672,9.0
12.999,-1.455,-0.692,1.0
12.367,-1.385,-0.726,1.0
12.358,-1.385,-0.792,0.0
12.326,-1.382,-0.856,0.0
15.187,-1.701,-0.628,14.0
14.164,-1.587,-0.662,12.0
13.246,-1.484,-0.689,1.0
12.406,-1.391,-0.713,1.0
12.335,-1.383,-0.775,0.0
12.333,-1.384,-0.841,0.0
15.521,-1.739,-0.624,17.0
14.296,-1.602,-0.651,13.0
13.517,-1.515,-0.687,1.0
12.521,-1.404,-0.705,1.0
12.33,-1.383,-0.76,0.0
12.339,-1.385,-0.827,0.0
15.829,-1.774,-0.617,21.0
14.453,-1.62,-0.64,13.0
13.837,-1.552,-0.687,1.0
12.692,-1.424,-0.699,1.0
12.322,-1.382,-0.745,0.0
12.328,-1.384,-0.811,0.0
16.119,-1.807,-0.608,21.0
14.623,-1.639,-0.63,12.0
13.991,-1.568,-0.677,7.0
12.911,-1.448,-0.695,1.0
12.346,-1.385,-0.731,0.0
12.362,-1.387,-0.798,0.0
16.501,-1.849,-0.603,17.0
14.83,-1.661,-0.621,12.0
14.136,-1.584,-0.667,11.0
13.169,-1.475,-0.693,1.0
12.404,-1.39,-0.719,1.0
12.372,-1.386,-0.783,0.0
16.807,-1.881,-0.593,15.0
15.102,-1.69,-0.613,12.0
14.282,-1.598,-0.656,13.0
13.42,-1.502,-0.69,1.0
12.513,-1.4,-0.71,1.0
12.383,-1.386,-0.769,0.0
17.312,-1.935,-0.59,18.0
15.816,-1.768,-0.623,20.0
14.441,-1.614,-0.645,13.0
13.732,-1.534,-0.688,1.0
12.685,-1.417,-0.703,1.0
12.407,-1.386,-0.754,0.0
17.596,-1.964,-0.577,17.0
16.051,-1.791,-0.612,21.0
14.581,-1.626,-0.633,11.0
14.003,-1.562,-0.684,4.0
12.885,-1.437,-0.698,1.0
12.449,-1.388,-0.741,0.0
18.099,-2.016,-0.571,20.0
16.386,-1.824,-0.604,15.0
14.807,-1.648,-0.624,12.0
14.12,-1.571,-0.672,8.0
13.127,-1.46,-0.695,1.0
12.539,-1.394,-0.731,1.0
18.353,-2.039,-0.556,18.0
16.979,-1.885,-0.605,22.0
15.145,-1.681,-0.62,12.0
14.335,-1.59,-0.664,12.0
13.388,-1.485,-0.692,1.0
12.64,-1.401,-0.721,1.0
18.745,-2.076,-0.544,19.0
17.285,-1.913,-0.594,20.0
15.78,-1.746,-0.626,19.0
14.534,-1.607,-0.655,12.0
13.665,-1.51,-0.689,1.0
12.8,-1.414,-0.713,1.0
19.277,-2.128,-0.535,21.0
17.627,-1.945,-0.583,16.0
16.09,-1.774,-0.617,18.0
14.797,-1.63,-0.648,12.0
13.994,-1.541,-0.687,1.0
12.965,-1.427,-0.706,1.0
19.584,-2.154,-0.519,20.0
18.037,-1.982,-0.573,17.0
16.442,-1.806,-0.61,14.0
14.792,-1.623,-0.629,11.0
14.274,-1.566,-0.683,4.0
13.177,-1.444,-0.701,1.0
20.396,-2.233,-0.514,19.0
18.41,-2.014,-0.562,17.0
16.913,-1.849,-0.606,15.0
15.322,-1.674,-0.632,14.0
14.383,-1.57,-0.67,9.0
13.392,-1.461,-0.695,1.0
21.158,-2.306,-0.507,19.0
18.801,-2.048,-0.55,17.0
17.313,-1.884,-0.598,16.0
15.436,-1.678,-0.617,13.0
14.684,-1.595,-0.665,6.0
13.647,-1.481,-0.691,1.0
21.934,-2.379,-0.498,20.0
19.35,-2.096,-0.542,18.0
17.716,-1.918,-0.59,17.0
15.827,-1.711,-0.613,13.0
15.048,-1.626,-0.663,8.0
13.937,-1.504,-0.688,1.0
22.216,-2.396,-0.476,21.0
19.995,-2.154,-0.534,17.0
18.165,-1.955,-0.582,22.0
16.328,-1.755,-0.611,13.0
15.353,-1.649,-0.657,13.0
14.242,-1.528,-0.685,1.0
23.121,-2.479,-0.466,24.0
20.478,-2.193,-0.521,18.0
18.498,-1.978,-0.569,17.0
17.096,-1.826,-0.619,17.0
15.595,-1.664,-0.647,13.0
14.437,-1.539,-0.676,1.0
23.548,-2.508,-0.445,5.0
21.193,-2.255,-0.513,19.0
18.984,-2.017,-0.561,19.0
17.504,-1.857,-0.612,17.0
15.99,-1.695,-0.644,14.0
14.767,-1.563,-0.673,1.0
23.533,-2.49,-0.416,0.0
21.88,-2.312,-0.503,19.0
19.521,-2.06,-0.552,20.0
17.788,-1.874,-0.6,17.0
16.286,-1.714,-0.635,15.0
15.18,-1.595,-0.673,1.0
27.677,-2.906,-0.454,3.0
22.543,-2.364,-0.49,21.0
20.105,-2.105,-0.543,17.0
18.181,-1.901,-0.59,16.0
16.712,-1.745,-0.631,16.0
15.416,-1.607,-0.664,3.0
28.706,-2.991,-0.436,8.0
23.275,-2.421,-0.477,18.0
20.791,-2.159,-0.536,20.0
18.654,-1.934,-0.582,17.0
17.026,-1.763,-0.622,16.0
15.808,-1.634,-0.662,2.0
29.753,-3.074,-0.416,23.0
23.551,-2.429,-0.454,22.0
21.397,-2.204,-0.526,25.0
19.014,-1.955,-0.57,17.0
17.354,-1.781,-0.613,16.0
16.281,-1.668,-0.661,4.0
30.276,-3.101,-0.386,27.0
23.567,-2.409,-0.426,7.0
21.948,-2.24,-0.513,20.0
19.63,-2.0,-0.565,17.0
17.718,-1.802,-0.604,16.0
16.369,-1.662,-0.645,9.0
31.016,-3.147,-0.358,9.0
23.574,-2.387,-0.397,0.0
22.545,-2.279,-0.5,19.0
20.001,-2.018,-0.552,17.0
18.137,-1.827,-0.597,16.0
16.763,-1.685,-0.641,2.0
35.197,-3.536,-0.365,18.0
29.629,-2.971,-0.464,3.0
23.274,-2.329,-0.488,21.0
20.746,-2.072,-0.548,19.0
18.55,-1.849,-0.589,16.0
17.412,-1.733,-0.645,2.0
35.996,-3.58,-0.331,16.0
30.015,-2.979,-0.435,5.0
23.543,-2.331,-0.467,24.0
20.827,-2.058,-0.526,20.0
18.939,-1.868,-0.579,16.0
17.789,-1.751,-0.638,2.0
37.668,-3.705,-0.302,14.0
30.196,-2.964,-0.403,23.0
23.555,-2.307,-0.439,4.0
0.0,0.0,0.0,0.0
19.418,-1.894,-0.571,16.0
18.245,-1.775,-0.634,3.0
84.839,1.895,0.474,8.0
67.828,1.536,-0.003,7.0
0.0,0.0,0.0,0.0
0.0,0.0,0.0,0.0
0.0,0.0,0.0,0.0
28.208,0.673,-0.641,0.0
72.264,1.751,0.336,7.0
66.19,1.625,-0.065,5.0
0.0,0.0,0.0,0.0
0.0,0.0,0.0,0.0
32.027,0.815,-0.578,0.0
27.087,0.697,-0.642,0.0
71.807,1.877,0.264,16.0
64.763,1.711,-0.127,6.0
0.0,0.0,0.0,0.0
37.892,1.024,-0.507,0.0
30.938,0.845,-0.589,0.0
26.498,0.732,-0.654,0.0
71.289,1.996,0.19,11.0
63.162,1.787,-0.188,1.0
45.573,1.303,-0.394,0.0
35.592,1.028,-0.512,0.0
29.563,0.862,-0.593,0.0
25.944,0.764,-0.667,0.0
70.475,2.104,0.115,6.0
0.0,0.0,0.0,0.0
44.391,1.35,-0.43,0.0
34.82,1.069,-0.538,0.0
28.669,0.889,-0.605,1.0
25.049,0.784,-0.671,0.0
0.0,0.0,0.0,0.0
55.232,1.764,-0.281,0.0
41.583,1.34,-0.447,0.0
33.107,1.076,-0.547,0.0
28.587,0.937,-0.634,1.0
24.506,0.811,-0.683,0.0
60.38,2.02,-0.031,3.0
54.286,1.831,-0.335,1.0
39.659,1.349,-0.47,0.0
0.0,0.0,0.0,0.0
27.441,0.949,-0.64,0.0
23.871,0.832,-0.692,0.0
59.035,2.08,-0.097,4.0
47.401,1.683,-0.347,0.0
37.854,1.354,-0.492,0.0
31.582,1.139,-0.593,0.0
26.599,0.966,-0.65,0.0
23.305,0.853,-0.702,0.0
57.41,2.122,-0.16,2.0
44.807,1.668,-0.379,1.0
35.438,1.329,-0.501,0.0
29.859,1.128,-0.595,0.0
26.076,0.991,-0.668,0.0
22.642,0.867,-0.709,0.0
56.164,2.171,-0.222,1.0
44.759,1.742,-0.431,1.0
35.337,1.384,-0.541,0.0
29.284,1.155,-0.618,0.0
25.161,0.999,-0.674,0.0
21.947,0.877,-0.713,0.0
55.048,2.221,-0.284,3.0
40.31,1.637,-0.437,0.0
33.293,1.36,-0.551,0.0
27.984,1.15,-0.625,0.0
24.534,1.015,-0.687,0.0
21.603,0.899,-0.728,0.0
49.223,2.066,-0.314,0.0
0.0,0.0,0.0,0.0
0.0,0.0,0.0,0.0
27.063,1.157,-0.638,0.0
23.634,1.016,-0.691,0.0
20.917,0.905,-0.731,0.0
0.0,0.0,0.0,0.0
37.526,1.646,-0.5,0.0
30.579,1.349,-0.582,0.0
26.445,1.173,-0.656,0.0
22.985,1.025,-0.701,0.0
20.396,0.915,-0.739,0.0
44.138,1.995,-0.393,1.0
0.0,0.0,0.0,0.0
29.549,1.35,-0.6,0.0
25.19,1.156,-0.657,0.0
22.414,1.035,-0.713,0.0
19.846,0.921,-0.745,0.0
43.713,2.044,-0.446,0.0
33.772,1.587,-0.537,0.0
28.338,1.338,-0.612,0.0
24.56,1.166,-0.673,0.0
21.633,1.032,-0.716,0.0
19.431,0.931,-0.754,0.0
40.297,1.945,-0.464,1.0
32.501,1.576,-0.56,0.0
27.421,1.336,-0.629,0.0
23.743,1.162,-0.682,0.0
21.195,1.043,-0.73,0.0
18.811,0.93,-0.756,0.0
38.186,1.9,-0.491,0.0
31.208,1.56,-0.579,0.0
26.592,1.335,-0.645,0.0
23.13,1.166,-0.696,0.0
20.389,1.033,-0.73,0.0
18.228,0.928,-0.757,0.0
35.862,1.836,-0.51,0.0
29.779,1.531,-0.593,0.0
25.788,1.332,-0.661,0.0
22.474,1.165,-0.707,0.0
19.947,1.039,-0.741,0.0
17.948,0.939,-0.77,0.0
34.474,1.813,-0.537,0.0
0.0,0.0,0.0,0.0
24.929,1.322,-0.673,0.0
21.651,1.153,-0.711,0.0
19.395,1.037,-0.748,0.0
17.6,0.945,-0.779,0.0
0.0,0.0,0.0,0.0
27.359,1.483,-0.621,0.0
23.976,1.304,-0.681,0.0
21.077,1.151,-0.722,0.0
18.889,1.036,-0.755,0.0
17.164,0.945,-0.785,0.0
31.243,1.729,-0.575,0.0
26.517,1.473,-0.64,0.0
23.103,1.288,-0.689,0.0
20.514,1.148,-0.732,0.0
18.509,1.04,-0.766,0.0
16.788,0.946,-0.791,0.0
30.046,1.702,-0.596,0.0
25.523,1.451,-0.652,0.0
22.543,1.286,-0.705,0.0
19.892,1.139,-0.738,0.0
18.105,1.04,-0.776,0.0
16.418,0.947,-0.798,0.0
28.51,1.651,-0.606,0.0
24.792,1.441,-0.669,0.0
21.681,1.264,-0.709,0.0
19.402,1.135,-0.748,0.0
17.418,1.023,-0.772,0.0
16.069,0.947,-0.804,0.0
27.43,1.623,-0.624,0.0
23.667,1.404,-0.674,0.0
21.097,1.256,-0.721,0.0
18.783,1.122,-0.752,0.0
17.077,1.023,-0.782,0.0
15.599,0.938,-0.804,0.0
26.207,1.581,-0.634,0.0
23.137,1.4,-0.693,0.0
20.44,1.241,-0.729,0.0
18.22,1.11,-0.756,0.0
16.645,1.017,-0.787,0.0
15.279,0.936,-0.81,0.0
25.416,1.563,-0.653,0.0
22.34,1.378,-0.702,0.0
19.934,1.233,-0.741,0.0
17.8,1.104,-0.766,0.0
15.459,0.962,-0.754,0.0
14.988,0.935,-0.817,0.0
24.587,1.54,-0.669,0.0
21.613,1.357,-0.712,0.0
19.571,1.232,-0.757,0.0
17.451,1.102,-0.777,0.0
15.757,0.998,-0.792,0.0
14.654,0.931,-0.821,0.0
23.653,1.507,-0.679,0.0
20.956,1.338,-0.722,0.0
18.796,1.204,-0.755,0.0
17.004,1.092,-0.783,0.0
15.565,1.002,-0.806,0.0
14.346,0.926,-0.826,0.0
22.701,1.47,-0.686,0.0
20.282,1.316,-0.73,0.0
18.209,1.185,-0.76,0.0
16.503,1.076,-0.785,0.0
15.205,0.994,-0.811,0.0
14.04,0.921,-0.83,0.0
22.155,1.456,-0.703,0.0
19.735,1.3,-0.74,0.0
17.733,1.171,-0.767,0.0
16.151,1.069,-0.793,0.0
14.875,0.987,-0.816,0.0
13.721,0.913,-0.832,0.0
21.326,1.422,-0.71,0.0
19.161,1.281,-0.748,0.0
17.302,1.159,-0.775,0.0
15.743,1.057,-0.797,0.0
14.562,0.98,-0.821,0.0
13.539,0.913,-0.842,0.0
20.697,1.399,-0.721,0.0
18.599,1.26,-0.754,0.0
16.825,1.142,-0.779,0.0
15.363,1.045,-0.802,0.0
14.272,0.973,-0.827,0.0
13.252,0.906,-0.844,0.0
20.089,1.375,-0.731,0.0
18.146,1.245,-0.764,0.0
16.533,1.137,-0.791,0.0
15.097,1.04,-0.811,0.0
14.0,0.967,-0.833,0.0
13.003,0.9,-0.849,0.0
19.522,1.353,-0.74,0.0
17.681,1.227,-0.772,0.0
16.124,1.122,-0.797,0.0
14.647,1.021,-0.81,0.0
13.677,0.955,-0.835,0.0
12.707,0.889,-0.849,0.0
18.869,1.322,-0.745,0.0
17.18,1.206,-0.777,0.0
15.696,1.104,-0.8,0.0
14.425,1.016,-0.82,0.0
13.419,0.947,-0.84,0.0
12.369,0.875,-0.846,0.0
18.404,1.304,-0.755,0.0
16.766,1.189,-0.784,0.0
15.277,1.086,-0.802,0.0
14.108,1.005,-0.824,0.0
13.238,0.944,-0.85,0.0
12.181,0.871,-0.852,0.0
17.963,1.285,-0.765,0.0
16.356,1.172,-0.791,0.0
15.06,1.081,-0.815,0.0
13.834,0.995,-0.83,0.0
12.937,0.932,-0.851,0.0
11.873,0.857,-0.849,0.0
17.534,1.266,-0.774,0.0
15.939,1.152,-0.795,0.0
14.589,1.056,-0.812,0.0
13.632,0.989,-0.839,0.0
12.51,0.909,-0.842,0.0
11.704,0.852,-0.855,0.0
16.972,1.236,-0.775,0.0
15.463,1.127,-0.796,0.0
14.343,1.047,-0.821,0.0
13.334,0.975,-0.841,0.0
12.354,0.905,-0.851,0.0
11.474,0.842,-0.856,0.0
16.549,1.214,-0.782,0.0
15.214,1.118,-0.806,0.0
14.074,1.036,-0.827,0.0
13.061,0.962,-0.844,0.0
12.057,0.89,-0.849,0.0
11.279,0.834,-0.86,0.0
16.238,1.2,-0.792,0.0
14.957,1.107,-0.816,0.0
13.745,1.018,-0.829,0.0
12.741,0.945,-0.844,0.0
11.832,0.879,-0.852,0.0
11.103,0.826,-0.864,0.0
15.828,1.178,-0.797,0.0
14.557,1.084,-0.817,0.0
13.532,1.009,-0.837,0.0
12.525,0.935,-0.849,0.0
11.637,0.87,-0.856,0.0
10.897,0.816,-0.865,0.0
15.409,1.153,-0.8,0.0
14.242,1.067,-0.821,0.0
