X,Y,Z,Reflectivity
0.0,0.0,0.0,0.0
0.0,0.0,0.0,0.0
0.0,0.0,0.0,0.0
0.0,0.0,0.0,0.0
29.09,-0.254,-0.602,0.0
119.683,-1.08,0.801,6.0
0.0,0.0,0.0,0.0
0.0,0.0,0.0,0.0
0.0,0.0,0.0,0.0
33.721,-0.344,-0.548,0.0
28.629,-0.301,-0.629,0.0
120.35,-1.299,0.657,1.0
0.0,0.0,0.0,0.0
50.743,-0.577,-0.301,0.0
0.0,0.0,0.0,0.0
32.542,-0.389,-0.568,0.0
26.958,-0.331,-0.624,0.0
0.0,0.0,0.0,0.0
0.0,0.0,0.0,0.0
0.0,0.0,0.0,0.0
37.678,-0.508,-0.488,0.0
30.8,-0.424,-0.574,0.0
26.523,-0.373,-0.646,0.0
0.0,0.0,0.0,0.0
0.0,0.0,0.0,0.0
46.707,-0.699,-0.387,1.0
0.0,0.0,0.0,0.0
30.11,-0.469,-0.596,0.0
25.798,-0.41,-0.657,0.0
0.0,0.0,0.0,0.0
0.0,0.0,0.0,0.0
0.0,0.0,0.0,0.0
35.073,-0.599,-0.533,1.0
29.008,-0.504,-0.606,1.0
25.051,-0.444,-0.666,0.0
0.0,0.0,0.0,0.0
0.0,0.0,0.0,0.0
0.0,0.0,0.0,0.0
33.85,-0.64,-0.551,0.0
28.602,-0.55,-0.628,0.0
24.597,-0.48,-0.68,0.0
0.0,0.0,0.0,0.0
50.592,-1.018,-0.296,1.0
39.644,-0.81,-0.457,0.0
0.0,0.0,0.0,0.0
27.637,-0.582,-0.636,0.0
18.159,-0.388,-0.521,2.0
0.0,0.0,0.0,0.0
47.708,-1.048,-0.327,0.0
0.0,0.0,0.0,0.0
30.903,-0.699,-0.566,0.0
26.592,-0.61,-0.638,0.0
18.15,-0.422,-0.539,150.0
0.0,0.0,0.0,0.0
0.0,0.0,0.0,0.0
37.995,-0.918,-0.514,0.0
30.53,-0.748,-0.589,0.0
21.921,-0.544,-0.547,150.0
21.878,-0.55,-0.671,13.0
0.0,0.0,0.0,0.0
44.164,-1.135,-0.388,1.0
35.119,-0.914,-0.508,0.0
21.891,-0.577,-0.443,20.0
21.857,-0.583,-0.566,204.0
21.86,-0.591,-0.69,77.0
54.827,-1.496,-0.222,0.0
43.799,-1.208,-0.425,2.0
34.786,-0.971,-0.535,0.0
21.886,-0.618,-0.463,22.0
21.883,-0.625,-0.586,156.0
21.831,-0.631,-0.709,14.0
0.0,0.0,0.0,0.0
41.28,-1.217,-0.437,2.0
34.6,-1.031,-0.562,0.0
22.017,-0.664,-0.484,0.0
21.944,-0.669,-0.607,0.0
21.826,-0.673,-0.727,3.0
50.34,-1.564,-0.29,0.0
41.456,-1.302,-0.473,0.0
0.0,0.0,0.0,0.0
27.384,-0.878,-0.625,0.0
23.767,-0.77,-0.677,0.0
21.462,-0.702,-0.733,0.0
47.703,-1.573,-0.313,0.0
38.259,-1.274,-0.467,0.0
0.0,0.0,0.0,0.0
26.933,-0.915,-0.636,0.0
23.422,-0.804,-0.686,0.0
20.733,-0.719,-0.724,0.0
46.866,-1.635,-0.343,0.0
37.952,-1.337,-0.492,0.0
30.839,-1.097,-0.574,0.0
0.0,0.0,0.0,0.0
23.178,-0.84,-0.696,0.0
20.354,-0.745,-0.726,0.0
0.0,0.0,0.0,0.0
37.266,-1.385,-0.511,0.0
30.438,-1.142,-0.589,0.0
25.788,-0.976,-0.647,0.0
22.847,-0.873,-0.702,0.0
20.267,-0.781,-0.737,0.0
45.103,-1.748,-0.395,0.0
0.0,0.0,0.0,0.0
0.0,0.0,0.0,0.0
0.0,0.0,0.0,0.0
22.539,-0.905,-0.708,0.0
19.888,-0.805,-0.737,0.0
0.0,0.0,0.0,0.0
0.0,0.0,0.0,0.0
29.631,-1.226,-0.612,0.0
25.083,-1.047,-0.662,0.0
22.011,-0.927,-0.705,0.0
19.63,-0.833,-0.739,0.0
43.002,-1.834,-0.431,0.0
34.94,-1.502,-0.546,0.0
0.0,0.0,0.0,0.0
24.475,-1.069,-0.661,0.0
21.766,-0.959,-0.71,0.0
19.502,-0.866,-0.746,0.0
20.025,-0.893,-0.212,0.0
20.112,-0.904,-0.326,0.0
0.0,0.0,0.0,0.0
24.045,-1.098,-0.662,0.0
21.398,-0.984,-0.71,0.0
19.47,-0.903,-0.756,0.0
20.012,-0.931,-0.223,27.0
20.031,-0.939,-0.335,23.0
20.05,-0.947,-0.448,16.0
20.087,-0.956,-0.564,0.0
20.029,-0.96,-0.675,1.0
19.284,-0.932,-0.758,0.0
19.994,-0.969,-0.232,37.0
20.02,-0.978,-0.345,28.0
20.047,-0.986,-0.458,27.0
20.063,-0.994,-0.573,20.0
20.004,-0.998,-0.683,9.0
19.895,-1.0,-0.791,0.0
20.015,-1.009,-0.242,29.0
20.031,-1.017,-0.354,27.0
20.046,-1.025,-0.467,29.0
20.068,-1.033,-0.582,28.0
20.033,-1.039,-0.693,11.0
0.0,0.0,0.0,0.0
20.07,-1.051,-0.251,1.0
20.076,-1.059,-0.363,3.0
20.059,-1.065,-0.475,8.0
20.081,-1.073,-0.59,3.0
20.068,-1.079,-0.702,3.0
18.596,-1.007,-0.755,0.0
38.639,-2.099,-0.498,0.0
0.0,0.0,0.0,0.0
26.47,-1.456,-0.637,0.0
23.335,-1.292,-0.694,0.0
19.944,-1.112,-0.705,1.0
18.555,-1.041,-0.76,0.0
38.779,-2.181,-0.512,0.0
0.0,0.0,0.0,0.0
26.103,-1.487,-0.637,0.0
19.976,-1.145,-0.601,0.0
19.95,-1.15,-0.712,3.0
18.363,-1.065,-0.758,0.0
20.004,-1.163,-0.27,54.0
19.999,-1.17,-0.382,63.0
19.989,-1.176,-0.493,151.0
19.983,-1.183,-0.606,150.0
19.972,-1.19,-0.718,23.0
20.059,-1.202,-0.833,0.0
19.98,-1.2,-0.275,151.0
19.988,-1.208,-0.386,151.0
19.96,-1.213,-0.497,10.0
19.981,-1.221,-0.611,0.0
19.943,-1.226,-0.721,3.0
18.288,-1.131,-0.764,0.0
20.078,-1.244,-0.281,16.0
20.099,-1.253,-0.393,27.0
20.109,-1.26,-0.505,26.0
20.125,-1.269,-0.62,23.0
19.939,-1.264,-0.725,2.0
20.165,-1.286,-0.846,0.0
20.059,-1.281,-0.284,27.0
20.063,-1.289,-0.396,31.0
20.085,-1.297,-0.508,31.0
20.119,-1.306,-0.623,28.0
19.913,-1.3,-0.727,3.0
20.181,-1.325,-0.85,0.0
20.042,-1.318,-0.287,27.0
20.067,-1.327,-0.399,26.0
20.103,-1.336,-0.511,20.0
20.119,-1.344,-0.625,3.0
19.853,-1.334,-0.728,2.0
18.095,-1.222,-0.764,0.0
20.05,-1.356,-0.289,17.0
20.096,-1.366,-0.401,3.0
25.93,-1.771,-0.662,0.0
22.572,-1.55,-0.704,0.0
19.825,-1.369,-0.728,2.0
18.112,-1.257,-0.766,0.0
0.0,0.0,0.0,0.0
0.0,0.0,0.0,0.0
25.648,-1.801,-0.656,0.0
22.654,-1.599,-0.707,0.0
19.745,-1.4,-0.726,2.0
18.026,-1.285,-0.763,0.0
0.0,0.0,0.0,0.0
30.102,-2.158,-0.603,0.0
25.523,-1.839,-0.653,0.0
22.504,-1.629,-0.703,0.0
19.722,-1.435,-0.725,1.0
18.047,-1.319,-0.764,0.0
0.0,0.0,0.0,0.0
0.0,0.0,0.0,0.0
26.089,-1.927,-0.667,0.0
22.499,-1.67,-0.702,0.0
20.189,-1.506,-0.741,0.0
18.125,-1.358,-0.766,0.0
35.091,-2.632,-0.507,1.0
30.095,-2.268,-0.601,0.0
26.032,-1.971,-0.663,0.0
22.663,-1.723,-0.705,0.0
20.187,-1.542,-0.74,0.0
18.002,-1.382,-0.759,0.0
32.203,-2.473,-0.462,2.0
30.738,-2.372,-0.611,0.0
25.998,-2.015,-0.66,0.0
22.49,-1.751,-0.697,0.0
20.093,-1.571,-0.734,0.0
18.101,-1.422,-0.762,0.0
30.819,-2.422,-0.438,1.0
29.472,-2.326,-0.581,1.0
26.198,-2.077,-0.661,0.0
22.369,-1.781,-0.69,0.0
20.096,-1.607,-0.731,0.0
18.161,-1.459,-0.761,0.0
31.6,-2.539,-0.444,9.0
27.282,-2.201,-0.534,1.0
26.598,-2.155,-0.667,0.0
22.816,-1.857,-0.7,0.0
20.212,-1.652,-0.732,0.0
18.27,-1.499,-0.762,0.0
29.939,-2.458,-0.415,27.0
26.199,-2.159,-0.507,2.0
25.252,-2.09,-0.628,1.0
22.921,-1.905,-0.698,0.0
20.4,-1.702,-0.734,0.0
18.443,-1.545,-0.765,0.0
29.752,-2.493,-0.405,8.0
26.532,-2.233,-0.507,6.0
23.809,-2.011,-0.586,2.0
23.411,-1.986,-0.707,0.0
20.607,-1.755,-0.736,0.0
18.365,-1.57,-0.757,0.0
29.87,-2.554,-0.399,11.0
26.16,-2.245,-0.493,23.0
23.058,-1.987,-0.561,2.0
22.407,-1.938,-0.67,1.0
20.667,-1.795,-0.732,0.0
18.598,-1.622,-0.761,0.0
29.892,-2.607,-0.389,151.0
25.765,-2.255,-0.477,26.0
23.294,-2.047,-0.559,5.0
21.15,-1.865,-0.626,1.0
20.867,-1.847,-0.732,0.0
18.598,-1.653,-0.755,0.0
29.886,-2.656,-0.379,7.0
26.156,-2.333,-0.475,25.0
23.202,-2.077,-0.549,14.0
20.433,-1.836,-0.597,2.0
19.928,-1.797,-0.692,0.0
18.737,-1.696,-0.753,0.0
29.863,-2.703,-0.367,18.0
26.99,-2.452,-0.48,15.0
22.639,-2.063,-0.526,21.0
20.468,-1.872,-0.59,2.0
19.033,-1.747,-0.653,1.0
18.756,-1.728,-0.746,0.0
29.867,-2.752,-0.355,31.0
28.404,-2.626,-0.493,1.0
22.518,-2.089,-0.514,20.0
20.751,-1.931,-0.59,4.0
18.459,-1.724,-0.625,2.0
18.034,-1.69,-0.71,1.0
29.842,-2.797,-0.342,2.0
23.625,-2.221,-0.399,0.0
22.829,-2.154,-0.511,19.0
20.113,-1.904,-0.562,16.0
18.486,-1.755,-0.618,3.0
17.374,-1.656,-0.675,1.0
35.502,-3.383,-0.389,12.0
29.127,-2.784,-0.478,0.0
22.963,-2.202,-0.502,23.0
19.924,-1.917,-0.547,18.0
18.644,-1.799,-0.614,5.0
16.938,-1.64,-0.65,1.0
35.44,-3.431,-0.371,15.0
23.683,-2.3,-0.377,0.0
23.063,-2.246,-0.493,21.0
20.268,-1.98,-0.545,16.0
18.62,-1.825,-0.603,15.0
16.978,-1.669,-0.642,2.0
35.43,-3.483,-0.351,19.0
23.685,-2.336,-0.363,0.0
23.258,-2.3,-0.484,26.0
20.459,-2.03,-0.539,20.0
18.416,-1.832,-0.586,16.0
17.241,-1.721,-0.642,2.0
35.506,-3.543,-0.331,19.0
29.736,-2.976,-0.439,8.0
23.314,-2.34,-0.471,21.0
20.854,-2.099,-0.537,19.0
18.615,-1.879,-0.581,16.0
17.173,-1.739,-0.63,11.0
35.888,-3.633,-0.313,13.0
29.828,-3.028,-0.422,8.0
23.557,-2.398,-0.462,96.0
21.151,-2.159,-0.532,21.0
18.795,-1.924,-0.575,17.0
17.09,-1.755,-0.616,17.0
33.123,-3.4,-0.268,6.0
29.83,-3.07,-0.403,24.0
23.539,-2.429,-0.446,15.0
21.263,-2.2,-0.52,23.0
19.006,-1.972,-0.569,19.0
17.307,-1.801,-0.612,16.0
33.1,-3.443,-0.245,75.0
29.872,-3.115,-0.384,26.0
23.514,-2.458,-0.429,0.0
21.328,-2.236,-0.508,18.0
19.275,-2.026,-0.563,23.0
17.541,-1.849,-0.608,19.0
33.096,-3.487,-0.222,89.0
30.269,-3.197,-0.367,26.0
25.646,-2.715,-0.451,0.0
21.737,-2.308,-0.502,20.0
19.202,-2.044,-0.547,18.0
17.686,-1.887,-0.6,19.0
33.099,-3.531,-0.198,74.0
30.596,-3.271,-0.349,16.0
24.753,-2.653,-0.417,19.0
21.909,-2.354,-0.49,19.0
19.474,-2.098,-0.541,18.0
17.818,-1.924,-0.592,19.0
38.637,-4.171,-0.203,11.0
31.666,-3.426,-0.337,13.0
24.923,-2.703,-0.4,18.0
22.337,-2.428,-0.482,20.0
19.581,-2.134,-0.529,19.0
17.956,-1.961,-0.582,18.0
38.975,-4.255,-0.174,15.0
32.072,-3.51,-0.317,12.0
0.0,0.0,0.0,0.0
22.469,-2.47,-0.467,22.0
19.851,-2.187,-0.52,22.0
18.152,-2.005,-0.574,18.0
0.0,0.0,0.0,0.0
35.568,-3.935,-0.323,7.0
0.0,0.0,0.0,0.0
22.758,-2.528,-0.455,22.0
20.434,-2.275,-0.519,27.0
18.279,-2.04,-0.563,20.0
42.038,-4.689,-0.119,17.0
35.817,-4.004,-0.295,18.0
0.0,0.0,0.0,0.0
23.018,-2.584,-0.441,19.0
20.123,-2.264,-0.494,17.0
18.522,-2.088,-0.554,18.0
42.723,-4.815,-0.084,18.0
36.26,-4.094,-0.267,13.0
28.908,-3.27,-0.369,27.0
23.211,-2.631,-0.424,20.0
20.527,-2.332,-0.486,17.0
18.62,-2.119,-0.541,17.0
0.0,0.0,0.0,0.0
37.219,-4.243,-0.242,16.0
29.599,-3.381,-0.352,25.0
23.824,-2.726,-0.414,23.0
21.155,-2.425,-0.482,19.0
18.962,-2.178,-0.534,25.0
46.316,-5.319,-0.01,21.0
38.047,-4.377,-0.213,21.0
30.498,-3.515,-0.335,27.0
24.325,-2.808,-0.401,17.0
21.451,-2.481,-0.469,19.0
19.191,-2.224,-0.523,27.0
46.979,-5.442,0.032,21.0
38.633,-4.483,-0.181,14.0
31.08,-3.613,-0.313,11.0
24.59,-2.863,-0.382,18.0
21.833,-2.547,-0.457,19.0
19.441,-2.272,-0.512,18.0
0.0,0.0,0.0,0.0
39.01,-4.565,-0.145,14.0
35.354,-4.143,-0.322,9.0
25.32,-2.972,-0.369,17.0
22.239,-2.615,-0.444,19.0
19.772,-2.329,-0.501,18.0
51.095,-6.016,0.133,26.0
0.0,0.0,0.0,0.0
35.549,-4.198,-0.289,24.0
28.088,-3.322,-0.383,10.0
22.672,-2.686,-0.431,20.0
20.119,-2.387,-0.49,18.0
51.994,-6.168,0.186,9.0
42.507,-5.05,-0.076,17.0
36.04,-4.288,-0.258,13.0
28.197,-3.36,-0.356,15.0
23.102,-2.757,-0.416,21.0
20.557,-2.457,-0.481,20.0
63.44,-7.58,0.29,1.0
0.0,0.0,0.0,0.0
37.192,-4.456,-0.229,15.0
29.41,-3.528,-0.342,17.0
23.637,-2.84,-0.402,22.0
20.977,-2.524,-0.469,21.0
65.865,-7.923,0.368,4.0
46.269,-5.573,0.01,21.0
38.077,-4.592,-0.196,23.0
29.785,-3.597,-0.316,20.0
24.25,-2.932,-0.388,21.0
21.279,-2.576,-0.454,20.0
83.558,-10.115,0.553,13.0
46.939,-5.689,0.058,21.0
38.611,-4.685,-0.158,14.0
30.645,-3.723,-0.293,9.0
24.911,-3.03,-0.372,20.0
21.694,-2.642,-0.441,21.0
83.941,-10.221,0.642,6.0
0.0,0.0,0.0,0.0
0.0,0.0,0.0,0.0
35.494,-4.336,-0.303,12.0
25.208,-3.083,-0.35,17.0
22.059,-2.702,-0.425,19.0
86.856,-10.635,0.757,4.0
52.102,-6.386,0.175,11.0
41.376,-5.077,-0.082,11.0
35.91,-4.411,-0.268,23.0
25.833,-3.176,-0.331,13.0
22.652,-2.788,-0.412,22.0
90.771,-11.172,0.888,7.0
66.881,-8.239,0.296,2.0
45.98,-5.669,-0.043,20.0
36.869,-4.551,-0.235,14.0
0.0,0.0,0.0,0.0
23.202,-2.87,-0.397,21.0
94.015,-11.626,1.022,13.0
66.87,-8.276,0.368,9.0
46.34,-5.74,0.007,21.0
37.689,-4.673,-0.199,22.0
29.334,-3.64,-0.312,18.0
23.786,-2.954,-0.381,24.0
73.214,-9.093,0.875,20.0
83.531,-10.383,0.551,7.0
46.928,-5.837,0.058,21.0
38.399,-4.78,-0.162,14.0
30.429,-3.791,-0.291,9.0
24.284,-3.028,-0.362,24.0
76.657,-9.559,1.001,12.0
76.63,-9.562,0.59,15.0
51.1,-6.381,0.12,8.0
0.0,0.0,0.0,0.0
35.576,-4.449,-0.3,15.0
0.0,0.0,0.0,0.0
76.613,-9.588,1.086,20.0
76.582,-9.59,0.676,19.0
51.957,-6.51,0.181,16.0
40.971,-5.137,-0.081,14.0
35.921,-4.507,-0.263,22.0
26.189,-3.288,-0.332,8.0
76.605,-9.618,1.173,21.0
76.579,-9.62,0.762,22.0
62.585,-7.866,0.288,5.0
45.938,-5.777,-0.039,10.0
36.95,-4.65,-0.229,14.0
0.0,0.0,0.0,0.0
76.632,-9.649,1.26,16.0
76.582,-9.647,0.849,20.0
76.55,-9.648,0.439,16.0
46.428,-5.854,0.013,21.0
37.802,-4.769,-0.191,23.0
29.565,-3.732,-0.308,23.0
76.682,-9.68,1.349,13.0
76.617,-9.675,0.937,18.0
76.561,-9.671,0.526,26.0
47.349,-5.984,0.067,21.0
38.446,-4.861,-0.15,14.0
30.768,-3.892,-0.285,10.0
76.703,-9.702,1.436,5.0
76.592,-9.691,1.023,13.0
76.556,-9.689,0.613,25.0
50.675,-6.416,0.129,8.0
0.0,0.0,0.0,0.0
35.748,-4.529,-0.291,12.0
86.836,-11.003,1.724,3.0
76.62,-9.711,1.111,5.0
76.55,-9.704,0.701,20.0
52.298,-6.631,0.193,10.0
43.184,-5.477,-0.071,4.0
36.176,-4.589,-0.253,17.0
86.626,-10.992,1.82,8.0
117.468,-14.907,1.839,7.0
76.567,-9.718,0.788,14.0
76.52,-9.713,0.37,8.0
46.123,-5.856,-0.023,20.0
37.179,-4.721,-0.218,17.0
86.773,-11.021,1.921,10.0
135.977,-17.271,2.282,9.0
76.594,-9.729,0.875,13.0
76.501,-9.718,0.457,18.0
46.67,-5.929,0.029,21.0
38.007,-4.829,-0.179,21.0
69.62,-8.848,1.621,3.0
118.967,-15.119,2.132,9.0
76.596,-9.734,0.963,8.0
76.525,-9.725,0.545,22.0
47.347,-6.017,0.083,21.0
38.602,-4.906,-0.138,14.0
69.543,-8.84,1.698,4.0
119.082,-15.136,2.27,8.0
112.866,-14.344,1.547,9.0
76.531,-9.725,0.632,22.0
0.0,0.0,0.0,0.0
0.0,0.0,0.0,0.0
69.53,-8.838,1.777,4.0
119.058,-15.13,2.405,7.0
117.5,-14.929,1.745,4.0
76.551,-9.724,0.718,18.0
52.504,-6.669,0.212,5.0
0.0,0.0,0.0,0.0
69.591,-8.841,1.858,3.0
86.645,-11.004,1.85,10.0
117.537,-14.924,1.878,7.0
76.57,-9.72,0.807,15.0
76.504,-9.709,0.395,9.0
46.19,-5.861,-0.008,21.0
69.654,-8.842,1.939,4.0
86.956,-11.034,1.955,12.0
136.002,-17.251,2.329,5.0
76.574,-9.71,0.893,14.0
76.532,-9.702,0.482,19.0
47.03,-5.96,0.044,21.0
69.747,-8.843,2.02,4.0
69.784,-8.843,1.647,3.0
76.692,-9.714,1.399,4.0
76.568,-9.695,0.979,16.0
76.545,-9.688,0.568,23.0
50.557,-6.397,0.105,5.0
69.876,-8.845,2.102,5.0
69.975,-8.853,1.73,4.0
87.132,-11.017,1.688,13.0
76.607,-9.682,1.065,15.0
76.573,-9.673,0.653,27.0
0.0,0.0,0.0,0.0
69.973,-8.84,2.184,4.0
70.17,-8.859,1.813,4.0
87.039,-10.982,1.782,29.0
76.61,-9.661,1.15,17.0
76.57,-9.651,0.738,23.0
76.564,-9.645,0.328,5.0
70.301,-8.861,2.271,4.0
70.571,-8.888,1.901,4.0
86.541,-10.892,1.867,7.0
76.613,-9.637,1.234,18.0
76.591,-9.628,0.823,22.0
62.711,-7.878,0.337,7.0
70.783,-8.897,2.365,3.0
75.695,-9.507,2.122,12.0
86.584,-10.867,1.962,6.0
76.616,-9.609,1.317,19.0
76.608,-9.601,0.907,16.0
76.597,-9.594,0.494,16.0
75.044,-9.404,2.588,8.0
75.723,-9.481,2.204,21.0
76.568,-9.579,1.817,9.0
76.64,-9.58,1.399,21.0
76.626,-9.571,0.988,15.0
76.65,-9.567,0.577,15.0
75.087,-9.377,2.67,28.0
78.883,-9.842,2.381,26.0
0.0,0.0,0.0,0.0
76.626,-9.543,1.481,23.0
76.659,-9.539,1.069,15.0
76.662,-9.532,0.658,3.0
75.306,-9.369,2.757,30.0
78.848,-9.8,2.463,9.0
75.309,-9.351,1.947,23.0
76.654,-9.508,1.562,23.0
73.563,-9.116,1.103,11.0
94.033,-11.643,0.905,8.0
0.0,0.0,0.0,0.0
75.34,-9.324,2.432,16.0
75.205,-9.297,2.022,23.0
73.331,-9.056,1.569,9.0
73.604,-9.081,1.179,12.0
73.227,-9.025,0.78,7.0
0.0,0.0,0.0,0.0
75.25,-9.27,2.506,21.0
76.712,-9.439,2.141,13.0
73.127,-8.987,1.641,26.0
73.644,-9.041,1.256,8.0
107.657,-13.203,1.257,9.0
73.807,-9.058,2.931,11.0
75.141,-9.21,2.579,26.0
75.049,-9.187,2.171,10.0
72.921,-8.916,1.709,19.0
100.844,-12.316,1.821,5.0
107.721,-13.14,1.365,9.0
0.0,0.0,0.0,0.0
75.295,-9.179,2.659,25.0
75.063,-9.139,2.245,8.0
73.08,-8.886,1.785,8.0
100.854,-12.248,1.92,7.0
73.292,-8.89,1.001,6.0
0.0,0.0,0.0,0.0
75.638,-9.168,2.745,19.0
75.091,-9.089,2.32,11.0
73.164,-8.843,1.858,8.0
73.326,-8.851,1.467,14.0
73.3,-8.836,1.072,16.0
73.909,-8.917,3.153,18.0
76.637,-9.232,2.855,9.0
74.977,-9.018,2.388,11.0
73.084,-8.778,1.926,11.0
72.941,-8.748,1.529,34.0
73.221,-8.77,1.139,8.0
73.944,-8.863,3.225,26.0
73.45,-8.79,2.806,11.0
75.065,-8.969,2.461,14.0
73.073,-8.717,1.994,7.0
72.883,-8.681,1.596,22.0
73.173,-8.703,1.207,10.0
73.719,-8.775,3.283,30.0
73.218,-8.701,2.863,23.0
74.95,-8.892,2.527,13.0
78.673,-9.319,2.219,11.0
73.535,-8.696,1.676,4.0
73.228,-8.647,1.274,12.0
73.199,-8.651,3.325,33.0
73.324,-8.65,2.934,26.0
74.703,-8.797,2.585,10.0
74.461,-8.754,2.166,6.0
73.384,-8.613,1.737,5.0
73.28,-8.587,1.339,8.0
73.546,-8.625,3.406,32.0
73.094,-8.556,2.989,12.0
74.787,-8.738,2.653,12.0
78.662,-9.175,2.356,10.0
73.388,-8.545,1.8,10.0
73.322,-8.523,1.402,23.0
73.307,-8.529,3.457,22.0
73.235,-8.504,3.055,25.0
72.636,-8.419,2.637,23.0
74.417,-8.609,2.29,7.0
73.446,-8.481,1.862,7.0
73.286,-8.447,1.462,23.0
73.003,-8.422,3.503,28.0
73.28,-8.437,3.119,25.0
72.711,-8.355,2.7,13.0
75.24,-8.628,2.378,21.0
73.464,-8.408,1.923,14.0
75.185,-8.589,1.561,15.0
73.075,-8.356,3.565,32.0
73.475,-8.384,3.186,14.0
73.051,-8.318,2.771,25.0
75.326,-8.56,2.44,51.0
74.663,-8.468,2.013,16.0
75.155,-8.506,1.619,24.0
72.028,-8.16,3.571,26.0
72.971,-8.249,3.22,16.0
72.23,-8.148,2.795,27.0
75.083,-8.451,2.489,12.0
74.606,-8.38,2.068,33.0
75.157,-8.425,1.676,24.0
33.209,-3.725,1.671,29.0
33.204,-3.716,1.49,16.0
33.194,-3.707,1.309,3.0
72.463,-8.076,2.456,15.0
75.034,-8.344,2.135,20.0
75.226,-8.348,1.731,19.0
33.185,-3.685,1.694,81.0
33.181,-3.676,1.513,80.0
33.172,-3.667,1.332,75.0
33.159,-3.657,1.147,67.0
33.14,-3.647,0.966,50.0
33.155,-3.64,0.786,44.0
33.179,-3.646,1.717,80.0
33.173,-3.636,1.536,84.0
33.162,-3.626,1.354,82.0
33.155,-3.617,1.169,80.0
33.146,-3.608,0.989,79.0
33.127,-3.597,0.808,80.0
33.197,-3.608,1.74,48.0
33.204,-3.6,1.559,65.0
33.187,-3.589,1.377,72.0
33.177,-3.579,1.192,72.0
33.16,-3.568,1.01,70.0
33.138,-3.558,0.829,69.0
70.032,-7.525,3.716,32.0
72.067,-7.724,3.43,10.0
72.357,-7.734,3.048,18.0
72.334,-7.713,2.645,24.0
78.061,-8.303,2.427,11.0
33.185,-3.521,0.85,6.0
69.852,-7.418,3.749,25.0
71.516,-7.574,3.447,20.0
72.27,-7.633,3.087,9.0
74.947,-7.895,2.784,14.0
78.239,-8.22,2.479,12.0
78.679,-8.246,2.063,32.0
69.935,-7.336,3.794,5.0
0.0,0.0,0.0,0.0
77.875,-8.123,3.371,16.0
74.644,-7.764,2.815,10.0
74.173,-7.695,2.391,11.0
78.889,-8.162,2.112,11.0
71.539,-7.408,3.92,13.0
72.131,-7.448,3.557,39.0
0.0,0.0,0.0,0.0
74.838,-7.684,2.861,9.0
74.466,-7.625,2.439,31.0
78.442,-8.01,2.14,20.0
69.02,-7.053,3.817,28.0
72.408,-7.377,3.606,17.0
71.992,-7.313,3.191,35.0
72.548,-7.349,2.81,21.0
74.231,-7.497,2.468,16.0
78.463,-7.902,2.178,20.0
71.367,-7.192,3.981,20.0
71.086,-7.142,3.575,16.0
71.087,-7.12,3.184,8.0
72.593,-7.25,2.845,27.0
78.946,-7.861,2.66,10.0
73.907,-7.338,2.085,16.0
68.934,-6.848,3.876,19.0
71.109,-7.042,3.607,13.0
71.068,-7.017,3.213,14.0
78.296,-7.706,3.102,9.0
78.762,-7.729,2.687,27.0
103.801,-10.157,2.972,11.0
0.0,0.0,0.0,0.0
70.842,-6.913,3.622,29.0
77.342,-7.523,3.528,9.0
78.386,-7.601,3.137,17.0
74.323,-7.184,2.565,10.0
103.691,-9.991,3.008,9.0
74.401,-7.173,4.242,8.0
71.329,-6.854,3.673,10.0
71.189,-6.818,3.273,9.0
78.343,-7.479,3.162,32.0
74.318,-7.072,2.59,16.0
104.223,-9.885,3.059,13.0
70.368,-6.677,4.037,24.0
73.097,-6.912,3.789,9.0
71.105,-6.701,3.293,14.0
74.627,-7.01,3.036,15.0
78.526,-7.352,2.762,37.0
74.574,-6.959,2.212,3.0
73.869,-6.896,4.259,4.0
70.562,-6.563,3.679,25.0
71.119,-6.592,3.314,22.0
104.239,-9.629,4.272,6.0
70.924,-6.529,2.514,9.0
104.017,-9.543,3.114,9.0
69.72,-6.4,4.039,19.0
71.233,-6.515,3.732,17.0
71.287,-6.497,3.34,10.0
71.162,-6.462,2.934,6.0
77.892,-7.049,2.78,8.0
104.326,-9.408,3.147,12.0
0.0,0.0,0.0,0.0
71.152,-6.396,3.743,48.0
71.611,-6.414,3.371,10.0
71.068,-6.342,2.944,16.0
72.377,-6.436,2.598,3.0
74.577,-6.608,2.264,3.0
70.872,-6.281,4.135,28.0
71.301,-6.296,3.764,11.0
67.979,-5.979,3.211,49.0
67.977,-5.957,2.828,44.0
67.939,-5.932,2.45,45.0
72.114,-6.274,2.201,8.0
71.655,-6.234,4.191,9.0
71.444,-6.192,3.782,12.0
67.967,-5.867,3.22,55.0
67.966,-5.845,2.836,43.0
67.942,-5.821,2.459,41.0
71.8,-6.128,2.2,14.0
71.456,-6.099,4.188,19.0
71.412,-6.071,3.788,11.0
67.955,-5.754,3.227,46.0
67.957,-5.732,2.842,50.0
67.937,-5.708,2.464,43.0
72.038,-6.029,2.214,5.0
71.473,-5.981,4.195,12.0
71.269,-5.94,3.785,12.0
67.94,-5.639,3.23,54.0
67.949,-5.617,2.846,44.0
67.928,-5.593,2.467,44.0
72.124,-5.915,2.219,18.0
71.622,-5.873,4.205,23.0
71.294,-5.822,3.789,27.0
71.201,-5.79,3.387,10.0
71.655,-5.804,3.002,21.0
74.728,-6.027,2.715,6.0
72.661,-5.837,2.236,10.0
71.375,-5.732,4.191,28.0
71.282,-5.701,3.787,16.0
71.125,-5.664,3.382,26.0
72.811,-5.774,3.049,34.0
67.92,-5.363,2.466,13.0
67.907,-5.34,2.087,52.0
67.97,-5.343,3.988,26.0
67.942,-5.318,3.607,60.0
67.924,-5.292,3.226,88.0
67.915,-5.268,2.84,82.0
67.916,-5.245,2.461,66.0
67.909,-5.223,2.082,17.0
67.96,-5.225,3.982,17.0
67.955,-5.201,3.601,7.0
67.936,-5.176,3.22,43.0
67.925,-5.152,2.833,44.0
67.898,-5.127,2.453,42.0
71.778,-5.397,2.193,22.0
71.367,-5.363,4.173,36.0
67.918,-5.08,3.59,13.0
67.915,-5.056,3.21,72.0
67.914,-5.032,2.823,61.0
67.899,-5.008,2.443,46.0
20.046,-1.472,0.609,1.0
71.253,-5.228,4.155,17.0
67.901,-4.958,3.578,22.0
67.921,-4.936,3.198,65.0
67.908,-4.912,2.81,58.0
67.884,-4.887,2.429,34.0
19.998,-1.433,0.604,9.0
71.27,-5.103,4.14,20.0
67.894,-4.838,3.564,33.0
67.893,-4.815,3.182,58.0
67.893,-4.791,2.795,60.0
20.026,-1.406,0.712,7.0
20.0,-1.397,0.599,9.0
71.569,-4.997,4.14,25.0
67.87,-4.715,3.545,35.0
67.892,-4.694,3.165,52.0
67.881,-4.67,2.776,42.0
19.99,-1.368,0.705,10.0
20.03,-1.364,0.594,9.0
71.086,-4.838,4.092,41.0
70.603,-4.78,3.667,25.0
72.701,-4.896,3.367,8.0
72.267,-4.843,2.934,35.0
20.021,-1.334,0.7,9.0
19.999,-1.326,0.587,13.0
70.791,-4.69,4.052,27.0
70.66,-4.656,3.647,11.0
70.865,-4.645,3.258,7.0
20.015,-1.305,0.805,6.0
19.943,-1.293,0.69,15.0
19.941,-1.287,0.578,24.0
70.909,-4.57,4.033,20.0
70.95,-4.548,3.635,19.0
73.389,-4.68,3.347,31.0
20.0,-1.268,0.797,8.0
19.95,-1.258,0.683,17.0
19.944,-1.251,0.571,25.0
70.822,-4.437,3.999,29.0
20.036,-1.248,1.018,8.0
20.049,-1.242,0.906,4.0
20.004,-1.232,0.789,11.0
19.946,-1.222,0.674,17.0
19.954,-1.216,0.562,23.0
71.033,-4.321,3.979,26.0
19.976,-1.208,1.006,19.0
19.982,-1.201,0.893,17.0
19.983,-1.195,0.779,17.0
19.953,-1.186,0.665,18.0
19.948,-1.179,0.553,22.0
19.985,-1.179,1.109,6.0
19.969,-1.172,0.996,26.0
19.99,-1.166,0.884,21.0
19.98,-1.158,0.768,18.0
19.972,-1.151,0.656,20.0
19.962,-1.144,0.543,23.0
19.975,-1.142,1.098,8.0
19.957,-1.134,0.984,20.0
19.981,-1.129,0.873,17.0
19.991,-1.123,0.758,20.0
19.97,-1.115,0.644,21.0
19.967,-1.108,0.532,23.0
19.988,-1.106,1.088,10.0
20.001,-1.1,0.975,21.0
20.035,-1.095,0.863,8.0
19.998,-1.086,0.746,14.0
19.971,-1.078,0.633,20.0
19.972,-1.072,0.52,22.0
20.013,-1.071,1.077,8.0
20.004,-1.064,0.963,11.0
83.849,-4.432,3.562,36.0
20.005,-1.051,0.734,13.0
19.967,-1.042,0.62,16.0
19.976,-1.036,0.507,14.0
73.437,-3.797,3.904,16.0
71.105,-3.652,3.376,22.0
83.648,-4.268,3.497,37.0
20.04,-1.016,0.722,13.0
20.094,-1.012,0.61,19.0
20.126,-1.006,0.497,22.0
79.759,-3.978,4.184,11.0
83.433,-4.133,3.903,26.0
73.463,-3.614,3.02,16.0
20.053,-0.979,0.708,18.0
20.109,-0.976,0.596,23.0
20.128,-0.97,0.483,19.0
79.835,-3.838,4.131,28.0
83.393,-3.98,3.84,13.0
94.609,-4.483,3.819,17.0
20.071,-0.944,0.694,19.0
20.111,-0.94,0.581,17.0
20.167,-0.936,0.468,7.0
80.555,-3.726,4.105,15.0
85.72,-3.936,3.881,4.0
95.13,-4.336,3.766,31.0
20.109,-0.91,0.679,5.0
193.316,-8.687,5.438,18.0
194.341,-8.671,4.364,16.0
80.799,-3.591,4.052,35.0
94.507,-4.167,4.201,20.0
104.213,-4.562,4.04,14.0
117.365,-5.1,3.871,19.0
193.433,-8.343,5.279,19.0
193.687,-8.294,4.188,20.0
80.89,-3.448,3.988,29.0
94.944,-4.016,4.14,10.0
104.114,-4.372,3.947,17.0
193.93,-8.079,6.229,18.0
192.965,-7.98,5.101,25.0
194.178,-7.969,4.029,23.0
81.102,-3.312,3.927,35.0
95.504,-3.869,4.079,13.0
104.1,-4.183,3.852,18.0
193.835,-7.729,6.051,22.0
192.722,-7.622,4.918,25.0
193.563,-7.597,3.84,5.0
81.209,-3.17,3.856,30.0
103.721,-4.016,4.333,24.0
104.577,-4.017,3.773,1.0
193.448,-7.371,5.858,24.0
192.841,-7.284,4.739,24.0
193.553,-7.253,3.656,12.0
94.464,-3.519,4.395,17.0
104.044,-3.845,4.246,18.0
119.812,-4.389,4.205,3.0
193.04,-7.011,5.656,21.0
193.416,-6.964,4.563,19.0
193.143,-6.893,3.455,6.0
94.259,-3.344,4.29,24.0
101.371,-3.566,4.035,18.0
193.795,-6.755,6.606,20.0
187.431,-6.474,5.299,19.0
187.461,-6.419,4.23,56.0
187.437,-6.362,3.162,15.0
94.427,-3.184,4.199,19.0
101.175,-3.379,3.92,29.0
194.858,-6.451,6.438,14.0
0.0,0.0,0.0,0.0
194.014,-6.304,4.173,24.0
138.629,-4.462,2.191,3.0
101.143,-3.233,4.389,12.0
101.734,-3.219,3.831,20.0
206.074,-6.458,6.581,7.0
193.954,-6.02,5.065,24.0
194.497,-5.98,3.969,20.0
138.669,-4.221,2.037,9.0
94.638,-2.86,4.0,16.0
120.812,-3.614,4.415,11.0
120.358,-3.563,3.709,2.0
194.414,-5.699,4.859,11.0
194.549,-5.647,3.751,15.0
138.678,-3.983,1.88,4.0
94.61,-2.695,3.89,9.0
120.251,-3.391,4.256,18.0
0.0,0.0,0.0,0.0
205.631,-5.678,4.901,6.0
0.0,0.0,0.0,0.0
0.0,0.0,0.0,0.0
106.162,-2.844,4.239,15.0
120.547,-3.193,4.123,22.0
207.552,-5.436,5.908,7.0
0.0,0.0,0.0,0.0
193.016,-4.945,3.263,11.0
138.834,-3.518,1.553,2.0
96.764,-2.428,3.746,11.0
120.602,-2.993,3.978,12.0
118.038,-2.894,3.216,8.0
0.0,0.0,0.0,0.0
138.825,-3.322,2.174,6.0
138.91,-3.286,1.381,16.0
106.459,-2.493,3.988,9.0
112.623,-2.606,3.572,23.0
0.0,0.0,0.0,0.0
0.0,0.0,0.0,0.0
138.953,-3.095,2.0,4.0
138.966,-3.057,1.203,25.0
113.323,-2.466,4.099,22.0
112.63,-2.418,3.426,27.0
205.786,-4.36,5.077,7.0
193.088,-4.039,3.637,21.0
0.0,0.0,0.0,0.0
139.017,-2.829,1.021,18.0
112.596,-2.263,3.922,22.0
112.914,-2.239,3.285,23.0
205.766,-4.022,4.802,18.0
193.213,-3.724,3.379,23.0
139.18,-2.645,1.636,2.0
138.958,-2.603,0.835,11.0
112.663,-2.082,3.771,19.0
112.742,-2.053,3.125,21.0
206.307,-3.7,4.534,10.0
193.431,-3.417,3.119,8.0
139.161,-2.422,1.446,11.0
113.479,-1.944,0.526,6.0
112.958,-1.907,3.625,1.0
112.529,-1.869,2.963,6.0
206.03,-3.366,4.239,6.0
139.021,-2.235,2.048,10.0
138.837,-2.195,1.246,17.0
0.0,0.0,0.0,0.0
209.705,-3.209,6.432,6.0
206.025,-3.097,5.131,8.0
194.896,-2.877,3.731,6.0
138.998,-2.015,1.847,2.0
138.881,-1.977,1.045,22.0
0.0,0.0,0.0,0.0
0.0,0.0,0.0,0.0
206.903,-2.786,4.849,7.0
204.256,-2.699,3.613,8.0
139.435,-1.805,1.648,2.0
139.26,-1.767,0.843,4.0
0.0,0.0,0.0,0.0
209.129,-2.549,5.797,10.0
210.66,-2.514,4.625,7.0
119.683,-1.397,1.937,2.0
139.215,-1.589,1.436,13.0
119.736,-1.337,0.546,6.0
0.0,0.0,0.0,0.0
119.727,-1.279,3.138,150.0
119.74,-1.248,2.447,150.0
119.758,-1.217,1.756,150.0
119.72,-1.187,1.053,54.0
0.0,0.0,0.0,0.0
0.0,0.0,0.0,0.0
119.723,-1.099,2.952,105.0
119.733,-1.071,2.263,92.0
119.718,-1.041,1.572,26.0
114.345,-0.966,0.829,10.0
0.0,0.0,0.0,0.0
0.0,0.0,0.0,0.0
194.319,-1.502,4.489,20.0
194.05,-1.455,3.365,15.0
119.673,-0.868,1.384,17.0
111.089,-0.779,0.633,6.0
0.0,0.0,0.0,0.0
0.0,0.0,0.0,0.0
194.251,-1.226,4.182,17.0
119.821,-0.727,1.886,81.0
119.698,-0.698,1.193,16.0
106.38,-0.595,0.435,1.0
0.0,0.0,0.0,0.0
0.0,0.0,0.0,0.0
119.846,-0.586,2.384,30.0
114.339,-0.532,1.613,2.0
119.649,-0.528,0.996,8.0
0.0,0.0,0.0,0.0
53.611,-0.212,-0.177,0.0
45.136,-0.169,-0.409,1.0
114.265,-0.402,2.086,4.0
119.7,-0.393,1.493,15.0
111.153,-0.341,0.745,9.0
0.0,0.0,0.0,0.0
52.125,-0.136,-0.258,0.0
40.898,-0.097,-0.439,0.0
112.607,-0.244,1.868,9.0
117.444,-0.227,1.268,11.0
0.0,0.0,0.0,0.0
0.0,0.0,0.0,0.0
48.978,-0.062,-0.325,0.0
0.0,0.0,0.0,0.0
111.145,-0.091,1.653,15.0
117.239,-0.072,1.067,6.0
0.0,0.0,0.0,0.0
0.0,0.0,0.0,0.0
45.636,0.001,-0.381,2.0
36.348,0.009,-0.514,0.0
111.153,0.051,1.462,23.0
110.781,0.075,0.816,8.0
0.0,0.0,0.0,0.0
53.524,0.059,-0.23,0.0
42.897,0.056,-0.432,1.0
34.664,0.052,-0.55,0.0
111.158,0.191,1.27,19.0
103.776,0.201,0.584,7.0
0.0,0.0,0.0,0.0
48.812,0.114,-0.295,0.0
0.0,0.0,0.0,0.0
32.127,0.088,-0.566,0.0
111.098,0.328,1.074,8.0
94.804,0.3,0.366,2.0
0.0,0.0,0.0,0.0
45.903,0.163,-0.358,0.0
0.0,0.0,0.0,0.0
0.0,0.0,0.0,0.0
110.868,0.46,0.874,7.0
88.051,0.383,0.184,4.0
0.0,0.0,0.0,0.0
42.878,0.203,-0.411,1.0
34.395,0.17,-0.529,0.0
29.059,0.149,-0.615,0.0
97.903,0.521,0.596,5.0
0.0,0.0,0.0,0.0
51.086,0.292,-0.281,0.0
41.585,0.245,-0.474,0.0
32.626,0.198,-0.561,0.0
27.322,0.171,-0.628,0.0
85.759,0.554,0.365,1.0
0.0,0.0,0.0,0.0
48.533,0.332,-0.355,0.0
0.0,0.0,0.0,0.0
0.0,0.0,0.0,0.0
26.473,0.195,-0.657,0.0
84.291,0.638,0.204,4.0
0.0,0.0,0.0,0.0
43.06,0.341,-0.394,0.0
35.275,0.286,-0.531,0.0
29.137,0.241,-0.607,0.0
25.101,0.212,-0.669,0.0
0.0,0.0,0.0,0.0
0.0,0.0,0.0,0.0
41.151,0.369,-0.453,0.0
33.079,0.302,-0.559,0.0
27.938,0.26,-0.634,0.0
24.064,0.228,-0.686,0.0
0.0,0.0,0.0,0.0
46.752,0.459,-0.33,0.0
0.0,0.0,0.0,0.0
30.881,0.314,-0.579,0.0
26.407,0.273,-0.649,0.0
22.862,0.24,-0.695,0.0
0.0,0.0,0.0,0.0
0.0,0.0,0.0,0.0
35.441,0.39,-0.523,0.0
29.316,0.327,-0.606,0.0
24.826,0.281,-0.657,0.0
22.084,0.253,-0.713,0.0
0.0,0.0,0.0,0.0
40.969,0.483,-0.446,0.0
0.0,0.0,0.0,0.0
27.918,0.338,-0.63,0.0
23.752,0.291,-0.674,0.0
21.138,0.263,-0.723,0.0
0.0,0.0,0.0,0.0
0.0,0.0,0.0,0.0
0.0,0.0,0.0,0.0
26.35,0.343,-0.646,0.0
22.853,0.301,-0.693,0.0
20.21,0.269,-0.73,0.0
44.006,0.593,-0.392,1.0
35.145,0.479,-0.518,0.0
29.43,0.405,-0.604,0.0
24.998,0.348,-0.661,0.0
22.095,0.311,-0.713,0.0
19.507,0.277,-0.743,0.0
41.36,0.592,-0.449,1.0
0.0,0.0,0.0,0.0
28.0,0.409,-0.629,0.0
23.965,0.353,-0.68,0.0
21.307,0.317,-0.729,0.0
18.665,0.281,-0.747,0.0
37.291,0.565,-0.477,0.0
30.853,0.471,-0.574,0.0
0.0,0.0,0.0,0.0
22.638,0.352,-0.687,0.0
20.095,0.315,-0.726,0.0
18.139,0.287,-0.761,0.0
35.592,0.567,-0.525,0.0
29.434,0.473,-0.605,0.0
25.011,0.405,-0.659,0.0
21.848,0.357,-0.705,0.0
19.456,0.32,-0.742,0.0
17.631,0.293,-0.775,2.0
0.0,0.0,0.0,0.0
27.519,0.462,-0.62,0.0
23.993,0.406,-0.68,0.0
21.017,0.358,-0.72,0.0
18.777,0.323,-0.752,0.0
17.181,0.297,-0.789,0.0
30.659,0.533,-0.572,0.0
26.349,0.461,-0.645,0.0
22.664,0.399,-0.686,0.0
20.097,0.356,-0.727,0.0
18.134,0.324,-0.762,0.0
16.658,0.3,-0.797,0.0
29.036,0.524,-0.599,0.0
24.956,0.453,-0.66,0.0
21.835,0.399,-0.704,0.0
19.358,0.356,-0.739,0.0
17.608,0.326,-0.775,0.0
16.012,0.298,-0.798,0.0
27.555,0.515,-0.623,0.0
23.861,0.448,-0.678,0.0
20.948,0.396,-0.717,0.0
18.688,0.355,-0.751,0.0
16.944,0.324,-0.779,0.0
15.535,0.299,-0.805,0.0
26.192,0.505,-0.644,0.0
22.696,0.44,-0.69,0.0
20.031,0.39,-0.726,0.0
17.979,0.352,-0.758,0.0
16.515,0.325,-0.792,0.0
15.129,0.299,-0.814,0.0
0.0,0.0,0.0,0.0
21.637,0.431,-0.7,0.0
19.318,0.387,-0.738,0.0
17.602,0.354,-0.776,0.0
16.026,0.324,-0.8,0.0
14.71,0.299,-0.821,0.0
23.742,0.483,-0.678,0.0
20.938,0.428,-0.719,0.0
18.646,0.383,-0.749,0.0
16.917,0.349,-0.78,0.0
15.498,0.321,-0.805,0.0
14.252,0.296,-0.823,0.0
22.6,0.47,-0.689,0.0
20.069,0.419,-0.729,0.0
17.98,0.377,-0.758,0.0
16.417,0.346,-0.789,0.0
15.019,0.318,-0.81,0.0
13.896,0.295,-0.83,0.0
21.764,0.462,-0.707,0.0
19.357,0.413,-0.742,0.0
17.57,0.376,-0.776,0.0
15.905,0.342,-0.796,0.0
14.682,0.317,-0.821,0.0
13.564,0.294,-0.837,0.0
20.867,0.451,-0.719,0.0
18.678,0.406,-0.752,0.0
16.901,0.368,-0.779,0.0
15.438,0.338,-0.804,0.0
14.224,0.312,-0.823,0.0
13.313,0.293,-0.848,0.0
19.914,0.438,-0.726,0.0
18.0,0.397,-0.761,0.0
16.407,0.363,-0.789,0.0
15.004,0.333,-0.81,0.0
13.869,0.309,-0.83,0.0
12.904,0.289,-0.848,0.0
19.193,0.428,-0.737,0.0
17.327,0.388,-0.766,0.0
15.955,0.358,-0.799,0.0
14.627,0.329,-0.819,0.0
13.554,0.306,-0.838,0.0
12.56,0.284,-0.85,0.0
18.561,0.419,-0.749,0.0
16.971,0.384,-0.784,0.0
15.384,0.349,-0.8,0.0
14.224,0.324,-0.824,0.0
13.189,0.301,-0.841,0.0
12.181,0.279,-0.848,0.0
17.962,0.41,-0.76,0.0
16.422,0.376,-0.79,0.0
14.96,0.343,-0.807,0.0
13.854,0.319,-0.83,0.0
12.851,0.296,-0.845,0.0
11.814,0.273,-0.846,0.0
17.331,0.399,-0.767,0.0
15.882,0.366,-0.795,0.0
14.587,0.337,-0.816,0.0
13.55,0.314,-0.838,0.0
12.498,0.29,-0.846,0.0
11.57,0.269,-0.851,0.0
16.918,0.392,-0.782,0.0
15.366,0.357,-0.8,0.0
14.283,0.333,-0.826,0.0
13.209,0.308,-0.843,0.0
12.162,0.284,-0.847,0.0
11.393,0.267,-0.86,0.0
16.345,0.381,-0.787,0.0
14.933,0.349,-0.806,0.0
13.819,0.323,-0.826,0.0
12.903,0.302,-0.848,0.0
11.822,0.278,-0.846,0.0
11.181,0.263,-0.866,0.0
15.858,0.371,-0.794,0.0
14.594,0.342,-0.816,0.0
13.571,0.319,-0.838,0.0
12.499,0.294,-0.846,0.0
11.576,0.272,-0.851,0.0
10.979,0.259,-0.871,0.0
15.397,0.361,-0.8,0.0
14.231,0.334,-0.822,0.0
13.141,0.309,-0.836,0.0
12.155,0.286,-0.845,0.0
11.379,0.268,-0.858,0.0
10.749,0.254,-0.873,0.0
14.987,0.351,-0.807,0.0
13.848,0.325,-0.826,0.0
12.907,0.303,-0.845,0.0
11.817,0.278,-0.844,0.0
11.197,0.264,-0.865,1.0
10.497,0.247,-0.873,0.0
14.595,0.342,-0.813,0.0
13.6,0.319,-0.837,0.0
12.505,0.293,-0.842,0.0
11.563,0.271,-0.848,0.0
10.988,0.258,-0.87,0.0
10.357,0.244,-0.881,0.0
14.277,0.333,-0.822,0.0
13.252,0.309,-0.84,0.0
12.179,0.285,-0.843,0.0
11.398,0.267,-0.857,1.0
10.786,0.252,-0.874,0.0
10.21,0.239,-0.887,0.0
13.844,0.322,-0.823,0.0
12.935,0.301,-0.844,0.0
11.838,0.275,-0.841,0.0
11.206,0.261,-0.863,0.0
10.514,0.245,-0.871,0.0
10.032,0.234,-0.89,0.0
13.614,0.314,-0.834,0.0
12.555,0.29,-0.842,0.0
11.599,0.268,-0.846,0.0
11.03,0.255,-0.87,0.0
10.353,0.239,-0.877,0.0
9.859,0.228,-0.893,0.0
13.308,0.305,-0.839,0.0
12.227,0.28,-0.842,0.0
11.412,0.261,-0.852,0.0
10.811,0.248,-0.872,0.0
10.249,0.235,-0.886,0.0
9.725,0.223,-0.898,0.0
13.012,0.295,-0.844,0.0
11.911,0.27,-0.841,0.0
11.254,0.255,-0.861,0.0
10.552,0.239,-0.87,0.0
10.091,0.229,-0.891,0.0
9.572,0.217,-0.901,0.0
12.562,0.282,-0.837,0.0
11.676,0.262,-0.846,0.0
11.067,0.248,-0.866,0.0
10.395,0.233,-0.875,0.0
9.898,0.222,-0.891,0.0
9.409,0.211,-0.902,0.0
12.332,0.273,-0.843,0.0
11.457,0.254,-0.85,0.0
10.855,0.24,-0.868,0.0
10.292,0.227,-0.884,0.0
9.784,0.216,-0.898,0.0
9.285,0.205,-0.907,0.0
12.005,0.262,-0.841,0.0
11.308,0.247,-0.858,1.0
10.612,0.231,-0.867,0.0
10.107,0.22,-0.886,0.0
9.671,0.21,-0.904,0.0
9.157,0.199,-0.91,0.0
11.718,0.251,-0.841,0.0
11.146,0.239,-0.865,0.0
10.459,0.224,-0.873,0.0
9.948,0.213,-0.889,0.0
9.477,0.202,-0.902,0.0
9.011,0.192,-0.911,0.0
11.482,0.242,-0.843,0.0
10.951,0.23,-0.868,0.0
10.308,0.216,-0.877,0.0
9.837,0.206,-0.896,0.0
9.337,0.195,-0.905,0.0
8.862,0.185,-0.911,0.0
11.389,0.235,-0.855,1.0
10.75,0.221,-0.87,0.0
10.198,0.21,-0.885,0.0
9.667,0.198,-0.896,0.0
9.219,0.189,-0.908,0.0
8.813,0.18,-0.92,0.0
11.228,0.226,-0.862,0.0
10.515,0.212,-0.868,0.0
10.012,0.201,-0.885,0.0
9.562,0.192,-0.902,0.0
9.106,0.182,-0.912,0.0
8.645,0.172,-0.917,0.0
11.067,0.218,-0.867,0.0
10.414,0.204,-0.876,0.0
9.862,0.193,-0.887,0.0
9.454,0.185,-0.907,0.0
8.985,0.175,-0.914,0.0
8.521,0.166,-0.917,0.0
10.837,0.208,-0.866,0.0
10.261,0.196,-0.88,0.0
9.801,0.187,-0.897,0.0
9.276,0.176,-0.904,0.0
8.832,0.167,-0.912,0.0
8.453,0.16,-0.923,0.0
10.649,0.198,-0.867,0.0
10.133,0.188,-0.884,0.0
9.654,0.178,-0.899,0.0
9.18,0.169,-0.909,0.0
8.753,0.161,-0.918,0.0
8.356,0.153,-0.925,0.0
10.474,0.189,-0.869,0.0
9.986,0.179,-0.886,0.0
9.499,0.17,-0.898,0.0
8.999,0.16,-0.904,0.0
8.643,0.153,-0.919,0.0
8.301,0.147,-0.931,0.0
10.32,0.179,-0.871,0.0
9.841,0.17,-0.888,0.0
9.39,0.162,-0.902,0.0
8.993,0.154,-0.917,0.0
8.54,0.146,-0.921,0.0
8.175,0.139,-0.929,0.0
10.237,0.171,-0.879,0.0
9.733,0.162,-0.892,0.0
9.252,0.153,-0.902,0.0
8.821,0.146,-0.912,0.0
8.434,0.139,-0.922,0.0
8.047,0.132,-0.926,0.0
10.147,0.163,-0.886,0.0
9.663,0.154,-0.9,0.0
9.219,0.147,-0.912,0.0
0.0,0.0,0.0,0.0
8.324,0.131,-0.921,0.0
7.945,0.124,-0.926,0.0
9.984,0.153,-0.885,0.0
9.471,0.145,-0.895,0.0
9.079,0.138,-0.911,0.0
0.0,0.0,0.0,0.0
8.282,0.124,-0.928,0.0
7.895,0.118,-0.931,0.0
9.822,0.143,-0.884,0.0
9.403,0.136,-0.901,0.0
8.94,0.129,-0.909,0.0
0.0,0.0,0.0,0.0
8.18,0.116,-0.928,0.0
7.809,0.11,-0.931,0.0
9.785,0.135,-0.894,0.0
9.287,0.128,-0.902,0.0
8.847,0.121,-0.911,0.0
8.401,0.114,-0.915,0.0
0.0,0.0,0.0,0.0
7.799,0.104,-0.94,0.0
9.723,0.127,-0.901,0.0
9.202,0.119,-0.906,0.0
8.822,0.113,-0.919,0.0
8.387,0.107,-0.924,0.0
8.017,0.101,-0.93,0.0
7.704,0.097,-0.938,0.0
9.596,0.118,-0.901,0.0
9.095,0.11,-0.906,0.0
8.711,0.105,-0.919,0.0
8.318,0.099,-0.926,0.0
7.985,0.094,-0.936,0.0
7.626,0.089,-0.938,0.0
9.418,0.108,-0.896,0.0
8.99,0.102,-0.907,0.0
8.556,0.096,-0.913,0.0
8.192,0.091,-0.922,0.0
7.932,0.087,-0.939,0.0
7.593,0.082,-0.943,0.0
9.354,0.099,-0.9,0.0
8.919,0.093,-0.91,0.0
8.444,0.087,-0.911,0.0
0.0,0.0,0.0,0.0
7.811,0.079,-0.934,0.0
7.477,0.075,-0.938,0.0
9.271,0.09,-0.903,0.0
8.829,0.084,-0.911,0.0
8.434,0.079,-0.919,0.0
0.0,0.0,0.0,0.0
7.773,0.071,-0.938,0.0
7.48,0.068,-0.946,0.0
9.215,0.081,-0.907,0.0
8.779,0.076,-0.915,0.0
8.324,0.071,-0.916,0.0
7.973,0.067,-0.924,0.0
7.667,0.063,-0.934,0.0
7.422,0.06,-0.947,0.0
9.102,0.071,-0.906,0.0
8.675,0.067,-0.914,0.0
8.315,0.063,-0.924,0.0
0.0,0.0,0.0,0.0
7.633,0.056,-0.937,0.0
0.0,0.0,0.0,0.0
9.02,0.062,-0.907,0.0
8.661,0.058,-0.921,0.0
8.284,0.055,-0.929,0.0
0.0,0.0,0.0,0.0
7.584,0.048,-0.939,0.0
7.316,0.045,-0.948,0.0
8.974,0.053,-0.911,0.0
8.565,0.05,-0.919,0.0
8.145,0.046,-0.921,0.0
0.0,0.0,0.0,0.0
7.537,0.04,-0.94,0.0
0.0,0.0,0.0,0.0
8.918,0.044,-0.914,0.0
8.5,0.041,-0.92,0.0
8.145,0.038,-0.929,0.0
0.0,0.0,0.0,0.0
0.0,0.0,0.0,0.0
0.0,0.0,0.0,0.0
8.841,0.035,-0.914,0.0
8.449,0.032,-0.922,0.0
8.078,0.029,-0.928,0.0
0.0,0.0,0.0,0.0
0.0,0.0,0.0,0.0
0.0,0.0,0.0,0.0
8.778,0.025,-0.915,0.0
8.394,0.023,-0.923,0.0
7.984,0.021,-0.924,0.0
0.0,0.0,0.0,0.0
0.0,0.0,0.0,0.0
7.1,0.015,-0.946,0.0
8.712,0.016,-0.915,0.0
8.342,0.014,-0.924,0.0
0.0,0.0,0.0,0.0
7.632,0.011,-0.934,0.0
0.0,0.0,0.0,0.0
7.001,0.008,-0.938,0.0
8.654,0.007,-0.915,0.0
8.322,0.005,-0.928,0.0
7.963,0.004,-0.934,0.0
7.633,0.003,-0.94,0.0
0.0,0.0,0.0,0.0
7.019,0.0,-0.946,0.0
8.603,-0.001,-0.916,0.0
8.231,-0.002,-0.924,0.0
7.892,-0.004,-0.931,0.0
0.0,0.0,0.0,0.0
7.29,-0.006,-0.945,0.0
0.0,0.0,0.0,0.0
8.55,-0.01,-0.916,0.0
8.207,-0.011,-0.927,0.0
7.839,-0.012,-0.93,0.0
0.0,0.0,0.0,0.0
0.0,0.0,0.0,0.0
6.996,-0.014,-0.952,0.0
8.503,-0.019,-0.917,0.0
8.131,-0.02,-0.923,0.0
7.822,-0.021,-0.933,0.0
0.0,0.0,0.0,0.0
0.0,0.0,0.0,0.0
0.0,0.0,0.0,0.0
8.495,-0.029,-0.921,0.0
8.107,-0.029,-0.925,0.0
7.808,-0.029,-0.936,0.0
0.0,0.0,0.0,0.0
0.0,0.0,0.0,0.0
0.0,0.0,0.0,0.0
8.459,-0.038,-0.921,0.0
8.046,-0.038,-0.922,0.0
7.78,-0.038,-0.936,0.0
0.0,0.0,0.0,0.0
0.0,0.0,0.0,0.0
0.0,0.0,0.0,0.0
8.449,-0.047,-0.925,0.0
8.075,-0.047,-0.93,0.0
0.0,0.0,0.0,0.0
0.0,0.0,0.0,0.0
0.0,0.0,0.0,0.0
0.0,0.0,0.0,0.0
8.366,-0.056,-0.919,0.0
8.025,-0.056,-0.928,0.0
7.698,-0.055,-0.934,0.0
0.0,0.0,0.0,0.0
0.0,0.0,0.0,0.0
0.0,0.0,0.0,0.0
8.372,-0.066,-0.923,0.0
8.006,-0.065,-0.929,0.0
7.662,-0.063,-0.932,0.0
0.0,0.0,0.0,0.0
0.0,0.0,0.0,0.0
0.0,0.0,0.0,0.0
8.336,-0.075,-0.922,0.0
7.987,-0.073,-0.929,0.0
7.692,-0.072,-0.939,0.0
0.0,0.0,0.0,0.0
0.0,0.0,0.0,0.0
6.826,-0.068,-0.951,0.0
8.313,-0.085,-0.922,0.0
7.957,-0.082,-0.928,0.0
0.0,0.0,0.0,0.0
0.0,0.0,0.0,0.0
0.0,0.0,0.0,0.0
6.784,-0.075,-0.947,0.0
8.307,-0.094,-0.924,0.0
7.961,-0.092,-0.931,0.0
0.0,0.0,0.0,0.0
0.0,0.0,0.0,0.0
0.0,0.0,0.0,0.0
6.776,-0.083,-0.948,0.0
8.282,-0.103,-0.923,0.0
7.971,-0.101,-0.934,0.0
7.645,-0.098,-0.939,0.0
0.0,0.0,0.0,0.0
0.0,0.0,0.0,0.0
6.772,-0.091,-0.948,0.0
8.25,-0.112,-0.921,0.0
7.928,-0.109,-0.93,0.0
7.622,-0.107,-0.937,0.0
0.0,0.0,0.0,0.0
0.0,0.0,0.0,0.0
6.748,-0.098,-0.946,0.0
8.278,-0.122,-0.925,0.0
7.967,-0.119,-0.935,0.0
7.608,-0.115,-0.936,0.0
0.0,0.0,0.0,0.0
0.0,0.0,0.0,0.0
6.789,-0.107,-0.952,0.0
8.305,-0.132,-0.929,0.0
7.926,-0.127,-0.931,0.0
7.622,-0.124,-0.939,0.0
0.0,0.0,0.0,0.0
0.0,0.0,0.0,0.0
0.0,0.0,0.0,0.0
8.244,-0.14,-0.922,0.0
7.944,-0.137,-0.934,0.0
7.606,-0.133,-0.937,0.0
0.0,0.0,0.0,0.0
0.0,0.0,0.0,0.0
0.0,0.0,0.0,0.0
8.234,-0.15,-0.921,0.0
7.879,-0.145,-0.926,0.0
7.608,-0.141,-0.937,0.0
0.0,0.0,0.0,0.0
0.0,0.0,0.0,0.0
0.0,0.0,0.0,0.0
8.25,-0.159,-0.923,0.0
7.878,-0.154,-0.925,0.0
7.61,-0.15,-0.937,0.0
0.0,0.0,0.0,0.0
0.0,0.0,0.0,0.0
0.0,0.0,0.0,0.0
8.277,-0.169,-0.925,0.0
7.959,-0.164,-0.934,0.0
0.0,0.0,0.0,0.0
0.0,0.0,0.0,0.0
0.0,0.0,0.0,0.0
0.0,0.0,0.0,0.0
8.279,-0.178,-0.924,0.0
8.001,-0.174,-0.938,0.0
0.0,0.0,0.0,0.0
0.0,0.0,0.0,0.0
7.052,-0.158,-0.946,0.0
0.0,0.0,0.0,0.0
8.312,-0.189,-0.926,0.0
7.984,-0.183,-0.934,0.0
0.0,0.0,0.0,0.0
0.0,0.0,0.0,0.0
0.0,0.0,0.0,0.0
0.0,0.0,0.0,0.0
8.3,-0.197,-0.923,0.0
7.988,-0.192,-0.932,0.0
0.0,0.0,0.0,0.0
0.0,0.0,0.0,0.0
7.104,-0.175,-0.95,0.0
0.0,0.0,0.0,0.0
8.346,-0.208,-0.925,0.0
8.014,-0.201,-0.933,0.0
0.0,0.0,0.0,0.0
0.0,0.0,0.0,0.0
0.0,0.0,0.0,0.0
0.0,0.0,0.0,0.0
8.366,-0.217,-0.925,0.0
7.986,-0.209,-0.927,0.0
0.0,0.0,0.0,0.0
0.0,0.0,0.0,0.0
0.0,0.0,0.0,0.0
0.0,0.0,0.0,0.0
8.377,-0.227,-0.923,0.0
8.016,-0.218,-0.928,0.0
0.0,0.0,0.0,0.0
0.0,0.0,0.0,0.0
0.0,0.0,0.0,0.0
6.865,-0.193,-0.949,0.0
8.373,-0.235,-0.919,0.0
8.034,-0.227,-0.926,0.0
0.0,0.0,0.0,0.0
0.0,0.0,0.0,0.0
0.0,0.0,0.0,0.0
6.863,-0.2,-0.945,0.0
8.386,-0.245,-0.916,0.0
8.088,-0.238,-0.929,0.0
0.0,0.0,0.0,0.0
0.0,0.0,0.0,0.0
0.0,0.0,0.0,0.0
6.935,-0.209,-0.952,0.0
8.473,-0.256,-0.922,0.0
8.156,-0.248,-0.932,0.0
0.0,0.0,0.0,0.0
0.0,0.0,0.0,0.0
0.0,0.0,0.0,0.0
6.954,-0.217,-0.95,0.0
8.518,-0.266,-0.922,0.0
8.139,-0.256,-0.926,0.0
7.841,-0.248,-0.935,0.0
0.0,0.0,0.0,0.0
0.0,0.0,0.0,0.0
6.98,-0.225,-0.95,0.0
8.548,-0.276,-0.92,0.0
8.163,-0.265,-0.923,0.0
7.91,-0.258,-0.939,0.0
0.0,0.0,0.0,0.0
0.0,0.0,0.0,0.0
7.007,-0.233,-0.949,0.0
8.585,-0.285,-0.918,0.0
8.245,-0.276,-0.927,0.0
7.927,-0.266,-0.935,0.0
7.561,-0.256,-0.935,0.0
0.0,0.0,0.0,0.0
7.025,-0.24,-0.946,0.0
8.663,-0.296,-0.921,0.0
8.303,-0.285,-0.928,0.0
7.905,-0.273,-0.927,0.0
7.643,-0.266,-0.94,0.0
0.0,0.0,0.0,0.0
7.115,-0.25,-0.953,0.0
8.715,-0.306,-0.92,0.0
8.336,-0.294,-0.926,0.0
8.004,-0.284,-0.933,0.0
7.627,-0.272,-0.932,0.0
0.0,0.0,0.0,0.0
7.176,-0.259,-0.956,0.0
8.774,-0.316,-0.92,0.0
8.394,-0.304,-0.926,0.0
8.098,-0.295,-0.938,0.0
0.0,0.0,0.0,0.0
0.0,0.0,0.0,0.0
7.114,-0.263,-0.942,0.0
8.788,-0.325,-0.914,0.0
8.458,-0.314,-0.926,0.0
8.111,-0.303,-0.932,0.0
0.0,0.0,0.0,0.0
7.489,-0.282,-0.944,0.0
7.178,-0.272,-0.945,0.0
8.865,-0.336,-0.915,0.0
8.464,-0.322,-0.919,0.0
8.182,-0.313,-0.934,0.0
7.806,-0.3,-0.934,0.0
7.566,-0.292,-0.947,0.0
7.276,-0.282,-0.951,0.0
8.942,-0.346,-0.915,0.0
8.564,-0.333,-0.923,0.0
8.211,-0.321,-0.929,0.0
7.839,-0.308,-0.931,0.0
7.599,-0.3,-0.944,0.0
7.291,-0.289,-0.946,0.0
8.976,-0.355,-0.91,0.0
8.634,-0.343,-0.922,0.0
8.247,-0.329,-0.926,0.0
7.919,-0.317,-0.933,0.0
7.6,-0.306,-0.937,0.0
7.347,-0.297,-0.946,0.0
9.066,-0.366,-0.91,0.0
8.835,-0.358,-0.935,0.0
8.324,-0.339,-0.926,0.0
7.966,-0.326,-0.931,0.0
7.657,-0.314,-0.936,0.0
7.405,-0.305,-0.946,0.0
9.123,-0.375,-0.907,0.0
8.664,-0.358,-0.908,0.0
8.382,-0.348,-0.924,0.0
8.065,-0.336,-0.934,0.0
7.795,-0.326,-0.945,0.0
7.448,-0.313,-0.944,0.0
9.217,-0.386,-0.907,0.0
8.812,-0.371,-0.915,0.0
8.499,-0.359,-0.928,0.0
8.131,-0.345,-0.933,0.0
7.785,-0.331,-0.936,0.0
7.519,-0.321,-0.945,0.0
9.329,-0.398,-0.908,0.0
8.945,-0.383,-0.919,0.0
8.55,-0.367,-0.924,0.0
8.211,-0.354,-0.933,0.0
7.836,-0.339,-0.933,0.0
7.548,-0.328,-0.94,0.0
9.38,-0.406,-0.902,0.0
9.064,-0.394,-0.921,0.0
8.573,-0.374,-0.917,0.0
8.236,-0.361,-0.927,0.0
7.943,-0.349,-0.937,0.0
7.656,-0.338,-0.945,0.0
9.522,-0.419,-0.905,0.0
9.063,-0.4,-0.91,0.0
8.683,-0.385,-0.919,0.0
8.349,-0.371,-0.93,0.0
8.016,-0.358,-0.936,0.0
7.707,-0.345,-0.942,0.0
9.619,-0.429,-0.903,0.0
9.136,-0.409,-0.907,0.0
8.779,-0.394,-0.919,0.0
8.397,-0.379,-0.925,0.0
8.092,-0.366,-0.935,0.0
7.762,-0.352,-0.939,0.0
9.709,-0.439,-0.9,0.0
9.25,-0.42,-0.907,0.0
8.865,-0.404,-0.917,0.0
8.489,-0.388,-0.925,0.0
8.16,-0.374,-0.933,0.0
7.874,-0.362,-0.943,0.0
9.799,-0.449,-0.896,0.0
9.372,-0.431,-0.907,0.0
8.97,-0.414,-0.916,0.0
0.0,0.0,0.0,0.0
8.238,-0.382,-0.931,0.0
7.913,-0.368,-0.937,0.0
9.908,-0.459,-0.893,0.0
9.495,-0.441,-0.907,0.0
9.046,-0.422,-0.912,0.0
0.0,0.0,0.0,0.0
8.304,-0.389,-0.928,0.0
7.996,-0.376,-0.936,0.0
10.034,-0.47,-0.892,0.0
9.546,-0.449,-0.899,0.0
9.13,-0.43,-0.909,0.0
8.794,-0.416,-0.923,0.0
8.427,-0.399,-0.93,0.0
8.036,-0.382,-0.93,0.0
10.179,-0.482,-0.891,0.0
9.677,-0.459,-0.899,0.0
9.24,-0.44,-0.907,0.0
8.881,-0.424,-0.921,0.0
8.509,-0.407,-0.928,0.0
8.141,-0.391,-0.931,0.0
10.259,-0.49,-0.884,0.0
9.819,-0.471,-0.898,0.0
9.375,-0.45,-0.908,0.0
8.961,-0.432,-0.916,0.0
8.641,-0.417,-0.93,0.0
8.255,-0.399,-0.933,0.0
10.438,-0.503,-0.885,0.0
9.93,-0.48,-0.894,0.0
9.419,-0.456,-0.899,0.0
9.067,-0.44,-0.914,0.0
8.71,-0.424,-0.925,0.0
8.355,-0.408,-0.932,0.0
10.558,-0.513,-0.88,0.0
10.072,-0.491,-0.893,0.0
9.624,-0.47,-0.904,0.0
0.0,0.0,0.0,0.0
8.807,-0.432,-0.922,0.0
8.428,-0.414,-0.928,0.0
10.686,-0.523,-0.875,0.0
10.182,-0.499,-0.888,0.0
9.757,-0.479,-0.902,0.0
9.262,-0.456,-0.907,0.0
8.922,-0.44,-0.921,0.0
8.559,-0.423,-0.929,0.0
10.907,-0.537,-0.877,0.0
10.328,-0.51,-0.885,0.0
9.871,-0.488,-0.898,0.0
9.443,-0.468,-0.911,0.0
8.998,-0.446,-0.916,0.0
8.599,-0.427,-0.921,0.0
11.031,-0.546,-0.871,0.0
10.502,-0.521,-0.884,0.0
9.983,-0.496,-0.894,0.0
9.61,-0.478,-0.912,0.0
9.11,-0.454,-0.913,0.0
8.693,-0.434,-0.918,0.0
11.19,-0.557,-0.866,0.0
10.621,-0.529,-0.878,0.0
10.147,-0.506,-0.893,0.0
9.651,-0.482,-0.901,0.0
9.316,-0.466,-0.919,0.0
8.861,-0.444,-0.922,0.0
11.374,-0.568,-0.863,0.0
10.806,-0.54,-0.877,0.0
10.256,-0.514,-0.886,0.0
9.78,-0.49,-0.898,0.0
9.343,-0.469,-0.907,0.0
8.991,-0.452,-0.921,0.0
11.568,-0.58,-0.859,0.0
10.956,-0.55,-0.872,0.0
10.433,-0.524,-0.885,0.0
9.967,-0.501,-0.899,0.0
9.516,-0.479,-0.909,0.0
9.102,-0.459,-0.918,0.0
11.811,-0.593,-0.859,0.0
11.122,-0.559,-0.867,0.0
10.585,-0.533,-0.881,0.0
10.092,-0.508,-0.894,0.0
9.654,-0.487,-0.907,0.0
9.201,-0.465,-0.913,0.0
12.04,-0.606,-0.856,0.0
11.357,-0.572,-0.867,0.0
10.773,-0.543,-0.879,0.0
10.219,-0.515,-0.889,0.0
9.782,-0.494,-0.902,0.0
9.311,-0.471,-0.908,0.0
12.306,-0.62,-0.855,0.0
11.522,-0.58,-0.861,0.0
10.944,-0.552,-0.875,0.0
10.392,-0.524,-0.887,0.0
9.914,-0.501,-0.898,0.0
9.525,-0.481,-0.914,0.0
12.492,-0.629,-0.847,0.0
11.771,-0.593,-0.86,0.0
11.112,-0.56,-0.87,0.0
10.554,-0.532,-0.883,0.0
10.075,-0.508,-0.896,0.0
9.627,-0.486,-0.907,0.0
20.014,-1.007,-1.325,0.0
12.005,-0.604,-0.857,0.0
11.312,-0.569,-0.867,0.0
10.72,-0.54,-0.879,0.0
10.224,-0.515,-0.893,0.0
9.76,-0.492,-0.903,0.0
19.992,-1.004,-1.29,0.0
12.299,-0.618,-0.858,0.0
11.501,-0.578,-0.863,0.0
10.934,-0.55,-0.879,0.0
10.358,-0.521,-0.887,0.0
9.878,-0.497,-0.898,0.0
13.437,-0.673,-0.844,0.0
12.494,-0.626,-0.851,0.0
11.733,-0.588,-0.86,0.0
11.1,-0.556,-0.873,0.0
10.549,-0.529,-0.885,0.0
10.064,-0.504,-0.897,0.0
13.746,-0.687,-0.841,0.0
19.99,-0.998,-1.327,0.0
11.99,-0.599,-0.859,0.0
11.283,-0.563,-0.868,0.0
10.735,-0.536,-0.882,0.0
10.197,-0.509,-0.892,0.0
14.08,-0.7,-0.837,0.0
19.968,-0.993,-1.292,0.0
12.279,-0.61,-0.858,0.0
11.469,-0.57,-0.863,0.0
10.945,-0.544,-0.881,0.0
10.363,-0.515,-0.888,0.0
14.401,-0.713,-0.831,0.0
13.405,-0.663,-0.844,0.0
12.457,-0.616,-0.849,0.0
11.723,-0.58,-0.862,0.0
11.079,-0.548,-0.872,0.0
10.568,-0.522,-0.888,0.0
14.754,-0.726,-0.826,0.0
13.715,-0.675,-0.839,0.0
20.007,-0.984,-1.329,0.0
11.991,-0.589,-0.86,0.0
11.307,-0.555,-0.87,0.0
10.734,-0.527,-0.883,0.0
15.044,-0.736,-0.816,0.0
14.049,-0.686,-0.835,0.0
13.198,-0.644,-0.854,0.0
12.277,-0.599,-0.859,0.0
11.512,-0.561,-0.866,0.0
10.922,-0.532,-0.879,0.0
15.545,-0.754,-0.816,0.0
14.398,-0.698,-0.831,0.0
13.435,-0.651,-0.846,0.0
12.519,-0.606,-0.855,0.0
11.738,-0.568,-0.863,0.0
11.101,-0.536,-0.874,0.0
20.062,-0.966,-1.019,0.0
14.678,-0.706,-0.822,0.0
13.758,-0.661,-0.842,0.0
19.933,-0.956,-1.326,0.0
12.029,-0.576,-0.863,0.0
11.307,-0.541,-0.87,0.0
20.042,-0.956,-0.983,0.0
15.124,-0.72,-0.82,0.0
14.065,-0.669,-0.836,0.0
13.236,-0.629,-0.857,0.0
12.269,-0.582,-0.859,0.0
11.532,-0.546,-0.867,0.0
16.766,-0.791,-0.792,0.0
15.437,-0.727,-0.81,0.0
14.332,-0.674,-0.827,0.0
13.43,-0.631,-0.846,0.0
12.498,-0.586,-0.852,0.0
11.765,-0.551,-0.864,0.0
17.395,-0.812,-0.792,0.0
15.949,-0.743,-0.809,0.0
14.72,-0.685,-0.823,0.0
13.738,-0.638,-0.841,0.0
12.929,-0.599,-0.859,0.0
12.061,-0.558,-0.864,0.0
17.856,-0.823,-0.78,0.0
16.484,-0.758,-0.806,0.0
15.171,-0.697,-0.821,0.0
14.146,-0.648,-0.841,0.0
13.189,-0.603,-0.852,0.0
12.341,-0.564,-0.862,0.0
18.224,-0.829,-0.764,0.0
16.742,-0.76,-0.789,0.0
15.446,-0.7,-0.808,0.0
14.446,-0.653,-0.833,0.0
13.493,-0.609,-0.848,0.0
12.582,-0.566,-0.856,0.0
18.976,-0.851,-0.762,0.0
17.412,-0.779,-0.79,0.0
16.069,-0.717,-0.812,0.0
14.719,-0.655,-0.822,0.0
13.828,-0.614,-0.844,0.0
12.819,-0.568,-0.85,0.0
19.711,-0.87,-0.757,0.0
17.754,-0.781,-0.773,0.0
16.393,-0.72,-0.799,0.0
15.189,-0.665,-0.821,0.0
14.13,-0.617,-0.837,0.0
13.251,-0.577,-0.854,0.0
20.137,-0.874,-0.737,0.0
18.342,-0.794,-0.766,0.0
16.883,-0.729,-0.793,0.0
15.55,-0.669,-0.813,0.0
14.46,-0.621,-0.831,0.0
13.528,-0.579,-0.848,0.0
20.916,-0.891,-0.728,0.0
19.013,-0.808,-0.761,0.0
17.516,-0.742,-0.792,0.0
16.004,-0.676,-0.808,0.0
14.793,-0.623,-0.824,0.0
13.811,-0.58,-0.842,0.0
21.672,-0.906,-0.717,0.0
19.527,-0.814,-0.747,0.0
17.848,-0.741,-0.776,0.0
16.361,-0.677,-0.798,0.0
15.19,-0.627,-0.82,0.0
14.203,-0.584,-0.84,0.0
22.68,-0.929,-0.71,0.0
20.306,-0.829,-0.741,0.0
18.563,-0.755,-0.774,0.0
17.04,-0.691,-0.801,0.0
15.52,-0.627,-0.81,0.0
14.44,-0.581,-0.829,0.0
23.536,-0.943,-0.696,0.0
20.873,-0.833,-0.725,0.0
18.899,-0.752,-0.755,0.0
17.414,-0.69,-0.788,0.0
16.077,-0.635,-0.811,0.0
14.863,-0.584,-0.827,0.0
24.57,-0.962,-0.684,0.0
21.805,-0.85,-0.72,0.0
19.57,-0.76,-0.747,0.0
17.985,-0.695,-0.782,0.0
16.556,-0.638,-0.806,0.0
15.256,-0.585,-0.823,0.0
25.831,-0.986,-0.674,0.0
22.635,-0.86,-0.708,0.0
20.389,-0.771,-0.744,0.0
18.408,-0.693,-0.769,0.0
17.019,-0.638,-0.8,0.0
15.754,-0.588,-0.822,0.0
26.569,-0.987,-0.647,0.0
23.467,-0.868,-0.693,0.0
21.02,-0.774,-0.73,0.0
18.972,-0.695,-0.76,0.0
17.421,-0.635,-0.788,0.0
