X,Y,Z,Reflectivity
66.013,2.843,2.715,17.0
66.025,2.828,2.337,30.0
50.451,2.149,1.497,65.0
49.814,2.11,1.188,22.0
66.118,2.786,1.198,22.0
66.096,2.77,0.819,26.0
66.027,2.748,2.621,30.0
66.081,2.734,2.245,24.0
50.43,2.075,1.424,64.0
50.123,2.05,1.124,17.0
61.064,2.483,1.02,13.0
119.963,4.852,1.319,11.0
66.132,2.655,2.533,20.0
50.704,2.023,1.651,6.0
50.408,1.999,1.353,62.0
63.802,2.515,1.341,5.0
61.86,2.423,0.947,8.0
61.032,2.377,0.586,6.0
190.79,7.373,7.044,26.0
50.629,1.943,1.579,14.0
50.395,1.921,1.283,62.0
120.077,4.549,2.361,8.0
119.992,4.517,1.673,7.0
72.374,2.706,0.595,13.0
72.528,2.69,2.578,14.0
50.578,1.862,1.508,20.0
72.45,2.65,1.747,25.0
72.396,2.629,1.324,26.0
72.38,2.61,0.91,26.0
72.271,2.588,0.497,16.0
72.404,2.57,2.476,29.0
72.373,2.551,2.062,13.0
72.376,2.532,1.648,33.0
72.333,2.512,1.227,36.0
72.367,2.495,0.815,30.0
71.999,2.463,0.4,15.0
72.408,2.454,2.381,32.0
72.396,2.435,1.968,34.0
72.401,2.416,1.554,34.0
72.389,2.397,1.134,38.0
72.394,2.379,0.722,30.0
71.724,2.338,0.306,13.0
72.478,2.338,2.29,2.0
120.001,3.841,3.108,18.0
119.969,3.807,2.423,3.0
120.007,3.776,1.727,14.0
72.515,2.262,0.63,9.0
71.305,2.205,0.213,11.0
78.967,2.416,2.395,4.0
78.945,2.394,1.944,20.0
78.929,2.371,1.493,24.0
78.887,2.348,1.035,24.0
78.824,2.326,0.586,15.0
70.462,2.06,0.122,6.0
78.83,2.278,2.293,24.0
74.78,2.14,1.749,4.0
78.855,2.235,1.395,27.0
78.867,2.213,0.938,28.0
78.699,2.187,0.488,11.0
65.35,1.798,0.034,6.0
78.853,2.142,2.197,30.0
78.883,2.121,1.749,25.0
78.915,2.1,1.301,6.0
78.855,2.076,0.843,4.0
71.703,1.867,0.359,6.0
65.869,1.697,-0.044,6.0
119.945,3.049,3.2,24.0
85.348,2.145,1.791,14.0
85.298,2.12,1.306,28.0
85.215,2.093,0.811,22.0
72.031,1.748,0.276,16.0
67.281,1.615,-0.123,1.0
85.238,2.015,2.175,30.0
85.247,1.99,1.691,38.0
85.233,1.966,1.207,38.0
85.187,1.941,0.714,26.0
71.957,1.618,0.194,14.0
0.0,0.0,0.0,0.0
85.258,1.863,2.08,31.0
85.287,1.839,1.597,35.0
85.311,1.814,1.112,34.0
85.183,1.787,0.619,14.0
71.83,1.485,0.114,7.0
0.0,0.0,0.0,0.0
91.909,1.842,2.142,16.0
91.94,1.815,1.62,23.0
91.972,1.787,1.099,22.0
85.223,1.631,0.527,12.0
72.207,1.361,0.037,3.0
0.0,0.0,0.0,0.0
87.796,1.599,1.953,1.0
87.358,1.564,1.447,40.0
91.868,1.616,1.001,34.0
78.38,1.355,0.402,7.0
73.84,1.255,-0.039,2.0
0.0,0.0,0.0,0.0
91.956,1.502,1.949,26.0
91.95,1.473,1.428,33.0
91.959,1.446,0.908,27.0
80.955,1.248,0.333,6.0
0.0,0.0,0.0,0.0
47.161,0.698,-0.339,0.0
98.65,1.427,1.993,26.0
98.544,1.393,1.432,26.0
98.515,1.363,0.875,18.0
80.907,1.094,0.252,6.0
0.0,0.0,0.0,0.0
0.0,0.0,0.0,0.0
98.535,1.237,1.895,30.0
98.539,1.206,1.337,29.0
98.297,1.171,0.778,11.0
80.11,0.929,0.173,2.0
0.0,0.0,0.0,0.0
0.0,0.0,0.0,0.0
98.66,1.048,1.804,26.0
98.668,1.017,1.246,25.0
98.241,0.981,0.686,13.0
0.0,0.0,0.0,0.0
54.63,0.511,-0.24,0.0
42.748,0.386,-0.429,0.0
100.094,0.869,1.739,4.0
99.987,0.837,1.174,5.0
97.992,0.789,0.597,7.0
0.0,0.0,0.0,0.0
0.0,0.0,0.0,0.0
42.846,0.303,-0.468,0.0
111.081,0.749,1.834,20.0
111.043,0.711,1.206,11.0
96.808,0.589,0.506,2.0
0.0,0.0,0.0,0.0
0.0,0.0,0.0,0.0
0.0,0.0,0.0,0.0
111.124,0.528,1.741,23.0
111.049,0.491,1.113,19.0
94.598,0.387,0.415,4.0
0.0,0.0,0.0,0.0
49.812,0.171,-0.346,0.0
37.657,0.117,-0.474,0.0
119.871,0.331,1.781,11.0
111.134,0.27,1.026,12.0
93.212,0.196,0.335,3.0
0.0,0.0,0.0,0.0
45.698,0.066,-0.354,1.0
37.532,0.041,-0.502,0.0
111.108,0.085,1.565,15.0
111.035,0.047,0.939,8.0
0.0,0.0,0.0,0.0
0.0,0.0,0.0,0.0
45.062,-0.026,-0.383,1.0
0.0,0.0,0.0,0.0
111.292,-0.14,1.486,1.0
110.99,-0.177,0.858,16.0
0.0,0.0,0.0,0.0
0.0,0.0,0.0,0.0
45.196,-0.118,-0.416,1.0
35.485,-0.105,-0.526,0.0
119.736,-0.393,1.515,9.0
111.137,-0.403,0.782,6.0
0.0,0.0,0.0,0.0
0.0,0.0,0.0,0.0
41.563,-0.194,-0.411,0.0
34.465,-0.172,-0.534,0.0
119.723,-0.639,1.434,16.0
111.121,-0.63,0.709,5.0
0.0,0.0,0.0,0.0
0.0,0.0,0.0,0.0
0.0,0.0,0.0,0.0
34.617,-0.244,-0.559,0.0
119.714,-0.885,1.359,18.0
114.262,-0.885,0.657,3.0
0.0,0.0,0.0,0.0
0.0,0.0,0.0,0.0
40.944,-0.359,-0.456,0.0
33.015,-0.301,-0.553,0.0
119.756,-1.133,1.289,150.0
119.748,-1.173,0.619,16.0
0.0,0.0,0.0,0.0
0.0,0.0,0.0,0.0
0.0,0.0,0.0,0.0
0.0,0.0,0.0,0.0
139.293,-1.605,1.422,16.0
0.0,0.0,0.0,0.0
0.0,0.0,0.0,0.0
0.0,0.0,0.0,0.0
38.007,-0.491,-0.465,0.0
0.0,0.0,0.0,0.0
138.916,-1.885,1.347,17.0
0.0,0.0,0.0,0.0
0.0,0.0,0.0,0.0
46.613,-0.682,-0.333,0.0
37.729,-0.565,-0.48,0.0
31.325,-0.481,-0.574,0.0
138.965,-2.175,1.28,10.0
113.508,-1.817,0.413,2.0
0.0,0.0,0.0,0.0
47.182,-0.789,-0.359,0.0
37.145,-0.634,-0.49,0.0
31.491,-0.549,-0.591,0.0
139.044,-2.466,1.22,23.0
0.0,0.0,0.0,0.0
0.0,0.0,0.0,0.0
45.203,-0.851,-0.363,1.0
37.623,-0.721,-0.512,0.0
30.553,-0.597,-0.586,0.0
139.024,-2.756,1.163,20.0
0.0,0.0,0.0,0.0
55.018,-1.131,-0.152,0.0
44.808,-0.938,-0.378,1.0
0.0,0.0,0.0,0.0
30.46,-0.659,-0.596,0.0
138.904,-3.048,1.11,16.0
0.0,0.0,0.0,0.0
55.335,-1.254,-0.173,0.0
0.0,0.0,0.0,0.0
0.0,0.0,0.0,0.0
30.256,-0.719,-0.602,0.0
138.864,-3.337,1.064,12.0
0.0,0.0,0.0,0.0
55.124,-1.365,-0.19,0.0
43.72,-1.098,-0.398,2.0
0.0,0.0,0.0,0.0
21.918,-0.566,-0.443,4.0
138.855,-3.625,1.024,13.0
0.0,0.0,0.0,0.0
54.933,-1.474,-0.204,0.0
44.542,-1.212,-0.417,0.0
34.962,-0.964,-0.522,0.0
21.898,-0.612,-0.448,15.0
138.442,-3.905,0.986,14.0
0.0,0.0,0.0,0.0
54.679,-1.583,-0.217,0.0
44.444,-1.303,-0.427,1.0
34.903,-1.036,-0.529,0.0
29.462,-0.886,-0.61,0.0
138.632,-4.204,0.957,9.0
0.0,0.0,0.0,0.0
0.0,0.0,0.0,0.0
43.98,-1.382,-0.431,0.0
34.67,-1.102,-0.532,0.0
29.36,-0.944,-0.613,0.0
138.617,-4.491,0.932,9.0
0.0,0.0,0.0,0.0
0.0,0.0,0.0,0.0
41.493,-1.39,-0.414,0.0
35.056,-1.187,-0.543,0.0
0.0,0.0,0.0,0.0
138.576,-4.776,0.912,10.0
0.0,0.0,0.0,0.0
0.0,0.0,0.0,0.0
0.0,0.0,0.0,0.0
34.918,-1.255,-0.545,0.0
29.035,-1.054,-0.614,0.0
138.447,-5.06,0.898,9.0
0.0,0.0,0.0,0.0
0.0,0.0,0.0,0.0
0.0,0.0,0.0,0.0
0.0,0.0,0.0,0.0
29.104,-1.118,-0.618,0.0
138.41,-5.346,0.889,9.0
0.0,0.0,0.0,0.0
0.0,0.0,0.0,0.0
0.0,0.0,0.0,0.0
34.244,-1.373,-0.539,0.0
29.209,-1.182,-0.621,0.0
138.328,-5.628,0.885,8.0
0.0,0.0,0.0,0.0
55.229,-2.288,-0.255,0.0
42.927,-1.794,-0.439,1.0
0.0,0.0,0.0,0.0
28.95,-1.232,-0.615,0.0
138.066,-5.903,0.884,11.0
0.0,0.0,0.0,0.0
0.0,0.0,0.0,0.0
44.438,-1.949,-0.453,0.0
0.0,0.0,0.0,0.0
0.0,0.0,0.0,0.0
138.23,-6.191,0.892,9.0
0.0,0.0,0.0,0.0
20.021,-0.911,-0.091,0.0
19.992,-0.917,-0.202,18.0
20.004,-0.925,-0.312,18.0
20.053,-0.935,-0.424,13.0
138.172,-6.47,0.903,8.0
20.017,-0.944,0.02,0.0
19.992,-0.95,-0.088,23.0
19.99,-0.958,-0.2,31.0
20.004,-0.965,-0.31,26.0
20.03,-0.974,-0.421,26.0
138.176,-6.748,0.92,6.0
20.001,-0.983,0.023,13.0
19.982,-0.99,-0.086,31.0
19.988,-0.998,-0.197,30.0
20.016,-1.007,-0.308,25.0
20.025,-1.015,-0.418,31.0
20.007,-1.017,0.136,18.0
19.989,-1.024,0.026,25.0
19.986,-1.031,-0.082,26.0
20.02,-1.04,-0.194,25.0
20.051,-1.049,-0.304,0.0
20.062,-1.057,-0.415,6.0
19.985,-1.056,0.14,26.0
19.984,-1.063,0.03,28.0
20.009,-1.072,-0.078,25.0
42.643,-2.301,-0.405,0.0
0.0,0.0,0.0,0.0
0.0,0.0,0.0,0.0
20.004,-1.097,0.145,27.0
20.007,-1.104,0.035,22.0
20.039,-1.113,-0.073,0.0
44.134,-2.468,-0.408,0.0
0.0,0.0,0.0,0.0
0.0,0.0,0.0,0.0
20.053,-1.139,0.15,11.0
20.066,-1.147,0.041,0.0
19.985,-1.149,-0.068,1.0
20.006,-1.158,-0.179,61.0
20.002,-1.165,-0.288,63.0
20.003,-1.173,-0.398,82.0
20.016,-1.176,0.156,52.0
20.004,-1.182,0.047,151.0
19.984,-1.188,-0.061,151.0
19.986,-1.196,-0.173,150.0
19.982,-1.203,-0.282,150.0
19.983,-1.21,-0.391,62.0
19.982,-1.213,0.163,151.0
20.003,-1.221,0.054,26.0
20.013,-1.229,-0.054,23.0
20.039,-1.238,-0.166,26.0
20.058,-1.246,-0.275,17.0
20.079,-1.255,-0.385,28.0
19.991,-1.252,0.17,28.0
19.995,-1.259,0.061,27.0
19.997,-1.266,-0.047,24.0
20.001,-1.273,-0.158,30.0
20.03,-1.283,-0.267,28.0
20.045,-1.291,-0.376,30.0
19.969,-1.288,0.178,28.0
19.985,-1.296,0.07,25.0
19.992,-1.304,-0.038,19.0
20.002,-1.311,-0.149,29.0
20.023,-1.32,-0.258,28.0
20.059,-1.33,-0.368,26.0
20.004,-1.328,0.187,22.0
19.993,-1.334,0.079,18.0
19.978,-1.34,-0.029,13.0
20.001,-1.349,-0.14,20.0
20.035,-1.358,-0.249,16.0
20.059,-1.367,-0.358,0.0
119.317,-8.146,1.178,17.0
19.968,-1.369,0.088,0.0
20.023,-1.38,-0.019,3.0
48.685,-3.374,-0.317,0.0
0.0,0.0,0.0,0.0
0.0,0.0,0.0,0.0
20.034,-1.404,0.207,11.0
20.024,-1.41,0.099,0.0
0.0,0.0,0.0,0.0
43.748,-3.111,-0.262,1.0
40.631,-2.904,-0.463,0.0
0.0,0.0,0.0,0.0
20.028,-1.44,0.218,47.0
20.009,-1.445,0.11,10.0
48.861,-3.547,0.004,0.0
45.104,-3.29,-0.244,19.0
38.295,-2.806,-0.415,2.0
34.237,-2.521,-0.557,0.0
20.047,-1.477,0.23,10.0
20.033,-1.483,0.122,4.0
65.684,-4.884,0.043,1.0
40.577,-3.031,-0.196,0.0
36.179,-2.715,-0.371,1.0
34.32,-2.587,-0.537,1.0
119.247,-8.999,1.445,20.0
95.506,-7.238,0.64,3.0
63.088,-4.802,0.081,1.0
40.566,-3.101,-0.171,0.0
37.148,-2.852,-0.357,13.0
31.702,-2.445,-0.476,2.0
67.871,-5.239,0.865,92.0
67.857,-5.259,0.498,90.0
67.644,-5.265,0.131,23.0
40.802,-3.189,-0.145,4.0
33.87,-2.659,-0.303,2.0
31.193,-2.459,-0.448,1.0
119.243,-9.408,1.601,16.0
93.355,-7.394,0.748,2.0
67.677,-5.383,0.177,16.0
49.571,-3.959,-0.142,23.0
40.642,-3.259,-0.336,2.0
31.827,-2.562,-0.435,16.0
119.233,-9.608,1.683,16.0
108.418,-8.769,0.945,2.0
67.603,-5.489,0.224,6.0
50.073,-4.081,-0.108,24.0
40.64,-3.325,-0.307,1.0
30.051,-2.469,-0.389,7.0
119.235,-9.802,1.77,17.0
112.236,-9.262,1.061,4.0
72.563,-6.011,0.295,4.0
50.701,-4.216,-0.072,25.0
43.733,-3.65,-0.297,4.0
35.495,-2.974,-0.433,11.0
78.15,-8.216,2.43,11.0
78.781,-8.297,2.029,23.0
33.147,-3.497,0.676,48.0
33.146,-3.503,0.496,73.0
33.111,-3.506,0.319,78.0
33.104,-3.512,0.143,82.0
33.183,-3.522,1.069,4.0
33.173,-3.526,0.892,71.0
33.146,-3.53,0.714,73.0
33.123,-3.533,0.533,85.0
33.112,-3.538,0.357,79.0
33.108,-3.544,0.18,73.0
33.162,-3.551,1.106,73.0
33.148,-3.555,0.929,75.0
33.131,-3.559,0.751,84.0
33.122,-3.564,0.571,80.0
33.132,-3.571,0.395,81.0
33.126,-3.576,0.219,54.0
33.154,-3.581,1.144,81.0
33.142,-3.585,0.967,81.0
33.133,-3.589,0.79,82.0
33.133,-3.595,0.61,75.0
33.129,-3.6,0.433,44.0
33.144,-3.607,0.257,20.0
33.161,-3.611,1.183,84.0
33.148,-3.614,1.006,80.0
33.16,-3.621,0.83,64.0
33.145,-3.624,0.65,40.0
33.163,-3.631,0.473,3.0
90.482,-9.923,0.81,8.0
33.17,-3.639,1.223,83.0
33.154,-3.642,1.045,49.0
33.165,-3.648,0.869,34.0
33.169,-3.653,0.689,0.0
118.789,-13.103,1.836,19.0
98.232,-10.85,0.995,3.0
33.176,-3.666,1.262,44.0
33.189,-3.672,1.086,21.0
75.112,-8.32,2.058,24.0
75.252,-8.346,1.653,21.0
118.868,-13.2,1.979,29.0
110.52,-12.29,1.252,7.0
33.207,-3.694,1.304,4.0
72.473,-8.072,2.46,16.0
74.764,-8.336,2.139,28.0
75.119,-8.385,1.741,26.0
75.3,-8.416,1.344,12.0
112.433,-12.581,1.409,7.0
72.289,-8.093,2.926,14.0
74.023,-8.296,2.602,30.0
74.548,-8.363,2.223,14.0
74.538,-8.371,1.818,43.0
75.215,-8.456,1.434,23.0
75.304,-8.476,1.035,20.0
0.0,0.0,0.0,0.0
74.337,-8.379,2.704,35.0
0.0,0.0,0.0,0.0
74.288,-8.39,1.902,33.0
75.188,-8.499,1.526,24.0
75.221,-8.512,1.126,23.0
73.268,-8.296,3.145,12.0
72.994,-8.272,2.744,17.0
75.292,-8.539,2.429,44.0
74.806,-8.492,2.007,16.0
75.177,-8.542,1.617,25.0
75.205,-8.552,1.218,28.0
69.682,-7.93,3.077,14.0
73.195,-8.336,2.841,43.0
75.206,-8.57,2.519,47.0
74.37,-8.482,2.087,14.0
75.111,-8.573,1.708,22.0
75.028,-8.571,1.307,42.0
73.408,-8.392,3.332,28.0
73.33,-8.388,2.937,34.0
72.963,-8.352,2.533,10.0
75.238,-8.618,2.204,15.0
75.099,-8.608,1.799,24.0
74.126,-8.503,1.381,30.0
73.329,-8.417,3.419,43.0
73.176,-8.404,3.02,14.0
72.865,-8.374,2.619,12.0
74.744,-8.595,2.281,9.0
73.46,-8.453,1.851,4.0
73.221,-8.43,1.456,28.0
73.059,-8.418,3.496,25.0
73.094,-8.426,3.108,20.0
72.63,-8.376,2.702,29.0
74.311,-8.575,2.36,9.0
73.709,-8.51,1.948,6.0
73.326,-8.471,1.548,9.0
73.015,-8.441,3.585,34.0
73.31,-8.478,3.208,35.0
72.567,-8.396,2.789,12.0
74.417,-8.613,2.455,15.0
78.14,-9.048,2.161,14.0
74.238,-8.601,1.658,3.0
20.013,-0.958,-0.167,27.0
20.016,-0.953,-0.272,27.0
20.047,-0.948,-0.379,20.0
20.078,-0.944,-0.488,2.0
23.653,-1.106,-0.7,0.0
21.162,-0.984,-0.738,0.0
20.027,-0.927,-0.142,8.0
20.007,-0.92,-0.248,17.0
20.012,-0.914,-0.354,0.0
0.0,0.0,0.0,0.0
23.951,-1.081,-0.679,0.0
21.761,-0.975,-0.732,0.0
0.0,0.0,0.0,0.0
0.0,0.0,0.0,0.0
33.669,-1.483,-0.555,0.0
28.674,-1.255,-0.627,0.0
0.0,0.0,0.0,0.0
22.157,-0.957,-0.719,0.0
0.0,0.0,0.0,0.0
43.032,-1.837,-0.431,0.0
0.0,0.0,0.0,0.0
0.0,0.0,0.0,0.0
26.146,-1.092,-0.68,0.0
22.778,-0.945,-0.713,0.0
0.0,0.0,0.0,0.0
0.0,0.0,0.0,0.0
0.0,0.0,0.0,0.0
30.502,-1.231,-0.596,0.0
26.872,-1.076,-0.668,0.0
23.331,-0.928,-0.704,0.0
0.0,0.0,0.0,0.0
0.0,0.0,0.0,0.0
38.232,-1.489,-0.498,0.0
31.686,-1.224,-0.584,0.0
27.031,-1.036,-0.642,0.0
23.875,-0.908,-0.694,0.0
0.0,0.0,0.0,0.0
0.0,0.0,0.0,0.0
0.0,0.0,0.0,0.0
32.835,-1.211,-0.57,0.0
28.143,-1.029,-0.638,0.0
24.577,-0.891,-0.688,0.0
0.0,0.0,0.0,0.0
0.0,0.0,0.0,0.0
41.556,-1.473,-0.453,0.0
34.754,-1.221,-0.567,0.0
0.0,0.0,0.0,0.0
25.145,-0.867,-0.678,0.0
0.0,0.0,0.0,0.0
0.0,0.0,0.0,0.0
44.321,-1.49,-0.437,0.0
35.457,-1.181,-0.542,0.0
29.685,-0.979,-0.611,0.0
26.103,-0.852,-0.677,0.0
0.0,0.0,0.0,0.0
0.0,0.0,0.0,0.0
46.509,-1.478,-0.411,0.0
37.95,-1.193,-0.542,0.0
30.597,-0.952,-0.6,0.0
21.905,-0.675,-0.546,1.0
0.0,0.0,0.0,0.0
0.0,0.0,0.0,0.0
47.011,-1.406,-0.37,0.0
38.044,-1.126,-0.506,0.0
0.0,0.0,0.0,0.0
21.9,-0.633,-0.525,153.0
0.0,0.0,0.0,0.0
0.0,0.0,0.0,0.0
48.559,-1.362,-0.336,0.0
40.259,-1.116,-0.498,0.0
0.0,0.0,0.0,0.0
21.906,-0.592,-0.505,152.0
138.563,-3.717,0.645,2.0
0.0,0.0,0.0,0.0
0.0,0.0,0.0,0.0
43.306,-1.117,-0.496,0.0
0.0,0.0,0.0,0.0
0.0,0.0,0.0,0.0
138.85,-3.459,0.77,6.0
0.0,0.0,0.0,0.0
54.808,-1.327,-0.281,1.0
43.746,-1.045,-0.463,1.0
36.609,-0.863,-0.583,0.0
28.977,-0.673,-0.617,0.0
138.923,-3.191,0.89,12.0
0.0,0.0,0.0,0.0
54.559,-1.216,-0.234,0.0
43.852,-0.962,-0.427,0.0
0.0,0.0,0.0,0.0
0.0,0.0,0.0,0.0
139.039,-2.922,1.006,20.0
0.0,0.0,0.0,0.0
0.0,0.0,0.0,0.0
45.952,-0.92,-0.411,2.0
0.0,0.0,0.0,0.0
30.523,-0.59,-0.6,0.0
99.151,7.635,0.394,4.0
45.336,3.501,-0.075,19.0
40.895,3.167,-0.299,14.0
38.726,3.008,-0.506,0.0
31.278,2.436,-0.586,0.0
26.839,2.097,-0.654,0.0
45.857,3.603,0.142,17.0
45.155,3.557,-0.116,19.0
40.629,3.21,-0.334,14.0
36.018,2.854,-0.503,0.0
30.346,2.411,-0.596,0.0
25.913,2.065,-0.656,0.0
45.732,3.665,0.098,33.0
44.901,3.608,-0.157,19.0
40.383,3.254,-0.37,7.0
34.894,2.819,-0.521,1.0
29.664,2.403,-0.611,0.0
25.228,2.05,-0.663,0.0
45.618,3.726,0.054,28.0
44.436,3.638,-0.198,19.0
40.154,3.296,-0.407,6.0
33.893,2.79,-0.539,1.0
28.656,2.365,-0.618,0.0
24.85,2.056,-0.677,0.0
45.485,3.783,0.01,23.0
43.314,3.611,-0.236,18.0
40.005,3.343,-0.445,7.0
32.913,2.757,-0.556,0.0
28.091,2.359,-0.634,0.0
24.156,2.034,-0.682,0.0
45.343,3.837,-0.035,25.0
41.333,3.506,-0.266,17.0
39.907,3.393,-0.484,8.0
31.962,2.724,-0.572,0.0
27.217,2.325,-0.642,0.0
23.7,2.029,-0.694,0.0
45.156,3.885,-0.081,20.0
40.533,3.495,-0.303,16.0
39.819,3.442,-0.524,0.0
30.778,2.666,-0.583,0.0
26.34,2.287,-0.649,0.0
22.984,2.001,-0.697,0.0
44.916,3.927,-0.128,19.0
40.222,3.524,-0.343,15.0
36.457,3.201,-0.518,1.0
29.933,2.634,-0.599,0.0
25.765,2.272,-0.662,0.0
22.54,1.993,-0.707,0.0
44.258,3.93,-0.173,19.0
39.789,3.54,-0.382,8.0
36.092,3.218,-0.552,0.0
29.086,2.599,-0.613,0.0
25.09,2.246,-0.672,0.0
22.013,1.975,-0.715,0.0
43.036,3.878,-0.216,19.0
39.643,3.579,-0.424,7.0
32.834,2.97,-0.538,0.0
28.276,2.563,-0.627,0.0
24.448,2.22,-0.682,0.0
21.527,1.959,-0.723,0.0
41.909,3.829,-0.256,20.0
39.554,3.621,-0.467,6.0
31.938,2.929,-0.559,1.0
27.276,2.507,-0.636,0.0
23.787,2.19,-0.69,0.0
21.019,1.939,-0.729,0.0
40.392,3.74,-0.293,16.0
39.462,3.661,-0.51,2.0
31.119,2.892,-0.58,0.0
26.447,2.462,-0.646,0.0
22.997,2.145,-0.693,0.0
20.426,1.909,-0.732,0.0
39.982,3.75,-0.335,16.0
35.3,3.317,-0.497,1.0
30.164,2.839,-0.596,0.0
25.736,2.426,-0.658,0.0
22.549,2.13,-0.705,0.0
20.01,1.894,-0.74,0.0
39.503,3.751,-0.377,11.0
34.694,3.3,-0.529,1.0
28.937,2.757,-0.606,0.0
25.061,2.391,-0.671,0.0
21.973,2.1,-0.713,0.0
19.608,1.878,-0.749,0.0
39.351,3.781,-0.422,8.0
34.423,3.312,-0.566,0.0
27.938,2.693,-0.619,0.0
24.274,2.343,-0.679,0.0
21.452,2.074,-0.722,0.0
19.165,1.856,-0.755,0.0
39.314,3.819,-0.468,7.0
31.663,3.081,-0.558,0.0
27.265,2.657,-0.636,0.0
23.649,2.308,-0.689,0.0
20.864,2.039,-0.727,0.0
18.754,1.836,-0.761,0.0
39.262,3.855,-0.515,5.0
30.822,3.03,-0.58,0.0
26.332,2.593,-0.646,0.0
23.014,2.269,-0.699,0.0
20.366,2.011,-0.734,0.0
18.238,1.804,-0.762,0.0
39.208,3.888,-0.562,0.0
29.484,2.928,-0.59,0.0
25.567,2.542,-0.658,0.0
22.374,2.228,-0.706,0.0
19.822,1.977,-0.739,0.0
17.894,1.787,-0.77,0.0
33.828,3.387,-0.526,1.0
28.655,2.872,-0.609,0.0
24.875,2.497,-0.671,0.0
21.65,2.176,-0.71,0.0
19.502,1.963,-0.751,0.0
17.609,1.775,-0.779,0.0
33.48,3.382,-0.562,1.0
27.555,2.787,-0.62,0.0
24.011,2.431,-0.677,0.0
21.199,2.149,-0.721,0.0
18.973,1.926,-0.754,0.0
17.183,1.747,-0.782,0.0
31.045,3.163,-0.559,0.0
26.724,2.726,-0.634,0.0
23.409,2.39,-0.69,0.0
20.559,2.102,-0.725,0.0
18.493,1.893,-0.758,0.0
16.868,1.729,-0.789,0.0
30.299,3.111,-0.584,0.0
25.948,2.667,-0.648,0.0
22.788,2.345,-0.7,0.0
20.124,2.074,-0.736,0.0
18.092,1.866,-0.765,0.0
16.449,1.699,-0.79,0.0
28.999,3.0,-0.596,0.0
25.321,2.623,-0.665,0.0
21.972,2.278,-0.703,0.0
19.768,2.052,-0.748,0.0
17.727,1.842,-0.772,0.0
16.183,1.684,-0.798,0.0
28.096,2.927,-0.612,0.0
24.5,2.555,-0.674,0.0
21.535,2.248,-0.716,0.0
19.194,2.006,-0.75,0.0
17.2,1.8,-0.771,0.0
15.933,1.669,-0.806,0.0
27.174,2.85,-0.627,0.0
23.566,2.474,-0.679,0.0
20.954,2.202,-0.724,0.0
18.522,1.948,-0.748,0.0
16.97,1.787,-0.783,0.0
15.595,1.644,-0.809,0.0
26.265,2.772,-0.64,0.0
23.034,2.433,-0.693,0.0
20.279,2.144,-0.727,0.0
18.306,1.937,-0.763,0.0
16.667,1.766,-0.79,0.0
15.215,1.613,-0.809,0.0
25.53,2.71,-0.655,0.0
22.398,2.379,-0.703,0.0
19.914,2.117,-0.739,0.0
17.808,1.895,-0.765,0.0
16.361,1.743,-0.797,0.0
14.993,1.599,-0.817,0.0
24.842,2.651,-0.67,0.0
21.804,2.328,-0.713,0.0
19.475,2.081,-0.748,0.0
17.499,1.871,-0.775,0.0
16.01,1.714,-0.801,0.0
14.721,1.577,-0.821,0.0
23.95,2.568,-0.676,0.0
21.148,2.269,-0.719,0.0
18.811,2.02,-0.747,0.0
16.965,1.823,-0.773,0.0
15.768,1.695,-0.809,0.0
14.453,1.556,-0.825,0.0
23.209,2.499,-0.685,0.0
20.436,2.202,-0.721,0.0
18.429,1.987,-0.756,0.0
16.744,1.807,-0.785,0.0
15.369,1.659,-0.808,0.0
14.22,1.537,-0.83,0.0
22.578,2.44,-0.696,0.0
20.095,2.173,-0.734,0.0
17.97,1.945,-0.76,0.0
16.45,1.781,-0.792,0.0
15.107,1.637,-0.814,0.0
13.99,1.517,-0.834,0.0
22.045,2.391,-0.707,0.0
19.503,2.116,-0.738,0.0
17.623,1.914,-0.768,0.0
16.027,1.741,-0.792,0.0
14.762,1.605,-0.815,0.0
13.753,1.496,-0.838,0.0
21.372,2.325,-0.713,0.0
19.155,2.085,-0.749,0.0
17.327,1.887,-0.777,0.0
15.842,1.726,-0.803,0.0
14.51,1.582,-0.819,0.0
13.508,1.474,-0.841,0.0
20.726,2.261,-0.718,0.0
18.617,2.031,-0.752,0.0
16.91,1.846,-0.78,0.0
15.494,1.692,-0.806,0.0
14.311,1.564,-0.826,0.0
13.264,1.45,-0.843,0.0
20.236,2.212,-0.727,0.0
18.166,1.986,-0.757,0.0
16.572,1.813,-0.786,0.0
15.172,1.661,-0.808,0.0
14.056,1.539,-0.83,0.0
13.108,1.436,-0.849,0.0
19.802,2.168,-0.737,0.0
17.846,1.955,-0.766,0.0
16.276,1.783,-0.792,0.0
14.904,1.634,-0.813,0.0
13.856,1.52,-0.836,0.0
12.91,1.417,-0.853,0.0
19.355,2.122,-0.744,0.0
17.388,1.907,-0.768,0.0
15.923,1.747,-0.795,0.0
14.648,1.608,-0.817,0.0
13.64,1.498,-0.84,0.0
12.711,1.396,-0.856,0.0
18.818,2.065,-0.747,0.0
17.036,1.87,-0.774,0.0
15.661,1.72,-0.802,0.0
14.401,1.582,-0.821,0.0
13.453,1.478,-0.845,0.0
12.492,1.373,-0.856,0.0
18.423,2.023,-0.754,0.0
16.782,1.843,-0.783,0.0
15.426,1.694,-0.808,0.0
14.158,1.556,-0.825,0.0
13.244,1.456,-0.848,0.0
12.316,1.354,-0.859,0.0
18.02,1.979,-0.76,0.0
16.413,1.802,-0.786,0.0
15.147,1.664,-0.813,0.0
13.978,1.536,-0.832,0.0
13.08,1.437,-0.854,0.0
12.107,1.331,-0.86,0.0
17.61,1.933,-0.764,0.0
16.246,1.784,-0.798,0.0
14.82,1.627,-0.813,0.0
13.734,1.508,-0.834,0.0
12.866,1.413,-0.855,0.0
11.853,1.302,-0.856,0.0
17.324,1.9,-0.772,0.0
15.83,1.737,-0.796,0.0
14.616,1.604,-0.819,0.0
13.604,1.493,-0.842,0.0
12.654,1.389,-0.856,0.0
11.698,1.284,-0.859,0.0
17.009,1.864,-0.778,0.0
15.549,1.704,-0.801,0.0
14.35,1.572,-0.822,0.0
13.3,1.458,-0.839,0.0
12.39,1.358,-0.853,0.0
11.549,1.266,-0.862,0.0
16.656,1.822,-0.782,0.0
15.295,1.673,-0.806,0.0
14.128,1.546,-0.825,0.0
13.132,1.437,-0.844,0.0
12.281,1.344,-0.86,0.0
11.357,1.243,-0.861,0.0
16.321,1.782,-0.785,0.0
15.061,1.645,-0.811,0.0
13.947,1.523,-0.831,0.0
12.987,1.418,-0.85,0.0
12.027,1.313,-0.856,0.0
11.236,1.227,-0.865,0.0
16.081,1.752,-0.792,0.0
14.813,1.614,-0.814,0.0
13.747,1.497,-0.835,0.0
12.825,1.397,-0.854,0.0
11.84,1.29,-0.856,0.0
11.069,1.206,-0.864,0.0
15.907,1.728,-0.801,0.0
14.589,1.585,-0.819,0.0
13.568,1.474,-0.839,0.0
12.557,1.364,-0.85,0.0
11.623,1.262,-0.854,0.0
10.94,1.188,-0.867,0.0
15.581,1.688,-0.802,0.0
14.346,1.554,-0.821,0.0
13.331,1.443,-0.839,0.0
12.426,1.345,-0.855,0.0
11.515,1.246,-0.859,0.0
10.869,1.176,-0.873,0.0
15.31,1.653,-0.805,0.0
14.146,1.527,-0.825,0.0
13.183,1.422,-0.844,0.0
12.298,1.326,-0.86,0.0
11.348,1.224,-0.858,0.0
10.704,1.154,-0.871,0.0
15.095,1.623,-0.81,0.0
13.974,1.502,-0.83,0.0
13.014,1.398,-0.847,0.0
12.04,1.293,-0.854,0.0
11.23,1.206,-0.861,0.0
10.65,1.144,-0.878,0.0
14.881,1.593,-0.814,0.0
13.804,1.477,-0.834,0.0
12.912,1.381,-0.854,0.0
11.889,1.271,-0.856,0.0
11.142,1.191,-0.866,0.0
10.535,1.126,-0.88,0.0
14.667,1.563,-0.817,0.0
13.647,1.453,-0.839,0.0
12.771,1.36,-0.858,0.0
11.675,1.242,-0.853,0.0
11.003,1.171,-0.867,0.0
10.419,1.108,-0.881,0.0
14.432,1.53,-0.819,0.0
13.431,1.423,-0.839,0.0
12.459,1.319,-0.849,0.0
11.607,1.229,-0.859,0.0
10.888,1.152,-0.869,0.0
10.343,1.094,-0.885,0.0
14.252,1.502,-0.822,0.0
13.245,1.395,-0.84,0.0
12.4,1.306,-0.857,0.0
11.43,1.203,-0.857,0.0
10.805,1.137,-0.872,0.0
10.206,1.073,-0.883,0.0
14.143,1.482,-0.829,0.0
13.104,1.372,-0.843,0.0
12.22,1.279,-0.857,0.0
11.299,1.182,-0.858,0.0
10.727,1.122,-0.876,0.0
10.198,1.066,-0.892,0.0
13.892,1.447,-0.827,0.0
13.033,1.356,-0.851,0.0
11.918,1.239,-0.846,0.0
11.223,1.167,-0.862,0.0
10.623,1.104,-0.877,0.0
10.042,1.043,-0.887,0.0
13.749,1.422,-0.831,0.0
12.755,1.318,-0.844,0.0
11.833,1.222,-0.851,0.0
11.111,1.147,-0.864,0.0
10.496,1.083,-0.876,0.0
9.995,1.031,-0.892,0.0
13.615,1.398,-0.835,0.0
12.552,1.288,-0.841,0.0
11.759,1.206,-0.856,0.0
10.958,1.123,-0.861,0.0
10.386,1.064,-0.876,0.0
9.932,1.017,-0.895,0.0
13.469,1.373,-0.837,0.0
12.469,1.27,-0.846,0.0
11.664,1.187,-0.858,0.0
10.871,1.105,-0.863,0.0
10.341,1.051,-0.881,0.0
9.8,0.995,-0.891,0.0
13.275,1.342,-0.836,0.0
12.427,1.255,-0.854,0.0
11.478,1.159,-0.854,0.0
10.802,1.09,-0.867,0.0
10.299,1.038,-0.885,0.0
9.831,0.99,-0.902,0.0
13.122,1.316,-0.837,0.0
12.259,1.228,-0.852,0.0
11.379,1.139,-0.855,0.0
10.703,1.07,-0.867,0.0
10.176,1.017,-0.883,0.0
9.68,0.966,-0.895,0.0
13.044,1.297,-0.841,0.0
12.117,1.203,-0.851,0.0
11.28,1.119,-0.856,0.0
10.64,1.054,-0.87,0.0
10.09,0.999,-0.882,0.0
9.659,0.956,-0.9,0.0
12.944,1.275,-0.844,0.0
11.932,1.174,-0.846,0.0
11.215,1.102,-0.859,0.0
10.649,1.046,-0.878,0.0
10.074,0.988,-0.888,0.0
9.61,0.942,-0.902,0.0
12.835,1.252,-0.846,0.0
11.879,1.157,-0.85,0.0
11.133,1.084,-0.86,0.0
10.545,1.025,-0.876,0.0
10.026,0.974,-0.89,0.0
9.543,0.926,-0.902,0.0
12.742,1.231,-0.848,0.0
11.824,1.14,-0.854,0.0
11.012,1.061,-0.858,0.0
10.416,1.002,-0.872,0.0
9.919,0.954,-0.887,0.0
9.484,0.911,-0.903,0.0
12.682,1.212,-0.852,0.0
11.769,1.123,-0.857,0.0
10.956,1.044,-0.86,0.0
10.401,0.99,-0.877,0.0
9.866,0.938,-0.888,0.0
9.447,0.898,-0.905,0.0
12.511,1.183,-0.847,0.0
11.689,1.104,-0.858,0.0
10.956,1.033,-0.867,0.0
10.329,0.973,-0.877,0.0
9.842,0.926,-0.892,0.0
9.405,0.884,-0.906,0.0
12.443,1.163,-0.85,0.0
11.64,1.086,-0.861,0.0
10.843,1.011,-0.864,0.0
10.306,0.959,-0.88,0.0
9.789,0.91,-0.892,0.0
9.331,0.866,-0.904,0.0
12.304,1.137,-0.846,0.0
11.48,1.059,-0.855,0.0
10.82,0.996,-0.867,0.0
10.247,0.943,-0.881,0.0
9.769,0.897,-0.895,0.0
9.273,0.851,-0.902,0.0
12.271,1.12,-0.85,0.0
11.441,1.042,-0.857,0.0
10.764,0.979,-0.868,0.0
10.202,0.927,-0.881,0.0
9.707,0.881,-0.894,0.0
9.261,0.839,-0.905,0.0
12.244,1.103,-0.853,0.0
11.349,1.021,-0.855,0.0
10.707,0.962,-0.867,0.0
10.201,0.915,-0.885,0.0
9.717,0.87,-0.899,0.0
9.267,0.829,-0.91,0.0
12.15,1.081,-0.851,0.0
11.35,1.008,-0.86,0.0
10.678,0.946,-0.869,0.0
10.186,0.901,-0.888,0.0
9.599,0.848,-0.891,0.0
9.207,0.812,-0.907,0.0
12.084,1.06,-0.851,0.0
11.293,0.989,-0.859,0.0
10.672,0.933,-0.872,0.0
10.107,0.882,-0.885,0.0
9.663,0.842,-0.901,0.0
9.226,0.803,-0.912,0.0
11.99,1.037,-0.848,0.0
11.248,0.971,-0.859,0.0
10.631,0.916,-0.872,0.0
10.109,0.87,-0.888,0.0
9.661,0.83,-0.903,0.0
9.102,0.781,-0.903,0.0
11.944,1.018,-0.849,0.0
11.212,0.954,-0.86,0.0
10.583,0.899,-0.871,0.0
10.082,0.855,-0.888,0.0
9.629,0.815,-0.903,0.0
9.129,0.771,-0.908,0.0
11.887,0.998,-0.847,0.0
11.17,0.936,-0.859,0.0
10.555,0.883,-0.871,0.0
10.055,0.84,-0.888,0.0
9.564,0.797,-0.899,0.0
9.076,0.755,-0.904,0.0
11.843,0.98,-0.846,0.0
11.159,0.921,-0.86,0.0
10.526,0.867,-0.871,0.0
10.032,0.825,-0.888,0.0
9.544,0.783,-0.898,0.0
9.084,0.744,-0.907,0.0
11.832,0.963,-0.847,0.0
11.152,0.906,-0.862,0.0
10.518,0.853,-0.872,0.0
10.029,0.811,-0.889,0.0
9.502,0.767,-0.896,0.0
9.125,0.735,-0.912,0.0
11.839,0.948,-0.849,0.0
11.119,0.888,-0.86,0.0
10.505,0.837,-0.872,0.0
10.017,0.797,-0.889,0.0
9.502,0.754,-0.897,0.0
9.099,0.721,-0.91,0.0
11.839,0.932,-0.85,0.0
11.088,0.871,-0.859,0.0
10.509,0.824,-0.873,0.0
9.999,0.782,-0.888,0.0
9.481,0.74,-0.895,0.0
9.104,0.709,-0.911,0.0
11.838,0.916,-0.851,0.0
11.091,0.856,-0.859,0.0
10.482,0.807,-0.871,0.0
9.995,0.768,-0.887,0.0
9.499,0.728,-0.897,0.0
9.09,0.695,-0.909,0.0
11.797,0.897,-0.848,0.0
11.076,0.84,-0.858,0.0
10.536,0.797,-0.875,0.0
9.999,0.754,-0.887,0.0
9.521,0.717,-0.898,0.0
9.111,0.684,-0.911,0.0
11.806,0.881,-0.848,0.0
11.113,0.827,-0.86,0.0
10.522,0.781,-0.873,0.0
9.992,0.74,-0.886,0.0
9.561,0.706,-0.901,0.0
9.146,0.674,-0.914,0.0
11.825,0.865,-0.848,0.0
11.144,0.813,-0.861,0.0
10.525,0.766,-0.872,0.0
10.015,0.727,-0.887,0.0
9.48,0.687,-0.893,0.0
9.144,0.661,-0.912,0.0
11.863,0.851,-0.849,0.0
11.15,0.798,-0.86,0.0
10.567,0.754,-0.874,0.0
10.07,0.717,-0.89,0.0
9.583,0.68,-0.901,0.0
9.127,0.646,-0.909,0.0
11.896,0.837,-0.849,0.0
11.177,0.784,-0.86,0.0
10.566,0.739,-0.872,0.0
10.086,0.704,-0.89,0.0
9.562,0.665,-0.897,0.0
9.168,0.636,-0.911,0.0
11.932,0.822,-0.849,0.0
11.219,0.771,-0.861,0.0
10.624,0.728,-0.874,0.0
10.072,0.688,-0.886,0.0
9.644,0.657,-0.902,0.0
9.169,0.623,-0.909,0.0
11.933,0.805,-0.846,0.0
11.209,0.754,-0.857,0.0
10.645,0.714,-0.873,0.0
10.141,0.678,-0.889,0.0
9.677,0.645,-0.902,0.0
9.227,0.613,-0.912,0.0
12.008,0.793,-0.848,0.0
11.256,0.741,-0.857,0.0
10.656,0.699,-0.87,0.0
10.138,0.663,-0.885,0.0
9.691,0.632,-0.9,0.0
9.235,0.6,-0.909,0.0
12.089,0.781,-0.849,0.0
11.32,0.728,-0.858,0.0
10.707,0.687,-0.871,0.0
10.154,0.649,-0.883,0.0
9.711,0.619,-0.899,0.0
9.258,0.588,-0.908,0.0
12.12,0.765,-0.846,0.0
11.41,0.717,-0.86,0.0
10.751,0.674,-0.87,0.0
10.187,0.636,-0.882,0.0
9.735,0.606,-0.896,0.0
9.281,0.576,-0.906,0.0
12.207,0.752,-0.847,0.0
11.446,0.703,-0.857,0.0
10.782,0.66,-0.867,0.0
10.256,0.625,-0.883,0.0
9.786,0.595,-0.897,0.0
9.4,0.569,-0.913,0.0
12.307,0.74,-0.848,0.0
11.51,0.69,-0.857,0.0
10.817,0.646,-0.865,0.0
10.277,0.611,-0.879,0.0
9.868,0.585,-0.899,0.0
9.453,0.558,-0.914,0.0
12.377,0.726,-0.847,0.0
11.549,0.675,-0.853,0.0
10.907,0.635,-0.866,0.0
10.329,0.599,-0.878,0.0
9.882,0.571,-0.895,0.0
9.475,0.545,-0.91,0.0
12.47,0.713,-0.846,0.0
11.615,0.661,-0.852,0.0
10.967,0.622,-0.864,0.0
10.383,0.586,-0.877,0.0
9.96,0.56,-0.896,0.0
9.487,0.532,-0.906,0.0
12.61,0.702,-0.848,0.0
11.691,0.648,-0.85,0.0
11.079,0.611,-0.866,0.0
10.461,0.575,-0.876,0.0
9.995,0.547,-0.892,0.0
9.572,0.522,-0.907,0.0
12.689,0.687,-0.845,0.0
11.781,0.635,-0.849,0.0
11.114,0.597,-0.862,0.0
10.549,0.564,-0.877,0.0
10.06,0.536,-0.891,0.0
9.613,0.51,-0.905,0.0
12.877,0.679,-0.848,0.0
11.903,0.624,-0.849,0.0
11.183,0.584,-0.859,0.0
10.6,0.551,-0.873,0.0
10.103,0.523,-0.888,0.0
9.694,0.5,-0.905,0.0
12.98,0.664,-0.845,0.0
12.034,0.613,-0.849,0.0
11.219,0.569,-0.853,0.0
10.69,0.54,-0.872,0.0
10.178,0.512,-0.886,0.0
9.753,0.488,-0.903,0.0
13.036,0.648,-0.839,0.0
12.168,0.602,-0.849,0.0
11.347,0.559,-0.854,0.0
10.798,0.529,-0.873,0.0
10.263,0.501,-0.886,0.0
9.828,0.477,-0.902,0.0
13.219,0.638,-0.84,0.0
12.33,0.592,-0.85,0.0
11.53,0.551,-0.858,0.0
10.913,0.519,-0.873,0.0
10.297,0.487,-0.88,0.0
9.893,0.466,-0.899,0.0
13.479,0.63,-0.845,0.0
12.425,0.578,-0.846,0.0
11.627,0.538,-0.855,0.0
11.023,0.508,-0.872,0.0
10.472,0.48,-0.885,0.0
9.927,0.453,-0.893,0.0
13.575,0.615,-0.838,0.0
12.638,0.569,-0.849,0.0
11.725,0.526,-0.851,0.0
11.121,0.496,-0.869,0.0
10.509,0.466,-0.878,0.0
10.056,0.444,-0.895,0.0
13.715,0.601,-0.834,0.0
12.716,0.554,-0.842,0.0
11.873,0.515,-0.85,0.0
11.227,0.484,-0.866,0.0
10.616,0.456,-0.877,0.0
10.095,0.431,-0.889,0.0
13.93,0.59,-0.833,0.0
13.028,0.549,-0.849,0.0
11.997,0.503,-0.847,0.0
11.313,0.472,-0.861,0.0
10.748,0.446,-0.877,0.0
10.2,0.421,-0.887,0.0
14.063,0.576,-0.826,0.0
13.133,0.535,-0.843,0.0
12.204,0.494,-0.849,0.0
11.374,0.458,-0.854,0.0
10.906,0.436,-0.878,0.0
10.291,0.409,-0.884,0.0
14.322,0.566,-0.826,0.0
13.411,0.527,-0.846,0.0
12.339,0.482,-0.845,0.0
11.566,0.449,-0.855,0.0
11.009,0.425,-0.874,0.0
10.414,0.399,-0.883,0.0
14.484,0.552,-0.819,0.0
13.639,0.516,-0.845,0.0
12.529,0.472,-0.844,0.0
11.705,0.438,-0.852,0.0
11.117,0.413,-0.87,1.0
10.489,0.388,-0.877,0.0
14.752,0.541,-0.818,0.0
13.71,0.5,-0.833,0.0
12.8,0.464,-0.847,0.0
11.845,0.426,-0.849,0.0
11.246,0.402,-0.866,0.0
10.696,0.38,-0.882,0.0
15.03,0.531,-0.815,0.0
13.948,0.489,-0.831,0.0
13.016,0.453,-0.846,0.0
12.069,0.418,-0.85,0.0
11.38,0.391,-0.863,0.0
10.812,0.369,-0.878,0.0
15.254,0.517,-0.809,0.0
14.245,0.48,-0.831,0.0
13.304,0.445,-0.848,0.0
12.282,0.408,-0.85,0.0
11.475,0.379,-0.855,0.0
10.941,0.359,-0.874,1.0
15.641,0.509,-0.809,0.0
14.444,0.467,-0.824,0.0
13.509,0.433,-0.843,0.0
12.465,0.397,-0.846,0.0
11.673,0.369,-0.855,0.0
11.09,0.348,-0.872,1.0
15.785,0.493,-0.796,0.0
14.685,0.455,-0.819,0.0
13.71,0.422,-0.838,0.0
12.895,0.394,-0.858,0.0
11.838,0.359,-0.851,0.0
11.243,0.338,-0.869,0.0
16.265,0.486,-0.799,0.0
15.057,0.447,-0.82,0.0
13.882,0.408,-0.83,0.0
13.192,0.385,-0.86,0.0
12.092,0.35,-0.853,0.0
11.379,0.327,-0.863,0.0
16.633,0.475,-0.794,0.0
15.271,0.433,-0.81,0.0
14.246,0.401,-0.832,0.0
13.274,0.37,-0.847,0.0
12.385,0.343,-0.856,0.0
11.49,0.316,-0.856,0.0
16.984,0.463,-0.786,0.0
15.743,0.426,-0.813,0.0
14.502,0.389,-0.826,0.0
13.561,0.361,-0.846,0.0
12.517,0.33,-0.847,0.0
11.711,0.307,-0.855,0.0
17.49,0.455,-0.785,0.0
15.994,0.412,-0.802,0.0
14.797,0.378,-0.821,0.0
13.758,0.349,-0.838,0.0
12.933,0.325,-0.856,0.0
11.908,0.297,-0.852,0.0
17.766,0.44,-0.771,0.0
16.454,0.404,-0.801,0.0
15.16,0.369,-0.818,0.0
14.124,0.34,-0.839,0.0
13.167,0.315,-0.852,0.0
12.189,0.289,-0.853,0.0
18.159,0.427,-0.761,0.0
16.811,0.392,-0.793,0.0
15.497,0.358,-0.813,0.0
14.351,0.328,-0.83,0.0
13.38,0.303,-0.845,0.0
12.516,0.281,-0.857,0.0
18.74,0.418,-0.756,0.0
17.193,0.38,-0.784,0.0
15.83,0.346,-0.806,0.0
14.686,0.318,-0.826,0.0
13.675,0.294,-0.842,0.0
12.734,0.271,-0.851,0.0
19.446,0.411,-0.753,0.0
17.697,0.37,-0.779,0.0
16.252,0.336,-0.801,0.0
15.028,0.308,-0.821,0.0
13.909,0.282,-0.834,0.0
13.059,0.262,-0.852,0.0
19.992,0.399,-0.742,0.0
18.127,0.358,-0.768,0.0
16.692,0.326,-0.796,0.0
15.341,0.297,-0.813,0.0
14.308,0.274,-0.834,0.0
13.362,0.253,-0.849,0.0
20.45,0.385,-0.726,0.0
18.618,0.347,-0.759,0.0
17.195,0.317,-0.791,0.0
15.79,0.288,-0.811,0.0
14.596,0.263,-0.827,0.0
13.653,0.243,-0.845,0.0
21.365,0.378,-0.723,0.0
19.286,0.338,-0.754,0.0
17.596,0.305,-0.78,2.0
16.152,0.277,-0.802,0.0
14.968,0.253,-0.822,0.0
13.947,0.233,-0.84,0.0
22.25,0.37,-0.715,0.0
19.876,0.326,-0.743,0.0
17.89,0.29,-0.762,0.0
16.674,0.267,-0.799,0.0
15.34,0.243,-0.816,0.0
14.261,0.223,-0.833,0.0
22.97,0.357,-0.698,0.0
20.582,0.316,-0.733,0.0
18.456,0.28,-0.754,0.0
17.292,0.259,-0.799,0.0
15.717,0.233,-0.808,0.0
14.717,0.215,-0.834,0.0
23.816,0.346,-0.682,0.0
21.319,0.305,-0.722,0.0
19.353,0.274,-0.756,0.0
17.628,0.246,-0.783,0.0
16.284,0.225,-0.808,0.0
15.056,0.205,-0.827,0.0
24.837,0.336,-0.667,0.0
22.361,0.298,-0.717,0.0
19.918,0.262,-0.743,0.0
18.108,0.235,-0.772,0.0
16.665,0.213,-0.797,0.0
15.358,0.194,-0.815,0.0
26.331,0.33,-0.659,0.0
23.245,0.287,-0.703,0.0
20.662,0.252,-0.733,0.0
18.618,0.224,-0.759,0.0
17.169,0.203,-0.79,0.0
15.857,0.185,-0.812,0.0
27.076,0.314,-0.628,0.0
24.236,0.277,-0.689,0.0
21.537,0.242,-0.724,0.0
19.35,0.214,-0.753,0.0
17.711,0.193,-0.782,0.0
16.45,0.177,-0.812,0.0
28.846,0.308,-0.615,0.0
0.0,0.0,0.0,0.0
22.558,0.233,-0.716,0.0
20.184,0.205,-0.748,0.0
18.267,0.183,-0.772,0.0
16.837,0.166,-0.799,0.0
30.573,0.299,-0.595,0.0
26.418,0.254,-0.651,0.0
23.415,0.222,-0.699,0.0
20.952,0.195,-0.737,0.0
18.83,0.172,-0.76,0.0
17.213,0.155,-0.784,0.0
0.0,0.0,0.0,0.0
28.005,0.246,-0.637,0.0
24.514,0.211,-0.685,0.0
21.716,0.184,-0.722,0.0
19.737,0.164,-0.759,0.0
17.862,0.146,-0.78,0.0
35.35,0.286,-0.553,0.0
29.966,0.238,-0.624,0.0
25.715,0.201,-0.669,0.0
22.565,0.173,-0.706,0.0
20.31,0.153,-0.741,0.0
18.547,0.137,-0.773,0.0
0.0,0.0,0.0,0.0
31.123,0.223,-0.587,0.0
27.033,0.19,-0.65,0.0
23.684,0.163,-0.694,0.0
21.158,0.143,-0.73,0.0
19.09,0.126,-0.758,0.0
42.716,0.279,-0.499,0.0
0.0,0.0,0.0,0.0
28.769,0.18,-0.634,0.0
24.971,0.153,-0.682,0.0
21.974,0.132,-0.714,0.0
19.891,0.117,-0.75,0.0
42.883,0.249,-0.416,0.0
35.955,0.204,-0.535,0.0
0.0,0.0,0.0,0.0
26.324,0.143,-0.666,0.0
0.0,0.0,0.0,0.0
20.655,0.107,-0.737,0.0
48.757,0.249,-0.374,0.0
0.0,0.0,0.0,0.0
0.0,0.0,0.0,0.0
27.626,0.131,-0.644,0.0
24.271,0.112,-0.691,0.0
21.562,0.097,-0.725,0.0
0.0,0.0,0.0,0.0
42.874,0.186,-0.464,0.0
34.61,0.146,-0.553,0.0
29.355,0.12,-0.624,0.0
25.889,0.103,-0.684,0.0
22.583,0.088,-0.714,0.0
0.0,0.0,0.0,0.0
44.71,0.166,-0.394,0.0
37.067,0.134,-0.518,0.0
31.01,0.109,-0.597,0.0
26.664,0.091,-0.651,0.0
23.669,0.078,-0.7,0.0
0.0,0.0,0.0,0.0
0.0,0.0,0.0,0.0
40.644,0.123,-0.484,0.0
33.91,0.099,-0.582,0.0
0.0,0.0,0.0,0.0
24.79,0.068,-0.681,0.0
0.0,0.0,0.0,0.0
0.0,0.0,0.0,0.0
42.939,0.107,-0.423,1.0
35.868,0.086,-0.542,0.0
30.4,0.07,-0.616,0.0
26.02,0.058,-0.662,0.0
93.045,0.202,0.234,4.0
0.0,0.0,0.0,0.0
0.0,0.0,0.0,0.0
39.052,0.074,-0.508,0.0
31.332,0.057,-0.569,0.0
27.822,0.048,-0.649,0.0
102.875,0.173,0.475,2.0
0.0,0.0,0.0,0.0
0.0,0.0,0.0,0.0
42.828,0.062,-0.468,1.0
35.319,0.048,-0.568,0.0
29.888,0.038,-0.635,0.0
110.705,0.137,0.743,8.0
92.434,0.108,0.144,1.0
0.0,0.0,0.0,0.0
45.685,0.046,-0.403,2.0
0.0,0.0,0.0,0.0
0.0,0.0,0.0,0.0
111.21,0.092,0.982,7.0
95.631,0.072,0.353,6.0
0.0,0.0,0.0,0.0
0.0,0.0,0.0,0.0
0.0,0.0,0.0,0.0
33.977,0.017,-0.577,0.0
111.161,0.05,1.219,15.0
110.62,0.043,0.643,8.0
0.0,0.0,0.0,0.0
0.0,0.0,0.0,0.0
45.127,0.009,-0.438,2.0
36.709,0.005,-0.545,0.0
111.105,0.012,1.455,12.0
111.21,0.006,0.884,7.0
97.184,0.0,0.272,1.0
0.0,0.0,0.0,0.0
0.0,0.0,0.0,0.0
40.076,-0.005,-0.509,0.0
111.175,-0.021,1.693,7.0
117.326,-0.027,1.184,14.0
110.406,-0.031,0.547,3.0
0.0,0.0,0.0,0.0
0.0,0.0,0.0,0.0
44.861,-0.018,-0.474,0.0
114.096,-0.051,1.984,10.0
111.198,-0.054,1.36,10.0
111.129,-0.058,0.788,11.0
0.0,0.0,0.0,0.0
0.0,0.0,0.0,0.0
45.328,-0.028,-0.381,1.0
114.836,-0.078,2.242,8.0
110.999,-0.078,1.594,7.0
117.36,-0.086,1.083,17.0
98.815,-0.076,0.394,2.0
0.0,0.0,0.0,0.0
0.0,0.0,0.0,0.0
117.452,-0.101,2.545,3.0
114.148,-0.101,1.886,8.0
117.396,-0.107,1.334,10.0
110.833,-0.103,0.679,13.0
0.0,0.0,0.0,0.0
0.0,0.0,0.0,0.0
117.495,-0.119,2.797,16.0
114.809,-0.118,2.142,7.0
111.091,-0.116,1.502,3.0
117.317,-0.125,0.973,12.0
98.976,-0.106,0.309,1.0
0.0,0.0,0.0,0.0
117.575,-0.132,3.05,10.0
0.0,0.0,0.0,0.0
114.218,-0.131,1.788,4.0
117.361,-0.135,1.223,9.0
110.544,-0.128,0.582,8.0
0.0,0.0,0.0,0.0
117.538,-0.141,3.302,16.0
193.322,-0.233,4.434,11.0
114.703,-0.138,2.041,8.0
111.19,-0.134,1.397,2.0
111.276,-0.134,0.825,8.0
99.239,-0.119,0.226,1.0
70.15,-0.087,2.121,19.0
119.794,-0.148,3.006,8.0
0.0,0.0,0.0,0.0
114.052,-0.139,1.678,4.0
117.515,-0.142,1.124,11.0
103.445,-0.124,0.457,1.0
117.412,-0.145,3.801,29.0
117.511,-0.144,3.2,9.0
0.0,0.0,0.0,0.0
114.691,-0.137,1.931,8.0
117.474,-0.139,1.372,2.0
111.009,-0.129,0.725,12.0
117.417,-0.141,4.052,23.0
70.16,-0.083,2.06,22.0
117.49,-0.136,2.844,6.0
114.975,-0.131,2.18,3.0
111.074,-0.124,1.535,3.0
117.441,-0.128,1.02,13.0
117.441,-0.132,4.305,23.0
117.429,-0.129,3.7,26.0
117.532,-0.126,3.098,16.0
0.0,0.0,0.0,0.0
114.141,-0.115,1.822,8.0
117.417,-0.115,1.269,12.0
117.479,-0.119,4.555,15.0
117.429,-0.115,3.949,21.0
70.131,-0.066,1.996,10.0
117.455,-0.106,2.727,17.0
114.661,-0.1,2.07,8.0
111.075,-0.092,1.434,5.0
117.478,-0.101,4.806,7.0
117.482,-0.096,4.2,16.0
117.443,-0.091,3.592,20.0
117.484,-0.086,2.976,25.0
114.905,-0.079,2.318,4.0
111.143,-0.071,1.671,3.0
95.423,-0.064,4.104,16.0
190.498,-0.119,7.211,9.0
117.439,-0.068,3.84,16.0
117.429,-0.062,3.22,23.0
117.426,-0.055,2.616,3.0
114.035,-0.048,1.952,9.0
103.565,-0.046,4.673,4.0
189.85,-0.075,7.585,33.0
70.054,-0.023,2.437,4.0
70.176,-0.019,2.073,20.0
117.411,-0.025,2.861,26.0
114.323,-0.018,2.196,9.0
80.795,-0.015,3.814,9.0
189.814,-0.024,7.978,16.0
70.132,-0.004,2.585,18.0
70.007,0.0,2.212,11.0
117.413,0.007,3.103,25.0
114.718,0.015,2.44,8.0
80.424,0.008,3.964,17.0
103.534,0.018,4.566,3.0
70.123,0.017,2.731,5.0
69.928,0.022,2.354,22.0
70.176,0.027,2.0,18.0
117.413,0.054,2.741,10.0
82.187,0.036,4.22,4.0
80.637,0.041,3.723,6.0
117.751,0.07,4.828,12.0
69.953,0.047,2.498,31.0
70.026,0.052,2.138,21.0
117.424,0.097,2.98,21.0
78.084,0.063,4.169,15.0
80.426,0.071,3.877,21.0
70.247,0.068,3.023,4.0
70.135,0.074,2.647,18.0
69.953,0.08,2.278,30.0
70.11,0.086,1.921,24.0
80.757,0.098,4.477,3.0
80.552,0.105,4.048,11.0
80.693,0.112,3.637,4.0
117.699,0.175,4.683,18.0
69.899,0.11,2.419,29.0
69.998,0.117,2.06,25.0
73.674,0.122,4.234,5.0
78.51,0.138,4.104,17.0
80.539,0.149,3.792,16.0
70.209,0.137,2.934,25.0
70.045,0.143,2.563,27.0
69.793,0.149,2.192,28.0
67.744,0.144,4.028,2.0
81.43,0.182,4.419,11.0
80.609,0.188,3.955,13.0
70.233,0.171,3.073,11.0
70.248,0.178,2.709,20.0
69.957,0.185,2.335,30.0
67.146,0.177,4.125,16.0
73.577,0.202,4.138,11.0
78.721,0.225,4.017,8.0
102.864,0.305,4.703,12.0
70.259,0.216,2.847,8.0
70.245,0.224,2.482,33.0
60.357,0.192,3.826,8.0
73.504,0.242,4.277,10.0
81.093,0.277,4.296,3.0
80.505,0.284,3.839,7.0
70.155,0.256,2.981,14.0
70.121,0.264,2.615,22.0
60.366,0.227,3.946,20.0
71.701,0.279,4.313,3.0
73.897,0.296,4.058,8.0
81.089,0.335,4.022,5.0
103.071,0.438,4.576,5.0
70.315,0.307,2.755,7.0
60.607,0.265,4.078,13.0
60.316,0.271,3.743,18.0
80.356,0.372,4.566,6.0
78.67,0.374,4.052,9.0
80.401,0.393,3.723,12.0
70.24,0.352,2.885,4.0
47.851,0.24,3.31,15.0
60.355,0.311,3.859,17.0
0.0,0.0,0.0,0.0
80.932,0.438,4.321,15.0
80.71,0.447,3.887,11.0
104.435,0.593,4.486,10.0
47.895,0.272,3.403,6.0
60.63,0.353,3.99,11.0
71.737,0.428,4.346,2.0
80.346,0.491,4.438,13.0
78.657,0.491,3.934,10.0
80.423,0.514,3.604,9.0
47.807,0.306,3.486,7.0
47.864,0.314,3.239,7.0
74.248,0.496,4.635,6.0
80.534,0.55,4.598,3.0
81.292,0.567,4.215,14.0
80.634,0.574,3.759,6.0
47.761,0.341,3.57,1.0
60.695,0.443,4.218,5.0
73.968,0.55,4.751,6.0
78.364,0.595,4.615,8.0
81.425,0.63,4.368,13.0
78.69,0.62,3.809,5.0
41.805,0.33,3.2,20.0
47.708,0.384,3.4,12.0
60.47,0.496,3.992,6.0
70.153,0.587,4.256,6.0
80.777,0.688,4.476,10.0
78.708,0.683,3.949,6.0
47.688,0.415,3.734,8.0
44.974,0.398,3.284,17.0
41.542,0.374,2.815,6.0
60.027,0.55,3.746,18.0
78.274,0.73,4.473,11.0
70.472,0.669,3.658,4.0
41.626,0.396,3.332,33.0
47.96,0.464,3.586,22.0
41.56,0.409,2.888,14.0
59.999,0.601,3.848,15.0
80.707,0.822,4.751,11.0
81.375,0.842,4.363,7.0
41.574,0.432,3.4,44.0
41.324,0.436,3.161,34.0
60.529,0.648,4.31,4.0
60.093,0.654,3.956,11.0
60.015,0.663,3.634,6.0
78.569,0.881,4.344,3.0
41.559,0.468,3.469,44.0
41.271,0.472,3.226,28.0
41.442,0.481,3.02,25.0
41.53,0.489,2.803,26.0
60.153,0.719,3.743,5.0
80.025,0.971,4.557,4.0
41.213,0.502,3.508,47.0
40.968,0.506,3.271,45.0
41.39,0.518,3.084,42.0
41.501,0.527,2.869,46.0
60.233,0.776,3.846,14.0
78.355,1.023,4.589,7.0
41.045,0.539,3.561,16.0
40.895,0.544,3.331,41.0
41.255,0.556,3.142,36.0
41.441,0.566,2.931,42.0
67.097,0.928,4.392,9.0
80.289,1.125,4.83,14.0
40.854,0.576,3.61,42.0
40.995,0.585,3.404,35.0
40.788,0.589,3.171,55.0
41.408,0.606,2.995,26.0
70.478,1.045,4.724,5.0
74.295,1.115,4.586,11.0
40.943,0.618,3.683,43.0
41.026,0.626,3.471,31.0
40.87,0.631,3.24,44.0
41.333,0.646,3.053,24.0
41.459,0.656,2.843,14.0
74.334,1.19,4.702,13.0
40.906,0.659,3.742,42.0
40.992,0.667,3.531,37.0
40.79,0.672,3.296,42.0
41.03,0.683,3.093,40.0
41.408,0.698,2.901,40.0
41.462,0.707,2.684,13.0
41.229,0.707,3.834,37.0
40.716,0.706,3.568,45.0
40.882,0.716,3.365,40.0
40.835,0.723,3.139,43.0
41.283,0.74,2.953,43.0
41.452,0.75,2.745,34.0
41.004,0.746,3.874,41.0
40.795,0.751,3.635,37.0
41.014,0.762,3.435,37.0
40.83,0.767,3.197,40.0
40.939,0.777,2.987,47.0
67.962,1.304,4.597,8.0
40.937,0.79,3.926,44.0
40.667,0.792,3.681,46.0
40.908,0.805,3.484,36.0
40.771,0.81,3.25,39.0
40.93,0.821,3.043,43.0
40.966,0.83,2.827,11.0
41.227,0.84,4.011,35.0
40.949,0.843,3.763,33.0
40.682,0.845,3.52,17.0
40.669,0.853,3.296,44.0
40.918,0.867,3.098,41.0
40.944,0.875,2.881,44.0
41.133,0.885,4.057,29.0
40.747,0.884,3.799,33.0
40.599,0.889,3.567,44.0
40.657,0.899,3.35,45.0
40.936,0.914,3.154,41.0
41.106,0.926,2.946,33.0
40.92,0.928,4.091,39.0
40.783,0.933,3.857,36.0
40.827,0.942,3.641,15.0
40.569,0.944,3.395,41.0
40.779,0.957,3.194,45.0
40.899,0.968,2.984,26.0
40.795,0.972,4.131,49.0
40.638,0.977,3.895,35.0
40.729,0.988,3.684,18.0
40.548,0.991,3.445,36.0
40.714,1.004,3.24,38.0
40.848,1.016,3.031,38.0
40.828,1.022,4.185,46.0
40.567,1.023,3.939,35.0
40.674,1.034,3.729,23.0
40.564,1.04,3.496,38.0
40.866,1.056,3.301,30.0
40.831,1.064,3.079,39.0
41.009,1.075,4.253,37.0
40.67,1.074,3.997,45.0
40.679,1.083,3.778,15.0
40.539,1.088,3.541,32.0
40.634,1.098,3.33,40.0
40.762,1.111,3.12,40.0
41.045,1.126,4.305,44.0
40.773,1.127,4.054,40.0
40.609,1.131,3.818,22.0
40.554,1.137,3.588,44.0
40.657,1.149,3.378,46.0
40.795,1.161,3.169,39.0
40.859,1.171,4.331,39.0
41.18,1.188,4.141,32.0
41.215,1.198,3.92,47.0
40.477,1.185,3.626,45.0
40.411,1.192,3.401,44.0
40.803,1.212,3.213,43.0
40.766,1.219,4.366,42.0
40.954,1.233,4.162,38.0
41.167,1.248,3.959,48.0
40.482,1.236,3.669,42.0
40.417,1.242,3.444,40.0
40.76,1.261,3.252,48.0
40.738,1.269,4.404,34.0
40.742,1.278,4.182,37.0
41.179,1.3,4.003,46.0
40.367,1.282,3.699,35.0
40.393,1.292,3.482,43.0
40.625,1.308,3.281,29.0
40.822,1.323,4.454,35.0
41.007,1.338,4.25,42.0
40.801,1.339,4.006,44.0
40.37,1.334,3.739,37.0
40.496,1.347,3.53,38.0
40.655,1.361,3.323,34.0
41.229,1.389,4.539,38.0
40.811,1.383,4.269,35.0
40.562,1.384,4.02,37.0
40.597,1.394,3.798,17.0
40.387,1.395,3.558,43.0
40.47,1.407,3.345,38.0
41.458,1.451,4.602,18.0
40.551,1.428,4.279,47.0
40.682,1.441,4.069,35.0
40.322,1.437,3.808,47.0
40.228,1.441,3.579,44.0
40.411,1.456,3.375,50.0
40.78,1.48,4.562,37.0
40.577,1.481,4.316,40.0
41.018,1.505,4.138,17.0
40.378,1.49,3.847,43.0
40.341,1.497,3.623,41.0
40.825,1.524,3.443,34.0
40.76,1.532,4.594,14.0
40.559,1.533,4.347,38.0
40.599,1.543,4.128,15.0
40.489,1.547,3.891,36.0
40.422,1.553,3.662,41.0
40.621,1.569,3.458,38.0
42.555,1.656,4.83,28.0
40.54,1.586,4.377,38.0
40.562,1.595,4.156,42.0
40.422,1.598,3.915,38.0
40.543,1.611,3.704,30.0
40.57,1.621,3.484,34.0
42.654,1.716,4.873,10.0
40.535,1.64,4.406,42.0
40.482,1.645,4.177,36.0
40.448,1.653,3.947,37.0
40.737,1.673,3.75,32.0
40.575,1.674,3.512,35.0
0.0,0.0,0.0,0.0
40.636,1.697,4.445,40.0
40.474,1.699,4.204,43.0
41.381,1.745,4.065,18.0
40.503,1.716,3.755,35.0
40.474,1.723,3.53,40.0
0.0,0.0,0.0,0.0
40.693,1.754,4.478,40.0
40.722,1.763,4.255,37.0
41.402,1.801,4.093,17.0
40.531,1.771,3.783,37.0
40.531,1.78,3.56,38.0
43.603,1.928,5.067,4.0
40.723,1.809,4.506,33.0
40.963,1.828,4.305,25.0
41.01,1.839,4.078,16.0
40.578,1.827,3.811,46.0
40.325,1.824,3.565,39.0
41.771,1.903,4.878,39.0
40.747,1.864,4.531,16.0
43.095,1.98,4.552,3.0
40.999,1.892,4.099,37.0
40.702,1.887,3.844,45.0
40.233,1.873,3.577,43.0
41.812,1.96,4.904,39.0
45.557,2.145,5.089,14.0
40.797,1.929,4.33,39.0
40.847,1.939,4.104,37.0
41.115,1.96,3.903,26.0
40.292,1.929,3.601,38.0
41.729,2.012,4.914,44.0
45.67,2.211,5.122,19.0
40.8,1.983,4.349,38.0
41.283,2.015,4.166,24.0
40.813,2.0,3.892,42.0
40.252,1.98,3.615,41.0
41.782,2.071,4.938,41.0
45.893,2.283,5.167,12.0
40.784,2.037,4.364,39.0
41.249,2.068,4.18,17.0
40.849,2.056,3.912,38.0
40.288,2.036,3.634,38.0
41.706,2.122,4.945,42.0
46.075,2.353,5.205,5.0
40.736,2.088,4.374,37.0
53.425,2.749,5.432,6.0
40.917,2.113,3.932,35.0
40.448,2.097,3.662,44.0
41.653,2.174,4.953,45.0
41.779,2.189,4.733,33.0
40.711,2.14,4.384,35.0
40.931,2.159,4.174,27.0
40.903,2.166,3.943,32.0
41.175,2.188,3.74,34.0
41.744,2.234,4.975,37.0
41.724,2.24,4.739,35.0
40.763,2.197,4.4,22.0
45.973,2.486,4.701,9.0
40.945,2.222,3.958,31.0
41.227,2.245,3.755,38.0
41.679,2.285,4.978,32.0
41.796,2.299,4.757,42.0
40.857,2.255,4.42,16.0
40.873,2.263,4.188,28.0
40.814,2.268,3.954,14.0
41.355,2.305,3.775,40.0
41.678,2.34,4.986,15.0
41.808,2.354,4.766,21.0
40.844,2.307,4.426,27.0
40.733,2.308,4.181,35.0
45.496,2.586,4.415,20.0
41.322,2.357,3.779,42.0
41.551,2.386,4.977,42.0
41.78,2.407,4.769,37.0
40.869,2.361,4.435,15.0
40.844,2.367,4.198,14.0
45.024,2.617,4.375,19.0
41.338,2.411,3.785,37.0
41.537,2.439,4.98,41.0
41.875,2.466,4.784,42.0
40.935,2.418,4.446,6.0
40.804,2.417,4.197,21.0
0.0,0.0,0.0,0.0
41.327,2.462,3.787,36.0
41.668,2.5,4.998,37.0
41.612,2.503,4.756,38.0
46.641,2.814,5.068,9.0
40.783,2.467,4.197,11.0
45.002,2.73,4.378,36.0
45.776,2.784,4.196,4.0
41.756,2.558,5.01,29.0
41.638,2.557,4.76,41.0
52.324,3.222,5.686,8.0
52.305,3.23,5.382,30.0
52.321,3.24,5.089,13.0
42.161,2.618,3.864,19.0
41.748,2.61,5.008,44.0
41.626,2.609,4.757,38.0
52.235,3.282,5.673,21.0
52.281,3.293,5.378,23.0
52.301,3.303,5.085,17.0
42.248,2.675,3.869,30.0
41.628,2.654,4.99,35.0
41.664,2.663,4.758,27.0
52.242,3.347,5.67,36.0
52.29,3.358,5.374,23.0
52.315,3.368,5.081,9.0
42.134,2.719,3.855,23.0
41.504,2.697,4.971,41.0
41.623,2.71,4.748,39.0
46.654,3.045,5.057,13.0
42.331,2.77,4.344,4.0
45.499,2.984,4.413,1.0
42.017,2.762,3.838,24.0
41.48,2.745,4.961,38.0
41.655,2.762,4.745,41.0
46.634,3.1,5.047,5.0
42.02,2.799,4.305,16.0
41.952,2.801,4.061,26.0
41.917,2.805,3.821,31.0
41.479,2.794,4.953,48.0
41.63,2.81,4.734,38.0
42.199,2.855,4.558,8.0
41.954,2.844,4.29,26.0
41.97,2.851,4.053,34.0
42.051,2.863,3.823,37.0
41.499,2.844,4.945,42.0
41.652,2.86,4.726,31.0
53.108,3.654,5.723,10.0
41.922,2.89,4.275,32.0
41.553,2.871,4.001,25.0
41.49,2.873,3.761,19.0
41.567,2.897,4.941,29.0
41.738,2.914,4.723,42.0
53.06,3.711,5.702,14.0
41.928,2.938,4.263,28.0
41.519,2.915,3.986,16.0
41.39,2.912,3.739,33.0
41.569,2.943,4.928,30.0
41.713,2.959,4.706,36.0
50.162,3.565,5.374,13.0
41.884,2.982,4.244,26.0
41.313,2.947,3.951,37.0
41.386,2.958,3.723,26.0
46.091,3.315,5.447,6.0
41.587,2.996,4.677,43.0
46.054,3.324,4.916,12.0
46.382,3.353,4.682,5.0
41.249,2.987,3.929,25.0
41.306,2.997,3.7,32.0
41.772,3.05,4.919,29.0
41.573,3.04,4.658,36.0
46.02,3.371,4.893,19.0
46.04,3.378,4.627,3.0
41.305,3.036,3.916,35.0
41.482,3.054,3.698,37.0
41.96,3.108,4.922,17.0
45.243,3.357,5.048,9.0
46.015,3.42,4.871,17.0
41.108,3.059,4.113,40.0
41.24,3.075,3.89,41.0
41.223,3.078,3.654,41.0
41.784,3.139,4.881,28.0
45.241,3.404,5.025,25.0
62.766,4.729,6.612,17.0
41.111,3.102,4.092,36.0
41.122,3.108,3.858,32.0
41.189,3.117,3.63,42.0
41.716,3.176,4.851,37.0
45.24,3.449,5.001,29.0
41.135,3.14,4.311,25.0
41.088,3.141,4.067,29.0
41.25,3.158,3.848,14.0
41.284,3.165,3.616,43.0
41.694,3.216,4.824,31.0
45.236,3.493,4.975,16.0
41.172,3.183,4.291,16.0
41.109,3.183,4.045,31.0
41.296,3.202,3.828,33.0
41.325,3.208,3.595,36.0
41.871,3.27,4.819,17.0
45.229,3.536,4.946,19.0
41.161,3.222,4.265,22.0
41.109,3.222,4.02,30.0
41.157,3.23,3.789,42.0
41.27,3.243,3.564,42.0
45.192,3.572,5.172,22.0
45.241,3.579,4.917,21.0
41.163,3.261,4.238,44.0
41.159,3.264,3.997,16.0
41.209,3.272,3.766,39.0
41.27,3.281,3.536,39.0
45.212,3.614,5.143,25.0
45.259,3.622,4.888,38.0
45.313,3.63,4.633,5.0
41.741,3.348,4.024,18.0
41.395,3.324,3.754,34.0
41.251,3.316,3.505,30.0
51.128,4.132,5.78,14.0
45.279,3.663,4.857,19.0
45.29,3.668,4.598,5.0
42.103,3.413,4.028,40.0
41.286,3.35,3.713,32.0
41.259,3.352,3.475,38.0
51.1,4.174,5.737,25.0
50.734,4.147,5.404,3.0
45.376,3.713,4.572,4.0
42.196,3.456,4.005,24.0
41.257,3.383,3.679,40.0
41.271,3.387,3.444,41.0
50.758,4.188,5.658,25.0
47.966,3.961,5.07,13.0
41.282,3.411,4.126,38.0
41.268,3.413,3.883,15.0
41.347,3.423,3.653,20.0
41.363,3.428,3.418,34.0
51.161,4.262,5.66,23.0
48.004,4.002,5.034,18.0
41.262,3.442,4.089,15.0
41.341,3.451,3.855,39.0
41.281,3.449,3.612,40.0
45.592,3.813,3.728,5.0
51.142,4.299,5.613,6.0
48.015,4.039,4.993,6.0
