X,Y,Z,Reflectivity
47.447,-4.407,4.54,1.0
74.603,-6.914,6.729,12.0
73.867,-6.83,6.25,37.0
72.957,-6.731,5.774,6.0
70.339,-6.475,5.182,18.0
47.369,-4.368,4.828,13.0
73.797,-6.789,7.115,18.0
76.953,-7.063,6.995,3.0
73.615,-6.74,6.28,17.0
71.105,-6.495,5.676,13.0
70.32,-6.409,5.228,22.0
47.485,-4.335,4.872,10.0
73.67,-6.708,7.152,21.0
76.834,-6.979,7.036,5.0
71.359,-6.466,6.134,10.0
71.21,-6.438,5.731,9.0
70.447,-6.354,5.282,23.0
47.493,-4.29,4.903,5.0
73.683,-6.64,7.201,13.0
73.455,-6.602,6.773,19.0
74.465,-6.676,6.448,6.0
71.267,-6.373,5.779,7.0
70.603,-6.298,5.338,39.0
73.246,-6.545,7.608,8.0
73.387,-6.54,7.216,29.0
73.481,-6.531,6.82,22.0
73.313,-6.499,6.392,16.0
71.449,-6.317,5.836,8.0
70.835,-6.247,5.396,26.0
71.973,-6.358,7.517,10.0
73.179,-6.446,7.238,8.0
73.416,-6.45,6.855,30.0
71.362,-6.252,6.261,11.0
74.491,-6.509,6.125,8.0
70.937,-6.182,5.442,17.0
70.599,-6.163,7.412,31.0
71.183,-6.196,7.078,11.0
73.441,-6.375,6.896,10.0
71.428,-6.182,6.304,12.0
72.208,-6.234,5.974,21.0
70.826,-6.097,5.469,22.0
78.203,-6.743,8.25,7.0
70.213,-6.035,7.017,9.0
73.175,-6.272,6.906,12.0
71.462,-6.108,6.341,16.0
73.005,-6.222,6.074,4.0
71.04,-6.039,5.518,17.0
71.634,-6.097,7.59,16.0
70.228,-5.959,7.05,11.0
71.096,-6.015,6.742,5.0
72.166,-6.087,6.436,13.0
73.06,-6.146,6.11,6.0
70.446,-5.908,5.503,17.0
70.859,-5.951,7.538,27.0
78.594,-6.581,7.923,5.0
71.09,-5.934,6.771,18.0
72.192,-6.007,6.467,11.0
70.58,-5.856,5.931,8.0
73.016,-6.041,5.731,16.0
70.924,-5.875,7.573,38.0
73.105,-6.036,7.397,8.0
79.029,-6.505,7.556,8.0
77.656,-6.371,6.985,7.0
75.903,-6.209,6.405,5.0
73.183,-5.969,5.77,21.0
70.521,-5.758,7.554,8.0
73.045,-5.944,7.416,13.0
71.204,-5.776,6.831,9.0
70.886,-5.732,6.399,8.0
73.263,-5.906,6.206,5.0
73.233,-5.885,5.796,12.0
71.83,-5.779,7.716,38.0
72.167,-5.787,7.348,14.0
71.855,-5.743,6.915,22.0
70.92,-5.649,6.421,19.0
70.588,-5.605,5.998,19.0
73.118,-5.787,5.807,12.0
71.219,-5.642,7.669,24.0
71.799,-5.669,7.329,21.0
71.765,-5.647,6.924,8.0
70.829,-5.555,6.43,10.0
70.652,-5.523,6.02,14.0
67.997,-5.298,5.415,37.0
71.565,-5.581,7.722,27.0
71.588,-5.564,7.322,23.0
71.456,-5.534,6.909,12.0
68.0,-5.248,6.187,79.0
68.018,-5.233,5.808,65.0
67.999,-5.214,5.427,15.0
71.023,-5.449,7.677,50.0
71.53,-5.469,7.329,30.0
68.024,-5.182,6.588,33.0
70.768,-5.372,6.45,9.0
70.621,-5.343,6.041,18.0
73.128,-5.514,5.847,31.0
71.05,-5.361,7.689,46.0
71.046,-5.341,7.289,32.0
68.03,-5.095,6.597,24.0
70.818,-5.286,6.462,8.0
72.259,-5.374,6.189,5.0
73.085,-5.417,5.851,48.0
70.475,-5.225,7.634,27.0
71.802,-5.304,7.372,17.0
72.311,-5.322,7.017,18.0
71.033,-5.208,6.487,22.0
72.215,-5.276,6.19,18.0
73.26,-5.333,5.869,23.0
70.538,-5.137,7.644,38.0
68.04,-4.937,6.989,8.0
72.917,-5.271,7.079,8.0
0.0,0.0,0.0,0.0
72.177,-5.179,6.188,11.0
72.07,-5.153,5.774,16.0
70.316,-5.029,7.62,30.0
68.05,-4.847,6.99,33.0
72.911,-5.174,7.077,13.0
72.88,-5.152,6.656,13.0
72.121,-5.079,6.181,25.0
73.365,-5.147,5.876,27.0
70.685,-4.96,7.657,15.0
68.06,-4.757,6.988,21.0
69.561,-4.842,6.749,29.0
73.049,-5.065,6.668,37.0
72.474,-5.005,6.207,19.0
72.107,-4.961,5.77,21.0
71.066,-4.889,7.693,23.0
70.672,-4.843,7.25,8.0
69.663,-4.755,6.752,32.0
72.804,-4.949,6.638,28.0
72.145,-4.886,6.171,10.0
72.285,-4.877,5.775,13.0
71.222,-4.804,7.701,23.0
73.039,-4.906,7.483,5.0
63.977,-4.279,6.192,37.0
69.601,-4.636,6.335,16.0
64.338,-4.269,5.493,35.0
0.0,0.0,0.0,0.0
70.876,-4.683,7.651,13.0
59.513,-3.915,6.087,25.0
63.988,-4.193,6.181,39.0
64.116,-4.183,5.824,38.0
64.096,-4.165,5.46,38.0
70.939,-4.591,5.642,32.0
70.407,-4.555,7.586,28.0
59.477,-3.831,6.07,29.0
63.957,-4.102,6.164,31.0
64.055,-4.091,5.803,39.0
63.921,-4.065,5.43,38.0
70.95,-4.493,5.626,18.0
70.506,-4.462,7.578,25.0
59.344,-3.739,6.04,25.0
64.049,-4.018,6.155,7.0
63.919,-3.992,5.773,39.0
63.681,-3.96,5.391,38.0
63.581,-3.938,5.022,35.0
58.936,-3.647,6.316,19.0
59.182,-3.645,6.006,33.0
59.077,-3.622,5.658,28.0
63.858,-3.899,5.747,39.0
63.433,-3.855,5.348,37.0
63.528,-3.844,4.997,30.0
59.025,-3.568,6.306,33.0
59.06,-3.554,5.972,33.0
59.254,-3.549,5.653,33.0
63.773,-3.802,5.716,39.0
63.377,-3.762,5.32,37.0
63.439,-3.749,4.965,45.0
58.76,-3.468,6.254,35.0
58.791,-3.454,5.921,33.0
59.354,-3.471,5.639,31.0
63.538,-3.698,5.668,39.0
63.185,-3.661,5.278,37.0
63.503,-3.663,4.943,33.0
58.421,-3.365,6.192,33.0
58.219,-3.338,5.838,32.0
58.856,-3.358,5.565,33.0
62.802,-3.566,5.574,38.0
63.062,-3.565,5.238,37.0
63.271,-3.56,4.896,38.0
58.247,-3.272,6.146,33.0
58.065,-3.246,5.794,32.0
57.686,-3.209,5.426,33.0
62.551,-3.462,5.52,32.0
58.535,-3.224,4.831,26.0
63.252,-3.468,4.861,38.0
58.401,-3.196,6.131,33.0
57.964,-3.157,5.752,29.0
57.087,-3.094,5.339,31.0
57.121,-3.081,5.009,26.0
58.547,-3.143,4.8,30.0
57.677,-3.081,4.401,31.0
58.842,-3.136,6.143,34.0
57.342,-3.042,5.658,32.0
56.933,-3.005,5.291,30.0
60.262,-3.165,5.25,18.0
0.0,0.0,0.0,0.0
57.004,-2.963,4.315,30.0
56.733,-2.943,5.889,21.0
56.77,-2.93,5.566,30.0
57.053,-2.929,5.266,31.0
60.275,-3.079,5.212,29.0
0.0,0.0,0.0,0.0
56.985,-2.882,4.277,30.0
56.673,-2.859,5.844,15.0
56.658,-2.843,5.517,30.0
56.924,-2.84,5.215,31.0
56.957,-2.827,4.887,19.0
56.941,-2.812,4.559,16.0
56.877,-2.795,4.229,30.0
56.469,-2.767,5.784,6.0
56.575,-2.757,5.469,30.0
56.936,-2.76,5.176,30.0
56.889,-2.743,4.84,23.0
44.119,-2.117,3.501,35.0
56.917,-2.716,4.19,30.0
46.756,-2.225,4.754,34.0
47.005,-2.224,4.508,26.0
47.392,-2.23,4.272,17.0
44.104,-2.064,3.718,31.0
44.181,-2.057,3.471,34.0
58.87,-2.726,4.289,11.0
46.713,-2.156,4.712,38.0
46.872,-2.151,4.458,31.0
44.377,-2.026,3.965,30.0
44.163,-2.005,3.687,42.0
44.219,-1.997,3.439,43.0
46.171,-2.073,3.326,30.0
46.691,-2.089,4.671,39.0
46.696,-2.078,4.402,25.0
44.269,-1.958,3.918,33.0
44.169,-1.943,3.651,42.0
44.238,-1.935,3.402,27.0
44.553,-1.938,3.171,18.0
46.523,-2.016,4.614,33.0
46.714,-2.013,4.362,27.0
44.266,-1.896,3.878,39.0
44.264,-1.885,3.619,36.0
44.133,-1.869,3.354,46.0
44.346,-1.867,3.116,39.0
46.402,-1.946,4.559,40.0
46.374,-1.933,4.288,12.0
44.352,-1.838,3.845,33.0
44.084,-1.817,3.563,42.0
44.212,-1.811,3.319,46.0
44.497,-1.812,3.085,40.0
46.286,-1.877,4.503,38.0
44.205,-1.782,4.045,33.0
44.428,-1.78,3.808,23.0
44.082,-1.756,3.52,43.0
44.165,-1.748,3.272,43.0
44.387,-1.747,3.033,46.0
46.493,-1.821,4.477,25.0
44.233,-1.722,4.003,41.0
44.372,-1.717,3.759,34.0
44.129,-1.697,3.479,46.0
44.226,-1.69,3.232,44.0
44.403,-1.687,2.989,41.0
46.518,-1.758,4.43,37.0
44.155,-1.658,3.95,42.0
44.15,-1.647,3.693,38.0
44.424,-1.648,3.455,39.0
44.19,-1.628,3.182,46.0
44.531,-1.631,2.95,43.0
46.757,-1.703,4.402,21.0
44.218,-1.601,3.907,35.0
44.03,-1.584,3.635,41.0
44.24,-1.581,3.392,39.0
44.256,-1.572,3.138,48.0
45.249,-1.597,2.948,30.0
47.003,-1.649,4.373,22.0
43.909,-1.531,3.83,40.0
44.018,-1.524,3.585,44.0
44.31,-1.525,3.348,39.0
44.27,-1.513,3.089,27.0
46.065,-1.565,2.948,41.0
44.403,-1.499,4.079,11.0
43.698,-1.466,3.761,50.0
44.148,-1.471,3.544,47.0
44.129,-1.461,3.282,46.0
46.481,-1.528,3.188,30.0
57.122,-1.865,3.589,16.0
44.418,-1.441,4.027,26.0
43.987,-1.417,3.733,40.0
44.158,-1.413,3.491,34.0
44.43,-1.412,3.25,43.0
45.938,-1.45,3.095,43.0
56.895,-1.784,3.505,30.0
43.798,-1.364,3.917,35.0
43.757,-1.353,3.658,45.0
44.331,-1.361,3.449,24.0
46.434,-1.416,3.339,22.0
46.416,-1.405,3.069,21.0
56.992,-1.714,3.439,30.0
43.762,-1.306,3.857,39.0
43.858,-1.3,3.61,38.0
44.266,-1.302,3.387,24.0
45.966,-1.342,3.245,34.0
57.206,-1.659,3.708,11.0
71.522,-2.059,4.222,9.0
43.503,-1.243,3.777,46.0
44.021,-1.248,3.565,44.0
44.882,-1.264,3.374,24.0
46.128,-1.289,3.195,20.0
62.479,-1.733,3.966,12.0
71.51,-1.97,4.126,10.0
43.546,-1.189,3.721,47.0
43.919,-1.19,3.498,37.0
44.959,-1.21,3.319,36.0
57.068,-1.524,3.876,5.0
51.754,-1.372,3.215,33.0
78.549,-2.067,4.425,25.0
43.652,-1.139,3.67,44.0
43.969,-1.138,3.44,35.0
55.371,-1.422,4.01,6.0
51.644,-1.316,3.435,25.0
51.755,-1.309,3.143,17.0
73.977,-1.858,4.064,17.0
43.727,-1.088,3.614,41.0
44.209,-1.091,3.396,30.0
45.121,-1.105,3.203,22.0
51.501,-1.251,3.352,37.0
51.945,-1.252,3.079,18.0
74.123,-1.773,3.965,41.0
43.424,-1.028,3.525,39.0
45.028,-1.058,3.393,19.0
45.064,-1.05,3.133,28.0
51.484,-1.19,3.275,34.0
52.041,-1.193,3.008,5.0
74.375,-1.691,3.868,21.0
43.178,-0.971,3.44,38.0
51.488,-1.148,3.802,5.0
51.505,-1.14,3.503,6.0
51.667,-1.134,3.209,28.0
73.67,-1.603,4.147,15.0
74.618,-1.61,3.766,7.0
43.951,-0.938,3.434,21.0
51.314,-1.086,3.71,12.0
50.398,-1.057,3.35,24.0
61.173,-1.273,3.704,35.0
73.773,-1.522,4.039,15.0
81.592,-1.669,3.993,11.0
44.932,-0.908,3.44,8.0
48.636,-0.974,3.44,23.0
50.073,-0.994,3.25,32.0
61.219,-1.205,3.61,31.0
73.408,-1.432,3.902,14.0
81.752,-1.581,3.871,16.0
0.0,0.0,0.0,0.0
48.483,-0.918,3.351,23.0
50.273,-0.943,3.182,23.0
61.176,-1.137,3.509,25.0
81.955,-1.51,4.224,21.0
81.781,-1.494,3.741,24.0
48.537,-0.874,3.559,8.0
48.612,-0.868,3.281,29.0
60.953,-1.078,3.757,10.0
61.147,-1.071,3.408,15.0
81.364,-1.412,4.06,17.0
95.408,-1.641,4.206,11.0
48.533,-0.823,3.477,29.0
0.0,0.0,0.0,0.0
61.078,-1.016,3.664,18.0
61.132,-1.008,3.304,14.0
81.129,-1.325,3.914,33.0
106.513,-1.722,4.517,18.0
48.464,-0.772,3.391,32.0
0.0,0.0,0.0,0.0
61.303,-0.957,3.573,35.0
85.492,-1.322,4.475,10.0
81.224,-1.244,3.778,16.0
112.184,-1.7,4.564,16.0
48.434,-0.722,3.305,40.0
61.566,-0.909,3.841,10.0
60.775,-0.888,3.436,13.0
81.562,-1.18,4.128,12.0
81.355,-1.165,3.643,8.0
106.42,-1.509,4.146,9.0
48.428,-0.676,3.22,43.0
61.702,-0.852,3.741,8.0
60.694,-0.829,3.326,24.0
81.287,-1.098,3.972,9.0
112.186,-1.5,4.828,15.0
190.501,-2.521,7.088,49.0
48.55,-0.631,3.141,26.0
60.735,-0.781,3.575,4.0
60.582,-0.771,3.212,18.0
81.264,-1.023,3.825,7.0
189.79,-2.363,7.83,31.0
190.6,-2.348,6.753,18.0
48.509,-0.587,3.052,19.0
60.601,-0.724,3.458,22.0
60.497,-0.715,3.098,7.0
112.381,-1.314,5.089,6.0
190.065,-2.197,7.5,24.0
210.513,-2.407,7.08,16.0
60.72,-0.681,3.71,8.0
60.512,-0.67,3.343,34.0
81.245,-0.889,4.013,25.0
95.511,-1.034,4.151,14.0
190.466,-2.037,7.167,42.0
210.888,-2.229,6.706,20.0
60.692,-0.628,3.595,18.0
81.664,-0.835,4.361,5.0
85.872,-0.867,4.082,12.0
189.783,-1.893,7.894,61.0
190.558,-1.878,6.816,22.0
119.73,-1.165,3.583,12.0
60.612,-0.577,3.477,19.0
86.063,-0.81,4.434,7.0
80.709,-0.75,3.686,26.0
190.043,-1.743,7.55,31.0
214.801,-1.945,7.282,7.0
119.709,-1.069,3.358,82.0
60.739,-0.53,3.369,15.0
86.004,-0.741,4.266,8.0
95.539,-0.812,4.181,11.0
190.465,-1.598,7.204,45.0
215.11,-1.78,6.878,7.0
119.732,-0.977,3.13,63.0
77.978,-0.621,4.175,9.0
95.914,-0.753,4.573,13.0
95.396,-0.739,3.992,17.0
190.643,-1.457,6.844,20.0
205.514,-1.549,6.178,9.0
194.547,-1.444,4.713,8.0
77.852,-0.563,4.017,10.0
80.713,-0.575,3.693,12.0
190.573,-1.339,7.602,14.0
0.0,0.0,0.0,0.0
119.781,-0.817,3.366,14.0
119.829,-0.804,2.667,19.0
81.095,-0.53,4.026,4.0
95.391,-0.614,4.176,21.0
190.555,-1.208,7.228,41.0
215.712,-1.345,6.899,7.0
119.817,-0.735,3.132,13.0
119.815,-0.724,2.432,73.0
80.908,-0.475,3.856,17.0
189.799,-1.096,7.934,83.0
190.727,-1.083,6.854,23.0
0.0,0.0,0.0,0.0
119.807,-0.658,2.893,68.0
119.798,-0.646,2.192,11.0
95.845,-0.502,4.375,10.0
189.926,-0.977,7.555,63.0
206.836,-1.045,7.018,10.0
119.893,-0.595,3.354,2.0
119.803,-0.584,2.65,27.0
113.717,-0.545,1.853,6.0
95.608,-0.443,4.171,11.0
190.496,-0.867,7.194,36.0
206.59,-0.922,6.591,20.0
119.78,-0.524,3.108,29.0
114.737,-0.493,2.307,6.0
113.269,-0.478,1.615,7.0
117.36,-0.478,4.882,20.0
190.581,-0.761,6.81,18.0
70.098,-0.274,2.093,1.0
194.334,-0.745,4.65,21.0
113.842,-0.428,2.058,10.0
119.713,-0.441,1.464,15.0
117.353,-0.416,4.64,36.0
117.496,-0.407,3.958,13.0
119.805,-0.406,3.333,25.0
119.77,-0.397,2.618,15.0
113.065,-0.367,1.812,10.0
114.474,-0.364,1.165,74.0
117.399,-0.358,4.399,33.0
70.127,-0.209,2.218,15.0
119.745,-0.349,3.086,12.0
113.995,-0.324,2.258,11.0
112.773,-0.313,1.575,15.0
114.454,-0.31,0.929,150.0
117.415,-0.304,4.157,33.0
70.143,-0.177,2.073,8.0
119.88,-0.295,2.841,2.0
112.962,-0.271,2.004,12.0
119.705,-0.28,1.424,14.0
110.671,-0.252,0.668,11.0
117.439,-0.254,3.912,31.0
119.829,-0.253,3.29,17.0
114.081,-0.234,2.464,10.0
112.664,-0.225,1.763,20.0
117.467,-0.228,1.151,8.0
99.419,-0.187,0.394,1.0
70.148,-0.125,2.19,16.0
117.53,-0.203,2.981,5.0
112.884,-0.189,2.201,11.0
112.541,-0.183,1.525,17.0
111.19,-0.175,0.855,13.0
0.0,0.0,0.0,0.0
117.474,-0.168,3.421,22.0
114.287,-0.158,2.658,11.0
112.691,-0.151,1.962,20.0
117.357,-0.152,1.345,19.0
110.481,-0.137,0.618,1.0
0.0,0.0,0.0,0.0
117.448,-0.132,3.172,28.0
112.821,-0.121,2.385,7.0
0.0,0.0,0.0,0.0
117.287,-0.117,1.096,12.0
98.017,-0.093,0.341,1.0
0.0,0.0,0.0,0.0
117.425,-0.099,2.92,13.0
112.636,-0.091,2.142,18.0
111.147,-0.085,1.463,12.0
110.883,-0.081,0.799,13.0
0.0,0.0,0.0,0.0
0.0,0.0,0.0,0.0
113.429,-0.068,2.579,9.0
112.361,-0.064,1.896,25.0
117.309,-0.063,1.293,11.0
103.26,-0.052,0.522,2.0
0.0,0.0,0.0,0.0
0.0,0.0,0.0,0.0
112.625,-0.045,2.319,18.0
117.315,-0.044,1.728,12.0
111.209,-0.038,0.987,7.0
0.0,0.0,0.0,0.0
0.0,0.0,0.0,0.0
45.223,-0.012,-0.397,2.0
112.453,-0.026,2.076,22.0
111.108,-0.023,1.399,15.0
110.704,-0.021,0.745,9.0
0.0,0.0,0.0,0.0
0.0,0.0,0.0,0.0
0.0,0.0,0.0,0.0
117.354,-0.012,1.913,11.0
111.213,-0.01,1.162,9.0
95.608,-0.007,0.439,4.0
0.0,0.0,0.0,0.0
45.75,-0.002,-0.329,0.0
0.0,0.0,0.0,0.0
117.341,-0.002,1.663,12.0
110.967,0.0,0.923,9.0
0.0,0.0,0.0,0.0
0.0,0.0,0.0,0.0
45.069,0.0,-0.421,2.0
35.427,0.001,-0.538,0.0
111.095,0.003,1.339,17.0
104.216,0.004,0.646,5.0
0.0,0.0,0.0,0.0
0.0,0.0,0.0,0.0
40.279,0.002,-0.462,0.0
0.0,0.0,0.0,0.0
111.176,0.005,1.099,6.0
95.609,0.004,0.385,7.0
0.0,0.0,0.0,0.0
45.671,0.002,-0.355,1.0
0.0,0.0,0.0,0.0
30.564,0.001,-0.595,0.0
110.777,0.002,0.858,11.0
0.0,0.0,0.0,0.0
0.0,0.0,0.0,0.0
44.754,0.0,-0.444,0.0
34.107,0.0,-0.538,0.0
28.507,0.0,-0.616,0.0
0.0,0.0,0.0,0.0
0.0,0.0,0.0,0.0
49.987,-0.002,-0.304,0.0
0.0,0.0,0.0,0.0
31.773,-0.002,-0.569,0.0
26.828,-0.002,-0.638,0.0
95.723,-0.012,0.33,3.0
0.0,0.0,0.0,0.0
45.427,-0.007,-0.375,2.0
0.0,0.0,0.0,0.0
29.887,-0.005,-0.6,0.0
25.368,-0.005,-0.658,0.0
0.0,0.0,0.0,0.0
0.0,0.0,0.0,0.0
0.0,0.0,0.0,0.0
33.564,-0.011,-0.549,0.0
28.356,-0.009,-0.63,0.0
23.812,-0.008,-0.669,0.0
0.0,0.0,0.0,0.0
0.0,0.0,0.0,0.0
0.0,0.0,0.0,0.0
31.002,-0.015,-0.573,0.0
26.383,-0.014,-0.642,0.0
23.009,-0.013,-0.695,0.0
0.0,0.0,0.0,0.0
45.007,-0.03,-0.396,1.0
0.0,0.0,0.0,0.0
29.266,-0.021,-0.603,0.0
24.992,-0.019,-0.661,0.0
21.631,-0.017,-0.699,0.0
52.257,-0.046,-0.265,0.0
40.118,-0.037,-0.438,0.0
31.941,-0.03,-0.536,0.0
27.141,-0.027,-0.617,0.0
23.682,-0.024,-0.677,0.0
20.908,-0.022,-0.72,0.0
45.511,-0.053,-0.326,1.0
0.0,0.0,0.0,0.0
30.649,-0.038,-0.579,0.0
26.117,-0.033,-0.648,0.0
22.624,-0.03,-0.694,0.0
20.125,-0.027,-0.736,0.0
45.629,-0.068,-0.423,0.0
0.0,0.0,0.0,0.0
28.732,-0.045,-0.603,0.0
24.636,-0.04,-0.663,0.0
21.534,-0.036,-0.706,0.0
19.34,-0.033,-0.748,0.0
39.814,-0.073,-0.453,0.0
32.316,-0.061,-0.557,0.0
26.782,-0.052,-0.618,0.0
23.463,-0.047,-0.681,0.0
20.749,-0.042,-0.724,0.0
18.537,-0.039,-0.755,0.0
0.0,0.0,0.0,0.0
29.925,-0.068,-0.578,0.0
0.0,0.0,0.0,0.0
22.283,-0.053,-0.694,0.0
19.929,-0.049,-0.737,0.0
17.909,-0.045,-0.767,0.0
33.974,-0.09,-0.528,0.0
28.187,-0.076,-0.602,0.0
24.688,-0.069,-0.672,0.0
21.479,-0.061,-0.713,0.0
19.098,-0.055,-0.745,0.0
17.342,-0.051,-0.778,0.0
0.0,0.0,0.0,0.0
26.85,-0.085,-0.629,0.0
23.311,-0.076,-0.682,0.0
20.399,-0.068,-0.718,0.0
18.408,-0.062,-0.756,0.0
16.729,-0.058,-0.785,0.0
30.065,-0.108,-0.589,0.0
25.63,-0.094,-0.652,0.0
22.052,-0.083,-0.69,1.0
19.786,-0.076,-0.737,0.0
17.807,-0.069,-0.767,0.0
16.223,-0.064,-0.794,0.0
28.058,-0.116,-0.607,0.0
23.99,-0.101,-0.659,0.0
21.38,-0.092,-0.712,0.0
19.066,-0.083,-0.749,0.0
17.364,-0.077,-0.783,0.0
15.652,-0.071,-0.798,0.0
26.481,-0.125,-0.625,0.0
22.973,-0.11,-0.677,0.0
20.394,-0.099,-0.72,0.0
18.413,-0.091,-0.759,0.0
16.732,-0.084,-0.788,0.0
15.269,-0.078,-0.809,0.0
25.573,-0.136,-0.655,0.0
22.118,-0.119,-0.695,0.0
19.721,-0.108,-0.735,0.0
17.734,-0.099,-0.767,0.0
16.235,-0.092,-0.797,0.0
14.839,-0.085,-0.815,0.0
24.199,-0.144,-0.667,0.0
21.311,-0.128,-0.712,0.0
19.014,-0.116,-0.746,0.0
17.201,-0.107,-0.777,0.0
15.696,-0.099,-0.801,0.0
14.472,-0.093,-0.823,0.0
0.0,0.0,0.0,0.0
20.401,-0.137,-0.721,0.0
18.335,-0.125,-0.755,0.0
16.569,-0.114,-0.781,0.0
15.223,-0.106,-0.806,0.0
14.106,-0.1,-0.83,0.0
22.12,-0.161,-0.695,0.0
19.649,-0.145,-0.732,0.0
17.675,-0.133,-0.762,0.0
16.047,-0.122,-0.787,0.0
14.906,-0.115,-0.818,0.0
13.703,-0.107,-0.832,0.0
21.136,-0.17,-0.704,0.0
18.904,-0.154,-0.74,0.0
17.295,-0.142,-0.778,0.0
15.668,-0.131,-0.798,0.0
14.45,-0.122,-0.821,0.0
13.39,-0.115,-0.839,0.0
20.439,-0.18,-0.719,0.0
18.473,-0.164,-0.758,0.0
16.659,-0.15,-0.781,0.0
15.194,-0.139,-0.802,0.0
14.122,-0.13,-0.828,0.0
13.03,-0.122,-0.84,0.0
19.652,-0.188,-0.728,0.0
17.8,-0.172,-0.763,0.0
16.206,-0.159,-0.789,0.0
14.808,-0.147,-0.809,0.0
13.686,-0.137,-0.828,0.0
12.779,-0.13,-0.848,0.0
19.172,-0.2,-0.745,0.0
17.405,-0.183,-0.778,0.0
15.821,-0.168,-0.8,0.0
14.468,-0.156,-0.817,0.0
13.45,-0.147,-0.838,0.0
12.418,-0.137,-0.847,0.0
18.54,-0.209,-0.754,0.0
16.835,-0.192,-0.783,0.0
15.404,-0.177,-0.806,0.0
14.171,-0.165,-0.826,0.0
13.18,-0.155,-0.845,0.0
12.127,-0.144,-0.849,0.0
17.86,-0.217,-0.758,0.0
16.383,-0.201,-0.791,0.0
14.949,-0.185,-0.809,0.0
13.763,-0.173,-0.826,0.0
12.802,-0.162,-0.844,0.0
11.835,-0.152,-0.849,0.0
17.485,-0.228,-0.773,0.0
15.855,-0.209,-0.793,0.0
14.572,-0.194,-0.814,0.0
13.492,-0.182,-0.834,0.0
12.493,-0.17,-0.845,0.0
11.606,-0.16,-0.853,0.0
16.954,-0.237,-0.779,0.0
15.423,-0.218,-0.798,0.0
14.261,-0.204,-0.821,0.0
13.162,-0.19,-0.836,0.0
12.26,-0.179,-0.85,0.0
11.401,-0.168,-0.857,0.0
16.518,-0.247,-0.787,0.0
15.131,-0.229,-0.809,0.0
13.998,-0.213,-0.83,0.0
12.92,-0.199,-0.842,0.0
11.913,-0.185,-0.846,0.0
11.186,-0.176,-0.86,0.0
15.997,-0.255,-0.789,0.0
14.715,-0.237,-0.811,0.0
13.653,-0.222,-0.832,0.0
12.562,-0.206,-0.84,0.0
11.704,-0.194,-0.851,0.0
11.047,-0.185,-0.868,0.0
15.644,-0.265,-0.796,0.0
14.384,-0.246,-0.816,0.0
13.393,-0.231,-0.838,0.0
12.373,-0.216,-0.848,0.0
11.503,-0.203,-0.855,0.0
10.901,-0.194,-0.874,0.0
15.313,-0.276,-0.804,0.0
14.118,-0.257,-0.824,0.0
13.089,-0.24,-0.84,0.0
12.11,-0.224,-0.849,0.0
11.332,-0.211,-0.86,0.0
10.681,-0.201,-0.873,0.0
15.006,-0.286,-0.812,0.0
13.806,-0.266,-0.827,0.0
12.711,-0.247,-0.835,0.0
11.824,-0.231,-0.847,0.0
11.139,-0.22,-0.863,0.0
10.508,-0.209,-0.875,0.0
14.598,-0.294,-0.812,0.0
13.546,-0.275,-0.832,0.0
12.476,-0.256,-0.839,0.0
11.6,-0.24,-0.849,0.0
10.969,-0.229,-0.866,0.0
10.378,-0.218,-0.88,0.0
14.356,-0.305,-0.82,0.0
18.141,-0.389,-1.142,0.0
12.254,-0.265,-0.842,0.0
11.447,-0.249,-0.854,0.0
10.851,-0.238,-0.873,0.0
10.252,-0.227,-0.885,0.0
18.153,-0.407,-1.064,0.0
18.135,-0.41,-1.168,0.0
12.055,-0.275,-0.846,0.0
11.274,-0.259,-0.858,0.0
10.651,-0.247,-0.873,0.0
10.149,-0.237,-0.891,0.0
18.122,-0.428,-1.088,1.0
18.13,-0.431,-1.194,1.0
11.833,-0.283,-0.848,0.0
11.124,-0.269,-0.863,0.0
10.519,-0.256,-0.877,0.0
9.98,-0.245,-0.89,0.0
18.142,-0.449,-1.115,0.0
18.085,-0.451,-1.216,0.0
11.629,-0.292,-0.849,0.0
10.988,-0.278,-0.867,0.0
10.372,-0.265,-0.879,0.0
9.868,-0.254,-0.894,0.0
13.361,-0.347,-0.839,0.0
12.335,-0.323,-0.846,0.0
11.48,-0.303,-0.854,0.0
10.863,-0.288,-0.872,0.0
10.27,-0.275,-0.884,0.0
9.741,-0.262,-0.896,0.0
13.089,-0.356,-0.839,0.0
12.115,-0.332,-0.847,0.0
11.32,-0.312,-0.857,0.0
10.682,-0.297,-0.872,0.0
10.158,-0.284,-0.888,0.0
9.674,-0.273,-0.902,0.0
12.879,-0.366,-0.842,0.0
11.899,-0.341,-0.847,0.0
11.19,-0.323,-0.861,0.0
10.534,-0.306,-0.873,0.0
10.039,-0.293,-0.89,0.0
9.536,-0.281,-0.901,0.0
12.619,-0.374,-0.841,0.0
11.732,-0.35,-0.85,0.0
11.024,-0.332,-0.862,0.0
10.42,-0.316,-0.876,0.0
9.909,-0.302,-0.891,0.0
9.422,-0.289,-0.902,0.0
12.431,-0.385,-0.844,0.0
11.569,-0.36,-0.852,0.0
10.913,-0.342,-0.867,0.0
10.353,-0.327,-0.883,0.0
9.806,-0.312,-0.893,0.0
9.298,-0.297,-0.901,0.0
12.25,-0.395,-0.846,0.0
11.415,-0.37,-0.854,0.0
10.811,-0.353,-0.871,0.0
10.25,-0.337,-0.886,0.0
9.717,-0.321,-0.896,0.0
9.243,-0.308,-0.906,0.0
12.074,-0.405,-0.847,0.0
11.294,-0.381,-0.857,0.0
10.673,-0.362,-0.872,0.0
10.163,-0.347,-0.89,0.0
9.652,-0.332,-0.901,0.0
9.16,-0.317,-0.908,0.0
11.911,-0.415,-0.848,0.0
11.156,-0.391,-0.859,0.0
10.539,-0.371,-0.872,0.0
10.006,-0.355,-0.887,0.0
9.542,-0.341,-0.901,0.0
9.076,-0.326,-0.91,0.0
11.736,-0.424,-0.848,0.0
11.051,-0.402,-0.862,0.0
10.472,-0.383,-0.878,0.0
9.892,-0.364,-0.887,0.0
9.426,-0.349,-0.9,0.0
9.052,-0.337,-0.917,0.0
11.621,-0.435,-0.852,0.0
10.993,-0.414,-0.869,0.0
10.383,-0.393,-0.88,0.0
9.839,-0.375,-0.892,0.0
9.333,-0.358,-0.9,0.0
8.942,-0.345,-0.914,0.0
11.459,-0.445,-0.851,0.0
10.911,-0.426,-0.873,0.0
10.282,-0.404,-0.882,0.0
9.775,-0.386,-0.896,0.0
9.309,-0.37,-0.907,0.0
8.894,-0.355,-0.918,0.0
11.355,-0.456,-0.854,0.0
10.753,-0.434,-0.87,0.0
10.222,-0.415,-0.886,0.0
9.683,-0.395,-0.896,0.0
9.206,-0.378,-0.905,0.0
8.774,-0.363,-0.913,0.0
11.31,-0.469,-0.86,0.0
10.641,-0.444,-0.87,0.0
10.128,-0.425,-0.887,0.0
9.621,-0.406,-0.899,0.0
9.151,-0.389,-0.908,0.0
8.753,-0.374,-0.919,0.0
11.175,-0.479,-0.859,0.0
10.552,-0.455,-0.872,0.0
10.053,-0.436,-0.888,0.0
9.591,-0.418,-0.904,0.0
9.095,-0.399,-0.909,0.0
8.626,-0.38,-0.912,0.0
11.073,-0.49,-0.86,0.0
10.488,-0.467,-0.875,0.0
9.965,-0.446,-0.888,0.0
9.437,-0.424,-0.897,0.0
9.081,-0.411,-0.915,0.0
8.63,-0.392,-0.919,0.0
11.01,-0.502,-0.864,0.0
10.443,-0.479,-0.879,0.0
9.896,-0.456,-0.89,0.0
9.395,-0.435,-0.9,0.0
9.048,-0.422,-0.918,0.0
8.601,-0.403,-0.922,0.0
10.957,-0.515,-0.867,0.0
10.365,-0.49,-0.88,0.0
9.869,-0.468,-0.894,0.0
9.368,-0.447,-0.903,0.0
8.957,-0.43,-0.915,0.0
8.528,-0.411,-0.92,0.0
10.905,-0.527,-0.87,0.0
10.304,-0.501,-0.881,0.0
9.789,-0.478,-0.893,0.0
9.361,-0.46,-0.909,0.0
8.88,-0.438,-0.913,0.0
8.469,-0.42,-0.919,0.0
10.857,-0.54,-0.873,0.0
10.244,-0.512,-0.882,0.0
9.742,-0.49,-0.895,0.0
9.246,-0.467,-0.903,0.0
8.839,-0.449,-0.914,0.0
8.473,-0.432,-0.925,0.0
10.754,-0.55,-0.871,0.0
10.195,-0.524,-0.884,0.0
9.69,-0.5,-0.896,0.0
9.148,-0.475,-0.899,0.0
8.83,-0.46,-0.918,0.0
8.402,-0.44,-0.922,0.0
10.709,-0.562,-0.873,0.0
10.135,-0.535,-0.884,0.0
9.63,-0.511,-0.895,0.0
9.144,-0.487,-0.903,0.0
8.802,-0.471,-0.919,0.0
8.361,-0.45,-0.921,0.0
10.68,-0.576,-0.876,0.0
10.117,-0.548,-0.887,0.0
9.624,-0.523,-0.899,0.0
9.144,-0.5,-0.907,0.0
8.75,-0.48,-0.918,0.0
8.354,-0.461,-0.924,0.0
10.614,-0.587,-0.875,0.0
10.068,-0.559,-0.887,0.0
9.591,-0.535,-0.9,0.0
9.086,-0.509,-0.905,0.0
8.738,-0.492,-0.92,0.0
8.328,-0.471,-0.925,0.0
10.558,-0.598,-0.875,0.0
10.037,-0.571,-0.889,0.0
9.585,-0.548,-0.903,0.0
9.047,-0.519,-0.905,0.0
8.752,-0.505,-0.925,0.0
8.332,-0.483,-0.928,0.0
10.539,-0.611,-0.877,0.0
9.999,-0.583,-0.889,0.0
9.542,-0.558,-0.902,0.0
9.058,-0.532,-0.909,0.0
8.674,-0.512,-0.92,0.0
8.284,-0.491,-0.926,0.0
10.494,-0.623,-0.877,0.0
9.954,-0.593,-0.888,0.0
9.492,-0.568,-0.9,0.0
9.07,-0.545,-0.913,0.0
8.612,-0.52,-0.916,0.0
8.276,-0.502,-0.927,0.0
10.493,-0.637,-0.879,0.0
9.967,-0.608,-0.892,0.0
9.479,-0.58,-0.902,0.0
9.041,-0.556,-0.912,0.0
8.641,-0.534,-0.921,0.0
8.274,-0.513,-0.929,0.0
10.46,-0.649,-0.879,0.0
9.917,-0.618,-0.889,0.0
9.447,-0.591,-0.901,0.0
9.005,-0.566,-0.91,0.0
8.653,-0.546,-0.924,0.0
8.243,-0.522,-0.927,0.0
10.435,-0.662,-0.879,0.0
9.908,-0.631,-0.89,0.0
9.47,-0.605,-0.904,0.0
9.026,-0.579,-0.914,0.0
8.622,-0.556,-0.922,0.0
8.245,-0.533,-0.928,0.0
10.437,-0.675,-0.88,0.0
9.886,-0.642,-0.889,0.0
9.463,-0.617,-0.905,0.0
9.003,-0.59,-0.913,0.0
8.533,-0.561,-0.913,0.0
8.232,-0.544,-0.928,0.0
10.418,-0.688,-0.88,0.0
9.915,-0.657,-0.893,0.0
9.459,-0.63,-0.905,0.0
8.984,-0.6,-0.911,0.0
8.583,-0.576,-0.919,0.0
8.228,-0.554,-0.928,0.0
10.424,-0.702,-0.881,0.0
9.906,-0.67,-0.892,0.0
9.444,-0.641,-0.904,0.0
8.973,-0.611,-0.91,0.0
8.63,-0.59,-0.924,0.0
8.253,-0.567,-0.931,0.0
10.428,-0.716,-0.881,0.0
9.9,-0.682,-0.892,0.0
9.454,-0.654,-0.905,0.0
9.002,-0.625,-0.913,0.0
8.611,-0.6,-0.922,0.0
8.254,-0.577,-0.93,0.0
10.412,-0.728,-0.879,0.0
9.896,-0.694,-0.891,0.0
9.474,-0.667,-0.906,0.0
9.013,-0.637,-0.914,0.0
8.641,-0.613,-0.925,0.0
8.223,-0.586,-0.926,0.0
10.439,-0.743,-0.881,0.0
9.911,-0.708,-0.892,0.0
9.471,-0.679,-0.905,0.0
9.007,-0.648,-0.912,0.0
0.0,0.0,0.0,0.0
8.241,-0.597,-0.927,0.0
10.433,-0.756,-0.879,0.0
9.951,-0.723,-0.894,0.0
9.47,-0.691,-0.904,0.0
9.004,-0.659,-0.911,0.0
8.637,-0.634,-0.922,0.0
8.249,-0.608,-0.927,0.0
10.477,-0.772,-0.881,0.0
9.954,-0.736,-0.893,0.0
9.485,-0.703,-0.903,0.0
9.041,-0.673,-0.913,0.0
8.67,-0.647,-0.924,0.0
8.273,-0.62,-0.928,0.0
10.499,-0.786,-0.881,0.0
9.969,-0.749,-0.892,0.0
9.502,-0.716,-0.903,0.0
9.112,-0.689,-0.918,0.0
8.686,-0.659,-0.923,0.0
8.287,-0.631,-0.927,0.0
10.516,-0.8,-0.879,0.0
9.992,-0.762,-0.891,0.0
9.559,-0.732,-0.906,0.0
9.073,-0.697,-0.911,0.0
8.729,-0.673,-0.925,0.0
8.298,-0.642,-0.926,0.0
10.566,-0.816,-0.881,0.0
10.028,-0.777,-0.891,0.0
9.575,-0.744,-0.904,0.0
9.156,-0.714,-0.917,0.0
8.752,-0.685,-0.925,0.0
8.332,-0.654,-0.927,0.0
10.63,-0.833,-0.882,0.0
10.071,-0.792,-0.892,0.0
9.617,-0.758,-0.905,0.0
9.123,-0.722,-0.91,0.0
8.724,-0.692,-0.919,0.0
8.323,-0.662,-0.923,0.0
10.669,-0.848,-0.882,0.0
10.128,-0.808,-0.893,0.0
9.65,-0.772,-0.904,0.0
9.177,-0.736,-0.912,0.0
8.74,-0.703,-0.917,0.0
8.391,-0.677,-0.927,0.0
10.734,-0.865,-0.883,0.0
10.17,-0.822,-0.893,0.0
9.691,-0.786,-0.904,0.0
9.178,-0.746,-0.908,0.0
8.807,-0.718,-0.92,0.0
8.44,-0.691,-0.929,0.0
10.789,-0.882,-0.882,0.0
10.218,-0.837,-0.892,0.0
9.701,-0.797,-0.901,0.0
9.228,-0.76,-0.909,0.0
8.85,-0.731,-0.921,0.0
8.459,-0.701,-0.927,0.0
10.831,-0.896,-0.88,0.0
10.258,-0.851,-0.89,0.0
9.732,-0.81,-0.899,0.0
9.278,-0.774,-0.909,0.0
8.894,-0.744,-0.92,0.0
8.522,-0.715,-0.929,0.0
10.895,-0.913,-0.88,0.0
10.295,-0.865,-0.888,0.0
9.77,-0.823,-0.897,0.0
9.279,-0.784,-0.904,0.0
8.965,-0.759,-0.923,0.0
8.54,-0.725,-0.926,0.0
10.95,-0.928,-0.878,0.0
10.357,-0.88,-0.888,0.0
9.832,-0.838,-0.897,0.0
9.38,-0.802,-0.908,0.0
8.996,-0.771,-0.921,0.0
8.541,-0.734,-0.921,0.0
11.031,-0.946,-0.878,0.0
10.445,-0.898,-0.889,0.0
9.902,-0.854,-0.897,0.0
9.448,-0.816,-0.909,0.0
9.003,-0.78,-0.916,0.0
8.586,-0.746,-0.921,0.0
11.108,-0.963,-0.877,0.0
10.508,-0.913,-0.887,0.0
9.97,-0.869,-0.897,0.0
9.496,-0.829,-0.907,0.0
9.032,-0.791,-0.913,0.0
8.64,-0.758,-0.921,0.0
11.187,-0.981,-0.876,0.0
10.591,-0.93,-0.887,0.0
10.029,-0.883,-0.895,0.0
9.551,-0.843,-0.906,0.0
9.173,-0.811,-0.92,0.0
8.741,-0.775,-0.925,0.0
11.284,-0.999,-0.875,0.0
10.657,-0.946,-0.885,0.0
10.097,-0.898,-0.894,0.0
9.634,-0.859,-0.907,0.0
9.183,-0.82,-0.915,0.0
8.726,-0.781,-0.917,0.0
11.379,-1.017,-0.874,0.0
10.766,-0.964,-0.886,0.0
10.168,-0.913,-0.892,0.0
9.69,-0.872,-0.904,0.0
9.224,-0.832,-0.911,0.0
8.844,-0.799,-0.923,0.0
11.47,-1.035,-0.872,0.0
10.862,-0.982,-0.885,0.0
10.266,-0.93,-0.893,0.0
9.749,-0.885,-0.902,0.0
9.302,-0.846,-0.912,0.0
8.891,-0.811,-0.92,0.0
11.547,-1.051,-0.869,0.0
10.955,-0.999,-0.884,0.0
10.359,-0.946,-0.892,0.0
9.831,-0.9,-0.901,0.0
9.397,-0.862,-0.913,0.0
8.958,-0.824,-0.919,0.0
11.71,-1.075,-0.871,0.0
11.029,-1.014,-0.88,0.0
10.478,-0.965,-0.894,0.0
9.914,-0.915,-0.901,0.0
9.456,-0.874,-0.911,0.0
9.008,-0.835,-0.917,0.0
11.785,-1.09,-0.867,0.0
11.15,-1.033,-0.88,0.0
10.545,-0.979,-0.89,0.0
10.003,-0.93,-0.9,0.0
9.517,-0.887,-0.908,0.0
9.099,-0.849,-0.918,0.0
11.9,-1.109,-0.864,0.0
11.281,-1.053,-0.88,0.0
10.59,-0.99,-0.884,1.0
10.114,-0.947,-0.9,0.0
9.613,-0.902,-0.908,0.0
9.177,-0.863,-0.917,0.0
12.082,-1.134,-0.866,0.0
11.36,-1.068,-0.876,0.0
10.77,-1.014,-0.889,0.0
10.224,-0.964,-0.9,0.0
9.698,-0.916,-0.907,0.0
9.25,-0.875,-0.915,0.0
12.206,-1.153,-0.863,0.0
11.453,-1.083,-0.872,0.0
10.885,-1.031,-0.888,0.0
10.324,-0.98,-0.899,0.0
9.794,-0.931,-0.906,0.0
9.322,-0.888,-0.913,0.0
12.312,-1.17,-0.859,0.0
11.624,-1.106,-0.874,0.0
10.946,-1.043,-0.882,0.0
10.406,-0.993,-0.896,0.0
9.885,-0.945,-0.904,0.0
9.423,-0.902,-0.913,0.0
12.459,-1.191,-0.856,0.0
11.776,-1.127,-0.873,0.0
11.117,-1.066,-0.884,0.0
10.489,-1.007,-0.892,0.0
10.008,-0.962,-0.905,0.0
9.512,-0.916,-0.912,0.0
12.667,-1.217,-0.857,0.0
11.835,-1.139,-0.865,0.0
11.255,-1.084,-0.883,0.0
10.649,-1.027,-0.894,0.0
10.108,-0.976,-0.903,0.0
9.628,-0.931,-0.913,0.0
12.845,-1.24,-0.856,0.0
12.02,-1.162,-0.865,0.0
11.337,-1.097,-0.877,0.0
10.798,-1.047,-0.895,0.0
10.217,-0.991,-0.902,0.0
9.7,-0.943,-0.909,0.0
12.942,-1.255,-0.848,0.0
12.172,-1.182,-0.863,0.0
11.44,-1.112,-0.873,0.0
10.912,-1.062,-0.892,0.0
10.313,-1.005,-0.899,0.0
9.815,-0.957,-0.908,0.0
13.125,-1.278,-0.845,0.0
12.306,-1.199,-0.859,0.0
11.613,-1.133,-0.873,0.0
10.938,-1.068,-0.882,0.0
10.413,-1.018,-0.896,0.0
9.929,-0.972,-0.908,0.0
13.247,-1.294,-0.838,0.0
12.478,-1.221,-0.856,0.0
11.768,-1.152,-0.871,0.0
11.135,-1.091,-0.885,0.0
10.546,-1.035,-0.895,0.0
10.031,-0.985,-0.905,0.0
13.567,-1.33,-0.843,0.0
12.683,-1.244,-0.856,0.0
11.894,-1.168,-0.866,0.0
11.273,-1.108,-0.882,0.0
10.728,-1.055,-0.897,0.0
10.174,-1.002,-0.906,0.0
13.717,-1.348,-0.835,0.0
12.858,-1.265,-0.852,0.0
12.104,-1.192,-0.867,0.0
11.369,-1.12,-0.876,0.0
10.867,-1.072,-0.896,0.0
10.291,-1.016,-0.904,0.0
13.909,-1.37,-0.83,0.0
13.05,-1.286,-0.849,0.0
12.246,-1.208,-0.862,0.0
11.533,-1.139,-0.875,0.0
10.954,-1.082,-0.89,0.0
10.376,-1.026,-0.898,0.0
14.158,-1.397,-0.828,0.0
13.252,-1.309,-0.846,0.0
12.49,-1.234,-0.864,0.0
11.726,-1.159,-0.875,0.0
11.082,-1.096,-0.886,0.0
10.49,-1.039,-0.895,0.0
14.399,-1.423,-0.824,0.0
13.499,-1.335,-0.845,0.0
12.656,-1.252,-0.86,0.0
11.84,-1.172,-0.869,0.0
11.266,-1.116,-0.887,0.0
10.647,-1.055,-0.895,0.0
14.591,-1.444,-0.817,0.0
13.628,-1.349,-0.836,0.0
12.789,-1.266,-0.852,0.0
11.98,-1.187,-0.864,0.0
11.353,-1.125,-0.879,0.0
10.797,-1.071,-0.894,0.0
15.027,-1.488,-0.822,0.0
13.931,-1.379,-0.836,0.0
13.03,-1.291,-0.852,0.0
12.201,-1.209,-0.864,0.0
11.491,-1.139,-0.875,0.0
10.932,-1.084,-0.891,0.0
15.361,-1.521,-0.821,0.0
14.137,-1.4,-0.83,0.0
13.196,-1.307,-0.846,0.0
12.434,-1.232,-0.864,0.0
11.702,-1.16,-0.876,0.0
11.064,-1.097,-0.887,0.0
15.566,-1.54,-0.812,1.0
14.369,-1.422,-0.826,0.0
13.493,-1.336,-0.847,0.0
12.575,-1.245,-0.858,0.0
11.847,-1.173,-0.871,0.0
11.251,-1.115,-0.887,0.0
15.839,-1.566,-0.805,1.0
14.466,-1.431,-0.812,0.0
13.638,-1.349,-0.838,0.0
12.753,-1.261,-0.853,0.0
12.058,-1.193,-0.871,0.0
11.364,-1.124,-0.881,0.0
16.075,-1.588,-0.796,1.0
15.093,-1.491,-0.827,0.0
13.961,-1.379,-0.839,0.0
13.01,-1.285,-0.853,0.0
12.273,-1.212,-0.87,0.0
11.56,-1.142,-0.881,0.0
16.12,-1.589,-0.776,1.0
15.384,-1.517,-0.822,0.0
14.141,-1.394,-0.831,0.0
13.208,-1.302,-0.848,0.0
12.437,-1.226,-0.864,0.0
11.678,-1.151,-0.874,0.0
16.205,-1.594,-0.759,0.0
15.538,-1.528,-0.81,1.0
14.408,-1.417,-0.827,0.0
13.457,-1.323,-0.846,0.0
12.66,-1.245,-0.863,0.0
11.859,-1.166,-0.871,0.0
16.286,-1.598,-0.74,1.0
15.899,-1.56,-0.807,1.0
14.632,-1.435,-0.82,0.0
13.727,-1.346,-0.844,0.0
12.839,-1.258,-0.857,0.0
12.078,-1.183,-0.871,0.0
16.372,-1.602,-0.722,1.0
16.13,-1.577,-0.797,1.0
15.16,-1.482,-0.829,0.0
13.923,-1.36,-0.837,0.0
13.08,-1.278,-0.856,0.0
12.242,-1.195,-0.866,0.0
16.487,-1.607,-0.705,1.0
16.447,-1.603,-0.79,0.0
15.385,-1.498,-0.82,1.0
14.267,-1.389,-0.838,0.0
13.199,-1.284,-0.845,0.0
12.485,-1.214,-0.866,0.0
16.691,-1.621,-0.69,1.0
16.695,-1.62,-0.779,0.0
15.477,-1.501,-0.804,1.0
14.478,-1.403,-0.83,0.0
13.582,-1.316,-0.851,0.0
12.693,-1.229,-0.862,0.0
16.863,-1.63,-0.674,1.0
16.911,-1.633,-0.765,0.0
15.936,-1.538,-0.806,0.0
14.685,-1.416,-0.822,0.0
13.723,-1.323,-0.841,0.0
12.893,-1.242,-0.858,0.0
17.128,-1.647,-0.661,1.0
17.166,-1.65,-0.753,0.0
16.183,-1.554,-0.796,0.0
15.233,-1.462,-0.831,0.0
13.942,-1.337,-0.835,0.0
13.118,-1.257,-0.855,0.0
17.453,-1.67,-0.649,2.0
17.377,-1.661,-0.739,1.0
16.687,-1.593,-0.797,0.0
15.365,-1.466,-0.817,1.0
14.316,-1.364,-0.837,0.0
13.294,-1.266,-0.848,0.0
17.798,-1.692,-0.638,2.0
17.584,-1.67,-0.723,1.0
16.933,-1.607,-0.786,0.0
15.626,-1.481,-0.809,0.0
14.555,-1.378,-0.831,0.0
13.553,-1.282,-0.845,0.0
18.248,-1.724,-0.629,2.0
17.845,-1.684,-0.709,1.0
17.603,-1.659,-0.792,0.0
15.936,-1.5,-0.803,0.0
14.765,-1.389,-0.822,0.0
13.758,-1.292,-0.839,0.0
18.722,-1.756,-0.619,2.0
18.169,-1.702,-0.697,1.0
17.901,-1.675,-0.781,0.0
16.433,-1.536,-0.806,0.0
15.218,-1.421,-0.826,0.0
14.089,-1.314,-0.84,0.0
19.247,-1.792,-0.61,2.0
18.497,-1.72,-0.684,1.0
18.267,-1.696,-0.772,0.0
16.662,-1.545,-0.794,0.0
15.46,-1.432,-0.818,0.0
14.309,-1.324,-0.833,0.0
19.854,-1.834,-0.602,2.0
18.944,-1.747,-0.675,1.0
18.69,-1.721,-0.764,0.0
17.059,-1.569,-0.789,0.0
15.74,-1.446,-0.812,0.0
14.635,-1.342,-0.832,0.0
20.482,-1.876,-0.594,2.0
19.399,-1.774,-0.664,1.0
19.279,-1.76,-0.762,0.0
17.383,-1.585,-0.781,0.0
16.135,-1.469,-0.81,0.0
14.848,-1.349,-0.824,0.0
21.222,-1.926,-0.586,2.0
19.86,-1.799,-0.653,1.0
19.825,-1.793,-0.757,0.0
17.688,-1.597,-0.77,0.0
16.593,-1.496,-0.811,0.0
15.106,-1.36,-0.818,0.0
21.86,-1.965,-0.574,2.0
20.353,-1.826,-0.642,2.0
20.357,-1.823,-0.75,0.0
17.986,-1.608,-0.759,0.0
16.753,-1.495,-0.796,0.0
15.504,-1.381,-0.818,0.0
22.874,-2.035,-0.57,5.0
20.984,-1.863,-0.633,1.0
20.953,-1.857,-0.743,0.0
18.585,-1.644,-0.759,0.0
17.244,-1.523,-0.796,0.0
15.815,-1.394,-0.814,0.0
23.61,-2.078,-0.557,5.0
21.642,-1.901,-0.625,1.0
21.613,-1.894,-0.738,0.0
19.119,-1.673,-0.756,0.0
17.457,-1.524,-0.782,0.0
16.086,-1.402,-0.806,0.0
24.356,-2.12,-0.542,6.0
22.371,-1.942,-0.616,2.0
22.078,-1.913,-0.725,0.0
19.56,-1.691,-0.747,0.0
17.627,-1.521,-0.767,0.0
16.437,-1.415,-0.802,0.0
25.627,-2.203,-0.536,6.0
23.114,-1.983,-0.606,1.0
22.505,-1.926,-0.709,0.0
20.064,-1.713,-0.74,0.0
18.385,-1.566,-0.775,0.0
16.798,-1.428,-0.798,0.0
26.608,-2.259,-0.523,7.0
23.893,-2.024,-0.595,3.0
23.648,-1.998,-0.715,0.0
20.67,-1.742,-0.736,0.0
18.51,-1.557,-0.757,0.0
17.093,-1.434,-0.789,0.0
27.839,-2.333,-0.511,7.0
24.793,-2.072,-0.586,1.0
24.006,-2.001,-0.695,0.0
21.239,-1.766,-0.729,0.0
19.19,-1.592,-0.76,0.0
17.47,-1.445,-0.785,0.0
28.985,-2.395,-0.495,8.0
25.858,-2.131,-0.578,1.0
26.195,-2.153,-0.724,0.0
21.737,-1.781,-0.718,0.0
19.872,-1.624,-0.762,0.0
17.837,-1.454,-0.778,0.0
30.029,-2.445,-0.475,8.0
27.157,-2.205,-0.573,1.0
0.0,0.0,0.0,0.0
22.386,-1.807,-0.711,0.0
20.165,-1.623,-0.747,0.0
18.152,-1.457,-0.769,0.0
0.0,0.0,0.0,0.0
28.663,-2.291,-0.569,1.0
0.0,0.0,0.0,0.0
23.0,-1.827,-0.702,0.0
20.87,-1.653,-0.748,0.0
18.622,-1.471,-0.766,0.0
32.461,-2.561,-0.433,2.0
30.098,-2.367,-0.56,1.0
0.0,0.0,0.0,0.0
23.845,-1.863,-0.699,0.0
21.461,-1.672,-0.743,0.0
19.04,-1.479,-0.76,0.0
33.752,-2.618,-0.409,1.0
32.088,-2.481,-0.558,1.0
28.202,-2.173,-0.64,0.0
0.0,0.0,0.0,0.0
21.656,-1.658,-0.723,0.0
19.516,-1.49,-0.756,0.0
35.274,-2.689,-0.386,1.0
34.152,-2.594,-0.554,1.0
29.452,-2.23,-0.634,0.0
25.896,-1.954,-0.697,0.0
22.184,-1.668,-0.715,0.0
20.146,-1.51,-0.756,0.0
37.222,-2.785,-0.363,1.0
36.26,-2.704,-0.546,0.0
29.895,-2.221,-0.609,0.0
0.0,0.0,0.0,0.0
22.769,-1.68,-0.707,0.0
20.276,-1.491,-0.738,0.0
39.714,-2.915,-0.341,1.0
0.0,0.0,0.0,0.0
30.887,-2.251,-0.593,0.0
0.0,0.0,0.0,0.0
23.447,-1.696,-0.702,0.0
20.957,-1.51,-0.738,0.0
42.705,-3.072,-0.318,2.0
40.448,-2.898,-0.516,0.0
0.0,0.0,0.0,0.0
0.0,0.0,0.0,0.0
23.95,-1.696,-0.69,0.0
21.434,-1.512,-0.731,0.0
47.377,-3.337,-0.3,1.0
0.0,0.0,0.0,0.0
33.656,-2.351,-0.571,0.0
0.0,0.0,0.0,0.0
0.0,0.0,0.0,0.0
21.887,-1.511,-0.723,0.0
20.018,-1.379,-0.105,15.0
20.031,-1.374,-0.212,13.0
20.061,-1.37,-0.318,9.0
20.075,-1.366,-0.428,7.0
20.103,-1.362,-0.535,6.0
20.149,-1.359,-0.644,2.0
19.996,-1.346,-0.083,25.0
20.02,-1.342,-0.19,28.0
20.043,-1.338,-0.297,27.0
20.066,-1.334,-0.406,25.0
20.098,-1.33,-0.514,27.0
20.112,-1.325,-0.622,25.0
19.988,-1.314,-0.063,29.0
20.008,-1.309,-0.169,34.0
20.043,-1.305,-0.276,28.0
20.046,-1.3,-0.385,28.0
20.072,-1.296,-0.493,31.0
20.113,-1.292,-0.601,26.0
20.005,-1.283,-0.042,22.0
20.013,-1.277,-0.149,29.0
20.036,-1.272,-0.256,27.0
20.069,-1.268,-0.365,26.0
20.108,-1.264,-0.473,26.0
20.116,-1.259,-0.581,8.0
20.002,-1.249,-0.022,16.0
20.029,-1.244,-0.129,26.0
20.028,-1.238,-0.236,15.0
19.997,-1.23,-0.345,7.0
19.97,-1.222,-0.451,13.0
19.98,-1.217,-0.558,150.0
19.982,-1.208,-0.11,151.0
19.981,-1.201,-0.216,151.0
19.972,-1.194,-0.325,150.0
19.985,-1.189,-0.432,150.0
19.986,-1.183,-0.539,150.0
20.008,-1.181,0.015,49.0
20.004,-1.175,-0.091,150.0
20.028,-1.17,-0.199,21.0
19.979,-1.161,-0.307,1.0
19.987,-1.154,-0.414,0.0
25.947,-1.491,-0.676,0.0
20.048,-1.149,0.033,2.0
0.0,0.0,0.0,0.0
0.0,0.0,0.0,0.0
37.121,-2.091,-0.537,0.0
30.329,-1.699,-0.601,0.0
26.425,-1.471,-0.665,0.0
19.996,-1.11,0.05,23.0
20.008,-1.104,-0.056,13.0
20.037,-1.1,-0.163,0.0
38.604,-2.106,-0.526,0.0
0.0,0.0,0.0,0.0
20.09,-1.083,-0.489,0.0
19.975,-1.073,0.067,32.0
19.981,-1.067,-0.039,17.0
20.01,-1.062,-0.146,24.0
20.055,-1.057,-0.256,9.0
20.031,-1.049,-0.363,15.0
20.041,-1.043,-0.471,27.0
19.991,-1.037,0.084,19.0
19.987,-1.03,-0.022,19.0
19.982,-1.023,-0.13,29.0
19.991,-1.017,-0.239,28.0
20.006,-1.011,-0.346,25.0
20.028,-1.006,-0.454,29.0
20.035,-1.002,0.1,8.0
20.003,-0.994,-0.007,11.0
19.989,-0.987,-0.114,28.0
19.987,-0.98,-0.223,32.0
20.002,-0.974,-0.331,27.0
20.051,-0.969,-0.44,24.0
138.147,-6.659,0.797,7.0
20.017,-0.957,0.008,0.0
19.99,-0.949,-0.099,17.0
20.01,-0.943,-0.209,24.0
20.0,-0.936,-0.316,17.0
20.067,-0.932,-0.425,1.0
138.213,-6.397,0.899,10.0
0.0,0.0,0.0,0.0
0.0,0.0,0.0,0.0
20.045,-0.906,-0.195,0.0
0.0,0.0,0.0,0.0
0.0,0.0,0.0,0.0
137.993,-6.122,0.994,22.0
0.0,0.0,0.0,0.0
0.0,0.0,0.0,0.0
47.322,-2.049,-0.428,0.0
38.288,-1.644,-0.552,0.0
31.617,-1.346,-0.626,0.0
138.29,-5.863,1.089,24.0
0.0,0.0,0.0,0.0
0.0,0.0,0.0,0.0
47.703,-1.971,-0.4,0.0
38.219,-1.565,-0.526,0.0
31.107,-1.263,-0.596,0.0
138.408,-5.595,1.178,27.0
0.0,0.0,0.0,0.0
0.0,0.0,0.0,0.0
47.785,-1.881,-0.371,0.0
38.015,-1.483,-0.5,0.0
0.0,0.0,0.0,0.0
138.43,-5.322,1.261,22.0
0.0,0.0,0.0,0.0
0.0,0.0,0.0,0.0
0.0,0.0,0.0,0.0
0.0,0.0,0.0,0.0
32.643,-1.196,-0.587,0.0
138.525,-5.049,1.341,22.0
0.0,0.0,0.0,0.0
0.0,0.0,0.0,0.0
0.0,0.0,0.0,0.0
41.331,-1.446,-0.498,0.0
33.163,-1.149,-0.579,0.0
138.563,-4.769,1.415,21.0
138.474,-4.716,0.664,3.0
0.0,0.0,0.0,0.0
0.0,0.0,0.0,0.0
41.365,-1.363,-0.477,0.0
0.0,0.0,0.0,0.0
138.631,-4.487,1.485,12.0
0.0,0.0,0.0,0.0
0.0,0.0,0.0,0.0
0.0,0.0,0.0,0.0
41.318,-1.276,-0.457,1.0
34.885,-1.065,-0.575,0.0
138.833,-4.207,1.552,5.0
138.371,-4.143,0.795,10.0
0.0,0.0,0.0,0.0
0.0,0.0,0.0,0.0
44.059,-1.271,-0.468,1.0
34.948,-0.995,-0.561,0.0
0.0,0.0,0.0,0.0
138.656,-3.864,0.856,14.0
0.0,0.0,0.0,0.0
54.807,-1.487,-0.262,1.0
44.017,-1.177,-0.45,1.0
35.035,-0.925,-0.548,0.0
0.0,0.0,0.0,0.0
138.859,-3.578,0.911,15.0
0.0,0.0,0.0,0.0
0.0,0.0,0.0,0.0
43.568,-1.075,-0.429,1.0
34.85,-0.847,-0.533,0.0
0.0,0.0,0.0,0.0
138.922,-3.288,0.96,14.0
0.0,0.0,0.0,0.0
0.0,0.0,0.0,0.0
0.0,0.0,0.0,0.0
0.0,0.0,0.0,0.0
0.0,0.0,0.0,0.0
138.931,-2.994,1.003,17.0
0.0,0.0,0.0,0.0
0.0,0.0,0.0,0.0
45.246,-0.925,-0.417,2.0
37.459,-0.753,-0.55,0.0
0.0,0.0,0.0,0.0
138.998,-2.702,1.042,22.0
0.0,0.0,0.0,0.0
0.0,0.0,0.0,0.0
45.295,-0.831,-0.406,2.0
0.0,0.0,0.0,0.0
139.138,-2.465,1.836,2.0
139.081,-2.411,1.075,20.0
0.0,0.0,0.0,0.0
0.0,0.0,0.0,0.0
46.742,-0.759,-0.409,1.0
0.0,0.0,0.0,0.0
138.985,-2.165,1.863,3.0
138.861,-2.112,1.101,22.0
0.0,0.0,0.0,0.0
0.0,0.0,0.0,0.0
46.906,-0.661,-0.402,1.0
0.0,0.0,0.0,0.0
139.143,-1.866,1.889,4.0
139.204,-1.817,1.127,25.0
0.0,0.0,0.0,0.0
0.0,0.0,0.0,0.0
47.015,-0.562,-0.396,0.0
37.515,-0.435,-0.521,0.0
119.741,-1.35,1.641,17.0
119.759,-1.306,0.985,93.0
0.0,0.0,0.0,0.0
0.0,0.0,0.0,0.0
0.0,0.0,0.0,0.0
0.0,0.0,0.0,0.0
119.735,-1.095,1.652,61.0
119.736,-1.051,0.995,17.0
0.0,0.0,0.0,0.0
0.0,0.0,0.0,0.0
0.0,0.0,0.0,0.0
37.805,-0.276,-0.519,0.0
119.682,-0.838,1.659,4.0
119.719,-0.794,1.001,13.0
0.0,0.0,0.0,0.0
0.0,0.0,0.0,0.0
0.0,0.0,0.0,0.0
37.841,-0.196,-0.519,0.0
113.462,-0.552,1.575,6.0
119.657,-0.54,1.003,12.0
102.926,-0.427,0.296,2.0
0.0,0.0,0.0,0.0
45.301,-0.156,-0.372,0.0
38.011,-0.117,-0.521,0.0
112.7,-0.308,1.562,20.0
114.47,-0.271,0.956,14.0
99.628,-0.2,0.284,1.0
0.0,0.0,0.0,0.0
45.373,-0.057,-0.375,1.0
37.601,-0.034,-0.518,0.0
117.281,-0.065,1.619,14.0
111.218,-0.023,0.923,7.0
95.63,0.013,0.266,4.0
0.0,0.0,0.0,0.0
45.719,0.039,-0.381,1.0
0.0,0.0,0.0,0.0
111.167,0.176,1.525,20.0
111.055,0.214,0.91,12.0
0.0,0.0,0.0,0.0
0.0,0.0,0.0,0.0
46.1,0.138,-0.39,0.0
37.818,0.126,-0.528,0.0
111.181,0.415,1.511,22.0
110.873,0.454,0.894,17.0
88.119,0.39,0.223,5.0
0.0,0.0,0.0,0.0
45.772,0.235,-0.394,0.0
36.785,0.201,-0.52,0.0
101.287,0.594,1.359,2.0
104.896,0.652,0.828,26.0
85.67,0.563,0.202,7.0
0.0,0.0,0.0,0.0
48.484,0.352,-0.426,0.0
36.371,0.277,-0.521,0.0
100.068,0.8,1.323,5.0
98.459,0.82,0.756,15.0
83.95,0.729,0.18,2.0
0.0,0.0,0.0,0.0
45.687,0.428,-0.412,0.0
36.923,0.359,-0.538,0.0
98.619,0.997,1.28,29.0
98.33,1.029,0.731,12.0
0.0,0.0,0.0,0.0
0.0,0.0,0.0,0.0
0.0,0.0,0.0,0.0
35.008,0.414,-0.519,0.0
98.527,1.207,1.251,32.0
98.433,1.24,0.704,16.0
81.031,1.049,0.13,2.0
0.0,0.0,0.0,0.0
43.992,0.6,-0.422,2.0
36.11,0.504,-0.547,0.0
98.925,1.421,1.225,12.0
91.982,1.353,0.628,17.0
75.26,1.133,0.096,1.0
0.0,0.0,0.0,0.0
0.0,0.0,0.0,0.0
34.663,0.557,-0.537,0.0
91.893,1.515,1.106,37.0
91.775,1.545,0.594,16.0
73.222,1.257,0.067,6.0
57.924,1.014,-0.275,0.0
0.0,0.0,0.0,0.0
0.0,0.0,0.0,0.0
87.728,1.631,1.022,4.0
85.328,1.615,0.519,15.0
46.373,0.894,0.023,1.0
0.0,0.0,0.0,0.0
0.0,0.0,0.0,0.0
33.94,0.688,-0.552,0.0
85.289,1.763,0.957,35.0
84.874,1.784,0.479,12.0
69.361,1.48,0.005,1.0
0.0,0.0,0.0,0.0
0.0,0.0,0.0,0.0
33.803,0.755,-0.566,0.0
85.261,1.94,0.917,32.0
84.796,1.957,0.44,4.0
67.27,1.575,-0.026,6.0
0.0,0.0,0.0,0.0
39.754,0.957,-0.463,0.0
33.661,0.821,-0.58,0.0
79.018,1.963,0.811,21.0
78.65,1.978,0.368,7.0
65.578,1.67,-0.058,7.0
49.168,1.269,-0.323,0.0
41.332,1.079,-0.502,0.0
32.096,0.849,-0.569,0.0
0.0,0.0,0.0,0.0
71.904,1.956,0.298,12.0
63.982,1.761,-0.092,6.0
0.0,0.0,0.0,0.0
39.256,1.105,-0.499,0.0
0.0,0.0,0.0,0.0
78.934,2.282,0.724,7.0
71.632,2.094,0.256,10.0
62.412,1.843,-0.125,6.0
49.117,1.467,-0.378,1.0
37.858,1.142,-0.503,0.0
30.981,0.945,-0.585,0.0
72.471,2.241,0.621,25.0
71.415,2.231,0.212,12.0
60.872,1.92,-0.159,5.0
45.524,1.451,-0.379,0.0
37.675,1.212,-0.524,0.0
30.65,0.996,-0.598,0.0
72.325,2.381,0.574,28.0
53.514,1.778,0.125,3.0
59.517,1.997,-0.194,6.0
45.457,1.538,-0.407,0.0
35.922,1.227,-0.523,0.0
29.781,1.026,-0.601,0.0
72.311,2.524,0.526,20.0
65.478,2.306,0.109,11.0
58.052,2.062,-0.229,1.0
0.0,0.0,0.0,0.0
35.225,1.273,-0.538,0.0
29.652,1.081,-0.619,0.0
72.215,2.664,0.474,14.0
65.164,2.424,0.062,10.0
56.796,2.129,-0.264,1.0
44.811,1.694,-0.465,0.0
34.981,1.333,-0.559,0.0
0.0,0.0,0.0,0.0
72.118,2.801,0.42,8.0
57.288,2.242,0.012,2.0
55.636,2.194,-0.3,1.0
41.591,1.653,-0.462,0.0
33.634,1.346,-0.563,0.0
28.162,1.136,-0.63,0.0
66.046,2.694,0.334,19.0
58.856,2.418,-0.033,22.0
48.997,2.028,-0.303,0.0
39.711,1.654,-0.473,0.0
0.0,0.0,0.0,0.0
27.614,1.167,-0.64,0.0
65.938,2.815,0.28,15.0
58.564,2.517,-0.08,7.0
0.0,0.0,0.0,0.0
38.355,1.67,-0.488,0.0
0.0,0.0,0.0,0.0
27.114,1.196,-0.65,0.0
65.743,2.929,0.225,11.0
53.269,2.389,-0.117,6.0
0.0,0.0,0.0,0.0
37.011,1.68,-0.502,0.0
30.764,1.406,-0.591,0.0
26.473,1.217,-0.658,0.0
65.555,3.042,0.168,9.0
52.283,2.441,-0.159,15.0
43.682,2.051,-0.379,0.0
0.0,0.0,0.0,0.0
0.0,0.0,0.0,0.0
25.924,1.239,-0.667,0.0
59.291,2.86,0.1,6.0
51.613,2.504,-0.204,5.0
42.779,2.087,-0.41,2.0
35.056,1.72,-0.538,0.0
29.462,1.454,-0.618,0.0
25.22,1.251,-0.672,0.0
58.939,2.95,0.045,15.0
50.057,2.518,-0.244,4.0
42.512,2.15,-0.447,1.0
0.0,0.0,0.0,0.0
28.304,1.446,-0.62,0.0
24.834,1.276,-0.685,0.0
52.428,2.716,-0.009,20.0
49.254,2.564,-0.286,2.0
42.472,2.223,-0.487,0.0
32.434,1.706,-0.558,0.0
27.736,1.466,-0.635,0.0
24.033,1.277,-0.686,0.0
51.899,2.779,-0.059,17.0
48.384,2.603,-0.329,1.0
38.896,2.103,-0.484,0.0
0.0,0.0,0.0,0.0
27.022,1.475,-0.645,0.0
23.431,1.285,-0.692,0.0
51.338,2.838,-0.11,18.0
47.583,2.642,-0.371,0.0
37.507,2.092,-0.505,0.0
0.0,0.0,0.0,0.0
26.404,1.486,-0.657,0.0
22.865,1.293,-0.699,0.0
50.999,2.905,-0.162,13.0
45.704,2.615,-0.403,2.0
35.606,2.046,-0.516,1.0
29.734,1.716,-0.602,0.0
25.524,1.479,-0.662,0.0
22.582,1.314,-0.714,0.0
46.656,2.734,-0.197,9.0
0.0,0.0,0.0,0.0
34.523,2.04,-0.537,0.0
28.793,1.708,-0.614,0.0
24.936,1.486,-0.673,0.0
21.93,1.312,-0.717,0.0
45.742,2.756,-0.242,20.0
41.103,2.486,-0.451,0.0
0.0,0.0,0.0,0.0
27.657,1.686,-0.62,0.0
24.415,1.494,-0.686,0.0
21.458,1.319,-0.725,0.0
45.175,2.794,-0.289,10.0
0.0,0.0,0.0,0.0
31.878,1.986,-0.566,0.0
27.143,1.698,-0.639,0.0
23.628,1.484,-0.691,0.0
20.907,1.318,-0.73,0.0
44.572,2.827,-0.336,10.0
36.943,2.351,-0.488,0.0
30.99,1.98,-0.586,0.0
26.287,1.685,-0.649,0.0
23.066,1.484,-0.701,0.0
20.373,1.315,-0.735,0.0
44.054,2.861,-0.383,2.0
35.749,2.33,-0.514,0.0
29.76,1.946,-0.597,0.0
25.692,1.686,-0.664,0.0
22.513,1.482,-0.71,0.0
19.965,1.319,-0.743,0.0
43.428,2.885,-0.428,2.0
34.402,2.292,-0.534,0.0
28.812,1.926,-0.611,0.0
24.838,1.666,-0.671,0.0
21.826,1.469,-0.714,0.0
19.46,1.314,-0.748,0.0
41.217,2.798,-0.455,0.0
32.952,2.244,-0.552,0.0
27.751,1.896,-0.622,0.0
24.197,1.658,-0.683,0.0
21.404,1.472,-0.726,0.0
19.053,1.314,-0.755,0.0
38.193,2.647,-0.468,0.0
31.676,2.202,-0.569,0.0
26.911,1.877,-0.637,0.0
23.516,1.645,-0.693,0.0
20.704,1.453,-0.728,0.0
18.599,1.309,-0.76,0.0
36.474,2.58,-0.492,1.0
30.517,2.164,-0.586,0.0
26.074,1.855,-0.649,0.0
22.774,1.625,-0.699,0.0
20.324,1.454,-0.74,0.0
18.312,1.314,-0.772,0.0
35.058,2.527,-0.517,0.0
29.441,2.128,-0.602,0.0
25.397,1.84,-0.664,0.0
22.153,1.61,-0.708,0.0
19.709,1.436,-0.743,0.0
17.844,1.304,-0.774,0.0
33.289,2.443,-0.533,0.0
28.312,2.083,-0.615,0.0
24.513,1.809,-0.673,0.0
21.694,1.605,-0.721,0.0
19.352,1.435,-0.754,0.0
17.51,1.302,-0.782,0.0
31.868,2.38,-0.552,0.0
27.451,2.055,-0.632,0.0
23.691,1.778,-0.681,0.0
20.927,1.574,-0.723,0.0
18.702,1.411,-0.753,0.0
17.043,1.289,-0.784,0.0
30.623,2.325,-0.57,0.0
26.221,1.995,-0.638,0.0
23.155,1.766,-0.696,0.0
20.302,1.552,-0.728,0.0
18.386,1.409,-0.765,0.0
16.749,1.287,-0.792,0.0
29.676,2.289,-0.592,0.0
25.43,1.966,-0.653,0.0
22.517,1.745,-0.706,0.0
19.975,1.551,-0.743,0.0
17.951,1.397,-0.771,0.0
16.377,1.278,-0.797,0.0
28.708,2.247,-0.611,0.0
24.651,1.934,-0.665,0.0
21.718,1.708,-0.71,0.0
19.453,1.533,-0.75,0.0
17.663,1.395,-0.782,0.0
16.1,1.275,-0.805,0.0
27.476,2.182,-0.622,0.0
23.976,1.908,-0.68,0.0
21.211,1.691,-0.722,0.0
18.863,1.507,-0.752,0.0
17.175,1.375,-0.784,0.0
15.73,1.263,-0.808,0.0
26.629,2.144,-0.638,0.0
23.224,1.873,-0.69,0.0
20.478,1.655,-0.725,0.0
18.406,1.491,-0.759,0.0
16.725,1.357,-0.786,0.0
15.316,1.245,-0.808,0.0
25.832,2.106,-0.655,0.0
22.539,1.841,-0.7,0.0
19.971,1.634,-0.735,0.0
17.979,1.474,-0.766,0.0
16.472,1.353,-0.797,0.0
15.07,1.241,-0.816,0.0
24.796,2.047,-0.663,0.0
21.895,1.81,-0.71,0.0
19.501,1.615,-0.745,0.0
17.563,1.458,-0.773,0.0
16.046,1.334,-0.799,0.0
14.777,1.231,-0.82,0.0
24.146,2.016,-0.679,0.0
21.359,1.787,-0.723,0.0
19.074,1.598,-0.755,0.0
17.104,1.436,-0.777,0.0
15.746,1.324,-0.806,0.0
14.52,1.223,-0.827,0.0
23.263,1.964,-0.687,0.0
20.649,1.746,-0.728,0.0
18.509,1.568,-0.758,0.0
16.762,1.422,-0.785,0.0
15.481,1.316,-0.814,0.0
14.243,1.212,-0.831,0.0
22.309,1.903,-0.69,1.0
19.955,1.704,-0.731,0.0
18.094,1.548,-0.767,0.0
16.496,1.414,-0.796,0.0
15.083,1.295,-0.814,0.0
13.93,1.198,-0.832,0.0
21.993,1.894,-0.711,1.0
19.513,1.683,-0.743,0.0
17.606,1.521,-0.771,0.0
16.068,1.39,-0.798,0.0
14.788,1.281,-0.819,0.0
13.712,1.19,-0.839,0.0
21.224,1.844,-0.716,0.0
18.874,1.643,-0.745,0.0
17.217,1.501,-0.779,0.0
15.707,1.371,-0.802,0.0
14.474,1.265,-0.822,0.0
13.462,1.179,-0.843,0.0
20.517,1.798,-0.721,0.0
18.507,1.624,-0.757,0.0
16.833,1.479,-0.785,0.0
15.359,1.352,-0.806,0.0
14.181,1.25,-0.826,0.0
13.208,1.166,-0.846,0.0
19.953,1.763,-0.73,0.0
18.102,1.602,-0.766,0.0
16.444,1.457,-0.79,0.0
15.105,1.34,-0.815,0.0
13.886,1.233,-0.829,0.0
13.02,1.158,-0.852,0.0
19.544,1.74,-0.743,0.0
17.625,1.571,-0.771,0.0
16.086,1.435,-0.796,0.0
14.717,1.315,-0.815,0.0
13.737,1.229,-0.84,0.0
12.733,1.141,-0.852,0.0
18.901,1.694,-0.745,0.0
17.153,1.539,-0.775,0.0
15.763,1.416,-0.803,0.0
14.404,1.296,-0.818,0.0
13.486,1.215,-0.844,0.0
12.362,1.115,-0.845,0.0
18.484,1.667,-0.755,0.0
16.83,1.52,-0.785,0.0
15.382,1.39,-0.805,0.0
14.166,1.282,-0.825,0.0
13.296,1.205,-0.851,0.0
12.257,1.112,-0.855,0.0
17.99,1.632,-0.761,0.0
16.388,1.488,-0.787,0.0
15.086,1.371,-0.811,0.0
13.907,1.266,-0.83,0.0
12.955,1.18,-0.848,0.0
12.067,1.101,-0.859,0.0
17.533,1.599,-0.766,0.0
16.128,1.472,-0.798,0.0
14.792,1.352,-0.817,0.0
13.668,1.25,-0.835,0.0
12.769,1.169,-0.854,0.0
11.802,1.082,-0.857,0.0
17.167,1.573,-0.775,0.0
15.738,1.444,-0.801,0.0
14.447,1.326,-0.818,0.0
13.498,1.24,-0.843,0.0
12.44,1.144,-0.849,0.0
11.603,1.068,-0.859,0.0
16.792,1.546,-0.782,0.0
15.389,1.418,-0.805,0.0
14.275,1.316,-0.829,0.0
