X,Y,Z,Reflectivity
95.619,-0.474,4.026,15.0
190.465,-0.942,7.038,32.0
206.925,-1.02,6.56,6.0
119.793,-0.588,3.179,20.0
119.823,-0.586,2.564,29.0
81.189,-0.403,4.009,6.0
95.707,-0.473,4.231,14.0
189.866,-0.935,7.413,92.0
206.979,-1.014,6.992,6.0
0.0,0.0,0.0,0.0
119.805,-0.581,2.811,51.0
77.647,-0.382,3.997,14.0
80.92,-0.396,3.746,14.0
189.795,-0.923,7.805,147.0
190.573,-0.921,6.835,24.0
206.636,-0.993,6.344,9.0
119.795,-0.571,3.058,21.0
77.744,-0.376,4.162,10.0
80.929,-0.389,3.914,4.0
95.644,-0.456,4.132,12.0
190.516,-0.902,7.224,32.0
206.933,-0.971,6.779,9.0
207.704,-0.967,5.735,7.0
78.334,-0.37,4.356,10.0
77.681,-0.363,3.918,9.0
96.106,-0.446,4.35,8.0
189.805,-0.871,7.591,150.0
190.648,-0.867,6.639,14.0
206.354,-0.929,6.12,17.0
60.584,-0.277,3.494,4.0
77.624,-0.35,4.074,22.0
80.791,-0.361,3.822,10.0
95.552,-0.422,4.017,16.0
190.557,-0.831,7.024,31.0
206.748,-0.891,6.554,19.0
60.626,-0.265,3.621,18.0
78.402,-0.338,4.275,8.0
77.682,-0.331,3.833,6.0
103.193,-0.433,4.546,9.0
117.424,-0.486,4.564,8.0
206.814,-0.845,6.972,9.0
60.162,-0.249,3.713,24.0
60.648,-0.247,3.429,11.0
77.692,-0.312,3.989,20.0
96.027,-0.38,4.422,14.0
95.433,-0.371,3.901,14.0
190.603,-0.728,6.808,22.0
60.316,-0.234,3.845,25.0
60.621,-0.231,3.549,5.0
78.021,-0.292,4.163,10.0
103.345,-0.379,4.968,8.0
95.365,-0.343,4.091,7.0
117.385,-0.413,4.426,18.0
60.525,-0.216,3.98,20.0
60.701,-0.213,3.676,17.0
60.877,-0.208,3.369,8.0
81.48,-0.273,4.079,11.0
81.162,-0.265,3.641,10.0
117.329,-0.374,4.656,23.0
60.575,-0.196,4.103,23.0
60.225,-0.19,3.765,19.0
60.688,-0.187,3.478,26.0
77.85,-0.233,4.049,9.0
81.042,-0.236,3.795,10.0
95.301,-0.268,3.968,12.0
60.626,-0.174,4.226,11.0
60.309,-0.168,3.89,25.0
60.544,-0.163,3.59,26.0
60.429,-0.157,3.262,11.0
80.99,-0.203,3.952,10.0
95.296,-0.23,4.155,9.0
50.927,-0.125,3.649,8.0
60.816,-0.144,4.041,35.0
60.401,-0.137,3.699,30.0
60.721,-0.132,3.397,18.0
81.583,-0.169,4.139,9.0
80.762,-0.159,3.677,14.0
45.773,-0.092,3.37,8.0
60.725,-0.116,4.154,21.0
60.478,-0.109,3.821,15.0
60.676,-0.103,3.511,17.0
60.306,-0.096,3.175,17.0
80.705,-0.121,3.829,11.0
45.804,-0.07,3.46,11.0
60.974,-0.087,4.287,8.0
60.507,-0.08,3.938,23.0
60.482,-0.073,3.614,9.0
60.279,-0.066,3.287,24.0
80.531,-0.079,3.972,23.0
41.992,-0.043,3.252,45.0
61.044,-0.056,4.407,9.0
60.518,-0.048,4.052,12.0
60.201,-0.041,3.71,17.0
60.396,-0.034,3.407,14.0
77.933,-0.035,3.989,8.0
41.802,-0.02,3.315,29.0
45.808,-0.016,3.392,28.0
60.522,-0.015,4.164,6.0
60.247,-0.007,3.824,25.0
60.641,0.0,3.531,3.0
77.903,0.009,4.13,24.0
41.55,0.003,3.371,44.0
45.749,0.009,3.472,4.0
50.148,0.017,3.543,1.0
60.524,0.028,3.952,16.0
60.611,0.036,3.641,6.0
60.339,0.044,3.308,7.0
41.502,0.028,3.443,49.0
41.719,0.034,3.242,14.0
61.06,0.058,4.425,4.0
60.613,0.066,4.067,5.0
67.871,0.083,4.199,2.0
81.153,0.11,4.595,7.0
41.495,0.055,3.518,43.0
41.695,0.061,3.315,33.0
47.871,0.077,3.554,8.0
67.84,0.119,4.673,12.0
60.485,0.114,3.849,4.0
67.892,0.137,3.964,3.0
41.544,0.083,3.596,39.0
41.602,0.089,3.381,44.0
41.944,0.096,3.188,13.0
60.88,0.148,4.3,5.0
60.379,0.156,3.947,20.0
67.238,0.183,4.042,11.0
41.451,0.112,3.66,45.0
41.516,0.118,3.446,41.0
41.856,0.126,3.253,35.0
57.077,0.18,4.13,2.0
60.453,0.199,4.056,10.0
60.532,0.209,3.742,7.0
41.375,0.143,3.725,41.0
41.576,0.149,3.522,42.0
41.734,0.156,3.315,35.0
45.76,0.178,3.388,16.0
47.783,0.193,3.286,8.0
60.411,0.254,3.835,10.0
41.505,0.174,3.806,42.0
41.539,0.181,3.589,46.0
41.776,0.189,3.388,39.0
41.909,0.196,3.172,14.0
47.796,0.231,3.366,24.0
66.727,0.333,4.347,8.0
41.581,0.208,3.882,41.0
41.65,0.215,3.667,40.0
41.617,0.221,3.443,49.0
48.346,0.265,3.739,6.0
45.731,0.258,3.295,16.0
60.777,0.353,4.057,20.0
41.518,0.241,3.943,39.0
41.524,0.248,3.723,43.0
41.493,0.255,3.5,44.0
41.911,0.264,3.309,10.0
47.631,0.308,3.507,8.0
60.741,0.403,4.152,16.0
41.482,0.276,4.007,29.0
41.66,0.285,3.801,27.0
41.456,0.29,3.562,42.0
41.783,0.299,3.364,38.0
51.221,0.376,3.852,12.0
67.865,0.51,4.744,6.0
41.711,0.314,4.094,17.0
46.841,0.361,4.347,4.0
41.384,0.326,3.62,42.0
41.587,0.335,3.412,40.0
41.828,0.344,3.209,38.0
67.954,0.571,4.853,12.0
41.412,0.349,4.128,41.0
47.213,0.407,4.454,16.0
41.519,0.365,3.694,37.0
41.503,0.372,3.467,41.0
41.324,0.377,3.232,38.0
44.929,0.419,3.275,3.0
41.31,0.386,4.18,40.0
47.135,0.45,4.516,10.0
41.558,0.404,3.759,16.0
41.583,0.411,3.535,36.0
41.539,0.418,3.31,21.0
48.465,0.497,3.603,5.0
41.258,0.425,4.235,44.0
41.537,0.435,4.04,45.0
41.502,0.442,3.814,27.0
41.483,0.45,3.586,33.0
41.258,0.455,3.346,42.0
41.237,0.462,3.124,41.0
59.457,3.016,2.291,26.0
50.249,2.536,1.649,24.0
48.409,2.431,1.312,12.0
48.147,2.407,1.026,24.0
48.051,2.391,0.75,31.0
120.05,5.946,1.192,17.0
50.718,2.495,1.89,0.0
49.957,2.445,1.576,23.0
48.409,2.358,1.252,16.0
48.238,2.337,0.967,24.0
48.16,2.322,0.691,3.0
120.055,5.759,1.041,13.0
50.58,2.409,1.821,9.0
49.613,2.35,1.504,11.0
48.486,2.285,1.193,20.0
48.323,2.265,0.909,22.0
66.21,3.088,0.869,7.0
66.194,3.07,0.492,14.0
50.546,2.327,1.758,18.0
49.393,2.261,1.436,7.0
48.576,2.211,1.136,22.0
48.43,2.193,0.852,14.0
66.071,2.975,0.787,25.0
66.053,2.957,0.411,18.0
50.542,2.245,1.697,32.0
49.306,2.177,1.375,10.0
48.68,2.136,1.08,22.0
66.052,2.882,1.083,32.0
66.038,2.865,0.708,29.0
66.013,2.846,0.332,17.0
50.533,2.16,1.637,44.0
49.282,2.094,1.316,13.0
48.811,2.061,1.025,19.0
66.126,2.774,1.007,31.0
66.088,2.755,0.631,29.0
65.882,2.729,0.254,13.0
50.498,2.074,1.577,46.0
49.343,2.012,1.26,14.0
61.201,2.48,1.215,6.0
64.525,2.597,0.908,11.0
64.149,2.565,0.539,13.0
65.58,2.604,0.178,21.0
50.487,1.986,1.519,44.0
49.456,1.932,1.207,13.0
120.079,4.658,2.249,20.0
61.53,2.37,0.797,20.0
72.295,2.765,0.526,10.0
65.276,2.479,0.105,13.0
50.477,1.897,1.463,45.0
72.492,2.705,1.689,7.0
72.452,2.683,1.277,21.0
72.404,2.661,0.859,20.0
72.134,2.632,0.447,15.0
64.935,2.351,0.034,5.0
50.478,1.808,1.408,46.0
72.378,2.573,1.609,33.0
72.342,2.55,1.198,33.0
72.348,2.53,0.781,33.0
71.796,2.492,0.369,16.0
60.119,2.069,-0.031,3.0
72.396,2.464,1.944,34.0
72.381,2.442,1.534,34.0
72.38,2.422,1.124,35.0
72.358,2.401,0.707,32.0
71.678,2.358,0.295,13.0
60.715,1.98,-0.093,5.0
72.536,2.337,1.874,8.0
119.963,3.829,2.42,5.0
119.991,3.794,1.741,11.0
72.492,2.272,0.635,10.0
71.311,2.213,0.221,11.0
62.026,1.907,-0.158,3.0
78.949,2.396,1.961,23.0
78.919,2.372,1.513,26.0
78.9,2.347,1.067,24.0
78.835,2.321,0.612,15.0
0.0,0.0,0.0,0.0
57.197,1.65,-0.201,9.0
74.774,2.129,1.785,4.0
78.848,2.221,1.436,33.0
78.872,2.197,0.991,31.0
78.755,2.171,0.537,13.0
66.148,1.803,0.077,6.0
0.0,0.0,0.0,0.0
78.933,2.097,1.81,28.0
78.957,2.072,1.364,18.0
74.334,1.929,0.865,17.0
78.768,2.02,0.464,13.0
66.497,1.684,0.016,4.0
0.0,0.0,0.0,0.0
85.272,2.102,1.879,31.0
85.266,2.075,1.398,30.0
85.238,2.047,0.916,29.0
78.695,1.867,0.394,8.0
67.714,1.585,-0.042,8.0
48.796,1.127,-0.305,1.0
85.241,1.935,1.804,35.0
85.253,1.909,1.324,38.0
85.261,1.881,0.843,31.0
72.079,1.568,0.299,3.0
0.0,0.0,0.0,0.0
48.45,1.024,-0.343,1.0
85.381,1.772,1.736,17.0
85.441,1.748,1.257,4.0
85.488,1.721,0.776,20.0
77.899,1.543,0.26,6.0
0.0,0.0,0.0,0.0
45.635,0.875,-0.36,0.0
87.251,1.64,1.705,39.0
91.902,1.698,1.278,26.0
91.851,1.668,0.761,22.0
77.525,1.383,0.199,3.0
0.0,0.0,0.0,0.0
0.0,0.0,0.0,0.0
91.899,1.545,1.725,37.0
91.937,1.515,1.209,15.0
91.824,1.485,0.692,16.0
75.163,1.191,0.136,1.0
0.0,0.0,0.0,0.0
0.0,0.0,0.0,0.0
98.716,1.461,1.781,24.0
98.64,1.428,1.225,30.0
98.386,1.393,0.67,6.0
77.401,1.07,0.085,1.0
0.0,0.0,0.0,0.0
43.891,0.577,-0.444,0.0
98.548,1.261,1.709,30.0
98.526,1.228,1.156,30.0
85.532,1.037,0.523,4.0
78.982,0.93,0.032,0.0
0.0,0.0,0.0,0.0
41.047,0.456,-0.443,1.0
98.631,1.059,1.644,24.0
98.615,1.027,1.092,24.0
97.87,0.986,0.535,4.0
0.0,0.0,0.0,0.0
52.979,0.498,-0.309,0.0
39.934,0.362,-0.456,0.0
100.096,0.871,1.606,5.0
104.757,0.875,1.094,10.0
90.615,0.726,0.439,4.0
0.0,0.0,0.0,0.0
48.625,0.356,-0.313,0.0
0.0,0.0,0.0,0.0
111.067,0.737,1.716,17.0
111.023,0.699,1.095,13.0
90.992,0.541,0.388,1.0
0.0,0.0,0.0,0.0
48.572,0.255,-0.34,0.0
37.484,0.184,-0.472,0.0
111.206,0.505,1.656,21.0
110.999,0.465,1.032,17.0
94.751,0.366,0.352,2.0
0.0,0.0,0.0,0.0
0.0,0.0,0.0,0.0
37.753,0.106,-0.496,0.0
111.166,0.274,1.598,18.0
111.058,0.235,0.976,10.0
0.0,0.0,0.0,0.0
0.0,0.0,0.0,0.0
45.658,0.048,-0.367,2.0
37.549,0.026,-0.511,0.0
111.069,0.039,1.542,12.0
111.182,0.001,0.923,10.0
95.476,-0.032,0.261,1.0
0.0,0.0,0.0,0.0
45.419,-0.046,-0.386,1.0
0.0,0.0,0.0,0.0
114.674,-0.199,1.541,3.0
114.486,-0.24,0.9,99.0
0.0,0.0,0.0,0.0
0.0,0.0,0.0,0.0
45.116,-0.142,-0.403,1.0
0.0,0.0,0.0,0.0
119.709,-0.46,1.559,16.0
114.313,-0.48,0.853,3.0
95.279,-0.434,0.18,1.0
0.0,0.0,0.0,0.0
0.0,0.0,0.0,0.0
0.0,0.0,0.0,0.0
119.726,-0.713,1.515,18.0
114.024,-0.719,0.809,4.0
82.941,-0.553,0.127,1.0
0.0,0.0,0.0,0.0
45.162,-0.334,-0.437,0.0
34.179,-0.265,-0.52,0.0
119.651,-0.967,1.473,19.0
114.371,-0.967,0.773,8.0
0.0,0.0,0.0,0.0
54.83,-0.502,-0.243,0.0
0.0,0.0,0.0,0.0
0.0,0.0,0.0,0.0
119.76,-1.223,1.439,150.0
119.844,-1.267,0.775,10.0
0.0,0.0,0.0,0.0
0.0,0.0,0.0,0.0
42.538,-0.495,-0.436,0.0
0.0,0.0,0.0,0.0
139.37,-1.717,1.639,4.0
127.516,-1.617,0.792,6.0
0.0,0.0,0.0,0.0
54.446,-0.729,-0.27,0.0
0.0,0.0,0.0,0.0
34.275,-0.484,-0.549,0.0
138.943,-2.005,1.603,15.0
138.817,-2.054,0.833,12.0
0.0,0.0,0.0,0.0
0.0,0.0,0.0,0.0
0.0,0.0,0.0,0.0
33.303,-0.541,-0.54,0.0
139.184,-2.303,1.58,8.0
139.01,-2.352,0.809,8.0
75.42,-1.304,0.021,0.0
0.0,0.0,0.0,0.0
0.0,0.0,0.0,0.0
33.964,-0.625,-0.556,0.0
139.058,-2.601,1.557,7.0
139.029,-2.649,0.789,6.0
0.0,0.0,0.0,0.0
0.0,0.0,0.0,0.0
42.582,-0.858,-0.468,0.0
33.842,-0.694,-0.558,0.0
138.951,-2.893,1.541,10.0
138.869,-2.942,0.773,6.0
0.0,0.0,0.0,0.0
0.0,0.0,0.0,0.0
0.0,0.0,0.0,0.0
0.0,0.0,0.0,0.0
138.875,-3.185,1.53,10.0
138.695,-3.235,0.763,3.0
0.0,0.0,0.0,0.0
0.0,0.0,0.0,0.0
43.544,-1.063,-0.484,0.0
33.88,-0.84,-0.563,0.0
138.856,-3.48,1.525,11.0
138.816,-3.531,0.76,4.0
0.0,0.0,0.0,0.0
0.0,0.0,0.0,0.0
41.232,-1.095,-0.459,0.0
0.0,0.0,0.0,0.0
138.757,-3.771,1.524,12.0
138.469,-3.812,0.759,3.0
0.0,0.0,0.0,0.0
0.0,0.0,0.0,0.0
41.347,-1.185,-0.459,1.0
33.731,-0.979,-0.56,0.0
138.636,-4.059,1.528,9.0
0.0,0.0,0.0,0.0
0.0,0.0,0.0,0.0
52.966,-1.609,-0.294,0.0
41.432,-1.274,-0.457,2.0
0.0,0.0,0.0,0.0
138.646,-4.35,1.539,13.0
0.0,0.0,0.0,0.0
0.0,0.0,0.0,0.0
0.0,0.0,0.0,0.0
41.462,-1.362,-0.454,1.0
0.0,0.0,0.0,0.0
138.584,-4.638,1.554,14.0
138.536,-4.687,0.794,5.0
0.0,0.0,0.0,0.0
0.0,0.0,0.0,0.0
41.521,-1.451,-0.448,0.0
34.091,-1.204,-0.555,0.0
138.53,-4.929,1.575,11.0
138.419,-4.974,0.816,4.0
0.0,0.0,0.0,0.0
0.0,0.0,0.0,0.0
0.0,0.0,0.0,0.0
33.749,-1.263,-0.543,0.0
138.45,-5.212,1.6,5.0
138.475,-5.264,0.842,6.0
0.0,0.0,0.0,0.0
0.0,0.0,0.0,0.0
0.0,0.0,0.0,0.0
0.0,0.0,0.0,0.0
138.455,-5.497,1.631,7.0
138.313,-5.543,0.874,11.0
0.0,0.0,0.0,0.0
0.0,0.0,0.0,0.0
0.0,0.0,0.0,0.0
0.0,0.0,0.0,0.0
138.382,-5.782,1.667,3.0
138.088,-5.819,0.909,13.0
64.16,-2.727,0.072,0.0
0.0,0.0,0.0,0.0
43.118,-1.865,-0.426,0.0
0.0,0.0,0.0,0.0
72.886,-7.95,5.697,9.0
70.179,-7.647,5.107,31.0
70.149,-7.636,4.727,47.0
33.207,-3.611,2.055,1.0
33.202,-3.607,1.877,20.0
33.203,-3.604,1.699,63.0
33.31,-3.622,2.641,28.0
33.319,-3.619,2.462,9.0
69.674,-7.56,4.772,22.0
70.34,-7.625,4.431,9.0
70.011,-7.582,4.034,8.0
33.201,-3.592,1.735,7.0
33.314,-3.61,2.678,50.0
33.319,-3.606,2.498,51.0
33.309,-3.601,2.317,42.0
33.289,-3.595,2.133,8.0
69.979,-7.549,4.108,23.0
70.038,-7.548,3.735,34.0
33.31,-3.595,2.713,53.0
33.314,-3.591,2.534,55.0
33.307,-3.586,2.353,45.0
33.289,-3.58,2.168,42.0
70.047,-7.524,4.186,13.0
69.931,-7.504,3.802,34.0
33.299,-3.579,2.748,53.0
33.308,-3.575,2.568,54.0
33.298,-3.569,2.387,40.0
33.28,-3.563,2.203,49.0
70.257,-7.512,4.271,12.0
70.119,-7.489,3.885,38.0
33.302,-3.562,2.783,51.0
33.3,-3.557,2.602,47.0
33.292,-3.551,2.42,42.0
33.286,-3.546,2.237,50.0
70.169,-7.466,4.336,29.0
70.228,-7.463,3.96,33.0
33.292,-3.543,2.815,50.0
33.285,-3.537,2.634,46.0
33.293,-3.533,2.454,54.0
33.275,-3.526,2.269,48.0
69.138,-7.317,4.34,23.0
70.215,-7.421,4.028,24.0
33.289,-3.524,2.848,54.0
33.287,-3.518,2.666,55.0
33.311,-3.515,2.487,63.0
33.266,-3.505,2.3,49.0
69.168,-7.277,4.409,11.0
69.215,-7.272,4.037,15.0
33.288,-3.503,2.879,54.0
33.284,-3.497,2.698,53.0
33.291,-3.492,2.517,53.0
33.264,-3.483,2.331,49.0
33.272,-3.479,2.151,28.0
69.765,-7.284,4.133,11.0
33.284,-3.481,2.91,54.0
33.282,-3.474,2.728,51.0
33.277,-3.468,2.547,53.0
33.26,-3.46,2.361,49.0
33.273,-3.456,2.181,43.0
70.299,-7.291,4.228,17.0
33.282,-3.457,2.94,54.0
33.281,-3.451,2.758,52.0
33.279,-3.445,2.576,53.0
33.251,-3.436,2.39,48.0
33.266,-3.432,2.21,50.0
69.747,-7.183,4.255,23.0
33.283,-3.433,2.968,53.0
33.267,-3.425,2.785,52.0
33.261,-3.418,2.603,51.0
33.247,-3.41,2.417,49.0
33.261,-3.406,2.237,52.0
69.226,-7.076,4.281,29.0
33.277,-3.407,2.996,53.0
33.266,-3.399,2.813,52.0
33.261,-3.392,2.63,52.0
33.24,-3.384,2.444,49.0
33.254,-3.379,2.264,53.0
69.545,-7.054,4.356,34.0
33.267,-3.379,3.022,53.0
33.265,-3.372,2.84,52.0
33.251,-3.364,2.656,50.0
33.229,-3.355,2.47,48.0
33.258,-3.352,2.29,52.0
69.358,-6.976,4.399,29.0
33.268,-3.352,3.048,52.0
33.258,-3.343,2.865,51.0
33.246,-3.335,2.682,51.0
33.217,-3.325,2.494,49.0
33.243,-3.321,2.315,52.0
69.581,-6.938,4.466,23.0
33.261,-3.321,3.073,54.0
33.241,-3.312,2.888,52.0
33.239,-3.305,2.706,52.0
33.22,-3.295,2.519,51.0
33.234,-3.29,2.338,52.0
69.593,-6.876,4.516,11.0
33.256,-3.291,3.096,54.0
33.243,-3.282,2.912,53.0
33.242,-3.274,2.73,53.0
33.215,-3.264,2.542,52.0
33.223,-3.258,2.361,51.0
33.236,-3.252,2.179,34.0
33.252,-3.259,3.119,53.0
33.236,-3.249,2.934,52.0
33.226,-3.241,2.751,51.0
33.209,-3.232,2.563,52.0
33.222,-3.226,2.382,53.0
33.236,-3.22,2.201,45.0
33.243,-3.226,3.14,54.0
33.234,-3.217,2.956,52.0
33.223,-3.208,2.772,51.0
33.197,-3.198,2.583,52.0
33.217,-3.192,2.403,50.0
33.234,-3.186,2.221,46.0
33.244,-3.192,3.16,53.0
33.226,-3.183,2.975,51.0
33.211,-3.173,2.791,52.0
33.194,-3.164,2.603,53.0
33.207,-3.157,2.421,50.0
33.216,-3.15,2.239,50.0
47.391,-4.502,4.533,5.0
33.216,-3.147,2.993,7.0
33.218,-3.139,2.81,2.0
33.174,-3.127,2.62,2.0
70.043,-6.586,5.146,21.0
33.216,-3.115,2.258,5.0
47.394,-4.451,4.559,19.0
79.652,-7.46,7.223,9.0
74.115,-6.924,6.31,10.0
73.706,-6.867,5.861,8.0
70.284,-6.531,5.201,15.0
70.485,-6.534,4.827,28.0
47.402,-4.4,4.584,17.0
79.771,-7.384,7.273,6.0
73.825,-6.815,6.322,26.0
71.024,-6.538,5.682,12.0
70.316,-6.457,5.237,22.0
70.719,-6.477,4.877,46.0
47.456,-4.352,4.612,10.0
79.9,-7.306,7.322,6.0
71.334,-6.504,6.142,10.0
71.182,-6.473,5.726,9.0
70.423,-6.386,5.276,24.0
70.439,-6.37,4.888,12.0
73.643,-6.668,7.19,17.0
73.478,-6.634,6.765,14.0
74.377,-6.695,6.435,7.0
71.151,-6.387,5.754,9.0
70.738,-6.331,5.329,24.0
70.524,-6.295,4.922,24.0
73.402,-6.559,7.196,26.0
73.503,-6.548,6.796,16.0
73.23,-6.505,6.363,15.0
74.412,-6.591,6.046,12.0
70.742,-6.247,5.355,22.0
70.32,-6.193,4.933,20.0
77.83,-6.862,7.658,7.0
73.534,-6.463,6.825,29.0
71.282,-6.247,6.218,7.0
71.818,-6.274,5.859,12.0
71.072,-6.191,5.403,17.0
69.884,-6.069,4.925,26.0
73.81,-6.417,7.286,13.0
73.517,-6.372,6.846,12.0
71.541,-6.181,6.263,10.0
70.48,-6.07,5.77,35.0
71.201,-6.114,5.434,7.0
70.249,-6.014,4.971,10.0
73.772,-6.322,7.302,8.0
71.053,-6.069,6.636,7.0
71.454,-6.083,6.275,16.0
70.445,-5.978,5.786,30.0
71.044,-6.011,5.439,12.0
74.95,-6.321,5.322,9.0
73.162,-6.176,7.26,6.0
71.154,-5.987,6.662,7.0
72.268,-6.06,6.362,10.0
77.213,-6.454,6.358,4.0
70.961,-5.912,5.448,16.0
74.948,-6.225,5.337,10.0
73.162,-6.082,7.274,16.0
71.104,-5.891,6.671,10.0
79.555,-6.569,7.018,3.0
73.347,-6.036,6.053,8.0
75.526,-6.194,5.811,6.0
70.895,-5.795,5.059,8.0
73.319,-5.998,7.302,15.0
71.922,-5.864,6.758,19.0
70.812,-5.753,6.257,15.0
73.347,-5.938,6.063,18.0
70.944,-5.724,5.468,7.0
70.584,-5.677,5.046,25.0
72.129,-5.805,7.192,26.0
71.006,-5.694,6.68,7.0
70.751,-5.654,6.259,14.0
73.449,-5.848,6.079,10.0
74.715,-5.929,5.765,6.0
70.629,-5.586,5.054,47.0
71.932,-5.691,7.177,31.0
70.886,-5.588,6.674,23.0
70.621,-5.547,6.252,8.0
73.288,-5.736,6.069,24.0
67.994,-5.303,5.249,51.0
67.974,-5.283,4.867,81.0
71.47,-5.557,7.133,14.0
70.841,-5.488,6.671,16.0
67.994,-5.247,6.02,82.0
67.993,-5.228,5.631,41.0
68.019,-5.211,5.251,6.0
76.604,-5.848,5.485,4.0
71.161,-5.434,7.102,9.0
68.028,-5.175,6.405,25.0
71.219,-5.398,6.304,13.0
73.258,-5.531,6.065,31.0
73.853,-5.556,5.699,7.0
0.0,0.0,0.0,0.0
68.04,-5.101,6.787,18.0
71.243,-5.321,6.703,7.0
70.98,-5.28,6.278,8.0
72.998,-5.409,6.038,10.0
78.032,-5.76,6.015,6.0
79.243,-5.828,5.663,5.0
68.047,-5.005,6.781,26.0
73.374,-5.375,6.896,7.0
70.729,-5.161,6.248,14.0
72.288,-5.254,5.97,22.0
74.332,-5.382,5.721,17.0
76.178,-5.494,5.434,14.0
72.136,-5.202,7.178,16.0
78.067,-5.606,7.326,12.0
71.222,-5.094,6.281,21.0
72.507,-5.165,5.977,31.0
72.875,-5.171,5.596,16.0
76.092,-5.378,5.414,6.0
0.0,0.0,0.0,0.0
69.958,-4.923,6.552,17.0
0.0,0.0,0.0,0.0
72.774,-5.078,5.984,14.0
72.047,-5.008,5.517,24.0
76.095,-5.267,5.398,7.0
70.066,-4.849,6.943,47.0
73.254,-5.048,6.843,9.0
69.368,-4.76,6.086,9.0
72.642,-4.964,5.955,13.0
71.958,-4.896,5.492,12.0
71.788,-4.865,5.073,11.0
70.131,-4.75,6.931,40.0
69.721,-4.702,6.493,21.0
64.397,-4.325,5.632,34.0
0.0,0.0,0.0,0.0
0.0,0.0,0.0,0.0
72.025,-4.776,5.068,18.0
64.133,-4.25,6.318,10.0
64.212,-4.236,5.96,19.0
64.243,-4.22,5.597,39.0
0.0,0.0,0.0,0.0
72.01,-4.689,5.45,8.0
71.708,-4.649,5.021,8.0
64.082,-4.151,6.289,25.0
64.115,-4.135,5.927,39.0
64.016,-4.111,5.554,39.0
70.975,-4.537,5.747,22.0
73.144,-4.655,5.507,13.0
71.846,-4.553,5.003,9.0
59.403,-3.76,5.806,35.0
64.083,-4.038,5.898,39.0
63.846,-4.005,5.512,38.0
63.601,-3.971,5.123,36.0
58.742,-3.651,4.398,5.0
58.717,-3.634,4.063,19.0
59.177,-3.658,5.757,34.0
64.017,-3.938,5.863,38.0
63.523,-3.89,5.455,38.0
63.584,-3.876,5.092,33.0
58.75,-3.565,4.371,28.0
58.584,-3.539,4.026,29.0
59.003,-3.56,5.712,34.0
63.929,-3.839,5.823,39.0
63.407,-3.789,5.414,38.0
63.496,-3.776,5.053,30.0
58.765,-3.478,4.342,16.0
58.935,-3.472,4.019,33.0
59.163,-3.48,5.695,34.0
63.8,-3.735,5.777,28.0
63.325,-3.689,5.372,38.0
63.363,-3.673,5.007,38.0
58.682,-3.385,4.303,19.0
59.088,-3.393,3.996,19.0
59.019,-3.384,5.647,34.0
62.866,-3.586,5.656,37.0
63.106,-3.582,5.316,37.0
63.087,-3.563,4.947,38.0
64.577,-3.63,4.696,25.0
58.608,-3.278,3.928,28.0
57.688,-3.221,5.484,34.0
62.494,-3.471,5.582,32.0
63.097,-3.488,5.275,21.0
63.168,-3.474,4.914,31.0
58.748,-3.215,4.235,23.0
58.454,-3.183,3.88,22.0
57.002,-3.097,5.381,31.0
57.047,-3.084,5.058,23.0
58.417,-3.142,4.845,29.0
57.28,-3.064,4.416,21.0
63.795,-3.396,4.554,19.0
58.228,-3.084,3.825,32.0
56.866,-3.005,5.328,31.0
60.255,-3.167,5.299,11.0
58.378,-3.051,4.799,32.0
56.923,-2.96,4.347,31.0
59.991,-3.104,4.239,20.0
58.21,-2.996,3.78,30.0
56.939,-2.923,5.291,31.0
60.155,-3.071,5.245,20.0
58.452,-2.969,4.76,32.0
56.762,-2.868,4.292,31.0
0.0,0.0,0.0,0.0
58.507,-2.925,3.754,32.0
56.871,-2.835,5.24,31.0
56.788,-2.815,4.906,24.0
0.0,0.0,0.0,0.0
56.936,-2.792,4.258,31.0
58.007,-2.829,4.007,31.0
58.499,-2.837,3.706,32.0
56.799,-2.747,5.186,15.0
56.768,-2.73,4.857,20.0
44.113,-2.109,3.52,11.0
56.852,-2.704,4.204,25.0
58.139,-2.75,3.966,24.0
58.16,-2.736,3.634,29.0
47.341,-2.219,4.281,32.0
44.085,-2.055,3.732,25.0
44.131,-2.045,3.482,35.0
0.0,0.0,0.0,0.0
0.0,0.0,0.0,0.0
58.34,-2.658,3.592,24.0
44.33,-2.012,3.968,20.0
44.108,-1.99,3.693,41.0
44.178,-1.982,3.444,39.0
44.432,-1.982,3.204,28.0
58.385,-2.589,3.875,31.0
58.137,-2.564,3.525,21.0
44.213,-1.942,3.914,35.0
44.149,-1.927,3.654,29.0
44.2,-1.918,3.403,34.0
44.309,-1.912,3.152,42.0
57.165,-2.452,3.738,9.0
0.0,0.0,0.0,0.0
44.191,-1.876,3.868,24.0
55.277,-2.333,4.519,7.0
44.195,-1.854,3.358,45.0
44.399,-1.851,3.113,43.0
57.331,-2.376,3.689,31.0
59.694,-2.459,3.498,29.0
44.292,-1.816,3.83,25.0
44.161,-1.8,3.563,35.0
44.154,-1.788,3.308,42.0
44.331,-1.784,3.061,40.0
57.667,-2.307,3.65,32.0
59.697,-2.373,3.434,30.0
44.275,-1.751,3.78,31.0
44.103,-1.733,3.511,41.0
44.172,-1.725,3.26,38.0
44.353,-1.721,3.013,47.0
58.062,-2.239,3.61,23.0
59.595,-2.284,3.362,25.0
44.251,-1.687,3.728,46.0
44.242,-1.676,3.471,38.0
44.14,-1.661,3.208,41.0
0.0,0.0,0.0,0.0
0.0,0.0,0.0,0.0
66.37,-2.45,3.669,25.0
44.053,-1.617,3.66,41.0
44.116,-1.609,3.41,50.0
44.233,-1.602,3.163,18.0
57.461,-2.068,3.771,23.0
59.874,-2.141,3.584,33.0
66.41,-2.359,3.592,28.0
43.991,-1.553,3.602,35.0
44.174,-1.549,3.361,35.0
45.756,-1.594,3.216,31.0
57.582,-1.993,3.709,31.0
65.978,-2.268,3.869,21.0
66.473,-2.27,3.514,27.0
44.132,-1.497,3.559,44.0
44.219,-1.489,3.309,38.0
56.304,-1.884,3.887,10.0
57.155,-1.899,3.61,25.0
66.087,-2.181,3.792,40.0
80.343,-2.634,4.146,14.0
44.353,-1.444,3.52,19.0
44.214,-1.429,3.252,24.0
56.662,-1.819,3.839,13.0
57.027,-1.818,3.528,29.0
65.81,-2.083,3.691,22.0
80.643,-2.534,4.057,54.0
44.632,-1.393,3.484,39.0
46.413,-1.438,3.353,21.0
56.798,-1.747,3.774,22.0
56.885,-1.737,3.445,31.0
66.097,-2.004,3.62,12.0
81.081,-2.44,3.971,32.0
44.703,-1.335,3.428,37.0
46.341,-1.373,3.284,13.0
56.974,-1.676,3.707,30.0
57.024,-1.665,3.374,14.0
85.368,-2.474,4.556,13.0
81.115,-2.333,3.86,35.0
44.894,-1.281,3.38,36.0
45.988,-1.302,3.195,17.0
51.771,-1.455,3.296,17.0
71.462,-1.993,4.128,10.0
81.409,-2.253,4.231,8.0
81.381,-2.236,3.758,17.0
45.021,-1.226,3.325,26.0
57.15,-1.545,3.889,11.0
51.56,-1.382,3.208,22.0
78.515,-2.089,4.423,20.0
74.131,-1.957,3.746,21.0
81.911,-2.146,3.665,12.0
44.811,-1.163,3.244,13.0
51.407,-1.324,3.423,25.0
51.736,-1.321,3.144,25.0
74.15,-1.878,4.067,13.0
74.301,-1.867,3.645,9.0
82.005,-2.043,3.547,13.0
51.492,-1.271,3.65,18.0
51.369,-1.258,3.342,36.0
51.741,-1.256,3.066,10.0
74.173,-1.787,3.957,35.0
80.96,-1.934,3.849,28.0
96.459,-2.284,4.027,14.0
51.624,-1.211,3.581,11.0
51.393,-1.195,3.265,37.0
73.591,-1.696,4.247,10.0
74.555,-1.703,3.862,25.0
81.028,-1.836,3.726,11.0
115.538,-2.595,4.643,8.0
50.495,-1.122,3.422,25.0
61.227,-1.349,3.794,8.0
73.765,-1.611,4.141,23.0
81.789,-1.771,4.107,4.0
95.422,-2.048,4.239,20.0
106.572,-2.268,4.116,15.0
50.814,-1.069,3.363,26.0
61.255,-1.277,3.697,34.0
73.543,-1.519,4.011,20.0
81.391,-1.666,3.957,10.0
95.773,-1.943,4.101,14.0
112.811,-2.269,4.175,13.0
50.641,-1.006,3.269,25.0
61.173,-1.205,3.594,25.0
81.815,-1.595,4.328,20.0
81.678,-1.578,3.838,19.0
106.809,-2.045,4.398,16.0
112.675,-2.136,3.984,23.0
51.542,-0.965,3.242,17.0
61.157,-1.134,3.49,14.0
81.962,-1.506,4.201,15.0
81.696,-1.486,3.703,13.0
106.681,-1.922,4.215,11.0
112.741,-2.011,3.798,21.0
60.897,-1.073,3.728,14.0
61.15,-1.066,3.387,8.0
81.169,-1.401,4.022,17.0
95.464,-1.631,4.165,10.0
106.473,-1.802,4.026,12.0
112.857,-1.891,3.613,5.0
61.096,-1.01,3.636,23.0
81.692,-1.336,4.385,16.0
81.113,-1.313,3.882,25.0
106.477,-1.706,4.464,15.0
190.556,-3.022,6.88,21.0
0.0,0.0,0.0,0.0
61.177,-0.946,3.535,14.0
81.792,-1.252,4.248,13.0
81.226,-1.23,3.745,12.0
112.28,-1.682,4.512,15.0
210.445,-3.118,7.23,10.0
113.262,-1.66,3.233,6.0
60.774,-0.877,3.404,7.0
81.285,-1.16,4.078,10.0
84.966,-1.2,3.768,5.0
106.639,-1.489,4.097,9.0
209.944,-2.899,6.841,8.0
206.374,-2.817,5.522,4.0
60.735,-0.816,3.293,9.0
81.258,-1.079,3.931,10.0
112.084,-1.472,4.77,16.0
190.535,-2.472,6.977,34.0
209.852,-2.69,6.46,8.0
0.0,0.0,0.0,0.0
60.592,-0.755,3.175,8.0
94.995,-1.168,4.421,13.0
189.813,-2.306,7.727,22.0
190.588,-2.288,6.63,8.0
209.236,-2.48,6.057,14.0
210.514,-2.464,4.866,5.0
60.513,-0.696,3.059,6.0
95.54,-1.085,4.271,14.0
190.513,-2.136,7.403,32.0
210.695,-2.331,6.935,13.0
119.714,-1.308,3.244,9.0
119.727,-1.291,2.545,150.0
81.245,-0.859,3.953,19.0
104.416,-1.089,4.47,16.0
190.562,-1.962,7.047,34.0
210.603,-2.139,6.536,10.0
119.724,-1.199,3.016,150.0
119.725,-1.183,2.318,150.0
80.758,-0.782,3.776,9.0
189.796,-1.813,7.766,47.0
190.571,-1.794,6.683,9.0
119.658,-1.111,3.487,15.0
119.749,-1.095,2.79,77.0
119.739,-1.08,2.091,74.0
80.691,-0.712,3.619,7.0
190.473,-1.657,7.429,30.0
214.921,-1.842,7.125,9.0
119.713,-1.01,3.256,109.0
119.742,-0.995,2.56,83.0
119.761,-0.98,1.86,54.0
95.411,-0.764,4.093,22.0
190.544,-1.502,7.063,29.0
205.634,-1.595,6.419,7.0
119.71,-0.914,3.025,11.0
194.174,-1.457,3.77,23.0
119.714,-0.884,1.627,15.0
102.994,-0.743,4.217,6.0
190.501,-1.351,6.685,9.0
119.81,-0.835,3.504,3.0
119.768,-0.821,2.791,24.0
119.822,-0.807,2.093,11.0
119.677,-0.793,1.393,15.0
190.593,-1.23,7.428,25.0
0.0,0.0,0.0,0.0
119.782,-0.746,3.269,11.0
119.756,-0.732,2.556,11.0
119.824,-0.719,1.856,72.0
119.71,-0.705,1.157,18.0
190.496,-1.092,7.047,30.0
206.668,-1.162,6.435,9.0
119.802,-0.66,3.028,44.0
119.776,-0.647,2.316,46.0
119.703,-0.633,1.614,15.0
114.299,-0.593,0.874,7.0
190.685,-0.96,6.668,5.0
0.0,0.0,0.0,0.0
119.82,-0.578,2.787,47.0
119.824,-0.565,2.073,43.0
119.694,-0.552,1.371,16.0
111.022,-0.501,0.624,3.0
206.627,-0.904,6.805,21.0
119.834,-0.512,3.244,18.0
193.642,-0.809,4.112,21.0
119.826,-0.489,1.831,20.0
119.731,-0.477,1.13,15.0
103.097,-0.401,0.372,3.0
70.222,-0.263,2.168,13.0
119.812,-0.438,2.999,69.0
119.835,-0.427,2.298,150.0
115.373,-0.4,1.527,1.0
111.305,-0.376,0.822,8.0
0.0,0.0,0.0,0.0
194.465,-0.616,5.609,21.0
119.822,-0.368,2.753,20.0
119.815,-0.358,2.054,4.0
119.69,-0.347,1.34,12.0
110.565,-0.311,0.59,2.0
0.0,0.0,0.0,0.0
119.832,-0.313,3.209,16.0
119.834,-0.303,2.508,24.0
0.0,0.0,0.0,0.0
114.444,-0.271,1.045,40.0
99.986,-0.229,0.328,1.0
0.0,0.0,0.0,0.0
119.858,-0.251,2.96,8.0
115.557,-0.233,2.177,2.0
119.906,-0.232,1.556,2.0
110.864,-0.206,0.778,14.0
0.0,0.0,0.0,0.0
0.0,0.0,0.0,0.0
117.465,-0.19,2.654,7.0
114.753,-0.177,1.92,9.0
117.413,-0.172,1.277,18.0
103.179,-0.144,0.509,1.0
0.0,0.0,0.0,0.0
0.0,0.0,0.0,0.0
114.922,-0.134,2.355,5.0
111.108,-0.122,1.624,7.0
117.181,-0.121,1.028,7.0
95.311,-0.092,0.27,2.0
0.0,0.0,0.0,0.0
45.14,-0.037,-0.401,1.0
114.465,-0.087,2.102,8.0
111.133,-0.077,1.391,11.0
110.744,-0.07,0.737,10.0
0.0,0.0,0.0,0.0
0.0,0.0,0.0,0.0
40.643,-0.018,-0.446,0.0
111.167,-0.043,1.808,6.0
111.226,-0.037,1.158,8.0
97.172,-0.027,0.443,1.0
0.0,0.0,0.0,0.0
45.767,-0.007,-0.331,0.0
0.0,0.0,0.0,0.0
111.074,-0.006,1.57,11.0
110.973,0.0,0.92,8.0
0.0,0.0,0.0,0.0
0.0,0.0,0.0,0.0
45.137,0.006,-0.422,2.0
35.65,0.006,-0.542,0.0
111.189,0.026,1.336,17.0
104.231,0.029,0.641,5.0
0.0,0.0,0.0,0.0
40.414,0.015,-0.227,0.0
0.0,0.0,0.0,0.0
32.475,0.015,-0.563,0.0
111.182,0.055,1.098,13.0
95.545,0.051,0.383,1.0
0.0,0.0,0.0,0.0
45.851,0.028,-0.356,1.0
37.678,0.024,-0.514,0.0
30.409,0.021,-0.592,0.0
110.705,0.079,0.857,9.0
0.0,0.0,0.0,0.0
0.0,0.0,0.0,0.0
42.84,0.035,-0.424,1.0
0.0,0.0,0.0,0.0
28.69,0.025,-0.621,0.0
102.909,0.093,0.575,3.0
0.0,0.0,0.0,0.0
0.0,0.0,0.0,0.0
0.0,0.0,0.0,0.0
31.963,0.032,-0.572,0.0
26.896,0.028,-0.639,0.0
0.0,0.0,0.0,0.0
0.0,0.0,0.0,0.0
45.432,0.05,-0.375,1.0
35.872,0.04,-0.51,0.0
30.289,0.034,-0.608,0.0
25.612,0.03,-0.664,0.0
0.0,0.0,0.0,0.0
0.0,0.0,0.0,0.0
42.796,0.051,-0.445,1.0
33.14,0.04,-0.542,0.0
27.961,0.034,-0.621,0.0
0.0,0.0,0.0,0.0
0.0,0.0,0.0,0.0
49.999,0.062,-0.334,0.0
0.0,0.0,0.0,0.0
0.0,0.0,0.0,0.0
26.403,0.034,-0.642,0.0
22.931,0.029,-0.692,0.0
0.0,0.0,0.0,0.0
42.894,0.054,-0.377,0.0
35.85,0.046,-0.525,0.0
0.0,0.0,0.0,0.0
0.0,0.0,0.0,0.0
0.0,0.0,0.0,0.0
0.0,0.0,0.0,0.0
42.834,0.054,-0.469,0.0
32.84,0.041,-0.551,0.0
27.799,0.035,-0.632,0.0
23.901,0.03,-0.684,0.0
20.905,0.026,-0.721,0.0
45.722,0.056,-0.33,0.0
37.544,0.046,-0.491,0.0
30.57,0.037,-0.579,0.0
0.0,0.0,0.0,0.0
22.752,0.027,-0.699,0.0
19.991,0.024,-0.732,0.0
42.88,0.049,-0.4,1.0
0.0,0.0,0.0,0.0
28.945,0.032,-0.609,0.0
24.867,0.028,-0.671,0.0
21.401,0.023,-0.703,0.0
19.299,0.021,-0.747,0.0
39.942,0.041,-0.457,0.0
32.172,0.032,-0.556,0.0
27.213,0.027,-0.63,0.0
23.267,0.023,-0.677,0.0
20.86,0.02,-0.729,0.0
18.506,0.018,-0.755,0.0
0.0,0.0,0.0,0.0
30.753,0.026,-0.596,0.0
25.574,0.021,-0.645,0.0
22.482,0.018,-0.701,0.0
19.829,0.016,-0.735,0.0
17.904,0.014,-0.768,0.0
33.76,0.023,-0.528,0.0
28.733,0.019,-0.618,0.0
24.544,0.015,-0.671,0.0
21.341,0.013,-0.711,0.0
19.007,0.011,-0.745,0.0
17.36,0.009,-0.782,0.0
31.55,0.014,-0.56,0.0
26.874,0.011,-0.634,0.0
23.097,0.009,-0.68,0.0
20.561,0.007,-0.728,0.0
18.417,0.006,-0.76,0.0
16.712,0.005,-0.787,0.0
0.0,0.0,0.0,0.0
25.266,0.004,-0.649,0.0
22.253,0.003,-0.702,0.0
19.651,0.002,-0.737,0.0
17.684,0.001,-0.766,0.0
16.237,0.0,-0.799,0.0
0.0,0.0,0.0,0.0
24.111,-0.003,-0.669,0.0
21.236,-0.003,-0.713,0.0
18.899,-0.004,-0.747,0.0
17.129,-0.004,-0.778,0.0
15.641,-0.004,-0.802,0.0
26.661,-0.011,-0.639,0.0
22.889,-0.01,-0.682,0.0
20.338,-0.01,-0.725,0.0
18.276,-0.01,-0.761,0.0
16.699,-0.01,-0.793,0.0
15.2,-0.009,-0.811,0.0
24.803,-0.019,-0.645,0.0
21.897,-0.018,-0.697,0.0
19.594,-0.017,-0.739,0.0
17.68,-0.016,-0.772,1.0
16.065,-0.016,-0.795,0.0
14.71,-0.015,-0.814,0.0
23.862,-0.028,-0.669,0.0
21.003,-0.026,-0.711,0.0
18.729,-0.024,-0.744,0.0
17.049,-0.023,-0.779,0.0
15.491,-0.022,-0.798,0.0
14.375,-0.021,-0.825,0.0
0.0,0.0,0.0,0.0
20.34,-0.034,-0.73,0.0
18.071,-0.032,-0.754,0.0
16.542,-0.03,-0.789,0.0
15.108,-0.028,-0.809,0.0
13.987,-0.027,-0.831,0.0
21.769,-0.046,-0.697,0.0
19.398,-0.042,-0.735,0.0
17.652,-0.039,-0.772,0.0
16.075,-0.037,-0.799,0.0
14.726,-0.035,-0.818,0.0
13.602,-0.033,-0.835,0.0
20.936,-0.055,-0.712,0.0
18.722,-0.05,-0.746,0.0
17.063,-0.047,-0.78,0.0
15.47,-0.044,-0.799,0.0
14.334,-0.041,-0.824,0.0
13.338,-0.039,-0.845,0.0
20.274,-0.064,-0.729,0.0
18.16,-0.059,-0.759,0.0
16.586,-0.055,-0.79,0.0
15.099,-0.051,-0.809,0.0
13.918,-0.048,-0.827,0.0
12.978,-0.046,-0.847,0.0
19.469,-0.073,-0.737,0.0
17.583,-0.067,-0.768,0.0
15.945,-0.062,-0.79,0.0
14.669,-0.058,-0.814,0.0
13.638,-0.055,-0.837,0.0
12.594,-0.052,-0.846,0.0
18.632,-0.081,-0.741,0.0
17.015,-0.075,-0.776,0.0
15.501,-0.07,-0.798,0.0
14.391,-0.066,-0.826,0.0
13.239,-0.062,-0.838,0.0
12.28,-0.059,-0.849,0.0
18.078,-0.09,-0.753,0.0
16.592,-0.084,-0.788,0.0
15.148,-0.078,-0.808,0.0
13.966,-0.073,-0.828,0.0
12.907,-0.069,-0.841,0.0
11.946,-0.065,-0.848,0.0
17.577,-0.1,-0.765,0.0
16.035,-0.092,-0.792,0.0
14.689,-0.086,-0.811,0.0
13.661,-0.081,-0.835,0.0
12.597,-0.076,-0.844,0.0
11.652,-0.071,-0.849,0.0
17.01,-0.108,-0.772,0.0
15.613,-0.101,-0.799,0.0
14.392,-0.094,-0.821,0.0
13.37,-0.089,-0.842,0.0
12.282,-0.083,-0.845,0.0
11.45,-0.079,-0.855,0.0
16.642,-0.118,-0.785,0.0
15.11,-0.109,-0.801,0.0
14.08,-0.103,-0.829,0.0
12.979,-0.096,-0.841,0.0
12.021,-0.09,-0.849,0.0
11.228,-0.086,-0.859,0.0
16.163,-0.127,-0.791,0.0
14.841,-0.118,-0.813,0.0
13.689,-0.111,-0.83,0.0
12.628,-0.103,-0.841,0.0
11.695,-0.097,-0.847,0.0
11.025,-0.093,-0.863,0.0
15.621,-0.135,-0.792,0.0
14.445,-0.127,-0.817,0.0
13.424,-0.119,-0.837,0.0
12.357,-0.111,-0.844,0.0
11.482,-0.105,-0.852,0.0
10.877,-0.1,-0.871,0.0
15.217,-0.144,-0.799,0.0
14.181,-0.136,-0.827,0.0
13.146,-0.128,-0.843,0.0
12.068,-0.119,-0.846,0.0
11.273,-0.112,-0.856,0.0
10.658,-0.108,-0.872,0.0
14.966,-0.155,-0.811,0.0
13.744,-0.144,-0.825,0.0
12.815,-0.136,-0.844,0.0
11.776,-0.126,-0.845,0.0
11.104,-0.12,-0.862,0.0
10.504,-0.115,-0.877,0.0
14.596,-0.164,-0.815,0.0
13.466,-0.153,-0.831,0.0
12.505,-0.144,-0.844,0.0
11.569,-0.134,-0.85,0.0
10.966,-0.129,-0.87,0.0
10.334,-0.123,-0.88,0.0
14.334,-0.174,-0.825,0.0
13.243,-0.163,-0.839,0.0
12.246,-0.152,-0.847,0.0
11.402,-0.143,-0.856,0.0
10.736,-0.136,-0.869,0.0
10.206,-0.131,-0.886,0.0
13.975,-0.183,-0.827,0.0
12.982,-0.172,-0.843,0.0
11.93,-0.159,-0.844,0.0
11.182,-0.151,-0.858,0.0
10.586,-0.144,-0.874,0.0
10.046,-0.138,-0.888,0.0
13.679,-0.192,-0.831,0.0
12.661,-0.18,-0.842,0.0
11.699,-0.168,-0.846,0.0
11.031,-0.16,-0.864,0.0
10.427,-0.152,-0.877,0.0
9.901,-0.146,-0.891,0.0
13.398,-0.201,-0.834,0.0
12.374,-0.188,-0.843,0.0
11.515,-0.176,-0.851,0.0
10.895,-0.169,-0.87,0.0
10.287,-0.161,-0.881,0.0
9.758,-0.154,-0.893,0.0
13.137,-0.211,-0.838,0.0
12.159,-0.197,-0.846,0.0
11.341,-0.186,-0.855,0.0
10.733,-0.177,-0.873,0.0
10.182,-0.17,-0.888,0.0
9.679,-0.163,-0.901,0.0
12.97,-0.222,-0.847,0.0
11.902,-0.205,-0.846,0.0
11.134,-0.194,-0.856,0.0
10.55,-0.185,-0.874,0.0
10.009,-0.177,-0.888,0.0
9.526,-0.17,-0.9,0.0
12.593,-0.228,-0.841,0.0
11.677,-0.214,-0.847,0.0
11.025,-0.204,-0.864,0.0
10.402,-0.194,-0.877,0.0
9.917,-0.186,-0.894,0.0
9.424,-0.179,-0.904,0.0
12.383,-0.238,-0.844,0.0
11.504,-0.223,-0.851,0.0
10.878,-0.213,-0.868,0.0
10.296,-0.203,-0.882,0.0
9.795,-0.195,-0.897,0.0
9.279,-0.186,-0.904,0.0
12.165,-0.247,-0.846,0.0
11.366,-0.233,-0.857,0.0
10.736,-0.222,-0.871,0.0
10.153,-0.212,-0.884,0.0
9.682,-0.204,-0.9,0.0
9.166,-0.194,-0.905,0.0
11.934,-0.256,-0.846,0.0
11.189,-0.242,-0.858,0.0
10.542,-0.23,-0.87,0.0
10.05,-0.221,-0.889,0.0
9.566,-0.212,-0.901,0.0
9.073,-0.203,-0.908,0.0
11.73,-0.265,-0.847,0.0
11.052,-0.252,-0.862,0.0
10.458,-0.24,-0.876,0.0
9.899,-0.229,-0.888,0.0
9.467,-0.221,-0.904,0.0
9.028,-0.212,-0.915,0.0
11.577,-0.275,-0.851,0.0
10.946,-0.262,-0.868,0.0
10.341,-0.249,-0.88,0.0
9.821,-0.239,-0.893,0.0
9.316,-0.228,-0.902,0.0
8.943,-0.221,-0.917,0.0
11.409,-0.284,-0.852,0.0
10.809,-0.271,-0.87,0.0
10.26,-0.26,-0.885,0.0
9.742,-0.248,-0.898,0.0
9.25,-0.238,-0.906,0.0
8.795,-0.228,-0.913,0.0
11.281,-0.295,-0.856,0.0
10.64,-0.28,-0.869,0.0
10.115,-0.268,-0.885,0.0
9.63,-0.257,-0.899,0.0
9.143,-0.246,-0.907,0.0
8.682,-0.235,-0.911,0.0
11.156,-0.305,-0.859,0.0
10.539,-0.29,-0.873,0.0
9.992,-0.277,-0.885,0.0
9.52,-0.266,-0.9,0.0
9.094,-0.256,-0.912,0.0
8.64,-0.245,-0.917,0.0
11.069,-0.316,-0.865,0.0
10.444,-0.3,-0.876,0.0
9.903,-0.287,-0.888,0.0
9.46,-0.276,-0.904,0.0
9.013,-0.264,-0.914,0.0
8.581,-0.254,-0.92,0.0
10.931,-0.326,-0.866,0.0
10.35,-0.31,-0.88,0.0
9.812,-0.296,-0.891,0.0
9.338,-0.284,-0.902,0.0
8.902,-0.272,-0.912,0.0
8.52,-0.263,-0.922,0.0
10.833,-0.336,-0.869,0.0
10.292,-0.321,-0.885,0.0
9.757,-0.307,-0.895,0.0
9.259,-0.293,-0.904,0.0
8.875,-0.283,-0.918,0.0
8.417,-0.27,-0.92,0.0
10.727,-0.346,-0.871,0.0
10.19,-0.331,-0.886,0.0
9.694,-0.317,-0.899,0.0
9.163,-0.302,-0.904,0.0
8.783,-0.291,-0.917,0.0
8.375,-0.279,-0.923,0.0
10.617,-0.356,-0.872,0.0
10.086,-0.341,-0.887,0.0
9.611,-0.327,-0.9,0.0
9.161,-0.313,-0.912,0.0
8.735,-0.301,-0.92,0.0
8.346,-0.289,-0.927,0.0
10.524,-0.367,-0.874,0.0
9.982,-0.35,-0.887,0.0
9.526,-0.336,-0.901,0.0
9.068,-0.322,-0.911,0.0
8.646,-0.309,-0.918,0.0
8.276,-0.297,-0.927,0.0
10.461,-0.378,-0.878,0.0
9.907,-0.36,-0.888,0.0
9.519,-0.348,-0.908,0.0
8.965,-0.33,-0.908,0.0
8.567,-0.317,-0.917,0.0
8.232,-0.307,-0.929,0.0
10.368,-0.388,-0.879,0.0
9.838,-0.37,-0.89,0.0
9.381,-0.355,-0.903,0.0
8.987,-0.342,-0.917,0.0
8.558,-0.328,-0.923,0.0
8.163,-0.315,-0.927,0.0
10.291,-0.398,-0.88,0.0
9.788,-0.381,-0.893,0.0
9.335,-0.366,-0.905,0.0
8.853,-0.349,-0.91,0.0
8.517,-0.337,-0.925,0.0
8.126,-0.324,-0.929,0.0
10.227,-0.409,-0.882,0.0
9.75,-0.392,-0.897,0.0
9.28,-0.375,-0.907,0.0
8.818,-0.359,-0.913,0.0
8.442,-0.346,-0.923,0.0
8.115,-0.334,-0.934,0.0
10.19,-0.421,-0.886,0.0
9.687,-0.403,-0.897,0.0
9.182,-0.384,-0.903,0.0
8.763,-0.368,-0.913,0.0
8.402,-0.355,-0.924,0.0
8.056,-0.342,-0.932,0.0
10.114,-0.431,-0.886,0.0
9.689,-0.415,-0.904,0.0
9.141,-0.394,-0.905,0.0
8.678,-0.376,-0.91,0.0
8.352,-0.364,-0.924,0.0
8.01,-0.351,-0.932,0.0
10.057,-0.442,-0.887,0.0
9.575,-0.423,-0.899,0.0
9.109,-0.405,-0.907,0.0
8.682,-0.388,-0.915,0.0
8.292,-0.372,-0.922,0.0
7.969,-0.36,-0.932,0.0
9.991,-0.452,-0.886,0.0
9.523,-0.433,-0.899,0.0
9.081,-0.415,-0.909,0.0
8.685,-0.399,-0.92,0.0
8.314,-0.384,-0.928,0.0
7.937,-0.369,-0.932,0.0
9.949,-0.464,-0.888,0.0
9.483,-0.444,-0.9,0.0
9.046,-0.426,-0.91,0.0
8.61,-0.407,-0.916,0.0
8.259,-0.393,-0.926,0.0
7.925,-0.379,-0.934,0.0
9.896,-0.474,-0.888,0.0
9.417,-0.454,-0.898,0.0
9.068,-0.439,-0.916,0.0
8.579,-0.418,-0.917,0.0
8.245,-0.403,-0.928,0.0
7.874,-0.387,-0.932,0.0
9.875,-0.486,-0.89,0.0
9.454,-0.468,-0.906,0.0
8.982,-0.447,-0.911,0.0
8.602,-0.43,-0.923,0.0
8.2,-0.412,-0.926,0.0
7.886,-0.398,-0.936,0.0
9.848,-0.498,-0.891,0.0
9.46,-0.481,-0.91,0.0
8.95,-0.457,-0.911,0.0
8.536,-0.438,-0.919,0.0
8.225,-0.424,-0.932,0.0
7.848,-0.407,-0.934,0.0
9.818,-0.509,-0.892,0.0
9.341,-0.487,-0.901,0.0
8.922,-0.467,-0.911,0.0
8.492,-0.447,-0.917,0.0
8.202,-0.434,-0.932,0.0
7.851,-0.417,-0.937,0.0
9.785,-0.521,-0.891,0.0
9.375,-0.501,-0.907,0.0
8.96,-0.481,-0.918,0.0
0.0,0.0,0.0,0.0
8.166,-0.443,-0.93,0.0
7.819,-0.426,-0.935,0.0
9.773,-0.533,-0.893,0.0
9.333,-0.511,-0.905,0.0
8.873,-0.488,-0.911,0.0
8.492,-0.469,-0.921,0.0
8.154,-0.452,-0.93,0.0
7.782,-0.434,-0.932,0.0
9.751,-0.544,-0.893,0.0
9.344,-0.523,-0.908,0.0
8.895,-0.501,-0.915,0.0
0.0,0.0,0.0,0.0
8.126,-0.461,-0.929,0.0
7.801,-0.445,-0.936,0.0
9.758,-0.557,-0.895,0.0
9.319,-0.534,-0.907,0.0
8.867,-0.51,-0.913,0.0
0.0,0.0,0.0,0.0
8.155,-0.473,-0.933,0.0
7.786,-0.454,-0.935,0.0
9.753,-0.569,-0.895,0.0
9.288,-0.544,-0.905,0.0
8.889,-0.523,-0.916,0.0
8.551,-0.505,-0.93,0.0
8.109,-0.481,-0.928,0.0
7.785,-0.464,-0.935,0.0
9.758,-0.581,-0.896,0.0
9.326,-0.558,-0.909,0.0
8.889,-0.534,-0.916,0.0
8.474,-0.511,-0.922,0.0
8.12,-0.492,-0.93,0.0
7.809,-0.475,-0.938,0.0
9.744,-0.593,-0.895,0.0
9.318,-0.569,-0.908,0.0
8.875,-0.544,-0.915,0.0
8.408,-0.518,-0.915,0.0
8.103,-0.501,-0.928,0.0
7.822,-0.486,-0.94,0.0
9.735,-0.605,-0.894,0.0
9.284,-0.579,-0.905,0.0
8.888,-0.556,-0.916,0.0
8.513,-0.535,-0.926,0.0
8.096,-0.511,-0.926,0.0
7.776,-0.492,-0.934,0.0
9.774,-0.619,-0.897,0.0
9.32,-0.592,-0.907,0.0
8.871,-0.566,-0.913,0.0
8.455,-0.541,-0.919,0.0
8.105,-0.521,-0.927,0.0
7.829,-0.505,-0.939,0.0
9.768,-0.63,-0.895,0.0
9.319,-0.604,-0.906,0.0
8.886,-0.578,-0.914,0.0
0.0,0.0,0.0,0.0
8.145,-0.534,-0.93,0.0
7.83,-0.515,-0.938,0.0
9.784,-0.643,-0.895,0.0
9.274,-0.612,-0.9,0.0
8.94,-0.592,-0.918,0.0
8.542,-0.568,-0.926,0.0
8.147,-0.543,-0.929,0.0
7.84,-0.525,-0.938,0.0
9.799,-0.656,-0.894,0.0
9.348,-0.628,-0.905,0.0
8.928,-0.602,-0.915,0.0
0.0,0.0,0.0,0.0
8.199,-0.556,-0.933,0.0
7.844,-0.534,-0.936,0.0
9.826,-0.669,-0.895,0.0
9.397,-0.642,-0.908,0.0
8.939,-0.613,-0.913,0.0
0.0,0.0,0.0,0.0
8.178,-0.564,-0.928,0.0
7.882,-0.546,-0.939,0.0
9.845,-0.681,-0.894,0.0
9.405,-0.653,-0.906,0.0
8.965,-0.625,-0.913,0.0
0.0,0.0,0.0,0.0
8.185,-0.574,-0.926,0.0
7.863,-0.554,-0.934,0.0
9.85,-0.693,-0.891,0.0
9.492,-0.67,-0.911,0.0
9.01,-0.638,-0.915,0.0
8.605,-0.611,-0.923,0.0
8.237,-0.587,-0.929,0.0
7.943,-0.568,-0.94,0.0
9.903,-0.708,-0.892,0.0
9.5,-0.681,-0.908,0.0
9.021,-0.648,-0.913,0.0
0.0,0.0,0.0,0.0
8.29,-0.6,-0.932,0.0
7.921,-0.575,-0.935,0.0
9.973,-0.723,-0.894,0.0
9.486,-0.69,-0.903,0.0
9.039,-0.659,-0.911,0.0
0.0,0.0,0.0,0.0
8.266,-0.607,-0.925,0.0
7.958,-0.586,-0.935,0.0
9.989,-0.735,-0.891,0.0
9.542,-0.704,-0.904,0.0
9.075,-0.672,-0.91,0.0
0.0,0.0,0.0,0.0
8.314,-0.619,-0.927,0.0
8.019,-0.599,-0.939,0.0
10.02,-0.748,-0.889,0.0
9.576,-0.717,-0.902,0.0
9.199,-0.69,-0.918,0.0
8.728,-0.657,-0.92,0.0
8.358,-0.631,-0.927,0.0
8.003,-0.606,-0.932,0.0
10.105,-0.764,-0.891,0.0
9.629,-0.73,-0.902,0.0
9.158,-0.696,-0.909,0.0
8.789,-0.67,-0.922,0.0
8.364,-0.64,-0.923,0.0
8.063,-0.619,-0.935,0.0
10.171,-0.779,-0.891,0.0
9.694,-0.745,-0.903,0.0
9.253,-0.713,-0.913,0.0
0.0,0.0,0.0,0.0
8.448,-0.654,-0.928,0.0
8.085,-0.628,-0.933,0.0
10.217,-0.793,-0.889,0.0
9.723,-0.756,-0.9,0.0
9.281,-0.724,-0.91,0.0
8.85,-0.692,-0.917,0.0
8.449,-0.663,-0.922,0.0
8.143,-0.64,-0.934,0.0
10.274,-0.807,-0.887,0.0
9.757,-0.768,-0.896,0.0
9.316,-0.735,-0.907,0.0
8.931,-0.707,-0.92,0.0
8.483,-0.673,-0.92,0.0
8.157,-0.649,-0.93,0.0
10.354,-0.822,-0.887,0.0
9.821,-0.782,-0.895,0.0
9.369,-0.748,-0.906,0.0
8.93,-0.715,-0.913,0.0
8.581,-0.688,-0.925,0.0
8.247,-0.663,-0.934,0.0
10.417,-0.836,-0.885,0.0
9.877,-0.795,-0.893,0.0
9.438,-0.761,-0.905,0.0
9.031,-0.73,-0.917,0.0
8.633,-0.7,-0.924,0.0
8.255,-0.671,-0.929,0.0
10.499,-0.852,-0.884,0.0
9.954,-0.809,-0.893,0.0
9.5,-0.774,-0.904,0.0
9.055,-0.74,-0.912,0.0
8.675,-0.71,-0.922,0.0
8.302,-0.682,-0.928,0.0
10.575,-0.867,-0.883,0.0
10.059,-0.826,-0.894,0.0
9.602,-0.79,-0.906,0.0
9.102,-0.751,-0.91,0.0
8.681,-0.718,-0.915,0.0
8.339,-0.691,-0.925,0.0
10.693,-0.885,-0.884,0.0
10.147,-0.841,-0.894,0.0
9.658,-0.803,-0.903,0.0
9.261,-0.771,-0.918,0.0
8.831,-0.737,-0.923,0.0
8.42,-0.704,-0.927,0.0
10.804,-0.902,-0.883,0.0
10.221,-0.855,-0.891,0.0
9.722,-0.815,-0.901,0.0
9.254,-0.777,-0.909,0.0
8.861,-0.746,-0.919,0.0
8.467,-0.714,-0.924,0.0
10.892,-0.917,-0.881,0.0
10.315,-0.87,-0.89,0.0
9.79,-0.828,-0.898,0.0
9.357,-0.793,-0.91,0.0
8.972,-0.762,-0.922,0.0
8.539,-0.726,-0.924,0.0
11.006,-0.934,-0.88,0.0
10.397,-0.884,-0.888,0.0
9.883,-0.842,-0.898,0.0
9.448,-0.807,-0.911,0.0
9.01,-0.771,-0.917,0.0
8.596,-0.737,-0.922,0.0
11.098,-0.949,-0.877,0.0
10.517,-0.901,-0.888,0.0
9.988,-0.858,-0.897,0.0
9.501,-0.817,-0.906,0.0
9.092,-0.784,-0.917,0.0
8.728,-0.754,-0.928,0.0
11.216,-0.966,-0.875,0.0
10.633,-0.918,-0.887,0.0
10.081,-0.872,-0.896,0.0
9.602,-0.832,-0.906,0.0
9.173,-0.796,-0.916,0.0
8.804,-0.765,-0.927,0.0
11.333,-0.983,-0.873,0.0
10.77,-0.936,-0.888,0.0
10.181,-0.886,-0.894,0.0
9.67,-0.843,-0.903,0.0
9.24,-0.807,-0.913,0.0
8.855,-0.775,-0.923,0.0
11.471,-1.001,-0.872,0.0
10.858,-0.949,-0.884,0.0
10.268,-0.899,-0.891,0.0
9.74,-0.854,-0.899,0.0
9.331,-0.82,-0.912,0.0
8.91,-0.784,-0.919,0.0
11.588,-1.017,-0.869,0.0
10.986,-0.966,-0.882,0.0
10.393,-0.915,-0.891,0.0
9.857,-0.869,-0.899,0.0
9.4,-0.83,-0.908,0.0
9.001,-0.796,-0.918,0.0
11.717,-1.034,-0.865,0.0
11.112,-0.982,-0.88,0.0
10.516,-0.931,-0.89,0.0
9.989,-0.885,-0.9,0.0
9.526,-0.846,-0.91,0.0
9.086,-0.808,-0.917,0.0
11.837,-1.05,-0.861,0.0
11.241,-0.998,-0.878,0.0
10.658,-0.948,-0.89,0.0
10.081,-0.898,-0.897,0.0
9.628,-0.859,-0.908,0.0
9.174,-0.819,-0.915,0.0
12.152,-1.083,-0.87,0.0
11.389,-1.016,-0.876,0.0
10.794,-0.964,-0.888,0.0
10.217,-0.914,-0.897,0.0
9.712,-0.87,-0.905,0.0
9.275,-0.832,-0.914,0.0
12.206,-1.092,-0.859,0.0
11.52,-1.032,-0.873,0.0
10.911,-0.978,-0.885,0.0
10.317,-0.926,-0.893,0.0
9.829,-0.883,-0.904,0.0
9.362,-0.842,-0.912,0.0
12.4,-1.113,-0.858,0.0
11.683,-1.05,-0.871,0.0
11.066,-0.996,-0.884,0.0
10.451,-0.941,-0.892,0.0
9.921,-0.895,-0.9,0.0
9.461,-0.854,-0.91,0.0
12.583,-1.133,-0.856,0.0
11.822,-1.066,-0.867,0.0
11.225,-1.013,-0.883,0.0
10.584,-0.956,-0.89,0.0
10.066,-0.91,-0.901,0.0
9.576,-0.867,-0.909,0.0
12.884,-1.164,-0.86,0.0
12.021,-1.086,-0.866,0.0
11.343,-1.026,-0.878,0.0
10.747,-0.973,-0.891,0.0
10.201,-0.924,-0.9,0.0
9.71,-0.881,-0.909,0.0
13.015,-1.178,-0.852,0.0
12.131,-1.099,-0.859,0.0
11.474,-1.04,-0.874,0.0
10.888,-0.987,-0.888,0.0
10.3,-0.935,-0.896,0.0
9.799,-0.89,-0.905,0.0
13.224,-1.199,-0.849,0.0
12.364,-1.122,-0.86,0.0
11.711,-1.063,-0.877,0.0
11.012,-1.0,-0.884,0.0
10.438,-0.949,-0.894,0.0
9.916,-0.902,-0.902,0.0
13.363,-1.213,-0.841,0.0
12.506,-1.136,-0.853,0.0
11.83,-1.075,-0.87,0.0
11.222,-1.02,-0.886,0.0
10.578,-0.962,-0.892,0.0
10.032,-0.913,-0.9,0.0
13.679,-1.243,-0.843,0.0
12.787,-1.162,-0.856,0.0
11.966,-1.088,-0.864,0.0
11.318,-1.029,-0.879,0.0
10.729,-0.976,-0.891,0.0
10.197,-0.928,-0.901,0.0
13.926,-1.265,-0.839,0.0
13.06,-1.187,-0.856,0.0
12.204,-1.11,-0.865,0.0
11.46,-1.042,-0.875,0.0
10.898,-0.992,-0.89,0.0
10.313,-0.939,-0.897,0.0
14.13,-1.284,-0.833,0.0
13.163,-1.196,-0.845,0.0
12.362,-1.124,-0.86,0.0
11.7,-1.064,-0.877,0.0
11.034,-1.004,-0.886,0.0
10.461,-0.952,-0.896,0.0
14.451,-1.312,-0.832,0.0
13.46,-1.222,-0.846,0.0
12.562,-1.141,-0.857,0.0
11.801,-1.072,-0.869,0.0
11.234,-1.021,-0.887,0.0
10.589,-0.962,-0.892,0.0
14.734,-1.336,-0.828,0.0
13.729,-1.245,-0.844,0.0
12.882,-1.168,-0.861,0.0
11.978,-1.087,-0.865,0.0
11.365,-1.031,-0.881,0.0
10.771,-0.977,-0.892,0.0
14.886,-1.348,-0.816,0.0
13.92,-1.26,-0.837,0.0
13.07,-1.183,-0.855,0.0
12.235,-1.108,-0.866,0.0
11.535,-1.044,-0.878,0.0
10.937,-0.99,-0.891,0.0
15.222,-1.376,-0.813,0.0
14.198,-1.283,-0.833,0.0
13.263,-1.198,-0.849,0.0
12.387,-1.119,-0.86,0.0
11.716,-1.058,-0.875,0.0
11.099,-1.002,-0.888,0.0
15.656,-1.411,-0.814,0.0
14.49,-1.306,-0.83,0.0
13.539,-1.22,-0.848,0.0
12.596,-1.135,-0.857,0.0
11.855,-1.067,-0.869,0.0
11.271,-1.015,-0.886,0.0
15.874,-1.427,-0.803,0.0
14.81,-1.33,-0.828,0.0
13.857,-1.244,-0.848,0.0
12.878,-1.156,-0.857,0.0
12.177,-1.093,-0.875,0.0
11.418,-1.024,-0.881,0.0
16.129,-1.444,-0.794,0.0
14.976,-1.34,-0.816,0.0
14.054,-1.257,-0.84,0.0
13.131,-1.174,-0.855,0.0
12.298,-1.099,-0.866,0.0
11.578,-1.034,-0.877,0.0
16.688,-1.488,-0.797,0.0
15.383,-1.371,-0.816,0.0
14.161,-1.261,-0.826,0.0
13.372,-1.19,-0.852,0.0
12.503,-1.113,-0.863,0.0
11.736,-1.044,-0.872,0.0
17.112,-1.519,-0.793,0.0
15.81,-1.403,-0.816,0.0
14.544,-1.289,-0.827,0.0
13.664,-1.211,-0.851,0.0
12.712,-1.125,-0.859,0.0
11.96,-1.058,-0.871,0.0
17.37,-1.534,-0.78,0.0
15.964,-1.409,-0.801,0.0
14.805,-1.305,-0.821,0.0
13.862,-1.221,-0.843,0.0
12.977,-1.143,-0.858,0.0
12.181,-1.072,-0.87,0.0
17.657,-1.551,-0.767,0.0
16.329,-1.433,-0.795,0.0
15.173,-1.33,-0.819,0.0
14.101,-1.235,-0.837,0.0
13.183,-1.154,-0.852,0.0
12.347,-1.08,-0.863,0.0
18.223,-1.591,-0.765,0.0
16.806,-1.465,-0.794,0.0
15.434,-1.344,-0.811,0.0
14.285,-1.243,-0.827,0.0
13.512,-1.175,-0.854,0.0
12.522,-1.088,-0.858,0.0
18.742,-1.625,-0.76,0.0
17.127,-1.483,-0.785,0.0
15.93,-1.378,-0.814,0.0
14.663,-1.267,-0.828,0.0
13.693,-1.182,-0.846,0.0
12.874,-1.11,-0.863,0.0
19.197,-1.653,-0.751,0.0
17.533,-1.508,-0.778,0.0
16.059,-1.379,-0.797,0.0
14.976,-1.284,-0.824,0.0
13.904,-1.191,-0.839,0.0
13.046,-1.116,-0.856,0.0
19.434,-1.66,-0.732,0.0
17.924,-1.529,-0.77,0.0
16.606,-1.415,-0.801,0.0
15.317,-1.303,-0.821,0.0
14.331,-1.218,-0.843,0.0
13.352,-1.133,-0.856,0.0
20.489,-1.736,-0.743,0.0
18.349,-1.552,-0.762,0.0
16.909,-1.428,-0.791,0.0
15.549,-1.311,-0.811,0.0
14.519,-1.223,-0.834,0.0
13.586,-1.143,-0.852,0.0
20.991,-1.762,-0.731,0.0
18.987,-1.592,-0.761,0.0
17.429,-1.459,-0.79,0.0
15.93,-1.331,-0.808,0.0
14.801,-1.235,-0.828,0.0
13.758,-1.146,-0.843,0.0
21.218,-1.764,-0.708,0.0
19.359,-1.607,-0.748,0.0
17.65,-1.462,-0.774,0.0
16.402,-1.357,-0.808,0.0
15.114,-1.248,-0.824,0.0
14.054,-1.159,-0.841,0.0
22.749,-1.873,-0.727,0.0
19.826,-1.629,-0.737,0.0
18.16,-1.489,-0.771,0.0
16.77,-1.373,-0.802,0.0
15.407,-1.259,-0.818,0.0
14.289,-1.165,-0.834,0.0
22.857,-1.861,-0.697,0.0
20.733,-1.685,-0.741,0.0
18.639,-1.512,-0.764,0.0
16.91,-1.369,-0.784,0.0
15.788,-1.275,-0.815,0.0
14.588,-1.176,-0.83,0.0
23.516,-1.893,-0.684,0.0
21.16,-1.7,-0.726,1.0
19.026,-1.525,-0.753,0.0
17.49,-1.399,-0.786,0.0
16.058,-1.282,-0.806,0.0
14.922,-1.189,-0.828,0.0
24.751,-1.968,-0.685,0.0
22.081,-1.752,-0.727,1.0
19.565,-1.549,-0.747,0.0
17.827,-1.408,-0.776,0.0
16.618,-1.31,-0.811,1.0
15.214,-1.196,-0.823,0.0
25.365,-1.991,-0.666,0.0
22.306,-1.747,-0.703,0.0
0.0,0.0,0.0,0.0
18.268,-1.424,-0.77,0.0
16.679,-1.297,-0.791,0.0
15.565,-1.208,-0.82,0.0
26.65,-2.064,-0.662,0.0
23.34,-1.803,-0.703,1.0
21.012,-1.619,-0.743,1.0
18.894,-1.452,-0.77,0.0
17.304,-1.327,-0.796,0.0
15.742,-1.204,-0.807,0.0
27.27,-2.082,-0.64,0.0
23.815,-1.814,-0.684,0.0
21.22,-1.612,-0.721,0.0
19.097,-1.447,-0.752,0.0
17.621,-1.331,-0.787,0.0
16.308,-1.229,-0.814,0.0
0.0,0.0,0.0,0.0
25.035,-1.878,-0.685,0.0
21.8,-1.631,-0.711,0.0
19.905,-1.485,-0.756,0.0
17.906,-1.332,-0.775,0.0
16.604,-1.231,-0.806,0.0
0.0,0.0,0.0,0.0
0.0,0.0,0.0,0.0
22.676,-1.669,-0.709,0.0
20.017,-1.469,-0.733,0.0
18.394,-1.346,-0.771,0.0
16.869,-1.231,-0.796,0.0
30.582,-2.227,-0.593,0.0
0.0,0.0,0.0,0.0
23.313,-1.687,-0.698,0.0
20.971,-1.513,-0.74,0.0
19.361,-1.392,-0.785,0.0
17.266,-1.238,-0.792,0.0
0.0,0.0,0.0,0.0
27.782,-1.982,-0.648,0.0
24.016,-1.707,-0.687,0.0
21.484,-1.522,-0.73,0.0
19.666,-1.389,-0.772,1.0
17.641,-1.242,-0.785,0.0
0.0,0.0,0.0,0.0
28.578,-2.001,-0.629,0.0
25.068,-1.749,-0.684,0.0
22.025,-1.532,-0.719,0.0
19.76,-1.369,-0.75,2.0
17.971,-1.241,-0.777,0.0
20.053,-1.382,-0.309,0.0
30.298,-2.081,-0.628,1.0
25.76,-1.763,-0.669,0.0
22.745,-1.551,-0.713,0.0
19.948,-1.355,-0.731,2.0
18.362,-1.243,-0.77,0.0
20.033,-1.354,-0.284,24.0
20.059,-1.35,-0.39,19.0
20.076,-1.346,-0.496,18.0
20.096,-1.343,-0.605,16.0
20.119,-1.339,-0.712,10.0
19.891,-1.319,-0.809,1.0
20.026,-1.325,-0.258,30.0
20.06,-1.322,-0.364,28.0
20.075,-1.318,-0.471,30.0
20.101,-1.314,-0.58,28.0
20.092,-1.308,-0.686,14.0
19.936,-1.293,-0.786,1.0
20.027,-1.296,-0.233,33.0
20.054,-1.292,-0.34,29.0
20.076,-1.289,-0.446,29.0
20.102,-1.285,-0.555,27.0
20.112,-1.28,-0.662,18.0
19.865,-1.259,-0.759,2.0
20.021,-1.266,-0.209,31.0
20.074,-1.264,-0.316,23.0
20.094,-1.26,-0.422,26.0
20.1,-1.255,-0.531,10.0
20.118,-1.251,-0.638,0.0
19.941,-1.234,-0.738,2.0
20.042,-1.237,-0.185,27.0
19.983,-1.228,-0.29,10.0
19.984,-1.223,-0.396,17.0
19.989,-1.217,-0.504,150.0
19.987,-1.212,-0.61,150.0
19.945,-1.204,-0.714,14.0
19.989,-1.203,-0.161,151.0
19.992,-1.197,-0.267,151.0
19.979,-1.191,-0.372,150.0
19.985,-1.186,-0.481,150.0
19.994,-1.181,-0.587,150.0
19.965,-1.173,-0.692,9.0
19.999,-1.172,-0.138,151.0
20.008,-1.167,-0.244,18.0
20.01,-1.161,-0.35,1.0
19.992,-1.154,-0.458,0.0
23.697,-1.361,-0.669,0.0
21.52,-1.23,-0.721,0.0
0.0,0.0,0.0,0.0
0.0,0.0,0.0,0.0
