X,Y,Z,Reflectivity
11.208,-0.015,-0.864,0.0
10.535,-0.015,-0.874,0.0
14.667,-0.024,-0.812,0.0
13.613,-0.023,-0.833,0.0
12.548,-0.023,-0.841,0.0
11.616,-0.022,-0.848,0.0
10.955,-0.022,-0.864,0.0
10.372,-0.021,-0.879,0.0
14.32,-0.033,-0.818,0.0
13.336,-0.032,-0.84,0.0
12.271,-0.03,-0.844,0.0
11.41,-0.029,-0.853,0.0
10.771,-0.029,-0.868,0.0
10.243,-0.028,-0.886,0.0
14.012,-0.042,-0.825,0.0
12.938,-0.04,-0.837,0.0
11.973,-0.038,-0.845,0.0
11.223,-0.037,-0.859,0.0
10.6,-0.036,-0.873,0.0
10.066,-0.035,-0.888,0.0
13.661,-0.051,-0.828,0.0
12.729,-0.049,-0.846,0.0
11.698,-0.046,-0.845,0.0
11.038,-0.044,-0.863,0.0
10.404,-0.043,-0.875,0.0
9.932,-0.042,-0.893,0.0
13.378,-0.06,-0.834,0.0
12.415,-0.057,-0.846,0.0
11.482,-0.054,-0.849,0.0
10.856,-0.052,-0.868,0.0
10.287,-0.05,-0.882,0.0
9.745,-0.049,-0.893,0.0
13.097,-0.069,-0.838,0.0
12.121,-0.065,-0.846,0.0
11.293,-0.062,-0.854,0.0
10.659,-0.06,-0.869,0.0
10.152,-0.058,-0.888,0.0
9.617,-0.056,-0.897,0.0
12.85,-0.078,-0.843,0.0
11.809,-0.073,-0.843,0.0
11.143,-0.07,-0.861,0.0
10.465,-0.067,-0.871,0.0
10.006,-0.065,-0.891,0.0
9.515,-0.063,-0.903,0.0
12.555,-0.087,-0.844,0.0
11.612,-0.082,-0.848,0.0
10.942,-0.079,-0.863,0.0
10.337,-0.075,-0.877,0.0
9.846,-0.073,-0.892,0.0
9.348,-0.07,-0.902,0.0
12.275,-0.096,-0.844,0.0
11.424,-0.091,-0.852,0.0
10.787,-0.087,-0.867,0.0
10.234,-0.084,-0.884,0.0
9.709,-0.081,-0.895,0.0
9.245,-0.078,-0.906,0.0
12.014,-0.104,-0.845,0.0
11.284,-0.1,-0.859,0.0
10.623,-0.095,-0.87,0.0
10.079,-0.091,-0.886,0.0
9.579,-0.088,-0.898,0.0
9.114,-0.085,-0.908,0.0
11.742,-0.113,-0.843,0.0
11.075,-0.108,-0.86,0.0
10.467,-0.103,-0.873,0.0
9.944,-0.1,-0.889,0.0
9.502,-0.096,-0.905,0.0
9.048,-0.093,-0.914,0.0
11.568,-0.122,-0.848,0.0
10.957,-0.117,-0.867,0.0
10.337,-0.112,-0.878,0.0
9.811,-0.108,-0.891,0.0
9.325,-0.104,-0.901,0.0
8.894,-0.1,-0.912,0.0
11.43,-0.132,-0.854,0.0
10.77,-0.126,-0.867,0.0
10.222,-0.121,-0.882,0.0
9.701,-0.116,-0.895,0.0
9.226,-0.112,-0.905,0.0
8.776,-0.107,-0.912,0.0
11.249,-0.141,-0.856,0.0
10.648,-0.135,-0.872,0.0
10.115,-0.13,-0.887,0.0
9.615,-0.125,-0.901,0.0
9.115,-0.12,-0.907,0.0
8.714,-0.116,-0.918,0.0
11.094,-0.15,-0.86,0.0
10.493,-0.143,-0.874,0.0
9.955,-0.138,-0.887,0.0
9.457,-0.132,-0.899,0.0
9.05,-0.128,-0.912,0.0
8.598,-0.123,-0.917,0.0
10.973,-0.16,-0.865,0.0
10.372,-0.153,-0.877,0.0
9.873,-0.147,-0.893,0.0
9.339,-0.14,-0.9,0.0
8.925,-0.136,-0.912,0.0
8.514,-0.131,-0.919,0.0
10.842,-0.169,-0.868,0.0
10.273,-0.162,-0.882,0.0
9.742,-0.155,-0.893,0.0
9.268,-0.149,-0.905,0.0
8.831,-0.144,-0.913,0.0
8.422,-0.138,-0.92,0.0
10.687,-0.178,-0.869,0.0
10.144,-0.171,-0.884,0.0
9.66,-0.164,-0.898,0.0
9.195,-0.158,-0.909,0.0
8.827,-0.153,-0.924,0.0
8.358,-0.146,-0.923,0.0
10.567,-0.188,-0.872,0.0
10.02,-0.18,-0.885,0.0
9.544,-0.173,-0.898,0.0
9.114,-0.167,-0.912,0.0
8.642,-0.159,-0.915,0.0
8.259,-0.154,-0.922,0.0
10.443,-0.197,-0.874,0.0
9.893,-0.188,-0.885,0.0
9.46,-0.182,-0.901,0.0
9.027,-0.175,-0.913,0.0
8.612,-0.169,-0.922,0.0
8.222,-0.162,-0.928,0.0
10.351,-0.207,-0.878,0.0
9.833,-0.198,-0.891,0.0
9.343,-0.19,-0.901,0.0
8.969,-0.184,-0.918,0.0
8.495,-0.176,-0.918,0.0
8.148,-0.17,-0.928,0.0
10.248,-0.217,-0.881,0.0
9.746,-0.208,-0.894,0.0
9.268,-0.199,-0.904,0.0
0.0,0.0,0.0,0.0
8.448,-0.185,-0.922,0.0
8.096,-0.179,-0.931,0.0
10.19,-0.227,-0.886,0.0
9.665,-0.217,-0.896,0.0
9.204,-0.209,-0.907,0.0
0.0,0.0,0.0,0.0
8.372,-0.193,-0.923,0.0
8.02,-0.186,-0.931,0.0
10.055,-0.236,-0.885,0.0
9.599,-0.227,-0.9,0.0
9.151,-0.218,-0.911,0.0
8.624,-0.207,-0.909,0.0
8.34,-0.202,-0.928,0.0
7.969,-0.195,-0.932,0.0
9.982,-0.246,-0.888,0.0
9.421,-0.234,-0.892,0.0
9.102,-0.228,-0.915,0.0
0.0,0.0,0.0,0.0
8.299,-0.211,-0.931,0.0
7.894,-0.202,-0.931,0.0
9.887,-0.256,-0.889,0.0
9.362,-0.244,-0.895,0.0
8.983,-0.236,-0.911,0.0
8.61,-0.228,-0.924,0.0
8.152,-0.217,-0.922,0.0
7.68,-0.206,-0.913,0.0
9.816,-0.266,-0.891,0.0
9.328,-0.254,-0.9,0.0
8.921,-0.245,-0.912,0.0
8.54,-0.236,-0.924,0.0
8.148,-0.227,-0.928,0.0
7.512,-0.211,-0.899,0.0
9.736,-0.275,-0.892,0.0
9.225,-0.263,-0.898,0.0
8.876,-0.254,-0.915,0.0
8.448,-0.244,-0.92,0.0
8.079,-0.235,-0.927,0.0
7.778,-0.228,-0.937,0.0
9.694,-0.286,-0.896,0.0
9.192,-0.273,-0.902,0.0
0.0,0.0,0.0,0.0
8.41,-0.253,-0.923,0.0
8.098,-0.245,-0.935,0.0
7.741,-0.236,-0.939,0.0
9.646,-0.296,-0.898,0.0
9.198,-0.284,-0.909,0.0
8.733,-0.272,-0.914,0.0
8.341,-0.261,-0.921,0.0
7.987,-0.252,-0.928,0.0
7.667,-0.244,-0.935,0.0
9.586,-0.306,-0.9,0.0
9.092,-0.292,-0.905,0.0
8.596,-0.278,-0.905,0.0
8.281,-0.27,-0.921,0.0
7.968,-0.261,-0.932,0.0
7.624,-0.252,-0.935,0.0
9.511,-0.316,-0.899,0.0
9.097,-0.304,-0.912,0.0
8.637,-0.291,-0.915,0.0
8.314,-0.281,-0.93,0.0
7.943,-0.271,-0.934,0.0
7.619,-0.261,-0.94,0.0
9.476,-0.327,-0.901,0.0
8.984,-0.311,-0.906,0.0
0.0,0.0,0.0,0.0
8.215,-0.288,-0.923,0.0
7.887,-0.279,-0.932,0.0
7.61,-0.271,-0.943,0.0
9.407,-0.336,-0.9,0.0
8.994,-0.323,-0.912,0.0
8.544,-0.309,-0.915,0.0
8.21,-0.299,-0.927,0.0
7.856,-0.287,-0.933,0.0
7.575,-0.279,-0.943,0.0
9.391,-0.347,-0.904,0.0
8.929,-0.332,-0.91,0.0
8.481,-0.317,-0.913,0.0
8.154,-0.307,-0.925,0.0
7.814,-0.296,-0.932,0.0
7.499,-0.286,-0.937,0.0
9.303,-0.356,-0.9,0.0
8.899,-0.342,-0.911,0.0
8.529,-0.33,-0.922,0.0
8.13,-0.316,-0.926,0.0
7.847,-0.307,-0.939,0.0
7.462,-0.294,-0.936,0.0
9.28,-0.366,-0.902,0.0
8.872,-0.352,-0.912,0.0
8.451,-0.337,-0.917,0.0
8.106,-0.326,-0.927,0.0
7.787,-0.315,-0.935,0.0
7.451,-0.303,-0.938,0.0
9.261,-0.377,-0.903,0.0
8.876,-0.364,-0.916,0.0
8.463,-0.349,-0.922,0.0
8.07,-0.334,-0.926,0.0
7.763,-0.323,-0.935,0.0
7.493,-0.314,-0.946,0.0
9.237,-0.388,-0.904,0.0
8.837,-0.373,-0.915,0.0
8.468,-0.359,-0.925,0.0
8.063,-0.344,-0.928,0.0
7.682,-0.33,-0.928,0.0
7.439,-0.321,-0.941,0.0
9.191,-0.397,-0.903,0.0
8.827,-0.384,-0.917,0.0
8.407,-0.367,-0.921,0.0
8.05,-0.354,-0.929,0.0
7.724,-0.341,-0.935,0.0
7.428,-0.33,-0.942,0.0
9.184,-0.409,-0.904,0.0
8.774,-0.392,-0.914,0.0
8.397,-0.377,-0.922,0.0
8.045,-0.364,-0.93,0.0
7.661,-0.348,-0.929,0.0
7.427,-0.339,-0.943,0.0
9.178,-0.42,-0.906,0.0
8.81,-0.405,-0.919,0.0
8.378,-0.387,-0.921,0.0
8.017,-0.372,-0.928,0.0
7.707,-0.36,-0.936,0.0
7.426,-0.348,-0.944,0.0
9.187,-0.432,-0.908,0.0
8.764,-0.414,-0.916,0.0
8.363,-0.397,-0.921,0.0
7.992,-0.381,-0.926,0.0
7.699,-0.369,-0.936,0.0
7.38,-0.355,-0.939,0.0
9.163,-0.442,-0.907,0.0
8.679,-0.42,-0.908,0.0
8.364,-0.407,-0.922,0.0
8.014,-0.392,-0.93,0.0
7.671,-0.377,-0.933,0.0
7.447,-0.368,-0.949,0.0
9.108,-0.45,-0.902,0.0
8.813,-0.438,-0.922,0.0
8.367,-0.417,-0.923,0.0
7.988,-0.4,-0.927,0.0
7.666,-0.386,-0.933,0.0
7.426,-0.376,-0.946,0.0
9.145,-0.463,-0.906,0.0
8.763,-0.446,-0.917,0.0
8.389,-0.429,-0.926,0.0
8.022,-0.412,-0.931,0.0
7.696,-0.397,-0.937,0.0
7.414,-0.384,-0.945,0.0
9.157,-0.475,-0.907,0.0
8.776,-0.457,-0.919,0.0
8.396,-0.439,-0.926,0.0
8.02,-0.421,-0.931,0.0
7.694,-0.406,-0.936,0.0
7.409,-0.393,-0.944,0.0
9.161,-0.486,-0.907,0.0
8.736,-0.465,-0.914,0.0
8.379,-0.448,-0.924,0.0
8.085,-0.434,-0.937,0.0
0.0,0.0,0.0,0.0
7.414,-0.402,-0.943,0.0
9.186,-0.498,-0.908,0.0
8.735,-0.476,-0.913,0.0
8.36,-0.457,-0.921,0.0
8.024,-0.441,-0.929,0.0
0.0,0.0,0.0,0.0
7.446,-0.412,-0.947,0.0
9.143,-0.506,-0.903,0.0
8.774,-0.488,-0.916,0.0
8.408,-0.47,-0.924,0.0
8.026,-0.45,-0.928,0.0
0.0,0.0,0.0,0.0
7.423,-0.42,-0.942,0.0
9.189,-0.52,-0.906,0.0
8.821,-0.501,-0.919,0.0
8.408,-0.479,-0.923,0.0
8.087,-0.463,-0.934,0.0
0.0,0.0,0.0,0.0
7.443,-0.43,-0.943,0.0
9.177,-0.53,-0.902,0.0
8.775,-0.508,-0.912,0.0
8.345,-0.485,-0.914,0.0
8.098,-0.473,-0.933,0.0
7.785,-0.456,-0.94,0.0
7.411,-0.436,-0.937,0.0
9.211,-0.542,-0.903,0.0
8.856,-0.523,-0.918,0.0
8.445,-0.501,-0.922,0.0
8.059,-0.48,-0.926,0.0
7.768,-0.464,-0.936,0.0
7.476,-0.448,-0.943,0.0
9.33,-0.559,-0.912,0.0
8.871,-0.534,-0.916,0.0
8.465,-0.511,-0.921,0.0
8.075,-0.489,-0.925,0.0
7.829,-0.476,-0.94,0.0
7.474,-0.456,-0.94,0.0
9.339,-0.57,-0.909,0.0
8.896,-0.545,-0.916,0.0
8.494,-0.522,-0.921,0.0
8.105,-0.5,-0.925,0.0
7.823,-0.484,-0.937,0.0
7.532,-0.468,-0.944,0.0
9.368,-0.582,-0.908,0.0
8.897,-0.554,-0.912,0.0
8.539,-0.534,-0.923,0.0
8.155,-0.512,-0.927,0.0
7.855,-0.495,-0.937,0.0
7.529,-0.476,-0.94,0.0
9.392,-0.593,-0.906,0.0
8.982,-0.569,-0.917,0.0
8.601,-0.547,-0.925,0.0
8.2,-0.523,-0.929,0.0
7.856,-0.503,-0.933,0.0
7.566,-0.486,-0.941,0.0
9.423,-0.604,-0.905,0.0
9.008,-0.58,-0.915,0.0
8.616,-0.557,-0.923,0.0
8.232,-0.534,-0.928,0.0
7.907,-0.514,-0.935,0.0
7.598,-0.496,-0.941,0.0
9.441,-0.615,-0.902,0.0
9.061,-0.592,-0.915,0.0
8.257,-0.543,-0.926,0.0
7.957,-0.525,-0.937,0.0
7.619,-0.505,-0.939,0.0
9.521,-0.63,-0.904,0.0
9.069,-0.602,-0.911,0.0
0.0,0.0,0.0,0.0
8.272,-0.552,-0.923,0.0
7.966,-0.534,-0.933,0.0
7.624,-0.512,-0.935,0.0
9.583,-0.643,-0.904,0.0
9.114,-0.613,-0.91,0.0
8.336,-0.564,-0.925,0.0
8.024,-0.545,-0.935,0.0
7.663,-0.522,-0.935,0.0
9.638,-0.656,-0.903,0.0
9.139,-0.624,-0.906,0.0
8.773,-0.6,-0.918,0.0
8.395,-0.576,-0.926,0.0
8.056,-0.555,-0.933,0.0
7.761,-0.536,-0.942,0.0
9.671,-0.667,-0.899,0.0
9.196,-0.636,-0.906,0.0
8.855,-0.614,-0.921,0.0
0.0,0.0,0.0,0.0
8.092,-0.564,-0.931,0.0
7.769,-0.543,-0.937,0.0
9.709,-0.678,-0.896,0.0
9.269,-0.649,-0.906,0.0
8.923,-0.626,-0.921,0.0
0.0,0.0,0.0,0.0
8.152,-0.575,-0.932,0.0
7.831,-0.554,-0.938,0.0
9.764,-0.69,-0.894,0.0
9.34,-0.662,-0.906,0.0
8.965,-0.637,-0.918,0.0
8.576,-0.611,-0.927,0.0
8.183,-0.584,-0.929,0.0
7.869,-0.564,-0.937,0.0
9.88,-0.706,-0.896,0.0
9.395,-0.673,-0.904,0.0
9.056,-0.651,-0.92,0.0
8.515,-0.613,-0.913,0.0
8.244,-0.595,-0.929,0.0
7.886,-0.571,-0.932,0.0
9.94,-0.718,-0.894,0.0
9.498,-0.688,-0.906,0.0
9.038,-0.656,-0.911,0.0
0.0,0.0,0.0,0.0
8.313,-0.607,-0.93,0.0
7.989,-0.585,-0.937,0.0
10.018,-0.732,-0.892,0.0
9.583,-0.701,-0.905,0.0
9.074,-0.666,-0.907,0.0
0.0,0.0,0.0,0.0
8.329,-0.614,-0.924,0.0
8.012,-0.592,-0.933,0.0
10.132,-0.747,-0.893,0.0
9.641,-0.713,-0.902,0.0
9.171,-0.68,-0.908,0.0
8.816,-0.655,-0.922,0.0
8.481,-0.631,-0.933,0.0
8.064,-0.602,-0.931,0.0
10.215,-0.761,-0.891,0.0
9.753,-0.728,-0.903,0.0
9.268,-0.693,-0.909,0.0
8.862,-0.664,-0.918,0.0
8.485,-0.637,-0.925,0.0
8.142,-0.613,-0.932,0.0
10.299,-0.774,-0.888,0.0
9.832,-0.74,-0.901,0.0
9.362,-0.706,-0.909,0.0
8.944,-0.676,-0.918,0.0
8.53,-0.646,-0.922,0.0
8.162,-0.62,-0.926,0.0
10.411,-0.789,-0.887,0.0
9.874,-0.75,-0.895,0.0
9.423,-0.717,-0.905,0.0
9.026,-0.688,-0.917,0.0
8.676,-0.663,-0.928,0.0
8.252,-0.632,-0.928,0.0
10.477,-0.8,-0.882,0.0
9.977,-0.763,-0.894,0.0
9.54,-0.731,-0.906,0.0
9.12,-0.7,-0.917,0.0
8.724,-0.671,-0.924,0.0
8.348,-0.644,-0.93,0.0
10.638,-0.818,-0.884,0.0
10.099,-0.778,-0.894,0.0
9.625,-0.743,-0.904,0.0
9.126,-0.706,-0.907,0.0
8.77,-0.68,-0.919,0.0
8.41,-0.653,-0.927,0.0
10.761,-0.834,-0.883,0.0
10.19,-0.791,-0.891,0.0
9.702,-0.754,-0.9,0.0
9.256,-0.721,-0.91,0.0
8.866,-0.692,-0.919,0.0
8.501,-0.664,-0.928,0.0
10.889,-0.849,-0.881,0.0
10.297,-0.804,-0.888,0.0
9.814,-0.768,-0.9,0.0
9.343,-0.732,-0.908,0.0
8.957,-0.703,-0.919,0.0
8.575,-0.674,-0.926,0.0
11.005,-0.863,-0.878,0.0
10.418,-0.818,-0.887,0.0
9.894,-0.778,-0.895,0.0
9.446,-0.744,-0.907,0.0
9.027,-0.712,-0.915,0.0
8.693,-0.687,-0.928,0.0
11.134,-0.878,-0.875,0.0
10.556,-0.834,-0.886,0.0
10.015,-0.792,-0.894,0.0
9.549,-0.756,-0.905,0.0
9.128,-0.724,-0.914,0.0
8.721,-0.693,-0.921,0.0
11.261,-0.892,-0.871,0.0
10.685,-0.848,-0.884,0.0
10.152,-0.807,-0.894,0.0
9.666,-0.769,-0.904,0.0
9.264,-0.738,-0.916,0.0
8.826,-0.704,-0.921,0.0
11.397,-0.907,-0.867,0.0
10.833,-0.863,-0.883,0.0
10.277,-0.82,-0.892,0.0
9.762,-0.78,-0.901,0.0
9.322,-0.746,-0.91,0.0
8.934,-0.715,-0.921,0.0
11.569,-0.924,-0.866,0.0
10.977,-0.878,-0.88,0.0
10.394,-0.832,-0.889,0.0
9.841,-0.789,-0.896,0.0
9.408,-0.755,-0.907,0.0
9.018,-0.725,-0.918,0.0
11.736,-0.941,-0.864,0.0
11.099,-0.891,-0.876,0.0
10.518,-0.845,-0.886,0.0
9.969,-0.802,-0.894,0.0
9.539,-0.768,-0.907,0.0
9.104,-0.734,-0.914,0.0
11.951,-0.961,-0.864,0.0
11.251,-0.905,-0.873,0.0
10.675,-0.86,-0.885,0.0
10.15,-0.818,-0.897,0.0
9.679,-0.781,-0.907,0.0
9.213,-0.744,-0.913,0.0
12.134,-0.978,-0.861,0.0
11.43,-0.922,-0.872,0.0
10.832,-0.874,-0.884,0.0
10.266,-0.829,-0.894,0.0
9.743,-0.788,-0.9,0.0
9.32,-0.754,-0.911,0.0
12.305,-0.993,-0.857,0.0
11.603,-0.937,-0.87,0.0
10.973,-0.887,-0.881,0.0
10.385,-0.84,-0.89,0.0
9.872,-0.799,-0.899,0.0
9.445,-0.765,-0.91,0.0
12.506,-1.011,-0.854,0.0
11.75,-0.95,-0.864,0.0
11.12,-0.9,-0.877,0.0
10.539,-0.853,-0.889,0.0
10.01,-0.811,-0.897,0.0
9.597,-0.778,-0.912,0.0
12.742,-1.031,-0.852,0.0
11.993,-0.971,-0.866,0.0
11.272,-0.913,-0.873,0.0
10.712,-0.868,-0.888,0.0
10.184,-0.826,-0.899,0.0
9.692,-0.786,-0.907,0.0
12.974,-1.05,-0.85,0.0
12.167,-0.985,-0.861,0.0
11.458,-0.928,-0.872,0.0
10.874,-0.881,-0.886,0.0
10.305,-0.835,-0.895,0.0
9.777,-0.793,-0.901,0.0
13.262,-1.073,-0.85,0.0
12.342,-0.999,-0.856,0.0
11.628,-0.941,-0.868,0.0
11.018,-0.892,-0.882,0.0
10.448,-0.846,-0.892,0.0
9.917,-0.804,-0.9,0.0
13.511,-1.092,-0.847,0.0
12.604,-1.019,-0.857,0.0
11.805,-0.955,-0.865,0.0
11.14,-0.901,-0.876,0.0
10.586,-0.856,-0.889,0.0
10.068,-0.815,-0.899,0.0
13.672,-1.104,-0.837,0.0
12.755,-1.03,-0.848,0.0
12.048,-0.973,-0.865,0.0
11.338,-0.916,-0.875,0.0
10.772,-0.87,-0.889,0.0
10.205,-0.824,-0.896,0.0
13.972,-1.126,-0.835,0.0
13.121,-1.057,-0.854,0.0
12.241,-0.986,-0.861,0.0
11.529,-0.929,-0.873,0.0
10.931,-0.881,-0.886,0.0
10.358,-0.835,-0.894,0.0
14.288,-1.149,-0.833,0.0
13.327,-1.071,-0.847,0.0
12.398,-0.997,-0.853,0.0
11.673,-0.938,-0.866,0.0
11.069,-0.89,-0.88,0.0
10.496,-0.843,-0.89,0.0
14.539,-1.166,-0.826,0.0
13.573,-1.088,-0.843,0.0
12.657,-1.014,-0.853,0.0
11.919,-0.955,-0.867,0.0
11.235,-0.9,-0.877,0.0
10.681,-0.855,-0.89,0.0
14.857,-1.187,-0.822,0.0
13.784,-1.101,-0.835,0.0
12.915,-1.031,-0.851,0.0
12.149,-0.97,-0.865,0.0
11.426,-0.912,-0.874,0.0
10.865,-0.867,-0.889,0.0
15.184,-1.208,-0.817,0.0
14.091,-1.121,-0.833,0.0
13.236,-1.052,-0.852,0.0
12.32,-0.979,-0.859,0.0
11.626,-0.924,-0.872,0.0
11.0,-0.874,-0.884,0.0
15.54,-1.231,-0.813,0.0
14.429,-1.143,-0.831,0.0
13.498,-1.068,-0.849,0.0
12.575,-0.994,-0.858,0.0
11.83,-0.935,-0.87,0.0
11.155,-0.881,-0.879,0.0
15.761,-1.242,-0.801,0.0
14.69,-1.157,-0.824,0.0
13.682,-1.077,-0.839,0.0
12.796,-1.007,-0.854,0.0
12.036,-0.946,-0.866,0.0
11.348,-0.891,-0.877,0.0
16.545,-1.297,-0.816,0.0
15.013,-1.176,-0.819,0.0
13.982,-1.094,-0.836,0.0
13.074,-1.022,-0.852,0.0
12.25,-0.957,-0.863,0.0
11.528,-0.9,-0.873,0.0
16.629,-1.295,-0.794,1.0
15.329,-1.193,-0.813,0.0
14.289,-1.111,-0.833,0.0
13.386,-1.04,-0.852,0.0
12.479,-0.968,-0.86,0.0
11.749,-0.911,-0.872,0.0
17.0,-1.315,-0.786,0.0
15.744,-1.216,-0.811,0.0
14.588,-1.126,-0.828,0.0
13.621,-1.05,-0.846,0.0
12.789,-0.985,-0.861,0.0
11.964,-0.92,-0.869,0.0
17.419,-1.337,-0.779,0.0
16.174,-1.24,-0.808,0.0
14.904,-1.141,-0.823,0.0
13.803,-1.056,-0.836,0.0
13.017,-0.995,-0.857,0.0
12.164,-0.928,-0.865,0.0
17.912,-1.364,-0.774,0.0
16.509,-1.256,-0.799,0.0
15.213,-1.155,-0.816,0.0
14.176,-1.075,-0.837,0.0
13.305,-1.008,-0.855,0.0
12.372,-0.936,-0.861,0.0
18.286,-1.38,-0.762,0.0
16.846,-1.27,-0.79,0.0
15.577,-1.172,-0.812,0.0
14.522,-1.091,-0.835,0.0
13.508,-1.014,-0.848,0.0
12.593,-0.944,-0.857,0.0
18.895,-1.413,-0.758,0.0
17.322,-1.293,-0.786,0.0
15.887,-1.184,-0.804,0.0
14.711,-1.095,-0.823,0.0
13.726,-1.02,-0.84,0.0
12.906,-0.958,-0.858,0.0
19.551,-1.447,-0.755,0.0
17.745,-1.311,-0.778,0.0
16.352,-1.206,-0.803,0.0
15.113,-1.113,-0.823,0.0
14.044,-1.033,-0.839,0.0
13.188,-0.968,-0.857,0.0
19.722,-1.445,-0.732,0.0
18.109,-1.324,-0.767,0.0
16.673,-1.217,-0.793,0.0
15.298,-1.114,-0.81,0.0
14.414,-1.048,-0.839,0.0
13.417,-0.974,-0.851,0.0
19.774,-1.432,-0.704,0.0
18.762,-1.356,-0.766,0.0
17.191,-1.24,-0.792,0.0
15.737,-1.133,-0.809,0.0
14.67,-1.054,-0.831,0.0
13.662,-0.98,-0.846,0.0
21.299,-1.524,-0.726,0.0
19.619,-1.401,-0.772,0.0
17.572,-1.252,-0.783,0.0
16.299,-1.159,-0.814,0.0
14.935,-1.06,-0.824,0.0
13.87,-0.982,-0.838,0.0
21.611,-1.527,-0.704,0.0
19.742,-1.391,-0.747,2.0
17.945,-1.262,-0.773,0.0
16.512,-1.158,-0.8,0.0
15.246,-1.067,-0.818,0.0
14.192,-0.991,-0.836,0.0
22.734,-1.584,-0.707,0.0
20.013,-1.391,-0.727,2.0
18.218,-1.263,-0.757,0.0
16.865,-1.167,-0.791,0.0
15.673,-1.081,-0.817,0.0
14.512,-0.999,-0.833,0.0
23.193,-1.593,-0.686,0.0
20.21,-1.384,-0.704,0.0
19.348,-1.322,-0.775,0.0
17.352,-1.182,-0.788,0.0
16.015,-1.089,-0.811,0.0
14.851,-1.007,-0.831,0.0
20.115,-1.36,-0.565,2.0
21.665,-1.461,-0.722,0.0
19.771,-1.33,-0.763,1.0
20.134,-1.351,-0.884,0.0
20.127,-1.346,-0.99,0.0
15.085,-1.006,-0.821,0.0
20.097,-1.338,-0.535,24.0
20.118,-1.335,-0.641,15.0
19.879,-1.315,-0.738,3.0
20.158,-1.33,-0.856,0.0
16.811,-1.106,-0.802,0.0
20.11,-1.319,-1.065,0.0
20.088,-1.315,-0.505,34.0
20.117,-1.312,-0.612,28.0
20.084,-1.306,-0.716,9.0
20.04,-1.299,-0.822,1.0
20.169,-1.304,-0.933,0.0
20.147,-1.299,-1.038,0.0
20.086,-1.291,-0.476,33.0
20.112,-1.289,-0.582,27.0
20.086,-1.283,-0.687,13.0
19.945,-1.27,-0.789,1.0
20.164,-1.279,-0.904,0.0
16.165,-1.022,-0.809,1.0
20.093,-1.268,-0.447,29.0
20.12,-1.265,-0.554,20.0
20.122,-1.261,-0.659,6.0
19.88,-1.241,-0.758,2.0
17.955,-1.117,-0.779,0.0
16.556,-1.027,-0.805,0.0
13.85,1.44,-0.828,0.0
12.999,1.351,-0.851,0.0
11.886,1.235,-0.846,0.0
11.184,1.161,-0.862,0.0
10.571,1.097,-0.875,0.0
10.091,1.047,-0.893,0.0
13.708,1.416,-0.832,0.0
12.812,1.323,-0.851,0.0
11.764,1.214,-0.848,0.0
11.078,1.142,-0.863,0.0
10.444,1.076,-0.874,0.0
10.068,1.037,-0.9,0.0
13.608,1.396,-0.838,0.0
12.673,1.299,-0.852,0.0
11.721,1.201,-0.855,0.0
10.966,1.123,-0.864,0.0
10.452,1.069,-0.884,0.0
9.917,1.014,-0.896,0.0
13.46,1.371,-0.84,0.0
12.48,1.27,-0.85,0.0
11.568,1.176,-0.854,0.0
10.844,1.102,-0.864,0.0
10.29,1.045,-0.879,0.0
9.753,0.99,-0.889,0.0
13.234,1.337,-0.837,0.0
12.362,1.248,-0.852,0.0
11.459,1.156,-0.855,0.0
10.741,1.083,-0.864,0.0
10.25,1.033,-0.884,0.0
9.724,0.979,-0.894,0.0
13.123,1.315,-0.84,0.0
12.21,1.223,-0.851,0.0
11.363,1.137,-0.857,0.0
10.718,1.071,-0.871,0.0
10.161,1.015,-0.884,0.0
9.702,0.968,-0.9,0.0
13.035,1.295,-0.844,0.0
12.031,1.195,-0.848,0.0
11.311,1.122,-0.862,0.0
10.631,1.053,-0.872,0.0
10.086,0.999,-0.885,0.0
9.638,0.954,-0.901,0.0
12.88,1.269,-0.843,0.0
11.929,1.174,-0.849,0.0
11.153,1.096,-0.858,0.0
10.526,1.034,-0.871,0.0
10.038,0.985,-0.888,0.0
9.55,0.936,-0.899,0.0
12.806,1.249,-0.847,0.0
11.853,1.155,-0.852,0.0
11.13,1.084,-0.863,0.0
10.469,1.018,-0.873,0.0
10.048,0.976,-0.895,0.0
9.573,0.929,-0.908,0.0
12.653,1.222,-0.846,0.0
11.793,1.138,-0.855,0.0
11.039,1.064,-0.864,0.0
10.413,1.003,-0.875,0.0
9.953,0.957,-0.893,0.0
9.477,0.911,-0.905,0.0
12.511,1.196,-0.844,0.0
11.706,1.118,-0.856,0.0
10.955,1.045,-0.864,0.0
10.365,0.988,-0.877,0.0
9.864,0.939,-0.891,0.0
9.438,0.897,-0.907,0.0
12.447,1.177,-0.847,0.0
11.605,1.096,-0.856,0.0
10.904,1.029,-0.866,0.0
10.311,0.972,-0.879,0.0
9.83,0.925,-0.894,0.0
9.346,0.879,-0.903,0.0
12.389,1.159,-0.85,0.0
11.491,1.073,-0.854,0.0
10.838,1.011,-0.867,0.0
10.276,0.957,-0.882,0.0
9.745,0.907,-0.892,0.0
9.281,0.863,-0.902,0.0
12.294,1.137,-0.85,0.0
11.437,1.056,-0.856,0.0
10.792,0.995,-0.869,0.0
10.246,0.943,-0.884,0.0
9.762,0.898,-0.898,0.0
9.301,0.854,-0.909,0.0
12.258,1.12,-0.853,0.0
11.334,1.034,-0.853,0.0
10.714,0.976,-0.868,0.0
10.171,0.925,-0.883,0.0
9.644,0.876,-0.892,0.0
9.216,0.836,-0.905,0.0
12.214,1.102,-0.856,0.0
11.343,1.022,-0.859,0.0
10.672,0.96,-0.869,0.0
10.182,0.914,-0.888,0.0
9.654,0.866,-0.897,0.0
9.206,0.824,-0.908,0.0
12.095,1.077,-0.853,0.0
11.239,0.999,-0.856,0.0
10.632,0.944,-0.87,0.0
10.141,0.899,-0.888,0.0
9.666,0.855,-0.902,0.0
9.184,0.811,-0.909,0.0
11.956,1.051,-0.847,0.0
11.23,0.985,-0.859,0.0
10.611,0.929,-0.872,0.0
10.051,0.879,-0.884,0.0
9.647,0.842,-0.903,0.0
9.079,0.791,-0.902,0.0
11.892,1.03,-0.847,0.0
11.183,0.967,-0.859,0.0
10.557,0.912,-0.871,0.0
10.039,0.865,-0.886,0.0
9.616,0.827,-0.903,0.0
9.109,0.783,-0.907,0.0
11.835,1.011,-0.846,0.0
11.13,0.949,-0.859,0.0
10.559,0.898,-0.874,0.0
10.031,0.852,-0.888,0.0
9.529,0.808,-0.898,0.0
9.075,0.768,-0.906,0.0
11.817,0.994,-0.848,0.0
11.094,0.932,-0.859,0.0
10.527,0.883,-0.874,0.0
10.014,0.838,-0.889,0.0
9.535,0.796,-0.9,0.0
9.068,0.756,-0.908,0.0
11.837,0.981,-0.852,0.0
11.081,0.917,-0.86,0.0
10.498,0.867,-0.874,0.0
9.973,0.822,-0.887,0.0
9.491,0.78,-0.898,0.0
9.038,0.742,-0.906,0.0
11.769,0.96,-0.849,0.0
11.083,0.902,-0.862,0.0
10.476,0.851,-0.874,0.0
9.958,0.807,-0.887,0.0
9.506,0.769,-0.901,0.0
9.025,0.729,-0.906,0.0
11.789,0.946,-0.852,0.0
11.016,0.882,-0.858,0.0
10.463,0.836,-0.874,0.0
9.952,0.794,-0.888,0.0
9.511,0.757,-0.902,0.0
9.054,0.719,-0.91,0.0
11.748,0.927,-0.85,0.0
11.032,0.869,-0.86,0.0
10.461,0.822,-0.874,0.0
9.972,0.782,-0.891,0.0
9.523,0.745,-0.904,0.0
9.064,0.707,-0.912,0.0
11.761,0.912,-0.851,0.0
11.072,0.857,-0.864,0.0
10.474,0.809,-0.876,0.0
9.962,0.767,-0.89,0.0
9.556,0.734,-0.908,0.0
9.066,0.695,-0.912,0.0
11.741,0.895,-0.85,0.0
11.036,0.839,-0.861,0.0
10.459,0.793,-0.874,0.0
9.937,0.752,-0.888,0.0
9.444,0.713,-0.897,0.0
9.088,0.684,-0.914,0.0
11.756,0.88,-0.851,0.0
11.011,0.822,-0.858,0.0
10.5,0.782,-0.877,0.0
9.991,0.742,-0.892,0.0
9.518,0.705,-0.903,0.0
9.079,0.671,-0.912,0.0
11.762,0.864,-0.85,0.0
11.051,0.809,-0.861,0.0
10.484,0.766,-0.875,0.0
9.985,0.727,-0.89,0.0
9.495,0.69,-0.9,0.0
9.129,0.662,-0.916,0.0
11.757,0.847,-0.849,0.0
11.06,0.794,-0.86,0.0
10.5,0.752,-0.875,0.0
9.987,0.713,-0.889,0.0
9.559,0.681,-0.905,0.0
9.044,0.643,-0.907,0.0
11.825,0.835,-0.852,0.0
11.073,0.779,-0.859,0.0
10.501,0.737,-0.873,0.0
10.054,0.704,-0.893,0.0
9.577,0.669,-0.904,0.0
9.085,0.632,-0.909,0.0
11.836,0.818,-0.85,0.0
11.101,0.765,-0.859,0.0
10.539,0.725,-0.874,0.0
10.051,0.689,-0.891,0.0
9.535,0.652,-0.898,0.0
9.123,0.622,-0.91,0.0
41.663,2.114,4.914,44.0
46.067,2.346,5.175,8.0
40.706,2.081,4.345,42.0
40.821,2.095,4.126,13.0
41.005,2.112,3.916,33.0
40.565,2.097,3.648,35.0
41.697,2.171,4.933,41.0
41.664,2.178,4.695,11.0
40.737,2.137,4.363,39.0
45.233,2.381,4.587,6.0
41.014,2.167,3.93,37.0
40.951,2.171,3.696,33.0
41.727,2.228,4.949,38.0
41.787,2.239,4.722,37.0
40.692,2.188,4.37,42.0
45.988,2.481,4.676,10.0
40.911,2.215,3.932,42.0
41.262,2.242,3.735,35.0
41.705,2.282,4.958,35.0
41.785,2.294,4.732,36.0
40.826,2.248,4.395,19.0
40.955,2.263,4.174,29.0
40.969,2.272,3.947,28.0
41.264,2.295,3.745,37.0
41.766,2.34,4.974,17.0
41.797,2.349,4.742,36.0
40.9,2.306,4.411,24.0
40.881,2.312,4.175,16.0
45.732,2.595,4.414,22.0
41.36,2.355,3.761,43.0
41.566,2.383,4.958,32.0
41.794,2.403,4.749,40.0
40.901,2.359,4.417,22.0
58.861,3.405,6.021,8.0
45.152,2.62,4.365,19.0
41.392,2.409,3.77,41.0
41.507,2.433,4.956,43.0
41.833,2.459,4.758,36.0
40.915,2.412,4.423,16.0
40.868,2.416,4.184,15.0
45.07,2.673,4.361,19.0
41.335,2.459,3.768,32.0
41.574,2.49,4.968,40.0
41.64,2.501,4.74,47.0
46.672,2.811,5.05,6.0
40.851,2.467,4.185,4.0
44.721,2.709,4.33,44.0
45.814,2.783,4.179,20.0
41.587,2.543,4.971,33.0
41.657,2.554,4.743,39.0
46.628,2.867,5.046,11.0
52.302,3.224,5.359,24.0
45.273,2.799,4.384,19.0
45.683,2.832,4.167,10.0
41.77,2.607,4.992,42.0
41.64,2.606,4.741,40.0
52.25,3.278,5.653,13.0
52.27,3.288,5.355,22.0
52.312,3.3,5.064,9.0
45.505,2.877,4.149,3.0
41.661,2.652,4.977,40.0
41.638,2.657,4.738,31.0
52.238,3.342,5.649,22.0
52.283,3.354,5.353,29.0
52.33,3.365,5.062,6.0
42.506,2.74,3.872,17.0
41.624,2.702,4.969,34.0
41.636,2.709,4.734,38.0
46.671,3.043,5.042,10.0
42.914,2.805,4.388,4.0
45.457,2.978,4.392,1.0
42.017,2.76,3.822,38.0
41.566,2.748,4.956,31.0
41.687,2.762,4.734,38.0
46.645,3.098,5.032,4.0
42.177,2.808,4.306,3.0
41.978,2.801,4.048,7.0
42.059,2.813,3.819,37.0
41.495,2.794,4.94,43.0
41.641,2.809,4.721,43.0
42.231,2.855,4.547,17.0
41.923,2.84,4.272,11.0
42.074,2.857,4.049,15.0
42.148,2.868,3.818,33.0
41.503,2.843,4.932,30.0
41.636,2.858,4.711,38.0
42.154,2.899,4.529,26.0
46.434,3.2,4.72,5.0
41.449,2.862,3.979,33.0
41.678,2.884,3.765,16.0
41.586,2.897,4.931,36.0
41.677,2.909,4.704,42.0
53.06,3.711,5.686,12.0
46.374,3.249,4.701,8.0
41.289,2.898,3.951,45.0
41.513,2.92,3.738,36.0
98.543,1.455,1.544,27.0
98.637,1.423,0.997,25.0
85.198,1.201,0.387,9.0
0.0,0.0,0.0,0.0
0.0,0.0,0.0,0.0
0.0,0.0,0.0,0.0
98.497,1.247,1.506,31.0
98.482,1.212,0.958,22.0
85.327,1.021,0.356,9.0
0.0,0.0,0.0,0.0
0.0,0.0,0.0,0.0
38.784,0.425,-0.488,0.0
98.637,1.041,1.474,28.0
98.573,1.007,0.926,18.0
0.0,0.0,0.0,0.0
0.0,0.0,0.0,0.0
46.706,0.428,-0.343,0.0
0.0,0.0,0.0,0.0
100.245,0.846,1.468,3.0
104.801,0.847,0.953,24.0
85.486,0.661,0.304,5.0
0.0,0.0,0.0,0.0
46.165,0.325,-0.352,0.0
0.0,0.0,0.0,0.0
111.074,0.701,1.597,14.0
111.005,0.659,0.981,12.0
88.136,0.494,0.29,5.0
0.0,0.0,0.0,0.0
46.108,0.225,-0.363,0.0
0.0,0.0,0.0,0.0
119.834,0.5,1.695,13.0
110.937,0.423,0.955,13.0
0.0,0.0,0.0,0.0
0.0,0.0,0.0,0.0
0.0,0.0,0.0,0.0
37.879,0.091,-0.515,0.0
111.069,0.227,1.55,24.0
110.964,0.187,0.935,11.0
0.0,0.0,0.0,0.0
0.0,0.0,0.0,0.0
45.514,0.028,-0.375,2.0
0.0,0.0,0.0,0.0
117.279,-0.01,1.618,12.0
111.236,-0.049,0.921,8.0
0.0,0.0,0.0,0.0
0.0,0.0,0.0,0.0
45.455,-0.068,-0.38,1.0
0.0,0.0,0.0,0.0
119.71,-0.265,1.638,16.0
114.475,-0.294,0.935,20.0
0.0,0.0,0.0,0.0
0.0,0.0,0.0,0.0
45.247,-0.165,-0.383,1.0
36.32,-0.145,-0.507,0.0
119.735,-0.521,1.628,14.0
119.734,-0.565,0.969,7.0
0.0,0.0,0.0,0.0
0.0,0.0,0.0,0.0
0.0,0.0,0.0,0.0
37.183,-0.229,-0.521,0.0
119.661,-0.779,1.622,8.0
119.715,-0.822,0.964,9.0
0.0,0.0,0.0,0.0
0.0,0.0,0.0,0.0
0.0,0.0,0.0,0.0
0.0,0.0,0.0,0.0
119.733,-1.037,1.622,64.0
119.733,-1.078,0.964,29.0
0.0,0.0,0.0,0.0
0.0,0.0,0.0,0.0
45.355,-0.457,-0.386,0.0
0.0,0.0,0.0,0.0
119.744,-1.291,1.626,2.0
139.267,-1.554,1.127,21.0
0.0,0.0,0.0,0.0
0.0,0.0,0.0,0.0
47.204,-0.578,-0.4,1.0
0.0,0.0,0.0,0.0
0.0,0.0,0.0,0.0
138.903,-1.846,1.134,27.0
0.0,0.0,0.0,0.0
0.0,0.0,0.0,0.0
46.859,-0.674,-0.392,0.0
37.667,-0.555,-0.522,0.0
139.048,-2.093,1.913,4.0
138.83,-2.14,1.149,16.0
97.649,-1.542,0.273,1.0
0.0,0.0,0.0,0.0
47.216,-0.78,-0.389,0.0
0.0,0.0,0.0,0.0
139.032,-2.392,1.933,2.0
138.998,-2.443,1.171,23.0
0.0,0.0,0.0,0.0
0.0,0.0,0.0,0.0
45.74,-0.854,-0.369,1.0
0.0,0.0,0.0,0.0
19.974,-1.031,0.436,15.0
19.967,-1.037,0.329,13.0
20.007,-1.046,0.222,25.0
19.956,-1.05,0.112,19.0
19.977,-1.058,0.005,25.0
20.009,-1.067,-0.102,24.0
19.969,-1.067,0.451,22.0
19.949,-1.073,0.344,17.0
20.01,-1.083,0.237,26.0
19.993,-1.089,0.128,24.0
19.991,-1.095,0.02,22.0
20.053,-1.105,-0.086,1.0
19.967,-1.104,0.467,24.0
19.953,-1.11,0.36,24.0
19.965,-1.117,0.253,25.0
19.982,-1.124,0.144,16.0
20.019,-1.133,0.037,3.0
0.0,0.0,0.0,0.0
19.96,-1.139,0.484,26.0
19.951,-1.145,0.376,22.0
19.946,-1.151,0.269,19.0
20.05,-1.164,0.161,8.0
20.009,-1.168,0.054,26.0
19.999,-1.174,-0.052,150.0
19.951,-1.174,0.5,25.0
19.94,-1.18,0.393,21.0
19.935,-1.186,0.286,25.0
19.987,-1.196,0.178,151.0
19.98,-1.202,0.071,150.0
19.982,-1.209,-0.034,150.0
19.946,-1.209,0.518,26.0
19.929,-1.214,0.411,25.0
19.93,-1.221,0.304,24.0
19.977,-1.23,0.196,23.0
19.997,-1.237,0.09,24.0
20.0,-1.244,-0.016,16.0
19.94,-1.243,0.536,24.0
19.93,-1.248,0.429,19.0
19.928,-1.255,0.323,19.0
19.977,-1.264,0.215,25.0
19.989,-1.271,0.108,26.0
20.0,-1.278,0.002,22.0
19.945,-1.277,0.555,23.0
19.924,-1.282,0.448,16.0
19.924,-1.288,0.342,16.0
19.96,-1.296,0.234,27.0
19.991,-1.305,0.127,21.0
19.997,-1.311,0.021,20.0
20.017,-1.315,0.577,13.0
19.98,-1.319,0.469,10.0
19.97,-1.324,0.362,10.0
19.955,-1.33,0.254,14.0
19.996,-1.338,0.148,17.0
20.0,-1.344,0.041,15.0
20.037,-1.349,0.597,9.0
20.067,-1.357,0.491,10.0
20.06,-1.363,0.384,1.0
119.329,-8.145,1.64,13.0
119.247,-8.175,1.003,6.0
0.0,0.0,0.0,0.0
20.007,-1.38,0.617,10.0
20.012,-1.386,0.51,10.0
20.009,-1.391,0.404,9.0
20.019,-1.398,0.296,8.0
20.031,-1.405,0.189,10.0
82.168,-5.787,0.339,4.0
20.021,-1.412,0.639,9.0
20.004,-1.417,0.531,11.0
19.996,-1.422,0.425,11.0
20.002,-1.428,0.316,10.0
20.027,-1.435,0.21,42.0
20.012,-1.44,0.103,10.0
20.045,-1.445,0.661,5.0
20.019,-1.448,0.553,6.0
20.03,-1.455,0.447,6.0
20.013,-1.459,0.338,7.0
20.02,-1.465,0.232,17.0
20.028,-1.471,0.126,12.0
72.036,-5.301,2.454,19.0
71.608,-5.288,2.059,36.0
119.388,-8.849,2.798,37.0
119.37,-8.881,2.151,150.0
119.259,-8.904,1.515,16.0
108.859,-8.158,0.805,6.0
67.896,-5.096,2.388,23.0
71.727,-5.401,2.142,32.0
119.345,-9.02,2.931,35.0
119.32,-9.049,2.284,7.0
67.902,-5.168,0.939,8.0
67.899,-5.186,0.579,29.0
67.935,-5.196,2.468,62.0
67.915,-5.212,2.106,71.0
67.889,-5.227,1.745,86.0
67.864,-5.243,1.378,89.0
67.869,-5.261,1.017,90.0
67.865,-5.28,0.658,80.0
67.926,-5.291,2.547,49.0
67.929,-5.308,2.186,37.0
67.925,-5.325,1.825,18.0
72.662,-5.713,1.559,5.0
119.328,-9.414,1.928,30.0
119.185,-9.434,1.294,12.0
72.168,-5.72,2.79,5.0
72.268,-5.745,2.411,19.0
74.885,-5.971,2.1,3.0
119.368,-9.546,2.703,22.0
126.553,-10.151,2.194,29.0
119.21,-9.593,1.437,15.0
67.933,-5.474,2.708,15.0
67.901,-5.486,2.346,28.0
74.748,-6.058,2.187,6.0
119.326,-9.699,2.845,90.0
126.513,-10.312,2.347,150.0
119.214,-9.747,1.581,18.0
67.955,-5.564,2.792,53.0
67.927,-5.577,2.431,44.0
72.131,-5.937,2.198,15.0
119.282,-9.846,2.991,27.0
126.494,-10.471,2.502,48.0
119.196,-9.894,1.727,15.0
67.969,-5.649,2.876,54.0
67.937,-5.661,2.514,44.0
72.006,-6.017,2.283,6.0
72.534,-6.076,1.908,24.0
119.309,-10.022,2.508,4.0
119.287,-10.045,1.876,25.0
67.969,-5.731,2.961,50.0
67.939,-5.743,2.6,44.0
71.767,-6.082,2.365,15.0
119.243,-10.13,3.287,12.0
206.126,-17.557,4.592,60.0
119.272,-10.185,2.025,22.0
67.964,-5.811,3.047,48.0
67.96,-5.824,2.686,45.0
67.934,-5.835,2.324,28.0
119.235,-10.266,3.438,19.0
119.231,-10.291,2.807,34.0
119.232,-10.316,2.177,50.0
67.985,-5.89,3.134,50.0
67.977,-5.902,2.774,44.0
67.932,-5.911,2.413,43.0
103.67,-9.042,3.122,8.0
203.532,-17.793,5.054,22.0
126.417,-11.076,2.472,28.0
67.976,-5.963,3.222,57.0
67.98,-5.975,2.862,44.0
67.955,-5.986,2.501,19.0
104.102,-9.189,3.269,9.0
74.1,-6.554,1.935,17.0
72.827,-6.456,1.517,6.0
71.475,-6.345,3.48,20.0
71.136,-6.326,3.087,6.0
72.392,-6.451,2.758,6.0
74.723,-6.673,2.445,3.0
75.336,-6.741,2.066,12.0
135.629,-12.161,3.004,150.0
71.357,-6.406,3.569,13.0
71.253,-6.409,3.186,14.0
102.751,-9.258,4.05,8.0
78.628,-7.098,2.675,22.0
104.088,-9.415,2.991,8.0
135.597,-12.288,3.182,10.0
71.383,-6.477,3.664,12.0
71.314,-6.482,3.282,6.0
71.139,-6.477,2.898,5.0
70.918,-6.469,2.507,11.0
103.895,-9.494,3.124,6.0
119.272,-10.92,2.956,24.0
71.24,-6.53,3.752,29.0
71.145,-6.532,3.37,21.0
79.935,-7.351,3.364,6.0
70.965,-6.538,2.604,16.0
72.09,-6.652,2.264,9.0
119.243,-11.022,3.116,21.0
70.308,-6.508,3.799,5.0
71.248,-6.604,3.472,9.0
70.968,-6.588,3.083,19.0
77.926,-7.246,2.965,30.0
78.783,-7.337,2.581,8.0
74.362,-6.937,2.044,3.0
73.425,-6.859,4.067,6.0
70.974,-6.639,3.556,7.0
71.098,-6.659,3.185,13.0
74.615,-6.999,2.941,10.0
78.744,-7.397,2.687,21.0
104.265,-9.809,3.007,11.0
70.361,-6.628,3.993,9.0
71.53,-6.747,3.68,14.0
71.125,-6.717,3.284,15.0
78.182,-7.394,3.188,46.0
74.304,-7.037,2.637,19.0
103.632,-9.828,3.13,13.0
73.592,-6.988,4.277,9.0
71.524,-6.8,3.777,9.0
71.2,-6.777,3.383,7.0
77.973,-7.43,3.286,21.0
74.412,-7.1,2.741,11.0
78.425,-7.493,2.475,13.0
73.618,-7.043,4.379,6.0
71.575,-6.854,3.878,7.0
77.451,-7.425,3.786,5.0
77.518,-7.44,3.372,31.0
74.535,-7.162,2.848,8.0
78.456,-7.547,2.583,14.0
70.173,-6.76,4.271,10.0
71.898,-6.932,3.994,6.0
71.195,-6.871,3.577,30.0
77.425,-7.48,3.473,12.0
78.495,-7.591,3.106,12.0
78.791,-7.628,2.7,41.0
69.111,-6.7,4.301,11.0
69.96,-6.788,3.982,12.0
70.839,-6.88,3.656,25.0
77.359,-7.52,3.576,7.0
78.279,-7.616,3.204,27.0
78.448,-7.64,2.796,18.0
69.753,-6.803,4.436,33.0
69.932,-6.825,4.077,15.0
73.218,-7.151,3.879,12.0
73.901,-7.224,3.517,13.0
77.963,-7.628,3.298,12.0
72.679,-7.116,2.69,17.0
69.633,-6.828,4.524,15.0
69.123,-6.783,4.124,12.0
71.211,-6.992,3.871,20.0
71.16,-6.992,3.484,9.0
77.755,-7.645,3.396,11.0
72.653,-7.149,2.789,8.0
33.254,-3.277,2.207,48.0
69.3,-6.834,4.231,29.0
71.25,-7.029,3.972,8.0
71.138,-7.023,3.581,13.0
71.05,-7.018,3.2,12.0
77.908,-7.701,3.096,8.0
33.261,-3.293,2.253,54.0
69.348,-6.868,4.329,35.0
68.925,-6.829,3.936,11.0
72.516,-7.189,3.749,41.0
74.294,-7.369,3.447,7.0
72.584,-7.203,2.984,18.0
33.261,-3.306,2.298,56.0
69.461,-6.906,4.429,27.0
69.062,-6.869,4.038,22.0
72.42,-7.206,3.843,18.0
74.74,-7.44,3.569,10.0
77.963,-7.764,3.31,12.0
33.257,-3.317,2.343,55.0
69.686,-6.952,4.539,13.0
69.1,-6.896,4.133,13.0
71.59,-7.146,3.894,23.0
71.006,-7.09,3.486,14.0
71.079,-7.1,3.113,11.0
33.248,-3.326,2.387,53.0
33.266,-3.328,2.212,50.0
69.313,-6.937,4.24,34.0
71.343,-7.142,3.978,16.0
71.781,-7.188,3.621,16.0
74.854,-7.497,3.38,13.0
33.247,-3.335,2.433,53.0
33.263,-3.337,2.256,53.0
69.393,-6.962,4.339,43.0
68.935,-6.917,3.936,19.0
71.744,-7.2,3.715,14.0
74.525,-7.48,3.464,39.0
33.251,-3.343,2.477,51.0
33.259,-3.343,2.301,54.0
69.346,-6.971,4.428,30.0
68.848,-6.921,4.024,18.0
71.342,-7.173,3.79,13.0
74.561,-7.496,3.565,20.0
33.258,-3.349,2.522,50.0
33.259,-3.349,2.345,53.0
33.255,-3.348,2.168,28.0
69.014,-6.948,4.124,14.0
71.411,-7.189,3.888,15.0
72.427,-7.291,3.558,16.0
33.249,-3.353,2.566,51.0
33.255,-3.352,2.389,52.0
33.265,-3.353,2.212,50.0
69.173,-6.971,4.225,30.0
69.014,-6.954,3.848,9.0
72.058,-7.26,3.634,37.0
33.252,-3.356,2.61,53.0
33.253,-3.355,2.432,51.0
33.27,-3.355,2.256,52.0
69.278,-6.986,4.322,32.0
68.968,-6.952,3.935,22.0
71.498,-7.206,3.699,24.0
33.259,-3.358,2.654,52.0
33.252,-3.356,2.476,48.0
33.263,-3.355,2.298,53.0
69.311,-6.99,4.412,28.0
68.907,-6.946,4.02,17.0
71.359,-7.191,3.783,17.0
33.257,-3.357,2.697,53.0
33.249,-3.355,2.518,48.0
33.26,-3.354,2.341,52.0
69.362,-6.993,4.504,12.0
69.035,-6.957,4.115,14.0
71.447,-7.197,3.878,14.0
33.258,-3.356,2.739,52.0
33.25,-3.353,2.56,49.0
33.256,-3.352,2.383,52.0
33.236,-3.348,2.2,49.0
69.178,-6.965,4.21,28.0
71.239,-7.169,3.956,9.0
33.254,-3.353,2.781,52.0
33.25,-3.35,2.602,50.0
33.251,-3.348,2.424,51.0
33.249,-3.345,2.242,53.0
69.35,-6.973,4.306,37.0
68.988,-6.933,3.915,17.0
33.254,-3.348,2.822,52.0
33.257,-3.346,2.643,51.0
33.249,-3.342,2.465,49.0
33.237,-3.339,2.282,53.0
69.395,-6.966,4.394,40.0
68.966,-6.919,3.998,17.0
33.254,-3.342,2.863,52.0
33.251,-3.339,2.684,52.0
33.246,-3.336,2.505,49.0
33.239,-3.332,2.323,53.0
69.589,-6.971,4.491,20.0
69.055,-6.912,4.087,12.0
33.256,-3.335,2.903,53.0
33.251,-3.331,2.724,52.0
33.249,-3.328,2.545,50.0
33.233,-3.323,2.361,51.0
33.254,-3.323,2.185,46.0
69.42,-6.93,4.19,31.0
33.259,-3.326,2.943,53.0
33.25,-3.322,2.763,52.0
33.245,-3.318,2.584,51.0
33.221,-3.312,2.4,52.0
33.25,-3.312,2.224,50.0
69.34,-6.901,4.266,29.0
33.256,-3.316,2.982,53.0
33.241,-3.311,2.801,52.0
33.241,-3.307,2.622,52.0
33.23,-3.303,2.438,52.0
33.241,-3.3,2.261,52.0
69.346,-6.878,4.345,30.0
33.258,-3.305,3.02,53.0
33.246,-3.3,2.839,51.0
33.239,-3.295,2.66,51.0
33.216,-3.289,2.475,51.0
33.234,-3.287,2.297,52.0
69.479,-6.864,4.43,33.0
33.261,-3.292,3.058,54.0
33.249,-3.287,2.877,51.0
33.233,-3.281,2.696,51.0
33.213,-3.275,2.511,52.0
33.232,-3.273,2.333,51.0
69.633,-6.85,4.515,10.0
33.252,-3.277,3.093,53.0
33.238,-3.271,2.912,51.0
33.229,-3.266,2.731,52.0
33.213,-3.26,2.547,52.0
33.219,-3.256,2.368,51.0
33.234,-3.253,2.19,42.0
33.25,-3.261,3.129,54.0
33.23,-3.255,2.947,51.0
33.231,-3.25,2.767,51.0
33.207,-3.243,2.582,53.0
33.226,-3.24,2.403,51.0
33.239,-3.237,2.225,48.0
33.248,-3.244,3.163,54.0
33.238,-3.238,2.981,52.0
33.223,-3.232,2.8,51.0
33.198,-3.225,2.615,52.0
33.217,-3.222,2.437,50.0
33.232,-3.218,2.258,50.0
33.252,-3.227,3.198,54.0
33.237,-3.22,3.016,51.0
33.224,-3.213,2.834,51.0
33.205,-3.206,2.649,52.0
33.212,-3.202,2.469,50.0
33.227,-3.199,2.291,50.0
33.25,-3.207,3.23,54.0
33.236,-3.2,3.048,51.0
33.218,-3.193,2.866,51.0
33.2,-3.185,2.681,52.0
33.207,-3.181,2.501,48.0
33.23,-3.178,2.323,53.0
33.271,-3.188,3.265,59.0
33.229,-3.179,3.079,49.0
33.212,-3.171,2.897,51.0
33.188,-3.163,2.711,51.0
33.2,-3.159,2.532,50.0
33.227,-3.156,2.354,55.0
33.243,-3.164,3.293,54.0
33.237,-3.157,3.111,41.0
33.201,-3.148,2.927,29.0
33.198,-3.141,2.743,23.0
33.207,-3.137,2.563,30.0
33.213,-3.131,2.383,49.0
47.335,-4.472,4.733,15.0
47.511,-4.48,4.491,7.0
74.687,-7.028,6.652,23.0
74.285,-6.977,6.203,4.0
73.823,-6.921,5.762,6.0
70.003,-6.55,5.084,23.0
47.311,-4.435,4.772,17.0
47.439,-4.438,4.525,19.0
74.546,-6.96,6.703,16.0
74.404,-6.932,6.277,16.0
71.169,-6.618,5.616,9.0
70.028,-6.5,5.144,24.0
47.358,-4.403,4.817,17.0
47.462,-4.404,4.567,3.0
74.723,-6.918,6.781,5.0
73.97,-6.834,6.301,32.0
73.079,-6.738,5.826,7.0
70.264,-6.465,5.218,18.0
47.355,-4.365,4.855,15.0
73.908,-6.798,7.171,13.0
73.776,-6.771,6.754,3.0
73.632,-6.743,6.33,14.0
71.074,-6.494,5.722,11.0
70.301,-6.41,5.276,25.0
47.479,-4.337,4.905,14.0
73.72,-6.719,7.21,21.0
76.726,-6.976,7.083,8.0
71.333,-6.471,6.187,12.0
73.29,-6.634,5.956,5.0
70.467,-6.364,5.341,28.0
47.559,-4.303,4.949,9.0
73.688,-6.651,7.262,16.0
73.642,-6.631,6.852,14.0
76.136,-6.84,6.659,7.0
74.383,-6.667,6.097,8.0
70.787,-6.33,5.415,27.0
76.293,-6.835,7.993,9.0
73.808,-6.595,7.326,10.0
73.408,-6.543,6.882,30.0
76.101,-6.767,6.708,8.0
74.525,-6.611,6.16,15.0
70.786,-6.265,5.462,29.0
0.0,0.0,0.0,0.0
73.168,-6.469,7.312,36.0
73.575,-6.489,6.946,26.0
71.366,-6.278,6.337,7.0
74.536,-6.541,6.209,13.0
71.02,-6.217,5.526,19.0
71.024,-6.228,7.535,19.0
72.915,-6.377,7.332,12.0
73.536,-6.414,6.989,30.0
73.359,-6.383,6.559,6.0
71.421,-6.198,5.993,11.0
70.924,-6.14,5.561,19.0
70.607,-6.122,7.533,11.0
70.233,-6.073,7.104,9.0
73.379,-6.328,7.016,23.0
71.412,-6.142,6.427,10.0
71.226,-6.11,6.017,22.0
74.538,-6.378,5.886,8.0
70.365,-6.03,7.547,5.0
70.231,-6.002,7.143,28.0
73.257,-6.243,7.045,10.0
0.0,0.0,0.0,0.0
72.436,-6.14,6.157,10.0
70.736,-5.98,5.623,20.0
70.677,-5.984,7.618,35.0
70.261,-5.932,7.182,7.0
71.085,-5.984,6.872,8.0
72.759,-6.107,6.623,20.0
74.648,-6.248,6.383,6.0
70.392,-5.876,5.63,29.0
70.764,-5.915,7.662,30.0
72.219,-6.018,7.418,9.0
73.681,-6.122,7.158,10.0
71.948,-5.961,6.583,24.0
72.932,-6.024,6.27,11.0
73.116,-6.022,5.882,9.0
70.81,-5.841,7.699,17.0
70.282,-5.779,7.25,12.0
73.675,-6.041,7.19,7.0
79.033,-6.46,7.265,9.0
72.982,-5.948,6.305,15.0
73.258,-5.953,5.923,10.0
70.865,-5.766,7.734,23.0
72.562,-5.885,7.514,8.0
70.911,-5.734,6.948,7.0
70.838,-5.71,6.539,11.0
70.878,-5.696,6.15,9.0
73.329,-5.876,5.956,21.0
71.628,-5.747,7.844,28.0
71.515,-5.718,7.432,12.0
71.634,-5.709,7.045,42.0
70.912,-5.634,6.571,14.0
70.68,-5.599,6.156,18.0
73.666,-5.817,6.007,33.0
71.037,-5.615,7.802,20.0
0.0,0.0,0.0,0.0
71.556,-5.619,7.059,27.0
70.88,-5.548,6.59,20.0
68.01,-5.306,5.944,8.0
68.002,-5.289,5.566,59.0
71.374,-5.557,7.86,26.0
70.593,-5.477,7.379,10.0
71.258,-5.511,7.049,8.0
68.005,-5.242,6.34,43.0
68.016,-5.225,5.963,58.0
68.008,-5.208,5.583,9.0
71.346,-5.469,7.875,40.0
70.581,-5.391,7.394,33.0
71.166,-5.417,7.057,7.0
71.003,-5.386,6.636,7.0
72.004,-5.444,6.327,19.0
73.03,-5.503,6.011,12.0
71.25,-5.373,7.879,29.0
71.11,-5.344,7.464,23.0
68.023,-5.094,6.758,26.0
70.989,-5.298,6.648,16.0
70.979,-5.279,6.25,19.0
73.022,-5.413,6.022,12.0
70.927,-5.261,7.855,49.0
70.9,-5.24,7.453,22.0
68.02,-5.009,6.768,32.0
71.344,-5.235,6.691,9.0
70.802,-5.177,6.244,17.0
0.0,0.0,0.0,0.0
70.738,-5.157,7.843,42.0
71.812,-5.216,7.557,26.0
72.058,-5.214,7.177,10.0
73.206,-5.278,6.873,11.0
70.975,-5.099,6.265,19.0
72.47,-5.188,5.991,11.0
70.924,-5.08,7.869,29.0
71.518,-5.103,7.531,9.0
0.0,0.0,0.0,0.0
78.167,-5.536,7.343,4.0
0.0,0.0,0.0,0.0
72.56,-5.101,6.002,24.0
71.448,-5.025,7.929,34.0
70.58,-4.944,7.434,41.0
71.418,-4.984,7.119,34.0
69.869,-4.857,6.564,46.0
64.339,-4.455,5.683,9.0
72.385,-4.994,5.987,18.0
73.137,-5.047,8.116,7.0
70.668,-4.857,7.442,15.0
70.392,-4.819,7.015,20.0
69.853,-4.764,6.56,22.0
64.284,-4.367,5.675,30.0
72.543,-4.91,5.997,21.0
70.205,-4.752,7.787,20.0
68.075,-4.589,7.165,21.0
70.578,-4.738,7.029,17.0
70.073,-4.685,6.575,20.0
64.338,-4.284,5.675,38.0
0.0,0.0,0.0,0.0
70.125,-4.651,7.771,9.0
68.084,-4.497,7.159,18.0
0.0,0.0,0.0,0.0
64.061,-4.197,6.004,39.0
64.247,-4.192,5.658,38.0
70.945,-4.61,5.849,16.0
70.427,-4.575,7.795,27.0
59.478,-3.848,6.245,30.0
59.533,-3.836,5.913,21.0
64.014,-4.107,5.989,39.0
64.03,-4.092,5.629,38.0
64.019,-4.074,5.266,18.0
70.486,-4.484,7.788,28.0
59.464,-3.766,6.232,29.0
59.205,-3.734,5.869,33.0
64.072,-4.024,5.981,38.0
63.828,-3.992,5.597,35.0
63.458,-3.952,5.207,32.0
59.323,-3.692,6.541,34.0
59.585,-3.693,6.23,29.0
59.072,-3.645,5.841,33.0
64.028,-3.934,5.961,32.0
63.577,-3.889,5.559,37.0
63.429,-3.863,5.187,33.0
59.235,-3.605,6.515,35.0
59.221,-3.588,6.176,33.0
59.128,-3.567,5.829,33.0
64.026,-3.845,5.942,33.0
63.491,-3.796,5.532,34.0
63.497,-3.78,5.173,16.0
58.919,-3.505,6.461,34.0
58.669,-3.473,6.099,34.0
58.708,-3.46,5.768,33.0
59.248,-3.476,5.478,30.0
63.369,-3.701,5.499,37.0
63.086,-3.668,5.117,32.0
58.763,-3.413,6.423,34.0
58.23,-3.367,6.031,32.0
58.093,-3.343,5.686,32.0
59.169,-3.389,5.448,31.0
62.971,-3.591,5.44,37.0
62.967,-3.574,5.083,14.0
59.167,-3.355,6.443,34.0
58.224,-3.285,6.007,30.0
58.097,-3.263,5.662,32.0
58.465,-3.268,5.358,33.0
62.834,-3.495,5.401,36.0
58.589,-3.244,4.703,22.0
59.407,-3.284,6.442,29.0
58.548,-3.222,6.013,33.0
57.607,-3.154,5.587,32.0
57.581,-3.138,5.25,32.0
60.266,-3.269,5.152,5.0
58.575,-3.162,4.674,32.0
59.058,-3.183,6.375,34.0
58.602,-3.143,5.99,33.0
56.879,-3.036,5.488,27.0
57.029,-3.029,5.171,31.0
60.354,-3.191,5.128,28.0
57.116,-3.005,4.528,23.0
58.738,-3.084,6.309,34.0
56.657,-2.959,5.76,30.0
56.91,-2.958,5.46,30.0
57.097,-2.953,5.145,31.0
60.201,-3.098,5.081,33.0
56.92,-2.915,4.48,26.0
58.354,-2.982,6.233,29.0
56.595,-2.877,5.72,29.0
56.668,-2.866,5.403,30.0
56.992,-2.867,5.101,31.0
56.949,-2.851,4.771,12.0
56.789,-2.829,4.434,29.0
46.848,-2.328,4.975,16.0
56.54,-2.795,5.678,30.0
56.545,-2.78,5.355,30.0
57.083,-2.792,5.072,31.0
56.84,-2.766,4.725,12.0
57.055,-2.763,4.417,23.0
46.92,-2.266,4.951,32.0
56.402,-2.709,5.626,18.0
56.658,-2.707,5.327,15.0
57.553,-2.736,5.075,31.0
44.123,-2.086,3.637,37.0
57.272,-2.694,4.394,31.0
46.871,-2.198,4.912,38.0
46.691,-2.178,4.624,35.0
46.958,-2.179,4.381,38.0
44.29,-2.044,3.873,13.0
44.116,-2.025,3.605,40.0
44.17,-2.017,3.356,30.0
46.812,-2.131,4.871,32.0
46.67,-2.113,4.587,38.0
46.85,-2.109,4.335,33.0
44.242,-1.981,3.835,18.0
44.143,-1.966,3.573,35.0
44.203,-1.958,3.324,39.0
46.827,-2.067,4.835,29.0
46.485,-2.04,4.531,23.0
44.325,-1.934,4.065,20.0
44.129,-1.914,3.789,45.0
55.926,-2.413,4.48,29.0
44.273,-1.899,3.293,31.0
52.53,-2.246,5.379,17.0
46.404,-1.972,4.484,37.0
44.289,-1.871,4.023,27.0
46.445,-1.951,3.947,22.0
44.216,-1.846,3.503,26.0
44.202,-1.835,3.248,41.0
46.842,-1.937,4.754,21.0
46.158,-1.897,4.418,43.0
44.168,-1.805,3.973,36.0
44.319,-1.801,3.726,30.0
44.249,-1.787,3.466,22.0
44.295,-1.778,3.214,40.0
47.05,-1.88,4.731,35.0
46.35,-1.841,4.393,21.0
44.227,-1.746,3.936,31.0
44.276,-1.738,3.68,37.0
44.112,-1.722,3.413,46.0
44.247,-1.717,3.169,39.0
46.613,-1.799,4.642,40.0
46.29,-1.776,4.342,38.0
44.188,-1.685,3.889,38.0
44.227,-1.677,3.633,43.0
44.251,-1.667,3.38,41.0
44.249,-1.657,3.125,43.0
46.627,-1.737,4.596,36.0
46.869,-1.735,4.348,21.0
44.234,-1.628,3.848,39.0
44.046,-1.61,3.572,44.0
44.166,-1.605,3.327,49.0
44.253,-1.598,3.079,40.0
52.452,-1.884,5.114,7.0
46.571,-1.662,4.271,34.0
44.026,-1.561,3.782,28.0
44.077,-1.552,3.527,42.0
44.237,-1.548,3.285,42.0
44.389,-1.544,3.04,25.0
46.544,-1.609,4.486,37.0
44.204,-1.518,4.004,34.0
43.826,-1.495,3.716,42.0
44.228,-1.499,3.49,42.0
44.364,-1.494,3.245,30.0
46.129,-1.544,3.108,40.0
43.746,-1.455,4.167,14.0
44.223,-1.461,3.955,41.0
43.873,-1.439,3.67,42.0
0.0,0.0,0.0,0.0
44.297,-1.434,3.188,32.0
45.982,-1.479,3.044,20.0
43.775,-1.399,4.118,29.0
43.868,-1.392,3.872,40.0
43.789,-1.38,3.611,44.0
44.646,-1.398,3.418,32.0
46.007,-1.43,3.256,25.0
56.817,-1.755,3.694,6.0
43.899,-1.346,4.076,42.0
43.8,-1.334,3.812,39.0
43.902,-1.327,3.566,38.0
44.858,-1.347,3.379,38.0
46.106,-1.375,3.206,21.0
56.996,-1.688,3.635,22.0
43.65,-1.283,3.998,39.0
43.661,-1.274,3.745,45.0
43.842,-1.27,3.506,35.0
44.875,-1.291,3.324,36.0
46.462,-1.327,3.172,21.0
62.502,-1.772,3.905,10.0
43.448,-1.222,3.923,46.0
43.671,-1.219,3.688,40.0
44.207,-1.225,3.477,30.0
44.932,-1.236,3.268,44.0
46.242,-1.263,3.095,19.0
51.815,-1.405,3.169,6.0
43.5,-1.17,3.869,44.0
43.783,-1.168,3.64,26.0
44.405,-1.176,3.433,19.0
45.237,-1.189,3.23,19.0
51.53,-1.345,3.381,10.0
51.723,-1.34,3.094,3.0
43.488,-1.117,3.809,41.0
43.746,-1.115,3.577,44.0
44.34,-1.121,3.367,19.0
51.509,-1.293,3.607,13.0
51.461,-1.281,3.306,26.0
63.422,-1.567,3.706,3.0
43.665,-1.069,3.763,35.0
43.74,-1.062,3.515,38.0
44.834,-1.08,3.342,28.0
51.587,-1.233,3.539,5.0
51.446,-1.22,3.231,35.0
73.573,-1.732,4.195,15.0
43.743,-1.019,3.707,30.0
43.687,-1.01,3.448,21.0
45.11,-1.034,3.297,22.0
51.551,-1.172,3.463,12.0
51.692,-1.166,3.172,25.0
73.798,-1.652,4.101,32.0
43.465,-0.962,3.619,41.0
44.791,-0.983,3.468,19.0
51.377,-1.119,3.679,6.0
50.644,-1.094,3.326,25.0
61.225,-1.311,3.665,30.0
74.083,-1.573,4.005,16.0
42.995,-0.902,3.514,43.0
45.037,-0.937,3.418,32.0
0.0,0.0,0.0,0.0
50.671,-1.037,3.251,25.0
61.172,-1.241,3.569,31.0
73.554,-1.48,3.863,23.0
42.986,-0.854,3.447,43.0
45.223,-0.891,3.362,22.0
0.0,0.0,0.0,0.0
50.275,-0.973,3.146,10.0
61.171,-1.174,3.472,22.0
82.014,-1.56,4.179,23.0
42.924,-0.806,3.374,40.0
48.548,-0.903,3.532,16.0
48.714,-0.898,3.26,24.0
60.881,-1.113,3.713,29.0
73.501,-1.331,4.055,10.0
81.656,-1.466,4.03,19.0
43.092,-0.763,3.317,50.0
48.439,-0.85,3.446,20.0
49.989,-0.869,3.264,25.0
61.121,-1.052,3.628,16.0
81.648,-1.393,4.372,28.0
81.143,-1.372,3.873,21.0
42.988,-0.716,3.238,44.0
48.441,-0.799,3.366,31.0
50.469,-0.825,3.212,24.0
61.226,-0.992,3.534,31.0
81.677,-1.31,4.239,19.0
81.267,-1.291,3.744,17.0
42.747,-0.669,3.148,36.0
48.466,-0.751,3.287,32.0
50.787,-0.779,3.147,13.0
73.386,-1.115,4.112,10.0
81.846,-1.231,4.109,12.0
81.353,-1.212,3.612,10.0
48.328,-0.709,3.477,23.0
48.515,-0.704,3.207,32.0
61.571,-0.885,3.711,10.0
81.495,-1.159,4.428,17.0
81.197,-1.143,3.938,12.0
112.203,-1.564,4.79,17.0
48.242,-0.661,3.388,37.0
48.461,-0.657,3.12,22.0
60.773,-0.815,3.557,5.0
60.663,-0.805,3.19,6.0
94.955,-1.248,4.44,12.0
189.815,-2.468,7.77,38.0
48.535,-0.619,3.322,26.0
48.572,-0.613,3.041,18.0
60.571,-0.756,3.438,26.0
81.657,-1.008,4.149,14.0
96.582,-1.179,4.344,4.0
190.423,-2.301,7.456,19.0
48.31,-0.573,3.22,27.0
61.312,-0.719,3.728,8.0
60.569,-0.701,3.327,34.0
81.267,-0.931,3.983,26.0
95.568,-1.082,4.125,11.0
190.516,-2.134,7.114,42.0
48.378,-0.531,3.136,47.0
60.726,-0.658,3.581,26.0
60.506,-0.648,3.214,13.0
85.931,-0.91,4.053,11.0
189.77,-1.986,7.843,131.0
190.631,-1.972,6.77,20.0
48.56,-0.491,3.057,21.0
60.616,-0.606,3.462,32.0
86.334,-0.853,4.427,7.0
80.759,-0.788,3.661,11.0
190.253,-1.834,7.515,28.0
214.864,-2.045,7.232,6.0
62.671,-0.583,3.83,5.0
60.724,-0.558,3.355,14.0
85.99,-0.78,4.249,12.0
95.688,-0.858,4.159,5.0
190.471,-1.686,7.169,45.0
214.648,-1.877,6.827,5.0
60.693,-0.518,3.595,3.0
77.924,-0.656,4.159,11.0
85.975,-0.714,4.086,8.0
189.767,-1.557,7.892,83.0
190.634,-1.542,6.815,20.0
205.493,-1.641,6.147,14.0
60.686,-0.472,3.479,9.0
81.532,-0.625,4.196,12.0
80.753,-0.611,3.684,11.0
190.36,-1.42,7.551,27.0
215.251,-1.584,7.281,6.0
119.636,-0.867,3.349,1.0
60.767,-0.429,3.366,22.0
81.065,-0.564,4.015,7.0
95.389,-0.654,4.167,20.0
190.494,-1.287,7.188,44.0
215.291,-1.433,6.864,10.0
119.784,-0.785,3.118,22.0
77.772,-0.495,4.155,7.0
80.906,-0.508,3.849,13.0
95.517,-0.59,3.985,7.0
190.557,-1.159,6.814,19.0
0.0,0.0,0.0,0.0
119.81,-0.706,2.885,150.0
77.845,-0.445,4.005,10.0
95.802,-0.539,4.367,12.0
189.872,-1.051,7.547,72.0
206.78,-1.126,6.986,13.0
119.71,-0.641,3.345,8.0
119.842,-0.631,2.649,14.0
80.795,-0.411,3.996,8.0
95.494,-0.478,4.162,18.0
190.526,-0.937,7.188,34.0
206.689,-1.0,6.568,21.0
119.813,-0.568,3.105,59.0
119.851,-0.559,2.406,8.0
80.97,-0.364,3.839,9.0
95.675,-0.422,3.975,15.0
190.601,-0.827,6.806,17.0
205.814,-0.877,6.124,8.0
119.838,-0.501,2.864,10.0
114.031,-0.468,2.06,5.0
81.177,-0.32,3.685,9.0
117.386,-0.455,4.641,26.0
206.442,-0.784,6.954,10.0
119.78,-0.446,3.321,8.0
119.81,-0.437,2.62,105.0
112.546,-0.403,1.805,10.0
95.47,-0.328,4.14,13.0
117.395,-0.395,4.402,28.0
70.121,-0.231,2.219,16.0
119.8,-0.386,3.076,27.0
114.008,-0.36,2.261,7.0
119.767,-0.369,1.674,9.0
117.358,-0.346,4.845,23.0
117.419,-0.339,4.16,30.0
70.137,-0.197,2.073,7.0
193.982,-0.534,4.579,17.0
112.537,-0.302,1.997,11.0
119.755,-0.315,1.426,19.0
117.362,-0.293,4.601,27.0
117.419,-0.287,3.915,27.0
119.815,-0.285,3.293,25.0
114.087,-0.265,2.457,8.0
119.832,-0.271,1.881,20.0
119.714,-0.265,1.179,11.0
117.405,-0.246,4.361,27.0
70.134,-0.143,2.194,17.0
119.791,-0.238,3.045,12.0
112.508,-0.217,2.19,8.0
119.703,-0.225,1.631,9.0
111.174,-0.203,0.863,12.0
70.048,-0.12,2.455,8.0
117.489,-0.196,3.428,17.0
114.533,-0.185,2.672,9.0
117.391,-0.185,2.04,23.0
117.398,-0.179,1.353,16.0
110.398,-0.163,0.626,3.0
70.051,-0.097,2.307,11.0
