X,Y,Z,Reflectivity
120.146,-3.287,4.134,23.0
207.237,-5.615,5.935,9.0
205.453,-5.516,4.702,4.0
74.167,-1.974,3.741,18.0
96.767,-2.55,4.321,14.0
117.095,-3.056,4.553,5.0
120.489,-3.115,3.978,25.0
207.642,-5.318,5.659,7.0
0.0,0.0,0.0,0.0
81.87,-2.057,4.014,10.0
96.85,-2.409,4.188,10.0
106.303,-2.617,3.982,13.0
120.649,-2.939,3.81,12.0
118.024,-2.847,3.047,17.0
193.94,-4.632,3.889,4.0
80.965,-1.914,3.852,31.0
96.455,-2.256,4.031,10.0
113.349,-2.624,4.082,19.0
112.742,-2.582,3.396,19.0
118.048,-2.674,2.874,15.0
193.531,-4.337,3.593,15.0
94.627,-2.099,4.361,10.0
96.682,-2.122,3.896,13.0
113.1,-2.455,3.905,25.0
112.724,-2.42,3.229,11.0
205.583,-4.364,4.7,21.0
193.034,-4.054,3.3,19.0
95.219,-1.977,4.245,20.0
96.649,-1.984,3.75,14.0
112.638,-2.286,3.719,23.0
112.707,-2.261,3.058,24.0
193.635,-3.839,4.136,14.0
138.982,-2.723,2.164,7.0
95.883,-1.856,4.127,15.0
112.674,-2.154,4.197,19.0
113.16,-2.137,3.561,8.0
112.811,-2.104,2.885,12.0
193.661,-3.567,3.831,18.0
139.086,-2.53,1.947,4.0
112.444,-2.02,4.663,7.0
112.814,-2.001,4.024,20.0
113.131,-1.98,3.379,9.0
206.7,-3.572,4.957,17.0
193.793,-3.305,3.527,16.0
0.0,0.0,0.0,0.0
106.431,-1.766,4.242,15.0
112.765,-1.847,3.842,8.0
112.667,-1.82,3.185,12.0
206.432,-3.287,4.617,9.0
194.111,-3.05,3.22,6.0
139.001,-2.152,1.5,9.0
106.501,-1.625,4.071,13.0
209.72,-3.156,6.803,9.0
113.196,-1.678,3.015,7.0
0.0,0.0,0.0,0.0
139.067,-2.0,2.076,8.0
138.959,-1.969,1.27,21.0
190.565,-2.658,6.968,19.0
209.685,-2.88,6.45,7.0
206.723,-2.794,5.159,7.0
0.0,0.0,0.0,0.0
139.195,-1.822,1.846,2.0
139.163,-1.793,1.04,18.0
210.575,-2.668,7.346,10.0
209.25,-2.606,6.084,20.0
210.648,-2.58,4.902,9.0
204.328,-2.461,3.552,16.0
139.469,-1.65,1.615,4.0
119.822,-1.392,0.691,5.0
210.522,-2.402,6.983,14.0
209.355,-2.346,5.729,9.0
119.752,-1.317,2.581,37.0
119.723,-1.292,1.873,150.0
119.754,-1.268,1.179,150.0
0.0,0.0,0.0,0.0
210.696,-2.142,6.619,16.0
119.722,-1.193,3.065,150.0
119.744,-1.17,2.371,150.0
119.739,-1.145,1.663,91.0
119.656,-1.121,0.967,13.0
0.0,0.0,0.0,0.0
119.752,-1.075,3.552,22.0
119.718,-1.051,2.855,91.0
119.733,-1.028,2.16,83.0
119.642,-1.004,1.452,14.0
114.368,-0.938,0.724,7.0
0.0,0.0,0.0,0.0
119.736,-0.934,3.338,20.0
194.344,-1.48,4.288,23.0
119.829,-0.891,1.949,24.0
119.646,-0.866,1.238,17.0
110.864,-0.781,0.502,2.0
0.0,0.0,0.0,0.0
119.777,-0.798,3.122,20.0
194.146,-1.257,3.931,19.0
119.779,-0.753,1.729,15.0
119.662,-0.731,1.02,12.0
0.0,0.0,0.0,0.0
0.0,0.0,0.0,0.0
119.804,-0.664,2.902,58.0
194.0,-1.041,3.571,17.0
119.724,-0.621,1.508,11.0
111.058,-0.556,0.742,4.0
0.0,0.0,0.0,0.0
0.0,0.0,0.0,0.0
119.817,-0.535,2.68,11.0
114.516,-0.491,1.894,3.0
119.753,-0.492,1.285,17.0
103.218,-0.406,0.497,3.0
0.0,0.0,0.0,0.0
0.0,0.0,0.0,0.0
119.806,-0.409,2.455,42.0
112.895,-0.366,1.656,5.0
114.478,-0.353,1.015,150.0
0.0,0.0,0.0,0.0
0.0,0.0,0.0,0.0
45.375,-0.116,-0.394,1.0
113.764,-0.273,2.117,2.0
119.675,-0.267,1.529,10.0
110.847,-0.23,0.773,15.0
0.0,0.0,0.0,0.0
0.0,0.0,0.0,0.0
0.0,0.0,0.0,0.0
112.405,-0.159,1.876,10.0
117.35,-0.148,1.276,19.0
0.0,0.0,0.0,0.0
0.0,0.0,0.0,0.0
48.759,-0.038,-0.326,0.0
39.845,-0.025,-0.498,0.0
117.299,-0.055,1.733,11.0
111.207,-0.035,0.996,6.0
95.664,-0.015,0.299,4.0
0.0,0.0,0.0,0.0
45.585,0.006,-0.393,3.0
35.72,0.01,-0.516,0.0
111.13,0.049,1.424,21.0
110.632,0.065,0.775,8.0
0.0,0.0,0.0,0.0
0.0,0.0,0.0,0.0
42.752,0.044,-0.452,0.0
33.643,0.039,-0.551,0.0
111.105,0.147,1.206,19.0
103.578,0.152,0.521,2.0
0.0,0.0,0.0,0.0
49.545,0.087,-0.332,0.0
38.008,0.072,-0.477,0.0
31.185,0.063,-0.573,0.0
111.031,0.241,0.987,15.0
92.406,0.213,0.283,1.0
51.005,0.124,-0.14,1.0
44.978,0.116,-0.39,0.0
35.634,0.097,-0.517,0.0
0.0,0.0,0.0,0.0
104.317,0.311,0.721,8.0
0.0,0.0,0.0,0.0
0.0,0.0,0.0,0.0
42.788,0.144,-0.456,0.0
33.238,0.116,-0.548,0.0
28.172,0.102,-0.629,0.0
94.684,0.356,0.465,2.0
0.0,0.0,0.0,0.0
49.051,0.197,-0.331,0.0
37.764,0.156,-0.479,0.0
0.0,0.0,0.0,0.0
26.628,0.117,-0.648,0.0
88.225,0.397,0.255,4.0
52.493,0.242,-0.153,0.0
45.732,0.217,-0.4,1.0
35.519,0.173,-0.521,0.0
29.413,0.146,-0.603,0.0
25.009,0.127,-0.659,0.0
0.0,0.0,0.0,0.0
0.0,0.0,0.0,0.0
42.661,0.232,-0.46,0.0
33.551,0.186,-0.561,0.0
28.137,0.159,-0.634,0.0
23.825,0.138,-0.676,0.0
0.0,0.0,0.0,0.0
48.765,0.292,-0.34,0.0
0.0,0.0,0.0,0.0
30.754,0.191,-0.576,0.0
26.419,0.167,-0.649,0.0
22.62,0.145,-0.688,0.0
0.0,0.0,0.0,0.0
42.976,0.284,-0.387,0.0
35.533,0.238,-0.527,0.0
29.174,0.199,-0.606,0.0
24.866,0.172,-0.662,0.0
21.984,0.154,-0.713,0.0
0.0,0.0,0.0,0.0
40.202,0.289,-0.444,0.0
33.105,0.241,-0.559,0.0
27.601,0.204,-0.629,0.0
23.896,0.179,-0.685,0.0
21.039,0.16,-0.726,0.0
48.487,0.371,-0.353,1.0
0.0,0.0,0.0,0.0
30.416,0.238,-0.576,0.0
26.255,0.208,-0.653,0.0
22.573,0.181,-0.694,0.0
20.067,0.163,-0.734,0.0
42.932,0.351,-0.401,0.0
34.472,0.285,-0.523,0.0
29.191,0.244,-0.613,0.0
24.795,0.209,-0.668,0.0
21.702,0.185,-0.712,0.0
19.299,0.166,-0.745,0.0
0.0,0.0,0.0,0.0
32.274,0.282,-0.556,0.0
0.0,0.0,0.0,0.0
23.574,0.21,-0.684,0.0
20.642,0.185,-0.719,0.0
18.55,0.168,-0.755,0.0
0.0,0.0,0.0,0.0
30.454,0.279,-0.587,0.0
26.283,0.243,-0.66,0.0
22.59,0.211,-0.702,0.0
19.873,0.187,-0.733,0.0
17.902,0.17,-0.765,0.0
34.117,0.324,-0.529,0.0
28.812,0.276,-0.615,0.0
24.408,0.235,-0.663,0.0
21.654,0.21,-0.717,0.0
19.176,0.188,-0.747,0.0
17.4,0.172,-0.78,0.0
31.984,0.316,-0.562,0.0
26.7,0.265,-0.625,0.0
23.187,0.232,-0.678,0.0
20.423,0.206,-0.719,0.0
18.474,0.187,-0.758,0.0
16.719,0.171,-0.784,0.0
29.789,0.304,-0.585,0.0
25.517,0.262,-0.65,0.0
22.42,0.231,-0.702,0.0
19.874,0.206,-0.741,0.0
17.822,0.186,-0.768,0.0
16.303,0.171,-0.798,0.0
28.083,0.295,-0.609,0.0
24.13,0.254,-0.664,0.0
21.514,0.228,-0.718,0.0
18.985,0.202,-0.746,0.0
17.236,0.185,-0.778,0.0
15.733,0.169,-0.802,0.0
26.684,0.287,-0.634,0.0
23.138,0.25,-0.685,0.0
20.302,0.22,-0.719,0.0
18.229,0.199,-0.754,0.0
16.652,0.182,-0.786,0.0
15.227,0.167,-0.808,0.0
25.561,0.28,-0.66,0.0
22.3,0.245,-0.706,0.0
19.657,0.217,-0.737,0.0
17.659,0.196,-0.767,0.0
16.132,0.18,-0.795,0.0
14.797,0.166,-0.816,0.0
23.78,0.265,-0.663,0.0
21.094,0.236,-0.711,0.0
18.871,0.212,-0.746,0.0
17.116,0.193,-0.779,0.0
15.684,0.177,-0.805,0.0
14.381,0.163,-0.823,0.0
23.07,0.26,-0.69,0.0
20.321,0.23,-0.726,0.0
18.313,0.208,-0.761,0.0
16.516,0.188,-0.785,0.0
15.221,0.174,-0.812,0.0
14.07,0.161,-0.833,0.0
22.142,0.252,-0.707,0.0
19.405,0.221,-0.733,0.0
17.599,0.201,-0.767,0.0
15.972,0.183,-0.791,0.0
14.728,0.169,-0.816,0.0
13.662,0.157,-0.837,0.0
20.979,0.24,-0.712,0.0
18.745,0.215,-0.746,0.0
16.959,0.195,-0.774,0.0
15.524,0.179,-0.801,0.0
14.286,0.165,-0.821,0.0
13.32,0.154,-0.844,0.0
20.151,0.231,-0.726,0.0
18.213,0.209,-0.762,0.0
16.535,0.19,-0.789,0.0
15.133,0.174,-0.812,0.0
13.972,0.161,-0.831,0.0
12.941,0.149,-0.846,0.0
19.367,0.222,-0.737,0.0
17.476,0.2,-0.767,0.0
15.866,0.182,-0.789,0.0
14.564,0.167,-0.811,0.0
13.585,0.156,-0.836,0.0
12.535,0.144,-0.844,0.0
18.628,0.212,-0.745,0.0
16.963,0.193,-0.778,0.0
15.405,0.176,-0.796,0.0
14.268,0.163,-0.822,0.0
13.276,0.152,-0.843,0.0
12.247,0.14,-0.85,0.0
17.997,0.203,-0.756,0.0
16.476,0.186,-0.788,0.0
15.082,0.171,-0.81,0.0
13.959,0.158,-0.832,0.0
12.891,0.146,-0.844,0.0
11.868,0.134,-0.847,0.0
17.471,0.195,-0.768,0.0
15.898,0.178,-0.792,0.0
14.609,0.163,-0.813,0.0
13.555,0.151,-0.835,0.0
12.506,0.14,-0.844,0.0
11.597,0.129,-0.85,0.0
16.949,0.187,-0.779,0.0
15.399,0.169,-0.797,0.0
14.205,0.156,-0.819,0.0
13.21,0.145,-0.84,0.0
12.202,0.134,-0.847,0.0
11.382,0.125,-0.857,0.0
16.417,0.177,-0.786,0.0
15.076,0.163,-0.81,0.0
13.895,0.15,-0.828,0.0
12.979,0.14,-0.85,0.0
11.849,0.128,-0.846,0.0
11.245,0.121,-0.868,0.0
15.901,0.168,-0.792,0.0
14.562,0.154,-0.81,0.0
13.593,0.143,-0.836,0.0
12.457,0.131,-0.84,0.0
11.605,0.122,-0.851,0.0
10.97,0.115,-0.868,0.0
15.386,0.158,-0.796,0.0
14.236,0.146,-0.819,0.0
13.166,0.135,-0.835,0.0
12.205,0.125,-0.846,0.0
11.402,0.116,-0.857,0.0
10.728,0.109,-0.87,0.0
15.084,0.151,-0.809,0.0
13.899,0.139,-0.826,0.0
12.985,0.129,-0.848,0.0
11.863,0.118,-0.845,0.0
11.239,0.111,-0.867,0.0
10.534,0.104,-0.874,0.0
14.627,0.141,-0.812,0.0
13.661,0.131,-0.838,0.0
12.476,0.12,-0.838,0.0
11.609,0.111,-0.849,0.0
10.996,0.105,-0.868,0.0
10.382,0.098,-0.881,0.0
14.274,0.132,-0.819,0.0
13.341,0.123,-0.843,0.0
12.24,0.112,-0.845,0.0
11.398,0.104,-0.854,0.0
10.738,0.098,-0.868,0.0
10.221,0.093,-0.886,0.0
13.864,0.123,-0.82,0.0
12.895,0.114,-0.838,0.0
11.924,0.105,-0.845,0.0
11.24,0.098,-0.863,0.0
10.555,0.092,-0.872,0.0
10.081,0.087,-0.892,0.0
13.641,0.115,-0.832,0.0
12.478,0.104,-0.834,0.0
11.65,0.097,-0.846,0.0
11.027,0.091,-0.867,0.0
10.373,0.085,-0.876,0.0
9.925,0.081,-0.896,0.0
13.337,0.106,-0.837,0.0
12.282,0.097,-0.842,0.0
11.441,0.089,-0.851,0.0
10.782,0.084,-0.866,0.0
10.253,0.079,-0.884,0.0
9.748,0.075,-0.898,0.0
13.029,0.097,-0.841,0.0
11.972,0.088,-0.842,0.0
11.308,0.083,-0.861,0.0
10.593,0.077,-0.87,0.0
10.066,0.072,-0.886,0.0
9.612,0.068,-0.902,0.0
12.723,0.087,-0.843,0.0
11.698,0.08,-0.843,0.0
11.061,0.074,-0.862,0.0
10.411,0.069,-0.873,0.0
9.955,0.066,-0.893,0.0
9.407,0.061,-0.899,0.0
12.404,0.078,-0.843,0.0
11.499,0.072,-0.848,0.0
10.839,0.067,-0.863,0.0
10.276,0.062,-0.879,0.0
9.822,0.059,-0.898,0.0
9.316,0.055,-0.906,0.0
12.119,0.069,-0.844,0.0
11.359,0.064,-0.857,0.0
10.71,0.059,-0.871,0.0
10.141,0.055,-0.885,0.0
9.656,0.052,-0.899,0.0
9.219,0.049,-0.912,0.0
11.799,0.059,-0.841,0.0
11.24,0.056,-0.867,0.0
10.519,0.051,-0.872,0.0
9.99,0.048,-0.888,0.0
9.502,0.045,-0.9,0.0
9.075,0.042,-0.913,0.0
11.609,0.051,-0.846,0.0
10.963,0.047,-0.863,0.0
10.357,0.043,-0.876,0.0
9.868,0.04,-0.893,0.0
9.396,0.038,-0.905,0.0
8.975,0.035,-0.917,0.0
11.397,0.042,-0.849,0.0
10.798,0.039,-0.867,0.0
10.25,0.036,-0.883,0.0
9.728,0.033,-0.896,0.0
9.215,0.03,-0.902,0.0
8.836,0.028,-0.917,0.0
11.31,0.033,-0.86,0.0
10.601,0.03,-0.868,0.0
10.11,0.028,-0.887,0.0
9.612,0.026,-0.9,0.0
9.17,0.023,-0.912,0.0
8.761,0.021,-0.923,0.0
11.079,0.024,-0.86,0.0
10.453,0.022,-0.872,0.0
9.961,0.02,-0.889,0.0
0.0,0.0,0.0,0.0
9.051,0.016,-0.914,0.0
8.6,0.014,-0.919,0.0
10.91,0.015,-0.863,0.0
10.312,0.013,-0.875,0.0
9.82,0.012,-0.891,0.0
9.344,0.01,-0.903,0.0
8.852,0.009,-0.907,0.0
8.505,0.007,-0.922,0.0
10.753,0.006,-0.866,0.0
10.219,0.005,-0.883,0.0
9.722,0.004,-0.896,0.0
9.238,0.002,-0.906,0.0
8.79,0.001,-0.914,0.0
8.412,0.0,-0.924,0.0
10.582,-0.002,-0.868,0.0
10.105,-0.003,-0.887,0.0
9.617,-0.004,-0.9,0.0
9.13,-0.005,-0.909,0.0
8.724,-0.005,-0.919,0.0
8.326,-0.006,-0.926,0.0
10.467,-0.011,-0.873,0.0
9.95,-0.011,-0.887,0.0
9.439,-0.012,-0.897,0.0
9.037,-0.012,-0.912,0.0
8.614,-0.013,-0.92,0.0
8.216,-0.013,-0.925,0.0
10.33,-0.02,-0.876,0.0
9.833,-0.02,-0.89,0.0
9.344,-0.02,-0.9,0.0
0.0,0.0,0.0,0.0
8.507,-0.02,-0.92,0.0
8.12,-0.02,-0.925,0.0
10.232,-0.029,-0.881,0.0
9.736,-0.029,-0.894,0.0
9.269,-0.028,-0.905,0.0
8.87,-0.028,-0.919,0.0
8.439,-0.028,-0.923,0.0
8.075,-0.028,-0.931,0.0
10.138,-0.038,-0.886,0.0
9.646,-0.038,-0.899,0.0
9.166,-0.037,-0.907,0.0
0.0,0.0,0.0,0.0
8.377,-0.036,-0.927,0.0
7.965,-0.035,-0.928,0.0
9.998,-0.047,-0.886,0.0
9.533,-0.046,-0.9,0.0
9.001,-0.045,-0.902,0.0
0.0,0.0,0.0,0.0
8.298,-0.044,-0.929,0.0
7.92,-0.043,-0.933,0.0
9.901,-0.056,-0.889,0.0
9.451,-0.055,-0.904,0.0
9.027,-0.054,-0.915,0.0
8.564,-0.052,-0.919,0.0
8.21,-0.051,-0.929,0.0
7.854,-0.05,-0.934,0.0
9.804,-0.065,-0.892,0.0
9.341,-0.064,-0.904,0.0
8.899,-0.062,-0.913,0.0
8.431,-0.06,-0.914,0.0
8.108,-0.059,-0.927,0.0
7.801,-0.058,-0.937,0.0
9.724,-0.075,-0.896,0.0
9.28,-0.073,-0.908,0.0
8.82,-0.07,-0.914,0.0
8.423,-0.068,-0.923,0.0
8.074,-0.067,-0.932,0.0
7.737,-0.065,-0.938,0.0
9.616,-0.084,-0.896,0.0
9.139,-0.081,-0.905,0.0
8.715,-0.079,-0.913,0.0
8.33,-0.076,-0.922,0.0
8.018,-0.075,-0.934,0.0
7.692,-0.073,-0.941,0.0
9.543,-0.093,-0.899,0.0
9.077,-0.09,-0.908,0.0
8.654,-0.087,-0.916,0.0
8.291,-0.085,-0.926,0.0
7.951,-0.083,-0.934,0.0
7.572,-0.08,-0.934,0.0
9.436,-0.102,-0.899,0.0
8.955,-0.098,-0.905,0.0
8.6,-0.096,-0.919,0.0
8.198,-0.093,-0.924,0.0
7.873,-0.09,-0.933,0.0
7.551,-0.088,-0.939,0.0
9.386,-0.112,-0.903,0.0
8.976,-0.108,-0.916,0.0
8.512,-0.104,-0.917,0.0
8.095,-0.1,-0.92,0.0
7.803,-0.098,-0.932,0.0
7.474,-0.095,-0.936,0.0
9.302,-0.121,-0.904,0.0
8.883,-0.117,-0.914,0.0
8.426,-0.112,-0.916,0.0
8.128,-0.11,-0.931,0.0
7.779,-0.107,-0.936,0.0
7.463,-0.104,-0.942,0.0
9.237,-0.13,-0.906,0.0
8.805,-0.126,-0.914,0.0
8.4,-0.122,-0.92,0.0
8.054,-0.118,-0.93,0.0
7.758,-0.115,-0.941,0.0
7.385,-0.111,-0.938,0.0
9.152,-0.139,-0.905,0.0
8.731,-0.135,-0.914,0.0
8.384,-0.131,-0.926,0.0
7.959,-0.126,-0.925,0.0
7.685,-0.123,-0.938,0.0
7.398,-0.119,-0.946,0.0
9.107,-0.149,-0.908,0.0
8.669,-0.143,-0.914,0.0
8.284,-0.139,-0.921,0.0
7.965,-0.135,-0.932,0.0
7.622,-0.13,-0.936,0.0
7.32,-0.127,-0.942,0.0
9.051,-0.159,-0.909,0.0
8.659,-0.153,-0.919,0.0
8.237,-0.147,-0.922,0.0
0.0,0.0,0.0,0.0
7.632,-0.139,-0.943,0.0
7.361,-0.136,-0.952,0.0
8.956,-0.167,-0.906,0.0
8.578,-0.162,-0.917,0.0
8.217,-0.156,-0.925,0.0
0.0,0.0,0.0,0.0
7.566,-0.147,-0.94,0.0
7.268,-0.143,-0.945,0.0
8.928,-0.177,-0.909,0.0
8.532,-0.171,-0.918,0.0
8.159,-0.165,-0.924,0.0
0.0,0.0,0.0,0.0
7.486,-0.154,-0.935,0.0
7.25,-0.151,-0.947,0.0
8.908,-0.187,-0.912,0.0
8.509,-0.18,-0.92,0.0
8.134,-0.174,-0.926,0.0
0.0,0.0,0.0,0.0
7.518,-0.164,-0.943,0.0
7.211,-0.159,-0.947,0.0
8.856,-0.197,-0.912,0.0
8.45,-0.189,-0.919,0.0
8.096,-0.183,-0.927,0.0
0.0,0.0,0.0,0.0
7.499,-0.172,-0.945,0.0
7.226,-0.167,-0.952,0.0
8.82,-0.206,-0.913,0.0
8.446,-0.199,-0.923,0.0
8.102,-0.192,-0.931,0.0
0.0,0.0,0.0,0.0
7.411,-0.179,-0.938,0.0
7.184,-0.175,-0.95,0.0
8.793,-0.216,-0.915,0.0
8.387,-0.208,-0.92,0.0
8.02,-0.2,-0.926,0.0
0.0,0.0,0.0,0.0
7.393,-0.188,-0.939,0.0
7.172,-0.183,-0.952,0.0
8.787,-0.226,-0.918,0.0
8.356,-0.217,-0.921,0.0
8.011,-0.21,-0.928,0.0
0.0,0.0,0.0,0.0
7.376,-0.196,-0.94,0.0
7.156,-0.192,-0.953,0.0
8.753,-0.236,-0.918,0.0
8.344,-0.227,-0.923,0.0
7.98,-0.218,-0.928,0.0
0.0,0.0,0.0,0.0
7.319,-0.203,-0.935,0.0
7.094,-0.199,-0.947,0.0
8.691,-0.245,-0.914,0.0
8.365,-0.237,-0.928,0.0
7.978,-0.228,-0.93,0.0
0.0,0.0,0.0,0.0
7.355,-0.213,-0.942,0.0
7.051,-0.206,-0.944,0.0
8.681,-0.255,-0.916,0.0
8.305,-0.245,-0.924,0.0
7.974,-0.237,-0.932,0.0
0.0,0.0,0.0,0.0
7.307,-0.221,-0.938,0.0
7.096,-0.216,-0.952,0.0
8.672,-0.265,-0.917,0.0
8.36,-0.257,-0.932,0.0
7.94,-0.246,-0.93,0.0
0.0,0.0,0.0,0.0
0.0,0.0,0.0,0.0
7.054,-0.223,-0.948,0.0
8.653,-0.274,-0.917,0.0
8.254,-0.264,-0.922,0.0
7.936,-0.255,-0.931,0.0
0.0,0.0,0.0,0.0
7.332,-0.239,-0.944,0.0
7.071,-0.232,-0.951,0.0
8.638,-0.284,-0.917,0.0
8.249,-0.273,-0.922,0.0
7.934,-0.264,-0.932,0.0
7.627,-0.256,-0.94,0.0
7.264,-0.245,-0.937,0.0
7.033,-0.239,-0.947,0.0
8.597,-0.293,-0.914,0.0
8.279,-0.284,-0.927,0.0
7.922,-0.273,-0.931,0.0
7.597,-0.264,-0.937,0.0
0.0,0.0,0.0,0.0
7.038,-0.248,-0.948,0.0
8.655,-0.305,-0.921,0.0
8.266,-0.293,-0.926,0.0
7.942,-0.284,-0.934,0.0
7.603,-0.273,-0.938,0.0
7.34,-0.265,-0.947,0.0
7.061,-0.257,-0.952,0.0
8.615,-0.314,-0.917,0.0
8.253,-0.303,-0.924,0.0
7.923,-0.292,-0.932,0.0
7.604,-0.282,-0.938,0.0
7.3,-0.272,-0.942,0.0
7.042,-0.264,-0.949,0.0
8.618,-0.324,-0.917,0.0
8.279,-0.313,-0.927,0.0
7.903,-0.301,-0.93,0.0
0.0,0.0,0.0,0.0
7.299,-0.281,-0.942,0.0
7.057,-0.273,-0.951,0.0
8.663,-0.336,-0.921,0.0
8.251,-0.322,-0.923,0.0
7.964,-0.312,-0.936,0.0
7.611,-0.3,-0.938,0.0
7.327,-0.291,-0.945,0.0
7.061,-0.282,-0.95,0.0
8.66,-0.346,-0.92,0.0
8.25,-0.331,-0.922,0.0
7.965,-0.321,-0.935,0.0
7.582,-0.308,-0.934,0.0
7.247,-0.296,-0.933,0.0
7.098,-0.291,-0.954,0.0
8.684,-0.357,-0.921,0.0
8.25,-0.341,-0.921,0.0
7.943,-0.33,-0.931,0.0
0.0,0.0,0.0,0.0
7.329,-0.307,-0.942,0.0
7.04,-0.297,-0.945,0.0
8.697,-0.367,-0.92,0.0
8.272,-0.351,-0.922,0.0
7.935,-0.338,-0.929,0.0
0.0,0.0,0.0,0.0
7.33,-0.316,-0.941,0.0
7.062,-0.306,-0.946,0.0
8.716,-0.377,-0.92,0.0
8.302,-0.361,-0.923,0.0
7.987,-0.349,-0.933,0.0
0.0,0.0,0.0,0.0
7.388,-0.326,-0.946,0.0
7.093,-0.315,-0.949,0.0
8.751,-0.388,-0.922,0.0
8.361,-0.373,-0.927,0.0
7.995,-0.359,-0.931,0.0
0.0,0.0,0.0,0.0
7.353,-0.333,-0.94,0.0
7.079,-0.322,-0.944,0.0
8.74,-0.398,-0.918,0.0
8.391,-0.383,-0.928,0.0
8.015,-0.368,-0.931,0.0
0.0,0.0,0.0,0.0
7.407,-0.343,-0.944,0.0
7.14,-0.332,-0.95,0.0
8.799,-0.41,-0.92,0.0
8.348,-0.39,-0.92,0.0
8.047,-0.378,-0.931,0.0
0.0,0.0,0.0,0.0
7.45,-0.353,-0.946,0.0
7.138,-0.34,-0.947,0.0
8.767,-0.417,-0.914,0.0
8.366,-0.4,-0.918,0.0
8.075,-0.388,-0.931,0.0
0.0,0.0,0.0,0.0
7.435,-0.36,-0.941,0.0
0.0,0.0,0.0,0.0
8.813,-0.429,-0.914,0.0
8.424,-0.411,-0.921,0.0
8.094,-0.397,-0.929,0.0
0.0,0.0,0.0,0.0
7.519,-0.372,-0.948,0.0
7.212,-0.358,-0.949,0.0
8.854,-0.44,-0.914,0.0
8.479,-0.423,-0.922,0.0
8.104,-0.406,-0.926,0.0
0.0,0.0,0.0,0.0
7.5,-0.379,-0.941,0.0
7.243,-0.367,-0.95,0.0
8.851,-0.448,-0.909,0.0
8.449,-0.43,-0.914,0.0
8.197,-0.419,-0.932,0.0
0.0,0.0,0.0,0.0
7.538,-0.388,-0.942,0.0
7.295,-0.377,-0.952,0.0
8.874,-0.458,-0.906,0.0
8.545,-0.443,-0.92,0.0
8.201,-0.427,-0.928,0.0
7.862,-0.411,-0.934,0.0
7.524,-0.395,-0.935,0.0
7.269,-0.383,-0.944,0.0
9.028,-0.475,-0.916,0.0
8.646,-0.456,-0.925,0.0
8.249,-0.437,-0.928,0.0
7.901,-0.42,-0.933,0.0
7.605,-0.406,-0.94,0.0
7.322,-0.392,-0.946,0.0
9.038,-0.484,-0.911,0.0
8.678,-0.466,-0.922,0.0
8.271,-0.446,-0.925,0.0
7.939,-0.43,-0.932,0.0
7.656,-0.416,-0.941,0.0
7.36,-0.401,-0.946,0.0
9.091,-0.495,-0.91,0.0
8.728,-0.477,-0.922,0.0
8.336,-0.457,-0.926,0.0
8.008,-0.44,-0.934,0.0
7.663,-0.423,-0.936,0.0
7.431,-0.412,-0.949,0.0
9.127,-0.505,-0.907,0.0
8.792,-0.488,-0.922,0.0
8.354,-0.465,-0.922,0.0
8.01,-0.448,-0.929,0.0
0.0,0.0,0.0,0.0
7.438,-0.419,-0.944,0.0
9.188,-0.516,-0.906,0.0
8.829,-0.498,-0.918,0.0
8.416,-0.476,-0.922,0.0
8.065,-0.458,-0.928,0.0
7.745,-0.441,-0.934,0.0
7.462,-0.426,-0.941,0.0
9.294,-0.53,-0.908,0.0
8.904,-0.509,-0.919,0.0
8.481,-0.487,-0.922,0.0
8.127,-0.468,-0.929,0.0
7.823,-0.452,-0.937,0.0
7.561,-0.438,-0.947,0.0
9.337,-0.54,-0.905,0.0
8.927,-0.518,-0.914,0.0
8.536,-0.497,-0.92,0.0
8.208,-0.479,-0.93,0.0
7.925,-0.464,-0.942,0.0
7.557,-0.444,-0.94,0.0
9.387,-0.55,-0.901,0.0
8.98,-0.528,-0.911,0.0
8.647,-0.51,-0.924,0.0
8.242,-0.487,-0.927,0.0
7.951,-0.471,-0.938,0.0
7.619,-0.453,-0.94,0.0
9.488,-0.563,-0.902,0.0
9.114,-0.542,-0.916,0.0
8.715,-0.52,-0.923,0.0
8.321,-0.498,-0.928,0.0
7.982,-0.479,-0.933,0.0
7.707,-0.464,-0.943,0.0
9.592,-0.576,-0.902,0.0
9.174,-0.553,-0.913,0.0
0.0,0.0,0.0,0.0
8.332,-0.504,-0.921,0.0
8.05,-0.489,-0.933,0.0
7.744,-0.472,-0.94,0.0
9.674,-0.588,-0.9,0.0
9.236,-0.563,-0.91,0.0
8.851,-0.541,-0.92,0.0
0.0,0.0,0.0,0.0
8.103,-0.497,-0.931,0.0
7.809,-0.481,-0.94,0.0
9.747,-0.599,-0.897,0.0
9.345,-0.575,-0.911,0.0
8.9,-0.549,-0.916,0.0
8.515,-0.527,-0.923,0.0
8.168,-0.507,-0.93,0.0
7.848,-0.488,-0.936,0.0
9.84,-0.61,-0.895,0.0
9.398,-0.584,-0.906,0.0
9.002,-0.561,-0.916,0.0
0.0,0.0,0.0,0.0
8.235,-0.516,-0.928,0.0
7.916,-0.497,-0.935,0.0
9.928,-0.622,-0.892,0.0
9.522,-0.598,-0.907,0.0
9.083,-0.571,-0.914,0.0
0.0,0.0,0.0,0.0
8.332,-0.527,-0.93,0.0
8.004,-0.507,-0.937,0.0
10.079,-0.637,-0.894,0.0
9.593,-0.608,-0.903,0.0
9.165,-0.582,-0.912,0.0
0.0,0.0,0.0,0.0
8.401,-0.536,-0.928,0.0
8.083,-0.517,-0.936,0.0
10.161,-0.648,-0.89,0.0
9.667,-0.617,-0.898,0.0
9.236,-0.591,-0.908,0.0
8.811,-0.565,-0.915,0.0
8.531,-0.548,-0.932,0.0
8.156,-0.525,-0.935,0.0
10.289,-0.661,-0.889,0.0
9.792,-0.63,-0.898,0.0
9.322,-0.601,-0.905,0.0
9.002,-0.582,-0.924,0.0
8.593,-0.556,-0.928,0.0
8.202,-0.532,-0.93,0.0
10.386,-0.672,-0.884,0.0
9.88,-0.64,-0.894,0.0
9.467,-0.615,-0.908,0.0
9.025,-0.587,-0.915,0.0
8.663,-0.565,-0.924,0.0
8.274,-0.54,-0.928,0.0
10.532,-0.686,-0.884,0.0
10.013,-0.653,-0.893,0.0
9.58,-0.626,-0.906,0.0
9.108,-0.596,-0.911,0.0
8.749,-0.574,-0.923,0.0
8.34,-0.548,-0.924,0.0
10.673,-0.699,-0.882,0.0
10.131,-0.665,-0.891,0.0
9.636,-0.633,-0.899,0.0
9.217,-0.607,-0.91,0.0
8.812,-0.581,-0.917,0.0
8.504,-0.562,-0.931,0.0
10.818,-0.713,-0.879,0.0
10.268,-0.677,-0.889,0.0
9.797,-0.647,-0.901,0.0
9.367,-0.62,-0.912,0.0
9.002,-0.596,-0.925,0.0
8.566,-0.568,-0.926,0.0
10.966,-0.726,-0.877,0.0
10.39,-0.688,-0.886,0.0
9.901,-0.657,-0.897,0.0
9.49,-0.631,-0.912,0.0
9.01,-0.6,-0.914,0.0
8.667,-0.578,-0.925,0.0
11.094,-0.737,-0.872,0.0
10.553,-0.702,-0.886,0.0
9.997,-0.666,-0.892,0.0
9.558,-0.638,-0.905,0.0
9.113,-0.609,-0.911,0.0
8.78,-0.587,-0.925,0.0
11.257,-0.751,-0.869,0.0
10.694,-0.714,-0.883,0.0
10.161,-0.679,-0.893,0.0
9.674,-0.647,-0.902,0.0
9.238,-0.619,-0.911,0.0
8.835,-0.593,-0.919,0.0
11.437,-0.765,-0.867,0.0
10.856,-0.727,-0.881,0.0
10.292,-0.69,-0.89,0.0
9.806,-0.658,-0.901,0.0
9.373,-0.63,-0.911,0.0
8.991,-0.605,-0.922,0.0
11.639,-0.78,-0.866,0.0
10.991,-0.738,-0.876,0.0
10.427,-0.7,-0.886,0.0
9.872,-0.664,-0.893,0.0
9.491,-0.639,-0.909,0.0
9.055,-0.61,-0.915,0.0
11.83,-0.795,-0.863,0.0
11.148,-0.749,-0.872,0.0
10.605,-0.713,-0.886,0.0
10.077,-0.678,-0.896,0.0
9.65,-0.65,-0.91,0.0
9.189,-0.62,-0.915,0.0
12.046,-0.81,-0.861,0.0
11.33,-0.762,-0.87,0.0
10.802,-0.727,-0.886,0.0
10.217,-0.689,-0.894,0.0
9.751,-0.658,-0.905,0.0
9.3,-0.628,-0.912,0.0
12.206,-0.821,-0.854,0.0
11.514,-0.775,-0.867,0.0
10.899,-0.734,-0.878,0.0
10.332,-0.696,-0.888,0.0
9.858,-0.665,-0.9,0.0
9.362,-0.632,-0.904,0.0
12.473,-0.839,-0.854,0.0
11.738,-0.79,-0.866,0.0
11.066,-0.745,-0.875,0.0
10.495,-0.707,-0.886,0.0
9.982,-0.673,-0.896,0.0
9.568,-0.645,-0.909,0.0
19.994,-1.345,-1.339,0.0
11.951,-0.804,-0.863,0.0
11.253,-0.757,-0.872,0.0
10.689,-0.72,-0.886,0.0
10.162,-0.684,-0.896,0.0
9.684,-0.652,-0.906,0.0
20.012,-1.345,-1.31,0.0
12.155,-0.817,-0.859,0.0
11.413,-0.767,-0.867,0.0
10.865,-0.73,-0.884,0.0
10.31,-0.693,-0.893,0.0
9.818,-0.66,-0.902,0.0
13.308,-0.892,-0.85,0.0
12.366,-0.829,-0.855,0.0
11.649,-0.781,-0.867,0.0
11.0,-0.738,-0.878,0.0
10.444,-0.701,-0.888,0.0
9.933,-0.666,-0.897,0.0
13.521,-0.904,-0.843,0.0
20.053,-1.341,-1.355,0.0
11.859,-0.793,-0.864,0.0
11.181,-0.748,-0.874,0.0
10.625,-0.711,-0.887,0.0
10.127,-0.677,-0.899,0.0
13.753,-0.917,-0.835,0.0
19.988,-1.333,-1.319,0.0
12.08,-0.805,-0.861,0.0
11.364,-0.757,-0.871,0.0
10.836,-0.722,-0.887,0.0
10.265,-0.684,-0.895,0.0
14.134,-0.939,-0.836,0.0
13.189,-0.876,-0.849,0.0
12.326,-0.818,-0.858,0.0
11.568,-0.768,-0.868,0.0
10.99,-0.729,-0.882,0.0
10.434,-0.692,-0.893,0.0
14.381,-0.951,-0.828,0.0
13.464,-0.89,-0.845,0.0
12.536,-0.828,-0.853,0.0
11.818,-0.781,-0.867,0.0
11.151,-0.736,-0.877,0.0
10.581,-0.698,-0.888,0.0
14.677,-0.966,-0.821,0.0
13.733,-0.903,-0.84,0.0
12.916,-0.849,-0.858,0.0
12.039,-0.791,-0.864,0.0
11.329,-0.744,-0.873,0.0
10.791,-0.708,-0.888,0.0
15.051,-0.985,-0.818,0.0
14.07,-0.92,-0.838,0.0
13.171,-0.861,-0.854,0.0
12.247,-0.8,-0.859,0.0
11.55,-0.754,-0.871,0.0
10.949,-0.714,-0.883,0.0
15.383,-1.0,-0.811,0.0
14.337,-0.931,-0.831,0.0
13.471,-0.874,-0.851,0.0
12.454,-0.808,-0.854,0.0
11.739,-0.761,-0.866,0.0
11.094,-0.718,-0.877,0.0
20.073,-1.296,-1.026,0.0
14.621,-0.943,-0.823,0.0
13.711,-0.883,-0.844,0.0
19.986,-1.287,-1.337,0.0
12.005,-0.772,-0.866,0.0
11.287,-0.725,-0.874,0.0
20.084,-1.287,-0.993,0.0
15.04,-0.962,-0.822,0.0
13.926,-0.89,-0.834,0.0
13.122,-0.837,-0.856,0.0
12.235,-0.78,-0.863,0.0
11.504,-0.733,-0.871,0.0
20.128,-1.278,-0.963,0.0
15.323,-0.972,-0.813,0.0
14.33,-0.908,-0.835,0.0
13.373,-0.846,-0.851,0.0
12.469,-0.788,-0.858,0.0
11.715,-0.739,-0.868,0.0
20.128,-1.266,-0.929,0.0
16.022,-1.007,-0.824,0.0
14.657,-0.919,-0.83,0.0
13.675,-0.857,-0.847,0.0
20.059,-1.255,-1.348,0.0
11.963,-0.747,-0.867,0.0
17.527,-1.092,-0.781,0.0
16.166,-1.005,-0.804,0.0
14.959,-0.929,-0.822,0.0
13.889,-0.861,-0.838,0.0
20.059,-1.242,-1.315,0.0
12.192,-0.753,-0.863,0.0
18.029,-1.111,-0.773,0.0
16.56,-1.018,-0.797,0.0
15.282,-0.938,-0.815,0.0
14.187,-0.869,-0.832,0.0
13.273,-0.812,-0.848,0.0
12.442,-0.76,-0.861,0.0
19.86,-1.21,-0.819,0.0
16.984,-1.032,-0.789,0.0
15.693,-0.952,-0.811,0.0
14.534,-0.88,-0.829,0.0
13.59,-0.821,-0.846,0.0
20.003,-1.207,-1.351,0.0
19.881,-1.196,-0.788,1.0
17.503,-1.051,-0.785,0.0
20.017,-1.199,-1.002,0.0
14.925,-0.892,-0.827,0.0
13.854,-0.826,-0.84,0.0
19.991,-1.191,-1.317,0.0
19.946,-1.184,-0.758,10.0
18.03,-1.068,-0.779,0.0
16.556,-0.978,-0.802,0.0
15.193,-0.896,-0.817,0.0
14.195,-0.835,-0.838,0.0
13.32,-0.782,-0.856,0.0
19.956,-1.168,-0.726,6.0
18.345,-1.071,-0.763,0.0
16.973,-0.988,-0.795,0.0
15.673,-0.911,-0.817,0.0
14.474,-0.839,-0.83,0.0
13.57,-0.785,-0.85,0.0
19.981,-1.152,-0.695,0.0
19.062,-1.096,-0.762,0.0
17.365,-0.996,-0.785,0.0
16.045,-0.918,-0.811,0.0
14.845,-0.847,-0.828,0.0
13.832,-0.787,-0.844,0.0
21.624,-1.227,-0.717,0.0
19.848,-1.123,-0.761,1.0
17.774,-1.003,-0.775,0.0
16.406,-0.923,-0.802,0.0
15.094,-0.847,-0.817,0.0
14.188,-0.794,-0.842,0.0
0.0,0.0,0.0,0.0
19.909,-1.107,-0.731,2.0
18.481,-1.024,-0.776,0.0
16.782,-0.928,-0.794,0.0
15.595,-0.86,-0.819,0.0
14.439,-0.793,-0.834,0.0
0.0,0.0,0.0,0.0
41.516,-1.387,-0.472,1.0
34.633,-1.148,-0.576,0.0
0.0,0.0,0.0,0.0
24.775,-0.807,-0.675,0.0
21.934,-0.709,-0.714,12.0
0.0,0.0,0.0,0.0
43.953,-1.398,-0.442,0.0
35.079,-1.106,-0.537,0.0
30.102,-0.941,-0.623,0.0
21.878,-0.678,-0.568,1.0
21.936,-0.673,-0.685,2.0
0.0,0.0,0.0,0.0
47.688,-1.439,-0.418,0.0
37.829,-1.131,-0.531,0.0
0.0,0.0,0.0,0.0
21.908,-0.642,-0.541,152.0
21.884,-0.635,-0.656,63.0
0.0,0.0,0.0,0.0
48.005,-1.369,-0.36,0.0
0.0,0.0,0.0,0.0
0.0,0.0,0.0,0.0
21.867,-0.604,-0.512,160.0
21.9,-0.599,-0.629,153.0
0.0,0.0,0.0,0.0
50.926,-1.366,-0.318,0.0
41.151,-1.091,-0.474,0.0
34.463,-0.904,-0.583,0.0
21.915,-0.568,-0.487,6.0
21.903,-0.561,-0.602,152.0
0.0,0.0,0.0,0.0
0.0,0.0,0.0,0.0
43.653,-1.083,-0.45,2.0
34.864,-0.854,-0.548,0.0
30.23,-0.732,-0.635,0.0
18.135,-0.433,-0.477,0.0
0.0,0.0,0.0,0.0
0.0,0.0,0.0,0.0
0.0,0.0,0.0,0.0
0.0,0.0,0.0,0.0
30.355,-0.682,-0.602,0.0
26.558,-0.588,-0.667,0.0
0.0,0.0,0.0,0.0
0.0,0.0,0.0,0.0
46.624,-0.992,-0.372,0.0
38.145,-0.8,-0.511,0.0
0.0,0.0,0.0,0.0
27.421,-0.558,-0.658,0.0
0.0,0.0,0.0,0.0
0.0,0.0,0.0,0.0
50.292,-0.98,-0.345,0.0
0.0,0.0,0.0,0.0
33.723,-0.636,-0.593,0.0
28.638,-0.531,-0.656,0.0
138.842,-2.541,0.671,4.0
0.0,0.0,0.0,0.0
0.0,0.0,0.0,0.0
41.44,-0.719,-0.464,0.0
34.707,-0.592,-0.573,0.0
0.0,0.0,0.0,0.0
139.054,-2.29,0.822,9.0
0.0,0.0,0.0,0.0
0.0,0.0,0.0,0.0
0.0,0.0,0.0,0.0
35.276,-0.536,-0.545,0.0
29.665,-0.441,-0.616,0.0
138.856,-2.028,0.966,23.0
0.0,0.0,0.0,0.0
0.0,0.0,0.0,0.0
46.77,-0.638,-0.426,0.0
0.0,0.0,0.0,0.0
30.883,-0.402,-0.61,0.0
139.208,-1.773,1.108,23.0
0.0,0.0,0.0,0.0
0.0,0.0,0.0,0.0
46.916,-0.551,-0.38,0.0
37.69,-0.431,-0.506,0.0
33.122,-0.367,-0.622,0.0
119.764,-1.297,1.072,85.0
0.0,0.0,0.0,0.0
0.0,0.0,0.0,0.0
50.628,-0.498,-0.361,0.0
40.849,-0.389,-0.51,0.0
33.031,-0.303,-0.588,0.0
119.663,-1.063,1.186,17.0
114.045,-0.978,0.52,2.0
0.0,0.0,0.0,0.0
51.175,-0.405,-0.318,1.0
0.0,0.0,0.0,0.0
34.159,-0.248,-0.577,0.0
119.692,-0.833,1.295,16.0
110.963,-0.737,0.607,7.0
0.0,0.0,0.0,0.0
0.0,0.0,0.0,0.0
0.0,0.0,0.0,0.0
34.854,-0.185,-0.558,0.0
119.695,-0.599,1.401,13.0
111.155,-0.519,0.706,3.0
0.0,0.0,0.0,0.0
0.0,0.0,0.0,0.0
45.133,-0.165,-0.442,1.0
35.703,-0.119,-0.541,0.0
119.731,-0.362,1.504,11.0
114.478,-0.307,0.825,102.0
0.0,0.0,0.0,0.0
0.0,0.0,0.0,0.0
45.491,-0.076,-0.408,2.0
36.729,-0.049,-0.526,0.0
117.363,-0.121,1.57,12.0
117.261,-0.082,0.939,6.0
97.079,-0.035,0.256,1.0
0.0,0.0,0.0,0.0
45.829,0.013,-0.375,1.0
0.0,0.0,0.0,0.0
111.092,0.109,1.574,21.0
111.164,0.146,0.978,10.0
93.444,0.154,0.319,3.0
51.02,0.101,-0.104,1.0
49.584,0.115,-0.368,0.0
40.71,0.108,-0.521,0.0
119.881,0.36,1.788,150.0
111.109,0.37,1.059,11.0
94.754,0.348,0.393,2.0
0.0,0.0,0.0,0.0
49.53,0.215,-0.332,0.0
42.932,0.201,-0.519,0.0
111.089,0.558,1.736,32.0
111.071,0.596,1.137,24.0
97.094,0.554,0.471,4.0
0.0,0.0,0.0,0.0
52.598,0.335,-0.317,0.0
42.708,0.286,-0.487,0.0
104.851,0.743,1.71,12.0
101.455,0.751,1.106,2.0
98.096,0.76,0.541,11.0
0.0,0.0,0.0,0.0
51.687,0.435,-0.277,0.0
42.833,0.375,-0.461,1.0
99.993,0.914,1.695,4.0
98.671,0.935,1.139,25.0
98.208,0.964,0.603,12.0
81.028,0.823,0.052,3.0
0.0,0.0,0.0,0.0
42.435,0.459,-0.431,0.0
98.539,1.105,1.73,31.0
98.532,1.137,1.196,30.0
98.221,1.167,0.661,10.0
78.836,0.964,0.097,4.0
53.266,0.67,-0.222,0.0
44.006,0.567,-0.422,1.0
98.584,1.309,1.786,32.0
98.563,1.343,1.252,30.0
98.562,1.375,0.718,12.0
77.443,1.107,0.137,1.0
56.181,0.822,-0.204,0.0
46.945,0.702,-0.425,0.0
91.984,1.413,1.715,20.0
91.933,1.443,1.216,39.0
91.848,1.473,0.717,27.0
78.013,1.277,0.178,8.0
0.0,0.0,0.0,0.0
46.327,0.79,-0.396,1.0
91.861,1.604,1.759,36.0
91.834,1.633,1.259,11.0
91.87,1.665,0.761,21.0
77.828,1.435,0.214,5.0
0.0,0.0,0.0,0.0
46.798,0.895,-0.379,0.0
87.216,1.705,1.709,39.0
85.471,1.698,1.21,9.0
85.354,1.725,0.744,30.0
77.698,1.596,0.247,5.0
0.0,0.0,0.0,0.0
47.239,1.001,-0.363,0.0
85.265,1.844,1.706,33.0
85.241,1.873,1.242,38.0
85.229,1.9,0.777,30.0
72.115,1.631,0.258,7.0
67.603,1.552,-0.125,7.0
0.0,0.0,0.0,0.0
85.267,2.022,1.739,30.0
85.277,2.05,1.274,30.0
85.188,2.075,0.808,24.0
72.11,1.78,0.283,7.0
65.95,1.65,-0.1,6.0
48.028,1.217,-0.334,0.0
78.94,2.035,1.636,28.0
78.907,2.059,1.205,35.0
78.799,2.083,0.773,17.0
72.091,1.93,0.306,11.0
64.657,1.753,-0.077,4.0
0.0,0.0,0.0,0.0
44.745,2.376,5.751,2.0
41.534,2.212,5.101,34.0
41.778,2.231,4.893,33.0
41.268,2.21,4.595,17.0
40.739,2.188,4.305,41.0
45.571,2.455,4.558,19.0
50.878,2.761,6.529,6.0
41.88,2.279,5.135,31.0
41.697,2.275,4.875,40.0
40.93,2.239,4.549,29.0
40.728,2.234,4.295,43.0
45.955,2.528,4.586,3.0
44.733,2.479,5.731,3.0
41.999,2.334,5.14,10.0
41.739,2.325,4.87,36.0
40.886,2.283,4.534,16.0
40.759,2.282,4.288,37.0
45.98,2.581,4.577,15.0
44.716,2.528,5.716,5.0
41.56,2.355,5.075,34.0
41.768,2.373,4.862,33.0
40.905,2.33,4.524,2.0
40.783,2.329,4.279,28.0
45.646,2.613,4.53,20.0
44.72,2.578,5.703,7.0
41.537,2.4,5.059,24.0
41.737,2.417,4.845,34.0
41.57,2.413,4.584,16.0
40.871,2.378,4.274,23.0
44.889,2.618,4.44,24.0
44.742,2.628,5.69,9.0
41.442,2.44,5.032,40.0
41.818,2.467,4.839,39.0
63.113,3.732,6.936,11.0
40.84,2.42,4.256,36.0
44.775,2.659,4.411,22.0
44.809,2.68,5.68,13.0
41.479,2.486,5.02,39.0
41.593,2.498,4.796,42.0
63.093,3.798,6.908,8.0
40.844,2.463,4.239,6.0
44.754,2.705,4.39,37.0
44.837,2.729,5.664,13.0
41.579,2.536,5.014,38.0
41.624,2.543,4.78,37.0
46.66,2.857,5.087,7.0
52.325,3.211,5.406,14.0
45.047,2.769,4.398,29.0
44.86,2.777,5.645,8.0
41.756,2.589,5.015,32.0
41.61,2.585,4.758,35.0
52.252,3.253,5.671,14.0
52.286,3.261,5.376,42.0
52.31,3.268,5.08,8.0
41.82,2.631,5.241,14.0
41.677,2.627,4.983,39.0
52.178,3.294,5.939,5.0
52.227,3.303,5.64,12.0
52.281,3.313,5.347,26.0
52.309,3.32,5.051,10.0
41.62,2.66,5.192,39.0
41.581,2.661,4.948,38.0
41.787,2.679,4.732,16.0
52.258,3.356,5.613,13.0
42.422,2.729,4.313,1.0
45.764,2.949,4.392,4.0
41.819,2.713,5.191,36.0
41.492,2.696,4.911,39.0
41.814,2.721,4.709,31.0
46.582,3.036,4.974,14.0
42.282,2.761,4.272,25.0
45.556,2.979,4.343,15.0
41.881,2.757,5.172,38.0
41.525,2.737,4.888,33.0
41.796,2.759,4.679,14.0
46.584,3.08,4.943,8.0
42.228,2.796,4.239,32.0
45.162,2.995,4.275,8.0
41.543,2.772,5.101,13.0
41.596,2.78,4.868,36.0
62.436,4.178,6.947,12.0
46.526,3.118,4.904,11.0
42.058,2.822,4.192,34.0
42.015,2.824,3.947,17.0
41.461,2.804,5.061,40.0
41.529,2.811,4.83,45.0
62.5,4.237,6.908,8.0
46.478,3.155,4.865,13.0
41.974,2.853,4.153,31.0
42.095,2.865,3.924,29.0
41.51,2.843,5.035,24.0
41.575,2.851,4.803,39.0
53.199,3.652,5.839,10.0
46.46,3.193,4.827,12.0
42.151,2.901,4.137,31.0
42.003,2.894,3.882,34.0
41.585,2.882,5.011,25.0
41.599,2.887,4.772,42.0
42.069,2.922,4.583,28.0
46.413,3.227,4.785,4.0
41.43,2.885,4.033,37.0
45.147,3.147,4.136,3.0
41.568,2.915,4.974,14.0
41.634,2.922,4.741,45.0
52.979,3.723,5.727,13.0
41.877,2.946,4.281,12.0
41.444,2.918,3.999,25.0
41.77,2.944,3.79,17.0
41.583,2.948,4.939,27.0
41.839,2.969,4.727,35.0
50.167,3.563,5.378,13.0
41.865,2.977,4.243,18.0
41.378,2.945,3.956,23.0
41.432,2.951,3.723,26.0
41.588,2.98,4.902,14.0
41.643,2.986,4.667,41.0
53.111,3.812,5.645,4.0
41.859,3.006,4.204,28.0
41.332,2.971,3.913,16.0
41.27,2.969,3.67,32.0
41.573,3.008,4.861,29.0
41.666,3.017,4.63,29.0
46.059,3.338,4.852,13.0
46.131,3.345,4.589,5.0
41.298,2.997,3.87,27.0
41.318,3.001,3.635,31.0
41.647,3.042,4.829,36.0
46.034,3.364,5.07,16.0
46.029,3.366,4.804,15.0
46.067,3.371,4.537,4.0
41.261,3.022,3.826,41.0
41.402,3.034,3.601,40.0
41.694,3.072,4.792,25.0
46.032,3.393,5.024,19.0
46.055,3.397,4.76,7.0
41.361,3.052,4.032,38.0
41.295,3.05,3.788,36.0
41.404,3.06,3.559,20.0
41.646,3.094,4.743,41.0
46.037,3.421,4.977,15.0
41.245,3.067,4.22,38.0
41.402,3.08,3.992,40.0
41.376,3.08,3.751,33.0
41.513,3.092,3.525,31.0
41.694,3.121,4.704,25.0
46.059,3.449,4.93,6.0
41.16,3.084,4.166,36.0
41.245,3.092,3.933,38.0
41.218,3.091,3.692,38.0
41.499,3.114,3.479,29.0
45.246,3.412,5.055,6.0
60.937,4.597,6.454,6.0
41.145,3.105,4.12,26.0
41.336,3.121,3.895,33.0
41.273,3.117,3.651,36.0
41.493,3.135,3.432,21.0
45.257,3.436,5.004,36.0
41.301,3.137,4.327,3.0
41.163,3.127,4.074,37.0
41.358,3.143,3.85,16.0
41.241,3.135,3.601,38.0
41.809,3.179,3.41,16.0
45.268,3.458,4.953,38.0
41.201,3.148,4.268,21.0
41.048,3.137,4.015,39.0
41.361,3.162,3.802,3.0
41.319,3.159,3.559,42.0
41.766,3.195,3.357,16.0
45.288,3.479,4.9,24.0
41.255,3.17,4.224,28.0
41.073,3.156,3.967,41.0
41.309,3.175,3.747,24.0
41.351,3.179,3.512,40.0
41.716,3.208,3.303,27.0
45.292,3.498,4.845,16.0
41.169,3.179,4.165,22.0
41.111,3.175,3.921,36.0
41.225,3.185,3.689,41.0
41.423,3.2,3.467,39.0
41.647,3.218,3.246,23.0
45.087,3.498,4.767,11.0
41.119,3.19,4.108,31.0
41.168,3.194,3.875,12.0
41.265,3.201,3.641,42.0
41.509,3.22,3.422,38.0
41.637,3.231,3.193,17.0
41.172,3.207,4.301,20.0
41.059,3.198,4.05,27.0
41.163,3.206,3.821,28.0
41.274,3.215,3.589,39.0
41.59,3.239,3.376,30.0
41.61,3.241,3.138,36.0
71.03,-7.202,3.006,12.0
72.413,-7.354,2.679,35.0
74.421,-7.569,2.358,47.0
78.957,-8.044,2.073,16.0
104.59,-10.673,2.192,12.0
135.391,-13.839,2.12,67.0
73.41,-7.509,3.197,13.0
72.739,-7.452,2.781,12.0
74.381,-7.631,2.448,20.0
78.558,-8.072,2.161,10.0
104.704,-10.776,2.324,8.0
104.649,-10.787,1.768,8.0
72.1,-7.438,3.231,10.0
74.724,-7.72,2.951,26.0
78.196,-8.089,2.672,13.0
78.402,-8.122,2.255,20.0
74.699,-7.75,1.752,3.0
119.199,-12.386,2.164,16.0
72.039,-7.491,3.319,33.0
74.708,-7.779,3.045,26.0
78.108,-8.143,2.767,12.0
78.232,-8.166,2.349,12.0
78.834,-8.24,1.948,28.0
104.719,-10.961,2.032,3.0
71.886,-7.531,3.402,45.0
74.292,-7.792,3.12,12.0
72.313,-7.593,2.653,10.0
78.143,-8.215,2.445,14.0
78.77,-8.292,2.046,27.0
33.155,-3.494,0.685,21.0
71.758,-7.57,3.488,17.0
72.073,-7.612,3.12,17.0
72.451,-7.66,2.751,16.0
77.99,-8.255,2.54,4.0
33.165,-3.514,0.903,20.0
33.161,-3.518,0.728,68.0
69.536,-7.384,3.469,18.0
72.114,-7.665,3.214,33.0
74.48,-7.924,2.923,7.0
33.164,-3.532,1.122,15.0
33.174,-3.537,0.946,71.0
33.147,-3.538,0.77,68.0
69.89,-7.466,3.576,7.0
74.928,-8.011,3.435,9.0
33.191,-3.552,1.345,9.0
33.178,-3.554,1.165,69.0
33.175,-3.557,0.988,69.0
33.135,-3.556,0.812,80.0
69.995,-7.519,3.671,37.0
33.192,-3.568,1.564,6.0
33.195,-3.571,1.387,68.0
33.173,-3.572,1.207,71.0
33.151,-3.572,1.03,76.0
33.143,-3.575,0.854,84.0
33.216,-3.586,1.785,3.0
33.197,-3.587,1.607,54.0
33.178,-3.587,1.43,70.0
33.157,-3.587,1.249,75.0
33.144,-3.589,1.072,78.0
33.132,-3.59,0.896,80.0
33.207,-3.602,1.827,40.0
33.197,-3.603,1.65,70.0
33.179,-3.603,1.472,73.0
33.154,-3.603,1.291,82.0
33.15,-3.605,1.115,76.0
33.15,-3.607,0.939,80.0
33.219,-3.619,1.871,70.0
33.183,-3.617,1.692,70.0
33.184,-3.619,1.516,80.0
33.161,-3.618,1.335,78.0
33.159,-3.62,1.158,77.0
33.141,-3.62,0.982,77.0
33.218,-3.633,1.914,72.0
33.193,-3.631,1.736,74.0
33.174,-3.631,1.558,81.0
33.177,-3.633,1.378,79.0
33.156,-3.632,1.201,77.0
33.159,-3.634,1.025,68.0
33.207,-3.644,1.956,75.0
33.189,-3.643,1.778,81.0
33.175,-3.642,1.6,79.0
33.172,-3.644,1.42,78.0
33.172,-3.645,1.244,78.0
33.148,-3.644,1.067,50.0
33.194,-3.653,1.998,77.0
33.188,-3.653,1.821,82.0
33.183,-3.654,1.643,79.0
33.181,-3.654,1.463,77.0
33.178,-3.655,1.286,72.0
33.158,-3.654,1.109,43.0
33.201,-3.663,2.041,81.0
33.2,-3.663,1.864,81.0
33.19,-3.663,1.686,79.0
33.182,-3.663,1.505,78.0
33.159,-3.661,1.328,64.0
33.175,-3.664,1.152,41.0
33.2,-3.671,2.083,88.0
33.196,-3.671,1.906,78.0
33.191,-3.67,1.728,79.0
33.177,-3.669,1.547,79.0
33.165,-3.668,1.37,52.0
33.17,-3.669,1.194,40.0
33.2,-3.677,2.125,86.0
33.197,-3.676,1.948,79.0
33.19,-3.676,1.77,79.0
33.183,-3.675,1.59,78.0
33.161,-3.673,1.412,48.0
33.179,-3.675,1.236,39.0
33.203,-3.682,2.167,77.0
33.201,-3.681,1.99,80.0
33.193,-3.68,1.812,78.0
33.18,-3.678,1.631,77.0
33.171,-3.677,1.454,51.0
33.182,-3.678,1.277,38.0
33.211,-3.686,2.21,80.0
33.201,-3.684,2.031,81.0
33.187,-3.682,1.853,79.0
33.185,-3.681,1.672,76.0
33.168,-3.679,1.494,52.0
33.176,-3.679,1.317,40.0
33.205,-3.687,2.25,81.0
33.205,-3.686,2.072,80.0
33.192,-3.683,1.894,78.0
33.183,-3.681,1.712,77.0
33.181,-3.68,1.535,66.0
33.171,-3.679,1.358,41.0
33.2,-3.687,2.291,80.0
33.207,-3.686,2.113,80.0
33.191,-3.683,1.934,81.0
33.187,-3.681,1.753,80.0
33.19,-3.68,1.576,74.0
33.166,-3.676,1.398,44.0
33.22,-3.688,2.333,80.0
33.215,-3.685,2.154,76.0
33.194,-3.681,1.975,79.0
33.19,-3.679,1.794,78.0
33.188,-3.677,1.616,77.0
33.184,-3.676,1.439,58.0
33.226,-3.686,2.373,76.0
33.204,-3.681,2.193,71.0
33.2,-3.678,2.015,80.0
33.193,-3.676,1.833,79.0
33.181,-3.673,1.655,78.0
33.183,-3.671,1.478,72.0
33.232,-3.682,2.413,73.0
33.207,-3.677,2.233,70.0
33.189,-3.672,2.053,82.0
33.182,-3.669,1.872,77.0
33.181,-3.667,1.694,77.0
33.176,-3.664,1.516,79.0
33.245,-3.678,2.453,74.0
33.217,-3.672,2.272,68.0
33.21,-3.668,2.093,75.0
33.186,-3.663,1.91,81.0
33.188,-3.661,1.732,76.0
33.167,-3.656,1.554,79.0
33.231,-3.669,2.491,54.0
33.222,-3.665,2.311,69.0
33.21,-3.66,2.132,67.0
33.191,-3.656,1.949,76.0
33.183,-3.652,1.77,84.0
33.172,-3.648,1.592,76.0
33.243,-3.662,2.53,6.0
33.221,-3.656,2.349,51.0
33.212,-3.652,2.17,54.0
33.204,-3.647,1.987,69.0
33.194,-3.643,1.808,72.0
33.173,-3.638,1.629,85.0
73.131,-8.033,5.648,4.0
33.236,-3.647,2.388,5.0
33.207,-3.64,2.207,33.0
33.211,-3.637,2.025,67.0
33.195,-3.632,1.845,69.0
33.188,-3.628,1.666,69.0
70.944,-7.768,5.559,19.0
70.239,-7.683,5.124,12.0
70.128,-7.662,4.737,14.0
33.197,-3.623,2.06,23.0
33.218,-3.622,1.882,66.0
33.2,-3.617,1.703,67.0
70.642,-7.708,5.61,49.0
70.255,-7.657,5.199,28.0
70.005,-7.621,4.804,25.0
70.356,-7.651,4.441,20.0
33.213,-3.607,1.917,6.0
33.199,-3.602,1.738,45.0
33.324,-3.622,2.682,40.0
33.314,-3.616,2.501,32.0
33.33,-3.613,2.322,10.0
70.364,-7.619,4.516,18.0
70.0,-7.571,4.115,26.0
70.289,-7.594,3.753,17.0
33.312,-3.605,2.716,50.0
33.313,-3.6,2.535,53.0
33.307,-3.595,2.355,48.0
33.29,-3.588,2.17,43.0
69.984,-7.534,4.186,12.0
70.11,-7.539,3.815,23.0
33.315,-3.588,2.75,54.0
33.314,-3.583,2.569,55.0
33.303,-3.577,2.388,44.0
33.281,-3.569,2.203,50.0
70.157,-7.515,4.265,9.0
70.213,-7.511,3.889,24.0
33.309,-3.569,2.783,52.0
33.299,-3.562,2.601,49.0
33.29,-3.556,2.42,39.0
33.277,-3.55,2.235,50.0
70.231,-7.481,4.338,9.0
70.336,-7.482,3.965,26.0
33.303,-3.548,2.815,50.0
33.287,-3.541,2.633,44.0
33.279,-3.535,2.451,51.0
33.268,-3.528,2.267,50.0
76.572,-8.109,4.803,8.0
70.381,-7.443,4.034,27.0
33.299,-3.527,2.846,54.0
33.287,-3.52,2.664,54.0
33.316,-3.517,2.485,61.0
33.271,-3.506,2.298,49.0
69.049,-7.266,4.395,18.0
70.141,-7.37,4.085,10.0
33.29,-3.504,2.876,53.0
33.29,-3.497,2.695,53.0
33.291,-3.491,2.514,54.0
33.26,-3.483,2.327,49.0
33.275,-3.478,2.148,27.0
69.416,-7.245,4.104,14.0
33.29,-3.48,2.906,54.0
33.282,-3.473,2.724,51.0
33.278,-3.466,2.542,52.0
33.252,-3.457,2.356,49.0
33.28,-3.454,2.176,41.0
69.35,-7.186,4.16,18.0
33.281,-3.454,2.934,55.0
33.273,-3.447,2.752,52.0
33.269,-3.44,2.57,53.0
33.248,-3.431,2.383,49.0
33.266,-3.427,2.204,50.0
70.32,-7.232,4.277,28.0
33.283,-3.428,2.962,53.0
33.267,-3.42,2.779,52.0
33.266,-3.413,2.597,51.0
33.247,-3.404,2.411,50.0
33.265,-3.4,2.23,51.0
69.446,-7.084,4.28,22.0
33.272,-3.4,2.988,52.0
33.259,-3.391,2.805,52.0
33.262,-3.384,2.623,52.0
33.235,-3.375,2.436,49.0
33.259,-3.371,2.256,52.0
69.337,-7.015,4.326,30.0
33.267,-3.371,3.014,52.0
33.26,-3.363,2.83,51.0
33.247,-3.355,2.647,50.0
33.233,-3.346,2.461,49.0
33.254,-3.341,2.28,52.0
69.596,-6.979,4.393,41.0
33.262,-3.341,3.038,52.0
33.252,-3.332,2.854,51.0
33.241,-3.324,2.671,52.0
33.231,-3.315,2.485,50.0
33.239,-3.31,2.303,52.0
69.445,-6.9,4.433,32.0
33.261,-3.31,3.061,54.0
33.243,-3.3,2.877,53.0
33.246,-3.293,2.695,52.0
33.216,-3.283,2.507,52.0
33.239,-3.278,2.326,52.0
69.674,-6.857,4.494,18.0
33.253,-3.277,3.083,54.0
33.245,-3.269,2.899,51.0
33.235,-3.26,2.716,52.0
33.213,-3.25,2.528,53.0
33.236,-3.245,2.348,52.0
33.234,-3.238,2.165,24.0
33.249,-3.244,3.104,53.0
33.23,-3.235,2.919,51.0
33.223,-3.226,2.735,50.0
33.202,-3.216,2.548,51.0
33.231,-3.212,2.367,51.0
33.235,-3.205,2.185,36.0
33.236,-3.21,3.123,54.0
33.229,-3.201,2.939,52.0
33.214,-3.191,2.754,51.0
33.197,-3.182,2.567,51.0
33.209,-3.175,2.385,50.0
33.221,-3.169,2.203,44.0
33.242,-3.175,3.143,50.0
33.22,-3.164,2.957,52.0
33.206,-3.155,2.772,49.0
33.188,-3.145,2.584,48.0
33.205,-3.139,2.403,50.0
33.226,-3.133,2.221,47.0
47.265,-4.464,4.494,9.0
74.588,-7.025,6.679,25.0
0.0,0.0,0.0,0.0
73.742,-6.909,5.78,8.0
69.924,-6.535,5.095,31.0
70.555,-6.577,4.753,12.0
50.993,-4.759,4.874,5.0
74.579,-6.941,6.715,14.0
74.044,-6.873,6.257,32.0
72.955,-6.753,5.754,5.0
70.33,-6.493,5.159,24.0
70.591,-6.5,4.788,34.0
73.713,-6.796,7.081,13.0
76.959,-7.075,6.965,6.0
73.613,-6.749,6.254,10.0
71.099,-6.5,5.639,13.0
70.401,-6.419,5.194,26.0
70.795,-6.437,4.832,26.0
73.707,-6.71,7.112,18.0
73.477,-6.67,6.68,9.0
74.381,-6.732,6.35,8.0
71.16,-6.422,5.673,10.0
70.4,-6.336,5.222,24.0
70.61,-6.337,4.847,31.0
73.741,-6.626,7.144,11.0
73.413,-6.576,6.703,11.0
74.453,-6.65,6.383,19.0
70.976,-6.32,5.684,9.0
70.724,-6.28,5.272,12.0
70.474,-6.24,4.862,42.0
73.642,-6.527,7.16,26.0
73.813,-6.523,6.765,8.0
71.124,-6.266,6.122,12.0
71.381,-6.269,5.74,8.0
70.717,-6.192,5.294,12.0
70.411,-6.147,4.88,13.0
77.928,-6.81,7.601,9.0
73.63,-6.414,6.771,13.0
71.418,-6.203,6.168,7.0
71.1,-6.156,5.738,9.0
73.207,-6.319,5.501,5.0
70.073,-6.031,4.876,25.0
73.609,-6.341,7.199,17.0
73.125,-6.279,6.743,12.0
71.374,-6.109,6.183,29.0
70.448,-6.01,5.703,32.0
70.912,-6.03,5.346,14.0
70.22,-5.953,4.903,16.0
73.338,-6.223,7.19,16.0
71.935,-6.084,6.65,12.0
72.132,-6.08,6.264,13.0
70.389,-5.914,5.713,16.0
70.987,-5.945,5.366,13.0
74.8,-6.245,5.237,15.0
73.477,-6.139,7.217,26.0
71.171,-5.927,6.591,10.0
73.04,-6.061,6.356,7.0
73.265,-6.06,5.958,11.0
70.8,-5.837,5.362,12.0
70.925,-5.827,4.977,14.0
73.474,-6.041,7.229,10.0
72.017,-5.901,6.68,14.0
72.935,-5.955,6.356,16.0
73.288,-5.964,5.97,9.0
70.681,-5.732,5.362,8.0
74.705,-6.038,5.25,5.0
70.952,-5.739,6.987,8.0
70.856,-5.71,6.58,8.0
70.673,-5.675,6.166,25.0
73.304,-5.866,5.977,25.0
72.686,-5.796,5.52,11.0
70.483,-5.602,4.959,23.0
71.7,-5.701,7.066,45.0
70.956,-5.621,6.594,6.0
70.657,-5.577,6.169,13.0
73.563,-5.785,6.002,24.0
68.0,-5.329,5.166,13.0
67.982,-5.309,4.785,55.0
71.293,-5.57,7.028,15.0
70.779,-5.509,6.578,21.0
68.002,-5.273,5.937,72.0
67.989,-5.253,5.547,77.0
67.995,-5.234,5.166,41.0
67.986,-5.215,4.784,10.0
71.669,-5.499,7.063,12.0
68.027,-5.2,6.321,33.0
0.0,0.0,0.0,0.0
73.086,-5.544,5.96,24.0
78.325,-5.919,5.947,18.0
71.101,-5.354,4.999,14.0
98.491,1.181,1.409,28.0
98.492,1.215,0.867,24.0
85.109,1.079,0.28,7.0
0.0,0.0,0.0,0.0
47.148,0.629,-0.368,0.0
38.734,0.531,-0.515,0.0
98.587,1.393,1.407,22.0
92.121,1.332,0.807,12.0
80.952,1.199,0.263,5.0
0.0,0.0,0.0,0.0
47.114,0.73,-0.37,0.0
37.909,0.6,-0.507,0.0
91.905,1.493,1.305,38.0
91.843,1.523,0.798,31.0
78.028,1.321,0.247,7.0
0.0,0.0,0.0,0.0
47.021,0.828,-0.374,0.0
37.675,0.677,-0.508,0.0
87.69,1.612,1.236,1.0
91.955,1.721,0.788,15.0
78.232,1.492,0.239,6.0
69.834,1.355,-0.179,0.0
0.0,0.0,0.0,0.0
0.0,0.0,0.0,0.0
85.322,1.75,1.191,29.0
85.236,1.776,0.718,24.0
72.112,1.528,0.209,8.0
0.0,0.0,0.0,0.0
47.319,1.035,-0.39,0.0
0.0,0.0,0.0,0.0
85.235,1.929,1.174,34.0
85.141,1.956,0.701,20.0
71.948,1.678,0.194,14.0
65.917,1.56,-0.193,1.0
0.0,0.0,0.0,0.0
37.435,0.911,-0.524,0.0
85.342,2.114,1.157,6.0
78.941,1.981,0.632,29.0
71.506,1.818,0.177,11.0
65.252,1.681,-0.206,1.0
0.0,0.0,0.0,0.0
0.0,0.0,0.0,0.0
77.174,2.074,1.026,3.0
78.813,2.144,0.611,13.0
71.045,1.955,0.157,11.0
57.218,1.594,-0.196,9.0
45.874,1.293,-0.412,0.0
0.0,0.0,0.0,0.0
74.278,2.152,0.966,4.0
78.832,2.31,0.588,13.0
70.641,2.093,0.134,10.0
62.065,1.86,-0.232,1.0
45.595,1.381,-0.424,0.0
35.934,1.1,-0.534,0.0
72.502,2.252,0.919,17.0
72.398,2.274,0.515,30.0
65.529,2.078,0.102,5.0
60.585,1.941,-0.248,1.0
45.385,1.469,-0.438,0.0
35.26,1.153,-0.536,0.0
72.361,2.4,0.891,33.0
72.311,2.42,0.488,24.0
65.301,2.207,0.077,16.0
59.058,2.014,-0.264,0.0
0.0,0.0,0.0,0.0
35.206,1.224,-0.55,0.0
72.365,2.548,0.862,27.0
72.209,2.565,0.458,15.0
65.229,2.338,0.05,6.0
0.0,0.0,0.0,0.0
44.713,1.631,-0.468,0.0
0.0,0.0,0.0,0.0
119.967,4.47,1.377,14.0
72.054,2.706,0.425,9.0
64.915,2.458,0.021,9.0
0.0,0.0,0.0,0.0
0.0,0.0,0.0,0.0
0.0,0.0,0.0,0.0
119.982,4.713,1.321,17.0
66.115,2.618,0.358,19.0
58.896,2.349,-0.009,6.0
54.842,2.204,-0.32,1.0
0.0,0.0,0.0,0.0
33.066,1.349,-0.562,0.0
61.781,2.55,0.649,9.0
66.036,2.745,0.324,25.0
58.815,2.463,-0.039,21.0
54.196,2.286,-0.344,0.0
0.0,0.0,0.0,0.0
0.0,0.0,0.0,0.0
66.057,2.858,0.658,27.0
66.008,2.876,0.289,15.0
58.622,2.571,-0.071,7.0
52.908,2.336,-0.365,3.0
39.799,1.769,-0.497,0.0
31.731,1.42,-0.574,0.0
45.056,3.309,-0.177,21.0
40.984,3.019,-0.394,3.0
34.555,2.553,-0.528,0.0
29.12,2.158,-0.613,0.0
25.244,1.877,-0.675,0.0
22.083,1.647,-0.716,0.0
44.597,3.343,-0.222,19.0
40.715,3.061,-0.434,3.0
33.574,2.531,-0.549,0.0
28.263,2.137,-0.625,0.0
24.425,1.852,-0.679,0.0
21.58,1.641,-0.723,0.0
44.283,3.385,-0.269,3.0
40.362,3.093,-0.474,4.0
32.118,2.468,-0.56,0.0
27.31,2.105,-0.634,0.0
23.965,1.852,-0.693,0.0
21.081,1.634,-0.729,0.0
40.799,3.177,-0.293,12.0
40.19,3.138,-0.517,0.0
31.295,2.45,-0.58,0.0
26.535,2.082,-0.645,0.0
23.23,1.828,-0.698,0.0
20.387,1.609,-0.728,0.0
40.576,3.217,-0.337,11.0
35.614,2.83,-0.498,0.0
30.15,2.402,-0.593,0.0
25.916,2.07,-0.66,0.0
22.583,1.808,-0.704,0.0
20.157,1.618,-0.743,0.0
40.28,3.248,-0.38,4.0
34.521,2.79,-0.523,1.0
29.177,2.364,-0.608,0.0
25.109,2.039,-0.668,0.0
22.034,1.794,-0.712,0.0
19.672,1.605,-0.748,0.0
40.131,3.289,-0.426,8.0
33.37,2.741,-0.544,1.0
28.242,2.325,-0.621,0.0
24.468,2.019,-0.68,0.0
21.558,1.783,-0.722,0.0
19.254,1.597,-0.755,0.0
40.02,3.332,-0.472,5.0
32.075,2.676,-0.561,0.0
27.302,2.283,-0.633,0.0
23.807,1.995,-0.69,0.0
21.052,1.768,-0.73,0.0
18.781,1.581,-0.759,0.0
39.953,3.377,-0.519,1.0
30.823,2.61,-0.576,0.0
26.389,2.24,-0.644,0.0
22.981,1.955,-0.694,0.0
20.46,1.744,-0.735,0.0
18.377,1.57,-0.765,0.0
36.372,3.118,-0.517,1.0
29.617,2.544,-0.59,0.0
25.686,2.211,-0.658,0.0
22.301,1.923,-0.701,1.0
19.999,1.729,-0.743,0.0
18.006,1.56,-0.772,0.0
33.503,2.912,-0.517,0.0
28.726,2.501,-0.608,0.0
25.014,2.182,-0.672,0.0
22.054,1.928,-0.721,1.0
19.535,1.711,-0.75,0.0
17.676,1.551,-0.78,0.0
32.716,2.881,-0.546,1.0
27.634,2.438,-0.619,0.0
24.119,2.131,-0.678,0.0
21.236,1.88,-0.72,0.0
18.975,1.683,-0.752,0.0
17.235,1.532,-0.782,0.0
31.521,2.81,-0.566,0.0
26.776,2.391,-0.634,0.0
23.401,2.093,-0.688,0.0
20.548,1.842,-0.723,0.0
18.482,1.66,-0.757,0.0
16.949,1.525,-0.791,0.0
30.462,2.748,-0.586,0.0
26.124,2.361,-0.652,0.0
22.63,2.048,-0.694,0.0
20.154,1.828,-0.736,0.0
18.14,1.648,-0.766,0.0
16.565,1.507,-0.795,0.0
29.047,2.65,-0.597,0.0
25.243,2.307,-0.663,0.0
22.084,2.021,-0.706,0.0
19.64,1.801,-0.742,0.0
17.801,1.635,-0.775,0.0
16.283,1.498,-0.802,0.0
28.135,2.594,-0.614,0.0
24.479,2.26,-0.674,0.0
21.401,1.979,-0.712,0.0
19.173,1.776,-0.75,0.0
17.391,1.614,-0.78,0.0
15.87,1.475,-0.803,0.0
17.281,1.764,-0.77,0.0
15.911,1.625,-0.8,0.0
14.636,1.495,-0.82,0.0
13.533,1.383,-0.837,0.0
12.591,1.288,-0.852,0.0
11.728,1.2,-0.861,0.0
16.936,1.732,-0.776,0.0
15.596,1.595,-0.805,0.0
14.371,1.471,-0.824,0.0
13.351,1.367,-0.844,0.0
12.381,1.268,-0.854,0.0
11.543,1.183,-0.863,0.0
16.675,1.707,-0.786,0.0
15.264,1.563,-0.807,0.0
14.121,1.447,-0.828,0.0
13.131,1.346,-0.847,0.0
12.172,1.248,-0.855,0.0
11.326,1.162,-0.861,0.0
16.311,1.671,-0.79,0.0
14.984,1.536,-0.812,0.0
13.88,1.423,-0.832,0.0
12.858,1.319,-0.846,0.0
11.908,1.222,-0.852,0.0
11.186,1.149,-0.865,0.0
16.01,1.641,-0.796,0.0
14.694,1.507,-0.815,0.0
13.656,1.401,-0.836,0.0
12.738,1.307,-0.855,0.0
11.784,1.21,-0.859,0.0
11.036,1.133,-0.868,0.0
15.65,1.605,-0.798,0.0
14.527,1.49,-0.824,0.0
13.404,1.375,-0.838,0.0
12.508,1.283,-0.855,0.0
11.581,1.189,-0.859,0.0
10.881,1.117,-0.869,0.0
15.358,1.574,-0.803,0.0
14.189,1.454,-0.823,0.0
13.192,1.352,-0.841,0.0
12.296,1.261,-0.856,0.0
11.412,1.17,-0.86,0.0
10.763,1.104,-0.874,0.0
15.124,1.549,-0.809,0.0
13.972,1.431,-0.828,0.0
13.035,1.335,-0.847,0.0
11.948,1.224,-0.847,0.0
11.261,1.154,-0.863,0.0
