X,Y,Z,Reflectivity
41.529,2.635,4.851,36.0
52.207,3.316,5.797,10.0
52.256,3.323,5.495,40.0
45.301,2.884,4.503,11.0
45.186,2.88,4.232,29.0
41.686,2.673,5.072,37.0
41.544,2.667,4.814,43.0
52.236,3.357,5.751,15.0
52.283,3.363,5.449,21.0
52.312,3.368,5.15,15.0
42.406,2.734,3.931,17.0
41.709,2.705,5.035,25.0
41.571,2.698,4.777,37.0
46.691,3.034,5.095,11.0
47.283,3.075,4.882,4.0
42.375,2.758,4.131,1.0
42.027,2.739,3.855,35.0
41.502,2.72,4.969,41.0
41.633,2.731,4.743,39.0
46.623,3.061,5.041,13.0
42.245,2.776,4.32,6.0
45.504,2.992,4.39,5.0
42.08,2.77,3.818,26.0
41.485,2.746,4.924,37.0
41.739,2.766,4.712,33.0
46.59,3.089,4.99,8.0
42.209,2.801,4.272,14.0
41.949,2.786,4.004,18.0
41.874,2.783,3.756,24.0
41.554,2.777,4.889,32.0
41.692,2.788,4.662,19.0
46.553,3.115,4.937,9.0
41.989,2.811,4.206,35.0
41.993,2.814,3.963,24.0
41.852,2.806,3.709,33.0
41.604,2.805,4.849,40.0
42.17,2.845,4.67,9.0
46.502,3.139,4.88,14.0
41.941,2.833,4.155,35.0
42.072,2.843,3.925,28.0
41.777,2.825,3.657,38.0
41.555,2.825,4.797,45.0
42.167,2.868,4.622,16.0
46.461,3.162,4.823,13.0
42.133,2.868,4.126,29.0
42.153,2.872,3.884,44.0
41.682,2.841,3.601,32.0
41.618,2.852,4.755,42.0
42.163,2.89,4.573,14.0
46.444,3.185,4.768,9.0
42.028,2.883,4.066,17.0
45.354,3.113,4.126,3.0
41.687,2.862,3.552,39.0
41.716,2.879,4.717,34.0
53.079,3.664,5.694,8.0
41.956,2.897,4.257,16.0
41.777,2.886,3.993,34.0
41.431,2.863,3.72,26.0
41.618,2.877,3.497,40.0
41.898,2.911,4.687,34.0
53.064,3.687,5.628,7.0
41.885,2.911,4.199,29.0
42.308,2.941,3.992,11.0
41.338,2.875,3.661,37.0
41.655,2.898,3.449,34.0
41.923,2.93,4.637,35.0
53.039,3.707,5.559,6.0
41.845,2.925,4.142,36.0
41.641,2.912,3.877,16.0
41.388,2.894,3.614,35.0
41.749,2.921,3.404,33.0
41.984,2.95,4.591,16.0
52.98,3.723,5.485,6.0
41.462,2.914,4.052,16.0
41.456,2.914,3.807,29.0
41.535,2.92,3.574,33.0
41.77,2.937,3.353,26.0
53.053,3.747,5.733,16.0
46.389,3.276,4.743,4.0
41.323,2.918,3.985,43.0
41.642,2.941,3.77,17.0
41.661,2.942,3.531,38.0
41.683,2.944,3.292,32.0
53.059,3.763,5.663,11.0
41.881,2.97,4.226,21.0
41.479,2.941,3.945,19.0
41.382,2.934,3.691,30.0
41.548,2.946,3.466,39.0
41.709,2.957,3.239,30.0
50.179,3.573,5.288,11.0
41.866,2.98,4.169,34.0
41.445,2.95,3.886,18.0
41.392,2.945,3.637,37.0
41.443,2.949,3.401,40.0
41.659,2.964,3.178,34.0
53.02,3.787,5.515,6.0
41.512,2.964,4.076,22.0
41.316,2.95,3.817,38.0
41.385,2.954,3.579,32.0
41.53,2.964,3.351,41.0
41.597,2.968,3.117,40.0
53.033,3.798,5.442,4.0
41.382,2.963,4.006,35.0
41.439,2.966,3.771,24.0
41.396,2.962,3.522,37.0
41.577,2.974,3.297,38.0
41.674,2.98,3.064,38.0
41.864,3.004,4.237,24.0
41.345,2.966,3.943,16.0
41.381,2.967,3.707,23.0
41.496,2.974,3.472,35.0
41.643,2.984,3.243,32.0
41.807,2.995,3.015,37.0
46.309,3.328,4.621,4.0
41.343,2.97,3.884,16.0
41.259,2.963,3.637,38.0
41.43,2.974,3.408,40.0
41.591,2.984,3.18,37.0
41.711,2.992,2.948,35.0
46.302,3.331,4.553,4.0
41.283,2.969,3.819,36.0
41.339,2.971,3.584,35.0
41.495,2.98,3.353,44.0
41.609,2.987,3.121,39.0
52.555,3.772,3.639,5.0
41.54,2.99,4.023,26.0
41.448,2.981,3.773,27.0
41.431,2.978,3.531,35.0
41.532,2.984,3.295,42.0
41.691,2.994,3.066,38.0
52.575,3.773,3.564,8.0
41.38,2.978,3.947,13.0
41.342,2.973,3.703,28.0
41.504,2.983,3.476,37.0
41.604,2.988,3.239,38.0
41.85,3.003,3.016,34.0
41.797,2.998,2.771,38.0
41.342,2.973,3.881,24.0
41.271,2.965,3.634,37.0
41.435,2.975,3.408,38.0
41.588,2.984,3.175,38.0
41.707,2.99,2.943,36.0
41.91,3.002,2.715,39.0
41.308,2.967,3.815,38.0
41.351,2.967,3.579,37.0
41.5,2.975,3.351,43.0
41.598,2.979,3.113,40.0
52.577,3.764,3.631,6.0
41.951,3.0,2.655,37.0
41.441,2.97,3.764,21.0
41.435,2.967,3.523,37.0
41.602,2.976,3.295,34.0
41.697,2.98,3.057,42.0
41.772,2.983,2.82,27.0
52.499,3.746,3.241,5.0
41.304,2.953,3.687,35.0
41.47,2.962,3.461,36.0
41.748,2.979,3.242,16.0
41.729,2.975,2.994,38.0
41.77,2.975,2.756,41.0
41.632,2.962,2.507,35.0
41.422,2.953,3.633,36.0
41.451,2.951,3.395,42.0
41.63,2.961,3.169,40.0
41.689,2.962,2.927,26.0
41.916,2.975,2.701,34.0
41.661,2.954,2.444,35.0
41.513,2.948,3.577,34.0
41.658,2.955,3.348,34.0
41.603,2.947,3.102,33.0
52.502,3.716,3.605,7.0
41.956,2.966,2.638,28.0
41.709,2.945,2.382,20.0
41.686,2.948,3.526,40.0
41.682,2.943,3.284,37.0
45.951,3.241,3.354,9.0
41.664,2.935,2.795,38.0
41.709,2.934,2.557,33.0
41.765,2.935,2.319,31.0
41.698,2.934,3.461,34.0
41.769,2.935,3.224,29.0
41.734,2.928,2.98,30.0
41.725,2.924,2.733,40.0
41.623,2.913,2.486,44.0
52.367,3.661,2.825,17.0
41.808,2.925,3.404,27.0
41.714,2.915,3.154,25.0
52.496,3.663,3.665,6.0
41.669,2.903,2.664,29.0
41.688,2.901,2.424,37.0
52.328,3.636,2.741,20.0
41.751,2.903,3.333,14.0
41.884,2.908,3.1,26.0
41.974,2.91,2.864,43.0
41.616,2.881,2.594,24.0
41.728,2.884,2.36,43.0
52.298,3.61,2.656,18.0
41.872,2.892,3.275,33.0
41.826,2.884,3.029,16.0
41.588,2.862,2.771,41.0
41.627,2.861,2.528,44.0
52.297,3.589,2.874,10.0
52.267,3.582,2.571,20.0
41.881,2.871,3.209,36.0
42.188,2.886,2.988,17.0
41.552,2.838,2.702,35.0
41.652,2.84,2.464,34.0
52.263,3.558,2.79,24.0
52.248,3.552,2.487,30.0
51.028,3.469,3.827,5.0
42.149,2.86,2.917,33.0
41.646,2.821,2.641,36.0
41.688,2.818,2.399,32.0
52.256,3.527,2.705,28.0
52.228,3.519,2.402,42.0
41.758,2.813,3.064,28.0
41.707,2.804,2.819,36.0
41.747,2.801,2.58,19.0
52.244,3.5,2.921,11.0
52.243,3.493,2.619,33.0
52.227,3.486,2.317,44.0
41.674,2.781,2.99,32.0
41.494,2.763,2.737,40.0
41.653,2.768,2.507,38.0
52.248,3.466,2.838,30.0
52.246,3.459,2.536,42.0
52.251,3.453,2.236,43.0
52.273,3.452,3.668,12.0
41.563,2.739,2.676,35.0
41.625,2.737,2.439,42.0
52.246,3.429,2.754,37.0
52.253,3.422,2.453,32.0
52.287,3.418,2.154,35.0
52.236,3.412,3.581,7.0
41.697,2.717,2.618,32.0
52.226,3.396,2.976,6.0
52.258,3.391,2.671,39.0
52.309,3.387,2.373,34.0
52.375,3.384,2.074,18.0
41.727,2.693,2.794,41.0
41.763,2.689,2.555,19.0
41.6,2.672,2.304,36.0
52.3,3.352,2.59,33.0
52.398,3.351,2.293,12.0
110.959,7.081,4.217,23.0
41.576,2.649,2.717,38.0
41.488,2.637,2.471,38.0
52.278,3.315,2.812,11.0
52.387,3.315,2.511,10.0
111.063,7.011,4.684,7.0
50.786,3.198,1.849,4.0
41.484,2.608,2.645,34.0
41.585,2.608,2.411,40.0
52.363,3.275,2.734,20.0
111.019,6.927,5.144,13.0
111.051,6.913,4.507,39.0
50.791,3.154,1.769,7.0
41.522,2.573,2.581,30.0
41.569,2.57,2.344,37.0
90.8,5.598,4.597,10.0
111.051,6.828,4.97,18.0
111.073,6.813,4.332,27.0
50.772,3.106,1.687,12.0
52.971,3.233,3.208,7.0
41.608,2.532,2.28,31.0
90.733,5.508,4.448,7.0
115.431,6.988,4.983,24.0
115.478,6.973,4.322,33.0
50.753,3.056,1.608,15.0
41.711,2.505,2.461,26.0
41.664,2.496,2.218,16.0
115.43,6.895,5.48,15.0
115.412,6.873,4.803,33.0
115.467,6.858,4.141,35.0
50.716,3.003,1.527,17.0
41.718,2.463,2.396,43.0
52.346,3.082,2.704,15.0
115.497,6.78,5.303,9.0
115.501,6.76,4.626,12.0
115.495,6.739,3.962,8.0
50.649,2.947,1.446,21.0
52.475,3.043,2.931,7.0
52.522,3.036,2.631,4.0
53.179,3.064,2.358,5.0
119.43,6.862,4.598,15.0
119.511,6.845,3.913,17.0
50.597,2.888,1.366,25.0
52.639,2.996,2.859,19.0
91.608,5.196,4.449,12.0
119.7,6.768,5.125,30.0
119.678,6.744,4.424,32.0
119.691,6.722,3.736,25.0
50.521,2.828,1.287,31.0
52.626,2.935,2.778,24.0
52.839,2.937,2.485,5.0
119.662,6.629,4.94,29.0
59.509,3.285,2.109,5.0
59.436,3.269,1.764,25.0
50.473,2.767,1.208,25.0
59.394,3.243,3.044,8.0
59.428,3.232,2.703,11.0
59.445,3.222,2.363,27.0
59.399,3.207,2.013,28.0
59.396,3.195,1.672,36.0
50.408,2.702,1.13,22.0
59.344,3.168,2.951,15.0
59.417,3.159,2.612,12.0
59.406,3.147,2.271,36.0
59.394,3.134,1.923,33.0
59.412,3.123,1.583,34.0
50.438,2.641,1.055,13.0
59.366,3.095,2.863,13.0
59.405,3.084,2.523,30.0
59.418,3.073,2.183,33.0
59.422,3.061,1.836,29.0
59.501,3.053,1.497,23.0
50.595,2.585,0.984,19.0
59.388,3.02,2.776,17.0
59.435,3.01,2.437,27.0
59.492,3.0,2.098,25.0
125.027,6.279,3.679,2.0
120.177,6.01,2.848,18.0
50.658,2.522,0.91,10.0
59.428,2.944,2.691,11.0
59.526,2.935,2.353,11.0
0.0,0.0,0.0,0.0
120.201,5.875,3.362,8.0
120.11,5.845,2.671,15.0
50.779,2.46,0.838,9.0
52.977,2.552,2.321,17.0
0.0,0.0,0.0,0.0
61.059,2.914,1.975,11.0
120.085,5.704,3.185,8.0
127.806,6.043,2.658,2.0
50.949,2.398,0.768,5.0
52.951,2.477,2.244,10.0
0.0,0.0,0.0,0.0
62.121,2.878,1.921,9.0
61.179,2.82,1.536,14.0
66.136,3.034,1.282,17.0
66.1,3.017,0.903,21.0
52.847,2.397,2.165,18.0
66.181,2.986,2.332,8.0
63.192,2.836,1.865,11.0
62.274,2.78,1.476,6.0
61.401,2.727,1.104,8.0
66.067,2.919,0.81,13.0
66.022,2.898,2.613,14.0
66.052,2.883,2.235,26.0
64.443,2.797,1.812,14.0
63.494,2.741,1.416,13.0
62.972,2.704,1.045,8.0
62.579,2.673,0.681,7.0
66.007,2.799,2.522,28.0
66.047,2.784,2.145,26.0
66.107,2.771,1.769,28.0
66.159,2.757,1.386,24.0
66.178,2.741,1.008,21.0
66.119,2.723,0.63,26.0
66.079,2.701,2.435,24.0
66.208,2.689,2.061,2.0
120.118,4.849,3.053,13.0
120.013,4.817,2.354,13.0
120.077,4.79,1.67,11.0
119.998,4.759,0.985,16.0
190.791,7.504,6.779,21.0
195.121,7.625,5.819,21.0
120.103,4.661,2.894,20.0
120.12,4.633,2.198,26.0
119.933,4.595,1.511,15.0
72.249,2.75,0.498,11.0
190.865,7.201,6.531,14.0
72.501,2.717,2.066,3.0
72.514,2.698,1.653,11.0
72.429,2.676,1.23,22.0
72.412,2.656,0.817,22.0
72.035,2.624,0.402,14.0
72.42,2.614,2.384,30.0
72.402,2.594,1.97,29.0
72.372,2.575,1.557,34.0
72.347,2.555,1.137,34.0
72.362,2.536,0.725,29.0
71.619,2.491,0.31,17.0
72.401,2.494,2.292,31.0
72.389,2.474,1.879,39.0
72.358,2.454,1.466,39.0
72.365,2.434,1.047,40.0
72.333,2.415,0.635,31.0
71.39,2.364,0.221,9.0
72.493,2.377,2.207,27.0
72.505,2.357,1.794,29.0
72.492,2.336,1.38,25.0
72.465,2.315,0.96,30.0
72.428,2.295,0.548,30.0
65.496,2.057,0.123,4.0
0.0,0.0,0.0,0.0
74.484,2.294,1.753,5.0
74.267,2.266,1.325,3.0
78.95,2.387,0.952,8.0
78.712,2.358,0.501,7.0
65.156,1.934,0.045,6.0
78.846,2.314,2.212,13.0
76.518,2.223,1.711,8.0
76.492,2.202,1.276,9.0
76.518,2.18,0.834,7.0
72.051,2.032,0.375,8.0
64.306,1.796,-0.029,5.0
78.83,2.174,2.12,35.0
78.879,2.153,1.674,36.0
78.892,2.13,1.226,34.0
78.893,2.109,0.77,33.0
71.728,1.896,0.292,13.0
65.483,1.712,-0.104,7.0
119.99,3.094,3.092,14.0
119.996,3.061,2.412,20.0
85.343,2.151,1.23,18.0
85.124,2.121,0.736,16.0
71.806,1.768,0.213,14.0
66.018,1.607,-0.177,1.0
85.246,2.044,2.103,31.0
85.248,2.019,1.62,36.0
85.238,1.993,1.136,39.0
85.126,1.966,0.644,16.0
71.859,1.638,0.136,8.0
0.0,0.0,0.0,0.0
85.251,1.888,2.013,34.0
85.28,1.862,1.53,36.0
85.269,1.837,1.047,37.0
85.019,1.807,0.554,12.0
70.429,1.475,0.06,3.0
0.0,0.0,0.0,0.0
87.111,1.766,1.966,44.0
87.342,1.746,1.477,43.0
91.927,1.809,1.034,5.0
84.836,1.643,0.465,11.0
71.848,1.369,-0.012,1.0
0.0,0.0,0.0,0.0
91.824,1.689,1.981,34.0
91.889,1.662,1.462,38.0
91.846,1.635,0.942,33.0
78.394,1.37,0.353,9.0
0.0,0.0,0.0,0.0
47.077,0.793,-0.32,0.0
91.925,1.515,1.893,35.0
91.936,1.488,1.374,36.0
91.93,1.459,0.854,27.0
80.934,1.259,0.286,6.0
0.0,0.0,0.0,0.0
46.99,0.701,-0.364,0.0
98.656,1.438,1.939,27.0
98.54,1.404,1.38,27.0
98.486,1.372,0.823,18.0
80.945,1.102,0.211,2.0
0.0,0.0,0.0,0.0
43.901,0.569,-0.381,0.0
98.544,1.243,1.847,33.0
98.533,1.212,1.291,33.0
98.143,1.175,0.731,11.0
79.935,0.931,0.137,2.0
0.0,0.0,0.0,0.0
42.508,0.469,-0.406,0.0
98.645,1.053,1.764,27.0
98.648,1.021,1.207,28.0
98.186,0.985,0.648,12.0
0.0,0.0,0.0,0.0
0.0,0.0,0.0,0.0
42.82,0.388,-0.445,0.0
100.339,0.874,1.71,4.0
100.525,0.843,1.147,3.0
97.914,0.789,0.565,8.0
0.0,0.0,0.0,0.0
0.0,0.0,0.0,0.0
42.866,0.303,-0.48,0.0
111.062,0.746,1.803,28.0
111.059,0.709,1.177,20.0
96.842,0.585,0.481,1.0
0.0,0.0,0.0,0.0
48.672,0.262,-0.31,0.0
0.0,0.0,0.0,0.0
111.155,0.525,1.719,24.0
111.061,0.487,1.093,18.0
94.708,0.383,0.399,2.0
0.0,0.0,0.0,0.0
49.613,0.168,-0.353,0.0
0.0,0.0,0.0,0.0
111.196,0.3,1.638,14.0
111.102,0.263,1.012,11.0
93.073,0.188,0.325,3.0
0.0,0.0,0.0,0.0
45.68,0.061,-0.357,1.0
37.885,0.038,-0.509,0.0
111.109,0.074,1.559,17.0
111.116,0.037,0.935,11.0
95.487,-0.001,0.267,1.0
0.0,0.0,0.0,0.0
45.155,-0.031,-0.384,2.0
0.0,0.0,0.0,0.0
119.742,-0.164,1.6,13.0
111.075,-0.191,0.861,13.0
0.0,0.0,0.0,0.0
0.0,0.0,0.0,0.0
45.031,-0.124,-0.412,1.0
36.095,-0.112,-0.533,0.0
119.738,-0.413,1.524,18.0
110.985,-0.422,0.79,6.0
0.0,0.0,0.0,0.0
0.0,0.0,0.0,0.0
0.0,0.0,0.0,0.0
35.113,-0.182,-0.54,0.0
119.722,-0.66,1.452,18.0
111.079,-0.651,0.726,5.0
0.0,0.0,0.0,0.0
0.0,0.0,0.0,0.0
0.0,0.0,0.0,0.0
34.83,-0.253,-0.555,0.0
119.707,-0.906,1.386,18.0
114.178,-0.905,0.684,8.0
0.0,0.0,0.0,0.0
0.0,0.0,0.0,0.0
0.0,0.0,0.0,0.0
33.525,-0.312,-0.551,0.0
119.751,-1.153,1.325,150.0
119.749,-1.197,0.656,32.0
0.0,0.0,0.0,0.0
0.0,0.0,0.0,0.0
40.454,-0.447,-0.46,0.0
33.184,-0.379,-0.562,0.0
139.309,-1.633,1.474,16.0
0.0,0.0,0.0,0.0
0.0,0.0,0.0,0.0
0.0,0.0,0.0,0.0
40.15,-0.528,-0.475,0.0
32.639,-0.441,-0.568,0.0
138.954,-1.92,1.409,13.0
0.0,0.0,0.0,0.0
0.0,0.0,0.0,0.0
49.874,-0.743,-0.333,0.0
0.0,0.0,0.0,0.0
31.696,-0.494,-0.565,0.0
139.091,-2.214,1.353,14.0
113.503,-1.846,0.473,5.0
0.0,0.0,0.0,0.0
47.167,-0.801,-0.333,0.0
0.0,0.0,0.0,0.0
31.528,-0.558,-0.573,0.0
139.054,-2.503,1.302,25.0
0.0,0.0,0.0,0.0
0.0,0.0,0.0,0.0
46.105,-0.879,-0.342,0.0
0.0,0.0,0.0,0.0
31.326,-0.62,-0.58,0.0
138.971,-2.795,1.255,25.0
0.0,0.0,0.0,0.0
0.0,0.0,0.0,0.0
47.751,-1.012,-0.369,0.0
0.0,0.0,0.0,0.0
0.0,0.0,0.0,0.0
138.935,-3.085,1.214,20.0
0.0,0.0,0.0,0.0
0.0,0.0,0.0,0.0
46.677,-1.088,-0.374,0.0
37.998,-0.899,-0.515,0.0
30.807,-0.74,-0.589,0.0
138.84,-3.377,1.177,17.0
0.0,0.0,0.0,0.0
0.0,0.0,0.0,0.0
44.663,-1.135,-0.368,0.0
38.106,-0.982,-0.525,0.0
21.902,-0.572,-0.423,2.0
138.795,-3.666,1.146,21.0
0.0,0.0,0.0,0.0
0.0,0.0,0.0,0.0
44.505,-1.225,-0.376,1.0
37.982,-1.06,-0.531,0.0
21.92,-0.619,-0.428,1.0
138.426,-3.947,1.118,27.0
0.0,0.0,0.0,0.0
0.0,0.0,0.0,0.0
44.565,-1.32,-0.384,1.0
37.929,-1.137,-0.536,0.0
30.321,-0.921,-0.597,0.0
138.687,-4.247,1.101,14.0
0.0,0.0,0.0,0.0
0.0,0.0,0.0,0.0
44.373,-1.407,-0.388,0.0
38.14,-1.224,-0.544,0.0
30.333,-0.985,-0.6,0.0
138.613,-4.534,1.086,17.0
0.0,0.0,0.0,0.0
0.0,0.0,0.0,0.0
44.498,-1.504,-0.393,0.0
0.0,0.0,0.0,0.0
30.294,-1.046,-0.602,0.0
138.533,-4.818,1.076,15.0
0.0,0.0,0.0,0.0
0.0,0.0,0.0,0.0
45.6,-1.637,-0.405,0.0
0.0,0.0,0.0,0.0
30.3,-1.11,-0.603,0.0
138.487,-5.107,1.071,22.0
94.104,-3.504,0.209,2.0
0.0,0.0,0.0,0.0
45.144,-1.714,-0.401,1.0
0.0,0.0,0.0,0.0
30.582,-1.184,-0.609,0.0
138.412,-5.389,1.071,15.0
0.0,0.0,0.0,0.0
0.0,0.0,0.0,0.0
0.0,0.0,0.0,0.0
0.0,0.0,0.0,0.0
30.161,-1.229,-0.599,0.0
138.415,-5.672,1.078,14.0
0.0,0.0,0.0,0.0
0.0,0.0,0.0,0.0
47.012,-1.979,-0.414,0.0
0.0,0.0,0.0,0.0
30.303,-1.298,-0.6,0.0
138.032,-5.939,1.086,22.0
0.0,0.0,0.0,0.0
0.0,0.0,0.0,0.0
0.0,0.0,0.0,0.0
19.988,-0.889,-0.283,0.0
30.834,-1.384,-0.607,0.0
138.243,-6.233,1.104,15.0
0.0,0.0,0.0,0.0
20.026,-0.917,-0.059,1.0
19.989,-0.923,-0.171,18.0
20.033,-0.933,-0.281,22.0
20.05,-0.941,-0.391,23.0
138.258,-6.516,1.126,18.0
0.0,0.0,0.0,0.0
20.002,-0.957,-0.056,20.0
19.982,-0.963,-0.167,29.0
20.014,-0.972,-0.277,24.0
20.021,-0.98,-0.387,32.0
20.166,-0.991,0.168,4.0
20.007,-0.99,0.057,17.0
19.98,-0.996,-0.052,27.0
19.984,-1.004,-0.163,28.0
20.027,-1.014,-0.273,24.0
20.022,-1.021,-0.383,28.0
20.017,-1.024,0.171,18.0
19.992,-1.03,0.061,27.0
19.978,-1.036,-0.047,24.0
20.004,-1.045,-0.158,26.0
19.966,-1.051,-0.267,0.0
19.986,-1.059,-0.377,0.0
19.988,-1.062,0.176,24.0
19.98,-1.069,0.067,28.0
20.001,-1.077,-0.041,19.0
20.03,-1.086,-0.153,0.0
0.0,0.0,0.0,0.0
0.0,0.0,0.0,0.0
20.009,-1.103,0.182,27.0
19.996,-1.109,0.073,18.0
20.036,-1.119,-0.035,2.0
50.192,-2.821,-0.368,1.0
38.646,-2.187,-0.494,1.0
19.993,-1.138,-0.364,0.0
20.109,-1.148,0.19,6.0
20.09,-1.154,0.08,1.0
20.013,-1.156,-0.028,3.0
20.007,-1.163,-0.139,151.0
19.997,-1.17,-0.248,150.0
19.981,-1.177,-0.357,150.0
20.001,-1.18,0.197,150.0
19.991,-1.187,0.087,151.0
19.99,-1.194,-0.02,151.0
19.981,-1.201,-0.131,151.0
19.986,-1.208,-0.24,151.0
19.974,-1.215,-0.349,11.0
19.99,-1.218,0.205,150.0
20.002,-1.226,0.096,27.0
20.003,-1.233,-0.012,14.0
20.025,-1.242,-0.123,25.0
20.038,-1.249,-0.232,26.0
20.067,-1.259,-0.342,26.0
19.992,-1.256,0.213,28.0
19.994,-1.263,0.105,26.0
19.998,-1.27,-0.003,18.0
19.999,-1.278,-0.114,32.0
20.024,-1.287,-0.223,30.0
20.047,-1.295,-0.332,28.0
19.967,-1.293,0.223,29.0
19.983,-1.301,0.114,19.0
19.994,-1.308,0.006,15.0
19.994,-1.315,-0.104,29.0
20.016,-1.324,-0.213,27.0
20.047,-1.333,-0.322,29.0
19.976,-1.33,0.233,17.0
19.998,-1.339,0.125,17.0
20.009,-1.346,0.016,10.0
19.988,-1.352,-0.093,18.0
20.019,-1.361,-0.202,14.0
20.069,-1.372,-0.311,1.0
119.317,-8.17,1.46,17.0
95.391,-6.565,0.65,6.0
0.0,0.0,0.0,0.0
20.044,-1.393,-0.082,0.0
0.0,0.0,0.0,0.0
35.282,-2.477,-0.527,0.0
20.026,-1.407,0.256,18.0
20.025,-1.414,0.148,11.0
59.232,-4.202,0.117,2.0
48.662,-3.469,-0.171,0.0
42.115,-3.017,-0.376,1.0
0.0,0.0,0.0,0.0
20.031,-1.443,0.268,25.0
20.023,-1.45,0.16,30.0
82.298,-5.987,0.214,1.0
45.073,-3.294,-0.131,1.0
39.164,-2.876,-0.325,1.0
38.083,-2.809,-0.522,7.0
20.039,-1.48,0.281,1.0
20.051,-1.487,0.173,6.0
81.484,-6.072,0.265,9.0
45.308,-3.391,-0.101,0.0
40.306,-3.03,-0.308,15.0
34.17,-2.58,-0.446,2.0
119.298,-9.019,1.758,17.0
113.769,-8.637,1.061,8.0
67.885,-5.176,0.267,11.0
52.075,-3.987,-0.081,2.0
40.497,-3.114,-0.281,15.0
33.312,-2.573,-0.411,1.0
67.876,-5.248,1.047,93.0
67.859,-5.268,0.681,85.0
67.848,-5.288,0.315,80.0
55.363,-4.333,-0.046,4.0
40.661,-3.195,-0.253,10.0
34.399,-2.714,-0.4,11.0
119.357,-9.427,1.929,25.0
119.167,-9.448,1.282,8.0
82.013,-6.527,0.44,7.0
55.838,-4.463,-0.005,6.0
40.625,-3.26,-0.223,2.0
35.522,-2.862,-0.386,19.0
119.326,-9.621,2.019,32.0
119.131,-9.642,1.373,14.0
85.668,-6.961,0.527,11.0
61.644,-5.027,0.04,5.0
47.541,-3.892,-0.224,5.0
35.65,-2.93,-0.36,38.0
126.505,-10.407,2.24,77.0
119.194,-9.84,1.469,17.0
87.589,-7.258,0.608,4.0
58.592,-4.874,0.086,3.0
0.0,0.0,0.0,0.0
35.661,-2.989,-0.331,26.0
126.47,-10.607,2.344,97.0
119.2,-10.033,1.568,17.0
89.444,-7.555,0.695,2.0
67.389,-5.712,0.155,10.0
47.614,-4.05,-0.146,21.0
35.677,-3.046,-0.301,1.0
126.473,-10.804,2.45,52.0
119.176,-10.215,1.668,18.0
89.583,-7.703,0.772,3.0
67.497,-5.824,0.213,5.0
0.0,0.0,0.0,0.0
41.632,-3.618,-0.315,10.0
135.704,-11.802,2.747,34.0
135.708,-11.841,2.019,150.0
112.464,-9.844,1.069,3.0
80.39,-7.06,0.325,5.0
50.519,-4.451,-0.066,24.0
0.0,0.0,0.0,0.0
72.797,-6.439,1.539,14.0
135.632,-12.036,2.14,74.0
112.945,-10.053,1.176,6.0
80.736,-7.209,0.399,3.0
51.106,-4.577,-0.021,24.0
41.695,-3.747,-0.24,16.0
135.611,-12.193,2.991,131.0
135.615,-12.23,2.265,150.0
114.64,-10.37,1.3,5.0
84.972,-7.71,0.5,14.0
51.592,-4.696,0.026,7.0
43.813,-4.0,-0.211,19.0
119.27,-10.895,2.745,19.0
135.57,-12.42,2.393,150.0
119.09,-10.94,1.464,7.0
85.523,-7.88,0.584,12.0
54.455,-5.032,0.08,4.0
44.9,-4.161,-0.174,19.0
119.255,-11.059,2.859,90.0
119.253,-11.089,2.219,18.0
119.139,-11.11,1.579,12.0
87.285,-8.161,0.681,4.0
55.398,-5.195,0.136,1.0
46.224,-4.347,-0.133,20.0
193.153,-18.173,4.822,8.0
193.253,-18.232,3.79,24.0
119.073,-11.264,1.698,16.0
89.114,-8.452,0.785,4.0
71.826,-6.831,0.248,5.0
47.494,-4.529,-0.089,21.0
74.286,-7.088,1.929,6.0
119.283,-11.411,2.46,9.0
119.175,-11.429,1.821,13.0
111.066,-10.679,1.092,13.0
79.766,-7.69,0.358,6.0
48.454,-4.683,-0.04,22.0
104.469,-10.102,2.822,10.0
135.533,-13.139,2.937,77.0
135.529,-13.17,2.212,150.0
111.431,-10.855,1.213,15.0
84.981,-8.299,0.47,5.0
49.371,-4.833,0.01,23.0
119.232,-11.679,3.347,11.0
119.216,-11.704,2.709,14.0
135.491,-13.333,2.356,71.0
114.554,-11.299,1.367,6.0
84.712,-8.375,0.56,11.0
51.396,-5.093,0.065,14.0
73.922,-7.33,2.154,25.0
78.678,-7.818,1.872,12.0
135.44,-13.489,2.501,146.0
114.656,-11.444,1.492,9.0
87.658,-8.77,0.673,8.0
63.443,-6.361,0.149,2.0
73.959,-7.419,2.236,22.0
78.597,-7.901,1.956,17.0
135.419,-13.642,2.648,126.0
135.407,-13.67,1.912,150.0
87.891,-8.892,0.772,6.0
63.796,-6.468,0.22,2.0
74.326,-7.539,2.328,44.0
78.976,-8.026,2.052,18.0
104.592,-10.651,2.16,13.0
135.379,-13.815,2.061,150.0
104.645,-10.701,1.036,8.0
79.409,-8.137,0.363,6.0
74.198,-7.607,2.408,29.0
78.764,-8.09,2.136,8.0
104.702,-10.775,2.281,13.0
104.654,-10.791,1.712,11.0
104.58,-10.805,1.154,8.0
33.141,-3.431,0.189,0.0
78.218,-8.101,2.628,18.0
78.499,-8.144,2.219,22.0
104.571,-10.869,2.398,10.0
119.192,-12.412,2.087,88.0
33.132,-3.456,0.403,2.0
33.136,-3.463,0.227,64.0
78.093,-8.167,2.714,16.0
78.328,-8.204,2.304,9.0
78.876,-8.276,1.899,20.0
33.163,-3.485,0.618,11.0
33.141,-3.489,0.441,72.0
33.119,-3.493,0.265,71.0
72.331,-7.633,2.598,19.0
78.157,-8.261,2.39,11.0
33.161,-3.51,0.837,37.0
33.153,-3.515,0.657,72.0
33.12,-3.518,0.48,73.0
33.112,-3.523,0.304,81.0
33.19,-3.533,1.231,2.0
33.167,-3.536,1.053,53.0
33.16,-3.54,0.876,72.0
33.128,-3.542,0.696,79.0
33.125,-3.547,0.52,81.0
33.114,-3.552,0.343,76.0
33.185,-3.562,1.271,75.0
33.164,-3.564,1.093,73.0
33.144,-3.567,0.916,81.0
33.134,-3.571,0.736,81.0
33.126,-3.575,0.559,78.0
33.12,-3.58,0.383,68.0
33.173,-3.588,1.31,76.0
33.15,-3.59,1.132,85.0
33.14,-3.593,0.956,80.0
33.133,-3.598,0.775,80.0
33.135,-3.602,0.599,61.0
33.143,-3.608,0.423,41.0
33.155,-3.612,1.349,86.0
33.156,-3.616,1.173,79.0
33.152,-3.62,0.996,78.0
33.123,-3.622,0.816,49.0
33.153,-3.63,0.64,35.0
33.146,-3.634,0.464,1.0
33.169,-3.638,1.391,80.0
33.166,-3.642,1.214,79.0
33.156,-3.645,1.037,43.0
33.164,-3.65,0.857,29.0
33.141,-3.652,0.68,0.0
118.799,-13.107,1.809,16.0
33.167,-3.661,1.431,76.0
33.174,-3.666,1.255,43.0
33.192,-3.671,1.079,22.0
75.073,-8.314,2.034,25.0
75.255,-8.343,1.638,18.0
118.884,-13.194,1.956,26.0
33.184,-3.685,1.473,42.0
33.205,-3.691,1.297,15.0
74.484,-8.287,2.513,22.0
74.767,-8.326,2.118,36.0
75.172,-8.38,1.73,26.0
118.935,-13.273,2.105,23.0
33.216,-3.709,1.516,8.0
72.249,-8.075,2.913,21.0
74.089,-8.287,2.593,34.0
74.559,-8.347,2.205,16.0
74.562,-8.355,1.808,42.0
75.259,-8.44,1.425,22.0
72.426,-8.129,3.397,20.0
0.0,0.0,0.0,0.0
74.036,-8.321,2.683,38.0
74.577,-8.389,2.298,10.0
74.389,-8.375,1.896,32.0
75.171,-8.47,1.516,22.0
0.0,0.0,0.0,0.0
73.455,-8.288,3.145,18.0
72.912,-8.232,2.733,15.0
75.404,-8.519,2.417,22.0
74.517,-8.425,1.992,17.0
75.158,-8.503,1.61,22.0
72.881,-8.253,3.6,18.0
73.421,-8.318,3.235,15.0
73.259,-8.304,2.837,22.0
75.131,-8.522,2.501,48.0
74.465,-8.451,2.083,17.0
74.902,-8.506,1.697,24.0
72.597,-8.252,3.677,21.0
73.529,-8.361,3.331,20.0
73.262,-8.334,2.928,30.0
72.966,-8.305,2.521,15.0
74.558,-8.491,2.179,21.0
74.399,-8.477,1.778,30.0
72.359,-8.252,3.755,19.0
73.494,-8.385,3.422,44.0
73.063,-8.338,3.012,11.0
72.901,-8.323,2.609,26.0
75.205,-8.59,2.29,33.0
74.484,-8.512,1.873,25.0
72.3,-8.27,3.841,13.0
73.044,-8.357,3.492,33.0
73.152,-8.372,3.107,22.0
72.648,-8.317,2.69,29.0
75.212,-8.613,2.385,15.0
0.0,0.0,0.0,0.0
70.101,-8.039,3.812,15.0
72.982,-8.371,3.579,31.0
73.337,-8.413,3.205,33.0
72.709,-8.343,2.782,22.0
74.544,-8.555,2.456,10.0
75.377,-8.653,2.081,5.0
70.167,-8.064,3.902,21.0
73.222,-8.415,3.682,32.0
73.303,-8.425,3.294,38.0
72.562,-8.341,2.866,20.0
0.0,0.0,0.0,0.0
75.274,-8.656,2.171,10.0
0.0,0.0,0.0,0.0
0.0,0.0,0.0,0.0
73.358,-8.445,3.386,30.0
72.896,-8.392,2.969,23.0
72.701,-8.37,2.574,21.0
74.458,-8.574,2.239,7.0
71.742,-8.27,4.168,28.0
72.01,-8.3,3.799,7.0
73.038,-8.418,3.463,29.0
73.184,-8.434,3.071,27.0
72.633,-8.371,2.661,24.0
74.353,-8.569,2.327,8.0
71.708,-8.274,4.255,28.0
70.12,-8.089,3.785,16.0
72.946,-8.414,3.547,31.0
73.399,-8.465,3.17,39.0
72.572,-8.369,2.747,13.0
74.479,-8.588,2.421,10.0
72.106,-8.324,4.366,12.0
70.143,-8.095,3.871,19.0
72.932,-8.415,3.634,20.0
73.23,-8.447,3.251,36.0
72.574,-8.371,2.833,17.0
74.557,-8.598,2.513,12.0
72.524,-8.373,4.479,13.0
70.188,-8.101,3.958,10.0
71.973,-8.304,3.673,7.0
73.339,-8.459,3.343,29.0
72.834,-8.399,2.931,27.0
72.742,-8.386,2.539,9.0
72.434,-8.361,4.559,11.0
71.708,-8.273,4.129,28.0
72.02,-8.306,3.76,8.0
73.172,-8.436,3.421,21.0
73.128,-8.428,3.028,21.0
72.666,-8.372,2.62,25.0
72.25,-8.334,4.633,6.0
71.689,-8.265,4.213,30.0
70.068,-8.074,3.741,10.0
72.961,-8.404,3.497,30.0
73.17,-8.424,3.116,24.0
72.555,-8.35,2.702,22.0
33.341,-3.842,2.177,2.0
72.091,-8.302,4.321,16.0
70.136,-8.072,3.827,22.0
72.971,-8.394,3.583,36.0
73.271,-8.424,3.206,35.0
72.611,-8.344,2.788,18.0
74.269,-8.546,4.937,24.0
72.626,-8.351,4.437,14.0
70.183,-8.065,3.911,17.0
73.287,-8.416,3.683,34.0
73.335,-8.417,3.292,39.0
72.888,-8.361,2.881,19.0
74.073,-8.508,5.009,11.0
72.546,-8.326,4.516,21.0
0.0,0.0,0.0,0.0
72.991,-8.364,3.752,15.0
73.412,-8.407,3.379,50.0
73.191,-8.377,2.975,15.0
77.201,-8.847,5.308,8.0
72.444,-8.295,4.59,14.0
71.807,-8.216,4.163,26.0
72.36,-8.272,3.799,14.0
73.312,-8.374,3.456,36.0
73.086,-8.343,3.053,11.0
69.702,-7.968,4.869,14.0
33.335,-3.807,2.149,2.0
72.029,-8.218,4.257,17.0
72.351,-8.248,3.878,12.0
73.163,-8.333,3.529,31.0
73.552,-8.371,3.153,14.0
33.269,-3.427,2.841,52.0
33.273,-3.419,2.658,51.0
33.256,-3.41,2.474,48.0
33.245,-3.401,2.288,53.0
69.301,-7.074,4.39,23.0
68.941,-7.022,3.99,8.0
33.259,-3.392,2.862,53.0
33.25,-3.383,2.678,51.0
33.255,-3.376,2.496,48.0
33.243,-3.367,2.309,52.0
69.35,-7.008,4.437,24.0
68.947,-6.951,4.034,12.0
33.262,-3.358,2.883,52.0
33.249,-3.349,2.699,51.0
33.244,-3.34,2.515,49.0
33.23,-3.33,2.328,53.0
69.588,-6.958,4.494,17.0
69.086,-6.892,4.083,20.0
33.251,-3.321,2.902,53.0
33.239,-3.312,2.718,54.0
33.244,-3.304,2.535,53.0
33.221,-3.293,2.347,52.0
69.655,-6.89,4.538,12.0
69.161,-6.823,4.126,14.0
33.244,-3.284,2.92,55.0
33.233,-3.275,2.735,52.0
33.234,-3.266,2.552,54.0
33.219,-3.256,2.364,53.0
33.239,-3.25,2.183,36.0
71.842,-7.009,4.323,17.0
33.233,-3.246,2.936,53.0
33.222,-3.236,2.752,52.0
33.222,-3.228,2.568,52.0
33.214,-3.218,2.381,53.0
33.234,-3.212,2.199,42.0
70.418,-6.789,4.271,15.0
33.236,-3.208,2.953,53.0
33.218,-3.197,2.767,52.0
33.212,-3.188,2.583,53.0
33.196,-3.178,2.395,52.0
33.22,-3.172,2.213,47.0
69.743,-6.642,4.262,24.0
33.226,-3.168,2.967,53.0
33.205,-3.157,2.781,50.0
33.206,-3.148,2.597,47.0
33.201,-3.139,2.409,51.0
33.214,-3.131,2.227,48.0
69.835,-6.567,4.296,12.0
74.618,-7.025,6.695,24.0
74.54,-6.998,6.273,7.0
73.79,-6.907,5.8,8.0
69.896,-6.523,5.1,43.0
70.651,-6.575,4.764,11.0
69.887,-6.485,4.326,20.0
74.609,-6.932,6.721,18.0
73.844,-6.84,6.242,31.0
72.851,-6.728,5.753,8.0
70.363,-6.478,5.159,26.0
70.764,-6.496,4.796,47.0
70.47,-6.451,4.386,17.0
77.057,-7.061,6.969,4.0
71.381,-6.521,6.057,4.0
71.138,-6.479,5.641,17.0
70.406,-6.392,5.185,27.0
70.766,-6.406,4.818,20.0
71.303,-6.436,4.459,14.0
73.463,-6.637,6.666,20.0
74.52,-6.712,6.345,14.0
71.076,-6.382,5.655,10.0
70.437,-6.305,5.206,29.0
70.603,-6.3,4.826,37.0
70.763,-6.296,4.444,22.0
80.24,-7.146,7.301,6.0
73.286,-6.505,6.259,17.0
74.537,-6.594,5.95,10.0
70.698,-6.234,5.242,8.0
70.408,-6.189,4.829,33.0
74.849,-6.559,4.718,6.0
79.866,-7.005,7.284,11.0
71.292,-6.232,6.104,13.0
0.0,0.0,0.0,0.0
71.019,-6.167,5.28,22.0
70.221,-6.078,4.829,14.0
71.798,-6.195,4.539,15.0
73.646,-6.36,6.73,10.0
71.183,-6.126,6.106,11.0
71.022,-6.091,5.696,11.0
70.834,-6.054,5.278,6.0
70.141,-5.976,4.834,38.0
0.0,0.0,0.0,0.0
0.0,0.0,0.0,0.0
72.195,-6.113,6.203,11.0
70.392,-5.94,5.654,32.0
70.763,-5.951,5.28,19.0
70.237,-5.887,4.849,18.0
70.712,-5.907,4.487,22.0
72.009,-6.019,6.598,11.0
72.893,-6.071,6.269,8.0
73.112,-6.068,5.878,9.0
70.729,-5.849,5.284,21.0
70.907,-5.844,4.9,26.0
71.816,-5.898,4.562,7.0
71.262,-5.856,6.534,13.0
73.044,-5.981,6.286,10.0
73.232,-5.975,5.89,13.0
70.676,-5.745,5.282,11.0
70.97,-5.749,4.906,36.0
75.959,-6.131,4.826,10.0
70.872,-5.723,6.498,17.0
73.203,-5.889,6.3,6.0
73.218,-5.869,5.889,28.0
70.551,-5.634,5.272,10.0
70.762,-5.63,4.891,20.0
75.755,-6.006,4.812,8.0
70.893,-5.622,6.498,19.0
70.663,-5.582,6.079,20.0
73.297,-5.768,5.893,15.0
67.998,-5.331,5.078,17.0
67.972,-5.309,4.694,55.0
67.968,-5.289,4.313,83.0
68.01,-5.294,6.229,12.0
67.996,-5.272,5.844,78.0
67.994,-5.251,5.461,72.0
67.998,-5.231,5.072,37.0
70.928,-5.436,4.891,12.0
71.886,-5.489,4.555,15.0
68.018,-5.194,6.223,7.0
70.591,-5.369,6.059,15.0
73.082,-5.536,5.861,25.0
74.692,-5.636,5.561,6.0
71.17,-5.35,4.898,8.0
72.232,-5.409,4.566,47.0
70.771,-5.299,6.464,8.0
72.312,-5.392,6.195,7.0
73.199,-5.436,5.857,44.0
72.543,-5.365,5.389,7.0
71.855,-5.293,4.933,13.0
75.177,-5.517,4.738,13.0
71.025,-5.211,6.473,23.0
0.0,0.0,0.0,0.0
73.297,-5.334,5.85,10.0
78.936,-5.721,5.847,8.0
71.629,-5.17,4.901,18.0
75.593,-5.434,4.746,13.0
71.307,-5.125,6.482,11.0
72.117,-5.161,6.146,14.0
72.154,-5.142,5.74,11.0
0.0,0.0,0.0,0.0
76.737,-5.423,5.23,12.0
71.711,-5.048,4.483,7.0
72.922,-5.13,6.608,10.0
72.085,-5.049,6.123,22.0
72.35,-5.045,5.735,37.0
71.925,-4.994,5.286,17.0
76.15,-5.265,5.167,12.0
71.7,-4.936,4.46,9.0
64.354,-4.428,5.81,7.0
72.268,-4.95,6.114,32.0
72.533,-4.947,5.725,50.0
72.946,-4.954,5.336,28.0
71.815,-4.856,4.848,22.0
71.718,-4.828,4.436,20.0
64.251,-4.323,5.777,29.0
72.413,-4.85,6.1,35.0
73.973,-4.931,5.81,21.0
72.38,-4.804,5.267,34.0
71.665,-4.736,4.809,13.0
71.241,-4.688,4.378,30.0
64.224,-4.222,5.749,40.0
70.914,-4.64,5.944,17.0
71.101,-4.632,5.555,35.0
72.032,-4.67,5.212,12.0
71.531,-4.618,4.769,35.0
71.165,-4.574,4.342,23.0
64.091,-4.114,5.708,34.0
63.959,-4.086,5.331,38.0
76.195,-4.846,5.917,7.0
72.264,-4.574,5.193,8.0
71.564,-4.508,4.737,35.0
70.957,-4.45,4.295,22.0
63.862,-4.0,5.655,35.0
63.458,-3.955,5.257,38.0
63.533,-3.941,4.901,8.0
58.717,-3.625,4.19,31.0
58.867,-3.616,3.865,29.0
70.868,-4.334,4.252,47.0
63.633,-3.886,5.6,39.0
63.428,-3.855,5.22,36.0
63.576,-3.845,4.87,16.0
58.698,-3.533,4.155,33.0
58.886,-3.527,3.834,32.0
71.379,-4.255,4.242,32.0
63.401,-3.773,5.543,34.0
63.364,-3.751,5.177,19.0
63.528,-3.743,4.828,20.0
58.982,-3.457,4.14,33.0
59.009,-3.441,3.806,32.0
71.52,-4.151,4.206,30.0
63.115,-3.657,5.479,39.0
62.992,-3.631,5.107,34.0
58.806,-3.372,4.431,20.0
64.462,-3.678,4.483,12.0
58.83,-3.34,3.756,32.0
58.639,-3.312,3.41,18.0
62.884,-3.545,5.416,38.0
62.851,-3.525,5.053,11.0
63.79,-3.558,4.763,38.0
58.904,-3.269,4.056,25.0
58.463,-3.228,3.692,32.0
58.546,-3.216,3.364,28.0
62.665,-3.434,5.352,32.0
58.819,-3.206,4.686,28.0
63.982,-3.468,4.731,39.0
63.38,-3.418,4.318,13.0
58.534,-3.14,3.653,32.0
58.794,-3.138,3.334,32.0
60.338,-3.213,5.108,16.0
57.185,-3.028,4.513,24.0
60.056,-3.163,4.395,10.0
58.624,-3.071,3.949,33.0
58.464,-3.046,3.603,31.0
58.845,-3.049,3.291,29.0
60.219,-3.113,5.05,29.0
56.823,-2.921,4.439,30.0
0.0,0.0,0.0,0.0
58.588,-2.979,3.899,33.0
58.307,-2.948,3.546,31.0
77.77,-3.911,4.286,15.0
0.0,0.0,0.0,0.0
56.819,-2.833,4.39,30.0
57.03,-2.827,4.079,30.0
58.296,-2.874,3.83,32.0
58.352,-2.86,3.499,31.0
78.779,-3.84,4.273,12.0
44.157,-2.145,3.627,37.0
0.0,0.0,0.0,0.0
57.032,-2.739,4.028,30.0
58.232,-2.781,3.773,32.0
58.121,-2.76,3.433,33.0
79.7,-3.764,4.251,32.0
44.08,-2.074,3.58,49.0
56.934,-2.663,4.296,30.0
46.072,-2.142,3.211,16.0
58.336,-2.696,3.726,31.0
67.447,-3.099,3.921,19.0
80.444,-3.675,4.215,18.0
44.096,-2.007,3.539,33.0
46.136,-2.087,3.437,9.0
46.116,-2.073,3.17,3.0
67.419,-3.013,4.239,10.0
67.297,-2.989,3.846,21.0
80.648,-3.562,4.146,30.0
58.256,-2.563,4.617,8.0
44.342,-1.938,3.258,34.0
57.629,-2.503,3.903,23.0
59.26,-2.558,3.666,34.0
60.031,-2.576,3.368,33.0
80.86,-3.449,4.074,29.0
44.222,-1.878,3.458,35.0
44.443,-1.875,3.219,33.0
45.299,-1.899,3.02,26.0
57.965,-2.415,3.524,21.0
59.821,-2.477,3.293,33.0
81.03,-3.333,3.995,37.0
44.116,-1.806,3.402,47.0
44.363,-1.805,3.165,45.0
0.0,0.0,0.0,0.0
59.674,-2.396,3.563,32.0
66.359,-2.647,3.58,14.0
81.279,-3.222,3.917,45.0
44.162,-1.741,3.355,37.0
44.269,-1.734,3.107,40.0
0.0,0.0,0.0,0.0
59.675,-2.307,3.494,34.0
66.323,-2.547,3.501,18.0
81.243,-3.1,3.823,26.0
44.206,-1.678,3.307,50.0
44.329,-1.671,3.06,42.0
46.081,-1.725,2.915,28.0
66.349,-2.467,3.807,9.0
66.252,-2.447,3.42,27.0
94.273,-3.458,4.323,17.0
44.185,-1.611,3.251,51.0
44.454,-1.61,3.014,41.0
46.33,-1.666,2.874,20.0
66.273,-2.366,3.721,42.0
81.235,-2.881,4.094,22.0
94.178,-3.317,4.203,26.0
44.233,-1.548,3.2,51.0
0.0,0.0,0.0,0.0
46.218,-1.594,2.808,11.0
66.227,-2.268,3.636,36.0
81.163,-2.76,3.987,25.0
94.42,-3.189,4.094,12.0
46.047,-1.545,3.273,3.0
46.038,-1.534,3.005,36.0
65.856,-2.178,3.918,16.0
71.732,-2.354,3.846,27.0
94.4,-3.077,4.516,13.0
101.113,-3.272,4.254,19.0
45.923,-1.476,3.204,28.0
56.878,-1.814,3.638,26.0
65.821,-2.083,3.829,22.0
80.337,-2.523,4.201,17.0
81.28,-2.534,3.78,34.0
101.129,-3.129,4.119,16.0
45.941,-1.411,3.142,33.0
56.865,-1.733,3.56,30.0
65.643,-1.985,3.729,16.0
80.571,-2.418,4.102,32.0
81.323,-2.421,3.669,40.0
106.269,-3.14,4.182,9.0
46.421,-1.361,3.11,27.0
56.828,-1.653,3.479,30.0
66.005,-1.905,3.657,23.0
81.582,-2.336,4.04,16.0
94.765,-2.692,4.145,15.0
117.488,-3.312,4.46,15.0
57.4,-1.605,3.765,16.0
71.485,-1.982,4.274,13.0
78.99,-2.173,4.265,9.0
81.143,-2.213,3.902,38.0
101.712,-2.751,4.302,16.0
106.16,-2.849,3.877,8.0
56.781,-1.51,3.641,7.0
78.432,-2.069,4.575,9.0
81.156,-2.123,4.263,13.0
81.784,-2.121,3.813,17.0
96.676,-2.486,3.947,13.0
113.241,-2.887,3.968,5.0
51.708,-1.307,3.239,29.0
73.772,-1.848,4.192,23.0
74.199,-1.842,3.785,24.0
81.773,-2.012,3.688,12.0
106.446,-2.597,4.186,14.0
113.169,-2.737,3.795,18.0
51.754,-1.239,3.162,32.0
73.829,-1.753,4.083,36.0
80.905,-1.904,4.004,9.0
96.093,-2.24,4.188,22.0
96.589,-2.232,3.651,10.0
112.482,-2.576,3.599,21.0
51.912,-1.176,3.091,27.0
74.293,-1.668,3.993,40.0
81.048,-1.803,3.885,18.0
106.494,-2.348,4.476,20.0
113.3,-2.474,4.105,24.0
112.572,-2.436,3.426,31.0
61.185,-1.31,3.548,15.0
74.479,-1.58,3.886,16.0
81.621,-1.715,3.784,20.0
96.701,-2.011,3.911,11.0
112.592,-2.32,3.901,19.0
112.752,-2.3,3.251,24.0
73.587,-1.485,4.148,25.0
81.995,-1.637,4.144,24.0
95.722,-1.893,4.282,18.0
106.687,-2.088,4.141,10.0
112.6,-2.181,3.716,18.0
112.605,-2.16,3.064,27.0
0.0,0.0,0.0,0.0
81.439,-1.527,3.981,14.0
106.642,-1.98,4.594,8.0
112.73,-2.07,4.188,18.0
113.038,-2.054,3.543,7.0
112.67,-2.027,2.879,16.0
81.713,-1.452,4.334,25.0
85.391,-1.501,4.033,8.0
112.226,-1.952,4.647,9.0
112.691,-1.938,3.999,17.0
112.98,-1.922,3.353,4.0
0.0,0.0,0.0,0.0
81.982,-1.361,4.209,18.0
81.521,-1.338,3.709,11.0
106.564,-1.729,4.23,14.0
112.622,-1.806,3.803,2.0
112.758,-1.788,3.152,14.0
206.087,-3.231,4.564,15.0
81.406,-1.259,4.038,10.0
96.535,-1.475,4.225,13.0
106.671,-1.61,4.047,12.0
209.574,-3.127,6.712,11.0
113.294,-1.669,2.969,5.0
0.0,0.0,0.0,0.0
81.139,-1.164,3.881,24.0
112.177,-1.59,4.712,17.0
190.562,-2.666,6.894,21.0
0.0,0.0,0.0,0.0
206.952,-2.822,5.053,7.0
204.429,-2.754,3.805,6.0
94.946,-1.259,4.371,19.0
189.834,-2.484,7.634,25.0
210.379,-2.718,7.234,16.0
209.184,-2.666,5.952,18.0
210.592,-2.65,4.769,10.0
204.187,-2.534,3.434,13.0
112.012,-1.367,4.954,18.0
190.508,-2.295,7.318,36.0
211.013,-2.506,6.873,7.0
209.159,-2.45,5.574,19.0
0.0,0.0,0.0,0.0
119.731,-1.363,1.796,12.0
189.77,-2.124,8.047,58.0
190.532,-2.1,6.967,28.0
211.137,-2.293,6.489,11.0
119.711,-1.28,2.969,137.0
119.744,-1.262,2.272,151.0
119.747,-1.243,1.575,150.0
189.799,-1.934,7.694,62.0
190.623,-1.913,6.616,7.0
119.706,-1.183,3.457,98.0
119.726,-1.165,2.748,150.0
119.759,-1.147,2.052,122.0
119.698,-1.128,1.353,26.0
190.449,-1.757,7.363,44.0
214.624,-1.948,7.045,15.0
119.74,-1.069,3.233,115.0
119.735,-1.051,2.522,93.0
119.75,-1.033,1.823,87.0
119.682,-1.014,1.124,18.0
190.548,-1.58,7.004,30.0
205.57,-1.674,6.355,12.0
119.731,-0.958,3.002,30.0
119.768,-0.94,2.292,11.0
119.664,-0.922,1.592,13.0
119.715,-0.905,0.894,6.0
190.6,-1.407,6.634,6.0
0.0,0.0,0.0,0.0
119.814,-0.851,2.773,46.0
119.812,-0.835,2.062,25.0
119.681,-0.817,1.362,19.0
110.903,-0.741,0.614,7.0
215.451,-1.403,7.081,10.0
119.819,-0.764,3.238,16.0
194.319,-1.214,4.12,23.0
119.814,-0.732,1.828,41.0
119.698,-0.715,1.128,16.0
0.0,0.0,0.0,0.0
206.648,-1.174,6.389,7.0
119.803,-0.664,3.003,60.0
119.797,-0.649,2.303,30.0
119.68,-0.633,1.591,3.0
119.67,-0.617,0.891,4.0
0.0,0.0,0.0,0.0
0.0,0.0,0.0,0.0
119.816,-0.569,2.765,41.0
119.853,-0.553,2.065,13.0
119.696,-0.537,1.35,16.0
110.969,-0.485,0.604,2.0
0.0,0.0,0.0,0.0
119.818,-0.491,3.224,18.0
119.809,-0.476,2.523,9.0
112.416,-0.433,1.71,6.0
119.688,-0.447,1.111,13.0
0.0,0.0,0.0,0.0
0.0,0.0,0.0,0.0
119.827,-0.404,2.985,43.0
119.84,-0.39,2.284,25.0
119.706,-0.375,1.582,14.0
114.434,-0.346,0.833,18.0
0.0,0.0,0.0,0.0
0.0,0.0,0.0,0.0
119.808,-0.32,2.742,7.0
119.847,-0.307,2.041,88.0
119.709,-0.293,1.339,17.0
110.575,-0.259,0.581,1.0
0.0,0.0,0.0,0.0
0.0,0.0,0.0,0.0
0.0,0.0,0.0,0.0
119.788,-0.227,1.796,4.0
117.366,-0.211,1.074,12.0
99.148,-0.168,0.318,1.0
0.0,0.0,0.0,0.0
45.214,-0.067,-0.383,1.0
117.372,-0.162,2.207,26.0
117.348,-0.15,1.519,15.0
111.072,-0.13,0.788,9.0
0.0,0.0,0.0,0.0
0.0,0.0,0.0,0.0
0.0,0.0,0.0,0.0
117.336,-0.092,1.964,22.0
117.333,-0.081,1.278,12.0
102.989,-0.061,0.519,2.0
0.0,0.0,0.0,0.0
0.0,0.0,0.0,0.0
37.963,-0.012,-0.478,0.0
117.288,-0.026,1.719,15.0
111.102,-0.015,0.979,7.0
95.61,-0.004,0.282,4.0
0.0,0.0,0.0,0.0
45.377,0.005,-0.4,3.0
35.431,0.007,-0.519,0.0
111.129,0.032,1.396,20.0
110.566,0.042,0.742,7.0
0.0,0.0,0.0,0.0
0.0,0.0,0.0,0.0
42.811,0.026,-0.467,0.0
33.128,0.023,-0.555,0.0
111.173,0.086,1.164,15.0
0.0,0.0,0.0,0.0
0.0,0.0,0.0,0.0
49.645,0.05,-0.355,0.0
37.974,0.041,-0.493,0.0
0.0,0.0,0.0,0.0
110.848,0.135,0.93,11.0
92.993,0.12,0.235,1.0
0.0,0.0,0.0,0.0
45.061,0.064,-0.416,1.0
35.697,0.053,-0.538,0.0
29.37,0.046,-0.615,0.0
103.533,0.169,0.652,8.0
0.0,0.0,0.0,0.0
52.904,0.093,-0.285,0.0
0.0,0.0,0.0,0.0
32.135,0.061,-0.552,0.0
0.0,0.0,0.0,0.0
93.143,0.187,0.39,1.0
0.0,0.0,0.0,0.0
0.0,0.0,0.0,0.0
36.612,0.08,-0.492,0.0
30.434,0.068,-0.587,0.0
26.234,0.06,-0.66,0.0
90.03,0.211,0.187,1.0
0.0,0.0,0.0,0.0
42.867,0.105,-0.412,1.0
0.0,0.0,0.0,0.0
28.845,0.074,-0.618,0.0
24.541,0.064,-0.669,0.0
0.0,0.0,0.0,0.0
0.0,0.0,0.0,0.0
0.0,0.0,0.0,0.0
0.0,0.0,0.0,0.0
0.0,0.0,0.0,0.0
23.528,0.068,-0.692,0.0
0.0,0.0,0.0,0.0
44.607,0.132,-0.358,0.0
36.219,0.108,-0.502,0.0
30.471,0.092,-0.604,0.0
25.974,0.08,-0.667,0.0
22.404,0.07,-0.707,0.0
52.865,0.165,-0.227,0.0
42.914,0.136,-0.435,0.0
0.0,0.0,0.0,0.0
28.66,0.093,-0.629,0.0
24.434,0.08,-0.679,0.0
21.253,0.07,-0.715,0.0
49.85,0.165,-0.319,1.0
0.0,0.0,0.0,0.0
0.0,0.0,0.0,0.0
26.362,0.09,-0.634,0.0
23.24,0.08,-0.695,0.0
20.294,0.071,-0.726,0.0
42.895,0.148,-0.366,0.0
35.261,0.123,-0.507,0.0
0.0,0.0,0.0,0.0
24.859,0.088,-0.651,0.0
22.135,0.079,-0.709,0.0
19.571,0.07,-0.742,0.0
42.782,0.153,-0.456,0.0
33.174,0.119,-0.547,0.0
0.0,0.0,0.0,0.0
23.921,0.087,-0.677,0.0
21.127,0.077,-0.722,0.0
18.807,0.069,-0.753,0.0
0.0,0.0,0.0,0.0
0.0,0.0,0.0,0.0
25.975,0.096,-0.636,0.0
22.734,0.084,-0.692,0.0
19.988,0.074,-0.725,0.0
18.085,0.067,-0.762,0.0
35.123,0.129,-0.523,0.0
29.364,0.108,-0.609,0.0
24.715,0.092,-0.657,0.0
21.638,0.08,-0.704,0.0
19.336,0.072,-0.742,0.0
17.499,0.065,-0.774,0.0
0.0,0.0,0.0,0.0
27.13,0.1,-0.62,0.0
23.755,0.088,-0.681,0.0
20.78,0.077,-0.72,0.0
18.678,0.069,-0.757,0.0
16.859,0.062,-0.782,0.0
30.402,0.11,-0.581,0.0
26.219,0.095,-0.654,0.0
22.476,0.082,-0.692,0.0
19.878,0.072,-0.731,0.0
17.916,0.065,-0.763,0.0
16.385,0.06,-0.794,0.0
28.518,0.101,-0.604,0.0
24.63,0.087,-0.666,0.0
21.576,0.077,-0.709,0.0
19.03,0.067,-0.739,0.0
17.38,0.061,-0.777,0.0
15.691,0.055,-0.793,0.0
26.485,0.091,-0.616,0.0
23.535,0.081,-0.685,0.0
20.58,0.071,-0.719,0.0
18.427,0.063,-0.754,0.0
16.809,0.057,-0.786,0.0
15.347,0.052,-0.808,0.0
25.85,0.085,-0.655,0.0
22.45,0.074,-0.7,0.0
19.806,0.065,-0.733,0.0
17.803,0.058,-0.765,0.0
16.299,0.053,-0.796,0.0
14.896,0.048,-0.815,0.0
24.352,0.075,-0.667,0.0
21.335,0.066,-0.709,0.0
19.08,0.058,-0.745,0.0
17.159,0.052,-0.773,0.0
15.682,0.047,-0.798,0.0
14.467,0.043,-0.821,0.0
23.492,0.068,-0.691,0.0
20.451,0.058,-0.721,0.0
18.425,0.052,-0.757,0.0
16.666,0.047,-0.784,0.0
15.3,0.042,-0.81,0.0
14.121,0.039,-0.83,0.0
22.239,0.058,-0.699,0.0
19.527,0.05,-0.728,0.0
17.737,0.045,-0.765,0.0
16.132,0.041,-0.792,0.0
14.777,0.037,-0.812,0.0
13.714,0.034,-0.834,0.0
21.238,0.049,-0.711,0.0
18.914,0.043,-0.743,0.0
17.185,0.039,-0.776,0.0
15.72,0.035,-0.803,0.0
14.405,0.031,-0.82,0.0
13.416,0.029,-0.843,0.0
20.35,0.041,-0.721,0.0
18.422,0.036,-0.76,0.0
16.632,0.032,-0.784,0.0
15.149,0.028,-0.804,0.0
14.076,0.026,-0.83,0.0
12.977,0.023,-0.841,0.0
19.633,0.032,-0.735,0.0
17.699,0.028,-0.766,0.0
16.185,0.025,-0.795,0.0
14.692,0.022,-0.809,0.0
13.675,0.02,-0.833,0.0
12.593,0.017,-0.841,0.0
18.701,0.023,-0.736,0.0
17.25,0.02,-0.78,0.0
15.685,0.018,-0.801,0.0
14.393,0.015,-0.82,0.0
13.436,0.014,-0.845,0.0
12.336,0.012,-0.848,0.0
18.314,0.014,-0.757,0.0
16.582,0.012,-0.782,0.0
15.202,0.01,-0.805,0.0
14.009,0.009,-0.826,0.0
12.953,0.007,-0.839,0.0
11.964,0.006,-0.845,0.0
17.652,0.006,-0.763,0.0
16.237,0.004,-0.796,0.0
14.755,0.003,-0.81,0.0
13.656,0.002,-0.831,0.0
12.629,0.001,-0.843,0.0
11.692,0.0,-0.849,0.0
17.149,-0.002,-0.774,0.0
15.637,-0.003,-0.797,0.0
14.417,-0.004,-0.819,0.0
13.337,-0.004,-0.837,0.0
12.32,-0.005,-0.846,0.0
11.491,-0.005,-0.856,0.0
16.661,-0.011,-0.783,0.0
15.204,-0.011,-0.804,0.0
14.118,-0.011,-0.829,0.0
13.043,-0.011,-0.844,0.0
11.984,-0.011,-0.845,0.0
11.282,-0.011,-0.862,0.0
16.155,-0.02,-0.79,0.0
14.809,-0.019,-0.811,0.0
13.651,-0.019,-0.827,0.0
12.579,-0.018,-0.837,0.0
11.722,-0.018,-0.849,0.0
11.031,-0.018,-0.863,0.0
15.602,-0.029,-0.792,0.0
14.439,-0.028,-0.817,0.0
13.353,-0.027,-0.834,0.0
12.346,-0.026,-0.844,0.0
11.461,-0.025,-0.851,0.0
10.808,-0.024,-0.866,0.0
15.259,-0.038,-0.802,0.0
14.126,-0.036,-0.825,0.0
13.132,-0.035,-0.844,0.0
12.044,-0.033,-0.846,0.0
11.289,-0.032,-0.859,0.0
10.626,-0.031,-0.871,0.0
14.829,-0.047,-0.807,0.0
13.789,-0.045,-0.83,0.0
12.755,-0.042,-0.843,0.0
11.743,-0.04,-0.845,0.0
11.056,-0.039,-0.861,0.0
10.471,-0.038,-0.877,0.0
14.501,-0.056,-0.814,0.0
13.481,-0.053,-0.836,0.0
12.417,-0.05,-0.842,0.0
11.532,-0.048,-0.851,0.0
10.916,-0.046,-0.869,0.0
10.318,-0.044,-0.882,0.0
14.281,-0.065,-0.827,0.0
13.127,-0.061,-0.836,0.0
12.171,-0.058,-0.846,0.0
11.314,-0.055,-0.854,0.0
10.736,-0.053,-0.873,0.0
10.161,-0.052,-0.886,0.0
13.793,-0.074,-0.822,0.0
12.801,-0.07,-0.837,0.0
11.85,-0.066,-0.844,0.0
11.08,-0.062,-0.855,0.0
10.506,-0.06,-0.872,0.0
9.995,-0.058,-0.889,0.0
13.544,-0.083,-0.83,0.0
12.517,-0.078,-0.84,0.0
11.632,-0.074,-0.848,0.0
10.934,-0.07,-0.863,0.0
10.385,-0.068,-0.88,0.0
9.884,-0.066,-0.895,0.0
13.278,-0.092,-0.836,0.0
12.274,-0.087,-0.844,0.0
11.415,-0.082,-0.851,0.0
10.815,-0.079,-0.871,0.0
10.237,-0.076,-0.884,0.0
9.737,-0.073,-0.898,0.0
13.058,-0.102,-0.843,0.0
12.004,-0.095,-0.845,0.0
11.25,-0.09,-0.857,0.0
10.623,-0.086,-0.873,0.0
10.084,-0.083,-0.887,0.0
9.616,-0.08,-0.902,0.0
12.662,-0.11,-0.838,0.0
11.741,-0.103,-0.845,0.0
11.014,-0.098,-0.857,0.0
10.439,-0.094,-0.874,0.0
9.922,-0.091,-0.889,0.0
9.443,-0.088,-0.901,0.0
12.398,-0.118,-0.84,0.0
11.533,-0.111,-0.848,0.0
10.908,-0.107,-0.866,0.0
10.321,-0.102,-0.88,0.0
9.805,-0.099,-0.894,0.0
9.339,-0.095,-0.906,0.0
12.183,-0.128,-0.844,0.0
11.38,-0.121,-0.854,0.0
10.71,-0.115,-0.866,0.0
10.178,-0.111,-0.884,0.0
9.708,-0.107,-0.899,0.0
9.203,-0.102,-0.907,0.0
11.909,-0.136,-0.842,0.0
11.188,-0.129,-0.856,0.0
10.609,-0.124,-0.874,0.0
10.051,-0.119,-0.888,0.0
9.603,-0.115,-0.904,0.0
9.123,-0.111,-0.912,0.0
11.7,-0.145,-0.845,0.0
11.041,-0.138,-0.862,0.0
10.457,-0.132,-0.877,0.0
9.912,-0.127,-0.89,0.0
9.426,-0.122,-0.901,0.0
8.986,-0.118,-0.912,0.0
11.523,-0.154,-0.849,0.0
10.901,-0.148,-0.866,0.0
10.325,-0.141,-0.88,0.0
9.772,-0.135,-0.891,0.0
9.353,-0.131,-0.907,0.0
8.854,-0.125,-0.911,0.0
11.407,-0.164,-0.856,0.0
10.745,-0.156,-0.869,0.0
10.208,-0.15,-0.885,0.0
9.679,-0.144,-0.896,0.0
9.198,-0.138,-0.905,0.0
8.75,-0.133,-0.912,0.0
11.205,-0.173,-0.856,0.0
10.56,-0.165,-0.868,0.0
10.047,-0.158,-0.884,0.0
9.535,-0.152,-0.896,0.0
9.11,-0.147,-0.909,0.0
8.619,-0.14,-0.91,0.0
11.071,-0.183,-0.86,0.0
10.457,-0.174,-0.873,0.0
9.958,-0.168,-0.889,0.0
9.465,-0.161,-0.901,0.0
9.013,-0.155,-0.911,0.0
8.584,-0.149,-0.918,0.0
10.942,-0.192,-0.864,0.0
10.354,-0.184,-0.878,0.0
9.834,-0.176,-0.891,0.0
9.362,-0.169,-0.903,0.0
8.938,-0.163,-0.914,0.0
8.506,-0.157,-0.92,0.0
10.85,-0.203,-0.87,0.0
10.255,-0.193,-0.882,0.0
9.731,-0.185,-0.893,0.0
9.236,-0.177,-0.902,0.0
8.842,-0.171,-0.915,0.0
8.442,-0.165,-0.923,0.0
10.651,-0.211,-0.867,0.0
10.147,-0.203,-0.885,0.0
9.646,-0.194,-0.897,0.0
9.187,-0.187,-0.909,0.0
8.747,-0.179,-0.916,0.0
8.375,-0.173,-0.926,0.0
10.555,-0.221,-0.872,0.0
10.005,-0.211,-0.884,0.0
9.504,-0.202,-0.895,0.0
9.077,-0.195,-0.908,0.0
8.671,-0.187,-0.918,0.0
8.265,-0.18,-0.923,0.0
10.442,-0.23,-0.874,0.0
9.921,-0.221,-0.888,0.0
9.428,-0.211,-0.898,0.0
9.015,-0.204,-0.912,0.0
8.569,-0.195,-0.917,0.0
8.216,-0.189,-0.927,0.0
10.347,-0.24,-0.877,0.0
9.847,-0.23,-0.892,0.0
9.348,-0.22,-0.9,0.0
8.875,-0.211,-0.907,0.0
8.477,-0.203,-0.916,0.0
8.147,-0.197,-0.927,0.0
10.283,-0.251,-0.882,0.0
9.794,-0.241,-0.897,0.0
9.294,-0.23,-0.905,0.0
8.879,-0.222,-0.917,0.0
8.476,-0.213,-0.924,0.0
8.079,-0.205,-0.928,0.0
10.177,-0.26,-0.884,0.0
9.687,-0.25,-0.897,0.0
9.21,-0.239,-0.906,0.0
8.785,-0.23,-0.916,0.0
8.372,-0.221,-0.921,0.0
8.01,-0.213,-0.928,0.0
10.071,-0.27,-0.884,0.0
9.614,-0.259,-0.899,0.0
9.107,-0.247,-0.904,0.0
8.651,-0.237,-0.91,0.0
8.329,-0.23,-0.924,0.0
7.982,-0.222,-0.932,0.0
10.008,-0.28,-0.888,0.0
9.546,-0.269,-0.901,0.0
9.118,-0.259,-0.914,0.0
8.574,-0.245,-0.909,0.0
8.269,-0.238,-0.925,0.0
7.938,-0.23,-0.934,0.0
9.909,-0.29,-0.887,0.0
9.462,-0.278,-0.902,0.0
9.046,-0.268,-0.914,0.0
8.564,-0.255,-0.916,0.0
8.199,-0.246,-0.924,0.0
7.884,-0.239,-0.934,0.0
9.843,-0.3,-0.89,0.0
9.414,-0.289,-0.905,0.0
8.955,-0.276,-0.912,0.0
8.571,-0.266,-0.923,0.0
8.185,-0.256,-0.929,0.0
7.838,-0.247,-0.935,0.0
9.781,-0.31,-0.892,0.0
9.318,-0.297,-0.903,0.0
8.867,-0.285,-0.91,0.0
8.552,-0.276,-0.928,0.0
8.103,-0.264,-0.926,0.0
7.814,-0.256,-0.938,0.0
9.698,-0.319,-0.891,0.0
9.195,-0.305,-0.898,0.0
8.836,-0.295,-0.913,0.0
8.446,-0.284,-0.923,0.0
8.066,-0.272,-0.927,0.0
7.718,-0.262,-0.932,0.0
9.709,-0.332,-0.899,0.0
9.187,-0.316,-0.903,0.0
8.8,-0.305,-0.916,0.0
8.356,-0.291,-0.918,0.0
8.055,-0.282,-0.932,0.0
7.673,-0.271,-0.932,0.0
9.622,-0.341,-0.897,0.0
9.144,-0.326,-0.905,0.0
8.719,-0.313,-0.913,0.0
8.38,-0.302,-0.926,0.0
8.024,-0.291,-0.933,0.0
7.65,-0.28,-0.934,0.0
9.559,-0.351,-0.897,0.0
9.111,-0.336,-0.907,0.0
8.728,-0.324,-0.919,0.0
8.33,-0.311,-0.926,0.0
7.983,-0.3,-0.933,0.0
7.656,-0.289,-0.939,0.0
9.541,-0.362,-0.901,0.0
9.079,-0.347,-0.909,0.0
8.72,-0.335,-0.923,0.0
8.279,-0.32,-0.925,0.0
7.967,-0.31,-0.935,0.0
7.611,-0.298,-0.937,0.0
9.464,-0.371,-0.899,0.0
9.02,-0.356,-0.908,0.0
8.582,-0.341,-0.913,0.0
8.251,-0.329,-0.926,0.0
7.921,-0.318,-0.934,0.0
7.606,-0.307,-0.941,0.0
9.437,-0.382,-0.9,0.0
8.989,-0.366,-0.909,0.0
8.595,-0.352,-0.918,0.0
8.228,-0.339,-0.927,0.0
7.871,-0.326,-0.932,0.0
7.542,-0.314,-0.936,0.0
9.378,-0.392,-0.899,0.0
9.012,-0.379,-0.915,0.0
8.554,-0.361,-0.917,0.0
8.2,-0.348,-0.927,0.0
7.853,-0.335,-0.933,0.0
7.536,-0.324,-0.938,0.0
9.383,-0.404,-0.903,0.0
8.95,-0.387,-0.912,0.0
8.543,-0.372,-0.919,0.0
8.196,-0.359,-0.929,0.0
7.863,-0.346,-0.937,0.0
7.539,-0.334,-0.941,0.0
9.338,-0.414,-0.902,0.0
8.954,-0.399,-0.915,0.0
8.569,-0.384,-0.925,0.0
8.143,-0.367,-0.926,0.0
7.881,-0.357,-0.941,0.0
7.503,-0.341,-0.939,0.0
9.328,-0.425,-0.904,0.0
8.915,-0.409,-0.914,0.0
8.507,-0.392,-0.92,0.0
8.118,-0.376,-0.925,0.0
7.835,-0.365,-0.938,0.0
7.518,-0.352,-0.943,0.0
9.351,-0.438,-0.908,0.0
8.85,-0.417,-0.909,0.0
8.483,-0.401,-0.92,0.0
8.126,-0.386,-0.928,0.0
7.822,-0.374,-0.938,0.0
7.5,-0.36,-0.942,0.0
9.328,-0.449,-0.908,0.0
8.897,-0.43,-0.916,0.0
8.424,-0.409,-0.915,0.0
8.112,-0.396,-0.928,0.0
7.875,-0.386,-0.946,0.0
7.462,-0.368,-0.939,0.0
9.281,-0.458,-0.905,0.0
8.875,-0.44,-0.915,0.0
8.456,-0.421,-0.92,0.0
8.094,-0.405,-0.927,0.0
7.83,-0.394,-0.941,0.0
7.489,-0.379,-0.943,0.0
9.275,-0.469,-0.905,0.0
0.0,0.0,0.0,0.0
8.502,-0.434,-0.926,0.0
8.071,-0.414,-0.925,0.0
7.772,-0.401,-0.935,0.0
7.46,-0.386,-0.94,0.0
9.289,-0.481,-0.907,0.0
8.84,-0.46,-0.913,0.0
8.441,-0.441,-0.919,0.0
8.08,-0.425,-0.927,0.0
0.0,0.0,0.0,0.0
7.473,-0.396,-0.942,0.0
9.281,-0.492,-0.906,0.0
8.84,-0.471,-0.913,0.0
8.42,-0.451,-0.917,0.0
8.087,-0.435,-0.927,0.0
7.813,-0.422,-0.94,0.0
7.479,-0.406,-0.942,0.0
9.294,-0.504,-0.908,0.0
8.85,-0.482,-0.914,0.0
8.452,-0.462,-0.92,0.0
8.116,-0.446,-0.93,0.0
0.0,0.0,0.0,0.0
7.479,-0.415,-0.942,0.0
9.3,-0.516,-0.908,0.0
8.857,-0.493,-0.914,0.0
8.486,-0.475,-0.923,0.0
8.104,-0.455,-0.928,0.0
7.816,-0.441,-0.939,0.0
7.483,-0.424,-0.942,0.0
9.297,-0.527,-0.906,0.0
8.895,-0.506,-0.917,0.0
8.494,-0.485,-0.923,0.0
8.154,-0.468,-0.933,0.0
7.793,-0.449,-0.935,0.0
7.498,-0.434,-0.942,0.0
9.291,-0.537,-0.904,0.0
8.916,-0.518,-0.918,0.0
8.497,-0.495,-0.922,0.0
8.127,-0.476,-0.928,0.0
7.819,-0.459,-0.937,0.0
7.518,-0.443,-0.943,0.0
9.333,-0.55,-0.906,0.0
8.938,-0.529,-0.918,0.0
8.505,-0.505,-0.921,0.0
8.112,-0.484,-0.925,0.0
7.816,-0.468,-0.935,0.0
7.541,-0.453,-0.944,0.0
9.336,-0.561,-0.904,0.0
8.878,-0.536,-0.91,0.0
8.46,-0.512,-0.914,0.0
8.192,-0.498,-0.932,0.0
7.888,-0.481,-0.941,0.0
7.51,-0.46,-0.938,0.0
9.376,-0.574,-0.906,0.0
