X,Y,Z,Reflectivity
15.838,1.624,-0.804,0.0
14.477,1.482,-0.817,0.0
13.506,1.381,-0.84,0.0
12.528,1.279,-0.851,0.0
11.686,1.191,-0.86,0.0
17.05,1.73,-0.778,0.0
15.587,1.579,-0.799,0.0
14.433,1.46,-0.822,0.0
13.462,1.359,-0.844,0.0
12.45,1.255,-0.851,0.0
11.623,1.17,-0.861,0.0
16.962,1.699,-0.782,0.0
15.543,1.555,-0.804,0.0
14.336,1.432,-0.823,0.0
13.307,1.327,-0.84,0.0
12.406,1.235,-0.854,0.0
11.556,1.149,-0.861,0.0
16.895,1.671,-0.786,0.0
15.397,1.52,-0.803,0.0
14.225,1.402,-0.822,0.0
13.286,1.307,-0.844,0.0
12.368,1.215,-0.856,0.0
11.492,1.127,-0.861,0.0
16.711,1.631,-0.784,0.0
15.346,1.495,-0.806,0.0
14.183,1.379,-0.825,0.0
13.19,1.28,-0.843,0.0
12.251,1.187,-0.853,0.0
11.387,1.102,-0.857,0.0
16.584,1.596,-0.784,0.0
15.303,1.47,-0.81,0.0
14.117,1.354,-0.826,0.0
13.098,1.254,-0.842,0.0
12.178,1.164,-0.852,0.0
11.382,1.086,-0.86,0.0
16.444,1.56,-0.783,0.0
15.172,1.436,-0.807,0.0
14.164,1.338,-0.833,0.0
13.172,1.242,-0.851,0.0
12.113,1.14,-0.851,0.0
11.322,1.064,-0.859,0.0
16.435,1.536,-0.787,0.0
15.179,1.416,-0.812,0.0
14.1,1.313,-0.834,0.0
13.13,1.22,-0.851,0.0
12.107,1.123,-0.853,0.0
11.326,1.049,-0.862,0.0
16.374,1.507,-0.788,0.0
15.132,1.39,-0.813,0.0
13.924,1.277,-0.826,0.0
12.942,1.184,-0.842,0.0
12.148,1.109,-0.859,0.0
11.275,1.028,-0.861,0.0
16.357,1.482,-0.79,0.0
15.061,1.362,-0.812,0.0
13.973,1.261,-0.832,0.0
12.92,1.163,-0.843,0.0
12.033,1.081,-0.853,0.0
11.27,1.011,-0.862,0.0
54.308,0.118,6.04,18.0
41.259,0.097,4.366,38.0
41.383,0.104,4.157,44.0
41.778,0.113,3.968,30.0
41.372,0.119,3.707,41.0
41.596,0.127,3.505,40.0
41.546,0.128,4.678,5.0
41.17,0.135,4.413,34.0
41.467,0.143,4.221,49.0
41.447,0.151,3.993,46.0
41.353,0.157,3.761,41.0
41.566,0.166,3.558,38.0
41.284,0.166,4.704,37.0
41.306,0.173,4.483,39.0
41.293,0.181,4.258,44.0
41.252,0.188,4.028,46.0
41.428,0.197,3.822,36.0
41.607,0.205,3.615,40.0
41.381,0.206,4.769,20.0
41.432,0.214,4.55,29.0
41.161,0.22,4.297,45.0
41.307,0.228,4.086,36.0
41.573,0.238,3.887,25.0
41.681,0.246,3.673,35.0
41.177,0.245,4.797,38.0
41.277,0.253,4.584,32.0
41.284,0.261,4.361,27.0
41.206,0.268,4.126,33.0
41.62,0.278,3.942,36.0
41.455,0.285,3.703,41.0
41.355,0.287,4.868,35.0
41.14,0.293,4.618,33.0
41.245,0.302,4.406,24.0
41.236,0.31,4.178,36.0
0.0,0.0,0.0,0.0
41.624,0.328,3.767,32.0
40.775,0.324,4.847,46.0
41.05,0.334,4.657,21.0
41.205,0.343,4.45,28.0
41.263,0.352,4.228,41.0
47.207,0.411,4.581,12.0
41.763,0.372,3.827,23.0
40.633,0.365,4.877,45.0
40.923,0.376,4.689,41.0
41.102,0.385,4.485,43.0
41.306,0.395,4.278,38.0
41.563,0.406,4.079,43.0
41.723,0.415,3.869,28.0
40.801,0.41,4.943,37.0
40.806,0.418,4.719,47.0
41.146,0.429,4.534,38.0
41.372,0.439,4.329,40.0
41.588,0.45,4.126,44.0
41.706,0.459,3.911,16.0
40.819,0.453,4.987,39.0
40.905,0.462,4.773,48.0
41.232,0.473,4.586,41.0
41.584,0.486,4.394,25.0
41.801,0.497,4.189,43.0
41.277,0.498,3.912,33.0
40.591,0.495,5.0,46.0
40.917,0.507,4.816,46.0
41.501,0.522,4.657,37.0
40.893,0.522,4.361,35.0
41.402,0.537,4.189,40.0
41.083,0.541,3.933,41.0
40.832,0.542,5.07,48.0
40.705,0.549,4.83,41.0
41.345,0.566,4.679,37.0
40.719,0.565,4.381,43.0
41.25,0.58,4.212,39.0
41.141,0.587,3.977,39.0
40.667,0.586,5.087,32.0
40.536,0.592,4.847,41.0
40.663,0.602,4.639,45.0
40.576,0.608,4.402,47.0
41.115,0.624,4.236,43.0
41.166,0.633,4.016,40.0
40.637,0.631,5.119,14.0
40.582,0.638,4.889,39.0
40.582,0.646,4.665,41.0
40.64,0.655,4.444,37.0
40.956,0.668,4.254,38.0
41.05,0.678,4.039,40.0
41.664,0.694,5.284,37.0
40.539,0.684,4.917,37.0
40.508,0.691,4.69,33.0
40.622,0.701,4.476,46.0
40.904,0.714,4.282,41.0
41.123,0.727,4.079,36.0
40.664,0.725,5.19,43.0
41.179,0.742,5.028,34.0
40.633,0.741,4.736,38.0
40.472,0.745,4.49,41.0
40.718,0.758,4.293,43.0
41.195,0.776,4.117,26.0
19.982,-1.045,0.133,19.0
19.976,-1.052,0.024,30.0
20.016,-1.061,-0.085,21.0
20.043,-1.07,-0.197,0.0
0.0,0.0,0.0,0.0
29.329,-1.588,-0.609,0.0
19.996,-1.086,0.138,27.0
19.999,-1.093,0.028,23.0
20.03,-1.102,-0.08,3.0
0.0,0.0,0.0,0.0
0.0,0.0,0.0,0.0
0.0,0.0,0.0,0.0
20.005,-1.126,0.143,18.0
20.032,-1.135,0.034,2.0
20.072,-1.144,-0.075,0.0
19.977,-1.146,-0.186,1.0
20.011,-1.155,-0.296,5.0
20.006,-1.162,-0.405,29.0
20.015,-1.165,0.149,16.0
20.014,-1.173,0.039,74.0
20.004,-1.179,-0.069,152.0
19.983,-1.185,-0.18,150.0
19.982,-1.193,-0.289,150.0
19.975,-1.199,-0.398,130.0
19.979,-1.202,0.155,150.0
19.995,-1.21,0.046,150.0
20.0,-1.218,-0.062,64.0
20.031,-1.227,-0.174,26.0
20.063,-1.236,-0.283,9.0
20.101,-1.246,-0.394,25.0
19.992,-1.241,0.162,31.0
19.992,-1.248,0.053,25.0
20.009,-1.257,-0.055,25.0
20.012,-1.264,-0.166,29.0
20.051,-1.273,-0.276,25.0
20.057,-1.281,-0.385,29.0
19.964,-1.277,0.17,27.0
19.996,-1.286,0.061,27.0
19.991,-1.293,-0.047,26.0
19.998,-1.301,-0.158,33.0
20.023,-1.31,-0.267,28.0
20.051,-1.319,-0.377,29.0
19.982,-1.316,0.178,22.0
19.998,-1.324,0.07,19.0
19.97,-1.329,-0.038,18.0
20.021,-1.34,-0.149,24.0
20.026,-1.347,-0.258,17.0
20.051,-1.356,-0.367,8.0
20.03,-1.357,0.188,2.0
20.025,-1.363,0.079,4.0
19.999,-1.369,-0.029,10.0
20.031,-1.378,-0.14,6.0
40.562,-2.805,-0.504,0.0
0.0,0.0,0.0,0.0
102.815,-7.156,1.018,36.0
82.23,-5.751,0.367,3.0
0.0,0.0,0.0,0.0
44.798,-3.164,-0.29,1.0
40.506,-2.875,-0.482,0.0
34.189,-2.439,-0.593,0.0
20.025,-1.43,0.208,42.0
20.026,-1.437,0.1,3.0
52.081,-3.754,-0.021,1.0
45.011,-3.26,-0.267,2.0
39.708,-2.89,-0.451,0.0
0.0,0.0,0.0,0.0
20.033,-1.467,0.22,18.0
20.022,-1.472,0.111,4.0
51.708,-3.82,0.007,0.0
45.121,-3.349,-0.242,0.0
36.073,-2.69,-0.388,1.0
35.031,-2.624,-0.567,0.0
119.22,-8.939,1.381,19.0
87.624,-6.6,0.54,3.0
61.229,-4.632,0.046,3.0
40.626,-3.087,-0.193,2.0
37.275,-2.845,-0.379,4.0
32.194,-2.468,-0.501,1.0
67.887,-5.209,0.828,72.0
67.864,-5.228,0.46,84.0
62.734,-4.854,0.086,4.0
40.696,-3.162,-0.168,0.0
36.426,-2.842,-0.347,13.0
30.624,-2.4,-0.457,1.0
67.898,-5.326,0.872,33.0
67.896,-5.347,0.505,11.0
67.698,-5.354,0.138,8.0
49.417,-3.924,-0.17,17.0
40.593,-3.237,-0.359,2.0
31.867,-2.551,-0.454,9.0
119.24,-9.556,1.614,19.0
108.463,-8.725,0.883,2.0
67.596,-5.459,0.185,8.0
49.417,-4.007,-0.136,24.0
40.704,-3.313,-0.332,1.0
30.08,-2.458,-0.407,13.0
119.21,-9.749,1.699,15.0
92.786,-7.617,0.821,2.0
67.738,-5.581,0.233,5.0
50.278,-4.158,-0.102,24.0
35.786,-2.971,-0.266,0.0
34.91,-2.909,-0.448,6.0
119.249,-9.946,1.787,17.0
112.128,-9.387,1.076,7.0
83.25,-6.995,0.35,5.0
50.894,-4.292,-0.065,25.0
43.178,-3.654,-0.288,7.0
35.639,-3.027,-0.43,2.0
119.257,-10.136,1.878,16.0
112.161,-9.567,1.163,6.0
83.14,-7.117,0.414,14.0
51.46,-4.421,-0.026,25.0
0.0,0.0,0.0,0.0
29.95,-2.591,-0.337,0.0
135.704,-11.751,2.247,77.0
114.809,-9.975,1.282,10.0
85.234,-7.431,0.493,15.0
51.654,-4.519,0.016,6.0
43.79,-3.844,-0.221,18.0
29.949,-2.638,-0.312,0.0
135.656,-11.956,2.36,66.0
113.191,-10.009,1.36,7.0
85.717,-7.604,0.568,12.0
55.239,-4.916,0.064,5.0
44.39,-3.964,-0.187,18.0
30.013,-2.689,-0.288,1.0
135.631,-12.158,2.475,64.0
119.124,-10.712,1.533,12.0
85.77,-7.737,0.642,5.0
55.503,-5.022,0.111,1.0
0.0,0.0,0.0,0.0
0.0,0.0,0.0,0.0
126.455,-11.52,2.416,25.0
119.15,-10.888,1.637,16.0
87.074,-7.981,0.729,6.0
71.915,-6.612,0.209,4.0
47.071,-4.341,-0.115,21.0
38.289,-3.542,-0.299,14.0
135.554,-12.547,2.714,150.0
135.577,-12.584,1.987,106.0
110.947,-10.328,1.031,9.0
67.113,-6.266,0.257,0.0
48.052,-4.5,-0.073,21.0
39.464,-3.706,-0.272,15.0
119.252,-11.205,2.498,20.0
119.192,-11.232,1.859,13.0
111.455,-10.532,1.14,16.0
82.457,-7.814,0.393,8.0
49.142,-4.67,-0.028,22.0
0.0,0.0,0.0,0.0
191.764,-18.285,4.202,6.0
119.221,-11.398,1.974,12.0
111.658,-10.702,1.249,12.0
84.092,-8.082,0.482,13.0
0.0,0.0,0.0,0.0
42.38,-4.095,-0.21,17.0
135.52,-13.102,3.101,35.0
135.543,-13.137,2.376,99.0
114.825,-11.157,1.397,6.0
85.292,-8.309,0.572,14.0
51.279,-5.009,0.069,6.0
43.758,-4.285,-0.174,19.0
135.459,-13.272,3.235,16.0
135.494,-13.307,2.509,114.0
119.026,-11.718,1.568,9.0
87.814,-8.667,0.678,4.0
53.933,-5.336,0.127,3.0
44.996,-4.463,-0.133,19.0
78.613,-7.801,1.958,14.0
119.233,-11.86,2.331,106.0
135.48,-13.508,1.924,31.0
87.753,-8.77,0.769,5.0
63.379,-6.349,0.216,1.0
46.288,-4.648,-0.089,21.0
78.51,-7.887,2.037,21.0
74.84,-7.536,1.541,29.0
135.417,-13.665,2.065,150.0
98.349,-9.947,0.964,6.0
81.119,-8.223,0.361,8.0
47.531,-4.829,-0.041,22.0
78.712,-8.0,2.125,17.0
74.826,-7.622,1.62,12.0
135.354,-13.817,2.209,148.0
104.641,-10.705,1.138,14.0
83.78,-8.59,0.463,3.0
48.402,-4.973,0.009,22.0
78.513,-8.07,2.205,12.0
104.712,-10.785,2.381,8.0
104.62,-10.797,1.819,8.0
104.7,-10.827,1.251,7.0
86.641,-8.979,0.573,2.0
33.121,-3.439,0.042,48.0
117.306,-0.046,1.77,15.0
111.22,-0.032,1.029,6.0
95.612,-0.018,0.326,3.0
0.0,0.0,0.0,0.0
45.433,0.0,-0.38,3.0
35.889,0.004,-0.51,0.0
111.113,0.023,1.45,20.0
110.773,0.034,0.798,8.0
0.0,0.0,0.0,0.0
0.0,0.0,0.0,0.0
42.852,0.025,-0.446,0.0
34.373,0.023,-0.559,0.0
111.158,0.086,1.222,19.0
103.04,0.089,0.53,5.0
0.0,0.0,0.0,0.0
49.35,0.052,-0.327,0.0
38.267,0.044,-0.477,0.0
31.279,0.038,-0.573,0.0
111.135,0.146,0.991,10.0
92.96,0.13,0.284,3.0
0.0,0.0,0.0,0.0
45.412,0.071,-0.395,1.0
35.961,0.059,-0.523,0.0
29.326,0.051,-0.598,0.0
110.66,0.201,0.754,4.0
0.0,0.0,0.0,0.0
0.0,0.0,0.0,0.0
42.897,0.088,-0.464,0.0
33.986,0.073,-0.566,0.0
27.602,0.061,-0.621,0.0
94.603,0.216,0.446,3.0
0.0,0.0,0.0,0.0
47.029,0.114,-0.327,0.0
37.983,0.095,-0.49,0.0
30.98,0.08,-0.581,0.0
26.318,0.07,-0.647,0.0
0.0,0.0,0.0,0.0
0.0,0.0,0.0,0.0
44.466,0.127,-0.403,0.0
35.309,0.103,-0.53,0.0
29.116,0.087,-0.607,0.0
24.985,0.076,-0.667,0.0
0.0,0.0,0.0,0.0
0.0,0.0,0.0,0.0
40.235,0.13,-0.448,0.0
0.0,0.0,0.0,0.0
27.29,0.091,-0.626,0.0
23.683,0.081,-0.682,0.0
0.0,0.0,0.0,0.0
0.0,0.0,0.0,0.0
37.691,0.135,-0.5,0.0
30.539,0.111,-0.587,0.0
25.93,0.095,-0.65,0.0
22.61,0.085,-0.699,0.0
0.0,0.0,0.0,0.0
42.816,0.164,-0.408,1.0
34.127,0.132,-0.525,0.0
28.755,0.113,-0.614,0.0
24.691,0.098,-0.671,0.0
21.539,0.087,-0.711,0.0
0.0,0.0,0.0,0.0
0.0,0.0,0.0,0.0
32.082,0.133,-0.561,0.0
26.682,0.112,-0.626,0.0
23.36,0.099,-0.685,0.0
20.613,0.088,-0.725,0.0
45.923,0.197,-0.364,1.0
36.301,0.157,-0.5,0.0
29.771,0.13,-0.584,0.0
25.573,0.113,-0.654,0.0
22.372,0.1,-0.703,0.0
19.562,0.088,-0.729,0.0
42.77,0.192,-0.43,1.0
33.614,0.152,-0.535,0.0
0.0,0.0,0.0,0.0
24.27,0.112,-0.672,0.0
21.244,0.098,-0.713,0.0
19.14,0.089,-0.755,0.0
0.0,0.0,0.0,0.0
0.0,0.0,0.0,0.0
26.708,0.126,-0.638,0.0
22.895,0.109,-0.683,0.0
20.326,0.097,-0.725,0.0
18.326,0.088,-0.761,0.0
35.354,0.169,-0.505,0.0
29.418,0.141,-0.592,0.0
24.974,0.121,-0.649,0.0
21.94,0.107,-0.701,0.0
19.522,0.095,-0.738,0.0
17.706,0.087,-0.773,0.0
33.016,0.161,-0.541,0.0
27.77,0.136,-0.618,0.0
23.897,0.117,-0.672,0.0
21.007,0.103,-0.715,0.0
18.964,0.094,-0.757,0.0
17.018,0.085,-0.779,0.0
21.662,-1.511,-0.714,0.0
19.723,-1.373,-0.753,1.0
17.942,-1.246,-0.779,0.0
16.438,-1.139,-0.802,0.0
15.222,-1.052,-0.822,0.0
14.14,-0.975,-0.838,0.0
22.646,-1.558,-0.712,0.0
19.907,-1.367,-0.73,2.0
18.391,-1.259,-0.771,0.0
16.805,-1.148,-0.794,0.0
15.49,-1.056,-0.814,0.0
14.425,-0.981,-0.833,0.0
20.058,-1.36,-0.601,0.0
20.109,-1.36,-0.707,0.0
18.926,-1.277,-0.765,0.0
17.217,-1.159,-0.788,0.0
15.894,-1.067,-0.811,0.0
14.787,-0.99,-0.832,0.0
20.103,-1.343,-0.572,19.0
20.118,-1.34,-0.678,10.0
19.788,-1.314,-0.771,1.0
20.136,-1.334,-0.892,0.0
20.137,-1.33,-0.998,0.0
15.051,-0.992,-0.825,0.0
20.097,-1.321,-0.542,31.0
20.129,-1.319,-0.648,25.0
19.859,-1.298,-0.744,2.0
20.129,-1.311,-0.862,0.0
16.863,-1.095,-0.81,0.0
15.346,-0.994,-0.818,0.0
20.092,-1.298,-0.512,34.0
20.126,-1.296,-0.619,28.0
20.045,-1.287,-0.721,7.0
19.987,-1.279,-0.826,0.0
20.163,-1.287,-0.94,0.0
15.7,-0.999,-0.814,0.0
20.101,-1.275,-0.483,29.0
20.124,-1.273,-0.589,24.0
20.071,-1.265,-0.693,10.0
19.945,-1.253,-0.795,0.0
20.19,-1.265,-0.911,0.0
16.14,-1.008,-0.813,0.0
20.113,-1.252,-0.454,21.0
20.099,-1.247,-0.559,2.0
20.107,-1.243,-0.665,2.0
19.905,-1.227,-0.765,1.0
17.898,-1.099,-0.782,0.0
16.497,-1.01,-0.808,0.0
19.999,-1.221,-0.423,23.0
19.995,-1.216,-0.528,150.0
19.981,-1.211,-0.633,150.0
19.936,-1.203,-0.738,18.0
20.031,-1.205,-0.847,0.0
16.8,-1.007,-0.799,0.0
19.982,-1.194,-0.394,150.0
19.98,-1.19,-0.499,150.0
19.98,-1.185,-0.604,150.0
19.941,-1.178,-0.71,10.0
19.666,-1.157,-0.803,0.0
17.257,-1.012,-0.796,0.0
20.001,-1.169,-0.367,19.0
19.998,-1.164,-0.472,13.0
20.008,-1.16,-0.577,4.0
20.329,-1.174,-0.695,0.0
19.453,-1.119,-0.768,0.0
17.575,-1.007,-0.786,0.0
34.135,-1.951,-0.579,1.0
0.0,0.0,0.0,0.0
24.694,-1.399,-0.678,0.0
22.001,-1.241,-0.722,0.0
19.898,-1.118,-0.758,2.0
18.008,-1.007,-0.781,0.0
0.0,0.0,0.0,0.0
0.0,0.0,0.0,0.0
26.005,-1.437,-0.679,0.0
22.754,-1.252,-0.716,0.0
19.915,-1.09,-0.732,2.0
18.378,-1.002,-0.772,0.0
38.513,-2.093,-0.548,0.0
0.0,0.0,0.0,0.0
20.068,-1.08,-0.497,0.0
20.071,-1.075,-0.605,9.0
20.065,-1.07,-0.71,8.0
19.139,-1.016,-0.778,0.0
20.052,-1.06,-0.259,1.0
20.039,-1.055,-0.364,9.0
20.058,-1.05,-0.47,23.0
20.061,-1.045,-0.578,28.0
20.047,-1.039,-0.683,14.0
19.605,-1.011,-0.772,0.0
20.011,-1.029,-0.232,29.0
20.027,-1.024,-0.338,22.0
20.032,-1.019,-0.443,29.0
20.057,-1.015,-0.552,28.0
20.071,-1.01,-0.658,17.0
19.829,-0.993,-0.755,1.0
22.37,2.429,-0.698,0.0
19.93,2.165,-0.736,0.0
17.859,1.942,-0.762,0.0
16.316,1.775,-0.792,0.0
15.033,1.637,-0.816,0.0
13.9,1.514,-0.835,0.0
21.817,2.377,-0.709,0.0
19.405,2.115,-0.742,0.0
17.527,1.911,-0.771,0.0
16.026,1.749,-0.798,0.0
14.809,1.617,-0.823,0.0
13.676,1.494,-0.839,0.0
21.09,2.304,-0.712,0.0
18.994,2.076,-0.75,0.0
17.149,1.875,-0.776,0.0
15.733,1.721,-0.804,0.0
14.482,1.585,-0.823,0.0
13.514,1.48,-0.846,0.0
20.552,2.25,-0.721,0.0
18.496,2.026,-0.754,0.0
16.869,1.849,-0.785,0.0
15.362,1.684,-0.805,0.0
14.243,1.562,-0.828,0.0
13.21,1.45,-0.844,0.0
20.132,2.209,-0.731,0.0
18.069,1.983,-0.76,0.0
16.476,1.809,-0.787,0.0
15.124,1.661,-0.811,0.0
13.981,1.536,-0.831,0.0
13.072,1.437,-0.852,0.0
19.709,2.165,-0.74,0.0
17.71,1.946,-0.767,0.0
16.199,1.781,-0.795,0.0
14.845,1.633,-0.815,0.0
13.803,1.519,-0.837,0.0
12.809,1.41,-0.851,0.0
19.195,2.111,-0.745,0.0
17.387,1.913,-0.775,0.0
15.776,1.736,-0.794,0.0
14.57,1.604,-0.818,0.0
13.593,1.497,-0.842,0.0
12.578,1.386,-0.851,0.0
18.708,2.059,-0.749,0.0
16.983,1.87,-0.778,0.0
15.564,1.714,-0.802,0.0
14.328,1.578,-0.822,0.0
13.361,1.472,-0.844,0.0
12.428,1.37,-0.857,0.0
18.289,2.013,-0.755,0.0
16.652,1.834,-0.783,0.0
15.331,1.688,-0.809,0.0
14.079,1.551,-0.825,0.0
13.132,1.447,-0.845,0.0
12.232,1.348,-0.858,0.0
17.867,1.967,-0.76,0.0
16.364,1.801,-0.79,0.0
15.005,1.652,-0.81,0.0
13.914,1.532,-0.833,0.0
12.989,1.431,-0.852,0.0
11.991,1.321,-0.856,0.0
17.596,1.936,-0.769,0.0
16.131,1.775,-0.798,0.0
14.791,1.627,-0.817,0.0
13.662,1.504,-0.834,0.0
12.79,1.408,-0.855,0.0
11.791,1.298,-0.856,0.0
17.252,1.896,-0.775,0.0
15.79,1.735,-0.8,0.0
14.493,1.593,-0.817,0.0
13.538,1.488,-0.843,0.0
12.51,1.375,-0.851,0.0
11.663,1.283,-0.86,0.0
16.868,1.851,-0.778,0.0
15.465,1.697,-0.802,0.0
14.226,1.561,-0.819,0.0
13.286,1.458,-0.843,0.0
12.341,1.355,-0.854,0.0
11.436,1.256,-0.857,0.0
16.634,1.823,-0.786,0.0
15.254,1.671,-0.808,0.0
14.059,1.54,-0.826,0.0
13.128,1.438,-0.848,0.0
12.195,1.336,-0.858,0.0
11.362,1.245,-0.865,0.0
16.334,1.786,-0.791,0.0
15.009,1.641,-0.813,0.0
13.894,1.519,-0.832,0.0
12.854,1.405,-0.845,0.0
11.878,1.298,-0.849,0.0
11.182,1.222,-0.864,0.0
15.989,1.744,-0.792,0.0
14.751,1.608,-0.816,0.0
13.758,1.5,-0.84,0.0
12.915,1.408,-0.864,0.0
11.788,1.285,-0.856,0.0
10.995,1.199,-0.862,0.0
15.49,0.515,-0.804,0.0
14.373,0.474,-0.823,0.0
13.451,0.441,-0.842,0.0
12.443,0.405,-0.847,0.0
11.656,0.377,-0.856,0.0
11.061,0.355,-0.871,0.0
15.759,0.502,-0.798,0.0
14.651,0.463,-0.82,0.0
13.677,0.429,-0.838,0.0
12.828,0.4,-0.856,0.0
11.807,0.366,-0.851,0.0
11.218,0.345,-0.869,0.0
16.138,0.493,-0.796,0.0
14.928,0.452,-0.815,0.0
13.887,0.418,-0.833,0.0
12.941,0.386,-0.846,0.0
12.031,0.357,-0.851,0.0
11.369,0.334,-0.865,0.0
16.511,0.482,-0.792,0.0
15.232,0.441,-0.811,0.0
14.171,0.408,-0.83,0.0
13.18,0.376,-0.844,0.0
12.346,0.349,-0.856,0.0
11.467,0.322,-0.856,0.0
16.92,0.472,-0.787,0.0
15.645,0.433,-0.811,0.0
14.424,0.396,-0.825,0.0
13.501,0.368,-0.845,0.0
12.489,0.337,-0.848,0.0
11.669,0.313,-0.855,0.0
17.421,0.464,-0.786,0.0
15.901,0.42,-0.802,0.0
14.708,0.385,-0.82,0.0
13.737,0.357,-0.84,0.0
12.954,0.333,-0.861,0.0
11.886,0.303,-0.853,0.0
17.651,0.447,-0.77,0.0
16.352,0.411,-0.8,0.0
15.022,0.374,-0.815,0.0
13.956,0.345,-0.832,0.0
13.104,0.321,-0.851,0.0
12.171,0.296,-0.855,0.0
18.103,0.436,-0.763,0.0
16.785,0.401,-0.796,0.0
15.384,0.364,-0.811,0.0
14.305,0.336,-0.832,0.0
13.351,0.31,-0.847,0.0
12.433,0.286,-0.855,0.0
18.557,0.425,-0.754,0.0
17.081,0.387,-0.784,0.0
15.773,0.354,-0.807,0.0
14.627,0.325,-0.827,0.0
13.611,0.3,-0.842,0.0
12.703,0.277,-0.853,0.0
19.234,0.417,-0.751,0.0
17.647,0.379,-0.782,0.0
16.095,0.342,-0.798,0.0
14.919,0.314,-0.82,0.0
13.9,0.29,-0.837,0.0
13.114,0.271,-0.86,0.0
19.739,0.405,-0.739,0.0
18.006,0.365,-0.769,0.0
16.593,0.333,-0.796,0.0
15.346,0.305,-0.819,0.0
14.25,0.281,-0.836,0.0
13.284,0.259,-0.849,0.0
20.389,0.394,-0.73,0.0
18.568,0.355,-0.763,0.0
17.012,0.322,-0.788,0.0
15.623,0.293,-0.808,0.0
14.543,0.27,-0.828,0.0
13.63,0.25,-0.848,0.0
21.277,0.388,-0.727,0.0
19.074,0.344,-0.752,0.0
17.592,0.313,-0.785,2.0
15.954,0.281,-0.798,0.0
14.877,0.259,-0.822,0.0
13.893,0.24,-0.841,0.0
22.102,0.378,-0.718,0.0
19.67,0.333,-0.742,0.0
17.719,0.296,-0.761,0.0
16.484,0.272,-0.796,0.0
15.354,0.251,-0.822,0.0
14.261,0.23,-0.839,0.0
22.691,0.364,-0.698,0.0
20.243,0.321,-0.728,0.0
18.419,0.288,-0.759,0.0
17.064,0.264,-0.794,0.0
15.626,0.239,-0.81,0.0
14.634,0.221,-0.835,0.0
23.607,0.354,-0.684,0.0
21.227,0.314,-0.727,0.0
19.121,0.28,-0.755,0.0
17.531,0.253,-0.785,0.0
16.07,0.229,-0.804,0.0
14.907,0.21,-0.824,0.0
117.455,-0.137,4.484,21.0
117.431,-0.134,3.876,24.0
117.488,-0.13,3.273,17.0
115.998,-0.125,2.623,2.0
112.686,-0.117,1.969,6.0
117.411,-0.118,1.445,10.0
117.474,-0.122,4.733,19.0
117.468,-0.118,4.126,22.0
70.17,-0.067,2.103,15.0
117.49,-0.108,2.904,17.0
113.886,-0.101,2.228,5.0
117.399,-0.099,1.693,8.0
95.381,-0.083,4.045,13.0
117.462,-0.097,4.374,10.0
117.464,-0.092,3.769,22.0
117.445,-0.086,3.149,26.0
114.458,-0.079,2.48,8.0
117.309,-0.075,1.938,10.0
103.624,-0.069,4.611,3.0
189.941,-0.117,7.473,19.0
70.072,-0.039,2.395,9.0
70.206,-0.035,2.031,15.0
117.421,-0.053,2.793,19.0
112.568,-0.045,2.095,6.0
80.79,-0.034,3.766,9.0
189.836,-0.07,7.869,21.0
70.11,-0.021,2.542,13.0
70.062,-0.017,2.172,12.0
117.428,-0.022,3.035,27.0
113.953,-0.014,2.356,4.0
80.532,-0.012,3.92,13.0
103.597,-0.009,4.507,3.0
70.094,-0.001,2.687,9.0
69.955,0.003,2.313,11.0
70.196,0.007,1.959,12.0
114.254,0.02,2.597,10.0
80.423,0.012,4.08,7.0
119.982,0.027,5.467,7.0
189.771,0.057,7.667,23.0
69.91,0.026,2.456,31.0
70.057,0.031,2.099,22.0
117.435,0.062,2.913,21.0
78.028,0.039,4.122,19.0
80.517,0.047,3.836,16.0
117.733,0.079,4.999,8.0
70.111,0.052,2.607,23.0
69.972,0.058,2.24,30.0
70.179,0.064,1.884,11.0
77.897,0.07,4.275,6.0
80.457,0.079,3.997,19.0
102.696,0.109,4.571,9.0
117.698,0.136,4.615,17.0
69.94,0.087,2.38,34.0
70.058,0.093,2.022,28.0
74.166,0.098,4.22,6.0
78.479,0.11,4.057,8.0
102.819,0.154,4.782,9.0
70.215,0.111,2.893,14.0
70.029,0.118,2.523,25.0
69.826,0.124,2.155,28.0
67.917,0.12,4.0,2.0
78.09,0.146,4.193,11.0
80.475,0.158,3.904,23.0
70.211,0.145,3.034,18.0
70.235,0.152,2.671,24.0
69.846,0.158,2.293,30.0
67.19,0.152,4.09,6.0
81.517,0.193,4.539,11.0
81.344,0.201,4.107,11.0
102.87,0.265,4.649,15.0
70.425,0.189,2.817,7.0
70.153,0.196,2.442,32.0
67.189,0.187,4.224,9.0
73.509,0.213,4.239,16.0
78.653,0.237,4.125,10.0
80.392,0.251,3.79,13.0
70.119,0.226,2.941,16.0
70.119,0.235,2.577,29.0
60.37,0.202,3.913,20.0
67.382,0.233,4.016,8.0
81.271,0.29,4.419,10.0
81.127,0.3,3.981,14.0
70.241,0.268,3.081,3.0
70.311,0.277,2.718,20.0
60.521,0.238,4.04,13.0
60.227,0.244,3.706,13.0
73.9,0.309,4.162,9.0
78.664,0.339,4.013,11.0
80.396,0.357,3.682,4.0
70.276,0.321,2.852,3.0
47.923,0.218,3.291,4.0
60.341,0.283,3.827,13.0
73.469,0.354,4.277,8.0
80.933,0.401,4.279,15.0
80.545,0.409,3.839,14.0
119.932,0.625,5.092,10.0
45.788,0.239,3.231,10.0
60.367,0.323,3.943,13.0
71.724,0.394,4.309,6.0
80.298,0.452,4.397,12.0
78.715,0.454,3.9,7.0
80.473,0.475,3.568,4.0
60.732,0.359,4.399,6.0
60.799,0.368,4.085,15.0
60.159,0.372,3.727,3.0
80.625,0.511,4.564,11.0
81.266,0.527,4.176,5.0
80.602,0.534,3.721,9.0
51.411,0.341,3.818,4.0
47.842,0.324,3.302,33.0
74.067,0.513,4.724,6.0
73.953,0.523,4.321,2.0
81.37,0.587,4.328,13.0
80.694,0.594,3.87,3.0
47.632,0.352,3.624,6.0
47.76,0.36,3.383,8.0
60.556,0.465,3.971,9.0
74.153,0.581,4.466,2.0
81.132,0.648,4.46,9.0
78.677,0.641,3.913,9.0
41.838,0.342,3.258,46.0
44.978,0.374,3.266,23.0
60.535,0.513,4.077,7.0
59.996,0.518,3.719,16.0
78.403,0.689,4.448,10.0
81.309,0.728,4.187,5.0
41.576,0.373,3.311,32.0
44.961,0.411,3.343,15.0
41.56,0.386,2.871,19.0
66.987,0.634,4.269,13.0
78.232,0.752,4.574,12.0
81.362,0.796,4.329,9.0
41.605,0.409,3.386,45.0
41.48,0.414,3.156,22.0
48.729,0.495,3.451,18.0
59.953,0.618,3.923,16.0
74.685,0.783,4.494,8.0
78.543,0.837,4.314,2.0
41.551,0.445,3.453,38.0
41.224,0.448,3.207,45.0
41.509,0.458,3.01,10.0
41.551,0.465,2.789,9.0
60.057,0.683,3.714,3.0
80.185,0.925,4.537,4.0
41.401,0.48,3.509,42.0
41.356,0.486,3.286,18.0
41.326,0.493,3.065,45.0
41.529,0.503,2.856,34.0
60.206,0.739,3.822,10.0
78.403,0.976,4.564,9.0
41.166,0.515,3.557,30.0
40.922,0.519,3.318,41.0
41.22,0.53,3.124,37.0
41.465,0.541,2.918,45.0
60.243,0.796,3.921,6.0
80.402,1.076,4.809,16.0
41.124,0.553,3.619,36.0
40.861,0.557,3.379,32.0
41.006,0.566,3.173,43.0
41.411,0.579,2.98,37.0
67.072,0.95,4.471,9.0
80.196,1.151,4.922,8.0
40.933,0.591,3.667,43.0
40.974,0.599,3.452,41.0
40.853,0.604,3.225,41.0
41.358,0.619,3.04,29.0
41.497,0.629,2.831,9.0
74.437,1.143,4.683,11.0
40.864,0.631,3.725,46.0
40.937,0.64,3.513,42.0
40.853,0.646,3.287,43.0
41.254,0.66,3.096,40.0
41.422,0.67,2.889,15.0
74.273,1.217,4.786,10.0
40.98,0.675,3.797,42.0
40.915,0.681,3.573,30.0
40.759,0.686,3.341,43.0
41.043,0.699,3.142,37.0
41.313,0.711,2.942,43.0
41.444,0.722,2.731,13.0
41.266,0.723,3.885,33.0
40.705,0.72,3.614,45.0
40.998,0.734,3.421,42.0
40.819,0.738,3.184,44.0
41.232,0.754,2.996,39.0
67.984,1.256,4.578,6.0
41.012,0.762,3.921,37.0
40.823,0.767,3.684,38.0
40.964,0.777,3.477,36.0
40.884,0.784,3.248,45.0
40.93,0.793,3.032,39.0
67.964,1.33,4.673,16.0
41.022,0.808,3.98,42.0
40.631,0.808,3.723,47.0
40.723,0.817,3.513,33.0
40.81,0.827,3.298,34.0
40.907,0.837,3.086,42.0
40.918,0.846,2.868,19.0
41.268,0.858,4.06,23.0
41.074,0.862,3.82,37.0
40.659,0.861,3.562,26.0
40.629,0.869,3.338,39.0
40.833,0.881,3.135,42.0
40.917,0.891,2.923,37.0
40.919,0.897,4.08,30.0
40.813,0.903,3.849,32.0
40.653,0.908,3.616,41.0
40.62,0.915,3.39,39.0
40.864,0.929,3.191,42.0
41.174,0.944,2.994,16.0
40.86,0.943,4.127,44.0
40.734,0.948,3.895,34.0
40.943,0.961,3.694,16.0
40.589,0.961,3.439,37.0
40.782,0.974,3.236,44.0
40.75,0.982,3.014,29.0
40.868,0.991,4.18,43.0
40.609,0.993,3.934,40.0
40.77,1.005,3.729,31.0
40.593,1.009,3.489,32.0
40.735,1.021,3.282,35.0
40.796,1.031,3.067,33.0
40.882,1.04,4.231,43.0
40.677,1.043,3.989,25.0
40.636,1.05,3.765,33.0
40.552,1.056,3.534,38.0
40.724,1.069,3.329,32.0
40.721,1.077,3.109,39.0
40.993,1.092,4.291,44.0
40.744,1.093,4.044,41.0
40.621,1.098,3.811,13.0
40.565,1.105,3.582,32.0
40.672,1.117,3.371,40.0
40.772,1.128,3.159,38.0
40.984,1.141,4.337,41.0
40.954,1.149,4.111,39.0
40.962,1.157,3.889,34.0
40.55,1.154,3.626,41.0
40.647,1.166,3.414,43.0
40.86,1.18,3.211,36.0
40.917,1.19,4.375,38.0
41.141,1.205,4.174,41.0
41.173,1.214,3.953,52.0
40.552,1.205,3.67,42.0
40.446,1.21,3.44,37.0
40.81,1.229,3.25,41.0
40.791,1.237,4.405,40.0
40.801,1.246,4.183,41.0
41.163,1.265,3.995,44.0
40.479,1.252,3.705,41.0
40.443,1.26,3.481,38.0
40.743,1.278,3.286,41.0
40.723,1.286,4.439,30.0
40.787,1.297,4.222,42.0
41.309,1.322,4.051,39.0
40.38,1.3,3.735,40.0
40.404,1.31,3.517,40.0
40.638,1.326,3.317,36.0
41.136,1.351,4.524,22.0
41.095,1.359,4.294,40.0
40.728,1.355,4.033,39.0
40.37,1.351,3.773,39.0
40.563,1.366,3.57,36.0
40.617,1.377,3.353,35.0
41.581,1.42,4.612,43.0
40.671,1.397,4.288,32.0
40.574,1.402,4.055,41.0
40.68,1.414,3.838,29.0
40.368,1.411,3.589,45.0
40.461,1.423,3.376,36.0
41.438,1.468,4.633,18.0
40.632,1.447,4.319,43.0
40.714,1.459,4.104,34.0
40.331,1.453,3.84,46.0
40.228,1.458,3.61,43.0
40.372,1.472,3.403,49.0
40.797,1.498,4.596,35.0
40.66,1.501,4.356,33.0
40.625,1.508,4.129,28.0
40.387,1.508,3.879,40.0
40.319,1.514,3.651,42.0
40.781,1.54,3.47,37.0
0.0,0.0,0.0,0.0
40.594,1.552,4.381,31.0
40.583,1.56,4.157,18.0
40.521,1.566,3.923,34.0
40.346,1.568,3.685,44.0
40.509,1.583,3.478,38.0
41.567,2.51,5.0,42.0
41.586,2.518,4.766,31.0
46.632,2.831,5.081,7.0
45.48,2.768,4.694,2.0
44.833,2.736,4.375,25.0
45.561,2.789,4.19,20.0
41.821,2.577,5.03,32.0
41.603,2.57,4.768,41.0
52.267,3.238,5.694,17.0
52.285,3.247,5.395,43.0
52.307,3.258,5.103,6.0
45.465,2.839,4.179,13.0
41.743,2.625,5.018,39.0
41.633,2.624,4.769,41.0
52.238,3.301,5.688,29.0
52.27,3.311,5.39,17.0
52.298,3.322,5.097,16.0
42.272,2.692,3.882,17.0
41.648,2.67,5.003,38.0
41.618,2.674,4.763,30.0
52.253,3.365,5.683,23.0
52.315,3.377,5.389,20.0
42.45,2.747,4.132,4.0
42.443,2.754,3.892,17.0
41.523,2.712,4.982,40.0
41.609,2.724,4.755,42.0
46.651,3.061,5.067,15.0
58.627,3.856,6.029,5.0
45.393,2.992,4.411,0.0
42.05,2.778,3.849,30.0
41.478,2.759,4.969,37.0
41.67,2.777,4.755,37.0
42.201,2.819,4.575,17.0
58.53,3.918,6.007,4.0
41.892,2.811,4.062,5.0
41.989,2.823,3.835,29.0
41.482,2.808,4.96,49.0
41.639,2.824,4.741,37.0
42.179,2.867,4.563,13.0
41.962,2.858,4.296,16.0
41.991,2.866,4.061,16.0
42.269,2.891,3.849,38.0
41.504,2.858,4.951,39.0
41.639,2.872,4.73,38.0
42.108,2.91,4.543,17.0
41.933,2.904,4.281,25.0
41.939,2.91,4.044,30.0
45.134,3.138,4.097,4.0
41.572,2.909,4.947,26.0
41.708,2.924,4.725,44.0
52.976,3.721,5.699,18.0
41.911,2.95,4.265,23.0
41.409,2.92,3.979,25.0
41.878,2.959,3.787,17.0
41.583,2.957,4.933,23.0
41.707,2.971,4.709,35.0
53.109,3.79,5.693,6.0
41.863,2.993,4.245,19.0
41.31,2.959,3.954,36.0
41.46,2.975,3.733,23.0
46.101,3.329,5.451,7.0
41.583,3.008,4.679,43.0
46.044,3.336,4.917,14.0
41.859,3.038,4.227,31.0
41.315,3.004,3.937,17.0
41.279,3.006,3.699,30.0
41.768,3.061,4.92,27.0
41.61,3.054,4.663,36.0
46.023,3.383,4.895,18.0
45.987,3.386,4.623,16.0
41.283,3.045,3.915,37.0
41.361,3.056,3.687,37.0
41.79,3.106,4.903,14.0
45.246,3.368,5.049,9.0
46.042,3.433,4.874,16.0
41.104,3.069,4.112,29.0
41.232,3.084,3.89,43.0
41.263,3.091,3.658,42.0
41.774,3.149,4.879,29.0
45.241,3.414,5.024,23.0
62.825,4.748,6.617,16.0
41.185,3.118,4.098,24.0
41.342,3.134,3.878,36.0
41.268,3.133,3.636,37.0
41.773,3.19,4.856,37.0
45.245,3.461,4.999,21.0
41.183,3.154,4.314,14.0
41.1,3.152,4.066,36.0
41.118,3.157,3.833,14.0
41.22,3.17,3.608,39.0
41.704,3.226,4.823,38.0
45.239,3.504,4.971,15.0
41.168,3.192,4.288,25.0
41.058,3.188,4.037,33.0
41.16,3.2,3.812,13.0
41.287,3.214,3.588,41.0
41.861,3.278,4.814,31.0
45.222,3.545,4.941,19.0
41.183,3.232,4.263,24.0
41.089,3.229,4.013,33.0
41.248,3.245,3.793,30.0
41.278,3.252,3.56,35.0
45.186,3.58,5.166,25.0
45.247,3.588,4.913,24.0
41.169,3.269,4.233,36.0
41.074,3.265,3.983,37.0
41.172,3.277,3.757,40.0
41.297,3.29,3.533,42.0
45.23,3.624,5.139,9.0
45.251,3.629,4.881,40.0
41.186,3.307,4.205,42.0
41.097,3.303,3.956,17.0
41.223,3.316,3.732,37.0
41.285,3.326,3.501,30.0
51.103,4.139,5.767,18.0
45.314,3.673,4.853,12.0
45.375,3.682,4.598,3.0
41.743,3.39,3.986,18.0
41.403,3.366,3.716,25.0
41.346,3.365,3.475,26.0
50.988,4.172,5.715,25.0
41.155,3.37,4.375,8.0
41.192,3.376,4.142,5.0
42.06,3.45,3.983,31.0
41.224,3.385,3.667,40.0
41.314,3.396,3.439,31.0
50.926,4.208,5.665,19.0
48.007,3.97,5.064,10.0
41.432,3.429,4.132,5.0
42.434,3.514,3.983,17.0
41.259,3.42,3.636,38.0
41.339,3.43,3.406,37.0
51.105,4.262,5.642,19.0
48.017,4.007,5.024,18.0
41.278,3.447,4.081,14.0
41.392,3.46,3.849,25.0
41.357,3.459,3.609,21.0
45.623,3.819,3.72,3.0
47.991,4.037,5.256,8.0
48.0,4.041,4.979,6.0
41.239,3.473,4.04,25.0
41.315,3.482,3.806,39.0
41.302,3.484,3.567,35.0
41.519,3.505,3.348,24.0
47.969,4.069,5.209,18.0
41.405,3.514,4.257,2.0
41.298,3.507,4.007,36.0
41.384,3.517,3.773,29.0
41.295,3.511,3.528,39.0
41.502,3.532,3.307,21.0
47.915,4.097,5.157,6.0
41.369,3.538,4.214,4.0
41.5,3.552,3.988,17.0
41.428,3.547,3.738,17.0
41.308,3.539,3.489,37.0
41.395,3.549,3.259,33.0
46.159,3.975,4.924,5.0
41.322,3.56,4.168,7.0
41.544,3.581,3.951,33.0
41.703,3.597,3.721,16.0
41.415,3.574,3.457,31.0
41.354,3.57,3.215,37.0
47.936,4.157,5.064,7.0
41.297,3.583,4.124,34.0
41.664,3.615,3.92,31.0
41.526,3.605,3.663,19.0
41.521,3.606,3.424,16.0
41.433,3.601,3.179,37.0
47.78,4.17,4.998,3.0
41.266,3.603,4.078,33.0
41.522,3.626,3.864,17.0
41.296,3.608,3.6,23.0
44.39,3.88,3.614,7.0
41.442,3.623,3.136,39.0
45.941,4.034,4.757,6.0
41.255,3.623,4.033,36.0
41.303,3.628,3.799,26.0
41.267,3.626,3.553,27.0
41.541,3.651,3.338,35.0
41.533,3.652,3.098,36.0
45.886,4.051,4.7,5.0
41.252,3.642,3.987,40.0
41.29,3.647,3.752,39.0
44.282,3.912,3.764,6.0
41.495,3.667,3.288,35.0
41.571,3.674,3.055,36.0
41.23,3.658,4.177,41.0
41.495,3.682,3.964,19.0
41.265,3.662,3.703,30.0
41.569,3.69,3.486,16.0
41.47,3.682,3.239,32.0
41.592,3.694,3.009,37.0
41.276,3.679,4.135,45.0
41.473,3.697,3.914,16.0
41.235,3.676,3.653,26.0
41.74,3.721,3.453,28.0
41.473,3.698,3.191,45.0
41.606,3.711,2.962,39.0
41.306,3.697,4.089,33.0
45.918,4.11,4.28,4.0
41.285,3.695,3.609,33.0
41.604,3.724,3.393,30.0
41.492,3.714,3.144,38.0
41.604,3.725,2.913,39.0
41.31,3.711,4.04,36.0
41.364,3.716,3.806,23.0
41.262,3.706,3.558,22.0
41.574,3.734,3.34,28.0
41.501,3.728,3.095,41.0
41.649,3.742,2.866,37.0
41.332,3.725,3.992,30.0
41.351,3.726,3.754,31.0
44.207,3.983,3.757,4.0
44.185,3.981,3.496,3.0
41.519,3.74,3.046,41.0
55.645,5.014,3.761,6.0
41.346,3.737,3.942,28.0
41.238,3.726,3.692,33.0
41.619,3.76,3.485,29.0
41.469,3.746,3.229,30.0
41.578,3.755,2.998,42.0
55.611,5.023,3.689,18.0
41.313,3.742,3.886,34.0
41.25,3.735,3.641,33.0
41.556,3.762,3.427,28.0
41.522,3.758,3.18,30.0
41.547,3.76,2.943,41.0
55.61,5.032,3.619,19.0
41.294,3.747,3.831,33.0
41.259,3.743,3.588,38.0
41.524,3.766,3.371,29.0
41.499,3.763,3.125,43.0
41.573,3.768,2.891,37.0
55.615,5.041,3.548,10.0
41.257,3.749,3.774,39.0
41.582,3.777,3.563,22.0
41.524,3.77,3.318,37.0
41.486,3.766,3.071,42.0
41.676,3.782,2.845,27.0
72.502,6.578,4.532,26.0
41.225,3.749,3.717,41.0
41.604,3.782,3.51,29.0
41.504,3.771,3.262,41.0
41.507,3.77,3.018,37.0
44.559,4.046,2.983,4.0
72.443,6.577,4.433,29.0
41.259,3.754,3.666,40.0
41.477,3.772,3.445,34.0
41.512,3.773,3.208,40.0
41.515,3.772,2.964,42.0
55.566,5.047,3.646,16.0
72.423,6.576,4.336,17.0
41.268,3.755,3.611,40.0
41.475,3.771,3.389,35.0
41.481,3.77,3.149,42.0
41.564,3.775,2.912,38.0
55.619,5.05,3.575,14.0
84.741,7.692,4.959,22.0
41.537,3.777,3.577,30.0
41.516,3.773,3.335,40.0
41.481,3.767,3.092,45.0
41.666,3.782,2.861,29.0
72.565,6.584,4.565,25.0
84.767,7.687,4.845,35.0
41.612,3.78,3.526,30.0
41.517,3.769,3.278,38.0
41.525,3.767,3.039,37.0
41.687,3.78,2.806,10.0
72.444,6.565,4.457,31.0
84.736,7.675,4.726,32.0
41.531,3.767,3.462,33.0
41.494,3.761,3.218,35.0
41.56,3.764,2.983,40.0
55.597,5.033,3.664,22.0
72.415,6.551,4.354,20.0
84.604,7.65,4.6,31.0
41.585,3.765,3.408,24.0
41.564,3.76,3.166,33.0
41.561,3.757,2.925,42.0
55.619,5.024,3.588,10.0
84.803,7.655,4.982,18.0
84.613,7.633,4.484,30.0
41.58,3.755,3.349,23.0
41.511,3.746,3.103,41.0
41.616,3.752,2.871,33.0
72.56,6.537,4.579,15.0
84.936,7.646,4.871,27.0
84.785,7.628,4.373,21.0
41.657,3.751,3.296,17.0
41.539,3.737,3.046,41.0
41.716,3.749,2.817,14.0
73.314,6.584,4.521,25.0
84.793,7.608,4.74,29.0
85.542,7.67,4.29,28.0
41.487,3.723,3.223,38.0
41.616,3.731,2.992,38.0
41.773,3.741,2.762,22.0
72.703,6.505,4.381,19.0
84.753,7.578,4.618,25.0
85.642,7.651,4.174,33.0
41.499,3.709,3.164,46.0
41.677,3.721,2.937,39.0
41.797,3.728,2.704,13.0
0.0,0.0,0.0,0.0
85.104,7.577,4.516,22.0
85.877,7.639,4.063,18.0
41.568,3.699,3.11,40.0
41.675,3.705,2.876,41.0
73.362,6.514,4.641,11.0
84.669,7.51,4.86,35.0
85.663,7.591,4.423,17.0
92.141,8.158,4.228,19.0
41.585,3.682,3.051,41.0
41.728,3.69,2.82,15.0
85.226,7.53,5.268,8.0
85.289,7.527,4.772,40.0
85.656,7.551,4.299,29.0
92.117,8.113,4.094,27.0
41.678,3.67,2.998,33.0
45.913,4.039,3.037,5.0
72.482,6.368,4.376,11.0
85.437,7.497,4.657,18.0
85.926,7.531,4.189,21.0
93.043,8.147,4.001,63.0
41.681,3.649,2.937,22.0
45.866,4.01,2.967,34.0
85.258,7.445,5.023,16.0
78.963,6.886,4.189,18.0
86.116,7.501,4.073,10.0
93.104,8.1,3.869,16.0
41.671,3.624,2.875,27.0
45.834,3.98,2.898,33.0
78.878,6.841,4.532,11.0
78.984,6.841,4.076,11.0
91.916,7.951,4.214,16.0
96.317,8.322,3.862,17.0
45.789,3.954,3.093,23.0
45.828,3.951,2.83,32.0
45.886,3.951,2.57,12.0
45.933,3.949,2.303,5.0
91.609,7.866,4.067,13.0
45.937,3.939,1.775,12.0
45.783,3.923,3.026,15.0
45.819,3.92,2.764,33.0
45.883,3.92,2.503,24.0
45.867,3.913,2.234,30.0
45.888,3.909,1.971,23.0
45.851,3.9,1.705,22.0
45.768,3.889,2.958,35.0
45.813,3.887,2.696,33.0
45.843,3.883,2.434,33.0
45.833,3.876,2.165,32.0
45.834,3.87,1.901,31.0
45.806,3.863,1.637,29.0
45.752,3.853,2.889,37.0
45.803,3.851,2.629,36.0
45.806,3.845,2.365,34.0
45.792,3.838,2.097,35.0
45.822,3.834,1.835,37.0
45.793,3.826,1.57,36.0
45.759,3.818,2.824,44.0
45.807,3.815,2.563,39.0
45.804,3.808,2.299,36.0
45.8,3.802,2.03,38.0
45.801,3.795,1.768,39.0
45.8,3.789,1.505,42.0
45.768,3.78,2.758,38.0
45.812,3.777,2.497,40.0
45.793,3.769,2.233,37.0
45.802,3.763,1.965,43.0
45.808,3.757,1.702,42.0
45.816,3.751,1.44,39.0
45.788,3.742,2.694,38.0
45.807,3.737,2.431,41.0
45.803,3.729,2.168,42.0
45.829,3.725,1.902,42.0
45.834,3.718,1.639,41.0
45.825,3.711,1.375,38.0
45.819,3.703,2.63,40.0
45.816,3.695,2.367,43.0
45.845,3.69,2.104,31.0
45.85,3.683,1.837,31.0
45.868,3.678,1.575,35.0
45.882,3.672,1.312,34.0
45.86,3.663,2.568,30.0
45.849,3.654,2.304,27.0
45.903,3.651,2.043,18.0
45.92,3.645,1.776,28.0
45.958,3.641,1.513,23.0
98.603,7.796,2.682,10.0
45.914,3.621,2.507,13.0
45.922,3.614,2.243,28.0
71.785,5.637,3.094,11.0
100.873,7.904,3.758,14.0
100.915,7.89,3.181,6.0
99.192,7.741,2.559,8.0
45.997,3.579,2.446,10.0
71.729,5.569,3.402,17.0
91.15,7.061,3.8,15.0
101.579,7.852,3.643,18.0
99.84,7.701,3.008,2.0
99.788,7.681,2.436,8.0
91.444,7.018,4.735,15.0
71.563,5.479,3.294,10.0
101.951,7.787,4.109,12.0
101.956,7.77,3.515,35.0
100.474,7.639,2.889,6.0
100.476,7.622,2.314,9.0
91.341,6.908,4.604,12.0
71.338,5.381,3.187,20.0
101.964,7.673,3.97,20.0
101.973,7.654,3.376,34.0
101.079,7.57,2.768,6.0
101.071,7.551,2.189,4.0
71.486,5.322,3.505,20.0
90.439,6.716,3.916,12.0
101.958,7.553,3.83,26.0
101.991,7.536,3.238,22.0
101.978,7.517,2.654,6.0
101.982,7.498,2.071,7.0
90.331,6.618,4.308,15.0
90.429,6.607,3.794,15.0
102.087,7.439,3.698,41.0
102.092,7.42,3.104,48.0
102.083,7.399,2.52,49.0
102.098,7.38,1.936,48.0
71.657,5.16,3.32,23.0
102.077,7.33,4.145,17.0
102.089,7.31,3.561,22.0
52.304,3.735,1.52,7.0
52.287,3.724,1.221,20.0
52.25,3.711,0.922,22.0
90.44,6.398,4.071,6.0
52.329,3.691,2.056,11.0
52.252,3.674,1.754,24.0
52.211,3.661,1.449,26.0
52.206,3.649,1.15,25.0
52.193,3.639,0.852,32.0
52.259,3.628,2.284,22.0
52.241,3.616,1.984,5.0
52.214,3.603,1.685,31.0
52.193,3.59,1.381,35.0
52.183,3.579,1.083,41.0
52.196,3.569,0.785,42.0
52.223,3.555,2.215,47.0
47.943,3.253,1.76,5.0
52.227,3.533,1.618,13.0
52.214,3.52,1.314,38.0
52.21,3.509,1.017,41.0
52.221,3.499,0.719,44.0
52.252,3.484,2.149,45.0
48.066,3.194,1.703,5.0
47.336,3.136,1.407,59.0
52.256,3.45,1.25,36.0
52.272,3.44,0.952,38.0
52.298,3.431,0.655,38.0
52.321,3.414,2.087,33.0
48.122,3.129,1.645,6.0
47.392,3.071,1.349,39.0
0.0,0.0,0.0,0.0
109.672,7.058,1.861,6.0
109.841,7.045,1.24,7.0
110.93,7.077,4.289,22.0
48.227,3.066,1.589,6.0
47.538,3.011,1.296,21.0
47.49,2.997,1.019,18.0
111.097,6.987,1.752,10.0
111.183,6.966,1.119,13.0
50.658,3.156,1.897,4.0
48.3,2.997,1.533,7.0
47.662,2.946,1.241,31.0
47.558,2.929,0.963,57.0
111.083,6.816,1.618,60.0
111.1,6.791,0.986,43.0
50.775,3.086,1.841,4.0
48.489,2.935,1.482,8.0
47.772,2.88,1.188,20.0
47.701,2.865,0.91,26.0
113.946,6.816,1.527,7.0
114.122,6.799,0.88,7.0
50.819,3.008,1.783,7.0
48.754,2.874,1.433,9.0
47.912,2.813,1.135,20.0
47.811,2.795,0.857,34.0
47.728,2.778,0.584,39.0
59.189,3.432,0.388,14.0
50.783,2.926,1.724,8.0
49.037,2.813,1.386,14.0
48.053,2.745,1.085,18.0
47.938,2.726,0.805,31.0
47.848,2.709,0.532,28.0
59.361,3.347,0.323,15.0
50.779,2.844,1.667,3.0
49.08,2.736,1.333,15.0
48.201,2.675,1.035,15.0
48.044,2.655,0.754,19.0
59.313,3.262,0.595,17.0
59.288,3.245,0.258,18.0
59.425,3.229,1.886,25.0
49.141,2.658,1.281,8.0
48.356,2.603,0.986,13.0
48.196,2.582,0.704,17.0
59.341,3.164,0.531,30.0
59.3,3.147,0.195,17.0
59.408,3.129,1.823,36.0
49.609,2.6,1.241,3.0
48.535,2.531,0.939,14.0
48.344,2.508,0.656,18.0
59.451,3.07,0.47,26.0
59.328,3.048,0.134,18.0
59.513,3.034,1.764,19.0
50.213,2.546,1.204,11.0
48.728,2.458,0.892,12.0
48.546,2.435,0.609,11.0
120.024,5.991,0.828,10.0
59.21,2.94,0.073,19.0
120.286,5.923,3.445,2.0
50.227,2.46,1.154,15.0
49.009,2.386,0.848,8.0
120.038,5.812,1.387,16.0
120.053,5.779,0.708,9.0
58.797,2.815,0.014,12.0
127.792,6.067,3.535,2.0
50.464,2.382,1.11,6.0
49.297,2.313,0.805,7.0
66.187,3.087,0.7,11.0
66.087,3.064,0.326,12.0
58.623,2.702,-0.041,10.0
61.086,2.79,1.631,13.0
50.642,2.298,1.065,3.0
49.657,2.239,0.764,3.0
66.063,2.96,0.637,27.0
65.893,2.935,0.263,14.0
58.493,2.589,-0.096,3.0
62.632,2.746,1.614,7.0
61.333,2.672,1.234,6.0
66.048,2.858,0.955,24.0
66.05,2.839,0.576,29.0
65.616,2.801,0.202,10.0
54.626,2.317,-0.139,2.0
64.174,2.695,1.596,7.0
63.308,2.641,1.217,8.0
62.592,2.592,0.85,6.0
66.113,2.719,0.519,11.0
65.438,2.672,0.144,14.0
55.672,2.257,-0.19,2.0
120.123,4.821,2.883,12.0
120.1,4.785,2.206,30.0
120.007,4.745,1.527,14.0
72.325,2.838,0.505,7.0
65.165,2.538,0.088,15.0
56.682,2.191,-0.241,3.0
194.086,7.42,4.496,23.0
120.052,4.555,2.105,8.0
72.499,2.728,0.862,8.0
72.09,2.692,0.445,16.0
64.972,2.406,0.035,5.0
52.507,1.929,-0.266,1.0
72.423,2.631,1.619,25.0
72.354,2.607,1.211,27.0
72.357,2.585,0.804,30.0
71.861,2.546,0.387,20.0
59.973,2.106,-0.014,2.0
54.155,1.886,-0.316,1.0
72.363,2.49,1.562,34.0
72.361,2.467,1.156,37.0
72.342,2.444,0.748,33.0
71.771,2.402,0.332,12.0
60.446,2.005,-0.059,3.0
0.0,0.0,0.0,0.0
72.483,2.352,1.511,26.0
72.492,2.33,1.104,25.0
72.472,2.306,0.697,27.0
71.6,2.256,0.279,13.0
61.758,1.927,-0.105,4.0
49.057,1.516,-0.358,1.0
74.175,2.26,1.494,4.0
78.907,2.379,1.147,14.0
78.895,2.355,0.704,14.0
71.534,2.112,0.23,12.0
63.163,1.845,-0.151,2.0
0.0,0.0,0.0,0.0
76.609,2.182,1.491,4.0
76.707,2.159,1.063,8.0
78.806,2.193,0.651,15.0
71.39,1.964,0.182,10.0
64.811,1.762,-0.197,0.0
0.0,0.0,0.0,0.0
78.953,2.088,1.486,31.0
78.949,2.064,1.044,31.0
78.908,2.037,0.602,28.0
71.449,1.82,0.137,7.0
0.0,0.0,0.0,0.0
44.432,1.104,-0.411,0.0
85.278,2.085,1.554,30.0
85.248,2.056,1.076,32.0
85.05,2.024,0.598,13.0
71.452,1.676,0.096,3.0
0.0,0.0,0.0,0.0
0.0,0.0,0.0,0.0
85.248,1.91,1.505,35.0
85.26,1.883,1.029,38.0
85.004,1.85,0.551,12.0
69.739,1.494,0.055,3.0
0.0,0.0,0.0,0.0
0.0,0.0,0.0,0.0
87.285,1.776,1.494,8.0
119.834,2.397,1.382,10.0
85.136,1.676,0.506,12.0
71.435,1.382,0.019,3.0
0.0,0.0,0.0,0.0
0.0,0.0,0.0,0.0
91.847,1.678,1.526,15.0
91.866,1.647,1.014,28.0
84.836,1.492,0.463,6.0
73.599,1.271,-0.015,3.0
48.734,0.825,-0.282,0.0
41.815,0.694,-0.475,0.0
91.952,1.489,1.485,34.0
91.993,1.459,0.973,29.0
85.029,1.32,0.426,9.0
0.0,0.0,0.0,0.0
48.562,0.721,-0.302,0.0
41.009,0.594,-0.483,0.0
98.52,1.391,1.549,32.0
98.549,1.358,1.001,27.0
85.244,1.145,0.391,14.0
0.0,0.0,0.0,0.0
0.0,0.0,0.0,0.0
40.986,0.508,-0.499,0.0
98.557,1.186,1.511,32.0
98.485,1.15,0.962,20.0
85.382,0.969,0.36,9.0
0.0,0.0,0.0,0.0
46.638,0.497,-0.326,0.0
38.547,0.398,-0.483,0.0
98.757,0.981,1.479,12.0
98.609,0.944,0.929,15.0
85.089,0.785,0.329,7.0
0.0,0.0,0.0,0.0
48.495,0.414,-0.355,0.0
0.0,0.0,0.0,0.0
104.889,0.82,1.538,4.0
104.874,0.782,0.955,25.0
86.055,0.612,0.307,4.0
0.0,0.0,0.0,0.0
46.013,0.295,-0.35,0.0
37.123,0.225,-0.488,0.0
111.087,0.632,1.597,29.0
110.955,0.593,0.98,17.0
0.0,0.0,0.0,0.0
52.59,0.243,-0.123,0.0
46.265,0.198,-0.364,0.0
0.0,0.0,0.0,0.0
119.816,0.425,1.693,12.0
110.988,0.355,0.954,16.0
92.972,0.266,0.284,1.0
0.0,0.0,0.0,0.0
45.377,0.097,-0.367,0.0
0.0,0.0,0.0,0.0
111.136,0.159,1.547,23.0
111.004,0.119,0.932,8.0
95.567,0.068,0.273,5.0
0.0,0.0,0.0,0.0
45.293,0.0,-0.375,1.0
36.527,-0.012,-0.504,0.0
117.372,-0.083,1.614,14.0
111.295,-0.119,0.915,9.0
0.0,0.0,0.0,0.0
0.0,0.0,0.0,0.0
45.181,-0.097,-0.381,1.0
35.907,-0.09,-0.501,0.0
119.746,-0.344,1.63,7.0
114.345,-0.368,0.926,5.0
0.0,0.0,0.0,0.0
0.0,0.0,0.0,0.0
45.864,-0.197,-0.392,0.0
36.457,-0.17,-0.512,0.0
119.763,-0.599,1.619,7.0
119.742,-0.643,0.959,7.0
0.0,0.0,0.0,0.0
0.0,0.0,0.0,0.0
0.0,0.0,0.0,0.0
0.0,0.0,0.0,0.0
119.695,-0.856,1.611,17.0
119.708,-0.9,0.952,9.0
0.0,0.0,0.0,0.0
0.0,0.0,0.0,0.0
0.0,0.0,0.0,0.0
0.0,0.0,0.0,0.0
119.748,-1.111,1.609,150.0
119.756,-1.155,0.951,129.0
0.0,0.0,0.0,0.0
0.0,0.0,0.0,0.0
45.32,-0.487,-0.392,0.0
0.0,0.0,0.0,0.0
0.0,0.0,0.0,0.0
139.231,-1.639,1.109,21.0
0.0,0.0,0.0,0.0
0.0,0.0,0.0,0.0
46.913,-0.604,-0.403,0.0
0.0,0.0,0.0,0.0
0.0,0.0,0.0,0.0
138.825,-1.933,1.114,22.0
0.0,0.0,0.0,0.0
0.0,0.0,0.0,0.0
46.713,-0.701,-0.398,1.0
0.0,0.0,0.0,0.0
0.0,0.0,0.0,0.0
139.078,-2.233,1.129,18.0
0.0,0.0,0.0,0.0
0.0,0.0,0.0,0.0
46.918,-0.805,-0.394,1.0
37.356,-0.654,-0.519,0.0
0.0,0.0,0.0,0.0
139.071,-2.53,1.148,22.0
0.0,0.0,0.0,0.0
0.0,0.0,0.0,0.0
46.038,-0.887,-0.38,1.0
37.349,-0.734,-0.513,0.0
138.948,-2.771,1.931,2.0
138.975,-2.822,1.171,22.0
0.0,0.0,0.0,0.0
0.0,0.0,0.0,0.0
47.529,-1.017,-0.383,0.0
0.0,0.0,0.0,0.0
139.031,-3.065,1.96,2.0
138.865,-3.113,1.199,20.0
0.0,0.0,0.0,0.0
0.0,0.0,0.0,0.0
0.0,0.0,0.0,0.0
38.013,-0.908,-0.505,0.0
138.821,-3.353,1.99,4.0
138.836,-3.404,1.233,22.0
0.0,0.0,0.0,0.0
0.0,0.0,0.0,0.0
0.0,0.0,0.0,0.0
38.04,-0.989,-0.495,0.0
138.674,-3.642,2.026,3.0
138.8,-3.696,1.271,21.0
0.0,0.0,0.0,0.0
0.0,0.0,0.0,0.0
47.945,-1.329,-0.349,1.0
37.978,-1.067,-0.483,0.0
138.512,-3.927,2.067,10.0
138.432,-3.976,1.312,21.0
0.0,0.0,0.0,0.0
0.0,0.0,0.0,0.0
50.167,-1.495,-0.348,0.0
41.176,-1.242,-0.51,1.0
138.601,-4.217,2.117,6.0
138.691,-4.269,1.364,22.0
0.0,0.0,0.0,0.0
0.0,0.0,0.0,0.0
0.0,0.0,0.0,0.0
41.416,-1.336,-0.497,0.0
138.644,-4.503,2.171,8.0
138.61,-4.553,1.417,22.0
0.0,0.0,0.0,0.0
0.0,0.0,0.0,0.0
0.0,0.0,0.0,0.0
41.665,-1.429,-0.483,1.0
138.513,-4.785,2.227,6.0
138.563,-4.835,1.476,15.0
0.0,0.0,0.0,0.0
0.0,0.0,0.0,0.0
0.0,0.0,0.0,0.0
0.0,0.0,0.0,0.0
193.179,-7.066,3.194,6.0
138.429,-5.11,1.538,6.0
138.529,-5.164,0.788,5.0
0.0,0.0,0.0,0.0
52.312,-1.987,-0.274,0.0
0.0,0.0,0.0,0.0
193.242,-7.452,3.289,6.0
138.399,-5.387,1.606,10.0
138.437,-5.439,0.857,9.0
45.121,-1.789,0.03,0.0
0.0,0.0,0.0,0.0
0.0,0.0,0.0,0.0
138.12,-5.605,2.423,15.0
187.29,-7.668,2.273,9.0
138.326,-5.71,0.93,12.0
0.0,0.0,0.0,0.0
0.0,0.0,0.0,0.0
43.286,-1.833,-0.415,0.0
192.669,-8.202,3.489,22.0
138.058,-5.927,1.754,12.0
138.024,-5.972,1.007,21.0
0.0,0.0,0.0,0.0
0.0,0.0,0.0,0.0
0.0,0.0,0.0,0.0
193.784,-8.63,3.624,20.0
194.641,-8.735,2.588,15.0
138.256,-6.254,1.092,12.0
0.0,0.0,0.0,0.0
20.022,-0.92,-0.059,2.0
20.003,-0.926,-0.167,19.0
20.164,-0.937,0.389,10.0
20.171,-0.945,0.281,0.0
138.255,-6.523,1.181,24.0
19.998,-0.95,0.061,0.0
19.996,-0.957,-0.046,22.0
19.986,-0.964,-0.154,29.0
20.14,-0.975,0.402,25.0
20.153,-0.982,0.294,20.0
20.166,-0.99,0.185,11.0
20.008,-0.989,0.074,14.0
19.975,-0.995,-0.032,22.0
19.973,-1.002,-0.14,32.0
20.098,-1.011,0.415,18.0
20.083,-1.017,0.307,17.0
20.011,-1.021,0.198,18.0
19.961,-1.025,0.088,19.0
19.971,-1.032,-0.018,18.0
19.996,-1.041,-0.126,24.0
19.968,-1.043,0.427,16.0
19.953,-1.049,0.32,15.0
19.997,-1.057,0.213,23.0
19.986,-1.064,0.103,23.0
19.98,-1.07,-0.003,21.0
20.019,-1.079,-0.111,17.0
19.968,-1.08,0.442,21.0
19.945,-1.085,0.335,18.0
19.994,-1.095,0.228,23.0
19.999,-1.102,0.119,25.0
20.0,-1.108,0.011,17.0
0.0,0.0,0.0,0.0
19.961,-1.116,0.458,25.0
19.945,-1.122,0.351,19.0
19.987,-1.131,0.244,22.0
20.122,-1.145,0.136,8.0
19.983,-1.144,0.028,0.0
19.997,-1.152,-0.078,1.0
19.952,-1.152,0.474,25.0
19.938,-1.158,0.367,24.0
19.953,-1.165,0.26,19.0
20.005,-1.175,0.152,56.0
19.995,-1.181,0.045,150.0
19.984,-1.187,-0.061,150.0
19.949,-1.188,0.491,24.0
19.94,-1.193,0.384,19.0
19.939,-1.2,0.277,26.0
19.985,-1.209,0.169,150.0
19.994,-1.216,0.062,150.0
20.015,-1.224,-0.044,20.0
19.943,-1.222,0.509,24.0
19.937,-1.228,0.402,22.0
19.94,-1.235,0.295,26.0
19.985,-1.244,0.187,26.0
19.986,-1.25,0.08,24.0
19.994,-1.257,-0.026,16.0
19.937,-1.256,0.526,22.0
19.928,-1.262,0.42,19.0
19.941,-1.269,0.313,19.0
19.96,-1.277,0.205,25.0
19.984,-1.285,0.098,24.0
19.982,-1.291,-0.007,14.0
19.934,-1.29,0.545,17.0
19.93,-1.296,0.438,14.0
19.933,-1.302,0.332,15.0
19.972,-1.311,0.224,25.0
20.0,-1.319,0.117,21.0
19.997,-1.325,0.011,16.0
20.088,-1.334,0.569,16.0
20.082,-1.34,0.461,6.0
20.05,-1.344,0.354,1.0
19.98,-1.345,0.244,3.0
20.014,-1.354,0.137,7.0
20.023,-1.36,0.031,7.0
20.022,-1.363,0.587,9.0
20.035,-1.369,0.48,8.0
20.054,-1.377,0.374,6.0
20.037,-1.381,0.264,1.0
102.838,-7.124,0.812,46.0
63.399,-4.411,0.162,4.0
20.02,-1.395,0.607,9.0
20.003,-1.399,0.5,11.0
20.001,-1.405,0.393,10.0
20.003,-1.411,0.285,10.0
20.042,-1.42,0.179,26.0
82.178,-5.848,0.297,5.0
20.016,-1.426,0.628,8.0
20.012,-1.432,0.521,9.0
20.001,-1.437,0.414,9.0
20.005,-1.442,0.306,10.0
20.042,-1.451,0.2,36.0
20.022,-1.455,0.093,5.0
72.688,-5.293,2.359,16.0
20.046,-1.465,0.543,2.0
20.024,-1.469,0.436,1.0
20.041,-1.476,0.328,1.0
20.043,-1.482,0.221,5.0
20.037,-1.487,0.115,2.0
71.878,-5.342,2.41,31.0
71.686,-5.347,2.021,24.0
72.618,-5.436,1.661,7.0
119.376,-8.97,2.085,150.0
119.273,-8.994,1.449,19.0
95.464,-7.225,0.653,4.0
102.878,-7.798,3.563,23.0
71.723,-5.454,2.102,10.0
67.916,-5.183,1.63,33.0
67.894,-5.2,1.261,63.0
67.877,-5.216,0.901,73.0
67.861,-5.233,0.54,86.0
67.899,-5.244,2.428,77.0
67.893,-5.261,2.067,86.0
67.892,-5.278,1.706,74.0
67.881,-5.295,1.339,56.0
67.904,-5.315,0.978,42.0
67.89,-5.331,0.618,30.0
72.115,-5.67,2.661,9.0
72.564,-5.724,2.292,13.0
71.704,-5.674,1.885,21.0
126.495,-10.041,2.64,23.0
119.322,-9.503,1.858,37.0
114.527,-9.151,1.176,7.0
71.472,-5.717,2.721,11.0
72.51,-5.818,2.375,36.0
119.324,-9.604,3.276,22.0
119.334,-9.633,2.632,36.0
119.342,-9.664,2.0,143.0
119.12,-9.676,1.365,13.0
67.954,-5.527,2.668,54.0
67.921,-5.539,2.306,15.0
72.203,-5.905,2.068,23.0
119.308,-9.786,2.774,42.0
126.493,-10.407,2.271,150.0
119.203,-9.836,1.508,19.0
67.966,-5.615,2.751,60.0
67.934,-5.627,2.389,40.0
74.688,-6.204,2.23,2.0
119.29,-9.937,2.917,27.0
126.494,-10.566,2.424,30.0
119.182,-9.983,1.653,14.0
67.966,-5.7,2.834,52.0
67.934,-5.712,2.472,44.0
71.803,-6.053,2.232,6.0
72.462,-6.125,1.861,27.0
119.299,-10.111,2.433,58.0
119.279,-10.135,1.801,19.0
67.971,-5.783,2.918,46.0
67.939,-5.793,2.556,44.0
102.91,-8.798,3.326,8.0
119.214,-10.218,3.21,29.0
119.248,-10.245,2.579,105.0
119.243,-10.272,1.949,58.0
67.982,-5.863,3.003,52.0
67.975,-5.875,2.642,44.0
67.913,-5.884,2.28,12.0
119.164,-10.35,3.357,14.0
72.82,-6.339,1.667,5.0
135.705,-11.843,2.388,142.0
67.992,-5.941,3.09,56.0
67.984,-5.954,2.729,44.0
67.944,-5.963,2.368,38.0
74.415,-6.546,2.193,8.0
119.278,-10.517,2.884,17.0
135.689,-11.992,2.562,32.0
67.947,-6.011,3.176,9.0
71.054,-6.3,2.945,20.0
72.288,-6.423,2.613,6.0
104.437,-9.299,3.211,15.0
74.101,-6.612,1.886,14.0
119.278,-10.667,2.407,35.0
71.442,-6.397,3.433,10.0
71.223,-6.39,3.044,9.0
70.875,-6.371,2.654,3.0
104.762,-9.436,3.358,10.0
74.199,-6.697,1.986,6.0
119.28,-10.789,2.563,57.0
71.372,-6.463,3.522,14.0
71.23,-6.462,3.138,19.0
71.027,-6.456,2.752,4.0
72.206,-6.575,2.409,10.0
104.1,-9.497,2.924,12.0
119.233,-10.9,2.719,16.0
0.0,0.0,0.0,0.0
71.219,-6.529,3.232,12.0
74.753,-6.866,2.997,8.0
78.321,-7.206,2.718,27.0
103.623,-9.552,3.048,7.0
119.248,-11.013,2.877,30.0
71.069,-6.571,3.697,30.0
71.196,-6.594,3.327,16.0
74.611,-6.921,3.091,7.0
78.336,-7.279,2.823,26.0
74.654,-6.948,2.296,3.0
119.24,-11.117,3.038,7.0
70.293,-6.562,3.752,8.0
71.139,-6.651,3.419,11.0
70.977,-6.646,3.036,7.0
78.553,-7.366,2.936,40.0
106.798,-10.031,3.428,2.0
104.443,-9.825,2.8,6.0
73.476,-6.921,4.019,12.0
73.395,-6.923,3.626,28.0
77.543,-7.325,3.421,9.0
78.734,-7.448,3.049,26.0
78.674,-7.453,2.631,21.0
119.23,-11.312,3.357,9.0
73.92,-7.023,4.145,6.0
0.0,0.0,0.0,0.0
71.151,-6.776,3.235,13.0
78.477,-7.484,3.145,22.0
74.276,-7.092,2.584,27.0
103.815,-9.927,3.063,7.0
73.868,-7.073,4.242,8.0
71.328,-6.837,3.717,15.0
72.85,-6.992,3.411,4.0
78.133,-7.508,3.236,44.0
74.436,-7.161,2.689,21.0
78.524,-7.564,2.422,7.0
74.031,-7.141,4.351,9.0
71.324,-6.887,3.813,8.0
71.266,-6.889,3.433,14.0
77.806,-7.528,3.328,17.0
74.486,-7.216,2.792,15.0
78.639,-7.627,2.531,19.0
70.127,-6.811,4.217,8.0
