X,Y,Z,Reflectivity
38.955,4.426,-0.402,13.0
0.0,0.0,0.0,0.0
28.218,3.211,-0.615,0.0
24.379,2.776,-0.673,0.0
21.553,2.457,-0.719,0.0
19.237,2.195,-0.752,0.0
38.706,4.422,-0.446,8.0
32.15,3.675,-0.555,0.0
27.242,3.117,-0.626,0.0
23.747,2.719,-0.684,0.0
20.984,2.405,-0.725,0.0
18.739,2.149,-0.754,0.0
38.698,4.443,-0.492,8.0
30.839,3.543,-0.569,1.0
26.518,3.049,-0.641,0.0
23.195,2.669,-0.696,0.0
20.242,2.331,-0.723,0.0
18.413,2.122,-0.764,0.0
38.685,4.463,-0.539,5.0
30.318,3.5,-0.596,1.0
25.708,2.97,-0.652,0.0
22.524,2.604,-0.703,0.0
20.009,2.315,-0.739,0.0
18.002,2.084,-0.768,0.0
38.716,4.486,-0.586,0.0
28.874,3.347,-0.602,0.0
25.092,2.911,-0.667,0.0
21.887,2.54,-0.71,0.0
19.585,2.275,-0.748,0.0
17.677,2.055,-0.776,0.0
32.707,3.804,-0.535,0.0
27.949,3.252,-0.617,1.0
24.25,2.824,-0.674,0.0
21.377,2.491,-0.719,0.0
19.054,2.221,-0.75,0.0
17.176,2.004,-0.775,0.0
31.255,3.648,-0.548,0.0
27.063,3.16,-0.63,0.0
23.637,2.762,-0.686,0.0
20.831,2.435,-0.726,0.0
18.678,2.185,-0.758,0.0
16.952,1.984,-0.786,0.0
30.473,3.568,-0.572,1.0
26.197,3.069,-0.642,0.0
22.962,2.691,-0.694,0.0
20.272,2.377,-0.731,0.0
18.198,2.135,-0.761,0.0
16.566,1.945,-0.788,0.0
29.826,3.502,-0.596,1.0
25.476,2.992,-0.655,0.0
22.328,2.623,-0.703,0.0
19.775,2.325,-0.738,0.0
17.901,2.105,-0.771,0.0
16.317,1.92,-0.796,0.0
28.488,3.352,-0.604,0.0
24.79,2.918,-0.668,0.0
21.725,2.558,-0.71,0.0
19.249,2.267,-0.741,0.0
17.587,2.073,-0.778,0.0
15.95,1.881,-0.798,0.0
27.517,3.244,-0.617,0.0
23.972,2.827,-0.675,0.0
21.172,2.498,-0.718,0.0
18.905,2.231,-0.751,0.0
17.134,2.023,-0.779,0.0
15.731,1.858,-0.806,0.0
26.756,3.159,-0.632,0.0
23.421,2.766,-0.687,0.0
20.651,2.439,-0.725,0.0
18.465,2.182,-0.756,0.0
16.83,1.989,-0.785,0.0
15.444,1.826,-0.81,0.0
26.013,3.075,-0.645,0.0
22.792,2.694,-0.696,0.0
20.156,2.383,-0.731,0.0
18.157,2.148,-0.765,0.0
16.47,1.949,-0.788,0.0
15.171,1.796,-0.813,0.0
25.372,3.001,-0.66,0.0
22.134,2.618,-0.702,0.0
19.699,2.331,-0.738,0.0
17.758,2.102,-0.769,0.0
16.105,1.907,-0.79,0.0
14.911,1.766,-0.817,0.0
24.552,2.905,-0.668,0.0
21.617,2.558,-0.712,0.0
19.342,2.289,-0.748,0.0
17.408,2.061,-0.775,0.0
15.906,1.883,-0.8,0.0
14.674,1.738,-0.822,0.0
23.815,2.818,-0.676,0.0
21.023,2.487,-0.717,0.0
18.868,2.233,-0.752,0.0
17.059,2.019,-0.78,0.0
15.599,1.846,-0.802,0.0
14.463,1.712,-0.827,0.0
23.258,2.751,-0.687,0.0
20.582,2.434,-0.726,0.0
18.426,2.179,-0.756,0.0
16.702,1.975,-0.783,0.0
15.373,1.819,-0.809,0.0
14.199,1.68,-0.829,0.0
22.712,2.684,-0.697,0.0
20.039,2.368,-0.73,0.0
18.052,2.133,-0.761,0.0
16.427,1.941,-0.789,0.0
15.116,1.786,-0.813,0.0
13.954,1.649,-0.831,0.0
22.027,2.6,-0.702,0.0
19.635,2.317,-0.738,0.0
17.741,2.094,-0.769,0.0
16.105,1.901,-0.792,0.0
14.863,1.754,-0.816,0.0
13.772,1.626,-0.835,0.0
21.501,2.534,-0.709,0.0
19.213,2.264,-0.744,0.0
17.366,2.046,-0.772,0.0
15.879,1.871,-0.799,0.0
14.59,1.719,-0.818,0.0
13.622,1.605,-0.842,0.0
20.967,2.466,-0.715,0.0
18.857,2.217,-0.751,0.0
17.008,2.0,-0.775,0.0
15.619,1.836,-0.803,0.0
14.438,1.697,-0.826,0.0
13.391,1.574,-0.843,0.0
20.435,2.398,-0.72,0.0
18.417,2.16,-0.754,0.0
16.742,1.964,-0.782,0.0
15.331,1.798,-0.805,0.0
14.232,1.669,-0.829,0.0
13.191,1.547,-0.845,0.0
20.046,2.346,-0.728,0.0
18.0,2.106,-0.757,0.0
16.436,1.922,-0.786,0.0
15.171,1.774,-0.814,0.0
13.966,1.633,-0.829,0.0
13.06,1.527,-0.851,0.0
19.709,2.299,-0.737,0.0
17.807,2.076,-0.768,0.0
16.207,1.889,-0.792,0.0
14.912,1.738,-0.816,0.0
13.805,1.609,-0.834,0.0
12.866,1.499,-0.852,0.0
19.351,2.249,-0.744,0.0
17.537,2.038,-0.775,0.0
15.988,1.857,-0.798,0.0
14.676,1.704,-0.818,0.0
13.656,1.586,-0.84,0.0
12.639,1.467,-0.85,0.0
18.805,2.177,-0.743,0.0
17.173,1.988,-0.777,0.0
15.725,1.819,-0.801,0.0
14.454,1.672,-0.821,0.0
13.45,1.555,-0.841,0.0
12.522,1.448,-0.855,0.0
18.52,2.135,-0.751,0.0
16.894,1.947,-0.781,0.0
15.477,1.783,-0.804,0.0
14.289,1.645,-0.826,0.0
13.303,1.531,-0.845,0.0
12.45,1.433,-0.863,0.0
18.19,2.088,-0.755,0.0
16.669,1.912,-0.788,0.0
15.224,1.746,-0.806,0.0
14.074,1.613,-0.828,0.0
13.026,1.492,-0.841,0.0
12.224,1.4,-0.859,0.0
17.95,2.05,-0.763,0.0
16.369,1.868,-0.789,0.0
15.072,1.719,-0.813,0.0
13.923,1.587,-0.832,0.0
12.914,1.472,-0.846,0.0
12.067,1.375,-0.86,0.0
17.575,1.996,-0.764,0.0
16.125,1.83,-0.793,0.0
14.792,1.678,-0.812,0.0
13.743,1.558,-0.835,0.0
12.887,1.461,-0.857,0.0
11.79,1.336,-0.851,0.0
17.443,1.97,-0.775,0.0
15.933,1.798,-0.799,0.0
14.567,1.643,-0.814,0.0
13.607,1.534,-0.839,0.0
12.653,1.425,-0.853,0.0
11.753,1.323,-0.86,0.0
17.094,1.918,-0.775,0.0
15.727,1.764,-0.803,0.0
14.394,1.613,-0.817,0.0
13.47,1.508,-0.843,0.0
12.448,1.393,-0.85,0.0
11.581,1.296,-0.858,0.0
16.823,1.875,-0.778,0.0
15.452,1.721,-0.802,0.0
14.272,1.588,-0.823,0.0
13.219,1.47,-0.839,0.0
12.405,1.379,-0.858,0.0
11.484,1.276,-0.86,0.0
16.702,1.849,-0.786,0.0
15.262,1.688,-0.806,0.0
14.103,1.559,-0.825,0.0
13.152,1.453,-0.846,0.0
12.257,1.353,-0.858,0.0
11.381,1.255,-0.862,0.0
16.392,1.801,-0.785,0.0
15.126,1.661,-0.811,0.0
13.978,1.533,-0.829,0.0
13.014,1.427,-0.848,0.0
12.099,1.325,-0.857,0.0
11.293,1.236,-0.865,0.0
16.204,1.767,-0.789,0.0
14.878,1.621,-0.81,0.0
13.846,1.507,-0.832,0.0
12.845,1.397,-0.847,0.0
11.891,1.292,-0.852,0.0
11.205,1.217,-0.867,0.0
16.026,1.733,-0.793,0.0
14.749,1.594,-0.814,0.0
13.727,1.482,-0.836,0.0
12.751,1.375,-0.851,0.0
11.828,1.275,-0.857,0.0
11.116,1.197,-0.869,0.0
15.75,1.689,-0.791,0.0
14.618,1.566,-0.818,0.0
13.611,1.457,-0.839,0.0
12.664,1.354,-0.854,0.0
11.716,1.252,-0.857,0.0
11.031,1.177,-0.87,0.0
15.683,1.667,-0.799,0.0
14.405,1.529,-0.816,0.0
13.485,1.43,-0.841,0.0
12.359,1.309,-0.842,0.0
11.644,1.232,-0.86,0.0
10.892,1.152,-0.867,0.0
15.492,1.631,-0.8,0.0
14.342,1.508,-0.822,0.0
13.262,1.393,-0.836,0.0
12.34,1.295,-0.849,0.0
11.552,1.211,-0.861,0.0
10.822,1.133,-0.868,0.0
15.379,1.603,-0.804,0.0
14.189,1.478,-0.823,0.0
13.141,1.367,-0.837,0.0
12.267,1.275,-0.852,0.0
11.454,1.189,-0.861,0.0
10.8,1.12,-0.873,0.0
15.238,1.573,-0.806,0.0
14.085,1.452,-0.825,0.0
13.187,1.358,-0.848,0.0
12.137,1.248,-0.851,0.0
11.343,1.165,-0.859,0.0
10.708,1.099,-0.872,0.0
15.086,1.541,-0.807,0.0
13.958,1.423,-0.826,0.0
12.996,1.324,-0.843,0.0
11.955,1.216,-0.845,0.0
11.242,1.142,-0.858,0.0
10.636,1.079,-0.873,0.0
14.949,1.51,-0.808,0.0
13.862,1.398,-0.828,0.0
12.915,1.301,-0.845,0.0
11.891,1.196,-0.847,0.0
11.235,1.129,-0.864,0.0
10.606,1.064,-0.876,0.0
14.861,1.484,-0.811,0.0
13.825,1.378,-0.833,0.0
12.846,1.279,-0.847,0.0
11.848,1.178,-0.849,0.0
11.19,1.111,-0.866,0.0
10.558,1.047,-0.877,0.0
14.777,1.458,-0.814,0.0
13.714,1.351,-0.833,0.0
12.831,1.262,-0.852,0.0
11.793,1.159,-0.851,0.0
11.079,1.087,-0.863,0.0
10.507,1.029,-0.878,0.0
14.718,1.435,-0.817,0.0
13.667,1.33,-0.836,0.0
12.667,1.231,-0.847,0.0
11.822,1.147,-0.858,0.0
11.028,1.068,-0.863,0.0
10.424,1.008,-0.875,0.0
14.599,1.405,-0.817,0.0
13.575,1.304,-0.836,0.0
12.755,1.223,-0.858,0.0
11.76,1.126,-0.859,0.0
10.997,1.051,-0.865,0.0
10.392,0.992,-0.877,0.0
14.497,1.377,-0.817,0.0
13.492,1.279,-0.836,0.0
12.527,1.185,-0.847,0.0
11.681,1.104,-0.857,0.0
10.983,1.036,-0.868,0.0
10.38,0.978,-0.879,0.0
14.373,1.346,-0.815,0.0
13.428,1.255,-0.837,0.0
12.47,1.164,-0.847,0.0
11.66,1.086,-0.859,0.0
10.929,1.016,-0.867,0.0
10.335,0.96,-0.879,0.0
14.402,1.33,-0.821,0.0
13.388,1.234,-0.838,0.0
12.327,1.134,-0.841,0.0
11.574,1.063,-0.856,0.0
10.892,0.998,-0.868,0.0
10.34,0.946,-0.882,0.0
14.354,1.306,-0.822,0.0
13.348,1.212,-0.839,0.0
12.302,1.115,-0.843,0.0
11.531,1.043,-0.856,0.0
10.841,0.979,-0.866,0.0
10.27,0.926,-0.879,0.0
14.327,1.284,-0.823,0.0
13.309,1.19,-0.84,0.0
12.354,1.103,-0.849,0.0
11.481,1.023,-0.855,0.0
10.828,0.963,-0.867,0.0
10.264,0.911,-0.88,0.0
14.275,1.26,-0.823,0.0
13.357,1.176,-0.845,0.0
12.319,1.082,-0.849,0.0
11.445,1.004,-0.854,0.0
10.817,0.947,-0.868,0.0
10.262,0.896,-0.881,0.0
14.229,1.236,-0.823,0.0
13.348,1.157,-0.847,0.0
12.336,1.066,-0.852,0.0
11.427,0.986,-0.854,0.0
10.787,0.929,-0.867,0.0
10.252,0.881,-0.882,0.0
14.174,1.211,-0.821,0.0
13.293,1.133,-0.844,0.0
12.322,1.048,-0.852,0.0
11.422,0.969,-0.855,0.0
10.783,0.913,-0.868,0.0
10.246,0.865,-0.882,0.0
14.178,1.19,-0.822,0.0
13.165,1.103,-0.837,0.0
12.399,1.036,-0.858,0.0
11.413,0.951,-0.855,0.0
10.777,0.897,-0.868,0.0
10.257,0.851,-0.883,0.0
14.148,1.167,-0.821,0.0
13.171,1.084,-0.838,0.0
12.234,1.004,-0.846,0.0
11.388,0.933,-0.853,0.0
10.8,0.883,-0.869,0.0
10.254,0.836,-0.883,0.0
14.13,1.145,-0.82,0.0
13.185,1.065,-0.838,0.0
12.261,0.988,-0.848,0.0
11.385,0.916,-0.852,0.0
10.788,0.865,-0.868,0.0
10.263,0.821,-0.883,0.0
14.314,1.138,-0.83,0.0
13.21,1.048,-0.839,0.0
12.279,0.971,-0.849,0.0
11.395,0.899,-0.852,0.0
10.804,0.85,-0.868,0.0
10.286,0.807,-0.884,0.0
14.226,1.11,-0.823,0.0
13.211,1.028,-0.838,0.0
12.289,0.953,-0.848,0.0
11.435,0.885,-0.854,0.0
10.82,0.835,-0.868,0.0
10.298,0.793,-0.884,0.0
14.194,1.086,-0.819,0.0
13.263,1.012,-0.839,0.0
12.323,0.937,-0.848,0.0
11.47,0.87,-0.855,0.0
10.844,0.82,-0.868,0.0
10.292,0.776,-0.882,0.0
14.295,1.072,-0.822,0.0
13.38,1.0,-0.844,0.0
12.317,0.918,-0.845,0.0
11.504,0.855,-0.855,0.0
10.837,0.803,-0.866,0.0
10.306,0.762,-0.881,0.0
14.38,1.056,-0.824,0.0
13.379,0.979,-0.841,0.0
12.326,0.899,-0.843,0.0
11.572,0.842,-0.857,0.0
10.89,0.79,-0.867,0.0
10.375,0.75,-0.884,0.0
14.369,1.033,-0.82,0.0
13.427,0.962,-0.84,0.0
12.357,0.883,-0.842,0.0
11.566,0.824,-0.853,0.0
10.923,0.775,-0.866,0.0
10.395,0.736,-0.882,0.0
14.429,1.014,-0.819,0.0
13.521,0.947,-0.842,0.0
12.454,0.87,-0.844,0.0
11.622,0.809,-0.854,0.0
10.935,0.759,-0.864,0.0
10.392,0.719,-0.879,0.0
14.54,0.999,-0.82,0.0
13.547,0.928,-0.839,0.0
12.589,0.86,-0.849,0.0
11.679,0.795,-0.853,0.0
11.022,0.748,-0.866,0.0
10.462,0.707,-0.88,0.0
14.578,0.979,-0.816,0.0
13.575,0.908,-0.835,0.0
12.524,0.835,-0.839,0.0
11.689,0.777,-0.849,0.0
11.039,0.731,-0.863,0.0
10.487,0.692,-0.878,0.0
14.626,0.959,-0.813,0.0
13.703,0.895,-0.837,0.0
12.735,0.829,-0.848,0.0
11.777,0.764,-0.85,0.0
11.081,0.716,-0.861,0.0
10.557,0.68,-0.879,0.0
14.807,0.947,-0.816,0.0
13.711,0.874,-0.831,0.0
12.72,0.808,-0.84,0.0
11.846,0.749,-0.849,0.0
11.179,0.704,-0.863,0.0
10.601,0.666,-0.877,0.0
14.932,0.931,-0.815,0.0
13.859,0.861,-0.832,0.0
12.995,0.804,-0.852,0.0
11.908,0.734,-0.847,0.0
11.222,0.689,-0.86,0.0
10.622,0.65,-0.873,0.0
15.043,0.914,-0.812,0.0
13.926,0.843,-0.828,0.0
12.965,0.782,-0.842,0.0
12.022,0.722,-0.848,0.0
11.305,0.676,-0.86,0.0
10.689,0.637,-0.872,0.0
15.133,0.895,-0.808,0.0
14.101,0.831,-0.83,0.0
13.068,0.767,-0.841,0.0
12.131,0.709,-0.848,0.0
11.377,0.662,-0.858,0.0
10.731,0.622,-0.868,0.0
15.279,0.879,-0.806,0.0
14.21,0.814,-0.827,0.0
13.227,0.755,-0.842,0.0
12.28,0.698,-0.85,0.0
11.478,0.649,-0.858,0.0
10.82,0.61,-0.868,0.0
15.427,0.863,-0.803,0.0
14.368,0.8,-0.826,0.0
13.376,0.742,-0.842,0.0
12.326,0.681,-0.845,0.0
11.576,0.636,-0.857,0.0
10.982,0.601,-0.873,0.0
15.575,0.846,-0.799,0.0
14.496,0.784,-0.823,0.0
13.551,0.73,-0.843,0.0
12.483,0.669,-0.846,0.0
11.644,0.621,-0.853,0.0
11.074,0.588,-0.872,0.0
15.794,0.833,-0.799,0.0
14.633,0.768,-0.819,0.0
13.619,0.712,-0.837,0.0
12.6,0.655,-0.844,0.0
11.761,0.609,-0.852,0.0
11.143,0.574,-0.868,0.0
16.104,0.824,-0.801,0.0
14.843,0.756,-0.819,0.0
13.739,0.696,-0.833,0.0
12.782,0.644,-0.845,0.0
11.892,0.596,-0.851,0.0
11.229,0.561,-0.865,0.0
16.11,0.798,-0.788,0.0
15.044,0.742,-0.817,0.0
13.996,0.687,-0.836,0.0
12.965,0.633,-0.846,0.0
12.054,0.585,-0.852,0.0
11.287,0.545,-0.859,0.0
16.469,0.79,-0.79,0.0
15.184,0.724,-0.811,0.0
14.097,0.669,-0.829,0.0
13.106,0.619,-0.843,0.0
12.177,0.572,-0.85,0.0
11.407,0.533,-0.858,0.0
16.79,0.779,-0.79,0.0
15.383,0.71,-0.807,0.0
14.319,0.657,-0.829,0.0
13.281,0.606,-0.842,0.0
12.403,0.563,-0.853,0.0
11.564,0.522,-0.858,0.0
16.976,0.761,-0.782,0.0
15.6,0.695,-0.803,0.0
14.386,0.637,-0.818,0.0
13.441,0.592,-0.838,0.0
12.523,0.549,-0.849,0.0
11.687,0.509,-0.855,0.0
17.258,0.746,-0.778,0.0
15.909,0.684,-0.802,0.0
14.676,0.627,-0.819,0.0
13.663,0.581,-0.838,0.0
12.723,0.538,-0.849,0.0
11.818,0.497,-0.853,0.0
17.497,0.73,-0.77,0.0
16.166,0.67,-0.798,0.0
14.906,0.614,-0.816,0.0
13.862,0.568,-0.835,0.0
12.996,0.529,-0.853,0.0
12.005,0.486,-0.853,0.0
17.887,0.718,-0.768,0.0
16.441,0.656,-0.794,0.0
15.16,0.601,-0.813,0.0
13.993,0.551,-0.827,0.0
13.105,0.513,-0.845,0.0
12.196,0.475,-0.852,0.0
18.246,0.705,-0.762,0.0
16.712,0.641,-0.788,0.0
15.367,0.586,-0.807,0.0
14.325,0.543,-0.83,0.0
13.319,0.501,-0.844,0.0
12.345,0.462,-0.848,0.0
18.684,0.693,-0.759,1.0
17.007,0.627,-0.782,0.0
15.717,0.575,-0.806,0.0
14.466,0.526,-0.821,0.0
13.645,0.493,-0.848,0.0
12.626,0.453,-0.852,0.0
18.999,0.676,-0.749,0.0
17.385,0.615,-0.778,0.0
15.934,0.56,-0.798,0.0
14.811,0.516,-0.823,0.0
13.777,0.477,-0.839,0.0
12.793,0.44,-0.847,0.0
19.562,0.667,-0.746,0.0
17.689,0.599,-0.769,0.0
16.304,0.548,-0.796,0.0
14.927,0.498,-0.81,0.0
14.013,0.464,-0.835,0.0
13.085,0.43,-0.85,0.0
19.915,0.649,-0.734,0.0
18.145,0.587,-0.765,0.0
16.712,0.537,-0.794,0.0
15.312,0.488,-0.811,0.0
14.283,0.452,-0.832,0.0
13.249,0.416,-0.843,0.0
20.605,0.642,-0.732,0.0
18.577,0.574,-0.759,0.0
16.952,0.52,-0.783,0.0
15.667,0.477,-0.808,0.0
14.419,0.436,-0.821,0.0
13.593,0.408,-0.846,0.0
21.206,0.631,-0.725,0.0
19.081,0.563,-0.754,0.0
17.463,0.511,-0.783,0.0
15.988,0.464,-0.803,0.0
14.812,0.426,-0.823,0.0
13.798,0.394,-0.84,0.0
21.773,0.617,-0.714,0.0
19.459,0.546,-0.742,0.0
17.642,0.491,-0.766,0.0
16.335,0.451,-0.797,0.0
15.053,0.412,-0.815,0.0
14.062,0.382,-0.836,0.0
22.502,0.605,-0.706,0.0
20.18,0.538,-0.74,0.0
18.21,0.482,-0.764,0.0
16.693,0.438,-0.791,0.0
15.356,0.399,-0.809,0.0
14.333,0.369,-0.831,0.0
23.244,0.593,-0.695,0.0
20.654,0.522,-0.727,0.0
18.706,0.469,-0.758,0.0
17.022,0.423,-0.781,0.0
15.75,0.387,-0.806,0.0
14.595,0.356,-0.824,0.0
23.857,0.577,-0.679,0.0
21.32,0.51,-0.719,0.0
19.249,0.456,-0.751,0.0
17.484,0.41,-0.776,0.0
16.188,0.376,-0.804,0.0
14.908,0.343,-0.819,0.0
24.851,0.567,-0.669,0.0
22.113,0.5,-0.712,0.0
19.778,0.442,-0.741,0.0
17.945,0.398,-0.769,0.0
16.594,0.364,-0.798,0.0
15.259,0.331,-0.815,0.0
26.035,0.56,-0.66,0.0
22.665,0.482,-0.694,0.0
20.454,0.431,-0.734,0.0
18.508,0.386,-0.763,0.0
16.955,0.349,-0.789,0.0
15.627,0.319,-0.809,0.0
26.897,0.543,-0.639,0.0
23.829,0.476,-0.691,0.0
20.981,0.415,-0.719,0.0
19.003,0.371,-0.753,0.0
17.54,0.339,-0.788,0.0
16.036,0.307,-0.805,0.0
28.225,0.534,-0.625,0.0
24.741,0.463,-0.678,0.0
22.013,0.407,-0.719,0.0
19.612,0.359,-0.745,0.0
17.72,0.32,-0.766,1.0
16.545,0.295,-0.802,0.0
29.737,0.526,-0.609,0.0
25.923,0.453,-0.667,0.0
22.618,0.39,-0.701,0.0
20.229,0.345,-0.735,0.0
18.377,0.309,-0.764,0.0
16.973,0.282,-0.795,0.0
30.999,0.51,-0.583,0.0
0.0,0.0,0.0,0.0
23.875,0.383,-0.699,0.0
21.046,0.333,-0.729,0.0
19.148,0.299,-0.764,0.0
17.566,0.271,-0.793,1.0
32.506,0.496,-0.556,0.0
0.0,0.0,0.0,0.0
24.519,0.364,-0.676,0.0
21.869,0.32,-0.72,0.0
19.571,0.283,-0.746,0.0
18.09,0.258,-0.785,0.0
35.012,0.493,-0.538,0.0
29.852,0.415,-0.615,0.0
25.947,0.355,-0.67,0.0
22.597,0.305,-0.704,0.0
20.306,0.27,-0.739,0.0
18.407,0.241,-0.766,0.0
37.509,0.485,-0.51,0.0
31.117,0.396,-0.586,0.0
26.789,0.336,-0.644,0.0
23.517,0.29,-0.69,0.0
21.003,0.255,-0.726,0.0
19.067,0.228,-0.759,0.0
41.058,0.485,-0.485,0.0
32.933,0.383,-0.561,0.0
28.13,0.321,-0.625,0.0
24.902,0.28,-0.686,0.0
22.21,0.246,-0.728,0.0
19.932,0.217,-0.757,0.0
0.0,0.0,0.0,0.0
34.869,0.367,-0.53,0.0
29.989,0.31,-0.612,0.0
26.285,0.267,-0.676,0.0
22.828,0.228,-0.706,0.0
20.41,0.2,-0.737,0.0
46.601,0.45,-0.38,0.0
37.584,0.356,-0.502,0.0
31.807,0.296,-0.59,0.0
27.291,0.249,-0.651,0.0
23.588,0.211,-0.685,0.0
21.304,0.187,-0.73,0.0
0.0,0.0,0.0,0.0
42.863,0.363,-0.492,0.0
33.223,0.275,-0.554,0.0
28.791,0.234,-0.633,0.0
24.822,0.197,-0.675,0.0
22.132,0.172,-0.717,0.0
0.0,0.0,0.0,0.0
42.83,0.32,-0.412,1.0
35.58,0.26,-0.526,0.0
30.449,0.217,-0.611,0.0
26.304,0.183,-0.664,0.0
23.373,0.159,-0.712,0.0
0.0,0.0,0.0,0.0
0.0,0.0,0.0,0.0
0.0,0.0,0.0,0.0
0.0,0.0,0.0,0.0
27.84,0.167,-0.65,0.0
23.848,0.14,-0.68,0.0
0.0,0.0,0.0,0.0
0.0,0.0,0.0,0.0
42.86,0.233,-0.469,1.0
34.438,0.181,-0.559,0.0
29.382,0.15,-0.629,0.0
0.0,0.0,0.0,0.0
87.737,0.425,0.119,1.0
0.0,0.0,0.0,0.0
46.03,0.209,-0.414,0.0
37.03,0.162,-0.528,0.0
0.0,0.0,0.0,0.0
26.589,0.109,-0.655,0.0
94.686,0.376,0.314,2.0
0.0,0.0,0.0,0.0
50.018,0.184,-0.352,0.0
40.257,0.142,-0.495,0.0
33.57,0.114,-0.587,0.0
28.291,0.092,-0.641,0.0
103.781,0.327,0.547,8.0
0.0,0.0,0.0,0.0
0.0,0.0,0.0,0.0
42.898,0.117,-0.443,1.0
35.255,0.092,-0.547,0.0
0.0,0.0,0.0,0.0
110.794,0.26,0.804,10.0
92.853,0.206,0.194,4.0
0.0,0.0,0.0,0.0
45.621,0.089,-0.38,0.0
37.436,0.068,-0.505,0.0
30.912,0.052,-0.577,0.0
111.164,0.176,1.029,9.0
103.648,0.152,0.424,1.0
0.0,0.0,0.0,0.0
0.0,0.0,0.0,0.0
0.0,0.0,0.0,0.0
34.123,0.033,-0.568,0.0
111.154,0.096,1.253,16.0
110.668,0.082,0.676,9.0
0.0,0.0,0.0,0.0
55.055,0.027,-0.236,0.0
45.299,0.017,-0.428,2.0
36.925,0.01,-0.539,0.0
117.307,0.019,1.562,14.0
117.164,0.006,0.955,5.0
95.415,-0.005,0.286,2.0
0.0,0.0,0.0,0.0
0.0,0.0,0.0,0.0
39.633,-0.015,-0.498,0.0
117.35,-0.057,1.803,19.0
117.346,-0.07,1.199,20.0
110.525,-0.078,0.56,3.0
0.0,0.0,0.0,0.0
0.0,0.0,0.0,0.0
45.569,-0.046,-0.478,0.0
112.414,-0.126,1.961,14.0
119.715,-0.146,1.471,12.0
111.04,-0.146,0.792,13.0
0.0,0.0,0.0,0.0
63.906,-0.096,-0.208,0.0
45.458,-0.072,-0.382,1.0
112.889,-0.192,2.202,4.0
119.803,-0.216,1.721,16.0
114.475,-0.216,1.054,117.0
101.052,-0.2,0.399,1.0
0.0,0.0,0.0,0.0
0.0,0.0,0.0,0.0
119.798,-0.27,2.585,5.0
112.581,-0.263,1.85,16.0
119.719,-0.29,1.349,17.0
111.187,-0.278,0.669,10.0
0.0,0.0,0.0,0.0
0.0,0.0,0.0,0.0
119.823,-0.331,2.833,45.0
113.877,-0.324,2.107,6.0
112.504,-0.328,1.501,18.0
119.705,-0.358,0.969,9.0
0.0,0.0,0.0,0.0
0.0,0.0,0.0,0.0
119.796,-0.388,3.083,12.0
193.963,-0.643,3.994,9.0
112.797,-0.381,1.74,6.0
119.679,-0.413,1.219,17.0
110.957,-0.39,0.558,3.0
48.579,-0.173,-0.005,2.0
119.823,-0.441,3.334,9.0
119.827,-0.449,2.718,17.0
113.943,-0.434,1.998,6.0
119.717,-0.463,1.47,16.0
119.694,-0.47,0.854,6.0
95.255,-0.38,0.189,1.0
206.254,-0.843,6.176,10.0
119.8,-0.496,2.968,42.0
119.826,-0.503,2.353,15.0
113.278,-0.481,1.63,3.0
119.675,-0.514,1.105,18.0
0.0,0.0,0.0,0.0
206.816,-0.919,6.622,17.0
119.771,-0.538,3.219,13.0
119.863,-0.544,2.604,7.0
114.355,-0.525,1.885,3.0
119.691,-0.555,1.357,17.0
114.283,-0.535,0.708,6.0
206.857,-0.988,7.065,6.0
207.287,-0.999,6.011,7.0
119.789,-0.582,2.855,75.0
119.802,-0.586,2.228,90.0
119.574,-0.59,1.606,5.0
119.74,-0.595,0.994,15.0
190.569,-0.965,6.91,32.0
206.593,-1.054,6.425,7.0
119.792,-0.614,3.108,59.0
119.807,-0.618,2.481,91.0
114.421,-0.594,1.78,4.0
119.722,-0.626,1.246,18.0
190.543,-1.013,7.31,33.0
0.0,0.0,0.0,0.0
207.786,-1.116,5.831,10.0
119.812,-0.646,2.731,14.0
119.829,-0.649,2.114,22.0
119.697,-0.65,1.495,11.0
189.818,-1.05,7.679,38.0
190.626,-1.058,6.73,22.0
206.353,-1.149,6.222,7.0
119.746,-0.668,2.981,9.0
194.278,-1.088,3.838,17.0
114.603,-0.643,1.675,1.0
95.325,-0.544,4.058,16.0
190.526,-1.089,7.129,35.0
0.0,0.0,0.0,0.0
119.79,-0.687,3.236,9.0
194.589,-1.118,4.252,19.0
194.166,-1.117,3.245,8.0
95.859,-0.56,4.283,14.0
189.949,-1.111,7.51,16.0
190.66,-1.116,6.552,15.0
0.0,0.0,0.0,0.0
119.799,-0.702,2.871,12.0
119.809,-0.702,2.255,14.0
95.74,-0.569,4.479,11.0
95.344,-0.566,3.969,11.0
190.612,-1.132,6.953,35.0
215.262,-1.278,6.722,8.0
119.79,-0.71,3.124,22.0
119.835,-0.709,2.508,20.0
81.121,-0.487,3.968,3.0
95.489,-0.572,4.178,18.0
190.57,-1.141,7.355,19.0
215.613,-1.288,7.187,6.0
119.777,-0.714,3.374,4.0
119.78,-0.712,2.758,14.0
77.889,-0.469,3.972,9.0
95.829,-0.576,4.391,14.0
95.486,-0.572,3.883,7.0
190.595,-1.138,6.748,29.0
0.0,0.0,0.0,0.0
119.792,-0.711,3.006,22.0
77.897,-0.469,4.135,5.0
80.919,-0.484,3.878,5.0
95.335,-0.569,4.075,16.0
190.549,-1.132,7.142,37.0
215.522,-1.274,6.966,10.0
119.782,-0.704,3.253,9.0
60.77,-0.362,3.352,11.0
77.91,-0.462,3.893,10.0
95.885,-0.566,4.296,16.0
189.966,-1.115,7.511,18.0
190.603,-1.112,6.554,15.0
206.315,-1.196,6.026,4.0
60.556,-0.355,3.465,5.0
77.819,-0.454,4.049,7.0
80.883,-0.469,3.789,10.0
95.326,-0.549,3.963,12.0
190.527,-1.088,6.936,32.0
215.814,-1.224,6.742,6.0
60.798,-0.349,3.601,7.0
78.132,-0.446,4.223,6.0
81.149,-0.459,3.966,3.0
95.585,-0.536,4.168,18.0
190.498,-1.059,7.32,22.0
190.715,-1.051,6.345,4.0
60.89,-0.34,3.732,16.0
60.758,-0.336,3.409,9.0
77.854,-0.426,3.963,16.0
80.888,-0.439,3.691,14.0
189.837,-1.019,7.678,69.0
190.568,-1.012,6.724,21.0
48.072,-0.259,3.044,32.0
60.625,-0.323,3.523,6.0
77.683,-0.409,4.111,13.0
80.929,-0.421,3.856,10.0
95.395,-0.49,4.05,32.0
190.569,-0.968,7.105,39.0
48.126,-0.248,3.143,33.0
60.733,-0.309,3.652,13.0
78.414,-0.393,4.307,10.0
81.189,-0.401,4.031,8.0
95.756,-0.467,4.257,12.0
189.845,-0.913,7.459,144.0
48.537,-0.236,3.269,19.0
60.134,-0.289,3.736,23.0
60.589,-0.286,3.45,11.0
77.629,-0.361,4.009,22.0
80.85,-0.37,3.755,10.0
95.511,-0.43,3.941,13.0
48.276,-0.22,3.347,7.0
48.09,-0.216,3.084,21.0
60.606,-0.266,3.571,8.0
85.957,-0.371,4.609,6.0
80.778,-0.342,3.912,6.0
95.582,-0.397,4.133,9.0
45.972,-0.194,3.278,23.0
48.192,-0.199,3.185,26.0
74.159,-0.3,4.515,10.0
60.814,-0.24,3.379,7.0
77.697,-0.3,3.914,23.0
81.141,-0.306,3.666,7.0
45.869,-0.176,3.36,10.0
48.466,-0.181,3.297,25.0
60.209,-0.22,3.782,19.0
60.649,-0.215,3.487,27.0
77.863,-0.269,4.072,12.0
81.046,-0.272,3.817,5.0
42.309,-0.145,3.181,37.0
46.02,-0.153,3.219,12.0
60.188,-0.194,3.896,12.0
60.521,-0.189,3.596,28.0
60.364,-0.182,3.271,14.0
81.052,-0.237,3.971,10.0
42.063,-0.125,3.242,36.0
48.407,-0.138,3.478,8.0
48.028,-0.132,3.2,30.0
60.46,-0.16,3.706,29.0
60.665,-0.154,3.402,24.0
77.734,-0.189,3.954,9.0
41.785,-0.104,3.3,43.0
45.917,-0.109,3.385,25.0
48.268,-0.109,3.306,22.0
60.445,-0.13,3.818,13.0
60.695,-0.124,3.516,13.0
60.332,-0.116,3.18,14.0
41.647,-0.082,3.366,46.0
42.025,-0.078,3.176,38.0
51.005,-0.089,3.587,4.0
48.329,-0.078,3.142,16.0
60.494,-0.091,3.616,6.0
60.22,-0.083,3.285,21.0
41.447,-0.059,3.427,43.0
42.021,-0.054,3.253,41.0
45.927,-0.054,3.314,19.0
48.042,-0.05,3.21,22.0
60.226,-0.056,3.709,8.0
60.358,-0.049,3.4,23.0
41.509,-0.035,3.507,45.0
41.993,-0.03,3.327,23.0
45.872,-0.027,3.394,28.0
60.516,-0.027,4.153,6.0
60.282,-0.019,3.821,14.0
60.587,-0.012,3.522,4.0
41.475,-0.009,3.579,40.0
41.645,-0.003,3.374,38.0
45.707,0.001,3.463,4.0
48.708,0.008,3.43,21.0
60.356,0.019,3.933,13.0
60.604,0.027,3.631,4.0
41.42,0.017,3.649,46.0
41.483,0.023,3.435,48.0
45.702,0.032,3.544,15.0
48.712,0.041,3.516,17.0
60.603,0.059,4.055,4.0
67.924,0.076,4.188,2.0
42.355,0.046,3.805,20.0
41.511,0.051,3.509,46.0
41.669,0.057,3.303,32.0
48.638,0.074,3.594,15.0
67.874,0.114,4.658,9.0
67.976,0.124,4.307,4.0
42.384,0.076,3.881,24.0
41.497,0.081,3.579,40.0
41.638,0.087,3.371,45.0
45.902,0.103,3.47,8.0
45.804,0.11,3.22,4.0
60.34,0.154,3.924,20.0
42.317,0.107,3.945,34.0
41.574,0.112,3.655,43.0
41.521,0.118,3.431,41.0
41.938,0.126,3.239,22.0
45.8,0.144,3.296,18.0
60.415,0.201,4.028,14.0
41.749,0.138,3.962,34.0
41.367,0.143,3.705,46.0
41.541,0.151,3.501,41.0
41.799,0.158,3.296,43.0
45.868,0.181,3.375,20.0
60.699,0.249,4.145,10.0
41.535,0.171,4.009,40.0
41.394,0.177,3.775,40.0
41.562,0.184,3.57,43.0
41.789,0.192,3.363,45.0
47.74,0.227,3.588,13.0
45.87,0.226,3.205,10.0
41.294,0.204,4.051,41.0
41.581,0.212,3.858,35.0
41.645,0.219,3.642,41.0
41.703,0.226,3.421,45.0
47.956,0.268,3.679,7.0
45.783,0.264,3.27,6.0
41.3,0.239,4.117,26.0
41.682,0.248,3.932,25.0
41.657,0.255,3.707,30.0
41.473,0.261,3.466,42.0
41.872,0.27,3.276,16.0
51.485,0.341,3.755,9.0
78.944,2.077,1.873,27.0
78.967,2.054,1.427,26.0
79.007,2.031,0.981,25.0
78.931,2.006,0.526,20.0
66.967,1.682,0.068,4.0
0.0,0.0,0.0,0.0
85.264,2.084,1.942,30.0
85.264,2.058,1.46,35.0
85.248,2.031,0.978,36.0
78.801,1.854,0.451,8.0
67.995,1.578,0.005,6.0
0.0,0.0,0.0,0.0
85.237,1.92,1.863,35.0
85.264,1.894,1.382,37.0
85.251,1.867,0.9,35.0
84.707,1.829,0.408,4.0
69.686,1.482,-0.057,1.0
48.515,1.017,-0.313,0.0
87.15,1.793,1.826,25.0
87.391,1.772,1.338,11.0
85.519,1.707,0.827,7.0
78.307,1.538,0.308,7.0
0.0,0.0,0.0,0.0
0.0,0.0,0.0,0.0
90.373,1.684,1.816,1.0
88.966,1.628,1.286,1.0
91.842,1.651,0.81,28.0
77.817,1.374,0.24,7.0
0.0,0.0,0.0,0.0
46.89,0.798,-0.383,0.0
91.909,1.532,1.771,35.0
91.916,1.503,1.254,41.0
91.848,1.471,0.735,19.0
80.981,1.272,0.184,1.0
0.0,0.0,0.0,0.0
46.978,0.707,-0.421,0.0
98.674,1.448,1.823,27.0
98.612,1.416,1.267,31.0
98.344,1.38,0.711,11.0
77.494,1.061,0.116,2.0
0.0,0.0,0.0,0.0
43.861,0.573,-0.426,1.0
98.535,1.249,1.746,31.0
98.539,1.218,1.192,31.0
97.875,1.178,0.634,6.0
0.0,0.0,0.0,0.0
0.0,0.0,0.0,0.0
41.152,0.455,-0.43,0.0
98.657,1.054,1.677,26.0
98.631,1.021,1.123,29.0
97.992,0.982,0.566,6.0
0.0,0.0,0.0,0.0
0.0,0.0,0.0,0.0
42.956,0.388,-0.479,0.0
100.065,0.866,1.632,4.0
104.807,0.873,1.122,9.0
97.574,0.78,0.497,4.0
0.0,0.0,0.0,0.0
0.0,0.0,0.0,0.0
0.0,0.0,0.0,0.0
111.091,0.736,1.74,5.0
110.998,0.697,1.116,10.0
92.335,0.547,0.411,1.0
0.0,0.0,0.0,0.0
48.604,0.255,-0.332,0.0
0.0,0.0,0.0,0.0
111.179,0.507,1.672,22.0
111.051,0.468,1.048,15.0
94.715,0.366,0.364,2.0
0.0,0.0,0.0,0.0
46.233,0.146,-0.344,0.0
37.984,0.107,-0.495,0.0
111.14,0.275,1.606,17.0
111.065,0.235,0.984,9.0
0.0,0.0,0.0,0.0
0.0,0.0,0.0,0.0
45.703,0.049,-0.366,2.0
0.0,0.0,0.0,0.0
117.31,0.046,1.631,12.0
111.129,0.005,0.924,9.0
95.442,-0.027,0.261,1.0
0.0,0.0,0.0,0.0
45.458,-0.044,-0.387,1.0
36.22,-0.048,-0.511,0.0
119.756,-0.2,1.605,17.0
114.475,-0.231,0.895,80.0
0.0,0.0,0.0,0.0
0.0,0.0,0.0,0.0
45.162,-0.138,-0.407,1.0
36.591,-0.125,-0.534,0.0
119.74,-0.448,1.548,17.0
114.315,-0.469,0.84,2.0
0.0,0.0,0.0,0.0
0.0,0.0,0.0,0.0
0.0,0.0,0.0,0.0
0.0,0.0,0.0,0.0
119.674,-0.701,1.495,21.0
114.075,-0.709,0.789,4.0
83.044,-0.545,0.112,1.0
0.0,0.0,0.0,0.0
0.0,0.0,0.0,0.0
0.0,0.0,0.0,0.0
119.673,-0.95,1.448,20.0
114.435,-0.95,0.747,7.0
79.07,-0.684,0.076,1.0
55.055,-0.497,-0.258,0.0
0.0,0.0,0.0,0.0
34.784,-0.338,-0.55,0.0
119.753,-1.206,1.405,150.0
119.768,-1.247,0.739,22.0
0.0,0.0,0.0,0.0
0.0,0.0,0.0,0.0
41.202,-0.473,-0.436,0.0
34.464,-0.408,-0.556,0.0
139.309,-1.695,1.589,7.0
139.343,-1.745,0.816,3.0
0.0,0.0,0.0,0.0
0.0,0.0,0.0,0.0
0.0,0.0,0.0,0.0
34.23,-0.478,-0.563,0.0
138.93,-1.987,1.545,9.0
138.734,-2.035,0.773,10.0
0.0,0.0,0.0,0.0
0.0,0.0,0.0,0.0
0.0,0.0,0.0,0.0
33.062,-0.533,-0.552,0.0
139.143,-2.287,1.512,11.0
139.05,-2.337,0.74,4.0
0.0,0.0,0.0,0.0
50.797,-0.89,-0.297,0.0
0.0,0.0,0.0,0.0
33.812,-0.618,-0.572,0.0
139.097,-2.582,1.482,15.0
0.0,0.0,0.0,0.0
0.0,0.0,0.0,0.0
0.0,0.0,0.0,0.0
42.735,-0.856,-0.494,0.0
0.0,0.0,0.0,0.0
138.967,-2.878,1.456,17.0
0.0,0.0,0.0,0.0
0.0,0.0,0.0,0.0
0.0,0.0,0.0,0.0
0.0,0.0,0.0,0.0
33.71,-0.76,-0.581,0.0
138.953,-3.174,1.437,16.0
0.0,0.0,0.0,0.0
0.0,0.0,0.0,0.0
0.0,0.0,0.0,0.0
0.0,0.0,0.0,0.0
32.91,-0.812,-0.571,0.0
138.844,-3.465,1.422,23.0
0.0,0.0,0.0,0.0
0.0,0.0,0.0,0.0
48.317,-1.259,-0.309,0.0
41.2,-1.088,-0.491,0.0
0.0,0.0,0.0,0.0
138.747,-3.756,1.413,22.0
0.0,0.0,0.0,0.0
64.572,-1.796,-0.053,0.0
0.0,0.0,0.0,0.0
41.23,-1.177,-0.492,0.0
0.0,0.0,0.0,0.0
138.494,-4.042,1.408,15.0
0.0,0.0,0.0,0.0
0.0,0.0,0.0,0.0
50.308,-1.523,-0.324,0.0
41.318,-1.267,-0.493,1.0
0.0,0.0,0.0,0.0
138.697,-4.338,1.412,24.0
0.0,0.0,0.0,0.0
0.0,0.0,0.0,0.0
0.0,0.0,0.0,0.0
41.469,-1.359,-0.493,0.0
0.0,0.0,0.0,0.0
138.61,-4.625,1.418,22.0
0.0,0.0,0.0,0.0
0.0,0.0,0.0,0.0
0.0,0.0,0.0,0.0
41.448,-1.444,-0.49,0.0
0.0,0.0,0.0,0.0
138.547,-4.913,1.43,23.0
0.0,0.0,0.0,0.0
0.0,0.0,0.0,0.0
0.0,0.0,0.0,0.0
0.0,0.0,0.0,0.0
33.704,-1.258,-0.579,0.0
138.528,-5.201,1.448,20.0
0.0,0.0,0.0,0.0
0.0,0.0,0.0,0.0
0.0,0.0,0.0,0.0
0.0,0.0,0.0,0.0
32.45,-1.278,-0.553,0.0
44.267,-1.713,3.628,45.0
44.166,-1.698,3.363,45.0
44.269,-1.691,3.116,35.0
0.0,0.0,0.0,0.0
59.832,-2.256,3.514,26.0
66.268,-2.483,3.512,22.0
44.195,-1.647,3.57,41.0
44.237,-1.638,3.318,37.0
44.369,-1.631,3.071,37.0
46.154,-1.686,2.923,26.0
66.353,-2.407,3.819,23.0
66.25,-2.388,3.431,29.0
44.211,-1.584,3.518,44.0
44.237,-1.574,3.264,47.0
44.389,-1.569,3.018,44.0
46.261,-1.624,2.874,32.0
66.162,-2.307,3.728,32.0
81.189,-2.813,4.106,14.0
44.492,-1.532,3.485,37.0
44.311,-1.515,3.214,43.0
46.035,-1.563,3.072,45.0
56.954,-1.92,3.466,18.0
66.359,-2.222,3.655,41.0
81.121,-2.698,4.001,15.0
44.597,-1.474,3.437,42.0
44.236,-1.451,3.152,36.0
45.964,-1.497,3.009,19.0
65.802,-2.128,3.92,9.0
71.704,-2.302,3.857,25.0
81.161,-2.588,3.897,12.0
44.741,-1.417,3.389,36.0
45.82,-1.44,3.205,43.0
56.751,-1.77,3.64,24.0
57.045,-1.767,3.323,12.0
66.204,-2.036,3.473,9.0
81.223,-2.479,3.792,33.0
44.943,-1.362,3.343,34.0
46.442,-1.396,3.184,21.0
56.847,-1.696,3.568,30.0
65.923,-1.953,3.75,13.0
80.568,-2.368,4.116,12.0
81.334,-2.373,3.684,34.0
45.015,-1.303,3.285,22.0
46.877,-1.346,3.149,27.0
57.282,-1.632,3.515,12.0
65.733,-1.859,3.645,22.0
81.508,-2.287,4.048,33.0
94.653,-2.636,4.154,15.0
45.432,-1.255,3.251,21.0
57.504,-1.576,3.781,13.0
71.587,-1.947,4.291,7.0
78.866,-2.128,4.261,8.0
81.405,-2.179,3.928,21.0
101.759,-2.702,4.32,12.0
51.52,-1.356,3.611,5.0
51.675,-1.349,3.321,25.0
65.806,-1.704,3.847,6.0
81.204,-2.085,4.268,12.0
94.901,-2.417,4.437,8.0
96.652,-2.442,3.959,17.0
51.553,-1.291,3.537,32.0
51.774,-1.286,3.25,25.0
73.763,-1.816,4.202,23.0
74.195,-1.811,3.788,34.0
81.686,-1.978,3.697,14.0
106.407,-2.555,4.199,9.0
51.543,-1.225,3.456,23.0
51.729,-1.219,3.168,25.0
73.724,-1.722,4.086,32.0
74.503,-1.725,3.688,8.0
95.989,-2.204,4.195,31.0
106.504,-2.424,4.038,12.0
51.192,-1.153,3.353,26.0
61.207,-1.366,3.652,7.0
74.347,-1.645,4.003,33.0
81.027,-1.777,3.884,23.0
106.448,-2.313,4.484,19.0
113.292,-2.441,4.115,22.0
51.51,-1.098,3.291,32.0
61.165,-1.291,3.552,25.0
73.959,-1.546,3.863,11.0
81.645,-1.692,3.782,23.0
106.638,-2.189,4.319,14.0
112.572,-2.29,3.907,21.0
0.0,0.0,0.0,0.0
73.466,-1.464,4.146,15.0
82.007,-1.619,4.151,22.0
95.85,-1.874,4.284,20.0
106.716,-2.066,4.148,7.0
112.591,-2.158,3.723,20.0
52.112,-0.987,3.158,17.0
0.0,0.0,0.0,0.0
81.355,-1.511,3.982,13.0
106.482,-1.958,4.581,6.0
112.753,-2.054,4.195,15.0
112.946,-2.037,3.547,5.0
12.871,-0.19,-0.847,0.0
11.786,-0.176,-0.844,0.0
11.116,-0.168,-0.861,0.0
10.494,-0.16,-0.875,0.0
9.965,-0.153,-0.889,0.0
9.503,-0.148,-0.903,0.0
12.521,-0.198,-0.843,0.0
11.604,-0.185,-0.849,0.0
10.966,-0.177,-0.866,0.0
10.376,-0.169,-0.88,0.0
9.844,-0.162,-0.893,0.0
9.367,-0.155,-0.904,0.0
12.287,-0.207,-0.845,0.0
11.454,-0.195,-0.854,0.0
10.823,-0.186,-0.87,0.0
10.258,-0.178,-0.885,0.0
9.713,-0.17,-0.895,0.0
9.287,-0.164,-0.91,0.0
12.067,-0.216,-0.847,0.0
11.258,-0.203,-0.855,0.0
10.647,-0.194,-0.871,0.0
10.102,-0.186,-0.886,0.0
9.657,-0.179,-0.903,0.0
9.166,-0.172,-0.911,0.0
11.8,-0.224,-0.844,0.0
11.139,-0.213,-0.862,0.0
10.517,-0.203,-0.875,0.0
9.933,-0.194,-0.885,0.0
9.516,-0.187,-0.903,0.0
9.066,-0.18,-0.913,0.0
11.609,-0.233,-0.846,0.0
11.013,-0.223,-0.867,0.0
10.386,-0.212,-0.878,0.0
9.866,-0.203,-0.892,0.0
9.393,-0.195,-0.904,0.0
8.973,-0.188,-0.916,0.0
11.489,-0.244,-0.852,0.0
10.874,-0.233,-0.87,0.0
10.279,-0.222,-0.882,0.0
9.769,-0.212,-0.896,0.0
9.243,-0.203,-0.901,0.0
8.872,-0.196,-0.917,0.0
11.337,-0.254,-0.856,0.0
10.727,-0.242,-0.872,0.0
10.186,-0.231,-0.887,0.0
9.654,-0.221,-0.897,0.0
9.199,-0.212,-0.909,0.0
8.78,-0.204,-0.918,0.0
11.204,-0.264,-0.859,0.0
10.589,-0.251,-0.873,0.0
10.036,-0.24,-0.886,0.0
9.562,-0.23,-0.9,0.0
9.102,-0.221,-0.91,0.0
8.707,-0.213,-0.921,0.0
11.074,-0.273,-0.862,0.0
10.453,-0.26,-0.874,0.0
9.921,-0.249,-0.887,0.0
9.462,-0.239,-0.902,0.0
9.045,-0.23,-0.915,0.0
8.626,-0.221,-0.923,0.0
10.971,-0.284,-0.867,0.0
10.359,-0.27,-0.878,0.0
9.834,-0.258,-0.89,0.0
9.304,-0.246,-0.897,0.0
8.937,-0.238,-0.914,0.0
8.543,-0.229,-0.923,0.0
10.844,-0.294,-0.869,0.0
10.282,-0.281,-0.883,0.0
9.743,-0.268,-0.893,0.0
9.251,-0.256,-0.902,0.0
8.885,-0.248,-0.918,0.0
8.431,-0.237,-0.92,0.0
10.692,-0.303,-0.868,0.0
10.169,-0.29,-0.884,0.0
9.674,-0.278,-0.897,0.0
9.212,-0.266,-0.908,0.0
8.802,-0.256,-0.919,0.0
8.391,-0.246,-0.925,0.0
10.592,-0.313,-0.871,0.0
10.1,-0.3,-0.888,0.0
9.62,-0.288,-0.902,0.0
9.131,-0.275,-0.909,0.0
8.752,-0.266,-0.922,0.0
8.327,-0.254,-0.926,0.0
10.503,-0.323,-0.873,0.0
10.002,-0.31,-0.889,0.0
9.494,-0.296,-0.899,0.0
9.043,-0.284,-0.909,0.0
8.676,-0.274,-0.923,0.0
8.27,-0.263,-0.927,0.0
10.416,-0.333,-0.876,0.0
9.887,-0.319,-0.888,0.0
9.376,-0.304,-0.896,0.0
8.998,-0.294,-0.913,0.0
8.641,-0.284,-0.927,0.0
8.21,-0.271,-0.928,0.0
11.9,1.127,-0.848,0.0
11.146,1.054,-0.858,0.0
10.582,1.0,-0.875,0.0
10.016,0.946,-0.887,0.0
9.552,0.901,-0.9,0.0
9.129,0.861,-0.913,0.0
11.847,1.112,-0.853,0.0
11.056,1.036,-0.86,0.0
10.471,0.981,-0.874,0.0
9.928,0.929,-0.886,0.0
9.523,0.89,-0.905,0.0
9.029,0.844,-0.91,0.0
11.726,1.09,-0.853,0.0
10.927,1.015,-0.858,0.0
10.357,0.961,-0.872,0.0
9.889,0.917,-0.89,0.0
9.417,0.872,-0.902,0.0
8.921,0.825,-0.905,0.0
11.621,1.07,-0.854,0.0
10.918,1.004,-0.865,0.0
10.338,0.95,-0.878,0.0
9.832,0.903,-0.892,0.0
9.353,0.858,-0.902,0.0
8.915,0.817,-0.911,0.0
11.488,1.047,-0.852,0.0
10.817,0.985,-0.864,0.0
10.266,0.934,-0.878,0.0
9.788,0.889,-0.894,0.0
9.344,0.848,-0.907,0.0
8.891,0.806,-0.914,0.0
11.405,1.029,-0.853,0.0
10.741,0.968,-0.865,0.0
10.225,0.92,-0.881,0.0
9.713,0.873,-0.894,0.0
9.283,0.833,-0.907,0.0
8.835,0.792,-0.914,0.0
11.353,1.013,-0.856,0.0
10.676,0.951,-0.866,0.0
10.166,0.905,-0.882,0.0
9.712,0.863,-0.899,0.0
9.22,0.818,-0.907,0.0
8.763,0.777,-0.912,0.0
11.284,0.995,-0.857,0.0
10.646,0.938,-0.869,0.0
10.131,0.891,-0.885,0.0
9.633,0.846,-0.897,0.0
9.177,0.805,-0.907,0.0
8.751,0.767,-0.915,0.0
11.2,0.976,-0.857,0.0
10.57,0.92,-0.869,0.0
10.018,0.871,-0.88,0.0
9.54,0.828,-0.894,0.0
9.155,0.793,-0.91,0.0
8.674,0.751,-0.912,0.0
11.151,0.96,-0.859,0.0
10.554,0.907,-0.873,0.0
10.016,0.86,-0.885,0.0
9.595,0.822,-0.903,0.0
9.059,0.775,-0.905,0.0
8.656,0.74,-0.914,0.0
11.069,0.941,-0.857,0.0
10.468,0.888,-0.87,0.0
10.04,0.851,-0.892,0.0
9.563,0.809,-0.905,0.0
9.086,0.767,-0.911,0.0
8.659,0.73,-0.918,0.0
11.039,0.926,-0.86,0.0
10.436,0.874,-0.872,0.0
9.942,0.831,-0.887,0.0
9.463,0.79,-0.899,0.0
9.041,0.753,-0.91,0.0
8.635,0.718,-0.919,0.0
10.963,0.907,-0.858,0.0
10.429,0.861,-0.875,0.0
9.954,0.821,-0.892,0.0
9.495,0.781,-0.905,0.0
8.995,0.739,-0.909,0.0
8.62,0.707,-0.92,0.0
10.96,0.894,-0.861,0.0
10.418,0.848,-0.878,0.0
9.876,0.803,-0.888,0.0
0.0,0.0,0.0,0.0
9.018,0.73,-0.914,0.0
8.602,0.696,-0.921,0.0
10.927,0.878,-0.862,0.0
10.371,0.832,-0.877,0.0
9.82,0.786,-0.886,0.0
9.368,0.749,-0.899,0.0
9.027,0.72,-0.918,0.0
8.59,0.684,-0.922,0.0
10.89,0.862,-0.862,0.0
10.342,0.817,-0.877,0.0
9.761,0.77,-0.883,0.0
9.414,0.741,-0.906,0.0
8.937,0.702,-0.91,0.0
8.554,0.671,-0.92,0.0
52.165,3.314,5.882,14.0
52.269,3.33,5.599,13.0
52.286,3.34,5.307,23.0
45.834,2.936,4.39,20.0
42.565,2.735,3.839,26.0
41.961,2.704,3.55,25.0
41.727,2.706,4.71,40.0
46.603,3.031,4.998,12.0
42.841,2.794,4.353,18.0
45.573,2.981,4.37,8.0
42.043,2.757,3.796,33.0
41.933,2.757,3.551,37.0
41.718,2.762,4.713,37.0
46.622,3.094,5.004,5.0
42.14,2.804,4.285,8.0
41.941,2.798,4.025,10.0
42.069,2.814,3.801,31.0
41.617,2.791,3.527,41.0
41.653,2.813,4.708,41.0
42.22,2.858,4.533,13.0
41.928,2.845,4.265,11.0
42.035,2.86,4.035,17.0
42.123,2.873,3.806,20.0
41.632,2.847,3.528,41.0
41.664,2.868,4.709,42.0
53.07,3.662,5.697,7.0
46.429,3.212,4.722,9.0
41.44,2.873,3.977,22.0
41.749,2.902,3.771,16.0
41.511,2.893,3.517,31.0
41.655,2.922,4.706,47.0
53.0,3.725,5.688,18.0
46.369,3.267,4.713,8.0
41.301,2.916,3.961,45.0
41.397,2.93,3.737,40.0
41.409,2.938,3.505,35.0
41.66,2.974,4.703,37.0
50.195,3.592,5.382,2.0
41.802,2.998,4.245,2.0
41.702,2.997,3.995,18.0
41.301,2.975,3.723,37.0
41.469,2.994,3.505,38.0
41.661,3.027,4.698,39.0
46.032,3.351,4.929,15.0
41.25,3.009,4.183,40.0
41.446,3.03,3.964,29.0
41.308,3.026,3.717,36.0
41.383,3.038,3.491,32.0
41.626,3.076,4.687,40.0
46.023,3.407,4.92,17.0
41.244,3.059,4.175,26.0
41.251,3.066,3.937,30.0
41.269,3.074,3.706,33.0
41.354,3.087,3.48,41.0
41.68,3.131,4.683,31.0
58.418,4.396,6.232,3.0
41.243,3.11,4.165,14.0
41.067,3.102,3.91,42.0
41.541,3.144,3.72,16.0
41.349,3.136,3.469,40.0
45.249,3.453,5.073,3.0
52.842,4.04,5.623,2.0
41.201,3.155,4.15,19.0
41.185,3.16,3.91,28.0
41.462,3.188,3.701,32.0
41.288,3.18,3.452,30.0
45.232,3.505,5.057,11.0
45.143,3.504,4.79,21.0
41.155,3.2,4.132,42.0
41.085,3.2,3.887,39.0
41.294,3.222,3.673,41.0
41.426,3.238,3.45,38.0
45.205,3.555,5.039,25.0
45.264,3.566,4.787,16.0
41.2,3.25,4.122,40.0
41.552,3.283,3.917,17.0
41.267,3.266,3.656,37.0
41.396,3.282,3.432,25.0
45.226,3.608,5.024,29.0
45.285,3.618,4.771,15.0
45.283,3.624,4.513,15.0
41.717,3.344,3.915,32.0
41.258,3.312,3.638,34.0
41.302,3.321,3.407,30.0
50.824,4.111,5.624,12.0
45.318,3.671,4.755,28.0
45.359,3.679,4.501,22.0
42.19,3.428,3.941,31.0
41.323,3.362,3.625,34.0
41.291,3.365,3.388,39.0
50.685,4.155,5.585,14.0
51.27,4.208,5.356,3.0
41.301,3.394,4.078,32.0
45.116,3.713,4.193,4.0
41.286,3.403,3.602,34.0
41.322,3.411,3.37,36.0
19.97,-1.081,0.577,24.0
19.958,-1.086,0.47,20.0
19.952,-1.092,0.364,19.0
19.964,-1.099,0.256,21.0
20.007,-1.107,0.15,26.0
20.004,-1.114,0.043,19.0
19.967,-1.115,0.597,26.0
19.955,-1.12,0.49,24.0
19.952,-1.126,0.384,19.0
19.957,-1.132,0.276,27.0
20.125,-1.148,0.171,5.0
20.055,-1.15,0.064,0.0
19.966,-1.148,0.618,26.0
19.948,-1.153,0.511,25.0
19.945,-1.159,0.405,19.0
19.922,-1.163,0.296,18.0
20.009,-1.175,0.191,41.0
19.998,-1.18,0.085,150.0
19.966,-1.181,0.639,25.0
19.948,-1.186,0.532,24.0
19.93,-1.191,0.425,19.0
19.909,-1.195,0.317,18.0
19.983,-1.206,0.212,150.0
19.99,-1.212,0.106,150.0
19.951,-1.213,0.66,19.0
19.95,-1.218,0.554,26.0
19.942,-1.223,0.448,20.0
19.928,-1.228,0.339,22.0
19.968,-1.237,0.234,26.0
19.984,-1.243,0.128,24.0
19.952,-1.244,0.682,18.0
19.939,-1.249,0.575,24.0
19.926,-1.254,0.469,18.0
19.907,-1.258,0.361,19.0
19.969,-1.268,0.256,29.0
19.967,-1.274,0.151,24.0
19.96,-1.276,0.705,17.0
19.934,-1.28,0.598,19.0
19.929,-1.285,0.492,15.0
19.92,-1.29,0.384,15.0
19.956,-1.298,0.279,24.0
19.97,-1.305,0.174,22.0
20.004,-1.31,0.73,10.0
20.027,-1.317,0.624,12.0
20.009,-1.321,0.518,9.0
19.968,-1.324,0.409,8.0
19.968,-1.329,0.303,7.0
20.001,-1.337,0.198,17.0
20.022,-1.341,0.754,7.0
20.013,-1.346,0.648,11.0
20.057,-1.354,0.543,10.0
20.047,-1.359,0.434,3.0
119.428,-8.127,1.959,57.0
119.279,-8.149,1.324,16.0
67.897,-4.648,2.641,38.0
20.0,-1.374,0.671,11.0
19.999,-1.379,0.565,9.0
20.009,-1.385,0.458,8.0
20.022,-1.391,0.352,9.0
20.032,-1.397,0.246,8.0
67.899,-4.744,2.723,59.0
20.022,-1.404,0.697,8.0
19.993,-1.407,0.59,9.0
19.994,-1.412,0.482,10.0
19.995,-1.417,0.376,10.0
20.008,-1.423,0.271,14.0
67.912,-4.839,2.807,62.0
67.888,-4.853,2.447,35.0
20.023,-1.436,0.615,8.0
20.011,-1.44,0.507,8.0
20.017,-1.445,0.401,9.0
20.012,-1.45,0.296,9.0
67.924,-4.931,2.893,66.0
67.904,-4.946,2.533,46.0
72.504,-5.298,2.321,23.0
20.036,-1.468,0.533,1.0
72.533,-5.335,1.548,9.0
119.379,-8.81,1.918,34.0
67.936,-5.022,2.981,61.0
67.923,-5.036,2.621,45.0
71.668,-5.33,2.387,31.0
71.651,-5.345,2.0,14.0
72.718,-5.441,1.645,6.0
119.379,-8.962,2.072,117.0
67.94,-5.109,3.069,49.0
67.939,-5.124,2.71,15.0
102.834,-7.778,3.558,25.0
71.711,-5.439,2.095,14.0
72.773,-5.536,1.742,6.0
67.904,-5.181,1.266,24.0
67.955,-5.193,3.158,47.0
67.935,-5.206,2.798,66.0
67.921,-5.22,2.438,74.0
67.903,-5.233,2.072,88.0
67.893,-5.246,1.714,85.0
67.884,-5.26,1.355,83.0
103.656,-0.081,4.73,8.0
70.125,-0.052,2.789,8.0
69.968,-0.049,2.374,19.0
117.435,-0.078,3.284,25.0
112.568,-0.07,2.486,6.0
117.292,-0.068,1.905,18.0
227.407,-0.107,9.901,9.0
69.999,-0.03,2.638,30.0
70.031,-0.028,2.228,19.0
117.395,-0.043,3.035,26.0
117.342,-0.039,2.348,23.0
117.314,-0.035,1.661,16.0
189.85,-0.037,7.87,25.0
69.88,-0.011,2.487,36.0
70.082,-0.009,2.084,33.0
113.788,-0.012,2.705,5.0
117.305,-0.009,2.1,25.0
111.122,-0.006,1.341,17.0
70.155,0.002,2.76,17.0
69.93,0.004,2.341,32.0
117.438,0.01,3.244,20.0
117.3,0.013,2.54,15.0
117.292,0.015,1.853,11.0
111.155,0.017,1.104,10.0
69.985,0.016,2.603,31.0
70.0,0.018,2.193,28.0
117.379,0.032,2.991,17.0
117.345,0.034,2.291,26.0
111.123,0.034,1.518,17.0
110.91,0.036,0.868,10.0
69.899,0.028,2.452,30.0
70.164,0.029,2.051,17.0
112.615,0.048,2.631,8.0
117.352,0.052,2.042,22.0
111.151,0.05,1.283,17.0
103.598,0.048,0.591,8.0
69.827,0.037,2.301,31.0
117.444,0.063,3.181,17.0
117.37,0.064,2.493,20.0
111.062,0.061,1.697,11.0
111.214,0.062,1.047,14.0
95.595,0.054,0.339,2.0
70.094,0.043,2.16,24.0
117.411,0.073,2.931,9.0
117.35,0.073,2.242,21.0
111.098,0.069,1.461,20.0
110.693,0.069,0.806,8.0
92.556,0.058,0.132,0.0
70.266,0.047,2.015,17.0
117.37,0.078,2.679,13.0
117.324,0.078,1.991,17.0
111.166,0.073,1.226,18.0
103.544,0.068,0.536,2.0
0.0,0.0,0.0,0.0
117.433,0.08,3.12,19.0
117.356,0.079,2.43,21.0
111.134,0.074,1.649,11.0
111.074,0.073,0.986,8.0
95.491,0.062,0.289,1.0
0.0,0.0,0.0,0.0
112.748,0.074,2.752,5.0
117.354,0.076,2.176,20.0
111.115,0.07,1.409,20.0
110.625,0.068,0.745,7.0
0.0,0.0,0.0,0.0
0.0,0.0,0.0,0.0
117.372,0.07,2.613,16.0
117.353,0.068,1.925,10.0
111.195,0.062,1.174,17.0
95.689,0.052,0.439,3.0
0.0,0.0,0.0,0.0
49.724,0.025,-0.353,0.0
117.332,0.058,2.362,24.0
111.115,0.053,1.585,14.0
111.026,0.05,0.935,8.0
92.545,0.039,0.227,1.0
0.0,0.0,0.0,0.0
45.273,0.017,-0.419,2.0
117.36,0.042,2.11,25.0
111.159,0.037,1.346,18.0
110.496,0.034,0.692,5.0
0.0,0.0,0.0,0.0
0.0,0.0,0.0,0.0
0.0,0.0,0.0,0.0
111.09,0.021,1.761,13.0
111.119,0.017,1.109,8.0
95.644,0.011,0.394,8.0
0.0,0.0,0.0,0.0
45.705,0.002,-0.351,1.0
37.535,0.0,-0.508,0.0
111.09,-0.001,1.523,15.0
110.901,-0.006,0.871,13.0
0.0,0.0,0.0,0.0
55.052,-0.007,-0.217,0.0
44.789,-0.007,-0.439,1.0
33.94,-0.007,-0.532,0.0
15.657,-1.682,-0.628,16.0
14.666,-1.575,-0.666,2.0
13.662,-1.467,-0.693,1.0
13.472,-1.446,-0.757,0.0
13.443,-1.443,-0.827,0.0
12.779,-1.372,-0.854,0.0
16.014,-1.717,-0.622,15.0
15.122,-1.621,-0.667,2.0
13.859,-1.485,-0.685,1.0
13.514,-1.448,-0.742,1.0
13.511,-1.448,-0.813,0.0
13.21,-1.415,-0.866,0.0
16.342,-1.748,-0.614,15.0
15.319,-1.638,-0.656,9.0
14.15,-1.513,-0.681,1.0
13.574,-1.451,-0.727,0.0
13.611,-1.455,-0.802,0.0
13.276,-1.419,-0.853,0.0
17.008,-1.815,-0.616,19.0
15.434,-1.646,-0.641,12.0
14.374,-1.533,-0.674,1.0
13.666,-1.457,-0.714,1.0
13.656,-1.455,-0.787,0.0
13.358,-1.423,-0.841,0.0
17.452,-1.857,-0.61,20.0
15.766,-1.676,-0.634,13.0
14.67,-1.559,-0.668,1.0
13.791,-1.465,-0.703,1.0
13.776,-1.463,-0.775,0.0
13.587,-1.442,-0.837,0.0
17.776,-1.885,-0.598,21.0
16.147,-1.711,-0.629,15.0
15.14,-1.603,-0.67,2.0
14.003,-1.482,-0.695,1.0
13.876,-1.468,-0.763,0.0
13.826,-1.462,-0.834,0.0
18.196,-1.922,-0.588,20.0
16.47,-1.738,-0.62,15.0
15.393,-1.624,-0.661,6.0
14.24,-1.501,-0.688,1.0
13.994,-1.474,-0.751,0.0
13.988,-1.473,-0.825,0.0
18.511,-1.947,-0.574,18.0
16.925,-1.779,-0.615,16.0
15.742,-1.653,-0.655,4.0
14.398,-1.511,-0.677,2.0
14.121,-1.481,-0.739,1.0
14.167,-1.484,-0.817,0.0
19.207,-2.01,-0.571,23.0
17.328,-1.812,-0.607,16.0
16.163,-1.689,-0.652,7.0
14.715,-1.536,-0.673,1.0
14.288,-1.491,-0.729,1.0
14.294,-1.49,-0.806,0.0
19.599,-2.041,-0.557,20.0
17.731,-1.845,-0.598,17.0
16.392,-1.704,-0.64,13.0
15.088,-1.567,-0.67,1.0
14.444,-1.498,-0.718,1.0
14.445,-1.497,-0.795,0.0
20.025,-2.073,-0.543,17.0
18.208,-1.883,-0.59,18.0
16.697,-1.725,-0.63,14.0
15.386,-1.588,-0.663,2.0
14.643,-1.51,-0.709,1.0
14.653,-1.509,-0.788,0.0
20.789,-2.139,-0.537,21.0
18.676,-1.92,-0.581,17.0
17.042,-1.75,-0.621,15.0
15.784,-1.619,-0.66,1.0
14.862,-1.522,-0.701,1.0
14.867,-1.521,-0.78,0.0
21.432,-2.191,-0.526,23.0
19.08,-1.948,-0.569,16.0
17.373,-1.771,-0.61,15.0
16.262,-1.656,-0.659,4.0
15.154,-1.541,-0.694,1.0
15.132,-1.537,-0.774,0.0
21.94,-2.227,-0.51,22.0
19.572,-1.984,-0.558,19.0
17.807,-1.802,-0.602,17.0
16.365,-1.654,-0.642,8.0
15.444,-1.559,-0.688,2.0
15.446,-1.557,-0.77,0.0
22.604,-2.277,-0.496,20.0
20.135,-2.025,-0.549,18.0
18.246,-1.833,-0.594,16.0
16.95,-1.7,-0.643,2.0
15.698,-1.572,-0.679,2.0
15.661,-1.566,-0.761,1.0
23.355,-2.334,-0.483,23.0
20.908,-2.086,-0.543,20.0
18.656,-1.858,-0.583,16.0
17.525,-1.743,-0.643,2.0
16.019,-1.591,-0.672,1.0
15.972,-1.584,-0.755,0.0
9.986,0.742,-0.887,0.0
9.49,0.705,-0.897,0.0
9.061,0.672,-0.908,0.0
8.652,0.641,-0.918,0.0
0.0,0.0,0.0,0.0
7.907,0.585,-0.93,0.0
9.869,0.726,-0.884,0.0
9.424,0.692,-0.898,0.0
8.983,0.659,-0.908,0.0
8.602,0.63,-0.92,0.0
8.231,0.602,-0.927,0.0
7.879,0.576,-0.933,0.0
9.888,0.719,-0.894,0.0
9.351,0.679,-0.899,0.0
8.962,0.65,-0.912,0.0
8.579,0.621,-0.924,0.0
8.22,0.595,-0.932,0.0
7.873,0.569,-0.938,0.0
9.755,0.701,-0.889,0.0
9.337,0.67,-0.904,0.0
8.884,0.636,-0.911,0.0
0.0,0.0,0.0,0.0
8.107,0.579,-0.925,0.0
7.819,0.558,-0.938,0.0
9.717,0.689,-0.892,0.0
9.267,0.656,-0.904,0.0
8.844,0.626,-0.913,0.0
0.0,0.0,0.0,0.0
8.099,0.571,-0.93,0.0
7.744,0.546,-0.934,0.0
9.645,0.675,-0.892,0.0
9.197,0.643,-0.903,0.0
8.789,0.614,-0.913,0.0
0.0,0.0,0.0,0.0
8.066,0.561,-0.932,0.0
7.712,0.536,-0.935,0.0
9.651,0.667,-0.898,0.0
9.187,0.634,-0.908,0.0
8.801,0.606,-0.92,0.0
0.0,0.0,0.0,0.0
8.039,0.552,-0.933,0.0
7.688,0.527,-0.937,0.0
9.544,0.65,-0.894,0.0
9.2,0.625,-0.914,0.0
8.653,0.587,-0.909,0.0
8.284,0.561,-0.919,0.0
8.002,0.541,-0.933,0.0
7.67,0.518,-0.939,0.0
9.564,0.642,-0.901,0.0
9.07,0.608,-0.906,0.0
8.706,0.582,-0.92,0.0
8.277,0.552,-0.923,0.0
7.94,0.529,-0.931,0.0
7.63,0.507,-0.938,0.0
9.514,0.629,-0.901,0.0
9.054,0.597,-0.909,0.0
8.609,0.567,-0.914,0.0
8.219,0.54,-0.92,0.0
7.946,0.521,-0.935,0.0
7.598,0.497,-0.938,0.0
9.472,0.616,-0.902,0.0
9.041,0.587,-0.912,0.0
8.593,0.557,-0.916,0.0
8.223,0.532,-0.924,0.0
7.91,0.51,-0.934,0.0
7.545,0.486,-0.934,0.0
9.384,0.601,-0.897,0.0
8.931,0.57,-0.905,0.0
8.59,0.547,-0.919,0.0
8.25,0.525,-0.931,0.0
7.903,0.501,-0.937,0.0
7.521,0.476,-0.934,0.0
9.387,0.59,-0.901,0.0
8.895,0.558,-0.904,0.0
8.58,0.537,-0.921,0.0
0.0,0.0,0.0,0.0
7.831,0.488,-0.931,0.0
7.525,0.468,-0.938,0.0
9.305,0.575,-0.897,0.0
8.965,0.553,-0.915,0.0
8.541,0.525,-0.92,0.0
8.147,0.5,-0.925,0.0
7.843,0.48,-0.935,0.0
7.542,0.461,-0.942,0.0
9.307,0.565,-0.9,0.0
8.94,0.541,-0.915,0.0
8.479,0.512,-0.916,0.0
8.113,0.489,-0.923,0.0
7.825,0.47,-0.935,0.0
7.5,0.45,-0.939,0.0
9.314,0.554,-0.903,0.0
8.871,0.527,-0.91,0.0
8.528,0.505,-0.923,0.0
8.124,0.48,-0.926,0.0
7.829,0.461,-0.937,0.0
7.5,0.441,-0.94,0.0
9.3,0.543,-0.903,0.0
8.927,0.52,-0.917,0.0
8.454,0.491,-0.917,0.0
8.088,0.468,-0.924,0.0
7.825,0.452,-0.938,0.0
7.544,0.435,-0.947,0.0
9.32,0.533,-0.907,0.0
8.856,0.505,-0.912,0.0
8.426,0.479,-0.915,0.0
8.072,0.458,-0.923,0.0
7.781,0.44,-0.934,0.0
7.495,0.423,-0.942,0.0
9.28,0.52,-0.904,0.0
8.858,0.495,-0.913,0.0
8.479,0.472,-0.922,0.0
8.095,0.45,-0.927,0.0
7.774,0.431,-0.934,0.0
7.475,0.413,-0.94,0.0
9.291,0.509,-0.906,0.0
8.892,0.486,-0.917,0.0
8.464,0.461,-0.921,0.0
8.124,0.441,-0.93,0.0
7.748,0.42,-0.931,0.0
7.487,0.404,-0.942,0.0
9.301,0.499,-0.907,0.0
8.869,0.474,-0.915,0.0
8.446,0.45,-0.919,0.0
8.099,0.43,-0.928,0.0
7.747,0.41,-0.931,0.0
7.507,0.396,-0.945,0.0
9.313,0.488,-0.908,0.0
8.856,0.463,-0.913,0.0
8.408,0.438,-0.914,0.0
8.081,0.419,-0.925,0.0
7.787,0.403,-0.936,0.0
7.471,0.385,-0.94,0.0
9.299,0.476,-0.906,0.0
8.828,0.45,-0.91,0.0
8.464,0.43,-0.92,0.0
0.0,0.0,0.0,0.0
7.777,0.392,-0.934,0.0
7.484,0.376,-0.941,0.0
9.296,0.464,-0.905,0.0
8.859,0.441,-0.912,0.0
8.487,0.421,-0.921,0.0
0.0,0.0,0.0,0.0
7.819,0.385,-0.938,0.0
7.487,0.367,-0.94,0.0
9.303,0.453,-0.905,0.0
8.903,0.432,-0.915,0.0
8.477,0.41,-0.919,0.0
0.0,0.0,0.0,0.0
7.829,0.376,-0.938,0.0
7.499,0.358,-0.94,0.0
9.342,0.443,-0.907,0.0
8.89,0.42,-0.912,0.0
8.529,0.401,-0.923,0.0
0.0,0.0,0.0,0.0
7.808,0.365,-0.933,0.0
7.527,0.35,-0.942,0.0
9.376,0.433,-0.908,0.0
8.94,0.411,-0.915,0.0
8.468,0.388,-0.914,0.0
0.0,0.0,0.0,0.0
7.834,0.356,-0.934,0.0
7.555,0.342,-0.944,0.0
9.34,0.42,-0.902,0.0
8.976,0.402,-0.916,0.0
8.559,0.381,-0.922,0.0
0.0,0.0,0.0,0.0
7.835,0.346,-0.932,0.0
7.558,0.332,-0.942,0.0
9.375,0.409,-0.902,0.0
9.003,0.391,-0.916,0.0
8.601,0.372,-0.923,0.0
8.2,0.353,-0.927,0.0
7.869,0.337,-0.933,0.0
7.579,0.324,-0.941,0.0
9.413,0.399,-0.902,0.0
8.925,0.377,-0.905,0.0
8.593,0.361,-0.919,0.0
8.232,0.344,-0.927,0.0
7.926,0.33,-0.937,0.0
7.59,0.314,-0.94,0.0
9.49,0.39,-0.906,0.0
9.033,0.37,-0.912,0.0
8.629,0.351,-0.919,0.0
8.263,0.335,-0.927,0.0
7.905,0.319,-0.931,0.0
7.612,0.305,-0.939,0.0
9.469,0.377,-0.899,0.0
9.053,0.359,-0.91,0.0
8.656,0.341,-0.918,0.0
8.289,0.325,-0.926,0.0
7.936,0.31,-0.931,0.0
7.669,0.298,-0.942,0.0
41.195,3.189,3.781,30.0
41.339,3.208,3.562,43.0
41.53,3.231,3.345,37.0
41.665,3.249,3.119,33.0
41.859,3.273,2.9,39.0
45.911,3.599,2.924,14.0
41.254,3.255,3.789,40.0
41.282,3.265,3.56,37.0
41.572,3.295,3.352,27.0
41.887,3.328,3.138,43.0
41.864,3.335,2.902,29.0
45.783,3.656,2.918,29.0
41.79,3.359,3.84,26.0
41.222,3.32,3.556,39.0
41.387,3.341,3.338,11.0
41.522,3.359,3.111,37.0
41.761,3.387,2.895,42.0
45.728,3.717,2.915,33.0
41.902,3.428,3.85,18.0
41.376,3.392,3.569,38.0
41.36,3.398,3.335,34.0
