X,Y,Z,Reflectivity
40.988,0.961,5.667,42.0
40.877,0.964,5.416,43.0
40.279,0.956,5.105,42.0
40.338,0.963,4.876,38.0
40.307,0.968,4.642,34.0
40.575,0.981,4.44,43.0
40.862,1.001,5.627,47.0
40.882,1.007,5.394,42.0
40.248,0.997,5.078,43.0
40.291,1.003,4.848,27.0
40.289,1.009,4.616,34.0
40.719,1.026,4.433,36.0
40.893,1.044,5.607,38.0
40.954,1.051,5.378,39.0
40.411,1.042,5.074,39.0
40.273,1.044,4.821,33.0
40.342,1.051,4.598,33.0
40.7,1.066,4.405,38.0
40.909,1.085,5.583,46.0
40.958,1.092,5.353,38.0
40.366,1.081,5.042,40.0
40.429,1.088,4.813,36.0
40.5,1.096,4.589,33.0
40.734,1.107,4.382,38.0
41.208,1.134,5.596,27.0
40.68,1.124,5.289,40.0
40.422,1.122,5.021,40.0
40.463,1.128,4.789,37.0
40.521,1.135,4.563,37.0
40.942,1.152,4.376,41.0
41.17,1.173,5.561,28.0
40.702,1.164,5.261,35.0
40.417,1.161,4.991,35.0
40.502,1.169,4.764,34.0
40.824,1.183,4.566,19.0
40.949,1.192,4.345,35.0
41.269,1.215,5.543,28.0
40.781,1.206,5.24,34.0
40.412,1.199,4.959,35.0
40.547,1.208,4.737,44.0
40.741,1.219,4.525,18.0
40.777,1.225,4.295,39.0
41.125,1.249,5.489,17.0
41.029,1.251,5.239,35.0
41.101,1.258,5.01,33.0
40.593,1.247,4.709,45.0
40.662,1.253,4.483,23.0
40.806,1.263,4.264,37.0
40.681,1.273,5.395,38.0
41.103,1.291,5.213,33.0
41.271,1.3,4.995,16.0
40.612,1.284,4.676,38.0
40.743,1.293,4.456,26.0
40.839,1.3,4.232,38.0
40.711,1.739,4.58,40.0
40.574,1.734,4.327,37.0
41.475,1.773,4.181,17.0
40.546,1.734,3.848,37.0
40.312,1.724,3.592,39.0
40.309,1.726,3.358,42.0
40.732,1.756,4.522,38.0
40.658,1.753,4.277,36.0
41.308,1.781,4.104,16.0
40.528,1.748,3.787,33.0
40.452,1.746,3.544,37.0
40.344,1.741,3.301,36.0
40.648,1.767,4.452,40.0
41.059,1.785,4.257,32.0
40.974,1.781,4.009,16.0
40.382,1.756,3.712,37.0
40.553,1.764,3.492,32.0
40.417,1.758,3.246,31.0
45.102,1.974,4.871,5.0
41.12,1.8,4.201,37.0
40.672,1.78,3.918,37.0
40.31,1.764,3.644,34.0
40.617,1.778,3.436,29.0
40.355,1.767,3.179,38.0
40.698,1.793,4.333,22.0
40.985,1.805,4.123,38.0
40.604,1.789,3.848,41.0
40.547,1.786,3.603,40.0
40.366,1.778,3.352,39.0
40.457,1.782,3.124,37.0
41.128,1.822,4.314,33.0
40.919,1.812,4.053,41.0
40.464,1.791,3.771,41.0
40.726,1.803,3.555,37.0
40.399,1.788,3.291,35.0
40.455,1.79,3.06,42.0
41.242,1.835,4.259,36.0
40.792,1.815,3.974,41.0
40.314,1.793,3.692,40.0
40.916,1.819,3.505,25.0
40.302,1.791,3.218,43.0
40.465,1.798,2.996,43.0
41.241,1.843,4.192,25.0
40.747,1.819,3.903,36.0
40.343,1.801,3.629,41.0
40.714,1.816,3.422,21.0
40.403,1.802,3.16,38.0
40.674,1.813,2.945,36.0
40.936,1.834,4.094,31.0
40.557,1.816,3.818,45.0
40.305,1.804,3.56,39.0
40.509,1.812,3.338,33.0
40.471,1.809,3.099,40.0
40.829,1.824,2.89,31.0
40.74,1.829,4.007,41.0
40.411,1.813,3.738,40.0
40.562,1.818,3.516,32.0
40.349,1.807,3.258,33.0
40.391,1.808,3.027,41.0
40.927,1.831,2.829,28.0
40.785,1.833,3.943,41.0
40.384,1.814,3.668,33.0
40.931,1.837,3.479,15.0
40.36,1.81,3.191,36.0
40.591,1.818,2.974,38.0
40.997,1.835,2.766,37.0
40.621,1.827,3.858,41.0
40.32,1.811,3.594,39.0
40.609,1.823,3.383,27.0
40.452,1.814,3.131,37.0
40.743,1.825,2.916,41.0
41.082,1.839,2.702,43.0
40.453,1.818,3.773,46.0
40.431,1.815,3.534,42.0
40.414,1.812,3.297,32.0
40.403,1.81,3.057,41.0
40.911,1.831,2.858,28.0
41.068,1.836,2.63,38.0
40.357,1.811,3.694,33.0
40.89,1.832,3.504,15.0
40.335,1.806,3.221,36.0
40.487,1.81,2.993,37.0
40.958,1.829,2.79,36.0
41.405,1.847,2.58,41.0
40.342,1.806,3.622,43.0
40.694,1.819,3.416,20.0
40.471,1.807,3.161,38.0
40.701,1.815,2.938,38.0
41.081,1.83,2.727,44.0
42.032,1.87,2.546,36.0
40.436,1.804,3.559,44.0
40.51,1.805,3.329,35.0
40.496,1.802,3.092,42.0
40.854,1.815,2.878,16.0
41.098,1.823,2.656,40.0
42.09,1.865,2.476,10.0
40.903,1.817,3.528,29.0
40.324,1.789,3.243,42.0
40.456,1.792,3.018,48.0
41.106,1.818,2.823,27.0
41.101,1.815,2.584,40.0
52.986,2.336,3.023,7.0
40.581,1.794,3.428,37.0
40.406,1.783,3.177,38.0
40.596,1.788,2.956,43.0
41.094,1.807,2.749,37.0
41.802,1.835,2.554,38.0
64.493,2.827,3.565,12.0
40.325,1.772,3.335,40.0
40.454,1.774,3.109,39.0
40.784,1.785,2.897,36.0
41.18,1.799,2.681,40.0
42.11,1.836,2.496,13.0
65.94,2.871,3.527,7.0
40.385,1.762,3.266,33.0
40.447,1.761,3.036,42.0
41.018,1.782,2.839,37.0
44.881,1.946,2.841,3.0
64.834,2.806,3.727,11.0
65.976,2.85,3.411,19.0
40.31,1.744,3.187,47.0
40.614,1.754,2.975,43.0
41.08,1.77,2.77,44.0
44.875,1.929,2.76,10.0
0.0,0.0,0.0,0.0
65.94,2.824,3.291,17.0
40.426,1.734,3.124,40.0
40.599,1.737,2.901,43.0
41.002,1.75,2.691,47.0
44.796,1.908,2.676,14.0
65.765,2.796,3.546,40.0
65.944,2.797,3.173,8.0
40.598,1.724,3.064,39.0
41.076,1.74,2.861,32.0
41.066,1.735,2.621,16.0
65.855,2.776,3.814,25.0
65.901,2.772,3.435,31.0
65.958,2.767,3.056,20.0
40.626,1.706,2.993,35.0
44.799,1.876,3.039,4.0
44.81,1.872,2.779,13.0
65.66,2.736,3.683,41.0
65.894,2.738,3.314,35.0
65.986,2.735,2.935,21.0
40.692,1.687,2.922,37.0
41.019,1.696,2.707,22.0
44.804,1.848,2.696,32.0
65.571,2.697,3.558,41.0
52.721,2.163,2.555,22.0
66.024,2.701,2.817,22.0
41.169,1.684,2.882,11.0
41.153,1.679,2.641,39.0
65.842,2.679,3.843,12.0
65.456,2.655,3.433,41.0
66.109,2.674,3.084,14.0
66.075,2.665,2.7,25.0
44.978,1.814,3.066,9.0
44.847,1.803,2.796,6.0
65.867,2.639,3.723,37.0
65.246,2.606,3.302,6.0
66.153,2.635,2.965,9.0
66.154,2.627,2.581,24.0
45.005,1.786,2.985,29.0
64.9,2.567,3.927,11.0
72.761,2.869,3.981,9.0
66.186,2.601,3.23,15.0
66.154,2.592,2.845,23.0
66.189,2.585,2.463,5.0
44.905,1.752,2.896,27.0
65.634,2.551,3.851,41.0
66.241,2.566,3.502,7.0
66.21,2.556,3.109,23.0
66.217,2.547,2.726,20.0
190.799,7.316,6.752,21.0
65.78,2.519,4.122,5.0
64.743,2.47,3.681,7.0
66.062,2.511,3.373,37.0
66.218,2.508,2.989,20.0
189.995,7.171,7.479,18.0
190.745,7.172,6.403,12.0
65.72,2.468,3.999,30.0
0.0,0.0,0.0,0.0
66.255,2.468,3.262,30.0
72.525,2.692,3.144,29.0
72.526,2.681,2.724,8.0
72.497,2.669,2.303,22.0
66.239,2.434,3.911,25.0
66.296,2.426,3.529,25.0
72.437,2.64,3.435,24.0
72.45,2.63,3.009,30.0
72.441,2.618,2.59,28.0
72.438,2.608,2.17,27.0
66.355,2.383,3.798,25.0
72.317,2.586,3.719,19.0
72.377,2.577,3.303,35.0
72.405,2.567,2.878,39.0
72.41,2.557,2.459,36.0
72.402,2.545,2.04,33.0
72.152,2.529,4.0,31.0
72.365,2.524,3.591,12.0
72.382,2.514,3.173,36.0
72.388,2.502,2.747,38.0
72.387,2.49,2.327,37.0
72.37,2.478,1.908,33.0
72.231,2.465,3.874,28.0
72.35,2.457,3.46,36.0
72.402,2.447,3.044,40.0
72.418,2.436,2.619,39.0
72.427,2.424,2.199,40.0
72.4,2.411,1.78,33.0
72.355,2.401,3.751,14.0
72.416,2.391,3.335,33.0
72.466,2.38,2.917,31.0
72.466,2.367,2.491,33.0
72.491,2.355,2.072,30.0
72.48,2.343,1.653,27.0
72.555,2.336,3.632,21.0
72.509,2.321,3.209,19.0
78.799,2.508,3.032,9.0
211.412,6.695,6.891,14.0
74.4,2.343,1.995,7.0
74.154,2.322,1.56,3.0
65.462,2.041,3.162,2.0
118.061,3.659,5.019,9.0
78.818,2.429,2.895,25.0
206.545,6.327,6.372,17.0
75.283,2.292,1.887,3.0
74.693,2.261,1.441,7.0
65.488,1.972,3.049,7.0
117.682,3.522,4.798,11.0
78.834,2.344,2.757,26.0
78.855,2.331,2.295,27.0
76.464,2.246,1.784,7.0
76.271,2.226,1.339,8.0
115.737,3.359,5.188,16.0
78.825,2.272,3.076,12.0
78.818,2.257,2.62,26.0
78.76,2.239,2.155,9.0
77.196,2.181,1.666,2.0
77.269,2.168,1.223,5.0
78.812,2.197,3.395,29.0
78.788,2.181,2.938,30.0
78.831,2.167,2.485,36.0
78.851,2.152,2.022,36.0
78.877,2.136,1.567,33.0
78.889,2.122,1.113,33.0
78.807,2.105,3.26,32.0
78.811,2.089,2.804,32.0
78.928,2.076,2.352,30.0
78.945,2.06,1.889,31.0
78.974,2.045,1.434,30.0
78.974,2.03,0.98,25.0
78.885,2.012,3.129,21.0
78.902,1.996,2.673,23.0
85.347,2.141,2.399,15.0
85.349,2.124,1.899,25.0
85.309,2.106,1.407,29.0
85.301,2.088,0.915,26.0
78.888,1.915,2.996,12.0
85.288,2.052,2.747,30.0
85.254,2.032,2.254,34.0
85.219,2.013,1.753,38.0
85.248,1.996,1.262,43.0
85.2,1.977,0.771,22.0
78.892,1.813,2.864,13.0
85.237,1.941,2.604,36.0
85.238,1.923,2.112,37.0
85.246,1.905,1.613,41.0
85.242,1.887,1.122,40.0
85.184,1.866,0.63,18.0
85.278,1.849,2.956,35.0
85.306,1.831,2.466,35.0
85.306,1.812,1.973,34.0
85.327,1.793,1.473,35.0
85.341,1.774,0.982,31.0
84.975,1.748,0.489,8.0
91.833,1.866,3.032,32.0
91.876,1.847,2.504,16.0
87.316,1.736,1.877,10.0
87.409,1.719,1.368,21.0
91.953,1.787,0.909,15.0
78.306,1.504,0.324,5.0
91.822,1.741,2.885,31.0
91.778,1.72,2.356,32.0
91.831,1.699,1.829,32.0
91.881,1.679,1.292,33.0
91.839,1.657,0.763,23.0
77.639,1.383,0.198,3.0
71.459,-4.182,4.327,23.0
19.978,-1.162,1.096,9.0
19.957,-1.154,0.982,24.0
19.962,-1.148,0.867,18.0
19.998,-1.143,0.755,18.0
19.971,-1.135,0.641,23.0
58.681,-3.33,3.518,18.0
19.964,-1.126,1.083,11.0
19.95,-1.118,0.969,18.0
19.999,-1.114,0.856,16.0
20.013,-1.109,0.743,20.0
19.969,-1.1,0.629,22.0
58.654,-3.223,3.479,33.0
19.983,-1.091,1.071,11.0
19.988,-1.085,0.958,19.0
71.986,-3.883,3.036,12.0
19.997,-1.072,0.729,14.0
19.976,-1.064,0.615,20.0
58.605,-3.115,3.436,33.0
20.017,-1.057,1.059,3.0
71.087,-3.732,3.359,14.0
83.732,-4.369,3.473,32.0
20.011,-1.037,0.716,14.0
19.98,-1.029,0.601,14.0
58.677,-3.015,3.397,33.0
79.413,-4.054,4.146,20.0
73.436,-3.725,3.416,25.0
83.71,-4.219,3.41,12.0
20.071,-1.005,0.703,16.0
20.109,-1.0,0.59,24.0
76.552,-3.797,4.374,13.0
73.383,-3.615,3.774,9.0
83.416,-4.082,3.815,32.0
20.087,-0.976,0.802,1.0
20.103,-0.971,0.688,21.0
20.107,-0.965,0.574,23.0
59.049,-2.824,3.326,6.0
80.316,-3.814,4.066,59.0
83.331,-3.93,3.744,13.0
94.623,-4.432,3.702,19.0
20.087,-0.934,0.671,18.0
20.124,-0.93,0.558,13.0
79.095,-3.642,4.388,28.0
80.726,-3.69,4.018,34.0
94.445,-4.288,4.163,18.0
95.037,-4.286,3.637,17.0
20.125,-0.901,0.655,1.0
193.361,-8.6,5.2,8.0
67.165,-2.974,3.667,28.0
80.841,-3.555,3.953,41.0
94.715,-4.135,4.09,15.0
104.268,-4.518,3.897,30.0
194.016,-8.347,6.146,6.0
193.263,-8.254,5.02,19.0
67.279,-2.861,3.611,10.0
80.914,-3.415,3.881,32.0
100.148,-4.196,4.231,19.0
104.165,-4.332,3.796,29.0
193.838,-8.002,5.958,20.0
192.845,-7.903,4.828,24.0
67.243,-2.742,3.545,17.0
81.144,-3.284,3.814,12.0
97.208,-3.905,4.013,15.0
104.387,-4.161,3.703,3.0
193.701,-7.661,5.765,22.0
192.581,-7.559,4.633,27.0
81.228,-3.173,4.202,13.0
94.251,-3.653,4.336,15.0
103.764,-3.989,4.179,31.0
194.724,-7.428,6.712,19.0
193.314,-7.315,5.558,24.0
193.182,-7.251,4.45,21.0
66.394,-2.478,3.365,7.0
94.299,-3.491,4.24,15.0
103.892,-3.815,4.076,20.0
194.282,-7.075,6.491,25.0
193.0,-6.973,5.346,22.0
204.38,-7.322,4.493,24.0
81.222,-2.892,4.029,37.0
94.321,-3.331,4.139,22.0
101.16,-3.541,3.859,20.0
193.718,-6.725,6.262,25.0
187.437,-6.45,4.985,46.0
187.437,-6.395,3.914,36.0
81.127,-2.751,3.935,18.0
94.397,-3.172,4.036,5.0
101.44,-3.379,3.756,13.0
194.753,-6.431,6.077,19.0
193.952,-6.347,4.94,25.0
194.057,-6.293,3.831,15.0
81.309,-2.619,3.85,12.0
101.191,-3.23,4.21,22.0
106.033,-3.353,3.803,17.0
194.146,-6.083,5.831,8.0
194.224,-6.029,4.721,26.0
194.43,-5.979,3.611,12.0
81.199,-2.478,3.747,38.0
101.208,-3.06,4.09,16.0
120.259,-3.601,4.169,21.0
194.231,-5.761,5.6,15.0
194.734,-5.719,4.497,8.0
194.311,-5.65,3.372,8.0
81.424,-2.349,3.658,13.0
116.742,-3.334,4.573,8.0
120.511,-3.406,4.028,25.0
0.0,0.0,0.0,0.0
206.643,-5.727,4.516,6.0
138.808,-3.809,2.237,2.0
96.258,-2.619,4.204,18.0
106.227,-2.86,4.028,10.0
120.798,-3.218,3.886,28.0
118.119,-3.115,3.11,8.0
0.0,0.0,0.0,0.0
138.758,-3.583,2.06,8.0
96.67,-2.474,4.098,16.0
106.418,-2.693,3.898,20.0
120.927,-3.027,3.734,8.0
118.047,-2.922,2.954,17.0
193.114,-4.728,3.725,18.0
0.0,0.0,0.0,0.0
115.576,-2.771,4.746,13.0
113.117,-2.681,3.994,23.0
112.61,-2.637,3.327,3.0
118.167,-2.735,2.799,2.0
193.354,-4.424,3.468,23.0
0.0,0.0,0.0,0.0
96.701,-2.163,3.838,11.0
112.937,-2.495,3.831,19.0
112.619,-2.457,3.171,7.0
193.889,-4.177,4.323,15.0
193.083,-4.107,3.193,9.0
138.966,-2.921,1.5,5.0
96.704,-2.009,3.702,11.0
112.566,-2.309,3.66,25.0
112.859,-2.285,3.02,20.0
193.752,-3.872,4.049,24.0
138.958,-2.74,2.103,9.0
139.046,-2.707,1.305,20.0
112.67,-2.167,4.154,24.0
113.092,-2.144,3.515,9.0
112.873,-2.111,2.858,12.0
193.659,-3.573,3.77,17.0
139.02,-2.53,1.905,3.0
139.105,-2.495,1.106,22.0
112.76,-1.995,3.992,24.0
113.133,-1.973,3.353,13.0
112.669,-1.936,2.688,3.0
193.811,-3.279,3.486,15.0
0.0,0.0,0.0,0.0
138.811,-2.28,0.898,10.0
112.784,-1.827,3.826,6.0
112.604,-1.795,3.169,12.0
205.924,-3.23,4.607,16.0
194.301,-2.998,3.205,5.0
138.905,-2.11,1.491,11.0
138.754,-2.073,0.69,7.0
209.969,-3.087,6.803,10.0
113.203,-1.637,3.015,7.0
0.0,0.0,0.0,0.0
139.212,-1.945,2.086,7.0
139.166,-1.911,1.283,23.0
0.0,0.0,0.0,0.0
209.498,-2.776,6.466,10.0
0.0,0.0,0.0,0.0
204.307,-2.609,3.945,7.0
139.233,-1.743,1.869,3.0
139.227,-1.711,1.067,19.0
0.0,0.0,0.0,0.0
209.529,-2.476,6.137,10.0
0.0,0.0,0.0,0.0
119.694,-1.357,2.122,17.0
119.743,-1.33,1.419,66.0
119.762,-1.302,0.728,115.0
0.0,0.0,0.0,0.0
119.72,-1.246,3.315,150.0
119.729,-1.217,2.622,150.0
119.733,-1.19,1.931,150.0
119.698,-1.162,1.226,38.0
0.0,0.0,0.0,0.0
0.0,0.0,0.0,0.0
119.737,-1.08,3.121,150.0
119.74,-1.052,2.427,82.0
119.751,-1.026,1.736,28.0
119.635,-0.997,1.029,17.0
0.0,0.0,0.0,0.0
0.0,0.0,0.0,0.0
119.742,-0.917,2.922,5.0
119.785,-0.89,2.229,9.0
119.676,-0.862,1.534,15.0
114.108,-0.798,0.792,3.0
0.0,0.0,0.0,0.0
0.0,0.0,0.0,0.0
10.591,-0.579,-0.881,0.0
10.09,-0.553,-0.893,0.0
9.612,-0.528,-0.902,0.0
9.133,-0.502,-0.907,0.0
8.79,-0.484,-0.92,0.0
8.427,-0.465,-0.927,0.0
10.731,-0.59,-0.878,0.0
10.214,-0.563,-0.89,0.0
9.728,-0.537,-0.899,0.0
9.299,-0.514,-0.91,0.0
8.905,-0.493,-0.919,0.0
8.53,-0.473,-0.926,0.0
10.898,-0.603,-0.876,0.0
10.318,-0.572,-0.884,0.0
9.838,-0.546,-0.895,0.0
9.407,-0.523,-0.907,0.0
9.011,-0.502,-0.917,0.0
8.606,-0.48,-0.921,0.0
11.03,-0.613,-0.87,0.0
10.497,-0.584,-0.884,0.0
9.985,-0.556,-0.894,0.0
9.549,-0.533,-0.906,0.0
9.105,-0.509,-0.913,0.0
8.782,-0.492,-0.927,0.0
11.202,-0.625,-0.867,0.0
10.651,-0.595,-0.881,0.0
10.16,-0.568,-0.894,0.0
9.69,-0.543,-0.905,0.0
9.269,-0.52,-0.915,0.0
8.851,-0.497,-0.921,0.0
11.384,-0.637,-0.864,0.0
10.819,-0.606,-0.878,0.0
10.265,-0.576,-0.888,0.0
9.759,-0.548,-0.897,0.0
9.346,-0.525,-0.909,0.0
8.999,-0.507,-0.923,0.0
11.572,-0.649,-0.861,0.0
10.974,-0.616,-0.874,0.0
10.393,-0.584,-0.883,0.0
9.901,-0.557,-0.895,0.0
9.499,-0.535,-0.909,0.0
9.085,-0.512,-0.917,0.0
11.777,-0.662,-0.858,0.0
11.128,-0.626,-0.869,0.0
10.566,-0.595,-0.881,0.0
10.081,-0.568,-0.895,0.0
9.631,-0.543,-0.906,0.0
9.208,-0.52,-0.915,0.0
12.017,-0.676,-0.857,0.0
11.321,-0.638,-0.867,0.0
10.78,-0.608,-0.882,0.0
10.224,-0.577,-0.892,0.0
9.751,-0.55,-0.902,0.0
9.33,-0.527,-0.913,0.0
12.268,-0.691,-0.855,0.0
11.539,-0.65,-0.865,0.0
10.919,-0.615,-0.876,0.0
10.369,-0.585,-0.888,0.0
9.884,-0.558,-0.899,0.0
9.461,-0.534,-0.91,0.0
12.494,-0.703,-0.851,0.0
11.721,-0.66,-0.86,0.0
11.07,-0.624,-0.871,0.0
10.525,-0.593,-0.884,0.0
10.044,-0.566,-0.897,0.0
9.605,-0.542,-0.908,0.0
12.688,-0.714,-0.844,0.0
11.98,-0.674,-0.86,0.0
11.268,-0.634,-0.868,0.0
10.719,-0.603,-0.883,0.0
10.199,-0.574,-0.894,0.0
9.728,-0.548,-0.904,0.0
13.097,-0.735,-0.85,0.0
12.204,-0.685,-0.856,0.0
11.479,-0.645,-0.865,0.0
10.907,-0.612,-0.88,0.0
10.343,-0.581,-0.889,0.0
9.863,-0.554,-0.9,0.0
13.393,-0.75,-0.847,0.0
12.45,-0.697,-0.852,0.0
11.682,-0.654,-0.861,0.0
11.04,-0.618,-0.873,0.0
10.534,-0.59,-0.888,0.0
10.025,-0.561,-0.898,0.0
13.667,-0.763,-0.841,0.0
12.773,-0.713,-0.853,0.0
11.935,-0.666,-0.859,0.0
11.239,-0.627,-0.87,0.0
10.678,-0.596,-0.882,0.0
10.179,-0.568,-0.895,0.0
13.96,-0.776,-0.836,0.0
13.021,-0.724,-0.848,0.0
12.184,-0.677,-0.857,0.0
11.455,-0.636,-0.867,0.0
10.88,-0.604,-0.88,0.0
10.341,-0.574,-0.891,0.0
50.371,3.321,1.42,3.0
49.467,3.274,1.119,7.0
49.074,3.261,0.837,13.0
48.534,3.239,0.553,5.0
48.525,3.251,0.283,4.0
51.728,3.48,0.014,16.0
49.481,3.356,1.385,10.0
48.801,3.322,1.094,4.0
48.245,3.298,0.813,4.0
48.11,3.301,0.538,13.0
48.123,3.315,0.27,9.0
51.726,3.578,0.002,14.0
48.621,3.389,1.349,9.0
48.195,3.373,1.068,3.0
47.849,3.36,0.794,16.0
47.801,3.37,0.522,18.0
47.749,3.38,0.255,28.0
46.054,3.272,-0.01,12.0
47.989,3.435,1.318,2.0
47.583,3.418,1.041,19.0
47.544,3.427,0.775,66.0
102.209,7.396,1.085,9.0
52.277,3.797,0.263,15.0
45.999,3.353,-0.024,16.0
47.354,3.477,1.285,72.0
47.48,3.498,1.024,1.0
101.252,7.487,1.618,4.0
101.032,7.496,1.039,9.0
77.898,5.8,0.366,5.0
45.836,3.425,-0.04,19.0
100.531,7.568,2.694,7.0
100.368,7.579,2.128,11.0
100.159,7.588,1.564,8.0
99.975,7.6,0.992,9.0
97.129,7.409,0.42,4.0
45.592,3.49,-0.057,19.0
99.477,7.668,2.628,12.0
99.324,7.68,2.068,9.0
99.151,7.69,1.509,8.0
98.897,7.695,0.941,8.0
45.946,3.587,0.18,17.0
45.359,3.553,-0.075,19.0
98.478,7.766,2.56,8.0
45.938,3.633,0.937,5.0
45.913,3.642,0.678,35.0
45.861,3.649,0.416,41.0
45.793,3.655,0.159,33.0
45.264,3.624,-0.095,24.0
45.834,3.694,1.171,41.0
45.824,3.704,0.913,40.0
45.807,3.714,0.656,45.0
45.771,3.722,0.394,39.0
45.739,3.73,0.137,28.0
45.128,3.692,-0.117,25.0
45.786,3.77,1.147,43.0
45.774,3.779,0.89,42.0
45.765,3.79,0.632,36.0
45.751,3.799,0.371,35.0
45.679,3.804,0.114,16.0
45.056,3.763,-0.14,23.0
45.784,3.848,1.123,38.0
45.78,3.858,0.866,36.0
45.765,3.867,0.608,36.0
45.75,3.877,0.346,22.0
45.675,3.882,0.089,18.0
44.856,3.822,-0.164,19.0
45.824,3.929,1.099,21.0
45.826,3.939,0.841,20.0
45.817,3.948,0.583,20.0
45.808,3.958,0.321,18.0
45.68,3.957,0.063,13.0
44.46,3.862,-0.188,19.0
93.143,8.142,2.18,54.0
93.167,8.163,1.655,40.0
93.272,8.193,1.132,16.0
93.197,8.207,0.597,15.0
45.697,4.034,0.035,13.0
43.778,3.875,-0.212,19.0
92.96,8.277,2.118,5.0
92.685,8.271,1.589,10.0
92.551,8.279,1.065,11.0
92.408,8.287,0.533,10.0
45.697,4.108,0.006,36.0
43.101,3.884,-0.237,18.0
91.985,8.337,2.036,6.0
91.841,8.342,1.515,10.0
91.747,8.353,0.995,10.0
91.62,8.361,0.468,11.0
45.63,4.174,-0.024,15.0
0.0,0.0,0.0,0.0
91.27,8.414,1.959,9.0
91.084,8.416,1.44,10.0
90.985,8.426,0.925,10.0
90.758,8.423,0.401,11.0
45.53,4.235,-0.055,12.0
0.0,0.0,0.0,0.0
90.477,8.481,1.878,12.0
90.336,8.484,1.364,10.0
90.207,8.491,0.852,11.0
89.975,8.487,0.333,7.0
45.439,4.295,-0.088,19.0
40.415,3.829,-0.307,16.0
89.749,8.547,1.797,11.0
89.65,8.554,1.288,11.0
89.464,8.553,0.78,11.0
89.343,8.56,0.264,7.0
45.083,4.328,-0.121,19.0
39.996,3.848,-0.334,15.0
89.044,8.61,1.715,11.0
88.919,8.614,1.21,12.0
88.797,8.619,0.705,10.0
88.58,8.616,0.193,9.0
0.0,0.0,0.0,0.0
39.717,3.878,-0.363,15.0
88.386,8.673,1.633,10.0
88.244,8.675,1.13,11.0
88.13,8.681,0.629,11.0
86.576,8.544,0.118,11.0
43.695,4.32,-0.187,17.0
39.379,3.901,-0.391,14.0
87.712,8.731,1.548,12.0
87.584,8.735,1.049,11.0
87.471,8.738,0.551,12.0
86.022,8.609,0.046,2.0
43.012,4.312,-0.22,17.0
39.2,3.938,-0.423,7.0
87.078,8.787,1.464,12.0
86.981,8.792,0.969,11.0
86.857,8.795,0.475,11.0
86.361,8.759,-0.026,4.0
0.0,0.0,0.0,0.0
39.122,3.982,-0.455,7.0
86.512,8.845,1.379,12.0
86.352,8.843,0.886,11.0
86.244,8.847,0.395,10.0
69.819,7.174,-0.082,5.0
40.426,4.16,-0.277,15.0
39.062,4.027,-0.489,8.0
85.869,8.89,1.293,11.0
85.782,8.895,0.804,11.0
85.668,8.897,0.316,11.0
52.204,5.43,-0.108,4.0
39.967,4.164,-0.31,26.0
39.016,4.072,-0.525,8.0
85.201,8.928,1.205,11.0
84.224,8.838,0.712,28.0
84.195,8.849,0.233,27.0
45.616,4.801,-0.137,4.0
39.599,4.175,-0.344,24.0
38.977,4.116,-0.56,2.0
84.18,8.924,1.111,93.0
84.172,8.936,0.632,99.0
84.195,8.951,0.154,26.0
45.643,4.859,-0.18,8.0
39.322,4.193,-0.379,14.0
38.901,4.154,-0.596,0.0
84.306,9.037,1.032,14.0
84.235,9.042,0.552,14.0
80.853,8.69,0.069,3.0
42.69,4.595,-0.21,17.0
39.044,4.208,-0.414,13.0
32.541,3.512,-0.531,0.0
83.82,9.08,0.944,6.0
83.724,9.081,0.466,7.0
80.473,8.74,-0.009,10.0
40.979,4.456,-0.242,16.0
38.875,4.233,-0.451,9.0
31.989,3.489,-0.553,1.0
83.365,9.122,0.856,6.0
79.927,8.756,0.366,9.0
65.713,7.208,-0.073,7.0
40.351,4.432,-0.279,16.0
38.839,4.271,-0.49,9.0
31.395,3.457,-0.575,1.0
82.928,9.162,0.768,9.0
81.245,8.986,0.289,7.0
65.8,7.286,-0.14,6.0
39.89,4.423,-0.316,32.0
38.763,4.303,-0.529,8.0
30.806,3.424,-0.596,1.0
82.526,9.201,0.679,10.0
80.893,9.028,0.204,14.0
45.557,5.09,-0.144,4.0
39.419,4.41,-0.354,23.0
38.732,4.338,-0.568,6.0
29.373,3.294,-0.599,0.0
82.121,9.236,0.59,10.0
80.105,9.019,0.118,12.0
0.0,0.0,0.0,0.0
39.035,4.404,-0.392,14.0
0.0,0.0,0.0,0.0
28.696,3.245,-0.616,1.0
81.747,9.27,0.499,7.0
80.23,9.107,0.033,8.0
0.0,0.0,0.0,0.0
38.775,4.41,-0.431,11.0
32.663,3.719,-0.55,0.0
27.772,3.166,-0.626,1.0
81.396,9.303,0.41,11.0
67.214,7.689,-0.044,4.0
40.506,4.638,-0.258,16.0
38.686,4.434,-0.471,10.0
31.563,3.621,-0.565,1.0
26.969,3.098,-0.637,0.0
67.735,7.799,0.267,13.0
64.37,7.417,-0.114,8.0
39.966,4.609,-0.298,22.0
38.665,4.464,-0.514,11.0
30.544,3.53,-0.58,1.0
26.324,3.045,-0.651,1.0
66.371,7.695,0.188,48.0
66.342,7.698,-0.191,22.0
39.609,4.6,-0.34,34.0
38.64,4.491,-0.556,5.0
30.049,3.496,-0.605,1.0
25.595,2.98,-0.661,0.0
66.35,7.742,0.114,70.0
45.511,5.315,-0.181,7.0
39.248,4.587,-0.381,15.0
38.593,4.514,-0.599,0.0
28.725,3.363,-0.61,0.0
24.983,2.928,-0.674,0.0
66.356,7.79,0.039,38.0
42.012,4.936,-0.215,18.0
38.803,4.562,-0.42,13.0
32.773,3.856,-0.546,0.0
27.753,3.268,-0.621,0.0
24.327,2.867,-0.684,0.0
66.499,7.852,-0.036,7.0
40.618,4.799,-0.254,16.0
38.589,4.563,-0.462,8.0
30.897,3.656,-0.55,0.0
27.123,3.212,-0.638,1.0
23.569,2.793,-0.69,0.0
66.115,7.848,-0.112,6.0
39.971,4.747,-0.296,24.0
38.574,4.585,-0.507,9.0
30.292,3.603,-0.575,8.0
26.341,3.135,-0.651,0.0
22.976,2.737,-0.699,0.0
45.7,5.451,-0.131,8.0
39.428,4.706,-0.338,28.0
38.566,4.606,-0.552,6.0
30.061,3.592,-0.605,8.0
25.584,3.059,-0.661,0.0
22.41,2.682,-0.708,0.0
45.394,5.439,-0.182,9.0
39.062,4.683,-0.38,14.0
38.543,4.623,-0.596,0.0
29.706,3.565,-0.633,1.0
24.943,2.995,-0.674,0.0
21.852,2.626,-0.716,0.0
0.0,0.0,0.0,0.0
38.668,4.654,-0.422,12.0
30.076,3.622,-0.5,0.0
27.588,3.324,-0.619,0.0
24.218,2.92,-0.683,0.0
21.331,2.573,-0.724,0.0
40.575,4.899,-0.258,16.0
38.534,4.655,-0.465,8.0
30.043,3.631,-0.535,9.0
26.838,3.245,-0.634,1.0
23.523,2.846,-0.691,0.0
20.632,2.498,-0.724,0.0
39.876,4.831,-0.3,23.0
38.53,4.669,-0.511,9.0
29.944,3.63,-0.568,15.0
26.191,3.177,-0.65,1.0
22.914,2.781,-0.7,0.0
20.378,2.474,-0.74,0.0
39.358,4.782,-0.343,27.0
38.519,4.681,-0.556,4.0
29.83,3.627,-0.602,7.0
25.478,3.099,-0.663,0.0
22.332,2.717,-0.709,0.0
19.817,2.413,-0.743,0.0
38.949,4.744,-0.385,15.0
29.996,3.654,-0.469,2.0
29.582,3.605,-0.632,0.0
24.761,3.019,-0.673,0.0
21.584,2.632,-0.711,0.0
19.375,2.364,-0.749,0.0
38.578,4.708,-0.427,9.0
29.939,3.655,-0.503,2.0
27.503,3.358,-0.62,0.0
24.037,2.936,-0.682,0.0
21.089,2.577,-0.719,0.0
18.91,2.312,-0.754,0.0
38.524,4.71,-0.472,8.0
29.906,3.657,-0.538,2.0
26.665,3.261,-0.632,0.0
23.288,2.849,-0.688,0.0
20.727,2.537,-0.732,0.0
18.532,2.269,-0.76,0.0
38.519,4.716,-0.517,6.0
29.825,3.652,-0.572,4.0
25.968,3.18,-0.647,1.0
22.893,2.804,-0.704,0.0
20.162,2.471,-0.735,0.0
18.125,2.222,-0.765,0.0
29.99,3.675,-0.438,3.0
29.665,3.636,-0.603,3.0
25.433,3.117,-0.663,0.0
22.089,2.708,-0.705,0.0
19.735,2.42,-0.743,0.0
17.767,2.179,-0.771,0.0
29.898,3.666,-0.472,3.0
28.597,3.507,-0.615,1.0
24.604,3.017,-0.67,0.0
21.597,2.649,-0.715,0.0
19.244,2.361,-0.747,0.0
17.481,2.145,-0.779,0.0
29.852,3.661,-0.506,2.0
27.343,3.353,-0.62,0.0
23.908,2.932,-0.679,0.0
21.012,2.577,-0.72,0.0
18.818,2.309,-0.753,0.0
17.064,2.094,-0.78,0.0
29.86,3.661,-0.54,2.0
26.56,3.256,-0.633,1.0
23.301,2.857,-0.689,0.0
20.542,2.519,-0.727,0.0
18.422,2.259,-0.758,0.0
16.796,2.06,-0.788,0.0
29.805,3.652,-0.574,4.0
25.935,3.178,-0.648,1.0
22.76,2.789,-0.699,0.0
20.111,2.464,-0.735,0.0
18.125,2.221,-0.766,0.0
16.491,2.021,-0.792,0.0
29.662,3.631,-0.605,3.0
25.267,3.093,-0.66,0.0
22.162,2.713,-0.706,0.0
19.576,2.396,-0.738,0.0
17.762,2.174,-0.771,0.0
16.234,1.987,-0.798,0.0
29.651,3.625,-0.638,0.0
24.589,3.006,-0.67,0.0
21.569,2.636,-0.711,0.0
19.282,2.357,-0.749,0.0
17.358,2.122,-0.773,0.0
15.873,1.94,-0.798,0.0
27.313,3.334,-0.618,0.0
24.022,2.932,-0.681,0.0
21.075,2.572,-0.718,0.0
18.795,2.293,-0.75,0.0
17.114,2.088,-0.782,0.0
15.639,1.908,-0.804,0.0
26.578,3.238,-0.631,1.0
23.369,2.846,-0.689,0.0
20.595,2.508,-0.725,0.0
18.431,2.244,-0.756,0.0
16.822,2.048,-0.787,0.0
15.386,1.873,-0.808,0.0
26.022,3.162,-0.646,1.0
22.8,2.77,-0.697,0.0
20.325,2.469,-0.738,0.0
18.075,2.195,-0.761,0.0
16.461,1.999,-0.788,0.0
15.192,1.844,-0.814,0.0
25.261,3.061,-0.655,0.0
22.176,2.686,-0.702,0.0
19.68,2.383,-0.736,0.0
17.819,2.157,-0.77,0.0
16.254,1.968,-0.796,0.0
14.94,1.808,-0.817,0.0
24.768,2.992,-0.669,0.0
21.703,2.621,-0.71,0.0
19.416,2.344,-0.746,0.0
17.463,2.107,-0.773,0.0
16.023,1.933,-0.801,0.0
14.716,1.775,-0.82,0.0
24.139,2.906,-0.677,0.0
21.155,2.545,-0.714,0.0
18.924,2.276,-0.747,0.0
17.124,2.059,-0.776,0.0
15.665,1.883,-0.8,0.0
14.481,1.74,-0.822,0.0
23.418,2.808,-0.681,0.0
20.753,2.487,-0.722,0.0
18.56,2.223,-0.752,0.0
16.935,2.028,-0.785,0.0
15.423,1.846,-0.803,0.0
14.328,1.715,-0.828,0.0
22.987,2.744,-0.692,0.0
20.338,2.427,-0.728,0.0
18.274,2.18,-0.759,0.0
16.639,1.984,-0.788,0.0
15.259,1.819,-0.81,0.0
14.117,1.682,-0.83,0.0
22.457,2.669,-0.698,0.0
19.951,2.37,-0.734,0.0
17.943,2.13,-0.763,0.0
16.352,1.94,-0.79,0.0
15.063,1.787,-0.815,0.0
13.951,1.654,-0.834,0.0
21.843,2.582,-0.7,0.0
19.551,2.31,-0.739,0.0
17.621,2.081,-0.766,0.0
16.138,1.905,-0.796,0.0
14.845,1.751,-0.817,0.0
13.789,1.626,-0.838,0.0
21.466,2.524,-0.709,0.0
19.293,2.267,-0.747,0.0
17.398,2.043,-0.773,0.0
15.902,1.867,-0.799,0.0
14.676,1.722,-0.822,0.0
13.614,1.597,-0.84,0.0
21.117,2.469,-0.717,0.0
18.891,2.207,-0.749,0.0
17.049,1.991,-0.774,0.0
15.676,1.829,-0.803,0.0
14.47,1.687,-0.824,0.0
13.445,1.567,-0.843,0.0
20.662,2.401,-0.72,0.0
18.571,2.156,-0.753,0.0
16.889,1.96,-0.782,0.0
15.465,1.793,-0.806,0.0
14.286,1.656,-0.826,0.0
13.295,1.54,-0.845,0.0
20.251,2.338,-0.724,0.0
18.202,2.1,-0.755,0.0
16.663,1.921,-0.786,0.0
15.286,1.761,-0.81,0.0
14.096,1.623,-0.828,0.0
13.145,1.512,-0.847,0.0
20.012,2.294,-0.733,0.0
18.041,2.066,-0.764,0.0
16.389,1.876,-0.787,0.0
15.098,1.727,-0.813,0.0
14.005,1.601,-0.834,0.0
13.0,1.485,-0.849,0.0
19.664,2.238,-0.737,0.0
17.77,2.02,-0.767,0.0
16.189,1.839,-0.791,0.0
14.877,1.689,-0.813,0.0
13.829,1.569,-0.835,0.0
12.912,1.464,-0.853,0.0
19.446,2.196,-0.745,0.0
17.614,1.987,-0.775,0.0
16.025,1.806,-0.796,0.0
14.696,1.655,-0.815,0.0
13.71,1.543,-0.839,0.0
12.772,1.436,-0.855,0.0
19.082,2.137,-0.746,0.0
17.228,1.928,-0.771,0.0
15.793,1.766,-0.797,0.0
14.58,1.629,-0.82,0.0
13.584,1.516,-0.842,0.0
12.547,1.399,-0.849,0.0
18.758,2.083,-0.747,0.0
17.105,1.898,-0.779,0.0
15.606,1.73,-0.799,0.0
14.385,1.593,-0.82,0.0
13.432,1.486,-0.842,0.0
12.463,1.377,-0.853,0.0
18.437,2.029,-0.748,0.0
16.927,1.861,-0.783,0.0
15.445,1.696,-0.802,0.0
14.298,1.569,-0.826,0.0
13.308,1.459,-0.844,0.0
12.374,1.355,-0.856,0.0
18.302,1.996,-0.755,0.0
16.717,1.821,-0.785,0.0
15.328,1.668,-0.807,0.0
14.151,1.538,-0.827,0.0
13.19,1.432,-0.846,0.0
12.23,1.327,-0.854,0.0
18.093,1.954,-0.759,0.0
16.526,1.783,-0.787,0.0
15.17,1.634,-0.809,0.0
13.985,1.505,-0.826,0.0
13.195,1.418,-0.855,0.0
12.19,1.309,-0.859,0.0
17.855,1.909,-0.761,0.0
16.45,1.756,-0.794,0.0
15.057,1.606,-0.812,0.0
13.899,1.48,-0.83,0.0
12.916,1.374,-0.845,0.0
11.911,1.266,-0.847,0.0
17.747,1.877,-0.767,0.0
16.228,1.714,-0.793,0.0
14.957,1.578,-0.816,0.0
13.831,1.457,-0.834,0.0
12.887,1.356,-0.851,0.0
11.889,1.25,-0.853,0.0
17.589,1.84,-0.77,0.0
16.123,1.684,-0.797,0.0
14.786,1.543,-0.815,0.0
13.736,1.431,-0.837,0.0
12.778,1.33,-0.851,0.0
11.838,1.23,-0.855,0.0
17.465,1.806,-0.774,0.0
15.966,1.649,-0.798,0.0
14.689,1.515,-0.818,0.0
13.622,1.403,-0.837,0.0
12.583,1.294,-0.844,0.0
11.778,1.21,-0.857,0.0
17.252,1.763,-0.774,0.0
15.881,1.621,-0.802,0.0
14.578,1.485,-0.819,0.0
13.551,1.379,-0.839,0.0
12.581,1.278,-0.851,0.0
11.735,1.191,-0.86,0.0
17.191,1.736,-0.779,0.0
15.676,1.58,-0.799,0.0
14.515,1.461,-0.822,0.0
13.54,1.361,-0.845,0.0
12.521,1.256,-0.852,0.0
11.696,1.172,-0.862,0.0
16.987,1.694,-0.778,0.0
15.615,1.554,-0.803,0.0
14.428,1.434,-0.823,0.0
13.391,1.329,-0.841,0.0
12.443,1.233,-0.852,0.0
11.638,1.151,-0.863,0.0
16.951,1.668,-0.783,0.0
15.49,1.522,-0.803,0.0
14.359,1.408,-0.825,0.0
13.268,1.299,-0.839,0.0
12.341,1.206,-0.85,0.0
11.541,1.126,-0.86,0.0
16.757,1.627,-0.78,0.0
15.457,1.498,-0.807,0.0
14.258,1.379,-0.825,0.0
13.309,1.285,-0.846,0.0
12.306,1.186,-0.852,0.0
11.461,1.103,-0.858,0.0
16.708,1.599,-0.784,0.0
15.374,1.469,-0.808,0.0
14.2,1.354,-0.826,0.0
13.287,1.265,-0.849,0.0
12.278,1.167,-0.854,0.0
11.423,1.083,-0.859,0.0
16.652,1.571,-0.786,0.0
15.317,1.442,-0.809,0.0
14.208,1.335,-0.831,0.0
13.275,1.245,-0.852,0.0
12.205,1.142,-0.852,0.0
11.397,1.065,-0.86,0.0
16.523,1.535,-0.784,0.0
15.261,1.415,-0.81,0.0
14.122,1.307,-0.829,0.0
13.108,1.211,-0.845,0.0
12.25,1.129,-0.858,0.0
11.371,1.046,-0.861,0.0
16.532,1.512,-0.789,0.0
15.204,1.388,-0.81,0.0
14.082,1.283,-0.83,0.0
13.097,1.191,-0.847,0.0
12.216,1.108,-0.858,0.0
11.336,1.027,-0.861,0.0
16.421,1.478,-0.786,0.0
15.098,1.356,-0.808,0.0
14.074,1.262,-0.832,0.0
13.058,1.168,-0.846,0.0
12.156,1.085,-0.856,0.0
11.294,1.006,-0.859,0.0
16.464,1.458,-0.791,0.0
15.121,1.336,-0.811,0.0
14.013,1.235,-0.83,0.0
12.891,1.134,-0.837,0.0
12.12,1.064,-0.855,0.0
11.294,0.989,-0.86,0.0
16.398,1.427,-0.789,0.0
15.043,1.306,-0.808,0.0
14.053,1.218,-0.834,0.0
13.012,1.125,-0.846,0.0
12.031,1.038,-0.85,0.0
11.302,0.973,-0.862,0.0
16.367,1.4,-0.789,0.0
15.091,1.288,-0.812,0.0
14.118,1.202,-0.839,0.0
12.973,1.102,-0.844,0.0
12.078,1.023,-0.854,0.0
11.291,0.954,-0.861,0.0
16.362,1.374,-0.79,0.0
15.046,1.26,-0.81,0.0
13.922,1.163,-0.827,0.0
13.089,1.091,-0.852,0.0
12.121,1.008,-0.857,0.0
11.293,0.937,-0.862,0.0
16.397,1.352,-0.791,0.0
15.094,1.241,-0.812,0.0
13.939,1.143,-0.828,0.0
13.072,1.069,-0.851,0.0
12.072,0.985,-0.853,0.0
11.323,0.922,-0.863,0.0
16.38,1.325,-0.789,0.0
15.144,1.221,-0.814,0.0
14.01,1.127,-0.831,0.0
13.054,1.047,-0.848,0.0
12.087,0.967,-0.853,0.0
11.308,0.902,-0.861,0.0
16.376,1.298,-0.788,0.0
15.135,1.197,-0.812,0.0
14.003,1.104,-0.829,0.0
13.071,1.028,-0.848,0.0
12.021,0.943,-0.847,0.0
11.31,0.885,-0.86,0.0
16.449,1.278,-0.789,0.0
15.129,1.172,-0.81,0.0
14.04,1.085,-0.829,0.0
13.013,1.002,-0.842,0.0
12.101,0.93,-0.851,0.0
11.336,0.868,-0.86,0.0
16.505,1.256,-0.789,0.0
15.194,1.153,-0.81,0.0
14.066,1.064,-0.828,0.0
13.056,0.985,-0.843,0.0
12.161,0.914,-0.852,0.0
11.378,0.853,-0.861,0.0
16.504,1.229,-0.785,0.0
15.191,1.128,-0.807,0.0
14.076,1.042,-0.826,0.0
13.15,0.97,-0.846,0.0
12.229,0.9,-0.854,0.0
11.393,0.835,-0.859,0.0
16.608,1.21,-0.786,0.0
15.231,1.106,-0.805,0.0
14.164,1.025,-0.827,0.0
13.169,0.95,-0.843,0.0
12.281,0.883,-0.854,0.0
11.422,0.819,-0.858,0.0
16.751,1.193,-0.788,0.0
15.336,1.088,-0.806,0.0
14.207,1.005,-0.825,0.0
13.26,0.935,-0.845,0.0
12.335,0.867,-0.854,0.0
11.465,0.803,-0.857,0.0
16.837,1.171,-0.786,0.0
15.346,1.064,-0.801,0.0
14.275,0.986,-0.824,0.0
13.319,0.917,-0.844,0.0
12.4,0.851,-0.854,0.0
11.534,0.788,-0.858,0.0
16.928,1.149,-0.784,0.0
15.467,1.046,-0.801,0.0
14.355,0.968,-0.823,0.0
13.352,0.897,-0.84,0.0
12.407,0.83,-0.849,0.0
11.586,0.773,-0.857,0.0
16.98,1.125,-0.779,0.0
15.577,1.028,-0.8,0.0
14.469,0.951,-0.823,0.0
13.413,0.879,-0.838,0.0
12.5,0.816,-0.85,0.0
11.637,0.757,-0.855,0.0
17.115,1.105,-0.777,0.0
15.679,1.008,-0.798,0.0
14.487,0.928,-0.817,0.0
13.603,0.868,-0.843,0.0
12.503,0.795,-0.844,0.0
11.715,0.742,-0.855,0.0
17.245,1.084,-0.775,0.0
15.821,0.991,-0.797,0.0
14.639,0.913,-0.818,0.0
13.676,0.85,-0.841,0.0
12.694,0.786,-0.85,0.0
11.798,0.728,-0.855,0.0
17.486,1.07,-0.776,0.0
16.058,0.979,-0.8,0.0
14.672,0.891,-0.811,0.0
13.735,0.83,-0.836,0.0
12.874,0.775,-0.854,0.0
11.833,0.709,-0.85,0.0
17.621,1.049,-0.771,0.0
16.175,0.959,-0.796,0.0
14.953,0.882,-0.818,0.0
13.78,0.81,-0.831,0.0
12.965,0.759,-0.852,0.0
11.962,0.697,-0.852,0.0
17.811,1.03,-0.768,0.0
16.253,0.936,-0.79,0.0
15.052,0.863,-0.814,0.0
13.963,0.797,-0.833,0.0
12.994,0.739,-0.846,0.0
12.062,0.683,-0.851,0.0
18.018,1.012,-0.765,0.0
16.494,0.922,-0.79,0.0
15.21,0.847,-0.812,0.0
14.115,0.782,-0.832,0.0
13.165,0.726,-0.848,0.0
12.256,0.673,-0.856,0.0
18.188,0.991,-0.76,0.0
16.722,0.907,-0.789,0.0
15.368,0.829,-0.809,0.0
14.25,0.765,-0.829,0.0
13.222,0.707,-0.841,0.0
12.327,0.656,-0.852,0.0
18.461,0.975,-0.757,0.0
16.888,0.887,-0.784,0.0
15.42,0.806,-0.8,0.0
14.395,0.749,-0.826,0.0
13.394,0.694,-0.842,0.0
12.454,0.642,-0.851,0.0
18.819,0.962,-0.757,0.0
17.09,0.869,-0.78,0.0
15.598,0.79,-0.796,0.0
14.523,0.731,-0.822,0.0
13.607,0.682,-0.844,0.0
12.621,0.629,-0.851,0.0
19.099,0.945,-0.752,0.0
17.391,0.856,-0.779,0.0
15.993,0.783,-0.803,0.0
14.634,0.712,-0.815,0.0
13.758,0.666,-0.841,0.0
12.798,0.616,-0.852,0.0
19.296,0.922,-0.743,0.0
17.531,0.833,-0.77,0.0
16.148,0.763,-0.796,0.0
14.906,0.701,-0.817,0.0
13.852,0.648,-0.834,0.0
12.958,0.603,-0.851,0.0
19.697,0.909,-0.74,0.0
17.882,0.82,-0.769,0.0
16.388,0.748,-0.793,0.0
15.126,0.686,-0.815,0.0
14.171,0.639,-0.84,0.0
13.114,0.588,-0.848,0.0
20.192,0.898,-0.739,0.0
18.033,0.797,-0.758,0.0
16.679,0.733,-0.791,0.0
15.364,0.671,-0.813,0.0
14.304,0.621,-0.834,0.0
13.364,0.577,-0.851,0.0
20.444,0.876,-0.728,0.0
18.376,0.782,-0.753,0.0
16.925,0.716,-0.785,0.0
15.578,0.655,-0.808,0.0
14.448,0.604,-0.827,0.0
13.512,0.561,-0.847,0.0
21.013,0.866,-0.727,0.0
18.921,0.775,-0.756,0.0
17.18,0.699,-0.779,0.0
15.84,0.64,-0.805,0.0
14.753,0.593,-0.829,0.0
13.695,0.547,-0.843,0.0
21.517,0.852,-0.721,0.0
19.204,0.755,-0.747,0.0
17.454,0.682,-0.772,0.0
16.016,0.621,-0.796,0.0
14.799,0.571,-0.815,0.0
13.863,0.531,-0.838,0.0
21.924,0.833,-0.711,0.0
19.643,0.741,-0.742,0.0
17.865,0.669,-0.77,0.0
16.358,0.609,-0.795,0.0
15.1,0.558,-0.815,0.0
14.117,0.518,-0.838,0.0
22.476,0.818,-0.703,0.0
20.005,0.723,-0.733,0.0
18.212,0.653,-0.764,0.0
16.657,0.593,-0.79,0.0
15.367,0.543,-0.811,0.0
14.335,0.503,-0.833,0.0
0.0,0.0,0.0,0.0
20.465,0.707,-0.725,0.0
18.522,0.635,-0.755,0.0
17.079,0.581,-0.789,0.0
15.61,0.527,-0.805,0.0
14.535,0.487,-0.827,0.0
23.753,0.789,-0.686,0.0
21.246,0.7,-0.727,0.0
19.029,0.623,-0.752,0.0
17.285,0.561,-0.777,0.0
15.836,0.51,-0.797,0.0
14.793,0.473,-0.823,0.0
24.579,0.778,-0.679,0.0
21.849,0.686,-0.72,0.0
19.646,0.612,-0.752,0.0
17.785,0.55,-0.777,0.0
16.278,0.499,-0.798,0.0
15.069,0.458,-0.819,0.0
25.153,0.758,-0.662,0.0
22.402,0.669,-0.709,0.0
20.092,0.595,-0.742,0.0
18.17,0.534,-0.77,0.0
16.595,0.483,-0.791,0.0
15.313,0.442,-0.812,0.0
26.222,0.75,-0.655,0.0
23.022,0.653,-0.698,0.0
20.537,0.577,-0.731,0.0
18.74,0.522,-0.769,0.0
17.015,0.47,-0.788,0.0
15.774,0.432,-0.815,0.0
26.927,0.73,-0.637,0.0
23.702,0.637,-0.686,0.0
21.152,0.563,-0.724,0.0
19.038,0.502,-0.755,0.0
17.519,0.457,-0.787,0.0
16.008,0.414,-0.805,0.0
28.435,0.728,-0.632,0.0
24.837,0.63,-0.684,0.0
21.794,0.548,-0.715,0.0
19.596,0.487,-0.749,0.0
17.775,0.438,-0.773,0.0
16.385,0.4,-0.8,0.0
29.207,0.705,-0.608,0.0
25.506,0.61,-0.665,0.0
22.436,0.531,-0.704,0.0
20.08,0.47,-0.738,0.0
18.323,0.425,-0.771,0.0
16.837,0.386,-0.797,0.0
30.534,0.693,-0.591,0.0
26.439,0.594,-0.651,0.0
23.422,0.52,-0.7,0.0
20.671,0.454,-0.729,0.0
18.779,0.408,-0.761,0.0
17.179,0.369,-0.787,0.0
0.0,0.0,0.0,0.0
27.566,0.58,-0.637,0.0
24.231,0.504,-0.688,0.0
21.177,0.435,-0.715,0.0
19.337,0.393,-0.755,0.0
17.668,0.355,-0.783,0.0
0.0,0.0,0.0,0.0
0.0,0.0,0.0,0.0
25.09,0.486,-0.673,0.0
22.424,0.43,-0.722,0.0
19.913,0.377,-0.746,0.0
17.998,0.336,-0.769,0.0
35.369,0.653,-0.522,0.0
29.873,0.545,-0.598,0.0
26.241,0.473,-0.663,0.0
22.975,0.408,-0.704,0.0
20.409,0.358,-0.732,0.0
18.572,0.322,-0.764,0.0
36.812,0.63,-0.484,0.0
31.07,0.525,-0.572,0.0
0.0,0.0,0.0,0.0
23.682,0.389,-0.687,0.0
21.39,0.347,-0.733,0.0
19.216,0.307,-0.759,0.0
41.727,0.658,-0.482,0.0
33.496,0.521,-0.562,0.0
0.0,0.0,0.0,0.0
24.93,0.377,-0.682,0.0
22.136,0.329,-0.722,0.0
19.683,0.288,-0.745,0.0
43.99,0.636,-0.435,2.0
35.626,0.507,-0.539,0.0
30.047,0.421,-0.612,0.0
26.118,0.36,-0.671,0.0
22.877,0.311,-0.708,0.0
20.406,0.273,-0.738,0.0
0.0,0.0,0.0,0.0
0.0,0.0,0.0,0.0
31.263,0.399,-0.584,0.0
26.92,0.338,-0.647,0.0
23.47,0.289,-0.687,0.0
21.071,0.255,-0.727,0.0
0.0,0.0,0.0,0.0
41.052,0.481,-0.482,1.0
33.068,0.38,-0.561,0.0
28.329,0.32,-0.632,0.0
24.992,0.277,-0.688,0.0
22.143,0.241,-0.725,0.0
0.0,0.0,0.0,0.0
42.964,0.451,-0.431,0.0
0.0,0.0,0.0,0.0
29.726,0.3,-0.611,0.0
26.2,0.259,-0.676,0.0
22.625,0.219,-0.701,0.0
0.0,0.0,0.0,0.0
46.581,0.433,-0.385,0.0
38.197,0.347,-0.515,0.0
31.454,0.28,-0.591,0.0
27.088,0.235,-0.65,0.0
23.692,0.201,-0.692,0.0
0.0,0.0,0.0,0.0
0.0,0.0,0.0,0.0
42.874,0.34,-0.501,0.0
33.404,0.258,-0.568,0.0
28.505,0.215,-0.633,0.0
24.783,0.182,-0.68,0.0
85.846,0.617,0.043,1.0
0.0,0.0,0.0,0.0
42.785,0.291,-0.423,0.0
0.0,0.0,0.0,0.0
30.515,0.196,-0.622,0.0
26.245,0.164,-0.672,0.0
87.484,0.531,0.204,5.0
0.0,0.0,0.0,0.0
45.758,0.261,-0.369,0.0
0.0,0.0,0.0,0.0
0.0,0.0,0.0,0.0
27.39,0.141,-0.651,0.0
90.811,0.453,0.379,2.0
0.0,0.0,0.0,0.0
0.0,0.0,0.0,0.0
42.928,0.191,-0.494,0.0
33.324,0.142,-0.556,0.0
28.731,0.118,-0.629,0.0
104.252,0.411,0.628,7.0
0.0,0.0,0.0,0.0
0.0,0.0,0.0,0.0
44.727,0.152,-0.43,0.0
37.46,0.121,-0.555,0.0
30.666,0.094,-0.613,0.0
111.0,0.324,0.88,15.0
92.735,0.255,0.253,2.0
0.0,0.0,0.0,0.0
49.863,0.12,-0.385,0.0
0.0,0.0,0.0,0.0
31.746,0.066,-0.574,0.0
111.186,0.215,1.092,17.0
103.288,0.182,0.48,2.0
0.0,0.0,0.0,0.0
0.0,0.0,0.0,0.0
42.905,0.055,-0.471,0.0
0.0,0.0,0.0,0.0
111.116,0.108,1.307,19.0
110.729,0.09,0.729,9.0
0.0,0.0,0.0,0.0
0.0,0.0,0.0,0.0
45.256,0.016,-0.409,2.0
37.382,0.007,-0.531,0.0
111.117,0.006,1.521,13.0
117.279,-0.011,0.999,10.0
0.0,0.0,0.0,0.0
0.0,0.0,0.0,0.0
48.539,-0.025,-0.344,0.0
39.949,-0.027,-0.49,0.0
112.877,-0.093,1.765,12.0
117.441,-0.113,1.229,16.0
110.572,-0.123,0.586,7.0
0.0,0.0,0.0,0.0
0.0,0.0,0.0,0.0
45.25,-0.069,-0.466,0.0
113.889,-0.191,2.006,7.0
119.732,-0.217,1.49,8.0
114.478,-0.223,0.833,108.0
0.0,0.0,0.0,0.0
0.0,0.0,0.0,0.0
45.634,-0.107,-0.38,0.0
114.74,-0.286,2.248,13.0
113.314,-0.297,1.635,7.0
119.716,-0.33,1.11,16.0
102.646,-0.296,0.411,3.0
75.045,-0.226,-0.087,0.0
0.0,0.0,0.0,0.0
193.766,-0.636,4.184,14.0
114.399,-0.389,1.879,13.0
119.693,-0.422,1.347,17.0
111.092,-0.405,0.666,6.0
0.0,0.0,0.0,0.0
0.0,0.0,0.0,0.0
119.819,-0.482,2.826,68.0
115.147,-0.476,2.121,2.0
114.09,-0.486,1.513,5.0
119.697,-0.523,0.958,12.0
95.211,-0.426,0.27,1.0
0.0,0.0,0.0,0.0
119.77,-0.567,3.067,26.0
119.811,-0.581,2.45,61.0
114.639,-0.568,1.752,8.0
119.709,-0.606,1.201,16.0
110.823,-0.573,0.54,3.0
0.0,0.0,0.0,0.0
0.0,0.0,0.0,0.0
195.025,-1.077,4.388,25.0
194.121,-1.092,3.368,6.0
119.717,-0.685,1.447,16.0
114.224,-0.665,0.79,8.0
0.0,0.0,0.0,0.0
206.25,-1.249,6.125,5.0
119.775,-0.736,2.937,34.0
119.819,-0.748,2.321,53.0
115.342,-0.731,1.629,2.0
119.71,-0.771,1.075,17.0
0.0,0.0,0.0,0.0
215.356,-1.435,6.84,10.0
119.756,-0.809,3.187,13.0
194.293,-1.33,4.168,24.0
194.279,-1.345,3.144,8.0
119.7,-0.839,1.321,20.0
113.918,-0.809,0.67,6.0
0.0,0.0,0.0,0.0
119.721,-0.875,3.431,27.0
119.742,-0.885,2.814,59.0
119.743,-0.895,2.186,52.0
119.701,-0.903,1.567,12.0
119.737,-0.913,0.952,13.0
190.56,-1.478,6.837,30.0
0.0,0.0,0.0,0.0
119.726,-0.946,3.061,121.0
119.734,-0.955,2.432,89.0
119.744,-0.964,1.816,90.0
119.703,-0.972,1.198,19.0
190.532,-1.572,7.23,44.0
214.86,-1.787,7.047,15.0
119.701,-1.004,3.309,54.0
119.718,-1.011,2.679,79.0
119.742,-1.019,2.066,86.0
119.708,-1.027,1.448,33.0
189.906,-1.654,7.604,37.0
190.535,-1.67,6.644,18.0
210.735,-1.86,6.264,11.0
119.72,-1.063,2.929,137.0
119.734,-1.07,2.314,150.0
119.741,-1.077,1.697,150.0
104.384,-0.952,4.395,7.0
190.533,-1.748,7.044,44.0
210.676,-1.943,6.699,9.0
119.715,-1.11,3.179,150.0
119.738,-1.116,2.562,150.0
119.75,-1.123,1.945,151.0
80.772,-0.767,3.569,13.0
189.986,-1.813,7.414,43.0
190.709,-1.829,6.46,9.0
119.709,-1.153,3.427,59.0
119.719,-1.158,2.809,150.0
119.752,-1.163,2.194,151.0
85.935,-0.845,3.975,10.0
189.772,-1.873,7.8,150.0
190.551,-1.888,6.851,35.0
210.878,-2.098,6.472,23.0
119.706,-1.194,3.055,97.0
119.737,-1.199,2.441,150.0
81.245,-0.823,3.928,28.0
95.498,-0.971,4.124,16.0
190.514,-1.942,7.242,37.0
210.553,-2.153,6.899,15.0
119.741,-1.227,3.307,1.0
119.726,-1.231,2.689,22.0
81.272,-0.845,4.098,6.0
96.397,-1.004,4.363,5.0
189.816,-1.982,7.613,126.0
190.566,-1.995,6.64,19.0
210.974,-2.211,6.261,8.0
209.105,-2.196,5.13,14.0
60.454,-0.642,3.174,29.0
81.22,-0.863,3.843,9.0
95.533,-1.017,4.027,9.0
190.498,-2.032,7.03,43.0
210.81,-2.25,6.692,8.0
209.227,-2.236,5.565,9.0
60.586,-0.654,3.306,29.0
81.34,-0.88,4.018,26.0
112.413,-1.216,4.971,8.0
190.174,-2.059,7.41,29.0
210.559,-2.281,7.117,10.0
0.0,0.0,0.0,0.0
60.617,-0.664,3.432,23.0
60.462,-0.662,3.11,15.0
81.129,-0.889,3.754,4.0
189.796,-2.078,7.783,29.0
190.542,-2.086,6.832,34.0
210.814,-2.308,6.47,7.0
60.847,-0.673,3.571,19.0
60.571,-0.669,3.24,34.0
81.269,-0.897,3.927,30.0
112.002,-1.236,4.823,11.0
190.509,-2.1,7.218,35.0
210.487,-2.318,6.89,16.0
48.506,-0.54,2.946,5.0
60.574,-0.673,3.366,29.0
81.621,-0.906,4.113,11.0
112.555,-1.247,5.077,6.0
189.885,-2.101,7.585,26.0
190.613,-2.106,6.629,21.0
48.511,-0.541,3.045,36.0
60.679,-0.676,3.495,21.0
60.549,-0.673,3.173,32.0
81.176,-0.9,3.827,18.0
112.039,-1.239,4.702,10.0
190.492,-2.103,7.013,49.0
48.385,-0.539,3.137,33.0
61.075,-0.679,3.642,11.0
60.549,-0.671,3.297,34.0
81.338,-0.9,3.999,29.0
112.347,-1.239,4.942,9.0
190.473,-2.095,7.391,16.0
48.326,-0.537,3.229,25.0
48.512,-0.537,2.99,18.0
60.589,-0.668,3.42,25.0
60.445,-0.664,3.092,12.0
81.106,-0.888,3.728,4.0
189.774,-2.072,7.742,36.0
48.607,-0.536,3.345,19.0
48.46,-0.532,3.084,36.0
60.844,-0.665,3.555,21.0
60.561,-0.659,3.219,33.0
81.272,-0.881,3.899,29.0
95.546,-1.032,4.088,13.0
42.522,-0.463,3.011,47.0
48.375,-0.525,3.174,28.0
48.541,-0.524,2.933,9.0
60.542,-0.651,3.336,30.0
81.379,-0.87,4.063,10.0
96.435,-1.027,4.316,2.0
42.427,-0.456,3.089,44.0
48.246,-0.515,3.261,24.0
48.492,-0.515,3.025,43.0
60.634,-0.641,3.462,24.0
60.441,-0.635,3.137,24.0
81.285,-0.849,3.797,9.0
42.106,-0.444,3.148,49.0
42.525,-0.446,2.958,22.0
48.338,-0.504,3.111,48.0
60.88,-0.63,3.595,17.0
60.511,-0.622,3.259,30.0
81.252,-0.831,3.954,25.0
42.199,-0.435,3.238,37.0
42.655,-0.437,3.05,17.0
48.074,-0.489,3.187,38.0
48.507,-0.49,2.958,12.0
60.528,-0.607,3.376,34.0
81.171,-0.808,4.107,4.0
42.016,-0.422,3.305,42.0
42.508,-0.424,3.122,20.0
48.084,-0.475,3.28,16.0
48.55,-0.476,3.054,41.0
60.622,-0.59,3.498,22.0
60.417,-0.583,3.172,4.0
42.018,-0.409,3.386,43.0
42.06,-0.406,3.17,40.0
46.041,-0.441,3.229,34.0
48.292,-0.458,3.129,26.0
68.45,-0.644,4.079,6.0
60.638,-0.565,3.297,14.0
41.744,-0.393,3.443,30.0
42.039,-0.391,3.247,39.0
42.361,-0.391,3.05,22.0
48.058,-0.439,3.205,35.0
48.579,-0.439,2.986,7.0
60.639,-0.542,3.411,17.0
41.662,-0.376,3.515,46.0
41.996,-0.375,3.323,45.0
42.066,-0.371,3.107,45.0
48.097,-0.42,3.297,7.0
60.052,-0.518,3.802,12.0
60.659,-0.518,3.524,3.0
41.961,-0.361,3.618,26.0
41.795,-0.356,3.384,45.0
42.038,-0.353,3.183,42.0
45.981,-0.382,3.237,3.0
48.519,-0.397,3.161,21.0
60.738,-0.492,3.639,3.0
41.82,-0.342,3.682,41.0
41.702,-0.336,3.452,42.0
41.955,-0.334,3.252,47.0
42.472,-0.333,3.065,54.0
48.274,-0.373,3.231,23.0
48.372,-0.369,2.984,19.0
41.565,-0.32,3.735,45.0
41.649,-0.315,3.523,38.0
42.021,-0.314,3.333,41.0
42.061,-0.309,3.111,49.0
45.935,-0.332,3.156,23.0
48.334,-0.344,3.067,34.0
41.496,-0.298,3.802,37.0
41.481,-0.293,3.582,44.0
42.199,-0.293,3.421,29.0
42.101,-0.287,3.187,42.0
43.115,-0.289,3.037,22.0
48.177,-0.317,3.141,31.0
41.619,-0.277,3.885,44.0
41.471,-0.27,3.653,46.0
42.096,-0.269,3.486,35.0
42.021,-0.264,3.254,41.0
42.764,-0.262,3.086,34.0
48.306,-0.291,3.232,25.0
41.775,-0.254,3.972,39.0
41.381,-0.246,3.716,45.0
41.617,-0.242,3.517,45.0
42.248,-0.24,3.343,35.0
42.591,-0.236,3.145,30.0
45.95,-0.249,3.152,25.0
41.866,-0.229,4.053,40.0
41.475,-0.221,3.795,43.0
41.482,-0.215,3.576,39.0
41.852,-0.211,3.382,49.0
42.194,-0.208,3.187,33.0
45.971,-0.219,3.23,30.0
41.264,-0.199,4.064,43.0
41.685,-0.195,3.884,44.0
41.335,-0.188,3.631,46.0
41.478,-0.182,3.42,43.0
42.067,-0.179,3.247,35.0
45.939,-0.189,3.302,30.0
41.183,-0.171,4.123,42.0
41.783,-0.168,3.961,43.0
41.404,-0.16,3.705,45.0
41.406,-0.154,3.481,40.0
41.679,-0.149,3.284,39.0
42.439,-0.145,3.119,14.0
41.198,-0.142,4.191,40.0
41.441,-0.137,3.995,49.0
41.737,-0.132,3.802,38.0
41.428,-0.124,3.55,38.0
41.584,-0.119,3.342,44.0
42.14,-0.114,3.163,25.0
41.248,-0.113,4.262,40.0
41.511,-0.107,4.067,37.0
41.662,-0.101,3.86,39.0
41.475,-0.094,3.618,41.0
41.498,-0.088,3.399,47.0
41.991,-0.082,3.216,43.0
41.594,-0.082,4.362,17.0
41.361,-0.075,4.116,39.0
41.808,-0.07,3.938,41.0
41.589,-0.062,3.691,39.0
41.515,-0.056,3.463,40.0
42.112,-0.05,3.29,35.0
0.0,0.0,0.0,0.0
41.32,-0.043,4.175,46.0
42.673,-0.037,4.083,22.0
41.869,-0.029,3.779,25.0
41.446,-0.022,3.52,40.0
41.842,-0.015,3.331,31.0
41.223,-0.015,4.448,33.0
41.423,-0.009,4.247,42.0
41.495,-0.002,4.032,46.0
42.212,0.004,3.871,21.0
41.481,0.01,3.583,46.0
41.554,0.018,3.367,42.0
41.299,0.017,4.515,34.0
41.455,0.025,4.309,44.0
41.384,0.032,4.08,43.0
42.32,0.04,3.941,30.0
41.533,0.046,3.646,30.0
41.446,0.053,3.417,41.0
41.534,0.053,4.6,26.0
41.249,0.06,4.347,40.0
41.325,0.068,4.132,49.0
42.357,0.077,4.004,18.0
43.477,0.086,3.877,20.0
41.57,0.09,3.484,40.0
54.211,0.118,6.079,9.0
41.247,0.097,4.402,40.0
41.423,0.105,4.198,42.0
41.419,0.112,3.971,45.0
41.525,0.12,3.758,48.0
41.549,0.127,3.538,42.0
41.521,0.128,4.712,23.0
41.252,0.134,4.458,33.0
41.458,0.143,4.257,48.0
41.416,0.15,4.025,46.0
41.587,0.158,3.818,39.0
41.577,0.166,3.595,39.0
41.216,0.166,4.731,38.0
41.354,0.174,4.523,38.0
41.205,0.181,4.285,43.0
41.266,0.188,4.064,46.0
41.874,0.199,3.898,21.0
41.615,0.205,3.65,41.0
41.355,0.206,4.8,23.0
41.455,0.214,4.587,29.0
41.138,0.22,4.329,43.0
41.283,0.228,4.117,35.0
41.596,0.238,3.924,35.0
41.616,0.246,3.701,34.0
41.105,0.244,4.822,44.0
41.173,0.253,4.606,31.0
41.329,0.262,4.4,22.0
41.236,0.269,4.162,38.0
41.494,0.279,3.964,36.0
41.688,0.288,3.758,36.0
41.268,0.287,4.891,38.0
41.17,0.295,4.655,27.0
41.198,0.302,4.435,28.0
41.313,0.311,4.219,42.0
48.761,0.377,4.715,9.0
41.855,0.331,3.821,26.0
40.838,0.326,4.888,40.0
41.179,0.337,4.704,37.0
41.224,0.345,4.485,37.0
41.389,0.354,4.273,42.0
41.551,0.364,4.064,24.0
47.183,0.422,4.36,15.0
40.651,0.367,4.911,46.0
40.915,0.377,4.719,42.0
41.095,0.387,4.516,48.0
41.535,0.399,4.334,34.0
41.519,0.407,4.106,46.0
47.168,0.471,4.409,7.0
40.827,0.411,4.976,39.0
40.841,0.419,4.754,43.0
41.355,0.433,4.588,44.0
41.464,0.442,4.369,35.0
41.564,0.451,4.154,39.0
41.745,0.461,3.945,38.0
40.76,0.454,5.01,45.0
40.875,0.463,4.8,42.0
41.326,0.477,4.627,42.0
41.626,0.488,4.429,40.0
41.645,0.497,4.204,36.0
41.231,0.5,3.937,39.0
40.579,0.497,5.028,44.0
40.8,0.508,4.831,44.0
41.602,0.526,4.698,42.0
40.781,0.523,4.378,44.0
41.398,0.54,4.218,41.0
41.111,0.544,3.965,39.0
40.816,0.544,5.096,30.0
40.659,0.551,4.853,43.0
41.186,0.566,4.689,36.0
40.717,0.567,4.409,42.0
41.356,0.585,4.251,33.0
41.21,0.591,4.011,42.0
40.664,0.588,5.114,21.0
40.542,0.594,4.875,39.0
40.609,0.603,4.66,44.0
40.551,0.61,4.426,52.0
41.184,0.628,4.27,35.0
41.121,0.635,4.038,39.0
0.0,0.0,0.0,0.0
40.725,0.643,4.932,38.0
40.554,0.648,4.688,38.0
40.618,0.657,4.468,40.0
40.822,0.668,4.266,40.0
41.057,0.68,4.065,36.0
41.545,0.695,5.295,33.0
40.519,0.686,4.94,39.0
40.529,0.694,4.717,33.0
40.517,0.702,4.489,43.0
40.86,0.716,4.302,40.0
41.189,0.73,4.11,40.0
40.641,0.727,5.211,41.0
41.284,0.747,5.065,35.0
40.743,0.745,4.773,26.0
40.46,0.748,4.513,43.0
40.719,0.761,4.317,41.0
41.081,0.776,4.13,37.0
40.622,0.774,5.239,40.0
40.469,0.779,4.994,41.0
40.625,0.79,4.789,37.0
40.512,0.796,4.547,40.0
40.61,0.806,4.334,44.0
41.016,0.822,4.152,39.0
40.808,0.826,5.291,37.0
40.396,0.825,5.013,41.0
40.461,0.834,4.796,43.0
40.647,0.846,4.589,35.0
40.664,0.854,4.366,46.0
40.811,0.866,4.157,39.0
40.856,0.875,5.324,38.0
40.363,0.872,5.035,39.0
40.358,0.88,4.81,46.0
40.552,0.893,4.603,45.0
40.593,0.901,4.383,46.0
40.733,0.912,4.174,38.0
40.901,0.925,5.354,43.0
40.478,0.923,5.073,39.0
40.464,0.93,4.846,44.0
40.424,0.938,4.612,32.0
40.551,0.948,4.402,43.0
40.798,0.962,4.203,40.0
40.846,0.972,5.369,42.0
40.255,0.966,5.067,39.0
40.315,0.975,4.85,38.0
40.265,0.981,4.615,42.0
40.651,0.999,4.433,43.0
40.91,1.013,4.235,36.0
40.881,1.022,5.395,43.0
40.284,1.015,5.09,40.0
40.287,1.022,4.866,39.0
40.236,1.028,4.631,36.0
40.756,1.05,4.464,24.0
41.029,1.064,4.266,34.0
40.932,1.071,5.421,41.0
40.354,1.064,5.117,42.0
40.328,1.072,4.889,34.0
40.28,1.078,4.654,36.0
40.653,1.096,4.47,43.0
41.114,1.116,4.292,35.0
41.119,1.126,5.462,34.0
40.505,1.117,5.153,42.0
40.266,1.118,4.897,36.0
40.439,1.131,4.688,41.0
40.642,1.144,4.485,43.0
40.925,1.16,4.288,41.0
41.371,1.183,5.511,17.0
40.666,1.17,5.188,35.0
40.613,1.177,4.953,20.0
40.442,1.179,4.702,31.0
40.681,1.194,4.502,24.0
40.936,1.209,4.302,31.0
41.547,1.238,5.548,15.0
41.012,1.229,5.245,29.0
40.802,1.231,4.989,29.0
40.551,1.231,4.727,44.0
0.0,0.0,0.0,0.0
40.804,1.254,4.3,34.0
41.171,1.276,5.509,33.0
40.975,1.278,5.252,32.0
41.0,1.286,5.024,27.0
40.651,1.283,4.748,40.0
41.631,1.321,4.63,32.0
40.929,1.307,4.323,37.0
40.936,1.319,5.487,41.0
40.712,1.318,5.227,31.0
