X,Y,Z,Reflectivity
98.707,7.728,1.615,8.0
45.944,3.608,0.495,1.0
45.893,3.616,0.238,31.0
45.905,3.642,1.512,36.0
45.896,3.652,1.255,36.0
45.881,3.662,0.998,35.0
45.844,3.67,0.736,40.0
45.821,3.68,0.48,42.0
45.785,3.688,0.223,30.0
45.821,3.716,1.494,46.0
45.806,3.725,1.237,42.0
45.798,3.735,0.98,45.0
45.774,3.744,0.719,43.0
45.771,3.755,0.463,41.0
45.742,3.764,0.207,30.0
45.803,3.794,1.477,42.0
45.784,3.803,1.22,38.0
45.774,3.813,0.963,38.0
45.767,3.823,0.702,40.0
45.76,3.833,0.445,34.0
45.71,3.84,0.189,21.0
45.835,3.876,1.46,28.0
45.806,3.884,1.202,23.0
45.786,3.893,0.945,25.0
45.785,3.903,0.683,27.0
45.777,3.913,0.426,26.0
45.73,3.919,0.169,14.0
93.158,8.036,2.928,8.0
45.908,3.97,1.185,6.0
93.138,8.076,1.881,21.0
93.132,8.096,1.348,127.0
93.155,8.119,0.826,36.0
45.868,4.008,0.149,13.0
93.159,8.193,2.885,32.0
93.28,8.223,2.364,15.0
93.198,8.236,1.838,14.0
93.038,8.243,1.302,10.0
92.912,8.252,0.778,11.0
45.711,4.07,0.126,7.0
92.635,8.3,2.822,8.0
92.541,8.31,2.299,7.0
92.39,8.317,1.774,5.0
92.168,8.316,1.243,9.0
92.018,8.324,0.723,10.0
45.713,4.145,0.102,17.0
91.74,8.368,2.746,13.0
91.653,8.378,2.228,11.0
91.533,8.387,1.709,9.0
91.332,8.388,1.181,10.0
91.206,8.396,0.666,11.0
91.045,8.401,0.153,6.0
90.967,8.441,2.672,7.0
90.885,8.451,2.158,10.0
90.729,8.456,1.643,10.0
90.588,8.46,1.12,10.0
90.413,8.464,0.609,11.0
88.232,8.278,0.097,9.0
90.229,8.513,2.597,13.0
90.128,8.521,2.086,11.0
89.989,8.526,1.575,10.0
89.852,8.531,1.056,12.0
89.698,8.536,0.548,11.0
73.281,6.989,0.035,5.0
89.495,8.582,2.52,13.0
89.394,8.588,2.012,11.0
89.236,8.591,1.505,11.0
89.067,8.593,0.99,13.0
88.958,8.601,0.487,14.0
73.304,7.103,-0.012,3.0
88.753,8.645,2.44,14.0
88.676,8.653,1.937,11.0
88.563,8.66,1.434,9.0
88.404,8.662,0.923,11.0
88.301,8.668,0.423,12.0
45.765,4.502,-0.039,1.0
88.086,8.71,2.362,10.0
87.956,8.713,1.861,9.0
87.868,8.72,1.361,11.0
87.699,8.72,0.854,11.0
87.582,8.725,0.358,10.0
45.748,4.566,-0.071,5.0
87.388,8.766,2.281,9.0
87.318,8.774,1.785,9.0
87.16,8.774,1.288,11.0
87.107,8.784,0.786,10.0
86.858,8.776,0.292,10.0
45.751,4.631,-0.105,11.0
86.83,8.831,2.202,11.0
86.692,8.833,1.707,11.0
86.539,8.832,1.214,11.0
86.414,8.835,0.714,12.0
86.333,8.842,0.224,8.0
45.556,4.674,-0.139,8.0
86.204,8.886,2.12,12.0
86.079,8.888,1.628,11.0
85.963,8.891,1.138,12.0
85.839,8.892,0.642,11.0
85.677,8.891,0.155,11.0
0.0,0.0,0.0,0.0
85.621,8.94,2.038,12.0
85.499,8.941,1.55,10.0
85.265,8.931,1.061,12.0
84.218,8.836,0.561,29.0
84.186,8.847,0.084,19.0
43.305,4.558,-0.202,17.0
84.161,8.897,1.933,50.0
84.161,8.91,1.455,73.0
84.167,8.924,0.978,90.0
84.16,8.936,0.492,150.0
75.717,8.053,0.012,5.0
42.175,4.493,-0.232,18.0
84.24,9.011,1.864,27.0
84.278,9.027,1.387,17.0
84.254,9.037,0.908,15.0
84.201,9.044,0.421,11.0
75.944,8.17,-0.051,4.0
40.766,4.392,-0.259,16.0
84.013,9.088,1.787,7.0
83.867,9.084,1.308,6.0
83.78,9.088,0.83,4.0
83.623,9.084,0.344,5.0
69.884,7.602,-0.109,6.0
40.272,4.387,-0.291,17.0
83.476,9.129,1.701,9.0
83.368,9.129,1.225,11.0
83.287,9.132,0.749,5.0
81.167,8.912,0.26,11.0
65.705,7.225,-0.162,9.0
39.855,4.389,-0.325,28.0
82.998,9.173,1.614,12.0
82.902,9.173,1.141,12.0
82.789,9.173,0.668,9.0
81.057,8.992,0.185,8.0
45.577,5.063,-0.155,5.0
39.507,4.394,-0.359,24.0
82.513,9.211,1.528,13.0
82.432,9.213,1.057,12.0
82.327,9.212,0.586,11.0
80.19,8.984,0.107,14.0
0.0,0.0,0.0,0.0
39.158,4.398,-0.393,14.0
82.086,9.25,1.442,11.0
82.03,9.254,0.974,11.0
81.913,9.252,0.504,10.0
67.223,7.601,0.024,6.0
42.34,4.793,-0.225,17.0
38.817,4.4,-0.428,10.0
81.661,9.286,1.354,11.0
81.615,9.291,0.889,10.0
81.478,9.285,0.422,9.0
67.126,7.658,-0.041,10.0
40.64,4.641,-0.256,15.0
38.722,4.428,-0.465,9.0
81.283,9.323,1.267,11.0
81.265,9.33,0.803,6.0
67.815,7.794,0.283,11.0
64.456,7.416,-0.104,8.0
40.132,4.622,-0.293,19.0
38.683,4.461,-0.504,9.0
66.348,7.673,0.967,8.0
66.375,7.684,0.588,32.0
66.368,7.69,0.209,35.0
66.339,7.694,-0.175,22.0
39.724,4.612,-0.331,36.0
38.655,4.493,-0.543,7.0
66.335,7.731,0.898,64.0
66.326,7.737,0.519,97.0
66.333,7.745,0.141,67.0
45.501,5.317,-0.167,15.0
39.335,4.601,-0.369,27.0
38.623,4.523,-0.583,2.0
66.342,7.789,0.829,57.0
66.354,7.796,0.45,42.0
66.382,7.807,0.071,30.0
42.601,5.014,-0.201,17.0
38.998,4.594,-0.407,14.0
34.529,4.072,-0.558,0.0
66.504,7.862,0.76,18.0
66.539,7.872,0.381,15.0
66.47,7.871,0.0,8.0
41.138,4.875,-0.239,16.0
38.625,4.581,-0.445,9.0
32.697,3.882,-0.563,0.0
66.276,7.886,0.686,16.0
66.224,7.886,0.307,14.0
66.169,7.885,-0.07,8.0
40.317,4.808,-0.277,16.0
38.584,4.605,-0.486,8.0
30.218,3.61,-0.553,4.0
66.035,7.905,0.613,16.0
65.961,7.901,0.235,13.0
65.835,7.892,-0.142,3.0
39.699,4.763,-0.316,28.0
38.561,4.63,-0.528,9.0
30.011,3.606,-0.582,14.0
65.756,7.917,0.538,17.0
65.737,7.919,0.162,8.0
45.573,5.493,-0.148,9.0
39.33,4.744,-0.356,19.0
38.537,4.652,-0.57,4.0
29.908,3.613,-0.613,8.0
65.531,7.931,0.464,21.0
65.445,7.925,0.089,9.0
45.592,5.524,-0.198,5.0
38.946,4.722,-0.396,14.0
30.094,3.651,-0.478,2.0
0.0,0.0,0.0,0.0
65.282,7.939,0.389,20.0
65.193,7.933,0.016,10.0
41.817,5.091,-0.228,17.0
38.561,4.698,-0.436,11.0
29.964,3.653,-0.51,2.0
27.473,3.351,-0.625,0.0
65.079,7.95,0.315,18.0
64.985,7.942,-0.056,8.0
40.578,4.962,-0.267,16.0
38.493,4.709,-0.478,9.0
29.919,3.663,-0.543,3.0
26.802,3.283,-0.64,0.0
64.895,7.96,0.24,14.0
45.779,5.618,-0.091,9.0
39.858,4.893,-0.308,16.0
38.484,4.727,-0.522,6.0
29.744,3.655,-0.574,3.0
26.125,3.213,-0.654,1.0
64.692,7.964,0.166,9.0
45.732,5.632,-0.144,18.0
39.396,4.854,-0.349,15.0
29.969,3.694,-0.44,2.0
29.4,3.626,-0.601,4.0
25.451,3.141,-0.666,0.0
64.528,7.97,0.091,10.0
45.399,5.61,-0.195,14.0
38.931,4.812,-0.39,14.0
29.717,3.675,-0.471,2.0
29.268,3.621,-0.632,2.0
24.841,3.075,-0.678,0.0
64.393,7.977,0.018,9.0
41.803,5.18,-0.227,17.0
38.561,4.78,-0.43,12.0
29.607,3.671,-0.503,2.0
27.384,3.397,-0.623,0.0
24.041,2.984,-0.684,0.0
64.296,7.985,-0.055,4.0
40.54,5.036,-0.267,16.0
38.466,4.78,-0.474,10.0
29.478,3.664,-0.535,3.0
26.714,3.322,-0.638,0.0
23.415,2.913,-0.694,0.0
45.658,5.683,-0.091,4.0
39.843,4.96,-0.308,22.0
38.459,4.789,-0.518,6.0
29.316,3.652,-0.566,10.0
26.035,3.244,-0.652,1.0
22.872,2.851,-0.703,0.0
45.637,5.69,-0.144,14.0
39.343,4.906,-0.349,36.0
30.125,3.758,-0.44,5.0
29.282,3.653,-0.598,12.0
25.368,3.166,-0.664,0.0
22.208,2.773,-0.709,0.0
45.476,5.678,-0.196,7.0
38.886,4.856,-0.39,14.0
29.584,3.695,-0.466,3.0
29.205,3.649,-0.631,3.0
24.631,3.078,-0.674,0.0
21.607,2.701,-0.715,0.0
41.626,5.203,-0.228,17.0
38.517,4.815,-0.431,12.0
29.461,3.683,-0.499,3.0
27.278,3.411,-0.621,0.0
24.059,3.009,-0.686,0.0
21.151,2.646,-0.724,0.0
40.727,5.094,-0.27,17.0
38.467,4.812,-0.475,8.0
29.402,3.678,-0.532,4.0
26.697,3.34,-0.639,0.0
23.357,2.923,-0.693,0.0
20.564,2.574,-0.728,0.0
39.858,4.987,-0.31,20.0
38.438,4.809,-0.519,3.0
29.338,3.671,-0.565,6.0
25.923,3.244,-0.65,0.0
22.735,2.845,-0.701,0.0
20.201,2.529,-0.739,0.0
39.3,4.917,-0.351,20.0
30.151,3.772,-0.442,6.0
29.29,3.664,-0.597,7.0
25.309,3.166,-0.664,0.0
22.147,2.771,-0.708,0.0
19.766,2.473,-0.745,0.0
38.826,4.855,-0.391,14.0
29.551,3.695,-0.467,3.0
29.197,3.651,-0.629,2.0
24.646,3.082,-0.675,0.0
21.628,2.704,-0.716,0.0
19.212,2.403,-0.747,0.0
38.512,4.812,-0.432,10.0
29.477,3.683,-0.499,2.0
27.233,3.402,-0.617,0.0
23.965,2.994,-0.683,0.0
21.076,2.633,-0.722,0.0
18.794,2.348,-0.751,0.0
38.447,4.798,-0.474,8.0
29.416,3.671,-0.531,4.0
26.65,3.325,-0.634,1.0
23.383,2.917,-0.693,0.0
20.572,2.566,-0.728,0.0
18.494,2.307,-0.76,0.0
38.471,4.794,-0.518,5.0
29.32,3.653,-0.563,12.0
25.972,3.235,-0.647,0.0
22.791,2.839,-0.701,0.0
20.194,2.515,-0.737,0.0
18.183,2.264,-0.768,0.0
29.962,3.726,-0.436,3.0
29.294,3.642,-0.595,13.0
25.255,3.139,-0.657,0.0
22.191,2.758,-0.707,0.0
19.669,2.444,-0.74,0.0
17.782,2.21,-0.77,0.0
29.654,3.68,-0.465,2.0
29.205,3.623,-0.625,4.0
24.654,3.057,-0.669,0.0
21.587,2.677,-0.711,0.0
19.35,2.399,-0.749,0.0
17.457,2.164,-0.776,0.0
29.653,3.67,-0.497,2.0
27.509,3.403,-0.618,0.0
24.046,2.974,-0.678,0.0
21.041,2.602,-0.716,0.0
18.882,2.334,-0.751,0.0
17.108,2.115,-0.779,0.0
29.709,3.666,-0.53,2.0
26.781,3.303,-0.631,1.0
23.364,2.881,-0.684,0.0
20.623,2.542,-0.724,0.0
18.484,2.278,-0.755,0.0
16.895,2.081,-0.787,0.0
29.778,3.662,-0.563,3.0
26.059,3.203,-0.641,1.0
22.943,2.819,-0.696,0.0
20.254,2.488,-0.733,0.0
18.209,2.236,-0.763,0.0
16.521,2.028,-0.787,0.0
29.735,3.643,-0.593,4.0
25.546,3.128,-0.655,0.0
22.428,2.745,-0.704,0.0
19.743,2.415,-0.735,0.0
17.921,2.192,-0.769,0.0
16.301,1.993,-0.793,0.0
29.658,3.618,-0.622,1.0
24.958,3.043,-0.666,0.0
21.895,2.668,-0.71,0.0
19.453,2.37,-0.744,0.0
17.559,2.138,-0.772,0.0
16.109,1.961,-0.801,0.0
27.722,3.366,-0.61,0.0
24.366,2.957,-0.675,0.0
21.358,2.591,-0.714,0.0
19.002,2.304,-0.746,0.0
17.261,2.092,-0.776,0.0
15.79,1.913,-0.801,0.0
26.988,3.261,-0.62,0.0
23.693,2.861,-0.68,0.0
20.931,2.526,-0.72,0.0
18.717,2.258,-0.753,0.0
17.011,2.051,-0.782,0.0
15.55,1.874,-0.804,0.0
26.54,3.191,-0.636,0.0
23.249,2.793,-0.69,0.0
20.536,2.466,-0.727,0.0
18.408,2.209,-0.758,0.0
16.803,2.015,-0.788,0.0
15.362,1.842,-0.809,0.0
25.857,3.091,-0.644,0.0
22.787,2.722,-0.698,0.0
20.144,2.405,-0.732,0.0
18.048,2.153,-0.761,0.0
16.483,1.965,-0.789,0.0
15.148,1.805,-0.812,0.0
25.367,3.014,-0.656,0.0
22.282,2.646,-0.703,0.0
19.783,2.347,-0.737,0.0
17.745,2.104,-0.764,0.0
16.301,1.932,-0.795,0.0
14.967,1.773,-0.816,0.0
24.803,2.928,-0.664,0.0
21.756,2.567,-0.706,0.0
19.438,2.292,-0.742,0.0
17.573,2.07,-0.773,0.0
16.065,1.891,-0.798,0.0
14.761,1.737,-0.818,0.0
24.409,2.862,-0.675,0.0
21.379,2.505,-0.713,0.0
19.14,2.241,-0.748,0.0
17.233,2.016,-0.773,0.0
15.868,1.855,-0.803,0.0
14.58,1.703,-0.821,0.0
23.833,2.775,-0.68,0.0
21.007,2.443,-0.719,0.0
18.664,2.169,-0.745,0.0
17.001,1.974,-0.778,0.0
15.665,1.818,-0.806,0.0
14.43,1.673,-0.825,0.0
23.324,2.695,-0.685,0.0
20.633,2.382,-0.724,0.0
18.492,2.132,-0.754,0.0
16.811,1.937,-0.783,0.0
15.374,1.77,-0.804,0.0
14.284,1.643,-0.828,0.0
22.956,2.631,-0.693,0.0
20.308,2.325,-0.729,0.0
18.227,2.085,-0.758,0.0
16.624,1.9,-0.788,0.0
15.222,1.738,-0.808,0.0
14.086,1.607,-0.828,0.0
22.565,2.565,-0.699,0.0
19.983,2.269,-0.733,0.0
17.965,2.038,-0.761,0.0
16.392,1.858,-0.79,0.0
15.096,1.709,-0.813,0.0
13.957,1.579,-0.831,0.0
22.129,2.493,-0.703,0.0
19.769,2.225,-0.74,0.0
17.735,1.994,-0.765,0.0
16.269,1.827,-0.796,0.0
14.938,1.676,-0.816,0.0
13.855,1.553,-0.836,0.0
21.807,2.435,-0.709,0.0
19.415,2.165,-0.741,0.0
17.543,1.954,-0.769,0.0
16.101,1.792,-0.8,0.0
14.728,1.637,-0.815,0.0
13.749,1.527,-0.839,0.0
21.461,2.374,-0.713,0.0
19.155,2.116,-0.745,0.0
17.307,1.91,-0.771,0.0
15.895,1.752,-0.8,0.0
14.665,1.615,-0.822,0.0
13.638,1.5,-0.842,0.0
21.058,2.306,-0.714,0.0
18.916,2.069,-0.748,0.0
17.142,1.872,-0.776,0.0
15.754,1.719,-0.804,0.0
14.549,1.586,-0.825,0.0
13.513,1.471,-0.843,0.0
20.736,2.247,-0.716,0.0
18.673,2.021,-0.751,0.0
16.906,1.827,-0.776,0.0
15.598,1.684,-0.806,0.0
14.405,1.553,-0.826,0.0
13.369,1.44,-0.843,0.0
20.451,2.193,-0.719,0.0
18.447,1.975,-0.753,0.0
16.757,1.792,-0.779,0.0
15.461,1.651,-0.808,0.0
14.27,1.522,-0.827,0.0
13.224,1.408,-0.842,0.0
20.322,2.154,-0.727,0.0
18.3,1.937,-0.758,0.0
16.68,1.763,-0.785,0.0
15.292,1.614,-0.808,0.0
14.173,1.494,-0.829,0.0
13.242,1.394,-0.85,0.0
20.159,2.112,-0.732,0.0
18.144,1.898,-0.762,0.0
16.533,1.727,-0.788,0.0
15.198,1.585,-0.812,0.0
14.08,1.467,-0.832,0.0
13.124,1.365,-0.85,0.0
19.92,2.062,-0.734,0.0
17.911,1.851,-0.761,0.0
16.392,1.692,-0.789,0.0
15.039,1.55,-0.811,0.0
13.946,1.435,-0.831,0.0
12.957,1.331,-0.845,0.0
19.645,2.008,-0.734,0.0
17.806,1.817,-0.765,0.0
16.161,1.647,-0.786,0.0
14.977,1.524,-0.815,0.0
13.87,1.409,-0.833,0.0
12.867,1.305,-0.845,0.0
19.625,1.981,-0.742,0.0
17.712,1.785,-0.769,0.0
16.179,1.627,-0.794,0.0
14.854,1.492,-0.815,0.0
13.827,1.386,-0.836,0.0
12.855,1.287,-0.85,0.0
19.444,1.936,-0.743,0.0
17.576,1.747,-0.771,0.0
16.138,1.601,-0.799,0.0
14.846,1.47,-0.82,0.0
13.731,1.358,-0.836,0.0
12.721,1.256,-0.847,0.0
19.235,1.889,-0.743,0.0
17.382,1.704,-0.769,0.0
15.981,1.563,-0.797,0.0
14.698,1.435,-0.818,0.0
13.701,1.336,-0.839,0.0
12.831,1.249,-0.859,0.0
19.108,1.85,-0.745,0.0
17.465,1.687,-0.779,0.0
15.88,1.531,-0.798,0.0
14.67,1.412,-0.821,0.0
13.713,1.317,-0.845,0.0
12.653,1.213,-0.851,0.0
18.971,1.809,-0.746,0.0
17.264,1.643,-0.775,0.0
15.782,1.499,-0.798,0.0
14.52,1.377,-0.817,0.0
13.597,1.287,-0.842,0.0
12.518,1.182,-0.845,0.0
18.856,1.771,-0.746,0.0
17.164,1.609,-0.776,0.0
15.717,1.47,-0.799,0.0
14.463,1.35,-0.818,0.0
13.599,1.267,-0.845,0.0
12.526,1.165,-0.849,0.0
18.784,1.736,-0.748,0.0
17.134,1.58,-0.779,0.0
15.716,1.447,-0.802,0.0
14.466,1.329,-0.821,0.0
13.551,1.242,-0.845,0.0
12.349,1.13,-0.84,0.0
18.698,1.701,-0.749,0.0
17.083,1.55,-0.78,0.0
15.707,1.422,-0.805,0.0
14.407,1.302,-0.821,0.0
13.469,1.214,-0.843,0.0
12.438,1.119,-0.848,0.0
18.619,1.665,-0.749,0.0
17.049,1.521,-0.781,0.0
15.622,1.391,-0.803,0.0
14.403,1.279,-0.822,0.0
13.473,1.194,-0.845,0.0
12.412,1.097,-0.848,0.0
18.577,1.633,-0.75,0.0
17.026,1.493,-0.782,0.0
15.635,1.367,-0.806,0.0
14.342,1.251,-0.821,0.0
13.406,1.167,-0.842,0.0
12.364,1.074,-0.846,0.0
18.576,1.604,-0.751,0.0
16.962,1.461,-0.781,0.0
15.652,1.344,-0.808,0.0
14.375,1.232,-0.824,0.0
13.46,1.15,-0.847,0.0
12.363,1.054,-0.847,0.0
18.572,1.574,-0.752,0.0
16.953,1.433,-0.781,0.0
15.469,1.304,-0.799,0.0
14.354,1.207,-0.823,0.0
13.431,1.127,-0.845,0.0
12.421,1.039,-0.851,0.0
18.565,1.543,-0.752,0.0
16.991,1.409,-0.783,0.0
15.545,1.286,-0.803,0.0
14.393,1.187,-0.825,0.0
13.269,1.091,-0.835,0.0
12.42,1.019,-0.851,0.0
18.574,1.514,-0.752,0.0
16.913,1.375,-0.779,0.0
15.603,1.265,-0.805,0.0
14.395,1.164,-0.825,0.0
13.413,1.082,-0.843,0.0
12.481,1.004,-0.854,0.0
18.597,1.486,-0.752,0.0
16.949,1.35,-0.779,0.0
15.566,1.236,-0.802,0.0
14.401,1.141,-0.824,0.0
13.386,1.057,-0.84,0.0
12.546,0.988,-0.857,0.0
18.653,1.459,-0.752,0.0
17.047,1.33,-0.782,0.0
15.628,1.216,-0.804,0.0
14.381,1.115,-0.821,0.0
13.488,1.043,-0.845,0.0
12.378,0.955,-0.844,0.0
18.646,1.428,-0.749,0.0
17.1,1.306,-0.782,0.0
15.68,1.194,-0.804,0.0
14.455,1.097,-0.823,0.0
13.483,1.02,-0.842,0.0
12.569,0.948,-0.855,0.0
18.748,1.405,-0.75,0.0
17.197,1.284,-0.783,0.0
15.789,1.176,-0.806,0.0
14.463,1.074,-0.82,0.0
13.497,0.999,-0.84,0.0
12.472,0.92,-0.846,0.0
18.793,1.377,-0.748,0.0
17.179,1.254,-0.778,0.0
15.82,1.151,-0.804,0.0
14.514,1.053,-0.819,0.0
13.569,0.981,-0.841,0.0
12.524,0.903,-0.846,0.0
18.818,1.347,-0.744,0.0
17.254,1.23,-0.777,0.0
15.886,1.129,-0.803,0.0
14.529,1.029,-0.816,0.0
13.606,0.96,-0.84,0.0
12.636,0.889,-0.85,0.0
19.05,1.331,-0.747,0.0
17.343,1.207,-0.775,0.0
15.953,1.106,-0.801,0.0
14.683,1.015,-0.82,0.0
13.664,0.941,-0.839,0.0
12.722,0.873,-0.851,0.0
19.222,1.31,-0.747,0.0
17.5,1.188,-0.776,0.0
16.063,1.086,-0.801,0.0
14.752,0.994,-0.818,0.0
13.744,0.923,-0.838,0.0
12.727,0.851,-0.846,0.0
19.371,1.286,-0.745,0.0
17.635,1.167,-0.775,0.0
16.199,1.068,-0.801,0.0
14.826,0.973,-0.816,0.0
13.801,0.903,-0.836,0.0
12.936,0.843,-0.855,0.0
19.61,1.268,-0.746,0.0
17.796,1.146,-0.775,0.0
16.178,1.038,-0.793,0.0
14.979,0.957,-0.818,0.0
13.911,0.886,-0.836,0.0
12.953,0.822,-0.85,0.0
19.688,1.24,-0.74,0.0
17.882,1.121,-0.77,0.0
16.313,1.019,-0.792,0.0
15.025,0.934,-0.813,0.0
13.994,0.867,-0.834,0.0
13.048,0.805,-0.849,0.0
19.975,1.223,-0.74,0.0
18.034,1.1,-0.767,0.0
16.523,1.003,-0.793,0.0
15.158,0.916,-0.812,0.0
14.076,0.847,-0.831,0.0
13.178,0.79,-0.851,0.0
20.097,1.196,-0.734,0.0
18.228,1.08,-0.765,0.0
16.603,0.979,-0.787,0.0
15.261,0.896,-0.809,0.0
14.207,0.83,-0.831,0.0
13.248,0.771,-0.847,0.0
20.273,1.171,-0.728,0.0
18.368,1.056,-0.76,0.0
16.916,0.968,-0.792,0.0
15.378,0.876,-0.805,0.0
14.299,0.811,-0.827,0.0
13.341,0.753,-0.845,0.0
20.523,1.149,-0.724,0.0
18.541,1.033,-0.755,0.0
16.862,0.935,-0.778,0.0
15.64,0.863,-0.809,0.0
14.451,0.794,-0.826,0.0
13.513,0.739,-0.846,0.0
20.95,1.137,-0.725,0.0
18.894,1.02,-0.756,0.0
17.095,0.918,-0.777,0.0
15.724,0.841,-0.802,0.0
14.531,0.773,-0.821,0.0
13.67,0.724,-0.846,0.0
21.168,1.112,-0.717,0.0
19.198,1.003,-0.754,0.0
17.352,0.902,-0.776,0.0
15.992,0.827,-0.804,0.0
14.722,0.758,-0.82,0.0
13.622,0.697,-0.833,0.0
21.47,1.09,-0.711,0.0
19.415,0.981,-0.748,0.0
17.688,0.889,-0.778,0.0
16.035,0.801,-0.794,0.0
14.889,0.74,-0.818,0.0
13.833,0.684,-0.835,0.0
22.03,1.081,-0.712,0.0
19.699,0.961,-0.744,0.0
17.856,0.866,-0.771,0.0
16.314,0.787,-0.794,0.0
15.08,0.724,-0.816,0.0
13.997,0.668,-0.833,0.0
22.417,1.061,-0.706,0.0
19.943,0.938,-0.736,0.0
18.061,0.845,-0.764,0.0
16.499,0.767,-0.789,0.0
15.345,0.71,-0.817,0.0
14.262,0.656,-0.836,0.0
22.794,1.039,-0.698,0.0
20.405,0.925,-0.735,0.0
18.344,0.827,-0.76,0.0
16.84,0.754,-0.79,0.0
15.365,0.684,-0.804,0.0
14.341,0.635,-0.828,0.0
23.385,1.026,-0.694,0.0
20.761,0.905,-0.728,0.0
18.814,0.815,-0.761,0.0
17.04,0.734,-0.783,0.0
15.67,0.671,-0.805,0.0
14.5,0.617,-0.823,0.0
23.675,0.998,-0.68,0.0
21.18,0.887,-0.723,0.0
19.059,0.793,-0.753,0.0
17.308,0.716,-0.779,0.0
15.908,0.653,-0.801,0.0
14.82,0.605,-0.826,0.0
24.164,0.977,-0.67,0.0
21.6,0.868,-0.715,0.0
19.347,0.772,-0.744,0.0
17.629,0.699,-0.775,0.0
16.077,0.633,-0.793,0.0
14.971,0.585,-0.819,0.0
24.895,0.965,-0.665,0.0
22.088,0.85,-0.708,0.0
19.696,0.753,-0.737,0.0
17.922,0.68,-0.769,0.0
16.55,0.624,-0.799,0.0
15.16,0.567,-0.813,0.0
25.406,0.942,-0.651,0.0
22.64,0.833,-0.701,0.0
20.133,0.736,-0.732,0.0
18.212,0.661,-0.761,0.0
16.748,0.603,-0.79,0.0
15.518,0.555,-0.815,0.0
26.398,0.935,-0.647,0.0
23.529,0.827,-0.703,0.0
20.726,0.723,-0.73,0.0
18.556,0.643,-0.755,0.0
17.14,0.589,-0.789,0.0
15.755,0.537,-0.81,0.0
26.955,0.91,-0.63,0.0
23.699,0.794,-0.681,0.0
21.324,0.708,-0.726,0.0
19.038,0.627,-0.752,0.0
17.446,0.57,-0.783,0.0
16.008,0.519,-0.804,0.0
28.554,0.917,-0.634,1.0
24.59,0.783,-0.677,0.0
21.952,0.693,-0.721,0.0
19.579,0.613,-0.75,0.0
17.804,0.553,-0.777,0.0
16.458,0.507,-0.806,0.0
28.632,0.873,-0.601,2.0
25.181,0.761,-0.663,0.0
22.417,0.672,-0.709,0.0
20.005,0.594,-0.742,0.0
18.208,0.536,-0.772,0.0
16.699,0.487,-0.797,0.0
30.25,0.874,-0.597,0.0
26.27,0.752,-0.658,0.0
23.298,0.661,-0.708,0.0
20.477,0.575,-0.733,0.0
18.735,0.522,-0.77,0.0
17.007,0.469,-0.79,0.0
0.0,0.0,0.0,0.0
26.754,0.723,-0.636,0.0
23.703,0.634,-0.689,0.0
20.989,0.556,-0.724,0.0
18.942,0.497,-0.754,0.0
17.522,0.455,-0.79,0.0
32.519,0.836,-0.557,0.0
28.17,0.717,-0.632,0.0
24.493,0.617,-0.679,0.0
21.686,0.541,-0.719,0.0
19.365,0.478,-0.745,0.0
17.789,0.434,-0.778,0.0
34.371,0.83,-0.542,0.0
0.0,0.0,0.0,0.0
25.327,0.598,-0.667,0.0
22.415,0.524,-0.712,0.0
19.961,0.462,-0.74,0.0
18.203,0.416,-0.771,0.0
0.0,0.0,0.0,0.0
30.194,0.674,-0.594,0.0
26.187,0.578,-0.653,0.0
23.171,0.506,-0.703,0.0
20.69,0.446,-0.737,0.0
18.495,0.394,-0.757,0.0
0.0,0.0,0.0,0.0
0.0,0.0,0.0,0.0
27.223,0.56,-0.64,0.0
23.926,0.486,-0.691,0.0
21.103,0.424,-0.721,0.0
19.216,0.381,-0.758,0.0
0.0,0.0,0.0,0.0
33.418,0.646,-0.56,0.0
28.441,0.543,-0.627,0.0
24.766,0.466,-0.679,0.0
21.997,0.409,-0.719,0.0
19.709,0.362,-0.748,0.0
41.767,0.756,-0.418,0.0
0.0,0.0,0.0,0.0
29.836,0.525,-0.613,0.0
25.955,0.45,-0.672,0.0
22.538,0.386,-0.703,0.0
20.222,0.341,-0.737,0.0
46.971,0.781,-0.398,0.0
0.0,0.0,0.0,0.0
30.741,0.496,-0.584,0.0
26.61,0.423,-0.648,0.0
23.631,0.37,-0.7,0.0
20.972,0.323,-0.732,0.0
47.457,0.721,-0.329,0.0
0.0,0.0,0.0,0.0
32.36,0.476,-0.564,0.0
27.393,0.396,-0.624,0.0
24.558,0.35,-0.689,0.0
21.624,0.303,-0.72,0.0
0.0,0.0,0.0,0.0
43.893,0.594,-0.465,0.0
34.763,0.463,-0.551,0.0
29.439,0.385,-0.624,0.0
25.097,0.322,-0.663,0.0
22.434,0.283,-0.711,0.0
0.0,0.0,0.0,0.0
46.304,0.563,-0.416,0.0
0.0,0.0,0.0,0.0
30.526,0.357,-0.597,0.0
26.66,0.305,-0.661,0.0
23.109,0.26,-0.694,0.0
0.0,0.0,0.0,0.0
46.611,0.503,-0.342,0.0
39.532,0.418,-0.496,0.0
32.432,0.335,-0.58,0.0
27.901,0.282,-0.645,0.0
24.105,0.238,-0.683,0.0
70.576,0.683,-0.03,0.0
0.0,0.0,0.0,0.0
42.856,0.396,-0.466,0.0
0.0,0.0,0.0,0.0
29.125,0.256,-0.624,0.0
25.077,0.215,-0.669,0.0
84.29,0.706,0.105,2.0
0.0,0.0,0.0,0.0
0.0,0.0,0.0,0.0
36.818,0.285,-0.535,0.0
30.443,0.229,-0.601,0.0
26.546,0.194,-0.663,0.0
86.194,0.614,0.252,5.0
0.0,0.0,0.0,0.0
48.861,0.327,-0.366,0.0
38.57,0.25,-0.494,0.0
0.0,0.0,0.0,0.0
27.565,0.167,-0.64,0.0
92.358,0.541,0.432,3.0
0.0,0.0,0.0,0.0
0.0,0.0,0.0,0.0
42.788,0.224,-0.473,1.0
0.0,0.0,0.0,0.0
29.309,0.141,-0.629,0.0
104.316,0.484,0.671,9.0
87.778,0.39,0.106,1.0
0.0,0.0,0.0,0.0
42.807,0.173,-0.397,0.0
36.964,0.142,-0.536,0.0
30.614,0.111,-0.603,0.0
110.923,0.383,0.911,15.0
0.0,0.0,0.0,0.0
0.0,0.0,0.0,0.0
49.579,0.142,-0.371,0.0
0.0,0.0,0.0,0.0
32.944,0.082,-0.589,0.0
111.112,0.255,1.113,17.0
0.0,0.0,0.0,0.0
0.0,0.0,0.0,0.0
0.0,0.0,0.0,0.0
42.82,0.066,-0.466,1.0
34.832,0.047,-0.56,0.0
111.132,0.131,1.314,20.0
110.7,0.11,0.733,11.0
0.0,0.0,0.0,0.0
0.0,0.0,0.0,0.0
45.347,0.02,-0.411,3.0
0.0,0.0,0.0,0.0
111.204,0.01,1.519,20.0
117.188,-0.009,0.991,7.0
0.0,0.0,0.0,0.0
0.0,0.0,0.0,0.0
48.91,-0.03,-0.351,0.0
39.869,-0.032,-0.493,0.0
112.802,-0.11,1.751,15.0
119.745,-0.138,1.239,8.0
110.557,-0.146,0.57,7.0
0.0,0.0,0.0,0.0
0.0,0.0,0.0,0.0
44.502,-0.081,-0.466,0.0
113.265,-0.228,1.973,7.0
119.754,-0.261,1.464,10.0
114.486,-0.269,0.808,139.0
0.0,0.0,0.0,0.0
0.0,0.0,0.0,0.0
45.329,-0.129,-0.388,0.0
114.641,-0.345,2.215,8.0
113.396,-0.359,1.602,8.0
119.706,-0.399,1.072,17.0
0.0,0.0,0.0,0.0
0.0,0.0,0.0,0.0
50.964,-0.194,-0.34,0.0
119.82,-0.476,2.544,27.0
114.437,-0.472,1.836,5.0
119.683,-0.512,1.3,19.0
110.996,-0.492,0.621,6.0
0.0,0.0,0.0,0.0
0.0,0.0,0.0,0.0
119.812,-0.587,2.773,66.0
119.818,-0.605,2.153,44.0
119.733,-0.622,1.533,9.0
119.711,-0.64,0.902,7.0
0.0,0.0,0.0,0.0
0.0,0.0,0.0,0.0
119.773,-0.695,3.006,20.0
119.803,-0.712,2.387,29.0
0.0,0.0,0.0,0.0
119.645,-0.744,1.134,18.0
111.071,-0.707,0.48,3.0
83.003,-0.539,-0.07,0.0
119.755,-0.797,3.24,13.0
194.397,-1.322,4.256,22.0
194.742,-1.349,3.255,18.0
119.667,-0.845,1.369,18.0
114.246,-0.822,0.718,6.0
0.0,0.0,0.0,0.0
119.736,-0.895,3.474,31.0
119.737,-0.911,2.854,78.0
119.734,-0.926,2.236,84.0
119.722,-0.941,1.605,51.0
119.695,-0.956,0.987,19.0
0.0,0.0,0.0,0.0
210.792,-1.743,6.533,6.0
119.717,-1.005,3.092,121.0
119.721,-1.019,2.474,91.0
119.732,-1.033,1.844,137.0
119.703,-1.047,1.225,32.0
119.716,-1.062,0.609,3.0
214.899,-1.939,7.087,6.0
119.72,-1.094,3.331,135.0
119.734,-1.108,2.712,150.0
119.721,-1.12,2.081,150.0
119.743,-1.134,1.464,150.0
119.755,-1.148,0.846,113.0
190.562,-1.855,6.665,19.0
211.232,-2.08,6.299,11.0
119.699,-1.191,2.951,86.0
119.725,-1.204,2.321,94.0
119.73,-1.217,1.705,132.0
119.746,-1.23,1.088,57.0
190.473,-1.985,7.048,37.0
210.559,-2.215,6.701,11.0
209.148,-2.221,5.578,12.0
210.363,-2.256,4.506,18.0
204.244,-2.21,3.321,7.0
0.0,0.0,0.0,0.0
106.498,-1.178,4.156,7.0
210.632,-2.351,7.134,9.0
0.0,0.0,0.0,0.0
210.286,-2.385,4.928,6.0
204.348,-2.336,3.734,6.0
139.219,-1.604,1.828,4.0
112.269,-1.31,4.607,10.0
190.531,-2.24,6.836,24.0
210.005,-2.486,6.448,10.0
0.0,0.0,0.0,0.0
210.405,-2.527,4.27,8.0
139.148,-1.681,2.105,4.0
112.051,-1.371,4.825,15.0
190.503,-2.346,7.218,52.0
210.226,-2.604,6.88,18.0
208.921,-2.605,5.738,10.0
210.55,-2.641,4.699,8.0
204.331,-2.579,3.509,18.0
84.998,-1.085,3.832,12.0
189.811,-2.437,7.579,54.0
190.604,-2.461,6.628,16.0
0.0,0.0,0.0,0.0
206.495,-2.694,5.027,9.0
194.872,-2.556,3.741,4.0
81.149,-1.075,3.823,15.0
112.233,-1.495,4.708,11.0
106.549,-1.426,3.92,12.0
209.996,-2.824,6.623,8.0
113.198,-1.529,2.986,11.0
206.17,-2.797,4.376,5.0
81.254,-1.114,3.994,10.0
81.375,-1.12,3.579,7.0
112.331,-1.553,4.362,9.0
210.615,-2.923,7.07,10.0
112.638,-1.569,3.199,7.0
206.364,-2.886,4.799,12.0
81.895,-1.157,4.193,15.0
81.24,-1.151,3.738,13.0
112.047,-1.593,4.578,17.0
190.526,-2.719,6.784,24.0
209.598,-3.001,6.382,10.0
113.2,-1.625,2.862,14.0
73.493,-1.066,3.912,17.0
81.252,-1.182,3.906,15.0
96.498,-1.408,4.14,14.0
106.492,-1.557,4.008,17.0
210.401,-3.085,6.835,5.0
112.674,-1.657,3.079,15.0
73.311,-1.088,4.051,19.0
81.998,-1.22,4.108,11.0
81.32,-1.212,3.654,11.0
112.314,-1.678,4.456,10.0
112.747,-1.688,3.89,5.0
210.924,-3.165,6.192,5.0
61.266,-0.928,3.511,21.0
81.675,-1.239,4.259,15.0
81.162,-1.233,3.813,21.0
106.405,-1.619,4.438,16.0
106.666,-1.626,3.899,7.0
0.0,0.0,0.0,0.0
61.311,-0.944,3.639,9.0
61.18,-0.943,3.314,13.0
81.376,-1.257,3.989,17.0
95.419,-1.475,4.174,12.0
106.464,-1.647,4.106,19.0
112.705,-1.746,3.766,13.0
50.852,-0.795,3.122,22.0
61.187,-0.957,3.439,26.0
81.758,-1.279,4.172,18.0
81.367,-1.274,3.724,22.0
106.466,-1.668,4.323,16.0
112.762,-1.768,3.998,16.0
50.398,-0.797,3.197,27.0
61.094,-0.966,3.559,28.0
81.696,-1.292,4.336,18.0
81.116,-1.283,3.878,37.0
95.502,-1.511,4.07,11.0
106.35,-1.683,3.983,16.0
0.0,0.0,0.0,0.0
61.107,-0.975,3.681,8.0
61.139,-0.975,3.366,18.0
81.957,-1.306,4.08,17.0
95.397,-1.52,4.255,11.0
106.422,-1.695,4.196,15.0
48.539,-0.78,3.273,42.0
50.57,-0.811,3.147,24.0
61.131,-0.98,3.488,27.0
81.715,-1.309,4.232,36.0
81.174,-1.3,3.784,23.0
106.564,-1.705,4.416,16.0
48.49,-0.782,3.367,36.0
50.104,-0.807,3.219,28.0
61.072,-0.983,3.607,19.0
61.134,-0.982,3.287,11.0
81.22,-1.303,3.946,25.0
95.405,-1.529,4.141,16.0
48.577,-0.785,3.47,24.0
48.567,-0.783,3.217,25.0
50.809,-0.818,3.101,17.0
61.131,-0.983,3.408,17.0
81.928,-1.315,4.142,19.0
81.38,-1.303,3.693,10.0
43.246,-0.698,3.175,25.0
48.502,-0.781,3.308,36.0
50.325,-0.809,3.17,24.0
61.109,-0.98,3.526,27.0
81.692,-1.308,4.29,31.0
81.116,-1.295,3.839,29.0
42.974,-0.692,3.238,37.0
48.477,-0.779,3.401,37.0
0.0,0.0,0.0,0.0
61.091,-0.976,3.644,15.0
61.156,-0.974,3.331,23.0
81.826,-1.3,4.032,18.0
42.871,-0.686,3.315,31.0
48.632,-0.776,3.507,21.0
48.535,-0.772,3.247,31.0
50.743,-0.805,3.125,24.0
61.19,-0.968,3.45,24.0
81.742,-1.289,4.185,23.0
42.798,-0.68,3.392,41.0
42.94,-0.68,3.179,41.0
48.447,-0.764,3.334,32.0
50.328,-0.791,3.196,24.0
61.192,-0.959,3.568,21.0
61.163,-0.955,3.249,11.0
42.736,-0.672,3.47,43.0
42.824,-0.671,3.253,40.0
48.519,-0.757,3.432,33.0
48.626,-0.755,3.181,21.0
50.909,-0.788,3.065,6.0
61.183,-0.943,3.366,12.0
42.732,-0.664,3.551,43.0
42.728,-0.66,3.327,40.0
48.589,-0.748,3.53,7.0
48.504,-0.743,3.266,29.0
50.698,-0.773,3.149,34.0
61.258,-0.93,3.485,21.0
42.399,-0.648,3.604,37.0
42.474,-0.646,3.387,38.0
42.721,-0.647,3.183,39.0
48.419,-0.729,3.349,36.0
50.561,-0.758,3.234,4.0
61.482,-0.917,3.612,21.0
41.967,-0.631,3.646,49.0
42.747,-0.639,3.489,44.0
42.784,-0.636,3.267,42.0
48.449,-0.716,3.441,18.0
48.544,-0.713,3.194,31.0
50.897,-0.743,3.084,7.0
41.955,-0.617,3.722,42.0
42.798,-0.626,3.572,41.0
42.582,-0.619,3.33,35.0
42.597,-0.615,3.104,36.0
48.399,-0.695,3.273,39.0
50.722,-0.723,3.165,8.0
42.07,-0.605,3.809,41.0
42.253,-0.603,3.603,36.0
42.318,-0.6,3.386,26.0
42.492,-0.598,3.172,41.0
48.352,-0.676,3.357,24.0
48.545,-0.675,3.116,27.0
42.037,-0.588,3.881,42.0
41.961,-0.583,3.653,47.0
43.613,-0.601,3.568,19.0
42.423,-0.581,3.243,42.0
48.307,-0.656,3.439,7.0
48.399,-0.653,3.192,40.0
42.074,-0.572,3.96,43.0
41.932,-0.565,3.726,41.0
42.679,-0.57,3.567,24.0
42.131,-0.558,3.295,43.0
42.601,-0.56,3.108,43.0
48.422,-0.631,3.279,35.0
41.886,-0.55,4.016,43.0
41.953,-0.546,3.801,40.0
42.419,-0.547,3.62,26.0
42.355,-0.542,3.386,31.0
42.301,-0.536,3.159,45.0
48.24,-0.606,3.349,10.0
41.958,-0.531,4.095,36.0
42.078,-0.527,3.884,36.0
41.885,-0.52,3.645,38.0
42.199,-0.519,3.446,24.0
42.098,-0.513,3.216,43.0
42.497,-0.512,3.022,37.0
41.818,-0.507,4.154,17.0
42.175,-0.507,3.966,39.0
41.874,-0.498,3.716,40.0
41.735,-0.491,3.478,41.0
42.254,-0.492,3.298,41.0
42.374,-0.488,3.084,39.0
41.86,-0.485,4.228,19.0
41.964,-0.481,4.015,27.0
41.889,-0.474,3.786,38.0
41.597,-0.466,3.535,47.0
42.428,-0.47,3.381,31.0
42.128,-0.461,3.135,39.0
41.594,-0.458,4.269,37.0
41.651,-0.453,4.054,36.0
41.564,-0.447,3.824,42.0
41.905,-0.445,3.629,23.0
42.505,-0.445,3.456,22.0
42.188,-0.436,3.207,34.0
41.418,-0.431,4.318,39.0
41.692,-0.428,4.124,26.0
41.723,-0.423,3.905,39.0
41.598,-0.416,3.668,43.0
41.73,-0.411,3.458,25.0
41.938,-0.407,3.254,40.0
41.272,-0.403,4.368,44.0
41.688,-0.402,4.19,41.0
41.706,-0.396,3.969,43.0
41.53,-0.388,3.727,42.0
41.609,-0.383,3.513,46.0
42.028,-0.38,3.325,38.0
41.357,-0.376,4.442,43.0
41.36,-0.371,4.221,44.0
41.626,-0.367,4.025,42.0
41.561,-0.36,3.793,40.0
41.943,-0.357,3.605,27.0
41.823,-0.349,3.373,41.0
41.323,-0.347,4.501,40.0
41.309,-0.341,4.278,46.0
41.675,-0.338,4.093,37.0
41.567,-0.33,3.856,40.0
41.704,-0.325,3.647,36.0
41.797,-0.319,3.433,26.0
41.26,-0.317,4.555,32.0
41.253,-0.31,4.333,38.0
41.498,-0.306,4.137,45.0
41.756,-0.301,3.935,41.0
41.557,-0.293,3.694,40.0
41.641,-0.287,3.48,47.0
41.63,-0.288,4.658,39.0
41.211,-0.279,4.389,38.0
41.257,-0.273,4.172,41.0
41.822,-0.27,4.001,46.0
41.44,-0.26,3.743,40.0
41.499,-0.254,3.527,43.0
41.726,-0.256,4.728,37.0
41.269,-0.247,4.454,38.0
41.193,-0.239,4.224,40.0
41.76,-0.236,4.054,34.0
41.5,-0.228,3.807,44.0
41.526,-0.22,3.587,39.0
41.511,-0.222,4.761,41.0
41.281,-0.214,4.512,28.0
41.218,-0.206,4.283,42.0
41.243,-0.199,4.06,41.0
41.684,-0.194,3.88,44.0
41.329,-0.186,3.625,46.0
41.044,-0.185,4.763,43.0
41.281,-0.179,4.568,19.0
41.129,-0.171,4.329,47.0
41.205,-0.164,4.111,38.0
41.768,-0.159,3.943,38.0
41.376,-0.15,3.684,43.0
41.078,-0.149,4.823,42.0
41.166,-0.142,4.61,38.0
41.107,-0.135,4.381,42.0
41.234,-0.128,4.168,38.0
41.65,-0.122,3.986,32.0
41.896,-0.115,3.784,39.0
41.228,-0.113,4.893,45.0
41.529,-0.107,4.703,30.0
41.153,-0.098,4.438,23.0
41.276,-0.092,4.224,43.0
41.721,-0.085,4.045,44.0
41.795,-0.077,3.827,43.0
43.217,-0.079,5.183,20.0
41.464,-0.069,4.748,25.0
41.155,-0.061,4.489,36.0
41.485,-0.053,4.296,40.0
41.417,-0.046,4.065,45.0
41.997,-0.039,3.896,17.0
41.092,-0.037,4.979,42.0
41.261,-0.03,4.775,38.0
41.4,-0.022,4.565,20.0
41.582,-0.014,4.356,33.0
41.349,-0.007,4.108,46.0
42.339,0.0,3.977,42.0
41.069,0.001,5.024,34.0
41.005,0.009,4.792,18.0
41.404,0.017,4.614,21.0
41.599,0.024,4.405,30.0
41.339,0.032,4.154,42.0
42.267,0.041,4.018,25.0
41.077,0.041,5.072,41.0
40.94,0.049,4.831,30.0
41.438,0.057,4.664,16.0
41.174,0.065,4.406,37.0
41.4,0.073,4.206,46.0
41.468,0.081,3.987,36.0
41.095,0.082,5.119,40.0
40.971,0.09,4.879,33.0
41.05,0.098,4.664,35.0
41.38,0.106,4.472,31.0
41.378,0.114,4.247,47.0
41.343,0.122,4.018,47.0
40.747,0.854,5.562,49.0
40.885,0.865,5.351,39.0
40.434,0.863,5.065,36.0
40.379,0.869,4.827,41.0
40.598,0.882,4.626,43.0
40.595,0.889,4.399,43.0
41.203,0.912,5.637,41.0
40.896,0.913,5.364,42.0
40.403,0.91,5.072,38.0
40.449,0.918,4.846,40.0
40.411,0.925,4.615,40.0
40.576,0.936,4.407,41.0
41.126,0.959,5.637,38.0
40.898,0.961,5.374,40.0
40.249,0.953,5.062,46.0
40.334,0.963,4.841,36.0
40.366,0.971,4.619,26.0
40.592,0.984,4.417,40.0
40.884,1.002,5.612,46.0
40.853,1.009,5.376,43.0
40.256,1.001,5.07,42.0
40.256,1.009,4.839,29.0
40.303,1.017,4.618,35.0
40.783,1.037,4.444,30.0
40.817,1.048,5.609,42.0
40.991,1.06,5.4,38.0
40.423,1.053,5.097,36.0
40.271,1.056,4.846,33.0
40.305,1.064,4.623,31.0
40.696,1.082,4.44,43.0
40.73,1.094,5.601,49.0
40.979,1.107,5.403,35.0
40.392,1.099,5.096,43.0
40.191,1.1,4.84,52.0
40.452,1.114,4.643,39.0
40.746,1.13,4.448,36.0
40.832,1.144,5.617,43.0
41.266,1.164,5.443,17.0
40.487,1.149,5.11,40.0
40.4,1.153,4.867,27.0
40.435,1.161,4.642,37.0
40.767,1.178,4.451,33.0
41.007,1.197,5.642,42.0
41.074,1.206,5.418,16.0
40.45,1.195,5.106,43.0
40.709,1.209,4.903,26.0
40.65,1.215,4.666,46.0
40.623,1.221,4.434,37.0
40.87,1.24,5.622,46.0
40.85,1.247,5.386,16.0
41.076,1.261,5.182,31.0
40.975,1.264,4.933,16.0
40.612,1.26,4.659,42.0
40.717,1.27,4.442,30.0
41.26,1.3,5.672,28.0
40.628,1.287,5.353,35.0
41.133,1.31,5.186,34.0
40.933,1.31,4.924,17.0
40.676,1.308,4.662,30.0
40.736,1.317,4.439,38.0
41.591,1.358,5.712,34.0
40.627,1.333,5.348,42.0
41.187,1.358,5.187,33.0
40.788,1.352,4.9,25.0
41.181,1.371,4.714,38.0
40.81,1.365,4.441,43.0
42.244,1.427,5.795,9.0
40.652,1.38,5.344,41.0
41.274,1.407,5.19,30.0
41.2,1.411,4.942,28.0
41.195,1.418,4.707,41.0
41.072,1.42,4.461,16.0
42.725,1.492,5.851,1.0
40.722,1.428,5.344,40.0
41.625,1.465,5.225,32.0
41.037,1.451,4.913,8.0
41.396,1.47,4.72,26.0
40.723,1.453,4.412,37.0
40.923,1.474,5.594,30.0
40.54,1.466,5.309,40.0
41.651,1.513,5.216,34.0
40.989,1.494,4.896,37.0
0.0,0.0,0.0,0.0
40.832,1.501,4.412,36.0
40.919,1.519,5.581,36.0
40.641,1.514,5.31,40.0
41.408,1.548,5.173,17.0
41.014,1.54,4.885,36.0
0.0,0.0,0.0,0.0
40.606,1.536,4.374,35.0
40.958,1.564,5.572,35.0
40.696,1.56,5.302,34.0
40.936,1.574,5.099,27.0
41.058,1.585,4.875,3.0
0.0,0.0,0.0,0.0
40.515,1.576,4.349,35.0
40.956,1.608,5.555,19.0
40.856,1.61,5.307,38.0
41.061,1.623,5.098,16.0
47.892,1.9,5.667,0.0
0.0,0.0,0.0,0.0
40.628,1.622,4.344,35.0
40.969,1.651,5.539,35.0
40.917,1.654,5.297,38.0
41.353,1.677,5.115,16.0
44.338,1.804,5.226,4.0
40.655,1.66,4.559,31.0
40.681,1.667,4.33,22.0
48.312,1.997,6.508,12.0
40.931,1.697,5.278,12.0
43.968,1.829,5.417,3.0
45.332,1.891,5.32,4.0
40.663,1.702,4.54,37.0
40.627,1.706,4.304,35.0
48.287,2.046,6.479,10.0
45.57,1.936,5.852,20.0
41.642,1.774,5.108,13.0
41.832,1.787,4.887,21.0
40.709,1.744,4.523,41.0
40.565,1.743,4.275,37.0
48.284,2.093,6.452,10.0
45.541,1.979,5.822,20.0
41.671,1.816,5.088,33.0
45.232,1.977,5.258,5.0
40.682,1.783,4.496,40.0
40.97,1.801,4.293,31.0
48.23,2.138,6.415,14.0
41.445,1.842,5.273,12.0
41.826,1.864,5.08,36.0
41.871,1.871,4.84,8.0
40.764,1.826,4.479,23.0
41.245,1.852,4.296,30.0
48.124,2.18,6.369,13.0
41.472,1.883,5.249,29.0
41.913,1.907,5.063,36.0
41.836,1.909,4.809,40.0
44.944,2.055,4.908,5.0
41.045,1.882,4.247,36.0
48.112,2.224,6.334,9.0
41.504,1.923,5.224,44.0
41.711,1.937,5.009,36.0
41.959,1.953,4.793,38.0
40.762,1.902,4.422,36.0
40.855,1.911,4.198,39.0
48.121,2.269,6.3,7.0
41.718,1.971,5.22,16.0
41.606,1.97,4.965,42.0
42.082,1.997,4.775,28.0
40.792,1.939,4.394,25.0
40.89,1.949,4.17,36.0
50.936,2.447,6.629,5.0
44.659,2.15,5.553,3.0
41.624,2.008,4.935,46.0
42.05,2.032,4.738,22.0
40.868,1.979,4.37,31.0
41.268,2.002,4.176,34.0
48.162,2.356,6.228,4.0
41.841,2.05,5.168,29.0
41.887,2.056,4.931,35.0
45.884,2.257,5.132,21.0
40.74,2.008,4.322,42.0
41.174,2.033,4.131,36.0
41.52,2.067,5.333,11.0
41.853,2.086,5.133,30.0
41.745,2.084,4.878,41.0
46.071,2.305,5.113,11.0
40.759,2.042,4.288,44.0
40.825,2.049,4.061,40.0
41.519,2.1,5.295,36.0
41.89,2.122,5.1,23.0
42.019,2.132,4.872,42.0
40.771,2.072,4.487,39.0
40.737,2.074,4.249,40.0
40.789,2.08,4.019,42.0
41.465,2.131,5.249,35.0
41.666,2.144,5.033,34.0
41.875,2.158,4.815,30.0
40.755,2.103,4.447,38.0
40.824,2.11,4.219,24.0
40.841,2.114,3.985,36.0
41.587,2.168,5.224,30.0
41.67,2.176,4.993,40.0
41.788,2.185,4.764,35.0
40.748,2.133,4.406,37.0
40.934,2.146,4.189,15.0
40.954,2.15,3.956,37.0
41.787,2.21,5.207,17.0
41.716,2.209,4.956,35.0
41.808,2.216,4.724,36.0
40.707,2.16,4.36,35.0
45.309,2.408,4.591,6.0
40.958,2.179,3.915,31.0
40.837,2.462,4.193,2.0
0.0,0.0,0.0,0.0
45.872,2.763,4.175,6.0
40.846,2.459,3.477,57.0
41.326,2.487,3.278,28.0
41.402,2.491,3.044,40.0
45.345,2.739,4.587,4.0
44.949,2.713,4.285,28.0
41.81,2.522,3.742,16.0
41.351,2.493,3.457,39.0
41.316,2.49,3.214,18.0
41.393,2.493,2.981,39.0
45.062,2.724,4.489,21.0
45.015,2.72,4.222,19.0
41.51,2.506,3.652,41.0
41.599,2.51,3.414,34.0
41.329,2.493,3.152,19.0
41.518,2.502,2.926,36.0
44.778,2.708,4.391,45.0
45.851,2.771,4.229,14.0
41.004,2.476,3.544,33.0
41.426,2.5,3.336,27.0
41.304,2.491,3.086,33.0
41.641,2.51,2.87,39.0
44.956,2.719,4.338,37.0
45.886,2.772,4.16,8.0
41.012,2.476,3.48,40.0
41.261,2.489,3.257,29.0
41.382,2.494,3.027,39.0
41.928,2.525,2.824,41.0
44.916,2.714,4.263,34.0
41.677,2.515,3.712,29.0
41.613,2.51,3.465,40.0
41.346,2.491,3.198,16.0
41.413,2.493,2.963,39.0
42.429,2.552,2.79,34.0
45.196,2.726,4.217,13.0
41.326,2.49,3.615,39.0
41.542,2.5,3.392,37.0
41.284,2.482,3.127,34.0
41.573,2.498,2.908,35.0
42.38,2.544,2.719,10.0
41.377,2.49,3.793,20.0
40.793,2.452,3.502,57.0
41.463,2.49,3.318,21.0
41.361,2.481,3.066,43.0
41.687,2.498,2.848,35.0
41.533,2.486,2.597,20.0
41.641,2.499,3.749,17.0
41.203,2.469,3.469,40.0
50.976,3.051,3.996,5.0
41.375,2.474,2.999,44.0
42.045,2.511,2.804,37.0
41.491,2.475,2.527,42.0
41.58,2.486,3.675,37.0
41.617,2.485,3.436,42.0
41.325,2.464,3.172,43.0
41.433,2.467,2.935,38.0
42.35,2.519,2.755,17.0
41.615,2.472,2.467,33.0
40.865,2.432,3.545,50.0
41.36,2.458,3.347,16.0
41.319,2.452,3.103,38.0
41.484,2.459,2.87,40.0
41.518,2.458,2.632,2.0
41.688,2.464,2.402,23.0
40.536,2.401,3.449,38.0
41.228,2.438,3.267,32.0
41.477,2.449,3.046,38.0
41.754,2.462,2.82,25.0
41.523,2.444,2.564,16.0
41.777,2.456,2.338,36.0
41.126,2.421,3.43,27.0
41.061,2.413,3.186,31.0
41.484,2.434,2.977,37.0
42.181,2.471,2.779,17.0
41.527,2.429,2.495,26.0
41.73,2.438,2.266,37.0
40.687,2.379,3.325,42.0
41.162,2.403,3.124,39.0
41.437,2.415,2.904,39.0
42.232,2.457,2.711,3.0
41.599,2.417,2.43,36.0
41.714,2.42,2.195,4.0
40.632,2.359,3.252,35.0
41.22,2.389,3.058,19.0
41.358,2.392,2.829,35.0
42.02,2.426,2.627,3.0
41.68,2.402,2.364,42.0
52.204,3.004,2.659,17.0
40.544,2.335,3.176,43.0
41.324,2.375,2.997,35.0
41.081,2.356,2.741,38.0
41.341,2.367,2.514,30.0
41.764,2.387,2.299,39.0
52.251,2.981,2.574,18.0
40.659,2.321,3.116,38.0
40.998,2.335,2.904,38.0
41.255,2.345,2.682,16.0
41.801,2.371,2.472,40.0
52.951,2.998,2.825,13.0
53.089,3.0,2.525,3.0
40.799,2.306,3.058,52.0
41.008,2.312,2.835,34.0
41.21,2.319,2.61,31.0
41.926,2.354,2.408,33.0
52.29,2.93,2.701,14.0
52.696,2.947,2.418,19.0
41.567,2.324,3.044,38.0
40.907,2.282,2.758,42.0
41.044,2.284,2.529,29.0
41.897,2.327,2.335,30.0
52.408,2.904,2.618,23.0
119.682,6.62,5.289,22.0
40.963,2.265,2.93,40.0
41.093,2.266,2.701,37.0
41.237,2.269,2.471,27.0
42.06,2.309,2.273,10.0
52.845,2.894,2.55,26.0
119.712,6.541,5.086,17.0
40.994,2.239,2.862,39.0
41.08,2.237,2.63,33.0
41.346,2.246,2.408,45.0
42.05,2.279,2.201,19.0
52.847,2.857,2.461,26.0
59.443,3.206,2.425,27.0
40.931,2.205,2.788,42.0
40.998,2.203,2.556,44.0
41.75,2.238,2.36,36.0
59.339,3.172,3.006,10.0
59.391,3.167,2.665,14.0
59.408,3.16,2.323,40.0
41.064,2.181,2.728,35.0
41.051,2.175,2.489,40.0
59.334,3.135,3.254,7.0
59.35,3.127,2.906,20.0
59.391,3.121,2.565,20.0
59.404,3.113,2.223,41.0
40.944,2.142,2.65,41.0
41.655,2.173,2.455,33.0
59.378,3.089,3.156,9.0
59.374,3.08,2.807,9.0
59.398,3.073,2.465,28.0
59.416,3.065,2.123,36.0
40.938,2.108,2.58,48.0
41.767,2.143,2.391,43.0
52.925,2.708,2.724,27.0
59.372,3.029,2.707,22.0
59.416,3.022,2.366,27.0
59.457,3.015,2.024,23.0
41.191,2.084,2.527,19.0
41.804,2.108,2.323,16.0
52.815,2.655,2.629,26.0
59.423,2.978,2.609,15.0
59.493,2.972,2.269,27.0
124.96,6.223,4.046,2.0
41.764,2.075,2.492,28.0
41.76,2.067,2.25,29.0
59.448,2.933,2.86,13.0
59.495,2.925,2.512,9.0
0.0,0.0,0.0,0.0
0.0,0.0,0.0,0.0
41.774,2.035,2.422,33.0
59.465,2.887,3.105,10.0
59.471,2.877,2.762,17.0
65.905,3.177,2.674,2.0
0.0,0.0,0.0,0.0
0.0,0.0,0.0,0.0
41.758,1.992,2.352,27.0
59.467,2.827,3.006,23.0
52.894,2.505,2.369,8.0
190.044,8.969,7.397,8.0
61.78,2.905,2.049,2.0
61.086,2.861,1.674,13.0
52.951,2.472,2.895,19.0
59.593,2.771,2.914,4.0
53.07,2.458,2.289,15.0
0.0,0.0,0.0,0.0
62.496,2.872,1.969,11.0
61.5,2.815,1.584,8.0
52.959,2.415,2.809,13.0
52.861,2.4,2.498,10.0
52.742,2.386,2.189,22.0
66.126,2.978,2.356,8.0
63.322,2.84,1.892,13.0
62.334,2.784,1.503,6.0
52.912,2.353,2.719,3.0
66.055,2.926,3.014,10.0
66.045,2.913,2.633,13.0
66.04,2.9,2.247,25.0
64.182,2.806,1.814,16.0
63.398,2.759,1.426,12.0
65.964,2.858,3.283,12.0
65.94,2.845,2.902,10.0
66.011,2.834,2.525,23.0
66.035,2.822,2.139,33.0
66.064,2.811,1.76,34.0
66.104,2.8,1.381,21.0
52.796,2.225,2.543,20.0
65.984,2.767,2.798,23.0
66.042,2.756,2.42,35.0
66.099,2.745,2.036,29.0
66.2,2.736,1.658,21.0
120.096,4.941,2.319,9.0
66.039,2.702,3.076,15.0
66.056,2.69,2.697,25.0
66.133,2.679,2.319,23.0
194.905,7.853,5.694,21.0
120.091,4.814,2.818,11.0
120.137,4.791,2.129,15.0
66.148,2.623,2.977,9.0
66.181,2.61,2.597,25.0
190.743,7.481,6.388,7.0
194.848,7.603,5.387,13.0
120.115,4.661,2.631,12.0
120.107,4.637,1.942,21.0
66.211,2.54,2.877,21.0
190.735,7.275,7.189,22.0
195.441,7.41,6.242,7.0
120.082,4.527,3.133,21.0
120.086,4.502,2.445,24.0
72.479,2.701,1.059,11.0
72.528,2.686,3.039,19.0
72.483,2.667,2.62,23.0
72.459,2.65,2.203,28.0
72.431,2.633,1.779,29.0
72.397,2.616,1.362,25.0
72.357,2.598,0.947,26.0
72.41,2.582,2.923,30.0
72.4,2.565,2.507,35.0
72.392,2.548,2.091,34.0
72.362,2.531,1.668,36.0
72.359,2.515,1.253,35.0
72.343,2.497,0.838,30.0
72.412,2.48,2.814,34.0
72.413,2.463,2.398,36.0
72.391,2.445,1.981,35.0
72.396,2.429,1.559,40.0
72.379,2.411,1.144,36.0
72.362,2.395,0.729,30.0
72.485,2.379,2.709,30.0
72.525,2.363,2.294,23.0
72.517,2.345,1.878,23.0
72.488,2.327,1.455,20.0
72.488,2.31,1.04,25.0
72.446,2.291,0.624,26.0
190.743,5.979,6.849,21.0
206.458,6.422,6.228,6.0
74.628,2.302,1.823,6.0
74.319,2.275,1.382,3.0
74.13,2.252,0.955,5.0
78.797,2.374,0.563,11.0
78.865,2.353,2.717,26.0
78.873,2.334,2.265,21.0
76.431,2.244,1.758,7.0
76.058,2.213,1.306,9.0
76.288,2.201,0.874,7.0
78.684,2.251,0.451,7.0
78.806,2.231,2.603,25.0
78.794,2.211,2.152,22.0
78.815,2.193,1.701,25.0
78.731,2.169,1.24,20.0
78.812,2.152,0.791,21.0
71.947,1.947,0.311,14.0
78.869,2.11,2.495,25.0
78.887,2.09,2.044,34.0
78.947,2.073,1.595,32.0
78.956,2.052,1.135,35.0
78.927,2.031,0.684,32.0
71.638,1.825,0.211,14.0
85.363,2.149,2.583,12.0
85.329,2.126,2.094,26.0
85.308,2.101,1.605,28.0
85.245,2.078,1.108,34.0
85.003,2.05,0.62,17.0
71.434,1.704,0.113,7.0
85.233,2.008,2.464,32.0
85.228,1.984,1.977,36.0
85.247,1.962,1.49,39.0
85.231,1.939,0.995,37.0
84.868,1.909,0.506,10.0
69.145,1.536,0.017,2.0
85.276,1.868,2.353,34.0
85.28,1.845,1.866,40.0
85.289,1.822,1.378,36.0
85.298,1.799,0.883,37.0
84.684,1.762,0.394,2.0
70.007,1.438,-0.073,3.0
87.04,1.76,2.287,5.0
87.306,1.741,1.796,14.0
87.44,1.721,1.301,25.0
91.939,1.784,0.834,14.0
77.819,1.489,0.263,5.0
0.0,0.0,0.0,0.0
91.843,1.703,2.298,35.0
91.743,1.675,1.773,16.0
90.656,1.63,1.235,2.0
91.805,1.625,0.718,26.0
77.477,1.351,0.165,3.0
0.0,0.0,0.0,0.0
91.928,1.547,2.187,33.0
91.904,1.52,1.662,41.0
91.914,1.495,1.139,41.0
91.771,1.465,0.605,11.0
75.199,1.179,0.068,2.0
0.0,0.0,0.0,0.0
119.954,1.808,2.707,73.0
98.62,1.458,1.664,25.0
98.653,1.43,1.103,25.0
85.307,1.211,0.46,10.0
74.872,1.041,-0.022,1.0
0.0,0.0,0.0,0.0
98.557,1.309,2.107,32.0
98.515,1.28,1.545,29.0
98.537,1.251,0.985,27.0
85.107,1.055,0.358,11.0
0.0,0.0,0.0,0.0
46.263,0.546,-0.331,0.0
98.577,1.132,1.993,31.0
98.596,1.102,1.432,29.0
98.483,1.071,0.871,16.0
85.429,0.904,0.261,1.0
0.0,0.0,0.0,0.0
45.775,0.457,-0.379,0.0
104.738,1.012,2.0,21.0
99.264,0.929,1.331,10.0
98.388,0.89,0.76,16.0
83.521,0.731,0.163,1.0
0.0,0.0,0.0,0.0
42.869,0.349,-0.403,0.0
100.496,0.785,1.808,1.0
100.633,0.755,1.239,5.0
104.691,0.753,0.694,6.0
0.0,0.0,0.0,0.0
0.0,0.0,0.0,0.0
42.755,0.268,-0.448,1.0
111.059,0.66,1.879,9.0
111.096,0.626,1.25,6.0
97.548,0.52,0.544,2.0
0.0,0.0,0.0,0.0
0.0,0.0,0.0,0.0
40.06,0.176,-0.461,0.0
119.863,0.489,1.906,76.0
111.12,0.417,1.137,7.0
94.616,0.327,0.432,5.0
0.0,0.0,0.0,0.0
49.735,0.14,-0.341,0.0
0.0,0.0,0.0,0.0
111.114,0.243,1.656,18.0
111.191,0.207,1.027,8.0
0.0,0.0,0.0,0.0
0.0,0.0,0.0,0.0
45.786,0.041,-0.358,1.0
37.517,0.022,-0.506,0.0
111.083,0.03,1.549,13.0
111.109,-0.004,0.92,10.0
95.45,-0.035,0.25,1.0
0.0,0.0,0.0,0.0
45.403,-0.046,-0.398,1.0
35.284,-0.047,-0.509,0.0
119.715,-0.197,1.558,9.0
111.076,-0.22,0.817,12.0
0.0,0.0,0.0,0.0
0.0,0.0,0.0,0.0
45.032,-0.133,-0.436,1.0
35.169,-0.115,-0.539,0.0
119.737,-0.431,1.45,17.0
111.107,-0.436,0.718,6.0
78.853,-0.335,0.064,0.0
0.0,0.0,0.0,0.0
0.0,0.0,0.0,0.0
0.0,0.0,0.0,0.0
119.693,-0.667,1.346,18.0
110.826,-0.655,0.62,3.0
0.0,0.0,0.0,0.0
0.0,0.0,0.0,0.0
0.0,0.0,0.0,0.0
32.066,-0.232,-0.547,0.0
119.686,-0.905,1.246,19.0
0.0,0.0,0.0,0.0
0.0,0.0,0.0,0.0
0.0,0.0,0.0,0.0
0.0,0.0,0.0,0.0
31.698,-0.293,-0.566,0.0
119.756,-1.146,1.151,150.0
0.0,0.0,0.0,0.0
0.0,0.0,0.0,0.0
0.0,0.0,0.0,0.0
37.536,-0.41,-0.488,0.0
0.0,0.0,0.0,0.0
139.229,-1.615,1.232,27.0
0.0,0.0,0.0,0.0
0.0,0.0,0.0,0.0
47.262,-0.596,-0.384,1.0
0.0,0.0,0.0,0.0
30.49,-0.405,-0.59,0.0
138.873,-1.888,1.129,24.0
0.0,0.0,0.0,0.0
0.0,0.0,0.0,0.0
46.832,-0.684,-0.413,0.0
0.0,0.0,0.0,0.0
0.0,0.0,0.0,0.0
138.849,-2.167,1.034,15.0
0.0,0.0,0.0,0.0
0.0,0.0,0.0,0.0
0.0,0.0,0.0,0.0
35.043,-0.595,-0.529,1.0
29.458,-0.51,-0.61,0.0
139.03,-2.452,0.946,12.0
0.0,0.0,0.0,0.0
0.0,0.0,0.0,0.0
44.862,-0.838,-0.454,0.0
34.272,-0.652,-0.539,0.0
29.11,-0.564,-0.621,0.0
138.826,-2.733,0.859,7.0
81.45,-1.632,0.047,1.0
0.0,0.0,0.0,0.0
0.0,0.0,0.0,0.0
0.0,0.0,0.0,0.0
28.773,-0.617,-0.631,0.0
138.911,-3.018,0.78,3.0
0.0,0.0,0.0,0.0
54.5,-1.222,-0.304,0.0
40.694,-0.927,-0.459,0.0
33.996,-0.787,-0.574,0.0
27.943,-0.656,-0.628,0.0
0.0,0.0,0.0,0.0
0.0,0.0,0.0,0.0
0.0,0.0,0.0,0.0
0.0,0.0,0.0,0.0
31.338,-0.79,-0.545,0.0
21.907,-0.56,-0.503,152.0
0.0,0.0,0.0,0.0
0.0,0.0,0.0,0.0
48.082,-1.277,-0.317,0.0
38.27,-1.03,-0.47,0.0
31.836,-0.868,-0.569,0.0
21.872,-0.604,-0.513,173.0
0.0,0.0,0.0,0.0
0.0,0.0,0.0,0.0
0.0,0.0,0.0,0.0
37.947,-1.099,-0.483,0.0
0.0,0.0,0.0,0.0
21.896,-0.65,-0.523,8.0
0.0,0.0,0.0,0.0
0.0,0.0,0.0,0.0
47.575,-1.459,-0.354,0.0
37.853,-1.174,-0.497,0.0
31.324,-0.983,-0.586,0.0
0.0,0.0,0.0,0.0
0.0,0.0,0.0,0.0
0.0,0.0,0.0,0.0
47.627,-1.558,-0.372,0.0
37.888,-1.253,-0.511,1.0
31.035,-1.037,-0.591,0.0
26.406,-0.893,-0.65,0.0
0.0,0.0,0.0,0.0
0.0,0.0,0.0,0.0
46.861,-1.629,-0.382,0.0
0.0,0.0,0.0,0.0
0.0,0.0,0.0,0.0
0.0,0.0,0.0,0.0
0.0,0.0,0.0,0.0
0.0,0.0,0.0,0.0
0.0,0.0,0.0,0.0
0.0,0.0,0.0,0.0
30.282,-1.137,-0.595,0.0
26.099,-0.99,-0.658,0.0
0.0,0.0,0.0,0.0
0.0,0.0,0.0,0.0
45.141,-1.755,-0.393,0.0
0.0,0.0,0.0,0.0
0.0,0.0,0.0,0.0
25.971,-1.038,-0.661,0.0
0.0,0.0,0.0,0.0
0.0,0.0,0.0,0.0
47.46,-1.943,-0.423,0.0
0.0,0.0,0.0,0.0
0.0,0.0,0.0,0.0
25.688,-1.079,-0.659,0.0
0.0,0.0,0.0,0.0
0.0,0.0,0.0,0.0
43.234,-1.858,-0.393,0.0
34.788,-1.507,-0.513,0.0
0.0,0.0,0.0,0.0
25.723,-1.134,-0.664,0.0
0.0,0.0,0.0,0.0
0.0,0.0,0.0,0.0
20.022,-0.901,-0.185,2.0
20.041,-0.909,-0.298,3.0
20.064,-0.918,-0.409,0.0
0.0,0.0,0.0,0.0
0.0,0.0,0.0,0.0
20.012,-0.934,-0.076,16.0
19.994,-0.94,-0.187,25.0
20.012,-0.949,-0.3,23.0
20.031,-0.957,-0.411,25.0
20.071,-0.967,-0.523,17.0
20.032,-0.968,0.032,5.0
19.986,-0.974,-0.077,27.0
19.983,-0.981,-0.188,32.0
20.009,-0.989,-0.301,26.0
20.02,-0.997,-0.412,32.0
20.052,-1.007,-0.523,31.0
19.987,-1.007,0.031,19.0
19.982,-1.014,-0.078,28.0
20.001,-1.022,-0.189,26.0
20.01,-1.03,-0.301,17.0
20.032,-1.038,-0.412,18.0
20.066,-1.048,-0.524,23.0
19.974,-1.046,0.031,34.0
19.992,-1.054,-0.078,20.0
20.031,-1.064,-0.189,4.0
35.062,-1.875,-0.528,0.0
29.643,-1.597,-0.609,0.0
25.4,-1.378,-0.662,0.0
19.992,-1.087,0.032,25.0
20.023,-1.096,-0.077,8.0
44.614,-2.46,-0.419,0.0
0.0,0.0,0.0,0.0
29.525,-1.649,-0.605,0.0
25.752,-1.448,-0.67,0.0
20.028,-1.129,0.034,9.0
0.0,0.0,0.0,0.0
20.031,-1.144,-0.186,0.0
19.995,-1.149,-0.298,0.0
19.996,-1.157,-0.408,16.0
19.991,-1.164,-0.518,42.0
20.023,-1.168,0.036,29.0
20.005,-1.175,-0.073,151.0
19.99,-1.181,-0.183,151.0
19.981,-1.188,-0.295,151.0
19.979,-1.195,-0.405,150.0
19.982,-1.203,-0.515,150.0
19.978,-1.205,0.039,150.0
19.995,-1.213,-0.07,152.0
20.027,-1.223,-0.18,24.0
20.061,-1.232,-0.293,6.0
20.09,-1.241,-0.404,18.0
20.104,-1.249,-0.514,15.0
20.01,-1.246,0.042,26.0
20.006,-1.253,-0.066,27.0
20.026,-1.261,-0.176,29.0
20.064,-1.271,-0.289,23.0
20.065,-1.279,-0.399,28.0
20.088,-1.288,-0.51,31.0
19.995,-1.284,0.047,30.0
19.995,-1.291,-0.062,30.0
20.004,-1.299,-0.172,31.0
20.045,-1.309,-0.284,26.0
20.064,-1.317,-0.394,28.0
20.087,-1.326,-0.505,25.0
20.0,-1.322,0.052,22.0
19.993,-1.329,-0.056,25.0
20.023,-1.338,-0.166,25.0
20.022,-1.345,-0.278,19.0
20.055,-1.355,-0.388,9.0
25.92,-1.76,-0.644,0.0
20.021,-1.362,0.058,8.0
20.01,-1.368,-0.051,15.0
20.027,-1.376,-0.16,7.0
19.924,-1.376,-0.27,0.0
30.963,-2.15,-0.59,0.0
26.593,-1.856,-0.652,0.0
63.335,-4.425,0.205,2.0
48.819,-3.428,-0.108,0.0
45.255,-3.193,-0.347,0.0
38.362,-2.721,-0.508,0.0
31.06,-2.214,-0.581,0.0
26.995,-1.934,-0.652,0.0
82.305,-5.903,0.297,3.0
0.0,0.0,0.0,0.0
40.875,-2.96,-0.298,1.0
39.747,-2.892,-0.511,0.0
32.08,-2.346,-0.587,0.0
27.349,-2.01,-0.65,0.0
81.313,-5.982,0.325,11.0
0.0,0.0,0.0,0.0
40.57,-3.012,-0.279,0.0
35.702,-2.663,-0.444,1.0
31.803,-2.383,-0.569,0.0
27.547,-2.074,-0.643,0.0
82.855,-6.245,0.367,9.0
45.289,-3.428,-0.045,1.0
40.34,-3.068,-0.26,15.0
33.732,-2.577,-0.405,1.0
32.302,-2.478,-0.563,1.0
27.652,-2.131,-0.633,0.0
67.866,-5.235,0.332,91.0
55.782,-4.322,-0.03,5.0
40.65,-3.163,-0.242,9.0
35.197,-2.751,-0.405,11.0
29.751,-2.336,-0.504,1.0
27.838,-2.195,-0.623,0.0
82.007,-6.471,0.442,5.0
55.321,-4.383,-0.002,3.0
40.661,-3.235,-0.222,6.0
35.497,-2.836,-0.39,14.0
28.96,-2.323,-0.476,1.0
27.386,-2.206,-0.599,1.0
85.413,-6.888,0.507,4.0
61.802,-5.004,0.03,2.0
40.622,-3.303,-0.2,1.0
35.569,-2.903,-0.371,24.0
29.615,-2.427,-0.47,15.0
25.7,-2.115,-0.548,3.0
85.32,-7.026,0.554,9.0
56.374,-4.66,0.06,5.0
45.154,-3.748,-0.196,12.0
